passes_logs/2026/01/12/R4.6S_Anadyr/R4.6S_Anadyr__20260112_223655_TY-42_rec.log

#Pass ID: 20260112_223655_TY-42
#Satellite: TY-42
#Configuration: TY-42_900M
#almurnet v.1.7.20251203
#Start time: 2026-01-12 22:37:30

#Version: 2.2.20231116
#Station: R4.6S_Anadyr
#Location: 177.4865 lon 64.73178 lat
#TLE: 1 64048U 25103A   26012.66797454  .00008010  00000-0  38191-3 0 09996
#TLE: 2 64048 097.4120 088.1293 0001877 092.3162 302.2280 15.19166642 36461

#Time	Az	El	Level	Level2	SNR	BER	BlckErr	Temp	State	Recorded	gain1	gain2
2026-01-12 22:37:30.99	21.35	2.23	-48.6	-49.9	3.4	0.00e+00	0	29	0	0	60	38221
2026-01-12 22:37:31.99	21.40	2.30	-47.5	-49.9	6.1	0.00e+00	0	29	104	0	60	38384
2026-01-12 22:37:33.00	21.46	2.37	-47.5	-50.0	6.1	0.00e+00	0	28	104	0	60	38536
2026-01-12 22:37:34.01	21.52	2.43	-47.5	-50.0	6.1	0.00e+00	0	29	104	0	60	38637
2026-01-12 22:37:35.02	21.58	2.50	-47.5	-50.0	6.1	0.00e+00	0	29	104	0	60	38571
2026-01-12 22:37:36.03	21.64	2.57	-47.5	-49.9	6.1	0.00e+00	0	29	104	0	60	38445
2026-01-12 22:37:37.04	21.70	2.64	-47.5	-49.9	6.1	0.00e+00	0	29	104	0	60	38495
2026-01-12 22:37:38.05	21.76	2.71	-47.5	-49.9	6.1	0.00e+00	0	29	104	0	60	38351
2026-01-12 22:37:39.05	21.82	2.77	-47.5	-49.9	6.1	0.00e+00	0	29	104	0	60	38374
2026-01-12 22:37:40.07	21.88	2.84	-47.5	-50.0	6.1	0.00e+00	0	29	104	0	60	38515
2026-01-12 22:37:41.07	21.94	2.91	-47.5	-49.9	6.1	0.00e+00	0	29	104	0	60	38476
2026-01-12 22:37:42.08	22.00	2.98	-47.5	-50.0	6.1	0.00e+00	0	29	104	0	60	38584
2026-01-12 22:37:43.09	22.06	3.05	-47.5	-49.9	6.1	0.00e+00	0	29	104	0	60	38377
2026-01-12 22:37:44.10	22.12	3.12	-47.5	-49.9	6.1	0.00e+00	0	29	104	0	60	38471
2026-01-12 22:37:45.11	22.18	3.19	-47.5	-49.9	6.1	0.00e+00	0	29	104	0	60	38460
2026-01-12 22:37:46.12	22.24	3.26	-47.5	-49.9	6.1	0.00e+00	0	29	104	0	60	38458
2026-01-12 22:37:47.13	22.31	3.33	-47.5	-49.9	6.1	0.00e+00	0	29	104	0	60	38467
2026-01-12 22:37:48.14	22.37	3.40	-47.5	-49.9	6.1	0.00e+00	0	29	104	0	60	38439
2026-01-12 22:37:49.15	22.43	3.47	-47.5	-49.9	6.1	0.00e+00	0	29	104	0	60	38430
2026-01-12 22:37:50.16	22.50	3.55	-32.2	-32.6	12.2	0.00e+00	0	29	104	0	40	16430
2026-01-12 22:37:51.17	22.56	3.62	-30.0	-30.4	14.7	0.00e+00	0	29	0	33554432	36	16132
2026-01-12 22:37:52.18	22.62	3.69	-28.8	-29.3	15.1	4.16e-02	0	29	0	142606336	34	15875
2026-01-12 22:37:53.19	22.69	3.76	-28.1	-28.5	15.4	4.16e-02	0	29	0	260046848	32	16347
2026-01-12 22:37:54.19	22.75	3.83	-28.4	-28.8	15.3	3.12e-03	0	29	0	369098752	32	16854
2026-01-12 22:37:55.20	22.82	3.90	-29.1	-29.5	15.0	3.12e-03	0	29	0	486539264	32	18297
2026-01-12 22:37:56.21	22.89	3.98	-30.7	-31.1	14.4	5.14e-03	0	29	0	603979776	34	19674
2026-01-12 22:37:57.23	22.95	4.05	-32.9	-33.3	13.2	5.14e-03	0	29	0	713031680	38	20120
2026-01-12 22:37:58.24	23.02	4.12	-32.4	-32.7	13.9	5.14e-03	0	29	0	822083584	44	13241
2026-01-12 22:37:59.25	23.09	4.20	-34.3	-34.6	11.0	0.00e+00	927	29	104	889192448	54	9293
2026-01-12 22:38:00.26	23.15	4.27	-45.1	-46.6	7.5	0.00e+00	0	29	104	889192448	60	26203
2026-01-12 22:38:01.27	23.22	4.34	-40.2	-40.8	9.4	0.00e+00	1956	29	104	889192448	58	14992
2026-01-12 22:38:02.28	23.29	4.42	-31.2	-31.6	13.9	0.00e+00	0	29	0	989855744	38	16521
2026-01-12 22:38:03.28	23.36	4.49	-45.8	-47.5	6.1	6.38e-02	0	29	104	1023410176	60	29209
2026-01-12 22:38:04.29	23.43	4.57	-32.2	-32.6	13.5	0.00e+00	4142	29	104	1023410176	40	16428
2026-01-12 22:38:05.30	23.50	4.64	-31.7	-32.0	13.9	5.72e-02	0	29	0	1132462080	38	17337
2026-01-12 22:38:06.31	23.57	4.71	-32.0	-32.3	13.8	5.72e-02	0	29	0	1249902592	38	17970
2026-01-12 22:38:07.32	23.64	4.79	-32.1	-32.4	13.8	3.20e-02	0	29	0	1358954496	38	18098
2026-01-12 22:38:08.33	23.71	4.87	-31.0	-31.4	14.4	3.20e-02	0	29	0	1476395008	38	16139
2026-01-12 22:38:09.34	23.78	4.94	-29.9	-30.2	14.9	2.30e-02	0	29	0	1585446912	36	15846
2026-01-12 22:38:10.35	23.85	5.02	-29.1	-29.5	15.1	2.30e-02	0	29	0	1694498816	34	16292
2026-01-12 22:38:11.36	23.92	5.09	-28.6	-29.0	15.3	2.30e-02	0	29	0	1811939328	32	17333
2026-01-12 22:38:12.37	23.99	5.17	-28.2	-28.6	15.5	4.24e-03	0	29	0	1929379840	32	16485
2026-01-12 22:38:13.38	24.07	5.25	-27.5	-27.8	15.7	4.24e-03	0	29	0	2038431744	30	16949
2026-01-12 22:38:14.39	24.14	5.32	-27.6	-27.9	15.7	1.19e-03	0	29	0	2155872256	30	17167
2026-01-12 22:38:15.40	24.21	5.40	-27.4	-27.8	15.8	1.19e-03	0	29	0	2273312768	30	16889
2026-01-12 22:38:16.41	24.29	5.48	-27.5	-27.9	15.8	8.50e-04	0	29	0	2382364672	30	17136
2026-01-12 22:38:17.42	24.36	5.56	-27.1	-27.5	16.0	8.50e-04	0	29	0	2499805184	30	16329
2026-01-12 22:38:18.42	24.44	5.63	-27.1	-27.5	16.0	7.41e-04	0	29	0	2608857088	30	16408
2026-01-12 22:38:19.44	24.52	5.71	-27.3	-27.6	16.0	7.41e-04	0	29	0	2717908992	30	16615
2026-01-12 22:38:20.45	24.59	5.79	-27.1	-27.5	16.0	5.94e-04	0	29	0	2835349504	30	16272
2026-01-12 22:38:21.45	24.67	5.87	-26.8	-27.2	16.1	5.94e-04	0	30	0	2952790016	30	15785
2026-01-12 22:38:22.46	24.74	5.95	-26.8	-27.2	16.2	3.98e-04	0	29	0	3061841920	30	15816
2026-01-12 22:38:23.47	24.82	6.03	-27.0	-27.3	16.1	3.60e-04	0	29	0	3179282432	28	17977
2026-01-12 22:38:24.48	24.90	6.11	-26.9	-27.3	16.1	3.60e-04	0	29	0	3288334336	28	17851
2026-01-12 22:38:25.49	24.98	6.19	-27.0	-27.4	16.1	3.60e-04	0	29	0	3397386240	28	18152
2026-01-12 22:38:26.50	25.06	6.27	-27.1	-27.5	16.1	3.71e-04	0	30	0	3514826752	28	18303
2026-01-12 22:38:27.51	25.14	6.35	-27.0	-27.4	16.1	3.71e-04	0	30	0	3632267264	28	18178
2026-01-12 22:38:28.52	25.22	6.43	-27.0	-27.4	16.1	3.71e-04	0	30	0	3741319168	28	18088
2026-01-12 22:38:29.53	25.30	6.51	-27.2	-27.5	16.0	4.58e-04	0	30	0	3858759680	28	18415
2026-01-12 22:38:30.53	25.38	6.59	-26.9	-27.3	16.1	4.58e-04	0	30	0	3967811584	28	17892
2026-01-12 22:38:31.55	25.46	6.67	-27.1	-27.5	16.1	4.69e-04	0	30	0	4085252096	28	18270
2026-01-12 22:38:32.56	25.54	6.76	-26.7	-27.1	16.2	4.69e-04	0	30	0	4202692608	28	17520
2026-01-12 22:38:33.57	25.63	6.84	-26.7	-27.1	16.2	3.11e-04	0	29	0	4311744512	28	17540
2026-01-12 22:38:34.58	25.71	6.92	-26.7	-27.0	16.2	3.11e-04	0	30	0	4429185024	28	17396
2026-01-12 22:38:35.59	25.80	7.00	-26.6	-27.0	16.2	2.67e-04	0	29	0	4538236928	28	17309
2026-01-12 22:38:36.59	25.88	7.09	-26.6	-26.9	16.3	2.67e-04	0	30	0	4647288832	28	17160
2026-01-12 22:38:37.60	25.96	7.17	-26.5	-26.9	16.3	2.18e-04	0	30	0	4764729344	28	17108
2026-01-12 22:38:38.61	26.05	7.25	-26.4	-26.8	16.3	2.18e-04	0	30	0	4882169856	28	16892
2026-01-12 22:38:39.62	26.14	7.34	-26.4	-26.8	16.3	1.80e-04	0	30	0	4991221760	28	16951
2026-01-12 22:38:40.63	26.22	7.42	-26.4	-26.8	16.3	1.80e-04	0	30	0	5108662272	28	16945
2026-01-12 22:38:41.64	26.31	7.51	-26.3	-26.7	16.3	1.03e-04	0	30	0	5217714176	28	16667
2026-01-12 22:38:42.65	26.40	7.59	-26.3	-26.6	16.4	1.03e-04	0	30	0	5335154688	28	16603
2026-01-12 22:38:43.66	26.49	7.68	-26.4	-26.7	16.3	1.42e-04	0	30	0	5452595200	28	16800
2026-01-12 22:38:44.67	26.58	7.77	-26.3	-26.7	16.4	1.42e-04	0	30	0	5561647104	28	16652
2026-01-12 22:38:45.68	26.67	7.85	-26.2	-26.6	16.4	1.42e-04	0	30	0	5670699008	28	16500
2026-01-12 22:38:46.69	26.76	7.94	-26.1	-26.5	16.4	1.42e-04	0	30	0	5788139520	28	16311
2026-01-12 22:38:47.69	26.85	8.02	-26.3	-26.7	16.4	9.80e-05	0	30	0	5897191424	28	16789
2026-01-12 22:38:48.70	26.94	8.11	-26.7	-27.1	16.3	9.80e-05	0	30	0	6014631936	28	17520
2026-01-12 22:38:49.71	27.03	8.20	-26.4	-26.8	16.4	1.31e-04	0	30	0	6132072448	28	16952
2026-01-12 22:38:50.72	27.13	8.29	-26.3	-26.7	16.4	1.31e-04	0	30	0	6241124352	28	16728
2026-01-12 22:38:51.73	27.22	8.38	-26.2	-26.5	16.4	1.31e-04	0	30	0	6358564864	28	16413
2026-01-12 22:38:52.74	27.32	8.47	-26.2	-26.6	16.4	1.14e-04	0	30	0	6467616768	28	16434
2026-01-12 22:38:53.75	27.41	8.55	-25.8	-26.2	16.5	8.71e-05	0	30	0	6585057280	28	15759
2026-01-12 22:38:54.76	27.51	8.64	-25.7	-26.1	16.5	8.71e-05	0	30	0	6694109184	28	15595
2026-01-12 22:38:55.77	27.60	8.73	-25.7	-26.1	16.5	3.26e-05	0	30	0	6811549696	26	17550
2026-01-12 22:38:56.78	27.70	8.82	-25.6	-26.0	16.5	3.26e-05	0	30	0	6920601600	26	17255
2026-01-12 22:38:57.79	27.80	8.91	-25.5	-25.9	16.5	1.63e-05	0	30	0	7038042112	26	17103
2026-01-12 22:38:58.80	27.90	9.01	-25.5	-25.9	16.6	1.63e-05	0	30	0	7155482624	26	17159
2026-01-12 22:38:59.81	28.00	9.10	-25.4	-25.8	16.6	5.40e-06	0	30	0	7264534528	26	16966
2026-01-12 22:39:00.82	28.10	9.19	-25.4	-25.8	16.6	5.40e-06	0	30	0	7381975040	26	16875
2026-01-12 22:39:01.83	28.20	9.28	-25.4	-25.8	16.6	1.63e-05	0	30	0	7491026944	26	16894
2026-01-12 22:39:02.84	28.30	9.37	-25.3	-25.7	16.6	1.63e-05	0	30	0	7600078848	26	16764
2026-01-12 22:39:03.85	28.40	9.47	-25.3	-25.7	16.6	1.63e-05	0	30	0	7717519360	26	16677
2026-01-12 22:39:04.86	28.51	9.56	-25.3	-25.7	16.6	2.17e-05	0	30	0	7834959872	26	16697
2026-01-12 22:39:05.87	28.61	9.65	-25.2	-25.6	16.6	2.17e-05	0	30	0	7944011776	26	16505
2026-01-12 22:39:06.88	28.71	9.75	-25.2	-25.6	16.6	3.81e-05	0	30	0	8061452288	26	16510
2026-01-12 22:39:07.89	28.82	9.84	-25.3	-25.7	16.6	3.81e-05	0	30	0	8170504192	26	16671
2026-01-12 22:39:08.90	28.93	9.94	-25.2	-25.6	16.7	2.72e-05	0	30	0	8287944704	26	16495
2026-01-12 22:39:09.90	29.03	10.03	-25.0	-25.4	16.6	2.72e-05	0	30	0	8405385216	26	16200
2026-01-12 22:39:10.91	29.14	10.13	-25.0	-25.4	16.6	2.72e-05	0	30	0	8514437120	26	16201
2026-01-12 22:39:11.92	29.25	10.22	-24.9	-25.3	16.5	4.35e-05	0	30	0	8623489024	26	16044
2026-01-12 22:39:12.93	29.36	10.32	-25.0	-25.4	16.5	4.35e-05	0	30	0	8740929536	26	16212
2026-01-12 22:39:13.94	29.47	10.42	-25.1	-25.5	16.6	8.17e-05	0	30	0	8849981440	26	16264
2026-01-12 22:39:14.95	29.58	10.52	-24.9	-25.3	16.6	8.17e-05	0	30	0	8967421952	26	15954
2026-01-12 22:39:15.96	29.69	10.61	-25.0	-25.4	16.7	2.72e-05	0	30	0	9084862464	26	16108
2026-01-12 22:39:16.97	29.81	10.71	-24.9	-25.3	16.7	2.72e-05	0	30	0	9193914368	26	16038
2026-01-12 22:39:17.97	29.92	10.81	-24.9	-25.3	16.7	2.17e-05	0	30	0	9311354880	26	16022
2026-01-12 22:39:18.98	30.04	10.91	-24.9	-25.3	16.7	2.17e-05	0	30	0	9420406784	26	15887
2026-01-12 22:39:19.99	30.15	11.01	-24.9	-25.3	16.7	1.08e-05	0	30	0	9529458688	26	15918
2026-01-12 22:39:21.00	30.27	11.11	-24.7	-25.1	16.7	1.08e-05	0	30	0	9655287808	24	17541
2026-01-12 22:39:22.01	30.39	11.21	-24.7	-25.2	16.7	2.17e-05	0	30	0	9764339712	24	17609
2026-01-12 22:39:23.02	30.50	11.31	-24.7	-25.1	16.8	2.17e-05	0	30	0	9873391616	24	17453
2026-01-12 22:39:24.03	30.62	11.41	-24.6	-25.0	16.8	2.17e-05	0	30	0	9990832128	24	17335
2026-01-12 22:39:25.04	30.75	11.51	-24.7	-25.1	16.8	2.17e-05	0	30	0	10099884032	24	17477
2026-01-12 22:39:26.05	30.87	11.62	-24.6	-25.0	16.8	2.17e-05	0	30	0	10217324544	24	17245
2026-01-12 22:39:27.06	30.99	11.72	-24.5	-24.9	16.8	0.00e+00	0	30	0	10334765056	24	17119
2026-01-12 22:39:28.07	31.11	11.82	-24.6	-25.0	16.8	0.00e+00	0	30	0	10443816960	24	17277
2026-01-12 22:39:29.08	31.24	11.93	-24.4	-24.8	16.8	0.00e+00	0	30	0	10552868864	24	16873
2026-01-12 22:39:30.09	31.36	12.03	-24.3	-24.7	16.9	0.00e+00	0	30	0	10670309376	24	16647
2026-01-12 22:39:31.10	31.49	12.13	-24.2	-24.6	16.9	0.00e+00	0	30	0	10779361280	24	16511
2026-01-12 22:39:32.10	31.62	12.24	-24.1	-24.5	16.9	0.00e+00	0	30	0	10896801792	24	16360
2026-01-12 22:39:33.11	31.75	12.34	-24.2	-24.6	16.9	0.00e+00	0	30	0	11014242304	24	16482
2026-01-12 22:39:34.12	31.88	12.45	-24.1	-24.5	16.9	5.40e-06	0	30	0	11123294208	24	16274
2026-01-12 22:39:35.13	32.01	12.56	-23.9	-24.3	17.0	5.40e-06	0	30	0	11240734720	24	15968
2026-01-12 22:39:36.13	32.14	12.66	-23.9	-24.4	16.9	5.40e-06	0	30	0	11349786624	24	16068
2026-01-12 22:39:37.14	32.27	12.77	-23.9	-24.3	16.9	5.40e-06	0	30	0	11458838528	24	15945
2026-01-12 22:39:38.15	32.40	12.88	-23.9	-24.3	16.9	0.00e+00	0	30	0	11584667648	24	15960
2026-01-12 22:39:39.16	32.54	12.99	-23.7	-24.2	16.9	0.00e+00	0	30	0	11693719552	22	17605
2026-01-12 22:39:40.17	32.68	13.10	-23.8	-24.2	17.0	0.00e+00	0	30	0	11802771456	22	17702
2026-01-12 22:39:41.18	32.81	13.21	-23.8	-24.2	17.0	0.00e+00	0	30	0	11920211968	22	17791
2026-01-12 22:39:42.19	32.95	13.32	-23.8	-24.2	17.0	0.00e+00	0	30	0	12029263872	22	17609
2026-01-12 22:39:43.20	33.09	13.43	-23.8	-24.3	16.9	0.00e+00	0	30	0	12146704384	22	17829
2026-01-12 22:39:44.21	33.24	13.54	-23.7	-24.1	16.9	0.00e+00	0	30	0	12264144896	22	17540
2026-01-12 22:39:45.22	33.38	13.65	-23.8	-24.2	16.9	0.00e+00	0	30	0	12373196800	22	17766
2026-01-12 22:39:46.23	33.52	13.76	-23.7	-24.2	16.9	0.00e+00	0	30	0	12482248704	22	17644
2026-01-12 22:39:47.24	33.67	13.88	-23.9	-24.3	16.9	5.40e-06	0	30	0	12599689216	22	17880
2026-01-12 22:39:48.25	33.81	13.99	-23.6	-24.1	17.0	0.00e+00	0	30	0	12708741120	22	17448
2026-01-12 22:39:49.25	33.96	14.10	-23.6	-24.1	17.0	0.00e+00	0	30	0	12826181632	22	17437
2026-01-12 22:39:50.26	34.11	14.22	-23.6	-24.0	16.9	0.00e+00	0	30	0	12943622144	22	17371
2026-01-12 22:39:51.27	34.26	14.33	-23.6	-24.0	16.9	0.00e+00	0	30	0	13052674048	22	17290
2026-01-12 22:39:52.29	34.41	14.45	-23.7	-24.1	16.9	0.00e+00	0	30	0	13170114560	22	17494
2026-01-12 22:39:53.29	34.57	14.57	-23.7	-24.1	17.0	0.00e+00	0	30	0	13279166464	22	17488
2026-01-12 22:39:54.30	34.72	14.68	-23.5	-23.9	17.0	0.00e+00	0	30	0	13396606976	22	17121
2026-01-12 22:39:55.31	34.88	14.80	-23.4	-23.8	17.0	0.00e+00	0	30	0	13514047488	22	16966
2026-01-12 22:39:56.32	35.03	14.92	-23.5	-23.9	17.0	0.00e+00	0	30	0	13623099392	22	17039
2026-01-12 22:39:57.33	35.19	15.04	-23.3	-23.7	17.0	0.00e+00	0	30	0	13732151296	22	16729
2026-01-12 22:39:58.34	35.35	15.16	-23.3	-23.7	17.0	0.00e+00	0	30	0	13849591808	22	16773
2026-01-12 22:39:59.35	35.51	15.28	-23.2	-23.6	17.0	0.00e+00	0	30	0	13958643712	22	16507
2026-01-12 22:40:00.36	35.68	15.40	-23.2	-23.7	17.0	0.00e+00	0	30	0	14076084224	22	16687
2026-01-12 22:40:01.37	35.84	15.52	-23.2	-23.6	17.0	0.00e+00	0	30	0	14193524736	22	16543
2026-01-12 22:40:02.38	36.01	15.64	-23.0	-23.4	17.1	0.00e+00	0	30	0	14302576640	22	16161
2026-01-12 22:40:03.39	36.18	15.76	-23.0	-23.4	17.1	0.00e+00	0	30	0	14411628544	22	16213
2026-01-12 22:40:04.40	36.35	15.88	-22.9	-23.3	17.1	0.00e+00	0	30	0	14529069056	22	16042
2026-01-12 22:40:05.41	36.52	16.01	-23.0	-23.5	17.1	0.00e+00	0	30	0	14646509568	22	16256
2026-01-12 22:40:06.42	36.69	16.13	-22.8	-23.2	17.1	0.00e+00	0	30	0	14755561472	22	15844
2026-01-12 22:40:07.43	36.86	16.25	-23.1	-23.5	17.1	0.00e+00	0	30	0	14873001984	22	16330
2026-01-12 22:40:08.44	37.04	16.38	-22.6	-23.0	17.2	0.00e+00	0	30	0	14982053888	20	17369
2026-01-12 22:40:09.45	37.22	16.50	-22.6	-23.0	17.1	0.00e+00	0	30	0	15099494400	20	17361
2026-01-12 22:40:10.46	37.40	16.63	-22.6	-23.0	17.1	0.00e+00	0	30	0	15216934912	20	17392
2026-01-12 22:40:11.47	37.58	16.76	-22.7	-23.1	16.9	0.00e+00	0	30	0	15325986816	20	17520
2026-01-12 22:40:12.48	37.76	16.88	-22.4	-22.9	16.9	0.00e+00	0	30	0	15443427328	20	17042
2026-01-12 22:40:13.48	37.94	17.01	-22.3	-22.8	17.0	0.00e+00	0	30	0	15552479232	20	16847
2026-01-12 22:40:14.49	38.13	17.14	-22.4	-22.9	17.0	0.00e+00	0	30	0	15661531136	20	17044
2026-01-12 22:40:15.50	38.32	17.27	-22.3	-22.7	17.0	0.00e+00	0	30	0	15778971648	20	16740
2026-01-12 22:40:16.50	38.51	17.40	-22.4	-22.9	17.0	0.00e+00	0	30	0	15888023552	20	17061
2026-01-12 22:40:17.49	38.69	17.53	-22.3	-22.7	17.2	0.00e+00	0	30	0	16005464064	20	16708
2026-01-12 22:40:18.48	38.88	17.65	-22.3	-22.7	17.2	0.00e+00	0	30	0	16114515968	20	16731
2026-01-12 22:40:19.45	39.07	17.78	-22.1	-22.6	17.2	0.00e+00	0	30	0	16223567872	20	16479
2026-01-12 22:40:20.44	39.26	17.91	-22.1	-22.5	17.2	0.00e+00	0	30	0	16332619776	20	16387
2026-01-12 22:40:21.41	39.46	18.04	-22.0	-22.4	17.2	0.00e+00	0	30	0	16450060288	20	16198
2026-01-12 22:40:22.39	39.65	18.17	-22.0	-22.5	17.2	0.00e+00	0	30	0	16550723584	20	16258
2026-01-12 22:40:23.36	39.85	18.30	-22.0	-22.5	17.1	0.00e+00	0	30	0	16668164096	20	16309
2026-01-12 22:40:24.34	40.05	18.43	-22.0	-22.4	17.1	0.00e+00	0	30	0	16768827392	20	16205
2026-01-12 22:40:25.32	40.25	18.56	-21.9	-22.3	17.2	0.00e+00	0	30	0	16886267904	20	15982
2026-01-12 22:40:26.30	40.45	18.69	-21.9	-22.3	17.2	0.00e+00	0	30	0	16995319808	20	16007
2026-01-12 22:40:27.27	40.65	18.82	-21.9	-22.3	17.2	0.00e+00	0	30	0	17104371712	20	15926
2026-01-12 22:40:28.25	40.86	18.95	-21.8	-22.3	17.2	0.00e+00	0	30	0	17213423616	20	15919
2026-01-12 22:40:29.23	41.07	19.09	-21.7	-22.1	17.2	0.00e+00	0	30	0	17322475520	18	17487
2026-01-12 22:40:30.21	41.28	19.22	-21.7	-22.1	17.2	0.00e+00	0	30	0	17439916032	18	17510
2026-01-12 22:40:31.19	41.49	19.35	-21.6	-22.0	17.2	0.00e+00	0	30	0	17540579328	18	17332
2026-01-12 22:40:32.16	41.70	19.49	-21.5	-22.0	17.3	0.00e+00	0	30	0	17658019840	18	17274
2026-01-12 22:40:33.14	41.92	19.62	-21.6	-22.0	17.3	0.00e+00	0	30	0	17758683136	18	17390
2026-01-12 22:40:34.12	42.14	19.76	-21.7	-22.1	17.3	0.00e+00	0	30	0	17876123648	18	17541
2026-01-12 22:40:35.09	42.36	19.90	-21.2	-21.7	17.3	0.00e+00	0	30	0	17985175552	18	16665
2026-01-12 22:40:36.07	42.59	20.03	-21.4	-21.8	17.3	0.00e+00	0	30	0	18094227456	18	16987
2026-01-12 22:40:37.05	42.81	20.17	-21.2	-21.6	17.2	0.00e+00	0	30	0	18203279360	18	16583
2026-01-12 22:40:38.03	43.04	20.31	-21.2	-21.7	17.3	0.00e+00	0	30	0	18312331264	18	16649
2026-01-12 22:40:39.01	43.27	20.45	-21.2	-21.6	17.3	0.00e+00	0	30	0	18429771776	18	16575
2026-01-12 22:40:39.99	43.50	20.59	-21.2	-21.6	17.3	0.00e+00	0	30	0	18530435072	18	16541
2026-01-12 22:40:40.96	43.74	20.73	-21.1	-21.5	17.3	0.00e+00	0	30	0	18647875584	18	16371
2026-01-12 22:40:41.94	43.97	20.87	-21.0	-21.5	17.3	0.00e+00	0	30	0	18748538880	18	16297
2026-01-12 22:40:42.92	44.22	21.01	-21.1	-21.5	17.2	0.00e+00	0	30	0	18865979392	18	16413
2026-01-12 22:40:43.90	44.46	21.15	-21.3	-21.8	17.2	0.00e+00	0	30	0	18975031296	18	16854
2026-01-12 22:40:44.87	44.70	21.29	-21.2	-21.6	17.3	0.00e+00	0	30	0	19084083200	18	16593
2026-01-12 22:40:45.85	44.95	21.44	-21.2	-21.7	17.3	0.00e+00	0	30	0	19193135104	18	16670
2026-01-12 22:40:46.83	45.20	21.58	-21.2	-21.6	17.4	0.00e+00	0	30	0	19302187008	18	16562
2026-01-12 22:40:47.81	45.45	21.72	-20.9	-21.4	17.3	0.00e+00	0	30	0	19419627520	18	16170
2026-01-12 22:40:48.79	45.71	21.87	-20.8	-21.3	17.3	0.00e+00	0	30	0	19520290816	16	17913
2026-01-12 22:40:49.77	45.97	22.01	-20.7	-21.2	17.4	0.00e+00	0	30	0	19637731328	16	17670
2026-01-12 22:40:50.75	46.23	22.16	-20.5	-21.0	17.4	0.00e+00	0	30	0	19738394624	16	17292
2026-01-12 22:40:51.72	46.49	22.30	-20.6	-21.1	17.3	0.00e+00	0	30	0	19855835136	16	17507
2026-01-12 22:40:52.70	46.75	22.45	-20.3	-20.8	17.4	0.00e+00	0	30	0	19964887040	16	16822
2026-01-12 22:40:53.67	47.02	22.59	-20.2	-20.6	17.4	0.00e+00	0	30	0	20073938944	16	16604
2026-01-12 22:40:54.65	47.29	22.74	-20.2	-20.7	17.4	0.00e+00	0	30	0	20182990848	16	16630
2026-01-12 22:40:55.63	47.57	22.89	-20.1	-20.6	17.5	0.00e+00	0	30	0	20292042752	16	16438
2026-01-12 22:40:56.61	47.85	23.04	-20.1	-20.6	17.5	0.00e+00	0	30	0	20409483264	16	16460
2026-01-12 22:40:57.58	48.12	23.18	-19.9	-20.4	17.4	0.00e+00	0	30	0	20510146560	16	16121
2026-01-12 22:40:58.56	48.41	23.33	-19.9	-20.4	17.4	0.00e+00	0	30	0	20627587072	16	16139
2026-01-12 22:40:59.54	48.69	23.48	-19.9	-20.4	17.5	0.00e+00	0	30	0	20736638976	16	16100
2026-01-12 22:41:00.52	48.98	23.63	-19.8	-20.2	17.5	0.00e+00	0	30	0	20845690880	16	15863
2026-01-12 22:41:01.49	49.27	23.78	-19.8	-20.3	17.4	0.00e+00	0	30	0	20954742784	14	17809
2026-01-12 22:41:02.47	49.57	23.93	-19.8	-20.3	17.4	0.00e+00	0	30	0	21063794688	14	17905
2026-01-12 22:41:03.45	49.87	24.08	-19.8	-20.2	17.5	0.00e+00	0	30	0	21172846592	14	17767
2026-01-12 22:41:04.42	50.17	24.23	-19.6	-20.1	17.5	0.00e+00	0	30	0	21281898496	14	17405
2026-01-12 22:41:05.40	50.47	24.38	-19.5	-19.9	17.4	0.00e+00	0	30	0	21390950400	14	17137
2026-01-12 22:41:06.38	50.78	24.54	-19.4	-19.8	17.4	0.00e+00	0	30	0	21500002304	14	16952
2026-01-12 22:41:07.35	51.09	24.69	-19.3	-19.8	17.5	0.00e+00	0	30	0	21617442816	14	16859
2026-01-12 22:41:08.32	51.40	24.84	-19.4	-19.9	17.5	0.00e+00	0	30	0	21726494720	14	17069
2026-01-12 22:41:09.30	51.72	24.99	-19.5	-19.9	17.5	0.00e+00	0	30	0	21835546624	14	17130
2026-01-12 22:41:10.28	52.04	25.14	-19.4	-19.9	17.5	0.00e+00	0	30	0	21944598528	14	17025
2026-01-12 22:41:11.26	52.37	25.30	-19.2	-19.6	17.5	0.00e+00	0	30	0	22053650432	14	16570
2026-01-12 22:41:12.24	52.70	25.45	-19.1	-19.6	17.5	0.00e+00	0	30	0	22162702336	14	16525
2026-01-12 22:41:13.21	53.02	25.60	-19.1	-19.6	17.6	0.00e+00	0	30	0	22271754240	14	16486
2026-01-12 22:41:14.19	53.36	25.75	-19.0	-19.4	17.6	0.00e+00	0	30	0	22380806144	14	16229
2026-01-12 22:41:15.17	53.70	25.91	-19.0	-19.4	17.5	0.00e+00	0	30	0	22489858048	14	16211
2026-01-12 22:41:16.15	54.04	26.06	-18.9	-19.4	17.5	0.00e+00	0	30	0	22598909952	14	16150
2026-01-12 22:41:17.13	54.39	26.22	-19.0	-19.5	17.5	0.00e+00	0	30	0	22716350464	14	16332
2026-01-12 22:41:18.10	54.74	26.37	-18.9	-19.4	17.4	0.00e+00	0	30	0	22825402368	14	16055
2026-01-12 22:41:19.08	55.09	26.52	-18.8	-19.3	17.4	0.00e+00	0	30	0	22934454272	12	17813
2026-01-12 22:41:20.06	55.45	26.68	-18.8	-19.2	17.4	0.00e+00	0	30	0	23043506176	12	17767
2026-01-12 22:41:21.03	55.80	26.83	-18.8	-19.2	17.5	0.00e+00	0	30	0	23152558080	12	17753
2026-01-12 22:41:22.01	56.17	26.98	-18.5	-19.0	17.6	0.00e+00	0	30	0	23261609984	12	17223
2026-01-12 22:41:22.99	56.54	27.14	-18.6	-19.1	17.5	0.00e+00	0	30	0	23370661888	12	17445
2026-01-12 22:41:23.97	56.91	27.29	-18.4	-18.9	17.5	0.00e+00	0	30	0	23479713792	12	17027
2026-01-12 22:41:24.94	57.28	27.44	-18.4	-18.9	17.6	0.00e+00	0	30	0	23588765696	12	17049
2026-01-12 22:41:25.92	57.66	27.59	-18.4	-18.9	17.5	0.00e+00	0	30	0	23706206208	12	17019
2026-01-12 22:41:26.90	58.05	27.75	-18.4	-18.8	17.6	0.00e+00	0	30	0	23806869504	12	17002
2026-01-12 22:41:27.87	58.43	27.90	-18.3	-18.7	17.6	0.00e+00	0	30	0	23924310016	12	16789
2026-01-12 22:41:28.85	58.83	28.05	-18.1	-18.6	17.6	0.00e+00	0	30	0	24024973312	12	16496
2026-01-12 22:41:29.82	59.22	28.20	-18.2	-18.7	17.6	0.00e+00	0	30	0	24142413824	12	16665
2026-01-12 22:41:30.80	59.62	28.35	-18.0	-18.5	17.6	0.00e+00	0	30	0	24251465728	12	16249
2026-01-12 22:41:31.78	60.02	28.50	-18.0	-18.5	17.6	0.00e+00	0	30	0	24360517632	12	16359
2026-01-12 22:41:32.76	60.43	28.65	-18.0	-18.5	17.6	0.00e+00	0	30	0	24469569536	12	16299
2026-01-12 22:41:33.73	60.84	28.80	-18.0	-18.5	17.5	0.00e+00	0	30	0	24578621440	12	16326
2026-01-12 22:41:34.71	61.26	28.95	-18.0	-18.5	17.5	0.00e+00	0	30	0	24696061952	12	16370
2026-01-12 22:41:35.68	61.68	29.10	-17.8	-18.3	17.6	0.00e+00	0	30	0	24796725248	12	15990
2026-01-12 22:41:36.66	62.10	29.25	-17.8	-18.3	17.6	0.00e+00	0	30	0	24914165760	12	16004
2026-01-12 22:41:37.64	62.53	29.40	-17.7	-18.1	17.6	0.00e+00	0	30	0	25014829056	10	17573
2026-01-12 22:41:38.61	62.96	29.54	-17.8	-18.3	17.6	0.00e+00	0	30	0	25132269568	10	17814
2026-01-12 22:41:39.59	63.40	29.69	-17.8	-18.3	17.6	0.00e+00	0	30	0	25241321472	10	17871
2026-01-12 22:41:40.57	63.84	29.83	-17.6	-18.1	17.6	0.00e+00	0	30	0	25350373376	10	17494
2026-01-12 22:41:41.54	64.28	29.98	-17.7	-18.2	17.6	0.00e+00	0	30	0	25459425280	10	17723
2026-01-12 22:41:42.52	64.74	30.12	-17.7	-18.2	17.6	0.00e+00	0	30	0	25568477184	10	17642
2026-01-12 22:41:43.50	65.19	30.26	-17.9	-18.3	17.6	0.00e+00	0	30	0	25685917696	10	17962
2026-01-12 22:41:44.47	65.65	30.40	-17.5	-17.9	17.7	0.00e+00	0	30	0	25786580992	10	17182
2026-01-12 22:41:45.45	66.11	30.54	-17.5	-18.0	17.6	0.00e+00	0	30	0	25904021504	10	17304
2026-01-12 22:41:46.43	66.58	30.68	-17.5	-17.9	17.7	0.00e+00	0	30	0	26004684800	10	17166
2026-01-12 22:41:47.41	67.05	30.82	-17.4	-17.8	17.6	0.00e+00	0	30	0	26122125312	10	16954
2026-01-12 22:41:48.38	67.52	30.96	-17.3	-17.8	17.7	0.00e+00	0	30	0	26231177216	10	16868
2026-01-12 22:41:49.36	68.00	31.09	-17.3	-17.8	17.7	0.00e+00	0	30	0	26340229120	10	16814
2026-01-12 22:41:50.34	68.49	31.23	-17.3	-17.8	17.6	0.00e+00	0	30	0	26449281024	10	16924
2026-01-12 22:41:51.32	68.98	31.36	-17.2	-17.7	17.6	0.00e+00	0	30	0	26558332928	10	16641
2026-01-12 22:41:52.30	69.47	31.49	-17.3	-17.8	17.6	0.00e+00	0	30	0	26667384832	10	16901
2026-01-12 22:41:53.27	69.97	31.62	-17.1	-17.6	17.6	0.00e+00	0	30	0	26776436736	10	16524
2026-01-12 22:41:54.25	70.47	31.75	-17.2	-17.7	17.6	0.00e+00	0	30	0	26885488640	10	16683
2026-01-12 22:41:55.22	70.97	31.87	-17.1	-17.6	17.7	0.00e+00	0	30	0	27002929152	10	16487
2026-01-12 22:41:56.20	71.48	32.00	-17.1	-17.5	17.7	0.00e+00	0	30	0	27111981056	10	16374
2026-01-12 22:41:57.18	72.00	32.12	-17.1	-17.5	17.6	0.00e+00	0	30	0	27221032960	10	16409
2026-01-12 22:41:58.16	72.52	32.24	-17.0	-17.5	17.6	0.00e+00	0	30	0	27330084864	10	16325
2026-01-12 22:41:59.14	73.04	32.36	-17.0	-17.5	17.6	0.00e+00	0	30	0	27439136768	10	16336
2026-01-12 22:42:00.12	73.57	32.48	-16.9	-17.4	17.6	0.00e+00	0	30	0	27548188672	10	16142
2026-01-12 22:42:01.09	74.10	32.60	-17.0	-17.4	17.6	0.00e+00	0	30	0	27657240576	10	16159
2026-01-12 22:42:02.07	74.63	32.71	-17.0	-17.4	17.6	0.00e+00	0	30	0	27766292480	10	16201
2026-01-12 22:42:03.05	75.17	32.82	-16.8	-17.3	17.6	0.00e+00	0	30	0	27883732992	10	15884
2026-01-12 22:42:04.03	75.71	32.93	-16.8	-17.2	17.6	0.00e+00	0	30	0	27992784896	10	15818
2026-01-12 22:42:05.01	76.26	33.04	-16.7	-17.2	17.5	0.00e+00	0	30	0	28101836800	8	17630
2026-01-12 22:42:05.99	76.81	33.14	-16.8	-17.3	17.6	0.00e+00	0	30	0	28210888704	8	17844
2026-01-12 22:42:06.96	77.36	33.25	-16.6	-17.1	17.6	0.00e+00	0	30	0	28319940608	8	17407
2026-01-12 22:42:07.94	77.92	33.35	-16.5	-17.0	17.6	0.00e+00	0	30	0	28428992512	8	17221
2026-01-12 22:42:08.92	78.48	33.44	-16.6	-17.0	17.6	0.00e+00	0	30	0	28538044416	8	17371
2026-01-12 22:42:09.89	79.04	33.54	-16.4	-16.9	17.6	0.00e+00	0	30	0	28647096320	8	17118
2026-01-12 22:42:10.87	79.61	33.63	-16.6	-17.0	17.5	0.00e+00	0	30	0	28756148224	8	17378
2026-01-12 22:42:11.85	80.19	33.72	-16.5	-16.9	17.6	0.00e+00	0	30	0	28865200128	8	17175
2026-01-12 22:42:12.83	80.76	33.81	-16.5	-17.0	17.5	0.00e+00	0	30	0	28982640640	8	17278
2026-01-12 22:42:13.80	81.34	33.89	-16.7	-17.1	17.5	0.00e+00	0	30	0	29091692544	8	17554
2026-01-12 22:42:14.78	81.92	33.97	-16.6	-17.1	17.5	0.00e+00	0	30	0	29200744448	8	17427
2026-01-12 22:42:15.76	82.50	34.05	-16.4	-16.8	17.5	0.00e+00	0	30	0	29309796352	8	16963
2026-01-12 22:42:16.74	83.09	34.13	-16.4	-16.9	17.5	0.00e+00	0	30	0	29418848256	8	17078
2026-01-12 22:42:17.72	83.68	34.20	-16.4	-16.8	17.5	0.00e+00	0	30	0	29527900160	8	16968
2026-01-12 22:42:18.70	84.28	34.27	-16.3	-16.7	17.5	0.00e+00	0	30	0	29645340672	8	16788
2026-01-12 22:42:19.68	84.88	34.34	-16.3	-16.8	17.5	0.00e+00	0	30	0	29746003968	8	16857
2026-01-12 22:42:20.65	85.47	34.40	-16.3	-16.8	17.5	0.00e+00	0	30	0	29863444480	8	16818
2026-01-12 22:42:21.63	86.07	34.46	-16.4	-16.8	17.5	0.00e+00	0	30	0	29972496384	8	16942
2026-01-12 22:42:22.61	86.67	34.52	-16.3	-16.7	17.5	0.00e+00	0	30	0	30081548288	8	16740
2026-01-12 22:42:23.59	87.28	34.57	-16.2	-16.7	17.4	0.00e+00	0	30	0	30190600192	8	16672
2026-01-12 22:42:24.57	87.89	34.62	-16.3	-16.8	17.5	0.00e+00	0	30	0	30299652096	8	16858
2026-01-12 22:42:25.54	88.49	34.67	-16.2	-16.6	17.4	0.00e+00	0	30	0	30400315392	8	16590
2026-01-12 22:42:26.52	89.11	34.72	-16.2	-16.7	17.5	0.00e+00	0	30	0	30517755904	8	16631
2026-01-12 22:42:27.50	89.72	34.76	-16.2	-16.7	17.5	0.00e+00	0	30	0	30626807808	8	16672
2026-01-12 22:42:28.47	90.33	34.79	-16.3	-16.7	17.4	0.00e+00	0	30	0	30735859712	8	16768
2026-01-12 22:42:29.45	90.95	34.83	-16.3	-16.8	17.5	0.00e+00	0	30	0	30844911616	8	16815
2026-01-12 22:42:30.43	91.56	34.86	-16.3	-16.7	17.5	0.00e+00	0	30	0	30962352128	8	16777
2026-01-12 22:42:31.41	92.18	34.89	-16.2	-16.7	17.4	0.00e+00	0	30	0	31071404032	8	16621
2026-01-12 22:42:32.38	92.80	34.91	-16.2	-16.7	17.4	0.00e+00	0	30	0	31180455936	8	16696
2026-01-12 22:42:33.36	93.42	34.93	-16.3	-16.8	17.4	0.00e+00	0	30	0	31289507840	8	16842
2026-01-12 22:42:34.34	94.04	34.95	-16.2	-16.7	17.4	0.00e+00	0	30	0	31398559744	8	16647
2026-01-12 22:42:35.31	94.66	34.96	-16.4	-16.8	17.4	0.00e+00	0	30	0	31507611648	8	16886
2026-01-12 22:42:36.29	95.28	34.97	-16.3	-16.7	17.3	0.00e+00	0	30	0	31616663552	8	16794
2026-01-12 22:42:37.27	95.91	34.98	-16.3	-16.7	17.3	0.00e+00	0	30	0	31725715456	8	16797
2026-01-12 22:42:38.24	96.52	34.98	-16.3	-16.8	17.3	0.00e+00	0	30	0	31834767360	8	16833
2026-01-12 22:42:39.22	97.15	34.98	-16.4	-16.9	17.3	0.00e+00	0	30	0	31952207872	8	17053
2026-01-12 22:42:40.20	97.77	34.97	-16.3	-16.7	17.3	0.00e+00	0	30	0	32052871168	8	16755
2026-01-12 22:42:41.17	98.39	34.96	-16.4	-16.8	17.3	0.00e+00	0	30	0	32170311680	8	16960
2026-01-12 22:42:42.14	99.00	34.95	-16.3	-16.7	17.3	0.00e+00	0	30	0	32270974976	8	16795
2026-01-12 22:42:43.12	99.63	34.94	-16.4	-16.8	17.3	0.00e+00	0	30	0	32388415488	8	16889
2026-01-12 22:42:44.10	100.25	34.92	-16.4	-16.8	17.3	0.00e+00	0	30	0	32497467392	8	16876
2026-01-12 22:42:45.07	100.86	34.90	-16.3	-16.7	17.3	0.00e+00	0	30	0	32606519296	8	16733
2026-01-12 22:42:46.04	101.48	34.87	-16.4	-16.8	17.3	0.00e+00	0	30	0	32715571200	8	16898
2026-01-12 22:42:47.02	102.10	34.84	-16.4	-16.8	17.3	0.00e+00	0	30	0	32824623104	8	16966
2026-01-12 22:42:48.00	102.72	34.81	-16.4	-16.8	17.3	0.00e+00	0	30	0	32933675008	8	16876
2026-01-12 22:42:48.97	103.33	34.77	-16.5	-17.0	17.3	0.00e+00	0	30	0	33042726912	8	17215
2026-01-12 22:42:49.95	103.94	34.73	-16.4	-16.8	17.3	0.00e+00	0	30	0	33151778816	8	16976
2026-01-12 22:42:50.92	104.55	34.69	-16.5	-16.9	17.3	0.00e+00	0	30	0	33269219328	8	17074
2026-01-12 22:42:51.90	105.16	34.65	-16.5	-16.9	17.3	0.00e+00	0	30	0	33378271232	8	17150
2026-01-12 22:42:52.88	105.77	34.60	-16.5	-16.9	17.3	0.00e+00	0	30	0	33487323136	8	17178
2026-01-12 22:42:53.85	106.37	34.54	-16.4	-16.9	17.3	0.00e+00	0	30	0	33596375040	8	17023
2026-01-12 22:42:54.83	106.98	34.49	-16.4	-16.8	17.3	0.00e+00	0	30	0	33705426944	8	16907
2026-01-12 22:42:55.80	107.58	34.43	-16.6	-17.0	17.3	0.00e+00	0	30	0	33814478848	8	17341
2026-01-12 22:42:56.78	108.18	34.37	-16.4	-16.9	17.4	0.00e+00	0	30	0	33923530752	8	17011
2026-01-12 22:42:57.75	108.77	34.30	-16.6	-17.0	17.4	0.00e+00	0	30	0	34032582656	8	17353
2026-01-12 22:42:58.73	109.37	34.23	-16.5	-16.9	17.4	0.00e+00	0	30	0	34141634560	8	17066
2026-01-12 22:42:59.71	109.96	34.16	-16.5	-17.0	17.4	0.00e+00	0	30	0	34259075072	8	17217
2026-01-12 22:43:00.69	110.55	34.09	-16.5	-17.0	17.4	0.00e+00	0	30	0	34359738368	8	17231
2026-01-12 22:43:01.66	111.13	34.01	-16.8	-17.2	17.4	0.00e+00	0	30	0	34477178880	8	17691
2026-01-12 22:43:02.63	111.71	33.93	-16.8	-17.2	17.5	0.00e+00	0	30	0	34577842176	8	17649
2026-01-12 22:43:03.61	112.29	33.85	-16.6	-17.0	17.4	0.00e+00	0	30	0	34695282688	8	17383
2026-01-12 22:43:04.58	112.87	33.76	-16.7	-17.1	17.4	0.00e+00	0	30	0	34804334592	8	17565
2026-01-12 22:43:05.56	113.44	33.67	-16.9	-17.3	17.5	0.00e+00	0	30	0	34913386496	8	17897
2026-01-12 22:43:06.54	114.02	33.58	-16.8	-17.2	17.5	0.00e+00	0	30	0	35022438400	8	17722
2026-01-12 22:43:07.51	114.58	33.49	-16.7	-17.1	17.5	0.00e+00	0	30	0	35131490304	8	17533
2026-01-12 22:43:08.49	115.14	33.39	-16.7	-17.1	17.5	0.00e+00	0	30	0	35240542208	8	17578
2026-01-12 22:43:09.47	115.71	33.29	-16.9	-17.3	17.5	0.00e+00	0	30	0	35349594112	8	17853
2026-01-12 22:43:10.45	116.26	33.19	-16.8	-17.2	17.5	0.00e+00	0	30	0	35458646016	8	17714
2026-01-12 22:43:11.43	116.82	33.08	-16.9	-17.3	17.5	0.00e+00	0	30	0	35567697920	8	17951
2026-01-12 22:43:12.40	117.36	32.98	-17.1	-17.5	17.5	0.00e+00	0	30	0	35685138432	8	18342
2026-01-12 22:43:13.38	117.91	32.87	-17.1	-17.5	17.5	0.00e+00	0	30	0	35794190336	8	18399
2026-01-12 22:43:14.36	118.45	32.76	-17.1	-17.5	17.6	0.00e+00	0	30	0	35903242240	8	18279
2026-01-12 22:43:15.34	118.99	32.65	-16.9	-17.3	17.6	0.00e+00	0	30	0	36012294144	8	17983
2026-01-12 22:43:16.31	119.52	32.53	-16.9	-17.3	17.6	0.00e+00	0	30	0	36121346048	8	17967
2026-01-12 22:43:17.29	120.05	32.41	-17.0	-17.4	17.6	0.00e+00	0	30	0	36230397952	8	18151
2026-01-12 22:43:18.27	120.58	32.29	-16.9	-17.3	17.6	0.00e+00	0	30	0	36339449856	8	17953
2026-01-12 22:43:19.24	121.10	32.17	-17.0	-17.4	17.6	0.00e+00	0	30	0	36448501760	8	18130
2026-01-12 22:43:20.22	121.62	32.05	-17.0	-17.5	17.7	0.00e+00	0	30	0	36557553664	8	18261
2026-01-12 22:43:21.20	122.13	31.93	-17.1	-17.5	17.7	0.00e+00	0	30	0	36674994176	8	18375
2026-01-12 22:43:22.17	122.64	31.80	-17.2	-17.6	17.7	0.00e+00	0	30	0	36784046080	8	18519
2026-01-12 22:43:23.15	123.14	31.67	-17.1	-17.5	17.7	0.00e+00	0	30	0	36893097984	8	18405
2026-01-12 22:43:24.13	123.65	31.54	-17.0	-17.4	17.8	0.00e+00	0	30	0	37002149888	8	18209
2026-01-12 22:43:25.10	124.14	31.41	-17.2	-17.6	17.7	0.00e+00	0	30	0	37111201792	8	18508
2026-01-12 22:43:26.07	124.63	31.28	-17.2	-17.6	17.8	0.00e+00	0	30	0	37220253696	8	18632
2026-01-12 22:43:27.05	125.12	31.15	-17.2	-17.6	17.7	0.00e+00	0	30	0	37329305600	8	18523
2026-01-12 22:43:28.03	125.60	31.01	-17.4	-17.8	17.8	0.00e+00	0	30	0	37438357504	8	18966
2026-01-12 22:43:29.01	126.08	30.87	-17.3	-17.7	17.8	0.00e+00	0	30	0	37547409408	8	18699
2026-01-12 22:43:29.98	126.55	30.74	-17.4	-17.8	17.8	0.00e+00	0	30	0	37656461312	8	18958
2026-01-12 22:43:30.96	127.02	30.60	-17.2	-17.7	17.8	0.00e+00	0	30	0	37773901824	8	18656
2026-01-12 22:43:31.94	127.49	30.46	-17.3	-17.7	17.9	0.00e+00	0	30	0	37874565120	8	18845
2026-01-12 22:43:32.92	127.96	30.31	-17.3	-17.7	17.9	0.00e+00	0	30	0	37992005632	8	18830
2026-01-12 22:43:33.90	128.41	30.17	-17.3	-17.8	17.9	0.00e+00	0	30	0	38092668928	8	18902
2026-01-12 22:43:34.88	128.87	30.03	-17.3	-17.7	17.9	0.00e+00	0	30	0	38210109440	8	18830
2026-01-12 22:43:35.86	129.32	29.88	-17.4	-17.8	17.9	0.00e+00	0	30	0	38319161344	8	19030
2026-01-12 22:43:36.84	129.77	29.74	-17.4	-17.9	17.9	0.00e+00	0	30	0	38428213248	8	19130
2026-01-12 22:43:37.81	130.20	29.59	-17.5	-17.9	17.9	0.00e+00	0	30	0	38537265152	8	19239
2026-01-12 22:43:38.79	130.64	29.44	-17.6	-18.1	17.9	0.00e+00	0	30	0	38646317056	8	19568
2026-01-12 22:43:39.77	131.07	29.30	-17.5	-18.0	18.0	0.00e+00	0	30	0	38763757568	8	19320
2026-01-12 22:43:40.75	131.50	29.15	-17.8	-18.2	17.9	0.00e+00	0	30	0	38864420864	8	19851
2026-01-12 22:43:41.72	131.92	29.00	-17.6	-18.1	18.0	0.00e+00	0	30	0	38981861376	10	17459
2026-01-12 22:43:42.70	132.34	28.85	-17.7	-18.1	18.0	0.00e+00	0	30	0	39090913280	10	17596
2026-01-12 22:43:43.68	132.76	28.70	-17.8	-18.3	17.9	0.00e+00	0	30	0	39199965184	10	17827
2026-01-12 22:43:44.65	133.17	28.55	-17.9	-18.4	17.9	0.00e+00	0	30	0	39309017088	10	18091
2026-01-12 22:43:45.63	133.58	28.40	-17.9	-18.3	17.9	0.00e+00	0	30	0	39418068992	10	18002
2026-01-12 22:43:46.61	133.98	28.24	-17.9	-18.3	17.9	0.00e+00	0	30	0	39527120896	10	17993
2026-01-12 22:43:47.59	134.38	28.09	-18.0	-18.5	17.9	0.00e+00	0	30	0	39636172800	10	18276
2026-01-12 22:43:48.56	134.77	27.94	-18.1	-18.6	17.9	0.00e+00	0	30	0	39753613312	10	18489
2026-01-12 22:43:49.54	135.16	27.79	-18.1	-18.5	17.9	0.00e+00	0	30	0	39854276608	10	18372
2026-01-12 22:43:50.52	135.55	27.63	-18.1	-18.6	17.9	0.00e+00	0	30	0	39971717120	10	18498
2026-01-12 22:43:51.49	135.93	27.48	-18.2	-18.6	17.9	0.00e+00	0	30	0	40080769024	10	18645
2026-01-12 22:43:52.47	136.31	27.33	-18.1	-18.6	17.9	0.00e+00	0	30	0	40189820928	10	18502
2026-01-12 22:43:53.45	136.69	27.17	-18.3	-18.7	17.9	0.00e+00	0	30	0	40298872832	10	18859
2026-01-12 22:43:54.43	137.06	27.02	-18.2	-18.6	17.8	0.00e+00	0	30	0	40407924736	10	18603
2026-01-12 22:43:55.40	137.42	26.86	-18.4	-18.9	17.8	0.00e+00	0	30	0	40525365248	10	19179
2026-01-12 22:43:56.38	137.79	26.71	-18.5	-19.0	17.8	0.00e+00	0	30	0	40626028544	10	19426
2026-01-12 22:43:57.36	138.15	26.55	-18.3	-18.7	17.8	0.00e+00	0	30	0	40743469056	10	18770
2026-01-12 22:43:58.34	138.51	26.40	-18.3	-18.8	17.8	0.00e+00	0	30	0	40844132352	10	18946
2026-01-12 22:43:59.32	138.86	26.25	-18.4	-18.9	17.8	0.00e+00	0	30	0	40961572864	10	19126
2026-01-12 22:44:00.30	139.21	26.09	-18.5	-18.9	17.7	0.00e+00	0	30	0	41070624768	10	19243
2026-01-12 22:44:01.27	139.55	25.94	-18.6	-19.1	17.8	0.00e+00	0	30	0	41179676672	10	19600
2026-01-12 22:44:02.25	139.89	25.78	-18.7	-19.1	17.7	0.00e+00	0	30	0	41288728576	10	19689
2026-01-12 22:44:03.23	140.23	25.63	-18.7	-19.2	17.7	0.00e+00	0	30	0	41397780480	12	17626
2026-01-12 22:44:04.20	140.56	25.48	-18.8	-19.2	17.7	0.00e+00	0	30	0	41515220992	12	17805
2026-01-12 22:44:05.18	140.89	25.32	-18.8	-19.3	17.7	0.00e+00	0	30	0	41615884288	12	17881
2026-01-12 22:44:06.16	141.22	25.17	-18.8	-19.3	17.7	0.00e+00	0	30	0	41733324800	12	17930
2026-01-12 22:44:07.14	141.55	25.01	-18.9	-19.4	17.7	0.00e+00	0	30	0	41833988096	12	18017
2026-01-12 22:44:08.12	141.87	24.86	-18.9	-19.4	17.6	0.00e+00	0	30	0	41951428608	12	18026
2026-01-12 22:44:09.10	142.18	24.71	-19.0	-19.5	17.6	0.00e+00	0	30	0	42060480512	12	18277
2026-01-12 22:44:10.07	142.50	24.55	-19.0	-19.5	17.6	0.00e+00	0	30	0	42169532416	12	18338
2026-01-12 22:44:11.05	142.81	24.40	-19.1	-19.5	17.6	0.00e+00	0	30	0	42278584320	12	18416
2026-01-12 22:44:12.03	143.11	24.25	-19.1	-19.5	17.6	0.00e+00	0	30	0	42387636224	12	18384
2026-01-12 22:44:13.01	143.42	24.10	-19.2	-19.7	17.6	0.00e+00	0	30	0	42505076736	12	18736
2026-01-12 22:44:13.99	143.72	23.94	-19.3	-19.8	17.6	0.00e+00	0	30	0	42605740032	12	18931
2026-01-12 22:44:14.96	144.02	23.79	-19.3	-19.8	17.6	0.00e+00	0	30	0	42723180544	12	18973
2026-01-12 22:44:15.94	144.31	23.64	-19.3	-19.8	17.6	0.00e+00	0	30	0	42823843840	12	18946
2026-01-12 22:44:16.92	144.60	23.49	-19.4	-19.9	17.5	0.00e+00	0	30	0	42941284352	12	19188
2026-01-12 22:44:17.89	144.89	23.34	-19.4	-19.9	17.5	0.00e+00	0	30	0	43050336256	12	19206
2026-01-12 22:44:18.87	145.17	23.19	-19.5	-19.9	17.5	0.00e+00	0	30	0	43159388160	12	19257
2026-01-12 22:44:19.85	145.46	23.04	-19.6	-20.1	17.5	0.00e+00	0	30	0	43268440064	12	19652
2026-01-12 22:44:20.83	145.74	22.89	-19.5	-20.0	17.5	0.00e+00	0	30	0	43377491968	12	19471
2026-01-12 22:44:21.80	146.01	22.75	-19.6	-20.1	17.5	0.00e+00	0	30	0	43494932480	12	19642
2026-01-12 22:44:22.78	146.28	22.60	-19.8	-20.3	17.5	0.00e+00	0	30	0	43595595776	14	17856
2026-01-12 22:44:23.76	146.56	22.45	-19.8	-20.3	17.5	0.00e+00	0	30	0	43713036288	14	17822
2026-01-12 22:44:24.74	146.82	22.30	-19.8	-20.3	17.5	0.00e+00	0	30	0	43813699584	14	17906
2026-01-12 22:44:25.72	147.09	22.16	-20.0	-20.5	17.5	0.00e+00	0	30	0	43931140096	14	18242
2026-01-12 22:44:26.69	147.35	22.01	-20.0	-20.5	17.4	0.00e+00	0	30	0	44040192000	14	18249
2026-01-12 22:44:27.67	147.61	21.86	-20.1	-20.5	17.4	0.00e+00	0	30	0	44149243904	14	18356
2026-01-12 22:44:28.64	147.87	21.72	-20.1	-20.5	17.4	0.00e+00	0	30	0	44258295808	14	18359
2026-01-12 22:44:29.62	148.12	21.57	-20.2	-20.7	17.5	0.00e+00	0	30	0	44367347712	14	18669
2026-01-12 22:44:30.60	148.37	21.43	-20.3	-20.7	17.4	0.00e+00	0	30	0	44476399616	14	18797
2026-01-12 22:44:31.58	148.62	21.29	-20.2	-20.7	17.4	0.00e+00	0	30	0	44585451520	14	18648
2026-01-12 22:44:32.55	148.87	21.14	-20.2	-20.7	17.4	0.00e+00	0	30	0	44702892032	14	18697
2026-01-12 22:44:33.53	149.11	21.00	-20.3	-20.7	17.4	0.00e+00	0	30	0	44803555328	14	18778
2026-01-12 22:44:34.51	149.35	20.86	-20.3	-20.7	17.4	0.00e+00	0	30	0	44920995840	14	18794
2026-01-12 22:44:35.49	149.59	20.72	-20.3	-20.7	17.4	0.00e+00	0	30	0	45030047744	14	18853
2026-01-12 22:44:36.46	149.83	20.58	-20.4	-20.8	17.4	0.00e+00	0	30	0	45139099648	14	19049
2026-01-12 22:44:37.44	150.06	20.44	-20.5	-20.9	17.4	0.00e+00	0	30	0	45248151552	14	19244
2026-01-12 22:44:38.41	150.29	20.30	-20.4	-20.9	17.4	0.00e+00	0	30	0	45357203456	14	19129
2026-01-12 22:44:39.39	150.52	20.16	-20.5	-20.9	17.4	0.00e+00	0	30	0	45466255360	14	19246
2026-01-12 22:44:40.37	150.75	20.02	-20.5	-20.9	17.4	0.00e+00	0	30	0	45575307264	14	19241
2026-01-12 22:44:41.35	150.98	19.88	-20.5	-21.0	17.4	0.00e+00	0	30	0	45692747776	14	19319
2026-01-12 22:44:42.33	151.20	19.74	-20.5	-21.0	17.3	0.00e+00	0	30	0	45793411072	14	19328
2026-01-12 22:44:43.31	151.42	19.60	-20.6	-21.0	17.3	0.00e+00	0	30	0	45910851584	14	19521
2026-01-12 22:44:44.29	151.64	19.47	-20.6	-21.0	17.3	0.00e+00	0	30	0	46019903488	14	19414
2026-01-12 22:44:45.27	151.86	19.33	-20.6	-21.1	17.3	0.00e+00	0	30	0	46128955392	14	19568
2026-01-12 22:44:46.24	152.07	19.20	-20.6	-21.1	17.4	0.00e+00	0	30	0	46238007296	16	17490
2026-01-12 22:44:47.22	152.28	19.06	-20.5	-21.0	17.3	0.00e+00	0	30	0	46347059200	16	17294
2026-01-12 22:44:48.19	152.49	18.93	-20.8	-21.2	17.3	0.00e+00	0	30	0	46456111104	16	17755
2026-01-12 22:44:49.17	152.70	18.79	-20.7	-21.1	17.3	0.00e+00	0	30	0	46565163008	16	17537
2026-01-12 22:44:50.15	152.90	18.66	-20.9	-21.3	17.3	0.00e+00	0	30	0	46682603520	16	17977
2026-01-12 22:44:51.13	153.11	18.53	-21.1	-21.6	17.3	0.00e+00	0	30	0	46783266816	16	18437
2026-01-12 22:44:52.11	153.31	18.40	-21.4	-21.9	17.2	0.00e+00	0	30	0	46900707328	16	19080
2026-01-12 22:44:53.08	153.51	18.27	-21.9	-22.3	17.2	0.00e+00	0	30	0	47009759232	18	17982
2026-01-12 22:44:54.06	153.71	18.13	-22.5	-23.0	17.1	0.00e+00	0	30	0	47118811136	18	19359
2026-01-12 22:44:55.04	153.90	18.00	-23.4	-23.8	17.0	0.00e+00	0	30	0	47227863040	20	19032
2026-01-12 22:44:56.02	154.10	17.87	-24.3	-24.8	16.8	0.00e+00	0	30	0	47336914944	22	18949
2026-01-12 22:44:57.00	154.29	17.74	-25.3	-25.7	16.5	0.00e+00	0	30	0	47445966848	24	18744
2026-01-12 22:44:57.97	154.48	17.62	-25.8	-26.2	16.3	3.26e-05	0	30	0	47555018752	26	17803
2026-01-12 22:44:58.95	154.67	17.49	-26.4	-26.9	16.2	3.26e-05	0	30	0	47672459264	26	19146
2026-01-12 22:44:59.93	154.86	17.36	-26.7	-27.1	16.1	2.94e-04	0	30	0	47781511168	26	19639
2026-01-12 22:45:00.91	155.04	17.23	-26.5	-27.0	16.1	2.94e-04	0	30	0	47890563072	26	19302
2026-01-12 22:45:01.89	155.23	17.11	-26.3	-26.8	16.3	2.94e-04	0	30	0	47999614976	26	18925
2026-01-12 22:45:02.87	155.41	16.98	-26.2	-26.6	16.4	4.47e-04	0	30	0	48108666880	26	18597
2026-01-12 22:45:03.85	155.59	16.86	-25.8	-26.3	16.5	4.47e-04	0	30	0	48217718784	26	17867
2026-01-12 22:45:04.82	155.76	16.73	-25.6	-26.0	16.6	1.47e-04	0	30	0	48326770688	26	17270
2026-01-12 22:45:05.80	155.94	16.61	-25.0	-25.5	16.7	1.47e-04	0	30	0	48435822592	26	16247
2026-01-12 22:45:06.78	156.12	16.49	-23.8	-24.3	16.9	4.35e-05	0	30	0	48544874496	24	15881
2026-01-12 22:45:07.75	156.29	16.36	-23.4	-23.9	17.0	4.35e-05	0	30	0	48662315008	22	17073
2026-01-12 22:45:08.73	156.46	16.24	-23.5	-23.9	17.0	5.40e-06	0	30	0	48771366912	22	17081
2026-01-12 22:45:09.71	156.63	16.12	-23.0	-23.4	17.1	5.40e-06	0	30	0	48880418816	22	16185
2026-01-12 22:45:10.69	156.80	16.00	-23.0	-23.4	17.1	0.00e+00	0	30	0	48989470720	22	16206
2026-01-12 22:45:11.66	156.97	15.88	-22.6	-23.0	17.2	0.00e+00	0	30	0	49098522624	20	17374
2026-01-12 22:45:12.64	157.13	15.76	-22.4	-22.9	17.2	0.00e+00	0	30	0	49207574528	20	17034
2026-01-12 22:45:13.62	157.30	15.64	-22.7	-23.1	17.1	0.00e+00	0	30	0	49316626432	20	17567
2026-01-12 22:45:14.60	157.46	15.52	-22.4	-22.8	17.2	0.00e+00	0	30	0	49434066944	20	16862
2026-01-12 22:45:15.58	157.62	15.40	-22.2	-22.6	17.2	0.00e+00	0	30	0	49534730240	20	16476
2026-01-12 22:45:16.55	157.78	15.29	-22.0	-22.4	17.2	0.00e+00	0	30	0	49652170752	20	16230
2026-01-12 22:45:17.53	157.94	15.17	-22.1	-22.5	17.2	0.00e+00	0	30	0	49761222656	20	16378
2026-01-12 22:45:18.50	158.09	15.05	-22.1	-22.5	17.2	0.00e+00	0	30	0	49870274560	20	16334
2026-01-12 22:45:19.48	158.25	14.94	-48.4	-50.9	6.1	0.00e+00	0	30	104	49937383424	60	42895
2026-01-12 22:45:20.46	158.40	14.82	-48.3	-50.8	6.1	0.00e+00	0	30	104	49937383424	60	42592
2026-01-12 22:45:21.44	158.56	14.71	-48.4	-50.9	6.1	0.00e+00	0	30	104	49937383424	60	42879
2026-01-12 22:45:22.43	158.71	14.59	-48.4	-50.9	6.1	0.00e+00	0	30	104	49937383424	60	43007
2026-01-12 22:45:23.41	158.86	14.48	-48.4	-50.9	6.1	0.00e+00	0	30	104	49937383424	60	42750
2026-01-12 22:45:24.39	159.01	14.36	-48.4	-50.9	6.1	0.00e+00	0	30	104	49937383424	60	42888
2026-01-12 22:45:25.36	159.15	14.25	-48.4	-50.9	6.1	0.00e+00	0	30	104	49937383424	60	42879
2026-01-12 22:45:26.34	159.30	14.14	-48.4	-50.8	6.1	0.00e+00	0	30	104	49937383424	60	42566
2026-01-12 22:45:27.32	159.45	14.03	-48.4	-50.9	6.1	0.00e+00	0	30	104	49937383424	60	43065
2026-01-12 22:45:28.29	159.59	13.92	-48.4	-50.8	6.1	0.00e+00	0	30	104	49937383424	60	42606
2026-01-12 22:45:29.27	159.73	13.81	-48.4	-50.8	6.1	0.00e+00	0	30	104	49937383424	60	42622
2026-01-12 22:45:30.25	159.87	13.69	-48.3	-50.8	6.1	0.00e+00	0	30	104	49937383424	60	42379
2026-01-12 22:45:31.22	160.01	13.59	-48.4	-50.9	6.1	0.00e+00	0	30	104	49937383424	60	43006
2026-01-12 22:45:32.20	160.15	13.48	-48.2	-50.7	6.1	0.00e+00	0	30	104	49937383424	60	42171
2026-01-12 22:45:33.18	160.29	13.37	-48.3	-50.8	6.1	0.00e+00	0	30	104	49937383424	60	42470
2026-01-12 22:45:34.15	160.42	13.26	-48.3	-50.7	6.1	0.00e+00	0	30	104	49937383424	60	42211
2026-01-12 22:45:35.13	160.56	13.15	-48.4	-50.9	6.1	0.00e+00	0	30	104	49937383424	60	42912
2026-01-12 22:45:36.10	160.69	13.05	-48.1	-50.6	6.1	0.00e+00	0	30	104	49937383424	60	41729
2026-01-12 22:45:37.08	160.83	12.94	-48.2	-50.7	6.1	0.00e+00	0	30	104	49937383424	60	41978
2026-01-12 22:45:38.06	160.96	12.83	-48.3	-50.8	6.1	0.00e+00	0	30	104	49937383424	60	42531
2026-01-12 22:45:39.03	161.09	12.73	-48.4	-50.9	6.1	0.00e+00	0	30	104	49937383424	60	42906
2026-01-12 22:45:40.01	161.22	12.62	-47.9	-50.4	6.1	0.00e+00	0	30	104	49937383424	60	40596
2026-01-12 22:45:40.98	161.35	12.52	-48.0	-50.6	6.1	0.00e+00	0	30	104	49937383424	60	41488
2026-01-12 22:45:41.96	161.47	12.41	-48.2	-50.7	6.1	0.00e+00	0	30	104	49937383424	60	42083
2026-01-12 22:45:42.94	161.60	12.31	-48.3	-50.8	6.1	0.00e+00	0	30	104	49937383424	60	42528
2026-01-12 22:45:43.91	161.72	12.21	-47.9	-50.5	6.1	0.00e+00	0	30	104	49937383424	60	40901
2026-01-12 22:45:44.89	161.85	12.10	-47.9	-50.5	6.1	0.00e+00	0	30	104	49937383424	60	41075
2026-01-12 22:45:45.87	161.97	12.00	-48.1	-50.5	6.1	0.00e+00	0	30	104	49937383424	60	41236
2026-01-12 22:45:46.85	162.10	11.90	-48.3	-50.8	6.1	0.00e+00	0	30	104	49937383424	60	42499
2026-01-12 22:45:47.83	162.22	11.80	-48.2	-50.7	6.1	0.00e+00	0	30	104	49937383424	60	42055
2026-01-12 22:45:48.80	162.34	11.70	-47.9	-50.4	6.1	0.00e+00	0	30	104	49937383424	60	40655
2026-01-12 22:45:49.78	162.46	11.60	-48.2	-50.7	6.1	0.00e+00	0	30	104	49937383424	60	42115
2026-01-12 22:45:50.76	162.58	11.50	-48.2	-50.7	6.1	0.00e+00	0	30	104	49937383424	60	42000
2026-01-12 22:45:51.73	162.69	11.40	-48.3	-50.8	6.1	0.00e+00	0	30	104	49937383424	60	42274
2026-01-12 22:45:52.71	162.81	11.30	-48.2	-50.7	6.1	0.00e+00	0	30	104	49937383424	60	42098
2026-01-12 22:45:53.69	162.93	11.20	-48.2	-50.7	6.1	0.00e+00	0	30	104	49937383424	60	41938
2026-01-12 22:45:54.67	163.04	11.10	-48.2	-50.6	6.1	0.00e+00	0	30	104	49937383424	60	41697
2026-01-12 22:45:55.64	163.15	11.00	-48.1	-50.6	6.1	0.00e+00	0	30	104	49937383424	60	41595
2026-01-12 22:45:56.62	163.27	10.91	-48.3	-50.8	6.1	0.00e+00	0	30	104	49937383424	60	42347
2026-01-12 22:45:57.59	163.38	10.81	-48.2	-50.7	6.1	0.00e+00	0	30	104	49937383424	60	42120
2026-01-12 22:45:58.57	163.49	10.71	-48.1	-50.6	6.1	0.00e+00	0	30	104	49937383424	60	41648
2026-01-12 22:45:59.55	163.60	10.62	-48.2	-50.7	6.1	0.00e+00	0	30	104	49937383424	60	41824
2026-01-12 22:46:00.52	163.71	10.52	-48.1	-50.6	6.1	0.00e+00	0	30	104	49937383424	60	41737
2026-01-12 22:46:01.50	163.82	10.42	-48.3	-50.7	6.1	0.00e+00	0	30	104	49937383424	60	42014
2026-01-12 22:46:02.48	163.93	10.33	-48.1	-50.6	6.1	0.00e+00	0	30	104	49937383424	60	41626
2026-01-12 22:46:03.46	164.04	10.23	-48.2	-50.7	6.1	0.00e+00	0	30	104	49937383424	60	41787
2026-01-12 22:46:04.44	164.14	10.14	-48.1	-50.6	6.1	0.00e+00	0	30	104	49937383424	60	41411
2026-01-12 22:46:05.41	164.25	10.05	-48.2	-50.7	6.1	0.00e+00	0	30	104	49937383424	60	41876
2026-01-12 22:46:06.39	164.35	9.95	-48.1	-50.6	6.1	0.00e+00	0	30	104	49937383424	60	41474
2026-01-12 22:46:07.37	164.46	9.86	-48.2	-50.7	6.1	0.00e+00	0	30	104	49937383424	60	42086
2026-01-12 22:46:08.35	164.56	9.77	-48.1	-50.6	6.1	0.00e+00	0	30	104	49937383424	60	41573
2026-01-12 22:46:09.33	164.66	9.68	-48.0	-50.5	6.1	0.00e+00	0	30	104	49937383424	60	41082
2026-01-12 22:46:10.30	164.76	9.58	-48.1	-50.6	6.1	0.00e+00	0	30	104	49937383424	60	41295
2026-01-12 22:46:11.28	164.87	9.49	-48.3	-50.8	6.1	0.00e+00	0	30	104	49937383424	60	42370
2026-01-12 22:46:12.26	164.97	9.40	-48.2	-50.7	6.1	0.00e+00	0	30	104	49937383424	60	41877
2026-01-12 22:46:13.23	165.06	9.31	-48.1	-50.6	6.1	0.00e+00	0	30	104	49937383424	60	41332
2026-01-12 22:46:14.21	165.16	9.22	-48.1	-50.6	6.1	0.00e+00	0	30	104	49937383424	60	41407
2026-01-12 22:46:15.18	165.26	9.13	-48.2	-50.7	6.1	0.00e+00	0	30	104	49937383424	60	42198
2026-01-12 22:46:16.16	165.36	9.04	-48.2	-50.7	6.1	0.00e+00	0	30	104	49937383424	60	41878
2026-01-12 22:46:17.13	165.45	8.95	-48.1	-50.6	6.1	0.00e+00	0	30	104	49937383424	60	41555
2026-01-12 22:46:18.11	165.55	8.86	-48.1	-50.6	6.1	0.00e+00	0	30	104	49937383424	60	41351
2026-01-12 22:46:19.09	165.65	8.77	-48.2	-50.7	6.1	0.00e+00	0	30	104	49937383424	60	41892
2026-01-12 22:46:20.06	165.74	8.69	-48.1	-50.6	6.1	0.00e+00	0	30	104	49937383424	60	41611
2026-01-12 22:46:21.04	165.83	8.60	-48.2	-50.6	6.1	0.00e+00	0	30	104	49937383424	60	41685
2026-01-12 22:46:22.02	165.93	8.51	-48.0	-50.5	6.1	0.00e+00	0	30	104	49937383424	60	40988
2026-01-12 22:46:22.99	166.02	8.43	-48.1	-50.6	6.1	0.00e+00	0	30	104	49937383424	60	41701
2026-01-12 22:46:23.97	166.11	8.34	-48.0	-50.5	6.1	0.00e+00	0	30	104	49937383424	60	41161
2026-01-12 22:46:24.95	166.20	8.25	-48.1	-50.6	6.1	0.00e+00	0	30	104	49937383424	60	41401
2026-01-12 22:46:25.92	166.29	8.17	-48.0	-50.5	6.1	0.00e+00	0	30	104	49937383424	60	40927
2026-01-12 22:46:26.90	166.38	8.08	-48.1	-50.6	6.1	0.00e+00	0	30	104	49937383424	60	41373
2026-01-12 22:46:27.87	166.47	8.00	-48.0	-50.5	6.1	0.00e+00	0	30	104	49937383424	60	41029
2026-01-12 22:46:28.85	166.56	7.91	-48.0	-50.5	6.1	0.00e+00	0	30	104	49937383424	60	41094
2026-01-12 22:46:29.83	166.65	7.83	-47.9	-50.3	6.1	0.00e+00	0	30	104	49937383424	60	40134
2026-01-12 22:46:30.80	166.74	7.74	-48.0	-50.6	6.1	0.00e+00	0	30	104	49937383424	60	41314
2026-01-12 22:46:31.78	166.82	7.66	-48.0	-50.5	6.1	0.00e+00	0	30	104	49937383424	60	40866
2026-01-12 22:46:32.75	166.91	7.57	-48.0	-50.5	6.1	0.00e+00	0	30	104	49937383424	60	41202
2026-01-12 22:46:33.73	167.00	7.49	-48.0	-50.5	6.1	0.00e+00	0	30	104	49937383424	60	40845
2026-01-12 22:46:34.71	167.08	7.41	-48.0	-50.5	6.1	0.00e+00	0	30	104	49937383424	60	41226
2026-01-12 22:46:35.68	167.17	7.32	-47.9	-50.4	6.1	0.00e+00	0	30	104	49937383424	60	40748
2026-01-12 22:46:36.66	167.25	7.24	-48.0	-50.5	6.1	0.00e+00	0	30	104	49937383424	60	40925
2026-01-12 22:46:37.64	167.33	7.16	-48.0	-50.4	6.1	0.00e+00	0	30	104	49937383424	60	40629
2026-01-12 22:46:38.61	167.42	7.08	-48.1	-50.6	6.1	0.00e+00	0	30	104	49937383424	60	41446
2026-01-12 22:46:39.60	167.50	7.00	-48.0	-50.4	6.1	0.00e+00	0	30	104	49937383424	60	40727
2026-01-12 22:46:40.57	167.58	6.92	-47.9	-50.4	6.1	0.00e+00	0	30	104	49937383424	60	40549
2026-01-12 22:46:41.55	167.66	6.83	-47.8	-50.3	6.1	0.00e+00	0	30	104	49937383424	60	40151
2026-01-12 22:46:42.52	167.74	6.75	-48.0	-50.5	6.1	0.00e+00	0	30	104	49937383424	60	40847
2026-01-12 22:46:43.50	167.82	6.67	-48.0	-50.5	6.1	0.00e+00	0	30	104	49937383424	60	40806
2026-01-12 22:46:44.48	167.90	6.59	-47.9	-50.4	6.1	0.00e+00	0	30	104	49937383424	60	40427
2026-01-12 22:46:45.45	167.98	6.51	-47.9	-50.4	6.1	0.00e+00	0	30	104	49937383424	60	40613
2026-01-12 22:46:46.43	168.06	6.43	-47.9	-50.4	6.1	0.00e+00	0	30	104	49937383424	60	40460
2026-01-12 22:46:47.41	168.14	6.35	-48.0	-50.5	6.1	0.00e+00	0	30	104	49937383424	60	40820
2026-01-12 22:46:48.39	168.22	6.28	-47.9	-50.4	6.1	0.00e+00	0	30	104	49937383424	60	40596
2026-01-12 22:46:49.36	168.29	6.20	-47.9	-50.4	6.1	0.00e+00	0	30	104	49937383424	60	40681
2026-01-12 22:46:50.34	168.37	6.12	-47.8	-50.3	6.1	0.00e+00	0	30	104	49937383424	60	40039
2026-01-12 22:46:51.32	168.45	6.04	-48.0	-50.4	6.1	0.00e+00	0	30	104	49937383424	60	40680
2026-01-12 22:46:52.29	168.52	5.96	-47.9	-50.4	6.1	0.00e+00	0	30	104	49937383424	60	40544
2026-01-12 22:46:53.27	168.60	5.89	-47.9	-50.4	6.1	0.00e+00	0	30	104	49937383424	60	40544
2026-01-12 22:46:54.25	168.67	5.81	-47.8	-50.3	6.1	0.00e+00	0	30	104	49937383424	60	39937
2026-01-12 22:46:55.23	168.75	5.73	-48.0	-50.4	6.1	0.00e+00	0	30	104	49937383424	60	40759
2026-01-12 22:46:56.21	168.82	5.65	-47.9	-50.4	6.1	0.00e+00	0	30	104	49937383424	60	40382
2026-01-12 22:46:57.18	168.89	5.58	-47.8	-50.3	6.1	0.00e+00	0	30	104	49937383424	60	40169
2026-01-12 22:46:58.16	168.97	5.50	-47.6	-50.1	6.1	0.00e+00	0	30	104	49937383424	60	39125
2026-01-12 22:46:59.14	169.04	5.43	-47.9	-50.4	6.1	0.00e+00	0	30	104	49937383424	60	40609
2026-01-12 22:47:00.12	169.11	5.35	-47.8	-50.3	6.1	0.00e+00	0	29	104	49937383424	60	40054
2026-01-12 22:47:01.09	169.18	5.27	-47.8	-50.3	6.1	0.00e+00	0	29	104	49937383424	60	40101
2026-01-12 22:47:02.07	169.26	5.20	-47.7	-50.2	6.1	0.00e+00	0	30	104	49937383424	60	39555
2026-01-12 22:47:03.05	169.33	5.12	-47.9	-50.4	6.1	0.00e+00	0	30	104	49937383424	60	40493
2026-01-12 22:47:04.03	169.40	5.05	-47.7	-50.2	6.1	0.00e+00	0	30	104	49937383424	60	39782
2026-01-12 22:47:05.00	169.47	4.98	-47.8	-50.3	6.1	0.00e+00	0	30	104	49937383424	60	40112
2026-01-12 22:47:05.98	169.54	4.90	-47.6	-50.1	6.1	0.00e+00	0	30	104	49937383424	60	38979
2026-01-12 22:47:06.96	169.60	4.83	-47.8	-50.3	6.1	0.00e+00	0	30	104	49937383424	60	40296
2026-01-12 22:47:07.94	169.67	4.75	-47.7	-50.2	6.1	0.00e+00	0	29	104	49937383424	60	39842
2026-01-12 22:47:08.91	169.74	4.68	-47.8	-50.3	6.1	0.00e+00	0	30	104	49937383424	60	40084
2026-01-12 22:47:09.89	169.81	4.61	-47.6	-50.1	6.1	0.00e+00	0	30	104	49937383424	60	39226
2026-01-12 22:47:10.86	169.88	4.53	-47.8	-50.3	6.1	0.00e+00	0	30	104	49937383424	60	40135
2026-01-12 22:47:11.84	169.94	4.46	-47.6	-50.2	6.1	0.00e+00	0	30	104	49937383424	60	39414
2026-01-12 22:47:12.82	170.01	4.39	-47.7	-50.2	6.1	0.00e+00	0	30	104	49937383424	60	39764
2026-01-12 22:47:13.79	170.08	4.32	-47.5	-50.0	6.1	0.00e+00	0	30	104	49937383424	60	38737
2026-01-12 22:47:14.77	170.14	4.25	-47.7	-50.2	6.1	0.00e+00	0	30	104	49937383424	60	39548
2026-01-12 22:47:15.75	170.21	4.17	-47.6	-50.1	6.1	0.00e+00	0	30	104	49937383424	60	39188
2026-01-12 22:47:16.73	170.27	4.10	-47.7	-50.2	6.1	0.00e+00	0	30	104	49937383424	60	39615
2026-01-12 22:47:17.71	170.34	4.03	-47.5	-49.9	6.1	0.00e+00	0	30	104	49937383424	60	38377
2026-01-12 22:47:18.69	170.40	3.96	-47.7	-50.1	6.1	0.00e+00	0	30	104	49937383424	60	39299
2026-01-12 22:47:19.67	170.47	3.89	-47.5	-50.0	6.1	0.00e+00	0	30	104	49937383424	60	38826
2026-01-12 22:47:20.64	170.53	3.82	-47.5	-50.0	6.1	0.00e+00	0	30	104	49937383424	60	38909
2026-01-12 22:47:21.62	170.59	3.75	-47.5	-50.0	6.1	0.00e+00	0	30	104	49937383424	60	38820
2026-01-12 22:47:22.60	170.66	3.68	-47.5	-50.0	6.1	0.00e+00	0	30	104	49937383424	60	38822
2026-01-12 22:47:23.58	170.72	3.61	-47.5	-50.0	6.1	0.00e+00	0	30	104	49937383424	60	38654
2026-01-12 22:47:24.55	170.78	3.54	-47.4	-49.9	6.1	0.00e+00	0	30	104	49937383424	60	38267
2026-01-12 22:47:25.53	170.84	3.47	-47.5	-49.9	6.1	0.00e+00	0	30	104	49937383424	60	38259
2026-01-12 22:47:26.52	170.90	3.40	-47.5	-50.0	6.1	0.00e+00	0	30	104	49937383424	60	38576
2026-01-12 22:47:27.49	170.96	3.33	-47.5	-50.0	6.1	0.00e+00	0	30	104	49937383424	60	38633
2026-01-12 22:47:28.47	171.03	3.26	-47.4	-49.9	6.1	0.00e+00	0	29	104	49937383424	60	38155
2026-01-12 22:47:29.44	171.09	3.19	-47.4	-49.9	6.1	0.00e+00	0	29	104	49937383424	60	38345
2026-01-12 22:47:30.42	171.15	3.12	-47.2	-49.7	6.1	0.00e+00	0	29	104	49937383424	60	37448
2026-01-12 22:47:31.40	171.21	3.05	-47.5	-50.0	6.1	0.00e+00	0	29	104	49937383424	60	38736
2026-01-12 22:47:32.37	171.26	2.99	-47.3	-49.9	6.1	0.00e+00	0	29	104	49937383424	60	38115
2026-01-12 22:47:33.35	171.32	2.92	-48.0	-50.4	6.1	0.00e+00	0	30	104	49937383424	60	40764
2026-01-12 22:47:34.33	171.38	2.85	-48.2	-50.7	6.1	0.00e+00	0	30	104	49937383424	60	42180
2026-01-12 22:47:35.31	171.44	2.78	-48.5	-51.0	6.1	0.00e+00	0	30	104	49937383424	60	43441
2026-01-12 22:47:36.28	171.50	2.71	-48.6	-51.1	6.1	0.00e+00	0	30	104	49937383424	60	43766
2026-01-12 22:47:37.26	171.56	2.65	-48.8	-51.3	6.1	0.00e+00	0	30	104	49937383424	60	44803
2026-01-12 22:47:38.24	171.61	2.58	-48.8	-51.3	6.1	0.00e+00	0	29	104	49937383424	60	45080
2026-01-12 22:47:39.21	171.67	2.51	-48.8	-51.3	6.1	0.00e+00	0	30	104	49937383424	60	45086
2026-01-12 22:47:40.19	171.73	2.45	-48.8	-51.3	6.1	0.00e+00	0	30	104	49937383424	60	45210
2026-01-12 22:47:41.17	171.78	2.38	-48.8	-51.3	6.1	0.00e+00	0	29	104	49937383424	60	44937
2026-01-12 22:47:42.15	171.84	2.31	-48.9	-51.3	6.1	0.00e+00	0	30	104	49937383424	60	45087
2026-01-12 22:47:43.13	171.90	2.25	-48.9	-51.3	6.1	0.00e+00	0	29	104	49937383424	60	45242
2026-01-12 22:47:44.10	171.95	2.18	-48.9	-51.4	6.1	0.00e+00	0	30	104	49937383424	60	45343
2026-01-12 22:47:45.08	172.01	2.12	-48.9	-51.4	6.0	0.00e+00	0	30	104	49937383424	60	45287
2026-01-12 22:47:46.06	172.06	2.05	-48.7	-51.2	6.1	0.00e+00	0	29	104	49937383424	60	44678
2026-01-12 22:47:47.04	172.12	1.99	-48.8	-51.4	6.1	0.00e+00	0	29	104	49937383424	60	45279
2026-01-12 22:47:48.01	172.17	1.92	-48.7	-51.2	6.1	0.00e+00	0	30	104	49937383424	60	44578
2026-01-12 22:47:48.99	172.23	1.86	-48.8	-51.3	6.1	0.00e+00	0	29	104	49937383424	60	45053
2026-01-12 22:47:49.97	172.28	1.79	-48.8	-51.3	6.1	0.00e+00	0	30	104	49937383424	60	44821
2026-01-12 22:47:50.94	172.33	1.73	-48.8	-51.2	6.1	0.00e+00	0	29	104	49937383424	60	44521
2026-01-12 22:47:51.92	172.39	1.66	-48.8	-51.2	6.1	0.00e+00	0	29	104	49937383424	60	44719
2026-01-12 22:47:52.89	172.44	1.60	-48.8	-51.2	6.1	0.00e+00	0	29	104	49937383424	60	44624
2026-01-12 22:47:53.87	172.49	1.53	-48.8	-51.3	6.1	0.00e+00	0	30	104	49937383424	60	44900
2026-01-12 22:47:54.85	172.55	1.47	-48.8	-51.2	6.1	0.00e+00	0	30	104	49937383424	60	44650
2026-01-12 22:47:55.83	172.60	1.41	-48.7	-51.2	6.1	0.00e+00	0	30	104	49937383424	60	44647
2026-01-12 22:47:56.81	172.65	1.34	-48.7	-51.2	6.1	0.00e+00	0	30	104	49937383424	60	44592
2026-01-12 22:47:57.78	172.70	1.28	-48.7	-51.2	6.1	0.00e+00	0	30	104	49937383424	60	44581
2026-01-12 22:47:58.76	172.75	1.22	-48.8	-51.3	6.1	0.00e+00	0	29	104	49937383424	60	44773
2026-01-12 22:47:59.74	172.80	1.15	-48.8	-51.2	6.1	0.00e+00	0	30	104	49937383424	60	44532
2026-01-12 22:48:00.72	172.85	1.09	-48.8	-51.2	6.1	0.00e+00	0	29	104	49937383424	60	44725
2026-01-12 22:48:01.70	172.91	1.03	-48.7	-51.2	6.1	0.00e+00	0	29	104	49937383424	60	44606
2026-01-12 22:48:02.67	172.96	0.96	-48.7	-51.2	6.1	0.00e+00	0	29	104	49937383424	60	44617
2026-01-12 22:48:03.65	173.01	0.90	-48.7	-51.2	6.1	0.00e+00	0	30	104	49937383424	60	44697
2026-01-12 22:48:04.63	173.06	0.84	-48.7	-51.2	6.1	0.00e+00	0	30	104	49937383424	60	44540
2026-01-12 22:48:05.60	173.11	0.78	-48.7	-51.2	6.1	0.00e+00	0	29	104	49937383424	60	44410
2026-01-12 22:48:06.58	173.15	0.72	-48.7	-51.2	6.1	0.00e+00	0	29	104	49937383424	60	44554
2026-01-12 22:48:07.56	173.20	0.65	-48.7	-51.2	6.1	0.00e+00	0	29	104	49937383424	60	44467
2026-01-12 22:48:08.54	173.25	0.59	-48.8	-51.3	6.1	0.00e+00	0	29	104	49937383424	60	44859
2026-01-12 22:48:09.52	173.30	0.53	-48.8	-51.3	6.1	0.00e+00	0	30	104	49937383424	60	44771
2026-01-12 22:48:10.50	173.35	0.47	-48.7	-51.2	6.1	0.00e+00	0	29	104	49937383424	60	44496
2026-01-12 22:48:11.47	173.40	0.41	-48.7	-51.2	6.1	0.00e+00	0	29	104	49937383424	60	44455
2026-01-12 22:48:12.45	173.45	0.35	-48.7	-51.2	6.1	0.00e+00	0	29	104	49937383424	60	44698
2026-01-12 22:48:13.43	173.49	0.29	-48.7	-51.2	6.1	0.00e+00	0	29	104	49937383424	60	44697
2026-01-12 22:48:14.41	173.54	0.22	-48.7	-51.2	6.1	0.00e+00	0	29	104	49937383424	60	44537
2026-01-12 22:48:15.38	173.59	0.16	-48.7	-51.3	6.1	0.00e+00	0	29	104	49937383424	60	44831
2026-01-12 22:48:16.36	173.64	0.10	-48.7	-51.2	6.1	0.00e+00	0	30	104	49937383424	60	44340
2026-01-12 22:48:17.34	173.68	0.04	-48.7	-51.2	6.1	0.00e+00	0	30	104	49937383424	60	44546
2026-01-12 22:48:18.32	173.73	-0.02	-48.8	-51.2	6.1	0.00e+00	0	30	104	49937383424	60	44685

#Closed at: 2026-01-12 22:48:19
#Recorded file [49937 MB]: D:/lorett/data/35029_260113_103730.dat