passes_logs/2026/01/12/R4.6S_Anadyr/R4.6S_Anadyr__20260112_081116_TY-42_rec.log

#Pass ID: 20260112_081116_TY-42
#Satellite: TY-42
#Configuration: TY-42_900M
#almurnet v.1.7.20251203
#Start time: 2026-01-12 08:11:49

#Version: 2.2.20231116
#Station: R4.6S_Anadyr
#Location: 177.4865 lon 64.73178 lat
#TLE: 1 64048U 25103A   26011.68099537  .00008011  00000-0  38191-3 0 09995
#TLE: 2 64048 097.4120 087.1608 0001830 092.1753 308.0209 15.19172866 36317

#Time	Az	El	Level	Level2	SNR	BER	BlckErr	Temp	State	Recorded	gain1	gain2
2026-01-12 08:11:49.39	123.70	2.06	-48.4	-60.0	3.5	8.46e-01	0	25	0	0	60	36167
2026-01-12 08:11:50.40	123.64	2.13	-47.0	-49.5	6.1	0.00e+00	0	26	104	0	60	36558
2026-01-12 08:11:51.41	123.58	2.19	-47.1	-49.5	6.1	0.00e+00	0	26	104	0	60	36572
2026-01-12 08:11:52.42	123.52	2.26	-47.1	-49.5	6.1	0.00e+00	0	26	104	0	60	36680
2026-01-12 08:11:53.43	123.45	2.33	-47.1	-49.6	6.1	0.00e+00	0	27	104	0	60	36790
2026-01-12 08:11:54.43	123.39	2.40	-47.0	-49.5	6.1	0.00e+00	0	26	104	0	60	36668
2026-01-12 08:11:55.44	123.32	2.46	-47.1	-49.5	6.1	0.00e+00	0	26	104	0	60	36717
2026-01-12 08:11:56.45	123.26	2.53	-47.0	-49.5	6.1	0.00e+00	0	27	104	0	60	36460
2026-01-12 08:11:57.46	123.19	2.60	-47.1	-49.5	6.0	0.00e+00	0	27	104	0	60	36631
2026-01-12 08:11:58.47	123.13	2.67	-47.1	-49.6	6.1	0.00e+00	0	27	104	0	60	36785
2026-01-12 08:11:59.48	123.06	2.74	-47.1	-49.5	6.1	0.00e+00	0	27	104	0	60	36592
2026-01-12 08:12:00.49	123.00	2.81	-47.0	-49.5	6.1	0.00e+00	0	27	104	0	60	36600
2026-01-12 08:12:01.50	122.93	2.87	-47.1	-49.5	6.1	0.00e+00	0	27	104	0	60	36610
2026-01-12 08:12:02.51	122.86	2.94	-47.1	-49.5	6.1	0.00e+00	0	27	104	0	60	36527
2026-01-12 08:12:03.52	122.79	3.01	-47.1	-49.5	6.1	0.00e+00	0	27	104	0	60	36568
2026-01-12 08:12:04.53	122.73	3.08	-47.1	-49.5	6.1	0.00e+00	0	27	104	0	60	36765
2026-01-12 08:12:05.54	122.66	3.15	-47.1	-49.5	6.1	0.00e+00	0	27	104	0	60	36710
2026-01-12 08:12:06.55	122.59	3.22	-47.1	-49.5	6.1	0.00e+00	0	27	104	0	60	36675
2026-01-12 08:12:07.56	122.52	3.29	-47.0	-49.5	6.1	0.00e+00	0	27	104	0	60	36628
2026-01-12 08:12:08.57	122.45	3.36	-47.0	-49.5	6.1	0.00e+00	0	27	104	0	60	36487
2026-01-12 08:12:09.57	122.38	3.43	-47.0	-49.5	6.1	0.00e+00	0	27	104	0	60	36413
2026-01-12 08:12:10.58	122.31	3.50	-47.0	-49.5	6.0	0.00e+00	0	27	104	0	60	36527
2026-01-12 08:12:11.59	122.24	3.57	-47.0	-49.4	6.1	0.00e+00	0	27	104	0	60	36324
2026-01-12 08:12:12.60	122.17	3.64	-47.0	-49.5	6.1	0.00e+00	0	27	104	0	60	36383
2026-01-12 08:12:13.61	122.09	3.72	-47.0	-49.5	6.1	0.00e+00	0	27	104	0	60	36401
2026-01-12 08:12:14.62	122.02	3.79	-47.0	-49.5	6.1	0.00e+00	0	27	104	0	60	36356
2026-01-12 08:12:15.63	121.95	3.86	-47.0	-49.5	6.1	0.00e+00	0	27	104	0	60	36530
2026-01-12 08:12:16.64	121.87	3.93	-47.0	-49.5	6.1	0.00e+00	0	27	104	0	60	36570
2026-01-12 08:12:17.65	121.80	4.00	-47.1	-49.6	6.1	0.00e+00	0	27	104	0	60	36777
2026-01-12 08:12:18.66	121.73	4.08	-47.1	-49.5	6.1	0.00e+00	0	27	104	0	60	36681
2026-01-12 08:12:19.67	121.65	4.15	-47.0	-49.5	6.1	0.00e+00	0	27	104	0	60	36459
2026-01-12 08:12:20.68	121.57	4.22	-47.1	-49.5	6.1	0.00e+00	0	27	104	0	60	36640
2026-01-12 08:12:21.69	121.50	4.29	-47.0	-49.4	6.1	0.00e+00	0	27	104	0	60	36201
2026-01-12 08:12:22.69	121.42	4.37	-47.0	-49.5	6.1	0.00e+00	0	27	104	0	60	36428
2026-01-12 08:12:23.70	121.35	4.44	-47.1	-49.5	6.1	0.00e+00	0	27	104	0	60	36495
2026-01-12 08:12:24.71	121.27	4.51	-47.1	-49.5	6.1	0.00e+00	0	27	104	0	60	36708
2026-01-12 08:12:25.72	121.19	4.59	-47.0	-49.5	6.1	0.00e+00	0	27	104	0	60	36373
2026-01-12 08:12:26.73	121.11	4.66	-47.1	-49.6	6.1	0.00e+00	0	27	104	0	60	36918
2026-01-12 08:12:27.74	121.03	4.74	-47.1	-49.6	6.1	0.00e+00	0	27	104	0	60	36842
2026-01-12 08:12:28.75	120.95	4.81	-47.1	-49.6	6.1	0.00e+00	0	27	104	0	60	37167
2026-01-12 08:12:29.76	120.87	4.89	-47.0	-49.4	6.1	0.00e+00	0	28	104	0	60	36273
2026-01-12 08:12:30.77	120.79	4.96	-47.1	-49.6	6.1	0.00e+00	0	27	104	0	60	37074
2026-01-12 08:12:31.78	120.71	5.04	-47.1	-49.6	6.1	0.00e+00	0	28	104	0	60	36850
2026-01-12 08:12:32.79	120.63	5.11	-47.3	-49.7	6.1	0.00e+00	0	28	104	0	60	37608
2026-01-12 08:12:33.80	120.55	5.19	-47.1	-49.5	6.1	0.00e+00	0	28	104	0	60	36677
2026-01-12 08:12:34.81	120.46	5.26	-47.3	-49.7	6.1	0.00e+00	0	28	104	0	60	37629
2026-01-12 08:12:35.82	120.38	5.34	-47.1	-49.6	6.1	0.00e+00	0	28	104	0	60	36943
2026-01-12 08:12:36.83	120.30	5.42	-47.2	-49.8	6.1	0.00e+00	0	28	104	0	60	37754
2026-01-12 08:12:37.84	120.21	5.49	-47.2	-49.6	6.1	0.00e+00	0	28	104	0	60	37139
2026-01-12 08:12:38.85	120.13	5.57	-47.2	-49.7	6.1	0.00e+00	0	28	104	0	60	37558
2026-01-12 08:12:39.86	120.04	5.65	-31.3	-31.7	11.0	0.00e+00	0	28	104	0	36	18652
2026-01-12 08:12:40.87	119.95	5.73	-28.9	-29.4	15.1	0.00e+00	0	28	0	16777216	32	18141
2026-01-12 08:12:41.87	119.87	5.80	-45.6	-47.4	6.2	4.49e-02	0	28	104	100663296	60	28713
2026-01-12 08:12:42.89	119.78	5.88	-28.3	-28.5	12.9	0.00e+00	3756	28	104	100663296	34	14582
2026-01-12 08:12:43.89	119.69	5.96	-27.8	-28.3	15.8	2.91e-02	0	28	0	150994944	32	15919
2026-01-12 08:12:44.91	119.60	6.04	-27.7	-28.1	15.8	2.91e-02	0	28	0	268435456	30	17571
2026-01-12 08:12:45.92	119.51	6.12	-27.6	-28.0	15.9	8.77e-04	0	28	0	377487360	30	17377
2026-01-12 08:12:46.92	119.42	6.20	-27.7	-28.2	15.8	8.77e-04	0	28	0	494927872	30	17731
2026-01-12 08:12:47.93	119.33	6.27	-27.4	-27.9	16.0	8.77e-04	0	28	0	603979776	30	17153
2026-01-12 08:12:48.94	119.24	6.35	-27.2	-27.8	15.9	9.05e-04	0	28	0	721420288	30	16817
2026-01-12 08:12:49.95	119.15	6.43	-27.1	-27.6	15.9	9.05e-04	0	28	0	830472192	30	16573
2026-01-12 08:12:50.96	119.06	6.51	-27.4	-28.0	15.8	7.03e-04	0	28	0	947912704	30	17206
2026-01-12 08:12:51.97	118.96	6.59	-27.4	-27.9	15.8	7.03e-04	0	28	0	1065353216	30	17131
2026-01-12 08:12:52.98	118.87	6.68	-27.3	-27.8	15.7	9.97e-04	0	28	0	1174405120	30	16988
2026-01-12 08:12:53.99	118.78	6.76	-27.3	-27.8	15.9	9.97e-04	0	28	0	1283457024	30	16870
2026-01-12 08:12:55.00	118.68	6.84	-27.3	-27.8	15.9	9.75e-04	0	28	0	1400897536	30	16986
2026-01-12 08:12:56.01	118.59	6.92	-27.1	-27.6	16.0	9.75e-04	0	28	0	1518338048	30	16540
2026-01-12 08:12:57.02	118.49	7.00	-27.2	-27.7	16.0	6.97e-04	0	28	0	1627389952	30	16739
2026-01-12 08:12:58.03	118.39	7.08	-27.0	-27.6	16.1	6.97e-04	0	28	0	1744830464	30	16479
2026-01-12 08:12:59.04	118.29	7.17	-26.9	-27.4	16.2	4.03e-04	0	28	0	1853882368	30	16152
2026-01-12 08:13:00.04	118.20	7.25	-26.9	-27.4	16.2	4.03e-04	0	29	0	1962934272	30	16146
2026-01-12 08:13:01.04	118.10	7.33	-26.9	-27.4	16.2	2.72e-04	0	29	0	2080374784	30	16149
2026-01-12 08:13:02.05	118.00	7.41	-27.0	-27.6	16.1	2.72e-04	0	28	0	2189426688	30	16463
2026-01-12 08:13:03.06	117.90	7.50	-27.4	-27.9	16.0	2.72e-04	0	29	0	2306867200	30	17173
2026-01-12 08:13:04.07	117.79	7.58	-27.0	-27.5	16.2	4.03e-04	0	29	0	2424307712	30	16324
2026-01-12 08:13:05.08	117.69	7.66	-26.6	-27.1	16.2	4.03e-04	0	29	0	2533359616	28	17509
2026-01-12 08:13:06.09	117.59	7.75	-26.7	-27.2	16.2	2.62e-04	0	29	0	2650800128	28	17720
2026-01-12 08:13:07.10	117.48	7.83	-26.7	-27.3	16.2	2.62e-04	0	29	0	2759852032	28	17826
2026-01-12 08:13:08.10	117.38	7.92	-26.7	-27.2	16.2	2.62e-04	0	29	0	2868903936	28	17731
2026-01-12 08:13:09.11	117.28	8.00	-26.3	-26.9	16.3	2.40e-04	0	29	0	2994733056	28	17011
2026-01-12 08:13:10.12	117.17	8.09	-26.5	-27.0	16.2	1.25e-04	0	29	0	3103784960	28	17335
2026-01-12 08:13:11.13	117.06	8.17	-26.4	-26.9	16.2	1.25e-04	0	29	0	3212836864	28	17186
2026-01-12 08:13:12.14	116.95	8.26	-26.4	-26.9	16.3	1.74e-04	0	29	0	3330277376	28	17173
2026-01-12 08:13:13.15	116.85	8.35	-26.4	-26.9	16.3	1.74e-04	0	29	0	3439329280	28	17146
2026-01-12 08:13:14.16	116.74	8.43	-26.4	-27.0	16.2	1.74e-04	0	29	0	3556769792	28	17253
2026-01-12 08:13:15.17	116.63	8.52	-26.3	-26.8	16.3	1.58e-04	0	29	0	3674210304	28	16952
2026-01-12 08:13:16.17	116.52	8.61	-26.3	-26.8	16.3	1.58e-04	0	29	0	3783262208	28	16973
2026-01-12 08:13:17.18	116.40	8.69	-26.4	-26.9	16.3	1.58e-04	0	29	0	3892314112	28	17106
2026-01-12 08:13:18.19	116.29	8.78	-26.5	-27.1	16.3	1.42e-04	0	29	0	4009754624	28	17539
2026-01-12 08:13:19.20	116.18	8.87	-26.3	-26.8	16.4	1.42e-04	0	29	0	4118806528	28	16927
2026-01-12 08:13:20.21	116.06	8.96	-25.8	-26.4	16.5	1.85e-04	0	29	0	4236247040	26	18097
2026-01-12 08:13:21.22	115.95	9.05	-25.9	-26.4	16.4	1.85e-04	0	29	0	4353687552	26	18183
2026-01-12 08:13:22.23	115.83	9.14	-25.9	-26.4	16.5	8.71e-05	0	29	0	4462739456	26	18175
2026-01-12 08:13:23.24	115.71	9.23	-25.8	-26.4	16.5	8.71e-05	0	29	0	4580179968	26	18065
2026-01-12 08:13:24.25	115.60	9.32	-25.7	-26.3	16.5	5.44e-05	0	29	0	4689231872	26	17897
2026-01-12 08:13:25.26	115.48	9.41	-25.6	-26.1	16.4	5.44e-05	0	29	0	4806672384	26	17593
2026-01-12 08:13:26.27	115.36	9.50	-25.5	-26.0	16.5	7.08e-05	0	29	0	4924112896	26	17375
2026-01-12 08:13:27.28	115.24	9.59	-25.6	-26.1	16.4	7.08e-05	0	29	0	5033164800	26	17599
2026-01-12 08:13:28.28	115.11	9.68	-25.4	-26.0	16.4	7.08e-05	0	29	0	5142216704	26	17230
2026-01-12 08:13:29.29	114.99	9.77	-25.5	-26.1	16.4	7.08e-05	0	29	0	5259657216	26	17512
2026-01-12 08:13:30.30	114.87	9.86	-25.3	-25.9	16.5	7.08e-05	0	29	0	5368709120	26	17044
2026-01-12 08:13:31.30	114.74	9.96	-25.3	-25.9	16.5	4.90e-05	0	29	0	5486149632	26	17084
2026-01-12 08:13:32.32	114.62	10.05	-25.3	-25.8	16.6	4.90e-05	0	29	0	5603590144	26	16966
2026-01-12 08:13:33.32	114.49	10.14	-25.1	-25.6	16.6	4.35e-05	0	29	0	5712642048	26	16577
2026-01-12 08:13:34.33	114.36	10.23	-25.1	-25.7	16.6	4.35e-05	0	29	0	5821693952	26	16648
2026-01-12 08:13:35.34	114.23	10.33	-25.1	-25.6	16.6	2.72e-05	0	29	0	5939134464	26	16503
2026-01-12 08:13:36.35	114.10	10.42	-25.0	-25.5	16.6	2.72e-05	0	29	0	6048186368	26	16397
2026-01-12 08:13:37.36	113.97	10.52	-25.0	-25.5	16.6	2.72e-05	0	29	0	6165626880	26	16375
2026-01-12 08:13:38.37	113.84	10.61	-25.0	-25.5	16.6	2.72e-05	0	29	0	6283067392	26	16353
2026-01-12 08:13:39.38	113.71	10.71	-25.0	-25.5	16.6	2.72e-05	0	29	0	6392119296	26	16351
2026-01-12 08:13:40.39	113.57	10.80	-24.7	-25.2	16.7	2.72e-05	0	29	0	6509559808	24	17719
2026-01-12 08:13:41.40	113.44	10.90	-24.7	-25.3	16.7	2.72e-05	0	29	0	6618611712	24	17870
2026-01-12 08:13:42.41	113.30	10.99	-24.8	-25.3	16.7	2.72e-05	0	29	0	6736052224	24	17923
2026-01-12 08:13:43.42	113.17	11.09	-24.8	-25.3	16.7	2.72e-05	0	29	0	6853492736	24	17973
2026-01-12 08:13:44.43	113.03	11.19	-24.5	-25.1	16.7	5.40e-06	0	29	0	6962544640	24	17446
2026-01-12 08:13:45.44	112.89	11.29	-24.5	-25.0	16.8	5.40e-06	0	29	0	7071596544	24	17340
2026-01-12 08:13:46.44	112.75	11.38	-24.5	-25.0	16.8	0.00e+00	0	29	0	7189037056	24	17319
2026-01-12 08:13:47.45	112.61	11.48	-24.5	-25.0	16.8	0.00e+00	0	29	0	7298088960	24	17298
2026-01-12 08:13:48.46	112.46	11.58	-24.4	-24.9	16.8	0.00e+00	0	29	0	7415529472	24	17156
2026-01-12 08:13:49.47	112.32	11.68	-24.3	-24.8	16.7	5.40e-06	0	29	0	7532969984	24	16901
2026-01-12 08:13:50.48	112.17	11.78	-24.3	-24.8	16.8	5.40e-06	0	29	0	7642021888	24	16926
2026-01-12 08:13:51.49	112.03	11.88	-24.3	-24.8	16.8	5.40e-06	0	29	0	7759462400	24	16870
2026-01-12 08:13:52.50	111.88	11.98	-24.3	-24.8	16.8	5.40e-06	0	29	0	7868514304	24	16896
2026-01-12 08:13:53.51	111.73	12.08	-24.2	-24.8	16.8	5.40e-06	0	29	0	7985954816	24	16821
2026-01-12 08:13:54.52	111.58	12.18	-24.2	-24.7	16.8	5.40e-06	0	29	0	8095006720	24	16790
2026-01-12 08:13:55.53	111.43	12.28	-24.0	-24.5	16.9	5.40e-06	0	29	0	8212447232	24	16410
2026-01-12 08:13:56.54	111.27	12.38	-24.1	-24.6	16.9	1.08e-05	0	29	0	8321499136	24	16541
2026-01-12 08:13:57.55	111.12	12.48	-23.9	-24.4	16.9	1.08e-05	0	29	0	8438939648	24	16134
2026-01-12 08:13:58.55	110.97	12.58	-24.0	-24.5	17.0	1.08e-05	0	29	0	8547991552	24	16271
2026-01-12 08:13:59.56	110.81	12.68	-23.8	-24.3	17.0	0.00e+00	0	29	0	8665432064	24	15898
2026-01-12 08:14:00.57	110.65	12.79	-23.9	-24.4	17.0	0.00e+00	0	29	0	8782872576	22	18027
2026-01-12 08:14:01.58	110.49	12.89	-23.6	-24.1	17.0	0.00e+00	0	29	0	8891924480	22	17520
2026-01-12 08:14:02.59	110.33	12.99	-23.6	-24.1	17.0	0.00e+00	0	29	0	9000976384	22	17475
2026-01-12 08:14:03.60	110.17	13.10	-23.6	-24.1	17.0	0.00e+00	0	29	0	9118416896	22	17402
2026-01-12 08:14:04.61	110.00	13.20	-23.5	-24.0	17.0	0.00e+00	0	29	0	9235857408	22	17306
2026-01-12 08:14:05.62	109.84	13.31	-23.5	-24.0	17.0	0.00e+00	0	29	0	9344909312	22	17348
2026-01-12 08:14:06.63	109.67	13.41	-23.4	-23.8	17.1	0.00e+00	0	29	0	9462349824	22	16972
2026-01-12 08:14:07.64	109.50	13.52	-23.5	-24.0	17.1	0.00e+00	0	29	0	9571401728	22	17206
2026-01-12 08:14:08.65	109.34	13.62	-23.5	-24.0	17.0	0.00e+00	0	29	0	9688842240	22	17240
2026-01-12 08:14:09.66	109.16	13.73	-23.2	-23.7	17.0	0.00e+00	0	29	0	9806282752	22	16768
2026-01-12 08:14:10.67	108.99	13.84	-23.3	-23.7	17.1	0.00e+00	0	29	0	9915334656	22	16761
2026-01-12 08:14:11.68	108.82	13.94	-23.3	-23.8	17.1	0.00e+00	0	29	0	10024386560	22	16906
2026-01-12 08:14:12.69	108.64	14.05	-23.5	-24.0	17.1	0.00e+00	0	29	0	10141827072	22	17310
2026-01-12 08:14:13.70	108.47	14.16	-23.4	-23.9	17.1	0.00e+00	0	30	0	10250878976	22	17097
2026-01-12 08:14:14.71	108.29	14.27	-23.1	-23.6	17.1	0.00e+00	0	29	0	10368319488	22	16453
2026-01-12 08:14:15.72	108.11	14.38	-23.1	-23.6	17.1	0.00e+00	0	29	0	10485760000	22	16540
2026-01-12 08:14:16.73	107.92	14.48	-23.0	-23.4	17.2	0.00e+00	0	29	0	10594811904	22	16223
2026-01-12 08:14:17.74	107.74	14.59	-23.0	-23.5	17.2	0.00e+00	0	29	0	10712252416	22	16346
2026-01-12 08:14:18.75	107.56	14.70	-23.0	-23.5	17.2	0.00e+00	0	29	0	10821304320	22	16270
2026-01-12 08:14:19.76	107.37	14.81	-22.8	-23.3	17.2	0.00e+00	0	29	0	10938744832	22	15958
2026-01-12 08:14:20.77	107.18	14.92	-23.0	-23.5	17.2	0.00e+00	0	29	0	11047796736	22	16280
2026-01-12 08:14:21.78	106.99	15.04	-22.9	-23.3	17.3	0.00e+00	0	30	0	11165237248	22	16016
2026-01-12 08:14:22.79	106.80	15.15	-22.9	-23.4	17.3	0.00e+00	0	30	0	11274289152	22	16153
2026-01-12 08:14:23.79	106.61	15.26	-22.7	-23.1	17.4	0.00e+00	0	29	0	11391729664	20	17581
2026-01-12 08:14:24.81	106.41	15.37	-22.9	-23.3	17.3	0.00e+00	0	29	0	11509170176	20	17938
2026-01-12 08:14:25.81	106.22	15.48	-22.7	-23.2	17.3	0.00e+00	0	29	0	11618222080	20	17674
2026-01-12 08:14:26.82	106.02	15.59	-22.7	-23.2	17.3	0.00e+00	0	30	0	11735662592	20	17640
2026-01-12 08:14:27.83	105.82	15.71	-22.7	-23.1	17.4	0.00e+00	0	29	0	11844714496	20	17547
2026-01-12 08:14:28.84	105.62	15.82	-22.7	-23.2	17.4	0.00e+00	0	30	0	11953766400	20	17688
2026-01-12 08:14:29.85	105.41	15.93	-22.7	-23.1	17.4	0.00e+00	0	29	0	12071206912	20	17587
2026-01-12 08:14:30.86	105.21	16.05	-22.8	-23.3	17.4	0.00e+00	0	30	0	12188647424	20	17831
2026-01-12 08:14:31.87	105.00	16.16	-22.4	-22.9	17.5	0.00e+00	0	30	0	12297699328	20	17097
2026-01-12 08:14:32.87	104.79	16.28	-22.6	-23.0	17.5	0.00e+00	0	30	0	12415139840	20	17370
2026-01-12 08:14:33.88	104.58	16.39	-22.4	-22.9	17.5	0.00e+00	0	30	0	12524191744	20	17134
2026-01-12 08:14:34.89	104.37	16.51	-22.3	-22.7	17.5	0.00e+00	0	30	0	12641632256	20	16806
2026-01-12 08:14:35.90	104.15	16.62	-22.3	-22.7	17.4	0.00e+00	0	30	0	12750684160	20	16776
2026-01-12 08:14:36.91	103.93	16.74	-22.3	-22.8	17.4	0.00e+00	0	30	0	12868124672	20	16848
2026-01-12 08:14:37.92	103.71	16.86	-22.2	-22.7	17.5	0.00e+00	0	29	0	12977176576	20	16677
2026-01-12 08:14:38.93	103.49	16.97	-22.2	-22.6	17.5	0.00e+00	0	30	0	13094617088	20	16552
2026-01-12 08:14:39.94	103.27	17.09	-22.3	-22.8	17.4	0.00e+00	0	29	0	13203668992	20	16930
2026-01-12 08:14:40.95	103.04	17.21	-22.2	-22.6	17.5	0.00e+00	0	30	0	13321109504	20	16585
2026-01-12 08:14:41.96	102.82	17.33	-22.2	-22.7	17.5	0.00e+00	0	30	0	13438550016	20	16715
2026-01-12 08:14:42.97	102.59	17.44	-22.0	-22.4	17.5	0.00e+00	0	30	0	13547601920	20	16221
2026-01-12 08:14:43.98	102.36	17.56	-21.9	-22.4	17.5	0.00e+00	0	30	0	13665042432	20	16183
2026-01-12 08:14:44.99	102.12	17.68	-22.0	-22.5	17.5	0.00e+00	0	30	0	13774094336	20	16312
2026-01-12 08:14:46.00	101.89	17.80	-21.9	-22.4	17.5	0.00e+00	0	30	0	13883146240	20	16112
2026-01-12 08:14:47.01	101.65	17.92	-21.8	-22.3	17.5	0.00e+00	0	30	0	14008975360	20	15939
2026-01-12 08:14:48.02	101.41	18.04	-21.8	-22.2	17.5	0.00e+00	0	30	0	14118027264	20	15855
2026-01-12 08:14:49.03	101.17	18.16	-21.6	-22.1	17.6	0.00e+00	0	30	0	14227079168	18	17490
2026-01-12 08:14:50.04	100.92	18.28	-21.8	-22.2	17.6	0.00e+00	0	30	0	14344519680	18	17783
2026-01-12 08:14:51.05	100.67	18.40	-21.5	-22.0	17.5	0.00e+00	0	30	0	14453571584	18	17269
2026-01-12 08:14:52.06	100.43	18.52	-21.5	-22.0	17.5	0.00e+00	0	30	0	14571012096	18	17270
2026-01-12 08:14:53.07	100.17	18.64	-21.3	-21.8	17.5	0.00e+00	0	30	0	14688452608	18	16937
2026-01-12 08:14:54.08	99.92	18.76	-21.5	-22.0	17.5	0.00e+00	0	30	0	14797504512	18	17218
2026-01-12 08:14:55.09	99.66	18.88	-21.2	-21.7	17.5	0.00e+00	0	30	0	14906556416	18	16769
2026-01-12 08:14:56.10	99.40	19.00	-21.3	-21.8	17.5	0.00e+00	0	30	0	15023996928	18	16902
2026-01-12 08:14:57.11	99.14	19.13	-21.3	-21.8	17.5	0.00e+00	0	30	0	15141437440	18	16884
2026-01-12 08:14:58.12	98.88	19.25	-21.1	-21.6	17.5	0.00e+00	0	30	0	15250489344	18	16496
2026-01-12 08:14:59.13	98.61	19.37	-21.1	-21.6	17.3	0.00e+00	0	30	0	15367929856	18	16517
2026-01-12 08:15:00.14	98.35	19.49	-20.9	-21.4	17.4	0.00e+00	0	30	0	15476981760	18	16095
2026-01-12 08:15:01.14	98.08	19.61	-20.8	-21.3	17.5	0.00e+00	0	30	0	15594422272	18	16002
2026-01-12 08:15:02.15	97.80	19.74	-20.8	-21.3	17.5	0.00e+00	0	30	0	15703474176	18	15988
2026-01-12 08:15:03.16	97.53	19.86	-20.8	-21.3	17.5	0.00e+00	0	30	0	15820914688	18	15919
2026-01-12 08:15:04.17	97.25	19.98	-20.7	-21.2	17.5	0.00e+00	0	30	0	15929966592	16	17724
2026-01-12 08:15:05.18	96.97	20.11	-20.8	-21.3	17.5	0.00e+00	0	30	0	16047407104	16	17892
2026-01-12 08:15:06.19	96.69	20.23	-20.7	-21.2	17.5	0.00e+00	0	30	0	16156459008	16	17745
2026-01-12 08:15:07.20	96.40	20.35	-20.7	-21.2	17.5	0.00e+00	0	30	0	16273899520	16	17699
2026-01-12 08:15:08.21	96.11	20.47	-20.5	-21.0	17.5	0.00e+00	0	30	0	16391340032	16	17304
2026-01-12 08:15:09.22	95.82	20.60	-20.6	-21.1	17.5	0.00e+00	0	30	0	16500391936	16	17424
2026-01-12 08:15:10.22	95.53	20.72	-20.4	-20.9	17.5	0.00e+00	0	30	0	16617832448	16	17134
2026-01-12 08:15:11.23	95.23	20.84	-20.4	-20.9	17.5	0.00e+00	0	30	0	16726884352	16	17101
2026-01-12 08:15:12.24	94.93	20.97	-20.4	-20.9	17.6	0.00e+00	0	30	0	16835936256	16	17075
2026-01-12 08:15:13.25	94.63	21.09	-20.4	-20.9	17.6	0.00e+00	0	30	0	16953376768	16	17126
2026-01-12 08:15:14.26	94.33	21.21	-20.3	-20.8	17.6	0.00e+00	0	30	0	17070817280	16	16888
2026-01-12 08:15:15.27	94.02	21.34	-20.5	-21.0	17.5	0.00e+00	0	30	0	17179869184	16	17284
2026-01-12 08:15:16.28	93.71	21.46	-20.5	-21.0	17.5	0.00e+00	0	30	0	17297309696	16	17211
2026-01-12 08:15:17.29	93.39	21.58	-20.3	-20.8	17.5	0.00e+00	0	30	0	17406361600	16	16826
2026-01-12 08:15:18.29	93.08	21.71	-20.3	-20.7	17.4	0.00e+00	0	30	0	17523802112	16	16762
2026-01-12 08:15:19.30	92.76	21.83	-20.1	-20.6	17.6	0.00e+00	0	30	0	17632854016	16	16489
2026-01-12 08:15:20.31	92.44	21.95	-20.2	-20.6	17.6	0.00e+00	0	30	0	17750294528	16	16588
2026-01-12 08:15:21.32	92.11	22.07	-20.0	-20.5	17.5	0.00e+00	0	30	0	17867735040	16	16295
2026-01-12 08:15:22.32	91.79	22.20	-20.0	-20.4	17.5	0.00e+00	0	30	0	17976786944	16	16194
2026-01-12 08:15:23.33	91.46	22.32	-19.9	-20.3	17.7	0.00e+00	0	30	0	18085838848	16	16039
2026-01-12 08:15:24.34	91.13	22.44	-20.0	-20.5	17.6	0.00e+00	0	30	0	18203279360	16	16296
2026-01-12 08:15:25.35	90.79	22.56	-19.9	-20.4	17.5	0.00e+00	0	30	0	18312331264	16	16107
2026-01-12 08:15:26.36	90.45	22.68	-19.9	-20.3	17.6	0.00e+00	0	30	0	18429771776	16	16008
2026-01-12 08:15:27.37	90.11	22.80	-19.9	-20.3	17.5	0.00e+00	0	30	0	18547212288	16	16003
2026-01-12 08:15:28.38	89.76	22.93	-19.7	-20.1	17.4	0.00e+00	0	30	0	18656264192	14	17599
2026-01-12 08:15:29.39	89.41	23.05	-19.7	-20.1	17.5	0.00e+00	0	30	0	18765316096	14	17586
2026-01-12 08:15:30.40	89.06	23.17	-19.6	-20.0	17.5	0.00e+00	0	30	0	18882756608	14	17343
2026-01-12 08:15:31.41	88.71	23.29	-19.8	-20.2	17.5	0.00e+00	0	30	0	19000197120	14	17764
2026-01-12 08:15:32.42	88.35	23.41	-19.7	-20.1	17.6	0.00e+00	0	30	0	19109249024	14	17532
2026-01-12 08:15:33.43	87.99	23.53	-19.6	-20.1	17.6	0.00e+00	0	30	0	19226689536	14	17496
2026-01-12 08:15:34.44	87.62	23.64	-19.5	-20.0	17.5	0.00e+00	0	30	0	19335741440	14	17251
2026-01-12 08:15:35.45	87.26	23.76	-19.5	-20.0	17.6	0.00e+00	0	30	0	19453181952	14	17223
2026-01-12 08:15:36.46	86.89	23.88	-19.4	-19.9	17.6	0.00e+00	0	30	0	19570622464	14	17082
2026-01-12 08:15:37.47	86.51	24.00	-19.6	-20.1	17.5	0.00e+00	0	30	0	19679674368	14	17475
2026-01-12 08:15:38.48	86.14	24.11	-19.4	-19.8	17.6	0.00e+00	0	30	0	19797114880	14	16977
2026-01-12 08:15:39.49	85.76	24.23	-19.5	-20.0	17.6	0.00e+00	0	30	0	19906166784	14	17224
2026-01-12 08:15:40.50	85.38	24.35	-19.5	-20.0	17.6	0.00e+00	0	30	0	20015218688	14	17221
2026-01-12 08:15:41.51	84.99	24.46	-19.3	-19.8	17.6	0.00e+00	0	30	0	20132659200	14	16867
2026-01-12 08:15:42.52	84.60	24.57	-19.5	-20.0	17.6	0.00e+00	0	30	0	20250099712	14	17235
2026-01-12 08:15:43.53	84.21	24.69	-19.4	-19.8	17.6	0.00e+00	0	30	0	20359151616	14	16966
2026-01-12 08:15:44.54	83.81	24.80	-19.2	-19.7	17.6	0.00e+00	0	30	0	20476592128	14	16703
2026-01-12 08:15:45.54	83.42	24.91	-19.3	-19.7	17.6	0.00e+00	0	30	0	20585644032	14	16786
2026-01-12 08:15:46.55	83.02	25.02	-19.2	-19.6	17.5	0.00e+00	0	30	0	20694695936	14	16547
2026-01-12 08:15:47.56	82.61	25.13	-19.3	-19.7	17.5	0.00e+00	0	30	0	20820525056	14	16745
2026-01-12 08:15:48.57	82.21	25.24	-19.2	-19.6	17.4	0.00e+00	0	30	0	20929576960	14	16509
2026-01-12 08:15:49.58	81.80	25.35	-19.1	-19.5	17.4	0.00e+00	0	30	0	21038628864	14	16385
2026-01-12 08:15:50.59	81.38	25.46	-19.1	-19.5	17.5	0.00e+00	0	30	0	21156069376	14	16334
2026-01-12 08:15:51.60	80.97	25.56	-19.0	-19.5	17.5	0.00e+00	0	30	0	21265121280	14	16258
2026-01-12 08:15:52.61	80.55	25.67	-18.9	-19.4	17.6	0.00e+00	0	30	0	21382561792	14	16091
2026-01-12 08:15:53.62	80.12	25.77	-19.0	-19.4	17.6	0.00e+00	0	30	0	21500002304	14	16113
2026-01-12 08:15:54.63	79.70	25.88	-19.0	-19.5	17.5	0.00e+00	0	30	0	21609054208	14	16249
2026-01-12 08:15:55.64	79.27	25.98	-19.0	-19.4	17.6	0.00e+00	0	30	0	21726494720	14	16127
2026-01-12 08:15:56.65	78.83	26.08	-19.0	-19.4	17.6	0.00e+00	0	30	0	21835546624	14	16127
2026-01-12 08:15:57.65	78.40	26.18	-18.9	-19.3	17.6	0.00e+00	0	30	0	21944598528	14	15975
2026-01-12 08:15:58.67	77.96	26.28	-18.8	-19.2	17.6	0.00e+00	0	30	0	22062039040	14	15852
2026-01-12 08:15:59.68	77.52	26.37	-18.8	-19.3	17.6	0.00e+00	0	30	0	22179479552	14	15881
2026-01-12 08:16:00.69	77.08	26.47	-18.8	-19.3	17.6	0.00e+00	0	30	0	22288531456	14	15873
2026-01-12 08:16:01.70	76.63	26.56	-18.8	-19.2	17.4	0.00e+00	0	30	0	22405971968	14	15739
2026-01-12 08:16:02.71	76.18	26.66	-18.7	-19.1	17.4	0.00e+00	0	30	0	22523412480	12	17453
2026-01-12 08:16:03.71	75.73	26.75	-18.8	-19.2	17.3	0.00e+00	0	30	0	22632464384	12	17777
2026-01-12 08:16:04.72	75.27	26.84	-18.6	-19.0	17.3	0.00e+00	0	30	0	22749904896	12	17296
2026-01-12 08:16:05.73	74.82	26.93	-18.5	-18.9	17.5	0.00e+00	0	30	0	22858956800	12	17146
2026-01-12 08:16:06.74	74.35	27.01	-18.4	-18.9	17.5	0.00e+00	0	30	0	22968008704	12	17061
2026-01-12 08:16:07.75	73.89	27.10	-18.5	-19.0	17.5	0.00e+00	0	30	0	23085449216	12	17207
2026-01-12 08:16:08.76	73.42	27.18	-18.5	-19.0	17.4	0.00e+00	0	30	0	23202889728	12	17268
2026-01-12 08:16:09.77	72.95	27.27	-18.7	-19.1	17.5	0.00e+00	0	30	0	23311941632	12	17511
2026-01-12 08:16:10.78	72.48	27.35	-18.5	-19.0	17.4	0.00e+00	0	30	0	23429382144	12	17207
2026-01-12 08:16:11.79	72.01	27.43	-18.4	-18.8	17.4	0.00e+00	0	30	0	23538434048	12	16946
2026-01-12 08:16:12.79	71.54	27.50	-18.4	-18.8	17.4	0.00e+00	0	30	0	23655874560	12	16995
2026-01-12 08:16:13.80	71.06	27.58	-18.4	-18.8	17.4	0.00e+00	0	30	0	23764926464	12	16926
2026-01-12 08:16:14.81	70.57	27.65	-18.4	-18.9	17.4	0.00e+00	0	30	0	23882366976	12	17030
2026-01-12 08:16:15.82	70.09	27.72	-18.4	-18.8	17.4	0.00e+00	0	30	0	23991418880	12	16899
2026-01-12 08:16:16.83	69.60	27.79	-18.4	-18.8	17.3	0.00e+00	0	30	0	24108859392	12	16966
2026-01-12 08:16:17.84	69.11	27.86	-18.4	-18.8	17.3	0.00e+00	0	30	0	24217911296	12	16936
2026-01-12 08:16:18.85	68.62	27.93	-18.3	-18.7	17.3	0.00e+00	0	30	0	24335351808	12	16710
2026-01-12 08:16:19.86	68.13	27.99	-18.3	-18.7	17.3	0.00e+00	0	30	0	24452792320	12	16716
2026-01-12 08:16:20.87	67.63	28.05	-18.2	-18.7	17.3	0.00e+00	0	30	0	24561844224	12	16683
2026-01-12 08:16:21.88	67.13	28.11	-18.3	-18.7	17.3	0.00e+00	0	30	0	24679284736	12	16774
2026-01-12 08:16:22.89	66.64	28.17	-18.2	-18.7	17.3	0.00e+00	0	30	0	24788336640	12	16682
2026-01-12 08:16:23.90	66.13	28.23	-18.3	-18.7	17.3	0.00e+00	0	30	0	24897388544	12	16731
2026-01-12 08:16:24.91	65.63	28.28	-18.3	-18.8	17.3	0.00e+00	0	30	0	25014829056	12	16913
2026-01-12 08:16:25.92	65.12	28.33	-18.3	-18.7	17.3	0.00e+00	0	30	0	25132269568	12	16794
2026-01-12 08:16:26.93	64.62	28.38	-18.3	-18.7	17.2	0.00e+00	0	30	0	25241321472	12	16777
2026-01-12 08:16:27.94	64.11	28.43	-18.2	-18.7	17.2	0.00e+00	0	30	0	25358761984	12	16689
2026-01-12 08:16:28.95	63.60	28.47	-18.4	-18.8	17.2	0.00e+00	0	30	0	25467813888	12	16957
2026-01-12 08:16:29.96	63.09	28.51	-18.2	-18.7	17.2	0.00e+00	0	30	0	25585254400	12	16648
2026-01-12 08:16:30.97	62.57	28.55	-18.3	-18.7	17.1	0.00e+00	0	30	0	25702694912	12	16785
2026-01-12 08:16:31.98	62.06	28.59	-18.3	-18.8	17.0	0.00e+00	0	30	0	25811746816	12	16833
2026-01-12 08:16:32.99	61.54	28.63	-18.3	-18.8	17.0	0.00e+00	0	30	0	25920798720	12	16822
2026-01-12 08:16:34.00	61.03	28.66	-18.2	-18.6	17.0	0.00e+00	0	30	0	26038239232	12	16586
2026-01-12 08:16:35.01	60.51	28.69	-18.3	-18.7	17.1	0.00e+00	0	30	0	26155679744	12	16711
2026-01-12 08:16:36.01	59.99	28.72	-18.3	-18.7	17.1	0.00e+00	0	30	0	26264731648	12	16716
2026-01-12 08:16:37.02	59.47	28.75	-18.3	-18.7	17.1	0.00e+00	0	30	0	26382172160	12	16685
2026-01-12 08:16:38.03	58.95	28.77	-18.3	-18.7	17.2	0.00e+00	0	30	0	26491224064	12	16722
2026-01-12 08:16:39.04	58.43	28.79	-18.3	-18.7	17.1	0.00e+00	0	30	0	26608664576	12	16751
2026-01-12 08:16:40.05	57.91	28.81	-18.1	-18.6	17.1	0.00e+00	0	30	0	26717716480	12	16450
2026-01-12 08:16:41.06	57.39	28.82	-18.3	-18.7	17.1	0.00e+00	0	30	0	26835156992	12	16773
2026-01-12 08:16:42.07	56.86	28.84	-18.2	-18.7	17.1	0.00e+00	0	30	0	26944208896	12	16662
2026-01-12 08:16:43.08	56.34	28.85	-18.3	-18.7	17.2	0.00e+00	0	30	0	27061649408	12	16749
2026-01-12 08:16:44.09	55.82	28.86	-18.2	-18.6	17.2	0.00e+00	0	30	0	27170701312	12	16550
2026-01-12 08:16:45.10	55.29	28.87	-18.3	-18.7	17.2	0.00e+00	0	30	0	27288141824	12	16761
2026-01-12 08:16:46.11	54.77	28.87	-18.2	-18.6	17.0	0.00e+00	0	30	0	27405582336	12	16513
2026-01-12 08:16:47.12	54.24	28.87	-18.4	-18.8	16.9	0.00e+00	0	30	0	27514634240	12	16905
2026-01-12 08:16:48.13	53.72	28.87	-18.1	-18.6	17.0	0.00e+00	0	30	0	27632074752	12	16467
2026-01-12 08:16:49.14	53.19	28.87	-18.3	-18.8	17.1	0.00e+00	0	30	0	27741126656	12	16866
2026-01-12 08:16:50.15	52.67	28.86	-18.3	-18.7	17.2	0.00e+00	0	30	0	27850178560	12	16758
2026-01-12 08:16:51.15	52.15	28.85	-18.2	-18.6	17.2	0.00e+00	0	30	0	27967619072	12	16615
2026-01-12 08:16:52.17	51.62	28.84	-18.2	-18.7	17.2	0.00e+00	0	30	0	28085059584	12	16698
2026-01-12 08:16:53.17	51.10	28.83	-18.2	-18.6	17.2	0.00e+00	0	30	0	28194111488	12	16540
2026-01-12 08:16:54.18	50.58	28.81	-18.3	-18.8	17.2	0.00e+00	0	30	0	28311552000	12	16843
2026-01-12 08:16:55.19	50.06	28.79	-18.3	-18.7	17.3	0.00e+00	0	30	0	28420603904	12	16796
2026-01-12 08:16:56.19	49.54	28.77	-18.2	-18.7	17.3	0.00e+00	0	30	0	28538044416	12	16700
2026-01-12 08:16:57.20	49.02	28.75	-18.2	-18.7	17.3	0.00e+00	0	30	0	28647096320	12	16736
2026-01-12 08:16:58.21	48.50	28.72	-18.2	-18.7	17.3	0.00e+00	0	30	0	28764536832	12	16744
2026-01-12 08:16:59.22	47.98	28.69	-18.2	-18.7	17.3	0.00e+00	0	30	0	28873588736	12	16786
2026-01-12 08:17:00.22	47.47	28.66	-18.2	-18.7	17.3	0.00e+00	0	30	0	28991029248	12	16735
2026-01-12 08:17:01.23	46.95	28.63	-18.3	-18.8	17.4	0.00e+00	0	30	0	29100081152	12	16988
2026-01-12 08:17:02.24	46.44	28.60	-18.4	-18.8	17.4	0.00e+00	0	30	0	29217521664	12	17001
2026-01-12 08:17:03.25	45.92	28.56	-18.2	-18.7	17.4	0.00e+00	0	30	0	29326573568	12	16757
2026-01-12 08:17:04.26	45.41	28.52	-18.3	-18.8	17.4	0.00e+00	0	30	0	29444014080	12	16940
2026-01-12 08:17:05.27	44.90	28.48	-18.2	-18.7	17.4	0.00e+00	0	30	0	29553065984	12	16801
2026-01-12 08:17:06.28	44.39	28.43	-18.4	-18.9	17.4	0.00e+00	0	30	0	29670506496	12	17152
2026-01-12 08:17:07.29	43.88	28.39	-18.3	-18.8	17.4	0.00e+00	0	30	0	29779558400	12	16969
2026-01-12 08:17:08.30	43.37	28.34	-18.4	-18.9	17.4	0.00e+00	0	30	0	29896998912	12	17148
2026-01-12 08:17:09.31	42.87	28.29	-18.5	-19.0	17.3	0.00e+00	0	30	0	30014439424	12	17282
2026-01-12 08:17:10.32	42.37	28.23	-46.5	-49.2	6.1	0.00e+00	0	30	104	30106714112	60	35414
2026-01-12 08:17:11.32	41.87	28.18	-47.6	-50.2	6.1	0.00e+00	0	30	104	30106714112	60	39628
2026-01-12 08:17:12.33	41.37	28.12	-47.3	-50.0	6.1	0.00e+00	0	30	104	30106714112	60	38536
2026-01-12 08:17:13.34	40.87	28.06	-48.3	-50.8	6.1	0.00e+00	0	30	104	30106714112	60	42628
2026-01-12 08:17:14.35	40.38	28.00	-48.4	-50.8	6.1	0.00e+00	0	30	104	30106714112	60	42696
2026-01-12 08:17:15.36	39.89	27.94	-48.4	-50.8	6.1	0.00e+00	0	30	104	30106714112	60	42623
2026-01-12 08:17:16.36	39.40	27.87	-48.3	-50.8	6.1	0.00e+00	0	30	104	30106714112	60	42588
2026-01-12 08:17:17.37	38.91	27.80	-48.2	-50.8	6.1	0.00e+00	0	30	104	30106714112	60	42333
2026-01-12 08:17:18.38	38.43	27.73	-47.5	-50.2	6.1	0.00e+00	0	30	104	30106714112	60	39510
2026-01-12 08:17:19.39	37.94	27.66	-48.0	-50.5	6.1	0.00e+00	0	30	104	30106714112	60	41213
2026-01-12 08:17:20.40	37.46	27.59	-47.8	-50.5	6.1	0.00e+00	0	30	104	30106714112	60	40814
2026-01-12 08:17:21.41	36.98	27.52	-47.9	-50.5	6.1	0.00e+00	0	30	104	30106714112	60	41029
2026-01-12 08:17:22.42	36.51	27.44	-48.3	-50.8	6.1	0.00e+00	0	30	104	30106714112	60	42502
2026-01-12 08:17:23.43	36.03	27.36	-48.3	-50.8	6.1	0.00e+00	0	29	104	30106714112	60	42312
2026-01-12 08:17:24.44	35.56	27.28	-48.3	-50.8	6.1	0.00e+00	0	30	104	30106714112	60	42653
2026-01-12 08:17:25.45	35.09	27.20	-48.1	-50.7	6.1	0.00e+00	0	30	104	30106714112	60	41924
2026-01-12 08:17:26.46	34.63	27.11	-48.5	-50.9	6.1	0.00e+00	0	29	104	30106714112	60	43033
2026-01-12 08:17:27.47	34.16	27.03	-48.4	-50.9	6.1	0.00e+00	0	30	104	30106714112	60	43017
2026-01-12 08:17:28.47	33.71	26.94	-48.5	-51.0	6.1	0.00e+00	0	29	104	30106714112	60	43503
2026-01-12 08:17:29.49	33.24	26.85	-48.5	-50.9	6.1	0.00e+00	0	29	104	30106714112	60	43088
2026-01-12 08:17:30.49	32.79	26.77	-48.5	-50.9	6.1	0.00e+00	0	30	104	30106714112	60	43126
2026-01-12 08:17:31.50	32.34	26.67	-48.4	-50.9	6.1	0.00e+00	0	30	104	30106714112	60	42967
2026-01-12 08:17:32.52	31.89	26.58	-48.5	-50.9	6.1	0.00e+00	0	30	104	30106714112	60	43155
2026-01-12 08:17:33.53	31.44	26.49	-48.3	-50.8	6.1	0.00e+00	0	30	104	30106714112	60	42546
2026-01-12 08:17:34.54	31.00	26.39	-48.5	-51.0	6.1	0.00e+00	0	30	104	30106714112	60	43246
2026-01-12 08:17:35.55	30.56	26.30	-48.5	-51.0	6.1	0.00e+00	0	30	104	30106714112	60	43248
2026-01-12 08:17:36.56	30.12	26.20	-48.5	-51.0	6.1	0.00e+00	0	30	104	30106714112	60	43643
2026-01-12 08:17:37.57	29.69	26.10	-48.3	-50.8	6.1	0.00e+00	0	30	104	30106714112	60	42707
2026-01-12 08:17:38.58	29.25	26.00	-48.5	-50.9	6.1	0.00e+00	0	30	104	30106714112	60	43185
2026-01-12 08:17:39.59	28.83	25.90	-48.4	-50.9	6.1	0.00e+00	0	30	104	30106714112	60	43046
2026-01-12 08:17:40.60	28.40	25.79	-48.4	-50.9	6.1	0.00e+00	0	30	104	30106714112	60	42994
2026-01-12 08:17:41.61	27.98	25.69	-48.5	-50.9	6.1	0.00e+00	0	30	104	30106714112	60	43107
2026-01-12 08:17:42.61	27.56	25.59	-48.5	-51.0	6.1	0.00e+00	0	30	104	30106714112	60	43621
2026-01-12 08:17:43.62	27.15	25.48	-48.5	-51.0	6.1	0.00e+00	0	30	104	30106714112	60	43375
2026-01-12 08:17:44.63	26.74	25.37	-48.4	-50.9	6.1	0.00e+00	0	30	104	30106714112	60	43036
2026-01-12 08:17:45.64	26.33	25.27	-48.3	-50.8	6.1	0.00e+00	0	30	104	30106714112	60	42248
2026-01-12 08:17:46.65	25.92	25.16	-48.1	-50.7	6.1	0.00e+00	0	29	104	30106714112	60	41806
2026-01-12 08:17:47.66	25.52	25.05	-48.3	-50.9	6.1	0.00e+00	0	30	104	30106714112	60	42811
2026-01-12 08:17:48.67	25.11	24.94	-48.3	-50.9	6.1	0.00e+00	0	29	104	30106714112	60	42825
2026-01-12 08:17:49.68	24.72	24.83	-48.3	-50.8	6.1	0.00e+00	0	30	104	30106714112	60	42601
2026-01-12 08:17:50.69	24.32	24.71	-48.3	-50.8	6.1	0.00e+00	0	29	104	30106714112	60	42568
2026-01-12 08:17:51.69	23.94	24.60	-48.4	-50.9	6.1	0.00e+00	0	30	104	30106714112	60	42787
2026-01-12 08:17:52.70	23.55	24.49	-48.4	-50.9	6.1	0.00e+00	0	29	104	30106714112	60	42868
2026-01-12 08:17:53.71	23.16	24.37	-48.4	-50.9	6.0	0.00e+00	0	29	104	30106714112	60	43092
2026-01-12 08:17:54.73	22.78	24.26	-48.3	-50.8	6.1	0.00e+00	0	29	104	30106714112	60	42470
2026-01-12 08:17:55.73	22.40	24.14	-48.2	-50.7	6.1	0.00e+00	0	29	104	30106714112	60	42038
2026-01-12 08:17:56.74	22.03	24.03	-48.3	-50.8	6.1	0.00e+00	0	29	104	30106714112	60	42229
2026-01-12 08:17:57.75	21.66	23.91	-48.3	-50.8	6.1	0.00e+00	0	29	104	30106714112	60	42453
2026-01-12 08:17:58.76	21.29	23.79	-48.4	-50.9	6.1	0.00e+00	0	29	104	30106714112	60	42724
2026-01-12 08:17:59.76	20.92	23.68	-48.4	-50.9	6.1	0.00e+00	0	29	104	30106714112	60	42727
2026-01-12 08:18:00.77	20.56	23.56	-48.3	-50.8	6.1	0.00e+00	0	29	104	30106714112	60	42270
2026-01-12 08:18:01.78	20.20	23.44	-48.4	-50.8	6.1	0.00e+00	0	30	104	30106714112	60	42605
2026-01-12 08:18:02.79	19.84	23.32	-48.4	-50.9	6.1	0.00e+00	0	30	104	30106714112	60	42973
2026-01-12 08:18:03.80	19.49	23.20	-48.4	-50.9	6.1	0.00e+00	0	30	104	30106714112	60	42919
2026-01-12 08:18:04.81	19.14	23.08	-48.3	-50.8	6.1	0.00e+00	0	29	104	30106714112	60	42619
2026-01-12 08:18:05.82	18.79	22.96	-48.3	-50.8	6.1	0.00e+00	0	29	104	30106714112	60	42577
2026-01-12 08:18:06.83	18.45	22.84	-48.3	-50.8	6.1	0.00e+00	0	29	104	30106714112	60	42325
2026-01-12 08:18:07.84	18.11	22.72	-48.4	-50.9	6.1	0.00e+00	0	29	104	30106714112	60	42759
2026-01-12 08:18:08.85	17.77	22.60	-48.3	-50.8	6.1	0.00e+00	0	29	104	30106714112	60	42336
2026-01-12 08:18:09.85	17.44	22.48	-48.4	-50.9	6.1	0.00e+00	0	29	104	30106714112	60	42816
2026-01-12 08:18:10.86	17.10	22.36	-48.4	-50.8	6.1	0.00e+00	0	29	104	30106714112	60	42668
2026-01-12 08:18:11.87	16.77	22.24	-48.3	-50.8	6.1	0.00e+00	0	29	104	30106714112	60	42531
2026-01-12 08:18:12.88	16.45	22.11	-48.3	-50.8	6.1	0.00e+00	0	29	104	30106714112	60	42349
2026-01-12 08:18:13.89	16.12	21.99	-48.3	-50.8	6.1	0.00e+00	0	29	104	30106714112	60	42624
2026-01-12 08:18:14.89	15.80	21.87	-48.3	-50.8	6.1	0.00e+00	0	29	104	30106714112	60	42565
2026-01-12 08:18:15.90	15.49	21.75	-48.4	-50.9	6.1	0.00e+00	0	29	104	30106714112	60	42942
2026-01-12 08:18:16.91	15.17	21.63	-48.4	-50.8	6.1	0.00e+00	0	29	104	30106714112	60	42708
2026-01-12 08:18:17.92	14.86	21.50	-48.4	-50.8	6.1	0.00e+00	0	29	104	30106714112	60	42710
2026-01-12 08:18:18.93	14.55	21.38	-48.3	-50.7	6.1	0.00e+00	0	29	104	30106714112	60	42189
2026-01-12 08:18:19.94	14.24	21.26	-48.2	-50.7	6.1	0.00e+00	0	29	104	30106714112	60	42162
2026-01-12 08:18:20.95	13.94	21.14	-48.3	-50.8	6.1	0.00e+00	0	29	104	30106714112	60	42419
2026-01-12 08:18:21.95	13.64	21.01	-48.4	-50.8	6.1	0.00e+00	0	29	104	30106714112	60	42527
2026-01-12 08:18:22.96	13.34	20.89	-48.3	-50.8	6.1	0.00e+00	0	29	104	30106714112	60	42695
2026-01-12 08:18:23.97	13.04	20.77	-48.1	-50.6	6.1	0.00e+00	0	29	104	30106714112	60	41687
2026-01-12 08:18:24.98	12.75	20.65	-48.3	-50.8	6.1	0.00e+00	0	29	104	30106714112	60	42279
2026-01-12 08:18:25.99	12.46	20.52	-48.3	-50.8	6.1	0.00e+00	0	29	104	30106714112	60	42402
2026-01-12 08:18:27.00	12.17	20.40	-48.3	-50.8	6.1	0.00e+00	0	29	104	30106714112	60	42604
2026-01-12 08:18:28.01	11.89	20.28	-48.3	-50.8	6.1	0.00e+00	0	29	104	30106714112	60	42533
2026-01-12 08:18:29.02	11.60	20.16	-48.3	-50.8	6.1	0.00e+00	0	29	104	30106714112	60	42490
2026-01-12 08:18:30.03	11.32	20.03	-48.3	-50.9	6.1	0.00e+00	0	29	104	30106714112	60	42719
2026-01-12 08:18:31.03	11.05	19.91	-48.3	-50.8	6.1	0.00e+00	0	29	104	30106714112	60	42284
2026-01-12 08:18:32.04	10.77	19.79	-48.4	-50.9	6.1	0.00e+00	0	29	104	30106714112	60	42770
2026-01-12 08:18:33.05	10.50	19.67	-48.3	-50.8	6.1	0.00e+00	0	29	104	30106714112	60	42458
2026-01-12 08:18:34.06	10.23	19.55	-48.2	-50.7	6.1	0.00e+00	0	29	104	30106714112	60	42173
2026-01-12 08:18:35.07	9.96	19.42	-48.3	-50.8	6.1	0.00e+00	0	29	104	30106714112	60	42376
2026-01-12 08:18:36.08	9.70	19.30	-48.2	-50.7	6.1	0.00e+00	0	29	104	30106714112	60	42107
2026-01-12 08:18:37.09	9.44	19.18	-48.3	-50.8	6.1	0.00e+00	0	29	104	30106714112	60	42274
2026-01-12 08:18:38.10	9.18	19.06	-48.3	-50.8	6.0	0.00e+00	0	29	104	30106714112	60	42270
2026-01-12 08:18:39.11	8.92	18.94	-48.3	-50.7	6.1	0.00e+00	0	29	104	30106714112	60	42159
2026-01-12 08:18:40.12	8.66	18.82	-48.3	-50.7	6.1	0.00e+00	0	29	104	30106714112	60	42064
2026-01-12 08:18:41.13	8.41	18.70	-48.2	-50.7	6.1	0.00e+00	0	29	104	30106714112	60	42115
2026-01-12 08:18:42.14	8.16	18.58	-48.2	-50.8	6.1	0.00e+00	0	29	104	30106714112	60	42253
2026-01-12 08:18:43.14	7.91	18.46	-48.2	-50.7	6.1	0.00e+00	0	29	104	30106714112	60	42195
2026-01-12 08:18:44.16	7.66	18.34	-48.2	-50.7	6.1	0.00e+00	0	29	104	30106714112	60	42017
2026-01-12 08:18:45.17	7.42	18.22	-48.2	-50.7	6.1	0.00e+00	0	29	104	30106714112	60	42110
2026-01-12 08:18:46.17	7.18	18.10	-48.3	-50.8	6.1	0.00e+00	0	29	104	30106714112	60	42256
2026-01-12 08:18:47.19	6.94	17.98	-48.3	-50.7	6.1	0.00e+00	0	29	104	30106714112	60	42089
2026-01-12 08:18:48.20	6.70	17.86	-48.2	-50.7	6.1	0.00e+00	0	29	104	30106714112	60	41834
2026-01-12 08:18:49.20	6.47	17.74	-48.1	-50.7	6.1	0.00e+00	0	29	104	30106714112	60	41796
2026-01-12 08:18:50.21	6.24	17.63	-48.1	-50.6	6.1	0.00e+00	0	29	104	30106714112	60	41652
2026-01-12 08:18:51.22	6.01	17.51	-48.1	-50.6	6.1	0.00e+00	0	29	104	30106714112	60	41300
2026-01-12 08:18:52.23	5.78	17.39	-48.1	-50.6	6.1	0.00e+00	0	29	104	30106714112	60	41733
2026-01-12 08:18:53.24	5.55	17.27	-48.0	-50.6	6.1	0.00e+00	0	29	104	30106714112	60	41327
2026-01-12 08:18:54.25	5.33	17.16	-48.2	-50.7	6.1	0.00e+00	0	29	104	30106714112	60	41991
2026-01-12 08:18:55.26	5.10	17.04	-48.2	-50.6	6.1	0.00e+00	0	29	104	30106714112	60	41688
2026-01-12 08:18:56.27	4.88	16.92	-48.2	-50.7	6.1	0.00e+00	0	29	104	30106714112	60	41814
2026-01-12 08:18:57.28	4.66	16.81	-48.1	-50.6	6.1	0.00e+00	0	29	104	30106714112	60	41712
2026-01-12 08:18:58.28	4.45	16.69	-48.2	-50.7	6.1	0.00e+00	0	29	104	30106714112	60	41936
2026-01-12 08:18:59.30	4.23	16.58	-48.2	-50.7	6.1	0.00e+00	0	29	104	30106714112	60	42085
2026-01-12 08:19:00.30	4.02	16.46	-48.2	-50.7	6.1	0.00e+00	0	29	104	30106714112	60	41855
2026-01-12 08:19:01.31	3.81	16.35	-48.2	-50.7	6.1	0.00e+00	0	29	104	30106714112	60	41754
2026-01-12 08:19:02.32	3.60	16.23	-48.2	-50.7	6.1	0.00e+00	0	29	104	30106714112	60	41820
2026-01-12 08:19:03.33	3.40	16.12	-48.1	-50.7	6.1	0.00e+00	0	29	104	30106714112	60	41913
2026-01-12 08:19:04.34	3.19	16.00	-48.2	-50.7	6.1	0.00e+00	0	29	104	30106714112	60	42151
2026-01-12 08:19:05.35	2.99	15.89	-48.1	-50.6	6.1	0.00e+00	0	29	104	30106714112	60	41535
2026-01-12 08:19:06.36	2.79	15.78	-48.2	-50.7	6.1	0.00e+00	0	29	104	30106714112	60	41848
2026-01-12 08:19:07.37	2.59	15.67	-48.2	-50.6	6.1	0.00e+00	0	30	104	30106714112	60	41731
2026-01-12 08:19:08.38	2.39	15.55	-48.2	-50.7	6.1	0.00e+00	0	29	104	30106714112	60	42083
2026-01-12 08:19:09.39	2.19	15.44	-48.2	-50.6	6.1	0.00e+00	0	29	104	30106714112	60	41644
2026-01-12 08:19:10.40	2.00	15.33	-48.2	-50.7	6.1	0.00e+00	0	29	104	30106714112	60	41914
2026-01-12 08:19:11.41	1.81	15.22	-48.2	-50.7	6.1	0.00e+00	0	29	104	30106714112	60	41893
2026-01-12 08:19:12.42	1.61	15.11	-48.2	-50.6	6.1	0.00e+00	0	29	104	30106714112	60	41651
2026-01-12 08:19:13.43	1.43	15.00	-48.2	-50.6	6.1	0.00e+00	0	29	104	30106714112	60	41664
2026-01-12 08:19:14.44	1.24	14.89	-48.0	-50.5	6.1	0.00e+00	0	29	104	30106714112	60	40951
2026-01-12 08:19:15.45	1.05	14.78	-48.1	-50.6	6.1	0.00e+00	0	29	104	30106714112	60	41288
2026-01-12 08:19:16.46	0.87	14.67	-47.9	-50.4	6.1	0.00e+00	0	29	104	30106714112	60	40613
2026-01-12 08:19:17.47	0.69	14.56	-48.0	-50.5	6.1	0.00e+00	0	29	104	30106714112	60	41093
2026-01-12 08:19:18.47	0.51	14.45	-48.1	-50.6	6.0	0.00e+00	0	29	104	30106714112	60	41440
2026-01-12 08:19:19.49	0.33	14.34	-48.1	-50.6	6.1	0.00e+00	0	29	104	30106714112	60	41554
2026-01-12 08:19:20.49	0.15	14.24	-48.1	-50.6	6.1	0.00e+00	0	29	104	30106714112	60	41567
2026-01-12 08:19:21.50	359.97	14.13	-48.0	-50.5	6.1	0.00e+00	0	29	104	30106714112	60	40859
2026-01-12 08:19:22.51	359.80	14.02	-47.9	-50.4	6.1	0.00e+00	0	29	104	30106714112	60	40764
2026-01-12 08:19:23.52	359.62	13.91	-48.1	-50.6	6.1	0.00e+00	0	29	104	30106714112	60	41468
2026-01-12 08:19:24.53	359.45	13.81	-48.1	-50.6	6.1	0.00e+00	0	29	104	30106714112	60	41475
2026-01-12 08:19:25.54	359.28	13.70	-48.0	-50.5	6.1	0.00e+00	0	29	104	30106714112	60	41117
2026-01-12 08:19:26.55	359.11	13.60	-48.1	-50.5	6.1	0.00e+00	0	29	104	30106714112	60	41250
2026-01-12 08:19:27.56	358.95	13.49	-48.1	-50.6	6.1	0.00e+00	0	29	104	30106714112	60	41422
2026-01-12 08:19:28.57	358.78	13.39	-48.1	-50.6	6.1	0.00e+00	0	29	104	30106714112	60	41421
2026-01-12 08:19:29.57	358.62	13.28	-48.1	-50.6	6.1	0.00e+00	0	29	104	30106714112	60	41286
2026-01-12 08:19:30.58	358.45	13.18	-48.0	-50.5	6.1	0.00e+00	0	29	104	30106714112	60	41262
2026-01-12 08:19:31.59	358.29	13.08	-48.0	-50.5	6.1	0.00e+00	0	29	104	30106714112	60	41078
2026-01-12 08:19:32.60	358.13	12.97	-48.0	-50.6	6.1	0.00e+00	0	29	104	30106714112	60	41371
2026-01-12 08:19:33.60	357.98	12.87	-48.0	-50.5	6.1	0.00e+00	0	29	104	30106714112	60	40985
2026-01-12 08:19:34.61	357.82	12.77	-48.0	-50.5	6.1	0.00e+00	0	29	104	30106714112	60	41082
2026-01-12 08:19:35.62	357.66	12.67	-48.1	-50.5	6.1	0.00e+00	0	29	104	30106714112	60	41014
2026-01-12 08:19:36.63	357.51	12.56	-48.1	-50.5	6.1	0.00e+00	0	29	104	30106714112	60	41192
2026-01-12 08:19:37.64	357.35	12.46	-48.0	-50.5	6.0	0.00e+00	0	29	104	30106714112	60	41008
2026-01-12 08:19:38.65	357.20	12.36	-48.0	-50.5	6.1	0.00e+00	0	29	104	30106714112	60	40829
2026-01-12 08:19:39.66	357.05	12.26	-48.1	-50.6	6.1	0.00e+00	0	29	104	30106714112	60	41364
2026-01-12 08:19:40.67	356.90	12.16	-48.0	-50.5	6.1	0.00e+00	0	29	104	30106714112	60	41071
2026-01-12 08:19:41.68	356.75	12.06	-48.0	-50.5	6.1	0.00e+00	0	29	104	30106714112	60	41098
2026-01-12 08:19:42.69	356.60	11.96	-48.0	-50.5	6.1	0.00e+00	0	29	104	30106714112	60	41062
2026-01-12 08:19:43.70	356.46	11.86	-48.0	-50.6	6.1	0.00e+00	0	29	104	30106714112	60	41296
2026-01-12 08:19:44.71	356.31	11.76	-48.0	-50.5	6.1	0.00e+00	0	29	104	30106714112	60	40795
2026-01-12 08:19:45.71	356.17	11.67	-48.0	-50.5	6.1	0.00e+00	0	29	104	30106714112	60	40985
2026-01-12 08:19:46.72	356.03	11.57	-48.0	-50.5	6.1	0.00e+00	0	29	104	30106714112	60	41151
2026-01-12 08:19:47.73	355.89	11.47	-48.0	-50.5	6.1	0.00e+00	0	29	104	30106714112	60	41031
2026-01-12 08:19:48.74	355.75	11.37	-48.0	-50.4	6.1	0.00e+00	0	29	104	30106714112	60	40638
2026-01-12 08:19:49.75	355.61	11.28	-47.8	-50.3	6.1	0.00e+00	0	29	104	30106714112	60	40125
2026-01-12 08:19:50.76	355.47	11.18	-48.0	-50.4	6.1	0.00e+00	0	29	104	30106714112	60	40739
2026-01-12 08:19:51.77	355.33	11.08	-47.7	-50.3	6.1	0.00e+00	0	29	104	30106714112	60	40017
2026-01-12 08:19:52.78	355.20	10.99	-47.8	-50.3	6.1	0.00e+00	0	29	104	30106714112	60	40042
2026-01-12 08:19:53.79	355.06	10.89	-47.9	-50.4	6.1	0.00e+00	0	29	104	30106714112	60	40474
2026-01-12 08:19:54.80	354.93	10.80	-47.6	-50.1	6.1	0.00e+00	0	29	104	30106714112	60	39372
2026-01-12 08:19:55.81	354.80	10.70	-48.0	-50.4	6.1	0.00e+00	0	29	104	30106714112	60	40724
2026-01-12 08:19:56.81	354.67	10.61	-47.9	-50.3	6.1	0.00e+00	0	29	104	30106714112	60	40251
2026-01-12 08:19:57.83	354.54	10.51	-47.9	-50.4	6.1	0.00e+00	0	29	104	30106714112	60	40555
2026-01-12 08:19:58.83	354.41	10.42	-47.9	-50.4	6.1	0.00e+00	0	29	104	30106714112	60	40714
2026-01-12 08:19:59.84	354.28	10.33	-47.9	-50.4	6.1	0.00e+00	0	29	104	30106714112	60	40351
2026-01-12 08:20:00.85	354.15	10.23	-47.8	-50.3	6.1	0.00e+00	0	29	104	30106714112	60	40208
2026-01-12 08:20:01.86	354.03	10.14	-47.9	-50.4	6.1	0.00e+00	0	29	104	30106714112	60	40355
2026-01-12 08:20:02.87	353.90	10.05	-47.8	-50.3	6.1	0.00e+00	0	29	104	30106714112	60	40238
2026-01-12 08:20:03.88	353.78	9.96	-47.9	-50.4	6.1	0.00e+00	0	29	104	30106714112	60	40691
2026-01-12 08:20:04.89	353.65	9.87	-47.8	-50.3	6.1	0.00e+00	0	29	104	30106714112	60	39895
2026-01-12 08:20:05.89	353.53	9.77	-47.8	-50.3	6.1	0.00e+00	0	29	104	30106714112	60	40074
2026-01-12 08:20:06.90	353.41	9.68	-47.9	-50.4	6.1	0.00e+00	0	29	104	30106714112	60	40583
2026-01-12 08:20:07.91	353.29	9.59	-47.9	-50.4	6.1	0.00e+00	0	29	104	30106714112	60	40424
2026-01-12 08:20:08.92	353.17	9.50	-47.8	-50.3	6.1	0.00e+00	0	29	104	30106714112	60	39880
2026-01-12 08:20:09.93	353.05	9.41	-47.8	-50.3	6.1	0.00e+00	0	29	104	30106714112	60	40259
2026-01-12 08:20:10.94	352.94	9.32	-47.8	-50.4	6.1	0.00e+00	0	29	104	30106714112	60	40400
2026-01-12 08:20:11.95	352.82	9.23	-47.9	-50.4	6.1	0.00e+00	0	29	104	30106714112	60	40748
2026-01-12 08:20:12.96	352.70	9.14	-47.7	-50.2	6.1	0.00e+00	0	29	104	30106714112	60	39814
2026-01-12 08:20:13.97	352.59	9.06	-47.8	-50.3	6.1	0.00e+00	0	29	104	30106714112	60	40166
2026-01-12 08:20:14.97	352.48	8.97	-47.9	-50.3	6.1	0.00e+00	0	29	104	30106714112	60	40293
2026-01-12 08:20:15.98	352.36	8.88	-47.9	-50.4	6.1	0.00e+00	0	29	104	30106714112	60	40405
2026-01-12 08:20:16.99	352.25	8.79	-47.8	-50.3	6.1	0.00e+00	0	29	104	30106714112	60	40086
2026-01-12 08:20:18.00	352.14	8.70	-47.7	-50.2	6.1	0.00e+00	0	29	104	30106714112	60	39774
2026-01-12 08:20:19.01	352.03	8.62	-47.8	-50.3	6.1	0.00e+00	0	29	104	30106714112	60	40290
2026-01-12 08:20:20.02	351.92	8.53	-47.9	-50.4	6.1	0.00e+00	0	29	104	30106714112	60	40334
2026-01-12 08:20:21.03	351.81	8.44	-47.6	-50.1	6.1	0.00e+00	0	29	104	30106714112	60	39185
2026-01-12 08:20:22.03	351.70	8.36	-47.7	-50.2	6.1	0.00e+00	0	29	104	30106714112	60	39600
2026-01-12 08:20:23.04	351.60	8.27	-47.9	-50.3	6.1	0.00e+00	0	29	104	30106714112	60	40293
2026-01-12 08:20:24.05	351.49	8.19	-47.7	-50.2	6.1	0.00e+00	0	29	104	30106714112	60	39805
2026-01-12 08:20:25.06	351.38	8.10	-47.7	-50.2	6.1	0.00e+00	0	29	104	30106714112	60	39482
2026-01-12 08:20:26.07	351.28	8.02	-47.7	-50.2	6.1	0.00e+00	0	29	104	30106714112	60	39712
2026-01-12 08:20:27.08	351.17	7.93	-47.7	-50.2	6.1	0.00e+00	0	29	104	30106714112	60	39651
2026-01-12 08:20:28.09	351.07	7.85	-47.8	-50.4	6.1	0.00e+00	0	29	104	30106714112	60	40444
2026-01-12 08:20:29.10	350.97	7.76	-47.7	-50.1	6.1	0.00e+00	0	29	104	30106714112	60	39377
2026-01-12 08:20:30.11	350.87	7.68	-47.7	-50.2	6.1	0.00e+00	0	29	104	30106714112	60	39421
2026-01-12 08:20:31.12	350.77	7.60	-47.8	-50.3	6.1	0.00e+00	0	29	104	30106714112	60	40108
2026-01-12 08:20:32.12	350.67	7.51	-47.8	-50.3	6.1	0.00e+00	0	29	104	30106714112	60	40066
2026-01-12 08:20:33.13	350.57	7.43	-47.6	-50.0	6.1	0.00e+00	0	29	104	30106714112	60	38882
2026-01-12 08:20:34.14	350.47	7.35	-47.6	-50.1	6.1	0.00e+00	0	29	104	30106714112	60	39111
2026-01-12 08:20:35.15	350.37	7.27	-47.7	-50.3	6.1	0.00e+00	0	29	104	30106714112	60	39984
2026-01-12 08:20:36.16	350.27	7.18	-47.7	-50.2	6.1	0.00e+00	0	29	104	30106714112	60	39811
2026-01-12 08:20:37.17	350.18	7.10	-47.5	-50.0	6.1	0.00e+00	0	29	104	30106714112	60	38874
2026-01-12 08:20:38.18	350.08	7.02	-47.6	-50.1	6.1	0.00e+00	0	29	104	30106714112	60	39097
2026-01-12 08:20:39.19	349.98	6.94	-47.8	-50.3	6.1	0.00e+00	0	29	104	30106714112	60	39910
2026-01-12 08:20:40.20	349.89	6.86	-47.7	-50.2	6.1	0.00e+00	0	29	104	30106714112	60	39668
2026-01-12 08:20:41.21	349.80	6.78	-47.5	-50.0	6.1	0.00e+00	0	29	104	30106714112	60	38846
2026-01-12 08:20:42.21	349.70	6.70	-47.6	-50.2	6.1	0.00e+00	0	29	104	30106714112	60	39498
2026-01-12 08:20:43.22	349.61	6.62	-47.8	-50.3	6.1	0.00e+00	0	29	104	30106714112	60	39989
2026-01-12 08:20:44.23	349.52	6.54	-47.7	-50.2	6.1	0.00e+00	0	29	104	30106714112	60	39711
2026-01-12 08:20:45.25	349.43	6.46	-47.4	-49.9	6.1	0.00e+00	0	29	104	30106714112	60	38244
2026-01-12 08:20:46.25	349.34	6.38	-47.6	-50.1	6.1	0.00e+00	0	29	104	30106714112	60	39346
2026-01-12 08:20:47.26	349.25	6.30	-47.6	-50.1	6.1	0.00e+00	0	29	104	30106714112	60	39307
2026-01-12 08:20:48.27	349.16	6.22	-47.7	-50.2	6.1	0.00e+00	0	29	104	30106714112	60	39719
2026-01-12 08:20:49.28	349.07	6.14	-47.5	-50.0	6.1	0.00e+00	0	29	104	30106714112	60	38551
2026-01-12 08:20:50.30	348.98	6.06	-47.6	-50.1	6.1	0.00e+00	0	29	104	30106714112	60	39311
2026-01-12 08:20:51.30	348.89	5.98	-47.7	-50.2	6.1	0.00e+00	0	29	104	30106714112	60	39440
2026-01-12 08:20:52.31	348.81	5.91	-47.6	-50.1	6.1	0.00e+00	0	29	104	30106714112	60	39092
2026-01-12 08:20:53.32	348.72	5.83	-47.5	-49.9	6.1	0.00e+00	0	29	104	30106714112	60	38503
2026-01-12 08:20:54.33	348.63	5.75	-47.4	-49.9	6.1	0.00e+00	0	29	104	30106714112	60	38447
2026-01-12 08:20:55.34	348.55	5.68	-47.7	-50.2	6.1	0.00e+00	0	29	104	30106714112	60	39656
2026-01-12 08:20:56.35	348.47	5.60	-47.7	-50.1	6.1	0.00e+00	0	29	104	30106714112	60	39294
2026-01-12 08:20:57.36	348.38	5.52	-47.3	-49.8	6.1	0.00e+00	0	29	104	30106714112	60	37748
2026-01-12 08:20:58.37	348.30	5.45	-47.2	-49.8	6.1	0.00e+00	0	29	104	30106714112	60	37673
2026-01-12 08:20:59.38	348.22	5.37	-47.5	-50.0	6.1	0.00e+00	0	29	104	30106714112	60	38810
2026-01-12 08:21:00.39	348.13	5.29	-47.2	-49.8	6.1	0.00e+00	0	29	104	30106714112	60	37719
2026-01-12 08:21:01.40	348.05	5.22	-47.0	-49.5	6.1	0.00e+00	0	29	104	30106714112	60	36385
2026-01-12 08:21:02.41	347.97	5.14	-46.9	-49.5	6.1	0.00e+00	0	29	104	30106714112	60	36486
2026-01-12 08:21:03.42	347.89	5.07	-47.3	-49.8	6.1	0.00e+00	0	29	104	30106714112	60	37951
2026-01-12 08:21:04.43	347.81	4.99	-46.8	-49.3	6.1	0.00e+00	0	29	104	30106714112	60	35759
2026-01-12 08:21:05.44	347.73	4.92	-46.8	-49.2	6.1	0.00e+00	0	29	104	30106714112	60	35511
2026-01-12 08:21:06.45	347.65	4.84	-46.5	-49.0	6.1	0.00e+00	0	29	104	30106714112	60	34469
2026-01-12 08:21:07.46	347.57	4.77	-45.8	-48.3	6.1	0.00e+00	0	29	104	30106714112	60	31736
2026-01-12 08:21:08.47	347.50	4.69	-45.3	-47.7	6.1	0.00e+00	0	29	104	30106714112	60	29852
2026-01-12 08:21:09.48	347.42	4.62	-46.3	-48.8	6.1	0.00e+00	0	29	104	30106714112	60	33602
2026-01-12 08:21:10.48	347.34	4.55	-46.7	-49.2	6.1	0.00e+00	0	29	104	30106714112	60	35200
2026-01-12 08:21:11.48	347.27	4.48	-45.1	-47.6	6.1	0.00e+00	0	29	104	30106714112	60	29520
2026-01-12 08:21:12.49	347.19	4.40	-44.3	-46.9	6.1	0.00e+00	0	29	104	30106714112	60	27030
2026-01-12 08:21:13.51	347.11	4.33	-44.2	-46.7	6.1	0.00e+00	0	29	104	30106714112	60	26421
2026-01-12 08:21:14.51	347.04	4.26	-44.0	-46.5	6.1	0.00e+00	0	29	104	30106714112	60	25924
2026-01-12 08:21:15.52	346.97	4.18	-43.9	-46.4	6.1	0.00e+00	0	29	104	30106714112	60	25697
2026-01-12 08:21:16.53	346.89	4.11	-43.9	-46.4	6.1	0.00e+00	0	29	104	30106714112	60	25506
2026-01-12 08:21:17.54	346.82	4.04	-44.0	-46.5	6.1	0.00e+00	0	29	104	30106714112	60	25919
2026-01-12 08:21:18.55	346.75	3.97	-44.6	-47.1	6.1	0.00e+00	0	29	104	30106714112	60	27871
2026-01-12 08:21:19.56	346.67	3.90	-44.3	-46.8	6.1	0.00e+00	0	29	104	30106714112	60	26854
2026-01-12 08:21:20.56	346.60	3.83	-44.1	-46.6	6.1	0.00e+00	0	29	104	30106714112	60	26111
2026-01-12 08:21:21.57	346.53	3.76	-44.1	-46.6	6.1	0.00e+00	0	29	104	30106714112	60	26097
2026-01-12 08:21:22.58	346.46	3.68	-43.7	-46.2	6.1	0.00e+00	0	29	104	30106714112	60	24977
2026-01-12 08:21:23.59	346.39	3.61	-43.6	-46.1	6.1	0.00e+00	0	29	104	30106714112	60	24722
2026-01-12 08:21:24.60	346.32	3.54	-43.6	-46.1	6.1	0.00e+00	0	29	104	30106714112	60	24663
2026-01-12 08:21:25.61	346.25	3.47	-43.8	-46.3	6.1	0.00e+00	0	29	104	30106714112	60	25224
2026-01-12 08:21:26.62	346.18	3.40	-43.7	-46.2	6.0	0.00e+00	0	29	104	30106714112	60	24896
2026-01-12 08:21:27.63	346.11	3.33	-43.9	-46.4	6.1	0.00e+00	0	29	104	30106714112	60	25528
2026-01-12 08:21:28.64	346.04	3.26	-43.8	-46.3	6.1	0.00e+00	0	29	104	30106714112	60	25160
2026-01-12 08:21:29.65	345.98	3.19	-43.9	-46.4	6.1	0.00e+00	0	29	104	30106714112	60	25470
2026-01-12 08:21:30.66	345.91	3.12	-44.0	-46.5	6.1	0.00e+00	0	29	104	30106714112	60	25915
2026-01-12 08:21:31.67	345.84	3.05	-43.7	-46.1	6.1	0.00e+00	0	29	104	30106714112	60	24772
2026-01-12 08:21:32.68	345.77	2.99	-43.7	-46.2	6.1	0.00e+00	0	29	104	30106714112	60	24995
2026-01-12 08:21:33.69	345.71	2.92	-47.3	-49.8	6.1	0.00e+00	0	29	104	30106714112	60	37879
2026-01-12 08:21:34.70	345.64	2.85	-48.0	-50.5	6.1	0.00e+00	0	29	104	30106714112	60	41000
2026-01-12 08:21:35.70	345.58	2.78	-48.2	-50.7	6.1	0.00e+00	0	29	104	30106714112	60	41906
2026-01-12 08:21:36.71	345.51	2.71	-48.4	-50.9	6.1	0.00e+00	0	29	104	30106714112	60	42898
2026-01-12 08:21:37.72	345.45	2.64	-48.5	-51.0	6.1	0.00e+00	0	29	104	30106714112	60	43637
2026-01-12 08:21:38.74	345.38	2.58	-48.6	-51.1	6.1	0.00e+00	0	29	104	30106714112	60	43795
2026-01-12 08:21:39.74	345.32	2.51	-48.6	-51.1	6.1	0.00e+00	0	29	104	30106714112	60	43779
2026-01-12 08:21:40.75	345.26	2.44	-47.8	-50.4	6.1	0.00e+00	0	29	104	30106714112	60	40693
2026-01-12 08:21:41.76	345.19	2.37	-48.5	-51.0	6.1	0.00e+00	0	29	104	30106714112	60	43632
2026-01-12 08:21:42.76	345.13	2.31	-48.3	-50.8	6.1	0.00e+00	0	29	104	30106714112	60	42461
2026-01-12 08:21:43.77	345.07	2.24	-48.4	-51.0	6.1	0.00e+00	0	29	104	30106714112	60	43230
2026-01-12 08:21:44.78	345.01	2.17	-48.2	-50.8	6.1	0.00e+00	0	29	104	30106714112	60	42244
2026-01-12 08:21:45.79	344.95	2.11	-48.2	-50.8	6.1	0.00e+00	0	29	104	30106714112	60	42278
2026-01-12 08:21:46.80	344.89	2.04	-48.5	-51.0	6.1	0.00e+00	0	29	104	30106714112	60	43332
2026-01-12 08:21:47.81	344.82	1.97	-48.5	-51.0	6.1	0.00e+00	0	29	104	30106714112	60	43287
2026-01-12 08:21:48.82	344.76	1.91	-48.5	-51.0	6.1	0.00e+00	0	29	104	30106714112	60	43408
2026-01-12 08:21:49.83	344.70	1.84	-48.5	-51.0	6.1	0.00e+00	0	29	104	30106714112	60	43603
2026-01-12 08:21:50.84	344.64	1.78	-48.5	-50.9	6.1	0.00e+00	0	29	104	30106714112	60	43076
2026-01-12 08:21:51.84	344.59	1.71	-48.5	-51.0	6.1	0.00e+00	0	29	104	30106714112	60	43240
2026-01-12 08:21:52.85	344.53	1.65	-48.5	-51.0	6.1	0.00e+00	0	29	104	30106714112	60	43218
2026-01-12 08:21:53.87	344.47	1.58	-48.5	-50.9	6.1	0.00e+00	0	29	104	30106714112	60	43036
2026-01-12 08:21:54.87	344.41	1.52	-48.5	-51.0	6.1	0.00e+00	0	29	104	30106714112	60	43578
2026-01-12 08:21:55.88	344.35	1.45	-48.5	-51.0	6.1	0.00e+00	0	29	104	30106714112	60	43418
2026-01-12 08:21:56.89	344.30	1.39	-48.5	-51.0	6.1	0.00e+00	0	29	104	30106714112	60	43369
2026-01-12 08:21:57.90	344.24	1.32	-48.5	-51.0	6.1	0.00e+00	0	29	104	30106714112	60	43332
2026-01-12 08:21:58.92	344.18	1.26	-48.7	-51.1	6.1	0.00e+00	0	29	104	30106714112	60	44142
2026-01-12 08:21:59.92	344.12	1.19	-48.5	-51.0	6.1	0.00e+00	0	29	104	30106714112	60	43580
2026-01-12 08:22:00.93	344.07	1.13	-48.6	-51.1	6.1	0.00e+00	0	29	104	30106714112	60	43773
2026-01-12 08:22:01.94	344.01	1.07	-48.6	-51.1	6.1	0.00e+00	0	29	104	30106714112	60	43716
2026-01-12 08:22:02.95	343.96	1.00	-48.6	-51.1	6.1	0.00e+00	0	29	104	30106714112	60	43869
2026-01-12 08:22:03.96	343.90	0.94	-48.7	-51.1	6.1	0.00e+00	0	29	104	30106714112	60	43846
2026-01-12 08:22:04.97	343.85	0.88	-48.6	-51.1	6.1	0.00e+00	0	29	104	30106714112	60	44062
2026-01-12 08:22:05.98	343.79	0.81	-48.6	-51.1	6.1	0.00e+00	0	29	104	30106714112	60	43876
2026-01-12 08:22:06.99	343.74	0.75	-48.5	-51.0	6.1	0.00e+00	0	29	104	30106714112	60	43322
2026-01-12 08:22:08.00	343.68	0.69	-48.5	-51.0	6.1	0.00e+00	0	29	104	30106714112	60	43394
2026-01-12 08:22:09.01	343.63	0.62	-48.6	-51.1	6.1	0.00e+00	0	29	104	30106714112	60	43716
2026-01-12 08:22:10.02	343.58	0.56	-48.5	-51.1	6.1	0.00e+00	0	29	104	30106714112	60	43712
2026-01-12 08:22:11.03	343.52	0.50	-48.6	-51.1	6.1	0.00e+00	0	29	104	30106714112	60	44080
2026-01-12 08:22:12.03	343.47	0.44	-48.7	-51.2	6.1	0.00e+00	0	29	104	30106714112	60	44403
2026-01-12 08:22:13.04	343.42	0.37	-48.8	-51.2	6.1	0.00e+00	0	29	104	30106714112	60	44613
2026-01-12 08:22:14.05	343.37	0.31	-48.6	-51.1	6.1	0.00e+00	0	29	104	30106714112	60	43924
2026-01-12 08:22:15.06	343.32	0.25	-48.6	-51.1	6.1	0.00e+00	0	29	104	30106714112	60	44001
2026-01-12 08:22:16.07	343.26	0.19	-48.6	-51.1	6.1	0.00e+00	0	29	104	30106714112	60	43765
2026-01-12 08:22:17.09	343.21	0.13	-48.5	-51.0	6.1	0.00e+00	0	29	104	30106714112	60	43589
2026-01-12 08:22:18.09	343.16	0.06	-48.6	-51.0	6.1	0.00e+00	0	29	104	30106714112	60	43526
2026-01-12 08:22:19.10	343.11	0.00	-48.7	-51.1	6.1	0.00e+00	0	29	104	30106714112	60	44113
2026-01-12 08:22:20.11	343.06	-0.06	-48.6	-51.1	6.1	0.00e+00	0	29	104	30106714112	60	44020

#Closed at: 2026-01-12 08:22:20
#Recorded file [30106 MB]: D:/lorett/data/35029_260112_201149.dat