passes_logs/2026/01/12/R4.6S_Anadyr/R4.6S_Anadyr__20260112_214742_NOAA_21_JPSS-2_rec.log

#Pass ID: 20260112_214742_NOAA 21 (JPSS-2)
#Satellite: NOAA 21 (JPSS-2)
#Configuration: NOAA-21
#almurnet v.1.7.20251203
#Start time: 2026-01-12 21:47:47

#Version: 2.2.20231116
#Station: R4.6S_Anadyr
#Location: 177.4865 lon 64.73178 lat
#TLE: 1 54234U 22150A   26011.55893233  .00000075  00000+0  56634-4 0  9995
#TLE: 2 54234  98.7494 312.5004 0000755 313.1908  46.9205 14.19534095164321

#Time	Az	El	Level	Level2	SNR	BER	BlckErr	Temp	State	Recorded	gain1	gain2
2026-01-12 21:47:47.58	98.22	0.27	-48.6	-50.2	5.7	0.00e+00	0	25	0	0	60	39574
2026-01-12 21:47:48.59	98.16	0.32	-48.7	-61.5	3.5	1.52e+00	0	26	104	0	60	41773
2026-01-12 21:47:49.60	98.10	0.38	-48.7	-61.6	3.5	1.52e+00	0	26	104	0	60	42104
2026-01-12 21:47:50.61	98.05	0.43	-48.6	-61.5	3.5	1.51e+00	0	26	104	0	60	41773
2026-01-12 21:47:51.62	97.99	0.49	-48.6	-61.4	3.5	1.52e+00	0	27	104	0	60	41322
2026-01-12 21:47:52.63	97.93	0.54	-48.5	-61.4	3.5	1.52e+00	0	26	104	0	60	41216
2026-01-12 21:47:53.64	97.88	0.60	-48.5	-61.4	3.5	1.52e+00	0	27	104	0	60	41072
2026-01-12 21:47:54.65	97.82	0.65	-48.5	-61.3	3.5	1.51e+00	0	27	104	0	60	40952
2026-01-12 21:47:55.66	97.76	0.71	-48.0	-61.2	3.5	1.52e+00	0	27	104	0	60	40497
2026-01-12 21:47:56.67	97.70	0.77	-47.5	-61.2	3.5	1.52e+00	0	27	104	0	60	40327
2026-01-12 21:47:57.68	97.64	0.82	-46.4	-61.1	3.5	1.52e+00	0	27	104	0	60	39914
2026-01-12 21:47:58.69	97.59	0.88	-47.1	-61.0	3.5	1.51e+00	0	27	104	0	60	39213
2026-01-12 21:47:59.70	97.53	0.93	-47.8	-60.8	3.5	1.52e+00	0	27	104	0	60	38267
2026-01-12 21:48:00.71	97.47	0.99	-45.7	-60.4	3.5	1.52e+00	0	27	104	0	60	36688
2026-01-12 21:48:01.72	97.41	1.05	-46.3	-59.6	3.5	1.51e+00	0	27	104	0	60	33593
2026-01-12 21:48:02.73	97.35	1.10	-46.3	-59.5	3.5	1.52e+00	0	27	104	0	60	33097
2026-01-12 21:48:03.73	97.29	1.16	-46.3	-59.5	3.5	1.52e+00	0	27	104	0	60	33270
2026-01-12 21:48:04.74	97.23	1.21	-46.3	-59.5	3.5	1.52e+00	0	27	104	0	60	33179
2026-01-12 21:48:05.75	97.17	1.27	-46.3	-59.5	3.5	1.52e+00	0	27	104	0	60	33167
2026-01-12 21:48:06.76	97.11	1.33	-46.4	-59.6	3.5	1.52e+00	0	27	104	0	60	33348
2026-01-12 21:48:07.77	97.05	1.38	-46.4	-59.5	3.5	1.52e+00	0	27	104	0	60	33324
2026-01-12 21:48:08.78	96.99	1.44	-46.3	-59.5	3.5	1.52e+00	0	27	104	0	60	33235
2026-01-12 21:48:09.79	96.93	1.50	-46.3	-59.5	3.5	1.51e+00	0	27	104	0	60	33039
2026-01-12 21:48:10.80	96.87	1.55	-46.4	-59.5	3.5	1.52e+00	0	27	104	0	60	33123
2026-01-12 21:48:11.82	96.80	1.61	-46.3	-59.6	3.5	1.52e+00	0	27	104	0	60	33351
2026-01-12 21:48:12.82	96.74	1.67	-46.3	-59.6	3.5	1.52e+00	0	27	104	0	60	33337
2026-01-12 21:48:13.83	96.68	1.72	-46.4	-59.6	3.5	1.52e+00	0	27	104	0	60	33401
2026-01-12 21:48:14.84	96.62	1.78	-46.4	-59.6	3.5	1.52e+00	0	27	104	0	60	33529
2026-01-12 21:48:15.85	96.56	1.84	-46.4	-59.6	3.5	1.52e+00	0	27	104	0	60	33498
2026-01-12 21:48:16.86	96.49	1.90	-46.4	-59.6	3.5	1.52e+00	0	27	104	0	60	33568
2026-01-12 21:48:17.87	96.43	1.95	-46.4	-59.6	3.5	1.52e+00	0	27	104	0	60	33417
2026-01-12 21:48:18.88	96.37	2.01	-46.4	-59.5	3.5	1.52e+00	0	27	104	0	60	32992
2026-01-12 21:48:19.89	96.30	2.07	-46.4	-59.3	3.5	1.52e+00	0	27	104	0	60	32317
2026-01-12 21:48:20.90	96.24	2.13	-46.4	-59.2	3.5	1.52e+00	0	27	104	0	60	31965
2026-01-12 21:48:21.91	96.18	2.18	-46.4	-59.2	3.5	1.52e+00	0	27	104	0	60	32024
2026-01-12 21:48:22.91	96.11	2.24	-46.4	-59.1	3.5	1.52e+00	0	27	104	0	60	31793
2026-01-12 21:48:23.92	96.05	2.30	-46.4	-59.3	3.5	1.52e+00	0	27	104	0	60	32381
2026-01-12 21:48:24.93	95.98	2.36	-46.4	-59.5	3.5	1.52e+00	0	27	104	0	60	33172
2026-01-12 21:48:25.94	95.92	2.42	-46.4	-59.6	3.5	1.52e+00	0	27	104	0	60	33381
2026-01-12 21:48:26.95	95.85	2.47	-46.4	-59.5	3.5	1.52e+00	0	27	104	0	60	33323
2026-01-12 21:48:27.97	95.79	2.53	-46.4	-59.5	3.5	1.52e+00	0	27	104	0	60	33169
2026-01-12 21:48:28.97	95.72	2.59	-46.5	-59.6	3.5	1.52e+00	0	27	104	0	60	33346
2026-01-12 21:48:29.98	95.65	2.65	-46.4	-59.6	3.5	1.52e+00	0	27	104	0	60	33439
2026-01-12 21:48:30.99	95.59	2.71	-46.4	-59.4	3.5	1.52e+00	0	27	104	0	60	32774
2026-01-12 21:48:32.00	95.52	2.77	-46.4	-59.0	3.5	1.51e+00	0	27	104	0	60	31140
2026-01-12 21:48:33.01	95.45	2.82	-46.4	-58.5	3.5	1.52e+00	0	27	104	0	60	29688
2026-01-12 21:48:34.02	95.39	2.88	-46.3	-58.5	3.5	1.52e+00	0	27	104	0	60	29701
2026-01-12 21:48:35.03	95.32	2.94	-46.4	-59.0	3.5	1.52e+00	0	27	104	0	60	31391
2026-01-12 21:48:36.04	95.25	3.00	-46.4	-59.3	3.5	1.52e+00	0	27	104	0	60	32376
2026-01-12 21:48:37.05	95.18	3.06	-46.2	-57.0	3.6	1.51e+00	0	27	104	0	60	24965
2026-01-12 21:48:38.06	95.11	3.12	-45.7	-53.4	5.9	4.80e-01	120	27	0	0	60	16388
2026-01-12 21:48:39.06	95.05	3.18	-44.5	-48.7	9.9	1.91e-02	123	27	0	3145728	60	9555
2026-01-12 21:48:40.07	94.98	3.24	-43.4	-46.6	12.1	1.20e-03	123	27	0	6291456	60	7494
2026-01-12 21:48:41.08	94.91	3.30	-42.5	-45.1	13.8	1.44e-05	120	27	0	9437184	58	7086
2026-01-12 21:48:42.09	94.84	3.36	-41.7	-43.9	14.8	7.00e-07	122	27	0	12582912	56	6947
2026-01-12 21:48:43.10	94.77	3.42	-43.6	-59.2	3.5	1.51e+00	0	27	104	13631488	60	31975
2026-01-12 21:48:44.11	94.70	3.48	-39.9	-42.7	16.3	4.79e-01	123	27	104	13631488	54	6736
2026-01-12 21:48:45.12	94.63	3.54	-44.6	-58.9	3.5	1.52e+00	0	27	104	13631488	60	30965
2026-01-12 21:48:46.13	94.56	3.60	-45.3	-56.4	5.6	1.45e+00	123	27	104	13631488	60	23297
2026-01-12 21:48:47.14	94.48	3.66	-43.1	-46.1	13.0	7.00e-07	123	27	0	14680064	56	8925
2026-01-12 21:48:48.15	94.41	3.72	-41.3	-43.6	15.3	0.00e+00	123	27	0	17825792	56	6662
2026-01-12 21:48:49.16	94.34	3.78	-40.9	-43.0	15.7	0.00e+00	123	27	0	20971520	54	7028
2026-01-12 21:48:50.17	94.27	3.84	-41.2	-43.5	15.6	0.00e+00	122	27	0	24117248	54	7419
2026-01-12 21:48:51.18	94.20	3.90	-40.4	-42.4	16.5	0.00e+00	123	27	0	27262976	54	6523
2026-01-12 21:48:52.19	94.12	3.96	-40.9	-43.2	15.6	0.00e+00	122	27	0	30408704	54	7175
2026-01-12 21:48:53.20	94.05	4.02	-40.6	-42.8	16.2	0.00e+00	123	27	0	33554432	54	6879
2026-01-12 21:48:54.21	93.98	4.08	-40.2	-42.4	16.0	0.00e+00	122	27	0	36700160	54	6518
2026-01-12 21:48:55.22	93.90	4.14	-40.3	-42.4	16.6	0.00e+00	123	27	0	39845888	52	7362
2026-01-12 21:48:56.23	93.83	4.20	-40.1	-42.1	16.7	0.00e+00	125	27	0	42991616	52	7103
2026-01-12 21:48:57.24	93.76	4.26	-39.8	-41.6	17.6	0.00e+00	122	27	0	46137344	52	6679
2026-01-12 21:48:58.25	93.68	4.32	-38.5	-40.1	18.9	0.00e+00	123	27	0	49283072	50	6310
2026-01-12 21:48:59.26	93.61	4.38	-37.7	-39.1	19.8	0.00e+00	123	27	0	52428800	50	5631
2026-01-12 21:49:00.27	93.53	4.44	-37.6	-38.8	20.1	0.00e+00	122	27	0	55574528	48	6131
2026-01-12 21:49:01.28	93.46	4.50	-37.6	-38.9	20.0	0.00e+00	123	27	0	58720256	48	6184
2026-01-12 21:49:02.28	93.38	4.56	-37.8	-39.1	19.9	0.00e+00	123	27	0	61865984	48	6323
2026-01-12 21:49:03.30	93.30	4.63	-37.6	-38.8	20.2	0.00e+00	123	27	0	65011712	48	6083
2026-01-12 21:49:04.31	93.23	4.69	-37.4	-38.6	20.3	0.00e+00	120	27	0	68157440	48	5971
2026-01-12 21:49:05.32	93.15	4.75	-37.4	-38.7	20.2	0.00e+00	123	27	0	71303168	48	6048
2026-01-12 21:49:06.33	93.07	4.81	-37.3	-38.7	20.2	0.00e+00	122	27	0	74448896	48	6043
2026-01-12 21:49:07.34	92.99	4.87	-37.3	-38.8	20.2	0.00e+00	122	27	0	77594624	48	6094
2026-01-12 21:49:08.35	92.92	4.93	-37.2	-38.7	20.3	0.00e+00	123	27	0	80740352	48	6001
2026-01-12 21:49:09.36	92.84	5.00	-37.2	-38.8	20.1	0.00e+00	123	27	0	83886080	48	6131
2026-01-12 21:49:10.37	92.76	5.06	-37.0	-38.5	20.5	0.00e+00	123	27	0	87031808	48	5877
2026-01-12 21:49:11.38	92.68	5.12	-37.1	-38.5	20.4	0.00e+00	123	27	0	90177536	48	5921
2026-01-12 21:49:12.39	92.60	5.18	-36.9	-38.4	20.6	0.00e+00	123	27	0	93323264	48	5806
2026-01-12 21:49:13.40	92.52	5.25	-37.0	-38.4	20.6	0.00e+00	122	27	0	96468992	48	5795
2026-01-12 21:49:14.41	92.44	5.31	-37.0	-38.4	20.6	0.00e+00	122	27	0	99614720	48	5792
2026-01-12 21:49:15.42	92.36	5.37	-37.0	-38.4	20.6	0.00e+00	122	27	0	102760448	48	5807
2026-01-12 21:49:16.43	92.28	5.43	-37.1	-38.4	20.6	0.00e+00	120	27	0	105906176	48	5832
2026-01-12 21:49:17.44	92.20	5.50	-36.9	-38.1	20.9	0.00e+00	122	27	0	109051904	48	5618
2026-01-12 21:49:18.45	92.12	5.56	-37.1	-38.3	20.7	0.00e+00	123	27	0	113246208	48	5768
2026-01-12 21:49:19.46	92.04	5.62	-37.0	-38.2	20.8	0.00e+00	123	27	0	115343360	48	5701
2026-01-12 21:49:20.47	91.95	5.68	-36.9	-38.2	20.9	0.00e+00	122	27	0	118489088	48	5662
2026-01-12 21:49:21.48	91.87	5.75	-37.0	-38.2	20.8	0.00e+00	123	27	0	121634816	48	5662
2026-01-12 21:49:22.49	91.79	5.81	-36.9	-38.1	20.9	0.00e+00	120	27	0	124780544	48	5611
2026-01-12 21:49:23.50	91.71	5.87	-37.0	-38.2	20.9	0.00e+00	123	27	0	128974848	48	5672
2026-01-12 21:49:24.52	91.62	5.94	-37.0	-38.1	20.8	0.00e+00	122	27	0	132120576	48	5619
2026-01-12 21:49:25.53	91.54	6.00	-37.0	-38.1	20.9	0.00e+00	122	27	0	135266304	48	5632
2026-01-12 21:49:26.54	91.45	6.06	-36.8	-37.9	21.0	0.00e+00	122	28	0	137363456	48	5515
2026-01-12 21:49:27.55	91.37	6.13	-36.7	-37.8	21.0	0.00e+00	120	27	0	141557760	46	6131
2026-01-12 21:49:28.56	91.28	6.19	-36.8	-38.0	21.0	0.00e+00	123	27	0	144703488	46	6222
2026-01-12 21:49:29.57	91.20	6.26	-36.5	-37.7	21.3	0.00e+00	123	27	0	147849216	46	6039
2026-01-12 21:49:30.58	91.11	6.32	-36.6	-37.9	21.2	0.00e+00	122	27	0	150994944	46	6168
2026-01-12 21:49:31.59	91.03	6.38	-36.6	-38.0	21.0	0.00e+00	123	27	0	154140672	46	6225
2026-01-12 21:49:32.60	90.94	6.45	-36.4	-37.8	21.3	0.00e+00	122	27	0	157286400	46	6076
2026-01-12 21:49:33.61	90.85	6.51	-36.4	-37.7	21.3	0.00e+00	122	27	0	160432128	46	6021
2026-01-12 21:49:34.62	90.76	6.58	-36.5	-37.7	21.3	0.00e+00	123	27	0	163577856	46	6051
2026-01-12 21:49:35.63	90.68	6.64	-36.3	-37.5	21.5	0.00e+00	122	27	0	166723584	46	5923
2026-01-12 21:49:36.64	90.59	6.71	-36.6	-37.7	21.3	0.00e+00	123	27	0	169869312	46	6024
2026-01-12 21:49:37.65	90.50	6.77	-36.3	-37.4	21.6	0.00e+00	122	27	0	173015040	46	5812
2026-01-12 21:49:38.66	90.41	6.83	-36.3	-37.4	21.6	0.00e+00	122	27	0	176160768	46	5831
2026-01-12 21:49:39.67	90.32	6.90	-36.3	-37.4	21.6	0.00e+00	123	28	0	179306496	46	5819
2026-01-12 21:49:40.69	90.23	6.96	-36.4	-37.5	21.5	0.00e+00	123	28	0	182452224	46	5901
2026-01-12 21:49:41.69	90.14	7.03	-36.4	-37.4	21.6	0.00e+00	123	27	0	185597952	46	5849
2026-01-12 21:49:42.70	90.05	7.09	-36.3	-37.4	21.6	0.00e+00	123	27	0	188743680	46	5842
2026-01-12 21:49:43.72	89.96	7.16	-36.4	-37.5	21.5	0.00e+00	123	28	0	191889408	46	5881
2026-01-12 21:49:44.73	89.87	7.23	-36.2	-37.3	21.7	0.00e+00	121	27	0	195035136	46	5743
2026-01-12 21:49:45.74	89.77	7.29	-36.2	-37.3	21.8	0.00e+00	120	27	0	198180864	46	5730
2026-01-12 21:49:46.75	89.68	7.36	-36.0	-37.1	21.9	0.00e+00	123	28	0	201326592	46	5609
2026-01-12 21:49:47.76	89.59	7.42	-36.1	-37.2	21.9	0.00e+00	123	28	0	204472320	46	5674
2026-01-12 21:49:48.77	89.49	7.49	-36.0	-37.1	22.0	0.00e+00	122	28	0	207618048	46	5606
2026-01-12 21:49:49.78	89.40	7.55	-36.1	-37.1	21.9	0.00e+00	122	27	0	210763776	46	5653
2026-01-12 21:49:50.79	89.31	7.62	-35.9	-37.0	22.1	0.00e+00	123	28	0	213909504	46	5543
2026-01-12 21:49:51.80	89.21	7.68	-36.0	-37.0	22.1	0.00e+00	122	27	0	217055232	46	5566
2026-01-12 21:49:52.81	89.12	7.75	-35.8	-36.8	22.3	0.00e+00	123	27	0	220200960	46	5450
2026-01-12 21:49:53.82	89.02	7.82	-35.8	-36.8	22.3	0.00e+00	122	27	0	223346688	46	5439
2026-01-12 21:49:54.83	88.93	7.88	-35.9	-37.0	22.1	0.00e+00	123	27	0	226492416	44	6220
2026-01-12 21:49:55.84	88.83	7.95	-35.8	-36.8	22.2	0.00e+00	122	27	0	229638144	44	6082
2026-01-12 21:49:56.85	88.73	8.02	-35.9	-37.0	22.1	0.00e+00	123	27	0	232783872	44	6208
2026-01-12 21:49:57.86	88.63	8.08	-35.7	-36.8	22.2	0.00e+00	123	27	0	235929600	44	6080
2026-01-12 21:49:58.87	88.54	8.15	-35.7	-36.8	22.3	0.00e+00	122	27	0	239075328	44	6069
2026-01-12 21:49:59.88	88.44	8.22	-35.7	-36.7	22.4	0.00e+00	122	27	0	242221056	44	6005
2026-01-12 21:50:00.89	88.34	8.28	-35.6	-36.6	22.4	0.00e+00	122	27	0	245366784	44	5976
2026-01-12 21:50:01.90	88.24	8.35	-35.5	-36.5	22.6	0.00e+00	123	27	0	248512512	44	5884
2026-01-12 21:50:02.90	88.14	8.42	-35.5	-36.4	22.6	0.00e+00	122	27	0	251658240	44	5854
2026-01-12 21:50:03.91	88.04	8.48	-35.4	-36.4	22.6	0.00e+00	123	27	0	254803968	44	5809
2026-01-12 21:50:04.92	87.94	8.55	-35.5	-36.5	22.5	0.00e+00	122	27	0	257949696	44	5899
2026-01-12 21:50:05.93	87.84	8.62	-35.3	-36.3	22.6	0.00e+00	121	27	0	261095424	44	5777
2026-01-12 21:50:06.94	87.74	8.68	-35.4	-36.4	22.6	0.00e+00	122	27	0	264241152	44	5838
2026-01-12 21:50:07.96	87.64	8.75	-35.4	-36.4	22.6	0.00e+00	122	27	0	267386880	44	5848
2026-01-12 21:50:08.96	87.53	8.82	-35.3	-36.3	22.7	0.00e+00	123	27	0	270532608	44	5767
2026-01-12 21:50:09.98	87.43	8.89	-35.3	-36.3	22.8	0.00e+00	123	27	0	273678336	44	5737
2026-01-12 21:50:10.99	87.33	8.96	-35.3	-36.2	22.8	0.00e+00	123	28	0	276824064	44	5717
2026-01-12 21:50:11.99	87.22	9.02	-35.3	-36.2	22.8	0.00e+00	123	28	0	279969792	44	5723
2026-01-12 21:50:13.00	87.12	9.09	-35.2	-36.2	22.9	0.00e+00	122	27	0	283115520	44	5672
2026-01-12 21:50:14.02	87.01	9.16	-35.3	-36.3	22.7	0.00e+00	120	27	0	286261248	44	5778
2026-01-12 21:50:15.03	86.91	9.23	-35.2	-36.2	22.8	0.00e+00	123	27	0	289406976	44	5697
2026-01-12 21:50:16.04	86.80	9.30	-35.3	-36.3	22.7	0.00e+00	123	28	0	292552704	44	5733
2026-01-12 21:50:17.05	86.69	9.36	-35.3	-36.3	22.8	0.00e+00	123	27	0	295698432	44	5739
2026-01-12 21:50:18.06	86.59	9.43	-35.2	-36.2	22.8	0.00e+00	123	28	0	298844160	44	5702
2026-01-12 21:50:19.07	86.48	9.50	-35.3	-36.4	22.8	0.00e+00	122	27	0	301989888	44	5792
2026-01-12 21:50:20.08	86.37	9.57	-35.1	-36.1	22.9	0.00e+00	122	27	0	305135616	44	5640
2026-01-12 21:50:21.09	86.26	9.64	-35.0	-36.1	23.0	0.00e+00	122	27	0	308281344	44	5595
2026-01-12 21:50:22.10	86.15	9.71	-35.0	-36.1	22.9	0.00e+00	123	27	0	311427072	44	5635
2026-01-12 21:50:23.11	86.04	9.78	-35.0	-36.0	23.0	0.00e+00	123	28	0	314572800	44	5580
2026-01-12 21:50:24.12	85.93	9.84	-35.1	-36.2	22.8	0.00e+00	123	27	0	317718528	44	5695
2026-01-12 21:50:25.13	85.82	9.91	-35.0	-36.1	23.0	0.00e+00	120	28	0	320864256	44	5608
2026-01-12 21:50:26.14	85.71	9.98	-35.2	-36.3	22.8	0.00e+00	123	27	0	324009984	44	5743
2026-01-12 21:50:27.16	85.60	10.05	-35.0	-36.1	23.0	0.00e+00	120	28	0	327155712	44	5604
2026-01-12 21:50:28.17	85.49	10.12	-35.1	-36.2	22.9	0.00e+00	122	27	0	330301440	44	5664
2026-01-12 21:50:29.17	85.38	10.19	-35.1	-36.1	22.9	0.00e+00	121	27	0	333447168	44	5615
2026-01-12 21:50:30.18	85.26	10.26	-35.1	-36.1	23.0	0.00e+00	122	27	0	336592896	44	5616
2026-01-12 21:50:31.19	85.15	10.33	-35.1	-36.1	23.0	0.00e+00	120	28	0	339738624	44	5641
2026-01-12 21:50:32.21	85.03	10.40	-35.0	-36.1	23.0	0.00e+00	123	27	0	342884352	44	5602
2026-01-12 21:50:33.22	84.92	10.47	-34.9	-35.9	23.1	0.00e+00	120	28	0	346030080	44	5495
2026-01-12 21:50:34.23	84.80	10.54	-35.0	-36.0	23.1	0.00e+00	122	28	0	349175808	44	5537
2026-01-12 21:50:35.24	84.69	10.61	-34.8	-35.8	23.3	0.00e+00	123	28	0	352321536	44	5438
2026-01-12 21:50:36.25	84.57	10.68	-34.9	-35.9	23.1	0.00e+00	123	28	0	355467264	44	5507
2026-01-12 21:50:37.26	84.45	10.75	-34.9	-35.9	23.1	0.00e+00	122	28	0	358612992	44	5481
2026-01-12 21:50:38.27	84.33	10.82	-34.7	-35.6	23.4	0.00e+00	122	28	0	361758720	42	5992
2026-01-12 21:50:39.28	84.22	10.89	-34.7	-35.7	23.4	0.00e+00	122	28	0	364904448	42	6016
2026-01-12 21:50:40.29	84.10	10.96	-34.7	-35.6	23.3	0.00e+00	120	28	0	368050176	42	5983
2026-01-12 21:50:41.30	83.98	11.03	-34.8	-35.7	23.3	0.00e+00	123	27	0	371195904	42	6037
2026-01-12 21:50:42.31	83.86	11.10	-34.8	-35.8	23.1	0.00e+00	120	28	0	374341632	42	6099
2026-01-12 21:50:43.32	83.74	11.17	-34.9	-35.9	23.0	0.00e+00	122	28	0	377487360	42	6163
2026-01-12 21:50:44.33	83.61	11.24	-34.8	-35.7	23.2	0.00e+00	122	27	0	380633088	42	6052
2026-01-12 21:50:45.34	83.49	11.31	-34.8	-35.8	23.2	0.00e+00	123	28	0	383778816	42	6076
2026-01-12 21:50:46.35	83.37	11.38	-35.0	-35.9	23.1	0.00e+00	123	27	0	386924544	42	6197
2026-01-12 21:50:47.36	83.25	11.45	-34.9	-35.8	23.1	0.00e+00	123	28	0	390070272	42	6132
2026-01-12 21:50:48.37	83.12	11.52	-34.8	-35.7	23.3	0.00e+00	120	27	0	393216000	42	6038
2026-01-12 21:50:49.38	83.00	11.59	-34.8	-35.8	23.3	0.00e+00	123	27	0	396361728	42	6078
2026-01-12 21:50:50.39	82.87	11.66	-34.5	-35.5	23.6	0.00e+00	123	28	0	399507456	42	5859
2026-01-12 21:50:51.40	82.75	11.74	-34.6	-35.5	23.4	0.00e+00	123	28	0	403701760	42	5891
2026-01-12 21:50:52.41	82.62	11.81	-34.5	-35.4	23.6	0.00e+00	120	28	0	406847488	42	5819
2026-01-12 21:50:53.41	82.49	11.88	-34.7	-35.6	23.4	0.00e+00	122	28	0	408944640	42	5961
2026-01-12 21:50:54.43	82.37	11.95	-34.4	-35.4	23.6	0.00e+00	123	27	0	412090368	42	5823
2026-01-12 21:50:55.44	82.24	12.02	-34.4	-35.3	23.6	0.00e+00	122	28	0	415236096	42	5783
2026-01-12 21:50:56.45	82.11	12.09	-34.4	-35.4	23.6	0.00e+00	120	28	0	419430400	42	5801
2026-01-12 21:50:57.46	81.98	12.16	-34.4	-35.4	23.6	0.00e+00	123	28	0	422576128	42	5820
2026-01-12 21:50:58.47	81.85	12.24	-34.4	-35.4	23.6	0.00e+00	120	28	0	425721856	42	5803
2026-01-12 21:50:59.48	81.72	12.31	-34.6	-35.5	23.4	0.00e+00	123	28	0	428867584	42	5904
2026-01-12 21:51:00.49	81.59	12.38	-34.5	-35.5	23.5	0.00e+00	120	27	0	430964736	42	5870
2026-01-12 21:51:01.50	81.45	12.45	-34.6	-35.5	23.4	0.00e+00	123	28	0	435159040	42	5904
2026-01-12 21:51:02.51	81.32	12.52	-34.6	-35.5	23.5	0.00e+00	122	28	0	438304768	42	5912
2026-01-12 21:51:03.52	81.19	12.59	-34.6	-35.6	23.6	0.00e+00	120	28	0	441450496	42	5931
2026-01-12 21:51:04.53	81.05	12.67	-34.6	-35.5	23.5	0.00e+00	122	28	0	444596224	42	5909
2026-01-12 21:51:05.54	80.92	12.74	-34.6	-35.6	23.6	0.00e+00	122	28	0	447741952	42	5944
2026-01-12 21:51:06.55	80.78	12.81	-34.5	-35.5	23.6	0.00e+00	123	28	0	450887680	42	5868
2026-01-12 21:51:07.56	80.65	12.88	-34.4	-35.3	23.7	0.00e+00	122	28	0	454033408	42	5776
2026-01-12 21:51:08.57	80.51	12.95	-34.5	-35.4	23.5	0.00e+00	122	28	0	457179136	42	5858
2026-01-12 21:51:09.58	80.37	13.03	-34.4	-35.3	23.7	0.00e+00	120	28	0	460324864	42	5768
2026-01-12 21:51:10.59	80.24	13.10	-34.3	-35.3	23.7	0.00e+00	122	28	0	463470592	42	5743
2026-01-12 21:51:11.60	80.10	13.17	-34.4	-35.4	23.5	0.00e+00	123	28	0	466616320	42	5822
2026-01-12 21:51:12.61	79.96	13.24	-34.4	-35.4	23.5	0.00e+00	123	28	0	469762048	42	5815
2026-01-12 21:51:13.62	79.82	13.31	-34.5	-35.5	23.5	0.00e+00	123	27	0	472907776	42	5892
2026-01-12 21:51:14.63	79.68	13.39	-34.6	-35.6	23.5	0.00e+00	123	28	0	476053504	42	5931
2026-01-12 21:51:15.64	79.54	13.46	-34.7	-35.7	23.4	0.00e+00	123	28	0	479199232	42	6046
2026-01-12 21:51:16.65	79.39	13.53	-34.5	-35.5	23.6	0.00e+00	123	28	0	482344960	42	5910
2026-01-12 21:51:17.66	79.25	13.60	-34.7	-35.7	23.4	0.00e+00	122	28	0	485490688	42	5996
2026-01-12 21:51:18.67	79.11	13.68	-34.7	-35.6	23.6	0.00e+00	122	28	0	488636416	42	5972
2026-01-12 21:51:19.68	78.96	13.75	-34.5	-35.4	23.8	0.00e+00	123	28	0	491782144	42	5821
2026-01-12 21:51:20.69	78.82	13.82	-34.5	-35.4	23.7	0.00e+00	120	28	0	494927872	42	5840
2026-01-12 21:51:21.70	78.67	13.89	-34.4	-35.3	23.9	0.00e+00	123	28	0	498073600	42	5739
2026-01-12 21:51:22.71	78.52	13.97	-34.4	-35.4	23.8	0.00e+00	123	28	0	501219328	42	5803
2026-01-12 21:51:23.72	78.38	14.04	-34.5	-35.4	23.7	0.00e+00	120	28	0	504365056	42	5833
2026-01-12 21:51:24.73	78.23	14.11	-34.4	-35.4	23.7	0.00e+00	123	27	0	507510784	42	5794
2026-01-12 21:51:25.74	78.08	14.18	-34.5	-35.5	23.6	0.00e+00	123	28	0	510656512	42	5879
2026-01-12 21:51:26.75	77.93	14.26	-34.5	-35.5	23.6	0.00e+00	123	28	0	513802240	42	5860
2026-01-12 21:51:27.76	77.78	14.33	-34.7	-35.6	23.5	0.00e+00	122	28	0	516947968	42	5973
2026-01-12 21:51:28.77	77.63	14.40	-34.7	-35.7	23.5	0.00e+00	122	28	0	520093696	42	6004
2026-01-12 21:51:29.78	77.48	14.48	-34.6	-35.5	23.6	0.00e+00	120	28	0	523239424	42	5879
2026-01-12 21:51:30.79	77.33	14.55	-34.7	-35.6	23.6	0.00e+00	123	28	0	526385152	42	5961
2026-01-12 21:51:31.80	77.17	14.62	-34.6	-35.5	23.6	0.00e+00	123	28	0	529530880	42	5918
2026-01-12 21:51:32.81	77.02	14.69	-34.5	-35.4	23.7	0.00e+00	123	28	0	532676608	42	5841
2026-01-12 21:51:33.82	76.86	14.77	-34.6	-35.5	23.6	0.00e+00	123	28	0	535822336	42	5889
2026-01-12 21:51:34.83	76.71	14.84	-34.6	-35.5	23.7	0.00e+00	122	28	0	538968064	42	5888
2026-01-12 21:51:35.84	76.55	14.91	-34.6	-35.6	23.6	0.00e+00	123	27	0	542113792	42	5937
2026-01-12 21:51:36.85	76.39	14.99	-34.5	-35.4	23.7	0.00e+00	120	27	0	545259520	42	5834
2026-01-12 21:51:37.86	76.24	15.06	-34.7	-35.6	23.6	0.00e+00	122	28	0	548405248	42	5959
2026-01-12 21:51:38.87	76.08	15.13	-34.6	-35.6	23.6	0.00e+00	120	28	0	551550976	42	5941
2026-01-12 21:51:39.88	75.92	15.20	-34.7	-35.6	23.6	0.00e+00	122	28	0	554696704	42	5944
2026-01-12 21:51:40.89	75.76	15.28	-34.7	-35.6	23.5	0.00e+00	120	28	0	557842432	42	5992
2026-01-12 21:51:41.91	75.59	15.35	-34.7	-35.6	23.6	0.00e+00	122	28	0	560988160	42	5971
2026-01-12 21:51:42.92	75.43	15.42	-34.7	-35.6	23.6	0.00e+00	123	28	0	564133888	42	5975
2026-01-12 21:51:43.93	75.27	15.50	-34.6	-35.6	23.5	0.00e+00	122	28	0	567279616	42	5960
2026-01-12 21:51:44.94	75.11	15.57	-34.6	-35.6	23.6	0.00e+00	122	28	0	570425344	42	5945
2026-01-12 21:51:45.95	74.94	15.64	-34.7	-35.7	23.5	0.00e+00	122	28	0	573571072	42	5999
2026-01-12 21:51:46.96	74.78	15.71	-34.6	-35.6	23.6	0.00e+00	123	27	0	576716800	42	5947
2026-01-12 21:51:47.97	74.61	15.79	-34.8	-35.7	23.5	0.00e+00	122	27	0	579862528	42	6028
2026-01-12 21:51:48.98	74.44	15.86	-34.7	-35.6	23.5	0.00e+00	123	28	0	583008256	42	5976
2026-01-12 21:51:49.99	74.28	15.93	-34.7	-35.7	23.5	0.00e+00	122	28	0	586153984	42	5995
2026-01-12 21:51:51.00	74.11	16.00	-34.7	-35.6	23.5	0.00e+00	122	27	0	589299712	42	5983
2026-01-12 21:51:52.01	73.94	16.08	-34.6	-35.6	23.6	0.00e+00	123	27	0	592445440	42	5944
2026-01-12 21:51:53.02	73.77	16.15	-34.5	-35.5	23.7	0.00e+00	123	28	0	595591168	42	5883
2026-01-12 21:51:54.03	73.60	16.22	-34.4	-35.4	23.8	0.00e+00	122	27	0	598736896	42	5820
2026-01-12 21:51:55.04	73.43	16.29	-34.5	-35.4	23.8	0.00e+00	123	28	0	601882624	42	5822
2026-01-12 21:51:56.05	73.25	16.37	-34.5	-35.4	23.7	0.00e+00	123	28	0	605028352	42	5858
2026-01-12 21:51:57.06	73.08	16.44	-34.4	-35.4	23.8	0.00e+00	123	28	0	608174080	42	5804
2026-01-12 21:51:58.07	72.91	16.51	-34.6	-35.5	23.7	0.00e+00	123	28	0	611319808	42	5891
2026-01-12 21:51:59.08	72.73	16.58	-34.5	-35.4	23.7	0.00e+00	123	28	0	614465536	42	5819
2026-01-12 21:52:00.09	72.56	16.66	-34.4	-35.4	23.7	0.00e+00	120	28	0	617611264	42	5805
2026-01-12 21:52:01.10	72.38	16.73	-34.4	-35.3	23.8	0.00e+00	122	28	0	620756992	42	5787
2026-01-12 21:52:02.11	72.20	16.80	-34.3	-35.2	24.0	0.00e+00	121	28	0	623902720	42	5698
2026-01-12 21:52:03.12	72.02	16.87	-34.5	-35.4	23.9	0.00e+00	123	28	0	627048448	42	5820
2026-01-12 21:52:04.13	71.84	16.94	-34.2	-35.1	24.0	0.00e+00	122	28	0	630194176	42	5657
2026-01-12 21:52:05.14	71.66	17.01	-34.2	-35.1	24.1	0.00e+00	122	28	0	633339904	42	5634
2026-01-12 21:52:06.15	71.48	17.09	-34.1	-35.0	24.1	0.00e+00	122	28	0	636485632	42	5558
2026-01-12 21:52:07.16	71.30	17.16	-34.0	-34.9	24.2	0.00e+00	122	28	0	639631360	42	5526
2026-01-12 21:52:08.17	71.12	17.23	-34.0	-34.9	24.1	0.00e+00	120	28	0	642777088	42	5502
2026-01-12 21:52:09.18	70.93	17.30	-33.9	-34.8	24.2	0.00e+00	123	28	0	645922816	42	5440
2026-01-12 21:52:10.19	70.75	17.37	-34.0	-34.9	24.1	0.00e+00	120	28	0	649068544	42	5489
2026-01-12 21:52:11.20	70.56	17.44	-34.0	-34.9	24.2	0.00e+00	123	28	0	652214272	42	5502
2026-01-12 21:52:12.21	70.38	17.51	-34.1	-35.0	24.2	0.00e+00	123	28	0	655360000	42	5573
2026-01-12 21:52:13.22	70.19	17.59	-33.9	-34.8	24.3	0.00e+00	123	28	0	658505728	42	5440
2026-01-12 21:52:14.23	70.00	17.66	-33.9	-34.8	24.2	0.00e+00	123	28	0	661651456	42	5446
2026-01-12 21:52:15.24	69.81	17.73	-34.0	-34.9	24.2	0.00e+00	122	28	0	664797184	42	5501
2026-01-12 21:52:16.25	69.62	17.80	-34.0	-34.9	24.2	0.00e+00	123	28	0	667942912	42	5487
2026-01-12 21:52:17.26	69.43	17.87	-34.1	-35.1	24.0	0.00e+00	123	28	0	671088640	42	5597
2026-01-12 21:52:18.27	69.24	17.94	-34.2	-35.1	24.0	0.00e+00	122	27	0	674234368	42	5627
2026-01-12 21:52:19.28	69.05	18.01	-34.2	-35.2	24.0	0.00e+00	123	28	0	677380096	42	5668
2026-01-12 21:52:20.29	68.85	18.08	-34.4	-35.3	23.8	0.00e+00	123	28	0	680525824	42	5745
2026-01-12 21:52:21.30	68.66	18.15	-34.3	-35.3	23.8	0.00e+00	123	28	0	683671552	42	5735
2026-01-12 21:52:22.31	68.46	18.22	-34.4	-35.4	23.8	0.00e+00	122	27	0	686817280	42	5793
2026-01-12 21:52:23.32	68.27	18.29	-34.6	-35.5	23.7	0.00e+00	123	27	0	689963008	42	5904
2026-01-12 21:52:24.33	68.07	18.36	-34.6	-35.5	23.8	0.00e+00	122	27	0	693108736	42	5925
2026-01-12 21:52:25.34	67.87	18.43	-34.4	-35.3	23.9	0.00e+00	122	27	0	696254464	42	5779
2026-01-12 21:52:26.35	67.67	18.50	-34.5	-35.4	23.8	0.00e+00	123	28	0	700448768	42	5819
2026-01-12 21:52:27.36	67.47	18.57	-34.5	-35.4	23.9	0.00e+00	123	27	0	702545920	42	5851
2026-01-12 21:52:28.37	67.27	18.63	-34.5	-35.4	23.8	0.00e+00	120	28	0	705691648	42	5825
2026-01-12 21:52:29.38	67.07	18.70	-34.4	-35.3	23.9	0.00e+00	123	28	0	708837376	42	5771
2026-01-12 21:52:30.39	66.87	18.77	-34.5	-35.4	23.9	0.00e+00	123	28	0	711983104	42	5827
2026-01-12 21:52:31.40	66.66	18.84	-34.3	-35.2	24.0	0.00e+00	120	28	0	716177408	42	5700
2026-01-12 21:52:32.41	66.46	18.91	-34.2	-35.2	24.0	0.00e+00	122	28	0	719323136	42	5666
2026-01-12 21:52:33.42	66.25	18.98	-34.3	-35.2	24.0	0.00e+00	123	28	0	722468864	42	5683
2026-01-12 21:52:34.43	66.05	19.04	-34.2	-35.1	24.1	0.00e+00	122	28	0	724566016	42	5623
2026-01-12 21:52:35.44	65.84	19.11	-34.1	-35.0	24.2	0.00e+00	123	28	0	727711744	42	5535
2026-01-12 21:52:36.45	65.63	19.18	-34.0	-34.9	24.2	0.00e+00	122	27	0	731906048	42	5501
2026-01-12 21:52:37.46	65.42	19.24	-33.9	-34.8	24.3	0.00e+00	123	27	0	735051776	42	5446
2026-01-12 21:52:38.47	65.21	19.31	-34.0	-34.9	24.3	0.00e+00	120	28	0	738197504	42	5484
2026-01-12 21:52:39.48	65.00	19.38	-33.8	-34.7	24.3	0.00e+00	122	27	0	741343232	42	5399
2026-01-12 21:52:40.49	64.79	19.44	-33.7	-34.6	24.4	0.00e+00	122	28	0	744488960	42	5337
2026-01-12 21:52:41.50	64.58	19.51	-33.8	-34.7	24.3	0.00e+00	123	27	0	747634688	40	6008
2026-01-12 21:52:42.51	64.36	19.58	-33.7	-34.5	24.4	0.00e+00	122	28	0	750780416	40	5923
2026-01-12 21:52:43.52	64.15	19.64	-33.7	-34.6	24.5	0.00e+00	122	28	0	753926144	40	5931
2026-01-12 21:52:44.53	63.93	19.71	-33.6	-34.5	24.5	0.00e+00	123	28	0	757071872	40	5902
2026-01-12 21:52:45.54	63.72	19.77	-33.6	-34.5	24.5	0.00e+00	123	27	0	760217600	40	5876
2026-01-12 21:52:46.55	63.50	19.84	-33.7	-34.6	24.4	0.00e+00	123	28	0	763363328	40	5991
2026-01-12 21:52:47.56	63.28	19.90	-33.6	-34.6	24.5	0.00e+00	120	28	0	766509056	40	5934
2026-01-12 21:52:48.57	63.06	19.97	-33.5	-34.4	24.5	0.00e+00	123	28	0	769654784	40	5832
2026-01-12 21:52:49.58	62.84	20.03	-33.7	-34.6	24.3	0.00e+00	120	28	0	772800512	40	5979
2026-01-12 21:52:50.59	62.62	20.09	-33.7	-34.6	24.4	0.00e+00	120	28	0	775946240	40	5951
2026-01-12 21:52:51.60	62.40	20.16	-33.7	-34.6	24.4	0.00e+00	123	28	0	779091968	40	5963
2026-01-12 21:52:52.61	62.17	20.22	-33.7	-34.7	24.4	0.00e+00	121	28	0	782237696	40	5997
2026-01-12 21:52:53.62	61.95	20.28	-33.6	-34.5	24.5	0.00e+00	123	28	0	785383424	40	5912
2026-01-12 21:52:54.63	61.73	20.35	-33.6	-34.5	24.6	0.00e+00	116	28	0	788529152	40	5871
2026-01-12 21:52:55.64	61.50	20.41	-33.5	-34.4	24.6	0.00e+00	123	28	0	791674880	40	5841
2026-01-12 21:52:56.66	61.27	20.47	-33.5	-34.4	24.7	0.00e+00	123	28	0	794820608	40	5798
2026-01-12 21:52:57.67	61.04	20.53	-33.5	-34.5	24.6	0.00e+00	122	28	0	797966336	40	5861
2026-01-12 21:52:58.68	60.82	20.59	-33.5	-34.4	24.6	0.00e+00	122	28	0	801112064	40	5838
2026-01-12 21:52:59.68	60.59	20.65	-33.5	-34.4	24.6	0.00e+00	123	28	0	804257792	40	5828
2026-01-12 21:53:00.70	60.36	20.72	-33.6	-34.6	24.5	0.00e+00	121	28	0	807403520	40	5927
2026-01-12 21:53:01.71	60.12	20.78	-33.5	-34.4	24.6	0.00e+00	120	28	0	810549248	40	5815
2026-01-12 21:53:02.72	59.89	20.84	-33.6	-34.5	24.6	0.00e+00	123	28	0	813694976	40	5873
2026-01-12 21:53:03.73	59.66	20.90	-33.5	-34.4	24.7	0.00e+00	123	28	0	816840704	40	5815
2026-01-12 21:53:04.74	59.42	20.95	-33.4	-34.4	24.6	0.00e+00	122	27	0	819986432	40	5794
2026-01-12 21:53:05.75	59.19	21.01	-33.4	-34.4	24.5	0.00e+00	121	28	0	823132160	40	5797
2026-01-12 21:53:06.76	58.95	21.07	-33.5	-34.4	24.5	0.00e+00	122	28	0	826277888	40	5843
2026-01-12 21:53:07.77	58.72	21.13	-33.5	-34.4	24.5	0.00e+00	123	27	0	829423616	40	5844
2026-01-12 21:53:08.78	58.48	21.19	-33.5	-34.5	24.5	0.00e+00	122	28	0	832569344	40	5868
2026-01-12 21:53:09.79	58.24	21.24	-33.7	-34.6	24.4	0.00e+00	122	27	0	835715072	40	5971
2026-01-12 21:53:10.80	58.00	21.30	-33.8	-34.7	24.3	0.00e+00	123	27	0	838860800	40	6022
2026-01-12 21:53:11.81	57.76	21.36	-33.9	-34.9	24.3	0.00e+00	123	27	0	842006528	40	6145
2026-01-12 21:53:12.82	57.52	21.41	-33.8	-34.7	24.3	0.00e+00	122	28	0	845152256	40	6048
2026-01-12 21:53:13.82	57.28	21.47	-33.8	-34.7	24.4	0.00e+00	123	27	0	848297984	40	6021
2026-01-12 21:53:14.83	57.04	21.52	-33.7	-34.6	24.5	0.00e+00	120	27	0	851443712	40	5994
2026-01-12 21:53:15.84	56.79	21.58	-33.7	-34.6	24.5	0.00e+00	122	28	0	854589440	40	5963
2026-01-12 21:53:16.85	56.55	21.63	-33.7	-34.5	24.6	0.00e+00	123	28	0	857735168	40	5924
2026-01-12 21:53:17.86	56.30	21.69	-33.7	-34.6	24.5	0.00e+00	123	28	0	860880896	40	5962
2026-01-12 21:53:18.87	56.06	21.74	-33.8	-34.7	24.4	0.00e+00	123	27	0	864026624	40	6055
2026-01-12 21:53:19.88	55.81	21.79	-33.5	-34.5	24.6	0.00e+00	120	28	0	867172352	40	5860
2026-01-12 21:53:20.89	55.56	21.85	-33.7	-34.6	24.5	0.00e+00	123	28	0	870318080	40	5986
2026-01-12 21:53:21.90	55.31	21.90	-33.7	-34.6	24.5	0.00e+00	121	28	0	873463808	40	5936
2026-01-12 21:53:22.91	55.06	21.95	-33.7	-34.6	24.5	0.00e+00	123	28	0	876609536	40	5941
2026-01-12 21:53:23.92	54.81	22.00	-33.5	-34.4	24.7	0.00e+00	123	28	0	879755264	40	5826
2026-01-12 21:53:24.93	54.56	22.05	-33.6	-34.5	24.6	0.00e+00	123	28	0	882900992	40	5874
2026-01-12 21:53:25.95	54.31	22.10	-33.5	-34.4	24.6	0.00e+00	122	28	0	886046720	40	5836
2026-01-12 21:53:26.95	54.06	22.15	-33.4	-34.3	24.8	0.00e+00	123	28	0	889192448	40	5747
2026-01-12 21:53:27.96	53.80	22.20	-33.4	-34.3	24.7	0.00e+00	120	28	0	892338176	40	5768
2026-01-12 21:53:28.97	53.55	22.25	-33.5	-34.4	24.6	0.00e+00	123	28	0	895483904	40	5843
2026-01-12 21:53:29.98	53.29	22.30	-33.6	-34.5	24.6	0.00e+00	123	28	0	898629632	40	5864
2026-01-12 21:53:30.99	53.04	22.34	-33.5	-34.4	24.6	0.00e+00	123	28	0	901775360	40	5822
2026-01-12 21:53:32.00	52.78	22.39	-33.6	-34.5	24.6	0.00e+00	120	28	0	904921088	40	5900
2026-01-12 21:53:33.01	52.52	22.44	-33.6	-34.5	24.6	0.00e+00	123	28	0	908066816	40	5874
2026-01-12 21:53:34.02	52.26	22.48	-33.7	-34.6	24.6	0.00e+00	123	28	0	911212544	40	5965
2026-01-12 21:53:35.03	52.00	22.53	-33.5	-34.3	24.7	0.00e+00	122	27	0	914358272	40	5786
2026-01-12 21:53:36.04	51.74	22.57	-33.4	-34.3	24.7	0.00e+00	123	27	0	917504000	40	5755
2026-01-12 21:53:37.06	51.48	22.62	-33.4	-34.3	24.6	0.00e+00	120	27	0	920649728	40	5781
2026-01-12 21:53:38.06	51.22	22.66	-33.4	-34.3	24.7	0.00e+00	122	27	0	923795456	40	5780
2026-01-12 21:53:39.08	50.96	22.71	-33.7	-34.6	24.6	0.00e+00	122	28	0	926941184	40	5932
2026-01-12 21:53:40.09	50.69	22.75	-33.7	-34.6	24.6	0.00e+00	123	28	0	930086912	40	5970
2026-01-12 21:53:41.09	50.43	22.79	-33.8	-34.7	24.7	0.00e+00	123	27	0	933232640	40	6015
2026-01-12 21:53:42.10	50.17	22.83	-33.7	-34.6	24.6	0.00e+00	123	28	0	936378368	40	5952
2026-01-12 21:53:43.11	49.90	22.87	-33.8	-34.7	24.5	0.00e+00	122	28	0	939524096	40	6017
2026-01-12 21:53:44.12	49.64	22.91	-33.7	-34.6	24.6	0.00e+00	120	28	0	942669824	40	5953
2026-01-12 21:53:45.13	49.37	22.95	-33.6	-34.5	24.6	0.00e+00	123	28	0	945815552	40	5907
2026-01-12 21:53:46.14	49.10	22.99	-33.6	-34.5	24.7	0.00e+00	120	28	0	948961280	40	5871
2026-01-12 21:53:47.15	48.84	23.03	-33.7	-34.5	24.7	0.00e+00	123	28	0	952107008	40	5917
2026-01-12 21:53:48.16	48.57	23.07	-33.5	-34.4	24.7	0.00e+00	123	28	0	955252736	40	5823
2026-01-12 21:53:49.17	48.30	23.10	-33.5	-34.4	24.7	0.00e+00	123	27	0	958398464	40	5832
2026-01-12 21:53:50.18	48.03	23.14	-33.5	-34.4	24.7	0.00e+00	122	28	0	961544192	40	5792
2026-01-12 21:53:51.19	47.76	23.18	-33.5	-34.4	24.7	0.00e+00	120	27	0	964689920	40	5808
2026-01-12 21:53:52.20	47.49	23.21	-33.5	-34.4	24.7	0.00e+00	122	28	0	967835648	40	5819
2026-01-12 21:53:53.22	47.21	23.25	-33.5	-34.4	24.8	0.00e+00	122	28	0	970981376	40	5824
2026-01-12 21:53:54.22	46.94	23.28	-33.4	-34.3	24.8	0.00e+00	123	28	0	974127104	40	5759
2026-01-12 21:53:55.23	46.67	23.31	-33.6	-34.5	24.6	0.00e+00	122	28	0	977272832	40	5913
2026-01-12 21:53:56.25	46.39	23.35	-33.5	-34.4	24.8	0.00e+00	122	28	0	980418560	40	5800
2026-01-12 21:53:57.26	46.12	23.38	-33.4	-34.3	24.7	0.00e+00	123	28	0	983564288	40	5777
2026-01-12 21:53:58.27	45.85	23.41	-33.5	-34.4	24.6	0.00e+00	123	28	0	986710016	40	5815
2026-01-12 21:53:59.28	45.57	23.44	-33.5	-34.4	24.7	0.00e+00	123	27	0	989855744	40	5816
2026-01-12 21:54:00.29	45.30	23.47	-33.5	-34.4	24.8	0.00e+00	122	28	0	993001472	40	5833
2026-01-12 21:54:01.30	45.02	23.50	-33.5	-34.4	24.8	0.00e+00	121	28	0	996147200	40	5796
2026-01-12 21:54:02.31	44.74	23.53	-33.3	-34.2	24.9	0.00e+00	123	28	0	999292928	40	5696
2026-01-12 21:54:03.32	44.47	23.55	-33.4	-34.3	24.8	0.00e+00	122	28	0	1002438656	40	5767
2026-01-12 21:54:04.33	44.19	23.58	-33.4	-34.3	24.8	0.00e+00	123	28	0	1005584384	40	5739
2026-01-12 21:54:05.34	43.91	23.61	-33.4	-34.3	24.8	0.00e+00	123	28	0	1008730112	40	5740
2026-01-12 21:54:06.35	43.63	23.63	-33.2	-34.1	25.0	0.00e+00	122	28	0	1012924416	40	5602
2026-01-12 21:54:07.36	43.35	23.66	-33.2	-34.1	25.0	0.00e+00	122	28	0	1016070144	40	5604
2026-01-12 21:54:08.37	43.07	23.68	-33.2	-34.1	24.9	0.00e+00	123	28	0	1018167296	40	5627
2026-01-12 21:54:09.38	42.79	23.71	-33.4	-34.3	24.8	0.00e+00	123	28	0	1021313024	40	5749
2026-01-12 21:54:10.39	42.51	23.73	-33.3	-34.1	24.9	0.00e+00	120	28	0	1024458752	40	5657
2026-01-12 21:54:11.40	42.23	23.75	-33.4	-34.3	24.7	0.00e+00	122	27	0	1028653056	40	5731
2026-01-12 21:54:12.41	41.95	23.77	-33.3	-34.2	24.8	0.00e+00	122	28	0	1031798784	40	5678
2026-01-12 21:54:13.42	41.67	23.79	-33.2	-34.1	24.7	0.00e+00	122	28	0	1034944512	40	5644
2026-01-12 21:54:14.43	41.39	23.81	-33.4	-34.3	24.7	0.00e+00	123	28	0	1038090240	40	5773
2026-01-12 21:54:15.44	41.11	23.83	-33.6	-34.4	24.6	0.00e+00	123	28	0	1041235968	40	5845
2026-01-12 21:54:16.45	40.82	23.85	-33.5	-34.4	24.7	0.00e+00	123	28	0	1044381696	40	5818
2026-01-12 21:54:17.46	40.54	23.87	-33.3	-34.2	24.9	0.00e+00	123	28	0	1047527424	40	5673
2026-01-12 21:54:18.47	40.26	23.89	-33.4	-34.2	24.8	0.00e+00	121	28	0	1050673152	40	5718
2026-01-12 21:54:19.48	39.97	23.90	-33.4	-34.3	24.8	0.00e+00	120	27	0	1053818880	40	5741
2026-01-12 21:54:20.49	39.69	23.92	-33.5	-34.4	24.7	0.00e+00	122	28	0	1056964608	40	5832
2026-01-12 21:54:21.50	39.41	23.93	-33.5	-34.4	24.7	0.00e+00	123	28	0	1060110336	40	5841
2026-01-12 21:54:22.51	39.12	23.95	-33.5	-34.4	24.8	0.00e+00	123	28	0	1063256064	40	5793
2026-01-12 21:54:23.52	38.84	23.96	-33.4	-34.3	24.8	0.00e+00	120	28	0	1066401792	40	5770
2026-01-12 21:54:24.53	38.55	23.97	-33.5	-34.4	24.7	0.00e+00	122	28	0	1069547520	40	5792
2026-01-12 21:54:25.54	38.27	23.98	-33.4	-34.3	24.7	0.00e+00	122	28	0	1072693248	40	5778
2026-01-12 21:54:26.54	37.99	24.00	-33.4	-34.3	24.8	0.00e+00	120	28	0	1075838976	40	5762
2026-01-12 21:54:27.55	37.70	24.01	-33.5	-34.4	24.7	0.00e+00	124	28	0	1078984704	40	5806
2026-01-12 21:54:28.57	37.41	24.02	-33.5	-34.4	24.8	0.00e+00	120	28	0	1082130432	40	5797
2026-01-12 21:54:29.57	37.13	24.02	-33.6	-34.5	24.7	0.00e+00	124	28	0	1085276160	40	5879
2026-01-12 21:54:30.58	36.84	24.03	-33.4	-34.3	24.8	0.00e+00	120	28	0	1088421888	40	5767
2026-01-12 21:54:31.59	36.56	24.04	-33.6	-34.5	24.6	0.00e+00	123	27	0	1091567616	40	5860
2026-01-12 21:54:32.60	36.27	24.04	-33.5	-34.3	24.7	0.00e+00	122	28	0	1094713344	40	5790
2026-01-12 21:54:33.61	35.99	24.05	-33.6	-34.5	24.6	0.00e+00	122	28	0	1097859072	40	5881
2026-01-12 21:54:34.62	35.70	24.06	-33.6	-34.5	24.6	0.00e+00	120	28	0	1101004800	40	5899
2026-01-12 21:54:35.63	35.41	24.06	-33.6	-34.5	24.7	0.00e+00	123	28	0	1104150528	40	5877
2026-01-12 21:54:36.65	35.12	24.06	-33.6	-34.5	24.6	0.00e+00	122	28	0	1107296256	40	5909
2026-01-12 21:54:37.66	34.84	24.06	-33.8	-34.7	24.5	0.00e+00	123	28	0	1110441984	40	6008
2026-01-12 21:54:38.67	34.55	24.07	-33.8	-34.7	24.5	0.00e+00	121	28	0	1113587712	40	6024
2026-01-12 21:54:39.68	34.26	24.07	-33.8	-34.7	24.5	0.00e+00	123	28	0	1116733440	40	6054
2026-01-12 21:54:40.69	33.98	24.07	-33.7	-34.5	24.6	0.00e+00	123	27	0	1119879168	40	5920
2026-01-12 21:54:41.70	33.69	24.07	-33.8	-34.7	24.5	0.00e+00	123	28	0	1123024896	40	6015
2026-01-12 21:54:42.71	33.41	24.07	-33.7	-34.6	24.7	0.00e+00	120	27	0	1126170624	40	5951
2026-01-12 21:54:43.72	33.12	24.06	-33.7	-34.6	24.7	0.00e+00	122	27	0	1129316352	40	5931
2026-01-12 21:54:44.73	32.83	24.06	-33.5	-34.4	24.8	0.00e+00	123	28	0	1132462080	40	5793
2026-01-12 21:54:45.74	32.55	24.06	-33.4	-34.2	24.8	0.00e+00	122	27	0	1135607808	40	5720
2026-01-12 21:54:46.75	32.26	24.05	-33.4	-34.3	24.8	0.00e+00	120	28	0	1138753536	40	5755
2026-01-12 21:54:47.76	31.97	24.05	-33.5	-34.4	24.7	0.00e+00	123	28	0	1141899264	40	5817
2026-01-12 21:54:48.77	31.69	24.04	-33.6	-34.4	24.7	0.00e+00	120	28	0	1145044992	40	5854
2026-01-12 21:54:49.78	31.40	24.03	-33.5	-34.4	24.7	0.00e+00	122	28	0	1148190720	40	5834
2026-01-12 21:54:50.79	31.12	24.03	-33.8	-34.6	24.6	0.00e+00	122	28	0	1151336448	40	5985
2026-01-12 21:54:51.80	30.83	24.02	-33.4	-34.3	24.8	0.00e+00	122	28	0	1154482176	40	5735
2026-01-12 21:54:52.81	30.55	24.01	-33.5	-34.3	24.8	0.00e+00	123	27	0	1157627904	40	5788
2026-01-12 21:54:53.82	30.26	24.00	-33.2	-34.1	25.0	0.00e+00	123	28	0	1160773632	40	5595
2026-01-12 21:54:54.83	29.97	23.99	-33.3	-34.1	25.0	0.00e+00	123	28	0	1163919360	40	5635
2026-01-12 21:54:55.84	29.69	23.98	-33.1	-34.0	25.0	0.00e+00	123	28	0	1167065088	40	5541
2026-01-12 21:54:56.85	29.41	23.96	-33.1	-33.9	25.0	0.00e+00	123	28	0	1170210816	40	5521
2026-01-12 21:54:57.86	29.12	23.95	-33.0	-33.9	25.0	0.00e+00	123	28	0	1173356544	40	5504
2026-01-12 21:54:58.87	28.84	23.94	-33.1	-33.9	25.0	0.00e+00	122	27	0	1176502272	40	5520
2026-01-12 21:54:59.88	28.55	23.92	-33.1	-34.0	24.9	0.00e+00	123	28	0	1179648000	40	5541
2026-01-12 21:55:00.89	28.27	23.91	-33.1	-34.0	24.9	0.00e+00	123	28	0	1182793728	40	5531
2026-01-12 21:55:01.90	27.99	23.89	-33.2	-34.1	24.9	0.00e+00	123	28	0	1185939456	40	5630
2026-01-12 21:55:02.91	27.70	23.87	-33.1	-33.9	25.0	0.00e+00	123	28	0	1189085184	40	5530
2026-01-12 21:55:03.92	27.42	23.86	-33.2	-34.1	24.9	0.00e+00	122	28	0	1192230912	40	5596
2026-01-12 21:55:04.93	27.14	23.84	-33.3	-34.2	24.9	0.00e+00	122	28	0	1195376640	40	5672
2026-01-12 21:55:05.94	26.86	23.82	-33.2	-34.1	24.9	0.00e+00	123	28	0	1198522368	40	5623
2026-01-12 21:55:06.95	26.57	23.80	-33.4	-34.2	24.8	0.00e+00	122	28	0	1201668096	40	5714
2026-01-12 21:55:07.96	26.29	23.78	-33.2	-34.1	24.9	0.00e+00	122	28	0	1204813824	40	5626
2026-01-12 21:55:08.97	26.01	23.76	-33.1	-34.0	24.9	0.00e+00	122	27	0	1207959552	40	5570
2026-01-12 21:55:09.98	25.73	23.74	-33.1	-34.0	24.9	0.00e+00	123	28	0	1211105280	40	5555
2026-01-12 21:55:10.99	25.45	23.71	-33.2	-34.1	24.9	0.00e+00	122	28	0	1214251008	40	5626
2026-01-12 21:55:12.00	25.17	23.69	-33.3	-34.1	24.9	0.00e+00	122	27	0	1217396736	40	5655
2026-01-12 21:55:13.01	24.89	23.67	-33.2	-34.1	24.8	0.00e+00	123	27	0	1220542464	40	5616
2026-01-12 21:55:14.02	24.61	23.64	-33.3	-34.2	24.8	0.00e+00	123	28	0	1223688192	40	5701
2026-01-12 21:55:15.03	24.34	23.62	-33.3	-34.2	24.8	0.00e+00	123	27	0	1226833920	40	5689
2026-01-12 21:55:16.04	24.06	23.59	-33.4	-34.3	24.8	0.00e+00	120	28	0	1229979648	40	5755
2026-01-12 21:55:17.05	23.78	23.56	-33.5	-34.3	24.8	0.00e+00	123	28	0	1233125376	40	5773
2026-01-12 21:55:18.06	23.50	23.54	-33.4	-34.3	24.8	0.00e+00	122	27	0	1236271104	40	5737
2026-01-12 21:55:19.07	23.23	23.51	-33.4	-34.3	24.8	0.00e+00	122	28	0	1239416832	40	5741
2026-01-12 21:55:20.08	22.95	23.48	-33.5	-34.4	24.7	0.00e+00	123	28	0	1242562560	40	5814
2026-01-12 21:55:21.09	22.68	23.45	-33.4	-34.3	24.8	0.00e+00	123	28	0	1245708288	40	5747
2026-01-12 21:55:22.10	22.40	23.42	-33.3	-34.2	24.8	0.00e+00	122	28	0	1248854016	40	5700
2026-01-12 21:55:23.11	22.13	23.39	-33.4	-34.3	24.7	0.00e+00	122	28	0	1251999744	40	5757
2026-01-12 21:55:24.12	21.85	23.36	-33.1	-34.0	25.0	0.00e+00	120	28	0	1255145472	40	5552
2026-01-12 21:55:25.13	21.58	23.32	-33.2	-34.0	24.9	0.00e+00	122	28	0	1258291200	40	5592
2026-01-12 21:55:26.14	21.31	23.29	-33.2	-34.1	24.9	0.00e+00	120	28	0	1261436928	40	5605
2026-01-12 21:55:27.15	21.03	23.26	-33.2	-34.0	24.9	0.00e+00	122	28	0	1264582656	40	5594
2026-01-12 21:55:28.16	20.76	23.22	-33.4	-34.3	24.7	0.00e+00	120	28	0	1267728384	40	5734
2026-01-12 21:55:29.17	20.49	23.19	-33.5	-34.4	24.6	0.00e+00	120	28	0	1270874112	40	5854
2026-01-12 21:55:30.18	20.22	23.15	-33.6	-34.5	24.5	0.00e+00	123	28	0	1274019840	40	5917
2026-01-12 21:55:31.20	19.95	23.11	-33.5	-34.4	24.7	0.00e+00	122	28	0	1277165568	40	5822
2026-01-12 21:55:32.21	19.68	23.08	-33.6	-34.5	24.5	0.00e+00	122	28	0	1280311296	40	5866
2026-01-12 21:55:33.22	19.41	23.04	-33.5	-34.3	24.6	0.00e+00	125	28	0	1283457024	40	5787
2026-01-12 21:55:34.23	19.14	23.00	-33.5	-34.4	24.6	0.00e+00	122	28	0	1286602752	40	5799
2026-01-12 21:55:35.24	18.88	22.96	-33.5	-34.3	24.6	0.00e+00	123	28	0	1289748480	40	5787
2026-01-12 21:55:36.25	18.61	22.92	-33.4	-34.3	24.7	0.00e+00	122	28	0	1292894208	40	5736
2026-01-12 21:55:37.26	18.35	22.88	-33.3	-34.2	24.7	0.00e+00	122	28	0	1296039936	40	5682
2026-01-12 21:55:38.27	18.08	22.84	-33.5	-34.4	24.5	0.00e+00	122	28	0	1299185664	40	5821
2026-01-12 21:55:39.28	17.82	22.80	-33.4	-34.3	24.5	0.00e+00	122	28	0	1302331392	40	5781
2026-01-12 21:55:40.29	17.55	22.76	-33.5	-34.5	24.5	0.00e+00	123	27	0	1305477120	40	5860
2026-01-12 21:55:41.30	17.29	22.72	-33.7	-34.6	24.5	0.00e+00	122	28	0	1309671424	40	5927
2026-01-12 21:55:42.31	17.03	22.68	-33.7	-34.6	24.5	0.00e+00	123	28	0	1311768576	40	5932
2026-01-12 21:55:43.32	16.77	22.63	-33.7	-34.6	24.4	0.00e+00	122	28	0	1314914304	40	5980
2026-01-12 21:55:44.33	16.51	22.59	-33.7	-34.6	24.4	0.00e+00	123	28	0	1318060032	40	5968
2026-01-12 21:55:45.34	16.25	22.54	-33.7	-34.6	24.2	0.00e+00	123	28	0	1321205760	40	5978
2026-01-12 21:55:46.35	15.99	22.50	-33.8	-34.7	24.2	0.00e+00	122	28	0	1325400064	40	6057
2026-01-12 21:55:47.36	15.73	22.45	-33.8	-34.7	24.3	0.00e+00	123	28	0	1328545792	40	5998
2026-01-12 21:55:48.37	15.47	22.41	-33.6	-34.5	24.5	0.00e+00	123	28	0	1331691520	40	5897
2026-01-12 21:55:49.38	15.22	22.36	-33.6	-34.5	24.5	0.00e+00	122	28	0	1333788672	40	5899
2026-01-12 21:55:50.39	14.96	22.31	-33.7	-34.6	24.4	0.00e+00	123	28	0	1336934400	40	5976
2026-01-12 21:55:51.40	14.70	22.26	-33.5	-34.4	24.5	0.00e+00	120	28	0	1341128704	40	5837
2026-01-12 21:55:52.41	14.45	22.22	-33.6	-34.4	24.4	0.00e+00	122	28	0	1344274432	40	5853
2026-01-12 21:55:53.42	14.20	22.17	-33.7	-34.6	24.3	0.00e+00	122	28	0	1347420160	40	5976
2026-01-12 21:55:54.43	13.94	22.12	-33.8	-34.7	24.3	0.00e+00	122	28	0	1350565888	40	6026
2026-01-12 21:55:55.44	13.69	22.07	-33.7	-34.6	24.2	0.00e+00	123	28	0	1353711616	40	5972
2026-01-12 21:55:56.45	13.44	22.02	-33.7	-34.6	24.3	0.00e+00	123	28	0	1356857344	40	5940
2026-01-12 21:55:57.46	13.19	21.97	-33.6	-34.5	24.4	0.00e+00	123	27	0	1360003072	40	5920
2026-01-12 21:55:58.47	12.94	21.92	-33.6	-34.5	24.5	0.00e+00	123	28	0	1363148800	40	5892
2026-01-12 21:55:59.48	12.69	21.86	-33.7	-34.6	24.5	0.00e+00	120	28	0	1366294528	40	5954
2026-01-12 21:56:00.49	12.44	21.81	-33.7	-34.5	24.6	0.00e+00	122	28	0	1369440256	40	5922
2026-01-12 21:56:01.50	12.20	21.76	-33.7	-34.6	24.6	0.00e+00	123	28	0	1372585984	40	5928
2026-01-12 21:56:02.51	11.95	21.71	-33.7	-34.6	24.6	0.00e+00	123	28	0	1375731712	40	5958
2026-01-12 21:56:03.52	11.71	21.65	-33.8	-34.7	24.5	0.00e+00	122	28	0	1378877440	40	5995
2026-01-12 21:56:04.53	11.46	21.60	-33.7	-34.6	24.5	0.00e+00	123	27	0	1382023168	40	5988
2026-01-12 21:56:05.54	11.22	21.54	-33.7	-34.6	24.5	0.00e+00	122	28	0	1385168896	40	5960
2026-01-12 21:56:06.55	10.98	21.49	-33.7	-34.6	24.4	0.00e+00	120	28	0	1388314624	40	5979
2026-01-12 21:56:07.56	10.73	21.43	-33.5	-34.4	24.4	0.00e+00	123	28	0	1391460352	40	5850
2026-01-12 21:56:08.57	10.49	21.38	-33.5	-34.5	24.3	0.00e+00	123	28	0	1394606080	40	5865
2026-01-12 21:56:09.58	10.25	21.32	-33.7	-34.7	24.3	0.00e+00	123	28	0	1397751808	40	5996
2026-01-12 21:56:10.59	10.01	21.26	-33.6	-34.5	24.5	0.00e+00	122	27	0	1400897536	40	5904
2026-01-12 21:56:11.60	9.78	21.21	-33.7	-34.6	24.5	0.00e+00	120	28	0	1404043264	40	5928
2026-01-12 21:56:12.61	9.54	21.15	-33.7	-34.6	24.5	0.00e+00	123	27	0	1407188992	40	5931
2026-01-12 21:56:13.62	9.30	21.09	-33.7	-34.6	24.5	0.00e+00	123	28	0	1410334720	40	5952
2026-01-12 21:56:14.63	9.07	21.03	-33.7	-34.6	24.5	0.00e+00	122	28	0	1413480448	40	5959
2026-01-12 21:56:15.64	8.83	20.98	-33.5	-34.4	24.6	0.00e+00	123	28	0	1416626176	40	5857
2026-01-12 21:56:16.65	8.60	20.92	-33.6	-34.5	24.7	0.00e+00	122	28	0	1419771904	40	5891
2026-01-12 21:56:17.66	8.37	20.86	-33.5	-34.4	24.6	0.00e+00	122	27	0	1422917632	40	5820
2026-01-12 21:56:18.67	8.13	20.80	-33.5	-34.4	24.7	0.00e+00	120	27	0	1426063360	40	5826
2026-01-12 21:56:19.68	7.90	20.74	-33.7	-34.5	24.6	0.00e+00	123	28	0	1429209088	40	5917
2026-01-12 21:56:20.69	7.67	20.68	-33.6	-34.5	24.6	0.00e+00	122	28	0	1432354816	40	5915
2026-01-12 21:56:21.70	7.44	20.62	-33.6	-34.5	24.6	0.00e+00	123	27	0	1435500544	40	5870
2026-01-12 21:56:22.71	7.22	20.56	-33.7	-34.6	24.5	0.00e+00	120	27	0	1438646272	40	5943
2026-01-12 21:56:23.72	6.99	20.49	-33.9	-34.8	24.3	0.00e+00	123	28	0	1441792000	40	6093
2026-01-12 21:56:24.73	6.76	20.43	-33.9	-34.8	24.2	0.00e+00	122	28	0	1444937728	40	6124
2026-01-12 21:56:25.74	6.54	20.37	-33.9	-34.8	24.3	0.00e+00	123	28	0	1448083456	40	6080
2026-01-12 21:56:26.75	6.31	20.31	-33.8	-34.7	24.3	0.00e+00	123	28	0	1451229184	40	6040
2026-01-12 21:56:27.76	6.09	20.25	-33.4	-34.3	24.6	0.00e+00	122	28	0	1454374912	40	5767
2026-01-12 21:56:28.77	5.87	20.18	-33.3	-34.2	24.7	0.00e+00	123	28	0	1457520640	40	5697
2026-01-12 21:56:29.78	5.64	20.12	-33.4	-34.3	24.6	0.00e+00	120	28	0	1460666368	40	5755
2026-01-12 21:56:30.79	5.42	20.06	-33.4	-34.2	24.7	0.00e+00	123	28	0	1463812096	40	5714
2026-01-12 21:56:31.80	5.20	19.99	-33.4	-34.3	24.7	0.00e+00	123	28	0	1466957824	40	5754
2026-01-12 21:56:32.81	4.98	19.93	-33.5	-34.4	24.6	0.00e+00	123	28	0	1470103552	40	5839
2026-01-12 21:56:33.82	4.77	19.86	-33.6	-34.4	24.6	0.00e+00	123	28	0	1473249280	40	5857
2026-01-12 21:56:34.83	4.55	19.80	-33.7	-34.6	24.5	0.00e+00	123	28	0	1476395008	40	5956
2026-01-12 21:56:35.84	4.33	19.73	-33.8	-34.7	24.4	0.00e+00	123	28	0	1479540736	40	5999
2026-01-12 21:56:36.86	4.12	19.67	-33.9	-34.8	24.3	0.00e+00	118	28	0	1482686464	40	6093
2026-01-12 21:56:37.87	3.90	19.60	-34.1	-35.0	24.2	0.00e+00	123	28	0	1485832192	40	6250
2026-01-12 21:56:38.88	3.69	19.54	-34.0	-34.9	24.3	0.00e+00	122	28	0	1488977920	40	6157
2026-01-12 21:56:39.89	3.48	19.47	-34.0	-34.9	24.3	0.00e+00	123	27	0	1492123648	40	6151
2026-01-12 21:56:40.90	3.26	19.41	-34.0	-34.9	24.2	0.00e+00	123	28	0	1495269376	40	6191
2026-01-12 21:56:41.91	3.05	19.34	-34.0	-34.9	24.1	0.00e+00	120	28	0	1498415104	40	6186
2026-01-12 21:56:42.92	2.84	19.27	-34.1	-35.0	24.2	0.00e+00	123	28	0	1501560832	40	6232
2026-01-12 21:56:43.93	2.63	19.21	-33.9	-34.8	24.2	0.00e+00	122	27	0	1504706560	40	6109
2026-01-12 21:56:44.93	2.43	19.14	-33.8	-34.7	24.2	0.00e+00	122	27	0	1507852288	40	6054
2026-01-12 21:56:45.94	2.22	19.07	-33.7	-34.6	24.4	0.00e+00	123	28	0	1510998016	40	5946
2026-01-12 21:56:46.95	2.02	19.00	-33.7	-34.6	24.4	0.00e+00	127	27	0	1514143744	40	5939
2026-01-12 21:56:47.96	1.81	18.94	-33.5	-34.4	24.5	0.00e+00	120	27	0	1517289472	40	5841
2026-01-12 21:56:48.97	1.61	18.87	-33.5	-34.4	24.6	0.00e+00	123	27	0	1520435200	40	5842
2026-01-12 21:56:49.98	1.40	18.80	-33.5	-34.3	24.7	0.00e+00	123	28	0	1523580928	40	5789
2026-01-12 21:56:51.00	1.20	18.73	-33.6	-34.5	24.5	0.00e+00	122	28	0	1526726656	40	5897
2026-01-12 21:56:52.01	1.00	18.66	-33.6	-34.5	24.5	0.00e+00	123	27	0	1529872384	40	5924
2026-01-12 21:56:53.02	0.80	18.60	-33.8	-34.8	24.4	0.00e+00	123	27	0	1533018112	40	6075
2026-01-12 21:56:54.03	0.60	18.53	-33.9	-34.8	24.3	0.00e+00	122	28	0	1536163840	40	6105
2026-01-12 21:56:55.04	0.40	18.46	-34.0	-35.0	24.2	0.00e+00	123	28	0	1539309568	40	6215
2026-01-12 21:56:56.05	0.20	18.39	-34.0	-34.9	24.1	0.00e+00	121	28	0	1542455296	40	6191
2026-01-12 21:56:57.06	0.00	18.32	-34.0	-35.0	24.0	0.00e+00	122	28	0	1545601024	40	6213
2026-01-12 21:56:58.07	359.81	18.25	-34.1	-35.0	24.0	0.00e+00	123	28	0	1548746752	40	6230
2026-01-12 21:56:59.08	359.61	18.18	-34.3	-35.2	23.9	0.00e+00	123	28	0	1551892480	40	6383
2026-01-12 21:57:00.09	359.42	18.11	-34.2	-35.1	23.9	0.00e+00	121	27	0	1555038208	40	6318
2026-01-12 21:57:01.10	359.23	18.04	-33.9	-34.8	24.2	0.00e+00	122	28	0	1558183936	40	6088
2026-01-12 21:57:02.11	359.03	17.97	-33.7	-34.6	24.3	0.00e+00	122	28	0	1561329664	40	5983
2026-01-12 21:57:03.13	358.84	17.90	-33.8	-34.7	24.3	0.00e+00	123	28	0	1564475392	40	6039
2026-01-12 21:57:04.13	358.65	17.83	-33.7	-34.6	24.4	0.00e+00	123	28	0	1567621120	40	5989
2026-01-12 21:57:05.15	358.46	17.76	-33.9	-34.8	24.4	0.00e+00	123	28	0	1570766848	40	6065
2026-01-12 21:57:06.16	358.27	17.69	-33.8	-34.7	24.4	0.00e+00	123	27	0	1573912576	40	5998
2026-01-12 21:57:07.17	358.08	17.62	-33.8	-34.7	24.5	0.00e+00	122	27	0	1577058304	40	5998
2026-01-12 21:57:08.18	357.90	17.55	-33.7	-34.5	24.5	0.00e+00	122	28	0	1580204032	40	5922
2026-01-12 21:57:09.19	357.71	17.48	-33.6	-34.5	24.5	0.00e+00	123	28	0	1583349760	40	5862
2026-01-12 21:57:10.20	357.53	17.41	-33.6	-34.5	24.6	0.00e+00	122	28	0	1586495488	40	5866
2026-01-12 21:57:11.21	357.34	17.33	-33.6	-34.5	24.6	0.00e+00	127	27	0	1589641216	40	5885
2026-01-12 21:57:12.22	357.16	17.26	-33.6	-34.5	24.5	0.00e+00	122	27	0	1592786944	40	5918
2026-01-12 21:57:13.23	356.98	17.19	-33.4	-34.3	24.7	0.00e+00	122	27	0	1595932672	40	5759
2026-01-12 21:57:14.24	356.80	17.12	-33.4	-34.3	24.7	0.00e+00	123	28	0	1599078400	40	5775
2026-01-12 21:57:15.25	356.61	17.05	-33.5	-34.3	24.7	0.00e+00	123	27	0	1602224128	40	5791
2026-01-12 21:57:16.26	356.43	16.98	-33.6	-34.5	24.5	0.00e+00	123	28	0	1605369856	40	5905
2026-01-12 21:57:17.27	356.26	16.91	-33.8	-34.7	24.4	0.00e+00	123	28	0	1608515584	40	6017
2026-01-12 21:57:18.28	356.08	16.83	-33.8	-34.7	24.4	0.00e+00	122	28	0	1611661312	40	6009
2026-01-12 21:57:19.29	355.90	16.76	-33.9	-34.8	24.2	0.00e+00	123	27	0	1614807040	40	6129
2026-01-12 21:57:20.30	355.72	16.69	-33.9	-34.8	24.3	0.00e+00	123	28	0	1619001344	40	6095
2026-01-12 21:57:21.31	355.55	16.62	-33.9	-34.8	24.3	0.00e+00	122	28	0	1622147072	40	6118
2026-01-12 21:57:22.32	355.37	16.55	-33.8	-34.7	24.3	0.00e+00	120	28	0	1625292800	40	6050
2026-01-12 21:57:23.33	355.20	16.48	-33.8	-34.7	24.2	0.00e+00	123	27	0	1627389952	40	6048
2026-01-12 21:57:24.34	355.03	16.40	-34.0	-34.9	24.1	0.00e+00	120	27	0	1630535680	40	6171
2026-01-12 21:57:25.35	354.85	16.33	-34.0	-34.9	24.1	0.00e+00	122	28	0	1634729984	40	6181
2026-01-12 21:57:26.36	354.68	16.26	-34.0	-35.0	24.1	0.00e+00	122	27	0	1637875712	40	6208
2026-01-12 21:57:27.37	354.51	16.19	-34.1	-35.0	24.1	0.00e+00	123	28	0	1641021440	40	6241
2026-01-12 21:57:28.38	354.34	16.11	-34.2	-35.1	24.1	0.00e+00	123	28	0	1644167168	40	6313
2026-01-12 21:57:29.39	354.17	16.04	-34.2	-35.1	24.0	0.00e+00	122	28	0	1647312896	40	6309
2026-01-12 21:57:30.40	354.01	15.97	-34.2	-35.1	24.0	0.00e+00	120	28	0	1650458624	40	6335
2026-01-12 21:57:31.41	353.84	15.90	-34.1	-35.0	24.1	0.00e+00	122	27	0	1653604352	40	6260
2026-01-12 21:57:32.42	353.67	15.82	-34.1	-35.0	24.1	0.00e+00	122	28	0	1656750080	40	6253
2026-01-12 21:57:33.43	353.51	15.75	-34.1	-35.0	24.1	0.00e+00	123	28	0	1659895808	40	6253
2026-01-12 21:57:34.45	353.34	15.68	-34.1	-35.1	24.1	0.00e+00	122	27	0	1663041536	40	6278
2026-01-12 21:57:35.46	353.18	15.61	-34.2	-35.2	24.0	0.00e+00	123	27	0	1666187264	40	6359
2026-01-12 21:57:36.47	353.01	15.53	-34.3	-35.2	24.0	0.00e+00	123	27	0	1669332992	40	6411
2026-01-12 21:57:37.48	352.85	15.46	-34.4	-35.4	23.8	0.00e+00	123	28	0	1672478720	40	6510
2026-01-12 21:57:38.49	352.69	15.39	-34.4	-35.4	23.8	0.00e+00	123	28	0	1675624448	40	6515
2026-01-12 21:57:39.50	352.53	15.32	-34.5	-35.5	23.8	0.00e+00	123	28	0	1678770176	40	6575
2026-01-12 21:57:40.51	352.37	15.24	-34.6	-35.5	23.7	0.00e+00	122	28	0	1681915904	40	6613
2026-01-12 21:57:41.52	352.21	15.17	-34.6	-35.5	23.7	0.00e+00	122	28	0	1685061632	40	6637
2026-01-12 21:57:42.53	352.05	15.10	-34.6	-35.5	23.8	0.00e+00	123	27	0	1688207360	40	6608
2026-01-12 21:57:43.53	351.90	15.03	-34.7	-35.6	23.6	0.00e+00	122	28	0	1691353088	40	6674
2026-01-12 21:57:44.54	351.74	14.95	-34.4	-35.4	23.8	0.00e+00	123	28	0	1694498816	40	6514
2026-01-12 21:57:45.55	351.58	14.88	-34.5	-35.4	23.8	0.00e+00	120	27	0	1697644544	40	6541
2026-01-12 21:57:46.56	351.43	14.81	-34.3	-35.2	24.0	0.00e+00	123	27	0	1700790272	40	6398
2026-01-12 21:57:47.57	351.27	14.74	-34.3	-35.3	23.9	0.00e+00	121	28	0	1703936000	40	6424
2026-01-12 21:57:48.58	351.12	14.66	-34.4	-35.3	23.9	0.00e+00	123	28	0	1707081728	40	6470
2026-01-12 21:57:49.59	350.97	14.59	-34.4	-35.3	23.8	0.00e+00	123	28	0	1710227456	40	6481
2026-01-12 21:57:50.60	350.82	14.52	-34.5	-35.4	23.8	0.00e+00	122	28	0	1713373184	40	6522
2026-01-12 21:57:51.61	350.66	14.45	-34.6	-35.6	23.6	0.00e+00	123	27	0	1716518912	40	6678
2026-01-12 21:57:52.62	350.51	14.37	-34.8	-35.7	23.6	0.00e+00	123	27	0	1719664640	40	6784
2026-01-12 21:57:53.63	350.36	14.30	-34.8	-35.8	23.6	0.00e+00	123	28	0	1722810368	42	6090
2026-01-12 21:57:54.64	350.22	14.23	-34.8	-35.8	23.4	0.00e+00	123	28	0	1725956096	42	6071
2026-01-12 21:57:55.65	350.07	14.16	-34.9	-35.9	23.3	0.00e+00	123	28	0	1729101824	42	6151
2026-01-12 21:57:56.65	349.92	14.08	-34.9	-35.9	23.2	0.00e+00	123	28	0	1732247552	42	6141
2026-01-12 21:57:57.67	349.77	14.01	-34.7	-35.7	23.4	0.00e+00	122	28	0	1735393280	42	6006
2026-01-12 21:57:58.68	349.63	13.94	-34.7	-35.7	23.3	0.00e+00	122	27	0	1738539008	42	6010
2026-01-12 21:57:59.69	349.48	13.87	-34.7	-35.7	23.4	0.00e+00	123	27	0	1741684736	42	6006
2026-01-12 21:58:00.70	349.34	13.79	-34.6	-35.5	23.5	0.00e+00	123	27	0	1744830464	42	5903
2026-01-12 21:58:01.71	349.19	13.72	-34.5	-35.4	23.6	0.00e+00	123	27	0	1747976192	42	5846
2026-01-12 21:58:02.72	349.05	13.65	-34.7	-35.6	23.4	0.00e+00	122	27	0	1751121920	42	5971
2026-01-12 21:58:03.73	348.91	13.58	-34.7	-35.6	23.5	0.00e+00	123	28	0	1754267648	42	5954
2026-01-12 21:58:04.74	348.76	13.50	-34.7	-35.7	23.5	0.00e+00	122	28	0	1757413376	42	6015
2026-01-12 21:58:05.75	348.62	13.43	-35.0	-35.9	23.3	0.00e+00	123	27	0	1760559104	42	6205
2026-01-12 21:58:06.76	348.48	13.36	-35.2	-36.2	23.1	0.00e+00	122	27	0	1763704832	42	6378
2026-01-12 21:58:07.77	348.34	13.29	-35.3	-36.3	23.0	0.00e+00	122	27	0	1766850560	42	6430
2026-01-12 21:58:08.78	348.20	13.22	-35.5	-36.5	22.9	0.00e+00	123	27	0	1769996288	42	6617
2026-01-12 21:58:09.79	348.07	13.14	-35.6	-36.7	22.7	0.00e+00	123	27	0	1773142016	42	6738
2026-01-12 21:58:10.80	347.93	13.07	-35.7	-36.7	22.7	0.00e+00	123	27	0	1776287744	42	6758
2026-01-12 21:58:11.81	347.79	13.00	-35.5	-36.5	22.7	0.00e+00	123	27	0	1779433472	42	6643
2026-01-12 21:58:12.82	347.65	12.93	-35.6	-36.6	22.7	0.00e+00	123	27	0	1782579200	42	6708
2026-01-12 21:58:13.83	347.52	12.86	-35.3	-36.3	22.8	0.00e+00	123	27	0	1785724928	42	6479
2026-01-12 21:58:14.84	347.38	12.78	-35.3	-36.3	22.8	0.00e+00	122	27	0	1788870656	42	6481
2026-01-12 21:58:15.86	347.25	12.71	-35.4	-36.4	22.8	0.00e+00	123	27	0	1792016384	42	6533
2026-01-12 21:58:16.86	347.12	12.64	-35.0	-36.0	23.1	0.00e+00	123	27	0	1795162112	42	6224
2026-01-12 21:58:17.87	346.98	12.57	-34.9	-35.9	23.3	0.00e+00	123	27	0	1798307840	42	6145
2026-01-12 21:58:18.89	346.85	12.50	-34.9	-35.8	23.3	0.00e+00	123	27	0	1801453568	42	6120
2026-01-12 21:58:19.89	346.72	12.43	-35.0	-36.0	23.2	0.00e+00	123	27	0	1804599296	42	6237
2026-01-12 21:58:20.90	346.59	12.36	-35.0	-36.0	23.2	0.00e+00	122	27	0	1807745024	42	6238
2026-01-12 21:58:21.91	346.46	12.28	-35.2	-36.2	23.1	0.00e+00	122	27	0	1810890752	42	6359
2026-01-12 21:58:22.92	346.33	12.21	-35.3	-36.3	22.9	0.00e+00	123	27	0	1814036480	42	6495
2026-01-12 21:58:23.93	346.20	12.14	-35.5	-36.6	22.8	0.00e+00	123	27	0	1817182208	42	6653
2026-01-12 21:58:24.94	346.07	12.07	-35.4	-36.4	22.9	0.00e+00	123	27	0	1820327936	42	6536
2026-01-12 21:58:25.96	345.94	12.00	-35.6	-36.6	22.7	0.00e+00	123	27	0	1823473664	42	6715
2026-01-12 21:58:26.97	345.81	11.93	-35.5	-36.6	22.8	0.00e+00	122	27	0	1826619392	42	6659
2026-01-12 21:58:27.98	345.69	11.86	-35.6	-36.6	22.7	0.00e+00	123	27	0	1829765120	42	6703
2026-01-12 21:58:28.99	345.56	11.79	-35.6	-36.6	22.7	0.00e+00	122	27	0	1832910848	42	6725
2026-01-12 21:58:30.00	345.44	11.71	-35.4	-36.5	22.8	0.00e+00	116	27	0	1836056576	42	6598
2026-01-12 21:58:31.01	345.31	11.64	-35.1	-36.2	23.0	0.00e+00	121	27	0	1839202304	42	6380
2026-01-12 21:58:32.02	345.19	11.57	-35.2	-36.3	22.9	0.00e+00	123	27	0	1842348032	42	6441
2026-01-12 21:58:33.03	345.07	11.50	-35.2	-36.2	23.0	0.00e+00	123	28	0	1845493760	42	6372
2026-01-12 21:58:34.04	344.94	11.43	-35.0	-36.0	23.2	0.00e+00	123	27	0	1848639488	42	6225
2026-01-12 21:58:35.05	344.82	11.36	-34.8	-35.9	23.3	0.00e+00	122	27	0	1851785216	42	6141
2026-01-12 21:58:36.06	344.70	11.29	-35.0	-36.0	23.2	0.00e+00	123	27	0	1854930944	42	6236
2026-01-12 21:58:37.07	344.58	11.22	-35.0	-36.1	23.1	0.00e+00	120	27	0	1858076672	42	6281
2026-01-12 21:58:38.08	344.46	11.15	-35.1	-36.1	23.1	0.00e+00	123	27	0	1861222400	42	6337
2026-01-12 21:58:39.09	344.34	11.08	-35.3	-36.4	22.9	0.00e+00	123	27	0	1864368128	42	6507
2026-01-12 21:58:40.10	344.22	11.01	-35.4	-36.5	22.8	0.00e+00	120	27	0	1867513856	42	6600
2026-01-12 21:58:41.11	344.10	10.94	-35.4	-36.5	22.8	0.00e+00	122	27	0	1870659584	42	6594
2026-01-12 21:58:42.12	343.98	10.87	-35.6	-36.6	22.7	0.00e+00	122	27	0	1873805312	42	6707
2026-01-12 21:58:43.13	343.86	10.80	-35.6	-36.7	22.6	0.00e+00	123	27	0	1876951040	42	6781
2026-01-12 21:58:44.14	343.75	10.73	-35.7	-36.8	22.5	0.00e+00	122	27	0	1880096768	44	6071
2026-01-12 21:58:45.15	343.63	10.66	-35.7	-36.8	22.4	0.00e+00	120	27	0	1883242496	44	6107
2026-01-12 21:58:46.16	343.52	10.59	-35.7	-36.8	22.3	0.00e+00	122	27	0	1886388224	44	6113
2026-01-12 21:58:47.17	343.40	10.52	-35.7	-36.8	22.4	0.00e+00	122	27	0	1889533952	44	6101
2026-01-12 21:58:48.18	343.29	10.45	-35.5	-36.6	22.4	0.00e+00	122	27	0	1892679680	44	5967
2026-01-12 21:58:49.20	343.17	10.38	-35.4	-36.4	22.6	0.00e+00	120	28	0	1895825408	44	5839
2026-01-12 21:58:50.20	343.06	10.31	-35.3	-36.4	22.5	0.00e+00	123	27	0	1898971136	44	5819
2026-01-12 21:58:51.21	342.94	10.24	-35.0	-36.1	22.8	0.00e+00	123	27	0	1902116864	44	5595
2026-01-12 21:58:52.22	342.83	10.17	-35.1	-36.2	22.9	0.00e+00	122	27	0	1905262592	44	5663
2026-01-12 21:58:53.23	342.72	10.11	-35.0	-36.0	22.9	0.00e+00	120	27	0	1908408320	44	5553
2026-01-12 21:58:54.24	342.61	10.04	-35.0	-36.1	23.0	0.00e+00	123	27	0	1911554048	44	5609
2026-01-12 21:58:55.25	342.50	9.97	-35.0	-36.0	23.0	0.00e+00	121	27	0	1915748352	44	5582
2026-01-12 21:58:56.26	342.39	9.90	-35.1	-36.1	23.0	0.00e+00	120	27	0	1917845504	44	5614
2026-01-12 21:58:57.27	342.28	9.83	-35.2	-36.2	22.9	0.00e+00	123	27	0	1920991232	44	5688
2026-01-12 21:58:58.28	342.17	9.76	-35.4	-36.4	22.8	0.00e+00	121	27	0	1924136960	44	5847
2026-01-12 21:58:59.29	342.06	9.69	-35.5	-36.6	22.6	0.00e+00	123	27	0	1927282688	44	5929
2026-01-12 21:59:00.30	341.95	9.62	-35.7	-36.8	22.5	0.00e+00	122	27	0	1931476992	44	6102
2026-01-12 21:59:01.31	341.85	9.56	-35.9	-37.0	22.3	0.00e+00	123	27	0	1934622720	44	6249
2026-01-12 21:59:02.32	341.74	9.49	-36.0	-37.2	22.2	0.00e+00	122	27	0	1937768448	44	6374
2026-01-12 21:59:03.33	341.63	9.42	-36.2	-37.3	22.0	0.00e+00	122	27	0	1940914176	44	6481
2026-01-12 21:59:04.34	341.53	9.35	-36.2	-37.5	21.9	0.00e+00	120	27	0	1943011328	44	6577
2026-01-12 21:59:05.35	341.42	9.28	-36.3	-37.5	21.8	0.00e+00	123	27	0	1947205632	44	6635
2026-01-12 21:59:06.36	341.31	9.22	-36.4	-37.6	21.7	0.00e+00	122	27	0	1950351360	44	6668
2026-01-12 21:59:07.37	341.21	9.15	-36.3	-37.5	21.6	0.00e+00	121	27	0	1953497088	44	6619
2026-01-12 21:59:08.38	341.11	9.08	-36.3	-37.6	21.6	0.00e+00	123	27	0	1956642816	44	6650
2026-01-12 21:59:09.39	341.00	9.01	-36.1	-37.3	21.9	0.00e+00	120	27	0	1959788544	44	6430
2026-01-12 21:59:10.40	340.90	8.94	-36.1	-37.3	21.8	0.00e+00	123	27	0	1962934272	44	6435
2026-01-12 21:59:11.41	340.80	8.88	-36.0	-37.2	21.9	0.00e+00	122	27	0	1966080000	44	6360
2026-01-12 21:59:12.42	340.70	8.81	-35.7	-36.8	22.2	0.00e+00	123	27	0	1969225728	44	6105
