passes_logs/2026/01/12/R4.6S_Anadyr/R4.6S_Anadyr__20260112_190021_SUOMI_NPP_rec.log

#Pass ID: 20260112_190021_SUOMI NPP
#Satellite: SUOMI NPP
#Configuration: NPP
#almurnet v.1.7.20251203
#Start time: 2026-01-12 19:00:23

#Version: 2.2.20231116
#Station: R4.6S_Anadyr
#Location: 177.4865 lon 64.73178 lat
#TLE: 1 37849U 11061A   26011.57971124  .00000103  00000+0  69927-4 0  9996
#TLE: 2 37849  98.7807 313.6578 0002518  69.5076 290.6370 14.19524515736228

#Time	Az	El	Level	Level2	SNR	BER	BlckErr	Temp	State	Recorded	gain1	gain2
2026-01-12 19:00:23.74	46.29	0.11	-48.2	-59.8	3.5	8.45e-01	0	27	0	0	60	35226
2026-01-12 19:00:24.74	46.21	0.16	-48.6	-63.8	3.5	1.51e+00	0	28	104	0	60	55722
2026-01-12 19:00:25.75	46.14	0.21	-48.4	-63.7	3.6	1.51e+00	0	28	104	0	60	55093
2026-01-12 19:00:26.76	46.06	0.26	-48.5	-63.7	3.6	1.51e+00	0	28	104	0	60	55223
2026-01-12 19:00:27.77	45.98	0.31	-48.4	-63.6	3.6	1.51e+00	0	28	104	0	60	54678
2026-01-12 19:00:28.78	45.91	0.36	-48.3	-63.6	3.6	1.51e+00	0	28	104	0	60	54931
2026-01-12 19:00:29.79	45.83	0.41	-48.5	-63.6	3.6	1.51e+00	0	29	104	0	60	54862
2026-01-12 19:00:30.80	45.75	0.46	-48.4	-63.6	3.6	1.51e+00	0	28	104	0	60	54489
2026-01-12 19:00:31.81	45.68	0.51	-48.3	-63.5	3.6	1.51e+00	0	29	104	0	60	54053
2026-01-12 19:00:32.82	45.60	0.56	-48.3	-63.5	3.6	1.51e+00	0	28	104	0	60	53846
2026-01-12 19:00:33.83	45.52	0.61	-48.3	-63.4	3.6	1.51e+00	0	28	104	0	60	53684
2026-01-12 19:00:34.84	45.44	0.66	-48.2	-63.4	3.6	1.51e+00	0	28	104	0	60	53492
2026-01-12 19:00:35.85	45.37	0.71	-48.2	-63.3	3.6	1.51e+00	0	29	104	0	60	53104
2026-01-12 19:00:36.85	45.29	0.76	-48.0	-63.2	3.6	1.51e+00	0	28	104	0	60	52402
2026-01-12 19:00:37.86	45.21	0.81	-47.9	-63.0	3.6	1.51e+00	0	28	104	0	60	51338
2026-01-12 19:00:38.87	45.13	0.86	-47.7	-62.9	3.6	1.51e+00	0	29	104	0	60	50364
2026-01-12 19:00:39.88	45.05	0.91	-47.4	-62.6	3.6	1.51e+00	0	29	104	0	60	48519
2026-01-12 19:00:40.89	44.97	0.96	-46.7	-61.9	3.6	1.51e+00	0	29	104	0	60	45090
2026-01-12 19:00:41.90	44.89	1.01	-46.7	-62.0	3.6	1.51e+00	0	29	104	0	60	45352
2026-01-12 19:00:42.91	44.81	1.06	-46.7	-61.9	3.6	1.51e+00	0	29	104	0	60	44951
2026-01-12 19:00:43.92	44.73	1.11	-46.7	-61.9	3.6	1.51e+00	0	29	104	0	60	44787
2026-01-12 19:00:44.93	44.65	1.16	-46.7	-61.9	3.6	1.51e+00	0	29	104	0	60	45140
2026-01-12 19:00:45.94	44.57	1.21	-46.7	-61.8	3.6	1.51e+00	0	29	104	0	60	44470
2026-01-12 19:00:46.95	44.49	1.26	-46.7	-61.9	3.6	1.51e+00	0	29	104	0	60	44996
2026-01-12 19:00:47.96	44.41	1.31	-46.7	-61.9	3.6	1.51e+00	0	29	104	0	60	45004
2026-01-12 19:00:48.97	44.33	1.36	-46.7	-61.9	3.6	1.51e+00	0	29	104	0	60	44737
2026-01-12 19:00:49.98	44.25	1.41	-46.7	-61.9	3.6	1.51e+00	0	29	104	0	60	44822
2026-01-12 19:00:50.99	44.16	1.46	-46.7	-61.9	3.6	1.51e+00	0	29	104	0	60	44753
2026-01-12 19:00:52.00	44.08	1.51	-46.7	-61.8	3.6	1.51e+00	0	29	104	0	60	44717
2026-01-12 19:00:53.01	44.00	1.56	-46.7	-61.8	3.6	1.51e+00	0	29	104	0	60	44599
2026-01-12 19:00:54.02	43.91	1.61	-46.7	-61.9	3.6	1.51e+00	0	29	104	0	60	44737
2026-01-12 19:00:55.03	43.83	1.66	-46.7	-61.8	3.6	1.51e+00	0	29	104	0	60	44615
2026-01-12 19:00:56.04	43.75	1.71	-46.7	-61.8	3.6	1.51e+00	0	29	104	0	60	44431
2026-01-12 19:00:57.05	43.66	1.76	-46.7	-61.9	3.6	1.51e+00	0	29	104	0	60	45070
2026-01-12 19:00:58.06	43.58	1.81	-46.7	-61.9	3.6	1.51e+00	0	29	104	0	60	44821
2026-01-12 19:00:59.07	43.49	1.86	-46.7	-61.8	3.6	1.51e+00	0	29	104	0	60	44707
2026-01-12 19:01:00.08	43.41	1.91	-46.7	-61.8	3.6	1.51e+00	0	29	104	0	60	44452
2026-01-12 19:01:01.09	43.32	1.96	-46.7	-61.7	3.6	1.51e+00	0	29	104	0	60	44076
2026-01-12 19:01:02.10	43.24	2.01	-46.7	-61.7	3.6	1.51e+00	0	29	104	0	60	43894
2026-01-12 19:01:03.11	43.15	2.06	-46.7	-61.5	3.6	1.51e+00	0	29	104	0	60	42985
2026-01-12 19:01:04.12	43.07	2.11	-46.7	-61.5	3.6	1.51e+00	0	29	104	0	60	42951
2026-01-12 19:01:05.13	42.98	2.16	-46.7	-61.5	3.6	1.51e+00	0	29	104	0	60	43166
2026-01-12 19:01:06.14	42.89	2.21	-46.7	-61.6	3.6	1.51e+00	0	29	104	0	60	43626
2026-01-12 19:01:07.15	42.81	2.27	-46.6	-61.8	3.6	1.51e+00	0	29	104	0	60	44393
2026-01-12 19:01:08.16	42.72	2.32	-46.6	-61.8	3.6	1.51e+00	0	29	104	0	60	44556
2026-01-12 19:01:09.16	42.63	2.37	-46.6	-61.8	3.6	1.51e+00	0	29	104	0	60	44557
2026-01-12 19:01:10.17	42.54	2.42	-46.6	-61.7	3.6	1.51e+00	0	29	104	0	60	44183
2026-01-12 19:01:11.18	42.45	2.47	-46.6	-61.8	3.6	1.51e+00	0	29	104	0	60	44701
2026-01-12 19:01:12.19	42.37	2.52	-46.7	-61.8	3.6	1.51e+00	0	29	104	0	60	44625
2026-01-12 19:01:13.20	42.28	2.57	-46.6	-61.6	3.6	1.51e+00	0	29	104	0	60	43433
2026-01-12 19:01:14.21	42.19	2.62	-46.6	-60.9	3.6	1.51e+00	0	29	104	0	60	39970
2026-01-12 19:01:15.22	42.10	2.67	-46.6	-60.5	3.6	1.51e+00	0	29	104	0	60	38315
2026-01-12 19:01:16.23	42.01	2.72	-46.6	-60.9	3.6	1.51e+00	0	29	104	0	60	39897
2026-01-12 19:01:17.24	41.92	2.77	-46.7	-61.5	3.6	1.51e+00	0	29	104	0	60	43005
2026-01-12 19:01:18.25	41.83	2.82	-46.6	-60.4	3.6	1.51e+00	0	29	104	0	60	37658
2026-01-12 19:01:19.26	41.74	2.88	-46.3	-56.9	4.6	1.20e+00	0	29	104	0	60	25250
2026-01-12 19:01:20.27	41.65	2.93	-45.8	-52.3	7.8	2.45e-01	0	29	0	1048576	60	14907
2026-01-12 19:01:21.28	41.55	2.98	-45.3	-50.6	9.8	3.49e-02	0	29	0	3145728	60	12303
2026-01-12 19:01:22.29	41.46	3.03	-44.9	-49.5	11.6	4.46e-03	0	29	0	4194304	60	10842
2026-01-12 19:01:23.30	41.37	3.08	-46.9	-62.1	3.6	1.51e+00	0	29	104	5242880	60	45804
2026-01-12 19:01:24.31	41.28	3.13	-46.3	-55.4	4.7	1.51e+00	0	29	104	5242880	60	21377
2026-01-12 19:01:25.32	41.18	3.18	-44.6	-48.9	12.4	4.51e-02	0	29	104	5242880	60	10095
2026-01-12 19:01:26.32	41.09	3.23	-41.6	-43.5	17.3	0.00e+00	0	29	0	6291456	56	6796
2026-01-12 19:01:27.34	41.00	3.29	-46.5	-60.8	3.6	1.50e+00	0	29	104	7340032	60	39453
2026-01-12 19:01:28.35	40.90	3.34	-42.3	-44.6	15.5	1.02e+00	0	29	104	7340032	58	6872
2026-01-12 19:01:29.36	40.81	3.39	-42.5	-44.8	16.2	0.00e+00	0	29	0	8388608	58	7066
2026-01-12 19:01:30.37	40.71	3.44	-42.5	-44.9	16.0	0.00e+00	0	29	0	10485760	58	7151
2026-01-12 19:01:31.37	40.62	3.49	-42.3	-44.6	16.6	0.00e+00	0	29	0	11534336	58	6915
2026-01-12 19:01:32.38	40.52	3.54	-42.2	-44.4	16.5	0.00e+00	0	29	0	13631488	58	6768
2026-01-12 19:01:33.39	40.43	3.59	-42.0	-44.1	16.6	0.00e+00	0	29	0	15728640	58	6528
2026-01-12 19:01:34.40	40.33	3.64	-42.1	-44.3	16.5	0.00e+00	0	29	0	17825792	58	6669
2026-01-12 19:01:35.41	40.24	3.70	-42.2	-44.4	16.5	0.00e+00	0	29	0	19922944	58	6710
2026-01-12 19:01:36.42	40.14	3.75	-42.1	-44.3	16.6	0.00e+00	0	29	0	20971520	58	6627
2026-01-12 19:01:37.43	40.04	3.80	-41.8	-43.8	17.0	0.00e+00	0	29	0	23068672	56	7075
2026-01-12 19:01:38.44	39.95	3.85	-42.0	-44.1	16.8	0.00e+00	0	29	0	25165824	56	7268
2026-01-12 19:01:39.45	39.85	3.90	-41.8	-43.9	17.3	0.00e+00	0	29	0	27262976	56	7103
2026-01-12 19:01:40.46	39.75	3.95	-41.8	-43.8	17.1	0.00e+00	0	29	0	29360128	56	7077
2026-01-12 19:01:41.47	39.65	4.00	-41.9	-43.9	17.1	0.00e+00	0	29	0	31457280	56	7139
2026-01-12 19:01:42.48	39.55	4.06	-41.9	-44.0	17.1	0.00e+00	0	29	0	32505856	56	7207
2026-01-12 19:01:43.49	39.45	4.11	-41.9	-44.0	17.2	0.00e+00	0	29	0	34603008	56	7223
2026-01-12 19:01:44.50	39.35	4.16	-41.8	-43.9	17.2	0.00e+00	0	29	0	36700160	56	7090
2026-01-12 19:01:45.51	39.25	4.21	-41.8	-43.8	17.3	0.00e+00	0	29	0	38797312	56	7058
2026-01-12 19:01:46.52	39.15	4.26	-41.7	-43.7	17.5	0.00e+00	0	29	0	40894464	56	6963
2026-01-12 19:01:47.52	39.05	4.31	-41.6	-43.6	17.5	0.00e+00	0	29	0	41943040	56	6864
2026-01-12 19:01:48.53	38.95	4.37	-41.5	-43.4	17.7	0.00e+00	0	29	0	44040192	56	6768
2026-01-12 19:01:49.54	38.85	4.42	-41.5	-43.4	17.7	0.00e+00	0	29	0	46137344	56	6765
2026-01-12 19:01:50.55	38.75	4.47	-41.6	-43.5	17.8	0.00e+00	0	29	0	48234496	56	6797
2026-01-12 19:01:51.56	38.65	4.52	-41.3	-43.2	17.8	0.00e+00	0	29	0	50331648	56	6542
2026-01-12 19:01:52.57	38.54	4.57	-41.5	-43.4	17.9	0.00e+00	0	29	0	51380224	56	6707
2026-01-12 19:01:53.58	38.44	4.62	-41.3	-43.1	18.1	0.00e+00	0	29	0	53477376	56	6475
2026-01-12 19:01:54.59	38.34	4.68	-41.4	-43.3	18.0	0.00e+00	0	29	0	55574528	56	6627
2026-01-12 19:01:55.60	38.24	4.73	-41.2	-43.0	18.1	0.00e+00	0	29	0	57671680	56	6413
2026-01-12 19:01:56.61	38.13	4.78	-41.4	-43.2	18.0	0.00e+00	0	29	0	59768832	56	6590
2026-01-12 19:01:57.61	38.03	4.83	-41.4	-43.3	17.8	0.00e+00	0	29	0	60817408	56	6667
2026-01-12 19:01:58.62	37.92	4.88	-41.4	-43.2	18.0	0.00e+00	0	29	0	62914560	56	6556
2026-01-12 19:01:59.63	37.82	4.93	-41.5	-43.4	17.8	0.00e+00	0	29	0	65011712	56	6742
2026-01-12 19:02:00.65	37.71	4.99	-41.4	-43.2	18.0	0.00e+00	0	29	0	67108864	56	6596
2026-01-12 19:02:01.65	37.61	5.04	-41.2	-42.9	18.2	0.00e+00	0	29	0	69206016	56	6388
2026-01-12 19:02:02.66	37.50	5.09	-41.3	-43.1	18.2	0.00e+00	0	29	0	70254592	56	6499
2026-01-12 19:02:03.67	37.39	5.14	-41.4	-43.2	18.0	0.00e+00	0	29	0	72351744	56	6596
2026-01-12 19:02:04.68	37.29	5.19	-41.4	-43.2	18.0	0.00e+00	0	29	0	74448896	56	6601
2026-01-12 19:02:05.69	37.18	5.24	-41.4	-43.2	18.0	0.00e+00	0	29	0	76546048	56	6574
2026-01-12 19:02:06.70	37.07	5.30	-41.2	-42.9	18.2	0.00e+00	0	29	0	78643200	56	6370
2026-01-12 19:02:07.71	36.96	5.35	-41.3	-43.1	18.2	0.00e+00	0	29	0	79691776	56	6467
2026-01-12 19:02:08.72	36.85	5.40	-41.2	-42.9	18.4	0.00e+00	0	29	0	81788928	56	6360
2026-01-12 19:02:09.73	36.74	5.45	-41.0	-42.7	18.4	0.00e+00	0	29	0	83886080	56	6198
2026-01-12 19:02:10.74	36.64	5.50	-41.3	-43.0	18.2	0.00e+00	0	29	0	85983232	56	6446
2026-01-12 19:02:11.75	36.53	5.56	-41.1	-42.8	18.4	0.00e+00	0	29	0	88080384	56	6309
2026-01-12 19:02:12.76	36.42	5.61	-41.4	-43.3	18.1	0.00e+00	0	29	0	90177536	56	6621
2026-01-12 19:02:13.77	36.30	5.66	-41.7	-43.6	17.8	0.00e+00	0	29	0	91226112	56	6868
2026-01-12 19:02:14.78	36.19	5.71	-41.2	-43.0	18.3	0.00e+00	0	29	0	93323264	56	6429
2026-01-12 19:02:15.79	36.08	5.76	-41.5	-43.3	18.1	0.00e+00	0	29	0	95420416	56	6651
2026-01-12 19:02:16.80	35.97	5.82	-41.3	-43.0	18.4	0.00e+00	0	29	0	97517568	56	6447
2026-01-12 19:02:17.81	35.86	5.87	-41.2	-43.0	18.3	0.00e+00	0	29	0	99614720	56	6416
2026-01-12 19:02:18.82	35.74	5.92	-41.5	-43.4	18.1	0.00e+00	0	29	0	100663296	56	6725
2026-01-12 19:02:19.83	35.63	5.97	-41.1	-42.8	18.5	0.00e+00	0	29	0	102760448	56	6295
2026-01-12 19:02:20.84	35.52	6.02	-41.0	-42.7	18.4	0.00e+00	0	29	0	104857600	56	6230
2026-01-12 19:02:21.85	35.40	6.07	-41.2	-42.9	18.4	0.00e+00	0	29	0	106954752	56	6343
2026-01-12 19:02:22.85	35.29	6.13	-41.1	-42.7	18.6	0.00e+00	0	29	0	109051904	56	6229
2026-01-12 19:02:23.86	35.18	6.18	-41.1	-42.8	18.5	0.00e+00	0	29	0	110100480	56	6250
2026-01-12 19:02:24.87	35.06	6.23	-41.2	-42.9	18.4	0.00e+00	0	29	0	112197632	56	6356
2026-01-12 19:02:25.88	34.95	6.28	-41.0	-42.6	18.9	0.00e+00	0	29	0	114294784	56	6115
2026-01-12 19:02:26.89	34.83	6.33	-40.8	-42.4	18.9	0.00e+00	0	29	0	116391936	54	6713
2026-01-12 19:02:27.90	34.71	6.39	-40.5	-41.9	19.4	0.00e+00	0	29	0	118489088	54	6383
2026-01-12 19:02:28.91	34.60	6.44	-40.2	-41.6	19.5	0.00e+00	0	29	0	119537664	54	6124
2026-01-12 19:02:29.92	34.48	6.49	-40.2	-41.6	19.7	0.00e+00	0	29	0	121634816	54	6160
2026-01-12 19:02:30.93	34.36	6.54	-40.0	-41.4	19.7	0.00e+00	0	29	0	123731968	54	6020
2026-01-12 19:02:31.93	34.24	6.59	-40.2	-41.6	19.6	0.00e+00	0	29	0	125829120	54	6121
2026-01-12 19:02:32.94	34.12	6.64	-40.2	-41.6	19.6	0.00e+00	0	29	0	127926272	54	6136
2026-01-12 19:02:33.95	34.01	6.70	-40.2	-41.6	19.7	0.00e+00	0	29	0	128974848	54	6134
2026-01-12 19:02:34.96	33.89	6.75	-40.0	-41.4	19.9	0.00e+00	0	29	0	131072000	54	5968
2026-01-12 19:02:35.97	33.77	6.80	-40.2	-41.7	19.5	0.00e+00	0	29	0	133169152	54	6224
2026-01-12 19:02:36.98	33.65	6.85	-40.1	-41.5	19.6	0.00e+00	0	29	0	135266304	54	6071
2026-01-12 19:02:37.99	33.52	6.90	-39.9	-41.3	19.4	0.00e+00	0	29	0	137363456	54	5909
2026-01-12 19:02:39.00	33.40	6.95	-39.8	-41.2	19.8	0.00e+00	0	29	0	138412032	54	5862
2026-01-12 19:02:40.01	33.28	7.01	-40.0	-41.4	19.7	0.00e+00	0	29	0	140509184	54	6017
2026-01-12 19:02:41.02	33.16	7.06	-40.1	-41.6	19.7	0.00e+00	0	29	0	142606336	54	6126
2026-01-12 19:02:42.03	33.04	7.11	-40.0	-41.4	19.7	0.00e+00	0	29	0	144703488	54	6030
2026-01-12 19:02:43.04	32.91	7.16	-40.0	-41.5	19.7	0.00e+00	0	29	0	146800640	54	6060
2026-01-12 19:02:44.05	32.79	7.21	-40.3	-41.7	19.6	0.00e+00	0	29	0	147849216	54	6232
2026-01-12 19:02:45.06	32.67	7.26	-40.1	-41.5	19.8	0.00e+00	0	29	0	149946368	54	6099
2026-01-12 19:02:46.06	32.54	7.32	-40.0	-41.4	19.9	0.00e+00	0	29	0	152043520	54	5997
2026-01-12 19:02:47.07	32.42	7.37	-40.2	-41.6	19.7	0.00e+00	0	29	0	154140672	54	6133
2026-01-12 19:02:48.08	32.29	7.42	-40.0	-41.4	19.9	0.00e+00	0	29	0	156237824	54	5996
2026-01-12 19:02:49.09	32.17	7.47	-40.1	-41.5	19.9	0.00e+00	0	29	0	157286400	54	6074
2026-01-12 19:02:50.10	32.04	7.52	-40.3	-41.7	19.7	0.00e+00	0	29	0	159383552	54	6234
2026-01-12 19:02:51.11	31.91	7.57	-40.2	-41.6	19.7	0.00e+00	0	29	0	161480704	54	6145
2026-01-12 19:02:52.12	31.79	7.62	-40.2	-41.6	19.7	0.00e+00	0	29	0	163577856	54	6168
2026-01-12 19:02:53.13	31.66	7.68	-40.2	-41.6	19.8	0.00e+00	0	29	0	165675008	54	6136
2026-01-12 19:02:54.14	31.53	7.73	-40.3	-41.7	19.6	0.00e+00	0	29	0	166723584	54	6216
2026-01-12 19:02:55.15	31.40	7.78	-40.3	-41.8	19.6	0.00e+00	0	29	0	168820736	54	6267
2026-01-12 19:02:56.16	31.27	7.83	-40.2	-41.7	19.8	0.00e+00	0	29	0	170917888	54	6178
2026-01-12 19:02:57.17	31.14	7.88	-40.3	-41.7	19.6	0.00e+00	0	29	0	173015040	54	6232
2026-01-12 19:02:58.18	31.01	7.93	-40.3	-41.7	19.6	0.00e+00	0	29	0	175112192	54	6235
2026-01-12 19:02:59.19	30.88	7.98	-40.3	-41.8	19.6	0.00e+00	0	29	0	176160768	54	6271
2026-01-12 19:03:00.20	30.75	8.03	-40.3	-41.8	19.5	0.00e+00	0	29	0	178257920	54	6279
2026-01-12 19:03:01.21	30.62	8.08	-40.3	-41.7	19.7	0.00e+00	0	29	0	180355072	54	6231
2026-01-12 19:03:02.22	30.49	8.14	-40.3	-41.7	19.6	0.00e+00	0	29	0	182452224	54	6210
2026-01-12 19:03:03.23	30.36	8.19	-40.2	-41.6	19.8	0.00e+00	0	29	0	184549376	54	6138
2026-01-12 19:03:04.24	30.23	8.24	-40.0	-41.4	19.8	0.00e+00	0	29	0	185597952	54	5976
2026-01-12 19:03:05.25	30.09	8.29	-40.2	-41.6	19.7	0.00e+00	0	29	0	187695104	54	6155
2026-01-12 19:03:06.26	29.96	8.34	-40.3	-41.7	19.7	0.00e+00	0	29	0	189792256	54	6223
2026-01-12 19:03:07.27	29.82	8.39	-40.2	-41.6	19.8	0.00e+00	0	29	0	191889408	54	6152
2026-01-12 19:03:08.27	29.69	8.44	-40.2	-41.6	19.8	0.00e+00	0	29	0	193986560	54	6107
2026-01-12 19:03:09.28	29.56	8.49	-39.9	-41.3	20.1	0.00e+00	0	29	0	196083712	54	5904
2026-01-12 19:03:10.29	29.42	8.54	-39.8	-41.1	20.2	0.00e+00	0	29	0	197132288	52	6510
2026-01-12 19:03:11.30	29.28	8.59	-39.8	-41.1	20.3	0.00e+00	0	29	0	199229440	52	6504
2026-01-12 19:03:12.31	29.15	8.64	-39.8	-41.1	20.2	0.00e+00	0	29	0	201326592	52	6530
2026-01-12 19:03:13.32	29.01	8.69	-39.8	-41.1	20.3	0.00e+00	0	29	0	203423744	52	6494
2026-01-12 19:03:14.33	28.87	8.74	-40.1	-41.5	19.9	0.00e+00	0	29	0	205520896	52	6788
2026-01-12 19:03:15.34	28.73	8.79	-39.8	-41.2	20.2	0.00e+00	0	29	0	206569472	52	6561
2026-01-12 19:03:16.35	28.60	8.84	-40.0	-41.4	20.1	0.00e+00	0	29	0	208666624	52	6699
2026-01-12 19:03:17.36	28.46	8.89	-40.1	-41.5	19.8	0.00e+00	0	29	0	210763776	52	6830
2026-01-12 19:03:18.37	28.32	8.94	-40.2	-41.7	19.8	0.00e+00	0	29	0	212860928	52	6931
2026-01-12 19:03:19.38	28.18	9.00	-40.2	-41.6	19.8	0.00e+00	0	29	0	214958080	52	6915
2026-01-12 19:03:20.39	28.04	9.05	-40.5	-42.0	19.5	0.00e+00	0	29	0	216006656	52	7196
2026-01-12 19:03:21.40	27.90	9.10	-40.3	-41.8	19.7	0.00e+00	0	29	0	218103808	52	7034
2026-01-12 19:03:22.41	27.75	9.15	-40.4	-41.9	19.6	0.00e+00	0	29	0	220200960	52	7159
2026-01-12 19:03:23.41	27.61	9.19	-40.5	-42.0	19.5	0.00e+00	0	29	0	222298112	52	7188
2026-01-12 19:03:24.42	27.47	9.24	-40.4	-41.9	19.5	0.00e+00	0	29	0	224395264	52	7132
2026-01-12 19:03:25.43	27.33	9.29	-40.5	-42.0	19.4	0.00e+00	0	29	0	225443840	52	7215
2026-01-12 19:03:26.44	27.19	9.34	-40.3	-41.7	19.8	0.00e+00	0	29	0	227540992	52	6999
2026-01-12 19:03:27.45	27.04	9.39	-40.2	-41.6	19.8	0.00e+00	0	29	0	229638144	52	6918
2026-01-12 19:03:28.46	26.90	9.44	-40.2	-41.6	19.8	0.00e+00	0	29	0	231735296	52	6916
2026-01-12 19:03:29.47	26.75	9.49	-40.0	-41.4	20.0	0.00e+00	0	29	0	233832448	52	6715
2026-01-12 19:03:30.48	26.61	9.54	-39.9	-41.2	20.3	0.00e+00	0	29	0	234881024	52	6567
2026-01-12 19:03:31.49	26.46	9.59	-39.9	-41.2	20.2	0.00e+00	0	29	0	236978176	52	6609
2026-01-12 19:03:32.50	26.31	9.64	-40.2	-41.6	20.0	0.00e+00	0	29	0	239075328	52	6877
2026-01-12 19:03:33.51	26.17	9.69	-39.9	-41.2	20.3	0.00e+00	0	29	0	241172480	52	6598
2026-01-12 19:03:34.52	26.02	9.74	-39.6	-40.9	20.5	0.00e+00	0	29	0	243269632	52	6356
2026-01-12 19:03:35.53	25.87	9.79	-39.6	-40.9	20.7	0.00e+00	0	29	0	244318208	52	6334
2026-01-12 19:03:36.53	25.72	9.84	-39.3	-40.5	20.9	0.00e+00	0	29	0	246415360	52	6048
2026-01-12 19:03:37.54	25.58	9.88	-39.3	-40.5	20.9	0.00e+00	0	29	0	248512512	52	6083
2026-01-12 19:03:38.55	25.43	9.93	-39.2	-40.4	21.0	0.00e+00	0	29	0	250609664	52	5984
2026-01-12 19:03:39.57	25.27	9.98	-39.2	-40.5	20.9	0.00e+00	0	29	0	252706816	52	6044
2026-01-12 19:03:40.58	25.12	10.03	-39.2	-40.4	21.0	0.00e+00	0	29	0	253755392	52	6004
2026-01-12 19:03:41.59	24.97	10.08	-39.4	-40.7	20.8	0.00e+00	0	29	0	255852544	52	6195
2026-01-12 19:03:42.60	24.82	10.13	-39.4	-40.6	20.9	0.00e+00	0	29	0	257949696	52	6157
2026-01-12 19:03:43.61	24.67	10.17	-39.2	-40.4	20.9	0.00e+00	0	29	0	260046848	52	6023
2026-01-12 19:03:44.62	24.52	10.22	-38.7	-39.9	21.2	0.00e+00	0	29	0	262144000	50	6347
2026-01-12 19:03:45.62	24.37	10.27	-38.7	-39.8	21.5	0.00e+00	0	29	0	264241152	50	6309
2026-01-12 19:03:46.63	24.21	10.32	-38.6	-39.8	21.5	0.00e+00	0	29	0	265289728	50	6271
2026-01-12 19:03:47.64	24.06	10.37	-38.4	-39.5	21.7	0.00e+00	0	29	0	267386880	50	6059
2026-01-12 19:03:48.65	23.90	10.41	-38.3	-39.4	21.9	0.00e+00	0	29	0	269484032	50	5992
2026-01-12 19:03:49.66	23.75	10.46	-38.2	-39.2	22.1	0.00e+00	0	29	0	271581184	50	5877
2026-01-12 19:03:50.67	23.59	10.51	-37.9	-38.9	22.3	0.00e+00	0	29	0	273678336	50	5655
2026-01-12 19:03:51.68	23.44	10.56	-37.9	-38.9	22.2	0.00e+00	0	28	0	274726912	50	5673
2026-01-12 19:03:52.69	23.28	10.60	-38.1	-39.2	22.0	0.00e+00	0	29	0	276824064	50	5859
2026-01-12 19:03:53.70	23.12	10.65	-38.1	-39.1	22.2	0.00e+00	0	29	0	278921216	50	5804
2026-01-12 19:03:54.71	22.96	10.70	-38.3	-39.4	21.7	0.00e+00	0	29	0	281018368	50	6022
2026-01-12 19:03:55.72	22.81	10.74	-38.5	-39.7	21.6	0.00e+00	0	28	0	283115520	50	6201
2026-01-12 19:03:56.73	22.65	10.79	-38.7	-39.8	21.5	0.00e+00	0	29	0	284164096	50	6305
2026-01-12 19:03:57.73	22.49	10.84	-38.8	-40.0	21.5	0.00e+00	0	29	0	286261248	50	6420
2026-01-12 19:03:58.74	22.33	10.88	-38.7	-39.8	21.5	0.00e+00	0	29	0	288358400	50	6317
2026-01-12 19:03:59.75	22.17	10.93	-38.8	-39.9	21.5	0.00e+00	0	29	0	290455552	50	6380
2026-01-12 19:04:00.76	22.01	10.98	-38.5	-39.6	21.6	0.00e+00	0	29	0	292552704	50	6153
2026-01-12 19:04:01.77	21.85	11.02	-38.4	-39.5	21.6	0.00e+00	0	29	0	293601280	50	6103
2026-01-12 19:04:02.78	21.69	11.07	-38.3	-39.4	21.8	0.00e+00	0	29	0	295698432	50	6011
2026-01-12 19:04:03.79	21.52	11.11	-38.3	-39.4	21.8	0.00e+00	0	29	0	297795584	50	6032
2026-01-12 19:04:04.80	21.36	11.16	-38.2	-39.3	22.0	0.00e+00	0	28	0	299892736	50	5943
2026-01-12 19:04:05.81	21.20	11.20	-38.2	-39.2	22.0	0.00e+00	0	28	0	301989888	50	5885
2026-01-12 19:04:06.81	21.04	11.25	-37.8	-38.9	22.2	0.00e+00	0	29	0	303038464	50	5648
2026-01-12 19:04:07.82	20.87	11.29	-37.8	-38.8	22.3	0.00e+00	0	29	0	305135616	48	6290
2026-01-12 19:04:08.83	20.71	11.34	-37.5	-38.5	22.6	0.00e+00	0	29	0	307232768	48	6063
2026-01-12 19:04:09.84	20.54	11.38	-37.5	-38.4	22.6	0.00e+00	0	29	0	309329920	48	6028
2026-01-12 19:04:10.85	20.38	11.43	-37.3	-38.3	22.7	0.00e+00	0	29	0	311427072	48	5927
2026-01-12 19:04:11.86	20.21	11.47	-37.5	-38.5	22.7	0.00e+00	0	28	0	312475648	48	6052
2026-01-12 19:04:12.87	20.04	11.52	-37.6	-38.6	22.5	0.00e+00	0	29	0	314572800	48	6163
2026-01-12 19:04:13.88	19.87	11.56	-37.8	-38.9	22.3	0.00e+00	0	29	0	316669952	48	6319
2026-01-12 19:04:14.89	19.71	11.61	-37.8	-38.9	22.4	0.00e+00	0	29	0	318767104	48	6326
2026-01-12 19:04:15.90	19.54	11.65	-37.6	-38.6	22.5	0.00e+00	0	29	0	320864256	48	6144
2026-01-12 19:04:16.90	19.37	11.69	-37.5	-38.5	22.6	0.00e+00	0	29	0	321912832	48	6063
2026-01-12 19:04:17.92	19.20	11.74	-37.7	-38.7	22.4	0.00e+00	0	29	0	324009984	48	6198
2026-01-12 19:04:18.92	19.03	11.78	-37.8	-38.8	22.2	0.00e+00	0	29	0	326107136	48	6314
2026-01-12 19:04:19.93	18.86	11.82	-37.7	-38.8	22.4	0.00e+00	0	29	0	328204288	48	6261
2026-01-12 19:04:20.94	18.69	11.87	-37.7	-38.7	22.6	0.00e+00	0	29	0	330301440	48	6218
2026-01-12 19:04:21.95	18.52	11.91	-37.1	-38.1	22.9	0.00e+00	0	29	0	332398592	48	5773
2026-01-12 19:04:22.96	18.35	11.95	-37.0	-37.9	23.0	0.00e+00	0	29	0	333447168	48	5693
2026-01-12 19:04:23.97	18.17	11.99	-37.1	-38.0	23.1	0.00e+00	0	29	0	335544320	48	5717
2026-01-12 19:04:24.98	18.00	12.04	-36.9	-37.8	23.2	0.00e+00	0	29	0	337641472	48	5575
2026-01-12 19:04:25.99	17.83	12.08	-37.0	-37.9	23.1	0.00e+00	0	29	0	339738624	48	5692
2026-01-12 19:04:27.00	17.65	12.12	-37.0	-37.9	23.1	0.00e+00	0	29	0	340787200	48	5666
2026-01-12 19:04:28.01	17.48	12.16	-37.1	-38.0	22.9	0.00e+00	0	29	0	342884352	48	5759
2026-01-12 19:04:29.02	17.30	12.20	-37.2	-38.1	22.9	0.00e+00	0	29	0	344981504	48	5822
2026-01-12 19:04:30.03	17.13	12.25	-37.3	-38.3	22.7	0.00e+00	0	29	0	347078656	48	5908
2026-01-12 19:04:31.03	16.95	12.29	-37.4	-38.5	22.7	0.00e+00	0	29	0	349175808	48	6042
2026-01-12 19:04:32.04	16.78	12.33	-37.6	-38.6	22.5	0.00e+00	0	29	0	350224384	48	6144
2026-01-12 19:04:33.05	16.60	12.37	-37.7	-38.8	22.3	0.00e+00	0	29	0	352321536	48	6266
2026-01-12 19:04:34.06	16.42	12.41	-37.7	-38.8	22.1	0.00e+00	0	29	0	354418688	48	6269
2026-01-12 19:04:35.07	16.24	12.45	-38.0	-39.0	22.0	0.00e+00	0	29	0	356515840	48	6436
2026-01-12 19:04:36.08	16.06	12.49	-38.1	-39.2	22.1	0.00e+00	0	28	0	358612992	48	6561
2026-01-12 19:04:37.09	15.89	12.53	-38.2	-39.3	21.9	0.00e+00	0	28	0	360710144	48	6653
2026-01-12 19:04:38.10	15.71	12.57	-38.1	-39.2	22.1	0.00e+00	0	29	0	361758720	48	6572
2026-01-12 19:04:39.11	15.53	12.61	-38.2	-39.2	22.0	0.00e+00	0	28	0	363855872	48	6608
2026-01-12 19:04:40.12	15.35	12.65	-37.9	-39.0	22.3	0.00e+00	0	29	0	365953024	48	6414
2026-01-12 19:04:41.13	15.16	12.69	-38.1	-39.2	22.0	0.00e+00	0	29	0	368050176	48	6551
2026-01-12 19:04:42.14	14.98	12.73	-37.9	-39.0	22.2	0.00e+00	0	29	0	370147328	48	6400
2026-01-12 19:04:43.15	14.80	12.77	-38.2	-39.3	22.1	0.00e+00	0	29	0	371195904	48	6635
2026-01-12 19:04:44.15	14.62	12.80	-38.1	-39.2	22.0	0.00e+00	0	29	0	373293056	48	6566
2026-01-12 19:04:45.17	14.44	12.84	-38.3	-39.4	21.9	0.00e+00	0	29	0	375390208	48	6739
2026-01-12 19:04:46.18	14.25	12.88	-38.1	-39.2	22.1	0.00e+00	0	28	0	377487360	48	6563
2026-01-12 19:04:47.19	14.07	12.92	-38.3	-39.4	22.0	0.00e+00	0	28	0	379584512	48	6727
2026-01-12 19:04:48.19	13.89	12.96	-38.3	-39.4	21.9	0.00e+00	0	29	0	380633088	48	6713
2026-01-12 19:04:49.21	13.70	12.99	-38.0	-39.1	21.9	0.00e+00	0	28	0	382730240	48	6507
2026-01-12 19:04:50.22	13.51	13.03	-37.9	-39.0	22.3	0.00e+00	0	28	0	384827392	48	6409
2026-01-12 19:04:51.23	13.33	13.07	-37.6	-38.7	22.5	0.00e+00	0	28	0	386924544	48	6177
2026-01-12 19:04:52.24	13.14	13.10	-37.5	-38.5	22.6	0.00e+00	0	28	0	389021696	48	6084
2026-01-12 19:04:53.25	12.95	13.14	-37.3	-38.3	22.8	0.00e+00	0	28	0	390070272	48	5915
2026-01-12 19:04:54.26	12.77	13.18	-37.3	-38.2	22.9	0.00e+00	0	29	0	392167424	48	5872
2026-01-12 19:04:55.27	12.58	13.21	-37.3	-38.2	22.9	0.00e+00	0	29	0	394264576	48	5865
2026-01-12 19:04:56.28	12.39	13.25	-37.3	-38.3	22.8	0.00e+00	0	29	0	396361728	48	5903
2026-01-12 19:04:57.29	12.20	13.28	-37.5	-38.5	22.7	0.00e+00	0	29	0	398458880	48	6087
2026-01-12 19:04:58.30	12.01	13.32	-37.7	-38.8	22.5	0.00e+00	0	28	0	399507456	48	6253
2026-01-12 19:04:59.31	11.82	13.35	-37.7	-38.8	22.4	0.00e+00	0	28	0	401604608	48	6250
2026-01-12 19:05:00.31	11.64	13.39	-37.6	-38.6	22.5	0.00e+00	0	28	0	403701760	48	6155
2026-01-12 19:05:01.32	11.45	13.42	-37.5	-38.6	22.7	0.00e+00	0	29	0	405798912	48	6105
2026-01-12 19:05:02.33	11.25	13.46	-37.3	-38.2	22.8	0.00e+00	0	28	0	407896064	48	5886
2026-01-12 19:05:03.34	11.06	13.49	-37.2	-38.2	22.6	0.00e+00	0	28	0	408944640	48	5869
2026-01-12 19:05:04.35	10.87	13.52	-37.4	-38.4	22.7	0.00e+00	0	28	0	411041792	48	5999
2026-01-12 19:05:05.36	10.68	13.56	-37.6	-38.6	22.7	0.00e+00	0	29	0	413138944	48	6106
2026-01-12 19:05:06.37	10.49	13.59	-37.7	-38.7	22.5	0.00e+00	0	28	0	415236096	48	6232
2026-01-12 19:05:07.38	10.29	13.62	-37.9	-39.0	22.3	0.00e+00	0	28	0	417333248	48	6406
2026-01-12 19:05:08.39	10.10	13.65	-38.1	-39.2	22.1	0.00e+00	0	28	0	418381824	48	6561
2026-01-12 19:05:09.40	9.91	13.69	-38.2	-39.3	22.0	0.00e+00	0	28	0	420478976	48	6650
2026-01-12 19:05:10.41	9.71	13.72	-38.3	-39.5	21.8	0.00e+00	0	28	0	422576128	48	6808
2026-01-12 19:05:11.42	9.52	13.75	-38.3	-39.5	21.9	0.00e+00	0	28	0	424673280	48	6804
2026-01-12 19:05:12.43	9.32	13.78	-38.3	-39.4	21.9	0.00e+00	0	28	0	426770432	48	6736
2026-01-12 19:05:13.44	9.13	13.81	-38.1	-39.2	22.1	0.00e+00	0	28	0	428867584	48	6595
2026-01-12 19:05:14.45	8.93	13.84	-37.8	-38.9	22.4	0.00e+00	0	28	0	429916160	48	6321
2026-01-12 19:05:15.46	8.73	13.87	-37.4	-38.3	22.7	0.00e+00	0	28	0	432013312	48	5964
2026-01-12 19:05:16.47	8.54	13.90	-37.1	-38.0	23.0	0.00e+00	0	28	0	434110464	48	5724
2026-01-12 19:05:17.48	8.34	13.93	-36.8	-37.7	23.0	0.00e+00	0	28	0	436207616	48	5563
2026-01-12 19:05:18.49	8.14	13.96	-36.6	-37.5	23.4	0.00e+00	0	28	0	438304768	46	6091
2026-01-12 19:05:19.50	7.94	13.99	-36.7	-37.6	23.4	0.00e+00	0	28	0	439353344	46	6128
2026-01-12 19:05:20.51	7.75	14.02	-36.8	-37.7	23.3	0.00e+00	0	28	0	441450496	46	6187
2026-01-12 19:05:21.52	7.55	14.05	-36.8	-37.7	23.5	0.00e+00	0	28	0	443547648	46	6181
2026-01-12 19:05:22.53	7.35	14.08	-36.7	-37.6	23.4	0.00e+00	0	28	0	445644800	46	6131
2026-01-12 19:05:23.53	7.15	14.10	-36.8	-37.7	23.3	0.00e+00	0	28	0	447741952	46	6242
2026-01-12 19:05:24.54	6.95	14.13	-36.9	-37.8	23.3	0.00e+00	0	28	0	448790528	46	6283
2026-01-12 19:05:25.55	6.75	14.16	-37.0	-37.9	23.2	0.00e+00	0	28	0	450887680	46	6366
2026-01-12 19:05:26.56	6.55	14.19	-36.7	-37.6	23.4	0.00e+00	0	28	0	452984832	46	6124
2026-01-12 19:05:27.57	6.35	14.21	-36.6	-37.4	23.6	0.00e+00	0	28	0	455081984	46	6031
2026-01-12 19:05:28.58	6.15	14.24	-36.7	-37.6	23.4	0.00e+00	0	28	0	457179136	46	6120
2026-01-12 19:05:29.59	5.94	14.27	-36.6	-37.5	23.2	0.00e+00	0	28	0	458227712	46	6097
2026-01-12 19:05:30.60	5.74	14.29	-36.5	-37.4	23.5	0.00e+00	0	28	0	460324864	46	6006
2026-01-12 19:05:31.61	5.54	14.32	-36.7	-37.6	23.4	0.00e+00	0	28	0	462422016	46	6162
2026-01-12 19:05:32.62	5.34	14.34	-36.8	-37.7	23.3	0.00e+00	0	28	0	464519168	46	6199
2026-01-12 19:05:33.63	5.13	14.37	-37.2	-38.1	23.0	0.00e+00	0	28	0	466616320	46	6513
2026-01-12 19:05:34.64	4.93	14.39	-37.5	-38.5	22.7	0.00e+00	0	28	0	467664896	46	6822
2026-01-12 19:05:35.65	4.73	14.41	-38.0	-39.1	22.3	0.00e+00	0	28	0	469762048	48	6479
2026-01-12 19:05:36.66	4.52	14.44	-38.0	-39.0	22.2	0.00e+00	0	28	0	471859200	48	6439
2026-01-12 19:05:37.67	4.32	14.46	-37.9	-39.0	22.3	0.00e+00	0	28	0	473956352	48	6402
2026-01-12 19:05:38.68	4.11	14.48	-37.9	-38.9	22.4	0.00e+00	0	28	0	476053504	48	6363
2026-01-12 19:05:39.68	3.91	14.51	-37.6	-38.6	22.6	0.00e+00	0	28	0	477102080	48	6160
2026-01-12 19:05:40.69	3.70	14.53	-37.7	-38.8	22.5	0.00e+00	0	28	0	479199232	48	6249
2026-01-12 19:05:41.70	3.50	14.55	-37.8	-38.9	22.2	0.00e+00	0	28	0	481296384	48	6333
2026-01-12 19:05:42.71	3.29	14.57	-38.1	-39.2	21.9	0.00e+00	0	28	0	483393536	48	6575
2026-01-12 19:05:43.72	3.09	14.59	-38.3	-39.4	22.1	0.00e+00	0	28	0	485490688	48	6711
2026-01-12 19:05:44.73	2.88	14.61	-38.2	-39.3	22.1	0.00e+00	0	28	0	486539264	48	6644
2026-01-12 19:05:45.74	2.67	14.63	-38.2	-39.3	22.1	0.00e+00	0	28	0	488636416	48	6627
2026-01-12 19:05:46.75	2.46	14.66	-37.9	-39.0	22.2	0.00e+00	0	28	0	490733568	48	6422
2026-01-12 19:05:47.76	2.26	14.67	-37.6	-38.6	22.6	0.00e+00	0	28	0	492830720	48	6150
2026-01-12 19:05:48.77	2.05	14.69	-37.6	-38.6	22.6	0.00e+00	0	28	0	494927872	48	6133
2026-01-12 19:05:49.78	1.84	14.71	-37.5	-38.5	22.7	0.00e+00	0	28	0	497025024	48	6102
2026-01-12 19:05:50.79	1.63	14.73	-37.7	-38.7	22.6	0.00e+00	0	28	0	498073600	48	6216
2026-01-12 19:05:51.80	1.42	14.75	-37.8	-38.9	22.4	0.00e+00	0	28	0	500170752	48	6344
2026-01-12 19:05:52.81	1.22	14.77	-38.0	-39.0	22.5	0.00e+00	0	28	0	502267904	48	6418
2026-01-12 19:05:53.81	1.01	14.79	-37.2	-38.2	23.1	0.00e+00	0	28	0	504365056	48	5830
2026-01-12 19:05:54.83	0.80	14.80	-37.0	-37.9	23.1	0.00e+00	0	28	0	506462208	48	5656
2026-01-12 19:05:55.84	0.59	14.82	-37.0	-37.9	23.2	0.00e+00	0	28	0	507510784	48	5644
2026-01-12 19:05:56.84	0.38	14.84	-36.8	-37.7	23.3	0.00e+00	0	28	0	509607936	46	6180
2026-01-12 19:05:57.85	0.17	14.85	-36.8	-37.7	23.4	0.00e+00	0	28	0	511705088	46	6200
2026-01-12 19:05:58.86	359.96	14.87	-37.0	-37.9	23.3	0.00e+00	0	28	0	513802240	46	6349
2026-01-12 19:05:59.87	359.75	14.88	-37.1	-38.0	22.9	0.00e+00	0	28	0	515899392	46	6436
2026-01-12 19:06:00.88	359.54	14.90	-37.3	-38.2	22.9	0.00e+00	0	28	0	516947968	46	6607
2026-01-12 19:06:01.89	359.33	14.91	-37.4	-38.3	22.9	0.00e+00	0	28	0	519045120	46	6660
2026-01-12 19:06:02.90	359.11	14.93	-37.4	-38.4	22.8	0.00e+00	0	28	0	521142272	46	6696
2026-01-12 19:06:03.91	358.90	14.94	-37.3	-38.3	23.0	0.00e+00	0	28	0	523239424	46	6617
2026-01-12 19:06:04.92	358.69	14.95	-37.5	-38.5	22.8	0.00e+00	0	28	0	525336576	46	6773
2026-01-12 19:06:05.93	358.48	14.97	-37.3	-38.2	23.0	0.00e+00	0	28	0	526385152	46	6604
2026-01-12 19:06:06.94	358.27	14.98	-37.4	-38.4	22.7	0.00e+00	0	28	0	528482304	46	6705
2026-01-12 19:06:07.95	358.06	14.99	-37.6	-38.6	22.7	0.00e+00	0	28	0	530579456	46	6889
2026-01-12 19:06:08.96	357.84	15.00	-37.5	-38.5	22.8	0.00e+00	0	28	0	532676608	46	6804
2026-01-12 19:06:09.97	357.63	15.02	-37.4	-38.3	22.8	0.00e+00	0	28	0	534773760	46	6680
2026-01-12 19:06:10.97	357.42	15.03	-37.5	-38.5	22.8	0.00e+00	0	28	0	535822336	46	6798
2026-01-12 19:06:11.98	357.21	15.04	-37.5	-38.5	22.7	0.00e+00	0	28	0	537919488	46	6847
2026-01-12 19:06:12.99	356.99	15.05	-37.6	-38.6	22.5	0.00e+00	0	28	0	540016640	48	6133
2026-01-12 19:06:14.00	356.78	15.06	-37.7	-38.7	22.4	0.00e+00	0	28	0	542113792	48	6209
2026-01-12 19:06:15.01	356.57	15.07	-37.9	-38.9	22.4	0.00e+00	0	28	0	544210944	48	6352
2026-01-12 19:06:16.02	356.36	15.08	-37.8	-38.8	22.5	0.00e+00	0	28	0	545259520	48	6295
2026-01-12 19:06:17.03	356.14	15.09	-37.9	-38.9	22.4	0.00e+00	0	28	0	547356672	48	6376
2026-01-12 19:06:18.04	355.93	15.09	-37.8	-38.8	22.5	0.00e+00	0	28	0	549453824	48	6261
2026-01-12 19:06:19.05	355.71	15.10	-37.9	-38.9	22.3	0.00e+00	0	28	0	551550976	48	6359
2026-01-12 19:06:20.06	355.50	15.11	-37.6	-38.6	22.6	0.00e+00	0	28	0	553648128	48	6152
2026-01-12 19:06:21.07	355.29	15.12	-37.7	-38.7	22.6	0.00e+00	0	28	0	554696704	48	6236
2026-01-12 19:06:22.07	355.07	15.12	-37.5	-38.5	22.7	0.00e+00	0	28	0	556793856	48	6061
2026-01-12 19:06:23.08	354.86	15.13	-37.4	-38.4	22.7	0.00e+00	0	28	0	558891008	48	6002
2026-01-12 19:06:24.09	354.65	15.14	-37.6	-38.6	22.6	0.00e+00	0	28	0	560988160	48	6144
2026-01-12 19:06:25.10	354.43	15.14	-37.8	-38.8	22.6	0.00e+00	0	28	0	563085312	48	6287
2026-01-12 19:06:26.11	354.22	15.15	-37.9	-38.9	22.4	0.00e+00	0	28	0	565182464	48	6372
2026-01-12 19:06:27.11	354.00	15.15	-37.5	-38.5	22.6	0.00e+00	0	28	0	566231040	48	6075
2026-01-12 19:06:28.12	353.79	15.15	-37.5	-38.5	22.7	0.00e+00	0	28	0	568328192	48	6048
2026-01-12 19:06:29.13	353.58	15.16	-37.3	-38.3	22.9	0.00e+00	0	28	0	570425344	48	5922
2026-01-12 19:06:30.14	353.36	15.16	-37.4	-38.3	22.8	0.00e+00	0	28	0	572522496	48	5964
2026-01-12 19:06:31.15	353.15	15.17	-37.4	-38.4	22.8	0.00e+00	0	28	0	574619648	48	6026
2026-01-12 19:06:32.16	352.93	15.17	-37.4	-38.4	22.7	0.00e+00	0	28	0	575668224	48	6020
2026-01-12 19:06:33.17	352.72	15.17	-37.5	-38.5	22.6	0.00e+00	0	28	0	577765376	48	6095
2026-01-12 19:06:34.18	352.50	15.17	-37.8	-38.8	22.6	0.00e+00	0	28	0	579862528	48	6298
2026-01-12 19:06:35.19	352.29	15.17	-37.9	-38.9	22.5	0.00e+00	0	28	0	581959680	48	6351
2026-01-12 19:06:36.20	352.07	15.17	-38.0	-39.0	22.4	0.00e+00	0	28	0	583008256	48	6437
2026-01-12 19:06:37.21	351.86	15.18	-38.0	-39.1	22.3	0.00e+00	0	28	0	585105408	48	6486
2026-01-12 19:06:38.22	351.64	15.18	-37.8	-38.8	22.4	0.00e+00	0	28	0	587202560	48	6310
2026-01-12 19:06:39.23	351.43	15.18	-37.7	-38.8	22.6	0.00e+00	0	28	0	589299712	48	6256
2026-01-12 19:06:40.24	351.21	15.18	-37.7	-38.7	22.7	0.00e+00	0	28	0	591396864	48	6196
2026-01-12 19:06:41.24	351.00	15.17	-37.3	-38.2	23.0	0.00e+00	0	28	0	593494016	48	5895
2026-01-12 19:06:42.25	350.78	15.17	-37.2	-38.2	23.0	0.00e+00	0	28	0	594542592	48	5849
2026-01-12 19:06:43.26	350.57	15.17	-37.0	-37.9	23.2	0.00e+00	0	28	0	596639744	48	5692
2026-01-12 19:06:44.27	350.35	15.17	-37.0	-37.9	23.2	0.00e+00	0	28	0	598736896	48	5687
2026-01-12 19:06:45.28	350.14	15.17	-37.1	-38.1	23.1	0.00e+00	0	28	0	600834048	48	5768
2026-01-12 19:06:46.29	349.93	15.16	-37.1	-38.1	23.0	0.00e+00	0	28	0	602931200	48	5808
2026-01-12 19:06:47.30	349.71	15.16	-37.4	-38.4	22.8	0.00e+00	0	28	0	603979776	48	5967
2026-01-12 19:06:48.31	349.50	15.16	-37.6	-38.7	22.6	0.00e+00	0	28	0	606076928	48	6202
2026-01-12 19:06:49.32	349.28	15.15	-37.7	-38.7	22.6	0.00e+00	0	28	0	608174080	48	6213
2026-01-12 19:06:50.33	349.07	15.15	-37.8	-38.9	22.4	0.00e+00	0	28	0	610271232	48	6327
2026-01-12 19:06:51.34	348.85	15.14	-37.8	-38.8	22.5	0.00e+00	0	28	0	612368384	48	6283
2026-01-12 19:06:52.34	348.64	15.14	-37.7	-38.7	22.6	0.00e+00	0	28	0	613416960	48	6222
2026-01-12 19:06:53.36	348.42	15.13	-37.7	-38.7	22.3	0.00e+00	0	28	0	615514112	48	6237
2026-01-12 19:06:54.36	348.21	15.13	-37.9	-39.0	22.4	0.00e+00	0	28	0	617611264	48	6396
2026-01-12 19:06:55.37	348.00	15.12	-38.0	-39.0	22.2	0.00e+00	0	28	0	619708416	48	6431
2026-01-12 19:06:56.38	347.78	15.11	-38.1	-39.1	22.1	0.00e+00	0	28	0	621805568	48	6497
2026-01-12 19:06:57.39	347.57	15.10	-38.3	-39.4	21.8	0.00e+00	0	28	0	622854144	48	6752
2026-01-12 19:06:58.40	347.36	15.10	-38.4	-39.5	21.9	0.00e+00	0	28	0	624951296	48	6826
2026-01-12 19:06:59.41	347.14	15.09	-38.4	-39.5	21.9	0.00e+00	0	28	0	627048448	48	6831
2026-01-12 19:07:00.42	346.93	15.08	-38.4	-39.5	21.9	0.00e+00	0	28	0	629145600	48	6816
2026-01-12 19:07:01.43	346.71	15.07	-38.1	-39.2	22.2	0.00e+00	0	28	0	631242752	48	6575
2026-01-12 19:07:02.44	346.50	15.06	-38.0	-39.1	22.3	0.00e+00	0	28	0	632291328	48	6487
2026-01-12 19:07:03.45	346.29	15.05	-37.8	-38.8	22.4	0.00e+00	0	28	0	634388480	48	6282
2026-01-12 19:07:04.46	346.07	15.04	-37.6	-38.6	22.7	0.00e+00	0	28	0	636485632	48	6130
2026-01-12 19:07:05.47	345.86	15.03	-37.6	-38.6	22.6	0.00e+00	0	28	0	638582784	48	6142
2026-01-12 19:07:06.48	345.65	15.02	-37.2	-38.2	23.0	0.00e+00	0	28	0	640679936	48	5867
2026-01-12 19:07:07.49	345.44	15.01	-37.3	-38.3	22.9	0.00e+00	0	28	0	641728512	48	5936
2026-01-12 19:07:08.49	345.23	15.00	-37.2	-38.2	23.0	0.00e+00	0	28	0	643825664	48	5862
2026-01-12 19:07:09.50	345.01	14.99	-37.1	-38.1	23.0	0.00e+00	0	28	0	645922816	48	5771
2026-01-12 19:07:10.51	344.80	14.97	-37.3	-38.3	22.8	0.00e+00	0	28	0	648019968	48	5919
2026-01-12 19:07:11.52	344.59	14.96	-37.5	-38.5	22.9	0.00e+00	0	28	0	650117120	48	6055
2026-01-12 19:07:12.52	344.38	14.95	-37.6	-38.6	22.7	0.00e+00	0	28	0	651165696	48	6151
2026-01-12 19:07:13.53	344.17	14.93	-37.5	-38.5	22.6	0.00e+00	0	28	0	653262848	48	6069
2026-01-12 19:07:14.54	343.96	14.92	-37.7	-38.7	22.7	0.00e+00	0	28	0	655360000	48	6219
2026-01-12 19:07:15.55	343.75	14.90	-37.2	-38.2	22.9	0.00e+00	0	28	0	657457152	48	5864
2026-01-12 19:07:16.56	343.54	14.89	-36.9	-37.9	23.2	0.00e+00	0	28	0	659554304	48	5635
2026-01-12 19:07:17.57	343.32	14.87	-36.8	-37.7	23.4	0.00e+00	0	28	0	661651456	46	6217
2026-01-12 19:07:18.58	343.11	14.86	-36.5	-37.4	23.3	0.00e+00	0	28	0	662700032	46	6020
2026-01-12 19:07:19.59	342.90	14.84	-36.7	-37.6	23.3	0.00e+00	0	28	0	664797184	46	6152
2026-01-12 19:07:20.60	342.69	14.83	-36.8	-37.7	23.3	0.00e+00	0	28	0	666894336	46	6205
2026-01-12 19:07:21.61	342.48	14.81	-37.0	-37.9	23.0	0.00e+00	0	28	0	668991488	46	6376
2026-01-12 19:07:22.62	342.27	14.79	-37.2	-38.2	23.1	0.00e+00	0	28	0	671088640	46	6555
2026-01-12 19:07:23.62	342.07	14.78	-37.1	-38.0	23.1	0.00e+00	0	28	0	672137216	46	6452
2026-01-12 19:07:24.63	341.86	14.76	-37.1	-38.1	23.0	0.00e+00	0	28	0	674234368	46	6474
2026-01-12 19:07:25.64	341.65	14.74	-37.0	-38.0	23.1	0.00e+00	0	28	0	676331520	46	6392
2026-01-12 19:07:26.65	341.44	14.72	-37.2	-38.2	22.9	0.00e+00	0	28	0	678428672	46	6593
2026-01-12 19:07:27.66	341.23	14.70	-37.2	-38.2	22.8	0.00e+00	0	28	0	680525824	46	6601
2026-01-12 19:07:28.67	341.02	14.68	-37.4	-38.4	22.8	0.00e+00	0	28	0	681574400	46	6740
2026-01-12 19:07:29.68	340.82	14.66	-37.6	-38.7	22.5	0.00e+00	0	28	0	683671552	46	6954
2026-01-12 19:07:30.68	340.61	14.64	-37.6	-38.7	22.2	0.00e+00	0	28	0	685768704	46	6937
2026-01-12 19:07:31.69	340.40	14.62	-37.8	-38.9	22.4	0.00e+00	0	28	0	687865856	48	6348
2026-01-12 19:07:32.70	340.20	14.60	-37.9	-39.0	22.3	0.00e+00	0	28	0	689963008	48	6399
2026-01-12 19:07:33.71	339.99	14.58	-38.0	-39.1	22.3	0.00e+00	0	28	0	691011584	48	6531
2026-01-12 19:07:34.72	339.78	14.56	-38.0	-39.1	22.2	0.00e+00	0	28	0	693108736	48	6471
2026-01-12 19:07:35.73	339.58	14.54	-38.2	-39.3	22.2	0.00e+00	0	28	0	695205888	48	6657
2026-01-12 19:07:36.74	339.37	14.52	-38.0	-39.1	22.2	0.00e+00	0	28	0	697303040	48	6522
2026-01-12 19:07:37.75	339.17	14.49	-38.0	-39.0	22.3	0.00e+00	0	28	0	699400192	48	6451
2026-01-12 19:07:38.75	338.96	14.47	-37.5	-38.5	22.6	0.00e+00	0	28	0	700448768	48	6092
2026-01-12 19:07:39.77	338.76	14.45	-37.6	-38.7	22.6	0.00e+00	0	28	0	702545920	48	6184
2026-01-12 19:07:40.77	338.56	14.42	-37.3	-38.2	23.0	0.00e+00	0	28	0	704643072	48	5895
2026-01-12 19:07:41.78	338.35	14.40	-37.1	-38.1	23.1	0.00e+00	0	28	0	706740224	48	5800
2026-01-12 19:07:42.79	338.15	14.38	-37.1	-38.1	22.9	0.00e+00	0	28	0	708837376	48	5809
2026-01-12 19:07:43.80	337.94	14.35	-37.2	-38.2	22.9	0.00e+00	0	28	0	709885952	48	5837
2026-01-12 19:07:44.81	337.74	14.33	-37.3	-38.2	22.9	0.00e+00	0	28	0	711983104	48	5880
2026-01-12 19:07:45.82	337.54	14.30	-37.2	-38.2	22.9	0.00e+00	0	28	0	714080256	48	5859
2026-01-12 19:07:46.83	337.34	14.28	-37.4	-38.4	22.9	0.00e+00	0	28	0	716177408	48	5993
2026-01-12 19:07:47.84	337.13	14.25	-37.2	-38.1	23.0	0.00e+00	0	28	0	718274560	48	5823
2026-01-12 19:07:48.85	336.93	14.22	-37.3	-38.3	22.9	0.00e+00	0	28	0	719323136	48	5925
2026-01-12 19:07:49.86	336.73	14.20	-37.4	-38.4	22.7	0.00e+00	0	28	0	721420288	48	5966
2026-01-12 19:07:50.87	336.53	14.17	-37.3	-38.3	22.9	0.00e+00	0	28	0	723517440	48	5905
2026-01-12 19:07:51.87	336.33	14.14	-37.5	-38.5	22.7	0.00e+00	0	28	0	725614592	48	6051
2026-01-12 19:07:52.89	336.13	14.12	-37.9	-38.9	22.4	0.00e+00	0	28	0	727711744	48	6368
2026-01-12 19:07:53.89	335.93	14.09	-37.9	-39.0	22.3	0.00e+00	0	28	0	728760320	48	6415
2026-01-12 19:07:54.90	335.73	14.06	-38.0	-39.1	22.3	0.00e+00	0	28	0	730857472	48	6469
2026-01-12 19:07:55.91	335.53	14.03	-38.0	-39.0	22.2	0.00e+00	0	28	0	732954624	48	6443
2026-01-12 19:07:56.92	335.33	14.00	-38.1	-39.2	22.1	0.00e+00	0	28	0	735051776	48	6565
2026-01-12 19:07:57.93	335.14	13.98	-38.0	-39.1	22.3	0.00e+00	0	28	0	737148928	48	6510
2026-01-12 19:07:58.94	334.94	13.95	-38.2	-39.3	22.2	0.00e+00	0	28	0	738197504	48	6657
2026-01-12 19:07:59.95	334.74	13.92	-38.0	-39.1	22.2	0.00e+00	0	28	0	740294656	48	6505
2026-01-12 19:08:00.96	334.54	13.89	-38.1	-39.2	22.2	0.00e+00	0	28	0	742391808	48	6558
2026-01-12 19:08:01.97	334.35	13.86	-37.9	-39.0	22.2	0.00e+00	0	28	0	744488960	48	6428
2026-01-12 19:08:02.98	334.15	13.83	-38.2	-39.3	22.1	0.00e+00	0	28	0	746586112	48	6638
2026-01-12 19:08:03.99	333.96	13.79	-38.3	-39.4	22.1	0.00e+00	0	28	0	747634688	48	6713
2026-01-12 19:08:05.00	333.76	13.76	-38.0	-39.1	22.2	0.00e+00	0	28	0	749731840	48	6486
2026-01-12 19:08:06.01	333.56	13.73	-38.0	-39.1	22.2	0.00e+00	0	28	0	751828992	48	6509
2026-01-12 19:08:07.02	333.37	13.70	-38.0	-39.0	22.3	0.00e+00	0	28	0	753926144	48	6450
2026-01-12 19:08:08.03	333.18	13.67	-37.7	-38.7	22.6	0.00e+00	0	28	0	756023296	48	6178
2026-01-12 19:08:09.04	332.98	13.64	-37.6	-38.6	22.7	0.00e+00	0	28	0	758120448	48	6128
2026-01-12 19:08:10.04	332.79	13.60	-37.5	-38.4	22.7	0.00e+00	0	28	0	759169024	48	6030
2026-01-12 19:08:11.05	332.60	13.57	-37.5	-38.5	22.6	0.00e+00	0	28	0	761266176	48	6082
2026-01-12 19:08:12.07	332.40	13.54	-37.6	-38.6	22.7	0.00e+00	0	28	0	763363328	48	6122
2026-01-12 19:08:13.07	332.21	13.50	-37.4	-38.4	22.9	0.00e+00	0	28	0	765460480	48	5966
2026-01-12 19:08:14.08	332.02	13.47	-37.5	-38.5	22.7	0.00e+00	0	28	0	767557632	48	6088
2026-01-12 19:08:15.09	331.83	13.44	-37.5	-38.5	22.7	0.00e+00	0	28	0	768606208	48	6073
2026-01-12 19:08:16.10	331.64	13.40	-37.5	-38.5	22.7	0.00e+00	0	28	0	770703360	48	6078
2026-01-12 19:08:17.11	331.45	13.37	-37.4	-38.4	22.9	0.00e+00	0	28	0	772800512	48	5967
2026-01-12 19:08:18.12	331.26	13.33	-37.3	-38.3	22.9	0.00e+00	0	28	0	774897664	48	5920
2026-01-12 19:08:19.13	331.07	13.30	-37.3	-38.2	23.0	0.00e+00	0	28	0	776994816	48	5887
2026-01-12 19:08:20.14	330.88	13.26	-37.3	-38.2	22.9	0.00e+00	0	28	0	778043392	48	5859
2026-01-12 19:08:21.15	330.69	13.23	-37.1	-38.0	23.2	0.00e+00	0	28	0	780140544	48	5713
2026-01-12 19:08:22.16	330.51	13.19	-36.8	-37.7	23.3	0.00e+00	0	28	0	782237696	48	5522
2026-01-12 19:08:23.17	330.32	13.16	-36.8	-37.7	22.9	0.00e+00	0	28	0	784334848	48	5531
2026-01-12 19:08:24.18	330.13	13.12	-36.8	-37.8	23.2	0.00e+00	0	28	0	786432000	48	5567
2026-01-12 19:08:25.19	329.94	13.08	-37.0	-37.9	23.1	0.00e+00	0	28	0	787480576	48	5688
2026-01-12 19:08:26.20	329.76	13.05	-37.3	-38.2	22.9	0.00e+00	0	28	0	789577728	48	5854
2026-01-12 19:08:27.20	329.57	13.01	-37.6	-38.6	22.6	0.00e+00	0	28	0	791674880	48	6116
2026-01-12 19:08:28.21	329.39	12.97	-37.8	-38.8	22.6	0.00e+00	0	28	0	793772032	48	6272
2026-01-12 19:08:29.22	329.20	12.94	-37.9	-38.9	22.3	0.00e+00	0	28	0	795869184	48	6344
2026-01-12 19:08:30.23	329.02	12.90	-38.0	-39.1	22.3	0.00e+00	0	28	0	796917760	48	6466
2026-01-12 19:08:31.24	328.84	12.86	-37.9	-38.9	22.4	0.00e+00	0	28	0	799014912	48	6340
2026-01-12 19:08:32.25	328.65	12.82	-38.1	-39.1	22.3	0.00e+00	0	28	0	801112064	48	6512
2026-01-12 19:08:33.26	328.47	12.78	-38.1	-39.1	22.3	0.00e+00	0	28	0	803209216	48	6501
2026-01-12 19:08:34.27	328.29	12.74	-38.4	-39.4	22.0	0.00e+00	0	28	0	805306368	48	6769
2026-01-12 19:08:35.29	328.10	12.71	-38.4	-39.5	22.0	0.00e+00	0	28	0	806354944	48	6821
2026-01-12 19:08:36.29	327.92	12.67	-38.4	-39.5	21.9	0.00e+00	0	28	0	808452096	48	6794
2026-01-12 19:08:37.30	327.74	12.63	-38.3	-39.4	21.9	0.00e+00	0	28	0	810549248	48	6726
2026-01-12 19:08:38.31	327.56	12.59	-38.4	-39.5	21.8	0.00e+00	0	28	0	812646400	48	6800
2026-01-12 19:08:39.32	327.38	12.55	-38.2	-39.2	22.1	0.00e+00	0	28	0	814743552	48	6588
2026-01-12 19:08:40.33	327.20	12.51	-38.0	-39.0	22.3	0.00e+00	0	28	0	815792128	48	6454
2026-01-12 19:08:41.33	327.03	12.47	-38.2	-39.3	22.1	0.00e+00	0	28	0	817889280	48	6625
2026-01-12 19:08:42.34	326.85	12.43	-38.1	-39.1	22.1	0.00e+00	0	28	0	819986432	48	6499
2026-01-12 19:08:43.35	326.67	12.39	-38.2	-39.2	22.1	0.00e+00	0	28	0	822083584	48	6581
2026-01-12 19:08:44.36	326.49	12.35	-38.3	-39.3	22.0	0.00e+00	0	28	0	824180736	48	6676
2026-01-12 19:08:45.37	326.32	12.31	-38.4	-39.4	22.0	0.00e+00	0	28	0	826277888	48	6751
2026-01-12 19:08:46.38	326.14	12.26	-38.4	-39.5	21.9	0.00e+00	0	28	0	827326464	48	6792
2026-01-12 19:08:47.39	325.96	12.22	-38.4	-39.4	22.0	0.00e+00	0	28	0	829423616	48	6763
2026-01-12 19:08:48.40	325.79	12.18	-38.5	-39.6	21.9	0.00e+00	0	28	0	831520768	48	6853
2026-01-12 19:08:49.41	325.61	12.14	-38.4	-39.4	21.9	0.00e+00	0	28	0	833617920	48	6764
2026-01-12 19:08:50.42	325.44	12.10	-38.5	-39.5	21.9	0.00e+00	0	28	0	835715072	48	6832
2026-01-12 19:08:51.43	325.27	12.06	-38.5	-39.5	21.9	0.00e+00	0	28	0	836763648	48	6834
2026-01-12 19:08:52.44	325.09	12.01	-38.5	-39.6	21.8	0.00e+00	0	28	0	838860800	48	6864
2026-01-12 19:08:53.45	324.92	11.97	-38.3	-39.4	22.0	0.00e+00	0	28	0	840957952	48	6715
2026-01-12 19:08:54.46	324.75	11.93	-38.6	-39.6	21.8	0.00e+00	0	28	0	843055104	48	6909
2026-01-12 19:08:55.47	324.58	11.89	-38.7	-39.7	21.8	0.00e+00	0	28	0	845152256	48	6995
2026-01-12 19:08:56.48	324.40	11.84	-38.8	-39.9	21.6	0.00e+00	0	28	0	846200832	50	6346
2026-01-12 19:08:57.48	324.23	11.80	-38.9	-40.0	21.6	0.00e+00	0	28	0	848297984	50	6410
2026-01-12 19:08:58.50	324.06	11.76	-38.8	-39.8	21.6	0.00e+00	0	28	0	850395136	50	6303
2026-01-12 19:08:59.50	323.89	11.71	-38.4	-39.4	22.0	0.00e+00	0	28	0	852492288	50	5996
2026-01-12 19:09:00.51	323.73	11.67	-38.2	-39.2	22.0	0.00e+00	0	28	0	854589440	50	5895
2026-01-12 19:09:01.52	323.56	11.63	-38.3	-39.3	22.0	0.00e+00	0	28	0	855638016	50	5952
2026-01-12 19:09:02.53	323.39	11.58	-37.9	-38.9	22.5	0.00e+00	0	28	0	857735168	50	5645
2026-01-12 19:09:03.54	323.22	11.54	-37.9	-38.8	22.3	0.00e+00	0	28	0	859832320	48	6304
2026-01-12 19:09:04.55	323.05	11.49	-38.0	-39.0	22.4	0.00e+00	0	28	0	861929472	48	6421
2026-01-12 19:09:05.56	322.89	11.45	-38.2	-39.2	22.2	0.00e+00	0	28	0	864026624	48	6595
2026-01-12 19:09:06.57	322.72	11.40	-38.5	-39.6	21.9	0.00e+00	0	28	0	865075200	48	6852
2026-01-12 19:09:07.58	322.55	11.36	-38.9	-40.0	21.6	0.00e+00	0	28	0	867172352	50	6411
2026-01-12 19:09:08.59	322.39	11.31	-39.3	-40.5	21.1	0.00e+00	0	28	0	869269504	50	6783
2026-01-12 19:09:09.60	322.22	11.27	-39.6	-40.8	20.8	0.00e+00	0	28	0	871366656	50	7075
2026-01-12 19:09:10.61	322.06	11.22	-39.8	-41.1	20.6	0.00e+00	0	28	0	873463808	52	6473
2026-01-12 19:09:11.62	321.90	11.18	-39.8	-41.1	20.6	0.00e+00	0	28	0	874512384	52	6483
2026-01-12 19:09:12.63	321.73	11.13	-39.8	-41.1	20.6	0.00e+00	0	28	0	876609536	52	6506
2026-01-12 19:09:13.64	321.57	11.09	-39.9	-41.1	20.4	0.00e+00	0	28	0	878706688	52	6529
2026-01-12 19:09:14.65	321.41	11.04	-39.7	-40.9	20.7	0.00e+00	0	28	0	880803840	52	6360
2026-01-12 19:09:15.66	321.25	11.00	-39.5	-40.7	20.9	0.00e+00	0	28	0	882900992	52	6196
2026-01-12 19:09:16.67	321.09	10.95	-39.3	-40.4	21.1	0.00e+00	0	28	0	883949568	52	6023
2026-01-12 19:09:17.68	320.93	10.90	-39.4	-40.5	21.1	0.00e+00	0	28	0	886046720	52	6096
2026-01-12 19:09:18.69	320.77	10.86	-39.2	-40.3	21.2	0.00e+00	0	28	0	888143872	52	5949
2026-01-12 19:09:19.70	320.61	10.81	-39.5	-40.6	20.9	0.00e+00	0	28	0	890241024	52	6172
2026-01-12 19:09:20.71	320.45	10.76	-39.9	-41.1	20.5	0.00e+00	0	28	0	892338176	52	6518
2026-01-12 19:09:21.71	320.29	10.72	-40.3	-41.7	20.0	0.00e+00	0	28	0	894435328	52	6939
2026-01-12 19:09:22.72	320.13	10.67	-40.8	-42.3	19.6	0.00e+00	0	28	0	895483904	54	6627
2026-01-12 19:09:23.73	319.97	10.62	-41.5	-43.2	18.4	0.00e+00	0	28	0	897581056	54	7407
2026-01-12 19:09:24.74	319.82	10.58	-42.1	-44.0	17.9	0.00e+00	0	28	0	899678208	56	7231
2026-01-12 19:09:25.75	319.66	10.53	-42.2	-44.1	17.8	0.00e+00	0	28	0	901775360	56	7287
2026-01-12 19:09:26.76	319.51	10.48	-42.3	-44.2	17.7	0.00e+00	0	28	0	903872512	56	7410
2026-01-12 19:09:27.76	319.35	10.43	-42.1	-43.9	18.0	0.00e+00	0	28	0	904921088	56	7122
2026-01-12 19:09:28.77	319.20	10.39	-42.2	-44.0	18.0	0.00e+00	0	28	0	907018240	56	7244
2026-01-12 19:09:29.78	319.04	10.34	-42.0	-43.8	18.0	0.00e+00	0	28	0	909115392	56	7030
2026-01-12 19:09:30.79	318.89	10.29	-41.8	-43.6	18.3	0.00e+00	0	28	0	911212544	56	6877
2026-01-12 19:09:31.80	318.73	10.24	-41.5	-43.1	18.8	0.00e+00	0	28	0	913309696	56	6483
2026-01-12 19:09:32.81	318.58	10.20	-41.1	-42.6	19.0	0.00e+00	0	28	0	914358272	56	6170
2026-01-12 19:09:33.82	318.43	10.15	-41.2	-42.7	19.0	0.00e+00	0	28	0	916455424	56	6245
2026-01-12 19:09:34.83	318.28	10.10	-41.0	-42.5	19.4	0.00e+00	0	28	0	918552576	56	6057
2026-01-12 19:09:35.84	318.13	10.05	-40.8	-42.3	19.6	0.00e+00	0	28	0	920649728	56	5928
2026-01-12 19:09:36.84	317.98	10.00	-40.5	-41.9	19.7	0.00e+00	0	28	0	922746880	54	6360
2026-01-12 19:09:37.85	317.83	9.95	-40.4	-41.8	19.9	0.00e+00	0	28	0	923795456	54	6265
2026-01-12 19:09:38.86	317.68	9.91	-40.2	-41.5	20.1	0.00e+00	0	28	0	925892608	54	6087
2026-01-12 19:09:39.87	317.53	9.86	-40.2	-41.5	20.1	0.00e+00	0	28	0	927989760	54	6085
2026-01-12 19:09:40.88	317.38	9.81	-40.1	-41.4	20.4	0.00e+00	0	28	0	930086912	54	5968
2026-01-12 19:09:41.89	317.23	9.76	-39.9	-41.1	20.4	0.00e+00	0	28	0	932184064	54	5806
2026-01-12 19:09:42.90	317.08	9.71	-40.0	-41.3	20.3	0.00e+00	0	28	0	933232640	54	5926
2026-01-12 19:09:43.91	316.94	9.66	-40.0	-41.3	20.3	0.00e+00	0	28	0	935329792	54	5948
2026-01-12 19:09:44.92	316.79	9.61	-39.9	-41.2	20.4	0.00e+00	0	28	0	937426944	54	5865
2026-01-12 19:09:45.93	316.64	9.56	-40.1	-41.3	20.2	0.00e+00	0	28	0	939524096	54	5955
2026-01-12 19:09:46.94	316.50	9.51	-40.0	-41.2	20.3	0.00e+00	0	28	0	941621248	54	5889
2026-01-12 19:09:47.95	316.35	9.46	-39.8	-41.1	20.5	0.00e+00	0	28	0	942669824	54	5776
2026-01-12 19:09:48.96	316.21	9.42	-39.9	-41.1	20.4	0.00e+00	0	28	0	944766976	52	6532
2026-01-12 19:09:49.97	316.06	9.37	-39.6	-40.7	20.8	0.00e+00	0	28	0	946864128	52	6243
2026-01-12 19:09:50.98	315.92	9.32	-39.4	-40.6	20.9	0.00e+00	0	28	0	948961280	52	6145
2026-01-12 19:09:51.98	315.78	9.27	-39.3	-40.4	21.0	0.00e+00	0	28	0	951058432	52	6010
2026-01-12 19:09:53.00	315.63	9.22	-39.4	-40.6	21.0	0.00e+00	0	28	0	952107008	52	6114
2026-01-12 19:09:54.00	315.49	9.17	-39.1	-40.2	21.3	0.00e+00	0	28	0	954204160	52	5865
2026-01-12 19:09:55.01	315.35	9.12	-39.2	-40.4	21.0	0.00e+00	0	28	0	956301312	52	5998
2026-01-12 19:09:56.02	315.21	9.07	-39.2	-40.3	21.1	0.00e+00	0	28	0	958398464	52	5952
2026-01-12 19:09:57.03	315.07	9.02	-39.3	-40.5	21.1	0.00e+00	0	28	0	960495616	52	6046
2026-01-12 19:09:58.04	314.93	8.97	-39.3	-40.5	20.9	0.00e+00	0	28	0	961544192	52	6052
2026-01-12 19:09:59.05	314.79	8.92	-39.5	-40.6	20.9	0.00e+00	0	28	0	963641344	52	6164
2026-01-12 19:10:00.06	314.65	8.87	-39.3	-40.5	21.0	0.00e+00	0	28	0	965738496	52	6076
2026-01-12 19:10:01.07	314.51	8.82	-39.3	-40.4	21.1	0.00e+00	0	28	0	967835648	52	6033
2026-01-12 19:10:02.08	314.37	8.77	-39.4	-40.6	20.8	0.00e+00	0	28	0	969932800	52	6169
2026-01-12 19:10:03.09	314.23	8.72	-39.4	-40.6	20.9	0.00e+00	0	28	0	970981376	52	6139
2026-01-12 19:10:04.10	314.10	8.67	-39.5	-40.7	20.8	0.00e+00	0	28	0	973078528	52	6242
2026-01-12 19:10:05.11	313.96	8.61	-39.7	-40.9	20.6	0.00e+00	0	28	0	975175680	52	6372
2026-01-12 19:10:06.12	313.82	8.56	-39.7	-40.9	20.6	0.00e+00	0	28	0	977272832	52	6357
2026-01-12 19:10:07.13	313.69	8.51	-39.6	-40.8	20.5	0.00e+00	0	28	0	979369984	52	6311
2026-01-12 19:10:08.14	313.55	8.46	-39.6	-40.8	20.7	0.00e+00	0	28	0	980418560	52	6310
2026-01-12 19:10:09.15	313.42	8.41	-39.7	-40.9	20.6	0.00e+00	0	28	0	982515712	52	6356
2026-01-12 19:10:10.16	313.28	8.36	-39.3	-40.5	20.8	0.00e+00	0	28	0	984612864	52	6047
2026-01-12 19:10:11.17	313.15	8.31	-39.6	-40.8	20.7	0.00e+00	0	28	0	986710016	52	6305
2026-01-12 19:10:12.18	313.01	8.26	-39.5	-40.7	20.8	0.00e+00	0	28	0	988807168	52	6216
2026-01-12 19:10:13.18	312.88	8.21	-39.5	-40.7	20.7	0.00e+00	0	28	0	990904320	52	6209
2026-01-12 19:10:14.19	312.75	8.16	-39.3	-40.5	20.9	0.00e+00	0	28	0	991952896	52	6097
2026-01-12 19:10:15.20	312.62	8.11	-39.4	-40.6	20.9	0.00e+00	0	28	0	994050048	52	6116
2026-01-12 19:10:16.21	312.49	8.06	-39.5	-40.7	20.8	0.00e+00	0	28	0	996147200	52	6222
2026-01-12 19:10:17.22	312.35	8.01	-39.4	-40.6	20.9	0.00e+00	0	28	0	998244352	52	6116
2026-01-12 19:10:18.23	312.22	7.95	-39.3	-40.5	21.1	0.00e+00	0	28	0	1000341504	52	6086
2026-01-12 19:10:19.24	312.09	7.90	-39.1	-40.3	21.0	0.00e+00	0	28	0	1001390080	52	5953
2026-01-12 19:10:20.25	311.96	7.85	-38.8	-40.0	21.4	0.00e+00	0	28	0	1003487232	52	5700
2026-01-12 19:10:21.26	311.83	7.80	-38.7	-39.8	21.4	0.00e+00	0	28	0	1005584384	50	6311
2026-01-12 19:10:22.27	311.71	7.75	-38.5	-39.6	21.8	0.00e+00	0	28	0	1007681536	50	6136
2026-01-12 19:10:23.28	311.58	7.70	-38.5	-39.6	21.7	0.00e+00	0	28	0	1009778688	50	6137
2026-01-12 19:10:24.29	311.45	7.65	-38.1	-39.1	22.1	0.00e+00	0	28	0	1010827264	50	5811
2026-01-12 19:10:25.30	311.32	7.60	-38.0	-39.0	22.2	0.00e+00	0	28	0	1012924416	50	5751
2026-01-12 19:10:26.31	311.19	7.54	-38.0	-39.1	22.2	0.00e+00	0	28	0	1015021568	50	5772
2026-01-12 19:10:27.32	311.07	7.49	-38.0	-39.1	22.1	0.00e+00	0	28	0	1017118720	50	5773
2026-01-12 19:10:28.33	310.94	7.44	-38.1	-39.2	22.0	0.00e+00	0	28	0	1019215872	50	5851
2026-01-12 19:10:29.33	310.82	7.39	-38.2	-39.3	21.9	0.00e+00	0	28	0	1020264448	50	5927
2026-01-12 19:10:30.34	310.69	7.34	-38.3	-39.4	21.8	0.00e+00	0	28	0	1022361600	50	5997
2026-01-12 19:10:31.35	310.57	7.29	-38.3	-39.4	21.8	0.00e+00	0	28	0	1024458752	50	5966
2026-01-12 19:10:32.36	310.44	7.24	-38.3	-39.3	21.9	0.00e+00	0	28	0	1026555904	50	5957
2026-01-12 19:10:33.37	310.32	7.18	-38.3	-39.4	21.7	0.00e+00	0	28	0	1028653056	50	5997
2026-01-12 19:10:34.38	310.20	7.13	-38.3	-39.4	21.8	0.00e+00	0	28	0	1029701632	50	5985
2026-01-12 19:10:35.39	310.07	7.08	-38.2	-39.2	21.9	0.00e+00	0	28	0	1031798784	50	5893
2026-01-12 19:10:36.40	309.95	7.03	-38.0	-39.0	22.1	0.00e+00	0	28	0	1033895936	50	5749
2026-01-12 19:10:37.40	309.83	6.98	-38.0	-39.0	22.1	0.00e+00	0	28	0	1035993088	50	5752
2026-01-12 19:10:38.41	309.71	6.93	-38.0	-39.0	22.1	0.00e+00	0	28	0	1038090240	50	5722
2026-01-12 19:10:39.42	309.59	6.87	-38.2	-39.2	21.9	0.00e+00	0	28	0	1039138816	50	5885
2026-01-12 19:10:40.43	309.47	6.82	-37.9	-38.9	22.2	0.00e+00	0	28	0	1041235968	50	5671
2026-01-12 19:10:41.44	309.35	6.77	-38.0	-39.0	22.1	0.00e+00	0	28	0	1043333120	50	5741
2026-01-12 19:10:42.44	309.23	6.72	-38.0	-39.0	22.1	0.00e+00	0	28	0	1045430272	50	5724
2026-01-12 19:10:43.45	309.11	6.67	-38.2	-39.2	21.9	0.00e+00	0	28	0	1047527424	50	5890
2026-01-12 19:10:44.46	308.99	6.62	-38.3	-39.4	21.7	0.00e+00	0	28	0	1048576000	50	6016
2026-01-12 19:10:45.47	308.87	6.56	-38.5	-39.6	21.5	0.00e+00	0	28	0	1050673152	50	6159
2026-01-12 19:10:46.49	308.75	6.51	-38.5	-39.6	21.6	0.00e+00	0	28	0	1052770304	50	6139
2026-01-12 19:10:47.49	308.64	6.46	-38.4	-39.5	21.5	0.00e+00	0	28	0	1054867456	50	6042
2026-01-12 19:10:48.50	308.52	6.41	-38.7	-39.8	21.4	0.00e+00	0	28	0	1056964608	50	6286
2026-01-12 19:10:49.51	308.40	6.36	-38.8	-39.9	21.3	0.00e+00	0	28	0	1059061760	50	6365
2026-01-12 19:10:50.52	308.28	6.31	-38.8	-39.9	21.3	0.00e+00	0	28	0	1060110336	50	6382
2026-01-12 19:10:51.53	308.17	6.25	-39.0	-40.2	21.0	0.00e+00	0	28	0	1062207488	50	6562
2026-01-12 19:10:52.54	308.05	6.20	-38.8	-40.0	21.2	0.00e+00	0	28	0	1064304640	50	6393
2026-01-12 19:10:53.55	307.94	6.15	-38.9	-40.1	21.1	0.00e+00	0	28	0	1066401792	50	6513
2026-01-12 19:10:54.56	307.82	6.10	-39.1	-40.3	20.8	0.00e+00	0	28	0	1068498944	50	6692
2026-01-12 19:10:55.57	307.71	6.05	-38.9	-40.1	21.1	0.00e+00	0	28	0	1069547520	50	6491
2026-01-12 19:10:56.58	307.60	5.99	-39.0	-40.1	21.0	0.00e+00	0	28	0	1071644672	50	6536
2026-01-12 19:10:57.59	307.48	5.94	-39.1	-40.3	20.6	0.00e+00	0	28	0	1073741824	50	6621
2026-01-12 19:10:58.60	307.37	5.89	-38.9	-40.1	21.0	0.00e+00	0	28	0	1075838976	50	6468
2026-01-12 19:10:59.61	307.26	5.84	-39.1	-40.3	20.9	0.00e+00	0	28	0	1077936128	50	6650
2026-01-12 19:11:00.62	307.14	5.79	-39.2	-40.4	20.8	0.00e+00	0	28	0	1078984704	50	6741
2026-01-12 19:11:01.63	307.03	5.73	-39.2	-40.4	20.8	0.00e+00	0	28	0	1081081856	50	6730
2026-01-12 19:11:02.63	306.92	5.68	-39.2	-40.4	20.8	0.00e+00	0	28	0	1083179008	50	6727
2026-01-12 19:11:03.64	306.81	5.63	-39.0	-40.1	21.0	0.00e+00	0	28	0	1085276160	50	6532
2026-01-12 19:11:04.65	306.70	5.58	-38.8	-40.0	20.7	0.00e+00	0	28	0	1087373312	50	6416
2026-01-12 19:11:05.66	306.59	5.53	-38.9	-40.1	20.7	0.00e+00	0	28	0	1088421888	50	6499
2026-01-12 19:11:06.67	306.48	5.48	-38.9	-40.1	20.9	0.00e+00	0	28	0	1090519040	50	6483
2026-01-12 19:11:07.68	306.37	5.42	-38.8	-39.9	21.2	0.00e+00	0	28	0	1092616192	50	6356
2026-01-12 19:11:08.69	306.26	5.37	-38.7	-39.9	21.2	0.00e+00	0	28	0	1094713344	50	6323
2026-01-12 19:11:09.70	306.15	5.32	-38.7	-39.8	21.3	0.00e+00	0	28	0	1096810496	50	6284
2026-01-12 19:11:10.71	306.04	5.27	-38.7	-39.9	21.2	0.00e+00	0	28	0	1097859072	50	6329
2026-01-12 19:11:11.72	305.94	5.22	-38.7	-39.9	21.2	0.00e+00	0	28	0	1099956224	50	6337
2026-01-12 19:11:12.73	305.83	5.16	-38.6	-39.8	21.2	0.00e+00	0	28	0	1102053376	50	6257
2026-01-12 19:11:13.74	305.72	5.11	-38.8	-39.9	21.2	0.00e+00	0	28	0	1104150528	50	6372
2026-01-12 19:11:14.75	305.62	5.06	-38.7	-39.8	21.3	0.00e+00	0	28	0	1106247680	50	6310
2026-01-12 19:11:15.76	305.51	5.01	-39.0	-40.2	20.9	0.00e+00	0	28	0	1107296256	50	6559
2026-01-12 19:11:16.77	305.40	4.96	-39.1	-40.4	20.6	0.00e+00	0	28	0	1109393408	50	6707
2026-01-12 19:11:17.78	305.30	4.91	-39.3	-40.6	20.5	0.00e+00	0	28	0	1111490560	50	6883
2026-01-12 19:11:18.79	305.19	4.85	-39.5	-40.8	20.4	0.00e+00	0	28	0	1113587712	50	7022
2026-01-12 19:11:19.80	305.09	4.80	-39.3	-40.6	20.5	0.00e+00	0	28	0	1115684864	50	6889
2026-01-12 19:11:20.81	304.98	4.75	-39.9	-41.3	19.9	0.00e+00	0	28	0	1116733440	52	6641
2026-01-12 19:11:21.81	304.88	4.70	-40.0	-41.4	19.9	0.00e+00	0	28	0	1118830592	52	6719
2026-01-12 19:11:22.82	304.78	4.65	-40.0	-41.4	19.7	0.00e+00	0	28	0	1120927744	52	6757
2026-01-12 19:11:23.83	304.67	4.60	-40.1	-41.5	19.7	0.00e+00	0	28	0	1123024896	52	6796
2026-01-12 19:11:24.84	304.57	4.54	-40.0	-41.3	19.9	0.00e+00	0	28	0	1125122048	52	6690
2026-01-12 19:11:25.85	304.47	4.49	-39.8	-41.2	20.0	0.00e+00	0	28	0	1127219200	52	6582
2026-01-12 19:11:26.86	304.37	4.44	-39.7	-41.1	20.1	0.00e+00	0	28	0	1128267776	52	6490
2026-01-12 19:11:27.87	304.27	4.39	-39.6	-40.9	20.2	0.00e+00	0	28	0	1130364928	52	6331
2026-01-12 19:11:28.88	304.16	4.34	-39.5	-40.8	20.4	0.00e+00	0	28	0	1132462080	52	6255
2026-01-12 19:11:29.89	304.06	4.28	-39.3	-40.5	20.5	0.00e+00	0	28	0	1134559232	52	6093
2026-01-12 19:11:30.90	303.96	4.23	-39.2	-40.4	20.7	0.00e+00	0	28	0	1136656384	52	5996
2026-01-12 19:11:31.91	303.86	4.18	-39.2	-40.4	20.5	0.00e+00	0	28	0	1137704960	52	6029
2026-01-12 19:11:32.92	303.76	4.13	-39.3	-40.6	20.5	0.00e+00	0	28	0	1139802112	52	6155
2026-01-12 19:11:33.93	303.66	4.08	-39.3	-40.5	20.5	0.00e+00	0	28	0	1141899264	52	6098
2026-01-12 19:11:34.94	303.56	4.03	-39.5	-40.8	20.2	0.00e+00	0	28	0	1143996416	52	6315
2026-01-12 19:11:35.95	303.47	3.98	-39.4	-40.7	20.4	0.00e+00	0	28	0	1145044992	52	6179
2026-01-12 19:11:36.96	303.37	3.92	-39.0	-40.2	20.6	0.00e+00	0	28	0	1147142144	52	5887
2026-01-12 19:11:37.97	303.27	3.87	-38.9	-40.1	20.8	0.00e+00	0	28	0	1149239296	52	5776
2026-01-12 19:11:38.97	303.17	3.82	-39.0	-40.2	20.7	0.00e+00	0	28	0	1151336448	52	5862
2026-01-12 19:11:39.98	303.07	3.77	-39.2	-40.5	20.5	0.00e+00	0	28	0	1153433600	52	6056
2026-01-12 19:11:40.99	302.98	3.72	-38.9	-40.1	20.8	0.00e+00	0	28	0	1155530752	52	5792
2026-01-12 19:11:42.00	302.88	3.67	-39.3	-40.6	20.3	0.00e+00	0	28	0	1156579328	52	6104
2026-01-12 19:11:43.01	302.78	3.62	-39.4	-40.7	20.3	0.00e+00	0	28	0	1158676480	52	6185
2026-01-12 19:11:44.02	302.69	3.56	-39.3	-40.6	20.5	0.00e+00	0	28	0	1160773632	52	6132
2026-01-12 19:11:45.03	302.59	3.51	-39.6	-41.0	19.9	0.00e+00	0	28	0	1162870784	52	6422
2026-01-12 19:11:46.04	302.50	3.46	-39.8	-41.2	19.7	0.00e+00	0	28	0	1164967936	52	6583
2026-01-12 19:11:47.05	302.40	3.41	-40.1	-41.6	19.4	0.00e+00	0	28	0	1166016512	52	6891
2026-01-12 19:11:48.06	302.31	3.36	-40.2	-41.7	19.2	0.00e+00	0	28	0	1168113664	52	6990
2026-01-12 19:11:49.07	302.21	3.31	-40.4	-41.9	19.1	0.00e+00	0	28	0	1170210816	52	7153
2026-01-12 19:11:50.08	302.12	3.26	-40.7	-42.3	18.7	0.00e+00	0	28	0	1172307968	52	7480
2026-01-12 19:11:51.09	302.03	3.21	-40.7	-42.3	18.6	0.00e+00	0	28	0	1174405120	54	6678
2026-01-12 19:11:52.10	301.93	3.15	-40.8	-42.5	18.5	0.00e+00	0	28	0	1175453696	54	6782
2026-01-12 19:11:53.11	301.84	3.10	-40.8	-42.5	18.3	0.00e+00	0	28	0	1177550848	54	6821
2026-01-12 19:11:54.11	301.75	3.05	-40.9	-42.6	18.4	0.00e+00	0	28	0	1179648000	54	6869
2026-01-12 19:11:55.12	301.66	3.00	-41.1	-42.8	18.0	0.00e+00	0	28	0	1181745152	54	7083
2026-01-12 19:11:56.13	301.57	2.95	-47.7	-62.7	3.5	1.51e+00	0	28	104	1181745152	60	49547
2026-01-12 19:11:57.14	301.47	2.90	-48.1	-63.2	3.6	1.51e+00	0	28	104	1181745152	60	52160
2026-01-12 19:11:58.15	301.38	2.85	-48.3	-63.4	3.6	1.51e+00	0	28	104	1181745152	60	53342
2026-01-12 19:11:59.16	301.29	2.80	-48.4	-63.6	3.6	1.51e+00	0	28	104	1181745152	60	54508
2026-01-12 19:12:00.17	301.20	2.75	-48.5	-63.6	3.6	1.51e+00	0	28	104	1181745152	60	54993
2026-01-12 19:12:01.18	301.11	2.69	-48.5	-63.7	3.6	1.51e+00	0	28	104	1181745152	60	55407
2026-01-12 19:12:02.19	301.02	2.64	-48.5	-63.7	3.6	1.51e+00	0	28	104	1181745152	60	55508
2026-01-12 19:12:03.20	300.93	2.59	-48.5	-63.7	3.6	1.51e+00	0	28	104	1181745152	60	55472
2026-01-12 19:12:04.21	300.84	2.54	-48.4	-63.7	3.6	1.51e+00	0	28	104	1181745152	60	55272
