passes_logs/2026/01/12/R4.6S_Anadyr/R4.6S_Anadyr__20260112_164024_FENGYUN_3D_rec.log

#Pass ID: 20260112_164024_FENGYUN 3D
#Satellite: FENGYUN 3D
#Configuration: FENGYUN 3D
#almurnet v.1.7.20251203
#Start time: 2026-01-12 16:40:25

#Version: 2.2.20231116
#Station: R4.6S_Anadyr
#Location: 177.4865 lon 64.73178 lat
#TLE: 1 43010U 17072A   26011.62066612  .00000104  00000+0  70810-4 0  9998
#TLE: 2 43010  98.9935 343.3846 0002223 114.2890 245.8518 14.19694405422776

#Time	Az	El	Level	Level2	SNR	BER	BlckErr	Temp	State	Recorded	gain1	gain2
2026-01-12 16:40:25.42	20.79	0.04	-48.4	-63.4	3.5	1.51e+00	0	25	0	0	60	53171
2026-01-12 16:40:26.42	20.80	0.10	-48.4	-60.4	3.6	8.45e-01	0	26	104	0	60	38052
2026-01-12 16:40:27.43	20.81	0.16	-48.4	-60.5	3.6	8.45e-01	0	26	104	0	60	38448
2026-01-12 16:40:28.44	20.82	0.22	-48.4	-60.5	3.6	8.45e-01	0	26	104	0	60	38365
2026-01-12 16:40:29.45	20.83	0.28	-48.4	-60.5	3.6	8.45e-01	0	26	104	0	60	38454
2026-01-12 16:40:30.46	20.84	0.34	-48.4	-60.5	3.6	8.45e-01	0	26	104	0	60	38257
2026-01-12 16:40:31.47	20.85	0.40	-48.4	-60.5	3.6	8.44e-01	0	26	104	0	60	38317
2026-01-12 16:40:32.48	20.86	0.46	-48.4	-60.5	3.6	8.45e-01	0	26	104	0	60	38254
2026-01-12 16:40:33.49	20.86	0.52	-48.3	-60.4	3.6	8.44e-01	0	26	104	0	60	37954
2026-01-12 16:40:34.50	20.87	0.58	-48.2	-60.3	3.6	8.46e-01	0	26	104	0	60	37385
2026-01-12 16:40:35.51	20.88	0.64	-48.1	-60.2	3.6	8.46e-01	0	26	104	0	60	36983
2026-01-12 16:40:36.52	20.89	0.71	-48.0	-60.1	3.6	8.45e-01	0	26	104	0	60	36376
2026-01-12 16:40:37.53	20.90	0.77	-47.8	-59.9	3.6	8.45e-01	0	26	104	0	60	35887
2026-01-12 16:40:38.54	20.91	0.83	-47.4	-59.6	3.6	8.45e-01	0	27	104	0	60	34714
2026-01-12 16:40:39.54	20.92	0.89	-47.5	-59.6	3.6	8.46e-01	0	26	104	0	60	34342
2026-01-12 16:40:40.55	20.93	0.95	-47.3	-59.3	3.6	8.46e-01	0	26	104	0	60	33426
2026-01-12 16:40:41.56	20.93	1.01	-46.8	-58.6	3.6	8.44e-01	0	26	104	0	60	30663
2026-01-12 16:40:42.57	20.94	1.08	-46.8	-58.6	3.6	8.45e-01	0	26	104	0	60	30792
2026-01-12 16:40:43.58	20.95	1.14	-46.7	-58.7	3.6	8.44e-01	0	27	104	0	60	30992
2026-01-12 16:40:44.59	20.96	1.20	-46.7	-58.6	3.6	8.45e-01	0	26	104	0	60	30720
2026-01-12 16:40:45.60	20.97	1.26	-46.7	-58.5	3.6	8.47e-01	0	26	104	0	60	30559
2026-01-12 16:40:46.61	20.98	1.33	-46.8	-58.6	3.6	8.46e-01	0	26	104	0	60	30702
2026-01-12 16:40:47.62	20.99	1.39	-46.7	-58.4	3.6	8.45e-01	0	27	104	0	60	30081
2026-01-12 16:40:48.63	21.00	1.45	-46.8	-58.6	3.6	8.45e-01	0	27	104	0	60	30790
2026-01-12 16:40:49.64	21.01	1.52	-46.7	-58.6	3.6	8.45e-01	0	27	104	0	60	30853
2026-01-12 16:40:50.64	21.02	1.58	-46.7	-58.7	3.6	8.47e-01	0	27	104	0	60	30963
2026-01-12 16:40:51.65	21.03	1.64	-46.8	-58.7	3.6	8.45e-01	0	27	104	0	60	31219
2026-01-12 16:40:52.66	21.03	1.71	-46.8	-58.8	3.6	8.46e-01	0	26	104	0	60	31615
2026-01-12 16:40:53.67	21.04	1.77	-46.8	-58.8	3.6	8.45e-01	0	26	104	0	60	31453
2026-01-12 16:40:54.68	21.05	1.83	-46.8	-58.8	3.6	8.46e-01	0	27	104	0	60	31310
2026-01-12 16:40:55.69	21.06	1.90	-46.8	-58.8	3.6	8.46e-01	0	27	104	0	60	31570
2026-01-12 16:40:56.70	21.07	1.96	-46.8	-58.9	3.6	8.45e-01	0	27	104	0	60	31798
2026-01-12 16:40:57.71	21.08	2.03	-46.7	-58.8	3.6	8.44e-01	0	27	104	0	60	31503
2026-01-12 16:40:58.72	21.09	2.09	-46.7	-58.5	3.6	8.45e-01	0	26	104	0	60	30358
2026-01-12 16:40:59.73	21.10	2.15	-46.7	-57.9	3.6	8.46e-01	0	27	104	0	60	28515
2026-01-12 16:41:00.74	21.11	2.22	-46.6	-57.0	3.6	8.45e-01	0	27	104	0	60	25568
2026-01-12 16:41:01.75	21.12	2.28	-46.5	-56.2	3.6	8.43e-01	0	27	104	0	60	23411
2026-01-12 16:41:02.76	21.13	2.35	-46.4	-55.5	3.8	8.41e-01	0	27	0	0	60	21531
2026-01-12 16:41:03.77	21.14	2.41	-46.4	-54.1	3.7	8.35e-01	0	27	104	0	60	18268
2026-01-12 16:41:04.78	21.15	2.48	-46.3	-54.4	4.0	8.30e-01	0	27	0	0	60	18886
2026-01-12 16:41:05.79	21.15	2.54	-46.3	-53.4	4.0	8.23e-01	0	27	0	0	60	16969
2026-01-12 16:41:06.80	21.16	2.61	-46.2	-53.0	4.2	8.18e-01	0	27	0	0	60	16170
2026-01-12 16:41:07.81	21.17	2.68	-46.0	-52.0	4.8	7.88e-01	0	27	0	0	60	14365
2026-01-12 16:41:08.82	21.18	2.74	-45.3	-49.9	7.1	2.34e-01	0	27	0	3145728	60	11351
2026-01-12 16:41:09.83	21.19	2.81	-44.2	-47.5	10.0	4.79e-02	0	27	0	8388608	60	8604
2026-01-12 16:41:10.84	21.20	2.87	-43.1	-45.7	12.1	1.31e-03	0	27	0	14680064	60	6955
2026-01-12 16:41:11.84	21.21	2.94	-41.6	-43.5	14.4	2.05e-05	0	27	0	19922944	58	6052
2026-01-12 16:41:12.86	21.22	3.01	-40.3	-41.7	16.1	0.00e+00	0	27	0	26214400	54	6237
2026-01-12 16:41:13.87	21.23	3.07	-39.4	-40.6	17.3	0.00e+00	0	27	0	31457280	52	6164
2026-01-12 16:41:14.88	21.24	3.14	-38.8	-40.0	18.0	0.00e+00	0	27	0	37748736	50	6399
2026-01-12 16:41:15.89	21.25	3.21	-37.7	-38.8	19.1	0.00e+00	0	27	0	42991616	50	5585
2026-01-12 16:41:16.90	21.26	3.27	-37.5	-38.5	19.3	0.00e+00	0	27	0	49283072	48	6053
2026-01-12 16:41:17.91	21.27	3.34	-37.6	-38.7	19.1	0.00e+00	0	27	0	54525952	48	6179
2026-01-12 16:41:18.92	21.28	3.41	-37.5	-38.5	19.3	0.00e+00	0	27	0	59768832	48	6063
2026-01-12 16:41:19.93	21.29	3.48	-38.2	-39.2	18.6	0.00e+00	0	27	0	66060288	48	6609
2026-01-12 16:41:20.94	21.30	3.55	-39.0	-40.2	17.6	0.00e+00	0	27	0	71303168	50	6596
2026-01-12 16:41:21.95	21.31	3.61	-40.5	-42.0	15.9	0.00e+00	0	27	0	77594624	52	7192
2026-01-12 16:41:22.96	21.32	3.68	-41.2	-43.0	14.4	0.00e+00	0	27	0	82837504	54	7202
2026-01-12 16:41:23.97	21.33	3.75	-35.6	-36.4	21.5	0.00e+00	0	27	0	88080384	44	5985
2026-01-12 16:41:24.98	21.34	3.82	-40.4	-41.9	15.2	0.00e+00	0	27	0	94371840	52	7102
2026-01-12 16:41:25.99	21.35	3.89	-46.7	-57.7	3.6	4.19e-01	0	27	104	98566144	60	27804
2026-01-12 16:41:27.00	21.36	3.96	-38.7	-39.9	18.1	1.48e-05	0	27	0	98566144	52	5644
2026-01-12 16:41:28.01	21.37	4.03	-46.6	-57.5	3.6	8.39e-01	0	27	104	101711872	60	27116
2026-01-12 16:41:29.02	21.38	4.09	-37.6	-38.7	18.1	3.83e-01	0	27	104	101711872	48	6182
2026-01-12 16:41:30.03	21.39	4.16	-37.9	-39.0	19.1	0.00e+00	0	27	0	103809024	48	6392
2026-01-12 16:41:31.04	21.40	4.23	-37.2	-38.2	19.8	0.00e+00	0	27	0	109051904	48	5876
2026-01-12 16:41:32.05	21.41	4.30	-37.1	-38.1	20.0	0.00e+00	0	27	0	115343360	48	5781
2026-01-12 16:41:33.06	21.42	4.37	-36.6	-37.6	20.4	0.00e+00	0	27	0	120586240	46	6123
2026-01-12 16:41:34.07	21.43	4.44	-35.9	-36.7	21.3	0.00e+00	0	27	0	126877696	46	5555
2026-01-12 16:41:35.08	21.44	4.51	-35.2	-36.0	21.9	0.00e+00	0	27	0	132120576	44	5757
2026-01-12 16:41:36.09	21.45	4.58	-35.2	-36.0	21.9	0.00e+00	0	27	0	138412032	44	5751
2026-01-12 16:41:37.10	21.46	4.65	-35.4	-36.3	21.7	0.00e+00	0	27	0	143654912	44	5912
2026-01-12 16:41:38.11	21.47	4.73	-35.6	-36.5	21.7	0.00e+00	0	27	0	148897792	44	6055
2026-01-12 16:41:39.12	21.48	4.80	-35.2	-36.1	21.8	0.00e+00	0	27	0	155189248	44	5780
2026-01-12 16:41:40.13	21.49	4.87	-34.8	-35.6	22.3	0.00e+00	0	27	0	160432128	42	6136
2026-01-12 16:41:41.14	21.50	4.94	-34.9	-35.7	22.3	0.00e+00	0	27	0	166723584	42	6214
2026-01-12 16:41:42.15	21.51	5.01	-34.9	-35.7	22.4	0.00e+00	0	27	0	171966464	42	6198
2026-01-12 16:41:43.16	21.52	5.08	-34.7	-35.5	22.5	0.00e+00	0	27	0	177209344	42	6073
2026-01-12 16:41:44.17	21.53	5.15	-34.9	-35.7	22.4	0.00e+00	0	27	0	183500800	42	6229
2026-01-12 16:41:45.18	21.54	5.23	-34.9	-35.7	22.4	0.00e+00	0	27	0	188743680	42	6233
2026-01-12 16:41:46.19	21.55	5.30	-34.6	-35.4	22.7	0.00e+00	0	27	0	195035136	42	6003
2026-01-12 16:41:47.20	21.56	5.37	-34.8	-35.6	22.6	0.00e+00	0	27	0	200278016	42	6132
2026-01-12 16:41:48.21	21.57	5.44	-34.7	-35.5	22.6	0.00e+00	0	27	0	205520896	42	6070
2026-01-12 16:41:49.22	21.58	5.52	-34.6	-35.4	22.8	0.00e+00	0	27	0	211812352	42	5996
2026-01-12 16:41:50.23	21.59	5.59	-34.5	-35.3	22.8	0.00e+00	0	27	0	217055232	42	5929
2026-01-12 16:41:51.24	21.60	5.66	-34.4	-35.2	22.9	0.00e+00	0	27	0	223346688	42	5876
2026-01-12 16:41:52.25	21.61	5.74	-34.6	-35.3	22.8	0.00e+00	0	27	0	228589568	42	5944
2026-01-12 16:41:53.26	21.62	5.81	-34.6	-35.3	22.9	0.00e+00	0	27	0	234881024	42	5947
2026-01-12 16:41:54.26	21.63	5.89	-34.4	-35.2	22.9	0.00e+00	0	27	0	240123904	42	5864
2026-01-12 16:41:55.27	21.64	5.96	-34.5	-35.3	23.0	0.00e+00	0	27	0	245366784	42	5923
2026-01-12 16:41:56.28	21.65	6.03	-34.4	-35.2	23.0	0.00e+00	0	27	0	251658240	42	5847
2026-01-12 16:41:57.29	21.67	6.11	-34.4	-35.2	23.0	0.00e+00	0	27	0	256901120	42	5858
2026-01-12 16:41:58.30	21.68	6.18	-34.5	-35.2	22.9	0.00e+00	0	27	0	263192576	42	5894
2026-01-12 16:41:59.31	21.69	6.26	-34.7	-35.5	22.7	0.00e+00	0	27	0	268435456	42	6093
2026-01-12 16:42:00.32	21.70	6.33	-34.6	-35.4	22.8	0.00e+00	0	27	0	273678336	42	5986
2026-01-12 16:42:01.33	21.71	6.41	-34.2	-34.9	23.3	0.00e+00	0	27	0	279969792	42	5683
2026-01-12 16:42:02.34	21.72	6.49	-34.0	-34.8	23.4	0.00e+00	0	27	0	285212672	42	5587
2026-01-12 16:42:03.35	21.73	6.56	-34.2	-34.9	23.2	0.00e+00	0	27	0	291504128	42	5685
2026-01-12 16:42:04.36	21.74	6.64	-34.2	-35.0	23.3	0.00e+00	0	27	0	296747008	42	5699
2026-01-12 16:42:05.37	21.75	6.71	-34.0	-34.8	23.4	0.00e+00	0	27	0	301989888	42	5579
2026-01-12 16:42:06.38	21.76	6.79	-34.1	-34.8	23.4	0.00e+00	0	27	0	308281344	42	5600
2026-01-12 16:42:07.39	21.77	6.87	-34.0	-34.7	23.5	0.00e+00	0	27	0	313524224	42	5535
2026-01-12 16:42:08.40	21.79	6.94	-34.0	-34.8	23.5	0.00e+00	0	27	0	319815680	42	5568
2026-01-12 16:42:09.41	21.80	7.02	-33.9	-34.7	23.4	0.00e+00	0	27	0	325058560	42	5533
2026-01-12 16:42:10.42	21.81	7.10	-33.9	-34.7	23.6	0.00e+00	0	27	0	331350016	42	5509
2026-01-12 16:42:11.43	21.82	7.18	-33.8	-34.6	23.6	0.00e+00	0	27	0	336592896	42	5447
2026-01-12 16:42:12.44	21.83	7.26	-34.0	-34.7	23.6	0.00e+00	0	27	0	342884352	42	5537
2026-01-12 16:42:13.44	21.84	7.33	-33.9	-34.6	23.6	0.00e+00	0	27	0	348127232	42	5498
2026-01-12 16:42:14.45	21.85	7.41	-33.8	-34.6	23.6	0.00e+00	0	27	0	353370112	42	5463
2026-01-12 16:42:15.46	21.86	7.49	-33.8	-34.5	23.7	0.00e+00	0	27	0	359661568	42	5431
2026-01-12 16:42:16.47	21.88	7.57	-33.6	-34.4	23.9	0.00e+00	0	27	0	364904448	40	5972
2026-01-12 16:42:17.48	21.89	7.65	-33.8	-34.5	23.8	0.00e+00	0	27	0	371195904	40	6059
2026-01-12 16:42:18.49	21.90	7.73	-33.6	-34.4	23.9	0.00e+00	0	27	0	376438784	40	5977
2026-01-12 16:42:19.50	21.91	7.81	-33.6	-34.3	23.9	0.00e+00	0	27	0	381681664	40	5955
2026-01-12 16:42:20.51	21.92	7.89	-33.6	-34.3	23.9	0.00e+00	0	27	0	387973120	40	5919
2026-01-12 16:42:21.52	21.93	7.97	-33.7	-34.4	23.8	0.00e+00	0	27	0	393216000	40	6025
2026-01-12 16:42:22.53	21.94	8.05	-33.5	-34.2	24.0	0.00e+00	0	27	0	399507456	40	5896
2026-01-12 16:42:23.54	21.96	8.13	-33.7	-34.4	23.8	0.00e+00	0	27	0	404750336	40	6024
2026-01-12 16:42:24.55	21.97	8.21	-33.6	-34.3	24.0	0.00e+00	0	27	0	409993216	40	5901
2026-01-12 16:42:25.56	21.98	8.29	-33.6	-34.3	24.0	0.00e+00	0	27	0	416284672	40	5953
2026-01-12 16:42:26.57	21.99	8.37	-33.5	-34.3	24.1	0.00e+00	0	27	0	421527552	40	5901
2026-01-12 16:42:27.58	22.00	8.46	-33.5	-34.2	24.1	0.00e+00	0	27	0	427819008	40	5886
2026-01-12 16:42:28.59	22.01	8.54	-33.5	-34.2	24.1	0.00e+00	0	27	0	433061888	40	5849
2026-01-12 16:42:29.60	22.03	8.62	-33.5	-34.2	24.1	0.00e+00	0	27	0	439353344	40	5848
2026-01-12 16:42:30.62	22.04	8.70	-33.3	-34.0	24.3	0.00e+00	0	27	0	444596224	40	5719
2026-01-12 16:42:31.63	22.05	8.79	-33.3	-34.0	24.2	0.00e+00	0	27	0	449839104	40	5750
2026-01-12 16:42:32.64	22.06	8.87	-33.3	-34.0	24.3	0.00e+00	0	27	0	456130560	40	5710
2026-01-12 16:42:33.65	22.07	8.95	-33.4	-34.1	24.2	0.00e+00	0	27	0	461373440	40	5784
2026-01-12 16:42:34.66	22.09	9.04	-33.3	-34.1	24.2	0.00e+00	0	27	0	467664896	40	5763
2026-01-12 16:42:35.67	22.10	9.12	-33.3	-34.0	24.3	0.00e+00	0	27	0	472907776	40	5753
2026-01-12 16:42:36.68	22.11	9.21	-33.2	-33.8	24.5	0.00e+00	0	27	0	478150656	40	5626
2026-01-12 16:42:37.69	22.12	9.29	-33.1	-33.8	24.5	0.00e+00	0	27	0	484442112	40	5618
2026-01-12 16:42:38.70	22.14	9.38	-33.1	-33.8	24.5	0.00e+00	0	27	0	489684992	40	5627
2026-01-12 16:42:39.71	22.15	9.46	-33.2	-34.0	24.4	0.00e+00	0	27	0	495976448	40	5697
2026-01-12 16:42:40.72	22.16	9.55	-33.1	-33.8	24.5	0.00e+00	0	27	0	501219328	40	5577
2026-01-12 16:42:41.72	22.17	9.63	-33.1	-33.8	24.5	0.00e+00	0	27	0	506462208	40	5608
2026-01-12 16:42:42.73	22.18	9.72	-33.3	-34.0	24.4	0.00e+00	0	27	0	512753664	40	5712
2026-01-12 16:42:43.74	22.20	9.80	-33.0	-33.8	24.6	0.00e+00	0	27	0	517996544	40	5572
2026-01-12 16:42:44.76	22.21	9.89	-33.1	-33.8	24.5	0.00e+00	0	27	0	524288000	40	5616
2026-01-12 16:42:45.76	22.22	9.98	-33.0	-33.7	24.6	0.00e+00	0	27	0	529530880	40	5547
2026-01-12 16:42:46.77	22.24	10.06	-33.1	-33.9	24.5	0.00e+00	0	27	0	535822336	40	5632
2026-01-12 16:42:47.78	22.25	10.15	-33.2	-33.9	24.5	0.00e+00	0	27	0	541065216	40	5675
2026-01-12 16:42:48.79	22.26	10.24	-33.1	-33.8	24.6	0.00e+00	0	27	0	547356672	40	5603
2026-01-12 16:42:49.80	22.27	10.33	-33.1	-33.8	24.6	0.00e+00	0	27	0	552599552	40	5616
2026-01-12 16:42:50.81	22.29	10.42	-33.0	-33.7	24.7	0.00e+00	0	27	0	557842432	40	5554
2026-01-12 16:42:51.82	22.30	10.51	-33.1	-33.8	24.6	0.00e+00	0	27	0	564133888	40	5579
2026-01-12 16:42:52.83	22.31	10.59	-33.1	-33.8	24.6	0.00e+00	0	27	0	569376768	40	5576
2026-01-12 16:42:53.83	22.32	10.68	-33.1	-33.8	24.5	0.00e+00	0	27	0	575668224	40	5628
2026-01-12 16:42:54.84	22.34	10.77	-32.9	-33.6	24.6	0.00e+00	0	27	0	580911104	40	5469
2026-01-12 16:42:55.86	22.35	10.86	-33.0	-33.7	24.5	0.00e+00	0	27	0	586153984	40	5516
2026-01-12 16:42:56.87	22.36	10.95	-32.9	-33.6	24.7	0.00e+00	0	27	0	592445440	40	5468
2026-01-12 16:42:57.88	22.38	11.05	-33.0	-33.7	24.5	0.00e+00	0	27	0	597688320	40	5552
2026-01-12 16:42:58.88	22.39	11.14	-33.1	-33.8	24.6	0.00e+00	0	27	0	603979776	40	5618
2026-01-12 16:42:59.89	22.40	11.23	-33.0	-33.7	24.6	0.00e+00	0	27	0	609222656	40	5524
2026-01-12 16:43:00.90	22.42	11.32	-33.0	-33.7	24.6	0.00e+00	0	27	0	614465536	40	5526
2026-01-12 16:43:01.91	22.43	11.41	-33.1	-33.8	24.7	0.00e+00	0	27	0	620756992	40	5593
2026-01-12 16:43:02.92	22.44	11.50	-33.0	-33.8	24.6	0.00e+00	0	27	0	625999872	40	5573
2026-01-12 16:43:03.93	22.46	11.60	-32.9	-33.6	24.8	0.00e+00	0	27	0	632291328	40	5454
2026-01-12 16:43:04.94	22.47	11.69	-32.9	-33.6	24.7	0.00e+00	0	27	0	637534208	40	5453
2026-01-12 16:43:05.95	22.49	11.78	-33.0	-33.7	24.7	0.00e+00	0	27	0	643825664	40	5528
2026-01-12 16:43:06.96	22.50	11.88	-32.9	-33.7	24.7	0.00e+00	0	27	0	649068544	40	5510
2026-01-12 16:43:07.97	22.51	11.97	-33.2	-33.9	24.6	0.00e+00	0	27	0	654311424	40	5647
2026-01-12 16:43:08.98	22.53	12.07	-32.9	-33.6	24.7	0.00e+00	0	27	0	660602880	40	5469
2026-01-12 16:43:09.99	22.54	12.16	-32.8	-33.5	24.8	0.00e+00	0	27	0	665845760	40	5400
2026-01-12 16:43:11.00	22.55	12.26	-32.8	-33.5	24.8	0.00e+00	0	27	0	672137216	40	5417
2026-01-12 16:43:12.01	22.57	12.35	-32.7	-33.4	25.0	0.00e+00	0	27	0	677380096	38	6002
2026-01-12 16:43:13.02	22.58	12.45	-32.9	-33.6	24.8	0.00e+00	0	27	0	682622976	38	6109
2026-01-12 16:43:14.03	22.60	12.55	-32.9	-33.6	24.9	0.00e+00	0	27	0	688914432	38	6132
2026-01-12 16:43:15.04	22.61	12.64	-32.7	-33.4	25.0	0.00e+00	0	27	0	694157312	38	6004
2026-01-12 16:43:16.05	22.63	12.74	-32.7	-33.4	25.1	0.00e+00	0	27	0	700448768	38	6011
2026-01-12 16:43:17.06	22.64	12.84	-32.6	-33.3	25.1	0.00e+00	0	27	0	705691648	38	5926
2026-01-12 16:43:18.07	22.65	12.94	-32.5	-33.2	25.2	0.00e+00	0	27	0	710934528	38	5871
2026-01-12 16:43:19.08	22.67	13.04	-32.5	-33.2	25.2	0.00e+00	0	27	0	717225984	38	5843
2026-01-12 16:43:20.09	22.68	13.13	-32.6	-33.2	25.2	0.00e+00	0	27	0	722468864	38	5879
2026-01-12 16:43:21.10	22.70	13.23	-32.4	-33.1	25.3	0.00e+00	0	27	0	728760320	38	5769
2026-01-12 16:43:22.11	22.71	13.33	-32.4	-33.1	25.4	0.00e+00	0	27	0	734003200	38	5782
2026-01-12 16:43:23.12	22.73	13.43	-32.3	-32.9	25.4	0.00e+00	0	27	0	740294656	38	5692
2026-01-12 16:43:24.13	22.74	13.53	-32.2	-32.9	25.4	0.00e+00	0	27	0	745537536	38	5661
2026-01-12 16:43:25.14	22.76	13.64	-32.2	-32.8	25.5	0.00e+00	0	27	0	751828992	38	5618
2026-01-12 16:43:26.15	22.77	13.74	-32.2	-32.9	25.5	0.00e+00	0	27	0	757071872	38	5643
2026-01-12 16:43:27.16	22.79	13.84	-32.2	-32.9	25.5	0.00e+00	0	27	0	762314752	38	5645
2026-01-12 16:43:28.17	22.80	13.94	-32.3	-32.9	25.5	0.00e+00	0	27	0	768606208	38	5683
2026-01-12 16:43:29.17	22.82	14.04	-32.2	-32.9	25.6	0.00e+00	0	27	0	773849088	38	5633
2026-01-12 16:43:30.18	22.83	14.15	-32.2	-32.8	25.6	0.00e+00	0	27	0	780140544	38	5613
2026-01-12 16:43:31.19	22.85	14.25	-32.0	-32.7	25.7	0.00e+00	0	27	0	785383424	38	5520
2026-01-12 16:43:32.20	22.86	14.35	-31.9	-32.6	25.8	0.00e+00	0	27	0	790626304	38	5476
2026-01-12 16:43:33.22	22.88	14.46	-31.9	-32.6	25.8	0.00e+00	0	27	0	796917760	38	5445
2026-01-12 16:43:34.22	22.89	14.56	-31.9	-32.6	25.7	0.00e+00	0	27	0	802160640	38	5442
2026-01-12 16:43:35.23	22.91	14.67	-31.9	-32.6	25.7	0.00e+00	0	27	0	808452096	38	5457
2026-01-12 16:43:36.25	22.93	14.77	-31.8	-32.5	25.8	0.00e+00	0	27	0	813694976	38	5400
2026-01-12 16:43:37.26	22.94	14.88	-31.8	-32.4	25.9	0.00e+00	0	27	0	818937856	36	6031
2026-01-12 16:43:38.27	22.96	14.99	-31.8	-32.4	25.9	0.00e+00	0	27	0	825229312	36	6017
2026-01-12 16:43:39.28	22.97	15.10	-31.7	-32.4	25.9	0.00e+00	0	27	0	830472192	36	5993
2026-01-12 16:43:40.28	22.99	15.20	-31.8	-32.4	25.9	0.00e+00	0	27	0	836763648	36	6033
2026-01-12 16:43:41.29	23.01	15.31	-31.6	-32.3	26.0	0.00e+00	0	27	0	842006528	36	5911
2026-01-12 16:43:42.30	23.02	15.42	-31.5	-32.2	26.1	0.00e+00	0	27	0	848297984	36	5854
2026-01-12 16:43:43.31	23.04	15.53	-31.6	-32.2	26.1	0.00e+00	0	27	0	853540864	36	5890
2026-01-12 16:43:44.32	23.05	15.64	-31.6	-32.2	26.1	0.00e+00	0	27	0	858783744	36	5856
2026-01-12 16:43:45.33	23.07	15.75	-31.5	-32.1	26.1	0.00e+00	0	27	0	865075200	36	5816
2026-01-12 16:43:46.34	23.09	15.86	-31.3	-32.0	26.3	0.00e+00	0	27	0	870318080	36	5707
2026-01-12 16:43:47.35	23.10	15.97	-31.3	-31.9	26.3	0.00e+00	0	27	0	876609536	36	5689
2026-01-12 16:43:48.36	23.12	16.08	-31.3	-31.9	26.4	0.00e+00	0	27	0	881852416	36	5693
2026-01-12 16:43:49.37	23.14	16.19	-31.4	-32.1	26.3	0.00e+00	0	27	0	887095296	36	5775
2026-01-12 16:43:50.38	23.15	16.31	-31.2	-31.8	26.5	0.00e+00	0	27	0	893386752	36	5622
2026-01-12 16:43:51.39	23.17	16.42	-31.1	-31.8	26.5	0.00e+00	0	27	0	898629632	36	5568
2026-01-12 16:43:52.40	23.19	16.53	-31.1	-31.8	26.6	0.00e+00	0	27	0	904921088	36	5579
2026-01-12 16:43:53.41	23.21	16.65	-31.1	-31.8	26.5	0.00e+00	0	27	0	910163968	36	5595
2026-01-12 16:43:54.42	23.22	16.76	-31.1	-31.8	26.4	0.00e+00	0	27	0	915406848	36	5581
2026-01-12 16:43:55.43	23.24	16.88	-31.0	-31.7	26.5	0.00e+00	0	27	0	921698304	36	5516
2026-01-12 16:43:56.44	23.26	16.99	-31.2	-31.8	26.5	0.00e+00	0	27	0	926941184	36	5603
2026-01-12 16:43:57.45	23.28	17.11	-31.1	-31.8	26.5	0.00e+00	0	27	0	933232640	36	5567
2026-01-12 16:43:58.46	23.29	17.23	-31.3	-31.9	26.4	0.00e+00	0	27	0	938475520	36	5671
2026-01-12 16:43:59.47	23.31	17.35	-31.3	-31.9	26.4	0.00e+00	0	27	0	944766976	36	5660
2026-01-12 16:44:00.48	23.33	17.46	-31.3	-31.9	26.4	0.00e+00	0	27	0	950009856	36	5672
2026-01-12 16:44:01.49	23.35	17.58	-31.0	-31.7	26.6	0.00e+00	0	27	0	956301312	36	5521
2026-01-12 16:44:02.50	23.37	17.70	-31.2	-31.9	26.5	0.00e+00	0	27	0	961544192	36	5633
2026-01-12 16:44:03.51	23.38	17.82	-31.0	-31.6	26.7	0.00e+00	0	27	0	966787072	36	5494
2026-01-12 16:44:04.52	23.40	17.94	-31.0	-31.6	26.6	0.00e+00	0	27	0	973078528	36	5472
2026-01-12 16:44:05.52	23.42	18.06	-31.1	-31.8	26.5	0.00e+00	0	27	0	978321408	36	5572
2026-01-12 16:44:06.53	23.44	18.18	-31.0	-31.6	26.6	0.00e+00	0	27	0	984612864	36	5498
2026-01-12 16:44:07.55	23.46	18.31	-30.9	-31.6	26.7	0.00e+00	0	27	0	989855744	36	5467
2026-01-12 16:44:08.56	23.48	18.43	-31.1	-31.7	26.6	0.00e+00	0	27	0	995098624	36	5562
2026-01-12 16:44:09.57	23.50	18.55	-30.8	-31.4	26.9	0.00e+00	0	27	0	1001390080	36	5376
2026-01-12 16:44:10.58	23.52	18.68	-30.8	-31.5	26.8	0.00e+00	0	27	0	1006632960	34	6041
2026-01-12 16:44:11.59	23.54	18.80	-30.8	-31.5	26.8	0.00e+00	0	27	0	1012924416	34	6071
2026-01-12 16:44:12.60	23.55	18.93	-30.7	-31.4	26.9	0.00e+00	0	27	0	1018167296	34	5987
2026-01-12 16:44:13.61	23.57	19.05	-30.7	-31.3	26.9	0.00e+00	0	27	0	1023410176	34	5931
2026-01-12 16:44:14.62	23.59	19.18	-30.7	-31.3	26.9	0.00e+00	0	27	0	1029701632	34	5958
2026-01-12 16:44:15.63	23.61	19.31	-30.7	-31.3	26.9	0.00e+00	0	27	0	1034944512	34	5935
2026-01-12 16:44:16.64	23.63	19.44	-30.6	-31.2	27.0	0.00e+00	0	27	0	1041235968	34	5863
2026-01-12 16:44:17.65	23.65	19.56	-30.6	-31.2	27.0	0.00e+00	0	27	0	1046478848	34	5884
2026-01-12 16:44:18.66	23.67	19.69	-30.7	-31.3	27.0	0.00e+00	0	27	0	1052770304	34	5962
2026-01-12 16:44:19.67	23.69	19.82	-30.7	-31.4	27.0	0.00e+00	0	27	0	1058013184	34	5972
2026-01-12 16:44:20.68	23.71	19.95	-30.6	-31.2	27.1	0.00e+00	0	27	0	1063256064	34	5871
2026-01-12 16:44:21.69	23.73	20.09	-30.5	-31.2	27.0	0.00e+00	0	27	0	1069547520	34	5858
2026-01-12 16:44:22.70	23.76	20.22	-30.5	-31.2	27.1	0.00e+00	0	27	0	1074790400	34	5854
2026-01-12 16:44:23.71	23.78	20.35	-30.5	-31.1	27.1	0.00e+00	0	27	0	1081081856	34	5801
2026-01-12 16:44:24.72	23.80	20.48	-30.5	-31.1	27.1	0.00e+00	0	27	0	1086324736	34	5815
2026-01-12 16:44:25.72	23.82	20.62	-30.6	-31.2	27.2	0.00e+00	0	27	0	1091567616	34	5856
2026-01-12 16:44:26.73	23.84	20.75	-30.6	-31.2	27.0	0.00e+00	0	27	0	1097859072	34	5869
2026-01-12 16:44:27.74	23.86	20.89	-30.3	-30.9	27.3	0.00e+00	0	27	0	1103101952	34	5641
2026-01-12 16:44:28.75	23.88	21.02	-30.5	-31.1	27.2	0.00e+00	0	27	0	1109393408	34	5775
2026-01-12 16:44:29.76	23.90	21.16	-30.2	-30.8	27.4	0.00e+00	0	27	0	1114636288	34	5593
2026-01-12 16:44:30.77	23.93	21.30	-30.2	-30.8	27.4	0.00e+00	0	27	0	1119879168	34	5584
2026-01-12 16:44:31.78	23.95	21.44	-30.2	-30.9	27.4	0.00e+00	0	27	0	1126170624	34	5631
2026-01-12 16:44:32.79	23.97	21.58	-29.9	-30.6	27.6	0.00e+00	0	27	0	1131413504	34	5443
2026-01-12 16:44:33.80	23.99	21.72	-29.9	-30.6	27.6	0.00e+00	0	27	0	1137704960	34	5458
2026-01-12 16:44:34.81	24.01	21.86	-29.9	-30.5	27.7	0.00e+00	0	27	0	1142947840	34	5412
2026-01-12 16:44:35.82	24.04	22.00	-29.9	-30.5	27.6	0.00e+00	0	27	0	1149239296	34	5404
2026-01-12 16:44:36.83	24.06	22.14	-30.0	-30.6	27.6	0.00e+00	0	27	0	1154482176	34	5467
2026-01-12 16:44:37.84	24.08	22.29	-29.9	-30.6	27.6	0.00e+00	0	27	0	1160773632	34	5442
2026-01-12 16:44:38.85	24.11	22.43	-29.8	-30.4	27.7	0.00e+00	0	27	0	1166016512	34	5345
2026-01-12 16:44:39.86	24.13	22.58	-29.8	-30.5	27.7	0.00e+00	0	27	0	1171259392	34	5399
2026-01-12 16:44:40.87	24.15	22.72	-29.9	-30.5	27.6	0.00e+00	0	27	0	1177550848	34	5418
2026-01-12 16:44:41.88	24.18	22.87	-29.8	-30.4	27.7	0.00e+00	0	27	0	1182793728	34	5375
2026-01-12 16:44:42.89	24.20	23.01	-29.9	-30.6	27.6	0.00e+00	0	27	0	1189085184	34	5442
2026-01-12 16:44:43.90	24.23	23.16	-29.9	-30.6	27.6	0.00e+00	0	27	0	1194328064	34	5445
2026-01-12 16:44:44.91	24.25	23.31	-30.0	-30.6	27.5	0.00e+00	0	27	0	1199570944	34	5489
2026-01-12 16:44:45.92	24.27	23.46	-29.9	-30.5	27.7	0.00e+00	0	27	0	1205862400	34	5400
2026-01-12 16:44:46.93	24.30	23.61	-29.9	-30.6	27.7	0.00e+00	0	27	0	1211105280	34	5452
2026-01-12 16:44:47.94	24.32	23.77	-29.8	-30.4	27.7	0.00e+00	0	27	0	1217396736	34	5351
2026-01-12 16:44:48.95	24.35	23.92	-30.0	-30.6	27.5	0.00e+00	0	27	0	1222639616	34	5478
2026-01-12 16:44:49.96	24.37	24.07	-29.8	-30.4	27.8	0.00e+00	0	27	0	1227882496	34	5337
2026-01-12 16:44:50.97	24.40	24.23	-29.7	-30.4	27.8	0.00e+00	0	27	0	1234173952	32	5967
2026-01-12 16:44:51.98	24.43	24.38	-29.7	-30.3	27.8	0.00e+00	0	27	0	1239416832	32	5948
2026-01-12 16:44:52.99	24.45	24.54	-29.7	-30.4	27.8	0.00e+00	0	27	0	1245708288	32	5970
2026-01-12 16:44:53.99	24.48	24.69	-29.7	-30.3	27.8	0.00e+00	0	27	0	1250951168	32	5926
2026-01-12 16:44:55.00	24.50	24.85	-29.7	-30.3	27.9	0.00e+00	0	27	0	1257242624	32	5915
2026-01-12 16:44:56.01	24.53	25.01	-29.6	-30.2	27.9	0.00e+00	0	27	0	1262485504	32	5847
2026-01-12 16:44:57.02	24.56	25.17	-29.5	-30.1	28.0	0.00e+00	0	27	0	1267728384	32	5794
2026-01-12 16:44:58.03	24.58	25.33	-29.6	-30.2	27.9	0.00e+00	0	27	0	1274019840	32	5836
2026-01-12 16:44:59.04	24.61	25.49	-29.5	-30.2	28.0	0.00e+00	0	27	0	1279262720	32	5835
2026-01-12 16:45:00.05	24.64	25.66	-29.3	-29.9	28.1	0.00e+00	0	27	0	1285554176	32	5656
2026-01-12 16:45:01.06	24.67	25.82	-29.3	-29.9	28.2	0.00e+00	0	27	0	1290797056	32	5644
2026-01-12 16:45:02.07	24.69	25.99	-29.2	-29.8	28.2	0.00e+00	0	27	0	1296039936	32	5619
2026-01-12 16:45:03.08	24.72	26.15	-29.3	-29.9	28.2	0.00e+00	0	27	0	1302331392	32	5648
2026-01-12 16:45:04.09	24.75	26.32	-29.3	-29.9	28.2	0.00e+00	0	27	0	1307574272	32	5672
2026-01-12 16:45:05.10	24.78	26.49	-29.3	-29.9	28.1	0.00e+00	0	27	0	1313865728	32	5656
2026-01-12 16:45:06.11	24.81	26.66	-29.1	-29.8	28.3	0.00e+00	0	27	0	1319108608	32	5579
2026-01-12 16:45:07.12	24.84	26.83	-29.1	-29.7	28.3	0.00e+00	0	27	0	1324351488	32	5559
2026-01-12 16:45:08.13	24.87	27.00	-29.1	-29.7	28.3	0.00e+00	0	27	0	1330642944	32	5561
2026-01-12 16:45:09.13	24.90	27.17	-29.2	-29.7	28.3	0.00e+00	0	27	0	1335885824	32	5564
2026-01-12 16:45:10.14	24.93	27.34	-29.2	-29.9	28.2	0.00e+00	0	27	0	1342177280	32	5653
2026-01-12 16:45:11.15	24.96	27.52	-29.3	-29.9	28.1	0.00e+00	0	27	0	1347420160	32	5690
2026-01-12 16:45:12.16	24.99	27.69	-29.3	-29.9	28.2	0.00e+00	0	27	0	1353711616	32	5643
2026-01-12 16:45:13.17	25.02	27.87	-29.4	-29.9	28.2	0.00e+00	0	27	0	1358954496	32	5693
2026-01-12 16:45:14.18	25.05	28.05	-29.4	-30.0	28.1	0.00e+00	0	27	0	1365245952	32	5735
2026-01-12 16:45:15.19	25.08	28.23	-29.5	-30.1	28.0	0.00e+00	0	27	0	1370488832	32	5823
2026-01-12 16:45:16.20	25.11	28.41	-29.5	-30.1	27.9	0.00e+00	0	27	0	1375731712	32	5828
2026-01-12 16:45:17.21	25.15	28.59	-29.4	-30.1	28.0	0.00e+00	0	27	0	1382023168	32	5769
2026-01-12 16:45:18.22	25.18	28.77	-29.5	-30.1	28.0	0.00e+00	0	27	0	1387266048	32	5804
2026-01-12 16:45:19.23	25.21	28.96	-29.6	-30.2	27.8	0.00e+00	0	27	0	1392508928	32	5839
2026-01-12 16:45:20.24	25.25	29.14	-29.5	-30.1	28.0	0.00e+00	0	27	0	1398800384	32	5778
2026-01-12 16:45:21.25	25.28	29.33	-29.5	-30.1	28.1	0.00e+00	0	27	0	1404043264	32	5805
2026-01-12 16:45:22.26	25.31	29.52	-29.5	-30.1	27.9	0.00e+00	0	27	0	1410334720	32	5798
2026-01-12 16:45:23.27	25.35	29.70	-29.4	-30.1	28.0	0.00e+00	0	27	0	1415577600	32	5763
2026-01-12 16:45:24.28	25.38	29.89	-29.5	-30.1	27.9	0.00e+00	0	27	0	1420820480	32	5815
2026-01-12 16:45:25.29	25.42	30.09	-29.5	-30.1	28.0	0.00e+00	0	27	0	1427111936	32	5771
2026-01-12 16:45:26.30	25.45	30.28	-29.5	-30.1	28.0	0.00e+00	0	27	0	1432354816	32	5820
2026-01-12 16:45:27.30	25.49	30.47	-29.4	-30.0	28.1	0.00e+00	0	27	0	1438646272	32	5711
2026-01-12 16:45:28.31	25.52	30.67	-29.5	-30.1	28.0	0.00e+00	0	27	0	1443889152	32	5809
2026-01-12 16:45:29.32	25.56	30.86	-29.3	-29.9	28.2	0.00e+00	0	27	0	1450180608	32	5670
2026-01-12 16:45:30.33	25.60	31.06	-29.3	-29.9	28.1	0.00e+00	0	27	0	1455423488	32	5692
2026-01-12 16:45:31.34	25.63	31.26	-29.3	-29.9	28.2	0.00e+00	0	27	0	1461714944	32	5694
2026-01-12 16:45:32.36	25.67	31.46	-29.3	-29.9	28.2	0.00e+00	0	27	0	1466957824	32	5656
2026-01-12 16:45:33.36	25.71	31.66	-29.3	-29.9	28.2	0.00e+00	0	27	0	1472200704	32	5694
2026-01-12 16:45:34.37	25.75	31.87	-29.2	-29.8	28.3	0.00e+00	0	27	0	1478492160	32	5621
2026-01-12 16:45:35.38	25.79	32.07	-29.2	-29.8	28.2	0.00e+00	0	27	0	1483735040	32	5620
2026-01-12 16:45:36.39	25.83	32.28	-29.2	-29.8	28.2	0.00e+00	0	27	0	1490026496	32	5618
2026-01-12 16:45:37.40	25.87	32.48	-29.2	-29.8	28.2	0.00e+00	0	27	0	1495269376	32	5586
2026-01-12 16:45:38.41	25.91	32.69	-29.1	-29.8	28.3	0.00e+00	0	27	0	1500512256	32	5571
2026-01-12 16:45:39.42	25.95	32.90	-29.1	-29.7	28.3	0.00e+00	0	27	0	1506803712	32	5540
2026-01-12 16:45:40.43	25.99	33.12	-29.1	-29.7	28.4	0.00e+00	0	27	0	1512046592	32	5543
2026-01-12 16:45:41.44	26.03	33.33	-29.1	-29.7	28.4	0.00e+00	0	27	0	1518338048	32	5552
2026-01-12 16:45:42.45	26.07	33.54	-29.0	-29.6	28.4	0.00e+00	0	27	0	1523580928	32	5454
2026-01-12 16:45:43.46	26.11	33.76	-29.1	-29.7	28.3	0.00e+00	0	27	0	1528823808	32	5565
2026-01-12 16:45:44.46	26.16	33.98	-29.0	-29.6	28.5	0.00e+00	0	27	0	1535115264	32	5453
2026-01-12 16:45:45.47	26.20	34.20	-29.0	-29.6	28.4	0.00e+00	0	27	0	1540358144	32	5488
2026-01-12 16:45:46.48	26.25	34.42	-29.1	-29.7	28.3	0.00e+00	0	27	0	1546649600	32	5563
2026-01-12 16:45:47.50	26.29	34.64	-28.9	-29.6	28.5	0.00e+00	0	27	0	1551892480	32	5455
2026-01-12 16:45:48.50	26.34	34.86	-29.1	-29.7	28.4	0.00e+00	0	27	0	1558183936	32	5534
2026-01-12 16:45:49.51	26.38	35.09	-29.1	-29.7	28.4	0.00e+00	0	27	0	1563426816	32	5521
2026-01-12 16:45:50.52	26.43	35.32	-29.0	-29.6	28.4	0.00e+00	0	27	0	1568669696	32	5486
2026-01-12 16:45:51.53	26.48	35.55	-29.0	-29.6	28.4	0.00e+00	0	27	0	1574961152	32	5500
2026-01-12 16:45:52.54	26.52	35.78	-29.0	-29.6	28.5	0.00e+00	0	27	0	1580204032	32	5458
2026-01-12 16:45:53.55	26.57	36.01	-29.0	-29.6	28.4	0.00e+00	0	27	0	1586495488	32	5480
2026-01-12 16:45:54.56	26.62	36.24	-28.7	-29.3	28.6	0.00e+00	0	27	0	1591738368	32	5310
2026-01-12 16:45:55.57	26.67	36.48	-28.7	-29.3	28.6	0.00e+00	0	27	0	1596981248	30	5950
2026-01-12 16:45:56.58	26.72	36.72	-28.5	-29.1	28.8	0.00e+00	0	27	0	1603272704	30	5803
2026-01-12 16:45:57.59	26.77	36.96	-28.6	-29.2	28.7	0.00e+00	0	27	0	1608515584	30	5891
2026-01-12 16:45:58.60	26.82	37.20	-28.4	-29.1	28.9	0.00e+00	0	27	0	1614807040	30	5766
2026-01-12 16:45:59.61	26.88	37.44	-28.4	-29.0	28.9	0.00e+00	0	27	0	1620049920	30	5749
2026-01-12 16:46:00.62	26.93	37.69	-28.4	-29.0	28.8	0.00e+00	0	27	0	1625292800	30	5744
2026-01-12 16:46:01.63	26.98	37.93	-28.4	-29.0	28.9	0.00e+00	0	27	0	1631584256	30	5735
2026-01-12 16:46:02.64	27.04	38.18	-28.5	-29.1	28.8	0.00e+00	0	27	0	1636827136	30	5799
2026-01-12 16:46:03.65	27.09	38.43	-28.5	-29.1	28.8	0.00e+00	0	27	0	1643118592	30	5827
2026-01-12 16:46:04.65	27.15	38.68	-28.6	-29.2	28.8	0.00e+00	0	27	0	1648361472	30	5881
2026-01-12 16:46:05.66	27.21	38.93	-28.7	-29.3	28.7	0.00e+00	0	27	0	1654652928	30	5920
2026-01-12 16:46:06.67	27.26	39.19	-28.8	-29.4	28.6	0.00e+00	0	27	0	1659895808	30	5991
2026-01-12 16:46:07.68	27.32	39.45	-28.8	-29.5	28.5	0.00e+00	0	27	0	1666187264	30	6059
2026-01-12 16:46:08.69	27.38	39.70	-28.9	-29.5	28.5	0.00e+00	0	27	0	1671430144	30	6091
2026-01-12 16:46:09.70	27.44	39.97	-28.6	-29.2	28.7	0.00e+00	0	27	0	1676673024	30	5884
2026-01-12 16:46:10.71	27.50	40.23	-28.7	-29.3	28.7	0.00e+00	0	27	0	1682964480	30	5945
2026-01-12 16:46:11.72	27.57	40.49	-28.6	-29.1	28.7	0.00e+00	0	27	0	1688207360	30	5825
2026-01-12 16:46:12.73	27.63	40.76	-28.6	-29.2	28.8	0.00e+00	0	27	0	1694498816	30	5886
2026-01-12 16:46:13.75	27.69	41.03	-28.8	-29.4	28.6	0.00e+00	0	27	0	1699741696	30	6029
2026-01-12 16:46:14.75	27.76	41.30	-29.0	-29.6	28.4	0.00e+00	0	27	0	1704984576	30	6130
2026-01-12 16:46:15.76	27.83	41.57	-29.2	-29.7	28.4	0.00e+00	0	27	0	1711276032	30	6235
2026-01-12 16:46:16.77	27.89	41.85	-29.2	-29.9	28.3	0.00e+00	0	27	0	1716518912	30	6339
2026-01-12 16:46:17.78	27.96	42.13	-29.2	-29.8	28.3	0.00e+00	0	27	0	1722810368	30	6298
2026-01-12 16:46:18.79	28.03	42.41	-29.2	-29.8	28.3	0.00e+00	0	27	0	1728053248	30	6291
2026-01-12 16:46:19.80	28.10	42.69	-29.2	-29.8	28.4	0.00e+00	0	27	0	1733296128	30	6263
2026-01-12 16:46:20.81	28.17	42.97	-29.2	-29.8	28.4	0.00e+00	0	27	0	1739587584	30	6278
2026-01-12 16:46:21.82	28.25	43.26	-29.1	-29.7	28.3	0.00e+00	0	27	0	1744830464	30	6236
2026-01-12 16:46:22.83	28.32	43.54	-29.0	-29.6	28.5	0.00e+00	0	27	0	1751121920	30	6164
2026-01-12 16:46:23.84	28.40	43.83	-29.0	-29.6	28.5	0.00e+00	0	27	0	1756364800	30	6163
2026-01-12 16:46:24.85	28.48	44.12	-29.2	-29.8	28.3	0.00e+00	0	27	0	1762656256	30	6283
2026-01-12 16:46:25.86	28.55	44.42	-29.3	-29.9	28.3	0.00e+00	0	27	0	1767899136	30	6335
2026-01-12 16:46:26.86	28.63	44.71	-29.4	-30.0	28.2	0.00e+00	0	27	0	1773142016	30	6419
2026-01-12 16:46:27.88	28.71	45.01	-29.3	-29.9	28.2	0.00e+00	0	27	0	1779433472	30	6373
2026-01-12 16:46:28.89	28.80	45.31	-29.4	-30.0	28.2	0.00e+00	0	27	0	1784676352	30	6428
2026-01-12 16:46:29.89	28.88	45.61	-29.5	-30.1	28.1	0.00e+00	0	27	0	1790967808	30	6512
2026-01-12 16:46:30.91	28.97	45.92	-29.8	-30.4	27.9	0.00e+00	0	27	0	1796210688	30	6740
2026-01-12 16:46:31.92	29.05	46.23	-29.9	-30.5	27.7	0.00e+00	0	27	0	1801453568	32	6056
2026-01-12 16:46:32.92	29.14	46.53	-29.7	-30.3	27.8	0.00e+00	0	27	0	1807745024	32	5951
2026-01-12 16:46:33.93	29.23	46.85	-29.5	-30.1	28.1	0.00e+00	0	27	0	1812987904	32	5775
2026-01-12 16:46:34.94	29.33	47.16	-29.2	-29.8	28.3	0.00e+00	0	27	0	1819279360	32	5624
2026-01-12 16:46:35.95	29.42	47.48	-29.1	-29.7	28.5	0.00e+00	0	27	0	1824522240	32	5526
2026-01-12 16:46:36.96	29.52	47.79	-29.1	-29.7	28.4	0.00e+00	0	27	0	1829765120	32	5553
2026-01-12 16:46:37.97	29.61	48.12	-29.0	-29.6	28.5	0.00e+00	0	27	0	1836056576	32	5485
2026-01-12 16:46:38.98	29.71	48.44	-29.0	-29.6	28.4	0.00e+00	0	27	0	1841299456	32	5456
2026-01-12 16:46:39.99	29.82	48.76	-29.1	-29.8	28.3	0.00e+00	0	27	0	1847590912	32	5584
2026-01-12 16:46:41.00	29.92	49.09	-29.2	-29.9	28.3	0.00e+00	0	27	0	1852833792	32	5635
2026-01-12 16:46:42.01	30.03	49.42	-29.1	-29.7	28.4	0.00e+00	0	27	0	1859125248	32	5546
2026-01-12 16:46:43.02	30.14	49.76	-29.2	-29.8	28.3	0.00e+00	0	27	0	1864368128	32	5614
2026-01-12 16:46:44.03	30.25	50.09	-29.4	-30.0	28.1	0.00e+00	0	27	0	1869611008	32	5756
2026-01-12 16:46:45.03	30.36	50.42	-29.7	-30.4	27.9	0.00e+00	0	27	0	1875902464	32	5990
2026-01-12 16:46:46.04	30.47	50.76	-30.0	-30.6	27.8	0.00e+00	0	27	0	1881145344	32	6138
2026-01-12 16:46:47.05	30.59	51.11	-30.0	-30.7	27.6	0.00e+00	0	27	0	1887436800	32	6181
2026-01-12 16:46:48.06	30.71	51.45	-30.1	-30.7	27.7	0.00e+00	0	27	0	1892679680	32	6208
2026-01-12 16:46:49.07	30.84	51.80	-30.1	-30.7	27.7	0.00e+00	0	27	0	1897922560	32	6205
2026-01-12 16:46:50.08	30.96	52.15	-30.0	-30.6	27.7	0.00e+00	0	27	0	1904214016	32	6165
2026-01-12 16:46:51.09	31.09	52.50	-30.3	-30.9	27.5	0.00e+00	0	27	0	1909456896	32	6359
2026-01-12 16:46:52.10	31.23	52.85	-30.4	-31.0	27.4	0.00e+00	0	27	0	1915748352	32	6463
2026-01-12 16:46:53.11	31.36	53.21	-30.3	-31.0	27.5	0.00e+00	0	27	0	1920991232	32	6420
2026-01-12 16:46:54.12	31.50	53.57	-30.4	-31.1	27.4	0.00e+00	0	27	0	1926234112	32	6487
2026-01-12 16:46:55.13	31.64	53.93	-30.6	-31.2	27.3	0.00e+00	0	27	0	1932525568	32	6589
2026-01-12 16:46:56.14	31.79	54.29	-30.3	-30.9	27.6	0.00e+00	0	27	0	1937768448	32	6333
2026-01-12 16:46:57.15	31.94	54.66	-30.2	-30.8	27.5	0.00e+00	0	27	0	1944059904	32	6302
2026-01-12 16:46:58.15	32.09	55.02	-30.5	-31.2	27.3	0.00e+00	0	27	0	1949302784	32	6545
2026-01-12 16:46:59.16	32.25	55.40	-30.7	-31.4	27.2	0.00e+00	0	27	0	1955594240	32	6700
2026-01-12 16:47:00.17	32.41	55.77	-30.7	-31.4	27.2	0.00e+00	0	27	0	1960837120	34	5976
2026-01-12 16:47:01.18	32.57	56.14	-30.5	-31.1	27.3	0.00e+00	0	27	0	1967128576	34	5790
2026-01-12 16:47:02.19	32.74	56.52	-30.6	-31.3	27.1	0.00e+00	0	27	0	1972371456	34	5898
2026-01-12 16:47:03.20	32.92	56.90	-31.0	-31.6	26.9	0.00e+00	0	27	0	1977614336	34	6158
2026-01-12 16:47:04.21	33.10	57.29	-30.8	-31.4	27.0	0.00e+00	0	27	0	1983905792	34	5987
2026-01-12 16:47:05.22	33.28	57.67	-30.3	-30.9	27.6	0.00e+00	0	27	0	1989148672	34	5679
2026-01-12 16:47:06.23	33.47	58.06	-30.0	-30.6	27.7	0.00e+00	0	27	0	1995440128	34	5482
2026-01-12 16:47:07.24	33.67	58.45	-29.7	-30.3	27.9	0.00e+00	0	27	0	2000683008	32	5938
2026-01-12 16:47:08.25	33.87	58.84	-29.5	-30.1	28.1	0.00e+00	0	27	0	2005925888	32	5814
2026-01-12 16:47:09.26	34.07	59.23	-29.4	-30.0	28.0	0.00e+00	0	27	0	2012217344	32	5753
2026-01-12 16:47:10.27	34.29	59.63	-29.9	-30.5	27.8	0.00e+00	0	27	0	2017460224	32	6099
2026-01-12 16:47:11.28	34.51	60.03	-29.8	-30.4	27.9	0.00e+00	0	27	0	2023751680	32	5992
2026-01-12 16:47:12.29	34.73	60.43	-29.9	-30.5	27.8	0.00e+00	0	27	0	2028994560	32	6096
2026-01-12 16:47:13.30	34.97	60.83	-29.3	-29.9	28.2	0.00e+00	0	27	0	2034237440	32	5651
2026-01-12 16:47:14.31	35.21	61.24	-28.8	-29.4	28.3	0.00e+00	0	27	0	2040528896	32	5319
2026-01-12 16:47:15.33	35.46	61.65	-29.0	-29.6	28.3	0.00e+00	0	27	0	2045771776	32	5468
2026-01-12 16:47:16.34	35.71	62.06	-29.3	-30.0	28.3	0.00e+00	0	27	0	2052063232	32	5704
2026-01-12 16:47:17.35	35.98	62.47	-29.1	-29.7	28.5	0.00e+00	0	27	0	2057306112	32	5533
2026-01-12 16:47:18.36	36.25	62.88	-28.5	-29.1	28.8	0.00e+00	0	27	0	2063597568	30	5782
2026-01-12 16:47:19.36	36.54	63.29	-28.3	-28.9	28.9	0.00e+00	0	27	0	2068840448	30	5692
2026-01-12 16:47:20.37	36.83	63.71	-28.9	-29.5	28.5	0.00e+00	0	27	0	2074083328	30	6092
2026-01-12 16:47:21.38	37.13	64.13	-29.1	-29.7	28.4	0.00e+00	0	27	0	2080374784	30	6232
2026-01-12 16:47:22.39	37.45	64.55	-28.5	-29.1	28.9	0.00e+00	0	27	0	2085617664	30	5793
2026-01-12 16:47:23.40	37.78	64.97	-28.5	-29.1	28.8	0.00e+00	0	27	0	2091909120	30	5776
2026-01-12 16:47:24.41	38.12	65.40	-28.6	-29.2	28.7	0.00e+00	0	27	0	2097152000	30	5870
2026-01-12 16:47:25.42	38.47	65.82	-28.4	-29.0	28.9	0.00e+00	0	27	0	2102394880	30	5750
2026-01-12 16:47:26.43	38.84	66.25	-28.3	-28.9	28.9	0.00e+00	0	27	0	2108686336	30	5648
2026-01-12 16:47:27.44	39.22	66.68	-28.2	-28.8	29.1	0.00e+00	0	27	0	2113929216	30	5586
2026-01-12 16:47:28.45	39.62	67.11	-28.1	-28.7	29.1	0.00e+00	0	27	0	2120220672	30	5548
2026-01-12 16:47:29.46	40.03	67.54	-28.6	-29.2	28.7	0.00e+00	0	27	0	2125463552	30	5853
2026-01-12 16:47:30.47	40.46	67.97	-28.7	-29.3	28.7	0.00e+00	0	27	0	2130706432	30	5941
2026-01-12 16:47:31.48	40.91	68.40	-28.8	-29.5	28.7	0.00e+00	0	27	0	2136997888	30	6044
2026-01-12 16:47:32.49	41.38	68.84	-28.8	-29.4	28.6	0.00e+00	0	27	0	2142240768	30	5976
2026-01-12 16:47:33.50	41.87	69.27	-28.6	-29.2	28.7	0.00e+00	0	27	0	2148532224	30	5890
2026-01-12 16:47:34.51	42.39	69.70	-29.1	-29.7	28.4	0.00e+00	0	27	0	2153775104	30	6209
2026-01-12 16:47:35.52	42.92	70.14	-28.7	-29.3	28.7	0.00e+00	0	27	0	2160066560	30	5959
2026-01-12 16:47:36.53	43.49	70.58	-28.1	-28.7	29.1	0.00e+00	0	27	0	2165309440	30	5512
2026-01-12 16:47:37.54	44.08	71.01	-28.3	-28.9	28.9	0.00e+00	0	27	0	2171600896	30	5690
2026-01-12 16:47:38.55	44.70	71.45	-28.0	-28.6	29.2	0.00e+00	0	27	0	2176843776	30	5494
2026-01-12 16:47:39.56	45.35	71.88	-28.0	-28.6	29.2	0.00e+00	0	27	0	2182086656	30	5484
2026-01-12 16:47:40.57	46.03	72.32	-28.1	-28.7	29.1	0.00e+00	0	27	0	2188378112	30	5507
2026-01-12 16:47:41.58	46.75	72.75	-28.4	-29.0	28.9	0.00e+00	0	27	0	2193620992	30	5712
2026-01-12 16:47:42.59	47.51	73.18	-28.2	-28.8	29.0	0.00e+00	0	27	0	2199912448	30	5618
2026-01-12 16:47:43.60	48.31	73.62	-28.0	-28.6	29.2	0.00e+00	0	27	0	2205155328	30	5459
2026-01-12 16:47:44.61	49.16	74.05	-28.0	-28.6	29.2	0.00e+00	0	27	0	2210398208	30	5472
2026-01-12 16:47:45.62	50.06	74.47	-27.9	-28.5	29.3	0.00e+00	0	27	0	2216689664	30	5399
2026-01-12 16:47:46.63	51.00	74.90	-27.5	-28.1	29.5	0.00e+00	0	27	0	2221932544	28	5816
2026-01-12 16:47:47.64	52.01	75.32	-27.1	-27.7	29.8	0.00e+00	0	27	0	2228224000	28	5563
2026-01-12 16:47:48.65	53.08	75.74	-27.0	-27.6	29.7	0.00e+00	0	27	0	2233466880	28	5481
2026-01-12 16:47:49.66	54.21	76.16	-27.2	-27.8	29.6	0.00e+00	0	27	0	2238709760	28	5607
2026-01-12 16:47:50.67	55.42	76.57	-27.1	-27.7	29.7	0.00e+00	0	27	0	2245001216	28	5514
2026-01-12 16:47:51.68	56.70	76.98	-26.9	-27.5	29.9	0.00e+00	0	27	0	2250244096	28	5422
2026-01-12 16:47:52.70	58.08	77.38	-27.2	-27.9	29.6	0.00e+00	0	27	0	2256535552	28	5648
2026-01-12 16:47:53.70	59.52	77.77	-27.4	-28.1	29.4	0.00e+00	0	27	0	2261778432	28	5768
2026-01-12 16:47:54.71	61.08	78.16	-26.8	-27.4	28.1	0.00e+00	0	27	0	2268069888	28	5344
2026-01-12 16:47:55.72	62.75	78.54	-27.0	-27.6	30.0	0.00e+00	0	27	0	2273312768	26	6114
2026-01-12 16:47:56.73	64.53	78.91	-26.9	-27.5	29.8	0.00e+00	0	27	0	2279604224	26	6072
2026-01-12 16:47:57.74	66.43	79.27	-26.4	-27.0	30.1	0.00e+00	0	27	0	2284847104	26	5716
2026-01-12 16:47:58.75	68.46	79.62	-26.5	-27.1	30.1	0.00e+00	0	27	0	2290089984	26	5823
2026-01-12 16:47:59.76	70.64	79.95	-26.8	-27.4	29.8	0.00e+00	0	27	0	2296381440	26	6012
2026-01-12 16:48:00.77	72.96	80.27	-26.6	-27.2	30.1	0.00e+00	0	27	0	2301624320	26	5857
2026-01-12 16:48:01.78	75.44	80.58	-26.6	-27.2	30.1	0.00e+00	0	27	0	2307915776	26	5883
2026-01-12 16:48:02.79	78.09	80.86	-26.6	-27.2	30.0	0.00e+00	0	27	0	2313158656	26	5873
2026-01-12 16:48:03.80	80.90	81.13	-26.5	-27.1	30.2	0.00e+00	0	27	0	2318401536	26	5788
2026-01-12 16:48:04.81	83.88	81.37	-26.7	-27.3	30.1	0.00e+00	0	27	0	2324692992	26	5899
2026-01-12 16:48:05.82	87.02	81.59	-27.1	-27.7	29.8	0.00e+00	0	27	0	2329935872	26	6178
2026-01-12 16:48:06.83	90.33	81.79	-26.8	-27.3	30.1	0.00e+00	0	27	0	2335178752	26	5943
2026-01-12 16:48:07.84	93.79	81.95	-26.7	-27.2	30.0	0.00e+00	0	27	0	2341470208	26	5883
2026-01-12 16:48:08.84	97.34	82.09	-26.7	-27.3	30.1	0.00e+00	0	27	0	2346713088	26	5915
2026-01-12 16:48:09.86	101.08	82.19	-26.7	-27.3	30.0	0.00e+00	0	27	0	2353004544	26	5958
2026-01-12 16:48:10.87	104.86	82.27	-26.8	-27.4	30.0	0.00e+00	0	27	0	2358247424	26	5965
2026-01-12 16:48:11.87	108.67	82.30	-26.5	-27.1	30.0	0.00e+00	0	27	0	2364538880	26	5818
2026-01-12 16:48:12.88	112.53	82.31	-26.6	-27.3	29.9	0.00e+00	0	27	0	2369781760	26	5902
2026-01-12 16:48:13.89	116.38	82.27	-26.7	-27.3	29.9	0.00e+00	0	27	0	2376073216	26	5933
2026-01-12 16:48:14.90	120.17	82.21	-26.5	-27.1	30.0	0.00e+00	0	27	0	2381316096	26	5790
2026-01-12 16:48:15.91	123.89	82.11	-26.5	-27.1	30.1	0.00e+00	0	27	0	2386558976	26	5770
2026-01-12 16:48:16.92	127.51	81.98	-26.4	-27.0	29.8	0.00e+00	0	27	0	2392850432	26	5726
2026-01-12 16:48:17.93	130.99	81.82	-26.4	-27.0	30.1	0.00e+00	0	27	0	2398093312	26	5725
2026-01-12 16:48:18.94	134.33	81.63	-26.6	-27.3	29.6	0.00e+00	0	27	0	2404384768	26	5904
2026-01-12 16:48:19.95	137.50	81.42	-26.7	-27.3	29.9	0.00e+00	0	27	0	2409627648	26	5962
2026-01-12 16:48:20.96	140.52	81.18	-26.3	-27.0	30.2	0.00e+00	0	27	0	2414870528	26	5709
2026-01-12 16:48:21.97	143.36	80.91	-26.2	-26.8	30.3	0.00e+00	0	27	0	2421161984	26	5588
2026-01-12 16:48:22.98	146.04	80.63	-26.4	-27.0	30.2	0.00e+00	0	27	0	2426404864	26	5739
2026-01-12 16:48:23.99	148.55	80.33	-26.5	-27.1	30.2	0.00e+00	0	27	0	2432696320	26	5814
2026-01-12 16:48:25.00	150.90	80.01	-26.3	-27.0	30.2	0.00e+00	0	27	0	2437939200	26	5714
2026-01-12 16:48:26.02	153.13	79.68	-26.8	-27.4	30.0	0.00e+00	0	27	0	2443182080	26	5990
2026-01-12 16:48:27.02	155.17	79.33	-27.1	-27.7	29.8	0.00e+00	0	27	0	2449473536	26	6208
2026-01-12 16:48:28.03	157.09	78.98	-26.7	-27.3	29.9	0.00e+00	0	27	0	2454716416	26	5960
2026-01-12 16:48:29.04	158.90	78.61	-27.0	-27.5	29.9	0.00e+00	0	27	0	2461007872	26	6099
2026-01-12 16:48:30.05	160.58	78.23	-27.3	-27.9	29.7	0.00e+00	0	27	0	2466250752	26	6358
2026-01-12 16:48:31.06	162.16	77.84	-27.1	-27.7	29.7	0.00e+00	0	27	0	2472542208	26	6232
2026-01-12 16:48:32.07	163.64	77.45	-27.0	-27.6	29.8	0.00e+00	0	27	0	2477785088	26	6150
2026-01-12 16:48:33.08	165.02	77.05	-27.0	-27.6	29.9	0.00e+00	0	27	0	2483027968	26	6152
2026-01-12 16:48:34.09	166.32	76.64	-27.1	-27.6	29.8	0.00e+00	0	27	0	2489319424	26	6158
2026-01-12 16:48:35.10	167.54	76.23	-27.1	-27.7	29.7	0.00e+00	0	27	0	2494562304	26	6245
2026-01-12 16:48:36.11	168.68	75.81	-27.3	-27.9	29.7	0.00e+00	0	27	0	2500853760	26	6342
2026-01-12 16:48:37.12	169.76	75.40	-27.4	-28.1	29.6	0.00e+00	0	27	0	2506096640	26	6467
2026-01-12 16:48:38.13	170.78	74.97	-27.4	-28.1	29.5	0.00e+00	0	27	0	2512388096	26	6509
2026-01-12 16:48:39.14	171.74	74.55	-27.7	-28.4	29.4	0.00e+00	0	27	0	2517630976	28	5995
2026-01-12 16:48:40.15	172.64	74.12	-28.0	-28.7	29.2	0.00e+00	0	27	0	2522873856	28	6187
2026-01-12 16:48:41.16	173.50	73.69	-27.7	-28.2	29.4	0.00e+00	0	27	0	2529165312	28	5845
2026-01-12 16:48:42.17	174.31	73.25	-27.7	-28.3	29.3	0.00e+00	0	27	0	2534408192	28	5959
2026-01-12 16:48:43.18	175.08	72.82	-28.0	-28.6	29.1	0.00e+00	0	27	0	2539651072	28	6131
2026-01-12 16:48:44.19	175.81	72.39	-27.8	-28.3	29.3	0.00e+00	0	27	0	2545942528	28	5964
2026-01-12 16:48:45.19	176.49	71.96	-27.8	-28.4	29.2	0.00e+00	0	27	0	2551185408	28	6026
2026-01-12 16:48:46.20	177.15	71.52	-27.9	-28.4	29.2	0.00e+00	0	27	0	2557476864	28	5998
2026-01-12 16:48:47.21	177.77	71.08	-27.7	-28.3	29.3	0.00e+00	0	27	0	2562719744	28	5958
2026-01-12 16:48:48.22	178.37	70.65	-27.6	-28.2	29.4	0.00e+00	0	27	0	2569011200	28	5867
2026-01-12 16:48:49.24	178.94	70.21	-28.0	-28.7	29.1	0.00e+00	0	27	0	2574254080	28	6201
2026-01-12 16:48:50.25	179.49	69.77	-28.2	-28.9	29.0	0.00e+00	0	27	0	2580545536	28	6327
2026-01-12 16:48:51.26	180.00	69.33	-28.1	-28.6	29.1	0.00e+00	0	27	0	2585788416	28	6160
2026-01-12 16:48:52.27	180.50	68.90	-28.3	-28.8	28.9	0.00e+00	0	27	0	2591031296	28	6275
2026-01-12 16:48:53.28	180.97	68.46	-28.5	-29.0	28.8	0.00e+00	0	27	0	2597322752	28	6435
2026-01-12 16:48:54.29	181.43	68.03	-28.3	-28.8	29.0	0.00e+00	0	27	0	2602565632	28	6272
2026-01-12 16:48:55.30	181.86	67.60	-28.2	-28.8	29.1	0.00e+00	0	27	0	2608857088	28	6295
2026-01-12 16:48:56.31	182.28	67.17	-28.3	-29.0	28.9	0.00e+00	0	27	0	2614099968	28	6398
2026-01-12 16:48:57.32	182.68	66.73	-28.5	-29.1	28.8	0.00e+00	0	27	0	2619342848	28	6492
2026-01-12 16:48:58.33	183.06	66.31	-28.3	-28.9	29.0	0.00e+00	0	27	0	2625634304	28	6344
2026-01-12 16:48:59.33	183.43	65.88	-28.0	-28.7	29.1	0.00e+00	0	27	0	2630877184	28	6179
2026-01-12 16:49:00.34	183.78	65.45	-28.1	-28.7	29.1	0.00e+00	0	27	0	2637168640	28	6184
2026-01-12 16:49:01.35	184.13	65.03	-28.7	-29.3	28.5	0.00e+00	0	27	0	2642411520	28	6625
2026-01-12 16:49:02.36	184.46	64.61	-28.7	-29.3	28.6	0.00e+00	0	27	0	2647654400	30	5907
2026-01-12 16:49:03.37	184.77	64.18	-28.7	-29.4	28.7	0.00e+00	0	27	0	2653945856	30	6018
2026-01-12 16:49:04.38	185.08	63.76	-28.7	-29.4	28.6	0.00e+00	0	27	0	2659188736	30	5974
2026-01-12 16:49:05.39	185.38	63.35	-28.7	-29.4	28.6	0.00e+00	0	27	0	2665480192	30	6013
2026-01-12 16:49:06.40	185.66	62.93	-28.8	-29.5	28.5	0.00e+00	0	27	0	2670723072	30	6060
2026-01-12 16:49:07.41	185.94	62.51	-29.0	-29.5	28.5	0.00e+00	0	27	0	2677014528	30	6086
2026-01-12 16:49:08.42	186.21	62.10	-28.9	-29.5	28.4	0.00e+00	0	27	0	2682257408	30	6072
2026-01-12 16:49:09.43	186.46	61.69	-28.9	-29.5	28.6	0.00e+00	0	27	0	2688548864	30	6073
2026-01-12 16:49:10.44	186.72	61.28	-28.9	-29.5	28.6	0.00e+00	0	27	0	2693791744	30	6059
2026-01-12 16:49:11.45	186.96	60.88	-29.2	-29.8	28.3	0.00e+00	0	27	0	2699034624	30	6268
2026-01-12 16:49:12.46	187.19	60.47	-29.3	-30.0	28.2	0.00e+00	0	27	0	2705326080	30	6405
2026-01-12 16:49:13.47	187.42	60.07	-28.9	-29.5	28.5	0.00e+00	0	27	0	2710568960	30	6044
2026-01-12 16:49:14.48	187.64	59.67	-28.7	-29.4	28.7	0.00e+00	0	27	0	2715811840	30	5975
2026-01-12 16:49:15.49	187.85	59.27	-28.9	-29.6	28.5	0.00e+00	0	27	0	2722103296	30	6126
2026-01-12 16:49:16.50	188.06	58.88	-29.2	-29.8	28.2	0.00e+00	0	27	0	2727346176	30	6258
2026-01-12 16:49:17.51	188.26	58.48	-29.4	-30.0	28.2	0.00e+00	0	27	0	2733637632	30	6419
2026-01-12 16:49:18.52	188.46	58.09	-29.2	-29.8	28.3	0.00e+00	0	27	0	2738880512	30	6272
2026-01-12 16:49:19.53	188.65	57.70	-29.0	-29.7	28.5	0.00e+00	0	27	0	2744123392	30	6211
2026-01-12 16:49:20.54	188.84	57.32	-29.3	-29.8	28.3	0.00e+00	0	27	0	2750414848	30	6284
2026-01-12 16:49:21.55	189.02	56.93	-29.8	-30.5	27.9	0.00e+00	0	27	0	2755657728	30	6785
2026-01-12 16:49:22.56	189.19	56.55	-30.1	-30.8	27.7	0.00e+00	0	27	0	2761949184	32	6264
2026-01-12 16:49:23.56	189.36	56.17	-30.3	-30.8	27.5	0.00e+00	0	27	0	2767192064	32	6304
2026-01-12 16:49:24.57	189.53	55.80	-30.3	-31.0	27.2	0.00e+00	0	27	0	2773483520	32	6448
2026-01-12 16:49:25.58	189.69	55.42	-30.4	-31.1	26.9	0.00e+00	0	27	0	2778726400	32	6474
2026-01-12 16:49:26.59	189.85	55.05	-30.5	-31.0	27.2	0.00e+00	0	27	0	2785017856	32	6460
2026-01-12 16:49:27.60	190.00	54.68	-30.3	-31.0	27.2	0.00e+00	0	27	0	2790260736	32	6431
2026-01-12 16:49:28.61	190.15	54.31	-30.0	-30.6	27.5	0.00e+00	0	27	0	2795503616	32	6125
2026-01-12 16:49:29.62	190.30	53.95	-29.8	-30.4	27.8	0.00e+00	0	27	0	2801795072	32	6019
2026-01-12 16:49:30.63	190.44	53.58	-29.6	-30.3	27.9	0.00e+00	0	27	0	2807037952	32	5946
2026-01-12 16:49:31.64	190.58	53.22	-29.9	-30.4	27.7	0.00e+00	0	27	0	2813329408	32	6016
2026-01-12 16:49:32.65	190.71	52.86	-30.0	-30.5	27.7	0.00e+00	0	27	0	2818572288	32	6087
2026-01-12 16:49:33.66	190.85	52.51	-30.2	-30.8	27.5	0.00e+00	0	27	0	2823815168	32	6255
2026-01-12 16:49:34.66	190.98	52.16	-30.1	-30.7	27.7	0.00e+00	0	27	0	2830106624	32	6209
2026-01-12 16:49:35.68	191.10	51.80	-30.0	-30.6	27.8	0.00e+00	0	27	0	2835349504	32	6140
2026-01-12 16:49:36.69	191.23	51.46	-29.9	-30.6	27.8	0.00e+00	0	27	0	2841640960	32	6111
2026-01-12 16:49:37.69	191.35	51.11	-29.5	-30.0	28.1	0.00e+00	0	27	0	2846883840	32	5727
2026-01-12 16:49:38.71	191.47	50.77	-29.4	-29.9	28.2	0.00e+00	0	27	0	2852126720	32	5680
2026-01-12 16:49:39.71	191.58	50.43	-29.4	-29.9	28.2	0.00e+00	0	27	0	2858418176	32	5692
2026-01-12 16:49:40.72	191.70	50.09	-29.5	-30.1	28.1	0.00e+00	0	27	0	2863661056	32	5791
2026-01-12 16:49:41.73	191.81	49.75	-29.3	-29.8	28.2	0.00e+00	0	27	0	2869952512	32	5604
2026-01-12 16:49:42.74	191.92	49.42	-29.2	-29.8	28.3	0.00e+00	0	27	0	2875195392	32	5572
2026-01-12 16:49:43.75	192.02	49.09	-29.1	-29.8	28.3	0.00e+00	0	27	0	2881486848	32	5614
2026-01-12 16:49:44.76	192.13	48.76	-29.0	-29.7	28.5	0.00e+00	0	27	0	2886729728	32	5531
2026-01-12 16:49:45.77	192.23	48.43	-29.0	-29.6	28.4	0.00e+00	0	27	0	2891972608	32	5452
2026-01-12 16:49:46.78	192.33	48.11	-29.0	-29.5	28.5	0.00e+00	0	27	0	2898264064	32	5436
2026-01-12 16:49:47.79	192.43	47.78	-29.0	-29.5	28.5	0.00e+00	0	27	0	2903506944	32	5411
2026-01-12 16:49:48.80	192.52	47.46	-28.9	-29.4	28.5	0.00e+00	0	27	0	2909798400	32	5347
2026-01-12 16:49:49.81	192.62	47.15	-28.7	-29.2	28.7	0.00e+00	0	27	0	2915041280	30	5889
2026-01-12 16:49:50.82	192.71	46.83	-28.7	-29.2	28.7	0.00e+00	0	27	0	2920284160	30	5855
2026-01-12 16:49:51.83	192.80	46.52	-28.6	-29.2	28.6	0.00e+00	0	27	0	2926575616	30	5838
2026-01-12 16:49:52.84	192.89	46.21	-28.8	-29.4	28.5	0.00e+00	0	27	0	2931818496	30	6023
2026-01-12 16:49:53.85	192.98	45.90	-28.9	-29.6	28.5	0.00e+00	0	27	0	2938109952	30	6113
2026-01-12 16:49:54.86	193.06	45.59	-28.9	-29.6	28.6	0.00e+00	0	27	0	2943352832	30	6141
2026-01-12 16:49:55.86	193.15	45.29	-29.2	-29.8	28.3	0.00e+00	0	27	0	2948595712	30	6312
2026-01-12 16:49:56.87	193.23	44.99	-29.3	-29.9	28.2	0.00e+00	0	27	0	2954887168	30	6321
2026-01-12 16:49:57.88	193.31	44.69	-29.5	-30.2	28.1	0.00e+00	0	27	0	2960130048	30	6596
2026-01-12 16:49:58.89	193.39	44.39	-29.4	-30.1	28.1	0.00e+00	0	27	0	2966421504	30	6511
2026-01-12 16:49:59.90	193.47	44.10	-29.4	-29.9	28.2	0.00e+00	0	27	0	2971664384	30	6390
2026-01-12 16:50:00.91	193.55	43.80	-29.1	-29.8	28.3	0.00e+00	0	27	0	2977955840	30	6274
2026-01-12 16:50:01.92	193.62	43.51	-29.1	-29.6	28.3	0.00e+00	0	27	0	2983198720	30	6139
2026-01-12 16:50:02.93	193.70	43.22	-28.8	-29.4	28.5	0.00e+00	0	27	0	2989490176	30	5967
2026-01-12 16:50:03.94	193.77	42.94	-28.9	-29.4	28.5	0.00e+00	0	27	0	2994733056	30	6021
2026-01-12 16:50:04.95	193.84	42.65	-28.7	-29.2	28.6	0.00e+00	0	27	0	2999975936	30	5871
2026-01-12 16:50:05.96	193.91	42.37	-28.6	-29.2	28.7	0.00e+00	0	27	0	3006267392	30	5848
2026-01-12 16:50:06.97	193.98	42.09	-28.6	-29.2	28.7	0.00e+00	0	27	0	3011510272	30	5831
2026-01-12 16:50:07.98	194.05	41.81	-28.8	-29.3	28.6	0.00e+00	0	27	0	3017801728	30	5932
2026-01-12 16:50:08.99	194.12	41.54	-28.8	-29.4	28.6	0.00e+00	0	27	0	3023044608	30	5965
2026-01-12 16:50:10.00	194.19	41.26	-28.5	-29.1	28.8	0.00e+00	0	27	0	3028287488	30	5776
2026-01-12 16:50:11.01	194.25	40.99	-28.6	-29.1	28.7	0.00e+00	0	27	0	3034578944	30	5811
2026-01-12 16:50:12.02	194.32	40.72	-28.6	-29.1	28.8	0.00e+00	0	27	0	3039821824	30	5806
2026-01-12 16:50:13.03	194.38	40.45	-28.7	-29.4	28.7	0.00e+00	0	27	0	3046113280	30	5990
2026-01-12 16:50:14.04	194.44	40.18	-28.7	-29.2	28.6	0.00e+00	0	27	0	3051356160	30	5889
2026-01-12 16:50:15.05	194.50	39.92	-28.6	-29.1	28.8	0.00e+00	0	27	0	3056599040	30	5807
2026-01-12 16:50:16.06	194.56	39.66	-28.5	-29.0	28.8	0.00e+00	0	27	0	3062890496	30	5733
2026-01-12 16:50:17.07	194.62	39.40	-28.5	-29.0	28.8	0.00e+00	0	27	0	3068133376	30	5760
2026-01-12 16:50:18.08	194.68	39.14	-28.6	-29.1	28.8	0.00e+00	0	27	0	3074424832	30	5787
2026-01-12 16:50:19.09	194.74	38.88	-28.6	-29.1	28.7	0.00e+00	0	27	0	3079667712	30	5822
2026-01-12 16:50:20.09	194.79	38.63	-28.7	-29.2	28.7	0.00e+00	0	27	0	3085959168	30	5877
2026-01-12 16:50:21.10	194.85	38.38	-28.7	-29.3	28.7	0.00e+00	0	27	0	3091202048	30	5908
2026-01-12 16:50:22.11	194.91	38.13	-28.5	-29.2	28.8	0.00e+00	0	27	0	3096444928	30	5851
2026-01-12 16:50:23.12	194.96	37.88	-28.5	-29.0	28.8	0.00e+00	0	27	0	3102736384	30	5758
2026-01-12 16:50:24.13	195.01	37.63	-28.5	-29.1	28.9	0.00e+00	0	27	0	3107979264	30	5812
2026-01-12 16:50:25.14	195.07	37.38	-28.3	-29.0	28.9	0.00e+00	0	27	0	3114270720	30	5735
2026-01-12 16:50:26.15	195.12	37.14	-28.3	-28.9	28.9	0.00e+00	0	27	0	3119513600	30	5693
2026-01-12 16:50:27.16	195.17	36.90	-28.2	-28.9	29.1	0.00e+00	0	27	0	3124756480	30	5657
2026-01-12 16:50:28.17	195.22	36.66	-28.4	-29.1	28.8	0.00e+00	0	27	0	3131047936	30	5804
2026-01-12 16:50:29.17	195.27	36.42	-28.3	-29.0	28.9	0.00e+00	0	27	0	3136290816	30	5703
2026-01-12 16:50:30.18	195.32	36.18	-28.5	-29.2	28.8	0.00e+00	0	27	0	3142582272	30	5844
2026-01-12 16:50:31.19	195.37	35.95	-28.4	-29.1	28.8	0.00e+00	0	27	0	3147825152	30	5806
2026-01-12 16:50:32.21	195.42	35.71	-28.5	-29.2	28.8	0.00e+00	0	27	0	3153068032	30	5876
2026-01-12 16:50:33.22	195.47	35.48	-28.5	-29.2	28.8	0.00e+00	0	27	0	3159359488	30	5883
2026-01-12 16:50:34.22	195.51	35.25	-28.6	-29.3	28.8	0.00e+00	0	27	0	3164602368	30	5918
2026-01-12 16:50:35.23	195.56	35.03	-28.6	-29.3	28.8	0.00e+00	0	27	0	3170893824	30	5919
2026-01-12 16:50:36.24	195.61	34.80	-28.6	-29.3	28.7	0.00e+00	0	27	0	3176136704	30	5951
2026-01-12 16:50:37.25	195.65	34.57	-28.7	-29.4	28.8	0.00e+00	0	27	0	3182428160	30	5979
2026-01-12 16:50:38.26	195.70	34.35	-28.6	-29.1	28.8	0.00e+00	0	27	0	3187671040	30	5797
2026-01-12 16:50:39.27	195.74	34.13	-28.7	-29.2	28.7	0.00e+00	0	27	0	3192913920	30	5862
2026-01-12 16:50:40.28	195.78	33.91	-28.6	-29.3	28.6	0.00e+00	0	27	0	3199205376	30	5923
2026-01-12 16:50:41.29	195.83	33.69	-28.5	-29.1	28.8	0.00e+00	0	27	0	3204448256	30	5826
2026-01-12 16:50:42.30	195.87	33.47	-28.7	-29.2	28.7	0.00e+00	0	27	0	3210739712	30	5862
2026-01-12 16:50:43.31	195.91	33.25	-28.6	-29.1	28.7	0.00e+00	0	27	0	3215982592	30	5828
2026-01-12 16:50:44.32	195.95	33.04	-28.6	-29.1	28.7	0.00e+00	0	27	0	3221225472	30	5824
2026-01-12 16:50:45.33	195.99	32.83	-28.7	-29.3	28.7	0.00e+00	0	27	0	3227516928	30	5904
2026-01-12 16:50:46.34	196.03	32.62	-28.7	-29.2	28.6	0.00e+00	0	27	0	3232759808	30	5887
2026-01-12 16:50:47.35	196.07	32.41	-28.9	-29.4	28.4	0.00e+00	0	27	0	3239051264	30	6000
2026-01-12 16:50:48.36	196.11	32.20	-28.8	-29.4	28.5	0.00e+00	0	27	0	3244294144	30	5983
2026-01-12 16:50:49.37	196.15	31.99	-29.0	-29.6	28.4	0.00e+00	0	27	0	3249537024	30	6118
2026-01-12 16:50:50.38	196.19	31.78	-28.9	-29.4	28.5	0.00e+00	0	27	0	3255828480	30	5989
2026-01-12 16:50:51.39	196.23	31.58	-29.0	-29.6	28.3	0.00e+00	0	27	0	3261071360	30	6137
2026-01-12 16:50:52.40	196.27	31.38	-29.0	-29.5	28.4	0.00e+00	0	27	0	3267362816	30	6095
2026-01-12 16:50:53.41	196.30	31.18	-29.1	-29.8	28.3	0.00e+00	0	27	0	3272605696	30	6270
2026-01-12 16:50:54.42	196.34	30.98	-29.0	-29.7	28.5	0.00e+00	0	27	0	3278897152	30	6198
2026-01-12 16:50:55.43	196.38	30.78	-29.1	-29.8	28.4	0.00e+00	0	27	0	3284140032	30	6294
2026-01-12 16:50:56.44	196.41	30.58	-29.1	-29.6	28.4	0.00e+00	0	27	0	3290431488	30	6170
2026-01-12 16:50:57.45	196.45	30.38	-29.1	-29.7	28.4	0.00e+00	0	27	0	3295674368	30	6194
2026-01-12 16:50:58.46	196.48	30.19	-29.1	-29.7	28.3	0.00e+00	0	27	0	3300917248	30	6193
2026-01-12 16:50:59.47	196.52	30.00	-29.2	-29.8	28.2	0.00e+00	0	27	0	3307208704	30	6256
2026-01-12 16:51:00.48	196.55	29.80	-29.2	-29.8	28.3	0.00e+00	0	27	0	3312451584	30	6262
2026-01-12 16:51:01.48	196.59	29.61	-29.2	-29.9	28.2	0.00e+00	0	27	0	3318743040	30	6358
2026-01-12 16:51:02.49	196.62	29.42	-29.3	-30.0	28.2	0.00e+00	0	27	0	3323985920	30	6398
2026-01-12 16:51:03.50	196.66	29.24	-29.3	-30.0	28.2	0.00e+00	0	27	0	3329228800	30	6414
2026-01-12 16:51:04.51	196.69	29.05	-29.4	-30.1	28.1	0.00e+00	0	27	0	3335520256	30	6530
2026-01-12 16:51:05.52	196.72	28.86	-29.2	-29.9	28.2	0.00e+00	0	27	0	3340763136	30	6354
2026-01-12 16:51:06.53	196.75	28.68	-29.4	-30.0	28.1	0.00e+00	0	27	0	3347054592	30	6407
2026-01-12 16:51:07.54	196.79	28.50	-29.3	-30.0	28.2	0.00e+00	0	27	0	3352297472	30	6414
2026-01-12 16:51:08.55	196.82	28.31	-29.2	-29.9	28.2	0.00e+00	0	27	0	3357540352	30	6366
2026-01-12 16:51:09.56	196.85	28.13	-29.1	-29.6	28.3	0.00e+00	0	27	0	3363831808	30	6168
2026-01-12 16:51:10.57	196.88	27.95	-29.0	-29.6	28.3	0.00e+00	0	27	0	3369074688	30	6128
2026-01-12 16:51:11.58	196.91	27.77	-29.1	-29.6	28.4	0.00e+00	0	27	0	3375366144	30	6156
2026-01-12 16:51:12.59	196.94	27.60	-29.1	-29.6	28.4	0.00e+00	0	27	0	3380609024	30	6138
2026-01-12 16:51:13.60	196.97	27.42	-28.9	-29.4	28.5	0.00e+00	0	27	0	3385851904	30	6001
2026-01-12 16:51:14.61	197.00	27.24	-29.0	-29.5	28.4	0.00e+00	0	27	0	3392143360	30	6068
2026-01-12 16:51:15.62	197.03	27.07	-29.0	-29.5	28.4	0.00e+00	0	27	0	3397386240	30	6099
2026-01-12 16:51:16.63	197.06	26.90	-28.9	-29.5	28.4	0.00e+00	0	27	0	3403677696	30	6046
2026-01-12 16:51:17.64	197.09	26.72	-29.0	-29.6	28.4	0.00e+00	0	27	0	3408920576	30	6108
2026-01-12 16:51:18.65	197.12	26.55	-29.0	-29.5	28.4	0.00e+00	0	27	0	3415212032	30	6103
2026-01-12 16:51:19.66	197.15	26.38	-29.1	-29.6	28.5	0.00e+00	0	27	0	3420454912	30	6132
2026-01-12 16:51:20.67	197.18	26.21	-29.2	-29.7	28.2	0.00e+00	0	27	0	3425697792	30	6210
2026-01-12 16:51:21.68	197.21	26.05	-29.3	-29.8	28.3	0.00e+00	0	27	0	3431989248	30	6284
2026-01-12 16:51:22.69	197.23	25.88	-29.2	-29.7	28.2	0.00e+00	0	27	0	3437232128	30	6229
2026-01-12 16:51:23.70	197.26	25.71	-29.4	-29.9	28.2	0.00e+00	0	27	0	3443523584	30	6360
2026-01-12 16:51:24.70	197.29	25.55	-29.3	-29.8	28.2	0.00e+00	0	27	0	3448766464	30	6303
2026-01-12 16:51:25.71	197.31	25.39	-29.4	-30.0	28.0	0.00e+00	0	27	0	3454009344	30	6418
2026-01-12 16:51:26.72	197.34	25.22	-29.4	-30.0	28.1	0.00e+00	0	27	0	3460300800	30	6405
2026-01-12 16:51:27.73	197.37	25.06	-29.5	-30.1	28.0	0.00e+00	0	27	0	3465543680	30	6485
2026-01-12 16:51:28.74	197.39	24.90	-29.5	-30.0	28.0	0.00e+00	0	27	0	3471835136	30	6443
2026-01-12 16:51:29.74	197.42	24.74	-29.4	-30.2	28.1	0.00e+00	0	27	0	3477078016	30	6541
2026-01-12 16:51:30.76	197.45	24.58	-29.6	-30.3	27.9	0.00e+00	0	27	0	3483369472	30	6689
2026-01-12 16:51:31.77	197.47	24.43	-29.5	-30.2	28.0	0.00e+00	0	27	0	3488612352	30	6590
2026-01-12 16:51:32.78	197.50	24.27	-29.7	-30.3	27.8	0.00e+00	0	27	0	3493855232	30	6646
2026-01-12 16:51:33.79	197.52	24.11	-29.4	-30.0	28.0	0.00e+00	0	27	0	3500146688	30	6406
2026-01-12 16:51:34.79	197.55	23.96	-29.6	-30.1	27.9	0.00e+00	0	27	0	3505389568	30	6527
2026-01-12 16:51:35.80	197.57	23.80	-29.4	-29.9	28.1	0.00e+00	0	27	0	3511681024	30	6384
2026-01-12 16:51:36.81	197.60	23.65	-29.3	-29.9	28.3	0.00e+00	0	27	0	3516923904	30	6326
2026-01-12 16:51:37.82	197.62	23.50	-29.3	-30.0	28.1	0.00e+00	0	27	0	3522166784	30	6447
2026-01-12 16:51:38.83	197.65	23.35	-29.3	-30.0	28.1	0.00e+00	0	27	0	3528458240	30	6436
2026-01-12 16:51:39.84	197.67	23.20	-29.5	-30.2	28.0	0.00e+00	0	27	0	3533701120	30	6575
2026-01-12 16:51:40.85	197.69	23.05	-29.3	-30.0	28.2	0.00e+00	0	27	0	3539992576	30	6431
2026-01-12 16:51:41.86	197.72	22.90	-29.3	-30.0	28.1	0.00e+00	0	27	0	3545235456	30	6439
2026-01-12 16:51:42.86	197.74	22.75	-29.4	-30.1	28.0	0.00e+00	0	27	0	3550478336	30	6518
2026-01-12 16:51:43.87	197.76	22.60	-29.4	-30.1	28.1	0.00e+00	0	27	0	3556769792	30	6506
2026-01-12 16:51:44.88	197.79	22.46	-29.4	-29.9	28.1	0.00e+00	0	27	0	3562012672	30	6370
2026-01-12 16:51:45.89	197.81	22.31	-29.6	-30.1	27.8	0.00e+00	0	27	0	3568304128	30	6507
2026-01-12 16:51:46.90	197.83	22.17	-29.6	-30.1	28.0	0.00e+00	0	27	0	3573547008	30	6521
2026-01-12 16:51:47.91	197.86	22.02	-29.6	-30.2	28.0	0.00e+00	0	27	0	3578789888	30	6556
2026-01-12 16:51:48.92	197.88	21.88	-29.6	-30.1	28.0	0.00e+00	0	27	0	3585081344	30	6533
2026-01-12 16:51:49.93	197.90	21.74	-29.6	-30.2	27.9	0.00e+00	0	27	0	3590324224	30	6549
2026-01-12 16:51:50.94	197.92	21.60	-29.7	-30.3	27.8	0.00e+00	0	27	0	3596615680	32	5914
2026-01-12 16:51:51.95	197.94	21.46	-29.8	-30.3	27.8	0.00e+00	0	27	0	3601858560	32	5943
2026-01-12 16:51:52.96	197.97	21.32	-29.9	-30.5	27.7	0.00e+00	0	27	0	3608150016	32	6055
2026-01-12 16:51:53.97	197.99	21.18	-29.8	-30.4	27.8	0.00e+00	0	27	0	3613392896	32	5977
2026-01-12 16:51:54.98	198.01	21.04	-30.0	-30.6	27.5	0.00e+00	0	27	0	3618635776	32	6118
2026-01-12 16:51:55.99	198.03	20.90	-29.9	-30.4	27.7	0.00e+00	0	27	0	3624927232	32	6025
2026-01-12 16:51:57.00	198.05	20.77	-29.9	-30.5	27.6	0.00e+00	0	27	0	3630170112	32	6050
2026-01-12 16:51:58.01	198.07	20.63	-30.1	-30.6	27.6	0.00e+00	0	27	0	3636461568	32	6158
2026-01-12 16:51:59.02	198.09	20.49	-30.1	-30.7	27.5	0.00e+00	0	27	0	3641704448	32	6210
2026-01-12 16:52:00.03	198.11	20.36	-30.4	-31.1	27.2	0.00e+00	0	27	0	3646947328	32	6513
