passes_logs/2026/01/12/R4.6S_Anadyr/R4.6S_Anadyr__20260112_172102_SUOMI_NPP_rec.log

#Pass ID: 20260112_172102_SUOMI NPP
#Satellite: SUOMI NPP
#Configuration: NPP
#almurnet v.1.7.20251203
#Start time: 2026-01-12 17:21:04

#Version: 2.2.20231116
#Station: R4.6S_Anadyr
#Location: 177.4865 lon 64.73178 lat
#TLE: 1 37849U 11061A   26011.57971124  .00000103  00000+0  69927-4 0  9996
#TLE: 2 37849  98.7807 313.6578 0002518  69.5076 290.6370 14.19524515736228

#Time	Az	El	Level	Level2	SNR	BER	BlckErr	Temp	State	Recorded	gain1	gain2
2026-01-12 17:21:04.13	30.78	0.11	-48.2	-59.9	3.5	8.45e-01	0	25	0	0	60	35717
2026-01-12 17:21:05.14	30.72	0.16	-48.6	-63.7	3.6	1.51e+00	0	26	104	0	60	55574
2026-01-12 17:21:06.14	30.67	0.22	-48.6	-63.9	3.6	1.51e+00	0	26	104	0	60	56499
2026-01-12 17:21:07.15	30.61	0.27	-48.3	-63.6	3.6	1.51e+00	0	26	104	0	60	55007
2026-01-12 17:21:08.16	30.55	0.33	-48.4	-63.6	3.6	1.51e+00	0	26	104	0	60	54862
2026-01-12 17:21:09.17	30.50	0.38	-48.5	-63.7	3.6	1.51e+00	0	26	104	0	60	55259
2026-01-12 17:21:10.19	30.44	0.44	-48.4	-63.7	3.5	1.51e+00	0	26	104	0	60	55367
2026-01-12 17:21:11.19	30.38	0.49	-48.4	-63.6	3.6	1.51e+00	0	26	104	0	60	54702
2026-01-12 17:21:12.20	30.32	0.55	-48.4	-63.6	3.6	1.51e+00	0	26	104	0	60	54486
2026-01-12 17:21:13.21	30.26	0.60	-48.3	-63.4	3.6	1.51e+00	0	26	104	0	60	53751
2026-01-12 17:21:14.22	30.21	0.66	-48.2	-63.4	3.6	1.51e+00	0	26	104	0	60	53496
2026-01-12 17:21:15.23	30.15	0.71	-48.1	-63.3	3.6	1.51e+00	0	26	104	0	60	52665
2026-01-12 17:21:16.24	30.09	0.77	-48.0	-63.1	3.6	1.51e+00	0	26	104	0	60	51751
2026-01-12 17:21:17.25	30.03	0.82	-47.9	-63.0	3.6	1.51e+00	0	26	104	0	60	51171
2026-01-12 17:21:18.26	29.97	0.88	-47.7	-62.9	3.6	1.51e+00	0	26	104	0	60	50404
2026-01-12 17:21:19.27	29.91	0.93	-47.6	-62.7	3.6	1.51e+00	0	26	104	0	60	49409
2026-01-12 17:21:20.28	29.85	0.99	-47.2	-62.4	3.6	1.51e+00	0	26	104	0	60	47544
2026-01-12 17:21:21.29	29.79	1.04	-46.8	-61.9	3.6	1.51e+00	0	26	104	0	60	45025
2026-01-12 17:21:22.30	29.73	1.10	-46.7	-61.8	3.6	1.51e+00	0	26	104	0	60	44683
2026-01-12 17:21:23.31	29.67	1.16	-46.7	-61.8	3.6	1.51e+00	0	26	104	0	60	44585
2026-01-12 17:21:24.31	29.61	1.21	-46.7	-61.8	3.6	1.51e+00	0	27	104	0	60	44688
2026-01-12 17:21:25.32	29.55	1.27	-46.7	-61.8	3.6	1.51e+00	0	26	104	0	60	44532
2026-01-12 17:21:26.33	29.48	1.32	-46.7	-61.8	3.6	1.51e+00	0	26	104	0	60	44648
2026-01-12 17:21:27.34	29.42	1.38	-46.7	-61.9	3.6	1.51e+00	0	26	104	0	60	44858
2026-01-12 17:21:28.36	29.36	1.44	-46.7	-61.8	3.6	1.51e+00	0	26	104	0	60	44500
2026-01-12 17:21:29.36	29.30	1.49	-46.7	-61.8	3.6	1.51e+00	0	26	104	0	60	44485
2026-01-12 17:21:30.37	29.24	1.55	-46.7	-61.9	3.6	1.51e+00	0	27	104	0	60	44759
2026-01-12 17:21:31.38	29.17	1.60	-46.7	-61.9	3.6	1.51e+00	0	27	104	0	60	44765
2026-01-12 17:21:32.40	29.11	1.66	-46.7	-61.9	3.6	1.51e+00	0	27	104	0	60	44821
2026-01-12 17:21:33.40	29.05	1.72	-46.7	-61.9	3.6	1.51e+00	0	27	104	0	60	44800
2026-01-12 17:21:34.41	28.98	1.77	-46.7	-61.9	3.6	1.51e+00	0	26	104	0	60	44740
2026-01-12 17:21:35.42	28.92	1.83	-46.7	-61.9	3.6	1.51e+00	0	27	104	0	60	44899
2026-01-12 17:21:36.43	28.85	1.89	-46.7	-61.9	3.6	1.51e+00	0	27	104	0	60	44884
2026-01-12 17:21:37.44	28.79	1.94	-46.7	-61.9	3.6	1.51e+00	0	27	104	0	60	44829
2026-01-12 17:21:38.45	28.73	2.00	-46.7	-61.9	3.6	1.51e+00	0	27	104	0	60	44840
2026-01-12 17:21:39.46	28.66	2.06	-46.7	-61.8	3.6	1.51e+00	0	27	104	0	60	44292
2026-01-12 17:21:40.47	28.60	2.11	-46.7	-61.7	3.6	1.51e+00	0	27	104	0	60	43776
2026-01-12 17:21:41.48	28.53	2.17	-46.7	-61.6	3.6	1.51e+00	0	27	104	0	60	43673
2026-01-12 17:21:42.49	28.47	2.23	-46.7	-61.6	3.6	1.51e+00	0	27	104	0	60	43613
2026-01-12 17:21:43.50	28.40	2.29	-46.7	-61.7	3.6	1.51e+00	0	27	104	0	60	44012
2026-01-12 17:21:44.51	28.33	2.34	-46.7	-61.8	3.6	1.51e+00	0	27	104	0	60	44623
2026-01-12 17:21:45.52	28.27	2.40	-46.7	-61.9	3.6	1.51e+00	0	27	104	0	60	44855
2026-01-12 17:21:46.53	28.20	2.46	-46.7	-61.9	3.6	1.51e+00	0	27	104	0	60	44816
2026-01-12 17:21:47.54	28.13	2.52	-46.7	-61.9	3.6	1.51e+00	0	27	104	0	60	44734
2026-01-12 17:21:48.55	28.07	2.57	-46.7	-61.8	3.6	1.51e+00	0	27	104	0	60	44693
2026-01-12 17:21:49.56	28.00	2.63	-46.7	-61.9	3.6	1.51e+00	0	27	104	0	60	44827
2026-01-12 17:21:50.57	27.93	2.69	-46.7	-61.8	3.6	1.51e+00	0	27	104	0	60	44425
2026-01-12 17:21:51.58	27.86	2.75	-46.7	-61.5	3.6	1.51e+00	0	27	104	0	60	43039
2026-01-12 17:21:52.59	27.79	2.80	-46.7	-61.2	3.6	1.51e+00	0	27	104	0	60	41284
2026-01-12 17:21:53.60	27.72	2.86	-46.7	-61.1	3.6	1.51e+00	0	27	104	0	60	41147
2026-01-12 17:21:54.61	27.66	2.92	-46.7	-61.4	3.6	1.51e+00	0	27	104	0	60	42388
2026-01-12 17:21:55.62	27.59	2.98	-46.7	-61.6	3.6	1.51e+00	0	27	104	0	60	43559
2026-01-12 17:21:56.63	27.52	3.04	-46.7	-61.2	3.6	1.51e+00	0	27	104	0	60	41325
2026-01-12 17:21:57.64	27.45	3.10	-46.6	-59.2	3.7	1.51e+00	0	27	104	0	60	32883
2026-01-12 17:21:58.65	27.38	3.15	-46.2	-55.5	5.4	1.08e+00	0	27	104	0	60	21649
2026-01-12 17:21:59.66	27.31	3.21	-45.9	-52.6	7.2	3.02e-01	0	27	0	1048576	60	15497
2026-01-12 17:22:00.67	27.24	3.27	-45.5	-51.2	9.1	4.02e-02	0	27	0	3145728	60	13171
2026-01-12 17:22:01.67	27.17	3.33	-45.1	-50.2	10.2	1.32e-02	0	27	0	5242880	60	11686
2026-01-12 17:22:02.68	27.09	3.39	-45.9	-52.9	4.8	5.47e-03	48	27	0	6291456	60	15877
2026-01-12 17:22:03.69	27.02	3.45	-43.9	-47.3	13.9	2.28e-01	0	27	104	6291456	60	8339
2026-01-12 17:22:04.70	26.95	3.51	-46.7	-61.7	3.6	2.95e-03	0	27	104	7340032	60	43884
2026-01-12 17:22:05.71	26.88	3.57	-46.3	-54.7	4.4	1.51e+00	0	27	104	7340032	60	19592
2026-01-12 17:22:06.72	26.81	3.62	-41.9	-44.1	16.5	2.63e-04	0	27	0	7340032	56	7267
2026-01-12 17:22:07.73	26.73	3.68	-42.0	-44.1	16.8	0.00e+00	0	27	0	9437184	58	6537
2026-01-12 17:22:08.74	26.66	3.74	-41.6	-43.6	17.3	0.00e+00	0	27	0	10485760	56	6892
2026-01-12 17:22:09.75	26.59	3.80	-41.7	-43.7	17.3	0.00e+00	31	27	0	12582912	56	6980
2026-01-12 17:22:10.76	26.51	3.86	-41.5	-43.4	17.5	0.00e+00	0	27	0	14680064	56	6751
2026-01-12 17:22:11.76	26.44	3.92	-41.1	-42.9	17.9	0.00e+00	34	27	0	16777216	56	6381
2026-01-12 17:22:12.77	26.36	3.98	-41.0	-42.8	18.0	0.00e+00	0	27	0	18874368	56	6270
2026-01-12 17:22:13.78	26.29	4.04	-41.2	-43.0	17.7	0.00e+00	53	27	0	19922944	56	6462
2026-01-12 17:22:14.79	26.21	4.10	-41.2	-43.0	18.0	0.00e+00	0	27	0	22020096	56	6463
2026-01-12 17:22:15.80	26.14	4.16	-41.5	-43.4	17.7	0.00e+00	0	27	0	24117248	56	6703
2026-01-12 17:22:16.81	26.06	4.22	-41.1	-42.9	18.0	0.00e+00	36	27	0	26214400	56	6365
2026-01-12 17:22:17.82	25.99	4.28	-41.0	-42.7	18.3	0.00e+00	0	27	0	28311552	56	6232
2026-01-12 17:22:18.83	25.91	4.34	-41.0	-42.7	18.0	0.00e+00	61	27	0	29360128	56	6223
2026-01-12 17:22:19.84	25.83	4.40	-41.2	-42.9	18.0	0.00e+00	0	27	0	31457280	56	6365
2026-01-12 17:22:20.85	25.76	4.46	-41.1	-42.9	18.2	0.00e+00	60	27	0	33554432	56	6344
2026-01-12 17:22:21.86	25.68	4.52	-41.1	-42.9	18.2	0.00e+00	0	27	0	35651584	56	6337
2026-01-12 17:22:22.87	25.60	4.58	-40.8	-42.5	18.5	0.00e+00	0	27	0	37748736	56	6074
2026-01-12 17:22:23.88	25.52	4.64	-40.8	-42.4	18.5	0.00e+00	0	27	0	38797312	54	6750
2026-01-12 17:22:24.89	25.45	4.70	-40.7	-42.4	18.6	0.00e+00	0	27	0	40894464	54	6706
2026-01-12 17:22:25.90	25.37	4.76	-40.7	-42.3	18.6	0.00e+00	52	27	0	42991616	54	6685
2026-01-12 17:22:26.91	25.29	4.82	-40.9	-42.6	18.4	0.00e+00	0	27	0	45088768	54	6899
2026-01-12 17:22:27.92	25.21	4.89	-40.7	-42.4	18.6	0.00e+00	92	27	0	47185920	54	6705
2026-01-12 17:22:28.93	25.13	4.95	-40.8	-42.5	18.6	0.00e+00	0	27	0	49283072	54	6812
2026-01-12 17:22:29.94	25.05	5.01	-40.5	-42.1	18.9	0.00e+00	0	27	0	50331648	54	6472
2026-01-12 17:22:30.95	24.97	5.07	-40.5	-42.1	18.9	0.00e+00	0	27	0	52428800	54	6500
2026-01-12 17:22:31.96	24.89	5.13	-40.6	-42.3	18.6	0.00e+00	0	27	0	54525952	54	6630
2026-01-12 17:22:32.96	24.81	5.19	-40.6	-42.2	18.8	0.00e+00	35	27	0	56623104	54	6547
2026-01-12 17:22:33.97	24.73	5.25	-40.5	-42.1	19.0	0.00e+00	0	27	0	58720256	54	6479
2026-01-12 17:22:34.98	24.64	5.31	-40.5	-42.1	19.1	0.00e+00	92	27	0	59768832	54	6486
2026-01-12 17:22:35.99	24.56	5.38	-40.3	-41.9	19.1	0.00e+00	0	27	0	61865984	54	6334
2026-01-12 17:22:37.00	24.48	5.44	-40.3	-41.9	19.1	0.00e+00	0	27	0	63963136	54	6328
2026-01-12 17:22:38.00	24.40	5.50	-40.4	-42.0	19.1	0.00e+00	0	27	0	66060288	54	6432
2026-01-12 17:22:39.01	24.31	5.56	-40.2	-41.7	19.3	0.00e+00	0	27	0	68157440	54	6217
2026-01-12 17:22:40.02	24.23	5.62	-40.4	-42.0	19.1	0.00e+00	0	27	0	69206016	54	6421
2026-01-12 17:22:41.03	24.15	5.68	-40.2	-41.7	19.3	0.00e+00	0	27	0	71303168	54	6198
2026-01-12 17:22:42.04	24.06	5.75	-40.1	-41.6	19.4	0.00e+00	41	27	0	73400320	54	6129
2026-01-12 17:22:43.04	23.98	5.81	-40.1	-41.5	19.5	0.00e+00	0	27	0	75497472	54	6082
2026-01-12 17:22:44.05	23.89	5.87	-40.1	-41.6	19.5	0.00e+00	0	27	0	77594624	54	6135
2026-01-12 17:22:45.06	23.81	5.93	-40.1	-41.5	19.5	0.00e+00	0	27	0	78643200	54	6068
2026-01-12 17:22:46.07	23.72	6.00	-40.1	-41.5	19.4	0.00e+00	0	27	0	80740352	54	6064
2026-01-12 17:22:47.08	23.63	6.06	-40.0	-41.4	19.5	0.00e+00	0	27	0	82837504	54	6032
2026-01-12 17:22:48.09	23.55	6.12	-40.3	-41.7	19.2	0.00e+00	0	27	0	84934656	54	6229
2026-01-12 17:22:49.10	23.46	6.18	-40.1	-41.5	19.7	0.00e+00	92	27	0	87031808	54	6064
2026-01-12 17:22:50.10	23.37	6.25	-40.2	-41.6	19.4	0.00e+00	0	27	0	88080384	54	6172
2026-01-12 17:22:51.11	23.29	6.31	-40.3	-41.8	19.3	0.00e+00	91	27	0	90177536	54	6305
2026-01-12 17:22:52.12	23.20	6.37	-40.3	-41.8	19.2	0.00e+00	0	27	0	92274688	54	6259
2026-01-12 17:22:53.13	23.11	6.43	-40.3	-41.8	19.3	0.00e+00	0	27	0	94371840	54	6252
2026-01-12 17:22:54.14	23.02	6.50	-40.4	-41.9	19.3	0.00e+00	0	27	0	96468992	54	6378
2026-01-12 17:22:55.15	22.93	6.56	-40.1	-41.5	19.6	0.00e+00	0	27	0	97517568	54	6099
2026-01-12 17:22:56.16	22.84	6.62	-40.3	-41.8	19.5	0.00e+00	92	27	0	99614720	54	6248
2026-01-12 17:22:57.17	22.75	6.69	-40.2	-41.6	19.5	0.00e+00	33	27	0	101711872	54	6171
2026-01-12 17:22:58.18	22.66	6.75	-40.2	-41.6	19.5	0.00e+00	71	27	0	103809024	54	6165
2026-01-12 17:22:59.19	22.57	6.82	-40.3	-41.8	19.5	0.00e+00	0	27	0	105906176	54	6262
2026-01-12 17:23:00.20	22.48	6.88	-40.3	-41.8	19.4	0.00e+00	0	27	0	106954752	54	6255
2026-01-12 17:23:01.21	22.38	6.94	-40.5	-42.0	19.2	0.00e+00	0	27	0	109051904	54	6418
2026-01-12 17:23:02.22	22.29	7.01	-40.3	-41.8	19.3	0.00e+00	0	27	0	111149056	54	6315
2026-01-12 17:23:03.23	22.20	7.07	-40.4	-42.0	19.2	0.00e+00	36	27	0	113246208	54	6411
2026-01-12 17:23:04.24	22.11	7.13	-40.5	-42.0	19.3	0.00e+00	0	27	0	115343360	54	6446
2026-01-12 17:23:05.25	22.01	7.20	-40.5	-42.1	19.1	0.00e+00	71	27	0	117440512	54	6478
2026-01-12 17:23:06.26	21.92	7.26	-40.5	-42.1	19.2	0.00e+00	0	27	0	118489088	54	6471
2026-01-12 17:23:07.26	21.82	7.33	-40.5	-42.1	19.1	0.00e+00	0	27	0	120586240	54	6492
2026-01-12 17:23:08.27	21.73	7.39	-40.5	-42.0	19.3	0.00e+00	0	27	0	122683392	54	6417
2026-01-12 17:23:09.28	21.63	7.46	-40.4	-41.9	19.2	0.00e+00	0	27	0	124780544	54	6374
2026-01-12 17:23:10.29	21.54	7.52	-40.2	-41.7	19.5	0.00e+00	20	27	0	125829120	54	6200
2026-01-12 17:23:11.30	21.44	7.58	-40.3	-41.8	19.5	0.00e+00	0	27	0	127926272	54	6249
2026-01-12 17:23:12.31	21.34	7.65	-40.3	-41.8	19.5	0.00e+00	79	27	0	130023424	54	6265
2026-01-12 17:23:13.32	21.25	7.71	-40.1	-41.5	19.7	0.00e+00	0	27	0	132120576	54	6055
2026-01-12 17:23:14.33	21.15	7.78	-40.2	-41.6	19.8	0.00e+00	0	27	0	134217728	54	6147
2026-01-12 17:23:15.34	21.05	7.84	-40.1	-41.5	19.8	0.00e+00	0	27	0	135266304	54	6075
2026-01-12 17:23:16.35	20.95	7.91	-39.9	-41.3	19.9	0.00e+00	0	27	0	137363456	54	5928
2026-01-12 17:23:17.36	20.85	7.97	-39.8	-41.1	20.2	0.00e+00	27	27	0	139460608	52	6488
2026-01-12 17:23:18.37	20.75	8.04	-39.7	-41.0	20.2	0.00e+00	0	27	0	141557760	52	6441
2026-01-12 17:23:19.38	20.65	8.11	-39.7	-41.0	20.1	0.00e+00	34	27	0	143654912	52	6462
2026-01-12 17:23:20.39	20.55	8.17	-39.6	-40.9	20.4	0.00e+00	0	27	0	145752064	52	6338
2026-01-12 17:23:21.39	20.45	8.24	-39.5	-40.8	20.4	0.00e+00	0	27	0	146800640	52	6286
2026-01-12 17:23:22.40	20.35	8.30	-39.4	-40.6	20.6	0.00e+00	0	27	0	148897792	52	6122
2026-01-12 17:23:23.41	20.25	8.37	-39.2	-40.4	20.8	0.00e+00	0	27	0	150994944	52	5987
2026-01-12 17:23:24.42	20.15	8.43	-39.2	-40.4	20.8	0.00e+00	0	27	0	153092096	52	5979
2026-01-12 17:23:25.43	20.05	8.50	-39.2	-40.4	20.7	0.00e+00	0	27	0	155189248	52	6010
2026-01-12 17:23:26.44	19.94	8.56	-39.3	-40.5	20.6	0.00e+00	51	27	0	156237824	52	6083
2026-01-12 17:23:27.45	19.84	8.63	-39.2	-40.4	20.8	0.00e+00	0	27	0	158334976	52	6006
2026-01-12 17:23:28.46	19.73	8.70	-39.3	-40.5	20.6	0.00e+00	92	27	0	160432128	52	6074
2026-01-12 17:23:29.47	19.63	8.76	-39.1	-40.3	20.8	0.00e+00	0	27	0	162529280	52	5926
2026-01-12 17:23:30.48	19.52	8.83	-39.2	-40.4	20.8	0.00e+00	0	27	0	164626432	52	5996
2026-01-12 17:23:31.49	19.42	8.89	-39.2	-40.4	20.9	0.00e+00	0	27	0	165675008	52	5973
2026-01-12 17:23:32.50	19.31	8.96	-39.0	-40.2	21.0	0.00e+00	0	27	0	167772160	52	5863
2026-01-12 17:23:33.51	19.21	9.03	-39.1	-40.3	20.9	0.00e+00	51	27	0	169869312	52	5928
2026-01-12 17:23:34.52	19.10	9.09	-39.2	-40.3	20.9	0.00e+00	0	27	0	171966464	52	5961
2026-01-12 17:23:35.52	18.99	9.16	-39.2	-40.4	20.9	0.00e+00	90	27	0	174063616	52	5984
2026-01-12 17:23:36.53	18.88	9.23	-39.2	-40.4	20.8	0.00e+00	0	27	0	175112192	52	6023
2026-01-12 17:23:37.54	18.78	9.29	-39.3	-40.5	20.8	0.00e+00	0	27	0	177209344	52	6085
2026-01-12 17:23:38.55	18.67	9.36	-39.3	-40.5	20.7	0.00e+00	0	27	0	179306496	52	6069
2026-01-12 17:23:39.56	18.56	9.43	-39.3	-40.5	20.8	0.00e+00	0	27	0	181403648	52	6068
2026-01-12 17:23:40.57	18.45	9.49	-39.4	-40.7	20.7	0.00e+00	29	27	0	183500800	52	6176
2026-01-12 17:23:41.58	18.34	9.56	-39.4	-40.7	20.7	0.00e+00	0	27	0	184549376	52	6200
2026-01-12 17:23:42.59	18.22	9.63	-39.6	-40.8	20.5	0.00e+00	76	27	0	186646528	52	6306
2026-01-12 17:23:43.60	18.11	9.70	-40.0	-41.4	20.2	0.00e+00	0	27	0	188743680	52	6698
2026-01-12 17:23:44.61	18.00	9.76	-39.6	-40.9	20.4	0.00e+00	0	27	0	190840832	52	6380
2026-01-12 17:23:45.62	17.89	9.83	-39.4	-40.6	20.8	0.00e+00	0	27	0	192937984	52	6140
2026-01-12 17:23:46.63	17.77	9.90	-39.3	-40.5	20.8	0.00e+00	0	27	0	193986560	52	6056
2026-01-12 17:23:47.64	17.66	9.97	-39.2	-40.4	20.9	0.00e+00	34	27	0	196083712	52	6028
2026-01-12 17:23:48.65	17.54	10.03	-39.2	-40.5	20.8	0.00e+00	0	27	0	198180864	52	6073
2026-01-12 17:23:49.66	17.43	10.10	-39.4	-40.7	20.6	0.00e+00	54	27	0	200278016	52	6239
2026-01-12 17:23:50.66	17.31	10.17	-39.7	-41.0	20.4	0.00e+00	0	27	0	202375168	52	6462
2026-01-12 17:23:51.68	17.20	10.24	-39.8	-41.2	20.2	0.00e+00	84	27	0	203423744	52	6544
2026-01-12 17:23:52.69	17.08	10.30	-39.8	-41.1	20.3	0.00e+00	0	27	0	205520896	52	6523
2026-01-12 17:23:53.70	16.96	10.37	-39.8	-41.1	20.4	0.00e+00	0	27	0	207618048	52	6483
2026-01-12 17:23:54.70	16.85	10.44	-39.7	-41.0	20.4	0.00e+00	0	27	0	209715200	52	6413
2026-01-12 17:23:55.71	16.73	10.51	-39.6	-40.8	20.5	0.00e+00	0	27	0	211812352	52	6301
2026-01-12 17:23:56.72	16.61	10.58	-39.5	-40.7	20.6	0.00e+00	92	27	0	213909504	52	6224
2026-01-12 17:23:57.73	16.49	10.64	-39.4	-40.7	20.3	0.00e+00	0	27	0	214958080	52	6184
2026-01-12 17:23:58.74	16.37	10.71	-39.4	-40.6	20.8	0.00e+00	64	27	0	217055232	52	6115
2026-01-12 17:23:59.75	16.25	10.78	-39.5	-40.7	20.7	0.00e+00	0	27	0	219152384	52	6239
2026-01-12 17:24:00.76	16.13	10.85	-39.3	-40.4	20.8	0.00e+00	0	27	0	221249536	52	6029
2026-01-12 17:24:01.77	16.01	10.92	-39.4	-40.6	20.8	0.00e+00	33	27	0	223346688	52	6121
2026-01-12 17:24:02.78	15.88	10.99	-39.4	-40.6	20.7	0.00e+00	0	27	0	224395264	52	6145
2026-01-12 17:24:03.79	15.76	11.06	-39.5	-40.8	20.6	0.00e+00	33	27	0	226492416	52	6257
2026-01-12 17:24:04.80	15.64	11.12	-39.6	-40.9	20.6	0.00e+00	0	27	0	228589568	52	6335
2026-01-12 17:24:05.81	15.51	11.19	-39.7	-41.0	20.6	0.00e+00	92	27	0	230686720	52	6402
2026-01-12 17:24:06.82	15.39	11.26	-39.2	-40.4	21.0	0.00e+00	0	27	0	232783872	52	5971
2026-01-12 17:24:07.83	15.26	11.33	-39.3	-40.5	21.0	0.00e+00	0	27	0	233832448	52	6058
2026-01-12 17:24:08.83	15.14	11.40	-39.0	-40.1	21.2	0.00e+00	0	27	0	235929600	52	5793
2026-01-12 17:24:09.84	15.01	11.47	-38.7	-39.8	21.4	0.00e+00	0	27	0	238026752	50	6311
2026-01-12 17:24:10.85	14.88	11.54	-38.8	-39.9	21.3	0.00e+00	58	27	0	240123904	50	6368
2026-01-12 17:24:11.86	14.75	11.61	-38.9	-40.1	21.3	0.00e+00	0	27	0	242221056	50	6492
2026-01-12 17:24:12.87	14.63	11.67	-38.9	-40.0	21.3	0.00e+00	92	27	0	243269632	50	6456
2026-01-12 17:24:13.88	14.50	11.74	-38.8	-40.0	21.4	0.00e+00	0	27	0	245366784	50	6405
2026-01-12 17:24:14.89	14.37	11.81	-38.8	-40.0	21.3	0.00e+00	0	27	0	247463936	50	6419
2026-01-12 17:24:15.90	14.24	11.88	-38.9	-40.0	21.3	0.00e+00	0	27	0	249561088	50	6464
2026-01-12 17:24:16.91	14.11	11.95	-38.8	-40.0	21.4	0.00e+00	0	27	0	251658240	50	6414
2026-01-12 17:24:17.92	13.97	12.02	-38.9	-40.0	21.3	0.00e+00	27	27	0	252706816	50	6444
2026-01-12 17:24:18.93	13.84	12.09	-38.8	-40.0	21.4	0.00e+00	0	27	0	254803968	50	6407
2026-01-12 17:24:19.94	13.71	12.16	-38.7	-39.8	21.5	0.00e+00	92	27	0	256901120	50	6282
2026-01-12 17:24:20.95	13.57	12.23	-38.7	-39.9	21.4	0.00e+00	0	27	0	258998272	50	6321
2026-01-12 17:24:21.96	13.44	12.30	-38.5	-39.6	21.7	0.00e+00	0	27	0	261095424	50	6139
2026-01-12 17:24:22.97	13.31	12.37	-38.6	-39.7	21.6	0.00e+00	0	27	0	262144000	50	6208
2026-01-12 17:24:23.98	13.17	12.44	-38.6	-39.7	21.5	0.00e+00	0	27	0	264241152	50	6186
2026-01-12 17:24:24.99	13.03	12.51	-38.5	-39.6	21.7	0.00e+00	32	27	0	266338304	50	6127
2026-01-12 17:24:26.00	12.90	12.58	-38.5	-39.6	21.7	0.00e+00	0	27	0	268435456	50	6106
2026-01-12 17:24:27.01	12.76	12.65	-38.6	-39.7	21.6	0.00e+00	91	27	0	270532608	50	6233
2026-01-12 17:24:28.02	12.62	12.72	-38.4	-39.5	21.8	0.00e+00	0	27	0	271581184	50	6064
2026-01-12 17:24:29.03	12.48	12.79	-38.6	-39.8	21.6	0.00e+00	0	27	0	273678336	50	6256
2026-01-12 17:24:30.04	12.34	12.86	-38.4	-39.5	21.8	0.00e+00	0	27	0	275775488	50	6055
2026-01-12 17:24:31.05	12.20	12.93	-38.1	-39.1	22.1	0.00e+00	0	27	0	277872640	50	5823
2026-01-12 17:24:32.06	12.06	13.00	-38.0	-39.1	22.1	0.00e+00	6	27	0	279969792	50	5774
2026-01-12 17:24:33.07	11.92	13.07	-38.2	-39.2	22.0	0.00e+00	0	27	0	282066944	50	5894
2026-01-12 17:24:34.08	11.78	13.14	-38.1	-39.1	22.1	0.00e+00	6	27	0	283115520	50	5811
2026-01-12 17:24:35.08	11.64	13.21	-38.3	-39.4	21.8	0.00e+00	0	27	0	285212672	50	5976
2026-01-12 17:24:36.10	11.49	13.28	-38.4	-39.4	21.9	0.00e+00	91	27	0	287309824	50	6028
2026-01-12 17:24:37.10	11.35	13.35	-38.4	-39.5	22.0	0.00e+00	30	27	0	289406976	50	6079
2026-01-12 17:24:38.11	11.20	13.42	-38.3	-39.5	21.9	0.00e+00	0	27	0	291504128	50	6039
2026-01-12 17:24:39.12	11.06	13.49	-38.2	-39.3	22.0	0.00e+00	0	27	0	292552704	50	5960
2026-01-12 17:24:40.14	10.91	13.56	-38.2	-39.2	22.0	0.00e+00	0	27	0	294649856	50	5892
2026-01-12 17:24:41.14	10.76	13.63	-38.4	-39.5	21.8	0.00e+00	90	27	0	296747008	50	6068
2026-01-12 17:24:42.15	10.62	13.70	-38.0	-39.1	22.0	0.00e+00	0	27	0	298844160	50	5772
2026-01-12 17:24:43.16	10.47	13.77	-38.2	-39.3	22.0	0.00e+00	92	27	0	300941312	50	5903
2026-01-12 17:24:44.17	10.32	13.84	-38.4	-39.5	21.7	0.00e+00	0	27	0	301989888	50	6093
2026-01-12 17:24:45.18	10.17	13.91	-38.6	-39.7	21.3	0.00e+00	0	27	0	304087040	50	6239
2026-01-12 17:24:46.19	10.02	13.98	-38.8	-40.0	21.0	0.00e+00	0	27	0	306184192	50	6418
2026-01-12 17:24:47.20	9.86	14.05	-38.8	-40.0	21.3	0.00e+00	0	27	0	308281344	50	6436
2026-01-12 17:24:48.20	9.71	14.12	-38.7	-39.8	21.6	0.00e+00	51	27	0	310378496	50	6305
2026-01-12 17:24:49.21	9.56	14.19	-38.6	-39.7	21.6	0.00e+00	0	27	0	311427072	50	6227
2026-01-12 17:24:50.22	9.41	14.26	-38.7	-39.8	21.6	0.00e+00	59	27	0	313524224	50	6273
2026-01-12 17:24:51.23	9.25	14.33	-38.7	-39.8	21.6	0.00e+00	0	27	0	315621376	50	6279
2026-01-12 17:24:52.24	9.10	14.40	-38.7	-39.8	21.6	0.00e+00	16	27	0	317718528	50	6313
2026-01-12 17:24:53.25	8.94	14.47	-38.6	-39.7	21.7	0.00e+00	0	27	0	319815680	50	6206
2026-01-12 17:24:54.26	8.78	14.54	-38.6	-39.7	21.7	0.00e+00	0	27	0	320864256	50	6221
2026-01-12 17:24:55.27	8.63	14.61	-38.6	-39.7	21.7	0.00e+00	39	27	0	322961408	50	6238
2026-01-12 17:24:56.28	8.47	14.68	-38.5	-39.6	21.7	0.00e+00	0	27	0	325058560	50	6165
2026-01-12 17:24:57.29	8.31	14.75	-38.5	-39.6	21.7	0.00e+00	89	27	0	327155712	50	6126
2026-01-12 17:24:58.30	8.15	14.82	-38.5	-39.6	21.7	0.00e+00	0	27	0	329252864	50	6146
2026-01-12 17:24:59.30	7.99	14.89	-38.4	-39.5	21.8	0.00e+00	0	27	0	330301440	50	6064
2026-01-12 17:25:00.31	7.83	14.96	-38.2	-39.3	21.9	0.00e+00	0	27	0	332398592	50	5920
2026-01-12 17:25:01.32	7.67	15.03	-38.2	-39.3	22.0	0.00e+00	0	27	0	334495744	50	5909
2026-01-12 17:25:02.33	7.50	15.10	-38.5	-39.6	21.6	0.00e+00	0	27	0	336592896	50	6163
2026-01-12 17:25:03.34	7.34	15.17	-38.9	-40.1	21.4	0.00e+00	0	27	0	338690048	50	6496
2026-01-12 17:25:04.35	7.18	15.24	-39.1	-40.3	21.2	0.00e+00	92	27	0	339738624	50	6674
2026-01-12 17:25:05.36	7.01	15.31	-39.2	-40.4	21.1	0.00e+00	0	27	0	341835776	50	6713
2026-01-12 17:25:06.37	6.85	15.37	-39.1	-40.2	21.3	0.00e+00	40	27	0	343932928	50	6612
2026-01-12 17:25:07.38	6.68	15.44	-38.9	-40.0	21.4	0.00e+00	0	27	0	346030080	50	6452
2026-01-12 17:25:08.39	6.51	15.51	-38.8	-39.9	21.5	0.00e+00	0	27	0	348127232	50	6359
2026-01-12 17:25:09.40	6.34	15.58	-38.7	-39.8	21.6	0.00e+00	0	27	0	350224384	50	6279
2026-01-12 17:25:10.41	6.17	15.65	-38.6	-39.7	21.8	0.00e+00	0	27	0	351272960	50	6176
2026-01-12 17:25:11.41	6.00	15.72	-38.8	-39.9	21.5	0.00e+00	27	27	0	353370112	50	6382
2026-01-12 17:25:12.42	5.83	15.79	-38.9	-40.1	21.4	0.00e+00	0	27	0	355467264	50	6488
2026-01-12 17:25:13.43	5.66	15.86	-39.1	-40.2	21.2	0.00e+00	92	27	0	357564416	50	6599
2026-01-12 17:25:14.44	5.49	15.93	-39.1	-40.3	21.3	0.00e+00	0	27	0	358612992	50	6656
2026-01-12 17:25:15.45	5.32	16.00	-38.9	-40.0	21.5	0.00e+00	0	27	0	360710144	50	6410
2026-01-12 17:25:16.46	5.14	16.07	-38.8	-39.9	21.6	0.00e+00	0	27	0	362807296	50	6353
2026-01-12 17:25:17.47	4.97	16.14	-38.6	-39.7	21.7	0.00e+00	0	27	0	364904448	50	6240
2026-01-12 17:25:18.48	4.79	16.21	-39.0	-40.2	21.5	0.00e+00	39	27	0	367001600	50	6545
2026-01-12 17:25:19.49	4.62	16.27	-38.9	-40.0	21.5	0.00e+00	0	27	0	368050176	50	6427
2026-01-12 17:25:20.50	4.44	16.34	-38.8	-40.0	21.5	0.00e+00	84	27	0	370147328	50	6403
2026-01-12 17:25:21.50	4.26	16.41	-39.0	-40.3	21.2	0.00e+00	0	27	0	372244480	50	6648
2026-01-12 17:25:22.52	4.08	16.48	-38.9	-40.2	21.3	0.00e+00	0	27	0	374341632	50	6547
2026-01-12 17:25:23.52	3.90	16.55	-38.8	-40.0	21.5	0.00e+00	0	27	0	376438784	50	6396
2026-01-12 17:25:24.53	3.72	16.62	-38.5	-39.7	21.8	0.00e+00	0	27	0	378535936	50	6179
2026-01-12 17:25:25.54	3.54	16.69	-38.6	-39.7	21.8	0.00e+00	34	27	0	379584512	50	6176
2026-01-12 17:25:26.55	3.36	16.75	-38.5	-39.6	21.9	0.00e+00	0	27	0	381681664	50	6128
2026-01-12 17:25:27.56	3.18	16.82	-38.4	-39.5	22.1	0.00e+00	90	27	0	383778816	50	6065
2026-01-12 17:25:28.57	2.99	16.89	-38.8	-39.9	21.6	0.00e+00	0	27	0	385875968	50	6328
2026-01-12 17:25:29.58	2.81	16.96	-39.3	-40.5	21.1	0.00e+00	0	27	0	387973120	50	6785
2026-01-12 17:25:30.59	2.62	17.03	-39.5	-40.7	20.8	0.00e+00	0	27	0	389021696	50	6995
2026-01-12 17:25:31.60	2.43	17.09	-39.4	-40.6	21.0	0.00e+00	0	27	0	391118848	50	6924
2026-01-12 17:25:32.61	2.25	17.16	-39.4	-40.6	20.9	0.00e+00	0	27	0	393216000	50	6895
2026-01-12 17:25:33.62	2.06	17.23	-39.2	-40.4	21.3	0.00e+00	0	27	0	395313152	50	6725
2026-01-12 17:25:34.63	1.87	17.29	-38.9	-40.1	21.5	0.00e+00	82	27	0	397410304	50	6476
2026-01-12 17:25:35.64	1.68	17.36	-38.6	-39.7	21.8	0.00e+00	0	27	0	398458880	50	6215
2026-01-12 17:25:36.65	1.49	17.43	-38.5	-39.6	21.8	0.00e+00	0	27	0	400556032	50	6126
2026-01-12 17:25:37.66	1.30	17.50	-38.2	-39.3	21.7	0.00e+00	0	27	0	402653184	50	5923
2026-01-12 17:25:38.66	1.11	17.56	-38.3	-39.4	21.9	0.00e+00	0	27	0	404750336	50	6023
2026-01-12 17:25:39.68	0.91	17.63	-38.2	-39.3	22.1	0.00e+00	0	27	0	406847488	50	5918
2026-01-12 17:25:40.69	0.72	17.70	-38.3	-39.4	22.1	0.00e+00	0	27	0	407896064	50	5988
2026-01-12 17:25:41.69	0.52	17.76	-38.3	-39.5	22.0	0.00e+00	92	27	0	409993216	50	6048
2026-01-12 17:25:42.70	0.33	17.83	-37.9	-38.9	22.4	0.00e+00	0	27	0	412090368	50	5680
2026-01-12 17:25:43.71	0.13	17.89	-38.0	-39.0	22.5	0.00e+00	90	27	0	414187520	50	5717
2026-01-12 17:25:44.72	359.93	17.96	-38.0	-39.0	22.4	0.00e+00	0	27	0	416284672	50	5723
2026-01-12 17:25:45.73	359.73	18.02	-37.7	-38.7	22.6	0.00e+00	31	27	0	417333248	48	6237
2026-01-12 17:25:46.74	359.53	18.09	-37.7	-38.7	22.6	0.00e+00	0	27	0	419430400	48	6243
2026-01-12 17:25:47.75	359.33	18.15	-37.8	-38.9	22.4	0.00e+00	0	27	0	421527552	48	6322
2026-01-12 17:25:48.76	359.13	18.22	-37.8	-38.8	22.5	0.00e+00	92	27	0	423624704	48	6311
2026-01-12 17:25:49.77	358.93	18.28	-37.6	-38.6	22.8	0.00e+00	0	27	0	425721856	48	6132
2026-01-12 17:25:50.78	358.73	18.35	-37.0	-37.9	23.2	0.00e+00	56	27	0	426770432	48	5659
2026-01-12 17:25:51.79	358.52	18.41	-36.8	-37.7	23.4	0.00e+00	0	27	0	428867584	46	6190
2026-01-12 17:25:52.80	358.32	18.48	-36.5	-37.3	23.5	0.00e+00	0	27	0	430964736	46	5964
2026-01-12 17:25:53.80	358.12	18.54	-36.6	-37.5	23.6	0.00e+00	0	27	0	433061888	46	6048
2026-01-12 17:25:54.81	357.91	18.60	-36.6	-37.5	23.5	0.00e+00	0	27	0	435159040	46	6084
2026-01-12 17:25:55.82	357.70	18.67	-36.9	-37.9	23.2	0.00e+00	40	27	0	436207616	46	6343
2026-01-12 17:25:56.83	357.49	18.73	-37.0	-38.0	23.3	0.00e+00	0	27	0	438304768	46	6401
2026-01-12 17:25:57.84	357.28	18.79	-36.8	-37.8	23.3	0.00e+00	58	27	0	440401920	46	6268
2026-01-12 17:25:58.85	357.07	18.86	-36.9	-37.9	23.2	0.00e+00	0	27	0	442499072	46	6332
2026-01-12 17:25:59.86	356.86	18.92	-36.7	-37.7	23.4	0.00e+00	0	27	0	444596224	46	6187
2026-01-12 17:26:00.87	356.65	18.98	-36.5	-37.4	23.6	0.00e+00	0	27	0	446693376	46	6022
2026-01-12 17:26:01.88	356.44	19.04	-36.5	-37.4	23.6	0.00e+00	0	27	0	447741952	46	5994
2026-01-12 17:26:02.89	356.23	19.10	-36.6	-37.5	23.5	0.00e+00	25	27	0	449839104	46	6089
2026-01-12 17:26:03.90	356.01	19.17	-36.8	-37.8	23.5	0.00e+00	0	27	0	451936256	46	6255
2026-01-12 17:26:04.91	355.80	19.23	-36.8	-37.8	23.4	0.00e+00	92	27	0	454033408	46	6247
2026-01-12 17:26:05.92	355.58	19.29	-36.8	-37.7	23.4	0.00e+00	0	27	0	456130560	46	6233
2026-01-12 17:26:06.92	355.37	19.35	-36.5	-37.4	23.7	0.00e+00	0	27	0	457179136	46	6007
2026-01-12 17:26:07.93	355.15	19.41	-36.4	-37.4	23.7	0.00e+00	0	27	0	459276288	46	5970
2026-01-12 17:26:08.94	354.93	19.47	-36.3	-37.2	23.8	0.00e+00	0	27	0	461373440	46	5894
2026-01-12 17:26:09.95	354.71	19.53	-36.5	-37.4	23.5	0.00e+00	38	27	0	463470592	46	6032
2026-01-12 17:26:10.96	354.49	19.59	-36.7	-37.6	23.4	0.00e+00	0	27	0	465567744	46	6172
2026-01-12 17:26:11.97	354.27	19.65	-37.0	-37.9	23.3	0.00e+00	92	27	0	466616320	46	6383
2026-01-12 17:26:12.98	354.04	19.70	-36.9	-37.9	23.4	0.00e+00	0	27	0	468713472	46	6322
2026-01-12 17:26:13.98	353.82	19.76	-36.8	-37.7	23.4	0.00e+00	86	27	0	470810624	46	6228
2026-01-12 17:26:15.00	353.60	19.82	-36.8	-37.7	23.4	0.00e+00	0	27	0	472907776	46	6215
2026-01-12 17:26:16.00	353.38	19.88	-36.3	-37.2	23.8	0.00e+00	0	27	0	475004928	46	5861
2026-01-12 17:26:17.02	353.15	19.94	-36.0	-36.9	23.9	0.00e+00	0	27	0	476053504	46	5668
2026-01-12 17:26:18.03	352.92	19.99	-36.2	-37.1	23.3	0.00e+00	0	27	0	478150656	46	5807
2026-01-12 17:26:19.04	352.69	20.05	-36.1	-37.1	23.9	0.00e+00	42	27	0	480247808	46	5769
2026-01-12 17:26:20.04	352.47	20.11	-36.2	-37.2	23.8	0.00e+00	0	27	0	482344960	46	5846
2026-01-12 17:26:21.05	352.24	20.16	-36.4	-37.4	23.7	0.00e+00	30	27	0	484442112	46	5993
2026-01-12 17:26:22.06	352.01	20.22	-36.5	-37.5	23.5	0.00e+00	0	27	0	485490688	46	6058
2026-01-12 17:26:23.07	351.78	20.27	-36.4	-37.3	23.8	0.00e+00	0	27	0	487587840	46	5918
2026-01-12 17:26:24.08	351.55	20.33	-36.3	-37.2	23.8	0.00e+00	0	27	0	489684992	46	5856
2026-01-12 17:26:25.09	351.31	20.38	-36.1	-37.0	24.1	0.00e+00	0	27	0	491782144	46	5719
2026-01-12 17:26:26.10	351.08	20.44	-36.2	-37.1	23.9	0.00e+00	80	27	0	493879296	46	5802
2026-01-12 17:26:27.11	350.85	20.49	-36.4	-37.3	23.7	0.00e+00	0	27	0	494927872	46	5912
2026-01-12 17:26:28.12	350.61	20.54	-36.5	-37.4	23.7	0.00e+00	64	27	0	497025024	46	6029
2026-01-12 17:26:29.13	350.38	20.60	-36.5	-37.4	23.7	0.00e+00	0	27	0	499122176	46	5987
2026-01-12 17:26:30.14	350.14	20.65	-36.0	-36.9	24.0	0.00e+00	0	27	0	501219328	46	5636
2026-01-12 17:26:31.15	349.90	20.70	-36.0	-36.8	24.1	0.00e+00	30	27	0	503316480	46	5617
2026-01-12 17:26:32.16	349.66	20.75	-35.9	-36.7	24.2	0.00e+00	0	27	0	504365056	46	5548
2026-01-12 17:26:33.17	349.42	20.81	-35.9	-36.7	24.2	0.00e+00	42	27	0	506462208	46	5557
2026-01-12 17:26:34.18	349.18	20.86	-36.1	-37.0	24.0	0.00e+00	28	27	0	508559360	46	5698
2026-01-12 17:26:35.19	348.94	20.91	-36.2	-37.1	23.9	0.00e+00	90	27	0	510656512	46	5778
2026-01-12 17:26:36.20	348.70	20.96	-36.3	-37.2	23.9	0.00e+00	0	27	0	512753664	46	5830
2026-01-12 17:26:37.21	348.46	21.01	-36.0	-36.9	24.1	0.00e+00	0	27	0	514850816	46	5659
2026-01-12 17:26:38.22	348.22	21.06	-35.8	-36.6	24.2	0.00e+00	0	27	0	515899392	46	5464
2026-01-12 17:26:39.23	347.97	21.11	-35.6	-36.4	24.4	0.00e+00	0	27	0	517996544	44	6001
2026-01-12 17:26:40.24	347.73	21.15	-35.8	-36.7	24.2	0.00e+00	38	27	0	520093696	44	6181
2026-01-12 17:26:41.25	347.48	21.20	-36.0	-36.8	24.0	0.00e+00	0	27	0	522190848	44	6300
2026-01-12 17:26:42.26	347.24	21.25	-36.0	-36.8	24.0	0.00e+00	92	27	0	524288000	44	6290
2026-01-12 17:26:43.27	346.99	21.30	-36.2	-37.0	23.9	0.00e+00	0	27	0	525336576	44	6439
2026-01-12 17:26:44.27	346.75	21.34	-36.0	-36.8	24.1	0.00e+00	90	27	0	527433728	44	6300
2026-01-12 17:26:45.28	346.50	21.39	-35.7	-36.5	24.4	0.00e+00	0	27	0	529530880	44	6076
2026-01-12 17:26:46.29	346.25	21.43	-35.4	-36.3	24.6	0.00e+00	0	27	0	531628032	44	5900
2026-01-12 17:26:47.31	346.00	21.48	-35.5	-36.3	24.4	0.00e+00	0	27	0	533725184	44	5955
2026-01-12 17:26:48.32	345.74	21.52	-35.6	-36.4	24.4	0.00e+00	0	27	0	534773760	44	6033
2026-01-12 17:26:49.32	345.50	21.57	-35.8	-36.6	24.1	0.00e+00	88	27	0	536870912	44	6171
2026-01-12 17:26:50.33	345.24	21.61	-36.2	-37.1	24.0	0.00e+00	0	27	0	538968064	44	6511
2026-01-12 17:26:51.34	344.99	21.65	-36.2	-37.1	23.9	0.00e+00	90	27	0	541065216	44	6485
2026-01-12 17:26:52.35	344.74	21.70	-36.1	-37.0	23.8	0.00e+00	0	27	0	543162368	44	6428
2026-01-12 17:26:53.36	344.48	21.74	-35.9	-36.8	24.2	0.00e+00	0	27	0	544210944	44	6260
2026-01-12 17:26:54.37	344.23	21.78	-35.9	-36.7	24.2	0.00e+00	0	27	0	546308096	44	6204
2026-01-12 17:26:55.38	343.97	21.82	-35.9	-36.8	24.2	0.00e+00	0	27	0	548405248	44	6248
2026-01-12 17:26:56.39	343.72	21.86	-35.8	-36.6	24.3	0.00e+00	39	27	0	550502400	44	6147
2026-01-12 17:26:57.40	343.46	21.90	-35.9	-36.8	24.2	0.00e+00	0	27	0	552599552	44	6250
2026-01-12 17:26:58.41	343.20	21.94	-35.8	-36.7	24.1	0.00e+00	92	27	0	553648128	44	6209
2026-01-12 17:26:59.42	342.94	21.98	-36.2	-37.0	23.9	0.00e+00	0	27	0	555745280	44	6459
2026-01-12 17:27:00.42	342.69	22.02	-36.0	-36.9	24.2	0.00e+00	0	27	0	557842432	44	6326
2026-01-12 17:27:01.44	342.43	22.05	-35.7	-36.5	24.2	0.00e+00	0	27	0	559939584	44	6099
2026-01-12 17:27:02.45	342.17	22.09	-35.8	-36.6	23.9	0.00e+00	0	27	0	562036736	44	6160
2026-01-12 17:27:03.46	341.90	22.13	-35.6	-36.4	24.4	0.00e+00	33	27	0	563085312	44	6006
2026-01-12 17:27:04.46	341.65	22.16	-35.7	-36.5	24.3	0.00e+00	0	27	0	565182464	44	6081
2026-01-12 17:27:05.47	341.38	22.20	-36.0	-36.8	24.1	0.00e+00	91	27	0	567279616	44	6291
2026-01-12 17:27:06.48	341.12	22.23	-36.3	-37.2	23.9	0.00e+00	0	27	0	569376768	44	6563
2026-01-12 17:27:07.49	340.86	22.27	-36.6	-37.5	23.7	0.00e+00	0	27	0	571473920	44	6771
2026-01-12 17:27:08.50	340.59	22.30	-36.7	-37.6	23.5	0.00e+00	0	27	0	572522496	44	6919
2026-01-12 17:27:09.51	340.33	22.33	-36.7	-37.7	23.6	0.00e+00	0	27	0	574619648	46	6174
2026-01-12 17:27:10.52	340.07	22.36	-37.2	-38.2	23.1	0.00e+00	38	27	0	576716800	46	6562
2026-01-12 17:27:11.53	339.80	22.39	-37.7	-38.7	22.7	0.00e+00	0	27	0	578813952	46	7006
2026-01-12 17:27:12.54	339.53	22.43	-38.3	-39.4	22.1	0.00e+00	92	27	0	580911104	48	6718
2026-01-12 17:27:13.55	339.27	22.46	-38.8	-40.0	21.7	0.00e+00	0	27	0	583008256	50	6407
2026-01-12 17:27:14.56	339.00	22.49	-38.9	-40.1	21.6	0.00e+00	0	27	0	584056832	50	6521
2026-01-12 17:27:15.57	338.73	22.51	-38.6	-39.7	21.8	0.00e+00	0	27	0	586153984	50	6213
2026-01-12 17:27:16.57	338.47	22.54	-38.5	-39.6	21.9	0.00e+00	0	27	0	588251136	50	6153
2026-01-12 17:27:17.58	338.20	22.57	-38.3	-39.3	22.3	0.00e+00	32	27	0	590348288	50	5964
2026-01-12 17:27:18.59	337.93	22.60	-38.0	-39.1	22.4	0.00e+00	0	27	0	591396864	50	5783
2026-01-12 17:27:19.60	337.66	22.62	-37.6	-38.6	22.6	0.00e+00	74	27	0	593494016	48	6167
2026-01-12 17:27:20.60	337.39	22.65	-37.6	-38.5	22.9	0.00e+00	0	27	0	595591168	48	6102
2026-01-12 17:27:21.62	337.12	22.67	-37.5	-38.5	22.8	0.00e+00	92	27	0	597688320	48	6035
2026-01-12 17:27:22.63	336.85	22.70	-37.4	-38.4	22.8	0.00e+00	0	27	0	599785472	48	6021
2026-01-12 17:27:23.63	336.58	22.72	-37.6	-38.6	22.7	0.00e+00	0	27	0	600834048	48	6140
2026-01-12 17:27:24.64	336.31	22.75	-37.5	-38.6	22.8	0.00e+00	0	27	0	602931200	48	6110
2026-01-12 17:27:25.65	336.04	22.77	-37.0	-38.0	23.2	0.00e+00	0	27	0	605028352	48	5735
2026-01-12 17:27:26.66	335.76	22.79	-36.9	-37.9	23.3	0.00e+00	34	27	0	607125504	48	5636
2026-01-12 17:27:27.67	335.49	22.81	-37.0	-37.9	23.3	0.00e+00	0	27	0	609222656	48	5687
2026-01-12 17:27:28.68	335.22	22.83	-37.2	-38.2	23.0	0.00e+00	76	27	0	611319808	48	5852
2026-01-12 17:27:29.69	334.95	22.85	-37.5	-38.6	22.8	0.00e+00	0	27	0	612368384	48	6115
2026-01-12 17:27:30.70	334.67	22.87	-38.0	-39.1	22.4	0.00e+00	0	27	0	614465536	48	6489
2026-01-12 17:27:31.71	334.40	22.89	-38.0	-39.0	22.2	0.00e+00	8	27	0	616562688	48	6456
2026-01-12 17:27:32.72	334.12	22.91	-37.6	-38.6	22.8	0.00e+00	0	27	0	618659840	48	6116
2026-01-12 17:27:33.73	333.85	22.92	-37.4	-38.3	23.0	0.00e+00	35	27	0	620756992	48	5948
2026-01-12 17:27:34.74	333.57	22.94	-37.4	-38.3	23.0	0.00e+00	0	27	0	621805568	48	5940
2026-01-12 17:27:35.75	333.30	22.95	-37.2	-38.2	23.1	0.00e+00	49	27	0	623902720	48	5836
2026-01-12 17:27:36.76	333.02	22.97	-37.7	-38.7	22.7	0.00e+00	0	27	0	625999872	48	6196
2026-01-12 17:27:37.77	332.75	22.98	-38.1	-39.1	22.4	0.00e+00	0	27	0	628097024	48	6496
2026-01-12 17:27:38.78	332.47	23.00	-38.2	-39.3	22.2	0.00e+00	0	27	0	630194176	48	6640
2026-01-12 17:27:39.79	332.19	23.01	-38.2	-39.3	22.1	0.00e+00	0	27	0	631242752	48	6659
2026-01-12 17:27:40.80	331.92	23.02	-38.1	-39.2	22.2	0.00e+00	41	27	0	633339904	48	6566
2026-01-12 17:27:41.80	331.64	23.03	-38.0	-39.0	22.4	0.00e+00	0	27	0	635437056	48	6450
2026-01-12 17:27:42.81	331.37	23.04	-37.8	-38.8	22.6	0.00e+00	42	27	0	637534208	48	6252
2026-01-12 17:27:43.82	331.09	23.05	-38.1	-39.1	22.4	0.00e+00	0	27	0	639631360	48	6523
2026-01-12 17:27:44.83	330.81	23.06	-38.1	-39.2	22.5	0.00e+00	0	27	0	640679936	48	6548
2026-01-12 17:27:45.84	330.53	23.07	-38.2	-39.3	22.0	0.00e+00	0	27	0	642777088	48	6647
2026-01-12 17:27:46.85	330.26	23.08	-39.0	-40.1	21.4	0.00e+00	0	27	0	644874240	50	6539
2026-01-12 17:27:47.86	329.98	23.09	-39.4	-40.7	21.1	0.00e+00	40	27	0	646971392	50	6935
2026-01-12 17:27:48.87	329.70	23.09	-39.7	-41.0	20.8	0.00e+00	0	27	0	649068544	52	6432
2026-01-12 17:27:49.88	329.42	23.10	-39.9	-41.2	20.6	0.00e+00	61	27	0	650117120	52	6597
2026-01-12 17:27:50.89	329.14	23.10	-39.9	-41.3	20.6	0.00e+00	0	27	0	652214272	52	6627
2026-01-12 17:27:51.90	328.86	23.11	-39.4	-40.6	21.1	0.00e+00	0	27	0	654311424	52	6162
2026-01-12 17:27:52.91	328.59	23.11	-38.6	-39.7	21.9	0.00e+00	0	27	0	656408576	50	6233
2026-01-12 17:27:53.92	328.31	23.11	-38.1	-39.1	22.5	0.00e+00	0	27	0	658505728	50	5800
2026-01-12 17:27:54.92	328.03	23.11	-37.5	-38.5	22.9	0.00e+00	39	27	0	659554304	48	6072
2026-01-12 17:27:55.93	327.75	23.11	-37.3	-38.2	23.3	0.00e+00	0	27	0	661651456	48	5856
2026-01-12 17:27:56.94	327.48	23.12	-37.4	-38.3	23.1	0.00e+00	93	27	0	663748608	48	5961
2026-01-12 17:27:57.95	327.20	23.11	-37.3	-38.3	23.1	0.00e+00	0	27	0	665845760	48	5899
2026-01-12 17:27:58.96	326.92	23.11	-37.5	-38.4	23.0	0.00e+00	19	27	0	667942912	48	6031
2026-01-12 17:27:59.97	326.64	23.11	-37.7	-38.7	22.8	0.00e+00	0	27	0	668991488	48	6206
2026-01-12 17:28:00.98	326.36	23.11	-37.8	-38.8	22.7	0.00e+00	0	27	0	671088640	48	6256
2026-01-12 17:28:01.99	326.08	23.11	-37.7	-38.7	22.8	0.00e+00	0	27	0	673185792	48	6192
2026-01-12 17:28:03.00	325.80	23.10	-37.4	-38.4	23.0	0.00e+00	0	27	0	675282944	48	5980
2026-01-12 17:28:04.01	325.53	23.10	-37.0	-37.9	23.3	0.00e+00	66	27	0	677380096	48	5672
2026-01-12 17:28:05.02	325.25	23.09	-37.2	-38.1	23.2	0.00e+00	0	27	0	679477248	48	5796
2026-01-12 17:28:06.03	324.97	23.09	-37.0	-37.9	23.3	0.00e+00	47	27	0	680525824	48	5682
2026-01-12 17:28:07.04	324.69	23.08	-37.2	-38.1	23.3	0.00e+00	0	27	0	682622976	48	5796
2026-01-12 17:28:08.05	324.41	23.07	-37.4	-38.3	23.0	0.00e+00	0	27	0	684720128	48	5947
2026-01-12 17:28:09.06	324.14	23.06	-37.6	-38.6	22.8	0.00e+00	0	27	0	686817280	48	6120
2026-01-12 17:28:10.07	323.86	23.05	-37.5	-38.5	22.2	0.00e+00	0	27	0	688914432	48	6066
2026-01-12 17:28:11.08	323.58	23.04	-37.5	-38.4	22.9	0.00e+00	10	27	0	689963008	48	6018
2026-01-12 17:28:12.08	323.31	23.03	-37.4	-38.3	23.0	0.00e+00	0	27	0	692060160	48	5964
2026-01-12 17:28:13.10	323.03	23.02	-37.4	-38.3	23.0	0.00e+00	89	27	0	694157312	48	5957
2026-01-12 17:28:14.10	322.75	23.01	-37.1	-38.0	23.3	0.00e+00	0	27	0	696254464	48	5751
2026-01-12 17:28:15.11	322.48	23.00	-37.1	-38.1	23.2	0.00e+00	29	27	0	698351616	48	5765
2026-01-12 17:28:16.12	322.20	22.99	-36.7	-37.6	23.7	0.00e+00	0	27	0	699400192	48	5441
2026-01-12 17:28:17.13	321.93	22.97	-36.6	-37.4	23.8	0.00e+00	0	27	0	701497344	46	6017
2026-01-12 17:28:18.14	321.65	22.96	-36.7	-37.6	23.7	0.00e+00	67	27	0	703594496	46	6129
2026-01-12 17:28:19.15	321.37	22.94	-37.1	-38.0	23.3	0.00e+00	0	27	0	705691648	46	6434
2026-01-12 17:28:20.17	321.10	22.92	-37.1	-38.1	23.2	0.00e+00	90	27	0	707788800	46	6502
2026-01-12 17:28:21.18	320.82	22.91	-37.0	-38.0	23.4	0.00e+00	34	27	0	708837376	46	6414
2026-01-12 17:28:22.18	320.55	22.89	-36.9	-37.8	23.4	0.00e+00	4	27	0	710934528	46	6259
2026-01-12 17:28:23.19	320.27	22.87	-36.6	-37.5	23.8	0.00e+00	0	27	0	713031680	46	6037
2026-01-12 17:28:24.20	320.00	22.85	-36.7	-37.6	23.7	0.00e+00	0	27	0	715128832	46	6118
2026-01-12 17:28:25.21	319.73	22.83	-36.7	-37.6	23.7	0.00e+00	32	27	0	717225984	46	6150
2026-01-12 17:28:26.22	319.45	22.81	-36.5	-37.4	23.8	0.00e+00	0	27	0	718274560	46	6005
2026-01-12 17:28:27.23	319.18	22.79	-36.3	-37.2	23.8	0.00e+00	92	27	0	720371712	46	5861
2026-01-12 17:28:28.24	318.91	22.77	-36.2	-37.1	24.1	0.00e+00	0	27	0	722468864	46	5765
2026-01-12 17:28:29.25	318.64	22.75	-35.5	-36.3	24.3	0.00e+00	0	27	0	724566016	44	5941
2026-01-12 17:28:30.26	318.36	22.73	-35.3	-36.1	24.6	0.00e+00	0	27	0	726663168	44	5809
2026-01-12 17:28:31.27	318.09	22.70	-35.3	-36.1	24.7	0.00e+00	0	27	0	727711744	44	5766
2026-01-12 17:28:32.28	317.82	22.68	-35.2	-36.0	24.7	0.00e+00	16	27	0	729808896	44	5718
2026-01-12 17:28:33.28	317.55	22.65	-35.4	-36.1	24.7	0.00e+00	0	27	0	731906048	44	5827
2026-01-12 17:28:34.29	317.28	22.63	-35.4	-36.3	24.5	0.00e+00	92	27	0	734003200	44	5904
2026-01-12 17:28:35.31	317.01	22.60	-35.7	-36.5	24.4	0.00e+00	0	27	0	736100352	44	6086
2026-01-12 17:28:36.32	316.74	22.57	-35.9	-36.7	24.3	0.00e+00	68	27	0	737148928	44	6219
2026-01-12 17:28:37.33	316.47	22.55	-36.1	-36.9	24.0	0.00e+00	0	27	0	739246080	44	6379
2026-01-12 17:28:38.34	316.20	22.52	-36.1	-37.0	24.1	0.00e+00	0	27	0	741343232	44	6418
2026-01-12 17:28:39.35	315.94	22.49	-36.2	-37.0	23.7	0.00e+00	0	27	0	743440384	44	6438
2026-01-12 17:28:40.36	315.67	22.46	-36.3	-37.2	24.0	0.00e+00	0	27	0	745537536	44	6544
2026-01-12 17:28:41.36	315.40	22.43	-35.9	-36.7	24.3	0.00e+00	92	27	0	747634688	44	6196
2026-01-12 17:28:42.37	315.14	22.40	-35.7	-36.5	24.4	0.00e+00	0	27	0	748683264	44	6082
2026-01-12 17:28:43.38	314.87	22.37	-36.2	-37.0	24.0	0.00e+00	91	27	0	750780416	44	6444
2026-01-12 17:28:44.39	314.61	22.33	-36.0	-36.8	24.2	0.00e+00	0	27	0	752877568	44	6300
2026-01-12 17:28:45.39	314.35	22.30	-35.8	-36.6	24.4	0.00e+00	0	27	0	754974720	44	6136
2026-01-12 17:28:46.40	314.08	22.27	-35.7	-36.5	24.4	0.00e+00	0	27	0	757071872	44	6091
2026-01-12 17:28:47.41	313.82	22.24	-35.9	-36.7	24.4	0.00e+00	0	27	0	758120448	44	6175
2026-01-12 17:28:48.42	313.56	22.20	-36.1	-36.9	24.1	0.00e+00	31	27	0	760217600	44	6358
2026-01-12 17:28:49.43	313.29	22.17	-36.3	-37.1	23.7	0.00e+00	0	27	0	762314752	44	6492
2026-01-12 17:28:50.44	313.03	22.13	-36.9	-37.7	23.5	0.00e+00	65	27	0	764411904	46	6239
2026-01-12 17:28:51.45	312.77	22.09	-37.1	-38.1	23.3	0.00e+00	0	27	0	766509056	46	6468
2026-01-12 17:28:52.46	312.51	22.06	-37.0	-37.9	23.4	0.00e+00	0	27	0	767557632	46	6344
2026-01-12 17:28:53.47	312.25	22.02	-36.9	-37.7	23.6	0.00e+00	0	27	0	769654784	46	6245
2026-01-12 17:28:54.48	311.99	21.98	-37.0	-37.8	23.5	0.00e+00	0	27	0	771751936	46	6296
2026-01-12 17:28:55.49	311.73	21.94	-36.8	-37.6	23.9	0.00e+00	34	27	0	773849088	46	6161
2026-01-12 17:28:56.50	311.47	21.90	-36.6	-37.4	23.9	0.00e+00	0	27	0	775946240	46	6012
2026-01-12 17:28:57.51	311.22	21.86	-36.6	-37.4	23.7	0.00e+00	62	27	0	776994816	46	6015
2026-01-12 17:28:58.52	310.96	21.82	-36.7	-37.6	23.6	0.00e+00	0	27	0	779091968	46	6118
2026-01-12 17:28:59.53	310.70	21.78	-37.0	-37.9	23.3	0.00e+00	9	27	0	781189120	46	6319
2026-01-12 17:29:00.54	310.45	21.74	-37.1	-38.0	23.3	0.00e+00	0	27	0	783286272	46	6460
2026-01-12 17:29:01.55	310.19	21.70	-37.7	-38.7	23.0	0.00e+00	0	27	0	785383424	46	6966
2026-01-12 17:29:02.56	309.94	21.66	-37.3	-38.2	23.1	0.00e+00	37	27	0	786432000	46	6611
2026-01-12 17:29:03.57	309.69	21.61	-37.7	-38.6	23.0	0.00e+00	0	27	0	788529152	48	6146
2026-01-12 17:29:04.58	309.43	21.57	-37.9	-38.9	22.5	0.00e+00	92	27	0	790626304	48	6374
2026-01-12 17:29:05.59	309.18	21.53	-38.3	-39.3	22.4	0.00e+00	0	27	0	792723456	48	6640
2026-01-12 17:29:06.60	308.93	21.48	-38.2	-39.2	22.4	0.00e+00	0	27	0	794820608	48	6542
2026-01-12 17:29:07.60	308.68	21.44	-38.3	-39.3	22.3	0.00e+00	0	27	0	795869184	48	6667
2026-01-12 17:29:08.61	308.43	21.39	-38.4	-39.4	22.3	0.00e+00	0	27	0	797966336	48	6699
2026-01-12 17:29:09.62	308.19	21.35	-38.4	-39.5	22.3	0.00e+00	0	27	0	800063488	48	6779
2026-01-12 17:29:10.63	307.94	21.30	-38.4	-39.5	22.3	0.00e+00	0	27	0	802160640	48	6771
2026-01-12 17:29:11.64	307.69	21.25	-38.4	-39.4	22.2	0.00e+00	37	27	0	804257792	48	6730
2026-01-12 17:29:12.65	307.44	21.21	-38.2	-39.2	22.4	0.00e+00	0	27	0	805306368	48	6592
2026-01-12 17:29:13.66	307.20	21.16	-38.3	-39.3	22.3	0.00e+00	57	27	0	807403520	48	6635
2026-01-12 17:29:14.67	306.95	21.11	-38.2	-39.2	22.4	0.00e+00	0	27	0	809500672	48	6541
2026-01-12 17:29:15.68	306.71	21.06	-38.3	-39.3	22.3	0.00e+00	0	27	0	811597824	48	6647
2026-01-12 17:29:16.69	306.46	21.01	-38.6	-39.6	22.1	0.00e+00	0	27	0	813694976	48	6926
2026-01-12 17:29:17.70	306.22	20.96	-38.5	-39.5	22.1	0.00e+00	0	27	0	815792128	48	6802
2026-01-12 17:29:18.71	305.98	20.91	-38.5	-39.5	22.2	0.00e+00	36	27	0	816840704	48	6786
2026-01-12 17:29:19.72	305.74	20.86	-37.7	-38.7	22.8	0.00e+00	0	27	0	818937856	48	6189
2026-01-12 17:29:20.73	305.50	20.81	-37.6	-38.5	22.9	0.00e+00	90	27	0	821035008	48	6090
2026-01-12 17:29:21.74	305.26	20.76	-37.3	-38.2	22.9	0.00e+00	0	27	0	823132160	48	5874
2026-01-12 17:29:22.75	305.02	20.71	-37.3	-38.2	23.2	0.00e+00	0	27	0	825229312	48	5845
2026-01-12 17:29:23.76	304.78	20.65	-37.0	-37.8	23.3	0.00e+00	0	27	0	826277888	48	5608
2026-01-12 17:29:24.76	304.55	20.60	-37.0	-37.9	23.3	0.00e+00	0	27	0	828375040	48	5652
2026-01-12 17:29:25.77	304.31	20.55	-36.8	-37.7	23.5	0.00e+00	52	27	0	830472192	46	6178
2026-01-12 17:29:26.78	304.08	20.50	-36.7	-37.6	23.7	0.00e+00	0	27	0	832569344	46	6126
2026-01-12 17:29:27.79	303.84	20.44	-36.9	-37.7	23.5	0.00e+00	80	27	0	834666496	46	6238
2026-01-12 17:29:28.80	303.61	20.39	-37.1	-38.0	23.3	0.00e+00	0	27	0	835715072	46	6458
2026-01-12 17:29:29.81	303.37	20.33	-37.3	-38.2	23.2	0.00e+00	0	27	0	837812224	46	6572
2026-01-12 17:29:30.82	303.14	20.28	-37.7	-38.6	22.9	0.00e+00	0	27	0	839909376	46	6890
2026-01-12 17:29:31.83	302.91	20.22	-38.0	-38.9	22.6	0.00e+00	0	27	0	842006528	48	6389
2026-01-12 17:29:32.84	302.68	20.17	-38.0	-38.9	22.4	0.00e+00	41	27	0	844103680	48	6376
2026-01-12 17:29:33.86	302.45	20.11	-38.4	-39.4	22.2	0.00e+00	0	27	0	845152256	48	6720
2026-01-12 17:29:34.86	302.22	20.05	-38.5	-39.5	22.1	0.00e+00	92	27	0	847249408	48	6799
2026-01-12 17:29:35.87	301.99	20.00	-38.2	-39.2	22.2	0.00e+00	0	27	0	849346560	48	6554
2026-01-12 17:29:36.88	301.77	19.94	-38.1	-39.1	22.4	0.00e+00	0	27	0	851443712	48	6503
2026-01-12 17:29:37.89	301.54	19.88	-38.1	-39.1	22.5	0.00e+00	0	27	0	853540864	48	6526
2026-01-12 17:29:38.90	301.32	19.82	-38.5	-39.6	22.0	0.00e+00	0	27	0	854589440	48	6900
2026-01-12 17:29:39.91	301.09	19.77	-38.7	-39.8	21.9	0.00e+00	38	27	0	856686592	48	7062
2026-01-12 17:29:40.92	300.87	19.71	-39.3	-40.5	21.1	0.00e+00	0	27	0	858783744	50	6785
2026-01-12 17:29:41.93	300.64	19.65	-40.0	-41.3	20.5	0.00e+00	91	27	0	860880896	52	6689
2026-01-12 17:29:42.94	300.42	19.59	-40.5	-41.9	20.1	0.00e+00	0	27	0	862978048	52	7121
2026-01-12 17:29:43.94	300.20	19.53	-40.2	-41.5	20.4	0.00e+00	3	27	0	864026624	54	6103
2026-01-12 17:29:44.95	299.98	19.47	-40.2	-41.6	20.4	0.00e+00	0	27	0	866123776	54	6140
2026-01-12 17:29:45.96	299.76	19.41	-40.2	-41.5	20.4	0.00e+00	0	27	0	868220928	54	6061
2026-01-12 17:29:46.97	299.55	19.35	-39.5	-40.7	21.1	0.00e+00	0	27	0	870318080	52	6234
2026-01-12 17:29:47.98	299.33	19.29	-38.8	-40.0	21.9	0.00e+00	0	27	0	872415232	52	5697
2026-01-12 17:29:48.99	299.11	19.23	-38.7	-39.8	22.0	0.00e+00	39	27	0	873463808	50	6316
2026-01-12 17:29:50.00	298.90	19.17	-37.8	-38.8	22.7	0.00e+00	0	27	0	875560960	50	5607
2026-01-12 17:29:51.00	298.68	19.11	-37.2	-38.1	23.1	0.00e+00	73	27	0	877658112	48	5826
2026-01-12 17:29:52.02	298.47	19.04	-37.1	-38.0	23.4	0.00e+00	0	27	0	879755264	48	5703
2026-01-12 17:29:53.03	298.25	18.98	-37.2	-38.1	23.3	0.00e+00	0	27	0	881852416	48	5778
2026-01-12 17:29:54.04	298.04	18.92	-37.2	-38.1	23.2	0.00e+00	0	27	0	882900992	48	5796
2026-01-12 17:29:55.04	297.83	18.86	-37.2	-38.1	23.3	0.00e+00	0	27	0	884998144	48	5776
2026-01-12 17:29:56.05	297.62	18.79	-36.9	-37.7	23.6	0.00e+00	91	27	0	887095296	48	5559
2026-01-12 17:29:57.06	297.41	18.73	-36.8	-37.6	23.6	0.00e+00	0	27	0	889192448	48	5500
2026-01-12 17:29:58.07	297.20	18.67	-37.0	-37.9	23.6	0.00e+00	35	27	0	891289600	46	6363
2026-01-12 17:29:59.08	297.00	18.61	-36.7	-37.6	23.7	0.00e+00	0	27	0	892338176	46	6118
2026-01-12 17:30:00.09	296.79	18.54	-36.7	-37.6	23.7	0.00e+00	0	27	0	894435328	46	6136
2026-01-12 17:30:01.09	296.58	18.48	-36.5	-37.3	23.8	0.00e+00	0	27	0	896532480	46	5941
2026-01-12 17:30:02.10	296.38	18.41	-36.2	-37.1	23.8	0.00e+00	0	27	0	898629632	46	5765
2026-01-12 17:30:03.11	296.17	18.35	-36.3	-37.1	24.0	0.00e+00	58	27	0	900726784	46	5803
2026-01-12 17:30:04.12	295.97	18.29	-36.2	-37.0	24.1	0.00e+00	0	27	0	901775360	46	5743
2026-01-12 17:30:05.13	295.77	18.22	-36.2	-37.0	24.1	0.00e+00	90	27	0	903872512	46	5721
2026-01-12 17:30:06.14	295.57	18.16	-36.5	-37.3	23.8	0.00e+00	0	27	0	905969664	46	5955
2026-01-12 17:30:07.15	295.36	18.09	-37.0	-37.9	23.4	0.00e+00	0	27	0	908066816	46	6323
2026-01-12 17:30:08.16	295.16	18.02	-37.2	-38.2	23.2	0.00e+00	0	27	0	910163968	46	6556
2026-01-12 17:30:09.17	294.97	17.96	-37.8	-38.8	22.8	0.00e+00	0	27	0	912261120	48	6258
2026-01-12 17:30:10.18	294.77	17.89	-38.1	-39.2	22.6	0.00e+00	36	27	0	913309696	48	6565
2026-01-12 17:30:11.18	294.57	17.83	-38.3	-39.3	22.3	0.00e+00	0	27	0	915406848	48	6668
2026-01-12 17:30:12.20	294.37	17.76	-38.7	-39.8	21.9	0.00e+00	92	27	0	917504000	48	7033
2026-01-12 17:30:13.20	294.18	17.70	-38.7	-39.8	21.8	0.00e+00	0	27	0	919601152	48	7074
2026-01-12 17:30:14.21	293.98	17.63	-38.6	-39.6	22.0	0.00e+00	85	27	0	921698304	48	6911
2026-01-12 17:30:15.22	293.79	17.56	-38.3	-39.4	22.3	0.00e+00	0	27	0	922746880	48	6718
2026-01-12 17:30:16.23	293.60	17.50	-38.1	-39.1	22.3	0.00e+00	0	27	0	924844032	48	6486
2026-01-12 17:30:17.24	293.41	17.43	-37.9	-38.8	22.6	0.00e+00	0	27	0	926941184	48	6315
2026-01-12 17:30:18.25	293.21	17.36	-38.0	-38.9	22.8	0.00e+00	0	27	0	929038336	48	6377
2026-01-12 17:30:19.26	293.02	17.30	-37.4	-38.3	23.1	0.00e+00	91	27	0	931135488	48	5954
2026-01-12 17:30:20.27	292.83	17.23	-37.4	-38.4	23.0	0.00e+00	0	27	0	932184064	48	5968
2026-01-12 17:30:21.28	292.64	17.16	-37.2	-38.1	23.3	0.00e+00	91	27	0	934281216	48	5794
2026-01-12 17:30:22.29	292.46	17.09	-37.0	-37.9	23.3	0.00e+00	0	27	0	936378368	48	5675
2026-01-12 17:30:23.30	292.27	17.03	-36.8	-37.7	23.6	0.00e+00	0	27	0	938475520	48	5514
2026-01-12 17:30:24.31	292.08	16.96	-36.8	-37.6	23.6	0.00e+00	33	27	0	940572672	46	6155
2026-01-12 17:30:25.31	291.90	16.89	-36.8	-37.7	23.5	0.00e+00	0	27	0	941621248	46	6187
2026-01-12 17:30:26.32	291.71	16.82	-37.1	-38.0	23.3	0.00e+00	35	27	0	943718400	46	6453
2026-01-12 17:30:27.33	291.53	16.75	-37.3	-38.2	23.1	0.00e+00	0	27	0	945815552	46	6605
2026-01-12 17:30:28.34	291.35	16.69	-37.6	-38.6	22.8	0.00e+00	82	27	0	947912704	46	6871
2026-01-12 17:30:29.35	291.17	16.62	-37.9	-38.9	22.7	0.00e+00	0	27	0	950009856	48	6323
2026-01-12 17:30:30.36	290.98	16.55	-38.0	-39.0	22.6	0.00e+00	0	27	0	951058432	48	6397
2026-01-12 17:30:31.37	290.80	16.48	-37.8	-38.8	22.6	0.00e+00	0	27	0	953155584	48	6293
2026-01-12 17:30:32.38	290.62	16.41	-37.7	-38.7	22.7	0.00e+00	0	27	0	955252736	48	6223
2026-01-12 17:30:33.39	290.45	16.34	-37.6	-38.5	22.8	0.00e+00	44	27	0	957349888	48	6094
2026-01-12 17:30:34.40	290.27	16.27	-37.5	-38.5	22.9	0.00e+00	0	27	0	959447040	48	6039
2026-01-12 17:30:35.41	290.09	16.20	-37.4	-38.4	23.1	0.00e+00	61	27	0	960495616	48	5978
2026-01-12 17:30:36.42	289.91	16.14	-37.3	-38.3	23.2	0.00e+00	0	27	0	962592768	48	5907
2026-01-12 17:30:37.43	289.74	16.07	-37.4	-38.4	22.9	0.00e+00	0	27	0	964689920	48	5999
2026-01-12 17:30:38.44	289.56	16.00	-37.6	-38.6	22.8	0.00e+00	0	27	0	966787072	48	6121
2026-01-12 17:30:39.45	289.39	15.93	-37.8	-38.8	22.8	0.00e+00	0	27	0	968884224	48	6272
2026-01-12 17:30:40.45	289.22	15.86	-37.6	-38.6	22.8	0.00e+00	53	27	0	969932800	48	6133
2026-01-12 17:30:41.47	289.05	15.79	-37.6	-38.6	22.8	0.00e+00	0	27	0	972029952	48	6128
2026-01-12 17:30:42.47	288.88	15.72	-37.7	-38.7	22.8	0.00e+00	81	27	0	974127104	48	6235
2026-01-12 17:30:43.48	288.70	15.65	-37.6	-38.6	22.7	0.00e+00	0	27	0	976224256	48	6130
2026-01-12 17:30:44.49	288.54	15.58	-37.4	-38.3	22.8	0.00e+00	0	27	0	978321408	48	5964
2026-01-12 17:30:45.50	288.37	15.51	-37.4	-38.4	22.9	0.00e+00	0	27	0	980418560	48	5990
2026-01-12 17:30:46.51	288.20	15.44	-37.2	-38.1	23.2	0.00e+00	0	27	0	981467136	48	5786
2026-01-12 17:30:47.52	288.03	15.37	-37.0	-37.9	23.2	0.00e+00	0	27	0	983564288	48	5652
2026-01-12 17:30:48.53	287.86	15.30	-36.7	-37.6	23.5	0.00e+00	0	27	0	985661440	48	5452
2026-01-12 17:30:49.54	287.70	15.23	-36.8	-37.7	23.4	0.00e+00	70	27	0	987758592	46	6211
2026-01-12 17:30:50.55	287.53	15.16	-36.6	-37.5	23.6	0.00e+00	0	27	0	989855744	46	6087
2026-01-12 17:30:51.56	287.37	15.09	-36.8	-37.7	23.6	0.00e+00	49	27	0	990904320	46	6219
2026-01-12 17:30:52.57	287.21	15.02	-37.1	-38.0	23.2	0.00e+00	0	27	0	993001472	46	6417
2026-01-12 17:30:53.58	287.04	14.95	-37.0	-37.9	23.4	0.00e+00	0	27	0	995098624	46	6387
2026-01-12 17:30:54.59	286.88	14.88	-37.0	-37.8	23.4	0.00e+00	0	27	0	997195776	46	6313
2026-01-12 17:30:55.60	286.72	14.81	-36.7	-37.6	23.6	0.00e+00	0	27	0	999292928	46	6128
2026-01-12 17:30:56.61	286.56	14.74	-36.5	-37.4	23.8	0.00e+00	90	27	0	1000341504	46	5986
2026-01-12 17:30:57.62	286.40	14.67	-36.1	-36.9	24.1	0.00e+00	0	27	0	1002438656	46	5660
2026-01-12 17:30:58.63	286.24	14.60	-36.2	-37.0	24.0	0.00e+00	90	27	0	1004535808	46	5749
2026-01-12 17:30:59.63	286.08	14.53	-36.1	-36.9	24.1	0.00e+00	0	27	0	1006632960	46	5641
2026-01-12 17:31:00.65	285.93	14.46	-36.1	-36.9	24.1	0.00e+00	0	27	0	1008730112	46	5663
2026-01-12 17:31:01.65	285.77	14.39	-36.2	-37.0	23.9	0.00e+00	0	27	0	1009778688	46	5740
2026-01-12 17:31:02.66	285.61	14.32	-36.4	-37.3	23.8	0.00e+00	0	27	0	1011875840	46	5929
2026-01-12 17:31:03.67	285.46	14.25	-36.5	-37.3	23.7	0.00e+00	32	27	0	1013972992	46	5952
2026-01-12 17:31:04.68	285.30	14.18	-36.6	-37.5	23.5	0.00e+00	0	27	0	1016070144	46	6050
2026-01-12 17:31:05.69	285.15	14.11	-36.7	-37.5	23.5	0.00e+00	73	27	0	1018167296	46	6101
2026-01-12 17:31:06.71	285.00	14.04	-37.0	-37.9	23.4	0.00e+00	0	27	0	1019215872	46	6332
2026-01-12 17:31:07.72	284.84	13.97	-37.2	-38.1	23.1	0.00e+00	0	27	0	1021313024	46	6495
2026-01-12 17:31:08.72	284.69	13.90	-37.2	-38.1	23.1	0.00e+00	0	27	0	1023410176	46	6499
2026-01-12 17:31:09.73	284.54	13.83	-37.2	-38.1	23.2	0.00e+00	0	27	0	1025507328	46	6497
2026-01-12 17:31:10.74	284.39	13.76	-37.2	-38.1	23.1	0.00e+00	33	27	0	1027604480	46	6508
2026-01-12 17:31:11.75	284.24	13.69	-37.4	-38.3	23.1	0.00e+00	0	27	0	1028653056	46	6680
2026-01-12 17:31:12.76	284.10	13.62	-36.9	-37.8	23.3	0.00e+00	78	27	0	1030750208	46	6268
2026-01-12 17:31:13.76	283.95	13.55	-36.9	-37.8	23.3	0.00e+00	0	27	0	1032847360	46	6277
2026-01-12 17:31:14.77	283.80	13.48	-36.9	-37.7	23.5	0.00e+00	0	27	0	1034944512	46	6229
2026-01-12 17:31:15.78	283.66	13.41	-36.5	-37.3	23.7	0.00e+00	0	27	0	1037041664	46	5943
2026-01-12 17:31:16.79	283.51	13.34	-36.3	-37.1	23.9	0.00e+00	0	27	0	1038090240	46	5807
2026-01-12 17:31:17.80	283.37	13.27	-36.5	-37.4	23.6	0.00e+00	12	27	0	1040187392	46	5974
2026-01-12 17:31:18.81	283.22	13.20	-36.5	-37.3	23.8	0.00e+00	0	27	0	1042284544	46	5953
2026-01-12 17:31:19.82	283.08	13.13	-36.7	-37.6	23.5	0.00e+00	81	27	0	1044381696	46	6120
2026-01-12 17:31:20.83	282.93	13.06	-36.8	-37.7	23.4	0.00e+00	0	27	0	1046478848	46	6218
2026-01-12 17:31:21.83	282.79	12.99	-37.0	-38.0	23.2	0.00e+00	0	27	0	1047527424	46	6395
2026-01-12 17:31:22.84	282.65	12.92	-37.1	-38.1	22.9	0.00e+00	0	27	0	1049624576	46	6480
2026-01-12 17:31:23.86	282.51	12.85	-37.5	-38.4	22.4	0.00e+00	0	27	0	1051721728	46	6764
2026-01-12 17:31:24.86	282.37	12.78	-37.5	-38.5	22.7	0.00e+00	17	27	0	1053818880	46	6804
2026-01-12 17:31:25.87	282.23	12.71	-37.7	-38.6	22.6	0.00e+00	0	27	0	1055916032	46	6925
2026-01-12 17:31:26.88	282.09	12.64	-37.7	-38.7	22.6	0.00e+00	92	27	0	1056964608	46	6961
2026-01-12 17:31:27.89	281.95	12.57	-37.7	-38.7	22.4	0.00e+00	0	27	0	1059061760	48	6238
2026-01-12 17:31:28.90	281.82	12.50	-37.9	-38.9	22.2	0.00e+00	92	27	0	1061158912	48	6360
2026-01-12 17:31:29.91	281.68	12.43	-37.8	-38.8	22.0	0.00e+00	0	27	0	1063256064	48	6256
2026-01-12 17:31:30.92	281.54	12.36	-37.9	-38.9	22.4	0.00e+00	0	27	0	1065353216	48	6364
2026-01-12 17:31:31.93	281.41	12.29	-37.4	-38.4	22.8	0.00e+00	0	27	0	1066401792	48	6012
2026-01-12 17:31:32.94	281.27	12.22	-37.4	-38.3	22.9	0.00e+00	0	27	0	1068498944	48	5958
2026-01-12 17:31:33.95	281.14	12.15	-37.2	-38.1	23.1	0.00e+00	92	27	0	1070596096	48	5823
2026-01-12 17:31:34.96	281.01	12.08	-36.9	-37.8	23.2	0.00e+00	0	27	0	1072693248	48	5627
2026-01-12 17:31:35.97	280.87	12.01	-36.4	-37.3	23.7	0.00e+00	56	27	0	1074790400	46	5929
2026-01-12 17:31:36.98	280.74	11.94	-36.4	-37.2	23.7	0.00e+00	0	27	0	1076887552	46	5896
2026-01-12 17:31:37.99	280.61	11.87	-36.3	-37.1	23.9	0.00e+00	0	27	0	1077936128	46	5806
2026-01-12 17:31:39.00	280.48	11.80	-36.1	-37.0	23.9	0.00e+00	0	27	0	1080033280	46	5710
2026-01-12 17:31:40.00	280.35	11.73	-36.4	-37.3	23.7	0.00e+00	0	27	0	1082130432	46	5916
2026-01-12 17:31:41.01	280.22	11.67	-36.6	-37.5	23.5	0.00e+00	8	27	0	1084227584	46	6060
2026-01-12 17:31:42.02	280.09	11.60	-37.2	-38.1	23.2	0.00e+00	0	27	0	1086324736	46	6484
2026-01-12 17:31:43.04	279.96	11.53	-37.4	-38.3	22.9	0.00e+00	22	27	0	1087373312	46	6679
2026-01-12 17:31:44.04	279.83	11.46	-37.8	-38.7	22.4	0.00e+00	0	27	0	1089470464	46	6999
2026-01-12 17:31:45.05	279.71	11.39	-38.1	-39.1	22.2	0.00e+00	0	27	0	1091567616	48	6487
2026-01-12 17:31:46.07	279.58	11.32	-38.2	-39.2	22.2	0.00e+00	0	27	0	1093664768	48	6591
2026-01-12 17:31:47.07	279.45	11.25	-38.3	-39.3	22.1	0.00e+00	0	27	0	1095761920	48	6676
2026-01-12 17:31:48.08	279.33	11.18	-38.3	-39.3	22.1	0.00e+00	62	27	0	1096810496	48	6673
2026-01-12 17:31:49.10	279.20	11.11	-38.2	-39.2	22.2	0.00e+00	29	27	0	1098907648	48	6573
2026-01-12 17:31:50.10	279.08	11.04	-37.8	-38.7	22.5	0.00e+00	91	27	0	1101004800	48	6245
2026-01-12 17:31:51.11	278.95	10.98	-37.6	-38.6	22.7	0.00e+00	0	27	0	1103101952	48	6115
2026-01-12 17:31:52.12	278.83	10.91	-37.6	-38.6	22.7	0.00e+00	29	27	0	1105199104	48	6125
2026-01-12 17:31:53.14	278.71	10.84	-37.5	-38.5	22.7	0.00e+00	0	27	0	1106247680	48	6062
2026-01-12 17:31:54.14	278.59	10.77	-37.4	-38.4	22.8	0.00e+00	0	27	0	1108344832	48	5996
2026-01-12 17:31:55.15	278.47	10.70	-37.3	-38.3	22.7	0.00e+00	68	27	0	1110441984	48	5933
2026-01-12 17:31:56.16	278.35	10.63	-37.6	-38.6	22.5	0.00e+00	0	27	0	1112539136	48	6148
2026-01-12 17:31:57.17	278.22	10.56	-37.5	-38.5	22.7	0.00e+00	92	27	0	1114636288	48	6054
2026-01-12 17:31:58.18	278.11	10.50	-37.7	-38.7	22.6	0.00e+00	0	27	0	1115684864	48	6199
2026-01-12 17:31:59.19	277.99	10.43	-37.9	-38.9	22.4	0.00e+00	92	27	0	1117782016	48	6323
2026-01-12 17:32:00.20	277.87	10.36	-37.9	-39.0	22.3	0.00e+00	0	27	0	1119879168	48	6402
2026-01-12 17:32:01.21	277.75	10.29	-37.9	-39.0	22.3	0.00e+00	0	27	0	1121976320	48	6391
2026-01-12 17:32:02.22	277.63	10.22	-37.8	-38.7	22.4	0.00e+00	0	27	0	1124073472	48	6243
2026-01-12 17:32:03.23	277.52	10.16	-38.0	-39.0	22.2	0.00e+00	0	27	0	1125122048	48	6412
2026-01-12 17:32:04.24	277.40	10.09	-38.1	-39.1	22.1	0.00e+00	31	27	0	1127219200	48	6491
2026-01-12 17:32:05.24	277.28	10.02	-38.1	-39.1	22.0	0.00e+00	0	27	0	1129316352	48	6532
2026-01-12 17:32:06.25	277.17	9.95	-38.2	-39.2	22.1	0.00e+00	79	27	0	1131413504	48	6571
2026-01-12 17:32:07.26	277.06	9.88	-38.3	-39.3	21.9	0.00e+00	0	27	0	1133510656	48	6677
2026-01-12 17:32:08.27	276.94	9.82	-38.7	-39.7	21.6	0.00e+00	0	27	0	1134559232	50	6244
2026-01-12 17:32:09.28	276.83	9.75	-38.7	-39.8	21.5	0.00e+00	0	27	0	1136656384	50	6295
2026-01-12 17:32:10.29	276.71	9.68	-38.9	-40.1	21.3	0.00e+00	0	27	0	1138753536	50	6489
2026-01-12 17:32:11.30	276.60	9.61	-38.6	-39.7	21.6	0.00e+00	28	27	0	1140850688	50	6234
2026-01-12 17:32:12.31	276.49	9.55	-38.8	-39.9	21.5	0.00e+00	0	27	0	1142947840	50	6350
2026-01-12 17:32:13.32	276.38	9.48	-38.6	-39.6	21.7	0.00e+00	92	27	0	1143996416	50	6172
2026-01-12 17:32:14.34	276.27	9.41	-38.7	-39.8	21.6	0.00e+00	0	27	0	1146093568	50	6268
2026-01-12 17:32:15.35	276.16	9.35	-38.6	-39.7	21.6	0.00e+00	0	27	0	1148190720	50	6194
2026-01-12 17:32:16.35	276.05	9.28	-38.5	-39.6	21.7	0.00e+00	0	27	0	1150287872	50	6156
2026-01-12 17:32:17.36	275.94	9.21	-38.7	-39.8	21.6	0.00e+00	0	27	0	1152385024	50	6257
2026-01-12 17:32:18.37	275.83	9.15	-38.5	-39.7	21.6	0.00e+00	48	27	0	1154482176	50	6174
2026-01-12 17:32:19.38	275.72	9.08	-38.9	-40.0	21.3	0.00e+00	0	27	0	1155530752	50	6435
2026-01-12 17:32:20.39	275.61	9.01	-39.1	-40.2	21.0	0.00e+00	73	27	0	1157627904	50	6600
2026-01-12 17:32:21.40	275.51	8.95	-39.2	-40.4	20.9	0.00e+00	0	27	0	1159725056	50	6744
2026-01-12 17:32:22.41	275.40	8.88	-39.5	-40.7	20.7	0.00e+00	0	27	0	1161822208	50	6975
2026-01-12 17:32:23.42	275.29	8.81	-39.7	-41.0	20.5	0.00e+00	0	27	0	1163919360	50	7214
2026-01-12 17:32:24.42	275.19	8.75	-39.8	-41.1	20.4	0.00e+00	0	27	0	1164967936	52	6506
2026-01-12 17:32:25.43	275.08	8.68	-39.9	-41.2	20.3	0.00e+00	14	27	0	1167065088	52	6557
2026-01-12 17:32:26.44	274.98	8.61	-40.0	-41.3	20.2	0.00e+00	0	27	0	1169162240	52	6643
2026-01-12 17:32:27.45	274.87	8.55	-39.7	-41.0	20.5	0.00e+00	90	27	0	1171259392	52	6448
2026-01-12 17:32:28.46	274.77	8.48	-39.6	-40.9	20.5	0.00e+00	0	27	0	1173356544	52	6342
2026-01-12 17:32:29.47	274.67	8.42	-39.4	-40.6	20.8	0.00e+00	0	27	0	1174405120	52	6154
2026-01-12 17:32:30.48	274.56	8.35	-39.4	-40.5	20.8	0.00e+00	0	27	0	1176502272	52	6096
2026-01-12 17:32:31.49	274.46	8.28	-39.2	-40.3	21.1	0.00e+00	0	27	0	1178599424	52	5964
2026-01-12 17:32:32.50	274.36	8.22	-38.9	-40.1	21.3	0.00e+00	25	27	0	1180696576	52	5769
2026-01-12 17:32:33.51	274.26	8.15	-38.8	-39.9	21.5	0.00e+00	0	27	0	1182793728	50	6320
2026-01-12 17:32:34.52	274.16	8.09	-38.7	-39.7	21.5	0.00e+00	62	27	0	1183842304	50	6245
2026-01-12 17:32:35.53	274.06	8.02	-38.5	-39.6	21.7	0.00e+00	0	27	0	1185939456	50	6160
2026-01-12 17:32:36.54	273.96	7.96	-38.6	-39.7	21.5	0.00e+00	45	27	0	1188036608	50	6208
2026-01-12 17:32:37.55	273.86	7.89	-38.6	-39.7	21.6	0.00e+00	0	27	0	1190133760	50	6182
2026-01-12 17:32:38.56	273.76	7.83	-38.7	-39.8	21.4	0.00e+00	0	27	0	1192230912	50	6282
2026-01-12 17:32:39.56	273.66	7.76	-38.7	-39.8	21.5	0.00e+00	0	27	0	1193279488	50	6256
2026-01-12 17:32:40.57	273.56	7.70	-38.8	-39.9	21.3	0.00e+00	0	27	0	1195376640	50	6349
