passes_logs/2026/01/12/R4.6S_Anadyr/R4.6S_Anadyr__20260112_140032_SUOMI_NPP_rec.log

#Pass ID: 20260112_140032_SUOMI NPP
#Satellite: SUOMI NPP
#Configuration: NPP
#almurnet v.1.7.20251203
#Start time: 2026-01-12 14:00:34

#Version: 2.2.20231116
#Station: R4.6S_Anadyr
#Location: 177.4865 lon 64.73178 lat
#TLE: 1 37849U 11061A   26011.57971124  .00000103  00000+0  69927-4 0  9996
#TLE: 2 37849  98.7807 313.6578 0002518  69.5076 290.6370 14.19524515736228

#Time	Az	El	Level	Level2	SNR	BER	BlckErr	Temp	State	Recorded	gain1	gain2
2026-01-12 14:00:34.03	19.33	0.09	-48.3	-60.8	3.4	1.52e+00	0	25	0	0	60	38633
2026-01-12 14:00:35.03	19.36	0.15	-48.5	-63.7	3.6	1.51e+00	0	26	104	0	60	55260
2026-01-12 14:00:36.04	19.39	0.21	-48.4	-63.7	3.6	1.51e+00	0	26	104	0	60	55232
2026-01-12 14:00:37.05	19.41	0.27	-48.5	-63.6	3.6	1.51e+00	0	26	104	0	60	54979
2026-01-12 14:00:38.06	19.44	0.33	-48.3	-63.6	3.6	1.51e+00	0	26	104	0	60	54792
2026-01-12 14:00:39.07	19.47	0.39	-48.4	-63.6	3.6	1.51e+00	0	26	104	0	60	54928
2026-01-12 14:00:40.08	19.50	0.45	-48.4	-63.7	3.6	1.51e+00	0	26	104	0	60	55065
2026-01-12 14:00:41.09	19.53	0.51	-48.4	-63.6	3.6	1.51e+00	0	26	104	0	60	54515
2026-01-12 14:00:42.10	19.56	0.57	-48.3	-63.6	3.6	1.51e+00	0	26	104	0	60	54458
2026-01-12 14:00:43.11	19.59	0.63	-48.3	-63.5	3.6	1.51e+00	0	26	104	0	60	53911
2026-01-12 14:00:44.12	19.61	0.69	-48.2	-63.4	3.6	1.51e+00	0	26	104	0	60	53255
2026-01-12 14:00:45.13	19.64	0.75	-48.0	-63.2	3.6	1.51e+00	0	26	104	0	60	52308
2026-01-12 14:00:46.14	19.67	0.81	-47.7	-63.1	3.6	1.51e+00	0	26	104	0	60	51498
2026-01-12 14:00:47.15	19.70	0.87	-47.7	-62.9	3.6	1.51e+00	0	26	104	0	60	50345
2026-01-12 14:00:48.16	19.73	0.93	-47.5	-62.7	3.6	1.51e+00	0	26	104	0	60	49245
2026-01-12 14:00:49.17	19.76	0.99	-47.1	-62.3	3.6	1.51e+00	0	26	104	0	60	46996
2026-01-12 14:00:50.18	19.79	1.05	-46.9	-62.1	3.6	1.51e+00	0	26	104	0	60	46025
2026-01-12 14:00:51.19	19.82	1.11	-46.9	-62.1	3.6	1.51e+00	0	26	104	0	60	46028
2026-01-12 14:00:52.20	19.85	1.17	-46.9	-62.0	3.6	1.51e+00	0	26	104	0	60	45767
2026-01-12 14:00:53.21	19.88	1.23	-46.9	-62.0	3.6	1.51e+00	0	26	104	0	60	45744
2026-01-12 14:00:54.22	19.91	1.30	-46.9	-62.1	3.6	1.51e+00	0	26	104	0	60	45778
2026-01-12 14:00:55.23	19.94	1.36	-46.9	-62.0	3.6	1.51e+00	0	26	104	0	60	45661
2026-01-12 14:00:56.24	19.97	1.42	-46.9	-62.0	3.6	1.51e+00	0	26	104	0	60	45429
2026-01-12 14:00:57.25	20.00	1.48	-46.8	-61.9	3.6	1.51e+00	0	26	104	0	60	45200
2026-01-12 14:00:58.26	20.03	1.54	-46.9	-62.0	3.6	1.51e+00	0	26	104	0	60	45382
2026-01-12 14:00:59.27	20.06	1.60	-46.8	-62.0	3.6	1.51e+00	0	26	104	0	60	45319
2026-01-12 14:01:00.27	20.09	1.67	-46.9	-62.1	3.6	1.51e+00	0	26	104	0	60	45889
2026-01-12 14:01:01.29	20.12	1.73	-46.8	-62.1	3.6	1.51e+00	0	26	104	0	60	45887
2026-01-12 14:01:02.30	20.15	1.79	-46.9	-62.0	3.6	1.51e+00	0	26	104	0	60	45583
2026-01-12 14:01:03.30	20.18	1.85	-46.9	-62.0	3.6	1.51e+00	0	26	104	0	60	45635
2026-01-12 14:01:04.31	20.22	1.91	-46.9	-62.0	3.6	1.51e+00	0	26	104	0	60	45667
2026-01-12 14:01:05.32	20.25	1.98	-46.9	-62.0	3.6	1.51e+00	0	26	104	0	60	45495
2026-01-12 14:01:06.33	20.28	2.04	-46.9	-62.1	3.6	1.51e+00	0	26	104	0	60	45808
2026-01-12 14:01:07.34	20.31	2.10	-46.8	-62.0	3.6	1.51e+00	0	26	104	0	60	45719
2026-01-12 14:01:08.35	20.34	2.17	-46.8	-62.0	3.6	1.51e+00	0	26	104	0	60	45504
2026-01-12 14:01:09.36	20.37	2.23	-46.8	-61.7	3.6	1.51e+00	0	26	104	0	60	43926
2026-01-12 14:01:10.37	20.40	2.29	-46.8	-61.4	3.6	1.51e+00	0	26	104	0	60	42660
2026-01-12 14:01:11.38	20.44	2.36	-46.8	-60.9	3.6	1.51e+00	0	26	104	0	60	39987
2026-01-12 14:01:12.39	20.47	2.42	-46.8	-60.4	3.6	1.51e+00	0	26	104	0	60	37866
2026-01-12 14:01:13.40	20.50	2.48	-46.8	-60.6	3.6	1.51e+00	0	26	104	0	60	38797
2026-01-12 14:01:14.41	20.53	2.55	-46.8	-60.9	3.6	1.51e+00	0	26	104	0	60	40137
2026-01-12 14:01:15.42	20.56	2.61	-46.8	-61.4	3.6	1.51e+00	0	26	104	0	60	42527
2026-01-12 14:01:16.43	20.60	2.67	-46.8	-60.1	3.6	1.51e+00	0	26	104	0	60	36648
2026-01-12 14:01:17.44	20.63	2.74	-46.6	-57.6	4.4	1.28e+00	2	26	104	0	60	27499
2026-01-12 14:01:18.45	20.66	2.80	-46.3	-54.0	6.2	5.63e-01	0	26	0	1048576	60	18174
2026-01-12 14:01:19.46	20.69	2.87	-45.6	-51.3	9.2	5.27e-02	0	26	0	3145728	60	13346
2026-01-12 14:01:20.47	20.73	2.93	-44.8	-49.1	11.7	1.23e-03	0	26	0	4194304	60	10309
2026-01-12 14:01:21.48	20.76	3.00	-43.9	-47.3	13.7	2.44e-05	0	26	0	6291456	60	8372
2026-01-12 14:01:22.49	20.79	3.06	-42.3	-44.7	16.2	0.00e+00	0	26	0	8388608	58	6944
2026-01-12 14:01:23.49	20.83	3.13	-42.1	-44.3	16.9	0.00e+00	0	27	0	10485760	58	6649
2026-01-12 14:01:24.51	20.86	3.19	-42.0	-44.2	16.4	0.00e+00	0	26	0	12582912	56	7370
2026-01-12 14:01:25.51	20.89	3.26	-42.2	-44.4	16.7	0.00e+00	0	27	0	13631488	56	7545
2026-01-12 14:01:26.52	20.93	3.32	-41.3	-43.2	17.7	0.00e+00	0	27	0	15728640	56	6551
2026-01-12 14:01:27.53	20.96	3.39	-41.4	-43.3	17.4	0.00e+00	0	27	0	17825792	56	6686
2026-01-12 14:01:28.54	21.00	3.45	-42.1	-44.2	16.7	0.00e+00	0	26	0	19922944	56	7417
2026-01-12 14:01:29.55	21.03	3.52	-42.5	-44.9	16.0	0.00e+00	0	26	0	22020096	56	7961
2026-01-12 14:01:30.56	21.06	3.59	-43.5	-46.6	14.2	0.00e+00	0	26	0	24117248	58	8692
2026-01-12 14:01:31.57	21.10	3.65	-44.2	-47.9	12.5	9.10e-06	0	26	0	25165824	60	8991
2026-01-12 14:01:32.58	21.13	3.72	-43.5	-46.4	15.7	6.75e-04	0	27	0	27262976	60	7514
2026-01-12 14:01:33.59	21.17	3.79	-41.1	-42.9	17.9	0.00e+00	0	27	0	29360128	56	6337
2026-01-12 14:01:34.60	21.20	3.85	-46.4	-55.8	3.7	0.00e+00	0	26	0	31457280	60	22167
2026-01-12 14:01:35.61	21.24	3.92	-45.6	-51.5	5.4	1.51e+00	0	27	104	31457280	60	13609
2026-01-12 14:01:36.62	21.27	3.99	-42.9	-45.5	14.6	3.62e-02	0	27	0	31457280	56	8527
2026-01-12 14:01:37.63	21.31	4.05	-42.7	-45.0	16.3	8.03e-02	0	27	0	32505856	60	6411
2026-01-12 14:01:38.64	21.34	4.12	-41.5	-43.4	17.6	0.00e+00	0	27	0	34603008	56	6744
2026-01-12 14:01:39.65	21.38	4.19	-41.4	-43.3	17.8	0.00e+00	0	26	0	36700160	56	6619
2026-01-12 14:01:40.66	21.41	4.26	-40.9	-42.6	18.4	0.00e+00	0	27	0	38797312	56	6163
2026-01-12 14:01:41.67	21.45	4.33	-41.5	-43.4	17.7	0.00e+00	0	27	0	40894464	56	6693
2026-01-12 14:01:42.67	21.48	4.39	-41.5	-43.4	17.5	0.00e+00	0	27	0	41943040	56	6752
2026-01-12 14:01:43.68	21.52	4.46	-40.9	-42.6	18.1	0.00e+00	0	27	0	44040192	56	6154
2026-01-12 14:01:44.69	21.56	4.53	-41.4	-43.2	17.9	0.00e+00	0	27	0	46137344	56	6602
2026-01-12 14:01:45.70	21.59	4.60	-41.3	-43.1	17.9	0.00e+00	0	26	0	48234496	56	6475
2026-01-12 14:01:46.71	21.63	4.67	-41.5	-43.4	17.7	0.00e+00	0	27	0	50331648	56	6721
2026-01-12 14:01:47.72	21.67	4.74	-41.4	-43.2	17.9	0.00e+00	0	26	0	51380224	56	6561
2026-01-12 14:01:48.73	21.70	4.80	-41.5	-43.3	17.9	0.00e+00	0	26	0	53477376	56	6654
2026-01-12 14:01:49.74	21.74	4.87	-41.2	-43.0	18.2	0.00e+00	0	27	0	55574528	56	6401
2026-01-12 14:01:50.75	21.78	4.94	-41.5	-43.4	17.8	0.00e+00	0	27	0	57671680	56	6724
2026-01-12 14:01:51.76	21.81	5.01	-41.5	-43.3	17.9	0.00e+00	0	27	0	59768832	56	6623
2026-01-12 14:01:52.77	21.85	5.08	-41.5	-43.3	17.9	0.00e+00	0	27	0	60817408	56	6630
2026-01-12 14:01:53.78	21.89	5.15	-41.2	-43.0	18.3	0.00e+00	0	27	0	62914560	56	6397
2026-01-12 14:01:54.79	21.93	5.22	-41.2	-43.0	18.3	0.00e+00	0	27	0	65011712	56	6402
2026-01-12 14:01:55.80	21.96	5.29	-40.7	-42.3	18.9	0.00e+00	0	27	0	67108864	56	5963
2026-01-12 14:01:56.81	22.00	5.36	-40.6	-42.2	18.9	0.00e+00	0	27	0	69206016	54	6571
2026-01-12 14:01:57.82	22.04	5.43	-40.6	-42.2	18.8	0.00e+00	0	27	0	70254592	54	6581
2026-01-12 14:01:58.83	22.08	5.51	-40.7	-42.3	18.8	0.00e+00	0	27	0	72351744	54	6626
2026-01-12 14:01:59.84	22.12	5.58	-40.4	-41.9	19.1	0.00e+00	0	27	0	74448896	54	6343
2026-01-12 14:02:00.85	22.16	5.65	-40.5	-42.1	19.2	0.00e+00	0	27	0	76546048	54	6473
2026-01-12 14:02:01.86	22.19	5.72	-40.3	-41.8	19.3	0.00e+00	0	27	0	78643200	54	6272
2026-01-12 14:02:02.87	22.23	5.79	-40.2	-41.7	19.3	0.00e+00	0	27	0	79691776	54	6194
2026-01-12 14:02:03.88	22.27	5.86	-40.2	-41.7	19.6	0.00e+00	0	27	0	81788928	54	6182
2026-01-12 14:02:04.89	22.31	5.93	-40.0	-41.4	19.8	0.00e+00	0	27	0	83886080	54	6011
2026-01-12 14:02:05.90	22.35	6.01	-40.2	-41.6	19.5	0.00e+00	0	27	0	85983232	54	6171
2026-01-12 14:02:06.91	22.39	6.08	-40.5	-42.0	19.2	0.00e+00	0	27	0	88080384	54	6422
2026-01-12 14:02:07.92	22.43	6.15	-40.7	-42.2	19.0	0.00e+00	0	27	0	90177536	54	6595
2026-01-12 14:02:08.93	22.47	6.22	-40.5	-42.1	19.1	0.00e+00	0	27	0	91226112	54	6476
2026-01-12 14:02:09.94	22.51	6.30	-40.1	-41.6	19.6	0.00e+00	0	27	0	93323264	54	6115
2026-01-12 14:02:10.95	22.55	6.37	-40.2	-41.6	19.5	0.00e+00	0	27	0	95420416	54	6155
2026-01-12 14:02:11.96	22.59	6.44	-40.1	-41.5	19.7	0.00e+00	0	27	0	97517568	54	6103
2026-01-12 14:02:12.97	22.63	6.52	-39.8	-41.2	19.9	0.00e+00	0	27	0	99614720	54	5860
2026-01-12 14:02:13.98	22.67	6.59	-39.9	-41.3	20.0	0.00e+00	0	27	0	100663296	54	5899
2026-01-12 14:02:14.99	22.71	6.66	-39.7	-41.1	20.0	0.00e+00	0	27	0	102760448	52	6475
2026-01-12 14:02:16.00	22.76	6.74	-39.5	-40.7	20.5	0.00e+00	0	27	0	104857600	52	6234
2026-01-12 14:02:17.01	22.80	6.81	-39.8	-41.1	20.1	0.00e+00	0	27	0	106954752	52	6485
2026-01-12 14:02:18.01	22.84	6.89	-39.6	-40.9	20.2	0.00e+00	0	27	0	109051904	52	6370
2026-01-12 14:02:19.02	22.88	6.96	-39.6	-40.9	20.0	0.00e+00	0	27	0	110100480	52	6357
2026-01-12 14:02:20.03	22.92	7.04	-39.4	-40.6	20.3	0.00e+00	0	27	0	112197632	52	6126
2026-01-12 14:02:21.04	22.96	7.11	-39.5	-40.8	20.2	0.00e+00	0	27	0	114294784	52	6258
2026-01-12 14:02:22.05	23.01	7.19	-39.1	-40.2	20.6	0.00e+00	0	27	0	116391936	52	5896
2026-01-12 14:02:23.06	23.05	7.26	-39.2	-40.4	20.7	0.00e+00	0	27	0	118489088	52	5983
2026-01-12 14:02:24.07	23.09	7.34	-39.2	-40.4	20.6	0.00e+00	0	27	0	119537664	52	5966
2026-01-12 14:02:25.08	23.14	7.41	-39.3	-40.5	20.5	0.00e+00	0	27	0	121634816	52	6071
2026-01-12 14:02:26.09	23.18	7.49	-39.3	-40.6	20.6	0.00e+00	0	27	0	123731968	52	6118
2026-01-12 14:02:27.10	23.22	7.57	-39.2	-40.4	20.7	0.00e+00	0	27	0	125829120	52	6021
2026-01-12 14:02:28.11	23.27	7.64	-39.1	-40.3	20.9	0.00e+00	0	27	0	127926272	52	5921
2026-01-12 14:02:29.12	23.31	7.72	-39.1	-40.2	20.9	0.00e+00	0	27	0	128974848	52	5885
2026-01-12 14:02:30.13	23.35	7.80	-39.0	-40.2	20.9	0.00e+00	0	27	0	131072000	52	5835
2026-01-12 14:02:31.14	23.40	7.88	-39.1	-40.3	20.8	0.00e+00	0	27	0	133169152	52	5954
2026-01-12 14:02:32.14	23.44	7.95	-38.8	-40.0	21.2	0.00e+00	0	27	0	135266304	52	5697
2026-01-12 14:02:33.15	23.49	8.03	-38.8	-40.0	21.2	0.00e+00	0	27	0	137363456	52	5703
2026-01-12 14:02:34.16	23.53	8.11	-39.0	-40.1	21.0	0.00e+00	0	27	0	138412032	52	5818
2026-01-12 14:02:35.17	23.58	8.19	-38.9	-40.0	21.1	0.00e+00	0	27	0	140509184	52	5750
2026-01-12 14:02:36.18	23.62	8.26	-38.9	-40.0	21.3	0.00e+00	0	27	0	142606336	52	5744
2026-01-12 14:02:37.19	23.67	8.34	-39.1	-40.3	20.9	0.00e+00	0	27	0	144703488	52	5953
2026-01-12 14:02:38.20	23.71	8.42	-39.1	-40.3	21.1	0.00e+00	0	27	0	146800640	52	5923
2026-01-12 14:02:39.21	23.76	8.50	-39.0	-40.1	21.1	0.00e+00	0	27	0	147849216	52	5821
2026-01-12 14:02:40.22	23.80	8.58	-38.9	-40.0	21.2	0.00e+00	0	27	0	149946368	50	6437
2026-01-12 14:02:41.23	23.85	8.66	-38.9	-40.1	21.1	0.00e+00	0	27	0	152043520	50	6481
2026-01-12 14:02:42.24	23.90	8.74	-38.8	-39.9	21.3	0.00e+00	0	27	0	154140672	50	6383
2026-01-12 14:02:43.25	23.94	8.82	-38.8	-40.0	21.3	0.00e+00	0	27	0	156237824	50	6400
2026-01-12 14:02:44.26	23.99	8.90	-38.8	-39.9	21.2	0.00e+00	0	27	0	158334976	50	6372
2026-01-12 14:02:45.27	24.04	8.98	-39.1	-40.2	21.0	0.00e+00	0	27	0	159383552	50	6611
2026-01-12 14:02:46.28	24.09	9.06	-38.7	-39.8	21.4	0.00e+00	0	27	0	161480704	50	6306
2026-01-12 14:02:47.29	24.13	9.14	-39.0	-40.1	21.1	0.00e+00	0	27	0	163577856	50	6517
2026-01-12 14:02:48.30	24.18	9.22	-39.0	-40.2	21.2	0.00e+00	0	27	0	165675008	50	6579
2026-01-12 14:02:49.31	24.23	9.31	-38.8	-40.0	21.3	0.00e+00	0	27	0	167772160	50	6422
2026-01-12 14:02:50.32	24.28	9.39	-38.8	-39.9	21.3	0.00e+00	0	27	0	168820736	50	6361
2026-01-12 14:02:51.33	24.33	9.47	-38.8	-40.0	21.2	0.00e+00	0	27	0	170917888	50	6415
2026-01-12 14:02:52.34	24.38	9.55	-38.9	-40.0	21.2	0.00e+00	0	27	0	173015040	50	6451
2026-01-12 14:02:53.36	24.43	9.64	-39.0	-40.2	21.1	0.00e+00	0	27	0	175112192	50	6551
2026-01-12 14:02:54.37	24.48	9.72	-39.0	-40.2	21.0	0.00e+00	0	27	0	177209344	50	6544
2026-01-12 14:02:55.38	24.53	9.80	-38.9	-40.1	21.1	0.00e+00	0	27	0	178257920	50	6492
2026-01-12 14:02:56.39	24.58	9.89	-39.0	-40.2	21.1	0.00e+00	0	27	0	180355072	50	6592
2026-01-12 14:02:57.40	24.63	9.97	-38.7	-39.9	21.4	0.00e+00	0	27	0	182452224	50	6332
2026-01-12 14:02:58.41	24.68	10.05	-39.0	-40.2	21.2	0.00e+00	0	27	0	184549376	50	6548
2026-01-12 14:02:59.42	24.73	10.14	-38.8	-40.0	21.4	0.00e+00	0	27	0	186646528	50	6398
2026-01-12 14:03:00.43	24.78	10.22	-38.8	-39.9	21.4	0.00e+00	0	27	0	187695104	50	6357
2026-01-12 14:03:01.44	24.83	10.31	-39.0	-40.1	21.2	0.00e+00	0	27	0	189792256	50	6534
2026-01-12 14:03:02.45	24.88	10.39	-38.8	-39.9	21.5	0.00e+00	0	27	0	191889408	50	6353
2026-01-12 14:03:03.46	24.93	10.48	-38.6	-39.7	21.6	0.00e+00	0	27	0	193986560	50	6239
2026-01-12 14:03:04.47	24.99	10.56	-38.7	-39.8	21.6	0.00e+00	0	27	0	196083712	50	6310
2026-01-12 14:03:05.48	25.04	10.65	-38.6	-39.7	21.5	0.00e+00	0	27	0	197132288	50	6234
2026-01-12 14:03:06.49	25.09	10.74	-38.7	-39.8	21.5	0.00e+00	0	27	0	199229440	50	6313
2026-01-12 14:03:07.50	25.14	10.82	-38.6	-39.7	21.5	0.00e+00	0	27	0	201326592	50	6199
2026-01-12 14:03:08.51	25.20	10.91	-38.6	-39.7	21.6	0.00e+00	0	27	0	203423744	50	6207
2026-01-12 14:03:09.52	25.25	11.00	-38.6	-39.8	21.6	0.00e+00	0	27	0	205520896	50	6260
2026-01-12 14:03:10.53	25.31	11.08	-38.5	-39.6	21.8	0.00e+00	0	27	0	206569472	50	6155
2026-01-12 14:03:11.54	25.36	11.17	-38.5	-39.6	21.8	0.00e+00	0	27	0	208666624	50	6132
2026-01-12 14:03:12.54	25.41	11.26	-38.5	-39.6	21.7	0.00e+00	0	27	0	210763776	50	6168
2026-01-12 14:03:13.55	25.47	11.35	-38.6	-39.7	21.7	0.00e+00	0	27	0	212860928	50	6237
2026-01-12 14:03:14.57	25.52	11.43	-38.7	-39.8	21.6	0.00e+00	0	27	0	214958080	50	6291
2026-01-12 14:03:15.57	25.58	11.52	-38.5	-39.5	21.8	0.00e+00	0	27	0	216006656	50	6102
2026-01-12 14:03:16.58	25.63	11.61	-38.4	-39.5	21.8	0.00e+00	0	27	0	218103808	50	6052
2026-01-12 14:03:17.60	25.69	11.70	-38.4	-39.5	21.8	0.00e+00	0	27	0	220200960	50	6052
2026-01-12 14:03:18.60	25.75	11.79	-38.4	-39.5	21.8	0.00e+00	0	27	0	222298112	50	6081
2026-01-12 14:03:19.62	25.80	11.88	-38.4	-39.4	21.9	0.00e+00	0	27	0	224395264	50	6021
2026-01-12 14:03:20.63	25.86	11.97	-38.2	-39.2	22.0	0.00e+00	0	27	0	226492416	50	5872
2026-01-12 14:03:21.64	25.92	12.06	-38.3	-39.4	22.0	0.00e+00	0	27	0	227540992	50	5970
2026-01-12 14:03:22.64	25.98	12.15	-38.2	-39.3	22.1	0.00e+00	0	27	0	229638144	50	5907
2026-01-12 14:03:23.65	26.03	12.24	-38.1	-39.2	22.0	0.00e+00	0	27	0	231735296	50	5864
2026-01-12 14:03:24.66	26.09	12.34	-38.1	-39.1	22.2	0.00e+00	0	27	0	233832448	50	5828
2026-01-12 14:03:25.67	26.15	12.43	-38.1	-39.1	22.1	0.00e+00	0	27	0	235929600	50	5807
2026-01-12 14:03:26.68	26.21	12.52	-38.1	-39.1	22.1	0.00e+00	0	27	0	236978176	50	5801
2026-01-12 14:03:27.69	26.27	12.61	-37.9	-38.9	22.3	0.00e+00	0	27	0	239075328	50	5685
2026-01-12 14:03:28.70	26.33	12.71	-38.1	-39.2	22.1	0.00e+00	0	27	0	241172480	50	5856
2026-01-12 14:03:29.71	26.39	12.80	-38.1	-39.1	22.2	0.00e+00	0	27	0	243269632	50	5807
2026-01-12 14:03:30.72	26.45	12.89	-38.0	-39.0	22.3	0.00e+00	0	27	0	245366784	50	5719
2026-01-12 14:03:31.73	26.51	12.99	-37.7	-38.7	22.6	0.00e+00	0	27	0	246415360	48	6188
2026-01-12 14:03:32.74	26.57	13.08	-37.7	-38.7	22.5	0.00e+00	0	27	0	248512512	48	6224
2026-01-12 14:03:33.75	26.63	13.18	-37.6	-38.5	22.6	0.00e+00	0	27	0	250609664	48	6101
2026-01-12 14:03:34.76	26.69	13.27	-37.6	-38.5	22.7	0.00e+00	0	27	0	252706816	48	6102
2026-01-12 14:03:35.77	26.76	13.37	-37.4	-38.3	22.8	0.00e+00	0	27	0	254803968	48	5953
2026-01-12 14:03:36.78	26.82	13.46	-37.5	-38.5	22.6	0.00e+00	0	27	0	255852544	48	6083
2026-01-12 14:03:37.79	26.88	13.56	-37.4	-38.4	22.7	0.00e+00	0	27	0	257949696	48	5970
2026-01-12 14:03:38.80	26.95	13.65	-37.3	-38.3	22.9	0.00e+00	0	27	0	260046848	48	5928
2026-01-12 14:03:39.81	27.01	13.75	-37.2	-38.1	23.0	0.00e+00	0	27	0	262144000	48	5797
2026-01-12 14:03:40.82	27.07	13.85	-37.1	-38.1	23.1	0.00e+00	0	27	0	264241152	48	5775
2026-01-12 14:03:41.83	27.14	13.94	-37.0	-37.9	23.2	0.00e+00	0	27	0	265289728	48	5689
2026-01-12 14:03:42.83	27.20	14.04	-37.0	-37.9	23.2	0.00e+00	0	27	0	267386880	48	5664
2026-01-12 14:03:43.84	27.27	14.14	-36.8	-37.7	23.3	0.00e+00	0	27	0	269484032	48	5543
2026-01-12 14:03:44.85	27.33	14.24	-36.8	-37.7	23.2	0.00e+00	0	27	0	271581184	48	5552
2026-01-12 14:03:45.86	27.40	14.34	-36.8	-37.7	23.4	0.00e+00	0	27	0	273678336	46	6199
2026-01-12 14:03:46.87	27.47	14.44	-36.8	-37.7	23.2	0.00e+00	0	27	0	274726912	46	6245
2026-01-12 14:03:47.88	27.53	14.54	-36.8	-37.7	23.4	0.00e+00	0	27	0	276824064	46	6180
2026-01-12 14:03:48.89	27.60	14.64	-36.9	-37.8	23.3	0.00e+00	0	27	0	278921216	46	6268
2026-01-12 14:03:49.90	27.67	14.74	-36.7	-37.6	23.4	0.00e+00	0	27	0	281018368	46	6143
2026-01-12 14:03:50.91	27.74	14.84	-36.8	-37.7	23.4	0.00e+00	0	27	0	283115520	46	6179
2026-01-12 14:03:51.92	27.80	14.94	-36.6	-37.5	23.5	0.00e+00	0	27	0	284164096	46	6090
2026-01-12 14:03:52.93	27.87	15.04	-36.7	-37.6	23.5	0.00e+00	0	27	0	286261248	46	6152
2026-01-12 14:03:53.94	27.94	15.14	-36.9	-37.8	23.4	0.00e+00	0	27	0	288358400	46	6273
2026-01-12 14:03:54.95	28.01	15.24	-36.5	-37.4	23.6	0.00e+00	0	27	0	290455552	46	6000
2026-01-12 14:03:55.95	28.08	15.35	-36.6	-37.5	23.6	0.00e+00	0	27	0	292552704	46	6041
2026-01-12 14:03:56.96	28.15	15.45	-36.6	-37.5	23.6	0.00e+00	0	27	0	294649856	46	6092
2026-01-12 14:03:57.97	28.22	15.55	-36.6	-37.5	23.5	0.00e+00	0	27	0	295698432	46	6055
2026-01-12 14:03:58.98	28.30	15.66	-36.5	-37.4	23.7	0.00e+00	0	27	0	297795584	46	5983
2026-01-12 14:04:00.00	28.37	15.76	-36.6	-37.5	23.6	0.00e+00	0	27	0	299892736	46	6046
2026-01-12 14:04:01.01	28.44	15.87	-36.6	-37.5	23.6	0.00e+00	0	27	0	301989888	46	6042
2026-01-12 14:04:02.02	28.51	15.97	-36.7	-37.7	23.6	0.00e+00	0	27	0	304087040	46	6182
2026-01-12 14:04:03.03	28.59	16.08	-36.6	-37.5	23.5	0.00e+00	0	27	0	305135616	46	6085
2026-01-12 14:04:04.04	28.66	16.18	-36.7	-37.6	23.5	0.00e+00	0	27	0	307232768	46	6137
2026-01-12 14:04:05.05	28.74	16.29	-36.8	-37.7	23.4	0.00e+00	0	27	0	309329920	46	6234
2026-01-12 14:04:06.06	28.81	16.40	-36.7	-37.6	23.6	0.00e+00	0	27	0	311427072	46	6114
2026-01-12 14:04:07.07	28.89	16.50	-36.7	-37.6	23.6	0.00e+00	0	27	0	313524224	46	6109
2026-01-12 14:04:08.08	28.96	16.61	-36.6	-37.5	23.5	0.00e+00	0	27	0	314572800	46	6098
2026-01-12 14:04:09.09	29.04	16.72	-36.8	-37.8	23.4	0.00e+00	0	27	0	316669952	46	6256
2026-01-12 14:04:10.09	29.12	16.83	-36.8	-37.7	23.4	0.00e+00	0	27	0	318767104	46	6185
2026-01-12 14:04:11.10	29.19	16.94	-36.7	-37.6	23.5	0.00e+00	0	27	0	320864256	46	6152
2026-01-12 14:04:12.11	29.27	17.04	-36.4	-37.3	23.8	0.00e+00	0	27	0	322961408	46	5928
2026-01-12 14:04:13.12	29.35	17.15	-36.6	-37.5	23.7	0.00e+00	0	27	0	324009984	46	6055
2026-01-12 14:04:14.13	29.43	17.26	-36.6	-37.5	23.7	0.00e+00	0	27	0	326107136	46	6044
2026-01-12 14:04:15.14	29.51	17.38	-36.3	-37.2	23.8	0.00e+00	0	27	0	328204288	46	5846
2026-01-12 14:04:16.15	29.59	17.49	-36.2	-37.0	23.9	0.00e+00	0	27	0	330301440	46	5745
2026-01-12 14:04:17.16	29.67	17.60	-36.3	-37.1	23.9	0.00e+00	0	27	0	332398592	46	5821
2026-01-12 14:04:18.17	29.75	17.71	-36.3	-37.2	23.9	0.00e+00	0	27	0	333447168	46	5857
2026-01-12 14:04:19.18	29.84	17.82	-36.3	-37.1	23.9	0.00e+00	0	27	0	335544320	46	5812
2026-01-12 14:04:20.19	29.92	17.94	-36.2	-37.1	23.9	0.00e+00	0	27	0	337641472	46	5793
2026-01-12 14:04:21.20	30.00	18.05	-36.3	-37.2	23.9	0.00e+00	0	27	0	339738624	46	5873
2026-01-12 14:04:22.21	30.09	18.16	-36.4	-37.3	23.8	0.00e+00	0	27	0	341835776	46	5931
2026-01-12 14:04:23.22	30.17	18.28	-36.4	-37.3	23.9	0.00e+00	0	27	0	342884352	46	5911
2026-01-12 14:04:24.22	30.25	18.39	-36.7	-37.7	23.4	0.00e+00	0	27	0	344981504	46	6179
2026-01-12 14:04:25.23	30.34	18.51	-36.7	-37.6	23.6	0.00e+00	0	27	0	347078656	46	6118
2026-01-12 14:04:26.24	30.43	18.62	-36.7	-37.6	23.6	0.00e+00	0	27	0	349175808	46	6163
2026-01-12 14:04:27.25	30.51	18.74	-36.7	-37.6	23.5	0.00e+00	0	27	0	351272960	46	6155
2026-01-12 14:04:28.26	30.60	18.86	-36.8	-37.8	23.5	0.00e+00	0	27	0	352321536	46	6251
2026-01-12 14:04:29.27	30.69	18.97	-36.6	-37.5	23.7	0.00e+00	0	27	0	354418688	46	6061
2026-01-12 14:04:30.28	30.78	19.09	-36.6	-37.5	23.8	0.00e+00	0	27	0	356515840	46	6096
2026-01-12 14:04:31.29	30.87	19.21	-36.5	-37.4	23.8	0.00e+00	0	27	0	358612992	46	5992
2026-01-12 14:04:32.30	30.96	19.33	-36.4	-37.3	23.9	0.00e+00	0	27	0	360710144	46	5924
2026-01-12 14:04:33.31	31.05	19.45	-36.4	-37.3	23.7	0.00e+00	0	27	0	362807296	46	5947
2026-01-12 14:04:34.32	31.14	19.57	-36.5	-37.4	23.8	0.00e+00	0	27	0	363855872	46	5966
2026-01-12 14:04:35.33	31.23	19.69	-36.2	-37.1	23.8	0.00e+00	0	27	0	365953024	46	5780
2026-01-12 14:04:36.34	31.33	19.81	-36.2	-37.1	23.9	0.00e+00	0	27	0	368050176	46	5801
2026-01-12 14:04:37.35	31.42	19.93	-36.2	-37.1	23.9	0.00e+00	0	27	0	370147328	46	5784
2026-01-12 14:04:38.36	31.51	20.05	-36.3	-37.2	23.8	0.00e+00	0	27	0	372244480	46	5861
2026-01-12 14:04:39.37	31.61	20.18	-36.1	-37.0	24.1	0.00e+00	0	27	0	373293056	46	5703
2026-01-12 14:04:40.37	31.70	20.30	-36.0	-36.8	24.1	0.00e+00	0	27	0	375390208	46	5625
2026-01-12 14:04:41.38	31.80	20.42	-36.1	-37.0	24.1	0.00e+00	0	27	0	377487360	46	5698
2026-01-12 14:04:42.39	31.90	20.55	-36.2	-37.1	24.0	0.00e+00	0	27	0	379584512	46	5772
2026-01-12 14:04:43.40	31.99	20.67	-36.1	-37.0	24.1	0.00e+00	0	27	0	381681664	46	5712
2026-01-12 14:04:44.41	32.09	20.80	-36.0	-36.8	24.2	0.00e+00	0	27	0	382730240	46	5623
2026-01-12 14:04:45.42	32.19	20.92	-36.0	-36.8	24.1	0.00e+00	0	27	0	384827392	46	5624
2026-01-12 14:04:46.43	32.29	21.05	-36.1	-37.0	24.2	0.00e+00	0	27	0	386924544	46	5702
2026-01-12 14:04:47.44	32.39	21.18	-35.7	-36.5	24.3	0.00e+00	0	27	0	389021696	44	6074
2026-01-12 14:04:48.45	32.50	21.30	-35.9	-36.8	24.3	0.00e+00	0	27	0	391118848	44	6268
2026-01-12 14:04:49.46	32.60	21.43	-35.9	-36.7	24.2	0.00e+00	0	27	0	392167424	44	6224
2026-01-12 14:04:50.47	32.70	21.56	-36.0	-36.8	24.2	0.00e+00	0	27	0	394264576	44	6278
2026-01-12 14:04:51.48	32.81	21.69	-36.0	-36.9	24.2	0.00e+00	0	27	0	396361728	44	6320
2026-01-12 14:04:52.48	32.91	21.82	-36.2	-37.0	24.0	0.00e+00	0	27	0	398458880	44	6446
2026-01-12 14:04:53.49	33.02	21.95	-36.2	-37.1	24.0	0.00e+00	0	27	0	400556032	44	6484
2026-01-12 14:04:54.50	33.12	22.08	-36.2	-37.0	24.1	0.00e+00	0	27	0	401604608	44	6436
2026-01-12 14:04:55.52	33.23	22.21	-36.2	-37.0	24.0	0.00e+00	0	27	0	403701760	44	6438
2026-01-12 14:04:56.52	33.34	22.34	-36.2	-37.0	24.2	0.00e+00	0	27	0	405798912	44	6450
2026-01-12 14:04:57.53	33.45	22.47	-36.2	-37.0	24.1	0.00e+00	0	27	0	407896064	44	6435
2026-01-12 14:04:58.54	33.56	22.61	-35.9	-36.8	24.3	0.00e+00	0	27	0	409993216	44	6269
2026-01-12 14:04:59.55	33.67	22.74	-36.1	-37.0	24.0	0.00e+00	0	27	0	411041792	44	6401
2026-01-12 14:05:00.56	33.78	22.88	-36.1	-37.0	24.1	0.00e+00	0	27	0	413138944	44	6408
2026-01-12 14:05:01.57	33.90	23.01	-36.1	-36.9	24.0	0.00e+00	0	27	0	415236096	44	6374
2026-01-12 14:05:02.58	34.01	23.15	-36.3	-37.1	24.0	0.00e+00	0	27	0	417333248	44	6515
2026-01-12 14:05:03.59	34.13	23.28	-36.2	-37.0	24.0	0.00e+00	0	27	0	419430400	44	6460
2026-01-12 14:05:04.60	34.24	23.42	-36.2	-37.1	23.9	0.00e+00	0	27	0	420478976	44	6470
2026-01-12 14:05:05.61	34.36	23.56	-36.1	-37.0	24.0	0.00e+00	0	27	0	422576128	44	6413
2026-01-12 14:05:06.62	34.48	23.70	-36.2	-37.0	23.9	0.00e+00	0	27	0	424673280	44	6453
2026-01-12 14:05:07.63	34.60	23.83	-36.4	-37.3	23.5	0.00e+00	0	27	0	426770432	44	6659
2026-01-12 14:05:08.64	34.72	23.97	-36.5	-37.4	23.7	0.00e+00	0	27	0	428867584	44	6705
2026-01-12 14:05:09.65	34.84	24.11	-36.9	-37.8	23.3	0.00e+00	0	27	0	430964736	44	7075
2026-01-12 14:05:10.66	34.96	24.25	-36.7	-37.6	23.6	0.00e+00	0	27	0	432013312	46	6144
2026-01-12 14:05:11.67	35.08	24.39	-36.6	-37.4	23.9	0.00e+00	0	27	0	434110464	46	6021
2026-01-12 14:05:12.68	35.21	24.54	-36.4	-37.3	23.9	0.00e+00	0	27	0	436207616	46	5935
2026-01-12 14:05:13.69	35.33	24.68	-36.8	-37.7	23.5	0.00e+00	0	27	0	438304768	46	6206
2026-01-12 14:05:14.70	35.46	24.82	-36.8	-37.7	23.5	0.00e+00	0	27	0	440401920	46	6216
2026-01-12 14:05:15.71	35.59	24.97	-36.7	-37.5	23.6	0.00e+00	0	27	0	441450496	46	6099
2026-01-12 14:05:16.72	35.71	25.11	-36.9	-37.8	23.5	0.00e+00	0	27	0	443547648	46	6280
2026-01-12 14:05:17.73	35.84	25.26	-37.0	-37.9	23.5	0.00e+00	0	27	0	445644800	46	6357
2026-01-12 14:05:18.74	35.97	25.40	-37.0	-37.9	23.4	0.00e+00	0	27	0	447741952	46	6381
2026-01-12 14:05:19.75	36.11	25.55	-37.1	-38.0	23.3	0.00e+00	0	27	0	449839104	46	6431
2026-01-12 14:05:20.76	36.24	25.69	-36.8	-37.7	23.6	0.00e+00	0	27	0	450887680	46	6204
2026-01-12 14:05:21.77	36.37	25.84	-36.9	-37.8	23.5	0.00e+00	0	27	0	452984832	46	6295
2026-01-12 14:05:22.78	36.51	25.99	-37.0	-37.9	23.5	0.00e+00	0	27	0	455081984	46	6334
2026-01-12 14:05:23.79	36.65	26.14	-37.2	-38.1	23.3	0.00e+00	0	27	0	457179136	46	6490
2026-01-12 14:05:24.80	36.79	26.29	-37.0	-38.0	23.3	0.00e+00	0	27	0	459276288	46	6404
2026-01-12 14:05:25.81	36.93	26.44	-37.0	-37.9	23.3	0.00e+00	0	27	0	460324864	46	6362
2026-01-12 14:05:26.82	37.07	26.59	-36.7	-37.6	23.6	0.00e+00	0	27	0	462422016	46	6170
2026-01-12 14:05:27.83	37.21	26.74	-36.7	-37.6	23.7	0.00e+00	0	27	0	464519168	46	6106
2026-01-12 14:05:28.84	37.35	26.90	-37.4	-38.4	23.3	0.00e+00	0	27	0	466616320	46	6709
2026-01-12 14:05:29.85	37.50	27.05	-37.0	-38.0	23.4	0.00e+00	0	27	0	468713472	46	6395
2026-01-12 14:05:30.86	37.64	27.20	-37.1	-38.0	23.3	0.00e+00	0	27	0	469762048	46	6456
2026-01-12 14:05:31.87	37.79	27.36	-37.3	-38.2	23.2	0.00e+00	0	27	0	471859200	46	6568
2026-01-12 14:05:32.88	37.94	27.51	-37.2	-38.1	23.3	0.00e+00	0	27	0	473956352	46	6482
2026-01-12 14:05:33.89	38.09	27.67	-37.2	-38.1	23.3	0.00e+00	0	27	0	476053504	46	6539
2026-01-12 14:05:34.89	38.24	27.82	-37.5	-38.4	23.0	0.00e+00	0	27	0	478150656	46	6757
2026-01-12 14:05:35.91	38.39	27.98	-37.6	-38.6	22.9	0.00e+00	0	27	0	479199232	46	6863
2026-01-12 14:05:36.92	38.55	28.14	-37.6	-38.5	22.9	0.00e+00	0	27	0	481296384	48	6072
2026-01-12 14:05:37.93	38.70	28.30	-37.7	-38.6	23.0	0.00e+00	0	27	0	483393536	48	6147
2026-01-12 14:05:38.94	38.86	28.46	-37.9	-38.8	22.8	0.00e+00	0	27	0	485490688	48	6294
2026-01-12 14:05:39.95	39.02	28.62	-38.4	-39.4	22.3	0.00e+00	0	27	0	487587840	48	6746
2026-01-12 14:05:40.96	39.18	28.78	-38.7	-39.8	21.9	0.00e+00	0	27	0	488636416	48	7015
2026-01-12 14:05:41.97	39.34	28.94	-38.7	-39.7	22.0	0.00e+00	0	27	0	490733568	50	6219
2026-01-12 14:05:42.98	39.51	29.10	-39.1	-40.2	21.7	0.00e+00	0	27	0	492830720	50	6546
2026-01-12 14:05:43.99	39.67	29.26	-39.5	-40.7	21.3	0.00e+00	0	27	0	494927872	50	6967
2026-01-12 14:05:45.00	39.84	29.43	-39.6	-40.8	21.2	0.00e+00	0	27	0	497025024	52	6278
2026-01-12 14:05:46.01	40.01	29.59	-39.9	-41.1	21.0	0.00e+00	0	27	0	499122176	52	6498
2026-01-12 14:05:47.02	40.18	29.76	-40.0	-41.3	20.8	0.00e+00	0	27	0	500170752	52	6621
2026-01-12 14:05:48.03	40.35	29.92	-39.9	-41.2	20.8	0.00e+00	0	27	0	502267904	52	6560
2026-01-12 14:05:49.04	40.53	30.09	-39.6	-40.8	21.1	0.00e+00	0	27	0	504365056	52	6277
2026-01-12 14:05:50.05	40.70	30.25	-39.8	-41.1	20.6	0.00e+00	0	27	0	506462208	52	6477
2026-01-12 14:05:51.05	40.88	30.42	-39.7	-40.9	21.0	0.00e+00	0	27	0	508559360	52	6349
2026-01-12 14:05:52.06	41.06	30.59	-39.6	-40.8	21.0	0.00e+00	0	27	0	509607936	52	6284
2026-01-12 14:05:53.07	41.24	30.76	-39.3	-40.5	21.5	0.00e+00	0	27	0	511705088	52	6043
2026-01-12 14:05:54.08	41.42	30.93	-39.0	-40.1	21.8	0.00e+00	0	27	0	513802240	52	5825
2026-01-12 14:05:55.09	41.61	31.10	-39.0	-40.1	21.8	0.00e+00	0	27	0	515899392	52	5820
2026-01-12 14:05:56.10	41.79	31.27	-38.9	-40.0	21.8	0.00e+00	0	27	0	517996544	52	5721
2026-01-12 14:05:57.11	41.98	31.44	-38.7	-39.8	22.0	0.00e+00	0	27	0	519045120	52	5576
2026-01-12 14:05:58.12	42.17	31.61	-38.0	-39.0	22.5	0.00e+00	0	27	0	521142272	50	5703
2026-01-12 14:05:59.13	42.36	31.79	-38.2	-39.1	22.6	0.00e+00	0	27	0	523239424	50	5826
2026-01-12 14:06:00.14	42.56	31.96	-38.0	-39.0	22.6	0.00e+00	0	27	0	525336576	50	5741
2026-01-12 14:06:01.15	42.76	32.13	-38.1	-39.1	22.6	0.00e+00	0	27	0	527433728	50	5769
2026-01-12 14:06:02.16	42.95	32.31	-37.9	-38.9	22.7	0.00e+00	0	27	0	528482304	50	5659
2026-01-12 14:06:03.17	43.16	32.48	-38.2	-39.2	22.5	0.00e+00	0	27	0	530579456	50	5874
2026-01-12 14:06:04.18	43.36	32.66	-38.4	-39.5	22.2	0.00e+00	0	27	0	532676608	50	6039
2026-01-12 14:06:05.19	43.56	32.84	-38.5	-39.5	22.1	0.00e+00	0	27	0	534773760	50	6093
2026-01-12 14:06:06.20	43.77	33.02	-38.8	-39.9	22.0	0.00e+00	0	27	0	536870912	50	6325
2026-01-12 14:06:07.21	43.98	33.19	-38.5	-39.6	22.3	0.00e+00	0	27	0	537919488	50	6114
2026-01-12 14:06:08.22	44.19	33.37	-37.7	-38.6	23.0	0.00e+00	0	27	0	540016640	48	6151
2026-01-12 14:06:09.23	44.41	33.55	-37.7	-38.7	23.0	0.00e+00	0	27	0	542113792	48	6182
2026-01-12 14:06:10.24	44.62	33.73	-37.2	-38.0	23.5	0.00e+00	0	27	0	544210944	48	5753
2026-01-12 14:06:11.25	44.84	33.91	-37.3	-38.2	23.4	0.00e+00	0	27	0	546308096	48	5831
2026-01-12 14:06:12.26	45.06	34.09	-37.4	-38.3	23.2	0.00e+00	0	27	0	547356672	48	5898
2026-01-12 14:06:13.27	45.29	34.28	-37.3	-38.2	23.3	0.00e+00	0	27	0	549453824	48	5876
2026-01-12 14:06:14.27	45.51	34.46	-37.5	-38.4	23.1	0.00e+00	0	27	0	551550976	48	6032
2026-01-12 14:06:15.28	45.74	34.64	-37.7	-38.6	23.0	0.00e+00	0	27	0	553648128	48	6149
2026-01-12 14:06:16.30	45.97	34.83	-37.8	-38.8	22.8	0.00e+00	0	27	0	555745280	48	6250
2026-01-12 14:06:17.30	46.20	35.01	-37.7	-38.6	22.9	0.00e+00	0	27	0	556793856	48	6159
2026-01-12 14:06:18.31	46.44	35.19	-37.8	-38.8	22.4	0.00e+00	0	27	0	558891008	48	6281
2026-01-12 14:06:19.32	46.68	35.38	-38.0	-39.0	22.5	0.00e+00	0	27	0	560988160	48	6432
2026-01-12 14:06:20.33	46.92	35.57	-38.0	-38.9	22.9	0.00e+00	0	27	0	563085312	48	6380
2026-01-12 14:06:21.34	47.17	35.75	-37.7	-38.7	22.9	0.00e+00	0	27	0	565182464	48	6181
2026-01-12 14:06:22.35	47.41	35.94	-37.3	-38.3	23.4	0.00e+00	0	27	0	567279616	48	5899
2026-01-12 14:06:23.36	47.66	36.13	-37.3	-38.2	23.3	0.00e+00	0	27	0	568328192	48	5860
2026-01-12 14:06:24.37	47.92	36.32	-36.6	-37.5	23.9	0.00e+00	0	27	0	570425344	46	6047
2026-01-12 14:06:25.38	48.17	36.50	-37.0	-37.8	23.5	0.00e+00	0	27	0	572522496	46	6315
2026-01-12 14:06:26.39	48.43	36.69	-37.1	-38.0	23.4	0.00e+00	0	27	0	574619648	46	6446
2026-01-12 14:06:27.40	48.69	36.88	-37.1	-38.0	23.5	0.00e+00	0	27	0	576716800	46	6430
2026-01-12 14:06:28.41	48.96	37.07	-37.3	-38.2	23.2	0.00e+00	0	27	0	577765376	46	6581
2026-01-12 14:06:29.42	49.22	37.26	-37.2	-38.1	23.6	0.00e+00	0	27	0	579862528	46	6482
2026-01-12 14:06:30.43	49.49	37.45	-36.9	-37.8	23.7	0.00e+00	0	27	0	581959680	46	6272
2026-01-12 14:06:31.44	49.77	37.65	-36.4	-37.3	24.0	0.00e+00	0	27	0	584056832	46	5904
2026-01-12 14:06:32.44	50.04	37.84	-36.7	-37.6	24.1	0.00e+00	0	27	0	586153984	46	6114
2026-01-12 14:06:33.45	50.32	38.03	-36.6	-37.4	24.1	0.00e+00	0	27	0	587202560	46	6030
2026-01-12 14:06:34.46	50.61	38.22	-36.4	-37.2	24.1	0.00e+00	0	27	0	589299712	46	5871
2026-01-12 14:06:35.47	50.89	38.41	-36.7	-37.6	24.0	0.00e+00	0	27	0	591396864	46	6132
2026-01-12 14:06:36.48	51.18	38.61	-36.4	-37.3	23.9	0.00e+00	0	27	0	593494016	46	5926
2026-01-12 14:06:37.49	51.48	38.80	-36.6	-37.5	23.8	0.00e+00	0	27	0	595591168	46	6088
2026-01-12 14:06:38.50	51.78	38.99	-37.2	-38.2	23.4	0.00e+00	0	27	0	596639744	46	6560
2026-01-12 14:06:39.51	52.08	39.19	-37.5	-38.4	23.2	0.00e+00	0	27	0	598736896	46	6753
2026-01-12 14:06:40.52	52.38	39.38	-37.6	-38.6	22.9	0.00e+00	0	27	0	600834048	46	6869
2026-01-12 14:06:41.53	52.69	39.58	-37.4	-38.4	23.2	0.00e+00	0	27	0	602931200	46	6702
2026-01-12 14:06:42.54	53.00	39.77	-37.3	-38.3	23.3	0.00e+00	0	27	0	605028352	46	6631
2026-01-12 14:06:43.55	53.31	39.96	-37.4	-38.4	23.2	0.00e+00	0	27	0	606076928	46	6721
2026-01-12 14:06:44.56	53.63	40.16	-37.1	-38.1	23.3	0.00e+00	0	27	0	608174080	46	6465
2026-01-12 14:06:45.57	53.96	40.35	-37.4	-38.3	23.4	0.00e+00	0	27	0	610271232	46	6643
2026-01-12 14:06:46.57	54.28	40.55	-36.9	-37.8	23.6	0.00e+00	0	27	0	612368384	46	6299
2026-01-12 14:06:47.58	54.61	40.74	-36.9	-37.8	23.6	0.00e+00	0	27	0	614465536	46	6304
2026-01-12 14:06:48.59	54.94	40.94	-36.6	-37.5	23.8	0.00e+00	0	27	0	615514112	46	6049
2026-01-12 14:06:49.60	55.28	41.13	-36.9	-37.8	23.5	0.00e+00	0	27	0	617611264	46	6252
2026-01-12 14:06:50.61	55.63	41.33	-37.2	-38.1	22.9	0.00e+00	0	27	0	619708416	46	6520
2026-01-12 14:06:51.62	55.97	41.52	-37.7	-38.7	22.9	0.00e+00	0	27	0	621805568	46	6990
2026-01-12 14:06:52.63	56.32	41.72	-37.8	-38.9	22.7	0.00e+00	0	27	0	623902720	48	6326
2026-01-12 14:06:53.64	56.68	41.91	-37.8	-38.8	22.9	0.00e+00	0	27	0	624951296	48	6292
2026-01-12 14:06:54.65	57.04	42.11	-37.5	-38.4	23.2	0.00e+00	0	27	0	627048448	48	6020
2026-01-12 14:06:55.66	57.40	42.30	-37.4	-38.3	23.2	0.00e+00	0	27	0	629145600	48	5938
2026-01-12 14:06:56.67	57.77	42.49	-37.1	-38.0	23.3	0.00e+00	0	27	0	631242752	48	5735
2026-01-12 14:06:57.68	58.14	42.69	-37.2	-38.1	23.3	0.00e+00	0	27	0	633339904	48	5818
2026-01-12 14:06:58.69	58.52	42.88	-37.1	-38.0	23.4	0.00e+00	0	27	0	635437056	48	5754
2026-01-12 14:06:59.70	58.90	43.07	-36.8	-37.8	23.5	0.00e+00	0	27	0	636485632	46	6251
2026-01-12 14:07:00.71	59.28	43.27	-36.6	-37.4	23.8	0.00e+00	0	27	0	638582784	46	6025
2026-01-12 14:07:01.72	59.67	43.46	-36.7	-37.6	23.8	0.00e+00	0	27	0	640679936	46	6127
2026-01-12 14:07:02.73	60.07	43.65	-36.8	-37.7	23.6	0.00e+00	0	27	0	642777088	46	6243
2026-01-12 14:07:03.74	60.47	43.84	-37.1	-38.0	23.6	0.00e+00	0	27	0	644874240	46	6419
2026-01-12 14:07:04.75	60.87	44.03	-37.4	-38.3	23.3	0.00e+00	0	27	0	645922816	46	6683
2026-01-12 14:07:05.76	61.28	44.22	-37.0	-38.0	23.4	0.00e+00	0	27	0	648019968	46	6399
2026-01-12 14:07:06.77	61.70	44.41	-37.0	-38.0	23.5	0.00e+00	0	27	0	650117120	46	6395
2026-01-12 14:07:07.78	62.11	44.60	-37.3	-38.3	22.9	0.00e+00	0	27	0	652214272	46	6660
2026-01-12 14:07:08.79	62.54	44.79	-37.7	-38.7	22.9	0.00e+00	0	27	0	653262848	48	6219
2026-01-12 14:07:09.80	62.97	44.97	-37.8	-38.8	22.7	0.00e+00	0	27	0	655360000	48	6257
2026-01-12 14:07:10.80	63.40	45.16	-38.0	-39.0	22.7	0.00e+00	0	27	0	657457152	48	6430
2026-01-12 14:07:11.81	63.84	45.34	-38.4	-39.4	22.2	0.00e+00	0	27	0	659554304	48	6752
2026-01-12 14:07:12.82	64.28	45.53	-38.9	-40.0	21.8	0.00e+00	0	27	0	661651456	50	6420
2026-01-12 14:07:13.83	64.73	45.71	-38.7	-39.9	22.1	0.00e+00	0	27	0	663748608	50	6323
2026-01-12 14:07:14.84	65.18	45.89	-38.5	-39.6	22.1	0.00e+00	0	27	0	664797184	50	6146
2026-01-12 14:07:15.85	65.64	46.07	-38.3	-39.3	22.4	0.00e+00	0	27	0	666894336	50	5944
2026-01-12 14:07:16.86	66.11	46.25	-37.6	-38.6	23.0	0.00e+00	0	27	0	668991488	50	5485
2026-01-12 14:07:17.87	66.58	46.43	-37.6	-38.6	22.8	0.00e+00	0	27	0	671088640	48	6147
2026-01-12 14:07:18.88	67.05	46.61	-37.3	-38.3	23.3	0.00e+00	0	27	0	673185792	48	5908
2026-01-12 14:07:19.89	67.53	46.78	-37.2	-38.1	23.5	0.00e+00	0	27	0	674234368	48	5762
2026-01-12 14:07:20.90	68.02	46.96	-37.7	-38.7	22.9	0.00e+00	0	27	0	676331520	48	6211
2026-01-12 14:07:21.90	68.51	47.13	-36.7	-37.6	23.6	0.00e+00	0	27	0	678428672	46	6147
2026-01-12 14:07:22.92	69.01	47.30	-36.4	-37.2	24.1	0.00e+00	0	27	0	680525824	46	5894
2026-01-12 14:07:23.93	69.51	47.47	-36.5	-37.4	23.8	0.00e+00	0	27	0	682622976	46	5990
2026-01-12 14:07:24.94	70.02	47.64	-36.4	-37.3	23.9	0.00e+00	0	27	0	683671552	46	5899
2026-01-12 14:07:25.95	70.53	47.81	-36.5	-37.3	23.8	0.00e+00	0	27	0	685768704	46	5944
2026-01-12 14:07:26.96	71.05	47.97	-36.5	-37.4	24.0	0.00e+00	0	27	0	687865856	46	5979
2026-01-12 14:07:27.97	71.57	48.13	-36.5	-37.3	23.7	0.00e+00	0	27	0	689963008	46	5949
2026-01-12 14:07:28.98	72.10	48.29	-36.9	-37.8	23.4	0.00e+00	0	27	0	692060160	46	6311
2026-01-12 14:07:29.98	72.63	48.45	-36.8	-37.7	23.6	0.00e+00	0	27	0	693108736	46	6238
2026-01-12 14:07:30.99	73.17	48.61	-36.8	-37.7	23.6	0.00e+00	0	27	0	695205888	46	6224
2026-01-12 14:07:32.00	73.72	48.76	-36.5	-37.4	23.9	0.00e+00	0	27	0	697303040	46	5965
2026-01-12 14:07:33.01	74.27	48.91	-36.9	-37.8	23.5	0.00e+00	0	27	0	699400192	46	6298
2026-01-12 14:07:34.02	74.83	49.06	-37.2	-38.2	23.2	0.00e+00	0	27	0	701497344	46	6549
2026-01-12 14:07:35.03	75.39	49.21	-36.7	-37.5	23.7	0.00e+00	0	27	0	702545920	46	6102
2026-01-12 14:07:36.04	75.95	49.35	-36.5	-37.4	23.8	0.00e+00	0	27	0	704643072	46	6013
2026-01-12 14:07:37.05	76.53	49.50	-37.0	-37.9	23.6	0.00e+00	0	27	0	706740224	46	6341
2026-01-12 14:07:38.06	77.11	49.64	-37.3	-38.2	23.1	0.00e+00	0	27	0	708837376	46	6592
2026-01-12 14:07:39.07	77.69	49.77	-37.2	-38.2	23.0	0.00e+00	0	27	0	710934528	46	6560
2026-01-12 14:07:40.08	78.28	49.91	-37.3	-38.3	23.1	0.00e+00	0	27	0	711983104	46	6653
2026-01-12 14:07:41.09	78.87	50.04	-37.6	-38.5	22.9	0.00e+00	0	27	0	714080256	46	6819
2026-01-12 14:07:42.10	79.47	50.17	-37.8	-38.8	22.6	0.00e+00	0	27	0	716177408	48	6262
2026-01-12 14:07:43.11	80.07	50.30	-37.7	-38.7	22.8	0.00e+00	0	27	0	718274560	48	6213
2026-01-12 14:07:44.12	80.68	50.42	-37.6	-38.6	22.9	0.00e+00	0	27	0	720371712	48	6143
2026-01-12 14:07:45.13	81.29	50.54	-38.1	-39.1	22.3	0.00e+00	0	27	0	721420288	48	6525
2026-01-12 14:07:46.14	81.91	50.66	-39.1	-40.3	21.4	0.00e+00	0	27	0	723517440	50	6647
2026-01-12 14:07:47.15	82.54	50.77	-39.1	-40.3	21.5	0.00e+00	0	27	0	725614592	50	6686
2026-01-12 14:07:48.16	83.16	50.88	-38.8	-39.9	21.8	0.00e+00	0	27	0	727711744	50	6383
2026-01-12 14:07:49.17	83.80	50.99	-38.0	-39.1	22.5	0.00e+00	0	27	0	729808896	50	5784
2026-01-12 14:07:50.18	84.43	51.09	-38.2	-39.3	22.5	0.00e+00	0	27	0	731906048	50	5907
2026-01-12 14:07:51.18	85.07	51.19	-37.7	-38.6	23.0	0.00e+00	0	27	0	732954624	48	6169
2026-01-12 14:07:52.19	85.71	51.29	-37.1	-38.1	23.4	0.00e+00	0	27	0	735051776	48	5770
2026-01-12 14:07:53.20	86.36	51.38	-36.8	-37.7	23.5	0.00e+00	0	27	0	737148928	46	6216
2026-01-12 14:07:54.21	87.01	51.47	-36.9	-37.8	23.5	0.00e+00	0	27	0	739246080	46	6271
2026-01-12 14:07:55.22	87.67	51.56	-36.3	-37.2	23.9	0.00e+00	0	27	0	741343232	46	5846
2026-01-12 14:07:56.23	88.33	51.64	-35.9	-36.7	24.4	0.00e+00	0	27	0	742391808	46	5551
2026-01-12 14:07:57.24	89.00	51.72	-36.0	-36.8	24.2	0.00e+00	0	27	0	744488960	46	5606
2026-01-12 14:07:58.25	89.66	51.79	-36.9	-37.8	23.5	0.00e+00	0	27	0	746586112	46	6288
2026-01-12 14:07:59.26	90.33	51.86	-37.3	-38.2	23.2	0.00e+00	0	27	0	748683264	46	6582
2026-01-12 14:08:00.27	91.01	51.93	-37.3	-38.2	23.1	0.00e+00	0	27	0	750780416	46	6611
2026-01-12 14:08:01.28	91.68	51.99	-37.4	-38.4	23.1	0.00e+00	0	27	0	751828992	46	6747
2026-01-12 14:08:02.29	92.36	52.05	-37.2	-38.2	23.3	0.00e+00	0	27	0	753926144	46	6546
2026-01-12 14:08:03.30	93.05	52.11	-36.1	-36.9	24.2	0.00e+00	0	27	0	756023296	46	5686
2026-01-12 14:08:04.31	93.73	52.16	-35.6	-36.4	24.6	0.00e+00	0	27	0	758120448	44	6023
2026-01-12 14:08:05.32	94.42	52.20	-35.8	-36.7	24.3	0.00e+00	0	27	0	760217600	44	6175
2026-01-12 14:08:06.33	95.11	52.25	-36.7	-37.6	23.5	0.00e+00	0	27	0	761266176	44	6899
2026-01-12 14:08:07.34	95.80	52.28	-37.0	-37.9	23.4	0.00e+00	0	27	0	763363328	46	6360
2026-01-12 14:08:08.35	96.49	52.32	-36.8	-37.7	23.5	0.00e+00	0	27	0	765460480	46	6199
2026-01-12 14:08:09.36	97.19	52.35	-37.2	-38.1	23.3	0.00e+00	0	27	0	767557632	46	6505
2026-01-12 14:08:10.37	97.88	52.37	-37.7	-38.7	22.8	0.00e+00	0	27	0	769654784	46	6937
2026-01-12 14:08:11.38	98.58	52.40	-37.2	-38.2	23.3	0.00e+00	0	27	0	770703360	48	5844
2026-01-12 14:08:12.39	99.28	52.41	-36.3	-37.1	23.9	0.00e+00	0	27	0	772800512	46	5826
2026-01-12 14:08:13.40	99.97	52.43	-36.8	-37.7	23.5	0.00e+00	0	27	0	774897664	46	6221
2026-01-12 14:08:14.41	100.67	52.43	-37.7	-38.7	22.7	0.00e+00	0	27	0	776994816	46	6936
2026-01-12 14:08:15.42	101.37	52.44	-37.5	-38.5	23.0	0.00e+00	0	27	0	779091968	48	6077
2026-01-12 14:08:16.43	102.07	52.44	-36.8	-37.7	23.7	0.00e+00	0	27	0	780140544	46	6189
2026-01-12 14:08:17.44	102.77	52.43	-36.6	-37.5	23.8	0.00e+00	0	27	0	782237696	46	6092
2026-01-12 14:08:18.44	103.46	52.42	-37.6	-38.6	22.8	0.00e+00	0	27	0	784334848	46	6880
2026-01-12 14:08:19.45	104.16	52.41	-38.4	-39.5	22.2	0.00e+00	0	27	0	786432000	48	6777
2026-01-12 14:08:20.46	104.86	52.39	-38.2	-39.2	22.2	0.00e+00	0	27	0	788529152	48	6599
2026-01-12 14:08:21.47	105.55	52.37	-37.7	-38.7	22.9	0.00e+00	0	27	0	789577728	48	6175
2026-01-12 14:08:22.48	106.25	52.35	-37.0	-37.9	23.5	0.00e+00	0	27	0	791674880	48	5643
2026-01-12 14:08:23.49	106.94	52.32	-36.2	-37.0	23.8	0.00e+00	0	27	0	793772032	46	5759
2026-01-12 14:08:24.50	107.64	52.28	-35.8	-36.6	24.3	0.00e+00	0	27	0	795869184	46	5490
2026-01-12 14:08:25.51	108.33	52.24	-36.3	-37.2	23.6	0.00e+00	0	27	0	797966336	44	6562
2026-01-12 14:08:26.52	109.02	52.20	-36.3	-37.3	23.9	0.00e+00	0	27	0	800063488	44	6617
2026-01-12 14:08:27.53	109.71	52.15	-36.3	-37.2	23.9	0.00e+00	0	27	0	801112064	44	6580
2026-01-12 14:08:28.54	110.39	52.10	-35.9	-36.8	24.3	0.00e+00	0	27	0	803209216	44	6256
2026-01-12 14:08:29.54	111.07	52.05	-35.9	-36.8	24.2	0.00e+00	0	27	0	805306368	44	6290
2026-01-12 14:08:30.55	111.75	51.99	-35.8	-36.7	24.4	0.00e+00	0	27	0	807403520	44	6174
2026-01-12 14:08:31.55	112.42	51.93	-35.4	-36.3	24.7	0.00e+00	0	27	0	809500672	44	5900
2026-01-12 14:08:32.56	113.09	51.86	-35.3	-36.1	24.6	0.00e+00	0	27	0	810549248	44	5772
2026-01-12 14:08:33.57	113.76	51.79	-35.8	-36.7	24.2	0.00e+00	0	27	0	812646400	44	6174
2026-01-12 14:08:34.58	114.43	51.71	-36.3	-37.2	23.9	0.00e+00	0	27	0	814743552	44	6593
2026-01-12 14:08:35.59	115.10	51.63	-36.3	-37.2	23.8	0.00e+00	0	27	0	816840704	44	6572
2026-01-12 14:08:36.60	115.76	51.55	-36.1	-36.9	24.1	0.00e+00	0	27	0	818937856	44	6356
2026-01-12 14:08:37.61	116.41	51.47	-36.3	-37.1	23.9	0.00e+00	0	27	0	819986432	44	6525
2026-01-12 14:08:38.62	117.07	51.38	-37.1	-38.1	23.3	0.00e+00	0	27	0	822083584	46	6499
2026-01-12 14:08:39.63	117.72	51.28	-37.6	-38.6	23.0	0.00e+00	0	27	0	824180736	46	6874
2026-01-12 14:08:40.64	118.36	51.18	-37.3	-38.2	23.2	0.00e+00	0	27	0	826277888	46	6608
2026-01-12 14:08:41.64	119.00	51.08	-36.6	-37.5	23.7	0.00e+00	0	27	0	828375040	46	6072
2026-01-12 14:08:42.65	119.63	50.98	-36.1	-37.0	24.1	0.00e+00	0	27	0	829423616	46	5727
2026-01-12 14:08:43.67	120.27	50.87	-36.7	-37.6	23.6	0.00e+00	0	27	0	831520768	46	6172
2026-01-12 14:08:44.67	120.90	50.76	-35.7	-36.5	24.4	0.00e+00	0	27	0	833617920	46	5438
2026-01-12 14:08:45.68	121.52	50.65	-35.4	-36.3	24.6	0.00e+00	0	27	0	835715072	44	5902
2026-01-12 14:08:46.69	122.14	50.53	-35.7	-36.6	24.5	0.00e+00	0	27	0	837812224	44	6119
2026-01-12 14:08:47.70	122.75	50.41	-36.8	-37.8	23.4	0.00e+00	0	27	0	838860800	44	7013
2026-01-12 14:08:48.71	123.36	50.29	-37.6	-38.6	22.9	0.00e+00	0	27	0	840957952	46	6893
2026-01-12 14:08:49.72	123.96	50.16	-37.6	-38.6	22.9	0.00e+00	0	27	0	843055104	46	6870
2026-01-12 14:08:50.73	124.56	50.03	-37.1	-38.0	23.4	0.00e+00	0	27	0	845152256	46	6429
2026-01-12 14:08:51.74	125.16	49.90	-36.6	-37.5	23.8	0.00e+00	0	27	0	847249408	46	6092
2026-01-12 14:08:52.75	125.75	49.76	-36.1	-36.9	24.2	0.00e+00	0	27	0	848297984	46	5659
2026-01-12 14:08:53.76	126.33	49.63	-36.8	-37.8	23.6	0.00e+00	0	27	0	850395136	46	6254
2026-01-12 14:08:54.77	126.91	49.49	-36.9	-37.8	23.6	0.00e+00	0	27	0	852492288	46	6271
2026-01-12 14:08:55.78	127.48	49.34	-36.9	-37.8	23.5	0.00e+00	0	27	0	854589440	46	6262
2026-01-12 14:08:56.79	128.05	49.20	-36.7	-37.6	23.7	0.00e+00	0	27	0	856686592	46	6109
2026-01-12 14:08:57.80	128.61	49.05	-37.4	-38.4	23.2	0.00e+00	0	27	0	857735168	46	6705
2026-01-12 14:08:58.81	129.17	48.90	-37.2	-38.1	23.3	0.00e+00	0	27	0	859832320	46	6488
2026-01-12 14:08:59.82	129.72	48.75	-36.7	-37.6	23.6	0.00e+00	0	27	0	861929472	46	6160
2026-01-12 14:09:00.83	130.27	48.59	-36.2	-37.0	24.2	0.00e+00	0	27	0	864026624	46	5734
2026-01-12 14:09:01.83	130.80	48.44	-35.5	-36.3	24.6	0.00e+00	0	27	0	866123776	44	5935
2026-01-12 14:09:02.84	131.34	48.28	-36.1	-37.0	24.1	0.00e+00	0	27	0	868220928	44	6418
2026-01-12 14:09:03.85	131.87	48.12	-37.3	-38.2	23.2	0.00e+00	0	27	0	869269504	46	6585
2026-01-12 14:09:04.86	132.39	47.95	-38.4	-39.5	22.3	0.00e+00	0	27	0	871366656	48	6835
2026-01-12 14:09:05.87	132.91	47.79	-39.3	-40.5	21.3	0.00e+00	0	27	0	873463808	50	6826
2026-01-12 14:09:06.88	133.43	47.62	-39.3	-40.5	21.3	0.00e+00	0	27	0	875560960	50	6810
2026-01-12 14:09:07.89	133.93	47.45	-39.3	-40.5	21.1	0.00e+00	0	27	0	876609536	50	6818
2026-01-12 14:09:08.90	134.44	47.28	-38.9	-40.0	21.9	0.00e+00	0	27	0	878706688	50	6433
2026-01-12 14:09:09.91	134.93	47.11	-39.1	-40.2	21.3	0.00e+00	0	27	0	880803840	50	6584
2026-01-12 14:09:10.92	135.43	46.94	-40.8	-42.2	19.6	0.00e+00	0	27	0	882900992	52	7419
2026-01-12 14:09:11.93	135.91	46.76	-42.1	-44.0	17.6	0.00e+00	0	27	0	884998144	56	7177
2026-01-12 14:09:12.94	136.39	46.59	-42.9	-45.2	17.0	0.00e+00	0	27	0	886046720	58	7351
2026-01-12 14:09:13.95	136.87	46.41	-41.3	-42.9	19.2	0.00e+00	0	27	0	888143872	56	6383
2026-01-12 14:09:14.96	137.34	46.23	-40.3	-41.6	20.3	0.00e+00	0	27	0	890241024	54	6123
2026-01-12 14:09:15.97	137.81	46.05	-40.5	-41.9	20.3	0.00e+00	0	27	0	892338176	54	6321
2026-01-12 14:09:16.98	138.27	45.87	-41.2	-42.8	18.9	0.00e+00	0	27	0	894435328	54	7081
2026-01-12 14:09:17.99	138.72	45.69	-41.1	-42.8	19.3	0.00e+00	0	27	0	896532480	54	7023
2026-01-12 14:09:19.00	139.17	45.50	-40.4	-41.8	20.2	0.00e+00	0	27	0	897581056	54	6316
2026-01-12 14:09:20.01	139.62	45.32	-41.5	-43.2	18.8	0.00e+00	0	27	0	899678208	54	7420
2026-01-12 14:09:21.02	140.05	45.13	-41.9	-43.7	18.4	0.00e+00	0	27	0	901775360	56	6983
2026-01-12 14:09:22.03	140.49	44.94	-41.8	-43.5	18.7	0.00e+00	0	27	0	903872512	56	6832
2026-01-12 14:09:23.04	140.92	44.76	-42.2	-44.1	18.2	0.00e+00	0	27	0	905969664	56	7283
2026-01-12 14:09:24.05	141.34	44.57	-42.2	-44.1	18.2	0.00e+00	0	27	0	907018240	56	7331
2026-01-12 14:09:25.06	141.76	44.38	-42.1	-43.9	18.5	0.00e+00	0	27	0	909115392	56	7168
2026-01-12 14:09:26.07	142.18	44.19	-41.7	-43.4	18.9	0.00e+00	0	27	0	911212544	56	6711
2026-01-12 14:09:27.08	142.59	44.00	-42.2	-44.0	18.1	0.00e+00	0	27	0	913309696	56	7252
2026-01-12 14:09:28.09	142.99	43.81	-42.5	-44.5	17.9	0.00e+00	0	27	0	915406848	56	7598
2026-01-12 14:09:29.10	143.39	43.62	-41.8	-43.5	18.8	0.00e+00	0	27	0	916455424	56	6839
2026-01-12 14:09:30.11	143.79	43.42	-42.1	-43.9	18.6	0.00e+00	0	27	0	918552576	56	7108
2026-01-12 14:09:31.12	144.18	43.23	-42.0	-43.9	18.2	0.00e+00	0	27	0	920649728	56	7101
2026-01-12 14:09:32.13	144.56	43.04	-42.2	-44.2	18.0	0.00e+00	0	27	0	922746880	56	7370
2026-01-12 14:09:33.14	144.94	42.84	-43.6	-46.4	15.2	0.00e+00	0	27	0	924844032	58	8496
2026-01-12 14:09:34.15	145.32	42.65	-44.0	-46.9	15.6	0.00e+00	0	27	0	925892608	60	7985
2026-01-12 14:09:35.16	145.69	42.45	-41.5	-43.2	19.0	0.00e+00	0	27	0	927989760	58	5846
2026-01-12 14:09:36.16	146.06	42.26	-39.8	-41.1	20.9	0.00e+00	0	27	0	930086912	54	5766
2026-01-12 14:09:37.17	146.42	42.07	-40.1	-41.4	20.6	0.00e+00	0	27	0	932184064	52	6712
2026-01-12 14:09:38.18	146.78	41.87	-40.6	-42.1	19.8	0.00e+00	0	27	0	934281216	52	7289
2026-01-12 14:09:39.19	147.14	41.68	-41.6	-43.3	18.7	0.00e+00	0	27	0	936378368	54	7488
2026-01-12 14:09:40.20	147.49	41.48	-42.5	-44.4	18.0	0.00e+00	0	27	0	937426944	56	7593
2026-01-12 14:09:41.22	147.84	41.28	-40.9	-42.3	19.7	0.00e+00	0	27	0	939524096	56	5921
2026-01-12 14:09:42.22	148.18	41.09	-40.2	-41.4	20.4	0.00e+00	0	27	0	941621248	54	6013
2026-01-12 14:09:43.23	148.52	40.89	-38.9	-39.9	21.9	0.00e+00	0	27	0	943718400	52	5683
2026-01-12 14:09:44.24	148.85	40.70	-38.4	-39.4	22.3	0.00e+00	0	27	0	944766976	50	6020
2026-01-12 14:09:45.25	149.18	40.50	-38.9	-39.9	21.6	0.00e+00	0	27	0	946864128	50	6375
2026-01-12 14:09:46.26	149.51	40.31	-40.6	-42.1	19.8	0.00e+00	0	27	0	948961280	52	7270
2026-01-12 14:09:47.27	149.83	40.11	-40.9	-42.4	19.9	0.00e+00	0	27	0	951058432	54	6756
2026-01-12 14:09:48.28	150.15	39.92	-38.4	-39.5	22.2	0.00e+00	0	27	0	953155584	50	6064
2026-01-12 14:09:49.29	150.47	39.72	-37.7	-38.6	22.9	0.00e+00	0	27	0	954204160	48	6172
2026-01-12 14:09:50.30	150.78	39.52	-37.4	-38.3	23.2	0.00e+00	0	27	0	956301312	48	5902
2026-01-12 14:09:51.30	151.08	39.33	-38.2	-39.2	22.3	0.00e+00	0	27	0	958398464	48	6554
2026-01-12 14:09:52.31	151.39	39.14	-40.3	-41.7	20.0	0.00e+00	0	27	0	960495616	52	6963
2026-01-12 14:09:53.32	151.69	38.94	-42.0	-43.9	18.4	0.00e+00	0	27	0	962592768	56	7089
2026-01-12 14:09:54.33	151.99	38.75	-41.1	-42.7	19.4	0.00e+00	0	27	0	964689920	56	6223
2026-01-12 14:09:55.34	152.28	38.55	-40.1	-41.4	20.6	0.00e+00	0	27	0	965738496	54	6009
2026-01-12 14:09:56.35	152.57	38.36	-39.3	-40.4	21.5	0.00e+00	0	27	0	967835648	52	6002
2026-01-12 14:09:57.36	152.86	38.17	-38.3	-39.3	22.3	0.00e+00	0	27	0	969932800	50	5946
2026-01-12 14:09:58.37	153.14	37.97	-37.8	-38.7	22.6	0.00e+00	0	27	0	972029952	50	5547
2026-01-12 14:09:59.38	153.42	37.78	-38.2	-39.2	22.3	0.00e+00	0	27	0	974127104	48	6588
2026-01-12 14:10:00.39	153.70	37.59	-39.1	-40.2	21.7	0.00e+00	0	27	0	975175680	50	6602
2026-01-12 14:10:01.40	153.97	37.40	-39.2	-40.4	21.6	0.00e+00	0	27	0	977272832	50	6693
2026-01-12 14:10:02.41	154.24	37.20	-38.6	-39.8	22.1	0.00e+00	0	27	0	979369984	50	6247
2026-01-12 14:10:03.42	154.51	37.01	-37.9	-38.9	22.9	0.00e+00	0	27	0	981467136	50	5658
2026-01-12 14:10:04.43	154.78	36.82	-37.0	-37.9	23.6	0.00e+00	0	27	0	983564288	48	5675
2026-01-12 14:10:05.44	155.04	36.63	-36.8	-37.6	23.1	0.00e+00	0	27	0	984612864	48	5491
2026-01-12 14:10:06.45	155.30	36.44	-36.6	-37.4	23.8	0.00e+00	0	27	0	986710016	46	6027
2026-01-12 14:10:07.46	155.55	36.25	-36.6	-37.5	23.7	0.00e+00	0	27	0	988807168	46	6060
2026-01-12 14:10:08.47	155.81	36.06	-37.3	-38.2	22.9	0.00e+00	0	27	0	990904320	46	6612
2026-01-12 14:10:09.48	156.06	35.87	-37.8	-38.9	22.7	0.00e+00	0	27	0	993001472	48	6320
2026-01-12 14:10:10.49	156.30	35.69	-38.0	-39.1	22.6	0.00e+00	0	27	0	994050048	48	6465
2026-01-12 14:10:11.50	156.55	35.50	-37.5	-38.4	23.0	0.00e+00	0	27	0	996147200	48	6014
2026-01-12 14:10:12.51	156.79	35.31	-37.3	-38.2	23.2	0.00e+00	0	27	0	998244352	48	5893
2026-01-12 14:10:13.52	157.03	35.13	-37.7	-38.7	22.8	0.00e+00	0	27	0	1000341504	48	6212
2026-01-12 14:10:14.54	157.27	34.94	-37.9	-38.9	22.6	0.00e+00	0	27	0	1002438656	48	6374
2026-01-12 14:10:15.55	157.50	34.75	-38.0	-39.0	22.5	0.00e+00	0	27	0	1004535808	48	6410
2026-01-12 14:10:16.56	157.73	34.57	-38.7	-39.7	21.9	0.00e+00	0	27	0	1005584384	50	6230
2026-01-12 14:10:17.57	157.96	34.38	-39.0	-40.1	21.6	0.00e+00	0	27	0	1007681536	50	6522
2026-01-12 14:10:18.58	158.19	34.20	-40.3	-41.7	20.3	0.00e+00	0	27	0	1009778688	52	6932
2026-01-12 14:10:19.59	158.41	34.02	-41.3	-42.9	19.3	0.00e+00	0	27	0	1011875840	54	7143
2026-01-12 14:10:20.60	158.63	33.84	-41.3	-42.9	19.1	0.00e+00	0	27	0	1013972992	54	7123
2026-01-12 14:10:21.60	158.85	33.66	-41.1	-42.6	19.5	0.00e+00	0	27	0	1015021568	54	6925
2026-01-12 14:10:22.61	159.06	33.47	-40.5	-41.8	20.3	0.00e+00	0	27	0	1017118720	54	6298
2026-01-12 14:10:23.62	159.28	33.29	-39.0	-40.1	21.7	0.00e+00	0	27	0	1019215872	52	5798
2026-01-12 14:10:24.64	159.49	33.11	-38.6	-39.6	22.0	0.00e+00	0	27	0	1021313024	50	6163
2026-01-12 14:10:25.65	159.70	32.93	-37.8	-38.7	22.4	0.00e+00	0	27	0	1023410176	50	5547
2026-01-12 14:10:26.66	159.91	32.76	-37.8	-38.7	22.5	0.00e+00	0	27	0	1024458752	48	6240
2026-01-12 14:10:27.67	160.11	32.58	-38.4	-39.4	22.2	0.00e+00	0	27	0	1026555904	48	6743
2026-01-12 14:10:28.68	160.32	32.40	-39.3	-40.5	21.4	0.00e+00	0	27	0	1028653056	50	6776
2026-01-12 14:10:29.69	160.52	32.22	-39.7	-41.0	20.9	0.00e+00	0	27	0	1030750208	52	6423
2026-01-12 14:10:30.70	160.72	32.05	-40.6	-42.0	20.2	0.00e+00	0	27	0	1032847360	52	7211
2026-01-12 14:10:31.71	160.91	31.87	-40.2	-41.6	20.3	0.00e+00	0	27	0	1033895936	52	6850
2026-01-12 14:10:32.72	161.11	31.70	-39.5	-40.7	21.1	0.00e+00	0	27	0	1035993088	52	6245
2026-01-12 14:10:33.73	161.30	31.52	-39.3	-40.5	21.4	0.00e+00	0	27	0	1038090240	52	6071
2026-01-12 14:10:34.74	161.49	31.35	-38.8	-39.9	21.9	0.00e+00	0	27	0	1040187392	52	5679
2026-01-12 14:10:35.75	161.68	31.18	-38.3	-39.3	22.3	0.00e+00	0	27	0	1042284544	50	5939
2026-01-12 14:10:36.76	161.87	31.01	-37.4	-38.3	23.2	0.00e+00	0	27	0	1043333120	48	5933
2026-01-12 14:10:37.77	162.05	30.84	-37.0	-37.9	23.6	0.00e+00	0	27	0	1045430272	48	5641
2026-01-12 14:10:38.78	162.23	30.67	-37.1	-38.0	23.4	0.00e+00	0	27	0	1047527424	48	5738
2026-01-12 14:10:39.79	162.41	30.50	-37.2	-38.0	23.3	0.00e+00	0	27	0	1049624576	48	5756
2026-01-12 14:10:40.80	162.59	30.33	-37.8	-38.7	22.7	0.00e+00	0	27	0	1051721728	48	6210
2026-01-12 14:10:41.81	162.77	30.16	-38.6	-39.6	22.0	0.00e+00	0	27	0	1052770304	48	6899
2026-01-12 14:10:42.82	162.95	29.99	-39.4	-40.6	21.2	0.00e+00	0	27	0	1054867456	50	6900
2026-01-12 14:10:43.82	163.12	29.83	-40.2	-41.5	20.4	0.00e+00	0	27	0	1056964608	52	6804
2026-01-12 14:10:44.83	163.29	29.66	-40.3	-41.7	20.4	0.00e+00	0	27	0	1059061760	52	6934
2026-01-12 14:10:45.84	163.46	29.50	-40.7	-42.1	19.8	0.00e+00	0	27	0	1061158912	54	6524
2026-01-12 14:10:46.85	163.63	29.33	-40.4	-41.8	20.2	0.00e+00	0	27	0	1062207488	54	6247
2026-01-12 14:10:47.86	163.80	29.17	-40.4	-41.8	20.2	0.00e+00	0	27	0	1064304640	54	6263
2026-01-12 14:10:48.87	163.96	29.00	-39.4	-40.5	21.4	0.00e+00	0	27	0	1066401792	52	6085
2026-01-12 14:10:49.88	164.13	28.84	-38.4	-39.5	22.2	0.00e+00	0	27	0	1068498944	50	6046
2026-01-12 14:10:50.89	164.29	28.68	-38.0	-39.0	22.7	0.00e+00	0	27	0	1070596096	50	5724
2026-01-12 14:10:51.90	164.45	28.52	-37.4	-38.3	23.1	0.00e+00	0	27	0	1072693248	48	5934
2026-01-12 14:10:52.91	164.61	28.36	-37.0	-37.9	23.5	0.00e+00	0	27	0	1073741824	48	5659
2026-01-12 14:10:53.92	164.76	28.20	-37.3	-38.2	23.2	0.00e+00	0	27	0	1075838976	48	5874
2026-01-12 14:10:54.93	164.92	28.04	-37.4	-38.3	23.1	0.00e+00	0	27	0	1077936128	48	5937
2026-01-12 14:10:55.94	165.07	27.88	-37.7	-38.7	22.6	0.00e+00	0	27	0	1080033280	48	6212
2026-01-12 14:10:56.94	165.23	27.72	-38.1	-39.2	22.4	0.00e+00	0	27	0	1082130432	48	6544
2026-01-12 14:10:57.95	165.38	27.57	-38.7	-39.9	21.8	0.00e+00	0	27	0	1083179008	48	7144
2026-01-12 14:10:58.96	165.53	27.41	-39.0	-40.3	21.5	0.00e+00	0	27	0	1085276160	50	6621
2026-01-12 14:10:59.97	165.68	27.25	-38.6	-39.8	21.9	0.00e+00	0	27	0	1087373312	50	6261
2026-01-12 14:11:00.98	165.82	27.10	-38.5	-39.6	22.1	0.00e+00	0	27	0	1089470464	50	6142
2026-01-12 14:11:01.99	165.97	26.94	-37.5	-38.5	23.0	0.00e+00	0	27	0	1091567616	48	6056
2026-01-12 14:11:03.00	166.11	26.79	-37.1	-38.0	23.3	0.00e+00	0	27	0	1092616192	48	5720
2026-01-12 14:11:04.01	166.26	26.64	-36.5	-37.4	23.9	0.00e+00	0	27	0	1094713344	46	5990
2026-01-12 14:11:05.02	166.40	26.49	-36.5	-37.4	23.9	0.00e+00	0	27	0	1096810496	46	5996
2026-01-12 14:11:06.03	166.54	26.33	-36.5	-37.3	23.9	0.00e+00	0	27	0	1098907648	46	5935
2026-01-12 14:11:07.04	166.68	26.18	-36.4	-37.2	23.8	0.00e+00	0	27	0	1101004800	46	5864
2026-01-12 14:11:08.05	166.82	26.03	-37.1	-38.0	23.2	0.00e+00	0	27	0	1102053376	46	6425
2026-01-12 14:11:09.06	166.95	25.88	-37.8	-38.8	22.6	0.00e+00	0	27	0	1104150528	46	7060
2026-01-12 14:11:10.07	167.09	25.73	-38.7	-39.8	21.8	0.00e+00	0	27	0	1106247680	48	7034
2026-01-12 14:11:11.08	167.22	25.59	-39.7	-41.0	20.9	0.00e+00	0	27	0	1108344832	52	6404
2026-01-12 14:11:12.09	167.36	25.44	-40.0	-41.3	20.6	0.00e+00	0	27	0	1110441984	52	6683
2026-01-12 14:11:13.10	167.49	25.29	-40.8	-42.3	19.6	0.00e+00	0	27	0	1111490560	52	7507
2026-01-12 14:11:14.10	167.62	25.15	-41.2	-42.8	19.3	0.00e+00	0	27	0	1113587712	54	7014
2026-01-12 14:11:15.11	167.75	25.00	-41.1	-42.6	19.2	0.00e+00	0	27	0	1115684864	54	6906
2026-01-12 14:11:16.13	167.88	24.85	-41.4	-43.1	19.1	0.00e+00	0	27	0	1117782016	54	7292
2026-01-12 14:11:17.13	168.00	24.71	-41.1	-42.6	19.5	0.00e+00	0	27	0	1119879168	54	6920
2026-01-12 14:11:18.14	168.13	24.57	-40.2	-41.6	20.4	0.00e+00	0	27	0	1120927744	54	6110
2026-01-12 14:11:19.16	168.25	24.42	-39.6	-40.8	20.9	0.00e+00	0	27	0	1123024896	52	6302
2026-01-12 14:11:20.17	168.38	24.28	-38.7	-39.8	21.8	0.00e+00	0	27	0	1125122048	52	5617
2026-01-12 14:11:21.18	168.50	24.14	-38.2	-39.2	22.2	0.00e+00	0	27	0	1127219200	50	5883
2026-01-12 14:11:22.19	168.62	24.00	-37.9	-38.9	22.5	0.00e+00	0	27	0	1129316352	50	5661
2026-01-12 14:11:23.20	168.74	23.86	-37.2	-38.1	23.1	0.00e+00	0	27	0	1130364928	48	5818
2026-01-12 14:11:24.21	168.86	23.72	-36.9	-37.8	23.4	0.00e+00	0	27	0	1132462080	48	5613
2026-01-12 14:11:25.21	168.98	23.58	-37.0	-38.0	23.3	0.00e+00	0	27	0	1134559232	48	5697
2026-01-12 14:11:26.22	169.10	23.44	-37.2	-38.1	23.3	0.00e+00	0	27	0	1136656384	48	5783
2026-01-12 14:11:27.23	169.21	23.30	-37.2	-38.1	23.2	0.00e+00	0	27	0	1138753536	48	5787
2026-01-12 14:11:28.24	169.33	23.17	-37.2	-38.1	23.1	0.00e+00	0	27	0	1140850688	48	5800
2026-01-12 14:11:29.25	169.44	23.03	-37.2	-38.2	23.0	0.00e+00	0	27	0	1141899264	48	5842
2026-01-12 14:11:30.26	169.56	22.89	-37.7	-38.7	22.6	0.00e+00	0	27	0	1143996416	48	6192
2026-01-12 14:11:31.27	169.67	22.76	-38.0	-39.1	22.3	0.00e+00	0	27	0	1146093568	48	6493
2026-01-12 14:11:32.28	169.78	22.62	-38.1	-39.1	22.4	0.00e+00	0	27	0	1148190720	48	6521
2026-01-12 14:11:33.29	169.89	22.49	-38.5	-39.6	22.0	0.00e+00	0	27	0	1150287872	48	6885
2026-01-12 14:11:34.30	170.00	22.35	-38.4	-39.5	22.0	0.00e+00	0	27	0	1151336448	48	6846
2026-01-12 14:11:35.31	170.11	22.22	-38.3	-39.4	22.1	0.00e+00	0	27	0	1153433600	48	6718
2026-01-12 14:11:36.32	170.22	22.09	-38.3	-39.4	22.1	0.00e+00	0	27	0	1155530752	48	6743
2026-01-12 14:11:37.33	170.33	21.96	-38.2	-39.3	22.2	0.00e+00	0	27	0	1157627904	48	6634
2026-01-12 14:11:38.33	170.43	21.83	-38.1	-39.2	22.3	0.00e+00	0	27	0	1158676480	48	6551
2026-01-12 14:11:39.34	170.54	21.70	-37.9	-39.0	22.5	0.00e+00	0	27	0	1160773632	48	6420
2026-01-12 14:11:40.35	170.64	21.57	-37.6	-38.6	22.7	0.00e+00	0	27	0	1162870784	48	6156
2026-01-12 14:11:41.37	170.75	21.43	-37.7	-38.7	22.6	0.00e+00	0	27	0	1164967936	48	6207
2026-01-12 14:11:42.37	170.85	21.31	-37.6	-38.6	22.9	0.00e+00	0	27	0	1167065088	48	6111
2026-01-12 14:11:43.38	170.95	21.18	-37.4	-38.4	22.9	0.00e+00	0	27	0	1169162240	48	5980
2026-01-12 14:11:44.39	171.06	21.05	-37.7	-38.7	22.6	0.00e+00	0	27	0	1170210816	48	6207
2026-01-12 14:11:45.40	171.16	20.92	-37.5	-38.5	22.8	0.00e+00	0	27	0	1172307968	48	6054
2026-01-12 14:11:46.41	171.26	20.80	-37.2	-38.2	23.1	0.00e+00	0	27	0	1174405120	48	5843
2026-01-12 14:11:47.42	171.36	20.67	-37.1	-38.1	23.2	0.00e+00	0	27	0	1176502272	48	5762
2026-01-12 14:11:48.43	171.45	20.54	-37.2	-38.1	23.2	0.00e+00	0	27	0	1178599424	48	5821
2026-01-12 14:11:49.44	171.55	20.42	-37.3	-38.2	23.1	0.00e+00	0	27	0	1179648000	48	5895
2026-01-12 14:11:50.45	171.65	20.29	-36.9	-37.8	23.4	0.00e+00	0	27	0	1181745152	48	5579
2026-01-12 14:11:51.46	171.74	20.17	-36.8	-37.7	23.3	0.00e+00	0	27	0	1183842304	48	5539
2026-01-12 14:11:52.47	171.84	20.05	-36.8	-37.8	23.4	0.00e+00	0	27	0	1185939456	48	5576
2026-01-12 14:11:53.48	171.93	19.92	-36.9	-37.8	23.3	0.00e+00	0	27	0	1188036608	46	6273
2026-01-12 14:11:54.49	172.03	19.80	-37.0	-37.9	23.2	0.00e+00	0	27	0	1189085184	46	6380
2026-01-12 14:11:55.50	172.12	19.68	-37.0	-38.0	23.2	0.00e+00	0	27	0	1191182336	46	6415
2026-01-12 14:11:56.51	172.21	19.56	-36.8	-37.8	23.3	0.00e+00	0	27	0	1193279488	46	6285
2026-01-12 14:11:57.52	172.30	19.44	-36.8	-37.7	23.4	0.00e+00	0	27	0	1195376640	46	6212
2026-01-12 14:11:58.53	172.40	19.32	-36.7	-37.7	23.4	0.00e+00	0	27	0	1197473792	46	6182
2026-01-12 14:11:59.54	172.49	19.20	-36.7	-37.7	23.5	0.00e+00	0	27	0	1198522368	46	6189
2026-01-12 14:12:00.55	172.58	19.08	-36.7	-37.7	23.5	0.00e+00	0	27	0	1200619520	46	6187
2026-01-12 14:12:01.56	172.67	18.96	-37.0	-38.0	23.4	0.00e+00	0	27	0	1202716672	46	6401
2026-01-12 14:12:02.56	172.75	18.84	-36.8	-37.7	23.4	0.00e+00	0	27	0	1204813824	46	6230
2026-01-12 14:12:03.57	172.84	18.72	-36.8	-37.7	23.3	0.00e+00	0	27	0	1206910976	46	6203
2026-01-12 14:12:04.58	172.93	18.61	-36.8	-37.7	23.5	0.00e+00	0	27	0	1207959552	46	6185
2026-01-12 14:12:05.59	173.01	18.49	-36.8	-37.7	23.4	0.00e+00	0	27	0	1210056704	46	6216
2026-01-12 14:12:06.60	173.10	18.37	-36.9	-37.8	23.4	0.00e+00	0	27	0	1212153856	46	6300
2026-01-12 14:12:07.61	173.18	18.26	-36.9	-37.8	23.4	0.00e+00	0	27	0	1214251008	46	6273
2026-01-12 14:12:08.63	173.27	18.14	-37.0	-37.9	23.2	0.00e+00	0	27	0	1216348160	46	6343
2026-01-12 14:12:09.63	173.35	18.03	-37.3	-38.2	23.0	0.00e+00	0	27	0	1217396736	46	6587
2026-01-12 14:12:10.64	173.44	17.91	-37.2	-38.2	23.0	0.00e+00	0	27	0	1219493888	46	6572
2026-01-12 14:12:11.65	173.52	17.80	-37.4	-38.4	22.8	0.00e+00	0	27	0	1221591040	46	6736
2026-01-12 14:12:12.66	173.60	17.69	-37.6	-38.6	22.8	0.00e+00	0	27	0	1223688192	46	6866
