passes_logs/2026/01/12/R4.6S_Anadyr/R4.6S_Anadyr__20260112_122007_SUOMI_NPP_rec.log

#Pass ID: 20260112_122007_SUOMI NPP
#Satellite: SUOMI NPP
#Configuration: NPP
#almurnet v.1.7.20251203
#Start time: 2026-01-12 12:20:10

#Version: 2.2.20231116
#Station: R4.6S_Anadyr
#Location: 177.4865 lon 64.73178 lat
#TLE: 1 37849U 11061A   26011.57971124  .00000103  00000+0  69927-4 0  9996
#TLE: 2 37849  98.7807 313.6578 0002518  69.5076 290.6370 14.19524515736228

#Time	Az	El	Level	Level2	SNR	BER	BlckErr	Temp	State	Recorded	gain1	gain2
2026-01-12 12:20:10.65	19.42	0.13	-48.5	-61.1	3.5	1.52e+00	0	25	0	0	60	39762
2026-01-12 12:20:11.66	19.50	0.18	-48.4	-63.7	3.6	1.51e+00	0	26	104	0	60	55448
2026-01-12 12:20:12.67	19.57	0.23	-48.6	-63.8	3.6	1.51e+00	0	26	104	0	60	56258
2026-01-12 12:20:13.68	19.65	0.28	-48.6	-63.8	3.6	1.51e+00	0	26	104	0	60	56234
2026-01-12 12:20:14.69	19.73	0.32	-48.6	-63.8	3.6	1.51e+00	0	26	104	0	60	55852
2026-01-12 12:20:15.70	19.81	0.37	-48.6	-63.8	3.6	1.51e+00	0	26	104	0	60	56154
2026-01-12 12:20:16.71	19.89	0.42	-48.5	-63.7	3.6	1.51e+00	0	26	104	0	60	55521
2026-01-12 12:20:17.72	19.97	0.47	-48.5	-63.7	3.6	1.51e+00	0	26	104	0	60	55214
2026-01-12 12:20:18.73	20.05	0.52	-48.4	-63.6	3.6	1.51e+00	0	26	104	0	60	54650
2026-01-12 12:20:19.74	20.13	0.57	-48.4	-63.5	3.6	1.51e+00	0	26	104	0	60	54366
2026-01-12 12:20:20.75	20.21	0.61	-48.3	-63.5	3.6	1.51e+00	0	26	104	0	60	54228
2026-01-12 12:20:21.76	20.29	0.66	-48.3	-63.5	3.6	1.51e+00	0	26	104	0	60	54173
2026-01-12 12:20:22.77	20.37	0.71	-48.1	-63.2	3.6	1.51e+00	0	26	104	0	60	52386
2026-01-12 12:20:23.78	20.45	0.76	-48.0	-63.2	3.6	1.51e+00	0	26	104	0	60	52330
2026-01-12 12:20:24.79	20.53	0.81	-47.7	-62.9	3.6	1.51e+00	0	26	104	0	60	50425
2026-01-12 12:20:25.80	20.62	0.86	-47.4	-62.6	3.6	1.51e+00	0	26	104	0	60	48760
2026-01-12 12:20:26.81	20.70	0.91	-47.0	-62.1	3.6	1.51e+00	0	26	104	0	60	45887
2026-01-12 12:20:27.82	20.78	0.95	-46.7	-61.8	3.6	1.51e+00	0	26	104	0	60	44676
2026-01-12 12:20:28.83	20.86	1.00	-46.6	-61.8	3.6	1.51e+00	0	26	104	0	60	44591
2026-01-12 12:20:29.84	20.94	1.05	-46.7	-61.9	3.6	1.51e+00	0	26	104	0	60	44998
2026-01-12 12:20:30.85	21.03	1.10	-46.6	-61.9	3.6	1.51e+00	0	26	104	0	60	44978
2026-01-12 12:20:31.86	21.11	1.15	-46.6	-61.9	3.6	1.51e+00	0	26	104	0	60	44852
2026-01-12 12:20:32.87	21.19	1.20	-46.6	-61.9	3.6	1.51e+00	0	26	104	0	60	44778
2026-01-12 12:20:33.88	21.28	1.25	-46.6	-61.8	3.6	1.51e+00	0	26	104	0	60	44705
2026-01-12 12:20:34.89	21.36	1.30	-46.7	-61.8	3.6	1.51e+00	0	26	104	0	60	44539
2026-01-12 12:20:35.90	21.45	1.35	-46.7	-61.9	3.6	1.51e+00	0	26	104	0	60	44771
2026-01-12 12:20:36.91	21.53	1.40	-46.7	-61.9	3.6	1.51e+00	0	26	104	0	60	44878
2026-01-12 12:20:37.92	21.62	1.44	-46.7	-61.9	3.6	1.51e+00	0	26	104	0	60	45164
2026-01-12 12:20:38.93	21.70	1.49	-46.7	-61.9	3.6	1.51e+00	0	26	104	0	60	45090
2026-01-12 12:20:39.94	21.79	1.54	-46.7	-61.9	3.6	1.51e+00	0	26	104	0	60	44781
2026-01-12 12:20:40.95	21.87	1.59	-46.6	-61.9	3.6	1.51e+00	0	27	104	0	60	44937
2026-01-12 12:20:41.96	21.96	1.64	-46.7	-61.9	3.6	1.51e+00	0	27	104	0	60	44848
2026-01-12 12:20:42.97	22.04	1.69	-46.7	-61.9	3.6	1.51e+00	0	26	104	0	60	45008
2026-01-12 12:20:43.98	22.13	1.74	-46.7	-61.9	3.6	1.51e+00	0	27	104	0	60	44856
2026-01-12 12:20:44.99	22.22	1.79	-46.7	-61.9	3.6	1.51e+00	0	26	104	0	60	44985
2026-01-12 12:20:46.00	22.30	1.84	-46.7	-61.9	3.6	1.51e+00	0	27	104	0	60	44805
2026-01-12 12:20:47.01	22.39	1.89	-46.7	-61.8	3.6	1.51e+00	0	27	104	0	60	44603
2026-01-12 12:20:48.02	22.48	1.94	-46.7	-61.8	3.5	1.51e+00	0	27	104	0	60	44517
2026-01-12 12:20:49.03	22.56	1.99	-46.7	-61.9	3.6	1.51e+00	0	27	104	0	60	44908
2026-01-12 12:20:50.04	22.65	2.04	-46.7	-61.8	3.6	1.51e+00	0	27	104	0	60	44722
2026-01-12 12:20:51.05	22.74	2.09	-46.7	-61.8	3.6	1.51e+00	0	27	104	0	60	44676
2026-01-12 12:20:52.06	22.83	2.14	-46.7	-61.9	3.6	1.51e+00	0	26	104	0	60	44909
2026-01-12 12:20:53.07	22.92	2.19	-46.7	-61.9	3.6	1.51e+00	0	27	104	0	60	44776
2026-01-12 12:20:54.08	23.01	2.24	-46.6	-61.8	3.6	1.51e+00	0	27	104	0	60	44687
2026-01-12 12:20:55.09	23.10	2.29	-46.6	-61.7	3.6	1.51e+00	0	27	104	0	60	44001
2026-01-12 12:20:56.10	23.19	2.34	-46.6	-61.3	3.6	1.51e+00	0	27	104	0	60	41832
2026-01-12 12:20:57.11	23.28	2.39	-46.6	-60.8	3.6	1.51e+00	0	27	104	0	60	39791
2026-01-12 12:20:58.12	23.37	2.43	-46.6	-60.7	3.6	1.51e+00	0	27	104	0	60	39042
2026-01-12 12:20:59.13	23.46	2.48	-46.6	-60.2	3.6	1.51e+00	0	27	104	0	60	36899
2026-01-12 12:21:00.14	23.55	2.53	-46.4	-58.2	4.2	1.45e+00	0	27	104	0	60	29262
2026-01-12 12:21:01.15	23.64	2.58	-45.9	-52.9	7.3	3.49e-01	0	27	0	1048576	60	15873
2026-01-12 12:21:02.16	23.73	2.63	-45.0	-49.7	10.9	3.40e-02	0	27	0	3145728	60	11063
2026-01-12 12:21:03.17	23.82	2.68	-43.8	-47.2	13.5	3.05e-05	0	27	0	5242880	60	8289
2026-01-12 12:21:04.18	23.91	2.73	-42.8	-45.5	15.4	2.20e-06	0	27	0	7340032	60	6812
2026-01-12 12:21:05.19	24.00	2.78	-41.9	-44.1	16.7	0.00e+00	0	27	0	8388608	58	6517
2026-01-12 12:21:06.20	24.10	2.83	-42.0	-44.2	16.5	0.00e+00	0	27	0	10485760	58	6566
2026-01-12 12:21:07.21	24.19	2.89	-42.2	-44.6	16.2	0.00e+00	0	27	0	12582912	58	6881
2026-01-12 12:21:08.22	24.28	2.94	-43.1	-46.0	14.6	0.00e+00	0	27	0	14680064	58	8106
2026-01-12 12:21:09.23	24.38	2.99	-44.3	-48.4	12.1	1.50e-06	0	27	0	16777216	60	9467
2026-01-12 12:21:10.24	24.47	3.04	-45.0	-49.9	11.1	4.86e-03	0	27	0	17825792	60	11278
2026-01-12 12:21:11.25	24.56	3.09	-42.8	-45.4	15.4	0.00e+00	0	27	0	19922944	58	7579
2026-01-12 12:21:12.26	24.66	3.14	-42.0	-44.2	16.6	0.00e+00	0	27	0	22020096	58	6577
2026-01-12 12:21:13.27	24.75	3.19	-46.7	-61.2	3.6	1.50e+00	0	27	104	23068672	60	41265
2026-01-12 12:21:14.28	24.85	3.24	-46.6	-58.5	4.2	1.50e+00	0	27	104	23068672	60	30474
2026-01-12 12:21:15.29	24.94	3.29	-44.5	-48.3	13.0	1.14e+00	0	27	104	23068672	60	9350
2026-01-12 12:21:16.30	25.04	3.34	-42.0	-44.1	16.8	0.00e+00	0	27	0	24117248	58	6521
2026-01-12 12:21:17.31	25.14	3.39	-41.3	-43.0	18.0	0.00e+00	0	27	0	26214400	56	6453
2026-01-12 12:21:18.32	25.23	3.44	-41.3	-43.1	18.0	0.00e+00	0	27	0	28311552	56	6511
2026-01-12 12:21:19.33	25.33	3.49	-41.1	-42.8	18.2	0.00e+00	0	27	0	29360128	56	6314
2026-01-12 12:21:20.34	25.42	3.54	-40.9	-42.6	18.4	0.00e+00	0	27	0	31457280	56	6118
2026-01-12 12:21:21.35	25.52	3.59	-40.5	-42.2	18.7	0.00e+00	0	27	0	33554432	54	6541
2026-01-12 12:21:22.36	25.62	3.64	-40.6	-42.2	18.8	0.00e+00	0	27	0	35651584	54	6590
2026-01-12 12:21:23.37	25.72	3.69	-40.5	-42.1	18.8	0.00e+00	0	27	0	37748736	54	6534
2026-01-12 12:21:24.38	25.81	3.74	-40.3	-41.8	19.1	0.00e+00	0	27	0	38797312	54	6297
2026-01-12 12:21:25.39	25.91	3.79	-40.0	-41.5	19.4	0.00e+00	0	27	0	40894464	54	6068
2026-01-12 12:21:26.40	26.01	3.84	-39.5	-40.9	20.1	0.00e+00	0	27	0	42991616	52	6327
2026-01-12 12:21:27.41	26.11	3.89	-39.6	-40.9	19.9	0.00e+00	0	27	0	45088768	52	6383
2026-01-12 12:21:28.42	26.21	3.95	-39.9	-41.3	19.7	0.00e+00	0	27	0	47185920	52	6621
2026-01-12 12:21:29.43	26.31	4.00	-39.6	-41.0	19.9	0.00e+00	0	27	0	48234496	52	6409
2026-01-12 12:21:30.44	26.41	4.05	-39.4	-40.7	20.3	0.00e+00	0	27	0	50331648	52	6239
2026-01-12 12:21:31.45	26.51	4.10	-39.5	-40.8	20.2	0.00e+00	0	27	0	52428800	52	6270
2026-01-12 12:21:32.45	26.61	4.15	-39.4	-40.7	20.2	0.00e+00	0	27	0	54525952	52	6234
2026-01-12 12:21:33.46	26.71	4.20	-39.6	-40.9	20.1	0.00e+00	0	27	0	56623104	52	6363
2026-01-12 12:21:34.47	26.81	4.25	-39.5	-40.8	20.2	0.00e+00	0	27	0	57671680	52	6269
2026-01-12 12:21:35.48	26.91	4.30	-39.7	-41.0	19.9	0.00e+00	0	27	0	59768832	52	6464
2026-01-12 12:21:36.49	27.02	4.35	-39.4	-40.7	20.2	0.00e+00	0	27	0	61865984	52	6233
2026-01-12 12:21:37.50	27.12	4.40	-39.7	-41.0	20.0	0.00e+00	0	27	0	63963136	52	6448
2026-01-12 12:21:38.51	27.22	4.45	-39.9	-41.3	19.9	0.00e+00	0	27	0	66060288	52	6618
2026-01-12 12:21:39.52	27.32	4.50	-39.8	-41.2	19.8	0.00e+00	0	27	0	67108864	52	6582
2026-01-12 12:21:40.53	27.43	4.56	-40.0	-41.4	19.6	0.00e+00	0	27	0	69206016	52	6717
2026-01-12 12:21:41.54	27.53	4.61	-39.9	-41.3	19.8	0.00e+00	0	27	0	71303168	52	6651
2026-01-12 12:21:42.55	27.64	4.66	-40.0	-41.5	19.5	0.00e+00	0	27	0	73400320	52	6792
2026-01-12 12:21:43.56	27.74	4.71	-40.0	-41.5	19.6	0.00e+00	0	27	0	75497472	52	6778
2026-01-12 12:21:44.57	27.84	4.76	-39.7	-41.0	20.1	0.00e+00	0	27	0	76546048	52	6446
2026-01-12 12:21:45.58	27.95	4.81	-39.8	-41.2	19.9	0.00e+00	0	27	0	78643200	52	6571
2026-01-12 12:21:46.59	28.06	4.86	-40.0	-41.4	19.6	0.00e+00	0	27	0	80740352	52	6743
2026-01-12 12:21:47.60	28.16	4.91	-40.2	-41.7	19.4	0.00e+00	0	27	0	82837504	52	6950
2026-01-12 12:21:48.61	28.27	4.97	-39.8	-41.2	19.8	0.00e+00	0	27	0	84934656	52	6590
2026-01-12 12:21:49.62	28.37	5.02	-39.9	-41.2	19.8	0.00e+00	0	27	0	87031808	52	6613
2026-01-12 12:21:50.62	28.48	5.07	-39.8	-41.2	19.9	0.00e+00	0	27	0	88080384	52	6594
2026-01-12 12:21:51.63	28.59	5.12	-39.7	-41.1	20.0	0.00e+00	0	27	0	90177536	52	6467
2026-01-12 12:21:52.64	28.69	5.17	-39.8	-41.1	19.9	0.00e+00	0	27	0	92274688	52	6532
2026-01-12 12:21:53.65	28.80	5.22	-39.9	-41.3	19.9	0.00e+00	0	27	0	94371840	52	6629
2026-01-12 12:21:54.66	28.91	5.27	-39.8	-41.1	19.8	0.00e+00	0	27	0	95420416	52	6510
2026-01-12 12:21:55.67	29.02	5.32	-39.7	-41.1	19.9	0.00e+00	0	27	0	97517568	52	6495
2026-01-12 12:21:56.68	29.13	5.38	-39.8	-41.2	19.9	0.00e+00	0	27	0	99614720	52	6554
2026-01-12 12:21:57.68	29.24	5.43	-39.7	-41.1	20.0	0.00e+00	0	27	0	101711872	52	6500
2026-01-12 12:21:58.69	29.35	5.48	-39.6	-40.9	20.2	0.00e+00	0	27	0	103809024	52	6354
2026-01-12 12:21:59.70	29.46	5.53	-39.4	-40.7	20.3	0.00e+00	0	27	0	104857600	52	6220
2026-01-12 12:22:00.71	29.57	5.58	-39.3	-40.6	20.4	0.00e+00	0	27	0	106954752	52	6160
2026-01-12 12:22:01.72	29.68	5.63	-39.4	-40.6	20.4	0.00e+00	0	27	0	109051904	52	6162
2026-01-12 12:22:02.73	29.79	5.68	-39.1	-40.4	20.6	0.00e+00	0	27	0	111149056	52	5974
2026-01-12 12:22:03.74	29.90	5.74	-39.1	-40.4	20.7	0.00e+00	0	27	0	113246208	52	5971
2026-01-12 12:22:04.75	30.01	5.79	-38.9	-40.0	21.0	0.00e+00	0	27	0	115343360	52	5758
2026-01-12 12:22:05.76	30.13	5.84	-39.0	-40.2	20.9	0.00e+00	0	27	0	116391936	52	5874
2026-01-12 12:22:06.77	30.24	5.89	-39.1	-40.3	20.7	0.00e+00	0	27	0	118489088	52	5955
2026-01-12 12:22:07.78	30.35	5.94	-39.3	-40.5	20.6	0.00e+00	0	27	0	120586240	52	6071
2026-01-12 12:22:08.79	30.47	5.99	-38.9	-40.1	20.9	0.00e+00	0	27	0	122683392	52	5794
2026-01-12 12:22:09.80	30.58	6.04	-38.9	-40.1	20.9	0.00e+00	0	27	0	124780544	52	5808
2026-01-12 12:22:10.81	30.69	6.10	-39.1	-40.3	20.7	0.00e+00	0	27	0	125829120	50	6675
2026-01-12 12:22:11.82	30.81	6.15	-39.2	-40.5	20.6	0.00e+00	0	27	0	127926272	50	6770
2026-01-12 12:22:12.83	30.92	6.20	-39.2	-40.4	20.6	0.00e+00	0	27	0	130023424	50	6754
2026-01-12 12:22:13.84	31.04	6.25	-39.0	-40.2	20.8	0.00e+00	0	27	0	132120576	50	6604
2026-01-12 12:22:14.85	31.15	6.30	-39.2	-40.4	20.5	0.00e+00	0	27	0	134217728	50	6715
2026-01-12 12:22:15.86	31.27	6.35	-39.3	-40.6	20.5	0.00e+00	0	27	0	135266304	50	6854
2026-01-12 12:22:16.87	31.39	6.41	-38.8	-40.0	21.2	0.00e+00	0	27	0	137363456	50	6401
2026-01-12 12:22:17.88	31.50	6.46	-38.5	-39.6	21.4	0.00e+00	0	27	0	139460608	50	6131
2026-01-12 12:22:18.89	31.62	6.51	-38.5	-39.6	21.4	0.00e+00	0	27	0	141557760	50	6169
2026-01-12 12:22:19.90	31.74	6.56	-38.7	-39.8	21.3	0.00e+00	0	27	0	143654912	50	6292
2026-01-12 12:22:20.91	31.86	6.61	-38.6	-39.7	21.3	0.00e+00	0	27	0	144703488	50	6203
2026-01-12 12:22:21.91	31.98	6.66	-38.7	-39.8	21.2	0.00e+00	0	27	0	146800640	50	6276
2026-01-12 12:22:22.92	32.09	6.72	-38.4	-39.5	21.5	0.00e+00	0	27	0	148897792	50	6062
2026-01-12 12:22:23.94	32.22	6.77	-38.5	-39.7	21.3	0.00e+00	0	27	0	150994944	50	6184
2026-01-12 12:22:24.95	32.34	6.82	-38.6	-39.8	21.2	0.00e+00	0	27	0	153092096	50	6274
2026-01-12 12:22:25.96	32.46	6.87	-38.8	-39.9	21.1	0.00e+00	0	27	0	154140672	50	6358
2026-01-12 12:22:26.96	32.57	6.92	-38.8	-40.0	21.1	0.00e+00	0	27	0	156237824	50	6418
2026-01-12 12:22:27.97	32.70	6.97	-38.7	-39.8	20.9	0.00e+00	0	27	0	158334976	50	6291
2026-01-12 12:22:28.99	32.82	7.03	-38.7	-39.8	20.7	0.00e+00	0	27	0	160432128	50	6310
2026-01-12 12:22:30.00	32.94	7.08	-38.7	-39.8	21.2	0.00e+00	0	27	0	162529280	50	6283
2026-01-12 12:22:31.01	33.06	7.13	-38.7	-39.8	21.2	0.00e+00	0	27	0	163577856	50	6291
2026-01-12 12:22:32.02	33.19	7.18	-38.7	-39.9	21.3	0.00e+00	0	27	0	165675008	50	6337
2026-01-12 12:22:33.02	33.31	7.23	-38.7	-39.8	21.3	0.00e+00	0	27	0	167772160	50	6305
2026-01-12 12:22:34.03	33.43	7.28	-38.9	-40.1	21.0	0.00e+00	0	27	0	169869312	50	6494
2026-01-12 12:22:35.04	33.56	7.34	-38.6	-39.8	21.3	0.00e+00	0	27	0	171966464	50	6279
2026-01-12 12:22:36.05	33.68	7.39	-38.8	-40.0	21.2	0.00e+00	0	27	0	173015040	50	6398
2026-01-12 12:22:37.06	33.80	7.44	-38.9	-40.1	21.0	0.00e+00	0	27	0	175112192	50	6528
2026-01-12 12:22:38.07	33.93	7.49	-38.9	-40.1	21.2	0.00e+00	0	27	0	177209344	50	6495
2026-01-12 12:22:39.08	34.06	7.54	-39.0	-40.2	21.0	0.00e+00	0	27	0	179306496	50	6544
2026-01-12 12:22:40.09	34.18	7.59	-39.0	-40.2	21.0	0.00e+00	0	27	0	181403648	50	6593
2026-01-12 12:22:41.10	34.31	7.65	-39.3	-40.5	20.7	0.00e+00	0	27	0	183500800	50	6817
2026-01-12 12:22:42.11	34.44	7.70	-39.2	-40.4	20.8	0.00e+00	0	27	0	184549376	50	6762
2026-01-12 12:22:43.12	34.56	7.75	-38.9	-40.0	21.1	0.00e+00	0	27	0	186646528	50	6445
2026-01-12 12:22:44.13	34.69	7.80	-38.8	-40.0	21.3	0.00e+00	0	27	0	188743680	50	6408
2026-01-12 12:22:45.14	34.82	7.85	-38.8	-40.0	21.0	0.00e+00	0	27	0	190840832	50	6404
2026-01-12 12:22:46.15	34.95	7.90	-38.8	-40.0	21.3	0.00e+00	0	27	0	192937984	50	6395
2026-01-12 12:22:47.16	35.08	7.96	-38.8	-39.9	21.3	0.00e+00	0	27	0	193986560	50	6359
2026-01-12 12:22:48.17	35.21	8.01	-38.8	-39.9	21.2	0.00e+00	0	27	0	196083712	50	6380
2026-01-12 12:22:49.18	35.34	8.06	-38.9	-40.0	21.2	0.00e+00	0	27	0	198180864	50	6456
2026-01-12 12:22:50.19	35.47	8.11	-38.7	-39.8	21.4	0.00e+00	0	27	0	200278016	50	6316
2026-01-12 12:22:51.20	35.60	8.16	-38.8	-40.0	21.2	0.00e+00	0	27	0	202375168	50	6400
2026-01-12 12:22:52.20	35.73	8.21	-38.8	-40.0	21.2	0.00e+00	0	27	0	203423744	50	6425
2026-01-12 12:22:53.21	35.86	8.26	-38.7	-39.8	21.4	0.00e+00	0	27	0	205520896	50	6272
2026-01-12 12:22:54.22	35.99	8.31	-38.4	-39.5	21.7	0.00e+00	0	27	0	207618048	50	6038
2026-01-12 12:22:55.23	36.13	8.37	-38.4	-39.5	21.6	0.00e+00	0	27	0	209715200	50	6073
2026-01-12 12:22:56.24	36.26	8.42	-38.3	-39.4	21.7	0.00e+00	0	27	0	211812352	50	5973
2026-01-12 12:22:57.25	36.39	8.47	-38.2	-39.3	21.9	0.00e+00	0	27	0	212860928	50	5910
2026-01-12 12:22:58.26	36.53	8.52	-38.2	-39.3	21.8	0.00e+00	0	27	0	214958080	50	5946
2026-01-12 12:22:59.27	36.66	8.57	-38.2	-39.3	21.8	0.00e+00	0	27	0	217055232	50	5951
2026-01-12 12:23:00.28	36.80	8.62	-38.1	-39.1	22.1	0.00e+00	0	27	0	219152384	50	5813
2026-01-12 12:23:01.28	36.93	8.67	-38.0	-39.0	22.0	0.00e+00	0	27	0	221249536	50	5749
2026-01-12 12:23:02.29	37.07	8.72	-38.1	-39.2	21.9	0.00e+00	0	27	0	222298112	50	5875
2026-01-12 12:23:03.30	37.20	8.78	-38.1	-39.1	22.0	0.00e+00	0	27	0	224395264	50	5823
2026-01-12 12:23:04.31	37.34	8.83	-38.0	-39.1	22.1	0.00e+00	0	27	0	226492416	50	5799
2026-01-12 12:23:05.32	37.48	8.88	-38.1	-39.1	22.0	0.00e+00	0	27	0	228589568	50	5816
2026-01-12 12:23:06.33	37.61	8.93	-38.1	-39.1	22.0	0.00e+00	0	27	0	230686720	50	5814
2026-01-12 12:23:07.34	37.75	8.98	-37.6	-38.6	22.4	0.00e+00	0	27	0	231735296	48	6148
2026-01-12 12:23:08.34	37.89	9.03	-37.7	-38.7	22.3	0.00e+00	0	27	0	233832448	48	6244
2026-01-12 12:23:09.35	38.03	9.08	-37.4	-38.4	22.5	0.00e+00	0	27	0	235929600	48	5993
2026-01-12 12:23:10.36	38.17	9.13	-37.4	-38.3	22.6	0.00e+00	0	27	0	238026752	48	5950
2026-01-12 12:23:11.37	38.31	9.18	-37.2	-38.2	22.7	0.00e+00	0	27	0	240123904	48	5855
2026-01-12 12:23:12.38	38.45	9.23	-37.0	-38.0	23.0	0.00e+00	0	27	0	241172480	48	5702
2026-01-12 12:23:13.39	38.59	9.28	-37.0	-37.9	23.0	0.00e+00	0	27	0	243269632	48	5692
2026-01-12 12:23:14.40	38.73	9.34	-37.1	-38.1	22.8	0.00e+00	0	27	0	245366784	48	5792
2026-01-12 12:23:15.41	38.87	9.39	-37.2	-38.2	22.8	0.00e+00	0	27	0	247463936	48	5874
2026-01-12 12:23:16.42	39.02	9.44	-37.4	-38.3	22.7	0.00e+00	0	27	0	249561088	48	5963
2026-01-12 12:23:17.43	39.16	9.49	-37.6	-38.6	22.5	0.00e+00	0	27	0	251658240	48	6119
2026-01-12 12:23:18.44	39.30	9.54	-37.7	-38.7	22.4	0.00e+00	0	27	0	252706816	48	6203
2026-01-12 12:23:19.45	39.45	9.59	-37.6	-38.7	22.4	0.00e+00	0	27	0	254803968	48	6178
2026-01-12 12:23:20.46	39.59	9.64	-37.8	-38.8	22.3	0.00e+00	0	27	0	256901120	48	6287
2026-01-12 12:23:21.47	39.74	9.69	-37.7	-38.7	22.3	0.00e+00	0	27	0	258998272	48	6207
2026-01-12 12:23:22.47	39.88	9.74	-37.6	-38.6	22.5	0.00e+00	0	27	0	261095424	48	6119
2026-01-12 12:23:23.48	40.03	9.79	-37.5	-38.5	22.5	0.00e+00	0	27	0	262144000	48	6066
2026-01-12 12:23:24.49	40.17	9.84	-37.4	-38.4	22.6	0.00e+00	0	27	0	264241152	48	5986
2026-01-12 12:23:25.50	40.32	9.89	-37.4	-38.4	22.7	0.00e+00	0	27	0	266338304	48	5987
2026-01-12 12:23:26.51	40.47	9.94	-37.2	-38.2	22.8	0.00e+00	0	27	0	268435456	48	5873
2026-01-12 12:23:27.52	40.61	9.99	-37.4	-38.4	22.6	0.00e+00	0	27	0	270532608	48	5994
2026-01-12 12:23:28.53	40.76	10.04	-37.5	-38.5	22.6	0.00e+00	0	27	0	271581184	48	6088
2026-01-12 12:23:29.53	40.91	10.09	-37.5	-38.5	22.6	0.00e+00	0	27	0	273678336	48	6053
2026-01-12 12:23:30.55	41.06	10.14	-37.5	-38.5	22.6	0.00e+00	0	27	0	275775488	48	6083
2026-01-12 12:23:31.55	41.21	10.19	-37.4	-38.4	22.6	0.00e+00	0	27	0	277872640	48	6004
2026-01-12 12:23:32.56	41.36	10.24	-37.7	-38.7	22.4	0.00e+00	0	27	0	279969792	48	6236
2026-01-12 12:23:33.57	41.51	10.29	-37.5	-38.5	22.6	0.00e+00	0	27	0	281018368	48	6041
2026-01-12 12:23:34.58	41.66	10.34	-37.7	-38.7	22.5	0.00e+00	0	27	0	283115520	48	6190
2026-01-12 12:23:35.59	41.81	10.39	-37.6	-38.6	22.6	0.00e+00	0	27	0	285212672	48	6104
2026-01-12 12:23:36.60	41.96	10.44	-37.7	-38.7	22.4	0.00e+00	0	27	0	287309824	48	6220
2026-01-12 12:23:37.61	42.12	10.49	-37.5	-38.5	22.6	0.00e+00	0	27	0	289406976	48	6071
2026-01-12 12:23:38.62	42.27	10.53	-37.5	-38.5	22.7	0.00e+00	0	27	0	290455552	48	6051
2026-01-12 12:23:39.63	42.42	10.58	-37.5	-38.5	22.6	0.00e+00	0	27	0	292552704	48	6088
2026-01-12 12:23:40.64	42.58	10.63	-37.5	-38.5	22.5	0.00e+00	0	27	0	294649856	48	6060
2026-01-12 12:23:41.65	42.73	10.68	-37.5	-38.5	22.5	0.00e+00	0	27	0	296747008	48	6098
2026-01-12 12:23:42.66	42.89	10.73	-37.6	-38.6	22.2	0.00e+00	0	27	0	298844160	48	6120
2026-01-12 12:23:43.67	43.04	10.78	-37.8	-38.8	22.4	0.00e+00	0	27	0	299892736	48	6276
2026-01-12 12:23:44.68	43.20	10.83	-37.6	-38.7	22.5	0.00e+00	0	27	0	301989888	48	6182
2026-01-12 12:23:45.69	43.36	10.88	-37.6	-38.6	22.5	0.00e+00	0	27	0	304087040	48	6160
2026-01-12 12:23:46.70	43.51	10.93	-37.7	-38.7	22.5	0.00e+00	0	27	0	306184192	48	6223
2026-01-12 12:23:47.71	43.67	10.97	-37.6	-38.6	22.6	0.00e+00	0	27	0	308281344	48	6135
2026-01-12 12:23:48.72	43.83	11.02	-37.4	-38.4	22.7	0.00e+00	0	27	0	309329920	48	5978
2026-01-12 12:23:49.72	43.99	11.07	-37.3	-38.3	22.8	0.00e+00	0	27	0	311427072	48	5914
2026-01-12 12:23:50.73	44.15	11.12	-37.3	-38.3	22.8	0.00e+00	0	27	0	313524224	48	5927
2026-01-12 12:23:51.74	44.31	11.17	-37.4	-38.4	22.6	0.00e+00	0	27	0	315621376	48	5999
2026-01-12 12:23:52.75	44.47	11.21	-37.7	-38.7	22.5	0.00e+00	0	27	0	317718528	48	6216
2026-01-12 12:23:53.76	44.63	11.26	-37.9	-38.9	22.2	0.00e+00	0	27	0	318767104	48	6390
2026-01-12 12:23:54.77	44.79	11.31	-37.9	-39.0	22.2	0.00e+00	0	27	0	320864256	48	6412
2026-01-12 12:23:55.78	44.95	11.36	-38.2	-39.2	22.1	0.00e+00	0	27	0	322961408	48	6593
2026-01-12 12:23:56.79	45.11	11.41	-38.1	-39.2	22.0	0.00e+00	0	27	0	325058560	48	6551
2026-01-12 12:23:57.80	45.28	11.45	-38.1	-39.2	22.1	0.00e+00	0	27	0	327155712	48	6596
2026-01-12 12:23:58.81	45.44	11.50	-38.0	-39.0	22.2	0.00e+00	0	27	0	328204288	48	6462
2026-01-12 12:23:59.82	45.60	11.55	-37.8	-38.8	22.5	0.00e+00	0	27	0	330301440	48	6315
2026-01-12 12:24:00.83	45.77	11.59	-37.6	-38.6	22.5	0.00e+00	0	27	0	332398592	48	6159
2026-01-12 12:24:01.83	45.93	11.64	-37.8	-38.8	22.2	0.00e+00	0	27	0	334495744	48	6305
2026-01-12 12:24:02.84	46.10	11.69	-38.0	-39.0	22.3	0.00e+00	0	27	0	336592896	48	6424
2026-01-12 12:24:03.85	46.26	11.73	-37.8	-38.8	22.3	0.00e+00	0	27	0	337641472	48	6305
2026-01-12 12:24:04.86	46.43	11.78	-37.9	-39.0	22.2	0.00e+00	0	27	0	339738624	48	6403
2026-01-12 12:24:05.87	46.60	11.83	-38.1	-39.2	22.1	0.00e+00	0	27	0	341835776	48	6575
2026-01-12 12:24:06.88	46.76	11.87	-38.1	-39.2	22.0	0.00e+00	0	27	0	343932928	48	6559
2026-01-12 12:24:07.89	46.93	11.92	-38.1	-39.2	22.1	0.00e+00	0	27	0	346030080	48	6554
2026-01-12 12:24:08.90	47.10	11.97	-38.1	-39.2	22.1	0.00e+00	0	27	0	348127232	48	6606
2026-01-12 12:24:09.91	47.27	12.01	-38.1	-39.2	22.1	0.00e+00	0	27	0	349175808	48	6553
2026-01-12 12:24:10.92	47.44	12.06	-38.2	-39.2	21.9	0.00e+00	0	27	0	351272960	48	6607
2026-01-12 12:24:11.93	47.61	12.10	-38.1	-39.1	22.1	0.00e+00	0	27	0	353370112	48	6528
2026-01-12 12:24:12.94	47.78	12.15	-38.3	-39.4	21.9	0.00e+00	0	27	0	355467264	48	6737
2026-01-12 12:24:13.95	47.95	12.19	-38.0	-39.0	22.1	0.00e+00	0	27	0	357564416	48	6458
2026-01-12 12:24:14.96	48.12	12.24	-38.1	-39.1	22.1	0.00e+00	0	27	0	358612992	48	6520
2026-01-12 12:24:15.97	48.29	12.28	-38.2	-39.3	21.9	0.00e+00	0	27	0	360710144	48	6649
2026-01-12 12:24:16.98	48.47	12.33	-38.2	-39.2	22.0	0.00e+00	0	27	0	362807296	48	6606
2026-01-12 12:24:17.99	48.64	12.37	-38.3	-39.3	22.0	0.00e+00	0	27	0	364904448	48	6689
2026-01-12 12:24:19.00	48.81	12.42	-38.2	-39.2	22.1	0.00e+00	0	27	0	367001600	48	6601
2026-01-12 12:24:20.01	48.99	12.46	-38.2	-39.3	21.9	0.00e+00	0	27	0	368050176	48	6654
2026-01-12 12:24:21.02	49.16	12.51	-38.3	-39.4	21.9	0.00e+00	0	27	0	370147328	48	6696
2026-01-12 12:24:22.02	49.33	12.55	-38.5	-39.6	21.8	0.00e+00	0	27	0	372244480	48	6878
2026-01-12 12:24:23.03	49.51	12.60	-38.4	-39.5	21.9	0.00e+00	0	27	0	374341632	48	6807
2026-01-12 12:24:24.04	49.69	12.64	-38.6	-39.7	21.6	0.00e+00	0	27	0	376438784	48	6975
2026-01-12 12:24:25.05	49.86	12.68	-38.8	-40.0	21.5	0.00e+00	0	27	0	377487360	50	6423
2026-01-12 12:24:26.06	50.04	12.73	-38.8	-39.9	21.5	0.00e+00	0	27	0	379584512	50	6377
2026-01-12 12:24:27.07	50.22	12.77	-38.9	-40.1	21.4	0.00e+00	0	27	0	381681664	50	6503
2026-01-12 12:24:28.08	50.40	12.81	-38.9	-40.0	21.4	0.00e+00	0	27	0	383778816	50	6437
2026-01-12 12:24:29.09	50.57	12.86	-38.9	-40.0	21.5	0.00e+00	0	27	0	385875968	50	6461
2026-01-12 12:24:30.10	50.75	12.90	-38.8	-40.0	21.5	0.00e+00	0	27	0	386924544	50	6419
2026-01-12 12:24:31.11	50.93	12.94	-38.8	-40.0	21.5	0.00e+00	0	27	0	389021696	50	6398
2026-01-12 12:24:32.12	51.11	12.98	-38.9	-40.1	21.5	0.00e+00	0	27	0	391118848	50	6467
2026-01-12 12:24:33.13	51.29	13.03	-39.0	-40.2	21.3	0.00e+00	0	27	0	393216000	50	6547
2026-01-12 12:24:34.14	51.47	13.07	-39.2	-40.4	21.1	0.00e+00	0	27	0	395313152	50	6737
2026-01-12 12:24:35.15	51.66	13.11	-39.3	-40.5	21.0	0.00e+00	0	27	0	396361728	50	6818
2026-01-12 12:24:36.16	51.84	13.15	-39.4	-40.6	20.7	0.00e+00	0	27	0	398458880	50	6920
2026-01-12 12:24:37.17	52.02	13.19	-39.5	-40.7	20.7	0.00e+00	0	27	0	400556032	50	6950
2026-01-12 12:24:38.18	52.20	13.24	-39.5	-40.7	20.9	0.00e+00	0	27	0	402653184	50	6953
2026-01-12 12:24:39.19	52.39	13.28	-39.7	-40.9	20.7	0.00e+00	0	27	0	404750336	50	7127
2026-01-12 12:24:40.20	52.57	13.32	-39.5	-40.7	20.8	0.00e+00	0	27	0	405798912	50	6998
2026-01-12 12:24:41.21	52.76	13.36	-39.5	-40.7	20.9	0.00e+00	0	27	0	407896064	50	6947
2026-01-12 12:24:42.22	52.94	13.40	-39.6	-40.9	20.8	0.00e+00	0	27	0	409993216	52	6319
2026-01-12 12:24:43.23	53.13	13.44	-39.5	-40.8	20.8	0.00e+00	0	27	0	412090368	52	6259
2026-01-12 12:24:44.24	53.31	13.48	-39.7	-41.0	20.7	0.00e+00	0	27	0	414187520	52	6392
2026-01-12 12:24:45.25	53.50	13.52	-39.9	-41.2	20.4	0.00e+00	0	27	0	416284672	52	6581
2026-01-12 12:24:46.26	53.69	13.56	-39.8	-41.0	20.7	0.00e+00	0	27	0	417333248	52	6462
2026-01-12 12:24:47.27	53.88	13.60	-39.7	-41.0	20.7	0.00e+00	0	27	0	419430400	52	6407
2026-01-12 12:24:48.28	54.06	13.64	-39.5	-40.8	20.8	0.00e+00	0	27	0	421527552	52	6255
2026-01-12 12:24:49.29	54.25	13.68	-39.5	-40.7	21.0	0.00e+00	0	27	0	423624704	52	6236
2026-01-12 12:24:50.30	54.44	13.72	-39.5	-40.7	21.0	0.00e+00	0	27	0	425721856	52	6217
2026-01-12 12:24:51.31	54.63	13.75	-39.3	-40.4	21.1	0.00e+00	0	27	0	426770432	52	6023
2026-01-12 12:24:52.32	54.82	13.79	-39.3	-40.4	21.0	0.00e+00	0	27	0	428867584	52	6032
2026-01-12 12:24:53.33	55.01	13.83	-39.5	-40.7	20.9	0.00e+00	0	27	0	430964736	52	6200
2026-01-12 12:24:54.34	55.20	13.87	-39.5	-40.8	20.8	0.00e+00	0	27	0	433061888	52	6270
2026-01-12 12:24:55.35	55.40	13.91	-39.6	-40.8	20.8	0.00e+00	0	27	0	435159040	52	6299
2026-01-12 12:24:56.36	55.59	13.94	-39.7	-41.0	20.5	0.00e+00	0	27	0	436207616	52	6429
2026-01-12 12:24:57.37	55.78	13.98	-39.7	-41.0	20.5	0.00e+00	0	27	0	438304768	52	6420
2026-01-12 12:24:58.37	55.97	14.02	-39.5	-40.8	20.8	0.00e+00	0	27	0	440401920	52	6253
2026-01-12 12:24:59.38	56.16	14.06	-39.5	-40.7	20.9	0.00e+00	0	27	0	442499072	52	6221
2026-01-12 12:25:00.40	56.36	14.09	-39.5	-40.7	20.9	0.00e+00	0	27	0	444596224	52	6225
2026-01-12 12:25:01.41	56.55	14.13	-39.3	-40.5	21.1	0.00e+00	0	27	0	445644800	52	6091
2026-01-12 12:25:02.41	56.75	14.16	-39.4	-40.6	21.0	0.00e+00	0	27	0	447741952	52	6142
2026-01-12 12:25:03.43	56.94	14.20	-39.2	-40.4	21.2	0.00e+00	0	27	0	449839104	52	5992
2026-01-12 12:25:04.43	57.14	14.24	-39.0	-40.1	21.4	0.00e+00	0	27	0	451936256	52	5826
2026-01-12 12:25:05.44	57.33	14.27	-38.9	-40.0	21.4	0.00e+00	0	27	0	454033408	52	5756
2026-01-12 12:25:06.45	57.53	14.31	-38.8	-39.9	21.6	0.00e+00	0	27	0	455081984	50	6346
2026-01-12 12:25:07.46	57.73	14.34	-38.4	-39.5	21.8	0.00e+00	0	27	0	457179136	50	6045
2026-01-12 12:25:08.47	57.93	14.38	-38.0	-39.0	22.3	0.00e+00	0	27	0	459276288	50	5755
2026-01-12 12:25:09.48	58.12	14.41	-37.9	-38.9	22.5	0.00e+00	0	27	0	461373440	48	6342
2026-01-12 12:25:10.49	58.32	14.44	-37.6	-38.6	22.6	0.00e+00	0	27	0	463470592	48	6154
2026-01-12 12:25:11.50	58.52	14.48	-37.6	-38.5	22.8	0.00e+00	0	27	0	464519168	48	6097
2026-01-12 12:25:12.51	58.72	14.51	-37.4	-38.4	22.8	0.00e+00	0	27	0	466616320	48	5992
2026-01-12 12:25:13.52	58.92	14.54	-37.4	-38.3	23.0	0.00e+00	0	27	0	468713472	48	5947
2026-01-12 12:25:14.53	59.12	14.58	-37.5	-38.5	22.8	0.00e+00	0	27	0	470810624	48	6037
2026-01-12 12:25:15.54	59.32	14.61	-37.3	-38.3	22.9	0.00e+00	0	27	0	472907776	48	5923
2026-01-12 12:25:16.55	59.52	14.64	-37.4	-38.4	22.8	0.00e+00	0	27	0	473956352	48	5988
2026-01-12 12:25:17.56	59.72	14.67	-37.4	-38.4	22.9	0.00e+00	0	27	0	476053504	48	5966
2026-01-12 12:25:18.57	59.93	14.71	-37.5	-38.5	22.7	0.00e+00	0	27	0	478150656	48	6038
2026-01-12 12:25:19.58	60.13	14.74	-37.7	-38.7	22.7	0.00e+00	0	27	0	480247808	48	6227
2026-01-12 12:25:20.59	60.33	14.77	-37.9	-38.9	22.3	0.00e+00	0	27	0	482344960	48	6348
2026-01-12 12:25:21.60	60.53	14.80	-37.8	-38.8	21.8	0.00e+00	0	27	0	484442112	48	6277
2026-01-12 12:25:22.61	60.74	14.83	-37.6	-38.6	22.4	0.00e+00	0	27	0	485490688	48	6164
2026-01-12 12:25:23.62	60.94	14.86	-37.5	-38.5	22.7	0.00e+00	0	27	0	487587840	48	6059
2026-01-12 12:25:24.63	61.15	14.89	-37.5	-38.5	22.6	0.00e+00	0	27	0	489684992	48	6065
2026-01-12 12:25:25.64	61.35	14.92	-37.4	-38.4	22.7	0.00e+00	0	27	0	491782144	48	5974
2026-01-12 12:25:26.65	61.56	14.95	-37.4	-38.3	22.8	0.00e+00	0	27	0	493879296	48	5957
2026-01-12 12:25:27.66	61.76	14.98	-37.5	-38.5	22.7	0.00e+00	0	27	0	494927872	48	6069
2026-01-12 12:25:28.67	61.97	15.01	-37.7	-38.7	22.6	0.00e+00	0	27	0	497025024	48	6210
2026-01-12 12:25:29.68	62.17	15.04	-38.1	-39.2	22.2	0.00e+00	0	27	0	499122176	48	6561
2026-01-12 12:25:30.69	62.38	15.06	-38.1	-39.2	22.2	0.00e+00	0	27	0	501219328	48	6546
2026-01-12 12:25:31.70	62.59	15.09	-37.9	-39.0	22.4	0.00e+00	0	27	0	503316480	48	6406
2026-01-12 12:25:32.71	62.80	15.12	-37.9	-38.9	22.5	0.00e+00	0	27	0	504365056	48	6334
2026-01-12 12:25:33.72	63.00	15.15	-37.7	-38.7	22.6	0.00e+00	0	27	0	506462208	48	6212
2026-01-12 12:25:34.73	63.21	15.17	-37.6	-38.6	22.6	0.00e+00	0	27	0	508559360	48	6134
2026-01-12 12:25:35.74	63.42	15.20	-37.5	-38.4	22.8	0.00e+00	0	27	0	510656512	48	6012
2026-01-12 12:25:36.75	63.63	15.23	-37.5	-38.5	22.8	0.00e+00	0	27	0	512753664	48	6050
2026-01-12 12:25:37.76	63.84	15.25	-37.7	-38.7	22.6	0.00e+00	0	27	0	513802240	48	6197
2026-01-12 12:25:38.76	64.05	15.28	-38.1	-39.1	22.2	0.00e+00	0	27	0	515899392	48	6503
2026-01-12 12:25:39.77	64.26	15.30	-38.2	-39.3	22.1	0.00e+00	0	27	0	517996544	48	6658
2026-01-12 12:25:40.78	64.47	15.33	-38.3	-39.4	22.0	0.00e+00	0	27	0	520093696	48	6722
2026-01-12 12:25:41.80	64.68	15.35	-38.1	-39.2	22.2	0.00e+00	0	27	0	522190848	48	6552
2026-01-12 12:25:42.80	64.89	15.38	-38.2	-39.3	22.1	0.00e+00	0	27	0	523239424	48	6628
2026-01-12 12:25:43.81	65.10	15.40	-38.0	-39.0	22.3	0.00e+00	0	27	0	525336576	48	6451
2026-01-12 12:25:44.82	65.31	15.42	-38.3	-39.4	22.0	0.00e+00	0	27	0	527433728	48	6716
2026-01-12 12:25:45.83	65.52	15.45	-38.5	-39.6	21.8	0.00e+00	0	27	0	529530880	48	6903
2026-01-12 12:25:46.84	65.74	15.47	-38.9	-40.0	21.5	0.00e+00	0	27	0	531628032	50	6428
2026-01-12 12:25:47.85	65.95	15.49	-39.3	-40.5	21.1	0.00e+00	0	27	0	532676608	50	6791
2026-01-12 12:25:48.86	66.16	15.51	-39.3	-40.5	21.0	0.00e+00	0	27	0	534773760	50	6808
2026-01-12 12:25:49.87	66.38	15.54	-39.2	-40.3	21.3	0.00e+00	0	27	0	536870912	50	6686
2026-01-12 12:25:50.88	66.59	15.56	-38.2	-39.3	22.1	0.00e+00	0	27	0	538968064	50	5920
2026-01-12 12:25:51.89	66.80	15.58	-37.9	-38.9	22.4	0.00e+00	0	27	0	541065216	50	5676
2026-01-12 12:25:52.90	67.02	15.60	-37.3	-38.3	23.0	0.00e+00	0	27	0	542113792	48	5915
2026-01-12 12:25:53.91	67.23	15.62	-37.2	-38.2	23.0	0.00e+00	0	27	0	544210944	48	5843
2026-01-12 12:25:54.92	67.45	15.64	-37.4	-38.4	22.9	0.00e+00	0	27	0	546308096	48	6020
2026-01-12 12:25:55.93	67.66	15.66	-37.7	-38.7	22.6	0.00e+00	0	27	0	548405248	48	6242
2026-01-12 12:25:56.94	67.88	15.68	-38.0	-39.2	22.1	0.00e+00	0	27	0	550502400	48	6584
2026-01-12 12:25:57.95	68.09	15.70	-38.2	-39.5	22.0	0.00e+00	0	27	0	552599552	48	6789
2026-01-12 12:25:58.96	68.31	15.72	-37.9	-39.1	22.4	0.00e+00	0	27	0	553648128	48	6511
2026-01-12 12:25:59.96	68.52	15.73	-37.7	-38.8	22.5	0.00e+00	0	27	0	555745280	48	6307
2026-01-12 12:26:00.98	68.74	15.75	-37.3	-38.3	22.8	0.00e+00	0	27	0	557842432	48	5961
2026-01-12 12:26:01.99	68.96	15.77	-37.1	-38.1	23.0	0.00e+00	0	27	0	559939584	48	5823
2026-01-12 12:26:02.99	69.17	15.79	-36.9	-37.9	23.2	0.00e+00	0	27	0	562036736	48	5637
2026-01-12 12:26:04.00	69.39	15.80	-37.2	-38.2	23.1	0.00e+00	0	27	0	563085312	48	5830
2026-01-12 12:26:05.01	69.61	15.82	-37.4	-38.4	22.9	0.00e+00	0	27	0	565182464	48	5981
2026-01-12 12:26:06.02	69.83	15.84	-37.6	-38.6	22.7	0.00e+00	0	27	0	567279616	48	6139
2026-01-12 12:26:07.03	70.04	15.85	-37.7	-38.7	22.5	0.00e+00	0	27	0	569376768	48	6230
2026-01-12 12:26:08.04	70.26	15.87	-37.7	-38.7	22.5	0.00e+00	0	27	0	571473920	48	6214
2026-01-12 12:26:09.05	70.48	15.88	-37.5	-38.4	22.7	0.00e+00	0	27	0	572522496	48	6029
2026-01-12 12:26:10.06	70.70	15.90	-37.5	-38.4	22.8	0.00e+00	0	27	0	574619648	48	6015
2026-01-12 12:26:11.07	70.92	15.91	-37.5	-38.5	22.7	0.00e+00	0	27	0	576716800	48	6036
2026-01-12 12:26:12.08	71.14	15.92	-37.7	-38.7	22.5	0.00e+00	0	27	0	578813952	48	6219
2026-01-12 12:26:13.09	71.36	15.94	-38.1	-39.1	22.2	0.00e+00	0	27	0	580911104	48	6521
2026-01-12 12:26:14.10	71.57	15.95	-38.4	-39.5	21.6	0.00e+00	0	27	0	581959680	48	6834
2026-01-12 12:26:15.11	71.79	15.96	-38.5	-39.6	21.8	0.00e+00	0	27	0	584056832	48	6861
2026-01-12 12:26:16.12	72.01	15.98	-38.6	-39.7	21.8	0.00e+00	0	27	0	586153984	48	6969
2026-01-12 12:26:17.13	72.23	15.99	-38.4	-39.4	21.9	0.00e+00	0	27	0	588251136	48	6766
2026-01-12 12:26:18.14	72.45	16.00	-38.3	-39.3	22.1	0.00e+00	0	27	0	590348288	48	6658
2026-01-12 12:26:19.15	72.67	16.01	-38.3	-39.4	22.1	0.00e+00	0	27	0	591396864	48	6696
2026-01-12 12:26:20.16	72.89	16.02	-38.4	-39.5	21.9	0.00e+00	0	27	0	593494016	48	6805
2026-01-12 12:26:21.17	73.12	16.03	-38.7	-39.9	21.6	0.00e+00	0	27	0	595591168	48	7092
2026-01-12 12:26:22.18	73.34	16.04	-39.0	-40.1	21.5	0.00e+00	0	27	0	597688320	50	6523
2026-01-12 12:26:23.19	73.56	16.05	-39.0	-40.2	21.3	0.00e+00	0	27	0	599785472	50	6601
2026-01-12 12:26:24.20	73.78	16.06	-38.9	-40.2	21.4	0.00e+00	0	27	0	600834048	50	6564
2026-01-12 12:26:25.21	74.00	16.07	-38.6	-39.8	21.7	0.00e+00	0	27	0	602931200	50	6264
2026-01-12 12:26:26.22	74.22	16.08	-38.5	-39.7	21.8	0.00e+00	0	27	0	605028352	50	6194
2026-01-12 12:26:27.23	74.44	16.08	-38.5	-39.7	21.7	0.00e+00	0	27	0	607125504	50	6194
2026-01-12 12:26:28.23	74.66	16.09	-38.3	-39.4	22.0	0.00e+00	0	27	0	609222656	50	6011
2026-01-12 12:26:29.24	74.88	16.10	-38.3	-39.3	22.1	0.00e+00	0	27	0	610271232	50	5954
2026-01-12 12:26:30.25	75.10	16.10	-38.2	-39.3	22.0	0.00e+00	0	27	0	612368384	50	5928
2026-01-12 12:26:31.26	75.33	16.11	-38.3	-39.5	21.9	0.00e+00	0	27	0	614465536	50	6081
2026-01-12 12:26:32.27	75.55	16.12	-37.9	-39.0	22.3	0.00e+00	0	27	0	616562688	50	5725
2026-01-12 12:26:33.28	75.77	16.12	-38.0	-39.0	22.3	0.00e+00	0	27	0	618659840	50	5759
2026-01-12 12:26:34.29	75.99	16.13	-37.9	-38.9	22.4	0.00e+00	0	27	0	620756992	50	5671
2026-01-12 12:26:35.30	76.21	16.13	-37.9	-38.9	22.5	0.00e+00	0	27	0	621805568	48	6357
2026-01-12 12:26:36.31	76.44	16.14	-37.9	-39.0	22.3	0.00e+00	0	27	0	623902720	48	6423
2026-01-12 12:26:37.32	76.66	16.14	-38.1	-39.2	22.1	0.00e+00	0	27	0	625999872	48	6611
2026-01-12 12:26:38.33	76.88	16.14	-38.1	-39.2	22.2	0.00e+00	0	27	0	628097024	48	6559
2026-01-12 12:26:39.34	77.10	16.15	-37.8	-38.9	22.4	0.00e+00	0	27	0	630194176	48	6380
2026-01-12 12:26:40.35	77.33	16.15	-37.6	-38.7	22.6	0.00e+00	0	27	0	631242752	48	6227
2026-01-12 12:26:41.36	77.55	16.15	-37.2	-38.3	22.9	0.00e+00	0	27	0	633339904	48	5936
2026-01-12 12:26:42.37	77.77	16.15	-37.0	-38.0	23.2	0.00e+00	0	27	0	635437056	48	5724
2026-01-12 12:26:43.38	77.99	16.15	-37.1	-38.1	23.1	0.00e+00	0	27	0	637534208	48	5801
2026-01-12 12:26:44.39	78.21	16.15	-37.3	-38.3	22.9	0.00e+00	0	27	0	639631360	48	5942
2026-01-12 12:26:45.40	78.44	16.15	-37.4	-38.4	22.8	0.00e+00	0	27	0	640679936	48	6024
2026-01-12 12:26:46.41	78.66	16.15	-37.7	-38.8	22.5	0.00e+00	0	27	0	642777088	48	6257
2026-01-12 12:26:47.41	78.88	16.15	-37.7	-38.8	22.6	0.00e+00	0	27	0	644874240	48	6280
2026-01-12 12:26:48.43	79.11	16.15	-37.7	-38.8	22.6	0.00e+00	0	27	0	646971392	48	6285
2026-01-12 12:26:49.44	79.33	16.15	-37.5	-38.6	22.7	0.00e+00	0	27	0	649068544	48	6159
2026-01-12 12:26:50.44	79.55	16.15	-37.4	-38.4	22.8	0.00e+00	0	27	0	650117120	48	6004
2026-01-12 12:26:51.45	79.77	16.15	-37.5	-38.5	22.6	0.00e+00	0	27	0	652214272	48	6101
2026-01-12 12:26:52.47	79.99	16.15	-37.6	-38.7	22.5	0.00e+00	0	27	0	654311424	48	6184
2026-01-12 12:26:53.47	80.22	16.14	-37.7	-38.8	22.5	0.00e+00	0	27	0	656408576	48	6279
2026-01-12 12:26:54.48	80.44	16.14	-37.9	-39.0	22.3	0.00e+00	0	27	0	658505728	48	6449
2026-01-12 12:26:55.48	80.66	16.14	-38.0	-39.0	22.3	0.00e+00	0	27	0	659554304	48	6436
2026-01-12 12:26:56.49	80.88	16.13	-38.0	-39.0	22.4	0.00e+00	0	27	0	661651456	48	6439
2026-01-12 12:26:57.50	81.10	16.13	-37.8	-38.8	22.5	0.00e+00	0	27	0	663748608	48	6270
2026-01-12 12:26:58.51	81.32	16.12	-37.5	-38.5	22.8	0.00e+00	0	27	0	665845760	48	6038
2026-01-12 12:26:59.52	81.55	16.12	-37.5	-38.5	22.9	0.00e+00	0	27	0	667942912	48	6046
2026-01-12 12:27:00.53	81.77	16.11	-37.3	-38.3	22.9	0.00e+00	0	27	0	668991488	48	5928
2026-01-12 12:27:01.54	81.99	16.11	-37.4	-38.3	22.8	0.00e+00	0	27	0	671088640	48	5963
2026-01-12 12:27:02.55	82.21	16.10	-37.5	-38.5	22.6	0.00e+00	0	27	0	673185792	48	6101
2026-01-12 12:27:03.56	82.43	16.09	-37.7	-38.7	21.8	0.00e+00	0	27	0	675282944	48	6244
2026-01-12 12:27:04.57	82.66	16.09	-38.0	-39.1	22.2	0.00e+00	0	27	0	677380096	48	6534
2026-01-12 12:27:05.58	82.88	16.08	-38.3	-39.4	22.0	0.00e+00	0	27	0	678428672	48	6756
2026-01-12 12:27:06.59	83.10	16.07	-38.4	-39.5	21.9	0.00e+00	0	27	0	680525824	48	6776
2026-01-12 12:27:07.60	83.32	16.06	-38.2	-39.3	22.2	0.00e+00	0	27	0	682622976	48	6625
2026-01-12 12:27:08.61	83.54	16.05	-37.9	-39.0	22.4	0.00e+00	0	27	0	684720128	48	6395
2026-01-12 12:27:09.62	83.76	16.05	-37.7	-38.7	22.6	0.00e+00	0	27	0	686817280	48	6188
2026-01-12 12:27:10.63	83.98	16.04	-37.4	-38.5	22.8	0.00e+00	0	27	0	688914432	48	6034
2026-01-12 12:27:11.64	84.20	16.03	-37.3	-38.4	22.9	0.00e+00	0	27	0	689963008	48	5968
2026-01-12 12:27:12.65	84.43	16.02	-37.1	-38.2	23.0	0.00e+00	0	27	0	692060160	48	5852
2026-01-12 12:27:13.66	84.65	16.01	-37.1	-38.2	22.8	0.00e+00	0	27	0	694157312	48	5832
2026-01-12 12:27:14.67	84.87	15.99	-37.3	-38.4	22.9	0.00e+00	0	27	0	696254464	48	5994
2026-01-12 12:27:15.68	85.09	15.98	-37.5	-38.6	22.7	0.00e+00	0	27	0	698351616	48	6105
2026-01-12 12:27:16.69	85.31	15.97	-37.5	-38.6	22.6	0.00e+00	0	27	0	699400192	48	6145
2026-01-12 12:27:17.70	85.53	15.96	-37.6	-38.7	22.6	0.00e+00	0	27	0	701497344	48	6188
2026-01-12 12:27:18.71	85.75	15.95	-37.7	-38.8	22.5	0.00e+00	0	27	0	703594496	48	6273
2026-01-12 12:27:19.72	85.97	15.93	-37.8	-38.9	22.5	0.00e+00	0	27	0	705691648	48	6324
2026-01-12 12:27:20.73	86.18	15.92	-37.9	-39.0	22.4	0.00e+00	0	27	0	707788800	48	6393
2026-01-12 12:27:21.74	86.40	15.90	-38.0	-39.1	22.4	0.00e+00	0	27	0	708837376	48	6485
2026-01-12 12:27:22.75	86.62	15.89	-37.8	-38.8	22.6	0.00e+00	0	27	0	710934528	48	6272
2026-01-12 12:27:23.76	86.84	15.88	-37.8	-38.8	22.5	0.00e+00	0	27	0	713031680	48	6255
2026-01-12 12:27:24.77	87.06	15.86	-37.6	-38.6	22.7	0.00e+00	0	27	0	715128832	48	6141
2026-01-12 12:27:25.78	87.28	15.85	-37.7	-38.7	22.6	0.00e+00	0	27	0	717225984	48	6209
2026-01-12 12:27:26.79	87.50	15.83	-37.6	-38.6	22.6	0.00e+00	0	27	0	718274560	48	6162
2026-01-12 12:27:27.79	87.71	15.81	-37.5	-38.5	22.7	0.00e+00	0	27	0	720371712	48	6044
2026-01-12 12:27:28.80	87.93	15.80	-37.4	-38.4	22.6	0.00e+00	0	27	0	722468864	48	6003
2026-01-12 12:27:29.81	88.15	15.78	-37.4	-38.3	22.9	0.00e+00	0	27	0	724566016	48	5948
2026-01-12 12:27:30.82	88.36	15.76	-36.8	-37.8	23.3	0.00e+00	0	27	0	726663168	48	5584
2026-01-12 12:27:31.83	88.58	15.75	-36.8	-37.7	23.2	0.00e+00	0	27	0	727711744	46	6243
2026-01-12 12:27:32.84	88.80	15.73	-36.7	-37.7	23.3	0.00e+00	0	27	0	729808896	46	6188
2026-01-12 12:27:33.85	89.02	15.71	-36.8	-37.7	23.4	0.00e+00	0	27	0	731906048	46	6223
2026-01-12 12:27:34.86	89.23	15.69	-36.8	-37.7	23.3	0.00e+00	0	27	0	734003200	46	6213
2026-01-12 12:27:35.87	89.45	15.67	-36.9	-37.8	23.3	0.00e+00	0	27	0	736100352	46	6290
2026-01-12 12:27:36.88	89.66	15.65	-36.8	-37.7	23.4	0.00e+00	0	27	0	737148928	46	6220
2026-01-12 12:27:37.89	89.88	15.63	-36.9	-37.8	23.2	0.00e+00	0	27	0	739246080	46	6293
2026-01-12 12:27:38.90	90.09	15.61	-36.7	-37.6	23.4	0.00e+00	0	27	0	741343232	46	6159
2026-01-12 12:27:39.91	90.31	15.59	-36.7	-37.7	23.4	0.00e+00	0	27	0	743440384	46	6181
2026-01-12 12:27:40.92	90.52	15.57	-36.7	-37.7	23.4	0.00e+00	0	27	0	745537536	46	6181
2026-01-12 12:27:41.92	90.73	15.55	-36.9	-37.9	23.2	0.00e+00	0	27	0	746586112	46	6351
2026-01-12 12:27:42.93	90.95	15.53	-37.3	-38.4	22.9	0.00e+00	0	27	0	748683264	46	6720
2026-01-12 12:27:43.94	91.16	15.50	-37.1	-38.2	23.0	0.00e+00	0	27	0	750780416	46	6575
2026-01-12 12:27:44.96	91.38	15.48	-37.2	-38.2	22.9	0.00e+00	0	27	0	752877568	46	6599
2026-01-12 12:27:45.96	91.59	15.46	-37.0	-38.0	23.2	0.00e+00	0	27	0	754974720	46	6442
2026-01-12 12:27:46.98	91.80	15.44	-36.9	-37.9	23.1	0.00e+00	0	27	0	757071872	46	6335
2026-01-12 12:27:47.99	92.02	15.41	-36.8	-37.8	23.3	0.00e+00	0	27	0	758120448	46	6275
2026-01-12 12:27:49.00	92.23	15.39	-36.8	-37.8	23.2	0.00e+00	0	27	0	760217600	46	6306
2026-01-12 12:27:50.01	92.44	15.36	-37.1	-38.1	23.0	0.00e+00	0	27	0	762314752	46	6516
2026-01-12 12:27:51.01	92.65	15.34	-37.1	-38.1	23.0	0.00e+00	0	27	0	764411904	46	6501
2026-01-12 12:27:52.03	92.86	15.32	-37.2	-38.2	23.0	0.00e+00	0	27	0	766509056	46	6582
2026-01-12 12:27:53.04	93.07	15.29	-37.2	-38.1	23.0	0.00e+00	0	27	0	767557632	46	6508
2026-01-12 12:27:54.04	93.28	15.26	-37.1	-38.0	23.0	0.00e+00	0	27	0	769654784	46	6417
2026-01-12 12:27:55.05	93.49	15.24	-36.7	-37.7	23.3	0.00e+00	0	27	0	771751936	46	6176
2026-01-12 12:27:56.06	93.70	15.21	-36.5	-37.4	23.5	0.00e+00	0	27	0	773849088	46	6026
2026-01-12 12:27:57.07	93.91	15.19	-36.4	-37.3	23.6	0.00e+00	0	27	0	775946240	46	5962
2026-01-12 12:27:58.08	94.12	15.16	-36.0	-36.9	23.8	0.00e+00	0	27	0	776994816	46	5695
2026-01-12 12:27:59.09	94.33	15.13	-36.2	-37.2	23.6	0.00e+00	0	27	0	779091968	46	5851
2026-01-12 12:28:00.10	94.54	15.11	-36.2	-37.2	23.7	0.00e+00	0	27	0	781189120	46	5846
2026-01-12 12:28:01.11	94.74	15.08	-36.2	-37.1	23.9	0.00e+00	0	27	0	783286272	46	5804
2026-01-12 12:28:02.12	94.95	15.05	-36.3	-37.2	23.7	0.00e+00	0	27	0	785383424	46	5881
2026-01-12 12:28:03.13	95.16	15.02	-36.4	-37.3	23.7	0.00e+00	0	27	0	786432000	46	5915
2026-01-12 12:28:04.14	95.37	14.99	-36.7	-37.6	23.5	0.00e+00	0	27	0	788529152	46	6171
2026-01-12 12:28:05.15	95.57	14.96	-36.8	-37.7	23.3	0.00e+00	0	27	0	790626304	46	6240
2026-01-12 12:28:06.16	95.78	14.93	-36.8	-37.8	23.3	0.00e+00	0	27	0	792723456	46	6257
2026-01-12 12:28:07.17	95.98	14.90	-36.7	-37.6	23.3	0.00e+00	0	27	0	794820608	46	6133
2026-01-12 12:28:08.18	96.19	14.87	-36.6	-37.5	23.4	0.00e+00	0	27	0	795869184	46	6097
2026-01-12 12:28:09.19	96.39	14.84	-36.5	-37.4	23.5	0.00e+00	0	27	0	797966336	46	6026
2026-01-12 12:28:10.19	96.60	14.81	-36.6	-37.5	23.5	0.00e+00	0	27	0	800063488	46	6056
2026-01-12 12:28:11.20	96.80	14.78	-36.9	-37.8	23.3	0.00e+00	0	27	0	802160640	46	6273
2026-01-12 12:28:12.21	97.00	14.75	-37.0	-38.0	23.2	0.00e+00	0	27	0	804257792	46	6425
2026-01-12 12:28:13.22	97.21	14.72	-36.8	-37.9	23.3	0.00e+00	0	27	0	805306368	46	6349
2026-01-12 12:28:14.23	97.41	14.69	-36.8	-37.8	23.3	0.00e+00	0	27	0	807403520	46	6309
2026-01-12 12:28:15.24	97.61	14.66	-36.8	-37.8	23.4	0.00e+00	0	27	0	809500672	46	6297
2026-01-12 12:28:16.25	97.81	14.62	-36.8	-37.8	23.3	0.00e+00	0	27	0	811597824	46	6266
2026-01-12 12:28:17.26	98.02	14.59	-36.7	-37.7	23.3	0.00e+00	0	27	0	813694976	46	6178
2026-01-12 12:28:18.27	98.22	14.56	-36.7	-37.7	23.3	0.00e+00	0	27	0	814743552	46	6197
2026-01-12 12:28:19.28	98.42	14.53	-36.6	-37.5	23.4	0.00e+00	0	27	0	816840704	46	6074
2026-01-12 12:28:20.29	98.62	14.49	-36.7	-37.6	23.3	0.00e+00	0	27	0	818937856	46	6169
2026-01-12 12:28:21.30	98.82	14.46	-36.6	-37.5	23.4	0.00e+00	0	27	0	821035008	46	6083
2026-01-12 12:28:22.31	99.02	14.42	-36.7	-37.6	23.5	0.00e+00	0	27	0	823132160	46	6160
2026-01-12 12:28:23.32	99.22	14.39	-36.5	-37.4	23.5	0.00e+00	0	27	0	825229312	46	6031
2026-01-12 12:28:24.33	99.41	14.36	-36.6	-37.5	23.6	0.00e+00	0	27	0	826277888	46	6040
2026-01-12 12:28:25.34	99.61	14.32	-36.9	-37.8	23.3	0.00e+00	0	27	0	828375040	46	6306
2026-01-12 12:28:26.34	99.81	14.29	-36.6	-37.6	23.5	0.00e+00	0	27	0	830472192	46	6106
2026-01-12 12:28:27.35	100.00	14.25	-37.0	-37.9	23.1	0.00e+00	0	27	0	832569344	46	6376
2026-01-12 12:28:28.36	100.20	14.21	-37.1	-38.0	23.1	0.00e+00	0	27	0	833617920	46	6432
2026-01-12 12:28:29.37	100.40	14.18	-37.1	-38.0	23.2	0.00e+00	0	27	0	835715072	46	6441
2026-01-12 12:28:30.38	100.59	14.14	-36.9	-37.9	23.2	0.00e+00	0	27	0	837812224	46	6340
2026-01-12 12:28:31.39	100.79	14.11	-36.9	-37.9	23.2	0.00e+00	0	27	0	839909376	46	6322
2026-01-12 12:28:32.40	100.98	14.07	-37.0	-38.0	23.0	0.00e+00	0	27	0	842006528	46	6428
2026-01-12 12:28:33.41	101.18	14.03	-37.3	-38.3	22.7	0.00e+00	0	27	0	843055104	46	6622
2026-01-12 12:28:34.42	101.37	14.00	-37.6	-38.6	22.5	0.00e+00	0	27	0	845152256	46	6895
2026-01-12 12:28:35.43	101.56	13.96	-37.7	-38.8	22.3	0.00e+00	0	27	0	847249408	48	6256
2026-01-12 12:28:36.44	101.76	13.92	-38.1	-39.1	21.7	0.00e+00	0	27	0	849346560	48	6531
2026-01-12 12:28:37.45	101.95	13.88	-38.2	-39.3	21.8	0.00e+00	0	27	0	851443712	48	6628
2026-01-12 12:28:38.46	102.14	13.85	-38.3	-39.4	22.1	0.00e+00	0	27	0	853540864	48	6735
2026-01-12 12:28:39.47	102.33	13.81	-38.1	-39.3	22.0	0.00e+00	0	27	0	854589440	48	6664
2026-01-12 12:28:40.48	102.52	13.77	-38.0	-39.2	22.1	0.00e+00	0	27	0	856686592	48	6576
2026-01-12 12:28:41.49	102.71	13.73	-37.9	-39.0	22.2	0.00e+00	0	27	0	858783744	48	6448
2026-01-12 12:28:42.50	102.90	13.69	-37.7	-38.9	22.4	0.00e+00	0	27	0	860880896	48	6322
2026-01-12 12:28:43.51	103.09	13.65	-37.7	-38.9	22.4	0.00e+00	0	27	0	862978048	48	6344
2026-01-12 12:28:44.52	103.28	13.61	-37.9	-39.1	22.2	0.00e+00	0	27	0	864026624	48	6487
2026-01-12 12:28:45.53	103.47	13.57	-38.0	-39.3	22.1	0.00e+00	0	27	0	866123776	48	6630
2026-01-12 12:28:46.54	103.66	13.53	-37.9	-39.1	22.2	0.00e+00	0	27	0	868220928	48	6496
2026-01-12 12:28:47.55	103.85	13.49	-38.2	-39.4	22.0	0.00e+00	0	27	0	870318080	48	6693
2026-01-12 12:28:48.56	104.04	13.45	-38.2	-39.5	21.8	0.00e+00	0	27	0	872415232	48	6776
2026-01-12 12:28:49.57	104.22	13.41	-38.3	-39.6	21.6	0.00e+00	0	27	0	873463808	48	6862
2026-01-12 12:28:50.57	104.41	13.37	-38.3	-39.6	21.7	0.00e+00	0	27	0	875560960	48	6894
2026-01-12 12:28:51.58	104.59	13.33	-38.4	-39.6	21.5	0.00e+00	0	27	0	877658112	48	6919
2026-01-12 12:28:52.59	104.78	13.29	-38.4	-39.6	21.6	0.00e+00	0	27	0	879755264	48	6886
2026-01-12 12:28:53.61	104.96	13.25	-38.4	-39.5	21.8	0.00e+00	0	27	0	881852416	48	6808
2026-01-12 12:28:54.62	105.15	13.21	-38.1	-39.1	22.1	0.00e+00	0	27	0	882900992	48	6518
2026-01-12 12:28:55.62	105.33	13.16	-38.3	-39.3	21.8	0.00e+00	0	27	0	884998144	48	6677
2026-01-12 12:28:56.63	105.51	13.12	-38.1	-39.3	22.0	0.00e+00	0	27	0	887095296	48	6635
2026-01-12 12:28:57.64	105.69	13.08	-38.2	-39.4	21.8	0.00e+00	0	27	0	889192448	48	6767
2026-01-12 12:28:58.65	105.88	13.04	-38.2	-39.5	21.8	0.00e+00	0	27	0	891289600	48	6821
2026-01-12 12:28:59.66	106.06	13.00	-38.4	-39.8	21.6	0.00e+00	0	27	0	892338176	48	7019
2026-01-12 12:29:00.67	106.24	12.95	-38.7	-40.1	21.3	0.00e+00	0	27	0	894435328	48	7266
2026-01-12 12:29:01.68	106.42	12.91	-38.8	-40.2	21.2	0.00e+00	0	27	0	896532480	50	6570
2026-01-12 12:29:02.69	106.60	12.87	-38.9	-40.4	21.1	0.00e+00	0	27	0	898629632	50	6739
2026-01-12 12:29:03.70	106.78	12.82	-39.1	-40.5	20.9	0.00e+00	0	27	0	900726784	50	6844
2026-01-12 12:29:04.71	106.96	12.78	-39.3	-40.7	20.8	0.00e+00	0	27	0	901775360	50	7007
2026-01-12 12:29:05.72	107.14	12.74	-39.4	-40.8	20.6	0.00e+00	0	27	0	903872512	50	7087
2026-01-12 12:29:06.73	107.32	12.69	-39.4	-40.8	20.6	0.00e+00	0	27	0	905969664	50	7059
2026-01-12 12:29:07.74	107.49	12.65	-39.2	-40.6	20.7	0.00e+00	0	27	0	908066816	50	6881
2026-01-12 12:29:08.75	107.67	12.60	-39.2	-40.6	20.8	0.00e+00	0	27	0	910163968	50	6863
2026-01-12 12:29:09.76	107.85	12.56	-39.0	-40.3	21.2	0.00e+00	0	27	0	911212544	50	6625
2026-01-12 12:29:10.77	108.02	12.52	-38.6	-39.8	21.6	0.00e+00	0	27	0	913309696	50	6293
2026-01-12 12:29:11.77	108.20	12.47	-38.4	-39.5	21.8	0.00e+00	0	27	0	915406848	50	6057
2026-01-12 12:29:12.78	108.37	12.43	-38.2	-39.2	22.0	0.00e+00	0	27	0	917504000	50	5892
2026-01-12 12:29:13.79	108.55	12.38	-38.2	-39.3	22.1	0.00e+00	0	27	0	919601152	50	5912
2026-01-12 12:29:14.80	108.72	12.34	-38.2	-39.3	22.0	0.00e+00	0	27	0	921698304	50	5932
2026-01-12 12:29:15.81	108.89	12.29	-38.3	-39.4	21.9	0.00e+00	0	27	0	922746880	50	6027
2026-01-12 12:29:16.82	109.07	12.25	-38.4	-39.6	21.7	0.00e+00	0	27	0	924844032	50	6119
2026-01-12 12:29:17.83	109.24	12.20	-38.5	-39.6	21.6	0.00e+00	0	27	0	926941184	50	6163
2026-01-12 12:29:18.84	109.41	12.16	-38.9	-40.0	21.3	0.00e+00	0	27	0	929038336	50	6429
2026-01-12 12:29:19.85	109.58	12.11	-38.8	-40.0	21.2	0.00e+00	0	27	0	931135488	50	6392
2026-01-12 12:29:20.86	109.75	12.06	-38.7	-39.9	21.5	0.00e+00	0	27	0	932184064	50	6328
2026-01-12 12:29:21.87	109.92	12.02	-38.8	-40.0	21.3	0.00e+00	0	27	0	934281216	50	6422
2026-01-12 12:29:22.88	110.09	11.97	-38.9	-40.1	21.4	0.00e+00	0	27	0	936378368	50	6477
2026-01-12 12:29:23.89	110.26	11.93	-38.9	-40.1	21.3	0.00e+00	0	27	0	938475520	50	6483
2026-01-12 12:29:24.90	110.43	11.88	-38.7	-40.0	21.3	0.00e+00	0	27	0	940572672	50	6421
2026-01-12 12:29:25.91	110.60	11.83	-38.7	-40.0	21.3	0.00e+00	0	27	0	941621248	50	6448
2026-01-12 12:29:26.92	110.77	11.79	-38.9	-40.4	21.0	0.00e+00	0	27	0	943718400	50	6720
2026-01-12 12:29:27.93	110.93	11.74	-38.9	-40.3	21.1	0.00e+00	0	27	0	945815552	50	6684
2026-01-12 12:29:28.94	111.10	11.69	-39.0	-40.4	21.0	0.00e+00	0	27	0	947912704	50	6721
2026-01-12 12:29:29.94	111.27	11.64	-38.8	-40.2	21.1	0.00e+00	0	27	0	950009856	50	6559
2026-01-12 12:29:30.95	111.43	11.60	-39.0	-40.3	21.0	0.00e+00	0	27	0	951058432	50	6644
2026-01-12 12:29:31.96	111.60	11.55	-38.8	-39.9	21.2	0.00e+00	0	27	0	953155584	50	6385
2026-01-12 12:29:32.97	111.76	11.50	-38.7	-39.9	21.5	0.00e+00	0	27	0	955252736	50	6347
2026-01-12 12:29:33.98	111.93	11.46	-38.6	-39.8	21.4	0.00e+00	0	27	0	957349888	50	6301
2026-01-12 12:29:34.99	112.09	11.41	-38.6	-40.0	21.3	0.00e+00	0	27	0	959447040	50	6439
2026-01-12 12:29:36.00	112.25	11.36	-38.4	-39.9	21.4	0.00e+00	0	27	0	960495616	50	6324
2026-01-12 12:29:37.01	112.42	11.31	-38.4	-39.8	21.5	0.00e+00	0	27	0	962592768	50	6271
2026-01-12 12:29:38.02	112.58	11.26	-38.4	-39.7	21.5	0.00e+00	0	27	0	964689920	50	6220
2026-01-12 12:29:39.03	112.74	11.22	-38.5	-39.8	21.5	0.00e+00	0	27	0	966787072	50	6282
2026-01-12 12:29:40.04	112.90	11.17	-38.2	-39.4	21.7	0.00e+00	0	27	0	968884224	50	6025
2026-01-12 12:29:41.05	113.06	11.12	-38.2	-39.3	21.9	0.00e+00	0	27	0	969932800	50	5939
2026-01-12 12:29:42.06	113.22	11.07	-38.2	-39.3	21.9	0.00e+00	0	27	0	972029952	50	5912
2026-01-12 12:29:43.07	113.38	11.02	-38.0	-39.1	22.1	0.00e+00	0	27	0	974127104	50	5778
2026-01-12 12:29:44.08	113.54	10.97	-37.9	-39.0	22.1	0.00e+00	0	27	0	976224256	50	5704
2026-01-12 12:29:45.08	113.70	10.92	-37.9	-39.0	22.0	0.00e+00	0	27	0	978321408	50	5731
2026-01-12 12:29:46.09	113.85	10.88	-38.1	-39.2	21.9	0.00e+00	0	27	0	979369984	50	5847
2026-01-12 12:29:47.10	114.01	10.83	-38.0	-39.1	22.1	0.00e+00	0	27	0	981467136	50	5798
2026-01-12 12:29:48.11	114.17	10.78	-38.0	-39.1	22.1	0.00e+00	0	27	0	983564288	50	5801
2026-01-12 12:29:49.12	114.33	10.73	-38.1	-39.2	21.8	0.00e+00	0	27	0	985661440	50	5836
2026-01-12 12:29:50.13	114.48	10.68	-38.1	-39.2	22.0	0.00e+00	0	27	0	987758592	50	5862
2026-01-12 12:29:51.14	114.64	10.63	-38.1	-39.2	22.0	0.00e+00	0	27	0	989855744	50	5893
2026-01-12 12:29:52.15	114.79	10.58	-37.9	-39.0	22.1	0.00e+00	0	27	0	990904320	50	5704
2026-01-12 12:29:53.16	114.95	10.53	-37.9	-39.0	22.2	0.00e+00	0	27	0	993001472	50	5704
2026-01-12 12:29:54.17	115.10	10.48	-37.7	-38.7	22.4	0.00e+00	0	27	0	995098624	50	5538
2026-01-12 12:29:55.18	115.25	10.43	-37.6	-38.6	22.4	0.00e+00	0	27	0	997195776	48	6130
2026-01-12 12:29:56.19	115.41	10.38	-37.7	-38.7	22.3	0.00e+00	0	27	0	999292928	48	6209
2026-01-12 12:29:57.20	115.56	10.33	-37.7	-38.8	22.3	0.00e+00	0	27	0	1000341504	48	6263
2026-01-12 12:29:58.21	115.71	10.28	-37.8	-38.9	22.2	0.00e+00	0	27	0	1002438656	48	6382
2026-01-12 12:29:59.22	115.86	10.23	-37.9	-39.0	22.2	0.00e+00	0	27	0	1004535808	48	6436
2026-01-12 12:30:00.23	116.01	10.18	-38.0	-39.1	22.1	0.00e+00	0	27	0	1006632960	48	6504
2026-01-12 12:30:01.23	116.16	10.13	-38.1	-39.2	22.0	0.00e+00	0	27	0	1008730112	48	6567
2026-01-12 12:30:02.25	116.31	10.08	-38.0	-39.2	22.0	0.00e+00	0	27	0	1009778688	48	6540
2026-01-12 12:30:03.26	116.46	10.03	-38.0	-39.1	22.0	0.00e+00	0	27	0	1011875840	48	6538
2026-01-12 12:30:04.26	116.61	9.98	-37.9	-38.9	22.2	0.00e+00	0	27	0	1013972992	48	6387
2026-01-12 12:30:05.27	116.76	9.93	-37.8	-38.8	22.1	0.00e+00	0	27	0	1016070144	48	6311
2026-01-12 12:30:06.28	116.91	9.88	-37.6	-38.6	22.4	0.00e+00	0	27	0	1018167296	48	6113
2026-01-12 12:30:07.29	117.06	9.83	-37.4	-38.4	22.6	0.00e+00	0	27	0	1019215872	48	5976
2026-01-12 12:30:08.30	117.20	9.78	-37.4	-38.4	22.6	0.00e+00	0	27	0	1021313024	48	5967
2026-01-12 12:30:09.31	117.35	9.73	-37.0	-38.0	22.9	0.00e+00	0	27	0	1023410176	48	5715
2026-01-12 12:30:10.32	117.50	9.68	-37.0	-38.0	22.9	0.00e+00	0	27	0	1025507328	48	5701
2026-01-12 12:30:11.33	117.64	9.63	-37.0	-38.0	22.9	0.00e+00	0	27	0	1027604480	48	5721
2026-01-12 12:30:12.34	117.79	9.58	-37.1	-38.1	22.8	0.00e+00	0	27	0	1028653056	48	5822
2026-01-12 12:30:13.35	117.93	9.53	-37.3	-38.3	22.7	0.00e+00	0	27	0	1030750208	48	5927
2026-01-12 12:30:14.36	118.07	9.48	-37.4	-38.4	22.5	0.00e+00	0	27	0	1032847360	48	6028
2026-01-12 12:30:15.36	118.22	9.42	-37.6	-38.6	22.4	0.00e+00	0	27	0	1034944512	48	6155
2026-01-12 12:30:16.37	118.36	9.37	-37.6	-38.7	22.4	0.00e+00	0	27	0	1037041664	48	6174
2026-01-12 12:30:17.38	118.50	9.32	-37.7	-38.7	22.3	0.00e+00	0	27	0	1038090240	48	6241
2026-01-12 12:30:18.39	118.64	9.27	-38.0	-39.0	22.0	0.00e+00	0	27	0	1040187392	48	6460
2026-01-12 12:30:19.40	118.79	9.22	-38.0	-39.1	22.1	0.00e+00	0	27	0	1042284544	48	6473
2026-01-12 12:30:20.41	118.93	9.17	-38.2	-39.3	21.8	0.00e+00	0	27	0	1044381696	48	6622
2026-01-12 12:30:21.42	119.07	9.12	-38.1	-39.1	22.0	0.00e+00	0	27	0	1046478848	48	6523
2026-01-12 12:30:22.43	119.21	9.07	-38.3	-39.4	21.7	0.00e+00	0	27	0	1047527424	48	6693
2026-01-12 12:30:23.44	119.35	9.02	-38.2	-39.3	21.8	0.00e+00	0	27	0	1049624576	48	6628
2026-01-12 12:30:24.45	119.49	8.96	-38.3	-39.5	21.7	0.00e+00	0	27	0	1051721728	48	6779
2026-01-12 12:30:25.46	119.63	8.91	-38.3	-39.4	21.7	0.00e+00	0	27	0	1053818880	48	6740
2026-01-12 12:30:26.47	119.77	8.86	-38.4	-39.5	21.6	0.00e+00	0	27	0	1055916032	48	6836
2026-01-12 12:30:27.48	119.90	8.81	-38.2	-39.3	21.8	0.00e+00	0	27	0	1058013184	48	6639
2026-01-12 12:30:28.49	120.04	8.76	-38.2	-39.3	21.6	0.00e+00	0	27	0	1059061760	48	6647
2026-01-12 12:30:29.50	120.18	8.71	-38.0	-39.1	21.9	0.00e+00	0	27	0	1061158912	48	6510
2026-01-12 12:30:30.51	120.31	8.65	-37.9	-39.0	22.1	0.00e+00	0	27	0	1063256064	48	6400
2026-01-12 12:30:31.51	120.45	8.60	-37.6	-38.7	22.4	0.00e+00	0	27	0	1065353216	48	6176
2026-01-12 12:30:32.52	120.58	8.55	-37.5	-38.5	22.4	0.00e+00	0	27	0	1067450368	48	6089
2026-01-12 12:30:33.53	120.72	8.50	-37.6	-38.6	22.3	0.00e+00	0	27	0	1068498944	48	6139
2026-01-12 12:30:34.54	120.85	8.45	-37.6	-38.6	22.3	0.00e+00	0	27	0	1070596096	48	6138
2026-01-12 12:30:35.55	120.99	8.40	-37.6	-38.6	22.3	0.00e+00	0	27	0	1072693248	48	6173
2026-01-12 12:30:36.56	121.12	8.34	-37.8	-38.9	22.1	0.00e+00	0	27	0	1074790400	48	6346
2026-01-12 12:30:37.57	121.26	8.29	-38.0	-39.0	22.0	0.00e+00	0	27	0	1076887552	48	6438
2026-01-12 12:30:38.58	121.39	8.24	-38.3	-39.4	21.7	0.00e+00	0	27	0	1077936128	48	6733
2026-01-12 12:30:39.59	121.52	8.19	-38.4	-39.5	21.6	0.00e+00	0	27	0	1080033280	48	6816
2026-01-12 12:30:40.60	121.65	8.14	-38.6	-39.7	21.5	0.00e+00	0	27	0	1082130432	48	6963
2026-01-12 12:30:41.61	121.78	8.09	-38.6	-39.7	21.5	0.00e+00	0	27	0	1084227584	48	6953
2026-01-12 12:30:42.62	121.91	8.03	-38.7	-39.9	21.2	0.00e+00	0	27	0	1086324736	48	7115
2026-01-12 12:30:43.63	122.05	7.98	-38.7	-39.9	21.2	0.00e+00	0	27	0	1087373312	50	6326
2026-01-12 12:30:44.63	122.17	7.93	-38.5	-39.6	21.5	0.00e+00	0	27	0	1089470464	50	6126
2026-01-12 12:30:45.64	122.30	7.88	-38.5	-39.6	21.4	0.00e+00	0	27	0	1091567616	50	6167
2026-01-12 12:30:46.66	122.43	7.83	-38.4	-39.5	21.5	0.00e+00	0	27	0	1093664768	50	6067
2026-01-12 12:30:47.67	122.56	7.77	-38.3	-39.4	21.6	0.00e+00	0	27	0	1095761920	50	6015
2026-01-12 12:30:48.68	122.69	7.72	-38.5	-39.7	21.4	0.00e+00	0	27	0	1096810496	50	6211
2026-01-12 12:30:49.68	122.82	7.67	-38.6	-39.8	21.3	0.00e+00	0	27	0	1098907648	50	6273
2026-01-12 12:30:50.69	122.95	7.62	-38.8	-40.1	21.1	0.00e+00	0	27	0	1101004800	50	6475
2026-01-12 12:30:51.70	123.07	7.57	-38.9	-40.1	21.1	0.00e+00	0	27	0	1103101952	50	6473
2026-01-12 12:30:52.71	123.20	7.51	-39.0	-40.2	20.8	0.00e+00	0	27	0	1105199104	50	6606
2026-01-12 12:30:53.72	123.33	7.46	-39.1	-40.3	20.7	0.00e+00	0	27	0	1106247680	50	6665
2026-01-12 12:30:54.73	123.45	7.41	-39.3	-40.6	20.5	0.00e+00	0	27	0	1108344832	50	6916
2026-01-12 12:30:55.74	123.58	7.36	-39.2	-40.6	20.6	0.00e+00	0	27	0	1110441984	50	6854
2026-01-12 12:30:56.76	123.70	7.31	-39.1	-40.4	20.7	0.00e+00	0	27	0	1112539136	50	6749
2026-01-12 12:30:57.77	123.83	7.25	-39.2	-40.4	20.7	0.00e+00	0	27	0	1114636288	50	6761
2026-01-12 12:30:58.78	123.95	7.20	-39.4	-40.7	20.5	0.00e+00	0	27	0	1115684864	50	6932
2026-01-12 12:30:59.78	124.07	7.15	-39.2	-40.5	20.7	0.00e+00	0	27	0	1117782016	50	6792
2026-01-12 12:31:00.79	124.20	7.10	-39.3	-40.5	20.5	0.00e+00	0	27	0	1119879168	50	6847
2026-01-12 12:31:01.80	124.32	7.04	-39.5	-40.9	20.2	0.00e+00	0	27	0	1121976320	50	7135
2026-01-12 12:31:02.81	124.44	6.99	-39.7	-41.2	19.9	0.00e+00	0	27	0	1124073472	50	7355
2026-01-12 12:31:03.82	124.56	6.94	-39.6	-41.0	20.0	0.00e+00	0	27	0	1126170624	52	6463
2026-01-12 12:31:04.83	124.69	6.89	-39.5	-40.9	20.2	0.00e+00	0	27	0	1127219200	52	6388
2026-01-12 12:31:05.84	124.81	6.84	-39.6	-41.1	20.0	0.00e+00	0	27	0	1129316352	52	6489
2026-01-12 12:31:06.85	124.93	6.78	-39.6	-41.1	20.0	0.00e+00	0	27	0	1131413504	52	6504
2026-01-12 12:31:07.85	125.05	6.73	-39.6	-41.1	20.0	0.00e+00	0	27	0	1133510656	52	6526
2026-01-12 12:31:08.86	125.17	6.68	-39.5	-41.0	20.1	0.00e+00	0	27	0	1134559232	52	6412
2026-01-12 12:31:09.87	125.29	6.63	-39.5	-40.9	20.3	0.00e+00	0	27	0	1136656384	52	6375
2026-01-12 12:31:10.88	125.40	6.58	-39.4	-40.8	20.4	0.00e+00	0	27	0	1138753536	52	6293
2026-01-12 12:31:11.89	125.52	6.52	-39.3	-40.7	20.4	0.00e+00	0	27	0	1140850688	52	6201
2026-01-12 12:31:12.90	125.64	6.47	-39.1	-40.5	20.5	0.00e+00	0	27	0	1142947840	52	6068
2026-01-12 12:31:13.91	125.76	6.42	-38.9	-40.2	20.8	0.00e+00	0	27	0	1143996416	52	5883
2026-01-12 12:31:14.92	125.88	6.37	-38.8	-40.1	21.0	0.00e+00	0	27	0	1146093568	52	5777
2026-01-12 12:31:15.93	125.99	6.32	-39.0	-40.3	20.8	0.00e+00	0	27	0	1148190720	52	5924
2026-01-12 12:31:16.94	126.11	6.26	-39.0	-40.3	20.7	0.00e+00	0	27	0	1150287872	52	5932
2026-01-12 12:31:17.95	126.23	6.21	-39.2	-40.5	20.6	0.00e+00	0	27	0	1152385024	52	6049
2026-01-12 12:31:18.96	126.34	6.16	-39.4	-40.7	20.4	0.00e+00	0	27	0	1154482176	52	6206
2026-01-12 12:31:19.97	126.46	6.11	-39.6	-40.9	20.1	0.00e+00	0	27	0	1155530752	52	6361
2026-01-12 12:31:20.98	126.57	6.05	-39.8	-41.2	19.9	0.00e+00	0	27	0	1157627904	52	6599
2026-01-12 12:31:21.99	126.69	6.00	-40.0	-41.5	19.6	0.00e+00	0	27	0	1159725056	52	6776
2026-01-12 12:31:23.00	126.80	5.95	-40.3	-41.7	19.2	0.00e+00	0	27	0	1161822208	52	6995
2026-01-12 12:31:24.01	126.91	5.90	-40.6	-42.2	18.8	0.00e+00	0	27	0	1163919360	52	7379
2026-01-12 12:31:25.02	127.03	5.85	-40.6	-42.2	18.9	0.00e+00	0	27	0	1164967936	52	7383
2026-01-12 12:31:26.02	127.14	5.79	-40.6	-42.3	18.9	0.00e+00	0	27	0	1167065088	52	7435
2026-01-12 12:31:27.03	127.25	5.74	-40.4	-42.0	19.1	0.00e+00	0	27	0	1169162240	54	6425
2026-01-12 12:31:28.04	127.36	5.69	-40.4	-42.0	19.0	0.00e+00	0	27	0	1171259392	54	6398
2026-01-12 12:31:29.05	127.48	5.64	-40.0	-41.4	19.6	0.00e+00	0	27	0	1173356544	54	6030
2026-01-12 12:31:30.06	127.59	5.59	-39.8	-41.2	19.8	0.00e+00	0	27	0	1174405120	54	5858
2026-01-12 12:31:31.07	127.70	5.53	-39.8	-41.2	19.7	0.00e+00	0	27	0	1176502272	52	6601
2026-01-12 12:31:32.08	127.81	5.48	-39.6	-41.0	19.8	0.00e+00	0	27	0	1178599424	52	6398
2026-01-12 12:31:33.09	127.92	5.43	-39.6	-41.0	20.1	0.00e+00	0	27	0	1180696576	52	6404
2026-01-12 12:31:34.09	128.03	5.38	-39.6	-41.0	19.8	0.00e+00	0	27	0	1182793728	52	6428
2026-01-12 12:31:35.10	128.14	5.33	-39.7	-41.1	20.0	0.00e+00	0	27	0	1183842304	52	6493
2026-01-12 12:31:36.12	128.25	5.28	-39.7	-41.1	19.9	0.00e+00	0	27	0	1185939456	52	6514
2026-01-12 12:31:37.13	128.36	5.22	-40.0	-41.4	19.7	0.00e+00	0	27	0	1188036608	52	6729
2026-01-12 12:31:38.14	128.47	5.17	-40.0	-41.4	19.6	0.00e+00	0	27	0	1190133760	52	6754
2026-01-12 12:31:39.14	128.57	5.12	-40.2	-41.6	19.3	0.00e+00	0	27	0	1192230912	52	6915
2026-01-12 12:31:40.16	128.68	5.07	-40.2	-41.7	19.2	0.00e+00	0	27	0	1193279488	52	6987
2026-01-12 12:31:41.16	128.79	5.02	-40.1	-41.6	19.3	0.00e+00	0	27	0	1195376640	52	6914
2026-01-12 12:31:42.17	128.90	4.96	-40.3	-41.8	19.3	0.00e+00	0	27	0	1197473792	52	7085
2026-01-12 12:31:43.18	129.00	4.91	-40.1	-41.6	19.5	0.00e+00	0	27	0	1199570944	52	6897
2026-01-12 12:31:44.19	129.11	4.86	-40.0	-41.5	19.5	0.00e+00	0	27	0	1201668096	52	6807
2026-01-12 12:31:45.20	129.21	4.81	-40.0	-41.5	19.5	0.00e+00	0	27	0	1202716672	52	6824
2026-01-12 12:31:46.21	129.32	4.76	-40.0	-41.4	19.5	0.00e+00	0	27	0	1204813824	52	6735
2026-01-12 12:31:47.22	129.43	4.71	-40.0	-41.4	19.5	0.00e+00	0	27	0	1206910976	52	6753
2026-01-12 12:31:48.23	129.53	4.65	-40.2	-41.6	19.2	0.00e+00	0	27	0	1209008128	52	6915
2026-01-12 12:31:49.24	129.63	4.60	-40.0	-41.5	19.4	0.00e+00	0	27	0	1211105280	52	6813
2026-01-12 12:31:50.25	129.74	4.55	-40.3	-41.9	19.1	0.00e+00	0	27	0	1212153856	52	7127
2026-01-12 12:31:51.26	129.84	4.50	-40.4	-41.9	18.9	0.00e+00	0	27	0	1214251008	52	7161
2026-01-12 12:31:52.27	129.95	4.45	-40.6	-42.3	18.6	0.00e+00	0	27	0	1216348160	52	7427
