passes_logs/2026/01/12/R4.6S_Anadyr/R4.6S_Anadyr__20260112_154057_SUOMI_NPP_rec.log

#Pass ID: 20260112_154057_SUOMI NPP
#Satellite: SUOMI NPP
#Configuration: NPP
#almurnet v.1.7.20251203
#Start time: 2026-01-12 15:41:00

#Version: 2.2.20231116
#Station: R4.6S_Anadyr
#Location: 177.4865 lon 64.73178 lat
#TLE: 1 37849U 11061A   26011.57971124  .00000103  00000+0  69927-4 0  9996
#TLE: 2 37849  98.7807 313.6578 0002518  69.5076 290.6370 14.19524515736228

#Time	Az	El	Level	Level2	SNR	BER	BlckErr	Temp	State	Recorded	gain1	gain2
2026-01-12 15:41:00.82	22.82	0.20	-48.7	-62.5	3.4	1.54e+00	0	28	0	0	60	48007
2026-01-12 15:41:01.83	22.80	0.26	-48.5	-63.7	3.6	1.51e+00	0	28	104	0	60	55154
2026-01-12 15:41:02.84	22.78	0.32	-48.6	-63.9	3.6	1.51e+00	0	28	104	0	60	56333
2026-01-12 15:41:03.85	22.76	0.38	-48.6	-63.8	3.6	1.51e+00	0	28	104	0	60	55740
2026-01-12 15:41:04.86	22.74	0.44	-48.5	-63.6	3.6	1.51e+00	0	28	104	0	60	55003
2026-01-12 15:41:05.87	22.72	0.50	-48.4	-63.6	3.6	1.51e+00	0	28	104	0	60	54590
2026-01-12 15:41:06.88	22.70	0.56	-48.2	-63.6	3.6	1.51e+00	0	28	104	0	60	54427
2026-01-12 15:41:07.89	22.68	0.62	-48.3	-63.5	3.6	1.51e+00	0	28	104	0	60	54043
2026-01-12 15:41:08.90	22.66	0.68	-48.2	-63.4	3.6	1.51e+00	0	28	104	0	60	53161
2026-01-12 15:41:09.91	22.64	0.74	-48.2	-63.4	3.6	1.51e+00	0	28	104	0	60	53192
2026-01-12 15:41:10.91	22.62	0.80	-48.1	-63.2	3.6	1.51e+00	0	28	104	0	60	52533
2026-01-12 15:41:11.92	22.60	0.86	-47.8	-62.9	3.6	1.51e+00	0	28	104	0	60	50576
2026-01-12 15:41:12.93	22.57	0.92	-47.6	-62.8	3.6	1.51e+00	0	28	104	0	60	49802
2026-01-12 15:41:13.94	22.55	0.99	-47.3	-62.4	3.6	1.51e+00	0	28	104	0	60	47686
2026-01-12 15:41:14.95	22.53	1.05	-47.0	-62.1	3.6	1.51e+00	0	28	104	0	60	46195
2026-01-12 15:41:15.96	22.51	1.11	-47.0	-62.1	3.6	1.51e+00	0	28	104	0	60	46240
2026-01-12 15:41:16.97	22.49	1.17	-47.0	-62.1	3.6	1.51e+00	0	29	104	0	60	46058
2026-01-12 15:41:17.98	22.47	1.23	-47.0	-62.1	3.6	1.51e+00	0	28	104	0	60	46088
2026-01-12 15:41:18.99	22.45	1.29	-46.9	-62.1	3.6	1.51e+00	0	28	104	0	60	45801
2026-01-12 15:41:20.00	22.42	1.36	-46.9	-62.1	3.6	1.51e+00	0	28	104	0	60	45809
2026-01-12 15:41:21.01	22.40	1.42	-47.0	-62.0	3.6	1.51e+00	0	28	104	0	60	45578
2026-01-12 15:41:22.02	22.38	1.48	-47.0	-61.9	3.6	1.51e+00	0	29	104	0	60	45229
2026-01-12 15:41:23.03	22.36	1.54	-47.0	-61.7	3.6	1.51e+00	0	29	104	0	60	44159
2026-01-12 15:41:24.04	22.33	1.61	-47.0	-61.8	3.6	1.51e+00	0	28	104	0	60	44428
2026-01-12 15:41:25.05	22.31	1.67	-47.0	-61.8	3.6	1.51e+00	0	29	104	0	60	44247
2026-01-12 15:41:26.06	22.29	1.73	-47.0	-61.4	3.6	1.51e+00	0	29	104	0	60	42685
2026-01-12 15:41:27.07	22.27	1.79	-46.9	-61.6	3.6	1.51e+00	0	29	104	0	60	43623
2026-01-12 15:41:28.08	22.24	1.86	-46.9	-61.8	3.6	1.51e+00	0	29	104	0	60	44319
2026-01-12 15:41:29.09	22.22	1.92	-46.9	-61.9	3.6	1.51e+00	0	29	104	0	60	44994
2026-01-12 15:41:30.10	22.20	1.98	-47.0	-62.1	3.6	1.51e+00	0	29	104	0	60	45783
2026-01-12 15:41:31.11	22.18	2.05	-47.0	-62.1	3.6	1.51e+00	0	29	104	0	60	45804
2026-01-12 15:41:32.12	22.15	2.11	-47.0	-62.1	3.6	1.51e+00	0	29	104	0	60	46014
2026-01-12 15:41:33.13	22.13	2.18	-47.0	-62.0	3.6	1.51e+00	0	29	104	0	60	45567
2026-01-12 15:41:34.14	22.11	2.24	-46.9	-61.9	3.6	1.51e+00	0	29	104	0	60	44902
2026-01-12 15:41:35.15	22.08	2.30	-46.9	-61.7	3.6	1.51e+00	0	29	104	0	60	44003
2026-01-12 15:41:36.15	22.06	2.37	-46.9	-61.4	3.6	1.51e+00	0	29	104	0	60	42233
2026-01-12 15:41:37.17	22.03	2.43	-46.9	-61.1	3.6	1.51e+00	0	29	104	0	60	41083
2026-01-12 15:41:38.18	22.01	2.50	-46.9	-60.8	3.6	1.51e+00	0	29	104	0	60	39856
2026-01-12 15:41:39.18	21.99	2.56	-46.8	-60.5	3.6	1.51e+00	0	29	104	0	60	38090
2026-01-12 15:41:40.20	21.96	2.63	-46.8	-60.1	3.6	1.51e+00	0	29	104	0	60	36556
2026-01-12 15:41:41.21	21.94	2.69	-47.0	-60.6	3.6	1.51e+00	0	29	104	0	60	38662
2026-01-12 15:41:42.22	21.91	2.76	-47.2	-61.4	3.6	1.51e+00	0	29	104	0	60	42655
2026-01-12 15:41:43.22	21.89	2.82	-47.1	-61.8	3.6	1.51e+00	0	29	104	0	60	44722
2026-01-12 15:41:44.23	21.86	2.89	-47.1	-61.2	3.6	1.51e+00	0	29	104	0	60	41584
2026-01-12 15:41:45.24	21.84	2.95	-46.9	-58.9	4.0	1.50e+00	0	29	104	0	60	31681
2026-01-12 15:41:46.25	21.81	3.02	-46.6	-55.1	5.2	6.89e-01	0	29	0	1048576	60	20565
2026-01-12 15:41:47.26	21.79	3.08	-46.2	-52.8	7.7	1.94e-01	0	29	0	3145728	60	15703
2026-01-12 15:41:48.27	21.76	3.15	-45.6	-50.8	9.9	3.79e-02	0	29	0	4194304	60	12583
2026-01-12 15:41:49.28	21.74	3.22	-44.8	-48.9	12.0	2.75e-03	0	29	0	6291456	60	10033
2026-01-12 15:41:50.29	21.71	3.28	-44.4	-48.0	12.9	1.05e-04	0	29	0	7340032	60	9112
2026-01-12 15:41:51.30	21.69	3.35	-43.4	-46.2	14.8	5.30e-06	0	29	0	9437184	60	7418
2026-01-12 15:41:52.31	21.66	3.42	-43.3	-46.1	14.7	7.00e-07	0	29	0	11534336	60	7290
2026-01-12 15:41:53.32	21.64	3.48	-43.1	-45.7	15.3	0.00e+00	0	29	0	13631488	60	6967
2026-01-12 15:41:54.33	21.61	3.55	-43.2	-45.9	15.2	0.00e+00	0	29	0	15728640	60	7131
2026-01-12 15:41:55.34	21.58	3.62	-43.5	-46.4	14.6	7.00e-07	0	29	0	16777216	60	7553
2026-01-12 15:41:56.35	21.56	3.68	-43.8	-46.8	14.3	1.50e-06	0	29	0	18874368	60	7927
2026-01-12 15:41:57.36	21.53	3.75	-42.5	-44.7	17.4	7.60e-06	0	29	0	20971520	60	6222
2026-01-12 15:41:58.37	21.50	3.82	-40.0	-41.4	17.5	0.00e+00	0	29	0	23068672	52	6761
2026-01-12 15:41:59.38	21.48	3.89	-46.9	-59.3	5.1	1.49e+00	0	29	104	23068672	60	33161
2026-01-12 15:42:00.39	21.45	3.95	-40.0	-41.5	18.7	4.98e-01	0	29	104	23068672	56	5389
2026-01-12 15:42:01.40	21.42	4.02	-43.9	-46.9	14.5	2.79e-02	0	29	0	24117248	60	7971
2026-01-12 15:42:02.40	21.40	4.09	-39.9	-41.3	19.7	0.00e+00	0	29	0	26214400	52	6682
2026-01-12 15:42:03.41	21.37	4.16	-39.7	-41.1	19.9	0.00e+00	0	29	0	27262976	52	6495
2026-01-12 15:42:04.42	21.34	4.23	-39.5	-40.9	19.9	0.00e+00	0	29	0	29360128	52	6328
2026-01-12 15:42:05.43	21.31	4.29	-39.6	-41.0	19.9	0.00e+00	0	29	0	31457280	52	6444
2026-01-12 15:42:06.44	21.29	4.36	-39.8	-41.2	19.8	0.00e+00	0	29	0	33554432	52	6548
2026-01-12 15:42:07.45	21.26	4.43	-39.1	-40.4	20.4	0.00e+00	0	29	0	35651584	52	6001
2026-01-12 15:42:08.46	21.23	4.50	-39.2	-40.5	20.5	0.00e+00	0	29	0	36700160	52	6083
2026-01-12 15:42:09.47	21.20	4.57	-39.1	-40.4	20.4	0.00e+00	0	29	0	38797312	52	5983
2026-01-12 15:42:10.47	21.17	4.64	-39.0	-40.3	20.6	0.00e+00	0	29	0	40894464	52	5914
2026-01-12 15:42:11.49	21.14	4.71	-39.0	-40.3	20.6	0.00e+00	0	29	0	42991616	52	5917
2026-01-12 15:42:12.49	21.12	4.78	-39.1	-40.3	20.5	0.00e+00	0	29	0	45088768	52	5946
2026-01-12 15:42:13.50	21.09	4.85	-39.0	-40.3	20.7	0.00e+00	0	29	0	47185920	52	5918
2026-01-12 15:42:14.51	21.06	4.92	-38.9	-40.1	20.8	0.00e+00	0	29	0	48234496	52	5791
2026-01-12 15:42:15.52	21.03	4.99	-39.0	-40.3	20.6	0.00e+00	0	29	0	50331648	52	5928
2026-01-12 15:42:16.53	21.00	5.06	-38.7	-39.9	21.0	0.00e+00	0	29	0	52428800	50	6340
2026-01-12 15:42:17.54	20.97	5.13	-38.8	-40.0	20.9	0.00e+00	0	29	0	54525952	50	6435
2026-01-12 15:42:18.55	20.94	5.20	-38.7	-39.8	21.1	0.00e+00	0	29	0	56623104	50	6312
2026-01-12 15:42:19.56	20.91	5.27	-38.6	-39.8	21.2	0.00e+00	0	29	0	57671680	50	6255
2026-01-12 15:42:20.57	20.88	5.35	-38.6	-39.7	21.2	0.00e+00	0	29	0	59768832	50	6245
2026-01-12 15:42:21.58	20.85	5.42	-38.7	-39.8	21.2	0.00e+00	0	29	0	61865984	50	6317
2026-01-12 15:42:22.59	20.82	5.49	-38.5	-39.7	21.3	0.00e+00	0	29	0	63963136	50	6195
2026-01-12 15:42:23.60	20.79	5.56	-38.6	-39.8	21.3	0.00e+00	0	29	0	66060288	50	6276
2026-01-12 15:42:24.60	20.76	5.63	-38.5	-39.6	21.4	0.00e+00	0	29	0	67108864	50	6136
2026-01-12 15:42:25.61	20.73	5.70	-38.4	-39.6	21.4	0.00e+00	0	29	0	69206016	50	6111
2026-01-12 15:42:26.63	20.70	5.78	-38.3	-39.4	21.6	0.00e+00	0	29	0	71303168	50	5999
2026-01-12 15:42:27.63	20.67	5.85	-38.4	-39.5	21.5	0.00e+00	0	29	0	73400320	50	6075
2026-01-12 15:42:28.64	20.63	5.92	-38.3	-39.4	21.5	0.00e+00	0	29	0	75497472	50	6019
2026-01-12 15:42:29.65	20.60	6.00	-38.3	-39.4	21.7	0.00e+00	0	29	0	76546048	50	6010
2026-01-12 15:42:30.66	20.57	6.07	-38.2	-39.3	21.6	0.00e+00	0	29	0	78643200	50	5947
2026-01-12 15:42:31.67	20.54	6.14	-38.2	-39.2	21.8	0.00e+00	0	29	0	80740352	50	5894
2026-01-12 15:42:32.68	20.51	6.22	-38.2	-39.2	21.9	0.00e+00	0	29	0	82837504	50	5887
2026-01-12 15:42:33.69	20.48	6.29	-38.1	-39.2	21.8	0.00e+00	0	29	0	84934656	50	5882
2026-01-12 15:42:34.70	20.44	6.36	-38.3	-39.4	21.7	0.00e+00	0	29	0	85983232	50	6008
2026-01-12 15:42:35.71	20.41	6.44	-38.0	-39.1	22.0	0.00e+00	0	29	0	88080384	50	5789
2026-01-12 15:42:36.72	20.38	6.51	-38.0	-39.1	22.0	0.00e+00	0	29	0	90177536	50	5785
2026-01-12 15:42:37.73	20.34	6.59	-38.0	-39.0	22.0	0.00e+00	0	29	0	92274688	50	5729
2026-01-12 15:42:38.74	20.31	6.66	-37.9	-39.0	22.0	0.00e+00	0	29	0	94371840	50	5703
2026-01-12 15:42:39.74	20.28	6.74	-37.9	-39.0	22.0	0.00e+00	0	29	0	95420416	50	5716
2026-01-12 15:42:40.75	20.24	6.81	-37.9	-38.9	22.0	0.00e+00	0	29	0	97517568	50	5679
2026-01-12 15:42:41.76	20.21	6.89	-38.1	-39.1	22.0	0.00e+00	0	29	0	99614720	50	5826
2026-01-12 15:42:42.77	20.18	6.96	-38.1	-39.2	22.0	0.00e+00	0	29	0	101711872	50	5846
2026-01-12 15:42:43.78	20.14	7.04	-37.8	-38.8	22.3	0.00e+00	0	29	0	103809024	48	6283
2026-01-12 15:42:44.79	20.11	7.11	-37.9	-38.9	22.3	0.00e+00	0	29	0	104857600	48	6354
2026-01-12 15:42:45.80	20.07	7.19	-37.9	-38.9	22.1	0.00e+00	0	29	0	106954752	48	6375
2026-01-12 15:42:46.81	20.04	7.27	-37.7	-38.7	22.3	0.00e+00	0	29	0	109051904	48	6244
2026-01-12 15:42:47.82	20.00	7.34	-37.7	-38.8	22.3	0.00e+00	0	29	0	111149056	48	6255
2026-01-12 15:42:48.83	19.97	7.42	-37.8	-38.8	22.4	0.00e+00	0	29	0	113246208	48	6259
2026-01-12 15:42:49.84	19.93	7.50	-37.8	-38.8	22.2	0.00e+00	0	29	0	115343360	48	6304
2026-01-12 15:42:50.85	19.90	7.57	-37.7	-38.7	22.3	0.00e+00	0	29	0	116391936	48	6240
2026-01-12 15:42:51.86	19.86	7.65	-37.6	-38.6	22.3	0.00e+00	0	29	0	118489088	48	6128
2026-01-12 15:42:52.87	19.82	7.73	-37.7	-38.7	22.3	0.00e+00	0	29	0	120586240	48	6195
2026-01-12 15:42:53.88	19.79	7.81	-37.6	-38.7	22.3	0.00e+00	0	29	0	122683392	48	6176
2026-01-12 15:42:54.89	19.75	7.89	-37.7	-38.7	22.4	0.00e+00	0	29	0	124780544	48	6207
2026-01-12 15:42:55.90	19.72	7.97	-37.7	-38.7	22.3	0.00e+00	0	29	0	125829120	48	6243
2026-01-12 15:42:56.90	19.68	8.04	-37.7	-38.7	22.3	0.00e+00	0	29	0	127926272	48	6185
2026-01-12 15:42:57.91	19.64	8.12	-37.7	-38.7	22.4	0.00e+00	0	29	0	130023424	48	6196
2026-01-12 15:42:58.92	19.60	8.20	-37.5	-38.5	22.5	0.00e+00	0	29	0	132120576	48	6081
2026-01-12 15:42:59.93	19.57	8.28	-37.8	-38.8	22.4	0.00e+00	0	30	0	134217728	48	6258
2026-01-12 15:43:00.94	19.53	8.36	-37.8	-38.8	22.3	0.00e+00	0	29	0	135266304	48	6292
2026-01-12 15:43:01.95	19.49	8.44	-37.5	-38.5	22.5	0.00e+00	0	30	0	137363456	48	6059
2026-01-12 15:43:02.96	19.45	8.52	-37.4	-38.4	22.6	0.00e+00	0	30	0	139460608	48	6000
2026-01-12 15:43:03.97	19.41	8.60	-37.5	-38.5	22.5	0.00e+00	0	30	0	141557760	48	6068
2026-01-12 15:43:04.98	19.37	8.68	-37.6	-38.6	22.5	0.00e+00	0	30	0	143654912	48	6112
2026-01-12 15:43:05.99	19.34	8.76	-37.6	-38.6	22.5	0.00e+00	0	30	0	144703488	48	6131
2026-01-12 15:43:07.00	19.30	8.84	-37.6	-38.5	22.6	0.00e+00	0	30	0	146800640	48	6099
2026-01-12 15:43:08.01	19.26	8.93	-37.5	-38.5	22.5	0.00e+00	0	30	0	148897792	48	6076
2026-01-12 15:43:09.02	19.22	9.01	-37.6	-38.6	22.4	0.00e+00	0	30	0	150994944	48	6150
2026-01-12 15:43:10.03	19.18	9.09	-37.3	-38.3	22.6	0.00e+00	0	30	0	153092096	48	5930
2026-01-12 15:43:11.04	19.14	9.17	-37.4	-38.4	22.6	0.00e+00	0	30	0	154140672	48	6007
2026-01-12 15:43:12.05	19.10	9.25	-37.6	-38.6	22.5	0.00e+00	0	30	0	156237824	48	6115
2026-01-12 15:43:13.06	19.06	9.34	-37.6	-38.7	22.4	0.00e+00	0	30	0	158334976	48	6178
2026-01-12 15:43:14.07	19.01	9.42	-37.7	-38.7	22.4	0.00e+00	0	30	0	160432128	48	6207
2026-01-12 15:43:15.08	18.97	9.50	-37.6	-38.6	22.4	0.00e+00	0	30	0	162529280	48	6111
2026-01-12 15:43:16.09	18.93	9.59	-37.5	-38.5	22.7	0.00e+00	0	30	0	163577856	48	6039
2026-01-12 15:43:17.10	18.89	9.67	-37.5	-38.5	22.2	0.00e+00	0	30	0	165675008	48	6101
2026-01-12 15:43:18.10	18.85	9.75	-37.6	-38.6	22.1	0.00e+00	0	30	0	167772160	48	6152
2026-01-12 15:43:19.11	18.81	9.84	-37.4	-38.4	22.3	0.00e+00	0	30	0	169869312	48	6010
2026-01-12 15:43:20.12	18.76	9.92	-37.5	-38.5	22.4	0.00e+00	0	30	0	171966464	48	6066
2026-01-12 15:43:21.13	18.72	10.01	-37.4	-38.4	22.5	0.00e+00	0	30	0	173015040	48	5970
2026-01-12 15:43:22.14	18.68	10.09	-37.2	-38.1	22.8	0.00e+00	0	30	0	175112192	48	5828
2026-01-12 15:43:23.15	18.63	10.18	-37.3	-38.2	22.9	0.00e+00	0	30	0	177209344	48	5888
2026-01-12 15:43:24.16	18.59	10.26	-37.3	-38.3	22.6	0.00e+00	0	30	0	179306496	48	5898
2026-01-12 15:43:25.17	18.55	10.35	-37.2	-38.2	22.8	0.00e+00	0	30	0	181403648	48	5864
2026-01-12 15:43:26.18	18.50	10.44	-37.3	-38.2	22.8	0.00e+00	0	30	0	182452224	48	5884
2026-01-12 15:43:27.19	18.46	10.52	-37.3	-38.3	22.9	0.00e+00	0	30	0	184549376	48	5932
2026-01-12 15:43:28.20	18.41	10.61	-37.4	-38.4	22.9	0.00e+00	0	30	0	186646528	48	5977
2026-01-12 15:43:29.21	18.37	10.70	-37.1	-38.1	23.0	0.00e+00	0	30	0	188743680	48	5803
2026-01-12 15:43:30.22	18.32	10.78	-37.2	-38.2	23.0	0.00e+00	0	30	0	190840832	48	5833
2026-01-12 15:43:31.23	18.28	10.87	-37.4	-38.4	22.8	0.00e+00	0	30	0	191889408	48	6001
2026-01-12 15:43:32.24	18.23	10.96	-37.3	-38.3	22.8	0.00e+00	0	30	0	193986560	48	5927
2026-01-12 15:43:33.24	18.18	11.05	-37.5	-38.5	22.7	0.00e+00	0	30	0	196083712	48	6052
2026-01-12 15:43:34.25	18.14	11.13	-37.3	-38.3	22.7	0.00e+00	0	30	0	198180864	48	5953
2026-01-12 15:43:35.26	18.09	11.22	-37.3	-38.2	22.9	0.00e+00	0	30	0	200278016	48	5892
2026-01-12 15:43:36.27	18.04	11.31	-37.4	-38.4	22.8	0.00e+00	0	30	0	201326592	48	5989
2026-01-12 15:43:37.28	18.00	11.40	-37.1	-38.1	23.0	0.00e+00	0	30	0	203423744	48	5784
2026-01-12 15:43:38.29	17.95	11.49	-37.2	-38.2	22.9	0.00e+00	0	30	0	205520896	48	5840
2026-01-12 15:43:39.30	17.90	11.58	-37.0	-38.0	23.1	0.00e+00	0	30	0	207618048	48	5715
2026-01-12 15:43:40.31	17.85	11.67	-37.0	-38.0	23.1	0.00e+00	0	30	0	209715200	48	5704
2026-01-12 15:43:41.32	17.80	11.76	-37.1	-38.1	23.1	0.00e+00	0	30	0	211812352	48	5763
2026-01-12 15:43:42.33	17.75	11.85	-37.0	-37.9	23.2	0.00e+00	0	30	0	212860928	48	5665
2026-01-12 15:43:43.34	17.70	11.94	-36.9	-37.8	23.3	0.00e+00	0	30	0	214958080	48	5587
2026-01-12 15:43:44.35	17.65	12.04	-37.0	-38.0	23.2	0.00e+00	0	30	0	217055232	48	5711
2026-01-12 15:43:45.36	17.60	12.13	-36.9	-37.8	23.3	0.00e+00	0	30	0	219152384	48	5583
2026-01-12 15:43:46.37	17.55	12.22	-36.9	-37.8	23.1	0.00e+00	0	30	0	221249536	48	5596
2026-01-12 15:43:47.38	17.50	12.31	-36.9	-37.9	23.2	0.00e+00	0	30	0	222298112	48	5640
2026-01-12 15:43:48.39	17.45	12.41	-37.0	-37.9	23.2	0.00e+00	0	30	0	224395264	48	5665
2026-01-12 15:43:49.40	17.40	12.50	-36.8	-37.7	23.4	0.00e+00	0	30	0	226492416	46	6199
2026-01-12 15:43:50.41	17.35	12.59	-37.0	-37.9	23.3	0.00e+00	0	30	0	228589568	46	6356
2026-01-12 15:43:51.42	17.30	12.69	-37.0	-37.9	23.4	0.00e+00	0	30	0	230686720	46	6361
2026-01-12 15:43:52.43	17.24	12.78	-36.9	-37.8	23.5	0.00e+00	0	30	0	231735296	46	6266
2026-01-12 15:43:53.43	17.19	12.88	-36.9	-37.8	23.3	0.00e+00	0	30	0	233832448	46	6263
2026-01-12 15:43:54.44	17.14	12.97	-36.8	-37.7	23.5	0.00e+00	0	30	0	235929600	46	6189
2026-01-12 15:43:55.45	17.08	13.07	-36.7	-37.6	23.5	0.00e+00	0	30	0	238026752	46	6130
2026-01-12 15:43:56.46	17.03	13.16	-36.8	-37.8	23.5	0.00e+00	0	30	0	240123904	46	6257
2026-01-12 15:43:57.47	16.97	13.26	-36.7	-37.6	23.4	0.00e+00	0	30	0	241172480	46	6168
2026-01-12 15:43:58.48	16.92	13.35	-36.8	-37.7	23.6	0.00e+00	0	30	0	243269632	46	6210
2026-01-12 15:43:59.49	16.86	13.45	-36.6	-37.5	23.6	0.00e+00	0	30	0	245366784	46	6064
2026-01-12 15:44:00.50	16.81	13.55	-36.8	-37.7	23.4	0.00e+00	0	30	0	247463936	46	6244
2026-01-12 15:44:01.51	16.75	13.64	-36.6	-37.5	23.6	0.00e+00	0	30	0	249561088	46	6072
2026-01-12 15:44:02.52	16.70	13.74	-36.5	-37.3	23.8	0.00e+00	0	30	0	250609664	46	5964
2026-01-12 15:44:03.53	16.64	13.84	-36.6	-37.5	23.6	0.00e+00	0	30	0	252706816	46	6064
2026-01-12 15:44:04.54	16.58	13.94	-36.5	-37.4	23.6	0.00e+00	0	30	0	254803968	46	5989
2026-01-12 15:44:05.54	16.53	14.04	-36.9	-37.8	23.5	0.00e+00	0	30	0	256901120	46	6265
2026-01-12 15:44:06.55	16.47	14.14	-36.5	-37.4	23.6	0.00e+00	0	30	0	258998272	46	6010
2026-01-12 15:44:07.56	16.41	14.24	-36.5	-37.4	23.8	0.00e+00	0	30	0	260046848	46	5975
2026-01-12 15:44:08.57	16.35	14.34	-36.5	-37.3	23.8	0.00e+00	0	30	0	262144000	46	5940
2026-01-12 15:44:09.58	16.29	14.44	-36.4	-37.3	23.7	0.00e+00	0	30	0	264241152	46	5932
2026-01-12 15:44:10.59	16.23	14.54	-36.4	-37.2	23.8	0.00e+00	0	30	0	266338304	46	5870
2026-01-12 15:44:11.60	16.17	14.64	-36.3	-37.2	23.9	0.00e+00	0	30	0	268435456	46	5867
2026-01-12 15:44:12.61	16.11	14.74	-36.4	-37.3	23.8	0.00e+00	0	30	0	269484032	46	5940
2026-01-12 15:44:13.62	16.05	14.84	-36.3	-37.1	23.9	0.00e+00	0	30	0	271581184	46	5811
2026-01-12 15:44:14.63	15.99	14.94	-36.4	-37.2	23.9	0.00e+00	0	30	0	273678336	46	5885
2026-01-12 15:44:15.64	15.93	15.05	-36.1	-37.0	24.1	0.00e+00	0	30	0	275775488	46	5696
2026-01-12 15:44:16.65	15.86	15.15	-36.2	-37.1	24.0	0.00e+00	0	30	0	277872640	46	5796
2026-01-12 15:44:17.66	15.80	15.25	-36.3	-37.2	23.8	0.00e+00	0	30	0	279969792	46	5844
2026-01-12 15:44:18.67	15.74	15.36	-36.2	-37.1	23.9	0.00e+00	0	30	0	281018368	46	5791
2026-01-12 15:44:19.68	15.67	15.46	-36.4	-37.3	23.9	0.00e+00	0	30	0	283115520	46	5907
2026-01-12 15:44:20.68	15.61	15.57	-36.3	-37.2	23.8	0.00e+00	0	30	0	285212672	46	5871
2026-01-12 15:44:21.69	15.55	15.67	-36.5	-37.3	23.7	0.00e+00	0	30	0	287309824	46	5958
2026-01-12 15:44:22.70	15.48	15.78	-36.7	-37.6	23.5	0.00e+00	0	30	0	289406976	46	6132
2026-01-12 15:44:23.71	15.41	15.88	-36.3	-37.1	23.9	0.00e+00	0	30	0	290455552	46	5822
2026-01-12 15:44:24.71	15.35	15.99	-36.4	-37.3	23.7	0.00e+00	0	30	0	292552704	46	5936
2026-01-12 15:44:25.73	15.28	16.10	-36.4	-37.2	23.8	0.00e+00	0	30	0	294649856	46	5882
2026-01-12 15:44:26.73	15.21	16.20	-36.1	-36.9	23.9	0.00e+00	0	30	0	296747008	46	5664
2026-01-12 15:44:27.75	15.15	16.31	-36.3	-37.1	23.9	0.00e+00	0	30	0	298844160	46	5823
2026-01-12 15:44:28.75	15.08	16.42	-36.3	-37.1	24.0	0.00e+00	0	30	0	299892736	46	5821
2026-01-12 15:44:29.76	15.01	16.53	-36.3	-37.2	23.9	0.00e+00	0	30	0	301989888	46	5841
2026-01-12 15:44:30.77	14.94	16.63	-36.4	-37.3	23.9	0.00e+00	0	30	0	304087040	46	5898
2026-01-12 15:44:31.78	14.87	16.74	-36.1	-37.0	24.0	0.00e+00	0	30	0	306184192	46	5701
2026-01-12 15:44:32.79	14.80	16.85	-36.3	-37.2	23.8	0.00e+00	0	30	0	308281344	46	5832
2026-01-12 15:44:33.80	14.73	16.96	-36.3	-37.2	23.8	0.00e+00	0	30	0	309329920	46	5840
2026-01-12 15:44:34.81	14.66	17.08	-36.6	-37.5	23.6	0.00e+00	0	30	0	311427072	46	6080
2026-01-12 15:44:35.82	14.59	17.19	-36.6	-37.5	23.7	0.00e+00	0	30	0	313524224	46	6041
2026-01-12 15:44:36.83	14.51	17.30	-36.1	-37.0	23.9	0.00e+00	0	30	0	315621376	46	5724
2026-01-12 15:44:37.84	14.44	17.41	-36.4	-37.3	23.8	0.00e+00	0	30	0	317718528	46	5904
2026-01-12 15:44:38.85	14.37	17.52	-36.5	-37.4	23.7	0.00e+00	0	30	0	318767104	46	6011
2026-01-12 15:44:39.86	14.29	17.64	-36.5	-37.3	23.7	0.00e+00	0	30	0	320864256	46	5954
2026-01-12 15:44:40.87	14.22	17.75	-36.7	-37.5	23.7	0.00e+00	0	30	0	322961408	46	6100
2026-01-12 15:44:41.88	14.14	17.86	-36.7	-37.5	23.6	0.00e+00	0	30	0	325058560	46	6094
2026-01-12 15:44:42.89	14.07	17.98	-36.7	-37.6	23.7	0.00e+00	0	30	0	327155712	46	6115
2026-01-12 15:44:43.90	13.99	18.09	-36.4	-37.3	23.8	0.00e+00	0	30	0	328204288	46	5926
2026-01-12 15:44:44.91	13.91	18.21	-36.6	-37.4	23.7	0.00e+00	0	30	0	330301440	46	6032
2026-01-12 15:44:45.91	13.83	18.32	-36.8	-37.7	23.5	0.00e+00	0	30	0	332398592	46	6209
2026-01-12 15:44:46.92	13.76	18.44	-36.6	-37.5	23.7	0.00e+00	0	30	0	334495744	46	6059
2026-01-12 15:44:47.93	13.68	18.56	-36.7	-37.6	23.5	0.00e+00	0	30	0	336592896	46	6144
2026-01-12 15:44:48.94	13.60	18.67	-36.6	-37.5	23.7	0.00e+00	0	30	0	337641472	46	6064
2026-01-12 15:44:49.95	13.52	18.79	-36.4	-37.3	23.8	0.00e+00	0	30	0	339738624	46	5912
2026-01-12 15:44:50.96	13.44	18.91	-36.4	-37.2	23.8	0.00e+00	0	30	0	341835776	46	5896
2026-01-12 15:44:51.97	13.35	19.03	-36.4	-37.3	23.8	0.00e+00	0	30	0	343932928	46	5915
2026-01-12 15:44:52.98	13.27	19.15	-36.3	-37.1	23.9	0.00e+00	0	30	0	346030080	46	5808
2026-01-12 15:44:53.99	13.19	19.27	-36.4	-37.2	23.8	0.00e+00	0	30	0	348127232	46	5887
2026-01-12 15:44:55.00	13.10	19.39	-36.2	-37.0	24.1	0.00e+00	0	30	0	349175808	46	5726
2026-01-12 15:44:56.01	13.02	19.51	-36.3	-37.1	24.0	0.00e+00	0	30	0	351272960	46	5798
2026-01-12 15:44:57.02	12.93	19.63	-36.3	-37.2	23.9	0.00e+00	0	30	0	353370112	46	5847
2026-01-12 15:44:58.03	12.85	19.75	-36.4	-37.2	23.8	0.00e+00	0	30	0	355467264	46	5891
2026-01-12 15:44:59.04	12.76	19.88	-36.4	-37.3	23.8	0.00e+00	0	30	0	357564416	46	5920
2026-01-12 15:45:00.05	12.67	20.00	-36.5	-37.4	23.8	0.00e+00	0	30	0	358612992	46	6006
2026-01-12 15:45:01.05	12.59	20.12	-36.5	-37.3	23.8	0.00e+00	0	30	0	360710144	46	5961
2026-01-12 15:45:02.06	12.50	20.25	-36.6	-37.5	23.7	0.00e+00	0	30	0	362807296	46	6041
2026-01-12 15:45:03.07	12.41	20.37	-36.7	-37.6	23.6	0.00e+00	0	30	0	364904448	46	6145
2026-01-12 15:45:04.08	12.32	20.50	-36.9	-37.8	23.4	0.00e+00	0	30	0	365953024	46	6262
2026-01-12 15:45:05.09	12.23	20.62	-36.8	-37.6	23.5	0.00e+00	0	30	0	368050176	46	6167
2026-01-12 15:45:06.10	12.14	20.75	-36.9	-37.8	23.3	0.00e+00	0	30	0	370147328	46	6287
2026-01-12 15:45:07.11	12.04	20.88	-37.1	-38.0	23.2	0.00e+00	0	30	0	372244480	46	6445
2026-01-12 15:45:08.12	11.95	21.00	-37.0	-38.0	23.4	0.00e+00	0	30	0	374341632	46	6397
2026-01-12 15:45:09.13	11.85	21.13	-37.1	-38.0	23.3	0.00e+00	0	30	0	376438784	46	6455
2026-01-12 15:45:10.14	11.76	21.26	-37.3	-38.2	23.1	0.00e+00	0	30	0	377487360	46	6584
2026-01-12 15:45:11.15	11.66	21.39	-37.1	-38.1	23.2	0.00e+00	0	30	0	379584512	46	6476
2026-01-12 15:45:12.16	11.57	21.52	-37.3	-38.3	23.1	0.00e+00	0	30	0	381681664	46	6617
2026-01-12 15:45:13.17	11.47	21.65	-37.6	-38.6	22.9	0.00e+00	0	30	0	383778816	46	6853
2026-01-12 15:45:14.18	11.37	21.78	-37.3	-38.2	23.0	0.00e+00	0	30	0	385875968	46	6615
2026-01-12 15:45:15.19	11.27	21.91	-37.2	-38.1	23.2	0.00e+00	0	30	0	386924544	46	6513
2026-01-12 15:45:16.19	11.17	22.04	-37.4	-38.4	23.0	0.00e+00	0	30	0	389021696	46	6700
2026-01-12 15:45:17.20	11.07	22.18	-37.6	-38.5	23.0	0.00e+00	0	30	0	391118848	46	6826
2026-01-12 15:45:18.22	10.97	22.31	-37.4	-38.4	23.0	0.00e+00	0	30	0	393216000	46	6699
2026-01-12 15:45:19.22	10.87	22.44	-37.3	-38.3	23.1	0.00e+00	0	30	0	395313152	46	6638
2026-01-12 15:45:20.23	10.76	22.58	-37.3	-38.2	23.2	0.00e+00	0	30	0	396361728	46	6604
2026-01-12 15:45:21.25	10.66	22.71	-37.3	-38.3	23.1	0.00e+00	0	30	0	398458880	48	5913
2026-01-12 15:45:22.25	10.55	22.85	-37.6	-38.5	22.9	0.00e+00	0	30	0	400556032	48	6083
2026-01-12 15:45:23.26	10.44	22.99	-37.8	-38.7	22.9	0.00e+00	0	30	0	402653184	48	6244
2026-01-12 15:45:24.27	10.34	23.12	-37.3	-38.2	23.2	0.00e+00	0	30	0	404750336	48	5853
2026-01-12 15:45:25.28	10.23	23.26	-37.6	-38.6	22.9	0.00e+00	0	30	0	405798912	48	6138
2026-01-12 15:45:26.29	10.12	23.40	-37.6	-38.5	22.9	0.00e+00	0	30	0	407896064	48	6095
2026-01-12 15:45:27.30	10.01	23.54	-37.5	-38.4	22.9	0.00e+00	0	30	0	409993216	48	6021
2026-01-12 15:45:28.30	9.90	23.67	-37.6	-38.5	22.8	0.00e+00	0	30	0	412090368	48	6089
2026-01-12 15:45:29.31	9.78	23.81	-37.7	-38.7	22.6	0.00e+00	0	30	0	414187520	48	6204
2026-01-12 15:45:30.32	9.67	23.96	-38.2	-39.3	22.2	0.00e+00	0	30	0	415236096	48	6643
2026-01-12 15:45:31.33	9.56	24.10	-38.2	-39.3	22.4	0.00e+00	0	30	0	417333248	48	6624
2026-01-12 15:45:32.34	9.44	24.24	-38.3	-39.4	22.3	0.00e+00	0	30	0	419430400	48	6728
2026-01-12 15:45:33.35	9.32	24.38	-38.1	-39.2	22.4	0.00e+00	0	30	0	421527552	48	6560
2026-01-12 15:45:34.36	9.20	24.52	-38.5	-39.6	22.1	0.00e+00	0	30	0	423624704	48	6882
2026-01-12 15:45:35.36	9.09	24.67	-38.4	-39.5	22.0	0.00e+00	0	30	0	424673280	48	6808
2026-01-12 15:45:36.37	8.97	24.81	-38.4	-39.5	21.9	0.00e+00	0	30	0	426770432	50	6053
2026-01-12 15:45:37.39	8.84	24.96	-38.2	-39.2	22.3	0.00e+00	0	30	0	428867584	50	5855
2026-01-12 15:45:38.39	8.72	25.10	-38.3	-39.3	22.3	0.00e+00	0	30	0	430964736	50	5959
2026-01-12 15:45:39.40	8.60	25.25	-38.0	-39.1	22.5	0.00e+00	0	30	0	433061888	50	5772
2026-01-12 15:45:40.41	8.47	25.40	-37.5	-38.4	23.0	0.00e+00	0	30	0	434110464	48	6013
2026-01-12 15:45:41.42	8.35	25.54	-37.6	-38.6	23.0	0.00e+00	0	30	0	436207616	48	6129
2026-01-12 15:45:42.43	8.22	25.69	-37.5	-38.4	23.1	0.00e+00	0	30	0	438304768	48	6032
2026-01-12 15:45:43.44	8.09	25.84	-37.5	-38.4	23.0	0.00e+00	0	30	0	440401920	48	6027
2026-01-12 15:45:44.45	7.96	25.99	-38.0	-38.9	22.6	0.00e+00	0	30	0	442499072	48	6383
2026-01-12 15:45:45.46	7.83	26.14	-37.9	-38.9	22.6	0.00e+00	0	30	0	444596224	48	6324
2026-01-12 15:45:46.47	7.70	26.29	-38.6	-39.7	22.0	0.00e+00	0	30	0	445644800	48	6945
2026-01-12 15:45:47.48	7.56	26.45	-38.3	-39.3	22.3	0.00e+00	0	30	0	447741952	48	6634
2026-01-12 15:45:48.49	7.43	26.60	-38.4	-39.5	22.2	0.00e+00	0	30	0	449839104	48	6771
2026-01-12 15:45:49.50	7.29	26.75	-38.5	-39.5	22.1	0.00e+00	0	30	0	451936256	50	6082
2026-01-12 15:45:50.51	7.15	26.91	-38.6	-39.7	22.1	0.00e+00	0	30	0	454033408	50	6183
2026-01-12 15:45:51.52	7.02	27.06	-38.7	-39.8	21.9	0.00e+00	0	30	0	455081984	50	6271
2026-01-12 15:45:52.53	6.87	27.22	-38.2	-39.2	22.5	0.00e+00	0	30	0	457179136	50	5872
2026-01-12 15:45:53.54	6.73	27.37	-38.2	-39.2	22.6	0.00e+00	0	30	0	459276288	50	5879
2026-01-12 15:45:54.55	6.59	27.53	-38.1	-39.1	22.6	0.00e+00	0	30	0	461373440	50	5811
2026-01-12 15:45:55.56	6.44	27.69	-37.8	-38.8	22.7	0.00e+00	0	30	0	463470592	48	6288
2026-01-12 15:45:56.57	6.30	27.84	-37.8	-38.8	22.7	0.00e+00	0	30	0	464519168	48	6271
2026-01-12 15:45:57.58	6.15	28.00	-37.6	-38.5	23.0	0.00e+00	0	30	0	466616320	48	6052
2026-01-12 15:45:58.59	6.00	28.16	-37.3	-38.2	23.1	0.00e+00	0	30	0	468713472	48	5883
2026-01-12 15:45:59.59	5.85	28.32	-38.3	-39.3	22.3	0.00e+00	0	30	0	470810624	48	6644
2026-01-12 15:46:00.60	5.70	28.48	-38.1	-39.1	22.6	0.00e+00	0	30	0	472907776	48	6465
2026-01-12 15:46:01.61	5.55	28.64	-38.5	-39.5	22.1	0.00e+00	0	30	0	473956352	48	6847
2026-01-12 15:46:02.62	5.39	28.81	-39.3	-40.5	21.5	0.00e+00	0	30	0	476053504	50	6796
2026-01-12 15:46:03.63	5.23	28.97	-38.9	-40.0	21.8	0.00e+00	0	30	0	478150656	50	6444
2026-01-12 15:46:04.64	5.07	29.13	-38.9	-40.0	21.9	0.00e+00	0	30	0	480247808	50	6442
2026-01-12 15:46:05.65	4.91	29.30	-38.8	-39.8	22.0	0.00e+00	0	30	0	482344960	50	6301
2026-01-12 15:46:06.66	4.75	29.46	-38.3	-39.2	22.4	0.00e+00	0	30	0	483393536	50	5887
2026-01-12 15:46:07.67	4.59	29.63	-38.9	-40.0	21.6	0.00e+00	0	30	0	485490688	50	6457
2026-01-12 15:46:08.68	4.42	29.80	-38.6	-39.6	22.2	0.00e+00	0	30	0	487587840	50	6169
2026-01-12 15:46:09.69	4.25	29.96	-38.5	-39.5	22.3	0.00e+00	0	30	0	489684992	50	6061
2026-01-12 15:46:10.70	4.08	30.13	-38.4	-39.4	22.4	0.00e+00	0	30	0	491782144	50	5994
2026-01-12 15:46:11.71	3.91	30.30	-38.6	-39.7	22.0	0.00e+00	0	30	0	492830720	50	6205
2026-01-12 15:46:12.72	3.74	30.47	-38.4	-39.4	22.2	0.00e+00	0	30	0	494927872	50	6008
2026-01-12 15:46:13.73	3.57	30.64	-39.1	-40.2	21.2	0.00e+00	0	30	0	497025024	50	6568
2026-01-12 15:46:14.74	3.39	30.81	-39.1	-40.2	21.4	0.00e+00	0	30	0	499122176	50	6610
2026-01-12 15:46:15.75	3.21	30.98	-39.6	-40.8	21.1	0.00e+00	0	30	0	501219328	50	7022
2026-01-12 15:46:16.76	3.03	31.15	-39.2	-40.3	21.6	0.00e+00	0	30	0	503316480	50	6668
2026-01-12 15:46:17.77	2.85	31.33	-39.2	-40.3	21.4	0.00e+00	0	30	0	504365056	50	6655
2026-01-12 15:46:18.77	2.67	31.50	-39.4	-40.5	21.4	0.00e+00	0	30	0	506462208	52	6100
2026-01-12 15:46:19.78	2.48	31.67	-39.7	-40.9	21.0	0.00e+00	0	30	0	508559360	52	6382
2026-01-12 15:46:20.79	2.29	31.85	-39.6	-40.8	21.3	0.00e+00	0	30	0	510656512	52	6279
2026-01-12 15:46:21.80	2.10	32.02	-39.9	-41.2	20.9	0.00e+00	0	30	0	512753664	52	6546
2026-01-12 15:46:22.81	1.91	32.20	-40.2	-41.5	20.4	0.00e+00	0	30	0	513802240	52	6826
2026-01-12 15:46:23.82	1.71	32.38	-41.0	-42.6	19.7	0.00e+00	0	30	0	515899392	54	6903
2026-01-12 15:46:24.83	1.51	32.55	-40.4	-41.9	20.1	0.00e+00	0	30	0	517996544	54	6338
2026-01-12 15:46:25.84	1.32	32.73	-40.5	-41.9	20.3	0.00e+00	0	30	0	520093696	54	6343
2026-01-12 15:46:26.85	1.11	32.91	-39.8	-41.1	20.9	0.00e+00	0	30	0	522190848	54	5797
2026-01-12 15:46:27.86	0.91	33.09	-40.0	-41.4	20.7	0.00e+00	0	30	0	523239424	54	5977
2026-01-12 15:46:28.87	0.70	33.27	-40.3	-41.7	20.2	0.00e+00	0	30	0	525336576	54	6216
2026-01-12 15:46:29.88	0.50	33.45	-40.3	-41.7	20.5	0.00e+00	0	30	0	527433728	54	6183
2026-01-12 15:46:30.89	0.29	33.63	-40.6	-42.0	20.0	0.00e+00	0	30	0	529530880	54	6425
2026-01-12 15:46:31.89	0.07	33.81	-41.7	-43.3	19.1	0.00e+00	0	30	0	531628032	56	6675
2026-01-12 15:46:32.90	359.86	33.99	-41.5	-43.1	19.2	0.00e+00	0	30	0	532676608	56	6524
2026-01-12 15:46:33.91	359.64	34.18	-41.5	-43.2	19.1	0.00e+00	0	30	0	534773760	56	6569
2026-01-12 15:46:34.92	359.42	34.36	-41.2	-42.7	19.5	0.00e+00	0	30	0	536870912	56	6241
2026-01-12 15:46:35.93	359.20	34.55	-40.9	-42.4	19.7	0.00e+00	0	30	0	538968064	56	6016
2026-01-12 15:46:36.94	358.97	34.73	-40.5	-42.0	20.0	0.00e+00	0	30	0	541065216	54	6399
2026-01-12 15:46:37.95	358.74	34.92	-40.0	-41.3	20.9	0.00e+00	0	30	0	542113792	54	5958
2026-01-12 15:46:38.96	358.51	35.10	-39.6	-40.9	21.1	0.00e+00	0	30	0	544210944	52	6375
2026-01-12 15:46:39.97	358.28	35.29	-39.8	-41.1	21.2	0.00e+00	0	30	0	546308096	52	6472
2026-01-12 15:46:40.98	358.04	35.48	-39.5	-40.7	21.1	0.00e+00	0	30	0	548405248	52	6209
2026-01-12 15:46:41.98	357.81	35.66	-38.6	-39.7	21.8	0.00e+00	0	30	0	550502400	50	6239
2026-01-12 15:46:42.99	357.56	35.85	-38.5	-39.5	22.2	0.00e+00	0	30	0	551550976	50	6078
2026-01-12 15:46:44.00	357.32	36.04	-38.6	-39.7	22.0	0.00e+00	0	30	0	553648128	50	6207
2026-01-12 15:46:45.01	357.07	36.23	-38.8	-39.9	22.0	0.00e+00	0	30	0	555745280	50	6323
2026-01-12 15:46:46.02	356.82	36.42	-38.3	-39.3	22.2	0.00e+00	0	30	0	557842432	50	5950
2026-01-12 15:46:47.03	356.57	36.61	-39.0	-40.1	21.7	0.00e+00	0	30	0	559939584	50	6526
2026-01-12 15:46:48.05	356.31	36.80	-39.3	-40.4	21.4	0.00e+00	0	30	0	560988160	50	6739
2026-01-12 15:46:49.05	356.05	36.99	-39.7	-40.9	21.1	0.00e+00	0	30	0	563085312	52	6377
2026-01-12 15:46:50.06	355.79	37.19	-40.0	-41.2	20.8	0.00e+00	0	30	0	565182464	52	6591
2026-01-12 15:46:51.07	355.52	37.38	-39.1	-40.2	21.7	0.00e+00	0	30	0	567279616	52	5884
2026-01-12 15:46:52.08	355.25	37.57	-39.2	-40.4	21.5	0.00e+00	0	30	0	569376768	52	6006
2026-01-12 15:46:53.09	354.98	37.76	-38.8	-39.9	22.1	0.00e+00	0	30	0	570425344	52	5674
2026-01-12 15:46:54.10	354.70	37.96	-39.4	-40.6	21.3	0.00e+00	0	30	0	572522496	50	6888
2026-01-12 15:46:55.11	354.42	38.15	-39.6	-40.9	21.1	0.00e+00	0	30	0	574619648	50	7103
2026-01-12 15:46:56.12	354.14	38.34	-40.0	-41.3	20.8	0.00e+00	0	30	0	576716800	52	6676
2026-01-12 15:46:57.12	353.86	38.54	-40.1	-41.5	20.6	0.00e+00	0	30	0	578813952	52	6803
2026-01-12 15:46:58.13	353.57	38.73	-40.7	-42.1	20.3	0.00e+00	0	30	0	579862528	52	7321
2026-01-12 15:46:59.14	353.28	38.93	-39.9	-41.2	20.9	0.00e+00	0	30	0	581959680	52	6545
2026-01-12 15:47:00.15	352.98	39.12	-39.7	-40.9	21.4	0.00e+00	0	30	0	584056832	52	6327
2026-01-12 15:47:01.16	352.68	39.32	-39.7	-40.9	21.0	0.00e+00	0	30	0	586153984	52	6325
2026-01-12 15:47:02.17	352.38	39.51	-39.9	-41.1	20.9	0.00e+00	0	30	0	588251136	52	6481
2026-01-12 15:47:03.18	352.07	39.71	-39.6	-40.8	20.9	0.00e+00	0	30	0	589299712	52	6290
2026-01-12 15:47:04.19	351.76	39.90	-40.0	-41.4	20.6	0.00e+00	0	30	0	591396864	52	6698
2026-01-12 15:47:05.20	351.44	40.10	-39.2	-40.4	21.5	0.00e+00	0	30	0	593494016	52	6031
2026-01-12 15:47:06.21	351.12	40.30	-38.8	-40.0	21.9	0.00e+00	0	30	0	595591168	50	6427
2026-01-12 15:47:07.21	350.80	40.49	-38.3	-39.3	22.3	0.00e+00	0	30	0	597688320	50	5963
2026-01-12 15:47:08.22	350.48	40.69	-38.4	-39.5	22.2	0.00e+00	0	30	0	598736896	50	6100
2026-01-12 15:47:09.23	350.15	40.88	-38.2	-39.3	22.5	0.00e+00	0	30	0	600834048	50	5909
2026-01-12 15:47:10.24	349.81	41.08	-38.1	-39.2	22.5	0.00e+00	0	30	0	602931200	50	5872
2026-01-12 15:47:11.25	349.47	41.27	-38.1	-39.2	22.5	0.00e+00	0	30	0	605028352	50	5866
2026-01-12 15:47:12.26	349.13	41.47	-38.0	-39.1	22.3	0.00e+00	0	30	0	607125504	48	6495
2026-01-12 15:47:13.27	348.78	41.67	-38.4	-39.5	22.3	0.00e+00	0	30	0	609222656	48	6791
2026-01-12 15:47:14.28	348.43	41.86	-38.7	-39.9	21.9	0.00e+00	0	30	0	610271232	48	7106
2026-01-12 15:47:15.29	348.08	42.06	-39.4	-40.6	21.1	0.00e+00	0	30	0	612368384	50	6887
2026-01-12 15:47:16.30	347.71	42.25	-40.1	-41.5	20.5	0.00e+00	0	30	0	614465536	52	6775
2026-01-12 15:47:17.31	347.35	42.45	-40.7	-42.2	20.1	0.00e+00	0	30	0	616562688	52	7359
2026-01-12 15:47:18.32	346.98	42.64	-40.1	-41.4	20.6	0.00e+00	0	30	0	618659840	52	6750
2026-01-12 15:47:19.32	346.61	42.83	-40.1	-41.3	20.7	0.00e+00	0	30	0	619708416	52	6684
2026-01-12 15:47:20.34	346.23	43.03	-40.2	-41.5	20.4	0.00e+00	0	30	0	621805568	52	6848
2026-01-12 15:47:21.35	345.85	43.22	-40.6	-42.0	20.1	0.00e+00	0	30	0	623902720	52	7200
2026-01-12 15:47:22.36	345.46	43.42	-40.3	-41.7	20.3	0.00e+00	0	30	0	625999872	52	6979
2026-01-12 15:47:23.37	345.07	43.61	-40.5	-42.0	20.1	0.00e+00	0	30	0	628097024	52	7207
2026-01-12 15:47:24.38	344.67	43.80	-40.6	-42.1	19.9	0.00e+00	0	30	0	629145600	52	7302
2026-01-12 15:47:25.39	344.27	43.99	-41.0	-42.8	19.5	0.00e+00	0	30	0	631242752	52	7868
2026-01-12 15:47:26.39	343.86	44.18	-40.8	-42.5	19.5	0.00e+00	0	30	0	633339904	54	6840
2026-01-12 15:47:27.40	343.45	44.37	-41.1	-42.8	19.5	0.00e+00	0	30	0	635437056	54	7079
2026-01-12 15:47:28.41	343.03	44.56	-41.0	-42.8	19.4	0.00e+00	0	30	0	637534208	54	7016
2026-01-12 15:47:29.42	342.61	44.75	-40.8	-42.5	19.4	0.00e+00	0	30	0	638582784	54	6795
2026-01-12 15:47:30.43	342.19	44.94	-41.5	-43.4	18.6	0.00e+00	0	30	0	640679936	54	7587
2026-01-12 15:47:31.44	341.75	45.12	-40.8	-42.5	19.4	0.00e+00	0	30	0	642777088	54	6848
2026-01-12 15:47:32.45	341.32	45.31	-40.6	-42.2	20.0	0.00e+00	0	30	0	644874240	54	6541
2026-01-12 15:47:33.46	340.87	45.49	-40.4	-41.9	20.2	0.00e+00	0	30	0	646971392	54	6331
2026-01-12 15:47:34.47	340.43	45.68	-40.8	-42.4	19.8	0.00e+00	0	30	0	648019968	54	6739
2026-01-12 15:47:35.48	339.97	45.86	-40.5	-42.1	19.8	0.00e+00	0	30	0	650117120	54	6473
2026-01-12 15:47:36.49	339.52	46.04	-40.8	-42.4	19.7	0.00e+00	0	30	0	652214272	54	6753
2026-01-12 15:47:37.50	339.05	46.22	-39.9	-41.3	20.3	0.00e+00	0	30	0	654311424	54	5904
2026-01-12 15:47:38.51	338.58	46.40	-38.6	-39.7	22.2	0.00e+00	0	30	0	656408576	52	5532
2026-01-12 15:47:39.52	338.11	46.57	-38.0	-39.0	22.8	0.00e+00	0	30	0	657457152	50	5732
2026-01-12 15:47:40.53	337.63	46.75	-37.2	-38.1	23.3	0.00e+00	0	30	0	659554304	48	5824
2026-01-12 15:47:41.54	337.15	46.92	-37.5	-38.4	23.0	0.00e+00	0	30	0	661651456	48	6026
2026-01-12 15:47:42.55	336.65	47.10	-38.3	-39.3	22.4	0.00e+00	0	30	0	663748608	48	6619
2026-01-12 15:47:43.56	336.16	47.27	-38.8	-39.9	21.8	0.00e+00	0	30	0	665845760	50	6327
2026-01-12 15:47:44.56	335.66	47.44	-39.7	-40.9	21.2	0.00e+00	0	30	0	666894336	50	7127
2026-01-12 15:47:45.57	335.16	47.60	-39.4	-40.6	21.4	0.00e+00	0	30	0	668991488	50	6895
2026-01-12 15:47:46.58	334.64	47.77	-38.9	-40.0	21.8	0.00e+00	0	30	0	671088640	50	6421
2026-01-12 15:47:47.59	334.13	47.93	-38.1	-39.1	22.6	0.00e+00	0	30	0	673185792	50	5781
2026-01-12 15:47:48.60	333.60	48.10	-38.2	-39.2	22.5	0.00e+00	0	30	0	675282944	50	5893
2026-01-12 15:47:49.61	333.07	48.26	-38.1	-39.2	22.0	0.00e+00	0	30	0	677380096	50	5879
2026-01-12 15:47:50.62	332.54	48.41	-38.7	-39.9	22.0	0.00e+00	0	30	0	678428672	50	6348
2026-01-12 15:47:51.63	332.00	48.57	-38.4	-39.5	22.4	0.00e+00	0	30	0	680525824	50	6095
2026-01-12 15:47:52.64	331.45	48.72	-37.8	-38.9	22.6	0.00e+00	0	30	0	682622976	50	5679
2026-01-12 15:47:53.65	330.90	48.87	-37.8	-38.9	22.7	0.00e+00	0	30	0	684720128	48	6363
2026-01-12 15:47:54.66	330.35	49.02	-37.1	-38.1	23.1	0.00e+00	0	30	0	686817280	48	5817
2026-01-12 15:47:55.67	329.79	49.17	-37.2	-38.2	23.3	0.00e+00	0	30	0	687865856	48	5856
2026-01-12 15:47:56.68	329.22	49.31	-37.4	-38.4	23.0	0.00e+00	0	30	0	689963008	48	5988
2026-01-12 15:47:57.69	328.65	49.45	-37.7	-38.8	22.8	0.00e+00	0	30	0	692060160	48	6258
2026-01-12 15:47:58.69	328.08	49.59	-37.5	-38.6	22.9	0.00e+00	0	30	0	694157312	48	6116
2026-01-12 15:47:59.70	327.49	49.73	-37.9	-39.0	22.7	0.00e+00	0	30	0	696254464	48	6424
2026-01-12 15:48:00.72	326.90	49.86	-37.3	-38.3	23.1	0.00e+00	0	30	0	697303040	48	5953
2026-01-12 15:48:01.72	326.31	49.99	-38.1	-39.1	22.5	0.00e+00	0	30	0	699400192	48	6539
2026-01-12 15:48:02.73	325.71	50.12	-38.5	-39.7	22.0	0.00e+00	0	30	0	701497344	48	6929
2026-01-12 15:48:03.74	325.11	50.24	-38.7	-39.8	21.8	0.00e+00	0	30	0	703594496	50	6284
2026-01-12 15:48:04.75	324.50	50.36	-39.2	-40.4	21.3	0.00e+00	0	30	0	705691648	50	6760
2026-01-12 15:48:05.76	323.89	50.48	-40.3	-41.7	20.3	0.00e+00	0	30	0	706740224	52	6968
2026-01-12 15:48:06.77	323.27	50.60	-41.9	-43.9	18.1	0.00e+00	0	30	0	708837376	56	7117
2026-01-12 15:48:07.78	322.65	50.71	-42.7	-45.0	17.4	0.00e+00	0	30	0	710934528	56	8097
2026-01-12 15:48:08.79	322.02	50.82	-41.3	-43.1	18.8	0.00e+00	0	30	0	713031680	56	6487
2026-01-12 15:48:09.80	321.39	50.92	-39.7	-41.0	21.2	0.00e+00	0	30	0	715128832	52	6393
2026-01-12 15:48:10.81	320.75	51.02	-38.2	-39.3	22.4	0.00e+00	0	30	0	716177408	50	5926
2026-01-12 15:48:11.82	320.11	51.12	-38.0	-39.2	22.7	0.00e+00	0	30	0	718274560	48	6552
2026-01-12 15:48:12.83	319.47	51.21	-37.8	-38.9	22.7	0.00e+00	0	30	0	720371712	48	6328
2026-01-12 15:48:13.84	318.82	51.30	-38.2	-39.4	22.2	0.00e+00	0	30	0	722468864	48	6711
2026-01-12 15:48:14.85	318.17	51.39	-38.6	-39.8	22.0	0.00e+00	0	30	0	724566016	48	7068
2026-01-12 15:48:15.86	317.51	51.47	-39.1	-40.4	21.4	0.00e+00	0	30	0	725614592	50	6747
2026-01-12 15:48:16.87	316.85	51.55	-40.3	-42.0	20.1	0.00e+00	0	30	0	727711744	52	7182
2026-01-12 15:48:17.88	316.19	51.63	-39.9	-41.4	20.7	0.00e+00	0	30	0	729808896	52	6743
2026-01-12 15:48:18.88	315.53	51.70	-38.3	-39.5	22.5	0.00e+00	0	30	0	731906048	50	6042
2026-01-12 15:48:19.89	314.86	51.77	-37.3	-38.4	23.1	0.00e+00	0	30	0	734003200	48	5999
2026-01-12 15:48:20.90	314.19	51.83	-36.5	-37.4	23.8	0.00e+00	0	30	0	735051776	46	6004
2026-01-12 15:48:21.91	313.51	51.89	-36.1	-37.0	24.0	0.00e+00	0	30	0	737148928	46	5748
2026-01-12 15:48:22.92	312.84	51.95	-36.1	-37.1	24.2	0.00e+00	0	30	0	739246080	46	5771
2026-01-12 15:48:23.93	312.15	52.00	-35.7	-36.6	24.4	0.00e+00	0	30	0	741343232	44	6127
2026-01-12 15:48:24.94	311.47	52.04	-35.4	-36.2	24.5	0.00e+00	0	30	0	743440384	44	5876
2026-01-12 15:48:25.95	310.79	52.09	-35.3	-36.1	24.6	0.00e+00	0	30	0	745537536	44	5823
2026-01-12 15:48:26.96	310.10	52.12	-35.2	-36.1	24.9	0.00e+00	0	30	0	746586112	44	5765
2026-01-12 15:48:27.96	309.42	52.16	-34.9	-35.7	24.9	0.00e+00	0	30	0	748683264	44	5545
2026-01-12 15:48:28.98	308.72	52.19	-34.7	-35.5	25.1	0.00e+00	0	30	0	750780416	42	6052
2026-01-12 15:48:29.99	308.03	52.22	-34.7	-35.5	25.2	0.00e+00	0	30	0	752877568	42	6075
2026-01-12 15:48:30.99	307.35	52.24	-34.7	-35.5	25.1	0.00e+00	0	30	0	754974720	42	6056
2026-01-12 15:48:32.00	306.65	52.25	-34.9	-35.7	25.0	0.00e+00	0	30	0	756023296	42	6191
2026-01-12 15:48:33.01	305.96	52.27	-34.8	-35.6	25.2	0.00e+00	0	30	0	758120448	42	6139
2026-01-12 15:48:34.02	305.26	52.27	-34.3	-35.1	25.4	0.00e+00	0	30	0	760217600	42	5804
2026-01-12 15:48:35.03	304.57	52.28	-34.9	-35.7	25.1	0.00e+00	0	30	0	762314752	42	6241
2026-01-12 15:48:36.04	303.87	52.28	-35.7	-36.6	24.5	0.00e+00	0	30	0	764411904	42	6852
2026-01-12 15:48:37.05	303.18	52.27	-36.4	-37.4	23.8	0.00e+00	0	30	0	765460480	44	6721
2026-01-12 15:48:38.06	302.49	52.27	-37.3	-38.3	23.2	0.00e+00	0	30	0	767557632	46	6649
2026-01-12 15:48:39.07	301.79	52.25	-37.0	-38.0	23.4	0.00e+00	0	30	0	769654784	46	6407
2026-01-12 15:48:40.07	301.11	52.23	-36.3	-37.2	24.0	0.00e+00	0	30	0	771751936	46	5835
2026-01-12 15:48:41.08	300.41	52.21	-36.1	-37.0	24.2	0.00e+00	0	30	0	773849088	46	5699
2026-01-12 15:48:42.09	299.72	52.19	-36.2	-37.0	24.2	0.00e+00	0	30	0	774897664	46	5759
2026-01-12 15:48:43.10	299.03	52.16	-35.9	-36.7	24.0	0.00e+00	0	30	0	776994816	46	5536
2026-01-12 15:48:44.11	298.34	52.12	-36.2	-37.0	24.0	0.00e+00	0	30	0	779091968	46	5760
2026-01-12 15:48:45.12	297.66	52.08	-36.9	-37.9	23.3	0.00e+00	0	30	0	781189120	46	6375
2026-01-12 15:48:46.13	296.97	52.04	-37.2	-38.2	23.3	0.00e+00	0	30	0	783286272	46	6594
2026-01-12 15:48:47.14	296.29	51.99	-37.0	-38.0	23.5	0.00e+00	0	30	0	784334848	46	6414
2026-01-12 15:48:48.15	295.61	51.94	-36.5	-37.4	23.9	0.00e+00	0	30	0	786432000	46	6010
2026-01-12 15:48:49.16	294.93	51.88	-36.6	-37.5	23.7	0.00e+00	0	30	0	788529152	46	6063
2026-01-12 15:48:50.17	294.26	51.82	-36.5	-37.5	23.8	0.00e+00	0	30	0	790626304	46	6073
2026-01-12 15:48:51.18	293.58	51.76	-36.6	-37.6	23.6	0.00e+00	0	30	0	792723456	46	6152
2026-01-12 15:48:52.19	292.91	51.69	-36.8	-37.8	23.6	0.00e+00	0	30	0	793772032	46	6264
2026-01-12 15:48:53.20	292.25	51.62	-36.5	-37.5	23.8	0.00e+00	0	30	0	795869184	46	6042
2026-01-12 15:48:54.21	291.58	51.54	-35.1	-35.9	25.0	0.00e+00	0	30	0	797966336	44	5662
2026-01-12 15:48:55.22	290.92	51.46	-35.0	-35.7	25.0	0.00e+00	0	30	0	800063488	42	6234
2026-01-12 15:48:56.23	290.27	51.38	-35.4	-36.2	24.6	0.00e+00	0	30	0	802160640	42	6589
2026-01-12 15:48:57.24	289.62	51.29	-36.1	-37.0	24.2	0.00e+00	0	30	0	803209216	44	6397
2026-01-12 15:48:58.25	288.97	51.20	-36.4	-37.4	23.9	0.00e+00	0	30	0	805306368	44	6705
2026-01-12 15:48:59.26	288.32	51.11	-37.0	-37.9	23.4	0.00e+00	0	30	0	807403520	46	6367
2026-01-12 15:49:00.27	287.68	51.01	-37.5	-38.5	23.2	0.00e+00	0	30	0	809500672	46	6838
2026-01-12 15:49:01.27	287.05	50.91	-37.9	-39.0	22.7	0.00e+00	0	30	0	811597824	48	6411
2026-01-12 15:49:02.28	286.42	50.80	-36.9	-37.8	23.6	0.00e+00	0	30	0	812646400	48	5621
2026-01-12 15:49:03.29	285.80	50.69	-36.5	-37.4	23.8	0.00e+00	0	30	0	814743552	46	5984
2026-01-12 15:49:04.30	285.17	50.58	-36.7	-37.6	23.7	0.00e+00	0	30	0	816840704	46	6142
2026-01-12 15:49:05.31	284.55	50.46	-37.0	-37.9	23.6	0.00e+00	0	30	0	818937856	46	6344
2026-01-12 15:49:06.32	283.94	50.35	-36.7	-37.6	23.6	0.00e+00	0	29	0	821035008	46	6110
2026-01-12 15:49:07.33	283.33	50.22	-37.4	-38.3	23.3	0.00e+00	0	30	0	822083584	46	6660
2026-01-12 15:49:08.34	282.73	50.10	-37.2	-38.2	23.4	0.00e+00	0	30	0	824180736	46	6553
2026-01-12 15:49:09.35	282.13	49.97	-38.1	-39.1	22.7	0.00e+00	0	29	0	826277888	48	6502
2026-01-12 15:49:10.36	281.54	49.84	-38.0	-39.0	22.6	0.00e+00	0	29	0	828375040	48	6440
2026-01-12 15:49:11.37	280.95	49.71	-38.9	-40.0	21.9	0.00e+00	0	29	0	830472192	48	7202
2026-01-12 15:49:12.38	280.37	49.57	-39.5	-40.8	20.8	0.00e+00	0	30	0	831520768	50	7012
2026-01-12 15:49:13.38	279.80	49.43	-40.4	-41.8	20.3	0.00e+00	0	30	0	833617920	52	7031
2026-01-12 15:49:14.39	279.22	49.29	-39.1	-40.3	21.6	0.00e+00	0	30	0	835715072	52	5937
2026-01-12 15:49:15.40	278.66	49.15	-38.0	-39.0	22.8	0.00e+00	0	30	0	837812224	50	5753
2026-01-12 15:49:16.41	278.10	49.00	-38.0	-39.0	22.7	0.00e+00	0	30	0	839909376	48	6400
2026-01-12 15:49:17.42	277.54	48.85	-38.2	-39.2	22.8	0.00e+00	0	30	0	842006528	48	6614
2026-01-12 15:49:18.43	276.99	48.70	-37.5	-38.4	23.1	0.00e+00	0	30	0	843055104	48	6028
2026-01-12 15:49:19.44	276.44	48.54	-38.0	-39.0	23.0	0.00e+00	0	29	0	845152256	48	6437
2026-01-12 15:49:20.45	275.90	48.39	-38.5	-39.6	22.2	0.00e+00	0	30	0	847249408	48	6906
2026-01-12 15:49:21.46	275.37	48.23	-39.1	-40.3	21.7	0.00e+00	0	30	0	849346560	50	6635
2026-01-12 15:49:22.47	274.84	48.07	-39.5	-40.7	21.5	0.00e+00	0	30	0	851443712	52	6207
2026-01-12 15:49:23.48	274.32	47.91	-39.1	-40.2	21.8	0.00e+00	0	30	0	852492288	52	5893
2026-01-12 15:49:24.49	273.80	47.74	-38.4	-39.5	22.3	0.00e+00	0	30	0	854589440	50	6038
2026-01-12 15:49:25.50	273.29	47.58	-38.0	-39.0	22.7	0.00e+00	0	29	0	856686592	50	5736
2026-01-12 15:49:26.51	272.78	47.41	-38.4	-39.4	22.1	0.00e+00	0	30	0	858783744	50	6003
2026-01-12 15:49:27.52	272.28	47.24	-38.9	-40.0	21.7	0.00e+00	0	30	0	860880896	50	6454
2026-01-12 15:49:28.53	271.78	47.07	-39.0	-40.0	21.9	0.00e+00	0	30	0	861929472	50	6459
2026-01-12 15:49:29.54	271.29	46.89	-38.7	-39.8	22.0	0.00e+00	0	30	0	864026624	50	6252
2026-01-12 15:49:30.55	270.81	46.72	-38.4	-39.4	22.4	0.00e+00	0	29	0	866123776	50	6019
2026-01-12 15:49:31.56	270.33	46.54	-39.2	-40.4	21.5	0.00e+00	0	30	0	868220928	50	6714
2026-01-12 15:49:32.57	269.85	46.36	-39.3	-40.5	21.5	0.00e+00	0	30	0	870318080	50	6795
2026-01-12 15:49:33.58	269.38	46.18	-39.9	-41.2	20.8	0.00e+00	0	30	0	871366656	52	6540
2026-01-12 15:49:34.59	268.92	46.00	-39.9	-41.1	20.9	0.00e+00	0	29	0	873463808	52	6490
2026-01-12 15:49:35.59	268.47	45.82	-39.9	-41.2	21.0	0.00e+00	0	30	0	875560960	52	6551
2026-01-12 15:49:36.60	268.01	45.64	-40.1	-41.4	20.7	0.00e+00	0	29	0	877658112	52	6746
2026-01-12 15:49:37.61	267.57	45.46	-39.8	-41.1	21.1	0.00e+00	0	29	0	879755264	52	6502
2026-01-12 15:49:38.62	267.12	45.27	-38.8	-39.9	21.9	0.00e+00	0	29	0	880803840	50	6356
2026-01-12 15:49:39.63	266.69	45.09	-37.4	-38.4	23.3	0.00e+00	0	29	0	882900992	48	5982
2026-01-12 15:49:40.64	266.25	44.90	-37.2	-38.1	23.5	0.00e+00	0	29	0	884998144	48	5818
2026-01-12 15:49:41.65	265.83	44.71	-37.5	-38.4	23.3	0.00e+00	0	29	0	887095296	48	6003
2026-01-12 15:49:42.66	265.41	44.52	-37.4	-38.4	23.3	0.00e+00	0	29	0	889192448	48	5972
2026-01-12 15:49:43.67	264.99	44.33	-37.7	-38.7	22.9	0.00e+00	0	29	0	890241024	48	6215
2026-01-12 15:49:44.68	264.58	44.14	-38.6	-39.6	22.0	0.00e+00	0	29	0	892338176	48	6916
2026-01-12 15:49:45.69	264.17	43.95	-38.9	-40.0	21.8	0.00e+00	0	29	0	894435328	50	6457
2026-01-12 15:49:46.70	263.77	43.76	-38.8	-39.9	22.0	0.00e+00	0	29	0	896532480	50	6365
2026-01-12 15:49:47.71	263.37	43.57	-38.3	-39.3	22.6	0.00e+00	0	29	0	898629632	50	5902
2026-01-12 15:49:48.71	262.98	43.38	-38.1	-39.0	22.7	0.00e+00	0	30	0	899678208	50	5745
2026-01-12 15:49:49.72	262.59	43.18	-38.5	-39.6	22.2	0.00e+00	0	29	0	901775360	50	6121
2026-01-12 15:49:50.73	262.21	42.99	-38.9	-40.0	21.9	0.00e+00	0	29	0	903872512	50	6422
2026-01-12 15:49:51.74	261.83	42.79	-39.8	-41.0	21.2	0.00e+00	0	29	0	905969664	52	6439
2026-01-12 15:49:52.75	261.46	42.60	-41.0	-42.4	19.8	0.00e+00	0	29	0	908066816	54	6717
2026-01-12 15:49:53.76	261.09	42.40	-40.9	-42.3	19.8	0.00e+00	0	29	0	910163968	54	6622
2026-01-12 15:49:54.77	260.72	42.21	-41.2	-42.7	19.6	0.00e+00	0	29	0	911212544	54	6943
2026-01-12 15:49:55.78	260.36	42.01	-40.5	-41.8	20.2	0.00e+00	0	29	0	913309696	54	6305
2026-01-12 15:49:56.79	260.01	41.82	-40.7	-42.1	19.9	0.00e+00	0	29	0	915406848	54	6493
2026-01-12 15:49:57.80	259.66	41.62	-39.8	-41.1	21.2	0.00e+00	0	29	0	917504000	54	5796
2026-01-12 15:49:58.81	259.31	41.42	-39.4	-40.6	21.3	0.00e+00	0	29	0	919601152	52	6111
2026-01-12 15:49:59.82	258.96	41.23	-39.3	-40.5	21.4	0.00e+00	0	29	0	920649728	52	6044
2026-01-12 15:50:00.82	258.63	41.03	-39.7	-40.9	21.1	0.00e+00	0	29	0	922746880	52	6390
2026-01-12 15:50:01.83	258.29	40.84	-39.7	-40.9	21.1	0.00e+00	0	29	0	924844032	52	6355
2026-01-12 15:50:02.84	257.96	40.64	-39.9	-41.2	20.9	0.00e+00	0	29	0	926941184	52	6559
2026-01-12 15:50:03.85	257.64	40.44	-40.1	-41.4	20.7	0.00e+00	0	29	0	929038336	52	6737
2026-01-12 15:50:04.86	257.31	40.25	-40.8	-42.3	19.9	0.00e+00	0	29	0	930086912	54	6664
2026-01-12 15:50:05.87	256.99	40.05	-40.5	-41.8	20.3	0.00e+00	0	29	0	932184064	54	6299
2026-01-12 15:50:06.88	256.68	39.85	-39.6	-40.7	21.3	0.00e+00	0	29	0	934281216	52	6232
2026-01-12 15:50:07.89	256.37	39.66	-38.8	-39.8	22.0	0.00e+00	0	29	0	936378368	50	6297
2026-01-12 15:50:08.90	256.06	39.46	-38.5	-39.5	22.2	0.00e+00	0	29	0	938475520	50	6070
2026-01-12 15:50:09.91	255.76	39.26	-39.6	-40.8	21.2	0.00e+00	0	29	0	939524096	50	7034
2026-01-12 15:50:10.93	255.45	39.07	-41.0	-42.5	19.5	0.00e+00	0	29	0	941621248	54	6838
2026-01-12 15:50:11.94	255.16	38.87	-42.5	-44.4	17.6	0.00e+00	0	29	0	943718400	56	7539
2026-01-12 15:50:12.95	254.86	38.67	-42.6	-44.6	17.9	0.00e+00	0	29	0	945815552	58	6901
2026-01-12 15:50:13.96	254.57	38.48	-42.9	-45.0	17.4	0.00e+00	0	29	0	947912704	58	7198
2026-01-12 15:50:14.97	254.29	38.28	-42.7	-44.7	17.8	0.00e+00	0	29	0	948961280	58	6985
2026-01-12 15:50:15.97	254.01	38.09	-42.8	-44.8	17.5	0.00e+00	0	29	0	951058432	58	7074
2026-01-12 15:50:16.98	253.73	37.90	-42.7	-44.7	17.7	0.00e+00	0	29	0	953155584	58	6991
2026-01-12 15:50:17.99	253.45	37.70	-43.0	-45.1	17.2	0.00e+00	0	29	0	955252736	58	7303
2026-01-12 15:50:19.00	253.18	37.51	-42.3	-44.2	18.2	0.00e+00	0	29	0	957349888	58	6572
2026-01-12 15:50:20.01	252.91	37.32	-41.5	-43.1	19.3	0.00e+00	0	29	0	958398464	56	6471
2026-01-12 15:50:21.02	252.64	37.12	-40.7	-42.0	20.3	0.00e+00	0	29	0	960495616	56	5725
2026-01-12 15:50:22.03	252.38	36.93	-39.6	-40.7	21.6	0.00e+00	0	29	0	962592768	52	6193
2026-01-12 15:50:23.04	252.12	36.74	-39.1	-40.1	21.9	0.00e+00	0	29	0	964689920	52	5826
2026-01-12 15:50:24.05	251.86	36.55	-38.1	-39.1	22.7	0.00e+00	0	29	0	966787072	50	5762
2026-01-12 15:50:25.06	251.61	36.36	-37.6	-38.5	23.1	0.00e+00	0	29	0	967835648	50	5423
2026-01-12 15:50:26.07	251.36	36.17	-37.7	-38.6	23.1	0.00e+00	0	29	0	969932800	48	6117
2026-01-12 15:50:27.08	251.11	35.98	-37.7	-38.6	23.0	0.00e+00	0	29	0	972029952	48	6156
2026-01-12 15:50:28.08	250.87	35.79	-38.0	-39.0	22.7	0.00e+00	0	29	0	974127104	48	6397
2026-01-12 15:50:29.10	250.62	35.60	-38.5	-39.6	22.1	0.00e+00	0	29	0	976224256	48	6856
2026-01-12 15:50:30.10	250.39	35.41	-39.7	-40.8	21.2	0.00e+00	0	29	0	978321408	50	7062
2026-01-12 15:50:31.11	250.15	35.22	-40.3	-41.6	20.5	0.00e+00	0	29	0	979369984	52	6861
2026-01-12 15:50:32.12	249.92	35.04	-40.8	-42.3	19.8	0.00e+00	0	29	0	981467136	54	6635
2026-01-12 15:50:33.13	249.69	34.85	-41.5	-43.2	19.1	0.00e+00	0	29	0	983564288	54	7344
2026-01-12 15:50:34.14	249.46	34.66	-42.1	-43.9	17.7	0.00e+00	0	29	0	985661440	56	7170
2026-01-12 15:50:35.15	249.23	34.48	-42.0	-43.7	18.7	0.00e+00	0	29	0	987758592	58	6244
2026-01-12 15:50:36.16	249.01	34.29	-41.7	-43.5	18.9	0.00e+00	0	29	0	988807168	58	6043
2026-01-12 15:50:37.17	248.79	34.11	-41.7	-43.4	19.1	0.00e+00	0	29	0	990904320	56	6700
2026-01-12 15:50:38.18	248.57	33.93	-41.3	-42.9	19.5	0.00e+00	0	29	0	993001472	56	6333
2026-01-12 15:50:39.19	248.35	33.74	-41.0	-42.4	19.7	0.00e+00	0	29	0	995098624	56	6025
2026-01-12 15:50:40.19	248.14	33.56	-40.1	-41.4	20.6	0.00e+00	0	29	0	997195776	54	6013
2026-01-12 15:50:41.21	247.93	33.38	-39.4	-40.5	21.5	0.00e+00	0	29	0	998244352	52	6048
2026-01-12 15:50:42.22	247.72	33.20	-39.1	-40.2	21.4	0.00e+00	0	29	0	1000341504	50	6580
2026-01-12 15:50:43.22	247.52	33.02	-38.6	-39.6	22.2	0.00e+00	0	29	0	1002438656	50	6165
2026-01-12 15:50:44.23	247.31	32.84	-38.3	-39.2	22.5	0.00e+00	0	29	0	1004535808	50	5887
2026-01-12 15:50:45.24	247.11	32.66	-39.0	-40.0	21.8	0.00e+00	0	29	0	1006632960	50	6461
2026-01-12 15:50:46.25	246.91	32.48	-40.1	-41.3	20.9	0.00e+00	0	29	0	1007681536	52	6672
2026-01-12 15:50:47.26	246.71	32.30	-41.0	-42.5	19.7	0.00e+00	0	29	0	1009778688	54	6793
2026-01-12 15:50:48.27	246.52	32.12	-41.2	-42.7	19.4	0.00e+00	0	29	0	1011875840	54	6967
2026-01-12 15:50:49.28	246.33	31.95	-41.6	-43.1	19.4	0.00e+00	0	29	0	1013972992	56	6518
2026-01-12 15:50:50.29	246.13	31.77	-40.1	-41.3	20.8	0.00e+00	0	29	0	1016070144	54	5931
2026-01-12 15:50:51.30	245.95	31.60	-39.1	-40.2	22.1	0.00e+00	0	29	0	1017118720	52	5869
2026-01-12 15:50:52.31	245.76	31.42	-38.5	-39.5	22.4	0.00e+00	0	29	0	1019215872	50	6048
2026-01-12 15:50:53.32	245.57	31.25	-37.8	-38.7	22.9	0.00e+00	0	29	0	1021313024	50	5563
2026-01-12 15:50:54.33	245.39	31.07	-37.2	-38.1	23.3	0.00e+00	0	29	0	1023410176	48	5818
2026-01-12 15:50:55.34	245.21	30.90	-37.8	-38.7	22.9	0.00e+00	0	29	0	1025507328	48	6199
2026-01-12 15:50:56.35	245.03	30.73	-38.4	-39.4	22.3	0.00e+00	0	29	0	1026555904	48	6712
2026-01-12 15:50:57.36	244.86	30.56	-39.2	-40.3	21.6	0.00e+00	0	29	0	1028653056	50	6643
2026-01-12 15:50:58.37	244.68	30.39	-39.8	-41.0	21.0	0.00e+00	0	29	0	1030750208	50	7181
2026-01-12 15:50:59.38	244.51	30.22	-40.5	-41.8	20.4	0.00e+00	0	29	0	1032847360	52	7066
2026-01-12 15:51:00.39	244.34	30.05	-40.6	-42.0	20.2	0.00e+00	0	29	0	1034944512	54	6400
2026-01-12 15:51:01.40	244.17	29.88	-39.9	-41.1	20.9	0.00e+00	0	29	0	1035993088	54	5798
2026-01-12 15:51:02.41	244.00	29.71	-39.5	-40.7	21.5	0.00e+00	0	29	0	1038090240	52	6218
2026-01-12 15:51:03.42	243.83	29.55	-39.3	-40.4	21.6	0.00e+00	0	29	0	1040187392	52	6003
2026-01-12 15:51:04.43	243.67	29.38	-39.4	-40.5	21.6	0.00e+00	0	29	0	1042284544	52	6095
2026-01-12 15:51:05.44	243.51	29.21	-39.2	-40.3	21.7	0.00e+00	0	29	0	1044381696	52	5926
2026-01-12 15:51:06.45	243.35	29.05	-39.4	-40.6	21.4	0.00e+00	0	29	0	1046478848	52	6151
2026-01-12 15:51:07.46	243.19	28.89	-39.3	-40.5	21.5	0.00e+00	0	29	0	1047527424	52	6057
2026-01-12 15:51:08.47	243.03	28.72	-39.3	-40.5	21.6	0.00e+00	0	29	0	1049624576	52	6070
2026-01-12 15:51:09.47	242.87	28.56	-38.6	-39.7	22.1	0.00e+00	0	29	0	1051721728	50	6187
2026-01-12 15:51:10.48	242.72	28.40	-39.2	-40.3	21.7	0.00e+00	0	29	0	1053818880	50	6624
2026-01-12 15:51:11.49	242.57	28.24	-38.0	-38.9	22.8	0.00e+00	0	29	0	1055916032	50	5694
2026-01-12 15:51:12.50	242.42	28.08	-38.2	-39.2	22.5	0.00e+00	0	29	0	1056964608	50	5887
2026-01-12 15:51:13.51	242.27	27.92	-38.0	-39.0	22.7	0.00e+00	0	29	0	1059061760	50	5732
2026-01-12 15:51:14.52	242.12	27.76	-38.1	-39.1	22.6	0.00e+00	0	29	0	1061158912	50	5798
2026-01-12 15:51:15.53	241.97	27.60	-37.9	-38.9	22.8	0.00e+00	0	29	0	1063256064	50	5636
2026-01-12 15:51:16.54	241.83	27.44	-37.9	-38.9	22.8	0.00e+00	0	29	0	1065353216	50	5637
2026-01-12 15:51:17.55	241.68	27.29	-38.2	-39.2	22.6	0.00e+00	0	29	0	1066401792	50	5852
2026-01-12 15:51:18.56	241.54	27.13	-38.0	-39.0	22.6	0.00e+00	0	29	0	1068498944	50	5749
2026-01-12 15:51:19.57	241.40	26.97	-38.7	-39.8	22.1	0.00e+00	0	29	0	1070596096	50	6260
2026-01-12 15:51:20.58	241.26	26.82	-39.0	-40.1	21.7	0.00e+00	0	29	0	1072693248	50	6502
2026-01-12 15:51:21.59	241.12	26.66	-39.8	-41.1	20.9	0.00e+00	0	29	0	1074790400	52	6494
2026-01-12 15:51:22.60	240.99	26.51	-40.4	-41.7	20.4	0.00e+00	0	29	0	1075838976	52	6966
2026-01-12 15:51:23.61	240.85	26.36	-40.9	-42.3	19.9	0.00e+00	0	29	0	1077936128	54	6664
2026-01-12 15:51:24.61	240.72	26.21	-40.9	-42.3	19.7	0.00e+00	0	29	0	1080033280	54	6669
2026-01-12 15:51:25.63	240.58	26.05	-40.5	-41.8	20.1	0.00e+00	0	29	0	1082130432	54	6302
2026-01-12 15:51:26.63	240.45	25.90	-40.5	-41.8	20.3	0.00e+00	0	29	0	1084227584	54	6295
2026-01-12 15:51:27.64	240.32	25.75	-40.2	-41.4	20.6	0.00e+00	0	29	0	1085276160	54	6032
2026-01-12 15:51:28.65	240.19	25.60	-39.9	-41.2	21.0	0.00e+00	0	29	0	1087373312	54	5834
2026-01-12 15:51:29.66	240.07	25.46	-39.8	-41.0	21.0	0.00e+00	0	29	0	1089470464	52	6454
2026-01-12 15:51:30.67	239.94	25.31	-39.5	-40.7	21.1	0.00e+00	0	29	0	1091567616	52	6233
2026-01-12 15:51:31.68	239.81	25.16	-39.2	-40.4	21.6	0.00e+00	0	29	0	1093664768	52	5974
2026-01-12 15:51:32.69	239.69	25.01	-38.9	-40.0	21.9	0.00e+00	0	29	0	1094713344	52	5743
2026-01-12 15:51:33.70	239.57	24.87	-38.4	-39.4	22.4	0.00e+00	0	29	0	1096810496	50	5995
2026-01-12 15:51:34.71	239.44	24.72	-38.3	-39.3	22.4	0.00e+00	0	29	0	1098907648	50	5919
2026-01-12 15:51:35.72	239.32	24.58	-38.1	-39.1	22.5	0.00e+00	0	29	0	1101004800	50	5802
2026-01-12 15:51:36.73	239.20	24.43	-38.2	-39.2	22.5	0.00e+00	0	29	0	1103101952	50	5868
2026-01-12 15:51:37.74	239.09	24.29	-38.2	-39.2	22.5	0.00e+00	0	29	0	1104150528	50	5896
2026-01-12 15:51:38.75	238.97	24.15	-38.4	-39.5	22.2	0.00e+00	0	29	0	1106247680	50	6062
2026-01-12 15:51:39.76	238.85	24.00	-38.8	-40.0	21.9	0.00e+00	0	29	0	1108344832	50	6391
2026-01-12 15:51:40.77	238.74	23.86	-39.2	-40.3	21.3	0.00e+00	0	29	0	1110441984	50	6683
2026-01-12 15:51:41.78	238.62	23.72	-39.6	-40.9	21.2	0.00e+00	0	29	0	1112539136	50	7110
2026-01-12 15:51:42.79	238.51	23.58	-39.2	-40.4	21.5	0.00e+00	0	29	0	1114636288	50	6718
2026-01-12 15:51:43.79	238.40	23.44	-39.4	-40.5	21.4	0.00e+00	0	29	0	1115684864	50	6832
2026-01-12 15:51:44.80	238.29	23.30	-39.1	-40.2	21.8	0.00e+00	0	29	0	1117782016	50	6576
2026-01-12 15:51:45.81	238.18	23.16	-38.9	-39.9	22.0	0.00e+00	0	29	0	1119879168	50	6379
2026-01-12 15:51:46.82	238.07	23.03	-38.9	-40.0	21.9	0.00e+00	0	29	0	1121976320	50	6400
2026-01-12 15:51:47.83	237.96	22.89	-39.1	-40.2	21.8	0.00e+00	0	29	0	1123024896	50	6554
2026-01-12 15:51:48.84	237.85	22.75	-39.0	-40.1	21.7	0.00e+00	0	29	0	1125122048	50	6530
2026-01-12 15:51:49.85	237.75	22.62	-38.8	-39.8	22.0	0.00e+00	0	29	0	1127219200	50	6288
2026-01-12 15:51:50.86	237.64	22.48	-38.9	-39.9	21.9	0.00e+00	0	29	0	1129316352	50	6366
2026-01-12 15:51:51.87	237.54	22.35	-38.6	-39.7	22.1	0.00e+00	0	29	0	1131413504	50	6187
2026-01-12 15:51:52.88	237.43	22.21	-38.5	-39.5	22.3	0.00e+00	0	29	0	1132462080	50	6056
2026-01-12 15:51:53.89	237.33	22.08	-38.5	-39.6	22.3	0.00e+00	0	29	0	1134559232	50	6105
2026-01-12 15:51:54.90	237.23	21.95	-38.3	-39.3	22.3	0.00e+00	0	29	0	1136656384	50	5949
2026-01-12 15:51:55.90	237.13	21.81	-38.4	-39.4	22.2	0.00e+00	0	29	0	1138753536	50	5993
2026-01-12 15:51:56.91	237.03	21.68	-38.3	-39.3	22.4	0.00e+00	0	29	0	1140850688	50	5929
2026-01-12 15:51:57.93	236.93	21.55	-38.5	-39.6	22.1	0.00e+00	0	29	0	1142947840	50	6116
2026-01-12 15:51:58.94	236.83	21.42	-38.7	-39.8	22.0	0.00e+00	0	29	0	1143996416	50	6264
2026-01-12 15:51:59.95	236.74	21.29	-38.8	-39.9	21.9	0.00e+00	0	29	0	1146093568	50	6340
2026-01-12 15:52:00.96	236.64	21.16	-38.9	-40.0	21.9	0.00e+00	0	29	0	1148190720	50	6438
2026-01-12 15:52:01.96	236.55	21.03	-38.9	-40.0	21.8	0.00e+00	0	29	0	1150287872	50	6407
2026-01-12 15:52:02.97	236.45	20.90	-38.9	-40.0	21.9	0.00e+00	0	29	0	1152385024	50	6399
2026-01-12 15:52:03.98	236.36	20.78	-38.9	-40.0	21.8	0.00e+00	0	29	0	1153433600	50	6407
2026-01-12 15:52:04.99	236.26	20.65	-38.6	-39.7	22.1	0.00e+00	0	29	0	1155530752	50	6183
2026-01-12 15:52:06.00	236.17	20.52	-38.6	-39.6	22.2	0.00e+00	0	29	0	1157627904	50	6132
2026-01-12 15:52:07.01	236.08	20.40	-38.5	-39.5	22.3	0.00e+00	0	29	0	1159725056	50	6036
2026-01-12 15:52:08.02	235.99	20.27	-38.3	-39.3	22.4	0.00e+00	0	29	0	1161822208	50	5925
2026-01-12 15:52:09.03	235.90	20.15	-38.2	-39.1	22.6	0.00e+00	0	29	0	1162870784	50	5813
2026-01-12 15:52:10.04	235.81	20.02	-38.2	-39.2	22.5	0.00e+00	0	29	0	1164967936	50	5831
2026-01-12 15:52:11.05	235.72	19.90	-38.2	-39.1	22.4	0.00e+00	0	29	0	1167065088	50	5816
2026-01-12 15:52:12.06	235.63	19.77	-38.1	-39.0	22.6	0.00e+00	0	29	0	1169162240	50	5749
2026-01-12 15:52:13.07	235.55	19.65	-38.3	-39.3	22.5	0.00e+00	0	29	0	1171259392	50	5904
2026-01-12 15:52:14.07	235.46	19.53	-38.1	-39.1	22.6	0.00e+00	0	29	0	1172307968	50	5779
2026-01-12 15:52:15.08	235.37	19.41	-38.5	-39.5	22.3	0.00e+00	0	29	0	1174405120	50	6065
2026-01-12 15:52:16.09	235.29	19.29	-38.1	-39.1	22.5	0.00e+00	0	29	0	1176502272	50	5782
2026-01-12 15:52:17.10	235.21	19.17	-38.1	-39.1	22.4	0.00e+00	0	29	0	1178599424	50	5787
2026-01-12 15:52:18.11	235.12	19.05	-38.2	-39.2	22.6	0.00e+00	0	29	0	1180696576	50	5873
2026-01-12 15:52:19.12	235.04	18.93	-38.4	-39.4	22.3	0.00e+00	0	29	0	1181745152	50	5965
2026-01-12 15:52:20.13	234.96	18.81	-38.5	-39.5	22.2	0.00e+00	0	29	0	1183842304	50	6068
2026-01-12 15:52:21.14	234.88	18.69	-38.8	-39.9	21.9	0.00e+00	0	29	0	1185939456	50	6354
2026-01-12 15:52:22.15	234.79	18.57	-39.0	-40.1	21.8	0.00e+00	0	29	0	1188036608	50	6527
2026-01-12 15:52:23.16	234.71	18.45	-39.0	-40.1	21.7	0.00e+00	0	29	0	1190133760	50	6501
2026-01-12 15:52:24.17	234.63	18.34	-39.0	-40.1	21.8	0.00e+00	0	29	0	1191182336	50	6484
2026-01-12 15:52:25.18	234.56	18.22	-38.8	-39.9	21.9	0.00e+00	0	29	0	1193279488	50	6357
2026-01-12 15:52:26.19	234.48	18.10	-38.8	-39.8	21.9	0.00e+00	0	29	0	1195376640	50	6304
2026-01-12 15:52:27.20	234.40	17.99	-38.5	-39.6	22.1	0.00e+00	0	29	0	1197473792	50	6119
2026-01-12 15:52:28.21	234.32	17.87	-38.5	-39.5	22.2	0.00e+00	0	29	0	1199570944	50	6050
2026-01-12 15:52:29.22	234.25	17.76	-37.9	-38.9	22.6	0.00e+00	0	29	0	1200619520	50	5663
2026-01-12 15:52:30.23	234.17	17.64	-37.7	-38.6	22.9	0.00e+00	0	29	0	1202716672	48	6166
2026-01-12 15:52:31.24	234.09	17.53	-37.6	-38.5	22.9	0.00e+00	0	29	0	1204813824	48	6064
2026-01-12 15:52:32.25	234.02	17.42	-37.3	-38.2	23.2	0.00e+00	0	29	0	1206910976	48	5878
2026-01-12 15:52:33.26	233.95	17.30	-37.2	-38.1	23.3	0.00e+00	0	29	0	1209008128	48	5784
2026-01-12 15:52:34.27	233.87	17.19	-37.3	-38.2	23.3	0.00e+00	0	29	0	1211105280	48	5856
2026-01-12 15:52:35.27	233.80	17.08	-36.9	-37.7	23.6	0.00e+00	0	29	0	1212153856	48	5551
2026-01-12 15:52:36.28	233.73	16.97	-36.8	-37.7	23.6	0.00e+00	0	29	0	1214251008	48	5534
2026-01-12 15:52:37.29	233.65	16.86	-37.1	-38.0	23.3	0.00e+00	0	29	0	1216348160	48	5725
2026-01-12 15:52:38.30	233.58	16.75	-37.2	-38.1	23.3	0.00e+00	0	29	0	1218445312	48	5772
2026-01-12 15:52:39.31	233.51	16.64	-37.4	-38.3	23.0	0.00e+00	0	29	0	1220542464	48	5954
