passes_logs/2026/01/12/R4.6S_Anadyr/R4.6S_Anadyr__20260112_232627_NOAA_21_JPSS-2_rec.log

#Pass ID: 20260112_232627_NOAA 21 (JPSS-2)
#Satellite: NOAA 21 (JPSS-2)
#Configuration: NOAA-21
#almurnet v.1.7.20251203
#Start time: 2026-01-12 23:26:31

#Version: 2.2.20231116
#Station: R4.6S_Anadyr
#Location: 177.4865 lon 64.73178 lat
#TLE: 1 54234U 22150A   26012.26378519  .00000063  00000+0  50547-4 0  9993
#TLE: 2 54234  98.7495 313.1967 0000726 309.1075  51.0036 14.19534275164425

#Time	Az	El	Level	Level2	SNR	BER	BlckErr	Temp	State	Recorded	gain1	gain2
2026-01-12 23:26:31.48	137.12	0.26	-48.7	-50.2	5.7	0.00e+00	0	25	0	0	60	39849
2026-01-12 23:26:32.46	137.10	0.32	-48.7	-61.6	3.5	1.52e+00	0	26	104	0	60	42320
2026-01-12 23:26:33.43	137.08	0.38	-48.8	-61.6	3.5	1.52e+00	0	26	104	0	60	42265
2026-01-12 23:26:34.41	137.06	0.44	-48.7	-61.6	3.5	1.52e+00	0	27	104	0	60	42271
2026-01-12 23:26:35.39	137.05	0.50	-48.7	-61.6	3.5	1.51e+00	0	26	104	0	60	42058
2026-01-12 23:26:36.37	137.03	0.56	-48.7	-61.5	3.5	1.52e+00	0	26	104	0	60	41723
2026-01-12 23:26:37.35	137.01	0.61	-48.0	-61.4	3.5	1.51e+00	0	26	104	0	60	41440
2026-01-12 23:26:38.32	136.99	0.67	-48.5	-61.3	3.5	1.52e+00	0	26	104	0	60	40931
2026-01-12 23:26:39.30	136.97	0.73	-48.4	-61.3	3.5	1.52e+00	0	26	104	0	60	40609
2026-01-12 23:26:40.27	136.95	0.79	-48.1	-61.1	3.6	1.52e+00	0	27	104	0	60	39988
2026-01-12 23:26:41.25	136.94	0.85	-48.1	-60.9	3.5	1.52e+00	0	27	104	0	60	38985
2026-01-12 23:26:42.22	136.92	0.91	-47.9	-60.7	3.5	1.52e+00	0	27	104	0	60	38130
2026-01-12 23:26:43.20	136.90	0.97	-47.6	-60.4	3.5	1.52e+00	0	27	104	0	60	36573
2026-01-12 23:26:44.18	136.88	1.03	-47.2	-59.9	3.5	1.52e+00	0	27	104	0	60	34881
2026-01-12 23:26:45.16	136.86	1.09	-46.9	-60.0	3.5	1.52e+00	0	27	104	0	60	34957
2026-01-12 23:26:46.13	136.84	1.15	-46.9	-60.0	3.5	1.52e+00	0	27	104	0	60	35094
2026-01-12 23:26:47.11	136.82	1.21	-46.9	-60.0	3.5	1.52e+00	0	27	104	0	60	34962
2026-01-12 23:26:48.08	136.80	1.27	-46.9	-59.9	3.5	1.52e+00	0	27	104	0	60	34871
2026-01-12 23:26:49.06	136.78	1.33	-46.9	-59.9	3.5	1.51e+00	0	27	104	0	60	34697
2026-01-12 23:26:50.04	136.76	1.39	-46.9	-59.9	3.5	1.52e+00	0	27	104	0	60	34638
2026-01-12 23:26:51.01	136.74	1.45	-46.9	-59.9	3.5	1.52e+00	0	27	104	0	60	34670
2026-01-12 23:26:51.99	136.72	1.52	-46.9	-59.9	3.5	1.52e+00	0	27	104	0	60	34865
2026-01-12 23:26:52.96	136.71	1.58	-46.9	-60.0	3.5	1.52e+00	0	27	104	0	60	35115
2026-01-12 23:26:53.94	136.69	1.64	-46.9	-59.9	3.5	1.52e+00	0	27	104	0	60	34869
2026-01-12 23:26:54.92	136.67	1.70	-46.9	-59.9	3.5	1.52e+00	0	27	104	0	60	34832
2026-01-12 23:26:55.90	136.65	1.76	-46.9	-59.9	3.5	1.52e+00	0	27	104	0	60	34554
2026-01-12 23:26:56.88	136.63	1.82	-46.9	-59.8	3.5	1.52e+00	0	27	104	0	60	34197
2026-01-12 23:26:57.85	136.61	1.88	-46.9	-59.7	3.5	1.51e+00	0	27	104	0	60	33977
2026-01-12 23:26:58.83	136.59	1.95	-46.9	-59.7	3.5	1.52e+00	0	27	104	0	60	33849
2026-01-12 23:26:59.81	136.56	2.01	-46.9	-59.7	3.5	1.52e+00	0	27	104	0	60	33985
2026-01-12 23:27:00.79	136.54	2.07	-46.9	-59.7	3.5	1.51e+00	0	27	104	0	60	34080
2026-01-12 23:27:01.77	136.52	2.13	-46.9	-59.9	3.5	1.52e+00	0	27	104	0	60	34543
2026-01-12 23:27:02.75	136.50	2.20	-46.9	-59.9	3.5	1.51e+00	0	27	104	0	60	34768
2026-01-12 23:27:03.72	136.48	2.26	-46.9	-60.0	3.5	1.52e+00	0	27	104	0	60	34940
2026-01-12 23:27:04.70	136.46	2.32	-46.9	-59.9	3.5	1.52e+00	0	27	104	0	60	34842
2026-01-12 23:27:05.67	136.44	2.38	-46.9	-59.8	3.5	1.52e+00	0	27	104	0	60	34454
2026-01-12 23:27:06.65	136.42	2.45	-46.8	-59.7	3.5	1.52e+00	0	27	104	0	60	34004
2026-01-12 23:27:07.63	136.40	2.51	-46.8	-59.6	3.5	1.52e+00	0	27	104	0	60	33615
2026-01-12 23:27:08.60	136.38	2.57	-46.9	-59.4	3.5	1.52e+00	0	27	104	0	60	32918
2026-01-12 23:27:09.57	136.36	2.63	-46.8	-59.2	3.5	1.52e+00	0	27	104	0	60	31961
2026-01-12 23:27:10.55	136.33	2.70	-46.8	-59.0	3.5	1.51e+00	0	27	104	0	60	31371
2026-01-12 23:27:11.52	136.31	2.76	-46.8	-59.0	3.5	1.52e+00	0	27	104	0	60	31262
2026-01-12 23:27:12.50	136.29	2.83	-46.8	-58.7	3.5	1.52e+00	0	27	104	0	60	30370
2026-01-12 23:27:13.48	136.27	2.89	-46.8	-59.0	3.5	1.51e+00	0	27	104	0	60	31411
2026-01-12 23:27:14.45	136.25	2.95	-46.9	-59.6	3.5	1.52e+00	0	27	104	0	60	33371
2026-01-12 23:27:15.42	136.23	3.02	-46.9	-59.9	3.5	1.52e+00	0	27	104	0	60	34516
2026-01-12 23:27:16.40	136.20	3.08	-46.8	-59.1	3.5	1.52e+00	0	27	104	0	60	31530
2026-01-12 23:27:17.38	136.18	3.15	-46.6	-56.8	4.1	1.49e+00	0	27	104	0	60	24208
2026-01-12 23:27:18.35	136.16	3.21	-46.1	-53.5	6.1	4.77e-01	0	27	104	0	60	16681
2026-01-12 23:27:19.32	136.14	3.27	-45.5	-50.5	8.4	8.01e-02	0	27	0	2097152	60	11777
2026-01-12 23:27:20.30	136.11	3.34	-44.4	-48.0	11.0	8.67e-03	0	27	0	5242880	60	8837
2026-01-12 23:27:21.28	136.09	3.40	-43.6	-46.6	12.5	2.84e-04	0	27	0	8388608	60	7543
2026-01-12 23:27:22.26	136.07	3.47	-42.5	-45.0	14.1	2.20e-06	0	27	0	11534336	58	6992
2026-01-12 23:27:23.24	136.05	3.54	-41.9	-44.0	15.3	2.20e-06	0	27	0	13631488	58	6265
2026-01-12 23:27:24.22	136.02	3.60	-41.5	-43.5	15.7	0.00e+00	0	27	0	16777216	56	6631
2026-01-12 23:27:25.19	136.00	3.67	-41.0	-42.9	16.3	0.00e+00	0	27	0	19922944	56	6184
2026-01-12 23:27:26.17	135.98	3.73	-41.1	-43.0	16.1	0.00e+00	0	27	0	23068672	56	6268
2026-01-12 23:27:27.15	135.95	3.80	-47.4	-60.5	3.5	1.52e+00	0	27	104	24117248	60	37042
2026-01-12 23:27:28.12	135.93	3.86	-46.4	-54.2	4.2	1.51e+00	0	27	104	24117248	60	17961
2026-01-12 23:27:29.10	135.91	3.93	-45.4	-54.6	5.7	3.58e-01	0	27	104	24117248	60	18918
2026-01-12 23:27:30.08	135.88	4.00	-37.9	-39.2	19.9	0.00e+00	0	27	0	26214400	50	5691
2026-01-12 23:27:31.06	135.86	4.06	-46.2	-59.6	3.5	9.40e-01	0	27	104	28311552	60	33688
2026-01-12 23:27:32.04	135.83	4.13	-37.9	-39.5	19.0	1.40e+00	0	27	104	28311552	50	5887
2026-01-12 23:27:33.02	135.81	4.20	-37.7	-38.9	20.1	0.00e+00	0	27	0	29360128	48	6192
2026-01-12 23:27:33.99	135.79	4.27	-37.7	-39.0	20.1	0.00e+00	0	27	0	32505856	48	6245
2026-01-12 23:27:34.97	135.76	4.33	-37.8	-39.1	20.0	0.00e+00	0	27	0	35651584	48	6284
2026-01-12 23:27:35.95	135.74	4.40	-37.6	-38.8	20.3	0.00e+00	0	27	0	38797312	48	6107
2026-01-12 23:27:36.93	135.71	4.47	-37.6	-38.8	20.3	0.00e+00	0	27	0	40894464	48	6076
2026-01-12 23:27:37.90	135.69	4.54	-37.6	-38.8	20.3	0.00e+00	0	27	0	44040192	48	6123
2026-01-12 23:27:38.88	135.66	4.60	-37.6	-38.8	20.3	0.00e+00	0	27	0	47185920	48	6117
2026-01-12 23:27:39.85	135.64	4.67	-37.6	-38.8	20.4	0.00e+00	0	27	0	50331648	48	6078
2026-01-12 23:27:40.83	135.61	4.74	-37.6	-38.8	20.2	0.00e+00	0	27	0	53477376	48	6127
2026-01-12 23:27:41.81	135.59	4.81	-37.5	-38.7	20.4	0.00e+00	0	27	0	56623104	48	6046
2026-01-12 23:27:42.79	135.56	4.88	-37.5	-38.8	20.4	0.00e+00	0	27	0	59768832	48	6070
2026-01-12 23:27:43.76	135.54	4.94	-37.4	-38.6	20.6	0.00e+00	0	27	0	62914560	48	5933
2026-01-12 23:27:44.74	135.51	5.01	-37.3	-38.5	20.7	0.00e+00	0	27	0	66060288	48	5909
2026-01-12 23:27:45.72	135.49	5.08	-37.3	-38.5	20.7	0.00e+00	0	27	0	69206016	48	5890
2026-01-12 23:27:46.69	135.46	5.15	-37.4	-38.6	20.5	0.00e+00	0	27	0	71303168	48	5969
2026-01-12 23:27:47.67	135.43	5.22	-37.4	-38.6	20.5	0.00e+00	0	27	0	74448896	48	5979
2026-01-12 23:27:48.65	135.41	5.29	-37.3	-38.5	20.6	0.00e+00	0	27	0	77594624	48	5880
2026-01-12 23:27:49.63	135.38	5.36	-37.3	-38.4	20.8	0.00e+00	0	27	0	80740352	48	5836
2026-01-12 23:27:50.61	135.35	5.43	-37.2	-38.4	20.8	0.00e+00	0	27	0	83886080	48	5805
2026-01-12 23:27:51.58	135.33	5.50	-37.3	-38.5	20.8	0.00e+00	0	27	0	87031808	48	5859
2026-01-12 23:27:52.56	135.30	5.57	-37.2	-38.3	21.0	0.00e+00	0	27	0	90177536	48	5782
2026-01-12 23:27:53.53	135.27	5.64	-37.3	-38.4	20.9	0.00e+00	0	27	0	93323264	48	5847
2026-01-12 23:27:54.50	135.25	5.71	-37.1	-38.3	20.9	0.00e+00	0	27	0	96468992	48	5756
2026-01-12 23:27:55.48	135.22	5.78	-37.1	-38.2	21.0	0.00e+00	0	27	0	99614720	48	5724
2026-01-12 23:27:56.46	135.19	5.85	-37.1	-38.2	21.0	0.00e+00	0	27	0	102760448	48	5701
2026-01-12 23:27:57.43	135.17	5.93	-37.0	-38.1	21.1	0.00e+00	0	27	0	105906176	48	5637
2026-01-12 23:27:58.41	135.14	6.00	-37.0	-38.1	21.1	0.00e+00	0	27	0	108003328	48	5638
2026-01-12 23:27:59.38	135.11	6.07	-37.0	-38.1	21.1	0.00e+00	0	27	0	111149056	48	5653
2026-01-12 23:28:00.36	135.08	6.14	-37.0	-38.1	21.2	0.00e+00	0	27	0	114294784	48	5618
2026-01-12 23:28:01.34	135.05	6.21	-37.0	-38.1	21.2	0.00e+00	0	27	0	117440512	48	5601
2026-01-12 23:28:02.32	135.03	6.28	-37.0	-38.1	21.2	0.00e+00	0	27	0	120586240	48	5615
2026-01-12 23:28:03.29	135.00	6.36	-37.0	-38.1	21.2	0.00e+00	0	27	0	123731968	48	5655
2026-01-12 23:28:04.27	134.97	6.43	-36.9	-37.9	21.4	0.00e+00	0	27	0	126877696	48	5528
2026-01-12 23:28:05.24	134.94	6.50	-36.9	-38.0	21.3	0.00e+00	0	27	0	130023424	48	5550
2026-01-12 23:28:06.22	134.91	6.57	-36.9	-38.0	21.3	0.00e+00	0	27	0	133169152	48	5535
2026-01-12 23:28:07.20	134.88	6.65	-37.0	-38.1	21.3	0.00e+00	0	27	0	136314880	48	5625
2026-01-12 23:28:08.17	134.85	6.72	-36.8	-37.9	21.5	0.00e+00	0	27	0	139460608	46	6137
2026-01-12 23:28:09.15	134.82	6.79	-36.8	-37.9	21.5	0.00e+00	0	27	0	141557760	46	6180
2026-01-12 23:28:10.12	134.80	6.87	-36.7	-37.8	21.5	0.00e+00	0	27	0	144703488	46	6097
2026-01-12 23:28:11.09	134.77	6.94	-36.7	-37.8	21.5	0.00e+00	0	27	0	147849216	46	6122
2026-01-12 23:28:12.07	134.74	7.02	-36.5	-37.6	21.7	0.00e+00	0	27	0	150994944	46	5955
2026-01-12 23:28:13.05	134.71	7.09	-36.6	-37.6	21.7	0.00e+00	0	27	0	154140672	46	5993
2026-01-12 23:28:14.03	134.68	7.17	-36.6	-37.6	21.6	0.00e+00	0	27	0	157286400	46	5989
2026-01-12 23:28:15.00	134.65	7.24	-36.6	-37.7	21.7	0.00e+00	0	27	0	160432128	46	6031
2026-01-12 23:28:15.98	134.62	7.32	-36.3	-37.4	21.8	0.00e+00	0	27	0	163577856	46	5851
2026-01-12 23:28:16.95	134.58	7.39	-36.4	-37.5	21.8	0.00e+00	0	27	0	166723584	46	5910
2026-01-12 23:28:17.93	134.55	7.47	-36.4	-37.6	21.9	0.00e+00	0	27	0	169869312	46	5938
2026-01-12 23:28:18.91	134.52	7.54	-36.3	-37.4	22.0	0.00e+00	0	27	0	173015040	46	5840
2026-01-12 23:28:19.88	134.49	7.62	-36.2	-37.3	22.0	0.00e+00	0	27	0	175112192	46	5771
2026-01-12 23:28:20.87	134.46	7.69	-36.1	-37.3	22.1	0.00e+00	0	27	0	178257920	46	5759
2026-01-12 23:28:21.84	134.43	7.77	-36.1	-37.3	22.1	0.00e+00	0	27	0	181403648	46	5733
2026-01-12 23:28:22.81	134.40	7.85	-36.0	-37.2	22.2	0.00e+00	0	27	0	184549376	46	5672
2026-01-12 23:28:23.79	134.37	7.92	-36.0	-37.1	22.2	0.00e+00	0	27	0	187695104	46	5621
2026-01-12 23:28:24.77	134.33	8.00	-36.0	-37.1	22.2	0.00e+00	0	27	0	190840832	46	5623
2026-01-12 23:28:25.75	134.30	8.08	-36.1	-37.2	22.2	0.00e+00	0	27	0	193986560	46	5682
2026-01-12 23:28:26.72	134.27	8.15	-36.1	-37.1	22.2	0.00e+00	0	27	0	197132288	46	5647
2026-01-12 23:28:27.70	134.24	8.23	-36.0	-37.1	22.3	0.00e+00	0	27	0	200278016	46	5622
2026-01-12 23:28:28.67	134.20	8.31	-36.1	-37.1	22.3	0.00e+00	0	27	0	203423744	46	5647
2026-01-12 23:28:29.65	134.17	8.39	-36.0	-37.0	22.3	0.00e+00	0	27	0	206569472	46	5573
2026-01-12 23:28:30.63	134.14	8.47	-35.9	-36.9	22.5	0.00e+00	0	27	0	208666624	46	5472
2026-01-12 23:28:31.61	134.10	8.55	-35.9	-36.9	22.5	0.00e+00	0	27	0	211812352	46	5500
2026-01-12 23:28:32.58	134.07	8.62	-35.7	-36.7	22.5	0.00e+00	0	27	0	214958080	44	6064
2026-01-12 23:28:33.56	134.04	8.70	-35.7	-36.7	22.6	0.00e+00	0	27	0	218103808	44	6052
2026-01-12 23:28:34.53	134.00	8.78	-35.7	-36.7	22.6	0.00e+00	0	27	0	221249536	44	6010
2026-01-12 23:28:35.51	133.97	8.86	-35.8	-36.7	22.6	0.00e+00	0	27	0	224395264	44	6059
2026-01-12 23:28:36.49	133.93	8.94	-35.7	-36.7	22.6	0.00e+00	0	27	0	227540992	44	6026
2026-01-12 23:28:37.46	133.90	9.02	-35.6	-36.6	22.7	0.00e+00	0	27	0	230686720	44	5963
2026-01-12 23:28:38.44	133.86	9.10	-35.6	-36.6	22.7	0.00e+00	0	27	0	233832448	44	5976
2026-01-12 23:28:39.42	133.83	9.18	-35.5	-36.5	22.8	0.00e+00	0	27	0	236978176	44	5876
2026-01-12 23:28:40.40	133.79	9.26	-35.5	-36.6	22.8	0.00e+00	0	27	0	240123904	44	5935
2026-01-12 23:28:41.38	133.76	9.34	-35.5	-36.6	22.7	0.00e+00	0	27	0	242221056	44	5942
2026-01-12 23:28:42.35	133.72	9.43	-35.5	-36.6	22.7	0.00e+00	0	27	0	245366784	44	5935
2026-01-12 23:28:43.33	133.69	9.51	-35.4	-36.4	22.9	0.00e+00	0	27	0	248512512	44	5809
2026-01-12 23:28:44.30	133.65	9.59	-35.4	-36.4	22.9	0.00e+00	0	27	0	251658240	44	5842
2026-01-12 23:28:45.28	133.61	9.67	-35.3	-36.2	23.0	0.00e+00	0	27	0	254803968	44	5719
2026-01-12 23:28:46.26	133.58	9.75	-35.4	-36.4	22.9	0.00e+00	0	27	0	257949696	44	5812
2026-01-12 23:28:47.24	133.54	9.84	-35.3	-36.3	23.0	0.00e+00	0	27	0	261095424	44	5740
2026-01-12 23:28:48.21	133.50	9.92	-35.2	-36.2	23.0	0.00e+00	0	27	0	264241152	44	5708
2026-01-12 23:28:49.19	133.47	10.00	-35.1	-36.1	23.2	0.00e+00	0	27	0	267386880	44	5606
2026-01-12 23:28:50.17	133.43	10.09	-35.1	-36.1	23.2	0.00e+00	0	27	0	270532608	44	5624
2026-01-12 23:28:51.14	133.39	10.17	-35.1	-36.1	23.2	0.00e+00	0	27	0	273678336	44	5621
2026-01-12 23:28:52.12	133.35	10.25	-35.2	-36.2	23.1	0.00e+00	0	27	0	276824064	44	5675
2026-01-12 23:28:53.09	133.32	10.34	-35.3	-36.3	23.0	0.00e+00	0	27	0	278921216	44	5726
2026-01-12 23:28:54.07	133.28	10.42	-35.1	-36.0	23.2	0.00e+00	0	27	0	282066944	44	5574
2026-01-12 23:28:55.04	133.24	10.50	-35.1	-36.0	23.2	0.00e+00	0	27	0	285212672	44	5591
2026-01-12 23:28:56.02	133.20	10.59	-34.9	-35.9	23.4	0.00e+00	0	27	0	288358400	44	5476
2026-01-12 23:28:57.00	133.16	10.68	-35.0	-36.0	23.2	0.00e+00	0	27	0	291504128	44	5563
2026-01-12 23:28:57.97	133.12	10.76	-34.9	-35.9	23.4	0.00e+00	0	27	0	294649856	44	5478
2026-01-12 23:28:58.95	133.08	10.85	-35.0	-36.0	23.2	0.00e+00	0	27	0	297795584	44	5544
2026-01-12 23:28:59.93	133.04	10.93	-35.1	-36.1	23.2	0.00e+00	0	27	0	300941312	44	5624
2026-01-12 23:29:00.90	133.00	11.02	-34.9	-35.8	23.3	0.00e+00	0	28	0	304087040	44	5465
2026-01-12 23:29:01.88	132.96	11.11	-34.9	-35.8	23.4	0.00e+00	0	27	0	307232768	44	5465
2026-01-12 23:29:02.86	132.92	11.19	-34.8	-35.7	23.5	0.00e+00	0	27	0	310378496	44	5371
2026-01-12 23:29:03.84	132.88	11.28	-34.9	-35.8	23.4	0.00e+00	0	27	0	312475648	44	5445
2026-01-12 23:29:04.82	132.84	11.37	-34.7	-35.7	23.5	0.00e+00	0	27	0	315621376	44	5366
2026-01-12 23:29:05.80	132.80	11.46	-34.8	-35.8	23.5	0.00e+00	0	27	0	318767104	42	6077
2026-01-12 23:29:06.78	132.76	11.55	-34.8	-35.8	23.5	0.00e+00	0	27	0	321912832	42	6072
2026-01-12 23:29:07.76	132.71	11.63	-34.8	-35.8	23.5	0.00e+00	0	27	0	325058560	42	6079
2026-01-12 23:29:08.73	132.67	11.72	-34.7	-35.7	23.5	0.00e+00	0	27	0	328204288	42	6008
2026-01-12 23:29:09.71	132.63	11.81	-34.8	-35.7	23.5	0.00e+00	0	27	0	331350016	42	6036
2026-01-12 23:29:10.68	132.59	11.90	-34.7	-35.6	23.6	0.00e+00	0	27	0	334495744	42	5975
2026-01-12 23:29:11.65	132.54	11.99	-34.7	-35.6	23.5	0.00e+00	0	27	0	337641472	42	5986
2026-01-12 23:29:12.63	132.50	12.08	-34.8	-35.8	23.5	0.00e+00	0	27	0	340787200	42	6070
2026-01-12 23:29:13.61	132.46	12.17	-34.7	-35.6	23.6	0.00e+00	0	27	0	343932928	42	5981
2026-01-12 23:29:14.59	132.41	12.26	-34.7	-35.7	23.5	0.00e+00	0	28	0	346030080	42	6043
2026-01-12 23:29:15.56	132.37	12.35	-34.7	-35.6	23.6	0.00e+00	0	27	0	349175808	42	5990
2026-01-12 23:29:16.54	132.32	12.44	-34.7	-35.6	23.6	0.00e+00	0	27	0	352321536	42	5976
2026-01-12 23:29:17.52	132.28	12.54	-34.6	-35.6	23.6	0.00e+00	0	27	0	355467264	42	5963
2026-01-12 23:29:18.50	132.23	12.63	-34.6	-35.6	23.6	0.00e+00	0	27	0	358612992	42	5945
2026-01-12 23:29:19.47	132.19	12.72	-34.7	-35.6	23.6	0.00e+00	0	27	0	361758720	42	5975
2026-01-12 23:29:20.45	132.14	12.81	-34.7	-35.6	23.6	0.00e+00	0	27	0	364904448	42	5952
2026-01-12 23:29:21.43	132.10	12.91	-34.7	-35.6	23.6	0.00e+00	0	27	0	368050176	42	5983
2026-01-12 23:29:22.40	132.05	13.00	-34.7	-35.7	23.5	0.00e+00	0	27	0	371195904	42	6015
2026-01-12 23:29:23.38	132.00	13.09	-34.8	-35.7	23.5	0.00e+00	0	27	0	374341632	42	6059
2026-01-12 23:29:24.35	131.96	13.19	-34.6	-35.6	23.7	0.00e+00	0	27	0	377487360	42	5955
2026-01-12 23:29:25.33	131.91	13.28	-34.7	-35.7	23.6	0.00e+00	0	27	0	379584512	42	5995
2026-01-12 23:29:26.31	131.86	13.38	-34.7	-35.6	23.6	0.00e+00	0	27	0	382730240	42	5978
2026-01-12 23:29:27.29	131.81	13.47	-34.7	-35.7	23.6	0.00e+00	0	28	0	385875968	42	6021
2026-01-12 23:29:28.26	131.77	13.57	-34.6	-35.6	23.7	0.00e+00	0	28	0	389021696	42	5945
2026-01-12 23:29:29.24	131.72	13.66	-34.7	-35.7	23.7	0.00e+00	0	27	0	392167424	42	6002
2026-01-12 23:29:30.21	131.67	13.76	-34.6	-35.6	23.8	0.00e+00	0	27	0	395313152	42	5943
2026-01-12 23:29:31.19	131.62	13.85	-34.7	-35.7	23.7	0.00e+00	0	27	0	398458880	42	5997
2026-01-12 23:29:32.17	131.57	13.95	-34.6	-35.6	23.9	0.00e+00	0	28	0	401604608	42	5929
2026-01-12 23:29:33.14	131.52	14.05	-34.7	-35.6	23.7	0.00e+00	0	28	0	404750336	42	5967
2026-01-12 23:29:34.12	131.47	14.14	-34.6	-35.5	23.9	0.00e+00	0	27	0	407896064	42	5901
2026-01-12 23:29:35.09	131.42	14.24	-34.6	-35.6	23.8	0.00e+00	0	28	0	411041792	42	5944
2026-01-12 23:29:36.07	131.37	14.34	-34.6	-35.5	23.8	0.00e+00	0	28	0	414187520	42	5925
2026-01-12 23:29:37.04	131.32	14.44	-34.6	-35.6	23.8	0.00e+00	0	27	0	416284672	42	5964
2026-01-12 23:29:38.02	131.27	14.54	-34.7	-35.7	23.8	0.00e+00	0	28	0	419430400	42	5998
2026-01-12 23:29:38.99	131.22	14.64	-34.7	-35.6	23.8	0.00e+00	0	27	0	422576128	42	5985
2026-01-12 23:29:39.97	131.16	14.74	-34.6	-35.5	23.9	0.00e+00	0	27	0	425721856	42	5919
2026-01-12 23:29:40.95	131.11	14.84	-34.8	-35.7	23.7	0.00e+00	0	27	0	428867584	42	6049
2026-01-12 23:29:41.93	131.06	14.94	-34.5	-35.5	23.9	0.00e+00	0	28	0	432013312	42	5867
2026-01-12 23:29:42.91	131.00	15.04	-34.5	-35.4	23.9	0.00e+00	0	28	0	435159040	42	5851
2026-01-12 23:29:43.88	130.95	15.14	-34.6	-35.5	23.9	0.00e+00	0	28	0	438304768	42	5894
2026-01-12 23:29:44.85	130.90	15.24	-34.6	-35.6	23.8	0.00e+00	0	28	0	441450496	42	5936
2026-01-12 23:29:45.83	130.84	15.34	-34.4	-35.3	24.0	0.00e+00	0	28	0	444596224	42	5789
2026-01-12 23:29:46.81	130.79	15.45	-34.6	-35.5	23.9	0.00e+00	0	28	0	447741952	42	5896
2026-01-12 23:29:47.79	130.73	15.55	-34.6	-35.5	23.9	0.00e+00	0	28	0	449839104	42	5879
2026-01-12 23:29:48.76	130.67	15.65	-34.6	-35.6	23.9	0.00e+00	0	28	0	452984832	42	5940
2026-01-12 23:29:49.73	130.62	15.75	-34.5	-35.4	24.0	0.00e+00	0	28	0	456130560	42	5827
2026-01-12 23:29:50.71	130.56	15.86	-34.5	-35.4	24.0	0.00e+00	0	28	0	459276288	42	5854
2026-01-12 23:29:51.69	130.50	15.96	-34.4	-35.3	24.1	0.00e+00	0	27	0	462422016	42	5747
2026-01-12 23:29:52.67	130.45	16.07	-34.4	-35.3	24.0	0.00e+00	0	27	0	465567744	42	5774
2026-01-12 23:29:53.64	130.39	16.17	-34.5	-35.5	23.9	0.00e+00	0	27	0	468713472	42	5866
2026-01-12 23:29:54.63	130.33	16.28	-34.6	-35.5	24.0	0.00e+00	0	28	0	471859200	42	5909
2026-01-12 23:29:55.60	130.27	16.39	-34.5	-35.4	24.0	0.00e+00	0	28	0	475004928	42	5841
2026-01-12 23:29:56.58	130.21	16.49	-34.4	-35.4	23.9	0.00e+00	0	27	0	478150656	42	5812
2026-01-12 23:29:57.56	130.15	16.60	-34.5	-35.5	24.0	0.00e+00	0	27	0	481296384	42	5870
2026-01-12 23:29:58.53	130.09	16.71	-34.5	-35.5	23.9	0.00e+00	0	28	0	483393536	42	5865
2026-01-12 23:29:59.50	130.03	16.82	-34.5	-35.5	23.9	0.00e+00	0	27	0	486539264	42	5860
2026-01-12 23:30:00.49	129.97	16.93	-34.6	-35.5	23.9	0.00e+00	0	28	0	489684992	42	5920
2026-01-12 23:30:01.46	129.91	17.03	-34.6	-35.6	23.9	0.00e+00	0	27	0	492830720	42	5942
2026-01-12 23:30:02.44	129.85	17.14	-34.6	-35.6	23.7	0.00e+00	0	28	0	495976448	42	5982
2026-01-12 23:30:03.42	129.78	17.25	-34.7	-35.7	23.8	0.00e+00	0	27	0	499122176	42	6059
2026-01-12 23:30:04.40	129.72	17.36	-34.8	-35.8	23.8	0.00e+00	0	27	0	502267904	42	6073
2026-01-12 23:30:05.37	129.66	17.47	-34.7	-35.7	23.7	0.00e+00	0	27	0	505413632	42	6051
2026-01-12 23:30:06.35	129.59	17.59	-34.7	-35.7	23.8	0.00e+00	0	27	0	508559360	42	6015
2026-01-12 23:30:07.33	129.53	17.70	-34.8	-35.8	23.7	0.00e+00	0	27	0	511705088	42	6082
2026-01-12 23:30:08.31	129.46	17.81	-34.8	-35.7	23.8	0.00e+00	0	27	0	514850816	42	6049
2026-01-12 23:30:09.28	129.40	17.92	-34.8	-35.8	23.7	0.00e+00	0	27	0	516947968	42	6095
2026-01-12 23:30:10.25	129.33	18.03	-34.8	-35.8	23.8	0.00e+00	0	27	0	520093696	42	6103
2026-01-12 23:30:11.23	129.27	18.15	-34.9	-35.8	23.7	0.00e+00	0	28	0	523239424	42	6098
2026-01-12 23:30:12.21	129.20	18.26	-34.8	-35.7	23.8	0.00e+00	0	28	0	526385152	42	6041
2026-01-12 23:30:13.19	129.13	18.38	-34.7	-35.6	23.9	0.00e+00	0	28	0	529530880	42	5957
2026-01-12 23:30:14.16	129.07	18.49	-34.8	-35.8	23.9	0.00e+00	0	28	0	532676608	42	6090
2026-01-12 23:30:15.14	129.00	18.61	-34.7	-35.6	23.9	0.00e+00	0	28	0	535822336	42	5981
2026-01-12 23:30:16.12	128.93	18.72	-34.7	-35.6	23.9	0.00e+00	0	28	0	538968064	42	5950
2026-01-12 23:30:17.09	128.86	18.84	-34.6	-35.5	24.0	0.00e+00	0	27	0	542113792	42	5901
2026-01-12 23:30:18.07	128.79	18.96	-34.6	-35.6	24.0	0.00e+00	0	27	0	545259520	42	5942
2026-01-12 23:30:19.05	128.72	19.07	-34.6	-35.6	24.0	0.00e+00	0	27	0	548405248	42	5941
2026-01-12 23:30:20.02	128.65	19.19	-34.5	-35.4	24.0	0.00e+00	0	27	0	550502400	42	5843
2026-01-12 23:30:21.00	128.57	19.31	-34.5	-35.4	24.0	0.00e+00	0	27	0	553648128	42	5825
2026-01-12 23:30:21.98	128.50	19.43	-34.6	-35.5	24.0	0.00e+00	0	27	0	556793856	42	5889
2026-01-12 23:30:22.95	128.43	19.55	-34.5	-35.5	24.0	0.00e+00	0	27	0	559939584	42	5870
2026-01-12 23:30:23.93	128.36	19.67	-34.3	-35.2	24.2	0.00e+00	0	27	0	563085312	42	5705
2026-01-12 23:30:24.91	128.28	19.79	-34.5	-35.4	24.1	0.00e+00	0	28	0	566231040	42	5810
2026-01-12 23:30:25.88	128.21	19.91	-34.2	-35.1	24.2	0.00e+00	0	27	0	569376768	42	5640
2026-01-12 23:30:26.86	128.13	20.03	-34.3	-35.2	24.1	0.00e+00	0	27	0	572522496	42	5705
2026-01-12 23:30:27.83	128.06	20.15	-34.1	-35.0	24.3	0.00e+00	0	27	0	575668224	42	5575
2026-01-12 23:30:28.80	127.98	20.28	-34.1	-35.0	24.2	0.00e+00	0	27	0	578813952	42	5552
2026-01-12 23:30:29.78	127.90	20.40	-34.0	-34.9	24.3	0.00e+00	0	28	0	581959680	42	5518
2026-01-12 23:30:30.76	127.82	20.52	-34.0	-34.9	24.3	0.00e+00	0	27	0	585105408	42	5489
2026-01-12 23:30:31.73	127.74	20.65	-34.0	-34.9	24.3	0.00e+00	0	27	0	587202560	42	5517
2026-01-12 23:30:32.71	127.67	20.77	-33.8	-34.7	24.4	0.00e+00	0	28	0	590348288	42	5382
2026-01-12 23:30:33.69	127.59	20.90	-33.8	-34.7	24.5	0.00e+00	0	28	0	593494016	42	5363
2026-01-12 23:30:34.67	127.50	21.03	-34.0	-34.9	24.4	0.00e+00	0	28	0	596639744	42	5492
2026-01-12 23:30:35.64	127.42	21.15	-33.7	-34.6	24.5	0.00e+00	0	28	0	599785472	40	5951
2026-01-12 23:30:36.61	127.34	21.28	-33.6	-34.6	24.6	0.00e+00	0	27	0	602931200	40	5930
2026-01-12 23:30:37.59	127.26	21.41	-33.4	-34.3	24.7	0.00e+00	0	28	0	606076928	40	5782
2026-01-12 23:30:38.57	127.18	21.54	-33.4	-34.3	24.8	0.00e+00	0	28	0	609222656	40	5770
2026-01-12 23:30:39.55	127.09	21.66	-33.2	-34.2	24.9	0.00e+00	0	28	0	612368384	40	5669
2026-01-12 23:30:40.53	127.01	21.79	-33.2	-34.1	25.0	0.00e+00	0	27	0	615514112	40	5642
2026-01-12 23:30:41.51	126.92	21.93	-33.1	-34.0	25.1	0.00e+00	0	28	0	618659840	40	5585
2026-01-12 23:30:42.48	126.83	22.06	-33.2	-34.1	25.1	0.00e+00	0	27	0	620756992	40	5605
2026-01-12 23:30:43.46	126.75	22.19	-33.2	-34.1	25.0	0.00e+00	0	28	0	623902720	40	5656
2026-01-12 23:30:44.43	126.66	22.32	-33.1	-34.0	25.0	0.00e+00	0	28	0	627048448	40	5586
2026-01-12 23:30:45.41	126.57	22.45	-33.1	-34.1	25.0	0.00e+00	0	28	0	630194176	40	5595
2026-01-12 23:30:46.38	126.48	22.58	-32.8	-33.7	25.3	0.00e+00	0	28	0	633339904	40	5387
2026-01-12 23:30:47.36	126.39	22.72	-32.9	-33.8	25.3	0.00e+00	0	28	0	636485632	40	5421
2026-01-12 23:30:48.34	126.30	22.85	-33.0	-33.9	25.2	0.00e+00	0	28	0	639631360	40	5478
2026-01-12 23:30:49.32	126.21	22.99	-32.8	-33.7	25.3	0.00e+00	0	28	0	642777088	40	5380
2026-01-12 23:30:50.30	126.11	23.12	-33.1	-34.0	25.2	0.00e+00	0	28	0	645922816	40	5538
2026-01-12 23:30:51.27	126.02	23.26	-32.9	-33.8	25.3	0.00e+00	0	28	0	649068544	40	5440
2026-01-12 23:30:52.25	125.93	23.40	-33.1	-34.0	25.1	0.00e+00	0	28	0	651165696	40	5554
2026-01-12 23:30:53.22	125.83	23.53	-33.0	-33.8	25.2	0.00e+00	0	28	0	654311424	40	5465
2026-01-12 23:30:54.20	125.74	23.67	-32.8	-33.6	25.3	0.00e+00	0	28	0	657457152	40	5334
2026-01-12 23:30:55.18	125.64	23.81	-32.9	-33.8	25.3	0.00e+00	0	28	0	660602880	40	5435
2026-01-12 23:30:56.16	125.54	23.95	-33.0	-33.9	25.2	0.00e+00	0	27	0	663748608	40	5483
2026-01-12 23:30:57.14	125.44	24.09	-32.9	-33.8	25.3	0.00e+00	0	27	0	666894336	40	5426
2026-01-12 23:30:58.12	125.34	24.23	-33.0	-33.9	25.2	0.00e+00	0	28	0	670040064	40	5502
2026-01-12 23:30:59.09	125.24	24.37	-33.0	-33.9	25.1	0.00e+00	0	28	0	673185792	40	5499
2026-01-12 23:31:00.07	125.14	24.52	-32.9	-33.8	25.3	0.00e+00	0	28	0	676331520	40	5441
2026-01-12 23:31:01.05	125.04	24.66	-33.1	-33.9	25.2	0.00e+00	0	27	0	679477248	40	5511
2026-01-12 23:31:02.03	124.93	24.80	-33.1	-34.0	25.1	0.00e+00	0	28	0	682622976	40	5569
2026-01-12 23:31:03.00	124.83	24.95	-33.1	-34.0	25.1	0.00e+00	0	28	0	685768704	40	5580
2026-01-12 23:31:03.98	124.72	25.09	-33.2	-34.0	25.1	0.00e+00	0	28	0	687865856	40	5592
2026-01-12 23:31:04.95	124.62	25.24	-33.3	-34.2	25.0	0.00e+00	0	28	0	691011584	40	5669
2026-01-12 23:31:05.93	124.51	25.38	-33.2	-34.1	25.1	0.00e+00	0	28	0	694157312	40	5614
2026-01-12 23:31:06.91	124.40	25.53	-33.3	-34.2	25.0	0.00e+00	0	28	0	697303040	40	5703
2026-01-12 23:31:07.89	124.29	25.68	-33.4	-34.3	25.0	0.00e+00	0	28	0	700448768	40	5740
2026-01-12 23:31:08.87	124.18	25.83	-33.4	-34.4	24.9	0.00e+00	0	28	0	703594496	40	5800
2026-01-12 23:31:09.84	124.07	25.98	-33.5	-34.4	24.8	0.00e+00	0	27	0	706740224	40	5800
2026-01-12 23:31:10.82	123.96	26.13	-33.6	-34.5	24.8	0.00e+00	0	27	0	709885952	40	5864
2026-01-12 23:31:11.80	123.84	26.28	-33.7	-34.6	24.7	0.00e+00	0	27	0	713031680	40	5940
2026-01-12 23:31:12.77	123.73	26.43	-33.8	-34.7	24.7	0.00e+00	0	28	0	716177408	40	6001
2026-01-12 23:31:13.75	123.61	26.58	-33.8	-34.7	24.6	0.00e+00	0	27	0	719323136	40	6031
2026-01-12 23:31:14.72	123.50	26.73	-33.9	-34.8	24.5	0.00e+00	0	27	0	722468864	40	6104
2026-01-12 23:31:15.70	123.38	26.89	-33.9	-34.8	24.5	0.00e+00	0	28	0	724566016	40	6080
2026-01-12 23:31:16.68	123.26	27.04	-34.0	-34.9	24.4	0.00e+00	0	28	0	727711744	40	6186
2026-01-12 23:31:17.65	123.14	27.19	-34.1	-35.0	24.3	0.00e+00	0	27	0	730857472	40	6210
2026-01-12 23:31:18.63	123.02	27.35	-34.2	-35.2	24.2	0.00e+00	0	27	0	734003200	40	6356
2026-01-12 23:31:19.61	122.89	27.51	-34.3	-35.2	24.3	0.00e+00	0	27	0	737148928	40	6398
2026-01-12 23:31:20.58	122.77	27.66	-34.5	-35.4	24.2	0.00e+00	0	27	0	740294656	40	6540
2026-01-12 23:31:21.56	122.64	27.82	-34.5	-35.4	24.3	0.00e+00	0	28	0	743440384	40	6534
2026-01-12 23:31:22.53	122.52	27.98	-34.6	-35.5	24.0	0.00e+00	0	28	0	746586112	40	6620
2026-01-12 23:31:23.51	122.39	28.14	-34.7	-35.6	24.0	0.00e+00	0	28	0	749731840	40	6695
2026-01-12 23:31:24.48	122.26	28.30	-34.8	-35.7	23.9	0.00e+00	0	28	0	752877568	42	6048
2026-01-12 23:31:25.46	122.13	28.46	-34.8	-35.7	23.9	0.00e+00	0	28	0	756023296	42	6055
2026-01-12 23:31:26.44	122.00	28.62	-34.9	-35.9	23.8	0.00e+00	0	27	0	758120448	42	6150
2026-01-12 23:31:27.42	121.86	28.78	-34.6	-35.6	24.0	0.00e+00	0	28	0	761266176	42	5927
2026-01-12 23:31:28.40	121.73	28.95	-34.6	-35.6	24.0	0.00e+00	0	28	0	764411904	42	5932
2026-01-12 23:31:29.37	121.59	29.11	-34.4	-35.4	24.1	0.00e+00	0	28	0	767557632	42	5796
2026-01-12 23:31:30.35	121.45	29.28	-34.5	-35.5	24.0	0.00e+00	0	28	0	770703360	42	5862
2026-01-12 23:31:31.32	121.31	29.44	-34.4	-35.4	24.1	0.00e+00	0	28	0	773849088	42	5792
2026-01-12 23:31:32.30	121.17	29.61	-34.5	-35.4	24.0	0.00e+00	0	28	0	776994816	42	5829
2026-01-12 23:31:33.28	121.03	29.77	-34.4	-35.3	24.0	0.00e+00	0	27	0	780140544	42	5787
2026-01-12 23:31:34.25	120.89	29.94	-34.4	-35.3	24.0	0.00e+00	0	28	0	783286272	42	5758
2026-01-12 23:31:35.23	120.74	30.11	-34.5	-35.4	24.0	0.00e+00	0	28	0	786432000	42	5834
2026-01-12 23:31:36.20	120.60	30.28	-34.4	-35.3	24.2	0.00e+00	0	28	0	789577728	42	5769
2026-01-12 23:31:37.18	120.45	30.45	-34.4	-35.3	24.3	0.00e+00	0	28	0	791674880	42	5756
2026-01-12 23:31:38.16	120.30	30.62	-34.2	-35.1	24.4	0.00e+00	0	28	0	794820608	42	5639
2026-01-12 23:31:39.14	120.15	30.79	-34.3	-35.2	24.4	0.00e+00	0	28	0	797966336	42	5688
2026-01-12 23:31:40.11	119.99	30.96	-34.2	-35.1	24.5	0.00e+00	0	28	0	801112064	42	5618
2026-01-12 23:31:41.09	119.84	31.14	-34.0	-34.9	24.6	0.00e+00	0	28	0	804257792	42	5480
2026-01-12 23:31:42.07	119.68	31.31	-33.9	-34.8	24.6	0.00e+00	0	28	0	807403520	42	5434
2026-01-12 23:31:43.05	119.52	31.49	-33.7	-34.6	24.7	0.00e+00	0	28	0	810549248	42	5320
2026-01-12 23:31:44.03	119.36	31.66	-33.8	-34.7	24.5	0.00e+00	0	28	0	813694976	40	6012
2026-01-12 23:31:45.00	119.20	31.84	-33.9	-34.8	24.3	0.00e+00	0	28	0	816840704	40	6066
2026-01-12 23:31:45.98	119.04	32.02	-33.9	-34.8	24.2	0.00e+00	0	28	0	819986432	40	6079
2026-01-12 23:31:46.95	118.87	32.19	-34.1	-35.0	24.1	0.00e+00	0	28	0	823132160	40	6228
2026-01-12 23:31:47.93	118.71	32.37	-34.2	-35.2	23.9	0.00e+00	0	28	0	825229312	40	6359
2026-01-12 23:31:48.91	118.54	32.55	-34.2	-35.1	24.1	0.00e+00	0	28	0	828375040	40	6348
2026-01-12 23:31:49.89	118.36	32.73	-34.3	-35.2	24.2	0.00e+00	0	28	0	831520768	40	6390
2026-01-12 23:31:50.86	118.19	32.91	-34.3	-35.2	24.3	0.00e+00	0	28	0	834666496	40	6423
2026-01-12 23:31:51.84	118.02	33.10	-34.3	-35.2	24.3	0.00e+00	0	28	0	837812224	40	6419
2026-01-12 23:31:52.82	117.84	33.28	-34.2	-35.1	24.4	0.00e+00	0	28	0	840957952	40	6329
2026-01-12 23:31:53.79	117.66	33.46	-34.2	-35.1	24.4	0.00e+00	0	27	0	844103680	40	6303
2026-01-12 23:31:54.77	117.48	33.65	-34.2	-35.0	24.5	0.00e+00	0	28	0	847249408	40	6253
2026-01-12 23:31:55.75	117.30	33.83	-34.1	-35.0	24.5	0.00e+00	0	28	0	850395136	40	6253
2026-01-12 23:31:56.72	117.11	34.02	-34.3	-35.2	24.4	0.00e+00	0	28	0	853540864	40	6368
2026-01-12 23:31:57.70	116.92	34.20	-34.4	-35.3	24.2	0.00e+00	0	28	0	856686592	40	6464
2026-01-12 23:31:58.68	116.73	34.39	-34.6	-35.5	24.0	0.00e+00	0	28	0	858783744	40	6605
2026-01-12 23:31:59.65	116.54	34.58	-34.9	-35.9	23.7	0.00e+00	0	28	0	861929472	42	6144
2026-01-12 23:32:00.63	116.35	34.77	-35.2	-36.2	23.5	0.00e+00	0	28	0	865075200	42	6382
2026-01-12 23:32:01.61	116.15	34.96	-35.4	-36.4	23.4	0.00e+00	0	28	0	868220928	42	6535
2026-01-12 23:32:02.58	115.96	35.15	-35.5	-36.5	23.4	0.00e+00	0	28	0	871366656	42	6588
2026-01-12 23:32:03.56	115.75	35.34	-35.7	-36.7	23.2	0.00e+00	0	28	0	874512384	42	6741
2026-01-12 23:32:04.54	115.55	35.53	-35.7	-36.7	23.1	0.00e+00	0	28	0	877658112	44	6030
2026-01-12 23:32:05.52	115.34	35.72	-35.8	-36.8	23.0	0.00e+00	0	28	0	880803840	44	6080
2026-01-12 23:32:06.49	115.14	35.92	-35.6	-36.5	23.2	0.00e+00	0	28	0	883949568	44	5914
2026-01-12 23:32:07.47	114.92	36.11	-35.6	-36.6	23.3	0.00e+00	0	28	0	887095296	44	5935
2026-01-12 23:32:08.45	114.71	36.30	-35.6	-36.5	23.3	0.00e+00	0	28	0	890241024	44	5903
2026-01-12 23:32:09.43	114.49	36.50	-35.7	-36.7	23.2	0.00e+00	0	27	0	893386752	44	6019
2026-01-12 23:32:10.40	114.28	36.70	-35.9	-36.8	23.0	0.00e+00	0	28	0	896532480	44	6129
2026-01-12 23:32:11.38	114.05	36.89	-36.0	-37.0	22.8	0.00e+00	0	28	0	898629632	44	6223
2026-01-12 23:32:12.35	113.83	37.09	-36.1	-37.1	22.8	0.00e+00	0	28	0	901775360	44	6324
2026-01-12 23:32:13.33	113.60	37.29	-36.1	-37.1	22.7	0.00e+00	0	27	0	904921088	44	6334
2026-01-12 23:32:14.31	113.37	37.49	-36.3	-37.2	22.8	0.00e+00	0	27	0	908066816	44	6420
2026-01-12 23:32:15.29	113.14	37.69	-36.4	-37.4	22.7	0.00e+00	0	28	0	911212544	44	6524
2026-01-12 23:32:16.27	112.90	37.89	-36.2	-37.2	22.8	0.00e+00	0	27	0	914358272	44	6407
2026-01-12 23:32:17.25	112.67	38.09	-36.2	-37.2	22.7	0.00e+00	0	28	0	917504000	44	6373
2026-01-12 23:32:18.23	112.42	38.29	-36.5	-37.5	22.5	0.00e+00	0	28	0	920649728	44	6595
2026-01-12 23:32:19.20	112.18	38.49	-36.4	-37.4	22.6	0.00e+00	0	27	0	923795456	44	6515
2026-01-12 23:32:20.18	111.93	38.70	-36.3	-37.3	22.7	0.00e+00	0	28	0	926941184	44	6469
2026-01-12 23:32:21.16	111.68	38.90	-36.4	-37.4	22.7	0.00e+00	0	27	0	930086912	44	6570
2026-01-12 23:32:22.14	111.43	39.10	-36.3	-37.3	22.6	0.00e+00	0	28	0	932184064	44	6486
2026-01-12 23:32:23.12	111.17	39.31	-36.6	-37.6	22.4	0.00e+00	0	28	0	935329792	44	6703
2026-01-12 23:32:24.09	110.91	39.51	-36.4	-37.4	22.7	0.00e+00	0	28	0	938475520	44	6513
2026-01-12 23:32:25.07	110.65	39.72	-36.5	-37.6	22.5	0.00e+00	0	28	0	941621248	44	6660
2026-01-12 23:32:26.05	110.38	39.92	-36.2	-37.1	22.8	0.00e+00	0	28	0	944766976	44	6345
2026-01-12 23:32:27.03	110.11	40.13	-36.1	-37.1	22.9	0.00e+00	0	28	0	947912704	44	6307
2026-01-12 23:32:28.00	109.83	40.34	-36.2	-37.2	22.8	0.00e+00	0	28	0	951058432	44	6355
2026-01-12 23:32:28.98	109.56	40.54	-36.1	-37.1	23.0	0.00e+00	0	28	0	954204160	44	6319
2026-01-12 23:32:29.96	109.27	40.75	-36.1	-37.1	22.9	0.00e+00	0	28	0	957349888	44	6318
2026-01-12 23:32:30.94	108.99	40.96	-36.1	-37.1	22.9	0.00e+00	0	28	0	960495616	44	6325
2026-01-12 23:32:31.91	108.70	41.17	-36.1	-37.1	22.8	0.00e+00	0	28	0	963641344	44	6313
2026-01-12 23:32:32.89	108.41	41.38	-36.0	-37.0	22.9	0.00e+00	0	28	0	965738496	44	6234
2026-01-12 23:32:33.87	108.11	41.59	-36.1	-37.0	22.8	0.00e+00	0	28	0	968884224	44	6272
2026-01-12 23:32:34.85	107.81	41.80	-36.4	-37.4	22.5	0.00e+00	0	27	0	972029952	44	6539
2026-01-12 23:32:35.82	107.51	42.01	-36.4	-37.4	22.5	0.00e+00	0	28	0	975175680	44	6547
2026-01-12 23:32:36.80	107.20	42.22	-36.5	-37.5	22.5	0.00e+00	0	28	0	978321408	44	6641
2026-01-12 23:32:37.78	106.89	42.43	-36.8	-37.8	22.3	0.00e+00	0	27	0	981467136	46	6128
2026-01-12 23:32:38.75	106.57	42.64	-36.6	-37.6	22.5	0.00e+00	0	28	0	984612864	46	5956
2026-01-12 23:32:39.73	106.25	42.85	-36.4	-37.4	22.6	0.00e+00	0	28	0	987758592	46	5833
2026-01-12 23:32:40.71	105.93	43.06	-36.1	-37.1	22.9	0.00e+00	0	28	0	990904320	46	5600
2026-01-12 23:32:41.69	105.60	43.27	-36.0	-37.0	22.9	0.00e+00	0	28	0	994050048	46	5538
2026-01-12 23:32:42.67	105.26	43.48	-36.0	-37.0	23.0	0.00e+00	0	28	0	997195776	46	5545
2026-01-12 23:32:43.64	104.93	43.69	-36.0	-37.0	22.8	0.00e+00	0	28	0	999292928	46	5550
2026-01-12 23:32:44.62	104.58	43.90	-36.2	-37.1	22.5	0.00e+00	0	28	0	1002438656	46	5656
2026-01-12 23:32:45.60	104.23	44.11	-36.4	-37.4	22.1	0.00e+00	0	28	0	1005584384	46	5847
2026-01-12 23:32:46.58	103.88	44.33	-36.7	-37.8	21.9	0.00e+00	0	28	0	1008730112	46	6069
2026-01-12 23:32:47.55	103.53	44.54	-36.8	-37.9	22.1	0.00e+00	0	28	0	1011875840	46	6148
2026-01-12 23:32:48.53	103.17	44.75	-36.8	-37.8	22.3	0.00e+00	0	28	0	1015021568	46	6117
2026-01-12 23:32:49.51	102.80	44.96	-36.6	-37.6	22.5	0.00e+00	0	28	0	1018167296	46	5950
2026-01-12 23:32:50.48	102.43	45.17	-36.5	-37.4	22.7	0.00e+00	0	28	0	1021313024	46	5853
2026-01-12 23:32:51.46	102.05	45.38	-36.3	-37.3	22.6	0.00e+00	0	28	0	1024458752	46	5765
2026-01-12 23:32:52.43	101.68	45.59	-36.4	-37.4	22.5	0.00e+00	0	28	0	1027604480	46	5808
2026-01-12 23:32:53.41	101.29	45.80	-36.5	-37.5	22.2	0.00e+00	0	27	0	1030750208	46	5911
2026-01-12 23:32:54.39	100.90	46.01	-36.8	-37.8	22.2	0.00e+00	0	28	0	1033895936	46	6090
2026-01-12 23:32:55.36	100.50	46.21	-36.7	-37.7	22.4	0.00e+00	0	28	0	1035993088	46	6023
2026-01-12 23:32:56.34	100.10	46.42	-36.8	-37.9	22.4	0.00e+00	0	27	0	1039138816	46	6143
2026-01-12 23:32:57.32	99.69	46.63	-36.8	-37.8	22.4	0.00e+00	0	28	0	1042284544	46	6095
2026-01-12 23:32:58.30	99.28	46.84	-36.6	-37.6	22.5	0.00e+00	0	28	0	1045430272	46	5970
2026-01-12 23:32:59.27	98.86	47.04	-36.5	-37.5	22.6	0.00e+00	0	28	0	1048576000	46	5880
2026-01-12 23:33:00.25	98.44	47.25	-36.5	-37.5	22.6	0.00e+00	0	28	0	1051721728	46	5897
2026-01-12 23:33:01.22	98.01	47.45	-36.6	-37.6	22.5	0.00e+00	0	28	0	1054867456	46	5931
2026-01-12 23:33:02.20	97.58	47.66	-36.7	-37.7	22.4	0.00e+00	0	28	0	1058013184	46	6045
2026-01-12 23:33:03.17	97.14	47.86	-36.9	-38.0	22.3	0.00e+00	0	28	0	1061158912	46	6208
2026-01-12 23:33:04.15	96.69	48.06	-37.0	-38.1	22.2	0.00e+00	0	28	0	1064304640	46	6286
2026-01-12 23:33:05.13	96.24	48.26	-36.7	-37.7	22.5	0.00e+00	0	28	0	1067450368	46	6003
2026-01-12 23:33:06.10	95.78	48.46	-36.5	-37.4	22.7	0.00e+00	0	28	0	1070596096	46	5848
2026-01-12 23:33:07.08	95.32	48.66	-36.3	-37.2	22.8	0.00e+00	0	28	0	1072693248	46	5716
2026-01-12 23:33:08.06	94.85	48.86	-36.1	-37.0	23.0	0.00e+00	0	27	0	1075838976	46	5572
2026-01-12 23:33:09.04	94.37	49.06	-36.3	-37.2	22.9	0.00e+00	0	28	0	1078984704	46	5717
2026-01-12 23:33:10.01	93.89	49.25	-36.6	-37.6	22.2	0.00e+00	0	28	0	1082130432	46	5972
2026-01-12 23:33:10.98	93.40	49.44	-36.6	-37.6	22.4	0.00e+00	0	28	0	1085276160	46	5987
2026-01-12 23:33:11.96	92.91	49.64	-36.6	-37.6	22.5	0.00e+00	0	27	0	1088421888	46	5983
2026-01-12 23:33:12.94	92.40	49.83	-36.5	-37.5	22.6	0.00e+00	0	28	0	1091567616	46	5913
2026-01-12 23:33:13.91	91.90	50.02	-36.4	-37.4	22.7	0.00e+00	0	27	0	1094713344	46	5827
2026-01-12 23:33:14.89	91.39	50.21	-36.2	-37.1	22.9	0.00e+00	0	28	0	1097859072	46	5649
2026-01-12 23:33:15.86	90.87	50.39	-36.4	-37.4	22.7	0.00e+00	0	28	0	1101004800	46	5806
2026-01-12 23:33:16.84	90.34	50.58	-35.9	-36.9	23.1	0.00e+00	0	28	0	1103101952	46	5497
2026-01-12 23:33:17.81	89.81	50.76	-35.6	-36.6	23.3	0.00e+00	0	27	0	1106247680	44	5959
2026-01-12 23:33:18.79	89.27	50.94	-35.6	-36.5	23.4	0.00e+00	0	28	0	1109393408	44	5901
2026-01-12 23:33:19.77	88.72	51.12	-35.0	-35.9	23.7	0.00e+00	0	28	0	1112539136	44	5524
2026-01-12 23:33:20.75	88.17	51.29	-35.2	-36.1	23.5	0.00e+00	0	28	0	1115684864	44	5623
2026-01-12 23:33:21.72	87.61	51.47	-35.4	-36.4	23.3	0.00e+00	0	28	0	1118830592	44	5809
2026-01-12 23:33:22.69	87.05	51.64	-35.6	-36.6	23.3	0.00e+00	0	28	0	1121976320	44	5952
2026-01-12 23:33:23.67	86.48	51.81	-35.5	-36.4	23.5	0.00e+00	0	28	0	1125122048	44	5847
2026-01-12 23:33:24.65	85.90	51.98	-34.9	-35.8	23.9	0.00e+00	0	28	0	1128267776	44	5467
2026-01-12 23:33:25.63	85.31	52.14	-34.6	-35.6	24.2	0.00e+00	0	28	0	1131413504	42	5934
2026-01-12 23:33:26.60	84.72	52.30	-34.5	-35.4	24.3	0.00e+00	0	28	0	1134559232	42	5823
2026-01-12 23:33:27.58	84.12	52.46	-34.7	-35.6	24.1	0.00e+00	0	28	0	1136656384	42	5965
2026-01-12 23:33:28.55	83.52	52.62	-34.7	-35.6	24.1	0.00e+00	0	28	0	1139802112	42	5957
2026-01-12 23:33:29.53	82.91	52.77	-34.4	-35.3	24.3	0.00e+00	0	28	0	1142947840	42	5771
2026-01-12 23:33:30.51	82.29	52.92	-34.5	-35.4	24.4	0.00e+00	0	28	0	1146093568	42	5833
2026-01-12 23:33:31.49	81.66	53.07	-34.2	-35.1	24.4	0.00e+00	0	28	0	1149239296	42	5610
2026-01-12 23:33:32.46	81.04	53.21	-34.3	-35.2	24.4	0.00e+00	0	28	0	1152385024	42	5708
2026-01-12 23:33:33.44	80.40	53.36	-34.5	-35.4	24.2	0.00e+00	0	28	0	1155530752	42	5812
2026-01-12 23:33:34.42	79.76	53.49	-34.7	-35.6	24.2	0.00e+00	0	28	0	1158676480	42	5950
2026-01-12 23:33:35.39	79.11	53.63	-34.9	-35.8	24.0	0.00e+00	0	28	0	1161822208	42	6097
2026-01-12 23:33:36.37	78.45	53.76	-35.0	-35.9	23.8	0.00e+00	0	28	0	1164967936	42	6174
2026-01-12 23:33:37.35	77.79	53.89	-35.3	-36.2	23.5	0.00e+00	0	28	0	1168113664	42	6381
2026-01-12 23:33:38.33	77.12	54.01	-35.5	-36.5	23.4	0.00e+00	0	28	0	1170210816	42	6585
2026-01-12 23:33:39.30	76.46	54.13	-35.5	-36.4	23.4	0.00e+00	0	28	0	1173356544	42	6549
2026-01-12 23:33:40.28	75.78	54.25	-35.1	-36.0	23.7	0.00e+00	0	28	0	1176502272	42	6272
2026-01-12 23:33:41.26	75.09	54.36	-34.7	-35.6	24.0	0.00e+00	0	28	0	1179648000	42	5971
2026-01-12 23:33:42.24	74.40	54.47	-34.7	-35.6	24.0	0.00e+00	0	28	0	1182793728	42	5989
2026-01-12 23:33:43.21	73.71	54.58	-34.6	-35.5	24.1	0.00e+00	0	28	0	1185939456	42	5902
2026-01-12 23:33:44.19	73.01	54.68	-34.6	-35.6	24.1	0.00e+00	0	28	0	1189085184	42	5929
2026-01-12 23:33:45.17	72.31	54.78	-34.4	-35.3	24.2	0.00e+00	0	28	0	1192230912	42	5786
2026-01-12 23:33:46.15	71.60	54.87	-34.4	-35.2	24.3	0.00e+00	0	28	0	1195376640	42	5719
2026-01-12 23:33:47.12	70.89	54.96	-34.0	-34.9	24.6	0.00e+00	0	28	0	1198522368	42	5521
2026-01-12 23:33:48.10	70.17	55.04	-34.0	-34.8	24.6	0.00e+00	0	28	0	1201668096	42	5463
2026-01-12 23:33:49.07	69.45	55.12	-34.2	-35.0	24.6	0.00e+00	0	28	0	1204813824	42	5588
2026-01-12 23:33:50.05	68.73	55.20	-34.3	-35.2	24.4	0.00e+00	0	28	0	1206910976	42	5679
2026-01-12 23:33:51.03	67.99	55.27	-34.3	-35.2	24.4	0.00e+00	0	28	0	1210056704	42	5722
2026-01-12 23:33:52.00	67.27	55.34	-34.6	-35.5	24.2	0.00e+00	0	27	0	1213202432	42	5864
2026-01-12 23:33:52.98	66.53	55.40	-34.6	-35.5	24.1	0.00e+00	0	28	0	1216348160	42	5893
2026-01-12 23:33:53.95	65.79	55.46	-34.4	-35.3	24.3	0.00e+00	0	28	0	1219493888	42	5777
2026-01-12 23:33:54.93	65.05	55.51	-34.5	-35.4	24.3	0.00e+00	0	28	0	1222639616	42	5815
2026-01-12 23:33:55.91	64.30	55.56	-34.3	-35.2	24.5	0.00e+00	0	28	0	1225785344	42	5675
2026-01-12 23:33:56.88	63.56	55.60	-34.6	-35.5	24.1	0.00e+00	0	28	0	1228931072	42	5898
2026-01-12 23:33:57.86	62.81	55.64	-34.9	-35.8	23.9	0.00e+00	0	28	0	1232076800	42	6079
2026-01-12 23:33:58.84	62.06	55.67	-34.9	-35.8	23.9	0.00e+00	0	28	0	1235222528	42	6100
2026-01-12 23:33:59.82	61.30	55.70	-34.8	-35.7	24.1	0.00e+00	0	28	0	1238368256	42	6003
2026-01-12 23:34:00.79	60.55	55.73	-34.3	-35.2	24.3	0.00e+00	0	28	0	1240465408	42	5695
2026-01-12 23:34:01.77	59.80	55.75	-34.1	-35.0	24.6	0.00e+00	0	27	0	1243611136	42	5539
2026-01-12 23:34:02.75	59.04	55.76	-34.2	-35.1	24.5	0.00e+00	0	28	0	1246756864	42	5628
2026-01-12 23:34:03.72	58.29	55.77	-34.4	-35.3	24.3	0.00e+00	0	28	0	1249902592	42	5775
2026-01-12 23:34:04.69	57.53	55.77	-34.9	-35.8	23.9	0.00e+00	0	28	0	1253048320	42	6127
2026-01-12 23:34:05.67	56.77	55.77	-34.9	-35.8	24.0	0.00e+00	0	27	0	1256194048	42	6099
2026-01-12 23:34:06.65	56.01	55.77	-34.6	-35.5	24.1	0.00e+00	0	27	0	1259339776	42	5920
2026-01-12 23:34:07.62	55.26	55.76	-34.6	-35.5	24.3	0.00e+00	0	28	0	1262485504	42	5871
2026-01-12 23:34:08.60	54.51	55.74	-34.5	-35.4	24.3	0.00e+00	0	28	0	1265631232	42	5796
2026-01-12 23:34:09.58	53.75	55.72	-34.3	-35.2	24.4	0.00e+00	0	27	0	1268776960	42	5705
2026-01-12 23:34:10.56	52.99	55.70	-34.2	-35.1	24.4	0.00e+00	0	28	0	1271922688	42	5630
2026-01-12 23:34:11.53	52.24	55.67	-34.4	-35.3	23.6	0.00e+00	0	28	0	1274019840	42	5782
2026-01-12 23:34:12.51	51.49	55.63	-34.6	-35.6	23.6	0.00e+00	0	28	0	1277165568	42	5946
2026-01-12 23:34:13.49	50.74	55.59	-34.4	-35.4	23.7	0.00e+00	0	28	0	1280311296	42	5822
2026-01-12 23:34:14.46	50.00	55.55	-34.3	-35.3	23.9	0.00e+00	0	28	0	1283457024	42	5742
2026-01-12 23:34:15.44	49.25	55.50	-34.7	-35.6	24.0	0.00e+00	0	28	0	1286602752	42	5978
2026-01-12 23:34:16.42	48.51	55.45	-34.8	-35.8	23.9	0.00e+00	0	28	0	1289748480	42	6082
2026-01-12 23:34:17.39	47.78	55.39	-35.1	-36.0	23.9	0.00e+00	0	28	0	1292894208	42	6266
2026-01-12 23:34:18.37	47.04	55.33	-34.6	-35.6	24.1	0.00e+00	0	28	0	1296039936	42	5938
2026-01-12 23:34:19.34	46.31	55.26	-34.2	-35.1	24.2	0.00e+00	0	28	0	1299185664	42	5628
2026-01-12 23:34:20.32	45.58	55.19	-34.2	-35.1	24.4	0.00e+00	0	28	0	1302331392	42	5628
2026-01-12 23:34:21.29	44.87	55.11	-34.2	-35.1	24.5	0.00e+00	0	28	0	1304428544	42	5652
2026-01-12 23:34:22.27	44.14	55.03	-34.2	-35.1	24.5	0.00e+00	0	28	0	1307574272	42	5637
2026-01-12 23:34:23.24	43.43	54.94	-34.3	-35.2	24.5	0.00e+00	0	27	0	1310720000	42	5676
2026-01-12 23:34:24.22	42.72	54.85	-34.9	-35.8	24.0	0.00e+00	0	28	0	1313865728	42	6101
2026-01-12 23:34:25.19	42.02	54.76	-35.0	-35.9	23.9	0.00e+00	0	28	0	1317011456	42	6188
2026-01-12 23:34:26.17	41.31	54.66	-34.7	-35.7	24.1	0.00e+00	0	28	0	1320157184	42	6001
2026-01-12 23:34:27.15	40.61	54.56	-34.3	-35.2	24.4	0.00e+00	0	28	0	1323302912	42	5715
2026-01-12 23:34:28.12	39.93	54.46	-34.3	-35.2	24.5	0.00e+00	0	28	0	1326448640	42	5674
2026-01-12 23:34:29.10	39.24	54.35	-34.6	-35.5	24.3	0.00e+00	0	28	0	1329594368	42	5895
2026-01-12 23:34:30.07	38.56	54.23	-34.9	-35.9	23.9	0.00e+00	0	28	0	1332740096	42	6155
2026-01-12 23:34:31.05	37.88	54.12	-35.1	-36.1	23.6	0.00e+00	0	28	0	1335885824	42	6311
2026-01-12 23:34:32.03	37.21	53.99	-35.1	-36.1	23.7	0.00e+00	0	28	0	1339031552	42	6303
2026-01-12 23:34:33.01	36.55	53.87	-34.9	-35.8	24.0	0.00e+00	0	27	0	1341128704	42	6123
2026-01-12 23:34:33.98	35.89	53.74	-35.1	-36.0	23.8	0.00e+00	0	28	0	1344274432	42	6255
2026-01-12 23:34:34.96	35.24	53.61	-35.0	-35.9	23.9	0.00e+00	0	27	0	1347420160	42	6195
2026-01-12 23:34:35.94	34.59	53.47	-34.9	-35.8	24.0	0.00e+00	0	28	0	1350565888	42	6089
2026-01-12 23:34:36.92	33.95	53.33	-35.0	-35.9	23.8	0.00e+00	0	27	0	1353711616	42	6184
2026-01-12 23:34:37.89	33.32	53.19	-35.2	-36.2	23.5	0.00e+00	0	27	0	1356857344	42	6386
2026-01-12 23:34:38.87	32.69	53.05	-35.5	-36.5	23.5	0.00e+00	0	27	0	1360003072	42	6593
2026-01-12 23:34:39.85	32.06	52.90	-35.1	-36.1	23.7	0.00e+00	0	28	0	1363148800	42	6283
2026-01-12 23:34:40.82	31.45	52.75	-34.9	-35.8	24.0	0.00e+00	0	28	0	1366294528	42	6109
2026-01-12 23:34:41.79	30.85	52.60	-34.8	-35.6	24.1	0.00e+00	0	28	0	1369440256	42	5992
2026-01-12 23:34:42.77	30.24	52.44	-34.5	-35.4	24.3	0.00e+00	0	28	0	1372585984	42	5792
2026-01-12 23:34:43.74	29.65	52.28	-34.4	-35.3	24.1	0.00e+00	0	28	0	1374683136	42	5738
2026-01-12 23:34:44.72	29.06	52.12	-34.5	-35.4	23.9	0.00e+00	0	28	0	1377828864	42	5829
2026-01-12 23:34:45.70	28.47	51.95	-34.7	-35.6	24.0	0.00e+00	0	27	0	1380974592	42	5968
2026-01-12 23:34:46.68	27.89	51.78	-34.7	-35.6	24.2	0.00e+00	0	28	0	1384120320	42	5930
2026-01-12 23:34:47.65	27.33	51.62	-35.1	-36.1	23.8	0.00e+00	0	28	0	1387266048	42	6287
2026-01-12 23:34:48.63	26.76	51.44	-35.9	-36.9	23.0	0.00e+00	0	28	0	1390411776	44	6173
2026-01-12 23:34:49.60	26.21	51.27	-36.6	-37.7	22.1	0.00e+00	0	27	0	1393557504	44	6756
2026-01-12 23:34:50.58	25.66	51.09	-36.5	-37.6	21.7	0.00e+00	0	28	0	1396703232	46	5964
2026-01-12 23:34:51.56	25.11	50.92	-36.0	-37.0	22.3	0.00e+00	0	27	0	1399848960	46	5582
2026-01-12 23:34:52.54	24.57	50.73	-35.9	-36.9	22.8	0.00e+00	0	27	0	1402994688	46	5492
2026-01-12 23:34:53.51	24.05	50.55	-35.5	-36.4	23.3	0.00e+00	0	27	0	1406140416	44	5833
2026-01-12 23:34:54.49	23.52	50.37	-35.1	-36.0	23.6	0.00e+00	0	28	0	1408237568	44	5566
2026-01-12 23:34:55.47	23.00	50.18	-36.1	-37.1	22.8	0.00e+00	0	27	0	1411383296	44	6295
2026-01-12 23:34:56.45	22.49	49.99	-37.0	-38.1	22.0	0.00e+00	0	27	0	1414529024	46	6332
2026-01-12 23:34:57.42	21.98	49.81	-37.6	-38.7	21.5	0.00e+00	0	28	0	1417674752	46	6755
2026-01-12 23:34:58.40	21.48	49.61	-37.5	-38.7	21.1	0.00e+00	0	28	0	1420820480	46	6737
2026-01-12 23:34:59.37	20.99	49.42	-36.6	-37.7	21.9	0.00e+00	0	27	0	1423966208	46	6037
2026-01-12 23:35:00.35	20.51	49.23	-36.1	-37.1	22.6	0.00e+00	0	27	0	1427111936	46	5623
2026-01-12 23:35:01.33	20.02	49.03	-35.2	-36.1	23.7	0.00e+00	0	27	0	1430257664	44	5611
2026-01-12 23:35:02.31	19.55	48.84	-35.1	-36.1	23.6	0.00e+00	0	28	0	1433403392	42	6292
2026-01-12 23:35:03.29	19.08	48.64	-36.0	-36.9	23.0	0.00e+00	0	27	0	1436549120	44	6198
2026-01-12 23:35:04.26	18.62	48.44	-36.8	-37.8	22.3	0.00e+00	0	28	0	1439694848	46	6133
2026-01-12 23:35:05.24	18.16	48.24	-37.4	-38.4	21.8	0.00e+00	0	27	0	1441792000	46	6537
2026-01-12 23:35:06.22	17.71	48.04	-37.4	-38.4	21.7	0.00e+00	0	27	0	1444937728	46	6551
2026-01-12 23:35:07.19	17.27	47.84	-37.3	-38.3	21.8	0.00e+00	0	28	0	1448083456	46	6483
2026-01-12 23:35:08.17	16.83	47.63	-36.3	-37.2	22.8	0.00e+00	0	28	0	1451229184	46	5720
2026-01-12 23:35:09.15	16.40	47.43	-35.6	-36.6	23.3	0.00e+00	0	28	0	1454374912	46	5288
2026-01-12 23:35:10.12	15.97	47.23	-35.1	-36.0	23.8	0.00e+00	0	28	0	1457520640	44	5580
2026-01-12 23:35:11.10	15.55	47.02	-35.5	-36.4	23.5	0.00e+00	0	28	0	1460666368	44	5816
2026-01-12 23:35:12.08	15.13	46.82	-36.4	-37.4	22.6	0.00e+00	0	28	0	1463812096	44	6551
2026-01-12 23:35:13.05	14.72	46.61	-37.5	-38.6	21.7	0.00e+00	0	28	0	1466957824	46	6650
2026-01-12 23:35:14.03	14.32	46.40	-37.9	-39.0	21.3	0.00e+00	0	28	0	1470103552	48	6234
2026-01-12 23:35:15.01	13.92	46.19	-37.3	-38.4	21.9	0.00e+00	0	28	0	1473249280	48	5808
2026-01-12 23:35:15.99	13.52	45.99	-36.3	-37.3	22.7	0.00e+00	0	28	0	1475346432	46	5777
2026-01-12 23:35:16.96	13.13	45.78	-36.3	-37.3	22.9	0.00e+00	0	28	0	1478492160	46	5736
2026-01-12 23:35:17.94	12.75	45.57	-35.8	-36.7	23.3	0.00e+00	0	28	0	1481637888	46	5385
2026-01-12 23:35:18.91	12.37	45.36	-35.3	-36.2	23.6	0.00e+00	0	28	0	1484783616	44	5676
2026-01-12 23:35:19.89	12.00	45.15	-35.3	-36.2	23.6	0.00e+00	0	28	0	1487929344	44	5719
2026-01-12 23:35:20.87	11.63	44.94	-35.7	-36.6	23.2	0.00e+00	0	28	0	1491075072	44	5972
2026-01-12 23:35:21.84	11.27	44.73	-36.4	-37.4	22.5	0.00e+00	0	28	0	1494220800	44	6568
2026-01-12 23:35:22.82	10.91	44.52	-37.5	-38.5	21.6	0.00e+00	0	28	0	1497366528	46	6648
2026-01-12 23:35:23.79	10.55	44.31	-37.7	-38.8	21.3	0.00e+00	0	28	0	1500512256	48	6114
2026-01-12 23:35:24.77	10.20	44.10	-37.1	-38.2	21.7	0.00e+00	0	28	0	1503657984	48	5700
2026-01-12 23:35:25.75	9.86	43.89	-36.0	-37.0	22.7	0.00e+00	0	28	0	1506803712	46	5558
2026-01-12 23:35:26.73	9.51	43.68	-35.4	-36.4	23.4	0.00e+00	0	28	0	1509949440	44	5813
2026-01-12 23:35:27.70	9.18	43.47	-35.5	-36.4	23.4	0.00e+00	0	28	0	1513095168	44	5820
2026-01-12 23:35:28.68	8.85	43.26	-35.6	-36.5	23.3	0.00e+00	0	28	0	1515192320	44	5926
2026-01-12 23:35:29.66	8.52	43.05	-35.7	-36.7	23.2	0.00e+00	0	28	0	1518338048	44	6019
2026-01-12 23:35:30.63	8.20	42.84	-35.8	-36.8	23.2	0.00e+00	0	28	0	1521483776	44	6082
2026-01-12 23:35:31.61	7.88	42.63	-35.5	-36.4	23.5	0.00e+00	0	28	0	1524629504	44	5818
2026-01-12 23:35:32.59	7.56	42.42	-35.6	-36.5	23.3	0.00e+00	0	27	0	1527775232	44	5909
2026-01-12 23:35:33.56	7.25	42.21	-36.0	-36.9	23.0	0.00e+00	0	28	0	1530920960	44	6204
2026-01-12 23:35:34.54	6.95	42.00	-36.2	-37.3	22.4	0.00e+00	0	28	0	1534066688	44	6452
2026-01-12 23:35:35.51	6.65	41.80	-36.1	-37.1	22.1	0.00e+00	0	28	0	1537212416	44	6344
2026-01-12 23:35:36.49	6.35	41.59	-35.8	-36.9	22.1	0.00e+00	0	28	0	1540358144	44	6169
2026-01-12 23:35:37.47	6.05	41.38	-35.4	-36.4	22.7	0.00e+00	0	28	0	1543503872	44	5817
2026-01-12 23:35:38.44	5.76	41.17	-35.2	-36.2	23.3	0.00e+00	0	28	0	1545601024	44	5665
2026-01-12 23:35:39.42	5.47	40.96	-35.8	-36.8	23.1	0.00e+00	0	28	0	1548746752	44	6072
2026-01-12 23:35:40.39	5.19	40.76	-36.6	-37.6	22.5	0.00e+00	0	27	0	1551892480	44	6650
2026-01-12 23:35:41.37	4.91	40.55	-37.6	-38.6	21.6	0.00e+00	0	27	0	1555038208	46	6715
2026-01-12 23:35:42.34	4.64	40.35	-37.7	-38.8	21.4	0.00e+00	0	27	0	1558183936	48	6103
2026-01-12 23:35:43.32	4.36	40.14	-37.3	-38.4	21.5	0.00e+00	0	27	0	1561329664	48	5815
2026-01-12 23:35:44.30	4.09	39.93	-36.7	-37.8	22.1	0.00e+00	0	27	0	1564475392	48	5425
2026-01-12 23:35:45.28	3.83	39.73	-36.2	-37.1	22.8	0.00e+00	0	28	0	1567621120	46	5648
2026-01-12 23:35:46.23	3.57	39.53	-35.9	-36.8	23.2	0.00e+00	0	27	0	1570766848	46	5443
2026-01-12 23:35:47.21	3.31	39.32	-35.7	-36.6	23.3	0.00e+00	0	27	0	1573912576	44	5979
2026-01-12 23:35:48.18	3.06	39.12	-35.7	-36.6	23.3	0.00e+00	0	27	0	1577058304	44	5947
2026-01-12 23:35:49.16	2.80	38.92	-35.6	-36.5	23.4	0.00e+00	0	27	0	1579155456	44	5891
2026-01-12 23:35:50.14	2.55	38.72	-35.4	-36.4	23.5	0.00e+00	0	27	0	1582301184	44	5803
2026-01-12 23:35:51.12	2.31	38.51	-35.7	-36.6	23.2	0.00e+00	0	27	0	1585446912	44	5978
2026-01-12 23:35:52.09	2.07	38.31	-36.1	-37.1	22.8	0.00e+00	0	27	0	1588592640	44	6348
2026-01-12 23:35:53.07	1.82	38.11	-36.8	-37.9	22.3	0.00e+00	0	28	0	1591738368	44	6885
2026-01-12 23:35:54.05	1.59	37.91	-37.3	-38.4	21.8	0.00e+00	0	28	0	1594884096	46	6537
2026-01-12 23:35:55.02	1.35	37.71	-37.4	-38.6	21.7	0.00e+00	0	28	0	1598029824	46	6658
2026-01-12 23:35:56.00	1.12	37.51	-37.3	-38.4	21.6	0.00e+00	0	27	0	1601175552	46	6528
2026-01-12 23:35:56.98	0.89	37.32	-37.4	-38.5	21.8	0.00e+00	0	27	0	1604321280	46	6603
2026-01-12 23:35:57.95	0.67	37.12	-36.1	-37.1	22.9	0.00e+00	0	28	0	1607467008	46	5624
2026-01-12 23:35:58.93	0.44	36.92	-35.2	-36.1	23.8	0.00e+00	0	28	0	1610612736	44	5626
2026-01-12 23:35:59.90	0.22	36.73	-35.1	-36.0	23.7	0.00e+00	0	27	0	1612709888	44	5583
2026-01-12 23:36:00.88	0.01	36.53	-35.0	-35.9	23.9	0.00e+00	0	27	0	1615855616	44	5486
2026-01-12 23:36:01.86	359.79	36.34	-35.2	-36.2	23.5	0.00e+00	0	27	0	1619001344	44	5670
2026-01-12 23:36:02.84	359.58	36.14	-35.4	-36.4	23.3	0.00e+00	0	27	0	1622147072	44	5811
2026-01-12 23:36:03.81	359.37	35.95	-35.6	-36.6	23.2	0.00e+00	0	27	0	1625292800	44	5952
2026-01-12 23:36:04.78	359.16	35.76	-35.5	-36.4	23.3	0.00e+00	0	27	0	1628438528	44	5847
2026-01-12 23:36:05.76	358.96	35.57	-35.3	-36.2	23.5	0.00e+00	0	27	0	1631584256	44	5722
2026-01-12 23:36:06.74	358.75	35.37	-34.8	-35.7	24.0	0.00e+00	0	28	0	1634729984	44	5364
2026-01-12 23:36:07.72	358.55	35.18	-34.3	-35.2	24.4	0.00e+00	0	28	0	1637875712	42	5708
2026-01-12 23:36:08.70	358.35	34.99	-34.2	-35.0	24.5	0.00e+00	0	27	0	1641021440	42	5590
2026-01-12 23:36:09.68	358.16	34.80	-34.4	-35.3	24.3	0.00e+00	0	27	0	1644167168	42	5731
2026-01-12 23:36:10.65	357.97	34.62	-34.7	-35.6	24.2	0.00e+00	0	28	0	1647312896	42	5944
2026-01-12 23:36:11.63	357.77	34.43	-34.8	-35.8	23.9	0.00e+00	0	28	0	1649410048	42	6069
2026-01-12 23:36:12.61	357.59	34.24	-35.2	-36.1	23.6	0.00e+00	0	27	0	1652555776	42	6314
2026-01-12 23:36:13.58	357.40	34.06	-35.1	-36.0	23.6	0.00e+00	0	28	0	1655701504	42	6245
2026-01-12 23:36:14.56	357.22	33.87	-35.2	-36.1	23.5	0.00e+00	0	27	0	1658847232	42	6340
2026-01-12 23:36:15.54	357.03	33.69	-35.0	-35.9	23.7	0.00e+00	0	27	0	1661992960	42	6203
2026-01-12 23:36:16.51	356.85	33.51	-35.0	-36.0	23.6	0.00e+00	0	27	0	1665138688	42	6224
2026-01-12 23:36:17.49	356.67	33.32	-35.0	-36.0	23.8	0.00e+00	0	28	0	1668284416	42	6222
2026-01-12 23:36:18.47	356.50	33.14	-34.9	-35.8	23.8	0.00e+00	0	28	0	1671430144	42	6129
2026-01-12 23:36:19.44	356.32	32.96	-34.9	-35.8	23.8	0.00e+00	0	28	0	1674575872	42	6109
2026-01-12 23:36:20.42	356.15	32.78	-34.8	-35.7	23.9	0.00e+00	0	28	0	1677721600	42	6044
2026-01-12 23:36:21.40	355.98	32.60	-34.8	-35.7	23.9	0.00e+00	0	27	0	1680867328	42	6050
2026-01-12 23:36:22.37	355.81	32.42	-34.7	-35.6	24.0	0.00e+00	0	28	0	1682964480	42	5970
2026-01-12 23:36:23.35	355.65	32.24	-34.8	-35.7	23.9	0.00e+00	0	28	0	1686110208	42	6048
2026-01-12 23:36:24.33	355.48	32.07	-34.6	-35.6	24.1	0.00e+00	0	28	0	1689255936	42	5933
2026-01-12 23:36:25.30	355.32	31.89	-34.2	-35.1	24.4	0.00e+00	0	28	0	1692401664	42	5652
2026-01-12 23:36:26.28	355.16	31.71	-34.1	-35.0	24.6	0.00e+00	0	28	0	1695547392	42	5536
2026-01-12 23:36:27.26	355.00	31.54	-33.9	-34.8	24.7	0.00e+00	0	28	0	1698693120	42	5425
2026-01-12 23:36:28.24	354.84	31.36	-33.9	-34.7	24.7	0.00e+00	0	28	0	1701838848	42	5393
2026-01-12 23:36:29.21	354.69	31.19	-33.9	-34.7	24.6	0.00e+00	0	28	0	1704984576	42	5385
2026-01-12 23:36:30.19	354.53	31.02	-33.8	-34.7	24.6	0.00e+00	0	28	0	1708130304	42	5376
2026-01-12 23:36:31.16	354.38	30.85	-33.5	-34.4	24.9	0.00e+00	0	28	0	1711276032	40	5793
2026-01-12 23:36:32.14	354.23	30.68	-33.6	-34.5	24.8	0.00e+00	0	28	0	1714421760	40	5893
2026-01-12 23:36:33.11	354.08	30.51	-33.7	-34.6	24.8	0.00e+00	0	27	0	1716518912	40	5962
2026-01-12 23:36:34.09	353.93	30.34	-33.9	-34.8	24.7	0.00e+00	0	27	0	1719664640	40	6103
2026-01-12 23:36:35.06	353.79	30.17	-34.1	-35.1	24.4	0.00e+00	0	28	0	1722810368	40	6287
2026-01-12 23:36:36.04	353.64	30.00	-34.3	-35.3	24.3	0.00e+00	0	28	0	1725956096	40	6441
2026-01-12 23:36:37.02	353.50	29.83	-34.4	-35.4	24.1	0.00e+00	0	27	0	1729101824	40	6532
2026-01-12 23:36:37.99	353.36	29.67	-34.6	-35.5	24.0	0.00e+00	0	28	0	1732247552	40	6645
2026-01-12 23:36:38.97	353.22	29.50	-34.8	-35.7	23.9	0.00e+00	0	28	0	1735393280	40	6791
2026-01-12 23:36:39.94	353.08	29.34	-34.7	-35.7	23.9	0.00e+00	0	28	0	1738539008	42	6015
2026-01-12 23:36:40.92	352.94	29.17	-34.8	-35.8	23.8	0.00e+00	0	28	0	1741684736	42	6083
2026-01-12 23:36:41.89	352.81	29.01	-34.8	-35.8	23.8	0.00e+00	0	28	0	1744830464	42	6086
2026-01-12 23:36:42.87	352.67	28.85	-34.5	-35.4	24.1	0.00e+00	0	28	0	1746927616	42	5837
2026-01-12 23:36:43.85	352.54	28.69	-34.4	-35.3	24.2	0.00e+00	0	28	0	1750073344	42	5788
2026-01-12 23:36:44.83	352.41	28.53	-34.3	-35.2	24.3	0.00e+00	0	28	0	1753219072	42	5677
2026-01-12 23:36:45.80	352.28	28.37	-33.8	-34.7	24.7	0.00e+00	0	27	0	1756364800	42	5392
2026-01-12 23:36:46.78	352.15	28.21	-33.8	-34.6	24.8	0.00e+00	0	28	0	1759510528	42	5337
2026-01-12 23:36:47.75	352.02	28.05	-33.6	-34.5	24.9	0.00e+00	0	27	0	1762656256	40	5893
2026-01-12 23:36:48.73	351.90	27.89	-33.7	-34.6	24.7	0.00e+00	0	28	0	1765801984	40	5965
2026-01-12 23:36:49.70	351.77	27.73	-33.6	-34.4	24.8	0.00e+00	0	28	0	1768947712	40	5853
2026-01-12 23:36:50.68	351.65	27.58	-33.6	-34.5	24.9	0.00e+00	0	27	0	1772093440	40	5877
2026-01-12 23:36:51.66	351.53	27.42	-33.5	-34.4	24.9	0.00e+00	0	28	0	1775239168	40	5837
2026-01-12 23:36:52.64	351.40	27.27	-33.4	-34.3	25.0	0.00e+00	0	28	0	1778384896	40	5731
2026-01-12 23:36:53.62	351.28	27.11	-33.3	-34.2	25.0	0.00e+00	0	27	0	1781530624	40	5682
2026-01-12 23:36:54.60	351.17	26.96	-33.4	-34.3	25.0	0.00e+00	0	28	0	1783627776	40	5775
2026-01-12 23:36:55.58	351.05	26.80	-33.4	-34.3	25.0	0.00e+00	0	27	0	1786773504	40	5761
2026-01-12 23:36:56.55	350.93	26.65	-33.5	-34.4	25.0	0.00e+00	0	28	0	1789919232	40	5813
2026-01-12 23:36:57.53	350.82	26.50	-33.7	-34.6	24.7	0.00e+00	0	28	0	1793064960	40	5950
2026-01-12 23:36:58.51	350.70	26.35	-33.7	-34.6	24.7	0.00e+00	0	27	0	1796210688	40	5984
2026-01-12 23:36:59.48	350.59	26.20	-33.9	-34.8	24.7	0.00e+00	0	28	0	1799356416	40	6072
2026-01-12 23:37:00.46	350.48	26.05	-34.0	-34.9	24.6	0.00e+00	0	28	0	1802502144	40	6138
2026-01-12 23:37:01.44	350.37	25.90	-33.9	-34.8	24.6	0.00e+00	0	28	0	1805647872	40	6133
2026-01-12 23:37:02.41	350.26	25.76	-34.0	-34.9	24.5	0.00e+00	0	28	0	1808793600	40	6160
2026-01-12 23:37:03.39	350.15	25.61	-33.9	-34.8	24.6	0.00e+00	0	28	0	1811939328	40	6082
2026-01-12 23:37:04.37	350.04	25.46	-34.0	-34.9	24.6	0.00e+00	0	28	0	1815085056	40	6198
2026-01-12 23:37:05.35	349.93	25.32	-33.8	-34.7	24.7	0.00e+00	0	27	0	1818230784	40	6054
2026-01-12 23:37:06.32	349.83	25.17	-33.9	-34.7	24.6	0.00e+00	0	28	0	1821376512	40	6064
2026-01-12 23:37:07.30	349.72	25.03	-33.6	-34.5	24.8	0.00e+00	0	28	0	1823473664	40	5899
2026-01-12 23:37:08.28	349.62	24.88	-33.7	-34.6	24.7	0.00e+00	0	28	0	1826619392	40	5949
2026-01-12 23:37:09.25	349.51	24.74	-33.5	-34.4	24.8	0.00e+00	0	28	0	1829765120	40	5811
2026-01-12 23:37:10.23	349.41	24.60	-33.5	-34.4	24.8	0.00e+00	0	27	0	1832910848	40	5836
2026-01-12 23:37:11.20	349.31	24.46	-33.4	-34.3	24.9	0.00e+00	0	27	0	1836056576	40	5752
2026-01-12 23:37:12.18	349.21	24.32	-33.7	-34.6	24.8	0.00e+00	0	28	0	1839202304	40	5940
2026-01-12 23:37:13.16	349.11	24.17	-33.3	-34.1	25.0	0.00e+00	0	27	0	1842348032	40	5658
2026-01-12 23:37:14.14	349.01	24.03	-33.4	-34.3	24.9	0.00e+00	0	28	0	1845493760	40	5739
2026-01-12 23:37:15.11	348.92	23.90	-33.4	-34.2	24.9	0.00e+00	0	28	0	1848639488	40	5712
2026-01-12 23:37:16.09	348.82	23.76	-33.3	-34.1	25.0	0.00e+00	0	28	0	1851785216	40	5659
2026-01-12 23:37:17.07	348.73	23.62	-33.3	-34.2	25.0	0.00e+00	0	28	0	1853882368	40	5678
2026-01-12 23:37:18.05	348.63	23.48	-33.3	-34.2	25.0	0.00e+00	0	28	0	1857028096	40	5681
2026-01-12 23:37:19.03	348.54	23.34	-33.4	-34.3	24.9	0.00e+00	0	28	0	1860173824	40	5740
2026-01-12 23:37:20.01	348.44	23.21	-33.5	-34.4	24.9	0.00e+00	0	28	0	1863319552	40	5797
2026-01-12 23:37:20.98	348.35	23.07	-33.5	-34.4	24.9	0.00e+00	0	27	0	1866465280	40	5816
2026-01-12 23:37:21.96	348.26	22.94	-33.6	-34.5	24.8	0.00e+00	0	28	0	1869611008	40	5868
2026-01-12 23:37:22.93	348.17	22.81	-33.7	-34.5	24.8	0.00e+00	0	28	0	1872756736	40	5920
2026-01-12 23:37:23.91	348.08	22.67	-33.7	-34.6	24.7	0.00e+00	0	27	0	1875902464	40	5983
2026-01-12 23:37:24.88	347.99	22.54	-33.8	-34.7	24.6	0.00e+00	0	27	0	1879048192	40	6043
2026-01-12 23:37:25.85	347.90	22.41	-33.9	-34.8	24.5	0.00e+00	0	27	0	1882193920	40	6074
2026-01-12 23:37:26.83	347.82	22.28	-34.0	-34.9	24.5	0.00e+00	0	28	0	1885339648	40	6154
2026-01-12 23:37:27.81	347.73	22.15	-34.0	-34.9	24.5	0.00e+00	0	28	0	1887436800	40	6136
2026-01-12 23:37:28.78	347.64	22.02	-34.1	-35.1	24.4	0.00e+00	0	28	0	1890582528	40	6280
2026-01-12 23:37:29.76	347.56	21.89	-34.0	-34.9	24.4	0.00e+00	0	28	0	1893728256	40	6197
2026-01-12 23:37:30.73	347.48	21.76	-34.0	-34.9	24.5	0.00e+00	0	27	0	1896873984	40	6171
2026-01-12 23:37:31.71	347.39	21.63	-34.0	-34.9	24.4	0.00e+00	0	28	0	1900019712	40	6185
2026-01-12 23:37:32.69	347.31	21.50	-34.0	-34.9	24.4	0.00e+00	0	28	0	1903165440	40	6163
2026-01-12 23:37:33.66	347.23	21.37	-34.0	-34.9	24.4	0.00e+00	0	28	0	1906311168	40	6195
2026-01-12 23:37:34.64	347.15	21.25	-34.0	-34.9	24.5	0.00e+00	0	28	0	1909456896	40	6141
2026-01-12 23:37:35.62	347.06	21.12	-34.0	-35.0	24.4	0.00e+00	0	27	0	1912602624	40	6214
2026-01-12 23:37:36.60	346.98	20.99	-34.0	-34.9	24.4	0.00e+00	0	28	0	1915748352	40	6167
2026-01-12 23:37:37.57	346.91	20.87	-34.0	-34.9	24.5	0.00e+00	0	28	0	1917845504	40	6186
2026-01-12 23:37:38.55	346.83	20.74	-34.0	-34.9	24.5	0.00e+00	0	28	0	1920991232	40	6158
2026-01-12 23:37:39.53	346.75	20.62	-34.0	-34.9	24.5	0.00e+00	0	28	0	1924136960	40	6139
2026-01-12 23:37:40.50	346.67	20.50	-34.0	-35.0	24.4	0.00e+00	0	28	0	1927282688	40	6214
2026-01-12 23:37:41.48	346.59	20.37	-34.0	-34.9	24.4	0.00e+00	0	28	0	1930428416	40	6152
2026-01-12 23:37:42.46	346.52	20.25	-34.0	-34.9	24.4	0.00e+00	0	27	0	1933574144	40	6160
