passes_logs/2026/01/12/R4.6S_Anadyr/R4.6S_Anadyr__20260112_142116_NOAA_20_JPSS-1_rec.log

#Pass ID: 20260112_142116_NOAA 20 (JPSS-1)
#Satellite: NOAA 20 (JPSS-1)
#Configuration: NOAA 20
#almurnet v.1.7.20251203
#Start time: 2026-01-12 14:21:17

#Version: 2.2.20231116
#Station: R4.6S_Anadyr
#Location: 177.4865 lon 64.73178 lat
#TLE: 1 43013U 17073A   26011.59429536  .00000082  00000+0  59704-4 0  9990
#TLE: 2 43013  98.7632 312.5697 0001637  44.2118 315.9188 14.19535307422256

#Time	Az	El	Level	Level2	SNR	BER	BlckErr	Temp	State	Recorded	gain1	gain2
2026-01-12 14:21:17.95	19.85	0.10	-48.3	-63.2	3.5	1.51e+00	0	27	0	0	60	52350
2026-01-12 14:21:18.96	19.86	0.16	-48.4	-63.6	3.6	1.51e+00	0	28	104	0	60	54876
2026-01-12 14:21:19.97	19.88	0.22	-48.3	-63.6	3.6	1.51e+00	0	28	104	0	60	54414
2026-01-12 14:21:20.98	19.89	0.28	-48.3	-63.6	3.6	1.51e+00	0	28	104	0	60	54933
2026-01-12 14:21:21.99	19.91	0.34	-48.3	-63.6	3.6	1.51e+00	0	28	104	0	60	54574
2026-01-12 14:21:23.00	19.93	0.40	-48.4	-63.7	3.6	1.51e+00	0	28	104	0	60	55028
2026-01-12 14:21:24.01	19.94	0.46	-48.4	-63.6	3.6	1.51e+00	0	28	104	0	60	54642
2026-01-12 14:21:25.02	19.96	0.52	-48.3	-63.5	3.6	1.51e+00	0	28	104	0	60	54371
2026-01-12 14:21:26.03	19.97	0.58	-48.3	-63.5	3.6	1.51e+00	0	28	104	0	60	54150
2026-01-12 14:21:27.04	19.99	0.64	-48.3	-63.5	3.6	1.51e+00	0	28	104	0	60	53871
2026-01-12 14:21:28.05	20.00	0.70	-48.2	-63.4	3.6	1.51e+00	0	28	104	0	60	53540
2026-01-12 14:21:29.06	20.02	0.76	-48.0	-63.2	3.6	1.51e+00	0	28	104	0	60	52285
2026-01-12 14:21:30.07	20.04	0.82	-47.7	-63.0	3.6	1.51e+00	0	28	104	0	60	50808
2026-01-12 14:21:31.08	20.05	0.89	-47.7	-62.7	3.6	1.51e+00	0	28	104	0	60	49316
2026-01-12 14:21:32.09	20.07	0.95	-47.4	-62.5	3.6	1.51e+00	0	28	104	0	60	48448
2026-01-12 14:21:33.10	20.08	1.01	-47.1	-62.3	3.6	1.51e+00	0	28	104	0	60	46905
2026-01-12 14:21:34.11	20.10	1.07	-46.8	-62.0	3.6	1.51e+00	0	28	104	0	60	45274
2026-01-12 14:21:35.12	20.12	1.13	-46.8	-62.0	3.5	1.51e+00	0	28	104	0	60	45424
2026-01-12 14:21:36.13	20.13	1.20	-46.9	-62.0	3.6	1.51e+00	0	28	104	0	60	45464
2026-01-12 14:21:37.14	20.15	1.26	-46.9	-61.9	3.6	1.51e+00	0	28	104	0	60	45081
2026-01-12 14:21:38.15	20.17	1.32	-46.9	-62.0	3.6	1.51e+00	0	28	104	0	60	45260
2026-01-12 14:21:39.16	20.18	1.38	-46.8	-61.9	3.6	1.51e+00	0	28	104	0	60	45113
2026-01-12 14:21:40.16	20.20	1.44	-46.8	-61.9	3.6	1.51e+00	0	28	104	0	60	44766
2026-01-12 14:21:41.17	20.21	1.51	-46.8	-61.9	3.6	1.51e+00	0	29	104	0	60	44797
2026-01-12 14:21:42.18	20.23	1.57	-46.8	-61.9	3.6	1.51e+00	0	29	104	0	60	44902
2026-01-12 14:21:43.19	20.25	1.63	-46.8	-61.9	3.6	1.51e+00	0	29	104	0	60	45015
2026-01-12 14:21:44.20	20.26	1.70	-46.8	-62.0	3.6	1.51e+00	0	29	104	0	60	45404
2026-01-12 14:21:45.21	20.28	1.76	-46.8	-62.0	3.6	1.51e+00	0	29	104	0	60	45579
2026-01-12 14:21:46.22	20.30	1.82	-46.8	-62.0	3.6	1.51e+00	0	29	104	0	60	45658
2026-01-12 14:21:47.23	20.31	1.89	-46.9	-62.0	3.5	1.51e+00	0	29	104	0	60	45643
2026-01-12 14:21:48.24	20.33	1.95	-46.8	-62.0	3.6	1.51e+00	0	29	104	0	60	45404
2026-01-12 14:21:49.25	20.35	2.01	-46.8	-62.0	3.6	1.51e+00	0	29	104	0	60	45508
2026-01-12 14:21:50.26	20.37	2.08	-46.8	-62.0	3.6	1.51e+00	0	29	104	0	60	45426
2026-01-12 14:21:51.27	20.38	2.14	-46.8	-61.9	3.6	1.51e+00	0	29	104	0	60	45176
2026-01-12 14:21:52.28	20.40	2.21	-46.8	-61.7	3.6	1.51e+00	0	29	104	0	60	43792
2026-01-12 14:21:53.29	20.42	2.27	-46.8	-61.2	3.6	1.51e+00	0	29	104	0	60	41386
2026-01-12 14:21:54.30	20.43	2.34	-46.8	-60.6	3.6	1.51e+00	0	29	104	0	60	38542
2026-01-12 14:21:55.31	20.45	2.40	-46.8	-60.1	3.6	1.51e+00	0	29	104	0	60	36400
2026-01-12 14:21:56.32	20.47	2.47	-46.7	-59.5	3.8	1.50e+00	0	29	104	0	60	34010
2026-01-12 14:21:57.33	20.49	2.53	-46.7	-59.5	3.7	1.49e+00	0	29	104	0	60	34157
2026-01-12 14:21:58.34	20.50	2.60	-46.7	-59.3	3.8	1.49e+00	0	29	104	0	60	33443
2026-01-12 14:21:59.35	20.52	2.66	-46.8	-59.4	3.8	1.49e+00	0	29	104	0	60	33821
2026-01-12 14:22:00.36	20.54	2.73	-46.6	-56.7	4.0	1.40e+00	0	29	0	0	60	24773
2026-01-12 14:22:01.36	20.56	2.79	-46.4	-54.8	5.2	8.01e-01	0	29	0	1048576	60	19919
2026-01-12 14:22:02.38	20.57	2.86	-46.0	-52.7	7.5	2.27e-01	0	29	0	3145728	60	15629
2026-01-12 14:22:03.39	20.59	2.92	-45.3	-50.2	10.4	1.10e-02	0	29	0	5242880	60	11690
2026-01-12 14:22:04.39	20.61	2.99	-44.5	-48.4	12.4	9.49e-04	0	29	0	7340032	60	9522
2026-01-12 14:22:05.40	20.63	3.06	-43.8	-47.0	14.2	3.05e-05	0	29	0	9437184	60	8047
2026-01-12 14:22:06.41	20.64	3.12	-42.9	-45.4	15.7	0.00e+00	0	29	0	10485760	60	6748
2026-01-12 14:22:07.42	20.66	3.19	-42.4	-44.7	16.4	0.00e+00	0	29	0	12582912	58	6939
2026-01-12 14:22:08.43	20.68	3.26	-41.5	-43.5	17.6	0.00e+00	0	29	0	14680064	56	6778
2026-01-12 14:22:09.44	20.70	3.32	-41.4	-43.2	17.9	0.00e+00	0	29	0	16777216	56	6590
2026-01-12 14:22:10.45	20.72	3.39	-41.1	-42.9	18.2	0.00e+00	0	29	0	18874368	56	6333
2026-01-12 14:22:11.46	20.73	3.46	-41.0	-42.7	18.5	0.00e+00	0	29	0	19922944	56	6212
2026-01-12 14:22:12.47	20.75	3.52	-41.6	-43.5	17.4	0.00e+00	0	29	0	22020096	56	6829
2026-01-12 14:22:13.48	20.77	3.59	-41.9	-43.9	17.1	0.00e+00	0	29	0	24117248	56	7167
2026-01-12 14:22:14.49	20.79	3.66	-42.9	-45.4	15.6	0.00e+00	0	29	0	26214400	56	8448
2026-01-12 14:22:15.50	20.81	3.73	-43.6	-46.5	14.2	0.00e+00	0	29	0	28311552	58	8613
2026-01-12 14:22:16.51	20.83	3.80	-42.1	-44.2	18.3	6.10e-06	0	29	0	29360128	60	5875
2026-01-12 14:22:17.52	20.84	3.86	-42.1	-44.2	15.9	0.00e+00	0	29	0	31457280	54	8313
2026-01-12 14:22:18.53	20.86	3.93	-44.2	-47.7	12.6	1.15e-02	0	29	0	33554432	60	8807
2026-01-12 14:22:19.54	20.88	4.00	-43.9	-47.2	14.7	7.27e-01	0	29	104	34603008	60	8249
2026-01-12 14:22:20.55	20.90	4.07	-44.5	-48.6	9.9	0.00e+00	0	29	0	34603008	56	12185
2026-01-12 14:22:21.56	20.92	4.14	-44.9	-49.4	5.8	1.51e+00	0	29	104	35651584	60	10623
2026-01-12 14:22:22.57	20.94	4.21	-40.6	-42.2	18.9	0.00e+00	0	29	104	35651584	54	6552
2026-01-12 14:22:23.58	20.96	4.28	-40.6	-42.1	19.2	0.00e+00	0	29	0	36700160	54	6512
2026-01-12 14:22:24.59	20.98	4.35	-40.5	-42.0	19.1	0.00e+00	0	29	0	38797312	54	6464
2026-01-12 14:22:25.60	20.99	4.42	-40.5	-42.0	19.3	0.00e+00	0	29	0	40894464	54	6426
2026-01-12 14:22:26.61	21.01	4.49	-39.9	-41.2	20.0	0.00e+00	0	29	0	42991616	54	5888
2026-01-12 14:22:27.62	21.03	4.56	-39.6	-40.9	20.4	0.00e+00	0	29	0	44040192	52	6343
2026-01-12 14:22:28.63	21.05	4.63	-39.8	-41.1	20.1	0.00e+00	0	29	0	46137344	52	6497
2026-01-12 14:22:29.64	21.07	4.70	-40.0	-41.4	19.9	0.00e+00	0	29	0	48234496	52	6722
2026-01-12 14:22:30.65	21.09	4.77	-39.9	-41.3	20.0	0.00e+00	0	29	0	50331648	52	6641
2026-01-12 14:22:31.66	21.11	4.84	-39.8	-41.2	20.2	0.00e+00	0	29	0	52428800	52	6553
2026-01-12 14:22:32.67	21.13	4.91	-39.4	-40.7	20.6	0.00e+00	0	29	0	54525952	52	6182
2026-01-12 14:22:33.68	21.15	4.98	-39.9	-41.3	20.0	0.00e+00	0	29	0	55574528	52	6645
2026-01-12 14:22:34.69	21.17	5.05	-39.6	-40.9	20.4	0.00e+00	0	29	0	57671680	52	6347
2026-01-12 14:22:35.70	21.19	5.12	-39.6	-40.9	20.4	0.00e+00	0	29	0	59768832	52	6339
2026-01-12 14:22:36.71	21.21	5.19	-39.5	-40.7	20.6	0.00e+00	0	29	0	61865984	52	6241
2026-01-12 14:22:37.72	21.23	5.27	-39.6	-40.9	20.5	0.00e+00	0	29	0	63963136	52	6341
2026-01-12 14:22:38.73	21.25	5.34	-39.3	-40.5	20.8	0.00e+00	0	29	0	65011712	52	6082
2026-01-12 14:22:39.74	21.27	5.41	-39.7	-41.1	20.5	0.00e+00	0	29	0	67108864	52	6470
2026-01-12 14:22:40.75	21.29	5.48	-39.4	-40.6	20.8	0.00e+00	0	29	0	69206016	52	6138
2026-01-12 14:22:41.76	21.31	5.56	-39.1	-40.3	21.0	0.00e+00	0	29	0	71303168	52	5947
2026-01-12 14:22:42.77	21.33	5.63	-39.1	-40.3	20.9	0.00e+00	0	29	0	73400320	52	5908
2026-01-12 14:22:43.78	21.35	5.70	-39.3	-40.5	20.9	0.00e+00	0	29	0	74448896	52	6099
2026-01-12 14:22:44.79	21.37	5.77	-39.2	-40.4	21.1	0.00e+00	0	29	0	76546048	52	5980
2026-01-12 14:22:45.80	21.39	5.85	-39.3	-40.5	21.0	0.00e+00	0	29	0	78643200	52	6078
2026-01-12 14:22:46.81	21.41	5.92	-39.2	-40.4	21.0	0.00e+00	0	29	0	80740352	52	6030
2026-01-12 14:22:47.82	21.43	6.00	-39.3	-40.5	20.9	0.00e+00	0	29	0	82837504	52	6079
2026-01-12 14:22:48.83	21.45	6.07	-39.2	-40.4	21.1	0.00e+00	0	29	0	83886080	52	6008
2026-01-12 14:22:49.84	21.47	6.14	-38.8	-40.0	21.4	0.00e+00	0	29	0	85983232	52	5701
2026-01-12 14:22:50.85	21.49	6.22	-39.1	-40.3	21.1	0.00e+00	0	29	0	88080384	52	5963
2026-01-12 14:22:51.86	21.52	6.29	-38.9	-40.1	21.4	0.00e+00	0	29	0	90177536	52	5767
2026-01-12 14:22:52.87	21.54	6.37	-39.1	-40.3	21.2	0.00e+00	0	29	0	92274688	52	5913
2026-01-12 14:22:53.88	21.56	6.44	-38.7	-39.9	21.4	0.00e+00	0	29	0	93323264	50	6353
2026-01-12 14:22:54.89	21.58	6.52	-38.9	-40.0	21.3	0.00e+00	0	29	0	95420416	50	6448
2026-01-12 14:22:55.89	21.60	6.59	-38.8	-39.9	21.5	0.00e+00	0	29	0	97517568	50	6353
2026-01-12 14:22:56.90	21.62	6.67	-38.8	-40.0	21.4	0.00e+00	0	29	0	99614720	50	6411
2026-01-12 14:22:57.91	21.64	6.74	-38.7	-39.8	21.6	0.00e+00	0	29	0	101711872	50	6304
2026-01-12 14:22:58.92	21.66	6.82	-38.9	-40.0	21.6	0.00e+00	0	29	0	102760448	50	6433
2026-01-12 14:22:59.93	21.69	6.90	-38.7	-39.9	21.6	0.00e+00	0	29	0	104857600	50	6329
2026-01-12 14:23:00.94	21.71	6.97	-38.7	-39.8	21.6	0.00e+00	0	29	0	106954752	50	6261
2026-01-12 14:23:01.95	21.73	7.05	-38.7	-39.9	21.6	0.00e+00	0	29	0	109051904	50	6325
2026-01-12 14:23:02.96	21.75	7.13	-38.6	-39.7	21.8	0.00e+00	0	29	0	111149056	50	6199
2026-01-12 14:23:03.97	21.77	7.21	-38.6	-39.7	21.8	0.00e+00	0	29	0	112197632	50	6182
2026-01-12 14:23:04.98	21.80	7.28	-38.5	-39.6	21.9	0.00e+00	0	29	0	114294784	50	6115
2026-01-12 14:23:05.99	21.82	7.36	-38.7	-39.8	21.7	0.00e+00	0	29	0	116391936	50	6294
2026-01-12 14:23:07.00	21.84	7.44	-38.4	-39.4	22.0	0.00e+00	0	29	0	118489088	50	6029
2026-01-12 14:23:08.01	21.86	7.52	-38.4	-39.5	21.9	0.00e+00	0	29	0	120586240	50	6054
2026-01-12 14:23:09.02	21.89	7.60	-38.5	-39.6	21.9	0.00e+00	0	29	0	122683392	50	6123
2026-01-12 14:23:10.03	21.91	7.67	-38.4	-39.5	22.0	0.00e+00	0	29	0	123731968	50	6059
2026-01-12 14:23:11.04	21.93	7.75	-38.4	-39.5	22.0	0.00e+00	0	29	0	125829120	50	6060
2026-01-12 14:23:12.05	21.95	7.83	-38.4	-39.5	22.0	0.00e+00	0	29	0	127926272	50	6041
2026-01-12 14:23:13.06	21.98	7.91	-38.4	-39.5	22.1	0.00e+00	0	29	0	130023424	50	6046
2026-01-12 14:23:14.07	22.00	7.99	-38.2	-39.3	22.2	0.00e+00	0	29	0	132120576	50	5927
2026-01-12 14:23:15.08	22.02	8.07	-38.3	-39.4	22.1	0.00e+00	0	29	0	133169152	50	5968
2026-01-12 14:23:16.09	22.05	8.15	-38.3	-39.4	22.1	0.00e+00	0	29	0	135266304	50	5987
2026-01-12 14:23:17.10	22.07	8.23	-38.4	-39.5	22.0	0.00e+00	0	29	0	137363456	50	6047
2026-01-12 14:23:18.11	22.09	8.31	-38.4	-39.5	22.0	0.00e+00	0	29	0	139460608	50	6063
2026-01-12 14:23:19.12	22.12	8.39	-38.5	-39.6	22.0	0.00e+00	0	29	0	141557760	50	6136
2026-01-12 14:23:20.13	22.14	8.48	-38.3	-39.4	22.2	0.00e+00	0	29	0	142606336	50	5968
2026-01-12 14:23:21.14	22.16	8.56	-38.3	-39.3	22.3	0.00e+00	0	29	0	144703488	50	5918
2026-01-12 14:23:22.15	22.19	8.64	-38.3	-39.3	22.4	0.00e+00	0	29	0	146800640	50	5912
2026-01-12 14:23:23.16	22.21	8.72	-38.3	-39.3	22.2	0.00e+00	0	29	0	148897792	50	5915
2026-01-12 14:23:24.17	22.24	8.80	-38.3	-39.4	22.2	0.00e+00	0	30	0	150994944	50	5970
2026-01-12 14:23:25.18	22.26	8.89	-38.4	-39.5	22.1	0.00e+00	0	29	0	152043520	50	6056
2026-01-12 14:23:26.19	22.28	8.97	-38.2	-39.2	22.3	0.00e+00	0	29	0	154140672	50	5890
2026-01-12 14:23:27.20	22.31	9.05	-38.0	-39.0	22.5	0.00e+00	0	29	0	156237824	50	5747
2026-01-12 14:23:28.21	22.33	9.14	-38.0	-39.1	22.5	0.00e+00	0	29	0	158334976	50	5773
2026-01-12 14:23:29.22	22.36	9.22	-38.2	-39.2	22.4	0.00e+00	0	29	0	160432128	50	5859
2026-01-12 14:23:30.23	22.38	9.30	-38.2	-39.2	22.5	0.00e+00	0	29	0	161480704	50	5890
2026-01-12 14:23:31.24	22.41	9.39	-38.3	-39.3	22.3	0.00e+00	0	29	0	163577856	50	5962
2026-01-12 14:23:32.25	22.43	9.47	-38.5	-39.5	22.2	0.00e+00	0	29	0	165675008	50	6095
2026-01-12 14:23:33.26	22.46	9.56	-38.0	-39.0	22.6	0.00e+00	0	29	0	167772160	50	5746
2026-01-12 14:23:34.27	22.48	9.64	-38.1	-39.2	22.4	0.00e+00	0	29	0	169869312	50	5838
2026-01-12 14:23:35.28	22.51	9.73	-38.0	-39.0	22.7	0.00e+00	0	30	0	170917888	50	5696
2026-01-12 14:23:36.29	22.53	9.81	-38.0	-39.0	22.6	0.00e+00	0	29	0	173015040	50	5715
2026-01-12 14:23:37.30	22.56	9.90	-38.0	-39.0	22.5	0.00e+00	0	29	0	175112192	50	5744
2026-01-12 14:23:38.31	22.59	9.99	-37.9	-38.9	22.7	0.00e+00	0	29	0	177209344	50	5681
2026-01-12 14:23:39.32	22.61	10.07	-37.9	-38.9	22.7	0.00e+00	0	29	0	179306496	50	5651
2026-01-12 14:23:40.33	22.64	10.16	-37.8	-38.8	22.8	0.00e+00	0	29	0	180355072	50	5591
2026-01-12 14:23:41.34	22.66	10.25	-37.8	-38.8	22.8	0.00e+00	0	30	0	182452224	48	6280
2026-01-12 14:23:42.35	22.69	10.33	-37.8	-38.7	22.8	0.00e+00	0	30	0	184549376	48	6244
2026-01-12 14:23:43.36	22.72	10.42	-37.7	-38.6	23.0	0.00e+00	0	30	0	186646528	48	6163
2026-01-12 14:23:44.37	22.74	10.51	-37.8	-38.8	22.9	0.00e+00	0	29	0	188743680	48	6263
2026-01-12 14:23:45.38	22.77	10.60	-37.9	-38.9	22.8	0.00e+00	0	30	0	190840832	48	6347
2026-01-12 14:23:46.39	22.80	10.69	-37.9	-38.9	22.8	0.00e+00	0	30	0	191889408	48	6355
2026-01-12 14:23:47.40	22.82	10.78	-37.8	-38.8	22.9	0.00e+00	0	30	0	193986560	48	6248
2026-01-12 14:23:48.41	22.85	10.87	-37.8	-38.8	22.8	0.00e+00	0	29	0	196083712	48	6290
2026-01-12 14:23:49.42	22.88	10.95	-37.6	-38.5	23.2	0.00e+00	0	30	0	198180864	48	6077
2026-01-12 14:23:50.43	22.91	11.04	-37.6	-38.6	23.2	0.00e+00	0	30	0	200278016	48	6118
2026-01-12 14:23:51.44	22.93	11.14	-37.7	-38.7	23.0	0.00e+00	0	30	0	201326592	48	6202
2026-01-12 14:23:52.45	22.96	11.23	-37.6	-38.5	23.2	0.00e+00	0	30	0	203423744	48	6071
2026-01-12 14:23:53.46	22.99	11.32	-37.6	-38.6	23.0	0.00e+00	0	30	0	205520896	48	6105
2026-01-12 14:23:54.47	23.02	11.41	-37.6	-38.5	23.1	0.00e+00	0	30	0	207618048	48	6096
2026-01-12 14:23:55.48	23.04	11.50	-37.6	-38.6	22.9	0.00e+00	0	30	0	209715200	48	6111
2026-01-12 14:23:56.48	23.07	11.59	-37.8	-38.8	22.9	0.00e+00	0	30	0	210763776	48	6276
2026-01-12 14:23:57.49	23.10	11.68	-37.7	-38.7	22.9	0.00e+00	0	30	0	212860928	48	6208
2026-01-12 14:23:58.50	23.13	11.78	-37.7	-38.7	23.1	0.00e+00	0	30	0	214958080	48	6212
2026-01-12 14:23:59.51	23.16	11.87	-37.4	-38.3	23.3	0.00e+00	0	30	0	217055232	48	5920
2026-01-12 14:24:00.52	23.19	11.96	-37.3	-38.2	23.3	0.00e+00	0	30	0	219152384	48	5889
2026-01-12 14:24:01.53	23.22	12.06	-37.3	-38.3	23.3	0.00e+00	0	30	0	220200960	48	5900
2026-01-12 14:24:02.54	23.24	12.15	-37.3	-38.2	23.4	0.00e+00	0	30	0	222298112	48	5877
2026-01-12 14:24:03.55	23.27	12.25	-37.5	-38.4	23.3	0.00e+00	0	30	0	224395264	48	5992
2026-01-12 14:24:04.56	23.30	12.34	-37.5	-38.4	23.3	0.00e+00	0	30	0	226492416	48	5987
2026-01-12 14:24:05.57	23.33	12.44	-37.4	-38.3	23.3	0.00e+00	0	30	0	228589568	48	5928
2026-01-12 14:24:06.58	23.36	12.53	-37.4	-38.4	23.3	0.00e+00	0	30	0	229638144	48	5983
2026-01-12 14:24:07.59	23.39	12.63	-37.6	-38.6	23.2	0.00e+00	0	30	0	231735296	48	6111
2026-01-12 14:24:08.60	23.42	12.72	-37.3	-38.3	23.4	0.00e+00	0	30	0	233832448	48	5911
2026-01-12 14:24:09.61	23.45	12.82	-37.4	-38.3	23.2	0.00e+00	0	30	0	235929600	48	5947
2026-01-12 14:24:10.62	23.48	12.92	-37.4	-38.4	23.3	0.00e+00	0	30	0	238026752	48	5989
2026-01-12 14:24:11.63	23.51	13.01	-37.6	-38.6	23.2	0.00e+00	0	30	0	239075328	48	6108
2026-01-12 14:24:12.64	23.54	13.11	-37.5	-38.4	23.3	0.00e+00	0	30	0	241172480	48	6017
2026-01-12 14:24:13.65	23.58	13.21	-37.4	-38.4	23.3	0.00e+00	0	30	0	243269632	48	5986
2026-01-12 14:24:14.66	23.61	13.31	-37.4	-38.3	23.3	0.00e+00	0	30	0	245366784	48	5956
2026-01-12 14:24:15.67	23.64	13.41	-37.6	-38.5	23.2	0.00e+00	0	30	0	247463936	48	6067
2026-01-12 14:24:16.68	23.67	13.51	-37.4	-38.4	23.3	0.00e+00	0	30	0	248512512	48	5983
2026-01-12 14:24:17.69	23.70	13.61	-37.5	-38.5	23.2	0.00e+00	0	30	0	250609664	48	6035
2026-01-12 14:24:18.70	23.73	13.71	-37.6	-38.6	23.0	0.00e+00	0	30	0	252706816	48	6107
2026-01-12 14:24:19.71	23.76	13.81	-37.5	-38.4	23.2	0.00e+00	0	30	0	254803968	48	6025
2026-01-12 14:24:20.72	23.80	13.91	-37.5	-38.5	23.3	0.00e+00	0	30	0	256901120	48	6036
2026-01-12 14:24:21.73	23.83	14.01	-37.7	-38.6	23.2	0.00e+00	0	30	0	258998272	48	6139
2026-01-12 14:24:22.74	23.86	14.11	-37.8	-38.7	23.1	0.00e+00	0	30	0	260046848	48	6235
2026-01-12 14:24:23.75	23.89	14.22	-37.6	-38.5	23.2	0.00e+00	0	30	0	262144000	48	6083
2026-01-12 14:24:24.76	23.93	14.32	-37.7	-38.6	23.2	0.00e+00	0	30	0	264241152	48	6139
2026-01-12 14:24:25.77	23.96	14.42	-37.6	-38.6	23.2	0.00e+00	0	30	0	266338304	48	6111
2026-01-12 14:24:26.78	23.99	14.52	-37.7	-38.6	23.1	0.00e+00	0	30	0	268435456	48	6160
2026-01-12 14:24:27.79	24.03	14.63	-37.6	-38.5	23.2	0.00e+00	0	30	0	269484032	48	6068
2026-01-12 14:24:28.80	24.06	14.73	-37.7	-38.6	23.1	0.00e+00	0	30	0	271581184	48	6173
2026-01-12 14:24:29.81	24.10	14.84	-37.6	-38.6	23.1	0.00e+00	0	30	0	273678336	48	6116
2026-01-12 14:24:30.82	24.13	14.94	-37.6	-38.5	23.2	0.00e+00	0	30	0	275775488	48	6084
2026-01-12 14:24:31.83	24.16	15.05	-37.6	-38.6	23.3	0.00e+00	0	30	0	277872640	48	6106
2026-01-12 14:24:32.84	24.20	15.16	-37.6	-38.5	23.2	0.00e+00	0	30	0	278921216	48	6088
2026-01-12 14:24:33.85	24.23	15.26	-37.7	-38.7	23.1	0.00e+00	0	30	0	281018368	48	6189
2026-01-12 14:24:34.86	24.27	15.37	-37.7	-38.7	23.1	0.00e+00	0	30	0	283115520	48	6183
2026-01-12 14:24:35.87	24.30	15.48	-37.7	-38.7	23.1	0.00e+00	0	30	0	285212672	48	6205
2026-01-12 14:24:36.88	24.34	15.59	-37.7	-38.6	23.1	0.00e+00	0	30	0	287309824	48	6138
2026-01-12 14:24:37.89	24.38	15.69	-37.8	-38.7	23.2	0.00e+00	0	30	0	288358400	48	6218
2026-01-12 14:24:38.90	24.41	15.80	-37.8	-38.7	23.1	0.00e+00	0	30	0	290455552	48	6238
2026-01-12 14:24:39.91	24.45	15.91	-37.8	-38.8	23.0	0.00e+00	0	30	0	292552704	48	6265
2026-01-12 14:24:40.92	24.48	16.02	-37.8	-38.7	23.1	0.00e+00	0	30	0	294649856	48	6237
2026-01-12 14:24:41.93	24.52	16.13	-37.8	-38.8	23.0	0.00e+00	0	30	0	296747008	48	6264
2026-01-12 14:24:42.94	24.56	16.24	-37.8	-38.8	23.0	0.00e+00	0	30	0	297795584	48	6271
2026-01-12 14:24:43.94	24.59	16.36	-37.8	-38.7	23.1	0.00e+00	0	30	0	299892736	48	6244
2026-01-12 14:24:44.95	24.63	16.47	-37.9	-38.9	23.0	0.00e+00	0	30	0	301989888	48	6326
2026-01-12 14:24:45.96	24.67	16.58	-37.9	-38.9	22.9	0.00e+00	0	30	0	304087040	48	6351
2026-01-12 14:24:46.97	24.71	16.69	-38.1	-39.1	22.9	0.00e+00	0	30	0	306184192	48	6507
2026-01-12 14:24:47.98	24.75	16.81	-38.0	-39.0	22.9	0.00e+00	0	30	0	307232768	48	6399
2026-01-12 14:24:48.99	24.78	16.92	-38.0	-39.0	22.9	0.00e+00	0	30	0	309329920	48	6437
2026-01-12 14:24:50.00	24.82	17.04	-38.1	-39.1	22.8	0.00e+00	0	30	0	311427072	48	6511
2026-01-12 14:24:51.01	24.86	17.15	-38.3	-39.3	22.7	0.00e+00	0	30	0	313524224	48	6663
2026-01-12 14:24:52.02	24.90	17.27	-38.2	-39.2	22.9	0.00e+00	0	30	0	315621376	48	6562
2026-01-12 14:24:53.03	24.94	17.38	-38.0	-39.0	22.9	0.00e+00	0	30	0	316669952	48	6392
2026-01-12 14:24:54.04	24.98	17.50	-38.1	-39.1	22.8	0.00e+00	0	30	0	318767104	48	6496
2026-01-12 14:24:55.05	25.02	17.62	-38.1	-39.1	22.9	0.00e+00	0	30	0	320864256	48	6468
2026-01-12 14:24:56.06	25.06	17.73	-38.2	-39.2	22.6	0.00e+00	0	30	0	322961408	48	6578
2026-01-12 14:24:57.07	25.10	17.85	-38.1	-39.1	22.8	0.00e+00	0	30	0	325058560	48	6511
2026-01-12 14:24:58.08	25.14	17.97	-38.2	-39.2	22.8	0.00e+00	0	30	0	327155712	48	6548
2026-01-12 14:24:59.09	25.18	18.09	-38.2	-39.1	22.9	0.00e+00	0	30	0	328204288	48	6533
2026-01-12 14:25:00.10	25.22	18.21	-38.1	-39.1	22.8	0.00e+00	0	30	0	330301440	48	6500
2026-01-12 14:25:01.11	25.27	18.33	-38.1	-39.1	22.8	0.00e+00	0	30	0	332398592	48	6472
2026-01-12 14:25:02.12	25.31	18.45	-38.1	-39.1	22.8	0.00e+00	0	30	0	334495744	48	6516
2026-01-12 14:25:03.13	25.35	18.58	-38.2	-39.2	22.8	0.00e+00	0	30	0	336592896	48	6589
2026-01-12 14:25:04.13	25.39	18.70	-38.2	-39.1	22.8	0.00e+00	0	30	0	337641472	48	6526
2026-01-12 14:25:05.14	25.44	18.82	-38.1	-39.1	22.8	0.00e+00	0	30	0	339738624	48	6492
2026-01-12 14:25:06.15	25.48	18.94	-38.3	-39.3	22.7	0.00e+00	0	30	0	341835776	48	6684
2026-01-12 14:25:07.16	25.52	19.07	-38.2	-39.1	22.8	0.00e+00	0	30	0	343932928	48	6534
2026-01-12 14:25:08.17	25.57	19.19	-38.1	-39.1	22.9	0.00e+00	0	30	0	346030080	48	6480
2026-01-12 14:25:09.18	25.61	19.32	-38.2	-39.2	22.8	0.00e+00	0	30	0	347078656	48	6576
2026-01-12 14:25:10.19	25.66	19.45	-38.1	-39.1	22.8	0.00e+00	0	30	0	349175808	48	6502
2026-01-12 14:25:11.20	25.70	19.57	-38.2	-39.2	22.8	0.00e+00	0	30	0	351272960	48	6544
2026-01-12 14:25:12.21	25.75	19.70	-38.3	-39.3	22.7	0.00e+00	0	30	0	353370112	48	6629
2026-01-12 14:25:13.22	25.79	19.83	-38.2	-39.2	22.8	0.00e+00	0	30	0	355467264	48	6547
2026-01-12 14:25:14.23	25.84	19.96	-38.3	-39.3	22.8	0.00e+00	0	30	0	356515840	48	6632
2026-01-12 14:25:15.24	25.88	20.09	-38.1	-39.1	22.9	0.00e+00	0	30	0	358612992	48	6511
2026-01-12 14:25:16.25	25.93	20.22	-38.1	-39.1	22.9	0.00e+00	0	30	0	360710144	48	6477
2026-01-12 14:25:17.26	25.98	20.35	-38.3	-39.3	22.8	0.00e+00	0	30	0	362807296	48	6642
2026-01-12 14:25:18.27	26.02	20.48	-38.2	-39.2	22.8	0.00e+00	0	30	0	364904448	48	6552
2026-01-12 14:25:19.28	26.07	20.61	-38.3	-39.3	22.7	0.00e+00	0	30	0	365953024	48	6644
2026-01-12 14:25:20.29	26.12	20.74	-38.3	-39.2	22.8	0.00e+00	0	30	0	368050176	48	6599
2026-01-12 14:25:21.30	26.17	20.88	-38.3	-39.2	22.8	0.00e+00	0	30	0	370147328	48	6609
2026-01-12 14:25:22.31	26.22	21.01	-38.3	-39.3	22.8	0.00e+00	0	30	0	372244480	48	6656
2026-01-12 14:25:23.32	26.27	21.15	-38.3	-39.3	22.7	0.00e+00	0	30	0	374341632	48	6660
2026-01-12 14:25:24.33	26.32	21.28	-38.3	-39.3	22.7	0.00e+00	0	30	0	375390208	48	6626
2026-01-12 14:25:25.33	26.37	21.42	-38.2	-39.1	22.8	0.00e+00	0	30	0	377487360	48	6524
2026-01-12 14:25:26.34	26.42	21.55	-38.2	-39.1	22.8	0.00e+00	0	30	0	379584512	48	6536
2026-01-12 14:25:27.35	26.47	21.69	-38.2	-39.2	22.8	0.00e+00	0	30	0	381681664	48	6562
2026-01-12 14:25:28.36	26.52	21.83	-38.2	-39.2	22.8	0.00e+00	0	30	0	383778816	48	6580
2026-01-12 14:25:29.37	26.57	21.97	-38.2	-39.1	22.9	0.00e+00	0	30	0	384827392	48	6520
2026-01-12 14:25:30.39	26.62	22.11	-38.2	-39.2	22.8	0.00e+00	0	30	0	386924544	48	6602
2026-01-12 14:25:31.40	26.67	22.25	-38.0	-38.9	23.0	0.00e+00	0	30	0	389021696	48	6362
2026-01-12 14:25:32.41	26.73	22.39	-38.1	-39.0	23.0	0.00e+00	0	30	0	391118848	48	6460
2026-01-12 14:25:33.42	26.78	22.53	-38.1	-39.1	22.8	0.00e+00	0	30	0	393216000	48	6498
2026-01-12 14:25:34.43	26.84	22.68	-38.0	-39.0	23.0	0.00e+00	0	30	0	395313152	48	6395
2026-01-12 14:25:35.44	26.89	22.82	-37.9	-38.8	23.1	0.00e+00	0	30	0	396361728	48	6308
2026-01-12 14:25:36.45	26.94	22.97	-37.9	-38.8	23.2	0.00e+00	0	30	0	398458880	48	6299
2026-01-12 14:25:37.46	27.00	23.11	-37.9	-38.9	23.1	0.00e+00	0	30	0	400556032	48	6332
2026-01-12 14:25:38.47	27.06	23.26	-37.9	-38.8	23.1	0.00e+00	0	30	0	402653184	48	6292
2026-01-12 14:25:39.48	27.11	23.41	-37.8	-38.7	23.2	0.00e+00	0	30	0	404750336	48	6219
2026-01-12 14:25:40.49	27.17	23.55	-37.9	-38.8	23.1	0.00e+00	0	30	0	405798912	48	6282
2026-01-12 14:25:41.50	27.23	23.70	-37.9	-38.8	23.1	0.00e+00	0	30	0	407896064	48	6300
2026-01-12 14:25:42.51	27.28	23.85	-37.8	-38.7	23.2	0.00e+00	0	30	0	409993216	48	6213
2026-01-12 14:25:43.51	27.34	24.00	-37.8	-38.7	23.2	0.00e+00	0	30	0	412090368	48	6214
2026-01-12 14:25:44.52	27.40	24.15	-37.8	-38.7	23.3	0.00e+00	0	30	0	414187520	48	6214
2026-01-12 14:25:45.53	27.46	24.30	-37.8	-38.8	23.2	0.00e+00	0	30	0	415236096	48	6263
2026-01-12 14:25:46.54	27.52	24.46	-37.8	-38.7	23.3	0.00e+00	0	30	0	417333248	48	6198
2026-01-12 14:25:47.55	27.58	24.61	-37.8	-38.8	23.2	0.00e+00	0	30	0	419430400	48	6266
2026-01-12 14:25:48.56	27.64	24.76	-37.8	-38.7	23.3	0.00e+00	0	30	0	421527552	48	6215
2026-01-12 14:25:49.57	27.70	24.92	-38.0	-39.0	23.0	0.00e+00	0	30	0	423624704	48	6407
2026-01-12 14:25:50.58	27.76	25.08	-37.9	-38.8	23.2	0.00e+00	0	30	0	424673280	48	6294
2026-01-12 14:25:51.59	27.83	25.23	-37.9	-38.8	23.2	0.00e+00	0	30	0	426770432	48	6311
2026-01-12 14:25:52.60	27.89	25.39	-37.9	-38.8	23.1	0.00e+00	0	30	0	428867584	48	6310
2026-01-12 14:25:53.61	27.95	25.55	-38.0	-39.0	23.1	0.00e+00	0	30	0	430964736	48	6411
2026-01-12 14:25:54.62	28.02	25.71	-38.0	-38.9	23.2	0.00e+00	0	30	0	433061888	48	6372
2026-01-12 14:25:55.63	28.08	25.87	-38.1	-39.1	23.1	0.00e+00	0	30	0	434110464	48	6484
2026-01-12 14:25:56.64	28.15	26.03	-38.0	-39.0	23.1	0.00e+00	0	30	0	436207616	48	6405
2026-01-12 14:25:57.65	28.21	26.20	-37.9	-38.9	23.2	0.00e+00	0	30	0	438304768	48	6351
2026-01-12 14:25:58.66	28.28	26.36	-38.0	-38.9	23.1	0.00e+00	0	30	0	440401920	48	6375
2026-01-12 14:25:59.67	28.35	26.53	-38.0	-39.0	23.1	0.00e+00	0	30	0	442499072	48	6433
2026-01-12 14:26:00.68	28.42	26.69	-38.0	-39.0	23.1	0.00e+00	0	30	0	443547648	48	6413
2026-01-12 14:26:01.69	28.49	26.86	-37.8	-38.7	23.3	0.00e+00	0	30	0	445644800	48	6240
2026-01-12 14:26:02.70	28.56	27.03	-37.9	-38.8	23.2	0.00e+00	0	30	0	447741952	48	6317
2026-01-12 14:26:03.70	28.62	27.19	-37.9	-38.8	23.3	0.00e+00	0	30	0	449839104	48	6274
2026-01-12 14:26:04.72	28.70	27.37	-37.8	-38.7	23.4	0.00e+00	0	30	0	451936256	48	6237
2026-01-12 14:26:05.72	28.77	27.53	-37.7	-38.6	23.4	0.00e+00	0	30	0	452984832	48	6172
2026-01-12 14:26:06.73	28.84	27.71	-37.7	-38.6	23.5	0.00e+00	0	30	0	455081984	48	6126
2026-01-12 14:26:07.74	28.91	27.88	-37.8	-38.7	23.4	0.00e+00	0	30	0	457179136	48	6238
2026-01-12 14:26:08.75	28.99	28.05	-37.5	-38.4	23.6	0.00e+00	0	30	0	459276288	48	6031
2026-01-12 14:26:09.76	29.06	28.23	-37.8	-38.7	23.5	0.00e+00	0	30	0	461373440	48	6233
2026-01-12 14:26:10.77	29.14	28.40	-37.8	-38.7	23.4	0.00e+00	0	30	0	463470592	48	6221
2026-01-12 14:26:11.78	29.21	28.58	-38.0	-38.9	23.1	0.00e+00	0	30	0	464519168	48	6382
2026-01-12 14:26:12.79	29.29	28.76	-38.3	-39.3	23.0	0.00e+00	0	30	0	466616320	48	6621
2026-01-12 14:26:13.80	29.37	28.94	-38.2	-39.2	22.9	0.00e+00	0	30	0	468713472	48	6540
2026-01-12 14:26:14.81	29.45	29.12	-38.5	-39.5	22.7	0.00e+00	0	30	0	470810624	48	6780
2026-01-12 14:26:15.82	29.53	29.30	-38.3	-39.3	22.8	0.00e+00	0	30	0	472907776	48	6665
2026-01-12 14:26:16.83	29.61	29.48	-38.5	-39.5	22.7	0.00e+00	0	30	0	473956352	48	6826
2026-01-12 14:26:17.84	29.69	29.67	-38.7	-39.7	22.5	0.00e+00	0	30	0	476053504	48	6968
2026-01-12 14:26:18.85	29.77	29.85	-38.7	-39.7	22.5	0.00e+00	0	30	0	478150656	50	6243
2026-01-12 14:26:19.86	29.85	30.04	-39.0	-40.0	22.2	0.00e+00	0	30	0	480247808	50	6442
2026-01-12 14:26:20.87	29.94	30.23	-39.1	-40.1	22.0	0.00e+00	0	30	0	482344960	50	6527
2026-01-12 14:26:21.87	30.02	30.41	-39.1	-40.2	22.1	0.00e+00	0	30	0	483393536	50	6545
2026-01-12 14:26:22.88	30.11	30.60	-39.4	-40.5	21.9	0.00e+00	0	30	0	485490688	50	6788
2026-01-12 14:26:23.89	30.19	30.79	-39.4	-40.5	21.8	0.00e+00	0	30	0	487587840	50	6782
2026-01-12 14:26:24.90	30.28	30.98	-39.5	-40.6	21.6	0.00e+00	0	30	0	489684992	50	6925
2026-01-12 14:26:25.91	30.37	31.18	-39.6	-40.8	21.5	0.00e+00	0	30	0	491782144	50	7035
2026-01-12 14:26:26.92	30.46	31.37	-39.7	-40.9	21.2	0.00e+00	0	30	0	492830720	50	7098
2026-01-12 14:26:27.94	30.55	31.57	-39.8	-41.0	21.3	0.00e+00	0	30	0	494927872	52	6449
2026-01-12 14:26:28.94	30.64	31.76	-40.0	-41.2	21.2	0.00e+00	0	30	0	497025024	52	6548
2026-01-12 14:26:29.95	30.73	31.96	-40.0	-41.1	21.2	0.00e+00	0	30	0	499122176	52	6536
2026-01-12 14:26:30.96	30.83	32.16	-40.0	-41.2	21.2	0.00e+00	0	30	0	501219328	52	6579
2026-01-12 14:26:31.97	30.92	32.36	-39.9	-41.1	21.3	0.00e+00	0	30	0	502267904	52	6505
2026-01-12 14:26:32.98	31.02	32.56	-39.8	-41.0	21.4	0.00e+00	0	30	0	504365056	52	6433
2026-01-12 14:26:33.99	31.12	32.77	-39.7	-40.9	21.6	0.00e+00	0	30	0	506462208	52	6320
2026-01-12 14:26:35.00	31.21	32.97	-39.7	-40.8	21.7	0.00e+00	0	30	0	508559360	52	6298
2026-01-12 14:26:36.01	31.31	33.18	-39.5	-40.6	21.7	0.00e+00	0	30	0	510656512	52	6170
2026-01-12 14:26:37.02	31.42	33.39	-39.4	-40.5	21.9	0.00e+00	0	30	0	511705088	52	6075
2026-01-12 14:26:38.03	31.52	33.59	-39.2	-40.3	22.0	0.00e+00	0	30	0	513802240	52	5926
2026-01-12 14:26:39.04	31.62	33.80	-39.2	-40.2	22.1	0.00e+00	0	30	0	515899392	52	5895
2026-01-12 14:26:40.05	31.73	34.02	-39.2	-40.2	22.2	0.00e+00	0	30	0	517996544	52	5894
2026-01-12 14:26:41.05	31.83	34.23	-39.1	-40.1	22.1	0.00e+00	0	30	0	520093696	52	5793
2026-01-12 14:26:42.06	31.94	34.44	-39.1	-40.2	22.2	0.00e+00	0	30	0	521142272	52	5837
2026-01-12 14:26:43.07	32.05	34.65	-39.4	-40.4	21.9	0.00e+00	0	30	0	523239424	52	6022
2026-01-12 14:26:44.08	32.16	34.87	-39.5	-40.6	21.7	0.00e+00	0	30	0	525336576	52	6119
2026-01-12 14:26:45.09	32.27	35.09	-39.6	-40.8	21.6	0.00e+00	0	30	0	527433728	52	6249
2026-01-12 14:26:46.10	32.38	35.31	-39.3	-40.4	21.9	0.00e+00	0	30	0	529530880	52	6020
2026-01-12 14:26:47.11	32.50	35.53	-39.5	-40.6	21.7	0.00e+00	0	30	0	530579456	52	6167
2026-01-12 14:26:48.12	32.61	35.75	-39.6	-40.7	21.7	0.00e+00	0	30	0	532676608	52	6184
2026-01-12 14:26:49.13	32.73	35.98	-39.5	-40.6	21.8	0.00e+00	0	30	0	534773760	52	6130
2026-01-12 14:26:50.14	32.85	36.20	-39.7	-40.8	21.7	0.00e+00	0	30	0	536870912	52	6255
2026-01-12 14:26:51.15	32.97	36.43	-39.8	-40.9	21.5	0.00e+00	0	30	0	538968064	52	6355
2026-01-12 14:26:52.16	33.09	36.66	-40.0	-41.1	21.3	0.00e+00	0	30	0	540016640	52	6538
2026-01-12 14:26:53.17	33.22	36.89	-40.3	-41.5	21.1	0.00e+00	0	30	0	542113792	52	6815
2026-01-12 14:26:54.17	33.34	37.11	-40.4	-41.7	20.8	0.00e+00	0	30	0	544210944	52	6938
2026-01-12 14:26:55.18	33.47	37.35	-40.5	-41.7	20.7	0.00e+00	0	30	0	546308096	52	6999
2026-01-12 14:26:56.19	33.60	37.58	-40.4	-41.7	20.7	0.00e+00	0	30	0	548405248	52	6971
2026-01-12 14:26:57.20	33.73	37.82	-40.6	-41.9	20.6	0.00e+00	0	30	0	549453824	52	7095
2026-01-12 14:26:58.21	33.86	38.05	-40.8	-42.1	20.4	0.00e+00	0	30	0	551550976	54	6524
2026-01-12 14:26:59.22	34.00	38.29	-40.8	-42.1	20.4	0.00e+00	0	30	0	553648128	54	6524
2026-01-12 14:27:00.23	34.13	38.53	-41.0	-42.3	20.2	0.00e+00	0	30	0	555745280	54	6654
2026-01-12 14:27:01.24	34.27	38.77	-41.0	-42.4	20.0	0.00e+00	0	30	0	557842432	54	6719
2026-01-12 14:27:02.25	34.41	39.02	-41.1	-42.5	19.8	0.00e+00	0	30	0	559939584	54	6824
2026-01-12 14:27:03.25	34.55	39.26	-41.4	-42.8	19.6	0.00e+00	0	30	0	560988160	54	7070
2026-01-12 14:27:04.26	34.70	39.51	-41.6	-43.1	19.3	0.00e+00	0	30	0	563085312	54	7265
2026-01-12 14:27:05.27	34.84	39.75	-41.5	-43.0	19.4	0.00e+00	0	30	0	565182464	54	7219
2026-01-12 14:27:06.29	35.00	40.01	-41.3	-42.7	19.7	0.00e+00	0	30	0	567279616	54	6949
2026-01-12 14:27:07.29	35.14	40.25	-41.4	-42.9	19.7	0.00e+00	0	30	0	569376768	54	7121
2026-01-12 14:27:08.31	35.30	40.51	-41.6	-43.1	19.5	0.00e+00	0	30	0	570425344	54	7295
2026-01-12 14:27:09.31	35.45	40.76	-41.3	-42.8	19.7	0.00e+00	0	30	0	572522496	54	7012
2026-01-12 14:27:10.32	35.61	41.02	-41.3	-42.7	19.8	0.00e+00	0	30	0	574619648	54	6976
2026-01-12 14:27:11.33	35.77	41.27	-41.4	-42.9	19.5	0.00e+00	0	30	0	576716800	54	7106
2026-01-12 14:27:12.34	35.94	41.53	-41.4	-42.8	19.7	0.00e+00	0	30	0	578813952	54	7021
2026-01-12 14:27:13.35	36.10	41.79	-41.2	-42.7	19.8	0.00e+00	0	30	0	579862528	54	6929
2026-01-12 14:27:14.36	36.27	42.06	-41.1	-42.6	19.7	0.00e+00	0	30	0	581959680	54	6854
2026-01-12 14:27:15.37	36.44	42.32	-40.8	-42.2	20.1	0.00e+00	0	30	0	584056832	54	6564
2026-01-12 14:27:16.38	36.62	42.58	-40.6	-41.9	20.5	0.00e+00	0	30	0	586153984	54	6367
2026-01-12 14:27:17.39	36.79	42.85	-40.2	-41.4	21.1	0.00e+00	0	30	0	588251136	54	5982
2026-01-12 14:27:18.40	36.97	43.12	-40.0	-41.1	21.4	0.00e+00	0	30	0	589299712	54	5801
2026-01-12 14:27:19.41	37.16	43.39	-39.9	-41.0	21.3	0.00e+00	0	30	0	591396864	54	5725
2026-01-12 14:27:20.42	37.34	43.66	-40.2	-41.4	21.1	0.00e+00	0	30	0	593494016	54	5976
2026-01-12 14:27:21.43	37.53	43.94	-40.2	-41.4	21.1	0.00e+00	0	30	0	595591168	54	6011
2026-01-12 14:27:22.43	37.72	44.21	-40.4	-41.6	20.8	0.00e+00	0	30	0	597688320	54	6145
2026-01-12 14:27:23.44	37.92	44.49	-40.5	-41.8	20.6	0.00e+00	0	30	0	598736896	54	6279
2026-01-12 14:27:24.45	38.12	44.76	-40.6	-41.9	20.6	0.00e+00	0	30	0	600834048	54	6365
2026-01-12 14:27:25.46	38.32	45.04	-40.5	-41.7	20.8	0.00e+00	0	30	0	602931200	54	6233
2026-01-12 14:27:26.46	38.52	45.32	-40.2	-41.3	21.2	0.00e+00	0	30	0	605028352	54	5948
2026-01-12 14:27:27.47	38.73	45.61	-40.0	-41.1	21.4	0.00e+00	0	30	0	607125504	54	5801
2026-01-12 14:27:28.48	38.95	45.89	-39.8	-40.9	21.6	0.00e+00	0	30	0	608174080	52	6384
2026-01-12 14:27:29.50	39.16	46.18	-40.1	-41.3	21.3	0.00e+00	0	30	0	610271232	52	6662
2026-01-12 14:27:30.50	39.38	46.46	-40.3	-41.5	21.0	0.00e+00	0	30	0	612368384	52	6816
2026-01-12 14:27:31.52	39.61	46.76	-40.4	-41.6	20.9	0.00e+00	0	30	0	614465536	52	6871
2026-01-12 14:27:32.52	39.84	47.04	-40.5	-41.7	20.8	0.00e+00	0	30	0	616562688	52	6951
2026-01-12 14:27:33.54	40.07	47.34	-40.5	-41.8	20.9	0.00e+00	0	30	0	618659840	52	7010
2026-01-12 14:27:34.54	40.31	47.63	-40.3	-41.4	21.1	0.00e+00	0	30	0	619708416	52	6748
2026-01-12 14:27:35.55	40.55	47.93	-40.1	-41.3	21.1	0.00e+00	0	30	0	621805568	52	6651
2026-01-12 14:27:36.56	40.80	48.22	-40.2	-41.3	21.2	0.00e+00	0	30	0	623902720	52	6675
2026-01-12 14:27:37.57	41.05	48.52	-39.9	-41.1	21.3	0.00e+00	0	30	0	625999872	52	6511
2026-01-12 14:27:38.57	41.30	48.82	-39.9	-41.0	21.4	0.00e+00	0	30	0	628097024	52	6444
2026-01-12 14:27:39.59	41.57	49.12	-39.7	-40.8	21.7	0.00e+00	0	30	0	629145600	52	6294
2026-01-12 14:27:40.59	41.83	49.42	-39.1	-40.2	22.2	0.00e+00	0	30	0	631242752	52	5855
2026-01-12 14:27:41.60	42.10	49.73	-38.6	-39.6	22.6	0.00e+00	0	30	0	633339904	52	5502
2026-01-12 14:27:42.62	42.38	50.04	-38.2	-39.1	23.3	0.00e+00	0	30	0	635437056	50	5795
2026-01-12 14:27:43.63	42.66	50.34	-37.8	-38.7	23.3	0.00e+00	0	30	0	637534208	50	5544
2026-01-12 14:27:44.64	42.95	50.65	-37.4	-38.3	23.9	0.00e+00	0	30	0	638582784	48	5946
2026-01-12 14:27:45.64	43.24	50.96	-37.2	-38.1	24.1	0.00e+00	0	30	0	640679936	48	5780
2026-01-12 14:27:46.65	43.54	51.27	-36.9	-37.7	24.4	0.00e+00	0	30	0	642777088	48	5544
2026-01-12 14:27:47.66	43.85	51.58	-36.8	-37.6	24.5	0.00e+00	0	30	0	644874240	46	6136
2026-01-12 14:27:48.67	44.16	51.90	-36.5	-37.3	24.7	0.00e+00	0	30	0	646971392	46	5940
2026-01-12 14:27:49.68	44.48	52.21	-36.0	-36.8	25.3	0.00e+00	0	30	0	648019968	46	5579
2026-01-12 14:27:50.69	44.81	52.53	-35.3	-36.0	25.7	0.00e+00	0	30	0	650117120	44	5755
2026-01-12 14:27:51.70	45.14	52.84	-35.0	-35.7	26.0	0.00e+00	0	30	0	652214272	44	5542
2026-01-12 14:27:52.71	45.48	53.16	-34.5	-35.2	26.4	0.00e+00	0	30	0	654311424	42	5870
2026-01-12 14:27:53.72	45.83	53.48	-34.3	-35.0	26.5	0.00e+00	0	30	0	656408576	42	5731
2026-01-12 14:27:54.73	46.18	53.80	-34.4	-35.1	26.4	0.00e+00	0	30	0	657457152	42	5796
2026-01-12 14:27:55.74	46.55	54.12	-34.8	-35.6	26.3	0.00e+00	0	30	0	659554304	42	6112
2026-01-12 14:27:56.75	46.92	54.44	-34.9	-35.7	26.0	0.00e+00	0	30	0	661651456	42	6205
2026-01-12 14:27:57.76	47.30	54.77	-35.2	-36.0	25.9	0.00e+00	0	30	0	663748608	42	6396
2026-01-12 14:27:58.77	47.69	55.09	-35.6	-36.3	25.7	0.00e+00	0	30	0	665845760	42	6685
2026-01-12 14:27:59.78	48.08	55.41	-35.7	-36.4	25.5	0.00e+00	0	30	0	666894336	44	6018
2026-01-12 14:28:00.78	48.49	55.73	-36.0	-36.8	25.1	0.00e+00	0	30	0	668991488	44	6287
2026-01-12 14:28:01.79	48.90	56.06	-36.5	-37.3	24.7	0.00e+00	0	30	0	671088640	44	6642
2026-01-12 14:28:02.80	49.33	56.38	-36.7	-37.5	24.5	0.00e+00	0	30	0	673185792	44	6810
2026-01-12 14:28:03.81	49.76	56.71	-36.9	-37.8	24.3	0.00e+00	0	30	0	675282944	46	6258
2026-01-12 14:28:04.82	50.21	57.04	-37.3	-38.1	23.9	0.00e+00	0	30	0	676331520	46	6534
2026-01-12 14:28:05.83	50.67	57.36	-37.7	-38.6	23.4	0.00e+00	0	30	0	678428672	46	6864
2026-01-12 14:28:06.83	51.13	57.69	-37.8	-38.8	23.4	0.00e+00	0	30	0	680525824	48	6255
2026-01-12 14:28:07.84	51.61	58.01	-37.8	-38.7	23.5	0.00e+00	0	30	0	682622976	48	6205
2026-01-12 14:28:08.85	52.10	58.34	-37.8	-38.7	23.6	0.00e+00	0	30	0	684720128	48	6230
2026-01-12 14:28:09.86	52.60	58.67	-37.5	-38.3	23.8	0.00e+00	0	30	0	685768704	48	5956
2026-01-12 14:28:10.87	53.11	58.99	-37.4	-38.2	24.0	0.00e+00	0	30	0	687865856	48	5884
2026-01-12 14:28:11.88	53.64	59.32	-36.8	-37.6	24.5	0.00e+00	0	30	0	689963008	48	5478
2026-01-12 14:28:12.89	54.18	59.64	-36.5	-37.3	24.7	0.00e+00	0	30	0	692060160	46	5910
2026-01-12 14:28:13.90	54.74	59.97	-36.2	-37.0	25.0	0.00e+00	0	30	0	694157312	46	5728
2026-01-12 14:28:14.91	55.31	60.29	-36.1	-36.9	25.0	0.00e+00	0	30	0	695205888	46	5655
2026-01-12 14:28:15.92	55.89	60.62	-36.0	-36.8	25.1	0.00e+00	0	30	0	697303040	46	5615
2026-01-12 14:28:16.93	56.49	60.94	-36.0	-36.8	25.2	0.00e+00	0	30	0	699400192	46	5618
2026-01-12 14:28:17.94	57.10	61.26	-36.1	-36.8	25.0	0.00e+00	0	30	0	701497344	46	5624
2026-01-12 14:28:18.95	57.73	61.58	-35.9	-36.7	24.6	0.00e+00	0	30	0	703594496	44	6184
2026-01-12 14:28:19.96	58.38	61.90	-35.9	-36.7	25.1	0.00e+00	0	30	0	704643072	44	6207
2026-01-12 14:28:20.97	59.04	62.21	-35.8	-36.6	25.3	0.00e+00	0	30	0	706740224	44	6117
2026-01-12 14:28:21.97	59.71	62.52	-35.8	-36.6	25.3	0.00e+00	0	30	0	708837376	44	6142
2026-01-12 14:28:22.98	60.41	62.84	-36.4	-37.2	24.8	0.00e+00	0	30	0	710934528	44	6570
2026-01-12 14:28:23.99	61.12	63.15	-37.0	-37.8	24.2	0.00e+00	0	30	0	713031680	46	6286
2026-01-12 14:28:25.00	61.86	63.46	-37.5	-38.3	23.9	0.00e+00	0	30	0	715128832	46	6691
2026-01-12 14:28:26.01	62.61	63.76	-37.5	-38.3	23.8	0.00e+00	0	30	0	716177408	46	6691
2026-01-12 14:28:27.02	63.39	64.06	-37.6	-38.5	23.7	0.00e+00	0	30	0	718274560	46	6783
2026-01-12 14:28:28.03	64.18	64.36	-37.7	-38.6	23.6	0.00e+00	0	30	0	720371712	46	6872
2026-01-12 14:28:29.04	64.99	64.66	-37.5	-38.4	23.9	0.00e+00	0	30	0	722468864	46	6698
2026-01-12 14:28:30.05	65.83	64.95	-37.1	-38.0	23.9	0.00e+00	0	30	0	724566016	46	6424
2026-01-12 14:28:31.06	66.69	65.24	-37.4	-38.3	23.9	0.00e+00	0	30	0	725614592	46	6640
2026-01-12 14:28:32.07	67.57	65.53	-37.7	-38.6	23.4	0.00e+00	0	30	0	727711744	46	6896
2026-01-12 14:28:33.08	68.47	65.81	-37.7	-38.6	23.5	0.00e+00	0	30	0	729808896	48	6172
2026-01-12 14:28:34.09	69.40	66.08	-37.8	-38.7	23.5	0.00e+00	0	30	0	731906048	48	6234
2026-01-12 14:28:35.10	70.35	66.36	-37.5	-38.3	23.8	0.00e+00	0	30	0	734003200	48	5963
2026-01-12 14:28:36.11	71.32	66.62	-37.1	-38.0	24.3	0.00e+00	0	30	0	735051776	48	5696
2026-01-12 14:28:37.11	72.31	66.88	-37.4	-38.2	23.9	0.00e+00	0	30	0	737148928	48	5892
2026-01-12 14:28:38.13	73.34	67.14	-38.1	-39.1	23.4	0.00e+00	0	30	0	739246080	48	6476
2026-01-12 14:28:39.13	74.38	67.39	-38.6	-39.6	22.7	0.00e+00	0	30	0	741343232	48	6892
2026-01-12 14:28:40.14	75.45	67.63	-38.8	-39.8	22.3	0.00e+00	0	30	0	743440384	50	6284
2026-01-12 14:28:41.15	76.54	67.87	-38.9	-40.0	22.2	0.00e+00	0	30	0	744488960	50	6438
2026-01-12 14:28:42.16	77.67	68.10	-39.2	-40.3	22.2	0.00e+00	0	30	0	746586112	50	6627
2026-01-12 14:28:43.17	78.82	68.32	-39.4	-40.4	22.3	0.00e+00	0	30	0	748683264	50	6748
2026-01-12 14:28:44.18	79.99	68.53	-38.6	-39.6	22.9	0.00e+00	0	30	0	750780416	50	6157
2026-01-12 14:28:45.19	81.19	68.74	-38.5	-39.4	22.9	0.00e+00	0	29	0	752877568	50	6020
2026-01-12 14:28:46.19	82.40	68.94	-38.9	-39.9	22.4	0.00e+00	0	30	0	753926144	50	6342
2026-01-12 14:28:47.21	83.66	69.13	-39.3	-40.3	22.3	0.00e+00	0	30	0	756023296	50	6658
2026-01-12 14:28:48.22	84.93	69.31	-39.6	-40.7	21.8	0.00e+00	0	30	0	758120448	52	6241
2026-01-12 14:28:49.23	86.22	69.48	-39.3	-40.4	22.1	0.00e+00	0	30	0	760217600	52	5968
2026-01-12 14:28:50.24	87.54	69.64	-38.9	-39.9	22.7	0.00e+00	0	30	0	762314752	52	5658
2026-01-12 14:28:51.25	88.88	69.79	-38.5	-39.4	22.8	0.00e+00	0	30	0	763363328	50	6016
2026-01-12 14:28:52.25	90.23	69.93	-39.2	-40.2	22.1	0.00e+00	0	30	0	765460480	50	6609
2026-01-12 14:28:53.26	91.61	70.07	-39.6	-40.7	21.7	0.00e+00	0	30	0	767557632	50	7003
2026-01-12 14:28:54.27	93.01	70.19	-39.2	-40.3	22.0	0.00e+00	0	30	0	769654784	52	5905
2026-01-12 14:28:55.28	94.43	70.30	-38.9	-39.9	22.6	0.00e+00	0	30	0	771751936	52	5663
2026-01-12 14:28:56.29	95.86	70.40	-38.3	-39.2	23.1	0.00e+00	0	30	0	772800512	50	5875
2026-01-12 14:28:57.30	97.31	70.48	-37.7	-38.6	23.7	0.00e+00	0	30	0	774897664	48	6105
2026-01-12 14:28:58.31	98.77	70.56	-37.3	-38.1	24.4	0.00e+00	0	30	0	776994816	48	5789
2026-01-12 14:28:59.32	100.24	70.62	-36.9	-37.7	24.6	0.00e+00	0	30	0	779091968	48	5556
2026-01-12 14:29:00.33	101.72	70.68	-37.0	-37.8	24.3	0.00e+00	0	30	0	781189120	48	5596
2026-01-12 14:29:01.34	103.21	70.72	-37.5	-38.4	23.8	0.00e+00	0	29	0	783286272	48	5975
2026-01-12 14:29:02.35	104.71	70.74	-37.0	-37.9	24.3	0.00e+00	0	30	0	784334848	48	5664
2026-01-12 14:29:03.36	106.21	70.76	-36.5	-37.3	24.8	0.00e+00	0	30	0	786432000	46	5906
2026-01-12 14:29:04.37	107.70	70.76	-35.8	-36.6	25.0	0.00e+00	0	30	0	788529152	46	5471
2026-01-12 14:29:05.38	109.20	70.75	-36.8	-37.6	24.3	0.00e+00	0	30	0	790626304	46	6128
2026-01-12 14:29:06.39	110.70	70.73	-37.1	-38.0	23.2	0.00e+00	0	30	0	792723456	46	6419
2026-01-12 14:29:07.40	112.19	70.70	-37.0	-37.9	24.0	0.00e+00	0	29	0	793772032	46	6328
2026-01-12 14:29:08.41	113.68	70.65	-36.8	-37.7	24.4	0.00e+00	0	29	0	795869184	46	6184
2026-01-12 14:29:09.41	115.14	70.59	-37.2	-38.1	24.0	0.00e+00	0	29	0	797966336	46	6489
2026-01-12 14:29:10.42	116.61	70.52	-37.6	-38.5	23.5	0.00e+00	0	29	0	800063488	48	6082
2026-01-12 14:29:11.44	118.08	70.44	-37.5	-38.4	23.8	0.00e+00	0	29	0	802160640	48	6015
2026-01-12 14:29:12.44	119.51	70.35	-37.3	-38.2	23.9	0.00e+00	0	30	0	803209216	48	5847
2026-01-12 14:29:13.46	120.95	70.24	-38.2	-39.2	23.0	0.00e+00	0	29	0	805306368	48	6550
2026-01-12 14:29:14.46	122.34	70.13	-39.6	-40.7	21.5	0.00e+00	0	29	0	807403520	50	6954
2026-01-12 14:29:15.48	123.75	70.00	-39.7	-40.8	21.7	0.00e+00	0	30	0	809500672	52	6303
2026-01-12 14:29:16.48	125.10	69.87	-39.4	-40.5	21.9	0.00e+00	0	29	0	811597824	52	6067
2026-01-12 14:29:17.50	126.47	69.72	-40.0	-41.1	21.2	0.00e+00	0	29	0	812646400	52	6529
2026-01-12 14:29:18.51	127.80	69.56	-40.1	-41.3	21.0	0.00e+00	0	29	0	814743552	52	6658
2026-01-12 14:29:19.52	129.11	69.39	-39.8	-40.9	21.6	0.00e+00	0	29	0	816840704	52	6377
2026-01-12 14:29:20.52	130.38	69.22	-39.4	-40.5	22.1	0.00e+00	0	29	0	818937856	52	6044
2026-01-12 14:29:21.53	131.64	69.03	-38.6	-39.6	22.5	0.00e+00	0	29	0	821035008	50	6129
2026-01-12 14:29:22.54	132.88	68.84	-39.0	-40.0	22.3	0.00e+00	0	29	0	822083584	50	6447
2026-01-12 14:29:23.55	134.09	68.64	-39.4	-40.5	21.8	0.00e+00	0	29	0	824180736	50	6838
2026-01-12 14:29:24.56	135.27	68.42	-39.1	-40.1	22.4	0.00e+00	0	29	0	826277888	50	6514
2026-01-12 14:29:25.57	136.44	68.21	-38.6	-39.6	22.7	0.00e+00	0	29	0	828375040	50	6138
2026-01-12 14:29:26.58	137.57	67.98	-38.8	-39.8	22.4	0.00e+00	0	29	0	830472192	50	6290
2026-01-12 14:29:27.58	138.67	67.75	-38.9	-39.9	22.5	0.00e+00	0	29	0	831520768	50	6360
2026-01-12 14:29:28.60	139.77	67.51	-39.0	-40.0	22.3	0.00e+00	0	29	0	833617920	50	6463
2026-01-12 14:29:29.60	140.82	67.26	-39.0	-40.0	22.2	0.00e+00	0	29	0	835715072	50	6455
2026-01-12 14:29:30.62	141.86	67.01	-39.0	-40.0	22.1	0.00e+00	0	29	0	837812224	50	6436
2026-01-12 14:29:31.62	142.86	66.75	-39.3	-40.4	21.8	0.00e+00	0	29	0	839909376	50	6758
2026-01-12 14:29:32.63	143.85	66.49	-39.9	-41.0	21.3	0.00e+00	0	29	0	840957952	52	6463
2026-01-12 14:29:33.64	144.81	66.22	-39.6	-40.7	21.7	0.00e+00	0	29	0	843055104	52	6230
2026-01-12 14:29:34.65	145.75	65.94	-39.8	-40.9	21.3	0.00e+00	0	29	0	845152256	52	6359
2026-01-12 14:29:35.66	146.67	65.66	-40.4	-41.6	20.9	0.00e+00	0	29	0	847249408	52	6923
2026-01-12 14:29:36.66	147.55	65.38	-39.5	-40.7	21.7	0.00e+00	0	29	0	849346560	52	6208
2026-01-12 14:29:37.67	148.42	65.09	-38.9	-39.9	22.3	0.00e+00	0	29	0	850395136	52	5692
2026-01-12 14:29:38.68	149.27	64.80	-38.9	-40.0	22.3	0.00e+00	0	29	0	852492288	52	5726
2026-01-12 14:29:39.69	150.09	64.51	-38.5	-39.5	22.9	0.00e+00	0	29	0	854589440	50	6053
2026-01-12 14:29:40.70	150.90	64.21	-37.0	-37.9	24.1	0.00e+00	0	29	0	856686592	48	5665
2026-01-12 14:29:41.71	151.68	63.91	-36.9	-37.8	24.2	0.00e+00	0	29	0	858783744	48	5583
2026-01-12 14:29:42.72	152.45	63.60	-35.4	-36.1	25.5	0.00e+00	0	29	0	860880896	44	5826
2026-01-12 14:29:43.73	153.19	63.29	-34.5	-35.1	26.5	0.00e+00	0	29	0	861929472	42	5824
2026-01-12 14:29:44.74	153.92	62.98	-34.1	-34.8	26.5	0.00e+00	0	29	0	864026624	42	5577
2026-01-12 14:29:45.74	154.62	62.68	-34.4	-35.1	26.4	0.00e+00	0	29	0	866123776	42	5786
2026-01-12 14:29:46.75	155.31	62.36	-34.3	-35.0	26.7	0.00e+00	0	29	0	868220928	42	5731
2026-01-12 14:29:47.76	155.98	62.04	-33.5	-34.2	27.1	0.00e+00	0	29	0	870318080	40	5846
2026-01-12 14:29:48.77	156.63	61.73	-33.3	-34.0	26.5	0.00e+00	0	29	0	871366656	40	5712
2026-01-12 14:29:49.78	157.27	61.41	-33.0	-33.7	27.4	0.00e+00	0	29	0	873463808	40	5528
2026-01-12 14:29:50.79	157.89	61.09	-33.7	-34.4	26.8	0.00e+00	0	29	0	875560960	40	6018
2026-01-12 14:29:51.80	158.50	60.76	-35.1	-35.8	25.9	0.00e+00	0	29	0	877658112	42	6295
2026-01-12 14:29:52.81	159.09	60.44	-35.5	-36.3	25.6	0.00e+00	0	29	0	879755264	42	6670
2026-01-12 14:29:53.83	159.67	60.11	-34.7	-35.4	26.3	0.00e+00	0	29	0	880803840	42	6022
2026-01-12 14:29:54.83	160.23	59.79	-34.4	-35.1	26.5	0.00e+00	0	29	0	882900992	42	5795
2026-01-12 14:29:55.85	160.78	59.46	-35.6	-36.4	25.4	0.00e+00	0	29	0	884998144	42	6712
2026-01-12 14:29:56.85	161.31	59.14	-37.5	-38.4	23.8	0.00e+00	0	29	0	887095296	46	6721
2026-01-12 14:29:57.86	161.83	58.81	-37.7	-38.6	23.7	0.00e+00	0	29	0	889192448	48	6142
2026-01-12 14:29:58.87	162.34	58.48	-36.7	-37.6	24.5	0.00e+00	0	29	0	890241024	48	5468
2026-01-12 14:29:59.88	162.84	58.16	-36.2	-37.0	25.0	0.00e+00	0	29	0	892338176	46	5727
2026-01-12 14:30:00.89	163.33	57.83	-36.4	-37.2	24.7	0.00e+00	0	29	0	894435328	46	5833
2026-01-12 14:30:01.90	163.80	57.50	-37.4	-38.2	23.8	0.00e+00	0	29	0	896532480	46	6592
2026-01-12 14:30:02.91	164.26	57.17	-38.9	-39.9	22.4	0.00e+00	0	29	0	898629632	48	7170
2026-01-12 14:30:03.91	164.71	56.85	-38.2	-39.2	23.3	0.00e+00	0	29	0	899678208	50	5865
2026-01-12 14:30:04.92	165.15	56.52	-35.6	-36.4	25.5	0.00e+00	0	29	0	901775360	46	5348
2026-01-12 14:30:05.93	165.58	56.20	-34.7	-35.4	26.3	0.00e+00	0	29	0	903872512	42	6001
2026-01-12 14:30:06.94	166.00	55.87	-34.2	-34.9	26.7	0.00e+00	0	29	0	905969664	42	5643
2026-01-12 14:30:07.95	166.41	55.54	-35.8	-36.6	25.1	0.00e+00	0	29	0	908066816	42	6906
2026-01-12 14:30:08.96	166.81	55.22	-37.2	-38.2	24.0	0.00e+00	0	29	0	909115392	46	6575
2026-01-12 14:30:09.97	167.21	54.89	-36.3	-37.1	24.6	0.00e+00	0	29	0	911212544	46	5819
2026-01-12 14:30:10.98	167.59	54.57	-34.7	-35.5	26.2	0.00e+00	0	29	0	913309696	44	5393
2026-01-12 14:30:11.99	167.97	54.25	-33.7	-34.4	26.8	0.00e+00	0	29	0	915406848	42	5339
2026-01-12 14:30:13.00	168.33	53.93	-33.4	-34.0	27.4	0.00e+00	0	29	0	917504000	40	5760
2026-01-12 14:30:14.01	168.69	53.60	-33.9	-34.6	26.8	0.00e+00	0	29	0	918552576	40	6150
2026-01-12 14:30:15.02	169.05	53.28	-35.1	-35.8	25.8	0.00e+00	0	29	0	920649728	42	6311
2026-01-12 14:30:16.02	169.39	52.97	-35.9	-36.7	25.3	0.00e+00	0	29	0	922746880	44	6219
2026-01-12 14:30:17.04	169.73	52.65	-35.1	-35.9	25.9	0.00e+00	0	29	0	924844032	44	5680
2026-01-12 14:30:18.04	170.05	52.33	-33.8	-34.5	26.9	0.00e+00	0	29	0	926941184	42	5380
2026-01-12 14:30:19.05	170.38	52.02	-33.4	-34.1	27.3	0.00e+00	0	29	0	927989760	40	5808
2026-01-12 14:30:20.07	170.70	51.70	-33.7	-34.4	27.0	0.00e+00	0	29	0	930086912	40	5987
2026-01-12 14:30:21.08	171.01	51.38	-34.9	-35.7	26.0	0.00e+00	0	29	0	932184064	42	6182
2026-01-12 14:30:22.08	171.31	51.07	-36.1	-36.9	25.0	0.00e+00	0	29	0	934281216	44	6359
2026-01-12 14:30:23.09	171.60	50.76	-37.1	-38.0	24.1	0.00e+00	0	29	0	936378368	46	6400
2026-01-12 14:30:24.10	171.89	50.45	-37.6	-38.5	23.6	0.00e+00	0	29	0	937426944	46	6806
2026-01-12 14:30:25.11	172.18	50.14	-37.8	-38.8	23.5	0.00e+00	0	29	0	939524096	48	6253
2026-01-12 14:30:26.12	172.46	49.84	-37.7	-38.6	23.7	0.00e+00	0	29	0	941621248	48	6143
2026-01-12 14:30:27.13	172.73	49.53	-37.1	-38.0	24.1	0.00e+00	0	29	0	943718400	48	5719
2026-01-12 14:30:28.14	173.00	49.23	-37.9	-38.9	23.2	0.00e+00	0	29	0	945815552	48	6319
2026-01-12 14:30:29.15	173.27	48.92	-39.7	-40.9	21.5	0.00e+00	0	29	0	946864128	50	7125
2026-01-12 14:30:30.16	173.52	48.62	-41.5	-43.1	19.2	0.00e+00	0	29	0	948961280	54	7266
2026-01-12 14:30:31.17	173.78	48.32	-41.7	-43.3	19.3	0.00e+00	0	29	0	951058432	56	6663
2026-01-12 14:30:32.18	174.03	48.02	-40.7	-42.1	20.4	0.00e+00	0	29	0	953155584	56	5789
2026-01-12 14:30:33.19	174.27	47.72	-40.2	-41.4	21.2	0.00e+00	0	29	0	955252736	54	5989
2026-01-12 14:30:34.20	174.51	47.43	-39.6	-40.7	21.9	0.00e+00	0	29	0	957349888	52	6175
2026-01-12 14:30:35.21	174.75	47.13	-39.4	-40.5	22.1	0.00e+00	0	29	0	958398464	52	6068
2026-01-12 14:30:36.22	174.98	46.84	-38.4	-39.3	23.0	0.00e+00	0	29	0	960495616	50	5961
2026-01-12 14:30:37.23	175.20	46.55	-38.4	-39.4	23.0	0.00e+00	0	29	0	962592768	50	5968
2026-01-12 14:30:38.24	175.43	46.26	-38.9	-39.9	22.4	0.00e+00	0	29	0	964689920	50	6360
2026-01-12 14:30:39.25	175.65	45.97	-40.3	-41.6	20.9	0.00e+00	0	29	0	966787072	52	6908
2026-01-12 14:30:40.26	175.86	45.69	-40.9	-42.3	20.1	0.00e+00	0	29	0	967835648	54	6680
2026-01-12 14:30:41.26	176.07	45.40	-40.2	-41.5	21.0	0.00e+00	0	29	0	969932800	54	6075
2026-01-12 14:30:42.27	176.28	45.12	-38.7	-39.8	22.4	0.00e+00	0	29	0	972029952	52	5584
2026-01-12 14:30:43.28	176.48	44.84	-38.3	-39.3	22.8	0.00e+00	0	29	0	974127104	50	5911
2026-01-12 14:30:44.29	176.68	44.56	-37.9	-38.8	23.4	0.00e+00	0	29	0	976224256	50	5594
2026-01-12 14:30:45.30	176.88	44.28	-37.1	-38.0	24.2	0.00e+00	0	29	0	977272832	48	5704
2026-01-12 14:30:46.31	177.07	44.00	-36.7	-37.5	24.5	0.00e+00	0	29	0	979369984	46	6073
2026-01-12 14:30:47.32	177.26	43.73	-37.4	-38.3	23.9	0.00e+00	0	29	0	981467136	46	6652
2026-01-12 14:30:48.33	177.45	43.46	-38.1	-39.1	23.0	0.00e+00	0	29	0	983564288	48	6472
2026-01-12 14:30:49.34	177.64	43.18	-38.8	-39.8	22.8	0.00e+00	0	29	0	985661440	48	7073
2026-01-12 14:30:50.35	177.82	42.91	-38.5	-39.5	22.8	0.00e+00	0	29	0	986710016	50	6088
2026-01-12 14:30:51.36	177.99	42.64	-37.4	-38.4	23.8	0.00e+00	0	29	0	988807168	48	5969
2026-01-12 14:30:52.37	178.17	42.38	-36.9	-37.8	24.3	0.00e+00	0	29	0	990904320	48	5570
2026-01-12 14:30:53.38	178.34	42.11	-36.1	-36.9	25.0	0.00e+00	0	29	0	993001472	46	5675
2026-01-12 14:30:54.39	178.51	41.85	-36.0	-36.8	25.0	0.00e+00	0	29	0	995098624	46	5591
2026-01-12 14:30:55.39	178.68	41.59	-35.4	-36.1	25.6	0.00e+00	0	29	0	996147200	44	5801
2026-01-12 14:30:56.40	178.84	41.33	-35.7	-36.4	25.2	0.00e+00	0	29	0	998244352	44	6032
2026-01-12 14:30:57.41	179.00	41.07	-36.9	-37.8	24.3	0.00e+00	0	29	0	1000341504	44	7029
2026-01-12 14:30:58.42	179.16	40.81	-38.3	-39.3	22.9	0.00e+00	0	29	0	1002438656	48	6666
2026-01-12 14:30:59.43	179.32	40.56	-39.5	-40.6	21.6	0.00e+00	0	29	0	1004535808	50	6908
2026-01-12 14:31:00.44	179.48	40.30	-39.4	-40.6	21.8	0.00e+00	0	29	0	1005584384	50	6875
2026-01-12 14:31:01.45	179.63	40.05	-39.0	-40.1	22.3	0.00e+00	0	29	0	1007681536	50	6465
2026-01-12 14:31:02.45	179.78	39.80	-38.8	-39.8	22.5	0.00e+00	0	29	0	1009778688	50	6314
2026-01-12 14:31:03.46	179.92	39.55	-38.0	-38.9	23.4	0.00e+00	0	29	0	1011875840	50	5671
2026-01-12 14:31:04.47	180.07	39.30	-36.6	-37.4	24.5	0.00e+00	0	29	0	1013972992	46	6017
2026-01-12 14:31:05.48	180.21	39.06	-36.7	-37.5	24.4	0.00e+00	0	29	0	1015021568	46	6078
2026-01-12 14:31:06.49	180.36	38.81	-37.0	-37.8	24.2	0.00e+00	0	29	0	1017118720	46	6315
2026-01-12 14:31:07.50	180.49	38.57	-36.9	-37.7	24.2	0.00e+00	0	29	0	1019215872	46	6238
2026-01-12 14:31:08.51	180.63	38.33	-37.5	-38.4	23.7	0.00e+00	0	29	0	1021313024	46	6730
2026-01-12 14:31:09.52	180.77	38.09	-38.0	-39.0	23.2	0.00e+00	0	29	0	1023410176	48	6406
2026-01-12 14:31:10.53	180.90	37.85	-38.3	-39.3	22.9	0.00e+00	0	29	0	1025507328	48	6652
2026-01-12 14:31:11.54	181.03	37.61	-38.6	-39.6	22.6	0.00e+00	0	29	0	1026555904	48	6921
2026-01-12 14:31:12.55	181.16	37.38	-38.7	-39.7	22.6	0.00e+00	0	29	0	1028653056	50	6236
2026-01-12 14:31:13.56	181.29	37.14	-38.3	-39.3	23.0	0.00e+00	0	29	0	1030750208	50	5929
2026-01-12 14:31:14.56	181.42	36.91	-38.0	-39.0	23.2	0.00e+00	0	29	0	1032847360	50	5711
2026-01-12 14:31:15.57	181.54	36.68	-37.3	-38.2	23.9	0.00e+00	0	29	0	1034944512	48	5875
2026-01-12 14:31:16.58	181.66	36.45	-37.0	-37.9	24.1	0.00e+00	0	29	0	1035993088	48	5662
2026-01-12 14:31:17.59	181.78	36.22	-36.9	-37.8	24.3	0.00e+00	0	29	0	1038090240	48	5588
2026-01-12 14:31:18.60	181.90	36.00	-37.1	-37.9	24.0	0.00e+00	0	29	0	1040187392	48	5691
2026-01-12 14:31:19.61	182.02	35.77	-37.0	-37.9	24.2	0.00e+00	0	29	0	1042284544	48	5644
2026-01-12 14:31:20.62	182.14	35.55	-37.3	-38.2	23.9	0.00e+00	0	29	0	1044381696	48	5851
2026-01-12 14:31:21.63	182.25	35.33	-37.5	-38.4	23.7	0.00e+00	0	29	0	1045430272	48	5967
2026-01-12 14:31:22.64	182.37	35.10	-37.7	-38.6	23.5	0.00e+00	0	29	0	1047527424	48	6120
2026-01-12 14:31:23.65	182.48	34.88	-37.7	-38.6	23.4	0.00e+00	0	29	0	1049624576	48	6114
2026-01-12 14:31:24.66	182.59	34.67	-38.0	-39.0	23.0	0.00e+00	0	29	0	1051721728	48	6410
2026-01-12 14:31:25.66	182.70	34.45	-38.1	-39.1	23.1	0.00e+00	0	29	0	1053818880	48	6497
2026-01-12 14:31:26.67	182.81	34.24	-38.4	-39.4	22.7	0.00e+00	0	29	0	1054867456	48	6746
2026-01-12 14:31:27.68	182.91	34.02	-38.7	-39.7	22.5	0.00e+00	0	29	0	1056964608	48	6989
2026-01-12 14:31:28.69	183.02	33.81	-38.8	-39.9	22.3	0.00e+00	0	29	0	1059061760	50	6328
2026-01-12 14:31:29.70	183.12	33.60	-39.0	-40.1	22.2	0.00e+00	0	29	0	1061158912	50	6489
2026-01-12 14:31:30.71	183.22	33.39	-39.0	-40.1	22.1	0.00e+00	0	29	0	1063256064	50	6517
2026-01-12 14:31:31.72	183.32	33.18	-39.0	-40.1	22.2	0.00e+00	0	29	0	1064304640	50	6476
2026-01-12 14:31:32.72	183.42	32.98	-38.9	-39.9	22.3	0.00e+00	0	29	0	1066401792	50	6380
2026-01-12 14:31:33.74	183.52	32.77	-38.9	-39.9	22.4	0.00e+00	0	29	0	1068498944	50	6360
2026-01-12 14:31:34.74	183.62	32.57	-38.8	-39.9	22.4	0.00e+00	0	29	0	1070596096	50	6320
2026-01-12 14:31:35.75	183.72	32.36	-38.8	-39.8	22.5	0.00e+00	0	29	0	1072693248	50	6272
2026-01-12 14:31:36.76	183.81	32.16	-38.8	-39.8	22.5	0.00e+00	0	29	0	1073741824	50	6272
2026-01-12 14:31:37.77	183.91	31.96	-38.9	-40.0	22.2	0.00e+00	0	29	0	1075838976	50	6404
2026-01-12 14:31:38.78	184.00	31.76	-38.9	-40.0	22.2	0.00e+00	0	29	0	1077936128	50	6421
2026-01-12 14:31:39.78	184.09	31.56	-39.2	-40.2	22.1	0.00e+00	0	29	0	1080033280	50	6590
2026-01-12 14:31:40.79	184.18	31.37	-38.8	-39.8	22.3	0.00e+00	0	29	0	1082130432	50	6317
2026-01-12 14:31:41.80	184.27	31.17	-39.1	-40.2	22.1	0.00e+00	0	29	0	1083179008	50	6542
2026-01-12 14:31:42.81	184.36	30.98	-39.2	-40.3	22.0	0.00e+00	0	29	0	1085276160	50	6620
2026-01-12 14:31:43.82	184.45	30.78	-39.4	-40.5	21.7	0.00e+00	0	29	0	1087373312	50	6784
2026-01-12 14:31:44.83	184.53	30.59	-39.5	-40.6	21.7	0.00e+00	0	29	0	1089470464	50	6910
2026-01-12 14:31:45.84	184.62	30.40	-39.7	-40.9	21.5	0.00e+00	0	29	0	1091567616	50	7097
2026-01-12 14:31:46.85	184.71	30.21	-39.7	-40.9	21.5	0.00e+00	0	29	0	1092616192	50	7120
2026-01-12 14:31:47.86	184.79	30.02	-39.9	-41.1	21.2	0.00e+00	0	29	0	1094713344	52	6531
2026-01-12 14:31:48.87	184.87	29.84	-39.7	-40.9	21.5	0.00e+00	0	29	0	1096810496	52	6322
2026-01-12 14:31:49.88	184.96	29.65	-39.4	-40.5	21.8	0.00e+00	0	29	0	1098907648	52	6074
2026-01-12 14:31:50.89	185.04	29.46	-39.5	-40.6	21.8	0.00e+00	0	29	0	1101004800	52	6129
2026-01-12 14:31:51.90	185.12	29.28	-39.1	-40.1	22.1	0.00e+00	0	29	0	1102053376	52	5818
2026-01-12 14:31:52.91	185.20	29.10	-39.0	-40.1	22.2	0.00e+00	0	29	0	1104150528	52	5766
2026-01-12 14:31:53.92	185.27	28.92	-38.2	-39.1	23.0	0.00e+00	0	29	0	1106247680	50	5812
2026-01-12 14:31:54.93	185.35	28.74	-38.0	-38.9	23.2	0.00e+00	0	29	0	1108344832	50	5687
2026-01-12 14:31:55.94	185.43	28.56	-37.9	-38.8	23.3	0.00e+00	0	29	0	1110441984	50	5612
2026-01-12 14:31:56.95	185.51	28.38	-37.7	-38.6	23.6	0.00e+00	0	29	0	1111490560	50	5471
2026-01-12 14:31:57.96	185.58	28.20	-37.0	-37.9	24.1	0.00e+00	0	29	0	1113587712	48	5654
2026-01-12 14:31:58.97	185.66	28.03	-36.9	-37.7	24.3	0.00e+00	0	29	0	1115684864	48	5551
2026-01-12 14:31:59.98	185.73	27.85	-36.8	-37.7	24.3	0.00e+00	0	29	0	1117782016	48	5515
2026-01-12 14:32:00.98	185.80	27.68	-36.7	-37.5	24.4	0.00e+00	0	29	0	1119879168	48	5432
2026-01-12 14:32:01.99	185.87	27.51	-36.8	-37.7	24.2	0.00e+00	0	29	0	1121976320	46	6188
2026-01-12 14:32:03.00	185.95	27.33	-36.8	-37.7	24.2	0.00e+00	0	29	0	1123024896	46	6207
2026-01-12 14:32:04.01	186.02	27.16	-36.9	-37.7	24.2	0.00e+00	0	29	0	1125122048	46	6243
2026-01-12 14:32:05.01	186.09	26.99	-37.0	-37.8	24.1	0.00e+00	0	29	0	1127219200	46	6306
2026-01-12 14:32:06.02	186.16	26.83	-36.9	-37.7	24.3	0.00e+00	0	29	0	1129316352	46	6231
2026-01-12 14:32:07.03	186.22	26.66	-36.9	-37.8	24.2	0.00e+00	0	29	0	1131413504	46	6284
2026-01-12 14:32:08.04	186.29	26.49	-37.1	-37.9	24.0	0.00e+00	0	29	0	1132462080	46	6386
2026-01-12 14:32:09.05	186.36	26.33	-37.1	-38.0	24.0	0.00e+00	0	29	0	1134559232	46	6423
2026-01-12 14:32:10.06	186.43	26.16	-37.3	-38.1	23.9	0.00e+00	0	29	0	1136656384	46	6532
2026-01-12 14:32:11.07	186.49	26.00	-37.1	-38.0	24.0	0.00e+00	0	29	0	1138753536	46	6437
2026-01-12 14:32:12.08	186.56	25.83	-37.2	-38.1	23.9	0.00e+00	0	29	0	1140850688	46	6513
2026-01-12 14:32:13.09	186.62	25.67	-37.0	-37.9	24.1	0.00e+00	0	29	0	1141899264	46	6352
2026-01-12 14:32:14.10	186.69	25.51	-36.8	-37.7	24.3	0.00e+00	0	29	0	1143996416	46	6191
2026-01-12 14:32:15.11	186.75	25.35	-36.7	-37.5	24.4	0.00e+00	0	29	0	1146093568	46	6099
2026-01-12 14:32:16.11	186.81	25.19	-36.6	-37.5	24.5	0.00e+00	0	29	0	1148190720	46	6036
2026-01-12 14:32:17.12	186.88	25.03	-36.3	-37.1	24.7	0.00e+00	0	29	0	1150287872	46	5808
2026-01-12 14:32:18.13	186.94	24.88	-36.3	-37.2	24.7	0.00e+00	0	29	0	1151336448	46	5851
2026-01-12 14:32:19.14	187.00	24.72	-36.3	-37.2	24.7	0.00e+00	0	29	0	1153433600	46	5836
2026-01-12 14:32:20.14	187.06	24.57	-36.2	-37.0	24.8	0.00e+00	0	29	0	1155530752	46	5753
2026-01-12 14:32:21.15	187.12	24.41	-36.1	-37.0	24.9	0.00e+00	0	29	0	1157627904	46	5699
2026-01-12 14:32:22.16	187.18	24.26	-36.2	-37.0	24.8	0.00e+00	0	29	0	1159725056	46	5746
2026-01-12 14:32:23.17	187.24	24.11	-36.1	-37.0	24.8	0.00e+00	0	29	0	1160773632	46	5737
2026-01-12 14:32:24.18	187.30	23.95	-36.0	-36.8	25.1	0.00e+00	0	29	0	1162870784	46	5622
2026-01-12 14:32:25.19	187.36	23.80	-35.9	-36.8	25.0	0.00e+00	0	29	0	1164967936	46	5599
2026-01-12 14:32:26.20	187.41	23.65	-35.9	-36.7	25.0	0.00e+00	0	29	0	1167065088	46	5565
2026-01-12 14:32:27.21	187.47	23.50	-35.9	-36.8	25.0	0.00e+00	0	29	0	1169162240	46	5576
2026-01-12 14:32:28.22	187.53	23.35	-35.8	-36.7	25.0	0.00e+00	0	29	0	1170210816	46	5527
2026-01-12 14:32:29.23	187.58	23.21	-35.8	-36.7	25.1	0.00e+00	0	29	0	1172307968	46	5508
2026-01-12 14:32:30.24	187.64	23.06	-35.8	-36.6	25.1	0.00e+00	0	29	0	1174405120	46	5485
2026-01-12 14:32:31.25	187.69	22.91	-35.8	-36.6	25.1	0.00e+00	0	29	0	1176502272	46	5464
2026-01-12 14:32:32.25	187.75	22.77	-35.9	-36.7	25.0	0.00e+00	0	28	0	1178599424	46	5541
2026-01-12 14:32:33.26	187.80	22.62	-35.7	-36.5	25.2	0.00e+00	0	29	0	1179648000	44	6053
2026-01-12 14:32:34.27	187.86	22.48	-35.8	-36.6	24.9	0.00e+00	0	29	0	1181745152	44	6157
2026-01-12 14:32:35.28	187.91	22.34	-35.8	-36.6	25.0	0.00e+00	0	29	0	1183842304	44	6132
2026-01-12 14:32:36.29	187.96	22.19	-35.9	-36.7	24.9	0.00e+00	0	29	0	1185939456	44	6200
2026-01-12 14:32:37.30	188.01	22.05	-35.9	-36.7	25.0	0.00e+00	0	29	0	1188036608	44	6227
2026-01-12 14:32:38.31	188.07	21.91	-36.1	-36.9	24.8	0.00e+00	0	29	0	1189085184	44	6352
2026-01-12 14:32:39.32	188.12	21.77	-36.2	-37.0	24.7	0.00e+00	0	29	0	1191182336	44	6457
2026-01-12 14:32:40.33	188.17	21.63	-36.3	-37.1	24.7	0.00e+00	0	29	0	1193279488	44	6528
2026-01-12 14:32:41.33	188.22	21.50	-36.1	-36.9	24.8	0.00e+00	0	29	0	1195376640	44	6388
2026-01-12 14:32:42.35	188.27	21.36	-36.2	-37.1	24.7	0.00e+00	0	29	0	1197473792	44	6478
2026-01-12 14:32:43.36	188.32	21.22	-36.3	-37.1	24.5	0.00e+00	0	28	0	1198522368	44	6506
2026-01-12 14:32:44.37	188.37	21.08	-36.0	-36.9	24.8	0.00e+00	0	29	0	1200619520	44	6320
2026-01-12 14:32:45.37	188.42	20.95	-36.1	-36.9	24.5	0.00e+00	0	28	0	1202716672	44	6346
2026-01-12 14:32:46.38	188.46	20.81	-36.2	-37.0	24.7	0.00e+00	0	28	0	1204813824	44	6424
2026-01-12 14:32:47.39	188.51	20.68	-36.1	-36.9	24.8	0.00e+00	0	29	0	1206910976	44	6353
2026-01-12 14:32:48.40	188.56	20.55	-36.1	-37.0	24.8	0.00e+00	0	29	0	1207959552	44	6396
2026-01-12 14:32:49.41	188.61	20.41	-36.1	-36.9	24.9	0.00e+00	0	29	0	1210056704	44	6375
2026-01-12 14:32:50.42	188.65	20.28	-36.1	-36.9	24.8	0.00e+00	0	29	0	1212153856	44	6339
2026-01-12 14:32:51.43	188.70	20.15	-36.1	-36.9	24.9	0.00e+00	0	29	0	1214251008	44	6339
2026-01-12 14:32:52.44	188.75	20.02	-36.0	-36.8	25.0	0.00e+00	0	29	0	1216348160	44	6264
2026-01-12 14:32:53.45	188.79	19.89	-36.0	-36.8	24.9	0.00e+00	0	29	0	1218445312	44	6312
2026-01-12 14:32:54.46	188.84	19.76	-36.2	-37.0	24.8	0.00e+00	0	29	0	1219493888	44	6418
2026-01-12 14:32:55.46	188.88	19.63	-36.2	-37.0	24.7	0.00e+00	0	29	0	1221591040	44	6413
2026-01-12 14:32:56.47	188.93	19.50	-36.2	-37.0	24.7	0.00e+00	0	29	0	1223688192	44	6403
