passes_logs/2026/01/12/R4.6S_Anadyr/R4.6S_Anadyr__20260112_043703_FENGYUN_3D_rec.log

#Pass ID: 20260112_043703_FENGYUN 3D
#Satellite: FENGYUN 3D
#Configuration: FENGYUN 3D
#almurnet v.1.7.20251203
#Start time: 2026-01-12 04:37:05

#Version: 2.2.20231116
#Station: R4.6S_Anadyr
#Location: 177.4865 lon 64.73178 lat
#TLE: 1 43010U 17072A   26011.62066612  .00000104  00000+0  70810-4 0  9998
#TLE: 2 43010  98.9935 343.3846 0002223 114.2890 245.8518 14.19694405422776

#Time	Az	El	Level	Level2	SNR	BER	BlckErr	Temp	State	Recorded	gain1	gain2
2026-01-12 04:37:05.06	218.29	0.09	-48.6	-66.4	3.5	3.04e+01	0	24	0	0	60	80422
2026-01-12 04:37:06.07	218.36	0.14	-48.2	-60.4	3.6	8.45e-01	0	25	104	0	60	37651
2026-01-12 04:37:07.08	218.44	0.19	-48.2	-60.4	3.6	8.45e-01	0	25	104	0	60	37792
2026-01-12 04:37:08.09	218.51	0.24	-48.3	-60.5	3.6	8.46e-01	0	26	104	0	60	38279
2026-01-12 04:37:09.10	218.59	0.29	-48.4	-60.4	3.6	8.45e-01	0	25	104	0	60	37966
2026-01-12 04:37:10.11	218.66	0.34	-48.3	-60.5	3.6	8.44e-01	0	26	104	0	60	38106
2026-01-12 04:37:11.12	218.74	0.39	-48.4	-60.5	3.6	8.45e-01	0	26	104	0	60	38422
2026-01-12 04:37:12.12	218.81	0.44	-48.3	-60.5	3.6	8.46e-01	0	26	104	0	60	38225
2026-01-12 04:37:13.13	218.89	0.49	-48.4	-60.5	3.6	8.45e-01	0	26	104	0	60	38463
2026-01-12 04:37:14.14	218.97	0.54	-48.1	-60.5	3.6	8.44e-01	0	26	104	0	60	38348
2026-01-12 04:37:15.15	219.04	0.59	-48.0	-60.5	3.6	8.45e-01	0	26	104	0	60	38433
2026-01-12 04:37:16.16	219.12	0.64	-48.2	-60.6	3.6	8.45e-01	0	26	104	0	60	38683
2026-01-12 04:37:17.17	219.20	0.69	-47.8	-60.5	3.6	8.44e-01	0	26	104	0	60	38084
2026-01-12 04:37:18.18	219.28	0.74	-48.1	-60.3	3.6	8.44e-01	0	26	104	0	60	37575
2026-01-12 04:37:19.19	219.35	0.79	-48.1	-60.3	3.5	8.45e-01	0	26	104	0	60	37545
2026-01-12 04:37:20.20	219.43	0.84	-48.0	-60.1	3.6	8.45e-01	0	26	104	0	60	36642
2026-01-12 04:37:21.21	219.51	0.89	-47.6	-59.7	3.6	8.45e-01	0	26	104	0	60	35010
2026-01-12 04:37:22.22	219.59	0.94	-46.0	-57.7	3.6	8.45e-01	0	26	104	0	60	27638
2026-01-12 04:37:23.23	219.67	0.99	-44.9	-56.3	3.6	8.45e-01	0	26	104	0	60	23622
2026-01-12 04:37:24.24	219.75	1.04	-44.9	-56.3	3.6	8.45e-01	0	26	104	0	60	23560
2026-01-12 04:37:25.25	219.83	1.09	-44.9	-56.3	3.6	8.45e-01	0	26	104	0	60	23567
2026-01-12 04:37:26.26	219.91	1.14	-44.9	-56.2	3.6	8.44e-01	0	26	104	0	60	23441
2026-01-12 04:37:27.27	219.99	1.19	-44.9	-56.2	3.6	8.44e-01	0	26	104	0	60	23348
2026-01-12 04:37:28.28	220.07	1.25	-44.8	-56.2	3.6	8.44e-01	0	26	104	0	60	23312
2026-01-12 04:37:29.29	220.15	1.30	-44.9	-56.2	3.6	8.44e-01	0	26	104	0	60	23288
2026-01-12 04:37:30.30	220.23	1.35	-44.9	-56.2	3.6	8.44e-01	0	26	104	0	60	23339
2026-01-12 04:37:31.31	220.31	1.40	-44.9	-56.2	3.6	8.44e-01	0	26	104	0	60	23456
2026-01-12 04:37:32.32	220.39	1.45	-44.9	-56.2	3.6	8.44e-01	0	26	104	0	60	23413
2026-01-12 04:37:33.33	220.47	1.50	-44.8	-56.2	3.6	8.44e-01	0	26	104	0	60	23435
2026-01-12 04:37:34.34	220.55	1.55	-44.8	-56.3	3.6	8.44e-01	0	26	104	0	60	23512
2026-01-12 04:37:35.35	220.63	1.60	-44.8	-56.2	3.6	8.45e-01	0	26	104	0	60	23443
2026-01-12 04:37:36.36	220.72	1.65	-44.9	-56.3	3.6	8.45e-01	0	26	104	0	60	23551
2026-01-12 04:37:37.37	220.80	1.71	-44.8	-56.2	3.6	8.45e-01	0	26	104	0	60	23442
2026-01-12 04:37:38.38	220.88	1.76	-44.8	-56.2	3.6	8.45e-01	0	26	104	0	60	23371
2026-01-12 04:37:39.39	220.97	1.81	-44.8	-56.2	3.6	8.44e-01	0	26	104	0	60	23428
2026-01-12 04:37:40.40	221.05	1.86	-44.8	-56.2	3.6	8.44e-01	0	26	104	0	60	23465
2026-01-12 04:37:41.41	221.13	1.91	-44.8	-56.2	3.6	8.44e-01	0	26	104	0	60	23330
2026-01-12 04:37:42.42	221.22	1.96	-44.8	-56.2	3.6	8.45e-01	0	26	104	0	60	23252
2026-01-12 04:37:43.43	221.30	2.01	-44.8	-56.2	3.6	8.46e-01	0	26	104	0	60	23318
2026-01-12 04:37:44.44	221.39	2.07	-44.8	-56.1	3.6	8.45e-01	0	26	104	0	60	23124
2026-01-12 04:37:45.45	221.47	2.12	-44.8	-56.1	3.6	8.44e-01	0	26	104	0	60	23140
2026-01-12 04:37:46.46	221.56	2.17	-44.8	-56.0	3.6	8.46e-01	0	26	104	0	60	22713
2026-01-12 04:37:47.47	221.64	2.22	-44.8	-56.0	3.6	8.45e-01	0	26	104	0	60	22893
2026-01-12 04:37:48.48	221.73	2.27	-44.8	-56.1	3.6	8.45e-01	0	26	104	0	60	22983
2026-01-12 04:37:49.49	221.81	2.32	-44.8	-56.1	3.6	8.44e-01	0	26	104	0	60	23079
2026-01-12 04:37:50.50	221.90	2.38	-44.8	-56.1	3.6	8.44e-01	0	26	104	0	60	23196
2026-01-12 04:37:51.51	221.99	2.43	-44.8	-56.1	3.6	8.45e-01	0	26	104	0	60	23146
2026-01-12 04:37:52.52	222.07	2.48	-44.8	-56.1	3.6	8.44e-01	0	26	104	0	60	23120
2026-01-12 04:37:53.52	222.16	2.53	-44.8	-55.7	3.6	8.44e-01	0	26	104	0	60	21984
2026-01-12 04:37:54.53	222.25	2.58	-44.6	-54.5	3.6	8.44e-01	0	26	104	0	60	19089
2026-01-12 04:37:55.54	222.33	2.64	-44.0	-50.7	5.0	8.25e-01	0	26	0	0	60	12456
2026-01-12 04:37:56.55	222.42	2.69	-43.1	-47.2	7.9	1.47e-01	0	26	0	4194304	60	8268
2026-01-12 04:37:57.57	222.51	2.74	-41.6	-44.4	11.1	6.36e-03	0	26	0	9437184	58	6726
2026-01-12 04:37:58.57	222.60	2.79	-40.3	-42.3	13.1	2.74e-05	0	26	0	15728640	54	6651
2026-01-12 04:37:59.58	222.69	2.84	-39.7	-41.6	14.3	6.80e-06	0	26	0	20971520	54	6138
2026-01-12 04:38:00.59	222.78	2.90	-38.9	-40.5	15.0	0.00e+00	0	26	0	26214400	52	6044
2026-01-12 04:38:01.60	222.87	2.95	-38.9	-40.5	15.0	0.00e+00	0	26	0	32505856	52	6057
2026-01-12 04:38:02.61	222.96	3.00	-39.4	-41.1	14.4	0.00e+00	0	26	0	37748736	52	6509
2026-01-12 04:38:03.62	223.05	3.05	-38.4	-39.9	12.9	0.00e+00	0	26	0	42991616	50	6329
2026-01-12 04:38:04.63	223.14	3.11	-41.6	-44.7	10.5	2.37e-01	0	26	104	44040192	58	6964
2026-01-12 04:38:05.64	223.23	3.16	-41.0	-43.4	10.8	0.00e+00	0	26	0	47185920	52	8488
2026-01-12 04:38:06.64	223.32	3.21	-44.1	-52.9	3.6	8.44e-01	0	26	104	48234496	60	16017
2026-01-12 04:38:07.65	223.41	3.26	-37.9	-39.3	15.7	4.02e-01	0	26	104	48234496	52	5290
2026-01-12 04:38:08.66	223.50	3.32	-38.6	-40.0	15.7	0.00e+00	0	26	0	51380224	50	6457
2026-01-12 04:38:09.68	223.59	3.37	-38.0	-39.3	16.4	0.00e+00	0	26	0	57671680	50	5958
2026-01-12 04:38:10.68	223.68	3.42	-37.9	-39.2	16.6	0.00e+00	0	26	0	62914560	50	5849
2026-01-12 04:38:11.69	223.78	3.47	-37.6	-38.8	16.9	0.00e+00	0	26	0	69206016	48	6316
2026-01-12 04:38:12.70	223.87	3.53	-38.0	-39.3	16.5	0.00e+00	0	26	0	74448896	48	6654
2026-01-12 04:38:13.71	223.96	3.58	-38.1	-39.4	16.4	0.00e+00	0	26	0	79691776	48	6716
2026-01-12 04:38:14.72	224.06	3.63	-38.0	-39.4	16.5	0.00e+00	0	26	0	85983232	48	6711
2026-01-12 04:38:15.73	224.15	3.69	-38.0	-39.3	16.7	0.00e+00	0	26	0	91226112	48	6658
2026-01-12 04:38:16.74	224.24	3.74	-38.3	-39.6	16.3	0.00e+00	0	26	0	97517568	48	6921
2026-01-12 04:38:17.75	224.34	3.79	-38.1	-39.3	16.9	0.00e+00	0	26	0	102760448	48	6685
2026-01-12 04:38:18.76	224.43	3.84	-37.5	-38.7	17.2	0.00e+00	0	26	0	109051904	48	6223
2026-01-12 04:38:19.77	224.53	3.90	-38.2	-39.5	16.7	0.00e+00	0	26	0	114294784	48	6821
2026-01-12 04:38:20.78	224.62	3.95	-38.3	-39.6	16.8	0.00e+00	0	26	0	120586240	48	6853
2026-01-12 04:38:21.79	224.72	4.00	-38.2	-39.5	17.1	0.00e+00	0	26	0	125829120	48	6784
2026-01-12 04:38:22.80	224.82	4.06	-38.1	-39.3	17.2	0.00e+00	0	26	0	131072000	48	6691
2026-01-12 04:38:23.81	224.91	4.11	-38.2	-39.4	17.1	0.00e+00	0	26	0	137363456	48	6734
2026-01-12 04:38:24.82	225.01	4.16	-38.2	-39.5	16.7	0.00e+00	0	26	0	142606336	48	6809
2026-01-12 04:38:25.82	225.11	4.22	-38.3	-39.6	16.5	0.00e+00	0	26	0	147849216	48	6885
2026-01-12 04:38:26.83	225.20	4.27	-38.4	-39.8	16.2	0.00e+00	0	26	0	154140672	48	7011
2026-01-12 04:38:27.84	225.30	4.32	-38.2	-39.6	16.2	0.00e+00	0	26	0	159383552	48	6877
2026-01-12 04:38:28.85	225.40	4.38	-38.3	-39.7	16.2	0.00e+00	0	26	0	165675008	48	6939
2026-01-12 04:38:29.86	225.50	4.43	-38.6	-40.1	15.7	0.00e+00	0	26	0	170917888	48	7282
2026-01-12 04:38:30.87	225.60	4.48	-38.5	-39.9	16.0	0.00e+00	0	26	0	177209344	48	7132
2026-01-12 04:38:31.88	225.70	4.54	-38.4	-39.8	16.2	0.00e+00	0	26	0	182452224	48	7067
2026-01-12 04:38:32.89	225.80	4.59	-38.8	-40.2	15.8	0.00e+00	0	26	0	187695104	48	7402
2026-01-12 04:38:33.90	225.90	4.64	-38.7	-40.1	16.0	1.10e-06	0	27	0	193986560	50	6493
2026-01-12 04:38:34.91	226.00	4.70	-38.9	-40.4	15.5	0.00e+00	0	26	0	199229440	50	6737
2026-01-12 04:38:35.92	226.10	4.75	-38.7	-40.2	15.4	0.00e+00	0	26	0	205520896	50	6600
2026-01-12 04:38:36.93	226.20	4.81	-38.9	-40.5	15.2	0.00e+00	0	26	0	210763776	50	6794
2026-01-12 04:38:37.94	226.30	4.86	-38.8	-40.4	15.4	0.00e+00	0	26	0	217055232	50	6700
2026-01-12 04:38:38.95	226.40	4.91	-38.8	-40.3	15.9	0.00e+00	0	26	0	222298112	50	6634
2026-01-12 04:38:39.96	226.50	4.97	-38.7	-40.1	16.2	0.00e+00	0	26	0	227540992	50	6483
2026-01-12 04:38:40.97	226.61	5.02	-39.0	-40.3	16.2	0.00e+00	0	27	0	233832448	50	6686
2026-01-12 04:38:41.98	226.71	5.08	-39.0	-40.4	16.5	0.00e+00	0	27	0	239075328	50	6712
2026-01-12 04:38:42.99	226.81	5.13	-39.0	-40.3	16.7	0.00e+00	0	26	0	245366784	50	6681
2026-01-12 04:38:44.00	226.92	5.18	-39.2	-40.6	16.7	0.00e+00	0	27	0	250609664	50	6856
2026-01-12 04:38:45.01	227.02	5.24	-39.2	-40.5	16.9	0.00e+00	0	27	0	255852544	50	6831
2026-01-12 04:38:46.02	227.12	5.29	-39.2	-40.5	17.0	0.00e+00	0	26	0	262144000	50	6780
2026-01-12 04:38:47.03	227.23	5.35	-39.4	-40.7	17.1	0.00e+00	0	27	0	267386880	50	6929
2026-01-12 04:38:48.04	227.33	5.40	-39.4	-40.7	17.1	0.00e+00	0	27	0	273678336	50	6974
2026-01-12 04:38:49.05	227.44	5.45	-39.6	-40.9	17.0	0.00e+00	0	26	0	278921216	50	7133
2026-01-12 04:38:50.06	227.54	5.51	-39.6	-41.0	16.7	0.00e+00	0	26	0	284164096	50	7191
2026-01-12 04:38:51.07	227.65	5.56	-39.8	-41.2	16.5	0.00e+00	0	27	0	290455552	52	6574
2026-01-12 04:38:52.08	227.76	5.62	-39.9	-41.2	16.4	0.00e+00	0	27	0	295698432	52	6602
2026-01-12 04:38:53.09	227.86	5.67	-40.1	-41.6	15.8	0.00e+00	0	27	0	301989888	52	6898
2026-01-12 04:38:54.10	227.97	5.73	-40.1	-41.7	15.8	0.00e+00	0	27	0	307232768	52	6931
2026-01-12 04:38:55.10	228.08	5.78	-39.9	-41.4	15.8	0.00e+00	0	27	0	313524224	52	6755
2026-01-12 04:38:56.11	228.19	5.83	-40.1	-41.5	15.8	0.00e+00	0	27	0	318767104	52	6836
2026-01-12 04:38:57.12	228.29	5.89	-40.1	-41.6	16.0	0.00e+00	0	27	0	324009984	52	6893
2026-01-12 04:38:58.13	228.40	5.94	-39.9	-41.2	16.4	0.00e+00	0	27	0	330301440	52	6611
2026-01-12 04:38:59.14	228.51	6.00	-40.0	-41.4	16.5	0.00e+00	0	27	0	335544320	52	6736
2026-01-12 04:39:00.15	228.62	6.05	-39.9	-41.3	16.7	0.00e+00	0	27	0	341835776	52	6631
2026-01-12 04:39:01.16	228.73	6.11	-39.9	-41.3	16.7	0.00e+00	0	27	0	347078656	52	6632
2026-01-12 04:39:02.17	228.84	6.16	-40.0	-41.4	16.7	0.00e+00	0	27	0	352321536	52	6738
2026-01-12 04:39:03.18	228.95	6.21	-39.9	-41.2	16.9	0.00e+00	0	27	0	358612992	52	6598
2026-01-12 04:39:04.19	229.07	6.27	-39.9	-41.2	16.9	0.00e+00	0	27	0	363855872	52	6592
2026-01-12 04:39:05.20	229.18	6.32	-40.1	-41.4	16.7	0.00e+00	0	27	0	370147328	52	6736
2026-01-12 04:39:06.21	229.29	6.38	-40.1	-41.5	16.6	0.00e+00	0	27	0	375390208	52	6781
2026-01-12 04:39:07.22	229.40	6.43	-40.3	-41.7	16.4	0.00e+00	0	27	0	381681664	52	6945
2026-01-12 04:39:08.22	229.51	6.49	-40.2	-41.5	16.5	0.00e+00	0	27	0	386924544	52	6845
2026-01-12 04:39:09.23	229.63	6.54	-40.2	-41.6	16.4	0.00e+00	0	27	0	392167424	52	6924
2026-01-12 04:39:10.24	229.74	6.60	-40.1	-41.5	16.5	0.00e+00	0	27	0	398458880	52	6806
2026-01-12 04:39:11.25	229.85	6.65	-40.2	-41.7	16.5	0.00e+00	0	27	0	403701760	52	6936
2026-01-12 04:39:12.26	229.97	6.71	-40.2	-41.6	16.5	0.00e+00	0	27	0	409993216	52	6873
2026-01-12 04:39:13.27	230.08	6.76	-40.3	-41.7	16.3	0.00e+00	0	27	0	415236096	52	6988
2026-01-12 04:39:14.28	230.20	6.82	-40.4	-41.7	16.3	0.00e+00	0	27	0	421527552	52	7001
2026-01-12 04:39:15.29	230.31	6.87	-40.4	-41.8	16.3	0.00e+00	0	27	0	426770432	52	7082
2026-01-12 04:39:16.30	230.43	6.93	-40.5	-41.9	16.3	0.00e+00	0	27	0	432013312	52	7147
2026-01-12 04:39:17.31	230.55	6.98	-40.6	-42.0	16.3	0.00e+00	0	27	0	438304768	52	7246
2026-01-12 04:39:18.32	230.66	7.04	-40.6	-42.0	16.4	0.00e+00	0	27	0	443547648	52	7226
2026-01-12 04:39:19.33	230.78	7.09	-40.7	-42.1	16.3	0.00e+00	0	27	0	449839104	54	6516
2026-01-12 04:39:20.34	230.90	7.15	-40.6	-42.0	16.3	0.00e+00	0	27	0	455081984	54	6464
2026-01-12 04:39:21.35	231.02	7.20	-40.7	-42.1	16.3	0.00e+00	0	27	0	460324864	54	6518
2026-01-12 04:39:22.36	231.14	7.26	-40.6	-42.1	16.3	0.00e+00	0	27	0	466616320	54	6478
2026-01-12 04:39:23.37	231.25	7.31	-40.4	-41.8	16.5	0.00e+00	0	27	0	471859200	54	6312
2026-01-12 04:39:24.38	231.37	7.37	-40.4	-41.8	16.5	0.00e+00	0	27	0	478150656	54	6309
2026-01-12 04:39:25.39	231.49	7.42	-40.4	-41.8	16.6	0.00e+00	0	27	0	483393536	54	6274
2026-01-12 04:39:26.40	231.61	7.48	-40.2	-41.6	16.7	0.00e+00	0	27	0	488636416	54	6159
2026-01-12 04:39:27.41	231.74	7.53	-40.2	-41.6	16.8	0.00e+00	0	27	0	494927872	54	6115
2026-01-12 04:39:28.42	231.86	7.59	-40.2	-41.5	16.9	0.00e+00	0	27	0	500170752	54	6095
2026-01-12 04:39:29.43	231.98	7.64	-40.3	-41.6	16.8	0.00e+00	0	27	0	506462208	54	6126
2026-01-12 04:39:30.44	232.10	7.70	-40.1	-41.4	17.0	0.00e+00	0	27	0	511705088	54	6026
2026-01-12 04:39:31.45	232.22	7.75	-40.2	-41.5	16.9	0.00e+00	0	27	0	517996544	54	6077
2026-01-12 04:39:32.46	232.35	7.81	-40.1	-41.4	17.0	0.00e+00	0	27	0	523239424	54	6012
2026-01-12 04:39:33.47	232.47	7.86	-40.3	-41.6	16.9	0.00e+00	0	27	0	528482304	54	6118
2026-01-12 04:39:34.48	232.59	7.92	-40.2	-41.6	16.9	0.00e+00	0	27	0	534773760	54	6110
2026-01-12 04:39:35.49	232.72	7.97	-40.3	-41.6	16.8	0.00e+00	0	27	0	540016640	54	6129
2026-01-12 04:39:36.49	232.84	8.03	-40.3	-41.6	16.9	0.00e+00	0	27	0	546308096	54	6155
2026-01-12 04:39:37.50	232.97	8.08	-40.3	-41.7	16.8	0.00e+00	0	27	0	551550976	54	6192
2026-01-12 04:39:38.51	233.09	8.14	-40.4	-41.7	16.8	0.00e+00	0	27	0	556793856	54	6220
2026-01-12 04:39:39.52	233.22	8.19	-40.4	-41.7	16.8	0.00e+00	0	27	0	563085312	54	6232
2026-01-12 04:39:40.53	233.35	8.25	-40.3	-41.6	16.8	0.00e+00	0	27	0	568328192	54	6172
2026-01-12 04:39:41.54	233.47	8.30	-40.3	-41.7	16.8	0.00e+00	0	27	0	574619648	54	6210
2026-01-12 04:39:42.54	233.60	8.36	-40.2	-41.5	17.0	0.00e+00	0	27	0	579862528	54	6074
2026-01-12 04:39:43.55	233.73	8.41	-40.1	-41.4	17.1	0.00e+00	0	27	0	585105408	54	5983
2026-01-12 04:39:44.56	233.86	8.47	-39.9	-41.2	17.2	0.00e+00	0	27	0	591396864	54	5865
2026-01-12 04:39:45.57	233.99	8.52	-40.0	-41.3	17.1	0.00e+00	0	27	0	596639744	54	5939
2026-01-12 04:39:46.58	234.11	8.58	-39.8	-41.1	17.3	0.00e+00	0	27	0	602931200	54	5776
2026-01-12 04:39:47.59	234.24	8.63	-39.9	-41.1	17.4	0.00e+00	0	27	0	608174080	54	5812
2026-01-12 04:39:48.60	234.38	8.69	-39.9	-41.2	17.4	0.00e+00	0	27	0	614465536	54	5855
2026-01-12 04:39:49.61	234.51	8.74	-39.8	-41.1	17.6	0.00e+00	0	27	0	619708416	54	5768
2026-01-12 04:39:50.62	234.64	8.80	-39.7	-40.9	17.7	0.00e+00	0	27	0	624951296	52	6370
2026-01-12 04:39:51.63	234.77	8.85	-39.7	-40.9	17.7	0.00e+00	0	27	0	631242752	52	6374
2026-01-12 04:39:52.64	234.90	8.91	-39.7	-40.9	17.6	0.00e+00	0	27	0	636485632	52	6387
2026-01-12 04:39:53.65	235.03	8.96	-39.4	-40.6	17.9	0.00e+00	0	27	0	642777088	52	6159
2026-01-12 04:39:54.66	235.17	9.02	-39.3	-40.5	18.1	0.00e+00	0	27	0	648019968	52	6075
2026-01-12 04:39:55.66	235.30	9.07	-39.4	-40.6	18.0	0.00e+00	0	27	0	653262848	52	6135
2026-01-12 04:39:56.67	235.43	9.13	-39.2	-40.3	18.2	0.00e+00	0	27	0	659554304	52	5936
2026-01-12 04:39:57.68	235.57	9.18	-39.1	-40.3	18.3	0.00e+00	0	27	0	664797184	52	5912
2026-01-12 04:39:58.69	235.70	9.24	-39.1	-40.2	18.4	0.00e+00	0	27	0	671088640	52	5887
2026-01-12 04:39:59.71	235.84	9.29	-38.9	-39.9	18.7	0.00e+00	0	27	0	676331520	52	5679
2026-01-12 04:40:00.71	235.98	9.35	-38.8	-39.9	18.6	0.00e+00	0	27	0	682622976	52	5677
2026-01-12 04:40:01.72	236.11	9.40	-38.9	-39.9	18.7	0.00e+00	0	27	0	687865856	52	5694
2026-01-12 04:40:02.73	236.25	9.46	-38.6	-39.6	19.0	0.00e+00	0	27	0	693108736	50	6154
2026-01-12 04:40:03.74	236.39	9.51	-38.4	-39.4	19.2	0.00e+00	0	27	0	699400192	50	6022
2026-01-12 04:40:04.75	236.53	9.57	-38.2	-39.2	19.3	0.00e+00	0	27	0	704643072	50	5891
2026-01-12 04:40:05.76	236.67	9.62	-38.2	-39.2	19.4	0.00e+00	0	27	0	710934528	50	5836
2026-01-12 04:40:06.77	236.80	9.68	-38.1	-39.1	19.5	0.00e+00	0	27	0	716177408	50	5815
2026-01-12 04:40:07.78	236.94	9.73	-38.1	-39.1	19.5	0.00e+00	0	27	0	722468864	50	5766
2026-01-12 04:40:08.79	237.09	9.79	-37.9	-38.9	19.7	0.00e+00	0	27	0	727711744	50	5647
2026-01-12 04:40:09.80	237.23	9.84	-37.3	-38.3	20.3	0.00e+00	0	27	0	732954624	48	5916
2026-01-12 04:40:10.81	237.37	9.90	-37.2	-38.0	20.6	0.00e+00	0	27	0	739246080	48	5755
2026-01-12 04:40:11.82	237.51	9.95	-37.1	-37.9	20.6	0.00e+00	0	27	0	744488960	48	5693
2026-01-12 04:40:12.82	237.65	10.00	-37.0	-37.9	20.6	0.00e+00	0	27	0	749731840	48	5660
2026-01-12 04:40:13.83	237.79	10.06	-37.0	-37.9	20.6	0.00e+00	0	27	0	756023296	48	5645
2026-01-12 04:40:14.84	237.94	10.11	-37.1	-38.0	20.6	0.00e+00	0	27	0	761266176	48	5737
2026-01-12 04:40:15.85	238.08	10.17	-37.2	-38.1	20.5	0.00e+00	0	27	0	767557632	48	5781
2026-01-12 04:40:16.86	238.22	10.22	-36.9	-37.9	20.7	0.00e+00	0	27	0	772800512	48	5636
2026-01-12 04:40:17.87	238.37	10.28	-37.0	-37.9	20.6	0.00e+00	0	27	0	779091968	48	5663
2026-01-12 04:40:18.88	238.51	10.33	-36.9	-37.8	20.8	0.00e+00	0	27	0	784334848	48	5614
2026-01-12 04:40:19.89	238.66	10.39	-37.0	-37.8	20.8	0.00e+00	0	27	0	789577728	48	5620
2026-01-12 04:40:20.90	238.81	10.44	-36.5	-37.3	21.2	0.00e+00	0	27	0	795869184	46	5951
2026-01-12 04:40:21.91	238.95	10.50	-36.2	-37.1	21.4	0.00e+00	0	27	0	801112064	46	5792
2026-01-12 04:40:22.92	239.10	10.55	-36.3	-37.1	21.4	0.00e+00	0	27	0	807403520	46	5810
2026-01-12 04:40:23.93	239.25	10.60	-36.2	-37.0	21.5	0.00e+00	0	27	0	812646400	46	5730
2026-01-12 04:40:24.94	239.40	10.66	-36.1	-36.9	21.6	0.00e+00	0	27	0	818937856	46	5684
2026-01-12 04:40:25.95	239.55	10.71	-35.9	-36.7	21.8	0.00e+00	0	27	0	824180736	46	5539
2026-01-12 04:40:26.96	239.70	10.77	-35.8	-36.6	21.9	0.00e+00	0	27	0	829423616	46	5501
2026-01-12 04:40:27.97	239.85	10.82	-35.6	-36.5	22.0	0.00e+00	0	27	0	835715072	44	6048
2026-01-12 04:40:28.98	240.00	10.87	-35.6	-36.4	22.1	0.00e+00	0	27	0	840957952	44	5969
2026-01-12 04:40:29.98	240.15	10.93	-35.4	-36.2	22.3	0.00e+00	0	27	0	847249408	44	5879
2026-01-12 04:40:30.99	240.30	10.98	-35.4	-36.2	22.2	0.00e+00	0	27	0	852492288	44	5863
2026-01-12 04:40:32.00	240.45	11.04	-35.3	-36.1	22.4	0.00e+00	0	27	0	857735168	44	5781
2026-01-12 04:40:33.02	240.61	11.09	-35.0	-35.8	22.6	0.00e+00	0	27	0	864026624	44	5577
2026-01-12 04:40:34.02	240.76	11.14	-35.0	-35.8	22.6	0.00e+00	0	27	0	869269504	44	5614
2026-01-12 04:40:35.03	240.91	11.20	-34.9	-35.7	22.8	0.00e+00	0	27	0	875560960	44	5523
2026-01-12 04:40:36.04	241.07	11.25	-34.7	-35.5	22.9	0.00e+00	0	27	0	880803840	44	5396
2026-01-12 04:40:37.06	241.22	11.30	-34.7	-35.5	23.0	0.00e+00	0	27	0	886046720	42	6038
2026-01-12 04:40:38.06	241.38	11.36	-34.8	-35.6	23.0	0.00e+00	0	27	0	892338176	42	6111
2026-01-12 04:40:39.07	241.53	11.41	-34.4	-35.2	23.3	0.00e+00	0	27	0	897581056	42	5860
2026-01-12 04:40:40.08	241.69	11.46	-34.3	-35.0	23.5	0.00e+00	0	27	0	903872512	42	5759
2026-01-12 04:40:41.09	241.85	11.52	-34.1	-34.8	23.7	0.00e+00	0	27	0	909115392	42	5593
2026-01-12 04:40:42.10	242.00	11.57	-33.9	-34.6	23.9	0.00e+00	0	27	0	915406848	42	5498
2026-01-12 04:40:43.11	242.16	11.62	-33.8	-34.4	23.9	0.00e+00	0	27	0	920649728	40	6033
2026-01-12 04:40:44.12	242.32	11.68	-33.7	-34.4	24.0	0.00e+00	0	27	0	925892608	40	6006
2026-01-12 04:40:45.13	242.48	11.73	-33.7	-34.3	24.1	0.00e+00	0	27	0	932184064	40	5959
2026-01-12 04:40:46.14	242.64	11.78	-33.6	-34.3	24.3	0.00e+00	0	27	0	937426944	40	5908
2026-01-12 04:40:47.15	242.80	11.83	-33.5	-34.2	24.3	0.00e+00	0	27	0	943718400	40	5851
2026-01-12 04:40:48.16	242.96	11.89	-33.4	-34.1	24.4	0.00e+00	0	27	0	948961280	40	5762
2026-01-12 04:40:49.17	243.12	11.94	-33.3	-34.1	24.5	0.00e+00	0	27	0	954204160	40	5768
2026-01-12 04:40:50.18	243.29	11.99	-33.2	-33.9	24.6	0.00e+00	0	27	0	960495616	40	5631
2026-01-12 04:40:51.19	243.45	12.04	-33.2	-33.9	24.6	0.00e+00	0	27	0	965738496	40	5657
2026-01-12 04:40:52.20	243.61	12.10	-33.0	-33.7	24.8	0.00e+00	0	27	0	972029952	40	5540
2026-01-12 04:40:53.21	243.78	12.15	-33.2	-33.9	24.6	0.00e+00	0	27	0	977272832	40	5652
2026-01-12 04:40:54.22	243.94	12.20	-33.1	-33.8	24.7	0.00e+00	0	27	0	983564288	40	5597
2026-01-12 04:40:55.23	244.11	12.25	-33.0	-33.7	24.8	0.00e+00	0	27	0	988807168	40	5546
2026-01-12 04:40:56.24	244.27	12.30	-32.9	-33.7	24.9	0.00e+00	0	27	0	994050048	40	5503
2026-01-12 04:40:57.25	244.44	12.36	-32.9	-33.6	25.0	0.00e+00	0	27	0	1000341504	40	5479
2026-01-12 04:40:58.26	244.60	12.41	-33.0	-33.6	24.9	0.00e+00	0	27	0	1005584384	40	5500
2026-01-12 04:40:59.26	244.77	12.46	-32.7	-33.4	25.2	0.00e+00	0	27	0	1011875840	38	6018
2026-01-12 04:41:00.27	244.94	12.51	-32.7	-33.3	25.2	0.00e+00	0	27	0	1017118720	38	5939
2026-01-12 04:41:01.28	245.11	12.56	-32.8	-33.4	25.1	0.00e+00	0	27	0	1023410176	38	6022
2026-01-12 04:41:02.29	245.28	12.61	-32.6	-33.3	25.3	0.00e+00	0	27	0	1028653056	38	5929
2026-01-12 04:41:03.30	245.45	12.66	-32.4	-33.0	25.5	0.00e+00	0	27	0	1033895936	38	5732
2026-01-12 04:41:04.31	245.62	12.71	-32.5	-33.1	25.4	0.00e+00	0	27	0	1040187392	38	5815
2026-01-12 04:41:05.32	245.79	12.77	-32.5	-33.1	25.4	0.00e+00	0	27	0	1045430272	38	5812
2026-01-12 04:41:06.33	245.96	12.82	-32.4	-33.0	25.5	0.00e+00	0	27	0	1051721728	38	5732
2026-01-12 04:41:07.34	246.13	12.87	-32.3	-32.9	25.5	0.00e+00	0	27	0	1056964608	38	5672
2026-01-12 04:41:08.35	246.30	12.92	-32.3	-33.0	25.6	0.00e+00	0	27	0	1062207488	38	5715
2026-01-12 04:41:09.36	246.47	12.97	-32.3	-33.0	25.5	0.00e+00	0	27	0	1068498944	38	5711
2026-01-12 04:41:10.37	246.65	13.02	-32.4	-33.1	25.5	0.00e+00	0	27	0	1073741824	38	5766
2026-01-12 04:41:11.38	246.82	13.07	-32.6	-33.2	25.5	0.00e+00	0	27	0	1080033280	38	5888
2026-01-12 04:41:12.39	247.00	13.12	-32.2	-32.9	25.7	0.00e+00	0	27	0	1085276160	38	5642
2026-01-12 04:41:13.40	247.17	13.17	-32.2	-32.9	25.7	0.00e+00	0	27	0	1091567616	38	5647
2026-01-12 04:41:14.41	247.35	13.22	-32.1	-32.8	25.7	0.00e+00	0	27	0	1096810496	38	5586
2026-01-12 04:41:15.42	247.52	13.27	-32.3	-32.9	25.6	0.00e+00	0	27	0	1102053376	38	5685
2026-01-12 04:41:16.43	247.70	13.32	-32.2	-32.9	25.6	0.00e+00	0	27	0	1108344832	38	5640
2026-01-12 04:41:17.44	247.88	13.36	-32.2	-32.9	25.6	0.00e+00	0	27	0	1113587712	38	5651
2026-01-12 04:41:18.45	248.06	13.41	-32.2	-32.8	25.7	0.00e+00	0	27	0	1119879168	38	5629
2026-01-12 04:41:19.46	248.24	13.46	-32.2	-32.9	25.6	0.00e+00	0	27	0	1125122048	38	5685
2026-01-12 04:41:20.47	248.41	13.51	-32.3	-33.0	25.5	0.00e+00	0	27	0	1130364928	38	5741
2026-01-12 04:41:21.48	248.59	13.56	-32.2	-32.8	25.6	0.00e+00	0	27	0	1136656384	38	5622
2026-01-12 04:41:22.49	248.77	13.61	-32.0	-32.7	25.8	0.00e+00	0	27	0	1141899264	38	5555
2026-01-12 04:41:23.50	248.96	13.66	-32.1	-32.8	25.6	0.00e+00	0	27	0	1148190720	38	5571
2026-01-12 04:41:24.51	249.14	13.70	-32.1	-32.8	25.6	0.00e+00	0	27	0	1153433600	38	5600
2026-01-12 04:41:25.52	249.32	13.75	-32.1	-32.8	25.7	0.00e+00	0	27	0	1158676480	38	5572
2026-01-12 04:41:26.53	249.50	13.80	-32.3	-32.9	25.7	0.00e+00	0	27	0	1164967936	38	5673
2026-01-12 04:41:27.54	249.69	13.85	-32.2	-32.8	25.6	0.00e+00	0	27	0	1170210816	38	5615
2026-01-12 04:41:28.55	249.87	13.89	-32.1	-32.8	25.7	0.00e+00	0	27	0	1176502272	38	5574
2026-01-12 04:41:29.56	250.05	13.94	-32.2	-32.8	25.6	0.00e+00	0	27	0	1181745152	38	5621
2026-01-12 04:41:30.57	250.24	13.99	-32.1	-32.7	25.7	0.00e+00	0	27	0	1186988032	38	5544
2026-01-12 04:41:31.58	250.42	14.04	-32.1	-32.8	25.7	0.00e+00	0	27	0	1193279488	38	5595
2026-01-12 04:41:32.59	250.61	14.08	-32.1	-32.8	25.7	0.00e+00	0	27	0	1198522368	38	5590
2026-01-12 04:41:33.60	250.80	14.13	-32.2	-32.8	25.7	0.00e+00	0	27	0	1204813824	38	5615
2026-01-12 04:41:34.60	250.98	14.17	-32.0	-32.7	25.8	0.00e+00	0	27	0	1210056704	38	5544
2026-01-12 04:41:35.61	251.17	14.22	-32.1	-32.8	25.7	0.00e+00	0	27	0	1216348160	38	5576
2026-01-12 04:41:36.63	251.36	14.27	-32.0	-32.6	25.8	0.00e+00	0	27	0	1221591040	38	5485
2026-01-12 04:41:37.64	251.55	14.31	-32.0	-32.6	25.8	0.00e+00	0	27	0	1227882496	38	5494
2026-01-12 04:41:38.64	251.74	14.36	-31.9	-32.6	25.9	0.00e+00	0	27	0	1233125376	38	5454
2026-01-12 04:41:39.65	251.93	14.40	-31.8	-32.5	26.0	0.00e+00	0	27	0	1238368256	38	5396
2026-01-12 04:41:40.66	252.12	14.45	-31.7	-32.4	26.0	0.00e+00	0	27	0	1244659712	38	5322
2026-01-12 04:41:41.67	252.31	14.49	-31.7	-32.3	26.1	0.00e+00	0	27	0	1249902592	36	5952
2026-01-12 04:41:42.68	252.50	14.54	-31.7	-32.4	26.1	0.00e+00	0	27	0	1256194048	36	5976
2026-01-12 04:41:43.69	252.69	14.58	-31.7	-32.4	26.0	0.00e+00	0	27	0	1261436928	36	5968
2026-01-12 04:41:44.70	252.88	14.63	-31.8	-32.4	26.0	0.00e+00	0	27	0	1266679808	36	6001
2026-01-12 04:41:45.71	253.08	14.67	-31.8	-32.5	26.0	0.00e+00	0	27	0	1272971264	36	6044
2026-01-12 04:41:46.72	253.27	14.71	-31.9	-32.6	25.9	0.00e+00	0	27	0	1278214144	36	6125
2026-01-12 04:41:47.73	253.47	14.76	-31.8	-32.5	26.0	0.00e+00	0	27	0	1284505600	36	6075
2026-01-12 04:41:48.74	253.66	14.80	-31.9	-32.5	25.9	0.00e+00	0	27	0	1289748480	36	6076
2026-01-12 04:41:49.75	253.86	14.84	-31.9	-32.5	25.9	0.00e+00	0	27	0	1294991360	36	6078
2026-01-12 04:41:50.76	254.05	14.89	-31.8	-32.4	26.1	0.00e+00	0	27	0	1301282816	36	6025
2026-01-12 04:41:51.77	254.25	14.93	-31.8	-32.4	26.1	0.00e+00	0	27	0	1306525696	36	6012
2026-01-12 04:41:52.78	254.45	14.97	-31.8	-32.5	26.1	0.00e+00	0	27	0	1312817152	36	6042
2026-01-12 04:41:53.79	254.64	15.01	-31.9	-32.5	26.0	0.00e+00	0	27	0	1318060032	36	6085
2026-01-12 04:41:54.80	254.84	15.06	-31.8	-32.5	26.0	0.00e+00	0	27	0	1324351488	36	6042
2026-01-12 04:41:55.81	255.04	15.10	-31.9	-32.5	26.0	0.00e+00	0	27	0	1329594368	36	6061
2026-01-12 04:41:56.82	255.24	15.14	-31.8	-32.5	26.0	0.00e+00	0	27	0	1334837248	36	6046
2026-01-12 04:41:57.83	255.44	15.18	-31.8	-32.5	26.0	0.00e+00	0	27	0	1341128704	36	6082
2026-01-12 04:41:58.84	255.64	15.22	-31.9	-32.5	26.0	0.00e+00	0	27	0	1346371584	36	6084
2026-01-12 04:41:59.85	255.84	15.26	-31.9	-32.6	26.0	0.00e+00	0	27	0	1352663040	36	6109
2026-01-12 04:42:00.85	256.04	15.30	-31.9	-32.6	26.0	0.00e+00	0	27	0	1357905920	36	6133
2026-01-12 04:42:01.86	256.24	15.34	-31.9	-32.6	25.9	0.00e+00	0	27	0	1363148800	36	6110
2026-01-12 04:42:02.87	256.45	15.38	-31.9	-32.6	25.9	0.00e+00	0	27	0	1369440256	36	6127
2026-01-12 04:42:03.89	256.65	15.42	-31.9	-32.6	25.9	0.00e+00	0	27	0	1374683136	36	6117
2026-01-12 04:42:04.90	256.85	15.46	-31.8	-32.5	26.0	0.00e+00	0	27	0	1380974592	36	6050
2026-01-12 04:42:05.91	257.06	15.50	-31.7	-32.4	26.1	0.00e+00	0	27	0	1386217472	36	5976
2026-01-12 04:42:06.91	257.26	15.54	-31.5	-32.2	26.2	0.00e+00	0	27	0	1391460352	36	5857
2026-01-12 04:42:07.93	257.47	15.58	-31.7	-32.3	26.1	0.00e+00	0	27	0	1397751808	36	5947
2026-01-12 04:42:08.94	257.67	15.61	-31.7	-32.3	26.2	0.00e+00	0	27	0	1402994688	36	5948
2026-01-12 04:42:09.94	257.88	15.65	-31.7	-32.4	26.1	0.00e+00	0	27	0	1409286144	36	5983
2026-01-12 04:42:10.95	258.08	15.69	-31.7	-32.4	26.1	0.00e+00	0	27	0	1414529024	36	6009
2026-01-12 04:42:11.96	258.29	15.73	-31.8	-32.4	26.1	0.00e+00	0	27	0	1420820480	36	6012
2026-01-12 04:42:12.97	258.50	15.76	-31.8	-32.5	26.0	0.00e+00	0	27	0	1426063360	36	6049
2026-01-12 04:42:13.98	258.71	15.80	-31.7	-32.4	26.1	0.00e+00	0	27	0	1432354816	36	6006
2026-01-12 04:42:14.99	258.92	15.84	-31.6	-32.2	26.2	0.00e+00	0	27	0	1437597696	36	5852
2026-01-12 04:42:16.00	259.13	15.87	-31.7	-32.4	26.1	0.00e+00	0	27	0	1442840576	36	5986
2026-01-12 04:42:17.01	259.33	15.91	-31.6	-32.2	26.2	0.00e+00	0	27	0	1449132032	36	5894
2026-01-12 04:42:18.02	259.54	15.94	-31.5	-32.1	26.3	0.00e+00	0	27	0	1454374912	36	5824
2026-01-12 04:42:19.03	259.76	15.98	-31.6	-32.2	26.3	0.00e+00	0	27	0	1460666368	36	5878
2026-01-12 04:42:20.04	259.97	16.01	-31.5	-32.1	26.3	0.00e+00	0	27	0	1465909248	36	5801
2026-01-12 04:42:21.05	260.18	16.05	-31.5	-32.2	26.2	0.00e+00	0	27	0	1471152128	36	5843
2026-01-12 04:42:22.06	260.39	16.08	-31.6	-32.3	26.3	0.00e+00	0	27	0	1477443584	36	5905
2026-01-12 04:42:23.07	260.60	16.12	-31.4	-32.1	26.3	0.00e+00	0	27	0	1482686464	36	5762
2026-01-12 04:42:24.08	260.82	16.15	-31.4	-32.0	26.4	0.00e+00	0	27	0	1488977920	36	5749
2026-01-12 04:42:25.09	261.03	16.18	-31.4	-32.0	26.4	0.00e+00	0	27	0	1494220800	36	5731
2026-01-12 04:42:26.10	261.24	16.22	-31.4	-32.1	26.4	0.00e+00	0	27	0	1499463680	36	5767
2026-01-12 04:42:27.11	261.46	16.25	-31.4	-32.1	26.3	0.00e+00	0	27	0	1505755136	36	5774
2026-01-12 04:42:28.12	261.67	16.28	-31.5	-32.1	26.4	0.00e+00	0	27	0	1510998016	36	5785
2026-01-12 04:42:29.13	261.89	16.31	-31.4	-32.0	26.4	0.00e+00	0	27	0	1517289472	36	5750
2026-01-12 04:42:30.14	262.10	16.34	-31.5	-32.1	26.3	0.00e+00	0	27	0	1522532352	36	5828
2026-01-12 04:42:31.15	262.32	16.37	-31.5	-32.1	26.3	0.00e+00	0	27	0	1528823808	36	5810
2026-01-12 04:42:32.16	262.53	16.41	-31.4	-32.0	26.4	0.00e+00	0	27	0	1534066688	36	5760
2026-01-12 04:42:33.17	262.75	16.44	-31.2	-31.8	26.6	0.00e+00	0	27	0	1540358144	36	5611
2026-01-12 04:42:34.19	262.97	16.47	-31.2	-31.8	26.5	0.00e+00	0	27	0	1545601024	36	5630
2026-01-12 04:42:35.19	263.19	16.50	-31.3	-31.9	26.5	0.00e+00	0	27	0	1550843904	36	5694
2026-01-12 04:42:36.20	263.40	16.53	-31.3	-31.9	26.4	0.00e+00	0	27	0	1557135360	36	5691
2026-01-12 04:42:37.22	263.62	16.55	-31.3	-31.9	26.4	0.00e+00	0	27	0	1562378240	36	5677
2026-01-12 04:42:38.22	263.84	16.58	-31.5	-32.1	26.4	0.00e+00	0	27	0	1568669696	36	5792
2026-01-12 04:42:39.24	264.06	16.61	-31.5	-32.1	26.3	0.00e+00	0	27	0	1573912576	36	5805
2026-01-12 04:42:40.24	264.28	16.64	-31.5	-32.1	26.3	0.00e+00	0	27	0	1579155456	36	5812
2026-01-12 04:42:41.25	264.50	16.67	-31.5	-32.1	26.3	0.00e+00	0	27	0	1585446912	36	5798
2026-01-12 04:42:42.26	264.72	16.69	-33.4	-34.0	26.0	0.00e+00	0	27	0	1590689792	38	6426
2026-01-12 04:42:43.27	264.94	16.72	-31.6	-32.2	26.3	0.00e+00	0	27	0	1595932672	36	5889
2026-01-12 04:42:44.28	265.16	16.75	-31.7	-32.4	26.3	2.20e-06	0	27	0	1602224128	36	5972
2026-01-12 04:42:45.29	265.39	16.77	-31.4	-32.0	26.4	0.00e+00	0	27	0	1607467008	36	5728
2026-01-12 04:42:46.30	265.61	16.80	-31.5	-32.1	26.3	0.00e+00	0	27	0	1613758464	36	5804
2026-01-12 04:42:47.31	265.83	16.82	-31.5	-32.1	26.4	0.00e+00	0	27	0	1619001344	36	5822
2026-01-12 04:42:48.32	266.05	16.85	-31.4	-32.0	26.4	0.00e+00	0	27	0	1625292800	36	5741
2026-01-12 04:42:49.33	266.28	16.87	-31.6	-32.2	26.2	0.00e+00	0	27	0	1630535680	36	5881
2026-01-12 04:42:50.34	266.50	16.90	-31.7	-32.4	26.2	0.00e+00	0	27	0	1636827136	36	5980
2026-01-12 04:42:51.35	266.72	16.92	-31.5	-32.2	26.3	0.00e+00	0	27	0	1642070016	36	5838
2026-01-12 04:42:52.36	266.95	16.95	-31.6	-32.3	26.2	0.00e+00	0	27	0	1647312896	36	5909
2026-01-12 04:42:53.36	267.17	16.97	-31.4	-32.1	26.4	0.00e+00	0	27	0	1653604352	36	5773
2026-01-12 04:42:54.37	267.39	16.99	-31.5	-32.2	26.3	0.00e+00	0	27	0	1658847232	36	5832
2026-01-12 04:42:55.39	267.62	17.01	-31.4	-32.0	26.4	0.00e+00	0	27	0	1665138688	36	5748
2026-01-12 04:42:56.40	267.85	17.04	-31.3	-31.9	26.4	0.00e+00	0	27	0	1670381568	36	5648
2026-01-12 04:42:57.41	268.07	17.06	-31.3	-31.9	26.4	0.00e+00	0	27	0	1675624448	36	5695
2026-01-12 04:42:58.41	268.30	17.08	-31.2	-31.8	26.5	0.00e+00	0	27	0	1681915904	36	5619
2026-01-12 04:42:59.42	268.52	17.10	-31.1	-31.7	26.7	0.00e+00	0	27	0	1687158784	36	5544
2026-01-12 04:43:00.43	268.75	17.12	-31.1	-31.8	26.7	0.00e+00	0	27	0	1693450240	36	5583
2026-01-12 04:43:01.44	268.98	17.14	-31.1	-31.8	26.6	0.00e+00	0	27	0	1698693120	36	5577
2026-01-12 04:43:02.45	269.20	17.16	-31.2	-31.9	26.5	0.00e+00	0	27	0	1703936000	36	5643
2026-01-12 04:43:03.46	269.43	17.18	-31.4	-32.0	26.4	0.00e+00	0	27	0	1710227456	36	5754
2026-01-12 04:43:04.47	269.66	17.19	-31.4	-32.0	26.4	0.00e+00	0	27	0	1715470336	36	5750
2026-01-12 04:43:05.48	269.89	17.21	-31.5	-32.1	26.4	0.00e+00	0	27	0	1721761792	36	5798
2026-01-12 04:43:06.49	270.11	17.23	-31.4	-32.1	26.4	0.00e+00	0	27	0	1727004672	36	5784
2026-01-12 04:43:07.50	270.34	17.25	-31.4	-32.0	26.4	0.00e+00	0	27	0	1733296128	36	5717
2026-01-12 04:43:08.51	270.57	17.26	-31.2	-31.9	26.5	0.00e+00	0	27	0	1738539008	36	5636
2026-01-12 04:43:09.52	270.80	17.28	-31.1	-31.8	26.6	0.00e+00	0	27	0	1743781888	36	5580
2026-01-12 04:43:10.53	271.03	17.30	-31.3	-31.9	26.5	0.00e+00	0	27	0	1750073344	36	5653
2026-01-12 04:43:11.54	271.26	17.31	-31.3	-31.9	26.5	0.00e+00	0	27	0	1755316224	36	5667
2026-01-12 04:43:12.55	271.49	17.33	-31.2	-31.9	26.6	0.00e+00	0	27	0	1761607680	36	5648
2026-01-12 04:43:13.56	271.72	17.34	-31.1	-31.8	26.6	0.00e+00	0	27	0	1766850560	36	5567
2026-01-12 04:43:14.57	271.95	17.36	-31.2	-31.8	26.5	0.00e+00	0	27	0	1772093440	36	5627
2026-01-12 04:43:15.58	272.18	17.37	-31.2	-31.8	26.6	0.00e+00	0	27	0	1778384896	36	5628
2026-01-12 04:43:16.59	272.41	17.38	-31.3	-31.9	26.5	0.00e+00	0	27	0	1783627776	36	5674
2026-01-12 04:43:17.60	272.64	17.40	-31.1	-31.7	26.6	0.00e+00	0	27	0	1789919232	36	5560
2026-01-12 04:43:18.61	272.87	17.41	-31.2	-31.8	26.6	0.00e+00	0	27	0	1795162112	36	5572
2026-01-12 04:43:19.61	273.10	17.42	-31.0	-31.7	26.7	0.00e+00	0	27	0	1800404992	36	5537
2026-01-12 04:43:20.63	273.33	17.43	-31.0	-31.7	26.7	0.00e+00	0	27	0	1806696448	36	5536
2026-01-12 04:43:21.64	273.57	17.44	-31.1	-31.7	26.7	0.00e+00	0	27	0	1811939328	36	5538
2026-01-12 04:43:22.65	273.80	17.45	-31.2	-31.8	26.5	0.00e+00	0	27	0	1818230784	36	5620
2026-01-12 04:43:23.66	274.03	17.46	-31.2	-31.9	26.5	0.00e+00	0	27	0	1823473664	36	5665
2026-01-12 04:43:24.67	274.26	17.47	-31.2	-31.8	26.6	0.00e+00	0	27	0	1829765120	36	5603
2026-01-12 04:43:25.68	274.49	17.48	-31.2	-31.8	26.6	0.00e+00	0	27	0	1835008000	36	5574
2026-01-12 04:43:26.69	274.73	17.49	-31.1	-31.7	26.7	0.00e+00	0	27	0	1841299456	36	5541
2026-01-12 04:43:27.70	274.96	17.50	-30.9	-31.6	26.8	0.00e+00	0	27	0	1846542336	36	5445
2026-01-12 04:43:28.71	275.19	17.51	-31.0	-31.5	26.8	0.00e+00	0	27	0	1851785216	36	5436
2026-01-12 04:43:29.72	275.42	17.52	-31.0	-31.6	26.6	0.00e+00	0	27	0	1858076672	36	5484
2026-01-12 04:43:30.73	275.65	17.52	-31.0	-31.6	26.7	0.00e+00	0	27	0	1863319552	36	5454
2026-01-12 04:43:31.74	275.89	17.53	-31.0	-31.6	26.7	0.00e+00	0	27	0	1869611008	36	5475
2026-01-12 04:43:32.75	276.12	17.54	-31.1	-31.7	26.7	0.00e+00	0	27	0	1874853888	36	5560
2026-01-12 04:43:33.76	276.35	17.54	-31.1	-31.7	26.6	0.00e+00	0	27	0	1880096768	36	5545
2026-01-12 04:43:34.77	276.59	17.55	-31.0	-31.6	26.8	0.00e+00	0	27	0	1886388224	36	5487
2026-01-12 04:43:35.77	276.82	17.55	-31.1	-31.7	26.7	0.00e+00	0	27	0	1891631104	36	5505
2026-01-12 04:43:36.78	277.05	17.56	-31.0	-31.6	26.7	0.00e+00	0	27	0	1897922560	36	5498
2026-01-12 04:43:37.80	277.29	17.56	-31.1	-31.8	26.5	0.00e+00	0	27	0	1903165440	36	5575
2026-01-12 04:43:38.81	277.52	17.57	-31.1	-31.8	26.5	0.00e+00	0	27	0	1908408320	36	5569
2026-01-12 04:43:39.82	277.75	17.57	-31.3	-31.9	26.5	0.00e+00	0	27	0	1914699776	36	5683
2026-01-12 04:43:40.82	277.98	17.57	-31.1	-31.7	26.6	0.00e+00	0	27	0	1919942656	36	5550
2026-01-12 04:43:41.83	278.22	17.57	-31.1	-31.6	26.7	0.00e+00	0	27	0	1926234112	36	5500
2026-01-12 04:43:42.84	278.45	17.57	-31.0	-31.6	26.7	0.00e+00	0	27	0	1931476992	36	5492
2026-01-12 04:43:43.85	278.68	17.58	-31.1	-31.8	26.6	0.00e+00	0	27	0	1937768448	36	5570
2026-01-12 04:43:44.86	278.92	17.58	-31.0	-31.7	26.6	0.00e+00	0	27	0	1943011328	36	5510
2026-01-12 04:43:45.87	279.15	17.58	-31.1	-31.7	26.6	0.00e+00	0	27	0	1948254208	36	5550
2026-01-12 04:43:46.88	279.38	17.58	-31.3	-31.9	26.5	0.00e+00	0	27	0	1954545664	36	5688
2026-01-12 04:43:47.89	279.62	17.58	-31.3	-31.9	26.5	0.00e+00	0	27	0	1959788544	36	5677
2026-01-12 04:43:48.90	279.85	17.58	-31.2	-31.9	26.6	0.00e+00	0	27	0	1966080000	36	5638
2026-01-12 04:43:49.91	280.08	17.57	-31.3	-31.9	26.4	0.00e+00	0	27	0	1971322880	36	5639
2026-01-12 04:43:50.92	280.32	17.57	-31.2	-31.9	26.6	0.00e+00	0	27	0	1976565760	36	5653
2026-01-12 04:43:51.93	280.55	17.57	-31.2	-31.9	26.5	0.00e+00	0	27	0	1982857216	36	5648
2026-01-12 04:43:52.94	280.78	17.57	-31.1	-31.7	26.6	0.00e+00	0	27	0	1988100096	36	5561
2026-01-12 04:43:53.95	281.02	17.56	-31.2	-31.8	26.5	0.00e+00	0	27	0	1994391552	36	5616
2026-01-12 04:43:54.96	281.25	17.56	-31.1	-31.7	26.5	0.00e+00	0	27	0	1999634432	36	5546
2026-01-12 04:43:55.97	281.48	17.56	-31.2	-31.8	26.5	0.00e+00	0	27	0	2004877312	36	5623
2026-01-12 04:43:56.98	281.72	17.55	-31.3	-31.9	26.4	0.00e+00	0	27	0	2011168768	36	5667
2026-01-12 04:43:57.98	281.95	17.55	-31.3	-32.0	26.2	0.00e+00	0	27	0	2016411648	36	5738
2026-01-12 04:43:58.99	282.18	17.54	-31.4	-32.1	26.3	0.00e+00	0	27	0	2022703104	36	5770
2026-01-12 04:44:00.01	282.41	17.53	-31.3	-32.0	26.1	0.00e+00	0	27	0	2027945984	36	5709
2026-01-12 04:44:01.02	282.65	17.53	-31.4	-32.0	26.3	0.00e+00	0	27	0	2034237440	36	5756
2026-01-12 04:44:02.03	282.88	17.52	-31.3	-31.9	26.4	0.00e+00	0	27	0	2039480320	36	5666
2026-01-12 04:44:03.03	283.11	17.51	-31.3	-32.0	26.4	0.00e+00	0	27	0	2045771776	36	5697
2026-01-12 04:44:04.04	283.34	17.51	-31.3	-31.9	26.5	0.00e+00	0	27	0	2051014656	36	5658
2026-01-12 04:44:05.05	283.57	17.50	-31.3	-32.0	26.4	0.00e+00	0	27	0	2056257536	36	5718
2026-01-12 04:44:06.06	283.81	17.49	-31.4	-32.1	26.3	0.00e+00	0	27	0	2062548992	36	5786
2026-01-12 04:44:07.07	284.04	17.48	-31.4	-32.0	26.4	0.00e+00	0	27	0	2067791872	36	5731
2026-01-12 04:44:08.08	284.27	17.47	-31.3	-32.0	26.5	0.00e+00	0	27	0	2074083328	36	5717
2026-01-12 04:44:09.09	284.50	17.46	-31.1	-31.7	26.6	0.00e+00	0	27	0	2079326208	36	5544
2026-01-12 04:44:10.10	284.73	17.45	-31.0	-31.7	26.7	0.00e+00	0	27	0	2084569088	36	5513
2026-01-12 04:44:11.11	284.96	17.44	-30.9	-31.6	26.8	0.00e+00	0	27	0	2090860544	36	5454
2026-01-12 04:44:12.12	285.20	17.43	-31.0	-31.6	26.7	0.00e+00	0	27	0	2096103424	36	5445
2026-01-12 04:44:13.13	285.43	17.41	-31.0	-31.5	26.7	0.00e+00	0	27	0	2102394880	36	5432
2026-01-12 04:44:14.14	285.66	17.40	-31.1	-31.7	26.7	0.00e+00	0	27	0	2107637760	36	5505
2026-01-12 04:44:15.15	285.89	17.39	-31.1	-31.8	26.5	0.00e+00	0	27	0	2112880640	36	5601
2026-01-12 04:44:16.16	286.12	17.38	-31.2	-31.8	26.6	0.00e+00	0	27	0	2119172096	36	5624
2026-01-12 04:44:17.17	286.35	17.36	-31.3	-31.9	26.5	0.00e+00	0	27	0	2124414976	36	5672
2026-01-12 04:44:18.17	286.58	17.35	-31.3	-31.9	26.5	0.00e+00	0	27	0	2130706432	36	5644
2026-01-12 04:44:19.18	286.81	17.33	-31.3	-31.9	26.5	0.00e+00	0	27	0	2135949312	36	5684
2026-01-12 04:44:20.19	287.03	17.32	-31.3	-31.9	26.5	0.00e+00	0	27	0	2142240768	36	5675
2026-01-12 04:44:21.20	287.26	17.30	-31.5	-32.1	26.4	0.00e+00	0	27	0	2147483648	36	5770
2026-01-12 04:44:22.21	287.49	17.29	-31.3	-32.0	26.5	0.00e+00	0	27	0	2152726528	36	5698
2026-01-12 04:44:23.22	287.72	17.27	-31.4	-32.0	26.4	0.00e+00	0	27	0	2159017984	36	5748
2026-01-12 04:44:24.23	287.95	17.26	-31.4	-32.1	26.4	0.00e+00	0	27	0	2164260864	36	5763
2026-01-12 04:44:25.24	288.18	17.24	-31.4	-32.0	26.4	0.00e+00	0	27	0	2170552320	36	5754
2026-01-12 04:44:26.25	288.41	17.22	-31.4	-32.1	26.4	0.00e+00	0	27	0	2175795200	36	5811
2026-01-12 04:44:27.26	288.63	17.20	-31.4	-32.0	26.4	0.00e+00	0	27	0	2181038080	36	5743
2026-01-12 04:44:28.27	288.86	17.19	-31.4	-32.0	26.4	0.00e+00	0	27	0	2187329536	36	5750
2026-01-12 04:44:29.28	289.09	17.17	-31.4	-31.9	26.4	0.00e+00	0	27	0	2192572416	36	5672
2026-01-12 04:44:30.29	289.32	17.15	-31.4	-32.0	26.4	0.00e+00	0	27	0	2198863872	36	5742
2026-01-12 04:44:31.30	289.54	17.13	-31.5	-32.1	26.3	0.00e+00	0	27	0	2204106752	36	5814
2026-01-12 04:44:32.31	289.77	17.11	-31.5	-32.1	26.2	0.00e+00	0	27	0	2209349632	36	5785
2026-01-12 04:44:33.32	290.00	17.09	-31.6	-32.3	26.2	0.00e+00	0	27	0	2215641088	36	5913
2026-01-12 04:44:34.32	290.22	17.07	-31.7	-32.3	26.1	0.00e+00	0	27	0	2220883968	36	5898
2026-01-12 04:44:35.33	290.44	17.05	-31.7	-32.4	26.1	0.00e+00	0	27	0	2227175424	36	5966
2026-01-12 04:44:36.34	290.67	17.03	-31.7	-32.4	26.0	0.00e+00	0	27	0	2232418304	36	6004
2026-01-12 04:44:37.35	290.89	17.00	-31.8	-32.5	26.1	0.00e+00	0	27	0	2238709760	36	6044
2026-01-12 04:44:38.36	291.12	16.98	-31.8	-32.5	26.1	0.00e+00	0	27	0	2243952640	36	6043
2026-01-12 04:44:39.37	291.34	16.96	-31.5	-32.1	26.3	0.00e+00	0	27	0	2249195520	36	5816
2026-01-12 04:44:40.38	291.57	16.94	-31.6	-32.2	26.2	0.00e+00	0	27	0	2255486976	36	5888
2026-01-12 04:44:41.39	291.79	16.91	-31.7	-32.4	26.2	0.00e+00	0	27	0	2260729856	36	5965
2026-01-12 04:44:42.40	292.01	16.89	-31.6	-32.2	26.2	0.00e+00	0	27	0	2267021312	36	5859
2026-01-12 04:44:43.41	292.24	16.86	-31.5	-32.1	26.4	0.00e+00	0	27	0	2272264192	36	5805
2026-01-12 04:44:44.42	292.46	16.84	-31.5	-32.0	26.3	0.00e+00	0	27	0	2277507072	36	5759
2026-01-12 04:44:45.43	292.68	16.81	-31.4	-32.0	26.3	0.00e+00	0	27	0	2283798528	36	5737
2026-01-12 04:44:46.44	292.90	16.79	-31.4	-32.1	26.4	0.00e+00	0	27	0	2289041408	36	5786
2026-01-12 04:44:47.45	293.12	16.76	-31.4	-32.0	26.3	0.00e+00	0	27	0	2295332864	36	5724
2026-01-12 04:44:48.46	293.35	16.74	-31.5	-32.1	26.3	0.00e+00	0	27	0	2300575744	36	5803
2026-01-12 04:44:49.47	293.57	16.71	-31.5	-32.2	26.3	0.00e+00	0	27	0	2305818624	36	5837
2026-01-12 04:44:50.48	293.79	16.68	-31.6	-32.2	26.2	0.00e+00	0	27	0	2312110080	36	5872
2026-01-12 04:44:51.49	294.01	16.66	-31.7	-32.5	26.1	0.00e+00	0	27	0	2317352960	36	6034
2026-01-12 04:44:52.50	294.23	16.63	-31.8	-32.4	26.0	0.00e+00	0	27	0	2323644416	36	6016
2026-01-12 04:44:53.51	294.44	16.60	-31.9	-32.6	26.0	0.00e+00	0	27	0	2328887296	36	6135
2026-01-12 04:44:54.52	294.66	16.57	-31.8	-32.5	26.0	0.00e+00	0	27	0	2335178752	36	6076
2026-01-12 04:44:55.53	294.88	16.54	-31.9	-32.5	25.9	0.00e+00	0	27	0	2340421632	36	6068
2026-01-12 04:44:56.54	295.10	16.51	-31.9	-32.5	25.9	0.00e+00	0	27	0	2346713088	36	6074
2026-01-12 04:44:57.54	295.31	16.48	-31.9	-32.6	25.9	0.00e+00	0	27	0	2351955968	36	6157
2026-01-12 04:44:58.55	295.53	16.45	-31.9	-32.7	25.9	0.00e+00	0	27	0	2357198848	36	6186
2026-01-12 04:44:59.56	295.75	16.42	-32.0	-32.7	25.9	0.00e+00	0	27	0	2363490304	36	6230
2026-01-12 04:45:00.57	295.96	16.39	-31.8	-32.4	26.0	0.00e+00	0	27	0	2368733184	36	5982
2026-01-12 04:45:01.58	296.18	16.36	-31.8	-32.4	26.1	0.00e+00	0	27	0	2375024640	36	5996
2026-01-12 04:45:02.59	296.39	16.33	-31.8	-32.4	26.0	0.00e+00	0	27	0	2380267520	36	5965
2026-01-12 04:45:03.60	296.61	16.30	-31.8	-32.4	26.1	0.00e+00	0	27	0	2385510400	36	5968
2026-01-12 04:45:04.61	296.82	16.27	-31.7	-32.3	26.2	0.00e+00	0	27	0	2391801856	36	5938
2026-01-12 04:45:05.62	297.04	16.24	-31.7	-32.4	26.2	0.00e+00	0	27	0	2397044736	36	5992
2026-01-12 04:45:06.63	297.25	16.20	-31.8	-32.4	26.1	0.00e+00	0	27	0	2403336192	36	5988
2026-01-12 04:45:07.64	297.46	16.17	-31.8	-32.5	26.1	0.00e+00	0	27	0	2408579072	36	6063
2026-01-12 04:45:08.65	297.68	16.14	-31.7	-32.4	26.1	0.00e+00	0	27	0	2413821952	36	6018
2026-01-12 04:45:09.66	297.89	16.10	-31.7	-32.4	26.1	0.00e+00	0	27	0	2420113408	36	5993
2026-01-12 04:45:10.67	298.10	16.07	-31.9	-32.6	26.1	0.00e+00	0	27	0	2425356288	36	6124
2026-01-12 04:45:11.68	298.31	16.04	-31.8	-32.4	26.1	0.00e+00	0	27	0	2431647744	36	5992
2026-01-12 04:45:12.69	298.52	16.00	-31.9	-32.4	26.0	0.00e+00	0	27	0	2436890624	36	6032
2026-01-12 04:45:13.69	298.73	15.97	-31.7	-32.3	26.1	0.00e+00	0	27	0	2443182080	36	5963
2026-01-12 04:45:14.70	298.94	15.93	-31.8	-32.5	26.1	0.00e+00	0	27	0	2448424960	36	6035
2026-01-12 04:45:15.71	299.15	15.90	-31.8	-32.5	26.1	0.00e+00	0	27	0	2453667840	36	6044
2026-01-12 04:45:16.72	299.36	15.86	-31.7	-32.4	26.1	0.00e+00	0	27	0	2459959296	36	5983
2026-01-12 04:45:17.73	299.57	15.83	-31.7	-32.3	26.2	0.00e+00	0	27	0	2465202176	36	5951
2026-01-12 04:45:18.74	299.77	15.79	-31.7	-32.3	26.1	0.00e+00	0	27	0	2471493632	36	5924
2026-01-12 04:45:19.75	299.98	15.75	-31.7	-32.4	26.1	0.00e+00	0	27	0	2476736512	36	6032
2026-01-12 04:45:20.76	300.19	15.72	-31.9	-32.6	26.2	0.00e+00	0	27	0	2481979392	36	6117
2026-01-12 04:45:21.77	300.39	15.68	-31.8	-32.4	26.2	0.00e+00	0	27	0	2488270848	36	6014
2026-01-12 04:45:22.79	300.60	15.64	-31.9	-32.5	26.1	0.00e+00	0	27	0	2493513728	36	6080
2026-01-12 04:45:23.80	300.81	15.60	-31.9	-32.6	26.1	0.00e+00	0	27	0	2499805184	36	6106
2026-01-12 04:45:24.81	301.01	15.56	-31.9	-32.5	26.0	0.00e+00	0	27	0	2505048064	36	6094
2026-01-12 04:45:25.82	301.22	15.53	-32.0	-32.6	26.0	0.00e+00	0	27	0	2510290944	36	6146
2026-01-12 04:45:26.83	301.42	15.49	-32.0	-32.6	26.1	0.00e+00	0	27	0	2516582400	36	6168
2026-01-12 04:45:27.84	301.62	15.45	-32.1	-32.7	26.0	0.00e+00	0	27	0	2521825280	36	6239
2026-01-12 04:45:28.85	301.83	15.41	-32.1	-32.8	25.9	0.00e+00	0	27	0	2528116736	36	6307
2026-01-12 04:45:29.85	302.03	15.37	-32.2	-32.8	25.8	0.00e+00	0	27	0	2533359616	36	6306
2026-01-12 04:45:30.86	302.23	15.33	-32.4	-33.0	25.7	0.00e+00	0	27	0	2539651072	36	6443
2026-01-12 04:45:31.87	302.43	15.29	-32.3	-33.0	25.7	0.00e+00	0	27	0	2544893952	36	6429
2026-01-12 04:45:32.88	302.63	15.25	-32.2	-32.9	25.8	0.00e+00	0	27	0	2551185408	36	6362
2026-01-12 04:45:33.89	302.83	15.21	-32.1	-32.8	25.8	0.00e+00	0	27	0	2556428288	36	6250
2026-01-12 04:45:34.90	303.03	15.17	-32.0	-32.7	26.0	0.00e+00	0	27	0	2561671168	36	6235
2026-01-12 04:45:35.91	303.23	15.13	-32.0	-32.7	26.0	0.00e+00	0	27	0	2567962624	36	6228
2026-01-12 04:45:36.92	303.43	15.09	-32.1	-32.7	25.9	0.00e+00	0	27	0	2573205504	36	6235
2026-01-12 04:45:37.93	303.62	15.05	-32.1	-32.8	25.9	0.00e+00	0	27	0	2579496960	36	6317
2026-01-12 04:45:38.94	303.82	15.00	-32.1	-32.8	25.8	0.00e+00	0	27	0	2584739840	36	6310
2026-01-12 04:45:39.95	304.02	14.96	-32.1	-32.8	25.9	0.00e+00	0	27	0	2589982720	36	6280
2026-01-12 04:45:40.96	304.21	14.92	-32.2	-32.9	25.7	0.00e+00	0	27	0	2596274176	36	6347
2026-01-12 04:45:41.97	304.41	14.88	-32.3	-32.9	25.7	0.00e+00	0	27	0	2601517056	36	6359
2026-01-12 04:45:42.97	304.60	14.84	-32.2	-33.0	25.8	0.00e+00	0	27	0	2607808512	36	6407
2026-01-12 04:45:43.98	304.80	14.79	-32.2	-32.8	25.8	0.00e+00	0	27	0	2613051392	36	6316
2026-01-12 04:45:44.99	304.99	14.75	-32.3	-33.0	25.7	0.00e+00	0	27	0	2618294272	36	6443
2026-01-12 04:45:46.00	305.19	14.71	-32.1	-32.7	25.8	0.00e+00	0	27	0	2624585728	36	6243
2026-01-12 04:45:47.01	305.38	14.66	-32.2	-32.8	25.8	0.00e+00	0	27	0	2629828608	36	6280
2026-01-12 04:45:48.02	305.57	14.62	-32.2	-32.8	25.8	0.00e+00	0	27	0	2636120064	36	6259
2026-01-12 04:45:49.03	305.76	14.57	-32.2	-32.9	25.8	0.00e+00	0	27	0	2641362944	36	6341
2026-01-12 04:45:50.04	305.95	14.53	-32.2	-32.8	25.8	0.00e+00	0	27	0	2647654400	36	6280
2026-01-12 04:45:51.05	306.14	14.49	-32.2	-32.9	25.8	0.00e+00	0	27	0	2652897280	36	6373
2026-01-12 04:45:52.06	306.33	14.44	-32.2	-32.9	25.8	0.00e+00	0	27	0	2658140160	36	6333
2026-01-12 04:45:53.07	306.52	14.40	-32.1	-32.8	25.9	0.00e+00	0	27	0	2664431616	36	6283
2026-01-12 04:45:54.08	306.71	14.35	-32.1	-32.7	25.8	0.00e+00	0	27	0	2669674496	36	6229
2026-01-12 04:45:55.09	306.90	14.31	-32.1	-32.8	25.8	0.00e+00	0	27	0	2675965952	36	6272
2026-01-12 04:45:56.10	307.09	14.26	-32.1	-32.8	25.8	0.00e+00	0	27	0	2681208832	36	6278
2026-01-12 04:45:57.11	307.28	14.21	-32.1	-32.8	25.8	0.00e+00	0	27	0	2686451712	36	6301
2026-01-12 04:45:58.12	307.46	14.17	-32.3	-32.9	25.7	0.00e+00	0	27	0	2692743168	36	6323
2026-01-12 04:45:59.13	307.65	14.12	-32.4	-33.0	25.6	0.00e+00	0	27	0	2697986048	36	6413
2026-01-12 04:46:00.14	307.84	14.08	-32.4	-33.1	25.7	0.00e+00	0	27	0	2704277504	36	6475
2026-01-12 04:46:01.14	308.02	14.03	-32.3	-33.0	25.6	0.00e+00	0	27	0	2709520384	36	6455
2026-01-12 04:46:02.15	308.20	13.98	-32.4	-33.2	25.6	0.00e+00	0	27	0	2714763264	36	6554
2026-01-12 04:46:03.16	308.39	13.94	-32.5	-33.1	25.5	0.00e+00	0	27	0	2721054720	36	6492
2026-01-12 04:46:04.17	308.57	13.89	-32.4	-33.0	25.6	0.00e+00	0	27	0	2726297600	36	6440
2026-01-12 04:46:05.18	308.75	13.84	-32.5	-33.2	25.5	0.00e+00	0	27	0	2732589056	36	6555
2026-01-12 04:46:06.19	308.94	13.80	-32.4	-33.0	25.5	0.00e+00	0	27	0	2737831936	36	6447
2026-01-12 04:46:07.20	309.12	13.75	-32.5	-33.2	25.5	0.00e+00	0	27	0	2744123392	36	6569
2026-01-12 04:46:08.21	309.30	13.70	-32.6	-33.3	25.5	0.00e+00	0	27	0	2749366272	36	6626
2026-01-12 04:46:09.22	309.48	13.65	-32.6	-33.2	25.4	0.00e+00	0	27	0	2754609152	36	6560
2026-01-12 04:46:10.23	309.66	13.61	-32.6	-33.2	25.5	0.00e+00	0	27	0	2760900608	36	6591
2026-01-12 04:46:11.24	309.84	13.56	-32.6	-33.3	25.4	0.00e+00	0	27	0	2766143488	36	6675
2026-01-12 04:46:12.25	310.02	13.51	-32.5	-33.2	25.4	0.00e+00	0	27	0	2772434944	36	6557
2026-01-12 04:46:13.26	310.20	13.46	-32.5	-33.3	25.5	0.00e+00	0	27	0	2777677824	36	6621
2026-01-12 04:46:14.27	310.38	13.41	-32.5	-33.3	25.4	0.00e+00	0	27	0	2782920704	36	6622
2026-01-12 04:46:15.28	310.55	13.36	-32.6	-33.3	25.4	0.00e+00	0	27	0	2789212160	36	6625
2026-01-12 04:46:16.29	310.73	13.31	-32.7	-33.4	25.3	0.00e+00	0	27	0	2794455040	36	6699
2026-01-12 04:46:17.30	310.91	13.27	-32.7	-33.3	25.3	0.00e+00	0	27	0	2800746496	36	6642
2026-01-12 04:46:18.31	311.08	13.22	-32.7	-33.4	25.2	0.00e+00	0	27	0	2805989376	38	5975
2026-01-12 04:46:19.32	311.26	13.17	-32.7	-33.3	25.3	0.00e+00	0	27	0	2811232256	38	5909
2026-01-12 04:46:20.32	311.43	13.12	-32.7	-33.3	25.3	0.00e+00	0	27	0	2817523712	38	5944
2026-01-12 04:46:21.33	311.60	13.07	-32.7	-33.3	25.4	0.00e+00	0	27	0	2822766592	38	5917
2026-01-12 04:46:22.35	311.78	13.02	-32.6	-33.3	25.3	0.00e+00	0	27	0	2829058048	38	5941
2026-01-12 04:46:23.35	311.95	12.97	-32.8	-33.4	25.3	0.00e+00	0	27	0	2834300928	38	6010
2026-01-12 04:46:24.36	312.12	12.92	-32.8	-33.5	25.2	0.00e+00	0	27	0	2840592384	38	6046
2026-01-12 04:46:25.38	312.29	12.87	-32.8	-33.5	25.2	0.00e+00	0	27	0	2845835264	38	6042
2026-01-12 04:46:26.38	312.46	12.82	-32.7	-33.4	25.2	0.00e+00	0	27	0	2852126720	38	5992
2026-01-12 04:46:27.40	312.63	12.77	-32.7	-33.4	25.3	0.00e+00	0	27	0	2857369600	38	6006
2026-01-12 04:46:28.40	312.80	12.72	-32.8	-33.5	25.1	0.00e+00	0	27	0	2862612480	38	6084
2026-01-12 04:46:29.41	312.97	12.67	-32.8	-33.6	25.2	0.00e+00	0	27	0	2868903936	38	6127
2026-01-12 04:46:30.42	313.14	12.62	-32.8	-33.6	25.1	0.00e+00	0	27	0	2874146816	38	6120
2026-01-12 04:46:31.43	313.31	12.57	-32.8	-33.4	25.2	0.00e+00	0	27	0	2880438272	38	6028
2026-01-12 04:46:32.44	313.48	12.51	-32.8	-33.4	25.1	0.00e+00	0	27	0	2885681152	38	6029
2026-01-12 04:46:33.45	313.64	12.46	-32.9	-33.4	25.2	0.00e+00	0	27	0	2890924032	38	6029
2026-01-12 04:46:34.46	313.81	12.41	-32.8	-33.5	25.2	0.00e+00	0	27	0	2897215488	38	6039
2026-01-12 04:46:35.47	313.98	12.36	-32.8	-33.4	25.2	0.00e+00	0	27	0	2902458368	38	5989
2026-01-12 04:46:36.48	314.14	12.31	-32.9	-33.6	25.1	0.00e+00	0	27	0	2908749824	38	6153
2026-01-12 04:46:37.49	314.31	12.26	-32.9	-33.5	25.2	0.00e+00	0	27	0	2913992704	38	6050
2026-01-12 04:46:38.50	314.47	12.21	-33.0	-33.7	25.1	0.00e+00	0	27	0	2919235584	38	6217
2026-01-12 04:46:39.51	314.63	12.16	-33.0	-33.6	25.0	0.00e+00	0	27	0	2925527040	38	6119
2026-01-12 04:46:40.52	314.80	12.10	-33.0	-33.6	25.0	0.00e+00	0	27	0	2930769920	38	6160
2026-01-12 04:46:41.53	314.96	12.05	-32.9	-33.7	25.0	0.00e+00	0	27	0	2937061376	38	6186
2026-01-12 04:46:42.54	315.12	12.00	-33.0	-33.7	25.0	0.00e+00	0	27	0	2942304256	38	6183
2026-01-12 04:46:43.54	315.28	11.95	-33.0	-33.7	25.0	0.00e+00	0	27	0	2948595712	38	6225
2026-01-12 04:46:44.56	315.44	11.90	-33.0	-33.7	24.9	0.00e+00	0	27	0	2953838592	38	6229
2026-01-12 04:46:45.56	315.60	11.84	-32.9	-33.6	25.0	0.00e+00	0	27	0	2959081472	38	6136
2026-01-12 04:46:46.58	315.76	11.79	-32.9	-33.5	25.1	0.00e+00	0	27	0	2965372928	38	6088
2026-01-12 04:46:47.59	315.92	11.74	-32.9	-33.6	25.0	0.00e+00	0	27	0	2970615808	38	6150
2026-01-12 04:46:48.60	316.08	11.69	-32.7	-33.3	25.1	0.00e+00	0	27	0	2976907264	38	5957
2026-01-12 04:46:49.61	316.24	11.63	-32.8	-33.5	25.0	0.00e+00	0	27	0	2982150144	38	6070
2026-01-12 04:46:50.62	316.40	11.58	-32.8	-33.5	25.0	0.00e+00	0	27	0	2987393024	38	6051
2026-01-12 04:46:51.63	316.55	11.53	-32.9	-33.7	24.9	0.00e+00	0	27	0	2993684480	38	6214
2026-01-12 04:46:52.64	316.71	11.48	-33.0	-33.7	24.7	0.00e+00	0	27	0	2998927360	38	6233
2026-01-12 04:46:53.65	316.87	11.42	-33.0	-33.7	24.6	0.00e+00	0	27	0	3005218816	38	6197
2026-01-12 04:46:54.66	317.02	11.37	-33.2	-33.8	24.6	0.00e+00	0	27	0	3010461696	38	6271
2026-01-12 04:46:55.66	317.18	11.32	-33.4	-34.1	24.3	0.00e+00	0	27	0	3015704576	38	6509
2026-01-12 04:46:56.67	317.33	11.26	-33.2	-33.9	24.7	0.00e+00	0	27	0	3021996032	38	6356
2026-01-12 04:46:57.68	317.48	11.21	-33.3	-34.0	24.4	0.00e+00	0	27	0	3027238912	38	6446
2026-01-12 04:46:58.69	317.64	11.16	-33.4	-34.0	24.5	0.00e+00	0	27	0	3033530368	38	6453
2026-01-12 04:46:59.70	317.79	11.10	-33.3	-33.9	24.6	0.00e+00	0	27	0	3038773248	38	6382
2026-01-12 04:47:00.71	317.94	11.05	-33.2	-33.8	24.7	0.00e+00	0	27	0	3045064704	38	6316
2026-01-12 04:47:01.72	318.09	11.00	-33.3	-34.0	24.6	0.00e+00	0	27	0	3050307584	38	6456
2026-01-12 04:47:02.73	318.24	10.94	-33.3	-34.0	24.5	0.00e+00	0	27	0	3056599040	38	6399
2026-01-12 04:47:03.74	318.40	10.89	-33.4	-34.1	24.6	0.00e+00	0	27	0	3061841920	38	6506
2026-01-12 04:47:04.75	318.55	10.84	-33.4	-34.1	24.6	0.00e+00	0	27	0	3067084800	38	6485
2026-01-12 04:47:05.76	318.70	10.78	-33.3	-34.0	24.6	0.00e+00	0	27	0	3073376256	38	6396
2026-01-12 04:47:06.77	318.84	10.73	-33.3	-33.9	24.7	0.00e+00	0	27	0	3078619136	38	6386
2026-01-12 04:47:07.78	318.99	10.68	-33.3	-34.0	24.7	0.00e+00	0	27	0	3084910592	38	6393
2026-01-12 04:47:08.78	319.14	10.62	-33.3	-34.1	24.7	0.00e+00	0	27	0	3090153472	38	6466
2026-01-12 04:47:09.79	319.29	10.57	-33.4	-34.2	24.6	0.00e+00	0	27	0	3095396352	38	6553
2026-01-12 04:47:10.80	319.43	10.52	-33.5	-34.3	24.5	0.00e+00	0	27	0	3101687808	38	6644
2026-01-12 04:47:11.81	319.58	10.46	-33.5	-34.2	24.4	0.00e+00	0	27	0	3106930688	38	6547
2026-01-12 04:47:12.82	319.73	10.41	-33.6	-34.4	24.4	0.00e+00	0	27	0	3112173568	38	6707
2026-01-12 04:47:13.83	319.87	10.35	-33.7	-34.4	24.3	0.00e+00	0	27	0	3118465024	38	6733
2026-01-12 04:47:14.84	320.02	10.30	-33.7	-34.3	24.3	0.00e+00	0	27	0	3123707904	38	6692
2026-01-12 04:47:15.85	320.16	10.25	-33.7	-34.4	24.3	0.00e+00	0	27	0	3129999360	38	6704
2026-01-12 04:47:16.86	320.30	10.19	-33.8	-34.4	24.2	0.00e+00	0	27	0	3135242240	40	6033
2026-01-12 04:47:17.87	320.45	10.14	-33.7	-34.5	24.2	0.00e+00	0	27	0	3141533696	40	6068
2026-01-12 04:47:18.88	320.59	10.08	-33.7	-34.4	24.2	0.00e+00	0	27	0	3146776576	40	5995
2026-01-12 04:47:19.89	320.73	10.03	-33.7	-34.4	24.1	0.00e+00	0	27	0	3153068032	40	5991
2026-01-12 04:47:20.90	320.87	9.97	-33.5	-34.2	24.4	0.00e+00	0	27	0	3158310912	40	5848
2026-01-12 04:47:21.91	321.01	9.92	-33.5	-34.2	24.4	0.00e+00	0	27	0	3163553792	40	5842
2026-01-12 04:47:22.92	321.16	9.87	-33.6	-34.3	24.4	0.00e+00	0	27	0	3169845248	40	5900
2026-01-12 04:47:23.93	321.30	9.81	-33.5	-34.2	24.3	0.00e+00	0	27	0	3175088128	40	5849
2026-01-12 04:47:24.94	321.44	9.76	-33.6	-34.4	24.1	0.00e+00	0	27	0	3181379584	40	6013
2026-01-12 04:47:25.95	321.57	9.70	-33.7	-34.4	24.1	0.00e+00	0	27	0	3186622464	40	5996
2026-01-12 04:47:26.96	321.71	9.65	-33.8	-34.6	24.2	0.00e+00	0	27	0	3191865344	40	6116
2026-01-12 04:47:27.96	321.85	9.59	-34.0	-34.6	23.9	0.00e+00	0	27	0	3198156800	40	6165
2026-01-12 04:47:28.97	321.99	9.54	-34.0	-34.7	24.0	0.00e+00	0	27	0	3203399680	40	6236
2026-01-12 04:47:29.98	322.13	9.49	-34.1	-34.7	23.9	0.00e+00	0	27	0	3209691136	40	6224
2026-01-12 04:47:30.99	322.26	9.43	-34.2	-35.0	23.8	0.00e+00	0	27	0	3214934016	40	6395
2026-01-12 04:47:32.00	322.40	9.38	-34.2	-35.0	23.7	0.00e+00	0	27	0	3220176896	40	6402
2026-01-12 04:47:33.01	322.53	9.32	-34.3	-35.1	23.7	0.00e+00	0	27	0	3226468352	40	6538
2026-01-12 04:47:34.02	322.67	9.27	-33.7	-34.4	24.2	0.00e+00	0	27	0	3231711232	40	5967
2026-01-12 04:47:35.03	322.80	9.21	-33.7	-34.3	24.2	0.00e+00	0	27	0	3238002688	40	5952
2026-01-12 04:47:36.04	322.94	9.16	-33.6	-34.4	24.2	0.00e+00	0	27	0	3243245568	40	5989
2026-01-12 04:47:37.05	323.07	9.10	-33.7	-34.4	24.1	0.00e+00	0	27	0	3249537024	40	5977
2026-01-12 04:47:38.06	323.21	9.05	-33.6	-34.3	24.2	0.00e+00	0	27	0	3254779904	40	5923
2026-01-12 04:47:39.07	323.34	8.99	-33.7	-34.5	24.1	0.00e+00	0	27	0	3260022784	40	6065
2026-01-12 04:47:40.08	323.47	8.94	-33.6	-34.3	24.2	0.00e+00	0	27	0	3266314240	40	5906
2026-01-12 04:47:41.09	323.60	8.89	-33.7	-34.5	24.2	0.00e+00	0	27	0	3271557120	40	6043
2026-01-12 04:47:42.10	323.73	8.83	-33.7	-34.4	24.2	0.00e+00	0	27	0	3277848576	40	6003
2026-01-12 04:47:43.11	323.86	8.78	-33.7	-34.5	24.1	0.00e+00	0	27	0	3283091456	40	6063
2026-01-12 04:47:44.12	324.00	8.72	-33.7	-34.5	24.2	0.00e+00	0	27	0	3288334336	40	6059
2026-01-12 04:47:45.13	324.13	8.67	-33.8	-34.6	23.9	0.00e+00	0	27	0	3294625792	40	6129
2026-01-12 04:47:46.14	324.25	8.61	-34.1	-34.7	23.9	0.00e+00	0	27	0	3299868672	40	6239
2026-01-12 04:47:47.15	324.38	8.56	-33.9	-34.6	23.9	0.00e+00	0	27	0	3306160128	40	6115
2026-01-12 04:47:48.16	324.51	8.50	-33.9	-34.6	24.0	0.00e+00	0	27	0	3311403008	40	6107
2026-01-12 04:47:49.17	324.64	8.45	-34.0	-34.8	23.7	0.00e+00	0	27	0	3316645888	40	6246
2026-01-12 04:47:50.18	324.77	8.39	-34.1	-34.8	23.7	0.00e+00	0	27	0	3322937344	40	6295
2026-01-12 04:47:51.18	324.89	8.34	-34.2	-34.8	23.6	0.00e+00	0	27	0	3328180224	40	6289
2026-01-12 04:47:52.20	325.02	8.28	-34.5	-35.2	23.3	0.00e+00	0	27	0	3334471680	40	6570
2026-01-12 04:47:53.21	325.15	8.23	-34.1	-34.7	23.7	0.00e+00	0	27	0	3339714560	40	6223
2026-01-12 04:47:54.22	325.27	8.18	-34.2	-35.0	23.6	0.00e+00	0	27	0	3346006016	40	6437
2026-01-12 04:47:55.23	325.40	8.12	-34.3	-35.1	23.5	0.00e+00	0	27	0	3351248896	40	6510
2026-01-12 04:47:56.24	325.52	8.07	-34.4	-35.1	23.4	0.00e+00	0	27	0	3357540352	40	6523
2026-01-12 04:47:57.25	325.65	8.01	-34.6	-35.3	23.3	0.00e+00	0	27	0	3362783232	40	6629
2026-01-12 04:47:58.25	325.77	7.96	-34.4	-35.3	23.3	0.00e+00	0	27	0	3368026112	40	6629
2026-01-12 04:47:59.26	325.90	7.90	-34.5	-35.2	23.3	0.00e+00	0	27	0	3374317568	40	6557
2026-01-12 04:48:00.27	326.02	7.85	-34.7	-35.3	23.1	0.00e+00	0	27	0	3379560448	40	6684
2026-01-12 04:48:01.28	326.14	7.79	-34.7	-35.5	23.1	0.00e+00	0	27	0	3385851904	40	6794
2026-01-12 04:48:02.29	326.26	7.74	-34.8	-35.6	22.9	0.00e+00	0	27	0	3391094784	40	6855
2026-01-12 04:48:03.30	326.39	7.68	-34.6	-35.4	23.1	0.00e+00	0	27	0	3396337664	42	5984
2026-01-12 04:48:04.31	326.51	7.63	-34.6	-35.3	23.2	0.00e+00	0	27	0	3402629120	42	5932
2026-01-12 04:48:05.32	326.63	7.57	-34.5	-35.2	23.3	0.00e+00	0	27	0	3407872000	42	5859
2026-01-12 04:48:06.33	326.75	7.52	-34.5	-35.3	23.2	0.00e+00	0	27	0	3414163456	42	5961
2026-01-12 04:48:07.34	326.87	7.47	-34.6	-35.3	23.2	0.00e+00	0	27	0	3419406336	42	5901
2026-01-12 04:48:08.35	326.99	7.41	-34.4	-35.1	23.3	0.00e+00	0	27	0	3424649216	42	5784
2026-01-12 04:48:09.36	327.11	7.36	-34.5	-35.1	23.3	0.00e+00	0	27	0	3430940672	42	5810
2026-01-12 04:48:10.37	327.23	7.30	-34.6	-35.4	23.2	0.00e+00	0	27	0	3436183552	42	5988
2026-01-12 04:48:11.38	327.35	7.25	-34.5	-35.3	23.2	0.00e+00	0	27	0	3442475008	42	5933
2026-01-12 04:48:12.39	327.46	7.19	-34.5	-35.3	23.2	0.00e+00	0	27	0	3447717888	42	5950
2026-01-12 04:48:13.39	327.58	7.14	-34.6	-35.4	23.2	0.00e+00	0	27	0	3454009344	42	6009
2026-01-12 04:48:14.41	327.70	7.08	-34.7	-35.4	22.9	0.00e+00	0	27	0	3459252224	42	6024
2026-01-12 04:48:15.42	327.81	7.03	-34.7	-35.5	22.9	0.00e+00	0	27	0	3464495104	42	6092
2026-01-12 04:48:16.43	327.93	6.98	-34.9	-35.6	22.9	0.00e+00	0	27	0	3470786560	42	6115
2026-01-12 04:48:17.44	328.05	6.92	-34.8	-35.5	22.9	0.00e+00	0	27	0	3476029440	42	6080
2026-01-12 04:48:18.44	328.16	6.87	-34.9	-35.8	22.7	0.00e+00	0	27	0	3482320896	42	6249
2026-01-12 04:48:19.45	328.28	6.81	-34.9	-35.6	22.7	0.00e+00	0	27	0	3487563776	42	6146
2026-01-12 04:48:20.46	328.39	6.76	-34.8	-35.7	22.8	0.00e+00	0	27	0	3492806656	42	6203
2026-01-12 04:48:21.47	328.50	6.70	-34.8	-35.5	22.9	0.00e+00	0	27	0	3499098112	42	6081
2026-01-12 04:48:22.48	328.62	6.65	-34.9	-35.8	22.7	0.00e+00	0	27	0	3504340992	42	6278
2026-01-12 04:48:23.49	328.73	6.60	-34.9	-35.7	22.8	0.00e+00	0	27	0	3510632448	42	6227
2026-01-12 04:48:24.50	328.85	6.54	-35.1	-35.8	22.6	0.00e+00	0	27	0	3515875328	42	6290
2026-01-12 04:48:25.51	328.96	6.49	-35.1	-35.9	22.5	0.00e+00	0	27	0	3521118208	42	6362
2026-01-12 04:48:26.52	329.07	6.43	-35.1	-35.8	22.6	0.00e+00	0	27	0	3527409664	42	6291
2026-01-12 04:48:27.53	329.18	6.38	-34.9	-35.6	22.7	0.00e+00	0	27	0	3532652544	42	6147
2026-01-12 04:48:28.54	329.29	6.33	-35.0	-35.7	22.6	0.00e+00	0	27	0	3538944000	42	6221
2026-01-12 04:48:29.55	329.40	6.27	-35.0	-35.8	22.6	0.00e+00	0	27	0	3544186880	42	6251
2026-01-12 04:48:30.55	329.51	6.22	-34.8	-35.6	22.7	0.00e+00	0	27	0	3550478336	42	6151
2026-01-12 04:48:31.56	329.62	6.16	-35.2	-35.9	22.3	0.00e+00	0	27	0	3555721216	42	6383
2026-01-12 04:48:32.57	329.73	6.11	-35.2	-36.0	22.5	0.00e+00	0	27	0	3560964096	42	6431
2026-01-12 04:48:33.58	329.84	6.06	-35.1	-35.9	22.6	0.00e+00	0	27	0	3567255552	42	6325
2026-01-12 04:48:34.59	329.95	6.00	-34.9	-35.6	22.8	0.00e+00	0	27	0	3572498432	42	6155
2026-01-12 04:48:35.60	330.06	5.95	-34.9	-35.7	22.7	0.00e+00	0	27	0	3578789888	42	6206
