passes_logs/2026/01/12/R4.6S_Anadyr/R4.6S_Anadyr__20260112_160138_NOAA_20_JPSS-1_rec.log

#Pass ID: 20260112_160138_NOAA 20 (JPSS-1)
#Satellite: NOAA 20 (JPSS-1)
#Configuration: NOAA 20
#almurnet v.1.7.20251203
#Start time: 2026-01-12 16:01:39

#Version: 2.2.20231116
#Station: R4.6S_Anadyr
#Location: 177.4865 lon 64.73178 lat
#TLE: 1 43013U 17073A   26011.59429536  .00000082  00000+0  59704-4 0  9990
#TLE: 2 43013  98.7632 312.5697 0001637  44.2118 315.9188 14.19535307422256

#Time	Az	El	Level	Level2	SNR	BER	BlckErr	Temp	State	Recorded	gain1	gain2
2026-01-12 16:01:39.19	24.33	0.05	-48.4	-63.3	3.6	1.51e+00	0	25	0	0	60	52755
2026-01-12 16:01:40.19	24.30	0.11	-48.6	-63.8	3.6	1.51e+00	0	26	104	0	60	56119
2026-01-12 16:01:41.20	24.27	0.17	-48.6	-63.9	3.6	1.51e+00	0	26	104	0	60	56379
2026-01-12 16:01:42.21	24.24	0.23	-48.5	-63.7	3.6	1.51e+00	0	26	104	0	60	55570
2026-01-12 16:01:43.22	24.21	0.29	-48.6	-63.8	3.6	1.51e+00	0	26	104	0	60	55753
2026-01-12 16:01:44.23	24.18	0.34	-48.7	-63.9	3.6	1.51e+00	0	26	104	0	60	56557
2026-01-12 16:01:45.24	24.15	0.40	-48.6	-63.7	3.6	1.51e+00	0	26	104	0	60	55622
2026-01-12 16:01:46.25	24.12	0.46	-48.5	-63.6	3.6	1.51e+00	0	26	104	0	60	54724
2026-01-12 16:01:47.26	24.09	0.52	-48.4	-63.6	3.6	1.51e+00	0	26	104	0	60	54626
2026-01-12 16:01:48.27	24.05	0.58	-48.3	-63.5	3.6	1.51e+00	0	26	104	0	60	54016
2026-01-12 16:01:49.28	24.02	0.64	-48.3	-63.5	3.6	1.51e+00	0	26	104	0	60	54142
2026-01-12 16:01:50.29	23.99	0.70	-48.1	-63.3	3.6	1.51e+00	0	26	104	0	60	52857
2026-01-12 16:01:51.30	23.96	0.76	-48.0	-63.2	3.6	1.51e+00	0	27	104	0	60	52290
2026-01-12 16:01:52.31	23.93	0.82	-47.8	-63.0	3.6	1.51e+00	0	26	104	0	60	50933
2026-01-12 16:01:53.32	23.89	0.88	-47.7	-62.9	3.6	1.51e+00	0	26	104	0	60	50233
2026-01-12 16:01:54.33	23.86	0.94	-47.4	-62.6	3.6	1.51e+00	0	26	104	0	60	48738
2026-01-12 16:01:55.34	23.83	1.00	-47.1	-62.3	3.6	1.51e+00	0	26	104	0	60	46941
2026-01-12 16:01:56.35	23.80	1.06	-47.0	-62.1	3.6	1.51e+00	0	27	104	0	60	45770
2026-01-12 16:01:57.36	23.76	1.12	-46.9	-62.1	3.6	1.51e+00	0	26	104	0	60	45807
2026-01-12 16:01:58.37	23.73	1.18	-46.9	-62.1	3.6	1.51e+00	0	27	104	0	60	45851
2026-01-12 16:01:59.38	23.70	1.24	-46.9	-62.0	3.6	1.51e+00	0	26	104	0	60	45495
2026-01-12 16:02:00.39	23.67	1.30	-46.9	-62.0	3.6	1.51e+00	0	27	104	0	60	45338
2026-01-12 16:02:01.40	23.63	1.37	-46.9	-61.9	3.6	1.51e+00	0	27	104	0	60	45182
2026-01-12 16:02:02.41	23.60	1.43	-46.8	-62.0	3.6	1.51e+00	0	27	104	0	60	45292
2026-01-12 16:02:03.42	23.56	1.49	-46.9	-62.0	3.6	1.51e+00	0	27	104	0	60	45399
2026-01-12 16:02:04.43	23.53	1.55	-46.8	-62.0	3.6	1.51e+00	0	27	104	0	60	45624
2026-01-12 16:02:05.44	23.50	1.61	-46.8	-62.0	3.6	1.51e+00	0	27	104	0	60	45752
2026-01-12 16:02:06.45	23.46	1.67	-46.8	-62.0	3.6	1.51e+00	0	27	104	0	60	45401
2026-01-12 16:02:07.46	23.43	1.73	-46.8	-61.9	3.6	1.51e+00	0	27	104	0	60	44847
2026-01-12 16:02:08.47	23.39	1.80	-46.8	-61.7	3.6	1.51e+00	0	27	104	0	60	43961
2026-01-12 16:02:09.48	23.36	1.86	-46.8	-61.6	3.6	1.51e+00	0	27	104	0	60	43550
2026-01-12 16:02:10.49	23.32	1.92	-46.9	-61.7	3.6	1.51e+00	0	27	104	0	60	43883
2026-01-12 16:02:11.50	23.29	1.98	-46.9	-61.7	3.6	1.51e+00	0	27	104	0	60	44096
2026-01-12 16:02:12.51	23.25	2.04	-46.9	-61.9	3.6	1.51e+00	0	27	104	0	60	44906
2026-01-12 16:02:13.52	23.22	2.11	-46.9	-62.0	3.6	1.51e+00	0	27	104	0	60	45252
2026-01-12 16:02:14.53	23.18	2.17	-46.9	-62.0	3.6	1.51e+00	0	27	104	0	60	45657
2026-01-12 16:02:15.54	23.15	2.23	-46.9	-62.1	3.6	1.51e+00	0	27	104	0	60	46100
2026-01-12 16:02:16.54	23.11	2.29	-46.9	-62.0	3.6	1.51e+00	0	27	104	0	60	45519
2026-01-12 16:02:17.56	23.08	2.36	-46.9	-61.9	3.6	1.51e+00	0	27	104	0	60	45171
2026-01-12 16:02:18.57	23.04	2.42	-46.8	-61.7	3.6	1.51e+00	0	27	104	0	60	43955
2026-01-12 16:02:19.58	23.00	2.48	-46.9	-61.6	3.6	1.51e+00	0	27	104	0	60	43541
2026-01-12 16:02:20.58	22.97	2.55	-46.8	-61.4	3.6	1.51e+00	0	27	104	0	60	42260
2026-01-12 16:02:21.59	22.93	2.61	-46.8	-60.9	3.6	1.51e+00	0	27	104	0	60	40311
2026-01-12 16:02:22.60	22.89	2.67	-46.9	-60.8	3.6	1.51e+00	0	27	104	0	60	39795
2026-01-12 16:02:23.61	22.86	2.74	-46.9	-61.0	3.6	1.51e+00	0	27	104	0	60	40570
2026-01-12 16:02:24.62	22.82	2.80	-46.9	-61.2	3.6	1.51e+00	0	27	104	0	60	41701
2026-01-12 16:02:25.63	22.78	2.87	-46.9	-61.7	3.6	1.51e+00	0	27	104	0	60	43834
2026-01-12 16:02:26.64	22.74	2.93	-46.9	-62.0	3.6	1.51e+00	0	27	104	0	60	45251
2026-01-12 16:02:27.65	22.71	2.99	-46.9	-60.6	3.6	1.51e+00	0	27	104	0	60	38879
2026-01-12 16:02:28.66	22.67	3.06	-46.6	-57.2	4.7	1.48e+00	0	27	104	0	60	26115
2026-01-12 16:02:29.67	22.63	3.12	-46.3	-53.6	6.6	2.89e-01	0	27	0	1048576	60	17371
2026-01-12 16:02:30.68	22.59	3.19	-45.9	-52.0	8.6	6.75e-02	0	27	0	3145728	60	14358
2026-01-12 16:02:31.69	22.55	3.25	-45.1	-49.7	11.0	1.14e-02	0	27	0	5242880	60	11048
2026-01-12 16:02:32.70	22.52	3.32	-44.4	-48.0	12.8	2.21e-04	0	27	0	6291456	60	9130
2026-01-12 16:02:33.70	22.48	3.38	-44.1	-47.6	13.3	7.93e-05	0	27	0	8388608	60	8656
2026-01-12 16:02:34.71	22.44	3.45	-44.0	-47.2	13.7	8.30e-06	0	27	0	10485760	60	8323
2026-01-12 16:02:35.72	22.40	3.51	-43.8	-46.9	14.2	5.30e-06	0	27	0	12582912	60	7958
2026-01-12 16:02:36.73	22.36	3.58	-43.8	-46.9	14.1	3.00e-06	0	27	0	14680064	60	8033
2026-01-12 16:02:37.74	22.32	3.64	-44.2	-47.6	12.8	5.30e-06	0	27	0	15728640	60	8655
2026-01-12 16:02:38.75	22.28	3.71	-40.1	-41.6	19.5	2.02e-04	0	27	0	17825792	52	6886
2026-01-12 16:02:39.76	22.24	3.78	-47.0	-62.0	3.6	1.10e-01	0	27	104	19922944	60	45407
2026-01-12 16:02:40.77	22.20	3.84	-45.4	-50.7	5.4	1.50e+00	7	27	104	19922944	60	12343
2026-01-12 16:02:41.78	22.16	3.91	-44.5	-48.4	11.2	4.77e-03	0	27	0	19922944	58	10722
2026-01-12 16:02:42.79	22.12	3.97	-42.5	-44.7	16.7	1.51e-03	0	27	0	22020096	60	6210
2026-01-12 16:02:43.80	22.08	4.04	-41.3	-43.2	17.9	0.00e+00	0	27	0	23068672	56	6542
2026-01-12 16:02:44.81	22.04	4.11	-40.4	-42.0	19.1	0.00e+00	0	27	0	25165824	54	6406
2026-01-12 16:02:45.82	21.99	4.17	-40.0	-41.4	19.6	0.00e+00	0	27	0	27262976	54	6017
2026-01-12 16:02:46.83	21.95	4.24	-39.8	-41.2	19.8	0.00e+00	0	27	0	29360128	54	5830
2026-01-12 16:02:47.84	21.91	4.31	-40.1	-41.5	19.6	0.00e+00	0	27	0	31457280	54	6066
2026-01-12 16:02:48.85	21.87	4.38	-40.2	-41.7	19.4	0.00e+00	0	27	0	33554432	54	6214
2026-01-12 16:02:49.86	21.83	4.44	-39.9	-41.3	19.8	0.00e+00	0	27	0	34603008	54	5917
2026-01-12 16:02:50.87	21.79	4.51	-39.8	-41.1	20.0	0.00e+00	0	27	0	36700160	52	6537
2026-01-12 16:02:51.87	21.74	4.58	-39.9	-41.3	19.8	0.00e+00	0	27	0	38797312	52	6666
2026-01-12 16:02:52.89	21.70	4.65	-39.8	-41.2	20.0	0.00e+00	0	27	0	40894464	52	6607
2026-01-12 16:02:53.89	21.66	4.71	-39.8	-41.2	20.0	0.00e+00	0	27	0	41943040	52	6553
2026-01-12 16:02:54.90	21.61	4.78	-39.8	-41.1	20.2	0.00e+00	0	27	0	44040192	52	6491
2026-01-12 16:02:55.91	21.57	4.85	-39.7	-41.0	20.3	0.00e+00	0	27	0	46137344	52	6398
2026-01-12 16:02:56.92	21.53	4.92	-39.7	-41.0	20.3	0.00e+00	0	27	0	48234496	52	6434
2026-01-12 16:02:57.93	21.48	4.99	-39.7	-41.0	20.3	0.00e+00	0	27	0	50331648	52	6447
2026-01-12 16:02:58.94	21.44	5.06	-39.9	-41.2	20.2	0.00e+00	0	27	0	51380224	52	6615
2026-01-12 16:02:59.95	21.39	5.13	-39.7	-41.0	20.4	0.00e+00	0	27	0	53477376	52	6403
2026-01-12 16:03:00.96	21.35	5.20	-39.7	-41.0	20.3	0.00e+00	0	27	0	55574528	52	6425
2026-01-12 16:03:01.97	21.31	5.26	-40.0	-41.3	20.2	0.00e+00	0	27	0	57671680	52	6684
2026-01-12 16:03:02.98	21.26	5.33	-39.6	-40.9	20.5	0.00e+00	0	27	0	59768832	52	6343
2026-01-12 16:03:03.99	21.22	5.40	-39.6	-40.9	20.6	0.00e+00	0	27	0	61865984	52	6325
2026-01-12 16:03:05.00	21.17	5.47	-39.7	-41.0	20.3	0.00e+00	0	27	0	62914560	52	6458
2026-01-12 16:03:06.01	21.12	5.54	-39.7	-41.0	20.4	0.00e+00	0	27	0	65011712	52	6461
2026-01-12 16:03:07.02	21.08	5.61	-39.8	-41.1	20.3	0.00e+00	0	27	0	67108864	52	6533
2026-01-12 16:03:08.03	21.03	5.68	-39.7	-41.0	20.4	0.00e+00	0	27	0	69206016	52	6408
2026-01-12 16:03:09.04	20.99	5.75	-39.7	-41.0	20.5	0.00e+00	0	27	0	71303168	52	6436
2026-01-12 16:03:10.05	20.94	5.83	-39.7	-41.0	20.6	0.00e+00	0	27	0	72351744	52	6396
2026-01-12 16:03:11.06	20.89	5.90	-39.8	-41.1	20.4	0.00e+00	0	27	0	74448896	52	6505
2026-01-12 16:03:12.07	20.84	5.97	-40.0	-41.3	20.2	0.00e+00	0	27	0	76546048	52	6655
2026-01-12 16:03:13.07	20.80	6.04	-39.6	-40.9	20.6	0.00e+00	0	27	0	78643200	52	6356
2026-01-12 16:03:14.08	20.75	6.11	-39.8	-41.0	20.6	0.00e+00	0	27	0	80740352	52	6460
2026-01-12 16:03:15.10	20.70	6.18	-39.7	-41.0	20.5	0.00e+00	0	27	0	81788928	52	6426
2026-01-12 16:03:16.10	20.65	6.25	-39.7	-41.0	20.6	0.00e+00	0	27	0	83886080	52	6428
2026-01-12 16:03:17.11	20.61	6.32	-39.8	-41.1	20.3	0.00e+00	0	27	0	85983232	52	6515
2026-01-12 16:03:18.12	20.56	6.40	-39.6	-40.9	20.6	0.00e+00	0	27	0	88080384	52	6344
2026-01-12 16:03:19.13	20.51	6.47	-39.5	-40.7	20.7	0.00e+00	0	27	0	90177536	52	6242
2026-01-12 16:03:20.14	20.46	6.54	-39.6	-40.8	20.7	0.00e+00	0	27	0	91226112	52	6279
2026-01-12 16:03:21.15	20.41	6.61	-39.4	-40.6	20.9	0.00e+00	0	27	0	93323264	52	6172
2026-01-12 16:03:22.16	20.36	6.69	-39.4	-40.7	20.9	0.00e+00	0	27	0	95420416	52	6181
2026-01-12 16:03:23.17	20.31	6.76	-39.6	-40.8	20.8	0.00e+00	0	27	0	97517568	52	6284
2026-01-12 16:03:24.18	20.26	6.83	-39.3	-40.5	21.0	0.00e+00	0	27	0	99614720	52	6039
2026-01-12 16:03:25.19	20.21	6.91	-39.4	-40.7	20.8	0.00e+00	0	27	0	100663296	52	6175
2026-01-12 16:03:26.20	20.16	6.98	-39.5	-40.7	21.0	0.00e+00	0	27	0	102760448	52	6189
2026-01-12 16:03:27.21	20.11	7.05	-39.3	-40.6	20.9	0.00e+00	0	27	0	104857600	52	6107
2026-01-12 16:03:28.22	20.05	7.13	-39.3	-40.5	21.0	0.00e+00	0	27	0	106954752	52	6060
2026-01-12 16:03:29.22	20.00	7.20	-39.3	-40.5	21.1	0.00e+00	0	27	0	109051904	52	6060
2026-01-12 16:03:30.23	19.95	7.27	-39.5	-40.7	20.8	0.00e+00	0	27	0	110100480	52	6217
2026-01-12 16:03:31.24	19.90	7.35	-39.3	-40.5	21.0	0.00e+00	0	27	0	112197632	52	6035
2026-01-12 16:03:32.25	19.85	7.42	-39.3	-40.5	21.0	0.00e+00	0	27	0	114294784	52	6083
2026-01-12 16:03:33.26	19.79	7.50	-39.2	-40.4	21.1	0.00e+00	0	27	0	116391936	52	5991
2026-01-12 16:03:34.27	19.74	7.57	-39.2	-40.3	21.2	0.00e+00	0	27	0	118489088	52	5950
2026-01-12 16:03:35.28	19.69	7.65	-39.1	-40.3	21.2	0.00e+00	0	27	0	119537664	52	5928
2026-01-12 16:03:36.29	19.63	7.72	-39.2	-40.4	21.2	0.00e+00	0	27	0	121634816	52	5966
2026-01-12 16:03:37.29	19.58	7.80	-39.2	-40.4	21.1	0.00e+00	0	27	0	123731968	52	5981
2026-01-12 16:03:38.30	19.53	7.87	-39.1	-40.3	21.2	0.00e+00	0	27	0	125829120	52	5909
2026-01-12 16:03:39.31	19.47	7.95	-39.2	-40.3	21.2	0.00e+00	0	27	0	127926272	52	5951
2026-01-12 16:03:40.32	19.42	8.03	-39.1	-40.3	21.2	0.00e+00	0	27	0	130023424	52	5937
2026-01-12 16:03:41.33	19.36	8.10	-39.1	-40.2	21.3	0.00e+00	0	27	0	131072000	52	5893
2026-01-12 16:03:42.34	19.31	8.18	-39.2	-40.4	21.2	0.00e+00	0	27	0	133169152	52	5979
2026-01-12 16:03:43.35	19.25	8.26	-39.2	-40.3	21.3	0.00e+00	0	27	0	135266304	52	5956
2026-01-12 16:03:44.36	19.19	8.33	-39.2	-40.4	21.4	0.00e+00	0	27	0	137363456	52	5996
2026-01-12 16:03:45.37	19.14	8.41	-39.1	-40.3	21.3	0.00e+00	0	27	0	139460608	52	5898
2026-01-12 16:03:46.38	19.08	8.49	-39.1	-40.2	21.4	0.00e+00	0	27	0	140509184	52	5895
2026-01-12 16:03:47.39	19.02	8.57	-39.1	-40.3	21.3	0.00e+00	0	27	0	142606336	52	5918
2026-01-12 16:03:48.40	18.96	8.64	-38.9	-40.1	21.6	0.00e+00	0	27	0	144703488	52	5772
2026-01-12 16:03:49.41	18.91	8.72	-39.0	-40.1	21.5	0.00e+00	0	27	0	146800640	52	5803
2026-01-12 16:03:50.42	18.85	8.80	-38.9	-40.0	21.6	0.00e+00	0	27	0	148897792	52	5726
2026-01-12 16:03:51.43	18.79	8.88	-38.8	-39.9	21.8	0.00e+00	0	27	0	149946368	52	5671
2026-01-12 16:03:52.44	18.73	8.96	-38.9	-40.0	21.7	0.00e+00	0	27	0	152043520	52	5736
2026-01-12 16:03:53.45	18.67	9.04	-38.8	-39.9	21.8	0.00e+00	0	27	0	154140672	52	5636
2026-01-12 16:03:54.46	18.61	9.12	-38.7	-39.8	21.7	0.00e+00	0	27	0	156237824	50	6289
2026-01-12 16:03:55.47	18.55	9.20	-38.8	-39.9	21.8	0.00e+00	0	27	0	158334976	50	6346
2026-01-12 16:03:56.47	18.49	9.27	-38.6	-39.7	21.9	0.00e+00	0	27	0	159383552	50	6215
2026-01-12 16:03:57.48	18.43	9.35	-38.7	-39.8	21.8	0.00e+00	0	27	0	161480704	50	6295
2026-01-12 16:03:58.49	18.37	9.43	-38.8	-39.9	21.7	0.00e+00	0	27	0	163577856	50	6368
2026-01-12 16:03:59.50	18.31	9.52	-38.5	-39.6	22.0	0.00e+00	0	27	0	165675008	50	6151
2026-01-12 16:04:00.51	18.25	9.60	-38.6	-39.7	22.0	0.00e+00	0	27	0	167772160	50	6175
2026-01-12 16:04:01.52	18.19	9.68	-38.7	-39.8	21.9	0.00e+00	0	27	0	168820736	50	6276
2026-01-12 16:04:02.53	18.12	9.76	-38.5	-39.5	22.1	0.00e+00	0	27	0	170917888	50	6075
2026-01-12 16:04:03.54	18.06	9.84	-38.6	-39.7	22.1	0.00e+00	0	27	0	173015040	50	6179
2026-01-12 16:04:04.55	18.00	9.92	-38.3	-39.3	22.3	0.00e+00	0	27	0	175112192	50	5953
2026-01-12 16:04:05.56	17.94	10.00	-38.3	-39.4	22.3	0.00e+00	0	27	0	177209344	50	5966
2026-01-12 16:04:06.57	17.87	10.08	-38.2	-39.3	22.3	0.00e+00	0	27	0	178257920	50	5918
2026-01-12 16:04:07.58	17.81	10.17	-38.2	-39.3	22.4	0.00e+00	0	27	0	180355072	50	5900
2026-01-12 16:04:08.59	17.74	10.25	-38.1	-39.2	22.4	0.00e+00	0	27	0	182452224	50	5859
2026-01-12 16:04:09.59	17.68	10.33	-38.2	-39.3	22.3	0.00e+00	0	27	0	184549376	50	5920
2026-01-12 16:04:10.61	17.61	10.41	-38.3	-39.3	22.4	0.00e+00	0	27	0	186646528	50	5959
2026-01-12 16:04:11.61	17.55	10.50	-38.2	-39.2	22.5	0.00e+00	0	27	0	187695104	50	5850
2026-01-12 16:04:12.62	17.48	10.58	-38.2	-39.2	22.4	0.00e+00	0	27	0	189792256	50	5854
2026-01-12 16:04:13.63	17.41	10.66	-38.1	-39.1	22.5	0.00e+00	0	27	0	191889408	50	5801
2026-01-12 16:04:14.64	17.35	10.75	-38.1	-39.1	22.5	0.00e+00	0	27	0	193986560	50	5792
2026-01-12 16:04:15.65	17.28	10.83	-38.2	-39.2	22.5	0.00e+00	0	27	0	196083712	50	5838
2026-01-12 16:04:16.66	17.21	10.92	-38.2	-39.2	22.5	0.00e+00	0	27	0	198180864	50	5836
2026-01-12 16:04:17.67	17.14	11.00	-38.2	-39.2	22.5	0.00e+00	0	27	0	199229440	50	5852
2026-01-12 16:04:18.68	17.08	11.08	-38.3	-39.3	22.4	0.00e+00	0	27	0	201326592	50	5934
2026-01-12 16:04:19.69	17.01	11.17	-38.2	-39.2	22.5	0.00e+00	0	27	0	203423744	50	5876
2026-01-12 16:04:20.70	16.94	11.26	-38.1	-39.1	22.6	0.00e+00	0	27	0	205520896	50	5786
2026-01-12 16:04:21.71	16.87	11.34	-38.0	-39.0	22.7	0.00e+00	0	27	0	207618048	50	5752
2026-01-12 16:04:22.71	16.80	11.43	-38.0	-39.0	22.7	0.00e+00	0	27	0	208666624	50	5713
2026-01-12 16:04:23.72	16.73	11.51	-38.0	-39.0	22.6	0.00e+00	0	27	0	210763776	50	5751
2026-01-12 16:04:24.73	16.65	11.60	-38.0	-39.0	22.7	0.00e+00	0	27	0	212860928	50	5730
2026-01-12 16:04:25.74	16.58	11.68	-37.9	-38.9	22.7	0.00e+00	0	27	0	214958080	50	5683
2026-01-12 16:04:26.75	16.51	11.77	-38.0	-39.0	22.7	0.00e+00	0	27	0	217055232	50	5704
2026-01-12 16:04:27.76	16.44	11.86	-37.9	-38.9	22.8	0.00e+00	0	27	0	218103808	50	5667
2026-01-12 16:04:28.77	16.37	11.95	-38.1	-39.1	22.5	0.00e+00	0	27	0	220200960	50	5790
2026-01-12 16:04:29.78	16.29	12.03	-38.0	-39.0	22.7	0.00e+00	0	27	0	222298112	50	5708
2026-01-12 16:04:30.78	16.22	12.12	-38.0	-38.9	22.7	0.00e+00	0	27	0	224395264	50	5691
2026-01-12 16:04:31.79	16.14	12.21	-38.0	-39.0	22.6	0.00e+00	0	27	0	226492416	50	5732
2026-01-12 16:04:32.80	16.07	12.30	-38.0	-38.9	22.7	0.00e+00	0	27	0	227540992	50	5693
2026-01-12 16:04:33.81	15.99	12.39	-38.0	-39.0	22.7	0.00e+00	0	27	0	229638144	50	5740
2026-01-12 16:04:34.82	15.92	12.48	-38.0	-39.0	22.7	0.00e+00	0	27	0	231735296	50	5701
2026-01-12 16:04:35.83	15.84	12.56	-38.0	-39.0	22.7	0.00e+00	0	27	0	233832448	50	5714
2026-01-12 16:04:36.84	15.77	12.65	-38.0	-39.0	22.7	0.00e+00	0	27	0	235929600	50	5760
2026-01-12 16:04:37.85	15.69	12.74	-38.1	-39.1	22.6	0.00e+00	0	27	0	236978176	50	5788
2026-01-12 16:04:38.86	15.61	12.83	-38.0	-39.0	22.6	0.00e+00	0	27	0	239075328	50	5753
2026-01-12 16:04:39.87	15.53	12.92	-37.9	-38.9	22.9	0.00e+00	0	27	0	241172480	50	5639
2026-01-12 16:04:40.88	15.45	13.01	-37.9	-38.8	22.9	0.00e+00	0	27	0	243269632	50	5619
2026-01-12 16:04:41.89	15.37	13.11	-37.9	-38.9	22.9	0.00e+00	0	27	0	245366784	50	5674
2026-01-12 16:04:42.90	15.29	13.20	-38.0	-39.0	22.7	0.00e+00	0	27	0	246415360	50	5759
2026-01-12 16:04:43.91	15.21	13.29	-37.8	-38.7	23.0	0.00e+00	0	27	0	248512512	50	5563
2026-01-12 16:04:44.92	15.13	13.38	-37.8	-38.8	22.9	0.00e+00	0	27	0	250609664	50	5571
2026-01-12 16:04:45.93	15.05	13.47	-37.9	-38.9	22.8	0.00e+00	0	27	0	252706816	50	5655
2026-01-12 16:04:46.94	14.97	13.56	-37.9	-38.9	22.9	0.00e+00	0	27	0	254803968	50	5657
2026-01-12 16:04:47.95	14.89	13.66	-37.9	-38.9	22.9	0.00e+00	0	27	0	255852544	50	5666
2026-01-12 16:04:48.95	14.80	13.75	-37.7	-38.7	23.0	0.00e+00	0	27	0	257949696	50	5533
2026-01-12 16:04:49.96	14.72	13.84	-37.9	-38.9	22.8	0.00e+00	0	27	0	260046848	48	6318
2026-01-12 16:04:50.97	14.64	13.94	-38.0	-39.0	22.8	0.00e+00	0	27	0	262144000	48	6398
2026-01-12 16:04:51.98	14.55	14.03	-37.9	-38.9	22.9	0.00e+00	0	27	0	264241152	48	6361
2026-01-12 16:04:52.99	14.47	14.12	-37.9	-38.9	22.9	0.00e+00	0	27	0	265289728	48	6343
2026-01-12 16:04:54.00	14.38	14.22	-38.0	-39.0	22.6	0.00e+00	0	27	0	267386880	48	6445
2026-01-12 16:04:55.01	14.30	14.31	-38.1	-39.1	22.8	0.00e+00	0	27	0	269484032	48	6467
2026-01-12 16:04:56.02	14.21	14.41	-37.8	-38.7	23.0	0.00e+00	0	27	0	271581184	48	6235
2026-01-12 16:04:57.03	14.12	14.50	-37.7	-38.7	22.9	0.00e+00	0	27	0	273678336	48	6206
2026-01-12 16:04:58.03	14.03	14.60	-37.7	-38.7	23.0	0.00e+00	0	27	0	274726912	48	6192
2026-01-12 16:04:59.05	13.94	14.70	-37.7	-38.7	23.0	0.00e+00	0	27	0	276824064	48	6189
2026-01-12 16:05:00.05	13.86	14.79	-37.7	-38.7	23.0	0.00e+00	0	27	0	278921216	48	6219
2026-01-12 16:05:01.06	13.77	14.89	-37.8	-38.7	22.9	0.00e+00	0	27	0	281018368	48	6235
2026-01-12 16:05:02.07	13.68	14.98	-37.7	-38.7	23.0	0.00e+00	0	27	0	283115520	48	6187
2026-01-12 16:05:03.08	13.58	15.08	-37.7	-38.7	23.0	0.00e+00	0	27	0	284164096	48	6187
2026-01-12 16:05:04.09	13.49	15.18	-37.9	-38.8	22.9	0.00e+00	0	27	0	286261248	48	6296
2026-01-12 16:05:05.10	13.40	15.28	-37.7	-38.6	23.0	0.00e+00	0	27	0	288358400	48	6136
2026-01-12 16:05:06.11	13.31	15.37	-37.8	-38.8	23.0	0.00e+00	0	27	0	290455552	48	6259
2026-01-12 16:05:07.12	13.21	15.47	-37.9	-38.9	22.8	0.00e+00	0	27	0	292552704	48	6327
2026-01-12 16:05:08.13	13.12	15.57	-37.7	-38.7	23.1	0.00e+00	0	27	0	294649856	48	6199
2026-01-12 16:05:09.13	13.02	15.67	-37.8	-38.7	23.1	0.00e+00	0	27	0	295698432	48	6245
2026-01-12 16:05:10.14	12.93	15.77	-37.7	-38.7	23.1	0.00e+00	0	27	0	297795584	48	6183
2026-01-12 16:05:11.15	12.83	15.87	-37.8	-38.7	23.1	0.00e+00	0	27	0	299892736	48	6231
2026-01-12 16:05:12.16	12.74	15.97	-37.7	-38.7	23.1	0.00e+00	0	27	0	301989888	48	6215
2026-01-12 16:05:13.17	12.64	16.07	-37.6	-38.5	23.2	0.00e+00	0	27	0	304087040	48	6063
2026-01-12 16:05:14.18	12.54	16.17	-37.7	-38.7	23.1	0.00e+00	0	27	0	305135616	48	6209
2026-01-12 16:05:15.19	12.44	16.27	-37.6	-38.6	23.2	0.00e+00	0	27	0	307232768	48	6136
2026-01-12 16:05:16.20	12.34	16.37	-37.7	-38.6	23.1	0.00e+00	0	27	0	309329920	48	6170
2026-01-12 16:05:17.21	12.24	16.47	-37.6	-38.6	23.2	0.00e+00	0	27	0	311427072	48	6129
2026-01-12 16:05:18.22	12.14	16.58	-37.7	-38.7	23.1	0.00e+00	0	27	0	313524224	48	6175
2026-01-12 16:05:19.23	12.04	16.68	-37.8	-38.8	23.0	0.00e+00	0	27	0	314572800	48	6281
2026-01-12 16:05:20.24	11.94	16.78	-37.9	-38.9	22.9	0.00e+00	0	27	0	316669952	48	6326
2026-01-12 16:05:21.25	11.83	16.88	-37.8	-38.8	23.0	0.00e+00	0	27	0	318767104	48	6285
2026-01-12 16:05:22.26	11.73	16.99	-37.9	-38.9	22.9	0.00e+00	0	27	0	320864256	48	6343
2026-01-12 16:05:23.27	11.62	17.09	-37.8	-38.7	23.0	0.00e+00	0	27	0	322961408	48	6236
2026-01-12 16:05:24.27	11.52	17.19	-37.9	-38.9	22.9	0.00e+00	0	27	0	324009984	48	6341
2026-01-12 16:05:25.28	11.41	17.30	-38.1	-39.1	22.7	0.00e+00	0	27	0	326107136	48	6490
2026-01-12 16:05:26.29	11.31	17.40	-37.8	-38.8	23.0	0.00e+00	0	27	0	328204288	48	6279
2026-01-12 16:05:27.30	11.20	17.51	-37.9	-38.9	23.0	0.00e+00	0	27	0	330301440	48	6333
2026-01-12 16:05:28.31	11.09	17.61	-37.8	-38.8	22.9	0.00e+00	0	27	0	332398592	48	6296
2026-01-12 16:05:29.32	10.98	17.72	-37.8	-38.8	23.0	0.00e+00	0	27	0	333447168	48	6253
2026-01-12 16:05:30.33	10.87	17.83	-37.9	-38.9	23.0	0.00e+00	0	27	0	335544320	48	6318
2026-01-12 16:05:31.34	10.76	17.93	-37.7	-38.7	23.1	0.00e+00	0	27	0	337641472	48	6189
2026-01-12 16:05:32.35	10.65	18.04	-37.8	-38.8	23.1	0.00e+00	0	27	0	339738624	48	6283
2026-01-12 16:05:33.36	10.54	18.15	-37.8	-38.8	23.1	0.00e+00	0	27	0	341835776	48	6250
2026-01-12 16:05:34.37	10.42	18.25	-37.8	-38.8	23.1	0.00e+00	0	27	0	342884352	48	6275
2026-01-12 16:05:35.38	10.31	18.36	-37.8	-38.8	23.0	0.00e+00	0	27	0	344981504	48	6265
2026-01-12 16:05:36.39	10.19	18.47	-37.9	-38.8	23.0	0.00e+00	0	27	0	347078656	48	6292
2026-01-12 16:05:37.39	10.08	18.58	-37.9	-38.8	23.0	0.00e+00	0	27	0	349175808	48	6310
2026-01-12 16:05:38.40	9.96	18.69	-37.9	-38.9	22.7	0.00e+00	0	27	0	351272960	48	6330
2026-01-12 16:05:39.41	9.84	18.80	-38.0	-39.0	22.6	0.00e+00	0	27	0	352321536	48	6396
2026-01-12 16:05:40.42	9.73	18.90	-38.0	-39.0	22.8	0.00e+00	0	27	0	354418688	48	6438
2026-01-12 16:05:41.43	9.61	19.01	-37.9	-38.8	23.0	0.00e+00	0	27	0	356515840	48	6312
2026-01-12 16:05:42.44	9.49	19.13	-37.8	-38.7	23.1	0.00e+00	0	27	0	358612992	48	6227
2026-01-12 16:05:43.45	9.37	19.24	-37.9	-38.8	23.0	0.00e+00	0	27	0	360710144	48	6301
2026-01-12 16:05:44.46	9.24	19.35	-37.8	-38.7	23.1	0.00e+00	0	27	0	362807296	48	6214
2026-01-12 16:05:45.47	9.12	19.46	-37.8	-38.7	23.1	0.00e+00	0	27	0	363855872	48	6234
2026-01-12 16:05:46.48	9.00	19.57	-37.9	-38.8	23.0	0.00e+00	0	27	0	365953024	48	6305
2026-01-12 16:05:47.49	8.87	19.68	-37.8	-38.7	23.1	0.00e+00	0	27	0	368050176	48	6213
2026-01-12 16:05:48.50	8.75	19.79	-37.7	-38.7	23.1	0.00e+00	0	27	0	370147328	48	6193
2026-01-12 16:05:49.51	8.62	19.91	-37.8	-38.8	23.1	0.00e+00	0	27	0	372244480	48	6248
2026-01-12 16:05:50.52	8.49	20.02	-37.6	-38.5	23.2	0.00e+00	0	27	0	373293056	48	6085
2026-01-12 16:05:51.53	8.36	20.13	-37.7	-38.6	23.2	0.00e+00	0	27	0	375390208	48	6135
2026-01-12 16:05:52.54	8.23	20.25	-37.6	-38.6	23.3	0.00e+00	0	27	0	377487360	48	6129
2026-01-12 16:05:53.55	8.10	20.36	-37.7	-38.7	23.1	0.00e+00	0	27	0	379584512	48	6177
2026-01-12 16:05:54.55	7.97	20.48	-37.7	-38.7	23.2	0.00e+00	0	27	0	381681664	48	6198
2026-01-12 16:05:55.57	7.84	20.59	-37.8	-38.8	23.1	0.00e+00	0	27	0	382730240	48	6251
2026-01-12 16:05:56.58	7.71	20.71	-37.7	-38.7	23.1	0.00e+00	0	27	0	384827392	48	6201
2026-01-12 16:05:57.58	7.57	20.82	-37.9	-38.8	23.0	0.00e+00	0	27	0	386924544	48	6317
2026-01-12 16:05:58.59	7.44	20.94	-37.8	-38.8	23.1	0.00e+00	0	27	0	389021696	48	6260
2026-01-12 16:05:59.60	7.30	21.05	-37.9	-38.9	23.0	0.00e+00	0	27	0	391118848	48	6334
2026-01-12 16:06:00.61	7.16	21.17	-37.7	-38.7	23.1	0.00e+00	0	27	0	392167424	48	6200
2026-01-12 16:06:01.62	7.02	21.29	-37.8	-38.7	23.1	0.00e+00	0	27	0	394264576	48	6239
2026-01-12 16:06:02.63	6.88	21.41	-37.7	-38.7	23.1	0.00e+00	0	27	0	396361728	48	6207
2026-01-12 16:06:03.64	6.74	21.52	-37.8	-38.8	22.7	0.00e+00	0	27	0	398458880	48	6251
2026-01-12 16:06:04.65	6.60	21.64	-37.9	-38.9	22.8	0.00e+00	0	27	0	400556032	48	6336
2026-01-12 16:06:05.66	6.46	21.76	-37.9	-38.9	23.0	0.00e+00	0	27	0	401604608	48	6330
2026-01-12 16:06:06.67	6.31	21.88	-37.8	-38.8	23.0	0.00e+00	0	27	0	403701760	48	6279
2026-01-12 16:06:07.68	6.17	22.00	-38.0	-39.0	23.0	0.00e+00	0	27	0	405798912	48	6400
2026-01-12 16:06:08.69	6.02	22.12	-37.9	-38.9	23.0	0.00e+00	0	27	0	407896064	48	6353
2026-01-12 16:06:09.70	5.87	22.24	-38.0	-39.0	22.9	0.00e+00	0	27	0	409993216	48	6416
2026-01-12 16:06:10.70	5.72	22.36	-37.8	-38.8	23.1	0.00e+00	0	27	0	411041792	48	6301
2026-01-12 16:06:11.71	5.57	22.48	-37.9	-38.9	23.1	0.00e+00	0	27	0	413138944	48	6375
2026-01-12 16:06:12.72	5.42	22.60	-37.8	-38.7	23.2	0.00e+00	0	27	0	415236096	48	6235
2026-01-12 16:06:13.73	5.27	22.72	-37.7	-38.7	23.2	0.00e+00	0	27	0	417333248	48	6225
2026-01-12 16:06:14.74	5.12	22.84	-37.7	-38.7	23.3	0.00e+00	0	27	0	419430400	48	6200
2026-01-12 16:06:15.74	4.96	22.96	-37.8	-38.8	23.1	0.00e+00	0	27	0	420478976	48	6285
2026-01-12 16:06:16.75	4.81	23.09	-37.8	-38.8	23.1	0.00e+00	0	27	0	422576128	48	6289
2026-01-12 16:06:17.76	4.65	23.21	-38.0	-39.0	23.0	0.00e+00	0	27	0	424673280	48	6397
2026-01-12 16:06:18.77	4.49	23.33	-37.8	-38.8	23.1	0.00e+00	0	27	0	426770432	48	6262
2026-01-12 16:06:19.78	4.33	23.46	-37.9	-38.9	23.0	0.00e+00	0	27	0	428867584	48	6339
2026-01-12 16:06:20.79	4.17	23.58	-37.9	-38.8	23.2	0.00e+00	0	27	0	429916160	48	6303
2026-01-12 16:06:21.80	4.01	23.70	-37.9	-38.8	23.2	0.00e+00	0	27	0	432013312	48	6280
2026-01-12 16:06:22.81	3.84	23.83	-37.9	-38.8	23.0	0.00e+00	0	27	0	434110464	48	6299
2026-01-12 16:06:23.82	3.68	23.95	-37.9	-38.9	22.9	0.00e+00	0	27	0	436207616	48	6337
2026-01-12 16:06:24.83	3.51	24.08	-38.0	-39.1	22.9	0.00e+00	0	27	0	438304768	48	6477
2026-01-12 16:06:25.83	3.34	24.20	-37.8	-38.8	23.1	0.00e+00	0	27	0	439353344	48	6254
2026-01-12 16:06:26.84	3.17	24.33	-37.8	-38.8	23.1	0.00e+00	0	27	0	441450496	48	6271
2026-01-12 16:06:27.85	3.00	24.45	-37.9	-39.0	23.0	0.00e+00	0	27	0	443547648	48	6391
2026-01-12 16:06:28.86	2.83	24.58	-37.8	-38.8	23.1	0.00e+00	0	27	0	445644800	48	6292
2026-01-12 16:06:29.87	2.66	24.71	-37.8	-38.7	23.1	0.00e+00	0	27	0	447741952	48	6231
2026-01-12 16:06:30.88	2.48	24.83	-37.9	-38.9	23.0	0.00e+00	0	27	0	448790528	48	6358
2026-01-12 16:06:31.89	2.30	24.96	-38.0	-38.9	23.0	0.00e+00	0	27	0	450887680	48	6370
2026-01-12 16:06:32.90	2.13	25.09	-38.0	-39.0	23.0	0.00e+00	0	27	0	452984832	48	6429
2026-01-12 16:06:33.91	1.95	25.22	-38.1	-39.1	22.8	0.00e+00	0	27	0	455081984	48	6472
2026-01-12 16:06:34.92	1.77	25.35	-38.1	-39.1	23.0	0.00e+00	0	27	0	457179136	48	6467
2026-01-12 16:06:35.93	1.58	25.48	-38.1	-39.0	22.9	0.00e+00	0	27	0	459276288	48	6451
2026-01-12 16:06:36.94	1.40	25.60	-38.2	-39.1	22.9	0.00e+00	0	27	0	460324864	48	6529
2026-01-12 16:06:37.95	1.21	25.73	-38.0	-38.9	23.0	0.00e+00	0	27	0	462422016	48	6380
2026-01-12 16:06:38.96	1.03	25.86	-38.0	-39.0	23.0	0.00e+00	0	27	0	464519168	48	6391
2026-01-12 16:06:39.97	0.84	25.99	-37.8	-38.8	23.0	0.00e+00	0	27	0	466616320	48	6247
2026-01-12 16:06:40.98	0.65	26.12	-37.8	-38.8	23.2	0.00e+00	0	27	0	468713472	48	6263
2026-01-12 16:06:41.99	0.46	26.25	-37.9	-38.9	22.6	0.00e+00	0	27	0	469762048	48	6355
2026-01-12 16:06:43.00	0.26	26.38	-38.0	-39.0	22.9	0.00e+00	0	27	0	471859200	48	6429
2026-01-12 16:06:44.01	0.07	26.52	-38.2	-39.2	22.8	0.00e+00	0	27	0	473956352	48	6561
2026-01-12 16:06:45.02	359.87	26.65	-38.4	-39.4	22.7	0.00e+00	0	27	0	476053504	48	6703
2026-01-12 16:06:46.03	359.67	26.78	-38.4	-39.5	22.5	0.00e+00	0	27	0	478150656	48	6787
2026-01-12 16:06:47.04	359.47	26.91	-38.7	-39.7	22.4	0.00e+00	0	27	0	479199232	48	6990
2026-01-12 16:06:48.05	359.27	27.04	-38.6	-39.7	22.3	0.00e+00	0	27	0	481296384	48	6941
2026-01-12 16:06:49.06	359.07	27.17	-38.8	-39.9	22.1	0.00e+00	0	27	0	483393536	50	6351
2026-01-12 16:06:50.07	358.86	27.31	-39.0	-40.1	22.0	0.00e+00	0	27	0	485490688	50	6532
2026-01-12 16:06:51.08	358.66	27.44	-38.8	-39.9	22.2	0.00e+00	0	27	0	487587840	50	6341
2026-01-12 16:06:52.09	358.45	27.57	-39.1	-40.2	21.9	0.00e+00	0	27	0	488636416	50	6585
2026-01-12 16:06:53.10	358.24	27.71	-39.4	-40.5	21.7	0.00e+00	0	27	0	490733568	50	6833
2026-01-12 16:06:54.11	358.02	27.84	-39.4	-40.5	21.7	0.00e+00	0	27	0	492830720	50	6804
2026-01-12 16:06:55.12	357.81	27.97	-39.4	-40.6	21.5	0.00e+00	0	27	0	494927872	50	6860
2026-01-12 16:06:56.13	357.59	28.11	-39.7	-40.9	21.4	0.00e+00	0	27	0	497025024	50	7097
2026-01-12 16:06:57.14	357.38	28.24	-39.8	-41.0	21.2	0.00e+00	0	27	0	498073600	52	6460
2026-01-12 16:06:58.15	357.16	28.37	-40.0	-41.3	20.9	0.00e+00	0	27	0	500170752	52	6633
2026-01-12 16:06:59.15	356.94	28.51	-40.5	-41.9	20.3	0.00e+00	0	27	0	502267904	52	7125
2026-01-12 16:07:00.17	356.71	28.64	-40.7	-42.1	20.1	0.00e+00	0	27	0	504365056	52	7308
2026-01-12 16:07:01.18	356.49	28.78	-40.8	-42.2	20.0	0.00e+00	0	27	0	506462208	54	6593
2026-01-12 16:07:02.19	356.26	28.91	-40.9	-42.4	19.8	0.00e+00	0	27	0	507510784	54	6700
2026-01-12 16:07:03.20	356.03	29.05	-41.0	-42.5	19.8	0.00e+00	0	27	0	509607936	54	6789
2026-01-12 16:07:04.21	355.80	29.18	-41.3	-42.8	19.5	0.00e+00	0	27	0	511705088	54	7078
2026-01-12 16:07:05.22	355.57	29.32	-41.2	-42.6	19.6	0.00e+00	0	27	0	513802240	54	6906
2026-01-12 16:07:06.23	355.33	29.45	-41.1	-42.5	19.8	0.00e+00	0	27	0	515899392	54	6775
2026-01-12 16:07:07.24	355.09	29.59	-41.1	-42.5	19.8	0.00e+00	0	27	0	516947968	54	6834
2026-01-12 16:07:08.25	354.85	29.72	-41.0	-42.4	19.9	0.00e+00	0	27	0	519045120	54	6742
2026-01-12 16:07:09.26	354.61	29.86	-41.1	-42.5	19.8	0.00e+00	0	27	0	521142272	54	6781
2026-01-12 16:07:10.26	354.37	29.99	-41.1	-42.5	19.8	0.00e+00	0	27	0	523239424	54	6796
2026-01-12 16:07:11.27	354.13	30.13	-40.8	-42.2	20.1	0.00e+00	0	27	0	525336576	54	6589
2026-01-12 16:07:12.28	353.88	30.27	-40.7	-42.1	20.2	0.00e+00	0	27	0	527433728	54	6537
2026-01-12 16:07:13.29	353.63	30.40	-40.5	-41.9	20.4	0.00e+00	0	27	0	528482304	54	6345
2026-01-12 16:07:14.30	353.38	30.54	-40.4	-41.8	20.5	0.00e+00	0	27	0	530579456	54	6264
2026-01-12 16:07:15.30	353.13	30.67	-40.5	-41.9	20.4	0.00e+00	0	27	0	532676608	54	6367
2026-01-12 16:07:16.32	352.87	30.81	-40.6	-42.1	20.3	0.00e+00	0	27	0	534773760	54	6470
2026-01-12 16:07:17.33	352.61	30.94	-40.5	-42.0	20.2	0.00e+00	0	27	0	536870912	54	6422
2026-01-12 16:07:18.34	352.35	31.08	-40.5	-42.0	20.2	0.00e+00	0	27	0	537919488	54	6398
2026-01-12 16:07:19.34	352.09	31.21	-40.7	-42.1	20.1	0.00e+00	0	27	0	540016640	54	6531
2026-01-12 16:07:20.35	351.83	31.35	-40.8	-42.2	20.0	0.00e+00	0	27	0	542113792	54	6565
2026-01-12 16:07:21.36	351.56	31.49	-40.7	-42.1	20.2	0.00e+00	0	27	0	544210944	54	6489
2026-01-12 16:07:22.37	351.29	31.62	-40.8	-42.2	20.1	0.00e+00	0	27	0	546308096	54	6541
2026-01-12 16:07:23.38	351.02	31.76	-40.9	-42.3	19.9	0.00e+00	0	27	0	547356672	54	6690
2026-01-12 16:07:24.39	350.74	31.89	-41.0	-42.4	19.9	0.00e+00	0	27	0	549453824	54	6759
2026-01-12 16:07:25.40	350.47	32.03	-41.1	-42.6	19.7	0.00e+00	0	27	0	551550976	54	6861
2026-01-12 16:07:26.41	350.19	32.16	-41.0	-42.6	19.6	0.00e+00	0	27	0	553648128	54	6858
2026-01-12 16:07:27.42	349.91	32.30	-41.0	-42.5	19.7	0.00e+00	0	27	0	555745280	54	6798
2026-01-12 16:07:28.43	349.63	32.43	-41.1	-42.7	19.6	0.00e+00	0	27	0	556793856	54	6941
2026-01-12 16:07:29.44	349.34	32.57	-41.1	-42.7	19.7	0.00e+00	0	27	0	558891008	54	6971
2026-01-12 16:07:30.45	349.05	32.70	-40.8	-42.4	19.9	0.00e+00	0	27	0	560988160	54	6724
2026-01-12 16:07:31.46	348.76	32.83	-40.5	-42.0	20.2	0.00e+00	0	27	0	563085312	54	6450
2026-01-12 16:07:32.46	348.47	32.97	-39.8	-41.1	21.2	0.00e+00	0	27	0	565182464	54	5800
2026-01-12 16:07:33.47	348.18	33.10	-39.7	-40.9	21.3	0.00e+00	0	27	0	566231040	52	6381
2026-01-12 16:07:34.48	347.88	33.23	-39.4	-40.6	21.7	0.00e+00	0	27	0	568328192	52	6110
2026-01-12 16:07:35.49	347.58	33.36	-39.4	-40.6	21.7	0.00e+00	0	27	0	570425344	52	6115
2026-01-12 16:07:36.50	347.28	33.50	-39.3	-40.4	21.8	0.00e+00	0	27	0	572522496	52	6033
2026-01-12 16:07:37.51	346.97	33.63	-39.2	-40.3	21.9	0.00e+00	0	27	0	574619648	52	5939
2026-01-12 16:07:38.52	346.66	33.76	-39.1	-40.2	22.1	0.00e+00	0	27	0	575668224	52	5840
2026-01-12 16:07:39.53	346.35	33.89	-39.0	-40.0	22.3	0.00e+00	0	27	0	577765376	52	5745
2026-01-12 16:07:40.54	346.04	34.02	-38.9	-40.0	22.2	0.00e+00	0	27	0	579862528	52	5731
2026-01-12 16:07:41.54	345.73	34.15	-39.1	-40.1	22.0	0.00e+00	0	27	0	581959680	52	5819
2026-01-12 16:07:42.55	345.41	34.28	-39.4	-40.5	21.7	0.00e+00	0	27	0	584056832	52	6082
2026-01-12 16:07:43.56	345.09	34.41	-39.9	-41.1	21.2	0.00e+00	0	27	0	585105408	52	6472
2026-01-12 16:07:44.57	344.77	34.54	-40.0	-41.2	21.1	0.00e+00	0	27	0	587202560	52	6565
2026-01-12 16:07:45.58	344.44	34.67	-40.0	-41.2	21.1	0.00e+00	0	27	0	589299712	52	6571
2026-01-12 16:07:46.59	344.11	34.80	-39.9	-41.0	21.3	0.00e+00	0	27	0	591396864	52	6464
2026-01-12 16:07:47.60	343.78	34.93	-39.8	-40.9	21.5	0.00e+00	0	27	0	593494016	52	6379
2026-01-12 16:07:48.61	343.45	35.05	-39.6	-40.7	21.5	0.00e+00	0	27	0	595591168	52	6233
2026-01-12 16:07:49.62	343.11	35.18	-39.7	-40.8	21.4	0.00e+00	0	27	0	596639744	52	6302
2026-01-12 16:07:50.63	342.77	35.30	-39.8	-41.0	21.3	0.00e+00	0	27	0	598736896	52	6403
2026-01-12 16:07:51.64	342.43	35.43	-40.0	-41.2	21.1	0.00e+00	0	27	0	600834048	52	6557
2026-01-12 16:07:52.65	342.09	35.55	-39.9	-41.1	21.2	0.00e+00	0	27	0	602931200	52	6494
2026-01-12 16:07:53.66	341.74	35.68	-39.8	-41.1	21.3	0.00e+00	0	27	0	605028352	52	6465
2026-01-12 16:07:54.67	341.39	35.80	-39.9	-41.2	21.0	0.00e+00	0	27	0	606076928	52	6543
2026-01-12 16:07:55.68	341.04	35.92	-40.0	-41.3	20.8	0.00e+00	0	27	0	608174080	52	6664
2026-01-12 16:07:56.68	340.69	36.04	-40.2	-41.5	20.8	0.00e+00	0	27	0	610271232	52	6811
2026-01-12 16:07:57.69	340.33	36.16	-40.2	-41.5	20.7	0.00e+00	0	27	0	612368384	52	6841
2026-01-12 16:07:58.70	339.97	36.28	-40.4	-41.7	20.6	0.00e+00	0	27	0	614465536	52	6974
2026-01-12 16:07:59.71	339.61	36.40	-40.6	-42.0	20.3	0.00e+00	0	27	0	615514112	52	7212
2026-01-12 16:08:00.72	339.25	36.52	-40.7	-42.1	20.2	0.00e+00	0	27	0	617611264	54	6496
2026-01-12 16:08:01.73	338.88	36.64	-40.8	-42.2	20.1	0.00e+00	0	27	0	619708416	54	6573
2026-01-12 16:08:02.74	338.51	36.75	-40.7	-42.0	20.4	0.00e+00	0	27	0	621805568	54	6418
2026-01-12 16:08:03.75	338.13	36.87	-40.4	-41.7	20.7	0.00e+00	0	27	0	623902720	54	6204
2026-01-12 16:08:04.76	337.76	36.98	-40.2	-41.4	21.0	0.00e+00	0	27	0	624951296	54	5974
2026-01-12 16:08:05.77	337.38	37.10	-40.0	-41.2	21.1	0.00e+00	0	27	0	627048448	54	5871
2026-01-12 16:08:06.78	337.00	37.21	-40.1	-41.3	21.0	0.00e+00	0	27	0	629145600	54	5897
2026-01-12 16:08:07.79	336.62	37.32	-40.1	-41.3	20.9	0.00e+00	0	27	0	631242752	54	5898
2026-01-12 16:08:08.79	336.23	37.43	-39.8	-41.0	21.3	0.00e+00	0	27	0	633339904	54	5719
2026-01-12 16:08:09.80	335.84	37.54	-39.8	-41.0	21.4	0.00e+00	0	27	0	634388480	52	6405
2026-01-12 16:08:10.81	335.45	37.64	-39.9	-41.1	21.2	0.00e+00	0	27	0	636485632	52	6520
2026-01-12 16:08:11.82	335.06	37.75	-39.6	-40.8	21.5	0.00e+00	0	27	0	638582784	52	6247
2026-01-12 16:08:12.83	334.66	37.86	-39.6	-40.8	21.4	0.00e+00	0	27	0	640679936	52	6266
2026-01-12 16:08:13.83	334.27	37.96	-39.6	-40.7	21.5	0.00e+00	0	27	0	642777088	52	6228
2026-01-12 16:08:14.84	333.86	38.06	-39.4	-40.5	21.7	0.00e+00	0	27	0	643825664	52	6043
2026-01-12 16:08:15.85	333.46	38.16	-39.2	-40.2	22.0	0.00e+00	0	27	0	645922816	52	5895
2026-01-12 16:08:16.86	333.05	38.26	-39.0	-40.1	22.1	0.00e+00	0	27	0	648019968	52	5778
2026-01-12 16:08:17.87	332.64	38.36	-38.9	-39.9	22.4	0.00e+00	0	27	0	650117120	52	5685
2026-01-12 16:08:18.88	332.23	38.46	-38.5	-39.5	22.6	0.00e+00	0	27	0	652214272	50	6099
2026-01-12 16:08:19.89	331.82	38.55	-38.4	-39.5	22.7	0.00e+00	0	27	0	653262848	50	6041
2026-01-12 16:08:20.90	331.40	38.65	-38.4	-39.4	22.8	0.00e+00	0	27	0	655360000	50	6005
2026-01-12 16:08:21.91	330.98	38.74	-38.4	-39.4	22.9	0.00e+00	0	27	0	657457152	50	5987
2026-01-12 16:08:22.91	330.56	38.83	-38.3	-39.3	22.8	0.00e+00	0	27	0	659554304	50	5915
2026-01-12 16:08:23.93	330.13	38.92	-38.4	-39.4	22.8	0.00e+00	0	27	0	661651456	50	5977
2026-01-12 16:08:24.93	329.71	39.01	-38.3	-39.3	22.8	0.00e+00	0	27	0	662700032	50	5959
2026-01-12 16:08:25.94	329.28	39.10	-38.3	-39.3	22.9	0.00e+00	0	27	0	664797184	50	5915
2026-01-12 16:08:26.95	328.85	39.18	-38.3	-39.3	22.9	0.00e+00	0	27	0	666894336	50	5944
2026-01-12 16:08:27.96	328.42	39.27	-38.3	-39.2	22.9	0.00e+00	0	27	0	668991488	50	5895
2026-01-12 16:08:28.97	327.98	39.35	-38.3	-39.3	22.8	0.00e+00	0	27	0	671088640	50	5921
2026-01-12 16:08:29.98	327.55	39.43	-37.9	-38.9	23.2	0.00e+00	0	27	0	672137216	50	5645
2026-01-12 16:08:30.99	327.11	39.51	-37.9	-38.8	23.3	0.00e+00	0	27	0	674234368	50	5590
2026-01-12 16:08:32.00	326.66	39.58	-37.7	-38.6	23.4	0.00e+00	0	27	0	676331520	48	6124
2026-01-12 16:08:33.01	326.22	39.66	-37.6	-38.5	23.6	0.00e+00	0	27	0	678428672	48	6052
2026-01-12 16:08:34.02	325.77	39.73	-37.5	-38.4	23.7	0.00e+00	0	27	0	680525824	48	5999
2026-01-12 16:08:35.03	325.33	39.80	-37.3	-38.2	23.8	0.00e+00	0	27	0	681574400	48	5883
2026-01-12 16:08:36.03	324.88	39.87	-37.1	-38.0	23.9	0.00e+00	0	27	0	683671552	48	5716
2026-01-12 16:08:37.04	324.43	39.94	-37.0	-37.9	24.0	0.00e+00	0	27	0	685768704	48	5662
2026-01-12 16:08:38.05	323.97	40.00	-37.2	-38.0	23.9	0.00e+00	0	27	0	687865856	48	5760
2026-01-12 16:08:39.06	323.52	40.07	-37.3	-38.2	23.8	0.00e+00	0	27	0	689963008	48	5859
2026-01-12 16:08:40.07	323.06	40.13	-37.4	-38.3	23.7	0.00e+00	0	27	0	692060160	48	5950
2026-01-12 16:08:41.08	322.60	40.19	-37.4	-38.3	23.7	0.00e+00	0	27	0	693108736	48	5943
2026-01-12 16:08:42.09	322.14	40.24	-37.4	-38.3	23.8	0.00e+00	0	27	0	695205888	48	5915
2026-01-12 16:08:43.10	321.68	40.30	-37.0	-37.9	24.0	0.00e+00	0	27	0	697303040	48	5668
2026-01-12 16:08:44.11	321.21	40.35	-37.1	-37.9	24.0	0.00e+00	0	27	0	699400192	48	5694
2026-01-12 16:08:45.12	320.75	40.41	-37.1	-37.9	24.1	0.00e+00	0	27	0	701497344	48	5694
2026-01-12 16:08:46.13	320.28	40.45	-37.0	-37.8	24.2	0.00e+00	0	27	0	702545920	48	5623
2026-01-12 16:08:47.14	319.81	40.50	-36.8	-37.7	24.3	0.00e+00	0	27	0	704643072	48	5510
2026-01-12 16:08:48.15	319.34	40.55	-36.7	-37.5	24.5	0.00e+00	0	27	0	706740224	46	6071
2026-01-12 16:08:49.16	318.87	40.59	-36.6	-37.4	24.5	0.00e+00	0	27	0	708837376	46	5989
2026-01-12 16:08:50.17	318.40	40.63	-36.6	-37.5	24.5	0.00e+00	0	27	0	710934528	46	6035
2026-01-12 16:08:51.18	317.93	40.67	-36.8	-37.7	24.2	0.00e+00	0	27	0	711983104	46	6190
2026-01-12 16:08:52.18	317.46	40.71	-37.0	-37.9	24.1	0.00e+00	0	27	0	714080256	46	6347
2026-01-12 16:08:53.19	316.98	40.74	-37.1	-38.0	24.0	0.00e+00	0	27	0	716177408	46	6418
2026-01-12 16:08:54.20	316.50	40.77	-37.1	-38.0	24.1	0.00e+00	0	27	0	718274560	46	6421
2026-01-12 16:08:55.21	316.03	40.80	-37.0	-37.9	24.2	0.00e+00	0	27	0	720371712	46	6358
2026-01-12 16:08:56.22	315.55	40.83	-37.1	-38.0	24.1	0.00e+00	0	27	0	721420288	46	6425
2026-01-12 16:08:57.23	315.07	40.85	-37.3	-38.2	23.9	0.00e+00	0	27	0	723517440	46	6587
2026-01-12 16:08:58.24	314.59	40.88	-37.1	-37.9	24.1	0.00e+00	0	27	0	725614592	46	6378
2026-01-12 16:08:59.25	314.11	40.90	-37.1	-37.9	24.1	0.00e+00	0	27	0	727711744	46	6390
2026-01-12 16:09:00.26	313.63	40.92	-37.1	-38.0	24.0	0.00e+00	0	27	0	729808896	46	6426
2026-01-12 16:09:01.27	313.15	40.93	-37.1	-38.0	24.0	0.00e+00	0	27	0	730857472	46	6426
2026-01-12 16:09:02.28	312.66	40.95	-37.2	-38.0	23.9	0.00e+00	0	27	0	732954624	46	6458
2026-01-12 16:09:03.29	312.18	40.96	-37.2	-38.1	24.0	0.00e+00	0	27	0	735051776	46	6467
2026-01-12 16:09:04.30	311.70	40.97	-37.0	-37.9	24.0	0.00e+00	0	27	0	737148928	46	6346
2026-01-12 16:09:05.31	311.21	40.98	-37.2	-38.0	23.9	0.00e+00	0	27	0	739246080	46	6442
2026-01-12 16:09:06.31	310.74	40.98	-37.7	-38.6	23.5	0.00e+00	0	27	0	740294656	46	6889
2026-01-12 16:09:07.32	310.25	40.98	-38.2	-39.2	22.9	0.00e+00	0	27	0	742391808	48	6542
2026-01-12 16:09:08.33	309.77	40.98	-38.5	-39.5	22.8	0.00e+00	0	27	0	744488960	48	6802
2026-01-12 16:09:09.34	309.29	40.98	-38.4	-39.4	22.7	0.00e+00	0	27	0	746586112	48	6741
2026-01-12 16:09:10.35	308.80	40.98	-38.6	-39.6	22.5	0.00e+00	0	27	0	748683264	48	6849
2026-01-12 16:09:11.36	308.32	40.97	-38.7	-39.7	22.4	0.00e+00	0	27	0	749731840	50	6199
2026-01-12 16:09:12.37	307.84	40.96	-38.7	-39.7	22.4	0.00e+00	0	27	0	751828992	50	6200
2026-01-12 16:09:13.38	307.35	40.95	-38.8	-39.8	22.4	0.00e+00	0	27	0	753926144	50	6288
2026-01-12 16:09:14.39	306.87	40.94	-38.9	-40.0	22.3	0.00e+00	0	27	0	756023296	50	6393
2026-01-12 16:09:15.40	306.39	40.92	-38.9	-39.9	22.3	0.00e+00	0	27	0	758120448	50	6386
2026-01-12 16:09:16.41	305.91	40.90	-39.0	-40.0	22.2	0.00e+00	0	27	0	760217600	50	6440
2026-01-12 16:09:17.41	305.43	40.88	-39.2	-40.3	22.0	0.00e+00	0	27	0	761266176	50	6620
2026-01-12 16:09:18.42	304.95	40.86	-39.8	-40.9	21.3	0.00e+00	0	27	0	763363328	52	6385
2026-01-12 16:09:19.43	304.47	40.83	-40.5	-41.8	20.5	0.00e+00	0	27	0	765460480	52	7015
2026-01-12 16:09:20.44	303.99	40.81	-40.5	-41.8	20.7	0.00e+00	0	27	0	767557632	52	7013
2026-01-12 16:09:21.45	303.51	40.78	-40.4	-41.6	20.8	0.00e+00	0	27	0	769654784	52	6903
2026-01-12 16:09:22.46	303.04	40.74	-40.2	-41.4	21.1	0.00e+00	0	27	0	770703360	52	6702
2026-01-12 16:09:23.46	302.57	40.71	-39.9	-41.1	21.2	0.00e+00	0	27	0	772800512	52	6498
2026-01-12 16:09:24.47	302.09	40.67	-40.1	-41.3	21.0	0.00e+00	0	27	0	774897664	52	6659
2026-01-12 16:09:25.48	301.62	40.64	-40.6	-41.9	20.5	0.00e+00	0	27	0	776994816	52	7144
2026-01-12 16:09:26.49	301.14	40.59	-41.2	-42.6	19.8	0.00e+00	0	27	0	778043392	54	6880
2026-01-12 16:09:27.50	300.67	40.55	-41.7	-43.2	19.3	0.00e+00	0	27	0	780140544	54	7378
2026-01-12 16:09:28.51	300.20	40.51	-41.8	-43.3	19.0	0.00e+00	0	27	0	782237696	56	6656
2026-01-12 16:09:29.52	299.73	40.46	-41.8	-43.3	19.1	0.00e+00	0	27	0	784334848	56	6665
2026-01-12 16:09:30.52	299.27	40.41	-41.8	-43.4	19.3	0.00e+00	0	27	0	786432000	56	6704
2026-01-12 16:09:31.53	298.80	40.36	-42.0	-43.6	19.2	0.00e+00	0	27	0	788529152	56	6905
2026-01-12 16:09:32.54	298.34	40.31	-41.6	-43.1	19.6	0.00e+00	0	27	0	789577728	56	6528
2026-01-12 16:09:33.55	297.88	40.25	-41.4	-42.8	19.7	0.00e+00	0	27	0	791674880	56	6256
2026-01-12 16:09:34.56	297.42	40.19	-41.2	-42.6	19.9	0.00e+00	0	27	0	793772032	56	6133
2026-01-12 16:09:35.57	296.96	40.13	-41.2	-42.6	19.9	0.00e+00	0	27	0	795869184	56	6115
2026-01-12 16:09:36.58	296.50	40.07	-41.3	-42.6	19.8	0.00e+00	0	27	0	797966336	56	6173
2026-01-12 16:09:37.58	296.05	40.01	-41.0	-42.4	20.0	0.00e+00	0	27	0	799014912	56	5971
2026-01-12 16:09:38.60	295.59	39.95	-40.9	-42.2	20.2	0.00e+00	0	27	0	801112064	56	5854
2026-01-12 16:09:39.61	295.13	39.88	-41.0	-42.4	20.1	0.00e+00	0	27	0	803209216	56	5970
2026-01-12 16:09:40.62	294.68	39.81	-40.8	-42.1	20.5	0.00e+00	0	27	0	805306368	56	5790
2026-01-12 16:09:41.62	294.24	39.74	-39.8	-40.9	21.4	0.00e+00	0	27	0	807403520	54	5681
2026-01-12 16:09:42.63	293.79	39.67	-39.8	-40.9	21.4	0.00e+00	0	27	0	808452096	52	6351
2026-01-12 16:09:43.64	293.35	39.59	-39.2	-40.3	22.1	0.00e+00	0	27	0	810549248	52	5908
2026-01-12 16:09:44.65	292.90	39.51	-38.7	-39.7	22.5	0.00e+00	0	27	0	812646400	52	5519
2026-01-12 16:09:45.66	292.46	39.44	-38.6	-39.6	22.7	0.00e+00	0	27	0	814743552	50	6138
2026-01-12 16:09:46.67	292.02	39.36	-38.2	-39.1	23.2	0.00e+00	0	27	0	816840704	50	5814
2026-01-12 16:09:47.68	291.59	39.28	-37.9	-38.8	23.4	0.00e+00	0	27	0	817889280	50	5609
2026-01-12 16:09:48.69	291.15	39.19	-37.8	-38.7	23.5	0.00e+00	0	27	0	819986432	48	6228
2026-01-12 16:09:49.70	290.72	39.11	-37.3	-38.2	24.0	0.00e+00	0	27	0	822083584	48	5829
2026-01-12 16:09:50.71	290.29	39.02	-37.1	-38.0	24.1	0.00e+00	0	27	0	824180736	48	5721
2026-01-12 16:09:51.72	289.86	38.93	-37.2	-38.1	24.0	0.00e+00	0	27	0	826277888	48	5793
2026-01-12 16:09:52.72	289.44	38.84	-37.0	-37.8	24.2	0.00e+00	0	27	0	827326464	48	5624
2026-01-12 16:09:53.73	289.02	38.75	-36.8	-37.7	24.4	0.00e+00	0	27	0	829423616	48	5507
2026-01-12 16:09:54.74	288.60	38.66	-36.8	-37.6	24.5	0.00e+00	0	27	0	831520768	46	6172
2026-01-12 16:09:55.75	288.18	38.56	-36.2	-37.0	24.9	0.00e+00	0	27	0	833617920	46	5733
2026-01-12 16:09:56.76	287.77	38.47	-36.1	-36.8	25.1	0.00e+00	0	27	0	835715072	46	5630
2026-01-12 16:09:57.77	287.35	38.37	-36.1	-36.9	25.0	0.00e+00	0	27	0	836763648	46	5663
2026-01-12 16:09:58.78	286.94	38.27	-36.2	-37.0	24.9	0.00e+00	0	27	0	838860800	46	5717
2026-01-12 16:09:59.79	286.54	38.17	-36.4	-37.2	24.4	0.00e+00	0	27	0	840957952	46	5876
2026-01-12 16:10:00.79	286.13	38.07	-36.5	-37.3	24.6	0.00e+00	0	27	0	843055104	46	5960
2026-01-12 16:10:01.80	285.73	37.97	-36.7	-37.5	24.1	0.00e+00	0	27	0	845152256	46	6077
2026-01-12 16:10:02.81	285.33	37.87	-36.6	-37.5	24.6	0.00e+00	0	27	0	846200832	46	6062
2026-01-12 16:10:03.82	284.93	37.76	-36.6	-37.4	24.6	0.00e+00	0	27	0	848297984	46	6033
2026-01-12 16:10:04.83	284.54	37.65	-36.3	-37.1	24.9	0.00e+00	0	27	0	850395136	46	5792
2026-01-12 16:10:05.84	284.15	37.55	-36.2	-37.0	24.9	0.00e+00	0	27	0	852492288	46	5704
2026-01-12 16:10:06.85	283.76	37.44	-36.2	-37.0	24.9	0.00e+00	0	27	0	854589440	46	5712
2026-01-12 16:10:07.86	283.37	37.33	-36.4	-37.2	24.7	0.00e+00	0	27	0	856686592	46	5892
2026-01-12 16:10:08.87	282.98	37.22	-36.5	-37.3	24.6	0.00e+00	0	27	0	857735168	46	5909
2026-01-12 16:10:09.88	282.60	37.10	-36.7	-37.6	24.4	0.00e+00	0	27	0	859832320	46	6107
2026-01-12 16:10:10.89	282.22	36.99	-37.0	-37.8	24.2	0.00e+00	0	27	0	861929472	46	6282
2026-01-12 16:10:11.90	281.84	36.88	-37.0	-37.8	24.2	0.00e+00	0	27	0	864026624	46	6316
2026-01-12 16:10:12.91	281.47	36.76	-36.8	-37.7	24.3	0.00e+00	0	27	0	866123776	46	6189
2026-01-12 16:10:13.92	281.10	36.64	-36.9	-37.7	24.4	0.00e+00	0	27	0	867172352	46	6236
2026-01-12 16:10:14.93	280.73	36.53	-36.8	-37.7	24.4	0.00e+00	0	27	0	869269504	46	6188
2026-01-12 16:10:15.94	280.36	36.41	-37.0	-37.8	24.1	0.00e+00	0	27	0	871366656	46	6317
2026-01-12 16:10:16.95	280.00	36.29	-37.1	-38.0	24.0	0.00e+00	0	27	0	873463808	46	6447
2026-01-12 16:10:17.96	279.64	36.17	-37.5	-38.4	23.8	0.00e+00	0	27	0	875560960	46	6719
2026-01-12 16:10:18.97	279.28	36.05	-37.6	-38.5	23.6	0.00e+00	0	27	0	876609536	46	6790
2026-01-12 16:10:19.97	278.93	35.93	-37.8	-38.8	23.5	0.00e+00	0	27	0	878706688	48	6253
2026-01-12 16:10:20.98	278.58	35.81	-37.5	-38.4	23.7	0.00e+00	0	27	0	880803840	48	6020
2026-01-12 16:10:21.99	278.23	35.68	-37.4	-38.3	23.7	0.00e+00	0	27	0	882900992	48	5931
2026-01-12 16:10:23.00	277.88	35.56	-37.1	-37.9	24.1	0.00e+00	0	27	0	884998144	48	5683
2026-01-12 16:10:24.01	277.53	35.44	-37.2	-38.0	24.0	0.00e+00	0	27	0	886046720	48	5747
2026-01-12 16:10:25.02	277.19	35.31	-37.4	-38.3	23.8	0.00e+00	0	27	0	888143872	48	5906
2026-01-12 16:10:26.03	276.85	35.18	-37.7	-38.6	23.6	0.00e+00	0	27	0	890241024	48	6139
2026-01-12 16:10:27.04	276.51	35.06	-37.6	-38.4	23.5	0.00e+00	0	27	0	892338176	48	6029
2026-01-12 16:10:28.05	276.18	34.93	-37.6	-38.5	23.6	0.00e+00	0	27	0	894435328	48	6090
2026-01-12 16:10:29.06	275.85	34.80	-37.5	-38.4	23.6	0.00e+00	0	27	0	895483904	48	6028
2026-01-12 16:10:30.07	275.52	34.67	-37.7	-38.6	23.6	0.00e+00	0	27	0	897581056	48	6142
2026-01-12 16:10:31.08	275.19	34.55	-37.7	-38.6	23.5	0.00e+00	0	27	0	899678208	48	6106
2026-01-12 16:10:32.09	274.87	34.42	-37.9	-38.8	23.3	0.00e+00	0	27	0	901775360	48	6283
2026-01-12 16:10:33.10	274.55	34.29	-38.1	-39.0	23.2	0.00e+00	0	27	0	903872512	48	6420
2026-01-12 16:10:34.11	274.23	34.16	-38.3	-39.3	22.9	0.00e+00	0	27	0	904921088	48	6622
2026-01-12 16:10:35.11	273.91	34.03	-38.2	-39.2	22.9	0.00e+00	0	27	0	907018240	48	6570
2026-01-12 16:10:36.12	273.60	33.89	-38.4	-39.4	22.7	0.00e+00	0	27	0	909115392	48	6721
2026-01-12 16:10:37.13	273.29	33.76	-38.5	-39.5	22.8	0.00e+00	0	27	0	911212544	48	6833
2026-01-12 16:10:38.14	272.98	33.63	-38.8	-39.8	22.3	0.00e+00	0	27	0	913309696	50	6290
2026-01-12 16:10:39.15	272.67	33.50	-39.0	-40.0	22.2	0.00e+00	0	27	0	914358272	50	6439
2026-01-12 16:10:40.16	272.37	33.37	-39.3	-40.4	22.0	0.00e+00	0	27	0	916455424	50	6725
2026-01-12 16:10:41.17	272.07	33.23	-39.4	-40.5	21.8	0.00e+00	0	27	0	918552576	50	6790
2026-01-12 16:10:42.18	271.77	33.10	-39.5	-40.6	21.7	0.00e+00	0	27	0	920649728	50	6867
2026-01-12 16:10:43.18	271.48	32.97	-39.5	-40.6	21.6	0.00e+00	0	27	0	922746880	50	6854
2026-01-12 16:10:44.19	271.18	32.83	-39.5	-40.7	21.8	0.00e+00	0	27	0	923795456	50	6936
2026-01-12 16:10:45.20	270.89	32.70	-39.5	-40.6	21.7	0.00e+00	0	27	0	925892608	50	6920
2026-01-12 16:10:46.21	270.60	32.56	-39.7	-40.8	21.4	0.00e+00	0	27	0	927989760	50	7074
2026-01-12 16:10:47.22	270.32	32.43	-39.9	-41.1	21.3	0.00e+00	0	27	0	930086912	52	6511
2026-01-12 16:10:48.23	270.03	32.29	-40.0	-41.2	21.2	0.00e+00	0	27	0	932184064	52	6580
2026-01-12 16:10:49.24	269.75	32.16	-40.1	-41.2	21.1	0.00e+00	0	27	0	933232640	52	6615
2026-01-12 16:10:50.25	269.47	32.02	-40.0	-41.2	21.2	0.00e+00	0	27	0	935329792	52	6541
2026-01-12 16:10:51.26	269.19	31.89	-40.1	-41.3	21.2	0.00e+00	0	27	0	937426944	52	6623
2026-01-12 16:10:52.27	268.92	31.75	-40.0	-41.1	21.2	0.00e+00	0	27	0	939524096	52	6516
2026-01-12 16:10:53.28	268.65	31.62	-40.1	-41.3	21.0	0.00e+00	0	27	0	941621248	52	6688
2026-01-12 16:10:54.29	268.38	31.48	-40.2	-41.4	21.0	0.00e+00	0	27	0	942669824	52	6725
2026-01-12 16:10:55.30	268.11	31.35	-40.4	-41.6	20.7	0.00e+00	0	27	0	944766976	52	6885
2026-01-12 16:10:56.31	267.84	31.21	-40.1	-41.3	21.1	0.00e+00	0	27	0	946864128	52	6683
2026-01-12 16:10:57.31	267.58	31.07	-40.0	-41.2	21.2	0.00e+00	0	27	0	948961280	52	6577
2026-01-12 16:10:58.32	267.32	30.94	-39.7	-40.9	21.5	0.00e+00	0	27	0	951058432	52	6334
2026-01-12 16:10:59.33	267.06	30.80	-39.7	-40.8	21.6	0.00e+00	0	27	0	953155584	52	6268
2026-01-12 16:11:00.34	266.80	30.67	-39.6	-40.7	21.6	0.00e+00	0	27	0	954204160	52	6235
2026-01-12 16:11:01.35	266.55	30.53	-40.0	-41.2	21.1	0.00e+00	0	27	0	956301312	52	6550
2026-01-12 16:11:02.36	266.30	30.39	-39.8	-41.0	21.3	0.00e+00	0	27	0	958398464	52	6418
2026-01-12 16:11:03.37	266.05	30.26	-39.8	-41.0	21.4	0.00e+00	0	27	0	960495616	52	6393
2026-01-12 16:11:04.38	265.80	30.12	-39.6	-40.7	21.6	0.00e+00	0	27	0	962592768	52	6228
2026-01-12 16:11:05.39	265.55	29.99	-39.7	-40.8	21.6	0.00e+00	0	27	0	963641344	52	6283
2026-01-12 16:11:06.39	265.31	29.85	-39.5	-40.6	21.7	0.00e+00	0	27	0	965738496	52	6164
2026-01-12 16:11:07.40	265.07	29.71	-39.4	-40.5	21.8	0.00e+00	0	27	0	967835648	52	6072
2026-01-12 16:11:08.41	264.83	29.58	-39.2	-40.3	22.0	0.00e+00	0	27	0	969932800	52	5907
2026-01-12 16:11:09.42	264.59	29.44	-38.8	-39.8	22.4	0.00e+00	0	27	0	972029952	52	5615
2026-01-12 16:11:10.43	264.35	29.31	-38.8	-39.8	22.5	0.00e+00	0	27	0	973078528	50	6248
2026-01-12 16:11:11.44	264.12	29.17	-38.6	-39.6	22.7	0.00e+00	0	27	0	975175680	50	6127
2026-01-12 16:11:12.45	263.89	29.04	-38.6	-39.6	22.5	0.00e+00	0	27	0	977272832	50	6156
2026-01-12 16:11:13.47	263.66	28.90	-38.7	-39.7	22.5	0.00e+00	0	27	0	979369984	50	6240
2026-01-12 16:11:14.47	263.43	28.77	-38.6	-39.6	22.6	0.00e+00	0	27	0	981467136	50	6152
2026-01-12 16:11:15.48	263.20	28.63	-38.5	-39.5	22.6	0.00e+00	0	27	0	982515712	50	6080
2026-01-12 16:11:16.49	262.98	28.50	-38.6	-39.5	22.6	0.00e+00	0	27	0	984612864	50	6099
2026-01-12 16:11:17.50	262.76	28.36	-38.4	-39.4	22.7	0.00e+00	0	27	0	986710016	50	6004
2026-01-12 16:11:18.51	262.54	28.23	-38.5	-39.4	22.6	0.00e+00	0	27	0	988807168	50	6017
2026-01-12 16:11:19.52	262.32	28.09	-38.4	-39.4	22.8	0.00e+00	0	27	0	990904320	50	5978
2026-01-12 16:11:20.53	262.10	27.96	-38.3	-39.3	22.8	0.00e+00	0	27	0	991952896	50	5897
2026-01-12 16:11:21.53	261.89	27.82	-38.4	-39.3	22.7	0.00e+00	0	27	0	994050048	50	5954
2026-01-12 16:11:22.55	261.67	27.69	-38.5	-39.5	22.6	0.00e+00	0	27	0	996147200	50	6045
2026-01-12 16:11:23.56	261.46	27.56	-38.5	-39.4	22.7	0.00e+00	0	27	0	998244352	50	6031
2026-01-12 16:11:24.57	261.25	27.42	-38.6	-39.6	22.6	0.00e+00	0	27	0	1000341504	50	6123
2026-01-12 16:11:25.57	261.05	27.29	-38.4	-39.3	22.8	0.00e+00	0	27	0	1001390080	50	5952
2026-01-12 16:11:26.59	260.84	27.16	-38.3	-39.2	22.9	0.00e+00	0	27	0	1003487232	50	5882
2026-01-12 16:11:27.59	260.64	27.03	-38.3	-39.3	22.9	0.00e+00	0	27	0	1005584384	50	5932
2026-01-12 16:11:28.60	260.43	26.89	-38.3	-39.3	22.9	0.00e+00	0	27	0	1007681536	50	5952
2026-01-12 16:11:29.61	260.23	26.76	-38.2	-39.1	23.1	0.00e+00	0	27	0	1009778688	50	5813
2026-01-12 16:11:30.62	260.03	26.63	-38.1	-39.1	23.0	0.00e+00	0	27	0	1010827264	50	5797
2026-01-12 16:11:31.63	259.84	26.50	-38.1	-39.1	23.1	0.00e+00	0	27	0	1012924416	50	5794
2026-01-12 16:11:32.64	259.64	26.37	-38.1	-39.0	23.1	0.00e+00	0	27	0	1015021568	50	5728
2026-01-12 16:11:33.65	259.45	26.23	-37.9	-38.9	23.3	0.00e+00	0	27	0	1017118720	50	5634
2026-01-12 16:11:34.66	259.25	26.10	-37.9	-38.8	23.1	0.00e+00	0	27	0	1019215872	50	5612
2026-01-12 16:11:35.67	259.06	25.97	-38.2	-39.1	23.1	0.00e+00	0	27	0	1021313024	50	5805
2026-01-12 16:11:36.68	258.87	25.84	-37.8	-38.8	23.3	0.00e+00	0	27	0	1022361600	50	5587
2026-01-12 16:11:37.69	258.68	25.71	-37.9	-38.8	23.3	0.00e+00	0	27	0	1024458752	50	5613
2026-01-12 16:11:38.70	258.50	25.58	-37.9	-38.8	23.3	0.00e+00	0	27	0	1026555904	50	5586
2026-01-12 16:11:39.71	258.31	25.45	-37.8	-38.8	23.3	0.00e+00	0	27	0	1028653056	50	5574
2026-01-12 16:11:40.72	258.13	25.32	-37.8	-38.7	23.3	0.00e+00	0	27	0	1030750208	50	5558
2026-01-12 16:11:41.73	257.95	25.20	-38.0	-38.9	23.2	0.00e+00	0	27	0	1031798784	50	5693
2026-01-12 16:11:42.74	257.77	25.07	-38.1	-39.1	22.9	0.00e+00	0	27	0	1033895936	50	5801
2026-01-12 16:11:43.74	257.59	24.94	-38.4	-39.4	22.9	0.00e+00	0	27	0	1035993088	50	5987
2026-01-12 16:11:44.75	257.41	24.81	-38.2	-39.2	22.9	0.00e+00	0	27	0	1038090240	50	5866
2026-01-12 16:11:45.76	257.24	24.68	-38.4	-39.4	22.8	0.00e+00	0	27	0	1040187392	50	5996
2026-01-12 16:11:46.77	257.06	24.56	-38.4	-39.4	22.8	0.00e+00	0	27	0	1041235968	50	6004
2026-01-12 16:11:47.78	256.89	24.43	-38.4	-39.4	22.8	0.00e+00	0	27	0	1043333120	50	5984
2026-01-12 16:11:48.79	256.72	24.30	-38.5	-39.4	22.7	0.00e+00	0	27	0	1045430272	50	6025
2026-01-12 16:11:49.80	256.55	24.18	-38.2	-39.1	23.0	0.00e+00	0	27	0	1047527424	50	5802
2026-01-12 16:11:50.81	256.38	24.05	-38.2	-39.2	23.0	0.00e+00	0	27	0	1049624576	50	5846
2026-01-12 16:11:51.82	256.21	23.93	-38.2	-39.1	23.0	0.00e+00	0	27	0	1050673152	50	5801
2026-01-12 16:11:52.82	256.05	23.80	-38.5	-39.5	22.7	0.00e+00	0	27	0	1052770304	50	6053
2026-01-12 16:11:53.83	255.88	23.68	-38.7	-39.7	22.4	0.00e+00	0	27	0	1054867456	50	6216
2026-01-12 16:11:54.84	255.72	23.55	-38.5	-39.5	22.6	0.00e+00	0	27	0	1056964608	50	6088
2026-01-12 16:11:55.85	255.56	23.43	-38.8	-39.8	22.4	0.00e+00	0	27	0	1059061760	50	6250
2026-01-12 16:11:56.86	255.39	23.30	-38.9	-40.0	22.3	0.00e+00	0	27	0	1060110336	50	6415
2026-01-12 16:11:57.87	255.24	23.18	-38.9	-39.9	22.1	0.00e+00	0	27	0	1062207488	50	6357
2026-01-12 16:11:58.88	255.08	23.06	-39.1	-40.2	21.9	0.00e+00	0	27	0	1064304640	50	6559
2026-01-12 16:11:59.89	254.92	22.93	-39.1	-40.1	22.1	0.00e+00	0	27	0	1066401792	50	6537
2026-01-12 16:12:00.89	254.77	22.81	-39.0	-40.0	22.0	0.00e+00	0	27	0	1068498944	50	6427
2026-01-12 16:12:01.91	254.61	22.69	-39.1	-40.1	22.0	0.00e+00	0	27	0	1069547520	50	6517
2026-01-12 16:12:02.91	254.46	22.57	-39.2	-40.2	22.1	0.00e+00	0	27	0	1071644672	50	6599
2026-01-12 16:12:03.92	254.31	22.45	-38.9	-39.9	22.2	0.00e+00	0	27	0	1073741824	50	6364
2026-01-12 16:12:04.93	254.15	22.33	-38.8	-39.9	22.3	0.00e+00	0	27	0	1075838976	50	6329
2026-01-12 16:12:05.94	254.00	22.20	-39.1	-40.2	22.0	0.00e+00	0	27	0	1077936128	50	6573
2026-01-12 16:12:06.95	253.86	22.08	-39.0	-40.0	22.2	0.00e+00	0	27	0	1078984704	50	6444
2026-01-12 16:12:07.96	253.71	21.96	-39.1	-40.1	22.0	0.00e+00	0	27	0	1081081856	50	6509
2026-01-12 16:12:08.97	253.56	21.84	-39.0	-40.1	21.9	0.00e+00	0	27	0	1083179008	50	6496
2026-01-12 16:12:09.98	253.42	21.73	-39.1	-40.2	22.0	0.00e+00	0	27	0	1085276160	50	6560
2026-01-12 16:12:10.99	253.27	21.61	-38.9	-40.0	22.2	0.00e+00	0	27	0	1087373312	50	6405
2026-01-12 16:12:12.00	253.13	21.49	-38.9	-40.0	22.2	0.00e+00	0	27	0	1089470464	50	6401
2026-01-12 16:12:13.01	252.99	21.37	-38.9	-40.0	22.2	0.00e+00	0	27	0	1090519040	50	6402
2026-01-12 16:12:14.02	252.85	21.25	-39.0	-40.0	22.1	0.00e+00	0	27	0	1092616192	50	6431
2026-01-12 16:12:15.03	252.71	21.13	-39.1	-40.2	22.0	0.00e+00	0	27	0	1094713344	50	6547
2026-01-12 16:12:16.03	252.57	21.02	-39.1	-40.1	22.0	0.00e+00	0	27	0	1096810496	50	6527
2026-01-12 16:12:17.04	252.43	20.90	-39.1	-40.2	21.9	0.00e+00	0	27	0	1097859072	50	6589
2026-01-12 16:12:18.05	252.30	20.78	-39.1	-40.2	22.0	0.00e+00	0	27	0	1099956224	50	6546
2026-01-12 16:12:19.06	252.16	20.67	-38.9	-40.0	22.1	0.00e+00	0	27	0	1102053376	50	6418
2026-01-12 16:12:20.07	252.03	20.55	-39.0	-40.1	22.0	0.00e+00	0	27	0	1104150528	50	6507
2026-01-12 16:12:21.08	251.89	20.44	-39.1	-40.2	22.0	0.00e+00	0	27	0	1106247680	50	6541
2026-01-12 16:12:22.09	251.76	20.32	-39.2	-40.3	21.8	0.00e+00	0	27	0	1107296256	50	6664
2026-01-12 16:12:23.10	251.63	20.21	-39.1	-40.2	22.0	0.00e+00	0	27	0	1109393408	50	6572
2026-01-12 16:12:24.10	251.50	20.09	-39.2	-40.2	22.0	0.00e+00	0	27	0	1111490560	50	6611
2026-01-12 16:12:25.11	251.37	19.98	-39.1	-40.1	22.1	0.00e+00	0	27	0	1113587712	50	6526
2026-01-12 16:12:26.12	251.24	19.87	-38.9	-40.0	22.2	0.00e+00	0	27	0	1115684864	50	6410
2026-01-12 16:12:27.13	251.12	19.75	-38.9	-39.9	22.3	0.00e+00	0	27	0	1117782016	50	6355
2026-01-12 16:12:28.14	250.99	19.64	-38.8	-39.8	22.2	0.00e+00	0	27	0	1118830592	50	6296
2026-01-12 16:12:29.15	250.86	19.53	-38.9	-39.9	22.2	0.00e+00	0	27	0	1120927744	50	6353
2026-01-12 16:12:30.16	250.74	19.42	-38.8	-39.8	22.3	0.00e+00	0	27	0	1123024896	50	6291
2026-01-12 16:12:31.17	250.62	19.31	-38.8	-39.8	22.3	0.00e+00	0	27	0	1125122048	50	6317
2026-01-12 16:12:32.18	250.49	19.19	-38.8	-39.8	22.3	0.00e+00	0	27	0	1127219200	50	6291
2026-01-12 16:12:33.18	250.37	19.08	-38.6	-39.6	22.4	0.00e+00	0	27	0	1128267776	50	6116
2026-01-12 16:12:34.19	250.25	18.97	-38.6	-39.6	22.3	0.00e+00	0	27	0	1130364928	50	6141
2026-01-12 16:12:35.20	250.13	18.86	-38.5	-39.5	22.6	0.00e+00	0	27	0	1132462080	50	6079
2026-01-12 16:12:36.21	250.01	18.75	-38.7	-39.7	22.4	0.00e+00	0	27	0	1134559232	50	6206
2026-01-12 16:12:37.22	249.89	18.64	-38.7	-39.7	22.3	0.00e+00	0	27	0	1136656384	50	6195
2026-01-12 16:12:38.23	249.78	18.53	-38.7	-39.7	22.4	0.00e+00	0	27	0	1137704960	50	6232
2026-01-12 16:12:39.24	249.66	18.43	-38.8	-39.9	22.2	0.00e+00	0	27	0	1139802112	50	6339
2026-01-12 16:12:40.25	249.54	18.32	-39.0	-40.1	22.0	0.00e+00	0	27	0	1141899264	50	6509
2026-01-12 16:12:41.26	249.43	18.21	-38.9	-40.0	22.0	0.00e+00	0	27	0	1143996416	50	6412
2026-01-12 16:12:42.26	249.32	18.10	-38.8	-39.9	22.2	0.00e+00	0	27	0	1146093568	50	6344
2026-01-12 16:12:43.27	249.20	17.99	-38.8	-39.9	22.2	0.00e+00	0	27	0	1147142144	50	6318
2026-01-12 16:12:44.28	249.09	17.89	-38.9	-39.9	22.2	0.00e+00	0	27	0	1149239296	50	6374
2026-01-12 16:12:45.29	248.98	17.78	-38.9	-39.9	22.1	0.00e+00	0	27	0	1151336448	50	6368
2026-01-12 16:12:46.30	248.87	17.67	-38.9	-40.0	22.2	0.00e+00	0	27	0	1153433600	50	6423
2026-01-12 16:12:47.31	248.76	17.57	-39.0	-40.0	22.1	0.00e+00	0	27	0	1155530752	50	6439
2026-01-12 16:12:48.32	248.65	17.46	-39.0	-40.1	22.0	0.00e+00	0	27	0	1156579328	50	6510
2026-01-12 16:12:49.33	248.54	17.36	-39.1	-40.2	21.9	0.00e+00	0	27	0	1158676480	50	6591
2026-01-12 16:12:50.34	248.43	17.25	-38.9	-39.9	22.2	0.00e+00	0	27	0	1160773632	50	6373
2026-01-12 16:12:51.35	248.33	17.15	-38.7	-39.7	22.4	0.00e+00	0	27	0	1162870784	50	6221
2026-01-12 16:12:52.36	248.22	17.04	-38.7	-39.8	22.3	0.00e+00	0	27	0	1164967936	50	6269
2026-01-12 16:12:53.37	248.11	16.94	-38.5	-39.6	22.5	0.00e+00	0	27	0	1166016512	50	6106
2026-01-12 16:12:54.38	248.01	16.84	-38.6	-39.6	22.4	0.00e+00	0	27	0	1168113664	50	6148
2026-01-12 16:12:55.38	247.91	16.73	-38.6	-39.6	22.4	0.00e+00	0	27	0	1170210816	50	6149
2026-01-12 16:12:56.39	247.80	16.63	-38.7	-39.7	22.2	0.00e+00	0	27	0	1172307968	50	6178
2026-01-12 16:12:57.40	247.70	16.53	-38.6	-39.6	22.4	0.00e+00	0	27	0	1174405120	50	6163
2026-01-12 16:12:58.41	247.60	16.42	-38.5	-39.5	22.5	0.00e+00	0	27	0	1175453696	50	6068
2026-01-12 16:12:59.42	247.50	16.32	-38.5	-39.5	22.5	0.00e+00	0	27	0	1177550848	50	6071
2026-01-12 16:13:00.43	247.40	16.22	-38.5	-39.5	22.6	0.00e+00	0	27	0	1179648000	50	6048
2026-01-12 16:13:01.44	247.30	16.12	-38.4	-39.4	22.6	0.00e+00	0	27	0	1181745152	50	5996
2026-01-12 16:13:02.45	247.20	16.02	-38.4	-39.3	22.6	0.00e+00	0	27	0	1183842304	50	5952
2026-01-12 16:13:03.46	247.10	15.92	-38.4	-39.4	22.6	0.00e+00	0	28	0	1185939456	50	5981
2026-01-12 16:13:04.47	247.00	15.82	-38.4	-39.4	22.6	0.00e+00	0	27	0	1186988032	50	5999
2026-01-12 16:13:05.48	246.91	15.72	-38.4	-39.4	22.5	0.00e+00	0	27	0	1189085184	50	6001
2026-01-12 16:13:06.49	246.81	15.62	-38.3	-39.3	22.7	0.00e+00	0	27	0	1191182336	50	5912
2026-01-12 16:13:07.50	246.71	15.52	-38.5	-39.5	22.5	0.00e+00	0	27	0	1193279488	50	6055
2026-01-12 16:13:08.51	246.62	15.42	-38.6	-39.6	22.4	0.00e+00	0	27	0	1195376640	50	6165
2026-01-12 16:13:09.52	246.53	15.32	-38.7	-39.8	22.2	0.00e+00	0	28	0	1196425216	50	6248
2026-01-12 16:13:10.53	246.43	15.22	-38.7	-39.8	22.2	0.00e+00	0	28	0	1198522368	50	6249
2026-01-12 16:13:11.54	246.34	15.12	-38.9	-40.0	22.0	0.00e+00	0	28	0	1200619520	50	6403
2026-01-12 16:13:12.54	246.25	15.03	-38.8	-39.9	22.1	0.00e+00	0	28	0	1202716672	50	6351
2026-01-12 16:13:13.56	246.15	14.93	-39.0	-40.1	21.9	0.00e+00	0	27	0	1204813824	50	6495
2026-01-12 16:13:14.56	246.06	14.83	-39.0	-40.1	21.9	0.00e+00	0	27	0	1205862400	50	6490
2026-01-12 16:13:15.57	245.97	14.74	-39.0	-40.0	22.0	0.00e+00	0	27	0	1207959552	50	6462
2026-01-12 16:13:16.58	245.88	14.64	-39.1	-40.1	21.8	0.00e+00	0	27	0	1210056704	50	6531
2026-01-12 16:13:17.59	245.79	14.54	-39.0	-40.1	21.9	0.00e+00	0	27	0	1212153856	50	6494
