passes_logs/2026/01/12/R4.6S_Anadyr/R4.6S_Anadyr__20260112_235555_SUOMI_NPP_rec.log

#Pass ID: 20260112_235555_SUOMI NPP
#Satellite: SUOMI NPP
#Configuration: NPP
#almurnet v.1.7.20251203
#Start time: 2026-01-12 23:55:57

#Version: 2.2.20231116
#Station: R4.6S_Anadyr
#Location: 177.4865 lon 64.73178 lat
#TLE: 1 37849U 11061A   26012.28456845  .00000093  00000+0  65163-4 0  9999
#TLE: 2 37849  98.7807 314.3566 0002508  68.3553 291.7890 14.19524725736322

#Time	Az	El	Level	Level2	SNR	BER	BlckErr	Temp	State	Recorded	gain1	gain2
2026-01-12 23:55:57.81	147.37	0.13	-48.6	-61.1	3.5	1.52e+00	0	28	0	0	60	39964
2026-01-12 23:55:58.79	147.36	0.19	-48.8	-64.1	3.6	1.51e+00	0	29	104	0	60	57773
2026-01-12 23:55:59.77	147.35	0.25	-48.8	-64.0	3.6	1.51e+00	0	29	104	0	60	57547
2026-01-12 23:56:00.74	147.35	0.31	-49.0	-64.2	3.6	1.51e+00	0	29	104	0	60	58408
2026-01-12 23:56:01.72	147.34	0.37	-48.8	-64.0	3.6	1.51e+00	0	29	104	0	60	57570
2026-01-12 23:56:02.69	147.33	0.43	-48.9	-64.1	3.6	1.51e+00	0	29	104	0	60	57867
2026-01-12 23:56:03.67	147.33	0.49	-48.8	-64.0	3.6	1.51e+00	0	29	104	0	60	57178
2026-01-12 23:56:04.64	147.32	0.55	-48.8	-64.0	3.6	1.51e+00	0	29	104	0	60	57026
2026-01-12 23:56:05.62	147.31	0.61	-48.7	-63.9	3.6	1.51e+00	0	29	104	0	60	56784
2026-01-12 23:56:06.60	147.31	0.67	-48.6	-63.9	3.6	1.51e+00	0	29	104	0	60	56410
2026-01-12 23:56:07.57	147.30	0.72	-48.5	-63.7	3.6	1.51e+00	0	29	104	0	60	55660
2026-01-12 23:56:08.55	147.29	0.79	-48.3	-63.6	3.6	1.51e+00	0	29	104	0	60	54608
2026-01-12 23:56:09.52	147.29	0.84	-48.3	-63.5	3.6	1.51e+00	0	29	104	0	60	53908
2026-01-12 23:56:10.50	147.28	0.91	-48.1	-63.3	3.6	1.51e+00	0	29	104	0	60	52691
2026-01-12 23:56:11.47	147.27	0.97	-47.9	-63.1	3.6	1.51e+00	0	29	104	0	60	51821
2026-01-12 23:56:12.45	147.27	1.03	-47.6	-62.8	3.6	1.51e+00	0	29	104	0	60	49963
2026-01-12 23:56:13.43	147.26	1.09	-46.7	-62.0	3.6	1.51e+00	0	29	104	0	60	45677
2026-01-12 23:56:14.41	147.25	1.15	-46.8	-62.1	3.6	1.51e+00	0	29	104	0	60	45838
2026-01-12 23:56:15.38	147.24	1.21	-46.9	-62.0	3.6	1.51e+00	0	29	104	0	60	45642
2026-01-12 23:56:16.36	147.24	1.27	-46.8	-62.0	3.6	1.51e+00	0	29	104	0	60	45654
2026-01-12 23:56:17.34	147.23	1.33	-46.8	-62.0	3.6	1.51e+00	0	29	104	0	60	45419
2026-01-12 23:56:18.32	147.22	1.39	-46.8	-62.0	3.6	1.51e+00	0	29	104	0	60	45299
2026-01-12 23:56:19.29	147.22	1.45	-46.8	-61.9	3.6	1.51e+00	0	29	104	0	60	45088
2026-01-12 23:56:20.27	147.21	1.52	-46.8	-61.9	3.6	1.51e+00	0	29	104	0	60	44933
2026-01-12 23:56:21.26	147.20	1.58	-46.8	-61.9	3.6	1.51e+00	0	29	104	0	60	44759
2026-01-12 23:56:22.23	147.19	1.64	-46.8	-61.9	3.6	1.51e+00	0	29	104	0	60	44985
2026-01-12 23:56:23.21	147.19	1.70	-46.8	-61.8	3.6	1.51e+00	0	29	104	0	60	44460
2026-01-12 23:56:24.18	147.18	1.76	-46.8	-61.8	3.6	1.51e+00	0	29	104	0	60	44290
2026-01-12 23:56:25.16	147.17	1.83	-46.8	-61.7	3.6	1.51e+00	0	29	104	0	60	44022
2026-01-12 23:56:26.14	147.16	1.89	-46.8	-61.7	3.6	1.51e+00	0	29	104	0	60	44063
2026-01-12 23:56:27.12	147.16	1.95	-46.8	-61.7	3.6	1.51e+00	0	29	104	0	60	44045
2026-01-12 23:56:28.09	147.15	2.01	-46.8	-61.7	3.6	1.51e+00	0	29	104	0	60	43987
2026-01-12 23:56:29.07	147.14	2.08	-46.8	-61.7	3.6	1.51e+00	0	29	104	0	60	44175
2026-01-12 23:56:30.05	147.13	2.14	-46.8	-61.8	3.6	1.51e+00	0	29	104	0	60	44315
2026-01-12 23:56:31.03	147.12	2.20	-46.8	-61.7	3.6	1.51e+00	0	29	104	0	60	44181
2026-01-12 23:56:32.00	147.12	2.27	-46.8	-61.7	3.6	1.51e+00	0	29	104	0	60	44202
2026-01-12 23:56:32.98	147.11	2.33	-46.8	-61.8	3.6	1.51e+00	0	29	104	0	60	44441
2026-01-12 23:56:33.96	147.10	2.39	-46.8	-61.8	3.6	1.51e+00	0	29	104	0	60	44555
2026-01-12 23:56:34.94	147.09	2.46	-46.8	-61.8	3.6	1.51e+00	0	29	104	0	60	44620
2026-01-12 23:56:35.91	147.08	2.52	-46.8	-61.8	3.6	1.51e+00	0	29	104	0	60	44681
2026-01-12 23:56:36.89	147.08	2.58	-46.8	-61.8	3.6	1.51e+00	0	29	104	0	60	44543
2026-01-12 23:56:37.87	147.07	2.65	-46.8	-61.9	3.6	1.51e+00	0	30	104	0	60	44854
2026-01-12 23:56:38.85	147.06	2.71	-46.8	-61.9	3.6	1.51e+00	0	29	104	0	60	45044
2026-01-12 23:56:39.82	147.05	2.78	-46.8	-61.9	3.6	1.51e+00	0	30	104	0	60	44895
2026-01-12 23:56:40.80	147.04	2.84	-46.8	-62.0	3.6	1.51e+00	0	30	104	0	60	45431
2026-01-12 23:56:41.78	147.03	2.91	-46.8	-62.1	3.6	1.51e+00	0	29	104	0	60	45800
2026-01-12 23:56:42.76	147.03	2.97	-46.8	-62.0	3.6	1.51e+00	0	29	104	0	60	45401
2026-01-12 23:56:43.74	147.02	3.04	-46.8	-61.6	3.5	1.51e+00	0	29	104	0	60	43689
2026-01-12 23:56:44.72	147.01	3.10	-46.7	-60.6	3.6	1.51e+00	0	29	104	0	60	38537
2026-01-12 23:56:45.70	147.00	3.17	-46.7	-59.1	3.7	1.51e+00	0	29	104	0	60	32612
2026-01-12 23:56:46.67	146.99	3.23	-46.5	-57.0	4.6	1.41e+00	91	29	0	0	60	25539
2026-01-12 23:56:47.65	146.98	3.30	-46.3	-54.3	5.7	5.14e-01	48	30	0	1048576	60	18672
2026-01-12 23:56:48.63	146.97	3.36	-46.0	-52.9	7.2	1.85e-01	93	30	0	3145728	60	15884
2026-01-12 23:56:49.60	146.97	3.43	-45.6	-51.4	9.0	7.23e-02	0	29	0	5242880	60	13379
2026-01-12 23:56:50.58	146.96	3.50	-45.1	-50.0	10.6	1.56e-02	91	29	0	7340032	60	11462
2026-01-12 23:56:51.56	146.95	3.56	-44.8	-49.1	11.7	1.13e-03	0	29	0	8388608	60	10282
2026-01-12 23:56:52.53	146.94	3.63	-44.3	-48.0	12.8	1.33e-04	91	29	0	10485760	60	9038
2026-01-12 23:56:53.51	146.93	3.69	-43.9	-47.2	13.6	2.97e-05	0	29	0	12582912	60	8306
2026-01-12 23:56:54.49	146.92	3.76	-43.7	-46.9	14.1	8.30e-06	92	29	0	14680064	60	7999
2026-01-12 23:56:55.47	146.91	3.83	-43.5	-46.5	14.3	7.00e-07	0	29	0	15728640	60	7641
2026-01-12 23:56:56.44	146.90	3.90	-44.9	-49.9	9.9	0.00e+00	92	29	0	17825792	60	11289
2026-01-12 23:56:57.42	146.89	3.96	-46.5	-55.1	5.4	1.51e+00	0	30	104	17825792	60	20535
2026-01-12 23:56:58.40	146.88	4.03	-41.4	-43.3	16.0	8.70e-01	0	29	104	17825792	56	6686
2026-01-12 23:56:59.38	146.88	4.10	-45.9	-53.8	8.3	1.27e+00	92	29	104	17825792	60	17697
2026-01-12 23:57:00.35	146.87	4.16	-42.2	-44.1	17.2	2.35e-02	0	29	0	17825792	60	5806
2026-01-12 23:57:01.33	146.86	4.23	-45.2	-50.0	10.5	1.14e-01	92	29	0	19922944	60	11381
2026-01-12 23:57:02.31	146.85	4.30	-41.9	-44.0	16.9	0.00e+00	0	30	0	22020096	58	6404
2026-01-12 23:57:03.28	146.84	4.37	-41.6	-43.5	17.6	0.00e+00	94	30	0	24117248	56	6800
2026-01-12 23:57:04.26	146.83	4.44	-41.5	-43.3	17.8	0.00e+00	0	29	0	25165824	56	6654
2026-01-12 23:57:05.24	146.82	4.51	-41.4	-43.2	18.1	0.00e+00	93	29	0	27262976	56	6552
2026-01-12 23:57:06.21	146.81	4.57	-41.0	-42.7	18.5	0.00e+00	26	30	0	29360128	56	6192
2026-01-12 23:57:07.19	146.80	4.64	-40.9	-42.5	18.6	0.00e+00	29	29	0	31457280	56	6087
2026-01-12 23:57:08.17	146.79	4.71	-40.7	-42.4	18.7	0.00e+00	93	29	0	32505856	56	5971
2026-01-12 23:57:09.14	146.78	4.78	-40.4	-42.0	19.1	0.00e+00	0	29	0	34603008	54	6397
2026-01-12 23:57:10.12	146.77	4.85	-40.8	-42.4	18.8	0.00e+00	44	29	0	36700160	54	6695
2026-01-12 23:57:11.10	146.76	4.92	-40.7	-42.2	19.0	0.00e+00	0	30	0	37748736	54	6587
2026-01-12 23:57:12.08	146.75	4.99	-40.3	-41.8	19.4	0.00e+00	82	29	0	39845888	54	6302
2026-01-12 23:57:13.05	146.74	5.06	-40.4	-41.9	19.3	0.00e+00	0	29	0	41943040	54	6357
2026-01-12 23:57:14.03	146.73	5.13	-40.4	-41.9	19.4	0.00e+00	91	29	0	44040192	54	6347
2026-01-12 23:57:15.01	146.72	5.20	-40.5	-42.0	19.2	0.00e+00	0	29	0	45088768	54	6439
2026-01-12 23:57:15.98	146.71	5.27	-40.3	-41.8	19.3	0.00e+00	92	29	0	47185920	54	6274
2026-01-12 23:57:16.96	146.70	5.34	-40.3	-41.8	19.4	0.00e+00	60	29	0	49283072	54	6273
2026-01-12 23:57:17.93	146.69	5.41	-40.2	-41.7	19.6	0.00e+00	0	29	0	51380224	54	6224
2026-01-12 23:57:18.91	146.68	5.48	-40.1	-41.5	19.7	0.00e+00	93	29	0	52428800	54	6093
2026-01-12 23:57:19.89	146.67	5.56	-39.9	-41.3	19.9	0.00e+00	0	30	0	54525952	54	5941
2026-01-12 23:57:20.87	146.66	5.63	-39.8	-41.2	20.0	0.00e+00	91	29	0	56623104	54	5871
2026-01-12 23:57:21.84	146.64	5.70	-39.8	-41.1	20.1	0.00e+00	0	29	0	58720256	54	5803
2026-01-12 23:57:22.82	146.63	5.77	-39.9	-41.2	20.0	0.00e+00	91	30	0	59768832	52	6611
2026-01-12 23:57:23.80	146.62	5.84	-39.8	-41.2	20.1	0.00e+00	0	29	0	61865984	52	6585
2026-01-12 23:57:24.77	146.61	5.91	-39.8	-41.1	20.2	0.00e+00	93	29	0	63963136	52	6512
2026-01-12 23:57:25.75	146.60	5.99	-39.9	-41.2	20.1	0.00e+00	31	29	0	66060288	52	6606
2026-01-12 23:57:26.73	146.59	6.06	-39.9	-41.3	20.1	0.00e+00	91	29	0	67108864	52	6637
2026-01-12 23:57:27.71	146.58	6.13	-39.9	-41.3	20.0	0.00e+00	92	29	0	69206016	52	6666
2026-01-12 23:57:28.68	146.57	6.21	-39.9	-41.4	19.9	0.00e+00	0	29	0	71303168	52	6730
2026-01-12 23:57:29.66	146.56	6.28	-39.9	-41.4	19.9	0.00e+00	92	30	0	73400320	52	6701
2026-01-12 23:57:30.64	146.54	6.35	-40.1	-41.6	19.8	0.00e+00	0	29	0	74448896	52	6893
2026-01-12 23:57:31.62	146.53	6.43	-40.0	-41.4	20.0	0.00e+00	94	29	0	76546048	52	6765
2026-01-12 23:57:32.59	146.52	6.50	-40.1	-41.6	19.7	0.00e+00	0	29	0	78643200	52	6908
2026-01-12 23:57:33.57	146.51	6.57	-40.0	-41.5	19.8	0.00e+00	92	30	0	80740352	52	6815
2026-01-12 23:57:34.55	146.50	6.65	-40.0	-41.5	19.9	0.00e+00	0	30	0	81788928	52	6775
2026-01-12 23:57:35.53	146.49	6.72	-39.9	-41.3	20.1	0.00e+00	91	29	0	83886080	52	6686
2026-01-12 23:57:36.50	146.47	6.80	-39.8	-41.2	20.2	0.00e+00	91	29	0	85983232	52	6588
2026-01-12 23:57:37.48	146.46	6.87	-39.8	-41.2	20.2	0.00e+00	92	29	0	88080384	52	6545
2026-01-12 23:57:38.46	146.45	6.95	-39.7	-41.0	20.3	0.00e+00	90	29	0	89128960	52	6447
2026-01-12 23:57:39.44	146.44	7.02	-39.4	-40.7	20.6	0.00e+00	0	30	0	91226112	52	6200
2026-01-12 23:57:40.42	146.43	7.10	-39.4	-40.6	20.7	0.00e+00	93	30	0	93323264	52	6173
2026-01-12 23:57:41.39	146.41	7.18	-39.2	-40.4	20.9	0.00e+00	0	29	0	95420416	52	5980
2026-01-12 23:57:42.37	146.40	7.25	-39.2	-40.4	20.9	0.00e+00	93	29	0	96468992	52	6017
2026-01-12 23:57:43.35	146.39	7.33	-39.1	-40.3	21.0	0.00e+00	0	30	0	98566144	52	5921
2026-01-12 23:57:44.32	146.38	7.40	-39.3	-40.5	20.9	0.00e+00	93	29	0	100663296	52	6036
2026-01-12 23:57:45.30	146.37	7.48	-39.1	-40.3	21.1	0.00e+00	0	29	0	102760448	52	5900
2026-01-12 23:57:46.28	146.35	7.56	-39.4	-40.6	20.8	0.00e+00	90	29	0	103809024	52	6115
2026-01-12 23:57:47.26	146.34	7.64	-39.3	-40.5	20.8	0.00e+00	89	29	0	105906176	52	6066
2026-01-12 23:57:48.23	146.33	7.71	-39.2	-40.4	21.0	0.00e+00	0	29	0	108003328	52	5992
2026-01-12 23:57:49.21	146.31	7.79	-39.2	-40.4	20.9	0.00e+00	92	29	0	110100480	52	6029
2026-01-12 23:57:50.19	146.30	7.87	-39.4	-40.6	20.8	0.00e+00	0	29	0	111149056	52	6150
2026-01-12 23:57:51.17	146.29	7.95	-39.3	-40.6	20.8	0.00e+00	91	29	0	113246208	52	6118
2026-01-12 23:57:52.14	146.28	8.03	-39.3	-40.5	20.9	0.00e+00	32	29	0	115343360	52	6074
2026-01-12 23:57:53.12	146.26	8.10	-39.4	-40.6	20.8	0.00e+00	88	29	0	117440512	52	6135
2026-01-12 23:57:54.10	146.25	8.18	-39.3	-40.6	20.8	0.00e+00	33	29	0	118489088	52	6109
2026-01-12 23:57:55.08	146.24	8.26	-39.3	-40.6	21.0	0.00e+00	92	29	0	120586240	52	6120
2026-01-12 23:57:56.06	146.22	8.34	-39.1	-40.3	21.0	0.00e+00	92	29	0	122683392	52	5948
2026-01-12 23:57:57.03	146.21	8.42	-39.0	-40.2	21.3	0.00e+00	92	29	0	124780544	52	5833
2026-01-12 23:57:58.01	146.19	8.50	-38.9	-40.1	21.3	0.00e+00	91	30	0	125829120	52	5796
2026-01-12 23:57:58.99	146.18	8.58	-38.9	-40.1	21.4	0.00e+00	0	29	0	127926272	52	5773
2026-01-12 23:57:59.96	146.17	8.66	-38.6	-39.7	21.6	0.00e+00	93	29	0	130023424	50	6231
2026-01-12 23:58:00.94	146.15	8.74	-38.8	-39.9	21.6	0.00e+00	0	30	0	132120576	50	6322
2026-01-12 23:58:01.92	146.14	8.82	-38.6	-39.7	21.7	0.00e+00	91	30	0	133169152	50	6221
2026-01-12 23:58:02.89	146.12	8.90	-38.6	-39.7	21.7	0.00e+00	0	30	0	135266304	50	6226
2026-01-12 23:58:03.88	146.11	8.99	-38.5	-39.6	21.7	0.00e+00	91	29	0	137363456	50	6149
2026-01-12 23:58:04.85	146.10	9.07	-38.5	-39.6	21.7	0.00e+00	33	29	0	139460608	50	6121
2026-01-12 23:58:05.83	146.08	9.15	-38.5	-39.5	21.8	0.00e+00	93	29	0	140509184	50	6092
2026-01-12 23:58:06.80	146.07	9.23	-38.6	-39.6	21.8	0.00e+00	89	29	0	142606336	50	6169
2026-01-12 23:58:07.78	146.05	9.32	-38.5	-39.6	21.8	0.00e+00	0	29	0	144703488	50	6145
2026-01-12 23:58:08.76	146.04	9.40	-38.7	-39.8	21.6	0.00e+00	93	29	0	146800640	50	6269
2026-01-12 23:58:09.73	146.02	9.48	-38.6	-39.7	21.7	0.00e+00	0	29	0	147849216	50	6197
2026-01-12 23:58:10.71	146.01	9.56	-38.6	-39.7	21.7	0.00e+00	80	29	0	149946368	50	6189
2026-01-12 23:58:11.69	145.99	9.65	-38.7	-39.8	21.6	0.00e+00	0	29	0	152043520	50	6260
2026-01-12 23:58:12.66	145.98	9.73	-38.7	-39.8	21.6	0.00e+00	91	29	0	154140672	50	6264
2026-01-12 23:58:13.64	145.96	9.82	-38.7	-39.8	21.6	0.00e+00	0	29	0	155189248	50	6268
2026-01-12 23:58:14.62	145.95	9.90	-38.6	-39.7	21.7	0.00e+00	92	29	0	157286400	50	6199
2026-01-12 23:58:15.59	145.93	9.98	-38.8	-40.0	21.5	0.00e+00	76	29	0	159383552	50	6402
2026-01-12 23:58:16.57	145.92	10.07	-38.5	-39.6	21.8	0.00e+00	92	29	0	161480704	50	6110
2026-01-12 23:58:17.55	145.90	10.16	-38.5	-39.5	21.9	0.00e+00	91	29	0	162529280	50	6086
2026-01-12 23:58:18.53	145.89	10.24	-38.2	-39.2	22.2	0.00e+00	0	29	0	164626432	50	5867
2026-01-12 23:58:19.51	145.87	10.33	-38.1	-39.2	22.2	0.00e+00	91	29	0	166723584	50	5840
2026-01-12 23:58:20.48	145.85	10.41	-38.1	-39.2	22.2	0.00e+00	0	29	0	168820736	50	5834
2026-01-12 23:58:21.46	145.84	10.50	-38.0	-39.0	22.3	0.00e+00	90	29	0	169869312	50	5729
2026-01-12 23:58:22.44	145.82	10.59	-38.0	-39.0	22.4	0.00e+00	0	29	0	171966464	50	5705
2026-01-12 23:58:23.42	145.81	10.67	-38.1	-39.1	22.3	0.00e+00	93	29	0	174063616	50	5813
2026-01-12 23:58:24.39	145.79	10.76	-37.9	-38.9	22.4	0.00e+00	29	29	0	176160768	50	5686
2026-01-12 23:58:25.37	145.77	10.85	-37.9	-38.9	22.4	0.00e+00	90	29	0	177209344	50	5695
2026-01-12 23:58:26.35	145.76	10.94	-38.0	-39.1	22.3	0.00e+00	93	29	0	179306496	50	5777
2026-01-12 23:58:27.32	145.74	11.03	-38.0	-39.0	22.3	0.00e+00	93	29	0	181403648	50	5752
2026-01-12 23:58:28.30	145.72	11.11	-38.0	-39.0	22.4	0.00e+00	89	29	0	183500800	50	5712
2026-01-12 23:58:29.28	145.70	11.20	-38.0	-39.0	22.4	0.00e+00	0	29	0	184549376	50	5712
2026-01-12 23:58:30.26	145.69	11.29	-37.8	-38.8	22.5	0.00e+00	92	29	0	186646528	50	5599
2026-01-12 23:58:31.23	145.67	11.38	-37.9	-38.8	22.4	0.00e+00	0	29	0	188743680	50	5630
2026-01-12 23:58:32.21	145.65	11.47	-37.7	-38.7	22.6	0.00e+00	91	29	0	190840832	48	6234
2026-01-12 23:58:33.19	145.64	11.56	-37.8	-38.8	22.6	0.00e+00	0	29	0	191889408	48	6274
2026-01-12 23:58:34.16	145.62	11.65	-37.8	-38.8	22.4	0.00e+00	92	29	0	193986560	48	6313
2026-01-12 23:58:35.14	145.60	11.74	-37.4	-38.4	22.9	0.00e+00	92	29	0	196083712	48	5965
2026-01-12 23:58:36.11	145.58	11.84	-37.4	-38.3	22.9	0.00e+00	91	29	0	197132288	48	5955
2026-01-12 23:58:37.09	145.56	11.93	-37.3	-38.2	23.0	0.00e+00	91	29	0	199229440	48	5872
2026-01-12 23:58:38.07	145.55	12.02	-37.3	-38.2	23.0	0.00e+00	0	29	0	201326592	48	5850
2026-01-12 23:58:39.05	145.53	12.11	-37.4	-38.3	22.9	0.00e+00	92	29	0	203423744	48	5950
2026-01-12 23:58:40.02	145.51	12.20	-37.1	-38.0	23.1	0.00e+00	0	29	0	204472320	48	5757
2026-01-12 23:58:41.00	145.49	12.30	-37.1	-38.0	23.2	0.00e+00	93	29	0	206569472	48	5757
2026-01-12 23:58:41.98	145.47	12.39	-37.2	-38.1	23.0	0.00e+00	0	29	0	208666624	48	5823
2026-01-12 23:58:42.95	145.45	12.48	-37.2	-38.1	23.0	0.00e+00	93	29	0	210763776	48	5789
2026-01-12 23:58:43.93	145.43	12.58	-37.3	-38.3	23.0	0.00e+00	0	29	0	211812352	48	5903
2026-01-12 23:58:44.90	145.42	12.67	-37.2	-38.1	23.0	0.00e+00	90	29	0	213909504	48	5818
2026-01-12 23:58:45.87	145.40	12.77	-37.0	-38.0	23.3	0.00e+00	92	29	0	216006656	48	5696
2026-01-12 23:58:46.85	145.38	12.86	-37.3	-38.2	23.1	0.00e+00	66	29	0	218103808	48	5882
2026-01-12 23:58:47.83	145.36	12.96	-37.0	-37.9	23.3	0.00e+00	91	29	0	219152384	48	5661
2026-01-12 23:58:48.81	145.34	13.05	-37.0	-37.9	23.3	0.00e+00	0	29	0	221249536	48	5639
2026-01-12 23:58:49.78	145.32	13.15	-37.0	-37.9	23.3	0.00e+00	84	29	0	223346688	48	5672
2026-01-12 23:58:50.75	145.30	13.25	-36.9	-37.8	23.4	0.00e+00	0	29	0	225443840	48	5572
2026-01-12 23:58:51.73	145.28	13.34	-36.8	-37.7	23.4	0.00e+00	92	29	0	226492416	48	5534
2026-01-12 23:58:52.71	145.26	13.44	-37.0	-37.9	23.3	0.00e+00	0	29	0	228589568	48	5656
2026-01-12 23:58:53.69	145.24	13.54	-36.9	-37.8	23.5	0.00e+00	92	29	0	230686720	48	5581
2026-01-12 23:58:54.67	145.22	13.64	-36.8	-37.7	23.6	0.00e+00	0	29	0	232783872	46	6188
2026-01-12 23:58:55.64	145.20	13.74	-36.7	-37.6	23.6	0.00e+00	94	29	0	233832448	46	6135
2026-01-12 23:58:56.62	145.17	13.83	-36.7	-37.5	23.6	0.00e+00	91	29	0	235929600	46	6096
2026-01-12 23:58:57.60	145.15	13.93	-36.8	-37.7	23.5	0.00e+00	0	29	0	238026752	46	6211
2026-01-12 23:58:58.58	145.13	14.03	-36.5	-37.4	23.8	0.00e+00	92	29	0	240123904	46	5989
2026-01-12 23:58:59.56	145.11	14.14	-36.5	-37.4	23.8	0.00e+00	0	29	0	241172480	46	5974
2026-01-12 23:59:00.53	145.09	14.24	-36.7	-37.6	23.6	0.00e+00	92	29	0	243269632	46	6129
2026-01-12 23:59:01.51	145.07	14.34	-36.5	-37.4	23.7	0.00e+00	0	29	0	245366784	46	6001
2026-01-12 23:59:02.49	145.05	14.44	-36.6	-37.4	23.7	0.00e+00	91	29	0	247463936	46	6014
2026-01-12 23:59:03.46	145.02	14.54	-36.7	-37.6	23.5	0.00e+00	0	29	0	248512512	46	6105
2026-01-12 23:59:04.44	145.00	14.64	-36.7	-37.5	23.7	0.00e+00	91	29	0	250609664	46	6093
2026-01-12 23:59:05.41	144.98	14.74	-36.7	-37.5	23.7	0.00e+00	29	29	0	252706816	46	6099
2026-01-12 23:59:06.39	144.96	14.85	-36.7	-37.5	23.6	0.00e+00	90	29	0	254803968	46	6087
2026-01-12 23:59:07.37	144.93	14.95	-36.6	-37.5	23.6	0.00e+00	92	29	0	255852544	46	6082
2026-01-12 23:59:08.35	144.91	15.06	-36.5	-37.4	23.4	0.00e+00	0	29	0	257949696	46	5972
2026-01-12 23:59:09.33	144.89	15.16	-36.4	-37.3	23.9	0.00e+00	90	29	0	260046848	46	5914
2026-01-12 23:59:10.30	144.86	15.27	-36.5	-37.4	23.2	0.00e+00	0	29	0	262144000	46	5971
2026-01-12 23:59:11.28	144.84	15.37	-36.4	-37.3	23.8	0.00e+00	92	29	0	263192576	46	5927
2026-01-12 23:59:12.26	144.82	15.48	-36.4	-37.2	23.5	0.00e+00	0	29	0	265289728	46	5871
2026-01-12 23:59:13.23	144.79	15.58	-36.5	-37.3	23.9	0.00e+00	92	29	0	267386880	46	5928
2026-01-12 23:59:14.21	144.77	15.69	-36.4	-37.2	23.9	0.00e+00	0	29	0	269484032	46	5872
2026-01-12 23:59:15.19	144.74	15.80	-36.5	-37.4	23.8	0.00e+00	93	29	0	270532608	46	5984
2026-01-12 23:59:16.16	144.72	15.90	-36.6	-37.5	23.7	0.00e+00	61	29	0	272629760	46	6041
2026-01-12 23:59:17.14	144.69	16.01	-36.3	-37.2	23.9	0.00e+00	91	29	0	274726912	46	5849
2026-01-12 23:59:18.12	144.67	16.12	-36.1	-36.9	24.1	0.00e+00	92	29	0	276824064	46	5694
2026-01-12 23:59:19.09	144.64	16.23	-36.1	-36.9	24.1	0.00e+00	0	29	0	277872640	46	5680
2026-01-12 23:59:20.07	144.62	16.34	-36.0	-36.9	24.1	0.00e+00	87	29	0	279969792	46	5637
2026-01-12 23:59:21.05	144.59	16.45	-36.1	-36.9	24.1	0.00e+00	0	29	0	282066944	46	5678
2026-01-12 23:59:22.02	144.57	16.56	-36.0	-36.8	24.1	0.00e+00	92	29	0	284164096	46	5589
2026-01-12 23:59:23.00	144.54	16.67	-36.1	-36.9	24.2	0.00e+00	0	29	0	285212672	46	5683
2026-01-12 23:59:23.98	144.52	16.78	-36.1	-36.9	24.2	0.00e+00	91	29	0	287309824	46	5686
2026-01-12 23:59:24.95	144.49	16.90	-36.2	-37.1	24.1	0.00e+00	35	29	0	289406976	46	5788
2026-01-12 23:59:25.93	144.46	17.01	-36.1	-36.9	24.1	0.00e+00	90	29	0	291504128	46	5657
2026-01-12 23:59:26.90	144.44	17.12	-36.2	-37.1	24.0	0.00e+00	93	29	0	292552704	46	5777
2026-01-12 23:59:27.88	144.41	17.23	-36.2	-37.1	24.1	0.00e+00	0	29	0	294649856	46	5790
2026-01-12 23:59:28.86	144.38	17.35	-36.3	-37.2	24.0	0.00e+00	90	29	0	296747008	46	5864
2026-01-12 23:59:29.84	144.35	17.46	-36.5	-37.4	23.8	0.00e+00	0	29	0	298844160	46	5999
2026-01-12 23:59:30.82	144.33	17.58	-36.7	-37.6	23.7	0.00e+00	89	29	0	299892736	46	6117
2026-01-12 23:59:31.80	144.30	17.70	-36.6	-37.4	23.9	0.00e+00	0	29	0	301989888	46	6025
2026-01-12 23:59:32.77	144.27	17.81	-36.8	-37.7	23.6	0.00e+00	91	29	0	304087040	46	6181
2026-01-12 23:59:33.74	144.24	17.93	-36.8	-37.7	23.6	0.00e+00	0	29	0	306184192	46	6219
2026-01-12 23:59:34.72	144.21	18.04	-36.6	-37.5	23.8	0.00e+00	92	29	0	307232768	46	6059
2026-01-12 23:59:35.70	144.18	18.16	-36.6	-37.5	23.9	0.00e+00	92	29	0	309329920	46	6081
2026-01-12 23:59:36.67	144.16	18.28	-36.5	-37.4	23.9	0.00e+00	91	29	0	311427072	46	6000
2026-01-12 23:59:37.65	144.13	18.40	-36.5	-37.4	23.8	0.00e+00	92	29	0	313524224	46	5998
2026-01-12 23:59:38.63	144.10	18.52	-36.4	-37.2	24.0	0.00e+00	0	29	0	314572800	46	5890
2026-01-12 23:59:39.60	144.07	18.64	-36.6	-37.4	23.9	0.00e+00	90	29	0	316669952	46	6004
2026-01-12 23:59:40.58	144.04	18.76	-36.4	-37.3	24.0	0.00e+00	0	29	0	318767104	46	5919
2026-01-12 23:59:41.56	144.01	18.88	-36.6	-37.5	23.7	0.00e+00	91	29	0	320864256	46	6052
2026-01-12 23:59:42.54	143.97	19.00	-36.4	-37.2	24.0	0.00e+00	0	29	0	321912832	46	5893
2026-01-12 23:59:43.52	143.94	19.13	-36.5	-37.4	23.8	0.00e+00	92	29	0	324009984	46	5995
2026-01-12 23:59:44.50	143.91	19.25	-36.6	-37.4	23.9	0.00e+00	0	29	0	326107136	46	6025
2026-01-12 23:59:45.47	143.88	19.37	-36.5	-37.3	23.9	0.00e+00	91	29	0	327155712	46	5963
2026-01-12 23:59:46.45	143.85	19.50	-36.2	-37.1	24.1	0.00e+00	91	29	0	329252864	46	5784
2026-01-12 23:59:47.43	143.82	19.62	-36.2	-37.1	24.2	0.00e+00	85	29	0	331350016	46	5782
2026-01-12 23:59:48.41	143.78	19.75	-36.3	-37.2	24.0	0.00e+00	92	29	0	333447168	46	5836
2026-01-12 23:59:49.38	143.75	19.88	-36.4	-37.2	24.1	0.00e+00	0	29	0	335544320	46	5855
2026-01-12 23:59:50.36	143.72	20.00	-36.4	-37.3	24.0	0.00e+00	90	29	0	336592896	46	5924
2026-01-12 23:59:51.34	143.69	20.13	-36.3	-37.1	24.1	0.00e+00	0	29	0	338690048	46	5817
2026-01-12 23:59:52.32	143.65	20.26	-36.3	-37.2	24.1	0.00e+00	91	29	0	340787200	46	5836
2026-01-12 23:59:53.29	143.62	20.39	-36.6	-37.5	24.0	0.00e+00	0	29	0	342884352	46	6036
2026-01-12 23:59:54.27	143.58	20.52	-36.7	-37.5	23.9	0.00e+00	90	29	0	343932928	46	6099
2026-01-12 23:59:55.25	143.55	20.65	-36.5	-37.4	24.0	0.00e+00	37	29	0	346030080	46	5993
2026-01-12 23:59:56.22	143.51	20.78	-36.1	-36.9	24.3	0.00e+00	92	29	0	348127232	46	5650
2026-01-12 23:59:57.20	143.48	20.91	-35.9	-36.7	24.4	0.00e+00	90	29	0	350224384	46	5536
2026-01-12 23:59:58.18	143.44	21.04	-36.1	-36.9	24.3	0.00e+00	0	29	0	351272960	46	5687
2026-01-12 23:59:59.15	143.41	21.17	-36.1	-36.9	24.3	0.00e+00	92	29	0	353370112	46	5642
2026-01-13 00:00:00.13	143.37	21.31	-36.2	-37.0	24.3	0.00e+00	0	29	0	355467264	46	5727
2026-01-13 00:00:01.11	143.33	21.44	-36.3	-37.1	24.1	0.00e+00	90	29	0	356515840	46	5794
2026-01-13 00:00:02.08	143.30	21.58	-36.1	-36.9	24.5	0.00e+00	0	29	0	358612992	46	5681
2026-01-13 00:00:03.06	143.26	21.71	-36.1	-36.9	24.3	0.00e+00	92	29	0	360710144	46	5649
2026-01-13 00:00:04.04	143.22	21.85	-36.2	-37.0	24.3	0.00e+00	15	29	0	362807296	46	5732
2026-01-13 00:00:05.01	143.18	21.99	-36.2	-37.1	24.2	0.00e+00	91	29	0	363855872	46	5765
2026-01-13 00:00:05.98	143.15	22.12	-36.2	-37.1	24.2	0.00e+00	91	29	0	365953024	46	5776
2026-01-13 00:00:06.96	143.11	22.26	-36.3	-37.2	24.1	0.00e+00	91	29	0	368050176	46	5832
2026-01-13 00:00:07.94	143.07	22.40	-36.2	-37.0	24.2	0.00e+00	93	29	0	370147328	46	5748
2026-01-13 00:00:08.92	143.03	22.54	-36.5	-37.4	24.0	0.00e+00	0	29	0	371195904	46	5997
2026-01-13 00:00:09.90	142.99	22.68	-36.5	-37.4	23.9	0.00e+00	93	29	0	373293056	46	5979
2026-01-13 00:00:10.87	142.95	22.82	-36.6	-37.4	23.9	0.00e+00	0	29	0	375390208	46	6025
2026-01-13 00:00:11.86	142.91	22.97	-36.4	-37.3	24.0	0.00e+00	93	29	0	377487360	46	5938
2026-01-13 00:00:12.83	142.87	23.11	-36.4	-37.3	24.1	0.00e+00	0	29	0	378535936	46	5927
2026-01-13 00:00:13.81	142.83	23.25	-36.4	-37.3	24.1	0.00e+00	91	29	0	380633088	46	5941
2026-01-13 00:00:14.78	142.78	23.40	-36.3	-37.1	24.1	0.00e+00	36	29	0	382730240	46	5811
2026-01-13 00:00:15.76	142.74	23.54	-36.0	-36.8	24.4	0.00e+00	92	29	0	384827392	46	5625
2026-01-13 00:00:16.74	142.70	23.69	-36.1	-37.0	24.2	0.00e+00	90	29	0	385875968	46	5705
2026-01-13 00:00:17.71	142.66	23.84	-36.1	-36.9	24.3	0.00e+00	75	29	0	387973120	46	5670
2026-01-13 00:00:18.69	142.61	23.98	-36.0	-36.8	24.4	0.00e+00	87	29	0	390070272	46	5608
2026-01-13 00:00:19.67	142.57	24.13	-36.0	-36.8	24.4	0.00e+00	0	29	0	392167424	46	5592
2026-01-13 00:00:20.64	142.52	24.28	-36.1	-36.9	24.3	0.00e+00	93	29	0	393216000	46	5660
2026-01-13 00:00:21.62	142.48	24.43	-36.3	-37.1	24.2	0.00e+00	0	29	0	395313152	46	5822
2026-01-13 00:00:22.60	142.43	24.58	-36.5	-37.4	24.0	0.00e+00	91	29	0	397410304	46	5977
2026-01-13 00:00:23.57	142.39	24.74	-36.6	-37.5	23.9	0.00e+00	0	29	0	399507456	46	6093
2026-01-13 00:00:24.55	142.34	24.89	-36.7	-37.6	23.8	0.00e+00	92	29	0	400556032	46	6167
2026-01-13 00:00:25.52	142.30	25.04	-36.9	-37.8	23.7	0.00e+00	92	29	0	402653184	46	6258
2026-01-13 00:00:26.50	142.25	25.20	-36.7	-37.5	23.9	0.00e+00	90	29	0	404750336	46	6098
2026-01-13 00:00:27.48	142.20	25.35	-37.1	-38.0	23.5	0.00e+00	89	29	0	406847488	46	6397
2026-01-13 00:00:28.46	142.15	25.51	-37.2	-38.1	23.6	0.00e+00	0	29	0	407896064	46	6469
2026-01-13 00:00:29.43	142.10	25.67	-37.2	-38.1	23.4	0.00e+00	92	29	0	409993216	46	6500
2026-01-13 00:00:30.41	142.05	25.82	-37.3	-38.2	23.4	0.00e+00	0	29	0	412090368	46	6604
2026-01-13 00:00:31.38	142.00	25.98	-37.2	-38.1	23.5	0.00e+00	91	29	0	414187520	46	6502
2026-01-13 00:00:32.36	141.95	26.14	-37.3	-38.3	23.3	0.00e+00	0	29	0	415236096	46	6620
2026-01-13 00:00:33.34	141.90	26.30	-37.4	-38.3	23.3	0.00e+00	92	29	0	417333248	46	6634
2026-01-13 00:00:34.32	141.85	26.47	-37.4	-38.3	23.3	0.00e+00	37	29	0	419430400	46	6671
2026-01-13 00:00:35.29	141.80	26.63	-37.4	-38.4	23.4	0.00e+00	91	29	0	421527552	46	6698
2026-01-13 00:00:36.27	141.75	26.79	-37.7	-38.6	23.1	0.00e+00	86	29	0	422576128	46	6921
2026-01-13 00:00:37.25	141.69	26.96	-37.2	-38.1	23.4	0.00e+00	71	29	0	424673280	48	5815
2026-01-13 00:00:38.23	141.64	27.12	-38.1	-39.1	22.6	0.00e+00	90	29	0	426770432	48	6496
2026-01-13 00:00:39.20	141.59	27.29	-38.2	-39.2	22.6	0.00e+00	0	29	0	428867584	48	6600
2026-01-13 00:00:40.18	141.53	27.46	-38.2	-39.2	22.4	0.00e+00	92	29	0	429916160	48	6615
2026-01-13 00:00:41.16	141.47	27.63	-38.4	-39.5	22.5	0.00e+00	0	29	0	432013312	48	6777
2026-01-13 00:00:42.14	141.42	27.80	-38.3	-39.3	22.4	0.00e+00	90	29	0	434110464	48	6687
2026-01-13 00:00:43.12	141.36	27.97	-38.9	-39.9	22.1	0.00e+00	0	29	0	436207616	50	6389
2026-01-13 00:00:44.10	141.30	28.14	-38.8	-39.9	22.1	0.00e+00	90	29	0	437256192	50	6318
2026-01-13 00:00:45.07	141.25	28.31	-38.5	-39.5	22.6	0.00e+00	7	29	0	439353344	50	6097
2026-01-13 00:00:46.05	141.19	28.49	-38.5	-39.5	22.4	0.00e+00	91	29	0	441450496	50	6080
2026-01-13 00:00:47.03	141.13	28.66	-38.5	-39.6	22.3	0.00e+00	91	29	0	443547648	50	6133
2026-01-13 00:00:48.01	141.07	28.84	-38.0	-39.0	22.9	0.00e+00	0	29	0	444596224	50	5699
2026-01-13 00:00:48.98	141.01	29.02	-38.1	-39.1	22.7	0.00e+00	92	29	0	446693376	50	5781
2026-01-13 00:00:49.96	140.94	29.19	-38.2	-39.2	22.7	0.00e+00	0	29	0	448790528	50	5838
2026-01-13 00:00:50.93	140.88	29.37	-38.4	-39.4	22.4	0.00e+00	91	29	0	450887680	50	6014
2026-01-13 00:00:51.91	140.82	29.55	-38.7	-39.7	22.2	0.00e+00	0	29	0	451936256	50	6224
2026-01-13 00:00:52.89	140.76	29.74	-38.9	-40.0	22.0	0.00e+00	93	29	0	454033408	50	6429
2026-01-13 00:00:53.87	140.69	29.92	-39.3	-40.4	21.8	0.00e+00	9	29	0	456130560	50	6763
2026-01-13 00:00:54.84	140.63	30.10	-39.3	-40.4	21.6	0.00e+00	92	29	0	458227712	50	6764
2026-01-13 00:00:55.82	140.56	30.29	-39.1	-40.1	21.9	0.00e+00	93	29	0	459276288	50	6538
2026-01-13 00:00:56.80	140.49	30.47	-39.2	-40.3	21.6	0.00e+00	7	29	0	461373440	50	6683
2026-01-13 00:00:57.77	140.43	30.66	-39.1	-40.2	21.8	0.00e+00	93	29	0	463470592	50	6582
2026-01-13 00:00:58.75	140.36	30.85	-38.7	-39.7	22.3	0.00e+00	0	29	0	465567744	50	6195
2026-01-13 00:00:59.73	140.29	31.04	-38.8	-39.8	22.2	0.00e+00	93	29	0	466616320	50	6291
2026-01-13 00:01:00.71	140.22	31.23	-38.8	-39.9	22.1	0.00e+00	0	29	0	468713472	50	6318
2026-01-13 00:01:01.68	140.15	31.42	-39.2	-40.3	21.8	0.00e+00	93	29	0	470810624	50	6653
2026-01-13 00:01:02.66	140.07	31.61	-39.4	-40.5	21.5	0.00e+00	33	29	0	472907776	50	6792
2026-01-13 00:01:03.64	140.00	31.81	-40.1	-41.3	21.0	0.00e+00	92	29	0	473956352	52	6648
2026-01-13 00:01:04.62	139.93	32.01	-40.4	-41.6	20.7	0.00e+00	36	29	0	476053504	52	6924
2026-01-13 00:01:05.59	139.85	32.20	-40.5	-41.8	20.6	0.00e+00	93	29	0	478150656	52	7013
2026-01-13 00:01:06.57	139.78	32.40	-40.3	-41.6	20.7	0.00e+00	92	29	0	480247808	52	6865
2026-01-13 00:01:07.55	139.70	32.60	-40.7	-42.0	20.3	0.00e+00	0	29	0	481296384	52	7219
2026-01-13 00:01:08.52	139.62	32.80	-40.3	-41.6	20.7	0.00e+00	89	29	0	483393536	52	6856
2026-01-13 00:01:09.49	139.54	33.00	-39.9	-41.1	21.2	0.00e+00	0	29	0	485490688	52	6469
2026-01-13 00:01:10.47	139.46	33.20	-39.7	-40.7	21.4	0.00e+00	90	29	0	486539264	52	6230
2026-01-13 00:01:11.44	139.38	33.41	-40.1	-41.3	20.9	0.00e+00	0	29	0	488636416	52	6660
2026-01-13 00:01:12.42	139.30	33.61	-39.9	-41.1	21.2	0.00e+00	92	29	0	490733568	52	6465
2026-01-13 00:01:13.40	139.22	33.82	-40.1	-41.3	21.0	0.00e+00	0	29	0	492830720	52	6668
2026-01-13 00:01:14.38	139.14	34.03	-40.3	-41.5	20.8	0.00e+00	91	29	0	494927872	54	6088
2026-01-13 00:01:15.35	139.05	34.24	-41.1	-42.5	19.9	0.00e+00	36	29	0	495976448	54	6794
2026-01-13 00:01:16.33	138.96	34.45	-41.0	-42.4	20.0	0.00e+00	88	29	0	498073600	54	6723
2026-01-13 00:01:17.31	138.88	34.66	-40.2	-41.4	20.8	0.00e+00	90	29	0	500170752	54	6027
2026-01-13 00:01:18.28	138.79	34.88	-40.4	-41.6	20.8	0.00e+00	0	29	0	502267904	54	6146
2026-01-13 00:01:19.26	138.70	35.09	-40.2	-41.4	20.9	0.00e+00	64	29	0	503316480	54	5985
2026-01-13 00:01:20.24	138.61	35.31	-39.8	-40.9	21.3	0.00e+00	0	29	0	505413632	52	6363
2026-01-13 00:01:21.21	138.52	35.52	-39.6	-40.8	21.4	0.00e+00	92	29	0	507510784	52	6280
2026-01-13 00:01:22.19	138.42	35.74	-40.2	-41.4	21.1	0.00e+00	33	29	0	508559360	52	6731
2026-01-13 00:01:23.17	138.33	35.97	-40.5	-41.8	20.6	0.00e+00	89	29	0	510656512	52	7082
2026-01-13 00:01:24.15	138.23	36.19	-40.7	-42.0	20.4	0.00e+00	36	29	0	512753664	54	6436
2026-01-13 00:01:25.12	138.13	36.41	-40.9	-42.3	20.0	0.00e+00	89	29	0	514850816	54	6671
2026-01-13 00:01:26.10	138.03	36.64	-40.8	-42.2	20.2	0.00e+00	92	29	0	515899392	54	6544
2026-01-13 00:01:27.08	137.93	36.86	-40.8	-42.2	20.1	0.00e+00	0	29	0	517996544	54	6574
2026-01-13 00:01:28.05	137.83	37.09	-40.7	-42.1	20.6	0.00e+00	92	29	0	520093696	54	6485
2026-01-13 00:01:29.03	137.73	37.32	-40.1	-41.3	21.1	0.00e+00	0	29	0	522190848	54	5932
2026-01-13 00:01:30.01	137.62	37.55	-39.6	-40.8	21.5	0.00e+00	51	29	0	523239424	52	6252
2026-01-13 00:01:30.99	137.52	37.79	-39.5	-40.5	21.7	0.00e+00	0	29	0	525336576	52	6102
2026-01-13 00:01:31.96	137.41	38.02	-39.2	-40.3	21.8	0.00e+00	91	29	0	527433728	52	5923
2026-01-13 00:01:32.94	137.30	38.26	-39.2	-40.2	21.9	0.00e+00	0	29	0	529530880	52	5891
2026-01-13 00:01:33.92	137.19	38.49	-39.4	-40.4	21.8	0.00e+00	93	29	0	530579456	52	6002
2026-01-13 00:01:34.90	137.07	38.73	-39.1	-40.1	21.9	0.00e+00	59	29	0	532676608	52	5804
2026-01-13 00:01:35.87	136.96	38.97	-39.4	-40.5	21.6	0.00e+00	93	29	0	534773760	50	6840
2026-01-13 00:01:36.85	136.84	39.21	-39.4	-40.5	21.5	0.00e+00	90	29	0	536870912	50	6805
2026-01-13 00:01:37.83	136.73	39.46	-40.1	-41.4	20.9	0.00e+00	0	29	0	537919488	52	6694
2026-01-13 00:01:38.81	136.61	39.70	-40.4	-41.7	21.1	0.00e+00	92	29	0	540016640	52	6936
2026-01-13 00:01:39.78	136.48	39.95	-40.2	-41.4	20.9	0.00e+00	0	29	0	542113792	52	6718
2026-01-13 00:01:40.76	136.36	40.20	-40.3	-41.6	20.9	0.00e+00	93	29	0	544210944	52	6895
2026-01-13 00:01:41.73	136.24	40.45	-39.7	-40.8	21.3	0.00e+00	0	29	0	545259520	52	6311
2026-01-13 00:01:42.72	136.11	40.70	-40.0	-41.2	21.2	0.00e+00	93	29	0	547356672	52	6566
2026-01-13 00:01:43.69	135.98	40.95	-40.1	-41.3	21.0	0.00e+00	0	29	0	549453824	52	6672
2026-01-13 00:01:44.68	135.84	41.21	-39.8	-40.9	21.2	0.00e+00	93	29	0	551550976	52	6389
2026-01-13 00:01:45.65	135.71	41.46	-39.9	-41.1	21.2	0.00e+00	94	29	0	552599552	52	6465
2026-01-13 00:01:46.63	135.57	41.72	-39.3	-40.3	21.8	0.00e+00	0	29	0	554696704	52	5945
2026-01-13 00:01:47.61	135.43	41.98	-39.4	-40.5	21.7	0.00e+00	93	29	0	556793856	52	6078
2026-01-13 00:01:48.58	135.29	42.24	-39.8	-40.9	21.3	0.00e+00	0	29	0	558891008	52	6378
2026-01-13 00:01:49.56	135.15	42.50	-40.0	-41.2	21.1	0.00e+00	71	29	0	559939584	52	6574
2026-01-13 00:01:50.54	135.00	42.77	-40.2	-41.4	20.9	0.00e+00	0	29	0	562036736	52	6718
2026-01-13 00:01:51.52	134.86	43.04	-40.4	-41.7	20.4	0.00e+00	91	29	0	564133888	52	6942
2026-01-13 00:01:52.49	134.71	43.30	-40.2	-41.4	20.9	0.00e+00	0	29	0	566231040	52	6755
2026-01-13 00:01:53.47	134.55	43.57	-40.2	-41.5	20.9	0.00e+00	90	29	0	567279616	52	6790
2026-01-13 00:01:54.45	134.40	43.84	-40.0	-41.2	21.2	0.00e+00	92	29	0	569376768	52	6566
2026-01-13 00:01:55.43	134.24	44.12	-40.3	-41.6	20.8	0.00e+00	88	29	0	571473920	52	6856
2026-01-13 00:01:56.41	134.08	44.39	-40.4	-41.8	20.8	0.00e+00	93	29	0	573571072	52	7013
2026-01-13 00:01:57.38	133.91	44.67	-39.9	-41.2	21.3	0.00e+00	0	29	0	574619648	52	6579
2026-01-13 00:01:58.36	133.75	44.94	-39.7	-41.0	21.3	0.00e+00	91	29	0	576716800	52	6409
2026-01-13 00:01:59.34	133.57	45.22	-39.0	-40.1	22.0	0.00e+00	0	29	0	578813952	52	5820
2026-01-13 00:02:00.32	133.40	45.51	-38.6	-39.7	22.4	0.00e+00	92	29	0	580911104	50	6177
2026-01-13 00:02:01.29	133.23	45.79	-38.2	-39.2	22.5	0.00e+00	0	29	0	581959680	50	5844
2026-01-13 00:02:02.27	133.05	46.07	-38.6	-39.6	22.4	0.00e+00	92	29	0	584056832	50	6118
2026-01-13 00:02:03.25	132.86	46.36	-38.9	-39.9	22.1	0.00e+00	0	29	0	586153984	50	6384
2026-01-13 00:02:04.23	132.67	46.65	-38.8	-39.8	22.4	0.00e+00	93	29	0	588251136	50	6265
2026-01-13 00:02:05.20	132.49	46.93	-39.1	-40.2	21.8	0.00e+00	93	29	0	589299712	50	6603
2026-01-13 00:02:06.18	132.29	47.23	-38.3	-39.2	22.9	0.00e+00	0	29	0	591396864	50	5870
2026-01-13 00:02:07.16	132.09	47.52	-37.8	-38.8	23.0	0.00e+00	92	29	0	593494016	48	6250
2026-01-13 00:02:08.14	131.89	47.81	-37.5	-38.4	23.4	0.00e+00	0	29	0	595591168	48	6002
2026-01-13 00:02:09.11	131.69	48.11	-37.5	-38.4	23.4	0.00e+00	92	29	0	596639744	48	5975
2026-01-13 00:02:10.09	131.48	48.41	-38.1	-39.1	22.8	0.00e+00	0	29	0	598736896	48	6470
2026-01-13 00:02:11.06	131.27	48.70	-37.8	-38.7	23.0	0.00e+00	92	29	0	600834048	48	6226
2026-01-13 00:02:12.04	131.05	49.00	-38.3	-39.3	22.7	0.00e+00	0	29	0	602931200	48	6664
2026-01-13 00:02:13.02	130.83	49.31	-38.2	-39.2	22.8	0.00e+00	94	29	0	603979776	48	6566
2026-01-13 00:02:14.00	130.60	49.61	-37.7	-38.7	23.0	0.00e+00	33	29	0	606076928	48	6177
2026-01-13 00:02:14.98	130.37	49.92	-37.6	-38.6	23.2	0.00e+00	92	29	0	608174080	48	6107
2026-01-13 00:02:15.96	130.13	50.23	-37.7	-38.7	23.0	0.00e+00	93	29	0	610271232	48	6205
2026-01-13 00:02:16.93	129.89	50.53	-38.1	-39.1	22.7	0.00e+00	0	29	0	611319808	48	6509
2026-01-13 00:02:17.91	129.65	50.84	-38.1	-39.1	22.9	0.00e+00	91	29	0	613416960	48	6492
2026-01-13 00:02:18.89	129.40	51.15	-38.0	-39.0	22.8	0.00e+00	0	29	0	615514112	48	6431
2026-01-13 00:02:19.86	129.14	51.46	-37.5	-38.4	23.4	0.00e+00	92	29	0	617611264	48	6003
2026-01-13 00:02:20.84	128.88	51.78	-37.2	-38.1	23.6	0.00e+00	0	29	0	618659840	48	5792
2026-01-13 00:02:21.82	128.61	52.10	-38.1	-39.1	22.7	0.00e+00	92	29	0	620756992	48	6532
2026-01-13 00:02:22.79	128.34	52.41	-38.7	-39.8	22.4	0.00e+00	40	29	0	622854144	48	7065
2026-01-13 00:02:23.77	128.06	52.73	-37.8	-38.8	23.0	0.00e+00	94	29	0	624951296	48	6283
2026-01-13 00:02:24.75	127.77	53.05	-37.1	-38.0	23.7	0.00e+00	52	29	0	625999872	48	5700
2026-01-13 00:02:25.73	127.48	53.37	-36.8	-37.6	24.0	0.00e+00	33	29	0	628097024	48	5461
2026-01-13 00:02:26.71	127.18	53.70	-36.5	-37.3	24.1	0.00e+00	92	29	0	630194176	46	5944
2026-01-13 00:02:27.68	126.88	54.02	-37.0	-37.8	23.6	0.00e+00	0	29	0	632291328	46	6314
2026-01-13 00:02:28.66	126.57	54.34	-37.7	-38.7	23.1	0.00e+00	92	29	0	633339904	46	6950
2026-01-13 00:02:29.64	126.25	54.67	-37.8	-38.8	23.2	0.00e+00	0	29	0	635437056	48	6283
2026-01-13 00:02:30.62	125.92	55.00	-37.5	-38.4	23.3	0.00e+00	77	29	0	637534208	48	6017
2026-01-13 00:02:31.59	125.59	55.32	-37.4	-38.3	23.7	0.00e+00	0	29	0	639631360	48	5919
2026-01-13 00:02:32.57	125.24	55.65	-37.6	-38.6	23.4	0.00e+00	91	29	0	640679936	48	6130
2026-01-13 00:02:33.55	124.89	55.98	-38.0	-39.0	22.8	0.00e+00	92	29	0	642777088	48	6392
2026-01-13 00:02:34.52	124.53	56.31	-38.3	-39.3	22.6	0.00e+00	92	29	0	644874240	48	6651
2026-01-13 00:02:35.50	124.17	56.65	-38.2	-39.2	22.7	0.00e+00	92	29	0	646971392	48	6574
2026-01-13 00:02:36.48	123.79	56.98	-38.4	-39.4	22.7	0.00e+00	0	29	0	648019968	48	6720
2026-01-13 00:02:37.45	123.40	57.31	-38.5	-39.4	22.5	0.00e+00	90	29	0	650117120	50	6021
2026-01-13 00:02:38.43	123.01	57.65	-38.6	-39.6	22.3	0.00e+00	0	29	0	652214272	50	6144
2026-01-13 00:02:39.41	122.60	57.98	-38.6	-39.6	22.2	0.00e+00	92	29	0	654311424	50	6143
2026-01-13 00:02:40.38	122.19	58.31	-38.4	-39.4	22.4	0.00e+00	0	29	0	655360000	50	5997
2026-01-13 00:02:41.36	121.76	58.65	-38.2	-39.2	22.8	0.00e+00	91	29	0	657457152	50	5838
2026-01-13 00:02:42.34	121.32	58.99	-38.8	-39.8	22.2	0.00e+00	0	29	0	659554304	50	6279
2026-01-13 00:02:43.32	120.87	59.32	-38.8	-39.9	22.3	0.00e+00	89	29	0	661651456	50	6318
2026-01-13 00:02:44.30	120.41	59.66	-38.4	-39.4	22.4	0.00e+00	90	29	0	662700032	50	6033
2026-01-13 00:02:45.28	119.93	60.00	-38.0	-39.1	22.8	0.00e+00	0	28	0	664797184	50	5782
2026-01-13 00:02:46.25	119.45	60.33	-38.2	-39.2	22.6	0.00e+00	91	29	0	666894336	50	5852
2026-01-13 00:02:47.23	118.95	60.67	-38.8	-39.9	22.0	0.00e+00	0	28	0	668991488	50	6323
2026-01-13 00:02:48.21	118.44	61.01	-38.9	-40.0	22.0	0.00e+00	70	28	0	670040064	50	6425
2026-01-13 00:02:49.19	117.91	61.34	-38.7	-39.7	22.2	0.00e+00	0	29	0	672137216	50	6243
2026-01-13 00:02:50.17	117.37	61.68	-38.6	-39.6	22.5	0.00e+00	91	29	0	674234368	50	6131
2026-01-13 00:02:51.14	116.81	62.01	-37.9	-38.8	22.9	0.00e+00	0	29	0	676331520	50	5615
2026-01-13 00:02:52.12	116.24	62.34	-37.4	-38.4	23.3	0.00e+00	93	28	0	677380096	48	5978
2026-01-13 00:02:53.10	115.65	62.68	-37.5	-38.4	23.3	0.00e+00	10	29	0	679477248	48	5986
2026-01-13 00:02:54.08	115.05	63.01	-36.9	-37.7	23.9	0.00e+00	60	28	0	681574400	46	6228
2026-01-13 00:02:55.05	114.43	63.34	-36.2	-37.0	24.2	0.00e+00	69	28	0	683671552	46	5747
2026-01-13 00:02:56.03	113.79	63.67	-35.0	-35.7	25.2	0.00e+00	0	29	0	684720128	44	5545
2026-01-13 00:02:57.01	113.13	64.00	-35.2	-35.9	24.9	0.00e+00	8	29	0	686817280	44	5670
2026-01-13 00:02:57.98	112.46	64.32	-36.1	-37.0	24.3	0.00e+00	0	29	0	688914432	44	6423
2026-01-13 00:02:58.96	111.76	64.65	-36.5	-37.4	24.0	0.00e+00	93	29	0	691011584	44	6715
2026-01-13 00:02:59.93	111.05	64.97	-36.0	-36.8	24.4	0.00e+00	0	28	0	692060160	44	6275
2026-01-13 00:03:00.91	110.32	65.29	-35.7	-36.5	24.6	0.00e+00	92	29	0	694157312	44	6044
2026-01-13 00:03:01.89	109.56	65.60	-36.4	-37.3	24.0	0.00e+00	0	29	0	696254464	44	6642
2026-01-13 00:03:02.86	108.78	65.92	-37.6	-38.6	23.1	0.00e+00	92	29	0	697303040	46	6850
2026-01-13 00:03:03.84	107.98	66.23	-38.8	-39.9	22.0	0.00e+00	39	29	0	699400192	48	7124
2026-01-13 00:03:04.82	107.15	66.54	-39.8	-41.1	21.0	0.00e+00	8	29	0	701497344	50	7276
2026-01-13 00:03:05.80	106.30	66.84	-40.3	-41.6	20.6	0.00e+00	90	29	0	703594496	52	6919
2026-01-13 00:03:06.77	105.43	67.14	-41.2	-42.7	19.8	0.00e+00	0	29	0	704643072	54	6983
2026-01-13 00:03:07.75	104.53	67.44	-41.7	-43.3	18.9	0.00e+00	90	29	0	706740224	54	7508
2026-01-13 00:03:08.73	103.60	67.73	-41.5	-43.1	19.4	0.00e+00	0	29	0	708837376	56	6508
2026-01-13 00:03:09.70	102.66	68.02	-40.2	-41.4	20.9	0.00e+00	91	29	0	710934528	54	5996
2026-01-13 00:03:10.68	101.67	68.31	-40.0	-41.2	21.1	0.00e+00	0	29	0	713031680	54	5852
2026-01-13 00:03:11.66	100.66	68.58	-39.6	-40.7	21.4	0.00e+00	91	28	0	714080256	52	6215
2026-01-13 00:03:12.63	99.63	68.86	-39.1	-40.1	21.8	0.00e+00	35	28	0	716177408	52	5804
2026-01-13 00:03:13.61	98.56	69.12	-40.4	-41.7	20.6	0.00e+00	92	29	0	718274560	52	6996
2026-01-13 00:03:14.58	97.48	69.38	-40.1	-41.3	21.1	0.00e+00	93	28	0	719323136	52	6660
2026-01-13 00:03:15.56	96.35	69.64	-39.3	-40.4	21.8	0.00e+00	0	29	0	721420288	52	5982
2026-01-13 00:03:16.53	95.20	69.88	-38.4	-39.4	22.4	0.00e+00	91	28	0	723517440	50	6017
2026-01-13 00:03:17.51	94.02	70.12	-39.2	-40.4	21.5	0.00e+00	0	28	0	725614592	50	6703
2026-01-13 00:03:18.49	92.80	70.36	-39.9	-41.2	21.4	0.00e+00	90	29	0	726663168	52	6551
2026-01-13 00:03:19.46	91.56	70.58	-38.8	-39.8	21.8	0.00e+00	0	28	0	728760320	52	5618
2026-01-13 00:03:20.44	90.28	70.80	-38.9	-39.9	22.1	0.00e+00	72	28	0	730857472	50	6368
2026-01-13 00:03:21.42	88.97	71.00	-39.3	-40.4	21.5	0.00e+00	0	28	0	732954624	50	6747
2026-01-13 00:03:22.40	87.63	71.20	-39.7	-40.9	21.6	0.00e+00	91	28	0	734003200	50	7113
2026-01-13 00:03:23.37	86.27	71.39	-38.9	-40.0	22.2	0.00e+00	88	29	0	736100352	50	6392
2026-01-13 00:03:24.35	84.87	71.57	-39.0	-40.1	21.8	0.00e+00	81	29	0	738197504	50	6484
2026-01-13 00:03:25.32	83.46	71.74	-39.4	-40.6	21.6	0.00e+00	91	29	0	740294656	50	6884
2026-01-13 00:03:26.30	82.00	71.90	-39.6	-40.8	21.2	0.00e+00	0	29	0	741343232	50	7019
2026-01-13 00:03:27.28	80.52	72.04	-41.1	-42.5	19.9	0.00e+00	93	29	0	743440384	54	6796
2026-01-13 00:03:28.26	79.02	72.18	-41.7	-43.3	19.4	0.00e+00	0	29	0	745537536	54	7477
2026-01-13 00:03:29.23	77.50	72.30	-42.1	-43.8	18.8	0.00e+00	81	29	0	747634688	56	7033
2026-01-13 00:03:30.21	75.95	72.41	-41.5	-43.0	19.4	0.00e+00	0	29	0	748683264	58	5722
2026-01-13 00:03:31.18	74.40	72.51	-40.9	-42.3	20.3	0.00e+00	92	29	0	750780416	56	5909
2026-01-13 00:03:32.16	72.81	72.60	-40.0	-41.2	20.8	0.00e+00	0	29	0	752877568	54	5883
2026-01-13 00:03:33.14	71.20	72.67	-40.8	-42.2	20.0	0.00e+00	92	29	0	754974720	54	6600
2026-01-13 00:03:34.12	69.59	72.74	-41.1	-42.6	19.9	0.00e+00	91	29	0	756023296	54	6877
2026-01-13 00:03:35.09	67.97	72.78	-40.0	-41.3	20.9	0.00e+00	0	29	0	758120448	54	5924
2026-01-13 00:03:36.07	66.34	72.82	-40.0	-41.4	20.5	0.00e+00	77	28	0	760217600	54	5999
2026-01-13 00:03:37.05	64.70	72.84	-40.9	-42.4	20.2	0.00e+00	0	29	0	762314752	54	6718
2026-01-13 00:03:38.03	63.05	72.85	-39.4	-40.6	21.3	0.00e+00	91	29	0	763363328	54	5446
2026-01-13 00:03:39.01	61.41	72.84	-38.7	-39.8	22.3	0.00e+00	0	29	0	765460480	52	5567
2026-01-13 00:03:39.98	59.78	72.82	-38.1	-39.1	23.0	0.00e+00	91	29	0	767557632	48	6518
2026-01-13 00:03:40.96	58.14	72.79	-38.2	-39.1	22.7	0.00e+00	0	29	0	769654784	48	6538
2026-01-13 00:03:41.94	56.51	72.75	-37.7	-38.6	23.1	0.00e+00	90	28	0	770703360	48	6169
2026-01-13 00:03:42.91	54.91	72.69	-37.2	-38.1	23.6	0.00e+00	0	28	0	772800512	48	5820
2026-01-13 00:03:43.90	53.29	72.62	-37.3	-38.2	23.4	0.00e+00	0	28	0	774897664	48	5843
2026-01-13 00:03:44.87	51.71	72.53	-37.6	-38.5	23.0	0.00e+00	93	28	0	776994816	48	6088
2026-01-13 00:03:45.85	50.14	72.44	-38.5	-39.5	22.3	0.00e+00	0	28	0	778043392	48	6788
2026-01-13 00:03:46.83	48.58	72.33	-39.2	-40.3	21.8	0.00e+00	91	29	0	780140544	50	6648
2026-01-13 00:03:47.81	47.05	72.21	-38.1	-39.1	22.9	0.00e+00	0	28	0	782237696	50	5763
2026-01-13 00:03:48.78	45.55	72.07	-37.8	-38.6	23.3	0.00e+00	92	28	0	784334848	48	6172
2026-01-13 00:03:49.76	44.07	71.93	-38.5	-39.5	22.4	0.00e+00	0	28	0	785383424	48	6780
2026-01-13 00:03:50.74	42.61	71.77	-39.1	-40.2	21.9	0.00e+00	91	28	0	787480576	50	6552
2026-01-13 00:03:51.71	41.19	71.61	-40.0	-41.1	21.1	0.00e+00	17	28	0	789577728	52	6536
2026-01-13 00:03:52.69	39.78	71.43	-40.6	-41.9	20.5	0.00e+00	30	28	0	791674880	54	6350
2026-01-13 00:03:53.67	38.41	71.24	-39.7	-40.7	21.3	0.00e+00	90	29	0	792723456	54	5560
2026-01-13 00:03:54.65	37.06	71.05	-40.7	-42.0	20.3	0.00e+00	0	28	0	794820608	52	7208
2026-01-13 00:03:55.63	35.74	70.84	-42.8	-44.5	18.2	0.00e+00	91	28	0	796917760	58	6841
2026-01-13 00:03:56.60	34.47	70.63	-42.6	-44.3	18.8	0.00e+00	0	29	0	799014912	58	6655
2026-01-13 00:03:57.58	33.22	70.41	-42.1	-43.8	18.9	0.00e+00	55	29	0	800063488	56	7038
2026-01-13 00:03:58.56	31.99	70.17	-42.9	-44.9	17.7	0.00e+00	0	28	0	802160640	58	7140
2026-01-13 00:03:59.54	30.80	69.94	-42.0	-43.7	18.9	0.00e+00	41	28	0	804257792	58	6230
2026-01-13 00:04:00.51	29.65	69.69	-40.9	-42.3	20.1	0.00e+00	0	28	0	806354944	56	5951
2026-01-13 00:04:01.49	28.51	69.44	-42.1	-43.8	19.2	0.00e+00	91	28	0	807403520	56	7067
2026-01-13 00:04:02.47	27.41	69.18	-41.2	-42.7	19.8	0.00e+00	8	28	0	809500672	56	6218
2026-01-13 00:04:03.44	26.35	68.92	-39.8	-41.0	21.2	0.00e+00	0	29	0	811597824	54	5760
2026-01-13 00:04:04.42	25.30	68.64	-39.8	-41.0	21.7	0.00e+00	90	28	0	813694976	52	6393
2026-01-13 00:04:05.40	24.29	68.37	-38.8	-39.8	22.3	0.00e+00	0	28	0	814743552	52	5620
2026-01-13 00:04:06.38	23.30	68.08	-37.9	-38.8	22.6	0.00e+00	80	28	0	816840704	50	5597
2026-01-13 00:04:07.35	22.35	67.80	-38.7	-39.7	22.3	0.00e+00	0	28	0	818937856	48	6959
2026-01-13 00:04:08.33	21.42	67.51	-39.4	-40.5	21.5	0.00e+00	90	28	0	821035008	50	6832
2026-01-13 00:04:09.30	20.52	67.21	-38.1	-39.1	23.0	0.00e+00	0	28	0	822083584	50	5766
2026-01-13 00:04:10.28	19.64	66.91	-36.9	-37.8	23.7	0.00e+00	93	28	0	824180736	48	5585
2026-01-13 00:04:11.26	18.78	66.61	-37.7	-38.7	22.9	0.00e+00	0	28	0	826277888	48	6200
2026-01-13 00:04:12.24	17.95	66.30	-37.4	-38.3	23.6	0.00e+00	86	28	0	828375040	48	5927
2026-01-13 00:04:13.22	17.14	65.99	-36.5	-37.4	24.0	0.00e+00	34	28	0	829423616	46	5996
2026-01-13 00:04:14.20	16.36	65.67	-36.8	-37.6	24.0	0.00e+00	0	28	0	831520768	46	6159
2026-01-13 00:04:15.18	15.60	65.36	-35.8	-36.6	24.1	0.00e+00	92	28	0	833617920	46	5472
2026-01-13 00:04:16.16	14.85	65.04	-35.0	-35.7	25.2	0.00e+00	0	28	0	835715072	44	5519
2026-01-13 00:04:17.14	14.13	64.72	-35.7	-36.4	24.6	0.00e+00	93	29	0	836763648	44	6029
2026-01-13 00:04:18.12	13.43	64.39	-35.7	-36.5	24.5	0.00e+00	0	28	0	838860800	44	6060
2026-01-13 00:04:19.09	12.76	64.07	-35.8	-36.6	24.7	0.00e+00	93	28	0	840957952	44	6136
2026-01-13 00:04:20.07	12.10	63.74	-35.4	-36.1	24.9	0.00e+00	0	28	0	843055104	44	5812
2026-01-13 00:04:21.05	11.46	63.41	-36.2	-37.0	24.2	0.00e+00	51	28	0	844103680	44	6462
2026-01-13 00:04:22.03	10.83	63.08	-37.8	-38.8	23.1	0.00e+00	90	28	0	846200832	46	7035
2026-01-13 00:04:23.00	10.23	62.75	-37.2	-38.1	23.6	0.00e+00	0	29	0	848297984	48	5814
2026-01-13 00:04:23.97	9.65	62.42	-37.4	-38.3	23.3	0.00e+00	93	28	0	849346560	48	5937
2026-01-13 00:04:24.95	9.07	62.09	-38.8	-39.9	22.2	0.00e+00	0	28	0	851443712	48	7160
2026-01-13 00:04:25.93	8.51	61.76	-38.4	-39.4	22.6	0.00e+00	40	29	0	853540864	50	6012
2026-01-13 00:04:26.91	7.97	61.42	-38.9	-40.1	21.8	0.00e+00	0	28	0	855638016	50	6467
2026-01-13 00:04:27.89	7.44	61.08	-39.8	-41.1	21.1	0.00e+00	92	28	0	857735168	52	6516
2026-01-13 00:04:28.87	6.92	60.75	-39.5	-40.7	21.5	0.00e+00	0	29	0	858783744	52	6190
2026-01-13 00:04:29.85	6.42	60.41	-38.2	-39.1	22.7	0.00e+00	92	28	0	860880896	50	5822
2026-01-13 00:04:30.82	5.93	60.08	-37.9	-38.9	22.9	0.00e+00	0	28	0	862978048	50	5651
2026-01-13 00:04:31.80	5.46	59.74	-37.6	-38.5	23.3	0.00e+00	91	28	0	865075200	48	6065
2026-01-13 00:04:32.77	5.00	59.41	-37.1	-38.0	23.6	0.00e+00	91	28	0	866123776	48	5731
2026-01-13 00:04:33.75	4.55	59.07	-37.9	-38.8	23.0	0.00e+00	0	28	0	868220928	48	6292
2026-01-13 00:04:34.73	4.11	58.74	-38.5	-39.5	22.6	0.00e+00	49	28	0	870318080	48	6792
2026-01-13 00:04:35.70	3.68	58.41	-39.2	-40.3	22.1	0.00e+00	0	28	0	871366656	50	6646
2026-01-13 00:04:36.68	3.26	58.07	-38.5	-39.6	22.5	0.00e+00	45	28	0	873463808	50	6127
2026-01-13 00:04:37.65	2.86	57.74	-37.9	-38.9	23.0	0.00e+00	0	28	0	875560960	50	5642
2026-01-13 00:04:38.63	2.46	57.41	-36.5	-37.3	24.1	0.00e+00	63	28	0	877658112	46	5949
2026-01-13 00:04:39.61	2.07	57.07	-36.1	-37.0	24.4	0.00e+00	0	28	0	878706688	44	6408
2026-01-13 00:04:40.59	1.69	56.74	-35.7	-36.5	24.6	0.00e+00	86	28	0	880803840	44	6062
2026-01-13 00:04:41.57	1.32	56.41	-36.5	-37.3	23.9	0.00e+00	0	28	0	882900992	44	6670
2026-01-13 00:04:42.55	0.96	56.08	-37.7	-38.6	23.1	0.00e+00	0	28	0	884998144	46	6917
2026-01-13 00:04:43.52	0.61	55.75	-37.8	-38.8	23.2	0.00e+00	92	28	0	886046720	48	6247
2026-01-13 00:04:44.49	0.27	55.42	-37.5	-38.4	23.3	0.00e+00	0	28	0	888143872	48	6002
2026-01-13 00:04:45.47	359.93	55.09	-38.3	-39.3	22.1	0.00e+00	67	28	0	890241024	48	6692
2026-01-13 00:04:46.45	359.60	54.77	-39.1	-40.2	21.9	0.00e+00	0	28	0	892338176	50	6597
2026-01-13 00:04:47.43	359.28	54.44	-39.6	-40.7	21.3	0.00e+00	83	28	0	894435328	50	7003
2026-01-13 00:04:48.41	358.97	54.12	-39.1	-40.2	21.9	0.00e+00	0	28	0	895483904	50	6545
2026-01-13 00:04:49.39	358.66	53.79	-37.8	-38.7	23.1	0.00e+00	90	28	0	897581056	50	5543
2026-01-13 00:04:50.36	358.36	53.47	-37.2	-38.1	23.8	0.00e+00	0	28	0	899678208	46	6515
2026-01-13 00:04:51.33	358.07	53.16	-36.2	-37.0	24.3	0.00e+00	57	28	0	900726784	46	5696
2026-01-13 00:04:52.31	357.79	52.84	-36.2	-37.0	24.4	0.00e+00	0	28	0	902823936	46	5716
2026-01-13 00:04:53.29	357.51	52.52	-35.6	-36.4	24.7	0.00e+00	0	28	0	904921088	44	5991
2026-01-13 00:04:54.27	357.23	52.20	-35.3	-36.0	24.8	0.00e+00	94	28	0	907018240	44	5749
2026-01-13 00:04:55.24	356.97	51.89	-36.0	-36.7	24.4	0.00e+00	0	28	0	908066816	44	6227
2026-01-13 00:04:56.22	356.70	51.57	-37.0	-37.8	23.6	0.00e+00	39	28	0	910163968	46	6293
2026-01-13 00:04:57.20	356.44	51.26	-36.5	-37.4	24.0	0.00e+00	0	28	0	912261120	46	5976
2026-01-13 00:04:58.18	356.19	50.95	-36.0	-36.9	24.5	0.00e+00	91	28	0	914358272	46	5632
2026-01-13 00:04:59.15	355.95	50.64	-36.9	-37.8	23.8	0.00e+00	0	28	0	915406848	46	6295
2026-01-13 00:05:00.13	355.71	50.33	-38.8	-39.9	22.1	0.00e+00	91	28	0	917504000	48	7136
2026-01-13 00:05:01.11	355.47	50.03	-39.2	-40.3	21.5	0.00e+00	0	28	0	919601152	50	6642
2026-01-13 00:05:02.09	355.24	49.72	-38.9	-40.0	22.2	0.00e+00	4	28	0	921698304	50	6413
2026-01-13 00:05:03.07	355.01	49.42	-38.6	-39.6	22.4	0.00e+00	2	28	0	922746880	50	6151
2026-01-13 00:05:04.04	354.79	49.12	-39.8	-41.0	21.1	0.00e+00	0	28	0	924844032	50	7239
2026-01-13 00:05:05.02	354.57	48.82	-40.7	-42.0	20.4	0.00e+00	75	28	0	926941184	52	7239
2026-01-13 00:05:06.00	354.36	48.52	-40.3	-41.5	20.7	0.00e+00	0	28	0	929038336	54	6098
2026-01-13 00:05:06.97	354.15	48.22	-39.8	-41.0	21.0	0.00e+00	91	28	0	930086912	52	6461
2026-01-13 00:05:07.95	353.94	47.93	-41.0	-42.5	19.9	0.00e+00	0	28	0	932184064	52	7613
2026-01-13 00:05:08.93	353.74	47.63	-41.7	-43.3	19.4	0.00e+00	92	28	0	934281216	54	7468
2026-01-13 00:05:09.90	353.54	47.34	-41.8	-43.4	19.1	0.00e+00	0	28	0	936378368	56	6754
2026-01-13 00:05:10.88	353.35	47.05	-40.0	-41.2	21.1	0.00e+00	83	28	0	937426944	54	5868
2026-01-13 00:05:11.85	353.16	46.76	-39.3	-40.4	21.9	0.00e+00	66	28	0	939524096	52	5981
2026-01-13 00:05:12.82	352.97	46.48	-38.6	-39.7	22.4	0.00e+00	0	28	0	941621248	52	5506
2026-01-13 00:05:13.81	352.79	46.19	-38.8	-39.8	22.2	0.00e+00	92	28	0	943718400	50	6296
2026-01-13 00:05:14.78	352.61	45.91	-38.8	-39.8	22.4	0.00e+00	0	28	0	944766976	50	6280
2026-01-13 00:05:15.76	352.43	45.63	-39.2	-40.3	21.8	0.00e+00	77	28	0	946864128	50	6653
2026-01-13 00:05:16.74	352.26	45.34	-39.0	-40.1	22.2	0.00e+00	0	28	0	948961280	50	6489
2026-01-13 00:05:17.71	352.09	45.07	-39.6	-40.8	21.6	0.00e+00	90	28	0	951058432	50	7062
2026-01-13 00:05:18.69	351.92	44.79	-39.9	-41.1	21.1	0.00e+00	0	28	0	952107008	52	6488
2026-01-13 00:05:19.67	351.76	44.51	-40.3	-41.6	20.8	0.00e+00	90	29	0	954204160	52	6871
2026-01-13 00:05:20.64	351.60	44.24	-39.3	-40.3	21.8	0.00e+00	0	28	0	956301312	52	5955
2026-01-13 00:05:21.62	351.44	43.97	-38.4	-39.4	22.5	0.00e+00	0	28	0	958398464	50	5969
2026-01-13 00:05:22.60	351.28	43.70	-39.6	-40.7	21.6	0.00e+00	90	28	0	959447040	50	6994
2026-01-13 00:05:23.57	351.13	43.43	-40.7	-42.1	20.3	0.00e+00	0	28	0	961544192	52	7303
2026-01-13 00:05:24.55	350.98	43.16	-41.1	-42.5	19.9	0.00e+00	36	28	0	963641344	54	6816
2026-01-13 00:05:25.53	350.83	42.90	-40.2	-41.4	20.5	0.00e+00	0	28	0	965738496	54	5994
2026-01-13 00:05:26.51	350.68	42.63	-40.1	-41.3	21.0	0.00e+00	93	28	0	966787072	54	5964
2026-01-13 00:05:27.48	350.54	42.37	-40.2	-41.5	20.4	0.00e+00	0	28	0	968884224	54	6059
2026-01-13 00:05:28.46	350.40	42.11	-40.8	-42.2	20.6	0.00e+00	72	28	0	970981376	54	6552
2026-01-13 00:05:29.43	350.26	41.85	-39.8	-41.0	21.3	0.00e+00	0	28	0	973078528	54	5743
2026-01-13 00:05:30.41	350.12	41.59	-39.9	-41.1	21.1	0.00e+00	94	28	0	974127104	52	6515
2026-01-13 00:05:31.39	349.99	41.34	-39.1	-40.2	21.9	0.00e+00	0	28	0	976224256	52	5896
2026-01-13 00:05:32.36	349.86	41.09	-39.7	-41.0	21.4	0.00e+00	0	28	0	978321408	52	6393
2026-01-13 00:05:33.34	349.73	40.83	-41.4	-43.0	19.4	0.00e+00	84	28	0	980418560	54	7245
2026-01-13 00:05:34.32	349.60	40.58	-42.6	-44.6	17.5	0.00e+00	0	28	0	981467136	56	7753
2026-01-13 00:05:35.29	349.47	40.33	-44.3	-47.3	16.1	0.00e+00	32	28	0	983564288	60	8380
2026-01-13 00:05:36.27	349.35	40.09	-43.0	-45.2	17.5	0.00e+00	0	28	0	985661440	60	6558
2026-01-13 00:05:37.24	349.23	39.84	-41.9	-43.6	19.0	0.00e+00	91	28	0	987758592	58	6134
2026-01-13 00:05:38.22	349.11	39.60	-41.0	-42.4	19.6	0.00e+00	0	28	0	988807168	56	6001
2026-01-13 00:05:39.20	348.99	39.35	-40.8	-42.2	20.4	0.00e+00	90	28	0	990904320	56	5846
2026-01-13 00:05:40.18	348.87	39.11	-39.7	-40.9	21.4	0.00e+00	0	28	0	993001472	54	5646
2026-01-13 00:05:41.16	348.76	38.87	-39.9	-41.1	21.2	0.00e+00	74	28	0	995098624	52	6474
2026-01-13 00:05:42.13	348.64	38.63	-38.4	-39.4	22.6	0.00e+00	91	28	0	996147200	50	5980
2026-01-13 00:05:43.12	348.53	38.39	-37.6	-38.5	23.2	0.00e+00	0	28	0	998244352	48	6081
2026-01-13 00:05:44.09	348.42	38.16	-37.5	-38.4	23.3	0.00e+00	92	28	0	1000341504	48	6018
2026-01-13 00:05:45.07	348.31	37.92	-38.0	-39.0	22.7	0.00e+00	0	28	0	1002438656	48	6396
2026-01-13 00:05:46.06	348.21	37.69	-38.7	-39.8	22.4	0.00e+00	2	28	0	1003487232	48	7061
2026-01-13 00:05:47.03	348.10	37.46	-39.4	-40.6	21.4	0.00e+00	0	28	0	1005584384	50	6884
2026-01-13 00:05:48.01	348.00	37.23	-40.8	-42.2	20.1	0.00e+00	91	28	0	1007681536	52	7392
2026-01-13 00:05:48.99	347.90	37.00	-41.2	-42.8	19.5	0.00e+00	0	28	0	1009778688	54	7045
2026-01-13 00:05:49.97	347.80	36.77	-41.1	-42.6	19.7	0.00e+00	69	28	0	1010827264	54	6918
2026-01-13 00:05:50.94	347.70	36.55	-39.9	-41.2	21.1	0.00e+00	0	28	0	1012924416	54	5860
2026-01-13 00:05:51.92	347.60	36.33	-40.2	-41.5	20.7	0.00e+00	0	28	0	1015021568	54	6101
2026-01-13 00:05:52.89	347.50	36.11	-39.8	-41.0	21.3	0.00e+00	76	28	0	1017118720	54	5743
2026-01-13 00:05:53.87	347.41	35.89	-39.9	-41.1	21.2	0.00e+00	0	28	0	1018167296	52	6528
2026-01-13 00:05:54.85	347.32	35.67	-40.8	-42.2	20.1	0.00e+00	35	28	0	1020264448	52	7371
2026-01-13 00:05:55.83	347.22	35.45	-41.0	-42.4	19.9	0.00e+00	0	28	0	1022361600	54	6739
2026-01-13 00:05:56.81	347.13	35.23	-41.0	-42.5	19.8	0.00e+00	90	28	0	1024458752	54	6779
2026-01-13 00:05:57.78	347.04	35.02	-40.8	-42.2	19.9	0.00e+00	0	28	0	1025507328	54	6593
2026-01-13 00:05:58.76	346.95	34.80	-41.3	-42.8	19.6	0.00e+00	91	28	0	1027604480	54	7034
2026-01-13 00:05:59.74	346.87	34.59	-40.9	-42.3	20.1	0.00e+00	0	28	0	1029701632	54	6680
2026-01-13 00:06:00.71	346.78	34.38	-40.7	-42.1	20.5	0.00e+00	0	28	0	1030750208	54	6492
2026-01-13 00:06:01.69	346.70	34.17	-39.8	-41.0	21.1	0.00e+00	13	28	0	1032847360	54	5720
2026-01-13 00:06:02.67	346.61	33.96	-39.5	-40.6	21.8	0.00e+00	0	28	0	1034944512	52	6142
2026-01-13 00:06:03.65	346.53	33.75	-38.9	-39.9	22.3	0.00e+00	62	28	0	1037041664	52	5684
2026-01-13 00:06:04.62	346.45	33.55	-38.6	-39.6	22.5	0.00e+00	0	28	0	1038090240	50	6112
2026-01-13 00:06:05.60	346.37	33.35	-38.6	-39.6	22.4	0.00e+00	68	28	0	1040187392	50	6119
2026-01-13 00:06:06.57	346.29	33.14	-38.7	-39.7	22.4	0.00e+00	0	28	0	1042284544	50	6206
2026-01-13 00:06:07.55	346.21	32.94	-38.3	-39.2	22.4	0.00e+00	90	28	0	1044381696	50	5882
2026-01-13 00:06:08.53	346.13	32.74	-38.7	-39.8	22.2	0.00e+00	0	28	0	1046478848	50	6246
2026-01-13 00:06:09.51	346.05	32.54	-39.3	-40.4	21.7	0.00e+00	69	28	0	1047527424	50	6723
2026-01-13 00:06:10.48	345.98	32.35	-39.3	-40.4	21.7	0.00e+00	31	28	0	1049624576	50	6728
2026-01-13 00:06:11.46	345.91	32.15	-39.9	-41.0	21.2	0.00e+00	0	28	0	1051721728	52	6429
2026-01-13 00:06:12.44	345.83	31.95	-40.9	-42.2	20.3	0.00e+00	89	28	0	1052770304	52	7375
2026-01-13 00:06:13.41	345.76	31.76	-41.1	-42.5	19.7	0.00e+00	0	28	0	1054867456	54	6822
2026-01-13 00:06:14.39	345.69	31.57	-41.7	-43.2	19.2	0.00e+00	29	28	0	1056964608	54	7384
2026-01-13 00:06:15.36	345.62	31.38	-42.1	-43.7	18.9	0.00e+00	0	28	0	1059061760	56	6937
2026-01-13 00:06:16.34	345.55	31.18	-41.9	-43.5	19.0	0.00e+00	91	28	0	1060110336	56	6795
2026-01-13 00:06:17.32	345.48	30.99	-41.2	-42.6	19.9	0.00e+00	0	28	0	1062207488	56	6110
2026-01-13 00:06:18.30	345.41	30.81	-40.8	-42.1	20.5	0.00e+00	0	28	0	1064304640	54	6518
2026-01-13 00:06:19.27	345.34	30.62	-39.3	-40.4	21.8	0.00e+00	0	28	0	1066401792	52	5976
2026-01-13 00:06:20.25	345.27	30.43	-39.1	-40.1	21.9	0.00e+00	0	28	0	1067450368	52	5824
2026-01-13 00:06:21.23	345.21	30.25	-38.9	-39.9	22.1	0.00e+00	60	28	0	1069547520	52	5661
2026-01-13 00:06:22.20	345.14	30.07	-38.5	-39.5	22.4	0.00e+00	0	28	0	1071644672	50	6064
2026-01-13 00:06:23.18	345.08	29.88	-38.5	-39.5	22.5	0.00e+00	77	28	0	1073741824	50	6052
2026-01-13 00:06:24.15	345.02	29.70	-38.9	-39.9	22.5	0.00e+00	0	28	0	1074790400	50	6328
2026-01-13 00:06:25.13	344.95	29.52	-38.6	-39.6	22.2	0.00e+00	92	28	0	1076887552	50	6159
2026-01-13 00:06:26.11	344.89	29.34	-38.8	-39.8	22.0	0.00e+00	0	28	0	1078984704	50	6292
2026-01-13 00:06:27.09	344.83	29.17	-38.8	-39.8	22.1	0.00e+00	3	28	0	1081081856	50	6284
2026-01-13 00:06:28.06	344.77	28.99	-38.6	-39.6	22.1	0.00e+00	0	28	0	1082130432	50	6151
2026-01-13 00:06:29.04	344.71	28.81	-38.2	-39.2	22.6	0.00e+00	0	28	0	1084227584	50	5863
2026-01-13 00:06:30.01	344.65	28.64	-38.3	-39.3	22.6	0.00e+00	1	28	0	1086324736	50	5902
2026-01-13 00:06:30.99	344.59	28.47	-38.1	-39.0	22.8	0.00e+00	0	28	0	1088421888	50	5750
2026-01-13 00:06:31.97	344.53	28.29	-38.2	-39.2	22.8	0.00e+00	36	28	0	1089470464	50	5865
2026-01-13 00:06:32.94	344.48	28.12	-38.2	-39.2	22.7	0.00e+00	0	28	0	1091567616	50	5831
2026-01-13 00:06:33.91	344.42	27.95	-38.0	-39.0	22.8	0.00e+00	91	28	0	1093664768	50	5735
2026-01-13 00:06:34.89	344.36	27.78	-38.1	-39.1	22.5	0.00e+00	0	28	0	1095761920	50	5814
2026-01-13 00:06:35.87	344.31	27.61	-38.7	-39.7	22.1	0.00e+00	91	28	0	1096810496	50	6222
2026-01-13 00:06:36.84	344.25	27.45	-39.0	-40.1	21.9	0.00e+00	0	28	0	1098907648	50	6470
2026-01-13 00:06:37.82	344.20	27.28	-39.4	-40.5	21.5	0.00e+00	0	28	0	1101004800	50	6826
2026-01-13 00:06:38.80	344.15	27.11	-39.8	-41.0	21.2	0.00e+00	0	28	0	1103101952	52	6447
2026-01-13 00:06:39.77	344.09	26.95	-39.9	-41.1	21.1	0.00e+00	0	28	0	1104150528	52	6534
2026-01-13 00:06:40.75	344.04	26.79	-39.4	-40.6	21.6	0.00e+00	6	28	0	1106247680	52	6124
2026-01-13 00:06:41.73	343.99	26.62	-39.3	-40.4	21.7	0.00e+00	0	28	0	1108344832	52	5999
2026-01-13 00:06:42.71	343.94	26.46	-38.5	-39.6	22.4	0.00e+00	29	28	0	1110441984	50	6111
2026-01-13 00:06:43.69	343.89	26.30	-38.2	-39.2	22.7	0.00e+00	0	28	0	1111490560	50	5842
2026-01-13 00:06:44.67	343.84	26.14	-37.8	-38.8	23.1	0.00e+00	72	28	0	1113587712	50	5579
2026-01-13 00:06:45.65	343.79	25.98	-37.5	-38.4	23.2	0.00e+00	0	28	0	1115684864	48	6000
2026-01-13 00:06:46.63	343.74	25.82	-37.2	-38.1	23.5	0.00e+00	0	28	0	1117782016	48	5795
2026-01-13 00:06:47.61	343.69	25.66	-37.4	-38.3	23.4	0.00e+00	0	28	0	1118830592	48	5936
2026-01-13 00:06:48.58	343.64	25.51	-37.6	-38.5	23.2	0.00e+00	0	28	0	1120927744	48	6090
2026-01-13 00:06:49.55	343.60	25.35	-37.6	-38.5	23.2	0.00e+00	0	28	0	1123024896	48	6098
2026-01-13 00:06:50.53	343.55	25.20	-37.7	-38.7	23.0	0.00e+00	0	28	0	1125122048	48	6184
2026-01-13 00:06:51.51	343.50	25.05	-37.9	-38.8	22.8	0.00e+00	28	28	0	1126170624	48	6300
2026-01-13 00:06:52.48	343.46	24.89	-37.5	-38.5	23.2	0.00e+00	0	28	0	1128267776	48	6044
2026-01-13 00:06:53.45	343.41	24.74	-37.6	-38.6	23.0	0.00e+00	18	28	0	1130364928	48	6104
2026-01-13 00:06:54.43	343.37	24.59	-37.8	-38.7	22.9	0.00e+00	0	28	0	1132462080	48	6227
2026-01-13 00:06:55.41	343.32	24.44	-37.8	-38.7	23.0	0.00e+00	90	28	0	1133510656	48	6206
2026-01-13 00:06:56.39	343.28	24.29	-37.5	-38.4	23.2	0.00e+00	0	28	0	1135607808	48	6023
2026-01-13 00:06:57.36	343.23	24.14	-37.7	-38.7	23.0	0.00e+00	0	28	0	1137704960	48	6201
2026-01-13 00:06:58.34	343.19	24.00	-37.6	-38.5	23.1	0.00e+00	0	28	0	1139802112	48	6063
2026-01-13 00:06:59.32	343.15	23.85	-37.7	-38.6	23.0	0.00e+00	0	28	0	1140850688	48	6137
2026-01-13 00:07:00.30	343.10	23.70	-37.7	-38.6	23.1	0.00e+00	34	28	0	1142947840	48	6142
2026-01-13 00:07:01.27	343.06	23.56	-37.7	-38.6	23.0	0.00e+00	0	28	0	1145044992	48	6152
2026-01-13 00:07:02.25	343.02	23.41	-37.8	-38.8	23.0	0.00e+00	68	28	0	1147142144	48	6261
2026-01-13 00:07:03.24	342.98	23.27	-37.9	-38.8	23.0	0.00e+00	0	28	0	1148190720	48	6289
2026-01-13 00:07:04.22	342.94	23.12	-37.9	-38.9	22.9	0.00e+00	91	28	0	1150287872	48	6346
2026-01-13 00:07:05.19	342.90	22.98	-38.3	-39.2	22.5	0.00e+00	0	28	0	1152385024	48	6615
2026-01-13 00:07:06.17	342.86	22.84	-38.5	-39.5	22.3	0.00e+00	68	28	0	1154482176	48	6821
2026-01-13 00:07:07.14	342.82	22.70	-38.5	-39.5	22.3	0.00e+00	29	28	0	1155530752	48	6797
