passes_logs/2026/01/12/R4.6S_Anadyr/R4.6S_Anadyr__20260112_115031_NOAA_21_JPSS-2_rec.log

#Pass ID: 20260112_115031_NOAA 21 (JPSS-2)
#Satellite: NOAA 21 (JPSS-2)
#Configuration: NOAA-21
#almurnet v.1.7.20251203
#Start time: 2026-01-12 11:50:38

#Version: 2.2.20231116
#Station: R4.6S_Anadyr
#Location: 177.4865 lon 64.73178 lat
#TLE: 1 54234U 22150A   26011.55893233  .00000075  00000+0  56634-4 0  9995
#TLE: 2 54234  98.7494 312.5004 0000755 313.1908  46.9205 14.19534095164321

#Time	Az	El	Level	Level2	SNR	BER	BlckErr	Temp	State	Recorded	gain1	gain2
2026-01-12 11:50:38.00	20.36	0.28	-48.7	-49.7	5.5	0.00e+00	0	25	0	0	60	37288
2026-01-12 11:50:39.00	20.45	0.32	-48.8	-61.6	3.5	1.52e+00	0	27	104	0	60	42272
2026-01-12 11:50:40.01	20.54	0.36	-48.5	-61.4	3.5	1.51e+00	0	27	104	0	60	41013
2026-01-12 11:50:41.02	20.63	0.41	-48.6	-61.4	3.5	1.52e+00	0	27	104	0	60	41346
2026-01-12 11:50:42.03	20.73	0.45	-48.7	-61.6	3.5	1.52e+00	0	27	104	0	60	42121
2026-01-12 11:50:43.04	20.82	0.50	-48.4	-61.4	3.5	1.52e+00	0	27	104	0	60	41194
2026-01-12 11:50:44.05	20.91	0.54	-48.5	-61.4	3.5	1.52e+00	0	27	104	0	60	41132
2026-01-12 11:50:45.06	21.00	0.58	-48.5	-61.3	3.6	1.52e+00	0	27	104	0	60	40838
2026-01-12 11:50:46.07	21.09	0.63	-48.1	-61.0	3.5	1.52e+00	0	27	104	0	60	39436
2026-01-12 11:50:47.08	21.18	0.67	-47.9	-60.8	3.5	1.52e+00	0	27	104	0	60	38545
2026-01-12 11:50:48.09	21.28	0.71	-47.9	-60.7	3.5	1.52e+00	0	27	104	0	60	37886
2026-01-12 11:50:49.10	21.37	0.76	-47.7	-60.5	3.5	1.52e+00	0	27	104	0	60	37221
2026-01-12 11:50:50.11	21.46	0.80	-47.3	-60.1	3.5	1.52e+00	0	27	104	0	60	35683
2026-01-12 11:50:51.12	21.56	0.84	-46.9	-59.7	3.5	1.52e+00	0	27	104	0	60	33826
2026-01-12 11:50:52.13	21.65	0.89	-46.9	-59.7	3.5	1.52e+00	0	27	104	0	60	33729
2026-01-12 11:50:53.14	21.74	0.93	-46.8	-59.6	3.5	1.52e+00	0	27	104	0	60	33636
2026-01-12 11:50:54.14	21.84	0.98	-47.0	-59.7	3.5	1.52e+00	0	27	104	0	60	34031
2026-01-12 11:50:55.15	21.93	1.02	-47.0	-59.8	3.5	1.52e+00	0	27	104	0	60	34199
2026-01-12 11:50:56.16	22.03	1.06	-46.8	-59.6	3.5	1.51e+00	0	27	104	0	60	33500
2026-01-12 11:50:57.17	22.12	1.11	-46.8	-59.6	3.5	1.51e+00	0	27	104	0	60	33541
2026-01-12 11:50:58.18	22.22	1.15	-47.1	-59.9	3.5	1.52e+00	0	27	104	0	60	34516
2026-01-12 11:50:59.19	22.31	1.19	-46.9	-59.7	3.5	1.52e+00	0	27	104	0	60	33988
2026-01-12 11:51:00.20	22.41	1.24	-46.8	-59.6	3.5	1.52e+00	0	28	104	0	60	33705
2026-01-12 11:51:01.21	22.50	1.28	-46.8	-59.6	3.5	1.52e+00	0	28	104	0	60	33515
2026-01-12 11:51:02.22	22.60	1.33	-47.0	-59.8	3.5	1.52e+00	0	28	104	0	60	34432
2026-01-12 11:51:03.23	22.70	1.37	-46.9	-59.6	3.5	1.52e+00	0	28	104	0	60	33517
2026-01-12 11:51:04.24	22.79	1.41	-46.8	-59.6	3.5	1.52e+00	0	28	104	0	60	33481
2026-01-12 11:51:05.25	22.89	1.46	-46.9	-59.7	3.5	1.52e+00	0	28	104	0	60	33869
2026-01-12 11:51:06.26	22.99	1.50	-47.0	-59.7	3.5	1.52e+00	0	28	104	0	60	34077
2026-01-12 11:51:07.26	23.08	1.54	-46.8	-59.6	3.5	1.52e+00	0	28	104	0	60	33503
2026-01-12 11:51:08.28	23.18	1.59	-46.8	-59.5	3.5	1.52e+00	0	28	104	0	60	33312
2026-01-12 11:51:09.29	23.28	1.63	-46.9	-59.6	3.5	1.52e+00	0	28	104	0	60	33638
2026-01-12 11:51:10.30	23.38	1.68	-47.0	-59.8	3.5	1.51e+00	0	28	104	0	60	34117
2026-01-12 11:51:11.31	23.48	1.72	-46.9	-59.6	3.5	1.52e+00	0	28	104	0	60	33600
2026-01-12 11:51:12.32	23.58	1.76	-46.8	-59.6	3.5	1.51e+00	0	28	104	0	60	33469
2026-01-12 11:51:13.32	23.68	1.81	-46.8	-59.6	3.5	1.52e+00	0	28	104	0	60	33591
2026-01-12 11:51:14.33	23.78	1.85	-47.0	-59.8	3.5	1.52e+00	0	28	104	0	60	34182
2026-01-12 11:51:15.34	23.88	1.89	-47.1	-59.9	3.5	1.51e+00	0	28	104	0	60	34777
2026-01-12 11:51:16.35	23.98	1.94	-46.9	-59.7	3.5	1.52e+00	0	28	104	0	60	33813
2026-01-12 11:51:17.36	24.08	1.98	-46.7	-59.5	3.5	1.52e+00	0	28	104	0	60	33279
2026-01-12 11:51:18.37	24.18	2.03	-46.9	-59.7	3.5	1.52e+00	0	28	104	0	60	33794
2026-01-12 11:51:19.38	24.28	2.07	-47.0	-59.7	3.5	1.52e+00	0	28	104	0	60	34047
2026-01-12 11:51:20.39	24.38	2.11	-47.0	-59.7	3.5	1.52e+00	0	28	104	0	60	33948
2026-01-12 11:51:21.40	24.48	2.16	-46.9	-59.5	3.5	1.52e+00	0	28	104	0	60	33237
2026-01-12 11:51:22.41	24.58	2.20	-46.9	-59.6	3.5	1.52e+00	0	28	104	0	60	33555
2026-01-12 11:51:23.42	24.68	2.24	-46.8	-59.5	3.5	1.52e+00	0	28	104	0	60	33326
2026-01-12 11:51:24.43	24.79	2.29	-46.9	-59.7	3.5	1.52e+00	0	28	104	0	60	34037
2026-01-12 11:51:25.44	24.89	2.33	-46.8	-59.5	3.5	1.52e+00	0	28	104	0	60	33317
2026-01-12 11:51:26.45	24.99	2.38	-46.8	-59.6	3.5	1.51e+00	0	28	104	0	60	33480
2026-01-12 11:51:27.45	25.09	2.42	-46.8	-59.5	3.5	1.52e+00	0	28	104	0	60	33087
2026-01-12 11:51:28.46	25.20	2.46	-46.7	-59.0	3.5	1.52e+00	0	28	104	0	60	31343
2026-01-12 11:51:29.47	25.30	2.51	-46.7	-58.4	3.5	1.51e+00	0	28	104	0	60	29034
2026-01-12 11:51:30.48	25.41	2.55	-47.0	-58.8	3.5	1.52e+00	0	28	104	0	60	30652
2026-01-12 11:51:31.49	25.51	2.59	-46.8	-58.4	3.5	1.52e+00	0	28	104	0	60	29312
2026-01-12 11:51:32.50	25.62	2.64	-46.5	-56.4	4.2	1.50e+00	0	28	104	0	60	23121
2026-01-12 11:51:33.51	25.72	2.68	-45.2	-49.6	8.8	1.63e-01	0	28	0	2097152	60	10650
2026-01-12 11:51:34.52	25.83	2.72	-44.1	-47.3	12.0	1.88e-03	0	28	0	5242880	60	8144
2026-01-12 11:51:35.53	25.93	2.77	-42.7	-45.2	14.1	5.30e-06	0	28	0	8388608	58	7154
2026-01-12 11:51:36.54	26.04	2.81	-40.3	-42.0	17.3	0.00e+00	0	28	0	11534336	56	5539
2026-01-12 11:51:37.55	26.14	2.86	-39.7	-41.2	18.0	0.00e+00	0	28	0	14680064	52	6355
2026-01-12 11:51:38.56	26.25	2.90	-39.6	-41.1	17.8	0.00e+00	0	28	0	17825792	52	6314
2026-01-12 11:51:39.57	26.36	2.94	-40.4	-42.0	17.0	0.00e+00	0	28	0	20971520	52	7023
2026-01-12 11:51:40.58	26.46	2.99	-41.5	-43.5	15.1	0.00e+00	0	28	0	24117248	54	7451
2026-01-12 11:51:41.59	26.57	3.03	-46.8	-56.3	3.6	0.00e+00	0	28	104	27262976	56	28968
2026-01-12 11:51:42.60	26.68	3.07	-41.8	-43.9	5.2	1.51e+00	0	28	104	27262976	60	5513
2026-01-12 11:51:43.61	26.79	3.12	-42.3	-44.7	15.2	6.17e-01	0	28	0	27262976	60	6009
2026-01-12 11:51:44.62	26.89	3.16	-39.5	-40.9	18.9	0.00e+00	0	28	0	30408704	54	5511
2026-01-12 11:51:45.63	27.00	3.21	-40.8	-42.7	13.7	0.00e+00	0	28	0	33554432	50	8521
2026-01-12 11:51:46.64	27.11	3.25	-41.5	-43.8	5.1	1.49e+00	0	28	104	33554432	60	5446
2026-01-12 11:51:47.65	27.22	3.29	-38.3	-39.9	18.5	0.00e+00	0	28	104	33554432	50	6137
2026-01-12 11:51:48.65	27.33	3.34	-38.0	-39.3	19.7	0.00e+00	0	28	0	35651584	50	5746
2026-01-12 11:51:49.66	27.44	3.38	-37.7	-38.9	19.7	0.00e+00	0	28	0	38797312	48	6203
2026-01-12 11:51:50.67	27.55	3.42	-38.5	-39.8	19.3	0.00e+00	0	28	0	41943040	48	6843
2026-01-12 11:51:51.68	27.66	3.47	-38.3	-39.6	19.6	0.00e+00	0	28	0	45088768	50	5940
2026-01-12 11:51:52.69	27.77	3.51	-38.1	-39.4	19.5	0.00e+00	0	28	0	48234496	50	5814
2026-01-12 11:51:53.70	27.88	3.55	-38.5	-39.8	19.5	0.00e+00	0	28	0	51380224	50	6072
2026-01-12 11:51:54.71	27.99	3.60	-37.9	-39.2	20.0	0.00e+00	0	28	0	54525952	50	5669
2026-01-12 11:51:55.72	28.11	3.64	-37.9	-39.1	19.9	0.00e+00	0	28	0	57671680	48	6323
2026-01-12 11:51:56.73	28.22	3.68	-37.8	-39.1	19.8	0.00e+00	0	28	0	60817408	48	6279
2026-01-12 11:51:57.74	28.33	3.73	-37.7	-38.9	20.0	0.00e+00	0	28	0	63963136	48	6172
2026-01-12 11:51:58.75	28.44	3.77	-37.8	-39.1	19.9	0.00e+00	0	28	0	67108864	48	6300
2026-01-12 11:51:59.76	28.56	3.81	-37.9	-39.2	19.8	0.00e+00	0	28	0	70254592	48	6372
2026-01-12 11:52:00.77	28.67	3.86	-37.9	-39.2	19.8	0.00e+00	0	28	0	73400320	48	6366
2026-01-12 11:52:01.78	28.78	3.90	-38.1	-39.3	19.9	0.00e+00	0	28	0	76546048	48	6461
2026-01-12 11:52:02.79	28.90	3.94	-37.8	-39.0	19.9	0.00e+00	0	28	0	79691776	48	6268
2026-01-12 11:52:03.80	29.01	3.99	-38.2	-39.4	19.8	0.00e+00	0	28	0	82837504	48	6542
2026-01-12 11:52:04.80	29.12	4.03	-37.5	-38.7	20.2	0.00e+00	0	28	0	85983232	48	6054
2026-01-12 11:52:05.82	29.24	4.07	-37.9	-39.1	20.0	0.00e+00	0	28	0	89128960	48	6332
2026-01-12 11:52:06.83	29.36	4.12	-38.2	-39.5	19.7	0.00e+00	0	28	0	92274688	48	6588
2026-01-12 11:52:07.84	29.47	4.16	-38.3	-39.5	20.0	0.00e+00	0	28	0	95420416	50	5925
2026-01-12 11:52:08.85	29.59	4.20	-38.1	-39.3	20.1	0.00e+00	0	28	0	98566144	50	5747
2026-01-12 11:52:09.86	29.70	4.25	-38.1	-39.4	19.7	0.00e+00	0	28	0	101711872	50	5797
2026-01-12 11:52:10.87	29.82	4.29	-37.9	-39.1	19.9	0.00e+00	0	28	0	104857600	50	5647
2026-01-12 11:52:11.88	29.94	4.33	-37.8	-39.0	20.0	0.00e+00	0	28	0	108003328	50	5548
2026-01-12 11:52:12.89	30.05	4.38	-37.6	-38.8	20.2	0.00e+00	0	29	0	111149056	48	6082
2026-01-12 11:52:13.90	30.17	4.42	-38.1	-39.3	19.8	0.00e+00	0	28	0	114294784	48	6474
2026-01-12 11:52:14.91	30.29	4.46	-38.1	-39.3	20.0	0.00e+00	0	28	0	117440512	48	6498
2026-01-12 11:52:15.92	30.41	4.50	-37.6	-38.7	20.3	0.00e+00	0	28	0	120586240	48	6059
2026-01-12 11:52:16.93	30.53	4.55	-37.3	-38.5	20.5	0.00e+00	0	28	0	123731968	48	5898
2026-01-12 11:52:17.94	30.64	4.59	-37.7	-38.9	20.0	0.00e+00	0	29	0	126877696	48	6190
2026-01-12 11:52:18.95	30.76	4.63	-38.0	-39.2	19.8	0.00e+00	0	28	0	130023424	48	6394
2026-01-12 11:52:19.96	30.88	4.68	-37.6	-38.8	20.2	0.00e+00	0	29	0	134217728	48	6113
2026-01-12 11:52:20.97	31.00	4.72	-37.8	-39.0	20.0	0.00e+00	0	29	0	137363456	48	6216
2026-01-12 11:52:21.98	31.12	4.76	-37.7	-38.9	20.3	0.00e+00	0	29	0	140509184	48	6137
2026-01-12 11:52:22.99	31.24	4.81	-37.5	-38.7	20.4	0.00e+00	0	29	0	142606336	48	6021
2026-01-12 11:52:24.00	31.36	4.85	-37.0	-38.1	20.9	0.00e+00	0	29	0	145752064	48	5606
2026-01-12 11:52:25.02	31.49	4.89	-37.6	-38.8	20.2	0.00e+00	0	29	0	149946368	48	6126
2026-01-12 11:52:26.02	31.61	4.93	-37.6	-38.8	20.4	0.00e+00	0	29	0	153092096	48	6125
2026-01-12 11:52:27.04	31.73	4.98	-37.2	-38.4	20.7	0.00e+00	0	29	0	156237824	48	5795
2026-01-12 11:52:28.05	31.85	5.02	-37.4	-38.6	20.2	0.00e+00	0	29	0	159383552	48	5949
2026-01-12 11:52:29.05	31.97	5.06	-37.5	-38.6	20.5	0.00e+00	0	29	0	162529280	48	5980
2026-01-12 11:52:30.06	32.10	5.10	-37.3	-38.5	20.7	0.00e+00	0	29	0	165675008	48	5887
2026-01-12 11:52:31.07	32.22	5.15	-37.4	-38.6	20.5	0.00e+00	0	29	0	168820736	48	5930
2026-01-12 11:52:32.08	32.34	5.19	-37.3	-38.4	20.7	0.00e+00	0	29	0	171966464	48	5846
2026-01-12 11:52:33.09	32.47	5.23	-37.5	-38.6	20.6	0.00e+00	0	29	0	175112192	48	5971
2026-01-12 11:52:34.10	32.59	5.27	-37.5	-38.7	20.5	0.00e+00	0	29	0	178257920	48	6032
2026-01-12 11:52:35.11	32.72	5.32	-37.8	-39.0	20.3	0.00e+00	0	29	0	181403648	48	6237
2026-01-12 11:52:36.12	32.84	5.36	-37.2	-38.3	20.7	0.00e+00	0	29	0	184549376	48	5767
2026-01-12 11:52:37.13	32.97	5.40	-37.2	-38.3	20.9	0.00e+00	0	29	0	187695104	48	5753
2026-01-12 11:52:38.14	33.09	5.44	-37.1	-38.3	20.8	0.00e+00	0	29	0	190840832	48	5749
2026-01-12 11:52:39.15	33.22	5.48	-37.0	-38.2	20.8	0.00e+00	0	29	0	193986560	48	5661
2026-01-12 11:52:40.16	33.35	5.53	-37.2	-38.3	20.8	0.00e+00	0	29	0	197132288	48	5767
2026-01-12 11:52:41.17	33.47	5.57	-37.1	-38.2	20.9	0.00e+00	0	29	0	200278016	48	5715
2026-01-12 11:52:42.18	33.60	5.61	-37.1	-38.2	20.9	0.00e+00	0	29	0	203423744	48	5700
2026-01-12 11:52:43.18	33.73	5.65	-37.3	-38.4	20.8	0.00e+00	0	29	0	206569472	48	5851
2026-01-12 11:52:44.19	33.85	5.69	-37.3	-38.4	20.8	0.00e+00	0	29	0	209715200	48	5838
2026-01-12 11:52:45.21	33.98	5.74	-37.1	-38.2	21.1	0.00e+00	0	29	0	212860928	48	5681
2026-01-12 11:52:46.22	34.11	5.78	-37.1	-38.2	21.2	0.00e+00	0	29	0	216006656	48	5713
2026-01-12 11:52:47.22	34.24	5.82	-37.1	-38.2	21.1	0.00e+00	0	29	0	219152384	48	5703
2026-01-12 11:52:48.23	34.37	5.86	-37.0	-38.0	21.2	0.00e+00	0	29	0	222298112	48	5593
2026-01-12 11:52:49.24	34.50	5.90	-37.2	-38.3	21.2	0.00e+00	0	29	0	225443840	48	5758
2026-01-12 11:52:50.25	34.63	5.95	-37.1	-38.2	21.1	0.00e+00	0	29	0	228589568	48	5674
2026-01-12 11:52:51.26	34.76	5.99	-37.1	-38.2	21.0	0.00e+00	0	29	0	231735296	48	5681
2026-01-12 11:52:52.27	34.89	6.03	-37.1	-38.2	21.0	0.00e+00	0	29	0	234881024	48	5686
2026-01-12 11:52:53.28	35.02	6.07	-37.1	-38.2	21.2	0.00e+00	0	29	0	238026752	48	5694
2026-01-12 11:52:54.29	35.15	6.11	-37.0	-38.1	21.3	0.00e+00	0	29	0	241172480	48	5611
2026-01-12 11:52:55.30	35.28	6.15	-36.9	-38.0	21.3	0.00e+00	0	29	0	244318208	48	5564
2026-01-12 11:52:56.31	35.41	6.19	-36.8	-37.9	21.3	0.00e+00	0	29	0	247463936	46	6176
2026-01-12 11:52:57.32	35.55	6.24	-37.0	-38.0	21.3	0.00e+00	0	29	0	250609664	46	6277
2026-01-12 11:52:58.33	35.68	6.28	-37.0	-38.1	21.4	0.00e+00	0	29	0	253755392	46	6307
2026-01-12 11:52:59.34	35.81	6.32	-36.8	-37.9	21.3	0.00e+00	0	29	0	256901120	46	6155
2026-01-12 11:53:00.35	35.95	6.36	-36.8	-37.9	21.5	0.00e+00	0	29	0	260046848	46	6175
2026-01-12 11:53:01.36	36.08	6.40	-36.9	-37.9	21.3	0.00e+00	0	29	0	263192576	46	6198
2026-01-12 11:53:02.37	36.21	6.44	-37.1	-38.2	21.2	0.00e+00	0	29	0	266338304	46	6385
2026-01-12 11:53:03.38	36.35	6.48	-37.4	-38.5	21.0	0.00e+00	0	29	0	269484032	46	6592
2026-01-12 11:53:04.39	36.48	6.52	-37.3	-38.4	21.2	0.00e+00	0	29	0	272629760	46	6553
2026-01-12 11:53:05.40	36.62	6.56	-36.8	-37.9	21.4	0.00e+00	0	29	0	275775488	46	6157
2026-01-12 11:53:06.41	36.75	6.60	-36.7	-37.8	21.4	0.00e+00	0	29	0	278921216	46	6102
2026-01-12 11:53:07.42	36.89	6.64	-37.1	-38.2	21.2	0.00e+00	0	29	0	282066944	46	6385
2026-01-12 11:53:08.42	37.03	6.68	-37.4	-38.5	21.3	0.00e+00	0	29	0	285212672	46	6615
2026-01-12 11:53:09.43	37.16	6.72	-36.8	-37.9	21.3	0.00e+00	0	29	0	288358400	46	6167
2026-01-12 11:53:10.44	37.30	6.76	-36.8	-37.9	21.2	0.00e+00	0	29	0	291504128	46	6143
2026-01-12 11:53:11.45	37.44	6.81	-36.9	-38.0	21.1	0.00e+00	0	29	0	294649856	46	6276
2026-01-12 11:53:12.46	37.58	6.85	-36.6	-37.7	21.5	0.00e+00	0	29	0	297795584	46	6034
2026-01-12 11:53:13.47	37.71	6.89	-36.8	-37.9	21.3	0.00e+00	0	29	0	300941312	46	6186
2026-01-12 11:53:14.48	37.85	6.93	-36.7	-37.8	21.3	0.00e+00	0	29	0	304087040	46	6113
2026-01-12 11:53:15.49	37.99	6.97	-36.9	-38.0	21.2	0.00e+00	0	29	0	307232768	46	6232
2026-01-12 11:53:16.50	38.13	7.01	-36.7	-37.8	21.5	0.00e+00	0	29	0	310378496	46	6109
2026-01-12 11:53:17.51	38.27	7.05	-36.6	-37.7	21.5	0.00e+00	0	29	0	313524224	46	6021
2026-01-12 11:53:18.52	38.41	7.09	-36.6	-37.6	21.5	0.00e+00	0	29	0	316669952	46	5990
2026-01-12 11:53:19.53	38.55	7.12	-36.6	-37.7	21.6	0.00e+00	0	29	0	319815680	46	6004
2026-01-12 11:53:20.54	38.69	7.16	-36.7	-37.8	21.5	0.00e+00	0	29	0	322961408	46	6070
2026-01-12 11:53:21.55	38.83	7.20	-36.6	-37.7	21.6	0.00e+00	0	29	0	326107136	46	6001
2026-01-12 11:53:22.56	38.97	7.24	-36.8	-37.9	21.6	0.00e+00	0	29	0	329252864	46	6176
2026-01-12 11:53:23.57	39.12	7.28	-36.4	-37.5	21.7	0.00e+00	0	29	0	332398592	46	5887
2026-01-12 11:53:24.58	39.26	7.32	-36.6	-37.7	21.8	0.00e+00	0	29	0	335544320	46	6016
2026-01-12 11:53:25.59	39.40	7.36	-36.5	-37.5	21.6	0.00e+00	0	29	0	338690048	46	5907
2026-01-12 11:53:26.60	39.54	7.40	-36.5	-37.6	21.6	0.00e+00	0	29	0	341835776	46	5936
2026-01-12 11:53:27.61	39.69	7.44	-36.5	-37.5	21.5	0.00e+00	0	29	0	344981504	46	5920
2026-01-12 11:53:28.62	39.83	7.48	-36.4	-37.5	21.7	0.00e+00	0	29	0	348127232	46	5876
2026-01-12 11:53:29.63	39.98	7.52	-36.3	-37.3	21.7	0.00e+00	0	29	0	351272960	46	5767
2026-01-12 11:53:30.63	40.12	7.56	-36.6	-37.7	21.6	0.00e+00	0	29	0	354418688	46	6033
2026-01-12 11:53:31.64	40.26	7.59	-36.2	-37.2	21.9	0.00e+00	0	29	0	357564416	46	5700
2026-01-12 11:53:32.65	40.41	7.63	-36.4	-37.5	21.9	0.00e+00	0	29	0	360710144	46	5873
2026-01-12 11:53:33.67	40.56	7.67	-36.2	-37.2	21.9	0.00e+00	0	29	0	363855872	46	5688
2026-01-12 11:53:34.68	40.70	7.71	-36.2	-37.3	21.9	0.00e+00	0	29	0	367001600	46	5740
2026-01-12 11:53:35.68	40.85	7.75	-36.4	-37.4	21.9	0.00e+00	0	29	0	370147328	46	5857
2026-01-12 11:53:36.69	40.99	7.79	-36.5	-37.5	22.1	0.00e+00	0	29	0	373293056	46	5894
2026-01-12 11:53:37.70	41.14	7.82	-36.3	-37.3	22.1	0.00e+00	0	29	0	376438784	46	5789
2026-01-12 11:53:38.71	41.29	7.86	-36.2	-37.2	22.1	0.00e+00	0	29	0	379584512	46	5670
2026-01-12 11:53:39.72	41.44	7.90	-36.1	-37.1	22.1	0.00e+00	0	29	0	382730240	46	5657
2026-01-12 11:53:40.73	41.58	7.94	-36.1	-37.1	22.1	0.00e+00	0	29	0	385875968	46	5611
2026-01-12 11:53:41.74	41.73	7.97	-36.3	-37.3	22.2	0.00e+00	0	29	0	389021696	46	5759
2026-01-12 11:53:42.75	41.88	8.01	-36.4	-37.4	22.1	0.00e+00	0	29	0	392167424	46	5818
2026-01-12 11:53:43.76	42.03	8.05	-36.1	-37.1	22.2	0.00e+00	0	29	0	395313152	46	5638
2026-01-12 11:53:44.77	42.18	8.09	-36.1	-37.1	22.1	0.00e+00	0	29	0	398458880	46	5605
2026-01-12 11:53:45.78	42.33	8.12	-35.9	-36.9	22.3	0.00e+00	0	29	0	401604608	46	5530
2026-01-12 11:53:46.79	42.48	8.16	-36.0	-37.0	22.3	0.00e+00	0	29	0	404750336	46	5551
2026-01-12 11:53:47.80	42.63	8.20	-36.0	-37.0	22.3	0.00e+00	0	29	0	407896064	46	5575
2026-01-12 11:53:48.81	42.78	8.23	-36.0	-37.1	22.1	0.00e+00	0	29	0	411041792	46	5599
2026-01-12 11:53:49.82	42.94	8.27	-35.8	-36.8	22.4	0.00e+00	0	29	0	414187520	46	5450
2026-01-12 11:53:50.83	43.09	8.31	-35.8	-36.8	22.2	0.00e+00	0	30	0	417333248	44	6124
2026-01-12 11:53:51.84	43.24	8.34	-35.8	-36.8	22.2	0.00e+00	0	29	0	420478976	44	6085
2026-01-12 11:53:52.85	43.39	8.38	-35.7	-36.8	22.3	0.00e+00	0	29	0	423624704	44	6069
2026-01-12 11:53:53.86	43.55	8.42	-35.8	-36.9	22.1	0.00e+00	0	29	0	426770432	44	6135
2026-01-12 11:53:54.87	43.70	8.45	-35.9	-36.9	22.2	0.00e+00	0	29	0	429916160	44	6157
2026-01-12 11:53:55.88	43.85	8.49	-35.9	-36.9	22.1	0.00e+00	0	29	0	433061888	44	6198
2026-01-12 11:53:56.89	44.01	8.53	-36.0	-37.1	22.0	0.00e+00	0	29	0	436207616	44	6306
2026-01-12 11:53:57.90	44.16	8.56	-35.9	-36.9	22.1	0.00e+00	0	29	0	439353344	44	6152
2026-01-12 11:53:58.91	44.32	8.60	-35.9	-36.9	22.2	0.00e+00	0	29	0	442499072	44	6196
2026-01-12 11:53:59.92	44.47	8.63	-35.9	-36.9	22.1	0.00e+00	0	29	0	445644800	44	6202
2026-01-12 11:54:00.93	44.63	8.67	-36.0	-37.0	22.1	0.00e+00	0	29	0	448790528	44	6263
2026-01-12 11:54:01.94	44.78	8.70	-36.0	-37.0	22.0	0.00e+00	0	29	0	451936256	44	6251
2026-01-12 11:54:02.95	44.94	8.74	-36.0	-37.1	22.0	0.00e+00	0	29	0	455081984	44	6292
2026-01-12 11:54:03.96	45.10	8.77	-35.8	-36.8	22.3	0.00e+00	0	29	0	458227712	44	6066
2026-01-12 11:54:04.97	45.25	8.81	-35.8	-36.8	22.3	0.00e+00	0	29	0	461373440	44	6098
2026-01-12 11:54:05.98	45.41	8.84	-35.8	-36.8	22.3	0.00e+00	0	29	0	464519168	44	6123
2026-01-12 11:54:06.99	45.57	8.88	-35.7	-36.7	22.3	0.00e+00	0	29	0	467664896	44	6043
2026-01-12 11:54:08.00	45.73	8.91	-35.8	-36.8	22.3	0.00e+00	0	30	0	470810624	44	6101
2026-01-12 11:54:09.01	45.88	8.95	-35.7	-36.7	22.3	0.00e+00	0	29	0	475004928	44	6062
2026-01-12 11:54:10.02	46.04	8.98	-35.9	-36.9	22.2	0.00e+00	0	29	0	478150656	44	6168
2026-01-12 11:54:11.02	46.20	9.01	-35.7	-36.7	22.3	0.00e+00	0	29	0	481296384	44	6062
2026-01-12 11:54:12.03	46.36	9.05	-35.8	-36.8	22.2	0.00e+00	0	29	0	483393536	44	6124
2026-01-12 11:54:13.03	46.52	9.08	-35.8	-36.8	22.3	0.00e+00	0	29	0	486539264	44	6102
2026-01-12 11:54:14.05	46.68	9.11	-35.8	-36.8	22.2	0.00e+00	0	29	0	489684992	44	6119
2026-01-12 11:54:15.05	46.84	9.15	-35.8	-36.9	22.2	0.00e+00	0	30	0	492830720	44	6143
2026-01-12 11:54:16.06	47.00	9.18	-35.8	-36.8	22.2	0.00e+00	0	30	0	497025024	44	6118
2026-01-12 11:54:17.07	47.16	9.21	-35.8	-36.8	22.3	0.00e+00	0	30	0	500170752	44	6083
2026-01-12 11:54:18.08	47.32	9.25	-35.6	-36.6	22.5	0.00e+00	0	30	0	503316480	44	5960
2026-01-12 11:54:19.10	47.49	9.28	-35.6	-36.6	22.5	0.00e+00	0	29	0	505413632	44	5946
2026-01-12 11:54:20.10	47.65	9.31	-35.7	-36.7	22.5	0.00e+00	0	30	0	508559360	44	5995
2026-01-12 11:54:21.11	47.81	9.34	-35.8	-36.8	22.3	0.00e+00	0	30	0	512753664	44	6103
2026-01-12 11:54:22.12	47.97	9.38	-35.8	-36.8	22.3	0.00e+00	0	30	0	515899392	44	6094
2026-01-12 11:54:23.13	48.14	9.41	-36.0	-37.0	22.0	0.00e+00	0	30	0	519045120	44	6250
2026-01-12 11:54:24.14	48.30	9.44	-35.8	-36.9	22.2	0.00e+00	0	30	0	522190848	44	6153
2026-01-12 11:54:25.15	48.47	9.47	-36.0	-37.0	22.1	0.00e+00	0	30	0	525336576	44	6218
2026-01-12 11:54:26.16	48.63	9.50	-35.9	-37.0	22.1	0.00e+00	0	30	0	528482304	44	6223
2026-01-12 11:54:27.17	48.80	9.54	-35.9	-37.0	22.1	0.00e+00	0	30	0	531628032	44	6228
2026-01-12 11:54:28.18	48.96	9.57	-35.8	-36.8	22.2	0.00e+00	0	30	0	534773760	44	6131
2026-01-12 11:54:29.19	49.13	9.60	-35.9	-37.0	22.1	0.00e+00	0	30	0	537919488	44	6230
2026-01-12 11:54:30.20	49.29	9.63	-36.0	-37.0	22.1	0.00e+00	0	30	0	541065216	44	6273
2026-01-12 11:54:31.21	49.46	9.66	-36.0	-37.0	22.2	0.00e+00	0	30	0	544210944	44	6250
2026-01-12 11:54:32.22	49.63	9.69	-35.9	-36.9	22.3	0.00e+00	0	30	0	547356672	44	6156
2026-01-12 11:54:33.23	49.79	9.72	-35.7	-36.7	22.4	0.00e+00	0	30	0	550502400	44	6032
2026-01-12 11:54:34.24	49.96	9.75	-35.7	-36.7	22.4	0.00e+00	0	30	0	553648128	44	6032
2026-01-12 11:54:35.25	50.13	9.78	-35.6	-36.6	22.5	0.00e+00	0	30	0	556793856	44	5957
2026-01-12 11:54:36.26	50.30	9.81	-35.7	-36.7	22.4	0.00e+00	0	30	0	559939584	44	6019
2026-01-12 11:54:37.27	50.46	9.84	-35.6	-36.6	22.5	0.00e+00	0	30	0	563085312	44	5994
2026-01-12 11:54:38.28	50.63	9.87	-35.7	-36.7	22.4	0.00e+00	0	30	0	566231040	44	6015
2026-01-12 11:54:39.29	50.80	9.90	-35.7	-36.7	22.4	0.00e+00	0	30	0	569376768	44	6003
2026-01-12 11:54:40.30	50.97	9.93	-35.6	-36.6	22.5	0.00e+00	0	30	0	572522496	44	5975
2026-01-12 11:54:41.30	51.14	9.96	-35.5	-36.5	22.5	0.00e+00	0	30	0	575668224	44	5911
2026-01-12 11:54:42.31	51.31	9.99	-35.5	-36.5	22.6	0.00e+00	0	30	0	578813952	44	5863
2026-01-12 11:54:43.32	51.48	10.02	-35.5	-36.5	22.6	0.00e+00	0	30	0	581959680	44	5921
2026-01-12 11:54:44.33	51.65	10.05	-35.6	-36.6	22.5	0.00e+00	0	30	0	585105408	44	5946
2026-01-12 11:54:45.34	51.82	10.07	-35.6	-36.6	22.5	0.00e+00	0	30	0	588251136	44	5946
2026-01-12 11:54:46.36	51.99	10.10	-35.6	-36.6	22.5	0.00e+00	0	30	0	591396864	44	5973
2026-01-12 11:54:47.36	52.16	10.13	-35.6	-36.6	22.5	0.00e+00	0	30	0	594542592	44	5965
2026-01-12 11:54:48.37	52.34	10.16	-35.5	-36.5	22.5	0.00e+00	0	30	0	597688320	44	5899
2026-01-12 11:54:49.38	52.51	10.19	-35.7	-36.7	22.4	0.00e+00	0	30	0	600834048	44	6062
2026-01-12 11:54:50.40	52.68	10.21	-35.5	-36.6	22.5	0.00e+00	0	30	0	603979776	44	5930
2026-01-12 11:54:51.41	52.85	10.24	-35.5	-36.5	22.5	0.00e+00	0	30	0	607125504	44	5905
2026-01-12 11:54:52.41	53.03	10.27	-35.5	-36.5	22.5	0.00e+00	0	30	0	610271232	44	5893
2026-01-12 11:54:53.42	53.20	10.29	-35.6	-36.6	22.5	0.00e+00	0	30	0	613416960	44	5948
2026-01-12 11:54:54.43	53.37	10.32	-35.6	-36.6	22.4	0.00e+00	0	30	0	616562688	44	5989
2026-01-12 11:54:55.44	53.55	10.35	-35.5	-36.5	22.5	0.00e+00	0	30	0	619708416	44	5919
2026-01-12 11:54:56.46	53.72	10.37	-35.6	-36.6	22.5	0.00e+00	0	30	0	622854144	44	5932
2026-01-12 11:54:57.47	53.90	10.40	-35.6	-36.6	22.5	0.00e+00	0	30	0	625999872	44	5941
2026-01-12 11:54:58.48	54.07	10.42	-35.6	-36.6	22.5	0.00e+00	0	30	0	629145600	44	5940
2026-01-12 11:54:59.49	54.25	10.45	-35.5	-36.5	22.6	0.00e+00	0	30	0	632291328	44	5881
2026-01-12 11:55:00.50	54.42	10.48	-35.4	-36.4	22.7	0.00e+00	0	30	0	635437056	44	5799
2026-01-12 11:55:01.51	54.60	10.50	-35.5	-36.5	22.6	0.00e+00	0	30	0	638582784	44	5863
2026-01-12 11:55:02.52	54.78	10.53	-35.4	-36.4	22.7	0.00e+00	0	30	0	641728512	44	5836
2026-01-12 11:55:03.53	54.95	10.55	-35.5	-36.5	22.6	0.00e+00	0	30	0	644874240	44	5921
2026-01-12 11:55:04.54	55.13	10.57	-35.7	-36.7	22.4	0.00e+00	0	30	0	648019968	44	6017
2026-01-12 11:55:05.55	55.31	10.60	-35.7	-36.7	22.4	0.00e+00	0	30	0	651165696	44	6057
2026-01-12 11:55:06.56	55.48	10.62	-35.7	-36.7	22.4	0.00e+00	0	30	0	654311424	44	6028
2026-01-12 11:55:07.57	55.66	10.65	-35.8	-36.8	22.3	0.00e+00	0	30	0	657457152	44	6086
2026-01-12 11:55:08.58	55.84	10.67	-35.7	-36.7	22.4	0.00e+00	0	30	0	660602880	44	6033
2026-01-12 11:55:09.59	56.02	10.69	-35.7	-36.7	22.5	0.00e+00	0	30	0	663748608	44	6030
2026-01-12 11:55:10.60	56.20	10.72	-35.8	-36.8	22.4	0.00e+00	0	30	0	666894336	44	6120
2026-01-12 11:55:11.61	56.37	10.74	-35.6	-36.6	22.5	0.00e+00	0	30	0	670040064	44	5947
2026-01-12 11:55:12.62	56.55	10.76	-35.6	-36.6	22.5	0.00e+00	0	30	0	673185792	44	5969
2026-01-12 11:55:13.63	56.73	10.79	-35.4	-36.4	22.6	0.00e+00	0	30	0	676331520	44	5836
2026-01-12 11:55:14.65	56.91	10.81	-35.3	-36.3	22.7	0.00e+00	0	30	0	679477248	44	5727
2026-01-12 11:55:15.66	57.09	10.83	-35.4	-36.4	22.6	0.00e+00	0	30	0	682622976	44	5813
2026-01-12 11:55:16.67	57.27	10.85	-35.4	-36.4	22.6	0.00e+00	0	30	0	685768704	44	5851
2026-01-12 11:55:17.68	57.45	10.87	-35.6	-36.6	22.4	0.00e+00	0	30	0	688914432	44	5945
2026-01-12 11:55:18.69	57.64	10.89	-35.6	-36.6	22.4	0.00e+00	0	30	0	692060160	44	5963
2026-01-12 11:55:19.70	57.82	10.92	-35.7	-36.7	22.4	0.00e+00	0	30	0	695205888	44	6031
2026-01-12 11:55:20.71	58.00	10.94	-35.5	-36.5	22.6	0.00e+00	0	30	0	698351616	44	5922
2026-01-12 11:55:21.72	58.18	10.96	-35.5	-36.5	22.7	0.00e+00	0	30	0	701497344	44	5895
2026-01-12 11:55:22.73	58.36	10.98	-35.5	-36.5	22.6	0.00e+00	0	30	0	704643072	44	5882
2026-01-12 11:55:23.74	58.54	11.00	-35.5	-36.5	22.7	0.00e+00	0	30	0	707788800	44	5861
2026-01-12 11:55:24.75	58.72	11.02	-35.6	-36.6	22.6	0.00e+00	0	30	0	710934528	44	5963
2026-01-12 11:55:25.76	58.91	11.04	-35.7	-36.7	22.5	0.00e+00	0	30	0	714080256	44	6006
2026-01-12 11:55:26.77	59.09	11.06	-35.7	-36.7	22.4	0.00e+00	0	30	0	717225984	44	6048
2026-01-12 11:55:27.78	59.27	11.08	-35.8	-36.8	22.4	0.00e+00	0	30	0	720371712	44	6095
2026-01-12 11:55:28.79	59.45	11.10	-35.8	-36.8	22.2	0.00e+00	0	30	0	723517440	44	6096
2026-01-12 11:55:29.80	59.64	11.11	-35.9	-36.9	22.1	0.00e+00	0	30	0	726663168	44	6203
2026-01-12 11:55:30.81	59.82	11.13	-36.0	-37.1	21.9	0.00e+00	0	30	0	729808896	44	6312
2026-01-12 11:55:31.82	60.01	11.15	-35.9	-37.0	22.1	0.00e+00	0	30	0	732954624	44	6241
2026-01-12 11:55:32.83	60.19	11.17	-36.0	-37.0	22.1	0.00e+00	0	30	0	736100352	44	6269
2026-01-12 11:55:33.85	60.38	11.19	-35.6	-36.7	22.4	0.00e+00	0	30	0	739246080	44	6001
2026-01-12 11:55:34.86	60.56	11.20	-35.3	-36.3	22.7	0.00e+00	0	30	0	742391808	44	5745
2026-01-12 11:55:35.86	60.74	11.22	-35.3	-36.3	22.7	0.00e+00	0	30	0	745537536	44	5762
2026-01-12 11:55:36.87	60.93	11.24	-35.2	-36.2	22.8	0.00e+00	0	30	0	748683264	44	5662
2026-01-12 11:55:37.88	61.11	11.26	-35.2	-36.2	22.7	0.00e+00	0	30	0	751828992	44	5707
2026-01-12 11:55:38.89	61.30	11.27	-35.1	-36.0	22.9	0.00e+00	0	30	0	754974720	44	5591
2026-01-12 11:55:39.90	61.48	11.29	-35.2	-36.2	22.7	0.00e+00	0	30	0	758120448	44	5713
2026-01-12 11:55:40.91	61.67	11.30	-35.1	-36.1	22.8	0.00e+00	0	30	0	761266176	44	5603
2026-01-12 11:55:41.92	61.85	11.32	-35.2	-36.2	22.7	0.00e+00	0	30	0	764411904	44	5704
2026-01-12 11:55:42.93	62.04	11.34	-35.4	-36.4	22.7	0.00e+00	0	30	0	767557632	44	5803
2026-01-12 11:55:43.94	62.23	11.35	-35.5	-36.5	22.6	0.00e+00	0	30	0	770703360	44	5902
2026-01-12 11:55:44.95	62.41	11.37	-35.3	-36.3	22.6	0.00e+00	0	30	0	773849088	44	5791
2026-01-12 11:55:45.96	62.60	11.38	-35.6	-36.6	22.6	0.00e+00	0	30	0	776994816	44	5941
2026-01-12 11:55:46.97	62.79	11.39	-35.3	-36.3	22.8	0.00e+00	0	30	0	780140544	44	5739
2026-01-12 11:55:47.98	62.97	11.41	-35.5	-36.5	22.5	0.00e+00	0	30	0	783286272	44	5906
2026-01-12 11:55:48.99	63.16	11.42	-35.3	-36.3	22.7	0.00e+00	0	30	0	786432000	44	5758
2026-01-12 11:55:50.00	63.35	11.44	-35.3	-36.3	22.7	0.00e+00	0	30	0	789577728	44	5736
2026-01-12 11:55:51.01	63.54	11.45	-35.1	-36.1	22.8	0.00e+00	0	30	0	793772032	44	5633
2026-01-12 11:55:52.02	63.72	11.46	-35.3	-36.3	22.7	0.00e+00	0	30	0	796917760	44	5763
2026-01-12 11:55:53.03	63.91	11.48	-35.5	-36.5	22.6	0.00e+00	0	30	0	799014912	44	5876
2026-01-12 11:55:54.04	64.10	11.49	-35.5	-36.5	22.6	0.00e+00	0	30	0	802160640	44	5908
2026-01-12 11:55:55.05	64.29	11.50	-35.4	-36.4	22.7	0.00e+00	0	30	0	805306368	44	5797
2026-01-12 11:55:56.06	64.48	11.51	-35.5	-36.5	22.6	0.00e+00	0	30	0	808452096	44	5879
2026-01-12 11:55:57.06	64.66	11.52	-35.5	-36.5	22.6	0.00e+00	0	30	0	812646400	44	5907
2026-01-12 11:55:58.07	64.85	11.54	-35.4	-36.4	22.8	0.00e+00	0	30	0	815792128	44	5806
2026-01-12 11:55:59.08	65.04	11.55	-35.2	-36.2	22.9	0.00e+00	0	30	0	818937856	44	5718
2026-01-12 11:56:00.09	65.23	11.56	-35.1	-36.1	23.0	0.00e+00	0	30	0	822083584	44	5602
2026-01-12 11:56:01.10	65.42	11.57	-35.0	-36.0	23.0	0.00e+00	0	30	0	824180736	44	5538
2026-01-12 11:56:02.11	65.61	11.58	-35.0	-35.9	23.1	0.00e+00	0	30	0	828375040	44	5516
2026-01-12 11:56:03.12	65.80	11.59	-34.9	-35.9	23.1	0.00e+00	0	30	0	831520768	44	5487
2026-01-12 11:56:04.13	65.99	11.60	-34.9	-35.9	23.1	0.00e+00	0	30	0	834666496	44	5499
2026-01-12 11:56:05.14	66.18	11.61	-35.0	-35.9	23.0	0.00e+00	0	30	0	837812224	44	5525
2026-01-12 11:56:06.15	66.37	11.62	-35.0	-36.0	22.9	0.00e+00	0	30	0	840957952	44	5551
2026-01-12 11:56:07.16	66.55	11.63	-35.0	-35.9	23.0	0.00e+00	0	30	0	844103680	44	5528
2026-01-12 11:56:08.17	66.74	11.64	-34.9	-35.9	23.0	0.00e+00	0	30	0	847249408	44	5476
2026-01-12 11:56:09.18	66.93	11.64	-35.0	-36.0	22.9	0.00e+00	0	30	0	850395136	44	5551
2026-01-12 11:56:10.19	67.12	11.65	-35.0	-36.0	22.9	0.00e+00	0	30	0	853540864	44	5567
2026-01-12 11:56:11.20	67.32	11.66	-35.0	-36.0	22.9	0.00e+00	0	30	0	856686592	44	5572
2026-01-12 11:56:12.21	67.51	11.67	-34.9	-35.8	23.0	0.00e+00	0	30	0	859832320	44	5449
2026-01-12 11:56:13.22	67.70	11.67	-34.9	-35.8	23.0	0.00e+00	0	30	0	862978048	44	5460
2026-01-12 11:56:14.23	67.89	11.68	-34.9	-35.8	22.9	0.00e+00	0	30	0	866123776	44	5466
2026-01-12 11:56:15.24	68.08	11.69	-34.8	-35.8	23.0	0.00e+00	0	30	0	869269504	44	5440
2026-01-12 11:56:16.26	68.27	11.70	-35.0	-36.0	22.9	0.00e+00	0	30	0	872415232	44	5544
2026-01-12 11:56:17.26	68.46	11.70	-35.0	-36.0	22.9	0.00e+00	0	30	0	875560960	44	5539
2026-01-12 11:56:18.27	68.65	11.71	-34.9	-35.9	22.9	0.00e+00	0	30	0	878706688	44	5504
2026-01-12 11:56:19.28	68.84	11.71	-34.9	-35.9	22.9	0.00e+00	0	30	0	881852416	44	5499
2026-01-12 11:56:20.30	69.03	11.72	-35.0	-36.0	23.0	0.00e+00	0	30	0	884998144	44	5545
2026-01-12 11:56:21.30	69.22	11.72	-35.0	-35.9	22.9	0.00e+00	0	30	0	888143872	44	5524
2026-01-12 11:56:22.32	69.42	11.73	-34.9	-35.9	23.0	0.00e+00	0	30	0	891289600	44	5505
2026-01-12 11:56:23.32	69.60	11.73	-35.0	-36.0	22.9	0.00e+00	0	30	0	894435328	44	5559
2026-01-12 11:56:24.34	69.80	11.74	-34.9	-35.9	22.9	0.00e+00	0	30	0	897581056	44	5486
2026-01-12 11:56:25.35	69.99	11.74	-35.0	-36.0	22.9	0.00e+00	0	30	0	900726784	44	5578
2026-01-12 11:56:26.36	70.18	11.74	-34.9	-35.9	23.0	0.00e+00	0	30	0	903872512	44	5470
2026-01-12 11:56:27.37	70.37	11.75	-35.0	-35.9	22.9	0.00e+00	0	30	0	907018240	44	5523
2026-01-12 11:56:28.38	70.56	11.75	-34.9	-35.8	23.1	0.00e+00	0	30	0	910163968	44	5455
2026-01-12 11:56:29.39	70.76	11.75	-34.8	-35.8	23.1	0.00e+00	0	30	0	913309696	44	5408
2026-01-12 11:56:30.40	70.95	11.76	-34.8	-35.8	23.1	0.00e+00	0	30	0	916455424	44	5425
2026-01-12 11:56:31.41	71.14	11.76	-34.8	-35.8	23.0	0.00e+00	0	30	0	919601152	44	5435
2026-01-12 11:56:32.42	71.33	11.76	-34.9	-35.9	23.1	0.00e+00	0	30	0	922746880	44	5476
2026-01-12 11:56:33.43	71.52	11.76	-34.9	-35.9	23.0	0.00e+00	0	30	0	925892608	44	5486
2026-01-12 11:56:34.44	71.71	11.76	-35.0	-36.0	22.9	0.00e+00	0	30	0	929038336	44	5577
2026-01-12 11:56:35.45	71.91	11.77	-35.1	-36.1	22.9	0.00e+00	0	30	0	932184064	44	5622
2026-01-12 11:56:36.46	72.10	11.77	-35.1	-36.1	22.8	0.00e+00	0	30	0	935329792	44	5636
2026-01-12 11:56:37.47	72.29	11.77	-35.0	-36.0	23.0	0.00e+00	0	30	0	938475520	44	5543
2026-01-12 11:56:38.48	72.48	11.77	-35.0	-36.0	23.0	0.00e+00	0	30	0	941621248	44	5574
2026-01-12 11:56:39.49	72.67	11.77	-35.0	-36.0	23.0	0.00e+00	0	30	0	944766976	44	5546
2026-01-12 11:56:40.50	72.86	11.77	-34.9	-35.9	23.0	0.00e+00	0	30	0	947912704	44	5473
2026-01-12 11:56:41.51	73.06	11.77	-35.1	-36.1	22.9	0.00e+00	0	30	0	951058432	44	5602
2026-01-12 11:56:42.52	73.25	11.76	-35.1	-36.1	22.9	0.00e+00	0	30	0	954204160	44	5649
2026-01-12 11:56:43.53	73.44	11.76	-35.1	-36.0	23.0	0.00e+00	0	30	0	957349888	44	5587
2026-01-12 11:56:44.54	73.63	11.76	-35.1	-36.1	22.9	0.00e+00	0	30	0	960495616	44	5640
2026-01-12 11:56:45.55	73.82	11.76	-35.2	-36.2	22.9	0.00e+00	0	30	0	963641344	44	5675
2026-01-12 11:56:46.56	74.01	11.76	-35.0	-36.1	22.9	0.00e+00	0	30	0	966787072	44	5599
2026-01-12 11:56:47.57	74.21	11.76	-34.9	-36.0	23.0	0.00e+00	0	30	0	969932800	44	5539
2026-01-12 11:56:48.58	74.40	11.75	-35.0	-36.1	22.9	0.00e+00	0	30	0	973078528	44	5649
2026-01-12 11:56:49.59	74.59	11.75	-35.0	-36.1	22.9	0.00e+00	0	30	0	976224256	44	5637
2026-01-12 11:56:50.60	74.78	11.75	-35.1	-36.3	22.8	0.00e+00	0	30	0	979369984	44	5744
2026-01-12 11:56:51.61	74.97	11.74	-35.0	-36.1	22.8	0.00e+00	0	30	0	982515712	44	5623
2026-01-12 11:56:52.62	75.16	11.74	-35.1	-36.3	22.8	0.00e+00	0	30	0	985661440	44	5733
2026-01-12 11:56:53.63	75.35	11.74	-35.2	-36.3	22.7	0.00e+00	0	30	0	988807168	44	5786
2026-01-12 11:56:54.64	75.55	11.73	-35.2	-36.3	22.8	0.00e+00	0	30	0	991952896	44	5780
2026-01-12 11:56:55.65	75.74	11.73	-35.2	-36.3	22.8	0.00e+00	0	30	0	995098624	44	5775
2026-01-12 11:56:56.66	75.93	11.72	-35.1	-36.2	23.0	0.00e+00	0	30	0	998244352	44	5683
2026-01-12 11:56:57.67	76.12	11.72	-35.2	-36.3	22.8	0.00e+00	0	31	0	1001390080	44	5764
2026-01-12 11:56:58.68	76.31	11.71	-35.2	-36.2	22.9	0.00e+00	0	30	0	1004535808	44	5703
2026-01-12 11:56:59.69	76.50	11.71	-34.9	-36.0	23.0	0.00e+00	0	30	0	1007681536	44	5535
2026-01-12 11:57:00.70	76.69	11.70	-35.0	-36.0	23.1	0.00e+00	0	30	0	1010827264	44	5535
2026-01-12 11:57:01.71	76.88	11.69	-34.9	-35.9	23.1	0.00e+00	0	30	0	1013972992	44	5523
2026-01-12 11:57:02.72	77.07	11.69	-35.1	-36.1	22.9	0.00e+00	0	30	0	1017118720	44	5647
2026-01-12 11:57:03.73	77.27	11.68	-35.1	-36.0	23.0	0.00e+00	0	30	0	1020264448	44	5593
2026-01-12 11:57:04.74	77.46	11.67	-35.1	-36.0	23.0	0.00e+00	0	30	0	1023410176	44	5580
2026-01-12 11:57:05.75	77.65	11.66	-35.1	-36.1	22.9	0.00e+00	0	30	0	1026555904	44	5599
2026-01-12 11:57:06.76	77.84	11.66	-35.0	-36.0	23.0	0.00e+00	0	30	0	1029701632	44	5550
2026-01-12 11:57:07.77	78.03	11.65	-35.0	-36.0	23.1	0.00e+00	0	30	0	1032847360	44	5544
2026-01-12 11:57:08.78	78.22	11.64	-35.1	-36.1	22.9	0.00e+00	0	30	0	1035993088	44	5626
2026-01-12 11:57:09.79	78.41	11.63	-35.1	-36.1	22.8	0.00e+00	0	30	0	1039138816	44	5627
2026-01-12 11:57:10.80	78.60	11.62	-35.1	-36.1	22.8	0.00e+00	0	30	0	1042284544	44	5659
2026-01-12 11:57:11.81	78.79	11.61	-35.1	-36.1	22.9	0.00e+00	0	30	0	1045430272	44	5628
2026-01-12 11:57:12.82	78.98	11.60	-35.0	-36.0	22.9	0.00e+00	0	30	0	1048576000	44	5561
2026-01-12 11:57:13.83	79.17	11.60	-35.0	-35.9	23.0	0.00e+00	0	30	0	1051721728	44	5519
2026-01-12 11:57:14.84	79.36	11.59	-35.0	-35.9	23.0	0.00e+00	0	30	0	1054867456	44	5507
2026-01-12 11:57:15.85	79.55	11.58	-35.0	-35.9	23.0	0.00e+00	0	30	0	1058013184	44	5518
2026-01-12 11:57:16.86	79.74	11.56	-34.8	-35.8	23.0	0.00e+00	0	30	0	1061158912	44	5423
2026-01-12 11:57:17.87	79.93	11.55	-35.1	-36.1	22.9	0.00e+00	0	30	0	1064304640	44	5613
2026-01-12 11:57:18.89	80.12	11.54	-35.0	-36.0	22.9	0.00e+00	0	30	0	1067450368	44	5538
2026-01-12 11:57:19.90	80.31	11.53	-35.0	-36.0	22.9	0.00e+00	0	30	0	1070596096	44	5563
2026-01-12 11:57:20.91	80.49	11.52	-35.1	-36.1	22.9	0.00e+00	0	30	0	1073741824	44	5625
2026-01-12 11:57:21.91	80.68	11.51	-35.2	-36.1	22.9	0.00e+00	0	30	0	1076887552	44	5654
2026-01-12 11:57:22.93	80.87	11.50	-35.2	-36.2	22.8	0.00e+00	0	30	0	1080033280	44	5692
2026-01-12 11:57:23.94	81.06	11.48	-35.3	-36.3	22.8	0.00e+00	0	30	0	1083179008	44	5762
2026-01-12 11:57:24.95	81.25	11.47	-35.4	-36.3	22.7	0.00e+00	0	30	0	1086324736	44	5788
2026-01-12 11:57:25.95	81.43	11.46	-35.4	-36.4	22.7	0.00e+00	0	30	0	1089470464	44	5822
2026-01-12 11:57:26.96	81.62	11.44	-35.1	-36.1	22.9	0.00e+00	0	30	0	1092616192	44	5625
2026-01-12 11:57:27.97	81.81	11.43	-35.2	-36.2	22.8	0.00e+00	0	30	0	1095761920	44	5720
2026-01-12 11:57:28.98	82.00	11.42	-35.1	-36.1	22.9	0.00e+00	0	30	0	1098907648	44	5610
2026-01-12 11:57:29.99	82.19	11.40	-35.3	-36.3	22.8	0.00e+00	0	31	0	1102053376	44	5733
2026-01-12 11:57:31.00	82.37	11.39	-35.3	-36.3	22.7	0.00e+00	0	30	0	1105199104	44	5767
2026-01-12 11:57:32.02	82.56	11.37	-35.3	-36.3	22.7	0.00e+00	0	30	0	1109393408	44	5779
2026-01-12 11:57:33.02	82.75	11.36	-35.2	-36.2	22.7	0.00e+00	0	30	0	1112539136	44	5716
2026-01-12 11:57:34.03	82.93	11.34	-35.4	-36.3	22.7	0.00e+00	0	30	0	1114636288	44	5789
2026-01-12 11:57:35.05	83.12	11.33	-35.3	-36.2	22.6	0.00e+00	0	31	0	1117782016	44	5725
2026-01-12 11:57:36.06	83.31	11.31	-35.1	-36.1	22.8	0.00e+00	0	31	0	1120927744	44	5606
2026-01-12 11:57:37.07	83.49	11.30	-35.1	-36.1	22.7	0.00e+00	0	31	0	1125122048	44	5633
2026-01-12 11:57:38.08	83.68	11.28	-35.1	-36.0	22.7	0.00e+00	0	30	0	1128267776	44	5593
2026-01-12 11:57:39.09	83.87	11.26	-35.0	-36.0	22.9	0.00e+00	0	31	0	1131413504	44	5574
2026-01-12 11:57:40.10	84.05	11.25	-35.1	-36.1	22.9	0.00e+00	0	30	0	1134559232	44	5611
2026-01-12 11:57:41.11	84.24	11.23	-35.2	-36.2	21.8	0.00e+00	0	31	0	1137704960	44	5666
2026-01-12 11:57:42.12	84.42	11.21	-35.1	-36.1	23.0	0.00e+00	0	30	0	1140850688	44	5626
2026-01-12 11:57:43.13	84.61	11.20	-35.2	-36.2	22.8	0.00e+00	0	31	0	1143996416	44	5676
2026-01-12 11:57:44.14	84.79	11.18	-35.3	-36.2	22.9	0.00e+00	0	31	0	1147142144	44	5722
2026-01-12 11:57:45.15	84.98	11.16	-35.2	-36.2	22.9	0.00e+00	0	30	0	1150287872	44	5680
2026-01-12 11:57:46.16	85.16	11.14	-35.2	-36.1	22.8	0.00e+00	0	31	0	1153433600	44	5658
2026-01-12 11:57:47.17	85.35	11.12	-35.2	-36.2	22.8	0.00e+00	0	31	0	1156579328	44	5690
2026-01-12 11:57:48.18	85.53	11.11	-35.1	-36.1	22.8	0.00e+00	0	31	0	1159725056	44	5651
2026-01-12 11:57:49.19	85.71	11.09	-35.1	-36.2	22.8	0.00e+00	0	30	0	1162870784	44	5673
2026-01-12 11:57:50.20	85.90	11.07	-35.2	-36.2	22.8	0.00e+00	0	30	0	1166016512	44	5694
2026-01-12 11:57:51.21	86.08	11.05	-35.2	-36.2	22.8	0.00e+00	0	30	0	1169162240	44	5673
2026-01-12 11:57:52.22	86.26	11.03	-35.1	-36.1	22.9	0.00e+00	0	31	0	1172307968	44	5641
2026-01-12 11:57:53.23	86.45	11.01	-35.1	-36.1	22.8	0.00e+00	0	31	0	1175453696	44	5638
2026-01-12 11:57:54.24	86.63	10.99	-35.1	-36.2	22.8	0.00e+00	0	31	0	1178599424	44	5671
2026-01-12 11:57:55.25	86.81	10.97	-35.0	-36.0	23.0	0.00e+00	0	31	0	1181745152	44	5556
2026-01-12 11:57:56.26	86.99	10.95	-35.1	-36.1	22.9	0.00e+00	0	31	0	1184890880	44	5627
2026-01-12 11:57:57.27	87.17	10.93	-35.2	-36.2	22.8	0.00e+00	0	31	0	1188036608	44	5684
2026-01-12 11:57:58.28	87.36	10.91	-35.0	-36.1	23.0	0.00e+00	0	31	0	1191182336	44	5609
2026-01-12 11:57:59.29	87.54	10.88	-35.0	-36.0	23.0	0.00e+00	0	31	0	1194328064	44	5564
2026-01-12 11:58:00.30	87.72	10.86	-35.1	-36.1	22.9	0.00e+00	0	31	0	1197473792	44	5598
2026-01-12 11:58:01.31	87.90	10.84	-35.1	-36.1	22.9	0.00e+00	0	31	0	1200619520	44	5633
2026-01-12 11:58:02.32	88.08	10.82	-35.1	-36.2	22.9	0.00e+00	0	31	0	1203765248	44	5667
2026-01-12 11:58:03.33	88.26	10.80	-35.2	-36.2	22.9	0.00e+00	0	31	0	1206910976	44	5718
2026-01-12 11:58:04.34	88.44	10.77	-35.2	-36.2	22.9	0.00e+00	0	30	0	1210056704	44	5703
2026-01-12 11:58:05.35	88.62	10.75	-35.3	-36.3	22.8	0.00e+00	0	31	0	1213202432	44	5780
2026-01-12 11:58:06.36	88.80	10.73	-35.4	-36.5	22.6	0.00e+00	0	31	0	1216348160	44	5865
2026-01-12 11:58:07.37	88.98	10.71	-35.2	-36.2	22.8	0.00e+00	0	31	0	1219493888	44	5710
2026-01-12 11:58:08.38	89.16	10.68	-35.2	-36.2	22.9	0.00e+00	0	31	0	1222639616	44	5684
2026-01-12 11:58:09.39	89.33	10.66	-35.3	-36.3	22.8	0.00e+00	0	31	0	1225785344	44	5749
2026-01-12 11:58:10.40	89.51	10.63	-35.3	-36.3	22.9	0.00e+00	0	31	0	1228931072	44	5745
2026-01-12 11:58:11.41	89.69	10.61	-35.3	-36.3	22.8	0.00e+00	0	31	0	1232076800	44	5742
2026-01-12 11:58:12.42	89.87	10.59	-35.1	-36.1	23.0	0.00e+00	0	31	0	1235222528	44	5657
2026-01-12 11:58:13.43	90.05	10.56	-34.9	-36.1	22.9	0.00e+00	0	31	0	1238368256	44	5625
2026-01-12 11:58:14.44	90.22	10.54	-35.0	-36.2	22.9	0.00e+00	0	31	0	1241513984	44	5692
2026-01-12 11:58:15.45	90.40	10.51	-35.0	-36.2	22.9	0.00e+00	0	31	0	1244659712	44	5672
2026-01-12 11:58:16.46	90.58	10.49	-35.1	-36.2	22.8	0.00e+00	0	31	0	1247805440	44	5716
2026-01-12 11:58:17.47	90.75	10.46	-35.1	-36.3	22.8	0.00e+00	0	31	0	1250951168	44	5739
2026-01-12 11:58:18.48	90.93	10.44	-35.2	-36.4	22.7	0.00e+00	0	31	0	1254096896	44	5803
2026-01-12 11:58:19.48	91.10	10.41	-35.3	-36.3	22.8	0.00e+00	0	31	0	1257242624	44	5790
2026-01-12 11:58:20.50	91.28	10.38	-35.3	-36.3	22.7	0.00e+00	0	31	0	1260388352	44	5766
2026-01-12 11:58:21.51	91.46	10.36	-35.4	-36.4	22.8	0.00e+00	0	31	0	1263534080	44	5817
2026-01-12 11:58:22.52	91.63	10.33	-35.4	-36.3	22.7	0.00e+00	0	31	0	1266679808	44	5787
2026-01-12 11:58:23.52	91.80	10.31	-35.2	-36.2	22.9	0.00e+00	0	31	0	1269825536	44	5684
2026-01-12 11:58:24.54	91.98	10.28	-35.2	-36.2	22.9	0.00e+00	0	31	0	1272971264	44	5688
2026-01-12 11:58:25.55	92.15	10.25	-35.4	-36.4	22.8	0.00e+00	0	31	0	1276116992	44	5805
2026-01-12 11:58:26.56	92.33	10.22	-35.2	-36.2	22.8	0.00e+00	0	31	0	1279262720	44	5682
2026-01-12 11:58:27.57	92.50	10.20	-35.3	-36.3	22.7	0.00e+00	0	31	0	1282408448	44	5757
2026-01-12 11:58:28.58	92.67	10.17	-35.3	-36.3	22.7	0.00e+00	0	31	0	1285554176	44	5788
2026-01-12 11:58:29.59	92.85	10.14	-35.3	-36.3	22.6	0.00e+00	0	31	0	1288699904	44	5777
2026-01-12 11:58:30.60	93.02	10.11	-35.4	-36.3	22.6	0.00e+00	0	31	0	1291845632	44	5787
2026-01-12 11:58:31.61	93.19	10.09	-35.3	-36.3	22.6	0.00e+00	0	31	0	1294991360	44	5787
2026-01-12 11:58:32.62	93.36	10.06	-35.4	-36.4	22.7	0.00e+00	0	31	0	1298137088	44	5821
2026-01-12 11:58:33.63	93.53	10.03	-35.3	-36.3	22.6	0.00e+00	0	31	0	1301282816	44	5770
2026-01-12 11:58:34.64	93.70	10.00	-35.4	-36.4	22.6	0.00e+00	0	31	0	1304428544	44	5813
2026-01-12 11:58:35.64	93.87	9.97	-35.4	-36.4	22.6	0.00e+00	0	31	0	1307574272	44	5801
2026-01-12 11:58:36.66	94.05	9.94	-35.5	-36.6	22.5	0.00e+00	0	31	0	1310720000	44	5929
2026-01-12 11:58:37.67	94.22	9.91	-35.5	-36.5	22.5	0.00e+00	0	31	0	1313865728	44	5887
2026-01-12 11:58:38.68	94.39	9.88	-35.3	-36.4	22.6	0.00e+00	0	31	0	1317011456	44	5799
2026-01-12 11:58:39.69	94.56	9.85	-35.5	-36.5	22.6	0.00e+00	0	31	0	1320157184	44	5878
2026-01-12 11:58:40.70	94.72	9.82	-35.4	-36.3	22.7	0.00e+00	0	31	0	1323302912	44	5791
2026-01-12 11:58:41.71	94.89	9.79	-35.2	-36.2	22.7	0.00e+00	0	31	0	1326448640	44	5693
2026-01-12 11:58:42.72	95.06	9.76	-35.2	-36.2	22.7	0.00e+00	0	31	0	1329594368	44	5681
2026-01-12 11:58:43.73	95.23	9.73	-35.3	-36.3	22.7	0.00e+00	0	31	0	1332740096	44	5731
2026-01-12 11:58:44.74	95.40	9.70	-35.2	-36.2	22.8	0.00e+00	0	31	0	1335885824	44	5694
2026-01-12 11:58:45.75	95.57	9.67	-35.3	-36.3	22.7	0.00e+00	0	31	0	1339031552	44	5774
2026-01-12 11:58:46.76	95.73	9.64	-35.1	-36.1	22.7	0.00e+00	0	31	0	1342177280	44	5652
2026-01-12 11:58:47.77	95.90	9.61	-35.4	-36.3	22.6	0.00e+00	0	31	0	1345323008	44	5788
2026-01-12 11:58:48.78	96.07	9.58	-35.3	-36.3	22.7	0.00e+00	0	31	0	1348468736	44	5741
2026-01-12 11:58:49.79	96.23	9.55	-35.4	-36.4	22.6	0.00e+00	0	31	0	1351614464	44	5825
2026-01-12 11:58:50.80	96.40	9.51	-35.3	-36.4	22.6	0.00e+00	0	31	0	1354760192	44	5817
2026-01-12 11:58:51.81	96.56	9.48	-35.5	-36.6	22.6	0.00e+00	0	31	0	1357905920	44	5938
2026-01-12 11:58:52.82	96.73	9.45	-35.5	-36.6	22.5	0.00e+00	0	31	0	1361051648	44	5957
2026-01-12 11:58:53.83	96.89	9.42	-35.5	-36.6	22.4	0.00e+00	0	31	0	1364197376	44	5975
2026-01-12 11:58:54.85	97.06	9.39	-35.4	-36.6	22.4	0.00e+00	0	31	0	1367343104	44	5935
2026-01-12 11:58:55.85	97.22	9.35	-35.5	-36.6	22.4	0.00e+00	0	31	0	1370488832	44	5970
2026-01-12 11:58:56.86	97.38	9.32	-35.5	-36.6	22.3	0.00e+00	0	31	0	1373634560	44	5989
2026-01-12 11:58:57.87	97.55	9.29	-35.5	-36.6	22.3	0.00e+00	0	31	0	1376780288	44	5956
2026-01-12 11:58:58.88	97.71	9.25	-35.5	-36.6	22.3	0.00e+00	0	31	0	1379926016	44	5928
2026-01-12 11:58:59.89	97.87	9.22	-35.6	-36.7	22.4	0.00e+00	0	31	0	1383071744	44	6000
2026-01-12 11:59:00.91	98.04	9.19	-35.4	-36.5	22.5	0.00e+00	0	31	0	1386217472	44	5890
2026-01-12 11:59:01.91	98.20	9.16	-35.5	-36.6	22.4	0.00e+00	0	31	0	1389363200	44	5928
2026-01-12 11:59:02.92	98.36	9.12	-35.5	-36.6	22.4	0.00e+00	0	31	0	1392508928	44	5975
2026-01-12 11:59:03.93	98.52	9.09	-35.4	-36.6	22.4	0.00e+00	0	31	0	1395654656	44	5953
2026-01-12 11:59:04.94	98.68	9.05	-35.5	-36.6	22.3	0.00e+00	0	31	0	1398800384	44	5936
2026-01-12 11:59:05.96	98.84	9.02	-35.7	-36.8	22.2	0.00e+00	0	31	0	1401946112	44	6087
2026-01-12 11:59:06.96	99.00	8.99	-35.8	-36.9	22.1	0.00e+00	0	31	0	1406140416	44	6148
2026-01-12 11:59:07.98	99.16	8.95	-35.7	-36.7	22.2	0.00e+00	0	31	0	1408237568	44	6032
2026-01-12 11:59:08.99	99.32	8.92	-35.8	-36.9	22.2	0.00e+00	0	31	0	1411383296	44	6155
2026-01-12 11:59:10.00	99.48	8.88	-35.8	-36.9	22.1	0.00e+00	0	31	0	1414529024	44	6166
2026-01-12 11:59:11.01	99.64	8.85	-36.0	-37.0	21.9	0.00e+00	0	31	0	1417674752	44	6252
2026-01-12 11:59:12.02	99.80	8.81	-36.1	-37.1	21.9	0.00e+00	0	31	0	1421869056	44	6334
2026-01-12 11:59:13.03	99.96	8.78	-36.2	-37.2	21.8	0.00e+00	0	31	0	1425014784	44	6419
2026-01-12 11:59:14.04	100.11	8.74	-36.0	-37.1	21.9	0.00e+00	0	31	0	1428160512	44	6293
2026-01-12 11:59:15.05	100.27	8.71	-36.0	-37.1	21.9	0.00e+00	0	31	0	1430257664	44	6310
2026-01-12 11:59:16.06	100.43	8.67	-36.0	-37.0	22.0	0.00e+00	0	31	0	1433403392	44	6258
2026-01-12 11:59:17.06	100.58	8.64	-36.0	-37.0	21.9	0.00e+00	0	31	0	1437597696	44	6266
2026-01-12 11:59:18.07	100.74	8.60	-35.8	-36.8	22.2	0.00e+00	0	31	0	1440743424	44	6126
2026-01-12 11:59:19.08	100.89	8.56	-35.9	-36.9	22.1	0.00e+00	0	31	0	1443889152	44	6198
2026-01-12 11:59:20.09	101.05	8.53	-35.8	-36.8	22.1	0.00e+00	0	31	0	1447034880	44	6102
2026-01-12 11:59:21.10	101.20	8.49	-35.7	-36.8	22.2	0.00e+00	0	31	0	1450180608	44	6095
2026-01-12 11:59:22.11	101.36	8.46	-35.6	-36.6	22.3	0.00e+00	0	31	0	1453326336	44	5967
2026-01-12 11:59:23.13	101.51	8.42	-35.8	-36.8	22.1	0.00e+00	0	31	0	1456472064	44	6111
2026-01-12 11:59:24.13	101.67	8.38	-35.9	-37.0	22.0	0.00e+00	0	31	0	1459617792	44	6264
2026-01-12 11:59:25.15	101.82	8.35	-35.9	-37.0	22.0	0.00e+00	0	31	0	1462763520	44	6249
2026-01-12 11:59:26.16	101.98	8.31	-35.8	-37.0	22.1	0.00e+00	0	31	0	1465909248	44	6209
2026-01-12 11:59:27.17	102.13	8.27	-35.8	-37.0	22.0	0.00e+00	0	31	0	1469054976	44	6275
2026-01-12 11:59:28.18	102.28	8.24	-35.8	-37.2	21.7	0.00e+00	0	31	0	1472200704	44	6374
2026-01-12 11:59:29.19	102.43	8.20	-35.7	-37.1	21.8	0.00e+00	0	31	0	1475346432	44	6334
2026-01-12 11:59:30.20	102.58	8.16	-35.7	-37.3	21.7	0.00e+00	0	31	0	1478492160	44	6430
2026-01-12 11:59:31.21	102.74	8.12	-35.8	-37.3	21.7	0.00e+00	0	31	0	1481637888	44	6490
2026-01-12 11:59:32.21	102.88	8.09	-35.8	-37.3	21.6	0.00e+00	0	31	0	1484783616	44	6488
2026-01-12 11:59:33.22	103.03	8.05	-35.8	-37.2	21.8	0.00e+00	0	31	0	1487929344	44	6411
2026-01-12 11:59:34.23	103.19	8.01	-35.8	-37.3	21.8	0.00e+00	0	31	0	1491075072	44	6434
2026-01-12 11:59:35.24	103.33	7.97	-35.8	-37.2	21.8	0.00e+00	0	31	0	1494220800	44	6422
2026-01-12 11:59:36.25	103.48	7.94	-36.2	-37.4	21.6	0.00e+00	0	31	0	1497366528	44	6529
2026-01-12 11:59:37.26	103.63	7.90	-36.1	-37.3	21.7	0.00e+00	0	31	0	1500512256	44	6427
2026-01-12 11:59:38.27	103.78	7.86	-36.0	-37.1	21.8	0.00e+00	0	31	0	1503657984	44	6328
2026-01-12 11:59:39.28	103.93	7.82	-36.0	-37.1	21.9	0.00e+00	0	31	0	1506803712	44	6311
2026-01-12 11:59:40.29	104.08	7.78	-36.1	-37.2	21.8	0.00e+00	0	31	0	1509949440	44	6400
2026-01-12 11:59:41.30	104.23	7.75	-36.2	-37.3	21.6	0.00e+00	0	31	0	1513095168	44	6480
2026-01-12 11:59:42.31	104.37	7.71	-36.2	-37.3	21.5	0.00e+00	0	31	0	1516240896	44	6492
2026-01-12 11:59:43.32	104.52	7.67	-36.1	-37.2	21.6	0.00e+00	0	31	0	1519386624	44	6423
2026-01-12 11:59:44.32	104.66	7.63	-36.2	-37.4	21.6	0.00e+00	0	31	0	1522532352	44	6503
2026-01-12 11:59:45.33	104.81	7.59	-36.2	-37.3	21.6	0.00e+00	0	31	0	1525678080	44	6492
2026-01-12 11:59:46.35	104.96	7.55	-36.2	-37.3	21.7	0.00e+00	0	31	0	1528823808	44	6443
2026-01-12 11:59:47.36	105.10	7.51	-36.1	-37.1	21.8	0.00e+00	0	31	0	1531969536	44	6337
2026-01-12 11:59:48.36	105.25	7.47	-36.1	-37.1	21.8	0.00e+00	0	31	0	1535115264	44	6334
2026-01-12 11:59:49.38	105.39	7.43	-36.1	-37.2	21.7	0.00e+00	0	31	0	1538260992	44	6389
2026-01-12 11:59:50.39	105.54	7.40	-36.1	-37.2	21.7	0.00e+00	0	31	0	1541406720	44	6373
2026-01-12 11:59:51.40	105.68	7.36	-36.2	-37.3	21.6	0.00e+00	0	31	0	1544552448	44	6481
2026-01-12 11:59:52.41	105.82	7.32	-36.3	-37.5	21.5	0.00e+00	0	31	0	1547698176	44	6574
2026-01-12 11:59:53.42	105.97	7.28	-36.3	-37.4	21.6	0.00e+00	0	31	0	1550843904	44	6532
2026-01-12 11:59:54.43	106.11	7.24	-36.3	-37.4	21.6	0.00e+00	0	31	0	1553989632	44	6527
2026-01-12 11:59:55.44	106.25	7.20	-36.3	-37.4	21.6	0.00e+00	0	31	0	1557135360	44	6562
2026-01-12 11:59:56.45	106.39	7.16	-36.1	-37.3	21.7	0.00e+00	0	31	0	1560281088	44	6458
2026-01-12 11:59:57.45	106.53	7.12	-36.1	-37.4	21.6	0.00e+00	0	31	0	1563426816	44	6559
2026-01-12 11:59:58.46	106.68	7.08	-35.9	-37.3	21.7	0.00e+00	0	31	0	1566572544	44	6433
2026-01-12 11:59:59.47	106.82	7.04	-36.1	-37.4	21.6	0.00e+00	0	31	0	1569718272	44	6525
2026-01-12 12:00:00.48	106.96	7.00	-36.0	-37.2	21.8	0.00e+00	0	31	0	1572864000	44	6365
2026-01-12 12:00:01.49	107.10	6.96	-36.2	-37.4	21.7	0.00e+00	0	31	0	1576009728	44	6510
2026-01-12 12:00:02.50	107.24	6.92	-36.2	-37.5	21.5	0.00e+00	0	31	0	1579155456	44	6575
2026-01-12 12:00:03.51	107.38	6.88	-36.2	-37.5	21.6	0.00e+00	0	31	0	1582301184	44	6584
2026-01-12 12:00:04.52	107.51	6.84	-36.3	-37.5	21.6	0.00e+00	0	31	0	1585446912	44	6575
2026-01-12 12:00:05.53	107.65	6.80	-36.2	-37.4	21.6	0.00e+00	0	31	0	1588592640	44	6499
2026-01-12 12:00:06.54	107.79	6.76	-36.3	-37.4	21.6	0.00e+00	0	31	0	1591738368	44	6538
2026-01-12 12:00:07.55	107.93	6.71	-36.5	-37.6	21.3	0.00e+00	0	31	0	1594884096	44	6725
2026-01-12 12:00:08.56	108.07	6.67	-36.6	-37.7	21.2	0.00e+00	0	31	0	1598029824	44	6792
2026-01-12 12:00:09.57	108.20	6.63	-36.5	-37.6	21.3	0.00e+00	0	31	0	1601175552	44	6716
2026-01-12 12:00:10.58	108.34	6.59	-36.7	-37.9	21.2	0.00e+00	0	31	0	1604321280	44	6904
2026-01-12 12:00:11.59	108.48	6.55	-36.7	-37.8	21.2	0.00e+00	0	31	0	1607467008	44	6860
2026-01-12 12:00:12.60	108.61	6.51	-36.7	-37.8	21.3	0.00e+00	0	31	0	1610612736	44	6855
2026-01-12 12:00:13.61	108.75	6.47	-36.6	-37.7	21.3	0.00e+00	0	31	0	1613758464	44	6787
2026-01-12 12:00:14.61	108.88	6.43	-36.7	-37.8	21.2	0.00e+00	0	31	0	1616904192	44	6858
2026-01-12 12:00:15.62	109.02	6.39	-36.7	-37.9	21.1	0.00e+00	0	31	0	1620049920	44	6934
2026-01-12 12:00:16.63	109.15	6.35	-36.9	-38.2	20.8	0.00e+00	0	31	0	1623195648	46	6360
2026-01-12 12:00:17.65	109.29	6.30	-37.0	-38.2	20.9	0.00e+00	0	31	0	1626341376	46	6375
2026-01-12 12:00:18.66	109.42	6.26	-36.6	-37.8	21.3	0.00e+00	0	31	0	1629487104	46	6096
2026-01-12 12:00:19.67	109.56	6.22	-36.8	-37.9	21.2	0.00e+00	0	31	0	1632632832	46	6195
2026-01-12 12:00:20.68	109.69	6.18	-36.6	-37.7	21.2	0.00e+00	0	31	0	1635778560	46	6032
2026-01-12 12:00:21.69	109.82	6.14	-36.6	-37.8	21.2	0.00e+00	0	31	0	1638924288	46	6070
2026-01-12 12:00:22.69	109.95	6.10	-36.4	-37.7	21.2	0.00e+00	0	31	0	1642070016	46	6011
2026-01-12 12:00:23.71	110.09	6.05	-36.7	-38.0	21.0	0.00e+00	0	31	0	1645215744	46	6235
2026-01-12 12:00:24.72	110.22	6.01	-36.6	-37.8	21.1	0.00e+00	0	31	0	1648361472	46	6128
2026-01-12 12:00:25.73	110.35	5.97	-36.7	-37.8	21.1	0.00e+00	0	31	0	1651507200	46	6119
2026-01-12 12:00:26.74	110.48	5.93	-36.8	-37.9	20.9	0.00e+00	0	31	0	1654652928	46	6190
2026-01-12 12:00:27.75	110.61	5.89	-36.9	-38.0	20.9	0.00e+00	0	31	0	1657798656	46	6249
2026-01-12 12:00:28.76	110.74	5.84	-36.8	-37.9	21.0	0.00e+00	0	31	0	1660944384	46	6173
2026-01-12 12:00:29.77	110.87	5.80	-36.8	-37.9	21.0	0.00e+00	0	31	0	1664090112	46	6184
2026-01-12 12:00:30.78	111.00	5.76	-36.8	-37.9	21.0	0.00e+00	0	31	0	1667235840	46	6188
2026-01-12 12:00:31.79	111.13	5.72	-36.8	-37.9	21.0	0.00e+00	0	31	0	1670381568	46	6177
2026-01-12 12:00:32.80	111.26	5.68	-36.9	-38.0	20.8	0.00e+00	0	31	0	1673527296	46	6277
2026-01-12 12:00:33.81	111.39	5.63	-36.8	-37.9	21.0	0.00e+00	0	31	0	1676673024	46	6203
2026-01-12 12:00:34.82	111.51	5.59	-36.9	-38.0	20.9	0.00e+00	0	31	0	1679818752	46	6263
2026-01-12 12:00:35.83	111.64	5.55	-36.8	-37.9	21.1	0.00e+00	0	31	0	1682964480	46	6180
2026-01-12 12:00:36.85	111.77	5.51	-36.9	-38.1	20.9	0.00e+00	0	31	0	1686110208	46	6291
2026-01-12 12:00:37.85	111.90	5.46	-36.6	-37.8	21.1	0.00e+00	0	31	0	1689255936	46	6101
2026-01-12 12:00:38.86	112.02	5.42	-36.7	-37.8	21.0	0.00e+00	0	31	0	1692401664	46	6123
2026-01-12 12:00:39.88	112.15	5.38	-36.8	-37.9	20.9	0.00e+00	0	31	0	1695547392	46	6168
2026-01-12 12:00:40.88	112.27	5.34	-36.7	-37.8	21.1	0.00e+00	0	31	0	1698693120	46	6116
2026-01-12 12:00:41.89	112.40	5.29	-36.8	-37.9	20.9	0.00e+00	0	31	0	1701838848	46	6193
2026-01-12 12:00:42.90	112.52	5.25	-36.5	-37.7	21.1	0.00e+00	0	31	0	1704984576	46	6014
2026-01-12 12:00:43.91	112.65	5.21	-36.6	-37.8	21.0	0.00e+00	0	31	0	1708130304	46	6067
2026-01-12 12:00:44.92	112.77	5.16	-36.6	-37.7	21.0	0.00e+00	0	31	0	1711276032	46	6042
2026-01-12 12:00:45.93	112.90	5.12	-36.8	-37.9	21.0	0.00e+00	0	31	0	1714421760	46	6168
2026-01-12 12:00:46.94	113.02	5.08	-36.6	-37.7	21.0	0.00e+00	0	31	0	1717567488	46	6061
2026-01-12 12:00:47.95	113.15	5.04	-36.8	-38.0	20.9	0.00e+00	0	31	0	1720713216	46	6214
2026-01-12 12:00:48.95	113.27	4.99	-36.6	-37.8	21.0	0.00e+00	0	31	0	1723858944	46	6126
2026-01-12 12:00:49.96	113.39	4.95	-36.9	-38.2	20.6	0.00e+00	0	31	0	1727004672	46	6380
2026-01-12 12:00:50.97	113.51	4.91	-36.7	-37.9	20.9	0.00e+00	0	31	0	1730150400	46	6142
2026-01-12 12:00:51.98	113.63	4.86	-36.8	-38.0	20.8	0.00e+00	0	31	0	1733296128	46	6249
2026-01-12 12:00:52.99	113.76	4.82	-37.0	-38.2	20.7	0.00e+00	0	31	0	1736441856	46	6352
2026-01-12 12:00:54.01	113.88	4.78	-37.1	-38.2	20.5	0.00e+00	0	31	0	1739587584	46	6420
2026-01-12 12:00:55.01	114.00	4.73	-37.1	-38.2	20.5	0.00e+00	0	31	0	1743781888	46	6410
2026-01-12 12:00:56.02	114.12	4.69	-37.0	-38.2	20.5	0.00e+00	0	30	0	1745879040	46	6411
2026-01-12 12:00:57.03	114.24	4.65	-37.0	-38.2	20.5	0.00e+00	0	31	0	1749024768	46	6410
2026-01-12 12:00:58.04	114.36	4.60	-37.0	-38.1	20.6	0.00e+00	0	31	0	1752170496	46	6338
2026-01-12 12:00:59.05	114.48	4.56	-37.2	-38.4	20.3	0.00e+00	0	31	0	1755316224	46	6519
2026-01-12 12:01:00.06	114.60	4.52	-36.9	-38.1	20.6	0.00e+00	0	31	0	1759510528	46	6283
2026-01-12 12:01:01.07	114.72	4.47	-37.0	-38.2	20.5	0.00e+00	0	31	0	1762656256	46	6392
2026-01-12 12:01:02.08	114.84	4.43	-37.1	-38.4	20.4	0.00e+00	0	31	0	1765801984	46	6533
2026-01-12 12:01:03.09	114.96	4.39	-36.8	-38.1	20.6	0.00e+00	0	31	0	1768947712	46	6302
2026-01-12 12:01:04.10	115.07	4.34	-36.8	-38.1	20.6	0.00e+00	0	31	0	1771044864	46	6323
2026-01-12 12:01:05.11	115.19	4.30	-37.0	-38.3	20.4	0.00e+00	0	31	0	1775239168	46	6490
2026-01-12 12:01:06.12	115.31	4.26	-37.0	-38.3	20.5	0.00e+00	0	31	0	1778384896	46	6484
2026-01-12 12:01:07.13	115.42	4.21	-36.8	-38.2	20.5	0.00e+00	0	31	0	1781530624	46	6379
2026-01-12 12:01:08.14	115.54	4.17	-36.8	-38.3	20.4	0.00e+00	0	31	0	1784676352	46	6472
2026-01-12 12:01:09.15	115.66	4.13	-36.7	-38.3	20.4	0.00e+00	0	30	0	1787822080	46	6490
2026-01-12 12:01:10.16	115.77	4.08	-36.9	-38.5	20.2	0.00e+00	0	31	0	1790967808	46	6581
2026-01-12 12:01:11.17	115.89	4.04	-37.0	-38.4	20.3	0.00e+00	0	31	0	1794113536	46	6542
2026-01-12 12:01:12.18	116.00	3.99	-37.4	-38.7	19.9	0.00e+00	0	31	0	1797259264	46	6782
2026-01-12 12:01:13.19	116.12	3.95	-38.0	-39.3	19.4	0.00e+00	0	31	0	1800404992	48	6481
2026-01-12 12:01:14.20	116.23	3.91	-37.0	-38.2	20.4	0.00e+00	0	31	0	1803550720	48	5666
2026-01-12 12:01:15.21	116.35	3.86	-37.0	-38.3	20.3	0.00e+00	0	30	0	1806696448	48	5747
2026-01-12 12:01:16.22	116.46	3.82	-37.4	-38.7	19.8	0.00e+00	0	30	0	1809842176	48	6060
2026-01-12 12:01:17.23	116.58	3.78	-37.6	-39.0	19.5	0.00e+00	0	31	0	1812987904	48	6273
2026-01-12 12:01:18.24	116.69	3.73	-37.6	-39.1	19.6	0.00e+00	0	31	0	1816133632	48	6278
2026-01-12 12:01:19.25	116.80	3.69	-37.4	-38.8	20.0	0.00e+00	0	30	0	1819279360	48	6065
2026-01-12 12:01:20.26	116.92	3.64	-37.6	-39.0	19.6	0.00e+00	0	30	0	1822425088	48	6209
2026-01-12 12:01:21.27	117.03	3.60	-37.7	-39.1	19.7	0.00e+00	0	30	0	1825570816	48	6322
2026-01-12 12:01:22.28	117.14	3.56	-37.5	-38.8	19.8	0.00e+00	0	30	0	1828716544	48	6130
2026-01-12 12:01:23.29	117.25	3.51	-37.7	-39.1	19.5	0.00e+00	0	31	0	1831862272	48	6298
2026-01-12 12:01:24.30	117.36	3.47	-38.2	-39.6	19.0	0.00e+00	0	30	0	1835008000	48	6666
2026-01-12 12:01:25.31	117.47	3.42	-37.7	-39.0	19.5	0.00e+00	0	30	0	1838153728	48	6257
2026-01-12 12:01:26.33	117.59	3.38	-37.7	-39.2	19.3	0.00e+00	0	30	0	1841299456	48	6353
2026-01-12 12:01:27.34	117.70	3.34	-38.0	-39.5	19.1	0.00e+00	0	31	0	1844445184	48	6625
2026-01-12 12:01:28.35	117.81	3.29	-37.5	-39.0	19.6	0.00e+00	0	30	0	1847590912	48	6211
2026-01-12 12:01:29.35	117.92	3.25	-37.8	-39.2	19.3	0.00e+00	0	31	0	1850736640	48	6398
2026-01-12 12:01:30.36	118.03	3.20	-37.8	-39.2	19.3	0.00e+00	0	30	0	1853882368	48	6360
2026-01-12 12:01:31.37	118.13	3.16	-37.9	-39.3	19.3	0.00e+00	0	30	0	1857028096	48	6462
2026-01-12 12:01:32.38	118.24	3.12	-37.9	-39.2	19.3	0.00e+00	0	30	0	1860173824	48	6400
2026-01-12 12:01:33.39	118.35	3.07	-37.8	-39.1	19.3	0.00e+00	0	31	0	1863319552	48	6324
2026-01-12 12:01:34.40	118.46	3.03	-38.1	-39.5	18.9	0.00e+00	0	31	0	1866465280	48	6576
2026-01-12 12:01:35.41	118.57	2.98	-38.5	-40.0	12.2	0.00e+00	0	30	0	1869611008	48	6963
2026-01-12 12:01:36.42	118.68	2.94	-47.4	-60.3	3.5	1.52e+00	0	30	104	1869611008	60	36333
2026-01-12 12:01:37.43	118.78	2.90	-47.8	-60.6	3.5	1.52e+00	0	31	104	1869611008	60	37498
2026-01-12 12:01:38.44	118.89	2.85	-47.1	-60.8	3.5	1.52e+00	0	30	104	1869611008	60	38383
2026-01-12 12:01:39.45	119.00	2.81	-48.2	-61.0	3.5	1.52e+00	0	31	104	1869611008	60	39471
2026-01-12 12:01:40.46	119.10	2.76	-47.5	-61.1	3.5	1.52e+00	0	31	104	1869611008	60	39705
2026-01-12 12:01:41.47	119.21	2.72	-48.1	-61.1	3.5	1.52e+00	0	31	104	1869611008	60	39977
2026-01-12 12:01:42.48	119.32	2.67	-48.3	-61.2	3.5	1.52e+00	0	30	104	1869611008	60	40360
2026-01-12 12:01:43.49	119.42	2.63	-48.3	-61.2	3.5	1.52e+00	0	30	104	1869611008	60	40454
2026-01-12 12:01:44.50	119.53	2.59	-48.3	-61.2	3.5	1.51e+00	0	31	104	1869611008	60	40297
2026-01-12 12:01:45.51	119.63	2.54	-48.4	-61.2	3.5	1.52e+00	0	31	104	1869611008	60	40336
2026-01-12 12:01:46.52	119.74	2.50	-48.3	-61.1	3.5	1.52e+00	0	31	104	1869611008	60	39957
2026-01-12 12:01:47.53	119.84	2.45	-48.4	-61.1	3.5	1.51e+00	0	31	104	1869611008	60	40032
2026-01-12 12:01:48.54	119.94	2.41	-48.3	-61.2	3.5	1.52e+00	0	31	104	1869611008	60	40276
2026-01-12 12:01:49.55	120.05	2.37	-48.3	-61.2	3.5	1.52e+00	0	30	104	1869611008	60	40410
2026-01-12 12:01:50.55	120.15	2.32	-48.2	-61.2	3.5	1.51e+00	0	31	104	1869611008	60	40214
2026-01-12 12:01:51.57	120.25	2.28	-48.4	-61.2	3.5	1.52e+00	0	30	104	1869611008	60	40442
2026-01-12 12:01:52.58	120.36	2.23	-48.3	-61.2	3.5	1.52e+00	0	31	104	1869611008	60	40226
2026-01-12 12:01:53.59	120.46	2.19	-48.4	-61.2	3.5	1.52e+00	0	30	104	1869611008	60	40450
2026-01-12 12:01:54.59	120.56	2.14	-48.4	-61.2	3.5	1.52e+00	0	31	104	1869611008	60	40474
2026-01-12 12:01:55.61	120.66	2.10	-48.4	-61.2	3.5	1.52e+00	0	30	104	1869611008	60	40473
2026-01-12 12:01:56.62	120.77	2.06	-48.4	-61.2	3.5	1.52e+00	0	31	104	1869611008	60	40405
2026-01-12 12:01:57.63	120.87	2.01	-48.4	-61.2	3.5	1.51e+00	0	30	104	1869611008	60	40475
2026-01-12 12:01:58.64	120.97	1.97	-48.4	-61.2	3.5	1.51e+00	0	30	104	1869611008	60	40371
2026-01-12 12:01:59.65	121.07	1.92	-48.3	-61.2	3.5	1.51e+00	0	30	104	1869611008	60	40123
2026-01-12 12:02:00.66	121.17	1.88	-48.4	-61.3	3.5	1.52e+00	0	30	104	1869611008	60	40565
2026-01-12 12:02:01.66	121.27	1.83	-48.4	-61.2	3.5	1.52e+00	0	31	104	1869611008	60	40325
2026-01-12 12:02:02.67	121.37	1.79	-48.4	-61.2	3.5	1.52e+00	0	31	104	1869611008	60	40456
2026-01-12 12:02:03.68	121.47	1.75	-48.6	-61.5	3.5	1.52e+00	0	30	104	1869611008	60	41666
2026-01-12 12:02:04.69	121.57	1.70	-48.4	-61.2	3.5	1.52e+00	0	30	104	1869611008	60	40445
2026-01-12 12:02:05.70	121.67	1.66	-48.4	-61.3	3.5	1.52e+00	0	30	104	1869611008	60	40668
2026-01-12 12:02:06.71	121.77	1.61	-48.5	-61.4	3.5	1.52e+00	0	30	104	1869611008	60	41005
2026-01-12 12:02:07.72	121.86	1.57	-48.4	-61.3	3.5	1.52e+00	0	31	104	1869611008	60	40579
2026-01-12 12:02:08.73	121.96	1.53	-48.4	-61.3	3.5	1.52e+00	0	30	104	1869611008	60	40643
2026-01-12 12:02:09.74	122.06	1.48	-48.5	-61.3	3.5	1.52e+00	0	31	104	1869611008	60	40993
2026-01-12 12:02:10.75	122.16	1.44	-48.5	-61.3	3.5	1.52e+00	0	30	104	1869611008	60	40791
2026-01-12 12:02:11.76	122.26	1.39	-48.7	-61.5	3.5	1.52e+00	0	30	104	1869611008	60	41883
2026-01-12 12:02:12.77	122.35	1.35	-48.5	-61.3	3.5	1.52e+00	0	30	104	1869611008	60	40873
2026-01-12 12:02:13.78	122.45	1.30	-48.6	-61.4	3.5	1.52e+00	0	31	104	1869611008	60	41065
2026-01-12 12:02:14.79	122.55	1.26	-48.4	-61.2	3.5	1.52e+00	0	30	104	1869611008	60	40515
2026-01-12 12:02:15.80	122.64	1.22	-48.5	-61.4	3.5	1.52e+00	0	30	104	1869611008	60	41010
2026-01-12 12:02:16.81	122.74	1.17	-48.4	-61.3	3.5	1.52e+00	0	30	104	1869611008	60	40810
2026-01-12 12:02:17.82	122.84	1.13	-48.5	-61.4	3.5	1.52e+00	0	30	104	1869611008	60	41149
2026-01-12 12:02:18.83	122.93	1.08	-48.4	-61.3	3.5	1.52e+00	0	30	104	1869611008	60	40647
