passes_logs/2026/01/12/R4.6S_Anadyr/R4.6S_Anadyr__20260112_025442_FENGYUN_3D_rec.log

#Pass ID: 20260112_025442_FENGYUN 3D
#Satellite: FENGYUN 3D
#Configuration: FENGYUN 3D
#almurnet v.1.7.20251203
#Start time: 2026-01-12 02:54:46

#Version: 2.2.20231116
#Station: R4.6S_Anadyr
#Location: 177.4865 lon 64.73178 lat
#TLE: 1 43010U 17072A   26011.62066612  .00000104  00000+0  70810-4 0  9998
#TLE: 2 43010  98.9935 343.3846 0002223 114.2890 245.8518 14.19694405422776

#Time	Az	El	Level	Level2	SNR	BER	BlckErr	Temp	State	Recorded	gain1	gain2
2026-01-12 02:54:46.59	172.74	0.24	-45.0	-45.9	5.5	0.00e+00	0	26	0	0	60	24244
2026-01-12 02:54:47.60	172.77	0.30	-48.4	-60.5	3.6	8.44e-01	0	27	104	0	60	38401
2026-01-12 02:54:48.60	172.79	0.36	-48.4	-60.5	3.6	8.45e-01	0	27	104	0	60	38220
2026-01-12 02:54:49.61	172.81	0.42	-48.4	-60.5	3.6	8.46e-01	0	27	104	0	60	38450
2026-01-12 02:54:50.62	172.84	0.48	-48.5	-60.5	3.6	8.46e-01	0	27	104	0	60	38413
2026-01-12 02:54:51.63	172.86	0.54	-48.5	-60.6	3.6	8.46e-01	0	27	104	0	60	38753
2026-01-12 02:54:52.64	172.89	0.60	-48.4	-60.6	3.6	8.45e-01	0	27	104	0	60	38803
2026-01-12 02:54:53.65	172.91	0.66	-48.4	-60.5	3.6	8.46e-01	0	27	104	0	60	38509
2026-01-12 02:54:54.66	172.94	0.72	-48.4	-60.5	3.6	8.45e-01	0	27	104	0	60	38292
2026-01-12 02:54:55.67	172.96	0.78	-48.4	-60.5	3.6	8.46e-01	0	27	104	0	60	38363
2026-01-12 02:54:56.68	172.99	0.84	-48.3	-60.4	3.6	8.45e-01	0	27	104	0	60	37922
2026-01-12 02:54:57.69	173.01	0.91	-48.1	-60.3	3.6	8.46e-01	0	27	104	0	60	37456
2026-01-12 02:54:58.70	173.04	0.97	-48.0	-60.1	3.6	8.45e-01	0	27	104	0	60	36488
2026-01-12 02:54:59.71	173.06	1.03	-47.7	-59.8	3.6	8.45e-01	0	27	104	0	60	35406
2026-01-12 02:55:00.72	173.09	1.09	-47.1	-59.0	3.6	8.46e-01	0	27	104	0	60	32290
2026-01-12 02:55:01.73	173.11	1.15	-47.0	-59.1	3.6	8.44e-01	0	27	104	0	60	32451
2026-01-12 02:55:02.74	173.14	1.21	-47.0	-59.0	3.6	8.46e-01	0	27	104	0	60	32325
2026-01-12 02:55:03.75	173.16	1.28	-47.0	-59.0	3.6	8.45e-01	0	27	104	0	60	32374
2026-01-12 02:55:04.76	173.19	1.34	-47.0	-59.0	3.6	8.45e-01	0	27	104	0	60	32349
2026-01-12 02:55:05.76	173.21	1.40	-47.0	-59.0	3.6	8.45e-01	0	27	104	0	60	32041
2026-01-12 02:55:06.77	173.24	1.46	-47.0	-58.8	3.6	8.45e-01	0	27	104	0	60	31407
2026-01-12 02:55:07.78	173.26	1.53	-47.0	-58.7	3.6	8.46e-01	0	27	104	0	60	30974
2026-01-12 02:55:08.79	173.29	1.59	-47.0	-58.5	3.6	8.46e-01	0	27	104	0	60	30543
2026-01-12 02:55:09.80	173.32	1.65	-46.9	-58.4	3.6	8.46e-01	0	27	104	0	60	30128
2026-01-12 02:55:10.81	173.34	1.71	-46.9	-58.2	3.6	8.46e-01	0	27	104	0	60	29509
2026-01-12 02:55:11.82	173.37	1.78	-46.9	-58.3	3.6	8.45e-01	0	28	104	0	60	29803
2026-01-12 02:55:12.83	173.39	1.84	-46.9	-58.5	3.6	8.46e-01	0	28	104	0	60	30536
2026-01-12 02:55:13.84	173.42	1.90	-47.0	-58.7	3.6	8.45e-01	0	28	104	0	60	31135
2026-01-12 02:55:14.85	173.45	1.97	-47.0	-58.9	3.6	8.45e-01	0	28	104	0	60	31854
2026-01-12 02:55:15.86	173.47	2.03	-47.0	-59.0	3.6	8.45e-01	0	28	104	0	60	32398
2026-01-12 02:55:16.87	173.50	2.10	-47.0	-59.1	3.6	8.45e-01	0	28	104	0	60	32540
2026-01-12 02:55:17.88	173.53	2.16	-47.0	-59.1	3.6	8.45e-01	0	28	104	0	60	32439
2026-01-12 02:55:18.89	173.55	2.22	-47.0	-59.1	3.6	8.45e-01	0	27	104	0	60	32403
2026-01-12 02:55:19.90	173.58	2.29	-47.0	-59.1	3.6	8.47e-01	0	28	104	0	60	32456
2026-01-12 02:55:20.91	173.61	2.35	-47.0	-59.0	3.6	8.45e-01	0	28	104	0	60	32270
2026-01-12 02:55:21.92	173.63	2.42	-47.0	-58.7	3.6	8.46e-01	0	28	104	0	60	31037
2026-01-12 02:55:22.93	173.66	2.48	-46.9	-58.2	3.6	8.45e-01	0	28	104	0	60	29358
2026-01-12 02:55:23.94	173.69	2.55	-46.9	-57.5	3.6	8.44e-01	0	28	104	0	60	27202
2026-01-12 02:55:24.95	173.72	2.61	-46.8	-57.2	3.6	8.46e-01	0	28	104	0	60	26187
2026-01-12 02:55:25.96	173.74	2.68	-46.9	-57.6	3.6	8.45e-01	0	28	104	0	60	27385
2026-01-12 02:55:26.97	173.77	2.74	-46.9	-58.4	3.6	8.45e-01	0	28	104	0	60	30221
2026-01-12 02:55:27.98	173.80	2.81	-47.0	-58.7	3.6	8.45e-01	0	28	104	0	60	31080
2026-01-12 02:55:28.99	173.83	2.87	-46.6	-55.5	3.7	8.44e-01	0	28	104	0	60	21584
2026-01-12 02:55:30.00	173.86	2.94	-46.0	-52.3	6.3	7.95e-01	0	28	104	0	60	14865
2026-01-12 02:55:31.01	173.88	3.01	-44.3	-47.4	10.4	2.71e-02	0	28	0	4194304	60	8496
2026-01-12 02:55:32.02	173.91	3.07	-42.7	-44.8	13.4	4.02e-04	0	28	0	9437184	60	6286
2026-01-12 02:55:33.03	173.94	3.14	-40.4	-41.8	16.4	0.00e+00	0	28	0	14680064	54	6307
2026-01-12 02:55:34.04	173.97	3.20	-39.1	-40.2	17.9	0.00e+00	0	28	0	20971520	52	5895
2026-01-12 02:55:35.05	174.00	3.27	-37.9	-38.9	19.3	0.00e+00	0	28	0	26214400	50	5644
2026-01-12 02:55:36.06	174.03	3.34	-36.4	-37.3	20.8	0.00e+00	0	28	0	32505856	46	5949
2026-01-12 02:55:37.07	174.05	3.40	-36.1	-36.9	21.0	0.00e+00	0	28	0	37748736	46	5678
2026-01-12 02:55:38.08	174.08	3.47	-35.4	-36.2	21.8	0.00e+00	0	28	0	42991616	44	5864
2026-01-12 02:55:39.09	174.11	3.54	-35.6	-36.4	21.5	0.00e+00	0	28	0	49283072	44	6018
2026-01-12 02:55:40.10	174.14	3.61	-35.8	-36.6	21.3	0.00e+00	0	28	0	54525952	44	6155
2026-01-12 02:55:41.11	174.17	3.67	-36.3	-37.2	20.8	0.00e+00	0	28	0	60817408	44	6584
2026-01-12 02:55:42.12	174.20	3.74	-39.8	-41.1	17.0	0.00e+00	0	28	0	66060288	50	7278
2026-01-12 02:55:43.13	174.23	3.81	-39.3	-40.6	17.6	0.00e+00	0	28	0	72351744	52	6104
2026-01-12 02:55:44.14	174.26	3.88	-45.6	-50.6	3.6	6.61e-04	0	28	0	77594624	60	12259
2026-01-12 02:55:45.15	174.29	3.95	-42.6	-44.8	12.7	6.40e-05	0	28	104	77594624	56	7945
2026-01-12 02:55:46.16	174.32	4.01	-43.0	-45.1	12.7	0.00e+00	0	28	0	81788928	56	8210
2026-01-12 02:55:47.17	174.35	4.08	-36.8	-37.8	20.4	0.00e+00	0	28	0	88080384	48	5577
2026-01-12 02:55:48.18	174.38	4.15	-36.0	-36.8	21.3	0.00e+00	0	28	0	93323264	46	5627
2026-01-12 02:55:49.19	174.41	4.22	-35.7	-36.5	21.5	0.00e+00	0	28	0	99614720	46	5388
2026-01-12 02:55:50.20	174.44	4.29	-35.7	-36.6	21.6	0.00e+00	0	28	0	104857600	44	6114
2026-01-12 02:55:51.21	174.47	4.36	-35.5	-36.4	21.9	0.00e+00	0	28	0	111149056	44	5971
2026-01-12 02:55:52.22	174.50	4.43	-35.0	-35.8	22.3	0.00e+00	0	28	0	116391936	44	5572
2026-01-12 02:55:53.23	174.53	4.50	-34.9	-35.8	22.4	0.00e+00	0	28	0	121634816	44	5573
2026-01-12 02:55:54.24	174.56	4.57	-34.8	-35.6	22.5	0.00e+00	0	28	0	127926272	42	6124
2026-01-12 02:55:55.25	174.59	4.64	-34.8	-35.5	22.5	0.00e+00	0	28	0	133169152	42	6097
2026-01-12 02:55:56.26	174.63	4.71	-34.8	-35.6	22.6	0.00e+00	0	28	0	139460608	42	6128
2026-01-12 02:55:57.26	174.66	4.78	-34.8	-35.6	22.7	0.00e+00	0	28	0	144703488	42	6148
2026-01-12 02:55:58.27	174.69	4.85	-35.0	-35.8	22.7	0.00e+00	0	28	0	149946368	42	6252
2026-01-12 02:55:59.28	174.72	4.92	-34.7	-35.5	22.7	0.00e+00	0	28	0	156237824	42	6045
2026-01-12 02:56:00.29	174.75	4.99	-34.6	-35.4	22.8	0.00e+00	0	28	0	161480704	42	6019
2026-01-12 02:56:01.30	174.78	5.06	-34.7	-35.4	22.8	0.00e+00	0	28	0	166723584	42	6029
2026-01-12 02:56:02.31	174.81	5.13	-34.6	-35.4	22.7	0.00e+00	0	28	0	173015040	42	6015
2026-01-12 02:56:03.32	174.85	5.20	-34.7	-35.5	22.7	0.00e+00	0	28	0	178257920	42	6076
2026-01-12 02:56:04.33	174.88	5.27	-35.0	-35.8	22.4	0.00e+00	0	28	0	184549376	42	6274
2026-01-12 02:56:05.34	174.91	5.34	-35.2	-36.0	22.3	0.00e+00	0	28	0	189792256	42	6445
2026-01-12 02:56:06.35	174.94	5.42	-35.1	-35.9	22.5	0.00e+00	0	28	0	196083712	42	6351
2026-01-12 02:56:07.36	174.98	5.49	-34.4	-35.2	23.1	0.00e+00	0	28	0	201326592	42	5854
2026-01-12 02:56:08.36	175.01	5.56	-34.6	-35.3	23.0	0.00e+00	0	28	0	207618048	42	5945
2026-01-12 02:56:09.37	175.04	5.63	-34.7	-35.5	22.8	0.00e+00	0	28	0	212860928	42	6055
2026-01-12 02:56:10.38	175.08	5.70	-34.6	-35.4	22.9	0.00e+00	0	28	0	218103808	42	6002
2026-01-12 02:56:11.39	175.11	5.78	-34.3	-35.1	23.3	0.00e+00	0	28	0	224395264	42	5781
2026-01-12 02:56:12.40	175.14	5.85	-34.3	-35.1	23.2	0.00e+00	0	28	0	229638144	42	5784
2026-01-12 02:56:13.41	175.18	5.92	-34.1	-34.8	23.4	0.00e+00	0	28	0	235929600	42	5628
2026-01-12 02:56:14.42	175.21	6.00	-34.1	-34.9	23.4	0.00e+00	0	28	0	241172480	42	5656
2026-01-12 02:56:15.43	175.24	6.07	-34.2	-34.9	23.4	0.00e+00	0	28	0	246415360	42	5673
2026-01-12 02:56:16.44	175.28	6.14	-33.9	-34.6	23.7	0.00e+00	0	28	0	252706816	42	5491
2026-01-12 02:56:17.45	175.31	6.22	-34.0	-34.8	23.5	0.00e+00	0	28	0	257949696	42	5595
2026-01-12 02:56:18.46	175.35	6.29	-33.9	-34.7	23.6	0.00e+00	0	28	0	264241152	42	5506
2026-01-12 02:56:19.47	175.38	6.37	-34.1	-34.9	23.4	0.00e+00	0	28	0	269484032	42	5642
2026-01-12 02:56:20.48	175.42	6.44	-34.1	-34.8	23.5	0.00e+00	0	28	0	274726912	42	5614
2026-01-12 02:56:21.49	175.45	6.52	-33.9	-34.7	23.7	0.00e+00	0	28	0	281018368	42	5509
2026-01-12 02:56:22.50	175.49	6.59	-33.9	-34.7	23.7	0.00e+00	0	28	0	286261248	42	5511
2026-01-12 02:56:23.51	175.52	6.67	-33.7	-34.4	24.0	0.00e+00	0	28	0	292552704	42	5345
2026-01-12 02:56:24.52	175.56	6.74	-33.6	-34.3	23.9	0.00e+00	0	28	0	297795584	40	5950
2026-01-12 02:56:25.53	175.59	6.82	-33.9	-34.6	23.8	0.00e+00	0	28	0	304087040	40	6153
2026-01-12 02:56:26.54	175.63	6.89	-33.7	-34.5	23.9	0.00e+00	0	28	0	309329920	40	6039
2026-01-12 02:56:27.55	175.66	6.97	-33.6	-34.4	23.9	0.00e+00	0	28	0	315621376	40	5974
2026-01-12 02:56:28.56	175.70	7.05	-33.6	-34.3	24.1	0.00e+00	0	28	0	320864256	40	5936
2026-01-12 02:56:29.57	175.74	7.12	-33.7	-34.4	23.9	0.00e+00	0	28	0	326107136	40	6028
2026-01-12 02:56:30.58	175.77	7.20	-33.7	-34.4	24.0	0.00e+00	0	28	0	332398592	40	6019
2026-01-12 02:56:31.59	175.81	7.28	-33.6	-34.3	24.0	0.00e+00	0	28	0	337641472	40	5939
2026-01-12 02:56:32.60	175.84	7.35	-33.7	-34.4	24.0	0.00e+00	0	28	0	342884352	40	6005
2026-01-12 02:56:33.61	175.88	7.43	-33.9	-34.6	23.8	0.00e+00	0	28	0	349175808	40	6147
2026-01-12 02:56:34.62	175.92	7.51	-33.8	-34.5	23.9	0.00e+00	0	28	0	354418688	40	6051
2026-01-12 02:56:35.63	175.96	7.59	-33.7	-34.4	24.0	0.00e+00	0	28	0	360710144	40	6018
2026-01-12 02:56:36.63	175.99	7.67	-33.6	-34.3	24.1	0.00e+00	0	28	0	365953024	40	5933
2026-01-12 02:56:37.65	176.03	7.74	-33.5	-34.2	24.1	0.00e+00	0	28	0	371195904	40	5868
2026-01-12 02:56:38.66	176.07	7.82	-33.4	-34.1	24.2	0.00e+00	0	28	0	377487360	40	5813
2026-01-12 02:56:39.67	176.11	7.90	-33.6	-34.3	24.2	0.00e+00	0	28	0	382730240	40	5920
2026-01-12 02:56:40.68	176.15	7.98	-33.4	-34.1	24.3	0.00e+00	0	28	0	389021696	40	5812
2026-01-12 02:56:41.69	176.18	8.06	-33.5	-34.2	24.2	0.00e+00	0	28	0	394264576	40	5875
2026-01-12 02:56:42.70	176.22	8.14	-33.4	-34.1	24.3	0.00e+00	0	28	0	400556032	40	5767
2026-01-12 02:56:43.71	176.26	8.22	-33.3	-33.9	24.3	0.00e+00	0	28	0	405798912	40	5689
2026-01-12 02:56:44.71	176.30	8.30	-33.4	-34.1	24.3	0.00e+00	0	28	0	412090368	40	5800
2026-01-12 02:56:45.72	176.34	8.38	-33.3	-34.0	24.3	0.00e+00	0	28	0	417333248	40	5744
2026-01-12 02:56:46.73	176.38	8.46	-33.1	-33.8	24.6	0.00e+00	0	28	0	422576128	40	5617
2026-01-12 02:56:47.74	176.42	8.54	-33.1	-33.8	24.5	0.00e+00	0	28	0	428867584	40	5607
2026-01-12 02:56:48.75	176.46	8.62	-33.3	-34.0	24.4	0.00e+00	0	28	0	434110464	40	5713
2026-01-12 02:56:49.76	176.50	8.70	-33.1	-33.8	24.6	0.00e+00	0	28	0	440401920	40	5588
2026-01-12 02:56:50.77	176.54	8.78	-33.1	-33.8	24.4	0.00e+00	0	28	0	445644800	40	5615
2026-01-12 02:56:51.78	176.58	8.87	-33.0	-33.7	24.7	0.00e+00	0	28	0	450887680	40	5541
2026-01-12 02:56:52.79	176.62	8.95	-33.0	-33.7	24.6	0.00e+00	0	28	0	457179136	40	5542
2026-01-12 02:56:53.80	176.66	9.03	-33.0	-33.7	24.6	0.00e+00	0	28	0	462422016	40	5524
2026-01-12 02:56:54.81	176.70	9.11	-33.2	-33.9	24.6	0.00e+00	0	28	0	468713472	40	5657
2026-01-12 02:56:55.82	176.74	9.20	-33.0	-33.7	24.7	0.00e+00	0	28	0	473956352	40	5537
2026-01-12 02:56:56.83	176.78	9.28	-33.1	-33.8	24.8	0.00e+00	0	28	0	479199232	40	5582
2026-01-12 02:56:57.84	176.82	9.36	-33.0	-33.7	24.7	0.00e+00	0	28	0	485490688	40	5553
2026-01-12 02:56:58.85	176.87	9.45	-33.1	-33.8	24.6	0.00e+00	0	28	0	490733568	40	5617
2026-01-12 02:56:59.86	176.91	9.53	-33.0	-33.7	24.8	0.00e+00	0	28	0	497025024	40	5522
2026-01-12 02:57:00.87	176.95	9.62	-33.0	-33.6	24.8	0.00e+00	0	28	0	502267904	40	5492
2026-01-12 02:57:01.87	176.99	9.70	-32.7	-33.4	24.9	0.00e+00	0	28	0	508559360	38	6003
2026-01-12 02:57:02.89	177.04	9.78	-32.9	-33.6	24.9	0.00e+00	0	28	0	513802240	38	6116
2026-01-12 02:57:03.89	177.08	9.87	-32.7	-33.4	25.0	0.00e+00	0	28	0	519045120	38	5993
2026-01-12 02:57:04.91	177.12	9.95	-32.7	-33.4	25.0	0.00e+00	0	28	0	525336576	38	6005
2026-01-12 02:57:05.91	177.16	10.04	-32.8	-33.4	25.0	0.00e+00	0	28	0	530579456	38	6031
2026-01-12 02:57:06.92	177.21	10.13	-32.7	-33.4	24.9	0.00e+00	0	28	0	536870912	38	6008
2026-01-12 02:57:07.94	177.25	10.21	-32.9	-33.6	24.9	0.00e+00	0	28	0	542113792	38	6122
2026-01-12 02:57:08.95	177.30	10.30	-32.7	-33.3	25.0	0.00e+00	0	28	0	547356672	38	5955
2026-01-12 02:57:09.96	177.34	10.39	-32.8	-33.5	25.0	0.00e+00	0	28	0	553648128	38	6056
2026-01-12 02:57:10.97	177.39	10.47	-32.7	-33.4	25.0	0.00e+00	0	28	0	558891008	38	6012
2026-01-12 02:57:11.98	177.43	10.56	-32.7	-33.4	25.0	0.00e+00	0	28	0	565182464	38	6016
2026-01-12 02:57:12.99	177.48	10.65	-32.8	-33.4	25.0	0.00e+00	0	28	0	570425344	38	6032
2026-01-12 02:57:14.00	177.52	10.74	-32.7	-33.4	25.1	0.00e+00	0	28	0	575668224	38	5967
2026-01-12 02:57:15.00	177.57	10.82	-32.8	-33.5	25.1	0.00e+00	0	28	0	581959680	38	6041
2026-01-12 02:57:16.02	177.61	10.91	-32.8	-33.5	25.0	0.00e+00	0	28	0	587202560	38	6060
2026-01-12 02:57:17.03	177.66	11.00	-32.8	-33.6	25.0	0.00e+00	0	28	0	593494016	38	6105
2026-01-12 02:57:18.04	177.71	11.09	-32.8	-33.5	25.0	0.00e+00	0	28	0	598736896	38	6076
2026-01-12 02:57:19.04	177.75	11.18	-32.7	-33.4	25.1	0.00e+00	0	28	0	605028352	38	5988
2026-01-12 02:57:20.05	177.80	11.27	-32.7	-33.4	25.1	0.00e+00	0	28	0	610271232	38	6003
2026-01-12 02:57:21.06	177.85	11.36	-32.8	-33.5	25.1	0.00e+00	0	28	0	616562688	38	6048
2026-01-12 02:57:22.07	177.89	11.45	-32.7	-33.3	25.1	0.00e+00	0	28	0	621805568	38	5959
2026-01-12 02:57:23.08	177.94	11.54	-32.7	-33.4	25.1	0.00e+00	0	28	0	627048448	38	5976
2026-01-12 02:57:24.09	177.99	11.63	-32.8	-33.4	25.1	0.00e+00	0	28	0	633339904	38	6027
2026-01-12 02:57:25.10	178.04	11.72	-32.6	-33.3	25.2	0.00e+00	0	28	0	638582784	38	5924
2026-01-12 02:57:26.11	178.09	11.81	-32.5	-33.2	25.2	0.00e+00	0	28	0	644874240	38	5872
2026-01-12 02:57:27.12	178.13	11.91	-32.6	-33.3	25.2	0.00e+00	0	28	0	650117120	38	5898
2026-01-12 02:57:28.13	178.18	12.00	-32.6	-33.2	25.4	0.00e+00	0	28	0	655360000	38	5870
2026-01-12 02:57:29.14	178.23	12.09	-32.6	-33.2	25.3	0.00e+00	0	28	0	661651456	38	5894
2026-01-12 02:57:30.15	178.28	12.19	-32.5	-33.2	25.3	0.00e+00	0	28	0	666894336	38	5866
2026-01-12 02:57:31.16	178.33	12.28	-32.5	-33.1	25.4	0.00e+00	0	28	0	673185792	38	5826
2026-01-12 02:57:32.16	178.38	12.37	-32.6	-33.3	25.2	0.00e+00	0	28	0	678428672	38	5912
2026-01-12 02:57:33.17	178.43	12.47	-32.6	-33.3	25.3	0.00e+00	0	28	0	683671552	38	5898
2026-01-12 02:57:34.18	178.48	12.56	-32.6	-33.2	25.3	0.00e+00	0	28	0	689963008	38	5886
2026-01-12 02:57:35.19	178.54	12.65	-32.6	-33.2	25.3	0.00e+00	0	28	0	695205888	38	5876
2026-01-12 02:57:36.20	178.59	12.75	-32.5	-33.2	25.4	0.00e+00	0	28	0	701497344	38	5841
2026-01-12 02:57:37.21	178.64	12.85	-32.6	-33.3	25.3	0.00e+00	0	28	0	706740224	38	5917
2026-01-12 02:57:38.22	178.69	12.94	-32.4	-33.1	25.4	0.00e+00	0	28	0	713031680	38	5783
2026-01-12 02:57:39.23	178.74	13.04	-32.3	-33.0	25.6	0.00e+00	0	28	0	718274560	38	5731
2026-01-12 02:57:40.24	178.80	13.13	-32.1	-32.8	25.7	0.00e+00	0	28	0	723517440	38	5603
2026-01-12 02:57:41.25	178.85	13.23	-32.2	-32.9	25.7	0.00e+00	0	28	0	729808896	38	5635
2026-01-12 02:57:42.26	178.90	13.33	-32.1	-32.8	25.7	0.00e+00	0	28	0	735051776	38	5611
2026-01-12 02:57:43.27	178.96	13.43	-32.0	-32.7	25.9	0.00e+00	0	28	0	741343232	38	5527
2026-01-12 02:57:44.28	179.01	13.52	-31.9	-32.6	25.9	0.00e+00	0	28	0	746586112	38	5460
2026-01-12 02:57:45.29	179.06	13.62	-32.0	-32.6	25.9	0.00e+00	0	28	0	751828992	38	5484
2026-01-12 02:57:46.30	179.12	13.72	-31.8	-32.5	26.1	0.00e+00	0	28	0	758120448	38	5392
2026-01-12 02:57:47.31	179.17	13.82	-32.0	-32.7	25.9	0.00e+00	0	28	0	763363328	38	5503
2026-01-12 02:57:48.32	179.23	13.92	-31.9	-32.5	26.0	0.00e+00	0	28	0	769654784	38	5421
2026-01-12 02:57:49.33	179.29	14.02	-31.8	-32.4	26.1	0.00e+00	0	28	0	774897664	38	5375
2026-01-12 02:57:50.34	179.34	14.12	-31.8	-32.4	26.0	0.00e+00	0	28	0	780140544	38	5347
2026-01-12 02:57:51.35	179.40	14.22	-31.8	-32.4	26.1	0.00e+00	0	28	0	786432000	36	6012
2026-01-12 02:57:52.36	179.45	14.32	-31.7	-32.4	26.2	0.00e+00	0	28	0	791674880	36	5990
2026-01-12 02:57:53.37	179.51	14.42	-31.8	-32.5	26.0	0.00e+00	0	28	0	797966336	36	6067
2026-01-12 02:57:54.38	179.57	14.53	-31.8	-32.4	26.0	0.00e+00	0	28	0	803209216	36	6013
2026-01-12 02:57:55.39	179.63	14.63	-31.9	-32.5	26.0	0.00e+00	0	28	0	809500672	36	6080
2026-01-12 02:57:56.40	179.69	14.73	-31.7	-32.4	26.2	0.00e+00	0	28	0	814743552	36	5980
2026-01-12 02:57:57.41	179.74	14.83	-31.7	-32.3	26.2	0.00e+00	0	28	0	821035008	36	5952
2026-01-12 02:57:58.42	179.80	14.94	-31.7	-32.3	26.2	0.00e+00	0	28	0	826277888	36	5942
2026-01-12 02:57:59.43	179.86	15.04	-31.7	-32.4	26.2	0.00e+00	0	28	0	831520768	36	5968
2026-01-12 02:58:00.44	179.92	15.15	-31.6	-32.3	26.2	0.00e+00	0	28	0	837812224	36	5913
2026-01-12 02:58:01.45	179.98	15.25	-31.7	-32.4	26.2	0.00e+00	0	28	0	843055104	36	5968
2026-01-12 02:58:02.46	180.04	15.36	-31.6	-32.2	26.3	0.00e+00	0	28	0	849346560	36	5875
2026-01-12 02:58:03.47	180.10	15.46	-31.5	-32.1	26.4	0.00e+00	0	28	0	854589440	36	5811
2026-01-12 02:58:04.48	180.17	15.57	-31.5	-32.2	26.4	0.00e+00	0	28	0	859832320	36	5830
2026-01-12 02:58:05.49	180.23	15.67	-31.5	-32.2	26.4	0.00e+00	0	28	0	866123776	36	5848
2026-01-12 02:58:06.50	180.29	15.78	-31.5	-32.2	26.4	0.00e+00	0	28	0	871366656	36	5839
2026-01-12 02:58:07.51	180.35	15.89	-31.4	-32.1	26.5	0.00e+00	0	28	0	877658112	36	5787
2026-01-12 02:58:08.52	180.42	16.00	-31.4	-32.0	26.6	0.00e+00	0	28	0	882900992	36	5749
2026-01-12 02:58:09.53	180.48	16.11	-31.2	-31.8	26.7	0.00e+00	0	28	0	888143872	36	5593
2026-01-12 02:58:10.54	180.54	16.21	-31.1	-31.8	26.7	0.00e+00	0	28	0	894435328	36	5580
2026-01-12 02:58:11.55	180.61	16.32	-31.0	-31.7	26.8	0.00e+00	0	28	0	899678208	36	5534
2026-01-12 02:58:12.56	180.67	16.43	-31.0	-31.7	26.8	0.00e+00	0	28	0	905969664	36	5531
2026-01-12 02:58:13.57	180.74	16.54	-31.0	-31.6	26.8	0.00e+00	0	28	0	911212544	36	5463
2026-01-12 02:58:14.58	180.80	16.65	-31.0	-31.7	26.9	0.00e+00	0	28	0	917504000	36	5509
2026-01-12 02:58:15.59	180.87	16.77	-30.9	-31.5	26.9	0.00e+00	0	28	0	922746880	36	5429
2026-01-12 02:58:16.60	180.94	16.88	-30.9	-31.5	26.9	0.00e+00	0	28	0	927989760	36	5418
2026-01-12 02:58:17.61	181.00	16.99	-30.9	-31.5	27.0	0.00e+00	0	28	0	934281216	36	5407
2026-01-12 02:58:18.62	181.07	17.10	-30.9	-31.5	27.0	0.00e+00	0	28	0	939524096	36	5389
2026-01-12 02:58:19.63	181.14	17.21	-31.1	-31.7	26.9	0.00e+00	0	28	0	945815552	36	5521
2026-01-12 02:58:20.64	181.21	17.33	-31.1	-31.7	26.7	0.00e+00	0	28	0	951058432	36	5544
2026-01-12 02:58:21.65	181.28	17.44	-30.8	-31.5	27.0	0.00e+00	0	28	0	956301312	36	5392
2026-01-12 02:58:22.66	181.35	17.56	-30.9	-31.5	27.0	0.00e+00	0	28	0	962592768	36	5413
2026-01-12 02:58:23.67	181.42	17.67	-30.9	-31.5	27.0	0.00e+00	0	28	0	967835648	36	5439
2026-01-12 02:58:24.68	181.49	17.79	-30.8	-31.4	27.0	0.00e+00	0	28	0	974127104	36	5368
2026-01-12 02:58:25.69	181.56	17.90	-30.9	-31.5	26.9	0.00e+00	0	28	0	979369984	36	5420
2026-01-12 02:58:26.70	181.63	18.02	-30.6	-31.2	27.2	0.00e+00	0	28	0	984612864	34	5894
2026-01-12 02:58:27.71	181.70	18.14	-30.6	-31.3	27.2	0.00e+00	0	28	0	990904320	34	5906
2026-01-12 02:58:28.72	181.78	18.25	-30.6	-31.2	27.3	0.00e+00	0	28	0	996147200	34	5896
2026-01-12 02:58:29.73	181.85	18.37	-30.4	-31.0	27.3	0.00e+00	0	28	0	1002438656	34	5755
2026-01-12 02:58:30.73	181.92	18.49	-30.4	-31.0	27.3	0.00e+00	0	28	0	1007681536	34	5722
2026-01-12 02:58:31.74	182.00	18.61	-30.3	-30.9	27.4	0.00e+00	0	28	0	1013972992	34	5690
2026-01-12 02:58:32.75	182.07	18.73	-30.4	-31.1	27.3	0.00e+00	0	28	0	1019215872	34	5785
2026-01-12 02:58:33.76	182.15	18.85	-30.3	-31.0	27.4	0.00e+00	0	28	0	1025507328	34	5701
2026-01-12 02:58:34.77	182.22	18.97	-30.4	-31.0	27.4	0.00e+00	0	28	0	1030750208	34	5726
2026-01-12 02:58:35.78	182.30	19.09	-30.4	-31.1	27.3	0.00e+00	0	28	0	1035993088	34	5772
2026-01-12 02:58:36.79	182.38	19.21	-30.4	-31.1	27.3	0.00e+00	0	28	0	1042284544	34	5764
2026-01-12 02:58:37.80	182.45	19.34	-30.5	-31.1	27.3	0.00e+00	0	28	0	1047527424	34	5776
2026-01-12 02:58:38.81	182.53	19.46	-30.5	-31.1	27.2	0.00e+00	0	28	0	1053818880	34	5816
2026-01-12 02:58:39.82	182.61	19.58	-30.6	-31.2	27.1	0.00e+00	0	28	0	1059061760	34	5888
2026-01-12 02:58:40.83	182.69	19.71	-30.5	-31.2	27.3	0.00e+00	0	28	0	1064304640	34	5845
2026-01-12 02:58:41.84	182.77	19.83	-30.7	-31.3	27.2	0.00e+00	0	28	0	1070596096	34	5935
2026-01-12 02:58:42.85	182.85	19.96	-30.8	-31.4	27.1	0.00e+00	0	28	0	1075838976	34	6005
2026-01-12 02:58:43.86	182.93	20.08	-30.8	-31.4	27.2	0.00e+00	0	28	0	1082130432	34	6017
2026-01-12 02:58:44.87	183.02	20.21	-30.5	-31.1	27.4	0.00e+00	0	28	0	1087373312	34	5817
2026-01-12 02:58:45.88	183.10	20.33	-30.4	-31.1	27.4	0.00e+00	0	28	0	1092616192	34	5763
2026-01-12 02:58:46.89	183.18	20.46	-30.3	-31.0	27.4	0.00e+00	0	28	0	1098907648	34	5720
2026-01-12 02:58:47.90	183.27	20.59	-30.5	-31.2	27.3	0.00e+00	0	28	0	1104150528	34	5830
2026-01-12 02:58:48.91	183.35	20.72	-30.5	-31.2	27.2	0.00e+00	0	28	0	1110441984	34	5850
2026-01-12 02:58:49.92	183.44	20.85	-30.5	-31.1	27.3	0.00e+00	0	28	0	1115684864	34	5822
2026-01-12 02:58:50.93	183.52	20.98	-30.4	-31.0	27.3	0.00e+00	0	28	0	1121976320	34	5754
2026-01-12 02:58:51.94	183.61	21.11	-30.5	-31.2	27.3	0.00e+00	0	28	0	1127219200	34	5853
2026-01-12 02:58:52.95	183.70	21.24	-30.5	-31.2	27.3	0.00e+00	0	28	0	1132462080	34	5853
2026-01-12 02:58:53.95	183.78	21.37	-30.7	-31.3	27.2	0.00e+00	0	28	0	1138753536	34	5929
2026-01-12 02:58:54.96	183.87	21.50	-30.2	-30.9	27.5	0.00e+00	0	28	0	1143996416	34	5638
2026-01-12 02:58:55.97	183.96	21.64	-30.4	-31.0	27.5	0.00e+00	0	28	0	1150287872	34	5739
2026-01-12 02:58:56.98	184.05	21.77	-30.4	-31.0	27.4	0.00e+00	0	28	0	1155530752	34	5735
2026-01-12 02:58:57.99	184.14	21.90	-29.9	-30.5	27.8	0.00e+00	0	28	0	1160773632	34	5402
2026-01-12 02:58:59.00	184.24	22.04	-29.9	-30.5	27.8	0.00e+00	0	28	0	1167065088	34	5434
2026-01-12 02:59:00.01	184.33	22.18	-29.7	-30.3	28.0	0.00e+00	0	28	0	1172307968	32	5946
2026-01-12 02:59:01.02	184.42	22.31	-29.8	-30.4	27.8	0.00e+00	0	28	0	1178599424	32	5972
2026-01-12 02:59:02.03	184.52	22.45	-29.6	-30.2	28.1	0.00e+00	0	28	0	1183842304	32	5840
2026-01-12 02:59:03.04	184.61	22.59	-29.5	-30.1	28.1	0.00e+00	0	28	0	1189085184	32	5811
2026-01-12 02:59:04.05	184.71	22.72	-29.6	-30.2	28.1	0.00e+00	0	28	0	1195376640	32	5879
2026-01-12 02:59:05.06	184.80	22.86	-29.7	-30.3	28.0	0.00e+00	0	28	0	1200619520	32	5928
2026-01-12 02:59:06.07	184.90	23.00	-29.6	-30.2	28.2	0.00e+00	0	28	0	1206910976	32	5849
2026-01-12 02:59:07.08	185.00	23.14	-29.7	-30.3	28.0	0.00e+00	0	28	0	1212153856	32	5943
2026-01-12 02:59:08.09	185.10	23.28	-29.7	-30.4	27.9	0.00e+00	0	28	0	1218445312	32	5974
2026-01-12 02:59:09.10	185.20	23.43	-29.7	-30.3	28.0	0.00e+00	0	28	0	1223688192	32	5948
2026-01-12 02:59:10.11	185.30	23.57	-29.6	-30.3	28.0	0.00e+00	0	28	0	1229979648	32	5915
2026-01-12 02:59:11.11	185.40	23.71	-29.6	-30.3	28.0	0.00e+00	0	28	0	1235222528	32	5897
2026-01-12 02:59:12.12	185.50	23.85	-29.6	-30.2	28.0	0.00e+00	0	28	0	1240465408	32	5867
2026-01-12 02:59:13.13	185.61	24.00	-29.6	-30.3	28.0	0.00e+00	0	28	0	1246756864	32	5907
2026-01-12 02:59:14.14	185.71	24.14	-29.5	-30.1	28.1	0.00e+00	0	28	0	1251999744	32	5824
2026-01-12 02:59:15.15	185.82	24.29	-29.5	-30.1	28.1	0.00e+00	0	28	0	1257242624	32	5819
2026-01-12 02:59:16.16	185.92	24.44	-29.4	-30.1	28.1	0.00e+00	0	28	0	1263534080	32	5765
2026-01-12 02:59:17.17	186.03	24.58	-29.5	-30.1	28.0	0.00e+00	0	28	0	1268776960	32	5815
2026-01-12 02:59:18.18	186.14	24.73	-29.3	-29.9	28.1	0.00e+00	0	28	0	1275068416	32	5694
2026-01-12 02:59:19.19	186.25	24.88	-29.4	-30.0	28.2	0.00e+00	0	28	0	1280311296	32	5760
2026-01-12 02:59:20.20	186.36	25.03	-29.6	-30.2	28.0	0.00e+00	0	28	0	1285554176	32	5839
2026-01-12 02:59:21.21	186.47	25.18	-29.5	-30.1	28.1	0.00e+00	0	28	0	1291845632	32	5797
2026-01-12 02:59:22.22	186.58	25.33	-29.6	-30.2	28.1	0.00e+00	0	28	0	1297088512	32	5861
2026-01-12 02:59:23.23	186.69	25.48	-29.6	-30.2	28.0	0.00e+00	0	28	0	1303379968	32	5867
2026-01-12 02:59:24.23	186.81	25.64	-29.3	-30.0	28.2	0.00e+00	0	28	0	1308622848	32	5706
2026-01-12 02:59:25.24	186.92	25.79	-29.4	-30.0	28.2	0.00e+00	0	28	0	1314914304	32	5745
2026-01-12 02:59:26.25	187.04	25.94	-29.4	-30.0	28.3	0.00e+00	0	28	0	1320157184	32	5715
2026-01-12 02:59:27.26	187.16	26.10	-29.3	-29.9	28.2	0.00e+00	0	28	0	1326448640	32	5667
2026-01-12 02:59:28.27	187.28	26.25	-29.3	-29.9	28.3	0.00e+00	0	28	0	1331691520	32	5663
2026-01-12 02:59:29.27	187.39	26.41	-29.3	-29.9	28.2	0.00e+00	0	28	0	1336934400	32	5667
2026-01-12 02:59:30.28	187.52	26.57	-29.3	-30.0	28.3	0.00e+00	0	28	0	1343225856	32	5699
2026-01-12 02:59:31.29	187.64	26.72	-29.3	-30.0	28.3	0.00e+00	0	28	0	1348468736	32	5711
2026-01-12 02:59:32.30	187.76	26.88	-29.4	-30.0	28.2	0.00e+00	0	28	0	1353711616	32	5729
2026-01-12 02:59:33.31	187.89	27.04	-29.5	-30.1	28.2	0.00e+00	0	28	0	1360003072	32	5782
2026-01-12 02:59:34.32	188.01	27.20	-29.4	-30.0	28.3	0.00e+00	0	28	0	1365245952	32	5725
2026-01-12 02:59:35.33	188.14	27.36	-29.3	-29.9	28.3	0.00e+00	0	28	0	1371537408	32	5647
2026-01-12 02:59:36.34	188.27	27.53	-29.3	-29.9	28.4	0.00e+00	0	28	0	1376780288	32	5636
2026-01-12 02:59:37.35	188.40	27.69	-29.3	-30.0	28.3	0.00e+00	0	28	0	1382023168	32	5707
2026-01-12 02:59:38.36	188.53	27.85	-29.2	-29.9	28.4	0.00e+00	0	28	0	1388314624	32	5638
2026-01-12 02:59:39.37	188.66	28.02	-29.3	-29.9	28.4	0.00e+00	0	28	0	1393557504	32	5656
2026-01-12 02:59:40.38	188.79	28.18	-29.3	-29.9	28.3	0.00e+00	0	28	0	1399848960	32	5649
2026-01-12 02:59:41.39	188.93	28.35	-29.4	-30.0	28.3	0.00e+00	0	28	0	1405091840	32	5739
2026-01-12 02:59:42.40	189.06	28.51	-29.5	-30.1	28.2	0.00e+00	0	28	0	1411383296	32	5784
2026-01-12 02:59:43.41	189.20	28.68	-29.4	-30.0	28.3	0.00e+00	0	28	0	1416626176	32	5706
2026-01-12 02:59:44.42	189.34	28.85	-29.5	-30.1	28.2	0.00e+00	0	28	0	1422917632	32	5799
2026-01-12 02:59:45.43	189.48	29.02	-29.4	-30.0	28.2	0.00e+00	0	28	0	1428160512	32	5756
2026-01-12 02:59:46.43	189.62	29.19	-29.4	-30.0	28.2	0.00e+00	0	29	0	1433403392	32	5709
2026-01-12 02:59:47.44	189.76	29.36	-29.3	-29.9	28.3	0.00e+00	0	29	0	1439694848	32	5689
2026-01-12 02:59:48.45	189.91	29.53	-29.2	-29.8	28.5	0.00e+00	0	28	0	1444937728	32	5587
2026-01-12 02:59:49.46	190.06	29.71	-29.3	-29.9	28.3	0.00e+00	0	28	0	1451229184	32	5684
2026-01-12 02:59:50.47	190.20	29.88	-29.3	-30.0	28.3	0.00e+00	0	28	0	1456472064	32	5708
2026-01-12 02:59:51.48	190.35	30.05	-29.3	-30.0	28.4	0.00e+00	0	28	0	1461714944	32	5696
2026-01-12 02:59:52.49	190.50	30.23	-29.3	-29.9	28.4	0.00e+00	0	28	0	1468006400	32	5668
2026-01-12 02:59:53.50	190.66	30.41	-29.3	-29.9	28.3	0.00e+00	0	28	0	1473249280	32	5689
2026-01-12 02:59:54.51	190.81	30.58	-28.9	-29.5	28.6	0.00e+00	0	28	0	1479540736	32	5424
2026-01-12 02:59:55.52	190.97	30.76	-28.9	-29.6	28.6	0.00e+00	0	28	0	1484783616	32	5463
2026-01-12 02:59:56.53	191.12	30.94	-28.9	-29.5	28.6	0.00e+00	0	28	0	1490026496	32	5439
2026-01-12 02:59:57.54	191.28	31.12	-29.1	-29.7	28.4	0.00e+00	0	28	0	1496317952	32	5517
2026-01-12 02:59:58.55	191.44	31.30	-29.2	-29.9	28.5	0.00e+00	0	28	0	1501560832	32	5644
2026-01-12 02:59:59.56	191.61	31.48	-29.3	-29.9	28.4	0.00e+00	0	28	0	1507852288	32	5659
2026-01-12 03:00:00.57	191.77	31.66	-29.2	-29.9	28.4	0.00e+00	0	28	0	1513095168	32	5636
2026-01-12 03:00:01.58	191.94	31.85	-29.2	-29.8	28.4	0.00e+00	0	28	0	1519386624	32	5603
2026-01-12 03:00:02.59	192.11	32.03	-29.2	-29.8	28.5	0.00e+00	0	28	0	1524629504	32	5615
2026-01-12 03:00:03.60	192.28	32.22	-29.2	-29.8	28.4	0.00e+00	0	28	0	1529872384	32	5591
2026-01-12 03:00:04.61	192.45	32.40	-29.1	-29.7	28.5	0.00e+00	0	28	0	1536163840	32	5556
2026-01-12 03:00:05.62	192.62	32.59	-29.2	-29.8	28.4	0.00e+00	0	28	0	1541406720	32	5583
2026-01-12 03:00:06.62	192.80	32.78	-29.1	-29.7	28.6	0.00e+00	0	28	0	1547698176	32	5538
2026-01-12 03:00:07.64	192.97	32.97	-29.2	-29.8	28.5	0.00e+00	0	28	0	1552941056	32	5618
2026-01-12 03:00:08.64	193.15	33.15	-28.9	-29.6	28.7	0.00e+00	0	28	0	1558183936	32	5448
2026-01-12 03:00:09.65	193.33	33.34	-29.0	-29.7	28.6	0.00e+00	0	28	0	1564475392	32	5503
2026-01-12 03:00:10.66	193.52	33.54	-29.1	-29.7	28.5	0.00e+00	0	28	0	1569718272	32	5516
2026-01-12 03:00:11.67	193.70	33.73	-29.1	-29.7	28.5	0.00e+00	0	28	0	1576009728	32	5534
2026-01-12 03:00:12.68	193.89	33.92	-29.2	-29.9	28.5	0.00e+00	0	28	0	1581252608	32	5639
2026-01-12 03:00:13.69	194.08	34.11	-29.0	-29.7	28.6	0.00e+00	0	28	0	1586495488	32	5521
2026-01-12 03:00:14.70	194.28	34.31	-29.0	-29.6	28.6	0.00e+00	0	28	0	1592786944	32	5499
2026-01-12 03:00:15.71	194.47	34.51	-29.0	-29.6	28.5	0.00e+00	0	28	0	1598029824	32	5481
2026-01-12 03:00:16.72	194.67	34.70	-28.9	-29.5	28.6	0.00e+00	0	28	0	1604321280	32	5396
2026-01-12 03:00:17.73	194.87	34.90	-29.1	-29.7	28.6	0.00e+00	0	28	0	1609564160	32	5526
2026-01-12 03:00:18.74	195.07	35.10	-29.0	-29.6	28.5	0.00e+00	0	28	0	1615855616	32	5465
2026-01-12 03:00:19.75	195.27	35.30	-29.0	-29.6	28.5	0.00e+00	0	28	0	1621098496	32	5492
2026-01-12 03:00:20.76	195.48	35.50	-29.0	-29.7	28.5	0.00e+00	0	28	0	1627389952	32	5510
2026-01-12 03:00:21.77	195.69	35.70	-29.0	-29.6	28.5	0.00e+00	0	28	0	1632632832	32	5497
2026-01-12 03:00:22.77	195.90	35.90	-28.9	-29.5	28.6	0.00e+00	0	28	0	1637875712	32	5437
2026-01-12 03:00:23.79	196.12	36.10	-28.9	-29.5	28.7	0.00e+00	0	28	0	1644167168	32	5394
2026-01-12 03:00:24.80	196.33	36.31	-28.8	-29.4	28.8	0.00e+00	0	28	0	1649410048	32	5335
2026-01-12 03:00:25.80	196.55	36.51	-28.9	-29.5	28.7	0.00e+00	0	28	0	1654652928	30	6083
2026-01-12 03:00:26.81	196.77	36.71	-28.8	-29.4	28.8	0.00e+00	0	28	0	1660944384	30	5971
2026-01-12 03:00:27.82	197.00	36.92	-28.9	-29.5	28.7	0.00e+00	0	28	0	1666187264	30	6041
2026-01-12 03:00:28.84	197.23	37.13	-28.9	-29.5	28.6	0.00e+00	0	28	0	1672478720	30	6091
2026-01-12 03:00:29.85	197.46	37.33	-28.8	-29.5	28.7	0.00e+00	0	28	0	1677721600	30	6036
2026-01-12 03:00:30.85	197.69	37.54	-28.6	-29.2	28.8	0.00e+00	0	28	0	1684013056	30	5887
2026-01-12 03:00:31.86	197.93	37.75	-28.5	-29.1	28.9	0.00e+00	0	28	0	1689255936	30	5826
2026-01-12 03:00:32.87	198.17	37.96	-28.5	-29.1	29.0	0.00e+00	0	28	0	1694498816	30	5793
2026-01-12 03:00:33.88	198.41	38.17	-28.6	-29.2	28.9	0.00e+00	0	28	0	1700790272	30	5845
2026-01-12 03:00:34.89	198.66	38.38	-28.7	-29.3	28.8	0.00e+00	0	28	0	1706033152	30	5957
2026-01-12 03:00:35.90	198.91	38.59	-28.7	-29.3	28.8	0.00e+00	0	28	0	1712324608	30	5942
2026-01-12 03:00:36.91	199.16	38.81	-28.9	-29.5	28.7	0.00e+00	0	28	0	1717567488	30	6090
2026-01-12 03:00:37.92	199.41	39.02	-28.8	-29.4	28.6	0.00e+00	0	28	0	1723858944	30	6030
2026-01-12 03:00:38.93	199.67	39.23	-28.7	-29.3	28.6	0.00e+00	0	28	0	1729101824	30	5945
2026-01-12 03:00:39.94	199.93	39.45	-28.8	-29.4	28.7	0.00e+00	0	28	0	1734344704	30	5981
2026-01-12 03:00:40.95	200.20	39.66	-28.8	-29.4	28.8	0.00e+00	0	28	0	1740636160	30	5974
2026-01-12 03:00:41.96	200.47	39.88	-28.8	-29.4	28.7	0.00e+00	0	28	0	1745879040	30	6008
2026-01-12 03:00:42.97	200.74	40.10	-28.9	-29.5	28.7	0.00e+00	0	28	0	1752170496	30	6050
2026-01-12 03:00:43.98	201.02	40.31	-28.8	-29.4	28.7	0.00e+00	0	28	0	1757413376	30	6021
2026-01-12 03:00:44.99	201.30	40.53	-28.7	-29.3	28.8	0.00e+00	0	28	0	1762656256	30	5928
2026-01-12 03:00:46.00	201.58	40.75	-28.7	-29.3	28.8	0.00e+00	0	28	0	1768947712	30	5919
2026-01-12 03:00:47.01	201.87	40.97	-28.8	-29.4	28.7	0.00e+00	0	28	0	1774190592	30	5968
2026-01-12 03:00:48.02	202.16	41.19	-28.8	-29.4	28.7	0.00e+00	0	28	0	1780482048	30	6027
2026-01-12 03:00:49.02	202.45	41.41	-29.0	-29.6	28.6	0.00e+00	0	28	0	1785724928	30	6132
2026-01-12 03:00:50.03	202.75	41.63	-28.9	-29.5	28.7	0.00e+00	0	28	0	1790967808	30	6071
2026-01-12 03:00:51.04	203.06	41.85	-28.9	-29.5	28.6	0.00e+00	0	28	0	1797259264	30	6074
2026-01-12 03:00:52.05	203.36	42.07	-29.1	-29.7	28.6	0.00e+00	0	28	0	1802502144	30	6204
2026-01-12 03:00:53.06	203.67	42.29	-29.2	-29.8	28.5	0.00e+00	0	28	0	1808793600	30	6288
2026-01-12 03:00:54.07	203.99	42.52	-29.1	-29.8	28.5	0.00e+00	0	28	0	1814036480	30	6249
2026-01-12 03:00:55.08	204.31	42.74	-29.0	-29.6	28.6	0.00e+00	0	28	0	1820327936	30	6111
2026-01-12 03:00:56.09	204.64	42.96	-29.0	-29.6	28.7	0.00e+00	0	28	0	1825570816	30	6150
2026-01-12 03:00:57.10	204.96	43.19	-29.2	-29.9	28.4	0.00e+00	0	28	0	1830813696	30	6330
2026-01-12 03:00:58.11	205.30	43.41	-29.2	-29.9	28.4	0.00e+00	0	29	0	1837105152	30	6318
2026-01-12 03:00:59.12	205.64	43.63	-29.1	-29.7	28.4	0.00e+00	0	28	0	1842348032	30	6210
2026-01-12 03:01:00.13	205.98	43.86	-29.2	-29.9	28.5	0.00e+00	0	28	0	1848639488	30	6336
2026-01-12 03:01:01.14	206.33	44.08	-29.0	-29.6	28.6	0.00e+00	0	28	0	1853882368	30	6126
2026-01-12 03:01:02.15	206.68	44.31	-29.2	-29.8	28.4	0.00e+00	0	28	0	1859125248	30	6280
2026-01-12 03:01:03.16	207.04	44.53	-29.4	-30.0	28.3	0.00e+00	0	28	0	1865416704	30	6453
2026-01-12 03:01:04.17	207.40	44.76	-29.4	-30.1	28.3	0.00e+00	0	28	0	1870659584	30	6468
2026-01-12 03:01:05.18	207.77	44.98	-29.3	-29.9	28.4	0.00e+00	0	28	0	1876951040	30	6325
2026-01-12 03:01:06.19	208.14	45.21	-29.4	-30.0	28.3	0.00e+00	0	28	0	1882193920	30	6399
2026-01-12 03:01:07.20	208.52	45.43	-29.4	-30.0	28.2	0.00e+00	0	28	0	1887436800	30	6439
2026-01-12 03:01:08.21	208.90	45.66	-29.3	-30.0	28.3	0.00e+00	0	29	0	1893728256	30	6391
2026-01-12 03:01:09.22	209.29	45.88	-29.2	-29.8	28.5	0.00e+00	0	28	0	1898971136	30	6299
2026-01-12 03:01:10.23	209.68	46.10	-29.3	-29.9	28.4	0.00e+00	0	28	0	1905262592	30	6343
2026-01-12 03:01:11.24	210.08	46.33	-29.3	-30.0	28.3	0.00e+00	0	28	0	1910505472	30	6404
2026-01-12 03:01:12.25	210.49	46.55	-29.5	-30.1	28.2	0.00e+00	0	28	0	1916796928	30	6535
2026-01-12 03:01:13.26	210.90	46.77	-29.7	-30.3	27.9	0.00e+00	0	28	0	1922039808	30	6680
2026-01-12 03:01:14.27	211.32	47.00	-29.8	-30.4	27.9	0.00e+00	0	28	0	1928331264	32	6032
2026-01-12 03:01:15.28	211.74	47.22	-29.8	-30.5	27.9	0.00e+00	0	28	0	1933574144	32	6051
2026-01-12 03:01:16.29	212.17	47.44	-29.5	-30.1	28.2	0.00e+00	0	28	0	1938817024	32	5786
2026-01-12 03:01:17.30	212.60	47.66	-29.2	-29.8	28.4	0.00e+00	0	28	0	1945108480	32	5615
2026-01-12 03:01:18.31	213.05	47.88	-29.1	-29.7	28.5	0.00e+00	0	28	0	1950351360	32	5525
2026-01-12 03:01:19.31	213.49	48.10	-29.4	-30.1	28.2	0.00e+00	0	28	0	1956642816	32	5777
2026-01-12 03:01:20.32	213.94	48.32	-29.7	-30.3	28.0	0.00e+00	0	28	0	1961885696	32	5946
2026-01-12 03:01:21.34	214.41	48.54	-30.0	-30.6	27.8	0.00e+00	0	28	0	1967128576	32	6145
2026-01-12 03:01:22.35	214.87	48.76	-29.7	-30.3	28.0	0.00e+00	0	28	0	1973420032	32	5957
2026-01-12 03:01:23.35	215.34	48.97	-29.7	-30.3	27.9	0.00e+00	0	28	0	1978662912	32	5941
2026-01-12 03:01:24.36	215.82	49.19	-29.4	-30.0	28.3	0.00e+00	0	28	0	1984954368	32	5725
2026-01-12 03:01:25.37	216.31	49.40	-29.3	-29.9	28.4	0.00e+00	0	29	0	1990197248	32	5643
2026-01-12 03:01:26.38	216.80	49.62	-29.4	-30.0	28.3	0.00e+00	0	28	0	1995440128	32	5723
2026-01-12 03:01:27.39	217.30	49.83	-29.3	-29.9	28.3	0.00e+00	0	28	0	2001731584	32	5666
2026-01-12 03:01:28.40	217.81	50.04	-29.6	-30.2	28.1	0.00e+00	0	29	0	2006974464	32	5874
2026-01-12 03:01:29.41	218.32	50.25	-29.8	-30.4	27.9	0.00e+00	0	28	0	2013265920	32	6028
2026-01-12 03:01:30.42	218.84	50.46	-29.7	-30.3	28.1	0.00e+00	0	28	0	2018508800	32	5942
2026-01-12 03:01:31.43	219.37	50.66	-29.8	-30.4	27.9	0.00e+00	0	28	0	2024800256	32	5983
2026-01-12 03:01:32.44	219.91	50.87	-29.7	-30.3	28.0	0.00e+00	0	28	0	2030043136	32	5931
2026-01-12 03:01:33.45	220.45	51.07	-29.8	-30.4	27.9	0.00e+00	0	28	0	2035286016	32	6008
2026-01-12 03:01:34.46	221.00	51.27	-29.6	-30.1	28.1	0.00e+00	0	28	0	2041577472	32	5819
2026-01-12 03:01:35.46	221.55	51.47	-29.8	-30.4	28.0	0.00e+00	0	29	0	2046820352	32	5988
2026-01-12 03:01:36.47	222.11	51.67	-29.8	-30.4	27.9	0.00e+00	0	28	0	2053111808	32	6016
2026-01-12 03:01:37.47	222.68	51.86	-30.0	-30.7	27.7	0.00e+00	0	28	0	2058354688	32	6178
2026-01-12 03:01:38.48	223.26	52.05	-30.0	-30.6	27.8	0.00e+00	0	28	0	2063597568	32	6161
2026-01-12 03:01:39.49	223.85	52.24	-29.9	-30.5	27.9	0.00e+00	0	28	0	2069889024	32	6099
2026-01-12 03:01:40.50	224.44	52.43	-29.8	-30.5	27.9	0.00e+00	0	28	0	2075131904	32	6073
2026-01-12 03:01:41.51	225.04	52.62	-29.8	-30.4	28.0	0.00e+00	0	28	0	2081423360	32	6020
2026-01-12 03:01:42.51	225.65	52.80	-29.8	-30.3	28.0	0.00e+00	0	28	0	2086666240	32	5956
2026-01-12 03:01:43.52	226.26	52.98	-30.1	-30.7	27.8	0.00e+00	0	28	0	2091909120	32	6232
2026-01-12 03:01:44.53	226.89	53.16	-30.2	-30.8	27.7	0.00e+00	0	28	0	2098200576	32	6278
2026-01-12 03:01:45.54	227.52	53.34	-30.2	-30.8	27.6	0.00e+00	0	28	0	2103443456	32	6307
2026-01-12 03:01:46.55	228.16	53.51	-29.9	-30.5	27.9	0.00e+00	0	28	0	2109734912	32	6071
2026-01-12 03:01:47.56	228.80	53.68	-30.1	-30.7	27.8	0.00e+00	0	28	0	2114977792	32	6217
2026-01-12 03:01:48.57	229.46	53.84	-30.2	-30.8	27.7	0.00e+00	0	28	0	2121269248	32	6298
2026-01-12 03:01:49.58	230.12	54.01	-30.1	-30.8	27.8	0.00e+00	0	28	0	2126512128	32	6258
2026-01-12 03:01:50.59	230.79	54.17	-30.1	-30.7	27.8	0.00e+00	0	28	0	2131755008	32	6214
2026-01-12 03:01:51.60	231.47	54.32	-30.2	-30.8	27.7	0.00e+00	0	28	0	2138046464	32	6297
2026-01-12 03:01:52.61	232.15	54.48	-30.3	-31.0	27.5	0.00e+00	0	28	0	2143289344	32	6397
2026-01-12 03:01:53.62	232.84	54.63	-30.3	-30.9	27.6	0.00e+00	0	29	0	2149580800	32	6367
2026-01-12 03:01:54.63	233.54	54.77	-30.4	-31.0	27.6	0.00e+00	0	29	0	2154823680	32	6464
2026-01-12 03:01:55.64	234.24	54.91	-30.3	-30.9	27.6	0.00e+00	0	28	0	2160066560	32	6322
2026-01-12 03:01:56.65	234.95	55.05	-29.9	-30.5	27.9	0.00e+00	0	29	0	2166358016	32	6059
2026-01-12 03:01:57.66	235.67	55.18	-30.1	-30.8	27.7	0.00e+00	0	28	0	2171600896	32	6260
2026-01-12 03:01:58.67	236.40	55.31	-30.2	-30.8	27.6	0.00e+00	0	28	0	2177892352	32	6285
2026-01-12 03:01:59.68	237.13	55.44	-30.3	-31.0	27.6	0.00e+00	0	28	0	2183135232	32	6392
2026-01-12 03:02:00.69	237.87	55.56	-30.2	-30.8	27.7	0.00e+00	0	28	0	2188378112	32	6286
2026-01-12 03:02:01.70	238.61	55.68	-30.3	-30.9	27.7	0.00e+00	0	28	0	2194669568	32	6354
2026-01-12 03:02:02.71	239.36	55.79	-30.2	-30.8	27.7	0.00e+00	0	28	0	2199912448	32	6254
2026-01-12 03:02:03.71	240.11	55.90	-30.2	-30.8	27.7	0.00e+00	0	28	0	2206203904	32	6298
2026-01-12 03:02:04.72	240.87	56.00	-30.1	-30.7	27.7	0.00e+00	0	28	0	2211446784	32	6212
2026-01-12 03:02:05.73	241.64	56.10	-30.0	-30.5	27.8	0.00e+00	0	28	0	2217738240	32	6087
2026-01-12 03:02:06.74	242.42	56.19	-30.0	-30.7	27.7	0.00e+00	0	28	0	2222981120	32	6195
2026-01-12 03:02:07.75	243.19	56.28	-30.3	-30.9	27.6	0.00e+00	0	29	0	2228224000	32	6354
2026-01-12 03:02:08.75	243.97	56.36	-30.2	-30.9	27.6	0.00e+00	0	28	0	2234515456	32	6336
2026-01-12 03:02:09.76	244.75	56.44	-30.2	-30.9	27.6	0.00e+00	0	29	0	2239758336	32	6345
2026-01-12 03:02:10.77	245.55	56.52	-30.2	-30.9	27.6	0.00e+00	0	29	0	2246049792	32	6326
2026-01-12 03:02:11.78	246.34	56.59	-30.4	-31.1	27.5	0.00e+00	0	28	0	2251292672	32	6475
2026-01-12 03:02:12.79	247.14	56.65	-30.3	-30.9	27.6	0.00e+00	0	28	0	2256535552	32	6372
2026-01-12 03:02:13.80	247.94	56.71	-30.1	-30.7	27.7	0.00e+00	0	28	0	2262827008	32	6220
2026-01-12 03:02:14.81	248.75	56.76	-30.5	-31.1	27.4	0.00e+00	0	28	0	2268069888	32	6512
2026-01-12 03:02:15.82	249.56	56.81	-30.7	-31.3	27.2	0.00e+00	0	28	0	2274361344	34	5949
2026-01-12 03:02:16.83	250.37	56.85	-30.4	-31.1	27.5	0.00e+00	0	29	0	2279604224	34	5763
2026-01-12 03:02:17.83	251.18	56.89	-30.3	-30.9	27.6	0.00e+00	0	29	0	2284847104	34	5645
2026-01-12 03:02:18.84	251.99	56.92	-30.3	-31.0	27.5	0.00e+00	0	29	0	2291138560	34	5704
2026-01-12 03:02:19.85	252.81	56.94	-30.3	-31.0	27.5	0.00e+00	0	29	0	2296381440	34	5713
2026-01-12 03:02:20.86	253.63	56.96	-30.4	-31.0	27.5	0.00e+00	0	28	0	2302672896	34	5726
2026-01-12 03:02:21.87	254.45	56.98	-30.4	-31.1	27.4	0.00e+00	0	28	0	2307915776	34	5792
2026-01-12 03:02:22.88	255.27	56.99	-30.5	-31.1	27.4	0.00e+00	0	29	0	2314207232	34	5778
2026-01-12 03:02:23.89	256.09	56.99	-30.4	-31.1	27.5	0.00e+00	0	28	0	2319450112	34	5786
2026-01-12 03:02:24.90	256.91	56.99	-30.3	-30.9	27.5	0.00e+00	0	28	0	2324692992	34	5659
2026-01-12 03:02:25.91	257.73	56.98	-30.3	-30.9	27.5	0.00e+00	0	29	0	2330984448	34	5688
2026-01-12 03:02:26.92	258.55	56.97	-30.3	-30.9	27.5	0.00e+00	0	29	0	2336227328	34	5672
2026-01-12 03:02:27.93	259.37	56.95	-30.3	-30.9	27.6	0.00e+00	0	28	0	2342518784	34	5675
2026-01-12 03:02:28.94	260.19	56.93	-30.0	-30.6	27.7	0.00e+00	0	28	0	2347761664	34	5490
2026-01-12 03:02:29.95	261.00	56.90	-30.0	-30.6	27.6	0.00e+00	0	28	0	2353004544	34	5475
2026-01-12 03:02:30.96	261.82	56.86	-30.2	-30.8	27.5	0.00e+00	0	28	0	2359296000	34	5630
2026-01-12 03:02:31.97	262.63	56.82	-30.2	-30.9	27.5	0.00e+00	0	28	0	2364538880	34	5665
2026-01-12 03:02:32.98	263.44	56.78	-30.1	-30.7	27.7	0.00e+00	0	28	0	2370830336	34	5553
2026-01-12 03:02:33.99	264.25	56.73	-30.2	-30.8	27.7	0.00e+00	0	28	0	2376073216	34	5585
2026-01-12 03:02:35.00	265.05	56.67	-30.2	-30.9	27.6	0.00e+00	0	28	0	2381316096	34	5639
2026-01-12 03:02:36.01	265.85	56.61	-30.2	-30.8	27.5	0.00e+00	0	28	0	2387607552	34	5620
2026-01-12 03:02:37.02	266.65	56.54	-30.1	-30.8	27.7	0.00e+00	0	28	0	2392850432	34	5570
2026-01-12 03:02:38.03	267.44	56.47	-30.2	-30.8	27.6	0.00e+00	0	29	0	2399141888	34	5593
2026-01-12 03:02:39.04	268.23	56.39	-30.3	-31.0	27.5	0.00e+00	0	29	0	2404384768	34	5712
2026-01-12 03:02:40.04	269.00	56.31	-30.3	-31.0	27.4	0.00e+00	0	28	0	2410676224	34	5700
2026-01-12 03:02:41.05	269.78	56.22	-30.3	-30.9	27.6	0.00e+00	0	29	0	2415919104	34	5671
2026-01-12 03:02:42.06	270.56	56.13	-30.3	-31.0	27.5	0.00e+00	0	28	0	2422210560	34	5724
2026-01-12 03:02:43.07	271.32	56.04	-30.1	-30.8	27.7	0.00e+00	0	29	0	2427453440	34	5616
2026-01-12 03:02:44.08	272.09	55.94	-30.1	-30.6	27.8	0.00e+00	0	28	0	2432696320	34	5491
2026-01-12 03:02:45.09	272.85	55.83	-30.1	-30.8	27.7	0.00e+00	0	29	0	2438987776	34	5581
2026-01-12 03:02:46.10	273.60	55.72	-30.0	-30.6	27.9	0.00e+00	0	28	0	2444230656	34	5484
2026-01-12 03:02:47.11	274.34	55.60	-30.1	-30.7	27.7	0.00e+00	0	29	0	2450522112	34	5550
2026-01-12 03:02:48.12	275.08	55.48	-30.6	-31.2	27.4	0.00e+00	0	28	0	2455764992	34	5833
2026-01-12 03:02:49.13	275.82	55.36	-30.9	-31.5	27.1	0.00e+00	0	29	0	2461007872	34	6074
2026-01-12 03:02:50.14	276.54	55.23	-30.9	-31.5	27.1	0.00e+00	0	28	0	2467299328	34	6092
2026-01-12 03:02:51.14	277.26	55.10	-30.7	-31.2	27.3	0.00e+00	0	29	0	2472542208	34	5894
2026-01-12 03:02:52.16	277.98	54.96	-30.6	-31.2	27.3	0.00e+00	0	28	0	2478833664	34	5893
2026-01-12 03:02:53.17	278.68	54.82	-30.5	-31.1	27.4	0.00e+00	0	28	0	2484076544	34	5779
2026-01-12 03:02:54.18	279.38	54.68	-30.4	-31.1	27.4	0.00e+00	0	28	0	2489319424	34	5809
2026-01-12 03:02:55.19	280.08	54.53	-30.5	-31.1	27.5	0.00e+00	0	29	0	2495610880	34	5775
2026-01-12 03:02:56.20	280.76	54.38	-30.5	-31.1	27.4	0.00e+00	0	28	0	2500853760	34	5764
2026-01-12 03:02:57.21	281.44	54.23	-30.3	-30.9	27.6	0.00e+00	0	28	0	2507145216	34	5695
2026-01-12 03:02:58.21	282.10	54.07	-30.0	-30.7	27.8	0.00e+00	0	28	0	2512388096	34	5518
2026-01-12 03:02:59.22	282.77	53.91	-30.2	-30.9	27.7	0.00e+00	0	28	0	2518679552	34	5646
2026-01-12 03:03:00.23	283.42	53.74	-30.3	-30.9	27.6	0.00e+00	0	28	0	2523922432	34	5675
2026-01-12 03:03:01.24	284.07	53.58	-30.2	-30.9	27.6	0.00e+00	0	28	0	2529165312	34	5692
2026-01-12 03:03:02.25	284.71	53.40	-29.9	-30.6	27.9	0.00e+00	0	28	0	2535456768	34	5443
2026-01-12 03:03:03.26	285.35	53.23	-30.0	-30.6	27.9	0.00e+00	0	28	0	2540699648	34	5478
2026-01-12 03:03:04.27	285.97	53.05	-30.4	-31.0	27.6	0.00e+00	0	29	0	2546991104	34	5727
2026-01-12 03:03:05.28	286.59	52.87	-30.4	-31.0	27.5	0.00e+00	0	29	0	2552233984	34	5753
2026-01-12 03:03:06.29	287.20	52.69	-30.4	-31.0	27.5	0.00e+00	0	28	0	2557476864	34	5736
2026-01-12 03:03:07.30	287.81	52.51	-30.4	-30.9	27.5	0.00e+00	0	28	0	2563768320	34	5684
2026-01-12 03:03:08.31	288.40	52.32	-30.0	-30.7	27.8	0.00e+00	0	28	0	2569011200	34	5514
2026-01-12 03:03:09.32	288.99	52.13	-29.8	-30.4	28.0	0.00e+00	0	28	0	2575302656	34	5365
2026-01-12 03:03:10.33	289.57	51.94	-29.8	-30.4	28.0	0.00e+00	0	28	0	2580545536	34	5374
2026-01-12 03:03:11.34	290.15	51.75	-29.8	-30.4	28.0	0.00e+00	0	29	0	2585788416	34	5335
2026-01-12 03:03:12.35	290.71	51.55	-29.9	-30.6	27.9	0.00e+00	0	28	0	2592079872	34	5459
2026-01-12 03:03:13.36	291.27	51.35	-29.7	-30.2	28.0	0.00e+00	0	28	0	2597322752	32	5893
2026-01-12 03:03:14.37	291.82	51.15	-29.7	-30.4	28.0	0.00e+00	0	28	0	2603614208	32	5985
2026-01-12 03:03:15.38	292.37	50.95	-29.7	-30.3	28.0	0.00e+00	0	28	0	2608857088	32	5952
2026-01-12 03:03:16.39	292.90	50.75	-29.7	-30.3	28.0	0.00e+00	0	28	0	2615148544	32	5903
2026-01-12 03:03:17.40	293.43	50.54	-29.5	-30.2	28.1	0.00e+00	0	28	0	2620391424	32	5851
2026-01-12 03:03:18.41	293.95	50.33	-29.6	-30.3	28.0	0.00e+00	0	28	0	2626682880	32	5929
2026-01-12 03:03:19.42	294.47	50.13	-29.7	-30.3	27.9	0.00e+00	0	28	0	2631925760	32	5923
2026-01-12 03:03:20.43	294.98	49.92	-29.6	-30.1	28.1	0.00e+00	0	28	0	2637168640	32	5814
2026-01-12 03:03:21.44	295.48	49.71	-29.7	-30.4	28.0	0.00e+00	0	28	0	2643460096	32	6020
2026-01-12 03:03:22.45	295.98	49.49	-29.8	-30.4	27.9	0.00e+00	0	29	0	2648702976	32	6000
2026-01-12 03:03:23.46	296.46	49.28	-29.8	-30.4	28.0	0.00e+00	0	28	0	2654994432	32	5999
2026-01-12 03:03:24.47	296.94	49.06	-29.9	-30.4	27.9	0.00e+00	0	28	0	2660237312	32	6019
2026-01-12 03:03:25.48	297.42	48.85	-29.9	-30.4	28.1	0.00e+00	0	28	0	2665480192	32	6009
2026-01-12 03:03:26.48	297.88	48.63	-29.6	-30.2	28.1	0.00e+00	0	28	0	2671771648	32	5850
2026-01-12 03:03:27.49	298.34	48.42	-29.6	-30.2	28.1	0.00e+00	0	28	0	2677014528	32	5850
2026-01-12 03:03:28.51	298.80	48.20	-29.5	-30.1	28.2	0.00e+00	0	28	0	2683305984	32	5825
2026-01-12 03:03:29.52	299.25	47.98	-29.5	-30.1	28.2	0.00e+00	0	28	0	2688548864	32	5800
2026-01-12 03:03:30.52	299.69	47.76	-29.5	-30.2	28.1	0.00e+00	0	28	0	2693791744	32	5844
2026-01-12 03:03:31.53	300.13	47.54	-29.6	-30.3	28.1	0.00e+00	0	28	0	2700083200	32	5909
2026-01-12 03:03:32.54	300.56	47.32	-29.6	-30.2	28.1	0.00e+00	0	28	0	2705326080	32	5881
2026-01-12 03:03:33.55	300.98	47.10	-29.6	-30.2	28.1	0.00e+00	0	28	0	2711617536	32	5867
2026-01-12 03:03:34.56	301.40	46.88	-29.4	-30.0	28.3	0.00e+00	0	28	0	2716860416	32	5743
2026-01-12 03:03:35.57	301.81	46.65	-29.4	-30.0	28.3	0.00e+00	0	28	0	2723151872	32	5723
2026-01-12 03:03:36.58	302.22	46.43	-29.4	-30.0	28.3	0.00e+00	0	28	0	2728394752	32	5756
2026-01-12 03:03:37.59	302.62	46.21	-29.6	-30.2	28.1	0.00e+00	0	28	0	2733637632	32	5842
2026-01-12 03:03:38.60	303.02	45.98	-29.7	-30.2	28.0	0.00e+00	0	28	0	2739929088	32	5874
2026-01-12 03:03:39.61	303.41	45.76	-29.6	-30.3	27.9	0.00e+00	0	29	0	2745171968	32	5936
2026-01-12 03:03:40.62	303.79	45.54	-29.2	-29.9	28.3	0.00e+00	0	28	0	2751463424	32	5670
2026-01-12 03:03:41.63	304.17	45.31	-29.2	-29.9	28.4	0.00e+00	0	28	0	2756706304	32	5639
2026-01-12 03:03:42.64	304.54	45.09	-29.3	-29.9	28.4	0.00e+00	0	28	0	2761949184	32	5686
2026-01-12 03:03:43.65	304.91	44.87	-29.5	-30.2	28.3	0.00e+00	0	28	0	2768240640	32	5831
2026-01-12 03:03:44.66	305.28	44.64	-29.5	-30.0	28.2	0.00e+00	0	28	0	2773483520	32	5760
2026-01-12 03:03:45.67	305.64	44.42	-29.4	-29.9	28.2	0.00e+00	0	28	0	2779774976	32	5691
2026-01-12 03:03:46.68	305.99	44.19	-29.3	-29.8	28.3	0.00e+00	0	28	0	2785017856	32	5626
2026-01-12 03:03:47.69	306.34	43.97	-29.1	-29.6	28.3	0.00e+00	0	28	0	2790260736	32	5480
2026-01-12 03:03:48.70	306.68	43.75	-29.1	-29.7	28.2	0.00e+00	0	28	0	2796552192	32	5559
2026-01-12 03:03:49.71	307.02	43.52	-29.2	-29.9	28.1	0.00e+00	0	28	0	2801795072	32	5658
2026-01-12 03:03:50.72	307.36	43.30	-29.3	-30.0	28.0	0.00e+00	0	28	0	2808086528	32	5711
2026-01-12 03:03:51.73	307.69	43.08	-29.2	-29.8	28.2	0.00e+00	0	29	0	2813329408	32	5568
2026-01-12 03:03:52.74	308.01	42.86	-29.1	-29.7	28.2	0.00e+00	0	28	0	2819620864	32	5516
2026-01-12 03:03:53.75	308.33	42.63	-28.9	-29.5	28.3	0.00e+00	0	29	0	2824863744	32	5379
2026-01-12 03:03:54.76	308.65	42.41	-29.0	-29.5	28.5	0.00e+00	0	29	0	2831155200	32	5435
2026-01-12 03:03:55.78	308.97	42.19	-29.1	-29.7	28.4	0.00e+00	0	28	0	2836398080	32	5553
2026-01-12 03:03:56.79	309.27	41.97	-29.2	-29.9	28.4	0.00e+00	0	28	0	2841640960	32	5641
2026-01-12 03:03:57.80	309.58	41.75	-29.4	-30.1	28.2	0.00e+00	0	28	0	2847932416	32	5795
2026-01-12 03:03:58.81	309.88	41.53	-29.3	-29.9	28.2	0.00e+00	0	28	0	2853175296	32	5643
2026-01-12 03:03:59.81	310.17	41.31	-29.3	-29.8	28.3	0.00e+00	0	29	0	2859466752	32	5614
2026-01-12 03:04:00.82	310.46	41.09	-29.2	-29.8	28.3	0.00e+00	0	28	0	2864709632	32	5590
2026-01-12 03:04:01.83	310.75	40.87	-29.3	-30.0	28.3	0.00e+00	0	28	0	2869952512	32	5729
2026-01-12 03:04:02.85	311.04	40.65	-29.2	-29.7	28.4	0.00e+00	0	28	0	2876243968	32	5551
2026-01-12 03:04:03.85	311.32	40.44	-29.2	-29.9	28.4	0.00e+00	0	28	0	2881486848	32	5665
2026-01-12 03:04:04.86	311.60	40.22	-29.3	-30.0	28.4	0.00e+00	0	28	0	2887778304	32	5717
2026-01-12 03:04:05.88	311.87	40.00	-29.2	-29.8	28.3	0.00e+00	0	28	0	2893021184	32	5571
2026-01-12 03:04:06.89	312.14	39.79	-29.2	-29.8	28.3	0.00e+00	0	28	0	2898264064	32	5582
2026-01-12 03:04:07.89	312.41	39.57	-29.1	-29.8	28.5	0.00e+00	0	28	0	2904555520	32	5599
2026-01-12 03:04:08.91	312.67	39.36	-29.0	-29.6	28.5	0.00e+00	0	29	0	2909798400	32	5451
2026-01-12 03:04:09.91	312.93	39.15	-29.1	-29.8	28.5	0.00e+00	0	28	0	2916089856	32	5620
2026-01-12 03:04:10.92	313.19	38.93	-29.2	-29.9	28.4	0.00e+00	0	29	0	2921332736	32	5634
2026-01-12 03:04:11.93	313.44	38.72	-29.4	-29.9	28.2	0.00e+00	0	28	0	2927624192	32	5684
2026-01-12 03:04:12.94	313.69	38.51	-29.1	-29.8	28.4	0.00e+00	0	29	0	2932867072	32	5607
2026-01-12 03:04:13.95	313.94	38.30	-29.2	-29.9	28.4	0.00e+00	0	28	0	2938109952	32	5654
2026-01-12 03:04:14.96	314.18	38.09	-29.0	-29.7	28.5	0.00e+00	0	29	0	2944401408	32	5541
2026-01-12 03:04:15.97	314.42	37.88	-29.2	-29.8	28.4	0.00e+00	0	28	0	2949644288	32	5613
2026-01-12 03:04:16.98	314.66	37.67	-29.3	-29.9	28.4	0.00e+00	0	28	0	2955935744	32	5679
2026-01-12 03:04:17.99	314.89	37.46	-29.0	-29.5	28.6	0.00e+00	0	28	0	2961178624	32	5426
2026-01-12 03:04:19.00	315.12	37.26	-29.1	-29.6	28.5	0.00e+00	0	28	0	2966421504	32	5467
2026-01-12 03:04:20.01	315.35	37.05	-29.0	-29.7	28.5	0.00e+00	0	29	0	2972712960	32	5518
2026-01-12 03:04:21.02	315.58	36.85	-29.0	-29.5	28.6	0.00e+00	0	28	0	2977955840	32	5408
2026-01-12 03:04:22.03	315.80	36.64	-29.0	-29.5	28.5	0.00e+00	0	29	0	2984247296	32	5435
2026-01-12 03:04:23.04	316.02	36.44	-28.9	-29.4	28.7	0.00e+00	0	28	0	2989490176	32	5370
2026-01-12 03:04:24.05	316.24	36.23	-28.8	-29.5	28.7	0.00e+00	0	28	0	2994733056	32	5381
2026-01-12 03:04:25.06	316.46	36.03	-28.9	-29.5	28.6	0.00e+00	0	28	0	3001024512	32	5408
2026-01-12 03:04:26.07	316.67	35.83	-28.7	-29.3	28.7	0.00e+00	0	28	0	3006267392	30	5910
2026-01-12 03:04:27.07	316.88	35.63	-28.8	-29.5	28.6	0.00e+00	0	28	0	3012558848	30	6047
2026-01-12 03:04:28.08	317.08	35.43	-28.8	-29.5	28.7	0.00e+00	0	28	0	3017801728	30	6066
2026-01-12 03:04:29.09	317.29	35.23	-28.8	-29.5	28.7	0.00e+00	0	28	0	3024093184	30	6075
2026-01-12 03:04:30.10	317.49	35.04	-28.9	-29.6	28.6	0.00e+00	0	29	0	3029336064	30	6146
2026-01-12 03:04:31.11	317.69	34.84	-29.1	-29.7	28.5	0.00e+00	0	28	0	3035627520	30	6199
2026-01-12 03:04:32.12	317.89	34.64	-29.2	-29.7	28.3	0.00e+00	0	29	0	3040870400	30	6228
2026-01-12 03:04:33.13	318.09	34.45	-29.1	-29.7	28.5	0.00e+00	0	29	0	3046113280	30	6184
2026-01-12 03:04:34.14	318.28	34.25	-29.2	-29.8	28.4	0.00e+00	0	29	0	3052404736	30	6264
2026-01-12 03:04:35.15	318.47	34.06	-29.0	-29.7	28.5	0.00e+00	0	29	0	3057647616	30	6241
2026-01-12 03:04:36.16	318.66	33.87	-28.9	-29.6	28.5	0.00e+00	0	28	0	3063939072	30	6166
2026-01-12 03:04:37.17	318.85	33.68	-28.9	-29.6	28.6	0.00e+00	0	28	0	3069181952	30	6158
2026-01-12 03:04:38.18	319.03	33.49	-28.9	-29.5	28.6	0.00e+00	0	29	0	3074424832	30	6039
2026-01-12 03:04:39.19	319.21	33.30	-28.9	-29.4	28.5	0.00e+00	0	28	0	3080716288	30	6020
2026-01-12 03:04:40.20	319.39	33.11	-29.0	-29.6	28.4	0.00e+00	0	28	0	3085959168	30	6115
2026-01-12 03:04:41.21	319.57	32.92	-29.0	-29.5	28.5	0.00e+00	0	28	0	3092250624	30	6064
2026-01-12 03:04:42.22	319.75	32.73	-29.0	-29.6	28.5	0.00e+00	0	28	0	3097493504	30	6118
2026-01-12 03:04:43.23	319.92	32.55	-29.0	-29.6	28.5	0.00e+00	0	28	0	3102736384	30	6111
2026-01-12 03:04:44.23	320.09	32.36	-29.2	-29.7	28.4	0.00e+00	0	29	0	3109027840	30	6241
2026-01-12 03:04:45.24	320.27	32.18	-29.3	-29.8	28.3	0.00e+00	0	29	0	3114270720	30	6295
2026-01-12 03:04:46.26	320.44	31.99	-29.4	-29.9	28.2	0.00e+00	0	28	0	3120562176	30	6389
2026-01-12 03:04:47.26	320.60	31.81	-29.5	-30.1	28.1	0.00e+00	0	29	0	3125805056	30	6495
2026-01-12 03:04:48.27	320.77	31.63	-29.6	-30.2	28.0	0.00e+00	0	29	0	3132096512	30	6612
2026-01-12 03:04:49.28	320.93	31.45	-29.7	-30.3	28.0	0.00e+00	0	29	0	3137339392	30	6640
2026-01-12 03:04:50.29	321.09	31.27	-29.6	-30.2	28.0	0.00e+00	0	28	0	3142582272	32	5850
2026-01-12 03:04:51.30	321.25	31.09	-29.3	-30.0	28.3	0.00e+00	0	29	0	3148873728	32	5699
2026-01-12 03:04:52.31	321.41	30.91	-29.3	-30.0	28.2	0.00e+00	0	29	0	3154116608	32	5731
2026-01-12 03:04:53.32	321.57	30.73	-29.2	-29.7	28.3	0.00e+00	0	29	0	3160408064	32	5541
2026-01-12 03:04:54.34	321.72	30.55	-29.1	-29.6	28.4	0.00e+00	0	28	0	3165650944	32	5487
2026-01-12 03:04:55.35	321.88	30.38	-29.1	-29.8	28.4	0.00e+00	0	28	0	3170893824	32	5571
2026-01-12 03:04:56.36	322.03	30.20	-29.4	-30.0	28.2	0.00e+00	0	28	0	3177185280	32	5699
2026-01-12 03:04:57.37	322.18	30.03	-29.3	-29.8	28.3	0.00e+00	0	29	0	3182428160	32	5603
2026-01-12 03:04:58.38	322.33	29.85	-29.4	-30.0	28.2	0.00e+00	0	28	0	3188719616	32	5722
2026-01-12 03:04:59.39	322.47	29.68	-29.4	-29.9	28.2	0.00e+00	0	29	0	3193962496	32	5692
2026-01-12 03:05:00.40	322.62	29.51	-29.5	-30.1	28.1	0.00e+00	0	28	0	3199205376	32	5802
2026-01-12 03:05:01.40	322.76	29.34	-29.5	-30.1	28.1	0.00e+00	0	28	0	3205496832	32	5776
2026-01-12 03:05:02.41	322.90	29.17	-29.6	-30.1	28.1	0.00e+00	0	28	0	3210739712	32	5826
2026-01-12 03:05:03.42	323.04	29.00	-29.5	-30.1	28.1	0.00e+00	0	28	0	3217031168	32	5765
2026-01-12 03:05:04.43	323.18	28.83	-29.4	-30.0	28.1	0.00e+00	0	28	0	3222274048	32	5725
2026-01-12 03:05:05.44	323.32	28.67	-29.4	-30.0	28.2	0.00e+00	0	29	0	3228565504	32	5709
2026-01-12 03:05:06.45	323.46	28.50	-29.3	-29.9	28.3	0.00e+00	0	28	0	3233808384	32	5637
2026-01-12 03:05:07.46	323.59	28.33	-29.5	-30.2	28.2	0.00e+00	0	29	0	3240099840	32	5863
2026-01-12 03:05:08.47	323.73	28.17	-29.5	-30.1	28.2	0.00e+00	0	29	0	3245342720	32	5827
2026-01-12 03:05:09.48	323.86	28.00	-29.2	-29.9	28.2	0.00e+00	0	28	0	3250585600	32	5676
2026-01-12 03:05:10.49	323.99	27.84	-29.3	-30.0	28.2	0.00e+00	0	28	0	3256877056	32	5740
2026-01-12 03:05:11.50	324.12	27.68	-29.2	-29.9	28.3	0.00e+00	0	29	0	3262119936	32	5673
2026-01-12 03:05:12.51	324.25	27.52	-29.4	-30.1	28.2	0.00e+00	0	29	0	3268411392	32	5771
2026-01-12 03:05:13.52	324.38	27.36	-29.2	-29.9	28.3	0.00e+00	0	28	0	3273654272	32	5677
2026-01-12 03:05:14.53	324.51	27.20	-29.4	-30.1	28.2	0.00e+00	0	28	0	3278897152	32	5787
2026-01-12 03:05:15.54	324.63	27.04	-29.3	-30.0	28.3	0.00e+00	0	29	0	3285188608	32	5705
2026-01-12 03:05:16.54	324.75	26.88	-29.4	-30.0	28.1	0.00e+00	0	29	0	3290431488	32	5700
2026-01-12 03:05:17.55	324.88	26.72	-29.4	-30.0	28.2	0.00e+00	0	29	0	3295674368	32	5733
2026-01-12 03:05:18.56	325.00	26.57	-29.5	-30.1	28.1	0.00e+00	0	29	0	3301965824	32	5777
2026-01-12 03:05:19.57	325.12	26.41	-29.4	-30.2	28.2	0.00e+00	0	28	0	3307208704	32	5835
2026-01-12 03:05:20.58	325.24	26.25	-29.6	-30.1	27.9	0.00e+00	0	29	0	3313500160	32	5819
2026-01-12 03:05:21.59	325.36	26.10	-29.4	-30.1	28.2	0.00e+00	0	29	0	3318743040	32	5815
2026-01-12 03:05:22.60	325.47	25.95	-29.4	-30.1	28.1	0.00e+00	0	28	0	3325034496	32	5787
2026-01-12 03:05:23.61	325.59	25.79	-29.5	-30.2	28.2	0.00e+00	0	28	0	3330277376	32	5840
2026-01-12 03:05:24.62	325.71	25.64	-29.5	-30.2	28.1	0.00e+00	0	29	0	3336568832	32	5855
2026-01-12 03:05:25.63	325.82	25.49	-29.6	-30.3	28.1	0.00e+00	0	28	0	3341811712	32	5905
2026-01-12 03:05:26.64	325.93	25.34	-29.6	-30.2	28.0	0.00e+00	0	28	0	3347054592	32	5833
2026-01-12 03:05:27.65	326.04	25.19	-29.5	-30.1	28.1	0.00e+00	0	28	0	3353346048	32	5762
2026-01-12 03:05:28.66	326.15	25.04	-29.8	-30.3	27.9	0.00e+00	0	28	0	3358588928	32	5941
2026-01-12 03:05:29.67	326.26	24.89	-29.6	-30.2	28.0	0.00e+00	0	28	0	3364880384	32	5851
2026-01-12 03:05:30.68	326.37	24.74	-29.7	-30.3	27.9	0.00e+00	0	28	0	3370123264	32	5898
2026-01-12 03:05:31.69	326.48	24.60	-29.7	-30.3	28.0	0.00e+00	0	28	0	3375366144	32	5904
2026-01-12 03:05:32.70	326.59	24.45	-29.8	-30.3	27.9	0.00e+00	0	28	0	3381657600	32	5935
2026-01-12 03:05:33.71	326.69	24.30	-29.8	-30.3	27.9	0.00e+00	0	28	0	3386900480	32	5947
2026-01-12 03:05:34.72	326.80	24.16	-29.8	-30.4	27.8	0.00e+00	0	28	0	3393191936	32	5982
2026-01-12 03:05:35.73	326.90	24.01	-30.0	-30.5	27.7	0.00e+00	0	28	0	3398434816	32	6075
2026-01-12 03:05:36.73	327.01	23.87	-30.0	-30.5	27.7	0.00e+00	0	28	0	3403677696	32	6092
2026-01-12 03:05:37.75	327.11	23.73	-30.0	-30.7	27.6	0.00e+00	0	28	0	3409969152	32	6235
2026-01-12 03:05:38.76	327.21	23.59	-30.0	-30.7	27.7	0.00e+00	0	28	0	3415212032	32	6194
2026-01-12 03:05:39.76	327.31	23.45	-30.0	-30.6	27.7	0.00e+00	0	28	0	3421503488	32	6163
2026-01-12 03:05:40.78	327.41	23.30	-30.1	-30.6	27.7	0.00e+00	0	28	0	3426746368	32	6149
2026-01-12 03:05:41.79	327.51	23.16	-29.9	-30.5	27.7	0.00e+00	0	28	0	3433037824	32	6049
2026-01-12 03:05:42.80	327.61	23.02	-30.1	-30.6	27.7	0.00e+00	0	28	0	3438280704	32	6150
2026-01-12 03:05:43.81	327.71	22.89	-30.2	-30.8	27.5	0.00e+00	0	28	0	3444572160	32	6275
2026-01-12 03:05:44.82	327.80	22.75	-30.0	-30.7	27.7	0.00e+00	0	28	0	3449815040	32	6232
2026-01-12 03:05:45.83	327.90	22.61	-30.2	-30.9	27.6	0.00e+00	0	28	0	3455057920	32	6336
2026-01-12 03:05:46.83	327.99	22.47	-30.2	-30.7	27.6	0.00e+00	0	28	0	3461349376	32	6237
2026-01-12 03:05:47.85	328.09	22.34	-30.1	-30.6	27.6	0.00e+00	0	28	0	3466592256	32	6149
2026-01-12 03:05:48.85	328.18	22.20	-30.1	-30.7	27.6	0.00e+00	0	28	0	3472883712	32	6212
2026-01-12 03:05:49.86	328.27	22.07	-30.1	-30.7	27.6	0.00e+00	0	28	0	3478126592	32	6199
2026-01-12 03:05:50.88	328.36	21.93	-30.2	-30.8	27.6	0.00e+00	0	28	0	3483369472	32	6248
2026-01-12 03:05:51.89	328.46	21.80	-30.3	-31.0	27.4	0.00e+00	0	28	0	3489660928	32	6427
2026-01-12 03:05:52.90	328.55	21.67	-30.3	-31.1	27.4	0.00e+00	0	29	0	3494903808	32	6470
2026-01-12 03:05:53.91	328.64	21.53	-30.4	-31.1	27.4	0.00e+00	0	28	0	3501195264	32	6528
2026-01-12 03:05:54.92	328.72	21.40	-30.3	-31.1	27.4	0.00e+00	0	28	0	3506438144	32	6470
2026-01-12 03:05:55.93	328.81	21.27	-30.4	-30.9	27.4	0.00e+00	0	28	0	3511681024	32	6373
2026-01-12 03:05:56.94	328.90	21.14	-30.4	-31.0	27.3	0.00e+00	0	29	0	3517972480	32	6417
2026-01-12 03:05:57.94	328.99	21.01	-30.5	-31.2	27.3	0.00e+00	0	28	0	3523215360	32	6569
2026-01-12 03:05:58.95	329.07	20.88	-30.6	-31.4	27.2	0.00e+00	0	28	0	3529506816	32	6698
2026-01-12 03:05:59.96	329.16	20.76	-30.5	-31.2	27.3	0.00e+00	0	29	0	3534749696	32	6598
2026-01-12 03:06:00.97	329.24	20.63	-30.6	-31.3	27.2	0.00e+00	0	29	0	3541041152	32	6653
2026-01-12 03:06:01.98	329.33	20.50	-30.7	-31.5	27.1	0.00e+00	0	28	0	3546284032	32	6774
2026-01-12 03:06:02.99	329.41	20.37	-30.8	-31.4	27.0	0.00e+00	0	28	0	3551526912	34	5967
2026-01-12 03:06:04.00	329.49	20.25	-30.7	-31.3	27.1	0.00e+00	0	28	0	3557818368	34	5935
2026-01-12 03:06:05.01	329.57	20.12	-30.8	-31.5	27.0	0.00e+00	0	28	0	3563061248	34	6056
2026-01-12 03:06:06.02	329.65	20.00	-30.9	-31.6	27.0	0.00e+00	0	29	0	3569352704	34	6143
2026-01-12 03:06:07.03	329.74	19.87	-30.9	-31.5	26.9	0.00e+00	0	28	0	3574595584	34	6063
2026-01-12 03:06:08.04	329.82	19.75	-30.9	-31.5	26.9	0.00e+00	0	28	0	3579838464	34	6060
2026-01-12 03:06:09.05	329.90	19.63	-31.0	-31.5	26.9	0.00e+00	0	28	0	3586129920	34	6100
2026-01-12 03:06:10.06	329.97	19.50	-30.9	-31.6	26.9	0.00e+00	0	29	0	3591372800	34	6151
2026-01-12 03:06:11.07	330.05	19.38	-31.0	-31.7	26.8	0.00e+00	0	28	0	3597664256	34	6195
2026-01-12 03:06:12.08	330.13	19.26	-31.0	-31.5	26.9	0.00e+00	0	28	0	3602907136	34	6101
2026-01-12 03:06:13.08	330.21	19.14	-30.9	-31.6	26.9	0.00e+00	0	29	0	3608150016	34	6128
2026-01-12 03:06:14.10	330.28	19.02	-30.7	-31.5	27.0	0.00e+00	0	29	0	3614441472	34	6034
2026-01-12 03:06:15.10	330.36	18.90	-30.9	-31.6	27.0	0.00e+00	0	29	0	3619684352	34	6116
