passes_logs/2026/01/12/R4.6S_Anadyr/R4.6S_Anadyr__20260112_133051_NOAA_21_JPSS-2_rec.log

#Pass ID: 20260112_133051_NOAA 21 (JPSS-2)
#Satellite: NOAA 21 (JPSS-2)
#Configuration: NOAA-21
#almurnet v.1.7.20251203
#Start time: 2026-01-12 13:30:52

#Version: 2.2.20231116
#Station: R4.6S_Anadyr
#Location: 177.4865 lon 64.73178 lat
#TLE: 1 54234U 22150A   26011.55893233  .00000075  00000+0  56634-4 0  9995
#TLE: 2 54234  98.7494 312.5004 0000755 313.1908  46.9205 14.19534095164321

#Time	Az	El	Level	Level2	SNR	BER	BlckErr	Temp	State	Recorded	gain1	gain2
2026-01-12 13:30:52.91	18.86	0.06	-48.8	-63.6	3.5	1.51e+00	0	27	0	0	60	54929
2026-01-12 13:30:53.91	18.90	0.11	-49.0	-61.8	3.5	1.52e+00	0	28	104	0	60	43177
2026-01-12 13:30:54.92	18.94	0.17	-49.1	-61.9	3.5	1.52e+00	0	28	104	0	60	43845
2026-01-12 13:30:55.93	18.98	0.23	-48.8	-61.7	3.5	1.52e+00	0	29	104	0	60	42495
2026-01-12 13:30:56.94	19.02	0.29	-49.0	-61.9	3.5	1.52e+00	0	29	104	0	60	43607
2026-01-12 13:30:57.95	19.06	0.34	-48.8	-61.7	3.5	1.52e+00	0	29	104	0	60	42499
2026-01-12 13:30:58.96	19.10	0.40	-48.7	-61.6	3.5	1.52e+00	0	29	104	0	60	42043
2026-01-12 13:30:59.97	19.15	0.46	-48.6	-61.5	3.5	1.52e+00	0	29	104	0	60	41690
2026-01-12 13:31:00.99	19.19	0.52	-48.4	-61.3	3.5	1.52e+00	0	29	104	0	60	40955
2026-01-12 13:31:01.99	19.23	0.58	-48.5	-61.3	3.5	1.52e+00	0	29	104	0	60	40897
2026-01-12 13:31:03.00	19.27	0.63	-48.4	-61.3	3.5	1.52e+00	0	29	104	0	60	40709
2026-01-12 13:31:04.02	19.31	0.69	-48.3	-61.1	3.5	1.52e+00	0	29	104	0	60	39884
2026-01-12 13:31:05.02	19.35	0.75	-48.0	-60.9	3.5	1.52e+00	0	29	104	0	60	38880
2026-01-12 13:31:06.03	19.40	0.81	-47.9	-60.7	3.5	1.52e+00	0	29	104	0	60	38085
2026-01-12 13:31:07.04	19.44	0.87	-47.7	-60.6	3.5	1.52e+00	0	29	104	0	60	37659
2026-01-12 13:31:08.05	19.48	0.93	-47.5	-60.3	3.5	1.52e+00	0	29	104	0	60	36233
2026-01-12 13:31:09.06	19.52	0.98	-47.1	-59.9	3.5	1.52e+00	0	29	104	0	60	34700
2026-01-12 13:31:10.07	19.57	1.04	-47.0	-59.8	3.5	1.52e+00	0	29	104	0	60	34457
2026-01-12 13:31:11.08	19.61	1.10	-47.0	-59.8	3.5	1.52e+00	0	29	104	0	60	34396
2026-01-12 13:31:12.09	19.65	1.16	-47.0	-59.8	3.5	1.52e+00	0	29	104	0	60	34374
2026-01-12 13:31:13.10	19.70	1.22	-47.0	-59.8	3.5	1.52e+00	0	29	104	0	60	34296
2026-01-12 13:31:14.11	19.74	1.28	-47.0	-59.8	3.5	1.52e+00	0	29	104	0	60	34327
2026-01-12 13:31:15.12	19.78	1.34	-47.0	-59.8	3.5	1.52e+00	0	29	104	0	60	34362
2026-01-12 13:31:16.13	19.83	1.40	-47.0	-59.8	3.5	1.52e+00	0	29	104	0	60	34248
2026-01-12 13:31:17.14	19.87	1.46	-47.0	-59.7	3.5	1.51e+00	0	29	104	0	60	33840
2026-01-12 13:31:18.14	19.91	1.52	-47.0	-59.8	3.5	1.52e+00	0	29	104	0	60	34166
2026-01-12 13:31:19.15	19.96	1.58	-47.1	-59.8	3.5	1.52e+00	0	29	104	0	60	34348
2026-01-12 13:31:20.16	20.00	1.64	-47.1	-59.7	3.5	1.52e+00	0	29	104	0	60	34047
2026-01-12 13:31:21.17	20.05	1.70	-47.0	-59.7	3.5	1.52e+00	0	29	104	0	60	33759
2026-01-12 13:31:22.18	20.09	1.76	-47.0	-59.7	3.5	1.52e+00	0	29	104	0	60	34062
2026-01-12 13:31:23.19	20.14	1.82	-47.0	-59.7	3.5	1.52e+00	0	29	104	0	60	34053
2026-01-12 13:31:24.20	20.18	1.88	-47.1	-59.8	3.5	1.52e+00	0	29	104	0	60	34191
2026-01-12 13:31:25.21	20.23	1.94	-47.1	-59.8	3.5	1.52e+00	0	29	104	0	60	34463
2026-01-12 13:31:26.22	20.27	2.00	-47.1	-59.8	3.5	1.52e+00	0	29	104	0	60	34418
2026-01-12 13:31:27.23	20.32	2.06	-47.1	-59.9	3.5	1.52e+00	0	29	104	0	60	34606
2026-01-12 13:31:28.24	20.36	2.12	-47.0	-59.8	3.5	1.52e+00	0	29	104	0	60	34491
2026-01-12 13:31:29.25	20.41	2.18	-47.1	-59.8	3.5	1.52e+00	0	29	104	0	60	34384
2026-01-12 13:31:30.26	20.45	2.24	-47.1	-59.6	3.5	1.51e+00	0	29	104	0	60	33676
2026-01-12 13:31:31.26	20.50	2.31	-47.0	-59.2	3.5	1.52e+00	0	29	104	0	60	31894
2026-01-12 13:31:32.27	20.55	2.37	-46.9	-58.6	3.5	1.51e+00	0	29	104	0	60	29720
2026-01-12 13:31:33.28	20.59	2.43	-46.9	-58.6	3.5	1.51e+00	0	29	104	0	60	29823
2026-01-12 13:31:34.29	20.64	2.49	-47.0	-59.0	3.5	1.51e+00	0	29	104	0	60	31250
2026-01-12 13:31:35.30	20.69	2.55	-47.1	-59.7	3.5	1.52e+00	0	30	104	0	60	33894
2026-01-12 13:31:36.31	20.73	2.61	-47.0	-59.3	3.5	1.52e+00	0	29	104	0	60	32464
2026-01-12 13:31:37.32	20.78	2.68	-46.6	-55.9	3.7	1.51e+00	0	29	104	0	60	21964
2026-01-12 13:31:38.33	20.83	2.74	-45.6	-50.9	8.1	2.58e-01	121	29	0	0	60	12250
2026-01-12 13:31:39.34	20.87	2.80	-44.3	-47.7	11.3	7.26e-03	122	29	0	3145728	60	8560
2026-01-12 13:31:40.35	20.92	2.86	-43.0	-45.5	13.6	8.92e-05	123	30	0	6291456	60	6644
2026-01-12 13:31:41.36	20.97	2.92	-41.4	-43.3	16.0	0.00e+00	122	30	0	9437184	56	6429
2026-01-12 13:31:42.37	21.02	2.99	-40.3	-42.0	17.1	0.00e+00	120	30	0	12582912	54	6257
2026-01-12 13:31:43.38	21.07	3.05	-39.1	-40.5	18.6	0.00e+00	123	29	0	15728640	52	5886
2026-01-12 13:31:44.39	21.12	3.11	-38.8	-40.1	19.0	0.00e+00	123	30	0	18874368	52	5659
2026-01-12 13:31:45.40	21.16	3.18	-37.7	-38.9	20.1	0.00e+00	123	30	0	22020096	48	6193
2026-01-12 13:31:46.41	21.21	3.24	-38.2	-39.5	19.4	0.00e+00	123	30	0	25165824	48	6594
2026-01-12 13:31:47.42	21.26	3.30	-38.8	-40.2	18.7	0.00e+00	120	30	0	28311552	50	6396
2026-01-12 13:31:48.42	21.31	3.37	-39.8	-41.3	17.6	0.00e+00	120	30	0	31457280	52	6462
2026-01-12 13:31:49.43	21.36	3.43	-40.6	-42.3	16.6	0.00e+00	123	30	0	34603008	52	7280
2026-01-12 13:31:50.44	21.41	3.49	-42.0	-44.1	14.9	0.00e+00	123	30	0	37748736	56	7120
2026-01-12 13:31:51.45	21.46	3.56	-41.6	-43.5	16.9	3.80e-06	120	30	0	40894464	58	5919
2026-01-12 13:31:52.46	21.51	3.62	-37.9	-39.1	20.1	0.00e+00	120	30	0	44040192	50	5630
2026-01-12 13:31:53.47	21.56	3.68	-39.8	-41.5	16.3	0.00e+00	120	30	0	47185920	48	8280
2026-01-12 13:31:54.48	21.61	3.75	-46.9	-58.4	3.6	1.52e+00	0	30	104	48234496	60	29251
2026-01-12 13:31:55.49	21.66	3.81	-38.5	-40.1	18.7	1.14e-05	123	30	104	48234496	52	5635
2026-01-12 13:31:56.50	21.71	3.88	-42.3	-44.3	15.3	1.02e-02	123	30	0	50331648	60	5788
2026-01-12 13:31:57.51	21.76	3.94	-38.8	-40.1	19.2	0.00e+00	120	30	0	53477376	50	6328
2026-01-12 13:31:58.52	21.81	4.01	-38.7	-40.0	19.1	0.00e+00	123	30	0	56623104	50	6256
2026-01-12 13:31:59.53	21.86	4.07	-38.0	-39.2	20.0	0.00e+00	120	30	0	59768832	50	5724
2026-01-12 13:32:00.54	21.92	4.14	-37.9	-39.1	20.1	0.00e+00	122	30	0	62914560	48	6346
2026-01-12 13:32:01.55	21.97	4.20	-37.8	-39.1	20.1	0.00e+00	122	30	0	66060288	48	6281
2026-01-12 13:32:02.56	22.02	4.27	-37.3	-38.4	20.6	0.00e+00	122	30	0	69206016	48	5838
2026-01-12 13:32:03.57	22.07	4.33	-37.3	-38.4	20.5	0.00e+00	123	30	0	72351744	48	5856
2026-01-12 13:32:04.58	22.12	4.40	-37.7	-38.9	20.5	0.00e+00	122	30	0	75497472	48	6139
2026-01-12 13:32:05.59	22.18	4.46	-37.6	-38.8	20.2	0.00e+00	123	30	0	78643200	48	6106
2026-01-12 13:32:06.60	22.23	4.53	-37.7	-38.9	20.3	0.00e+00	122	30	0	81788928	48	6188
2026-01-12 13:32:07.61	22.28	4.60	-37.7	-38.9	20.3	0.00e+00	123	30	0	84934656	48	6145
2026-01-12 13:32:08.62	22.34	4.66	-37.6	-38.8	20.3	0.00e+00	123	30	0	88080384	48	6090
2026-01-12 13:32:09.63	22.39	4.73	-37.9	-39.1	20.0	0.00e+00	122	30	0	91226112	48	6315
2026-01-12 13:32:10.64	22.44	4.79	-37.6	-38.8	20.3	0.00e+00	121	30	0	94371840	48	6121
2026-01-12 13:32:11.65	22.50	4.86	-37.2	-38.3	20.7	0.00e+00	122	30	0	97517568	48	5773
2026-01-12 13:32:12.66	22.55	4.93	-37.2	-38.3	20.7	0.00e+00	123	30	0	100663296	48	5784
2026-01-12 13:32:13.67	22.61	5.00	-37.2	-38.3	20.8	0.00e+00	123	30	0	103809024	48	5777
2026-01-12 13:32:14.68	22.66	5.06	-37.4	-38.5	20.6	0.00e+00	122	30	0	106954752	48	5924
2026-01-12 13:32:15.69	22.71	5.13	-37.2	-38.4	20.8	0.00e+00	122	30	0	110100480	48	5820
2026-01-12 13:32:16.70	22.77	5.20	-37.3	-38.4	20.7	0.00e+00	122	30	0	113246208	48	5837
2026-01-12 13:32:17.71	22.82	5.26	-37.1	-38.3	20.9	0.00e+00	123	30	0	116391936	48	5746
2026-01-12 13:32:18.72	22.88	5.33	-37.0	-38.1	20.9	0.00e+00	123	30	0	119537664	48	5619
2026-01-12 13:32:19.73	22.94	5.40	-37.1	-38.3	20.9	0.00e+00	122	30	0	122683392	48	5736
2026-01-12 13:32:20.74	22.99	5.47	-37.2	-38.3	20.8	0.00e+00	122	30	0	125829120	48	5760
2026-01-12 13:32:21.75	23.05	5.54	-37.1	-38.2	21.0	0.00e+00	123	30	0	128974848	48	5666
2026-01-12 13:32:22.76	23.10	5.60	-37.2	-38.3	20.8	0.00e+00	122	30	0	132120576	48	5772
2026-01-12 13:32:23.77	23.16	5.67	-37.0	-38.1	21.0	0.00e+00	121	30	0	135266304	48	5648
2026-01-12 13:32:24.78	23.22	5.74	-37.0	-38.1	21.1	0.00e+00	122	30	0	138412032	48	5625
2026-01-12 13:32:25.79	23.28	5.81	-37.0	-38.2	21.0	0.00e+00	123	30	0	141557760	48	5662
2026-01-12 13:32:26.81	23.33	5.88	-37.0	-38.2	21.1	0.00e+00	123	30	0	144703488	48	5672
2026-01-12 13:32:27.82	23.39	5.95	-36.9	-38.0	21.2	0.00e+00	122	30	0	148897792	48	5560
2026-01-12 13:32:28.83	23.45	6.02	-36.7	-37.7	21.4	0.00e+00	122	30	0	152043520	46	6057
2026-01-12 13:32:29.84	23.51	6.09	-36.8	-37.9	21.2	0.00e+00	123	30	0	155189248	46	6190
2026-01-12 13:32:30.85	23.57	6.16	-36.9	-38.0	21.2	0.00e+00	122	30	0	157286400	46	6233
2026-01-12 13:32:31.86	23.62	6.23	-37.0	-38.2	21.1	0.00e+00	122	30	0	160432128	46	6352
2026-01-12 13:32:32.87	23.68	6.30	-36.9	-38.0	21.2	0.00e+00	122	30	0	163577856	46	6217
2026-01-12 13:32:33.87	23.74	6.37	-36.8	-37.9	21.4	0.00e+00	123	30	0	167772160	46	6147
2026-01-12 13:32:34.88	23.80	6.44	-36.8	-37.9	21.3	0.00e+00	122	30	0	170917888	46	6188
2026-01-12 13:32:35.89	23.86	6.51	-36.9	-38.0	21.3	0.00e+00	121	30	0	174063616	46	6209
2026-01-12 13:32:36.90	23.92	6.58	-37.0	-38.1	21.2	0.00e+00	122	30	0	177209344	46	6334
2026-01-12 13:32:37.91	23.98	6.65	-36.8	-37.8	21.4	0.00e+00	122	30	0	180355072	46	6133
2026-01-12 13:32:38.92	24.04	6.72	-36.9	-37.9	21.3	0.00e+00	123	30	0	183500800	46	6200
2026-01-12 13:32:39.94	24.10	6.79	-37.2	-38.3	21.0	0.00e+00	123	30	0	186646528	46	6482
2026-01-12 13:32:40.95	24.17	6.86	-36.7	-37.8	21.6	0.00e+00	120	30	0	189792256	46	6068
2026-01-12 13:32:41.96	24.23	6.93	-36.8	-37.8	21.4	0.00e+00	122	30	0	192937984	46	6117
2026-01-12 13:32:42.96	24.29	7.00	-36.6	-37.7	21.6	0.00e+00	123	30	0	196083712	46	6034
2026-01-12 13:32:43.97	24.35	7.08	-36.6	-37.7	21.7	0.00e+00	122	30	0	199229440	46	6033
2026-01-12 13:32:44.98	24.41	7.15	-36.4	-37.5	21.8	0.00e+00	123	30	0	202375168	46	5883
2026-01-12 13:32:45.99	24.47	7.22	-36.4	-37.4	21.8	0.00e+00	122	30	0	205520896	46	5857
2026-01-12 13:32:47.00	24.54	7.29	-36.3	-37.3	22.0	0.00e+00	123	30	0	208666624	46	5763
2026-01-12 13:32:48.01	24.60	7.36	-36.4	-37.4	21.9	0.00e+00	123	30	0	211812352	46	5812
2026-01-12 13:32:49.02	24.66	7.44	-36.2	-37.3	22.1	0.00e+00	123	30	0	214958080	46	5747
2026-01-12 13:32:50.03	24.73	7.51	-36.1	-37.1	22.1	0.00e+00	120	30	0	218103808	46	5619
2026-01-12 13:32:51.05	24.79	7.58	-36.2	-37.2	22.1	0.00e+00	122	30	0	221249536	46	5674
2026-01-12 13:32:52.06	24.86	7.66	-36.3	-37.4	22.0	0.00e+00	120	30	0	224395264	46	5803
2026-01-12 13:32:53.07	24.92	7.73	-36.1	-37.1	22.1	0.00e+00	122	30	0	227540992	46	5631
2026-01-12 13:32:54.08	24.99	7.80	-36.1	-37.1	22.1	0.00e+00	120	30	0	230686720	46	5643
2026-01-12 13:32:55.09	25.05	7.88	-36.0	-37.1	22.1	0.00e+00	123	30	0	233832448	46	5599
2026-01-12 13:32:56.10	25.12	7.95	-36.1	-37.1	22.2	0.00e+00	120	30	0	236978176	46	5645
2026-01-12 13:32:57.11	25.18	8.03	-35.9	-36.9	22.3	0.00e+00	123	30	0	240123904	46	5520
2026-01-12 13:32:58.12	25.25	8.10	-36.0	-37.0	22.3	0.00e+00	123	30	0	243269632	46	5543
2026-01-12 13:32:59.13	25.31	8.17	-36.0	-37.0	22.3	0.00e+00	122	30	0	246415360	46	5582
2026-01-12 13:33:00.14	25.38	8.25	-36.2	-37.2	22.2	0.00e+00	122	30	0	249561088	46	5671
2026-01-12 13:33:01.15	25.45	8.32	-36.1	-37.1	22.3	0.00e+00	123	30	0	252706816	46	5612
2026-01-12 13:33:02.16	25.52	8.40	-36.0	-37.0	22.4	0.00e+00	122	30	0	255852544	46	5560
2026-01-12 13:33:03.17	25.58	8.47	-35.9	-36.9	22.5	0.00e+00	122	30	0	258998272	46	5526
2026-01-12 13:33:04.18	25.65	8.55	-36.0	-37.0	22.3	0.00e+00	123	30	0	262144000	46	5536
2026-01-12 13:33:05.19	25.72	8.63	-35.8	-36.8	22.4	0.00e+00	123	30	0	265289728	46	5461
2026-01-12 13:33:06.21	25.79	8.70	-35.8	-36.8	22.4	0.00e+00	122	30	0	268435456	46	5450
2026-01-12 13:33:07.22	25.86	8.78	-35.9	-36.9	22.5	0.00e+00	121	30	0	271581184	46	5478
2026-01-12 13:33:08.23	25.93	8.86	-35.8	-36.8	22.5	0.00e+00	122	30	0	274726912	46	5432
2026-01-12 13:33:09.24	26.00	8.93	-35.9	-36.9	22.4	0.00e+00	122	30	0	277872640	46	5491
2026-01-12 13:33:10.25	26.07	9.01	-35.6	-36.6	22.6	0.00e+00	123	30	0	281018368	44	5985
2026-01-12 13:33:11.26	26.14	9.09	-35.7	-36.7	22.5	0.00e+00	123	30	0	284164096	44	6011
2026-01-12 13:33:12.27	26.21	9.16	-35.7	-36.7	22.6	0.00e+00	122	30	0	287309824	44	6012
2026-01-12 13:33:13.28	26.28	9.24	-35.7	-36.7	22.5	0.00e+00	123	30	0	290455552	44	5996
2026-01-12 13:33:14.29	26.35	9.32	-35.8	-36.9	22.4	0.00e+00	123	30	0	293601280	44	6137
2026-01-12 13:33:15.30	26.42	9.39	-35.7	-36.7	22.5	0.00e+00	123	30	0	296747008	44	6014
2026-01-12 13:33:16.31	26.49	9.47	-35.8	-36.8	22.5	0.00e+00	123	30	0	299892736	44	6093
2026-01-12 13:33:17.32	26.57	9.55	-35.9	-36.9	22.3	0.00e+00	123	30	0	303038464	44	6155
2026-01-12 13:33:18.33	26.64	9.63	-35.8	-36.8	22.5	0.00e+00	121	30	0	306184192	44	6102
2026-01-12 13:33:19.34	26.71	9.71	-35.5	-36.5	22.7	0.00e+00	120	30	0	309329920	44	5876
2026-01-12 13:33:20.35	26.79	9.79	-35.5	-36.5	22.7	0.00e+00	122	30	0	312475648	44	5922
2026-01-12 13:33:21.36	26.86	9.87	-35.4	-36.4	22.8	0.00e+00	123	30	0	315621376	44	5844
2026-01-12 13:33:22.37	26.94	9.94	-35.3	-36.3	22.9	0.00e+00	122	30	0	318767104	44	5736
2026-01-12 13:33:23.38	27.01	10.02	-35.3	-36.2	23.0	0.00e+00	123	30	0	321912832	44	5709
2026-01-12 13:33:24.40	27.09	10.10	-35.4	-36.4	22.9	0.00e+00	122	30	0	325058560	44	5822
2026-01-12 13:33:25.40	27.16	10.18	-35.3	-36.3	22.9	0.00e+00	123	30	0	328204288	44	5769
2026-01-12 13:33:26.42	27.24	10.26	-35.5	-36.5	22.8	0.00e+00	122	30	0	331350016	44	5880
2026-01-12 13:33:27.43	27.31	10.34	-35.3	-36.3	22.9	0.00e+00	120	30	0	334495744	44	5766
2026-01-12 13:33:28.44	27.39	10.42	-35.3	-36.2	23.1	0.00e+00	122	30	0	337641472	44	5716
2026-01-12 13:33:29.45	27.47	10.51	-35.3	-36.3	23.0	0.00e+00	122	30	0	340787200	44	5754
2026-01-12 13:33:30.46	27.54	10.59	-35.4	-36.4	22.9	0.00e+00	122	30	0	343932928	44	5817
2026-01-12 13:33:31.47	27.62	10.67	-35.4	-36.4	22.9	0.00e+00	123	30	0	347078656	44	5821
2026-01-12 13:33:32.48	27.70	10.75	-35.3	-36.3	22.9	0.00e+00	123	30	0	350224384	44	5745
2026-01-12 13:33:33.49	27.78	10.83	-35.4	-36.3	22.9	0.00e+00	120	30	0	353370112	44	5775
2026-01-12 13:33:34.50	27.86	10.91	-35.5	-36.5	22.8	0.00e+00	122	30	0	356515840	44	5895
2026-01-12 13:33:35.51	27.94	10.99	-35.5	-36.4	22.8	0.00e+00	123	30	0	359661568	44	5858
2026-01-12 13:33:36.52	28.02	11.08	-35.2	-36.1	23.1	0.00e+00	123	30	0	362807296	44	5636
2026-01-12 13:33:37.53	28.10	11.16	-35.2	-36.2	23.1	0.00e+00	122	30	0	365953024	44	5661
2026-01-12 13:33:38.54	28.18	11.24	-35.2	-36.2	23.0	0.00e+00	123	30	0	369098752	44	5703
2026-01-12 13:33:39.55	28.26	11.32	-35.2	-36.1	23.1	0.00e+00	123	30	0	372244480	44	5642
2026-01-12 13:33:40.56	28.34	11.41	-35.3	-36.2	23.1	0.00e+00	123	30	0	375390208	44	5713
2026-01-12 13:33:41.57	28.42	11.49	-35.4	-36.3	23.0	0.00e+00	120	30	0	378535936	44	5774
2026-01-12 13:33:42.58	28.51	11.58	-35.2	-36.1	23.2	0.00e+00	123	30	0	381681664	44	5640
2026-01-12 13:33:43.58	28.59	11.66	-35.2	-36.1	23.2	0.00e+00	120	31	0	384827392	44	5641
2026-01-12 13:33:44.59	28.67	11.74	-35.0	-36.0	23.3	0.00e+00	123	30	0	387973120	44	5533
2026-01-12 13:33:45.60	28.76	11.83	-35.0	-35.9	23.3	0.00e+00	120	30	0	391118848	44	5495
2026-01-12 13:33:46.61	28.84	11.91	-34.9	-35.9	23.3	0.00e+00	123	30	0	394264576	44	5495
2026-01-12 13:33:47.62	28.92	12.00	-34.8	-35.7	23.4	0.00e+00	121	30	0	397410304	42	6058
2026-01-12 13:33:48.63	29.01	12.08	-34.7	-35.7	23.6	0.00e+00	123	30	0	400556032	42	6002
2026-01-12 13:33:49.64	29.10	12.17	-34.7	-35.7	23.5	0.00e+00	122	30	0	403701760	42	6011
2026-01-12 13:33:50.65	29.18	12.25	-34.8	-35.8	23.4	0.00e+00	123	30	0	406847488	42	6083
2026-01-12 13:33:51.67	29.27	12.34	-34.7	-35.6	23.6	0.00e+00	123	30	0	409993216	42	5968
2026-01-12 13:33:52.68	29.36	12.43	-34.8	-35.8	23.5	0.00e+00	122	30	0	413138944	42	6073
2026-01-12 13:33:53.69	29.44	12.51	-34.7	-35.6	23.5	0.00e+00	120	30	0	416284672	42	5992
2026-01-12 13:33:54.70	29.53	12.60	-34.7	-35.7	23.6	0.00e+00	122	31	0	419430400	42	6002
2026-01-12 13:33:55.71	29.62	12.69	-34.7	-35.6	23.7	0.00e+00	120	31	0	422576128	42	5971
2026-01-12 13:33:56.72	29.71	12.77	-34.8	-35.7	23.5	0.00e+00	123	31	0	426770432	42	6030
2026-01-12 13:33:57.73	29.80	12.86	-34.7	-35.7	23.6	0.00e+00	120	31	0	428867584	42	6005
2026-01-12 13:33:58.74	29.89	12.95	-34.8	-35.7	23.7	0.00e+00	122	31	0	432013312	42	6046
2026-01-12 13:33:59.75	29.98	13.04	-34.9	-35.8	23.6	0.00e+00	122	30	0	435159040	42	6103
2026-01-12 13:34:00.76	30.07	13.12	-34.9	-35.9	23.5	0.00e+00	122	30	0	438304768	42	6158
2026-01-12 13:34:01.77	30.16	13.21	-34.9	-35.8	23.6	0.00e+00	123	30	0	442499072	42	6107
2026-01-12 13:34:02.78	30.26	13.30	-34.9	-35.8	23.4	0.00e+00	123	30	0	445644800	42	6121
2026-01-12 13:34:03.79	30.35	13.39	-34.9	-35.8	23.6	0.00e+00	122	30	0	448790528	42	6098
2026-01-12 13:34:04.80	30.44	13.48	-34.9	-35.8	23.5	0.00e+00	123	30	0	450887680	42	6111
2026-01-12 13:34:05.81	30.53	13.57	-34.5	-35.5	23.7	0.00e+00	120	30	0	454033408	42	5860
2026-01-12 13:34:06.82	30.63	13.66	-34.5	-35.4	23.8	0.00e+00	122	30	0	458227712	42	5857
2026-01-12 13:34:07.83	30.72	13.75	-34.8	-35.8	23.7	0.00e+00	123	30	0	461373440	42	6089
2026-01-12 13:34:08.84	30.82	13.84	-34.6	-35.6	23.7	0.00e+00	121	30	0	464519168	42	5936
2026-01-12 13:34:09.85	30.92	13.93	-34.7	-35.6	23.8	0.00e+00	123	31	0	467664896	42	5966
2026-01-12 13:34:10.87	31.01	14.02	-34.6	-35.6	23.8	0.00e+00	123	30	0	470810624	42	5944
2026-01-12 13:34:11.88	31.11	14.11	-34.5	-35.4	23.9	0.00e+00	123	30	0	473956352	42	5842
2026-01-12 13:34:12.89	31.21	14.20	-34.6	-35.5	23.7	0.00e+00	123	30	0	477102080	42	5918
2026-01-12 13:34:13.90	31.31	14.29	-34.5	-35.4	23.7	0.00e+00	123	30	0	480247808	42	5854
2026-01-12 13:34:14.91	31.40	14.39	-34.6	-35.5	23.8	0.00e+00	123	30	0	483393536	42	5911
2026-01-12 13:34:15.92	31.50	14.48	-34.5	-35.4	23.8	0.00e+00	123	30	0	486539264	42	5853
2026-01-12 13:34:16.93	31.60	14.57	-34.5	-35.4	23.9	0.00e+00	120	30	0	489684992	42	5803
2026-01-12 13:34:17.94	31.70	14.66	-34.4	-35.4	24.0	0.00e+00	122	31	0	492830720	42	5809
2026-01-12 13:34:18.95	31.81	14.76	-34.5	-35.4	23.8	0.00e+00	120	30	0	495976448	42	5834
2026-01-12 13:34:19.96	31.91	14.85	-34.5	-35.4	23.9	0.00e+00	122	30	0	499122176	42	5816
2026-01-12 13:34:20.97	32.01	14.94	-34.5	-35.4	23.8	0.00e+00	123	31	0	502267904	42	5851
2026-01-12 13:34:21.98	32.11	15.04	-34.6	-35.5	23.7	0.00e+00	122	30	0	505413632	42	5908
2026-01-12 13:34:22.99	32.22	15.13	-34.6	-35.6	23.7	0.00e+00	120	30	0	508559360	42	5938
2026-01-12 13:34:24.00	32.32	15.22	-34.6	-35.6	23.7	0.00e+00	123	30	0	511705088	42	5929
2026-01-12 13:34:25.01	32.42	15.32	-34.4	-35.3	23.9	0.00e+00	120	30	0	514850816	42	5761
2026-01-12 13:34:26.02	32.53	15.41	-34.4	-35.4	23.8	0.00e+00	122	30	0	517996544	42	5800
2026-01-12 13:34:27.03	32.64	15.51	-34.6	-35.5	23.7	0.00e+00	123	30	0	521142272	42	5885
2026-01-12 13:34:28.04	32.74	15.60	-34.5	-35.4	23.7	0.00e+00	123	30	0	524288000	42	5829
2026-01-12 13:34:29.04	32.85	15.70	-34.6	-35.5	23.7	0.00e+00	122	30	0	527433728	42	5898
2026-01-12 13:34:30.05	32.96	15.80	-34.5	-35.4	23.8	0.00e+00	120	30	0	530579456	42	5849
2026-01-12 13:34:31.07	33.07	15.89	-34.6	-35.5	23.7	0.00e+00	123	30	0	533725184	42	5910
2026-01-12 13:34:32.08	33.18	15.99	-34.6	-35.5	23.7	0.00e+00	123	30	0	536870912	42	5908
2026-01-12 13:34:33.09	33.29	16.09	-34.9	-35.9	23.5	0.00e+00	123	31	0	540016640	42	6146
2026-01-12 13:34:34.10	33.40	16.18	-34.8	-35.7	23.7	0.00e+00	122	30	0	543162368	42	6038
2026-01-12 13:34:35.11	33.51	16.28	-34.5	-35.4	23.8	0.00e+00	122	30	0	546308096	42	5848
2026-01-12 13:34:36.12	33.62	16.38	-34.6	-35.6	23.8	0.00e+00	123	30	0	549453824	42	5935
2026-01-12 13:34:37.13	33.73	16.48	-34.7	-35.6	23.7	0.00e+00	123	30	0	552599552	42	5972
2026-01-12 13:34:38.14	33.85	16.58	-34.8	-35.7	23.6	0.00e+00	122	30	0	555745280	42	6055
2026-01-12 13:34:39.15	33.96	16.67	-34.7	-35.7	23.7	0.00e+00	123	30	0	558891008	42	6015
2026-01-12 13:34:40.16	34.08	16.77	-34.7	-35.7	23.6	0.00e+00	123	30	0	562036736	42	6022
2026-01-12 13:34:41.17	34.19	16.87	-34.7	-35.7	23.5	0.00e+00	123	30	0	565182464	42	6019
2026-01-12 13:34:42.18	34.31	16.97	-34.7	-35.6	23.7	0.00e+00	122	30	0	568328192	42	5986
2026-01-12 13:34:43.19	34.43	17.07	-34.6	-35.5	23.8	0.00e+00	122	30	0	571473920	42	5920
2026-01-12 13:34:44.20	34.54	17.17	-34.8	-35.8	23.6	0.00e+00	123	30	0	574619648	42	6084
2026-01-12 13:34:45.21	34.66	17.27	-34.8	-35.8	23.6	0.00e+00	122	30	0	577765376	42	6086
2026-01-12 13:34:46.22	34.78	17.37	-35.0	-35.9	23.4	0.00e+00	123	30	0	580911104	42	6176
2026-01-12 13:34:47.23	34.90	17.47	-34.9	-35.8	23.5	0.00e+00	120	30	0	584056832	42	6096
2026-01-12 13:34:48.24	35.02	17.58	-34.8	-35.7	23.6	0.00e+00	122	30	0	587202560	42	6061
2026-01-12 13:34:49.25	35.15	17.68	-34.8	-35.7	23.7	0.00e+00	122	30	0	590348288	42	6034
2026-01-12 13:34:50.26	35.27	17.78	-34.7	-35.7	23.7	0.00e+00	120	30	0	593494016	42	5997
2026-01-12 13:34:51.27	35.39	17.88	-34.7	-35.7	23.7	0.00e+00	122	30	0	596639744	42	6011
2026-01-12 13:34:52.28	35.52	17.98	-34.9	-35.9	23.6	0.00e+00	123	30	0	599785472	42	6168
2026-01-12 13:34:53.29	35.64	18.09	-35.0	-36.0	23.5	0.00e+00	122	30	0	602931200	42	6238
2026-01-12 13:34:54.30	35.77	18.19	-34.9	-35.8	23.6	0.00e+00	120	30	0	606076928	42	6125
2026-01-12 13:34:55.31	35.89	18.29	-34.9	-35.8	23.6	0.00e+00	120	30	0	609222656	42	6134
2026-01-12 13:34:56.32	36.02	18.40	-34.8	-35.7	23.7	0.00e+00	123	30	0	612368384	42	6026
2026-01-12 13:34:57.32	36.15	18.50	-34.8	-35.8	23.6	0.00e+00	123	30	0	615514112	42	6082
2026-01-12 13:34:58.33	36.28	18.61	-34.6	-35.6	23.7	0.00e+00	122	30	0	618659840	42	5932
2026-01-12 13:34:59.35	36.41	18.71	-34.7	-35.6	23.8	0.00e+00	122	30	0	621805568	42	5965
2026-01-12 13:35:00.36	36.54	18.82	-34.6	-35.5	23.8	0.00e+00	120	30	0	624951296	42	5920
2026-01-12 13:35:01.37	36.67	18.92	-34.6	-35.5	23.8	0.00e+00	120	30	0	628097024	42	5899
2026-01-12 13:35:02.38	36.80	19.03	-34.5	-35.5	23.8	0.00e+00	122	30	0	631242752	42	5867
2026-01-12 13:35:03.39	36.94	19.13	-34.5	-35.4	23.8	0.00e+00	123	30	0	634388480	42	5849
2026-01-12 13:35:04.40	37.07	19.24	-34.6	-35.5	23.8	0.00e+00	123	30	0	637534208	42	5916
2026-01-12 13:35:05.41	37.21	19.35	-34.4	-35.4	23.9	0.00e+00	123	30	0	640679936	42	5798
2026-01-12 13:35:06.42	37.34	19.45	-34.5	-35.4	23.9	0.00e+00	120	30	0	643825664	42	5841
2026-01-12 13:35:07.43	37.48	19.56	-34.5	-35.4	23.9	0.00e+00	123	30	0	646971392	42	5825
2026-01-12 13:35:08.44	37.62	19.67	-34.4	-35.3	23.9	0.00e+00	122	30	0	650117120	42	5773
2026-01-12 13:35:09.45	37.76	19.78	-34.5	-35.4	23.9	0.00e+00	122	30	0	653262848	42	5827
2026-01-12 13:35:10.46	37.90	19.88	-34.4	-35.3	24.0	0.00e+00	123	30	0	656408576	42	5743
2026-01-12 13:35:11.47	38.04	19.99	-34.3	-35.2	24.1	0.00e+00	120	30	0	659554304	42	5700
2026-01-12 13:35:12.47	38.18	20.10	-34.4	-35.4	23.9	0.00e+00	122	30	0	662700032	42	5803
2026-01-12 13:35:13.48	38.32	20.21	-34.2	-35.1	24.1	0.00e+00	123	30	0	665845760	42	5624
2026-01-12 13:35:14.49	38.47	20.32	-34.3	-35.2	24.1	0.00e+00	120	30	0	668991488	42	5677
2026-01-12 13:35:15.51	38.61	20.43	-34.2	-35.1	24.2	0.00e+00	123	30	0	672137216	42	5629
2026-01-12 13:35:16.52	38.76	20.54	-34.3	-35.2	24.1	0.00e+00	123	30	0	675282944	42	5678
2026-01-12 13:35:17.53	38.91	20.65	-34.3	-35.2	24.1	0.00e+00	122	30	0	678428672	42	5705
2026-01-12 13:35:18.54	39.05	20.76	-34.1	-35.0	24.2	0.00e+00	123	30	0	681574400	42	5550
2026-01-12 13:35:19.55	39.20	20.87	-34.1	-35.0	24.2	0.00e+00	123	30	0	684720128	42	5550
2026-01-12 13:35:20.56	39.35	20.98	-34.0	-34.9	24.3	0.00e+00	122	30	0	687865856	42	5528
2026-01-12 13:35:21.57	39.50	21.09	-34.0	-34.9	24.3	0.00e+00	122	30	0	691011584	42	5489
2026-01-12 13:35:22.58	39.66	21.20	-33.9	-34.9	24.3	0.00e+00	123	30	0	694157312	42	5470
2026-01-12 13:35:23.59	39.81	21.32	-33.9	-34.8	24.4	0.00e+00	122	30	0	697303040	42	5437
2026-01-12 13:35:24.60	39.96	21.43	-33.8	-34.7	24.4	0.00e+00	123	30	0	700448768	40	6049
2026-01-12 13:35:25.61	40.12	21.54	-33.8	-34.7	24.5	0.00e+00	120	30	0	703594496	40	6004
2026-01-12 13:35:26.62	40.27	21.65	-33.7	-34.6	24.6	0.00e+00	122	30	0	706740224	40	5938
2026-01-12 13:35:27.63	40.43	21.77	-33.8	-34.7	24.5	0.00e+00	122	30	0	709885952	40	6004
2026-01-12 13:35:28.64	40.59	21.88	-33.7	-34.6	24.4	0.00e+00	123	30	0	713031680	40	5930
2026-01-12 13:35:29.65	40.75	22.00	-33.6	-34.5	24.6	0.00e+00	123	30	0	716177408	40	5876
2026-01-12 13:35:30.66	40.91	22.11	-33.4	-34.3	24.7	0.00e+00	120	30	0	719323136	40	5781
2026-01-12 13:35:31.67	41.07	22.22	-33.5	-34.4	24.6	0.00e+00	123	30	0	722468864	40	5804
2026-01-12 13:35:32.68	41.24	22.34	-33.6	-34.4	24.6	0.00e+00	122	30	0	725614592	40	5857
2026-01-12 13:35:33.69	41.40	22.45	-33.3	-34.2	24.8	0.00e+00	123	30	0	728760320	40	5687
2026-01-12 13:35:34.70	41.57	22.57	-33.4	-34.3	24.8	0.00e+00	123	30	0	731906048	40	5730
2026-01-12 13:35:35.71	41.73	22.68	-33.3	-34.1	24.9	0.00e+00	120	30	0	735051776	40	5653
2026-01-12 13:35:36.72	41.90	22.80	-33.3	-34.1	24.9	0.00e+00	122	30	0	739246080	40	5637
2026-01-12 13:35:37.73	42.07	22.92	-33.2	-34.1	24.8	0.00e+00	122	30	0	742391808	40	5627
2026-01-12 13:35:38.74	42.24	23.03	-33.2	-34.1	24.9	0.00e+00	122	30	0	744488960	40	5636
2026-01-12 13:35:39.75	42.41	23.15	-33.2	-34.1	24.8	0.00e+00	122	30	0	747634688	40	5612
2026-01-12 13:35:40.76	42.59	23.27	-33.3	-34.1	24.8	0.00e+00	120	30	0	750780416	40	5650
2026-01-12 13:35:41.77	42.76	23.38	-33.2	-34.0	24.9	0.00e+00	122	30	0	754974720	40	5576
2026-01-12 13:35:42.78	42.94	23.50	-33.2	-34.1	24.9	0.00e+00	122	30	0	758120448	40	5596
2026-01-12 13:35:43.79	43.11	23.62	-33.3	-34.2	24.8	0.00e+00	123	30	0	761266176	40	5689
2026-01-12 13:35:44.71	43.28	23.73	-33.4	-34.2	24.8	0.00e+00	123	30	0	764411904	40	5717
2026-01-12 13:35:45.72	43.46	23.84	-33.5	-34.4	24.8	0.00e+00	123	30	0	767557632	40	5828
2026-01-12 13:35:46.73	43.64	23.96	-33.4	-34.3	24.8	0.00e+00	123	30	0	770703360	40	5733
2026-01-12 13:35:47.74	43.82	24.08	-33.2	-34.0	24.9	0.00e+00	123	30	0	773849088	40	5575
2026-01-12 13:35:48.75	44.00	24.20	-33.1	-34.0	24.9	0.00e+00	123	30	0	776994816	40	5565
2026-01-12 13:35:49.76	44.19	24.32	-33.3	-34.2	24.8	0.00e+00	123	30	0	780140544	40	5679
2026-01-12 13:35:50.77	44.37	24.44	-33.4	-34.2	24.7	0.00e+00	120	30	0	783286272	40	5720
2026-01-12 13:35:51.78	44.56	24.56	-33.4	-34.2	24.7	0.00e+00	123	30	0	786432000	40	5719
2026-01-12 13:35:52.79	44.75	24.68	-33.5	-34.3	24.7	0.00e+00	123	30	0	789577728	40	5787
2026-01-12 13:35:53.80	44.94	24.80	-33.5	-34.4	24.5	0.00e+00	122	30	0	792723456	40	5828
2026-01-12 13:35:54.81	45.13	24.92	-33.4	-34.2	24.7	0.00e+00	121	30	0	795869184	40	5718
2026-01-12 13:35:55.82	45.32	25.04	-33.4	-34.2	24.7	0.00e+00	123	30	0	799014912	40	5710
2026-01-12 13:35:56.83	45.52	25.16	-33.4	-34.2	24.8	0.00e+00	123	30	0	802160640	40	5719
2026-01-12 13:35:57.84	45.71	25.28	-33.5	-34.4	24.7	0.00e+00	122	30	0	805306368	40	5843
2026-01-12 13:35:58.85	45.91	25.40	-33.4	-34.3	24.8	0.00e+00	122	30	0	808452096	40	5737
2026-01-12 13:35:59.86	46.11	25.53	-33.4	-34.3	24.8	0.00e+00	123	30	0	811597824	40	5755
2026-01-12 13:36:00.87	46.31	25.65	-33.3	-34.2	24.8	0.00e+00	123	30	0	814743552	40	5688
2026-01-12 13:36:01.88	46.51	25.77	-33.3	-34.2	24.8	0.00e+00	122	30	0	817889280	40	5696
2026-01-12 13:36:02.89	46.72	25.89	-33.3	-34.2	24.8	0.00e+00	122	30	0	821035008	40	5690
2026-01-12 13:36:03.90	46.92	26.01	-33.2	-34.0	25.0	0.00e+00	122	30	0	824180736	40	5574
2026-01-12 13:36:04.91	47.13	26.14	-33.3	-34.2	24.9	0.00e+00	123	30	0	827326464	40	5674
2026-01-12 13:36:05.92	47.34	26.26	-33.4	-34.3	24.8	0.00e+00	122	30	0	830472192	40	5767
2026-01-12 13:36:06.93	47.55	26.38	-33.5	-34.4	24.7	0.00e+00	123	30	0	833617920	40	5807
2026-01-12 13:36:07.94	47.76	26.50	-33.7	-34.6	24.6	0.00e+00	121	30	0	836763648	40	5949
2026-01-12 13:36:08.95	47.97	26.63	-33.9	-34.8	24.4	0.00e+00	123	30	0	839909376	40	6086
2026-01-12 13:36:09.96	48.19	26.75	-33.9	-34.8	24.4	0.00e+00	123	30	0	843055104	40	6103
2026-01-12 13:36:10.98	48.40	26.88	-34.0	-34.9	24.3	0.00e+00	120	30	0	846200832	40	6195
2026-01-12 13:36:11.99	48.62	27.00	-34.0	-34.9	24.2	0.00e+00	123	30	0	849346560	40	6179
2026-01-12 13:36:13.00	48.84	27.12	-34.0	-34.9	24.2	0.00e+00	121	30	0	852492288	40	6164
2026-01-12 13:36:14.01	49.06	27.25	-34.1	-35.0	24.2	0.00e+00	120	30	0	855638016	40	6208
2026-01-12 13:36:15.02	49.28	27.37	-34.0	-34.9	24.4	0.00e+00	123	30	0	858783744	40	6159
2026-01-12 13:36:16.03	49.51	27.50	-34.1	-35.0	24.2	0.00e+00	123	30	0	861929472	40	6212
2026-01-12 13:36:17.04	49.74	27.62	-34.0	-35.0	24.2	0.00e+00	122	30	0	865075200	40	6208
2026-01-12 13:36:18.05	49.96	27.74	-34.2	-35.1	24.1	0.00e+00	122	30	0	868220928	40	6318
2026-01-12 13:36:19.06	50.19	27.87	-34.1	-35.1	24.1	0.00e+00	123	30	0	871366656	40	6283
2026-01-12 13:36:20.07	50.43	27.99	-34.1	-35.1	24.1	0.00e+00	122	30	0	874512384	40	6289
2026-01-12 13:36:21.08	50.66	28.12	-34.0	-35.0	24.1	0.00e+00	122	30	0	877658112	40	6217
2026-01-12 13:36:22.09	50.89	28.24	-34.0	-35.0	24.2	0.00e+00	123	30	0	880803840	40	6211
2026-01-12 13:36:23.10	51.13	28.37	-33.9	-34.8	24.2	0.00e+00	123	30	0	883949568	40	6080
2026-01-12 13:36:24.11	51.37	28.49	-33.7	-34.6	24.4	0.00e+00	123	30	0	887095296	40	5952
2026-01-12 13:36:25.13	51.61	28.62	-33.8	-34.7	24.4	0.00e+00	122	30	0	890241024	40	6054
2026-01-12 13:36:26.14	51.85	28.74	-33.9	-34.8	24.3	0.00e+00	120	30	0	893386752	40	6081
2026-01-12 13:36:27.14	52.10	28.86	-33.8	-34.7	24.5	0.00e+00	120	30	0	896532480	40	6029
2026-01-12 13:36:28.15	52.34	28.99	-33.9	-34.8	24.4	0.00e+00	123	30	0	899678208	40	6073
2026-01-12 13:36:29.16	52.59	29.11	-33.7	-34.5	24.6	0.00e+00	120	30	0	902823936	40	5926
2026-01-12 13:36:30.17	52.84	29.24	-33.6	-34.5	24.6	0.00e+00	122	30	0	905969664	40	5894
2026-01-12 13:36:31.18	53.09	29.36	-33.6	-34.5	24.6	0.00e+00	123	30	0	909115392	40	5866
2026-01-12 13:36:32.19	53.35	29.49	-33.4	-34.3	24.7	0.00e+00	120	30	0	912261120	40	5753
2026-01-12 13:36:33.20	53.60	29.61	-33.6	-34.5	24.7	0.00e+00	123	30	0	915406848	40	5860
2026-01-12 13:36:34.21	53.86	29.74	-33.6	-34.5	24.5	0.00e+00	121	30	0	918552576	40	5865
2026-01-12 13:36:35.22	54.12	29.86	-33.8	-34.7	24.6	0.00e+00	122	30	0	921698304	40	5997
2026-01-12 13:36:36.23	54.38	29.99	-33.7	-34.6	24.4	0.00e+00	123	30	0	924844032	40	5993
2026-01-12 13:36:37.24	54.64	30.11	-33.7	-34.6	24.6	0.00e+00	122	30	0	927989760	40	5932
2026-01-12 13:36:38.25	54.91	30.23	-33.6	-34.5	24.6	0.00e+00	120	30	0	931135488	40	5920
2026-01-12 13:36:39.26	55.18	30.36	-33.5	-34.4	24.7	0.00e+00	123	30	0	934281216	40	5811
2026-01-12 13:36:40.28	55.45	30.48	-33.6	-34.4	24.7	0.00e+00	120	30	0	937426944	40	5857
2026-01-12 13:36:41.29	55.72	30.61	-33.4	-34.3	24.8	0.00e+00	122	30	0	940572672	40	5766
2026-01-12 13:36:42.30	55.99	30.73	-33.6	-34.4	24.7	0.00e+00	120	30	0	943718400	40	5841
2026-01-12 13:36:43.31	56.27	30.85	-33.6	-34.5	24.7	0.00e+00	122	30	0	946864128	40	5895
2026-01-12 13:36:44.32	56.55	30.98	-33.7	-34.5	24.6	0.00e+00	120	30	0	950009856	40	5918
2026-01-12 13:36:45.33	56.83	31.10	-33.8	-34.7	24.5	0.00e+00	123	30	0	953155584	40	6012
2026-01-12 13:36:46.34	57.11	31.22	-33.8	-34.7	24.4	0.00e+00	120	30	0	956301312	40	6008
2026-01-12 13:36:47.35	57.39	31.35	-33.9	-34.8	24.4	0.00e+00	122	30	0	959447040	40	6078
2026-01-12 13:36:48.36	57.68	31.47	-33.9	-34.8	24.3	0.00e+00	120	30	0	962592768	40	6090
2026-01-12 13:36:49.37	57.97	31.59	-33.9	-34.8	24.2	0.00e+00	123	30	0	965738496	40	6100
2026-01-12 13:36:50.38	58.26	31.71	-34.0	-34.9	24.2	0.00e+00	121	30	0	968884224	40	6148
2026-01-12 13:36:51.39	58.55	31.83	-34.1	-35.0	24.2	0.00e+00	123	30	0	972029952	40	6242
2026-01-12 13:36:52.40	58.85	31.95	-34.1	-35.0	24.3	0.00e+00	123	30	0	975175680	40	6237
2026-01-12 13:36:53.41	59.14	32.08	-34.0	-34.9	24.3	0.00e+00	123	30	0	978321408	40	6179
2026-01-12 13:36:54.42	59.44	32.20	-34.2	-35.1	24.1	0.00e+00	123	30	0	981467136	40	6306
2026-01-12 13:36:55.43	59.74	32.32	-34.3	-35.2	24.1	0.00e+00	121	30	0	984612864	40	6415
2026-01-12 13:36:56.44	60.05	32.44	-34.5	-35.4	23.9	0.00e+00	123	30	0	987758592	40	6533
2026-01-12 13:36:57.45	60.35	32.56	-34.6	-35.5	23.9	0.00e+00	123	30	0	990904320	40	6609
2026-01-12 13:36:58.46	60.66	32.67	-34.6	-35.6	23.8	0.00e+00	123	30	0	994050048	40	6654
2026-01-12 13:36:59.47	60.97	32.79	-34.7	-35.6	23.7	0.00e+00	123	30	0	997195776	40	6693
2026-01-12 13:37:00.48	61.28	32.91	-34.8	-35.8	23.7	0.00e+00	123	30	0	1000341504	42	6066
2026-01-12 13:37:01.49	61.60	33.03	-35.0	-35.9	23.6	0.00e+00	123	30	0	1003487232	42	6161
2026-01-12 13:37:02.50	61.91	33.15	-35.0	-35.9	23.6	0.00e+00	120	30	0	1006632960	42	6181
2026-01-12 13:37:03.51	62.23	33.26	-35.1	-36.0	23.6	0.00e+00	123	30	0	1009778688	42	6243
2026-01-12 13:37:04.52	62.55	33.38	-35.3	-36.2	23.4	0.00e+00	122	30	0	1012924416	42	6379
2026-01-12 13:37:05.53	62.88	33.49	-35.0	-36.0	23.6	0.00e+00	122	30	0	1016070144	42	6228
2026-01-12 13:37:06.54	63.20	33.61	-35.2	-36.1	23.5	0.00e+00	123	30	0	1019215872	42	6312
2026-01-12 13:37:07.55	63.53	33.72	-35.2	-36.1	23.4	0.00e+00	123	30	0	1022361600	42	6349
2026-01-12 13:37:08.56	63.86	33.84	-35.3	-36.3	23.3	0.00e+00	120	30	0	1025507328	42	6463
2026-01-12 13:37:09.57	64.20	33.95	-35.5	-36.4	23.2	0.00e+00	122	30	0	1028653056	42	6559
2026-01-12 13:37:10.58	64.53	34.06	-35.6	-36.6	23.0	0.00e+00	123	30	0	1032847360	42	6694
2026-01-12 13:37:11.59	64.87	34.17	-35.4	-36.3	23.2	0.00e+00	122	30	0	1035993088	42	6496
2026-01-12 13:37:12.60	65.21	34.29	-35.1	-36.0	23.6	0.00e+00	123	30	0	1038090240	42	6275
2026-01-12 13:37:13.61	65.55	34.40	-35.2	-36.2	23.5	0.00e+00	122	30	0	1041235968	42	6378
2026-01-12 13:37:14.61	65.89	34.51	-35.1	-36.1	23.4	0.00e+00	123	30	0	1044381696	42	6312
2026-01-12 13:37:15.62	66.24	34.61	-35.3	-36.3	23.3	0.00e+00	123	30	0	1047527424	42	6443
2026-01-12 13:37:16.63	66.59	34.72	-35.4	-36.4	23.2	0.00e+00	123	30	0	1051721728	42	6547
2026-01-12 13:37:17.64	66.94	34.83	-35.3	-36.3	23.1	0.00e+00	123	30	0	1054867456	42	6474
2026-01-12 13:37:18.66	67.29	34.94	-35.3	-36.3	23.3	0.00e+00	123	30	0	1058013184	42	6477
2026-01-12 13:37:19.67	67.65	35.04	-35.3	-36.2	23.4	0.00e+00	122	30	0	1060110336	42	6404
2026-01-12 13:37:20.68	68.01	35.15	-35.1	-36.0	23.4	0.00e+00	120	30	0	1064304640	42	6272
2026-01-12 13:37:21.69	68.37	35.25	-35.0	-35.9	23.5	0.00e+00	120	30	0	1067450368	42	6185
2026-01-12 13:37:22.70	68.73	35.36	-35.0	-35.9	23.4	0.00e+00	122	30	0	1070596096	42	6182
2026-01-12 13:37:23.71	69.09	35.46	-35.2	-36.2	23.2	0.00e+00	123	30	0	1073741824	42	6353
2026-01-12 13:37:24.72	69.46	35.56	-35.3	-36.2	23.2	0.00e+00	122	30	0	1076887552	42	6419
2026-01-12 13:37:25.73	69.83	35.66	-35.2	-36.1	23.3	0.00e+00	123	30	0	1080033280	42	6349
2026-01-12 13:37:26.74	70.20	35.76	-35.2	-36.1	23.3	0.00e+00	123	30	0	1083179008	42	6337
2026-01-12 13:37:27.75	70.58	35.86	-35.0	-36.0	23.6	0.00e+00	123	30	0	1086324736	42	6217
2026-01-12 13:37:28.76	70.95	35.95	-34.9	-35.8	23.6	0.00e+00	122	30	0	1089470464	42	6102
2026-01-12 13:37:29.77	71.33	36.05	-34.9	-35.9	23.4	0.00e+00	123	30	0	1092616192	42	6135
2026-01-12 13:37:30.78	71.71	36.15	-35.1	-36.1	23.0	0.00e+00	123	30	0	1095761920	42	6309
2026-01-12 13:37:31.79	72.09	36.24	-35.4	-36.4	22.9	0.00e+00	123	30	0	1098907648	42	6513
2026-01-12 13:37:32.80	72.48	36.33	-35.5	-36.5	22.9	0.00e+00	122	30	0	1102053376	42	6597
2026-01-12 13:37:33.81	72.86	36.42	-35.6	-36.7	22.9	0.00e+00	123	30	0	1105199104	42	6734
2026-01-12 13:37:34.82	73.25	36.51	-35.2	-36.2	23.5	0.00e+00	121	30	0	1108344832	42	6356
2026-01-12 13:37:35.83	73.64	36.60	-35.2	-36.1	23.4	0.00e+00	123	30	0	1111490560	42	6330
2026-01-12 13:37:36.84	74.04	36.69	-35.2	-36.2	23.3	0.00e+00	120	30	0	1114636288	42	6355
2026-01-12 13:37:37.85	74.43	36.78	-35.4	-36.4	23.1	0.00e+00	123	30	0	1117782016	42	6527
2026-01-12 13:37:38.86	74.83	36.86	-35.5	-36.5	23.0	0.00e+00	123	30	0	1120927744	42	6595
2026-01-12 13:37:39.87	75.23	36.95	-35.7	-36.7	23.0	0.00e+00	122	30	0	1124073472	42	6740
2026-01-12 13:37:40.88	75.63	37.03	-35.5	-36.5	23.2	0.00e+00	123	30	0	1127219200	42	6588
2026-01-12 13:37:41.89	76.04	37.11	-35.4	-36.4	23.3	0.00e+00	123	30	0	1130364928	42	6507
2026-01-12 13:37:42.90	76.44	37.19	-35.4	-36.3	23.3	0.00e+00	123	30	0	1133510656	42	6482
2026-01-12 13:37:43.91	76.85	37.27	-35.3	-36.3	23.2	0.00e+00	120	30	0	1136656384	42	6444
2026-01-12 13:37:44.92	77.26	37.35	-35.6	-36.6	23.0	0.00e+00	123	30	0	1139802112	42	6695
2026-01-12 13:37:45.93	77.67	37.42	-35.9	-36.9	22.9	0.00e+00	123	30	0	1142947840	44	6139
2026-01-12 13:37:46.94	78.08	37.50	-36.0	-37.0	22.7	0.00e+00	123	30	0	1146093568	44	6231
2026-01-12 13:37:47.95	78.50	37.57	-36.1	-37.1	22.6	0.00e+00	123	30	0	1149239296	44	6317
2026-01-12 13:37:48.96	78.91	37.64	-36.1	-37.1	22.6	0.00e+00	123	30	0	1152385024	44	6314
2026-01-12 13:37:49.97	79.33	37.71	-36.2	-37.2	22.5	0.00e+00	122	30	0	1155530752	44	6403
2026-01-12 13:37:50.98	79.75	37.78	-36.4	-37.4	22.4	0.00e+00	123	29	0	1158676480	44	6567
2026-01-12 13:37:51.99	80.18	37.85	-36.3	-37.3	22.4	0.00e+00	123	30	0	1161822208	44	6482
2026-01-12 13:37:53.00	80.60	37.91	-36.2	-37.2	22.5	0.00e+00	123	30	0	1164967936	44	6375
2026-01-12 13:37:54.01	81.03	37.98	-36.2	-37.3	22.5	0.00e+00	122	30	0	1168113664	44	6438
2026-01-12 13:37:55.02	81.45	38.04	-36.2	-37.2	22.5	0.00e+00	122	30	0	1171259392	44	6411
2026-01-12 13:37:56.03	81.88	38.10	-36.3	-37.3	22.4	0.00e+00	122	30	0	1174405120	44	6448
2026-01-12 13:37:57.04	82.31	38.16	-36.3	-37.3	22.5	0.00e+00	122	30	0	1177550848	44	6452
2026-01-12 13:37:58.05	82.74	38.22	-36.2	-37.2	22.6	0.00e+00	121	30	0	1180696576	44	6374
2026-01-12 13:37:59.06	83.18	38.27	-35.9	-36.9	22.8	0.00e+00	122	30	0	1183842304	44	6165
2026-01-12 13:38:00.07	83.61	38.32	-35.9	-36.9	22.8	0.00e+00	122	30	0	1186988032	44	6203
2026-01-12 13:38:01.08	84.05	38.38	-36.1	-37.1	22.6	0.00e+00	122	30	0	1190133760	44	6309
2026-01-12 13:38:02.09	84.49	38.43	-36.1	-37.2	22.8	0.00e+00	122	30	0	1193279488	44	6366
2026-01-12 13:38:03.10	84.92	38.47	-36.1	-37.1	22.6	0.00e+00	123	30	0	1196425216	44	6304
2026-01-12 13:38:04.11	85.36	38.52	-35.9	-36.8	22.8	0.00e+00	123	30	0	1199570944	44	6131
2026-01-12 13:38:05.12	85.81	38.57	-35.9	-36.9	22.7	0.00e+00	123	30	0	1202716672	44	6172
2026-01-12 13:38:06.14	86.25	38.61	-35.8	-36.8	22.8	0.00e+00	122	29	0	1205862400	44	6113
2026-01-12 13:38:07.15	86.70	38.65	-36.0	-37.0	22.7	0.00e+00	122	30	0	1209008128	44	6207
2026-01-12 13:38:08.16	87.14	38.69	-35.8	-36.8	22.9	0.00e+00	123	30	0	1212153856	44	6079
2026-01-12 13:38:09.17	87.59	38.73	-35.9	-36.9	22.9	0.00e+00	123	30	0	1215299584	44	6146
2026-01-12 13:38:10.18	88.03	38.76	-35.8	-36.8	23.0	0.00e+00	123	30	0	1218445312	44	6070
2026-01-12 13:38:11.19	88.48	38.80	-35.8	-36.8	22.8	0.00e+00	123	29	0	1221591040	44	6111
2026-01-12 13:38:12.20	88.93	38.83	-35.8	-36.8	22.9	0.00e+00	123	30	0	1224736768	44	6069
2026-01-12 13:38:13.21	89.38	38.86	-35.8	-36.8	22.9	0.00e+00	123	30	0	1227882496	44	6117
2026-01-12 13:38:14.22	89.83	38.89	-35.6	-36.6	23.1	0.00e+00	122	30	0	1231028224	44	5940
2026-01-12 13:38:15.23	90.28	38.91	-35.6	-36.6	23.1	0.00e+00	120	30	0	1234173952	44	5935
2026-01-12 13:38:16.24	90.73	38.94	-35.6	-36.6	23.0	0.00e+00	123	30	0	1237319680	44	5970
2026-01-12 13:38:17.25	91.19	38.96	-35.7	-36.8	22.9	0.00e+00	122	30	0	1240465408	44	6072
2026-01-12 13:38:18.26	91.64	38.98	-35.7	-36.7	23.1	0.00e+00	122	30	0	1243611136	44	6013
2026-01-12 13:38:19.27	92.09	39.00	-35.4	-36.4	23.3	0.00e+00	123	30	0	1246756864	44	5796
2026-01-12 13:38:20.28	92.55	39.01	-35.3	-36.3	23.2	0.00e+00	119	29	0	1249902592	44	5760
2026-01-12 13:38:21.29	93.00	39.03	-35.8	-36.7	22.8	0.00e+00	122	30	0	1253048320	44	6061
2026-01-12 13:38:22.30	93.46	39.04	-36.1	-37.1	22.6	0.00e+00	120	30	0	1256194048	44	6303
2026-01-12 13:38:23.31	93.91	39.05	-36.3	-37.3	22.5	0.00e+00	123	30	0	1259339776	44	6437
2026-01-12 13:38:24.32	94.37	39.06	-36.1	-37.0	22.7	0.00e+00	121	30	0	1262485504	44	6256
2026-01-12 13:38:25.33	94.82	39.06	-36.0	-37.0	22.8	0.00e+00	123	29	0	1265631232	44	6232
2026-01-12 13:38:26.34	95.28	39.07	-36.2	-37.2	22.6	0.00e+00	123	30	0	1268776960	44	6377
2026-01-12 13:38:27.35	95.74	39.07	-36.5	-37.6	22.2	0.00e+00	122	30	0	1271922688	44	6678
2026-01-12 13:38:28.36	96.19	39.07	-36.6	-37.6	22.2	0.00e+00	120	30	0	1275068416	44	6707
2026-01-12 13:38:29.37	96.65	39.07	-36.2	-37.3	22.6	0.00e+00	123	29	0	1278214144	44	6432
2026-01-12 13:38:30.38	97.10	39.06	-36.0	-36.9	22.7	0.00e+00	120	30	0	1281359872	44	6197
2026-01-12 13:38:31.39	97.56	39.06	-35.8	-36.8	23.0	0.00e+00	122	30	0	1284505600	44	6094
2026-01-12 13:38:32.40	98.01	39.05	-35.8	-36.8	22.9	0.00e+00	123	30	0	1287651328	44	6076
2026-01-12 13:38:33.41	98.47	39.04	-35.9	-36.9	22.8	0.00e+00	123	30	0	1290797056	44	6139
2026-01-12 13:38:34.43	98.93	39.03	-35.9	-36.9	22.5	0.00e+00	123	29	0	1293942784	44	6136
2026-01-12 13:38:35.44	99.38	39.01	-36.1	-37.1	22.6	0.00e+00	122	30	0	1297088512	44	6319
2026-01-12 13:38:36.45	99.84	39.00	-36.1	-37.1	22.6	0.00e+00	123	29	0	1300234240	44	6337
2026-01-12 13:38:37.46	100.29	38.98	-36.2	-37.2	22.6	0.00e+00	122	30	0	1303379968	44	6408
2026-01-12 13:38:38.47	100.75	38.96	-36.1	-37.1	22.7	0.00e+00	120	30	0	1306525696	44	6285
2026-01-12 13:38:39.48	101.20	38.94	-36.0	-37.0	22.7	0.00e+00	123	29	0	1309671424	44	6207
2026-01-12 13:38:40.49	101.65	38.92	-35.8	-36.8	22.7	0.00e+00	120	29	0	1312817152	44	6088
2026-01-12 13:38:41.50	102.10	38.89	-35.8	-36.8	22.9	0.00e+00	123	29	0	1315962880	44	6090
2026-01-12 13:38:42.51	102.55	38.86	-35.7	-36.7	23.0	0.00e+00	123	29	0	1319108608	44	5996
2026-01-12 13:38:43.52	103.00	38.83	-35.6	-36.6	23.2	0.00e+00	122	29	0	1322254336	44	5946
2026-01-12 13:38:44.53	103.45	38.80	-35.9	-36.9	22.9	0.00e+00	123	30	0	1326448640	44	6136
2026-01-12 13:38:45.54	103.90	38.77	-35.9	-36.9	22.7	0.00e+00	122	30	0	1328545792	44	6194
2026-01-12 13:38:46.55	104.35	38.73	-35.8	-36.8	22.9	0.00e+00	122	29	0	1331691520	44	6100
2026-01-12 13:38:47.56	104.80	38.70	-35.7	-36.7	23.0	0.00e+00	122	29	0	1334837248	44	6020
2026-01-12 13:38:48.58	105.25	38.66	-35.6	-36.6	23.0	0.00e+00	123	29	0	1339031552	44	5957
2026-01-12 13:38:49.59	105.69	38.62	-35.6	-36.6	23.1	0.00e+00	123	29	0	1342177280	44	5963
2026-01-12 13:38:50.60	106.13	38.57	-35.5	-36.5	23.2	0.00e+00	123	29	0	1345323008	44	5888
2026-01-12 13:38:51.61	106.58	38.53	-35.6	-36.6	23.0	0.00e+00	121	29	0	1348468736	44	5970
2026-01-12 13:38:52.62	107.02	38.48	-35.8	-36.8	23.0	0.00e+00	122	30	0	1351614464	44	6086
2026-01-12 13:38:53.63	107.46	38.44	-35.9	-36.8	23.0	0.00e+00	123	29	0	1354760192	44	6122
2026-01-12 13:38:54.64	107.90	38.39	-35.7	-36.7	23.1	0.00e+00	123	29	0	1357905920	44	6005
2026-01-12 13:38:55.65	108.33	38.33	-35.9	-36.9	22.8	0.00e+00	122	29	0	1361051648	44	6183
2026-01-12 13:38:56.66	108.77	38.28	-35.8	-36.9	22.8	0.00e+00	122	30	0	1364197376	44	6183
2026-01-12 13:38:57.67	109.20	38.23	-35.6	-36.7	23.0	0.00e+00	121	30	0	1367343104	44	6012
2026-01-12 13:38:58.68	109.64	38.17	-35.5	-36.5	23.1	0.00e+00	122	29	0	1370488832	44	5873
2026-01-12 13:38:59.69	110.07	38.11	-35.7	-36.6	23.1	0.00e+00	123	29	0	1373634560	44	5978
2026-01-12 13:39:00.70	110.50	38.05	-35.6	-36.6	23.0	0.00e+00	124	29	0	1376780288	44	5965
2026-01-12 13:39:01.71	110.92	37.99	-35.8	-36.7	23.0	0.00e+00	122	29	0	1379926016	44	6059
2026-01-12 13:39:02.71	111.35	37.93	-35.8	-36.8	22.9	0.00e+00	122	30	0	1383071744	44	6125
2026-01-12 13:39:03.73	111.78	37.86	-35.7	-36.6	23.1	0.00e+00	120	29	0	1386217472	44	5979
2026-01-12 13:39:04.74	112.20	37.79	-35.4	-36.4	23.0	0.00e+00	122	29	0	1389363200	44	5833
2026-01-12 13:39:05.75	112.62	37.73	-35.4	-36.4	23.0	0.00e+00	123	29	0	1392508928	44	5795
2026-01-12 13:39:06.76	113.04	37.66	-35.4	-36.4	23.3	0.00e+00	123	29	0	1395654656	44	5802
2026-01-12 13:39:07.77	113.46	37.58	-35.3	-36.3	23.4	0.00e+00	123	29	0	1398800384	44	5732
2026-01-12 13:39:08.78	113.88	37.51	-35.6	-36.6	23.1	0.00e+00	120	29	0	1401946112	44	5946
2026-01-12 13:39:09.79	114.29	37.44	-35.9	-36.9	22.8	0.00e+00	122	29	0	1405091840	44	6177
2026-01-12 13:39:10.80	114.70	37.36	-36.1	-37.1	22.6	0.00e+00	123	29	0	1408237568	44	6317
2026-01-12 13:39:11.81	115.11	37.28	-36.3	-37.3	22.5	0.00e+00	123	29	0	1411383296	44	6457
2026-01-12 13:39:12.82	115.52	37.21	-36.1	-37.1	22.7	0.00e+00	123	29	0	1414529024	44	6298
2026-01-12 13:39:13.83	115.93	37.13	-35.6	-36.5	23.1	0.00e+00	123	29	0	1417674752	44	5925
2026-01-12 13:39:14.84	116.33	37.04	-35.0	-36.0	23.4	0.00e+00	123	29	0	1420820480	44	5551
2026-01-12 13:39:15.85	116.74	36.96	-35.0	-36.0	23.3	0.00e+00	123	29	0	1423966208	44	5557
2026-01-12 13:39:16.86	117.14	36.88	-35.0	-36.0	23.5	0.00e+00	123	29	0	1427111936	44	5537
2026-01-12 13:39:17.87	117.54	36.79	-34.9	-35.9	23.7	0.00e+00	123	29	0	1430257664	44	5476
2026-01-12 13:39:18.88	117.93	36.70	-34.7	-35.7	23.8	0.00e+00	123	29	0	1433403392	44	5348
2026-01-12 13:39:19.89	118.33	36.62	-34.7	-35.6	23.9	0.00e+00	122	29	0	1436549120	42	5987
2026-01-12 13:39:20.90	118.72	36.53	-34.8	-35.8	23.7	0.00e+00	123	29	0	1439694848	42	6077
2026-01-12 13:39:21.91	119.11	36.44	-34.8	-35.8	23.6	0.00e+00	123	29	0	1442840576	42	6073
2026-01-12 13:39:22.92	119.50	36.34	-34.8	-35.7	23.7	0.00e+00	122	29	0	1445986304	42	6016
2026-01-12 13:39:23.93	119.88	36.25	-34.7	-35.7	23.6	0.00e+00	123	29	0	1449132032	42	6006
2026-01-12 13:39:24.94	120.27	36.16	-34.8	-35.8	23.4	0.00e+00	122	29	0	1452277760	42	6099
2026-01-12 13:39:25.95	120.65	36.06	-35.1	-36.1	23.4	0.00e+00	120	29	0	1455423488	42	6287
2026-01-12 13:39:26.96	121.03	35.97	-35.2	-36.1	23.5	0.00e+00	120	29	0	1458569216	42	6327
2026-01-12 13:39:27.97	121.41	35.87	-35.2	-36.1	23.5	0.00e+00	123	29	0	1461714944	42	6322
2026-01-12 13:39:28.99	121.79	35.77	-34.9	-35.9	23.7	0.00e+00	120	29	0	1464860672	42	6144
2026-01-12 13:39:30.00	122.16	35.67	-34.9	-35.8	23.6	0.00e+00	123	29	0	1468006400	42	6128
2026-01-12 13:39:31.01	122.53	35.57	-35.0	-35.9	23.5	0.00e+00	120	29	0	1471152128	42	6163
2026-01-12 13:39:32.02	122.90	35.47	-34.6	-35.5	23.8	0.00e+00	121	29	0	1474297856	42	5893
2026-01-12 13:39:33.03	123.26	35.37	-34.6	-35.6	23.6	0.00e+00	122	29	0	1477443584	42	5952
2026-01-12 13:39:34.04	123.63	35.26	-34.7	-35.7	23.6	0.00e+00	123	29	0	1480589312	42	6007
2026-01-12 13:39:35.05	123.99	35.16	-34.9	-35.8	23.5	0.00e+00	122	29	0	1483735040	42	6126
2026-01-12 13:39:36.06	124.35	35.05	-35.1	-36.0	23.6	0.00e+00	122	29	0	1486880768	42	6255
2026-01-12 13:39:37.07	124.71	34.95	-34.9	-35.9	23.8	0.00e+00	123	29	0	1490026496	42	6137
2026-01-12 13:39:38.08	125.06	34.84	-34.6	-35.5	23.9	0.00e+00	122	29	0	1493172224	42	5878
2026-01-12 13:39:39.09	125.41	34.73	-34.6	-35.5	23.8	0.00e+00	123	29	0	1496317952	42	5891
2026-01-12 13:39:40.10	125.76	34.62	-34.6	-35.5	23.8	0.00e+00	122	29	0	1499463680	42	5890
2026-01-12 13:39:41.11	126.11	34.51	-34.6	-35.6	23.8	0.00e+00	123	29	0	1502609408	42	5942
2026-01-12 13:39:42.13	126.46	34.40	-34.8	-35.8	23.7	0.00e+00	123	29	0	1505755136	42	6084
2026-01-12 13:39:43.14	126.80	34.29	-34.8	-35.7	23.8	0.00e+00	123	29	0	1508900864	42	6042
2026-01-12 13:39:44.15	127.14	34.18	-34.9	-35.8	23.7	0.00e+00	123	29	0	1512046592	42	6077
2026-01-12 13:39:45.15	127.48	34.07	-34.8	-35.7	23.7	0.00e+00	123	29	0	1515192320	42	6017
2026-01-12 13:39:46.16	127.82	33.96	-34.9	-35.8	23.7	0.00e+00	123	29	0	1518338048	42	6131
2026-01-12 13:39:47.17	128.15	33.84	-35.0	-36.0	23.6	0.00e+00	122	29	0	1521483776	42	6214
2026-01-12 13:39:48.18	128.48	33.73	-35.1	-36.1	23.6	0.00e+00	122	29	0	1524629504	42	6279
2026-01-12 13:39:49.20	128.81	33.61	-35.0	-35.9	23.7	0.00e+00	123	29	0	1527775232	42	6191
2026-01-12 13:39:50.21	129.14	33.50	-34.9	-35.9	23.7	0.00e+00	123	29	0	1530920960	42	6164
2026-01-12 13:39:51.22	129.47	33.38	-34.7	-35.6	23.9	0.00e+00	122	29	0	1534066688	42	5956
2026-01-12 13:39:52.23	129.79	33.26	-35.0	-35.9	23.7	0.00e+00	122	29	0	1537212416	42	6159
2026-01-12 13:39:53.24	130.11	33.15	-34.6	-35.5	24.0	0.00e+00	123	29	0	1540358144	42	5921
2026-01-12 13:39:54.25	130.43	33.03	-34.5	-35.5	24.1	0.00e+00	122	29	0	1543503872	42	5864
2026-01-12 13:39:55.26	130.74	32.91	-34.4	-35.3	24.2	0.00e+00	123	29	0	1546649600	42	5734
2026-01-12 13:39:56.27	131.06	32.79	-34.2	-35.1	24.3	0.00e+00	123	29	0	1549795328	42	5611
2026-01-12 13:39:57.28	131.37	32.67	-34.4	-35.3	24.1	0.00e+00	122	29	0	1552941056	42	5776
2026-01-12 13:39:58.29	131.68	32.55	-34.3	-35.2	24.1	0.00e+00	120	29	0	1556086784	42	5715
2026-01-12 13:39:59.30	131.99	32.43	-34.5	-35.4	24.1	0.00e+00	122	29	0	1559232512	42	5807
2026-01-12 13:40:00.31	132.29	32.31	-34.3	-35.2	24.2	0.00e+00	123	29	0	1562378240	42	5686
2026-01-12 13:40:01.32	132.59	32.19	-34.1	-35.0	24.3	0.00e+00	122	29	0	1565523968	42	5583
2026-01-12 13:40:02.33	132.89	32.07	-34.2	-35.1	24.2	0.00e+00	120	29	0	1568669696	42	5628
2026-01-12 13:40:03.34	133.19	31.95	-34.3	-35.2	24.2	0.00e+00	123	29	0	1571815424	42	5668
2026-01-12 13:40:04.35	133.49	31.83	-34.4	-35.3	24.1	0.00e+00	122	29	0	1574961152	42	5757
2026-01-12 13:40:05.36	133.78	31.71	-34.5	-35.4	24.1	0.00e+00	122	29	0	1578106880	42	5822
2026-01-12 13:40:06.37	134.07	31.58	-34.4	-35.4	24.1	0.00e+00	120	29	0	1581252608	42	5804
2026-01-12 13:40:07.38	134.36	31.46	-34.5	-35.4	23.9	0.00e+00	122	29	0	1584398336	42	5812
2026-01-12 13:40:08.39	134.65	31.34	-34.4	-35.3	23.8	0.00e+00	123	29	0	1587544064	42	5790
2026-01-12 13:40:09.40	134.93	31.21	-34.6	-35.5	23.7	0.00e+00	123	29	0	1590689792	42	5921
2026-01-12 13:40:10.41	135.22	31.09	-34.6	-35.5	23.8	0.00e+00	120	29	0	1593835520	42	5919
2026-01-12 13:40:11.42	135.50	30.97	-34.7	-35.6	23.7	0.00e+00	123	29	0	1596981248	42	5987
2026-01-12 13:40:12.44	135.78	30.84	-34.8	-35.7	23.7	0.00e+00	122	29	0	1600126976	42	6053
2026-01-12 13:40:13.45	136.06	30.72	-34.7	-35.7	23.8	0.00e+00	123	29	0	1603272704	42	6019
2026-01-12 13:40:14.46	136.33	30.59	-34.7	-35.6	23.8	0.00e+00	122	29	0	1606418432	42	5961
2026-01-12 13:40:15.47	136.60	30.47	-34.8	-35.7	23.6	0.00e+00	123	29	0	1609564160	42	6048
2026-01-12 13:40:16.48	136.88	30.35	-34.7	-35.7	23.5	0.00e+00	124	29	0	1613758464	42	6037
2026-01-12 13:40:17.49	137.14	30.22	-35.0	-35.9	23.5	0.00e+00	123	29	0	1616904192	42	6192
2026-01-12 13:40:18.49	137.41	30.10	-34.8	-35.7	23.6	0.00e+00	120	29	0	1620049920	42	6046
2026-01-12 13:40:19.50	137.67	29.97	-34.7	-35.6	23.8	0.00e+00	123	29	0	1622147072	42	5978
2026-01-12 13:40:20.51	137.93	29.85	-34.7	-35.7	23.7	0.00e+00	122	29	0	1625292800	42	6006
2026-01-12 13:40:21.52	138.20	29.72	-34.7	-35.7	23.8	0.00e+00	123	29	0	1628438528	42	6016
2026-01-12 13:40:22.53	138.45	29.60	-34.4	-35.3	24.1	0.00e+00	122	29	0	1632632832	42	5780
2026-01-12 13:40:23.54	138.71	29.47	-34.4	-35.3	24.1	0.00e+00	120	29	0	1635778560	42	5762
2026-01-12 13:40:24.55	138.97	29.35	-34.5	-35.5	24.0	0.00e+00	122	29	0	1638924288	42	5871
2026-01-12 13:40:25.56	139.22	29.22	-34.5	-35.4	24.1	0.00e+00	122	29	0	1642070016	42	5819
2026-01-12 13:40:26.57	139.47	29.09	-34.3	-35.2	24.2	0.00e+00	122	29	0	1644167168	42	5706
2026-01-12 13:40:27.58	139.72	28.97	-34.3	-35.2	24.1	0.00e+00	121	29	0	1648361472	42	5673
2026-01-12 13:40:28.59	139.97	28.84	-34.1	-35.1	24.2	0.00e+00	122	29	0	1651507200	42	5612
2026-01-12 13:40:29.60	140.21	28.72	-34.2	-35.1	24.2	0.00e+00	123	29	0	1654652928	42	5643
2026-01-12 13:40:30.61	140.45	28.59	-33.9	-34.9	24.5	0.00e+00	120	29	0	1657798656	42	5469
2026-01-12 13:40:31.62	140.70	28.47	-33.9	-34.8	24.4	0.00e+00	122	29	0	1660944384	42	5442
2026-01-12 13:40:32.63	140.93	28.34	-33.9	-34.7	24.5	0.00e+00	123	29	0	1664090112	42	5391
2026-01-12 13:40:33.64	141.17	28.22	-33.7	-34.5	24.7	0.00e+00	121	29	0	1667235840	40	5912
2026-01-12 13:40:34.65	141.41	28.09	-33.7	-34.6	24.5	0.00e+00	123	29	0	1670381568	40	5974
2026-01-12 13:40:35.66	141.64	27.97	-33.6	-34.5	24.6	0.00e+00	122	29	0	1673527296	40	5862
2026-01-12 13:40:36.67	141.88	27.84	-33.5	-34.4	24.6	0.00e+00	123	29	0	1676673024	40	5856
2026-01-12 13:40:37.68	142.11	27.72	-33.6	-34.5	24.6	0.00e+00	125	29	0	1679818752	40	5870
2026-01-12 13:40:38.69	142.33	27.59	-33.5	-34.4	24.7	0.00e+00	122	29	0	1682964480	40	5813
2026-01-12 13:40:39.70	142.56	27.47	-33.5	-34.4	24.6	0.00e+00	123	29	0	1686110208	40	5846
2026-01-12 13:40:40.71	142.79	27.34	-33.3	-34.2	24.8	0.00e+00	122	29	0	1689255936	40	5690
2026-01-12 13:40:41.72	143.01	27.22	-33.1	-34.0	24.9	0.00e+00	120	29	0	1692401664	40	5565
2026-01-12 13:40:42.73	143.23	27.09	-33.2	-34.1	24.8	0.00e+00	123	29	0	1695547392	40	5655
2026-01-12 13:40:43.74	143.45	26.97	-33.2	-34.1	24.9	0.00e+00	123	29	0	1698693120	40	5599
2026-01-12 13:40:44.75	143.67	26.84	-33.3	-34.2	24.8	0.00e+00	123	29	0	1701838848	40	5672
2026-01-12 13:40:45.76	143.89	26.72	-33.1	-34.0	24.9	0.00e+00	122	29	0	1704984576	40	5574
2026-01-12 13:40:46.77	144.10	26.59	-33.2	-34.1	24.8	0.00e+00	120	29	0	1708130304	40	5623
2026-01-12 13:40:47.78	144.32	26.47	-33.2	-34.1	24.8	0.00e+00	122	29	0	1711276032	40	5625
2026-01-12 13:40:48.79	144.53	26.35	-33.3	-34.2	24.8	0.00e+00	122	29	0	1714421760	40	5690
2026-01-12 13:40:49.80	144.74	26.22	-33.3	-34.1	24.9	0.00e+00	122	29	0	1717567488	40	5652
2026-01-12 13:40:50.81	144.95	26.10	-33.2	-34.1	24.9	0.00e+00	120	29	0	1720713216	40	5606
2026-01-12 13:40:51.82	145.16	25.98	-33.3	-34.2	24.7	0.00e+00	122	29	0	1723858944	40	5681
2026-01-12 13:40:52.83	145.36	25.85	-33.2	-34.1	24.8	0.00e+00	122	29	0	1727004672	40	5634
2026-01-12 13:40:53.84	145.57	25.73	-33.2	-34.1	24.7	0.00e+00	122	29	0	1730150400	40	5628
2026-01-12 13:40:54.85	145.77	25.61	-33.3	-34.2	24.6	0.00e+00	124	29	0	1733296128	40	5686
2026-01-12 13:40:55.86	145.97	25.49	-33.3	-34.2	24.5	0.00e+00	123	29	0	1736441856	40	5718
2026-01-12 13:40:56.87	146.17	25.36	-33.4	-34.3	24.4	0.00e+00	122	29	0	1739587584	40	5774
2026-01-12 13:40:57.88	146.37	25.24	-33.6	-34.5	24.5	0.00e+00	122	29	0	1742733312	40	5871
2026-01-12 13:40:58.89	146.57	25.12	-33.4	-34.3	24.6	0.00e+00	124	29	0	1745879040	40	5770
2026-01-12 13:40:59.90	146.76	25.00	-33.5	-34.4	24.7	0.00e+00	122	29	0	1749024768	40	5816
2026-01-12 13:41:00.91	146.95	24.88	-33.5	-34.4	24.7	0.00e+00	123	29	0	1752170496	40	5810
2026-01-12 13:41:01.92	147.15	24.75	-33.1	-34.0	25.0	0.00e+00	122	29	0	1755316224	40	5561
2026-01-12 13:41:02.93	147.34	24.63	-33.3	-34.2	24.9	0.00e+00	120	29	0	1758461952	40	5669
2026-01-12 13:41:03.94	147.53	24.51	-33.0	-33.9	25.1	0.00e+00	122	29	0	1761607680	40	5502
2026-01-12 13:41:04.95	147.71	24.39	-33.1	-33.9	25.0	0.00e+00	122	29	0	1764753408	40	5519
2026-01-12 13:41:05.96	147.90	24.27	-33.1	-33.9	25.0	0.00e+00	123	29	0	1767899136	40	5525
2026-01-12 13:41:06.97	148.09	24.15	-33.2	-34.1	24.8	0.00e+00	123	29	0	1771044864	40	5614
2026-01-12 13:41:07.98	148.27	24.03	-33.3	-34.2	24.7	0.00e+00	123	29	0	1774190592	40	5709
2026-01-12 13:41:08.99	148.45	23.91	-33.5	-34.4	24.6	0.00e+00	122	29	0	1777336320	40	5806
2026-01-12 13:41:10.00	148.63	23.79	-33.5	-34.4	24.7	0.00e+00	120	29	0	1780482048	40	5798
2026-01-12 13:41:11.01	148.81	23.67	-33.5	-34.4	24.6	0.00e+00	123	29	0	1783627776	40	5830
2026-01-12 13:41:12.02	148.99	23.56	-33.6	-34.5	24.5	0.00e+00	123	29	0	1786773504	40	5877
2026-01-12 13:41:13.03	149.17	23.44	-33.7	-34.6	24.4	0.00e+00	122	29	0	1789919232	40	5956
2026-01-12 13:41:14.04	149.35	23.32	-33.9	-34.8	24.2	0.00e+00	123	29	0	1793064960	40	6115
2026-01-12 13:41:15.05	149.52	23.20	-34.1	-35.0	24.0	0.00e+00	120	29	0	1796210688	40	6265
2026-01-12 13:41:16.06	149.69	23.08	-34.3	-35.2	24.0	0.00e+00	122	29	0	1799356416	40	6396
2026-01-12 13:41:17.07	149.87	22.97	-34.2	-35.1	24.1	0.00e+00	122	29	0	1802502144	40	6329
2026-01-12 13:41:18.08	150.04	22.85	-34.2	-35.1	24.1	0.00e+00	123	29	0	1805647872	40	6350
2026-01-12 13:41:19.09	150.21	22.73	-34.0	-35.0	24.3	0.00e+00	120	29	0	1808793600	40	6206
2026-01-12 13:41:20.10	150.37	22.61	-33.9	-34.9	24.3	0.00e+00	123	29	0	1811939328	40	6136
2026-01-12 13:41:21.11	150.54	22.50	-33.9	-34.8	24.4	0.00e+00	123	29	0	1815085056	40	6090
2026-01-12 13:41:22.12	150.71	22.38	-33.9	-34.8	24.3	0.00e+00	120	29	0	1818230784	40	6129
2026-01-12 13:41:23.13	150.87	22.27	-34.1	-35.0	24.2	0.00e+00	123	29	0	1821376512	40	6220
2026-01-12 13:41:24.14	151.04	22.15	-34.0	-35.0	24.2	0.00e+00	120	29	0	1824522240	40	6210
2026-01-12 13:41:25.15	151.20	22.04	-34.1	-35.1	24.2	0.00e+00	122	29	0	1827667968	40	6292
2026-01-12 13:41:26.15	151.36	21.92	-34.2	-35.1	24.1	0.00e+00	122	29	0	1830813696	40	6330
2026-01-12 13:41:27.16	151.52	21.81	-34.1	-35.0	24.2	0.00e+00	122	29	0	1833959424	40	6258
2026-01-12 13:41:28.17	151.68	21.69	-34.0	-34.9	24.4	0.00e+00	125	29	0	1837105152	40	6144
2026-01-12 13:41:29.18	151.83	21.58	-33.7	-34.6	24.5	0.00e+00	120	29	0	1840250880	40	5966
2026-01-12 13:41:30.19	151.99	21.47	-33.7	-34.6	24.4	0.00e+00	123	29	0	1843396608	40	5930
2026-01-12 13:41:31.20	152.15	21.35	-33.8	-34.7	24.3	0.00e+00	120	29	0	1846542336	40	6023
2026-01-12 13:41:32.21	152.30	21.24	-33.8	-34.7	24.3	0.00e+00	123	29	0	1849688064	40	6061
2026-01-12 13:41:33.22	152.46	21.13	-33.7	-34.6	24.5	0.00e+00	122	29	0	1852833792	40	5970
2026-01-12 13:41:34.23	152.61	21.01	-33.7	-34.6	24.4	0.00e+00	123	29	0	1855979520	40	5981
2026-01-12 13:41:35.24	152.76	20.90	-33.7	-34.6	24.4	0.00e+00	121	29	0	1859125248	40	5977
2026-01-12 13:41:36.25	152.91	20.79	-33.6	-34.5	24.5	0.00e+00	123	29	0	1862270976	40	5912
2026-01-12 13:41:37.26	153.06	20.68	-33.8	-34.7	24.3	0.00e+00	123	29	0	1865416704	40	6044
2026-01-12 13:41:38.27	153.21	20.57	-33.9	-34.8	24.3	0.00e+00	122	29	0	1868562432	40	6111
2026-01-12 13:41:39.28	153.35	20.46	-33.8	-34.7	24.3	0.00e+00	120	29	0	1871708160	40	6043
2026-01-12 13:41:40.29	153.50	20.35	-33.9	-34.8	24.3	0.00e+00	123	29	0	1874853888	40	6101
2026-01-12 13:41:41.31	153.65	20.23	-33.9	-34.8	24.3	0.00e+00	123	29	0	1877999616	40	6087
2026-01-12 13:41:42.32	153.79	20.12	-34.0	-34.9	24.2	0.00e+00	120	29	0	1881145344	40	6181
2026-01-12 13:41:43.32	153.93	20.02	-34.0	-34.9	24.2	0.00e+00	123	29	0	1884291072	40	6163
2026-01-12 13:41:44.33	154.07	19.91	-34.1	-35.0	24.1	0.00e+00	122	29	0	1887436800	40	6244
2026-01-12 13:41:45.34	154.21	19.80	-34.1	-35.0	24.0	0.00e+00	123	29	0	1890582528	40	6247
2026-01-12 13:41:46.35	154.35	19.69	-34.2	-35.1	24.0	0.00e+00	123	29	0	1893728256	40	6313
2026-01-12 13:41:47.37	154.50	19.58	-34.4	-35.3	23.7	0.00e+00	120	29	0	1896873984	40	6455
2026-01-12 13:41:48.37	154.63	19.47	-34.5	-35.4	23.7	0.00e+00	122	29	0	1900019712	40	6544
2026-01-12 13:41:49.38	154.77	19.36	-34.7	-35.6	23.4	0.00e+00	122	29	0	1903165440	40	6699
2026-01-12 13:41:50.39	154.91	19.26	-34.8	-35.7	23.3	0.00e+00	123	29	0	1906311168	42	6064
2026-01-12 13:41:51.40	155.04	19.15	-35.0	-35.9	23.1	0.00e+00	123	29	0	1909456896	42	6199
2026-01-12 13:41:52.41	155.18	19.04	-35.1	-36.1	23.0	0.00e+00	122	29	0	1912602624	42	6288
2026-01-12 13:41:53.42	155.31	18.93	-35.2	-36.2	22.9	0.00e+00	122	29	0	1915748352	42	6361
2026-01-12 13:41:54.43	155.44	18.83	-35.3	-36.3	22.7	0.00e+00	123	29	0	1918894080	42	6496
2026-01-12 13:41:55.44	155.57	18.72	-35.3	-36.2	22.9	0.00e+00	123	29	0	1922039808	42	6420
2026-01-12 13:41:56.45	155.70	18.62	-35.3	-36.3	22.8	0.00e+00	122	29	0	1925185536	42	6440
2026-01-12 13:41:57.46	155.83	18.51	-35.3	-36.3	22.9	0.00e+00	122	29	0	1928331264	42	6478
2026-01-12 13:41:58.47	155.96	18.41	-35.2	-36.2	23.0	0.00e+00	123	29	0	1931476992	42	6382
2026-01-12 13:41:59.48	156.09	18.30	-34.8	-35.8	23.3	0.00e+00	123	29	0	1935671296	42	6081
2026-01-12 13:42:00.49	156.22	18.20	-34.6	-35.5	23.5	0.00e+00	122	29	0	1937768448	42	5908
2026-01-12 13:42:01.50	156.35	18.09	-34.5	-35.4	23.6	0.00e+00	123	29	0	1940914176	42	5823
2026-01-12 13:42:02.51	156.47	17.99	-34.2	-35.1	23.9	0.00e+00	122	29	0	1944059904	42	5646
2026-01-12 13:42:03.52	156.60	17.89	-34.0	-35.0	24.0	0.00e+00	123	29	0	1947205632	42	5531
2026-01-12 13:42:04.53	156.72	17.78	-34.0	-34.9	24.1	0.00e+00	120	29	0	1951399936	42	5500
2026-01-12 13:42:05.54	156.84	17.68	-33.9	-34.8	24.1	0.00e+00	123	29	0	1954545664	42	5425
2026-01-12 13:42:06.55	156.97	17.58	-33.9	-34.8	24.1	0.00e+00	122	29	0	1957691392	42	5440
2026-01-12 13:42:07.56	157.09	17.47	-33.8	-34.8	24.2	0.00e+00	122	29	0	1959788544	42	5405
2026-01-12 13:42:08.57	157.21	17.37	-34.0	-34.9	24.1	0.00e+00	122	29	0	1962934272	42	5484
2026-01-12 13:42:09.58	157.33	17.27	-33.9	-34.8	24.1	0.00e+00	122	29	0	1967128576	42	5444
2026-01-12 13:42:10.59	157.45	17.17	-34.0	-34.9	24.1	0.00e+00	120	29	0	1970274304	42	5512
2026-01-12 13:42:11.60	157.57	17.07	-34.0	-35.0	24.0	0.00e+00	122	29	0	1973420032	42	5541
2026-01-12 13:42:12.61	157.69	16.97	-34.1	-35.0	23.9	0.00e+00	123	29	0	1976565760	42	5574
2026-01-12 13:42:13.62	157.80	16.87	-34.3	-35.3	23.8	0.00e+00	121	29	0	1979711488	42	5745
2026-01-12 13:42:14.63	157.92	16.77	-34.2	-35.2	23.9	0.00e+00	122	29	0	1982857216	42	5671
