passes_logs/2026/01/12/R4.6S_Anadyr/R4.6S_Anadyr__20260112_212025_TY-40_rec.log

#Pass ID: 20260112_212025_TY-40
#Satellite: TY-40
#Configuration: TY-39_900M
#almurnet v.1.7.20251203
#Start time: 2026-01-12 21:20:55

#Version: 2.2.20231116
#Station: R4.6S_Anadyr
#Location: 177.4865 lon 64.73178 lat
#TLE: 1 56846U 23081A   26011.62211017  .00003527  00000-0  15867-3 0  9990
#TLE: 2 56846  97.3898  84.5977 0001924  79.3335 280.8117 15.21745843144197

#Time	Az	El	Level	Level2	SNR	BER	BlckErr	Temp	State	Recorded	gain1	gain2
2026-01-12 21:20:55.87	27.70	1.58	-48.4	-63.3	3.6	1.51e+00	0	24	0	0	60	53020
2026-01-12 21:20:56.88	27.81	1.63	-46.7	-49.3	6.1	0.00e+00	0	26	104	0	60	35598
2026-01-12 21:20:57.89	27.93	1.68	-46.7	-49.2	6.1	0.00e+00	0	27	104	0	60	35353
2026-01-12 21:20:58.90	28.05	1.73	-46.7	-49.2	6.1	0.00e+00	0	26	104	0	60	35463
2026-01-12 21:20:59.91	28.17	1.79	-46.7	-49.2	6.1	0.00e+00	0	27	104	0	60	35523
2026-01-12 21:21:00.91	28.29	1.84	-46.7	-49.2	6.1	0.00e+00	0	27	104	0	60	35362
2026-01-12 21:21:01.92	28.41	1.89	-46.7	-49.2	6.1	0.00e+00	0	27	104	0	60	35348
2026-01-12 21:21:02.93	28.53	1.94	-46.7	-49.2	6.1	0.00e+00	0	27	104	0	60	35433
2026-01-12 21:21:03.94	28.65	2.00	-46.7	-49.2	6.1	0.00e+00	0	27	104	0	60	35494
2026-01-12 21:21:04.95	28.77	2.05	-46.7	-49.2	6.1	0.00e+00	0	27	104	0	60	35433
2026-01-12 21:21:05.96	28.90	2.10	-46.7	-49.2	6.1	0.00e+00	0	27	104	0	60	35485
2026-01-12 21:21:06.97	29.02	2.16	-46.7	-49.2	6.1	0.00e+00	0	27	104	0	60	35210
2026-01-12 21:21:07.98	29.14	2.21	-46.7	-49.2	6.1	0.00e+00	0	27	104	0	60	35151
2026-01-12 21:21:08.99	29.27	2.26	-46.7	-49.2	6.1	0.00e+00	0	27	104	0	60	35298
2026-01-12 21:21:10.00	29.39	2.32	-46.7	-49.2	6.1	0.00e+00	0	27	104	0	60	35483
2026-01-12 21:21:11.01	29.52	2.37	-46.7	-49.2	6.1	0.00e+00	0	27	104	0	60	35470
2026-01-12 21:21:12.02	29.64	2.42	-46.7	-49.2	6.1	0.00e+00	0	27	104	0	60	35142
2026-01-12 21:21:13.03	29.77	2.48	-46.7	-49.2	6.1	0.00e+00	0	27	104	0	60	35267
2026-01-12 21:21:14.04	29.90	2.53	-46.7	-49.2	6.1	0.00e+00	0	27	104	0	60	35254
2026-01-12 21:21:15.05	30.02	2.58	-46.7	-49.2	6.1	0.00e+00	0	27	104	0	60	35321
2026-01-12 21:21:16.06	30.15	2.64	-46.7	-49.2	6.1	0.00e+00	0	27	104	0	60	35310
2026-01-12 21:21:17.07	30.28	2.69	-46.7	-49.2	6.1	0.00e+00	0	27	104	0	60	35320
2026-01-12 21:21:18.08	30.41	2.74	-46.7	-49.2	6.1	0.00e+00	0	27	104	0	60	35212
2026-01-12 21:21:19.09	30.54	2.80	-46.7	-49.2	6.1	0.00e+00	0	27	104	0	60	35327
2026-01-12 21:21:20.10	30.67	2.85	-46.7	-49.2	6.1	0.00e+00	0	27	104	0	60	35163
2026-01-12 21:21:21.11	30.80	2.90	-46.7	-49.2	6.0	0.00e+00	0	27	104	0	60	35240
2026-01-12 21:21:22.12	30.93	2.96	-46.7	-49.2	6.1	0.00e+00	0	28	104	0	60	35329
2026-01-12 21:21:23.13	31.07	3.01	-46.7	-49.2	6.1	0.00e+00	0	27	104	0	60	35330
2026-01-12 21:21:24.14	31.20	3.07	-46.9	-49.4	6.1	0.00e+00	0	28	104	0	60	36146
2026-01-12 21:21:25.15	31.33	3.12	-46.9	-49.4	6.1	0.00e+00	0	28	104	0	60	36138
2026-01-12 21:21:26.16	31.47	3.17	-46.7	-49.2	6.1	0.00e+00	0	28	104	0	60	35455
2026-01-12 21:21:27.16	31.60	3.23	-46.7	-49.2	6.1	0.00e+00	0	28	104	0	60	35369
2026-01-12 21:21:28.17	31.73	3.28	-47.1	-49.6	6.1	0.00e+00	0	28	104	0	60	36834
2026-01-12 21:21:29.18	31.87	3.33	-47.1	-49.6	6.1	0.00e+00	0	28	104	0	60	36885
2026-01-12 21:21:30.19	32.01	3.39	-47.0	-49.5	6.1	0.00e+00	0	28	104	0	60	36376
2026-01-12 21:21:31.20	32.14	3.44	-46.4	-49.0	6.1	0.00e+00	0	28	104	0	60	34423
2026-01-12 21:21:32.21	32.28	3.50	-47.1	-49.6	6.1	0.00e+00	0	28	104	0	60	36965
2026-01-12 21:21:33.22	32.42	3.55	-47.0	-49.5	6.1	0.00e+00	0	28	104	0	60	36745
2026-01-12 21:21:34.23	32.56	3.60	-47.0	-49.5	6.1	0.00e+00	0	28	104	0	60	36563
2026-01-12 21:21:35.24	32.70	3.66	-46.8	-49.4	6.1	0.00e+00	0	28	104	0	60	35939
2026-01-12 21:21:36.25	32.84	3.71	-46.8	-49.3	6.1	0.00e+00	0	28	104	0	60	35863
2026-01-12 21:21:37.26	32.98	3.77	-46.7	-49.2	6.1	0.00e+00	0	28	104	0	60	35417
2026-01-12 21:21:38.27	33.12	3.82	-46.9	-49.4	6.1	0.00e+00	0	28	104	0	60	36183
2026-01-12 21:21:39.28	33.26	3.88	-47.2	-49.7	6.1	0.00e+00	0	28	104	0	60	37402
2026-01-12 21:21:40.29	33.40	3.93	-47.0	-49.6	6.1	0.00e+00	0	28	104	0	60	36809
2026-01-12 21:21:41.30	33.55	3.98	-47.2	-49.6	6.1	0.00e+00	0	28	104	0	60	37036
2026-01-12 21:21:42.31	33.69	4.04	-47.2	-49.7	6.0	0.00e+00	0	28	104	0	60	37475
2026-01-12 21:21:43.32	33.84	4.09	-47.3	-49.8	6.1	0.00e+00	0	28	104	0	60	37735
2026-01-12 21:21:44.33	33.98	4.15	-47.2	-49.6	6.1	0.00e+00	0	28	104	0	60	37181
2026-01-12 21:21:45.34	34.13	4.20	-47.0	-49.4	6.1	0.00e+00	0	28	104	0	60	36325
2026-01-12 21:21:46.35	34.27	4.26	-46.9	-49.5	6.1	0.00e+00	0	28	104	0	60	36389
2026-01-12 21:21:47.36	34.42	4.31	-47.3	-49.8	6.1	0.00e+00	0	28	104	0	60	37855
2026-01-12 21:21:48.37	34.57	4.36	-47.4	-49.9	6.1	0.00e+00	0	28	104	0	60	38308
2026-01-12 21:21:49.37	34.72	4.42	-47.2	-49.7	6.1	0.00e+00	0	28	104	0	60	37376
2026-01-12 21:21:50.38	34.87	4.47	-47.3	-49.8	6.1	0.00e+00	0	28	104	0	60	38058
2026-01-12 21:21:51.39	35.02	4.53	-47.4	-49.9	6.1	0.00e+00	0	28	104	0	60	38152
2026-01-12 21:21:52.40	35.17	4.58	-47.3	-49.8	6.1	0.00e+00	0	28	104	0	60	37859
2026-01-12 21:21:53.41	35.32	4.64	-47.4	-49.9	6.1	0.00e+00	0	28	104	0	60	38132
2026-01-12 21:21:54.42	35.47	4.69	-47.2	-49.7	6.1	0.00e+00	0	28	104	0	60	37469
2026-01-12 21:21:55.43	35.62	4.74	-47.6	-50.1	6.1	0.00e+00	0	28	104	0	60	39051
2026-01-12 21:21:56.44	35.78	4.80	-47.3	-49.8	6.1	0.00e+00	0	29	104	0	60	37823
2026-01-12 21:21:57.45	35.93	4.85	-47.3	-49.8	6.1	0.00e+00	0	29	104	0	60	37764
2026-01-12 21:21:58.46	36.09	4.91	-47.3	-49.8	6.1	0.00e+00	0	29	104	0	60	37706
2026-01-12 21:21:59.47	36.24	4.96	-47.3	-49.8	6.1	0.00e+00	0	29	104	0	60	37906
2026-01-12 21:22:00.48	36.40	5.02	-47.4	-49.9	6.1	0.00e+00	0	29	104	0	60	38248
2026-01-12 21:22:01.49	36.56	5.07	-47.4	-49.9	6.1	0.00e+00	0	29	104	0	60	38373
2026-01-12 21:22:02.50	36.71	5.13	-47.4	-49.9	6.1	0.00e+00	0	29	104	0	60	38476
2026-01-12 21:22:03.50	36.87	5.18	-47.4	-49.9	6.1	0.00e+00	0	29	104	0	60	38462
2026-01-12 21:22:04.51	37.03	5.23	-47.4	-49.9	6.1	0.00e+00	0	29	104	0	60	38364
2026-01-12 21:22:05.52	37.19	5.29	-47.3	-49.8	6.1	0.00e+00	0	29	104	0	60	37678
2026-01-12 21:22:06.53	37.35	5.34	-47.4	-50.0	6.1	0.00e+00	0	29	104	0	60	38580
2026-01-12 21:22:07.54	37.51	5.40	-47.5	-50.0	6.1	0.00e+00	0	29	104	0	60	38614
2026-01-12 21:22:08.55	37.68	5.45	-47.6	-50.1	6.1	0.00e+00	0	29	104	0	60	39131
2026-01-12 21:22:09.56	37.84	5.51	-47.5	-50.0	6.1	0.00e+00	0	29	104	0	60	38517
2026-01-12 21:22:10.57	38.00	5.56	-47.4	-49.9	6.1	0.00e+00	0	29	104	0	60	38139
2026-01-12 21:22:11.58	38.17	5.61	-47.6	-50.1	6.1	0.00e+00	0	29	104	0	60	39149
2026-01-12 21:22:12.59	38.33	5.67	-47.5	-50.0	6.1	0.00e+00	0	29	104	0	60	38858
2026-01-12 21:22:13.60	38.50	5.72	-47.6	-50.1	6.1	0.00e+00	0	29	104	0	60	38996
2026-01-12 21:22:14.61	38.67	5.78	-47.6	-50.1	6.1	0.00e+00	0	29	104	0	60	39228
2026-01-12 21:22:15.62	38.83	5.83	-47.7	-50.1	6.1	0.00e+00	0	29	104	0	60	39274
2026-01-12 21:22:16.63	39.00	5.89	-47.7	-50.1	6.1	0.00e+00	0	29	104	0	60	39267
2026-01-12 21:22:17.64	39.17	5.94	-47.5	-50.0	6.1	0.00e+00	0	29	104	0	60	38570
2026-01-12 21:22:18.65	39.34	6.00	-47.7	-50.2	6.1	0.00e+00	0	29	104	0	60	39543
2026-01-12 21:22:19.66	39.51	6.05	-47.6	-50.1	6.1	0.00e+00	0	29	104	0	60	39249
2026-01-12 21:22:20.67	39.68	6.10	-47.6	-50.1	6.1	0.00e+00	0	29	104	0	60	39175
2026-01-12 21:22:21.68	39.85	6.16	-47.5	-50.0	6.1	0.00e+00	0	29	104	0	60	38798
2026-01-12 21:22:22.69	40.03	6.21	-47.7	-50.2	6.1	0.00e+00	0	29	104	0	60	39622
2026-01-12 21:22:23.70	40.20	6.27	-47.5	-50.0	6.1	0.00e+00	0	29	104	0	60	38929
2026-01-12 21:22:24.71	40.38	6.32	-47.7	-50.1	6.1	0.00e+00	0	29	104	0	60	39325
2026-01-12 21:22:25.72	40.55	6.37	-47.3	-49.9	6.1	0.00e+00	0	29	104	0	60	38128
2026-01-12 21:22:26.73	40.73	6.43	-47.6	-50.1	6.1	0.00e+00	0	29	104	0	60	39263
2026-01-12 21:22:27.74	40.90	6.48	-47.6	-50.1	6.1	0.00e+00	0	29	104	0	60	39139
2026-01-12 21:22:28.75	41.08	6.54	-47.4	-49.9	6.1	0.00e+00	0	29	104	0	60	38396
2026-01-12 21:22:29.76	41.26	6.59	-47.6	-50.1	6.1	0.00e+00	0	29	104	0	60	39010
2026-01-12 21:22:30.76	41.44	6.64	-47.8	-50.2	6.0	0.00e+00	0	29	104	0	60	39739
2026-01-12 21:22:31.77	41.62	6.70	-47.5	-50.0	6.1	0.00e+00	0	29	104	0	60	38952
2026-01-12 21:22:32.78	41.80	6.75	-47.5	-49.9	6.1	0.00e+00	0	29	104	0	60	38471
2026-01-12 21:22:33.79	41.98	6.80	-47.7	-50.1	6.1	0.00e+00	0	29	104	0	60	39337
2026-01-12 21:22:34.80	42.16	6.86	-46.7	-49.3	6.1	0.00e+00	0	29	104	0	60	35640
2026-01-12 21:22:35.81	42.35	6.91	-46.5	-49.2	6.1	0.00e+00	0	29	104	0	60	35195
2026-01-12 21:22:36.82	42.53	6.96	-45.8	-48.5	6.1	0.00e+00	0	29	104	0	60	32717
2026-01-12 21:22:37.83	42.72	7.02	-45.9	-48.6	6.1	0.00e+00	0	29	104	0	60	33113
2026-01-12 21:22:38.84	42.90	7.07	-46.1	-48.9	6.1	0.00e+00	0	29	104	0	60	34059
2026-01-12 21:22:39.85	43.09	7.12	-46.5	-49.1	6.1	0.00e+00	0	29	104	0	60	35105
2026-01-12 21:22:40.86	43.28	7.18	-47.0	-49.6	6.1	0.00e+00	0	30	104	0	60	36921
2026-01-12 21:22:41.87	43.47	7.23	-47.5	-50.0	6.1	0.00e+00	0	29	104	0	60	38765
2026-01-12 21:22:42.88	43.66	7.28	-47.8	-50.3	6.1	0.00e+00	0	30	104	0	60	40002
2026-01-12 21:22:43.89	43.85	7.34	-46.6	-49.3	6.1	0.00e+00	0	30	104	0	60	35576
2026-01-12 21:22:44.90	44.04	7.39	-46.6	-49.3	6.1	0.00e+00	0	29	104	0	60	35608
2026-01-12 21:22:45.91	44.23	7.44	-46.6	-49.2	6.1	0.00e+00	0	30	104	0	60	35441
2026-01-12 21:22:46.92	44.42	7.49	-46.5	-49.2	6.1	0.00e+00	0	30	104	0	60	35319
2026-01-12 21:22:47.93	44.61	7.55	-46.4	-49.1	6.1	0.00e+00	0	30	104	0	60	35062
2026-01-12 21:22:48.94	44.81	7.60	-46.4	-49.0	6.1	0.00e+00	0	29	104	0	60	34670
2026-01-12 21:22:49.95	45.00	7.65	-46.3	-49.0	6.1	0.00e+00	0	30	104	0	60	34652
2026-01-12 21:22:50.96	45.20	7.70	-47.4	-49.9	6.1	0.00e+00	0	30	104	0	60	38434
2026-01-12 21:22:51.96	45.40	7.76	-47.1	-49.7	6.1	0.00e+00	0	30	104	0	60	37528
2026-01-12 21:22:52.97	45.59	7.81	-47.9	-50.5	6.1	0.00e+00	0	30	104	0	60	40817
2026-01-12 21:22:53.98	45.79	7.86	-47.8	-50.3	6.1	0.00e+00	0	30	104	0	60	40136
2026-01-12 21:22:54.99	45.99	7.91	-47.5	-50.0	6.1	0.00e+00	0	30	104	0	60	38905
2026-01-12 21:22:56.00	46.19	7.96	-47.8	-50.3	6.1	0.00e+00	0	30	104	0	60	40080
2026-01-12 21:22:57.01	46.39	8.02	-47.8	-50.3	6.1	0.00e+00	0	30	104	0	60	40129
2026-01-12 21:22:58.02	46.60	8.07	-47.8	-50.2	6.1	0.00e+00	0	30	104	0	60	39804
2026-01-12 21:22:59.03	46.80	8.12	-47.7	-50.2	6.1	0.00e+00	0	30	104	0	60	39850
2026-01-12 21:23:00.04	47.00	8.17	-47.3	-49.9	6.1	0.00e+00	0	30	104	0	60	38197
2026-01-12 21:23:01.05	47.21	8.22	-47.5	-50.0	6.1	0.00e+00	0	30	104	0	60	38869
2026-01-12 21:23:02.06	47.41	8.27	-47.8	-50.4	6.1	0.00e+00	0	30	104	0	60	40488
2026-01-12 21:23:03.07	47.62	8.32	-47.8	-50.4	6.1	0.00e+00	0	30	104	0	60	40527
2026-01-12 21:23:04.08	47.83	8.37	-47.8	-50.3	6.1	0.00e+00	0	30	104	0	60	40293
2026-01-12 21:23:05.09	48.04	8.42	-47.7	-50.2	6.1	0.00e+00	0	30	104	0	60	39686
2026-01-12 21:23:06.10	48.25	8.48	-47.9	-50.4	6.1	0.00e+00	0	30	104	0	60	40675
2026-01-12 21:23:07.11	48.46	8.53	-47.4	-50.0	6.1	0.00e+00	0	30	104	0	60	38716
2026-01-12 21:23:08.12	48.67	8.58	-47.7	-50.2	6.1	0.00e+00	0	30	104	0	60	39640
2026-01-12 21:23:09.13	48.88	8.63	-47.8	-50.3	6.1	0.00e+00	0	30	104	0	60	40052
2026-01-12 21:23:10.14	49.09	8.68	-47.3	-49.9	6.1	0.00e+00	0	30	104	0	60	38434
2026-01-12 21:23:11.14	49.30	8.72	-47.8	-50.3	6.1	0.00e+00	0	30	104	0	60	40074
2026-01-12 21:23:12.16	49.52	8.77	-47.1	-49.7	6.1	0.00e+00	0	30	104	0	60	37586
2026-01-12 21:23:13.17	49.73	8.82	-47.7	-50.2	6.1	0.00e+00	0	30	104	0	60	39694
2026-01-12 21:23:14.17	49.95	8.87	-47.1	-49.8	6.1	0.00e+00	0	30	104	0	60	37904
2026-01-12 21:23:15.18	50.17	8.92	-46.6	-49.3	6.1	0.00e+00	0	30	104	0	60	35621
2026-01-12 21:23:16.19	50.38	8.97	-46.2	-48.9	6.1	0.00e+00	0	30	104	0	60	34140
2026-01-12 21:23:17.20	50.60	9.02	-46.7	-49.4	6.1	0.00e+00	0	30	104	0	60	36210
2026-01-12 21:23:18.21	50.82	9.07	-46.6	-49.3	6.1	0.00e+00	0	30	104	0	60	35569
2026-01-12 21:23:19.22	51.04	9.12	-47.8	-50.3	6.1	0.00e+00	0	30	104	0	60	40134
2026-01-12 21:23:20.23	51.27	9.16	-45.7	-48.6	6.2	0.00e+00	0	30	104	0	60	32798
2026-01-12 21:23:21.24	51.49	9.21	-46.5	-49.2	6.1	0.00e+00	0	30	104	0	60	35339
2026-01-12 21:23:22.25	51.71	9.26	-46.7	-49.4	6.1	0.00e+00	0	30	104	0	60	35971
2026-01-12 21:23:23.26	51.94	9.31	-47.7	-50.3	6.1	0.00e+00	0	30	104	0	60	40132
2026-01-12 21:23:24.27	52.16	9.35	-47.8	-50.3	6.1	0.00e+00	0	30	104	0	60	40255
2026-01-12 21:23:25.28	52.39	9.40	-47.6	-50.1	6.0	0.00e+00	0	30	104	0	60	39268
2026-01-12 21:23:26.29	52.61	9.45	-47.0	-49.7	6.1	0.00e+00	0	30	104	0	60	37473
2026-01-12 21:23:27.30	52.84	9.50	-47.7	-50.2	6.1	0.00e+00	0	30	104	0	60	39794
2026-01-12 21:23:28.31	53.07	9.54	-45.3	-48.1	6.2	0.00e+00	0	30	104	0	60	31121
2026-01-12 21:23:29.32	53.30	9.59	-46.5	-49.2	6.1	0.00e+00	0	30	104	0	60	35364
2026-01-12 21:23:30.33	53.53	9.63	-45.3	-48.1	6.2	0.00e+00	0	30	104	0	60	31115
2026-01-12 21:23:31.34	53.76	9.68	-46.1	-48.9	6.1	0.00e+00	0	30	104	0	60	34096
2026-01-12 21:23:32.35	53.99	9.73	-46.5	-49.2	6.1	0.00e+00	0	30	104	0	60	35502
2026-01-12 21:23:33.36	54.23	9.77	-46.4	-49.1	6.1	0.00e+00	0	30	104	0	60	34859
2026-01-12 21:23:34.37	54.46	9.82	-46.1	-48.8	6.2	0.00e+00	0	30	104	0	60	33860
2026-01-12 21:23:35.38	54.70	9.86	-45.3	-48.1	6.2	0.00e+00	0	30	104	0	60	31062
2026-01-12 21:23:36.38	54.93	9.90	-47.0	-49.7	6.1	0.00e+00	0	30	104	0	60	37226
2026-01-12 21:23:37.40	55.17	9.95	-48.1	-50.6	6.1	0.00e+00	0	30	104	0	60	41271
2026-01-12 21:23:38.41	55.41	9.99	-46.9	-49.6	6.1	0.00e+00	0	30	104	0	60	36977
2026-01-12 21:23:39.42	55.64	10.04	-47.7	-50.3	6.1	0.00e+00	0	30	104	0	60	40015
2026-01-12 21:23:40.42	55.88	10.08	-48.0	-50.5	6.1	0.00e+00	0	30	104	0	60	40968
2026-01-12 21:23:41.43	56.12	10.12	-48.1	-50.5	6.1	0.00e+00	0	30	104	0	60	41006
2026-01-12 21:23:42.44	56.36	10.17	-47.5	-50.1	6.1	0.00e+00	0	30	104	0	60	39101
2026-01-12 21:23:43.45	56.60	10.21	-47.5	-50.1	6.1	0.00e+00	0	30	104	0	60	39027
2026-01-12 21:23:44.46	56.85	10.25	-47.1	-49.8	6.1	0.00e+00	0	30	104	0	60	37767
2026-01-12 21:23:45.47	57.09	10.29	-47.6	-50.1	6.1	0.00e+00	0	30	104	0	60	39341
2026-01-12 21:23:46.48	57.33	10.33	-47.5	-50.1	6.1	0.00e+00	0	30	104	0	60	38961
2026-01-12 21:23:47.49	57.58	10.37	-47.8	-50.3	6.1	0.00e+00	0	30	104	0	60	40123
2026-01-12 21:23:48.50	57.82	10.42	-47.2	-49.9	6.1	0.00e+00	0	30	104	0	60	38089
2026-01-12 21:23:49.51	58.07	10.46	-47.3	-49.9	6.1	0.00e+00	0	30	104	0	60	38495
2026-01-12 21:23:50.51	58.32	10.50	-48.0	-50.5	6.1	0.00e+00	0	30	104	0	60	40803
2026-01-12 21:23:51.52	58.57	10.54	-48.1	-50.7	6.1	0.00e+00	0	30	104	0	60	41896
2026-01-12 21:23:52.53	58.81	10.58	-47.6	-50.2	6.1	0.00e+00	0	30	104	0	60	39530
2026-01-12 21:23:53.54	59.06	10.62	-47.6	-50.1	6.1	0.00e+00	0	30	104	0	60	39251
2026-01-12 21:23:54.55	59.32	10.66	-48.1	-50.5	6.1	0.00e+00	0	30	104	0	60	41229
2026-01-12 21:23:55.56	59.57	10.69	-47.7	-50.3	6.1	0.00e+00	0	30	104	0	60	40014
2026-01-12 21:23:56.57	59.82	10.73	-47.5	-50.1	6.1	0.00e+00	0	30	104	0	60	39298
2026-01-12 21:23:57.58	60.07	10.77	-48.1	-50.5	6.1	0.00e+00	0	30	104	0	60	41245
2026-01-12 21:23:58.59	60.33	10.81	-47.8	-50.3	6.1	0.00e+00	0	30	104	0	60	40249
2026-01-12 21:23:59.60	60.58	10.85	-47.4	-49.9	6.1	0.00e+00	0	30	104	0	60	38357
2026-01-12 21:24:00.61	60.84	10.88	-47.5	-50.1	6.1	0.00e+00	0	30	104	0	60	39016
2026-01-12 21:24:01.62	61.09	10.92	-47.3	-49.9	6.1	0.00e+00	0	30	104	0	60	38327
2026-01-12 21:24:02.63	61.35	10.96	-47.8	-50.3	6.1	0.00e+00	0	30	104	0	60	40140
2026-01-12 21:24:03.64	61.61	10.99	-47.9	-50.4	6.1	0.00e+00	0	30	104	0	60	40629
2026-01-12 21:24:04.65	61.87	11.03	-48.0	-50.4	6.1	0.00e+00	0	30	104	0	60	40644
2026-01-12 21:24:05.65	62.12	11.06	-47.0	-49.7	6.1	0.00e+00	0	30	104	0	60	37435
2026-01-12 21:24:06.66	62.38	11.10	-45.5	-48.2	6.2	0.00e+00	0	31	104	0	60	31628
2026-01-12 21:24:07.67	62.65	11.13	-44.0	-46.9	6.6	0.00e+00	0	31	104	0	60	26968
2026-01-12 21:24:08.68	62.91	11.16	-47.2	-49.8	6.1	0.00e+00	0	31	104	0	60	38042
2026-01-12 21:24:09.69	63.17	11.20	-44.1	-46.9	6.3	0.00e+00	0	31	104	0	60	27035
2026-01-12 21:24:10.70	63.43	11.23	-45.8	-48.5	6.1	0.00e+00	0	31	104	0	60	32685
2026-01-12 21:24:11.71	63.70	11.26	-44.0	-46.8	6.6	0.00e+00	0	30	104	0	60	26941
2026-01-12 21:24:12.72	63.96	11.30	-45.5	-48.2	6.2	0.00e+00	0	31	104	0	60	31629
2026-01-12 21:24:13.73	64.23	11.33	-47.0	-49.7	6.1	0.00e+00	0	31	104	0	60	37339
2026-01-12 21:24:14.74	64.49	11.36	-48.0	-50.5	6.1	0.00e+00	0	31	104	0	60	40964
2026-01-12 21:24:15.75	64.76	11.39	-48.1	-50.6	6.1	0.00e+00	0	31	104	0	60	41536
2026-01-12 21:24:16.76	65.03	11.42	-48.1	-50.6	6.1	0.00e+00	0	31	104	0	60	41648
2026-01-12 21:24:17.77	65.29	11.45	-47.9	-50.4	6.1	0.00e+00	0	31	104	0	60	40697
2026-01-12 21:24:18.78	65.56	11.48	-47.8	-50.4	6.1	0.00e+00	0	31	104	0	60	40577
2026-01-12 21:24:19.79	65.83	11.51	-48.1	-50.6	6.1	0.00e+00	0	31	104	0	60	41640
2026-01-12 21:24:20.80	66.10	11.54	-47.7	-50.2	6.1	0.00e+00	0	31	104	0	60	39656
2026-01-12 21:24:21.81	66.37	11.57	-48.1	-50.6	6.1	0.00e+00	0	31	104	0	60	41360
2026-01-12 21:24:22.82	66.64	11.60	-47.7	-50.3	6.1	0.00e+00	0	31	104	0	60	40148
2026-01-12 21:24:23.83	66.92	11.62	-46.2	-48.9	6.1	0.00e+00	0	31	104	0	60	34206
2026-01-12 21:24:24.84	67.19	11.65	-47.8	-50.3	6.1	0.00e+00	0	31	104	0	60	40162
2026-01-12 21:24:25.85	67.46	11.68	-46.4	-49.1	6.1	0.00e+00	0	31	104	0	60	34827
2026-01-12 21:24:26.86	67.74	11.70	-45.2	-48.0	6.2	0.00e+00	0	31	104	0	60	30625
2026-01-12 21:24:27.87	68.01	11.73	-45.1	-47.9	6.2	0.00e+00	0	31	104	0	60	30565
2026-01-12 21:24:28.88	68.28	11.75	-45.8	-48.6	6.2	0.00e+00	0	31	104	0	60	32981
2026-01-12 21:24:29.89	68.56	11.78	-46.3	-49.0	6.1	0.00e+00	0	31	104	0	60	34649
2026-01-12 21:24:30.90	68.84	11.80	-46.2	-49.0	6.1	0.00e+00	0	31	104	0	60	34338
2026-01-12 21:24:31.91	69.11	11.83	-47.4	-50.0	6.1	0.00e+00	0	31	104	0	60	38542
2026-01-12 21:24:32.91	69.39	11.85	-46.8	-49.5	6.1	0.00e+00	0	31	104	0	60	36410
2026-01-12 21:24:33.92	69.66	11.87	-45.8	-48.5	6.2	0.00e+00	0	31	104	0	60	32651
2026-01-12 21:24:34.93	69.94	11.89	-47.9	-50.5	6.1	0.00e+00	0	31	104	0	60	40803
2026-01-12 21:24:35.94	70.22	11.91	-44.9	-47.7	6.3	0.00e+00	0	31	104	0	60	29756
2026-01-12 21:24:36.95	70.50	11.94	-46.1	-48.9	6.1	0.00e+00	0	31	104	0	60	34087
2026-01-12 21:24:37.96	70.78	11.96	-47.8	-50.4	6.1	0.00e+00	0	31	104	0	60	40571
2026-01-12 21:24:38.97	71.06	11.98	-47.8	-50.4	6.1	0.00e+00	0	31	104	0	60	40656
2026-01-12 21:24:39.98	71.34	12.00	-47.7	-50.3	6.1	0.00e+00	0	31	104	0	60	40185
2026-01-12 21:24:40.99	71.62	12.02	-47.5	-50.1	6.1	0.00e+00	0	31	104	0	60	39280
2026-01-12 21:24:41.99	71.90	12.03	-47.5	-50.1	6.1	0.00e+00	0	31	104	0	60	39000
2026-01-12 21:24:43.00	72.18	12.05	-47.4	-50.1	6.1	0.00e+00	0	31	104	0	60	39062
2026-01-12 21:24:44.02	72.46	12.07	-47.8	-50.4	6.1	0.00e+00	0	31	104	0	60	40348
2026-01-12 21:24:45.03	72.75	12.09	-48.1	-50.6	6.1	0.00e+00	0	31	104	0	60	41577
2026-01-12 21:24:46.04	73.03	12.10	-47.9	-50.4	6.1	0.00e+00	0	31	104	0	60	40588
2026-01-12 21:24:47.04	73.31	12.12	-47.8	-50.4	6.1	0.00e+00	0	31	104	0	60	40520
2026-01-12 21:24:48.05	73.59	12.13	-48.0	-50.6	6.1	0.00e+00	0	31	104	0	60	41313
2026-01-12 21:24:49.06	73.88	12.15	-48.1	-50.6	6.1	0.00e+00	0	31	104	0	60	41416
2026-01-12 21:24:50.07	74.16	12.16	-47.6	-50.2	6.1	0.00e+00	0	31	104	0	60	39697
2026-01-12 21:24:51.08	74.45	12.18	-47.0	-49.6	6.1	0.00e+00	0	31	104	0	60	37134
2026-01-12 21:24:52.09	74.73	12.19	-47.0	-49.6	6.1	0.00e+00	0	31	104	0	60	37033
2026-01-12 21:24:53.10	75.02	12.20	-46.0	-48.8	6.2	0.00e+00	0	31	104	0	60	33760
2026-01-12 21:24:54.11	75.30	12.22	-45.8	-48.6	6.1	0.00e+00	0	31	104	0	60	32984
2026-01-12 21:24:55.12	75.59	12.23	-46.3	-49.0	6.1	0.00e+00	0	31	104	0	60	34572
2026-01-12 21:24:56.12	75.87	12.24	-47.7	-50.2	6.1	0.00e+00	0	31	104	0	60	39807
2026-01-12 21:24:57.13	76.16	12.25	-47.1	-49.8	6.1	0.00e+00	0	31	104	0	60	37862
2026-01-12 21:24:58.15	76.45	12.26	-46.3	-49.1	6.1	0.00e+00	0	31	104	0	60	34877
2026-01-12 21:24:59.16	76.73	12.27	-47.5	-50.1	6.1	0.00e+00	0	31	104	0	60	39165
2026-01-12 21:25:00.17	77.02	12.28	-47.8	-50.4	6.1	0.00e+00	0	31	104	0	60	40489
2026-01-12 21:25:01.18	77.31	12.28	-46.2	-49.0	6.1	0.00e+00	0	31	104	0	60	34435
2026-01-12 21:25:02.19	77.60	12.29	-47.8	-50.3	6.1	0.00e+00	0	31	104	0	60	40123
2026-01-12 21:25:03.19	77.88	12.30	-46.5	-49.2	6.1	0.00e+00	0	31	104	0	60	35406
2026-01-12 21:25:04.20	78.17	12.31	-47.2	-49.8	6.1	0.00e+00	0	31	104	0	60	38062
2026-01-12 21:25:05.21	78.46	12.31	-47.7	-50.3	6.1	0.00e+00	0	31	104	0	60	40220
2026-01-12 21:25:06.22	78.75	12.32	-47.5	-50.1	6.1	0.00e+00	0	31	104	0	60	39151
2026-01-12 21:25:07.23	79.03	12.32	-47.9	-50.4	6.1	0.00e+00	0	31	104	0	60	40710
2026-01-12 21:25:08.24	79.32	12.33	-47.4	-50.0	6.1	0.00e+00	0	31	104	0	60	38885
2026-01-12 21:25:09.25	79.61	12.33	-47.7	-50.3	6.1	0.00e+00	0	31	104	0	60	40018
2026-01-12 21:25:10.26	79.90	12.33	-48.1	-50.6	6.1	0.00e+00	0	31	104	0	60	41441
2026-01-12 21:25:11.27	80.19	12.33	-47.7	-50.3	6.1	0.00e+00	0	31	104	0	60	40067
2026-01-12 21:25:12.28	80.48	12.34	-47.6	-50.1	6.1	0.00e+00	0	31	104	0	60	39346
2026-01-12 21:25:13.29	80.77	12.34	-47.8	-50.4	6.1	0.00e+00	0	31	104	0	60	40356
2026-01-12 21:25:14.30	81.05	12.34	-47.9	-50.4	6.1	0.00e+00	0	31	104	0	60	40586
2026-01-12 21:25:15.31	81.34	12.34	-47.4	-50.0	6.1	0.00e+00	0	31	104	0	60	38873
2026-01-12 21:25:16.32	81.63	12.34	-47.8	-50.3	6.1	0.00e+00	0	31	104	0	60	40160
2026-01-12 21:25:17.33	81.92	12.34	-48.0	-50.5	6.1	0.00e+00	0	31	104	0	60	41140
2026-01-12 21:25:18.34	82.21	12.34	-48.0	-50.5	6.1	0.00e+00	0	31	104	0	60	40817
2026-01-12 21:25:19.35	82.50	12.33	-47.9	-50.5	6.1	0.00e+00	0	31	104	0	60	40929
2026-01-12 21:25:20.36	82.79	12.33	-47.9	-50.5	6.1	0.00e+00	0	31	104	0	60	40984
2026-01-12 21:25:21.37	83.07	12.33	-47.8	-50.4	6.1	0.00e+00	0	31	104	0	60	40649
2026-01-12 21:25:22.37	83.36	12.32	-47.7	-50.3	6.1	0.00e+00	0	31	104	0	60	40098
2026-01-12 21:25:23.38	83.65	12.32	-48.1	-50.6	6.0	0.00e+00	0	31	104	0	60	41452
2026-01-12 21:25:24.39	83.94	12.31	-47.9	-50.4	6.1	0.00e+00	0	31	104	0	60	40626
2026-01-12 21:25:25.40	84.23	12.31	-47.8	-50.4	6.1	0.00e+00	0	31	104	0	60	40453
2026-01-12 21:25:26.41	84.51	12.30	-47.8	-50.4	6.1	0.00e+00	0	31	104	0	60	40481
2026-01-12 21:25:27.42	84.80	12.30	-47.7	-50.3	6.1	0.00e+00	0	31	104	0	60	39913
2026-01-12 21:25:28.43	85.09	12.29	-48.0	-50.5	6.1	0.00e+00	0	31	104	0	60	41095
2026-01-12 21:25:29.44	85.38	12.28	-47.9	-50.4	6.1	0.00e+00	0	31	104	0	60	40687
2026-01-12 21:25:30.45	85.66	12.27	-48.0	-50.5	6.1	0.00e+00	0	31	104	0	60	40978
2026-01-12 21:25:31.46	85.95	12.26	-48.0	-50.5	6.1	0.00e+00	0	31	104	0	60	41174
2026-01-12 21:25:32.47	86.24	12.25	-48.0	-50.5	6.1	0.00e+00	0	31	104	0	60	40919
2026-01-12 21:25:33.47	86.52	12.24	-47.9	-50.4	6.1	0.00e+00	0	31	104	0	60	40749
2026-01-12 21:25:34.48	86.81	12.23	-47.9	-50.4	6.1	0.00e+00	0	31	104	0	60	40411
2026-01-12 21:25:35.49	87.10	12.22	-47.8	-50.3	6.1	0.00e+00	0	31	104	0	60	39950
2026-01-12 21:25:36.50	87.38	12.21	-47.5	-50.2	6.1	0.00e+00	0	31	104	0	60	39419
2026-01-12 21:25:37.51	87.67	12.20	-47.6	-50.2	6.1	0.00e+00	0	31	104	0	60	39474
2026-01-12 21:25:38.52	87.95	12.19	-47.9	-50.4	6.1	0.00e+00	0	31	104	0	60	40491
2026-01-12 21:25:39.53	88.24	12.17	-47.7	-50.2	6.1	0.00e+00	0	31	104	0	60	39600
2026-01-12 21:25:40.54	88.52	12.16	-47.7	-50.2	6.0	0.00e+00	0	31	104	0	60	39717
2026-01-12 21:25:41.55	88.81	12.14	-47.9	-50.4	6.1	0.00e+00	0	31	104	0	60	40461
2026-01-12 21:25:42.56	89.09	12.13	-47.7	-50.3	6.1	0.00e+00	0	31	104	0	60	40135
2026-01-12 21:25:43.56	89.37	12.11	-48.1	-50.6	6.1	0.00e+00	0	31	104	0	60	41297
2026-01-12 21:25:44.57	89.66	12.10	-48.1	-50.5	6.1	0.00e+00	0	31	104	0	60	41139
2026-01-12 21:25:45.58	89.94	12.08	-48.0	-50.5	6.1	0.00e+00	0	31	104	0	60	40866
2026-01-12 21:25:46.59	90.22	12.06	-47.7	-50.3	6.1	0.00e+00	0	31	104	0	60	40052
2026-01-12 21:25:47.60	90.51	12.04	-48.0	-50.5	6.1	0.00e+00	0	31	104	0	60	41122
2026-01-12 21:25:48.61	90.79	12.03	-48.0	-50.5	6.1	0.00e+00	0	31	104	0	60	40847
2026-01-12 21:25:49.62	91.07	12.01	-47.9	-50.4	6.1	0.00e+00	0	31	104	0	60	40715
2026-01-12 21:25:50.63	91.35	11.99	-47.8	-50.4	6.1	0.00e+00	0	31	104	0	60	40590
2026-01-12 21:25:51.64	91.63	11.97	-47.7	-50.3	6.1	0.00e+00	0	31	104	0	60	39929
2026-01-12 21:25:52.65	91.91	11.95	-47.6	-50.2	6.1	0.00e+00	0	31	104	0	60	39574
2026-01-12 21:25:53.66	92.19	11.93	-47.8	-50.3	6.1	0.00e+00	0	31	104	0	60	40243
2026-01-12 21:25:54.67	92.47	11.91	-47.7	-50.2	6.1	0.00e+00	0	31	104	0	60	39813
2026-01-12 21:25:55.68	92.75	11.88	-47.8	-50.2	6.1	0.00e+00	0	31	104	0	60	39781
2026-01-12 21:25:56.69	93.03	11.86	-47.8	-50.3	6.1	0.00e+00	0	31	104	0	60	40166
2026-01-12 21:25:57.70	93.31	11.84	-47.7	-50.2	6.1	0.00e+00	0	31	104	0	60	39799
2026-01-12 21:25:58.71	93.59	11.82	-47.8	-50.3	6.1	0.00e+00	0	31	104	0	60	40297
2026-01-12 21:25:59.72	93.86	11.79	-47.6	-50.1	6.1	0.00e+00	0	31	104	0	60	39298
2026-01-12 21:26:00.73	94.14	11.77	-47.0	-49.7	6.1	0.00e+00	0	31	104	0	60	37303
2026-01-12 21:26:01.74	94.42	11.74	-47.7	-50.2	6.1	0.00e+00	0	31	104	0	60	39533
2026-01-12 21:26:02.75	94.69	11.72	-47.5	-50.1	6.1	0.00e+00	0	31	104	0	60	39090
2026-01-12 21:26:03.76	94.97	11.69	-48.0	-50.5	6.1	0.00e+00	0	31	104	0	60	40842
2026-01-12 21:26:04.77	95.24	11.66	-47.6	-50.2	6.1	0.00e+00	0	31	104	0	60	39475
2026-01-12 21:26:05.78	95.51	11.64	-48.1	-50.5	6.1	0.00e+00	0	31	104	0	60	41192
2026-01-12 21:26:06.79	95.79	11.61	-47.8	-50.4	6.1	0.00e+00	0	31	104	0	60	40329
2026-01-12 21:26:07.80	96.06	11.58	-47.9	-50.5	6.1	0.00e+00	0	31	104	0	60	41149
2026-01-12 21:26:08.81	96.33	11.55	-47.5	-50.1	6.1	0.00e+00	0	31	104	0	60	39359
2026-01-12 21:26:09.82	96.60	11.53	-47.1	-49.8	6.1	0.00e+00	0	31	104	0	60	37963
2026-01-12 21:26:10.83	96.87	11.50	-47.6	-50.2	6.0	0.00e+00	0	31	104	0	60	39538
2026-01-12 21:26:11.84	97.14	11.47	-47.9	-50.4	6.1	0.00e+00	0	32	104	0	60	40704
2026-01-12 21:26:12.85	97.41	11.44	-47.9	-50.5	6.1	0.00e+00	0	31	104	0	60	40974
2026-01-12 21:26:13.86	97.68	11.41	-47.2	-49.9	6.1	0.00e+00	0	31	104	0	60	38199
2026-01-12 21:26:14.87	97.95	11.38	-47.8	-50.4	6.1	0.00e+00	0	31	104	0	60	40399
2026-01-12 21:26:15.88	98.22	11.34	-47.9	-50.4	6.1	0.00e+00	0	31	104	0	60	40442
2026-01-12 21:26:16.89	98.48	11.31	-47.8	-50.4	6.0	0.00e+00	0	31	104	0	60	40389
2026-01-12 21:26:17.90	98.75	11.28	-47.6	-50.1	6.1	0.00e+00	0	31	104	0	60	39336
2026-01-12 21:26:18.91	99.01	11.25	-47.7	-50.3	6.1	0.00e+00	0	32	104	0	60	39931
2026-01-12 21:26:19.92	99.28	11.21	-47.0	-49.7	6.0	0.00e+00	0	32	104	0	60	37330
2026-01-12 21:26:20.93	99.54	11.18	-47.2	-49.8	6.1	0.00e+00	0	32	104	0	60	37977
2026-01-12 21:26:21.94	99.80	11.15	-47.3	-49.9	6.1	0.00e+00	0	32	104	0	60	38211
2026-01-12 21:26:22.95	100.07	11.11	-47.7	-50.3	6.1	0.00e+00	0	32	104	0	60	39961
2026-01-12 21:26:23.96	100.33	11.08	-47.4	-50.0	6.1	0.00e+00	0	31	104	0	60	38678
2026-01-12 21:26:24.97	100.59	11.04	-47.8	-50.3	6.1	0.00e+00	0	31	104	0	60	40146
2026-01-12 21:26:25.98	100.85	11.01	-48.0	-50.4	6.1	0.00e+00	0	32	104	0	60	40715
2026-01-12 21:26:26.99	101.11	10.97	-47.9	-50.4	6.1	0.00e+00	0	31	104	0	60	40663
2026-01-12 21:26:28.00	101.37	10.94	-47.5	-50.1	6.1	0.00e+00	0	32	104	0	60	39197
2026-01-12 21:26:29.01	101.63	10.90	-47.8	-50.3	6.1	0.00e+00	0	31	104	0	60	40087
2026-01-12 21:26:30.02	101.88	10.86	-47.8	-50.4	6.1	0.00e+00	0	32	104	0	60	40372
2026-01-12 21:26:31.03	102.14	10.82	-47.7	-50.2	6.1	0.00e+00	0	31	104	0	60	39830
2026-01-12 21:26:32.03	102.39	10.79	-47.7	-50.2	6.1	0.00e+00	0	31	104	0	60	39609
2026-01-12 21:26:33.04	102.65	10.75	-47.5	-50.1	6.1	0.00e+00	0	32	104	0	60	39122
2026-01-12 21:26:34.05	102.90	10.71	-47.6	-50.2	6.1	0.00e+00	0	31	104	0	60	39544
2026-01-12 21:26:35.06	103.15	10.67	-47.7	-50.3	6.1	0.00e+00	0	32	104	0	60	39965
2026-01-12 21:26:36.07	103.41	10.63	-47.4	-49.9	6.1	0.00e+00	0	31	104	0	60	38503
2026-01-12 21:26:37.08	103.66	10.59	-47.8	-50.3	6.1	0.00e+00	0	32	104	0	60	40036
2026-01-12 21:26:38.09	103.91	10.55	-47.8	-50.3	6.1	0.00e+00	0	31	104	0	60	40128
2026-01-12 21:26:39.10	104.16	10.51	-47.7	-50.3	6.1	0.00e+00	0	31	104	0	60	40201
2026-01-12 21:26:40.11	104.41	10.47	-47.8	-50.3	6.1	0.00e+00	0	32	104	0	60	40284
2026-01-12 21:26:41.12	104.66	10.43	-47.4	-50.0	6.1	0.00e+00	0	32	104	0	60	38641
2026-01-12 21:26:42.13	104.90	10.39	-47.7	-50.3	6.1	0.00e+00	0	32	104	0	60	39923
2026-01-12 21:26:43.14	105.15	10.35	-47.9	-50.3	6.0	0.00e+00	0	32	104	0	60	40258
2026-01-12 21:26:44.15	105.40	10.31	-47.6	-50.2	6.1	0.00e+00	0	31	104	0	60	39627
2026-01-12 21:26:45.16	105.64	10.27	-47.9	-50.4	6.1	0.00e+00	0	31	104	0	60	40574
2026-01-12 21:26:46.17	105.89	10.22	-47.7	-50.2	6.1	0.00e+00	0	32	104	0	60	39839
2026-01-12 21:26:47.18	106.13	10.18	-47.8	-50.3	6.1	0.00e+00	0	32	104	0	60	40223
2026-01-12 21:26:48.18	106.37	10.14	-47.8	-50.3	6.1	0.00e+00	0	32	104	0	60	40075
2026-01-12 21:26:49.19	106.61	10.09	-47.8	-50.3	6.1	0.00e+00	0	32	104	0	60	40215
2026-01-12 21:26:50.20	106.85	10.05	-47.6	-50.2	6.1	0.00e+00	0	32	104	0	60	39476
2026-01-12 21:26:51.21	107.09	10.01	-47.7	-50.3	6.1	0.00e+00	0	32	104	0	60	40136
2026-01-12 21:26:52.22	107.33	9.96	-47.4	-50.0	6.1	0.00e+00	0	32	104	0	60	38882
2026-01-12 21:26:53.23	107.57	9.92	-47.8	-50.3	6.1	0.00e+00	0	32	104	0	60	40254
2026-01-12 21:26:54.24	107.81	9.87	-47.9	-50.4	6.1	0.00e+00	0	32	104	0	60	40430
2026-01-12 21:26:55.25	108.04	9.83	-47.6	-50.2	6.1	0.00e+00	0	32	104	0	60	39577
2026-01-12 21:26:56.26	108.28	9.78	-47.6	-50.2	6.1	0.00e+00	0	32	104	0	60	39461
2026-01-12 21:26:57.27	108.51	9.74	-47.8	-50.3	6.1	0.00e+00	0	32	104	0	60	40080
2026-01-12 21:26:58.28	108.75	9.69	-47.7	-50.2	6.1	0.00e+00	0	31	104	0	60	39762
2026-01-12 21:26:59.29	108.98	9.65	-47.5	-50.1	6.1	0.00e+00	0	32	104	0	60	39220
2026-01-12 21:27:00.30	109.21	9.60	-47.5	-50.0	6.1	0.00e+00	0	32	104	0	60	38877
2026-01-12 21:27:01.31	109.45	9.55	-47.6	-50.1	6.1	0.00e+00	0	32	104	0	60	39235
2026-01-12 21:27:02.31	109.67	9.51	-47.7	-50.2	6.1	0.00e+00	0	32	104	0	60	39846
2026-01-12 21:27:03.32	109.90	9.46	-47.8	-50.3	6.1	0.00e+00	0	32	104	0	60	40130
2026-01-12 21:27:04.33	110.13	9.41	-47.9	-50.4	6.1	0.00e+00	0	32	104	0	60	40354
2026-01-12 21:27:05.34	110.36	9.37	-47.6	-50.2	6.1	0.00e+00	0	32	104	0	60	39482
2026-01-12 21:27:06.35	110.59	9.32	-47.7	-50.3	6.1	0.00e+00	0	32	104	0	60	39915
2026-01-12 21:27:07.36	110.81	9.27	-47.8	-50.4	6.1	0.00e+00	0	32	104	0	60	40343
2026-01-12 21:27:08.37	111.04	9.22	-47.7	-50.2	6.1	0.00e+00	0	32	104	0	60	39581
2026-01-12 21:27:09.38	111.26	9.18	-47.8	-50.3	6.1	0.00e+00	0	32	104	0	60	39941
2026-01-12 21:27:10.39	111.48	9.13	-47.7	-50.3	6.1	0.00e+00	0	32	104	0	60	39912
2026-01-12 21:27:11.40	111.71	9.08	-47.8	-50.3	6.1	0.00e+00	0	32	104	0	60	40069
2026-01-12 21:27:12.41	111.93	9.03	-47.8	-50.3	6.1	0.00e+00	0	32	104	0	60	40065
2026-01-12 21:27:13.42	112.15	8.98	-47.7	-50.3	6.1	0.00e+00	0	32	104	0	60	39932
2026-01-12 21:27:14.43	112.37	8.93	-47.7	-50.2	6.1	0.00e+00	0	32	104	0	60	39652
2026-01-12 21:27:15.44	112.59	8.88	-47.8	-50.3	6.1	0.00e+00	0	32	104	0	60	40215
2026-01-12 21:27:16.45	112.81	8.83	-47.9	-50.4	6.1	0.00e+00	0	32	104	0	60	40386
2026-01-12 21:27:17.46	113.02	8.78	-47.9	-50.3	6.1	0.00e+00	0	32	104	0	60	40296
2026-01-12 21:27:18.46	113.24	8.73	-47.9	-50.4	6.1	0.00e+00	0	32	104	0	60	40526
2026-01-12 21:27:19.47	113.45	8.68	-47.8	-50.4	6.1	0.00e+00	0	32	104	0	60	40327
2026-01-12 21:27:20.48	113.67	8.63	-47.8	-50.3	6.1	0.00e+00	0	32	104	0	60	40278
2026-01-12 21:27:21.49	113.88	8.58	-47.8	-50.3	6.1	0.00e+00	0	32	104	0	60	40056
2026-01-12 21:27:22.50	114.09	8.53	-47.9	-50.4	6.1	0.00e+00	0	32	104	0	60	40349
2026-01-12 21:27:23.51	114.30	8.48	-47.7	-50.2	6.1	0.00e+00	0	32	104	0	60	39776
2026-01-12 21:27:24.52	114.52	8.43	-47.8	-50.3	6.1	0.00e+00	0	32	104	0	60	40051
2026-01-12 21:27:25.53	114.73	8.38	-47.8	-50.3	6.1	0.00e+00	0	32	104	0	60	40174
2026-01-12 21:27:26.54	114.93	8.33	-47.9	-50.3	6.1	0.00e+00	0	32	104	0	60	40188
2026-01-12 21:27:27.55	115.14	8.28	-47.8	-50.4	6.1	0.00e+00	0	32	104	0	60	40348
2026-01-12 21:27:28.55	115.35	8.23	-47.8	-50.3	6.1	0.00e+00	0	32	104	0	60	40042
2026-01-12 21:27:29.56	115.55	8.18	-47.7	-50.2	6.1	0.00e+00	0	32	104	0	60	39695
2026-01-12 21:27:30.57	115.76	8.12	-47.9	-50.4	6.1	0.00e+00	0	32	104	0	60	40367
2026-01-12 21:27:31.58	115.97	8.07	-47.6	-50.1	6.1	0.00e+00	0	32	104	0	60	39404
2026-01-12 21:27:32.59	116.17	8.02	-47.7	-50.2	6.1	0.00e+00	0	32	104	0	60	39665
2026-01-12 21:27:33.60	116.37	7.97	-47.8	-50.3	6.1	0.00e+00	0	32	104	0	60	40020
2026-01-12 21:27:34.60	116.57	7.92	-47.8	-50.3	6.1	0.00e+00	0	32	104	0	60	40054
2026-01-12 21:27:35.62	116.78	7.86	-47.8	-50.3	6.1	0.00e+00	0	32	104	0	60	40082
2026-01-12 21:27:36.63	116.98	7.81	-47.7	-50.2	6.1	0.00e+00	0	32	104	0	60	39675
2026-01-12 21:27:37.64	117.17	7.76	-47.8	-50.3	6.1	0.00e+00	0	32	104	0	60	40133
2026-01-12 21:27:38.65	117.37	7.71	-47.8	-50.3	6.1	0.00e+00	0	32	104	0	60	40172
2026-01-12 21:27:39.65	117.57	7.65	-47.8	-50.3	6.1	0.00e+00	0	32	104	0	60	40183
2026-01-12 21:27:40.66	117.77	7.60	-47.8	-50.2	6.1	0.00e+00	0	32	104	0	60	39676
2026-01-12 21:27:41.67	117.96	7.55	-47.8	-50.3	6.1	0.00e+00	0	32	104	0	60	40103
2026-01-12 21:27:42.68	118.16	7.50	-47.8	-50.3	6.1	0.00e+00	0	32	104	0	60	40012
2026-01-12 21:27:43.69	118.35	7.44	-47.7	-50.2	6.1	0.00e+00	0	32	104	0	60	39807
2026-01-12 21:27:44.70	118.54	7.39	-47.7	-50.2	6.1	0.00e+00	0	32	104	0	60	39547
2026-01-12 21:27:45.71	118.74	7.34	-47.8	-50.2	6.1	0.00e+00	0	32	104	0	60	39786
2026-01-12 21:27:46.72	118.93	7.28	-47.8	-50.3	6.1	0.00e+00	0	32	104	0	60	39892
2026-01-12 21:27:47.73	119.12	7.23	-47.7	-50.2	6.1	0.00e+00	0	32	104	0	60	39674
2026-01-12 21:27:48.74	119.31	7.18	-47.5	-50.0	6.1	0.00e+00	0	32	104	0	60	38872
2026-01-12 21:27:49.75	119.50	7.12	-47.8	-50.3	6.1	0.00e+00	0	32	104	0	60	39928
2026-01-12 21:27:50.75	119.69	7.07	-47.7	-50.2	6.1	0.00e+00	0	32	104	0	60	39471
2026-01-12 21:27:51.76	119.87	7.01	-47.7	-50.2	6.1	0.00e+00	0	32	104	0	60	39710
2026-01-12 21:27:52.77	120.06	6.96	-47.5	-50.0	6.1	0.00e+00	0	32	104	0	60	38714
2026-01-12 21:27:53.78	120.25	6.91	-47.7	-50.2	6.1	0.00e+00	0	32	104	0	60	39685
2026-01-12 21:27:54.79	120.43	6.85	-47.4	-50.0	6.1	0.00e+00	0	32	104	0	60	38596
2026-01-12 21:27:55.80	120.61	6.80	-47.5	-50.0	6.1	0.00e+00	0	32	104	0	60	38889
2026-01-12 21:27:56.81	120.80	6.75	-47.3	-49.8	6.1	0.00e+00	0	32	104	0	60	37963
2026-01-12 21:27:57.82	120.98	6.69	-47.3	-49.8	6.1	0.00e+00	0	32	104	0	60	38037
2026-01-12 21:27:58.83	121.16	6.64	-47.6	-50.2	6.1	0.00e+00	0	32	104	0	60	39488
2026-01-12 21:27:59.83	121.34	6.58	-47.5	-50.0	6.1	0.00e+00	0	32	104	0	60	38718
2026-01-12 21:28:00.84	121.52	6.53	-47.5	-50.1	6.1	0.00e+00	0	32	104	0	60	39050
2026-01-12 21:28:01.85	121.70	6.47	-47.4	-50.0	6.1	0.00e+00	0	32	104	0	60	38604
2026-01-12 21:28:02.86	121.88	6.42	-47.6	-50.0	6.1	0.00e+00	0	32	104	0	60	38949
2026-01-12 21:28:03.87	122.06	6.37	-47.6	-50.1	6.1	0.00e+00	0	32	104	0	60	39286
2026-01-12 21:28:04.88	122.23	6.31	-47.3	-49.9	6.1	0.00e+00	0	32	104	0	60	38276
2026-01-12 21:28:05.89	122.41	6.26	-47.5	-50.0	6.1	0.00e+00	0	32	104	0	60	38843
2026-01-12 21:28:06.90	122.58	6.20	-47.6	-50.0	6.1	0.00e+00	0	32	104	0	60	38855
2026-01-12 21:28:07.91	122.76	6.15	-47.5	-50.1	6.0	0.00e+00	0	32	104	0	60	39189
2026-01-12 21:28:08.91	122.93	6.09	-47.5	-50.0	6.1	0.00e+00	0	32	104	0	60	38719
2026-01-12 21:28:09.92	123.10	6.04	-47.6	-50.1	6.1	0.00e+00	0	32	104	0	60	39016
2026-01-12 21:28:10.93	123.27	5.98	-47.6	-50.1	6.1	0.00e+00	0	32	104	0	60	38989
2026-01-12 21:28:11.94	123.45	5.93	-47.6	-50.1	6.1	0.00e+00	0	32	104	0	60	39030
2026-01-12 21:28:12.95	123.62	5.87	-47.4	-49.9	6.1	0.00e+00	0	32	104	0	60	38356
2026-01-12 21:28:13.96	123.79	5.82	-47.6	-50.1	6.1	0.00e+00	0	32	104	0	60	39131
2026-01-12 21:28:14.97	123.95	5.77	-47.5	-50.1	6.1	0.00e+00	0	32	104	0	60	39044
2026-01-12 21:28:15.98	124.12	5.71	-47.5	-50.0	6.1	0.00e+00	0	32	104	0	60	38930
2026-01-12 21:28:16.99	124.29	5.66	-47.5	-50.0	6.1	0.00e+00	0	32	104	0	60	38620
2026-01-12 21:28:18.00	124.46	5.60	-47.6	-50.1	6.1	0.00e+00	0	32	104	0	60	38993
2026-01-12 21:28:19.01	124.62	5.55	-47.5	-50.0	6.1	0.00e+00	0	32	104	0	60	38742
2026-01-12 21:28:20.02	124.79	5.49	-47.5	-50.1	6.1	0.00e+00	0	32	104	0	60	39022
2026-01-12 21:28:21.02	124.95	5.44	-47.5	-49.9	6.1	0.00e+00	0	32	104	0	60	38320
2026-01-12 21:28:22.03	125.11	5.38	-47.5	-50.1	6.1	0.00e+00	0	32	104	0	60	38983
2026-01-12 21:28:23.04	125.28	5.33	-47.5	-50.0	6.1	0.00e+00	0	32	104	0	60	38754
2026-01-12 21:28:24.05	125.44	5.27	-47.5	-50.0	6.1	0.00e+00	0	32	104	0	60	38736
2026-01-12 21:28:25.06	125.60	5.22	-47.4	-49.9	6.1	0.00e+00	0	32	104	0	60	38280
2026-01-12 21:28:26.07	125.76	5.16	-47.5	-50.0	6.1	0.00e+00	0	32	104	0	60	38854
2026-01-12 21:28:27.08	125.92	5.11	-47.4	-49.9	6.1	0.00e+00	0	32	104	0	60	38182
2026-01-12 21:28:28.09	126.08	5.05	-47.5	-49.9	6.1	0.00e+00	0	32	104	0	60	38451
2026-01-12 21:28:29.10	126.24	5.00	-47.4	-49.9	6.1	0.00e+00	0	32	104	0	60	38111
2026-01-12 21:28:30.11	126.39	4.94	-47.5	-50.0	6.1	0.00e+00	0	32	104	0	60	38669
2026-01-12 21:28:31.12	126.55	4.89	-47.3	-49.9	6.1	0.00e+00	0	32	104	0	60	38093
2026-01-12 21:28:32.13	126.71	4.83	-47.4	-49.9	6.1	0.00e+00	0	32	104	0	60	38447
2026-01-12 21:28:33.14	126.86	4.78	-47.3	-49.8	6.1	0.00e+00	0	32	104	0	60	37969
2026-01-12 21:28:34.15	127.02	4.72	-47.5	-50.0	6.1	0.00e+00	0	32	104	0	60	38668
2026-01-12 21:28:35.16	127.17	4.67	-47.2	-49.7	6.1	0.00e+00	0	32	104	0	60	37533
2026-01-12 21:28:36.17	127.32	4.61	-47.3	-49.8	6.1	0.00e+00	0	32	104	0	60	38002
2026-01-12 21:28:37.18	127.48	4.56	-47.2	-49.7	6.1	0.00e+00	0	32	104	0	60	37395
2026-01-12 21:28:38.19	127.63	4.50	-47.4	-49.9	6.1	0.00e+00	0	32	104	0	60	38506
2026-01-12 21:28:39.20	127.78	4.45	-47.4	-49.9	6.1	0.00e+00	0	32	104	0	60	38130
2026-01-12 21:28:40.21	127.93	4.39	-47.2	-49.7	6.1	0.00e+00	0	32	104	0	60	37252
2026-01-12 21:28:41.22	128.08	4.34	-47.2	-49.6	6.1	0.00e+00	0	32	104	0	60	37186
2026-01-12 21:28:42.23	128.23	4.28	-47.4	-49.9	6.1	0.00e+00	0	32	104	0	60	38471
2026-01-12 21:28:43.24	128.38	4.23	-47.3	-49.8	6.0	0.00e+00	0	32	104	0	60	37744
2026-01-12 21:28:44.25	128.53	4.17	-47.3	-49.8	6.1	0.00e+00	0	32	104	0	60	37918
2026-01-12 21:28:45.26	128.67	4.12	-47.2	-49.6	6.1	0.00e+00	0	32	104	0	60	37100
2026-01-12 21:28:46.27	128.82	4.06	-47.4	-49.9	6.1	0.00e+00	0	32	104	0	60	38079
2026-01-12 21:28:47.28	128.96	4.01	-47.2	-49.7	6.1	0.00e+00	0	32	104	0	60	37366
2026-01-12 21:28:48.29	129.11	3.95	-47.2	-49.7	6.1	0.00e+00	0	32	104	0	60	37556
2026-01-12 21:28:49.31	129.26	3.90	-47.1	-49.5	6.1	0.00e+00	0	32	104	0	60	36637
2026-01-12 21:28:50.32	129.40	3.84	-47.3	-49.8	6.1	0.00e+00	0	32	104	0	60	38034
2026-01-12 21:28:51.33	129.54	3.79	-47.2	-49.6	6.1	0.00e+00	0	32	104	0	60	37173
2026-01-12 21:28:52.34	129.68	3.73	-47.2	-49.7	6.1	0.00e+00	0	32	104	0	60	37265
2026-01-12 21:28:53.35	129.83	3.68	-47.0	-49.5	6.1	0.00e+00	0	32	104	0	60	36721
2026-01-12 21:28:54.35	129.97	3.63	-47.3	-49.7	6.1	0.00e+00	0	32	104	0	60	37631
2026-01-12 21:28:55.36	130.11	3.57	-47.1	-49.6	6.1	0.00e+00	0	32	104	0	60	36899
2026-01-12 21:28:56.38	130.25	3.52	-47.1	-49.6	6.1	0.00e+00	0	32	104	0	60	37020
2026-01-12 21:28:57.38	130.39	3.46	-47.0	-49.5	6.1	0.00e+00	0	32	104	0	60	36597
2026-01-12 21:28:58.40	130.53	3.41	-47.2	-49.7	6.1	0.00e+00	0	32	104	0	60	37231
2026-01-12 21:28:59.40	130.66	3.35	-47.1	-49.6	6.1	0.00e+00	0	32	104	0	60	36854
2026-01-12 21:29:00.41	130.80	3.30	-47.0	-49.5	6.1	0.00e+00	0	32	104	0	60	36452
2026-01-12 21:29:01.42	130.94	3.24	-47.0	-49.4	6.1	0.00e+00	0	32	104	0	60	36299
2026-01-12 21:29:02.43	131.07	3.19	-47.2	-49.6	6.1	0.00e+00	0	32	104	0	60	36931
2026-01-12 21:29:03.44	131.21	3.14	-47.0	-49.5	6.1	0.00e+00	0	32	104	0	60	36466
2026-01-12 21:29:04.45	131.34	3.08	-46.9	-49.4	6.1	0.00e+00	0	32	104	0	60	36215
2026-01-12 21:29:05.47	131.48	3.03	-46.9	-49.3	6.1	0.00e+00	0	32	104	0	60	35934
2026-01-12 21:29:06.48	131.61	2.97	-47.6	-50.1	6.1	0.00e+00	0	32	104	0	60	39167
2026-01-12 21:29:07.49	131.74	2.92	-48.1	-50.6	6.1	0.00e+00	0	32	104	0	60	41479
2026-01-12 21:29:08.50	131.88	2.86	-48.2	-50.7	6.1	0.00e+00	0	32	104	0	60	41856
2026-01-12 21:29:09.51	132.01	2.81	-48.4	-50.9	6.0	0.00e+00	0	32	104	0	60	43077
2026-01-12 21:29:10.52	132.14	2.76	-48.6	-51.0	6.1	0.00e+00	0	32	104	0	60	43557
2026-01-12 21:29:11.53	132.27	2.70	-48.6	-51.0	6.1	0.00e+00	0	32	104	0	60	43499
2026-01-12 21:29:12.54	132.40	2.65	-48.6	-51.1	6.1	0.00e+00	0	32	104	0	60	43984
2026-01-12 21:29:13.55	132.53	2.59	-48.6	-51.1	6.1	0.00e+00	0	32	104	0	60	43839
2026-01-12 21:29:14.56	132.66	2.54	-48.7	-51.1	6.1	0.00e+00	0	32	104	0	60	44045
2026-01-12 21:29:15.57	132.78	2.49	-48.7	-51.2	6.1	0.00e+00	0	32	104	0	60	44272
2026-01-12 21:29:16.58	132.91	2.43	-48.7	-51.1	6.1	0.00e+00	0	32	104	0	60	44164
2026-01-12 21:29:17.59	133.04	2.38	-48.7	-51.1	6.1	0.00e+00	0	32	104	0	60	44063
2026-01-12 21:29:18.60	133.17	2.32	-48.6	-51.1	6.1	0.00e+00	0	32	104	0	60	43864
2026-01-12 21:29:19.61	133.29	2.27	-48.6	-51.1	6.1	0.00e+00	0	32	104	0	60	44060
2026-01-12 21:29:20.62	133.42	2.22	-48.7	-51.1	6.1	0.00e+00	0	32	104	0	60	44199
2026-01-12 21:29:21.63	133.54	2.16	-48.7	-51.2	6.0	0.00e+00	0	32	104	0	60	44226
2026-01-12 21:29:22.64	133.67	2.11	-48.6	-51.1	6.1	0.00e+00	0	32	104	0	60	44069
2026-01-12 21:29:23.65	133.79	2.06	-48.6	-51.0	6.1	0.00e+00	0	32	104	0	60	43634
2026-01-12 21:29:24.66	133.91	2.00	-48.6	-51.1	6.1	0.00e+00	0	32	104	0	60	43827
2026-01-12 21:29:25.67	134.04	1.95	-48.6	-51.1	6.0	0.00e+00	0	32	104	0	60	43889
2026-01-12 21:29:26.68	134.16	1.89	-48.6	-51.1	6.1	0.00e+00	0	32	104	0	60	43947
2026-01-12 21:29:27.69	134.28	1.84	-48.6	-51.1	6.1	0.00e+00	0	32	104	0	60	43897
2026-01-12 21:29:28.70	134.40	1.79	-48.6	-51.1	6.1	0.00e+00	0	32	104	0	60	43964
2026-01-12 21:29:29.71	134.52	1.73	-48.6	-51.1	6.1	0.00e+00	0	33	104	0	60	44029
2026-01-12 21:29:30.72	134.64	1.68	-48.6	-51.1	6.1	0.00e+00	0	32	104	0	60	44009
2026-01-12 21:29:31.73	134.76	1.63	-48.6	-51.1	6.1	0.00e+00	0	32	104	0	60	43753
2026-01-12 21:29:32.74	134.88	1.57	-48.6	-51.1	6.1	0.00e+00	0	32	104	0	60	43925
2026-01-12 21:29:33.74	134.99	1.52	-48.6	-51.1	6.1	0.00e+00	0	32	104	0	60	43864
2026-01-12 21:29:34.75	135.11	1.47	-48.6	-51.1	6.1	0.00e+00	0	32	104	0	60	43971
2026-01-12 21:29:35.76	135.23	1.42	-48.6	-51.1	6.1	0.00e+00	0	32	104	0	60	43826
2026-01-12 21:29:36.77	135.35	1.36	-48.6	-51.1	6.1	0.00e+00	0	32	104	0	60	44007
2026-01-12 21:29:37.79	135.46	1.31	-48.6	-51.1	6.0	0.00e+00	0	32	104	0	60	43785
2026-01-12 21:29:38.79	135.58	1.26	-48.6	-51.1	6.1	0.00e+00	0	32	104	0	60	43794
2026-01-12 21:29:39.80	135.69	1.20	-48.6	-51.1	6.1	0.00e+00	0	32	104	0	60	43941
2026-01-12 21:29:40.81	135.81	1.15	-48.6	-51.1	6.1	0.00e+00	0	32	104	0	60	43949
2026-01-12 21:29:41.82	135.92	1.10	-48.6	-51.0	6.1	0.00e+00	0	32	104	0	60	43677
2026-01-12 21:29:42.83	136.04	1.05	-48.6	-51.1	6.1	0.00e+00	0	32	104	0	60	43866
2026-01-12 21:29:43.84	136.15	0.99	-48.6	-51.1	6.1	0.00e+00	0	32	104	0	60	43991
2026-01-12 21:29:44.85	136.26	0.94	-48.6	-51.0	6.1	0.00e+00	0	32	104	0	60	43654
2026-01-12 21:29:45.86	136.37	0.89	-48.6	-51.1	6.1	0.00e+00	0	32	104	0	60	44055
2026-01-12 21:29:46.87	136.48	0.84	-48.6	-51.1	6.1	0.00e+00	0	32	104	0	60	43959
2026-01-12 21:29:47.88	136.60	0.78	-48.6	-51.1	6.1	0.00e+00	0	32	104	0	60	44051
2026-01-12 21:29:48.89	136.71	0.73	-48.6	-51.1	6.0	0.00e+00	0	32	104	0	60	44039
2026-01-12 21:29:49.90	136.82	0.68	-48.6	-51.1	6.1	0.00e+00	0	32	104	0	60	43986
2026-01-12 21:29:50.91	136.93	0.63	-48.7	-51.1	6.1	0.00e+00	0	32	104	0	60	44122
2026-01-12 21:29:51.92	137.04	0.57	-48.6	-51.1	6.1	0.00e+00	0	33	104	0	60	44106
2026-01-12 21:29:52.93	137.14	0.52	-48.7	-51.1	6.1	0.00e+00	0	33	104	0	60	44080
2026-01-12 21:29:53.94	137.25	0.47	-48.6	-51.1	6.1	0.00e+00	0	32	104	0	60	43928
2026-01-12 21:29:54.95	137.36	0.42	-48.6	-51.1	6.1	0.00e+00	0	33	104	0	60	43711
2026-01-12 21:29:55.96	137.47	0.37	-48.6	-51.1	6.1	0.00e+00	0	32	104	0	60	43852
2026-01-12 21:29:56.97	137.57	0.31	-48.6	-51.1	6.1	0.00e+00	0	32	104	0	60	43767
2026-01-12 21:29:57.98	137.68	0.26	-48.6	-51.1	6.1	0.00e+00	0	32	104	0	60	43808
2026-01-12 21:29:58.98	137.79	0.21	-48.6	-51.1	6.1	0.00e+00	0	33	104	0	60	44089
2026-01-12 21:29:59.99	137.89	0.16	-48.7	-51.1	6.1	0.00e+00	0	32	104	0	60	44113
2026-01-12 21:30:01.00	138.00	0.11	-48.6	-51.1	6.1	0.00e+00	0	32	104	0	60	44058
2026-01-12 21:30:02.01	138.10	0.05	-48.7	-51.1	6.1	0.00e+00	0	33	104	0	60	44168
2026-01-12 21:30:03.02	138.21	0.00	-48.6	-51.1	6.1	0.00e+00	0	33	104	0	60	44094

#Closed at: 2026-01-12 21:30:03
#Recorded file [0 MB]: D:/lorett/data/35029_260113_092055.dat