passes_logs/2026/01/12/R4.6S_Anadyr/R4.6S_Anadyr__20260112_124049_NOAA_20_JPSS-1_rec.log

#Pass ID: 20260112_124049_NOAA 20 (JPSS-1)
#Satellite: NOAA 20 (JPSS-1)
#Configuration: NOAA 20
#almurnet v.1.7.20251203
#Start time: 2026-01-12 12:40:50

#Version: 2.2.20231116
#Station: R4.6S_Anadyr
#Location: 177.4865 lon 64.73178 lat
#TLE: 1 43013U 17073A   26011.59429536  .00000082  00000+0  59704-4 0  9990
#TLE: 2 43013  98.7632 312.5697 0001637  44.2118 315.9188 14.19535307422256

#Time	Az	El	Level	Level2	SNR	BER	BlckErr	Temp	State	Recorded	gain1	gain2
2026-01-12 12:40:50.66	18.86	0.07	-48.4	-63.3	3.5	1.51e+00	0	24	0	0	60	52651
2026-01-12 12:40:51.67	18.93	0.12	-48.7	-64.0	3.6	1.51e+00	0	25	104	0	60	57322
2026-01-12 12:40:52.68	19.00	0.17	-48.8	-64.0	3.6	1.51e+00	0	25	104	0	60	57184
2026-01-12 12:40:53.69	19.06	0.23	-48.9	-64.2	3.6	1.51e+00	0	26	104	0	60	58576
2026-01-12 12:40:54.70	19.13	0.28	-48.7	-63.9	3.6	1.51e+00	0	25	104	0	60	56847
2026-01-12 12:40:55.70	19.19	0.33	-48.6	-63.9	3.6	1.51e+00	0	26	104	0	60	56366
2026-01-12 12:40:56.71	19.26	0.38	-48.7	-63.8	3.6	1.51e+00	0	26	104	0	60	56239
2026-01-12 12:40:57.72	19.33	0.43	-48.9	-64.0	3.5	1.51e+00	0	26	104	0	60	57546
2026-01-12 12:40:58.73	19.39	0.49	-48.8	-64.0	3.6	1.51e+00	0	26	104	0	60	57035
2026-01-12 12:40:59.74	19.46	0.54	-48.7	-64.0	3.6	1.51e+00	0	26	104	0	60	57169
2026-01-12 12:41:00.75	19.53	0.59	-48.5	-63.6	3.6	1.51e+00	0	26	104	0	60	54764
2026-01-12 12:41:01.76	19.60	0.64	-48.3	-63.5	3.6	1.51e+00	0	26	104	0	60	53980
2026-01-12 12:41:02.77	19.66	0.70	-48.2	-63.4	3.6	1.51e+00	0	26	104	0	60	53384
2026-01-12 12:41:03.78	19.73	0.75	-48.0	-63.2	3.6	1.51e+00	0	26	104	0	60	52162
2026-01-12 12:41:04.79	19.80	0.80	-48.0	-63.2	3.6	1.51e+00	0	26	104	0	60	52029
2026-01-12 12:41:05.80	19.87	0.85	-47.6	-62.7	3.6	1.51e+00	0	26	104	0	60	49052
2026-01-12 12:41:06.81	19.94	0.91	-47.2	-62.2	3.6	1.51e+00	0	26	104	0	60	46702
2026-01-12 12:41:07.82	20.01	0.96	-47.1	-62.3	3.6	1.51e+00	0	26	104	0	60	47070
2026-01-12 12:41:08.83	20.08	1.01	-46.9	-62.0	3.6	1.51e+00	0	26	104	0	60	45464
2026-01-12 12:41:09.84	20.15	1.07	-46.9	-61.9	3.6	1.51e+00	0	26	104	0	60	45170
2026-01-12 12:41:10.85	20.22	1.12	-47.0	-62.1	3.6	1.51e+00	0	26	104	0	60	45937
2026-01-12 12:41:11.86	20.29	1.17	-47.0	-62.1	3.6	1.51e+00	0	26	104	0	60	46248
2026-01-12 12:41:12.87	20.36	1.23	-47.1	-62.2	3.6	1.51e+00	0	26	104	0	60	46509
2026-01-12 12:41:13.88	20.43	1.28	-46.9	-62.0	3.6	1.51e+00	0	26	104	0	60	45738
2026-01-12 12:41:14.89	20.50	1.33	-46.8	-61.9	3.6	1.51e+00	0	26	104	0	60	45154
2026-01-12 12:41:15.90	20.57	1.39	-46.9	-62.1	3.6	1.51e+00	0	26	104	0	60	45894
2026-01-12 12:41:16.91	20.64	1.44	-46.9	-62.1	3.6	1.51e+00	0	26	104	0	60	46030
2026-01-12 12:41:17.92	20.71	1.49	-47.0	-62.2	3.6	1.51e+00	0	26	104	0	60	46491
2026-01-12 12:41:18.93	20.78	1.55	-47.2	-62.4	3.6	1.51e+00	0	26	104	0	60	47494
2026-01-12 12:41:19.94	20.86	1.60	-46.9	-62.0	3.6	1.51e+00	0	26	104	0	60	45545
2026-01-12 12:41:20.95	20.93	1.65	-46.8	-62.0	3.6	1.51e+00	0	26	104	0	60	45441
2026-01-12 12:41:21.96	21.00	1.71	-46.9	-61.9	3.6	1.51e+00	0	26	104	0	60	45129
2026-01-12 12:41:22.97	21.07	1.76	-47.0	-62.1	3.6	1.51e+00	0	26	104	0	60	45778
2026-01-12 12:41:23.98	21.15	1.82	-46.9	-61.9	3.6	1.51e+00	0	26	104	0	60	44968
2026-01-12 12:41:24.99	21.22	1.87	-46.9	-62.0	3.5	1.51e+00	0	26	104	0	60	45332
2026-01-12 12:41:26.00	21.29	1.93	-46.8	-62.0	3.6	1.51e+00	0	26	104	0	60	45257
2026-01-12 12:41:27.01	21.37	1.98	-46.9	-61.9	3.6	1.51e+00	0	26	104	0	60	45192
2026-01-12 12:41:28.02	21.44	2.03	-46.9	-62.0	3.6	1.51e+00	0	26	104	0	60	45589
2026-01-12 12:41:29.02	21.51	2.09	-47.0	-62.0	3.6	1.51e+00	0	26	104	0	60	45685
2026-01-12 12:41:30.03	21.59	2.14	-46.9	-62.0	3.6	1.51e+00	0	26	104	0	60	45564
2026-01-12 12:41:31.04	21.66	2.20	-46.8	-61.8	3.6	1.51e+00	0	26	104	0	60	44509
2026-01-12 12:41:32.05	21.74	2.25	-46.9	-61.5	3.6	1.51e+00	0	26	104	0	60	42827
2026-01-12 12:41:33.06	21.81	2.31	-47.0	-60.8	3.6	1.51e+00	0	26	104	0	60	39748
2026-01-12 12:41:34.07	21.89	2.36	-46.8	-60.6	3.6	1.51e+00	0	26	104	0	60	38608
2026-01-12 12:41:35.08	21.96	2.42	-46.8	-60.8	3.6	1.51e+00	0	26	104	0	60	39676
2026-01-12 12:41:36.09	22.04	2.47	-46.9	-59.8	3.6	1.51e+00	0	26	104	0	60	35390
2026-01-12 12:41:37.10	22.12	2.52	-46.7	-56.7	4.4	1.48e+00	0	27	0	0	60	24712
2026-01-12 12:41:38.11	22.19	2.58	-46.3	-52.7	7.8	1.71e-01	0	27	0	2097152	60	15562
2026-01-12 12:41:39.11	22.27	2.63	-44.8	-48.8	12.0	1.18e-02	0	27	0	3145728	60	9981
2026-01-12 12:41:40.12	22.35	2.69	-43.9	-47.1	14.2	7.85e-05	0	26	0	5242880	60	8216
2026-01-12 12:41:41.13	22.42	2.74	-42.2	-44.4	16.8	0.00e+00	0	26	0	7340032	58	6727
2026-01-12 12:41:42.14	22.50	2.80	-41.7	-43.6	17.6	0.00e+00	0	26	0	9437184	58	6151
2026-01-12 12:41:43.15	22.58	2.86	-41.1	-42.8	18.4	0.00e+00	0	26	0	11534336	56	6314
2026-01-12 12:41:44.16	22.66	2.91	-41.6	-43.6	17.6	0.00e+00	0	26	0	12582912	56	6881
2026-01-12 12:41:45.17	22.74	2.97	-41.8	-43.7	17.4	0.00e+00	0	26	0	14680064	56	7000
2026-01-12 12:41:46.18	22.81	3.02	-42.3	-44.4	16.4	0.00e+00	0	27	0	16777216	56	7590
2026-01-12 12:41:47.19	22.89	3.08	-43.6	-46.6	14.0	0.00e+00	0	26	0	18874368	58	8667
2026-01-12 12:41:48.20	22.97	3.13	-44.7	-48.8	12.8	5.11e-05	0	27	0	20971520	60	9940
2026-01-12 12:41:49.21	23.05	3.19	-42.5	-44.8	16.1	0.00e+00	0	27	0	22020096	58	7039
2026-01-12 12:41:50.22	23.13	3.24	-46.8	-61.0	3.6	7.02e-01	0	27	104	23068672	60	40569
2026-01-12 12:41:51.23	23.21	3.30	-45.5	-50.5	10.8	7.33e-01	0	27	104	23068672	60	12172
2026-01-12 12:41:52.24	23.29	3.36	-42.9	-45.3	16.2	0.00e+00	0	27	0	24117248	60	6647
2026-01-12 12:41:53.26	23.37	3.41	-47.0	-61.6	3.6	5.80e-01	0	27	104	24117248	60	43305
2026-01-12 12:41:54.26	23.45	3.47	-43.2	-45.9	15.1	8.28e-01	0	26	104	24117248	60	7122
2026-01-12 12:41:55.27	23.54	3.52	-42.9	-45.4	16.6	0.00e+00	0	27	0	24117248	58	7511
2026-01-12 12:41:56.28	23.62	3.58	-42.5	-44.6	16.7	0.00e+00	0	27	0	26214400	58	6922
2026-01-12 12:41:57.29	23.70	3.64	-43.0	-45.4	15.3	0.00e+00	0	27	0	28311552	58	7594
2026-01-12 12:41:58.30	23.78	3.69	-43.3	-45.9	16.1	0.00e+00	0	27	0	30408704	58	7964
2026-01-12 12:41:59.31	23.86	3.75	-43.0	-45.5	15.2	0.00e+00	0	27	0	32505856	58	7665
2026-01-12 12:42:00.32	23.95	3.81	-43.3	-45.9	15.9	0.00e+00	0	27	0	33554432	58	7996
2026-01-12 12:42:01.34	24.03	3.86	-43.1	-45.5	15.5	0.00e+00	0	27	0	35651584	58	7683
2026-01-12 12:42:02.35	24.11	3.92	-43.1	-45.6	15.8	0.00e+00	0	27	0	37748736	58	7743
2026-01-12 12:42:03.36	24.20	3.98	-43.2	-45.8	15.7	0.00e+00	0	27	0	39845888	58	7904
2026-01-12 12:42:04.37	24.28	4.03	-43.5	-46.3	14.8	0.00e+00	0	27	0	41943040	58	8337
2026-01-12 12:42:05.37	24.36	4.09	-42.7	-45.0	16.2	0.00e+00	0	27	0	44040192	58	7249
2026-01-12 12:42:06.39	24.45	4.15	-42.5	-44.6	16.8	0.00e+00	0	27	0	45088768	58	6898
2026-01-12 12:42:07.40	24.54	4.20	-42.5	-44.7	16.7	0.00e+00	0	27	0	47185920	58	6928
2026-01-12 12:42:08.41	24.62	4.26	-42.3	-44.4	17.1	0.00e+00	0	27	0	49283072	58	6702
2026-01-12 12:42:09.42	24.71	4.32	-42.0	-44.0	17.3	0.00e+00	0	27	0	51380224	58	6451
2026-01-12 12:42:10.43	24.79	4.38	-41.9	-43.9	17.6	0.00e+00	0	27	0	53477376	58	6333
2026-01-12 12:42:11.44	24.88	4.43	-41.4	-43.1	18.6	0.00e+00	0	27	0	54525952	56	6465
2026-01-12 12:42:12.45	24.96	4.49	-41.3	-42.9	18.8	0.00e+00	0	27	0	56623104	56	6365
2026-01-12 12:42:13.46	25.05	4.55	-41.3	-42.9	18.7	0.00e+00	0	27	0	58720256	56	6372
2026-01-12 12:42:14.47	25.14	4.61	-41.1	-42.7	18.8	0.00e+00	0	27	0	60817408	56	6235
2026-01-12 12:42:15.47	25.22	4.66	-40.7	-42.3	19.1	0.00e+00	0	27	0	62914560	54	6628
2026-01-12 12:42:16.48	25.31	4.72	-41.1	-42.7	18.9	0.00e+00	0	27	0	63963136	54	6930
2026-01-12 12:42:17.49	25.40	4.78	-41.0	-42.6	19.0	0.00e+00	0	27	0	66060288	54	6870
2026-01-12 12:42:18.50	25.49	4.84	-41.2	-42.8	18.7	0.00e+00	0	27	0	68157440	54	7076
2026-01-12 12:42:19.51	25.58	4.89	-41.2	-42.9	18.7	0.00e+00	0	27	0	70254592	54	7106
2026-01-12 12:42:20.52	25.67	4.95	-41.6	-43.3	18.4	0.00e+00	0	27	0	72351744	56	6620
2026-01-12 12:42:21.53	25.76	5.01	-41.8	-43.5	18.4	0.00e+00	0	27	0	73400320	56	6805
2026-01-12 12:42:22.54	25.85	5.07	-41.9	-43.6	18.1	0.00e+00	0	27	0	75497472	56	6918
2026-01-12 12:42:23.55	25.94	5.13	-40.9	-42.5	19.0	0.00e+00	0	27	0	77594624	56	6041
2026-01-12 12:42:24.56	26.03	5.18	-41.2	-42.8	18.8	0.00e+00	0	27	0	79691776	56	6259
2026-01-12 12:42:25.57	26.12	5.24	-41.1	-42.7	19.0	0.00e+00	0	27	0	81788928	56	6187
2026-01-12 12:42:26.58	26.21	5.30	-41.0	-42.5	19.2	0.00e+00	0	27	0	82837504	56	6061
2026-01-12 12:42:27.59	26.30	5.36	-41.0	-42.5	19.1	0.00e+00	0	27	0	84934656	56	6073
2026-01-12 12:42:28.60	26.39	5.42	-41.3	-42.9	18.8	0.00e+00	0	27	0	87031808	56	6354
2026-01-12 12:42:29.61	26.48	5.48	-41.5	-43.2	18.6	0.00e+00	0	27	0	89128960	56	6587
2026-01-12 12:42:30.62	26.58	5.54	-41.2	-42.8	18.8	0.00e+00	0	27	0	91226112	56	6256
2026-01-12 12:42:31.63	26.67	5.59	-40.8	-42.3	19.5	0.00e+00	0	27	0	92274688	56	5935
2026-01-12 12:42:32.64	26.76	5.65	-40.7	-42.1	19.6	0.00e+00	0	27	0	94371840	54	6523
2026-01-12 12:42:33.65	26.86	5.71	-40.6	-42.1	19.3	0.00e+00	0	27	0	96468992	54	6490
2026-01-12 12:42:34.66	26.95	5.77	-40.8	-42.3	19.3	0.00e+00	0	27	0	98566144	54	6627
2026-01-12 12:42:35.66	27.04	5.83	-40.6	-42.1	19.7	0.00e+00	0	27	0	100663296	54	6471
2026-01-12 12:42:36.67	27.14	5.89	-40.4	-41.8	19.9	0.00e+00	0	27	0	101711872	54	6279
2026-01-12 12:42:37.68	27.23	5.95	-40.4	-41.8	19.8	0.00e+00	0	27	0	103809024	54	6313
2026-01-12 12:42:38.69	27.33	6.01	-40.3	-41.7	19.9	0.00e+00	0	27	0	105906176	54	6233
2026-01-12 12:42:39.70	27.42	6.07	-40.6	-42.0	19.7	0.00e+00	0	27	0	108003328	54	6407
2026-01-12 12:42:40.71	27.52	6.13	-40.6	-42.0	19.7	0.00e+00	0	27	0	110100480	54	6451
2026-01-12 12:42:41.72	27.62	6.19	-40.6	-42.0	19.7	0.00e+00	0	27	0	111149056	54	6429
2026-01-12 12:42:42.73	27.71	6.25	-40.3	-41.6	20.0	0.00e+00	0	27	0	113246208	54	6163
2026-01-12 12:42:43.74	27.81	6.30	-40.2	-41.5	20.1	0.00e+00	0	27	0	115343360	54	6068
2026-01-12 12:42:44.75	27.91	6.36	-40.2	-41.6	20.2	0.00e+00	0	27	0	117440512	54	6115
2026-01-12 12:42:45.76	28.01	6.42	-40.3	-41.7	20.1	0.00e+00	0	27	0	119537664	54	6191
2026-01-12 12:42:46.77	28.10	6.48	-40.3	-41.7	20.0	0.00e+00	0	27	0	120586240	54	6184
2026-01-12 12:42:47.78	28.20	6.54	-40.3	-41.6	20.1	0.00e+00	0	27	0	122683392	54	6166
2026-01-12 12:42:48.79	28.30	6.60	-40.1	-41.4	20.3	0.00e+00	0	27	0	124780544	54	6000
2026-01-12 12:42:49.80	28.40	6.66	-40.2	-41.5	20.3	0.00e+00	0	27	0	126877696	54	6042
2026-01-12 12:42:50.81	28.50	6.72	-40.0	-41.3	20.4	0.00e+00	0	27	0	128974848	54	5947
2026-01-12 12:42:51.82	28.60	6.78	-40.3	-41.6	20.2	0.00e+00	0	27	0	130023424	54	6129
2026-01-12 12:42:52.83	28.70	6.84	-40.1	-41.5	20.2	0.00e+00	0	27	0	132120576	54	6041
2026-01-12 12:42:53.84	28.80	6.90	-39.9	-41.2	20.5	0.00e+00	0	27	0	134217728	54	5852
2026-01-12 12:42:54.85	28.90	6.97	-40.0	-41.3	20.5	0.00e+00	0	27	0	136314880	54	5917
2026-01-12 12:42:55.86	29.01	7.03	-39.9	-41.2	20.4	0.00e+00	0	27	0	138412032	54	5888
2026-01-12 12:42:56.87	29.11	7.09	-40.0	-41.3	20.3	0.00e+00	0	27	0	140509184	54	5938
2026-01-12 12:42:57.87	29.21	7.15	-40.0	-41.4	20.4	0.00e+00	0	27	0	141557760	54	5967
2026-01-12 12:42:58.88	29.31	7.21	-39.8	-41.1	20.6	0.00e+00	0	27	0	143654912	54	5777
2026-01-12 12:42:59.89	29.42	7.27	-39.8	-41.0	20.8	0.00e+00	0	27	0	145752064	54	5748
2026-01-12 12:43:00.90	29.52	7.33	-39.8	-41.0	20.8	0.00e+00	0	27	0	147849216	52	6435
2026-01-12 12:43:01.91	29.63	7.39	-39.9	-41.2	20.8	0.00e+00	0	27	0	149946368	52	6547
2026-01-12 12:43:02.92	29.73	7.45	-40.0	-41.3	20.5	0.00e+00	0	27	0	150994944	52	6634
2026-01-12 12:43:03.93	29.84	7.51	-39.9	-41.2	20.7	0.00e+00	0	27	0	153092096	52	6577
2026-01-12 12:43:04.94	29.94	7.57	-40.0	-41.2	20.7	0.00e+00	0	27	0	155189248	52	6612
2026-01-12 12:43:05.95	30.05	7.63	-40.0	-41.2	20.5	0.00e+00	0	27	0	157286400	52	6610
2026-01-12 12:43:06.96	30.15	7.69	-39.7	-40.9	20.8	0.00e+00	0	27	0	159383552	52	6372
2026-01-12 12:43:07.97	30.26	7.76	-39.7	-40.9	20.9	0.00e+00	0	27	0	160432128	52	6368
2026-01-12 12:43:08.98	30.37	7.82	-39.5	-40.7	21.1	0.00e+00	0	27	0	162529280	52	6211
2026-01-12 12:43:09.99	30.48	7.88	-39.7	-40.9	21.0	0.00e+00	0	27	0	164626432	52	6358
2026-01-12 12:43:11.00	30.58	7.94	-39.8	-40.9	21.1	0.00e+00	0	27	0	166723584	52	6389
2026-01-12 12:43:12.01	30.69	8.00	-39.4	-40.6	21.0	0.00e+00	0	27	0	168820736	52	6143
2026-01-12 12:43:13.02	30.80	8.06	-39.6	-40.7	21.3	0.00e+00	0	28	0	169869312	52	6229
2026-01-12 12:43:14.03	30.91	8.13	-39.5	-40.7	21.2	0.00e+00	0	28	0	171966464	52	6205
2026-01-12 12:43:15.04	31.02	8.19	-39.3	-40.5	21.3	0.00e+00	0	28	0	174063616	52	6052
2026-01-12 12:43:16.05	31.13	8.25	-39.4	-40.5	21.3	0.00e+00	0	27	0	176160768	52	6099
2026-01-12 12:43:17.06	31.24	8.31	-39.3	-40.5	21.4	0.00e+00	0	28	0	178257920	52	6044
2026-01-12 12:43:18.07	31.35	8.37	-39.3	-40.4	21.4	0.00e+00	0	27	0	179306496	52	5997
2026-01-12 12:43:19.08	31.46	8.43	-39.4	-40.5	21.3	0.00e+00	0	28	0	181403648	52	6086
2026-01-12 12:43:20.09	31.58	8.50	-39.3	-40.5	21.4	0.00e+00	0	28	0	183500800	52	6052
2026-01-12 12:43:21.10	31.69	8.56	-39.3	-40.4	21.3	0.00e+00	0	28	0	185597952	52	6015
2026-01-12 12:43:22.11	31.80	8.62	-39.4	-40.6	21.4	0.00e+00	0	27	0	187695104	52	6114
2026-01-12 12:43:23.12	31.92	8.68	-39.5	-40.6	21.2	0.00e+00	0	28	0	188743680	52	6148
2026-01-12 12:43:24.12	32.03	8.74	-39.3	-40.5	21.4	0.00e+00	0	28	0	190840832	52	6047
2026-01-12 12:43:25.13	32.14	8.81	-39.4	-40.6	21.2	0.00e+00	0	28	0	192937984	52	6156
2026-01-12 12:43:26.14	32.26	8.87	-39.4	-40.6	21.2	0.00e+00	0	28	0	195035136	52	6149
2026-01-12 12:43:27.15	32.37	8.93	-39.2	-40.4	21.4	0.00e+00	0	28	0	197132288	52	5972
2026-01-12 12:43:28.16	32.49	8.99	-39.3	-40.5	21.3	0.00e+00	0	28	0	198180864	52	6063
2026-01-12 12:43:29.17	32.61	9.06	-39.2	-40.4	21.4	0.00e+00	0	28	0	200278016	52	5993
2026-01-12 12:43:30.18	32.72	9.12	-39.4	-40.6	21.2	0.00e+00	0	28	0	202375168	52	6132
2026-01-12 12:43:31.19	32.84	9.18	-39.3	-40.4	21.4	0.00e+00	0	28	0	204472320	52	6000
2026-01-12 12:43:32.20	32.96	9.25	-39.3	-40.4	21.4	0.00e+00	0	28	0	206569472	52	6027
2026-01-12 12:43:33.21	33.08	9.31	-39.3	-40.5	21.4	0.00e+00	0	28	0	208666624	52	6051
2026-01-12 12:43:34.22	33.19	9.37	-39.1	-40.3	21.5	0.00e+00	0	28	0	209715200	52	5925
2026-01-12 12:43:35.23	33.31	9.43	-39.3	-40.4	21.5	0.00e+00	0	28	0	211812352	52	6002
2026-01-12 12:43:36.24	33.43	9.50	-39.4	-40.6	21.3	0.00e+00	0	28	0	213909504	52	6127
2026-01-12 12:43:37.25	33.55	9.56	-39.3	-40.5	21.5	0.00e+00	0	28	0	216006656	52	6052
2026-01-12 12:43:38.25	33.67	9.62	-39.5	-40.7	21.3	0.00e+00	0	28	0	218103808	52	6177
2026-01-12 12:43:39.26	33.79	9.69	-39.6	-40.8	21.3	0.00e+00	0	28	0	219152384	52	6297
2026-01-12 12:43:40.27	33.92	9.75	-39.4	-40.5	21.4	0.00e+00	0	28	0	221249536	52	6080
2026-01-12 12:43:41.28	34.04	9.81	-39.7	-40.9	21.5	0.00e+00	0	28	0	223346688	52	6352
2026-01-12 12:43:42.29	34.16	9.88	-39.4	-40.6	21.3	0.00e+00	0	28	0	225443840	52	6120
2026-01-12 12:43:43.30	34.28	9.94	-39.3	-40.4	21.6	0.00e+00	0	28	0	227540992	52	6015
2026-01-12 12:43:44.31	34.41	10.00	-39.0	-40.0	22.0	0.00e+00	0	28	0	228589568	52	5753
2026-01-12 12:43:45.32	34.53	10.07	-38.8	-39.9	22.0	0.00e+00	0	28	0	230686720	52	5672
2026-01-12 12:43:46.33	34.66	10.13	-38.8	-39.9	22.1	0.00e+00	0	28	0	232783872	52	5642
2026-01-12 12:43:47.34	34.78	10.19	-38.6	-39.7	22.2	0.00e+00	0	28	0	234881024	50	6207
2026-01-12 12:43:48.35	34.91	10.26	-38.6	-39.6	22.3	0.00e+00	0	28	0	236978176	50	6170
2026-01-12 12:43:49.36	35.04	10.32	-38.6	-39.7	22.3	0.00e+00	0	28	0	238026752	50	6188
2026-01-12 12:43:50.37	35.16	10.38	-38.8	-39.8	22.2	0.00e+00	0	28	0	240123904	50	6289
2026-01-12 12:43:51.38	35.29	10.45	-38.6	-39.6	22.2	0.00e+00	0	28	0	242221056	50	6132
2026-01-12 12:43:52.39	35.42	10.51	-38.6	-39.6	22.3	0.00e+00	0	28	0	244318208	50	6165
2026-01-12 12:43:53.41	35.55	10.58	-38.7	-39.7	21.8	0.00e+00	0	28	0	246415360	50	6207
2026-01-12 12:43:54.42	35.68	10.64	-38.5	-39.6	21.5	0.00e+00	0	28	0	247463936	50	6115
2026-01-12 12:43:55.43	35.81	10.70	-38.4	-39.5	22.2	0.00e+00	0	28	0	249561088	50	6035
2026-01-12 12:43:56.44	35.94	10.77	-38.6	-39.6	22.3	0.00e+00	0	28	0	251658240	50	6112
2026-01-12 12:43:57.45	36.07	10.83	-38.5	-39.5	22.4	0.00e+00	0	28	0	253755392	50	6057
2026-01-12 12:43:58.46	36.20	10.90	-38.5	-39.5	22.4	0.00e+00	0	28	0	255852544	50	6082
2026-01-12 12:43:59.47	36.33	10.96	-38.4	-39.4	22.4	0.00e+00	0	28	0	256901120	50	6011
2026-01-12 12:44:00.48	36.46	11.02	-38.6	-39.6	22.4	0.00e+00	0	28	0	258998272	50	6128
2026-01-12 12:44:01.49	36.60	11.09	-38.9	-40.0	22.1	0.00e+00	0	28	0	261095424	50	6414
2026-01-12 12:44:02.50	36.73	11.15	-38.6	-39.7	22.3	0.00e+00	0	28	0	263192576	50	6195
2026-01-12 12:44:03.51	36.86	11.22	-38.7	-39.8	22.2	0.00e+00	0	28	0	265289728	50	6258
2026-01-12 12:44:04.52	37.00	11.28	-38.8	-39.8	22.2	0.00e+00	0	28	0	266338304	50	6316
2026-01-12 12:44:05.53	37.13	11.34	-38.7	-39.7	22.3	0.00e+00	0	28	0	268435456	50	6244
2026-01-12 12:44:06.54	37.27	11.41	-38.8	-39.8	22.2	0.00e+00	0	28	0	270532608	50	6294
2026-01-12 12:44:07.55	37.40	11.47	-38.6	-39.7	22.3	0.00e+00	0	28	0	272629760	50	6200
2026-01-12 12:44:08.56	37.54	11.54	-38.7	-39.8	22.2	0.00e+00	0	28	0	274726912	50	6283
2026-01-12 12:44:09.57	37.68	11.60	-38.7	-39.7	22.3	0.00e+00	0	28	0	276824064	50	6204
2026-01-12 12:44:10.58	37.82	11.67	-38.6	-39.6	22.3	0.00e+00	0	28	0	277872640	50	6147
2026-01-12 12:44:11.59	37.96	11.73	-38.5	-39.6	22.3	0.00e+00	0	28	0	279969792	50	6125
2026-01-12 12:44:12.60	38.10	11.79	-38.6	-39.7	22.0	0.00e+00	0	28	0	282066944	50	6177
2026-01-12 12:44:13.61	38.24	11.86	-38.8	-39.9	22.1	0.00e+00	0	28	0	284164096	50	6320
2026-01-12 12:44:14.62	38.38	11.92	-38.6	-39.7	21.9	0.00e+00	0	28	0	286261248	50	6203
2026-01-12 12:44:15.63	38.52	11.99	-38.5	-39.5	22.2	0.00e+00	0	28	0	287309824	50	6064
2026-01-12 12:44:16.64	38.66	12.05	-38.4	-39.4	22.4	0.00e+00	0	28	0	289406976	50	6017
2026-01-12 12:44:17.65	38.80	12.12	-38.7	-39.8	22.1	0.00e+00	0	28	0	291504128	50	6271
2026-01-12 12:44:18.66	38.94	12.18	-38.7	-39.7	22.2	0.00e+00	0	28	0	293601280	50	6232
2026-01-12 12:44:19.67	39.09	12.25	-38.7	-39.8	22.1	0.00e+00	0	28	0	295698432	50	6248
2026-01-12 12:44:20.68	39.23	12.31	-38.5	-39.6	22.2	0.00e+00	0	28	0	296747008	50	6131
2026-01-12 12:44:21.69	39.38	12.38	-38.7	-39.7	22.1	0.00e+00	0	28	0	298844160	50	6244
2026-01-12 12:44:22.70	39.52	12.44	-38.4	-39.5	22.4	0.00e+00	0	28	0	300941312	50	6036
2026-01-12 12:44:23.71	39.67	12.50	-38.3	-39.4	22.5	0.00e+00	0	28	0	303038464	50	5968
2026-01-12 12:44:24.72	39.81	12.57	-38.4	-39.4	22.4	0.00e+00	0	28	0	305135616	50	6012
2026-01-12 12:44:25.73	39.96	12.63	-38.3	-39.3	22.6	0.00e+00	0	28	0	306184192	50	5907
2026-01-12 12:44:26.74	40.11	12.70	-38.2	-39.1	22.7	0.00e+00	0	28	0	308281344	50	5825
2026-01-12 12:44:27.75	40.26	12.76	-38.0	-39.0	22.7	0.00e+00	0	28	0	310378496	50	5724
2026-01-12 12:44:28.76	40.41	12.83	-38.1	-39.1	22.7	0.00e+00	0	28	0	312475648	50	5764
2026-01-12 12:44:29.77	40.56	12.89	-38.0	-39.0	22.9	0.00e+00	0	28	0	314572800	50	5711
2026-01-12 12:44:30.78	40.71	12.96	-37.9	-38.9	23.0	0.00e+00	0	28	0	316669952	50	5651
2026-01-12 12:44:31.79	40.86	13.02	-37.9	-38.8	23.0	0.00e+00	0	28	0	317718528	50	5616
2026-01-12 12:44:32.80	41.01	13.09	-37.9	-38.9	22.9	0.00e+00	0	28	0	319815680	50	5640
2026-01-12 12:44:33.81	41.16	13.15	-38.0	-39.0	22.9	0.00e+00	0	28	0	321912832	50	5712
2026-01-12 12:44:34.82	41.31	13.22	-38.1	-39.0	22.8	0.00e+00	0	28	0	324009984	50	5753
2026-01-12 12:44:35.83	41.47	13.28	-38.2	-39.2	22.7	0.00e+00	0	28	0	326107136	50	5865
2026-01-12 12:44:36.84	41.62	13.34	-38.3	-39.3	22.6	0.00e+00	0	28	0	327155712	50	5926
2026-01-12 12:44:37.85	41.78	13.41	-38.4	-39.4	22.5	0.00e+00	0	28	0	329252864	50	6004
2026-01-12 12:44:38.86	41.93	13.47	-38.0	-39.0	22.9	0.00e+00	0	28	0	331350016	50	5727
2026-01-12 12:44:39.87	42.09	13.54	-38.1	-39.0	22.8	0.00e+00	0	28	0	333447168	50	5760
2026-01-12 12:44:40.88	42.24	13.60	-38.2	-39.2	22.8	0.00e+00	0	28	0	335544320	50	5830
2026-01-12 12:44:41.89	42.40	13.67	-38.3	-39.3	22.6	0.00e+00	0	28	0	336592896	50	5905
2026-01-12 12:44:42.90	42.56	13.73	-38.1	-39.1	22.7	0.00e+00	0	28	0	338690048	50	5808
2026-01-12 12:44:43.91	42.72	13.80	-38.2	-39.2	22.6	0.00e+00	0	28	0	340787200	50	5875
2026-01-12 12:44:44.92	42.88	13.86	-38.3	-39.4	22.5	0.00e+00	0	28	0	342884352	50	5966
2026-01-12 12:44:45.93	43.04	13.92	-38.3	-39.3	22.6	0.00e+00	0	28	0	344981504	50	5936
2026-01-12 12:44:46.94	43.20	13.99	-38.3	-39.3	22.6	0.00e+00	0	28	0	346030080	50	5943
2026-01-12 12:44:47.95	43.36	14.05	-38.2	-39.2	22.7	0.00e+00	0	28	0	348127232	50	5882
2026-01-12 12:44:48.96	43.52	14.12	-38.2	-39.2	22.6	0.00e+00	0	28	0	350224384	50	5858
2026-01-12 12:44:49.97	43.68	14.18	-38.1	-39.1	22.7	0.00e+00	0	28	0	352321536	50	5766
2026-01-12 12:44:50.98	43.85	14.25	-38.2	-39.2	22.7	0.00e+00	0	28	0	354418688	50	5849
2026-01-12 12:44:51.99	44.01	14.31	-38.1	-39.1	22.8	0.00e+00	0	28	0	355467264	50	5801
2026-01-12 12:44:53.00	44.18	14.37	-38.3	-39.2	22.6	0.00e+00	0	28	0	357564416	50	5885
2026-01-12 12:44:54.00	44.34	14.44	-38.4	-39.4	22.5	0.00e+00	0	28	0	359661568	50	5977
2026-01-12 12:44:55.01	44.51	14.50	-38.2	-39.1	22.7	0.00e+00	0	28	0	361758720	50	5828
2026-01-12 12:44:56.02	44.67	14.57	-38.1	-39.1	22.8	0.00e+00	0	28	0	363855872	50	5795
2026-01-12 12:44:57.03	44.84	14.63	-38.1	-39.1	22.8	0.00e+00	0	28	0	364904448	50	5813
2026-01-12 12:44:58.04	45.01	14.69	-37.9	-38.9	23.0	0.00e+00	0	28	0	367001600	50	5635
2026-01-12 12:44:59.05	45.18	14.76	-38.0	-38.9	23.0	0.00e+00	0	28	0	369098752	50	5690
2026-01-12 12:45:00.06	45.35	14.82	-38.0	-38.9	23.0	0.00e+00	0	28	0	371195904	50	5676
2026-01-12 12:45:01.07	45.52	14.88	-37.9	-38.8	23.0	0.00e+00	0	28	0	373293056	50	5614
2026-01-12 12:45:02.08	45.69	14.95	-37.5	-38.5	23.4	0.00e+00	0	28	0	374341632	48	6041
2026-01-12 12:45:03.09	45.86	15.01	-37.5	-38.4	23.3	0.00e+00	0	29	0	376438784	48	5996
2026-01-12 12:45:04.10	46.04	15.07	-37.4	-38.3	23.5	0.00e+00	0	29	0	378535936	48	5942
2026-01-12 12:45:05.10	46.21	15.14	-37.3	-38.2	23.6	0.00e+00	0	29	0	380633088	48	5875
2026-01-12 12:45:06.11	46.38	15.20	-37.1	-38.0	23.7	0.00e+00	0	29	0	382730240	48	5722
2026-01-12 12:45:07.12	46.56	15.26	-37.1	-38.0	23.7	0.00e+00	0	29	0	384827392	48	5728
2026-01-12 12:45:08.13	46.73	15.33	-37.0	-37.9	23.9	0.00e+00	0	29	0	385875968	48	5645
2026-01-12 12:45:09.14	46.91	15.39	-36.9	-37.8	23.9	0.00e+00	0	28	0	387973120	48	5572
2026-01-12 12:45:10.15	47.08	15.45	-36.9	-37.8	23.9	0.00e+00	0	29	0	390070272	48	5590
2026-01-12 12:45:11.16	47.26	15.52	-36.8	-37.7	24.0	0.00e+00	0	29	0	392167424	48	5533
2026-01-12 12:45:12.17	47.44	15.58	-36.9	-37.7	23.9	0.00e+00	0	29	0	393216000	48	5544
2026-01-12 12:45:13.18	47.62	15.64	-36.8	-37.7	24.1	0.00e+00	0	28	0	395313152	46	6183
2026-01-12 12:45:14.19	47.80	15.70	-36.8	-37.7	24.0	0.00e+00	0	29	0	397410304	46	6189
2026-01-12 12:45:15.20	47.98	15.77	-36.8	-37.7	24.0	0.00e+00	0	29	0	399507456	46	6216
2026-01-12 12:45:16.20	48.16	15.83	-36.7	-37.6	24.1	0.00e+00	0	29	0	401604608	46	6116
2026-01-12 12:45:17.22	48.34	15.89	-36.7	-37.6	24.1	0.00e+00	0	29	0	402653184	46	6124
2026-01-12 12:45:18.23	48.53	15.95	-36.8	-37.6	24.0	0.00e+00	0	29	0	404750336	46	6156
2026-01-12 12:45:19.24	48.71	16.01	-36.7	-37.5	24.1	0.00e+00	0	28	0	406847488	46	6102
2026-01-12 12:45:20.25	48.89	16.08	-36.7	-37.6	23.9	0.00e+00	0	28	0	408944640	46	6104
2026-01-12 12:45:21.26	49.08	16.14	-36.8	-37.7	24.0	0.00e+00	0	29	0	411041792	46	6195
2026-01-12 12:45:22.27	49.26	16.20	-36.8	-37.7	24.0	0.00e+00	0	29	0	413138944	46	6195
2026-01-12 12:45:23.28	49.45	16.26	-36.7	-37.6	24.1	0.00e+00	0	29	0	414187520	46	6109
2026-01-12 12:45:24.29	49.64	16.32	-36.8	-37.6	24.1	0.00e+00	0	29	0	416284672	46	6149
2026-01-12 12:45:25.30	49.83	16.38	-36.9	-37.7	24.0	0.00e+00	0	29	0	418381824	46	6240
2026-01-12 12:45:26.31	50.01	16.45	-37.0	-37.9	23.9	0.00e+00	0	29	0	420478976	46	6366
2026-01-12 12:45:27.31	50.20	16.51	-36.7	-37.6	24.1	0.00e+00	0	29	0	422576128	46	6133
2026-01-12 12:45:28.33	50.39	16.57	-36.7	-37.6	24.1	0.00e+00	0	29	0	423624704	46	6147
2026-01-12 12:45:29.34	50.58	16.63	-36.8	-37.7	24.0	0.00e+00	0	29	0	425721856	46	6207
2026-01-12 12:45:30.35	50.78	16.69	-37.0	-37.9	24.0	0.00e+00	0	29	0	427819008	46	6325
2026-01-12 12:45:31.35	50.97	16.75	-36.9	-37.8	24.0	0.00e+00	0	29	0	429916160	46	6260
2026-01-12 12:45:32.36	51.16	16.81	-37.0	-37.9	23.8	0.00e+00	0	29	0	432013312	46	6358
2026-01-12 12:45:33.37	51.35	16.87	-37.1	-37.9	23.8	0.00e+00	0	29	0	433061888	46	6388
2026-01-12 12:45:34.38	51.55	16.93	-37.4	-38.2	23.7	0.00e+00	0	29	0	435159040	46	6615
2026-01-12 12:45:35.39	51.74	16.99	-37.2	-38.1	23.7	0.00e+00	0	29	0	437256192	46	6534
2026-01-12 12:45:36.40	51.94	17.05	-37.3	-38.2	23.5	0.00e+00	0	29	0	439353344	46	6579
2026-01-12 12:45:37.41	52.14	17.11	-37.4	-38.3	23.6	0.00e+00	0	29	0	441450496	46	6667
2026-01-12 12:45:38.42	52.34	17.17	-37.5	-38.4	23.4	0.00e+00	0	29	0	442499072	46	6753
2026-01-12 12:45:39.43	52.53	17.23	-37.5	-38.4	23.5	0.00e+00	0	29	0	444596224	46	6738
2026-01-12 12:45:40.44	52.73	17.28	-37.5	-38.5	23.4	0.00e+00	0	29	0	446693376	46	6781
2026-01-12 12:45:41.45	52.93	17.34	-37.4	-38.3	23.5	0.00e+00	0	29	0	448790528	46	6633
2026-01-12 12:45:42.46	53.13	17.40	-37.3	-38.2	23.6	0.00e+00	0	29	0	450887680	46	6615
2026-01-12 12:45:43.46	53.33	17.46	-37.5	-38.4	23.5	0.00e+00	0	29	0	451936256	46	6730
2026-01-12 12:45:44.47	53.54	17.52	-37.5	-38.5	23.5	0.00e+00	0	29	0	454033408	46	6784
2026-01-12 12:45:45.48	53.74	17.58	-37.6	-38.5	23.4	0.00e+00	0	29	0	456130560	46	6843
2026-01-12 12:45:46.49	53.94	17.63	-37.6	-38.5	23.3	0.00e+00	0	29	0	458227712	48	6088
2026-01-12 12:45:47.50	54.15	17.69	-37.8	-38.7	23.2	0.00e+00	0	29	0	460324864	48	6209
2026-01-12 12:45:48.51	54.35	17.75	-37.8	-38.7	23.1	0.00e+00	0	29	0	461373440	48	6227
2026-01-12 12:45:49.53	54.56	17.81	-37.8	-38.8	23.1	0.00e+00	0	29	0	463470592	48	6269
2026-01-12 12:45:50.53	54.77	17.86	-37.9	-38.9	23.0	0.00e+00	0	29	0	465567744	48	6343
2026-01-12 12:45:51.54	54.97	17.92	-37.9	-38.9	22.9	0.00e+00	0	29	0	467664896	48	6368
2026-01-12 12:45:52.55	55.18	17.97	-37.9	-38.8	23.0	0.00e+00	0	29	0	469762048	48	6292
2026-01-12 12:45:53.56	55.39	18.03	-38.0	-39.0	23.0	0.00e+00	0	29	0	470810624	48	6395
2026-01-12 12:45:54.57	55.60	18.09	-38.0	-39.0	23.0	0.00e+00	0	29	0	472907776	48	6405
2026-01-12 12:45:55.58	55.81	18.14	-38.2	-39.2	22.6	0.00e+00	0	29	0	475004928	48	6599
2026-01-12 12:45:56.59	56.02	18.20	-38.3	-39.3	22.7	0.00e+00	0	29	0	477102080	48	6647
2026-01-12 12:45:57.60	56.23	18.25	-38.5	-39.5	22.4	0.00e+00	0	29	0	479199232	48	6795
2026-01-12 12:45:58.61	56.45	18.31	-38.4	-39.4	22.5	0.00e+00	0	29	0	481296384	48	6751
2026-01-12 12:45:59.62	56.66	18.36	-38.6	-39.6	22.4	0.00e+00	0	29	0	482344960	48	6896
2026-01-12 12:46:00.63	56.88	18.42	-38.6	-39.7	22.4	0.00e+00	0	29	0	484442112	48	6943
2026-01-12 12:46:01.64	57.09	18.47	-38.8	-39.9	22.1	0.00e+00	0	29	0	486539264	50	6351
2026-01-12 12:46:02.65	57.31	18.53	-39.0	-40.0	22.0	0.00e+00	0	29	0	488636416	50	6455
2026-01-12 12:46:03.66	57.52	18.58	-39.0	-40.1	21.9	0.00e+00	0	29	0	490733568	50	6506
2026-01-12 12:46:04.67	57.74	18.63	-39.0	-40.1	21.9	0.00e+00	0	29	0	491782144	50	6495
2026-01-12 12:46:05.68	57.96	18.68	-38.9	-40.0	22.0	0.00e+00	0	29	0	493879296	50	6398
2026-01-12 12:46:06.69	58.18	18.74	-39.0	-40.1	22.0	0.00e+00	0	29	0	495976448	50	6479
2026-01-12 12:46:07.70	58.40	18.79	-39.1	-40.2	21.8	0.00e+00	0	29	0	498073600	50	6559
2026-01-12 12:46:08.71	58.62	18.84	-39.2	-40.3	21.7	0.00e+00	0	29	0	500170752	50	6634
2026-01-12 12:46:09.72	58.84	18.89	-39.2	-40.3	21.7	0.00e+00	0	29	0	501219328	50	6671
2026-01-12 12:46:10.73	59.06	18.95	-39.2	-40.3	21.6	0.00e+00	0	29	0	503316480	50	6631
2026-01-12 12:46:11.74	59.28	19.00	-39.2	-40.3	21.7	0.00e+00	0	29	0	505413632	50	6630
2026-01-12 12:46:12.75	59.51	19.05	-39.3	-40.4	21.6	0.00e+00	0	29	0	507510784	50	6764
2026-01-12 12:46:13.75	59.73	19.10	-38.8	-39.9	22.1	0.00e+00	0	29	0	509607936	50	6375
2026-01-12 12:46:14.76	59.95	19.15	-38.8	-39.9	22.1	0.00e+00	0	29	0	510656512	50	6365
2026-01-12 12:46:15.77	60.18	19.20	-38.7	-39.8	22.2	0.00e+00	0	29	0	512753664	50	6246
2026-01-12 12:46:16.78	60.41	19.25	-38.8	-39.8	22.2	0.00e+00	0	29	0	514850816	50	6290
2026-01-12 12:46:17.79	60.63	19.30	-38.6	-39.6	22.3	0.00e+00	0	29	0	516947968	50	6159
2026-01-12 12:46:18.80	60.86	19.35	-38.6	-39.6	22.3	0.00e+00	0	29	0	519045120	50	6172
2026-01-12 12:46:19.81	61.09	19.39	-38.6	-39.6	22.4	0.00e+00	0	29	0	520093696	50	6149
2026-01-12 12:46:20.82	61.32	19.44	-38.8	-39.9	22.1	0.00e+00	0	29	0	522190848	50	6328
2026-01-12 12:46:21.83	61.55	19.49	-38.8	-39.9	22.2	0.00e+00	0	29	0	524288000	50	6341
2026-01-12 12:46:22.84	61.78	19.54	-38.7	-39.7	22.3	0.00e+00	0	29	0	526385152	50	6226
2026-01-12 12:46:23.85	62.01	19.58	-38.6	-39.7	22.3	0.00e+00	0	29	0	528482304	50	6208
2026-01-12 12:46:24.86	62.24	19.63	-38.5	-39.5	22.4	0.00e+00	0	29	0	529530880	50	6102
2026-01-12 12:46:25.86	62.47	19.68	-38.4	-39.5	22.4	0.00e+00	0	29	0	531628032	50	6097
2026-01-12 12:46:26.88	62.71	19.72	-38.4	-39.6	22.4	0.00e+00	0	29	0	533725184	50	6132
2026-01-12 12:46:27.88	62.94	19.77	-38.4	-39.6	22.4	0.00e+00	0	29	0	535822336	50	6139
2026-01-12 12:46:28.90	63.18	19.81	-38.3	-39.5	22.5	0.00e+00	0	29	0	537919488	50	6039
2026-01-12 12:46:29.90	63.41	19.86	-38.2	-39.3	22.5	0.00e+00	0	29	0	538968064	50	5944
2026-01-12 12:46:30.91	63.64	19.90	-38.4	-39.4	22.0	0.00e+00	0	29	0	541065216	50	6005
2026-01-12 12:46:31.92	63.88	19.95	-38.3	-39.3	22.7	0.00e+00	0	29	0	543162368	50	5916
2026-01-12 12:46:32.93	64.12	19.99	-38.4	-39.5	22.6	0.00e+00	0	29	0	545259520	50	6039
2026-01-12 12:46:33.94	64.36	20.03	-38.1	-39.1	22.8	0.00e+00	0	29	0	547356672	50	5817
2026-01-12 12:46:34.95	64.60	20.08	-38.2	-39.2	22.8	0.00e+00	0	29	0	549453824	50	5851
2026-01-12 12:46:35.96	64.83	20.12	-38.3	-39.3	22.6	0.00e+00	0	29	0	550502400	50	5918
2026-01-12 12:46:36.97	65.07	20.16	-38.3	-39.3	22.7	0.00e+00	0	29	0	552599552	50	5912
2026-01-12 12:46:37.98	65.31	20.20	-38.4	-39.4	22.6	0.00e+00	0	29	0	554696704	50	6033
2026-01-12 12:46:38.99	65.56	20.24	-38.5	-39.5	22.5	0.00e+00	0	29	0	556793856	50	6050
2026-01-12 12:46:40.00	65.80	20.29	-38.5	-39.5	22.5	0.00e+00	0	29	0	558891008	50	6060
2026-01-12 12:46:41.01	66.04	20.33	-38.5	-39.6	22.5	0.00e+00	0	29	0	559939584	50	6121
2026-01-12 12:46:42.02	66.28	20.37	-38.3	-39.3	22.7	0.00e+00	0	29	0	562036736	50	5924
2026-01-12 12:46:43.03	66.53	20.40	-38.3	-39.4	22.6	0.00e+00	0	29	0	564133888	50	5986
2026-01-12 12:46:44.04	66.77	20.44	-38.1	-39.1	22.9	0.00e+00	0	29	0	566231040	50	5799
2026-01-12 12:46:45.05	67.02	20.48	-37.9	-38.9	23.0	0.00e+00	0	29	0	568328192	50	5678
2026-01-12 12:46:46.06	67.26	20.52	-37.8	-38.8	23.2	0.00e+00	0	29	0	569376768	50	5584
2026-01-12 12:46:47.06	67.51	20.56	-37.8	-38.8	23.2	0.00e+00	0	29	0	571473920	50	5622
2026-01-12 12:46:48.08	67.76	20.60	-38.0	-39.0	23.0	0.00e+00	0	29	0	573571072	50	5743
2026-01-12 12:46:49.09	68.00	20.63	-38.1	-39.1	22.9	0.00e+00	0	29	0	575668224	50	5813
2026-01-12 12:46:50.10	68.25	20.67	-37.8	-38.8	23.1	0.00e+00	0	29	0	577765376	50	5584
2026-01-12 12:46:51.10	68.50	20.70	-38.0	-39.0	23.0	0.00e+00	0	29	0	578813952	50	5718
2026-01-12 12:46:52.11	68.75	20.74	-37.9	-38.9	23.1	0.00e+00	0	29	0	580911104	50	5668
2026-01-12 12:46:53.12	68.99	20.77	-37.8	-38.8	23.2	0.00e+00	0	29	0	583008256	50	5582
2026-01-12 12:46:54.13	69.25	20.81	-37.7	-38.6	23.2	0.00e+00	0	29	0	585105408	48	6169
2026-01-12 12:46:55.14	69.50	20.84	-37.9	-38.8	23.1	0.00e+00	0	29	0	587202560	48	6316
2026-01-12 12:46:56.15	69.75	20.87	-37.5	-38.5	23.5	0.00e+00	0	29	0	588251136	48	6041
2026-01-12 12:46:57.16	70.00	20.91	-37.7	-38.6	23.3	0.00e+00	0	29	0	590348288	48	6137
2026-01-12 12:46:58.17	70.25	20.94	-37.7	-38.6	23.3	0.00e+00	0	29	0	592445440	48	6134
2026-01-12 12:46:59.18	70.50	20.97	-37.7	-38.7	23.3	0.00e+00	0	29	0	594542592	48	6184
2026-01-12 12:47:00.19	70.76	21.00	-37.6	-38.5	23.4	0.00e+00	0	29	0	596639744	48	6075
2026-01-12 12:47:01.20	71.01	21.03	-37.7	-38.6	23.4	0.00e+00	0	29	0	597688320	48	6157
2026-01-12 12:47:02.21	71.27	21.06	-37.4	-38.3	23.6	0.00e+00	0	29	0	599785472	48	5951
2026-01-12 12:47:03.22	71.52	21.09	-37.4	-38.3	23.5	0.00e+00	0	29	0	601882624	48	5962
2026-01-12 12:47:04.23	71.78	21.12	-37.6	-38.5	23.5	0.00e+00	0	29	0	603979776	48	6053
2026-01-12 12:47:05.24	72.03	21.15	-37.7	-38.7	23.3	0.00e+00	0	29	0	606076928	48	6177
2026-01-12 12:47:06.25	72.29	21.18	-37.6	-38.6	23.3	0.00e+00	0	29	0	607125504	48	6106
2026-01-12 12:47:07.26	72.54	21.21	-37.7	-38.6	23.3	0.00e+00	0	29	0	609222656	48	6120
2026-01-12 12:47:08.27	72.80	21.23	-37.7	-38.6	23.3	0.00e+00	0	29	0	611319808	48	6125
2026-01-12 12:47:09.28	73.06	21.26	-37.7	-38.7	23.3	0.00e+00	0	29	0	613416960	48	6183
2026-01-12 12:47:10.29	73.32	21.28	-37.8	-38.7	23.2	0.00e+00	0	29	0	615514112	48	6224
2026-01-12 12:47:11.30	73.57	21.31	-37.9	-38.9	23.0	0.00e+00	0	29	0	617611264	48	6353
2026-01-12 12:47:12.31	73.83	21.33	-38.2	-39.2	22.8	0.00e+00	0	29	0	618659840	48	6555
2026-01-12 12:47:13.32	74.09	21.36	-38.3	-39.3	22.7	0.00e+00	0	29	0	620756992	48	6621
2026-01-12 12:47:14.33	74.35	21.38	-38.4	-39.5	22.6	0.00e+00	0	29	0	622854144	48	6780
2026-01-12 12:47:15.34	74.61	21.40	-38.6	-39.6	22.4	0.00e+00	0	29	0	624951296	48	6876
2026-01-12 12:47:16.35	74.87	21.43	-38.6	-39.7	22.4	0.00e+00	0	29	0	627048448	50	6189
2026-01-12 12:47:17.36	75.13	21.45	-38.7	-39.7	22.2	0.00e+00	0	29	0	628097024	50	6220
2026-01-12 12:47:18.37	75.39	21.47	-38.6	-39.6	22.4	0.00e+00	0	29	0	630194176	50	6171
2026-01-12 12:47:19.38	75.66	21.49	-38.3	-39.3	22.7	0.00e+00	0	29	0	632291328	50	5930
2026-01-12 12:47:20.39	75.92	21.51	-37.9	-38.8	23.2	0.00e+00	0	29	0	634388480	50	5603
2026-01-12 12:47:21.40	76.18	21.53	-37.7	-38.6	23.3	0.00e+00	0	29	0	636485632	48	6125
2026-01-12 12:47:22.41	76.44	21.55	-37.5	-38.4	23.5	0.00e+00	0	29	0	637534208	48	6027
2026-01-12 12:47:23.42	76.71	21.57	-37.5	-38.5	23.4	0.00e+00	0	29	0	639631360	48	6045
2026-01-12 12:47:24.43	76.97	21.59	-37.6	-38.6	23.3	0.00e+00	0	29	0	641728512	48	6134
2026-01-12 12:47:25.44	77.23	21.60	-37.9	-38.9	23.0	0.00e+00	0	29	0	643825664	48	6329
2026-01-12 12:47:26.45	77.50	21.62	-38.1	-39.1	22.7	0.00e+00	0	29	0	645922816	48	6511
2026-01-12 12:47:27.46	77.76	21.64	-38.5	-39.5	22.4	0.00e+00	0	29	0	646971392	48	6823
2026-01-12 12:47:28.47	78.02	21.65	-38.5	-39.5	22.5	0.00e+00	0	29	0	649068544	48	6792
2026-01-12 12:47:29.48	78.29	21.67	-38.6	-39.6	22.5	0.00e+00	0	29	0	651165696	48	6893
2026-01-12 12:47:30.49	78.55	21.68	-38.4	-39.4	22.6	0.00e+00	0	29	0	653262848	48	6765
2026-01-12 12:47:31.50	78.82	21.69	-38.4	-39.5	22.5	0.00e+00	0	29	0	655360000	48	6773
2026-01-12 12:47:32.51	79.08	21.71	-38.1	-39.2	22.8	0.00e+00	0	29	0	656408576	48	6576
2026-01-12 12:47:33.52	79.35	21.72	-38.1	-39.2	22.8	0.00e+00	0	29	0	658505728	48	6589
2026-01-12 12:47:34.53	79.61	21.73	-37.9	-39.1	22.9	0.00e+00	0	29	0	660602880	48	6520
2026-01-12 12:47:35.54	79.88	21.74	-37.7	-38.8	23.1	0.00e+00	0	29	0	662700032	48	6300
2026-01-12 12:47:36.55	80.15	21.75	-37.8	-38.9	23.1	0.00e+00	0	29	0	664797184	48	6356
2026-01-12 12:47:37.56	80.41	21.76	-38.1	-39.2	22.8	0.00e+00	0	29	0	665845760	48	6564
2026-01-12 12:47:38.57	80.68	21.77	-38.2	-39.2	22.8	0.00e+00	0	29	0	667942912	48	6602
2026-01-12 12:47:39.58	80.94	21.78	-38.3	-39.3	22.7	0.00e+00	0	29	0	670040064	48	6666
2026-01-12 12:47:40.59	81.21	21.79	-38.4	-39.4	22.6	0.00e+00	0	29	0	672137216	48	6743
2026-01-12 12:47:41.60	81.48	21.80	-38.4	-39.4	22.6	0.00e+00	0	29	0	674234368	48	6759
2026-01-12 12:47:42.61	81.74	21.80	-38.2	-39.2	22.8	0.00e+00	0	29	0	675282944	48	6605
2026-01-12 12:47:43.62	82.01	21.81	-38.1	-39.1	22.9	0.00e+00	0	29	0	677380096	48	6518
2026-01-12 12:47:44.63	82.28	21.81	-38.3	-39.3	22.7	0.00e+00	0	29	0	679477248	48	6621
2026-01-12 12:47:45.64	82.55	21.82	-37.9	-38.9	23.1	0.00e+00	0	29	0	681574400	48	6334
2026-01-12 12:47:46.65	82.81	21.82	-37.5	-38.4	23.4	0.00e+00	0	29	0	683671552	48	6012
2026-01-12 12:47:47.66	83.08	21.83	-37.5	-38.4	23.5	0.00e+00	0	29	0	685768704	48	5983
2026-01-12 12:47:48.67	83.35	21.83	-37.3	-38.3	23.6	0.00e+00	0	29	0	686817280	48	5906
2026-01-12 12:47:49.68	83.62	21.83	-37.2	-38.1	23.7	0.00e+00	0	29	0	688914432	48	5827
2026-01-12 12:47:50.69	83.88	21.83	-37.3	-38.3	23.6	0.00e+00	0	29	0	691011584	48	5934
2026-01-12 12:47:51.70	84.15	21.84	-37.6	-38.5	23.3	0.00e+00	0	29	0	693108736	48	6098
2026-01-12 12:47:52.71	84.42	21.84	-37.9	-38.8	23.2	0.00e+00	0	29	0	695205888	48	6304
2026-01-12 12:47:53.72	84.69	21.84	-38.2	-39.1	22.7	0.00e+00	0	29	0	696254464	48	6535
2026-01-12 12:47:54.73	84.95	21.84	-38.2	-39.2	22.7	0.00e+00	0	29	0	698351616	48	6579
2026-01-12 12:47:55.74	85.22	21.83	-38.5	-39.5	22.5	0.00e+00	0	29	0	700448768	48	6845
2026-01-12 12:47:56.75	85.49	21.83	-38.5	-39.5	22.5	0.00e+00	0	29	0	702545920	48	6826
2026-01-12 12:47:57.76	85.76	21.83	-38.5	-39.5	22.5	0.00e+00	0	29	0	704643072	48	6809
2026-01-12 12:47:58.77	86.02	21.83	-38.5	-39.5	22.5	0.00e+00	0	29	0	705691648	48	6810
2026-01-12 12:47:59.78	86.29	21.82	-38.5	-39.6	22.5	0.00e+00	0	29	0	707788800	48	6865
2026-01-12 12:48:00.79	86.56	21.82	-38.5	-39.5	22.5	0.00e+00	0	29	0	709885952	48	6818
2026-01-12 12:48:01.80	86.83	21.81	-38.3	-39.3	22.8	0.00e+00	0	29	0	711983104	48	6670
2026-01-12 12:48:02.81	87.09	21.81	-38.3	-39.4	22.6	0.00e+00	0	29	0	714080256	48	6707
2026-01-12 12:48:03.82	87.36	21.80	-38.1	-39.1	22.9	0.00e+00	0	30	0	715128832	48	6502
2026-01-12 12:48:04.83	87.63	21.79	-38.0	-38.9	23.0	0.00e+00	0	29	0	717225984	48	6378
2026-01-12 12:48:05.84	87.89	21.79	-38.0	-39.0	22.9	0.00e+00	0	29	0	719323136	48	6415
2026-01-12 12:48:06.85	88.16	21.78	-38.0	-38.9	23.2	0.00e+00	0	29	0	721420288	48	6363
2026-01-12 12:48:07.86	88.43	21.77	-38.0	-39.0	23.0	0.00e+00	0	29	0	723517440	48	6419
2026-01-12 12:48:08.87	88.69	21.76	-38.2	-39.2	22.8	0.00e+00	0	29	0	724566016	48	6564
2026-01-12 12:48:09.88	88.96	21.75	-38.4	-39.4	22.6	0.00e+00	0	29	0	726663168	48	6745
2026-01-12 12:48:10.89	89.23	21.74	-38.6	-39.6	22.4	0.00e+00	0	29	0	728760320	48	6920
2026-01-12 12:48:11.90	89.49	21.73	-38.6	-39.6	22.4	0.00e+00	0	29	0	730857472	48	6893
2026-01-12 12:48:12.91	89.76	21.72	-38.4	-39.4	22.5	0.00e+00	0	29	0	732954624	48	6764
2026-01-12 12:48:13.92	90.02	21.70	-38.4	-39.5	22.4	0.00e+00	0	29	0	735051776	48	6791
2026-01-12 12:48:14.93	90.29	21.69	-38.2	-39.2	22.8	0.00e+00	0	29	0	736100352	48	6560
2026-01-12 12:48:15.94	90.55	21.68	-38.1	-39.1	22.9	0.00e+00	0	29	0	738197504	48	6471
2026-01-12 12:48:16.95	90.82	21.66	-38.2	-39.3	22.8	0.00e+00	0	29	0	740294656	48	6632
2026-01-12 12:48:17.96	91.08	21.65	-38.0	-39.0	23.0	0.00e+00	0	29	0	742391808	48	6435
2026-01-12 12:48:18.97	91.35	21.63	-38.2	-39.2	22.5	0.00e+00	0	29	0	743440384	48	6598
2026-01-12 12:48:19.98	91.61	21.62	-38.2	-39.1	22.9	0.00e+00	0	29	0	745537536	48	6524
2026-01-12 12:48:20.99	91.88	21.60	-37.7	-38.7	23.3	0.00e+00	0	30	0	747634688	48	6192
2026-01-12 12:48:22.00	92.14	21.58	-37.5	-38.5	23.4	0.00e+00	0	29	0	749731840	48	6040
2026-01-12 12:48:23.01	92.40	21.56	-37.6	-38.5	23.4	0.00e+00	0	30	0	751828992	48	6084
2026-01-12 12:48:24.02	92.67	21.54	-37.5	-38.4	23.4	0.00e+00	0	29	0	753926144	48	6032
2026-01-12 12:48:25.03	92.93	21.53	-37.7	-38.7	23.3	0.00e+00	0	29	0	754974720	48	6182
2026-01-12 12:48:26.04	93.19	21.51	-37.6	-38.5	23.4	0.00e+00	0	30	0	757071872	48	6082
2026-01-12 12:48:27.05	93.45	21.49	-37.5	-38.4	23.4	0.00e+00	0	30	0	759169024	48	6020
2026-01-12 12:48:28.06	93.71	21.46	-37.4	-38.4	23.5	0.00e+00	0	30	0	761266176	48	5977
2026-01-12 12:48:29.07	93.98	21.44	-37.7	-38.6	23.4	0.00e+00	0	30	0	763363328	48	6158
2026-01-12 12:48:30.08	94.24	21.42	-37.1	-38.1	23.6	0.00e+00	0	29	0	764411904	48	5775
2026-01-12 12:48:31.09	94.50	21.40	-37.3	-38.2	23.6	0.00e+00	0	30	0	766509056	48	5880
2026-01-12 12:48:32.10	94.76	21.38	-37.1	-38.0	23.8	0.00e+00	0	29	0	768606208	48	5756
2026-01-12 12:48:33.11	95.02	21.35	-37.2	-38.1	23.8	0.00e+00	0	29	0	770703360	48	5813
2026-01-12 12:48:34.12	95.28	21.33	-37.4	-38.4	23.6	0.00e+00	0	29	0	772800512	48	5965
2026-01-12 12:48:35.13	95.54	21.30	-37.7	-38.6	23.3	0.00e+00	0	30	0	773849088	48	6173
2026-01-12 12:48:36.14	95.80	21.28	-37.7	-38.7	23.2	0.00e+00	0	30	0	775946240	48	6227
2026-01-12 12:48:37.15	96.05	21.25	-37.7	-38.7	23.2	0.00e+00	0	29	0	778043392	48	6243
2026-01-12 12:48:38.16	96.31	21.22	-37.5	-38.6	23.3	0.00e+00	0	30	0	780140544	48	6104
2026-01-12 12:48:39.17	96.57	21.20	-37.3	-38.3	23.6	0.00e+00	0	29	0	782237696	48	5953
2026-01-12 12:48:40.18	96.83	21.17	-37.3	-38.2	23.7	0.00e+00	0	29	0	783286272	48	5860
2026-01-12 12:48:41.19	97.08	21.14	-37.1	-38.0	23.7	0.00e+00	0	29	0	785383424	48	5751
2026-01-12 12:48:42.20	97.34	21.11	-36.9	-37.8	24.0	0.00e+00	0	30	0	787480576	48	5613
2026-01-12 12:48:43.21	97.59	21.08	-36.7	-37.6	24.2	0.00e+00	0	30	0	789577728	46	6133
2026-01-12 12:48:44.22	97.85	21.05	-36.5	-37.3	24.5	0.00e+00	0	30	0	791674880	46	5941
2026-01-12 12:48:45.23	98.10	21.02	-36.3	-37.1	24.6	0.00e+00	0	30	0	793772032	46	5810
2026-01-12 12:48:46.24	98.36	20.99	-36.2	-37.1	24.6	0.00e+00	0	30	0	794820608	46	5791
2026-01-12 12:48:47.25	98.61	20.96	-36.3	-37.1	24.6	0.00e+00	0	30	0	796917760	46	5808
2026-01-12 12:48:48.26	98.87	20.93	-36.4	-37.3	24.5	0.00e+00	0	30	0	799014912	46	5902
2026-01-12 12:48:49.27	99.12	20.90	-36.4	-37.2	24.5	0.00e+00	0	30	0	801112064	46	5879
2026-01-12 12:48:50.28	99.37	20.86	-36.7	-37.6	24.1	0.00e+00	0	30	0	803209216	46	6133
2026-01-12 12:48:51.29	99.62	20.83	-36.8	-37.7	24.0	0.00e+00	0	30	0	804257792	46	6190
2026-01-12 12:48:52.30	99.87	20.80	-36.9	-37.8	24.0	0.00e+00	0	30	0	806354944	46	6255
2026-01-12 12:48:53.31	100.12	20.76	-36.8	-37.7	24.2	0.00e+00	0	30	0	808452096	46	6176
2026-01-12 12:48:54.32	100.37	20.73	-36.8	-37.7	24.1	0.00e+00	0	30	0	810549248	46	6185
2026-01-12 12:48:55.33	100.62	20.69	-36.7	-37.6	24.2	0.00e+00	0	30	0	812646400	46	6143
2026-01-12 12:48:56.34	100.87	20.66	-36.5	-37.4	24.4	0.00e+00	0	30	0	813694976	46	5968
2026-01-12 12:48:57.35	101.12	20.62	-36.5	-37.4	24.3	0.00e+00	0	30	0	815792128	46	5987
2026-01-12 12:48:58.36	101.37	20.58	-36.3	-37.2	24.6	0.00e+00	0	30	0	817889280	46	5832
2026-01-12 12:48:59.37	101.62	20.54	-36.2	-37.1	24.7	0.00e+00	0	30	0	819986432	46	5783
2026-01-12 12:49:00.38	101.86	20.51	-36.1	-37.0	24.6	0.00e+00	0	30	0	822083584	46	5723
2026-01-12 12:49:01.39	102.11	20.47	-36.3	-37.1	24.6	0.00e+00	0	30	0	823132160	46	5806
2026-01-12 12:49:02.40	102.35	20.43	-36.0	-36.8	24.8	0.00e+00	0	30	0	825229312	46	5619
2026-01-12 12:49:03.41	102.60	20.39	-36.1	-36.9	24.7	0.00e+00	0	30	0	827326464	46	5653
2026-01-12 12:49:04.42	102.84	20.35	-35.7	-36.5	25.1	0.00e+00	0	30	0	829423616	46	5430
2026-01-12 12:49:05.43	103.09	20.31	-35.8	-36.6	25.0	0.00e+00	0	30	0	831520768	44	6135
2026-01-12 12:49:06.43	103.33	20.27	-35.6	-36.4	25.1	0.00e+00	0	30	0	832569344	44	6013
2026-01-12 12:49:07.44	103.57	20.23	-35.5	-36.3	25.2	0.00e+00	0	30	0	834666496	44	5935
2026-01-12 12:49:08.45	103.81	20.19	-35.7	-36.5	25.1	0.00e+00	0	30	0	836763648	44	6044
2026-01-12 12:49:09.46	104.05	20.15	-35.7	-36.5	25.0	0.00e+00	0	30	0	838860800	44	6098
2026-01-12 12:49:10.47	104.29	20.10	-35.8	-36.6	24.9	0.00e+00	0	30	0	840957952	44	6166
2026-01-12 12:49:11.48	104.53	20.06	-35.9	-36.8	24.8	0.00e+00	0	30	0	842006528	44	6275
2026-01-12 12:49:12.49	104.77	20.02	-36.1	-37.0	24.6	0.00e+00	0	30	0	844103680	44	6421
2026-01-12 12:49:13.50	105.01	19.97	-36.3	-37.2	24.5	0.00e+00	0	30	0	846200832	44	6571
2026-01-12 12:49:14.51	105.25	19.93	-36.5	-37.4	24.1	0.00e+00	0	30	0	848297984	44	6764
2026-01-12 12:49:15.52	105.48	19.89	-36.6	-37.5	24.1	0.00e+00	0	30	0	850395136	44	6806
2026-01-12 12:49:16.53	105.72	19.84	-36.7	-37.6	24.2	0.00e+00	0	30	0	851443712	46	6136
2026-01-12 12:49:17.54	105.96	19.80	-36.7	-37.5	24.2	0.00e+00	0	30	0	853540864	46	6092
2026-01-12 12:49:18.55	106.19	19.75	-36.9	-37.7	24.1	0.00e+00	0	30	0	855638016	46	6230
2026-01-12 12:49:19.55	106.42	19.71	-36.7	-37.5	24.3	0.00e+00	0	30	0	857735168	46	6095
2026-01-12 12:49:20.56	106.66	19.66	-36.4	-37.2	24.4	0.00e+00	0	30	0	859832320	46	5888
2026-01-12 12:49:21.58	106.89	19.61	-36.4	-37.3	24.4	0.00e+00	0	30	0	861929472	46	5916
2026-01-12 12:49:22.58	107.12	19.56	-36.4	-37.2	24.4	0.00e+00	0	30	0	862978048	46	5890
2026-01-12 12:49:23.59	107.36	19.52	-36.3	-37.1	24.5	0.00e+00	0	30	0	865075200	46	5826
2026-01-12 12:49:24.60	107.59	19.47	-36.2	-37.0	24.6	0.00e+00	0	30	0	867172352	46	5755
2026-01-12 12:49:25.61	107.82	19.42	-36.3	-37.1	24.5	0.00e+00	0	30	0	869269504	46	5827
2026-01-12 12:49:26.62	108.05	19.37	-36.3	-37.2	24.6	0.00e+00	0	30	0	871366656	46	5829
2026-01-12 12:49:27.63	108.27	19.32	-36.7	-37.5	24.0	0.00e+00	0	30	0	872415232	46	6081
2026-01-12 12:49:28.64	108.50	19.27	-37.0	-37.9	23.9	0.00e+00	0	30	0	874512384	46	6353
2026-01-12 12:49:29.65	108.73	19.22	-37.3	-38.2	23.6	0.00e+00	0	30	0	876609536	46	6575
2026-01-12 12:49:30.66	108.96	19.17	-37.6	-38.5	23.2	0.00e+00	0	30	0	878706688	46	6840
2026-01-12 12:49:31.67	109.18	19.12	-37.7	-38.6	23.2	0.00e+00	0	30	0	879755264	46	6910
2026-01-12 12:49:32.68	109.41	19.07	-37.7	-38.7	23.2	0.00e+00	0	30	0	881852416	48	6174
2026-01-12 12:49:33.69	109.63	19.02	-37.8	-38.7	23.0	0.00e+00	0	30	0	883949568	48	6242
2026-01-12 12:49:34.70	109.86	18.97	-37.8	-38.8	23.2	0.00e+00	0	30	0	886046720	48	6257
2026-01-12 12:49:35.71	110.08	18.92	-38.0	-39.0	23.0	0.00e+00	0	30	0	888143872	48	6400
2026-01-12 12:49:36.72	110.30	18.87	-38.0	-39.1	22.7	0.00e+00	0	30	0	890241024	48	6479
2026-01-12 12:49:37.73	110.52	18.82	-37.8	-38.8	23.0	0.00e+00	0	30	0	891289600	48	6281
2026-01-12 12:49:38.73	110.74	18.76	-37.8	-38.9	23.1	0.00e+00	0	30	0	893386752	48	6331
2026-01-12 12:49:39.74	110.96	18.71	-37.6	-38.7	23.1	0.00e+00	0	30	0	895483904	48	6222
2026-01-12 12:49:40.75	111.18	18.66	-37.6	-38.7	23.1	0.00e+00	0	30	0	897581056	48	6188
2026-01-12 12:49:41.76	111.40	18.60	-37.4	-38.5	23.2	0.00e+00	0	30	0	899678208	48	6037
2026-01-12 12:49:42.77	111.62	18.55	-37.2	-38.1	23.7	0.00e+00	0	30	0	900726784	48	5827
2026-01-12 12:49:43.78	111.84	18.50	-37.2	-38.1	23.6	0.00e+00	0	30	0	902823936	48	5822
2026-01-12 12:49:44.79	112.05	18.44	-37.2	-38.1	23.7	0.00e+00	0	30	0	904921088	48	5794
2026-01-12 12:49:45.80	112.27	18.39	-37.3	-38.2	23.7	0.00e+00	0	30	0	907018240	48	5848
2026-01-12 12:49:46.81	112.48	18.33	-37.4	-38.3	23.5	0.00e+00	0	30	0	909115392	48	5960
2026-01-12 12:49:47.82	112.70	18.28	-37.5	-38.5	23.3	0.00e+00	0	30	0	910163968	48	6057
2026-01-12 12:49:48.83	112.91	18.22	-37.7	-38.6	23.3	0.00e+00	0	30	0	912261120	48	6154
2026-01-12 12:49:49.84	113.12	18.17	-37.9	-38.9	23.0	0.00e+00	0	30	0	914358272	48	6329
2026-01-12 12:49:50.85	113.34	18.11	-37.9	-38.9	23.0	0.00e+00	0	30	0	916455424	48	6332
2026-01-12 12:49:51.86	113.55	18.06	-38.0	-39.0	22.9	0.00e+00	0	30	0	918552576	48	6421
2026-01-12 12:49:52.87	113.76	18.00	-38.0	-38.9	22.9	0.00e+00	0	30	0	919601152	48	6389
2026-01-12 12:49:53.88	113.97	17.94	-37.9	-38.9	22.9	0.00e+00	0	30	0	921698304	48	6352
2026-01-12 12:49:54.89	114.18	17.89	-37.9	-38.8	23.0	0.00e+00	0	30	0	923795456	48	6302
2026-01-12 12:49:55.89	114.38	17.83	-37.7	-38.6	23.2	0.00e+00	0	30	0	925892608	48	6173
2026-01-12 12:49:56.90	114.59	17.77	-37.5	-38.5	23.3	0.00e+00	0	30	0	927989760	48	6047
2026-01-12 12:49:57.91	114.80	17.71	-37.4	-38.3	23.4	0.00e+00	0	30	0	929038336	48	5916
2026-01-12 12:49:58.92	115.00	17.66	-37.1	-38.0	23.8	0.00e+00	0	30	0	931135488	48	5699
2026-01-12 12:49:59.93	115.21	17.60	-37.2	-38.1	23.6	0.00e+00	0	30	0	933232640	48	5801
2026-01-12 12:50:00.94	115.41	17.54	-37.4	-38.3	23.4	0.00e+00	0	30	0	935329792	48	5943
2026-01-12 12:50:01.95	115.61	17.48	-37.3	-38.2	23.6	0.00e+00	0	30	0	937426944	48	5833
2026-01-12 12:50:02.96	115.82	17.42	-37.3	-38.2	23.5	0.00e+00	0	30	0	938475520	48	5851
2026-01-12 12:50:03.97	116.02	17.37	-37.4	-38.4	23.4	0.00e+00	0	30	0	940572672	48	5966
2026-01-12 12:50:04.98	116.22	17.31	-37.2	-38.1	23.6	0.00e+00	0	30	0	942669824	48	5802
2026-01-12 12:50:05.98	116.42	17.25	-37.1	-38.1	23.6	0.00e+00	0	30	0	944766976	48	5782
2026-01-12 12:50:06.99	116.62	17.19	-37.2	-38.2	23.5	0.00e+00	0	30	0	946864128	48	5859
2026-01-12 12:50:08.00	116.82	17.13	-37.1	-38.1	23.6	0.00e+00	0	30	0	947912704	48	5815
2026-01-12 12:50:09.01	117.02	17.07	-37.2	-38.1	23.5	0.00e+00	0	30	0	950009856	48	5813
2026-01-12 12:50:10.02	117.21	17.01	-37.4	-38.3	23.4	0.00e+00	0	30	0	952107008	48	5957
2026-01-12 12:50:11.04	117.41	16.95	-37.5	-38.5	23.2	0.00e+00	0	30	0	954204160	48	6068
2026-01-12 12:50:12.05	117.61	16.89	-37.8	-38.8	22.8	0.00e+00	0	30	0	956301312	48	6304
2026-01-12 12:50:13.06	117.80	16.83	-37.9	-38.9	22.9	0.00e+00	0	30	0	958398464	48	6359
2026-01-12 12:50:14.07	118.00	16.77	-38.1	-39.1	22.8	0.00e+00	0	30	0	959447040	48	6486
2026-01-12 12:50:15.08	118.19	16.71	-38.0	-39.0	22.8	0.00e+00	0	30	0	961544192	48	6451
2026-01-12 12:50:16.09	118.38	16.65	-38.0	-38.9	22.8	0.00e+00	0	30	0	963641344	48	6387
2026-01-12 12:50:17.09	118.57	16.59	-37.7	-38.6	23.1	0.00e+00	0	30	0	965738496	48	6169
2026-01-12 12:50:18.10	118.77	16.52	-37.7	-38.7	23.1	0.00e+00	0	30	0	967835648	48	6179
2026-01-12 12:50:19.11	118.96	16.46	-37.7	-38.6	23.2	0.00e+00	0	30	0	968884224	48	6168
2026-01-12 12:50:20.12	119.15	16.40	-37.7	-38.6	23.1	0.00e+00	0	30	0	970981376	48	6173
2026-01-12 12:50:21.13	119.34	16.34	-37.8	-38.7	23.0	0.00e+00	0	30	0	973078528	48	6244
2026-01-12 12:50:22.14	119.52	16.28	-37.8	-38.8	23.0	0.00e+00	0	30	0	975175680	48	6276
2026-01-12 12:50:23.15	119.71	16.22	-37.6	-38.5	23.2	0.00e+00	0	30	0	977272832	48	6076
2026-01-12 12:50:24.16	119.90	16.15	-37.4	-38.3	23.4	0.00e+00	0	30	0	978321408	48	5943
2026-01-12 12:50:25.17	120.08	16.09	-37.2	-38.1	23.6	0.00e+00	0	30	0	980418560	48	5804
2026-01-12 12:50:26.18	120.27	16.03	-37.1	-38.1	23.6	0.00e+00	0	30	0	982515712	48	5776
2026-01-12 12:50:27.19	120.45	15.97	-37.1	-38.0	23.7	0.00e+00	0	30	0	984612864	48	5724
2026-01-12 12:50:28.19	120.64	15.91	-37.2	-38.1	23.4	0.00e+00	0	30	0	986710016	48	5789
2026-01-12 12:50:29.20	120.82	15.84	-37.5	-38.5	23.2	0.00e+00	0	30	0	987758592	48	6062
2026-01-12 12:50:30.21	121.00	15.78	-37.6	-38.7	23.1	0.00e+00	0	30	0	989855744	48	6192
2026-01-12 12:50:31.22	121.18	15.72	-37.9	-39.0	22.9	0.00e+00	0	30	0	991952896	48	6416
2026-01-12 12:50:32.23	121.36	15.65	-38.1	-39.2	22.7	0.00e+00	0	30	0	994050048	48	6547
2026-01-12 12:50:33.24	121.54	15.59	-37.9	-39.0	22.8	0.00e+00	0	30	0	996147200	48	6436
2026-01-12 12:50:34.25	121.72	15.53	-37.7	-38.8	22.9	0.00e+00	0	30	0	997195776	48	6299
2026-01-12 12:50:35.26	121.90	15.46	-37.6	-38.7	23.1	0.00e+00	0	30	0	999292928	48	6184
2026-01-12 12:50:36.27	122.08	15.40	-37.4	-38.4	23.3	0.00e+00	0	30	0	1001390080	48	6000
2026-01-12 12:50:37.28	122.26	15.34	-37.3	-38.2	23.5	0.00e+00	0	30	0	1003487232	48	5891
2026-01-12 12:50:38.29	122.43	15.27	-37.3	-38.3	23.5	0.00e+00	0	30	0	1005584384	48	5913
2026-01-12 12:50:39.30	122.61	15.21	-37.5	-38.4	23.3	0.00e+00	0	30	0	1006632960	48	6022
2026-01-12 12:50:40.31	122.79	15.15	-37.8	-38.8	23.0	0.00e+00	0	30	0	1008730112	48	6253
2026-01-12 12:50:41.32	122.96	15.08	-38.0	-39.0	22.7	0.00e+00	0	30	0	1010827264	48	6438
2026-01-12 12:50:42.33	123.13	15.02	-38.0	-39.0	22.8	0.00e+00	0	30	0	1012924416	48	6402
2026-01-12 12:50:43.34	123.31	14.96	-37.9	-38.9	23.0	0.00e+00	0	30	0	1015021568	48	6344
2026-01-12 12:50:44.35	123.48	14.89	-37.6	-38.6	23.1	0.00e+00	0	30	0	1016070144	48	6133
2026-01-12 12:50:45.36	123.65	14.83	-37.5	-38.5	23.2	0.00e+00	0	30	0	1018167296	48	6060
2026-01-12 12:50:46.37	123.82	14.76	-37.3	-38.2	23.5	0.00e+00	0	30	0	1020264448	48	5894
2026-01-12 12:50:47.38	123.99	14.70	-37.2	-38.1	23.6	0.00e+00	0	30	0	1022361600	48	5810
2026-01-12 12:50:48.39	124.16	14.63	-37.2	-38.1	23.6	0.00e+00	0	30	0	1024458752	48	5781
2026-01-12 12:50:49.40	124.33	14.57	-37.4	-38.4	23.4	0.00e+00	0	30	0	1026555904	48	5966
2026-01-12 12:50:50.40	124.50	14.51	-37.7	-38.7	23.0	0.00e+00	0	30	0	1027604480	48	6189
2026-01-12 12:50:51.41	124.66	14.44	-38.0	-39.0	22.7	0.00e+00	0	30	0	1029701632	48	6440
2026-01-12 12:50:52.42	124.83	14.38	-38.3	-39.4	22.5	0.00e+00	0	30	0	1031798784	48	6698
2026-01-12 12:50:53.42	124.99	14.31	-38.3	-39.3	22.5	0.00e+00	0	30	0	1033895936	48	6691
2026-01-12 12:50:54.43	125.16	14.25	-38.2	-39.3	22.5	0.00e+00	0	30	0	1035993088	48	6662
2026-01-12 12:50:55.44	125.32	14.18	-37.9	-39.0	22.8	0.00e+00	0	30	0	1037041664	48	6419
2026-01-12 12:50:56.45	125.49	14.12	-38.0	-39.0	22.7	0.00e+00	0	30	0	1039138816	48	6460
2026-01-12 12:50:57.46	125.65	14.06	-37.8	-38.7	22.9	0.00e+00	0	30	0	1041235968	48	6229
2026-01-12 12:50:58.47	125.81	13.99	-37.7	-38.7	23.1	0.00e+00	0	30	0	1043333120	48	6219
2026-01-12 12:50:59.48	125.97	13.93	-37.8	-38.8	22.9	0.00e+00	0	30	0	1045430272	48	6263
2026-01-12 12:51:00.49	126.13	13.86	-37.9	-38.8	22.9	0.00e+00	0	30	0	1046478848	48	6299
2026-01-12 12:51:01.49	126.29	13.80	-38.1	-39.1	22.7	0.00e+00	0	30	0	1048576000	48	6486
2026-01-12 12:51:02.50	126.45	13.73	-38.3	-39.3	22.4	0.00e+00	0	30	0	1050673152	48	6687
2026-01-12 12:51:03.51	126.61	13.67	-38.3	-39.4	22.4	0.00e+00	0	30	0	1052770304	48	6736
2026-01-12 12:51:04.52	126.77	13.60	-38.3	-39.4	22.4	0.00e+00	0	30	0	1054867456	48	6702
2026-01-12 12:51:05.53	126.93	13.54	-38.3	-39.3	22.5	0.00e+00	0	30	0	1055916032	48	6666
2026-01-12 12:51:06.54	127.09	13.47	-37.9	-38.9	22.8	0.00e+00	0	30	0	1058013184	48	6375
2026-01-12 12:51:07.55	127.24	13.41	-37.7	-38.7	22.9	0.00e+00	0	30	0	1060110336	48	6219
2026-01-12 12:51:08.56	127.40	13.34	-37.7	-38.7	23.0	0.00e+00	0	30	0	1062207488	48	6189
2026-01-12 12:51:09.57	127.55	13.28	-37.6	-38.6	23.1	0.00e+00	0	30	0	1064304640	48	6138
2026-01-12 12:51:10.58	127.71	13.21	-37.6	-38.6	23.1	0.00e+00	0	30	0	1065353216	48	6150
2026-01-12 12:51:11.59	127.86	13.15	-37.8	-38.8	22.8	0.00e+00	0	30	0	1067450368	48	6286
2026-01-12 12:51:12.60	128.01	13.08	-38.0	-39.0	22.7	0.00e+00	0	30	0	1069547520	48	6427
2026-01-12 12:51:13.61	128.17	13.02	-38.2	-39.2	22.5	0.00e+00	0	30	0	1071644672	48	6568
2026-01-12 12:51:14.62	128.32	12.95	-38.3	-39.3	22.4	0.00e+00	0	30	0	1073741824	48	6686
2026-01-12 12:51:15.63	128.47	12.89	-38.3	-39.3	22.4	0.00e+00	0	30	0	1074790400	48	6691
2026-01-12 12:51:16.64	128.62	12.82	-38.3	-39.3	22.4	0.00e+00	0	30	0	1076887552	48	6667
2026-01-12 12:51:17.65	128.77	12.76	-38.3	-39.3	22.4	0.00e+00	0	30	0	1078984704	48	6682
2026-01-12 12:51:18.65	128.92	12.69	-38.1	-39.1	22.6	0.00e+00	0	30	0	1081081856	48	6525
2026-01-12 12:51:19.66	129.06	12.63	-37.9	-38.9	22.8	0.00e+00	0	30	0	1083179008	48	6383
2026-01-12 12:51:20.67	129.21	12.56	-38.0	-39.0	22.6	0.00e+00	0	30	0	1084227584	48	6405
2026-01-12 12:51:21.68	129.36	12.50	-37.8	-38.8	22.7	0.00e+00	0	30	0	1086324736	48	6291
2026-01-12 12:51:22.69	129.51	12.43	-37.9	-38.8	22.8	0.00e+00	0	30	0	1088421888	48	6302
2026-01-12 12:51:23.70	129.65	12.37	-38.1	-39.0	22.5	0.00e+00	0	30	0	1090519040	48	6453
2026-01-12 12:51:24.71	129.80	12.30	-38.1	-39.2	22.5	0.00e+00	0	30	0	1092616192	48	6548
2026-01-12 12:51:25.72	129.94	12.24	-38.2	-39.2	22.4	0.00e+00	0	30	0	1093664768	48	6611
2026-01-12 12:51:26.73	130.09	12.17	-38.3	-39.4	22.3	0.00e+00	0	30	0	1095761920	48	6713
2026-01-12 12:51:27.74	130.23	12.11	-38.5	-39.5	21.8	0.00e+00	0	30	0	1097859072	48	6822
2026-01-12 12:51:28.75	130.37	12.04	-38.5	-39.5	22.2	0.00e+00	0	30	0	1099956224	48	6809
2026-01-12 12:51:29.76	130.52	11.98	-38.2	-39.3	22.4	0.00e+00	0	30	0	1102053376	48	6622
2026-01-12 12:51:30.77	130.66	11.91	-38.3	-39.4	22.3	0.00e+00	0	30	0	1103101952	48	6728
2026-01-12 12:51:31.78	130.80	11.85	-38.3	-39.4	22.3	0.00e+00	0	30	0	1105199104	48	6711
2026-01-12 12:51:32.79	130.94	11.78	-38.3	-39.3	22.4	0.00e+00	0	30	0	1107296256	48	6655
2026-01-12 12:51:33.80	131.08	11.72	-38.4	-39.4	22.2	0.00e+00	0	30	0	1109393408	48	6724
2026-01-12 12:51:34.80	131.22	11.65	-38.4	-39.5	22.2	0.00e+00	0	30	0	1111490560	48	6788
2026-01-12 12:51:35.81	131.36	11.59	-38.6	-39.7	22.0	0.00e+00	0	30	0	1112539136	48	6961
2026-01-12 12:51:36.82	131.49	11.52	-38.8	-39.9	21.8	0.00e+00	0	30	0	1114636288	50	6361
2026-01-12 12:51:37.83	131.63	11.46	-39.0	-40.1	21.6	0.00e+00	0	30	0	1116733440	50	6528
2026-01-12 12:51:38.84	131.77	11.39	-39.1	-40.3	21.4	0.00e+00	0	30	0	1118830592	50	6626
2026-01-12 12:51:39.85	131.91	11.33	-39.2	-40.4	21.4	0.00e+00	0	30	0	1120927744	50	6703
2026-01-12 12:51:40.86	132.04	11.26	-39.1	-40.3	21.4	0.00e+00	0	30	0	1123024896	50	6657
2026-01-12 12:51:41.87	132.18	11.20	-39.2	-40.3	21.4	0.00e+00	0	30	0	1124073472	50	6681
2026-01-12 12:51:42.88	132.31	11.13	-38.9	-40.1	21.7	0.00e+00	0	30	0	1126170624	50	6474
2026-01-12 12:51:43.89	132.45	11.07	-38.9	-40.0	21.7	0.00e+00	0	30	0	1128267776	50	6456
2026-01-12 12:51:44.90	132.58	11.00	-38.8	-39.9	21.9	0.00e+00	0	30	0	1130364928	50	6347
2026-01-12 12:51:45.91	132.71	10.94	-38.6	-39.7	21.9	0.00e+00	0	30	0	1132462080	50	6211
2026-01-12 12:51:46.92	132.84	10.87	-38.5	-39.6	22.0	0.00e+00	0	30	0	1133510656	50	6145
2026-01-12 12:51:47.93	132.98	10.81	-38.3	-39.3	22.3	0.00e+00	0	30	0	1135607808	50	5948
2026-01-12 12:51:48.94	133.11	10.74	-38.2	-39.2	22.4	0.00e+00	0	30	0	1137704960	50	5886
2026-01-12 12:51:49.95	133.24	10.68	-38.3	-39.3	22.3	0.00e+00	0	30	0	1139802112	50	5944
2026-01-12 12:51:50.96	133.37	10.62	-38.2	-39.2	22.4	0.00e+00	0	30	0	1141899264	50	5885
2026-01-12 12:51:51.96	133.50	10.55	-38.3	-39.3	22.3	0.00e+00	0	30	0	1142947840	50	5921
2026-01-12 12:51:52.97	133.63	10.49	-38.3	-39.3	22.3	0.00e+00	0	30	0	1145044992	50	5957
2026-01-12 12:51:53.98	133.75	10.42	-38.4	-39.5	22.1	0.00e+00	0	30	0	1147142144	50	6066
2026-01-12 12:51:54.99	133.88	10.36	-38.6	-39.6	22.0	0.00e+00	0	30	0	1149239296	50	6159
2026-01-12 12:51:56.00	134.01	10.29	-38.6	-39.7	22.0	0.00e+00	0	30	0	1151336448	50	6179
2026-01-12 12:51:57.01	134.14	10.23	-38.5	-39.6	22.0	0.00e+00	0	30	0	1152385024	50	6137
2026-01-12 12:51:58.02	134.26	10.17	-38.6	-39.7	21.9	0.00e+00	0	30	0	1154482176	50	6204
2026-01-12 12:51:59.03	134.39	10.10	-38.7	-39.8	21.9	0.00e+00	0	30	0	1156579328	50	6287
2026-01-12 12:52:00.04	134.51	10.04	-38.8	-39.9	21.7	0.00e+00	0	30	0	1158676480	50	6323
2026-01-12 12:52:01.05	134.64	9.97	-39.0	-40.1	21.5	0.00e+00	0	30	0	1160773632	50	6526
2026-01-12 12:52:02.06	134.76	9.91	-38.9	-40.1	21.5	0.00e+00	0	30	0	1161822208	50	6467
2026-01-12 12:52:03.07	134.89	9.85	-39.1	-40.2	21.5	0.00e+00	0	30	0	1163919360	50	6585
2026-01-12 12:52:04.08	135.01	9.78	-39.2	-40.4	21.3	0.00e+00	0	30	0	1166016512	50	6716
2026-01-12 12:52:05.09	135.13	9.72	-39.2	-40.5	21.2	0.00e+00	0	30	0	1168113664	50	6779
2026-01-12 12:52:06.10	135.25	9.66	-39.3	-40.5	21.1	0.00e+00	0	30	0	1170210816	50	6847
2026-01-12 12:52:07.11	135.38	9.59	-39.3	-40.5	21.2	0.00e+00	0	30	0	1171259392	50	6807
2026-01-12 12:52:08.11	135.50	9.53	-39.4	-40.6	21.0	0.00e+00	0	30	0	1173356544	50	6897
2026-01-12 12:52:09.12	135.62	9.46	-39.4	-40.6	21.0	0.00e+00	0	30	0	1175453696	50	6853
2026-01-12 12:52:10.13	135.74	9.40	-39.4	-40.6	21.1	0.00e+00	0	30	0	1177550848	50	6884
2026-01-12 12:52:11.14	135.86	9.34	-39.2	-40.4	21.2	0.00e+00	0	30	0	1179648000	50	6747
2026-01-12 12:52:12.15	135.98	9.27	-39.0	-40.2	21.4	0.00e+00	0	30	0	1180696576	50	6551
2026-01-12 12:52:13.16	136.09	9.21	-39.0	-40.1	21.4	0.00e+00	0	30	0	1182793728	50	6539
2026-01-12 12:52:14.17	136.21	9.15	-39.0	-40.2	21.4	0.00e+00	0	30	0	1184890880	50	6569
2026-01-12 12:52:15.18	136.33	9.08	-39.0	-40.2	21.4	0.00e+00	0	30	0	1186988032	50	6581
2026-01-12 12:52:16.19	136.45	9.02	-39.0	-40.2	21.4	0.00e+00	0	30	0	1189085184	50	6575
2026-01-12 12:52:17.20	136.56	8.96	-39.1	-40.3	21.2	0.00e+00	0	30	0	1191182336	50	6666
2026-01-12 12:52:18.21	136.68	8.89	-39.2	-40.3	21.2	0.00e+00	0	30	0	1192230912	50	6677
2026-01-12 12:52:19.22	136.80	8.83	-39.3	-40.5	21.1	0.00e+00	0	30	0	1194328064	50	6785
2026-01-12 12:52:20.23	136.91	8.77	-39.3	-40.6	21.0	0.00e+00	0	30	0	1196425216	50	6883
2026-01-12 12:52:21.24	137.03	8.71	-39.3	-40.5	21.1	0.00e+00	0	30	0	1198522368	50	6799
2026-01-12 12:52:22.25	137.14	8.64	-39.4	-40.7	20.8	0.00e+00	0	30	0	1200619520	50	6968
2026-01-12 12:52:23.26	137.25	8.58	-39.4	-40.7	20.8	0.00e+00	0	30	0	1201668096	50	6966
2026-01-12 12:52:24.27	137.37	8.52	-39.5	-40.8	20.7	0.00e+00	0	30	0	1203765248	50	7020
2026-01-12 12:52:25.28	137.48	8.45	-39.7	-40.9	20.6	0.00e+00	0	30	0	1205862400	50	7132
2026-01-12 12:52:26.29	137.59	8.39	-39.7	-41.0	20.5	0.00e+00	0	30	0	1207959552	50	7224
2026-01-12 12:52:27.30	137.71	8.33	-39.7	-41.0	20.5	0.00e+00	0	30	0	1210056704	50	7251
2026-01-12 12:52:28.31	137.82	8.27	-39.8	-41.2	20.4	0.00e+00	0	30	0	1211105280	52	6580
2026-01-12 12:52:29.32	137.93	8.20	-39.9	-41.3	20.3	0.00e+00	0	30	0	1213202432	52	6631
2026-01-12 12:52:30.32	138.04	8.14	-40.1	-41.5	20.0	0.00e+00	0	30	0	1215299584	52	6811
