passes_logs/2026/01/12/R4.6S_Anadyr/R4.6S_Anadyr__20260112_182042_FENGYUN_3D_rec.log

#Pass ID: 20260112_182042_FENGYUN 3D
#Satellite: FENGYUN 3D
#Configuration: FENGYUN 3D
#almurnet v.1.7.20251203
#Start time: 2026-01-12 18:20:45

#Version: 2.2.20231116
#Station: R4.6S_Anadyr
#Location: 177.4865 lon 64.73178 lat
#TLE: 1 43010U 17072A   26011.62066612  .00000104  00000+0  70810-4 0  9998
#TLE: 2 43010  98.9935 343.3846 0002223 114.2890 245.8518 14.19694405422776

#Time	Az	El	Level	Level2	SNR	BER	BlckErr	Temp	State	Recorded	gain1	gain2
2026-01-12 18:20:45.09	25.85	0.17	-48.3	-59.0	3.3	8.40e-01	0	29	0	0	60	32168
2026-01-12 18:20:46.09	25.81	0.23	-48.3	-60.5	3.6	8.45e-01	0	29	104	0	60	38095
2026-01-12 18:20:47.10	25.78	0.29	-48.3	-60.4	3.6	8.45e-01	0	29	104	0	60	37843
2026-01-12 18:20:48.11	25.74	0.35	-48.3	-60.4	3.6	8.45e-01	0	29	104	0	60	37960
2026-01-12 18:20:49.12	25.71	0.40	-48.4	-60.4	3.6	8.46e-01	0	29	104	0	60	37956
2026-01-12 18:20:50.13	25.67	0.46	-48.2	-60.4	3.6	8.45e-01	0	29	104	0	60	37653
2026-01-12 18:20:51.14	25.63	0.52	-48.2	-60.3	3.6	8.45e-01	0	29	104	0	60	37263
2026-01-12 18:20:52.15	25.60	0.58	-48.0	-60.2	3.6	8.45e-01	0	29	104	0	60	37039
2026-01-12 18:20:53.16	25.56	0.64	-48.0	-60.0	3.6	8.46e-01	0	29	104	0	60	36338
2026-01-12 18:20:54.17	25.52	0.70	-47.8	-59.9	3.6	8.47e-01	0	29	104	0	60	35702
2026-01-12 18:20:55.18	25.48	0.76	-47.7	-59.8	3.6	8.46e-01	0	29	104	0	60	35171
2026-01-12 18:20:56.18	25.45	0.82	-47.4	-59.5	3.6	8.46e-01	0	29	104	0	60	34268
2026-01-12 18:20:57.19	25.41	0.88	-47.2	-59.2	3.6	8.45e-01	0	29	104	0	60	33010
2026-01-12 18:20:58.20	25.37	0.94	-46.7	-58.7	3.6	8.44e-01	0	29	104	0	60	31106
2026-01-12 18:20:59.21	25.33	0.99	-46.7	-58.8	3.6	8.45e-01	0	29	104	0	60	31428
2026-01-12 18:21:00.22	25.30	1.05	-46.7	-58.8	3.6	8.45e-01	0	29	104	0	60	31632
2026-01-12 18:21:01.23	25.26	1.11	-46.7	-58.8	3.6	8.46e-01	0	29	104	0	60	31578
2026-01-12 18:21:02.24	25.22	1.17	-46.7	-58.8	3.6	8.46e-01	0	29	104	0	60	31614
2026-01-12 18:21:03.25	25.18	1.23	-46.7	-58.8	3.6	8.45e-01	0	29	104	0	60	31387
2026-01-12 18:21:04.26	25.14	1.29	-46.7	-58.7	3.6	8.45e-01	0	29	104	0	60	31079
2026-01-12 18:21:05.27	25.10	1.35	-46.7	-58.7	3.6	8.46e-01	0	29	104	0	60	31049
2026-01-12 18:21:06.28	25.06	1.41	-46.7	-58.7	3.6	8.46e-01	0	29	104	0	60	30946
2026-01-12 18:21:07.29	25.02	1.48	-46.7	-58.6	3.6	8.44e-01	0	29	104	0	60	30936
2026-01-12 18:21:08.30	24.98	1.54	-46.7	-58.7	3.6	8.45e-01	0	29	104	0	60	31214
2026-01-12 18:21:09.31	24.94	1.60	-46.7	-58.8	3.6	8.44e-01	0	29	104	0	60	31402
2026-01-12 18:21:10.32	24.90	1.66	-46.7	-58.8	3.6	8.45e-01	0	29	104	0	60	31578
2026-01-12 18:21:11.33	24.86	1.72	-46.7	-58.8	3.6	8.45e-01	0	29	104	0	60	31498
2026-01-12 18:21:12.34	24.82	1.78	-46.7	-58.6	3.6	8.46e-01	0	29	104	0	60	30754
2026-01-12 18:21:13.35	24.78	1.84	-46.7	-58.5	3.5	8.45e-01	0	29	104	0	60	30342
2026-01-12 18:21:14.36	24.74	1.90	-46.7	-58.4	3.6	8.45e-01	0	29	104	0	60	29918
2026-01-12 18:21:15.37	24.70	1.96	-46.7	-58.3	3.6	8.45e-01	0	29	104	0	60	29685
2026-01-12 18:21:16.38	24.66	2.03	-46.7	-58.4	3.5	8.45e-01	0	29	104	0	60	30049
2026-01-12 18:21:17.39	24.62	2.09	-46.7	-58.5	3.6	8.45e-01	0	29	104	0	60	30517
2026-01-12 18:21:18.40	24.58	2.15	-46.7	-58.7	3.6	8.46e-01	0	29	104	0	60	31108
2026-01-12 18:21:19.41	24.54	2.21	-46.7	-58.8	3.6	8.46e-01	0	29	104	0	60	31455
2026-01-12 18:21:20.42	24.50	2.27	-46.7	-58.8	3.6	8.44e-01	0	29	104	0	60	31422
2026-01-12 18:21:21.43	24.45	2.33	-46.7	-58.7	3.6	8.45e-01	0	29	104	0	60	31031
2026-01-12 18:21:22.44	24.41	2.40	-46.7	-58.6	3.6	8.45e-01	0	29	104	0	60	30594
2026-01-12 18:21:23.45	24.37	2.46	-46.7	-58.5	3.6	8.45e-01	0	29	104	0	60	30292
2026-01-12 18:21:24.46	24.33	2.52	-46.7	-58.4	3.6	8.44e-01	0	29	104	0	60	29989
2026-01-12 18:21:25.47	24.28	2.58	-46.6	-58.1	3.5	8.45e-01	0	29	104	0	60	29117
2026-01-12 18:21:26.48	24.24	2.65	-46.6	-57.9	3.6	8.44e-01	0	29	104	0	60	28235
2026-01-12 18:21:27.49	24.20	2.71	-46.6	-57.5	3.6	8.44e-01	0	29	104	0	60	27201
2026-01-12 18:21:28.50	24.15	2.77	-46.6	-57.5	3.6	8.45e-01	0	29	104	0	60	27162
2026-01-12 18:21:29.51	24.11	2.84	-46.6	-58.1	3.5	8.45e-01	0	29	104	0	60	28945
2026-01-12 18:21:30.52	24.07	2.90	-46.7	-58.7	3.6	8.45e-01	0	29	104	0	60	30954
2026-01-12 18:21:31.53	24.02	2.96	-46.7	-58.5	3.6	8.45e-01	0	29	104	0	60	30407
2026-01-12 18:21:32.54	23.98	3.03	-46.4	-55.8	3.9	8.44e-01	0	29	104	0	60	22335
2026-01-12 18:21:33.55	23.93	3.09	-45.8	-51.5	5.6	7.95e-01	0	29	0	0	60	13595
2026-01-12 18:21:34.56	23.89	3.15	-45.1	-49.3	7.8	1.28e-01	0	29	0	5242880	60	10548
2026-01-12 18:21:35.57	23.84	3.22	-44.1	-47.3	10.1	1.81e-02	0	29	0	10485760	60	8338
2026-01-12 18:21:36.58	23.80	3.28	-43.1	-45.7	12.1	1.37e-03	0	29	0	16777216	60	6960
2026-01-12 18:21:37.59	23.75	3.35	-42.2	-44.4	13.4	5.14e-05	0	29	0	22020096	58	6701
2026-01-12 18:21:38.60	23.71	3.41	-41.5	-43.3	14.5	1.10e-06	0	29	0	27262976	56	6616
2026-01-12 18:21:39.61	23.66	3.47	-41.4	-43.2	14.5	0.00e+00	0	29	0	33554432	56	6599
2026-01-12 18:21:40.61	23.62	3.54	-42.4	-44.6	13.0	1.10e-06	0	29	0	38797312	56	7714
2026-01-12 18:21:41.62	23.57	3.60	-44.7	-48.3	8.9	6.95e-02	0	29	0	45088768	60	9433
2026-01-12 18:21:42.63	23.52	3.67	-43.8	-46.6	13.2	2.18e-01	0	29	0	50331648	60	7699
2026-01-12 18:21:43.64	23.48	3.73	-45.5	-50.3	10.5	6.76e-01	0	29	0	54525952	60	11765
2026-01-12 18:21:44.65	23.43	3.80	-36.8	-37.8	18.6	0.00e+00	0	29	0	59768832	44	7047
2026-01-12 18:21:45.66	23.38	3.86	-46.7	-58.7	3.6	8.46e-01	0	29	104	60817408	60	31269
2026-01-12 18:21:46.67	23.34	3.93	-35.6	-36.5	19.6	0.00e+00	0	29	104	60817408	44	6059
2026-01-12 18:21:47.68	23.29	3.99	-35.6	-36.5	21.4	0.00e+00	0	29	0	65011712	44	6056
2026-01-12 18:21:48.69	23.24	4.06	-35.3	-36.1	21.7	0.00e+00	0	29	0	70254592	44	5810
2026-01-12 18:21:49.70	23.19	4.12	-35.2	-36.0	21.8	0.00e+00	0	29	0	76546048	44	5749
2026-01-12 18:21:50.71	23.15	4.19	-35.3	-36.1	21.8	0.00e+00	0	29	0	81788928	44	5792
2026-01-12 18:21:51.72	23.10	4.26	-35.2	-36.0	21.9	0.00e+00	0	29	0	88080384	44	5745
2026-01-12 18:21:52.73	23.05	4.32	-35.1	-35.9	22.0	0.00e+00	0	29	0	93323264	44	5666
2026-01-12 18:21:53.74	23.00	4.39	-35.3	-36.1	21.9	0.00e+00	0	29	0	98566144	44	5780
2026-01-12 18:21:54.75	22.95	4.46	-35.2	-36.0	22.0	0.00e+00	0	29	0	104857600	44	5720
2026-01-12 18:21:55.76	22.90	4.52	-35.3	-36.1	21.9	0.00e+00	0	29	0	110100480	44	5797
2026-01-12 18:21:56.77	22.85	4.59	-35.1	-35.9	22.1	0.00e+00	0	29	0	116391936	44	5692
2026-01-12 18:21:57.78	22.80	4.66	-35.1	-35.9	22.0	0.00e+00	0	29	0	121634816	44	5687
2026-01-12 18:21:58.79	22.75	4.72	-35.3	-36.1	21.9	0.00e+00	0	29	0	126877696	44	5781
2026-01-12 18:21:59.80	22.70	4.79	-35.2	-36.0	22.1	0.00e+00	0	29	0	133169152	44	5706
2026-01-12 18:22:00.80	22.65	4.86	-34.8	-35.5	22.4	0.00e+00	0	29	0	138412032	44	5423
2026-01-12 18:22:01.81	22.60	4.92	-34.9	-35.7	22.3	0.00e+00	0	29	0	144703488	44	5553
2026-01-12 18:22:02.82	22.55	4.99	-34.9	-35.7	22.3	0.00e+00	0	29	0	149946368	44	5554
2026-01-12 18:22:03.83	22.50	5.06	-34.9	-35.7	22.3	0.00e+00	0	29	0	156237824	42	6186
2026-01-12 18:22:04.84	22.45	5.13	-34.9	-35.7	22.4	0.00e+00	0	29	0	161480704	42	6193
2026-01-12 18:22:05.85	22.39	5.19	-35.0	-35.8	22.3	0.00e+00	0	29	0	167772160	42	6252
2026-01-12 18:22:06.86	22.34	5.26	-35.2	-36.0	22.1	0.00e+00	0	29	0	173015040	42	6408
2026-01-12 18:22:07.87	22.29	5.33	-35.3	-36.1	22.0	0.00e+00	0	29	0	178257920	42	6499
2026-01-12 18:22:08.88	22.24	5.40	-34.9	-35.7	22.4	0.00e+00	0	29	0	184549376	42	6205
2026-01-12 18:22:09.89	22.18	5.47	-35.0	-35.7	22.3	0.00e+00	0	29	0	189792256	42	6244
2026-01-12 18:22:10.90	22.13	5.54	-34.9	-35.7	22.4	0.00e+00	0	29	0	196083712	42	6195
2026-01-12 18:22:11.91	22.08	5.61	-35.0	-35.8	22.3	0.00e+00	0	29	0	201326592	42	6293
2026-01-12 18:22:12.92	22.02	5.68	-35.2	-36.0	22.1	0.00e+00	0	29	0	206569472	42	6415
2026-01-12 18:22:13.93	21.97	5.74	-34.9	-35.7	22.4	0.00e+00	0	29	0	212860928	42	6209
2026-01-12 18:22:14.94	21.91	5.81	-35.0	-35.8	22.4	0.00e+00	0	29	0	218103808	42	6278
2026-01-12 18:22:15.95	21.86	5.88	-34.9	-35.7	22.4	0.00e+00	0	29	0	224395264	42	6222
2026-01-12 18:22:16.96	21.81	5.95	-35.1	-35.9	22.2	0.00e+00	0	29	0	229638144	42	6340
2026-01-12 18:22:17.97	21.75	6.02	-35.0	-35.8	22.4	0.00e+00	0	29	0	234881024	42	6282
2026-01-12 18:22:18.98	21.69	6.09	-34.7	-35.4	22.8	0.00e+00	0	29	0	241172480	42	6031
2026-01-12 18:22:19.99	21.64	6.16	-34.6	-35.4	22.8	0.00e+00	0	29	0	246415360	42	5970
2026-01-12 18:22:21.00	21.58	6.23	-34.7	-35.5	22.7	0.00e+00	0	29	0	252706816	42	6076
2026-01-12 18:22:22.01	21.53	6.30	-34.5	-35.3	22.9	0.00e+00	0	29	0	257949696	42	5935
2026-01-12 18:22:23.02	21.47	6.38	-34.6	-35.4	22.7	0.00e+00	0	29	0	264241152	42	5982
2026-01-12 18:22:24.03	21.41	6.45	-34.5	-35.2	23.0	0.00e+00	0	29	0	269484032	42	5891
2026-01-12 18:22:25.04	21.36	6.52	-34.5	-35.3	22.9	0.00e+00	0	29	0	274726912	42	5912
2026-01-12 18:22:26.05	21.30	6.59	-34.4	-35.1	23.1	0.00e+00	0	29	0	281018368	42	5809
2026-01-12 18:22:27.06	21.24	6.66	-34.3	-35.0	23.1	0.00e+00	0	29	0	286261248	42	5754
2026-01-12 18:22:28.07	21.18	6.73	-34.4	-35.1	23.1	0.00e+00	0	29	0	292552704	42	5806
2026-01-12 18:22:29.08	21.12	6.80	-34.3	-35.1	23.2	0.00e+00	0	29	0	297795584	42	5766
2026-01-12 18:22:30.09	21.07	6.88	-34.4	-35.2	23.0	0.00e+00	0	29	0	303038464	42	5855
2026-01-12 18:22:31.10	21.01	6.95	-34.5	-35.2	23.0	0.00e+00	0	29	0	309329920	42	5884
2026-01-12 18:22:32.11	20.95	7.02	-34.3	-35.1	23.1	0.00e+00	0	29	0	314572800	42	5785
2026-01-12 18:22:33.12	20.89	7.09	-34.1	-34.8	23.4	0.00e+00	0	29	0	320864256	42	5612
2026-01-12 18:22:34.13	20.83	7.16	-34.1	-34.8	23.4	0.00e+00	0	29	0	326107136	42	5618
2026-01-12 18:22:35.14	20.77	7.24	-34.1	-34.8	23.5	0.00e+00	0	29	0	331350016	42	5611
2026-01-12 18:22:36.15	20.71	7.31	-34.1	-34.9	23.3	0.00e+00	0	29	0	337641472	42	5634
2026-01-12 18:22:37.16	20.64	7.38	-34.0	-34.8	23.5	0.00e+00	0	29	0	342884352	42	5568
2026-01-12 18:22:38.16	20.58	7.46	-34.0	-34.7	23.5	0.00e+00	0	29	0	349175808	42	5564
2026-01-12 18:22:39.17	20.52	7.53	-34.0	-34.7	23.5	0.00e+00	0	29	0	354418688	42	5560
2026-01-12 18:22:40.18	20.46	7.60	-33.8	-34.6	23.7	0.00e+00	0	29	0	360710144	42	5451
2026-01-12 18:22:41.19	20.40	7.68	-33.8	-34.5	23.7	0.00e+00	0	29	0	365953024	42	5438
2026-01-12 18:22:42.21	20.34	7.75	-33.9	-34.6	23.7	0.00e+00	0	29	0	372244480	42	5493
2026-01-12 18:22:43.22	20.27	7.83	-33.8	-34.5	23.7	0.00e+00	0	29	0	377487360	42	5415
2026-01-12 18:22:44.23	20.21	7.90	-33.8	-34.5	23.8	0.00e+00	0	29	0	382730240	42	5407
2026-01-12 18:22:45.24	20.15	7.98	-33.9	-34.6	23.6	0.00e+00	0	29	0	389021696	40	6162
2026-01-12 18:22:46.25	20.08	8.05	-33.7	-34.5	23.8	0.00e+00	0	29	0	394264576	40	6042
2026-01-12 18:22:47.26	20.02	8.12	-33.7	-34.5	23.8	0.00e+00	0	29	0	400556032	40	6044
2026-01-12 18:22:48.27	19.95	8.20	-33.8	-34.6	23.7	0.00e+00	0	29	0	405798912	40	6115
2026-01-12 18:22:49.28	19.89	8.28	-33.8	-34.5	23.7	0.00e+00	0	29	0	411041792	40	6102
2026-01-12 18:22:50.29	19.82	8.35	-33.8	-34.5	23.7	0.00e+00	0	29	0	417333248	40	6061
2026-01-12 18:22:51.30	19.76	8.43	-33.8	-34.5	23.8	0.00e+00	0	29	0	422576128	40	6069
2026-01-12 18:22:52.31	19.69	8.50	-33.7	-34.5	23.8	0.00e+00	0	29	0	428867584	40	6051
2026-01-12 18:22:53.32	19.62	8.58	-33.6	-34.4	23.8	0.00e+00	0	29	0	434110464	40	5969
2026-01-12 18:22:54.33	19.56	8.65	-33.7	-34.5	23.8	0.00e+00	0	29	0	439353344	40	6041
2026-01-12 18:22:55.34	19.49	8.73	-33.7	-34.5	23.8	0.00e+00	0	29	0	445644800	40	6063
2026-01-12 18:22:56.35	19.42	8.81	-33.7	-34.5	23.8	0.00e+00	0	29	0	450887680	40	6046
2026-01-12 18:22:57.36	19.35	8.88	-33.8	-34.6	23.7	0.00e+00	0	29	0	457179136	40	6106
2026-01-12 18:22:58.37	19.29	8.96	-33.7	-34.4	23.9	0.00e+00	0	29	0	462422016	40	6017
2026-01-12 18:22:59.38	19.22	9.04	-33.8	-34.5	23.7	0.00e+00	0	29	0	468713472	40	6103
2026-01-12 18:23:00.38	19.15	9.12	-33.8	-34.5	23.8	0.00e+00	0	29	0	473956352	40	6083
2026-01-12 18:23:01.40	19.08	9.19	-33.6	-34.4	23.9	0.00e+00	0	29	0	479199232	40	5986
2026-01-12 18:23:02.41	19.01	9.27	-33.7	-34.5	23.9	0.00e+00	0	29	0	485490688	40	6053
2026-01-12 18:23:03.42	18.94	9.35	-33.7	-34.4	24.0	0.00e+00	0	29	0	490733568	40	5999
2026-01-12 18:23:04.42	18.87	9.43	-33.7	-34.4	24.0	0.00e+00	0	29	0	497025024	40	6006
2026-01-12 18:23:05.44	18.80	9.51	-33.7	-34.4	23.9	0.00e+00	0	29	0	502267904	40	6014
2026-01-12 18:23:06.44	18.72	9.58	-33.5	-34.2	24.1	0.00e+00	0	29	0	507510784	40	5878
2026-01-12 18:23:07.45	18.65	9.66	-33.6	-34.3	24.1	0.00e+00	0	29	0	513802240	40	5920
2026-01-12 18:23:08.46	18.58	9.74	-33.5	-34.2	24.2	0.00e+00	0	29	0	519045120	40	5842
2026-01-12 18:23:09.47	18.51	9.82	-33.4	-34.1	24.2	0.00e+00	0	29	0	525336576	40	5800
2026-01-12 18:23:10.48	18.43	9.90	-33.4	-34.1	24.2	0.00e+00	0	29	0	530579456	40	5812
2026-01-12 18:23:11.49	18.36	9.98	-33.4	-34.1	24.2	0.00e+00	0	29	0	535822336	40	5784
2026-01-12 18:23:12.50	18.29	10.06	-33.5	-34.2	24.1	0.00e+00	0	29	0	542113792	40	5864
2026-01-12 18:23:13.51	18.21	10.14	-33.6	-34.3	24.1	0.00e+00	0	29	0	547356672	40	5927
2026-01-12 18:23:14.52	18.14	10.22	-33.3	-34.0	24.3	0.00e+00	0	29	0	553648128	40	5747
2026-01-12 18:23:15.53	18.06	10.30	-33.2	-33.9	24.4	0.00e+00	0	29	0	558891008	40	5643
2026-01-12 18:23:16.54	17.99	10.38	-33.3	-34.0	24.4	0.00e+00	0	29	0	565182464	40	5716
2026-01-12 18:23:17.55	17.91	10.46	-33.0	-33.7	24.6	0.00e+00	0	29	0	570425344	40	5564
2026-01-12 18:23:18.56	17.83	10.54	-33.1	-33.8	24.6	0.00e+00	0	29	0	576716800	40	5612
2026-01-12 18:23:19.57	17.76	10.63	-33.1	-33.8	24.6	0.00e+00	0	29	0	581959680	40	5569
2026-01-12 18:23:20.58	17.68	10.71	-32.9	-33.6	24.7	0.00e+00	0	29	0	587202560	40	5487
2026-01-12 18:23:21.59	17.60	10.79	-33.1	-33.8	24.6	0.00e+00	0	29	0	593494016	40	5587
2026-01-12 18:23:22.60	17.52	10.87	-33.0	-33.7	24.6	0.00e+00	0	29	0	598736896	40	5525
2026-01-12 18:23:23.61	17.44	10.95	-32.9	-33.6	24.7	0.00e+00	0	29	0	605028352	40	5454
2026-01-12 18:23:24.62	17.36	11.04	-33.0	-33.7	24.6	0.00e+00	0	29	0	610271232	40	5538
2026-01-12 18:23:25.64	17.28	11.12	-32.9	-33.6	24.8	0.00e+00	0	29	0	615514112	40	5459
2026-01-12 18:23:26.65	17.20	11.20	-32.9	-33.6	24.8	0.00e+00	0	29	0	621805568	40	5454
2026-01-12 18:23:27.66	17.12	11.29	-32.8	-33.5	24.8	0.00e+00	0	29	0	627048448	40	5432
2026-01-12 18:23:28.67	17.04	11.37	-32.8	-33.5	24.9	0.00e+00	0	29	0	633339904	40	5412
2026-01-12 18:23:29.68	16.96	11.45	-32.9	-33.6	24.7	0.00e+00	0	29	0	638582784	40	5471
2026-01-12 18:23:30.69	16.88	11.54	-32.8	-33.5	24.9	0.00e+00	0	29	0	643825664	40	5383
2026-01-12 18:23:31.70	16.79	11.62	-32.8	-33.5	24.9	0.00e+00	0	29	0	650117120	38	6038
2026-01-12 18:23:32.71	16.71	11.70	-32.8	-33.5	24.9	0.00e+00	0	29	0	655360000	38	6071
2026-01-12 18:23:33.72	16.63	11.79	-32.8	-33.5	24.9	0.00e+00	0	29	0	661651456	38	6049
2026-01-12 18:23:34.73	16.54	11.87	-32.9	-33.6	24.9	0.00e+00	0	29	0	666894336	38	6153
2026-01-12 18:23:35.74	16.46	11.96	-32.7	-33.4	25.0	0.00e+00	0	29	0	673185792	38	6011
2026-01-12 18:23:36.75	16.37	12.04	-32.7	-33.4	25.0	0.00e+00	0	29	0	678428672	38	5975
2026-01-12 18:23:37.76	16.29	12.13	-32.7	-33.4	25.0	0.00e+00	0	29	0	684720128	38	5990
2026-01-12 18:23:38.77	16.20	12.21	-32.6	-33.3	25.1	0.00e+00	0	29	0	689963008	38	5937
2026-01-12 18:23:39.78	16.11	12.30	-32.8	-33.5	24.9	0.00e+00	0	29	0	695205888	38	6049
2026-01-12 18:23:40.79	16.03	12.39	-32.7	-33.4	25.0	0.00e+00	0	29	0	701497344	38	6001
2026-01-12 18:23:41.80	15.94	12.47	-32.8	-33.5	24.9	0.00e+00	0	29	0	706740224	38	6035
2026-01-12 18:23:42.81	15.85	12.56	-32.7	-33.4	24.9	0.00e+00	0	29	0	713031680	38	6021
2026-01-12 18:23:43.82	15.76	12.65	-32.8	-33.6	24.9	0.00e+00	0	29	0	718274560	38	6112
2026-01-12 18:23:44.83	15.67	12.73	-32.9	-33.5	24.9	0.00e+00	0	29	0	723517440	38	6101
2026-01-12 18:23:45.84	15.58	12.82	-32.9	-33.6	24.9	0.00e+00	0	29	0	729808896	38	6112
2026-01-12 18:23:46.85	15.49	12.91	-32.9	-33.6	24.9	0.00e+00	0	29	0	735051776	38	6168
2026-01-12 18:23:47.85	15.40	12.99	-32.7	-33.5	25.1	0.00e+00	0	29	0	741343232	38	6036
2026-01-12 18:23:48.86	15.31	13.08	-32.8	-33.5	25.0	0.00e+00	0	29	0	746586112	38	6081
2026-01-12 18:23:49.87	15.22	13.17	-32.7	-33.3	25.0	0.00e+00	0	29	0	751828992	38	5964
2026-01-12 18:23:50.88	15.12	13.26	-32.5	-33.2	25.2	0.00e+00	0	29	0	758120448	38	5851
2026-01-12 18:23:51.89	15.03	13.35	-32.6	-33.2	25.2	0.00e+00	0	29	0	763363328	38	5896
2026-01-12 18:23:52.90	14.94	13.44	-32.4	-33.1	25.3	0.00e+00	0	29	0	769654784	38	5815
2026-01-12 18:23:53.91	14.84	13.53	-32.4	-33.1	25.3	0.00e+00	0	29	0	774897664	38	5801
2026-01-12 18:23:54.92	14.75	13.62	-32.3	-33.0	25.4	0.00e+00	0	29	0	781189120	38	5732
2026-01-12 18:23:55.93	14.65	13.71	-32.4	-33.1	25.3	0.00e+00	0	29	0	786432000	38	5821
2026-01-12 18:23:56.94	14.55	13.80	-32.5	-33.2	25.3	0.00e+00	0	29	0	791674880	38	5839
2026-01-12 18:23:57.95	14.46	13.89	-32.3	-33.0	25.4	0.00e+00	0	29	0	797966336	38	5741
2026-01-12 18:23:58.96	14.36	13.98	-32.4	-33.1	25.4	0.00e+00	0	29	0	803209216	38	5762
2026-01-12 18:23:59.97	14.26	14.07	-32.4	-33.1	25.3	0.00e+00	0	29	0	809500672	38	5788
2026-01-12 18:24:00.98	14.16	14.16	-32.4	-33.1	25.3	0.00e+00	0	29	0	814743552	38	5792
2026-01-12 18:24:01.99	14.06	14.25	-32.4	-33.1	25.4	0.00e+00	0	29	0	819986432	38	5762
2026-01-12 18:24:03.00	13.96	14.34	-32.4	-33.1	25.4	0.00e+00	0	29	0	826277888	38	5773
2026-01-12 18:24:04.00	13.86	14.43	-32.3	-32.9	25.4	0.00e+00	0	29	0	831520768	38	5676
2026-01-12 18:24:05.01	13.76	14.52	-32.2	-32.9	25.6	0.00e+00	0	29	0	837812224	38	5659
2026-01-12 18:24:06.02	13.66	14.62	-32.3	-33.0	25.4	0.00e+00	0	29	0	843055104	38	5703
2026-01-12 18:24:07.03	13.55	14.71	-32.1	-32.8	25.6	0.00e+00	0	29	0	848297984	38	5590
2026-01-12 18:24:08.04	13.45	14.80	-32.3	-33.0	25.4	0.00e+00	0	29	0	854589440	38	5701
2026-01-12 18:24:09.05	13.35	14.89	-32.1	-32.7	25.6	0.00e+00	0	29	0	859832320	38	5561
2026-01-12 18:24:10.06	13.24	14.99	-32.1	-32.8	25.6	0.00e+00	0	29	0	866123776	38	5595
2026-01-12 18:24:11.07	13.14	15.08	-32.1	-32.7	25.7	0.00e+00	0	29	0	871366656	38	5543
2026-01-12 18:24:12.08	13.03	15.18	-32.0	-32.7	25.7	0.00e+00	0	29	0	877658112	38	5536
2026-01-12 18:24:13.08	12.92	15.27	-31.9	-32.6	25.8	0.00e+00	0	29	0	882900992	38	5483
2026-01-12 18:24:14.09	12.82	15.36	-32.0	-32.7	25.7	0.00e+00	0	29	0	888143872	38	5511
2026-01-12 18:24:15.10	12.71	15.46	-32.0	-32.7	25.8	0.00e+00	0	29	0	894435328	38	5509
2026-01-12 18:24:16.11	12.60	15.55	-31.9	-32.5	25.9	0.00e+00	0	29	0	899678208	38	5434
2026-01-12 18:24:17.12	12.49	15.65	-31.9	-32.6	25.8	0.00e+00	0	29	0	905969664	38	5452
2026-01-12 18:24:18.13	12.38	15.74	-32.1	-32.7	25.7	0.00e+00	0	29	0	911212544	38	5545
2026-01-12 18:24:19.14	12.27	15.84	-31.9	-32.6	25.8	0.00e+00	0	29	0	916455424	38	5470
2026-01-12 18:24:20.15	12.16	15.93	-31.9	-32.6	25.8	0.00e+00	0	29	0	922746880	38	5480
2026-01-12 18:24:21.16	12.04	16.03	-32.0	-32.7	25.8	0.00e+00	0	29	0	927989760	38	5515
2026-01-12 18:24:22.17	11.93	16.13	-32.0	-32.7	25.8	0.00e+00	0	29	0	934281216	38	5516
2026-01-12 18:24:23.18	11.81	16.22	-31.9	-32.6	25.8	0.00e+00	0	29	0	939524096	38	5465
2026-01-12 18:24:24.19	11.70	16.32	-32.0	-32.6	25.8	0.00e+00	0	29	0	944766976	38	5495
2026-01-12 18:24:25.20	11.58	16.42	-31.7	-32.4	26.0	0.00e+00	0	29	0	951058432	38	5317
2026-01-12 18:24:26.21	11.47	16.52	-31.8	-32.4	25.9	0.00e+00	0	29	0	956301312	36	6020
2026-01-12 18:24:27.22	11.35	16.61	-31.7	-32.3	26.1	0.00e+00	0	29	0	962592768	36	5948
2026-01-12 18:24:28.22	11.23	16.71	-31.6	-32.2	26.1	0.00e+00	0	29	0	967835648	36	5885
2026-01-12 18:24:29.23	11.11	16.81	-31.5	-32.2	26.2	0.00e+00	0	29	0	974127104	36	5831
2026-01-12 18:24:30.24	10.99	16.91	-31.7	-32.4	26.0	0.00e+00	0	29	0	979369984	36	6002
2026-01-12 18:24:31.25	10.87	17.01	-31.5	-32.2	26.3	0.00e+00	0	29	0	985661440	36	5831
2026-01-12 18:24:32.26	10.75	17.11	-31.4	-32.0	26.3	0.00e+00	0	29	0	990904320	36	5732
2026-01-12 18:24:33.27	10.63	17.20	-31.3	-32.0	26.3	0.00e+00	0	29	0	996147200	36	5733
2026-01-12 18:24:34.28	10.51	17.30	-31.4	-32.1	26.3	0.00e+00	0	29	0	1002438656	36	5767
2026-01-12 18:24:35.29	10.38	17.40	-31.3	-32.0	26.4	0.00e+00	0	29	0	1007681536	36	5708
2026-01-12 18:24:36.30	10.26	17.50	-31.3	-31.9	26.4	0.00e+00	0	29	0	1013972992	36	5677
2026-01-12 18:24:37.31	10.13	17.60	-31.4	-32.1	26.2	0.00e+00	0	29	0	1019215872	36	5782
2026-01-12 18:24:38.32	10.01	17.71	-31.2	-31.9	26.4	0.00e+00	0	29	0	1024458752	36	5652
2026-01-12 18:24:39.33	9.88	17.81	-31.4	-32.0	26.3	0.00e+00	0	29	0	1030750208	36	5725
2026-01-12 18:24:40.34	9.75	17.91	-31.3	-31.9	26.4	0.00e+00	0	29	0	1035993088	36	5673
2026-01-12 18:24:41.35	9.62	18.01	-31.3	-31.9	26.4	0.00e+00	0	29	0	1042284544	36	5682
2026-01-12 18:24:42.36	9.49	18.11	-31.2	-31.9	26.4	0.00e+00	0	29	0	1047527424	36	5656
2026-01-12 18:24:43.37	9.36	18.21	-31.3	-32.0	26.4	0.00e+00	0	29	0	1052770304	36	5718
2026-01-12 18:24:44.38	9.23	18.32	-31.2	-31.9	26.5	0.00e+00	0	29	0	1059061760	36	5637
2026-01-12 18:24:45.39	9.10	18.42	-31.3	-32.0	26.4	0.00e+00	0	29	0	1064304640	36	5742
2026-01-12 18:24:46.40	8.96	18.52	-31.1	-31.7	26.6	0.00e+00	0	29	0	1070596096	36	5564
2026-01-12 18:24:47.41	8.83	18.62	-31.0	-31.7	26.7	0.00e+00	0	29	0	1075838976	36	5504
2026-01-12 18:24:48.42	8.69	18.73	-31.0	-31.7	26.7	0.00e+00	0	29	0	1082130432	36	5504
2026-01-12 18:24:49.43	8.56	18.83	-30.9	-31.6	26.7	0.00e+00	0	29	0	1087373312	36	5476
2026-01-12 18:24:50.44	8.42	18.93	-30.8	-31.4	26.9	0.00e+00	0	29	0	1092616192	36	5332
2026-01-12 18:24:51.45	8.28	19.04	-30.9	-31.6	26.8	0.00e+00	0	29	0	1098907648	36	5454
2026-01-12 18:24:52.46	8.14	19.14	-31.0	-31.6	26.8	0.00e+00	0	29	0	1104150528	36	5465
2026-01-12 18:24:53.46	8.00	19.25	-30.8	-31.5	26.8	0.00e+00	0	29	0	1110441984	36	5382
2026-01-12 18:24:54.47	7.86	19.35	-31.0	-31.6	26.7	0.00e+00	0	29	0	1115684864	36	5471
2026-01-12 18:24:55.48	7.72	19.46	-31.0	-31.6	26.7	0.00e+00	0	29	0	1120927744	36	5498
2026-01-12 18:24:56.49	7.58	19.56	-30.9	-31.5	26.8	0.00e+00	0	29	0	1127219200	36	5427
2026-01-12 18:24:57.50	7.43	19.67	-31.0	-31.7	26.7	0.00e+00	0	29	0	1132462080	36	5523
2026-01-12 18:24:58.51	7.29	19.77	-31.0	-31.7	26.6	0.00e+00	0	29	0	1138753536	36	5534
2026-01-12 18:24:59.52	7.14	19.88	-30.8	-31.5	26.8	0.00e+00	0	29	0	1143996416	36	5383
2026-01-12 18:25:00.53	6.99	19.99	-30.8	-31.4	27.0	0.00e+00	0	29	0	1149239296	36	5359
2026-01-12 18:25:01.54	6.85	20.09	-30.8	-31.5	26.9	0.00e+00	0	29	0	1155530752	36	5401
2026-01-12 18:25:02.55	6.70	20.20	-30.7	-31.3	26.9	0.00e+00	0	29	0	1160773632	34	5945
2026-01-12 18:25:03.56	6.55	20.31	-30.7	-31.4	27.0	0.00e+00	0	29	0	1167065088	34	6001
2026-01-12 18:25:04.57	6.39	20.41	-30.9	-31.5	26.8	0.00e+00	0	29	0	1172307968	34	6063
2026-01-12 18:25:05.58	6.24	20.52	-30.6	-31.2	27.0	0.00e+00	0	29	0	1178599424	34	5890
2026-01-12 18:25:06.59	6.09	20.63	-30.6	-31.3	27.0	0.00e+00	0	29	0	1183842304	34	5936
2026-01-12 18:25:07.60	5.93	20.74	-30.6	-31.3	27.1	0.00e+00	0	29	0	1189085184	34	5900
2026-01-12 18:25:08.61	5.78	20.85	-30.6	-31.2	27.1	0.00e+00	0	29	0	1195376640	34	5880
2026-01-12 18:25:09.62	5.62	20.96	-30.6	-31.2	27.1	0.00e+00	0	29	0	1200619520	34	5854
2026-01-12 18:25:10.62	5.46	21.06	-30.5	-31.2	27.2	0.00e+00	0	29	0	1206910976	34	5835
2026-01-12 18:25:11.63	5.30	21.17	-30.4	-31.0	27.3	0.00e+00	0	29	0	1212153856	34	5716
2026-01-12 18:25:12.64	5.14	21.28	-30.4	-31.0	27.3	0.00e+00	0	29	0	1217396736	34	5752
2026-01-12 18:25:13.65	4.98	21.39	-30.3	-30.9	27.3	0.00e+00	0	29	0	1223688192	34	5664
2026-01-12 18:25:14.66	4.82	21.50	-30.4	-31.0	27.3	0.00e+00	0	29	0	1228931072	34	5721
2026-01-12 18:25:15.67	4.65	21.61	-30.3	-31.0	27.3	0.00e+00	0	29	0	1235222528	34	5698
2026-01-12 18:25:16.68	4.49	21.72	-30.4	-31.0	27.2	0.00e+00	0	29	0	1240465408	34	5748
2026-01-12 18:25:17.69	4.32	21.83	-30.4	-31.0	27.3	0.00e+00	0	29	0	1245708288	34	5710
2026-01-12 18:25:18.70	4.15	21.94	-30.4	-31.0	27.2	0.00e+00	0	29	0	1251999744	34	5748
2026-01-12 18:25:19.71	3.99	22.05	-30.3	-30.9	27.4	0.00e+00	0	29	0	1257242624	34	5678
2026-01-12 18:25:20.72	3.82	22.16	-30.4	-31.0	27.3	0.00e+00	0	29	0	1263534080	34	5716
2026-01-12 18:25:21.72	3.65	22.28	-30.3	-30.9	27.2	0.00e+00	0	29	0	1268776960	34	5687
2026-01-12 18:25:22.73	3.47	22.39	-30.4	-31.0	27.2	0.00e+00	0	29	0	1275068416	34	5738
2026-01-12 18:25:23.74	3.30	22.50	-30.0	-30.6	27.6	0.00e+00	0	29	0	1280311296	34	5472
2026-01-12 18:25:24.75	3.12	22.61	-29.9	-30.6	27.6	0.00e+00	0	29	0	1286602752	34	5451
2026-01-12 18:25:25.76	2.95	22.72	-30.0	-30.6	27.6	0.00e+00	0	29	0	1291845632	34	5479
2026-01-12 18:25:26.77	2.77	22.84	-29.9	-30.5	27.6	0.00e+00	0	29	0	1297088512	34	5403
2026-01-12 18:25:27.78	2.59	22.95	-30.0	-30.7	27.5	0.00e+00	0	29	0	1303379968	34	5525
2026-01-12 18:25:28.79	2.41	23.06	-30.1	-30.7	27.4	0.00e+00	0	29	0	1308622848	34	5550
2026-01-12 18:25:29.80	2.23	23.17	-30.1	-30.7	27.5	0.00e+00	0	29	0	1313865728	34	5560
2026-01-12 18:25:30.81	2.05	23.29	-30.2	-30.9	27.3	0.00e+00	0	29	0	1320157184	34	5659
2026-01-12 18:25:31.82	1.86	23.40	-30.1	-30.7	27.4	0.00e+00	0	29	0	1325400064	34	5551
2026-01-12 18:25:32.83	1.67	23.51	-30.3	-30.9	27.3	0.00e+00	0	29	0	1331691520	34	5674
2026-01-12 18:25:33.84	1.49	23.63	-30.1	-30.7	27.5	0.00e+00	0	29	0	1336934400	34	5534
2026-01-12 18:25:34.85	1.30	23.74	-29.9	-30.5	27.6	0.00e+00	0	29	0	1343225856	34	5433
2026-01-12 18:25:35.86	1.11	23.85	-29.7	-30.3	27.9	0.00e+00	0	29	0	1348468736	32	5964
2026-01-12 18:25:36.87	0.92	23.97	-29.7	-30.3	27.8	0.00e+00	0	28	0	1353711616	32	5943
2026-01-12 18:25:37.88	0.72	24.08	-29.6	-30.2	27.9	0.00e+00	0	29	0	1360003072	32	5848
2026-01-12 18:25:38.89	0.53	24.20	-29.5	-30.1	27.9	0.00e+00	0	29	0	1365245952	32	5796
2026-01-12 18:25:39.90	0.33	24.31	-29.7	-30.3	27.8	0.00e+00	0	29	0	1371537408	32	5936
2026-01-12 18:25:40.91	0.14	24.43	-29.7	-30.3	27.8	0.00e+00	0	29	0	1376780288	32	5948
2026-01-12 18:25:41.92	359.94	24.54	-29.8	-30.5	27.7	0.00e+00	0	29	0	1383071744	32	6047
2026-01-12 18:25:42.92	359.74	24.65	-30.0	-30.6	27.6	0.00e+00	0	29	0	1388314624	32	6154
2026-01-12 18:25:43.93	359.54	24.77	-30.0	-30.7	27.6	0.00e+00	0	29	0	1393557504	32	6177
2026-01-12 18:25:44.94	359.34	24.88	-29.9	-30.5	27.6	0.00e+00	0	29	0	1399848960	32	6100
2026-01-12 18:25:45.95	359.13	25.00	-29.9	-30.5	27.7	0.00e+00	0	29	0	1405091840	32	6087
2026-01-12 18:25:46.96	358.92	25.12	-29.8	-30.4	27.7	0.00e+00	0	29	0	1411383296	32	6006
2026-01-12 18:25:47.97	358.72	25.23	-29.8	-30.4	27.7	0.00e+00	0	29	0	1416626176	32	5999
2026-01-12 18:25:48.98	358.51	25.35	-29.8	-30.4	27.8	0.00e+00	0	29	0	1421869056	32	5999
2026-01-12 18:25:49.99	358.30	25.46	-29.7	-30.3	27.8	0.00e+00	0	29	0	1428160512	32	5940
2026-01-12 18:25:51.00	358.08	25.58	-29.4	-30.0	27.9	0.00e+00	0	29	0	1433403392	32	5721
2026-01-12 18:25:52.01	357.87	25.69	-29.4	-30.0	28.0	0.00e+00	0	29	0	1439694848	32	5757
2026-01-12 18:25:53.02	357.66	25.81	-29.4	-30.0	28.1	0.00e+00	0	29	0	1444937728	32	5733
2026-01-12 18:25:54.03	357.44	25.92	-29.4	-30.0	28.1	0.00e+00	0	29	0	1450180608	32	5736
2026-01-12 18:25:55.04	357.22	26.04	-29.3	-29.9	28.1	0.00e+00	0	29	0	1456472064	32	5681
2026-01-12 18:25:56.05	357.00	26.16	-29.3	-30.0	28.0	0.00e+00	0	29	0	1461714944	32	5706
2026-01-12 18:25:57.06	356.78	26.27	-29.4	-30.0	28.1	0.00e+00	0	29	0	1468006400	32	5752
2026-01-12 18:25:58.07	356.55	26.39	-29.6	-30.2	28.0	0.00e+00	0	28	0	1473249280	32	5863
2026-01-12 18:25:59.07	356.33	26.50	-29.6	-30.3	27.8	0.00e+00	0	28	0	1479540736	32	5903
2026-01-12 18:26:00.08	356.10	26.62	-29.5	-30.2	27.9	0.00e+00	0	28	0	1484783616	32	5831
2026-01-12 18:26:01.09	355.87	26.74	-29.6	-30.2	28.0	0.00e+00	0	29	0	1490026496	32	5881
2026-01-12 18:26:02.10	355.64	26.85	-29.6	-30.2	27.9	0.00e+00	0	29	0	1496317952	32	5867
2026-01-12 18:26:03.11	355.41	26.97	-29.4	-30.0	28.1	0.00e+00	0	28	0	1501560832	32	5744
2026-01-12 18:26:04.12	355.18	27.08	-29.3	-29.9	28.1	0.00e+00	0	28	0	1507852288	32	5676
2026-01-12 18:26:05.13	354.94	27.20	-29.3	-29.9	28.2	0.00e+00	0	28	0	1513095168	32	5691
2026-01-12 18:26:06.14	354.70	27.31	-29.2	-29.8	28.2	0.00e+00	0	28	0	1518338048	32	5602
2026-01-12 18:26:07.15	354.47	27.43	-29.2	-29.8	28.2	0.00e+00	0	28	0	1524629504	32	5603
2026-01-12 18:26:08.16	354.22	27.55	-29.1	-29.7	28.3	0.00e+00	0	29	0	1529872384	32	5563
2026-01-12 18:26:09.17	353.98	27.66	-29.2	-29.8	28.3	0.00e+00	0	28	0	1536163840	32	5585
2026-01-12 18:26:10.18	353.74	27.78	-29.2	-29.8	28.2	0.00e+00	0	28	0	1541406720	32	5623
2026-01-12 18:26:11.19	353.49	27.89	-29.2	-29.8	28.3	0.00e+00	0	29	0	1546649600	32	5619
2026-01-12 18:26:12.20	353.24	28.01	-29.2	-29.9	28.1	0.00e+00	0	29	0	1552941056	32	5641
2026-01-12 18:26:13.21	352.99	28.12	-29.2	-29.8	28.2	0.00e+00	0	29	0	1558183936	32	5618
2026-01-12 18:26:14.22	352.74	28.24	-29.1	-29.7	28.4	0.00e+00	0	29	0	1564475392	32	5539
2026-01-12 18:26:15.23	352.49	28.35	-29.2	-29.8	28.3	0.00e+00	0	29	0	1569718272	32	5623
2026-01-12 18:26:16.24	352.23	28.47	-29.0	-29.6	28.4	0.00e+00	0	28	0	1576009728	32	5489
2026-01-12 18:26:17.25	351.98	28.58	-29.1	-29.7	28.4	0.00e+00	0	29	0	1581252608	32	5503
2026-01-12 18:26:18.25	351.72	28.70	-29.2	-29.8	28.2	0.00e+00	0	28	0	1587544064	32	5576
2026-01-12 18:26:19.26	351.46	28.81	-29.2	-29.9	28.3	0.00e+00	0	28	0	1592786944	32	5633
2026-01-12 18:26:20.27	351.20	28.92	-29.2	-29.9	28.2	0.00e+00	0	28	0	1598029824	32	5652
2026-01-12 18:26:21.28	350.93	29.04	-29.2	-29.9	28.2	0.00e+00	0	28	0	1604321280	32	5645
2026-01-12 18:26:22.29	350.67	29.15	-29.3	-29.9	28.2	0.00e+00	0	28	0	1609564160	32	5655
2026-01-12 18:26:23.30	350.40	29.26	-29.4	-30.1	28.1	0.00e+00	0	28	0	1615855616	32	5762
2026-01-12 18:26:24.31	350.13	29.38	-29.4	-30.0	28.1	0.00e+00	0	28	0	1621098496	32	5737
2026-01-12 18:26:25.32	349.85	29.49	-29.3	-30.0	28.2	0.00e+00	0	28	0	1626341376	32	5716
2026-01-12 18:26:26.33	349.58	29.60	-29.2	-29.9	28.2	0.00e+00	0	28	0	1632632832	32	5653
2026-01-12 18:26:27.34	349.30	29.71	-29.2	-29.9	28.3	0.00e+00	0	28	0	1637875712	32	5633
2026-01-12 18:26:28.35	349.03	29.83	-29.2	-29.8	28.3	0.00e+00	0	28	0	1644167168	32	5605
2026-01-12 18:26:29.36	348.75	29.94	-29.1	-29.7	28.3	0.00e+00	0	28	0	1649410048	32	5556
2026-01-12 18:26:30.37	348.46	30.05	-29.1	-29.7	28.3	0.00e+00	0	28	0	1654652928	32	5541
2026-01-12 18:26:31.38	348.18	30.16	-29.0	-29.7	28.3	0.00e+00	0	28	0	1660944384	32	5506
2026-01-12 18:26:32.39	347.89	30.27	-28.9	-29.5	28.5	0.00e+00	0	28	0	1666187264	32	5435
2026-01-12 18:26:33.40	347.61	30.38	-29.0	-29.6	28.4	0.00e+00	0	28	0	1672478720	32	5467
2026-01-12 18:26:34.41	347.32	30.49	-29.2	-29.8	28.3	0.00e+00	0	28	0	1677721600	32	5615
2026-01-12 18:26:35.42	347.02	30.60	-29.0	-29.6	28.4	0.00e+00	0	28	0	1684013056	32	5502
2026-01-12 18:26:36.43	346.73	30.71	-29.0	-29.6	28.3	0.00e+00	0	28	0	1689255936	32	5494
2026-01-12 18:26:37.44	346.43	30.82	-29.1	-29.7	28.2	0.00e+00	0	28	0	1694498816	32	5557
2026-01-12 18:26:38.45	346.14	30.92	-29.1	-29.7	28.3	0.00e+00	0	28	0	1700790272	32	5548
2026-01-12 18:26:39.46	345.84	31.03	-28.9	-29.6	28.4	0.00e+00	0	28	0	1706033152	32	5450
2026-01-12 18:26:40.46	345.54	31.14	-28.8	-29.4	28.4	0.00e+00	0	28	0	1712324608	32	5372
2026-01-12 18:26:41.47	345.23	31.24	-28.7	-29.3	28.6	0.00e+00	0	28	0	1717567488	30	5953
2026-01-12 18:26:42.48	344.93	31.35	-28.8	-29.4	28.5	0.00e+00	0	28	0	1722810368	30	5967
2026-01-12 18:26:43.49	344.62	31.45	-28.9	-29.5	28.6	0.00e+00	0	28	0	1729101824	30	6039
2026-01-12 18:26:44.50	344.31	31.56	-28.8	-29.4	28.4	0.00e+00	0	28	0	1734344704	30	5977
2026-01-12 18:26:45.51	344.00	31.66	-28.9	-29.5	28.4	0.00e+00	0	28	0	1740636160	30	6088
2026-01-12 18:26:46.52	343.68	31.77	-28.8	-29.4	28.5	0.00e+00	0	28	0	1745879040	30	6016
2026-01-12 18:26:47.53	343.37	31.87	-28.8	-29.4	28.6	0.00e+00	0	28	0	1751121920	30	6000
2026-01-12 18:26:48.54	343.05	31.97	-28.8	-29.4	28.6	0.00e+00	0	28	0	1757413376	30	6024
2026-01-12 18:26:49.55	342.73	32.07	-28.9	-29.5	28.5	0.00e+00	0	28	0	1762656256	30	6066
2026-01-12 18:26:50.56	342.40	32.18	-28.6	-29.2	28.7	0.00e+00	0	28	0	1768947712	30	5854
2026-01-12 18:26:51.57	342.08	32.28	-28.7	-29.3	28.6	0.00e+00	0	28	0	1774190592	30	5957
2026-01-12 18:26:52.58	341.75	32.37	-28.9	-29.6	28.4	0.00e+00	0	28	0	1780482048	30	6110
2026-01-12 18:26:53.59	341.43	32.47	-28.9	-29.5	28.5	0.00e+00	0	28	0	1785724928	30	6042
2026-01-12 18:26:54.60	341.10	32.57	-28.8	-29.4	28.5	0.00e+00	0	28	0	1792016384	30	6007
2026-01-12 18:26:55.61	340.76	32.67	-28.7	-29.4	28.6	0.00e+00	0	28	0	1797259264	30	5968
2026-01-12 18:26:56.62	340.43	32.77	-28.6	-29.2	28.7	0.00e+00	0	28	0	1802502144	30	5887
2026-01-12 18:26:57.63	340.09	32.86	-28.8	-29.4	28.6	0.00e+00	0	28	0	1808793600	30	5984
2026-01-12 18:26:58.64	339.75	32.96	-28.9	-29.5	28.5	0.00e+00	0	28	0	1814036480	30	6070
2026-01-12 18:26:59.65	339.41	33.05	-28.9	-29.5	28.5	0.00e+00	0	28	0	1820327936	30	6054
2026-01-12 18:27:00.66	339.07	33.14	-29.2	-29.8	28.4	0.00e+00	0	28	0	1825570816	30	6267
2026-01-12 18:27:01.67	338.73	33.24	-29.0	-29.6	28.5	0.00e+00	0	28	0	1830813696	30	6133
2026-01-12 18:27:02.68	338.38	33.33	-28.8	-29.4	28.6	0.00e+00	0	28	0	1837105152	30	5995
2026-01-12 18:27:03.68	338.04	33.42	-28.9	-29.5	28.6	0.00e+00	0	28	0	1842348032	30	6046
2026-01-12 18:27:04.70	337.68	33.51	-28.8	-29.4	28.5	0.00e+00	0	28	0	1847590912	30	6033
2026-01-12 18:27:05.71	337.33	33.60	-28.8	-29.4	28.6	0.00e+00	0	28	0	1853882368	30	6011
2026-01-12 18:27:06.72	336.98	33.68	-28.8	-29.5	28.5	0.00e+00	0	28	0	1859125248	30	6038
2026-01-12 18:27:07.73	336.62	33.77	-28.8	-29.5	28.6	0.00e+00	0	28	0	1865416704	30	6038
2026-01-12 18:27:08.74	336.26	33.86	-28.8	-29.5	28.7	0.00e+00	0	29	0	1870659584	30	6034
2026-01-12 18:27:09.74	335.91	33.94	-28.9	-29.5	28.5	0.00e+00	0	28	0	1876951040	30	6075
2026-01-12 18:27:10.75	335.54	34.02	-28.7	-29.3	28.7	0.00e+00	0	28	0	1882193920	30	5936
2026-01-12 18:27:11.76	335.18	34.10	-28.7	-29.3	28.8	0.00e+00	0	28	0	1888485376	30	5952
2026-01-12 18:27:12.77	334.82	34.19	-28.6	-29.2	28.7	0.00e+00	0	28	0	1893728256	30	5881
2026-01-12 18:27:13.78	334.45	34.27	-28.4	-29.0	28.8	0.00e+00	0	28	0	1898971136	30	5754
2026-01-12 18:27:14.79	334.08	34.34	-28.5	-29.1	28.7	0.00e+00	0	28	0	1905262592	30	5818
2026-01-12 18:27:15.80	333.71	34.42	-28.7	-29.3	28.7	0.00e+00	0	28	0	1910505472	30	5916
2026-01-12 18:27:16.81	333.34	34.50	-28.8	-29.4	28.5	0.00e+00	0	28	0	1916796928	30	6017
2026-01-12 18:27:17.82	332.96	34.57	-28.8	-29.4	28.6	0.00e+00	0	28	0	1922039808	30	6000
2026-01-12 18:27:18.83	332.59	34.65	-28.8	-29.4	28.6	0.00e+00	0	28	0	1927282688	30	5993
2026-01-12 18:27:19.84	332.21	34.72	-28.7	-29.3	28.7	0.00e+00	0	28	0	1933574144	30	5963
2026-01-12 18:27:20.85	331.83	34.79	-28.7	-29.2	28.7	0.00e+00	0	28	0	1938817024	30	5891
2026-01-12 18:27:21.86	331.45	34.86	-28.7	-29.4	28.6	0.00e+00	0	28	0	1945108480	30	5976
2026-01-12 18:27:22.87	331.06	34.93	-28.9	-29.5	28.5	0.00e+00	0	28	0	1950351360	30	6043
2026-01-12 18:27:23.88	330.68	35.00	-28.7	-29.3	28.6	0.00e+00	0	28	0	1955594240	30	5935
2026-01-12 18:27:24.89	330.29	35.07	-28.5	-29.1	28.8	0.00e+00	0	28	0	1961885696	30	5828
2026-01-12 18:27:25.90	329.91	35.13	-28.5	-29.1	28.8	0.00e+00	0	28	0	1967128576	30	5820
2026-01-12 18:27:26.90	329.52	35.20	-28.6	-29.1	28.8	0.00e+00	0	28	0	1973420032	30	5823
2026-01-12 18:27:27.91	329.13	35.26	-28.7	-29.3	28.7	0.00e+00	0	28	0	1978662912	30	5920
2026-01-12 18:27:28.92	328.74	35.32	-28.9	-29.5	28.4	0.00e+00	0	28	0	1984954368	30	6046
2026-01-12 18:27:29.93	328.34	35.38	-28.6	-29.2	28.7	0.00e+00	0	28	0	1990197248	30	5860
2026-01-12 18:27:30.94	327.95	35.44	-28.7	-29.3	28.7	0.00e+00	0	28	0	1995440128	30	5913
2026-01-12 18:27:31.95	327.55	35.49	-28.8	-29.4	28.6	0.00e+00	0	28	0	2001731584	30	6001
2026-01-12 18:27:32.96	327.15	35.55	-28.8	-29.4	28.5	0.00e+00	0	28	0	2006974464	30	6003
2026-01-12 18:27:33.97	326.76	35.60	-28.9	-29.6	28.5	0.00e+00	0	28	0	2013265920	30	6139
2026-01-12 18:27:34.98	326.35	35.65	-29.0	-29.7	28.3	0.00e+00	0	28	0	2018508800	30	6195
2026-01-12 18:27:35.99	325.95	35.70	-28.9	-29.5	28.6	0.00e+00	0	28	0	2023751680	30	6065
2026-01-12 18:27:37.00	325.55	35.75	-29.0	-29.6	28.4	0.00e+00	0	28	0	2030043136	30	6154
2026-01-12 18:27:38.01	325.15	35.80	-29.1	-29.7	28.4	0.00e+00	0	28	0	2035286016	30	6231
2026-01-12 18:27:39.02	324.74	35.85	-29.2	-29.8	28.3	0.00e+00	0	28	0	2041577472	30	6281
2026-01-12 18:27:40.03	324.33	35.89	-29.4	-30.0	28.1	0.00e+00	0	28	0	2046820352	30	6460
2026-01-12 18:27:41.04	323.93	35.93	-28.9	-29.5	28.5	0.00e+00	0	28	0	2052063232	30	6098
2026-01-12 18:27:42.05	323.52	35.98	-29.0	-29.6	28.4	0.00e+00	0	28	0	2058354688	30	6136
2026-01-12 18:27:43.06	323.11	36.02	-28.9	-29.5	28.6	0.00e+00	0	28	0	2063597568	30	6103
2026-01-12 18:27:44.06	322.70	36.05	-28.9	-29.5	28.6	0.00e+00	0	28	0	2069889024	30	6075
2026-01-12 18:27:45.07	322.29	36.09	-28.6	-29.2	28.8	0.00e+00	0	28	0	2075131904	30	5854
2026-01-12 18:27:46.08	321.88	36.12	-28.6	-29.2	28.7	0.00e+00	0	28	0	2081423360	30	5855
2026-01-12 18:27:47.09	321.46	36.16	-28.6	-29.2	28.8	0.00e+00	0	28	0	2086666240	30	5864
2026-01-12 18:27:48.10	321.05	36.19	-28.9	-29.6	28.5	0.00e+00	0	28	0	2092957696	30	6112
2026-01-12 18:27:49.11	320.63	36.22	-29.1	-29.8	28.4	0.00e+00	0	28	0	2098200576	30	6263
2026-01-12 18:27:50.12	320.22	36.25	-29.2	-29.8	28.3	0.00e+00	0	28	0	2103443456	30	6268
2026-01-12 18:27:51.13	319.80	36.27	-29.0	-29.6	28.4	0.00e+00	0	28	0	2109734912	30	6160
2026-01-12 18:27:52.14	319.38	36.30	-28.8	-29.3	28.6	0.00e+00	0	28	0	2114977792	30	5958
2026-01-12 18:27:53.15	318.96	36.32	-28.6	-29.2	28.7	0.00e+00	0	28	0	2121269248	30	5860
2026-01-12 18:27:54.16	318.55	36.34	-28.6	-29.2	28.7	0.00e+00	0	28	0	2126512128	30	5874
2026-01-12 18:27:55.17	318.13	36.36	-28.6	-29.2	28.8	0.00e+00	0	28	0	2131755008	30	5844
2026-01-12 18:27:56.19	317.70	36.38	-28.7	-29.4	28.6	0.00e+00	0	28	0	2138046464	30	5969
2026-01-12 18:27:57.20	317.28	36.40	-28.7	-29.3	28.7	0.00e+00	0	28	0	2143289344	30	5947
2026-01-12 18:27:58.21	316.86	36.41	-28.8	-29.4	28.5	0.00e+00	0	28	0	2149580800	30	6011
2026-01-12 18:27:59.21	316.45	36.42	-28.8	-29.5	28.6	0.00e+00	0	28	0	2154823680	30	6044
2026-01-12 18:28:00.22	316.03	36.43	-28.6	-29.2	28.8	0.00e+00	0	28	0	2160066560	30	5873
2026-01-12 18:28:01.23	315.60	36.44	-28.8	-29.4	28.7	0.00e+00	0	28	0	2166358016	30	6019
2026-01-12 18:28:02.24	315.18	36.45	-28.8	-29.4	28.6	0.00e+00	0	28	0	2171600896	30	6004
2026-01-12 18:28:03.25	314.76	36.45	-28.8	-29.4	28.6	0.00e+00	0	28	0	2177892352	30	6020
2026-01-12 18:28:04.26	314.34	36.46	-28.8	-29.4	28.6	0.00e+00	0	28	0	2183135232	30	5997
2026-01-12 18:28:05.27	313.92	36.46	-28.7	-29.3	28.7	0.00e+00	0	28	0	2189426688	30	5913
2026-01-12 18:28:06.28	313.50	36.46	-28.7	-29.4	28.6	0.00e+00	0	28	0	2194669568	30	5983
2026-01-12 18:28:07.29	313.07	36.46	-29.0	-29.6	28.5	0.00e+00	0	28	0	2199912448	30	6134
2026-01-12 18:28:08.30	312.65	36.45	-29.0	-29.7	28.3	0.00e+00	0	28	0	2206203904	30	6178
2026-01-12 18:28:09.31	312.23	36.45	-29.0	-29.6	28.3	0.00e+00	0	28	0	2211446784	30	6160
2026-01-12 18:28:10.32	311.81	36.44	-28.8	-29.3	28.6	0.00e+00	0	28	0	2217738240	30	5960
2026-01-12 18:28:11.33	311.39	36.43	-28.9	-29.4	28.4	0.00e+00	0	28	0	2222981120	30	6028
2026-01-12 18:28:12.34	310.97	36.42	-28.7	-29.3	28.7	0.00e+00	0	28	0	2228224000	30	5919
2026-01-12 18:28:13.35	310.55	36.41	-28.7	-29.3	28.5	0.00e+00	0	28	0	2234515456	30	5923
2026-01-12 18:28:14.36	310.13	36.40	-28.6	-29.3	28.6	0.00e+00	0	28	0	2239758336	30	5922
2026-01-12 18:28:15.37	309.71	36.38	-28.6	-29.1	28.6	0.00e+00	0	28	0	2246049792	30	5820
2026-01-12 18:28:16.38	309.29	36.36	-28.5	-29.1	28.5	0.00e+00	0	28	0	2251292672	30	5823
2026-01-12 18:28:17.39	308.87	36.34	-28.5	-29.1	28.7	0.00e+00	0	28	0	2256535552	30	5812
2026-01-12 18:28:18.40	308.45	36.32	-28.6	-29.1	28.7	0.00e+00	0	28	0	2262827008	30	5824
2026-01-12 18:28:19.41	308.03	36.30	-28.5	-29.1	28.7	0.00e+00	0	28	0	2268069888	30	5796
2026-01-12 18:28:20.42	307.61	36.28	-28.4	-29.0	28.8	0.00e+00	0	28	0	2274361344	30	5749
2026-01-12 18:28:21.43	307.20	36.25	-28.4	-29.1	28.7	0.00e+00	0	28	0	2279604224	30	5784
2026-01-12 18:28:22.44	306.78	36.22	-28.5	-29.1	28.8	0.00e+00	0	28	0	2285895680	30	5816
2026-01-12 18:28:23.45	306.36	36.19	-28.8	-29.4	28.6	0.00e+00	0	28	0	2291138560	30	6014
2026-01-12 18:28:24.46	305.95	36.16	-28.9	-29.6	28.5	0.00e+00	0	28	0	2297430016	30	6138
2026-01-12 18:28:25.47	305.53	36.13	-28.9	-29.5	28.5	0.00e+00	0	28	0	2302672896	30	6060
2026-01-12 18:28:26.48	305.12	36.09	-28.9	-29.6	28.5	0.00e+00	0	28	0	2307915776	30	6128
2026-01-12 18:28:27.49	304.71	36.06	-28.8	-29.5	28.5	0.00e+00	0	28	0	2314207232	30	6041
2026-01-12 18:28:28.50	304.30	36.02	-28.8	-29.4	28.5	0.00e+00	0	28	0	2319450112	30	5989
2026-01-12 18:28:29.51	303.89	35.98	-28.8	-29.5	28.6	0.00e+00	0	28	0	2325741568	30	6068
2026-01-12 18:28:30.52	303.48	35.94	-28.7	-29.3	28.6	0.00e+00	0	28	0	2330984448	30	5905
2026-01-12 18:28:31.53	303.07	35.89	-28.7	-29.3	28.6	0.00e+00	0	28	0	2336227328	30	5915
2026-01-12 18:28:32.54	302.66	35.85	-28.6	-29.2	28.8	0.00e+00	0	28	0	2342518784	30	5838
2026-01-12 18:28:33.56	302.25	35.80	-28.5	-29.0	28.9	0.00e+00	0	28	0	2347761664	30	5745
2026-01-12 18:28:34.56	301.85	35.76	-28.5	-29.0	28.9	0.00e+00	0	28	0	2354053120	30	5748
2026-01-12 18:28:35.58	301.45	35.71	-28.3	-29.0	28.9	0.00e+00	0	28	0	2359296000	30	5704
2026-01-12 18:28:36.58	301.05	35.66	-28.5	-29.1	28.7	0.00e+00	0	28	0	2364538880	30	5825
2026-01-12 18:28:37.59	300.65	35.61	-28.6	-29.2	28.7	0.00e+00	0	28	0	2370830336	30	5842
2026-01-12 18:28:38.60	300.25	35.55	-28.6	-29.2	28.6	0.00e+00	0	28	0	2376073216	30	5868
2026-01-12 18:28:39.61	299.85	35.50	-28.7	-29.2	28.6	0.00e+00	0	28	0	2382364672	30	5895
2026-01-12 18:28:40.62	299.45	35.44	-28.8	-29.4	28.6	0.00e+00	0	28	0	2387607552	30	5971
2026-01-12 18:28:41.63	299.05	35.38	-28.9	-29.6	28.5	0.00e+00	0	28	0	2393899008	30	6160
2026-01-12 18:28:42.64	298.66	35.32	-28.9	-29.6	28.5	0.00e+00	0	28	0	2399141888	30	6128
2026-01-12 18:28:43.65	298.27	35.26	-29.0	-29.6	28.5	0.00e+00	0	28	0	2405433344	30	6140
2026-01-12 18:28:44.66	297.88	35.20	-28.5	-29.2	28.8	0.00e+00	0	28	0	2410676224	30	5863
2026-01-12 18:28:45.67	297.49	35.14	-28.5	-29.1	28.8	0.00e+00	0	28	0	2415919104	30	5804
2026-01-12 18:28:46.68	297.10	35.07	-28.4	-29.0	28.9	0.00e+00	0	28	0	2422210560	30	5756
2026-01-12 18:28:47.68	296.71	35.00	-28.4	-29.0	28.9	0.00e+00	0	28	0	2427453440	30	5702
2026-01-12 18:28:48.70	296.33	34.94	-28.5	-29.2	28.8	0.00e+00	0	28	0	2432696320	30	5835
2026-01-12 18:28:49.71	295.94	34.87	-28.6	-29.3	28.6	0.00e+00	0	28	0	2438987776	30	5933
2026-01-12 18:28:50.71	295.56	34.80	-28.6	-29.3	28.7	0.00e+00	0	28	0	2444230656	30	5907
2026-01-12 18:28:51.72	295.18	34.72	-28.7	-29.2	28.6	0.00e+00	0	28	0	2450522112	30	5874
2026-01-12 18:28:52.73	294.81	34.65	-28.8	-29.5	28.6	0.00e+00	0	28	0	2455764992	30	6072
2026-01-12 18:28:53.74	294.43	34.58	-29.0	-29.6	28.5	0.00e+00	0	28	0	2461007872	30	6124
2026-01-12 18:28:54.75	294.05	34.50	-28.8	-29.5	28.6	0.00e+00	0	28	0	2467299328	30	6050
2026-01-12 18:28:55.76	293.68	34.43	-28.9	-29.4	28.7	0.00e+00	0	28	0	2472542208	30	6027
2026-01-12 18:28:56.77	293.31	34.35	-28.8	-29.3	28.6	0.00e+00	0	28	0	2478833664	30	5945
2026-01-12 18:28:57.78	292.94	34.27	-28.8	-29.3	28.6	0.00e+00	0	28	0	2484076544	30	5959
2026-01-12 18:28:58.79	292.57	34.19	-28.9	-29.5	28.5	0.00e+00	0	28	0	2490368000	30	6073
2026-01-12 18:28:59.80	292.20	34.11	-28.8	-29.4	28.5	0.00e+00	0	28	0	2495610880	30	6019
2026-01-12 18:29:00.81	291.84	34.02	-29.0	-29.6	28.4	0.00e+00	0	28	0	2501902336	30	6169
2026-01-12 18:29:01.82	291.48	33.94	-28.9	-29.4	28.5	0.00e+00	0	28	0	2507145216	30	6009
2026-01-12 18:29:02.83	291.12	33.86	-29.0	-29.6	28.4	0.00e+00	0	28	0	2512388096	30	6120
2026-01-12 18:29:03.84	290.76	33.77	-28.8	-29.4	28.5	0.00e+00	0	28	0	2518679552	30	6015
2026-01-12 18:29:04.85	290.40	33.68	-28.8	-29.4	28.6	0.00e+00	0	28	0	2523922432	30	5974
2026-01-12 18:29:05.86	290.05	33.60	-28.8	-29.4	28.6	0.00e+00	0	28	0	2530213888	30	6032
2026-01-12 18:29:06.87	289.69	33.51	-28.8	-29.4	28.7	0.00e+00	0	28	0	2535456768	30	6026
2026-01-12 18:29:07.88	289.34	33.42	-28.8	-29.3	28.6	0.00e+00	0	28	0	2540699648	30	5935
2026-01-12 18:29:08.89	288.99	33.33	-28.4	-28.9	28.8	0.00e+00	0	28	0	2546991104	30	5673
2026-01-12 18:29:09.90	288.65	33.24	-28.3	-28.9	28.9	0.00e+00	0	28	0	2552233984	30	5682
2026-01-12 18:29:10.91	288.30	33.14	-28.4	-29.0	28.8	0.00e+00	0	28	0	2558525440	30	5706
2026-01-12 18:29:11.92	287.96	33.05	-28.5	-29.1	28.8	0.00e+00	0	28	0	2563768320	30	5779
2026-01-12 18:29:12.93	287.62	32.96	-28.6	-29.2	28.9	0.00e+00	0	28	0	2569011200	30	5844
2026-01-12 18:29:13.94	287.28	32.86	-28.6	-29.2	28.7	0.00e+00	0	28	0	2575302656	30	5874
2026-01-12 18:29:14.95	286.94	32.77	-28.4	-29.0	28.8	0.00e+00	0	28	0	2580545536	30	5699
2026-01-12 18:29:15.96	286.60	32.67	-28.5	-29.1	28.9	0.00e+00	0	28	0	2586836992	30	5789
2026-01-12 18:29:16.97	286.27	32.57	-28.6	-29.2	28.8	0.00e+00	0	28	0	2592079872	30	5856
2026-01-12 18:29:17.97	285.94	32.47	-28.7	-29.4	28.6	0.00e+00	0	28	0	2598371328	30	5980
2026-01-12 18:29:18.98	285.61	32.37	-28.8	-29.4	28.6	0.00e+00	0	28	0	2603614208	30	5991
2026-01-12 18:29:19.99	285.29	32.27	-28.9	-29.6	28.4	0.00e+00	0	28	0	2608857088	30	6124
2026-01-12 18:29:21.00	284.96	32.17	-28.9	-29.5	28.6	0.00e+00	0	28	0	2615148544	30	6061
2026-01-12 18:29:22.01	284.64	32.07	-29.0	-29.5	28.4	0.00e+00	0	28	0	2620391424	30	6086
2026-01-12 18:29:23.02	284.32	31.97	-28.9	-29.6	28.4	0.00e+00	0	28	0	2626682880	30	6128
2026-01-12 18:29:24.03	284.00	31.87	-28.8	-29.4	28.6	0.00e+00	0	28	0	2631925760	30	6001
2026-01-12 18:29:25.04	283.68	31.77	-28.9	-29.6	28.6	0.00e+00	0	28	0	2637168640	30	6127
2026-01-12 18:29:26.05	283.37	31.66	-28.9	-29.4	28.6	0.00e+00	0	28	0	2643460096	30	6029
2026-01-12 18:29:27.06	283.05	31.56	-28.8	-29.4	28.5	0.00e+00	0	28	0	2648702976	30	5990
2026-01-12 18:29:28.07	282.74	31.45	-28.9	-29.4	28.5	0.00e+00	0	28	0	2654994432	30	6014
2026-01-12 18:29:29.08	282.43	31.35	-28.9	-29.5	28.5	0.00e+00	0	28	0	2660237312	30	6036
2026-01-12 18:29:30.09	282.13	31.24	-28.9	-29.5	28.6	0.00e+00	0	28	0	2665480192	30	6055
2026-01-12 18:29:31.10	281.82	31.13	-28.7	-29.3	28.7	0.00e+00	0	28	0	2671771648	30	5957
2026-01-12 18:29:32.11	281.52	31.03	-28.7	-29.3	28.6	0.00e+00	0	28	0	2677014528	30	5904
2026-01-12 18:29:33.12	281.22	30.92	-29.0	-29.6	28.5	0.00e+00	0	28	0	2683305984	30	6168
2026-01-12 18:29:34.13	280.92	30.81	-28.9	-29.5	28.5	0.00e+00	0	28	0	2688548864	30	6055
2026-01-12 18:29:35.14	280.62	30.70	-28.8	-29.5	28.6	0.00e+00	0	28	0	2694840320	30	6053
2026-01-12 18:29:36.14	280.33	30.59	-28.8	-29.5	28.5	0.00e+00	0	28	0	2700083200	30	6083
2026-01-12 18:29:37.15	280.04	30.48	-29.0	-29.5	28.4	0.00e+00	0	28	0	2706374656	30	6084
2026-01-12 18:29:38.16	279.75	30.37	-29.0	-29.6	28.5	0.00e+00	0	28	0	2711617536	30	6141
2026-01-12 18:29:39.17	279.46	30.26	-29.0	-29.7	28.4	0.00e+00	0	28	0	2716860416	30	6181
2026-01-12 18:29:40.18	279.17	30.15	-29.2	-29.7	28.3	0.00e+00	0	28	0	2723151872	30	6219
2026-01-12 18:29:41.19	278.89	30.04	-29.0	-29.5	28.4	0.00e+00	0	28	0	2728394752	30	6099
2026-01-12 18:29:42.20	278.60	29.93	-29.0	-29.6	28.4	0.00e+00	0	28	0	2734686208	30	6122
2026-01-12 18:29:43.21	278.32	29.82	-29.1	-29.6	28.3	0.00e+00	0	28	0	2739929088	30	6161
2026-01-12 18:29:44.22	278.04	29.71	-29.1	-29.8	28.3	0.00e+00	0	28	0	2745171968	30	6254
2026-01-12 18:29:45.23	277.76	29.59	-29.0	-29.6	28.4	0.00e+00	0	28	0	2751463424	30	6143
2026-01-12 18:29:46.24	277.49	29.48	-28.9	-29.6	28.4	0.00e+00	0	28	0	2756706304	30	6152
2026-01-12 18:29:47.25	277.22	29.37	-28.9	-29.5	28.5	0.00e+00	0	28	0	2762997760	30	6085
2026-01-12 18:29:48.26	276.95	29.26	-28.9	-29.4	28.5	0.00e+00	0	28	0	2768240640	30	6002
2026-01-12 18:29:49.27	276.68	29.14	-29.0	-29.6	28.2	0.00e+00	0	28	0	2773483520	30	6170
2026-01-12 18:29:50.28	276.41	29.03	-29.0	-29.6	28.2	0.00e+00	0	28	0	2779774976	30	6115
2026-01-12 18:29:51.29	276.14	28.91	-29.0	-29.6	28.1	0.00e+00	0	28	0	2785017856	30	6141
2026-01-12 18:29:52.30	275.88	28.80	-29.0	-29.6	28.1	0.00e+00	0	28	0	2791309312	30	6130
2026-01-12 18:29:53.31	275.62	28.68	-29.0	-29.7	27.8	0.00e+00	0	28	0	2796552192	30	6209
2026-01-12 18:29:54.32	275.36	28.57	-29.1	-29.6	27.7	0.00e+00	0	28	0	2802843648	30	6164
2026-01-12 18:29:55.33	275.10	28.45	-29.3	-29.9	27.9	0.00e+00	0	28	0	2808086528	30	6344
2026-01-12 18:29:56.33	274.85	28.34	-29.2	-29.7	27.7	0.00e+00	0	28	0	2813329408	30	6242
2026-01-12 18:29:57.34	274.59	28.23	-29.1	-29.7	27.7	0.00e+00	0	28	0	2819620864	30	6191
2026-01-12 18:29:58.35	274.34	28.11	-29.2	-29.8	27.9	0.00e+00	0	28	0	2824863744	30	6311
2026-01-12 18:29:59.36	274.09	27.99	-29.1	-29.8	27.7	0.00e+00	0	28	0	2831155200	30	6303
2026-01-12 18:30:00.37	273.84	27.88	-29.1	-29.8	27.8	0.00e+00	0	28	0	2836398080	30	6295
2026-01-12 18:30:01.38	273.59	27.76	-29.3	-29.9	27.9	0.00e+00	0	28	0	2841640960	30	6376
2026-01-12 18:30:02.39	273.35	27.65	-29.2	-29.7	27.9	0.00e+00	0	28	0	2847932416	30	6233
2026-01-12 18:30:03.40	273.10	27.53	-29.2	-29.9	27.9	0.00e+00	0	28	0	2853175296	30	6361
2026-01-12 18:30:04.41	272.86	27.42	-29.2	-29.8	28.0	0.00e+00	0	28	0	2859466752	30	6267
2026-01-12 18:30:05.42	272.62	27.30	-29.2	-29.8	27.9	0.00e+00	0	28	0	2864709632	30	6267
2026-01-12 18:30:06.43	272.38	27.18	-29.3	-30.0	27.9	0.00e+00	0	28	0	2869952512	30	6429
2026-01-12 18:30:07.44	272.15	27.07	-29.2	-29.7	28.1	0.00e+00	0	28	0	2876243968	30	6201
2026-01-12 18:30:08.45	271.91	26.95	-29.3	-29.9	27.9	0.00e+00	0	28	0	2881486848	30	6324
2026-01-12 18:30:09.46	271.68	26.83	-29.4	-29.9	27.8	0.00e+00	0	28	0	2887778304	30	6379
2026-01-12 18:30:10.46	271.45	26.72	-29.4	-30.0	27.9	0.00e+00	0	28	0	2893021184	30	6396
2026-01-12 18:30:11.47	271.22	26.60	-29.5	-30.1	27.8	0.00e+00	0	28	0	2899312640	30	6475
2026-01-12 18:30:12.48	270.99	26.49	-29.5	-30.0	27.8	0.00e+00	0	28	0	2904555520	30	6455
2026-01-12 18:30:13.49	270.77	26.37	-29.4	-30.0	27.8	0.00e+00	0	28	0	2909798400	30	6437
2026-01-12 18:30:14.50	270.54	26.25	-29.6	-30.3	27.7	0.00e+00	0	28	0	2916089856	30	6631
2026-01-12 18:30:15.52	270.32	26.14	-29.5	-30.1	27.8	0.00e+00	0	28	0	2921332736	30	6498
2026-01-12 18:30:16.53	270.10	26.02	-29.5	-30.2	27.8	0.00e+00	0	28	0	2927624192	30	6572
2026-01-12 18:30:17.54	269.88	25.90	-29.4	-30.0	27.9	0.00e+00	0	28	0	2932867072	30	6412
2026-01-12 18:30:18.54	269.66	25.79	-29.5	-30.0	27.8	0.00e+00	0	28	0	2938109952	30	6445
2026-01-12 18:30:19.55	269.44	25.67	-29.6	-30.3	27.8	0.00e+00	0	28	0	2944401408	30	6620
2026-01-12 18:30:20.56	269.23	25.56	-29.8	-30.3	27.5	0.00e+00	0	28	0	2949644288	30	6686
2026-01-12 18:30:21.57	269.02	25.44	-29.8	-30.4	27.6	0.00e+00	0	28	0	2955935744	32	5978
2026-01-12 18:30:22.58	268.80	25.32	-29.9	-30.5	27.5	0.00e+00	0	28	0	2961178624	32	6052
2026-01-12 18:30:23.60	268.59	25.21	-29.9	-30.6	27.5	0.00e+00	0	28	0	2966421504	32	6156
2026-01-12 18:30:24.61	268.38	25.09	-29.8	-30.5	27.5	0.00e+00	0	28	0	2972712960	32	6086
2026-01-12 18:30:25.61	268.18	24.98	-29.8	-30.4	27.5	0.00e+00	0	28	0	2977955840	32	5998
2026-01-12 18:30:26.62	267.97	24.86	-29.9	-30.5	27.5	0.00e+00	0	28	0	2984247296	32	6061
2026-01-12 18:30:27.63	267.77	24.75	-30.1	-30.8	27.3	0.00e+00	0	28	0	2989490176	32	6271
2026-01-12 18:30:28.64	267.57	24.63	-30.0	-30.7	27.4	0.00e+00	0	28	0	2995781632	32	6219
2026-01-12 18:30:29.65	267.36	24.51	-30.1	-30.8	27.3	0.00e+00	0	28	0	3001024512	32	6310
2026-01-12 18:30:30.66	267.17	24.40	-30.2	-30.7	27.2	0.00e+00	0	28	0	3007315968	32	6228
2026-01-12 18:30:31.67	266.97	24.28	-30.1	-30.8	27.3	0.00e+00	0	28	0	3012558848	32	6295
2026-01-12 18:30:32.68	266.77	24.17	-30.1	-30.8	27.3	0.00e+00	0	28	0	3017801728	32	6274
2026-01-12 18:30:33.69	266.58	24.05	-29.9	-30.6	27.5	0.00e+00	0	28	0	3024093184	32	6169
2026-01-12 18:30:34.70	266.38	23.94	-30.0	-30.7	27.3	0.00e+00	0	28	0	3029336064	32	6197
2026-01-12 18:30:35.71	266.19	23.83	-29.9	-30.5	27.5	0.00e+00	0	28	0	3035627520	32	6064
2026-01-12 18:30:36.72	266.00	23.71	-30.0	-30.6	27.3	0.00e+00	0	28	0	3040870400	32	6120
2026-01-12 18:30:37.73	265.81	23.60	-29.9	-30.6	27.5	0.00e+00	0	28	0	3046113280	32	6106
2026-01-12 18:30:38.74	265.62	23.48	-29.7	-30.4	27.6	0.00e+00	0	28	0	3052404736	32	6002
2026-01-12 18:30:39.74	265.44	23.37	-29.8	-30.5	27.5	0.00e+00	0	28	0	3057647616	32	6075
2026-01-12 18:30:40.75	265.25	23.26	-29.7	-30.4	27.5	0.00e+00	0	28	0	3063939072	32	6023
2026-01-12 18:30:41.76	265.07	23.14	-29.9	-30.4	27.5	0.00e+00	0	28	0	3069181952	32	6014
2026-01-12 18:30:42.77	264.88	23.03	-29.9	-30.5	27.5	0.00e+00	0	28	0	3074424832	32	6037
2026-01-12 18:30:43.78	264.70	22.92	-29.9	-30.5	27.4	0.00e+00	0	28	0	3080716288	32	6043
2026-01-12 18:30:44.79	264.52	22.80	-30.0	-30.6	27.4	0.00e+00	0	28	0	3085959168	32	6138
2026-01-12 18:30:45.80	264.34	22.69	-30.1	-30.6	27.3	0.00e+00	0	28	0	3092250624	32	6159
2026-01-12 18:30:46.81	264.17	22.58	-30.0	-30.7	27.4	0.00e+00	0	28	0	3097493504	32	6199
2026-01-12 18:30:47.82	263.99	22.47	-30.2	-30.9	27.3	0.00e+00	0	28	0	3103784960	32	6344
2026-01-12 18:30:48.83	263.82	22.35	-30.0	-30.7	27.4	0.00e+00	0	28	0	3109027840	32	6179
2026-01-12 18:30:49.84	263.64	22.24	-30.0	-30.7	27.4	0.00e+00	0	28	0	3114270720	32	6188
2026-01-12 18:30:50.85	263.47	22.13	-30.0	-30.6	27.4	0.00e+00	0	28	0	3120562176	32	6118
2026-01-12 18:30:51.86	263.30	22.02	-29.9	-30.6	27.4	0.00e+00	0	28	0	3125805056	32	6164
2026-01-12 18:30:52.87	263.13	21.91	-30.0	-30.5	27.4	0.00e+00	0	28	0	3132096512	32	6089
2026-01-12 18:30:53.88	262.96	21.80	-29.9	-30.6	27.4	0.00e+00	0	28	0	3137339392	32	6144
2026-01-12 18:30:54.89	262.79	21.69	-30.0	-30.7	27.4	0.00e+00	0	28	0	3142582272	32	6227
2026-01-12 18:30:55.90	262.63	21.57	-29.9	-30.5	27.5	0.00e+00	0	28	0	3148873728	32	6067
2026-01-12 18:30:56.91	262.46	21.46	-29.9	-30.6	27.4	0.00e+00	0	28	0	3154116608	32	6130
2026-01-12 18:30:57.92	262.30	21.35	-30.0	-30.5	27.4	0.00e+00	0	28	0	3160408064	32	6094
2026-01-12 18:30:58.93	262.14	21.24	-30.1	-30.8	27.4	0.00e+00	0	28	0	3165650944	32	6260
2026-01-12 18:30:59.94	261.98	21.13	-30.1	-30.6	27.4	0.00e+00	0	28	0	3170893824	32	6155
2026-01-12 18:31:00.94	261.82	21.03	-30.2	-30.7	27.2	0.00e+00	0	28	0	3177185280	32	6226
2026-01-12 18:31:01.95	261.66	20.92	-30.1	-30.7	27.3	0.00e+00	0	28	0	3182428160	32	6189
2026-01-12 18:31:02.96	261.50	20.81	-30.0	-30.5	27.4	0.00e+00	0	28	0	3188719616	32	6081
2026-01-12 18:31:03.97	261.34	20.70	-30.0	-30.6	27.3	0.00e+00	0	28	0	3193962496	32	6135
2026-01-12 18:31:04.98	261.19	20.59	-30.0	-30.6	27.4	0.00e+00	0	28	0	3200253952	32	6114
2026-01-12 18:31:05.99	261.03	20.48	-30.0	-30.6	27.3	0.00e+00	0	28	0	3205496832	32	6131
2026-01-12 18:31:07.00	260.88	20.37	-30.1	-30.8	27.3	0.00e+00	0	28	0	3210739712	32	6249
2026-01-12 18:31:08.00	260.73	20.27	-30.2	-30.8	27.2	0.00e+00	0	28	0	3217031168	32	6248
2026-01-12 18:31:09.01	260.58	20.16	-30.2	-30.7	27.3	0.00e+00	0	28	0	3222274048	32	6242
2026-01-12 18:31:10.02	260.43	20.05	-30.3	-30.9	27.1	0.00e+00	0	28	0	3228565504	32	6363
2026-01-12 18:31:11.03	260.28	19.94	-30.2	-30.8	27.2	0.00e+00	0	28	0	3233808384	32	6284
2026-01-12 18:31:12.04	260.13	19.84	-30.4	-31.0	26.9	0.00e+00	0	28	0	3239051264	32	6439
2026-01-12 18:31:13.05	259.98	19.73	-30.4	-31.1	27.1	0.00e+00	0	28	0	3245342720	32	6471
2026-01-12 18:31:14.06	259.84	19.62	-30.4	-31.0	27.0	0.00e+00	0	28	0	3250585600	32	6402
2026-01-12 18:31:15.07	259.69	19.52	-30.5	-31.1	27.0	0.00e+00	0	28	0	3256877056	32	6476
2026-01-12 18:31:16.08	259.55	19.41	-30.7	-31.5	26.8	0.00e+00	0	28	0	3262119936	32	6778
2026-01-12 18:31:17.09	259.41	19.31	-30.5	-31.1	27.0	0.00e+00	0	28	0	3267362816	32	6504
2026-01-12 18:31:18.10	259.26	19.20	-30.6	-31.2	26.7	0.00e+00	0	28	0	3273654272	32	6579
2026-01-12 18:31:19.11	259.12	19.10	-30.5	-31.0	27.0	0.00e+00	0	28	0	3278897152	34	5756
2026-01-12 18:31:20.11	258.98	18.99	-30.5	-31.1	26.9	0.00e+00	0	28	0	3285188608	34	5794
2026-01-12 18:31:21.13	258.84	18.89	-30.5	-31.1	27.0	0.00e+00	0	28	0	3290431488	34	5796
2026-01-12 18:31:22.14	258.71	18.78	-30.5	-31.0	27.0	0.00e+00	0	28	0	3296722944	34	5738
2026-01-12 18:31:23.15	258.57	18.68	-30.4	-31.0	27.0	0.00e+00	0	28	0	3301965824	34	5711
2026-01-12 18:31:24.15	258.43	18.58	-30.5	-31.2	27.0	0.00e+00	0	28	0	3308257280	34	5874
2026-01-12 18:31:25.16	258.30	18.47	-30.5	-31.2	27.0	0.00e+00	0	28	0	3313500160	34	5846
2026-01-12 18:31:26.17	258.16	18.37	-30.6	-31.2	27.0	0.00e+00	0	28	0	3318743040	34	5844
2026-01-12 18:31:27.18	258.03	18.27	-30.7	-31.4	26.9	0.00e+00	0	28	0	3325034496	34	6011
2026-01-12 18:31:28.19	257.90	18.16	-30.7	-31.3	26.8	0.00e+00	0	28	0	3330277376	34	5913
2026-01-12 18:31:29.20	257.77	18.06	-31.0	-31.5	26.7	0.00e+00	0	28	0	3336568832	34	6091
2026-01-12 18:31:30.21	257.64	17.96	-31.0	-31.6	26.6	0.00e+00	0	28	0	3341811712	34	6157
2026-01-12 18:31:31.22	257.51	17.86	-31.0	-31.5	26.6	0.00e+00	0	28	0	3347054592	34	6103
2026-01-12 18:31:32.23	257.38	17.76	-31.1	-31.8	26.5	0.00e+00	0	28	0	3353346048	34	6283
2026-01-12 18:31:33.24	257.25	17.66	-31.3	-31.8	26.4	0.00e+00	0	28	0	3358588928	34	6302
2026-01-12 18:31:34.25	257.12	17.55	-31.4	-32.1	26.3	0.00e+00	0	28	0	3364880384	34	6511
2026-01-12 18:31:35.26	257.00	17.45	-31.1	-31.7	26.4	0.00e+00	0	28	0	3370123264	34	6210
2026-01-12 18:31:36.27	256.87	17.35	-31.2	-31.8	26.4	0.00e+00	0	28	0	3375366144	34	6253
2026-01-12 18:31:37.28	256.75	17.25	-31.1	-31.7	26.4	0.00e+00	0	28	0	3381657600	34	6217
2026-01-12 18:31:38.29	256.62	17.15	-31.2	-31.9	26.3	0.00e+00	0	28	0	3386900480	34	6389
2026-01-12 18:31:39.30	256.50	17.05	-31.4	-32.0	26.2	0.00e+00	0	28	0	3393191936	34	6421
2026-01-12 18:31:40.31	256.38	16.95	-31.4	-31.9	26.3	0.00e+00	0	28	0	3398434816	34	6386
2026-01-12 18:31:41.32	256.26	16.85	-31.5	-32.1	26.0	0.00e+00	0	28	0	3404726272	34	6525
2026-01-12 18:31:42.33	256.14	16.76	-31.6	-32.1	26.1	0.00e+00	0	28	0	3409969152	34	6533
2026-01-12 18:31:43.33	256.02	16.66	-31.6	-32.2	26.1	0.00e+00	0	28	0	3415212032	34	6567
2026-01-12 18:31:44.34	255.90	16.56	-31.7	-32.2	26.0	0.00e+00	0	28	0	3421503488	36	5890
2026-01-12 18:31:45.35	255.78	16.46	-31.7	-32.3	25.9	0.00e+00	0	28	0	3426746368	36	5926
2026-01-12 18:31:46.36	255.66	16.36	-31.4	-32.0	26.2	0.00e+00	0	28	0	3433037824	36	5736
2026-01-12 18:31:47.37	255.55	16.27	-31.6	-32.3	26.1	0.00e+00	0	28	0	3438280704	36	5929
2026-01-12 18:31:48.38	255.43	16.17	-31.4	-32.0	26.2	0.00e+00	0	28	0	3443523584	36	5742
2026-01-12 18:31:49.39	255.32	16.07	-31.4	-32.0	26.2	0.00e+00	0	28	0	3449815040	36	5744
2026-01-12 18:31:50.40	255.20	15.98	-31.5	-32.0	26.2	0.00e+00	0	28	0	3455057920	36	5756
2026-01-12 18:31:51.41	255.09	15.88	-31.6	-32.2	26.1	0.00e+00	0	28	0	3461349376	36	5843
2026-01-12 18:31:52.42	254.98	15.78	-31.5	-32.3	26.1	0.00e+00	0	28	0	3466592256	36	5899
2026-01-12 18:31:53.44	254.86	15.69	-31.7	-32.3	26.0	0.00e+00	0	28	0	3471835136	36	5903
2026-01-12 18:31:54.45	254.75	15.59	-31.6	-32.2	26.0	0.00e+00	0	28	0	3478126592	36	5881
2026-01-12 18:31:55.46	254.64	15.49	-31.8	-32.4	25.9	0.00e+00	0	28	0	3483369472	36	5966
2026-01-12 18:31:56.46	254.53	15.40	-31.7	-32.3	25.9	0.00e+00	0	28	0	3489660928	36	5919
2026-01-12 18:31:57.47	254.42	15.31	-31.8	-32.4	25.9	0.00e+00	0	28	0	3494903808	36	5984
2026-01-12 18:31:58.48	254.32	15.21	-31.9	-32.7	25.8	0.00e+00	0	28	0	3501195264	36	6174
2026-01-12 18:31:59.49	254.21	15.12	-31.7	-32.3	25.9	0.00e+00	0	28	0	3506438144	36	5928
2026-01-12 18:32:00.50	254.10	15.02	-31.9	-32.6	25.8	0.00e+00	0	28	0	3512729600	36	6132
2026-01-12 18:32:01.51	253.99	14.93	-31.8	-32.6	25.9	0.00e+00	0	28	0	3517972480	36	6105
2026-01-12 18:32:02.52	253.89	14.83	-31.9	-32.6	25.8	0.00e+00	0	28	0	3523215360	36	6167
2026-01-12 18:32:03.53	253.78	14.74	-31.9	-32.5	25.8	0.00e+00	0	28	0	3529506816	36	6057
2026-01-12 18:32:04.54	253.68	14.65	-31.8	-32.4	25.8	0.00e+00	0	28	0	3534749696	36	6019
2026-01-12 18:32:05.55	253.58	14.56	-31.9	-32.7	25.7	0.00e+00	0	28	0	3539992576	36	6188
2026-01-12 18:32:06.56	253.47	14.46	-32.0	-32.6	25.8	0.00e+00	0	28	0	3546284032	36	6151
2026-01-12 18:32:07.57	253.37	14.37	-32.2	-32.7	25.5	0.00e+00	0	28	0	3551526912	36	6242
2026-01-12 18:32:08.57	253.27	14.28	-32.2	-32.8	25.6	0.00e+00	0	28	0	3557818368	36	6268
2026-01-12 18:32:09.58	253.17	14.19	-32.0	-32.6	25.7	0.00e+00	0	28	0	3563061248	36	6107
2026-01-12 18:32:10.59	253.07	14.10	-32.0	-32.6	25.6	0.00e+00	0	28	0	3568304128	36	6159
2026-01-12 18:32:11.60	252.97	14.00	-32.2	-32.8	25.6	0.00e+00	0	28	0	3574595584	36	6250
2026-01-12 18:32:12.61	252.87	13.91	-32.1	-32.7	25.5	0.00e+00	0	28	0	3579838464	36	6215
2026-01-12 18:32:13.62	252.77	13.82	-32.4	-33.0	25.4	0.00e+00	0	28	0	3586129920	36	6428
2026-01-12 18:32:14.63	252.67	13.73	-32.3	-32.9	25.4	0.00e+00	0	28	0	3591372800	36	6333
2026-01-12 18:32:15.63	252.58	13.64	-32.5	-33.1	25.3	0.00e+00	0	28	0	3597664256	36	6538
2026-01-12 18:32:16.65	252.48	13.55	-32.3	-33.0	25.4	0.00e+00	0	28	0	3602907136	36	6441
2026-01-12 18:32:17.66	252.38	13.46	-32.3	-33.1	25.4	0.00e+00	0	28	0	3609198592	36	6484
2026-01-12 18:32:18.67	252.29	13.37	-32.4	-33.0	25.3	0.00e+00	0	28	0	3614441472	36	6428
