passes_logs/2026/01/12/R4.6S_Anadyr/R4.6S_Anadyr__20260112_222522_TY-39_rec.log

#Pass ID: 20260112_222522_TY-39
#Satellite: TY-39
#Configuration: TY-39
#almurnet v.1.7.20251203
#Start time: 2026-01-12 22:25:26

#Version: 2.2.20231116
#Station: R4.6S_Anadyr
#Location: 177.4865 lon 64.73178 lat
#TLE: 1 51832U 22019J   26012.32466558  .00003209  00000-0  15361-3 0  9996
#TLE: 2 51832  97.3649  79.0801 0010062  60.6005 299.6233 15.19628684214124

#Time	Az	El	Level	Level2	SNR	BER	BlckErr	Temp	State	Recorded	gain1	gain2
2026-01-12 22:25:26.68	18.60	0.24	-48.5	-60.9	3.4	1.52e+00	0	25	0	0	60	39131
2026-01-12 22:25:27.69	18.63	0.30	-48.8	-51.2	3.5	0.00e+00	0	27	104	0	60	44713
2026-01-12 22:25:28.70	18.66	0.37	-48.8	-51.3	3.6	0.00e+00	0	27	104	0	60	44791
2026-01-12 22:25:29.71	18.69	0.43	-48.7	-51.2	3.6	0.00e+00	0	27	104	0	60	44321
2026-01-12 22:25:30.72	18.72	0.50	-48.7	-51.2	3.6	0.00e+00	0	27	104	0	60	44311
2026-01-12 22:25:31.73	18.75	0.56	-48.6	-51.1	3.6	0.00e+00	0	27	104	0	60	43807
2026-01-12 22:25:32.74	18.78	0.63	-48.6	-51.1	3.6	0.00e+00	0	27	104	0	60	43869
2026-01-12 22:25:33.75	18.81	0.69	-48.5	-50.9	3.6	0.00e+00	0	27	104	0	60	43206
2026-01-12 22:25:34.76	18.85	0.76	-48.4	-50.9	3.6	0.00e+00	0	27	104	0	60	43078
2026-01-12 22:25:35.76	18.88	0.82	-48.2	-50.7	3.6	0.00e+00	0	27	104	0	60	41753
2026-01-12 22:25:36.77	18.91	0.89	-48.0	-50.5	3.6	0.00e+00	0	27	104	0	60	41074
2026-01-12 22:25:37.78	18.94	0.95	-47.8	-50.3	3.6	0.00e+00	0	27	104	0	60	39998
2026-01-12 22:25:38.79	18.97	1.02	-47.5	-50.0	3.6	0.00e+00	0	27	104	0	60	38664
2026-01-12 22:25:39.80	19.00	1.09	-47.3	-49.8	3.6	0.00e+00	0	27	104	0	60	37677
2026-01-12 22:25:40.81	19.03	1.15	-47.3	-49.8	3.6	0.00e+00	0	27	104	0	60	37722
2026-01-12 22:25:41.82	19.07	1.22	-47.3	-49.8	3.6	0.00e+00	0	27	104	0	60	37940
2026-01-12 22:25:42.83	19.10	1.29	-47.3	-49.8	3.6	0.00e+00	0	28	104	0	60	37833
2026-01-12 22:25:43.84	19.13	1.35	-47.3	-49.7	3.6	0.00e+00	0	28	104	0	60	37592
2026-01-12 22:25:44.85	19.16	1.42	-47.3	-49.8	3.6	0.00e+00	0	28	104	0	60	37864
2026-01-12 22:25:45.86	19.20	1.49	-47.3	-49.8	3.6	0.00e+00	0	28	104	0	60	37705
2026-01-12 22:25:46.87	19.23	1.56	-47.3	-49.8	3.5	0.00e+00	0	28	104	0	60	37800
2026-01-12 22:25:47.88	19.26	1.62	-47.3	-49.7	3.6	0.00e+00	0	28	104	0	60	37626
2026-01-12 22:25:48.89	19.29	1.69	-47.3	-49.8	3.6	0.00e+00	0	28	104	0	60	37639
2026-01-12 22:25:49.90	19.33	1.76	-47.3	-49.7	3.6	0.00e+00	0	28	104	0	60	37235
2026-01-12 22:25:50.91	19.36	1.83	-47.3	-49.8	3.6	0.00e+00	0	28	104	0	60	37665
2026-01-12 22:25:51.92	19.39	1.90	-47.3	-49.8	3.6	0.00e+00	0	28	104	0	60	37789
2026-01-12 22:25:52.93	19.43	1.97	-47.3	-49.8	3.6	0.00e+00	0	28	104	0	60	37731
2026-01-12 22:25:53.94	19.46	2.04	-47.3	-49.7	3.6	0.00e+00	0	28	104	0	60	37556
2026-01-12 22:25:54.95	19.50	2.10	-47.3	-49.8	3.6	0.00e+00	0	28	104	0	60	37638
2026-01-12 22:25:55.96	19.53	2.17	-47.3	-49.8	3.6	0.00e+00	0	28	104	0	60	37737
2026-01-12 22:25:56.96	19.57	2.24	-47.3	-49.8	3.6	0.00e+00	0	28	104	0	60	37647
2026-01-12 22:25:57.97	19.60	2.31	-47.3	-49.8	3.6	0.00e+00	0	28	104	0	60	37686
2026-01-12 22:25:58.98	19.64	2.38	-47.3	-49.8	3.6	0.00e+00	0	28	104	0	60	37805
2026-01-12 22:25:59.99	19.67	2.45	-47.3	-49.8	3.6	0.00e+00	0	28	104	0	60	37654
2026-01-12 22:26:01.00	19.71	2.53	-47.3	-49.8	3.6	0.00e+00	0	28	104	0	60	37648
2026-01-12 22:26:02.01	19.74	2.60	-47.3	-49.8	3.6	0.00e+00	0	28	104	0	60	37801
2026-01-12 22:26:03.02	19.78	2.67	-47.3	-49.7	3.6	0.00e+00	0	28	104	0	60	37485
2026-01-12 22:26:04.03	19.81	2.74	-47.3	-49.7	3.6	0.00e+00	0	28	104	0	60	37465
2026-01-12 22:26:05.04	19.85	2.81	-47.3	-49.7	3.6	0.00e+00	0	28	104	0	60	37580
2026-01-12 22:26:06.05	19.89	2.88	-47.3	-49.7	3.6	0.00e+00	0	28	104	0	60	37351
2026-01-12 22:26:07.06	19.92	2.95	-47.3	-49.7	3.6	0.00e+00	0	28	104	0	60	37457
2026-01-12 22:26:08.07	19.96	3.03	-47.3	-49.7	3.6	0.00e+00	0	28	104	0	60	37516
2026-01-12 22:26:09.08	19.99	3.10	-47.3	-49.7	3.6	0.00e+00	0	28	104	0	60	37490
2026-01-12 22:26:10.08	20.03	3.17	-47.3	-49.7	3.6	0.00e+00	0	28	104	0	60	37556
2026-01-12 22:26:11.09	20.07	3.24	-47.3	-49.7	3.6	0.00e+00	0	28	104	0	60	37501
2026-01-12 22:26:12.10	20.11	3.32	-47.3	-49.7	3.6	0.00e+00	0	28	104	0	60	37550
2026-01-12 22:26:13.11	20.14	3.39	-47.3	-49.7	3.6	0.00e+00	0	28	104	0	60	37490
2026-01-12 22:26:14.12	20.18	3.46	-47.3	-49.7	3.6	0.00e+00	0	28	104	0	60	37526
2026-01-12 22:26:15.13	20.22	3.54	-47.3	-49.7	3.6	0.00e+00	0	28	104	0	60	37512
2026-01-12 22:26:16.15	20.26	3.61	-47.3	-49.7	3.6	0.00e+00	0	28	104	0	60	37529
2026-01-12 22:26:17.16	20.30	3.69	-47.3	-49.7	3.6	0.00e+00	0	28	104	0	60	37541
2026-01-12 22:26:18.17	20.34	3.76	-47.3	-49.7	3.5	0.00e+00	0	28	104	0	60	37487
2026-01-12 22:26:19.18	20.38	3.84	-47.3	-49.7	3.6	0.00e+00	0	28	104	0	60	37486
2026-01-12 22:26:20.18	20.41	3.91	-47.3	-49.7	3.6	0.00e+00	0	28	104	0	60	37594
2026-01-12 22:26:21.19	20.45	3.99	-47.3	-49.7	3.5	0.00e+00	0	28	104	0	60	37625
2026-01-12 22:26:22.20	20.49	4.06	-47.4	-49.9	3.6	0.00e+00	0	28	104	0	60	38239
2026-01-12 22:26:23.21	20.53	4.14	-47.3	-49.7	3.6	0.00e+00	0	28	104	0	60	37589
2026-01-12 22:26:24.22	20.57	4.22	-47.4	-49.9	3.6	0.00e+00	0	28	104	0	60	38217
2026-01-12 22:26:25.23	20.61	4.29	-47.4	-49.9	3.6	0.00e+00	0	28	104	0	60	38252
2026-01-12 22:26:26.24	20.65	4.37	-47.3	-49.8	3.6	0.00e+00	0	28	104	0	60	37687
2026-01-12 22:26:27.25	20.70	4.45	-47.3	-49.8	3.6	0.00e+00	0	28	104	0	60	37641
2026-01-12 22:26:28.26	20.74	4.53	-47.4	-49.9	3.6	0.00e+00	0	28	104	0	60	38193
2026-01-12 22:26:29.27	20.78	4.60	-30.4	-30.8	14.5	7.42e-04	0	29	0	16777216	36	16993
2026-01-12 22:26:30.28	20.82	4.68	-46.6	-48.7	3.6	1.93e-03	0	28	104	33554432	60	33519
2026-01-12 22:26:31.29	20.86	4.76	-31.9	-32.2	11.4	4.85e-04	0	28	104	33554432	38	17604
2026-01-12 22:26:32.30	20.90	4.84	-32.5	-32.9	13.7	0.00e+00	0	29	0	100663296	38	19223
2026-01-12 22:26:33.30	20.94	4.92	-31.1	-31.5	14.4	0.00e+00	0	29	0	176160768	38	16416
2026-01-12 22:26:34.31	20.99	5.00	-30.4	-30.8	14.8	0.00e+00	0	29	0	251658240	36	16885
2026-01-12 22:26:35.32	21.03	5.08	-30.3	-30.7	14.8	0.00e+00	0	29	0	327155712	36	16661
2026-01-12 22:26:36.33	21.07	5.16	-30.2	-30.6	14.7	0.00e+00	0	29	0	402653184	36	16606
2026-01-12 22:26:37.34	21.12	5.24	-29.9	-30.3	14.8	0.00e+00	0	29	0	478150656	36	15985
2026-01-12 22:26:38.35	21.16	5.32	-30.0	-30.4	14.9	0.00e+00	0	29	0	553648128	36	16162
2026-01-12 22:26:39.36	21.20	5.40	-29.8	-30.2	14.9	0.00e+00	0	29	0	629145600	34	17654
2026-01-12 22:26:40.37	21.25	5.48	-30.0	-30.4	15.0	0.00e+00	0	29	0	704643072	34	18191
2026-01-12 22:26:41.38	21.29	5.56	-29.1	-29.5	15.3	0.00e+00	0	29	0	780140544	34	16365
2026-01-12 22:26:42.39	21.34	5.64	-29.1	-29.5	15.4	0.00e+00	0	29	0	855638016	34	16308
2026-01-12 22:26:43.40	21.38	5.73	-29.0	-29.5	15.4	0.00e+00	0	29	0	931135488	34	16286
2026-01-12 22:26:44.41	21.43	5.81	-29.0	-29.4	15.3	0.00e+00	0	29	0	1006632960	34	16160
2026-01-12 22:26:45.42	21.47	5.89	-28.9	-29.3	15.5	0.00e+00	0	29	0	1082130432	34	16041
2026-01-12 22:26:46.43	21.52	5.98	-28.9	-29.4	15.4	0.00e+00	0	29	0	1157627904	34	16068
2026-01-12 22:26:47.44	21.57	6.06	-29.0	-29.4	15.4	0.00e+00	0	29	0	1233125376	34	16168
2026-01-12 22:26:48.44	21.61	6.14	-28.8	-29.3	15.4	0.00e+00	0	29	0	1317011456	34	15900
2026-01-12 22:26:49.46	21.66	6.23	-28.7	-29.1	15.5	0.00e+00	0	29	0	1392508928	32	17595
2026-01-12 22:26:50.47	21.71	6.31	-28.7	-29.1	15.6	0.00e+00	0	29	0	1468006400	32	17500
2026-01-12 22:26:51.48	21.75	6.40	-28.7	-29.1	15.6	0.00e+00	0	29	0	1535115264	32	17580
2026-01-12 22:26:52.49	21.80	6.48	-28.6	-29.0	15.6	0.00e+00	0	29	0	1610612736	32	17333
2026-01-12 22:26:53.50	21.85	6.57	-28.7	-29.2	15.5	0.00e+00	0	29	0	1694498816	32	17637
2026-01-12 22:26:54.51	21.90	6.65	-28.7	-29.2	15.5	0.00e+00	0	29	0	1769996288	32	17623
2026-01-12 22:26:55.52	21.95	6.74	-28.7	-29.1	15.6	0.00e+00	0	29	0	1845493760	32	17596
2026-01-12 22:26:56.53	22.00	6.83	-28.6	-29.0	15.6	0.00e+00	0	29	0	1920991232	32	17273
2026-01-12 22:26:57.54	22.05	6.92	-28.4	-28.9	15.6	0.00e+00	0	29	0	1996488704	32	17047
2026-01-12 22:26:58.55	22.10	7.00	-28.5	-28.9	15.7	0.00e+00	0	29	0	2071986176	32	17095
2026-01-12 22:26:59.56	22.15	7.09	-28.4	-28.9	15.7	0.00e+00	0	29	0	2147483648	32	17044
2026-01-12 22:27:00.57	22.20	7.18	-28.5	-28.9	15.7	0.00e+00	0	29	0	2222981120	32	17139
2026-01-12 22:27:01.58	22.25	7.27	-28.7	-29.2	15.6	0.00e+00	0	29	0	2298478592	32	17658
2026-01-12 22:27:02.59	22.30	7.36	-28.7	-29.2	15.6	0.00e+00	0	29	0	2373976064	32	17668
2026-01-12 22:27:03.60	22.35	7.45	-28.3	-28.8	15.7	0.00e+00	0	29	0	2449473536	32	16819
2026-01-12 22:27:04.61	22.40	7.54	-28.2	-28.7	15.7	0.00e+00	0	29	0	2524971008	32	16666
2026-01-12 22:27:05.61	22.45	7.63	-28.4	-28.9	15.7	0.00e+00	0	29	0	2600468480	32	17055
2026-01-12 22:27:06.62	22.51	7.72	-28.3	-28.7	15.8	0.00e+00	0	29	0	2675965952	32	16720
2026-01-12 22:27:07.63	22.56	7.81	-28.2	-28.6	15.8	0.00e+00	0	29	0	2751463424	32	16530
2026-01-12 22:27:08.64	22.61	7.90	-28.0	-28.5	15.8	0.00e+00	0	29	0	2826960896	32	16264
2026-01-12 22:27:09.65	22.67	7.99	-28.1	-28.5	15.8	0.00e+00	0	29	0	2902458368	32	16323
2026-01-12 22:27:10.66	22.72	8.09	-28.0	-28.4	15.9	0.00e+00	0	29	0	2977955840	32	16215
2026-01-12 22:27:11.67	22.78	8.18	-28.1	-28.5	15.8	0.00e+00	0	29	0	3053453312	32	16366
2026-01-12 22:27:12.67	22.83	8.27	-28.1	-28.5	15.8	0.00e+00	0	29	0	3128950784	32	16408
2026-01-12 22:27:13.68	22.89	8.37	-28.1	-28.5	15.8	0.00e+00	0	29	0	3204448256	32	16390
2026-01-12 22:27:14.69	22.94	8.46	-27.9	-28.4	15.9	0.00e+00	0	29	0	3279945728	32	16057
2026-01-12 22:27:15.70	23.00	8.55	-27.8	-28.3	15.9	0.00e+00	0	29	0	3355443200	32	15876
2026-01-12 22:27:16.71	23.05	8.65	-27.8	-28.3	16.0	0.00e+00	0	29	0	3430940672	30	17838
2026-01-12 22:27:17.72	23.11	8.75	-27.8	-28.2	15.9	0.00e+00	0	29	0	3506438144	30	17743
2026-01-12 22:27:18.73	23.17	8.84	-27.8	-28.3	15.9	0.00e+00	0	29	0	3581935616	30	17818
2026-01-12 22:27:19.74	23.23	8.94	-27.8	-28.2	15.9	0.00e+00	0	29	0	3657433088	30	17756
2026-01-12 22:27:20.75	23.29	9.04	-27.8	-28.3	15.9	0.00e+00	0	29	0	3732930560	30	17815
2026-01-12 22:27:21.76	23.34	9.13	-27.6	-28.0	16.0	0.00e+00	0	29	0	3808428032	30	17326
2026-01-12 22:27:22.77	23.40	9.23	-27.7	-28.2	15.9	0.00e+00	0	29	0	3883925504	30	17615
2026-01-12 22:27:23.78	23.46	9.33	-27.6	-28.0	15.9	0.00e+00	0	29	0	3959422976	30	17363
2026-01-12 22:27:24.79	23.52	9.43	-27.7	-28.1	15.9	0.00e+00	0	29	0	4043309056	30	17523
2026-01-12 22:27:25.80	23.58	9.53	-27.5	-28.0	16.0	0.00e+00	0	29	0	4118806528	30	17211
2026-01-12 22:27:26.81	23.65	9.63	-27.6	-28.0	15.9	0.00e+00	0	29	0	4194304000	30	17334
2026-01-12 22:27:27.82	23.71	9.73	-27.5	-27.9	16.0	0.00e+00	0	29	0	4261412864	30	17108
2026-01-12 22:27:28.83	23.77	9.83	-27.5	-28.0	16.0	0.00e+00	0	29	0	4336910336	30	17239
2026-01-12 22:27:29.84	23.83	9.93	-27.4	-27.9	16.0	0.00e+00	0	30	0	4412407808	30	17082
2026-01-12 22:27:30.85	23.89	10.04	-27.5	-28.0	16.0	0.00e+00	0	29	0	4496293888	30	17247
2026-01-12 22:27:31.86	23.96	10.14	-27.3	-27.8	16.0	0.00e+00	0	29	0	4571791360	30	16890
2026-01-12 22:27:32.87	24.02	10.24	-27.3	-27.7	16.1	0.00e+00	0	29	0	4647288832	30	16743
2026-01-12 22:27:33.88	24.09	10.35	-27.2	-27.6	16.1	0.00e+00	0	29	0	4722786304	30	16511
2026-01-12 22:27:34.89	24.15	10.45	-27.1	-27.6	16.1	0.00e+00	0	29	0	4798283776	30	16509
2026-01-12 22:27:35.90	24.22	10.56	-27.2	-27.6	16.0	0.00e+00	0	30	0	4873781248	30	16531
2026-01-12 22:27:36.91	24.28	10.66	-27.0	-27.5	16.0	0.00e+00	0	29	0	4949278720	30	16309
2026-01-12 22:27:37.92	24.35	10.77	-27.2	-27.6	15.9	0.00e+00	0	29	0	5024776192	30	16590
2026-01-12 22:27:38.93	24.42	10.87	-27.0	-27.4	16.0	0.00e+00	0	29	0	5100273664	30	16168
2026-01-12 22:27:39.94	24.49	10.98	-27.0	-27.5	16.0	0.00e+00	0	30	0	5175771136	30	16261
2026-01-12 22:27:40.94	24.55	11.09	-26.9	-27.3	16.0	0.00e+00	0	30	0	5251268608	30	16045
2026-01-12 22:27:41.95	24.62	11.20	-26.9	-27.3	16.1	0.00e+00	0	30	0	5326766080	30	15981
2026-01-12 22:27:42.96	24.69	11.31	-26.9	-27.4	16.1	0.00e+00	0	29	0	5402263552	30	16069
2026-01-12 22:27:43.97	24.76	11.42	-26.8	-27.2	16.2	0.00e+00	0	30	0	5477761024	30	15835
2026-01-12 22:27:44.98	24.83	11.53	-26.8	-27.3	16.1	0.00e+00	0	30	0	5553258496	30	15870
2026-01-12 22:27:45.99	24.90	11.64	-26.7	-27.1	16.1	0.00e+00	0	29	0	5628755968	28	17586
2026-01-12 22:27:47.00	24.98	11.75	-26.8	-27.2	16.1	0.00e+00	0	30	0	5704253440	28	17769
2026-01-12 22:27:48.01	25.05	11.86	-26.7	-27.1	16.2	0.00e+00	0	30	0	5779750912	28	17597
2026-01-12 22:27:49.02	25.12	11.97	-26.7	-27.1	16.2	0.00e+00	0	30	0	5855248384	28	17486
2026-01-12 22:27:50.03	25.20	12.09	-26.6	-27.0	16.3	0.00e+00	0	29	0	5930745856	28	17385
2026-01-12 22:27:51.04	25.27	12.20	-26.5	-26.9	16.3	0.00e+00	0	30	0	6006243328	28	17159
2026-01-12 22:27:52.05	25.35	12.32	-26.4	-26.9	16.3	0.00e+00	0	30	0	6081740800	28	17104
2026-01-12 22:27:53.06	25.42	12.43	-26.5	-27.0	16.3	0.00e+00	0	30	0	6157238272	28	17234
2026-01-12 22:27:54.07	25.50	12.55	-26.5	-26.9	16.3	0.00e+00	0	30	0	6232735744	28	17187
2026-01-12 22:27:55.08	25.58	12.67	-26.4	-26.9	16.2	0.00e+00	0	30	0	6308233216	28	17023
2026-01-12 22:27:56.09	25.65	12.78	-26.3	-26.7	16.3	0.00e+00	0	30	0	6383730688	28	16733
2026-01-12 22:27:57.10	25.73	12.90	-26.3	-26.7	16.3	0.00e+00	0	30	0	6459228160	28	16717
2026-01-12 22:27:58.10	25.81	13.02	-26.3	-26.8	16.4	0.00e+00	0	30	0	6534725632	28	16839
2026-01-12 22:27:59.12	25.89	13.14	-26.2	-26.7	16.3	0.00e+00	0	30	0	6610223104	28	16650
2026-01-12 22:28:00.12	25.97	13.26	-26.2	-26.6	16.4	0.00e+00	0	30	0	6685720576	28	16588
2026-01-12 22:28:01.13	26.05	13.38	-26.2	-26.6	16.3	0.00e+00	0	30	0	6761218048	28	16597
2026-01-12 22:28:02.14	26.14	13.51	-26.1	-26.6	16.4	0.00e+00	0	30	0	6845104128	28	16433
2026-01-12 22:28:03.15	26.22	13.63	-26.1	-26.5	16.4	0.00e+00	0	30	0	6920601600	28	16355
2026-01-12 22:28:04.16	26.30	13.75	-26.1	-26.6	16.3	0.00e+00	0	30	0	6987710464	28	16460
2026-01-12 22:28:05.17	26.39	13.88	-25.9	-26.4	16.4	0.00e+00	0	30	0	7063207936	28	16120
2026-01-12 22:28:06.18	26.47	14.00	-25.9	-26.4	16.4	0.00e+00	0	30	0	7138705408	28	16068
2026-01-12 22:28:07.19	26.56	14.13	-26.0	-26.5	16.4	0.00e+00	0	30	0	7214202880	28	16351
2026-01-12 22:28:08.20	26.65	14.26	-25.9	-26.3	16.4	0.00e+00	0	30	0	7298088960	28	15976
2026-01-12 22:28:09.21	26.74	14.38	-25.8	-26.2	16.5	0.00e+00	0	30	0	7373586432	28	15828
2026-01-12 22:28:10.22	26.82	14.51	-25.9	-26.4	16.4	0.00e+00	0	30	0	7449083904	26	18068
2026-01-12 22:28:11.23	26.91	14.64	-26.0	-26.4	16.3	0.00e+00	0	30	0	7516192768	26	18111
2026-01-12 22:28:12.24	27.01	14.77	-25.8	-26.3	16.3	0.00e+00	0	30	0	7591690240	26	17822
2026-01-12 22:28:13.25	27.10	14.90	-26.0	-26.5	16.4	0.00e+00	0	30	0	7675576320	26	18258
2026-01-12 22:28:14.26	27.19	15.03	-25.8	-26.2	16.5	0.00e+00	0	30	0	7751073792	26	17710
2026-01-12 22:28:15.27	27.28	15.17	-25.7	-26.2	16.4	0.00e+00	0	30	0	7826571264	26	17679
2026-01-12 22:28:16.28	27.38	15.30	-25.7	-26.1	16.5	0.00e+00	0	30	0	7902068736	26	17505
2026-01-12 22:28:17.29	27.47	15.44	-25.7	-26.1	16.4	0.00e+00	0	30	0	7977566208	26	17568
2026-01-12 22:28:18.30	27.57	15.57	-25.7	-26.1	16.4	0.00e+00	0	30	0	8053063680	26	17573
2026-01-12 22:28:19.31	27.67	15.71	-25.5	-26.0	16.3	0.00e+00	0	30	0	8128561152	26	17225
2026-01-12 22:28:20.32	27.76	15.85	-25.4	-25.9	16.5	0.00e+00	0	30	0	8204058624	26	17024
2026-01-12 22:28:21.32	27.86	15.98	-25.6	-26.0	16.4	0.00e+00	0	30	0	8279556096	26	17285
2026-01-12 22:28:22.33	27.96	16.12	-25.3	-25.8	16.4	0.00e+00	0	30	0	8355053568	26	16831
2026-01-12 22:28:23.34	28.06	16.26	-25.3	-25.8	16.5	0.00e+00	0	30	0	8430551040	26	16840
2026-01-12 22:28:24.35	28.17	16.40	-25.3	-25.8	16.5	0.00e+00	0	30	0	8506048512	26	16848
2026-01-12 22:28:25.36	28.27	16.54	-25.3	-25.8	16.6	0.00e+00	0	30	0	8581545984	26	16883
2026-01-12 22:28:26.36	28.37	16.69	-25.3	-25.7	16.6	0.00e+00	0	30	0	8657043456	26	16809
2026-01-12 22:28:27.37	28.48	16.83	-25.2	-25.6	16.6	0.00e+00	0	30	0	8732540928	26	16548
2026-01-12 22:28:28.38	28.59	16.98	-25.1	-25.5	16.7	0.00e+00	0	30	0	8808038400	26	16333
2026-01-12 22:28:29.39	28.70	17.12	-25.1	-25.6	16.7	0.00e+00	0	30	0	8883535872	26	16455
2026-01-12 22:28:30.40	28.80	17.27	-25.0	-25.5	16.7	0.00e+00	0	30	0	8959033344	26	16304
2026-01-12 22:28:31.41	28.92	17.42	-24.9	-25.4	16.6	0.00e+00	0	30	0	9034530816	26	16115
2026-01-12 22:28:32.42	29.03	17.57	-25.1	-25.5	16.7	0.00e+00	0	30	0	9110028288	26	16337
2026-01-12 22:28:33.43	29.14	17.72	-24.9	-25.3	16.6	0.00e+00	0	30	0	9185525760	26	16010
2026-01-12 22:28:34.44	29.25	17.87	-25.0	-25.4	16.6	0.00e+00	0	30	0	9261023232	26	16205
2026-01-12 22:28:35.44	29.37	18.02	-24.9	-25.3	16.5	0.00e+00	0	30	0	9336520704	26	16028
2026-01-12 22:28:36.45	29.49	18.17	-24.7	-25.2	16.6	0.00e+00	0	30	0	9412018176	24	17660
2026-01-12 22:28:37.46	29.60	18.33	-24.8	-25.3	16.5	0.00e+00	0	30	0	9487515648	24	17820
2026-01-12 22:28:38.47	29.72	18.49	-24.6	-25.1	16.7	0.00e+00	0	30	0	9563013120	24	17431
2026-01-12 22:28:39.48	29.84	18.64	-24.8	-25.3	16.6	0.00e+00	0	30	0	9638510592	24	17906
2026-01-12 22:28:40.49	29.97	18.80	-24.7	-25.1	16.7	0.00e+00	0	30	0	9714008064	24	17522
2026-01-12 22:28:41.50	30.09	18.96	-24.8	-25.3	16.6	0.00e+00	0	30	0	9789505536	24	17875
2026-01-12 22:28:42.51	30.22	19.12	-24.8	-25.2	16.6	0.00e+00	0	30	0	9865003008	24	17780
2026-01-12 22:28:43.52	30.34	19.28	-24.5	-24.9	16.7	0.00e+00	0	30	0	9940500480	24	17118
2026-01-12 22:28:44.53	30.47	19.45	-24.4	-24.9	16.8	0.00e+00	0	30	0	10015997952	24	17032
2026-01-12 22:28:45.54	30.60	19.61	-24.5	-24.9	16.7	0.00e+00	0	30	0	10091495424	24	17105
2026-01-12 22:28:46.55	30.73	19.78	-24.3	-24.8	16.6	0.00e+00	0	30	0	10175381504	24	16837
2026-01-12 22:28:47.56	30.86	19.94	-24.2	-24.7	16.7	0.00e+00	0	30	0	10242490368	24	16673
2026-01-12 22:28:48.57	31.00	20.11	-24.2	-24.7	16.8	0.00e+00	0	30	0	10317987840	24	16649
2026-01-12 22:28:49.58	31.13	20.28	-24.2	-24.7	16.8	0.00e+00	0	30	0	10393485312	24	16661
2026-01-12 22:28:50.59	31.27	20.45	-24.3	-24.7	16.8	0.00e+00	0	30	0	10468982784	24	16781
2026-01-12 22:28:51.60	31.41	20.63	-24.1	-24.6	16.8	0.00e+00	0	30	0	10552868864	24	16461
2026-01-12 22:28:52.61	31.55	20.80	-24.1	-24.6	16.9	0.00e+00	0	30	0	10628366336	24	16481
2026-01-12 22:28:53.61	31.69	20.97	-24.0	-24.4	16.7	0.00e+00	0	30	0	10703863808	24	16171
2026-01-12 22:28:54.62	31.84	21.15	-24.0	-24.5	16.8	0.00e+00	0	30	0	10779361280	24	16273
2026-01-12 22:28:55.63	31.98	21.33	-23.9	-24.4	16.8	0.00e+00	0	30	0	10846470144	24	16091
2026-01-12 22:28:56.64	32.13	21.51	-24.0	-24.5	16.8	0.00e+00	0	30	0	10930356224	24	16261
2026-01-12 22:28:57.65	32.28	21.69	-23.8	-24.2	16.8	0.00e+00	0	30	0	11005853696	24	15793
2026-01-12 22:28:58.66	32.44	21.87	-23.9	-24.3	16.8	0.00e+00	0	30	0	11081351168	24	16045
2026-01-12 22:28:59.67	32.59	22.05	-23.9	-24.3	16.8	0.00e+00	0	30	0	11156848640	24	16022
2026-01-12 22:29:00.68	32.75	22.24	-23.7	-24.1	16.8	0.00e+00	0	30	0	11232346112	22	17496
2026-01-12 22:29:01.69	32.90	22.42	-23.7	-24.1	16.8	0.00e+00	0	30	0	11307843584	22	17566
2026-01-12 22:29:02.70	33.07	22.61	-23.6	-24.0	16.9	0.00e+00	0	30	0	11383341056	22	17326
2026-01-12 22:29:03.71	33.23	22.80	-23.6	-24.0	16.9	0.00e+00	0	30	0	11458838528	22	17342
2026-01-12 22:29:04.72	33.39	22.99	-23.6	-24.0	16.8	0.00e+00	0	30	0	11534336000	22	17329
2026-01-12 22:29:05.73	33.56	23.18	-23.7	-24.1	16.8	0.00e+00	0	30	0	11609833472	22	17567
2026-01-12 22:29:06.74	33.73	23.38	-23.5	-23.9	16.8	0.00e+00	0	30	0	11685330944	22	17177
2026-01-12 22:29:07.74	33.90	23.57	-23.5	-23.9	16.8	0.00e+00	0	30	0	11760828416	22	17131
2026-01-12 22:29:08.75	34.07	23.77	-23.3	-23.8	16.9	0.00e+00	0	30	0	11836325888	22	16869
2026-01-12 22:29:09.77	34.25	23.97	-23.2	-23.7	16.9	0.00e+00	0	30	0	11911823360	22	16696
2026-01-12 22:29:10.77	34.43	24.17	-23.3	-23.7	16.9	0.00e+00	0	30	0	11987320832	22	16770
2026-01-12 22:29:11.78	34.61	24.37	-23.3	-23.7	16.9	0.00e+00	0	30	0	12062818304	22	16758
2026-01-12 22:29:12.79	34.79	24.57	-23.3	-23.8	16.9	0.00e+00	0	30	0	12138315776	22	16884
2026-01-12 22:29:13.80	34.98	24.78	-23.1	-23.5	16.9	0.00e+00	0	30	0	12213813248	22	16353
2026-01-12 22:29:14.81	35.17	24.99	-23.1	-23.6	16.9	0.00e+00	0	30	0	12289310720	22	16454
2026-01-12 22:29:15.82	35.36	25.20	-22.9	-23.4	16.9	0.00e+00	0	30	0	12364808192	22	16091
2026-01-12 22:29:16.83	35.55	25.41	-23.1	-23.5	16.8	0.00e+00	0	30	0	12440305664	22	16348
2026-01-12 22:29:17.84	35.75	25.62	-22.9	-23.4	16.9	0.00e+00	0	30	0	12515803136	22	16102
2026-01-12 22:29:18.85	35.95	25.83	-23.1	-23.5	16.9	0.00e+00	0	30	0	12591300608	22	16380
2026-01-12 22:29:19.86	36.16	26.05	-22.9	-23.3	17.0	0.00e+00	0	30	0	12666798080	22	16008
2026-01-12 22:29:20.87	36.36	26.27	-22.8	-23.2	16.9	0.00e+00	0	30	0	12742295552	20	17718
2026-01-12 22:29:21.88	36.57	26.49	-22.9	-23.4	17.0	0.00e+00	0	30	0	12817793024	20	18013
2026-01-12 22:29:22.89	36.78	26.71	-22.6	-23.1	16.9	0.00e+00	0	30	0	12893290496	20	17432
2026-01-12 22:29:23.90	37.00	26.93	-22.7	-23.2	16.9	0.00e+00	0	30	0	12968787968	20	17612
2026-01-12 22:29:24.91	37.22	27.15	-22.5	-22.9	16.9	0.00e+00	0	30	0	13044285440	20	17116
2026-01-12 22:29:25.92	37.44	27.38	-22.5	-23.0	16.9	0.00e+00	0	30	0	13119782912	20	17307
2026-01-12 22:29:26.93	37.67	27.61	-22.5	-23.0	16.9	0.00e+00	0	30	0	13195280384	20	17270
2026-01-12 22:29:27.94	37.90	27.84	-22.5	-22.9	17.0	0.00e+00	0	30	0	13270777856	20	17159
2026-01-12 22:29:28.95	38.13	28.07	-22.4	-22.8	17.0	0.00e+00	0	30	0	13354663936	20	16952
2026-01-12 22:29:29.96	38.36	28.31	-22.4	-22.8	16.9	0.00e+00	0	30	0	13430161408	20	16943
2026-01-12 22:29:30.97	38.61	28.54	-22.2	-22.6	16.9	0.00e+00	0	30	0	13505658880	20	16608
2026-01-12 22:29:31.97	38.85	28.78	-22.2	-22.6	17.0	0.00e+00	0	30	0	13572767744	20	16526
2026-01-12 22:29:32.98	39.09	29.02	-22.3	-22.7	16.9	0.00e+00	0	30	0	13648265216	20	16766
2026-01-12 22:29:33.98	39.34	29.26	-22.2	-22.6	17.0	0.00e+00	0	30	0	13723762688	20	16575
2026-01-12 22:29:34.99	39.60	29.50	-22.0	-22.5	17.0	0.00e+00	0	30	0	13807648768	20	16261
2026-01-12 22:29:36.00	39.86	29.75	-22.1	-22.5	17.0	0.00e+00	0	30	0	13883146240	20	16388
2026-01-12 22:29:37.01	40.12	29.99	-22.2	-22.6	17.0	0.00e+00	0	30	0	13958643712	20	16556
2026-01-12 22:29:38.02	40.39	30.24	-21.9	-22.4	17.1	0.00e+00	0	30	0	14034141184	20	16180
2026-01-12 22:29:39.03	40.67	30.50	-21.9	-22.3	17.0	0.00e+00	0	30	0	14101250048	20	15966
2026-01-12 22:29:40.04	40.94	30.75	-21.8	-22.3	17.1	0.00e+00	0	30	0	14176747520	20	15929
2026-01-12 22:29:41.05	41.23	31.00	-21.7	-22.2	17.0	0.00e+00	0	30	0	14260633600	18	17651
2026-01-12 22:29:42.06	41.51	31.26	-21.6	-22.1	17.0	0.00e+00	0	30	0	14336131072	18	17496
2026-01-12 22:29:43.07	41.81	31.52	-21.5	-22.0	17.1	0.00e+00	0	30	0	14411628544	18	17301
2026-01-12 22:29:44.08	42.10	31.78	-21.6	-22.0	17.0	0.00e+00	0	30	0	14487126016	18	17396
2026-01-12 22:29:45.09	42.41	32.05	-21.4	-21.9	17.1	0.00e+00	0	30	0	14562623488	18	17113
2026-01-12 22:29:46.10	42.71	32.31	-21.4	-21.9	17.0	0.00e+00	0	30	0	14638120960	18	17124
2026-01-12 22:29:47.11	43.03	32.58	-21.4	-21.8	17.0	0.00e+00	0	30	0	14713618432	18	16975
2026-01-12 22:29:48.12	43.35	32.85	-21.4	-21.8	17.0	0.00e+00	0	30	0	14789115904	18	16977
2026-01-12 22:29:49.13	43.67	33.12	-21.3	-21.7	17.1	0.00e+00	0	30	0	14864613376	18	16787
2026-01-12 22:29:50.14	44.00	33.39	-21.3	-21.7	17.1	0.00e+00	0	30	0	14940110848	18	16778
2026-01-12 22:29:51.15	44.34	33.66	-21.3	-21.7	17.1	0.00e+00	0	30	0	15015608320	18	16764
2026-01-12 22:29:52.16	44.68	33.94	-21.2	-21.6	17.1	0.00e+00	0	30	0	15091105792	18	16545
2026-01-12 22:29:53.17	45.03	34.22	-21.1	-21.6	17.1	0.00e+00	0	30	0	15166603264	18	16536
2026-01-12 22:29:54.18	45.38	34.50	-21.3	-21.7	17.0	0.00e+00	0	30	0	15242100736	18	16777
2026-01-12 22:29:55.19	45.74	34.78	-21.1	-21.6	17.1	0.00e+00	0	30	0	15317598208	18	16478
2026-01-12 22:29:56.20	46.11	35.07	-21.0	-21.5	17.0	0.00e+00	0	30	0	15393095680	18	16252
2026-01-12 22:29:57.21	46.48	35.35	-20.9	-21.3	17.1	0.00e+00	0	30	0	15468593152	18	16045
2026-01-12 22:29:58.21	46.86	35.64	-20.8	-21.2	17.1	0.00e+00	0	30	0	15544090624	18	15866
2026-01-12 22:29:59.23	47.25	35.93	-20.8	-21.2	17.0	0.00e+00	0	30	0	15619588096	18	15807
2026-01-12 22:30:00.23	47.65	36.21	-20.8	-21.3	17.0	0.00e+00	0	30	0	15695085568	18	15945
2026-01-12 22:30:01.24	48.05	36.51	-20.7	-21.2	17.1	0.00e+00	0	30	0	15770583040	18	15766
2026-01-12 22:30:02.25	48.46	36.80	-20.7	-21.1	17.1	0.00e+00	0	30	0	15846080512	16	17590
2026-01-12 22:30:03.26	48.88	37.09	-20.6	-21.0	17.2	0.00e+00	0	30	0	15921577984	16	17367
2026-01-12 22:30:04.27	49.30	37.39	-20.6	-21.0	17.1	0.00e+00	0	30	0	15997075456	16	17361
2026-01-12 22:30:05.28	49.74	37.69	-20.6	-21.1	17.2	0.00e+00	0	30	0	16072572928	16	17472
2026-01-12 22:30:06.29	50.18	37.99	-20.6	-21.1	17.1	0.00e+00	0	30	0	16148070400	16	17503
2026-01-12 22:30:07.30	50.63	38.29	-20.4	-20.9	17.1	0.00e+00	0	30	0	16231956480	16	17076
2026-01-12 22:30:08.31	51.09	38.59	-20.3	-20.7	17.2	0.00e+00	0	30	0	16299065344	16	16807
2026-01-12 22:30:09.32	51.56	38.89	-20.4	-20.9	17.1	0.00e+00	0	30	0	16374562816	16	17013
2026-01-12 22:30:10.33	52.04	39.20	-20.3	-20.8	17.1	0.00e+00	0	30	0	16450060288	16	16889
2026-01-12 22:30:11.34	52.53	39.50	-20.3	-20.7	17.2	0.00e+00	0	30	0	16525557760	16	16753
2026-01-12 22:30:12.34	53.02	39.80	-20.2	-20.6	17.2	0.00e+00	0	30	0	16609443840	16	16606
2026-01-12 22:30:13.35	53.53	40.11	-20.1	-20.6	17.2	0.00e+00	0	30	0	16684941312	16	16480
2026-01-12 22:30:14.36	54.05	40.41	-20.1	-20.6	17.2	0.00e+00	0	30	0	16760438784	16	16473
2026-01-12 22:30:15.37	54.58	40.72	-20.0	-20.5	17.2	0.00e+00	0	30	0	16827547648	16	16252
2026-01-12 22:30:16.38	55.11	41.03	-20.0	-20.5	17.2	0.00e+00	0	30	0	16903045120	16	16345
2026-01-12 22:30:17.39	55.66	41.34	-20.0	-20.5	17.2	0.00e+00	0	30	0	16978542592	16	16271
2026-01-12 22:30:18.40	56.22	41.64	-19.9	-20.4	17.2	0.00e+00	0	30	0	17062428672	16	16123
2026-01-12 22:30:19.40	56.79	41.95	-19.8	-20.3	17.2	0.00e+00	0	30	0	17137926144	16	15875
2026-01-12 22:30:20.41	57.37	42.26	-19.7	-20.2	17.1	0.00e+00	0	30	0	17213423616	14	17671
2026-01-12 22:30:21.42	57.96	42.56	-19.8	-20.2	17.2	0.00e+00	0	30	0	17288921088	14	17783
2026-01-12 22:30:22.43	58.57	42.87	-19.7	-20.1	17.2	0.00e+00	0	30	0	17364418560	14	17601
2026-01-12 22:30:23.44	59.19	43.18	-19.6	-20.1	17.2	0.00e+00	0	30	0	17439916032	14	17528
2026-01-12 22:30:24.45	59.82	43.48	-19.7	-20.1	17.2	0.00e+00	0	30	0	17515413504	14	17564
2026-01-12 22:30:25.46	60.46	43.78	-19.6	-20.0	17.2	0.00e+00	0	30	0	17590910976	14	17345
2026-01-12 22:30:26.47	61.11	44.09	-19.6	-20.1	17.2	0.00e+00	0	30	0	17666408448	14	17437
2026-01-12 22:30:27.48	61.78	44.39	-19.5	-19.9	17.2	0.00e+00	0	30	0	17741905920	14	17170
2026-01-12 22:30:28.49	62.46	44.69	-19.5	-19.9	17.2	0.00e+00	0	30	0	17817403392	14	17175
2026-01-12 22:30:29.50	63.16	44.99	-19.6	-20.0	17.2	0.00e+00	0	30	0	17892900864	14	17360
2026-01-12 22:30:30.51	63.86	45.28	-19.5	-19.9	17.3	0.00e+00	0	30	0	17968398336	14	17122
2026-01-12 22:30:31.52	64.59	45.58	-19.3	-19.7	17.2	0.00e+00	0	30	0	18043895808	14	16800
2026-01-12 22:30:32.53	65.32	45.87	-19.3	-19.7	17.3	0.00e+00	0	30	0	18119393280	14	16754
2026-01-12 22:30:33.54	66.07	46.16	-19.3	-19.8	17.2	0.00e+00	0	30	0	18194890752	14	16813
2026-01-12 22:30:34.54	66.83	46.44	-19.2	-19.7	17.2	0.00e+00	0	30	0	18270388224	14	16724
2026-01-12 22:30:35.55	67.60	46.72	-19.2	-19.7	17.2	0.00e+00	0	30	0	18345885696	14	16667
2026-01-12 22:30:36.56	68.40	47.00	-19.1	-19.6	17.1	0.00e+00	0	30	0	18421383168	14	16481
2026-01-12 22:30:37.57	69.20	47.28	-19.2	-19.7	17.2	0.00e+00	0	30	0	18496880640	14	16698
2026-01-12 22:30:38.58	70.02	47.55	-19.1	-19.6	17.2	0.00e+00	0	30	0	18572378112	14	16523
2026-01-12 22:30:39.59	70.86	47.81	-19.2	-19.7	17.2	0.00e+00	0	30	0	18647875584	14	16730
2026-01-12 22:30:40.59	71.70	48.07	-19.2	-19.7	17.2	0.00e+00	0	30	0	18723373056	14	16667
2026-01-12 22:30:41.60	72.57	48.33	-19.1	-19.6	17.2	0.00e+00	0	30	0	18798870528	14	16433
2026-01-12 22:30:42.61	73.45	48.58	-19.0	-19.5	17.2	0.00e+00	0	30	0	18874368000	14	16330
2026-01-12 22:30:43.62	74.34	48.83	-18.9	-19.4	17.2	0.00e+00	0	30	0	18949865472	14	16092
2026-01-12 22:30:44.63	75.25	49.07	-19.0	-19.4	17.2	0.00e+00	0	30	0	19025362944	14	16212
2026-01-12 22:30:45.64	76.17	49.30	-18.8	-19.3	17.2	0.00e+00	0	30	0	19100860416	14	15984
2026-01-12 22:30:46.65	77.11	49.53	-18.9	-19.3	17.3	0.00e+00	0	30	0	19176357888	14	16029
2026-01-12 22:30:47.66	78.07	49.75	-18.8	-19.3	17.2	0.00e+00	0	30	0	19251855360	14	15871
2026-01-12 22:30:48.66	79.02	49.97	-18.8	-19.3	17.3	0.00e+00	0	30	0	19327352832	14	15894
2026-01-12 22:30:49.67	80.00	50.17	-18.8	-19.3	17.1	0.00e+00	0	30	0	19402850304	14	16000
2026-01-12 22:30:50.68	81.00	50.37	-18.7	-19.2	17.3	0.00e+00	0	30	0	19478347776	12	17646
2026-01-12 22:30:51.69	82.00	50.56	-18.8	-19.2	17.2	0.00e+00	0	30	0	19553845248	12	17768
2026-01-12 22:30:52.70	83.02	50.75	-18.8	-19.2	17.2	0.00e+00	0	30	0	19629342720	12	17757
2026-01-12 22:30:53.71	84.05	50.92	-18.8	-19.3	17.2	0.00e+00	0	30	0	19704840192	12	17921
2026-01-12 22:30:54.72	85.10	51.09	-18.8	-19.2	17.2	0.00e+00	0	30	0	19780337664	12	17788
2026-01-12 22:30:55.73	86.15	51.24	-18.8	-19.2	17.2	0.00e+00	0	30	0	19855835136	12	17731
2026-01-12 22:30:56.74	87.22	51.39	-18.7	-19.1	17.3	0.00e+00	0	30	0	19931332608	12	17532
2026-01-12 22:30:57.75	88.30	51.53	-18.6	-19.1	17.3	0.00e+00	0	30	0	20015218688	12	17452
2026-01-12 22:30:58.76	89.38	51.65	-18.7	-19.2	17.2	0.00e+00	0	30	0	20090716160	12	17674
2026-01-12 22:30:59.77	90.48	51.77	-18.5	-19.0	17.3	0.00e+00	0	30	0	20157825024	12	17242
2026-01-12 22:31:00.77	91.57	51.88	-18.7	-19.2	17.1	0.00e+00	0	30	0	20233322496	12	17672
2026-01-12 22:31:01.78	92.68	51.97	-18.6	-19.0	17.2	0.00e+00	0	30	0	20308819968	12	17383
2026-01-12 22:31:02.79	93.80	52.06	-18.6	-19.0	17.2	0.00e+00	0	30	0	20384317440	12	17366
2026-01-12 22:31:03.80	94.93	52.13	-18.6	-19.1	17.2	0.00e+00	0	30	0	20468203520	12	17401
2026-01-12 22:31:04.81	96.06	52.20	-18.7	-19.1	17.2	0.00e+00	0	30	0	20543700992	12	17509
2026-01-12 22:31:05.81	97.18	52.25	-18.5	-18.9	17.2	0.00e+00	0	30	0	20619198464	12	17186
2026-01-12 22:31:06.82	98.32	52.29	-18.6	-19.0	17.3	0.00e+00	0	30	0	20694695936	12	17353
2026-01-12 22:31:07.83	99.46	52.32	-18.5	-19.0	17.2	0.00e+00	0	30	0	20761804800	12	17242
2026-01-12 22:31:08.84	100.61	52.34	-18.5	-19.0	17.2	0.00e+00	0	30	0	20845690880	12	17245
2026-01-12 22:31:09.85	101.75	52.35	-18.5	-19.0	17.2	0.00e+00	0	30	0	20921188352	12	17294
2026-01-12 22:31:10.86	102.90	52.35	-18.5	-19.0	17.3	0.00e+00	0	30	0	20996685824	12	17223
2026-01-12 22:31:11.87	104.04	52.33	-18.5	-19.0	17.2	0.00e+00	0	30	0	21072183296	12	17202
2026-01-12 22:31:12.88	105.18	52.30	-18.5	-19.0	17.3	0.00e+00	0	30	0	21147680768	12	17238
2026-01-12 22:31:13.89	106.32	52.27	-18.5	-19.0	17.2	0.00e+00	0	30	0	21223178240	12	17293
2026-01-12 22:31:14.90	107.46	52.22	-18.5	-18.9	17.2	0.00e+00	0	30	0	21298675712	12	17127
2026-01-12 22:31:15.90	108.58	52.16	-18.6	-19.1	17.3	0.00e+00	0	30	0	21374173184	12	17436
2026-01-12 22:31:16.91	109.71	52.09	-18.5	-18.9	17.2	0.00e+00	0	30	0	21449670656	12	17173
2026-01-12 22:31:17.92	110.83	52.00	-18.6	-19.1	17.3	0.00e+00	0	30	0	21525168128	12	17520
2026-01-12 22:31:18.93	111.94	51.91	-18.5	-19.0	17.2	0.00e+00	0	30	0	21600665600	12	17214
2026-01-12 22:31:19.94	113.05	51.81	-18.6	-19.1	17.3	0.00e+00	0	30	0	21676163072	12	17455
2026-01-12 22:31:20.95	114.15	51.69	-18.6	-19.0	17.2	0.00e+00	0	30	0	21751660544	12	17359
2026-01-12 22:31:21.96	115.24	51.57	-18.5	-19.0	17.2	0.00e+00	0	30	0	21827158016	12	17281
2026-01-12 22:31:22.96	116.31	51.44	-18.7	-19.2	17.2	0.00e+00	0	30	0	21902655488	12	17632
2026-01-12 22:31:23.98	117.39	51.29	-18.7	-19.2	17.3	0.00e+00	0	30	0	21978152960	12	17612
2026-01-12 22:31:24.98	118.44	51.14	-18.7	-19.2	17.3	0.00e+00	0	30	0	22053650432	12	17649
2026-01-12 22:31:25.99	119.49	50.97	-18.8	-19.2	17.2	0.00e+00	0	30	0	22129147904	12	17752
2026-01-12 22:31:27.00	120.53	50.80	-18.8	-19.2	17.3	0.00e+00	0	30	0	22204645376	12	17762
2026-01-12 22:31:28.01	121.55	50.62	-18.7	-19.2	17.2	0.00e+00	0	30	0	22280142848	12	17668
2026-01-12 22:31:29.02	122.56	50.43	-18.7	-19.2	17.2	0.00e+00	0	30	0	22355640320	12	17651
2026-01-12 22:31:30.03	123.56	50.24	-18.8	-19.3	17.2	0.00e+00	0	30	0	22431137792	12	17808
2026-01-12 22:31:31.04	124.55	50.03	-18.7	-19.2	17.3	0.00e+00	0	30	0	22506635264	12	17605
2026-01-12 22:31:32.05	125.52	49.82	-18.8	-19.3	17.2	0.00e+00	0	30	0	22582132736	12	17888
2026-01-12 22:31:33.06	126.47	49.60	-18.8	-19.3	17.2	0.00e+00	0	30	0	22657630208	12	17834
2026-01-12 22:31:34.07	127.42	49.38	-18.8	-19.3	17.3	0.00e+00	0	30	0	22733127680	12	17897
2026-01-12 22:31:35.08	128.35	49.14	-18.9	-19.3	17.2	0.00e+00	0	30	0	22808625152	12	17924
2026-01-12 22:31:36.09	129.26	48.90	-18.9	-19.4	17.3	0.00e+00	0	30	0	22884122624	12	18096
2026-01-12 22:31:37.10	130.16	48.66	-19.0	-19.4	17.3	0.00e+00	0	30	0	22959620096	12	18179
2026-01-12 22:31:38.11	131.05	48.41	-19.0	-19.5	17.2	0.00e+00	0	30	0	23035117568	12	18225
2026-01-12 22:31:39.12	131.92	48.15	-19.0	-19.4	17.2	0.00e+00	0	30	0	23110615040	12	18124
2026-01-12 22:31:40.13	132.77	47.89	-19.0	-19.5	17.2	0.00e+00	0	30	0	23186112512	12	18238
2026-01-12 22:31:41.14	133.62	47.63	-19.0	-19.5	17.2	0.00e+00	0	30	0	23261609984	12	18236
2026-01-12 22:31:42.15	134.44	47.35	-19.1	-19.6	17.2	0.00e+00	0	30	0	23345496064	12	18519
2026-01-12 22:31:43.15	135.25	47.08	-19.1	-19.6	17.3	0.00e+00	0	30	0	23412604928	12	18485
2026-01-12 22:31:44.17	136.05	46.80	-19.2	-19.6	17.2	0.00e+00	0	30	0	23488102400	12	18639
2026-01-12 22:31:45.17	136.83	46.52	-19.1	-19.6	17.3	0.00e+00	0	30	0	23563599872	12	18542
2026-01-12 22:31:46.18	137.59	46.24	-19.3	-19.8	17.3	0.00e+00	0	30	0	23639097344	12	18915
2026-01-12 22:31:47.19	138.35	45.95	-19.3	-19.8	17.2	0.00e+00	0	30	0	23714594816	12	18914
2026-01-12 22:31:48.20	139.09	45.66	-19.2	-19.7	17.2	0.00e+00	0	30	0	23798480896	12	18729
2026-01-12 22:31:49.21	139.82	45.36	-19.4	-19.9	17.2	0.00e+00	0	30	0	23873978368	12	19094
2026-01-12 22:31:50.22	140.53	45.07	-19.4	-19.9	17.2	0.00e+00	0	30	0	23949475840	12	19085
2026-01-12 22:31:51.23	141.23	44.77	-19.4	-19.9	17.2	0.00e+00	0	30	0	24016584704	12	19167
2026-01-12 22:31:52.24	141.91	44.47	-19.6	-20.0	17.2	0.00e+00	0	30	0	24092082176	12	19470
2026-01-12 22:31:53.24	142.58	44.17	-19.4	-19.9	17.2	0.00e+00	0	30	0	24175968256	12	19165
2026-01-12 22:31:54.25	143.24	43.87	-19.5	-20.0	17.2	0.00e+00	0	30	0	24251465728	12	19437
2026-01-12 22:31:55.26	143.89	43.56	-19.6	-20.0	17.2	0.00e+00	0	30	0	24326963200	12	19505
2026-01-12 22:31:56.27	144.52	43.26	-19.5	-20.0	17.2	0.00e+00	0	30	0	24402460672	12	19458
2026-01-12 22:31:57.28	145.14	42.95	-19.6	-20.0	17.2	0.00e+00	0	30	0	24477958144	12	19498
2026-01-12 22:31:58.29	145.75	42.65	-19.7	-20.2	17.2	0.00e+00	0	30	0	24545067008	12	19889
2026-01-12 22:31:59.30	146.35	42.34	-19.8	-20.2	17.3	0.00e+00	0	30	0	24628953088	14	17764
2026-01-12 22:32:00.31	146.94	42.03	-19.8	-20.3	17.3	0.00e+00	0	30	0	24704450560	14	17940
2026-01-12 22:32:01.31	147.51	41.72	-19.9	-20.3	17.3	0.00e+00	0	30	0	24779948032	14	17974
2026-01-12 22:32:02.32	148.07	41.42	-19.8	-20.3	17.2	0.00e+00	0	30	0	24855445504	14	17893
2026-01-12 22:32:03.33	148.62	41.11	-20.1	-20.5	17.3	0.00e+00	0	30	0	24930942976	14	18385
2026-01-12 22:32:04.34	149.16	40.80	-20.1	-20.6	17.2	0.00e+00	0	30	0	25006440448	14	18471
2026-01-12 22:32:05.35	149.70	40.49	-20.0	-20.5	17.2	0.00e+00	0	30	0	25081937920	14	18341
2026-01-12 22:32:06.36	150.22	40.18	-20.0	-20.5	17.2	0.00e+00	0	30	0	25157435392	14	18335
2026-01-12 22:32:07.37	150.73	39.88	-20.1	-20.6	17.2	0.00e+00	0	30	0	25232932864	14	18523
2026-01-12 22:32:08.38	151.23	39.57	-20.1	-20.6	17.1	0.00e+00	0	30	0	25308430336	14	18498
2026-01-12 22:32:09.39	151.72	39.27	-20.2	-20.6	17.2	0.00e+00	0	30	0	25383927808	14	18572
2026-01-12 22:32:10.40	152.20	38.96	-20.2	-20.7	17.2	0.00e+00	0	30	0	25459425280	14	18781
2026-01-12 22:32:11.41	152.68	38.66	-20.2	-20.7	17.2	0.00e+00	0	30	0	25534922752	14	18781
2026-01-12 22:32:12.42	153.14	38.36	-20.4	-20.8	17.2	0.00e+00	0	30	0	25610420224	14	19011
2026-01-12 22:32:13.43	153.59	38.06	-20.4	-20.9	17.2	0.00e+00	0	30	0	25685917696	14	19103
2026-01-12 22:32:14.44	154.04	37.76	-20.4	-20.9	17.2	0.00e+00	0	30	0	25761415168	14	19141
2026-01-12 22:32:15.45	154.48	37.46	-20.4	-20.9	17.2	0.00e+00	0	30	0	25836912640	14	19203
2026-01-12 22:32:16.46	154.91	37.16	-20.5	-21.0	17.2	0.00e+00	0	30	0	25912410112	14	19320
2026-01-12 22:32:17.47	155.33	36.86	-20.7	-21.1	17.2	0.00e+00	0	30	0	25987907584	14	19703
2026-01-12 22:32:18.47	155.74	36.57	-20.7	-21.2	17.2	0.00e+00	0	30	0	26063405056	16	17633
2026-01-12 22:32:19.48	156.14	36.28	-20.6	-21.1	17.3	0.00e+00	0	30	0	26138902528	16	17435
2026-01-12 22:32:20.49	156.54	35.99	-20.8	-21.2	17.2	0.00e+00	0	30	0	26214400000	16	17802
2026-01-12 22:32:21.50	156.93	35.70	-20.7	-21.2	17.2	0.00e+00	0	30	0	26289897472	16	17655
2026-01-12 22:32:22.51	157.32	35.41	-20.8	-21.3	17.1	0.00e+00	0	30	0	26365394944	16	17932
2026-01-12 22:32:23.52	157.69	35.12	-20.8	-21.3	17.2	0.00e+00	0	30	0	26440892416	16	17908
2026-01-12 22:32:24.53	158.06	34.84	-21.0	-21.4	17.2	0.00e+00	0	30	0	26516389888	16	18176
2026-01-12 22:32:25.54	158.43	34.55	-20.9	-21.4	17.2	0.00e+00	0	30	0	26600275968	16	18098
2026-01-12 22:32:26.55	158.78	34.27	-21.0	-21.5	17.2	0.00e+00	0	30	0	26675773440	16	18331
2026-01-12 22:32:27.56	159.13	33.99	-21.1	-21.6	17.1	0.00e+00	0	30	0	26742882304	16	18564
2026-01-12 22:32:28.57	159.48	33.71	-21.1	-21.6	17.1	0.00e+00	0	30	0	26818379776	16	18481
2026-01-12 22:32:29.58	159.81	33.44	-21.2	-21.7	17.1	0.00e+00	0	30	0	26893877248	16	18742
2026-01-12 22:32:30.59	160.15	33.17	-21.2	-21.7	17.1	0.00e+00	0	30	0	26977763328	16	18663
2026-01-12 22:32:31.60	160.47	32.89	-21.3	-21.8	17.1	0.00e+00	0	30	0	27053260800	16	18917
2026-01-12 22:32:32.61	160.79	32.62	-21.3	-21.8	17.1	0.00e+00	0	30	0	27128758272	16	18895
2026-01-12 22:32:33.62	161.11	32.35	-21.4	-21.9	17.1	0.00e+00	0	30	0	27204255744	16	19143
2026-01-12 22:32:34.63	161.42	32.09	-21.4	-21.9	17.1	0.00e+00	0	30	0	27271364608	16	19108
2026-01-12 22:32:35.64	161.72	31.82	-21.5	-22.0	17.1	0.00e+00	0	30	0	27346862080	16	19343
2026-01-12 22:32:36.65	162.02	31.56	-21.5	-22.0	17.1	0.00e+00	0	30	0	27430748160	16	19424
2026-01-12 22:32:37.66	162.31	31.30	-21.6	-22.0	17.1	0.00e+00	0	30	0	27506245632	16	19490
2026-01-12 22:32:38.66	162.60	31.04	-21.6	-22.0	17.1	0.00e+00	0	30	0	27581743104	16	19518
2026-01-12 22:32:39.68	162.89	30.79	-21.7	-22.2	17.1	0.00e+00	0	30	0	27657240576	18	17698
2026-01-12 22:32:40.68	163.16	30.53	-21.8	-22.2	17.1	0.00e+00	0	30	0	27732738048	18	17764
2026-01-12 22:32:41.69	163.44	30.28	-22.0	-22.5	17.1	0.00e+00	0	30	0	27808235520	18	18353
2026-01-12 22:32:42.70	163.71	30.03	-21.7	-22.2	17.2	0.00e+00	0	30	0	27883732992	18	17749
2026-01-12 22:32:43.71	163.97	29.78	-21.9	-22.4	17.1	0.00e+00	0	30	0	27959230464	18	18114
2026-01-12 22:32:44.72	164.24	29.53	-21.9	-22.3	17.1	0.00e+00	0	30	0	28034727936	18	17968
2026-01-12 22:32:45.73	164.49	29.29	-22.0	-22.5	17.1	0.00e+00	0	30	0	28110225408	18	18269
2026-01-12 22:32:46.74	164.75	29.05	-22.0	-22.4	17.1	0.00e+00	0	30	0	28185722880	18	18187
2026-01-12 22:32:47.75	165.00	28.81	-22.1	-22.6	17.0	0.00e+00	0	30	0	28261220352	18	18522
2026-01-12 22:32:48.76	165.24	28.57	-22.2	-22.6	17.0	0.00e+00	0	30	0	28336717824	18	18615
2026-01-12 22:32:49.77	165.48	28.33	-22.2	-22.7	17.0	0.00e+00	0	30	0	28412215296	18	18800
2026-01-12 22:32:50.78	165.72	28.09	-22.2	-22.7	17.1	0.00e+00	0	30	0	28487712768	18	18776
2026-01-12 22:32:51.79	165.95	27.86	-22.3	-22.8	17.1	0.00e+00	0	30	0	28563210240	18	18894
2026-01-12 22:32:52.80	166.18	27.63	-22.3	-22.8	17.1	0.00e+00	0	30	0	28638707712	18	19002
2026-01-12 22:32:53.81	166.41	27.40	-22.4	-22.9	17.0	0.00e+00	0	30	0	28714205184	18	19208
2026-01-12 22:32:54.81	166.63	27.17	-22.4	-22.9	17.0	0.00e+00	0	30	0	28789702656	18	19121
2026-01-12 22:32:55.82	166.85	26.95	-22.4	-22.9	17.0	0.00e+00	0	30	0	28865200128	18	19138
2026-01-12 22:32:56.83	167.07	26.72	-22.6	-23.0	17.0	0.00e+00	0	30	0	28940697600	18	19509
2026-01-12 22:32:57.84	167.28	26.50	-22.6	-23.0	17.0	0.00e+00	0	30	0	29016195072	18	19517
2026-01-12 22:32:58.85	167.49	26.28	-22.7	-23.2	17.1	0.00e+00	0	30	0	29091692544	18	19764
2026-01-12 22:32:59.86	167.70	26.06	-22.7	-23.2	17.0	0.00e+00	0	30	0	29167190016	18	19758
2026-01-12 22:33:00.86	167.90	25.85	-22.6	-23.1	17.1	0.00e+00	0	30	0	29242687488	18	19657
2026-01-12 22:33:01.87	168.10	25.63	-22.8	-23.3	17.0	0.00e+00	0	30	0	29318184960	20	17893
2026-01-12 22:33:02.88	168.30	25.42	-22.8	-23.2	17.0	0.00e+00	0	30	0	29393682432	20	17790
2026-01-12 22:33:03.89	168.50	25.21	-22.8	-23.3	17.0	0.00e+00	0	30	0	29469179904	20	17882
2026-01-12 22:33:04.90	168.69	25.00	-22.9	-23.3	17.0	0.00e+00	0	30	0	29544677376	20	17951
2026-01-12 22:33:05.91	168.88	24.79	-22.9	-23.4	17.0	0.00e+00	0	30	0	29620174848	20	18097
2026-01-12 22:33:06.92	169.07	24.58	-23.0	-23.4	17.0	0.00e+00	0	30	0	29695672320	20	18203
2026-01-12 22:33:07.93	169.25	24.38	-23.0	-23.5	17.0	0.00e+00	0	30	0	29771169792	20	18316
2026-01-12 22:33:08.94	169.43	24.18	-23.1	-23.5	16.9	0.00e+00	0	30	0	29846667264	20	18417
2026-01-12 22:33:09.95	169.61	23.97	-23.1	-23.5	17.0	0.00e+00	0	30	0	29930553344	20	18423
2026-01-12 22:33:10.96	169.79	23.78	-23.2	-23.6	17.0	0.00e+00	0	30	0	29997662208	20	18577
2026-01-12 22:33:11.97	169.96	23.58	-23.2	-23.7	17.0	0.00e+00	0	30	0	30073159680	20	18661
2026-01-12 22:33:12.98	170.13	23.38	-23.3	-23.8	16.9	0.00e+00	0	30	0	30148657152	20	18965
2026-01-12 22:33:13.99	170.30	23.19	-23.3	-23.8	16.9	0.00e+00	0	30	0	30224154624	20	18872
2026-01-12 22:33:14.99	170.47	22.99	-23.4	-23.9	16.9	0.00e+00	0	30	0	30308040704	20	19127
2026-01-12 22:33:16.00	170.64	22.80	-23.5	-24.0	16.9	0.00e+00	0	30	0	30383538176	20	19383
2026-01-12 22:33:17.01	170.80	22.61	-23.4	-23.9	16.9	0.00e+00	0	30	0	30459035648	20	19169
2026-01-12 22:33:18.02	170.96	22.42	-23.6	-24.0	16.9	0.00e+00	0	30	0	30534533120	20	19489
2026-01-12 22:33:19.03	171.12	22.24	-23.6	-24.0	16.9	0.00e+00	0	30	0	30601641984	20	19479
2026-01-12 22:33:20.04	171.27	22.05	-23.5	-24.0	16.9	0.00e+00	0	30	0	30685528064	20	19429
2026-01-12 22:33:21.05	171.43	21.87	-23.6	-24.1	16.9	0.00e+00	0	30	0	30761025536	20	19648
2026-01-12 22:33:22.06	171.58	21.68	-23.7	-24.2	16.8	0.00e+00	0	30	0	30836523008	20	19772
2026-01-12 22:33:23.07	171.73	21.50	-23.7	-24.2	16.9	0.00e+00	0	30	0	30912020480	20	19836
2026-01-12 22:33:24.08	171.88	21.32	-23.8	-24.2	16.9	0.00e+00	0	30	0	30987517952	22	17741
2026-01-12 22:33:25.09	172.03	21.14	-23.9	-24.4	16.9	0.00e+00	0	30	0	31063015424	22	18088
2026-01-12 22:33:26.10	172.17	20.97	-24.0	-24.4	16.9	0.00e+00	0	30	0	31138512896	22	18166
2026-01-12 22:33:27.11	172.32	20.79	-23.9	-24.4	16.9	0.00e+00	0	30	0	31214010368	22	18070
2026-01-12 22:33:28.12	172.46	20.62	-24.0	-24.5	16.9	0.00e+00	0	30	0	31289507840	22	18345
2026-01-12 22:33:29.13	172.60	20.44	-24.1	-24.5	16.8	0.00e+00	0	30	0	31365005312	22	18374
2026-01-12 22:33:30.14	172.74	20.27	-24.0	-24.5	16.8	0.00e+00	0	30	0	31440502784	22	18337
2026-01-12 22:33:31.15	172.87	20.10	-24.2	-24.6	16.8	0.00e+00	0	30	0	31516000256	22	18616
2026-01-12 22:33:32.16	173.01	19.93	-24.2	-24.7	16.8	0.00e+00	0	30	0	31591497728	22	18735
2026-01-12 22:33:33.17	173.14	19.76	-24.2	-24.7	16.8	0.00e+00	0	30	0	31666995200	22	18736
2026-01-12 22:33:34.18	173.27	19.60	-24.3	-24.8	16.8	0.00e+00	0	30	0	31742492672	22	18963
2026-01-12 22:33:35.19	173.40	19.43	-24.3	-24.8	16.8	0.00e+00	0	30	0	31817990144	22	18947
2026-01-12 22:33:36.20	173.53	19.27	-24.5	-24.9	16.8	0.00e+00	0	30	0	31893487616	22	19248
2026-01-12 22:33:37.21	173.66	19.11	-24.4	-24.9	16.8	0.00e+00	0	30	0	31968985088	22	19162
2026-01-12 22:33:38.22	173.78	18.94	-24.4	-24.9	16.8	0.00e+00	0	30	0	32044482560	22	19142
2026-01-12 22:33:39.22	173.90	18.78	-24.5	-24.9	16.8	0.00e+00	0	30	0	32119980032	22	19284
2026-01-12 22:33:40.24	174.03	18.62	-24.6	-25.0	16.7	0.00e+00	0	30	0	32195477504	22	19512
2026-01-12 22:33:41.24	174.15	18.47	-24.6	-25.0	16.8	0.00e+00	0	30	0	32270974976	22	19523
2026-01-12 22:33:42.25	174.27	18.31	-24.7	-25.2	16.8	0.00e+00	0	30	0	32346472448	22	19752
2026-01-12 22:33:43.26	174.39	18.16	-24.7	-25.2	16.8	0.00e+00	0	30	0	32421969920	22	19752
2026-01-12 22:33:44.27	174.50	18.00	-24.7	-25.1	16.8	0.00e+00	0	30	0	32497467392	22	19724
2026-01-12 22:33:45.28	174.62	17.85	-24.8	-25.2	16.7	0.00e+00	0	30	0	32572964864	22	19947
2026-01-12 22:33:46.29	174.73	17.70	-24.9	-25.4	16.8	0.00e+00	0	30	0	32648462336	24	18031
2026-01-12 22:33:47.30	174.84	17.54	-24.9	-25.4	16.7	0.00e+00	0	30	0	32723959808	24	18041
2026-01-12 22:33:48.31	174.96	17.39	-24.9	-25.4	16.7	0.00e+00	0	30	0	32799457280	24	18058
2026-01-12 22:33:49.32	175.07	17.25	-24.9	-25.4	16.7	0.00e+00	0	30	0	32874954752	24	18033
2026-01-12 22:33:50.33	175.18	17.10	-25.0	-25.5	16.7	0.00e+00	0	30	0	32950452224	24	18335
2026-01-12 22:33:51.34	175.28	16.95	-25.0	-25.4	16.7	0.00e+00	0	30	0	33034338304	24	18184
2026-01-12 22:33:52.35	175.39	16.80	-25.1	-25.6	16.7	0.00e+00	0	30	0	33109835776	24	18488
2026-01-12 22:33:53.36	175.50	16.66	-25.0	-25.5	16.7	0.00e+00	0	30	0	33185333248	24	18305
2026-01-12 22:33:54.37	175.60	16.52	-25.2	-25.7	16.6	0.00e+00	0	30	0	33252442112	24	18715
2026-01-12 22:33:55.38	175.71	16.37	-25.2	-25.6	16.4	0.00e+00	0	30	0	33327939584	24	18545
2026-01-12 22:33:56.38	175.81	16.23	-25.4	-25.8	16.0	0.00e+00	0	30	0	33403437056	24	18901
2026-01-12 22:33:57.39	175.91	16.09	-25.3	-25.7	16.1	0.00e+00	0	30	0	33487323136	24	18776
2026-01-12 22:33:58.40	176.01	15.95	-25.4	-25.8	16.5	0.00e+00	0	30	0	33562820608	24	19048
2026-01-12 22:33:59.41	176.11	15.81	-25.3	-25.8	16.5	0.00e+00	0	30	0	33638318080	24	18988
2026-01-12 22:34:00.42	176.21	15.68	-25.4	-25.8	16.6	0.00e+00	0	30	0	33713815552	24	19027
2026-01-12 22:34:01.43	176.30	15.54	-25.5	-26.0	16.5	0.00e+00	0	30	0	33789313024	24	19425
2026-01-12 22:34:02.44	176.40	15.40	-25.5	-26.0	16.6	0.00e+00	0	30	0	33856421888	24	19315
2026-01-12 22:34:03.45	176.50	15.27	-25.6	-26.1	16.5	0.00e+00	0	30	0	33940307968	24	19673
2026-01-12 22:34:04.46	176.59	15.13	-25.6	-26.0	16.6	0.00e+00	0	30	0	34015805440	24	19460
2026-01-12 22:34:05.47	176.68	15.00	-25.7	-26.2	16.5	0.00e+00	0	30	0	34091302912	26	17644
2026-01-12 22:34:06.48	176.78	14.87	-25.6	-26.1	16.5	0.00e+00	0	30	0	34166800384	26	17496
2026-01-12 22:34:07.48	176.87	14.74	-25.7	-26.2	16.4	0.00e+00	0	30	0	34242297856	26	17717
2026-01-12 22:34:08.49	176.96	14.61	-25.7	-26.2	16.4	0.00e+00	0	30	0	34317795328	26	17637
2026-01-12 22:34:09.50	177.05	14.48	-25.8	-26.2	16.4	0.00e+00	0	30	0	34393292800	26	17742
2026-01-12 22:34:10.51	177.13	14.35	-25.8	-26.3	16.4	0.00e+00	0	30	0	34468790272	26	17848
2026-01-12 22:34:11.52	177.22	14.22	-26.0	-26.4	16.4	0.00e+00	0	30	0	34544287744	26	18207
2026-01-12 22:34:12.53	177.31	14.09	-25.9	-26.4	16.4	0.00e+00	0	30	0	34619785216	26	18099
2026-01-12 22:34:13.54	177.40	13.97	-25.9	-26.4	16.3	0.00e+00	0	30	0	34695282688	26	18076
2026-01-12 22:34:14.55	177.48	13.84	-26.1	-26.5	16.3	0.00e+00	0	30	0	34770780160	26	18344
2026-01-12 22:34:15.56	177.57	13.71	-26.0	-26.4	16.4	0.00e+00	0	30	0	34846277632	26	18183
2026-01-12 22:34:16.57	177.65	13.59	-26.1	-26.6	16.5	0.00e+00	0	30	0	34921775104	26	18501
2026-01-12 22:34:17.58	177.73	13.47	-26.1	-26.6	16.3	0.00e+00	0	30	0	34997272576	26	18491
2026-01-12 22:34:18.60	177.82	13.34	-26.1	-26.6	16.4	0.00e+00	0	30	0	35072770048	26	18445
2026-01-12 22:34:19.61	177.90	13.22	-26.3	-26.8	16.3	0.00e+00	0	30	0	35148267520	26	18866
2026-01-12 22:34:20.61	177.98	13.10	-26.2	-26.6	16.3	0.00e+00	0	30	0	35223764992	26	18643
2026-01-12 22:34:21.62	178.06	12.98	-26.3	-26.7	16.4	0.00e+00	0	30	0	35299262464	26	18800
2026-01-12 22:34:22.63	178.14	12.86	-26.3	-26.8	16.3	0.00e+00	0	30	0	35374759936	26	18895
2026-01-12 22:34:23.64	178.21	12.74	-26.3	-26.8	16.4	0.00e+00	0	30	0	35450257408	26	18965
2026-01-12 22:34:24.65	178.29	12.62	-26.4	-26.9	16.4	0.00e+00	0	30	0	35525754880	26	19124
2026-01-12 22:34:25.66	178.37	12.51	-26.3	-26.8	16.3	0.00e+00	0	30	0	35601252352	26	18956
2026-01-12 22:34:26.67	178.45	12.39	-26.4	-26.8	16.3	0.00e+00	0	30	0	35676749824	26	19072
2026-01-12 22:34:27.68	178.52	12.27	-26.6	-27.1	16.4	0.00e+00	0	30	0	35752247296	26	19524
2026-01-12 22:34:28.69	178.60	12.16	-26.5	-27.0	16.4	0.00e+00	0	30	0	35827744768	26	19319
2026-01-12 22:34:29.70	178.67	12.04	-26.6	-27.1	16.3	0.00e+00	0	30	0	35911630848	26	19525
2026-01-12 22:34:30.71	178.74	11.93	-26.5	-27.0	16.2	0.00e+00	0	30	0	35978739712	28	17302
2026-01-12 22:34:31.71	178.82	11.82	-26.6	-27.1	16.3	0.00e+00	0	30	0	36054237184	28	17492
2026-01-12 22:34:32.72	178.89	11.70	-26.8	-27.2	16.2	0.00e+00	0	30	0	36129734656	28	17800
2026-01-12 22:34:33.73	178.96	11.59	-26.9	-27.3	16.2	0.00e+00	0	30	0	36205232128	28	17962
2026-01-12 22:34:34.74	179.03	11.48	-26.8	-27.2	16.2	0.00e+00	0	30	0	36280729600	28	17804
2026-01-12 22:34:35.75	179.10	11.37	-26.7	-27.1	16.3	0.00e+00	0	30	0	36364615680	28	17572
2026-01-12 22:34:36.76	179.17	11.26	-26.8	-27.3	16.2	0.00e+00	0	30	0	36440113152	28	17906
2026-01-12 22:34:37.76	179.24	11.15	-26.9	-27.4	16.2	0.00e+00	0	30	0	36515610624	28	18080
2026-01-12 22:34:38.77	179.31	11.04	-26.9	-27.3	16.2	0.00e+00	0	30	0	36582719488	28	18002
2026-01-12 22:34:39.78	179.38	10.93	-26.9	-27.4	16.2	0.00e+00	0	30	0	36658216960	28	18052
2026-01-12 22:34:40.79	179.44	10.83	-27.0	-27.4	16.2	0.00e+00	0	30	0	36742103040	28	18149
2026-01-12 22:34:41.80	179.51	10.72	-27.0	-27.5	16.2	0.00e+00	0	30	0	36817600512	28	18295
2026-01-12 22:34:42.81	179.58	10.61	-27.2	-27.6	16.2	0.00e+00	0	30	0	36893097984	28	18586
2026-01-12 22:34:43.82	179.64	10.51	-27.1	-27.6	16.2	0.00e+00	0	30	0	36968595456	28	18478
2026-01-12 22:34:44.83	179.71	10.40	-27.1	-27.6	16.1	0.00e+00	0	30	0	37044092928	28	18469
2026-01-12 22:34:45.84	179.77	10.30	-27.2	-27.7	16.1	0.00e+00	0	30	0	37111201792	28	18658
2026-01-12 22:34:46.85	179.84	10.19	-27.2	-27.7	16.1	0.00e+00	0	30	0	37195087872	28	18708
2026-01-12 22:34:47.86	179.90	10.09	-27.2	-27.6	16.1	0.00e+00	0	30	0	37270585344	28	18570
2026-01-12 22:34:48.86	179.96	9.99	-27.3	-27.7	16.1	0.00e+00	0	30	0	37346082816	28	18774
2026-01-12 22:34:49.88	180.03	9.88	-27.2	-27.7	16.1	0.00e+00	0	30	0	37421580288	28	18688
2026-01-12 22:34:50.89	180.09	9.78	-27.4	-27.8	16.1	0.00e+00	0	30	0	37497077760	28	19045
2026-01-12 22:34:51.90	180.15	9.68	-27.4	-27.9	16.0	0.00e+00	0	30	0	37572575232	28	19107
2026-01-12 22:34:52.91	180.21	9.58	-27.4	-27.9	16.0	0.00e+00	0	30	0	37648072704	28	19141
2026-01-12 22:34:53.92	180.27	9.48	-27.5	-28.0	16.0	0.00e+00	0	30	0	37723570176	28	19327
2026-01-12 22:34:54.93	180.33	9.38	-27.6	-28.0	15.9	0.00e+00	0	30	0	37799067648	28	19434
2026-01-12 22:34:55.94	180.39	9.28	-27.5	-27.9	16.0	0.00e+00	0	30	0	37874565120	28	19281
2026-01-12 22:34:56.95	180.45	9.18	-47.8	-50.3	3.6	0.00e+00	0	30	104	37899730944	60	40050
2026-01-12 22:34:57.96	180.51	9.08	-47.8	-50.3	3.6	0.00e+00	0	30	104	37899730944	60	39943
2026-01-12 22:34:58.97	180.57	8.98	-47.6	-50.2	3.6	0.00e+00	0	30	104	37899730944	60	39496
2026-01-12 22:34:59.98	180.63	8.88	-47.7	-50.2	3.5	0.00e+00	0	30	104	37899730944	60	39755
2026-01-12 22:35:00.98	180.69	8.79	-47.8	-50.3	3.6	0.00e+00	0	30	104	37899730944	60	40087
2026-01-12 22:35:02.00	180.74	8.69	-47.8	-50.3	3.6	0.00e+00	0	30	104	37899730944	60	40285
2026-01-12 22:35:03.01	180.80	8.60	-47.6	-50.2	3.6	0.00e+00	0	30	104	37899730944	60	39804
2026-01-12 22:35:04.01	180.86	8.50	-47.7	-50.2	3.6	0.00e+00	0	30	104	37899730944	60	39777
2026-01-12 22:35:05.02	180.91	8.41	-47.6	-50.1	3.6	0.00e+00	0	30	104	37899730944	60	39236
2026-01-12 22:35:06.03	180.97	8.31	-47.9	-50.4	3.6	0.00e+00	0	30	104	37899730944	60	40565
2026-01-12 22:35:07.04	181.02	8.22	-47.8	-50.3	3.5	0.00e+00	0	30	104	37899730944	60	40158
2026-01-12 22:35:08.05	181.08	8.12	-47.8	-50.4	3.6	0.00e+00	0	30	104	37899730944	60	40511
2026-01-12 22:35:09.06	181.13	8.03	-47.8	-50.3	3.6	0.00e+00	0	30	104	37899730944	60	40034
2026-01-12 22:35:10.07	181.18	7.94	-47.8	-50.3	3.6	0.00e+00	0	30	104	37899730944	60	39972
2026-01-12 22:35:11.08	181.24	7.84	-47.7	-50.3	3.6	0.00e+00	0	30	104	37899730944	60	40046
2026-01-12 22:35:12.09	181.29	7.75	-47.8	-50.3	3.6	0.00e+00	0	30	104	37899730944	60	40003
2026-01-12 22:35:13.10	181.34	7.66	-47.8	-50.4	3.6	0.00e+00	0	30	104	37899730944	60	40350
2026-01-12 22:35:14.11	181.39	7.57	-47.7	-50.2	3.6	0.00e+00	0	30	104	37899730944	60	39858
2026-01-12 22:35:15.12	181.45	7.48	-47.7	-50.2	3.6	0.00e+00	0	30	104	37899730944	60	39819
2026-01-12 22:35:16.13	181.50	7.39	-47.8	-50.3	3.6	0.00e+00	0	30	104	37899730944	60	40206
2026-01-12 22:35:17.14	181.55	7.30	-47.9	-50.3	3.6	0.00e+00	0	30	104	37899730944	60	40286
2026-01-12 22:35:18.15	181.60	7.21	-47.8	-50.3	3.6	0.00e+00	0	30	104	37899730944	60	40299
2026-01-12 22:35:19.16	181.65	7.12	-47.9	-50.4	3.6	0.00e+00	0	30	104	37899730944	60	40571
2026-01-12 22:35:20.17	181.70	7.03	-47.8	-50.3	3.6	0.00e+00	0	30	104	37899730944	60	39930
2026-01-12 22:35:21.18	181.75	6.94	-47.8	-50.4	3.6	0.00e+00	0	30	104	37899730944	60	40374
2026-01-12 22:35:22.19	181.80	6.85	-47.8	-50.3	3.6	0.00e+00	0	30	104	37899730944	60	40185
2026-01-12 22:35:23.20	181.85	6.77	-47.8	-50.3	3.6	0.00e+00	0	30	104	37899730944	60	40190
2026-01-12 22:35:24.21	181.90	6.68	-47.8	-50.4	3.6	0.00e+00	0	30	104	37899730944	60	40469
2026-01-12 22:35:25.22	181.94	6.59	-47.6	-50.1	3.6	0.00e+00	0	30	104	37899730944	60	39273
2026-01-12 22:35:26.23	181.99	6.51	-48.0	-50.5	3.6	0.00e+00	0	30	104	37899730944	60	40916
2026-01-12 22:35:27.24	182.04	6.42	-47.9	-50.4	3.6	0.00e+00	0	30	104	37899730944	60	40377
2026-01-12 22:35:28.25	182.09	6.33	-47.7	-50.2	3.6	0.00e+00	0	30	104	37899730944	60	39829
2026-01-12 22:35:29.26	182.13	6.25	-47.8	-50.3	3.6	0.00e+00	0	30	104	37899730944	60	39890
2026-01-12 22:35:30.27	182.18	6.16	-47.9	-50.4	3.6	0.00e+00	0	30	104	37899730944	60	40553
2026-01-12 22:35:31.28	182.23	6.08	-47.5	-50.1	3.6	0.00e+00	0	30	104	37899730944	60	39114
2026-01-12 22:35:32.29	182.27	6.00	-47.7	-50.2	3.6	0.00e+00	0	30	104	37899730944	60	39747
2026-01-12 22:35:33.30	182.32	5.91	-47.3	-49.9	3.6	0.00e+00	0	30	104	37899730944	60	38230
2026-01-12 22:35:34.30	182.36	5.83	-47.6	-50.1	3.6	0.00e+00	0	30	104	37899730944	60	39384
2026-01-12 22:35:35.31	182.41	5.75	-47.1	-49.6	3.6	0.00e+00	0	30	104	37899730944	60	37176
2026-01-12 22:35:36.32	182.45	5.66	-47.3	-49.8	3.6	0.00e+00	0	30	104	37899730944	60	38067
2026-01-12 22:35:37.33	182.50	5.58	-47.3	-49.9	3.6	0.00e+00	0	30	104	37899730944	60	38154
2026-01-12 22:35:38.34	182.54	5.50	-47.2	-49.8	3.6	0.00e+00	0	30	104	37899730944	60	37687
2026-01-12 22:35:39.35	182.59	5.42	-47.1	-49.7	3.6	0.00e+00	0	30	104	37899730944	60	37449
2026-01-12 22:35:40.36	182.63	5.33	-47.0	-49.7	3.6	0.00e+00	0	30	104	37899730944	60	37318
2026-01-12 22:35:41.37	182.67	5.25	-47.0	-49.7	3.6	0.00e+00	0	30	104	37899730944	60	37313
2026-01-12 22:35:42.38	182.72	5.17	-47.1	-49.7	3.6	0.00e+00	0	30	104	37899730944	60	37227
2026-01-12 22:35:43.39	182.76	5.09	-47.1	-49.7	3.6	0.00e+00	0	30	104	37899730944	60	37488
2026-01-12 22:35:44.40	182.80	5.01	-47.3	-49.8	3.6	0.00e+00	0	30	104	37899730944	60	37975
2026-01-12 22:35:45.41	182.84	4.93	-47.4	-50.0	3.6	0.00e+00	0	30	104	37899730944	60	38661
2026-01-12 22:35:46.39	182.88	4.85	-47.4	-50.0	3.6	0.00e+00	0	30	104	37899730944	60	38517
2026-01-12 22:35:47.40	182.93	4.78	-47.4	-49.9	3.6	0.00e+00	0	30	104	37899730944	60	38493
2026-01-12 22:35:48.41	182.97	4.70	-47.3	-49.9	3.6	0.00e+00	0	30	104	37899730944	60	38091
2026-01-12 22:35:49.42	183.01	4.62	-47.1	-49.7	3.6	0.00e+00	0	30	104	37899730944	60	37371
2026-01-12 22:35:50.43	183.05	4.54	-47.3	-49.8	3.6	0.00e+00	0	30	104	37899730944	60	37892
2026-01-12 22:35:51.44	183.09	4.46	-47.4	-49.9	3.6	0.00e+00	0	30	104	37899730944	60	38311
2026-01-12 22:35:52.45	183.13	4.38	-47.4	-49.9	3.6	0.00e+00	0	30	104	37899730944	60	38405
2026-01-12 22:35:53.46	183.17	4.31	-47.3	-49.8	3.6	0.00e+00	0	30	104	37899730944	60	37924
2026-01-12 22:35:54.47	183.21	4.23	-47.3	-49.9	3.6	0.00e+00	0	30	104	37899730944	60	38158
2026-01-12 22:35:55.48	183.25	4.15	-47.3	-49.8	3.5	0.00e+00	0	30	104	37899730944	60	38058
2026-01-12 22:35:56.49	183.29	4.07	-46.9	-49.5	3.6	0.00e+00	0	30	104	37899730944	60	36658
2026-01-12 22:35:57.50	183.33	4.00	-46.6	-49.3	3.6	0.00e+00	0	30	104	37899730944	60	35554
2026-01-12 22:35:58.51	183.37	3.92	-46.9	-49.5	3.6	0.00e+00	0	30	104	37899730944	60	36492
2026-01-12 22:35:59.52	183.41	3.85	-46.9	-49.5	3.6	0.00e+00	0	30	104	37899730944	60	36572
2026-01-12 22:36:00.53	183.45	3.77	-47.0	-49.6	3.6	0.00e+00	0	30	104	37899730944	60	37180
2026-01-12 22:36:01.54	183.48	3.70	-47.1	-49.7	3.6	0.00e+00	0	30	104	37899730944	60	37242
2026-01-12 22:36:02.55	183.52	3.62	-47.3	-49.8	3.6	0.00e+00	0	30	104	37899730944	60	37883
2026-01-12 22:36:03.55	183.56	3.55	-47.4	-49.9	3.6	0.00e+00	0	30	104	37899730944	60	38232
2026-01-12 22:36:04.56	183.60	3.47	-47.4	-49.8	3.6	0.00e+00	0	30	104	37899730944	60	37926
2026-01-12 22:36:05.57	183.63	3.40	-47.3	-49.7	3.6	0.00e+00	0	30	104	37899730944	60	37485
2026-01-12 22:36:06.58	183.67	3.32	-47.5	-49.9	3.6	0.00e+00	0	30	104	37899730944	60	38323
2026-01-12 22:36:07.59	183.71	3.25	-47.3	-49.8	3.6	0.00e+00	0	30	104	37899730944	60	38017
2026-01-12 22:36:08.60	183.75	3.18	-47.4	-49.9	3.6	0.00e+00	0	30	104	37899730944	60	38398
2026-01-12 22:36:09.61	183.78	3.10	-47.2	-49.8	3.6	0.00e+00	0	30	104	37899730944	60	37676
2026-01-12 22:36:10.62	183.82	3.03	-47.4	-49.9	3.5	0.00e+00	0	30	104	37899730944	60	38089
2026-01-12 22:36:11.63	183.85	2.96	-47.6	-50.1	3.6	0.00e+00	0	30	104	37899730944	60	39126
2026-01-12 22:36:12.64	183.89	2.88	-47.3	-49.9	3.6	0.00e+00	0	30	104	37899730944	60	38284
2026-01-12 22:36:13.65	183.93	2.81	-48.3	-50.8	3.6	0.00e+00	0	30	104	37899730944	60	42519
2026-01-12 22:36:14.66	183.96	2.74	-48.4	-51.0	3.6	0.00e+00	0	30	104	37899730944	60	43231
2026-01-12 22:36:15.67	184.00	2.67	-48.6	-51.1	3.6	0.00e+00	0	30	104	37899730944	60	43834
2026-01-12 22:36:16.68	184.03	2.60	-48.6	-51.1	3.6	0.00e+00	0	30	104	37899730944	60	43969
2026-01-12 22:36:17.69	184.07	2.53	-48.7	-51.2	3.6	0.00e+00	0	30	104	37899730944	60	44259
2026-01-12 22:36:18.70	184.10	2.45	-48.7	-51.2	3.6	0.00e+00	0	30	104	37899730944	60	44340
2026-01-12 22:36:19.71	184.14	2.38	-48.6	-51.1	3.6	0.00e+00	0	30	104	37899730944	60	44102
2026-01-12 22:36:20.72	184.17	2.31	-48.0	-50.6	3.6	0.00e+00	0	30	104	37899730944	60	41669
2026-01-12 22:36:21.73	184.21	2.24	-48.7	-51.1	3.6	0.00e+00	0	30	104	37899730944	60	44028
2026-01-12 22:36:22.74	184.24	2.17	-48.3	-50.8	3.6	0.00e+00	0	30	104	37899730944	60	42516
2026-01-12 22:36:23.75	184.27	2.10	-48.4	-50.9	3.6	0.00e+00	0	30	104	37899730944	60	43126
2026-01-12 22:36:24.76	184.31	2.03	-48.7	-51.2	3.6	0.00e+00	0	29	104	37899730944	60	44276
2026-01-12 22:36:25.77	184.34	1.96	-48.5	-51.0	3.6	0.00e+00	0	30	104	37899730944	60	43298
2026-01-12 22:36:26.78	184.37	1.89	-48.6	-51.1	3.6	0.00e+00	0	29	104	37899730944	60	43882
2026-01-12 22:36:27.78	184.41	1.83	-48.6	-51.1	3.6	0.00e+00	0	29	104	37899730944	60	43768
2026-01-12 22:36:28.80	184.44	1.76	-48.6	-51.1	3.6	0.00e+00	0	30	104	37899730944	60	43844
2026-01-12 22:36:29.81	184.47	1.69	-48.6	-51.1	3.6	0.00e+00	0	30	104	37899730944	60	43960
2026-01-12 22:36:30.81	184.50	1.62	-48.6	-51.1	3.6	0.00e+00	0	30	104	37899730944	60	43710
2026-01-12 22:36:31.82	184.54	1.55	-48.6	-51.0	3.6	0.00e+00	0	30	104	37899730944	60	43616
2026-01-12 22:36:32.83	184.57	1.48	-48.5	-51.0	3.6	0.00e+00	0	30	104	37899730944	60	43640
2026-01-12 22:36:33.84	184.60	1.42	-48.6	-51.0	3.6	0.00e+00	0	29	104	37899730944	60	43696
2026-01-12 22:36:34.85	184.63	1.35	-48.6	-51.0	3.6	0.00e+00	0	30	104	37899730944	60	43603
2026-01-12 22:36:35.86	184.66	1.28	-48.6	-51.1	3.6	0.00e+00	0	30	104	37899730944	60	43787
2026-01-12 22:36:36.87	184.70	1.21	-48.6	-51.0	3.6	0.00e+00	0	29	104	37899730944	60	43631
2026-01-12 22:36:37.88	184.73	1.15	-48.6	-51.1	3.6	0.00e+00	0	30	104	37899730944	60	43769
2026-01-12 22:36:38.89	184.76	1.08	-48.6	-51.0	3.6	0.00e+00	0	29	104	37899730944	60	43602
2026-01-12 22:36:39.90	184.79	1.01	-48.5	-51.0	3.6	0.00e+00	0	30	104	37899730944	60	43663
2026-01-12 22:36:40.91	184.82	0.95	-48.6	-51.1	3.6	0.00e+00	0	30	104	37899730944	60	43776
2026-01-12 22:36:41.92	184.85	0.88	-48.5	-51.0	3.6	0.00e+00	0	30	104	37899730944	60	43502
2026-01-12 22:36:42.93	184.88	0.81	-48.5	-51.0	3.6	0.00e+00	0	29	104	37899730944	60	43513
2026-01-12 22:36:43.94	184.91	0.75	-48.6	-51.0	3.6	0.00e+00	0	30	104	37899730944	60	43585
2026-01-12 22:36:44.95	184.94	0.68	-48.6	-51.0	3.6	0.00e+00	0	30	104	37899730944	60	43594
2026-01-12 22:36:45.96	184.97	0.62	-48.6	-51.1	3.6	0.00e+00	0	29	104	37899730944	60	43756
