passes_logs/2026/01/12/R4.6S_Anadyr/R4.6S_Anadyr__20260112_192038_NOAA_20_JPSS-1_rec.log

#Pass ID: 20260112_192038_NOAA 20 (JPSS-1)
#Satellite: NOAA 20 (JPSS-1)
#Configuration: NOAA 20
#almurnet v.1.7.20251203
#Start time: 2026-01-12 19:20:40

#Version: 2.2.20231116
#Station: R4.6S_Anadyr
#Location: 177.4865 lon 64.73178 lat
#TLE: 1 43013U 17073A   26011.59429536  .00000082  00000+0  59704-4 0  9990
#TLE: 2 43013  98.7632 312.5697 0001637  44.2118 315.9188 14.19535307422256

#Time	Az	El	Level	Level2	SNR	BER	BlckErr	Temp	State	Recorded	gain1	gain2
2026-01-12 19:20:40.26	51.84	0.08	-48.4	-63.3	3.5	1.51e+00	0	24	0	0	60	52919
2026-01-12 19:20:41.26	51.76	0.13	-48.5	-63.6	3.6	1.51e+00	0	25	104	0	60	54927
2026-01-12 19:20:42.27	51.69	0.18	-48.5	-63.7	3.6	1.51e+00	0	26	104	0	60	55073
2026-01-12 19:20:43.28	51.61	0.23	-48.5	-63.8	3.6	1.51e+00	0	26	104	0	60	55704
2026-01-12 19:20:44.28	51.53	0.28	-48.4	-63.7	3.6	1.51e+00	0	26	104	0	60	55171
2026-01-12 19:20:45.29	51.46	0.33	-48.5	-63.7	3.6	1.51e+00	0	26	104	0	60	55356
2026-01-12 19:20:46.30	51.38	0.38	-48.5	-63.7	3.6	1.51e+00	0	26	104	0	60	55204
2026-01-12 19:20:47.31	51.30	0.42	-48.5	-63.6	3.6	1.51e+00	0	26	104	0	60	54899
2026-01-12 19:20:48.32	51.22	0.47	-48.4	-63.6	3.6	1.51e+00	0	26	104	0	60	54824
2026-01-12 19:20:49.33	51.14	0.52	-48.4	-63.6	3.6	1.51e+00	0	26	104	0	60	54461
2026-01-12 19:20:50.34	51.06	0.57	-48.3	-63.5	3.6	1.51e+00	0	26	104	0	60	54340
2026-01-12 19:20:51.35	50.99	0.62	-48.3	-63.5	3.6	1.51e+00	0	26	104	0	60	54323
2026-01-12 19:20:52.36	50.91	0.67	-48.3	-63.4	3.6	1.51e+00	0	26	104	0	60	53709
2026-01-12 19:20:53.37	50.83	0.72	-48.2	-63.4	3.6	1.51e+00	0	26	104	0	60	53478
2026-01-12 19:20:54.38	50.75	0.77	-48.1	-63.3	3.6	1.51e+00	0	26	104	0	60	52595
2026-01-12 19:20:55.39	50.67	0.82	-47.9	-63.1	3.5	1.51e+00	0	26	104	0	60	51472
2026-01-12 19:20:56.40	50.59	0.87	-47.6	-62.8	3.6	1.51e+00	0	26	104	0	60	49942
2026-01-12 19:20:57.41	50.51	0.92	-47.0	-62.2	3.6	1.51e+00	0	26	104	0	60	46315
2026-01-12 19:20:58.42	50.43	0.97	-46.8	-62.0	3.6	1.51e+00	0	26	104	0	60	45372
2026-01-12 19:20:59.43	50.34	1.02	-46.8	-62.0	3.6	1.51e+00	0	26	104	0	60	45260
2026-01-12 19:21:00.44	50.26	1.07	-46.8	-62.0	3.6	1.51e+00	0	26	104	0	60	45278
2026-01-12 19:21:01.45	50.18	1.12	-46.8	-62.0	3.6	1.51e+00	0	26	104	0	60	45314
2026-01-12 19:21:02.46	50.10	1.16	-46.8	-62.0	3.6	1.51e+00	0	26	104	0	60	45341
2026-01-12 19:21:03.47	50.02	1.21	-46.8	-61.9	3.6	1.51e+00	0	26	104	0	60	45172
2026-01-12 19:21:04.47	49.94	1.26	-46.8	-62.0	3.6	1.51e+00	0	26	104	0	60	45246
2026-01-12 19:21:05.48	49.85	1.31	-46.7	-61.9	3.6	1.51e+00	0	26	104	0	60	44996
2026-01-12 19:21:06.49	49.77	1.36	-46.8	-61.9	3.6	1.51e+00	0	26	104	0	60	45131
2026-01-12 19:21:07.50	49.69	1.41	-46.8	-61.9	3.6	1.51e+00	0	26	104	0	60	45122
2026-01-12 19:21:08.51	49.60	1.46	-46.8	-61.9	3.6	1.51e+00	0	26	104	0	60	45090
2026-01-12 19:21:09.52	49.52	1.51	-46.7	-61.9	3.6	1.51e+00	0	26	104	0	60	44755
2026-01-12 19:21:10.53	49.43	1.56	-46.8	-61.9	3.6	1.51e+00	0	26	104	0	60	44919
2026-01-12 19:21:11.54	49.35	1.61	-46.7	-61.8	3.6	1.51e+00	0	26	104	0	60	44458
2026-01-12 19:21:12.55	49.26	1.66	-46.7	-61.9	3.6	1.51e+00	0	26	104	0	60	44770
2026-01-12 19:21:13.56	49.18	1.71	-46.7	-61.9	3.6	1.51e+00	0	26	104	0	60	44861
2026-01-12 19:21:14.57	49.09	1.76	-46.8	-61.9	3.6	1.51e+00	0	26	104	0	60	44999
2026-01-12 19:21:15.58	49.01	1.81	-46.7	-61.9	3.6	1.51e+00	0	26	104	0	60	44785
2026-01-12 19:21:16.59	48.92	1.86	-46.7	-61.8	3.6	1.51e+00	0	26	104	0	60	44699
2026-01-12 19:21:17.60	48.83	1.91	-46.8	-61.9	3.6	1.51e+00	0	26	104	0	60	45048
2026-01-12 19:21:18.61	48.75	1.96	-46.7	-61.8	3.6	1.51e+00	0	26	104	0	60	44398
2026-01-12 19:21:19.62	48.66	2.01	-46.7	-61.7	3.6	1.51e+00	0	26	104	0	60	44034
2026-01-12 19:21:20.63	48.57	2.06	-46.7	-61.6	3.6	1.51e+00	0	26	104	0	60	43529
2026-01-12 19:21:21.64	48.49	2.11	-46.7	-61.5	3.6	1.51e+00	0	26	104	0	60	43055
2026-01-12 19:21:22.65	48.40	2.16	-46.7	-61.5	3.6	1.51e+00	0	26	104	0	60	42746
2026-01-12 19:21:23.66	48.31	2.21	-46.7	-61.5	3.6	1.51e+00	0	26	104	0	60	43030
2026-01-12 19:21:24.67	48.22	2.26	-46.7	-61.7	3.6	1.51e+00	0	26	104	0	60	44008
2026-01-12 19:21:25.68	48.13	2.31	-46.7	-61.8	3.6	1.51e+00	0	26	104	0	60	44608
2026-01-12 19:21:26.69	48.04	2.36	-46.7	-61.9	3.6	1.51e+00	0	26	104	0	60	44863
2026-01-12 19:21:27.70	47.95	2.41	-46.7	-61.8	3.6	1.51e+00	0	26	104	0	60	44311
2026-01-12 19:21:28.71	47.86	2.46	-46.7	-61.8	3.6	1.51e+00	0	26	104	0	60	44666
2026-01-12 19:21:29.72	47.77	2.51	-46.7	-61.8	3.6	1.51e+00	0	26	104	0	60	44690
2026-01-12 19:21:30.72	47.68	2.56	-46.7	-61.8	3.6	1.51e+00	0	26	104	0	60	44481
2026-01-12 19:21:31.74	47.59	2.61	-46.7	-61.4	3.6	1.51e+00	0	26	104	0	60	42367
2026-01-12 19:21:32.75	47.50	2.66	-46.6	-60.8	3.6	1.51e+00	0	26	104	0	60	39684
2026-01-12 19:21:33.76	47.41	2.71	-46.7	-60.9	3.6	1.51e+00	0	26	104	0	60	40280
2026-01-12 19:21:34.77	47.32	2.76	-46.7	-61.3	3.6	1.51e+00	0	26	104	0	60	42152
2026-01-12 19:21:35.78	47.23	2.82	-46.7	-61.4	3.5	1.51e+00	0	26	104	0	60	42558
2026-01-12 19:21:36.79	47.13	2.87	-46.6	-58.8	3.7	1.50e+00	0	26	104	0	60	31465
2026-01-12 19:21:37.80	47.04	2.92	-46.2	-55.2	5.7	7.94e-01	0	26	0	0	60	20735
2026-01-12 19:21:38.81	46.95	2.97	-45.7	-52.0	8.0	1.77e-01	0	26	0	1048576	60	14405
2026-01-12 19:21:39.81	46.86	3.02	-45.2	-50.4	10.1	1.22e-02	0	26	0	3145728	60	11938
2026-01-12 19:21:40.82	46.76	3.07	-46.2	-53.9	6.0	1.25e-03	0	26	0	5242880	60	17841
2026-01-12 19:21:41.83	46.67	3.12	-46.7	-60.5	3.6	4.02e-01	0	27	104	6291456	60	38339
2026-01-12 19:21:42.84	46.57	3.17	-45.2	-50.6	5.3	1.39e+00	10	27	104	6291456	60	12311
2026-01-12 19:21:43.85	46.48	3.22	-42.4	-44.7	16.2	4.68e-04	0	26	0	6291456	58	6942
2026-01-12 19:21:44.86	46.38	3.27	-46.5	-61.0	3.6	7.55e-05	0	27	104	7340032	60	40476
2026-01-12 19:21:45.87	46.29	3.32	-43.2	-46.0	5.9	1.36e+00	90	26	104	7340032	60	7219
2026-01-12 19:21:46.88	46.19	3.37	-42.9	-45.5	15.3	0.00e+00	0	27	0	7340032	58	7598
2026-01-12 19:21:47.89	46.10	3.42	-42.2	-44.4	16.6	0.00e+00	0	26	0	9437184	58	6747
2026-01-12 19:21:48.90	46.00	3.47	-42.2	-44.4	16.6	0.00e+00	0	26	0	11534336	58	6697
2026-01-12 19:21:49.91	45.90	3.52	-41.9	-44.0	17.1	0.00e+00	0	26	0	12582912	58	6421
2026-01-12 19:21:50.92	45.81	3.57	-42.1	-44.3	16.9	0.00e+00	0	26	0	14680064	58	6637
2026-01-12 19:21:51.93	45.71	3.62	-42.0	-44.1	17.0	0.00e+00	0	26	0	16777216	58	6487
2026-01-12 19:21:52.93	45.61	3.67	-42.0	-44.1	17.0	0.00e+00	0	26	0	18874368	58	6529
2026-01-12 19:21:53.94	45.51	3.73	-42.0	-44.0	17.0	0.00e+00	0	27	0	20971520	58	6463
2026-01-12 19:21:54.95	45.42	3.78	-42.0	-44.1	17.0	0.00e+00	0	27	0	22020096	58	6480
2026-01-12 19:21:55.96	45.32	3.83	-42.0	-44.0	17.0	0.00e+00	0	26	0	24117248	58	6442
2026-01-12 19:21:56.97	45.22	3.88	-42.1	-44.3	16.9	0.00e+00	0	27	0	26214400	58	6632
2026-01-12 19:21:57.98	45.12	3.93	-41.9	-43.9	17.2	0.00e+00	0	26	0	28311552	58	6374
2026-01-12 19:21:58.99	45.02	3.98	-41.9	-43.9	17.2	0.00e+00	0	26	0	30408704	58	6372
2026-01-12 19:22:00.00	44.92	4.03	-42.1	-44.2	17.0	0.00e+00	0	26	0	31457280	58	6560
2026-01-12 19:22:01.01	44.82	4.08	-42.1	-44.2	17.0	0.00e+00	0	27	0	33554432	58	6600
2026-01-12 19:22:02.02	44.72	4.13	-41.9	-43.8	17.4	0.00e+00	0	26	0	35651584	58	6313
2026-01-12 19:22:03.03	44.61	4.18	-41.8	-43.7	17.5	0.00e+00	0	26	0	37748736	56	6987
2026-01-12 19:22:04.04	44.51	4.23	-41.7	-43.6	17.6	0.00e+00	0	26	0	39845888	56	6901
2026-01-12 19:22:05.05	44.41	4.28	-41.5	-43.3	17.9	0.00e+00	0	26	0	40894464	56	6679
2026-01-12 19:22:06.05	44.31	4.33	-41.7	-43.6	17.7	0.00e+00	0	26	0	42991616	56	6900
2026-01-12 19:22:07.06	44.21	4.39	-41.8	-43.7	17.7	0.00e+00	0	27	0	45088768	56	6930
2026-01-12 19:22:08.07	44.10	4.44	-41.7	-43.5	17.8	0.00e+00	0	26	0	47185920	56	6816
2026-01-12 19:22:09.08	44.00	4.49	-41.5	-43.2	18.0	0.00e+00	0	26	0	49283072	56	6615
2026-01-12 19:22:10.09	43.90	4.54	-41.5	-43.3	17.9	0.00e+00	0	26	0	50331648	56	6669
2026-01-12 19:22:11.10	43.79	4.59	-41.4	-43.1	18.1	0.00e+00	0	27	0	52428800	56	6522
2026-01-12 19:22:12.11	43.69	4.64	-41.4	-43.2	18.1	0.00e+00	0	26	0	54525952	56	6564
2026-01-12 19:22:13.12	43.58	4.69	-41.6	-43.5	17.9	0.00e+00	0	26	0	56623104	56	6781
2026-01-12 19:22:14.13	43.48	4.74	-41.5	-43.3	18.0	0.00e+00	0	27	0	58720256	56	6682
2026-01-12 19:22:15.14	43.37	4.79	-41.3	-43.0	18.3	0.00e+00	0	27	0	60817408	56	6448
2026-01-12 19:22:16.15	43.26	4.84	-41.4	-43.1	18.3	0.00e+00	0	27	0	61865984	56	6496
2026-01-12 19:22:17.16	43.16	4.90	-41.3	-43.0	18.4	0.00e+00	0	26	0	63963136	56	6429
2026-01-12 19:22:18.17	43.05	4.95	-41.3	-43.0	18.3	0.00e+00	0	26	0	66060288	56	6454
2026-01-12 19:22:19.17	42.94	5.00	-41.1	-42.8	18.6	0.00e+00	0	27	0	68157440	56	6273
2026-01-12 19:22:20.18	42.84	5.05	-41.3	-43.0	18.2	0.00e+00	0	27	0	70254592	56	6421
2026-01-12 19:22:21.19	42.73	5.10	-41.2	-42.9	18.2	0.00e+00	0	27	0	71303168	56	6327
2026-01-12 19:22:22.20	42.62	5.15	-41.3	-43.0	18.3	0.00e+00	0	27	0	73400320	56	6445
2026-01-12 19:22:23.21	42.51	5.20	-41.1	-42.8	18.5	0.00e+00	0	27	0	75497472	56	6292
2026-01-12 19:22:24.22	42.40	5.25	-41.2	-42.9	18.4	0.00e+00	0	27	0	77594624	56	6358
2026-01-12 19:22:25.23	42.29	5.30	-41.1	-42.8	18.7	0.00e+00	0	26	0	79691776	56	6251
2026-01-12 19:22:26.24	42.18	5.35	-41.0	-42.6	18.9	0.00e+00	0	27	0	80740352	56	6118
2026-01-12 19:22:27.25	42.07	5.41	-41.0	-42.6	18.8	0.00e+00	0	27	0	82837504	56	6148
2026-01-12 19:22:28.26	41.96	5.46	-41.1	-42.8	18.7	0.00e+00	0	27	0	84934656	56	6279
2026-01-12 19:22:29.26	41.85	5.51	-40.9	-42.5	19.0	0.00e+00	0	27	0	87031808	56	6039
2026-01-12 19:22:30.27	41.74	5.56	-40.8	-42.4	19.1	0.00e+00	0	27	0	89128960	56	5982
2026-01-12 19:22:31.28	41.63	5.61	-40.8	-42.3	19.1	0.00e+00	0	27	0	90177536	54	6653
2026-01-12 19:22:32.29	41.51	5.66	-40.7	-42.3	19.1	0.00e+00	0	27	0	92274688	54	6630
2026-01-12 19:22:33.30	41.40	5.71	-40.5	-42.0	19.3	0.00e+00	0	27	0	94371840	54	6421
2026-01-12 19:22:34.31	41.29	5.76	-40.6	-42.1	19.3	0.00e+00	0	26	0	96468992	54	6511
2026-01-12 19:22:35.32	41.17	5.81	-40.6	-42.2	19.3	0.00e+00	0	27	0	98566144	54	6547
2026-01-12 19:22:36.33	41.06	5.86	-40.7	-42.3	19.2	0.00e+00	0	27	0	99614720	54	6633
2026-01-12 19:22:37.34	40.94	5.91	-40.6	-42.1	19.3	0.00e+00	0	27	0	101711872	54	6523
2026-01-12 19:22:38.35	40.83	5.97	-40.6	-42.1	19.3	0.00e+00	0	27	0	103809024	54	6524
2026-01-12 19:22:39.36	40.71	6.02	-40.7	-42.2	19.3	0.00e+00	0	27	0	105906176	54	6542
2026-01-12 19:22:40.37	40.60	6.07	-40.6	-42.1	19.4	0.00e+00	0	26	0	108003328	54	6473
2026-01-12 19:22:41.37	40.48	6.12	-40.5	-42.0	19.4	0.00e+00	0	26	0	109051904	54	6442
2026-01-12 19:22:42.38	40.37	6.17	-40.7	-42.2	19.3	0.00e+00	0	26	0	111149056	54	6586
2026-01-12 19:22:43.39	40.25	6.22	-40.7	-42.3	19.2	0.00e+00	0	26	0	113246208	54	6623
2026-01-12 19:22:44.40	40.13	6.27	-40.7	-42.2	19.2	0.00e+00	0	26	0	115343360	54	6594
2026-01-12 19:22:45.41	40.01	6.32	-40.7	-42.2	19.2	0.00e+00	0	27	0	117440512	54	6569
2026-01-12 19:22:46.42	39.90	6.37	-40.6	-42.2	19.3	0.00e+00	0	27	0	118489088	54	6557
2026-01-12 19:22:47.42	39.78	6.42	-40.6	-42.1	19.3	0.00e+00	0	26	0	120586240	54	6493
2026-01-12 19:22:48.43	39.66	6.47	-40.6	-42.2	19.3	0.00e+00	0	26	0	122683392	54	6546
2026-01-12 19:22:49.44	39.54	6.52	-40.6	-42.1	19.3	0.00e+00	0	26	0	124780544	54	6526
2026-01-12 19:22:50.45	39.42	6.57	-40.5	-42.0	19.5	0.00e+00	0	26	0	126877696	54	6432
2026-01-12 19:22:51.46	39.30	6.63	-40.7	-42.2	19.3	0.00e+00	0	27	0	127926272	54	6543
2026-01-12 19:22:52.47	39.18	6.68	-40.6	-42.1	19.4	0.00e+00	0	26	0	130023424	54	6483
2026-01-12 19:22:53.48	39.06	6.73	-40.5	-42.0	19.5	0.00e+00	0	27	0	132120576	54	6418
2026-01-12 19:22:54.49	38.94	6.78	-40.6	-42.1	19.4	0.00e+00	0	27	0	134217728	54	6479
2026-01-12 19:22:55.50	38.81	6.83	-40.6	-42.1	19.5	0.00e+00	0	27	0	136314880	54	6468
2026-01-12 19:22:56.51	38.69	6.88	-40.4	-41.8	19.6	0.00e+00	0	27	0	137363456	54	6285
2026-01-12 19:22:57.51	38.57	6.93	-40.4	-41.8	19.7	0.00e+00	0	27	0	139460608	54	6292
2026-01-12 19:22:58.52	38.45	6.98	-40.4	-41.8	19.7	0.00e+00	0	27	0	141557760	54	6287
2026-01-12 19:22:59.53	38.32	7.03	-40.4	-41.9	19.8	0.00e+00	0	27	0	143654912	54	6318
2026-01-12 19:23:00.54	38.20	7.08	-40.3	-41.7	19.8	0.00e+00	0	27	0	145752064	54	6231
2026-01-12 19:23:01.55	38.07	7.13	-40.3	-41.6	19.9	0.00e+00	0	27	0	146800640	54	6171
2026-01-12 19:23:02.56	37.95	7.18	-40.3	-41.7	19.9	0.00e+00	0	27	0	148897792	54	6186
2026-01-12 19:23:03.57	37.82	7.23	-40.3	-41.7	19.8	0.00e+00	0	26	0	150994944	54	6194
2026-01-12 19:23:04.58	37.70	7.28	-40.3	-41.7	19.9	0.00e+00	0	27	0	153092096	54	6189
2026-01-12 19:23:05.59	37.57	7.33	-40.3	-41.7	19.9	0.00e+00	0	27	0	155189248	54	6181
2026-01-12 19:23:06.60	37.44	7.38	-40.4	-41.8	19.9	0.00e+00	0	27	0	157286400	54	6288
2026-01-12 19:23:07.61	37.31	7.43	-40.3	-41.7	19.8	0.00e+00	0	27	0	158334976	54	6217
2026-01-12 19:23:08.62	37.19	7.48	-40.5	-41.9	19.7	0.00e+00	0	27	0	160432128	54	6368
2026-01-12 19:23:09.63	37.06	7.53	-40.3	-41.7	19.8	0.00e+00	0	27	0	162529280	54	6230
2026-01-12 19:23:10.64	36.93	7.58	-40.4	-41.8	19.8	0.00e+00	0	27	0	164626432	54	6269
2026-01-12 19:23:11.64	36.80	7.63	-40.3	-41.7	19.9	0.00e+00	0	27	0	166723584	54	6191
2026-01-12 19:23:12.65	36.67	7.68	-40.3	-41.6	19.9	0.00e+00	0	27	0	167772160	54	6159
2026-01-12 19:23:13.66	36.54	7.73	-40.4	-41.8	19.9	0.00e+00	0	27	0	169869312	54	6270
2026-01-12 19:23:14.67	36.41	7.78	-40.3	-41.7	20.0	0.00e+00	0	27	0	171966464	54	6191
2026-01-12 19:23:15.68	36.28	7.83	-40.4	-41.8	19.9	0.00e+00	0	27	0	174063616	54	6260
2026-01-12 19:23:16.69	36.15	7.88	-40.2	-41.6	20.0	0.00e+00	0	27	0	176160768	54	6146
2026-01-12 19:23:17.70	36.02	7.93	-40.1	-41.4	20.2	0.00e+00	0	27	0	177209344	54	6021
2026-01-12 19:23:18.71	35.88	7.98	-40.2	-41.6	20.0	0.00e+00	0	27	0	179306496	54	6136
2026-01-12 19:23:19.72	35.75	8.03	-40.0	-41.4	20.2	0.00e+00	0	27	0	181403648	54	5984
2026-01-12 19:23:20.73	35.62	8.08	-40.1	-41.4	20.2	0.00e+00	0	26	0	183500800	54	6014
2026-01-12 19:23:21.74	35.48	8.13	-39.8	-41.1	20.5	0.00e+00	0	27	0	185597952	54	5799
2026-01-12 19:23:22.75	35.35	8.18	-39.8	-41.1	20.5	0.00e+00	0	27	0	186646528	54	5773
2026-01-12 19:23:23.76	35.21	8.23	-39.8	-41.1	20.5	0.00e+00	0	27	0	188743680	54	5802
2026-01-12 19:23:24.77	35.08	8.28	-39.9	-41.2	20.5	0.00e+00	0	27	0	190840832	54	5837
2026-01-12 19:23:25.78	34.94	8.33	-39.8	-41.1	20.5	0.00e+00	0	27	0	192937984	54	5787
2026-01-12 19:23:26.79	34.81	8.38	-39.8	-41.1	20.5	0.00e+00	0	27	0	195035136	54	5790
2026-01-12 19:23:27.80	34.67	8.43	-39.8	-41.1	20.5	0.00e+00	0	27	0	196083712	54	5773
2026-01-12 19:23:28.81	34.53	8.48	-39.9	-41.1	20.5	0.00e+00	0	27	0	198180864	54	5822
2026-01-12 19:23:29.82	34.40	8.53	-39.9	-41.2	20.5	0.00e+00	0	27	0	200278016	54	5833
2026-01-12 19:23:30.83	34.26	8.58	-40.0	-41.3	20.4	0.00e+00	0	27	0	202375168	54	5910
2026-01-12 19:23:31.84	34.12	8.63	-39.9	-41.2	20.4	0.00e+00	0	27	0	204472320	54	5842
2026-01-12 19:23:32.85	33.98	8.68	-39.8	-41.1	20.5	0.00e+00	0	27	0	205520896	54	5777
2026-01-12 19:23:33.85	33.84	8.72	-39.9	-41.1	20.5	0.00e+00	0	27	0	207618048	54	5827
2026-01-12 19:23:34.86	33.70	8.77	-39.8	-41.1	20.4	0.00e+00	0	27	0	209715200	54	5818
2026-01-12 19:23:35.87	33.56	8.82	-39.9	-41.1	20.5	0.00e+00	0	27	0	211812352	54	5824
2026-01-12 19:23:36.88	33.42	8.87	-39.7	-41.0	20.5	0.00e+00	0	27	0	213909504	52	6407
2026-01-12 19:23:37.89	33.28	8.92	-39.9	-41.2	20.5	0.00e+00	0	27	0	214958080	52	6544
2026-01-12 19:23:38.90	33.14	8.97	-39.8	-41.1	20.5	0.00e+00	0	27	0	217055232	52	6489
2026-01-12 19:23:39.91	32.99	9.02	-40.0	-41.3	20.4	0.00e+00	0	27	0	219152384	52	6655
2026-01-12 19:23:40.92	32.85	9.07	-40.0	-41.3	20.4	0.00e+00	0	27	0	221249536	52	6644
2026-01-12 19:23:41.93	32.71	9.11	-39.9	-41.2	20.5	0.00e+00	0	27	0	223346688	52	6583
2026-01-12 19:23:42.94	32.56	9.16	-40.1	-41.4	20.3	0.00e+00	0	27	0	225443840	52	6725
2026-01-12 19:23:43.95	32.42	9.21	-40.0	-41.4	20.4	0.00e+00	0	27	0	226492416	52	6698
2026-01-12 19:23:44.96	32.27	9.26	-39.8	-41.1	20.7	0.00e+00	0	27	0	228589568	52	6466
2026-01-12 19:23:45.97	32.13	9.31	-39.7	-41.0	20.7	0.00e+00	0	27	0	230686720	52	6422
2026-01-12 19:23:46.98	31.98	9.35	-39.8	-41.0	20.6	0.00e+00	0	27	0	232783872	52	6450
2026-01-12 19:23:47.99	31.84	9.40	-39.8	-41.1	20.6	0.00e+00	0	27	0	234881024	52	6505
2026-01-12 19:23:49.00	31.69	9.45	-39.7	-40.9	20.8	0.00e+00	0	27	0	235929600	52	6377
2026-01-12 19:23:50.01	31.54	9.50	-39.6	-40.8	20.9	0.00e+00	0	27	0	238026752	52	6290
2026-01-12 19:23:51.02	31.39	9.55	-39.6	-40.8	20.9	0.00e+00	0	27	0	240123904	52	6278
2026-01-12 19:23:52.03	31.25	9.59	-39.4	-40.6	21.1	0.00e+00	0	27	0	242221056	52	6139
2026-01-12 19:23:53.04	31.10	9.64	-39.5	-40.7	21.0	0.00e+00	0	27	0	244318208	52	6200
2026-01-12 19:23:54.05	30.95	9.69	-39.2	-40.4	21.3	0.00e+00	0	27	0	245366784	52	6008
2026-01-12 19:23:55.06	30.80	9.74	-39.2	-40.3	21.3	0.00e+00	0	27	0	247463936	52	5953
2026-01-12 19:23:56.07	30.65	9.78	-39.2	-40.4	21.3	0.00e+00	0	27	0	249561088	52	5988
2026-01-12 19:23:57.08	30.50	9.83	-39.2	-40.3	21.3	0.00e+00	0	27	0	251658240	52	5950
2026-01-12 19:23:58.09	30.35	9.88	-39.1	-40.2	21.5	0.00e+00	0	27	0	253755392	52	5873
2026-01-12 19:23:59.09	30.20	9.92	-39.0	-40.2	21.5	0.00e+00	0	27	0	254803968	52	5850
2026-01-12 19:24:00.11	30.04	9.97	-39.0	-40.1	21.5	0.00e+00	0	27	0	256901120	52	5825
2026-01-12 19:24:01.12	29.89	10.02	-38.9	-40.0	21.6	0.00e+00	0	27	0	258998272	52	5727
2026-01-12 19:24:02.13	29.74	10.06	-38.9	-40.0	21.7	0.00e+00	0	27	0	261095424	52	5719
2026-01-12 19:24:03.14	29.58	10.11	-38.6	-39.7	21.9	0.00e+00	0	27	0	263192576	50	6202
2026-01-12 19:24:04.15	29.43	10.16	-38.5	-39.6	22.0	0.00e+00	0	27	0	264241152	50	6148
2026-01-12 19:24:05.16	29.27	10.20	-38.5	-39.5	22.1	0.00e+00	0	27	0	266338304	50	6102
2026-01-12 19:24:06.17	29.12	10.25	-38.5	-39.6	22.0	0.00e+00	0	27	0	268435456	50	6136
2026-01-12 19:24:07.17	28.96	10.29	-38.4	-39.5	22.0	0.00e+00	0	27	0	270532608	50	6053
2026-01-12 19:24:08.18	28.81	10.34	-38.3	-39.4	22.2	0.00e+00	0	27	0	272629760	50	5971
2026-01-12 19:24:09.19	28.65	10.39	-38.2	-39.2	22.4	0.00e+00	0	27	0	273678336	50	5888
2026-01-12 19:24:10.20	28.49	10.43	-38.2	-39.3	22.3	0.00e+00	0	27	0	275775488	50	5900
2026-01-12 19:24:11.21	28.34	10.48	-38.2	-39.3	22.3	0.00e+00	0	27	0	277872640	50	5898
2026-01-12 19:24:12.22	28.18	10.52	-38.3	-39.3	22.4	0.00e+00	0	27	0	279969792	50	5931
2026-01-12 19:24:13.23	28.02	10.57	-38.3	-39.3	22.2	0.00e+00	0	27	0	282066944	50	5928
2026-01-12 19:24:14.24	27.86	10.61	-38.2	-39.2	22.4	0.00e+00	0	27	0	283115520	50	5886
2026-01-12 19:24:15.25	27.70	10.66	-38.2	-39.2	22.4	0.00e+00	0	27	0	285212672	50	5879
2026-01-12 19:24:16.26	27.54	10.70	-38.2	-39.2	22.4	0.00e+00	0	27	0	287309824	50	5873
2026-01-12 19:24:17.27	27.38	10.75	-38.2	-39.2	22.4	0.00e+00	0	27	0	289406976	50	5849
2026-01-12 19:24:18.28	27.22	10.79	-38.0	-39.0	22.6	0.00e+00	0	27	0	291504128	50	5753
2026-01-12 19:24:19.28	27.06	10.83	-38.1	-39.1	22.5	0.00e+00	0	27	0	293601280	50	5820
2026-01-12 19:24:20.29	26.90	10.88	-38.2	-39.2	22.4	0.00e+00	0	27	0	294649856	50	5848
2026-01-12 19:24:21.30	26.73	10.92	-38.0	-39.0	22.6	0.00e+00	0	27	0	296747008	50	5713
2026-01-12 19:24:22.31	26.57	10.97	-38.1	-39.1	22.6	0.00e+00	0	27	0	298844160	50	5774
2026-01-12 19:24:23.32	26.41	11.01	-37.8	-38.8	22.8	0.00e+00	0	27	0	300941312	50	5595
2026-01-12 19:24:24.34	26.24	11.05	-37.8	-38.8	22.7	0.00e+00	0	27	0	303038464	50	5621
2026-01-12 19:24:25.35	26.08	11.10	-37.8	-38.8	22.8	0.00e+00	0	27	0	304087040	50	5595
2026-01-12 19:24:26.35	25.91	11.14	-37.8	-38.8	22.8	0.00e+00	0	27	0	306184192	50	5579
2026-01-12 19:24:27.36	25.75	11.18	-37.8	-38.8	22.7	0.00e+00	0	27	0	308281344	48	6308
2026-01-12 19:24:28.37	25.58	11.23	-37.8	-38.7	22.8	0.00e+00	0	27	0	310378496	48	6235
2026-01-12 19:24:29.38	25.41	11.27	-37.8	-38.8	22.8	0.00e+00	0	27	0	312475648	48	6280
2026-01-12 19:24:30.39	25.25	11.31	-37.6	-38.6	22.9	0.00e+00	0	27	0	313524224	48	6139
2026-01-12 19:24:31.40	25.08	11.36	-37.7	-38.7	22.5	0.00e+00	0	27	0	315621376	48	6218
2026-01-12 19:24:32.41	24.91	11.40	-37.5	-38.4	22.8	0.00e+00	0	27	0	317718528	48	6007
2026-01-12 19:24:33.42	24.74	11.44	-37.4	-38.4	23.1	0.00e+00	0	27	0	319815680	48	5976
2026-01-12 19:24:34.43	24.57	11.48	-37.4	-38.4	23.2	0.00e+00	0	27	0	321912832	48	5986
2026-01-12 19:24:35.44	24.40	11.52	-37.4	-38.4	23.2	0.00e+00	0	27	0	322961408	48	5991
2026-01-12 19:24:36.45	24.23	11.57	-37.4	-38.4	23.2	0.00e+00	0	27	0	325058560	48	5977
2026-01-12 19:24:37.46	24.06	11.61	-37.5	-38.4	23.1	0.00e+00	0	27	0	327155712	48	6002
2026-01-12 19:24:38.47	23.89	11.65	-37.5	-38.5	23.1	0.00e+00	0	27	0	329252864	48	6034
2026-01-12 19:24:39.48	23.72	11.69	-37.5	-38.5	23.1	0.00e+00	0	27	0	331350016	48	6063
2026-01-12 19:24:40.49	23.55	11.73	-37.4	-38.4	23.2	0.00e+00	0	27	0	332398592	48	5967
2026-01-12 19:24:41.50	23.37	11.77	-37.5	-38.4	23.1	0.00e+00	0	27	0	334495744	48	6028
2026-01-12 19:24:42.51	23.20	11.81	-37.6	-38.5	23.0	0.00e+00	0	27	0	336592896	48	6099
2026-01-12 19:24:43.52	23.03	11.85	-37.6	-38.6	23.0	0.00e+00	0	27	0	338690048	48	6105
2026-01-12 19:24:44.53	22.85	11.89	-37.8	-38.8	22.8	0.00e+00	0	27	0	340787200	48	6248
2026-01-12 19:24:45.54	22.68	11.93	-37.5	-38.5	23.1	0.00e+00	0	27	0	341835776	48	6067
2026-01-12 19:24:46.55	22.50	11.97	-37.6	-38.6	22.9	0.00e+00	0	27	0	343932928	48	6136
2026-01-12 19:24:47.56	22.33	12.01	-37.7	-38.7	22.8	0.00e+00	0	27	0	346030080	48	6184
2026-01-12 19:24:48.57	22.15	12.05	-37.8	-38.8	22.7	0.00e+00	0	27	0	348127232	48	6300
2026-01-12 19:24:49.58	21.98	12.09	-37.8	-38.8	22.8	0.00e+00	0	27	0	350224384	48	6278
2026-01-12 19:24:50.59	21.80	12.13	-37.8	-38.8	22.8	0.00e+00	0	27	0	351272960	48	6249
2026-01-12 19:24:51.60	21.62	12.17	-37.7	-38.7	22.9	0.00e+00	0	27	0	353370112	48	6216
2026-01-12 19:24:52.60	21.45	12.21	-37.8	-38.8	22.8	0.00e+00	0	27	0	355467264	48	6305
2026-01-12 19:24:53.61	21.27	12.24	-37.8	-38.8	22.8	0.00e+00	0	27	0	357564416	48	6289
2026-01-12 19:24:54.62	21.09	12.28	-37.9	-38.9	22.7	0.00e+00	0	27	0	359661568	48	6381
2026-01-12 19:24:55.63	20.91	12.32	-38.0	-39.0	22.7	0.00e+00	0	27	0	361758720	48	6420
2026-01-12 19:24:56.64	20.73	12.36	-38.2	-39.2	22.5	0.00e+00	0	27	0	362807296	48	6571
2026-01-12 19:24:57.65	20.55	12.40	-38.0	-39.0	22.6	0.00e+00	0	27	0	364904448	48	6442
2026-01-12 19:24:58.66	20.37	12.43	-37.9	-38.9	22.8	0.00e+00	0	27	0	367001600	48	6339
2026-01-12 19:24:59.67	20.19	12.47	-37.8	-38.8	22.9	0.00e+00	0	27	0	369098752	48	6246
2026-01-12 19:25:00.68	20.01	12.51	-37.8	-38.8	22.9	0.00e+00	0	27	0	371195904	48	6251
2026-01-12 19:25:01.69	19.82	12.54	-37.7	-38.6	22.9	0.00e+00	0	27	0	372244480	48	6147
2026-01-12 19:25:02.70	19.64	12.58	-37.8	-38.7	22.5	0.00e+00	0	27	0	374341632	48	6235
2026-01-12 19:25:03.71	19.46	12.62	-37.8	-38.7	22.8	0.00e+00	0	27	0	376438784	48	6221
2026-01-12 19:25:04.71	19.28	12.65	-37.9	-38.9	22.7	0.00e+00	0	27	0	378535936	48	6318
2026-01-12 19:25:05.72	19.09	12.69	-37.8	-38.8	22.8	0.00e+00	0	27	0	380633088	48	6285
2026-01-12 19:25:06.73	18.91	12.72	-37.8	-38.8	22.8	0.00e+00	0	27	0	381681664	48	6287
2026-01-12 19:25:07.74	18.72	12.76	-37.7	-38.7	22.9	0.00e+00	0	27	0	383778816	48	6208
2026-01-12 19:25:08.75	18.54	12.79	-37.8	-38.8	22.9	0.00e+00	0	27	0	385875968	48	6260
2026-01-12 19:25:09.76	18.35	12.83	-37.8	-38.8	22.9	0.00e+00	0	27	0	387973120	48	6269
2026-01-12 19:25:10.77	18.17	12.86	-37.7	-38.7	23.0	0.00e+00	0	27	0	390070272	48	6217
2026-01-12 19:25:11.78	17.98	12.90	-37.7	-38.7	23.0	0.00e+00	0	27	0	391118848	48	6177
2026-01-12 19:25:12.79	17.79	12.93	-37.7	-38.7	23.0	0.00e+00	0	27	0	393216000	48	6183
2026-01-12 19:25:13.80	17.61	12.96	-37.7	-38.7	22.9	0.00e+00	0	27	0	395313152	48	6184
2026-01-12 19:25:14.81	17.42	13.00	-37.5	-38.4	23.1	0.00e+00	0	27	0	397410304	48	6027
2026-01-12 19:25:15.82	17.23	13.03	-37.5	-38.5	23.0	0.00e+00	0	27	0	399507456	48	6056
2026-01-12 19:25:16.82	17.04	13.06	-37.6	-38.5	22.2	0.00e+00	0	27	0	400556032	48	6092
2026-01-12 19:25:17.83	16.85	13.10	-37.5	-38.5	22.9	0.00e+00	0	27	0	402653184	48	6060
2026-01-12 19:25:18.84	16.66	13.13	-37.7	-38.7	23.0	0.00e+00	0	27	0	404750336	48	6199
2026-01-12 19:25:19.86	16.47	13.16	-37.6	-38.6	23.1	0.00e+00	0	27	0	406847488	48	6120
2026-01-12 19:25:20.87	16.28	13.19	-37.6	-38.6	23.1	0.00e+00	0	27	0	408944640	48	6126
2026-01-12 19:25:21.88	16.09	13.22	-37.5	-38.5	23.1	0.00e+00	0	27	0	409993216	48	6045
2026-01-12 19:25:22.89	15.90	13.25	-37.5	-38.4	23.2	0.00e+00	0	27	0	412090368	48	6033
2026-01-12 19:25:23.90	15.71	13.29	-37.5	-38.5	23.1	0.00e+00	0	27	0	414187520	48	6052
2026-01-12 19:25:24.91	15.52	13.32	-37.6	-38.6	23.1	0.00e+00	0	27	0	416284672	48	6134
2026-01-12 19:25:25.92	15.32	13.35	-37.6	-38.6	23.1	0.00e+00	0	27	0	418381824	48	6115
2026-01-12 19:25:26.93	15.13	13.38	-37.6	-38.6	23.1	0.00e+00	0	27	0	419430400	48	6110
2026-01-12 19:25:27.94	14.94	13.41	-37.4	-38.4	23.2	0.00e+00	0	27	0	421527552	48	5984
2026-01-12 19:25:28.95	14.75	13.44	-37.4	-38.4	23.2	0.00e+00	0	27	0	423624704	48	5971
2026-01-12 19:25:29.96	14.55	13.47	-37.5	-38.5	23.1	0.00e+00	0	27	0	425721856	48	6060
2026-01-12 19:25:30.97	14.36	13.49	-37.3	-38.3	23.3	0.00e+00	0	27	0	427819008	48	5921
2026-01-12 19:25:31.98	14.16	13.52	-37.4	-38.3	23.3	0.00e+00	0	27	0	429916160	48	5947
2026-01-12 19:25:32.98	13.97	13.55	-37.5	-38.4	23.2	0.00e+00	0	27	0	430964736	48	6021
2026-01-12 19:25:33.99	13.77	13.58	-37.6	-38.5	23.1	0.00e+00	0	27	0	433061888	48	6071
2026-01-12 19:25:35.00	13.58	13.61	-37.6	-38.5	23.2	0.00e+00	0	27	0	435159040	48	6068
2026-01-12 19:25:36.01	13.38	13.64	-37.4	-38.4	23.2	0.00e+00	0	27	0	437256192	48	5968
2026-01-12 19:25:37.03	13.18	13.66	-37.3	-38.2	23.4	0.00e+00	0	27	0	439353344	48	5893
2026-01-12 19:25:38.04	12.99	13.69	-37.3	-38.2	23.5	0.00e+00	0	27	0	440401920	48	5862
2026-01-12 19:25:39.05	12.79	13.72	-37.3	-38.3	23.3	0.00e+00	0	27	0	442499072	48	5906
2026-01-12 19:25:40.06	12.59	13.74	-37.4	-38.3	23.4	0.00e+00	0	27	0	444596224	48	5955
2026-01-12 19:25:41.07	12.39	13.77	-37.5	-38.5	23.2	0.00e+00	0	27	0	446693376	48	6039
2026-01-12 19:25:42.08	12.19	13.79	-37.4	-38.3	23.3	0.00e+00	0	27	0	448790528	48	5939
2026-01-12 19:25:43.08	12.00	13.82	-37.4	-38.4	23.2	0.00e+00	0	27	0	449839104	48	5967
2026-01-12 19:25:44.09	11.80	13.84	-37.4	-38.3	23.3	0.00e+00	0	27	0	451936256	48	5959
2026-01-12 19:25:45.10	11.60	13.87	-37.4	-38.4	23.2	0.00e+00	0	27	0	454033408	48	5991
2026-01-12 19:25:46.11	11.40	13.89	-37.6	-38.5	23.2	0.00e+00	0	27	0	456130560	48	6083
2026-01-12 19:25:47.12	11.20	13.92	-37.7	-38.6	23.0	0.00e+00	0	28	0	458227712	48	6172
2026-01-12 19:25:48.13	11.00	13.94	-37.7	-38.7	22.9	0.00e+00	0	27	0	459276288	48	6202
2026-01-12 19:25:49.14	10.80	13.96	-37.9	-38.9	22.8	0.00e+00	0	27	0	461373440	48	6324
2026-01-12 19:25:50.15	10.60	13.99	-37.9	-38.8	22.8	0.00e+00	0	27	0	463470592	48	6317
2026-01-12 19:25:51.16	10.40	14.01	-37.9	-38.9	22.7	0.00e+00	0	27	0	465567744	48	6367
2026-01-12 19:25:52.17	10.19	14.03	-37.8	-38.8	22.8	0.00e+00	0	27	0	467664896	48	6287
2026-01-12 19:25:53.18	9.99	14.05	-38.0	-39.0	22.8	0.00e+00	0	28	0	468713472	48	6422
2026-01-12 19:25:54.19	9.79	14.08	-37.8	-38.8	22.9	0.00e+00	0	28	0	470810624	48	6286
2026-01-12 19:25:55.19	9.59	14.10	-37.9	-38.8	22.8	0.00e+00	0	28	0	472907776	48	6313
2026-01-12 19:25:56.20	9.39	14.12	-38.1	-39.1	22.6	0.00e+00	0	27	0	475004928	48	6479
2026-01-12 19:25:57.21	9.18	14.14	-38.1	-39.1	22.5	0.00e+00	0	28	0	477102080	48	6500
2026-01-12 19:25:58.22	8.98	14.16	-38.2	-39.2	22.6	0.00e+00	0	28	0	478150656	48	6554
2026-01-12 19:25:59.23	8.78	14.18	-38.1	-39.1	22.6	0.00e+00	0	27	0	480247808	48	6505
2026-01-12 19:26:00.24	8.57	14.20	-38.2	-39.2	22.5	0.00e+00	0	28	0	482344960	48	6554
2026-01-12 19:26:01.25	8.37	14.22	-38.2	-39.2	22.6	0.00e+00	0	27	0	484442112	48	6553
2026-01-12 19:26:02.26	8.16	14.24	-38.3	-39.4	22.4	0.00e+00	0	27	0	486539264	48	6710
2026-01-12 19:26:03.27	7.96	14.26	-38.5	-39.5	22.3	0.00e+00	0	28	0	487587840	48	6837
2026-01-12 19:26:04.28	7.75	14.27	-38.5	-39.6	22.2	0.00e+00	0	28	0	489684992	48	6873
2026-01-12 19:26:05.29	7.55	14.29	-38.4	-39.4	22.4	0.00e+00	0	28	0	491782144	48	6759
2026-01-12 19:26:06.30	7.34	14.31	-38.4	-39.4	22.4	0.00e+00	0	28	0	493879296	48	6731
2026-01-12 19:26:07.31	7.14	14.33	-38.1	-39.1	22.6	0.00e+00	0	28	0	495976448	48	6482
2026-01-12 19:26:08.32	6.93	14.34	-37.7	-38.7	23.0	0.00e+00	0	28	0	497025024	48	6174
2026-01-12 19:26:09.33	6.72	14.36	-37.8	-38.8	23.0	0.00e+00	0	28	0	499122176	48	6255
2026-01-12 19:26:10.34	6.52	14.38	-37.7	-38.7	23.1	0.00e+00	0	28	0	501219328	48	6185
2026-01-12 19:26:11.34	6.31	14.39	-37.8	-38.7	22.9	0.00e+00	0	28	0	503316480	48	6244
2026-01-12 19:26:12.35	6.11	14.41	-37.8	-38.8	22.9	0.00e+00	0	28	0	505413632	48	6276
2026-01-12 19:26:13.36	5.90	14.42	-37.8	-38.7	23.0	0.00e+00	0	28	0	506462208	48	6228
2026-01-12 19:26:14.37	5.69	14.44	-37.6	-38.5	23.2	0.00e+00	0	28	0	508559360	48	6080
2026-01-12 19:26:15.38	5.48	14.45	-37.5	-38.4	23.2	0.00e+00	0	28	0	510656512	48	6016
2026-01-12 19:26:16.39	5.28	14.47	-37.6	-38.5	23.2	0.00e+00	0	28	0	512753664	48	6075
2026-01-12 19:26:17.40	5.07	14.48	-37.5	-38.4	23.3	0.00e+00	0	28	0	514850816	48	6021
2026-01-12 19:26:18.41	4.86	14.49	-37.5	-38.5	23.2	0.00e+00	0	28	0	515899392	48	6037
2026-01-12 19:26:19.42	4.65	14.51	-37.6	-38.5	23.2	0.00e+00	0	28	0	517996544	48	6090
2026-01-12 19:26:20.43	4.44	14.52	-37.7	-38.6	23.0	0.00e+00	0	28	0	520093696	48	6167
2026-01-12 19:26:21.44	4.23	14.53	-37.7	-38.7	22.8	0.00e+00	0	28	0	522190848	48	6193
2026-01-12 19:26:22.45	4.02	14.54	-37.8	-38.8	23.0	0.00e+00	0	28	0	524288000	48	6250
2026-01-12 19:26:23.46	3.82	14.55	-37.7	-38.7	23.0	0.00e+00	0	28	0	526385152	48	6200
2026-01-12 19:26:24.47	3.61	14.56	-37.7	-38.6	23.1	0.00e+00	0	28	0	527433728	48	6165
2026-01-12 19:26:25.47	3.40	14.58	-37.6	-38.6	23.1	0.00e+00	0	28	0	529530880	48	6118
2026-01-12 19:26:26.48	3.19	14.59	-37.7	-38.7	23.1	0.00e+00	0	28	0	531628032	48	6184
2026-01-12 19:26:27.49	2.98	14.60	-37.7	-38.7	23.1	0.00e+00	0	28	0	533725184	48	6193
2026-01-12 19:26:28.50	2.77	14.60	-37.9	-38.9	22.8	0.00e+00	0	28	0	535822336	48	6364
2026-01-12 19:26:29.51	2.56	14.61	-38.0	-39.0	22.8	0.00e+00	0	28	0	536870912	48	6456
2026-01-12 19:26:30.51	2.35	14.62	-38.0	-39.0	22.8	0.00e+00	0	28	0	538968064	48	6424
2026-01-12 19:26:31.52	2.14	14.63	-38.0	-39.0	22.8	0.00e+00	0	28	0	541065216	48	6414
2026-01-12 19:26:32.53	1.93	14.64	-37.8	-38.7	23.0	0.00e+00	0	28	0	543162368	48	6223
2026-01-12 19:26:33.54	1.72	14.65	-37.8	-38.8	22.9	0.00e+00	0	28	0	545259520	48	6247
2026-01-12 19:26:34.55	1.51	14.65	-37.7	-38.7	23.1	0.00e+00	0	28	0	546308096	48	6210
2026-01-12 19:26:35.56	1.30	14.66	-37.9	-38.9	22.8	0.00e+00	0	28	0	548405248	48	6364
2026-01-12 19:26:36.57	1.09	14.67	-37.8	-38.8	23.0	0.00e+00	0	28	0	550502400	48	6260
2026-01-12 19:26:37.58	0.88	14.67	-38.0	-39.0	22.8	0.00e+00	0	28	0	552599552	48	6394
2026-01-12 19:26:38.59	0.67	14.68	-37.8	-38.8	23.0	0.00e+00	0	28	0	554696704	48	6291
2026-01-12 19:26:39.60	0.46	14.68	-37.9	-38.8	22.9	0.00e+00	0	28	0	555745280	48	6309
2026-01-12 19:26:40.61	0.25	14.69	-38.0	-39.0	22.9	0.00e+00	0	28	0	557842432	48	6394
2026-01-12 19:26:41.62	0.03	14.69	-37.7	-38.7	23.0	0.00e+00	0	28	0	559939584	48	6215
2026-01-12 19:26:42.63	359.82	14.70	-37.8	-38.7	23.1	0.00e+00	0	28	0	562036736	48	6215
2026-01-12 19:26:43.63	359.61	14.70	-37.6	-38.5	23.2	0.00e+00	0	28	0	564133888	48	6102
2026-01-12 19:26:44.64	359.40	14.70	-37.6	-38.5	23.2	0.00e+00	0	28	0	565182464	48	6103
2026-01-12 19:26:45.65	359.19	14.71	-37.7	-38.7	22.9	0.00e+00	0	28	0	567279616	48	6181
2026-01-12 19:26:46.66	358.98	14.71	-37.8	-38.7	23.0	0.00e+00	0	28	0	569376768	48	6224
2026-01-12 19:26:47.67	358.77	14.71	-37.7	-38.7	23.0	0.00e+00	0	28	0	571473920	48	6182
2026-01-12 19:26:48.68	358.56	14.71	-37.6	-38.6	23.1	0.00e+00	0	28	0	573571072	48	6128
2026-01-12 19:26:49.69	358.35	14.71	-37.6	-38.6	23.2	0.00e+00	0	28	0	574619648	48	6121
2026-01-12 19:26:50.70	358.13	14.72	-37.6	-38.6	23.2	0.00e+00	0	28	0	576716800	48	6107
2026-01-12 19:26:51.71	357.92	14.72	-37.6	-38.6	23.2	0.00e+00	0	28	0	578813952	48	6120
2026-01-12 19:26:52.72	357.71	14.72	-37.5	-38.5	23.3	0.00e+00	0	28	0	580911104	48	6060
2026-01-12 19:26:53.72	357.50	14.72	-37.6	-38.5	23.2	0.00e+00	0	28	0	583008256	48	6090
2026-01-12 19:26:54.73	357.29	14.72	-37.5	-38.4	23.2	0.00e+00	0	28	0	584056832	48	6020
2026-01-12 19:26:55.74	357.08	14.71	-37.7	-38.7	23.1	0.00e+00	0	28	0	586153984	48	6174
2026-01-12 19:26:56.75	356.87	14.71	-37.7	-38.7	23.0	0.00e+00	0	28	0	588251136	48	6181
2026-01-12 19:26:57.76	356.66	14.71	-37.8	-38.7	23.0	0.00e+00	0	28	0	590348288	48	6241
2026-01-12 19:26:58.77	356.45	14.71	-37.7	-38.7	22.9	0.00e+00	0	28	0	592445440	48	6195
2026-01-12 19:26:59.78	356.23	14.71	-37.9	-38.9	22.8	0.00e+00	0	28	0	594542592	48	6324
2026-01-12 19:27:00.79	356.02	14.70	-37.7	-38.6	23.2	0.00e+00	0	28	0	595591168	48	6150
2026-01-12 19:27:01.80	355.81	14.70	-37.6	-38.6	23.1	0.00e+00	0	28	0	597688320	48	6141
2026-01-12 19:27:02.80	355.60	14.70	-37.6	-38.6	23.2	0.00e+00	0	28	0	599785472	48	6121
2026-01-12 19:27:03.81	355.39	14.69	-37.7	-38.6	23.1	0.00e+00	0	28	0	601882624	48	6172
2026-01-12 19:27:04.82	355.18	14.69	-37.6	-38.5	23.2	0.00e+00	0	28	0	603979776	48	6077
2026-01-12 19:27:05.83	354.97	14.68	-37.7	-38.6	23.1	0.00e+00	0	28	0	605028352	48	6172
2026-01-12 19:27:06.84	354.76	14.68	-37.7	-38.7	23.0	0.00e+00	0	28	0	607125504	48	6220
2026-01-12 19:27:07.85	354.55	14.67	-37.9	-38.9	22.9	0.00e+00	0	28	0	609222656	48	6336
2026-01-12 19:27:08.86	354.34	14.67	-38.0	-39.0	22.8	0.00e+00	0	28	0	611319808	48	6462
2026-01-12 19:27:09.87	354.13	14.66	-38.1	-39.0	22.7	0.00e+00	0	28	0	612368384	48	6462
2026-01-12 19:27:10.88	353.92	14.65	-38.1	-39.1	22.8	0.00e+00	0	28	0	614465536	48	6481
2026-01-12 19:27:11.89	353.71	14.64	-38.1	-39.2	22.6	0.00e+00	0	28	0	616562688	48	6540
2026-01-12 19:27:12.89	353.50	14.64	-38.2	-39.2	22.6	0.00e+00	0	28	0	618659840	48	6567
2026-01-12 19:27:13.90	353.29	14.63	-38.0	-39.0	22.8	0.00e+00	0	28	0	620756992	48	6413
2026-01-12 19:27:14.91	353.08	14.62	-38.0	-39.0	22.7	0.00e+00	0	28	0	622854144	48	6456
2026-01-12 19:27:15.92	352.87	14.61	-37.8	-38.8	23.0	0.00e+00	0	28	0	623902720	48	6291
2026-01-12 19:27:16.93	352.66	14.60	-37.8	-38.8	22.9	0.00e+00	0	28	0	625999872	48	6295
2026-01-12 19:27:17.94	352.45	14.59	-37.9	-38.9	23.0	0.00e+00	0	28	0	628097024	48	6323
2026-01-12 19:27:18.95	352.24	14.58	-37.8	-38.8	22.9	0.00e+00	0	28	0	630194176	48	6266
2026-01-12 19:27:19.96	352.03	14.57	-37.9	-38.9	22.8	0.00e+00	0	28	0	632291328	48	6364
2026-01-12 19:27:20.97	351.82	14.56	-38.1	-39.0	22.7	0.00e+00	0	28	0	633339904	48	6453
2026-01-12 19:27:21.98	351.61	14.55	-38.2	-39.2	22.4	0.00e+00	0	28	0	635437056	48	6557
2026-01-12 19:27:22.99	351.40	14.54	-38.3	-39.3	22.5	0.00e+00	0	28	0	637534208	48	6648
2026-01-12 19:27:24.00	351.19	14.53	-38.3	-39.3	22.4	0.00e+00	0	28	0	639631360	48	6670
2026-01-12 19:27:25.01	350.98	14.52	-38.5	-39.6	22.3	0.00e+00	0	28	0	641728512	48	6887
2026-01-12 19:27:26.01	350.78	14.50	-38.5	-39.5	22.3	0.00e+00	0	28	0	642777088	48	6840
2026-01-12 19:27:27.02	350.57	14.49	-38.2	-39.2	22.6	0.00e+00	0	28	0	644874240	48	6611
2026-01-12 19:27:28.03	350.36	14.48	-38.0	-39.0	22.8	0.00e+00	0	28	0	646971392	48	6409
2026-01-12 19:27:29.04	350.15	14.46	-38.0	-39.0	22.8	0.00e+00	0	28	0	649068544	48	6423
2026-01-12 19:27:30.05	349.94	14.45	-37.8	-38.8	22.9	0.00e+00	0	28	0	651165696	48	6292
2026-01-12 19:27:31.06	349.74	14.44	-37.9	-38.9	23.0	0.00e+00	0	28	0	652214272	48	6350
2026-01-12 19:27:32.07	349.53	14.42	-37.9	-38.9	22.9	0.00e+00	0	28	0	654311424	48	6328
2026-01-12 19:27:33.08	349.32	14.41	-37.9	-38.9	22.8	0.00e+00	0	28	0	656408576	48	6374
2026-01-12 19:27:34.09	349.11	14.39	-38.0	-39.0	22.6	0.00e+00	0	28	0	658505728	48	6435
2026-01-12 19:27:35.10	348.91	14.37	-37.8	-38.8	22.9	0.00e+00	0	28	0	660602880	48	6299
2026-01-12 19:27:36.11	348.70	14.36	-38.0	-39.0	22.8	0.00e+00	0	28	0	661651456	48	6395
2026-01-12 19:27:37.12	348.50	14.34	-37.9	-38.9	22.8	0.00e+00	0	28	0	663748608	48	6372
2026-01-12 19:27:38.13	348.29	14.32	-37.9	-38.9	22.8	0.00e+00	0	28	0	665845760	48	6381
2026-01-12 19:27:39.13	348.09	14.31	-37.9	-38.9	22.9	0.00e+00	0	28	0	667942912	48	6329
2026-01-12 19:27:40.14	347.88	14.29	-37.9	-38.9	22.9	0.00e+00	0	28	0	670040064	48	6359
2026-01-12 19:27:41.15	347.67	14.27	-37.7	-38.7	23.0	0.00e+00	0	28	0	671088640	48	6228
2026-01-12 19:27:42.16	347.47	14.25	-37.6	-38.6	23.1	0.00e+00	0	28	0	673185792	48	6154
2026-01-12 19:27:43.17	347.27	14.23	-37.7	-38.6	23.1	0.00e+00	0	28	0	675282944	48	6155
2026-01-12 19:27:44.18	347.06	14.22	-37.6	-38.6	23.0	0.00e+00	0	28	0	677380096	48	6125
2026-01-12 19:27:45.19	346.86	14.20	-37.7	-38.7	23.1	0.00e+00	0	28	0	679477248	48	6187
2026-01-12 19:27:46.20	346.65	14.18	-37.7	-38.7	22.8	0.00e+00	0	28	0	680525824	48	6204
2026-01-12 19:27:47.21	346.45	14.16	-37.8	-38.8	22.9	0.00e+00	0	28	0	682622976	48	6270
2026-01-12 19:27:48.22	346.25	14.14	-37.7	-38.7	22.9	0.00e+00	0	28	0	684720128	48	6208
2026-01-12 19:27:49.23	346.04	14.12	-37.8	-38.8	23.0	0.00e+00	0	28	0	686817280	48	6279
2026-01-12 19:27:50.24	345.84	14.09	-37.7	-38.7	23.0	0.00e+00	0	28	0	688914432	48	6193
2026-01-12 19:27:51.25	345.64	14.07	-37.7	-38.7	23.0	0.00e+00	0	28	0	691011584	48	6203
2026-01-12 19:27:52.26	345.43	14.05	-37.7	-38.7	23.1	0.00e+00	0	28	0	692060160	48	6175
2026-01-12 19:27:53.26	345.23	14.03	-37.7	-38.7	23.0	0.00e+00	0	28	0	694157312	48	6207
2026-01-12 19:27:54.27	345.03	14.01	-37.8	-38.7	23.1	0.00e+00	0	28	0	696254464	48	6234
2026-01-12 19:27:55.28	344.83	13.98	-37.7	-38.7	23.1	0.00e+00	0	28	0	698351616	48	6178
2026-01-12 19:27:56.29	344.63	13.96	-37.9	-38.9	22.9	0.00e+00	0	28	0	700448768	48	6351
2026-01-12 19:27:57.30	344.43	13.94	-38.0	-39.0	22.8	0.00e+00	0	28	0	701497344	48	6427
2026-01-12 19:27:58.31	344.23	13.91	-38.1	-39.1	22.7	0.00e+00	0	28	0	703594496	48	6502
2026-01-12 19:27:59.32	344.03	13.89	-38.0	-39.1	22.6	0.00e+00	0	28	0	705691648	48	6470
2026-01-12 19:28:00.33	343.83	13.86	-38.0	-39.1	22.7	0.00e+00	0	28	0	707788800	48	6486
2026-01-12 19:28:01.34	343.63	13.84	-38.0	-39.0	22.7	0.00e+00	0	28	0	709885952	48	6448
2026-01-12 19:28:02.35	343.43	13.82	-38.0	-39.0	22.8	0.00e+00	0	28	0	710934528	48	6422
2026-01-12 19:28:03.36	343.23	13.79	-38.0	-39.0	22.8	0.00e+00	0	28	0	713031680	48	6437
2026-01-12 19:28:04.37	343.03	13.76	-38.0	-39.0	22.7	0.00e+00	0	28	0	715128832	48	6435
2026-01-12 19:28:05.37	342.84	13.74	-38.0	-39.0	22.7	0.00e+00	0	28	0	717225984	48	6429
2026-01-12 19:28:06.38	342.64	13.71	-38.1	-39.1	22.7	0.00e+00	0	28	0	719323136	48	6506
2026-01-12 19:28:07.39	342.44	13.69	-38.1	-39.2	22.6	0.00e+00	0	28	0	720371712	48	6569
2026-01-12 19:28:08.40	342.25	13.66	-38.1	-39.1	22.6	0.00e+00	0	28	0	722468864	48	6514
2026-01-12 19:28:09.41	342.05	13.63	-38.1	-39.2	22.6	0.00e+00	0	28	0	724566016	48	6559
2026-01-12 19:28:10.42	341.85	13.60	-38.1	-39.2	22.7	0.00e+00	0	28	0	726663168	48	6579
2026-01-12 19:28:11.42	341.66	13.58	-37.9	-39.0	22.8	0.00e+00	0	28	0	728760320	48	6435
2026-01-12 19:28:12.43	341.46	13.55	-38.0	-39.0	22.7	0.00e+00	0	28	0	729808896	48	6436
2026-01-12 19:28:13.44	341.27	13.52	-38.0	-39.0	22.7	0.00e+00	0	29	0	731906048	48	6434
2026-01-12 19:28:14.45	341.07	13.49	-38.0	-39.1	22.6	0.00e+00	0	29	0	734003200	48	6497
2026-01-12 19:28:15.46	340.88	13.46	-38.3	-39.3	22.5	0.00e+00	0	28	0	736100352	48	6682
2026-01-12 19:28:16.46	340.69	13.43	-38.1	-39.2	22.6	0.00e+00	0	28	0	738197504	48	6568
2026-01-12 19:28:17.47	340.50	13.40	-38.2	-39.3	22.5	0.00e+00	0	28	0	739246080	48	6648
2026-01-12 19:28:18.48	340.30	13.37	-38.2	-39.3	22.6	0.00e+00	0	28	0	741343232	48	6625
2026-01-12 19:28:19.49	340.11	13.34	-38.2	-39.2	22.6	0.00e+00	0	28	0	743440384	48	6605
2026-01-12 19:28:20.50	339.92	13.31	-38.2	-39.3	22.5	0.00e+00	0	29	0	745537536	48	6666
2026-01-12 19:28:21.51	339.73	13.28	-38.2	-39.3	22.5	0.00e+00	0	28	0	747634688	48	6616
2026-01-12 19:28:22.52	339.53	13.25	-37.9	-39.0	22.8	0.00e+00	0	29	0	748683264	48	6391
2026-01-12 19:28:23.53	339.34	13.22	-38.0	-39.1	22.7	0.00e+00	0	29	0	750780416	48	6484
2026-01-12 19:28:24.53	339.15	13.19	-37.9	-39.0	22.8	0.00e+00	0	29	0	752877568	48	6395
2026-01-12 19:28:25.54	338.96	13.16	-37.8	-38.8	22.8	0.00e+00	0	29	0	754974720	48	6296
2026-01-12 19:28:26.55	338.77	13.12	-37.8	-38.8	22.9	0.00e+00	0	28	0	757071872	48	6284
2026-01-12 19:28:27.56	338.58	13.09	-37.8	-38.8	22.9	0.00e+00	0	29	0	758120448	48	6257
2026-01-12 19:28:28.57	338.40	13.06	-37.8	-38.8	22.9	0.00e+00	0	29	0	760217600	48	6267
2026-01-12 19:28:29.58	338.21	13.03	-37.9	-38.9	22.6	0.00e+00	0	28	0	762314752	48	6318
2026-01-12 19:28:30.59	338.02	12.99	-37.8	-38.8	23.0	0.00e+00	0	29	0	764411904	48	6273
2026-01-12 19:28:31.59	337.83	12.96	-37.7	-38.8	23.0	0.00e+00	0	29	0	766509056	48	6246
2026-01-12 19:28:32.60	337.65	12.93	-37.7	-38.7	22.9	0.00e+00	0	28	0	767557632	48	6237
2026-01-12 19:28:33.61	337.46	12.89	-37.7	-38.7	23.0	0.00e+00	0	29	0	769654784	48	6191
2026-01-12 19:28:34.62	337.27	12.86	-37.6	-38.6	23.1	0.00e+00	0	29	0	771751936	48	6154
2026-01-12 19:28:35.63	337.09	12.82	-37.6	-38.5	23.1	0.00e+00	0	29	0	773849088	48	6102
2026-01-12 19:28:36.64	336.90	12.79	-37.5	-38.5	23.1	0.00e+00	0	29	0	775946240	48	6089
2026-01-12 19:28:37.65	336.72	12.75	-37.6	-38.6	23.1	0.00e+00	0	29	0	776994816	48	6153
2026-01-12 19:28:38.66	336.53	12.72	-37.7	-38.7	23.0	0.00e+00	0	29	0	779091968	48	6218
2026-01-12 19:28:39.67	336.35	12.68	-37.8	-38.8	22.7	0.00e+00	0	29	0	781189120	48	6283
2026-01-12 19:28:40.68	336.16	12.65	-37.8	-38.8	22.8	0.00e+00	0	29	0	783286272	48	6309
2026-01-12 19:28:41.68	335.98	12.61	-37.7	-38.7	23.0	0.00e+00	0	29	0	785383424	48	6223
2026-01-12 19:28:42.69	335.80	12.58	-37.8	-38.8	23.0	0.00e+00	0	29	0	787480576	48	6258
2026-01-12 19:28:43.70	335.62	12.54	-37.7	-38.7	22.8	0.00e+00	0	29	0	788529152	48	6195
2026-01-12 19:28:44.71	335.43	12.50	-37.7	-38.7	23.0	0.00e+00	0	29	0	790626304	48	6208
2026-01-12 19:28:45.72	335.25	12.47	-37.7	-38.7	23.0	0.00e+00	0	29	0	792723456	48	6177
2026-01-12 19:28:46.73	335.07	12.43	-37.6	-38.5	23.1	0.00e+00	0	29	0	794820608	48	6075
2026-01-12 19:28:47.74	334.89	12.39	-37.7	-38.6	23.0	0.00e+00	0	29	0	796917760	48	6148
2026-01-12 19:28:48.75	334.71	12.35	-37.6	-38.6	23.2	0.00e+00	0	29	0	797966336	48	6111
2026-01-12 19:28:49.76	334.53	12.32	-37.6	-38.6	23.1	0.00e+00	0	29	0	800063488	48	6123
2026-01-12 19:28:50.77	334.35	12.28	-37.6	-38.5	23.2	0.00e+00	0	29	0	802160640	48	6087
2026-01-12 19:28:51.78	334.17	12.24	-37.7	-38.6	23.1	0.00e+00	0	29	0	804257792	48	6163
2026-01-12 19:28:52.79	333.99	12.20	-37.7	-38.6	23.1	0.00e+00	0	29	0	806354944	48	6144
2026-01-12 19:28:53.80	333.82	12.16	-37.6	-38.6	23.1	0.00e+00	0	29	0	807403520	48	6112
2026-01-12 19:28:54.81	333.64	12.12	-37.7	-38.7	23.0	0.00e+00	0	29	0	809500672	48	6212
2026-01-12 19:28:55.82	333.46	12.09	-37.9	-38.8	23.0	0.00e+00	0	29	0	811597824	48	6303
2026-01-12 19:28:56.83	333.29	12.05	-37.7	-38.7	23.1	0.00e+00	0	29	0	813694976	48	6206
2026-01-12 19:28:57.84	333.11	12.01	-37.8	-38.8	22.9	0.00e+00	0	29	0	815792128	48	6266
2026-01-12 19:28:58.85	332.94	11.97	-37.9	-38.9	22.8	0.00e+00	0	29	0	816840704	48	6369
2026-01-12 19:28:59.85	332.76	11.93	-38.0	-39.0	22.8	0.00e+00	0	29	0	818937856	48	6397
2026-01-12 19:29:00.86	332.59	11.89	-38.1	-39.1	22.6	0.00e+00	0	29	0	821035008	48	6495
2026-01-12 19:29:01.87	332.41	11.85	-38.2	-39.2	22.6	0.00e+00	0	29	0	823132160	48	6605
2026-01-12 19:29:02.87	332.24	11.81	-38.3	-39.3	22.4	0.00e+00	0	29	0	825229312	48	6687
2026-01-12 19:29:03.88	332.07	11.77	-38.4	-39.4	22.4	0.00e+00	0	29	0	826277888	48	6711
2026-01-12 19:29:04.89	331.90	11.73	-38.5	-39.6	22.2	0.00e+00	0	29	0	828375040	48	6855
2026-01-12 19:29:05.90	331.72	11.69	-38.6	-39.6	22.2	0.00e+00	0	29	0	830472192	48	6885
2026-01-12 19:29:06.91	331.55	11.64	-38.6	-39.6	22.2	0.00e+00	0	29	0	832569344	48	6911
2026-01-12 19:29:07.92	331.38	11.60	-38.6	-39.6	22.1	0.00e+00	0	29	0	834666496	48	6899
2026-01-12 19:29:08.93	331.21	11.56	-38.6	-39.7	22.1	0.00e+00	0	29	0	835715072	48	6978
2026-01-12 19:29:09.94	331.04	11.52	-38.8	-39.9	21.9	0.00e+00	0	29	0	837812224	50	6338
2026-01-12 19:29:10.94	330.87	11.48	-38.8	-39.9	21.9	0.00e+00	0	29	0	839909376	50	6329
2026-01-12 19:29:11.95	330.70	11.44	-39.0	-40.1	21.8	0.00e+00	0	29	0	842006528	50	6506
2026-01-12 19:29:12.96	330.54	11.39	-39.1	-40.3	21.5	0.00e+00	0	29	0	844103680	50	6633
2026-01-12 19:29:13.96	330.37	11.35	-39.0	-40.1	21.7	0.00e+00	0	29	0	845152256	50	6489
2026-01-12 19:29:14.97	330.20	11.31	-39.2	-40.3	21.5	0.00e+00	0	29	0	847249408	50	6641
2026-01-12 19:29:15.98	330.03	11.27	-39.0	-40.1	21.8	0.00e+00	0	29	0	849346560	50	6507
2026-01-12 19:29:16.99	329.87	11.22	-39.2	-40.3	21.5	0.00e+00	0	29	0	851443712	50	6683
2026-01-12 19:29:18.00	329.70	11.18	-39.2	-40.3	21.5	0.00e+00	0	29	0	853540864	50	6691
2026-01-12 19:29:19.01	329.54	11.14	-39.4	-40.5	21.3	0.00e+00	0	29	0	854589440	50	6816
2026-01-12 19:29:20.02	329.37	11.09	-39.4	-40.6	21.3	0.00e+00	0	29	0	856686592	50	6892
2026-01-12 19:29:21.03	329.21	11.05	-39.5	-40.7	21.2	0.00e+00	0	29	0	858783744	50	6953
2026-01-12 19:29:22.04	329.04	11.01	-39.6	-40.8	21.1	0.00e+00	0	29	0	860880896	50	7046
2026-01-12 19:29:23.05	328.88	10.96	-39.6	-40.8	21.0	0.00e+00	0	29	0	862978048	50	7072
2026-01-12 19:29:24.05	328.72	10.92	-39.7	-40.9	20.9	0.00e+00	0	29	0	864026624	52	6383
2026-01-12 19:29:25.06	328.55	10.88	-39.8	-41.0	20.9	0.00e+00	0	29	0	866123776	52	6403
2026-01-12 19:29:26.07	328.39	10.83	-39.8	-41.0	20.9	0.00e+00	0	29	0	868220928	52	6421
2026-01-12 19:29:27.08	328.23	10.79	-39.8	-41.1	20.8	0.00e+00	0	29	0	870318080	52	6475
2026-01-12 19:29:28.09	328.07	10.74	-39.9	-41.1	20.8	0.00e+00	0	29	0	872415232	52	6507
2026-01-12 19:29:29.10	327.91	10.70	-39.8	-41.1	20.8	0.00e+00	0	29	0	873463808	52	6494
2026-01-12 19:29:30.11	327.75	10.65	-39.9	-41.2	20.8	0.00e+00	0	29	0	875560960	52	6552
2026-01-12 19:29:31.12	327.59	10.61	-39.8	-41.1	20.9	0.00e+00	0	29	0	877658112	52	6471
2026-01-12 19:29:32.13	327.43	10.56	-39.9	-41.1	20.8	0.00e+00	0	29	0	879755264	52	6532
2026-01-12 19:29:33.14	327.27	10.52	-40.0	-41.2	20.7	0.00e+00	0	29	0	881852416	52	6590
2026-01-12 19:29:34.15	327.11	10.47	-40.1	-41.4	20.5	0.00e+00	0	29	0	883949568	52	6693
2026-01-12 19:29:35.16	326.96	10.43	-40.2	-41.5	20.4	0.00e+00	0	29	0	884998144	52	6829
2026-01-12 19:29:36.17	326.80	10.38	-40.4	-41.8	20.1	0.00e+00	0	29	0	887095296	52	7032
2026-01-12 19:29:37.17	326.64	10.34	-40.6	-42.0	19.9	0.00e+00	0	29	0	889192448	52	7186
2026-01-12 19:29:38.19	326.49	10.29	-40.6	-42.0	20.0	0.00e+00	0	29	0	891289600	52	7203
2026-01-12 19:29:39.20	326.33	10.24	-40.6	-42.0	20.0	0.00e+00	0	29	0	893386752	52	7232
2026-01-12 19:29:40.21	326.17	10.20	-40.6	-41.9	20.0	0.00e+00	0	29	0	894435328	52	7156
2026-01-12 19:29:41.21	326.02	10.15	-40.5	-41.9	20.1	0.00e+00	0	29	0	896532480	52	7107
2026-01-12 19:29:42.22	325.87	10.11	-40.7	-42.1	19.9	0.00e+00	0	29	0	898629632	54	6480
2026-01-12 19:29:43.23	325.71	10.06	-40.5	-41.9	20.1	0.00e+00	0	29	0	900726784	54	6345
2026-01-12 19:29:44.24	325.56	10.01	-40.5	-41.8	20.1	0.00e+00	0	29	0	902823936	54	6289
2026-01-12 19:29:45.25	325.41	9.97	-40.5	-41.9	20.0	0.00e+00	0	29	0	903872512	54	6347
2026-01-12 19:29:46.26	325.26	9.92	-40.6	-42.0	20.0	0.00e+00	0	29	0	905969664	54	6392
2026-01-12 19:29:47.27	325.10	9.87	-40.7	-42.1	19.9	0.00e+00	0	29	0	908066816	54	6469
2026-01-12 19:29:48.28	324.95	9.83	-40.8	-42.2	19.8	0.00e+00	0	29	0	910163968	54	6563
2026-01-12 19:29:49.29	324.80	9.78	-40.8	-42.3	19.6	0.00e+00	0	29	0	912261120	54	6623
2026-01-12 19:29:50.30	324.65	9.73	-40.9	-42.3	19.6	0.00e+00	0	29	0	913309696	54	6682
2026-01-12 19:29:51.31	324.50	9.68	-40.9	-42.3	19.5	0.00e+00	0	29	0	915406848	54	6684
2026-01-12 19:29:52.32	324.35	9.64	-41.1	-42.6	19.4	0.00e+00	0	29	0	917504000	54	6860
2026-01-12 19:29:53.33	324.20	9.59	-41.0	-42.5	19.4	0.00e+00	0	29	0	919601152	54	6799
2026-01-12 19:29:54.34	324.06	9.54	-40.9	-42.3	19.6	0.00e+00	0	29	0	921698304	54	6667
2026-01-12 19:29:55.34	323.91	9.50	-40.9	-42.3	19.6	0.00e+00	0	29	0	922746880	54	6665
2026-01-12 19:29:56.35	323.76	9.45	-40.8	-42.3	19.6	0.00e+00	0	29	0	924844032	54	6625
2026-01-12 19:29:57.36	323.62	9.40	-40.9	-42.3	19.6	0.00e+00	0	29	0	926941184	54	6657
2026-01-12 19:29:58.37	323.47	9.35	-40.8	-42.2	19.6	0.00e+00	0	29	0	929038336	54	6601
2026-01-12 19:29:59.38	323.32	9.30	-40.8	-42.2	19.7	0.00e+00	0	29	0	931135488	54	6597
2026-01-12 19:30:00.39	323.18	9.26	-40.7	-42.1	19.8	0.00e+00	0	29	0	932184064	54	6513
2026-01-12 19:30:01.40	323.03	9.21	-40.8	-42.2	19.7	0.00e+00	0	29	0	934281216	54	6577
2026-01-12 19:30:02.41	322.89	9.16	-40.8	-42.2	19.6	0.00e+00	0	29	0	936378368	54	6613
2026-01-12 19:30:03.42	322.75	9.11	-40.8	-42.3	19.7	0.00e+00	0	29	0	938475520	54	6642
2026-01-12 19:30:04.43	322.60	9.06	-40.9	-42.3	19.5	0.00e+00	0	29	0	940572672	54	6665
2026-01-12 19:30:05.44	322.46	9.01	-40.9	-42.3	19.5	0.00e+00	0	29	0	941621248	54	6685
2026-01-12 19:30:06.45	322.32	8.97	-40.8	-42.3	19.7	0.00e+00	0	29	0	943718400	54	6620
2026-01-12 19:30:07.45	322.18	8.92	-40.8	-42.2	19.7	0.00e+00	0	29	0	945815552	54	6569
2026-01-12 19:30:08.46	322.03	8.87	-40.7	-42.2	19.7	0.00e+00	0	29	0	947912704	54	6558
2026-01-12 19:30:09.47	321.89	8.82	-40.7	-42.1	19.7	0.00e+00	0	29	0	950009856	54	6537
2026-01-12 19:30:10.48	321.75	8.77	-40.6	-42.1	19.9	0.00e+00	0	29	0	952107008	54	6469
2026-01-12 19:30:11.49	321.61	8.72	-40.4	-41.8	20.1	0.00e+00	0	29	0	953155584	54	6250
2026-01-12 19:30:12.50	321.47	8.67	-40.4	-41.8	20.1	0.00e+00	0	29	0	955252736	54	6273
2026-01-12 19:30:13.51	321.33	8.62	-40.5	-41.9	20.0	0.00e+00	0	29	0	957349888	54	6367
2026-01-12 19:30:14.52	321.20	8.58	-40.4	-41.7	20.1	0.00e+00	0	29	0	959447040	54	6237
2026-01-12 19:30:15.53	321.06	8.53	-40.4	-41.8	20.1	0.00e+00	0	29	0	961544192	54	6269
2026-01-12 19:30:16.53	320.92	8.48	-40.3	-41.7	20.1	0.00e+00	0	29	0	962592768	54	6207
2026-01-12 19:30:17.54	320.78	8.43	-40.4	-41.8	20.0	0.00e+00	0	29	0	964689920	54	6287
2026-01-12 19:30:18.55	320.65	8.38	-40.5	-41.8	20.0	0.00e+00	0	29	0	966787072	54	6300
2026-01-12 19:30:19.56	320.51	8.33	-40.3	-41.7	20.1	0.00e+00	0	29	0	968884224	54	6176
2026-01-12 19:30:20.57	320.38	8.28	-40.2	-41.6	20.3	0.00e+00	0	29	0	970981376	54	6112
2026-01-12 19:30:21.58	320.24	8.23	-40.3	-41.6	20.2	0.00e+00	0	29	0	972029952	54	6136
2026-01-12 19:30:22.59	320.11	8.18	-40.3	-41.6	20.2	0.00e+00	0	29	0	974127104	54	6150
2026-01-12 19:30:23.60	319.97	8.13	-40.4	-41.7	20.0	0.00e+00	0	29	0	976224256	54	6242
2026-01-12 19:30:24.61	319.84	8.08	-40.4	-41.7	20.2	0.00e+00	0	29	0	978321408	54	6214
2026-01-12 19:30:25.62	319.70	8.03	-40.1	-41.4	20.4	0.00e+00	0	29	0	980418560	54	6005
2026-01-12 19:30:26.63	319.57	7.98	-40.0	-41.2	20.6	0.00e+00	0	29	0	981467136	54	5874
2026-01-12 19:30:27.64	319.44	7.93	-39.8	-41.1	20.7	0.00e+00	0	29	0	983564288	54	5790
2026-01-12 19:30:28.64	319.31	7.88	-39.8	-41.1	20.7	0.00e+00	0	29	0	985661440	54	5784
2026-01-12 19:30:29.65	319.18	7.83	-39.8	-41.0	20.8	0.00e+00	0	29	0	987758592	54	5744
2026-01-12 19:30:30.66	319.05	7.78	-39.8	-41.0	20.8	0.00e+00	0	29	0	989855744	52	6444
2026-01-12 19:30:31.67	318.92	7.73	-39.6	-40.8	21.0	0.00e+00	0	29	0	990904320	52	6300
2026-01-12 19:30:32.68	318.79	7.68	-39.7	-40.9	20.9	0.00e+00	0	29	0	993001472	52	6344
2026-01-12 19:30:33.69	318.66	7.63	-39.7	-40.9	20.9	0.00e+00	0	29	0	995098624	52	6370
2026-01-12 19:30:34.70	318.53	7.58	-39.6	-40.8	21.0	0.00e+00	0	29	0	997195776	52	6253
2026-01-12 19:30:35.71	318.40	7.53	-39.3	-40.5	21.3	0.00e+00	0	29	0	999292928	52	6058
2026-01-12 19:30:36.72	318.27	7.48	-39.4	-40.6	21.1	0.00e+00	0	29	0	1000341504	52	6158
2026-01-12 19:30:37.73	318.14	7.43	-39.4	-40.6	21.1	0.00e+00	0	29	0	1002438656	52	6135
2026-01-12 19:30:38.74	318.01	7.38	-39.3	-40.5	21.3	0.00e+00	0	29	0	1004535808	52	6035
2026-01-12 19:30:39.75	317.89	7.33	-39.4	-40.6	21.1	0.00e+00	0	29	0	1006632960	52	6130
2026-01-12 19:30:40.75	317.76	7.28	-39.2	-40.3	21.4	0.00e+00	0	29	0	1008730112	52	5955
2026-01-12 19:30:41.76	317.64	7.23	-39.3	-40.4	21.3	0.00e+00	0	29	0	1009778688	52	6032
2026-01-12 19:30:42.77	317.51	7.18	-39.1	-40.3	21.4	0.00e+00	0	29	0	1011875840	52	5916
2026-01-12 19:30:43.79	317.38	7.13	-39.1	-40.2	21.5	0.00e+00	0	29	0	1013972992	52	5884
2026-01-12 19:30:44.79	317.26	7.08	-39.1	-40.3	21.4	0.00e+00	0	29	0	1016070144	52	5929
2026-01-12 19:30:45.81	317.13	7.03	-39.0	-40.2	21.5	0.00e+00	0	29	0	1018167296	52	5833
2026-01-12 19:30:46.82	317.01	6.98	-39.0	-40.1	21.5	0.00e+00	0	29	0	1019215872	52	5786
2026-01-12 19:30:47.83	316.89	6.93	-39.0	-40.1	21.6	0.00e+00	0	29	0	1021313024	52	5783
2026-01-12 19:30:48.84	316.76	6.88	-39.0	-40.1	21.5	0.00e+00	0	29	0	1023410176	52	5792
2026-01-12 19:30:49.85	316.64	6.83	-38.8	-39.9	21.7	0.00e+00	0	29	0	1025507328	52	5657
2026-01-12 19:30:50.85	316.52	6.78	-38.8	-39.9	21.5	0.00e+00	0	29	0	1027604480	52	5695
2026-01-12 19:30:51.87	316.40	6.72	-38.7	-39.8	21.7	0.00e+00	0	29	0	1028653056	50	6286
2026-01-12 19:30:52.87	316.28	6.67	-38.7	-39.8	21.8	0.00e+00	0	29	0	1030750208	50	6294
2026-01-12 19:30:53.88	316.16	6.62	-38.8	-39.9	21.7	0.00e+00	0	29	0	1032847360	50	6338
2026-01-12 19:30:54.89	316.04	6.57	-38.6	-39.6	21.9	0.00e+00	0	29	0	1034944512	50	6170
2026-01-12 19:30:55.90	315.92	6.52	-38.6	-39.7	21.6	0.00e+00	0	29	0	1037041664	50	6225
2026-01-12 19:30:56.91	315.80	6.47	-38.6	-39.7	21.8	0.00e+00	0	29	0	1038090240	50	6202
2026-01-12 19:30:57.92	315.68	6.42	-38.7	-39.8	21.8	0.00e+00	0	29	0	1040187392	50	6289
2026-01-12 19:30:58.93	315.56	6.37	-38.7	-39.8	21.6	0.00e+00	0	29	0	1042284544	50	6284
2026-01-12 19:30:59.94	315.44	6.32	-38.8	-39.9	21.7	0.00e+00	0	29	0	1044381696	50	6330
2026-01-12 19:31:00.95	315.32	6.27	-38.9	-40.0	21.6	0.00e+00	0	29	0	1046478848	50	6423
2026-01-12 19:31:01.96	315.21	6.22	-39.0	-40.2	21.4	0.00e+00	0	29	0	1048576000	50	6575
2026-01-12 19:31:02.97	315.09	6.17	-39.0	-40.1	21.5	0.00e+00	0	29	0	1049624576	50	6500
2026-01-12 19:31:03.98	314.97	6.12	-38.8	-39.9	21.6	0.00e+00	0	29	0	1051721728	50	6363
2026-01-12 19:31:04.99	314.86	6.06	-38.8	-40.0	21.6	0.00e+00	0	29	0	1053818880	50	6400
2026-01-12 19:31:05.99	314.74	6.01	-39.0	-40.2	21.4	0.00e+00	0	29	0	1055916032	50	6555
2026-01-12 19:31:07.00	314.63	5.96	-38.9	-40.0	21.5	0.00e+00	0	29	0	1058013184	50	6441
2026-01-12 19:31:08.01	314.51	5.91	-38.9	-40.1	21.5	0.00e+00	0	29	0	1059061760	50	6487
2026-01-12 19:31:09.02	314.40	5.86	-39.0	-40.2	21.4	0.00e+00	0	29	0	1061158912	50	6553
2026-01-12 19:31:10.03	314.28	5.81	-39.0	-40.1	21.4	0.00e+00	0	29	0	1063256064	50	6499
2026-01-12 19:31:11.03	314.17	5.76	-39.0	-40.1	21.4	0.00e+00	0	29	0	1065353216	50	6506
2026-01-12 19:31:12.04	314.06	5.71	-39.0	-40.1	21.4	0.00e+00	0	29	0	1067450368	50	6499
2026-01-12 19:31:13.05	313.94	5.66	-38.9	-40.0	21.5	0.00e+00	0	29	0	1068498944	50	6441
2026-01-12 19:31:14.06	313.83	5.61	-39.0	-40.1	21.3	0.00e+00	0	29	0	1070596096	50	6536
2026-01-12 19:31:15.07	313.72	5.56	-39.2	-40.4	21.2	0.00e+00	0	29	0	1072693248	50	6705
2026-01-12 19:31:16.08	313.61	5.51	-39.0	-40.2	21.2	0.00e+00	0	29	0	1074790400	50	6563
2026-01-12 19:31:17.09	313.50	5.45	-39.0	-40.2	21.3	0.00e+00	0	29	0	1076887552	50	6551
2026-01-12 19:31:18.10	313.39	5.40	-39.2	-40.4	21.1	0.00e+00	0	30	0	1077936128	50	6695
2026-01-12 19:31:19.11	313.28	5.35	-39.1	-40.3	21.3	0.00e+00	0	29	0	1080033280	50	6651
2026-01-12 19:31:20.12	313.16	5.30	-39.2	-40.4	21.1	0.00e+00	0	30	0	1082130432	50	6719
2026-01-12 19:31:21.13	313.06	5.25	-39.2	-40.4	21.0	0.00e+00	0	29	0	1084227584	50	6734
2026-01-12 19:31:22.14	312.95	5.20	-39.3	-40.5	21.0	0.00e+00	0	29	0	1086324736	50	6791
2026-01-12 19:31:23.15	312.84	5.15	-39.5	-40.7	20.8	0.00e+00	0	29	0	1087373312	50	6971
2026-01-12 19:31:24.16	312.73	5.10	-39.3	-40.6	20.9	0.00e+00	0	29	0	1089470464	50	6856
2026-01-12 19:31:25.17	312.62	5.05	-39.6	-40.9	20.6	0.00e+00	0	29	0	1091567616	50	7117
2026-01-12 19:31:26.18	312.51	5.00	-39.5	-40.7	20.8	0.00e+00	0	29	0	1093664768	52	6222
2026-01-12 19:31:27.19	312.41	4.94	-39.4	-40.6	20.9	0.00e+00	0	29	0	1095761920	52	6125
2026-01-12 19:31:28.20	312.30	4.89	-39.7	-41.0	20.5	0.00e+00	0	29	0	1096810496	52	6399
2026-01-12 19:31:29.21	312.19	4.84	-39.5	-40.7	20.8	0.00e+00	0	30	0	1098907648	52	6218
2026-01-12 19:31:30.22	312.09	4.79	-39.3	-40.6	20.9	0.00e+00	0	30	0	1101004800	52	6112
2026-01-12 19:31:31.23	311.98	4.74	-39.3	-40.6	20.8	0.00e+00	0	29	0	1103101952	52	6105
2026-01-12 19:31:32.23	311.88	4.69	-39.5	-40.7	20.7	0.00e+00	0	30	0	1105199104	52	6215
2026-01-12 19:31:33.24	311.77	4.64	-39.4	-40.6	20.8	0.00e+00	0	30	0	1106247680	52	6128
2026-01-12 19:31:34.25	311.67	4.59	-39.4	-40.6	20.8	0.00e+00	0	29	0	1108344832	52	6124
2026-01-12 19:31:35.26	311.56	4.54	-39.5	-40.7	20.7	0.00e+00	0	30	0	1110441984	52	6239
2026-01-12 19:31:36.27	311.46	4.49	-39.8	-41.1	20.3	0.00e+00	0	30	0	1112539136	52	6486
2026-01-12 19:31:37.28	311.35	4.44	-39.4	-40.6	20.8	0.00e+00	0	30	0	1114636288	52	6164
2026-01-12 19:31:38.29	311.25	4.38	-39.7	-40.9	20.4	0.00e+00	0	29	0	1116733440	52	6389
2026-01-12 19:31:39.30	311.15	4.33	-39.7	-41.0	20.3	0.00e+00	0	30	0	1117782016	52	6445
2026-01-12 19:31:40.31	311.05	4.28	-39.7	-41.0	20.4	0.00e+00	0	30	0	1119879168	52	6428
2026-01-12 19:31:41.32	310.94	4.23	-39.8	-41.2	20.2	0.00e+00	0	30	0	1121976320	52	6552
2026-01-12 19:31:42.33	310.84	4.18	-39.7	-41.0	20.3	0.00e+00	0	30	0	1124073472	52	6452
2026-01-12 19:31:43.34	310.74	4.13	-40.0	-41.3	20.0	0.00e+00	0	30	0	1126170624	52	6668
2026-01-12 19:31:44.35	310.64	4.08	-40.1	-41.5	19.9	0.00e+00	0	30	0	1127219200	52	6819
2026-01-12 19:31:45.36	310.54	4.03	-40.2	-41.6	19.8	0.00e+00	0	30	0	1129316352	52	6868
2026-01-12 19:31:46.37	310.44	3.98	-40.2	-41.6	19.8	0.00e+00	0	30	0	1131413504	52	6861
2026-01-12 19:31:47.38	310.34	3.93	-40.4	-41.8	19.5	0.00e+00	0	30	0	1133510656	52	7073
2026-01-12 19:31:48.39	310.24	3.88	-40.4	-41.8	19.5	0.00e+00	0	30	0	1135607808	52	7064
2026-01-12 19:31:49.39	310.14	3.83	-40.6	-42.1	19.3	0.00e+00	0	30	0	1136656384	52	7332
2026-01-12 19:31:50.40	310.04	3.78	-40.5	-41.9	19.4	0.00e+00	0	30	0	1138753536	52	7160
2026-01-12 19:31:51.41	309.94	3.72	-40.4	-41.9	19.4	0.00e+00	0	30	0	1140850688	52	7091
2026-01-12 19:31:52.42	309.85	3.67	-40.3	-41.8	19.5	0.00e+00	0	30	0	1142947840	52	7022
2026-01-12 19:31:53.43	309.75	3.62	-40.4	-41.9	19.4	0.00e+00	0	30	0	1145044992	52	7138
2026-01-12 19:31:54.44	309.65	3.57	-40.5	-42.0	19.3	0.00e+00	0	30	0	1146093568	52	7228
2026-01-12 19:31:55.45	309.55	3.52	-40.4	-41.9	19.3	0.00e+00	0	30	0	1148190720	52	7121
2026-01-12 19:31:56.46	309.46	3.47	-40.3	-41.8	19.5	0.00e+00	0	30	0	1150287872	52	7034
2026-01-12 19:31:57.47	309.36	3.42	-40.5	-42.1	19.1	0.00e+00	0	30	0	1152385024	52	7271
2026-01-12 19:31:58.48	309.26	3.37	-40.6	-42.2	19.0	0.00e+00	0	30	0	1154482176	54	6551
2026-01-12 19:31:59.49	309.17	3.32	-40.5	-42.1	19.1	0.00e+00	0	30	0	1155530752	54	6474
2026-01-12 19:32:00.50	309.07	3.27	-40.5	-42.0	19.1	0.00e+00	0	29	0	1157627904	54	6428
2026-01-12 19:32:01.51	308.98	3.22	-40.7	-42.3	18.9	0.00e+00	0	29	0	1159725056	54	6631
2026-01-12 19:32:02.52	308.88	3.17	-41.0	-42.7	18.5	0.00e+00	0	30	0	1161822208	54	6980
2026-01-12 19:32:03.53	308.79	3.12	-41.0	-42.7	18.5	0.00e+00	0	30	0	1163919360	54	6986
2026-01-12 19:32:04.53	308.70	3.07	-40.8	-42.4	18.9	0.00e+00	0	30	0	1164967936	54	6719
2026-01-12 19:32:05.54	308.60	3.02	-47.2	-61.0	3.6	0.00e+00	0	30	104	1167065088	60	40785
2026-01-12 19:32:06.56	308.51	2.97	-47.9	-63.0	3.6	1.51e+00	0	30	104	1167065088	60	50893
2026-01-12 19:32:07.56	308.42	2.92	-48.2	-63.4	3.6	1.51e+00	0	30	104	1167065088	60	53559
2026-01-12 19:32:08.57	308.32	2.86	-48.4	-63.5	3.6	1.51e+00	0	30	104	1167065088	60	54331
2026-01-12 19:32:09.58	308.23	2.81	-48.5	-63.6	3.6	1.51e+00	0	30	104	1167065088	60	54652
2026-01-12 19:32:10.59	308.14	2.76	-48.5	-63.7	3.6	1.51e+00	0	30	104	1167065088	60	55495
2026-01-12 19:32:11.60	308.05	2.71	-48.6	-63.8	3.6	1.51e+00	0	30	104	1167065088	60	55726
2026-01-12 19:32:12.61	307.96	2.66	-48.6	-63.8	3.6	1.51e+00	0	30	104	1167065088	60	55817
2026-01-12 19:32:13.62	307.86	2.61	-48.5	-63.7	3.6	1.51e+00	0	30	104	1167065088	60	55534
2026-01-12 19:32:14.63	307.77	2.56	-48.4	-63.8	3.6	1.51e+00	0	30	104	1167065088	60	55758
2026-01-12 19:32:15.64	307.68	2.51	-47.9	-63.7	3.6	1.51e+00	0	30	104	1167065088	60	55233
2026-01-12 19:32:16.65	307.59	2.46	-48.1	-63.6	3.6	1.51e+00	0	30	104	1167065088	60	54818
2026-01-12 19:32:17.66	307.50	2.41	-48.3	-63.6	3.6	1.51e+00	0	30	104	1167065088	60	54977
2026-01-12 19:32:18.67	307.41	2.36	-48.2	-63.6	3.6	1.51e+00	0	30	104	1167065088	60	54806
2026-01-12 19:32:19.68	307.32	2.31	-48.3	-63.5	3.6	1.51e+00	0	30	104	1167065088	60	54369
2026-01-12 19:32:20.69	307.24	2.26	-48.4	-63.6	3.6	1.51e+00	0	30	104	1167065088	60	54469
2026-01-12 19:32:21.69	307.15	2.21	-48.5	-63.6	3.6	1.51e+00	0	30	104	1167065088	60	54994
