passes_logs/2025/01/13/LEX_Murmansk/LEX_Murmansk__20250113_181150_NOAA_18_rec.log

#Pass ID: 20250113_181150_NOAA 18
#Satellite: NOAA 18
#Configuration: NOAA 18
#Start time: 2025-01-13 18:11:45.495792

#LorettStation: 1.0.0 05.05.2024
#Station: LEX_Murmansk
#Location: 33.156738 lon 68.926811 lat
#TLE: 1 28654U 05018A   25013.18075893  .00000305  00000+0  18557-3 0  9997
#TLE: 2 28654  98.8571  94.2532 0014276 184.2703 175.8350 14.13484936 12921

#Time	Az	El	Level	SNR
2025-01-13 18:11:57.679117	131.4	16.3	-90.8	8.3
2025-01-13 18:11:58.844651	131.4	16.4	-91.5	6.8
2025-01-13 18:12:00.008779	131.4	16.5	-91.4	5.9
2025-01-13 18:12:01.154919	131.3	16.7	-90.7	5.1
2025-01-13 18:12:02.310089	131.3	16.8	-91.0	8.3
2025-01-13 18:12:03.469283	131.2	16.9	-91.1	8.4
2025-01-13 18:12:04.625390	131.2	17.1	-91.1	9.7
2025-01-13 18:12:05.790310	131.1	17.2	-91.3	8.9
2025-01-13 18:12:06.942444	131.1	17.3	-91.1	8.4
2025-01-13 18:12:08.106279	131.0	17.4	-90.9	9.8
2025-01-13 18:12:09.269573	131.0	17.6	-90.8	9.9
2025-01-13 18:12:10.429267	130.9	17.7	-90.6	7.1
2025-01-13 18:12:11.587669	130.9	17.8	-90.9	9.8
2025-01-13 18:12:12.754968	130.8	18.0	-91.4	10.6
2025-01-13 18:12:13.913262	130.7	18.1	-91.4	10.4
2025-01-13 18:12:15.079709	130.7	18.3	-90.9	8.2
2025-01-13 18:12:16.234121	130.6	18.4	-90.5	10.5
2025-01-13 18:12:17.384693	130.6	18.5	-91.0	5.6
2025-01-13 18:12:18.545504	130.5	18.7	-91.2	6.2
2025-01-13 18:12:19.705107	130.5	18.8	-91.1	10.9
2025-01-13 18:12:20.864630	130.4	18.9	-91.0	11.3
2025-01-13 18:12:22.026938	130.4	19.1	-91.1	13.7
2025-01-13 18:12:23.185813	130.3	19.2	-91.2	13.2
2025-01-13 18:12:24.347886	130.2	19.4	-91.1	8.0
2025-01-13 18:12:25.513289	130.2	19.5	-91.2	12.7
2025-01-13 18:12:26.666674	130.1	19.6	-91.1	15.5
2025-01-13 18:12:27.831030	130.1	19.8	-91.0	15.5
2025-01-13 18:12:28.990953	130.0	19.9	-91.0	13.5
2025-01-13 18:12:30.154872	129.9	20.1	-90.8	11.2
2025-01-13 18:12:31.322157	129.9	20.2	-90.8	11.7
2025-01-13 18:12:32.484020	129.8	20.4	-91.2	4.9
2025-01-13 18:12:33.646832	129.8	20.5	-90.8	12.1
2025-01-13 18:12:34.806437	129.7	20.7	-90.8	14.7
2025-01-13 18:12:35.963046	129.6	20.8	-91.0	10.0
2025-01-13 18:12:37.124887	129.6	21.0	-90.8	13.1
2025-01-13 18:12:38.288095	129.5	21.1	-90.9	16.0
2025-01-13 18:12:39.451395	129.4	21.3	-91.1	14.9
2025-01-13 18:12:40.611505	129.4	21.4	-90.5	14.2
2025-01-13 18:12:41.766754	129.3	21.6	-91.0	16.8
2025-01-13 18:12:42.930156	129.2	21.7	-91.3	11.3
2025-01-13 18:12:44.090727	129.2	21.9	-90.3	12.0
2025-01-13 18:12:45.247781	129.1	22.0	-90.0	10.6
2025-01-13 18:12:46.410975	129.0	22.2	-90.2	14.9
2025-01-13 18:12:47.568103	128.9	22.4	-91.0	8.9
2025-01-13 18:12:48.728128	128.9	22.5	-90.8	11.6
2025-01-13 18:12:49.889690	128.8	22.7	-91.1	4.0
2025-01-13 18:12:51.048408	128.7	22.8	-90.3	8.0
2025-01-13 18:12:52.216383	128.7	23.0	-91.1	11.8
2025-01-13 18:12:53.373468	128.6	23.2	-90.9	16.2
2025-01-13 18:12:54.533243	128.5	23.3	-91.4	15.8
2025-01-13 18:12:55.698196	128.4	23.5	-91.1	15.2
2025-01-13 18:12:56.862561	128.3	23.7	-91.0	11.0
2025-01-13 18:12:58.016753	128.3	23.8	-91.2	10.8
2025-01-13 18:12:59.179122	128.2	24.0	-91.2	15.9
2025-01-13 18:13:00.330328	128.1	24.2	-90.9	16.2
2025-01-13 18:13:01.482164	128.0	24.3	-91.3	14.0
2025-01-13 18:13:02.640847	127.9	24.5	-91.9	14.1
2025-01-13 18:13:03.801291	127.9	24.7	-91.3	13.1
2025-01-13 18:13:04.965852	127.8	24.9	-91.3	8.3
2025-01-13 18:13:06.137010	127.7	25.0	-91.1	13.6
2025-01-13 18:13:07.299538	127.6	25.2	-91.2	14.9
2025-01-13 18:13:08.476020	127.5	25.4	-91.4	10.1
2025-01-13 18:13:09.631883	127.4	25.6	-91.5	14.6
2025-01-13 18:13:10.788473	127.3	25.7	-91.1	14.5
2025-01-13 18:13:11.949884	127.2	25.9	-91.2	15.3
2025-01-13 18:13:13.110685	127.2	26.1	-91.1	15.2
2025-01-13 18:13:14.277885	127.1	26.3	-91.4	14.0
2025-01-13 18:13:15.440026	127.0	26.5	-91.6	11.3
2025-01-13 18:13:16.603548	126.9	26.6	-91.8	7.2
2025-01-13 18:13:17.765256	126.8	26.8	-91.5	5.7
2025-01-13 18:13:18.923098	126.7	27.0	-91.8	8.5
2025-01-13 18:13:20.086488	126.6	27.2	-91.4	7.1
2025-01-13 18:13:21.242206	126.5	27.4	-91.2	6.7
2025-01-13 18:13:22.404238	126.4	27.6	-91.7	5.2
2025-01-13 18:13:23.571002	126.3	27.8	-91.4	5.6
2025-01-13 18:13:24.738136	126.2	28.0	-91.2	4.0
2025-01-13 18:13:25.901637	126.1	28.2	-91.3	3.2
2025-01-13 18:13:27.066649	126.0	28.4	-91.2	4.4
2025-01-13 18:13:28.223259	125.9	28.6	-91.3	5.1
2025-01-13 18:13:29.404146	125.8	28.8	-91.4	4.1
2025-01-13 18:13:30.568633	125.6	29.0	-91.5	5.5
2025-01-13 18:13:31.722543	125.5	29.2	-91.5	8.0
2025-01-13 18:13:32.889805	125.4	29.4	-91.5	6.4
2025-01-13 18:13:34.051196	125.3	29.6	-91.0	5.8
2025-01-13 18:13:35.211390	125.2	29.8	-91.0	5.1
2025-01-13 18:13:36.370611	125.1	30.0	-91.0	3.8
2025-01-13 18:13:37.533275	125.0	30.2	-91.0	3.5
2025-01-13 18:13:38.695854	124.8	30.4	-91.1	2.9
2025-01-13 18:13:39.859170	124.7	30.6	-91.1	6.0
2025-01-13 18:13:41.011246	124.6	30.8	-91.5	5.1
2025-01-13 18:13:42.170329	124.5	31.0	-91.1	5.9
2025-01-13 18:13:43.338733	124.3	31.2	-91.2	9.3
2025-01-13 18:13:44.496923	124.2	31.4	-91.5	10.0
2025-01-13 18:13:45.656984	124.1	31.7	-91.7	13.0
2025-01-13 18:13:46.819672	123.9	31.9	-91.8	15.5
2025-01-13 18:13:47.981504	123.8	32.1	-91.4	14.5
2025-01-13 18:13:49.144792	123.7	32.3	-91.1	18.2
2025-01-13 18:13:50.308105	123.5	32.5	-91.4	16.8
2025-01-13 18:13:51.471099	123.4	32.8	-91.5	14.8
2025-01-13 18:13:52.633097	123.3	33.0	-91.4	15.3
2025-01-13 18:13:53.793312	123.1	33.2	-91.3	15.3
2025-01-13 18:13:54.957931	123.0	33.4	-91.2	13.0
2025-01-13 18:13:56.121853	122.8	33.7	-91.5	14.0
2025-01-13 18:13:57.277239	122.7	33.9	-91.2	13.8
2025-01-13 18:13:58.433805	122.5	34.1	-91.2	6.5
2025-01-13 18:13:59.599440	122.4	34.4	-91.5	11.5
2025-01-13 18:14:00.746147	122.2	34.6	-91.6	14.9
2025-01-13 18:14:01.899747	122.0	34.8	-91.8	12.7
2025-01-13 18:14:03.064364	121.9	35.1	-91.4	13.6
2025-01-13 18:14:04.225248	121.7	35.3	-91.6	15.2
2025-01-13 18:14:05.394351	121.6	35.5	-91.8	11.4
2025-01-13 18:14:06.554215	121.4	35.8	-91.3	12.1
2025-01-13 18:14:07.713980	121.2	36.0	-91.4	18.2
2025-01-13 18:14:08.876521	121.0	36.3	-91.2	12.5
2025-01-13 18:14:10.035527	120.9	36.5	-91.3	14.0
2025-01-13 18:14:11.193992	120.7	36.8	-91.3	14.7
2025-01-13 18:14:12.357082	120.5	37.0	-91.5	14.2
2025-01-13 18:14:13.515136	120.3	37.3	-91.4	13.5
2025-01-13 18:14:14.679459	120.1	37.5	-91.7	14.8
2025-01-13 18:14:15.843112	119.9	37.8	-91.5	9.9
2025-01-13 18:14:17.007365	119.7	38.0	-91.5	6.8
2025-01-13 18:14:18.170512	119.5	38.3	-91.6	10.9
2025-01-13 18:14:19.333859	119.3	38.6	-91.4	5.3
2025-01-13 18:14:20.498560	119.1	38.8	-91.6	7.2
2025-01-13 18:14:21.662973	118.9	39.1	-91.7	11.5
2025-01-13 18:14:22.824529	118.7	39.3	-91.6	13.9
2025-01-13 18:14:23.989438	118.5	39.6	-91.2	13.3
2025-01-13 18:14:25.147841	118.3	39.9	-91.3	13.4
2025-01-13 18:14:26.310676	118.1	40.1	-91.4	14.3
2025-01-13 18:14:27.469419	117.8	40.4	-91.7	7.9
2025-01-13 18:14:28.631947	117.6	40.7	-91.4	12.5
2025-01-13 18:14:29.794950	117.4	41.0	-91.4	14.3
2025-01-13 18:14:30.953892	117.2	41.2	-91.4	15.1
2025-01-13 18:14:32.116567	116.9	41.5	-91.2	11.4
2025-01-13 18:14:33.284054	116.7	41.8	-91.0	10.1
2025-01-13 18:14:34.443242	116.4	42.1	-91.2	12.1
2025-01-13 18:14:35.605941	116.2	42.3	-91.1	11.1
2025-01-13 18:14:36.764188	115.9	42.6	-91.3	18.7
2025-01-13 18:14:37.919841	115.6	42.9	-91.4	8.8
2025-01-13 18:14:39.092799	115.4	43.2	-91.5	13.4
2025-01-13 18:14:40.252368	115.1	43.5	-90.6	17.9
2025-01-13 18:14:41.410731	114.8	43.8	-91.3	13.8
2025-01-13 18:14:42.578417	114.5	44.1	-91.5	19.2
2025-01-13 18:14:43.737663	114.3	44.4	-91.6	18.1
2025-01-13 18:14:44.904353	114.0	44.6	-91.7	15.4
2025-01-13 18:14:46.066629	113.7	44.9	-91.5	13.8
2025-01-13 18:14:47.234284	113.4	45.2	-91.0	15.2
2025-01-13 18:14:48.393689	113.0	45.5	-91.2	8.9
2025-01-13 18:14:49.557736	112.7	45.8	-91.3	12.2
2025-01-13 18:14:50.720443	112.4	46.1	-91.2	16.4
2025-01-13 18:14:51.878020	112.1	46.4	-91.3	8.4
2025-01-13 18:14:53.040783	111.7	46.7	-91.2	21.8
2025-01-13 18:14:54.198140	111.4	47.0	-91.3	16.7
2025-01-13 18:14:55.360386	111.1	47.3	-91.2	17.0
2025-01-13 18:14:56.527636	110.7	47.6	-91.4	7.9
2025-01-13 18:14:57.674089	110.3	47.9	-91.5	13.1
2025-01-13 18:14:58.837296	110.0	48.2	-91.8	6.3
2025-01-13 18:15:00.001084	109.6	48.5	-89.2	3.7
2025-01-13 18:15:01.147897	109.2	48.8	-91.1	4.9
2025-01-13 18:15:02.306415	108.8	49.2	-91.1	7.4
2025-01-13 18:15:03.464424	108.4	49.5	-91.4	5.9
2025-01-13 18:15:04.620496	108.0	49.8	-91.7	6.7
2025-01-13 18:15:05.788273	107.6	50.1	-91.5	5.8
2025-01-13 18:15:06.946130	107.2	50.4	-91.7	12.3
2025-01-13 18:15:08.106525	106.7	50.7	-91.5	14.4
2025-01-13 18:15:09.272461	106.3	51.0	-91.6	10.3
2025-01-13 18:15:10.431728	105.8	51.3	-91.4	4.2
2025-01-13 18:15:11.592190	105.4	51.6	-91.5	6.5
2025-01-13 18:15:12.756659	104.9	51.9	-91.4	12.9
2025-01-13 18:15:13.916182	104.4	52.2	-91.6	10.6
2025-01-13 18:15:15.079814	103.9	52.6	-91.6	10.5
2025-01-13 18:15:16.242122	103.4	52.9	-91.3	10.9
2025-01-13 18:15:17.404214	102.9	53.2	-91.2	19.7
2025-01-13 18:15:18.561075	102.4	53.5	-91.6	6.2
2025-01-13 18:15:19.722435	101.9	53.8	-91.5	8.7
2025-01-13 18:15:20.886862	101.3	54.1	-91.7	6.3
2025-01-13 18:15:22.050686	100.8	54.4	-91.4	9.2
2025-01-13 18:15:23.214238	100.2	54.7	-91.0	18.4
2025-01-13 18:15:24.373611	99.6	55.0	-91.4	8.5
2025-01-13 18:15:25.533184	99.0	55.3	-91.3	7.5
2025-01-13 18:15:26.692691	98.4	55.6	-91.2	16.4
2025-01-13 18:15:27.851894	97.8	55.9	-91.4	9.6
2025-01-13 18:15:29.015924	97.1	56.2	-91.6	9.9
2025-01-13 18:15:30.181664	96.5	56.5	-91.7	12.5
2025-01-13 18:15:31.337775	95.8	56.8	-90.9	17.4
2025-01-13 18:15:32.493965	95.1	57.1	-91.3	16.4
2025-01-13 18:15:33.661656	94.5	57.4	-91.7	11.5
2025-01-13 18:15:34.822028	93.7	57.7	-91.6	12.4
2025-01-13 18:15:35.988793	93.0	58.0	-91.4	11.2
2025-01-13 18:15:37.150154	92.3	58.2	-91.1	10.7
2025-01-13 18:15:38.308313	91.5	58.5	-91.2	10.1
2025-01-13 18:15:39.472530	90.8	58.8	-91.2	11.5
2025-01-13 18:15:40.632431	90.0	59.1	-91.0	15.5
2025-01-13 18:15:41.793338	89.2	59.3	-91.4	10.1
2025-01-13 18:15:42.956925	88.4	59.6	-90.9	14.2
2025-01-13 18:15:44.118355	87.5	59.8	-91.1	20.1
2025-01-13 18:15:45.280290	86.7	60.1	-91.0	19.5
2025-01-13 18:15:46.437771	85.8	60.3	-91.4	19.2
2025-01-13 18:15:47.602083	84.9	60.6	-90.8	21.8
2025-01-13 18:15:48.761318	84.0	60.8	-91.6	20.4
2025-01-13 18:15:49.922140	83.1	61.1	-91.5	16.1
2025-01-13 18:15:51.084980	82.2	61.3	-91.5	15.4
2025-01-13 18:15:52.247475	81.2	61.5	-91.3	11.5
2025-01-13 18:15:53.409197	80.2	61.7	-91.2	13.4
2025-01-13 18:15:54.567734	79.2	61.9	-91.2	14.5
2025-01-13 18:15:55.724598	78.2	62.1	-91.7	18.4
2025-01-13 18:15:56.881525	77.2	62.3	-91.5	10.0
2025-01-13 18:15:58.017149	76.2	62.5	-91.6	9.7
2025-01-13 18:15:59.137070	75.2	62.7	-91.3	14.3
2025-01-13 18:16:00.259675	74.2	62.8	-91.3	11.5
2025-01-13 18:16:01.379850	73.1	63.0	-91.7	5.1
2025-01-13 18:16:02.500340	72.1	63.1	-91.8	10.4
2025-01-13 18:16:03.621769	71.0	63.3	-91.8	18.7
2025-01-13 18:16:04.743330	69.9	63.4	-91.6	18.0
2025-01-13 18:16:05.867782	68.8	63.5	-91.6	11.0
2025-01-13 18:16:06.989259	67.7	63.7	-91.5	9.8
2025-01-13 18:16:08.142400	66.6	63.8	-91.3	17.0
2025-01-13 18:16:09.294145	65.4	63.9	-91.6	13.4
2025-01-13 18:16:10.455812	64.2	64.0	-91.6	12.3
2025-01-13 18:16:11.623185	63.0	64.1	-90.5	19.0
2025-01-13 18:16:12.778065	61.9	64.1	-90.7	19.0
2025-01-13 18:16:13.935498	60.7	64.2	-90.5	15.1
2025-01-13 18:16:15.098337	59.4	64.2	-90.6	15.0
2025-01-13 18:16:16.258096	58.2	64.3	-91.4	16.8
2025-01-13 18:16:17.418326	57.0	64.3	-91.5	14.7
2025-01-13 18:16:18.580319	55.8	64.3	-91.4	16.9
2025-01-13 18:16:19.744680	54.6	64.3	-91.4	18.8
2025-01-13 18:16:20.904702	53.4	64.4	-91.5	17.8
2025-01-13 18:16:22.054262	52.1	64.3	-91.5	16.7
2025-01-13 18:16:23.217988	50.9	64.3	-91.2	18.8
2025-01-13 18:16:24.377613	49.7	64.3	-91.0	11.5
2025-01-13 18:16:25.534123	48.5	64.3	-91.5	12.2
2025-01-13 18:16:26.696153	47.3	64.2	-91.2	15.6
2025-01-13 18:16:27.856933	46.1	64.1	-91.4	10.6
2025-01-13 18:16:29.017690	44.9	64.1	-91.2	9.4
2025-01-13 18:16:30.174833	43.7	64.0	-91.2	13.5
2025-01-13 18:16:31.341433	42.5	63.9	-90.9	8.1
2025-01-13 18:16:32.502410	41.4	63.8	-90.7	8.7
2025-01-13 18:16:33.664028	40.2	63.7	-90.7	15.3
2025-01-13 18:16:34.822984	39.1	63.6	-91.2	15.1
2025-01-13 18:16:35.981731	37.9	63.4	-91.5	8.5
2025-01-13 18:16:37.146826	36.8	63.3	-91.0	11.9
2025-01-13 18:16:38.300136	35.7	63.2	-91.0	12.2
2025-01-13 18:16:39.457765	34.6	63.0	-91.1	8.6
2025-01-13 18:16:40.622129	33.5	62.8	-91.2	13.1
2025-01-13 18:16:41.785390	32.4	62.7	-91.8	18.4
2025-01-13 18:16:42.949754	31.4	62.5	-91.7	12.0
2025-01-13 18:16:44.117294	30.4	62.3	-91.6	17.1
2025-01-13 18:16:45.277529	29.3	62.1	-91.4	18.3
2025-01-13 18:16:46.435372	28.3	61.9	-91.2	13.6
2025-01-13 18:16:47.595353	27.4	61.7	-91.2	17.2
2025-01-13 18:16:48.749812	26.4	61.5	-91.4	18.7
2025-01-13 18:16:49.907692	25.4	61.3	-91.2	13.5
2025-01-13 18:16:51.068160	24.5	61.0	-91.2	13.6
2025-01-13 18:16:52.231324	23.6	60.8	-91.5	19.0
2025-01-13 18:16:53.391761	22.7	60.6	-91.2	13.5
2025-01-13 18:16:54.553704	21.8	60.3	-91.4	13.1
2025-01-13 18:16:55.717786	20.9	60.1	-91.6	20.4
2025-01-13 18:16:56.881511	20.1	59.8	-91.3	10.8
2025-01-13 18:16:58.038569	19.3	59.6	-91.1	12.7
2025-01-13 18:16:59.196352	18.4	59.3	-90.8	20.7
2025-01-13 18:17:00.344480	17.6	59.0	-91.2	10.9
2025-01-13 18:17:01.498142	16.9	58.8	-91.5	8.2
2025-01-13 18:17:02.658565	16.1	58.5	-91.5	16.9
2025-01-13 18:17:03.822327	15.3	58.2	-91.3	14.1
2025-01-13 18:17:04.983526	14.6	57.9	-91.5	7.6
2025-01-13 18:17:06.144635	13.9	57.6	-91.2	17.6
2025-01-13 18:17:07.300643	13.2	57.4	-91.1	15.9
2025-01-13 18:17:08.455257	12.5	57.1	-91.1	9.4
2025-01-13 18:17:09.611021	11.8	56.8	-91.7	11.2
2025-01-13 18:17:10.770067	11.2	56.5	-91.3	15.4
2025-01-13 18:17:11.933199	10.5	56.2	-91.6	10.9
2025-01-13 18:17:13.092608	9.9	55.9	-91.5	11.0
2025-01-13 18:17:14.251985	9.3	55.6	-91.5	11.2
2025-01-13 18:17:15.414367	8.6	55.3	-91.7	10.5
2025-01-13 18:17:16.569956	8.1	55.0	-91.7	10.2
2025-01-13 18:17:17.730384	7.5	54.7	-91.7	15.6
2025-01-13 18:17:18.885400	6.9	54.4	-91.6	11.2
2025-01-13 18:17:20.046553	6.3	54.1	-91.5	9.3
2025-01-13 18:17:21.206136	5.8	53.8	-91.4	15.0
2025-01-13 18:17:22.369358	5.3	53.5	-91.4	10.6
2025-01-13 18:17:23.527934	4.7	53.2	-91.1	10.8
2025-01-13 18:17:24.689624	4.2	52.8	-91.4	14.5
2025-01-13 18:17:25.851517	3.7	52.5	-91.5	13.7
2025-01-13 18:17:27.012197	3.2	52.2	-91.1	11.2
2025-01-13 18:17:28.174554	2.8	51.9	-90.9	13.2
2025-01-13 18:17:29.336771	2.3	51.6	-91.3	12.4
2025-01-13 18:17:30.500342	1.8	51.3	-90.9	12.2
2025-01-13 18:17:31.655422	1.4	51.0	-90.6	12.6
2025-01-13 18:17:32.815425	0.9	50.7	-91.4	11.9
2025-01-13 18:17:33.980649	0.5	50.4	-91.4	12.3
2025-01-13 18:17:35.140099	0.1	50.1	-91.3	5.1
2025-01-13 18:17:36.300507	359.7	49.8	-90.9	12.8
2025-01-13 18:17:37.465398	359.2	49.4	-91.2	13.0
2025-01-13 18:17:38.616992	358.8	49.1	-91.0	13.0
2025-01-13 18:17:39.783961	358.5	48.8	-91.5	11.6
2025-01-13 18:17:40.941462	358.1	48.5	-91.4	11.3
2025-01-13 18:17:42.105110	357.7	48.2	-91.5	14.9
2025-01-13 18:17:43.268346	357.3	47.9	-90.9	16.7
2025-01-13 18:17:44.429459	357.0	47.6	-90.8	10.8
2025-01-13 18:17:45.593333	356.6	47.3	-90.6	13.3
2025-01-13 18:17:46.749933	356.3	47.0	-90.3	9.3
2025-01-13 18:17:47.908772	355.9	46.7	-91.4	6.9
2025-01-13 18:17:49.080683	355.6	46.4	-90.9	11.6
2025-01-13 18:17:50.243352	355.3	46.1	-90.9	13.6
2025-01-13 18:17:51.403348	354.9	45.8	-90.9	11.5
2025-01-13 18:17:52.563410	354.6	45.5	-90.6	12.9
2025-01-13 18:17:53.722808	354.3	45.2	-91.4	19.5
2025-01-13 18:17:54.882696	354.0	44.9	-91.6	14.6
2025-01-13 18:17:56.044134	353.7	44.6	-91.1	15.5
2025-01-13 18:17:57.205551	353.4	44.3	-90.9	18.3
2025-01-13 18:17:58.374069	353.1	44.0	-91.4	16.1
2025-01-13 18:17:59.523569	352.8	43.8	-91.3	17.8
2025-01-13 18:18:00.669449	352.6	43.5	-90.9	20.7
2025-01-13 18:18:01.825549	352.3	43.2	-91.5	21.0
2025-01-13 18:18:02.988046	352.0	42.9	-91.4	19.3
2025-01-13 18:18:04.145278	351.8	42.6	-91.1	19.5
2025-01-13 18:18:05.302948	351.5	42.3	-91.2	17.8
2025-01-13 18:18:06.455948	351.3	42.1	-91.5	19.6
2025-01-13 18:18:07.610338	351.0	41.8	-91.3	19.4
2025-01-13 18:18:08.764219	350.8	41.5	-91.7	21.0
2025-01-13 18:18:09.929518	350.5	41.2	-91.3	12.0
2025-01-13 18:18:11.089568	350.3	40.9	-91.5	16.7
2025-01-13 18:18:12.250858	350.1	40.7	-90.7	18.6
2025-01-13 18:18:13.408768	349.8	40.4	-91.1	10.5
2025-01-13 18:18:14.571928	349.6	40.1	-90.9	9.0
2025-01-13 18:18:15.702832	349.4	39.9	-90.9	16.2
2025-01-13 18:18:16.827779	349.2	39.6	-91.3	10.2
2025-01-13 18:18:17.981987	349.0	39.3	-91.4	9.5
2025-01-13 18:18:19.141719	348.8	39.1	-90.9	16.7
2025-01-13 18:18:20.307463	348.6	38.8	-90.9	15.2
2025-01-13 18:18:21.468543	348.3	38.6	-91.5	13.3
2025-01-13 18:18:22.628460	348.1	38.3	-90.9	15.2
2025-01-13 18:18:23.793179	348.0	38.0	-91.0	13.7
2025-01-13 18:18:24.953312	347.8	37.8	-91.3	12.7
2025-01-13 18:18:26.113048	347.6	37.5	-91.1	11.6
2025-01-13 18:18:27.274350	347.4	37.3	-90.9	13.8
2025-01-13 18:18:28.436181	347.2	37.0	-90.5	13.7
2025-01-13 18:18:29.599861	347.0	36.8	-91.1	13.9
2025-01-13 18:18:30.759869	346.8	36.5	-91.4	10.8
2025-01-13 18:18:31.918124	346.7	36.3	-91.1	10.5
2025-01-13 18:18:33.081926	346.5	36.0	-91.2	7.0
2025-01-13 18:18:34.241834	346.3	35.8	-90.8	12.3
2025-01-13 18:18:35.402917	346.1	35.5	-91.0	8.5
2025-01-13 18:18:36.566647	346.0	35.3	-90.9	10.9
2025-01-13 18:18:37.727587	345.8	35.1	-91.3	11.4
2025-01-13 18:18:38.887318	345.7	34.8	-91.4	11.3
2025-01-13 18:18:40.050223	345.5	34.6	-90.8	6.5
2025-01-13 18:18:41.216036	345.3	34.4	-90.9	4.4
2025-01-13 18:18:42.380151	345.2	34.1	-91.1	7.9
2025-01-13 18:18:43.542454	345.0	33.9	-90.0	9.2
2025-01-13 18:18:44.706460	344.9	33.7	-90.4	10.3
2025-01-13 18:18:45.871772	344.7	33.4	-91.1	10.9
2025-01-13 18:18:47.035625	344.6	33.2	-91.1	10.7
2025-01-13 18:18:48.195577	344.4	33.0	-91.1	13.8
2025-01-13 18:18:49.354996	344.3	32.7	-91.1	6.8
2025-01-13 18:18:50.518320	344.2	32.5	-91.5	6.9
2025-01-13 18:18:51.682843	344.0	32.3	-90.5	11.7
2025-01-13 18:18:52.839382	343.9	32.1	-90.3	7.4
2025-01-13 18:18:54.007600	343.8	31.9	-90.1	9.5
2025-01-13 18:18:55.169481	343.6	31.6	-89.8	11.7
2025-01-13 18:18:56.329922	343.5	31.4	-91.3	7.3
2025-01-13 18:18:57.491030	343.4	31.2	-91.5	7.5
2025-01-13 18:18:58.657426	343.2	31.0	-91.6	5.8
2025-01-13 18:18:59.812059	343.1	30.8	-91.2	8.8
2025-01-13 18:19:00.953246	343.0	30.6	-91.5	11.5
2025-01-13 18:19:02.115340	342.9	30.4	-91.4	9.9
2025-01-13 18:19:03.277448	342.7	30.2	-91.5	9.8
2025-01-13 18:19:04.440166	342.6	30.0	-91.6	9.2
2025-01-13 18:19:05.605915	342.5	29.8	-91.6	10.0
2025-01-13 18:19:06.769567	342.4	29.5	-91.2	10.5
2025-01-13 18:19:07.928340	342.3	29.3	-92.0	9.0
2025-01-13 18:19:09.091171	342.2	29.1	-91.5	5.2
2025-01-13 18:19:10.247670	342.1	28.9	-91.4	4.6
2025-01-13 18:19:11.411986	342.0	28.7	-91.6	7.6
2025-01-13 18:19:12.577409	341.8	28.5	-91.9	6.0
2025-01-13 18:19:13.742958	341.7	28.4	-91.6	10.8
2025-01-13 18:19:14.898038	341.6	28.2	-91.7	9.0
2025-01-13 18:19:16.050170	341.5	28.0	-91.5	10.2
2025-01-13 18:19:17.213494	341.4	27.8	-91.4	8.9
2025-01-13 18:19:18.380410	341.3	27.6	-91.4	7.3
2025-01-13 18:19:19.543390	341.2	27.4	-91.5	3.5
2025-01-13 18:19:20.706688	341.1	27.2	-91.3	5.3
2025-01-13 18:19:21.871281	341.0	27.0	-91.6	4.6
2025-01-13 18:19:23.030078	340.9	26.8	-91.1	5.2
2025-01-13 18:19:24.193570	340.8	26.6	-91.5	10.6
2025-01-13 18:19:25.349124	340.7	26.5	-91.4	5.8
2025-01-13 18:19:26.509728	340.6	26.3	-91.6	6.1
2025-01-13 18:19:27.667548	340.6	26.1	-91.5	6.3
2025-01-13 18:19:28.833972	340.5	25.9	-91.6	11.1
2025-01-13 18:19:29.989575	340.4	25.7	-91.2	6.9
2025-01-13 18:19:31.147566	340.3	25.6	-91.5	9.9
2025-01-13 18:19:32.310976	340.2	25.4	-91.3	13.1
2025-01-13 18:19:33.476206	340.1	25.2	-91.3	10.2
2025-01-13 18:19:34.637842	340.0	25.0	-91.2	8.1
2025-01-13 18:19:35.809367	339.9	24.8	-91.5	7.3
2025-01-13 18:19:36.976904	339.9	24.7	-91.2	4.6
2025-01-13 18:19:38.136210	339.8	24.5	-91.4	9.5
2025-01-13 18:19:39.298499	339.7	24.3	-91.1	8.2
2025-01-13 18:19:40.458478	339.6	24.2	-91.1	4.8
2025-01-13 18:19:41.620032	339.5	24.0	-91.4	9.9
2025-01-13 18:19:42.779247	339.4	23.8	-91.9	7.6
2025-01-13 18:19:43.942509	339.4	23.7	-91.9	9.6
2025-01-13 18:19:45.100416	339.3	23.5	-91.3	14.7
2025-01-13 18:19:46.250991	339.2	23.3	-91.1	4.8
2025-01-13 18:19:47.410986	339.1	23.2	-91.3	6.4
2025-01-13 18:19:48.575263	339.1	23.0	-91.4	13.6
2025-01-13 18:19:49.732386	339.0	22.8	-91.3	11.1
2025-01-13 18:19:50.895490	338.9	22.7	-91.2	8.2
2025-01-13 18:19:52.050512	338.8	22.5	-91.1	8.9
2025-01-13 18:19:53.208121	338.8	22.4	-91.4	15.4
2025-01-13 18:19:54.372905	338.7	22.2	-91.2	5.5
2025-01-13 18:19:55.536328	338.6	22.0	-91.3	7.0
2025-01-13 18:19:56.702541	338.6	21.9	-90.4	9.1
2025-01-13 18:19:57.862801	338.5	21.7	-90.8	6.2
2025-01-13 18:19:59.005784	338.4	21.6	-90.4	7.2
2025-01-13 18:20:00.162241	338.4	21.4	-91.2	12.5
2025-01-13 18:20:01.310748	338.3	21.3	-91.0	13.0
2025-01-13 18:20:02.470959	338.2	21.1	-91.4	9.3
2025-01-13 18:20:03.630940	338.2	21.0	-91.5	7.0
2025-01-13 18:20:04.803643	338.1	20.8	-91.3	11.7
2025-01-13 18:20:05.969375	338.0	20.7	-91.3	6.8
2025-01-13 18:20:07.129525	338.0	20.5	-91.2	8.5
2025-01-13 18:20:08.288654	337.9	20.4	-91.6	10.3
2025-01-13 18:20:09.448392	337.8	20.2	-91.6	8.9
2025-01-13 18:20:10.613629	337.8	20.1	-91.7	9.6
2025-01-13 18:20:11.776050	337.7	19.9	-91.6	5.8
2025-01-13 18:20:12.942044	337.7	19.8	-91.8	4.9
2025-01-13 18:20:14.098013	337.6	19.6	-91.6	7.3
2025-01-13 18:20:15.257250	337.5	19.5	-91.4	6.8
2025-01-13 18:20:16.413827	337.5	19.4	-91.7	12.3
2025-01-13 18:20:17.570954	337.4	19.2	-91.9	6.2
2025-01-13 18:20:18.729519	337.4	19.1	-91.8	7.2
2025-01-13 18:20:19.890069	337.3	18.9	-91.5	6.3
2025-01-13 18:20:21.049605	337.3	18.8	-91.2	5.9
2025-01-13 18:20:22.215248	337.2	18.7	-91.3	6.9
2025-01-13 18:20:23.371744	337.1	18.5	-91.5	5.9
2025-01-13 18:20:24.534505	337.1	18.4	-91.5	5.3
2025-01-13 18:20:25.699981	337.0	18.2	-91.5	8.9
2025-01-13 18:20:26.860114	337.0	18.1	-91.3	5.8
2025-01-13 18:20:28.024537	336.9	18.0	-91.2	6.8
2025-01-13 18:20:29.176300	336.9	17.8	-91.3	4.9
2025-01-13 18:20:30.333290	336.8	17.7	-91.3	4.7
2025-01-13 18:20:31.491968	336.8	17.6	-91.9	2.3
2025-01-13 18:20:32.649914	336.7	17.4	-91.6	3.4
2025-01-13 18:20:33.807542	336.7	17.3	-91.6	5.2
2025-01-13 18:20:34.968144	336.6	17.2	-91.7	4.8
2025-01-13 18:20:36.122148	336.6	17.0	-91.3	3.1
2025-01-13 18:20:37.289137	336.5	16.9	-91.3	5.6
2025-01-13 18:20:38.447021	336.5	16.8	-91.4	2.9
2025-01-13 18:20:39.606626	336.4	16.7	-91.7	5.4
2025-01-13 18:20:40.769615	336.4	16.5	-91.6	4.7
2025-01-13 18:20:41.930588	336.3	16.4	-91.6	3.3
2025-01-13 18:20:43.091573	336.3	16.3	-91.2	4.9
2025-01-13 18:20:44.254934	336.2	16.1	-91.3	2.3
2025-01-13 18:20:45.415105	336.2	16.0	-91.5	3.7
2025-01-13 18:20:46.577655	336.1	15.9	-92.1	3.5
2025-01-13 18:20:47.745103	336.1	15.8	-91.7	5.6
2025-01-13 18:20:48.899061	336.1	15.7	-91.4	5.0
2025-01-13 18:20:50.054677	336.0	15.5	-91.3	5.0
2025-01-13 18:20:51.209220	336.0	15.4	-91.2	5.9
2025-01-13 18:20:52.373146	335.9	15.3	-91.3	3.9
2025-01-13 18:20:53.545523	335.9	15.2	-91.6	3.7
2025-01-13 18:20:54.718056	335.8	15.0	-91.3	4.0
2025-01-13 18:20:55.882975	335.8	14.9	-91.3	5.5
2025-01-13 18:20:57.047473	335.8	14.8	-91.2	4.6
2025-01-13 18:20:58.203400	335.7	14.7	-91.1	5.0
2025-01-13 18:20:59.373718	335.7	14.6	-91.7	5.3
#Closed at: 2025-01-13 18:11:50.490371