passes_logs/2025/01/13/LEX_Murmansk/LEX_Murmansk__20250113_174614_NOAA_19_rec.log

#Pass ID: 20250113_174614_NOAA 19
#Satellite: NOAA 19
#Configuration: NOAA 19
#Start time: 2025-01-13 17:46:09.353687

#LorettStation: 1.0.0 05.05.2024
#Station: LEX_Murmansk
#Location: 33.156738 lon 68.926811 lat
#TLE: 1 33591U 09005A   25013.16337215  .00000276  00000+0  17136-3 0  9999
#TLE: 2 33591  99.0200  76.9116 0014532  62.4730 297.7917 14.13258019821287

#Time	Az	El	Level	SNR
2025-01-13 17:46:21.535215	154.1	16.3	-90.6	2.7
2025-01-13 17:46:22.699072	154.1	16.5	-90.9	3.6
2025-01-13 17:46:23.857809	154.1	16.6	-90.9	3.7
2025-01-13 17:46:25.022573	154.1	16.7	-90.9	4.5
2025-01-13 17:46:26.187238	154.1	16.9	-90.5	1.9
2025-01-13 17:46:27.353088	154.1	17.0	-90.6	4.0
2025-01-13 17:46:28.520948	154.1	17.1	-90.7	1.9
2025-01-13 17:46:29.684372	154.1	17.3	-90.7	3.5
2025-01-13 17:46:30.844157	154.1	17.4	-90.7	0.5
2025-01-13 17:46:32.008160	154.2	17.5	-91.0	2.6
2025-01-13 17:46:33.173401	154.2	17.7	-90.8	2.2
2025-01-13 17:46:34.337047	154.2	17.8	-90.7	1.8
2025-01-13 17:46:35.505507	154.2	17.9	-90.3	2.9
2025-01-13 17:46:36.669011	154.2	18.1	-90.8	3.3
2025-01-13 17:46:37.832778	154.2	18.2	-90.9	1.3
2025-01-13 17:46:39.000758	154.2	18.4	-90.6	1.3
2025-01-13 17:46:40.158256	154.2	18.5	-90.6	2.4
2025-01-13 17:46:41.325360	154.2	18.7	-90.9	3.8
2025-01-13 17:46:42.490082	154.2	18.8	-91.2	1.9
2025-01-13 17:46:43.654506	154.3	18.9	-91.3	3.1
2025-01-13 17:46:44.819199	154.3	19.1	-91.1	2.1
2025-01-13 17:46:45.980665	154.3	19.2	-90.9	2.1
2025-01-13 17:46:47.143993	154.3	19.4	-90.9	3.2
2025-01-13 17:46:48.307225	154.3	19.5	-90.7	0.9
2025-01-13 17:46:49.581212	154.3	19.7	-90.7	3.1
2025-01-13 17:46:50.741017	154.3	19.8	-90.4	4.4
2025-01-13 17:46:51.900671	154.3	20.0	-90.4	4.7
2025-01-13 17:46:53.067673	154.3	20.1	-90.4	5.9
2025-01-13 17:46:54.230879	154.4	20.3	-90.3	4.3
2025-01-13 17:46:55.399399	154.4	20.5	-90.4	5.0
2025-01-13 17:46:56.558232	154.4	20.6	-90.8	6.1
2025-01-13 17:46:57.720100	154.4	20.8	-90.6	6.7
2025-01-13 17:46:58.879799	154.4	20.9	-90.5	5.8
2025-01-13 17:47:00.044202	154.4	21.1	-90.6	3.5
2025-01-13 17:47:01.186918	154.4	21.2	-91.0	2.7
2025-01-13 17:47:02.345967	154.4	21.4	-91.0	2.2
2025-01-13 17:47:03.507296	154.4	21.6	-91.2	2.9
2025-01-13 17:47:04.669883	154.5	21.7	-91.0	2.6
2025-01-13 17:47:05.832336	154.5	21.9	-90.9	3.9
2025-01-13 17:47:06.991048	154.5	22.0	-90.4	5.2
2025-01-13 17:47:08.153004	154.5	22.2	-90.6	8.2
2025-01-13 17:47:09.315496	154.5	22.4	-90.5	5.3
2025-01-13 17:47:10.471861	154.5	22.5	-90.6	7.8
2025-01-13 17:47:11.636527	154.5	22.7	-90.5	5.5
2025-01-13 17:47:12.796986	154.5	22.9	-90.6	4.5
2025-01-13 17:47:13.956960	154.6	23.0	-90.7	6.6
2025-01-13 17:47:15.114430	154.6	23.2	-90.6	4.6
2025-01-13 17:47:16.277750	154.6	23.4	-90.7	3.9
2025-01-13 17:47:17.442410	154.6	23.6	-90.8	2.7
2025-01-13 17:47:18.605867	154.6	23.7	-91.2	2.4
2025-01-13 17:47:19.766581	154.6	23.9	-90.7	2.4
2025-01-13 17:47:20.917735	154.6	24.1	-90.5	8.5
2025-01-13 17:47:22.080078	154.6	24.3	-90.7	7.6
2025-01-13 17:47:23.238656	154.7	24.4	-90.2	11.3
2025-01-13 17:47:24.406249	154.7	24.6	-90.8	9.5
2025-01-13 17:47:25.570266	154.7	24.8	-90.9	14.0
2025-01-13 17:47:26.736513	154.7	25.0	-90.3	4.7
2025-01-13 17:47:27.896700	154.7	25.2	-90.1	6.5
2025-01-13 17:47:29.059525	154.7	25.4	-91.0	8.9
2025-01-13 17:47:30.218566	154.7	25.5	-91.0	9.3
2025-01-13 17:47:31.376269	154.8	25.7	-91.1	8.2
2025-01-13 17:47:32.542635	154.8	25.9	-91.2	5.0
2025-01-13 17:47:33.700130	154.8	26.1	-91.1	0.7
2025-01-13 17:47:34.866027	154.8	26.3	-91.3	2.1
2025-01-13 17:47:36.027655	154.8	26.5	-91.0	2.3
2025-01-13 17:47:37.196357	154.8	26.7	-91.1	3.0
2025-01-13 17:47:38.355139	154.8	26.9	-91.5	3.6
2025-01-13 17:47:39.525084	154.9	27.1	-91.4	6.5
2025-01-13 17:47:40.684159	154.9	27.3	-91.2	6.7
2025-01-13 17:47:41.860118	154.9	27.5	-91.0	7.2
2025-01-13 17:47:43.021572	154.9	27.7	-91.4	6.2
2025-01-13 17:47:44.190464	154.9	27.9	-91.5	3.5
2025-01-13 17:47:45.351487	154.9	28.1	-91.2	5.3
2025-01-13 17:47:46.517969	155.0	28.3	-91.1	8.1
2025-01-13 17:47:47.688823	155.0	28.5	-90.8	9.6
2025-01-13 17:47:48.853314	155.0	28.7	-90.8	7.2
2025-01-13 17:47:50.008650	155.0	28.9	-91.0	4.8
2025-01-13 17:47:51.169014	155.0	29.1	-90.7	3.2
2025-01-13 17:47:52.329074	155.0	29.4	-91.1	1.6
2025-01-13 17:47:53.492618	155.0	29.6	-90.7	3.4
2025-01-13 17:47:54.653015	155.1	29.8	-91.1	3.8
2025-01-13 17:47:55.817450	155.1	30.0	-90.6	8.5
2025-01-13 17:47:56.976413	155.1	30.2	-91.1	7.6
2025-01-13 17:47:58.140353	155.1	30.5	-90.7	7.8
2025-01-13 17:47:59.302986	155.1	30.7	-90.4	4.9
2025-01-13 17:48:00.447008	155.2	30.9	-90.1	8.1
2025-01-13 17:48:01.607777	155.2	31.1	-90.1	5.3
2025-01-13 17:48:02.776652	155.2	31.4	-90.9	6.2
2025-01-13 17:48:03.941045	155.2	31.6	-90.5	7.5
2025-01-13 17:48:05.109512	155.2	31.8	-90.6	7.5
2025-01-13 17:48:06.273680	155.2	32.1	-90.9	6.7
2025-01-13 17:48:07.438226	155.3	32.3	-90.9	4.9
2025-01-13 17:48:08.603735	155.3	32.5	-90.8	3.9
2025-01-13 17:48:09.763471	155.3	32.8	-90.6	3.8
2025-01-13 17:48:10.927739	155.3	33.0	-91.5	4.9
2025-01-13 17:48:12.085458	155.3	33.3	-91.4	8.5
2025-01-13 17:48:13.251247	155.4	33.5	-91.4	9.1
2025-01-13 17:48:14.414752	155.4	33.8	-91.5	12.4
2025-01-13 17:48:15.579365	155.4	34.0	-90.8	10.9
2025-01-13 17:48:16.743642	155.4	34.3	-91.0	5.6
2025-01-13 17:48:17.907414	155.4	34.5	-90.7	5.6
2025-01-13 17:48:19.073919	155.5	34.8	-90.9	7.2
2025-01-13 17:48:20.236318	155.5	35.0	-90.3	6.0
2025-01-13 17:48:21.399412	155.5	35.3	-90.1	9.6
2025-01-13 17:48:22.558840	155.5	35.6	-90.9	8.9
2025-01-13 17:48:23.720688	155.6	35.8	-90.8	4.2
2025-01-13 17:48:24.881237	155.6	36.1	-90.9	3.9
2025-01-13 17:48:26.044419	155.6	36.4	-90.5	4.7
2025-01-13 17:48:27.202591	155.6	36.6	-91.2	2.5
2025-01-13 17:48:28.381407	155.6	36.9	-91.0	5.4
2025-01-13 17:48:29.540259	155.7	37.2	-91.0	5.8
2025-01-13 17:48:30.695695	155.7	37.5	-90.9	6.1
2025-01-13 17:48:31.863501	155.7	37.7	-90.3	9.3
2025-01-13 17:48:33.023111	155.7	38.0	-90.3	11.3
2025-01-13 17:48:34.187232	155.8	38.3	-90.3	7.4
2025-01-13 17:48:35.350837	155.8	38.6	-90.3	4.1
2025-01-13 17:48:36.517672	155.8	38.9	-90.9	7.0
2025-01-13 17:48:37.679148	155.8	39.2	-91.4	6.6
2025-01-13 17:48:38.840621	155.9	39.5	-91.4	9.6
2025-01-13 17:48:40.006153	155.9	39.8	-90.9	10.2
2025-01-13 17:48:41.161039	155.9	40.1	-91.4	11.2
2025-01-13 17:48:42.326682	156.0	40.4	-91.3	6.0
2025-01-13 17:48:43.488902	156.0	40.7	-91.5	6.4
2025-01-13 17:48:44.654530	156.0	41.0	-91.2	3.8
2025-01-13 17:48:45.822979	156.0	41.3	-91.5	2.1
2025-01-13 17:48:46.985965	156.1	41.6	-91.4	5.6
2025-01-13 17:48:48.153647	156.1	42.0	-90.6	7.4
2025-01-13 17:48:49.314574	156.1	42.3	-91.3	9.6
2025-01-13 17:48:50.479825	156.2	42.6	-91.1	13.1
2025-01-13 17:48:51.633560	156.2	42.9	-91.4	11.6
2025-01-13 17:48:52.794858	156.2	43.2	-91.1	8.4
2025-01-13 17:48:53.959607	156.3	43.6	-91.3	9.3
2025-01-13 17:48:55.123782	156.3	43.9	-90.8	10.8
2025-01-13 17:48:56.282802	156.3	44.2	-90.9	8.3
2025-01-13 17:48:57.442112	156.4	44.6	-91.1	13.2
2025-01-13 17:48:58.587920	156.4	44.9	-91.3	14.7
2025-01-13 17:48:59.708259	156.4	45.3	-90.9	13.8
2025-01-13 17:49:00.829255	156.5	45.6	-91.4	9.4
2025-01-13 17:49:01.950478	156.5	45.9	-91.0	6.2
2025-01-13 17:49:03.071016	156.6	46.3	-91.0	2.5
2025-01-13 17:49:04.191969	156.6	46.6	-90.9	2.7
2025-01-13 17:49:05.415347	156.6	47.0	-91.4	0.7
2025-01-13 17:49:06.539457	156.7	47.3	-91.9	4.1
2025-01-13 17:49:07.660370	156.7	47.7	-91.6	4.1
2025-01-13 17:49:08.808972	156.8	48.1	-91.5	6.8
2025-01-13 17:49:09.973652	156.8	48.4	-91.7	12.1
2025-01-13 17:49:11.126887	156.8	48.8	-90.8	11.5
2025-01-13 17:49:12.291795	156.9	49.2	-91.1	8.3
2025-01-13 17:49:13.453490	156.9	49.6	-91.2	9.7
2025-01-13 17:49:14.610880	157.0	50.0	-91.4	5.5
2025-01-13 17:49:15.766435	157.0	50.3	-91.2	4.7
2025-01-13 17:49:16.924668	157.1	50.7	-91.4	6.3
2025-01-13 17:49:18.088744	157.1	51.1	-91.2	8.4
2025-01-13 17:49:19.251764	157.2	51.5	-91.5	7.4
2025-01-13 17:49:20.411968	157.2	51.9	-91.5	7.9
2025-01-13 17:49:21.578879	157.3	52.3	-91.5	7.6
2025-01-13 17:49:22.739248	157.4	52.7	-91.4	6.4
2025-01-13 17:49:23.903539	157.4	53.1	-91.2	6.1
2025-01-13 17:49:25.068140	157.5	53.6	-90.9	3.0
2025-01-13 17:49:26.229778	157.5	54.0	-91.0	2.9
2025-01-13 17:49:27.390040	157.6	54.4	-91.2	4.9
2025-01-13 17:49:28.546022	157.7	54.8	-91.2	5.6
2025-01-13 17:49:29.707390	157.7	55.2	-91.3	6.0
2025-01-13 17:49:30.876112	157.8	55.7	-91.4	10.1
2025-01-13 17:49:32.037788	157.9	56.1	-91.5	12.5
2025-01-13 17:49:33.202773	157.9	56.6	-91.2	7.0
2025-01-13 17:49:34.371436	158.0	57.0	-91.1	6.2
2025-01-13 17:49:35.527688	158.1	57.4	-91.3	5.3
2025-01-13 17:49:36.691881	158.2	57.9	-91.2	6.4
2025-01-13 17:49:37.847243	158.2	58.3	-91.5	5.2
2025-01-13 17:49:39.010958	158.3	58.8	-91.1	8.0
2025-01-13 17:49:40.176336	158.4	59.3	-91.2	6.8
2025-01-13 17:49:41.332271	158.5	59.7	-91.2	10.7
2025-01-13 17:49:42.498237	158.6	60.2	-90.7	12.8
2025-01-13 17:49:43.660285	158.7	60.7	-90.9	14.2
2025-01-13 17:49:44.823593	158.8	61.1	-91.3	12.8
2025-01-13 17:49:45.992995	158.9	61.6	-90.8	8.9
2025-01-13 17:49:47.160336	159.0	62.1	-90.8	8.5
2025-01-13 17:49:48.321462	159.1	62.6	-91.4	4.5
2025-01-13 17:49:49.487969	159.2	63.1	-91.1	6.8
2025-01-13 17:49:50.646655	159.4	63.5	-91.0	7.5
2025-01-13 17:49:51.807004	159.5	64.0	-91.1	2.4
2025-01-13 17:49:52.973961	159.6	64.5	-91.2	7.9
2025-01-13 17:49:54.128571	159.8	65.0	-91.0	8.9
2025-01-13 17:49:55.291342	159.9	65.5	-91.0	9.5
2025-01-13 17:49:56.417734	160.0	66.0	-91.4	13.3
2025-01-13 17:49:57.538566	160.2	66.5	-90.4	14.4
2025-01-13 17:49:58.658842	160.4	67.0	-90.2	10.9
2025-01-13 17:49:59.779504	160.5	67.5	-91.8	8.6
2025-01-13 17:50:00.900164	160.7	68.0	-91.0	9.6
2025-01-13 17:50:02.020978	160.9	68.5	-91.4	9.5
2025-01-13 17:50:03.144167	161.1	69.0	-90.9	10.6
2025-01-13 17:50:04.284337	161.3	69.5	-90.8	6.6
2025-01-13 17:50:05.443657	161.5	70.0	-90.9	8.2
2025-01-13 17:50:06.606164	161.7	70.6	-91.0	9.3
2025-01-13 17:50:07.769361	162.0	71.1	-91.1	10.8
2025-01-13 17:50:08.932135	162.2	71.6	-91.2	11.4
2025-01-13 17:50:10.094763	162.5	72.2	-90.6	15.2
2025-01-13 17:50:11.247798	162.8	72.7	-90.7	15.2
2025-01-13 17:50:12.411250	163.1	73.2	-91.0	17.1
2025-01-13 17:50:13.575905	163.4	73.8	-91.4	19.9
2025-01-13 17:50:14.739905	163.8	74.3	-91.3	18.6
2025-01-13 17:50:15.906204	164.2	74.9	-91.0	12.8
2025-01-13 17:50:17.078611	164.6	75.4	-90.9	10.0
2025-01-13 17:50:18.237220	165.1	76.0	-91.3	6.5
2025-01-13 17:50:19.392975	165.5	76.5	-91.3	4.7
2025-01-13 17:50:20.555694	166.1	77.1	-91.4	8.6
2025-01-13 17:50:21.712184	166.6	77.6	-91.3	5.5
2025-01-13 17:50:22.875433	167.3	78.2	-91.1	6.6
2025-01-13 17:50:24.034905	168.0	78.7	-91.0	3.8
2025-01-13 17:50:25.197320	168.7	79.3	-90.9	4.6
2025-01-13 17:50:26.361664	169.6	79.9	-90.9	7.3
2025-01-13 17:50:27.522921	170.6	80.4	-90.8	9.1
2025-01-13 17:50:28.683064	171.6	81.0	-91.1	10.1
2025-01-13 17:50:29.837154	172.8	81.5	-90.9	13.5
2025-01-13 17:50:30.967033	174.2	82.0	-90.8	16.2
2025-01-13 17:50:32.111884	175.7	82.6	-90.8	16.7
2025-01-13 17:50:33.258866	177.5	83.1	-90.8	17.8
2025-01-13 17:50:34.405765	179.6	83.6	-90.4	17.0
2025-01-13 17:50:35.560332	182.1	84.1	-90.8	16.6
2025-01-13 17:50:36.719095	185.1	84.6	-90.7	20.2
2025-01-13 17:50:37.882105	188.7	85.1	-90.5	19.7
2025-01-13 17:50:39.039052	193.0	85.6	-90.7	20.0
2025-01-13 17:50:40.202486	198.4	86.0	-90.4	17.0
2025-01-13 17:50:41.363134	205.0	86.4	-90.4	14.3
2025-01-13 17:50:42.527138	213.2	86.8	-90.3	17.7
2025-01-13 17:50:43.690884	223.0	87.0	-90.6	13.2
2025-01-13 17:50:44.856059	234.3	87.2	-90.8	12.4
2025-01-13 17:50:46.023725	246.4	87.2	-90.9	15.8
2025-01-13 17:50:47.187936	258.3	87.1	-90.4	11.6
2025-01-13 17:50:48.357077	269.1	86.9	-91.2	8.7
2025-01-13 17:50:49.520435	278.2	86.6	-91.1	12.8
2025-01-13 17:50:50.680911	285.7	86.3	-90.9	8.2
2025-01-13 17:50:51.841174	291.8	85.9	-91.1	4.5
2025-01-13 17:50:53.001963	296.7	85.4	-91.2	13.2
2025-01-13 17:50:54.163938	300.7	84.9	-91.0	9.4
2025-01-13 17:50:55.322604	304.0	84.4	-91.1	8.0
2025-01-13 17:50:56.483345	306.8	83.9	-91.1	9.3
2025-01-13 17:50:57.646887	309.1	83.4	-91.2	13.8
2025-01-13 17:50:58.811384	311.1	82.9	-91.0	8.7
2025-01-13 17:50:59.971565	312.8	82.3	-90.9	13.2
2025-01-13 17:51:01.123374	314.3	81.8	-91.3	14.4
2025-01-13 17:51:02.280280	315.6	81.2	-91.6	7.9
2025-01-13 17:51:03.450888	316.7	80.7	-91.0	13.5
2025-01-13 17:51:04.603334	317.7	80.1	-91.4	13.4
2025-01-13 17:51:05.759871	318.6	79.6	-91.1	8.9
2025-01-13 17:51:06.922956	319.4	79.0	-91.2	11.4
2025-01-13 17:51:08.080021	320.2	78.5	-91.0	13.7
2025-01-13 17:51:09.243825	320.8	77.9	-90.9	9.8
2025-01-13 17:51:10.416377	321.4	77.4	-90.9	10.4
2025-01-13 17:51:11.582450	322.0	76.8	-91.0	12.9
2025-01-13 17:51:12.746496	322.5	76.3	-91.4	10.7
2025-01-13 17:51:13.912727	323.0	75.7	-91.0	11.2
2025-01-13 17:51:15.075516	323.4	75.2	-91.3	10.8
2025-01-13 17:51:16.246278	323.8	74.6	-90.4	7.7
2025-01-13 17:51:17.412800	324.2	74.1	-91.0	11.0
2025-01-13 17:51:18.572062	324.5	73.5	-90.8	9.8
2025-01-13 17:51:19.733932	324.9	73.0	-90.9	8.3
2025-01-13 17:51:20.896774	325.2	72.5	-90.9	8.9
2025-01-13 17:51:22.049042	325.4	71.9	-90.3	6.8
2025-01-13 17:51:23.205641	325.7	71.4	-90.5	7.0
2025-01-13 17:51:24.366612	326.0	70.9	-90.4	3.2
2025-01-13 17:51:25.526663	326.2	70.3	-90.6	6.6
2025-01-13 17:51:26.688535	326.4	69.8	-90.5	3.5
2025-01-13 17:51:27.850190	326.6	69.3	-90.4	1.9
2025-01-13 17:51:29.010572	326.8	68.8	-90.6	3.9
2025-01-13 17:51:30.167246	327.0	68.2	-90.5	4.2
2025-01-13 17:51:31.333258	327.2	67.7	-90.8	3.9
2025-01-13 17:51:32.491975	327.4	67.2	-90.7	6.1
2025-01-13 17:51:33.652777	327.6	66.7	-90.8	8.4
2025-01-13 17:51:34.816925	327.7	66.2	-90.8	5.3
2025-01-13 17:51:35.980716	327.9	65.7	-90.9	9.4
2025-01-13 17:51:37.141950	328.0	65.2	-90.8	10.6
2025-01-13 17:51:38.299545	328.1	64.7	-90.5	4.6
2025-01-13 17:51:39.464583	328.3	64.2	-90.5	7.4
2025-01-13 17:51:40.627581	328.4	63.7	-90.2	6.7
2025-01-13 17:51:41.788891	328.5	63.2	-90.7	5.7
2025-01-13 17:51:42.954601	328.6	62.7	-90.9	9.4
2025-01-13 17:51:44.114562	328.8	62.2	-90.8	6.9
2025-01-13 17:51:45.279780	328.9	61.8	-91.1	6.8
2025-01-13 17:51:46.442864	329.0	61.3	-90.7	9.5
2025-01-13 17:51:47.602542	329.1	60.8	-89.7	11.2
2025-01-13 17:51:48.776168	329.2	60.3	-91.1	8.2
2025-01-13 17:51:49.944309	329.3	59.9	-91.1	12.0
2025-01-13 17:51:51.109610	329.4	59.4	-90.2	10.5
2025-01-13 17:51:52.274834	329.4	59.0	-90.9	9.2
2025-01-13 17:51:53.441403	329.5	58.5	-90.9	10.8
2025-01-13 17:51:54.604066	329.6	58.0	-90.3	9.9
2025-01-13 17:51:55.766258	329.7	57.6	-91.4	9.8
2025-01-13 17:51:56.922177	329.8	57.2	-90.4	9.3
2025-01-13 17:51:58.087083	329.9	56.7	-89.7	9.9
2025-01-13 17:51:59.245976	329.9	56.3	-91.1	10.2
2025-01-13 17:52:00.399904	330.0	55.8	-91.0	10.3
2025-01-13 17:52:01.562350	330.1	55.4	-90.2	3.8
2025-01-13 17:52:02.718583	330.1	55.0	-90.9	3.1
2025-01-13 17:52:03.879298	330.2	54.6	-90.4	9.1
2025-01-13 17:52:05.038638	330.3	54.1	-90.1	8.3
2025-01-13 17:52:06.200558	330.3	53.7	-90.0	4.1
2025-01-13 17:52:07.365656	330.4	53.3	-91.0	4.0
2025-01-13 17:52:08.528266	330.4	52.9	-91.1	3.1
2025-01-13 17:52:09.701898	330.5	52.5	-90.7	3.4
2025-01-13 17:52:10.866728	330.6	52.1	-91.1	5.4
2025-01-13 17:52:12.027607	330.6	51.7	-91.1	5.8
2025-01-13 17:52:13.191155	330.7	51.3	-90.7	3.5
2025-01-13 17:52:14.349293	330.7	50.9	-90.8	5.1
2025-01-13 17:52:15.513993	330.8	50.5	-90.3	7.9
2025-01-13 17:52:16.672821	330.8	50.1	-90.3	6.4
2025-01-13 17:52:17.837237	330.9	49.7	-90.7	7.7
2025-01-13 17:52:19.000839	330.9	49.3	-90.8	9.4
2025-01-13 17:52:20.161993	331.0	49.0	-90.7	12.2
2025-01-13 17:52:21.324566	331.0	48.6	-90.8	14.1
2025-01-13 17:52:22.481626	331.0	48.2	-90.9	14.1
2025-01-13 17:52:23.643696	331.1	47.9	-90.3	15.1
2025-01-13 17:52:24.806735	331.1	47.5	-90.7	13.6
2025-01-13 17:52:25.970499	331.2	47.1	-90.8	12.2
2025-01-13 17:52:27.131957	331.2	46.8	-90.9	12.5
2025-01-13 17:52:28.296705	331.3	46.4	-90.7	10.0
2025-01-13 17:52:29.460600	331.3	46.1	-90.7	11.0
2025-01-13 17:52:30.625827	331.3	45.7	-90.4	10.0
2025-01-13 17:52:31.784643	331.4	45.4	-90.5	3.4
2025-01-13 17:52:32.943945	331.4	45.0	-91.2	7.2
2025-01-13 17:52:34.108133	331.4	44.7	-91.0	8.3
2025-01-13 17:52:35.263873	331.5	44.3	-90.9	3.9
2025-01-13 17:52:36.423699	331.5	44.0	-90.9	7.1
2025-01-13 17:52:37.584650	331.5	43.7	-91.2	11.0
2025-01-13 17:52:38.746271	331.6	43.3	-91.3	7.7
2025-01-13 17:52:39.915868	331.6	43.0	-91.8	12.0
2025-01-13 17:52:41.075587	331.6	42.7	-91.0	12.6
2025-01-13 17:52:42.235320	331.7	42.4	-90.7	14.7
2025-01-13 17:52:43.402683	331.7	42.0	-91.0	17.6
2025-01-13 17:52:44.564105	331.7	41.7	-90.9	18.2
2025-01-13 17:52:45.726892	331.8	41.4	-90.9	14.7
2025-01-13 17:52:46.884328	331.8	41.1	-91.4	13.0
2025-01-13 17:52:48.048091	331.8	40.8	-91.0	12.6
2025-01-13 17:52:49.208405	331.9	40.5	-90.9	9.5
2025-01-13 17:52:50.370290	331.9	40.2	-90.8	5.5
2025-01-13 17:52:51.537937	331.9	39.9	-90.8	10.9
2025-01-13 17:52:52.697489	331.9	39.6	-91.3	4.8
2025-01-13 17:52:53.858424	332.0	39.3	-91.0	5.4
2025-01-13 17:52:55.021157	332.0	39.0	-91.3	6.7
2025-01-13 17:52:56.188934	332.0	38.7	-90.6	6.4
2025-01-13 17:52:57.348341	332.0	38.4	-90.7	6.9
2025-01-13 17:52:58.514205	332.1	38.1	-91.0	10.5
2025-01-13 17:52:59.675659	332.1	37.9	-90.8	10.4
2025-01-13 17:53:00.821558	332.1	37.6	-91.3	11.1
2025-01-13 17:53:01.977303	332.1	37.3	-90.8	10.0
2025-01-13 17:53:03.140703	332.2	37.0	-91.1	11.0
2025-01-13 17:53:04.304795	332.2	36.8	-91.2	8.9
2025-01-13 17:53:05.462823	332.2	36.5	-91.3	6.2
2025-01-13 17:53:06.631509	332.2	36.2	-91.5	6.0
2025-01-13 17:53:07.790962	332.3	36.0	-91.2	5.5
2025-01-13 17:53:08.954222	332.3	35.7	-91.2	4.5
2025-01-13 17:53:10.108489	332.3	35.4	-91.4	5.7
2025-01-13 17:53:11.263920	332.3	35.2	-90.7	4.2
2025-01-13 17:53:12.418962	332.4	34.9	-91.3	7.9
2025-01-13 17:53:13.584038	332.4	34.7	-91.3	6.7
2025-01-13 17:53:14.747826	332.4	34.4	-91.3	5.1
2025-01-13 17:53:15.912446	332.4	34.1	-91.2	5.8
2025-01-13 17:53:17.076404	332.4	33.9	-90.6	8.9
2025-01-13 17:53:18.247223	332.5	33.6	-90.4	12.6
2025-01-13 17:53:19.414666	332.5	33.4	-90.8	12.0
2025-01-13 17:53:20.568574	332.5	33.2	-91.2	11.6
2025-01-13 17:53:21.735939	332.5	32.9	-91.0	11.8
2025-01-13 17:53:22.894416	332.5	32.7	-91.0	10.2
2025-01-13 17:53:24.059209	332.6	32.4	-90.7	10.9
2025-01-13 17:53:25.219629	332.6	32.2	-90.7	5.8
2025-01-13 17:53:26.380119	332.6	32.0	-90.9	5.3
2025-01-13 17:53:27.543248	332.6	31.7	-90.9	6.8
2025-01-13 17:53:28.707223	332.6	31.5	-90.6	5.5
2025-01-13 17:53:29.874088	332.7	31.3	-91.4	9.4
2025-01-13 17:53:31.038476	332.7	31.0	-91.1	11.5
2025-01-13 17:53:32.196481	332.7	30.8	-90.1	12.8
2025-01-13 17:53:33.362683	332.7	30.6	-90.4	8.8
2025-01-13 17:53:34.524105	332.7	30.4	-90.4	9.1
2025-01-13 17:53:35.684178	332.7	30.2	-91.2	6.2
2025-01-13 17:53:36.847780	332.8	29.9	-91.0	7.4
2025-01-13 17:53:38.009374	332.8	29.7	-90.6	6.6
2025-01-13 17:53:39.176357	332.8	29.5	-90.4	3.7
2025-01-13 17:53:40.338403	332.8	29.3	-90.7	3.2
2025-01-13 17:53:41.506161	332.8	29.1	-89.5	3.7
2025-01-13 17:53:42.659460	332.8	28.9	-90.2	4.6
2025-01-13 17:53:43.818968	332.9	28.7	-90.4	4.1
2025-01-13 17:53:44.977383	332.9	28.4	-89.8	4.7
2025-01-13 17:53:46.140905	332.9	28.2	-90.2	6.3
2025-01-13 17:53:47.306394	332.9	28.0	-90.3	7.2
2025-01-13 17:53:48.465697	332.9	27.8	-90.2	7.0
2025-01-13 17:53:49.639778	332.9	27.6	-90.3	5.2
2025-01-13 17:53:50.802888	333.0	27.4	-90.0	6.8
2025-01-13 17:53:51.966493	333.0	27.2	-90.3	7.0
2025-01-13 17:53:53.122987	333.0	27.0	-90.9	5.5
2025-01-13 17:53:54.290341	333.0	26.8	-90.6	2.3
2025-01-13 17:53:55.458292	333.0	26.6	-90.7	5.4
2025-01-13 17:53:56.620761	333.0	26.5	-90.9	3.6
2025-01-13 17:53:57.778026	333.0	26.3	-90.8	3.2
2025-01-13 17:53:58.937696	333.1	26.1	-90.7	4.0
2025-01-13 17:54:00.105730	333.1	25.9	-91.0	4.4
2025-01-13 17:54:01.245877	333.1	25.7	-90.3	7.1
2025-01-13 17:54:02.406363	333.1	25.5	-90.7	4.2
2025-01-13 17:54:03.574164	333.1	25.3	-91.3	9.3
2025-01-13 17:54:04.735794	333.1	25.1	-90.9	10.8
2025-01-13 17:54:05.897712	333.1	25.0	-90.3	4.7
2025-01-13 17:54:07.076637	333.2	24.8	-89.9	3.8
2025-01-13 17:54:08.245091	333.2	24.6	-90.6	1.8
2025-01-13 17:54:09.404375	333.2	24.4	-90.7	1.6
2025-01-13 17:54:10.568719	333.2	24.2	-90.9	4.3
2025-01-13 17:54:11.734170	333.2	24.1	-89.6	2.8
2025-01-13 17:54:12.889860	333.2	23.9	-90.1	2.7
2025-01-13 17:54:14.053072	333.2	23.7	-90.5	6.1
2025-01-13 17:54:15.210878	333.3	23.5	-90.6	6.5
2025-01-13 17:54:16.364433	333.3	23.4	-90.4	5.9
2025-01-13 17:54:17.532037	333.3	23.2	-90.9	9.7
2025-01-13 17:54:18.691775	333.3	23.0	-90.3	8.6
2025-01-13 17:54:19.850235	333.3	22.9	-90.3	8.2
2025-01-13 17:54:21.011603	333.3	22.7	-90.2	9.9
2025-01-13 17:54:22.171779	333.3	22.5	-90.6	5.7
2025-01-13 17:54:23.330010	333.3	22.4	-90.7	3.8
2025-01-13 17:54:24.501935	333.4	22.2	-90.3	5.4
2025-01-13 17:54:25.666466	333.4	22.0	-90.2	6.6
2025-01-13 17:54:26.831322	333.4	21.9	-89.9	5.1
2025-01-13 17:54:27.993996	333.4	21.7	-90.7	8.1
2025-01-13 17:54:29.154151	333.4	21.6	-90.9	11.0
2025-01-13 17:54:30.321791	333.4	21.4	-90.6	9.5
2025-01-13 17:54:31.483555	333.4	21.2	-90.8	3.6
2025-01-13 17:54:32.645108	333.4	21.1	-90.0	7.5
2025-01-13 17:54:33.808181	333.5	20.9	-90.4	2.7
2025-01-13 17:54:34.971729	333.5	20.8	-90.9	4.2
2025-01-13 17:54:36.140525	333.5	20.6	-90.1	2.8
2025-01-13 17:54:37.303365	333.5	20.5	-90.0	2.4
2025-01-13 17:54:38.467164	333.5	20.3	-90.4	4.1
2025-01-13 17:54:39.630606	333.5	20.2	-89.5	4.6
2025-01-13 17:54:40.798709	333.5	20.0	-89.7	3.5
2025-01-13 17:54:41.963205	333.5	19.9	-90.2	4.5
2025-01-13 17:54:43.116222	333.6	19.7	-90.0	3.4
2025-01-13 17:54:44.275604	333.6	19.6	-90.2	2.9
2025-01-13 17:54:45.442543	333.6	19.4	-90.9	2.1
2025-01-13 17:54:46.603057	333.6	19.3	-90.4	7.4
2025-01-13 17:54:47.768705	333.6	19.1	-89.9	4.2
2025-01-13 17:54:48.948754	333.6	19.0	-89.7	3.4
2025-01-13 17:54:50.104540	333.6	18.8	-90.7	2.6
2025-01-13 17:54:51.270224	333.6	18.7	-90.4	2.8
2025-01-13 17:54:52.434764	333.6	18.5	-90.2	2.3
2025-01-13 17:54:53.611480	333.7	18.4	-90.3	3.3
2025-01-13 17:54:54.773115	333.7	18.3	-90.2	4.1
2025-01-13 17:54:55.935140	333.7	18.1	-89.9	3.3
2025-01-13 17:54:57.095870	333.7	18.0	-90.5	0.4
2025-01-13 17:54:58.260949	333.7	17.8	-90.7	1.3
2025-01-13 17:54:59.425666	333.7	17.7	-90.8	3.9
2025-01-13 17:55:00.577705	333.7	17.6	-90.7	1.2
2025-01-13 17:55:01.741967	333.7	17.4	-90.8	2.9
2025-01-13 17:55:02.896272	333.7	17.3	-91.0	2.7
2025-01-13 17:55:04.064528	333.7	17.2	-90.1	1.8
2025-01-13 17:55:05.226036	333.8	17.0	-89.8	3.1
2025-01-13 17:55:06.388937	333.8	16.9	-90.6	5.1
2025-01-13 17:55:07.555501	333.8	16.8	-91.1	1.6
2025-01-13 17:55:08.714564	333.8	16.6	-91.1	0.4
2025-01-13 17:55:09.879465	333.8	16.5	-90.8	1.2
2025-01-13 17:55:11.042495	333.8	16.4	-90.4	3.9
2025-01-13 17:55:12.202567	333.8	16.3	-89.7	3.2
2025-01-13 17:55:13.363458	333.8	16.1	-90.5	2.7
2025-01-13 17:55:14.535164	333.8	16.0	-90.9	2.0
2025-01-13 17:55:15.697142	333.8	15.9	-91.0	2.2
2025-01-13 17:55:16.874288	333.9	15.7	-90.2	3.1
2025-01-13 17:55:18.039181	333.9	15.6	-90.4	1.9
2025-01-13 17:55:19.205309	333.9	15.5	-91.0	3.0
2025-01-13 17:55:20.368617	333.9	15.4	-90.5	3.9
2025-01-13 17:55:21.533620	333.9	15.2	-90.8	3.3
2025-01-13 17:55:22.692611	333.9	15.1	-90.8	4.4
2025-01-13 17:55:23.858971	333.9	15.0	-90.8	4.7
2025-01-13 17:55:25.023315	333.9	14.9	-91.0	3.0
2025-01-13 17:55:26.188467	333.9	14.7	-90.9	1.8
2025-01-13 17:55:27.352404	333.9	14.6	-90.6	2.1
2025-01-13 17:55:28.517895	334.0	14.5	-90.9	3.3
#Closed at: 2025-01-13 17:46:14.327602