passes_logs/2025/01/13/LEX_Murmansk/LEX_Murmansk__20250113_195248_NOAA_18_rec.log

#Pass ID: 20250113_195248_NOAA 18
#Satellite: NOAA 18
#Configuration: NOAA 18
#Start time: 2025-01-13 19:52:42.979510

#LorettStation: 1.0.0 05.05.2024
#Station: LEX_Murmansk
#Location: 33.156738 lon 68.926811 lat
#TLE: 1 28654U 05018A   25013.18075893  .00000305  00000+0  18557-3 0  9997
#TLE: 2 28654  98.8571  94.2532 0014276 184.2703 175.8350 14.13484936 12921

#Time	Az	El	Level	SNR
2025-01-13 19:52:55.216383	184.1	16.2	-92.3	3.6
2025-01-13 19:52:56.381017	184.2	16.4	-92.6	4.6
2025-01-13 19:52:57.543586	184.3	16.5	-92.4	6.3
2025-01-13 19:52:58.710552	184.4	16.6	-92.9	6.3
2025-01-13 19:52:59.870809	184.5	16.7	-92.6	6.3
2025-01-13 19:53:01.018053	184.6	16.9	-92.6	6.9
2025-01-13 19:53:02.178160	184.6	17.0	-92.2	6.4
2025-01-13 19:53:03.346226	184.7	17.1	-92.3	6.6
2025-01-13 19:53:04.508870	184.8	17.2	-92.2	7.1
2025-01-13 19:53:05.673546	184.9	17.4	-92.3	7.5
2025-01-13 19:53:06.838807	185.0	17.5	-92.4	6.7
2025-01-13 19:53:07.994296	185.1	17.6	-92.3	6.1
2025-01-13 19:53:09.158018	185.2	17.7	-92.4	5.1
2025-01-13 19:53:10.324896	185.3	17.9	-92.4	5.9
2025-01-13 19:53:11.483788	185.4	18.0	-92.4	4.5
2025-01-13 19:53:12.644699	185.5	18.1	-92.4	5.4
2025-01-13 19:53:13.809638	185.6	18.3	-92.4	4.4
2025-01-13 19:53:14.969900	185.7	18.4	-92.7	5.3
2025-01-13 19:53:16.136095	185.8	18.5	-92.8	5.0
2025-01-13 19:53:17.300586	185.9	18.6	-92.5	6.1
2025-01-13 19:53:18.468882	185.9	18.8	-92.2	5.5
2025-01-13 19:53:19.630367	186.0	18.9	-92.4	7.8
2025-01-13 19:53:20.794568	186.1	19.0	-92.5	8.6
2025-01-13 19:53:21.952774	186.2	19.2	-92.4	7.7
2025-01-13 19:53:23.117330	186.3	19.3	-92.2	7.6
2025-01-13 19:53:24.282780	186.5	19.4	-92.2	7.6
2025-01-13 19:53:25.448957	186.6	19.6	-92.7	5.7
2025-01-13 19:53:26.614228	186.7	19.7	-92.5	3.5
2025-01-13 19:53:27.781462	186.8	19.9	-92.5	6.9
2025-01-13 19:53:28.939145	186.9	20.0	-92.5	6.9
2025-01-13 19:53:30.105828	187.0	20.1	-92.1	5.7
2025-01-13 19:53:31.268193	187.1	20.3	-92.2	7.1
2025-01-13 19:53:32.431585	187.2	20.4	-92.4	7.6
2025-01-13 19:53:33.592739	187.3	20.6	-92.6	7.4
2025-01-13 19:53:34.751113	187.4	20.7	-92.1	7.3
2025-01-13 19:53:35.916456	187.5	20.8	-92.5	4.7
2025-01-13 19:53:37.082612	187.6	21.0	-92.3	5.3
2025-01-13 19:53:38.237534	187.7	21.1	-92.4	6.4
2025-01-13 19:53:39.357295	187.9	21.3	-92.6	6.3
2025-01-13 19:53:40.495078	188.0	21.4	-92.5	6.5
2025-01-13 19:53:41.656866	188.1	21.6	-92.4	6.6
2025-01-13 19:53:42.816636	188.2	21.7	-92.4	6.5
2025-01-13 19:53:43.984818	188.3	21.8	-92.4	6.1
2025-01-13 19:53:45.145836	188.4	22.0	-92.2	7.3
2025-01-13 19:53:46.313190	188.6	22.1	-92.2	8.8
2025-01-13 19:53:47.478304	188.7	22.3	-92.6	11.6
2025-01-13 19:53:48.646863	188.8	22.4	-92.3	11.4
2025-01-13 19:53:49.807292	188.9	22.6	-92.5	10.1
2025-01-13 19:53:50.968076	189.1	22.7	-92.5	8.4
2025-01-13 19:53:52.130155	189.2	22.9	-92.3	7.9
2025-01-13 19:53:53.291625	189.3	23.1	-92.1	11.7
2025-01-13 19:53:54.458728	189.4	23.2	-92.4	12.8
2025-01-13 19:53:55.618068	189.6	23.4	-92.6	11.3
2025-01-13 19:53:56.779922	189.7	23.5	-92.9	10.4
2025-01-13 19:53:57.944797	189.8	23.7	-92.7	5.8
2025-01-13 19:53:59.104015	190.0	23.8	-92.3	4.0
2025-01-13 19:54:00.257375	190.1	24.0	-91.9	7.3
2025-01-13 19:54:01.412227	190.2	24.1	-92.5	8.6
2025-01-13 19:54:02.570115	190.4	24.3	-92.3	8.9
2025-01-13 19:54:03.738914	190.5	24.5	-92.8	12.1
2025-01-13 19:54:04.901419	190.6	24.6	-92.6	12.9
2025-01-13 19:54:06.066893	190.8	24.8	-92.2	13.6
2025-01-13 19:54:07.231398	190.9	24.9	-92.2	13.0
2025-01-13 19:54:08.395709	191.1	25.1	-92.3	11.6
2025-01-13 19:54:09.563824	191.2	25.3	-92.5	12.2
2025-01-13 19:54:10.728217	191.4	25.4	-92.3	13.5
2025-01-13 19:54:11.896388	191.5	25.6	-92.8	12.9
2025-01-13 19:54:13.053345	191.7	25.8	-92.6	11.7
2025-01-13 19:54:14.218587	191.8	25.9	-92.5	10.0
2025-01-13 19:54:15.386280	192.0	26.1	-92.6	7.8
2025-01-13 19:54:16.551736	192.1	26.3	-92.3	3.3
2025-01-13 19:54:17.711781	192.3	26.4	-92.9	10.2
2025-01-13 19:54:18.872634	192.4	26.6	-92.7	10.2
2025-01-13 19:54:20.036716	192.6	26.8	-92.9	4.5
2025-01-13 19:54:21.209765	192.8	27.0	-92.6	7.6
2025-01-13 19:54:22.364730	192.9	27.1	-92.6	9.3
2025-01-13 19:54:23.530877	193.1	27.3	-92.8	11.0
2025-01-13 19:54:24.695852	193.3	27.5	-92.7	9.8
2025-01-13 19:54:25.860084	193.4	27.7	-92.3	11.3
2025-01-13 19:54:27.016336	193.6	27.8	-92.7	9.8
2025-01-13 19:54:28.175887	193.8	28.0	-92.4	7.8
2025-01-13 19:54:29.336795	193.9	28.2	-92.4	11.1
2025-01-13 19:54:30.503945	194.1	28.4	-92.7	10.7
2025-01-13 19:54:31.668403	194.3	28.6	-92.6	9.2
2025-01-13 19:54:32.833205	194.5	28.7	-92.4	9.8
2025-01-13 19:54:34.000322	194.6	28.9	-92.8	4.5
2025-01-13 19:54:35.161582	194.8	29.1	-92.5	4.1
2025-01-13 19:54:36.330481	195.0	29.3	-92.3	7.9
2025-01-13 19:54:37.495683	195.2	29.5	-92.4	5.6
2025-01-13 19:54:38.663474	195.4	29.7	-92.6	5.1
2025-01-13 19:54:39.827364	195.6	29.8	-92.5	8.9
2025-01-13 19:54:40.995020	195.8	30.0	-92.9	8.6
2025-01-13 19:54:42.155098	196.0	30.2	-92.6	9.6
2025-01-13 19:54:43.313020	196.2	30.4	-92.5	9.6
2025-01-13 19:54:44.479598	196.4	30.6	-92.6	4.7
2025-01-13 19:54:45.645097	196.6	30.8	-92.6	5.2
2025-01-13 19:54:46.812906	196.8	31.0	-92.4	11.3
2025-01-13 19:54:47.973710	197.0	31.2	-92.7	9.2
2025-01-13 19:54:49.134455	197.2	31.4	-92.1	12.4
2025-01-13 19:54:50.298815	197.4	31.6	-91.8	10.7
2025-01-13 19:54:51.461527	197.6	31.7	-92.2	9.0
2025-01-13 19:54:52.622654	197.8	31.9	-91.8	5.5
2025-01-13 19:54:53.787491	198.1	32.1	-92.9	9.1
2025-01-13 19:54:54.951514	198.3	32.3	-92.8	6.1
2025-01-13 19:54:56.114509	198.5	32.5	-92.8	5.2
2025-01-13 19:54:57.278075	198.7	32.7	-92.5	11.4
2025-01-13 19:54:58.430732	199.0	32.9	-92.4	7.1
2025-01-13 19:54:59.597663	199.2	33.1	-92.4	7.3
2025-01-13 19:55:00.748670	199.4	33.3	-92.5	6.6
2025-01-13 19:55:01.916906	199.7	33.5	-92.1	7.6
2025-01-13 19:55:03.078250	199.9	33.7	-92.3	6.6
2025-01-13 19:55:04.245637	200.2	33.9	-92.3	7.5
2025-01-13 19:55:05.408187	200.4	34.1	-92.6	6.6
2025-01-13 19:55:06.571554	200.7	34.4	-92.6	6.3
2025-01-13 19:55:07.735751	200.9	34.6	-92.8	7.0
2025-01-13 19:55:08.895270	201.2	34.8	-93.0	10.8
2025-01-13 19:55:10.060893	201.4	35.0	-92.4	9.5
2025-01-13 19:55:11.226194	201.7	35.2	-92.2	9.0
2025-01-13 19:55:12.385082	202.0	35.4	-92.2	12.3
2025-01-13 19:55:13.540708	202.2	35.6	-92.6	5.8
2025-01-13 19:55:14.709831	202.5	35.8	-92.5	14.9
2025-01-13 19:55:15.878079	202.8	36.0	-92.8	13.1
2025-01-13 19:55:17.042290	203.1	36.2	-92.7	8.9
2025-01-13 19:55:18.207573	203.4	36.4	-92.3	14.4
2025-01-13 19:55:19.369388	203.6	36.7	-92.3	12.1
2025-01-13 19:55:20.534490	203.9	36.9	-92.7	13.1
2025-01-13 19:55:21.694606	204.2	37.1	-92.5	15.7
2025-01-13 19:55:22.871063	204.5	37.3	-92.3	13.2
2025-01-13 19:55:24.037267	204.8	37.5	-92.7	11.6
2025-01-13 19:55:25.200618	205.1	37.7	-92.5	18.4
2025-01-13 19:55:26.368751	205.5	38.0	-92.4	17.3
2025-01-13 19:55:27.533069	205.8	38.2	-92.4	12.6
2025-01-13 19:55:28.697268	206.1	38.4	-92.6	16.0
2025-01-13 19:55:29.857946	206.4	38.6	-92.3	16.4
2025-01-13 19:55:31.021405	206.7	38.8	-92.4	16.2
2025-01-13 19:55:32.185930	207.1	39.0	-92.3	14.7
2025-01-13 19:55:33.343585	207.4	39.3	-92.5	14.3
2025-01-13 19:55:34.502373	207.7	39.5	-92.5	8.9
2025-01-13 19:55:35.662805	208.1	39.7	-92.5	12.0
2025-01-13 19:55:36.830529	208.4	39.9	-92.5	13.8
2025-01-13 19:55:37.993871	208.8	40.1	-93.0	4.7
2025-01-13 19:55:39.161034	209.2	40.3	-92.2	13.1
2025-01-13 19:55:40.324391	209.5	40.6	-92.2	15.9
2025-01-13 19:55:41.487649	209.9	40.8	-92.5	15.6
2025-01-13 19:55:42.655948	210.3	41.0	-92.5	14.1
2025-01-13 19:55:43.815054	210.6	41.2	-92.5	17.8
2025-01-13 19:55:44.978786	211.0	41.4	-92.6	15.3
2025-01-13 19:55:46.141605	211.4	41.7	-92.5	14.9
2025-01-13 19:55:47.309224	211.8	41.9	-92.3	14.1
2025-01-13 19:55:48.472838	212.2	42.1	-92.4	8.3
2025-01-13 19:55:49.634915	212.6	42.3	-92.6	13.9
2025-01-13 19:55:50.800346	213.0	42.5	-92.5	17.6
2025-01-13 19:55:51.964709	213.4	42.8	-92.4	13.7
2025-01-13 19:55:53.123881	213.9	43.0	-92.1	14.6
2025-01-13 19:55:54.289104	214.3	43.2	-92.6	14.1
2025-01-13 19:55:55.457098	214.7	43.4	-92.7	11.6
2025-01-13 19:55:56.617121	215.2	43.6	-92.9	13.7
2025-01-13 19:55:57.776915	215.6	43.8	-92.6	12.2
2025-01-13 19:55:58.941102	216.1	44.1	-92.6	8.0
2025-01-13 19:56:00.104040	216.5	44.3	-92.6	7.7
2025-01-13 19:56:01.250257	217.0	44.5	-92.5	11.3
2025-01-13 19:56:02.418217	217.4	44.7	-92.9	8.6
2025-01-13 19:56:03.577162	217.9	44.9	-92.7	4.8
2025-01-13 19:56:04.735689	218.4	45.1	-92.9	7.4
2025-01-13 19:56:05.903123	218.9	45.3	-92.5	10.0
2025-01-13 19:56:07.067027	219.4	45.5	-92.4	7.1
2025-01-13 19:56:08.232592	219.9	45.7	-92.4	10.2
2025-01-13 19:56:09.395658	220.4	45.9	-92.4	11.7
2025-01-13 19:56:10.562942	220.9	46.1	-92.5	9.7
2025-01-13 19:56:11.724316	221.4	46.3	-92.5	12.8
2025-01-13 19:56:12.883927	221.9	46.5	-92.7	12.5
2025-01-13 19:56:14.050638	222.5	46.7	-92.6	13.8
2025-01-13 19:56:15.211718	223.0	46.9	-92.5	15.3
2025-01-13 19:56:16.379941	223.6	47.1	-92.4	14.3
2025-01-13 19:56:17.541701	224.1	47.3	-92.4	10.4
2025-01-13 19:56:18.701158	224.7	47.5	-92.4	12.9
2025-01-13 19:56:19.864244	225.2	47.7	-92.4	18.3
2025-01-13 19:56:21.030456	225.8	47.9	-92.5	14.8
2025-01-13 19:56:22.200835	226.4	48.1	-92.5	19.4
2025-01-13 19:56:23.359844	227.0	48.3	-92.6	18.3
2025-01-13 19:56:24.522734	227.6	48.4	-92.8	15.3
2025-01-13 19:56:25.699058	228.2	48.6	-92.3	20.9
2025-01-13 19:56:26.860596	228.8	48.8	-92.4	15.7
2025-01-13 19:56:28.026918	229.4	49.0	-92.4	12.2
2025-01-13 19:56:29.191365	230.0	49.1	-92.6	17.0
2025-01-13 19:56:30.353912	230.7	49.3	-92.4	17.5
2025-01-13 19:56:31.530571	231.3	49.5	-92.3	10.7
2025-01-13 19:56:32.698549	232.0	49.6	-92.3	12.9
2025-01-13 19:56:33.854087	232.6	49.8	-92.5	14.3
2025-01-13 19:56:35.023883	233.3	49.9	-92.8	9.3
2025-01-13 19:56:36.187929	233.9	50.1	-92.7	13.4
2025-01-13 19:56:37.356025	234.6	50.2	-92.2	14.7
2025-01-13 19:56:38.523536	235.3	50.4	-92.3	12.7
2025-01-13 19:56:39.683341	235.9	50.5	-92.0	15.7
2025-01-13 19:56:40.848111	236.6	50.7	-92.7	11.9
2025-01-13 19:56:42.012880	237.3	50.8	-92.8	8.4
2025-01-13 19:56:43.175933	238.0	50.9	-92.4	8.5
2025-01-13 19:56:44.340426	238.7	51.0	-92.5	6.6
2025-01-13 19:56:45.499118	239.4	51.2	-92.6	9.7
2025-01-13 19:56:46.664474	240.2	51.3	-92.7	7.3
2025-01-13 19:56:47.838742	240.9	51.4	-92.5	7.3
2025-01-13 19:56:48.995788	241.6	51.5	-92.5	4.4
2025-01-13 19:56:50.161362	242.3	51.6	-92.2	10.2
2025-01-13 19:56:51.325252	243.1	51.7	-92.3	5.8
2025-01-13 19:56:52.490396	243.8	51.8	-93.2	3.7
2025-01-13 19:56:53.651424	244.6	51.9	-93.0	5.7
2025-01-13 19:56:54.811741	245.3	51.9	-93.0	4.4
2025-01-13 19:56:55.978524	246.1	52.0	-90.5	9.2
2025-01-13 19:56:57.141897	246.8	52.1	-92.4	8.1
2025-01-13 19:56:58.306366	247.6	52.2	-92.3	17.4
2025-01-13 19:56:59.474392	248.3	52.2	-92.8	13.3
2025-01-13 19:57:00.623410	249.1	52.3	-92.5	16.4
2025-01-13 19:57:01.784095	249.9	52.3	-92.4	17.9
2025-01-13 19:57:02.947253	250.6	52.4	-92.8	11.3
2025-01-13 19:57:04.103488	251.4	52.4	-92.4	20.4
2025-01-13 19:57:05.265817	252.2	52.5	-92.4	16.7
2025-01-13 19:57:06.434525	253.0	52.5	-92.5	19.0
2025-01-13 19:57:07.600862	253.7	52.5	-92.6	22.1
2025-01-13 19:57:08.763912	254.5	52.5	-92.6	12.6
2025-01-13 19:57:09.926705	255.3	52.5	-92.4	20.6
2025-01-13 19:57:11.087665	256.1	52.6	-92.6	24.0
2025-01-13 19:57:12.259262	256.9	52.6	-92.3	21.6
2025-01-13 19:57:13.424890	257.7	52.6	-92.4	16.8
2025-01-13 19:57:14.589110	258.4	52.6	-92.7	21.7
2025-01-13 19:57:15.755773	259.2	52.5	-92.7	26.6
2025-01-13 19:57:16.919121	260.0	52.5	-93.0	17.8
2025-01-13 19:57:18.086770	260.8	52.5	-92.3	16.8
2025-01-13 19:57:19.246346	261.6	52.5	-92.6	18.7
2025-01-13 19:57:20.409483	262.4	52.4	-92.5	17.8
2025-01-13 19:57:21.573228	263.1	52.4	-92.5	7.0
2025-01-13 19:57:22.738387	263.9	52.4	-92.8	26.7
2025-01-13 19:57:23.901366	264.7	52.3	-92.2	19.7
2025-01-13 19:57:25.061440	265.4	52.3	-92.0	15.0
2025-01-13 19:57:26.223182	266.2	52.2	-92.4	16.2
2025-01-13 19:57:27.387617	267.0	52.1	-92.4	18.1
2025-01-13 19:57:28.551570	267.7	52.1	-92.4	12.2
2025-01-13 19:57:29.713388	268.5	52.0	-92.4	26.3
2025-01-13 19:57:30.880399	269.2	51.9	-92.4	15.6
2025-01-13 19:57:32.040508	270.0	51.8	-92.9	7.1
2025-01-13 19:57:33.203156	270.7	51.7	-92.4	19.3
2025-01-13 19:57:34.361280	271.5	51.6	-92.4	18.3
2025-01-13 19:57:35.521101	272.2	51.5	-92.4	12.2
2025-01-13 19:57:36.686423	272.9	51.4	-92.7	17.8
2025-01-13 19:57:37.851303	273.6	51.3	-92.6	14.4
2025-01-13 19:57:39.015609	274.4	51.2	-92.6	11.7
2025-01-13 19:57:40.183219	275.1	51.1	-92.4	14.0
2025-01-13 19:57:41.341297	275.8	51.0	-92.5	17.5
2025-01-13 19:57:42.498902	276.5	50.9	-92.5	9.4
2025-01-13 19:57:43.668341	277.2	50.7	-92.5	14.4
2025-01-13 19:57:44.828333	277.9	50.6	-92.5	18.2
2025-01-13 19:57:45.987497	278.6	50.5	-92.4	11.6
2025-01-13 19:57:47.149981	279.2	50.3	-92.2	11.8
2025-01-13 19:57:48.309807	279.9	50.2	-92.3	18.6
2025-01-13 19:57:49.473606	280.6	50.0	-92.5	6.6
2025-01-13 19:57:50.637618	281.2	49.9	-92.3	12.6
2025-01-13 19:57:51.801785	281.9	49.7	-92.7	15.9
2025-01-13 19:57:52.955676	282.5	49.6	-92.9	12.6
2025-01-13 19:57:54.116279	283.2	49.4	-92.5	9.6
2025-01-13 19:57:55.280213	283.8	49.2	-92.5	18.8
2025-01-13 19:57:56.440787	284.4	49.1	-91.3	7.5
2025-01-13 19:57:57.601724	285.0	48.9	-91.7	7.8
2025-01-13 19:57:58.770529	285.6	48.7	-91.7	13.9
2025-01-13 19:57:59.936008	286.2	48.6	-92.8	9.0
2025-01-13 19:58:01.080399	286.8	48.4	-92.8	4.6
2025-01-13 19:58:02.247704	287.4	48.2	-92.6	11.4
2025-01-13 19:58:03.408135	288.0	48.0	-92.5	7.3
2025-01-13 19:58:04.579481	288.6	47.8	-92.6	11.0
2025-01-13 19:58:05.738274	289.2	47.6	-92.7	11.8
2025-01-13 19:58:06.905610	289.7	47.5	-92.2	13.2
2025-01-13 19:58:08.068470	290.3	47.3	-92.6	8.2
2025-01-13 19:58:09.230767	290.8	47.1	-92.8	16.1
2025-01-13 19:58:10.388969	291.4	46.9	-92.9	11.8
2025-01-13 19:58:11.553954	291.9	46.7	-92.8	9.1
2025-01-13 19:58:12.720150	292.5	46.5	-92.8	11.9
2025-01-13 19:58:13.885104	293.0	46.3	-92.2	14.5
2025-01-13 19:58:15.052971	293.5	46.1	-92.4	10.0
2025-01-13 19:58:16.210202	294.0	45.9	-92.2	11.3
2025-01-13 19:58:17.371380	294.5	45.7	-92.6	16.1
2025-01-13 19:58:18.532827	295.0	45.5	-92.6	13.0
2025-01-13 19:58:19.704488	295.5	45.2	-92.6	20.4
2025-01-13 19:58:20.867650	296.0	45.0	-92.8	20.8
2025-01-13 19:58:22.029879	296.5	44.8	-92.8	10.2
2025-01-13 19:58:23.187233	296.9	44.6	-92.5	12.3
2025-01-13 19:58:24.343155	297.4	44.4	-92.4	17.3
2025-01-13 19:58:25.500917	297.9	44.2	-92.8	17.1
2025-01-13 19:58:26.664319	298.3	44.0	-92.8	14.8
2025-01-13 19:58:27.833028	298.8	43.8	-92.7	20.2
2025-01-13 19:58:28.998159	299.2	43.5	-92.5	17.9
2025-01-13 19:58:30.165095	299.6	43.3	-92.3	18.1
2025-01-13 19:58:31.329871	300.1	43.1	-92.3	19.0
2025-01-13 19:58:32.495547	300.5	42.9	-92.7	16.3
2025-01-13 19:58:33.652703	300.9	42.7	-92.8	17.7
2025-01-13 19:58:34.809597	301.3	42.5	-92.3	12.7
2025-01-13 19:58:35.975346	301.7	42.2	-92.4	17.6
2025-01-13 19:58:37.133415	302.1	42.0	-92.6	14.6
2025-01-13 19:58:38.300401	302.5	41.8	-92.5	17.4
2025-01-13 19:58:39.461847	302.9	41.6	-92.7	16.4
2025-01-13 19:58:40.623049	303.3	41.4	-92.5	15.5
2025-01-13 19:58:41.787922	303.7	41.2	-92.6	19.4
2025-01-13 19:58:42.953237	304.1	40.9	-92.6	14.7
2025-01-13 19:58:44.109265	304.5	40.7	-92.1	13.4
2025-01-13 19:58:45.251963	304.8	40.5	-92.3	14.5
2025-01-13 19:58:46.414017	305.2	40.3	-92.4	10.8
2025-01-13 19:58:47.580458	305.5	40.1	-92.2	9.6
2025-01-13 19:58:48.738735	305.9	39.8	-92.4	13.3
2025-01-13 19:58:49.902832	306.2	39.6	-92.5	13.1
2025-01-13 19:58:51.069082	306.6	39.4	-92.6	9.3
2025-01-13 19:58:52.227778	306.9	39.2	-92.3	14.9
2025-01-13 19:58:53.394324	307.3	39.0	-92.7	12.4
2025-01-13 19:58:54.554743	307.6	38.8	-92.4	8.3
2025-01-13 19:58:55.718874	307.9	38.5	-92.8	10.9
2025-01-13 19:58:56.882619	308.2	38.3	-92.7	12.2
2025-01-13 19:58:58.037987	308.6	38.1	-92.9	9.7
2025-01-13 19:58:59.201705	308.9	37.9	-92.7	14.3
2025-01-13 19:59:00.358533	309.2	37.7	-92.5	14.9
2025-01-13 19:59:01.512122	309.5	37.5	-92.8	6.5
2025-01-13 19:59:02.678309	309.8	37.2	-92.7	17.1
2025-01-13 19:59:03.831749	310.1	37.0	-92.6	18.9
2025-01-13 19:59:05.000652	310.4	36.8	-92.6	15.0
2025-01-13 19:59:06.168175	310.7	36.6	-92.4	14.3
2025-01-13 19:59:07.329807	311.0	36.4	-92.0	14.1
2025-01-13 19:59:08.495087	311.2	36.2	-92.6	11.4
2025-01-13 19:59:09.663738	311.5	36.0	-92.7	15.6
2025-01-13 19:59:10.826892	311.8	35.8	-92.8	14.2
2025-01-13 19:59:11.994300	312.1	35.5	-92.7	10.4
2025-01-13 19:59:13.156418	312.3	35.3	-92.5	14.2
2025-01-13 19:59:14.314144	312.6	35.1	-92.9	16.4
2025-01-13 19:59:15.491600	312.9	34.9	-92.8	9.3
2025-01-13 19:59:16.652844	313.1	34.7	-92.9	9.5
2025-01-13 19:59:17.820378	313.4	34.5	-93.1	15.2
2025-01-13 19:59:18.988132	313.6	34.3	-93.2	10.4
2025-01-13 19:59:20.152706	313.9	34.1	-93.0	14.3
2025-01-13 19:59:21.315628	314.1	33.9	-92.7	17.6
2025-01-13 19:59:22.476254	314.4	33.7	-92.7	14.6
2025-01-13 19:59:23.647593	314.6	33.5	-92.4	16.2
2025-01-13 19:59:24.807007	314.9	33.3	-92.5	18.2
2025-01-13 19:59:25.973867	315.1	33.1	-92.7	17.5
2025-01-13 19:59:27.136785	315.3	32.9	-92.6	16.6
2025-01-13 19:59:28.300715	315.6	32.7	-92.8	16.8
2025-01-13 19:59:29.471052	315.8	32.5	-92.5	14.2
2025-01-13 19:59:30.631411	316.0	32.3	-92.6	11.3
2025-01-13 19:59:31.799801	316.2	32.1	-92.5	15.1
2025-01-13 19:59:32.966355	316.5	31.9	-92.8	10.6
2025-01-13 19:59:34.123054	316.7	31.7	-92.8	10.2
2025-01-13 19:59:35.289537	316.9	31.5	-92.6	16.4
2025-01-13 19:59:36.452165	317.1	31.3	-92.8	9.5
2025-01-13 19:59:37.614457	317.3	31.1	-92.7	9.9
2025-01-13 19:59:38.775837	317.5	30.9	-92.6	15.2
2025-01-13 19:59:39.942774	317.7	30.7	-92.5	8.5
2025-01-13 19:59:41.110988	317.9	30.5	-92.3	4.5
2025-01-13 19:59:42.270064	318.1	30.3	-92.4	8.4
2025-01-13 19:59:43.437390	318.3	30.2	-92.8	9.6
2025-01-13 19:59:44.595710	318.5	30.0	-93.1	10.9
2025-01-13 19:59:45.763405	318.7	29.8	-92.7	13.2
2025-01-13 19:59:46.927524	318.9	29.6	-92.6	13.3
2025-01-13 19:59:48.093591	319.1	29.4	-92.7	16.0
2025-01-13 19:59:49.260921	319.3	29.2	-92.7	5.3
2025-01-13 19:59:50.420587	319.5	29.0	-92.4	10.8
2025-01-13 19:59:51.585557	319.6	28.9	-92.3	12.0
2025-01-13 19:59:52.744731	319.8	28.7	-92.4	17.0
2025-01-13 19:59:53.907015	320.0	28.5	-92.7	15.5
2025-01-13 19:59:55.066437	320.2	28.3	-92.8	7.8
2025-01-13 19:59:56.237838	320.4	28.1	-92.8	10.0
2025-01-13 19:59:57.395261	320.5	28.0	-92.6	12.0
2025-01-13 19:59:58.563066	320.7	27.8	-92.6	11.3
2025-01-13 19:59:59.724296	320.9	27.6	-92.7	12.1
2025-01-13 20:00:00.873681	321.0	27.4	-92.6	13.5
2025-01-13 20:00:02.032888	321.2	27.3	-92.4	16.2
2025-01-13 20:00:03.175498	321.4	27.1	-92.8	13.2
2025-01-13 20:00:04.332582	321.5	26.9	-92.3	15.7
2025-01-13 20:00:05.495852	321.7	26.7	-92.5	13.2
2025-01-13 20:00:06.659969	321.8	26.6	-92.5	13.5
2025-01-13 20:00:07.827475	322.0	26.4	-93.0	15.9
2025-01-13 20:00:08.997490	322.2	26.2	-92.9	7.2
2025-01-13 20:00:10.169231	322.3	26.1	-92.6	9.1
2025-01-13 20:00:11.325720	322.5	25.9	-92.6	15.9
2025-01-13 20:00:12.485970	322.6	25.7	-92.6	6.0
2025-01-13 20:00:13.653644	322.8	25.6	-92.7	7.5
2025-01-13 20:00:14.812467	322.9	25.4	-93.1	9.0
2025-01-13 20:00:15.979866	323.1	25.2	-93.2	4.9
2025-01-13 20:00:17.146261	323.2	25.1	-92.7	15.0
2025-01-13 20:00:18.309263	323.4	24.9	-92.6	15.6
2025-01-13 20:00:19.476840	323.5	24.7	-92.6	15.3
2025-01-13 20:00:20.641898	323.6	24.6	-93.1	10.3
2025-01-13 20:00:21.809938	323.8	24.4	-92.9	18.5
2025-01-13 20:00:22.971322	323.9	24.3	-93.0	13.4
2025-01-13 20:00:24.139574	324.1	24.1	-92.8	11.3
2025-01-13 20:00:25.302582	324.2	23.9	-92.6	16.0
2025-01-13 20:00:26.466769	324.3	23.8	-93.0	10.7
2025-01-13 20:00:27.633622	324.5	23.6	-93.0	7.6
2025-01-13 20:00:28.797828	324.6	23.5	-93.0	19.3
2025-01-13 20:00:29.965623	324.7	23.3	-93.1	5.7
2025-01-13 20:00:31.122596	324.9	23.2	-92.4	5.4
2025-01-13 20:00:32.288553	325.0	23.0	-92.6	8.5
2025-01-13 20:00:33.448678	325.1	22.9	-92.9	5.2
2025-01-13 20:00:34.605695	325.2	22.7	-92.9	9.2
2025-01-13 20:00:35.766802	325.4	22.6	-93.1	12.4
2025-01-13 20:00:36.934474	325.5	22.4	-92.8	4.4
2025-01-13 20:00:38.104247	325.6	22.3	-92.8	5.1
2025-01-13 20:00:39.276737	325.7	22.1	-93.0	13.5
2025-01-13 20:00:40.443755	325.9	22.0	-92.9	5.9
2025-01-13 20:00:41.607242	326.0	21.8	-92.7	10.3
2025-01-13 20:00:42.774855	326.1	21.7	-92.2	15.5
2025-01-13 20:00:43.939368	326.2	21.5	-92.5	6.4
2025-01-13 20:00:45.104015	326.3	21.4	-92.6	3.6
2025-01-13 20:00:46.269087	326.4	21.2	-92.7	13.4
2025-01-13 20:00:47.432114	326.6	21.1	-93.1	8.9
2025-01-13 20:00:48.601422	326.7	20.9	-92.9	7.3
2025-01-13 20:00:49.765673	326.8	20.8	-92.8	8.4
2025-01-13 20:00:50.922479	326.9	20.7	-93.0	15.7
2025-01-13 20:00:52.086452	327.0	20.5	-92.9	11.2
2025-01-13 20:00:53.257742	327.1	20.4	-92.4	6.4
2025-01-13 20:00:54.416072	327.2	20.2	-92.6	3.5
2025-01-13 20:00:55.580715	327.3	20.1	-92.7	4.8
2025-01-13 20:00:56.746855	327.4	20.0	-92.8	3.1
2025-01-13 20:00:57.910885	327.5	19.8	-92.9	5.1
2025-01-13 20:00:59.078184	327.6	19.7	-92.6	5.7
2025-01-13 20:01:00.236036	327.7	19.5	-92.5	5.5
2025-01-13 20:01:01.391029	327.8	19.4	-92.7	1.4
2025-01-13 20:01:02.556661	328.0	19.3	-92.9	6.8
2025-01-13 20:01:03.715267	328.1	19.1	-92.6	5.6
2025-01-13 20:01:04.874714	328.2	19.0	-92.7	4.4
2025-01-13 20:01:06.032114	328.3	18.9	-92.7	6.3
2025-01-13 20:01:07.189925	328.4	18.7	-92.6	6.1
2025-01-13 20:01:08.367061	328.4	18.6	-92.7	5.2
2025-01-13 20:01:09.533858	328.5	18.5	-92.7	5.9
2025-01-13 20:01:10.693259	328.6	18.3	-92.8	4.0
2025-01-13 20:01:11.864103	328.7	18.2	-92.9	3.0
2025-01-13 20:01:13.027225	328.8	18.1	-92.7	6.1
2025-01-13 20:01:14.189092	328.9	18.0	-92.5	5.8
2025-01-13 20:01:15.344920	329.0	17.8	-92.6	3.7
2025-01-13 20:01:16.507286	329.1	17.7	-92.9	4.3
2025-01-13 20:01:17.673489	329.2	17.6	-92.9	5.1
2025-01-13 20:01:18.838876	329.3	17.4	-93.1	3.8
2025-01-13 20:01:20.003462	329.4	17.3	-93.3	3.3
2025-01-13 20:01:21.167321	329.5	17.2	-93.0	5.4
2025-01-13 20:01:22.333463	329.6	17.1	-93.3	4.5
2025-01-13 20:01:23.497521	329.7	16.9	-93.4	4.5
2025-01-13 20:01:24.657311	329.7	16.8	-93.3	3.2
2025-01-13 20:01:25.821535	329.8	16.7	-93.0	6.3
2025-01-13 20:01:26.986103	329.9	16.6	-93.0	4.4
2025-01-13 20:01:28.149917	330.0	16.5	-92.3	3.0
2025-01-13 20:01:29.310496	330.1	16.3	-92.2	11.5
2025-01-13 20:01:30.478288	330.2	16.2	-92.9	6.5
2025-01-13 20:01:31.638251	330.3	16.1	-93.1	6.4
2025-01-13 20:01:32.802201	330.3	16.0	-93.1	10.5
2025-01-13 20:01:33.972680	330.4	15.8	-92.9	3.0
2025-01-13 20:01:35.130821	330.5	15.7	-92.9	4.3
2025-01-13 20:01:36.285310	330.6	15.6	-92.7	7.2
2025-01-13 20:01:37.450188	330.7	15.5	-92.9	4.2
2025-01-13 20:01:38.616522	330.7	15.4	-92.9	4.8
2025-01-13 20:01:39.778250	330.8	15.3	-92.9	4.4
2025-01-13 20:01:40.943900	330.9	15.1	-92.9	4.8
2025-01-13 20:01:42.109163	331.0	15.0	-92.9	4.4
2025-01-13 20:01:43.271511	331.1	14.9	-93.0	6.7
2025-01-13 20:01:44.436478	331.1	14.8	-93.1	4.3
2025-01-13 20:01:45.603260	331.2	14.7	-93.2	4.0
2025-01-13 20:01:46.762888	331.3	14.6	-93.1	4.7
2025-01-13 20:01:47.958556	331.4	14.5	-92.9	3.1
#Closed at: 2025-01-13 19:52:48.025052