passes_logs/2026/01/14/XPeterburg/XPeterburg__20260114_090844_FENGYUN_3F_rec.log

#Pass ID: 20260114_090844_FENGYUN 3F
#Satellite: FENGYUN 3F
#Configuration: FENGYUN 3F
#Start time: 2026-01-14 09:08:38

#Version: 1.5.20200625
#Station: XPeterburg
#Location: 30.318091 lon 59.932769 lat
#TLE: 1 57490U 23111A   26011.96235235  .00000064  00000+0  50583-4 0  9992
#TLE: 2 57490  98.7038  84.7621 0001189 116.6105 243.5193 14.19902966126697

#Time	Az	El	Level	Level2	SNR	BER	Gain	Gain2
2026-01-14 09:08:38.93	27.38	67.54	-39.4	-41.9	3.3	8390636	96	6588
2026-01-14 09:08:39.13	27.42	67.63	-38.8	-50.6	3.6	7849182	79	19299
2026-01-14 09:08:39.33	27.46	67.72	-39.4	-42.9	3.5	8454769	96	7378
2026-01-14 09:08:39.53	27.51	67.81	-39.4	-42.1	3.3	8377578	96	6690
2026-01-14 09:08:39.73	27.55	67.90	-39.4	-41.8	3.3	8389629	96	6516
2026-01-14 09:08:39.94	27.59	67.99	-39.3	-42.7	3.6	8341472	97	7236
2026-01-14 09:08:40.14	27.63	68.08	-39.3	-42.7	3.6	8448589	97	7215
2026-01-14 09:08:40.34	27.67	68.17	-39.3	-41.5	3.4	8448589	97	6320
2026-01-14 09:08:40.54	27.72	68.26	-39.3	-41.3	3.3	8436779	97	6142
2026-01-14 09:08:40.74	27.76	68.35	-39.3	-42.7	3.6	8391757	97	7288
2026-01-14 09:08:40.94	27.80	68.44	-39.3	-42.6	3.6	8413570	97	7219
2026-01-14 09:08:41.14	27.84	68.53	-39.4	-42.0	3.4	8396507	97	6595
2026-01-14 09:08:41.34	27.89	68.63	-39.4	-41.4	3.3	8428470	97	6154
2026-01-14 09:08:41.54	27.93	68.72	-39.4	-41.3	3.3	8394470	97	6132
2026-01-14 09:08:41.75	27.98	68.81	-39.3	-42.5	3.6	8356979	97	7159
2026-01-14 09:08:41.95	28.02	68.90	-39.3	-42.2	3.5	8449413	97	6865
2026-01-14 09:08:42.15	28.07	68.99	-39.3	-41.3	3.3	8449413	97	6164
2026-01-14 09:08:42.35	28.12	69.08	-39.3	-41.1	3.3	8419086	97	6061
2026-01-14 09:08:42.55	28.16	69.17	-39.3	-42.6	3.6	8389263	97	7192
2026-01-14 09:08:42.75	28.21	69.27	-39.3	-42.4	3.6	8427314	97	7077
2026-01-14 09:08:42.95	28.26	69.36	-39.2	-41.6	3.4	8443233	96	6527
2026-01-14 09:08:43.15	28.30	69.45	-39.1	-41.1	3.3	8411716	96	6165
2026-01-14 09:08:43.35	28.35	69.54	-39.1	-41.0	3.3	8401302	96	6114
2026-01-14 09:08:43.55	28.40	69.63	-39.1	-42.4	3.6	8424625	96	7218
2026-01-14 09:08:43.75	28.45	69.72	-39.1	-41.5	3.4	8424625	96	6542
2026-01-14 09:08:43.96	28.50	69.82	-39.1	-41.0	3.3	8438014	96	6111
2026-01-14 09:08:44.16	28.55	69.91	-39.1	-41.0	3.3	8406143	96	6127
2026-01-14 09:08:44.36	28.60	70.00	-39.0	-42.2	3.6	8396026	96	7134
2026-01-14 09:08:44.56	28.65	70.09	-38.9	-41.2	3.5	8444526	96	6399
2026-01-14 09:08:44.76	28.70	70.18	-38.8	-40.0	3.3	8423778	96	5670
2026-01-14 09:08:44.96	28.76	70.28	-38.6	-39.7	3.3	8396175	95	5611
2026-01-14 09:08:45.16	28.81	70.37	-38.3	-40.4	3.6	8396278	95	6239
2026-01-14 09:08:45.36	28.86	70.46	-37.9	-39.6	3.8	8422943	94	5967
2026-01-14 09:08:45.56	28.92	70.55	-37.9	-38.5	3.7	8422943	94	5287
2026-01-14 09:08:45.76	28.97	70.64	-37.8	-38.2	3.7	8393692	94	5132
2026-01-14 09:08:45.96	29.02	70.74	-37.9	-40.0	3.7	8345523	94	6253
2026-01-14 09:08:46.17	29.08	70.83	-37.9	-40.0	3.6	8392868	94	6228
2026-01-14 09:08:46.37	29.14	70.92	-38.1	-39.5	3.6	8407527	94	5770
2026-01-14 09:08:46.57	29.19	71.02	-38.2	-39.2	3.5	8391975	94	5531
2026-01-14 09:08:46.77	29.25	71.11	-38.1	-38.9	3.5	8380725	94	5433
2026-01-14 09:08:46.97	29.31	71.20	-37.9	-39.9	3.6	8426136	94	6181
2026-01-14 09:08:47.17	29.37	71.29	-37.7	-38.8	3.9	8426136	93	5618
2026-01-14 09:08:47.37	29.42	71.39	-37.5	-37.7	3.9	8311351	93	5049
2026-01-14 09:08:47.57	29.48	71.48	-37.5	-37.7	3.9	8311351	93	5033
2026-01-14 09:08:47.77	29.54	71.57	-37.4	-37.6	4.0	8292228	93	5024
2026-01-14 09:08:47.97	29.60	71.67	-37.6	-38.0	3.9	8268630	93	5148
2026-01-14 09:08:48.18	29.67	71.76	-37.7	-38.4	3.7	8304359	93	5339
2026-01-14 09:08:48.38	29.73	71.86	-37.9	-40.2	3.7	8333221	93	6436
2026-01-14 09:08:48.58	29.79	71.95	-37.8	-39.3	3.9	8415527	93	5852
2026-01-14 09:08:48.78	29.86	72.04	-37.8	-38.5	3.7	8369842	93	5372
2026-01-14 09:08:48.98	29.92	72.14	-37.7	-38.2	3.7	8342582	93	5218
2026-01-14 09:08:49.18	29.98	72.23	-37.6	-37.8	3.8	8342582	93	5037
2026-01-14 09:08:49.38	30.05	72.32	-37.5	-39.0	3.8	8313068	93	5833
2026-01-14 09:08:49.58	30.12	72.42	-37.3	-37.8	4.2	8385337	93	5202
2026-01-14 09:08:49.78	30.18	72.51	-37.4	-37.4	4.0	8301841	93	4905
2026-01-14 09:08:49.98	30.25	72.60	-37.2	-37.1	4.1	8262210	92	4901
2026-01-14 09:08:50.18	30.32	72.70	-37.4	-37.6	4.0	8196853	92	5031
2026-01-14 09:08:50.39	30.39	72.79	-37.3	-37.4	4.1	8242355	92	4970
2026-01-14 09:08:50.59	30.46	72.89	-37.5	-37.9	3.9	8241577	92	5145
2026-01-14 09:08:50.79	30.53	72.98	-37.7	-38.3	3.8	8306980	92	5309
2026-01-14 09:08:50.99	30.60	73.07	-37.8	-40.1	3.7	8306980	92	6430
2026-01-14 09:08:51.19	30.68	73.17	-37.9	-40.1	3.9	8370220	92	6349
2026-01-14 09:08:51.39	30.75	73.26	-38.0	-39.4	3.7	8399024	92	5797
2026-01-14 09:08:51.59	30.82	73.36	-37.8	-38.7	3.7	8367427	92	5453
2026-01-14 09:08:51.79	30.90	73.45	-37.7	-39.9	3.7	8343166	92	6355
2026-01-14 09:08:51.99	30.97	73.54	-37.5	-39.4	3.7	8385646	92	6103
2026-01-14 09:08:52.19	31.05	73.64	-37.5	-38.5	4.0	8349723	92	5479
2026-01-14 09:08:52.40	31.13	73.74	-37.6	-38.2	3.9	8291473	92	5257
2026-01-14 09:08:52.60	31.21	73.83	-37.9	-39.1	3.7	8291473	92	5651
2026-01-14 09:08:52.80	31.29	73.92	-38.2	-40.9	3.6	8335006	93	6696
2026-01-14 09:08:53.00	31.37	74.02	-38.4	-40.6	3.6	8422313	93	6377
2026-01-14 09:08:53.20	31.45	74.11	-38.4	-40.0	3.5	8408420	93	5944
2026-01-14 09:08:53.40	31.53	74.21	-38.2	-39.4	3.6	8379753	93	5649
2026-01-14 09:08:53.60	31.62	74.30	-37.8	-39.6	3.7	8380222	93	6097
2026-01-14 09:08:53.80	31.70	74.40	-37.3	-37.7	4.3	8378494	93	5160
2026-01-14 09:08:54.00	31.79	74.49	-37.0	-36.8	4.5	8118289	92	4815
2026-01-14 09:08:54.20	31.87	74.59	-36.9	-36.3	4.6	8118289	92	4634
2026-01-14 09:08:54.41	31.97	74.68	-37.1	-37.0	4.3	7902431	92	4860
2026-01-14 09:08:54.61	32.06	74.78	-37.4	-37.9	4.0	7928306	92	5215
2026-01-14 09:08:54.81	32.15	74.87	-37.9	-39.2	3.8	8179641	92	5740
2026-01-14 09:08:55.01	32.24	74.97	-38.1	-40.7	3.7	8334743	93	6662
2026-01-14 09:08:55.21	32.33	75.06	-38.1	-40.3	3.8	8418228	93	6325
2026-01-14 09:08:55.41	32.42	75.16	-38.0	-39.2	3.7	8383918	93	5665
2026-01-14 09:08:55.61	32.52	75.25	-37.7	-38.4	3.9	8335430	93	5285
2026-01-14 09:08:55.81	32.61	75.35	-37.7	-38.3	4.0	8285453	93	5239
2026-01-14 09:08:56.01	32.71	75.44	-37.7	-38.3	4.0	8285453	93	5273
2026-01-14 09:08:56.21	32.81	75.54	-37.9	-38.9	3.8	8255847	93	5493
2026-01-14 09:08:56.42	32.92	75.64	-38.2	-41.2	3.7	8305652	93	6926
2026-01-14 09:08:56.62	33.02	75.73	-38.3	-41.6	3.6	8384033	93	7185
2026-01-14 09:08:56.82	33.12	75.83	-38.5	-40.9	3.5	8422794	94	6431
2026-01-14 09:08:57.02	33.23	75.92	-38.5	-40.3	3.4	8397113	94	6060
2026-01-14 09:08:57.22	33.33	76.02	-38.4	-40.2	3.5	8378757	94	6029
2026-01-14 09:08:57.42	33.44	76.11	-38.4	-41.4	3.6	8418182	94	6930
2026-01-14 09:08:57.62	33.55	76.20	-38.2	-39.8	3.7	8428550	94	5913
2026-01-14 09:08:57.82	33.66	76.30	-38.2	-39.3	3.6	8371662	94	5621
2026-01-14 09:08:58.02	33.77	76.39	-38.2	-39.3	3.6	8371662	94	5590
2026-01-14 09:08:58.23	33.89	76.49	-38.3	-40.9	3.6	8363262	94	6697
2026-01-14 09:08:58.43	34.01	76.59	-38.2	-40.0	3.7	8435749	94	6049
2026-01-14 09:08:58.63	34.12	76.68	-38.3	-39.4	3.6	8396152	94	5644
2026-01-14 09:08:58.83	34.24	76.78	-38.2	-39.4	3.6	8364383	94	5616
2026-01-14 09:08:59.03	34.36	76.87	-38.3	-41.1	3.6	8377590	94	6782
2026-01-14 09:08:59.23	34.48	76.97	-38.5	-41.0	3.6	8430690	94	6582
2026-01-14 09:08:59.43	34.61	77.06	-38.5	-40.5	3.4	8399242	94	6149
2026-01-14 09:08:59.63	34.73	77.16	-38.6	-40.6	3.4	8399242	94	6206
2026-01-14 09:08:59.83	34.86	77.25	-38.6	-41.8	3.6	8390235	94	7103
2026-01-14 09:09:00.03	34.99	77.35	-38.5	-41.3	3.7	8408351	94	6767
2026-01-14 09:09:00.24	35.13	77.45	-38.3	-39.7	3.6	8428871	94	5787
2026-01-14 09:09:00.44	35.26	77.54	-38.1	-38.8	3.6	8391632	94	5311
2026-01-14 09:09:00.64	35.40	77.64	-38.2	-40.5	3.6	8356189	94	6379
2026-01-14 09:09:00.84	35.54	77.73	-38.2	-40.3	3.7	8403842	94	6286
2026-01-14 09:09:01.04	35.68	77.83	-38.5	-40.1	3.6	8417793	94	5970
2026-01-14 09:09:01.24	35.82	77.92	-38.6	-40.1	3.4	8399631	94	5851
2026-01-14 09:09:01.44	35.97	78.02	-38.6	-40.2	3.4	8399631	94	5871
2026-01-14 09:09:01.64	36.12	78.11	-38.6	-41.4	3.6	8386596	94	6821
2026-01-14 09:09:01.84	36.27	78.21	-38.5	-40.2	3.6	8441196	94	5973
2026-01-14 09:09:02.04	36.42	78.30	-38.4	-39.2	3.5	8417427	94	5435
2026-01-14 09:09:02.25	36.58	78.40	-38.3	-39.1	3.5	8371845	94	5386
2026-01-14 09:09:02.45	36.74	78.50	-38.4	-40.6	3.6	8386001	94	6356
2026-01-14 09:09:02.65	36.90	78.59	-38.6	-40.7	3.6	8431777	94	6259
2026-01-14 09:09:02.85	37.06	78.69	-38.7	-40.3	3.4	8409427	94	5920
2026-01-14 09:09:03.05	37.23	78.78	-38.9	-40.8	3.3	8409427	94	6101
2026-01-14 09:09:03.25	37.40	78.88	-38.9	-42.1	3.6	8395912	94	7099
2026-01-14 09:09:03.45	37.57	78.97	-38.9	-41.8	3.6	8414932	94	6922
2026-01-14 09:09:03.65	37.74	79.07	-38.8	-40.8	3.4	8438392	94	6153
2026-01-14 09:09:03.85	37.92	79.16	-38.9	-40.7	3.3	8395317	94	6062
2026-01-14 09:09:04.05	38.10	79.26	-39.0	-42.4	3.6	8382122	94	7303
2026-01-14 09:09:04.25	38.29	79.35	-39.0	-42.5	3.6	8425712	94	7360
2026-01-14 09:09:04.46	38.48	79.45	-39.4	-42.1	3.4	8427703	95	6715
2026-01-14 09:09:04.66	38.67	79.54	-39.5	-42.0	3.3	8407836	95	6555
2026-01-14 09:09:04.86	38.87	79.64	-39.5	-41.7	3.3	8407836	96	6279
2026-01-14 09:09:05.06	39.07	79.73	-39.6	-43.2	3.6	8406692	96	7480
2026-01-14 09:09:05.26	39.27	79.83	-39.5	-42.3	3.4	8442592	96	6789
2026-01-14 09:09:05.46	39.48	79.92	-39.5	-41.4	3.3	8426708	96	6153
2026-01-14 09:09:05.66	39.69	80.01	-39.3	-41.1	3.3	8398384	96	6036
2026-01-14 09:09:05.86	39.90	80.11	-39.3	-42.3	3.6	8398715	96	6976
2026-01-14 09:09:06.06	40.12	80.20	-39.2	-41.7	3.5	8439743	96	6562
2026-01-14 09:09:06.26	40.34	80.29	-39.2	-41.0	3.3	8407665	96	6034
2026-01-14 09:09:06.47	40.58	80.39	-39.2	-41.0	3.3	8407665	96	6032
2026-01-14 09:09:06.67	40.81	80.49	-39.3	-42.5	3.6	8388816	96	7167
2026-01-14 09:09:06.87	41.05	80.58	-39.2	-42.2	3.6	8430919	96	6923
2026-01-14 09:09:07.07	41.29	80.67	-39.2	-41.1	3.4	8436481	96	6161
2026-01-14 09:09:07.27	41.53	80.77	-39.1	-40.5	3.3	8401519	96	5776
2026-01-14 09:09:07.47	41.78	80.86	-39.0	-41.7	3.6	8396072	96	6724
2026-01-14 09:09:07.67	42.04	80.95	-38.9	-41.3	3.6	8431205	96	6491
2026-01-14 09:09:07.87	42.30	81.04	-38.9	-40.2	3.4	8429603	96	5686
2026-01-14 09:09:08.07	42.57	81.14	-39.0	-40.3	3.3	8393657	96	5702
2026-01-14 09:09:08.27	42.84	81.23	-38.9	-41.6	3.6	8387409	96	6658
2026-01-14 09:09:08.48	43.13	81.33	-38.9	-41.4	3.6	8387409	96	6549
2026-01-14 09:09:08.68	43.42	81.42	-38.8	-40.1	3.5	8432441	96	5712
2026-01-14 09:09:08.88	43.71	81.51	-38.7	-39.8	3.4	8421272	95	5564
2026-01-14 09:09:09.08	44.01	81.60	-38.8	-39.9	3.5	8392032	95	5596
2026-01-14 09:09:09.28	44.31	81.69	-38.8	-41.4	3.6	8403076	95	6643
2026-01-14 09:09:09.48	44.62	81.78	-38.9	-40.9	3.5	8432235	95	6179
2026-01-14 09:09:09.68	44.94	81.87	-39.1	-41.0	3.4	8408683	95	6138
2026-01-14 09:09:09.88	45.26	81.97	-39.3	-41.5	3.3	8391689	95	6347
2026-01-14 09:09:10.08	45.60	82.06	-39.3	-43.2	3.6	8417175	95	7707
2026-01-14 09:09:10.28	45.94	82.15	-39.4	-42.8	3.5	8417175	95	7339
2026-01-14 09:09:10.49	46.30	82.24	-39.4	-42.1	3.3	8438575	95	6722
2026-01-14 09:09:10.69	46.66	82.33	-39.5	-42.3	3.3	8414726	95	6790
2026-01-14 09:09:10.89	47.03	82.42	-39.5	-43.8	3.6	8389057	95	8089
2026-01-14 09:09:11.09	47.40	82.51	-39.4	-43.2	3.6	8427497	96	7588
2026-01-14 09:09:11.29	47.78	82.60	-39.4	-42.0	3.4	8379695	96	6657
2026-01-14 09:09:11.49	48.18	82.69	-39.4	-41.6	3.3	8406532	96	6369
2026-01-14 09:09:11.69	48.58	82.78	-39.4	-41.7	3.3	8393188	96	6382
2026-01-14 09:09:11.89	48.99	82.86	-39.4	-42.5	3.6	8393188	97	7053
2026-01-14 09:09:12.09	49.42	82.95	-39.2	-41.7	3.4	8378322	96	6572
2026-01-14 09:09:12.29	49.85	83.04	-39.1	-40.6	3.3	8433483	96	5857
2026-01-14 09:09:12.49	50.29	83.13	-39.1	-40.7	3.3	8405147	96	5922
2026-01-14 09:09:12.70	50.77	83.22	-39.0	-41.7	3.6	8397468	96	6743
2026-01-14 09:09:12.90	51.24	83.30	-39.0	-41.4	3.5	8449241	96	6478
2026-01-14 09:09:13.10	51.72	83.39	-38.8	-40.0	3.4	8429729	96	5606
2026-01-14 09:09:13.30	52.22	83.47	-38.7	-39.8	3.4	8402481	95	5606
2026-01-14 09:09:13.50	52.72	83.56	-38.4	-40.5	3.7	8403293	95	6241
2026-01-14 09:09:13.70	53.24	83.64	-38.4	-39.9	3.9	8403293	95	5864
2026-01-14 09:09:13.90	53.78	83.73	-38.3	-39.1	3.7	8418273	95	5344
2026-01-14 09:09:14.10	54.33	83.81	-38.5	-39.4	3.6	8371501	95	5460
2026-01-14 09:09:14.30	54.89	83.89	-38.8	-41.7	3.6	8368217	95	6901
2026-01-14 09:09:14.51	55.50	83.98	-39.1	-42.8	3.6	8420219	95	7535
2026-01-14 09:09:14.71	56.10	84.06	-39.2	-42.1	3.4	8433414	95	6834
2026-01-14 09:09:14.91	56.71	84.14	-39.1	-41.3	3.3	8416065	95	6353
2026-01-14 09:09:15.11	57.34	84.22	-39.0	-41.1	3.3	8384960	95	6225
2026-01-14 09:09:15.31	57.99	84.30	-39.0	-42.3	3.6	8384960	95	7181
2026-01-14 09:09:15.51	58.65	84.38	-39.0	-41.3	3.4	8435588	95	6472
2026-01-14 09:09:15.71	59.34	84.46	-39.1	-41.1	3.3	8418708	95	6223
2026-01-14 09:09:15.91	60.04	84.54	-39.2	-41.7	3.3	8388027	95	6543
2026-01-14 09:09:16.11	60.77	84.61	-39.4	-43.5	3.6	8401290	95	7949
2026-01-14 09:09:16.31	61.51	84.69	-39.4	-43.0	3.5	8435817	95	7431
2026-01-14 09:09:16.52	62.32	84.77	-39.2	-41.5	3.3	8418102	95	6435
2026-01-14 09:09:16.72	63.11	84.84	-39.1	-41.3	3.3	8395935	95	6281
2026-01-14 09:09:16.92	63.92	84.91	-38.8	-41.7	3.6	8395935	95	6862
2026-01-14 09:09:17.12	64.76	84.98	-38.8	-41.2	3.7	8400478	95	6502
2026-01-14 09:09:17.32	65.62	85.05	-38.7	-40.2	3.5	8432247	95	5821
2026-01-14 09:09:17.52	66.51	85.12	-38.6	-39.7	3.5	8392044	95	5592
2026-01-14 09:09:17.72	67.42	85.19	-38.8	-41.7	3.6	8382614	95	6889
2026-01-14 09:09:17.92	68.35	85.26	-38.9	-41.9	3.6	8415229	95	6912
2026-01-14 09:09:18.12	69.32	85.32	-38.9	-40.6	3.5	8428070	95	6028
2026-01-14 09:09:18.32	70.31	85.39	-38.7	-40.0	3.5	8400970	95	5712
2026-01-14 09:09:18.53	71.38	85.46	-38.6	-41.1	3.6	8378356	95	6500
2026-01-14 09:09:18.73	72.43	85.52	-38.5	-40.7	3.7	8431823	95	6323
2026-01-14 09:09:18.93	73.51	85.58	-38.5	-39.8	3.7	8399265	95	5681
2026-01-14 09:09:19.13	74.61	85.63	-38.5	-39.3	3.6	8399265	95	5402
2026-01-14 09:09:19.33	75.75	85.69	-38.6	-39.6	3.6	8363925	95	5498
2026-01-14 09:09:19.53	76.92	85.75	-38.7	-41.2	3.6	8371593	95	6545
2026-01-14 09:09:19.73	78.11	85.80	-38.6	-40.1	3.7	8420516	95	5809
2026-01-14 09:09:19.93	79.34	85.85	-38.6	-39.6	3.6	8388633	95	5518
2026-01-14 09:09:20.13	80.60	85.90	-38.7	-39.8	3.6	8360424	95	5616
2026-01-14 09:09:20.33	81.88	85.95	-38.8	-41.5	3.6	8410663	95	6742
2026-01-14 09:09:20.53	83.20	85.99	-39.0	-41.5	3.6	8425884	95	6598
2026-01-14 09:09:20.74	84.61	86.04	-38.9	-40.6	3.5	8425884	95	5977
2026-01-14 09:09:20.94	85.99	86.08	-38.9	-40.3	3.5	8407321	95	5777
2026-01-14 09:09:21.14	87.39	86.12	-38.8	-41.6	3.6	8375896	95	6737
2026-01-14 09:09:21.34	88.83	86.15	-38.8	-41.3	3.7	8411132	95	6507
2026-01-14 09:09:21.54	90.28	86.19	-39.1	-41.0	3.5	8415046	95	6158
2026-01-14 09:09:21.74	91.77	86.22	-39.2	-41.2	3.4	8395065	95	6185
2026-01-14 09:09:21.94	93.27	86.25	-39.3	-42.9	3.6	8389869	95	7480
2026-01-14 09:09:22.14	94.80	86.27	-39.4	-43.3	3.6	8425815	95	7679
2026-01-14 09:09:22.34	96.35	86.30	-39.5	-42.1	3.4	8425815	96	6656
2026-01-14 09:09:22.54	97.92	86.32	-39.5	-41.8	3.3	8430622	96	6396
2026-01-14 09:09:22.74	99.51	86.33	-39.5	-41.9	3.3	8390888	96	6432
2026-01-14 09:09:22.95	101.18	86.35	-39.4	-43.0	3.6	8410034	96	7368
2026-01-14 09:09:23.15	102.80	86.36	-39.5	-42.2	3.4	8445190	96	6739
2026-01-14 09:09:23.35	104.42	86.37	-39.5	-41.7	3.3	8406635	96	6324
2026-01-14 09:09:23.55	106.04	86.38	-39.5	-41.7	3.3	8396839	96	6318
2026-01-14 09:09:23.75	107.68	86.38	-39.5	-43.3	3.6	8413375	96	7565
2026-01-14 09:09:23.95	109.31	86.38	-39.4	-42.4	3.5	8448669	96	6915
2026-01-14 09:09:24.15	110.94	86.38	-39.3	-41.2	3.3	8448669	96	6130
2026-01-14 09:09:24.35	112.57	86.37	-39.2	-40.6	3.3	8403373	96	5801
2026-01-14 09:09:24.55	114.19	86.36	-38.9	-41.0	3.6	8389034	96	6304
2026-01-14 09:09:24.75	115.80	86.35	-38.9	-40.9	3.7	8417335	96	6205
2026-01-14 09:09:24.96	117.49	86.34	-38.9	-40.0	3.5	8421112	96	5568
2026-01-14 09:09:25.16	119.07	86.32	-39.0	-40.2	3.4	8383975	96	5591
2026-01-14 09:09:25.36	120.65	86.30	-39.2	-42.2	3.6	8382270	96	6914
2026-01-14 09:09:25.56	122.20	86.28	-39.3	-42.6	3.6	8438243	96	7199
2026-01-14 09:09:25.76	123.73	86.25	-39.3	-41.5	3.4	8438243	96	6320
2026-01-14 09:09:25.96	125.25	86.22	-39.3	-41.0	3.3	8412242	96	5976
2026-01-14 09:09:26.16	126.73	86.19	-39.1	-40.5	3.3	8401107	96	5748
2026-01-14 09:09:26.36	128.20	86.16	-38.8	-40.9	3.6	8407939	96	6261
2026-01-14 09:09:26.56	129.64	86.13	-38.8	-40.4	3.7	8435794	95	5901
2026-01-14 09:09:26.76	131.05	86.09	-38.8	-39.7	3.6	8396438	95	5479
2026-01-14 09:09:26.97	132.50	86.05	-39.0	-40.3	3.5	8364440	95	5748
2026-01-14 09:09:27.17	133.85	86.00	-39.2	-42.7	3.6	8414497	95	7304
2026-01-14 09:09:27.37	135.18	85.96	-39.3	-42.3	3.5	8441070	95	6953
2026-01-14 09:09:27.57	136.47	85.91	-39.4	-41.8	3.3	8441070	95	6522
2026-01-14 09:09:27.77	137.73	85.86	-39.4	-41.8	3.3	8415767	95	6513
2026-01-14 09:09:27.97	138.97	85.81	-39.2	-42.6	3.6	8391185	95	7262
2026-01-14 09:09:28.17	140.17	85.76	-39.2	-41.9	3.5	8427726	95	6744
2026-01-14 09:09:28.37	141.34	85.70	-39.1	-41.0	3.4	8443359	95	6074
2026-01-14 09:09:28.58	142.54	85.64	-39.4	-41.7	3.3	8400650	95	6402
2026-01-14 09:09:28.78	143.65	85.59	-39.3	-42.9	3.6	8393474	95	7460
2026-01-14 09:09:28.98	144.74	85.53	-39.3	-42.4	3.6	8443336	96	6980
2026-01-14 09:09:29.18	145.79	85.47	-39.1	-40.6	3.4	8364635	96	5838
2026-01-14 09:09:29.38	146.82	85.40	-38.9	-39.6	3.4	8397560	96	5347
2026-01-14 09:09:29.58	147.81	85.34	-38.7	-41.0	3.6	8397560	95	6416
2026-01-14 09:09:29.78	148.78	85.27	-38.6	-40.7	3.7	8351051	95	6238
2026-01-14 09:09:29.98	149.73	85.21	-38.5	-39.4	3.8	8420608	95	5489
2026-01-14 09:09:30.18	150.64	85.14	-38.6	-39.3	3.7	8362220	95	5332
2026-01-14 09:09:30.38	151.54	85.07	-38.8	-39.9	3.5	8361190	95	5592
2026-01-14 09:09:30.58	152.40	85.00	-38.8	-41.3	3.6	8401565	95	6569
2026-01-14 09:09:30.79	153.29	84.92	-38.8	-40.5	3.6	8427360	95	6016
2026-01-14 09:09:30.99	154.10	84.85	-38.5	-39.1	3.7	8380496	95	5264
2026-01-14 09:09:31.19	154.90	84.78	-38.5	-39.0	3.7	8380496	95	5195
2026-01-14 09:09:31.39	155.67	84.70	-38.5	-39.0	3.7	8349987	95	5194
2026-01-14 09:09:31.59	156.42	84.63	-38.6	-39.2	3.7	8342903	95	5303
2026-01-14 09:09:31.79	157.15	84.55	-38.6	-40.7	3.6	8365711	95	6283
2026-01-14 09:09:31.99	157.86	84.47	-38.6	-39.9	3.7	8423080	95	5714
2026-01-14 09:09:32.19	158.55	84.40	-38.5	-39.0	3.7	8376091	95	5227
2026-01-14 09:09:32.39	159.22	84.32	-38.4	-38.5	3.7	8357894	95	5030
2026-01-14 09:09:32.60	159.90	84.23	-37.8	-37.7	4.0	8306236	94	4858
2026-01-14 09:09:32.80	160.53	84.15	-38.0	-38.3	3.9	8272773	94	5057
2026-01-14 09:09:33.00	161.15	84.07	-38.2	-38.7	3.7	8272773	94	5255
2026-01-14 09:09:33.20	161.75	83.99	-38.5	-41.1	3.6	8320907	94	6660
2026-01-14 09:09:33.40	162.33	83.91	-38.8	-41.4	3.6	8428081	94	6664
2026-01-14 09:09:33.60	162.90	83.83	-38.9	-41.0	3.4	8420162	94	6303
2026-01-14 09:09:33.80	163.45	83.74	-38.9	-41.1	3.4	8392833	94	6294
2026-01-14 09:09:34.00	163.99	83.66	-39.0	-42.5	3.6	8380908	94	7395
2026-01-14 09:09:34.20	164.51	83.58	-38.9	-42.1	3.6	8439559	94	7132
2026-01-14 09:09:34.40	165.02	83.49	-38.8	-40.7	3.4	8415206	94	6129
2026-01-14 09:09:34.61	165.54	83.40	-38.8	-40.6	3.3	8415206	94	6055
2026-01-14 09:09:34.81	166.03	83.32	-38.8	-42.0	3.6	8378677	94	7139
2026-01-14 09:09:35.01	166.50	83.23	-38.8	-42.3	3.6	8401611	94	7294
2026-01-14 09:09:35.21	166.96	83.14	-39.2	-41.7	3.4	8437602	95	6573
2026-01-14 09:09:35.41	167.41	83.06	-39.2	-41.1	3.3	8411258	95	6170
2026-01-14 09:09:35.61	167.84	82.97	-39.0	-40.6	3.3	8393955	95	5905
2026-01-14 09:09:35.81	168.27	82.88	-38.8	-41.4	3.6	8421283	95	6613
2026-01-14 09:09:36.01	168.68	82.79	-38.6	-39.8	3.7	8412689	95	5671
2026-01-14 09:09:36.21	169.09	82.71	-38.6	-39.2	3.6	8370059	95	5285
2026-01-14 09:09:36.41	169.48	82.62	-38.3	-38.6	3.7	8370059	95	5091
2026-01-14 09:09:36.62	169.89	82.52	-38.7	-39.6	3.5	8355583	95	5454
2026-01-14 09:09:36.82	170.26	82.43	-38.8	-39.9	3.5	8353591	95	5633
2026-01-14 09:09:37.02	170.63	82.34	-38.8	-40.0	3.5	8380245	95	5648
2026-01-14 09:09:37.22	170.99	82.25	-38.8	-41.6	3.6	8401393	95	6747
2026-01-14 09:09:37.42	171.34	82.16	-38.8	-40.7	3.7	8431274	95	6183
2026-01-14 09:09:37.62	171.68	82.07	-38.7	-39.9	3.5	8414726	95	5648
2026-01-14 09:09:37.82	172.02	81.98	-38.6	-39.4	3.6	8384204	95	5398
2026-01-14 09:09:38.02	172.34	81.89	-38.6	-40.7	3.7	8397445	95	6267
2026-01-14 09:09:38.22	172.66	81.80	-38.4	-39.6	3.8	8419441	95	5657
2026-01-14 09:09:38.42	172.97	81.71	-38.5	-39.1	3.6	8419441	95	5295
2026-01-14 09:09:38.63	173.30	81.61	-38.5	-39.0	3.6	8371639	95	5212
2026-01-14 09:09:38.83	173.59	81.52	-38.6	-40.7	3.6	8349140	95	6299
2026-01-14 09:09:39.03	173.89	81.43	-38.6	-40.7	3.7	8412300	95	6259
2026-01-14 09:09:39.23	174.17	81.34	-38.5	-39.2	3.7	8408981	95	5363
2026-01-14 09:09:39.43	174.45	81.25	-38.6	-39.3	3.6	8371879	95	5327
2026-01-14 09:09:39.63	174.73	81.15	-38.5	-40.4	3.6	8378929	95	6149
2026-01-14 09:09:39.83	174.99	81.06	-38.3	-39.7	3.7	8418502	95	5831
2026-01-14 09:09:40.03	175.26	80.97	-38.4	-39.0	3.7	8418502	95	5276
2026-01-14 09:09:40.23	175.51	80.88	-38.0	-38.2	3.7	8392604	94	5054
2026-01-14 09:09:40.44	175.78	80.78	-38.2	-38.7	3.6	8339515	94	5226
2026-01-14 09:09:40.64	176.03	80.68	-38.1	-40.0	3.7	8370140	94	6099
2026-01-14 09:09:40.84	176.27	80.59	-38.3	-39.6	3.7	8420448	94	5736
2026-01-14 09:09:41.04	176.50	80.50	-38.5	-39.6	3.5	8384742	94	5577
2026-01-14 09:09:41.24	176.74	80.40	-38.5	-39.7	3.5	8371959	94	5637
2026-01-14 09:09:41.44	176.96	80.31	-38.5	-41.2	3.6	8397010	94	6664
2026-01-14 09:09:41.64	177.19	80.22	-38.5	-40.6	3.6	8433013	94	6285
2026-01-14 09:09:41.84	177.41	80.12	-38.4	-39.4	3.5	8433013	94	5539
2026-01-14 09:09:42.04	177.62	80.03	-38.3	-39.1	3.5	8388336	94	5373
2026-01-14 09:09:42.25	177.84	79.93	-38.4	-40.9	3.6	8378322	94	6512
2026-01-14 09:09:42.45	178.05	79.84	-38.5	-40.7	3.7	8417415	94	6376
2026-01-14 09:09:42.65	178.25	79.74	-38.6	-40.2	3.4	8423366	94	5908
2026-01-14 09:09:42.85	178.45	79.65	-38.7	-40.1	3.4	8398464	94	5796
2026-01-14 09:09:43.05	178.65	79.55	-38.7	-41.7	3.6	8384445	94	6947
2026-01-14 09:09:43.25	178.84	79.46	-38.8	-41.8	3.6	8443004	94	7012
2026-01-14 09:09:43.45	179.03	79.37	-38.7	-40.7	3.4	8443004	94	6149
2026-01-14 09:09:43.65	179.21	79.27	-38.5	-39.7	3.4	8445716	94	5638
2026-01-14 09:09:43.85	179.39	79.18	-38.5	-39.5	3.5	8404117	94	5544
2026-01-14 09:09:44.05	179.57	79.08	-38.2	-40.2	3.6	8397411	94	6146
2026-01-14 09:09:44.26	179.76	78.98	-38.2	-39.4	3.7	8416007	94	5610
2026-01-14 09:09:44.46	179.93	78.89	-38.2	-38.7	3.6	8404163	94	5210
2026-01-14 09:09:44.66	180.10	78.79	-38.3	-39.1	3.5	8378402	94	5383
2026-01-14 09:09:44.86	180.26	78.70	-38.5	-41.1	3.6	8402561	94	6615
2026-01-14 09:09:45.06	180.43	78.60	-38.6	-40.8	3.6	8402561	94	6357
2026-01-14 09:09:45.26	180.59	78.51	-38.6	-40.1	3.4	8434604	94	5853
2026-01-14 09:09:45.46	180.75	78.41	-38.5	-39.6	3.4	8402309	94	5618
2026-01-14 09:09:45.66	180.90	78.32	-38.3	-40.4	3.6	8374225	94	6300
2026-01-14 09:09:45.87	181.06	78.22	-38.1	-39.6	3.8	8419601	94	5843
2026-01-14 09:09:46.07	181.21	78.12	-38.1	-38.6	3.7	8416786	94	5225
2026-01-14 09:09:46.27	181.36	78.03	-37.8	-37.8	3.7	8364509	94	4911
2026-01-14 09:09:46.47	181.51	77.93	-37.8	-37.8	3.7	8352756	94	4888
2026-01-14 09:09:46.67	181.65	77.84	-37.8	-37.7	3.7	8342205	94	4846
2026-01-14 09:09:46.87	181.79	77.74	-37.8	-37.7	3.7	8342205	94	4847
2026-01-14 09:09:47.07	181.93	77.65	-37.9	-38.1	3.7	8350330	94	4998
2026-01-14 09:09:47.27	182.07	77.55	-37.8	-37.5	3.7	8350330	94	4795
2026-01-14 09:09:47.47	182.20	77.46	-37.7	-37.8	3.8	8350776	93	4975
2026-01-14 09:09:47.67	182.33	77.36	-37.6	-37.6	3.9	8313194	93	4910
2026-01-14 09:09:47.88	182.47	77.26	-37.6	-37.6	3.9	8292583	93	4920
2026-01-14 09:09:48.08	182.60	77.17	-37.7	-37.8	3.8	8286952	93	4998
2026-01-14 09:09:48.28	182.72	77.07	-37.7	-37.8	3.8	8335407	93	4990
2026-01-14 09:09:48.48	182.85	76.98	-37.8	-39.7	3.7	8328025	93	6125
2026-01-14 09:09:48.68	182.97	76.88	-37.7	-39.2	3.7	8413146	93	5904
2026-01-14 09:09:48.88	183.09	76.79	-37.7	-38.5	3.8	8413146	93	5357
2026-01-14 09:09:49.08	183.21	76.69	-37.5	-37.5	3.9	8357666	93	4923
2026-01-14 09:09:49.28	183.33	76.60	-37.5	-37.5	3.9	8305767	93	4918
2026-01-14 09:09:49.48	183.44	76.50	-37.6	-37.6	3.9	8295616	93	4946
2026-01-14 09:09:49.69	183.56	76.40	-37.7	-38.0	3.8	8284641	93	5123
2026-01-14 09:09:49.89	183.68	76.31	-37.8	-38.4	3.7	8314567	93	5264
2026-01-14 09:09:50.09	183.79	76.21	-37.8	-39.8	3.7	8350708	93	6213
2026-01-14 09:09:50.29	183.90	76.12	-37.7	-39.4	4.0	8405181	93	5963
2026-01-14 09:09:50.49	184.00	76.02	-37.7	-38.5	3.8	8350582	93	5381
2026-01-14 09:09:50.69	184.11	75.93	-37.7	-38.2	3.8	8350582	93	5244
2026-01-14 09:09:50.89	184.22	75.83	-37.6	-38.0	3.9	8311614	93	5144
2026-01-14 09:09:51.09	184.32	75.74	-37.5	-37.7	4.0	8304862	93	5045
2026-01-14 09:09:51.29	184.42	75.64	-37.5	-37.7	4.0	8259372	93	5073
2026-01-14 09:09:51.49	184.52	75.55	-37.5	-37.7	4.0	8267120	93	5056
2026-01-14 09:09:51.70	184.62	75.45	-37.5	-37.7	4.0	8258045	93	5081
2026-01-14 09:09:51.90	184.72	75.35	-37.2	-37.6	4.1	8236335	92	5157
2026-01-14 09:09:52.10	184.82	75.26	-37.0	-37.1	4.3	8153743	92	4953
2026-01-14 09:09:52.30	184.91	75.16	-36.8	-36.3	4.5	8153743	92	4695
2026-01-14 09:09:52.50	185.01	75.07	-36.6	-36.5	4.7	7944900	91	4868
2026-01-14 09:09:52.70	185.10	74.97	-36.4	-35.9	5.0	7742774	91	4637
2026-01-14 09:09:52.90	185.19	74.88	-36.3	-35.8	5.1	7408081	91	4611
2026-01-14 09:09:53.10	185.28	74.78	-36.4	-35.9	5.0	7335788	91	4635
2026-01-14 09:09:53.30	185.37	74.69	-36.6	-36.4	4.8	7406066	91	4799
2026-01-14 09:09:53.50	185.46	74.59	-36.6	-36.5	4.7	7594745	91	4832
2026-01-14 09:09:53.71	185.55	74.49	-36.7	-36.5	4.7	7688198	91	4847
2026-01-14 09:09:53.91	185.64	74.40	-36.7	-36.6	4.7	7688198	91	4869
2026-01-14 09:09:54.11	185.72	74.31	-36.6	-36.4	4.7	7686641	91	4811
2026-01-14 09:09:54.31	185.81	74.21	-36.6	-36.5	4.7	7700466	91	4821
2026-01-14 09:09:54.51	185.89	74.12	-36.7	-36.6	4.6	7714668	91	4849
2026-01-14 09:09:54.71	185.97	74.02	-36.7	-36.6	4.6	7775527	91	4877
2026-01-14 09:09:54.91	186.05	73.93	-36.7	-36.7	4.5	7833881	91	4921
2026-01-14 09:09:55.11	186.13	73.83	-36.9	-37.1	4.4	7911918	91	5051
2026-01-14 09:09:55.31	186.21	73.74	-37.0	-37.5	4.2	8056915	91	5180
2026-01-14 09:09:55.51	186.29	73.64	-37.0	-37.4	4.2	8146625	91	5163
2026-01-14 09:09:55.71	186.36	73.55	-36.9	-37.3	4.3	8146625	91	5106
2026-01-14 09:09:55.92	186.44	73.45	-36.9	-37.1	4.3	8132240	91	5043
2026-01-14 09:09:56.12	186.52	73.36	-36.9	-37.0	4.3	8108905	91	4998
2026-01-14 09:09:56.32	186.59	73.26	-36.9	-37.0	4.3	8058174	91	4995
2026-01-14 09:09:56.52	186.67	73.17	-36.8	-36.7	4.4	8043514	91	4875
2026-01-14 09:09:56.72	186.74	73.08	-36.9	-37.0	4.3	7997817	91	4975
2026-01-14 09:09:56.92	186.81	72.98	-36.9	-37.0	4.3	8046077	91	4983
2026-01-14 09:09:57.12	186.88	72.89	-36.9	-37.2	4.3	8082023	91	5053
2026-01-14 09:09:57.32	186.95	72.79	-36.9	-37.2	4.3	8093593	91	5060
2026-01-14 09:09:57.53	187.02	72.70	-37.0	-37.2	4.2	8114318	91	5083
2026-01-14 09:09:57.73	187.09	72.60	-37.0	-37.3	4.2	8114318	91	5109
2026-01-14 09:09:57.93	187.16	72.51	-37.0	-37.4	4.1	8141029	91	5154
2026-01-14 09:09:58.13	187.23	72.41	-37.0	-37.3	4.2	8154201	91	5114
2026-01-14 09:09:58.33	187.29	72.32	-37.0	-37.4	4.2	8146144	91	5125
2026-01-14 09:09:58.53	187.36	72.23	-36.9	-37.1	4.3	8148708	91	5034
2026-01-14 09:09:58.73	187.42	72.13	-36.9	-37.1	4.3	8094635	91	5055
2026-01-14 09:09:58.93	187.49	72.04	-37.0	-37.4	4.2	8122547	91	5140
2026-01-14 09:09:59.13	187.55	71.95	-37.0	-37.4	4.2	8172409	91	5129
2026-01-14 09:09:59.33	187.61	71.85	-37.1	-37.7	4.1	8172409	91	5268
2026-01-14 09:09:59.53	187.67	71.76	-37.1	-37.8	4.0	8185981	91	5315
2026-01-14 09:09:59.73	187.74	71.67	-37.2	-37.9	4.0	8239551	91	5331
2026-01-14 09:09:59.94	187.80	71.57	-37.1	-37.8	4.0	8247608	91	5311
2026-01-14 09:10:00.14	187.86	71.48	-37.2	-37.9	4.0	8263046	91	5338
2026-01-14 09:10:00.34	187.92	71.39	-37.1	-37.5	4.0	8265506	91	5165
2026-01-14 09:10:00.54	187.98	71.29	-37.0	-37.5	4.1	8247402	91	5177
2026-01-14 09:10:00.74	188.04	71.20	-37.0	-37.2	4.1	8219856	91	5059
2026-01-14 09:10:00.94	188.09	71.11	-37.0	-37.4	4.1	8188854	91	5142
2026-01-14 09:10:01.14	188.15	71.01	-37.0	-37.3	4.1	8188854	91	5100
2026-01-14 09:10:01.34	188.21	70.92	-37.1	-37.5	4.0	8222316	91	5164
2026-01-14 09:10:01.54	188.26	70.83	-37.1	-37.5	4.0	8241943	91	5174
2026-01-14 09:10:01.74	188.32	70.74	-37.1	-37.7	3.9	8259841	91	5243
2026-01-14 09:10:01.95	188.38	70.64	-37.2	-37.8	3.9	8280773	91	5287
2026-01-14 09:10:02.15	188.43	70.55	-37.4	-38.5	3.8	8299186	91	5549
2026-01-14 09:10:02.35	188.48	70.46	-38.8	-42.6	3.6	8370437	94	7610

#Closed at: 2026-01-14 09:10:02