passes_logs/2026/01/14/XPeterburg/XPeterburg__20260114_190121_FENGYUN_3F_rec.log

#Pass ID: 20260114_190121_FENGYUN 3F
#Satellite: FENGYUN 3F
#Configuration: FENGYUN 3F
#Start time: 2026-01-14 19:01:17

#Version: 1.5.20200625
#Station: XPeterburg
#Location: 30.318091 lon 59.932769 lat
#TLE: 1 57490U 23111A   26013.93542985  .00000049  00000+0  43690-4 0  9998
#TLE: 2 57490  98.7035  86.7025 0001232 115.6620 244.4684 14.19903231126976

#Time	Az	El	Level	Level2	SNR	BER	Gain	Gain2
2026-01-14 19:01:17.98	134.42	68.41	-39.0	-41.1	3.3	8390258	96	6269
2026-01-14 19:01:18.19	134.31	68.50	-38.9	-48.6	3.6	8086257	82	15039
2026-01-14 19:01:18.39	134.20	68.58	-38.6	-41.9	3.5	8445510	94	7218
2026-01-14 19:01:18.59	134.09	68.66	-38.6	-41.0	3.3	8423458	94	6505
2026-01-14 19:01:18.79	133.98	68.75	-38.5	-40.7	3.3	8388130	94	6365
2026-01-14 19:01:18.99	133.87	68.83	-38.4	-41.9	3.6	8407379	94	7307
2026-01-14 19:01:19.19	133.76	68.92	-38.4	-41.5	3.6	8436092	94	7009
2026-01-14 19:01:19.39	133.65	69.00	-38.3	-40.3	3.4	8436092	94	6180
2026-01-14 19:01:19.59	133.53	69.08	-38.2	-39.8	3.3	8422210	94	5875
2026-01-14 19:01:19.79	133.42	69.17	-38.2	-41.0	3.6	8389801	94	6814
2026-01-14 19:01:19.99	133.30	69.25	-38.1	-40.9	3.6	8421752	94	6750
2026-01-14 19:01:20.20	133.18	69.34	-38.0	-39.6	3.5	8432052	94	5879
2026-01-14 19:01:20.40	133.06	69.42	-38.0	-38.9	3.5	8400604	94	5502
2026-01-14 19:01:20.60	132.94	69.51	-37.9	-38.6	3.5	8378116	94	5362
2026-01-14 19:01:20.80	132.82	69.59	-37.9	-40.0	3.6	8413410	94	6275
2026-01-14 19:01:21.00	132.70	69.67	-37.8	-38.9	3.7	8405937	94	5630
2026-01-14 19:01:21.20	132.58	69.76	-37.9	-39.1	3.6	8405937	93	5667
2026-01-14 19:01:21.40	132.45	69.84	-37.7	-38.6	3.6	8377235	93	5454
2026-01-14 19:01:21.60	132.33	69.92	-37.6	-38.2	3.7	8361923	93	5295
2026-01-14 19:01:21.80	132.20	70.01	-37.6	-38.1	3.7	8336929	93	5241
2026-01-14 19:01:22.00	132.08	70.09	-37.5	-38.0	3.8	8337673	93	5217
2026-01-14 19:01:22.21	131.94	70.18	-37.6	-38.2	3.7	8336139	93	5298
2026-01-14 19:01:22.41	131.81	70.26	-37.6	-39.7	3.7	8357505	93	6287
2026-01-14 19:01:22.61	131.68	70.35	-37.7	-39.9	3.8	8432018	93	6309
2026-01-14 19:01:22.81	131.55	70.43	-37.8	-39.2	3.6	8432018	93	5794
2026-01-14 19:01:23.01	131.42	70.51	-37.9	-39.1	3.6	8387592	93	5670
2026-01-14 19:01:23.21	131.28	70.60	-37.7	-40.0	3.7	8371513	93	6430
2026-01-14 19:01:23.41	131.15	70.68	-37.5	-39.4	3.7	8399631	93	6110
2026-01-14 19:01:23.61	131.01	70.76	-37.5	-38.1	3.9	8387901	93	5321
2026-01-14 19:01:23.81	130.87	70.85	-37.3	-37.4	3.9	8324237	93	4978
2026-01-14 19:01:24.02	130.73	70.94	-37.4	-37.5	3.9	8280200	93	5009
2026-01-14 19:01:24.22	130.59	71.02	-37.5	-37.9	3.9	8292915	93	5179
2026-01-14 19:01:24.42	130.44	71.10	-37.5	-38.0	3.8	8292915	93	5216
2026-01-14 19:01:24.62	130.30	71.18	-37.6	-38.2	3.8	8301921	93	5288
2026-01-14 19:01:24.82	130.16	71.27	-37.6	-39.8	3.7	8332283	93	6324
2026-01-14 19:01:25.02	130.01	71.35	-37.5	-38.8	4.0	8400684	93	5739
2026-01-14 19:01:25.22	129.86	71.43	-37.2	-37.8	4.1	8342857	92	5287
2026-01-14 19:01:25.42	129.71	71.52	-37.0	-37.1	4.2	8247436	92	4968
2026-01-14 19:01:25.62	129.56	71.60	-36.8	-36.9	4.5	8093765	91	5011
2026-01-14 19:01:25.83	129.40	71.69	-36.7	-36.6	4.6	7891548	91	4901
2026-01-14 19:01:26.03	129.25	71.77	-36.4	-36.1	4.9	7673103	91	4703
2026-01-14 19:01:26.23	129.10	71.85	-36.5	-36.2	4.8	7673103	91	4746
2026-01-14 19:01:26.43	128.94	71.94	-36.4	-36.0	4.9	7507106	91	4685
2026-01-14 19:01:26.63	128.78	72.02	-36.5	-36.3	4.8	7507106	91	4769
2026-01-14 19:01:26.83	128.62	72.10	-36.5	-36.1	4.8	7592491	91	4693
2026-01-14 19:01:27.03	128.46	72.18	-36.4	-35.8	4.9	7611991	91	4601
2026-01-14 19:01:27.23	128.30	72.27	-36.5	-36.1	4.8	7487239	91	4701
2026-01-14 19:01:27.43	128.14	72.35	-36.3	-35.6	4.9	7563480	91	4545
2026-01-14 19:01:27.63	127.97	72.43	-36.3	-35.7	4.9	7463207	91	4562
2026-01-14 19:01:27.84	127.79	72.52	-36.0	-35.6	5.0	7411010	90	4678
2026-01-14 19:01:28.04	127.63	72.60	-36.1	-35.7	4.9	7461765	90	4707
2026-01-14 19:01:28.24	127.45	72.68	-36.1	-35.6	4.9	7461765	90	4652
2026-01-14 19:01:28.44	127.28	72.76	-36.3	-36.2	4.7	7477489	90	4841
2026-01-14 19:01:28.64	127.11	72.85	-36.4	-36.3	4.6	7641048	90	4879
2026-01-14 19:01:28.84	126.93	72.93	-36.6	-36.8	4.4	7803577	90	5038
2026-01-14 19:01:29.04	126.75	73.01	-36.6	-36.8	4.4	7928787	90	5015
2026-01-14 19:01:29.24	126.57	73.09	-36.6	-36.7	4.4	7974369	90	4985
2026-01-14 19:01:29.44	126.39	73.17	-36.5	-36.5	4.5	7969688	90	4905
2026-01-14 19:01:29.65	126.20	73.26	-36.4	-36.1	4.6	7861553	90	4772
2026-01-14 19:01:29.85	126.02	73.34	-36.1	-35.5	4.8	7861553	90	4590
2026-01-14 19:01:30.05	125.83	73.42	-36.1	-35.6	4.8	7675701	90	4613
2026-01-14 19:01:30.25	125.64	73.50	-36.0	-35.3	4.9	7543613	90	4542
2026-01-14 19:01:30.45	125.45	73.58	-36.2	-35.7	4.8	7493190	90	4666
2026-01-14 19:01:30.65	125.26	73.66	-36.3	-36.1	4.6	7599002	90	4783
2026-01-14 19:01:30.85	125.06	73.74	-36.6	-36.8	4.4	7794982	90	5018
2026-01-14 19:01:31.05	124.86	73.82	-36.8	-37.4	4.2	8041969	90	5257
2026-01-14 19:01:31.25	124.66	73.90	-36.8	-37.4	4.2	8151466	90	5252
2026-01-14 19:01:31.45	124.46	73.98	-36.8	-37.3	4.2	8165176	90	5219
2026-01-14 19:01:31.66	124.25	74.07	-36.8	-37.4	4.2	8165176	90	5241
2026-01-14 19:01:31.86	124.04	74.15	-36.6	-36.9	4.4	8113906	90	5085
2026-01-14 19:01:32.06	123.84	74.23	-36.5	-36.7	4.6	8006687	90	5002
2026-01-14 19:01:32.26	123.63	74.31	-36.5	-36.7	4.5	7868694	90	5011
2026-01-14 19:01:32.46	123.41	74.39	-36.3	-36.2	4.7	7862068	90	4852
2026-01-14 19:01:32.66	123.20	74.47	-36.4	-36.5	4.7	7684844	90	4934
2026-01-14 19:01:32.86	122.98	74.55	-36.4	-36.4	4.8	7717643	90	4911
2026-01-14 19:01:33.06	122.76	74.62	-36.5	-36.6	4.8	7680862	90	4989
2026-01-14 19:01:33.26	122.54	74.70	-36.5	-36.7	4.7	7680862	90	5028
2026-01-14 19:01:33.46	122.32	74.78	-36.6	-36.9	4.6	7696117	90	5110
2026-01-14 19:01:33.67	122.08	74.86	-36.7	-37.2	4.5	7735176	90	5194
2026-01-14 19:01:33.87	121.85	74.94	-36.9	-37.6	4.4	7871097	90	5383
2026-01-14 19:01:34.07	121.62	75.02	-37.0	-38.0	4.3	8008598	90	5509
2026-01-14 19:01:34.27	121.39	75.10	-37.4	-38.5	4.1	8102863	91	5554
2026-01-14 19:01:34.47	121.15	75.18	-37.5	-38.3	4.0	8199691	92	5398
2026-01-14 19:01:34.67	120.91	75.25	-37.5	-38.2	4.0	8242744	92	5332
2026-01-14 19:01:34.87	120.67	75.33	-37.5	-38.4	4.0	8246795	92	5415
2026-01-14 19:01:35.07	120.42	75.41	-37.6	-38.5	4.0	8246795	92	5449
2026-01-14 19:01:35.27	120.18	75.49	-37.7	-38.7	3.9	8267166	92	5553
2026-01-14 19:01:35.48	119.92	75.57	-37.7	-38.9	3.9	8268184	92	5624
2026-01-14 19:01:35.68	119.66	75.64	-37.7	-38.8	3.9	8303112	92	5576
2026-01-14 19:01:35.88	119.41	75.72	-37.8	-39.0	3.8	8288257	92	5679
2026-01-14 19:01:36.08	119.15	75.79	-37.8	-40.4	3.7	8314899	92	6652
2026-01-14 19:01:36.28	118.89	75.87	-37.7	-40.3	3.8	8374397	92	6598
2026-01-14 19:01:36.48	118.62	75.95	-37.8	-39.5	3.9	8383769	92	5972
2026-01-14 19:01:36.68	118.36	76.02	-37.8	-39.0	3.8	8326560	92	5674
2026-01-14 19:01:36.88	118.09	76.10	-37.8	-39.1	3.8	8299255	92	5705
2026-01-14 19:01:37.08	117.81	76.17	-37.8	-40.5	3.7	8299255	92	6696
2026-01-14 19:01:37.29	117.52	76.25	-37.7	-40.1	3.8	8332569	92	6480
2026-01-14 19:01:37.49	117.24	76.32	-37.6	-38.8	4.0	8392250	92	5655
2026-01-14 19:01:37.69	116.96	76.40	-37.5	-38.3	4.0	8279491	92	5355
2026-01-14 19:01:37.89	116.68	76.47	-37.2	-37.3	4.3	8232501	92	4985
2026-01-14 19:01:38.09	116.39	76.54	-37.1	-37.1	4.4	8054489	92	4901
2026-01-14 19:01:38.29	116.10	76.62	-36.9	-36.5	4.6	7974529	92	4692
2026-01-14 19:01:38.49	115.80	76.69	-36.9	-36.4	4.7	7782302	92	4673
2026-01-14 19:01:38.69	115.50	76.76	-37.0	-36.8	4.6	7782302	92	4797
2026-01-14 19:01:38.89	115.20	76.83	-37.2	-37.1	4.4	7837051	92	4914
2026-01-14 19:01:39.09	114.89	76.91	-37.4	-37.8	4.2	7933925	92	5157
2026-01-14 19:01:39.30	114.57	76.98	-37.6	-38.4	4.0	8128967	92	5405
2026-01-14 19:01:39.50	114.26	77.05	-38.0	-39.4	3.7	8245204	92	5800
2026-01-14 19:01:39.70	113.94	77.12	-38.3	-41.2	3.7	8352870	93	6888
2026-01-14 19:01:39.90	113.62	77.19	-38.4	-40.9	3.7	8427051	93	6579
2026-01-14 19:01:40.10	113.30	77.26	-38.4	-40.2	3.5	8392765	93	6084
2026-01-14 19:01:40.30	112.97	77.33	-38.4	-40.2	3.5	8372875	93	6031
2026-01-14 19:01:40.50	112.64	77.40	-38.4	-41.4	3.6	8372875	93	6969
2026-01-14 19:01:40.70	112.30	77.47	-38.5	-41.5	3.7	8405067	93	6981
2026-01-14 19:01:40.91	111.95	77.54	-38.5	-40.1	3.5	8428390	94	5940
2026-01-14 19:01:41.11	111.61	77.61	-38.6	-40.4	3.4	8387386	94	6001
2026-01-14 19:01:41.31	111.26	77.68	-38.7	-42.1	3.6	8375839	94	7248
2026-01-14 19:01:41.51	110.91	77.74	-38.7	-42.0	3.6	8430233	94	7218
2026-01-14 19:01:41.71	110.55	77.81	-38.6	-40.6	3.5	8439685	94	6204
2026-01-14 19:01:41.91	110.20	77.88	-38.5	-39.9	3.4	8386436	94	5801
2026-01-14 19:01:42.11	109.83	77.94	-38.3	-39.4	3.5	8386436	94	5562
2026-01-14 19:01:42.31	109.47	78.01	-38.3	-40.6	3.6	8382007	94	6452
2026-01-14 19:01:42.51	109.10	78.07	-38.3	-40.0	3.7	8437843	94	5932
2026-01-14 19:01:42.71	108.72	78.14	-38.3	-39.4	3.5	8413284	94	5534
2026-01-14 19:01:42.91	108.34	78.20	-38.4	-39.5	3.5	8374431	94	5607
2026-01-14 19:01:43.11	107.96	78.27	-38.6	-41.5	3.6	8423789	94	6922
2026-01-14 19:01:43.32	107.55	78.33	-38.7	-41.1	3.5	8433780	94	6549
2026-01-14 19:01:43.52	107.16	78.39	-38.6	-40.1	3.4	8406085	94	5866
2026-01-14 19:01:43.72	106.77	78.46	-38.4	-39.5	3.5	8385108	94	5624
2026-01-14 19:01:43.92	106.37	78.52	-38.4	-40.9	3.6	8385108	94	6561
2026-01-14 19:01:44.12	105.96	78.58	-38.2	-40.1	3.8	8412071	94	6134
2026-01-14 19:01:44.32	105.55	78.64	-38.1	-39.0	3.6	8429958	94	5418
2026-01-14 19:01:44.52	105.14	78.70	-38.1	-38.7	3.6	8374763	94	5282
2026-01-14 19:01:44.72	104.72	78.76	-38.0	-39.6	3.7	8357688	94	5963
2026-01-14 19:01:44.93	104.28	78.82	-37.9	-39.4	3.7	8397102	94	5852
2026-01-14 19:01:45.13	103.85	78.88	-37.8	-38.6	3.9	8366123	93	5405
2026-01-14 19:01:45.33	103.42	78.94	-37.5	-37.5	4.0	8299495	93	4886
2026-01-14 19:01:45.53	102.98	78.99	-37.4	-37.0	4.2	8187355	93	4719
2026-01-14 19:01:45.73	102.54	79.05	-37.3	-36.9	4.2	8131027	93	4684
2026-01-14 19:01:45.93	102.09	79.10	-37.4	-37.1	4.2	8131027	93	4755
2026-01-14 19:01:46.13	101.64	79.16	-37.6	-37.7	4.0	8146854	93	4963
2026-01-14 19:01:46.33	101.19	79.21	-37.7	-38.0	3.9	8222064	93	5059
2026-01-14 19:01:46.53	100.73	79.27	-38.0	-38.7	3.7	8285293	93	5355
2026-01-14 19:01:46.73	100.26	79.32	-38.1	-40.4	3.7	8361019	93	6413
2026-01-14 19:01:46.94	99.77	79.38	-38.1	-39.7	3.9	8419349	93	5943
2026-01-14 19:01:47.14	99.30	79.43	-37.8	-38.1	3.9	8350227	93	5113
2026-01-14 19:01:47.34	98.82	79.48	-37.6	-37.6	4.0	8270393	93	4930
2026-01-14 19:01:47.54	98.33	79.53	-37.4	-37.1	4.2	8270393	93	4759
2026-01-14 19:01:47.74	97.84	79.58	-37.4	-37.0	4.2	8212451	93	4695
2026-01-14 19:01:47.94	97.35	79.63	-37.3	-37.3	4.3	8163700	92	4928
2026-01-14 19:01:48.14	96.85	79.67	-37.3	-37.4	4.2	8101844	92	4959
2026-01-14 19:01:48.34	96.35	79.72	-37.5	-38.0	4.0	8115005	92	5172
2026-01-14 19:01:48.54	95.84	79.77	-37.7	-38.4	3.9	8234310	92	5320
2026-01-14 19:01:48.74	95.33	79.81	-37.9	-39.0	3.7	8293281	92	5587
2026-01-14 19:01:48.95	94.79	79.86	-37.8	-40.1	3.7	8393177	92	6404
2026-01-14 19:01:49.15	94.27	79.90	-37.8	-39.2	4.0	8358169	92	5791
2026-01-14 19:01:49.35	93.74	79.95	-37.6	-38.3	4.0	8358169	92	5294
2026-01-14 19:01:49.55	93.21	79.99	-37.4	-37.6	4.2	8291851	92	5025
2026-01-14 19:01:49.75	92.68	80.03	-37.3	-37.4	4.3	8212497	92	4963
2026-01-14 19:01:49.95	92.14	80.07	-37.3	-37.5	4.2	8146659	92	4999
2026-01-14 19:01:50.15	91.59	80.11	-37.4	-37.5	4.2	8147174	92	5008
2026-01-14 19:01:50.35	91.05	80.15	-37.3	-37.4	4.2	8147987	92	4967
2026-01-14 19:01:50.55	90.49	80.19	-37.4	-37.6	4.2	8148593	92	5028
2026-01-14 19:01:50.75	89.94	80.23	-37.1	-36.9	4.4	8103836	92	4784
2026-01-14 19:01:50.96	89.35	80.26	-36.9	-36.3	4.6	8103836	92	4593
2026-01-14 19:01:51.16	88.78	80.30	-36.9	-36.2	4.6	7901458	92	4576
2026-01-14 19:01:51.36	88.21	80.33	-36.8	-36.1	4.7	7735542	92	4559
2026-01-14 19:01:51.56	87.64	80.37	-36.9	-36.4	4.6	7731262	92	4634
2026-01-14 19:01:51.76	87.06	80.40	-37.0	-36.6	4.5	7818225	92	4704
2026-01-14 19:01:51.96	86.48	80.43	-37.4	-37.6	4.2	7941741	92	5029
2026-01-14 19:01:52.16	85.89	80.46	-37.5	-38.0	4.0	8157497	92	5193
2026-01-14 19:01:52.36	85.30	80.49	-37.5	-37.8	4.1	8207324	92	5110
2026-01-14 19:01:52.56	84.71	80.52	-37.3	-37.5	4.2	8207324	92	4984
2026-01-14 19:01:52.76	84.11	80.55	-37.1	-36.9	4.4	8179080	92	4778
2026-01-14 19:01:52.96	83.51	80.57	-37.1	-36.9	4.4	8045333	92	4788
2026-01-14 19:01:53.17	82.88	80.60	-37.1	-36.7	4.4	7942989	92	4727
2026-01-14 19:01:53.37	82.27	80.62	-37.0	-36.7	4.5	7877025	92	4729
2026-01-14 19:01:53.57	81.66	80.65	-37.2	-37.1	4.4	7862995	92	4853
2026-01-14 19:01:53.77	81.05	80.67	-37.5	-37.8	4.2	8036235	92	5115
2026-01-14 19:01:53.97	80.43	80.69	-37.7	-38.3	4.0	8206890	92	5315
2026-01-14 19:01:54.17	79.81	80.71	-37.9	-39.0	3.8	8283519	92	5594
2026-01-14 19:01:54.37	79.19	80.73	-38.1	-38.8	3.7	8283519	93	5387
2026-01-14 19:01:54.57	78.57	80.75	-38.1	-40.5	3.7	8331768	93	6468
2026-01-14 19:01:54.77	77.94	80.76	-38.2	-40.4	3.9	8390361	93	6318
2026-01-14 19:01:54.97	77.31	80.78	-38.1	-39.1	3.8	8393302	93	5558
2026-01-14 19:01:55.18	76.65	80.80	-37.8	-38.0	4.0	8348854	93	5063
2026-01-14 19:01:55.38	76.02	80.81	-37.6	-37.6	4.1	8256946	93	4910
2026-01-14 19:01:55.58	75.38	80.82	-37.5	-37.4	4.1	8222316	93	4868
2026-01-14 19:01:55.78	74.75	80.83	-37.6	-37.5	4.1	8225395	93	4885
2026-01-14 19:01:55.98	74.11	80.84	-37.4	-37.1	4.2	8192504	93	4763
2026-01-14 19:01:56.18	73.47	80.85	-37.5	-37.2	4.2	8156352	93	4794
2026-01-14 19:01:56.38	72.83	80.86	-37.3	-36.8	4.3	8156352	93	4641
2026-01-14 19:01:56.58	72.19	80.87	-37.2	-37.1	4.4	8116115	92	4858
2026-01-14 19:01:56.78	71.55	80.87	-37.2	-37.0	4.4	8019458	92	4838
2026-01-14 19:01:56.99	70.87	80.88	-37.2	-37.0	4.4	8016963	92	4834
2026-01-14 19:01:57.19	70.23	80.88	-37.2	-37.2	4.3	7959743	92	4900
2026-01-14 19:01:57.39	69.58	80.88	-37.4	-37.7	4.1	8098205	92	5092
2026-01-14 19:01:57.59	68.94	80.88	-37.7	-38.4	3.9	8213401	92	5364
2026-01-14 19:01:57.79	68.29	80.88	-37.9	-40.5	3.7	8319454	92	6590
2026-01-14 19:01:57.99	67.65	80.88	-38.0	-40.6	3.7	8414920	92	6663
2026-01-14 19:01:58.19	67.01	80.88	-37.9	-39.3	3.8	8414920	92	5813
2026-01-14 19:01:58.39	66.36	80.88	-37.8	-38.8	3.8	8356189	92	5502
2026-01-14 19:01:58.59	65.72	80.87	-37.7	-38.6	3.8	8336700	92	5457
2026-01-14 19:01:58.80	65.05	80.87	-37.5	-38.0	4.0	8313285	92	5197
2026-01-14 19:01:59.00	64.41	80.86	-37.5	-38.2	3.9	8270290	92	5288
2026-01-14 19:01:59.20	63.76	80.85	-37.7	-38.8	3.8	8280097	92	5543
2026-01-14 19:01:59.40	63.13	80.84	-37.6	-39.9	3.8	8322578	92	6361
2026-01-14 19:01:59.60	62.49	80.83	-37.6	-39.8	3.8	8395648	92	6321
2026-01-14 19:01:59.80	61.85	80.82	-37.6	-38.8	3.9	8395648	92	5657
2026-01-14 19:02:00.00	61.22	80.81	-37.6	-38.4	3.9	8309577	92	5393
2026-01-14 19:02:00.20	60.59	80.79	-37.4	-37.8	4.1	8289653	92	5163
2026-01-14 19:02:00.40	59.96	80.78	-37.4	-37.7	4.1	8251396	92	5105
2026-01-14 19:02:00.60	59.33	80.76	-37.4	-37.8	4.0	8222156	92	5152
2026-01-14 19:02:00.81	58.67	80.75	-37.3	-37.4	4.2	8231243	92	5035
2026-01-14 19:02:01.01	58.05	80.73	-37.4	-37.9	4.0	8199028	92	5204
2026-01-14 19:02:01.21	57.43	80.71	-37.6	-38.3	3.9	8271251	92	5366
2026-01-14 19:02:01.41	56.81	80.69	-37.7	-38.6	3.8	8271251	92	5465
2026-01-14 19:02:01.61	56.19	80.67	-37.8	-40.3	3.7	8303649	92	6571
2026-01-14 19:02:01.81	55.58	80.64	-37.8	-40.3	3.7	8358032	92	6599
2026-01-14 19:02:02.01	54.97	80.62	-37.8	-39.2	3.9	8411464	92	5819
2026-01-14 19:02:02.21	54.36	80.60	-37.7	-38.6	3.8	8352687	92	5481
2026-01-14 19:02:02.41	53.76	80.57	-37.6	-38.3	3.9	8302413	92	5366
2026-01-14 19:02:02.61	53.16	80.54	-37.5	-38.2	4.0	8270999	92	5298
2026-01-14 19:02:02.81	52.56	80.52	-37.6	-38.4	3.8	8285808	92	5398
2026-01-14 19:02:03.02	51.94	80.49	-37.8	-39.0	3.7	8313400	92	5632
2026-01-14 19:02:03.22	51.35	80.46	-38.0	-40.5	3.7	8313400	93	6547
2026-01-14 19:02:03.42	50.77	80.43	-38.1	-40.3	3.7	8394287	93	6307
2026-01-14 19:02:03.62	50.19	80.40	-38.3	-40.0	3.6	8414680	93	5984
2026-01-14 19:02:03.82	49.61	80.36	-38.3	-39.7	3.6	8368274	93	5799
2026-01-14 19:02:04.02	49.04	80.33	-38.1	-40.8	3.6	8383735	93	6696
2026-01-14 19:02:04.22	48.47	80.30	-38.0	-40.1	3.8	8430496	93	6270
2026-01-14 19:02:04.42	47.90	80.26	-38.2	-39.5	3.6	8397789	93	5777
2026-01-14 19:02:04.62	47.34	80.22	-38.1	-39.3	3.6	8368423	93	5602
2026-01-14 19:02:04.82	46.78	80.19	-38.2	-41.0	3.6	8368423	93	6731
2026-01-14 19:02:05.02	46.23	80.15	-38.3	-41.1	3.6	8399105	93	6823
2026-01-14 19:02:05.23	45.66	80.11	-38.3	-40.2	3.6	8429306	93	6107
2026-01-14 19:02:05.43	45.11	80.07	-38.4	-40.0	3.5	8386322	93	5933
2026-01-14 19:02:05.63	44.57	80.03	-38.5	-41.7	3.6	8386791	93	7173
2026-01-14 19:02:05.83	44.04	79.99	-38.5	-41.5	3.6	8399997	94	6919
2026-01-14 19:02:06.03	43.51	79.94	-38.5	-40.4	3.5	8424602	94	6101
2026-01-14 19:02:06.23	42.98	79.90	-38.6	-40.1	3.4	8403408	94	5897
2026-01-14 19:02:06.43	42.46	79.86	-38.4	-39.7	3.4	8388679	94	5708
2026-01-14 19:02:06.63	41.95	79.81	-38.4	-41.0	3.6	8428493	94	6638
2026-01-14 19:02:06.83	41.44	79.77	-38.2	-39.4	3.7	8428493	94	5660
2026-01-14 19:02:07.04	40.90	79.72	-38.1	-38.6	3.6	8425598	94	5198
2026-01-14 19:02:07.24	40.40	79.67	-38.1	-38.7	3.5	8386894	94	5287
2026-01-14 19:02:07.44	39.91	79.62	-38.1	-40.1	3.6	8360000	94	6163
2026-01-14 19:02:07.64	39.41	79.57	-38.3	-40.0	3.7	8433162	94	6007
2026-01-14 19:02:07.84	38.93	79.52	-38.5	-39.7	3.4	8422210	94	5712
2026-01-14 19:02:08.04	38.44	79.47	-38.6	-40.2	3.4	8404666	94	5909
2026-01-14 19:02:08.24	37.97	79.42	-38.7	-41.8	3.6	8406967	94	7096
2026-01-14 19:02:08.44	37.49	79.37	-38.6	-41.4	3.6	8439445	94	6769
2026-01-14 19:02:08.64	37.02	79.32	-38.5	-40.0	3.4	8439445	94	5874
2026-01-14 19:02:08.84	36.56	79.27	-38.3	-39.2	3.4	8412128	94	5476
2026-01-14 19:02:09.05	36.08	79.21	-38.2	-40.3	3.6	8398464	94	6264
2026-01-14 19:02:09.25	35.62	79.15	-38.1	-40.0	3.6	8417346	94	6144
2026-01-14 19:02:09.45	35.17	79.10	-38.1	-39.1	3.6	8414737	94	5523
2026-01-14 19:02:09.65	34.73	79.04	-38.1	-38.6	3.5	8388576	94	5222
2026-01-14 19:02:09.85	34.29	78.99	-38.0	-38.3	3.6	8368331	94	5108
2026-01-14 19:02:10.05	33.85	78.93	-38.0	-39.7	3.6	8411361	94	6017
2026-01-14 19:02:10.25	33.42	78.87	-37.8	-38.4	3.7	8411361	94	5277
2026-01-14 19:02:10.45	32.99	78.81	-37.8	-38.2	3.7	8401657	93	5159
2026-01-14 19:02:10.65	32.57	78.76	-37.6	-37.8	3.8	8365047	93	5001
2026-01-14 19:02:10.86	32.13	78.69	-37.8	-38.3	3.7	8336368	93	5206
2026-01-14 19:02:11.06	31.72	78.63	-37.9	-38.7	3.6	8345706	93	5387
2026-01-14 19:02:11.26	31.31	78.57	-38.1	-39.1	3.5	8374259	93	5561
2026-01-14 19:02:11.46	30.91	78.51	-38.3	-41.3	3.6	8391197	93	6922
2026-01-14 19:02:11.66	30.51	78.45	-38.4	-41.0	3.6	8436241	93	6674
2026-01-14 19:02:11.86	30.11	78.39	-38.3	-39.9	3.5	8413352	93	5937
2026-01-14 19:02:12.06	29.72	78.33	-38.3	-39.9	3.5	8413352	93	5885
2026-01-14 19:02:12.26	29.33	78.26	-38.3	-41.2	3.6	8391769	93	6897
2026-01-14 19:02:12.46	28.95	78.20	-38.2	-40.6	3.7	8418926	93	6516
2026-01-14 19:02:12.67	28.55	78.13	-38.2	-39.6	3.6	8436401	93	5807
2026-01-14 19:02:12.87	28.18	78.07	-38.2	-39.5	3.5	8392959	93	5740
2026-01-14 19:02:13.07	27.81	78.00	-38.2	-41.0	3.6	8379512	93	6789
2026-01-14 19:02:13.27	27.44	77.94	-38.2	-41.1	3.6	8431274	93	6877
2026-01-14 19:02:13.47	27.08	77.87	-38.2	-40.1	3.5	8418502	93	6114
2026-01-14 19:02:13.67	26.73	77.81	-38.2	-39.7	3.5	8418502	93	5846
2026-01-14 19:02:13.87	26.37	77.74	-38.1	-39.5	3.5	8386974	93	5730
2026-01-14 19:02:14.07	26.02	77.67	-38.0	-40.5	3.6	8386127	93	6577
2026-01-14 19:02:14.28	25.66	77.60	-38.0	-39.7	3.7	8433128	93	5992
2026-01-14 19:02:14.48	25.32	77.53	-38.0	-39.2	3.6	8390178	93	5643
2026-01-14 19:02:14.68	24.98	77.46	-38.1	-39.6	3.5	8379867	93	5816
2026-01-14 19:02:14.88	24.65	77.40	-38.1	-41.0	3.6	8401439	93	6872
2026-01-14 19:02:15.08	24.32	77.33	-38.1	-40.2	3.6	8425804	93	6261
2026-01-14 19:02:15.28	23.99	77.26	-38.1	-39.5	3.5	8395900	93	5784
2026-01-14 19:02:15.48	23.67	77.19	-38.0	-39.3	3.5	8374580	93	5693
2026-01-14 19:02:15.68	23.35	77.12	-37.9	-40.2	3.7	8374580	93	6450
2026-01-14 19:02:15.88	23.03	77.05	-37.9	-39.7	3.8	8409519	93	6053
2026-01-14 19:02:16.08	22.72	76.98	-37.8	-38.8	3.7	8399757	93	5487
2026-01-14 19:02:16.29	22.39	76.90	-37.9	-38.9	3.6	8366878	93	5529
2026-01-14 19:02:16.49	22.09	76.83	-38.0	-40.5	3.6	8364543	93	6590
2026-01-14 19:02:16.69	21.79	76.76	-38.0	-40.5	3.8	8422222	93	6550
2026-01-14 19:02:16.89	21.49	76.68	-38.1	-39.6	3.6	8405914	93	5886
2026-01-14 19:02:17.09	21.19	76.61	-38.1	-39.4	3.5	8374557	93	5750
2026-01-14 19:02:17.29	20.90	76.54	-37.9	-40.4	3.7	8379947	93	6527
2026-01-14 19:02:17.49	20.61	76.47	-37.9	-40.3	3.7	8379947	93	6500
2026-01-14 19:02:17.69	20.33	76.39	-37.8	-39.1	3.8	8420837	93	5713
2026-01-14 19:02:17.89	20.05	76.32	-37.7	-38.5	3.7	8386310	93	5400
2026-01-14 19:02:18.10	19.75	76.24	-37.8	-38.6	3.7	8343154	93	5437
2026-01-14 19:02:18.30	19.48	76.17	-37.7	-39.9	3.7	8367919	93	6295
2026-01-14 19:02:18.50	19.21	76.09	-37.8	-39.2	3.8	8403316	93	5842
2026-01-14 19:02:18.70	18.94	76.02	-37.6	-38.0	3.9	8349987	93	5194
2026-01-14 19:02:18.90	18.67	75.94	-37.6	-38.0	3.9	8305503	93	5183
2026-01-14 19:02:19.10	18.41	75.87	-37.5	-37.9	3.9	8305503	93	5123
2026-01-14 19:02:19.30	18.15	75.79	-37.5	-37.8	3.9	8316352	93	5095
2026-01-14 19:02:19.50	17.89	75.71	-37.4	-37.6	3.9	8307826	93	5021
2026-01-14 19:02:19.70	17.63	75.64	-37.4	-37.4	4.0	8276618	93	4939
2026-01-14 19:02:19.90	17.38	75.56	-37.4	-37.5	4.0	8248294	93	4967
2026-01-14 19:02:20.10	17.13	75.49	-37.5	-37.7	3.9	8262153	93	5043
2026-01-14 19:02:20.31	16.87	75.41	-37.6	-39.3	3.7	8297138	93	6029
2026-01-14 19:02:20.51	16.63	75.33	-37.7	-39.8	3.7	8396049	93	6267
2026-01-14 19:02:20.71	16.39	75.25	-37.8	-39.1	3.7	8379592	93	5709
2026-01-14 19:02:20.91	16.15	75.17	-37.9	-38.9	3.6	8379592	93	5553
2026-01-14 19:02:21.11	15.91	75.10	-37.7	-38.5	3.7	8362243	93	5362
2026-01-14 19:02:21.31	15.68	75.02	-37.7	-39.6	3.7	8378345	93	6182
2026-01-14 19:02:21.51	15.45	74.94	-37.6	-38.6	3.9	8425334	93	5525
2026-01-14 19:02:21.71	15.22	74.86	-37.5	-37.7	3.8	8358306	93	5038
2026-01-14 19:02:21.91	14.99	74.78	-37.4	-37.6	3.9	8306499	93	5013
2026-01-14 19:02:22.12	14.76	74.70	-37.5	-37.7	3.8	8301578	93	5044
2026-01-14 19:02:22.32	14.54	74.62	-37.5	-37.9	3.8	8308559	93	5135
2026-01-14 19:02:22.52	14.32	74.54	-37.7	-38.3	3.7	8308559	93	5275
2026-01-14 19:02:22.72	14.10	74.46	-37.8	-40.1	3.7	8338176	93	6428
2026-01-14 19:02:22.92	13.89	74.38	-37.8	-39.2	3.7	8422393	93	5792
2026-01-14 19:02:23.12	13.68	74.31	-37.7	-38.5	3.7	8395214	93	5384
2026-01-14 19:02:23.32	13.47	74.23	-37.4	-37.6	3.8	8346679	93	5034
2026-01-14 19:02:23.52	13.26	74.15	-37.3	-38.7	3.8	8339618	93	5747
2026-01-14 19:02:23.72	13.05	74.07	-37.1	-38.0	4.2	8382396	92	5445
2026-01-14 19:02:23.92	12.85	73.99	-36.9	-36.8	4.2	8241291	92	4864
2026-01-14 19:02:24.12	12.65	73.91	-36.8	-36.6	4.4	8241291	91	4856
2026-01-14 19:02:24.33	12.44	73.82	-36.5	-35.8	4.6	8108848	91	4579
2026-01-14 19:02:24.53	12.25	73.74	-36.3	-35.4	4.7	7862285	91	4438
2026-01-14 19:02:24.73	12.05	73.66	-35.8	-34.9	4.9	7692775	90	4413
2026-01-14 19:02:24.93	11.86	73.58	-35.8	-35.3	5.1	7560241	89	4639
2026-01-14 19:02:25.13	11.67	73.50	-35.7	-35.1	5.1	7364170	89	4588
2026-01-14 19:02:25.33	11.48	73.42	-35.7	-35.0	5.1	7307224	89	4568
2026-01-14 19:02:25.53	11.29	73.34	-35.9	-35.5	4.9	7289119	89	4716
2026-01-14 19:02:25.73	11.11	73.26	-36.1	-35.9	4.7	7515300	89	4830
2026-01-14 19:02:25.93	10.92	73.18	-36.4	-36.7	4.5	7775573	89	5095
2026-01-14 19:02:26.14	10.73	73.09	-36.5	-36.6	4.3	8002555	90	4981
2026-01-14 19:02:26.34	10.55	73.01	-36.8	-37.3	4.1	8002555	90	5251
2026-01-14 19:02:26.54	10.38	72.93	-36.9	-37.6	4.0	8196338	90	5335
2026-01-14 19:02:26.74	10.20	72.84	-37.2	-37.9	3.9	8266273	91	5314
2026-01-14 19:02:26.94	10.03	72.76	-37.2	-37.9	3.9	8290248	91	5306
2026-01-14 19:02:27.14	9.85	72.68	-37.3	-38.2	3.9	8285625	91	5420
2026-01-14 19:02:27.34	9.68	72.60	-37.5	-38.1	3.7	8294494	92	5307
2026-01-14 19:02:27.54	9.52	72.52	-37.6	-39.9	3.7	8353649	92	6443
2026-01-14 19:02:27.74	9.35	72.44	-37.7	-40.1	3.8	8409656	92	6483
2026-01-14 19:02:27.94	9.18	72.35	-37.9	-39.6	3.6	8409656	92	6039
2026-01-14 19:02:28.15	9.01	72.27	-38.0	-39.8	3.5	8388633	92	6097
2026-01-14 19:02:28.35	8.85	72.18	-38.0	-41.0	3.6	8377979	93	6952
2026-01-14 19:02:28.55	8.69	72.10	-38.0	-40.9	3.6	8409004	93	6874
2026-01-14 19:02:28.75	8.53	72.02	-38.0	-39.9	3.6	8429660	93	6132
2026-01-14 19:02:28.95	8.37	71.94	-38.0	-39.6	3.5	8393898	93	5919
2026-01-14 19:02:29.15	8.22	71.85	-38.0	-39.5	3.5	8392272	93	5876
2026-01-14 19:02:29.35	8.06	71.77	-38.0	-40.8	3.6	8429283	93	6806
2026-01-14 19:02:29.55	7.91	71.69	-37.9	-39.8	3.7	8429283	93	6114
2026-01-14 19:02:29.75	7.76	71.61	-37.9	-39.1	3.6	8428195	93	5656
2026-01-14 19:02:29.96	7.60	71.52	-37.7	-38.6	3.6	8388427	93	5446
2026-01-14 19:02:30.16	7.45	71.44	-37.6	-39.7	3.7	8355937	93	6247
2026-01-14 19:02:30.36	7.30	71.35	-37.4	-38.5	4.0	8420539	93	5569
2026-01-14 19:02:30.56	7.16	71.27	-37.3	-37.4	4.0	8344047	93	4989
2026-01-14 19:02:30.76	7.01	71.19	-37.3	-37.2	4.0	8276378	93	4878
2026-01-14 19:02:30.96	6.87	71.10	-37.2	-37.7	3.9	8285865	92	5210
2026-01-14 19:02:31.16	6.73	71.02	-37.3	-37.7	3.9	8287021	92	5195
2026-01-14 19:02:31.36	6.59	70.94	-37.5	-38.4	3.8	8287021	92	5452
2026-01-14 19:02:31.56	6.45	70.85	-37.7	-40.3	3.7	8325782	92	6628
2026-01-14 19:02:31.76	6.31	70.77	-37.8	-39.9	3.7	8417049	92	6269
2026-01-14 19:02:31.97	6.17	70.68	-38.0	-39.4	3.5	8394081	93	5749
2026-01-14 19:02:32.17	6.03	70.60	-38.0	-39.4	3.5	8382774	93	5728
2026-01-14 19:02:32.37	5.90	70.52	-38.9	-43.3	3.6	8393486	94	8234
2026-01-14 19:02:32.57	5.77	70.43	-38.9	-43.1	3.5	8448657	94	7950
2026-01-14 19:02:32.77	5.63	70.35	-39.0	-42.3	3.3	8414257	94	7215
2026-01-14 19:02:32.97	5.50	70.27	-39.0	-42.3	3.3	8414257	94	7184

#Closed at: 2026-01-14 19:02:33