passes_logs/2026/01/14/XPeterburg/XPeterburg__20260114_023834_FENGYUN_3D_rec.log

#Pass ID: 20260114_023834_FENGYUN 3D
#Satellite: FENGYUN 3D
#Configuration: FENGYUN 3D
#Start time: 2026-01-14 02:38:30

#Version: 1.5.20200625
#Station: XPeterburg
#Location: 30.318091 lon 59.932769 lat
#TLE: 1 43010U 17072A   26011.97305084  .00000235  00000+0  13268-3 0  9993
#TLE: 2 43010  98.9935 343.7425 0002238 114.1623 245.9787 14.19695178422825

#Time	Az	El	Level	Level2	SNR	BER	Gain	Gain2
2026-01-14 02:38:30.51	0.04	68.50	-38.7	-41.4	3.3	8391117	95	3353
2026-01-14 02:38:30.71	359.95	68.59	-37.4	-46.3	3.7	8420894	80	6857
2026-01-14 02:38:30.91	359.85	68.67	-37.3	-39.3	4.0	8410388	92	3113
2026-01-14 02:38:31.11	359.75	68.76	-37.0	-37.7	4.1	8410388	92	2681
2026-01-14 02:38:31.31	359.65	68.85	-36.7	-37.1	4.4	8248592	91	2580
2026-01-14 02:38:31.51	359.55	68.93	-36.0	-35.9	4.9	7867332	90	2446
2026-01-14 02:38:31.71	359.45	69.02	-35.6	-35.4	5.4	7867332	89	2419
2026-01-14 02:38:31.91	359.35	69.10	-35.0	-34.7	6.1	6355350	88	2367
2026-01-14 02:38:32.11	359.24	69.19	-34.5	-34.1	6.8	2964580	87	2351
2026-01-14 02:38:32.31	359.14	69.27	-33.2	-33.0	7.5	2964580	85	2400
2026-01-14 02:38:32.52	359.03	69.36	-33.2	-32.4	8.3	1448513	85	2235
2026-01-14 02:38:32.72	358.92	69.45	-32.7	-32.2	9.0	616081	83	2343
2026-01-14 02:38:32.92	358.82	69.53	-32.2	-31.9	9.6	616081	82	2359
2026-01-14 02:38:33.12	358.71	69.62	-31.7	-31.2	10.3	229534	81	2318
2026-01-14 02:38:33.32	358.60	69.70	-31.2	-30.8	11.0	73963	80	2336
2026-01-14 02:38:33.52	358.49	69.79	-30.5	-29.8	11.6	73963	79	2271
2026-01-14 02:38:33.72	358.38	69.88	-30.2	-29.6	12.1	20519	78	2294
2026-01-14 02:38:33.92	358.27	69.96	-29.2	-28.3	12.6	5046	77	2214
2026-01-14 02:38:34.12	358.15	70.05	-29.3	-28.4	13.0	984	77	2206
2026-01-14 02:38:34.32	358.04	70.13	-29.0	-28.3	13.4	984	76	2255
2026-01-14 02:38:34.53	357.92	70.22	-28.8	-27.7	13.8	286	76	2181
2026-01-14 02:38:34.73	357.80	70.31	-28.4	-27.4	14.0	125	75	2201
2026-01-14 02:38:34.93	357.69	70.39	-28.2	-27.7	14.2	125	74	2302
2026-01-14 02:38:35.13	357.57	70.48	-28.2	-27.6	14.2	57	74	2299
2026-01-14 02:38:35.33	357.45	70.56	-28.3	-27.7	14.2	34	74	2303
2026-01-14 02:38:35.53	357.33	70.65	-28.2	-27.5	14.3	34	74	2278
2026-01-14 02:38:35.73	357.21	70.74	-28.2	-27.5	14.2	45	74	2271
2026-01-14 02:38:35.93	357.08	70.82	-28.1	-27.3	14.3	34	74	2256
2026-01-14 02:38:36.13	356.96	70.91	-28.1	-27.4	14.2	34	74	2263
2026-01-14 02:38:36.34	356.83	71.00	-27.9	-27.0	14.5	22	74	2210
2026-01-14 02:38:36.54	356.70	71.08	-28.3	-27.7	14.1	11	74	2304
2026-01-14 02:38:36.74	356.57	71.17	-27.9	-27.0	14.5	11	74	2206
2026-01-14 02:38:36.94	356.44	71.25	-28.2	-27.6	14.2	22	74	2293
2026-01-14 02:38:37.14	356.31	71.34	-28.0	-27.1	14.5	22	74	2224
2026-01-14 02:38:37.34	356.18	71.42	-28.2	-27.6	14.2	11	74	2298
2026-01-14 02:38:37.54	356.05	71.51	-27.9	-27.0	14.5	11	74	2211
2026-01-14 02:38:37.74	355.91	71.59	-28.3	-27.7	14.2	0	74	2308
2026-01-14 02:38:37.94	355.78	71.68	-28.0	-27.1	14.5	11	74	2225
2026-01-14 02:38:38.14	355.64	71.77	-28.4	-27.9	14.1	11	74	2329
2026-01-14 02:38:38.34	355.50	71.85	-27.9	-27.0	14.6	0	74	2205
2026-01-14 02:38:38.54	355.36	71.94	-28.3	-27.8	14.1	0	74	2319
2026-01-14 02:38:38.75	355.22	72.03	-27.9	-27.0	14.6	0	74	2204
2026-01-14 02:38:38.95	355.07	72.11	-28.3	-27.9	14.2	11	74	2324
2026-01-14 02:38:39.15	354.93	72.20	-27.9	-26.8	14.8	22	74	2187
2026-01-14 02:38:39.35	354.78	72.28	-28.2	-27.5	14.5	22	74	2276
2026-01-14 02:38:39.55	354.64	72.37	-27.9	-26.9	14.9	11	74	2202
2026-01-14 02:38:39.75	354.49	72.45	-28.2	-27.6	14.5	11	74	2297
2026-01-14 02:38:39.95	354.34	72.54	-28.0	-27.1	14.8	11	74	2226
2026-01-14 02:38:40.15	354.19	72.62	-28.3	-27.7	14.5	11	74	2310
2026-01-14 02:38:40.35	354.03	72.71	-28.1	-27.4	14.7	0	74	2266
2026-01-14 02:38:40.56	353.87	72.79	-28.4	-28.1	14.4	22	74	2360
2026-01-14 02:38:40.76	353.71	72.88	-28.3	-27.7	14.6	22	74	2317
2026-01-14 02:38:40.96	353.56	72.96	-28.5	-28.3	14.2	11	74	2398
2026-01-14 02:38:41.16	353.40	73.05	-28.3	-27.7	14.6	34	74	2316
2026-01-14 02:38:41.36	353.24	73.13	-28.5	-28.2	14.3	34	74	2371
2026-01-14 02:38:41.56	353.07	73.22	-28.3	-27.8	14.6	0	74	2323
2026-01-14 02:38:41.76	352.91	73.30	-28.4	-28.1	14.4	11	74	2360
2026-01-14 02:38:41.96	352.74	73.39	-28.4	-27.9	14.5	11	74	2342
2026-01-14 02:38:42.16	352.57	73.47	-28.3	-27.7	14.5	0	74	2311
2026-01-14 02:38:42.36	352.40	73.55	-28.3	-27.9	14.6	11	74	2330
2026-01-14 02:38:42.57	352.22	73.64	-28.3	-27.7	14.6	11	74	2307
2026-01-14 02:38:42.77	352.05	73.73	-28.5	-28.2	14.4	11	74	2372
2026-01-14 02:38:42.97	351.87	73.81	-28.3	-27.9	14.6	22	74	2334
2026-01-14 02:38:43.17	351.69	73.89	-28.7	-28.6	14.2	0	74	2439
2026-01-14 02:38:43.37	351.51	73.98	-28.4	-28.0	14.5	0	74	2342
2026-01-14 02:38:43.57	351.33	74.06	-28.7	-28.6	14.2	22	74	2431
2026-01-14 02:38:43.77	351.15	74.15	-28.4	-28.1	14.5	22	74	2361
2026-01-14 02:38:43.97	350.96	74.23	-28.6	-28.4	14.3	22	74	2409
2026-01-14 02:38:44.17	350.77	74.31	-28.5	-28.2	14.4	45	74	2382
2026-01-14 02:38:44.37	350.58	74.40	-28.5	-28.2	14.4	22	74	2382
2026-01-14 02:38:44.57	350.39	74.48	-28.4	-28.0	14.5	22	74	2346
2026-01-14 02:38:44.78	350.19	74.57	-28.2	-27.5	14.8	22	74	2283
2026-01-14 02:38:44.98	349.99	74.65	-28.2	-27.5	14.8	0	74	2283
2026-01-14 02:38:45.18	349.79	74.73	-28.0	-27.1	15.0	0	74	2230
2026-01-14 02:38:45.38	349.59	74.81	-28.0	-27.1	15.0	11	74	2224
2026-01-14 02:38:45.58	349.39	74.90	-27.8	-26.7	15.2	0	74	2173
2026-01-14 02:38:45.78	349.18	74.98	-27.7	-27.0	15.3	0	73	2278
2026-01-14 02:38:45.98	348.97	75.06	-27.6	-26.8	15.4	0	73	2249
2026-01-14 02:38:46.18	348.76	75.14	-27.6	-26.8	15.4	0	73	2250
2026-01-14 02:38:46.38	348.55	75.23	-27.6	-26.8	15.3	0	73	2256
2026-01-14 02:38:46.58	348.33	75.31	-27.5	-26.7	15.4	0	73	2244
2026-01-14 02:38:46.78	348.12	75.39	-27.7	-27.0	15.2	0	73	2284
2026-01-14 02:38:46.99	347.89	75.47	-27.6	-26.8	15.3	0	73	2256
2026-01-14 02:38:47.19	347.66	75.56	-27.6	-26.9	15.3	0	73	2262
2026-01-14 02:38:47.39	347.44	75.64	-27.6	-26.9	15.3	0	73	2260
2026-01-14 02:38:47.59	347.21	75.72	-27.5	-26.7	15.4	11	73	2233
2026-01-14 02:38:47.79	346.98	75.80	-27.5	-26.7	15.4	11	73	2242
2026-01-14 02:38:47.99	346.74	75.88	-27.4	-26.5	15.5	0	73	2214
2026-01-14 02:38:48.19	346.51	75.96	-27.4	-26.5	15.5	0	73	2208
2026-01-14 02:38:48.39	346.27	76.04	-27.3	-26.2	15.7	0	73	2179
2026-01-14 02:38:48.59	346.02	76.12	-27.3	-26.7	15.7	0	72	2308
2026-01-14 02:38:48.79	345.78	76.20	-27.3	-26.7	15.8	0	72	2302
2026-01-14 02:38:48.99	345.53	76.28	-27.2	-26.6	15.8	0	72	2292
2026-01-14 02:38:49.20	345.27	76.36	-27.2	-26.6	15.8	0	72	2292
2026-01-14 02:38:49.40	345.01	76.44	-27.2	-26.6	15.8	0	72	2286
2026-01-14 02:38:49.60	344.75	76.52	-27.2	-26.6	15.9	0	72	2287
2026-01-14 02:38:49.80	344.49	76.60	-27.1	-26.4	16.0	0	72	2261
2026-01-14 02:38:50.00	344.23	76.68	-27.1	-26.3	16.0	0	72	2250
2026-01-14 02:38:50.20	343.96	76.76	-27.2	-26.5	16.0	0	72	2279
2026-01-14 02:38:50.40	343.69	76.83	-27.1	-26.4	16.1	0	72	2261
2026-01-14 02:38:50.60	343.42	76.91	-27.2	-26.5	16.0	0	72	2278
2026-01-14 02:38:50.80	343.14	76.99	-27.2	-26.5	16.0	0	72	2276
2026-01-14 02:38:51.01	342.85	77.07	-27.1	-26.4	16.2	0	72	2270
2026-01-14 02:38:51.21	342.56	77.15	-27.2	-26.5	16.1	0	72	2270
2026-01-14 02:38:51.41	342.27	77.22	-27.2	-26.6	16.1	0	72	2286
2026-01-14 02:38:51.61	341.98	77.30	-27.1	-26.4	16.2	0	72	2263
2026-01-14 02:38:51.81	341.69	77.38	-27.1	-26.3	16.3	0	72	2251
2026-01-14 02:38:52.01	341.39	77.45	-27.0	-26.2	16.4	0	72	2241
2026-01-14 02:38:52.21	341.09	77.53	-26.9	-25.9	16.5	0	72	2199
2026-01-14 02:38:52.41	340.78	77.60	-26.8	-25.8	16.6	0	72	2190
2026-01-14 02:38:52.61	340.47	77.68	-26.8	-25.8	16.6	0	72	2190
2026-01-14 02:38:52.81	340.16	77.75	-26.6	-25.8	16.7	0	71	2257
2026-01-14 02:38:53.02	339.82	77.83	-26.6	-25.8	16.7	0	71	2258
2026-01-14 02:38:53.22	339.50	77.91	-26.5	-25.7	16.7	0	71	2245
2026-01-14 02:38:53.42	339.18	77.98	-26.4	-25.5	16.8	0	71	2213
2026-01-14 02:38:53.62	338.85	78.05	-26.4	-25.5	16.8	0	71	2216
2026-01-14 02:38:53.82	338.51	78.13	-26.5	-25.6	16.8	0	71	2224
2026-01-14 02:38:54.02	338.17	78.20	-26.3	-25.3	16.9	0	71	2192
2026-01-14 02:38:54.22	337.83	78.27	-26.4	-25.5	16.8	0	71	2223
2026-01-14 02:38:54.42	337.48	78.34	-26.4	-25.6	16.8	0	71	2223
2026-01-14 02:38:54.62	337.13	78.41	-26.3	-25.4	16.9	0	71	2198
2026-01-14 02:38:54.82	336.77	78.48	-26.4	-25.5	16.8	0	71	2212
2026-01-14 02:38:55.02	336.41	78.56	-26.4	-25.5	16.8	0	71	2213
2026-01-14 02:38:55.22	336.05	78.63	-26.3	-25.4	16.9	0	71	2202
2026-01-14 02:38:55.43	335.66	78.70	-26.3	-25.4	16.9	0	71	2199
2026-01-14 02:38:55.63	335.29	78.77	-26.3	-25.4	16.9	0	71	2198
2026-01-14 02:38:55.83	334.91	78.84	-26.3	-25.7	17.0	0	70	2310
2026-01-14 02:38:56.03	334.52	78.90	-26.3	-25.7	17.0	0	70	2307
2026-01-14 02:38:56.23	334.13	78.97	-26.2	-25.6	17.1	0	70	2294
2026-01-14 02:38:56.43	333.74	79.04	-26.1	-25.4	17.2	0	70	2266
2026-01-14 02:38:56.63	333.34	79.11	-26.1	-25.4	17.3	0	70	2260
2026-01-14 02:38:56.83	332.94	79.17	-26.0	-25.3	17.3	0	70	2246
2026-01-14 02:38:57.03	332.53	79.24	-26.0	-25.2	17.4	0	70	2236
2026-01-14 02:38:57.24	332.09	79.31	-26.0	-25.2	17.4	0	70	2240
2026-01-14 02:38:57.44	331.67	79.37	-26.0	-25.2	17.4	0	70	2236
2026-01-14 02:38:57.64	331.25	79.44	-26.0	-25.2	17.4	0	70	2248
2026-01-14 02:38:57.84	330.82	79.50	-26.0	-25.2	17.4	0	70	2248
2026-01-14 02:38:58.04	330.38	79.56	-25.9	-25.1	17.4	0	70	2226
2026-01-14 02:38:58.24	329.94	79.63	-26.0	-25.1	17.3	0	70	2229
2026-01-14 02:38:58.44	329.49	79.69	-26.0	-25.1	17.3	0	70	2228
2026-01-14 02:38:58.64	329.04	79.75	-25.9	-25.0	17.4	0	70	2216
2026-01-14 02:38:58.84	328.58	79.81	-25.9	-25.0	17.3	0	70	2214
2026-01-14 02:38:59.04	328.12	79.87	-25.9	-24.9	17.3	0	70	2201
2026-01-14 02:38:59.24	327.65	79.93	-25.8	-24.9	17.3	0	70	2195
2026-01-14 02:38:59.44	327.18	79.99	-25.8	-24.8	17.3	0	70	2186
2026-01-14 02:38:59.65	326.67	80.05	-25.8	-24.7	17.4	0	70	2176
2026-01-14 02:38:59.85	326.19	80.11	-25.7	-25.0	17.4	0	69	2277
2026-01-14 02:39:00.05	325.70	80.16	-25.7	-25.0	17.4	0	69	2273
2026-01-14 02:39:00.25	325.20	80.22	-25.6	-24.8	17.5	0	69	2246
2026-01-14 02:39:00.45	324.70	80.28	-25.5	-24.7	17.5	0	69	2241
2026-01-14 02:39:00.65	324.19	80.33	-25.5	-24.7	17.5	0	69	2239
2026-01-14 02:39:00.85	323.67	80.38	-25.6	-24.7	17.5	0	69	2238
2026-01-14 02:39:01.05	323.15	80.44	-25.6	-24.8	17.4	0	69	2244
2026-01-14 02:39:01.25	322.62	80.49	-25.7	-24.9	17.3	0	69	2266
2026-01-14 02:39:01.46	322.07	80.54	-25.7	-25.0	17.3	0	69	2276
2026-01-14 02:39:01.66	321.53	80.59	-25.7	-25.1	17.3	0	69	2282
2026-01-14 02:39:01.86	320.98	80.64	-25.8	-25.2	17.2	0	69	2303
2026-01-14 02:39:02.06	320.43	80.69	-25.8	-25.3	17.2	0	69	2317
2026-01-14 02:39:02.26	319.88	80.74	-25.9	-25.5	17.1	0	69	2339
2026-01-14 02:39:02.46	319.31	80.79	-26.0	-25.6	17.0	0	69	2356
2026-01-14 02:39:02.66	318.74	80.83	-26.0	-25.5	17.1	0	69	2347
2026-01-14 02:39:02.86	318.17	80.88	-25.9	-25.5	17.1	0	69	2338
2026-01-14 02:39:03.06	317.59	80.92	-26.0	-25.5	17.1	0	69	2346
2026-01-14 02:39:03.26	317.01	80.97	-26.0	-25.6	17.0	0	69	2357
2026-01-14 02:39:03.46	316.41	81.01	-26.0	-25.6	17.0	0	69	2356
2026-01-14 02:39:03.67	315.79	81.06	-26.0	-25.5	17.0	0	69	2341
2026-01-14 02:39:03.87	315.19	81.10	-25.9	-25.4	17.1	0	69	2322
2026-01-14 02:39:04.07	314.58	81.14	-25.9	-25.4	17.1	0	69	2318
2026-01-14 02:39:04.27	313.96	81.17	-26.0	-25.5	17.0	0	69	2343
2026-01-14 02:39:04.47	313.34	81.21	-26.0	-25.5	17.0	0	69	2341
2026-01-14 02:39:04.67	312.72	81.25	-26.0	-25.5	17.0	0	69	2337
2026-01-14 02:39:04.87	312.09	81.29	-26.0	-25.6	17.0	0	69	2346
2026-01-14 02:39:05.07	311.45	81.32	-26.0	-25.6	17.0	0	69	2355
2026-01-14 02:39:05.27	310.81	81.35	-26.1	-25.9	16.8	0	69	2389
2026-01-14 02:39:05.47	310.17	81.39	-26.2	-25.9	16.8	0	69	2395
2026-01-14 02:39:05.67	309.52	81.42	-26.2	-26.1	16.8	0	69	2412
2026-01-14 02:39:05.88	308.83	81.45	-26.3	-26.1	16.7	0	69	2423
2026-01-14 02:39:06.08	308.17	81.48	-26.3	-26.2	16.7	0	69	2437
2026-01-14 02:39:06.28	307.51	81.51	-26.4	-26.4	16.6	0	69	2456
2026-01-14 02:39:06.48	306.84	81.53	-26.5	-26.6	16.5	0	69	2483
2026-01-14 02:39:06.68	306.17	81.56	-26.6	-26.2	16.5	0	70	2369
2026-01-14 02:39:06.88	305.49	81.59	-26.5	-26.2	16.6	0	70	2357
2026-01-14 02:39:07.08	304.81	81.61	-26.6	-26.4	16.5	0	70	2388
2026-01-14 02:39:07.28	304.12	81.63	-26.8	-26.7	16.3	0	70	2440
2026-01-14 02:39:07.48	303.43	81.65	-26.9	-26.8	16.2	0	70	2454
2026-01-14 02:39:07.68	302.74	81.67	-26.8	-26.8	16.3	0	70	2442
2026-01-14 02:39:07.88	302.05	81.69	-26.8	-26.8	16.3	0	70	2449
2026-01-14 02:39:08.09	301.31	81.71	-26.9	-26.5	16.1	0	71	2340
2026-01-14 02:39:08.29	300.61	81.73	-27.0	-26.7	16.0	0	71	2366
2026-01-14 02:39:08.49	299.91	81.74	-27.0	-26.6	16.0	0	71	2346
2026-01-14 02:39:08.69	299.20	81.75	-26.9	-26.4	16.1	0	71	2327
2026-01-14 02:39:08.89	298.49	81.77	-27.0	-26.7	16.0	0	71	2362
2026-01-14 02:39:09.09	297.78	81.78	-27.1	-26.8	15.9	0	71	2384
2026-01-14 02:39:09.29	297.07	81.79	-27.1	-26.8	15.9	0	71	2381
2026-01-14 02:39:09.49	296.36	81.80	-27.1	-26.9	15.8	0	71	2391
2026-01-14 02:39:09.69	295.64	81.81	-27.2	-27.0	15.8	0	71	2409
2026-01-14 02:39:09.89	294.92	81.81	-27.3	-27.3	15.7	0	71	2446
2026-01-14 02:39:10.09	294.20	81.82	-27.4	-27.3	15.6	0	71	2456
2026-01-14 02:39:10.29	293.49	81.82	-27.4	-27.5	15.6	0	71	2478
2026-01-14 02:39:10.49	292.77	81.82	-27.7	-27.6	15.5	0	72	2422
2026-01-14 02:39:10.70	292.01	81.82	-27.8	-27.7	15.4	0	72	2438
2026-01-14 02:39:10.90	291.29	81.82	-27.8	-27.8	15.3	0	72	2452
2026-01-14 02:39:11.10	290.57	81.82	-27.8	-27.7	15.4	0	72	2435
2026-01-14 02:39:11.30	289.85	81.82	-27.9	-27.9	15.3	0	72	2469
2026-01-14 02:39:11.50	289.13	81.82	-28.0	-28.1	15.2	0	72	2499
2026-01-14 02:39:11.70	288.41	81.81	-27.9	-27.9	15.2	0	72	2469
2026-01-14 02:39:11.90	287.70	81.80	-27.9	-27.3	15.2	11	73	2317
2026-01-14 02:39:12.10	286.98	81.80	-27.9	-27.4	15.2	0	73	2335
2026-01-14 02:39:12.30	286.27	81.79	-28.0	-27.7	15.1	0	73	2366
2026-01-14 02:39:12.50	285.55	81.78	-28.0	-27.7	15.0	11	73	2369
2026-01-14 02:39:12.70	284.84	81.76	-28.1	-27.9	14.9	11	73	2402
2026-01-14 02:39:12.91	284.10	81.75	-28.2	-28.0	14.9	0	73	2414
2026-01-14 02:39:13.11	283.39	81.74	-28.3	-28.3	14.7	0	73	2457
2026-01-14 02:39:13.31	282.69	81.72	-28.5	-28.6	14.6	0	73	2501
2026-01-14 02:39:13.51	281.99	81.71	-28.6	-28.4	14.4	0	74	2407
2026-01-14 02:39:13.71	281.29	81.69	-28.7	-28.6	14.4	0	74	2423
2026-01-14 02:39:13.91	280.60	81.67	-28.7	-28.6	14.4	22	74	2429
2026-01-14 02:39:14.11	279.91	81.65	-28.9	-28.9	14.2	11	74	2470
2026-01-14 02:39:14.31	279.22	81.63	-28.9	-28.6	14.1	22	75	2353
2026-01-14 02:39:14.51	278.53	81.60	-29.0	-28.6	14.0	22	75	2358
2026-01-14 02:39:14.71	277.85	81.58	-28.8	-28.3	14.2	34	75	2317
2026-01-14 02:39:14.91	277.18	81.56	-28.8	-28.2	14.3	34	75	2307
2026-01-14 02:39:15.12	276.47	81.53	-28.8	-28.3	14.2	34	75	2320
2026-01-14 02:39:15.32	275.80	81.50	-29.0	-28.7	14.0	45	75	2374
2026-01-14 02:39:15.52	275.14	81.47	-29.0	-28.6	14.0	0	75	2365
2026-01-14 02:39:15.72	274.48	81.44	-29.0	-28.6	14.0	0	75	2367
2026-01-14 02:39:15.92	273.83	81.41	-29.1	-28.9	13.8	68	75	2399
2026-01-14 02:39:16.12	273.18	81.38	-29.1	-29.0	13.8	45	75	2412
2026-01-14 02:39:16.32	272.53	81.35	-29.2	-29.1	13.7	45	75	2429
2026-01-14 02:39:16.52	271.90	81.31	-29.3	-29.3	13.6	102	75	2457
2026-01-14 02:39:16.72	271.26	81.28	-29.3	-29.2	13.6	125	75	2451
2026-01-14 02:39:16.92	270.63	81.24	-29.2	-29.2	13.6	125	75	2443
2026-01-14 02:39:17.12	270.01	81.20	-29.3	-29.2	13.6	171	75	2448
2026-01-14 02:39:17.33	269.36	81.16	-29.3	-29.3	13.5	217	75	2465
2026-01-14 02:39:17.53	268.75	81.13	-29.2	-29.2	13.6	205	75	2441
2026-01-14 02:39:17.73	268.14	81.09	-29.2	-29.1	13.6	205	75	2436
2026-01-14 02:39:17.93	267.54	81.04	-29.3	-29.3	13.5	114	75	2457
2026-01-14 02:39:18.13	266.94	81.00	-29.4	-29.5	13.4	160	75	2485
2026-01-14 02:39:18.33	266.35	80.96	-29.5	-29.7	13.3	160	75	2514
2026-01-14 02:39:18.53	265.77	80.92	-29.8	-29.7	13.2	240	76	2444
2026-01-14 02:39:18.73	265.19	80.87	-29.8	-29.8	13.1	297	76	2471
2026-01-14 02:39:18.93	264.62	80.82	-29.9	-30.0	13.0	297	76	2483
2026-01-14 02:39:19.13	264.05	80.78	-29.9	-30.0	13.0	423	76	2496
2026-01-14 02:39:19.33	263.49	80.73	-29.9	-30.1	13.0	526	76	2498
2026-01-14 02:39:19.54	262.90	80.68	-30.0	-30.2	12.9	526	76	2517
2026-01-14 02:39:19.74	262.36	80.63	-29.9	-29.6	12.9	617	77	2371
2026-01-14 02:39:19.94	261.81	80.58	-30.0	-29.7	12.8	801	77	2375
2026-01-14 02:39:20.14	261.27	80.53	-29.9	-29.5	12.9	801	77	2344
2026-01-14 02:39:20.34	260.74	80.48	-29.9	-29.6	12.8	881	77	2358
2026-01-14 02:39:20.54	260.22	80.43	-29.9	-29.4	12.9	789	77	2341
2026-01-14 02:39:20.74	259.70	80.37	-29.8	-29.3	13.0	915	77	2320
2026-01-14 02:39:20.94	259.18	80.32	-29.8	-29.2	13.0	915	77	2311
2026-01-14 02:39:21.14	258.68	80.26	-29.7	-29.1	13.0	720	77	2294
2026-01-14 02:39:21.34	258.17	80.21	-29.8	-29.2	13.0	434	77	2308
2026-01-14 02:39:21.54	257.68	80.15	-29.8	-29.2	13.0	434	77	2317
2026-01-14 02:39:21.75	257.16	80.09	-29.9	-29.5	12.9	686	77	2350
2026-01-14 02:39:21.95	256.68	80.03	-30.0	-29.6	12.8	835	77	2362
2026-01-14 02:39:22.15	256.20	79.98	-30.0	-29.7	12.7	835	77	2374
2026-01-14 02:39:22.35	255.73	79.92	-30.1	-29.9	12.6	972	77	2410
2026-01-14 02:39:22.55	255.26	79.86	-30.1	-30.0	12.5	1110	77	2419
2026-01-14 02:39:22.75	254.80	79.80	-30.2	-30.1	12.5	1110	77	2432
2026-01-14 02:39:22.95	254.34	79.74	-30.2	-30.2	12.4	1808	77	2457
2026-01-14 02:39:23.15	253.89	79.67	-30.3	-30.3	12.4	2071	77	2468
2026-01-14 02:39:23.35	253.44	79.61	-30.3	-30.5	12.3	2071	77	2492
2026-01-14 02:39:23.56	252.98	79.55	-30.4	-30.5	12.3	2323	77	2498
2026-01-14 02:39:23.76	252.55	79.48	-30.3	-30.4	12.3	2849	77	2490
2026-01-14 02:39:23.96	252.12	79.42	-30.3	-30.3	12.4	2758	77	2476
2026-01-14 02:39:24.16	251.69	79.35	-30.3	-30.4	12.3	2758	77	2491
2026-01-14 02:39:24.36	251.27	79.29	-30.3	-30.4	12.3	2620	77	2491
2026-01-14 02:39:24.56	250.86	79.22	-30.3	-30.4	12.3	2872	77	2490
2026-01-14 02:39:24.76	250.45	79.16	-30.3	-30.5	12.3	2872	77	2494
2026-01-14 02:39:24.96	250.05	79.09	-30.3	-30.5	12.3	2712	77	2497
2026-01-14 02:39:25.16	249.65	79.02	-30.3	-30.4	12.4	2735	77	2488
2026-01-14 02:39:25.36	249.26	78.96	-30.3	-30.5	12.3	2735	77	2497
2026-01-14 02:39:25.56	248.87	78.89	-30.3	-30.4	12.4	2231	77	2489
2026-01-14 02:39:25.76	248.49	78.82	-30.2	-30.2	12.5	2243	77	2455
2026-01-14 02:39:25.97	248.09	78.75	-30.1	-30.0	12.6	1922	77	2432
2026-01-14 02:39:26.17	247.71	78.68	-30.2	-30.1	12.6	1922	77	2441
2026-01-14 02:39:26.37	247.35	78.61	-30.0	-29.9	12.7	1544	77	2408
2026-01-14 02:39:26.57	246.98	78.54	-30.0	-29.9	12.7	1224	77	2407
2026-01-14 02:39:26.77	246.62	78.47	-29.9	-29.6	12.9	1224	77	2369
2026-01-14 02:39:26.97	246.27	78.40	-29.8	-29.4	13.0	755	77	2333
2026-01-14 02:39:27.17	245.92	78.33	-29.8	-29.4	13.0	675	77	2344
2026-01-14 02:39:27.37	245.57	78.25	-29.8	-29.3	13.1	675	77	2326
2026-01-14 02:39:27.58	245.21	78.18	-29.8	-29.4	13.0	617	77	2336
2026-01-14 02:39:27.78	244.87	78.10	-29.8	-29.4	13.0	606	77	2344
2026-01-14 02:39:27.98	244.54	78.03	-29.8	-29.3	13.0	606	77	2334
2026-01-14 02:39:28.18	244.21	77.96	-29.9	-29.4	13.0	652	77	2345
2026-01-14 02:39:28.38	243.88	77.88	-29.8	-29.3	13.1	537	77	2329
2026-01-14 02:39:28.58	243.56	77.81	-29.9	-29.6	12.9	537	77	2363
2026-01-14 02:39:28.78	243.25	77.74	-29.9	-29.6	12.9	617	77	2374
2026-01-14 02:39:28.98	242.93	77.66	-29.8	-29.4	13.0	778	77	2346
2026-01-14 02:39:29.18	242.62	77.59	-29.9	-29.6	12.9	869	77	2363
2026-01-14 02:39:29.38	242.32	77.51	-30.0	-29.7	12.8	869	77	2382
2026-01-14 02:39:29.58	242.02	77.43	-29.9	-29.6	12.9	812	77	2367
2026-01-14 02:39:29.78	241.72	77.36	-29.9	-29.6	12.8	732	77	2373
2026-01-14 02:39:29.99	241.41	77.28	-29.9	-29.6	12.9	732	77	2376
2026-01-14 02:39:30.19	241.12	77.20	-29.9	-29.5	12.9	904	77	2358
2026-01-14 02:39:30.39	240.83	77.12	-29.8	-29.4	13.0	823	77	2352
2026-01-14 02:39:30.59	240.55	77.05	-29.9	-29.7	12.8	823	77	2382
2026-01-14 02:39:30.79	240.27	76.97	-29.9	-29.5	12.9	743	77	2369
2026-01-14 02:39:30.99	239.99	76.89	-29.9	-29.6	12.9	892	77	2383
2026-01-14 02:39:31.19	239.72	76.81	-29.9	-29.7	12.8	892	77	2392
2026-01-14 02:39:31.39	239.45	76.74	-30.0	-29.9	12.8	823	77	2419
2026-01-14 02:39:31.59	239.18	76.66	-30.0	-29.9	12.7	1098	77	2418
2026-01-14 02:39:31.79	238.92	76.58	-30.2	-30.3	12.5	1098	77	2490
2026-01-14 02:39:31.99	238.66	76.50	-30.1	-30.2	12.5	1407	77	2469
2026-01-14 02:39:32.19	238.40	76.42	-30.3	-30.5	12.3	1968	77	2521
2026-01-14 02:39:32.39	238.15	76.34	-30.3	-30.6	12.4	2197	77	2527
2026-01-14 02:39:32.59	237.90	76.26	-30.2	-30.4	12.4	2197	77	2500
2026-01-14 02:39:32.80	237.64	76.18	-30.5	-30.9	12.1	2792	77	2576
2026-01-14 02:39:33.00	237.39	76.10	-30.4	-30.6	12.3	2861	77	2531
2026-01-14 02:39:33.20	237.15	76.02	-30.3	-30.4	12.4	2861	77	2500
2026-01-14 02:39:33.40	236.91	75.94	-30.4	-30.6	12.3	2712	77	2526
2026-01-14 02:39:33.60	236.67	75.86	-30.3	-30.4	12.4	2517	77	2501
2026-01-14 02:39:33.80	236.44	75.78	-30.3	-30.4	12.4	2517	77	2498
2026-01-14 02:39:34.00	236.21	75.70	-30.2	-30.2	12.6	2277	77	2464
2026-01-14 02:39:34.20	235.98	75.61	-30.1	-30.0	12.6	1670	77	2435
2026-01-14 02:39:34.40	235.76	75.53	-30.2	-30.2	12.6	1670	77	2455
2026-01-14 02:39:34.61	235.52	75.45	-30.1	-30.0	12.7	1396	77	2431
2026-01-14 02:39:34.81	235.30	75.37	-30.1	-30.0	12.6	1407	77	2441
2026-01-14 02:39:35.01	235.08	75.28	-30.2	-30.1	12.5	1705	77	2450
2026-01-14 02:39:35.21	234.87	75.20	-30.1	-30.1	12.5	1705	77	2445
2026-01-14 02:39:35.41	234.66	75.12	-30.3	-30.4	12.3	2151	77	2488
2026-01-14 02:39:35.61	234.45	75.04	-30.3	-30.3	12.3	2197	77	2472
2026-01-14 02:39:35.81	234.24	74.96	-30.3	-30.5	12.2	2197	77	2501
2026-01-14 02:39:36.01	234.03	74.87	-30.4	-30.6	12.1	3124	77	2530
2026-01-14 02:39:36.21	233.83	74.79	-30.4	-30.5	12.2	3513	77	2509
2026-01-14 02:39:36.41	233.63	74.71	-30.5	-30.7	12.0	3513	77	2531
2026-01-14 02:39:36.61	233.43	74.62	-30.3	-30.4	12.1	4257	77	2486
2026-01-14 02:39:36.82	233.22	74.54	-30.4	-30.6	12.0	3787	77	2519
2026-01-14 02:39:37.02	233.03	74.45	-30.3	-30.3	12.2	3787	77	2476
2026-01-14 02:39:37.22	232.84	74.37	-30.3	-30.3	12.2	4383	77	2468
2026-01-14 02:39:37.42	232.65	74.29	-30.1	-30.0	12.3	3604	77	2422
2026-01-14 02:39:37.62	232.46	74.20	-30.2	-30.1	12.2	3044	77	2431
2026-01-14 02:39:37.82	232.28	74.12	-30.2	-30.1	12.2	3044	77	2434
2026-01-14 02:39:38.02	232.09	74.04	-30.1	-30.0	12.2	3192	77	2418
2026-01-14 02:39:38.22	231.91	73.95	-30.2	-30.1	12.1	3570	77	2444
2026-01-14 02:39:38.42	231.73	73.87	-30.2	-30.2	12.1	3570	77	2451
2026-01-14 02:39:38.62	231.55	73.78	-30.3	-30.3	12.0	4268	77	2461
2026-01-14 02:39:38.82	231.38	73.70	-30.3	-30.3	11.9	4966	77	2477
2026-01-14 02:39:39.02	231.20	73.62	-30.4	-30.5	11.9	4966	77	2495
2026-01-14 02:39:39.23	231.02	73.53	-30.4	-30.6	11.8	5550	77	2520
2026-01-14 02:39:39.43	230.85	73.44	-30.5	-30.3	11.7	7347	78	2403
2026-01-14 02:39:39.63	230.69	73.36	-30.4	-30.1	11.8	7347	78	2379
2026-01-14 02:39:39.83	230.52	73.27	-30.5	-30.4	11.7	7587	78	2414
2026-01-14 02:39:40.03	230.36	73.19	-30.5	-30.2	11.8	7862	78	2394
2026-01-14 02:39:40.23	230.19	73.11	-30.6	-30.5	11.6	7862	78	2438
2026-01-14 02:39:40.43	230.03	73.02	-30.5	-30.4	11.8	8605	78	2414
2026-01-14 02:39:40.63	229.87	72.94	-30.6	-30.5	11.7	7701	78	2429
2026-01-14 02:39:40.83	229.71	72.85	-30.6	-30.5	11.8	8216	78	2433
2026-01-14 02:39:41.03	229.56	72.77	-30.6	-30.5	11.8	8216	78	2431
2026-01-14 02:39:41.24	229.40	72.68	-30.7	-30.8	11.7	7816	78	2481
2026-01-14 02:39:41.44	229.24	72.59	-30.8	-30.9	11.6	8628	78	2492
2026-01-14 02:39:41.64	229.09	72.51	-31.0	-31.3	11.4	8628	78	2570
2026-01-14 02:39:41.84	228.94	72.42	-30.9	-30.8	11.4	10288	79	2417
2026-01-14 02:39:42.04	228.79	72.34	-31.1	-31.1	11.3	13137	79	2466
2026-01-14 02:39:42.24	228.65	72.25	-31.2	-31.4	11.1	13137	79	2523
2026-01-14 02:39:42.44	228.50	72.17	-31.2	-31.3	11.2	19878	79	2506
2026-01-14 02:39:42.64	228.36	72.08	-31.2	-31.4	11.2	18218	79	2517
2026-01-14 02:39:42.84	228.21	72.00	-31.0	-31.1	11.4	18218	79	2479
2026-01-14 02:39:43.05	228.07	71.91	-31.0	-31.1	11.4	16410	79	2474
2026-01-14 02:39:43.25	227.93	71.82	-31.1	-31.1	11.4	13710	79	2477
2026-01-14 02:39:43.45	227.79	71.74	-31.0	-31.0	11.5	13710	79	2460
2026-01-14 02:39:43.65	227.65	71.65	-31.0	-30.9	11.5	12783	79	2453
2026-01-14 02:39:43.85	227.52	71.56	-31.0	-30.9	11.5	11329	79	2450
2026-01-14 02:39:44.05	227.38	71.48	-30.8	-30.6	11.7	11329	79	2398
2026-01-14 02:39:44.25	227.25	71.39	-30.7	-30.4	11.8	11535	79	2377
2026-01-14 02:39:44.45	227.12	71.31	-30.7	-30.4	11.7	7976	79	2368
2026-01-14 02:39:44.65	226.99	71.22	-30.7	-30.3	11.8	8171	79	2351
2026-01-14 02:39:44.86	226.85	71.13	-30.8	-30.6	11.5	8171	79	2388
2026-01-14 02:39:45.06	226.73	71.05	-30.6	-30.1	11.8	9613	79	2332
2026-01-14 02:39:45.26	226.60	70.96	-30.8	-30.6	11.5	7690	79	2397
2026-01-14 02:39:45.46	226.47	70.88	-30.7	-30.3	11.6	7690	79	2344
2026-01-14 02:39:45.66	226.35	70.79	-31.0	-30.9	11.2	10265	79	2440
2026-01-14 02:39:45.86	226.23	70.70	-30.6	-30.1	11.6	14785	79	2323
2026-01-14 02:39:46.06	226.11	70.62	-33.3	-34.0	9.4	24147	82	2666
2026-01-14 02:39:46.26	225.99	70.53	-38.5	-44.3	3.6	24147	93	4821
2026-01-14 02:39:46.46	225.87	70.45	-38.4	-44.1	3.6	7094799	93	4712

#Closed at: 2026-01-14 02:39:46