passes_logs/2026/01/05/R3.2S_Murmansk/R3.2S_Murmansk__20260105_083758_FENGYUN_3D_rec.log

#Pass ID: 20260105_083758_FENGYUN 3D
#Satellite: FENGYUN 3D
#Configuration: FENGYUN 3D
#almurnet v.1.7.20251203
#Start time: 2026-01-05 08:38:00

#Version: 2.2.20231116
#Station: R3.2S_Murmansk
#Location: 33.079688 lon 68.888172 lat
#TLE: 1 43010U 17072A   26004.50247883 -.00000063  00000+0 -78815-5 0  9998
#TLE: 2 43010  98.9915 336.1565 0001968 126.3752 233.7605 14.19691805421760

#Time	Az	El	Level	Level2	SNR	BER	BlckErr	Temp	State	Recorded	gain1	gain2
2026-01-05 08:38:00.81	87.24	2.11	-58.1	-71.1	3.8	8.46e-01	0	25	0	0	82	16031
2026-01-05 08:38:01.80	87.19	2.17	-58.1	-71.0	3.8	8.46e-01	0	25	104	0	81	16758
2026-01-05 08:38:02.80	87.13	2.23	-58.1	-71.0	3.8	8.46e-01	0	25	104	0	81	16831
2026-01-05 08:38:03.79	87.08	2.29	-58.1	-71.0	3.8	8.45e-01	0	25	104	0	81	16734
2026-01-05 08:38:04.79	87.02	2.35	-58.0	-71.0	3.8	8.47e-01	0	25	104	0	81	16787
2026-01-05 08:38:05.78	86.97	2.41	-58.0	-71.0	3.8	8.45e-01	0	25	104	0	81	16782
2026-01-05 08:38:06.78	86.91	2.47	-58.0	-71.0	3.9	8.45e-01	0	25	104	0	81	16760
2026-01-05 08:38:07.77	86.85	2.53	-58.0	-70.9	3.8	8.45e-01	0	26	104	0	81	16692
2026-01-05 08:38:08.77	86.80	2.59	-58.0	-71.0	3.8	8.46e-01	0	25	104	0	81	16766
2026-01-05 08:38:09.76	86.74	2.65	-58.0	-71.0	3.8	8.45e-01	0	25	104	0	81	16792
2026-01-05 08:38:10.75	86.68	2.70	-58.0	-71.0	3.8	8.45e-01	0	26	104	0	81	16801
2026-01-05 08:38:11.75	86.63	2.76	-58.1	-71.0	3.8	8.46e-01	0	26	104	0	81	16789
2026-01-05 08:38:12.74	86.57	2.82	-58.0	-71.0	3.8	8.45e-01	0	25	104	0	81	16869
2026-01-05 08:38:13.74	86.51	2.88	-58.1	-71.1	3.8	8.45e-01	0	25	104	0	81	16897
2026-01-05 08:38:14.73	86.45	2.94	-58.1	-71.1	3.8	8.45e-01	0	26	104	0	81	16939
2026-01-05 08:38:15.73	86.40	3.00	-58.1	-71.1	3.8	8.45e-01	0	26	104	0	81	16974
2026-01-05 08:38:16.72	86.34	3.06	-58.1	-71.1	3.8	8.46e-01	0	26	104	0	81	16921
2026-01-05 08:38:17.72	86.28	3.13	-58.1	-71.0	3.8	8.46e-01	0	26	104	0	81	16856
2026-01-05 08:38:18.70	86.22	3.18	-58.0	-71.0	3.8	8.45e-01	0	25	104	0	81	16744
2026-01-05 08:38:19.69	86.16	3.24	-58.0	-70.9	3.8	8.46e-01	0	26	104	0	81	16588
2026-01-05 08:38:20.68	86.10	3.31	-58.0	-70.9	3.8	8.45e-01	0	26	104	0	81	16620
2026-01-05 08:38:21.68	86.04	3.37	-58.0	-71.0	3.8	8.45e-01	0	26	104	0	81	16695
2026-01-05 08:38:22.67	85.98	3.43	-58.0	-71.0	3.8	8.46e-01	0	26	104	0	81	16716
2026-01-05 08:38:23.67	85.92	3.49	-58.0	-71.0	3.8	8.46e-01	0	26	104	0	81	16824
2026-01-05 08:38:24.67	85.86	3.55	-58.0	-71.0	3.8	8.46e-01	0	26	104	0	81	16869
2026-01-05 08:38:25.66	85.80	3.61	-58.0	-71.0	3.8	8.46e-01	0	26	104	0	81	16795
2026-01-05 08:38:26.65	85.74	3.67	-58.0	-70.9	3.8	8.47e-01	0	26	104	0	81	16663
2026-01-05 08:38:27.66	85.68	3.73	-58.0	-70.9	3.8	8.46e-01	0	26	104	0	81	16608
2026-01-05 08:38:28.65	85.62	3.79	-58.0	-70.9	3.8	8.44e-01	0	26	104	0	81	16571
2026-01-05 08:38:29.64	85.56	3.86	-58.0	-70.9	3.8	8.45e-01	0	26	104	0	81	16590
2026-01-05 08:38:30.63	85.49	3.92	-58.0	-70.9	3.8	8.47e-01	0	26	104	0	81	16682
2026-01-05 08:38:31.63	85.43	3.98	-58.0	-71.0	3.8	8.46e-01	0	26	104	0	81	16842
2026-01-05 08:38:32.62	85.37	4.04	-58.0	-71.0	3.8	8.46e-01	0	26	104	0	81	16840
2026-01-05 08:38:33.61	85.31	4.10	-58.0	-70.8	3.8	8.46e-01	0	26	104	0	81	16345
2026-01-05 08:38:34.61	85.24	4.16	-58.0	-70.3	3.8	8.46e-01	0	26	104	0	81	15436
2026-01-05 08:38:35.61	85.18	4.23	-57.9	-69.6	3.8	8.45e-01	0	26	104	0	81	14242
2026-01-05 08:38:36.61	85.12	4.29	-57.9	-69.0	3.8	8.45e-01	0	26	104	0	81	13272
2026-01-05 08:38:37.60	85.05	4.35	-57.8	-67.9	4.1	8.40e-01	0	26	0	0	81	11720
2026-01-05 08:38:38.60	84.99	4.41	-57.6	-67.0	4.3	8.34e-01	0	26	0	0	81	10643
2026-01-05 08:38:39.59	84.92	4.48	-57.5	-65.9	4.7	8.14e-01	0	26	0	0	81	9368
2026-01-05 08:38:40.59	84.86	4.54	-57.3	-64.8	5.2	7.47e-01	0	26	0	0	81	8270
2026-01-05 08:38:41.57	84.79	4.60	-56.9	-63.4	6.2	3.98e-01	0	26	0	3145728	80	7427
2026-01-05 08:38:42.56	84.73	4.66	-56.5	-61.9	7.3	1.17e-01	0	26	0	8388608	79	6614
2026-01-05 08:38:43.55	84.66	4.73	-56.1	-60.8	8.2	4.79e-02	0	26	0	13631488	78	6157
2026-01-05 08:38:44.54	84.60	4.79	-55.5	-59.5	9.3	1.51e-02	0	26	0	19922944	77	5637
2026-01-05 08:38:45.53	84.53	4.85	-55.0	-58.6	10.0	2.62e-03	0	26	0	25165824	76	5364
2026-01-05 08:38:46.53	84.46	4.92	-54.4	-57.5	10.8	6.68e-04	0	26	0	30408704	75	5023
2026-01-05 08:38:47.52	84.40	4.98	-54.2	-57.2	11.0	1.36e-04	0	26	0	36700160	74	5138
2026-01-05 08:38:48.51	84.33	5.04	-54.3	-57.4	10.9	9.95e-05	0	26	0	41943040	74	5262
2026-01-05 08:38:49.50	84.26	5.11	-53.4	-55.9	12.0	1.90e-03	0	26	0	47185920	73	4695
2026-01-05 08:38:50.50	84.20	5.17	-53.4	-56.0	11.9	0.00e+00	0	26	0	52428800	71	5293
2026-01-05 08:38:51.49	84.13	5.23	-55.2	-58.8	10.0	1.71e-01	0	26	0	58720256	77	5185
2026-01-05 08:38:52.49	84.06	5.30	-51.6	-53.5	13.3	1.22e-02	0	27	0	63963136	70	4238
2026-01-05 08:38:53.48	83.99	5.36	-50.5	-52.3	13.6	0.00e+00	0	27	0	70254592	66	4617
2026-01-05 08:38:54.48	83.92	5.43	-50.0	-51.7	13.9	0.00e+00	0	26	0	75497472	66	4309
2026-01-05 08:38:55.48	83.85	5.49	-49.4	-51.0	14.2	0.00e+00	0	26	0	80740352	65	4221
2026-01-05 08:38:56.47	83.78	5.56	-49.4	-51.0	14.1	0.00e+00	0	26	0	87031808	65	4217
2026-01-05 08:38:57.46	83.71	5.62	-49.4	-51.0	14.2	0.00e+00	0	26	0	92274688	65	4218
2026-01-05 08:38:58.46	83.64	5.69	-49.3	-50.8	14.3	0.00e+00	0	26	0	97517568	65	4125
2026-01-05 08:38:59.46	83.57	5.75	-49.3	-50.8	14.3	0.00e+00	0	26	0	103809024	65	4122
2026-01-05 08:39:00.46	83.50	5.82	-49.5	-51.0	14.2	0.00e+00	0	26	0	109051904	65	4223
2026-01-05 08:39:01.45	83.43	5.88	-49.4	-51.0	14.2	0.00e+00	0	26	0	114294784	65	4218
2026-01-05 08:39:02.45	83.35	5.95	-49.3	-50.9	14.3	0.00e+00	0	26	0	120586240	65	4165
2026-01-05 08:39:03.44	83.28	6.01	-49.4	-51.0	14.2	0.00e+00	0	27	0	125829120	65	4206
2026-01-05 08:39:04.43	83.21	6.08	-49.4	-50.9	14.2	0.00e+00	0	26	0	131072000	65	4189
2026-01-05 08:39:05.41	83.14	6.14	-49.3	-50.8	14.3	0.00e+00	0	26	0	137363456	65	4145
2026-01-05 08:39:06.40	83.07	6.21	-49.3	-50.9	14.3	0.00e+00	0	27	0	142606336	65	4164
2026-01-05 08:39:07.39	82.99	6.27	-49.3	-50.9	14.3	0.00e+00	0	26	0	147849216	65	4151
2026-01-05 08:39:08.39	82.92	6.34	-49.4	-51.0	14.2	0.00e+00	0	27	0	153092096	65	4213
2026-01-05 08:39:09.38	82.85	6.40	-49.4	-50.9	14.2	0.00e+00	0	27	0	159383552	65	4192
2026-01-05 08:39:10.38	82.77	6.47	-49.5	-51.0	14.2	0.00e+00	0	27	0	164626432	65	4239
2026-01-05 08:39:11.37	82.70	6.54	-49.2	-50.8	14.3	0.00e+00	0	27	0	170917888	65	4109
2026-01-05 08:39:12.37	82.62	6.60	-49.2	-50.8	14.3	0.00e+00	0	27	0	176160768	65	4112
2026-01-05 08:39:13.36	82.54	6.67	-49.2	-50.7	14.2	0.00e+00	0	27	0	181403648	64	4337
2026-01-05 08:39:14.36	82.47	6.74	-49.4	-50.9	14.1	0.00e+00	0	27	0	186646528	64	4428
2026-01-05 08:39:15.35	82.39	6.80	-49.4	-50.9	14.1	0.00e+00	0	27	0	192937984	64	4432
2026-01-05 08:39:16.34	82.32	6.87	-49.3	-50.9	14.1	0.00e+00	0	27	0	198180864	64	4425
2026-01-05 08:39:17.34	82.24	6.94	-49.3	-50.9	14.2	0.00e+00	0	27	0	203423744	64	4392
2026-01-05 08:39:18.33	82.16	7.00	-49.2	-50.7	14.2	0.00e+00	0	26	0	209715200	64	4333
2026-01-05 08:39:19.32	82.08	7.07	-49.1	-50.7	14.3	0.00e+00	0	26	0	214958080	64	4298
2026-01-05 08:39:20.32	82.01	7.14	-49.0	-50.6	14.3	0.00e+00	0	27	0	221249536	64	4261
2026-01-05 08:39:21.31	81.93	7.21	-49.1	-50.6	14.3	0.00e+00	0	27	0	226492416	64	4289
2026-01-05 08:39:22.29	81.85	7.27	-49.1	-50.7	14.3	0.00e+00	0	27	0	231735296	64	4308
2026-01-05 08:39:23.28	81.77	7.34	-49.2	-50.8	14.3	0.00e+00	0	27	0	236978176	64	4346
2026-01-05 08:39:24.28	81.69	7.41	-49.2	-50.8	14.3	0.00e+00	0	27	0	243269632	64	4342
2026-01-05 08:39:25.27	81.61	7.48	-49.1	-50.7	14.3	0.00e+00	0	27	0	248512512	64	4304
2026-01-05 08:39:26.27	81.53	7.55	-49.1	-50.6	14.3	0.00e+00	0	27	0	254803968	64	4271
2026-01-05 08:39:27.26	81.45	7.61	-49.1	-50.6	14.3	0.00e+00	0	27	0	260046848	64	4264
2026-01-05 08:39:28.25	81.37	7.68	-49.1	-50.7	14.3	0.00e+00	0	26	0	265289728	64	4302
2026-01-05 08:39:29.24	81.29	7.75	-49.1	-50.6	14.3	0.00e+00	0	27	0	270532608	64	4262
2026-01-05 08:39:30.23	81.21	7.82	-49.1	-50.6	14.3	0.00e+00	0	27	0	276824064	64	4270
2026-01-05 08:39:31.23	81.12	7.89	-49.1	-50.6	14.3	0.00e+00	0	27	0	282066944	64	4279
2026-01-05 08:39:32.22	81.04	7.96	-48.9	-50.4	14.4	0.00e+00	0	27	0	287309824	64	4193
2026-01-05 08:39:33.21	80.96	8.03	-48.8	-50.3	14.5	0.00e+00	0	27	0	293601280	64	4102
2026-01-05 08:39:34.21	80.87	8.09	-48.8	-50.3	14.5	0.00e+00	0	27	0	298844160	64	4130
2026-01-05 08:39:35.21	80.79	8.16	-48.8	-50.3	14.5	0.00e+00	0	27	0	305135616	64	4121
2026-01-05 08:39:36.21	80.70	8.23	-48.7	-50.2	14.5	0.00e+00	0	27	0	310378496	64	4069
2026-01-05 08:39:37.19	80.62	8.30	-48.8	-50.2	14.4	0.00e+00	0	27	0	315621376	63	4329
2026-01-05 08:39:38.18	80.54	8.37	-48.8	-50.3	14.4	0.00e+00	0	27	0	320864256	63	4363
2026-01-05 08:39:39.19	80.45	8.44	-48.7	-50.2	14.4	0.00e+00	0	27	0	327155712	63	4295
2026-01-05 08:39:40.18	80.36	8.51	-48.8	-50.2	14.4	0.00e+00	0	27	0	332398592	63	4331
2026-01-05 08:39:41.18	80.28	8.58	-48.6	-50.0	14.5	0.00e+00	0	26	0	337641472	63	4233
2026-01-05 08:39:42.18	80.19	8.65	-48.6	-50.0	14.5	0.00e+00	0	27	0	343932928	63	4220
2026-01-05 08:39:43.18	80.10	8.73	-48.6	-50.1	14.5	0.00e+00	0	27	0	349175808	63	4245
2026-01-05 08:39:44.17	80.01	8.80	-48.8	-50.3	14.4	0.00e+00	0	27	0	355467264	63	4351
2026-01-05 08:39:45.16	79.93	8.87	-48.8	-50.2	14.4	0.00e+00	0	27	0	360710144	63	4332
2026-01-05 08:39:46.15	79.84	8.94	-48.6	-50.1	14.5	0.00e+00	0	27	0	365953024	63	4246
2026-01-05 08:39:47.15	79.75	9.01	-48.7	-50.1	14.4	0.00e+00	0	27	0	371195904	63	4288
2026-01-05 08:39:48.14	79.66	9.08	-48.6	-50.0	14.5	0.00e+00	0	27	0	377487360	63	4217
2026-01-05 08:39:49.13	79.57	9.15	-48.6	-50.0	14.5	0.00e+00	0	27	0	382730240	63	4211
2026-01-05 08:39:50.13	79.48	9.22	-48.6	-50.0	14.5	0.00e+00	0	27	0	387973120	63	4223
2026-01-05 08:39:51.12	79.39	9.29	-48.6	-50.0	14.5	0.00e+00	0	27	0	394264576	63	4235
2026-01-05 08:39:52.12	79.29	9.36	-48.5	-50.0	14.5	0.00e+00	0	27	0	399507456	63	4194
2026-01-05 08:39:53.10	79.20	9.43	-48.5	-49.9	14.6	0.00e+00	0	27	0	404750336	63	4173
2026-01-05 08:39:54.09	79.11	9.51	-48.5	-49.9	14.6	0.00e+00	0	27	0	411041792	63	4182
2026-01-05 08:39:55.09	79.02	9.58	-48.4	-49.8	14.6	0.00e+00	0	27	0	416284672	63	4119
2026-01-05 08:39:56.08	78.93	9.65	-48.4	-49.9	14.6	0.00e+00	0	27	0	421527552	63	4146
2026-01-05 08:39:57.07	78.83	9.72	-48.4	-49.8	14.6	0.00e+00	0	27	0	427819008	63	4132
2026-01-05 08:39:58.07	78.74	9.80	-48.3	-49.7	14.7	0.00e+00	0	27	0	433061888	63	4069
2026-01-05 08:39:59.07	78.64	9.87	-48.3	-49.7	14.7	0.00e+00	0	27	0	438304768	63	4056
2026-01-05 08:40:00.06	78.55	9.94	-48.2	-49.6	14.7	0.00e+00	0	27	0	444596224	63	4041
2026-01-05 08:40:01.05	78.45	10.01	-48.2	-49.7	14.6	0.00e+00	0	27	0	449839104	62	4296
2026-01-05 08:40:02.04	78.36	10.09	-48.1	-49.5	14.6	0.00e+00	0	27	0	455081984	62	4209
2026-01-05 08:40:03.04	78.26	10.16	-48.2	-49.6	14.6	0.00e+00	0	27	0	461373440	62	4243
2026-01-05 08:40:04.03	78.16	10.23	-48.1	-49.5	14.6	0.00e+00	0	27	0	466616320	62	4220
2026-01-05 08:40:05.02	78.06	10.30	-48.1	-49.5	14.6	0.00e+00	0	27	0	471859200	62	4208
2026-01-05 08:40:06.03	77.96	10.38	-47.9	-49.3	14.7	0.00e+00	0	27	0	478150656	62	4105
2026-01-05 08:40:07.01	77.87	10.45	-48.0	-49.3	14.7	0.00e+00	0	27	0	483393536	62	4133
2026-01-05 08:40:08.00	77.77	10.53	-47.9	-49.3	14.7	0.00e+00	0	27	0	488636416	62	4131
2026-01-05 08:40:08.99	77.67	10.60	-47.9	-49.2	14.7	0.00e+00	0	27	0	494927872	62	4092
2026-01-05 08:40:09.98	77.57	10.67	-48.0	-49.4	14.7	0.00e+00	0	27	0	500170752	62	4157
2026-01-05 08:40:10.98	77.47	10.75	-48.0	-49.3	14.7	0.00e+00	0	27	0	505413632	62	4133
2026-01-05 08:40:11.98	77.36	10.82	-48.0	-49.3	14.7	0.00e+00	0	27	0	511705088	62	4135
2026-01-05 08:40:12.96	77.26	10.90	-48.0	-49.4	14.7	0.00e+00	0	27	0	516947968	62	4151
2026-01-05 08:40:13.96	77.16	10.97	-48.0	-49.4	14.7	0.00e+00	0	27	0	522190848	62	4170
2026-01-05 08:40:14.95	77.06	11.04	-48.0	-49.4	14.7	0.00e+00	0	27	0	527433728	62	4162
2026-01-05 08:40:15.95	76.95	11.12	-48.1	-49.4	14.7	0.00e+00	0	27	0	533725184	62	4185
2026-01-05 08:40:16.94	76.85	11.19	-48.1	-49.5	14.6	0.00e+00	0	27	0	538968064	62	4217
2026-01-05 08:40:17.93	76.75	11.27	-48.3	-49.5	14.6	0.00e+00	0	27	0	545259520	62	4230
2026-01-05 08:40:18.92	76.64	11.34	-48.2	-49.5	14.7	0.00e+00	0	27	0	550502400	62	4214
2026-01-05 08:40:19.91	76.54	11.42	-48.1	-49.4	14.7	0.00e+00	0	27	0	555745280	62	4149
2026-01-05 08:40:20.90	76.43	11.49	-48.2	-49.4	14.7	0.00e+00	0	27	0	560988160	62	4175
2026-01-05 08:40:21.90	76.32	11.57	-48.0	-49.2	14.8	0.00e+00	0	27	0	567279616	62	4088
2026-01-05 08:40:22.90	76.22	11.65	-48.1	-49.3	14.7	0.00e+00	0	27	0	572522496	62	4129
2026-01-05 08:40:23.90	76.11	11.72	-48.1	-49.3	14.7	0.00e+00	0	27	0	578813952	62	4124
2026-01-05 08:40:24.89	76.00	11.80	-48.1	-49.3	14.7	0.00e+00	0	27	0	584056832	62	4126
2026-01-05 08:40:25.89	75.89	11.87	-48.1	-49.4	14.7	0.00e+00	0	27	0	589299712	62	4147
2026-01-05 08:40:26.88	75.78	11.95	-48.0	-49.2	14.8	0.00e+00	0	27	0	595591168	62	4094
2026-01-05 08:40:27.88	75.67	12.03	-48.0	-49.3	14.8	0.00e+00	0	27	0	600834048	62	4106
2026-01-05 08:40:28.87	75.56	12.10	-48.0	-49.3	14.8	0.00e+00	0	27	0	606076928	62	4110
2026-01-05 08:40:29.85	75.45	12.18	-48.0	-49.2	14.8	0.00e+00	0	27	0	611319808	62	4082
2026-01-05 08:40:30.84	75.34	12.26	-48.0	-49.2	14.8	0.00e+00	0	27	0	617611264	62	4074
2026-01-05 08:40:31.83	75.22	12.33	-48.0	-49.2	14.8	0.00e+00	0	27	0	622854144	62	4080
2026-01-05 08:40:32.83	75.11	12.41	-48.0	-49.3	14.8	0.00e+00	0	27	0	629145600	62	4099
2026-01-05 08:40:33.82	75.00	12.49	-47.8	-49.1	14.9	0.00e+00	0	27	0	634388480	62	4007
2026-01-05 08:40:34.82	74.88	12.56	-47.8	-49.0	14.9	0.00e+00	0	27	0	639631360	62	3977
2026-01-05 08:40:35.81	74.77	12.64	-47.8	-49.0	14.9	0.00e+00	0	27	0	645922816	62	3978
2026-01-05 08:40:36.81	74.65	12.72	-47.8	-49.0	14.9	0.00e+00	0	27	0	651165696	62	3975
2026-01-05 08:40:37.79	74.54	12.80	-47.6	-48.8	14.8	0.00e+00	0	27	0	656408576	61	4123
2026-01-05 08:40:38.78	74.42	12.87	-47.7	-48.9	14.8	0.00e+00	0	27	0	661651456	61	4156
2026-01-05 08:40:39.77	74.30	12.95	-47.8	-49.0	14.7	0.00e+00	0	27	0	667942912	61	4216
2026-01-05 08:40:40.76	74.18	13.03	-47.7	-48.9	14.8	0.00e+00	0	27	0	673185792	61	4165
2026-01-05 08:40:41.76	74.06	13.11	-47.7	-48.9	14.8	0.00e+00	0	27	0	678428672	61	4160
2026-01-05 08:40:42.76	73.94	13.19	-47.6	-48.8	14.8	0.00e+00	0	27	0	684720128	61	4137
2026-01-05 08:40:43.75	73.82	13.26	-47.6	-48.8	14.8	0.00e+00	0	27	0	689963008	61	4101
2026-01-05 08:40:44.74	73.70	13.34	-47.6	-48.8	14.8	0.00e+00	0	27	0	695205888	61	4116
2026-01-05 08:40:45.74	73.58	13.42	-47.6	-48.8	14.8	0.00e+00	0	27	0	701497344	61	4145
2026-01-05 08:40:46.73	73.46	13.50	-47.7	-48.9	14.8	0.00e+00	0	27	0	706740224	61	4161
2026-01-05 08:40:47.73	73.34	13.58	-47.6	-48.8	14.9	0.00e+00	0	27	0	711983104	61	4126
2026-01-05 08:40:48.73	73.21	13.66	-47.6	-48.7	14.8	0.00e+00	0	27	0	718274560	61	4097
2026-01-05 08:40:49.72	73.09	13.74	-47.4	-48.6	14.9	0.00e+00	0	27	0	723517440	61	4009
2026-01-05 08:40:50.72	72.96	13.82	-47.3	-48.5	15.0	0.00e+00	0	27	0	729808896	61	3979
2026-01-05 08:40:51.71	72.84	13.90	-47.4	-48.6	14.9	0.00e+00	0	27	0	735051776	61	4006
2026-01-05 08:40:52.71	72.71	13.98	-47.3	-48.5	15.0	0.00e+00	0	27	0	740294656	61	3969
2026-01-05 08:40:53.70	72.58	14.06	-47.3	-48.5	14.9	0.00e+00	0	27	0	745537536	61	3994
2026-01-05 08:40:54.68	72.46	14.14	-47.3	-48.5	15.0	0.00e+00	0	27	0	751828992	61	3983
2026-01-05 08:40:55.68	72.33	14.22	-47.1	-48.3	14.9	0.00e+00	0	27	0	757071872	60	4108
2026-01-05 08:40:56.67	72.20	14.30	-47.1	-48.2	14.9	0.00e+00	0	27	0	762314752	60	4078
2026-01-05 08:40:57.67	72.07	14.38	-47.1	-48.2	14.9	0.00e+00	0	27	0	768606208	60	4094
2026-01-05 08:40:58.66	71.94	14.46	-47.0	-48.1	15.0	0.00e+00	0	27	0	773849088	60	4030
2026-01-05 08:40:59.66	71.81	14.54	-47.0	-48.2	15.0	0.00e+00	0	27	0	779091968	60	4065
2026-01-05 08:41:00.65	71.68	14.62	-47.1	-48.2	14.9	0.00e+00	0	27	0	785383424	60	4098
2026-01-05 08:41:01.64	71.55	14.70	-47.0	-48.2	15.0	0.00e+00	0	27	0	790626304	60	4063
2026-01-05 08:41:02.64	71.41	14.78	-47.1	-48.3	14.9	0.00e+00	0	27	0	795869184	60	4099
2026-01-05 08:41:03.63	71.28	14.86	-47.0	-48.1	15.0	0.00e+00	0	27	0	802160640	60	4037
2026-01-05 08:41:04.62	71.14	14.94	-46.9	-48.0	15.0	0.00e+00	0	27	0	807403520	60	3998
2026-01-05 08:41:05.61	71.01	15.02	-46.9	-48.1	15.0	0.00e+00	0	27	0	812646400	60	4020
2026-01-05 08:41:06.61	70.87	15.10	-46.9	-48.1	15.0	0.00e+00	0	27	0	818937856	60	4021
2026-01-05 08:41:07.60	70.73	15.18	-47.0	-48.2	14.9	0.00e+00	0	27	0	824180736	60	4065
2026-01-05 08:41:08.58	70.60	15.26	-47.1	-48.3	14.9	0.00e+00	0	27	0	829423616	60	4102
2026-01-05 08:41:09.57	70.46	15.34	-46.9	-48.1	15.0	0.00e+00	0	27	0	835715072	60	4021
2026-01-05 08:41:10.55	70.32	15.42	-46.9	-48.0	15.0	0.00e+00	0	27	0	840957952	60	3999
2026-01-05 08:41:11.56	70.18	15.51	-46.9	-48.0	15.0	0.00e+00	0	27	0	846200832	60	3991
2026-01-05 08:41:12.54	70.04	15.59	-46.8	-47.9	15.1	0.00e+00	0	27	0	851443712	60	3946
2026-01-05 08:41:13.54	69.90	15.67	-46.8	-47.9	15.1	0.00e+00	0	27	0	857735168	60	3945
2026-01-05 08:41:14.53	69.76	15.75	-46.9	-48.0	15.0	0.00e+00	0	27	0	862978048	60	3997
2026-01-05 08:41:15.53	69.61	15.83	-46.9	-48.0	15.0	0.00e+00	0	27	0	869269504	60	3987
2026-01-05 08:41:16.52	69.47	15.92	-46.9	-48.0	15.0	0.00e+00	0	27	0	874512384	60	4002
2026-01-05 08:41:17.52	69.32	16.00	-46.7	-47.8	15.1	0.00e+00	0	27	0	879755264	60	3910
2026-01-05 08:41:18.52	69.18	16.08	-46.8	-47.9	15.0	0.00e+00	0	27	0	886046720	60	3949
2026-01-05 08:41:19.52	69.03	16.16	-46.7	-47.9	15.1	0.00e+00	0	27	0	891289600	60	3920
2026-01-05 08:41:20.51	68.88	16.25	-46.8	-48.0	15.0	0.00e+00	0	27	0	896532480	60	3964
2026-01-05 08:41:21.50	68.73	16.33	-46.9	-48.0	15.0	0.00e+00	0	27	0	901775360	60	3996
2026-01-05 08:41:22.50	68.58	16.41	-46.9	-48.1	15.0	0.00e+00	0	27	0	908066816	60	4005
2026-01-05 08:41:23.50	68.43	16.50	-46.8	-47.9	15.1	0.00e+00	0	27	0	913309696	60	3932
2026-01-05 08:41:24.49	68.28	16.58	-46.8	-47.9	15.1	0.00e+00	0	27	0	919601152	60	3943
2026-01-05 08:41:25.48	68.13	16.66	-46.7	-47.9	15.1	0.00e+00	0	27	0	924844032	60	3927
2026-01-05 08:41:26.47	67.98	16.74	-46.8	-48.0	15.0	0.00e+00	0	27	0	930086912	60	3970
2026-01-05 08:41:27.46	67.83	16.83	-46.8	-47.9	15.1	0.00e+00	0	27	0	936378368	60	3948
2026-01-05 08:41:28.46	67.67	16.91	-47.0	-48.2	14.9	0.00e+00	0	27	0	941621248	59	4313
2026-01-05 08:41:29.45	67.52	16.99	-47.0	-48.1	14.9	0.00e+00	0	27	0	946864128	59	4286
2026-01-05 08:41:30.44	67.36	17.07	-47.1	-48.2	14.9	0.00e+00	0	27	0	953155584	59	4323
2026-01-05 08:41:31.43	67.21	17.16	-46.8	-47.9	15.0	0.00e+00	0	27	0	958398464	59	4159
2026-01-05 08:41:32.42	67.05	17.24	-46.8	-47.9	14.9	0.00e+00	0	27	0	963641344	59	4174
2026-01-05 08:41:33.41	66.89	17.32	-46.8	-48.0	14.9	0.00e+00	0	27	0	968884224	59	4198
2026-01-05 08:41:34.40	66.73	17.41	-46.6	-47.8	15.0	0.00e+00	0	27	0	975175680	59	4099
2026-01-05 08:41:35.39	66.57	17.49	-46.6	-47.7	15.0	0.00e+00	0	27	0	980418560	59	4098
2026-01-05 08:41:36.39	66.41	17.57	-46.8	-47.9	15.0	0.00e+00	0	27	0	985661440	59	4162
2026-01-05 08:41:37.38	66.25	17.66	-46.9	-48.0	14.9	0.00e+00	0	27	0	991952896	59	4223
2026-01-05 08:41:38.37	66.09	17.74	-46.7	-47.8	15.0	0.00e+00	0	27	0	997195776	59	4138
2026-01-05 08:41:39.36	65.92	17.82	-46.7	-47.9	15.0	0.00e+00	0	27	0	1003487232	59	4162
2026-01-05 08:41:40.36	65.76	17.91	-46.7	-47.8	15.0	0.00e+00	0	27	0	1008730112	59	4143
2026-01-05 08:41:41.34	65.59	17.99	-46.6	-47.8	15.0	0.00e+00	0	27	0	1013972992	59	4107
2026-01-05 08:41:42.34	65.43	18.07	-46.6	-47.7	15.0	0.00e+00	0	27	0	1019215872	59	4080
2026-01-05 08:41:43.33	65.26	18.16	-46.5	-47.6	15.1	0.00e+00	0	27	0	1025507328	59	4046
2026-01-05 08:41:44.33	65.09	18.24	-46.5	-47.6	15.1	0.00e+00	0	27	0	1030750208	59	4031
2026-01-05 08:41:45.32	64.92	18.33	-46.6	-47.7	15.0	0.00e+00	0	27	0	1035993088	59	4070
2026-01-05 08:41:46.31	64.75	18.41	-46.6	-47.7	15.0	0.00e+00	0	27	0	1042284544	59	4071
2026-01-05 08:41:47.30	64.58	18.49	-46.4	-47.5	15.1	0.00e+00	0	27	0	1047527424	59	3973
2026-01-05 08:41:48.30	64.41	18.58	-46.5	-47.6	15.1	0.00e+00	0	27	0	1052770304	59	4011
2026-01-05 08:41:49.29	64.23	18.66	-46.4	-47.5	15.1	0.00e+00	0	27	0	1059061760	59	4000
2026-01-05 08:41:50.28	64.06	18.74	-46.4	-47.5	15.1	0.00e+00	0	27	0	1064304640	59	3988
2026-01-05 08:41:51.28	63.88	18.83	-46.6	-47.7	15.0	0.00e+00	0	27	0	1069547520	59	4090
2026-01-05 08:41:52.28	63.70	18.91	-46.7	-47.8	15.0	0.00e+00	0	27	0	1075838976	59	4118
2026-01-05 08:41:53.27	63.53	19.00	-46.6	-47.8	15.0	0.00e+00	0	27	0	1081081856	59	4114
2026-01-05 08:41:54.27	63.35	19.08	-46.7	-47.9	15.0	0.00e+00	0	27	0	1086324736	59	4146
2026-01-05 08:41:55.26	63.17	19.16	-46.6	-47.8	15.0	0.00e+00	0	27	0	1092616192	59	4100
2026-01-05 08:41:56.25	62.99	19.25	-46.6	-47.7	15.0	0.00e+00	0	27	0	1097859072	59	4073
2026-01-05 08:41:57.25	62.81	19.33	-46.6	-47.8	15.0	0.00e+00	0	27	0	1103101952	59	4103
2026-01-05 08:41:58.25	62.62	19.42	-46.5	-47.6	15.1	0.00e+00	0	27	0	1109393408	59	4030
2026-01-05 08:41:59.24	62.44	19.50	-46.6	-47.7	15.1	0.00e+00	0	27	0	1114636288	59	4089
2026-01-05 08:42:00.24	62.26	19.58	-46.6	-47.7	15.0	0.00e+00	0	27	0	1119879168	59	4092
2026-01-05 08:42:01.22	62.07	19.67	-46.5	-47.7	15.1	0.00e+00	0	27	0	1126170624	59	4053
2026-01-05 08:42:02.21	61.89	19.75	-46.7	-47.9	15.0	0.00e+00	0	27	0	1131413504	59	4158
2026-01-05 08:42:03.21	61.70	19.83	-46.6	-47.7	15.1	0.00e+00	0	27	0	1136656384	59	4063
2026-01-05 08:42:04.20	61.51	19.92	-46.5	-47.6	15.1	0.00e+00	0	27	0	1142947840	59	4037
2026-01-05 08:42:05.20	61.32	20.00	-46.4	-47.5	15.1	0.00e+00	0	27	0	1148190720	59	3996
2026-01-05 08:42:06.19	61.13	20.09	-46.3	-47.4	15.2	0.00e+00	0	27	0	1153433600	59	3928
2026-01-05 08:42:07.18	60.94	20.17	-46.4	-47.5	15.1	0.00e+00	0	27	0	1159725056	59	3973
2026-01-05 08:42:08.17	60.75	20.25	-46.3	-47.4	15.2	0.00e+00	0	27	0	1164967936	59	3917
2026-01-05 08:42:09.16	60.55	20.33	-46.4	-47.5	15.1	0.00e+00	0	27	0	1170210816	59	3989
2026-01-05 08:42:10.16	60.36	20.42	-46.3	-47.4	15.2	0.00e+00	0	27	0	1175453696	59	3956
2026-01-05 08:42:11.16	60.16	20.50	-46.3	-47.4	15.2	0.00e+00	0	27	0	1181745152	59	3927
2026-01-05 08:42:12.15	59.96	20.58	-46.3	-47.4	15.2	0.00e+00	0	27	0	1186988032	59	3934
2026-01-05 08:42:13.14	59.77	20.67	-46.2	-47.3	15.2	0.00e+00	0	27	0	1193279488	59	3885
2026-01-05 08:42:14.13	59.57	20.75	-46.0	-47.0	15.1	0.00e+00	0	27	0	1198522368	58	3999
2026-01-05 08:42:15.12	59.37	20.83	-45.9	-47.0	15.2	0.00e+00	0	27	0	1203765248	58	3967
2026-01-05 08:42:16.11	59.17	20.91	-45.9	-47.0	15.1	0.00e+00	0	27	0	1209008128	58	3973
2026-01-05 08:42:17.09	58.97	21.00	-45.9	-47.0	15.1	0.00e+00	0	27	0	1215299584	58	3988
2026-01-05 08:42:18.09	58.76	21.08	-46.0	-47.1	15.1	0.00e+00	0	27	0	1220542464	58	4015
2026-01-05 08:42:19.09	58.56	21.16	-45.9	-47.0	15.1	0.00e+00	0	27	0	1225785344	58	3996
2026-01-05 08:42:20.08	58.35	21.24	-45.9	-47.0	15.2	0.00e+00	0	27	0	1232076800	58	3972
2026-01-05 08:42:21.07	58.15	21.33	-45.8	-46.9	15.2	0.00e+00	0	27	0	1237319680	58	3930
2026-01-05 08:42:22.07	57.94	21.41	-45.7	-46.8	15.2	0.00e+00	0	27	0	1243611136	58	3899
2026-01-05 08:42:23.06	57.73	21.49	-45.8	-46.9	15.2	0.00e+00	0	27	0	1248854016	58	3916
2026-01-05 08:42:24.05	57.52	21.57	-45.8	-46.9	15.2	0.00e+00	0	27	0	1254096896	58	3945
2026-01-05 08:42:25.05	57.31	21.65	-45.9	-47.0	15.2	0.00e+00	0	27	0	1259339776	58	3969
2026-01-05 08:42:26.04	57.10	21.73	-45.9	-47.0	15.1	0.00e+00	0	27	0	1265631232	58	3987
2026-01-05 08:42:27.04	56.88	21.82	-45.8	-46.9	15.2	0.00e+00	0	27	0	1270874112	58	3930
2026-01-05 08:42:28.03	56.67	21.90	-45.9	-47.0	15.1	0.00e+00	0	27	0	1277165568	58	3991
2026-01-05 08:42:29.02	56.45	21.98	-46.0	-47.1	15.1	0.00e+00	0	27	0	1282408448	58	4008
2026-01-05 08:42:30.02	56.23	22.06	-46.0	-47.1	15.1	0.00e+00	0	27	0	1287651328	58	4036
2026-01-05 08:42:31.02	56.02	22.14	-46.0	-47.1	15.1	0.00e+00	0	27	0	1293942784	58	4029
2026-01-05 08:42:32.01	55.80	22.22	-46.0	-47.1	15.1	0.00e+00	0	27	0	1299185664	58	4038
2026-01-05 08:42:33.00	55.58	22.30	-46.0	-47.1	15.1	0.00e+00	0	27	0	1304428544	58	4014
2026-01-05 08:42:34.00	55.35	22.38	-46.1	-47.2	15.1	0.00e+00	0	27	0	1309671424	58	4055
2026-01-05 08:42:34.99	55.13	22.46	-45.8	-46.9	15.2	0.00e+00	0	27	0	1315962880	58	3945
2026-01-05 08:42:35.99	54.91	22.54	-45.7	-46.8	15.2	0.00e+00	0	27	0	1321205760	58	3887
2026-01-05 08:42:36.97	54.69	22.62	-45.8	-46.9	15.2	0.00e+00	0	27	0	1327497216	58	3920
2026-01-05 08:42:37.96	54.46	22.70	-45.8	-46.8	15.2	0.00e+00	0	27	0	1332740096	58	3897
2026-01-05 08:42:38.96	54.23	22.77	-45.8	-46.8	15.2	0.00e+00	0	27	0	1337982976	58	3897
2026-01-05 08:42:39.95	54.00	22.85	-45.8	-46.8	15.2	0.00e+00	0	27	0	1343225856	58	3912
2026-01-05 08:42:40.95	53.77	22.93	-45.8	-46.9	15.2	0.00e+00	0	27	0	1349517312	58	3915
2026-01-05 08:42:41.94	53.54	23.01	-45.6	-46.7	15.1	0.00e+00	0	27	0	1354760192	57	4084
2026-01-05 08:42:42.94	53.31	23.09	-45.7	-46.8	15.1	0.00e+00	0	27	0	1360003072	57	4099
2026-01-05 08:42:43.93	53.08	23.16	-45.6	-46.7	15.1	0.00e+00	0	27	0	1366294528	57	4088
2026-01-05 08:42:44.92	52.84	23.24	-45.7	-46.7	15.1	0.00e+00	0	27	0	1371537408	57	4097
2026-01-05 08:42:45.92	52.61	23.32	-45.6	-46.7	15.1	0.00e+00	0	27	0	1377828864	57	4085
2026-01-05 08:42:46.92	52.37	23.40	-45.7	-46.8	15.1	0.00e+00	0	27	0	1383071744	57	4114
2026-01-05 08:42:47.92	52.13	23.47	-45.8	-46.9	15.1	0.00e+00	0	27	0	1388314624	57	4165
2026-01-05 08:42:48.92	51.89	23.55	-45.8	-46.9	15.1	0.00e+00	0	27	0	1394606080	57	4182
2026-01-05 08:42:49.91	51.65	23.62	-45.8	-46.9	15.1	0.00e+00	0	27	0	1399848960	57	4157
2026-01-05 08:42:50.90	51.41	23.70	-45.7	-46.8	15.1	0.00e+00	0	27	0	1405091840	57	4138
2026-01-05 08:42:51.90	51.16	23.77	-45.7	-46.7	15.1	0.00e+00	0	27	0	1410334720	57	4089
2026-01-05 08:42:52.90	50.92	23.85	-45.6	-46.6	15.1	0.00e+00	0	27	0	1416626176	57	4042
2026-01-05 08:42:53.89	50.68	23.92	-45.6	-46.6	15.1	0.00e+00	0	27	0	1421869056	57	4041
2026-01-05 08:42:54.88	50.43	24.00	-45.5	-46.6	15.2	0.00e+00	0	27	0	1428160512	57	4038
2026-01-05 08:42:55.87	50.18	24.07	-45.6	-46.7	15.1	0.00e+00	0	27	0	1433403392	57	4062
2026-01-05 08:42:56.86	49.94	24.14	-45.7	-46.8	15.1	0.00e+00	0	27	0	1438646272	57	4115
2026-01-05 08:42:57.85	49.69	24.22	-45.7	-46.8	15.1	0.00e+00	0	27	0	1443889152	57	4108
2026-01-05 08:42:58.85	49.44	24.29	-45.5	-46.5	15.2	0.00e+00	0	27	0	1450180608	57	3997
2026-01-05 08:42:59.84	49.19	24.36	-45.5	-46.6	15.2	0.00e+00	0	27	0	1455423488	57	4017
2026-01-05 08:43:00.83	48.93	24.43	-45.5	-46.6	15.2	0.00e+00	0	27	0	1460666368	57	4021
2026-01-05 08:43:01.82	48.68	24.50	-45.6	-46.7	15.1	0.00e+00	0	27	0	1466957824	57	4064
2026-01-05 08:43:02.81	48.43	24.57	-45.7	-46.8	15.1	0.00e+00	0	27	0	1472200704	57	4118
2026-01-05 08:43:03.81	48.17	24.64	-45.6	-46.7	15.1	0.00e+00	0	27	0	1477443584	57	4066
2026-01-05 08:43:04.80	47.91	24.71	-45.7	-46.7	15.1	0.00e+00	0	27	0	1483735040	57	4098
2026-01-05 08:43:05.79	47.65	24.78	-45.5	-46.6	15.1	0.00e+00	0	27	0	1488977920	57	4037
2026-01-05 08:43:06.78	47.39	24.85	-45.4	-46.5	15.2	0.00e+00	0	27	0	1494220800	57	3980
2026-01-05 08:43:07.78	47.13	24.92	-45.3	-46.3	15.2	0.00e+00	0	27	0	1500512256	57	3913
2026-01-05 08:43:08.78	46.87	24.99	-45.3	-46.4	15.2	0.00e+00	0	27	0	1505755136	57	3929
2026-01-05 08:43:09.77	46.61	25.06	-45.2	-46.2	15.1	0.00e+00	0	27	0	1510998016	56	4079
2026-01-05 08:43:10.76	46.34	25.12	-45.1	-46.2	15.2	0.00e+00	0	27	0	1517289472	56	4055
2026-01-05 08:43:11.76	46.07	25.19	-45.2	-46.2	15.1	0.00e+00	0	27	0	1522532352	56	4097
2026-01-05 08:43:12.75	45.81	25.25	-45.2	-46.3	15.1	0.00e+00	0	27	0	1527775232	56	4110
2026-01-05 08:43:13.75	45.54	25.32	-45.3	-46.3	15.1	0.00e+00	0	27	0	1534066688	56	4140
2026-01-05 08:43:14.75	45.27	25.39	-45.3	-46.3	15.1	0.00e+00	0	27	0	1539309568	56	4140
2026-01-05 08:43:15.75	45.00	25.45	-45.4	-46.4	15.1	0.00e+00	0	27	0	1544552448	56	4188
2026-01-05 08:43:16.74	44.73	25.51	-45.3	-46.4	15.1	0.00e+00	0	27	0	1550843904	56	4173
2026-01-05 08:43:17.73	44.46	25.58	-45.3	-46.4	15.1	0.00e+00	0	27	0	1556086784	56	4185
2026-01-05 08:43:18.72	44.18	25.64	-45.3	-46.4	15.1	0.00e+00	0	27	0	1561329664	56	4165
2026-01-05 08:43:19.71	43.91	25.70	-45.3	-46.4	15.1	0.00e+00	0	27	0	1567621120	56	4162
2026-01-05 08:43:20.70	43.64	25.76	-45.4	-46.5	15.1	0.00e+00	0	27	0	1572864000	56	4217
2026-01-05 08:43:21.69	43.36	25.82	-45.4	-46.5	15.1	0.00e+00	0	27	0	1578106880	56	4221
2026-01-05 08:43:22.69	43.08	25.88	-45.5	-46.5	15.1	0.00e+00	0	27	0	1584398336	56	4237
2026-01-05 08:43:23.68	42.80	25.94	-45.5	-46.5	15.1	0.00e+00	0	27	0	1589641216	56	4241
2026-01-05 08:43:24.66	42.53	26.00	-45.3	-46.4	15.1	0.00e+00	0	27	0	1594884096	56	4151
2026-01-05 08:43:25.66	42.24	26.06	-45.3	-46.4	15.1	0.00e+00	0	27	0	1601175552	56	4172
2026-01-05 08:43:26.65	41.96	26.12	-45.3	-46.4	15.1	0.00e+00	0	27	0	1606418432	56	4181
2026-01-05 08:43:27.65	41.68	26.18	-45.3	-46.3	15.1	0.00e+00	0	27	0	1611661312	56	4135
2026-01-05 08:43:28.65	41.39	26.23	-45.1	-46.2	15.2	0.00e+00	0	27	0	1617952768	56	4065
2026-01-05 08:43:29.64	41.11	26.29	-45.1	-46.2	15.2	0.00e+00	0	27	0	1623195648	56	4066
2026-01-05 08:43:30.63	40.82	26.34	-45.0	-46.1	15.2	0.00e+00	0	27	0	1628438528	56	4011
2026-01-05 08:43:31.62	40.54	26.40	-45.0	-46.0	15.2	0.00e+00	0	27	0	1634729984	56	3992
2026-01-05 08:43:32.61	40.25	26.45	-45.2	-46.2	15.2	0.00e+00	0	27	0	1639972864	56	4091
2026-01-05 08:43:33.61	39.96	26.50	-45.2	-46.3	15.1	0.00e+00	0	27	0	1645215744	56	4120
2026-01-05 08:43:34.60	39.67	26.56	-45.3	-46.3	15.1	0.00e+00	0	27	0	1651507200	56	4132
2026-01-05 08:43:35.58	39.39	26.61	-45.3	-46.4	15.1	0.00e+00	0	27	0	1656750080	56	4177
2026-01-05 08:43:36.58	39.09	26.66	-45.4	-46.4	15.1	0.00e+00	0	27	0	1661992960	56	4189
2026-01-05 08:43:37.57	38.80	26.71	-45.2	-46.3	15.1	0.00e+00	0	27	0	1668284416	56	4115
2026-01-05 08:43:38.56	38.51	26.76	-45.0	-46.0	15.2	0.00e+00	0	27	0	1673527296	56	3993
2026-01-05 08:43:39.56	38.21	26.81	-45.0	-46.0	15.2	0.00e+00	0	27	0	1678770176	56	3990
2026-01-05 08:43:40.56	37.91	26.86	-45.1	-46.1	15.2	0.00e+00	0	27	0	1684013056	56	4045
2026-01-05 08:43:41.55	37.62	26.90	-45.2	-46.3	15.1	0.00e+00	0	27	0	1690304512	56	4107
2026-01-05 08:43:42.55	37.32	26.95	-45.2	-46.2	15.1	0.00e+00	0	27	0	1695547392	56	4092
2026-01-05 08:43:43.54	37.02	27.00	-45.2	-46.3	15.2	0.00e+00	0	27	0	1701838848	56	4116
2026-01-05 08:43:44.53	36.73	27.04	-45.0	-46.1	15.2	0.00e+00	0	27	0	1707081728	56	4027
2026-01-05 08:43:45.53	36.42	27.09	-45.0	-46.0	15.2	0.00e+00	0	27	0	1712324608	56	4001
2026-01-05 08:43:46.52	36.12	27.13	-44.9	-46.0	15.2	0.00e+00	0	27	0	1718616064	56	3976
2026-01-05 08:43:47.52	35.82	27.17	-45.1	-46.1	15.2	0.00e+00	0	27	0	1723858944	56	4023
2026-01-05 08:43:48.51	35.52	27.21	-45.0	-46.0	15.2	0.00e+00	0	27	0	1729101824	56	3979
2026-01-05 08:43:49.50	35.22	27.25	-44.9	-45.9	15.2	0.00e+00	0	27	0	1734344704	56	3946
2026-01-05 08:43:50.49	34.92	27.29	-44.9	-45.9	15.2	0.00e+00	0	27	0	1740636160	56	3953
2026-01-05 08:43:51.49	34.61	27.33	-44.9	-45.9	15.2	0.00e+00	0	27	0	1745879040	56	3956
2026-01-05 08:43:52.48	34.31	27.37	-45.0	-46.1	15.2	0.00e+00	0	27	0	1752170496	56	4005
2026-01-05 08:43:53.47	34.00	27.41	-44.9	-46.0	15.2	0.00e+00	0	27	0	1757413376	56	3970
2026-01-05 08:43:54.46	33.70	27.45	-44.9	-45.9	15.3	0.00e+00	0	27	0	1762656256	56	3940
2026-01-05 08:43:55.45	33.39	27.48	-44.8	-45.9	15.3	0.00e+00	0	27	0	1767899136	56	3923
2026-01-05 08:43:56.45	33.08	27.52	-44.9	-45.9	15.3	0.00e+00	0	27	0	1774190592	56	3938
2026-01-05 08:43:57.45	32.77	27.55	-44.9	-45.9	15.3	0.00e+00	0	27	0	1779433472	56	3951
2026-01-05 08:43:58.45	32.46	27.58	-44.9	-45.9	15.3	0.00e+00	0	27	0	1784676352	56	3946
2026-01-05 08:43:59.44	32.15	27.62	-44.8	-45.8	15.3	0.00e+00	0	27	0	1790967808	56	3903
2026-01-05 08:44:00.43	31.84	27.65	-44.8	-45.8	15.3	0.00e+00	0	27	0	1796210688	56	3889
2026-01-05 08:44:01.43	31.53	27.68	-44.8	-45.8	15.3	0.00e+00	0	27	0	1802502144	56	3886
2026-01-05 08:44:02.42	31.21	27.71	-44.7	-45.7	15.2	0.00e+00	0	27	0	1807745024	55	4077
2026-01-05 08:44:03.42	30.90	27.74	-44.6	-45.7	15.2	0.00e+00	0	27	0	1812987904	55	4065
2026-01-05 08:44:04.41	30.59	27.76	-44.7	-45.8	15.2	0.00e+00	0	27	0	1819279360	55	4118
2026-01-05 08:44:05.41	30.27	27.79	-44.7	-45.7	15.2	0.00e+00	0	27	0	1824522240	55	4091
2026-01-05 08:44:06.41	29.96	27.82	-44.6	-45.7	15.2	0.00e+00	0	27	0	1829765120	55	4074
2026-01-05 08:44:07.40	29.64	27.84	-44.5	-45.5	15.2	0.00e+00	0	27	0	1835008000	55	3979
2026-01-05 08:44:08.39	29.33	27.87	-44.4	-45.4	15.3	0.00e+00	0	27	0	1841299456	55	3947
2026-01-05 08:44:09.39	29.01	27.89	-44.4	-45.4	15.2	0.00e+00	0	27	0	1846542336	55	3957
2026-01-05 08:44:10.38	28.70	27.91	-44.4	-45.4	15.3	0.00e+00	0	27	0	1852833792	55	3948
2026-01-05 08:44:11.37	28.38	27.93	-44.5	-45.5	15.3	0.00e+00	0	27	0	1858076672	55	3972
2026-01-05 08:44:12.37	28.06	27.95	-44.4	-45.4	15.3	0.00e+00	0	27	0	1863319552	55	3944
2026-01-05 08:44:13.36	27.75	27.97	-44.3	-45.3	15.3	0.00e+00	0	27	0	1869611008	55	3897
2026-01-05 08:44:14.35	27.43	27.99	-44.1	-45.1	15.2	0.00e+00	0	27	0	1874853888	54	4050
2026-01-05 08:44:15.34	27.11	28.01	-44.1	-45.1	15.2	0.00e+00	0	27	0	1880096768	54	4049
2026-01-05 08:44:16.33	26.80	28.02	-44.5	-45.5	15.1	0.00e+00	0	27	0	1885339648	54	4221
2026-01-05 08:44:17.33	26.48	28.04	-44.4	-45.5	15.1	0.00e+00	0	27	0	1891631104	54	4216
2026-01-05 08:44:18.32	26.16	28.05	-44.4	-45.5	15.1	0.00e+00	0	27	0	1896873984	54	4207
2026-01-05 08:44:19.31	25.84	28.07	-44.5	-45.6	15.1	0.00e+00	0	27	0	1903165440	54	4243
2026-01-05 08:44:20.31	25.52	28.08	-44.6	-45.6	15.1	0.00e+00	0	27	0	1908408320	54	4263
2026-01-05 08:44:21.30	25.20	28.09	-44.4	-45.5	15.1	0.00e+00	0	27	0	1913651200	54	4198
2026-01-05 08:44:22.29	24.88	28.10	-44.5	-45.5	15.1	0.00e+00	0	27	0	1918894080	54	4213
2026-01-05 08:44:23.29	24.56	28.11	-44.5	-45.6	15.1	0.00e+00	0	27	0	1925185536	54	4251
2026-01-05 08:44:24.28	24.24	28.12	-44.6	-45.6	15.1	0.00e+00	0	27	0	1930428416	54	4266
2026-01-05 08:44:25.27	23.92	28.13	-44.5	-45.6	15.1	0.00e+00	0	27	0	1935671296	54	4256
2026-01-05 08:44:26.26	23.60	28.13	-44.5	-45.5	15.1	0.00e+00	0	27	0	1941962752	54	4228
2026-01-05 08:44:27.26	23.28	28.14	-44.6	-45.7	15.1	0.00e+00	0	27	0	1947205632	54	4310
2026-01-05 08:44:28.26	22.96	28.14	-44.5	-45.5	15.1	0.00e+00	0	27	0	1952448512	54	4229
2026-01-05 08:44:29.26	22.64	28.15	-44.6	-45.7	15.1	0.00e+00	0	27	0	1958739968	54	4292
2026-01-05 08:44:30.25	22.32	28.15	-44.6	-45.7	15.1	0.00e+00	0	27	0	1963982848	54	4293
2026-01-05 08:44:31.25	21.99	28.15	-44.5	-45.6	15.1	0.00e+00	0	27	0	1969225728	54	4260
2026-01-05 08:44:32.24	21.67	28.15	-44.5	-45.6	15.1	0.00e+00	0	27	0	1975517184	54	4243
2026-01-05 08:44:33.23	21.35	28.15	-44.5	-45.6	15.1	0.00e+00	0	27	0	1980760064	54	4252
2026-01-05 08:44:34.22	21.03	28.15	-44.6	-45.6	15.1	0.00e+00	0	27	0	1986002944	54	4275
2026-01-05 08:44:35.22	20.71	28.15	-44.6	-45.6	15.1	0.00e+00	0	27	0	1992294400	54	4287
2026-01-05 08:44:36.22	20.39	28.14	-44.5	-45.6	15.1	0.00e+00	0	27	0	1997537280	54	4250
2026-01-05 08:44:37.21	20.07	28.14	-44.6	-45.7	15.1	0.00e+00	0	27	0	2003828736	54	4304
2026-01-05 08:44:38.21	19.75	28.13	-44.5	-45.5	15.1	0.00e+00	0	27	0	2009071616	54	4228
2026-01-05 08:44:39.19	19.43	28.13	-44.5	-45.6	15.1	0.00e+00	0	27	0	2014314496	54	4243
2026-01-05 08:44:40.18	19.11	28.12	-44.6	-45.6	15.1	0.00e+00	0	27	0	2019557376	54	4271
2026-01-05 08:44:41.17	18.79	28.11	-44.4	-45.4	15.1	0.00e+00	0	27	0	2025848832	54	4156
2026-01-05 08:44:42.16	18.47	28.10	-44.4	-45.4	15.1	0.00e+00	0	27	0	2031091712	54	4187
2026-01-05 08:44:43.15	18.15	28.09	-44.5	-45.5	15.1	0.00e+00	0	27	0	2036334592	54	4212
2026-01-05 08:44:44.15	17.83	28.08	-44.5	-45.6	15.1	0.00e+00	0	27	0	2042626048	54	4255
2026-01-05 08:44:45.15	17.51	28.07	-44.6	-45.6	15.1	0.00e+00	0	27	0	2047868928	54	4274
2026-01-05 08:44:46.14	17.19	28.05	-44.6	-45.6	15.1	0.00e+00	0	27	0	2053111808	54	4266
2026-01-05 08:44:47.14	16.87	28.04	-44.6	-45.7	15.1	0.00e+00	0	27	0	2059403264	54	4296
2026-01-05 08:44:48.12	16.56	28.02	-44.6	-45.7	15.1	0.00e+00	0	27	0	2064646144	54	4294
2026-01-05 08:44:49.12	16.24	28.01	-44.6	-45.6	15.1	0.00e+00	0	27	0	2069889024	54	4260
2026-01-05 08:44:50.11	15.92	27.99	-44.7	-45.8	15.1	0.00e+00	0	27	0	2076180480	54	4364
2026-01-05 08:44:51.10	15.61	27.97	-44.7	-45.8	15.1	0.00e+00	0	27	0	2081423360	54	4344
2026-01-05 08:44:52.10	15.29	27.95	-44.9	-45.9	15.1	0.00e+00	0	27	0	2086666240	55	4188
2026-01-05 08:44:53.08	14.97	27.93	-44.6	-45.7	15.2	0.00e+00	0	27	0	2092957696	55	4052
2026-01-05 08:44:54.07	14.66	27.91	-44.6	-45.6	15.2	0.00e+00	0	27	0	2098200576	55	4034
2026-01-05 08:44:55.06	14.34	27.89	-44.5	-45.6	15.2	0.00e+00	0	27	0	2103443456	55	4009
2026-01-05 08:44:56.06	14.03	27.87	-44.5	-45.5	15.2	0.00e+00	0	27	0	2108686336	55	3990
2026-01-05 08:44:57.05	13.71	27.84	-44.5	-45.5	15.2	0.00e+00	0	27	0	2114977792	55	3990
2026-01-05 08:44:58.05	13.40	27.82	-44.4	-45.4	15.3	0.00e+00	0	27	0	2120220672	55	3952
2026-01-05 08:44:59.04	13.08	27.79	-44.6	-45.6	15.2	0.00e+00	0	27	0	2126512128	55	4016
2026-01-05 08:45:00.04	12.77	27.76	-44.5	-45.5	15.2	0.00e+00	0	27	0	2131755008	55	3987
2026-01-05 08:45:01.03	12.46	27.74	-44.6	-45.6	15.2	0.00e+00	0	27	0	2136997888	55	4020
2026-01-05 08:45:02.03	12.14	27.71	-44.6	-45.6	15.2	0.00e+00	0	27	0	2143289344	55	4047
2026-01-05 08:45:03.02	11.83	27.68	-44.4	-45.4	15.2	0.00e+00	0	27	0	2148532224	55	3947
2026-01-05 08:45:04.01	11.52	27.65	-44.3	-45.4	15.3	0.00e+00	0	27	0	2153775104	55	3918
2026-01-05 08:45:05.01	11.21	27.62	-44.4	-45.4	15.3	0.00e+00	0	27	0	2159017984	55	3941
2026-01-05 08:45:06.00	10.90	27.58	-44.6	-45.6	15.2	0.00e+00	0	27	0	2165309440	55	4039
2026-01-05 08:45:06.99	10.59	27.55	-44.5	-45.5	15.2	0.00e+00	0	27	0	2170552320	55	3985
2026-01-05 08:45:07.99	10.28	27.52	-44.5	-45.5	15.2	0.00e+00	0	27	0	2176843776	55	3993
2026-01-05 08:45:08.99	9.97	27.48	-44.5	-45.5	15.2	0.00e+00	0	27	0	2182086656	55	3970
2026-01-05 08:45:09.98	9.67	27.45	-44.5	-45.5	15.2	0.00e+00	0	27	0	2187329536	55	3984
2026-01-05 08:45:10.96	9.36	27.41	-44.7	-45.8	15.2	0.00e+00	0	27	0	2193620992	55	4110
2026-01-05 08:45:11.95	9.06	27.37	-44.8	-45.8	15.1	0.00e+00	0	27	0	2198863872	55	4122
2026-01-05 08:45:12.94	8.76	27.33	-44.5	-45.6	15.2	0.00e+00	0	27	0	2204106752	55	4020
2026-01-05 08:45:13.94	8.45	27.29	-44.3	-45.3	15.3	0.00e+00	0	27	0	2209349632	55	3891
2026-01-05 08:45:14.93	8.15	27.25	-44.4	-45.4	15.3	0.00e+00	0	27	0	2215641088	55	3934
2026-01-05 08:45:15.92	7.85	27.21	-44.4	-45.4	15.3	0.00e+00	0	27	0	2220883968	55	3956
2026-01-05 08:45:16.91	7.54	27.17	-44.3	-45.4	15.3	0.00e+00	0	27	0	2227175424	55	3927
2026-01-05 08:45:17.91	7.24	27.13	-44.4	-45.4	15.3	0.00e+00	0	27	0	2232418304	55	3927
2026-01-05 08:45:18.90	6.94	27.09	-44.5	-45.5	15.3	0.00e+00	0	27	0	2237661184	55	3974
2026-01-05 08:45:19.90	6.64	27.04	-44.5	-45.5	15.2	0.00e+00	0	27	0	2242904064	55	3988
2026-01-05 08:45:20.89	6.34	27.00	-44.5	-45.5	15.2	0.00e+00	0	27	0	2249195520	55	3979
2026-01-05 08:45:21.88	6.05	26.95	-44.5	-45.5	15.2	0.00e+00	0	27	0	2254438400	55	4003
2026-01-05 08:45:22.88	5.75	26.90	-44.6	-45.6	15.2	0.00e+00	0	27	0	2259681280	55	4030
2026-01-05 08:45:23.87	5.45	26.86	-44.8	-45.8	15.1	0.00e+00	0	27	0	2265972736	55	4141
2026-01-05 08:45:24.87	5.16	26.81	-44.8	-45.8	15.2	0.00e+00	0	27	0	2271215616	55	4143
2026-01-05 08:45:25.87	4.86	26.76	-44.8	-45.9	15.1	0.00e+00	0	27	0	2277507072	55	4150
2026-01-05 08:45:26.85	4.57	26.71	-44.7	-45.8	15.1	0.00e+00	0	27	0	2282749952	55	4102
2026-01-05 08:45:27.85	4.28	26.66	-44.5	-45.6	15.2	0.00e+00	0	27	0	2287992832	55	4017
2026-01-05 08:45:28.85	3.98	26.61	-44.6	-45.7	15.2	0.00e+00	0	27	0	2293235712	55	4053
2026-01-05 08:45:29.86	3.69	26.56	-44.6	-45.6	15.2	0.00e+00	0	27	0	2299527168	55	4045
2026-01-05 08:45:30.84	3.40	26.50	-44.6	-45.6	15.2	0.00e+00	0	27	0	2304770048	55	4040
2026-01-05 08:45:31.84	3.11	26.45	-44.6	-45.6	15.2	0.00e+00	0	27	0	2310012928	55	4033
2026-01-05 08:45:32.83	2.82	26.40	-44.6	-45.6	15.2	0.00e+00	0	27	0	2316304384	55	4037
2026-01-05 08:45:33.82	2.54	26.34	-44.6	-45.6	15.2	0.00e+00	0	27	0	2321547264	55	4034
2026-01-05 08:45:34.81	2.25	26.29	-44.5	-45.5	15.2	0.00e+00	0	28	0	2327838720	55	3998
2026-01-05 08:45:35.80	1.97	26.23	-44.5	-45.5	15.2	0.00e+00	0	27	0	2333081600	55	3977
2026-01-05 08:45:36.80	1.68	26.18	-44.5	-45.6	15.2	0.00e+00	0	27	0	2338324480	55	4006
2026-01-05 08:45:37.79	1.40	26.12	-44.6	-45.6	15.2	0.00e+00	0	27	0	2343567360	55	4020
2026-01-05 08:45:38.78	1.12	26.06	-44.7	-45.8	15.2	0.00e+00	0	27	0	2349858816	55	4099
2026-01-05 08:45:39.78	0.84	26.00	-44.6	-45.7	15.2	0.00e+00	0	27	0	2355101696	55	4071
2026-01-05 08:45:40.78	0.56	25.94	-44.5	-45.5	15.2	0.00e+00	0	27	0	2360344576	55	4002
2026-01-05 08:45:41.76	0.28	25.88	-44.5	-45.6	15.2	0.00e+00	0	27	0	2366636032	55	4011
2026-01-05 08:45:42.76	0.01	25.82	-44.6	-45.6	15.2	0.00e+00	0	27	0	2371878912	55	4029
2026-01-05 08:45:43.76	359.73	25.76	-44.5	-45.6	15.2	0.00e+00	0	27	0	2377121792	55	4013
2026-01-05 08:45:44.75	359.45	25.70	-44.6	-45.6	15.2	0.00e+00	0	27	0	2383413248	55	4037
2026-01-05 08:45:45.74	359.18	25.64	-44.6	-45.6	15.2	0.00e+00	0	27	0	2388656128	55	4027
2026-01-05 08:45:46.74	358.91	25.58	-44.7	-45.7	15.2	0.00e+00	0	27	0	2393899008	55	4070
2026-01-05 08:45:47.72	358.64	25.51	-44.8	-45.9	15.1	0.00e+00	0	27	0	2400190464	55	4162
2026-01-05 08:45:48.72	358.36	25.45	-45.0	-46.0	15.1	0.00e+00	0	27	0	2405433344	55	4227
2026-01-05 08:45:49.72	358.09	25.38	-44.8	-45.9	15.1	0.00e+00	0	27	0	2411724800	55	4155
2026-01-05 08:45:50.71	357.83	25.32	-45.0	-46.0	15.1	0.00e+00	0	27	0	2416967680	55	4212
2026-01-05 08:45:51.70	357.56	25.25	-45.0	-46.0	15.1	0.00e+00	0	27	0	2422210560	55	4215
2026-01-05 08:45:52.69	357.29	25.19	-45.1	-46.2	15.1	0.00e+00	0	27	0	2427453440	55	4299
2026-01-05 08:45:53.68	357.03	25.12	-45.2	-46.2	15.0	0.00e+00	0	27	0	2433744896	55	4319
2026-01-05 08:45:54.68	356.76	25.06	-45.0	-46.0	15.1	0.00e+00	0	27	0	2438987776	55	4225
2026-01-05 08:45:55.67	356.50	24.99	-45.0	-46.0	15.1	0.00e+00	0	27	0	2444230656	55	4233
2026-01-05 08:45:56.66	356.24	24.92	-45.0	-46.1	15.1	0.00e+00	0	27	0	2450522112	55	4252
2026-01-05 08:45:57.66	355.98	24.85	-45.0	-46.0	15.1	0.00e+00	0	27	0	2455764992	55	4239
2026-01-05 08:45:58.65	355.72	24.78	-45.2	-46.3	15.1	0.00e+00	0	27	0	2461007872	55	4350
2026-01-05 08:45:59.65	355.46	24.71	-45.1	-46.1	15.1	0.00e+00	0	27	0	2467299328	55	4287
2026-01-05 08:46:00.64	355.20	24.64	-44.9	-46.0	15.1	0.00e+00	0	27	0	2472542208	55	4218
2026-01-05 08:46:01.63	354.95	24.57	-45.1	-46.1	15.1	0.00e+00	0	27	0	2477785088	55	4272
2026-01-05 08:46:02.62	354.69	24.50	-44.9	-46.0	15.1	0.00e+00	0	28	0	2484076544	55	4203
2026-01-05 08:46:03.62	354.44	24.43	-45.0	-46.1	15.1	0.00e+00	0	27	0	2489319424	55	4261
2026-01-05 08:46:04.61	354.19	24.36	-45.0	-46.0	15.1	0.00e+00	0	27	0	2494562304	55	4242
2026-01-05 08:46:05.61	353.93	24.29	-45.1	-46.2	15.1	0.00e+00	0	27	0	2500853760	55	4299
2026-01-05 08:46:06.61	353.68	24.22	-45.1	-46.1	15.1	0.00e+00	0	27	0	2506096640	55	4275
2026-01-05 08:46:07.60	353.43	24.14	-45.0	-46.0	15.1	0.00e+00	0	27	0	2511339520	55	4216
2026-01-05 08:46:08.59	353.19	24.07	-44.9	-45.9	15.1	0.00e+00	0	27	0	2517630976	55	4167
2026-01-05 08:46:09.58	352.94	24.00	-44.9	-45.9	15.1	0.00e+00	0	27	0	2522873856	55	4184
2026-01-05 08:46:10.57	352.69	23.92	-44.8	-45.9	15.1	0.00e+00	0	27	0	2528116736	55	4149
2026-01-05 08:46:11.57	352.45	23.85	-44.8	-45.8	15.1	0.00e+00	0	27	0	2534408192	55	4142
2026-01-05 08:46:12.56	352.21	23.78	-44.9	-45.9	15.1	0.00e+00	0	27	0	2539651072	55	4182
2026-01-05 08:46:13.55	351.96	23.70	-45.0	-46.0	15.1	0.00e+00	0	27	0	2544893952	55	4238
2026-01-05 08:46:14.55	351.72	23.63	-45.0	-46.1	15.1	0.00e+00	0	27	0	2551185408	55	4273
2026-01-05 08:46:15.54	351.48	23.55	-45.2	-46.2	15.1	0.00e+00	0	27	0	2556428288	55	4333
2026-01-05 08:46:16.53	351.25	23.47	-45.1	-46.2	15.1	0.00e+00	0	27	0	2561671168	55	4314
2026-01-05 08:46:17.53	351.01	23.40	-45.2	-46.2	15.0	0.00e+00	0	27	0	2567962624	55	4333
2026-01-05 08:46:18.52	350.77	23.32	-44.9	-46.0	15.1	0.00e+00	0	27	0	2573205504	55	4195
2026-01-05 08:46:19.51	350.54	23.24	-44.9	-45.9	15.1	0.00e+00	0	27	0	2578448384	55	4167
2026-01-05 08:46:20.50	350.30	23.17	-45.0	-46.0	15.1	0.00e+00	0	27	0	2583691264	55	4238
2026-01-05 08:46:21.49	350.07	23.09	-45.1	-46.2	15.1	0.00e+00	0	27	0	2589982720	55	4316
2026-01-05 08:46:22.48	349.84	23.01	-45.1	-46.2	15.1	0.00e+00	0	27	0	2595225600	55	4319
2026-01-05 08:46:23.48	349.61	22.94	-45.2	-46.3	15.0	0.00e+00	0	27	0	2601517056	55	4365
2026-01-05 08:46:24.47	349.38	22.86	-45.2	-46.2	15.1	0.00e+00	0	27	0	2606759936	55	4335
2026-01-05 08:46:25.47	349.15	22.78	-45.1	-46.2	15.1	0.00e+00	0	27	0	2612002816	55	4312
2026-01-05 08:46:26.47	348.92	22.70	-45.2	-46.3	15.1	0.00e+00	0	27	0	2618294272	55	4355
2026-01-05 08:46:27.46	348.70	22.62	-45.3	-46.4	15.0	0.00e+00	0	28	0	2623537152	55	4419
2026-01-05 08:46:28.46	348.47	22.54	-45.5	-46.5	15.1	0.00e+00	0	27	0	2628780032	56	4228
2026-01-05 08:46:29.46	348.25	22.46	-45.6	-46.6	15.0	0.00e+00	0	27	0	2635071488	56	4285
2026-01-05 08:46:30.46	348.02	22.38	-45.4	-46.5	15.1	0.00e+00	0	27	0	2640314368	56	4207
2026-01-05 08:46:31.45	347.80	22.30	-45.4	-46.4	15.1	0.00e+00	0	27	0	2645557248	56	4173
2026-01-05 08:46:32.45	347.58	22.22	-45.4	-46.4	15.1	0.00e+00	0	27	0	2651848704	56	4193
2026-01-05 08:46:33.44	347.36	22.14	-45.6	-46.6	15.0	0.00e+00	0	27	0	2657091584	56	4288
2026-01-05 08:46:34.44	347.14	22.06	-45.7	-46.8	15.0	0.00e+00	0	27	0	2662334464	56	4371
2026-01-05 08:46:35.43	346.93	21.98	-45.8	-46.9	15.0	0.00e+00	0	27	0	2668625920	56	4402
2026-01-05 08:46:36.43	346.71	21.90	-45.9	-47.0	15.0	0.00e+00	0	27	0	2673868800	56	4443
2026-01-05 08:46:37.42	346.50	21.82	-45.8	-46.9	15.0	0.00e+00	0	27	0	2679111680	56	4403
2026-01-05 08:46:38.41	346.28	21.74	-45.8	-46.9	15.0	0.00e+00	0	27	0	2685403136	56	4422
2026-01-05 08:46:39.41	346.07	21.66	-46.0	-47.1	15.0	0.00e+00	0	27	0	2690646016	57	4252
2026-01-05 08:46:40.40	345.86	21.57	-45.9	-47.0	15.0	0.00e+00	0	27	0	2695888896	57	4213
2026-01-05 08:46:41.40	345.65	21.49	-46.0	-47.0	15.0	0.00e+00	0	27	0	2702180352	57	4241
2026-01-05 08:46:42.39	345.44	21.41	-45.9	-47.0	15.0	0.00e+00	0	27	0	2707423232	57	4221
2026-01-05 08:46:43.38	345.23	21.33	-45.9	-47.0	15.1	0.00e+00	0	27	0	2712666112	57	4204
2026-01-05 08:46:44.37	345.03	21.25	-45.9	-46.9	15.1	0.00e+00	0	27	0	2718957568	57	4176
2026-01-05 08:46:45.37	344.82	21.17	-45.8	-46.9	15.1	0.00e+00	0	27	0	2724200448	57	4165
2026-01-05 08:46:46.36	344.62	21.08	-45.9	-47.0	15.1	0.00e+00	0	27	0	2729443328	57	4219
2026-01-05 08:46:47.35	344.42	21.00	-46.0	-47.1	15.0	0.00e+00	0	27	0	2734686208	57	4244
2026-01-05 08:46:48.35	344.21	20.92	-45.9	-47.0	15.0	0.00e+00	0	27	0	2740977664	57	4228
2026-01-05 08:46:49.34	344.01	20.84	-45.8	-46.8	15.1	0.00e+00	0	27	0	2746220544	57	4137
2026-01-05 08:46:50.34	343.81	20.75	-45.8	-46.9	15.1	0.00e+00	0	27	0	2752512000	57	4176
2026-01-05 08:46:51.33	343.61	20.67	-45.9	-47.0	15.1	0.00e+00	0	27	0	2757754880	57	4200
2026-01-05 08:46:52.32	343.42	20.59	-45.8	-46.9	15.1	0.00e+00	0	27	0	2762997760	57	4176
2026-01-05 08:46:53.32	343.22	20.50	-45.9	-47.0	15.1	0.00e+00	0	27	0	2769289216	57	4204
2026-01-05 08:46:54.31	343.02	20.42	-46.0	-47.0	15.0	0.00e+00	0	27	0	2774532096	57	4241
2026-01-05 08:46:55.31	342.83	20.34	-46.1	-47.1	15.0	0.00e+00	0	28	0	2779774976	57	4289
2026-01-05 08:46:56.30	342.64	20.25	-46.1	-47.2	15.0	0.00e+00	0	27	0	2785017856	57	4301
2026-01-05 08:46:57.29	342.44	20.17	-46.1	-47.1	15.0	0.00e+00	0	27	0	2791309312	57	4287
2026-01-05 08:46:58.28	342.25	20.09	-46.2	-47.3	15.0	0.00e+00	0	27	0	2796552192	57	4349
2026-01-05 08:46:59.28	342.06	20.00	-46.1	-47.2	15.0	0.00e+00	0	27	0	2802843648	57	4295
2026-01-05 08:47:00.28	341.87	19.92	-46.1	-47.2	15.0	0.00e+00	0	27	0	2808086528	57	4296
2026-01-05 08:47:01.28	341.68	19.84	-46.1	-47.1	15.0	0.00e+00	0	27	0	2813329408	57	4286
2026-01-05 08:47:02.27	341.50	19.75	-46.0	-47.1	15.0	0.00e+00	0	27	0	2819620864	57	4245
2026-01-05 08:47:03.27	341.31	19.67	-45.8	-46.9	15.1	0.00e+00	0	27	0	2824863744	57	4181
2026-01-05 08:47:04.26	341.12	19.59	-45.9	-47.0	15.1	0.00e+00	0	27	0	2830106624	57	4195
2026-01-05 08:47:05.25	340.94	19.50	-45.9	-46.9	15.1	0.00e+00	0	27	0	2836398080	57	4172
2026-01-05 08:47:06.26	340.75	19.42	-45.9	-47.0	15.0	0.00e+00	0	27	0	2841640960	57	4216
2026-01-05 08:47:07.25	340.57	19.33	-46.0	-47.1	15.0	0.00e+00	0	28	0	2846883840	57	4269
2026-01-05 08:47:08.26	340.39	19.25	-46.1	-47.2	15.0	0.00e+00	0	27	0	2853175296	57	4312
2026-01-05 08:47:09.25	340.21	19.17	-46.0	-47.1	15.0	0.00e+00	0	27	0	2858418176	57	4259
2026-01-05 08:47:10.24	340.03	19.08	-46.1	-47.2	15.0	0.00e+00	0	27	0	2863661056	57	4304
2026-01-05 08:47:11.24	339.85	19.00	-46.2	-47.3	15.0	0.00e+00	0	27	0	2869952512	57	4363
2026-01-05 08:47:12.23	339.68	18.91	-46.2	-47.3	15.0	0.00e+00	0	27	0	2875195392	57	4373
2026-01-05 08:47:13.23	339.50	18.83	-46.3	-47.5	14.9	0.00e+00	0	27	0	2880438272	57	4453
2026-01-05 08:47:14.22	339.32	18.75	-46.3	-47.4	14.9	0.00e+00	0	27	0	2886729728	57	4440
2026-01-05 08:47:15.22	339.15	18.66	-46.3	-47.5	14.9	0.00e+00	0	27	0	2891972608	57	4442
2026-01-05 08:47:16.22	338.97	18.58	-46.3	-47.4	14.9	0.00e+00	0	27	0	2898264064	57	4436
2026-01-05 08:47:17.21	338.80	18.49	-46.4	-47.5	14.9	0.00e+00	0	27	0	2903506944	57	4450
2026-01-05 08:47:18.21	338.63	18.41	-46.5	-47.5	14.9	0.00e+00	0	27	0	2908749824	58	4241
2026-01-05 08:47:19.20	338.46	18.33	-46.5	-47.6	15.0	0.00e+00	0	27	0	2913992704	58	4274
2026-01-05 08:47:20.20	338.29	18.24	-46.5	-47.6	15.0	0.00e+00	0	27	0	2920284160	58	4284
2026-01-05 08:47:21.20	338.12	18.16	-46.6	-47.7	14.9	0.00e+00	0	27	0	2925527040	58	4330
2026-01-05 08:47:22.18	337.96	18.08	-46.7	-47.8	14.9	0.00e+00	0	27	0	2930769920	58	4361
2026-01-05 08:47:23.18	337.79	17.99	-46.7	-47.8	14.9	0.00e+00	0	27	0	2937061376	58	4386
2026-01-05 08:47:24.17	337.62	17.91	-46.7	-47.8	14.9	0.00e+00	0	28	0	2942304256	58	4381
2026-01-05 08:47:25.16	337.46	17.83	-46.8	-47.9	14.9	0.00e+00	0	27	0	2948595712	58	4421
2026-01-05 08:47:26.16	337.30	17.74	-46.8	-47.9	14.9	0.00e+00	0	27	0	2953838592	58	4417
2026-01-05 08:47:27.15	337.13	17.66	-46.7	-47.8	14.9	0.00e+00	0	27	0	2959081472	58	4363
2026-01-05 08:47:28.15	336.97	17.57	-46.7	-47.8	14.9	0.00e+00	0	27	0	2964324352	58	4384
2026-01-05 08:47:29.13	336.81	17.49	-46.6	-47.7	14.9	0.00e+00	0	28	0	2970615808	58	4336
2026-01-05 08:47:30.12	336.65	17.41	-46.5	-47.6	15.0	0.00e+00	0	27	0	2975858688	58	4282
2026-01-05 08:47:31.12	336.49	17.32	-46.6	-47.7	14.9	0.00e+00	0	27	0	2981101568	58	4337
2026-01-05 08:47:32.11	336.34	17.24	-46.6	-47.7	14.9	0.00e+00	0	27	0	2987393024	58	4336
2026-01-05 08:47:33.10	336.18	17.16	-46.7	-47.8	14.9	0.00e+00	0	28	0	2992635904	58	4362
2026-01-05 08:47:34.10	336.02	17.08	-46.7	-47.9	14.9	0.00e+00	0	28	0	2997878784	58	4407
2026-01-05 08:47:35.09	335.87	16.99	-46.7	-47.9	14.9	0.00e+00	0	28	0	3004170240	58	4399
2026-01-05 08:47:36.09	335.71	16.91	-46.8	-48.0	14.9	0.00e+00	0	27	0	3009413120	58	4460
2026-01-05 08:47:37.08	335.56	16.83	-46.9	-48.0	14.9	0.00e+00	0	27	0	3014656000	58	4457
2026-01-05 08:47:38.07	335.41	16.74	-46.9	-48.1	14.9	0.00e+00	0	27	0	3020947456	58	4503
2026-01-05 08:47:39.07	335.25	16.66	-47.0	-48.1	14.9	0.00e+00	0	27	0	3026190336	59	4291
2026-01-05 08:47:40.06	335.10	16.58	-47.0	-48.1	14.9	0.00e+00	0	27	0	3031433216	59	4284
2026-01-05 08:47:41.05	334.95	16.50	-47.0	-48.2	14.9	0.00e+00	0	27	0	3037724672	59	4314
2026-01-05 08:47:42.05	334.80	16.41	-47.2	-48.4	14.8	0.00e+00	0	27	0	3042967552	59	4393
2026-01-05 08:47:43.05	334.65	16.33	-47.0	-48.2	14.9	0.00e+00	0	27	0	3048210432	59	4306
2026-01-05 08:47:44.04	334.50	16.25	-47.1	-48.2	14.9	0.00e+00	0	27	0	3054501888	59	4324
2026-01-05 08:47:45.04	334.36	16.16	-47.1	-48.3	14.9	0.00e+00	0	27	0	3059744768	59	4348
2026-01-05 08:47:46.02	334.21	16.08	-47.1	-48.3	14.9	0.00e+00	0	27	0	3064987648	59	4343
2026-01-05 08:47:47.01	334.07	16.00	-47.1	-48.3	14.9	0.00e+00	0	27	0	3071279104	59	4356
2026-01-05 08:47:48.01	333.92	15.92	-47.1	-48.3	14.9	0.00e+00	0	27	0	3076521984	59	4354
2026-01-05 08:47:49.00	333.78	15.84	-47.1	-48.2	14.9	0.00e+00	0	27	0	3081764864	59	4337
2026-01-05 08:47:49.99	333.64	15.76	-47.1	-48.3	14.9	0.00e+00	0	27	0	3088056320	59	4353
2026-01-05 08:47:50.99	333.49	15.67	-47.2	-48.3	14.8	0.00e+00	0	27	0	3093299200	59	4377
2026-01-05 08:47:51.98	333.35	15.59	-47.2	-48.4	14.8	0.00e+00	0	28	0	3098542080	59	4424
2026-01-05 08:47:52.97	333.21	15.51	-47.3	-48.4	14.8	0.00e+00	0	27	0	3104833536	59	4436
2026-01-05 08:47:53.97	333.07	15.43	-47.3	-48.4	14.8	0.00e+00	0	27	0	3110076416	59	4436
2026-01-05 08:47:54.96	332.93	15.35	-47.4	-48.5	14.8	0.00e+00	0	27	0	3115319296	59	4489
2026-01-05 08:47:55.96	332.79	15.27	-47.3	-48.5	14.8	0.00e+00	0	27	0	3121610752	59	4475
2026-01-05 08:47:56.95	332.66	15.19	-47.1	-48.3	14.9	0.00e+00	0	27	0	3126853632	60	4115
2026-01-05 08:47:57.95	332.52	15.10	-47.2	-48.4	14.9	0.00e+00	0	27	0	3132096512	60	4157
2026-01-05 08:47:58.94	332.38	15.02	-47.1	-48.3	14.9	0.00e+00	0	27	0	3138387968	60	4118
2026-01-05 08:47:59.93	332.25	14.94	-47.2	-48.4	14.9	0.00e+00	0	27	0	3143630848	60	4173
2026-01-05 08:48:00.93	332.11	14.86	-47.3	-48.4	14.9	0.00e+00	0	27	0	3148873728	60	4180
2026-01-05 08:48:01.91	331.98	14.78	-47.1	-48.2	15.0	0.00e+00	0	27	0	3155165184	60	4063
2026-01-05 08:48:02.90	331.85	14.70	-47.1	-48.2	15.0	0.00e+00	0	27	0	3160408064	60	4066
2026-01-05 08:48:03.89	331.72	14.62	-47.0	-48.2	15.0	0.00e+00	0	27	0	3165650944	60	4064
2026-01-05 08:48:04.89	331.58	14.54	-47.0	-48.1	15.0	0.00e+00	0	27	0	3170893824	60	4033
2026-01-05 08:48:05.89	331.45	14.46	-47.0	-48.2	15.0	0.00e+00	0	28	0	3177185280	60	4058
2026-01-05 08:48:06.88	331.32	14.38	-47.0	-48.1	15.0	0.00e+00	0	27	0	3182428160	60	4029
2026-01-05 08:48:07.88	331.19	14.30	-47.0	-48.2	15.0	0.00e+00	0	27	0	3188719616	60	4066
2026-01-05 08:48:08.87	331.07	14.22	-47.1	-48.2	15.0	0.00e+00	0	27	0	3193962496	60	4077
2026-01-05 08:48:09.87	330.94	14.14	-47.1	-48.2	14.9	0.00e+00	0	27	0	3199205376	60	4096
2026-01-05 08:48:10.86	330.81	14.06	-47.1	-48.2	15.0	0.00e+00	0	27	0	3205496832	60	4066
2026-01-05 08:48:11.86	330.68	13.98	-47.1	-48.2	14.9	0.00e+00	0	28	0	3210739712	60	4098
2026-01-05 08:48:12.86	330.56	13.90	-47.1	-48.2	15.0	0.00e+00	0	27	0	3215982592	60	4080
2026-01-05 08:48:13.85	330.43	13.82	-47.1	-48.2	15.0	0.00e+00	0	27	0	3222274048	60	4076
2026-01-05 08:48:14.84	330.31	13.74	-47.1	-48.2	14.9	0.00e+00	0	27	0	3227516928	60	4073
2026-01-05 08:48:15.85	330.18	13.66	-47.1	-48.2	15.0	0.00e+00	0	28	0	3232759808	60	4065
2026-01-05 08:48:16.83	330.06	13.58	-47.1	-48.3	14.9	0.00e+00	0	27	0	3239051264	60	4112
2026-01-05 08:48:17.83	329.94	13.50	-47.1	-48.3	14.9	0.00e+00	0	27	0	3244294144	60	4108
2026-01-05 08:48:18.82	329.81	13.43	-47.3	-48.4	14.9	0.00e+00	0	27	0	3249537024	60	4187
2026-01-05 08:48:19.82	329.69	13.35	-47.4	-48.5	14.8	0.00e+00	0	27	0	3255828480	60	4230
2026-01-05 08:48:20.82	329.57	13.27	-47.5	-48.6	14.8	0.00e+00	0	27	0	3261071360	60	4282
2026-01-05 08:48:21.81	329.45	13.19	-47.4	-48.6	14.8	0.00e+00	0	27	0	3266314240	60	4280
2026-01-05 08:48:22.80	329.33	13.11	-47.6	-48.7	14.8	0.00e+00	0	27	0	3272605696	60	4338
2026-01-05 08:48:23.80	329.21	13.03	-47.5	-48.7	14.8	0.00e+00	0	27	0	3277848576	60	4330
2026-01-05 08:48:24.79	329.10	12.96	-47.5	-48.7	14.8	0.00e+00	0	27	0	3283091456	60	4328
2026-01-05 08:48:25.79	328.98	12.88	-47.5	-48.7	14.8	0.00e+00	0	27	0	3289382912	60	4320
2026-01-05 08:48:26.79	328.86	12.80	-47.5	-48.7	14.8	0.00e+00	0	27	0	3294625792	60	4319
2026-01-05 08:48:27.78	328.75	12.72	-47.5	-48.7	14.8	0.00e+00	0	27	0	3299868672	60	4324
2026-01-05 08:48:28.77	328.63	12.64	-47.6	-48.8	14.7	0.00e+00	0	27	0	3306160128	60	4371
2026-01-05 08:48:29.77	328.52	12.57	-47.6	-48.8	14.7	0.00e+00	0	27	0	3311403008	60	4381
2026-01-05 08:48:30.75	328.40	12.49	-47.7	-48.9	14.7	0.00e+00	0	27	0	3316645888	60	4410
2026-01-05 08:48:31.74	328.29	12.41	-47.7	-48.9	14.7	0.00e+00	0	28	0	3322937344	60	4434
2026-01-05 08:48:32.73	328.18	12.34	-47.7	-48.9	14.7	0.00e+00	0	27	0	3328180224	60	4430
2026-01-05 08:48:33.73	328.06	12.26	-47.7	-48.9	14.7	0.00e+00	0	27	0	3333423104	60	4400
2026-01-05 08:48:34.72	327.95	12.18	-47.7	-48.9	14.7	0.00e+00	0	27	0	3339714560	60	4415
2026-01-05 08:48:35.71	327.84	12.11	-47.7	-48.9	14.7	0.00e+00	0	27	0	3344957440	60	4408
2026-01-05 08:48:36.71	327.73	12.03	-47.7	-48.9	14.7	0.00e+00	0	27	0	3350200320	60	4416
2026-01-05 08:48:37.71	327.62	11.95	-47.7	-48.9	14.7	0.00e+00	0	27	0	3355443200	60	4438
2026-01-05 08:48:38.70	327.51	11.88	-47.6	-48.8	14.7	0.00e+00	0	27	0	3361734656	60	4382
2026-01-05 08:48:39.70	327.40	11.80	-47.7	-48.9	14.7	0.00e+00	0	28	0	3366977536	60	4398
2026-01-05 08:48:40.70	327.29	11.72	-47.7	-48.9	14.7	0.00e+00	0	27	0	3373268992	60	4427
2026-01-05 08:48:41.68	327.19	11.65	-47.7	-49.0	14.7	0.00e+00	0	27	0	3378511872	60	4442
2026-01-05 08:48:42.68	327.08	11.57	-47.8	-49.0	14.6	0.00e+00	0	28	0	3383754752	60	4489
2026-01-05 08:48:43.67	326.97	11.50	-47.8	-49.1	14.7	0.00e+00	0	27	0	3390046208	60	4503
2026-01-05 08:48:44.67	326.87	11.42	-47.9	-49.1	14.7	0.00e+00	0	27	0	3395289088	61	4276
2026-01-05 08:48:45.68	326.76	11.35	-47.9	-49.1	14.7	0.00e+00	0	27	0	3400531968	61	4282
2026-01-05 08:48:46.67	326.66	11.27	-47.9	-49.2	14.7	0.00e+00	0	27	0	3406823424	61	4299
2026-01-05 08:48:47.67	326.55	11.20	-48.0	-49.2	14.7	0.00e+00	0	27	0	3412066304	61	4320
2026-01-05 08:48:48.66	326.45	11.12	-48.1	-49.3	14.7	0.00e+00	0	27	0	3417309184	61	4375
2026-01-05 08:48:49.65	326.35	11.05	-48.1	-49.3	14.6	0.00e+00	0	27	0	3423600640	61	4381
2026-01-05 08:48:50.65	326.24	10.97	-48.1	-49.4	14.6	0.00e+00	0	27	0	3428843520	61	4403
2026-01-05 08:48:51.64	326.14	10.90	-48.2	-49.5	14.6	0.00e+00	0	27	0	3434086400	61	4450
2026-01-05 08:48:52.63	326.04	10.82	-48.1	-49.4	14.6	0.00e+00	0	27	0	3440377856	61	4398
2026-01-05 08:48:53.62	325.94	10.75	-48.1	-49.3	14.7	0.00e+00	0	27	0	3445620736	61	4383
2026-01-05 08:48:54.61	325.84	10.68	-48.0	-49.3	14.7	0.00e+00	0	27	0	3450863616	61	4357
2026-01-05 08:48:55.61	325.74	10.60	-48.1	-49.4	14.6	0.00e+00	0	27	0	3456106496	61	4396
2026-01-05 08:48:56.60	325.64	10.53	-48.2	-49.4	14.6	0.00e+00	0	27	0	3462397952	61	4414
2026-01-05 08:48:57.59	325.54	10.46	-48.2	-49.4	14.6	0.00e+00	0	27	0	3467640832	61	4438
2026-01-05 08:48:58.59	325.44	10.38	-48.1	-49.3	14.6	0.00e+00	0	28	0	3473932288	61	4380
2026-01-05 08:48:59.58	325.34	10.31	-48.1	-49.3	14.6	0.00e+00	0	27	0	3479175168	61	4389
2026-01-05 08:49:00.58	325.25	10.24	-48.1	-49.4	14.6	0.00e+00	0	27	0	3484418048	61	4407
2026-01-05 08:49:01.57	325.15	10.16	-48.2	-49.4	14.6	0.00e+00	0	27	0	3490709504	61	4417
2026-01-05 08:49:02.56	325.05	10.09	-48.2	-49.5	14.6	0.00e+00	0	27	0	3495952384	61	4451
2026-01-05 08:49:03.57	324.96	10.02	-48.3	-49.6	14.6	0.00e+00	0	27	0	3501195264	61	4510
2026-01-05 08:49:04.56	324.86	9.94	-48.4	-49.7	14.5	0.00e+00	0	27	0	3507486720	61	4549
2026-01-05 08:49:05.56	324.77	9.87	-48.4	-49.6	14.5	0.00e+00	0	27	0	3512729600	61	4543
2026-01-05 08:49:06.55	324.67	9.80	-48.4	-49.7	14.5	0.00e+00	0	27	0	3517972480	61	4575
2026-01-05 08:49:07.54	324.58	9.73	-48.5	-49.8	14.6	0.00e+00	0	27	0	3524263936	62	4360
2026-01-05 08:49:08.53	324.49	9.65	-48.6	-49.9	14.5	0.00e+00	0	27	0	3529506816	62	4393
2026-01-05 08:49:09.53	324.39	9.58	-48.5	-49.7	14.6	0.00e+00	0	27	0	3534749696	62	4334
2026-01-05 08:49:10.52	324.30	9.51	-48.4	-49.7	14.6	0.00e+00	0	27	0	3541041152	62	4315
2026-01-05 08:49:11.52	324.21	9.44	-48.6	-49.8	14.5	0.00e+00	0	27	0	3546284032	62	4387
2026-01-05 08:49:12.52	324.11	9.37	-48.5	-49.8	14.5	0.00e+00	0	27	0	3551526912	62	4372
2026-01-05 08:49:13.51	324.02	9.30	-48.6	-49.9	14.5	0.00e+00	0	27	0	3557818368	62	4421
2026-01-05 08:49:14.50	323.93	9.22	-48.4	-49.7	14.6	0.00e+00	0	27	0	3563061248	62	4323
2026-01-05 08:49:15.50	323.84	9.15	-48.4	-49.6	14.6	0.00e+00	0	27	0	3568304128	62	4274
2026-01-05 08:49:16.50	323.75	9.08	-48.5	-49.8	14.6	0.00e+00	0	27	0	3574595584	62	4341
2026-01-05 08:49:17.49	323.66	9.01	-48.6	-49.9	14.5	0.00e+00	0	27	0	3579838464	62	4394
2026-01-05 08:49:18.48	323.58	8.94	-48.6	-49.9	14.5	0.00e+00	0	28	0	3585081344	62	4408
2026-01-05 08:49:19.48	323.49	8.87	-48.5	-49.8	14.5	0.00e+00	0	27	0	3591372800	62	4375
2026-01-05 08:49:20.46	323.40	8.80	-48.5	-49.8	14.5	0.00e+00	0	27	0	3596615680	62	4361
2026-01-05 08:49:21.46	323.31	8.73	-48.6	-49.8	14.5	0.00e+00	0	27	0	3601858560	62	4383
2026-01-05 08:49:22.46	323.22	8.66	-48.5	-49.8	14.6	0.00e+00	0	27	0	3607101440	62	4341
2026-01-05 08:49:23.44	323.14	8.59	-48.6	-49.8	14.5	0.00e+00	0	27	0	3613392896	62	4385
2026-01-05 08:49:24.44	323.05	8.52	-48.7	-50.0	14.5	0.00e+00	0	27	0	3618635776	62	4446
