passes_logs/2026/01/05/R3.2S_Murmansk/R3.2S_Murmansk__20260105_105635_SUOMI_NPP_rec.log

#Pass ID: 20260105_105635_SUOMI NPP
#Satellite: SUOMI NPP
#Configuration: NPP
#almurnet v.1.7.20251203
#Start time: 2026-01-05 10:56:36

#Version: 2.2.20231116
#Station: R3.2S_Murmansk
#Location: 33.079688 lon 68.888172 lat
#TLE: 1 37849U 11061A   26003.96724563  .00000164  00000+0  98899-4 0  9990
#TLE: 2 37849  98.7800 306.1116 0002573  82.3190 277.8279 14.19522066735141

#Time	Az	El	Level	Level2	SNR	BER	BlckErr	Temp	State	Recorded	gain1	gain2
2026-01-05 10:56:36.84	185.02	2.10	-58.2	-74.3	3.8	1.49e+00	0	25	0	0	81	24476
2026-01-05 10:56:37.83	185.06	2.17	-58.2	-74.3	3.8	1.49e+00	0	25	104	0	81	24419
2026-01-05 10:56:38.83	185.10	2.23	-58.1	-74.2	3.8	1.49e+00	0	25	104	0	81	24355
2026-01-05 10:56:39.82	185.14	2.29	-58.2	-74.3	3.8	1.49e+00	0	25	104	0	81	24438
2026-01-05 10:56:40.81	185.18	2.35	-58.1	-74.3	3.8	1.49e+00	0	25	104	0	81	24472
2026-01-05 10:56:41.80	185.22	2.41	-58.1	-74.2	3.8	1.49e+00	0	25	104	0	81	24357
2026-01-05 10:56:42.79	185.27	2.47	-58.1	-74.2	3.8	1.49e+00	0	25	104	0	81	24270
2026-01-05 10:56:43.78	185.31	2.54	-58.1	-74.1	3.8	1.49e+00	0	25	104	0	81	24091
2026-01-05 10:56:44.76	185.35	2.60	-58.2	-74.1	3.8	1.49e+00	0	25	104	0	81	24014
2026-01-05 10:56:45.75	185.39	2.66	-58.1	-74.1	3.8	1.49e+00	0	25	104	0	81	23975
2026-01-05 10:56:46.75	185.43	2.72	-58.1	-74.0	3.8	1.49e+00	0	26	104	0	81	23842
2026-01-05 10:56:47.74	185.48	2.78	-58.1	-74.0	3.8	1.49e+00	0	25	104	0	81	23824
2026-01-05 10:56:48.73	185.52	2.85	-58.2	-74.2	3.8	1.49e+00	0	25	104	0	81	24190
2026-01-05 10:56:49.72	185.56	2.91	-58.2	-74.2	3.8	1.49e+00	0	25	104	0	81	24237
2026-01-05 10:56:50.72	185.60	2.97	-58.2	-74.2	3.8	1.49e+00	0	25	104	0	81	24253
2026-01-05 10:56:51.71	185.65	3.03	-58.2	-74.3	3.8	1.49e+00	0	25	104	0	81	24434
2026-01-05 10:56:52.70	185.69	3.10	-58.1	-74.2	3.8	1.49e+00	0	26	104	0	81	24275
2026-01-05 10:56:53.69	185.73	3.16	-58.2	-74.1	3.8	1.49e+00	0	26	104	0	81	24036
2026-01-05 10:56:54.69	185.78	3.22	-58.2	-74.1	3.8	1.49e+00	0	26	104	0	81	23952
2026-01-05 10:56:55.68	185.82	3.29	-58.2	-74.1	3.8	1.49e+00	0	26	104	0	81	24046
2026-01-05 10:56:56.67	185.87	3.35	-58.2	-74.2	3.8	1.49e+00	0	25	104	0	81	24144
2026-01-05 10:56:57.65	185.91	3.41	-58.1	-74.0	3.8	1.49e+00	0	26	104	0	81	23695
2026-01-05 10:56:58.64	185.95	3.48	-58.2	-74.2	3.8	1.49e+00	0	26	104	0	81	24336
2026-01-05 10:56:59.63	186.00	3.54	-58.2	-74.3	3.8	1.49e+00	0	26	104	0	81	24488
2026-01-05 10:57:00.62	186.04	3.61	-58.2	-74.3	3.8	1.49e+00	0	26	104	0	81	24526
2026-01-05 10:57:01.60	186.09	3.67	-58.1	-73.8	3.8	1.49e+00	0	26	104	0	81	23239
2026-01-05 10:57:02.59	186.13	3.73	-58.2	-74.0	3.8	1.49e+00	0	26	104	0	81	23657
2026-01-05 10:57:03.57	186.18	3.80	-58.1	-73.6	3.6	1.49e+00	0	26	104	0	81	22562
2026-01-05 10:57:04.56	186.22	3.86	-58.1	-72.7	3.8	1.49e+00	0	26	104	0	81	20396
2026-01-05 10:57:05.54	186.27	3.93	-58.1	-72.1	3.8	1.49e+00	0	26	104	0	81	19030
2026-01-05 10:57:06.53	186.31	3.99	-58.0	-71.4	3.9	1.47e+00	0	26	104	0	81	17586
2026-01-05 10:57:07.52	186.36	4.05	-58.0	-70.7	4.2	1.43e+00	0	26	0	0	81	16137
2026-01-05 10:57:08.50	186.40	4.12	-58.0	-70.2	4.3	1.31e+00	92	26	0	0	81	15272
2026-01-05 10:57:09.49	186.45	4.18	-57.9	-69.7	4.5	1.13e+00	2	26	0	2097152	81	14470
2026-01-05 10:57:10.47	186.50	4.25	-58.0	-70.0	4.4	1.09e+00	84	26	0	3145728	81	14983
2026-01-05 10:57:11.47	186.54	4.32	-57.9	-69.4	4.6	1.16e+00	0	26	0	5242880	81	13887
2026-01-05 10:57:12.45	186.59	4.38	-57.9	-69.0	4.8	7.52e-01	0	26	0	7340032	80	14090
2026-01-05 10:57:13.44	186.64	4.45	-57.8	-68.5	5.0	8.07e-01	0	26	0	9437184	80	13382
2026-01-05 10:57:14.43	186.68	4.51	-57.8	-68.2	5.2	5.94e-01	0	26	0	10485760	80	12949
2026-01-05 10:57:15.41	186.73	4.58	-57.6	-66.9	5.9	4.31e-01	0	26	0	12582912	80	11139
2026-01-05 10:57:16.39	186.78	4.64	-57.6	-66.7	6.1	2.67e-01	0	26	0	14680064	80	10831
2026-01-05 10:57:17.37	186.83	4.71	-57.5	-65.7	6.8	1.93e-01	0	26	0	16777216	80	9645
2026-01-05 10:57:18.36	186.87	4.78	-57.4	-65.4	7.0	1.10e-01	0	26	0	17825792	80	9324
2026-01-05 10:57:19.35	186.92	4.84	-57.3	-64.8	7.5	8.14e-02	0	26	0	19922944	80	8722
2026-01-05 10:57:20.34	186.97	4.91	-57.3	-64.5	7.8	5.26e-02	0	26	0	22020096	80	8463
2026-01-05 10:57:21.34	187.02	4.98	-57.2	-64.5	7.8	5.15e-02	0	26	0	24117248	79	8882
2026-01-05 10:57:22.33	187.07	5.04	-57.3	-64.4	7.9	5.82e-02	0	26	0	25165824	79	8773
2026-01-05 10:57:23.32	187.12	5.11	-58.0	-67.8	5.6	1.36e-01	0	26	0	27262976	81	11572
2026-01-05 10:57:24.32	187.17	5.18	-58.1	-73.6	3.8	1.49e+00	0	26	104	28311552	81	22610
2026-01-05 10:57:25.31	187.22	5.25	-55.1	-58.4	12.5	1.72e-01	0	26	0	28311552	76	5256
2026-01-05 10:57:26.30	187.27	5.31	-55.7	-59.6	11.7	4.08e-04	0	26	0	30408704	78	5373
2026-01-05 10:57:27.28	187.32	5.38	-56.0	-60.4	10.9	0.00e+00	0	26	0	32505856	77	6260
2026-01-05 10:57:28.28	187.37	5.45	-54.9	-58.2	12.6	0.00e+00	0	26	0	33554432	76	5115
2026-01-05 10:57:29.27	187.42	5.52	-54.8	-57.9	12.8	0.00e+00	0	26	0	35651584	76	4944
2026-01-05 10:57:30.26	187.47	5.59	-54.6	-57.7	12.8	0.00e+00	0	26	0	37748736	75	5109
2026-01-05 10:57:31.27	187.52	5.66	-54.6	-57.7	12.8	0.00e+00	0	27	0	39845888	75	5156
2026-01-05 10:57:32.26	187.57	5.73	-54.6	-57.7	12.8	0.00e+00	0	26	0	41943040	75	5122
2026-01-05 10:57:33.25	187.62	5.80	-54.5	-57.6	12.8	0.00e+00	0	26	0	42991616	74	5359
2026-01-05 10:57:34.25	187.67	5.86	-54.6	-57.6	12.8	0.00e+00	0	26	0	45088768	74	5402
2026-01-05 10:57:35.25	187.73	5.93	-54.5	-57.5	12.9	0.00e+00	0	26	0	47185920	74	5310
2026-01-05 10:57:36.24	187.78	6.00	-54.7	-57.7	12.7	0.00e+00	0	26	0	49283072	74	5458
2026-01-05 10:57:37.23	187.83	6.07	-54.6	-57.6	12.8	0.00e+00	0	27	0	50331648	74	5384
2026-01-05 10:57:38.23	187.88	6.14	-54.7	-57.8	12.6	0.00e+00	0	26	0	52428800	74	5526
2026-01-05 10:57:39.22	187.93	6.21	-54.7	-57.7	12.7	0.00e+00	0	26	0	54525952	74	5463
2026-01-05 10:57:40.21	187.99	6.28	-54.8	-57.9	12.7	0.00e+00	0	26	0	56623104	74	5547
2026-01-05 10:57:41.21	188.04	6.36	-54.7	-57.7	12.7	0.00e+00	0	26	0	58720256	74	5453
2026-01-05 10:57:42.20	188.09	6.43	-54.7	-57.8	12.7	0.00e+00	0	26	0	59768832	74	5500
2026-01-05 10:57:43.20	188.15	6.50	-54.6	-57.6	12.8	0.00e+00	0	26	0	61865984	74	5393
2026-01-05 10:57:44.19	188.20	6.57	-54.7	-57.8	12.8	0.00e+00	0	26	0	63963136	74	5478
2026-01-05 10:57:45.18	188.26	6.64	-54.7	-57.8	12.8	0.00e+00	0	26	0	66060288	74	5485
2026-01-05 10:57:46.18	188.31	6.71	-54.7	-57.7	12.8	0.00e+00	0	27	0	67108864	74	5450
2026-01-05 10:57:47.17	188.37	6.78	-54.8	-57.9	12.7	0.00e+00	0	27	0	69206016	74	5534
2026-01-05 10:57:48.15	188.42	6.85	-54.7	-57.7	12.8	0.00e+00	0	26	0	71303168	74	5419
2026-01-05 10:57:49.14	188.48	6.92	-54.7	-57.8	12.7	0.00e+00	0	27	0	73400320	74	5499
2026-01-05 10:57:50.14	188.53	7.00	-54.6	-57.6	12.9	0.00e+00	0	26	0	75497472	74	5348
2026-01-05 10:57:51.12	188.59	7.07	-54.6	-57.6	12.9	0.00e+00	0	27	0	76546048	74	5379
2026-01-05 10:57:52.12	188.64	7.14	-54.4	-57.3	13.1	0.00e+00	0	26	0	78643200	74	5183
2026-01-05 10:57:53.11	188.70	7.21	-54.5	-57.4	13.0	0.00e+00	0	26	0	80740352	74	5253
2026-01-05 10:57:54.09	188.75	7.29	-54.5	-57.3	13.0	0.00e+00	0	26	0	82837504	74	5195
2026-01-05 10:57:55.08	188.81	7.36	-54.5	-57.4	13.0	0.00e+00	0	27	0	83886080	74	5270
2026-01-05 10:57:56.08	188.87	7.43	-54.5	-57.3	13.1	0.00e+00	0	26	0	85983232	74	5202
2026-01-05 10:57:57.07	188.93	7.51	-54.4	-57.1	13.2	0.00e+00	0	26	0	88080384	74	5085
2026-01-05 10:57:58.06	188.98	7.58	-54.3	-57.0	13.3	0.00e+00	0	27	0	90177536	74	4996
2026-01-05 10:57:59.04	189.04	7.65	-54.3	-57.0	13.2	0.00e+00	0	27	0	91226112	74	5022
2026-01-05 10:58:00.03	189.10	7.73	-54.1	-56.7	13.4	0.00e+00	0	27	0	93323264	74	4857
2026-01-05 10:58:01.03	189.16	7.80	-54.2	-56.9	13.3	0.00e+00	0	27	0	95420416	74	4935
2026-01-05 10:58:02.02	189.22	7.87	-54.2	-56.8	13.4	0.00e+00	0	27	0	97517568	74	4908
2026-01-05 10:58:03.01	189.27	7.95	-53.9	-56.4	13.6	0.00e+00	0	26	0	99614720	74	4687
2026-01-05 10:58:04.00	189.33	8.02	-54.0	-56.6	13.5	0.00e+00	0	26	0	100663296	74	4785
2026-01-05 10:58:04.99	189.39	8.10	-53.9	-56.4	13.6	0.00e+00	0	26	0	102760448	74	4683
2026-01-05 10:58:05.98	189.45	8.17	-54.0	-56.5	13.6	0.00e+00	0	27	0	104857600	74	4728
2026-01-05 10:58:06.97	189.51	8.25	-54.0	-56.5	13.6	0.00e+00	0	27	0	106954752	74	4730
2026-01-05 10:58:07.96	189.57	8.32	-53.7	-56.1	13.8	0.00e+00	0	27	0	108003328	74	4524
2026-01-05 10:58:08.95	189.63	8.40	-53.8	-56.1	13.7	0.00e+00	0	27	0	110100480	74	4545
2026-01-05 10:58:09.94	189.69	8.47	-53.7	-56.1	13.7	0.00e+00	0	27	0	112197632	73	4763
2026-01-05 10:58:10.93	189.75	8.55	-53.6	-55.9	13.8	0.00e+00	0	26	0	114294784	73	4660
2026-01-05 10:58:11.92	189.82	8.63	-53.5	-55.8	13.8	0.00e+00	0	27	0	115343360	73	4625
2026-01-05 10:58:12.91	189.88	8.70	-53.6	-55.9	13.8	0.00e+00	0	27	0	117440512	73	4673
2026-01-05 10:58:13.90	189.94	8.78	-53.6	-55.9	13.8	0.00e+00	0	27	0	119537664	73	4656
2026-01-05 10:58:14.90	190.00	8.86	-53.7	-56.1	13.7	0.00e+00	0	27	0	121634816	73	4788
2026-01-05 10:58:15.89	190.07	8.93	-53.6	-55.8	13.8	0.00e+00	0	27	0	123731968	73	4648
2026-01-05 10:58:16.88	190.13	9.01	-53.4	-55.7	13.9	0.00e+00	0	27	0	124780544	73	4570
2026-01-05 10:58:17.87	190.19	9.09	-53.5	-55.7	13.9	0.00e+00	0	27	0	126877696	73	4585
2026-01-05 10:58:18.87	190.26	9.17	-53.7	-56.0	13.7	0.00e+00	0	27	0	128974848	73	4736
2026-01-05 10:58:19.85	190.32	9.24	-53.4	-55.7	13.9	0.00e+00	0	27	0	131072000	73	4555
2026-01-05 10:58:20.84	190.38	9.32	-53.6	-55.9	13.8	0.00e+00	0	27	0	132120576	73	4688
2026-01-05 10:58:21.84	190.45	9.40	-53.7	-56.0	13.8	0.00e+00	0	27	0	134217728	73	4734
2026-01-05 10:58:22.83	190.51	9.48	-53.5	-55.8	13.8	0.00e+00	0	27	0	136314880	73	4619
2026-01-05 10:58:23.81	190.58	9.56	-53.6	-55.9	13.8	0.00e+00	0	27	0	138412032	73	4659
2026-01-05 10:58:24.80	190.64	9.63	-53.6	-55.8	13.9	0.00e+00	0	27	0	140509184	73	4639
2026-01-05 10:58:25.79	190.71	9.71	-53.5	-55.8	13.9	0.00e+00	0	27	0	141557760	73	4616
2026-01-05 10:58:26.79	190.78	9.79	-53.6	-55.9	13.8	0.00e+00	0	27	0	143654912	73	4705
2026-01-05 10:58:27.79	190.84	9.87	-53.7	-56.0	13.7	0.00e+00	0	27	0	145752064	73	4758
2026-01-05 10:58:28.78	190.91	9.95	-53.6	-55.9	13.8	0.00e+00	0	27	0	147849216	73	4705
2026-01-05 10:58:29.78	190.98	10.03	-53.7	-56.0	13.8	0.00e+00	0	27	0	148897792	73	4742
2026-01-05 10:58:30.76	191.04	10.11	-53.7	-56.0	13.8	0.00e+00	0	27	0	150994944	73	4729
2026-01-05 10:58:31.76	191.11	10.20	-53.6	-55.9	13.8	0.00e+00	0	27	0	153092096	73	4704
2026-01-05 10:58:32.75	191.18	10.28	-53.6	-55.9	13.8	0.00e+00	0	27	0	155189248	73	4669
2026-01-05 10:58:33.75	191.25	10.36	-53.5	-55.8	13.9	0.00e+00	0	27	0	157286400	73	4609
2026-01-05 10:58:34.74	191.32	10.44	-53.5	-55.8	13.9	0.00e+00	0	27	0	158334976	73	4604
2026-01-05 10:58:35.73	191.39	10.52	-53.4	-55.7	14.0	0.00e+00	0	27	0	160432128	73	4556
2026-01-05 10:58:36.71	191.46	10.60	-53.4	-55.7	13.9	0.00e+00	0	27	0	162529280	73	4563
2026-01-05 10:58:37.70	191.53	10.68	-53.4	-55.6	14.0	0.00e+00	0	27	0	164626432	73	4540
2026-01-05 10:58:38.69	191.60	10.77	-53.4	-55.6	14.0	0.00e+00	0	27	0	165675008	73	4542
2026-01-05 10:58:39.69	191.67	10.85	-53.2	-55.4	14.1	0.00e+00	0	27	0	167772160	73	4406
2026-01-05 10:58:40.68	191.74	10.93	-53.3	-55.4	14.1	0.00e+00	0	27	0	169869312	73	4425
2026-01-05 10:58:41.68	191.81	11.01	-53.1	-55.2	14.1	0.00e+00	0	27	0	171966464	72	4578
2026-01-05 10:58:42.67	191.89	11.10	-53.2	-55.3	14.0	0.00e+00	0	27	0	173015040	72	4627
2026-01-05 10:58:43.67	191.96	11.18	-53.0	-55.1	14.1	0.00e+00	0	27	0	175112192	72	4502
2026-01-05 10:58:44.66	192.03	11.27	-53.0	-55.0	14.1	0.00e+00	0	27	0	177209344	72	4492
2026-01-05 10:58:45.65	192.10	11.35	-52.8	-54.9	14.3	0.00e+00	0	27	0	179306496	72	4396
2026-01-05 10:58:46.64	192.18	11.43	-52.8	-54.8	14.3	0.00e+00	0	27	0	181403648	72	4385
2026-01-05 10:58:47.62	192.25	11.52	-52.7	-54.7	14.2	0.00e+00	0	27	0	182452224	71	4591
2026-01-05 10:58:48.61	192.33	11.60	-52.6	-54.6	14.3	0.00e+00	0	27	0	184549376	71	4512
2026-01-05 10:58:49.60	192.40	11.69	-52.6	-54.5	14.3	0.00e+00	0	27	0	186646528	71	4481
2026-01-05 10:58:50.59	192.48	11.77	-52.6	-54.5	14.3	0.00e+00	0	27	0	188743680	71	4471
2026-01-05 10:58:51.58	192.55	11.86	-52.6	-54.6	14.3	0.00e+00	0	27	0	189792256	71	4497
2026-01-05 10:58:52.57	192.63	11.94	-52.5	-54.4	14.4	0.00e+00	0	27	0	191889408	71	4400
2026-01-05 10:58:53.57	192.70	12.03	-52.6	-54.5	14.3	0.00e+00	0	27	0	193986560	71	4470
2026-01-05 10:58:54.57	192.78	12.12	-52.4	-54.3	14.4	0.00e+00	0	27	0	196083712	71	4379
2026-01-05 10:58:55.56	192.86	12.20	-52.5	-54.3	14.4	0.00e+00	0	27	0	197132288	71	4389
2026-01-05 10:58:56.56	192.94	12.29	-52.4	-54.3	14.4	0.00e+00	0	27	0	199229440	71	4358
2026-01-05 10:58:57.55	193.02	12.38	-52.5	-54.4	14.4	0.00e+00	0	27	0	201326592	71	4423
2026-01-05 10:58:58.54	193.09	12.46	-52.5	-54.4	14.4	0.00e+00	0	27	0	203423744	71	4414
2026-01-05 10:58:59.52	193.17	12.55	-52.5	-54.3	14.4	0.00e+00	0	27	0	205520896	71	4389
2026-01-05 10:59:00.51	193.25	12.64	-52.4	-54.3	14.4	0.00e+00	0	27	0	206569472	71	4366
2026-01-05 10:59:01.51	193.33	12.73	-52.3	-54.2	14.5	0.00e+00	0	27	0	208666624	71	4296
2026-01-05 10:59:02.51	193.41	12.81	-52.3	-54.1	14.5	0.00e+00	0	27	0	210763776	71	4270
2026-01-05 10:59:03.49	193.49	12.90	-52.3	-54.1	14.4	0.00e+00	0	27	0	212860928	70	4536
2026-01-05 10:59:04.49	193.58	12.99	-52.1	-53.9	14.5	0.00e+00	0	27	0	213909504	70	4426
2026-01-05 10:59:05.47	193.66	13.08	-52.2	-54.0	14.4	0.00e+00	0	27	0	216006656	70	4444
2026-01-05 10:59:06.46	193.74	13.17	-52.1	-53.9	14.5	0.00e+00	0	27	0	218103808	70	4426
2026-01-05 10:59:07.45	193.82	13.26	-52.0	-53.8	14.5	0.00e+00	0	27	0	220200960	70	4368
2026-01-05 10:59:08.44	193.91	13.35	-51.9	-53.7	14.6	0.00e+00	0	27	0	221249536	70	4297
2026-01-05 10:59:09.43	193.99	13.44	-51.9	-53.6	14.6	0.00e+00	0	27	0	223346688	70	4255
2026-01-05 10:59:10.43	194.07	13.53	-52.0	-53.7	14.6	0.00e+00	0	27	0	225443840	70	4299
2026-01-05 10:59:11.42	194.16	13.62	-52.1	-53.8	14.5	0.00e+00	0	27	0	227540992	70	4371
2026-01-05 10:59:12.41	194.24	13.71	-51.9	-53.6	14.6	0.00e+00	0	27	0	229638144	70	4248
2026-01-05 10:59:13.39	194.33	13.80	-51.9	-53.7	14.6	0.00e+00	0	27	0	230686720	70	4299
2026-01-05 10:59:14.38	194.41	13.89	-51.8	-53.5	14.6	0.00e+00	0	27	0	232783872	70	4239
2026-01-05 10:59:15.37	194.50	13.99	-52.0	-53.7	14.6	0.00e+00	0	27	0	234881024	70	4319
2026-01-05 10:59:16.35	194.59	14.08	-52.1	-53.8	14.5	0.00e+00	0	27	0	236978176	70	4377
2026-01-05 10:59:17.35	194.68	14.17	-52.0	-53.7	14.6	0.00e+00	0	27	0	238026752	70	4311
2026-01-05 10:59:18.35	194.77	14.26	-52.1	-53.8	14.5	0.00e+00	0	27	0	240123904	70	4379
2026-01-05 10:59:19.33	194.85	14.36	-52.0	-53.7	14.6	0.00e+00	0	27	0	242221056	70	4317
2026-01-05 10:59:20.33	194.94	14.45	-52.1	-53.9	14.5	0.00e+00	0	27	0	244318208	70	4416
2026-01-05 10:59:21.32	195.03	14.54	-52.2	-54.0	14.4	0.00e+00	0	27	0	246415360	70	4488
2026-01-05 10:59:22.31	195.12	14.64	-52.0	-53.7	14.5	0.00e+00	0	27	0	247463936	70	4314
2026-01-05 10:59:23.29	195.21	14.73	-52.1	-53.9	14.5	0.00e+00	0	27	0	249561088	70	4402
2026-01-05 10:59:24.28	195.30	14.83	-52.0	-53.7	14.5	0.00e+00	0	27	0	251658240	70	4332
2026-01-05 10:59:25.28	195.40	14.92	-51.9	-53.6	14.6	0.00e+00	0	27	0	253755392	70	4283
2026-01-05 10:59:26.27	195.49	15.02	-52.0	-53.8	14.5	0.00e+00	0	27	0	254803968	70	4356
2026-01-05 10:59:27.25	195.58	15.11	-52.1	-53.9	14.5	0.00e+00	0	27	0	256901120	70	4392
2026-01-05 10:59:28.25	195.68	15.21	-52.1	-53.9	14.5	0.00e+00	0	27	0	258998272	70	4430
2026-01-05 10:59:29.25	195.77	15.30	-52.3	-54.1	14.4	0.00e+00	0	27	0	261095424	70	4506
2026-01-05 10:59:30.24	195.87	15.40	-52.3	-54.1	14.4	0.00e+00	0	27	0	263192576	70	4514
2026-01-05 10:59:31.23	195.96	15.50	-52.2	-54.0	14.5	0.00e+00	0	27	0	264241152	70	4443
2026-01-05 10:59:32.22	196.06	15.59	-52.2	-54.0	14.4	0.00e+00	0	27	0	266338304	70	4488
2026-01-05 10:59:33.21	196.16	15.69	-52.2	-54.0	14.4	0.00e+00	0	27	0	268435456	70	4478
2026-01-05 10:59:34.20	196.25	15.79	-52.3	-54.1	14.4	0.00e+00	0	27	0	270532608	70	4520
2026-01-05 10:59:35.20	196.35	15.89	-52.3	-54.1	14.4	0.00e+00	0	27	0	271581184	70	4543
2026-01-05 10:59:36.19	196.45	15.99	-52.3	-54.1	14.4	0.00e+00	0	27	0	273678336	70	4495
2026-01-05 10:59:37.17	196.55	16.08	-52.3	-54.1	14.4	0.00e+00	0	27	0	275775488	70	4500
2026-01-05 10:59:38.16	196.65	16.18	-52.4	-54.3	14.4	0.00e+00	0	27	0	277872640	70	4602
2026-01-05 10:59:39.15	196.75	16.28	-52.5	-54.4	14.3	0.00e+00	0	27	0	278921216	70	4665
2026-01-05 10:59:40.14	196.85	16.38	-52.3	-54.1	14.4	0.00e+00	0	27	0	281018368	70	4530
2026-01-05 10:59:41.13	196.95	16.48	-52.3	-54.1	14.4	0.00e+00	0	27	0	283115520	70	4507
2026-01-05 10:59:42.12	197.05	16.58	-52.5	-54.4	14.3	0.00e+00	0	27	0	285212672	70	4674
2026-01-05 10:59:43.11	197.16	16.68	-52.5	-54.3	14.3	0.00e+00	0	27	0	287309824	70	4650
2026-01-05 10:59:44.10	197.26	16.78	-52.5	-54.3	14.3	0.00e+00	0	27	0	288358400	70	4612
2026-01-05 10:59:45.10	197.36	16.89	-52.7	-54.6	14.2	0.00e+00	0	27	0	290455552	70	4782
2026-01-05 10:59:46.09	197.47	16.99	-52.6	-54.4	14.3	0.00e+00	0	27	0	292552704	70	4700
2026-01-05 10:59:47.09	197.58	17.09	-52.6	-54.5	14.2	0.00e+00	0	27	0	294649856	70	4734
2026-01-05 10:59:48.08	197.68	17.19	-52.7	-54.6	14.2	0.00e+00	0	27	0	295698432	70	4760
2026-01-05 10:59:49.08	197.79	17.30	-52.6	-54.4	14.3	0.00e+00	0	27	0	297795584	70	4690
2026-01-05 10:59:50.07	197.90	17.40	-52.6	-54.5	14.3	0.00e+00	0	27	0	299892736	70	4725
2026-01-05 10:59:51.06	198.01	17.50	-52.7	-54.6	14.2	0.00e+00	0	27	0	301989888	70	4772
2026-01-05 10:59:52.05	198.12	17.60	-52.7	-54.6	14.2	0.00e+00	0	27	0	304087040	70	4810
2026-01-05 10:59:53.05	198.23	17.71	-52.8	-54.7	14.3	0.00e+00	0	27	0	305135616	71	4546
2026-01-05 10:59:54.04	198.34	17.81	-52.7	-54.6	14.3	0.00e+00	0	27	0	307232768	71	4499
2026-01-05 10:59:55.04	198.45	17.92	-52.8	-54.8	14.2	0.00e+00	0	27	0	309329920	71	4599
2026-01-05 10:59:56.03	198.56	18.02	-52.8	-54.7	14.3	0.00e+00	0	27	0	311427072	71	4567
2026-01-05 10:59:57.02	198.68	18.13	-52.9	-54.9	14.2	0.00e+00	0	27	0	312475648	71	4678
2026-01-05 10:59:58.02	198.79	18.24	-52.7	-54.6	14.3	0.00e+00	0	27	0	314572800	71	4537
2026-01-05 10:59:59.01	198.90	18.34	-52.8	-54.7	14.3	0.00e+00	0	27	0	316669952	71	4570
2026-01-05 11:00:00.00	199.02	18.45	-52.9	-54.9	14.2	0.00e+00	0	27	0	318767104	71	4685
2026-01-05 11:00:00.99	199.14	18.56	-52.9	-54.9	14.2	0.00e+00	0	27	0	319815680	71	4691
2026-01-05 11:00:01.97	199.25	18.66	-52.9	-54.8	14.2	0.00e+00	0	27	0	321912832	71	4620
2026-01-05 11:00:02.96	199.37	18.77	-52.6	-54.5	14.4	0.00e+00	0	27	0	324009984	71	4455
2026-01-05 11:00:03.95	199.49	18.88	-52.7	-54.6	14.3	0.00e+00	0	27	0	326107136	71	4512
2026-01-05 11:00:04.93	199.60	18.98	-52.6	-54.5	14.4	0.00e+00	0	27	0	327155712	71	4470
2026-01-05 11:00:05.91	199.72	19.09	-52.5	-54.3	14.4	0.00e+00	0	27	0	329252864	71	4362
2026-01-05 11:00:06.90	199.84	19.20	-52.6	-54.4	14.4	0.00e+00	0	27	0	331350016	71	4411
2026-01-05 11:00:07.90	199.97	19.31	-52.5	-54.3	14.5	0.00e+00	0	27	0	333447168	71	4347
2026-01-05 11:00:08.90	200.09	19.42	-52.4	-54.2	14.5	0.00e+00	0	27	0	335544320	71	4301
2026-01-05 11:00:09.89	200.21	19.53	-52.5	-54.4	14.4	0.00e+00	0	27	0	336592896	71	4395
2026-01-05 11:00:10.87	200.34	19.64	-52.6	-54.4	14.4	0.00e+00	0	27	0	338690048	71	4427
2026-01-05 11:00:11.86	200.46	19.75	-52.5	-54.4	14.4	0.00e+00	0	27	0	340787200	71	4397
2026-01-05 11:00:12.85	200.59	19.86	-53.1	-55.1	14.3	0.00e+00	0	27	0	342884352	72	4496
2026-01-05 11:00:13.83	200.71	19.97	-53.1	-55.1	14.2	0.00e+00	0	27	0	343932928	72	4541
2026-01-05 11:00:14.83	200.84	20.08	-53.2	-55.2	14.2	0.00e+00	0	27	0	346030080	72	4551
2026-01-05 11:00:15.82	200.97	20.20	-53.3	-55.3	14.1	0.00e+00	0	27	0	348127232	72	4632
2026-01-05 11:00:16.80	201.10	20.31	-53.1	-55.1	14.2	0.00e+00	0	27	0	350224384	72	4523
2026-01-05 11:00:17.79	201.23	20.42	-52.9	-54.9	14.3	0.00e+00	0	27	0	352321536	72	4398
2026-01-05 11:00:18.78	201.36	20.53	-52.8	-54.7	14.4	0.00e+00	0	27	0	353370112	72	4304
2026-01-05 11:00:19.77	201.49	20.65	-52.6	-54.4	14.4	0.00e+00	0	27	0	355467264	71	4402
2026-01-05 11:00:20.76	201.62	20.76	-52.4	-54.2	14.5	0.00e+00	0	27	0	357564416	71	4319
2026-01-05 11:00:21.75	201.76	20.87	-52.4	-54.2	14.5	0.00e+00	0	27	0	359661568	71	4334
2026-01-05 11:00:22.74	201.89	20.99	-52.6	-54.5	14.4	0.00e+00	0	27	0	360710144	71	4444
2026-01-05 11:00:23.74	202.03	21.11	-52.6	-54.4	14.4	0.00e+00	0	27	0	362807296	71	4417
2026-01-05 11:00:24.73	202.17	21.22	-52.7	-54.6	14.3	0.00e+00	0	27	0	364904448	71	4523
2026-01-05 11:00:25.72	202.31	21.34	-52.8	-54.7	14.3	0.00e+00	0	27	0	367001600	71	4571
2026-01-05 11:00:26.71	202.45	21.45	-52.8	-54.7	14.3	0.00e+00	0	27	0	368050176	71	4558
2026-01-05 11:00:27.71	202.59	21.57	-52.9	-54.8	14.2	0.00e+00	0	27	0	370147328	71	4637
2026-01-05 11:00:28.70	202.73	21.69	-53.0	-55.0	14.2	0.00e+00	0	27	0	372244480	71	4729
2026-01-05 11:00:29.69	202.87	21.80	-52.8	-54.7	14.3	0.00e+00	0	27	0	374341632	71	4563
2026-01-05 11:00:30.67	203.01	21.92	-52.7	-54.5	14.4	0.00e+00	0	27	0	376438784	71	4475
2026-01-05 11:00:31.66	203.16	22.04	-52.7	-54.6	14.3	0.00e+00	0	27	0	377487360	71	4503
2026-01-05 11:00:32.65	203.30	22.16	-52.9	-54.7	14.3	0.00e+00	0	27	0	379584512	71	4596
2026-01-05 11:00:33.65	203.45	22.28	-52.6	-54.4	14.4	0.00e+00	0	27	0	381681664	71	4411
2026-01-05 11:00:34.65	203.60	22.40	-52.7	-54.6	14.4	0.00e+00	0	27	0	383778816	71	4494
2026-01-05 11:00:35.64	203.75	22.52	-52.6	-54.4	14.4	0.00e+00	0	27	0	384827392	71	4401
2026-01-05 11:00:36.64	203.90	22.64	-52.7	-54.5	14.4	0.00e+00	0	27	0	386924544	71	4488
2026-01-05 11:00:37.63	204.05	22.76	-52.6	-54.4	14.4	0.00e+00	0	27	0	389021696	71	4426
2026-01-05 11:00:38.62	204.20	22.88	-52.8	-54.7	14.3	0.00e+00	0	27	0	391118848	71	4558
2026-01-05 11:00:39.61	204.35	23.00	-53.0	-54.9	14.2	0.00e+00	0	27	0	393216000	71	4662
2026-01-05 11:00:40.60	204.51	23.12	-52.8	-54.7	14.3	0.00e+00	0	27	0	394264576	71	4582
2026-01-05 11:00:41.60	204.66	23.24	-52.7	-54.5	14.4	0.00e+00	0	27	0	396361728	71	4484
2026-01-05 11:00:42.59	204.82	23.36	-52.7	-54.6	14.3	0.00e+00	0	27	0	398458880	71	4519
2026-01-05 11:00:43.59	204.98	23.49	-52.7	-54.6	14.3	0.00e+00	0	27	0	400556032	71	4501
2026-01-05 11:00:44.57	205.14	23.61	-52.6	-54.4	14.4	0.00e+00	0	27	0	401604608	71	4421
2026-01-05 11:00:45.57	205.30	23.73	-52.8	-54.7	14.3	0.00e+00	0	27	0	403701760	71	4564
2026-01-05 11:00:46.56	205.46	23.86	-52.7	-54.6	14.3	0.00e+00	0	27	0	405798912	71	4528
2026-01-05 11:00:47.56	205.63	23.98	-52.8	-54.8	14.2	0.00e+00	0	27	0	407896064	71	4599
2026-01-05 11:00:48.56	205.79	24.11	-52.8	-54.7	14.3	0.00e+00	0	27	0	409993216	71	4593
2026-01-05 11:00:49.55	205.96	24.23	-52.9	-54.9	14.2	0.00e+00	0	27	0	411041792	71	4654
2026-01-05 11:00:50.54	206.12	24.36	-52.9	-54.8	14.3	0.00e+00	0	27	0	413138944	71	4642
2026-01-05 11:00:51.54	206.29	24.48	-52.8	-54.6	14.3	0.00e+00	0	27	0	415236096	71	4544
2026-01-05 11:00:52.53	206.46	24.61	-52.7	-54.6	14.4	0.00e+00	0	27	0	417333248	71	4502
2026-01-05 11:00:53.53	206.63	24.74	-52.6	-54.4	14.4	0.00e+00	0	27	0	418381824	71	4429
2026-01-05 11:00:54.53	206.81	24.86	-52.5	-54.3	14.5	0.00e+00	0	27	0	420478976	71	4383
2026-01-05 11:00:55.52	206.98	24.99	-52.4	-54.2	14.5	0.00e+00	0	27	0	422576128	71	4319
2026-01-05 11:00:56.50	207.15	25.12	-52.4	-54.1	14.6	0.00e+00	0	27	0	424673280	71	4268
2026-01-05 11:00:57.49	207.33	25.24	-52.3	-54.1	14.6	0.00e+00	0	27	0	426770432	71	4248
2026-01-05 11:00:58.48	207.51	25.37	-52.5	-54.3	14.5	0.00e+00	0	27	0	427819008	71	4359
2026-01-05 11:00:59.48	207.69	25.50	-52.5	-54.3	14.5	0.00e+00	0	27	0	429916160	71	4360
2026-01-05 11:01:00.47	207.87	25.63	-52.7	-54.6	14.4	0.00e+00	0	27	0	432013312	71	4516
2026-01-05 11:01:01.46	208.05	25.76	-52.9	-54.7	14.3	0.00e+00	0	27	0	434110464	71	4597
2026-01-05 11:01:02.45	208.23	25.88	-53.2	-55.2	14.1	0.00e+00	0	27	0	435159040	71	4833
2026-01-05 11:01:03.44	208.41	26.01	-53.3	-55.3	14.1	0.00e+00	0	27	0	437256192	71	4887
2026-01-05 11:01:04.43	208.60	26.14	-53.4	-55.5	14.1	0.00e+00	0	27	0	439353344	72	4713
2026-01-05 11:01:05.42	208.79	26.27	-53.3	-55.3	14.1	0.00e+00	0	27	0	441450496	72	4610
2026-01-05 11:01:06.41	208.98	26.40	-53.0	-54.9	14.3	0.00e+00	0	27	0	442499072	72	4437
2026-01-05 11:01:07.39	209.16	26.53	-53.0	-54.9	14.3	0.00e+00	0	27	0	444596224	72	4419
2026-01-05 11:01:08.38	209.36	26.66	-52.5	-54.3	14.5	0.00e+00	0	27	0	446693376	71	4342
2026-01-05 11:01:09.38	209.55	26.80	-52.4	-54.2	14.5	0.00e+00	0	27	0	448790528	71	4298
2026-01-05 11:01:10.37	209.75	26.93	-52.3	-54.1	14.6	0.00e+00	0	27	0	450887680	71	4256
2026-01-05 11:01:11.36	209.94	27.06	-52.2	-53.9	14.6	0.00e+00	0	27	0	451936256	70	4395
2026-01-05 11:01:12.36	210.14	27.19	-52.3	-54.0	14.5	0.00e+00	0	27	0	454033408	70	4450
2026-01-05 11:01:13.34	210.34	27.32	-52.5	-54.3	14.4	0.00e+00	0	27	0	456130560	70	4604
2026-01-05 11:01:14.34	210.54	27.46	-52.7	-54.5	14.3	0.00e+00	0	27	0	458227712	70	4746
2026-01-05 11:01:15.33	210.75	27.59	-52.8	-54.6	14.2	0.00e+00	0	27	0	459276288	70	4809
2026-01-05 11:01:16.33	210.95	27.72	-52.8	-54.7	14.2	0.00e+00	0	27	0	461373440	70	4836
2026-01-05 11:01:17.31	211.16	27.86	-52.7	-54.6	14.4	0.00e+00	0	27	0	463470592	71	4506
2026-01-05 11:01:18.31	211.37	27.99	-52.8	-54.6	14.3	0.00e+00	0	27	0	465567744	71	4507
2026-01-05 11:01:19.30	211.58	28.12	-52.8	-54.6	14.4	0.00e+00	0	27	0	467664896	71	4521
2026-01-05 11:01:20.29	211.79	28.26	-53.0	-54.9	14.3	0.00e+00	0	27	0	468713472	71	4663
2026-01-05 11:01:21.28	212.00	28.39	-52.9	-54.8	14.3	0.00e+00	0	27	0	470810624	71	4615
2026-01-05 11:01:22.26	212.22	28.53	-53.1	-55.0	14.2	0.00e+00	0	27	0	472907776	71	4734
2026-01-05 11:01:23.25	212.43	28.66	-53.0	-54.9	14.2	0.00e+00	0	27	0	475004928	71	4703
2026-01-05 11:01:24.24	212.65	28.79	-53.1	-55.1	14.2	0.00e+00	0	27	0	476053504	71	4772
2026-01-05 11:01:25.23	212.87	28.93	-53.0	-54.9	14.3	0.00e+00	0	27	0	478150656	71	4669
2026-01-05 11:01:26.22	213.09	29.07	-53.2	-55.1	14.1	0.00e+00	0	27	0	480247808	71	4806
2026-01-05 11:01:27.21	213.32	29.20	-53.4	-55.4	14.1	0.00e+00	0	27	0	482344960	72	4704
2026-01-05 11:01:28.20	213.54	29.34	-53.7	-55.9	13.9	0.00e+00	0	27	0	483393536	72	4954
2026-01-05 11:01:29.19	213.77	29.47	-54.1	-56.4	13.8	0.00e+00	0	27	0	485490688	73	4961
2026-01-05 11:01:30.18	214.00	29.61	-54.3	-56.6	13.7	0.00e+00	0	27	0	487587840	73	5070
2026-01-05 11:01:31.17	214.23	29.74	-54.4	-56.7	13.7	0.00e+00	0	27	0	489684992	74	4858
2026-01-05 11:01:32.16	214.46	29.88	-54.2	-56.5	13.9	0.00e+00	0	27	0	491782144	74	4707
2026-01-05 11:01:33.16	214.70	30.02	-54.0	-56.2	13.9	0.00e+00	0	27	0	492830720	74	4548
2026-01-05 11:01:34.15	214.94	30.16	-53.9	-56.0	14.1	0.00e+00	0	27	0	494927872	74	4459
2026-01-05 11:01:35.14	215.18	30.29	-53.9	-56.0	14.0	0.00e+00	0	27	0	497025024	74	4474
2026-01-05 11:01:36.13	215.42	30.43	-53.7	-55.8	14.1	0.00e+00	0	27	0	499122176	73	4599
2026-01-05 11:01:37.12	215.66	30.57	-53.7	-55.7	14.1	0.00e+00	0	27	0	500170752	73	4592
2026-01-05 11:01:38.10	215.90	30.70	-53.7	-55.8	14.1	0.00e+00	0	27	0	502267904	73	4605
2026-01-05 11:01:39.09	216.15	30.84	-53.6	-55.7	14.1	0.00e+00	0	27	0	504365056	73	4557
2026-01-05 11:01:40.08	216.40	30.98	-53.5	-55.5	14.1	0.00e+00	0	27	0	506462208	73	4493
2026-01-05 11:01:41.07	216.65	31.11	-53.5	-55.5	14.2	0.00e+00	0	27	0	507510784	73	4478
2026-01-05 11:01:42.07	216.91	31.25	-53.3	-55.3	14.3	0.00e+00	0	27	0	509607936	73	4366
2026-01-05 11:01:43.07	217.17	31.39	-53.2	-55.1	14.3	0.00e+00	0	27	0	511705088	72	4512
2026-01-05 11:01:44.05	217.42	31.53	-53.1	-55.0	14.3	0.00e+00	0	27	0	513802240	72	4473
2026-01-05 11:01:45.04	217.68	31.66	-53.1	-55.0	14.3	0.00e+00	0	27	0	515899392	72	4484
2026-01-05 11:01:46.04	217.95	31.80	-53.3	-55.2	14.1	0.00e+00	0	27	0	516947968	72	4590
2026-01-05 11:01:47.02	218.21	31.94	-53.3	-55.3	14.1	0.00e+00	0	27	0	519045120	72	4624
2026-01-05 11:01:48.01	218.47	32.08	-53.8	-55.9	14.0	0.00e+00	0	27	0	521142272	73	4680
2026-01-05 11:01:49.01	218.75	32.21	-54.0	-56.2	13.9	0.00e+00	0	27	0	523239424	73	4821
2026-01-05 11:01:50.00	219.02	32.35	-53.9	-56.1	13.9	0.00e+00	0	27	0	524288000	73	4787
2026-01-05 11:01:51.00	219.29	32.49	-53.6	-55.6	14.1	0.00e+00	0	27	0	526385152	73	4524
2026-01-05 11:01:52.00	219.57	32.63	-53.6	-55.7	14.1	0.00e+00	0	27	0	528482304	73	4568
2026-01-05 11:01:52.99	219.85	32.77	-53.7	-55.9	14.0	0.00e+00	0	27	0	530579456	73	4653
2026-01-05 11:01:53.98	220.13	32.90	-53.7	-55.7	14.1	0.00e+00	0	27	0	531628032	73	4597
2026-01-05 11:01:54.97	220.41	33.04	-53.8	-56.0	14.0	0.00e+00	0	27	0	533725184	73	4736
2026-01-05 11:01:55.95	220.69	33.17	-53.8	-55.9	14.0	0.00e+00	0	27	0	535822336	73	4683
2026-01-05 11:01:56.95	220.98	33.31	-54.0	-56.1	13.9	0.00e+00	0	27	0	537919488	73	4804
2026-01-05 11:01:57.94	221.27	33.45	-53.7	-55.7	14.1	0.00e+00	0	27	0	540016640	73	4583
2026-01-05 11:01:58.94	221.57	33.59	-53.8	-55.9	14.1	0.00e+00	0	27	0	541065216	73	4666
2026-01-05 11:01:59.93	221.86	33.72	-54.1	-56.3	13.9	0.00e+00	0	27	0	543162368	73	4872
2026-01-05 11:02:00.92	222.16	33.86	-54.1	-56.3	13.8	0.00e+00	0	27	0	545259520	73	4890
2026-01-05 11:02:01.92	222.46	33.99	-54.6	-57.0	13.6	0.00e+00	0	27	0	547356672	74	5037
2026-01-05 11:02:02.90	222.76	34.13	-54.9	-57.6	13.4	0.00e+00	0	27	0	549453824	75	5045
2026-01-05 11:02:03.90	223.06	34.26	-55.1	-57.9	13.2	0.00e+00	0	27	0	550502400	75	5222
2026-01-05 11:02:04.89	223.37	34.40	-54.5	-56.9	13.7	0.00e+00	0	27	0	552599552	75	4657
2026-01-05 11:02:05.88	223.68	34.53	-54.5	-56.8	13.8	0.00e+00	0	27	0	554696704	75	4651
2026-01-05 11:02:06.88	223.99	34.67	-54.2	-56.5	13.9	0.00e+00	0	27	0	556793856	74	4726
2026-01-05 11:02:07.87	224.31	34.80	-54.0	-56.2	14.0	0.00e+00	0	27	0	557842432	74	4562
2026-01-05 11:02:08.85	224.62	34.93	-54.3	-56.6	13.8	0.00e+00	0	27	0	559939584	74	4769
2026-01-05 11:02:09.84	224.94	35.07	-54.4	-56.8	13.6	0.00e+00	0	27	0	562036736	74	4884
2026-01-05 11:02:10.82	225.26	35.20	-53.9	-56.1	14.1	0.00e+00	0	27	0	564133888	74	4495
2026-01-05 11:02:11.81	225.58	35.33	-54.1	-56.2	14.0	0.00e+00	0	27	0	565182464	74	4580
2026-01-05 11:02:12.80	225.91	35.46	-53.8	-55.9	14.0	0.00e+00	0	27	0	567279616	73	4678
2026-01-05 11:02:13.79	226.24	35.59	-54.1	-56.3	13.8	0.00e+00	0	27	0	569376768	73	4874
2026-01-05 11:02:14.78	226.57	35.72	-54.7	-57.1	13.6	0.00e+00	0	27	0	571473920	74	5064
2026-01-05 11:02:15.77	226.91	35.85	-55.1	-57.8	13.3	0.00e+00	0	27	0	572522496	75	5195
2026-01-05 11:02:16.76	227.24	35.98	-55.9	-59.1	12.7	0.00e+00	0	27	0	574619648	76	5688
2026-01-05 11:02:17.76	227.59	36.11	-55.9	-58.9	12.7	0.00e+00	0	27	0	576716800	77	5262
2026-01-05 11:02:18.75	227.93	36.24	-55.9	-58.9	13.0	0.00e+00	0	27	0	578813952	77	5264
2026-01-05 11:02:19.74	228.27	36.37	-55.8	-58.7	13.0	0.00e+00	0	27	0	580911104	77	5152
2026-01-05 11:02:20.74	228.62	36.50	-55.7	-58.6	12.9	0.00e+00	0	27	0	581959680	77	5083
2026-01-05 11:02:21.73	228.98	36.62	-55.5	-58.3	13.2	0.00e+00	0	27	0	584056832	77	4877
2026-01-05 11:02:22.72	229.33	36.75	-55.3	-57.9	13.4	0.00e+00	0	27	0	586153984	77	4693
2026-01-05 11:02:23.71	229.68	36.87	-55.2	-57.8	13.4	0.00e+00	0	27	0	588251136	76	4885
2026-01-05 11:02:24.70	230.04	37.00	-55.6	-58.5	13.0	0.00e+00	0	27	0	589299712	76	5296
2026-01-05 11:02:25.70	230.41	37.12	-55.7	-58.6	12.9	0.00e+00	0	27	0	591396864	76	5382
2026-01-05 11:02:26.69	230.77	37.24	-56.1	-59.3	12.7	0.00e+00	0	27	0	593494016	77	5480
2026-01-05 11:02:27.68	231.14	37.36	-56.4	-59.7	12.4	0.00e+00	0	27	0	595591168	78	5434
2026-01-05 11:02:28.68	231.51	37.49	-56.3	-59.7	12.5	0.00e+00	0	27	0	597688320	78	5420
2026-01-05 11:02:29.67	231.88	37.61	-55.9	-58.9	12.9	7.00e-07	0	27	0	598736896	78	4961
2026-01-05 11:02:30.66	232.26	37.73	-55.6	-58.4	13.2	0.00e+00	0	27	0	600834048	77	4946
2026-01-05 11:02:31.65	232.63	37.84	-54.9	-57.4	13.6	0.00e+00	0	27	0	602931200	76	4670
2026-01-05 11:02:32.64	233.01	37.96	-54.9	-57.4	13.6	0.00e+00	0	27	0	605028352	76	4658
2026-01-05 11:02:33.63	233.40	38.08	-54.8	-57.2	13.6	0.00e+00	0	27	0	606076928	75	4818
2026-01-05 11:02:34.63	233.79	38.19	-55.0	-57.5	13.5	0.00e+00	0	27	0	608174080	75	5010
2026-01-05 11:02:35.63	234.18	38.31	-55.7	-58.5	13.0	0.00e+00	0	27	0	610271232	76	5331
2026-01-05 11:02:36.62	234.57	38.42	-56.2	-59.5	12.5	0.00e+00	0	27	0	612368384	77	5609
2026-01-05 11:02:37.61	234.96	38.53	-55.7	-58.6	13.0	0.00e+00	0	27	0	614465536	77	5077
2026-01-05 11:02:38.60	235.36	38.64	-55.4	-58.0	13.4	0.00e+00	0	27	0	615514112	77	4741
2026-01-05 11:02:39.59	235.76	38.75	-54.6	-56.9	13.8	0.00e+00	0	27	0	617611264	75	4690
2026-01-05 11:02:40.59	236.16	38.86	-53.9	-56.0	14.1	0.00e+00	0	27	0	619708416	74	4461
2026-01-05 11:02:41.57	236.56	38.97	-53.4	-55.4	14.3	0.00e+00	0	27	0	621805568	73	4411
2026-01-05 11:02:42.56	236.97	39.07	-53.6	-55.6	14.2	0.00e+00	0	27	0	622854144	73	4506
2026-01-05 11:02:43.55	237.38	39.18	-54.6	-56.9	13.7	0.00e+00	0	27	0	624951296	74	4974
2026-01-05 11:02:44.54	237.79	39.28	-55.6	-58.4	13.1	0.00e+00	0	27	0	627048448	76	5255
2026-01-05 11:02:45.53	238.21	39.38	-55.9	-59.0	12.8	0.00e+00	0	27	0	629145600	77	5305
2026-01-05 11:02:46.53	238.63	39.49	-56.0	-59.0	12.8	0.00e+00	0	27	0	630194176	77	5308
2026-01-05 11:02:47.52	239.05	39.58	-55.4	-58.1	13.3	0.00e+00	0	27	0	632291328	77	4772
2026-01-05 11:02:48.51	239.47	39.68	-54.5	-56.8	13.8	0.00e+00	0	27	0	634388480	75	4640
2026-01-05 11:02:49.50	239.89	39.78	-53.7	-55.7	14.1	0.00e+00	0	27	0	636485632	73	4574
2026-01-05 11:02:50.49	240.32	39.87	-53.1	-55.0	14.3	0.00e+00	0	27	0	638582784	72	4452
2026-01-05 11:02:51.49	240.75	39.97	-53.1	-55.0	14.4	0.00e+00	0	27	0	639631360	72	4464
2026-01-05 11:02:52.49	241.19	40.06	-53.6	-55.6	14.1	0.00e+00	0	27	0	641728512	72	4814
2026-01-05 11:02:53.49	241.63	40.15	-54.3	-56.6	13.8	0.00e+00	0	27	0	643825664	73	5045
2026-01-05 11:02:54.49	242.07	40.24	-54.5	-56.9	13.7	0.00e+00	0	27	0	645922816	74	4927
2026-01-05 11:02:55.48	242.51	40.33	-54.4	-56.7	13.8	0.00e+00	0	27	0	646971392	74	4849
2026-01-05 11:02:56.48	242.95	40.41	-54.3	-56.6	13.8	0.00e+00	0	27	0	649068544	74	4780
2026-01-05 11:02:57.47	243.40	40.50	-54.2	-56.4	13.9	0.00e+00	0	27	0	651165696	74	4677
2026-01-05 11:02:58.46	243.84	40.58	-53.7	-55.7	14.1	0.00e+00	0	27	0	653262848	73	4560
2026-01-05 11:02:59.45	244.29	40.66	-53.3	-55.3	14.4	0.00e+00	0	27	0	655360000	73	4349
2026-01-05 11:03:00.45	244.75	40.74	-53.3	-55.3	14.3	0.00e+00	0	27	0	656408576	72	4612
2026-01-05 11:03:01.44	245.20	40.82	-53.9	-56.0	13.9	0.00e+00	0	27	0	658505728	72	5032
2026-01-05 11:03:02.44	245.66	40.89	-55.2	-57.9	13.3	0.00e+00	0	27	0	660602880	75	5225
2026-01-05 11:03:03.43	246.11	40.96	-56.0	-59.2	12.7	0.00e+00	0	27	0	662700032	77	5435
2026-01-05 11:03:04.42	246.57	41.03	-55.7	-58.5	13.1	0.00e+00	0	27	0	663748608	77	5018
2026-01-05 11:03:05.41	247.03	41.10	-54.9	-57.3	13.7	0.00e+00	0	27	0	665845760	76	4614
2026-01-05 11:03:06.40	247.49	41.17	-55.1	-57.7	13.5	0.00e+00	0	27	0	667942912	76	4821
2026-01-05 11:03:07.40	247.96	41.24	-55.1	-57.7	13.5	0.00e+00	0	27	0	670040064	76	4816
2026-01-05 11:03:08.38	248.42	41.30	-55.0	-57.4	13.6	0.00e+00	0	27	0	672137216	76	4691
2026-01-05 11:03:09.37	248.89	41.36	-54.5	-56.7	13.8	0.00e+00	0	27	0	673185792	75	4582
2026-01-05 11:03:10.36	249.36	41.42	-54.7	-57.1	13.7	0.00e+00	0	27	0	675282944	75	4788
2026-01-05 11:03:11.35	249.83	41.48	-55.7	-58.5	13.0	0.00e+00	0	27	0	677380096	76	5321
2026-01-05 11:03:12.34	250.31	41.53	-56.3	-59.6	12.5	0.00e+00	0	27	0	679477248	77	5711
2026-01-05 11:03:13.34	250.79	41.59	-56.0	-59.2	12.8	0.00e+00	0	27	0	680525824	78	5109
2026-01-05 11:03:14.33	251.26	41.64	-55.3	-58.0	13.4	0.00e+00	0	27	0	682622976	77	4726
2026-01-05 11:03:15.33	251.74	41.69	-55.2	-57.7	13.5	0.00e+00	0	27	0	684720128	76	4858
2026-01-05 11:03:16.32	252.22	41.73	-56.1	-59.2	12.7	0.00e+00	0	27	0	686817280	77	5433
2026-01-05 11:03:17.32	252.71	41.78	-56.6	-60.1	12.2	7.00e-07	0	27	0	688914432	78	5678
2026-01-05 11:03:18.30	253.18	41.82	-56.5	-59.9	12.3	7.00e-07	0	27	0	689963008	78	5583
2026-01-05 11:03:19.30	253.67	41.86	-56.2	-59.3	12.7	7.00e-07	0	27	0	692060160	78	5202
2026-01-05 11:03:20.30	254.16	41.90	-56.1	-59.2	12.8	0.00e+00	0	27	0	694157312	78	5122
2026-01-05 11:03:21.30	254.65	41.94	-56.0	-59.0	12.9	0.00e+00	0	27	0	696254464	78	5034
2026-01-05 11:03:22.29	255.14	41.97	-56.2	-59.3	12.7	0.00e+00	0	27	0	697303040	78	5211
2026-01-05 11:03:23.29	255.63	42.00	-56.4	-59.8	12.4	0.00e+00	0	27	0	699400192	78	5465
2026-01-05 11:03:24.29	256.12	42.03	-56.2	-59.3	12.7	0.00e+00	0	27	0	701497344	78	5167
2026-01-05 11:03:25.28	256.61	42.06	-55.6	-58.3	13.2	0.00e+00	0	27	0	703594496	77	4901
2026-01-05 11:03:26.27	257.10	42.08	-55.5	-58.1	13.3	0.00e+00	0	27	0	705691648	76	5083
2026-01-05 11:03:27.26	257.59	42.11	-55.8	-58.7	13.0	0.00e+00	0	27	0	706740224	76	5427
2026-01-05 11:03:28.26	258.08	42.13	-56.2	-59.3	12.7	0.00e+00	0	27	0	708837376	77	5478
2026-01-05 11:03:29.25	258.57	42.15	-56.2	-59.3	12.6	0.00e+00	0	27	0	710934528	77	5484
2026-01-05 11:03:30.25	259.07	42.16	-56.1	-59.2	12.6	0.00e+00	0	27	0	713031680	77	5425
2026-01-05 11:03:31.25	259.57	42.17	-56.5	-59.9	12.4	0.00e+00	0	27	0	714080256	78	5539
2026-01-05 11:03:32.25	260.07	42.19	-56.5	-59.9	12.3	0.00e+00	0	27	0	716177408	78	5581
2026-01-05 11:03:33.24	260.56	42.19	-56.8	-60.4	12.1	7.00e-07	0	27	0	718274560	78	5873
2026-01-05 11:03:34.24	261.06	42.20	-56.0	-59.0	12.9	0.00e+00	0	27	0	720371712	78	5006
2026-01-05 11:03:35.24	261.55	42.20	-55.9	-58.7	13.1	0.00e+00	0	27	0	722468864	78	4859
2026-01-05 11:03:36.23	262.05	42.21	-56.1	-59.1	12.9	0.00e+00	0	27	0	723517440	78	5095
2026-01-05 11:03:37.22	262.54	42.20	-56.2	-59.3	12.7	0.00e+00	0	27	0	725614592	78	5188
2026-01-05 11:03:38.21	263.03	42.20	-56.4	-59.7	12.5	0.00e+00	0	27	0	727711744	78	5448
2026-01-05 11:03:39.21	263.53	42.20	-55.5	-58.1	13.4	0.00e+00	0	27	0	729808896	77	4803
2026-01-05 11:03:40.20	264.03	42.19	-54.8	-57.1	13.8	0.00e+00	0	27	0	730857472	76	4504
2026-01-05 11:03:41.20	264.52	42.18	-54.3	-56.5	14.0	0.00e+00	0	27	0	732954624	75	4471
2026-01-05 11:03:42.19	265.01	42.17	-54.3	-56.4	13.9	0.00e+00	0	27	0	735051776	74	4703
2026-01-05 11:03:43.19	265.51	42.15	-54.7	-57.1	13.6	0.00e+00	0	27	0	737148928	74	5054
2026-01-05 11:03:44.19	266.01	42.13	-55.2	-57.7	13.5	0.00e+00	0	27	0	739246080	76	4862
2026-01-05 11:03:45.20	266.51	42.11	-55.2	-57.6	13.5	0.00e+00	0	27	0	740294656	76	4808
2026-01-05 11:03:46.19	267.00	42.09	-55.2	-57.6	13.6	0.00e+00	0	27	0	742391808	76	4805
2026-01-05 11:03:47.18	267.49	42.07	-55.2	-57.7	13.4	0.00e+00	0	27	0	744488960	76	4854
2026-01-05 11:03:48.19	267.99	42.04	-55.5	-58.2	13.2	0.00e+00	0	27	0	746586112	76	5131
2026-01-05 11:03:49.18	268.47	42.01	-55.7	-58.5	13.1	0.00e+00	0	27	0	747634688	76	5333
2026-01-05 11:03:50.18	268.97	41.98	-55.0	-57.3	13.6	0.00e+00	0	27	0	749731840	76	4651
2026-01-05 11:03:51.17	269.45	41.95	-53.4	-55.3	14.2	0.00e+00	0	27	0	751828992	73	4376
2026-01-05 11:03:52.16	269.94	41.91	-53.5	-55.5	14.2	0.00e+00	0	27	0	753926144	73	4452
2026-01-05 11:03:53.16	270.42	41.88	-55.0	-57.5	13.5	0.00e+00	0	27	0	756023296	75	5007
2026-01-05 11:03:54.16	270.91	41.83	-56.7	-60.3	12.2	0.00e+00	0	27	0	757071872	78	5806
2026-01-05 11:03:55.15	271.39	41.79	-56.7	-60.3	12.1	3.00e-06	0	27	0	759169024	79	5515
2026-01-05 11:03:56.15	271.88	41.75	-56.0	-58.9	13.1	0.00e+00	0	27	0	761266176	78	4944
2026-01-05 11:03:57.16	272.37	41.70	-55.0	-57.4	13.6	0.00e+00	0	27	0	763363328	76	4684
2026-01-05 11:03:58.16	272.85	41.65	-55.5	-58.2	13.2	0.00e+00	0	27	0	765460480	76	5137
2026-01-05 11:03:59.15	273.32	41.60	-55.9	-58.8	13.0	0.00e+00	0	27	0	766509056	77	5180
2026-01-05 11:04:00.14	273.80	41.55	-55.4	-58.0	13.4	0.00e+00	0	27	0	768606208	77	4742
2026-01-05 11:04:01.15	274.28	41.49	-54.8	-57.1	13.8	0.00e+00	0	27	0	770703360	76	4537
2026-01-05 11:04:02.14	274.75	41.44	-54.5	-56.7	13.8	0.00e+00	0	27	0	772800512	75	4593
2026-01-05 11:04:03.13	275.22	41.38	-55.5	-58.2	13.2	0.00e+00	0	27	0	773849088	76	5133
2026-01-05 11:04:04.12	275.69	41.32	-55.8	-58.6	13.1	0.00e+00	0	27	0	775946240	77	5099
2026-01-05 11:04:05.11	276.16	41.25	-55.8	-58.7	13.0	0.00e+00	0	27	0	778043392	77	5139
2026-01-05 11:04:06.10	276.62	41.19	-55.4	-58.0	13.3	0.00e+00	0	27	0	780140544	76	5003
2026-01-05 11:04:07.09	277.08	41.12	-55.3	-57.9	13.5	0.00e+00	0	27	0	782237696	76	4942
2026-01-05 11:04:08.09	277.55	41.05	-55.5	-58.1	13.3	0.00e+00	0	27	0	783286272	76	5090
2026-01-05 11:04:09.07	278.00	40.98	-56.0	-59.1	12.8	0.00e+00	0	27	0	785383424	77	5349
2026-01-05 11:04:10.06	278.46	40.91	-56.1	-59.2	12.8	0.00e+00	0	27	0	787480576	77	5454
2026-01-05 11:04:11.06	278.92	40.84	-55.8	-58.7	13.1	0.00e+00	0	27	0	789577728	77	5101
2026-01-05 11:04:12.06	279.37	40.76	-55.5	-58.1	13.3	0.00e+00	0	27	0	790626304	77	4788
2026-01-05 11:04:13.05	279.82	40.68	-55.3	-57.9	13.5	0.00e+00	0	27	0	792723456	77	4692
2026-01-05 11:04:14.05	280.28	40.60	-55.6	-58.4	13.3	0.00e+00	0	27	0	794820608	77	4928
2026-01-05 11:04:15.05	280.73	40.52	-54.8	-57.2	13.8	0.00e+00	0	27	0	796917760	76	4560
2026-01-05 11:04:16.05	281.17	40.44	-54.5	-56.7	13.9	0.00e+00	0	27	0	799014912	75	4592
2026-01-05 11:04:17.05	281.62	40.35	-54.0	-56.1	14.1	0.00e+00	0	27	0	800063488	74	4500
2026-01-05 11:04:18.04	282.06	40.26	-54.4	-56.6	13.9	0.00e+00	0	27	0	802160640	74	4800
2026-01-05 11:04:19.04	282.50	40.18	-54.3	-56.5	13.9	0.00e+00	0	27	0	804257792	74	4706
2026-01-05 11:04:20.04	282.94	40.09	-53.5	-55.5	14.3	0.00e+00	0	27	0	806354944	73	4462
2026-01-05 11:04:21.03	283.37	39.99	-53.3	-55.2	14.4	0.00e+00	0	27	0	807403520	73	4328
2026-01-05 11:04:22.04	283.81	39.90	-53.7	-55.7	14.2	0.00e+00	0	27	0	809500672	73	4578
2026-01-05 11:04:23.03	284.23	39.81	-53.8	-55.8	14.1	0.00e+00	0	27	0	811597824	73	4636
2026-01-05 11:04:24.02	284.66	39.71	-53.1	-55.0	14.5	0.00e+00	0	27	0	813694976	72	4445
2026-01-05 11:04:25.02	285.08	39.61	-52.1	-54.0	14.6	0.00e+00	0	27	0	815792128	70	4449
2026-01-05 11:04:26.02	285.51	39.51	-51.8	-53.5	14.6	0.00e+00	0	27	0	816840704	69	4486
2026-01-05 11:04:27.01	285.92	39.41	-52.3	-54.1	14.4	0.00e+00	0	27	0	818937856	69	4761
2026-01-05 11:04:28.01	286.34	39.31	-52.8	-54.6	14.3	0.00e+00	0	27	0	821035008	70	4793
2026-01-05 11:04:29.00	286.75	39.21	-52.5	-54.2	14.5	0.00e+00	0	27	0	823132160	70	4565
2026-01-05 11:04:30.00	287.17	39.10	-51.7	-53.3	14.8	0.00e+00	0	27	0	825229312	70	4111
2026-01-05 11:04:30.99	287.57	39.00	-50.8	-52.2	15.0	0.00e+00	0	27	0	826277888	68	4069
2026-01-05 11:04:31.98	287.98	38.89	-50.8	-52.2	15.0	0.00e+00	0	27	0	828375040	68	4094
2026-01-05 11:04:32.97	288.38	38.78	-50.6	-52.0	14.9	0.00e+00	0	27	0	830472192	67	4221
2026-01-05 11:04:33.96	288.78	38.67	-51.0	-52.5	14.7	0.00e+00	0	27	0	832569344	67	4461
2026-01-05 11:04:34.96	289.18	38.56	-50.7	-52.2	14.9	0.00e+00	0	27	0	833617920	67	4298
2026-01-05 11:04:35.96	289.57	38.45	-50.2	-51.6	15.0	0.00e+00	0	27	0	835715072	67	4021
2026-01-05 11:04:36.95	289.96	38.34	-49.9	-51.2	15.1	0.00e+00	0	27	0	837812224	66	4086
2026-01-05 11:04:37.94	290.35	38.22	-50.0	-51.4	15.0	0.00e+00	0	27	0	839909376	66	4166
2026-01-05 11:04:38.95	290.74	38.11	-50.6	-52.0	14.8	0.00e+00	0	27	0	842006528	66	4464
2026-01-05 11:04:39.94	291.13	37.99	-50.8	-52.3	14.8	0.00e+00	0	27	0	843055104	67	4372
2026-01-05 11:04:40.94	291.51	37.87	-50.7	-52.1	14.9	0.00e+00	0	27	0	845152256	67	4272
2026-01-05 11:04:41.94	291.89	37.76	-50.1	-51.5	15.0	0.00e+00	0	27	0	847249408	66	4230
2026-01-05 11:04:42.93	292.27	37.64	-49.3	-50.6	15.1	0.00e+00	0	27	0	849346560	65	4044
2026-01-05 11:04:43.93	292.64	37.52	-49.2	-50.4	15.1	0.00e+00	0	27	0	850395136	64	4185
2026-01-05 11:04:44.92	293.01	37.40	-49.4	-50.7	15.0	0.00e+00	0	27	0	852492288	64	4319
2026-01-05 11:04:45.92	293.38	37.28	-49.6	-50.9	14.9	0.00e+00	0	27	0	854589440	64	4428
2026-01-05 11:04:46.91	293.74	37.15	-50.1	-51.5	14.9	0.00e+00	0	27	0	856686592	65	4451
2026-01-05 11:04:47.91	294.11	37.03	-50.0	-51.4	14.9	0.00e+00	0	27	0	858783744	65	4423
2026-01-05 11:04:48.90	294.47	36.91	-50.1	-51.5	14.9	0.00e+00	0	27	0	859832320	65	4455
2026-01-05 11:04:49.89	294.82	36.78	-50.0	-51.4	14.9	0.00e+00	0	27	0	861929472	65	4414
2026-01-05 11:04:50.89	295.18	36.66	-49.9	-51.3	14.9	0.00e+00	0	27	0	864026624	65	4355
2026-01-05 11:04:51.88	295.53	36.53	-50.0	-51.3	14.9	0.00e+00	0	27	0	866123776	65	4373
2026-01-05 11:04:52.88	295.88	36.40	-50.2	-51.5	14.8	0.00e+00	0	27	0	867172352	65	4482
2026-01-05 11:04:53.86	296.22	36.28	-50.3	-51.8	14.8	0.00e+00	0	27	0	869269504	65	4603
2026-01-05 11:04:54.86	296.57	36.15	-50.3	-51.7	14.9	0.00e+00	0	27	0	871366656	66	4327
2026-01-05 11:04:55.86	296.91	36.02	-50.3	-51.7	14.9	0.00e+00	0	27	0	873463808	66	4338
2026-01-05 11:04:56.85	297.25	35.89	-50.4	-51.8	14.8	0.00e+00	0	27	0	875560960	66	4389
2026-01-05 11:04:57.85	297.58	35.76	-50.6	-52.0	14.8	0.00e+00	0	27	0	876609536	66	4493
2026-01-05 11:04:58.86	297.92	35.63	-50.9	-52.3	14.7	0.00e+00	0	27	0	878706688	66	4646
2026-01-05 11:04:59.86	298.25	35.50	-51.2	-52.8	14.7	0.00e+00	0	27	0	880803840	67	4609
2026-01-05 11:05:00.85	298.58	35.36	-51.7	-53.3	14.6	0.00e+00	0	27	0	882900992	68	4634
2026-01-05 11:05:01.84	298.90	35.23	-52.5	-54.2	14.5	0.00e+00	0	27	0	883949568	70	4587
2026-01-05 11:05:02.84	299.23	35.10	-53.4	-55.3	14.2	0.00e+00	0	27	0	886046720	71	4905
2026-01-05 11:05:03.83	299.55	34.97	-53.5	-55.4	14.2	0.00e+00	0	27	0	888143872	72	4704
2026-01-05 11:05:04.83	299.87	34.83	-53.7	-55.7	14.0	0.00e+00	0	27	0	890241024	72	4826
2026-01-05 11:05:05.81	300.18	34.70	-53.8	-55.9	14.0	0.00e+00	0	27	0	892338176	72	4944
2026-01-05 11:05:06.81	300.49	34.57	-53.5	-55.4	14.2	0.00e+00	0	27	0	893386752	72	4696
2026-01-05 11:05:07.80	300.80	34.43	-53.4	-55.3	14.3	0.00e+00	0	27	0	895483904	72	4601
2026-01-05 11:05:08.80	301.11	34.30	-53.2	-55.1	14.3	0.00e+00	0	27	0	897581056	72	4524
2026-01-05 11:05:09.79	301.41	34.16	-53.8	-55.9	14.0	0.00e+00	0	27	0	899678208	72	4943
2026-01-05 11:05:10.79	301.72	34.03	-53.8	-55.9	14.0	0.00e+00	0	27	0	900726784	73	4652
2026-01-05 11:05:11.78	302.01	33.89	-53.1	-54.9	14.4	0.00e+00	0	27	0	902823936	72	4412
2026-01-05 11:05:12.78	302.31	33.76	-52.9	-54.7	14.5	0.00e+00	0	27	0	904921088	72	4327
2026-01-05 11:05:13.77	302.61	33.62	-52.6	-54.3	14.5	0.00e+00	0	27	0	907018240	71	4372
2026-01-05 11:05:14.76	302.90	33.49	-53.3	-55.2	14.1	0.00e+00	0	27	0	909115392	71	4859
2026-01-05 11:05:15.76	303.19	33.35	-54.3	-56.5	13.8	0.00e+00	0	27	0	910163968	73	5027
2026-01-05 11:05:16.75	303.48	33.21	-55.6	-58.4	13.1	0.00e+00	0	27	0	912261120	76	5249
2026-01-05 11:05:17.74	303.76	33.08	-56.0	-59.0	12.8	0.00e+00	0	27	0	914358272	77	5324
2026-01-05 11:05:18.74	304.05	32.94	-55.7	-58.5	13.1	0.00e+00	0	27	0	916455424	77	5036
2026-01-05 11:05:19.73	304.32	32.80	-54.9	-57.4	13.6	0.00e+00	0	27	0	917504000	76	4703
2026-01-05 11:05:20.73	304.60	32.67	-55.0	-57.4	13.7	0.00e+00	0	27	0	919601152	76	4659
2026-01-05 11:05:21.72	304.88	32.53	-55.3	-57.9	13.5	0.00e+00	0	27	0	921698304	76	4935
2026-01-05 11:05:22.72	305.16	32.39	-55.5	-58.1	13.2	0.00e+00	0	27	0	923795456	76	5099
2026-01-05 11:05:23.71	305.43	32.26	-56.1	-59.2	12.7	0.00e+00	0	27	0	925892608	77	5433
2026-01-05 11:05:24.71	305.70	32.12	-56.3	-59.6	12.6	0.00e+00	0	27	0	926941184	78	5361
2026-01-05 11:05:25.70	305.96	31.98	-56.0	-59.1	12.8	0.00e+00	0	27	0	929038336	78	5052
2026-01-05 11:05:26.69	306.23	31.84	-55.0	-57.4	13.6	0.00e+00	0	27	0	931135488	76	4674
2026-01-05 11:05:27.69	306.49	31.71	-54.2	-56.4	14.1	0.00e+00	0	27	0	933232640	75	4417
2026-01-05 11:05:28.68	306.75	31.57	-53.7	-55.7	14.3	0.00e+00	0	27	0	934281216	74	4324
2026-01-05 11:05:29.68	307.01	31.43	-53.2	-55.0	14.4	0.00e+00	0	27	0	936378368	73	4236
2026-01-05 11:05:30.67	307.26	31.30	-53.5	-55.5	14.2	0.00e+00	0	27	0	938475520	72	4720
2026-01-05 11:05:31.66	307.52	31.16	-54.9	-57.4	13.5	0.00e+00	0	27	0	940572672	75	4951
2026-01-05 11:05:32.65	307.77	31.02	-56.0	-59.2	12.8	0.00e+00	0	27	0	942669824	77	5412
2026-01-05 11:05:33.64	308.02	30.89	-55.7	-58.5	13.1	0.00e+00	0	27	0	943718400	77	5038
2026-01-05 11:05:34.64	308.27	30.75	-55.0	-57.5	13.6	0.00e+00	0	27	0	945815552	76	4726
2026-01-05 11:05:35.63	308.51	30.61	-54.2	-56.3	14.1	0.00e+00	0	27	0	947912704	75	4370
2026-01-05 11:05:36.62	308.75	30.48	-53.8	-55.8	14.2	0.00e+00	0	27	0	950009856	74	4374
2026-01-05 11:05:37.62	309.00	30.34	-54.4	-56.6	13.8	0.00e+00	0	27	0	951058432	74	4788
2026-01-05 11:05:38.60	309.23	30.20	-54.9	-57.3	13.6	0.00e+00	0	27	0	953155584	75	4920
2026-01-05 11:05:39.59	309.47	30.07	-56.2	-59.4	12.5	0.00e+00	0	27	0	955252736	77	5580
2026-01-05 11:05:40.59	309.71	29.93	-56.9	-60.6	11.9	2.20e-06	0	27	0	957349888	79	5721
2026-01-05 11:05:41.58	309.94	29.79	-56.2	-59.4	12.8	0.00e+00	0	27	0	958398464	79	4944
2026-01-05 11:05:42.58	310.17	29.66	-54.8	-57.1	13.8	0.00e+00	0	27	0	960495616	76	4540
2026-01-05 11:05:43.57	310.40	29.52	-53.4	-55.3	14.4	0.00e+00	0	27	0	962592768	73	4351
2026-01-05 11:05:44.56	310.63	29.39	-52.9	-54.6	14.5	0.00e+00	0	27	0	964689920	72	4275
2026-01-05 11:05:45.56	310.86	29.25	-52.8	-54.5	14.4	0.00e+00	0	27	0	966787072	71	4482
2026-01-05 11:05:46.57	311.09	29.11	-52.5	-54.2	14.6	0.00e+00	0	27	0	967835648	71	4319
2026-01-05 11:05:47.55	311.31	28.98	-52.9	-54.6	14.4	0.00e+00	0	27	0	969932800	71	4539
2026-01-05 11:05:48.54	311.53	28.85	-54.0	-56.2	13.9	0.00e+00	0	27	0	972029952	73	4860
2026-01-05 11:05:49.53	311.74	28.71	-54.8	-57.3	13.6	0.00e+00	0	27	0	974127104	75	4872
2026-01-05 11:05:50.52	311.96	28.58	-55.1	-57.8	13.3	0.00e+00	0	27	0	975175680	75	5175
2026-01-05 11:05:51.51	312.17	28.44	-54.8	-57.4	13.5	0.00e+00	0	27	0	977272832	75	4943
2026-01-05 11:05:52.50	312.39	28.31	-53.8	-55.9	14.1	0.00e+00	0	27	0	979369984	74	4436
2026-01-05 11:05:53.50	312.60	28.17	-52.5	-54.3	14.5	0.00e+00	0	27	0	981467136	71	4344
2026-01-05 11:05:54.49	312.81	28.04	-51.7	-53.3	14.7	0.00e+00	0	27	0	983564288	69	4358
2026-01-05 11:05:55.48	313.02	27.91	-51.3	-52.8	14.9	0.00e+00	0	27	0	984612864	69	4137
2026-01-05 11:05:56.48	313.22	27.78	-51.3	-52.8	14.9	0.00e+00	0	27	0	986710016	69	4137
2026-01-05 11:05:57.47	313.43	27.64	-51.8	-53.5	14.7	0.00e+00	0	27	0	988807168	69	4442
2026-01-05 11:05:58.47	313.63	27.51	-52.5	-54.2	14.5	0.00e+00	0	27	0	990904320	70	4591
2026-01-05 11:05:59.46	313.83	27.38	-53.3	-55.2	14.1	0.00e+00	0	27	0	991952896	71	4862
2026-01-05 11:06:00.45	314.03	27.25	-53.2	-55.2	14.2	0.00e+00	0	27	0	994050048	71	4837
2026-01-05 11:06:01.44	314.23	27.11	-52.5	-54.3	14.5	0.00e+00	0	27	0	996147200	71	4345
2026-01-05 11:06:02.44	314.43	26.98	-51.5	-53.1	14.7	0.00e+00	0	27	0	998244352	69	4278
2026-01-05 11:06:03.43	314.62	26.85	-50.8	-52.2	15.0	0.00e+00	0	27	0	1000341504	68	4088
2026-01-05 11:06:04.43	314.82	26.72	-50.3	-51.6	15.0	0.00e+00	0	27	0	1001390080	67	4048
2026-01-05 11:06:05.42	315.01	26.59	-50.3	-51.7	14.9	0.00e+00	0	27	0	1003487232	66	4318
2026-01-05 11:06:06.42	315.20	26.46	-50.4	-51.8	14.9	0.00e+00	0	27	0	1005584384	66	4371
2026-01-05 11:06:07.41	315.39	26.33	-50.9	-52.4	14.7	0.00e+00	0	27	0	1007681536	67	4422
2026-01-05 11:06:08.41	315.58	26.20	-51.9	-53.5	14.5	0.00e+00	0	27	0	1008730112	68	4742
2026-01-05 11:06:09.40	315.77	26.07	-52.2	-53.9	14.5	0.00e+00	0	27	0	1010827264	69	4661
2026-01-05 11:06:10.38	315.95	25.94	-52.4	-54.2	14.4	0.00e+00	0	27	0	1012924416	69	4817
2026-01-05 11:06:11.38	316.13	25.81	-52.1	-53.8	14.6	0.00e+00	0	27	0	1015021568	70	4389
2026-01-05 11:06:12.37	316.31	25.69	-51.7	-53.3	14.7	0.00e+00	0	27	0	1017118720	69	4341
2026-01-05 11:06:13.36	316.49	25.56	-51.2	-52.7	14.9	0.00e+00	0	27	0	1018167296	69	4094
2026-01-05 11:06:14.36	316.67	25.43	-50.9	-52.4	14.9	0.00e+00	0	27	0	1020264448	68	4167
2026-01-05 11:06:15.36	316.85	25.30	-50.8	-52.2	15.0	0.00e+00	0	27	0	1022361600	68	4079
2026-01-05 11:06:16.35	317.03	25.18	-50.5	-51.9	15.0	0.00e+00	0	27	0	1024458752	67	4173
2026-01-05 11:06:17.34	317.20	25.05	-50.4	-51.8	15.0	0.00e+00	0	27	0	1025507328	67	4130
2026-01-05 11:06:18.33	317.37	24.92	-50.5	-51.9	14.9	0.00e+00	0	27	0	1027604480	67	4193
2026-01-05 11:06:19.32	317.55	24.80	-50.9	-52.4	14.8	0.00e+00	0	27	0	1029701632	67	4397
2026-01-05 11:06:20.31	317.72	24.67	-50.7	-52.2	14.9	0.00e+00	0	27	0	1031798784	67	4311
2026-01-05 11:06:21.30	317.89	24.55	-50.8	-52.3	14.8	0.00e+00	0	27	0	1033895936	67	4345
2026-01-05 11:06:22.29	318.05	24.42	-50.6	-52.0	14.9	0.00e+00	0	27	0	1034944512	67	4222
2026-01-05 11:06:23.29	318.22	24.30	-50.5	-51.9	14.9	0.00e+00	0	27	0	1037041664	67	4161
2026-01-05 11:06:24.28	318.39	24.17	-50.6	-52.0	14.9	0.00e+00	0	27	0	1039138816	67	4206
2026-01-05 11:06:25.27	318.55	24.05	-50.6	-52.0	14.9	0.00e+00	0	27	0	1041235968	67	4208
2026-01-05 11:06:26.26	318.71	23.93	-50.6	-52.0	14.9	0.00e+00	0	27	0	1042284544	67	4233
2026-01-05 11:06:27.25	318.87	23.80	-50.7	-52.2	14.8	0.00e+00	0	27	0	1044381696	67	4316
2026-01-05 11:06:28.24	319.03	23.68	-51.0	-52.5	14.7	0.00e+00	0	27	0	1046478848	67	4448
2026-01-05 11:06:29.24	319.19	23.56	-51.2	-52.7	14.7	0.00e+00	0	27	0	1048576000	67	4577
2026-01-05 11:06:30.23	319.35	23.44	-51.3	-52.8	14.6	0.00e+00	0	27	0	1049624576	67	4638
2026-01-05 11:06:31.22	319.51	23.32	-51.5	-53.1	14.7	0.00e+00	0	27	0	1051721728	68	4513
2026-01-05 11:06:32.22	319.66	23.19	-51.7	-53.3	14.6	0.00e+00	0	27	0	1053818880	68	4636
2026-01-05 11:06:33.21	319.82	23.07	-51.5	-53.0	14.7	0.00e+00	0	27	0	1055916032	68	4479
2026-01-05 11:06:34.20	319.97	22.95	-51.4	-53.0	14.7	0.00e+00	0	27	0	1058013184	68	4463
2026-01-05 11:06:35.20	320.13	22.83	-51.4	-52.9	14.7	0.00e+00	0	27	0	1059061760	68	4431
2026-01-05 11:06:36.19	320.28	22.71	-51.4	-52.9	14.7	0.00e+00	0	27	0	1061158912	68	4414
2026-01-05 11:06:37.18	320.43	22.59	-51.5	-53.1	14.6	0.00e+00	0	27	0	1063256064	68	4529
2026-01-05 11:06:38.18	320.58	22.47	-51.3	-52.9	14.7	0.00e+00	0	27	0	1065353216	68	4394
2026-01-05 11:06:39.16	320.72	22.36	-51.4	-52.9	14.7	0.00e+00	0	27	0	1066401792	68	4433
2026-01-05 11:06:40.15	320.87	22.24	-51.4	-53.0	14.7	0.00e+00	0	27	0	1068498944	68	4465
2026-01-05 11:06:41.14	321.01	22.12	-51.4	-53.0	14.7	0.00e+00	0	27	0	1070596096	68	4463
2026-01-05 11:06:42.14	321.16	22.00	-51.5	-53.1	14.6	0.00e+00	0	27	0	1072693248	68	4521
2026-01-05 11:06:43.13	321.30	21.88	-51.1	-52.6	14.8	0.00e+00	0	27	0	1074790400	68	4264
2026-01-05 11:06:44.12	321.44	21.77	-51.2	-52.7	14.8	0.00e+00	0	27	0	1075838976	68	4323
2026-01-05 11:06:45.11	321.58	21.65	-51.2	-52.7	14.8	0.00e+00	0	27	0	1077936128	68	4335
2026-01-05 11:06:46.10	321.72	21.54	-51.3	-52.8	14.7	0.00e+00	0	27	0	1080033280	68	4389
2026-01-05 11:06:47.10	321.87	21.42	-51.7	-53.3	14.5	0.00e+00	0	27	0	1082130432	68	4646
2026-01-05 11:06:48.10	322.00	21.30	-51.8	-53.4	14.6	0.00e+00	0	27	0	1083179008	69	4395
2026-01-05 11:06:49.09	322.14	21.19	-52.1	-53.7	14.5	0.00e+00	0	27	0	1085276160	69	4596
2026-01-05 11:06:50.08	322.28	21.07	-52.5	-54.2	14.4	0.00e+00	0	27	0	1087373312	70	4594
2026-01-05 11:06:51.08	322.41	20.96	-52.6	-54.4	14.3	0.00e+00	0	27	0	1089470464	70	4694
2026-01-05 11:06:52.08	322.55	20.84	-53.0	-54.9	14.2	0.00e+00	0	27	0	1091567616	71	4691
2026-01-05 11:06:53.07	322.68	20.73	-53.2	-55.2	14.1	0.00e+00	0	27	0	1092616192	71	4821
2026-01-05 11:06:54.06	322.81	20.62	-53.1	-55.0	14.2	0.00e+00	0	27	0	1094713344	71	4739
2026-01-05 11:06:55.06	322.95	20.50	-53.4	-55.5	14.0	0.00e+00	0	27	0	1096810496	71	4990
2026-01-05 11:06:56.06	323.08	20.39	-53.1	-55.0	14.2	0.00e+00	0	27	0	1098907648	71	4731
2026-01-05 11:06:57.05	323.21	20.28	-52.9	-54.8	14.3	0.00e+00	0	27	0	1099956224	71	4602
2026-01-05 11:06:58.06	323.34	20.17	-52.7	-54.6	14.4	0.00e+00	0	27	0	1102053376	71	4506
2026-01-05 11:06:59.05	323.47	20.05	-52.5	-54.3	14.5	0.00e+00	0	27	0	1104150528	71	4349
2026-01-05 11:07:00.04	323.59	19.94	-52.3	-54.0	14.6	0.00e+00	0	27	0	1106247680	71	4232
2026-01-05 11:07:01.03	323.72	19.83	-52.3	-54.0	14.6	0.00e+00	0	27	0	1108344832	71	4232
2026-01-05 11:07:02.02	323.84	19.72	-52.2	-53.9	14.5	0.00e+00	0	27	0	1109393408	70	4435
2026-01-05 11:07:03.01	323.97	19.61	-52.3	-54.1	14.5	0.00e+00	0	27	0	1111490560	70	4509
2026-01-05 11:07:04.00	324.09	19.50	-52.5	-54.3	14.4	0.00e+00	0	27	0	1113587712	70	4609
2026-01-05 11:07:04.99	324.21	19.40	-52.7	-54.5	14.3	0.00e+00	0	27	0	1115684864	70	4731
2026-01-05 11:07:05.98	324.34	19.29	-52.7	-54.6	14.2	0.00e+00	0	27	0	1116733440	70	4798
2026-01-05 11:07:06.98	324.46	19.18	-52.7	-54.6	14.2	0.00e+00	0	27	0	1118830592	70	4780
2026-01-05 11:07:07.98	324.58	19.07	-52.7	-54.5	14.3	0.00e+00	0	27	0	1120927744	70	4746
2026-01-05 11:07:08.97	324.70	18.96	-52.8	-54.6	14.2	0.00e+00	0	27	0	1123024896	70	4811
2026-01-05 11:07:09.95	324.82	18.85	-52.6	-54.4	14.3	0.00e+00	0	27	0	1125122048	70	4683
2026-01-05 11:07:10.95	324.93	18.75	-52.6	-54.4	14.3	0.00e+00	0	27	0	1126170624	70	4667
2026-01-05 11:07:11.95	325.05	18.64	-52.6	-54.4	14.3	0.00e+00	0	27	0	1128267776	70	4683
2026-01-05 11:07:12.93	325.17	18.53	-52.5	-54.3	14.4	0.00e+00	0	27	0	1130364928	70	4617
2026-01-05 11:07:13.92	325.28	18.43	-52.1	-53.8	14.5	0.00e+00	0	27	0	1132462080	70	4391
2026-01-05 11:07:14.91	325.40	18.32	-52.0	-53.7	14.5	0.00e+00	0	27	0	1133510656	70	4317
2026-01-05 11:07:15.90	325.51	18.22	-52.0	-53.7	14.6	0.00e+00	0	27	0	1135607808	70	4302
2026-01-05 11:07:16.88	325.62	18.11	-52.0	-53.7	14.6	0.00e+00	0	27	0	1137704960	70	4301
2026-01-05 11:07:17.88	325.74	18.01	-52.1	-53.8	14.5	0.00e+00	0	27	0	1139802112	70	4371
2026-01-05 11:07:18.87	325.85	17.90	-52.1	-53.8	14.6	0.00e+00	0	27	0	1140850688	70	4345
2026-01-05 11:07:19.86	325.96	17.80	-52.3	-54.1	14.5	0.00e+00	0	27	0	1142947840	70	4519
2026-01-05 11:07:20.85	326.07	17.70	-52.3	-54.1	14.4	0.00e+00	0	27	0	1145044992	70	4518
2026-01-05 11:07:21.85	326.18	17.59	-52.3	-54.1	14.4	0.00e+00	0	27	0	1147142144	70	4508
2026-01-05 11:07:22.84	326.29	17.49	-52.5	-54.3	14.3	0.00e+00	0	27	0	1149239296	70	4630
2026-01-05 11:07:23.83	326.39	17.39	-52.4	-54.2	14.4	0.00e+00	0	27	0	1150287872	70	4566
2026-01-05 11:07:24.83	326.50	17.29	-52.5	-54.3	14.4	0.00e+00	0	27	0	1152385024	70	4621
2026-01-05 11:07:25.83	326.61	17.18	-52.6	-54.5	14.3	0.00e+00	0	27	0	1154482176	70	4749
2026-01-05 11:07:26.82	326.72	17.08	-52.4	-54.2	14.4	0.00e+00	0	27	0	1156579328	70	4598
2026-01-05 11:07:27.81	326.82	16.98	-52.5	-54.3	14.3	0.00e+00	0	27	0	1157627904	70	4640
2026-01-05 11:07:28.80	326.93	16.88	-52.3	-54.1	14.4	0.00e+00	0	27	0	1159725056	70	4542
2026-01-05 11:07:29.79	327.03	16.78	-52.1	-53.8	14.5	0.00e+00	0	27	0	1161822208	70	4381
2026-01-05 11:07:30.79	327.13	16.68	-52.1	-53.9	14.5	0.00e+00	0	27	0	1163919360	70	4397
2026-01-05 11:07:31.79	327.24	16.58	-52.1	-53.8	14.5	0.00e+00	0	27	0	1166016512	70	4355
2026-01-05 11:07:32.78	327.34	16.48	-52.0	-53.7	14.6	0.00e+00	0	27	0	1167065088	70	4317
2026-01-05 11:07:33.77	327.44	16.38	-52.2	-54.0	14.5	0.00e+00	0	27	0	1169162240	70	4446
2026-01-05 11:07:34.76	327.54	16.28	-52.0	-53.7	14.6	0.00e+00	0	27	0	1171259392	70	4328
2026-01-05 11:07:35.76	327.64	16.18	-52.1	-53.8	14.5	0.00e+00	0	27	0	1173356544	70	4386
2026-01-05 11:07:36.75	327.74	16.08	-52.1	-53.8	14.5	0.00e+00	0	27	0	1174405120	70	4383
2026-01-05 11:07:37.74	327.84	15.99	-52.2	-53.9	14.5	0.00e+00	0	27	0	1176502272	70	4413
2026-01-05 11:07:38.74	327.94	15.89	-52.4	-54.2	14.3	0.00e+00	0	27	0	1178599424	70	4594
2026-01-05 11:07:39.73	328.04	15.79	-52.6	-54.4	14.3	0.00e+00	0	27	0	1180696576	70	4690
2026-01-05 11:07:40.73	328.13	15.69	-52.7	-54.6	14.2	0.00e+00	0	27	0	1182793728	70	4761
2026-01-05 11:07:41.71	328.23	15.60	-53.0	-55.0	14.1	0.00e+00	0	27	0	1183842304	71	4752
2026-01-05 11:07:42.71	328.33	15.50	-53.1	-55.1	14.1	7.00e-07	0	27	0	1185939456	71	4800
2026-01-05 11:07:43.70	328.42	15.40	-53.3	-55.4	14.0	0.00e+00	0	27	0	1188036608	71	4955
2026-01-05 11:07:44.69	328.51	15.31	-53.4	-55.5	14.0	1.50e-06	0	27	0	1190133760	72	4714
2026-01-05 11:07:45.68	328.61	15.21	-53.3	-55.4	14.1	0.00e+00	0	27	0	1191182336	72	4658
2026-01-05 11:07:46.68	328.70	15.12	-53.5	-55.6	13.9	0.00e+00	0	27	0	1193279488	72	4777
2026-01-05 11:07:47.68	328.80	15.02	-53.3	-55.4	14.0	0.00e+00	0	27	0	1195376640	72	4678
2026-01-05 11:07:48.67	328.89	14.93	-53.3	-55.4	14.0	0.00e+00	0	27	0	1197473792	72	4667
2026-01-05 11:07:49.65	328.98	14.83	-53.4	-55.5	14.0	0.00e+00	0	27	0	1199570944	72	4712
2026-01-05 11:07:50.65	329.07	14.74	-53.3	-55.4	14.0	0.00e+00	0	27	0	1200619520	72	4679
2026-01-05 11:07:51.64	329.16	14.65	-53.2	-55.2	14.1	0.00e+00	0	27	0	1202716672	72	4574
2026-01-05 11:07:52.64	329.25	14.55	-53.2	-55.3	14.0	0.00e+00	0	27	0	1204813824	72	4603
2026-01-05 11:07:53.63	329.34	14.46	-53.0	-54.9	14.2	0.00e+00	0	27	0	1206910976	72	4424
2026-01-05 11:07:54.63	329.43	14.37	-53.1	-55.0	14.2	0.00e+00	0	27	0	1207959552	72	4485
2026-01-05 11:07:55.62	329.52	14.27	-52.8	-54.7	14.4	0.00e+00	0	27	0	1210056704	72	4307
2026-01-05 11:07:56.62	329.61	14.18	-52.9	-54.8	14.3	0.00e+00	0	27	0	1212153856	72	4371
2026-01-05 11:07:57.61	329.70	14.09	-53.1	-55.1	14.2	0.00e+00	0	27	0	1214251008	72	4509
