passes_logs/2026/01/05/R3.2S_Murmansk/R3.2S_Murmansk__20260105_133826_FENGYUN_3D_rec.log

#Pass ID: 20260105_133826_FENGYUN 3D
#Satellite: FENGYUN 3D
#Configuration: FENGYUN 3D
#almurnet v.1.7.20251203
#Start time: 2026-01-05 13:38:28

#Version: 2.2.20231116
#Station: R3.2S_Murmansk
#Location: 33.079688 lon 68.888172 lat
#TLE: 1 43010U 17072A   26004.50247883 -.00000063  00000+0 -78815-5 0  9998
#TLE: 2 43010  98.9915 336.1565 0001968 126.3752 233.7605 14.19691805421760

#Time	Az	El	Level	Level2	SNR	BER	BlckErr	Temp	State	Recorded	gain1	gain2
2026-01-05 13:38:28.49	204.27	2.10	-58.4	-71.3	3.8	8.45e-01	0	25	0	0	83	15410
2026-01-05 13:38:29.48	204.34	2.16	-58.4	-71.3	3.8	8.46e-01	0	25	104	0	81	17453
2026-01-05 13:38:30.47	204.40	2.21	-58.4	-71.3	3.8	8.45e-01	0	25	104	0	81	17436
2026-01-05 13:38:31.46	204.46	2.27	-58.3	-71.2	3.8	8.45e-01	0	25	104	0	81	17243
2026-01-05 13:38:32.45	204.53	2.33	-58.3	-71.2	3.8	8.46e-01	0	25	104	0	81	17128
2026-01-05 13:38:33.44	204.59	2.38	-58.3	-71.2	3.8	8.45e-01	0	25	104	0	81	17133
2026-01-05 13:38:34.44	204.65	2.44	-58.3	-71.1	3.8	8.46e-01	0	25	104	0	81	17051
2026-01-05 13:38:35.44	204.72	2.50	-58.3	-71.1	3.8	8.46e-01	0	25	104	0	81	16941
2026-01-05 13:38:36.43	204.78	2.56	-58.3	-71.1	3.8	8.45e-01	0	25	104	0	81	16959
2026-01-05 13:38:37.42	204.85	2.62	-58.4	-71.2	3.8	8.46e-01	0	25	104	0	81	17157
2026-01-05 13:38:38.41	204.91	2.67	-58.4	-71.2	3.8	8.45e-01	0	25	104	0	81	17266
2026-01-05 13:38:39.40	204.98	2.73	-58.4	-71.3	3.8	8.45e-01	0	25	104	0	81	17391
2026-01-05 13:38:40.40	205.04	2.79	-58.4	-71.3	3.8	8.45e-01	0	25	104	0	81	17444
2026-01-05 13:38:41.39	205.11	2.85	-58.4	-71.4	3.8	8.45e-01	0	25	104	0	81	17538
2026-01-05 13:38:42.39	205.17	2.91	-58.4	-71.4	3.8	8.46e-01	0	25	104	0	81	17594
2026-01-05 13:38:43.38	205.24	2.96	-58.4	-71.3	3.8	8.45e-01	0	25	104	0	81	17440
2026-01-05 13:38:44.38	205.31	3.02	-58.4	-71.3	3.8	8.46e-01	0	25	104	0	81	17329
2026-01-05 13:38:45.37	205.37	3.08	-58.4	-71.2	3.8	8.47e-01	0	26	104	0	81	17127
2026-01-05 13:38:46.36	205.44	3.14	-58.3	-71.0	3.8	8.47e-01	0	25	104	0	81	16750
2026-01-05 13:38:47.35	205.51	3.20	-58.3	-70.8	3.8	8.46e-01	0	26	104	0	81	16426
2026-01-05 13:38:48.34	205.57	3.26	-58.3	-70.7	3.8	8.45e-01	0	26	104	0	81	16312
2026-01-05 13:38:49.34	205.64	3.31	-58.3	-70.7	3.8	8.45e-01	0	25	104	0	81	16207
2026-01-05 13:38:50.33	205.71	3.37	-58.3	-70.6	3.8	8.45e-01	0	26	104	0	81	16103
2026-01-05 13:38:51.31	205.78	3.43	-58.3	-70.8	3.8	8.46e-01	0	26	104	0	81	16481
2026-01-05 13:38:52.30	205.84	3.49	-58.3	-70.8	3.8	8.46e-01	0	26	104	0	81	16444
2026-01-05 13:38:53.30	205.91	3.55	-58.3	-70.7	3.8	8.45e-01	0	26	104	0	81	16289
2026-01-05 13:38:54.28	205.98	3.61	-58.3	-70.7	3.8	8.45e-01	0	26	104	0	81	16186
2026-01-05 13:38:55.28	206.05	3.67	-58.3	-70.5	3.8	8.46e-01	0	26	104	0	81	15776
2026-01-05 13:38:56.27	206.12	3.73	-58.3	-70.2	3.8	8.45e-01	0	26	104	0	81	15380
2026-01-05 13:38:57.26	206.19	3.79	-58.3	-70.2	3.8	8.46e-01	0	26	104	0	81	15380
2026-01-05 13:38:58.26	206.26	3.85	-58.3	-70.1	3.8	8.45e-01	0	26	104	0	81	15206
2026-01-05 13:38:59.25	206.33	3.91	-58.3	-70.5	3.8	8.44e-01	0	26	104	0	81	15783
2026-01-05 13:39:00.24	206.40	3.97	-58.3	-70.9	3.8	8.47e-01	0	26	104	0	81	16613
2026-01-05 13:39:01.23	206.47	4.03	-58.4	-71.2	3.8	8.45e-01	0	26	104	0	81	17113
2026-01-05 13:39:02.22	206.54	4.09	-58.4	-71.3	3.8	8.45e-01	0	26	104	0	81	17286
2026-01-05 13:39:03.21	206.61	4.15	-58.3	-70.8	3.8	8.45e-01	0	26	104	0	81	16493
2026-01-05 13:39:04.20	206.68	4.21	-58.3	-69.9	3.8	8.45e-01	0	26	104	0	81	14867
2026-01-05 13:39:05.19	206.76	4.27	-58.2	-68.9	3.9	8.43e-01	0	26	104	0	81	13187
2026-01-05 13:39:06.19	206.83	4.33	-58.1	-67.9	4.2	8.38e-01	0	26	0	0	81	11769
2026-01-05 13:39:07.18	206.90	4.39	-58.0	-67.6	4.3	8.36e-01	0	26	0	0	81	11341
2026-01-05 13:39:08.18	206.97	4.45	-58.0	-67.3	4.3	8.31e-01	0	26	0	0	81	10921
2026-01-05 13:39:09.17	207.05	4.51	-58.0	-67.5	4.3	8.33e-01	0	26	0	0	81	11255
2026-01-05 13:39:10.16	207.12	4.57	-58.1	-68.3	4.1	8.38e-01	0	26	0	0	81	12331
2026-01-05 13:39:11.15	207.19	4.63	-58.2	-69.0	3.8	8.42e-01	0	26	104	0	81	13334
2026-01-05 13:39:12.15	207.27	4.69	-58.2	-69.2	3.8	8.44e-01	0	26	104	0	81	13590
2026-01-05 13:39:13.14	207.34	4.75	-58.1	-68.4	4.1	8.43e-01	0	26	104	0	81	12490
2026-01-05 13:39:14.13	207.42	4.81	-58.0	-67.3	4.3	8.34e-01	0	26	0	0	81	10939
2026-01-05 13:39:15.11	207.49	4.87	-57.8	-65.9	4.8	8.06e-01	0	26	0	0	81	9360
2026-01-05 13:39:16.10	207.56	4.94	-57.6	-64.7	5.5	6.60e-01	0	26	0	0	81	8162
2026-01-05 13:39:17.09	207.64	5.00	-57.3	-63.9	6.1	3.50e-01	0	26	0	5242880	81	7394
2026-01-05 13:39:18.08	207.71	5.06	-57.3	-63.5	6.3	2.41e-01	0	26	0	10485760	81	7083
2026-01-05 13:39:19.07	207.79	5.12	-57.4	-63.9	6.1	2.95e-01	0	26	0	16777216	81	7376
2026-01-05 13:39:20.06	207.87	5.18	-58.1	-68.5	3.9	8.45e-01	0	26	104	16777216	81	12568
2026-01-05 13:39:21.06	207.94	5.24	-51.0	-52.7	13.8	0.00e+00	0	26	0	17825792	68	4295
2026-01-05 13:39:22.06	208.02	5.31	-54.3	-57.0	11.4	1.10e-06	0	26	0	23068672	73	5316
2026-01-05 13:39:23.06	208.10	5.37	-52.1	-54.0	13.1	0.00e+00	0	26	0	29360128	69	4749
2026-01-05 13:39:24.06	208.18	5.43	-50.8	-52.4	14.0	0.00e+00	0	26	0	34603008	68	4165
2026-01-05 13:39:25.05	208.25	5.49	-50.9	-52.5	13.9	0.00e+00	0	26	0	40894464	68	4206
2026-01-05 13:39:26.05	208.33	5.56	-50.2	-51.7	14.2	0.00e+00	0	26	0	46137344	67	4063
2026-01-05 13:39:27.04	208.41	5.62	-49.7	-51.1	14.4	0.00e+00	0	26	0	51380224	66	4033
2026-01-05 13:39:28.04	208.49	5.68	-49.6	-51.0	14.3	0.00e+00	0	26	0	56623104	65	4228
2026-01-05 13:39:29.02	208.57	5.75	-49.5	-50.9	14.3	0.00e+00	0	26	0	62914560	65	4186
2026-01-05 13:39:30.02	208.65	5.81	-49.6	-51.0	14.3	0.00e+00	0	26	0	68157440	65	4239
2026-01-05 13:39:31.01	208.73	5.87	-49.5	-51.0	14.3	0.00e+00	0	26	0	73400320	65	4198
2026-01-05 13:39:32.02	208.81	5.94	-49.4	-50.8	14.4	0.00e+00	0	26	0	79691776	65	4120
2026-01-05 13:39:33.01	208.89	6.00	-49.7	-51.1	14.3	0.00e+00	0	26	0	84934656	65	4264
2026-01-05 13:39:34.01	208.97	6.06	-49.8	-51.2	14.2	0.00e+00	0	26	0	91226112	65	4324
2026-01-05 13:39:35.00	209.05	6.13	-49.7	-51.1	14.3	0.00e+00	0	26	0	96468992	65	4272
2026-01-05 13:39:35.99	209.13	6.19	-49.6	-51.0	14.3	0.00e+00	0	27	0	101711872	65	4232
2026-01-05 13:39:36.99	209.21	6.25	-49.5	-50.9	14.4	0.00e+00	0	26	0	106954752	65	4156
2026-01-05 13:39:37.99	209.30	6.32	-49.6	-51.0	14.3	0.00e+00	0	26	0	113246208	65	4223
2026-01-05 13:39:38.98	209.38	6.38	-49.6	-50.9	14.3	0.00e+00	0	26	0	118489088	65	4192
2026-01-05 13:39:39.97	209.46	6.45	-49.6	-51.0	14.3	0.00e+00	0	26	0	123731968	65	4224
2026-01-05 13:39:40.98	209.55	6.51	-49.4	-50.8	14.4	0.00e+00	0	26	0	130023424	65	4134
2026-01-05 13:39:41.98	209.63	6.58	-49.5	-50.9	14.4	0.00e+00	0	26	0	135266304	65	4146
2026-01-05 13:39:42.98	209.71	6.64	-49.4	-50.8	14.4	0.00e+00	0	26	0	141557760	65	4126
2026-01-05 13:39:43.98	209.80	6.71	-49.3	-50.7	14.5	0.00e+00	0	26	0	146800640	65	4078
2026-01-05 13:39:44.97	209.88	6.77	-49.2	-50.6	14.6	0.00e+00	0	26	0	152043520	65	4005
2026-01-05 13:39:45.97	209.97	6.83	-49.1	-50.4	14.5	0.00e+00	0	27	0	158334976	64	4176
2026-01-05 13:39:46.98	210.05	6.90	-49.0	-50.3	14.6	0.00e+00	0	26	0	163577856	64	4120
2026-01-05 13:39:47.98	210.14	6.97	-48.9	-50.2	14.6	0.00e+00	0	26	0	168820736	64	4086
2026-01-05 13:39:48.97	210.23	7.03	-49.0	-50.3	14.6	0.00e+00	0	26	0	175112192	64	4127
2026-01-05 13:39:49.97	210.31	7.10	-48.9	-50.2	14.6	0.00e+00	0	26	0	180355072	64	4067
2026-01-05 13:39:50.97	210.40	7.16	-48.9	-50.2	14.6	0.00e+00	0	27	0	185597952	64	4081
2026-01-05 13:39:51.96	210.49	7.23	-48.8	-50.0	14.7	0.00e+00	0	27	0	191889408	64	3999
2026-01-05 13:39:52.96	210.58	7.29	-48.8	-50.0	14.7	0.00e+00	0	26	0	197132288	64	3999
2026-01-05 13:39:53.97	210.66	7.36	-48.7	-50.0	14.7	0.00e+00	0	27	0	203423744	64	3978
2026-01-05 13:39:54.96	210.75	7.43	-48.8	-50.0	14.7	0.00e+00	0	27	0	208666624	64	3999
2026-01-05 13:39:55.95	210.84	7.49	-48.9	-50.1	14.6	0.00e+00	0	26	0	213909504	64	4051
2026-01-05 13:39:56.95	210.93	7.56	-48.7	-50.0	14.7	0.00e+00	0	26	0	220200960	64	3969
2026-01-05 13:39:57.94	211.02	7.62	-48.8	-50.1	14.7	0.00e+00	0	27	0	225443840	64	4047
2026-01-05 13:39:58.94	211.11	7.69	-48.8	-50.1	14.7	0.00e+00	0	27	0	230686720	64	4010
2026-01-05 13:39:59.93	211.20	7.76	-48.8	-50.1	14.7	0.00e+00	0	27	0	235929600	64	4006
2026-01-05 13:40:00.93	211.29	7.82	-48.8	-50.1	14.6	0.00e+00	0	26	0	242221056	64	4044
2026-01-05 13:40:01.92	211.38	7.89	-48.8	-50.1	14.7	0.00e+00	0	26	0	247463936	64	4044
2026-01-05 13:40:02.91	211.47	7.96	-48.9	-50.2	14.6	0.00e+00	0	27	0	253755392	64	4058
2026-01-05 13:40:03.90	211.56	8.02	-48.8	-50.1	14.7	0.00e+00	0	27	0	258998272	64	4006
2026-01-05 13:40:04.90	211.66	8.09	-48.9	-50.1	14.7	0.00e+00	0	27	0	264241152	64	4049
2026-01-05 13:40:05.89	211.75	8.16	-48.8	-50.1	14.7	0.00e+00	0	27	0	269484032	64	4035
2026-01-05 13:40:06.88	211.84	8.22	-48.8	-50.1	14.7	0.00e+00	0	27	0	275775488	64	4041
2026-01-05 13:40:07.87	211.93	8.29	-48.8	-50.1	14.7	0.00e+00	0	27	0	281018368	64	4016
2026-01-05 13:40:08.87	212.03	8.36	-48.8	-50.1	14.7	0.00e+00	0	26	0	286261248	64	4020
2026-01-05 13:40:09.85	212.12	8.42	-48.8	-50.1	14.7	0.00e+00	0	27	0	292552704	64	4039
2026-01-05 13:40:10.84	212.22	8.49	-49.0	-50.3	14.6	0.00e+00	0	27	0	297795584	64	4103
2026-01-05 13:40:11.83	212.31	8.56	-48.8	-50.1	14.7	0.00e+00	0	27	0	303038464	64	4035
2026-01-05 13:40:12.82	212.41	8.63	-48.8	-50.1	14.7	0.00e+00	0	26	0	309329920	64	4005
2026-01-05 13:40:13.80	212.50	8.69	-48.9	-50.1	14.7	0.00e+00	0	27	0	314572800	64	4050
2026-01-05 13:40:14.79	212.60	8.76	-48.9	-50.2	14.7	0.00e+00	0	27	0	319815680	64	4059
2026-01-05 13:40:15.77	212.69	8.83	-48.7	-50.0	14.7	0.00e+00	0	27	0	325058560	64	3987
2026-01-05 13:40:16.76	212.79	8.90	-48.8	-50.1	14.7	0.00e+00	0	26	0	331350016	64	4014
2026-01-05 13:40:17.76	212.89	8.97	-48.7	-49.9	14.8	0.00e+00	0	27	0	336592896	64	3956
2026-01-05 13:40:18.75	212.98	9.03	-48.6	-49.8	14.7	0.00e+00	0	27	0	342884352	63	4133
2026-01-05 13:40:19.74	213.08	9.10	-48.5	-49.8	14.7	0.00e+00	0	27	0	348127232	63	4123
2026-01-05 13:40:20.72	213.18	9.17	-48.6	-49.8	14.7	0.00e+00	0	27	0	353370112	63	4143
2026-01-05 13:40:21.72	213.28	9.24	-48.6	-49.8	14.7	0.00e+00	0	26	0	358612992	63	4122
2026-01-05 13:40:22.71	213.38	9.31	-48.6	-49.8	14.7	0.00e+00	0	26	0	364904448	63	4128
2026-01-05 13:40:23.71	213.48	9.38	-48.5	-49.7	14.7	0.00e+00	0	27	0	370147328	63	4098
2026-01-05 13:40:24.71	213.58	9.45	-48.6	-49.9	14.7	0.00e+00	0	27	0	376438784	63	4151
2026-01-05 13:40:25.71	213.68	9.52	-48.5	-49.7	14.7	0.00e+00	0	27	0	381681664	63	4093
2026-01-05 13:40:26.70	213.78	9.59	-48.5	-49.8	14.7	0.00e+00	0	27	0	386924544	63	4111
2026-01-05 13:40:27.70	213.89	9.66	-48.5	-49.7	14.8	0.00e+00	0	27	0	393216000	63	4075
2026-01-05 13:40:28.69	213.99	9.73	-48.4	-49.6	14.8	0.00e+00	0	27	0	398458880	63	4050
2026-01-05 13:40:29.69	214.09	9.80	-48.4	-49.7	14.8	0.00e+00	0	27	0	403701760	63	4054
2026-01-05 13:40:30.70	214.20	9.87	-48.4	-49.6	14.8	0.00e+00	0	27	0	409993216	63	4045
2026-01-05 13:40:31.70	214.30	9.94	-48.4	-49.6	14.8	0.00e+00	0	27	0	415236096	63	4042
2026-01-05 13:40:32.70	214.41	10.01	-48.4	-49.7	14.8	0.00e+00	0	27	0	420478976	63	4052
2026-01-05 13:40:33.69	214.51	10.08	-48.4	-49.6	14.8	0.00e+00	0	27	0	426770432	63	4033
2026-01-05 13:40:34.69	214.62	10.15	-48.4	-49.7	14.8	0.00e+00	0	27	0	432013312	63	4061
2026-01-05 13:40:35.68	214.72	10.22	-48.2	-49.4	14.9	0.00e+00	0	27	0	437256192	63	3934
2026-01-05 13:40:36.66	214.83	10.29	-48.1	-49.3	14.8	0.00e+00	0	27	0	443547648	62	4132
2026-01-05 13:40:37.65	214.94	10.36	-48.2	-49.4	14.8	0.00e+00	0	27	0	448790528	62	4159
2026-01-05 13:40:38.65	215.04	10.43	-48.1	-49.3	14.8	0.00e+00	0	27	0	454033408	62	4129
2026-01-05 13:40:39.64	215.15	10.50	-48.1	-49.3	14.8	0.00e+00	0	27	0	459276288	62	4141
2026-01-05 13:40:40.62	215.26	10.57	-48.1	-49.4	14.8	0.00e+00	0	27	0	465567744	62	4156
2026-01-05 13:40:41.61	215.37	10.64	-48.1	-49.3	14.8	0.00e+00	0	27	0	470810624	62	4120
2026-01-05 13:40:42.59	215.47	10.71	-48.0	-49.2	14.8	0.00e+00	0	27	0	476053504	62	4071
2026-01-05 13:40:43.57	215.58	10.78	-48.1	-49.3	14.8	0.00e+00	0	27	0	482344960	62	4103
2026-01-05 13:40:44.57	215.69	10.86	-48.0	-49.2	14.9	0.00e+00	0	27	0	487587840	62	4069
2026-01-05 13:40:45.55	215.80	10.93	-48.0	-49.2	14.8	0.00e+00	0	27	0	492830720	62	4081
2026-01-05 13:40:46.54	215.91	11.00	-48.1	-49.3	14.8	0.00e+00	0	27	0	499122176	62	4102
2026-01-05 13:40:47.54	216.03	11.07	-47.9	-49.1	14.9	0.00e+00	0	27	0	504365056	62	4038
2026-01-05 13:40:48.53	216.14	11.14	-47.9	-49.1	14.9	0.00e+00	0	27	0	509607936	62	4028
2026-01-05 13:40:49.52	216.25	11.22	-48.0	-49.1	14.9	0.00e+00	0	27	0	515899392	62	4051
2026-01-05 13:40:50.51	216.37	11.29	-47.9	-49.1	14.9	0.00e+00	0	27	0	521142272	62	4020
2026-01-05 13:40:51.52	216.48	11.36	-47.9	-49.0	14.9	0.00e+00	0	27	0	526385152	62	4002
2026-01-05 13:40:52.52	216.60	11.43	-47.9	-49.1	14.9	0.00e+00	0	27	0	532676608	62	4008
2026-01-05 13:40:53.52	216.71	11.51	-47.9	-49.1	14.9	0.00e+00	0	27	0	537919488	62	4020
2026-01-05 13:40:54.52	216.83	11.58	-47.9	-49.1	14.9	0.00e+00	0	27	0	543162368	62	4027
2026-01-05 13:40:55.52	216.95	11.65	-47.9	-49.1	14.9	0.00e+00	0	27	0	549453824	62	4027
2026-01-05 13:40:56.51	217.06	11.73	-48.0	-49.2	14.9	0.00e+00	0	27	0	554696704	62	4064
2026-01-05 13:40:57.51	217.18	11.80	-48.1	-49.3	14.8	0.00e+00	0	27	0	559939584	62	4130
2026-01-05 13:40:58.51	217.30	11.87	-48.1	-49.3	14.8	0.00e+00	0	27	0	566231040	62	4140
2026-01-05 13:40:59.50	217.42	11.95	-48.0	-49.2	14.9	0.00e+00	0	27	0	571473920	62	4072
2026-01-05 13:41:00.50	217.54	12.02	-48.1	-49.3	14.8	0.00e+00	0	27	0	577765376	62	4124
2026-01-05 13:41:01.50	217.66	12.09	-47.9	-49.1	14.9	0.00e+00	0	27	0	583008256	62	4033
2026-01-05 13:41:02.50	217.78	12.17	-47.9	-49.1	14.9	0.00e+00	0	27	0	588251136	62	4047
2026-01-05 13:41:03.49	217.90	12.24	-47.9	-49.1	14.9	0.00e+00	0	27	0	593494016	62	4006
2026-01-05 13:41:04.48	218.02	12.32	-47.7	-48.9	15.0	0.00e+00	0	27	0	599785472	62	3925
2026-01-05 13:41:05.48	218.14	12.39	-47.8	-49.0	14.9	0.00e+00	0	27	0	605028352	62	3970
2026-01-05 13:41:06.48	218.27	12.46	-47.9	-49.1	14.9	0.00e+00	0	27	0	610271232	62	4008
2026-01-05 13:41:07.46	218.39	12.54	-47.9	-49.0	14.9	0.00e+00	0	27	0	616562688	62	3994
2026-01-05 13:41:08.45	218.51	12.61	-47.9	-49.1	14.9	0.00e+00	0	27	0	621805568	62	4008
2026-01-05 13:41:09.44	218.64	12.69	-47.8	-49.0	14.9	0.00e+00	0	27	0	628097024	62	3983
2026-01-05 13:41:10.43	218.76	12.76	-47.9	-49.1	14.9	0.00e+00	0	27	0	633339904	62	4023
2026-01-05 13:41:11.42	218.89	12.83	-47.9	-49.1	14.9	0.00e+00	0	27	0	638582784	62	4043
2026-01-05 13:41:12.41	219.01	12.91	-47.8	-49.0	14.9	0.00e+00	0	27	0	643825664	62	3988
2026-01-05 13:41:13.39	219.14	12.98	-47.8	-49.0	14.9	0.00e+00	0	27	0	649068544	62	3984
2026-01-05 13:41:14.38	219.26	13.06	-47.6	-48.7	14.9	0.00e+00	0	27	0	655360000	61	4090
2026-01-05 13:41:15.38	219.39	13.13	-47.5	-48.6	15.0	0.00e+00	0	27	0	660602880	61	4035
2026-01-05 13:41:16.37	219.52	13.21	-47.5	-48.6	14.9	0.00e+00	0	27	0	666894336	61	4031
2026-01-05 13:41:17.36	219.65	13.28	-47.4	-48.6	15.0	0.00e+00	0	27	0	672137216	61	4006
2026-01-05 13:41:18.35	219.78	13.36	-47.2	-48.4	15.0	0.00e+00	0	27	0	677380096	61	3924
2026-01-05 13:41:19.34	219.91	13.43	-47.1	-48.3	14.9	0.00e+00	0	27	0	683671552	60	4099
2026-01-05 13:41:20.34	220.04	13.51	-47.2	-48.4	14.9	0.00e+00	0	27	0	688914432	60	4150
2026-01-05 13:41:21.32	220.17	13.58	-47.3	-48.4	14.9	0.00e+00	0	27	0	694157312	60	4184
2026-01-05 13:41:22.31	220.30	13.66	-47.3	-48.5	14.9	0.00e+00	0	27	0	700448768	60	4208
2026-01-05 13:41:23.30	220.44	13.74	-47.4	-48.6	14.8	0.00e+00	0	27	0	705691648	60	4276
2026-01-05 13:41:24.30	220.57	13.81	-47.4	-48.6	14.8	0.00e+00	0	27	0	710934528	60	4254
2026-01-05 13:41:25.29	220.71	13.89	-47.4	-48.6	14.8	0.00e+00	0	27	0	716177408	60	4247
2026-01-05 13:41:26.28	220.84	13.96	-47.3	-48.5	14.9	0.00e+00	0	27	0	722468864	60	4217
2026-01-05 13:41:27.28	220.98	14.04	-47.3	-48.4	14.9	0.00e+00	0	27	0	727711744	60	4173
2026-01-05 13:41:28.27	221.11	14.12	-47.3	-48.5	14.9	0.00e+00	0	27	0	732954624	60	4201
2026-01-05 13:41:29.26	221.25	14.19	-47.3	-48.4	14.9	0.00e+00	0	27	0	739246080	60	4181
2026-01-05 13:41:30.26	221.39	14.27	-47.2	-48.4	14.9	0.00e+00	0	27	0	744488960	60	4149
2026-01-05 13:41:31.25	221.53	14.35	-47.2	-48.4	14.9	0.00e+00	0	27	0	750780416	60	4154
2026-01-05 13:41:32.24	221.67	14.42	-47.3	-48.4	14.9	0.00e+00	0	27	0	756023296	60	4173
2026-01-05 13:41:33.23	221.81	14.50	-47.3	-48.5	14.9	0.00e+00	0	27	0	761266176	60	4203
2026-01-05 13:41:34.23	221.95	14.58	-47.3	-48.5	14.9	0.00e+00	0	27	0	766509056	60	4202
2026-01-05 13:41:35.21	222.09	14.65	-47.2	-48.3	14.9	0.00e+00	0	27	0	772800512	60	4127
2026-01-05 13:41:36.20	222.23	14.73	-47.2	-48.4	14.9	0.00e+00	0	27	0	778043392	60	4153
2026-01-05 13:41:37.20	222.37	14.81	-47.2	-48.3	14.9	0.00e+00	0	27	0	783286272	60	4135
2026-01-05 13:41:38.19	222.52	14.88	-47.1	-48.3	15.0	0.00e+00	0	27	0	789577728	60	4101
2026-01-05 13:41:39.19	222.66	14.96	-46.8	-48.0	15.1	0.00e+00	0	27	0	794820608	60	3963
2026-01-05 13:41:40.19	222.81	15.04	-46.8	-47.9	15.1	0.00e+00	0	27	0	800063488	60	3955
2026-01-05 13:41:41.19	222.95	15.12	-46.8	-47.9	15.1	0.00e+00	0	27	0	806354944	60	3935
2026-01-05 13:41:42.18	223.10	15.19	-46.7	-47.8	15.1	0.00e+00	0	27	0	811597824	60	3908
2026-01-05 13:41:43.17	223.25	15.27	-46.9	-48.0	15.1	0.00e+00	0	27	0	816840704	60	3971
2026-01-05 13:41:44.15	223.39	15.35	-46.9	-48.0	15.1	0.00e+00	0	27	0	823132160	60	3991
2026-01-05 13:41:45.14	223.54	15.42	-47.0	-48.1	15.0	0.00e+00	0	27	0	828375040	60	4017
2026-01-05 13:41:46.13	223.69	15.50	-46.9	-48.0	15.1	0.00e+00	0	27	0	833617920	60	3981
2026-01-05 13:41:47.12	223.84	15.58	-46.9	-48.0	15.1	0.00e+00	0	27	0	839909376	60	3989
2026-01-05 13:41:48.12	223.99	15.66	-46.9	-48.0	15.1	0.00e+00	0	27	0	845152256	60	3965
2026-01-05 13:41:49.11	224.14	15.74	-46.9	-48.0	15.0	0.00e+00	0	27	0	850395136	60	3988
2026-01-05 13:41:50.10	224.29	15.81	-46.7	-47.8	15.1	0.00e+00	0	27	0	856686592	60	3890
2026-01-05 13:41:51.09	224.45	15.89	-47.0	-48.1	14.9	0.00e+00	0	27	0	861929472	59	4290
2026-01-05 13:41:52.08	224.60	15.97	-46.9	-48.1	14.9	0.00e+00	0	27	0	867172352	59	4246
2026-01-05 13:41:53.06	224.75	16.05	-47.0	-48.1	14.9	0.00e+00	0	27	0	872415232	59	4288
2026-01-05 13:41:54.05	224.91	16.12	-47.1	-48.2	14.9	0.00e+00	0	27	0	878706688	59	4331
2026-01-05 13:41:55.03	225.06	16.20	-47.0	-48.2	14.9	0.00e+00	0	27	0	883949568	59	4299
2026-01-05 13:41:56.03	225.22	16.28	-47.1	-48.2	14.9	0.00e+00	0	27	0	889192448	59	4310
2026-01-05 13:41:57.01	225.38	16.36	-47.1	-48.2	14.9	0.00e+00	0	27	0	895483904	59	4313
2026-01-05 13:41:58.00	225.53	16.44	-47.1	-48.2	14.9	0.00e+00	0	27	0	900726784	59	4336
2026-01-05 13:41:58.98	225.69	16.51	-47.0	-48.2	14.9	0.00e+00	0	27	0	905969664	59	4298
2026-01-05 13:41:59.98	225.85	16.59	-47.0	-48.1	14.9	0.00e+00	0	27	0	911212544	59	4270
2026-01-05 13:42:00.97	226.01	16.67	-46.9	-48.1	14.9	0.00e+00	0	27	0	917504000	59	4255
2026-01-05 13:42:01.96	226.17	16.75	-47.0	-48.1	14.9	0.00e+00	0	27	0	922746880	59	4284
2026-01-05 13:42:02.95	226.34	16.83	-46.9	-48.1	14.9	0.00e+00	0	27	0	929038336	59	4255
2026-01-05 13:42:03.95	226.50	16.91	-47.0	-48.1	14.9	0.00e+00	0	27	0	934281216	59	4290
2026-01-05 13:42:04.94	226.67	16.99	-47.0	-48.1	14.9	0.00e+00	0	27	0	939524096	59	4274
2026-01-05 13:42:05.93	226.83	17.06	-47.0	-48.1	14.9	0.00e+00	0	27	0	944766976	59	4268
2026-01-05 13:42:06.92	227.00	17.14	-47.0	-48.2	14.9	0.00e+00	0	27	0	951058432	59	4304
2026-01-05 13:42:07.91	227.16	17.22	-46.9	-48.1	15.0	0.00e+00	0	27	0	956301312	59	4243
2026-01-05 13:42:08.90	227.33	17.30	-47.0	-48.1	14.9	0.00e+00	0	27	0	961544192	59	4286
2026-01-05 13:42:09.89	227.50	17.38	-47.0	-48.1	14.9	0.00e+00	0	27	0	967835648	59	4277
2026-01-05 13:42:10.88	227.67	17.46	-46.8	-47.9	15.0	0.00e+00	0	27	0	973078528	59	4187
2026-01-05 13:42:11.86	227.83	17.53	-46.7	-47.8	15.0	0.00e+00	0	27	0	978321408	59	4131
2026-01-05 13:42:12.86	228.01	17.61	-46.7	-47.9	15.0	0.00e+00	0	27	0	984612864	59	4146
2026-01-05 13:42:13.85	228.18	17.69	-46.8	-47.9	15.0	0.00e+00	0	27	0	989855744	59	4156
2026-01-05 13:42:14.84	228.35	17.77	-46.8	-48.0	15.0	0.00e+00	0	27	0	995098624	59	4198
2026-01-05 13:42:15.84	228.52	17.85	-46.7	-47.8	15.0	0.00e+00	0	27	0	1001390080	59	4120
2026-01-05 13:42:16.82	228.70	17.93	-46.7	-47.8	15.0	0.00e+00	0	27	0	1006632960	59	4142
2026-01-05 13:42:17.81	228.87	18.01	-46.7	-47.8	15.0	0.00e+00	0	27	0	1011875840	59	4122
2026-01-05 13:42:18.80	229.05	18.09	-46.7	-47.8	15.0	0.00e+00	0	27	0	1018167296	59	4119
2026-01-05 13:42:19.79	229.22	18.16	-46.7	-47.8	15.0	0.00e+00	0	27	0	1023410176	59	4128
2026-01-05 13:42:20.78	229.40	18.24	-46.8	-47.9	15.0	0.00e+00	0	27	0	1028653056	59	4170
2026-01-05 13:42:21.77	229.58	18.32	-46.5	-47.6	15.1	0.00e+00	0	27	0	1033895936	59	4034
2026-01-05 13:42:22.76	229.76	18.40	-46.5	-47.6	15.1	0.00e+00	0	27	0	1040187392	59	4022
2026-01-05 13:42:23.74	229.94	18.48	-46.4	-47.5	15.1	0.00e+00	0	27	0	1045430272	59	3997
2026-01-05 13:42:24.73	230.12	18.56	-46.5	-47.5	15.1	0.00e+00	0	27	0	1050673152	59	4004
2026-01-05 13:42:25.72	230.30	18.63	-46.5	-47.6	15.1	0.00e+00	0	27	0	1056964608	59	4046
2026-01-05 13:42:26.71	230.48	18.71	-46.5	-47.6	15.1	0.00e+00	0	27	0	1062207488	59	4035
2026-01-05 13:42:27.69	230.67	18.79	-46.6	-47.7	15.1	0.00e+00	0	27	0	1067450368	59	4086
2026-01-05 13:42:28.69	230.85	18.87	-46.6	-47.7	15.1	0.00e+00	0	27	0	1072693248	59	4074
2026-01-05 13:42:29.68	231.04	18.95	-46.6	-47.7	15.1	0.00e+00	0	27	0	1078984704	59	4056
2026-01-05 13:42:30.68	231.23	19.03	-46.5	-47.6	15.1	0.00e+00	0	27	0	1084227584	59	4032
2026-01-05 13:42:31.68	231.42	19.11	-46.5	-47.6	15.1	0.00e+00	0	27	0	1090519040	59	4008
2026-01-05 13:42:32.67	231.61	19.18	-46.3	-47.4	15.2	0.00e+00	0	27	0	1095761920	59	3934
2026-01-05 13:42:33.67	231.80	19.26	-46.3	-47.4	15.2	0.00e+00	0	27	0	1101004800	59	3937
2026-01-05 13:42:34.67	231.99	19.34	-46.4	-47.5	15.1	0.00e+00	0	27	0	1107296256	59	3970
2026-01-05 13:42:35.66	232.18	19.42	-46.3	-47.4	15.2	0.00e+00	0	27	0	1112539136	59	3936
2026-01-05 13:42:36.65	232.37	19.50	-46.4	-47.5	15.2	0.00e+00	0	27	0	1117782016	59	3984
2026-01-05 13:42:37.64	232.57	19.58	-46.4	-47.4	15.2	0.00e+00	0	27	0	1123024896	59	3950
2026-01-05 13:42:38.63	232.76	19.65	-46.3	-47.4	15.2	0.00e+00	0	27	0	1129316352	59	3935
2026-01-05 13:42:39.63	232.96	19.73	-46.2	-47.3	15.2	0.00e+00	0	27	0	1134559232	59	3876
2026-01-05 13:42:40.61	233.15	19.81	-46.3	-47.4	15.2	0.00e+00	0	27	0	1140850688	59	3925
2026-01-05 13:42:41.60	233.35	19.89	-46.2	-47.3	15.2	0.00e+00	0	27	0	1146093568	59	3894
2026-01-05 13:42:42.60	233.55	19.97	-46.3	-47.4	15.2	0.00e+00	0	27	0	1151336448	59	3934
2026-01-05 13:42:43.58	233.75	20.04	-46.3	-47.4	15.2	0.00e+00	0	27	0	1156579328	59	3949
2026-01-05 13:42:44.57	233.95	20.12	-46.3	-47.4	15.2	0.00e+00	0	27	0	1162870784	59	3949
2026-01-05 13:42:45.56	234.15	20.20	-46.3	-47.4	15.2	0.00e+00	0	27	0	1168113664	59	3936
2026-01-05 13:42:46.55	234.35	20.27	-46.3	-47.4	15.2	0.00e+00	0	27	0	1173356544	59	3953
2026-01-05 13:42:47.54	234.55	20.35	-46.4	-47.5	15.2	0.00e+00	0	27	0	1179648000	59	3969
2026-01-05 13:42:48.53	234.76	20.43	-46.1	-47.2	15.1	0.00e+00	0	27	0	1184890880	58	4071
2026-01-05 13:42:49.53	234.97	20.51	-46.1	-47.2	15.1	0.00e+00	0	27	0	1190133760	58	4072
2026-01-05 13:42:50.52	235.17	20.58	-46.1	-47.2	15.1	0.00e+00	0	27	0	1196425216	58	4086
2026-01-05 13:42:51.52	235.38	20.66	-46.0	-47.1	15.1	0.00e+00	0	27	0	1201668096	58	4045
2026-01-05 13:42:52.52	235.59	20.74	-46.2	-47.2	15.1	0.00e+00	0	27	0	1206910976	58	4092
2026-01-05 13:42:53.51	235.80	20.81	-46.2	-47.3	15.1	0.00e+00	0	27	0	1213202432	58	4113
2026-01-05 13:42:54.50	236.01	20.89	-46.1	-47.2	15.1	0.00e+00	0	27	0	1218445312	58	4086
2026-01-05 13:42:55.49	236.22	20.96	-46.2	-47.3	15.1	0.00e+00	0	27	0	1223688192	58	4100
2026-01-05 13:42:56.48	236.43	21.04	-46.3	-47.4	15.0	0.00e+00	0	27	0	1229979648	58	4148
2026-01-05 13:42:57.47	236.65	21.12	-46.3	-47.4	15.0	0.00e+00	0	27	0	1235222528	58	4183
2026-01-05 13:42:58.45	236.86	21.19	-46.3	-47.4	15.1	0.00e+00	0	27	0	1240465408	58	4161
2026-01-05 13:42:59.44	237.07	21.26	-46.2	-47.3	15.1	0.00e+00	0	27	0	1246756864	58	4108
2026-01-05 13:43:00.44	237.29	21.34	-46.2	-47.3	15.1	0.00e+00	0	27	0	1251999744	58	4100
2026-01-05 13:43:01.43	237.51	21.42	-45.8	-46.8	15.2	0.00e+00	0	27	0	1257242624	58	3903
2026-01-05 13:43:02.43	237.73	21.49	-45.7	-46.8	15.3	0.00e+00	0	27	0	1262485504	58	3875
2026-01-05 13:43:03.42	237.95	21.57	-45.8	-46.8	15.2	0.00e+00	0	27	0	1268776960	58	3883
2026-01-05 13:43:04.41	238.17	21.64	-45.8	-46.9	15.2	0.00e+00	0	27	0	1274019840	58	3939
2026-01-05 13:43:05.40	238.39	21.71	-45.9	-46.9	15.2	0.00e+00	0	27	0	1280311296	58	3951
2026-01-05 13:43:06.40	238.61	21.79	-45.9	-46.9	15.2	0.00e+00	0	27	0	1285554176	58	3946
2026-01-05 13:43:07.39	238.84	21.86	-45.9	-47.0	15.2	0.00e+00	0	27	0	1290797056	58	3963
2026-01-05 13:43:08.39	239.07	21.94	-45.8	-46.8	15.2	0.00e+00	0	27	0	1296039936	58	3896
2026-01-05 13:43:09.37	239.29	22.01	-45.8	-46.9	15.2	0.00e+00	0	27	0	1302331392	58	3931
2026-01-05 13:43:10.36	239.51	22.08	-45.8	-46.9	15.2	0.00e+00	0	27	0	1307574272	58	3922
2026-01-05 13:43:11.36	239.74	22.15	-45.7	-46.8	15.3	0.00e+00	0	27	0	1312817152	58	3890
2026-01-05 13:43:12.36	239.98	22.23	-45.8	-46.9	15.2	0.00e+00	0	27	0	1319108608	58	3918
2026-01-05 13:43:13.35	240.21	22.30	-45.9	-47.0	15.2	0.00e+00	0	27	0	1324351488	58	3970
2026-01-05 13:43:14.34	240.44	22.37	-45.9	-47.0	15.2	0.00e+00	0	27	0	1329594368	58	3969
2026-01-05 13:43:15.32	240.67	22.44	-46.0	-47.1	15.2	0.00e+00	0	27	0	1335885824	58	4005
2026-01-05 13:43:16.32	240.90	22.51	-46.0	-47.1	15.1	0.00e+00	0	27	0	1341128704	58	4034
2026-01-05 13:43:17.31	241.13	22.59	-46.1	-47.2	15.1	0.00e+00	0	27	0	1346371584	58	4073
2026-01-05 13:43:18.30	241.37	22.66	-46.1	-47.2	15.1	0.00e+00	0	27	0	1352663040	58	4056
2026-01-05 13:43:19.29	241.60	22.73	-45.9	-46.9	15.2	0.00e+00	0	27	0	1357905920	58	3950
2026-01-05 13:43:20.28	241.84	22.80	-45.7	-46.7	15.3	0.00e+00	0	27	0	1363148800	58	3863
2026-01-05 13:43:21.27	242.08	22.87	-45.5	-46.5	15.2	0.00e+00	0	27	0	1369440256	57	3994
2026-01-05 13:43:22.26	242.32	22.94	-45.6	-46.6	15.2	0.00e+00	0	27	0	1374683136	57	4040
2026-01-05 13:43:23.25	242.56	23.01	-45.6	-46.7	15.1	0.00e+00	0	27	0	1379926016	57	4054
2026-01-05 13:43:24.24	242.80	23.07	-45.9	-47.0	15.1	0.00e+00	0	27	0	1385168896	57	4194
2026-01-05 13:43:25.23	243.04	23.14	-45.8	-46.9	15.1	0.00e+00	0	27	0	1391460352	57	4175
2026-01-05 13:43:26.23	243.29	23.21	-45.9	-47.0	15.1	0.00e+00	0	27	0	1396703232	57	4227
2026-01-05 13:43:27.22	243.53	23.28	-45.8	-46.9	15.1	0.00e+00	0	27	0	1402994688	57	4156
2026-01-05 13:43:28.21	243.78	23.35	-45.5	-46.5	15.2	0.00e+00	0	27	0	1408237568	57	4002
2026-01-05 13:43:29.21	244.03	23.41	-45.4	-46.4	15.2	0.00e+00	0	27	0	1413480448	57	3929
2026-01-05 13:43:30.21	244.28	23.48	-45.5	-46.5	15.2	0.00e+00	0	27	0	1419771904	57	3983
2026-01-05 13:43:31.20	244.52	23.55	-45.3	-46.3	15.3	0.00e+00	0	27	0	1425014784	57	3894
2026-01-05 13:43:32.19	244.77	23.61	-45.3	-46.3	15.3	0.00e+00	0	27	0	1430257664	57	3906
2026-01-05 13:43:33.18	245.02	23.68	-45.4	-46.5	15.2	0.00e+00	0	27	0	1435500544	57	3971
2026-01-05 13:43:34.17	245.27	23.75	-45.5	-46.5	15.2	0.00e+00	0	27	0	1441792000	57	4001
2026-01-05 13:43:35.16	245.53	23.81	-45.6	-46.7	15.1	0.00e+00	0	27	0	1447034880	57	4066
2026-01-05 13:43:36.15	245.78	23.87	-45.5	-46.5	15.2	0.00e+00	0	27	0	1453326336	57	3984
2026-01-05 13:43:37.14	246.03	23.94	-45.5	-46.5	15.2	0.00e+00	0	27	0	1458569216	57	3986
2026-01-05 13:43:38.13	246.29	24.00	-45.2	-46.3	15.3	0.00e+00	0	27	0	1463812096	57	3877
2026-01-05 13:43:39.13	246.55	24.07	-45.1	-46.2	15.2	0.00e+00	0	27	0	1469054976	56	4065
2026-01-05 13:43:40.12	246.81	24.13	-45.1	-46.1	15.2	0.00e+00	0	27	0	1475346432	56	4050
2026-01-05 13:43:41.12	247.07	24.19	-45.2	-46.2	15.2	0.00e+00	0	27	0	1480589312	56	4077
2026-01-05 13:43:42.11	247.33	24.25	-45.3	-46.3	15.1	0.00e+00	0	27	0	1485832192	56	4130
2026-01-05 13:43:43.10	247.59	24.32	-45.3	-46.4	15.1	0.00e+00	0	27	0	1492123648	56	4167
2026-01-05 13:43:44.09	247.85	24.38	-45.3	-46.4	15.1	0.00e+00	0	27	0	1497366528	56	4159
2026-01-05 13:43:45.09	248.11	24.44	-45.4	-46.4	15.1	0.00e+00	0	27	0	1502609408	56	4179
2026-01-05 13:43:46.09	248.38	24.50	-45.4	-46.4	15.1	0.00e+00	0	27	0	1508900864	56	4172
2026-01-05 13:43:47.08	248.65	24.56	-45.3	-46.4	15.1	0.00e+00	0	27	0	1514143744	56	4162
2026-01-05 13:43:48.07	248.91	24.62	-45.2	-46.3	15.1	0.00e+00	0	27	0	1519386624	56	4119
2026-01-05 13:43:49.07	249.18	24.67	-45.3	-46.3	15.1	0.00e+00	0	27	0	1525678080	56	4138
2026-01-05 13:43:50.06	249.45	24.73	-45.2	-46.3	15.2	0.00e+00	0	27	0	1530920960	56	4102
2026-01-05 13:43:51.05	249.72	24.79	-45.2	-46.2	15.2	0.00e+00	0	27	0	1536163840	56	4081
2026-01-05 13:43:52.04	249.98	24.85	-45.1	-46.2	15.2	0.00e+00	0	27	0	1542455296	56	4069
2026-01-05 13:43:53.03	250.25	24.90	-45.1	-46.1	15.2	0.00e+00	0	27	0	1547698176	56	4025
2026-01-05 13:43:54.02	250.53	24.96	-45.2	-46.2	15.2	0.00e+00	0	27	0	1552941056	56	4086
2026-01-05 13:43:55.01	250.80	25.01	-45.3	-46.3	15.1	0.00e+00	0	27	0	1559232512	56	4139
2026-01-05 13:43:56.00	251.07	25.07	-45.3	-46.4	15.1	0.00e+00	0	27	0	1564475392	56	4156
2026-01-05 13:43:56.99	251.34	25.12	-45.3	-46.4	15.1	0.00e+00	0	27	0	1569718272	56	4150
2026-01-05 13:43:57.99	251.62	25.18	-45.2	-46.3	15.2	0.00e+00	0	27	0	1574961152	56	4114
2026-01-05 13:43:58.98	251.90	25.23	-45.3	-46.3	15.1	0.00e+00	0	27	0	1581252608	56	4135
2026-01-05 13:43:59.97	252.17	25.28	-45.3	-46.4	15.1	0.00e+00	0	27	0	1586495488	56	4154
2026-01-05 13:44:00.95	252.45	25.33	-45.2	-46.3	15.1	0.00e+00	0	27	0	1592786944	56	4125
2026-01-05 13:44:01.94	252.73	25.38	-45.1	-46.2	15.2	0.00e+00	0	27	0	1598029824	56	4061
2026-01-05 13:44:02.94	253.01	25.44	-45.0	-46.1	15.2	0.00e+00	0	27	0	1603272704	56	4009
2026-01-05 13:44:03.93	253.29	25.49	-44.9	-46.0	15.2	0.00e+00	0	27	0	1608515584	56	3964
2026-01-05 13:44:04.92	253.57	25.54	-44.9	-45.9	15.2	0.00e+00	0	27	0	1614807040	56	3953
2026-01-05 13:44:05.92	253.86	25.58	-44.9	-45.9	15.3	0.00e+00	0	27	0	1620049920	56	3951
2026-01-05 13:44:06.92	254.14	25.63	-45.0	-46.0	15.2	0.00e+00	0	27	0	1625292800	56	3999
2026-01-05 13:44:07.91	254.42	25.68	-45.1	-46.1	15.2	0.00e+00	0	27	0	1631584256	56	4045
2026-01-05 13:44:08.91	254.71	25.73	-45.1	-46.2	15.2	0.00e+00	0	27	0	1636827136	56	4073
2026-01-05 13:44:09.91	255.00	25.77	-45.1	-46.2	15.2	0.00e+00	0	27	0	1643118592	56	4053
2026-01-05 13:44:10.91	255.29	25.82	-45.2	-46.3	15.2	0.00e+00	0	27	0	1648361472	56	4102
2026-01-05 13:44:11.90	255.58	25.87	-45.2	-46.2	15.2	0.00e+00	0	27	0	1653604352	56	4073
2026-01-05 13:44:12.90	255.87	25.91	-45.2	-46.3	15.2	0.00e+00	0	27	0	1659895808	56	4114
2026-01-05 13:44:13.90	256.16	25.95	-45.2	-46.2	15.2	0.00e+00	0	27	0	1665138688	56	4077
2026-01-05 13:44:14.90	256.45	26.00	-45.2	-46.2	15.2	0.00e+00	0	27	0	1670381568	56	4088
2026-01-05 13:44:15.88	256.74	26.04	-45.2	-46.3	15.2	0.00e+00	0	27	0	1676673024	56	4100
2026-01-05 13:44:16.87	257.03	26.08	-45.2	-46.2	15.2	0.00e+00	0	27	0	1681915904	56	4079
2026-01-05 13:44:17.87	257.32	26.12	-45.2	-46.2	15.2	0.00e+00	0	27	0	1687158784	56	4071
2026-01-05 13:44:18.86	257.61	26.16	-45.2	-46.3	15.2	0.00e+00	0	27	0	1693450240	56	4106
2026-01-05 13:44:19.85	257.91	26.20	-45.1	-46.2	15.2	0.00e+00	0	27	0	1698693120	56	4068
2026-01-05 13:44:20.85	258.20	26.24	-45.2	-46.2	15.2	0.00e+00	0	27	0	1703936000	56	4083
2026-01-05 13:44:21.84	258.50	26.28	-45.1	-46.2	15.2	0.00e+00	0	27	0	1709178880	56	4077
2026-01-05 13:44:22.83	258.79	26.31	-45.0	-46.1	15.2	0.00e+00	0	27	0	1715470336	56	4016
2026-01-05 13:44:23.82	259.09	26.35	-45.0	-46.0	15.2	0.00e+00	0	27	0	1720713216	56	3985
2026-01-05 13:44:24.81	259.38	26.38	-45.1	-46.1	15.2	0.00e+00	0	27	0	1727004672	56	4020
2026-01-05 13:44:25.80	259.68	26.42	-45.1	-46.2	15.2	0.00e+00	0	27	0	1732247552	56	4064
2026-01-05 13:44:26.79	259.98	26.45	-45.2	-46.3	15.1	0.00e+00	0	27	0	1737490432	56	4125
2026-01-05 13:44:27.78	260.28	26.49	-45.3	-46.4	15.1	0.00e+00	0	27	0	1742733312	56	4150
2026-01-05 13:44:28.77	260.57	26.52	-45.2	-46.3	15.2	0.00e+00	0	27	0	1749024768	56	4110
2026-01-05 13:44:29.76	260.87	26.55	-45.2	-46.3	15.2	0.00e+00	0	27	0	1754267648	56	4111
2026-01-05 13:44:30.75	261.17	26.58	-45.3	-46.3	15.1	0.00e+00	0	27	0	1759510528	56	4133
2026-01-05 13:44:31.75	261.48	26.61	-45.2	-46.2	15.2	0.00e+00	0	27	0	1765801984	56	4098
2026-01-05 13:44:32.74	261.78	26.64	-45.3	-46.3	15.2	0.00e+00	0	27	0	1771044864	56	4132
2026-01-05 13:44:33.73	262.08	26.67	-45.1	-46.2	15.2	0.00e+00	0	27	0	1776287744	56	4066
2026-01-05 13:44:34.72	262.38	26.70	-44.9	-46.0	15.2	0.00e+00	0	27	0	1782579200	56	3967
2026-01-05 13:44:35.71	262.68	26.72	-44.8	-45.9	15.3	0.00e+00	0	27	0	1787822080	56	3923
2026-01-05 13:44:36.70	262.99	26.75	-44.8	-45.8	15.3	0.00e+00	0	27	0	1793064960	56	3898
2026-01-05 13:44:37.69	263.29	26.77	-44.9	-46.0	15.2	0.00e+00	0	27	0	1799356416	56	3966
2026-01-05 13:44:38.69	263.60	26.80	-44.9	-45.9	15.2	0.00e+00	0	27	0	1804599296	56	3952
2026-01-05 13:44:39.69	263.90	26.82	-44.9	-45.9	15.2	0.00e+00	0	27	0	1809842176	56	3946
2026-01-05 13:44:40.68	264.21	26.85	-44.9	-46.0	15.2	0.00e+00	0	27	0	1816133632	56	3960
2026-01-05 13:44:41.67	264.51	26.87	-44.8	-45.8	15.3	0.00e+00	0	27	0	1821376512	56	3873
2026-01-05 13:44:42.66	264.82	26.89	-44.9	-45.9	15.3	0.00e+00	0	27	0	1826619392	56	3933
2026-01-05 13:44:43.64	265.12	26.91	-45.0	-46.1	15.2	0.00e+00	0	27	0	1831862272	56	4008
2026-01-05 13:44:44.63	265.43	26.93	-45.1	-46.2	15.2	0.00e+00	0	27	0	1838153728	56	4067
2026-01-05 13:44:45.62	265.74	26.95	-45.2	-46.2	15.2	0.00e+00	0	27	0	1843396608	56	4088
2026-01-05 13:44:46.61	266.04	26.96	-45.1	-46.1	15.2	0.00e+00	0	27	0	1848639488	56	4038
2026-01-05 13:44:47.61	266.35	26.98	-45.1	-46.2	15.2	0.00e+00	0	27	0	1854930944	56	4056
2026-01-05 13:44:48.60	266.66	27.00	-45.1	-46.1	15.2	0.00e+00	0	27	0	1860173824	56	4041
2026-01-05 13:44:49.60	266.97	27.01	-45.1	-46.2	15.2	0.00e+00	0	27	0	1866465280	56	4065
2026-01-05 13:44:50.59	267.28	27.03	-45.2	-46.2	15.2	0.00e+00	0	27	0	1871708160	56	4081
2026-01-05 13:44:51.58	267.59	27.04	-45.2	-46.2	15.2	0.00e+00	0	27	0	1876951040	56	4083
2026-01-05 13:44:52.56	267.89	27.05	-45.3	-46.3	15.2	0.00e+00	0	27	0	1882193920	56	4132
2026-01-05 13:44:53.55	268.20	27.06	-45.4	-46.5	15.1	0.00e+00	0	27	0	1888485376	56	4200
2026-01-05 13:44:54.54	268.51	27.07	-45.3	-46.4	15.1	0.00e+00	0	27	0	1893728256	56	4158
2026-01-05 13:44:55.53	268.82	27.08	-45.4	-46.4	15.1	0.00e+00	0	27	0	1898971136	56	4187
2026-01-05 13:44:56.52	269.13	27.09	-45.3	-46.3	15.2	0.00e+00	0	27	0	1905262592	56	4132
2026-01-05 13:44:57.52	269.44	27.10	-45.2	-46.3	15.2	0.00e+00	0	27	0	1910505472	56	4103
2026-01-05 13:44:58.51	269.75	27.11	-45.3	-46.4	15.1	0.00e+00	0	27	0	1915748352	56	4149
2026-01-05 13:44:59.50	270.06	27.12	-45.3	-46.4	15.1	0.00e+00	0	27	0	1922039808	56	4165
2026-01-05 13:45:00.49	270.37	27.12	-45.3	-46.3	15.2	0.00e+00	0	27	0	1927282688	56	4120
2026-01-05 13:45:01.47	270.68	27.13	-45.2	-46.3	15.2	0.00e+00	0	27	0	1932525568	56	4103
2026-01-05 13:45:02.46	270.99	27.13	-45.2	-46.2	15.2	0.00e+00	0	27	0	1937768448	56	4097
2026-01-05 13:45:03.45	271.30	27.13	-45.1	-46.1	15.2	0.00e+00	0	27	0	1944059904	56	4043
2026-01-05 13:45:04.44	271.61	27.13	-45.0	-46.0	15.2	0.00e+00	0	27	0	1949302784	56	3989
2026-01-05 13:45:05.42	271.92	27.13	-45.0	-46.0	15.2	0.00e+00	0	27	0	1954545664	56	3990
2026-01-05 13:45:06.42	272.23	27.13	-45.0	-46.0	15.2	0.00e+00	0	27	0	1960837120	56	3976
2026-01-05 13:45:07.41	272.54	27.13	-45.0	-46.0	15.2	0.00e+00	0	27	0	1966080000	56	3978
2026-01-05 13:45:08.41	272.85	27.13	-45.1	-46.1	15.2	0.00e+00	0	27	0	1971322880	56	4025
2026-01-05 13:45:09.40	273.16	27.13	-45.2	-46.3	15.2	0.00e+00	0	27	0	1977614336	56	4105
2026-01-05 13:45:10.40	273.48	27.13	-45.3	-46.4	15.1	0.00e+00	0	27	0	1982857216	56	4146
2026-01-05 13:45:11.38	273.78	27.12	-45.4	-46.5	15.1	0.00e+00	0	27	0	1988100096	56	4208
2026-01-05 13:45:12.38	274.10	27.12	-45.4	-46.4	15.1	0.00e+00	0	27	0	1994391552	56	4193
2026-01-05 13:45:13.37	274.41	27.11	-45.3	-46.3	15.1	0.00e+00	0	27	0	1999634432	56	4130
2026-01-05 13:45:14.35	274.71	27.10	-45.3	-46.3	15.1	0.00e+00	0	27	0	2004877312	56	4138
2026-01-05 13:45:15.34	275.02	27.10	-45.3	-46.3	15.2	0.00e+00	0	27	0	2010120192	56	4136
2026-01-05 13:45:16.32	275.33	27.09	-45.2	-46.2	15.2	0.00e+00	0	27	0	2016411648	56	4079
2026-01-05 13:45:17.32	275.64	27.08	-45.1	-46.2	15.2	0.00e+00	0	27	0	2021654528	56	4070
2026-01-05 13:45:18.30	275.95	27.07	-45.2	-46.3	15.2	0.00e+00	0	27	0	2027945984	56	4104
2026-01-05 13:45:19.29	276.26	27.06	-45.2	-46.2	15.2	0.00e+00	0	27	0	2033188864	56	4087
2026-01-05 13:45:20.27	276.56	27.04	-45.1	-46.2	15.2	0.00e+00	0	27	0	2038431744	56	4060
2026-01-05 13:45:21.26	276.87	27.03	-45.2	-46.2	15.2	0.00e+00	0	27	0	2043674624	56	4078
2026-01-05 13:45:22.24	277.18	27.02	-45.0	-46.1	15.2	0.00e+00	0	27	0	2049966080	56	4016
2026-01-05 13:45:23.24	277.49	27.00	-45.0	-46.0	15.2	0.00e+00	0	27	0	2055208960	56	4003
2026-01-05 13:45:24.23	277.79	26.99	-45.0	-46.0	15.2	0.00e+00	0	27	0	2060451840	56	4000
2026-01-05 13:45:25.21	278.10	26.97	-45.1	-46.1	15.2	0.00e+00	0	27	0	2066743296	56	4049
2026-01-05 13:45:26.21	278.41	26.95	-45.2	-46.2	15.2	0.00e+00	0	27	0	2071986176	56	4072
2026-01-05 13:45:27.20	278.72	26.94	-45.2	-46.3	15.2	0.00e+00	0	27	0	2077229056	56	4102
2026-01-05 13:45:28.19	279.02	26.92	-45.4	-46.4	15.1	0.00e+00	0	27	0	2082471936	56	4185
2026-01-05 13:45:29.18	279.33	26.90	-45.4	-46.5	15.1	0.00e+00	0	27	0	2088763392	56	4211
2026-01-05 13:45:30.17	279.63	26.88	-45.5	-46.6	15.1	0.00e+00	0	27	0	2094006272	56	4252
2026-01-05 13:45:31.16	279.94	26.85	-45.5	-46.6	15.1	0.00e+00	0	27	0	2099249152	56	4268
2026-01-05 13:45:32.15	280.24	26.83	-45.5	-46.6	15.1	0.00e+00	0	27	0	2105540608	56	4265
2026-01-05 13:45:33.14	280.55	26.81	-45.5	-46.6	15.1	0.00e+00	0	27	0	2110783488	56	4244
2026-01-05 13:45:34.12	280.85	26.79	-45.4	-46.5	15.1	0.00e+00	0	27	0	2116026368	56	4222
2026-01-05 13:45:35.11	281.15	26.76	-45.5	-46.5	15.1	0.00e+00	0	27	0	2122317824	56	4237
2026-01-05 13:45:36.11	281.46	26.73	-45.4	-46.4	15.1	0.00e+00	0	27	0	2127560704	56	4193
2026-01-05 13:45:37.09	281.76	26.71	-45.3	-46.4	15.1	0.00e+00	0	27	0	2132803584	56	4152
2026-01-05 13:45:38.08	282.06	26.68	-45.4	-46.4	15.1	0.00e+00	0	27	0	2138046464	56	4188
2026-01-05 13:45:39.07	282.36	26.65	-45.3	-46.3	15.1	0.00e+00	0	27	0	2144337920	56	4120
2026-01-05 13:45:40.07	282.66	26.62	-45.2	-46.2	15.2	0.00e+00	0	27	0	2149580800	56	4080
2026-01-05 13:45:41.07	282.97	26.59	-45.2	-46.2	15.2	0.00e+00	0	27	0	2155872256	56	4068
2026-01-05 13:45:42.06	283.27	26.56	-45.2	-46.3	15.1	0.00e+00	0	27	0	2161115136	56	4122
2026-01-05 13:45:43.05	283.56	26.53	-45.3	-46.4	15.1	0.00e+00	0	27	0	2166358016	56	4166
2026-01-05 13:45:44.05	283.87	26.50	-45.4	-46.5	15.1	0.00e+00	0	27	0	2172649472	56	4199
2026-01-05 13:45:45.05	284.17	26.47	-45.4	-46.4	15.1	0.00e+00	0	27	0	2177892352	56	4187
2026-01-05 13:45:46.04	284.46	26.43	-45.4	-46.5	15.1	0.00e+00	0	27	0	2183135232	56	4201
2026-01-05 13:45:47.03	284.76	26.40	-45.4	-46.4	15.1	0.00e+00	0	27	0	2188378112	56	4184
2026-01-05 13:45:48.02	285.06	26.36	-45.4	-46.5	15.1	0.00e+00	0	27	0	2194669568	56	4194
2026-01-05 13:45:49.01	285.35	26.33	-45.5	-46.6	15.1	0.00e+00	0	27	0	2199912448	56	4243
2026-01-05 13:45:50.00	285.65	26.29	-45.6	-46.7	15.1	0.00e+00	0	27	0	2206203904	56	4299
2026-01-05 13:45:50.99	285.94	26.25	-45.6	-46.6	15.1	0.00e+00	0	27	0	2211446784	56	4290
2026-01-05 13:45:51.98	286.23	26.22	-45.5	-46.5	15.1	0.00e+00	0	27	0	2216689664	56	4229
2026-01-05 13:45:52.98	286.53	26.18	-45.5	-46.5	15.1	0.00e+00	0	27	0	2221932544	56	4232
2026-01-05 13:45:53.98	286.82	26.14	-45.4	-46.5	15.1	0.00e+00	0	27	0	2228224000	56	4199
2026-01-05 13:45:54.97	287.12	26.10	-45.3	-46.3	15.1	0.00e+00	0	27	0	2233466880	56	4128
2026-01-05 13:45:55.95	287.40	26.06	-45.4	-46.4	15.1	0.00e+00	0	27	0	2238709760	56	4191
2026-01-05 13:45:56.94	287.69	26.01	-45.5	-46.6	15.1	0.00e+00	0	27	0	2245001216	56	4268
2026-01-05 13:45:57.93	287.98	25.97	-45.7	-46.8	15.1	0.00e+00	0	27	0	2250244096	56	4344
2026-01-05 13:45:58.91	288.27	25.93	-45.8	-46.9	15.0	0.00e+00	0	27	0	2255486976	56	4398
2026-01-05 13:45:59.89	288.55	25.89	-45.9	-47.0	15.0	0.00e+00	0	27	0	2261778432	56	4450
2026-01-05 13:46:00.89	288.84	25.84	-45.8	-46.9	15.0	0.00e+00	0	27	0	2267021312	56	4406
2026-01-05 13:46:01.88	289.13	25.80	-45.7	-46.7	15.1	0.00e+00	0	27	0	2272264192	56	4330
2026-01-05 13:46:02.87	289.41	25.75	-45.7	-46.7	15.1	0.00e+00	0	27	0	2277507072	56	4328
2026-01-05 13:46:03.87	289.70	25.70	-45.7	-46.8	15.1	0.00e+00	0	27	0	2283798528	56	4359
2026-01-05 13:46:04.85	289.98	25.66	-45.6	-46.7	15.1	0.00e+00	0	27	0	2289041408	56	4312
2026-01-05 13:46:05.85	290.26	25.61	-45.6	-46.7	15.1	0.00e+00	0	27	0	2295332864	56	4305
2026-01-05 13:46:06.84	290.55	25.56	-45.7	-46.8	15.1	0.00e+00	0	27	0	2300575744	56	4345
2026-01-05 13:46:07.84	290.83	25.51	-45.6	-46.6	15.1	0.00e+00	0	27	0	2305818624	56	4284
2026-01-05 13:46:08.83	291.11	25.46	-45.5	-46.6	15.1	0.00e+00	0	27	0	2311061504	56	4261
2026-01-05 13:46:09.82	291.39	25.41	-45.5	-46.5	15.1	0.00e+00	0	27	0	2317352960	56	4227
2026-01-05 13:46:10.82	291.67	25.36	-45.5	-46.5	15.1	0.00e+00	0	27	0	2322595840	56	4219
2026-01-05 13:46:11.82	291.95	25.31	-45.5	-46.5	15.1	0.00e+00	0	27	0	2328887296	56	4236
2026-01-05 13:46:12.81	292.23	25.26	-45.6	-46.7	15.1	0.00e+00	0	27	0	2334130176	56	4293
2026-01-05 13:46:13.80	292.50	25.21	-45.8	-46.8	15.0	0.00e+00	0	27	0	2339373056	56	4375
2026-01-05 13:46:14.80	292.78	25.15	-45.8	-46.8	15.0	0.00e+00	0	27	0	2345664512	56	4383
2026-01-05 13:46:15.79	293.05	25.10	-45.8	-46.9	15.0	0.00e+00	0	27	0	2350907392	56	4423
2026-01-05 13:46:16.78	293.33	25.04	-45.9	-47.0	15.1	0.00e+00	0	27	0	2356150272	57	4216
2026-01-05 13:46:17.77	293.60	24.99	-46.0	-47.0	15.1	0.00e+00	0	27	0	2361393152	57	4228
2026-01-05 13:46:18.76	293.87	24.93	-45.7	-46.7	15.1	0.00e+00	0	27	0	2367684608	57	4082
2026-01-05 13:46:19.75	294.14	24.88	-45.8	-46.8	15.1	0.00e+00	0	27	0	2372927488	57	4127
2026-01-05 13:46:20.74	294.41	24.82	-45.8	-46.8	15.1	0.00e+00	0	27	0	2378170368	57	4142
2026-01-05 13:46:21.72	294.67	24.76	-45.7	-46.8	15.1	0.00e+00	0	27	0	2384461824	57	4103
2026-01-05 13:46:22.70	294.94	24.71	-45.8	-46.8	15.1	0.00e+00	0	27	0	2389704704	57	4138
2026-01-05 13:46:23.69	295.20	24.65	-45.8	-46.9	15.1	0.00e+00	0	27	0	2394947584	57	4170
2026-01-05 13:46:24.67	295.47	24.59	-45.9	-47.0	15.1	0.00e+00	0	27	0	2400190464	57	4222
2026-01-05 13:46:25.66	295.73	24.53	-45.8	-46.9	15.1	0.00e+00	0	27	0	2406481920	57	4173
2026-01-05 13:46:26.65	295.99	24.47	-45.9	-46.9	15.1	0.00e+00	0	27	0	2411724800	57	4183
2026-01-05 13:46:27.64	296.26	24.41	-45.9	-46.9	15.1	0.00e+00	0	27	0	2418016256	57	4175
2026-01-05 13:46:28.63	296.52	24.35	-45.7	-46.8	15.1	0.00e+00	0	27	0	2423259136	57	4110
2026-01-05 13:46:29.62	296.78	24.29	-45.8	-46.8	15.1	0.00e+00	0	27	0	2428502016	57	4143
2026-01-05 13:46:30.61	297.04	24.23	-46.0	-47.1	15.1	0.00e+00	0	27	0	2433744896	57	4263
2026-01-05 13:46:31.60	297.30	24.17	-46.0	-47.1	15.1	0.00e+00	0	27	0	2440036352	57	4250
2026-01-05 13:46:32.58	297.55	24.11	-45.9	-46.9	15.1	0.00e+00	0	27	0	2445279232	57	4184
2026-01-05 13:46:33.56	297.80	24.05	-46.0	-47.1	15.1	0.00e+00	0	27	0	2450522112	57	4248
2026-01-05 13:46:34.55	298.06	23.98	-45.9	-47.0	15.1	0.00e+00	0	27	0	2456813568	57	4201
2026-01-05 13:46:35.54	298.31	23.92	-46.0	-47.0	15.1	0.00e+00	0	27	0	2462056448	57	4224
2026-01-05 13:46:36.53	298.57	23.86	-46.0	-47.1	15.1	0.00e+00	0	27	0	2467299328	57	4258
2026-01-05 13:46:37.52	298.82	23.79	-45.9	-47.0	15.1	0.00e+00	0	27	0	2472542208	57	4219
2026-01-05 13:46:38.51	299.07	23.73	-46.0	-47.1	15.0	0.00e+00	0	27	0	2478833664	57	4280
2026-01-05 13:46:39.50	299.32	23.66	-46.2	-47.3	15.0	0.00e+00	0	27	0	2484076544	57	4380
2026-01-05 13:46:40.48	299.57	23.60	-46.2	-47.3	15.0	0.00e+00	0	27	0	2489319424	57	4353
2026-01-05 13:46:41.48	299.82	23.53	-46.2	-47.3	15.0	0.00e+00	0	27	0	2495610880	57	4347
2026-01-05 13:46:42.47	300.07	23.46	-46.2	-47.3	15.0	0.00e+00	0	27	0	2500853760	57	4384
2026-01-05 13:46:43.46	300.31	23.40	-46.0	-47.1	15.0	0.00e+00	0	27	0	2506096640	57	4263
2026-01-05 13:46:44.45	300.56	23.33	-45.9	-47.0	15.1	0.00e+00	0	27	0	2512388096	57	4210
2026-01-05 13:46:45.44	300.80	23.26	-46.0	-47.0	15.1	0.00e+00	0	27	0	2517630976	57	4242
2026-01-05 13:46:46.43	301.04	23.20	-46.0	-47.0	15.0	0.00e+00	0	27	0	2522873856	57	4230
2026-01-05 13:46:47.42	301.29	23.13	-45.9	-46.9	15.1	0.00e+00	0	27	0	2528116736	57	4176
2026-01-05 13:46:48.42	301.53	23.06	-45.9	-47.0	15.1	0.00e+00	0	27	0	2534408192	57	4199
2026-01-05 13:46:49.41	301.77	22.99	-46.0	-47.0	15.1	0.00e+00	0	27	0	2539651072	57	4235
2026-01-05 13:46:50.40	302.01	22.92	-46.1	-47.1	15.0	0.00e+00	0	27	0	2545942528	57	4287
2026-01-05 13:46:51.39	302.25	22.85	-46.1	-47.2	15.0	0.00e+00	0	27	0	2551185408	57	4313
2026-01-05 13:46:52.39	302.49	22.78	-46.2	-47.3	15.0	0.00e+00	0	27	0	2556428288	57	4390
2026-01-05 13:46:53.38	302.72	22.71	-46.3	-47.4	15.0	0.00e+00	0	27	0	2561671168	57	4423
2026-01-05 13:46:54.36	302.95	22.64	-46.3	-47.4	15.0	0.00e+00	0	27	0	2567962624	57	4423
2026-01-05 13:46:55.35	303.19	22.57	-46.3	-47.4	15.0	0.00e+00	0	27	0	2573205504	57	4419
2026-01-05 13:46:56.36	303.42	22.50	-46.3	-47.4	15.0	0.00e+00	0	27	0	2578448384	57	4441
2026-01-05 13:46:57.35	303.66	22.43	-46.3	-47.4	15.0	0.00e+00	0	27	0	2584739840	57	4410
2026-01-05 13:46:58.34	303.89	22.36	-46.2	-47.3	15.0	0.00e+00	0	27	0	2589982720	57	4362
2026-01-05 13:46:59.33	304.12	22.28	-46.2	-47.3	15.0	0.00e+00	0	27	0	2595225600	57	4344
2026-01-05 13:47:00.32	304.35	22.21	-46.3	-47.4	15.0	0.00e+00	0	27	0	2601517056	57	4400
2026-01-05 13:47:01.31	304.57	22.14	-46.3	-47.4	15.0	0.00e+00	0	27	0	2606759936	57	4433
2026-01-05 13:47:02.29	304.80	22.07	-46.2	-47.2	15.0	0.00e+00	0	27	0	2612002816	57	4335
2026-01-05 13:47:03.28	305.02	22.00	-46.2	-47.3	15.0	0.00e+00	0	27	0	2618294272	57	4354
2026-01-05 13:47:04.27	305.25	21.92	-46.3	-47.4	15.0	0.00e+00	0	27	0	2623537152	57	4394
2026-01-05 13:47:05.27	305.47	21.85	-46.3	-47.5	15.0	0.00e+00	0	27	0	2628780032	57	4445
2026-01-05 13:47:06.27	305.70	21.78	-46.4	-47.5	15.0	0.00e+00	0	27	0	2635071488	58	4237
2026-01-05 13:47:07.26	305.92	21.70	-46.4	-47.5	15.0	0.00e+00	0	27	0	2640314368	58	4227
2026-01-05 13:47:08.25	306.14	21.63	-46.3	-47.4	15.1	0.00e+00	0	27	0	2645557248	58	4169
2026-01-05 13:47:09.25	306.36	21.55	-46.1	-47.2	15.1	0.00e+00	0	27	0	2651848704	58	4068
2026-01-05 13:47:10.24	306.58	21.48	-46.1	-47.2	15.1	0.00e+00	0	27	0	2657091584	58	4053
2026-01-05 13:47:11.24	306.80	21.40	-46.1	-47.1	15.1	0.00e+00	0	27	0	2662334464	58	4033
2026-01-05 13:47:12.23	307.01	21.33	-46.1	-47.2	15.1	0.00e+00	0	27	0	2668625920	58	4057
2026-01-05 13:47:13.23	307.23	21.25	-46.2	-47.3	15.1	0.00e+00	0	27	0	2673868800	58	4133
2026-01-05 13:47:14.22	307.45	21.18	-46.3	-47.5	15.0	0.00e+00	0	27	0	2679111680	58	4196
2026-01-05 13:47:15.22	307.66	21.10	-46.4	-47.5	15.0	0.00e+00	0	27	0	2685403136	58	4239
2026-01-05 13:47:16.21	307.87	21.03	-46.5	-47.6	15.0	0.00e+00	0	27	0	2690646016	58	4271
2026-01-05 13:47:17.20	308.08	20.95	-46.6	-47.7	15.0	0.00e+00	0	27	0	2695888896	58	4306
2026-01-05 13:47:18.18	308.29	20.88	-46.6	-47.7	15.0	0.00e+00	0	27	0	2701131776	58	4305
2026-01-05 13:47:19.17	308.50	20.80	-46.6	-47.7	15.0	0.00e+00	0	27	0	2707423232	58	4315
2026-01-05 13:47:20.17	308.71	20.73	-46.7	-47.8	15.0	0.00e+00	0	27	0	2712666112	58	4367
2026-01-05 13:47:21.16	308.92	20.65	-46.7	-47.8	15.0	0.00e+00	0	27	0	2718957568	58	4345
2026-01-05 13:47:22.15	309.12	20.57	-46.7	-47.8	14.9	0.00e+00	0	27	0	2724200448	58	4384
2026-01-05 13:47:23.13	309.33	20.50	-46.7	-47.8	14.9	0.00e+00	0	27	0	2729443328	58	4391
2026-01-05 13:47:24.12	309.53	20.42	-46.7	-47.8	14.9	0.00e+00	0	27	0	2734686208	58	4389
2026-01-05 13:47:25.11	309.73	20.35	-46.7	-47.9	14.9	0.00e+00	0	27	0	2740977664	58	4397
2026-01-05 13:47:26.10	309.94	20.27	-46.9	-48.1	14.9	0.00e+00	0	27	0	2746220544	58	4495
2026-01-05 13:47:27.08	310.14	20.19	-47.0	-48.1	15.0	0.00e+00	0	27	0	2751463424	59	4268
2026-01-05 13:47:28.07	310.34	20.12	-47.0	-48.2	14.9	0.00e+00	0	27	0	2757754880	59	4305
2026-01-05 13:47:29.06	310.54	20.04	-47.1	-48.3	14.9	0.00e+00	0	27	0	2762997760	59	4342
2026-01-05 13:47:30.05	310.73	19.96	-47.1	-48.2	14.9	0.00e+00	0	27	0	2768240640	59	4325
2026-01-05 13:47:31.03	310.93	19.89	-47.0	-48.2	14.9	0.00e+00	0	27	0	2773483520	59	4310
2026-01-05 13:47:32.01	311.12	19.81	-47.1	-48.2	14.9	0.00e+00	0	27	0	2779774976	59	4323
2026-01-05 13:47:33.00	311.32	19.73	-47.0	-48.1	15.0	0.00e+00	0	27	0	2785017856	59	4290
2026-01-05 13:47:33.99	311.51	19.66	-46.8	-47.9	15.0	0.00e+00	0	27	0	2790260736	59	4170
2026-01-05 13:47:34.98	311.71	19.58	-46.7	-47.8	15.0	0.00e+00	0	27	0	2796552192	59	4131
2026-01-05 13:47:35.97	311.90	19.50	-46.7	-47.8	15.1	0.00e+00	0	27	0	2801795072	59	4105
2026-01-05 13:47:36.96	312.09	19.42	-46.6	-47.7	15.1	0.00e+00	0	27	0	2807037952	59	4072
2026-01-05 13:47:37.95	312.28	19.35	-46.7	-47.8	15.0	0.00e+00	0	27	0	2813329408	59	4112
2026-01-05 13:47:38.93	312.47	19.27	-46.7	-47.8	15.0	0.00e+00	0	27	0	2818572288	59	4143
2026-01-05 13:47:39.93	312.66	19.19	-46.7	-47.9	15.0	0.00e+00	0	27	0	2823815168	59	4147
2026-01-05 13:47:40.92	312.85	19.11	-46.9	-48.0	15.0	0.00e+00	0	27	0	2829058048	59	4235
2026-01-05 13:47:41.92	313.04	19.03	-47.0	-48.2	15.0	0.00e+00	0	27	0	2835349504	59	4298
2026-01-05 13:47:42.90	313.22	18.96	-47.1	-48.3	14.9	0.00e+00	0	27	0	2840592384	59	4343
2026-01-05 13:47:43.90	313.41	18.88	-47.2	-48.3	14.9	0.00e+00	0	27	0	2846883840	59	4381
2026-01-05 13:47:44.90	313.59	18.80	-47.2	-48.3	14.9	0.00e+00	0	27	0	2852126720	59	4380
2026-01-05 13:47:45.88	313.77	18.72	-47.2	-48.3	14.9	0.00e+00	0	27	0	2857369600	59	4375
2026-01-05 13:47:46.88	313.96	18.64	-47.1	-48.3	14.9	0.00e+00	0	27	0	2862612480	59	4358
2026-01-05 13:47:47.88	314.14	18.57	-47.2	-48.3	14.9	0.00e+00	0	27	0	2868903936	59	4379
2026-01-05 13:47:48.87	314.32	18.49	-47.1	-48.2	14.9	0.00e+00	0	27	0	2874146816	59	4317
2026-01-05 13:47:49.87	314.50	18.41	-47.1	-48.3	14.9	0.00e+00	0	27	0	2879389696	59	4350
2026-01-05 13:47:50.86	314.68	18.33	-47.3	-48.4	14.9	0.00e+00	0	27	0	2885681152	59	4424
2026-01-05 13:47:51.85	314.86	18.25	-47.2	-48.4	14.9	0.00e+00	0	27	0	2890924032	59	4410
2026-01-05 13:47:52.85	315.04	18.17	-47.3	-48.5	14.9	0.00e+00	0	27	0	2897215488	59	4443
2026-01-05 13:47:53.85	315.22	18.09	-47.3	-48.4	14.9	0.00e+00	0	27	0	2902458368	59	4416
2026-01-05 13:47:54.84	315.39	18.02	-47.3	-48.5	14.9	0.00e+00	0	27	0	2907701248	59	4442
2026-01-05 13:47:55.84	315.57	17.94	-47.2	-48.4	14.9	0.00e+00	0	27	0	2913992704	59	4410
2026-01-05 13:47:56.83	315.74	17.86	-47.2	-48.3	14.9	0.00e+00	0	27	0	2919235584	59	4388
2026-01-05 13:47:57.83	315.91	17.78	-47.2	-48.3	14.9	0.00e+00	0	27	0	2924478464	59	4387
2026-01-05 13:47:58.83	316.09	17.70	-47.3	-48.5	14.9	0.00e+00	0	27	0	2929721344	59	4448
2026-01-05 13:47:59.83	316.26	17.62	-47.4	-48.5	14.8	0.00e+00	0	27	0	2936012800	59	4487
2026-01-05 13:48:00.83	316.43	17.54	-47.1	-48.2	15.0	0.00e+00	0	27	0	2941255680	60	4087
2026-01-05 13:48:01.83	316.60	17.46	-47.1	-48.3	15.0	0.00e+00	0	27	0	2947547136	60	4117
2026-01-05 13:48:02.82	316.77	17.39	-47.2	-48.3	15.0	0.00e+00	0	27	0	2952790016	60	4123
2026-01-05 13:48:03.82	316.94	17.31	-47.1	-48.2	15.0	0.00e+00	0	27	0	2958032896	60	4098
2026-01-05 13:48:04.81	317.11	17.23	-47.0	-48.1	15.0	0.00e+00	0	27	0	2964324352	60	4050
2026-01-05 13:48:05.81	317.27	17.15	-47.0	-48.1	15.0	0.00e+00	0	27	0	2969567232	60	4045
2026-01-05 13:48:06.80	317.44	17.07	-47.0	-48.2	15.0	0.00e+00	0	27	0	2974810112	60	4053
2026-01-05 13:48:07.79	317.60	16.99	-47.0	-48.1	15.0	0.00e+00	0	27	0	2981101568	60	4037
2026-01-05 13:48:08.79	317.77	16.92	-47.1	-48.2	15.0	0.00e+00	0	27	0	2986344448	60	4066
2026-01-05 13:48:09.78	317.93	16.84	-47.0	-48.1	15.0	0.00e+00	0	27	0	2991587328	60	4048
2026-01-05 13:48:10.77	318.09	16.76	-47.0	-48.1	15.0	0.00e+00	0	27	0	2997878784	60	4036
2026-01-05 13:48:11.77	318.25	16.68	-47.0	-48.1	15.0	0.00e+00	0	27	0	3003121664	60	4044
2026-01-05 13:48:12.77	318.41	16.60	-47.0	-48.1	15.0	0.00e+00	0	27	0	3008364544	60	4013
2026-01-05 13:48:13.76	318.57	16.52	-47.0	-48.2	15.0	0.00e+00	0	27	0	3014656000	60	4053
2026-01-05 13:48:14.76	318.73	16.45	-47.1	-48.2	15.0	0.00e+00	0	27	0	3019898880	60	4083
2026-01-05 13:48:15.75	318.89	16.37	-47.1	-48.2	15.0	0.00e+00	0	27	0	3025141760	60	4079
2026-01-05 13:48:16.74	319.05	16.29	-47.1	-48.2	15.0	0.00e+00	0	27	0	3031433216	60	4070
2026-01-05 13:48:17.73	319.20	16.21	-47.1	-48.2	15.0	0.00e+00	0	27	0	3036676096	60	4081
2026-01-05 13:48:18.71	319.36	16.14	-47.1	-48.2	15.0	0.00e+00	0	27	0	3041918976	60	4072
2026-01-05 13:48:19.70	319.51	16.06	-47.1	-48.2	15.0	0.00e+00	0	27	0	3048210432	60	4098
2026-01-05 13:48:20.68	319.66	15.98	-47.2	-48.3	14.9	0.00e+00	0	27	0	3053453312	60	4143
2026-01-05 13:48:21.67	319.82	15.91	-47.2	-48.4	14.9	0.00e+00	0	27	0	3058696192	60	4165
2026-01-05 13:48:22.65	319.97	15.83	-47.3	-48.4	14.9	0.00e+00	0	27	0	3063939072	60	4187
2026-01-05 13:48:23.64	320.12	15.75	-47.3	-48.5	14.9	0.00e+00	0	27	0	3070230528	60	4196
2026-01-05 13:48:24.62	320.27	15.68	-47.4	-48.6	14.9	0.00e+00	0	27	0	3075473408	60	4253
2026-01-05 13:48:25.61	320.42	15.60	-47.4	-48.5	14.9	0.00e+00	0	27	0	3080716288	60	4232
2026-01-05 13:48:26.60	320.57	15.52	-47.2	-48.4	14.9	0.00e+00	0	27	0	3087007744	60	4150
2026-01-05 13:48:27.59	320.71	15.44	-47.1	-48.2	15.0	0.00e+00	0	27	0	3092250624	60	4062
2026-01-05 13:48:28.58	320.86	15.37	-47.1	-48.2	15.0	0.00e+00	0	27	0	3097493504	60	4081
2026-01-05 13:48:29.57	321.01	15.29	-47.1	-48.2	15.0	0.00e+00	0	27	0	3102736384	60	4098
2026-01-05 13:48:30.56	321.15	15.21	-47.2	-48.3	14.9	0.00e+00	0	27	0	3109027840	60	4134
2026-01-05 13:48:31.55	321.30	15.14	-47.3	-48.5	14.9	0.00e+00	0	27	0	3114270720	60	4206
2026-01-05 13:48:32.54	321.44	15.06	-47.4	-48.6	14.9	0.00e+00	0	27	0	3119513600	60	4249
2026-01-05 13:48:33.52	321.59	14.98	-47.4	-48.6	14.8	0.00e+00	0	27	0	3125805056	60	4256
2026-01-05 13:48:34.51	321.73	14.91	-47.5	-48.6	14.8	0.00e+00	0	27	0	3131047936	60	4288
2026-01-05 13:48:35.50	321.87	14.83	-47.5	-48.7	14.8	0.00e+00	0	27	0	3136290816	60	4321
2026-01-05 13:48:36.49	322.01	14.76	-47.5	-48.7	14.8	0.00e+00	0	27	0	3142582272	60	4309
2026-01-05 13:48:37.49	322.16	14.68	-47.5	-48.7	14.8	0.00e+00	0	27	0	3147825152	60	4325
2026-01-05 13:48:38.49	322.30	14.60	-47.5	-48.7	14.8	0.00e+00	0	27	0	3153068032	60	4293
2026-01-05 13:48:39.48	322.44	14.53	-47.6	-48.7	14.8	0.00e+00	0	27	0	3159359488	60	4337
2026-01-05 13:48:40.47	322.58	14.45	-47.5	-48.7	14.8	0.00e+00	0	27	0	3164602368	60	4326
2026-01-05 13:48:41.47	322.72	14.37	-47.5	-48.7	14.8	0.00e+00	0	27	0	3169845248	60	4322
2026-01-05 13:48:42.46	322.86	14.30	-47.5	-48.7	14.8	0.00e+00	0	27	0	3176136704	60	4315
2026-01-05 13:48:43.45	322.99	14.22	-47.7	-48.9	14.8	0.00e+00	0	27	0	3181379584	60	4400
2026-01-05 13:48:44.45	323.13	14.14	-47.5	-48.7	14.8	0.00e+00	0	27	0	3186622464	60	4295
2026-01-05 13:48:45.44	323.27	14.07	-47.6	-48.8	14.8	0.00e+00	0	27	0	3192913920	60	4359
2026-01-05 13:48:46.43	323.40	13.99	-47.6	-48.8	14.8	0.00e+00	0	27	0	3198156800	60	4364
2026-01-05 13:48:47.42	323.54	13.92	-47.6	-48.7	14.8	0.00e+00	0	27	0	3203399680	60	4331
2026-01-05 13:48:48.41	323.67	13.84	-47.5	-48.7	14.8	0.00e+00	0	27	0	3209691136	60	4296
2026-01-05 13:48:49.40	323.80	13.77	-47.5	-48.7	14.8	0.00e+00	0	27	0	3214934016	60	4300
2026-01-05 13:48:50.38	323.93	13.69	-47.6	-48.7	14.8	0.00e+00	0	27	0	3220176896	60	4323
2026-01-05 13:48:51.37	324.06	13.62	-47.6	-48.8	14.8	0.00e+00	0	27	0	3225419776	60	4341
2026-01-05 13:48:52.36	324.20	13.54	-47.7	-48.9	14.7	0.00e+00	0	27	0	3231711232	60	4429
2026-01-05 13:48:53.35	324.33	13.47	-47.8	-48.9	14.7	0.00e+00	0	27	0	3236954112	60	4430
2026-01-05 13:48:54.34	324.46	13.39	-47.7	-48.9	14.7	0.00e+00	0	27	0	3242196992	60	4427
2026-01-05 13:48:55.34	324.59	13.32	-47.8	-49.0	14.7	0.00e+00	0	27	0	3248488448	60	4465
2026-01-05 13:48:56.34	324.72	13.24	-47.8	-49.0	14.7	0.00e+00	0	27	0	3253731328	60	4476
2026-01-05 13:48:57.33	324.84	13.17	-47.9	-49.1	14.7	0.00e+00	0	27	0	3258974208	60	4510
2026-01-05 13:48:58.32	324.97	13.10	-47.9	-49.1	14.7	0.00e+00	0	27	0	3265265664	61	4281
2026-01-05 13:48:59.31	325.10	13.02	-48.0	-49.2	14.7	0.00e+00	0	27	0	3270508544	61	4336
2026-01-05 13:49:00.30	325.23	12.95	-48.1	-49.3	14.7	0.00e+00	0	27	0	3275751424	61	4376
2026-01-05 13:49:01.29	325.35	12.87	-48.1	-49.3	14.7	0.00e+00	0	27	0	3280994304	61	4376
2026-01-05 13:49:02.28	325.48	12.80	-48.0	-49.3	14.7	0.00e+00	0	27	0	3287285760	61	4347
2026-01-05 13:49:03.28	325.60	12.72	-48.0	-49.3	14.7	0.00e+00	0	27	0	3292528640	61	4346
2026-01-05 13:49:04.27	325.72	12.65	-48.1	-49.4	14.7	0.00e+00	0	27	0	3298820096	61	4414
2026-01-05 13:49:05.27	325.85	12.58	-48.0	-49.2	14.7	0.00e+00	0	27	0	3304062976	61	4327
2026-01-05 13:49:06.26	325.97	12.50	-47.9	-49.2	14.7	0.00e+00	0	27	0	3309305856	61	4295
2026-01-05 13:49:07.26	326.09	12.43	-48.0	-49.2	14.7	0.00e+00	0	27	0	3315597312	61	4296
2026-01-05 13:49:08.25	326.22	12.36	-47.9	-49.1	14.7	0.00e+00	0	27	0	3320840192	61	4267
2026-01-05 13:49:09.24	326.34	12.28	-47.9	-49.0	14.8	0.00e+00	0	27	0	3326083072	61	4236
2026-01-05 13:49:10.23	326.46	12.21	-47.8	-48.9	14.8	0.00e+00	0	27	0	3332374528	61	4181
2026-01-05 13:49:11.21	326.58	12.14	-47.8	-48.9	14.8	0.00e+00	0	27	0	3337617408	61	4185
2026-01-05 13:49:12.20	326.69	12.07	-47.7	-48.9	14.8	0.00e+00	0	27	0	3342860288	61	4161
2026-01-05 13:49:13.19	326.81	11.99	-47.7	-48.9	14.8	0.00e+00	0	27	0	3348103168	61	4179
2026-01-05 13:49:14.18	326.93	11.92	-47.8	-49.0	14.8	0.00e+00	0	27	0	3354394624	61	4210
2026-01-05 13:49:15.17	327.05	11.85	-47.9	-49.1	14.8	0.00e+00	0	27	0	3359637504	61	4251
2026-01-05 13:49:16.17	327.17	11.77	-47.8	-49.0	14.8	0.00e+00	0	27	0	3364880384	61	4200
2026-01-05 13:49:17.17	327.28	11.70	-47.8	-49.0	14.8	0.00e+00	0	27	0	3371171840	61	4229
2026-01-05 13:49:18.17	327.40	11.63	-47.9	-49.1	14.7	0.00e+00	0	27	0	3376414720	61	4271
2026-01-05 13:49:19.15	327.51	11.56	-47.9	-49.1	14.7	0.00e+00	0	27	0	3382706176	61	4261
2026-01-05 13:49:20.14	327.63	11.49	-48.0	-49.2	14.7	0.00e+00	0	27	0	3387949056	61	4329
2026-01-05 13:49:21.13	327.74	11.41	-48.0	-49.3	14.7	0.00e+00	0	27	0	3393191936	61	4351
2026-01-05 13:49:22.12	327.86	11.34	-48.0	-49.3	14.7	0.00e+00	0	27	0	3398434816	61	4346
2026-01-05 13:49:23.11	327.97	11.27	-48.1	-49.3	14.7	0.00e+00	0	27	0	3404726272	61	4364
2026-01-05 13:49:24.10	328.08	11.20	-48.2	-49.4	14.6	0.00e+00	0	27	0	3409969152	61	4425
2026-01-05 13:49:25.09	328.19	11.13	-48.3	-49.6	14.6	0.00e+00	0	27	0	3415212032	61	4495
2026-01-05 13:49:26.08	328.31	11.06	-48.2	-49.5	14.6	0.00e+00	0	27	0	3421503488	61	4448
2026-01-05 13:49:27.08	328.42	10.98	-48.3	-49.6	14.6	0.00e+00	0	27	0	3426746368	61	4522
2026-01-05 13:49:28.08	328.53	10.91	-48.3	-49.6	14.6	0.00e+00	0	27	0	3431989248	61	4518
2026-01-05 13:49:29.08	328.64	10.84	-48.3	-49.6	14.5	0.00e+00	0	27	0	3438280704	61	4531
2026-01-05 13:49:30.06	328.75	10.77	-48.4	-49.6	14.5	0.00e+00	0	27	0	3443523584	61	4544
2026-01-05 13:49:31.04	328.86	10.70	-48.4	-49.7	14.5	0.00e+00	0	27	0	3448766464	61	4551
2026-01-05 13:49:32.03	328.97	10.63	-48.4	-49.6	14.5	0.00e+00	0	27	0	3454009344	61	4538
2026-01-05 13:49:33.03	329.07	10.56	-48.3	-49.6	14.6	0.00e+00	0	27	0	3460300800	61	4504
2026-01-05 13:49:34.02	329.18	10.49	-48.4	-49.7	14.5	0.00e+00	0	27	0	3465543680	61	4552
2026-01-05 13:49:35.01	329.29	10.42	-48.3	-49.6	14.6	0.00e+00	0	27	0	3471835136	61	4497
2026-01-05 13:49:36.00	329.40	10.35	-48.5	-49.7	14.6	0.00e+00	0	27	0	3477078016	62	4333
2026-01-05 13:49:36.99	329.50	10.28	-48.4	-49.7	14.6	0.00e+00	0	27	0	3482320896	62	4306
2026-01-05 13:49:37.98	329.61	10.21	-48.5	-49.8	14.6	0.00e+00	0	27	0	3487563776	62	4365
2026-01-05 13:49:38.98	329.71	10.14	-48.6	-49.9	14.5	0.00e+00	0	27	0	3493855232	62	4396
2026-01-05 13:49:39.97	329.82	10.07	-48.6	-49.8	14.5	0.00e+00	0	27	0	3499098112	62	4388
2026-01-05 13:49:40.97	329.92	10.00	-48.6	-49.9	14.5	0.00e+00	0	27	0	3504340992	62	4418
2026-01-05 13:49:41.96	330.03	9.93	-48.6	-49.8	14.5	0.00e+00	0	27	0	3510632448	62	4387
2026-01-05 13:49:42.95	330.13	9.86	-48.6	-49.9	14.5	0.00e+00	0	27	0	3515875328	62	4420
2026-01-05 13:49:43.94	330.23	9.79	-48.6	-49.8	14.5	0.00e+00	0	27	0	3521118208	62	4386
2026-01-05 13:49:44.93	330.33	9.72	-48.6	-49.9	14.5	0.00e+00	0	27	0	3527409664	62	4405
2026-01-05 13:49:45.92	330.44	9.65	-48.7	-50.0	14.5	0.00e+00	0	27	0	3532652544	62	4483
