passes_logs/2026/01/05/R3.2S_Murmansk/R3.2S_Murmansk__20260105_033949_FENGYUN_3D_rec.log

#Pass ID: 20260105_033949_FENGYUN 3D
#Satellite: FENGYUN 3D
#Configuration: FENGYUN 3D
#almurnet v.1.7.20251203
#Start time: 2026-01-05 03:39:49

#Version: 2.2.20231116
#Station: R3.2S_Murmansk
#Location: 33.079688 lon 68.888172 lat
#TLE: 1 43010U 17072A   26004.50247883 -.00000063  00000+0 -78815-5 0  9998
#TLE: 2 43010  98.9915 336.1565 0001968 126.3752 233.7605 14.19691805421760

#Time	Az	El	Level	Level2	SNR	BER	BlckErr	Temp	State	Recorded	gain1	gain2
2026-01-05 03:39:49.49	29.20	1.98	-58.1	-71.1	3.8	8.46e-01	0	25	0	0	82	16014
2026-01-05 03:39:50.49	29.18	2.04	-58.1	-71.1	3.8	8.46e-01	0	26	104	0	81	16935
2026-01-05 03:39:51.48	29.16	2.10	-58.1	-71.1	3.8	8.46e-01	0	26	104	0	81	16916
2026-01-05 03:39:52.48	29.15	2.17	-58.1	-71.1	3.8	8.45e-01	0	26	104	0	81	16891
2026-01-05 03:39:53.48	29.13	2.23	-58.1	-71.1	3.8	8.46e-01	0	26	104	0	81	16927
2026-01-05 03:39:54.48	29.11	2.29	-58.1	-71.1	3.8	8.47e-01	0	26	104	0	81	16948
2026-01-05 03:39:55.48	29.09	2.36	-58.1	-71.1	3.8	8.45e-01	0	26	104	0	81	16895
2026-01-05 03:39:56.48	29.07	2.42	-58.1	-71.1	3.8	8.45e-01	0	26	104	0	81	16933
2026-01-05 03:39:57.48	29.05	2.48	-58.1	-71.1	3.8	8.46e-01	0	26	104	0	81	16950
2026-01-05 03:39:58.47	29.03	2.55	-58.0	-71.0	3.8	8.46e-01	0	26	104	0	81	16838
2026-01-05 03:39:59.47	29.01	2.61	-58.1	-71.1	3.8	8.46e-01	0	26	104	0	81	16920
2026-01-05 03:40:00.48	28.99	2.68	-58.1	-71.1	3.8	8.46e-01	0	26	104	0	81	16915
2026-01-05 03:40:01.48	28.97	2.74	-58.1	-71.0	3.8	8.44e-01	0	26	104	0	81	16837
2026-01-05 03:40:02.48	28.95	2.81	-58.1	-71.1	3.8	8.45e-01	0	26	104	0	81	16893
2026-01-05 03:40:03.48	28.93	2.87	-58.1	-71.1	3.8	8.44e-01	0	26	104	0	81	16907
2026-01-05 03:40:04.48	28.91	2.94	-58.1	-71.0	3.8	8.46e-01	0	26	104	0	81	16856
2026-01-05 03:40:05.48	28.89	3.00	-58.1	-71.0	3.8	8.45e-01	0	26	104	0	81	16813
2026-01-05 03:40:06.48	28.87	3.07	-58.1	-71.0	3.8	8.46e-01	0	26	104	0	81	16700
2026-01-05 03:40:07.48	28.85	3.14	-58.1	-70.8	3.8	8.45e-01	0	26	104	0	81	16459
2026-01-05 03:40:08.48	28.83	3.20	-58.0	-70.5	3.8	8.46e-01	0	26	104	0	81	15822
2026-01-05 03:40:09.48	28.81	3.27	-58.0	-70.1	3.8	8.45e-01	0	26	104	0	81	15071
2026-01-05 03:40:10.48	28.79	3.33	-58.0	-69.7	3.8	8.45e-01	0	26	104	0	81	14431
2026-01-05 03:40:11.48	28.77	3.40	-57.9	-69.3	3.8	8.44e-01	0	26	104	0	81	13825
2026-01-05 03:40:12.48	28.75	3.47	-57.9	-69.0	3.8	8.44e-01	0	26	104	0	81	13408
2026-01-05 03:40:13.47	28.73	3.53	-57.9	-68.6	3.8	8.43e-01	0	26	104	0	81	12681
2026-01-05 03:40:14.47	28.71	3.60	-57.9	-68.3	4.0	8.45e-01	0	26	104	0	81	12358
2026-01-05 03:40:15.46	28.69	3.66	-57.8	-68.3	4.0	8.43e-01	0	26	0	0	81	12278
2026-01-05 03:40:16.46	28.67	3.73	-57.8	-67.9	4.1	8.39e-01	0	26	0	0	81	11803
2026-01-05 03:40:17.45	28.64	3.80	-57.8	-68.4	3.9	8.41e-01	0	26	104	0	81	12379
2026-01-05 03:40:18.45	28.62	3.87	-57.9	-68.8	3.8	8.43e-01	0	26	104	0	81	12974
2026-01-05 03:40:19.45	28.60	3.93	-58.0	-69.3	3.8	8.44e-01	0	26	104	0	81	13846
2026-01-05 03:40:20.46	28.58	4.00	-58.0	-70.0	3.8	8.46e-01	0	26	104	0	81	14911
2026-01-05 03:40:21.46	28.56	4.07	-58.0	-70.4	3.8	8.46e-01	0	26	104	0	81	15611
2026-01-05 03:40:22.47	28.54	4.14	-58.0	-70.4	3.8	8.47e-01	0	26	104	0	81	15642
2026-01-05 03:40:23.47	28.51	4.21	-58.0	-69.6	3.8	8.46e-01	0	26	104	0	81	14303
2026-01-05 03:40:24.48	28.49	4.28	-57.9	-68.4	3.9	8.43e-01	0	26	104	0	81	12489
2026-01-05 03:40:25.48	28.47	4.34	-57.6	-66.3	4.6	8.27e-01	0	27	0	0	81	9743
2026-01-05 03:40:26.49	28.45	4.41	-57.3	-64.4	5.5	7.44e-01	0	26	0	0	81	7868
2026-01-05 03:40:27.49	28.42	4.48	-57.0	-63.2	6.3	2.93e-01	0	27	0	5242880	80	7248
2026-01-05 03:40:28.48	28.40	4.55	-56.5	-61.8	7.4	1.18e-01	0	27	0	10485760	79	6509
2026-01-05 03:40:29.48	28.38	4.62	-56.2	-60.9	8.2	4.47e-02	0	27	0	16777216	79	5892
2026-01-05 03:40:30.48	28.35	4.69	-55.7	-59.9	9.1	1.60e-02	0	26	0	22020096	78	5534
2026-01-05 03:40:31.49	28.33	4.76	-55.4	-59.1	9.7	4.26e-03	0	26	0	28311552	77	5368
2026-01-05 03:40:32.48	28.31	4.83	-55.2	-58.8	10.0	2.45e-03	0	26	0	33554432	77	5181
2026-01-05 03:40:33.48	28.29	4.90	-55.0	-58.4	10.2	1.59e-03	0	27	0	38797312	76	5275
2026-01-05 03:40:34.47	28.26	4.97	-54.8	-58.0	10.5	9.18e-04	0	27	0	44040192	76	5030
2026-01-05 03:40:35.47	28.24	5.04	-55.1	-58.6	10.1	6.53e-04	0	27	0	50331648	76	5353
2026-01-05 03:40:36.47	28.21	5.11	-53.9	-56.5	11.6	1.84e-03	0	27	0	55574528	74	4737
2026-01-05 03:40:37.47	28.19	5.18	-54.0	-56.7	11.5	0.00e+00	0	27	0	60817408	72	5433
2026-01-05 03:40:38.47	28.17	5.25	-55.9	-60.0	9.0	2.14e-01	0	27	0	67108864	78	5598
2026-01-05 03:40:39.46	28.14	5.32	-51.2	-52.9	13.7	1.71e-05	0	27	0	72351744	69	4167
2026-01-05 03:40:40.47	28.12	5.39	-53.3	-55.7	12.1	2.78e-04	0	27	0	78643200	73	4553
2026-01-05 03:40:41.47	28.09	5.46	-51.3	-53.0	13.6	0.00e+00	0	27	0	83886080	69	4199
2026-01-05 03:40:42.47	28.07	5.54	-51.0	-52.6	13.7	0.00e+00	0	27	0	89128960	68	4271
2026-01-05 03:40:43.46	28.04	5.61	-51.0	-52.6	13.7	0.00e+00	0	27	0	95420416	68	4286
2026-01-05 03:40:44.45	28.02	5.68	-50.4	-51.9	14.0	0.00e+00	0	27	0	100663296	67	4167
2026-01-05 03:40:45.45	27.99	5.75	-49.7	-51.2	14.3	0.00e+00	0	27	0	105906176	66	4055
2026-01-05 03:40:46.46	27.97	5.82	-49.9	-51.3	14.2	0.00e+00	0	27	0	112197632	66	4129
2026-01-05 03:40:47.46	27.94	5.90	-49.9	-51.4	14.2	0.00e+00	0	27	0	117440512	66	4147
2026-01-05 03:40:48.45	27.92	5.97	-49.8	-51.3	14.2	0.00e+00	0	27	0	122683392	66	4117
2026-01-05 03:40:49.45	27.89	6.04	-49.8	-51.2	14.3	0.00e+00	0	27	0	128974848	66	4066
2026-01-05 03:40:50.45	27.87	6.11	-49.8	-51.3	14.2	0.00e+00	0	27	0	134217728	66	4110
2026-01-05 03:40:51.45	27.84	6.19	-49.5	-51.0	14.3	0.00e+00	0	27	0	140509184	65	4199
2026-01-05 03:40:52.45	27.81	6.26	-49.7	-51.1	14.2	0.00e+00	0	27	0	145752064	65	4266
2026-01-05 03:40:53.45	27.79	6.34	-49.6	-51.0	14.3	0.00e+00	0	27	0	150994944	65	4209
2026-01-05 03:40:54.45	27.76	6.41	-49.4	-50.8	14.4	0.00e+00	0	27	0	157286400	65	4112
2026-01-05 03:40:55.46	27.74	6.48	-49.5	-50.9	14.3	0.00e+00	0	27	0	162529280	65	4153
2026-01-05 03:40:56.46	27.71	6.56	-49.4	-50.8	14.4	0.00e+00	0	27	0	167772160	65	4141
2026-01-05 03:40:57.45	27.68	6.63	-49.5	-50.9	14.3	0.00e+00	0	27	0	174063616	65	4158
2026-01-05 03:40:58.45	27.65	6.71	-49.5	-50.9	14.3	0.00e+00	0	27	0	179306496	65	4171
2026-01-05 03:40:59.44	27.63	6.78	-49.5	-50.9	14.3	0.00e+00	0	27	0	184549376	65	4180
2026-01-05 03:41:00.44	27.60	6.86	-49.4	-50.8	14.4	0.00e+00	0	27	0	190840832	65	4113
2026-01-05 03:41:01.44	27.57	6.93	-49.5	-50.9	14.3	0.00e+00	0	27	0	196083712	65	4164
2026-01-05 03:41:02.44	27.55	7.01	-49.4	-50.8	14.4	0.00e+00	0	27	0	202375168	65	4100
2026-01-05 03:41:03.44	27.52	7.08	-49.4	-50.8	14.4	0.00e+00	0	27	0	207618048	65	4106
2026-01-05 03:41:04.43	27.49	7.16	-49.3	-50.7	14.4	0.00e+00	0	27	0	212860928	65	4080
2026-01-05 03:41:05.44	27.46	7.24	-49.4	-50.8	14.4	0.00e+00	0	27	0	219152384	65	4109
2026-01-05 03:41:06.43	27.43	7.31	-49.4	-50.8	14.4	0.00e+00	0	27	0	224395264	65	4111
2026-01-05 03:41:07.43	27.40	7.39	-49.3	-50.7	14.5	0.00e+00	0	27	0	229638144	65	4074
2026-01-05 03:41:08.43	27.38	7.46	-49.3	-50.7	14.5	0.00e+00	0	27	0	235929600	65	4055
2026-01-05 03:41:09.43	27.35	7.54	-49.2	-50.6	14.5	0.00e+00	0	27	0	241172480	65	4014
2026-01-05 03:41:10.43	27.32	7.62	-49.3	-50.7	14.5	0.00e+00	0	27	0	246415360	65	4063
2026-01-05 03:41:11.41	27.29	7.70	-49.3	-50.7	14.5	0.00e+00	0	27	0	252706816	65	4073
2026-01-05 03:41:12.40	27.26	7.77	-49.4	-50.8	14.4	0.00e+00	0	27	0	257949696	65	4105
2026-01-05 03:41:13.41	27.23	7.85	-49.4	-50.7	14.5	0.00e+00	0	27	0	263192576	65	4079
2026-01-05 03:41:14.40	27.20	7.93	-49.3	-50.6	14.5	0.00e+00	0	27	0	269484032	65	4037
2026-01-05 03:41:15.40	27.17	8.01	-49.1	-50.4	14.5	0.00e+00	0	27	0	274726912	64	4167
2026-01-05 03:41:16.40	27.14	8.09	-49.1	-50.4	14.5	0.00e+00	0	27	0	279969792	64	4166
2026-01-05 03:41:17.39	27.11	8.16	-49.1	-50.5	14.5	0.00e+00	0	27	0	286261248	64	4210
2026-01-05 03:41:18.38	27.08	8.24	-49.1	-50.4	14.5	0.00e+00	0	27	0	291504128	64	4176
2026-01-05 03:41:19.39	27.05	8.32	-49.0	-50.3	14.5	0.00e+00	0	27	0	297795584	64	4123
2026-01-05 03:41:20.39	27.02	8.40	-49.0	-50.3	14.5	0.00e+00	0	27	0	303038464	64	4141
2026-01-05 03:41:21.39	26.99	8.48	-49.0	-50.3	14.6	0.00e+00	0	27	0	308281344	64	4106
2026-01-05 03:41:22.38	26.96	8.56	-49.0	-50.3	14.6	0.00e+00	0	27	0	313524224	64	4109
2026-01-05 03:41:23.37	26.93	8.64	-48.9	-50.1	14.6	0.00e+00	0	27	0	319815680	64	4051
2026-01-05 03:41:24.37	26.89	8.72	-48.8	-50.1	14.6	0.00e+00	0	27	0	325058560	64	4028
2026-01-05 03:41:25.37	26.86	8.80	-48.8	-50.1	14.6	0.00e+00	0	27	0	330301440	64	4034
2026-01-05 03:41:26.37	26.83	8.89	-48.8	-50.1	14.7	0.00e+00	0	27	0	336592896	64	4021
2026-01-05 03:41:27.36	26.80	8.97	-48.8	-50.0	14.7	0.00e+00	0	27	0	341835776	64	4001
2026-01-05 03:41:28.36	26.77	9.05	-48.7	-50.0	14.7	0.00e+00	0	27	0	348127232	64	3987
2026-01-05 03:41:29.36	26.73	9.13	-48.7	-50.0	14.7	0.00e+00	0	27	0	353370112	64	3966
2026-01-05 03:41:30.36	26.70	9.21	-48.6	-49.9	14.6	0.00e+00	0	27	0	358612992	63	4174
2026-01-05 03:41:31.36	26.67	9.29	-48.6	-49.9	14.6	0.00e+00	0	27	0	364904448	63	4181
2026-01-05 03:41:32.35	26.63	9.38	-48.6	-49.9	14.6	0.00e+00	0	27	0	370147328	63	4174
2026-01-05 03:41:33.35	26.60	9.46	-48.7	-50.0	14.6	0.00e+00	0	27	0	375390208	63	4222
2026-01-05 03:41:34.35	26.57	9.54	-48.7	-49.9	14.6	0.00e+00	0	27	0	381681664	63	4186
2026-01-05 03:41:35.36	26.53	9.63	-48.6	-49.9	14.6	0.00e+00	0	27	0	386924544	63	4154
2026-01-05 03:41:36.37	26.50	9.71	-48.6	-49.9	14.6	0.00e+00	0	27	0	392167424	63	4189
2026-01-05 03:41:37.36	26.46	9.79	-48.6	-49.9	14.7	0.00e+00	0	27	0	398458880	63	4159
2026-01-05 03:41:38.36	26.43	9.88	-48.6	-49.8	14.7	0.00e+00	0	27	0	403701760	63	4141
2026-01-05 03:41:39.35	26.39	9.96	-48.6	-49.8	14.7	0.00e+00	0	27	0	409993216	63	4130
2026-01-05 03:41:40.35	26.36	10.05	-48.5	-49.8	14.7	0.00e+00	0	27	0	415236096	63	4113
2026-01-05 03:41:41.36	26.32	10.13	-48.5	-49.8	14.7	0.00e+00	0	27	0	420478976	63	4118
2026-01-05 03:41:42.36	26.29	10.22	-48.5	-49.8	14.7	0.00e+00	0	27	0	426770432	63	4121
2026-01-05 03:41:43.37	26.25	10.31	-48.6	-49.8	14.7	0.00e+00	0	27	0	432013312	63	4145
2026-01-05 03:41:44.36	26.22	10.39	-48.5	-49.8	14.7	0.00e+00	0	27	0	437256192	63	4109
2026-01-05 03:41:45.36	26.18	10.48	-48.6	-49.8	14.7	0.00e+00	0	27	0	443547648	63	4131
2026-01-05 03:41:46.36	26.14	10.56	-48.5	-49.8	14.7	0.00e+00	0	27	0	448790528	63	4117
2026-01-05 03:41:47.36	26.11	10.65	-48.5	-49.8	14.7	0.00e+00	0	27	0	454033408	63	4101
2026-01-05 03:41:48.36	26.07	10.74	-48.6	-49.9	14.7	0.00e+00	0	27	0	460324864	63	4160
2026-01-05 03:41:49.36	26.03	10.83	-48.6	-49.8	14.7	0.00e+00	0	27	0	465567744	63	4135
2026-01-05 03:41:50.36	26.00	10.91	-48.5	-49.8	14.7	0.00e+00	0	27	0	471859200	63	4121
2026-01-05 03:41:51.37	25.96	11.00	-48.6	-49.8	14.7	0.00e+00	0	27	0	477102080	63	4125
2026-01-05 03:41:52.36	25.92	11.09	-48.5	-49.7	14.7	0.00e+00	0	27	0	482344960	63	4094
2026-01-05 03:41:53.36	25.88	11.18	-48.5	-49.7	14.7	0.00e+00	0	27	0	488636416	63	4080
2026-01-05 03:41:54.35	25.84	11.27	-48.4	-49.6	14.8	0.00e+00	0	27	0	493879296	63	4049
2026-01-05 03:41:55.36	25.80	11.36	-48.3	-49.5	14.8	0.00e+00	0	27	0	499122176	63	3991
2026-01-05 03:41:56.36	25.77	11.45	-48.3	-49.5	14.8	0.00e+00	0	27	0	505413632	63	4004
2026-01-05 03:41:57.36	25.73	11.54	-48.2	-49.5	14.9	0.00e+00	0	27	0	510656512	63	3966
2026-01-05 03:41:58.35	25.69	11.63	-48.2	-49.4	14.9	0.00e+00	0	27	0	515899392	63	3941
2026-01-05 03:41:59.35	25.65	11.72	-48.2	-49.4	14.7	0.00e+00	0	27	0	522190848	62	4186
2026-01-05 03:42:00.35	25.61	11.81	-48.2	-49.5	14.7	0.00e+00	0	27	0	527433728	62	4201
2026-01-05 03:42:01.35	25.57	11.90	-48.1	-49.3	14.8	0.00e+00	0	27	0	533725184	62	4131
2026-01-05 03:42:02.35	25.53	11.99	-48.1	-49.3	14.8	0.00e+00	0	27	0	538968064	62	4125
2026-01-05 03:42:03.35	25.49	12.08	-48.1	-49.3	14.8	0.00e+00	0	27	0	544210944	62	4125
2026-01-05 03:42:04.35	25.44	12.18	-48.1	-49.3	14.8	0.00e+00	0	27	0	550502400	62	4138
2026-01-05 03:42:05.35	25.40	12.27	-48.1	-49.3	14.8	0.00e+00	0	27	0	555745280	62	4132
2026-01-05 03:42:06.35	25.36	12.36	-48.0	-49.2	14.8	0.00e+00	0	27	0	560988160	62	4065
2026-01-05 03:42:07.35	25.32	12.45	-47.9	-49.1	14.9	0.00e+00	0	27	0	567279616	62	4041
2026-01-05 03:42:08.35	25.28	12.55	-47.9	-49.1	14.8	0.00e+00	0	27	0	572522496	62	4051
2026-01-05 03:42:09.34	25.23	12.64	-48.0	-49.2	14.8	0.00e+00	0	27	0	577765376	62	4064
2026-01-05 03:42:10.33	25.19	12.73	-47.9	-49.1	14.9	0.00e+00	0	27	0	584056832	62	4033
2026-01-05 03:42:11.33	25.15	12.83	-47.9	-49.1	14.9	0.00e+00	0	27	0	589299712	62	4030
2026-01-05 03:42:12.32	25.11	12.92	-47.8	-49.0	14.9	0.00e+00	0	27	0	594542592	62	3971
2026-01-05 03:42:13.32	25.06	13.02	-47.8	-49.0	14.9	0.00e+00	0	27	0	600834048	62	3995
2026-01-05 03:42:14.32	25.02	13.11	-47.7	-48.9	14.9	0.00e+00	0	27	0	606076928	62	3951
2026-01-05 03:42:15.31	24.97	13.21	-47.8	-49.0	14.9	0.00e+00	0	27	0	611319808	62	3963
2026-01-05 03:42:16.31	24.93	13.31	-47.8	-49.0	14.9	0.00e+00	0	27	0	617611264	62	3967
2026-01-05 03:42:17.31	24.88	13.40	-47.7	-48.9	15.0	0.00e+00	0	27	0	622854144	62	3937
2026-01-05 03:42:18.30	24.84	13.50	-47.8	-49.0	14.9	0.00e+00	0	27	0	628097024	62	3969
2026-01-05 03:42:19.30	24.79	13.60	-47.8	-49.0	14.9	0.00e+00	0	27	0	634388480	62	3971
2026-01-05 03:42:20.30	24.75	13.69	-47.9	-49.1	14.9	0.00e+00	0	28	0	639631360	62	4042
2026-01-05 03:42:21.30	24.70	13.79	-47.9	-49.1	14.9	0.00e+00	0	27	0	645922816	62	4023
2026-01-05 03:42:22.30	24.65	13.89	-47.7	-48.8	15.0	0.00e+00	0	27	0	651165696	62	3912
2026-01-05 03:42:23.30	24.61	13.99	-47.5	-48.7	14.9	0.00e+00	0	27	0	656408576	61	4057
2026-01-05 03:42:24.30	24.56	14.09	-47.5	-48.7	14.9	0.00e+00	0	27	0	662700032	61	4053
2026-01-05 03:42:25.29	24.51	14.19	-47.4	-48.6	15.0	0.00e+00	0	27	0	667942912	61	4020
2026-01-05 03:42:26.29	24.46	14.29	-47.5	-48.6	14.9	0.00e+00	0	27	0	673185792	61	4046
2026-01-05 03:42:27.29	24.42	14.39	-47.4	-48.6	15.0	0.00e+00	0	27	0	679477248	61	4022
2026-01-05 03:42:28.28	24.37	14.49	-47.4	-48.5	15.0	0.00e+00	0	27	0	684720128	61	4004
2026-01-05 03:42:29.28	24.32	14.59	-47.3	-48.5	15.0	0.00e+00	0	27	0	689963008	61	3986
2026-01-05 03:42:30.28	24.27	14.69	-47.4	-48.5	15.0	0.00e+00	0	27	0	696254464	61	3990
2026-01-05 03:42:31.28	24.22	14.79	-47.3	-48.4	15.0	0.00e+00	0	27	0	701497344	61	3953
2026-01-05 03:42:32.28	24.17	14.90	-47.3	-48.4	15.0	0.00e+00	0	27	0	706740224	61	3947
2026-01-05 03:42:33.28	24.12	15.00	-47.3	-48.4	15.0	0.00e+00	0	27	0	713031680	61	3953
2026-01-05 03:42:34.28	24.07	15.10	-47.1	-48.3	15.0	0.00e+00	0	27	0	718274560	60	4114
2026-01-05 03:42:35.29	24.01	15.21	-47.2	-48.3	14.9	0.00e+00	0	27	0	724566016	60	4135
2026-01-05 03:42:36.29	23.96	15.31	-47.1	-48.2	15.0	0.00e+00	0	27	0	729808896	60	4094
2026-01-05 03:42:37.29	23.91	15.42	-47.0	-48.1	15.0	0.00e+00	0	27	0	735051776	60	4027
2026-01-05 03:42:38.29	23.86	15.52	-47.0	-48.1	15.0	0.00e+00	0	27	0	741343232	60	4043
2026-01-05 03:42:39.28	23.81	15.63	-46.9	-48.0	15.0	0.00e+00	0	27	0	746586112	60	3995
2026-01-05 03:42:40.28	23.75	15.73	-46.9	-48.0	15.0	0.00e+00	0	27	0	751828992	60	4004
2026-01-05 03:42:41.28	23.70	15.84	-46.9	-48.0	15.0	0.00e+00	0	27	0	758120448	60	3978
2026-01-05 03:42:42.27	23.64	15.94	-46.8	-48.0	15.1	0.00e+00	0	27	0	763363328	60	3970
2026-01-05 03:42:43.27	23.59	16.05	-46.8	-47.9	15.1	0.00e+00	0	27	0	768606208	60	3946
2026-01-05 03:42:44.26	23.54	16.16	-46.8	-47.9	15.1	0.00e+00	0	27	0	774897664	60	3949
2026-01-05 03:42:45.26	23.48	16.27	-46.8	-47.9	15.1	0.00e+00	0	27	0	780140544	60	3945
2026-01-05 03:42:46.26	23.42	16.38	-46.8	-47.9	15.1	0.00e+00	0	27	0	785383424	60	3931
2026-01-05 03:42:47.26	23.37	16.48	-46.8	-47.9	15.1	0.00e+00	0	27	0	791674880	60	3947
2026-01-05 03:42:48.26	23.31	16.59	-46.8	-47.9	15.1	0.00e+00	0	27	0	796917760	60	3934
2026-01-05 03:42:49.26	23.25	16.70	-46.8	-47.9	15.1	0.00e+00	0	27	0	803209216	60	3938
2026-01-05 03:42:50.26	23.20	16.81	-46.8	-47.9	15.1	0.00e+00	0	27	0	808452096	60	3923
2026-01-05 03:42:51.26	23.14	16.93	-47.0	-48.2	14.9	0.00e+00	0	27	0	813694976	59	4300
2026-01-05 03:42:52.26	23.08	17.04	-47.1	-48.3	14.9	0.00e+00	0	28	0	819986432	59	4343
2026-01-05 03:42:53.27	23.02	17.15	-47.2	-48.4	14.9	0.00e+00	0	27	0	825229312	59	4395
2026-01-05 03:42:54.27	22.96	17.26	-47.1	-48.3	14.9	0.00e+00	0	27	0	830472192	59	4357
2026-01-05 03:42:55.27	22.90	17.38	-47.2	-48.4	14.9	0.00e+00	0	27	0	836763648	59	4392
2026-01-05 03:42:56.28	22.84	17.49	-46.9	-48.1	14.9	0.00e+00	0	28	0	842006528	59	4257
2026-01-05 03:42:57.27	22.78	17.60	-46.9	-48.1	14.9	0.00e+00	0	28	0	847249408	59	4253
2026-01-05 03:42:58.26	22.72	17.72	-46.9	-48.0	15.0	0.00e+00	0	27	0	853540864	59	4235
2026-01-05 03:42:59.27	22.66	17.83	-46.8	-48.0	15.0	0.00e+00	0	27	0	858783744	59	4206
2026-01-05 03:43:00.26	22.59	17.95	-46.7	-47.9	15.0	0.00e+00	0	28	0	865075200	59	4150
2026-01-05 03:43:01.26	22.53	18.06	-46.7	-47.8	15.0	0.00e+00	0	27	0	870318080	59	4141
2026-01-05 03:43:02.27	22.47	18.18	-46.7	-47.8	15.0	0.00e+00	0	28	0	875560960	59	4119
2026-01-05 03:43:03.27	22.40	18.30	-46.7	-47.9	15.0	0.00e+00	0	27	0	881852416	59	4154
2026-01-05 03:43:04.27	22.34	18.41	-46.8	-47.9	15.0	0.00e+00	0	27	0	887095296	59	4166
2026-01-05 03:43:05.27	22.27	18.53	-46.7	-47.8	15.0	0.00e+00	0	28	0	892338176	59	4133
2026-01-05 03:43:06.26	22.21	18.65	-46.7	-47.8	15.0	0.00e+00	0	27	0	898629632	59	4122
2026-01-05 03:43:07.26	22.14	18.77	-46.7	-47.9	15.0	0.00e+00	0	28	0	903872512	59	4153
2026-01-05 03:43:08.26	22.08	18.89	-46.7	-47.8	15.0	0.00e+00	0	27	0	909115392	59	4124
2026-01-05 03:43:09.26	22.01	19.01	-46.7	-47.8	15.0	0.00e+00	0	27	0	915406848	59	4124
2026-01-05 03:43:10.26	21.94	19.13	-46.7	-47.9	15.0	0.00e+00	0	27	0	920649728	59	4147
2026-01-05 03:43:11.26	21.87	19.25	-46.6	-47.7	15.1	0.00e+00	0	28	0	926941184	59	4081
2026-01-05 03:43:12.26	21.80	19.37	-46.6	-47.7	15.1	0.00e+00	0	28	0	932184064	59	4066
2026-01-05 03:43:13.25	21.73	19.49	-46.6	-47.7	15.1	0.00e+00	0	27	0	937426944	59	4084
2026-01-05 03:43:14.25	21.66	19.61	-46.6	-47.7	15.1	0.00e+00	0	28	0	943718400	59	4093
2026-01-05 03:43:15.25	21.59	19.74	-46.6	-47.8	15.1	0.00e+00	0	28	0	948961280	59	4100
2026-01-05 03:43:16.24	21.52	19.86	-46.5	-47.6	15.1	0.00e+00	0	27	0	954204160	59	4048
2026-01-05 03:43:17.24	21.45	19.98	-46.5	-47.6	15.1	0.00e+00	0	27	0	960495616	59	4041
2026-01-05 03:43:18.23	21.38	20.11	-46.5	-47.6	15.1	0.00e+00	0	28	0	965738496	59	4034
2026-01-05 03:43:19.23	21.31	20.23	-46.6	-47.7	15.1	0.00e+00	0	27	0	970981376	59	4052
2026-01-05 03:43:20.23	21.23	20.36	-46.5	-47.6	15.1	0.00e+00	0	28	0	977272832	59	4032
2026-01-05 03:43:21.23	21.16	20.49	-46.5	-47.6	15.1	0.00e+00	0	28	0	982515712	59	4031
2026-01-05 03:43:22.23	21.08	20.61	-46.5	-47.5	15.1	0.00e+00	0	27	0	987758592	59	4002
2026-01-05 03:43:23.22	21.01	20.74	-46.5	-47.6	15.1	0.00e+00	0	27	0	994050048	59	4006
2026-01-05 03:43:24.21	20.93	20.87	-46.4	-47.5	15.1	0.00e+00	0	27	0	999292928	59	3986
2026-01-05 03:43:25.21	20.86	21.00	-46.4	-47.5	15.1	0.00e+00	0	28	0	1004535808	59	3970
2026-01-05 03:43:26.21	20.78	21.13	-46.4	-47.5	15.1	0.00e+00	0	28	0	1010827264	59	3961
2026-01-05 03:43:27.21	20.70	21.26	-46.3	-47.4	15.2	0.00e+00	0	28	0	1016070144	59	3946
2026-01-05 03:43:28.21	20.62	21.39	-46.3	-47.4	15.2	0.00e+00	0	27	0	1021313024	59	3932
2026-01-05 03:43:29.21	20.54	21.52	-46.3	-47.4	15.2	0.00e+00	0	27	0	1027604480	59	3928
2026-01-05 03:43:30.21	20.46	21.65	-46.2	-47.3	15.2	0.00e+00	0	28	0	1032847360	59	3902
2026-01-05 03:43:31.21	20.38	21.78	-46.2	-47.3	15.2	0.00e+00	0	27	0	1039138816	59	3878
2026-01-05 03:43:32.21	20.30	21.92	-46.2	-47.3	15.2	0.00e+00	0	28	0	1044381696	59	3892
2026-01-05 03:43:33.21	20.21	22.05	-46.3	-47.4	15.2	0.00e+00	0	28	0	1049624576	59	3915
2026-01-05 03:43:34.20	20.13	22.18	-46.2	-47.3	15.2	0.00e+00	0	27	0	1055916032	59	3870
2026-01-05 03:43:35.19	20.05	22.32	-46.3	-47.4	15.2	0.00e+00	0	28	0	1061158912	59	3920
2026-01-05 03:43:36.19	19.96	22.45	-46.2	-47.3	15.2	0.00e+00	0	27	0	1066401792	59	3882
2026-01-05 03:43:37.19	19.88	22.59	-46.2	-47.3	15.2	0.00e+00	0	28	0	1072693248	59	3906
2026-01-05 03:43:38.19	19.79	22.73	-46.1	-47.2	15.1	0.00e+00	0	28	0	1077936128	58	4079
2026-01-05 03:43:39.19	19.70	22.87	-46.1	-47.1	15.1	0.00e+00	0	28	0	1083179008	58	4048
2026-01-05 03:43:40.19	19.62	23.01	-46.1	-47.1	15.1	0.00e+00	0	28	0	1089470464	58	4046
2026-01-05 03:43:41.19	19.53	23.14	-46.0	-47.1	15.1	0.00e+00	0	27	0	1094713344	58	4038
2026-01-05 03:43:42.20	19.44	23.29	-46.0	-47.0	15.2	0.00e+00	0	27	0	1101004800	58	3994
2026-01-05 03:43:43.20	19.34	23.43	-46.0	-47.0	15.2	0.00e+00	0	28	0	1106247680	58	3996
2026-01-05 03:43:44.20	19.25	23.57	-46.0	-47.1	15.2	0.00e+00	0	27	0	1111490560	58	4008
2026-01-05 03:43:45.20	19.16	23.71	-45.9	-47.0	15.2	0.00e+00	0	28	0	1117782016	58	3965
2026-01-05 03:43:46.20	19.07	23.85	-45.9	-46.9	15.2	0.00e+00	0	28	0	1123024896	58	3956
2026-01-05 03:43:47.20	18.97	24.00	-45.8	-46.9	15.2	0.00e+00	0	27	0	1128267776	58	3937
2026-01-05 03:43:48.20	18.88	24.14	-45.8	-46.9	15.2	0.00e+00	0	28	0	1134559232	58	3934
2026-01-05 03:43:49.20	18.78	24.29	-45.8	-46.8	15.3	0.00e+00	0	28	0	1139802112	58	3902
2026-01-05 03:43:50.20	18.69	24.43	-45.6	-46.6	15.2	0.00e+00	0	28	0	1145044992	57	4041
2026-01-05 03:43:51.20	18.59	24.58	-45.6	-46.7	15.2	0.00e+00	0	28	0	1151336448	57	4064
2026-01-05 03:43:52.19	18.49	24.72	-45.5	-46.5	15.2	0.00e+00	0	28	0	1156579328	57	3995
2026-01-05 03:43:53.18	18.39	24.87	-45.4	-46.5	15.2	0.00e+00	0	28	0	1161822208	57	3969
2026-01-05 03:43:54.18	18.29	25.02	-45.6	-46.6	15.2	0.00e+00	0	28	0	1168113664	57	4040
2026-01-05 03:43:55.18	18.19	25.17	-45.5	-46.5	15.2	0.00e+00	0	28	0	1173356544	57	3988
2026-01-05 03:43:56.18	18.09	25.32	-45.4	-46.5	15.2	0.00e+00	0	27	0	1179648000	57	3966
2026-01-05 03:43:57.18	17.98	25.47	-45.5	-46.5	15.2	0.00e+00	0	28	0	1184890880	57	4000
2026-01-05 03:43:58.19	17.88	25.62	-45.5	-46.5	15.2	0.00e+00	0	27	0	1190133760	57	3988
2026-01-05 03:43:59.19	17.77	25.77	-45.4	-46.5	15.2	0.00e+00	0	27	0	1196425216	57	3973
2026-01-05 03:44:00.19	17.66	25.93	-45.5	-46.6	15.2	0.00e+00	0	28	0	1201668096	57	4018
2026-01-05 03:44:01.19	17.56	26.08	-45.3	-46.3	15.3	0.00e+00	0	28	0	1206910976	57	3909
2026-01-05 03:44:02.20	17.45	26.24	-45.3	-46.3	15.3	0.00e+00	0	28	0	1213202432	57	3907
2026-01-05 03:44:03.20	17.34	26.39	-45.3	-46.3	15.3	0.00e+00	0	28	0	1218445312	57	3907
2026-01-05 03:44:04.20	17.22	26.55	-45.3	-46.3	15.3	0.00e+00	0	28	0	1224736768	57	3882
2026-01-05 03:44:05.20	17.11	26.71	-45.3	-46.3	15.3	0.00e+00	0	27	0	1229979648	57	3899
2026-01-05 03:44:06.20	17.00	26.86	-45.5	-46.5	15.2	0.00e+00	0	28	0	1235222528	57	3992
2026-01-05 03:44:07.20	16.88	27.02	-45.4	-46.4	15.2	0.00e+00	0	28	0	1241513984	57	3956
2026-01-05 03:44:08.20	16.77	27.18	-45.4	-46.4	15.2	0.00e+00	0	27	0	1246756864	57	3957
2026-01-05 03:44:09.21	16.65	27.34	-45.5	-46.5	15.2	0.00e+00	0	27	0	1251999744	57	3988
2026-01-05 03:44:10.20	16.53	27.50	-45.5	-46.5	15.2	0.00e+00	0	27	0	1258291200	57	3988
2026-01-05 03:44:11.21	16.41	27.67	-45.5	-46.5	15.2	0.00e+00	0	28	0	1263534080	57	3994
2026-01-05 03:44:12.21	16.29	27.83	-45.5	-46.6	15.2	0.00e+00	0	28	0	1269825536	57	4007
2026-01-05 03:44:13.20	16.17	27.99	-45.3	-46.4	15.3	0.00e+00	0	28	0	1275068416	57	3937
2026-01-05 03:44:14.20	16.05	28.15	-45.4	-46.5	15.2	0.00e+00	0	28	0	1280311296	57	3960
2026-01-05 03:44:15.19	15.92	28.32	-45.3	-46.3	15.3	0.00e+00	0	27	0	1286602752	57	3907
2026-01-05 03:44:16.19	15.80	28.48	-45.3	-46.3	15.3	0.00e+00	0	28	0	1291845632	57	3894
2026-01-05 03:44:17.20	15.67	28.65	-45.3	-46.3	15.3	0.00e+00	0	27	0	1297088512	57	3899
2026-01-05 03:44:18.20	15.54	28.82	-45.2	-46.3	15.3	0.00e+00	0	27	0	1303379968	57	3880
2026-01-05 03:44:19.20	15.41	28.99	-45.2	-46.2	15.2	0.00e+00	0	28	0	1308622848	56	4072
2026-01-05 03:44:20.20	15.28	29.16	-45.1	-46.2	15.2	0.00e+00	0	28	0	1313865728	56	4056
2026-01-05 03:44:21.20	15.14	29.33	-45.2	-46.2	15.2	0.00e+00	0	27	0	1320157184	56	4097
2026-01-05 03:44:22.19	15.01	29.50	-45.2	-46.2	15.2	0.00e+00	0	27	0	1325400064	56	4077
2026-01-05 03:44:23.19	14.87	29.67	-45.2	-46.3	15.2	0.00e+00	0	28	0	1331691520	56	4106
2026-01-05 03:44:24.19	14.74	29.84	-45.4	-46.4	15.1	0.00e+00	0	28	0	1336934400	56	4175
2026-01-05 03:44:25.19	14.60	30.01	-45.3	-46.3	15.1	0.00e+00	0	27	0	1342177280	56	4144
2026-01-05 03:44:26.19	14.46	30.19	-45.3	-46.3	15.1	0.00e+00	0	27	0	1348468736	56	4140
2026-01-05 03:44:27.19	14.32	30.36	-45.2	-46.3	15.2	0.00e+00	0	27	0	1353711616	56	4100
2026-01-05 03:44:28.19	14.17	30.54	-45.2	-46.2	15.2	0.00e+00	0	28	0	1358954496	56	4079
2026-01-05 03:44:29.18	14.03	30.71	-45.0	-46.0	15.2	0.00e+00	0	28	0	1365245952	56	3972
2026-01-05 03:44:30.18	13.88	30.89	-45.0	-46.0	15.2	0.00e+00	0	28	0	1370488832	56	3979
2026-01-05 03:44:31.18	13.73	31.07	-45.0	-46.0	15.2	0.00e+00	0	28	0	1375731712	56	3966
2026-01-05 03:44:32.19	13.58	31.25	-44.9	-45.9	15.3	0.00e+00	0	28	0	1382023168	56	3933
2026-01-05 03:44:33.19	13.43	31.43	-45.0	-46.0	15.2	0.00e+00	0	27	0	1387266048	56	3978
2026-01-05 03:44:34.19	13.28	31.61	-45.0	-46.0	15.2	0.00e+00	0	28	0	1393557504	56	3988
2026-01-05 03:44:35.20	13.12	31.80	-45.1	-46.1	15.2	0.00e+00	0	28	0	1398800384	56	4021
2026-01-05 03:44:36.21	12.96	31.98	-45.0	-46.1	15.2	0.00e+00	0	28	0	1404043264	56	4021
2026-01-05 03:44:37.21	12.80	32.17	-45.1	-46.2	15.2	0.00e+00	0	27	0	1410334720	56	4068
2026-01-05 03:44:38.20	12.64	32.35	-45.0	-46.1	15.2	0.00e+00	0	28	0	1415577600	56	4014
2026-01-05 03:44:39.20	12.48	32.53	-45.2	-46.2	15.2	0.00e+00	0	28	0	1420820480	56	4077
2026-01-05 03:44:40.19	12.31	32.72	-45.2	-46.3	15.2	0.00e+00	0	28	0	1427111936	56	4107
2026-01-05 03:44:41.19	12.15	32.91	-45.1	-46.1	15.2	0.00e+00	0	28	0	1432354816	56	4035
2026-01-05 03:44:42.19	11.98	33.10	-45.0	-46.0	15.2	0.00e+00	0	28	0	1437597696	56	4001
2026-01-05 03:44:43.19	11.81	33.28	-45.0	-46.0	15.2	0.00e+00	0	28	0	1443889152	56	3993
2026-01-05 03:44:44.20	11.63	33.48	-45.0	-46.0	15.2	0.00e+00	0	28	0	1449132032	56	3984
2026-01-05 03:44:45.20	11.46	33.67	-45.0	-46.1	15.2	0.00e+00	0	28	0	1455423488	56	4012
2026-01-05 03:44:46.21	11.28	33.86	-44.9	-45.9	15.3	0.00e+00	0	28	0	1460666368	56	3953
2026-01-05 03:44:47.20	11.10	34.05	-45.0	-46.0	15.2	0.00e+00	0	28	0	1465909248	56	3978
2026-01-05 03:44:48.20	10.92	34.25	-45.0	-46.0	15.2	0.00e+00	0	28	0	1472200704	56	3993
2026-01-05 03:44:49.20	10.74	34.44	-45.0	-46.0	15.2	0.00e+00	0	28	0	1477443584	56	4000
2026-01-05 03:44:50.20	10.55	34.64	-45.0	-46.0	15.2	0.00e+00	0	28	0	1482686464	56	3997
2026-01-05 03:44:51.19	10.37	34.83	-45.1	-46.2	15.2	0.00e+00	0	28	0	1488977920	56	4064
2026-01-05 03:44:52.20	10.17	35.03	-45.1	-46.2	15.2	0.00e+00	0	28	0	1494220800	56	4072
2026-01-05 03:44:53.19	9.98	35.23	-45.0	-46.0	15.2	0.00e+00	0	28	0	1499463680	56	3996
2026-01-05 03:44:54.19	9.79	35.42	-45.0	-46.0	15.3	0.00e+00	0	28	0	1505755136	56	3971
2026-01-05 03:44:55.19	9.59	35.62	-45.0	-46.0	15.2	0.00e+00	0	28	0	1510998016	56	3989
2026-01-05 03:44:56.20	9.39	35.83	-45.0	-46.0	15.2	0.00e+00	0	28	0	1517289472	56	3981
2026-01-05 03:44:57.20	9.18	36.03	-45.0	-46.0	15.3	0.00e+00	0	28	0	1522532352	56	3973
2026-01-05 03:44:58.20	8.98	36.23	-45.0	-46.0	15.2	0.00e+00	0	28	0	1527775232	56	3997
2026-01-05 03:44:59.20	8.77	36.43	-45.0	-46.0	15.2	0.00e+00	0	28	0	1534066688	56	3995
2026-01-05 03:45:00.20	8.56	36.64	-45.1	-46.2	15.2	0.00e+00	0	28	0	1539309568	56	4052
2026-01-05 03:45:01.19	8.35	36.84	-45.1	-46.1	15.2	0.00e+00	0	28	0	1544552448	56	4044
2026-01-05 03:45:02.20	8.13	37.05	-45.1	-46.1	15.2	0.00e+00	0	28	0	1550843904	56	4051
2026-01-05 03:45:03.20	7.91	37.26	-45.1	-46.1	15.2	0.00e+00	0	28	0	1556086784	56	4032
2026-01-05 03:45:04.20	7.69	37.46	-45.1	-46.2	15.2	0.00e+00	0	28	0	1561329664	56	4053
2026-01-05 03:45:05.20	7.47	37.67	-45.2	-46.2	15.2	0.00e+00	0	28	0	1567621120	56	4098
2026-01-05 03:45:06.21	7.24	37.88	-45.2	-46.2	15.2	0.00e+00	0	28	0	1572864000	56	4084
2026-01-05 03:45:07.21	7.01	38.09	-45.1	-46.1	15.2	0.00e+00	0	28	0	1579155456	56	4027
2026-01-05 03:45:08.21	6.77	38.30	-45.0	-46.0	15.2	0.00e+00	0	27	0	1584398336	56	3977
2026-01-05 03:45:09.21	6.54	38.51	-45.1	-46.1	15.2	0.00e+00	0	28	0	1589641216	56	4013
2026-01-05 03:45:10.21	6.30	38.72	-45.2	-46.2	15.2	0.00e+00	0	28	0	1595932672	56	4082
2026-01-05 03:45:11.21	6.05	38.94	-45.2	-46.2	15.2	0.00e+00	0	28	0	1601175552	56	4086
2026-01-05 03:45:12.20	5.81	39.15	-45.3	-46.3	15.2	0.00e+00	0	28	0	1606418432	56	4124
2026-01-05 03:45:13.20	5.56	39.36	-45.3	-46.4	15.1	0.00e+00	0	28	0	1612709888	56	4167
2026-01-05 03:45:14.20	5.31	39.58	-45.3	-46.4	15.1	0.00e+00	0	28	0	1617952768	56	4152
2026-01-05 03:45:15.21	5.05	39.80	-45.1	-46.2	15.2	0.00e+00	0	28	0	1623195648	56	4064
2026-01-05 03:45:16.21	4.79	40.01	-45.2	-46.3	15.2	0.00e+00	0	28	0	1629487104	56	4106
2026-01-05 03:45:17.21	4.53	40.23	-45.4	-46.4	15.1	0.00e+00	0	28	0	1634729984	56	4168
2026-01-05 03:45:18.20	4.26	40.44	-45.4	-46.4	15.1	0.00e+00	0	28	0	1641021440	56	4174
2026-01-05 03:45:19.20	3.99	40.66	-45.4	-46.5	15.1	0.00e+00	0	28	0	1646264320	56	4201
2026-01-05 03:45:20.19	3.72	40.88	-45.4	-46.5	15.1	0.00e+00	0	28	0	1651507200	56	4194
2026-01-05 03:45:21.19	3.44	41.10	-45.4	-46.4	15.1	0.00e+00	0	28	0	1657798656	56	4191
2026-01-05 03:45:22.19	3.16	41.32	-45.4	-46.4	15.1	0.00e+00	0	28	0	1663041536	56	4172
2026-01-05 03:45:23.20	2.87	41.54	-45.5	-46.5	15.1	0.00e+00	0	28	0	1668284416	56	4213
2026-01-05 03:45:24.20	2.58	41.76	-45.4	-46.4	15.1	0.00e+00	0	28	0	1674575872	56	4190
2026-01-05 03:45:25.20	2.29	41.98	-45.4	-46.4	15.1	0.00e+00	0	28	0	1679818752	56	4190
2026-01-05 03:45:26.19	1.99	42.20	-45.4	-46.5	15.1	0.00e+00	0	28	0	1685061632	56	4214
2026-01-05 03:45:27.19	1.69	42.42	-45.5	-46.5	15.1	0.00e+00	0	28	0	1691353088	56	4221
2026-01-05 03:45:28.19	1.39	42.65	-45.5	-46.5	15.1	0.00e+00	0	28	0	1696595968	56	4225
2026-01-05 03:45:29.18	1.08	42.87	-45.5	-46.5	15.1	0.00e+00	0	28	0	1701838848	56	4223
2026-01-05 03:45:30.18	0.76	43.09	-45.5	-46.6	15.1	0.00e+00	0	28	0	1708130304	56	4255
2026-01-05 03:45:31.17	0.45	43.31	-45.5	-46.6	15.1	0.00e+00	0	28	0	1713373184	56	4243
2026-01-05 03:45:32.17	0.12	43.54	-45.5	-46.5	15.1	0.00e+00	0	28	0	1718616064	56	4237
2026-01-05 03:45:33.17	359.80	43.76	-45.4	-46.5	15.1	0.00e+00	0	28	0	1724907520	56	4198
2026-01-05 03:45:34.17	359.46	43.98	-45.5	-46.5	15.1	0.00e+00	0	28	0	1730150400	56	4229
2026-01-05 03:45:35.18	359.12	44.21	-45.5	-46.6	15.1	0.00e+00	0	28	0	1735393280	56	4257
2026-01-05 03:45:36.18	358.78	44.44	-45.6	-46.7	15.1	0.00e+00	0	28	0	1741684736	56	4320
2026-01-05 03:45:37.18	358.43	44.66	-45.7	-46.8	15.1	0.00e+00	0	28	0	1746927616	56	4368
2026-01-05 03:45:38.17	358.08	44.88	-45.7	-46.8	15.1	0.00e+00	0	28	0	1753219072	56	4364
2026-01-05 03:45:39.17	357.72	45.11	-45.8	-46.8	15.1	0.00e+00	0	28	0	1758461952	56	4378
2026-01-05 03:45:40.17	357.36	45.33	-45.8	-46.9	15.1	0.00e+00	0	28	0	1763704832	56	4426
2026-01-05 03:45:41.17	356.99	45.56	-45.8	-46.9	15.1	0.00e+00	0	28	0	1769996288	56	4399
2026-01-05 03:45:42.17	356.62	45.78	-45.9	-46.9	15.0	0.00e+00	0	28	0	1775239168	56	4431
2026-01-05 03:45:43.16	356.24	46.01	-46.0	-47.1	15.1	0.00e+00	0	28	0	1780482048	57	4259
2026-01-05 03:45:44.16	355.86	46.23	-46.0	-47.1	15.1	0.00e+00	0	28	0	1786773504	57	4267
2026-01-05 03:45:45.16	355.47	46.46	-45.8	-46.9	15.1	0.00e+00	0	28	0	1792016384	57	4160
2026-01-05 03:45:46.17	355.07	46.68	-45.9	-47.0	15.1	0.00e+00	0	28	0	1797259264	57	4200
2026-01-05 03:45:47.16	354.67	46.90	-46.0	-47.0	15.1	0.00e+00	0	28	0	1803550720	57	4230
2026-01-05 03:45:48.16	354.27	47.13	-46.2	-47.3	15.0	0.00e+00	0	28	0	1808793600	57	4358
2026-01-05 03:45:49.16	353.85	47.35	-46.3	-47.4	15.0	0.00e+00	0	28	0	1815085056	57	4426
2026-01-05 03:45:50.17	353.43	47.57	-46.3	-47.4	15.0	0.00e+00	0	28	0	1820327936	57	4412
2026-01-05 03:45:51.18	353.00	47.80	-46.4	-47.5	15.0	0.00e+00	0	28	0	1825570816	57	4447
2026-01-05 03:45:52.18	352.57	48.02	-46.1	-47.1	15.1	0.00e+00	0	28	0	1831862272	57	4286
2026-01-05 03:45:53.17	352.13	48.24	-46.1	-47.2	15.1	0.00e+00	0	28	0	1837105152	57	4307
2026-01-05 03:45:54.17	351.69	48.46	-46.2	-47.2	15.1	0.00e+00	0	28	0	1842348032	57	4324
2026-01-05 03:45:55.17	351.24	48.68	-46.3	-47.4	15.0	0.00e+00	0	28	0	1848639488	57	4414
2026-01-05 03:45:56.17	350.78	48.90	-46.3	-47.3	15.0	0.00e+00	0	28	0	1853882368	57	4388
2026-01-05 03:45:57.17	350.32	49.11	-46.3	-47.3	15.1	0.00e+00	0	28	0	1860173824	57	4370
2026-01-05 03:45:58.18	349.84	49.33	-46.4	-47.4	15.0	0.00e+00	0	28	0	1865416704	57	4439
2026-01-05 03:45:59.18	349.37	49.55	-46.6	-47.7	15.0	0.00e+00	0	28	0	1870659584	58	4334
2026-01-05 03:46:00.18	348.88	49.76	-46.8	-47.9	15.0	0.00e+00	0	28	0	1876951040	58	4432
2026-01-05 03:46:01.19	348.39	49.98	-46.7	-47.8	15.0	0.00e+00	0	28	0	1882193920	58	4351
2026-01-05 03:46:02.18	347.90	50.19	-46.4	-47.5	15.1	0.00e+00	0	28	0	1887436800	58	4226
2026-01-05 03:46:03.17	347.40	50.39	-46.5	-47.5	15.1	0.00e+00	0	28	0	1893728256	58	4237
2026-01-05 03:46:04.18	346.88	50.61	-46.6	-47.7	15.0	0.00e+00	0	28	0	1898971136	58	4320
2026-01-05 03:46:05.19	346.36	50.82	-46.7	-47.8	15.0	0.00e+00	0	28	0	1905262592	58	4356
2026-01-05 03:46:06.19	345.83	51.02	-46.8	-47.9	15.0	0.00e+00	0	28	0	1910505472	58	4401
2026-01-05 03:46:07.19	345.30	51.22	-46.7	-47.8	15.0	0.00e+00	0	28	0	1915748352	58	4388
2026-01-05 03:46:08.18	344.76	51.43	-46.7	-47.8	15.0	0.00e+00	0	28	0	1922039808	58	4342
2026-01-05 03:46:09.18	344.21	51.63	-46.7	-47.7	15.0	0.00e+00	0	28	0	1927282688	58	4340
2026-01-05 03:46:10.19	343.65	51.83	-46.6	-47.6	15.1	0.00e+00	0	28	0	1933574144	58	4276
2026-01-05 03:46:11.19	343.09	52.02	-46.6	-47.7	15.0	0.00e+00	0	28	0	1938817024	58	4320
2026-01-05 03:46:12.19	342.52	52.22	-46.7	-47.7	15.0	0.00e+00	0	28	0	1944059904	58	4340
2026-01-05 03:46:13.19	341.94	52.41	-46.6	-47.7	15.0	0.00e+00	0	28	0	1950351360	58	4324
2026-01-05 03:46:14.18	341.36	52.60	-46.5	-47.5	15.1	0.00e+00	0	28	0	1955594240	58	4239
2026-01-05 03:46:15.18	340.77	52.78	-46.5	-47.6	15.0	0.00e+00	0	28	0	1960837120	58	4248
2026-01-05 03:46:16.17	340.17	52.97	-46.4	-47.5	15.1	0.00e+00	0	28	0	1966080000	58	4210
2026-01-05 03:46:17.17	339.56	53.15	-46.5	-47.5	15.1	0.00e+00	0	28	0	1972371456	58	4226
2026-01-05 03:46:18.16	338.95	53.33	-46.5	-47.5	15.1	0.00e+00	0	28	0	1977614336	58	4234
2026-01-05 03:46:19.16	338.33	53.50	-46.2	-47.3	15.1	0.00e+00	0	28	0	1982857216	58	4106
2026-01-05 03:46:20.16	337.70	53.68	-46.0	-47.0	15.2	0.00e+00	0	28	0	1989148672	58	3973
2026-01-05 03:46:21.16	337.06	53.85	-46.0	-47.0	15.2	0.00e+00	0	28	0	1994391552	58	3990
2026-01-05 03:46:22.16	336.41	54.02	-46.3	-47.3	15.1	0.00e+00	0	28	0	2000683008	58	4130
2026-01-05 03:46:23.16	335.76	54.18	-46.5	-47.5	15.1	0.00e+00	0	28	0	2005925888	58	4236
2026-01-05 03:46:24.15	335.10	54.34	-46.4	-47.5	15.1	0.00e+00	0	28	0	2011168768	58	4223
2026-01-05 03:46:25.15	334.43	54.50	-46.3	-47.4	15.1	0.00e+00	0	28	0	2017460224	58	4164
2026-01-05 03:46:26.16	333.75	54.66	-46.4	-47.5	15.1	0.00e+00	0	28	0	2022703104	58	4205
2026-01-05 03:46:27.15	333.07	54.80	-46.4	-47.4	15.1	0.00e+00	0	28	0	2027945984	58	4193
2026-01-05 03:46:28.15	332.38	54.95	-46.5	-47.5	15.1	0.00e+00	0	28	0	2034237440	58	4228
2026-01-05 03:46:29.15	331.69	55.10	-46.2	-47.2	15.1	0.00e+00	0	28	0	2039480320	58	4096
2026-01-05 03:46:30.14	330.99	55.23	-46.2	-47.2	15.2	0.00e+00	0	28	0	2045771776	58	4083
2026-01-05 03:46:31.15	330.27	55.37	-46.0	-47.0	15.2	0.00e+00	0	28	0	2051014656	58	3998
2026-01-05 03:46:32.14	329.56	55.50	-46.1	-47.2	15.2	0.00e+00	0	28	0	2056257536	58	4072
2026-01-05 03:46:33.14	328.83	55.63	-45.9	-47.0	15.2	0.00e+00	0	28	0	2062548992	58	3975
2026-01-05 03:46:34.14	328.10	55.75	-46.1	-47.1	15.2	0.00e+00	0	28	0	2067791872	58	4027
2026-01-05 03:46:35.13	327.37	55.87	-46.6	-47.7	15.1	0.00e+00	0	28	0	2073034752	58	4296
2026-01-05 03:46:36.12	326.63	55.98	-46.8	-47.9	15.0	0.00e+00	0	28	0	2078277632	58	4422
2026-01-05 03:46:37.12	325.88	56.09	-46.6	-47.7	15.0	0.00e+00	0	28	0	2084569088	58	4295
2026-01-05 03:46:38.12	325.12	56.20	-46.2	-47.2	15.2	0.00e+00	0	28	0	2089811968	58	4070
2026-01-05 03:46:39.13	324.35	56.30	-46.3	-47.4	15.1	0.00e+00	0	28	0	2096103424	58	4146
2026-01-05 03:46:40.12	323.60	56.39	-46.3	-47.4	15.1	0.00e+00	0	28	0	2101346304	58	4154
2026-01-05 03:46:41.12	322.82	56.48	-46.1	-47.2	15.2	0.00e+00	0	28	0	2106589184	58	4072
2026-01-05 03:46:42.12	322.04	56.57	-46.1	-47.1	15.2	0.00e+00	0	28	0	2112880640	58	4039
2026-01-05 03:46:43.12	321.26	56.65	-46.1	-47.2	15.2	0.00e+00	0	28	0	2118123520	58	4052
2026-01-05 03:46:44.11	320.48	56.72	-46.2	-47.3	15.1	0.00e+00	0	28	0	2123366400	58	4114
2026-01-05 03:46:45.12	319.68	56.80	-46.6	-47.7	15.0	0.00e+00	0	28	0	2129657856	58	4311
2026-01-05 03:46:46.11	318.90	56.86	-46.8	-47.9	15.0	0.00e+00	0	28	0	2134900736	58	4410
2026-01-05 03:46:47.11	318.10	56.92	-46.7	-47.8	15.0	0.00e+00	0	28	0	2140143616	58	4381
2026-01-05 03:46:48.11	317.30	56.97	-46.5	-47.5	15.1	0.00e+00	0	28	0	2146435072	58	4240
2026-01-05 03:46:49.11	316.49	57.02	-46.2	-47.2	15.1	0.00e+00	0	28	0	2151677952	58	4098
2026-01-05 03:46:50.11	315.68	57.07	-46.2	-47.2	15.2	0.00e+00	0	28	0	2157969408	58	4092
2026-01-05 03:46:51.12	314.87	57.11	-46.6	-47.7	15.1	0.00e+00	0	28	0	2163212288	58	4303
2026-01-05 03:46:52.11	314.06	57.14	-46.8	-47.9	15.0	0.00e+00	0	28	0	2168455168	58	4403
2026-01-05 03:46:53.12	313.24	57.17	-46.8	-47.9	15.0	0.00e+00	0	28	0	2174746624	58	4438
2026-01-05 03:46:54.12	312.42	57.19	-46.7	-47.7	15.0	0.00e+00	0	28	0	2179989504	58	4329
2026-01-05 03:46:55.12	311.61	57.20	-46.3	-47.3	15.1	0.00e+00	0	28	0	2185232384	58	4145
2026-01-05 03:46:56.13	310.78	57.22	-46.3	-47.3	15.1	0.00e+00	0	28	0	2191523840	58	4120
2026-01-05 03:46:57.13	309.96	57.22	-46.5	-47.6	15.1	0.00e+00	0	28	0	2196766720	58	4250
2026-01-05 03:46:58.13	309.14	57.22	-46.8	-47.9	15.0	0.00e+00	0	28	0	2202009600	58	4414
2026-01-05 03:46:59.13	308.33	57.21	-46.8	-47.9	15.0	0.00e+00	0	28	0	2208301056	58	4408
2026-01-05 03:47:00.13	307.51	57.20	-46.6	-47.6	15.1	0.00e+00	0	28	0	2213543936	58	4274
2026-01-05 03:47:01.13	306.69	57.18	-46.5	-47.6	15.1	0.00e+00	0	28	0	2219835392	58	4268
2026-01-05 03:47:02.13	305.88	57.16	-46.6	-47.8	15.1	0.00e+00	0	28	0	2225078272	58	4341
2026-01-05 03:47:03.12	305.07	57.13	-46.5	-47.5	15.1	0.00e+00	0	28	0	2230321152	58	4237
2026-01-05 03:47:04.12	304.26	57.10	-46.5	-47.6	15.1	0.00e+00	0	28	0	2236612608	58	4269
2026-01-05 03:47:05.12	303.45	57.06	-46.5	-47.5	15.1	0.00e+00	0	28	0	2241855488	58	4241
2026-01-05 03:47:06.12	302.64	57.02	-46.6	-47.6	15.1	0.00e+00	0	28	0	2247098368	58	4284
2026-01-05 03:47:07.12	301.83	56.97	-46.4	-47.5	15.1	0.00e+00	0	28	0	2253389824	58	4206
2026-01-05 03:47:08.12	301.03	56.91	-46.3	-47.4	15.1	0.00e+00	0	28	0	2258632704	58	4151
2026-01-05 03:47:09.12	300.23	56.85	-46.5	-47.5	15.1	0.00e+00	0	28	0	2263875584	58	4240
2026-01-05 03:47:10.12	299.44	56.78	-46.7	-47.8	15.0	0.00e+00	0	28	0	2270167040	58	4368
2026-01-05 03:47:11.12	298.65	56.71	-46.8	-47.9	15.0	0.00e+00	0	28	0	2275409920	58	4432
2026-01-05 03:47:12.12	297.86	56.63	-46.9	-48.0	15.0	0.00e+00	0	28	0	2281701376	58	4454
2026-01-05 03:47:13.12	297.08	56.55	-46.6	-47.7	15.1	0.00e+00	0	28	0	2286944256	58	4326
2026-01-05 03:47:14.12	296.30	56.47	-46.5	-47.6	15.1	0.00e+00	0	28	0	2292187136	58	4263
2026-01-05 03:47:15.11	295.54	56.38	-46.6	-47.7	15.1	0.00e+00	0	28	0	2298478592	58	4314
2026-01-05 03:47:16.12	294.76	56.28	-46.6	-47.7	15.1	0.00e+00	0	28	0	2303721472	58	4301
2026-01-05 03:47:17.12	294.00	56.18	-46.6	-47.7	15.0	0.00e+00	0	28	0	2308964352	58	4295
2026-01-05 03:47:18.11	293.25	56.07	-46.3	-47.3	15.1	0.00e+00	0	28	0	2315255808	58	4127
2026-01-05 03:47:19.11	292.50	55.96	-46.5	-47.6	15.1	0.00e+00	0	28	0	2320498688	58	4261
2026-01-05 03:47:20.11	291.76	55.85	-46.4	-47.5	15.1	0.00e+00	0	28	0	2325741568	58	4212
2026-01-05 03:47:21.11	291.02	55.73	-46.4	-47.4	15.1	0.00e+00	0	28	0	2332033024	58	4188
2026-01-05 03:47:22.10	290.30	55.60	-46.5	-47.6	15.1	0.00e+00	0	28	0	2337275904	58	4244
2026-01-05 03:47:23.10	289.57	55.48	-46.5	-47.6	15.1	0.00e+00	0	28	0	2343567360	58	4253
2026-01-05 03:47:24.10	288.85	55.34	-46.4	-47.5	15.1	0.00e+00	0	28	0	2348810240	58	4207
2026-01-05 03:47:25.10	288.14	55.21	-46.4	-47.4	15.1	0.00e+00	0	28	0	2354053120	58	4192
2026-01-05 03:47:26.10	287.44	55.07	-46.0	-47.0	15.2	0.00e+00	0	28	0	2360344576	58	4003
2026-01-05 03:47:27.10	286.74	54.92	-46.0	-47.0	15.2	0.00e+00	0	28	0	2365587456	58	4002
2026-01-05 03:47:28.11	286.04	54.77	-46.1	-47.2	15.2	0.00e+00	0	28	0	2370830336	58	4068
2026-01-05 03:47:29.09	285.37	54.62	-46.0	-47.1	15.2	0.00e+00	0	28	0	2377121792	58	4015
2026-01-05 03:47:30.10	284.69	54.47	-45.8	-46.8	15.3	0.00e+00	0	28	0	2382364672	58	3908
2026-01-05 03:47:31.10	284.02	54.31	-46.0	-47.1	15.2	0.00e+00	0	28	0	2387607552	58	4008
2026-01-05 03:47:32.09	283.37	54.15	-46.2	-47.3	15.2	0.00e+00	0	28	0	2393899008	58	4116
2026-01-05 03:47:33.09	282.72	53.98	-46.3	-47.3	15.1	0.00e+00	0	28	0	2399141888	58	4142
2026-01-05 03:47:34.08	282.08	53.82	-46.1	-47.2	15.1	0.00e+00	0	28	0	2405433344	58	4064
2026-01-05 03:47:35.08	281.44	53.64	-46.2	-47.3	15.1	0.00e+00	0	28	0	2410676224	58	4110
2026-01-05 03:47:36.09	280.80	53.47	-46.4	-47.4	15.1	0.00e+00	0	28	0	2415919104	58	4186
2026-01-05 03:47:37.09	280.18	53.29	-46.3	-47.4	15.1	0.00e+00	0	28	0	2422210560	58	4150
2026-01-05 03:47:38.09	279.56	53.11	-46.4	-47.5	15.1	0.00e+00	0	28	0	2427453440	58	4202
2026-01-05 03:47:39.09	278.96	52.93	-46.3	-47.4	15.1	0.00e+00	0	28	0	2432696320	58	4158
2026-01-05 03:47:40.09	278.36	52.74	-46.0	-47.0	15.2	0.00e+00	0	28	0	2438987776	58	3990
2026-01-05 03:47:41.10	277.76	52.55	-46.0	-47.0	15.2	0.00e+00	0	28	0	2444230656	58	3975
2026-01-05 03:47:42.09	277.18	52.36	-46.2	-47.2	15.2	0.00e+00	0	28	0	2449473536	58	4093
2026-01-05 03:47:43.09	276.60	52.17	-46.3	-47.4	15.1	0.00e+00	0	28	0	2455764992	58	4162
2026-01-05 03:47:44.08	276.04	51.98	-46.4	-47.4	15.1	0.00e+00	0	28	0	2461007872	58	4174
2026-01-05 03:47:45.09	275.47	51.78	-46.4	-47.5	15.1	0.00e+00	0	28	0	2467299328	58	4202
2026-01-05 03:47:46.08	274.92	51.58	-46.5	-47.6	15.1	0.00e+00	0	28	0	2472542208	58	4245
2026-01-05 03:47:47.08	274.37	51.38	-46.5	-47.5	15.1	0.00e+00	0	28	0	2477785088	58	4240
2026-01-05 03:47:48.08	273.83	51.17	-46.4	-47.4	15.1	0.00e+00	0	28	0	2483027968	58	4182
2026-01-05 03:47:49.07	273.30	50.97	-46.5	-47.6	15.1	0.00e+00	0	28	0	2489319424	58	4282
2026-01-05 03:47:50.06	272.78	50.77	-46.4	-47.5	15.1	0.00e+00	0	28	0	2494562304	58	4219
2026-01-05 03:47:51.06	272.27	50.56	-46.2	-47.2	15.2	0.00e+00	0	28	0	2500853760	58	4077
2026-01-05 03:47:52.07	271.75	50.35	-46.2	-47.3	15.1	0.00e+00	0	28	0	2506096640	58	4106
2026-01-05 03:47:53.07	271.25	50.14	-46.1	-47.1	15.2	0.00e+00	0	28	0	2511339520	58	4033
2026-01-05 03:47:54.07	270.75	49.92	-46.3	-47.4	15.1	0.00e+00	0	28	0	2517630976	58	4151
2026-01-05 03:47:55.07	270.26	49.71	-46.2	-47.2	15.2	0.00e+00	0	28	0	2522873856	58	4098
2026-01-05 03:47:56.07	269.77	49.49	-46.1	-47.1	15.2	0.00e+00	0	28	0	2528116736	58	4050
2026-01-05 03:47:57.07	269.30	49.28	-46.2	-47.2	15.2	0.00e+00	0	28	0	2534408192	58	4098
2026-01-05 03:47:58.08	268.82	49.06	-46.2	-47.3	15.1	0.00e+00	0	28	0	2539651072	58	4131
2026-01-05 03:47:59.08	268.36	48.84	-46.3	-47.4	15.1	0.00e+00	0	28	0	2544893952	58	4168
2026-01-05 03:48:00.07	267.91	48.62	-46.1	-47.2	15.2	0.00e+00	0	28	0	2551185408	58	4075
2026-01-05 03:48:01.07	267.46	48.40	-46.0	-47.0	15.2	0.00e+00	0	28	0	2556428288	58	4000
2026-01-05 03:48:02.08	267.01	48.18	-45.9	-47.0	15.3	0.00e+00	0	28	0	2562719744	58	3963
2026-01-05 03:48:03.08	266.57	47.96	-45.8	-46.8	15.3	0.00e+00	0	28	0	2567962624	58	3899
2026-01-05 03:48:04.08	266.14	47.74	-45.7	-46.7	15.3	0.00e+00	0	28	0	2574254080	58	3852
2026-01-05 03:48:05.08	265.72	47.52	-45.6	-46.6	15.2	0.00e+00	0	28	0	2579496960	57	4022
2026-01-05 03:48:06.08	265.30	47.29	-45.7	-46.8	15.2	0.00e+00	0	28	0	2584739840	57	4115
2026-01-05 03:48:07.08	264.89	47.07	-45.7	-46.8	15.2	0.00e+00	0	28	0	2589982720	57	4121
2026-01-05 03:48:08.07	264.48	46.85	-45.7	-46.7	15.2	0.00e+00	0	28	0	2596274176	57	4084
2026-01-05 03:48:09.07	264.08	46.62	-45.8	-46.8	15.1	0.00e+00	0	28	0	2601517056	57	4140
2026-01-05 03:48:10.07	263.69	46.40	-45.7	-46.7	15.2	0.00e+00	0	28	0	2606759936	57	4092
2026-01-05 03:48:11.07	263.30	46.17	-45.8	-46.8	15.2	0.00e+00	0	28	0	2613051392	57	4115
2026-01-05 03:48:12.07	262.91	45.95	-45.6	-46.6	15.2	0.00e+00	0	28	0	2618294272	57	4036
2026-01-05 03:48:13.07	262.54	45.72	-45.6	-46.6	15.2	0.00e+00	0	28	0	2624585728	57	4033
2026-01-05 03:48:14.07	262.16	45.50	-45.6	-46.6	15.2	0.00e+00	0	28	0	2629828608	57	4023
2026-01-05 03:48:15.07	261.79	45.27	-45.4	-46.4	15.3	0.00e+00	0	28	0	2635071488	57	3934
2026-01-05 03:48:16.07	261.43	45.04	-45.4	-46.5	15.3	0.00e+00	0	28	0	2641362944	57	3961
2026-01-05 03:48:17.06	261.08	44.82	-45.1	-46.1	15.2	0.00e+00	0	28	0	2646605824	56	4030
2026-01-05 03:48:18.06	260.73	44.60	-45.0	-46.0	15.2	0.00e+00	0	28	0	2651848704	56	3968
2026-01-05 03:48:19.06	260.38	44.37	-45.2	-46.2	15.2	0.00e+00	0	28	0	2658140160	56	4070
2026-01-05 03:48:20.06	260.04	44.14	-45.4	-46.5	15.2	0.00e+00	0	28	0	2663383040	56	4221
2026-01-05 03:48:21.05	259.70	43.92	-45.7	-46.8	15.1	0.00e+00	0	28	0	2668625920	56	4362
2026-01-05 03:48:22.05	259.37	43.70	-45.7	-46.8	15.1	0.00e+00	0	28	0	2674917376	56	4370
2026-01-05 03:48:23.06	259.04	43.47	-45.6	-46.6	15.1	0.00e+00	0	28	0	2680160256	56	4283
2026-01-05 03:48:24.05	258.72	43.25	-45.4	-46.4	15.1	0.00e+00	0	28	0	2686451712	56	4175
2026-01-05 03:48:25.05	258.40	43.02	-45.2	-46.2	15.2	0.00e+00	0	28	0	2691694592	56	4076
2026-01-05 03:48:26.05	258.08	42.80	-45.0	-46.0	15.2	0.00e+00	0	28	0	2696937472	56	3992
2026-01-05 03:48:27.04	257.77	42.58	-45.1	-46.1	15.2	0.00e+00	0	28	0	2703228928	56	4027
2026-01-05 03:48:28.03	257.47	42.36	-45.2	-46.2	15.2	0.00e+00	0	28	0	2708471808	56	4076
2026-01-05 03:48:29.03	257.17	42.13	-45.3	-46.3	15.2	0.00e+00	0	28	0	2713714688	56	4116
2026-01-05 03:48:30.03	256.87	41.91	-45.2	-46.3	15.2	0.00e+00	0	28	0	2718957568	56	4104
2026-01-05 03:48:31.02	256.58	41.69	-45.1	-46.1	15.2	0.00e+00	0	28	0	2725249024	56	4028
2026-01-05 03:48:32.03	256.29	41.47	-45.1	-46.1	15.2	0.00e+00	0	28	0	2730491904	56	4038
2026-01-05 03:48:33.03	256.00	41.25	-45.1	-46.1	15.2	0.00e+00	0	28	0	2736783360	56	4050
2026-01-05 03:48:34.03	255.72	41.03	-45.2	-46.3	15.2	0.00e+00	0	28	0	2742026240	56	4109
2026-01-05 03:48:35.03	255.44	40.81	-45.3	-46.3	15.2	0.00e+00	0	28	0	2747269120	56	4130
2026-01-05 03:48:36.03	255.17	40.59	-45.3	-46.3	15.2	0.00e+00	0	28	0	2753560576	56	4133
2026-01-05 03:48:37.03	254.90	40.37	-45.2	-46.2	15.2	0.00e+00	0	28	0	2758803456	56	4076
2026-01-05 03:48:38.02	254.64	40.15	-45.0	-46.1	15.2	0.00e+00	0	28	0	2764046336	56	4007
2026-01-05 03:48:39.02	254.37	39.94	-45.0	-46.0	15.3	0.00e+00	0	28	0	2770337792	56	3970
2026-01-05 03:48:40.03	254.11	39.72	-45.0	-46.0	15.2	0.00e+00	0	28	0	2775580672	56	4003
2026-01-05 03:48:41.03	253.85	39.50	-45.0	-46.0	15.3	0.00e+00	0	28	0	2781872128	56	3969
2026-01-05 03:48:42.04	253.60	39.28	-45.1	-46.1	15.2	0.00e+00	0	28	0	2787115008	56	4023
2026-01-05 03:48:43.04	253.35	39.07	-45.1	-46.1	15.2	0.00e+00	0	28	0	2792357888	56	4036
2026-01-05 03:48:44.03	253.11	38.86	-45.1	-46.1	15.2	0.00e+00	0	28	0	2798649344	56	4047
2026-01-05 03:48:45.03	252.86	38.64	-45.0	-46.0	15.2	0.00e+00	0	28	0	2803892224	56	3996
2026-01-05 03:48:46.03	252.62	38.43	-44.9	-45.9	15.3	0.00e+00	0	28	0	2809135104	56	3951
2026-01-05 03:48:47.03	252.39	38.22	-45.0	-46.0	15.3	0.00e+00	0	28	0	2815426560	56	3973
2026-01-05 03:48:48.04	252.15	38.01	-45.1	-46.2	15.2	0.00e+00	0	28	0	2820669440	56	4068
2026-01-05 03:48:49.04	251.92	37.80	-45.3	-46.3	15.2	0.00e+00	0	28	0	2826960896	56	4132
2026-01-05 03:48:50.04	251.69	37.59	-45.3	-46.4	15.2	0.00e+00	0	28	0	2832203776	56	4147
2026-01-05 03:48:51.05	251.47	37.38	-45.2	-46.3	15.2	0.00e+00	0	28	0	2837446656	56	4114
2026-01-05 03:48:52.04	251.25	37.17	-45.3	-46.3	15.2	0.00e+00	0	28	0	2843738112	56	4125
2026-01-05 03:48:53.05	251.03	36.96	-45.1	-46.2	15.2	0.00e+00	0	28	0	2848980992	56	4057
2026-01-05 03:48:54.05	250.81	36.76	-45.2	-46.2	15.2	0.00e+00	0	28	0	2854223872	56	4085
2026-01-05 03:48:55.05	250.60	36.55	-45.0	-46.1	15.2	0.00e+00	0	28	0	2860515328	56	4014
2026-01-05 03:48:56.05	250.39	36.35	-45.1	-46.1	15.2	0.00e+00	0	28	0	2865758208	56	4036
2026-01-05 03:48:57.04	250.18	36.15	-45.0	-46.0	15.2	0.00e+00	0	28	0	2872049664	56	3975
2026-01-05 03:48:58.05	249.98	35.94	-45.0	-46.0	15.2	0.00e+00	0	28	0	2877292544	56	3991
2026-01-05 03:48:59.04	249.77	35.74	-45.1	-46.1	15.2	0.00e+00	0	28	0	2882535424	56	4012
2026-01-05 03:49:00.05	249.57	35.54	-45.2	-46.2	15.2	0.00e+00	0	28	0	2888826880	56	4061
2026-01-05 03:49:01.04	249.38	35.34	-45.3	-46.3	15.2	0.00e+00	0	28	0	2894069760	56	4118
2026-01-05 03:49:02.04	249.18	35.14	-45.4	-46.4	15.2	0.00e+00	0	28	0	2899312640	56	4178
2026-01-05 03:49:03.03	248.99	34.94	-45.5	-46.5	15.1	0.00e+00	0	28	0	2904555520	56	4237
2026-01-05 03:49:04.03	248.80	34.75	-45.4	-46.4	15.1	0.00e+00	0	28	0	2910846976	56	4191
2026-01-05 03:49:05.03	248.61	34.55	-45.2	-46.3	15.2	0.00e+00	0	28	0	2916089856	56	4103
2026-01-05 03:49:06.03	248.43	34.35	-45.2	-46.2	15.2	0.00e+00	0	28	0	2922381312	56	4089
2026-01-05 03:49:07.02	248.24	34.16	-45.1	-46.1	15.2	0.00e+00	0	28	0	2927624192	56	4051
2026-01-05 03:49:08.02	248.06	33.97	-45.1	-46.1	15.2	0.00e+00	0	28	0	2932867072	56	4030
2026-01-05 03:49:09.02	247.88	33.77	-45.2	-46.2	15.2	0.00e+00	0	28	0	2939158528	56	4089
2026-01-05 03:49:10.02	247.71	33.58	-45.1	-46.1	15.2	0.00e+00	0	28	0	2944401408	56	4047
2026-01-05 03:49:11.02	247.53	33.39	-45.0	-46.0	15.2	0.00e+00	0	28	0	2949644288	56	3991
2026-01-05 03:49:12.02	247.36	33.20	-45.1	-46.1	15.2	0.00e+00	0	28	0	2955935744	56	4020
2026-01-05 03:49:13.02	247.19	33.01	-45.0	-46.1	15.2	0.00e+00	0	28	0	2961178624	56	4006
2026-01-05 03:49:14.01	247.02	32.82	-45.1	-46.2	15.2	0.00e+00	0	28	0	2966421504	56	4057
2026-01-05 03:49:15.01	246.85	32.63	-45.2	-46.2	15.2	0.00e+00	0	28	0	2972712960	56	4069
2026-01-05 03:49:16.01	246.69	32.45	-45.4	-46.4	15.1	0.00e+00	0	28	0	2977955840	56	4176
2026-01-05 03:49:17.01	246.53	32.26	-45.4	-46.5	15.1	0.00e+00	0	28	0	2984247296	56	4213
2026-01-05 03:49:18.00	246.37	32.08	-45.4	-46.4	15.1	0.00e+00	0	28	0	2989490176	56	4193
2026-01-05 03:49:19.00	246.21	31.89	-45.4	-46.4	15.1	0.00e+00	0	28	0	2994733056	56	4181
2026-01-05 03:49:19.99	246.05	31.71	-45.4	-46.4	15.1	0.00e+00	0	28	0	3001024512	56	4179
2026-01-05 03:49:21.00	245.89	31.53	-45.3	-46.4	15.2	0.00e+00	0	28	0	3006267392	56	4148
2026-01-05 03:49:22.00	245.74	31.35	-45.4	-46.4	15.1	0.00e+00	0	28	0	3011510272	56	4175
2026-01-05 03:49:22.99	245.59	31.17	-45.3	-46.3	15.2	0.00e+00	0	28	0	3017801728	56	4117
2026-01-05 03:49:23.99	245.44	30.99	-45.3	-46.4	15.2	0.00e+00	0	28	0	3023044608	56	4169
2026-01-05 03:49:24.98	245.29	30.81	-45.3	-46.3	15.2	0.00e+00	0	27	0	3028287488	56	4131
2026-01-05 03:49:25.98	245.14	30.63	-45.3	-46.3	15.2	0.00e+00	0	28	0	3034578944	56	4129
2026-01-05 03:49:26.99	245.00	30.45	-45.4	-46.4	15.1	0.00e+00	0	28	0	3039821824	56	4180
2026-01-05 03:49:27.99	244.85	30.28	-45.4	-46.4	15.1	0.00e+00	0	28	0	3046113280	56	4177
2026-01-05 03:49:28.99	244.71	30.10	-45.4	-46.4	15.1	0.00e+00	0	28	0	3051356160	56	4176
2026-01-05 03:49:29.98	244.57	29.93	-45.4	-46.5	15.1	0.00e+00	0	28	0	3056599040	56	4204
2026-01-05 03:49:30.98	244.43	29.75	-45.5	-46.5	15.1	0.00e+00	0	28	0	3061841920	56	4230
2026-01-05 03:49:31.98	244.29	29.58	-45.5	-46.5	15.1	0.00e+00	0	28	0	3068133376	56	4238
2026-01-05 03:49:32.97	244.16	29.41	-45.5	-46.5	15.1	0.00e+00	0	28	0	3073376256	56	4233
2026-01-05 03:49:33.97	244.03	29.24	-45.5	-46.6	15.1	0.00e+00	0	28	0	3078619136	56	4263
2026-01-05 03:49:34.98	243.89	29.07	-45.6	-46.7	15.1	0.00e+00	0	28	0	3084910592	56	4303
2026-01-05 03:49:35.98	243.76	28.90	-45.7	-46.7	15.1	0.00e+00	0	28	0	3090153472	56	4324
2026-01-05 03:49:36.97	243.63	28.73	-45.5	-46.6	15.1	0.00e+00	0	28	0	3096444928	56	4263
2026-01-05 03:49:37.98	243.50	28.56	-45.5	-46.5	15.1	0.00e+00	0	28	0	3101687808	56	4236
2026-01-05 03:49:38.98	243.37	28.39	-45.5	-46.5	15.1	0.00e+00	0	28	0	3107979264	56	4239
2026-01-05 03:49:39.98	243.25	28.23	-45.5	-46.6	15.1	0.00e+00	0	28	0	3113222144	56	4252
2026-01-05 03:49:40.97	243.12	28.06	-45.5	-46.6	15.1	0.00e+00	0	28	0	3118465024	56	4250
2026-01-05 03:49:41.98	243.00	27.90	-45.5	-46.6	15.1	0.00e+00	0	28	0	3123707904	56	4264
2026-01-05 03:49:42.98	242.87	27.73	-45.6	-46.6	15.1	0.00e+00	0	28	0	3129999360	56	4277
2026-01-05 03:49:43.97	242.75	27.57	-45.5	-46.5	15.1	0.00e+00	0	28	0	3135242240	56	4231
2026-01-05 03:49:44.98	242.63	27.41	-45.6	-46.7	15.1	0.00e+00	0	28	0	3141533696	56	4295
2026-01-05 03:49:45.98	242.51	27.25	-45.5	-46.6	15.1	0.00e+00	0	28	0	3146776576	56	4247
2026-01-05 03:49:46.99	242.40	27.09	-45.5	-46.6	15.1	0.00e+00	0	28	0	3152019456	56	4248
2026-01-05 03:49:47.98	242.28	26.93	-45.5	-46.5	15.1	0.00e+00	0	28	0	3158310912	56	4231
2026-01-05 03:49:48.98	242.17	26.77	-45.5	-46.5	15.1	0.00e+00	0	28	0	3163553792	56	4236
2026-01-05 03:49:49.98	242.05	26.61	-45.4	-46.4	15.1	0.00e+00	0	28	0	3169845248	56	4193
2026-01-05 03:49:50.99	241.94	26.45	-45.4	-46.4	15.1	0.00e+00	0	28	0	3175088128	56	4174
2026-01-05 03:49:51.99	241.83	26.30	-45.4	-46.4	15.1	0.00e+00	0	28	0	3180331008	56	4180
2026-01-05 03:49:52.99	241.72	26.14	-45.4	-46.5	15.1	0.00e+00	0	28	0	3186622464	56	4208
2026-01-05 03:49:53.99	241.61	25.99	-45.4	-46.5	15.1	0.00e+00	0	28	0	3191865344	56	4204
2026-01-05 03:49:54.99	241.50	25.83	-45.4	-46.5	15.1	0.00e+00	0	28	0	3197108224	56	4202
2026-01-05 03:49:56.00	241.39	25.68	-45.4	-46.4	15.1	0.00e+00	0	28	0	3203399680	56	4169
2026-01-05 03:49:56.99	241.29	25.52	-45.4	-46.5	15.1	0.00e+00	0	28	0	3208642560	56	4197
2026-01-05 03:49:57.99	241.18	25.37	-45.4	-46.4	15.1	0.00e+00	0	28	0	3214934016	56	4175
2026-01-05 03:49:58.99	241.08	25.22	-45.5	-46.5	15.1	0.00e+00	0	28	0	3220176896	56	4216
2026-01-05 03:49:59.98	240.97	25.07	-45.6	-46.6	15.1	0.00e+00	0	28	0	3225419776	56	4270
2026-01-05 03:50:00.98	240.87	24.92	-45.5	-46.6	15.1	0.00e+00	0	28	0	3230662656	56	4260
2026-01-05 03:50:01.99	240.77	24.77	-45.6	-46.7	15.1	0.00e+00	0	28	0	3236954112	56	4305
2026-01-05 03:50:02.99	240.67	24.63	-45.6	-46.7	15.1	0.00e+00	0	28	0	3242196992	56	4315
2026-01-05 03:50:03.99	240.57	24.48	-45.6	-46.7	15.1	0.00e+00	0	28	0	3248488448	56	4305
2026-01-05 03:50:04.99	240.47	24.33	-45.7	-46.7	15.1	0.00e+00	0	28	0	3253731328	56	4314
2026-01-05 03:50:05.99	240.38	24.19	-45.8	-46.9	15.0	0.00e+00	0	28	0	3258974208	56	4397
2026-01-05 03:50:07.00	240.28	24.04	-45.8	-46.8	15.0	0.00e+00	0	28	0	3265265664	56	4378
2026-01-05 03:50:07.99	240.18	23.90	-45.8	-46.8	15.1	0.00e+00	0	28	0	3270508544	56	4373
2026-01-05 03:50:08.99	240.09	23.75	-45.8	-46.9	15.1	0.00e+00	0	28	0	3276800000	56	4392
2026-01-05 03:50:09.99	240.00	23.61	-45.9	-47.0	15.0	0.00e+00	0	28	0	3282042880	56	4456
2026-01-05 03:50:10.99	239.90	23.47	-46.0	-47.0	15.1	0.00e+00	0	28	0	3287285760	57	4242
2026-01-05 03:50:11.99	239.81	23.32	-45.8	-46.8	15.1	0.00e+00	0	28	0	3293577216	57	4138
2026-01-05 03:50:12.99	239.72	23.18	-45.8	-46.8	15.1	0.00e+00	0	28	0	3298820096	57	4136
2026-01-05 03:50:13.99	239.63	23.04	-45.8	-46.9	15.1	0.00e+00	0	28	0	3304062976	57	4148
2026-01-05 03:50:14.99	239.54	22.90	-45.8	-46.9	15.1	0.00e+00	0	28	0	3310354432	57	4147
2026-01-05 03:50:16.00	239.45	22.76	-45.8	-46.9	15.1	0.00e+00	0	28	0	3315597312	57	4146
2026-01-05 03:50:16.99	239.37	22.63	-45.7	-46.8	15.1	0.00e+00	0	28	0	3320840192	57	4125
2026-01-05 03:50:17.99	239.28	22.49	-45.8	-46.9	15.1	0.00e+00	0	28	0	3327131648	57	4151
2026-01-05 03:50:18.98	239.19	22.35	-45.8	-46.8	15.1	0.00e+00	0	28	0	3332374528	57	4142
2026-01-05 03:50:19.97	239.11	22.22	-45.8	-46.8	15.1	0.00e+00	0	28	0	3337617408	57	4135
2026-01-05 03:50:20.97	239.02	22.08	-45.8	-46.8	15.1	0.00e+00	0	28	0	3343908864	57	4123
2026-01-05 03:50:21.97	238.94	21.95	-45.8	-46.9	15.1	0.00e+00	0	28	0	3349151744	57	4162
2026-01-05 03:50:22.97	238.86	21.81	-45.8	-46.9	15.1	0.00e+00	0	28	0	3354394624	57	4148
2026-01-05 03:50:23.97	238.78	21.68	-45.9	-47.0	15.1	0.00e+00	0	28	0	3360686080	57	4200
2026-01-05 03:50:24.97	238.69	21.55	-45.9	-47.0	15.1	0.00e+00	0	28	0	3365928960	57	4222
2026-01-05 03:50:25.96	238.61	21.42	-46.1	-47.2	15.0	0.00e+00	0	28	0	3371171840	57	4302
2026-01-05 03:50:26.96	238.53	21.28	-46.0	-47.0	15.1	0.00e+00	0	28	0	3377463296	57	4233
2026-01-05 03:50:27.95	238.45	21.15	-46.0	-47.1	15.1	0.00e+00	0	28	0	3382706176	57	4254
2026-01-05 03:50:28.95	238.38	21.02	-45.9	-47.0	15.1	0.00e+00	0	28	0	3388997632	57	4224
2026-01-05 03:50:29.95	238.30	20.89	-46.0	-47.0	15.1	0.00e+00	0	28	0	3394240512	57	4231
2026-01-05 03:50:30.94	238.22	20.77	-46.0	-47.0	15.1	0.00e+00	0	28	0	3399483392	57	4233
2026-01-05 03:50:31.94	238.14	20.64	-46.0	-47.0	15.1	0.00e+00	0	28	0	3405774848	57	4237
2026-01-05 03:50:32.94	238.07	20.51	-46.1	-47.1	15.1	0.00e+00	0	28	0	3411017728	57	4285
2026-01-05 03:50:33.94	237.99	20.38	-46.1	-47.1	15.0	0.00e+00	0	28	0	3416260608	57	4289
2026-01-05 03:50:34.93	237.92	20.26	-46.1	-47.2	15.0	0.00e+00	0	28	0	3421503488	57	4300
2026-01-05 03:50:35.92	237.85	20.13	-46.2	-47.3	15.0	0.00e+00	0	28	0	3427794944	57	4341
2026-01-05 03:50:36.92	237.77	20.00	-46.2	-47.3	15.0	0.00e+00	0	28	0	3433037824	57	4362
2026-01-05 03:50:37.91	237.70	19.88	-46.3	-47.4	15.0	0.00e+00	0	28	0	3439329280	57	4395
2026-01-05 03:50:38.91	237.63	19.76	-46.4	-47.5	15.0	0.00e+00	0	28	0	3444572160	57	4452
2026-01-05 03:50:39.91	237.56	19.63	-46.4	-47.5	15.0	0.00e+00	0	28	0	3449815040	58	4225
2026-01-05 03:50:40.91	237.49	19.51	-46.5	-47.6	15.0	0.00e+00	0	28	0	3456106496	58	4248
2026-01-05 03:50:41.91	237.41	19.39	-46.6	-47.7	15.0	0.00e+00	0	28	0	3461349376	58	4300
2026-01-05 03:50:42.91	237.35	19.26	-46.7	-47.8	15.0	0.00e+00	0	28	0	3466592256	58	4352
2026-01-05 03:50:43.91	237.28	19.14	-46.7	-47.8	14.9	0.00e+00	0	28	0	3472883712	58	4391
2026-01-05 03:50:44.91	237.21	19.02	-46.7	-47.8	15.0	0.00e+00	0	28	0	3478126592	58	4388
2026-01-05 03:50:45.91	237.14	18.90	-46.9	-48.0	14.9	0.00e+00	0	28	0	3483369472	58	4467
2026-01-05 03:50:46.91	237.07	18.78	-46.9	-48.0	15.0	0.00e+00	0	28	0	3489660928	59	4237
2026-01-05 03:50:47.91	237.00	18.66	-46.8	-48.0	15.0	0.00e+00	0	28	0	3494903808	59	4200
2026-01-05 03:50:48.91	236.94	18.54	-46.9	-48.0	15.0	0.00e+00	0	28	0	3501195264	59	4241
2026-01-05 03:50:49.90	236.87	18.42	-46.9	-48.0	15.0	0.00e+00	0	28	0	3506438144	59	4212
2026-01-05 03:50:50.90	236.81	18.30	-46.9	-48.1	15.0	0.00e+00	0	28	0	3511681024	59	4248
2026-01-05 03:50:51.90	236.74	18.19	-46.9	-48.1	15.0	0.00e+00	0	28	0	3517972480	59	4251
2026-01-05 03:50:52.89	236.68	18.07	-47.0	-48.1	15.0	0.00e+00	0	28	0	3523215360	59	4278
2026-01-05 03:50:53.89	236.61	17.95	-47.0	-48.1	15.0	0.00e+00	0	28	0	3528458240	59	4272
2026-01-05 03:50:54.89	236.55	17.84	-47.0	-48.1	15.0	0.00e+00	0	28	0	3534749696	59	4248
2026-01-05 03:50:55.90	236.49	17.72	-47.0	-48.1	14.9	0.00e+00	0	28	0	3539992576	59	4280
2026-01-05 03:50:56.89	236.43	17.61	-46.9	-48.0	15.0	0.00e+00	0	28	0	3545235456	59	4230
2026-01-05 03:50:57.89	236.36	17.49	-47.0	-48.1	14.9	0.00e+00	0	28	0	3551526912	59	4258
2026-01-05 03:50:58.89	236.30	17.38	-47.0	-48.1	15.0	0.00e+00	0	28	0	3556769792	59	4252
2026-01-05 03:50:59.90	236.24	17.26	-46.9	-48.0	15.0	0.00e+00	0	28	0	3563061248	59	4231
2026-01-05 03:51:00.90	236.18	17.15	-47.0	-48.1	15.0	0.00e+00	0	28	0	3568304128	59	4254
2026-01-05 03:51:01.90	236.12	17.04	-47.1	-48.2	14.9	0.00e+00	0	28	0	3573547008	59	4317
2026-01-05 03:51:02.91	236.06	16.93	-47.1	-48.2	14.9	0.00e+00	0	28	0	3579838464	59	4303
2026-01-05 03:51:03.91	236.00	16.81	-47.1	-48.2	14.9	0.00e+00	0	28	0	3585081344	59	4339
2026-01-05 03:51:04.90	235.94	16.70	-47.1	-48.2	14.9	0.00e+00	0	28	0	3590324224	59	4340
2026-01-05 03:51:05.91	235.89	16.59	-47.2	-48.4	14.9	0.00e+00	0	28	0	3596615680	59	4395
2026-01-05 03:51:06.90	235.83	16.48	-47.3	-48.5	14.9	0.00e+00	0	28	0	3601858560	59	4452
2026-01-05 03:51:07.90	235.77	16.37	-47.3	-48.4	14.9	0.00e+00	0	28	0	3607101440	59	4434
2026-01-05 03:51:08.90	235.72	16.26	-47.0	-48.2	15.0	0.00e+00	0	28	0	3613392896	60	4054
2026-01-05 03:51:09.91	235.66	16.15	-47.0	-48.1	15.0	0.00e+00	0	28	0	3618635776	60	4039
2026-01-05 03:51:10.91	235.60	16.05	-47.1	-48.2	15.0	0.00e+00	0	28	0	3624927232	60	4061
2026-01-05 03:51:11.91	235.55	15.94	-47.2	-48.3	15.0	0.00e+00	0	28	0	3630170112	60	4116
2026-01-05 03:51:12.91	235.49	15.83	-47.2	-48.3	15.0	0.00e+00	0	28	0	3635412992	60	4118
2026-01-05 03:51:13.91	235.44	15.72	-47.2	-48.3	15.0	0.00e+00	0	28	0	3641704448	60	4118
2026-01-05 03:51:14.91	235.38	15.62	-47.2	-48.4	14.9	0.00e+00	0	28	0	3646947328	60	4159
