passes_logs/2026/01/05/R3.2S_Murmansk/R3.2S_Murmansk__20260105_222944_NOAA_21_JPSS-2_rec.log

#Pass ID: 20260105_222944_NOAA 21 (JPSS-2)
#Satellite: NOAA 21 (JPSS-2)
#Configuration: NOAA-21
#almurnet v.1.7.20251203
#Start time: 2026-01-05 22:29:43

#Version: 2.2.20231116
#Station: R3.2S_Murmansk
#Location: 33.079688 lon 68.888172 lat
#TLE: 1 54234U 22150A   26005.42670836  .00000142  00000+0  88292-4 0  9996
#TLE: 2 54234  98.7490 306.4427 0001045 340.6622  19.4514 14.19532269163451

#Time	Az	El	Level	Level2	SNR	BER	BlckErr	Temp	State	Recorded	gain1	gain2
2026-01-05 22:29:43.97	18.93	1.99	-58.1	-71.8	3.8	1.49e+00	0	24	0	0	82	17444
2026-01-05 22:29:44.97	18.99	2.05	-58.1	-71.7	3.8	1.49e+00	0	24	104	0	81	18119
2026-01-05 22:29:45.97	19.06	2.10	-58.1	-71.7	3.8	1.49e+00	0	24	104	0	81	18229
2026-01-05 22:29:46.98	19.13	2.16	-58.1	-71.7	3.8	1.49e+00	0	24	104	0	81	18266
2026-01-05 22:29:47.97	19.19	2.21	-58.1	-71.8	3.8	1.49e+00	0	24	104	0	81	18427
2026-01-05 22:29:48.97	19.26	2.27	-58.1	-71.8	3.8	1.49e+00	0	25	104	0	81	18464
2026-01-05 22:29:49.97	19.32	2.33	-58.1	-71.9	3.8	1.49e+00	0	24	104	0	81	18594
2026-01-05 22:29:50.97	19.39	2.38	-58.1	-71.9	3.8	1.49e+00	0	25	104	0	81	18527
2026-01-05 22:29:51.97	19.46	2.44	-58.1	-71.8	3.8	1.49e+00	0	24	104	0	81	18409
2026-01-05 22:29:52.98	19.52	2.50	-58.1	-71.8	3.8	1.49e+00	0	24	104	0	81	18357
2026-01-05 22:29:53.98	19.59	2.55	-58.1	-71.8	3.8	1.49e+00	0	25	104	0	81	18338
2026-01-05 22:29:54.99	19.66	2.61	-58.1	-71.7	3.8	1.49e+00	0	24	104	0	81	18189
2026-01-05 22:29:55.99	19.73	2.67	-58.1	-71.7	3.8	1.49e+00	0	25	104	0	81	18147
2026-01-05 22:29:56.99	19.80	2.72	-58.1	-71.7	3.8	1.49e+00	0	25	104	0	81	18168
2026-01-05 22:29:57.99	19.86	2.78	-58.1	-71.6	3.8	1.49e+00	0	25	104	0	81	18091
2026-01-05 22:29:59.00	19.93	2.84	-58.1	-71.6	3.8	1.49e+00	0	25	104	0	81	17914
2026-01-05 22:30:00.00	20.00	2.90	-58.1	-71.3	3.8	1.49e+00	0	25	104	0	81	17414
2026-01-05 22:30:01.00	20.07	2.95	-58.1	-71.1	3.8	1.49e+00	0	25	104	0	81	16994
2026-01-05 22:30:02.00	20.14	3.01	-58.0	-70.8	3.8	1.49e+00	0	25	104	0	81	16384
2026-01-05 22:30:03.01	20.21	3.07	-58.0	-70.5	3.8	1.49e+00	0	25	104	0	81	15933
2026-01-05 22:30:04.02	20.28	3.13	-58.0	-70.3	3.9	1.49e+00	0	25	104	0	81	15443
2026-01-05 22:30:05.02	20.35	3.19	-58.0	-70.2	3.8	1.49e+00	0	25	104	0	81	15244
2026-01-05 22:30:06.01	20.42	3.24	-58.0	-70.2	3.9	1.49e+00	0	25	104	0	81	15260
2026-01-05 22:30:07.01	20.49	3.30	-58.0	-70.1	3.8	1.49e+00	0	25	104	0	81	15183
2026-01-05 22:30:08.00	20.56	3.36	-58.0	-69.7	3.9	1.49e+00	0	25	104	0	81	14457
2026-01-05 22:30:09.00	20.63	3.42	-57.9	-69.2	4.0	1.48e+00	0	25	104	0	81	13676
2026-01-05 22:30:10.00	20.70	3.47	-57.9	-68.4	3.9	1.47e+00	0	25	104	0	81	12515
2026-01-05 22:30:11.00	20.77	3.53	-57.8	-67.7	4.3	1.47e+00	0	25	104	0	81	11538
2026-01-05 22:30:12.00	20.85	3.59	-57.6	-66.6	4.2	9.21e-01	0	25	104	0	81	10139
2026-01-05 22:30:13.00	20.92	3.65	-57.6	-66.0	5.1	6.43e-01	0	25	0	2097152	81	9473
2026-01-05 22:30:14.00	20.99	3.71	-57.5	-65.5	5.3	5.14e-01	0	25	0	5242880	81	8944
2026-01-05 22:30:14.99	21.06	3.77	-57.4	-65.0	5.7	3.84e-01	0	25	0	8388608	81	8456
2026-01-05 22:30:15.99	21.14	3.82	-57.4	-64.9	5.7	3.57e-01	0	25	0	11534336	81	8323
2026-01-05 22:30:16.99	21.21	3.88	-57.4	-64.7	5.8	3.22e-01	0	25	0	14680064	81	8168
2026-01-05 22:30:17.99	21.28	3.94	-57.3	-64.3	6.1	2.95e-01	0	25	0	17825792	81	7807
2026-01-05 22:30:18.99	21.36	4.00	-57.1	-63.7	6.5	1.87e-01	0	25	0	20971520	80	7643
2026-01-05 22:30:19.99	21.43	4.06	-56.8	-62.5	7.5	7.54e-02	0	25	0	24117248	80	6680
2026-01-05 22:30:20.99	21.50	4.12	-56.3	-61.2	8.7	2.78e-02	0	25	0	27262976	79	6094
2026-01-05 22:30:21.99	21.58	4.18	-55.7	-59.8	9.9	5.43e-03	0	25	0	30408704	78	5465
2026-01-05 22:30:22.99	21.65	4.24	-55.0	-58.3	11.0	3.86e-04	0	25	0	33554432	76	5204
2026-01-05 22:30:23.98	21.73	4.30	-54.0	-56.7	12.0	4.50e-06	0	25	0	35651584	74	4844
2026-01-05 22:30:24.99	21.80	4.36	-53.3	-55.7	12.6	0.00e+00	0	25	0	38797312	73	4568
2026-01-05 22:30:25.99	21.88	4.42	-53.1	-55.4	12.7	0.00e+00	0	25	0	41943040	72	4670
2026-01-05 22:30:26.98	21.95	4.48	-52.5	-54.7	13.1	0.00e+00	0	25	0	45088768	71	4555
2026-01-05 22:30:27.99	22.03	4.54	-52.4	-54.5	13.2	0.00e+00	0	25	0	48234496	71	4467
2026-01-05 22:30:28.98	22.11	4.60	-52.3	-54.4	13.3	0.00e+00	0	25	0	51380224	71	4402
2026-01-05 22:30:29.97	22.18	4.66	-52.6	-54.7	13.1	0.00e+00	0	25	0	54525952	71	4558
2026-01-05 22:30:30.98	22.26	4.72	-52.9	-55.2	12.8	0.00e+00	0	25	0	57671680	71	4824
2026-01-05 22:30:31.98	22.34	4.78	-53.3	-55.7	12.4	0.00e+00	0	26	0	60817408	71	5120
2026-01-05 22:30:32.99	22.42	4.84	-53.9	-56.6	11.9	7.00e-07	0	25	0	63963136	72	5402
2026-01-05 22:30:33.98	22.49	4.90	-54.7	-57.9	11.1	3.81e-05	0	25	0	67108864	74	5561
2026-01-05 22:30:34.98	22.57	4.96	-55.3	-59.1	10.2	5.86e-04	0	26	0	70254592	75	6032
2026-01-05 22:30:35.98	22.65	5.02	-56.0	-60.4	9.3	4.70e-03	0	25	0	73400320	77	6228
2026-01-05 22:30:36.98	22.73	5.08	-55.3	-58.8	10.7	9.61e-04	0	25	0	76546048	77	5176
2026-01-05 22:30:37.98	22.81	5.14	-52.8	-55.0	13.0	0.00e+00	0	26	0	79691776	72	4461
2026-01-05 22:30:38.97	22.89	5.20	-57.3	-64.9	5.7	1.10e-01	0	26	0	82837504	79	9320
2026-01-05 22:30:39.97	22.97	5.26	-55.6	-59.5	10.0	1.65e-03	0	26	0	85983232	77	5636
2026-01-05 22:30:40.97	23.05	5.32	-56.1	-60.4	9.5	3.52e-04	0	26	0	89128960	77	6243
2026-01-05 22:30:41.97	23.13	5.38	-53.1	-55.4	12.8	0.00e+00	0	26	0	92274688	72	4652
2026-01-05 22:30:42.97	23.21	5.44	-52.8	-55.0	13.1	0.00e+00	0	26	0	95420416	72	4461
2026-01-05 22:30:43.97	23.29	5.51	-52.7	-54.7	13.1	0.00e+00	0	25	0	98566144	71	4598
2026-01-05 22:30:44.97	23.37	5.57	-52.4	-54.3	13.4	0.00e+00	0	26	0	101711872	71	4389
2026-01-05 22:30:45.97	23.45	5.63	-52.0	-53.8	13.6	0.00e+00	0	26	0	104857600	70	4378
2026-01-05 22:30:46.97	23.54	5.69	-51.7	-53.6	13.7	0.00e+00	0	26	0	108003328	70	4244
2026-01-05 22:30:47.97	23.62	5.75	-51.9	-53.7	13.7	0.00e+00	0	26	0	111149056	70	4314
2026-01-05 22:30:48.97	23.70	5.81	-51.9	-53.8	13.6	0.00e+00	0	26	0	114294784	70	4366
2026-01-05 22:30:49.97	23.78	5.88	-51.6	-53.4	13.7	0.00e+00	0	26	0	117440512	69	4401
2026-01-05 22:30:50.97	23.87	5.94	-51.5	-53.2	13.8	0.00e+00	0	26	0	120586240	69	4318
2026-01-05 22:30:51.97	23.95	6.00	-51.4	-53.0	13.9	0.00e+00	0	26	0	123731968	69	4238
2026-01-05 22:30:52.97	24.04	6.06	-51.3	-53.0	13.9	0.00e+00	0	26	0	126877696	69	4225
2026-01-05 22:30:53.97	24.12	6.12	-51.4	-53.1	13.9	0.00e+00	0	26	0	130023424	69	4263
2026-01-05 22:30:54.97	24.21	6.19	-51.3	-53.0	14.0	0.00e+00	0	26	0	133169152	69	4201
2026-01-05 22:30:55.97	24.29	6.25	-51.4	-53.1	13.9	0.00e+00	0	26	0	136314880	69	4259
2026-01-05 22:30:56.96	24.37	6.31	-51.3	-53.0	13.9	0.00e+00	0	26	0	139460608	69	4221
2026-01-05 22:30:57.96	24.46	6.37	-51.5	-53.2	13.8	0.00e+00	0	26	0	142606336	69	4329
2026-01-05 22:30:58.97	24.55	6.44	-51.2	-52.8	13.9	0.00e+00	0	26	0	145752064	68	4376
2026-01-05 22:30:59.97	24.63	6.50	-51.2	-52.8	13.9	0.00e+00	0	26	0	148897792	68	4380
2026-01-05 22:31:00.97	24.72	6.56	-51.2	-52.8	13.9	0.00e+00	0	26	0	152043520	68	4363
2026-01-05 22:31:01.97	24.81	6.63	-51.1	-52.8	14.0	0.00e+00	0	26	0	155189248	68	4351
2026-01-05 22:31:02.97	24.90	6.69	-51.1	-52.8	14.0	0.00e+00	0	26	0	158334976	68	4357
2026-01-05 22:31:03.96	24.98	6.75	-51.0	-52.6	14.1	0.00e+00	0	26	0	161480704	68	4253
2026-01-05 22:31:04.96	25.07	6.82	-51.0	-52.6	14.0	0.00e+00	0	26	0	164626432	68	4271
2026-01-05 22:31:05.97	25.16	6.88	-51.0	-52.6	14.0	0.00e+00	0	26	0	167772160	68	4277
2026-01-05 22:31:06.97	25.25	6.94	-51.0	-52.6	14.0	0.00e+00	0	26	0	170917888	68	4254
2026-01-05 22:31:07.96	25.34	7.01	-50.9	-52.4	14.2	0.00e+00	0	26	0	173015040	68	4188
2026-01-05 22:31:08.95	25.43	7.07	-51.0	-52.6	14.1	0.00e+00	0	26	0	176160768	68	4263
2026-01-05 22:31:09.95	25.52	7.13	-50.9	-52.5	14.1	0.00e+00	0	26	0	179306496	68	4220
2026-01-05 22:31:10.95	25.61	7.20	-50.9	-52.4	14.2	0.00e+00	0	26	0	182452224	68	4184
2026-01-05 22:31:11.95	25.70	7.26	-50.8	-52.4	14.2	0.00e+00	0	26	0	185597952	68	4151
2026-01-05 22:31:12.96	25.79	7.33	-50.8	-52.3	14.2	0.00e+00	0	26	0	188743680	68	4128
2026-01-05 22:31:13.95	25.88	7.39	-50.8	-52.3	14.2	0.00e+00	0	26	0	191889408	68	4118
2026-01-05 22:31:14.96	25.97	7.46	-50.5	-52.1	14.2	0.00e+00	0	26	0	195035136	67	4248
2026-01-05 22:31:15.95	26.07	7.52	-50.6	-52.2	14.1	0.00e+00	0	26	0	198180864	67	4311
2026-01-05 22:31:16.94	26.16	7.58	-50.6	-52.2	14.1	0.00e+00	0	26	0	201326592	67	4300
2026-01-05 22:31:17.95	26.25	7.65	-50.6	-52.1	14.2	0.00e+00	0	26	0	204472320	67	4250
2026-01-05 22:31:18.94	26.34	7.71	-50.5	-52.1	14.2	0.00e+00	0	26	0	207618048	67	4247
2026-01-05 22:31:19.95	26.44	7.78	-50.5	-51.9	14.2	0.00e+00	0	26	0	210763776	67	4193
2026-01-05 22:31:20.95	26.53	7.84	-50.5	-52.0	14.2	0.00e+00	0	26	0	213909504	67	4234
2026-01-05 22:31:21.96	26.63	7.91	-50.5	-52.0	14.2	0.00e+00	0	26	0	217055232	67	4234
2026-01-05 22:31:22.96	26.72	7.98	-50.5	-52.1	14.2	0.00e+00	0	26	0	220200960	67	4244
2026-01-05 22:31:23.96	26.82	8.04	-50.6	-52.2	14.1	0.00e+00	0	26	0	223346688	67	4302
2026-01-05 22:31:24.97	26.92	8.11	-50.5	-52.0	14.2	0.00e+00	0	26	0	226492416	67	4204
2026-01-05 22:31:25.97	27.01	8.17	-50.5	-52.0	14.2	0.00e+00	0	26	0	229638144	67	4214
2026-01-05 22:31:26.97	27.11	8.24	-50.5	-52.0	14.2	0.00e+00	0	26	0	232783872	67	4238
2026-01-05 22:31:27.97	27.21	8.30	-50.5	-51.9	14.2	0.00e+00	0	26	0	235929600	67	4192
2026-01-05 22:31:28.96	27.30	8.37	-50.6	-52.1	14.2	0.00e+00	0	26	0	239075328	67	4271
2026-01-05 22:31:29.96	27.40	8.44	-50.4	-51.8	14.3	0.00e+00	0	26	0	242221056	67	4133
2026-01-05 22:31:30.96	27.50	8.50	-50.5	-52.0	14.2	0.00e+00	0	26	0	245366784	67	4200
2026-01-05 22:31:31.97	27.60	8.57	-50.4	-51.9	14.3	0.00e+00	0	26	0	248512512	67	4168
2026-01-05 22:31:32.96	27.70	8.63	-50.4	-51.9	14.3	0.00e+00	0	26	0	251658240	67	4154
2026-01-05 22:31:33.96	27.80	8.70	-50.3	-51.8	14.4	0.00e+00	0	26	0	254803968	67	4105
2026-01-05 22:31:34.96	27.90	8.77	-50.4	-51.8	14.3	0.00e+00	0	26	0	257949696	67	4127
2026-01-05 22:31:35.96	28.00	8.83	-50.4	-51.8	14.3	0.00e+00	0	26	0	261095424	67	4141
2026-01-05 22:31:36.95	28.10	8.90	-50.3	-51.7	14.4	0.00e+00	0	26	0	264241152	67	4084
2026-01-05 22:31:37.96	28.20	8.97	-50.3	-51.8	14.4	0.00e+00	0	26	0	267386880	67	4104
2026-01-05 22:31:38.95	28.30	9.03	-50.1	-51.6	14.3	0.00e+00	0	26	0	270532608	66	4254
2026-01-05 22:31:39.95	28.41	9.10	-50.2	-51.7	14.3	0.00e+00	0	26	0	273678336	66	4320
2026-01-05 22:31:40.95	28.51	9.17	-50.2	-51.7	14.3	0.00e+00	0	26	0	276824064	66	4313
2026-01-05 22:31:41.95	28.61	9.24	-50.2	-51.7	14.3	0.00e+00	0	26	0	279969792	66	4298
2026-01-05 22:31:42.94	28.71	9.30	-50.2	-51.6	14.3	0.00e+00	0	26	0	283115520	66	4286
2026-01-05 22:31:43.94	28.82	9.37	-50.2	-51.6	14.3	0.00e+00	0	26	0	286261248	66	4256
2026-01-05 22:31:44.95	28.92	9.44	-50.1	-51.5	14.3	0.00e+00	0	26	0	289406976	66	4241
2026-01-05 22:31:45.95	29.03	9.51	-50.2	-51.6	14.3	0.00e+00	0	26	0	292552704	66	4290
2026-01-05 22:31:46.94	29.13	9.57	-50.1	-51.5	14.4	0.00e+00	0	26	0	295698432	66	4218
2026-01-05 22:31:47.94	29.24	9.64	-50.1	-51.5	14.4	0.00e+00	0	26	0	298844160	66	4214
2026-01-05 22:31:48.94	29.35	9.71	-50.2	-51.6	14.3	0.00e+00	0	26	0	301989888	66	4271
2026-01-05 22:31:49.94	29.45	9.78	-50.1	-51.5	14.4	0.00e+00	0	26	0	305135616	66	4221
2026-01-05 22:31:50.94	29.56	9.84	-50.1	-51.6	14.3	0.00e+00	0	26	0	308281344	66	4250
2026-01-05 22:31:51.94	29.67	9.91	-50.1	-51.5	14.4	0.00e+00	0	26	0	311427072	66	4206
2026-01-05 22:31:52.94	29.78	9.98	-50.1	-51.5	14.3	0.00e+00	0	26	0	314572800	66	4232
2026-01-05 22:31:53.93	29.88	10.05	-49.9	-51.3	14.5	0.00e+00	0	26	0	317718528	66	4100
2026-01-05 22:31:54.93	29.99	10.12	-49.9	-51.2	14.5	0.00e+00	0	26	0	320864256	66	4089
2026-01-05 22:31:55.93	30.10	10.19	-49.9	-51.2	14.5	0.00e+00	0	26	0	324009984	66	4098
2026-01-05 22:31:56.94	30.22	10.26	-49.8	-51.2	14.5	0.00e+00	0	26	0	327155712	66	4077
2026-01-05 22:31:57.94	30.33	10.33	-49.9	-51.3	14.5	0.00e+00	0	26	0	329252864	66	4104
2026-01-05 22:31:58.94	30.44	10.39	-49.9	-51.3	14.5	0.00e+00	0	26	0	332398592	66	4110
2026-01-05 22:31:59.95	30.55	10.46	-49.9	-51.3	14.5	0.00e+00	0	26	0	335544320	66	4107
2026-01-05 22:32:00.95	30.66	10.53	-49.8	-51.2	14.5	0.00e+00	0	26	0	338690048	66	4058
2026-01-05 22:32:01.94	30.77	10.60	-49.8	-51.1	14.5	0.00e+00	0	26	0	341835776	66	4048
2026-01-05 22:32:02.94	30.89	10.67	-49.6	-51.0	14.5	0.00e+00	0	26	0	344981504	65	4215
2026-01-05 22:32:03.94	31.00	10.74	-49.6	-50.9	14.5	0.00e+00	0	26	0	348127232	65	4184
2026-01-05 22:32:04.95	31.12	10.81	-49.7	-51.1	14.4	0.00e+00	0	26	0	351272960	65	4250
2026-01-05 22:32:05.95	31.23	10.88	-49.7	-51.1	14.4	0.00e+00	0	26	0	354418688	65	4244
2026-01-05 22:32:06.95	31.35	10.95	-49.6	-51.0	14.5	0.00e+00	0	26	0	357564416	65	4198
2026-01-05 22:32:07.95	31.46	11.02	-49.7	-51.0	14.5	0.00e+00	0	26	0	360710144	65	4233
2026-01-05 22:32:08.95	31.58	11.09	-49.6	-51.0	14.5	0.00e+00	0	26	0	363855872	65	4214
2026-01-05 22:32:09.96	31.70	11.16	-49.6	-50.9	14.5	0.00e+00	0	26	0	367001600	65	4184
2026-01-05 22:32:10.96	31.82	11.23	-49.6	-50.9	14.5	0.00e+00	0	26	0	370147328	65	4189
2026-01-05 22:32:11.96	31.94	11.30	-49.6	-51.0	14.5	0.00e+00	0	26	0	373293056	65	4202
2026-01-05 22:32:12.96	32.05	11.37	-49.7	-51.0	14.5	0.00e+00	0	26	0	376438784	65	4232
2026-01-05 22:32:13.96	32.17	11.44	-49.5	-50.9	14.5	0.00e+00	0	26	0	379584512	65	4158
2026-01-05 22:32:14.95	32.29	11.51	-49.5	-50.9	14.5	0.00e+00	0	26	0	382730240	65	4146
2026-01-05 22:32:15.95	32.41	11.58	-49.5	-50.9	14.6	0.00e+00	0	26	0	385875968	65	4149
2026-01-05 22:32:16.96	32.53	11.66	-49.4	-50.7	14.6	0.00e+00	0	26	0	389021696	65	4093
2026-01-05 22:32:17.96	32.66	11.73	-49.3	-50.7	14.6	0.00e+00	0	26	0	392167424	65	4053
2026-01-05 22:32:18.96	32.78	11.80	-49.3	-50.7	14.6	0.00e+00	0	26	0	395313152	65	4053
2026-01-05 22:32:19.96	32.90	11.87	-49.5	-50.8	14.6	0.00e+00	0	26	0	398458880	65	4122
2026-01-05 22:32:20.96	33.02	11.94	-49.3	-50.7	14.6	0.00e+00	0	26	0	401604608	65	4055
2026-01-05 22:32:21.96	33.15	12.01	-49.2	-50.5	14.6	0.00e+00	0	26	0	404750336	64	4211
2026-01-05 22:32:22.96	33.27	12.08	-49.3	-50.6	14.5	0.00e+00	0	26	0	407896064	64	4262
2026-01-05 22:32:23.95	33.40	12.15	-49.2	-50.5	14.6	0.00e+00	0	26	0	411041792	64	4200
2026-01-05 22:32:24.95	33.52	12.22	-49.3	-50.6	14.5	0.00e+00	0	26	0	414187520	64	4265
2026-01-05 22:32:25.95	33.65	12.30	-49.2	-50.6	14.5	0.00e+00	0	26	0	417333248	64	4244
2026-01-05 22:32:26.95	33.77	12.37	-49.3	-50.6	14.5	0.00e+00	0	26	0	420478976	64	4261
2026-01-05 22:32:27.95	33.90	12.44	-49.3	-50.6	14.5	0.00e+00	0	26	0	423624704	64	4288
2026-01-05 22:32:28.95	34.03	12.51	-49.2	-50.5	14.6	0.00e+00	0	26	0	426770432	64	4228
2026-01-05 22:32:29.95	34.16	12.58	-49.3	-50.6	14.5	0.00e+00	0	26	0	429916160	64	4262
2026-01-05 22:32:30.95	34.29	12.66	-49.3	-50.6	14.5	0.00e+00	0	26	0	433061888	64	4281
2026-01-05 22:32:31.95	34.42	12.73	-49.3	-50.6	14.5	0.00e+00	0	26	0	436207616	64	4271
2026-01-05 22:32:32.95	34.55	12.80	-49.2	-50.5	14.5	0.00e+00	0	26	0	439353344	64	4236
2026-01-05 22:32:33.95	34.68	12.87	-49.3	-50.6	14.6	0.00e+00	0	26	0	442499072	64	4258
2026-01-05 22:32:34.96	34.81	12.95	-49.3	-50.6	14.5	0.00e+00	0	26	0	445644800	64	4269
2026-01-05 22:32:35.95	34.94	13.02	-49.3	-50.6	14.6	0.00e+00	0	26	0	448790528	64	4261
2026-01-05 22:32:36.96	35.07	13.09	-49.1	-50.4	14.6	0.00e+00	0	26	0	451936256	64	4154
2026-01-05 22:32:37.96	35.21	13.16	-49.0	-50.3	14.7	0.00e+00	0	26	0	455081984	64	4118
2026-01-05 22:32:38.97	35.34	13.24	-49.0	-50.3	14.7	0.00e+00	0	26	0	458227712	64	4104
2026-01-05 22:32:39.96	35.48	13.31	-49.0	-50.3	14.7	0.00e+00	0	26	0	461373440	64	4106
2026-01-05 22:32:40.96	35.61	13.38	-48.9	-50.1	14.7	0.00e+00	0	26	0	464519168	64	4049
2026-01-05 22:32:41.96	35.75	13.46	-49.0	-50.2	14.7	0.00e+00	0	26	0	467664896	64	4084
2026-01-05 22:32:42.96	35.88	13.53	-49.0	-50.3	14.7	0.00e+00	0	26	0	470810624	64	4115
2026-01-05 22:32:43.97	36.02	13.60	-49.1	-50.3	14.6	0.00e+00	0	26	0	473956352	64	4133
2026-01-05 22:32:44.97	36.16	13.68	-49.2	-50.5	14.6	0.00e+00	0	26	0	477102080	64	4194
2026-01-05 22:32:45.98	36.30	13.75	-49.2	-50.5	14.6	0.00e+00	0	26	0	480247808	64	4215
2026-01-05 22:32:46.98	36.44	13.82	-49.3	-50.6	14.6	0.00e+00	0	26	0	483393536	64	4251
2026-01-05 22:32:47.98	36.58	13.90	-49.3	-50.6	14.6	0.00e+00	0	26	0	486539264	64	4246
2026-01-05 22:32:48.98	36.72	13.97	-49.4	-50.7	14.5	0.00e+00	0	26	0	489684992	64	4295
2026-01-05 22:32:49.99	36.86	14.04	-49.4	-50.7	14.5	0.00e+00	0	26	0	492830720	64	4307
2026-01-05 22:32:50.98	37.00	14.12	-49.3	-50.6	14.6	0.00e+00	0	26	0	495976448	64	4257
2026-01-05 22:32:51.98	37.15	14.19	-49.2	-50.5	14.6	0.00e+00	0	26	0	499122176	64	4212
2026-01-05 22:32:52.98	37.29	14.26	-49.2	-50.5	14.6	0.00e+00	0	26	0	502267904	64	4221
2026-01-05 22:32:53.98	37.43	14.34	-49.2	-50.5	14.6	0.00e+00	0	26	0	505413632	64	4230
2026-01-05 22:32:54.98	37.58	14.41	-49.1	-50.4	14.6	0.00e+00	0	26	0	508559360	64	4180
2026-01-05 22:32:55.98	37.72	14.49	-49.2	-50.4	14.6	0.00e+00	0	26	0	510656512	64	4192
2026-01-05 22:32:56.98	37.87	14.56	-49.2	-50.5	14.6	0.00e+00	0	26	0	513802240	64	4235
2026-01-05 22:32:57.99	38.02	14.63	-49.2	-50.5	14.6	0.00e+00	0	26	0	516947968	64	4231
2026-01-05 22:32:58.99	38.17	14.71	-49.2	-50.5	14.6	0.00e+00	0	26	0	520093696	64	4235
2026-01-05 22:33:00.00	38.32	14.78	-49.4	-50.7	14.5	0.00e+00	0	26	0	523239424	64	4323
2026-01-05 22:33:00.97	38.46	14.86	-49.3	-50.7	14.6	0.00e+00	0	26	0	526385152	64	4336
2026-01-05 22:33:01.98	38.61	14.93	-48.7	-50.7	14.8	0.00e+00	0	26	0	529530880	64	4294
2026-01-05 22:33:02.98	38.76	15.00	-46.8	-51.3	14.7	0.00e+00	0	26	0	532676608	59	6142
2026-01-05 22:33:03.97	38.91	15.08	-46.3	-51.2	14.6	0.00e+00	0	26	0	535822336	58	6454
2026-01-05 22:33:04.97	39.06	15.15	-47.9	-50.9	14.4	0.00e+00	0	26	0	538968064	60	5537
2026-01-05 22:33:05.96	39.21	15.23	-48.7	-50.8	14.4	0.00e+00	0	26	0	542113792	62	4893
2026-01-05 22:33:06.95	39.37	15.30	-49.0	-50.6	14.6	0.00e+00	0	26	0	545259520	63	4495
2026-01-05 22:33:07.95	39.52	15.37	-49.2	-50.6	14.5	0.00e+00	0	26	0	548405248	63	4506
2026-01-05 22:33:08.95	39.67	15.45	-49.1	-50.4	14.5	0.00e+00	0	26	0	551550976	63	4439
2026-01-05 22:33:09.94	39.83	15.52	-49.2	-50.4	14.5	0.00e+00	0	26	0	554696704	63	4433
2026-01-05 22:33:10.94	39.98	15.60	-49.2	-50.5	14.5	0.00e+00	0	26	0	557842432	63	4450
2026-01-05 22:33:11.94	40.14	15.67	-49.2	-50.5	14.5	0.00e+00	0	26	0	560988160	63	4477
2026-01-05 22:33:12.94	40.30	15.75	-49.3	-50.6	14.5	0.00e+00	0	26	0	564133888	63	4531
2026-01-05 22:33:13.94	40.46	15.82	-49.4	-50.7	14.4	0.00e+00	0	26	0	567279616	63	4569
2026-01-05 22:33:14.93	40.62	15.90	-49.4	-50.7	14.5	0.00e+00	0	26	0	570425344	64	4321
2026-01-05 22:33:15.93	40.78	15.97	-49.5	-50.8	14.5	0.00e+00	0	26	0	573571072	64	4352
2026-01-05 22:33:16.93	40.94	16.04	-49.6	-50.9	14.4	0.00e+00	0	26	0	576716800	64	4420
2026-01-05 22:33:17.93	41.10	16.12	-49.6	-50.9	14.4	0.00e+00	0	26	0	579862528	64	4413
2026-01-05 22:33:18.93	41.26	16.19	-49.5	-50.8	14.5	0.00e+00	0	26	0	583008256	64	4364
2026-01-05 22:33:19.93	41.42	16.27	-49.4	-50.7	14.5	0.00e+00	0	26	0	586153984	64	4327
2026-01-05 22:33:20.92	41.59	16.34	-49.4	-50.7	14.5	0.00e+00	0	26	0	589299712	64	4305
2026-01-05 22:33:21.91	41.75	16.42	-49.4	-50.7	14.5	0.00e+00	0	26	0	592445440	64	4336
2026-01-05 22:33:22.90	41.91	16.49	-49.3	-50.6	14.6	0.00e+00	0	26	0	595591168	64	4276
2026-01-05 22:33:23.90	42.08	16.57	-49.3	-50.6	14.6	0.00e+00	0	26	0	598736896	64	4280
2026-01-05 22:33:24.90	42.25	16.64	-49.4	-50.7	14.5	0.00e+00	0	26	0	601882624	64	4336
2026-01-05 22:33:25.90	42.41	16.72	-49.5	-50.8	14.5	0.00e+00	0	26	0	605028352	64	4371
2026-01-05 22:33:26.90	42.58	16.79	-49.6	-51.0	14.4	0.00e+00	0	26	0	608174080	64	4454
2026-01-05 22:33:27.91	42.75	16.87	-49.7	-51.0	14.4	0.00e+00	0	26	0	611319808	64	4482
2026-01-05 22:33:28.91	42.93	16.94	-49.8	-51.2	14.3	0.00e+00	0	26	0	614465536	64	4564
2026-01-05 22:33:29.91	43.10	17.02	-49.8	-51.1	14.4	0.00e+00	0	26	0	617611264	64	4532
2026-01-05 22:33:30.90	43.27	17.09	-49.6	-50.9	14.4	0.00e+00	0	26	0	620756992	64	4423
2026-01-05 22:33:31.90	43.44	17.17	-49.5	-50.9	14.5	0.00e+00	0	26	0	622854144	64	4400
2026-01-05 22:33:32.89	43.61	17.24	-49.3	-50.6	14.5	0.00e+00	0	26	0	625999872	64	4279
2026-01-05 22:33:33.88	43.78	17.31	-49.3	-50.6	14.6	0.00e+00	0	26	0	629145600	64	4264
2026-01-05 22:33:34.88	43.96	17.39	-49.4	-50.6	14.5	0.00e+00	0	26	0	632291328	64	4289
2026-01-05 22:33:35.89	44.14	17.46	-49.4	-50.6	14.6	0.00e+00	0	26	0	635437056	64	4289
2026-01-05 22:33:36.88	44.31	17.54	-49.3	-50.6	14.5	0.00e+00	0	26	0	638582784	64	4277
2026-01-05 22:33:37.88	44.49	17.61	-49.4	-50.6	14.5	0.00e+00	0	26	0	641728512	64	4291
2026-01-05 22:33:38.87	44.67	17.69	-49.3	-50.6	14.5	0.00e+00	0	26	0	644874240	64	4280
2026-01-05 22:33:39.86	44.85	17.76	-49.4	-50.7	14.5	0.00e+00	0	26	0	648019968	64	4307
2026-01-05 22:33:40.85	45.02	17.83	-49.4	-50.7	14.5	0.00e+00	0	26	0	651165696	64	4310
2026-01-05 22:33:41.85	45.21	17.91	-49.4	-50.7	14.5	0.00e+00	0	26	0	654311424	64	4308
2026-01-05 22:33:42.85	45.39	17.98	-49.3	-50.5	14.6	0.00e+00	0	26	0	657457152	64	4241
2026-01-05 22:33:43.85	45.57	18.06	-49.3	-50.6	14.6	0.00e+00	0	26	0	660602880	64	4250
2026-01-05 22:33:44.84	45.75	18.13	-49.4	-50.6	14.5	0.00e+00	0	26	0	663748608	64	4289
2026-01-05 22:33:45.84	45.94	18.21	-49.3	-50.6	14.6	0.00e+00	0	26	0	666894336	64	4255
2026-01-05 22:33:46.83	46.12	18.28	-49.2	-50.5	14.6	0.00e+00	0	26	0	670040064	64	4206
2026-01-05 22:33:47.82	46.31	18.35	-49.1	-50.4	14.6	0.00e+00	0	26	0	673185792	64	4157
2026-01-05 22:33:48.81	46.49	18.43	-49.2	-50.4	14.6	0.00e+00	0	26	0	676331520	64	4178
2026-01-05 22:33:49.81	46.68	18.50	-49.2	-50.4	14.6	0.00e+00	0	26	0	679477248	64	4180
2026-01-05 22:33:50.80	46.87	18.57	-49.1	-50.3	14.7	0.00e+00	0	26	0	682622976	64	4130
2026-01-05 22:33:51.80	47.06	18.65	-49.2	-50.4	14.6	0.00e+00	0	26	0	685768704	64	4168
2026-01-05 22:33:52.79	47.25	18.72	-49.1	-50.4	14.6	0.00e+00	0	26	0	688914432	64	4169
2026-01-05 22:33:53.79	47.44	18.79	-49.2	-50.4	14.6	0.00e+00	0	26	0	692060160	64	4184
2026-01-05 22:33:54.79	47.63	18.87	-49.1	-50.4	14.7	0.00e+00	0	26	0	695205888	64	4164
2026-01-05 22:33:55.79	47.83	18.94	-49.0	-50.3	14.7	0.00e+00	0	26	0	698351616	64	4112
2026-01-05 22:33:56.78	48.02	19.01	-49.2	-50.4	14.6	0.00e+00	0	26	0	701497344	64	4186
2026-01-05 22:33:57.78	48.21	19.09	-49.1	-50.3	14.7	0.00e+00	0	26	0	704643072	64	4122
2026-01-05 22:33:58.78	48.41	19.16	-49.0	-50.3	14.7	0.00e+00	0	26	0	707788800	64	4111
2026-01-05 22:33:59.77	48.61	19.23	-49.0	-50.2	14.7	0.00e+00	0	26	0	710934528	64	4083
2026-01-05 22:34:00.77	48.80	19.31	-48.9	-50.2	14.7	0.00e+00	0	26	0	714080256	64	4056
2026-01-05 22:34:01.76	49.00	19.38	-49.0	-50.3	14.7	0.00e+00	0	26	0	717225984	64	4104
2026-01-05 22:34:02.76	49.20	19.45	-49.0	-50.2	14.7	0.00e+00	0	26	0	719323136	64	4085
2026-01-05 22:34:03.75	49.40	19.52	-49.1	-50.3	14.7	0.00e+00	0	26	0	722468864	64	4142
2026-01-05 22:34:04.75	49.60	19.59	-49.1	-50.4	14.7	0.00e+00	0	26	0	725614592	64	4151
2026-01-05 22:34:05.75	49.81	19.67	-49.2	-50.4	14.6	0.00e+00	0	26	0	728760320	64	4192
2026-01-05 22:34:06.75	50.01	19.74	-49.1	-50.4	14.7	0.00e+00	0	26	0	731906048	64	4159
2026-01-05 22:34:07.74	50.21	19.81	-49.2	-50.4	14.6	0.00e+00	0	26	0	735051776	64	4173
2026-01-05 22:34:08.73	50.42	19.88	-49.2	-50.4	14.6	0.00e+00	0	26	0	738197504	64	4188
2026-01-05 22:34:09.73	50.62	19.95	-49.1	-50.4	14.6	0.00e+00	0	26	0	741343232	64	4168
2026-01-05 22:34:10.73	50.83	20.03	-49.2	-50.5	14.6	0.00e+00	0	26	0	744488960	64	4216
2026-01-05 22:34:11.72	51.04	20.10	-49.2	-50.5	14.6	0.00e+00	0	26	0	747634688	64	4207
2026-01-05 22:34:12.71	51.24	20.17	-49.2	-50.4	14.6	0.00e+00	0	26	0	750780416	64	4193
2026-01-05 22:34:13.70	51.45	20.24	-49.3	-50.5	14.6	0.00e+00	0	26	0	753926144	64	4239
2026-01-05 22:34:14.69	51.66	20.31	-49.2	-50.5	14.6	0.00e+00	0	26	0	757071872	64	4220
2026-01-05 22:34:15.69	51.87	20.38	-49.2	-50.5	14.6	0.00e+00	0	26	0	760217600	64	4198
2026-01-05 22:34:16.69	52.09	20.45	-49.3	-50.6	14.6	0.00e+00	0	26	0	763363328	64	4244
2026-01-05 22:34:17.69	52.30	20.52	-49.2	-50.4	14.6	0.00e+00	0	26	0	766509056	64	4188
2026-01-05 22:34:18.68	52.51	20.59	-49.2	-50.5	14.6	0.00e+00	0	26	0	769654784	64	4203
2026-01-05 22:34:19.67	52.73	20.66	-49.1	-50.3	14.7	0.00e+00	0	26	0	772800512	64	4128
2026-01-05 22:34:20.67	52.95	20.73	-49.1	-50.3	14.7	0.00e+00	0	26	0	775946240	64	4127
2026-01-05 22:34:21.66	53.16	20.80	-49.1	-50.4	14.7	0.00e+00	0	26	0	779091968	64	4149
2026-01-05 22:34:22.66	53.38	20.87	-49.0	-50.3	14.7	0.00e+00	0	26	0	782237696	64	4116
2026-01-05 22:34:23.65	53.60	20.93	-49.1	-50.3	14.7	0.00e+00	0	26	0	785383424	64	4136
2026-01-05 22:34:24.64	53.82	21.00	-49.0	-50.2	14.7	0.00e+00	0	26	0	788529152	64	4092
2026-01-05 22:34:25.64	54.04	21.07	-48.9	-50.2	14.7	0.00e+00	0	26	0	791674880	64	4062
2026-01-05 22:34:26.63	54.26	21.14	-49.0	-50.2	14.7	0.00e+00	0	26	0	794820608	64	4085
2026-01-05 22:34:27.63	54.48	21.21	-48.8	-50.1	14.8	0.00e+00	0	26	0	797966336	64	4008
2026-01-05 22:34:28.62	54.71	21.27	-48.9	-50.1	14.7	0.00e+00	0	26	0	801112064	64	4050
2026-01-05 22:34:29.62	54.93	21.34	-48.9	-50.1	14.8	0.00e+00	0	26	0	804257792	64	4035
2026-01-05 22:34:30.62	55.16	21.41	-48.9	-50.1	14.8	0.00e+00	0	26	0	807403520	64	4040
2026-01-05 22:34:31.61	55.38	21.48	-49.0	-50.3	14.7	0.00e+00	0	26	0	809500672	64	4103
2026-01-05 22:34:32.61	55.61	21.54	-48.9	-50.1	14.8	0.00e+00	0	26	0	812646400	64	4040
2026-01-05 22:34:33.60	55.84	21.61	-48.9	-50.1	14.8	0.00e+00	0	26	0	815792128	64	4037
2026-01-05 22:34:34.60	56.07	21.68	-48.9	-50.1	14.7	0.00e+00	0	26	0	818937856	64	4048
2026-01-05 22:34:35.59	56.30	21.74	-48.9	-50.1	14.8	0.00e+00	0	26	0	822083584	64	4021
2026-01-05 22:34:36.59	56.53	21.81	-48.9	-50.1	14.8	0.00e+00	0	26	0	825229312	64	4020
2026-01-05 22:34:37.59	56.77	21.87	-48.7	-49.9	14.8	0.00e+00	0	26	0	828375040	64	3943
2026-01-05 22:34:38.58	57.00	21.94	-48.4	-49.6	14.8	0.00e+00	0	26	0	831520768	63	4021
2026-01-05 22:34:39.57	57.23	22.00	-48.3	-49.5	14.9	0.00e+00	0	26	0	834666496	63	3988
2026-01-05 22:34:40.57	57.47	22.06	-48.5	-49.6	14.8	0.00e+00	0	26	0	837812224	63	4044
2026-01-05 22:34:41.57	57.70	22.13	-48.5	-49.7	14.8	0.00e+00	0	26	0	840957952	63	4078
2026-01-05 22:34:42.56	57.94	22.19	-48.7	-49.9	14.7	0.00e+00	0	26	0	844103680	63	4183
2026-01-05 22:34:43.56	58.18	22.26	-48.7	-49.9	14.7	0.00e+00	0	26	0	847249408	63	4168
2026-01-05 22:34:44.56	58.42	22.32	-48.7	-49.9	14.7	0.00e+00	0	26	0	850395136	63	4168
2026-01-05 22:34:45.55	58.66	22.38	-48.8	-50.0	14.7	0.00e+00	0	26	0	853540864	63	4220
2026-01-05 22:34:46.54	58.90	22.44	-48.8	-50.0	14.7	0.00e+00	0	26	0	856686592	63	4227
2026-01-05 22:34:47.53	59.14	22.50	-48.7	-50.0	14.7	0.00e+00	0	26	0	859832320	63	4195
2026-01-05 22:34:48.52	59.38	22.57	-48.8	-50.0	14.7	0.00e+00	0	26	0	862978048	63	4205
2026-01-05 22:34:49.53	59.63	22.63	-48.8	-50.0	14.7	0.00e+00	0	26	0	866123776	63	4217
2026-01-05 22:34:50.53	59.87	22.69	-48.8	-50.0	14.7	0.00e+00	0	26	0	869269504	63	4209
2026-01-05 22:34:51.53	60.12	22.75	-48.7	-49.9	14.7	0.00e+00	0	26	0	872415232	63	4181
2026-01-05 22:34:52.53	60.37	22.81	-48.8	-50.0	14.7	0.00e+00	0	26	0	875560960	63	4199
2026-01-05 22:34:53.52	60.61	22.87	-48.7	-49.9	14.7	0.00e+00	0	26	0	878706688	63	4173
2026-01-05 22:34:54.53	60.87	22.93	-48.7	-49.9	14.7	0.00e+00	0	26	0	881852416	63	4174
2026-01-05 22:34:55.52	61.11	22.99	-48.7	-49.9	14.7	0.00e+00	0	26	0	884998144	63	4159
2026-01-05 22:34:56.51	61.36	23.04	-48.7	-49.9	14.7	0.00e+00	0	26	0	888143872	63	4179
2026-01-05 22:34:57.51	61.62	23.10	-48.7	-49.9	14.7	0.00e+00	0	26	0	891289600	63	4180
2026-01-05 22:34:58.50	61.87	23.16	-48.8	-50.1	14.7	0.00e+00	0	26	0	894435328	63	4244
2026-01-05 22:34:59.49	62.12	23.22	-48.8	-50.0	14.7	0.00e+00	0	26	0	897581056	63	4228
2026-01-05 22:35:00.48	62.37	23.27	-48.9	-50.1	14.7	0.00e+00	0	26	0	900726784	63	4261
2026-01-05 22:35:01.47	62.62	23.33	-48.9	-50.1	14.7	0.00e+00	0	26	0	903872512	63	4266
2026-01-05 22:35:02.47	62.88	23.38	-48.9	-50.1	14.7	0.00e+00	0	26	0	905969664	63	4286
2026-01-05 22:35:03.46	63.14	23.44	-48.9	-50.1	14.7	0.00e+00	0	26	0	909115392	63	4267
2026-01-05 22:35:04.46	63.39	23.49	-48.7	-49.9	14.7	0.00e+00	0	26	0	912261120	63	4180
2026-01-05 22:35:05.45	63.65	23.55	-48.8	-49.9	14.7	0.00e+00	0	26	0	915406848	63	4191
2026-01-05 22:35:06.45	63.91	23.60	-48.7	-49.9	14.7	0.00e+00	0	26	0	918552576	63	4169
2026-01-05 22:35:07.46	64.18	23.66	-48.8	-50.0	14.7	0.00e+00	0	26	0	921698304	63	4241
2026-01-05 22:35:08.45	64.44	23.71	-48.8	-50.0	14.7	0.00e+00	0	26	0	924844032	63	4232
2026-01-05 22:35:09.45	64.70	23.76	-48.8	-50.0	14.7	0.00e+00	0	26	0	927989760	63	4236
2026-01-05 22:35:10.44	64.96	23.81	-48.9	-50.2	14.6	0.00e+00	0	26	0	931135488	63	4293
2026-01-05 22:35:11.43	65.22	23.86	-49.0	-50.3	14.6	0.00e+00	0	26	0	934281216	63	4348
2026-01-05 22:35:12.43	65.49	23.91	-49.1	-50.3	14.6	0.00e+00	0	26	0	937426944	63	4380
2026-01-05 22:35:13.43	65.75	23.96	-49.1	-50.3	14.6	0.00e+00	0	26	0	940572672	63	4385
2026-01-05 22:35:14.43	66.02	24.01	-49.0	-50.3	14.6	0.00e+00	0	26	0	943718400	63	4360
2026-01-05 22:35:15.42	66.29	24.06	-49.0	-50.2	14.6	0.00e+00	0	26	0	946864128	63	4336
2026-01-05 22:35:16.41	66.55	24.11	-48.9	-50.1	14.7	0.00e+00	0	26	0	950009856	63	4261
2026-01-05 22:35:17.40	66.82	24.16	-48.8	-50.0	14.7	0.00e+00	0	26	0	953155584	63	4234
2026-01-05 22:35:18.39	67.09	24.21	-48.9	-50.1	14.7	0.00e+00	0	26	0	956301312	63	4272
2026-01-05 22:35:19.39	67.36	24.25	-48.9	-50.1	14.6	0.00e+00	0	26	0	959447040	63	4280
2026-01-05 22:35:20.38	67.63	24.30	-48.9	-50.1	14.7	0.00e+00	0	26	0	962592768	63	4273
2026-01-05 22:35:21.37	67.90	24.35	-49.0	-50.2	14.6	0.00e+00	0	26	0	965738496	63	4308
2026-01-05 22:35:22.36	68.17	24.39	-49.0	-50.2	14.6	0.00e+00	0	26	0	968884224	63	4314
2026-01-05 22:35:23.36	68.44	24.44	-49.0	-50.2	14.6	0.00e+00	0	26	0	972029952	63	4311
2026-01-05 22:35:24.36	68.72	24.48	-48.8	-50.0	14.7	0.00e+00	0	26	0	975175680	63	4212
2026-01-05 22:35:25.35	68.99	24.52	-48.6	-49.8	14.7	0.00e+00	0	26	0	978321408	63	4143
2026-01-05 22:35:26.34	69.27	24.57	-48.7	-49.9	14.7	0.00e+00	0	27	0	981467136	63	4163
2026-01-05 22:35:27.33	69.54	24.61	-48.8	-50.0	14.7	0.00e+00	0	26	0	984612864	63	4215
2026-01-05 22:35:28.33	69.82	24.65	-48.9	-50.1	14.6	0.00e+00	0	26	0	987758592	63	4283
2026-01-05 22:35:29.33	70.10	24.69	-48.7	-50.0	14.7	0.00e+00	0	26	0	990904320	63	4199
2026-01-05 22:35:30.33	70.38	24.73	-48.7	-49.9	14.7	0.00e+00	0	26	0	993001472	63	4191
2026-01-05 22:35:31.33	70.66	24.77	-48.7	-49.9	14.7	0.00e+00	0	26	0	996147200	63	4148
2026-01-05 22:35:32.33	70.94	24.81	-48.8	-50.0	14.7	0.00e+00	0	26	0	999292928	63	4216
2026-01-05 22:35:33.32	71.22	24.85	-48.8	-50.0	14.7	0.00e+00	0	26	0	1002438656	63	4203
2026-01-05 22:35:34.32	71.50	24.89	-48.8	-50.0	14.7	0.00e+00	0	26	0	1005584384	63	4232
2026-01-05 22:35:35.31	71.78	24.92	-48.8	-50.0	14.7	0.00e+00	0	26	0	1008730112	63	4212
2026-01-05 22:35:36.31	72.07	24.96	-48.8	-50.0	14.7	0.00e+00	0	26	0	1011875840	63	4230
2026-01-05 22:35:37.30	72.35	24.99	-48.8	-50.1	14.7	0.00e+00	0	26	0	1015021568	63	4253
2026-01-05 22:35:38.30	72.63	25.03	-48.8	-50.0	14.7	0.00e+00	0	26	0	1018167296	63	4240
2026-01-05 22:35:39.30	72.92	25.06	-48.9	-50.1	14.7	0.00e+00	0	26	0	1021313024	63	4254
2026-01-05 22:35:40.30	73.20	25.10	-48.7	-49.9	14.7	0.00e+00	0	26	0	1024458752	63	4164
2026-01-05 22:35:41.29	73.49	25.13	-48.6	-49.8	14.8	0.00e+00	0	26	0	1027604480	63	4101
2026-01-05 22:35:42.29	73.77	25.16	-48.7	-49.9	14.7	0.00e+00	0	26	0	1030750208	63	4178
2026-01-05 22:35:43.29	74.06	25.19	-48.7	-49.9	14.7	0.00e+00	0	26	0	1033895936	63	4155
2026-01-05 22:35:44.29	74.35	25.23	-48.6	-49.8	14.8	0.00e+00	0	26	0	1037041664	63	4124
2026-01-05 22:35:45.28	74.64	25.26	-48.6	-49.8	14.8	0.00e+00	0	26	0	1040187392	63	4123
2026-01-05 22:35:46.28	74.93	25.29	-48.6	-49.8	14.8	0.00e+00	0	26	0	1043333120	63	4118
2026-01-05 22:35:47.28	75.22	25.31	-48.4	-49.6	14.8	0.00e+00	0	26	0	1046478848	63	4033
2026-01-05 22:35:48.28	75.51	25.34	-48.4	-49.6	14.8	0.00e+00	0	26	0	1049624576	63	4022
2026-01-05 22:35:49.27	75.80	25.37	-48.5	-49.6	14.8	0.00e+00	0	26	0	1052770304	63	4049
2026-01-05 22:35:50.26	76.08	25.40	-48.4	-49.6	14.8	0.00e+00	0	26	0	1055916032	63	4035
2026-01-05 22:35:51.26	76.38	25.42	-48.4	-49.6	14.8	0.00e+00	0	26	0	1059061760	63	4038
2026-01-05 22:35:52.26	76.67	25.45	-48.4	-49.5	14.9	0.00e+00	0	26	0	1062207488	63	4002
2026-01-05 22:35:53.25	76.96	25.47	-48.4	-49.5	14.9	0.00e+00	0	26	0	1065353216	63	3993
2026-01-05 22:35:54.25	77.25	25.49	-48.4	-49.6	14.9	0.00e+00	0	26	0	1068498944	63	4009
2026-01-05 22:35:55.24	77.54	25.52	-48.4	-49.6	14.8	0.00e+00	0	26	0	1071644672	63	4015
2026-01-05 22:35:56.24	77.84	25.54	-48.4	-49.6	14.8	0.00e+00	0	27	0	1074790400	63	4023
2026-01-05 22:35:57.23	78.13	25.56	-48.4	-49.6	14.8	0.00e+00	0	26	0	1077936128	63	4021
2026-01-05 22:35:58.23	78.43	25.58	-48.4	-49.6	14.8	0.00e+00	0	26	0	1081081856	63	4036
2026-01-05 22:35:59.23	78.72	25.60	-48.4	-49.6	14.8	0.00e+00	0	26	0	1084227584	63	4005
2026-01-05 22:36:00.22	79.01	25.62	-48.3	-49.4	14.9	0.00e+00	0	26	0	1087373312	63	3948
2026-01-05 22:36:01.21	79.31	25.64	-48.3	-49.4	14.9	0.00e+00	0	26	0	1089470464	63	3950
2026-01-05 22:36:02.21	79.60	25.66	-48.3	-49.4	14.9	0.00e+00	0	26	0	1092616192	63	3948
2026-01-05 22:36:03.20	79.90	25.67	-48.4	-49.6	14.8	0.00e+00	0	26	0	1095761920	63	4035
2026-01-05 22:36:04.21	80.20	25.69	-48.5	-49.7	14.8	0.00e+00	0	26	0	1098907648	63	4076
2026-01-05 22:36:05.20	80.49	25.70	-48.6	-49.8	14.8	0.00e+00	0	26	0	1102053376	63	4120
2026-01-05 22:36:06.19	80.79	25.72	-48.5	-49.7	14.8	0.00e+00	0	26	0	1105199104	63	4065
2026-01-05 22:36:07.19	81.09	25.73	-48.5	-49.7	14.8	0.00e+00	0	26	0	1108344832	63	4073
2026-01-05 22:36:08.19	81.38	25.74	-48.4	-49.5	14.8	0.00e+00	0	26	0	1111490560	63	3999
2026-01-05 22:36:09.19	81.68	25.76	-48.5	-49.6	14.8	0.00e+00	0	26	0	1114636288	63	4051
2026-01-05 22:36:10.19	81.98	25.77	-48.5	-49.6	14.8	0.00e+00	0	26	0	1117782016	63	4050
2026-01-05 22:36:11.18	82.28	25.78	-48.5	-49.6	14.8	0.00e+00	0	26	0	1120927744	63	4044
2026-01-05 22:36:12.18	82.58	25.79	-48.4	-49.6	14.8	0.00e+00	0	26	0	1124073472	63	4035
2026-01-05 22:36:13.18	82.87	25.80	-48.4	-49.6	14.9	0.00e+00	0	26	0	1127219200	63	4032
2026-01-05 22:36:14.18	83.17	25.80	-48.3	-49.4	14.9	0.00e+00	0	26	0	1130364928	63	3948
2026-01-05 22:36:15.18	83.47	25.81	-48.3	-49.5	14.9	0.00e+00	0	26	0	1133510656	63	3967
2026-01-05 22:36:16.17	83.77	25.82	-48.4	-49.5	14.9	0.00e+00	0	26	0	1136656384	63	3983
2026-01-05 22:36:17.16	84.07	25.82	-48.2	-49.4	14.9	0.00e+00	0	26	0	1139802112	63	3927
2026-01-05 22:36:18.15	84.36	25.83	-48.4	-49.5	14.9	0.00e+00	0	26	0	1142947840	63	3985
2026-01-05 22:36:19.15	84.66	25.83	-48.4	-49.6	14.9	0.00e+00	0	26	0	1146093568	63	4013
2026-01-05 22:36:20.13	84.96	25.83	-48.4	-49.6	14.9	0.00e+00	0	26	0	1149239296	63	4008
2026-01-05 22:36:21.13	85.26	25.84	-48.5	-49.7	14.8	0.00e+00	0	26	0	1152385024	63	4054
2026-01-05 22:36:22.12	85.56	25.84	-48.4	-49.6	14.9	0.00e+00	0	26	0	1155530752	63	4007
2026-01-05 22:36:23.11	85.85	25.84	-48.4	-49.6	14.8	0.00e+00	0	26	0	1158676480	63	4009
2026-01-05 22:36:24.11	86.15	25.84	-48.2	-49.3	14.9	0.00e+00	0	27	0	1161822208	63	3905
2026-01-05 22:36:25.10	86.45	25.84	-48.0	-49.1	14.9	0.00e+00	0	26	0	1164967936	62	4045
2026-01-05 22:36:26.10	86.75	25.83	-48.0	-49.1	14.9	0.00e+00	0	26	0	1168113664	62	4049
2026-01-05 22:36:27.09	87.05	25.83	-48.0	-49.1	14.9	0.00e+00	0	26	0	1171259392	62	4049
2026-01-05 22:36:28.09	87.35	25.83	-48.1	-49.3	14.8	0.00e+00	0	26	0	1174405120	62	4102
2026-01-05 22:36:29.08	87.64	25.82	-48.2	-49.3	14.8	0.00e+00	0	26	0	1177550848	62	4125
2026-01-05 22:36:30.07	87.94	25.82	-48.1	-49.3	14.8	0.00e+00	0	26	0	1180696576	62	4115
2026-01-05 22:36:31.07	88.24	25.81	-48.3	-49.4	14.8	0.00e+00	0	26	0	1183842304	62	4192
2026-01-05 22:36:32.07	88.54	25.81	-48.3	-49.4	14.8	0.00e+00	0	26	0	1186988032	62	4185
2026-01-05 22:36:33.06	88.84	25.80	-48.2	-49.4	14.8	0.00e+00	0	26	0	1189085184	62	4173
2026-01-05 22:36:34.05	89.13	25.79	-48.3	-49.5	14.8	0.00e+00	0	26	0	1192230912	62	4199
2026-01-05 22:36:35.05	89.43	25.78	-48.2	-49.3	14.8	0.00e+00	0	26	0	1195376640	62	4132
2026-01-05 22:36:36.04	89.73	25.77	-48.2	-49.4	14.8	0.00e+00	0	26	0	1198522368	62	4153
2026-01-05 22:36:37.03	90.03	25.76	-48.3	-49.4	14.8	0.00e+00	0	26	0	1201668096	62	4190
2026-01-05 22:36:38.02	90.32	25.75	-48.4	-49.6	14.7	0.00e+00	0	27	0	1204813824	62	4260
2026-01-05 22:36:39.02	90.62	25.74	-48.5	-49.7	14.7	0.00e+00	0	26	0	1207959552	62	4310
2026-01-05 22:36:40.02	90.92	25.72	-48.5	-49.7	14.7	0.00e+00	0	26	0	1211105280	62	4323
2026-01-05 22:36:41.02	91.22	25.71	-48.5	-49.7	14.7	0.00e+00	0	26	0	1214251008	62	4308
2026-01-05 22:36:42.01	91.51	25.70	-48.5	-49.7	14.7	0.00e+00	0	26	0	1217396736	62	4300
2026-01-05 22:36:43.00	91.81	25.68	-48.6	-49.8	14.7	0.00e+00	0	26	0	1220542464	62	4355
2026-01-05 22:36:44.00	92.10	25.66	-48.5	-49.7	14.7	0.00e+00	0	26	0	1223688192	62	4311
2026-01-05 22:36:44.99	92.40	25.65	-48.4	-49.6	14.7	0.00e+00	0	26	0	1226833920	62	4271
2026-01-05 22:36:45.98	92.69	25.63	-48.5	-49.6	14.7	0.00e+00	0	26	0	1229979648	62	4291
2026-01-05 22:36:46.98	92.99	25.61	-48.5	-49.6	14.7	0.00e+00	0	26	0	1233125376	62	4281
2026-01-05 22:36:47.98	93.28	25.59	-48.3	-49.5	14.8	0.00e+00	0	26	0	1236271104	62	4215
2026-01-05 22:36:48.98	93.58	25.57	-48.2	-49.3	14.8	0.00e+00	0	26	0	1239416832	62	4130
2026-01-05 22:36:49.98	93.87	25.55	-48.2	-49.3	14.8	0.00e+00	0	26	0	1242562560	62	4141
2026-01-05 22:36:50.98	94.17	25.53	-48.3	-49.4	14.8	0.00e+00	0	26	0	1245708288	62	4187
2026-01-05 22:36:51.98	94.46	25.51	-48.3	-49.5	14.8	0.00e+00	0	26	0	1248854016	62	4194
2026-01-05 22:36:52.97	94.75	25.48	-48.4	-49.6	14.7	0.00e+00	0	26	0	1251999744	62	4268
2026-01-05 22:36:53.97	95.05	25.46	-48.4	-49.6	14.7	0.00e+00	0	26	0	1255145472	62	4249
2026-01-05 22:36:54.96	95.34	25.43	-48.5	-49.6	14.7	0.00e+00	0	26	0	1258291200	62	4291
2026-01-05 22:36:55.96	95.63	25.41	-48.4	-49.6	14.7	0.00e+00	0	26	0	1261436928	62	4255
2026-01-05 22:36:56.96	95.92	25.38	-48.5	-49.7	14.7	0.00e+00	0	26	0	1264582656	62	4302
2026-01-05 22:36:57.95	96.21	25.35	-48.5	-49.7	14.7	0.00e+00	0	26	0	1267728384	62	4297
2026-01-05 22:36:58.95	96.50	25.33	-48.5	-49.7	14.7	0.00e+00	0	27	0	1270874112	62	4303
2026-01-05 22:36:59.95	96.79	25.30	-48.4	-49.5	14.8	0.00e+00	0	26	0	1274019840	62	4238
2026-01-05 22:37:00.94	97.08	25.27	-48.3	-49.5	14.8	0.00e+00	0	26	0	1277165568	62	4214
2026-01-05 22:37:01.94	97.37	25.24	-48.4	-49.5	14.7	0.00e+00	0	26	0	1279262720	62	4239
2026-01-05 22:37:02.93	97.66	25.21	-48.5	-49.7	14.7	0.00e+00	0	27	0	1282408448	62	4339
2026-01-05 22:37:03.93	97.95	25.18	-48.6	-49.8	14.7	0.00e+00	0	26	0	1285554176	62	4351
2026-01-05 22:37:04.93	98.23	25.15	-48.7	-49.9	14.6	0.00e+00	0	26	0	1288699904	62	4440
2026-01-05 22:37:05.93	98.52	25.11	-48.7	-49.9	14.6	0.00e+00	0	26	0	1291845632	62	4406
2026-01-05 22:37:06.92	98.81	25.08	-48.7	-49.9	14.6	0.00e+00	0	26	0	1294991360	62	4408
2026-01-05 22:37:07.92	99.09	25.05	-48.6	-49.8	14.7	0.00e+00	0	26	0	1298137088	62	4352
2026-01-05 22:37:08.91	99.38	25.01	-48.5	-49.7	14.7	0.00e+00	0	26	0	1301282816	62	4307
2026-01-05 22:37:09.92	99.66	24.97	-48.4	-49.6	14.7	0.00e+00	0	26	0	1304428544	62	4274
2026-01-05 22:37:10.91	99.95	24.94	-48.5	-49.7	14.7	0.00e+00	0	27	0	1307574272	62	4293
2026-01-05 22:37:11.91	100.23	24.90	-48.5	-49.7	14.7	0.00e+00	0	26	0	1310720000	62	4328
2026-01-05 22:37:12.90	100.51	24.86	-48.5	-49.8	14.7	0.00e+00	0	26	0	1313865728	62	4344
2026-01-05 22:37:13.90	100.79	24.83	-48.7	-49.9	14.6	0.00e+00	0	26	0	1317011456	62	4403
2026-01-05 22:37:14.90	101.07	24.79	-48.7	-49.9	14.6	0.00e+00	0	26	0	1320157184	62	4419
2026-01-05 22:37:15.90	101.36	24.75	-48.7	-49.9	14.6	0.00e+00	0	26	0	1323302912	62	4437
2026-01-05 22:37:16.90	101.64	24.71	-48.9	-50.1	14.6	0.00e+00	0	26	0	1326448640	62	4519
2026-01-05 22:37:17.90	101.92	24.67	-48.9	-50.1	14.7	0.00e+00	0	26	0	1329594368	63	4284
2026-01-05 22:37:18.90	102.19	24.62	-48.8	-50.0	14.7	0.00e+00	0	26	0	1332740096	63	4203
2026-01-05 22:37:19.89	102.47	24.58	-48.8	-50.1	14.7	0.00e+00	0	26	0	1335885824	63	4256
2026-01-05 22:37:20.89	102.75	24.54	-48.9	-50.2	14.7	0.00e+00	0	26	0	1339031552	63	4298
2026-01-05 22:37:21.89	103.03	24.50	-48.9	-50.1	14.7	0.00e+00	0	26	0	1342177280	63	4266
2026-01-05 22:37:22.90	103.30	24.45	-48.9	-50.1	14.7	0.00e+00	0	26	0	1345323008	63	4268
2026-01-05 22:37:23.89	103.58	24.41	-48.8	-50.0	14.7	0.00e+00	0	26	0	1348468736	63	4220
2026-01-05 22:37:24.89	103.85	24.36	-48.7	-49.9	14.7	0.00e+00	0	26	0	1351614464	63	4170
2026-01-05 22:37:25.89	104.13	24.32	-48.7	-49.9	14.7	0.00e+00	0	26	0	1354760192	63	4168
2026-01-05 22:37:26.89	104.40	24.27	-48.7	-49.9	14.7	0.00e+00	0	27	0	1357905920	63	4168
2026-01-05 22:37:27.89	104.67	24.22	-48.7	-49.9	14.7	0.00e+00	0	26	0	1361051648	63	4184
2026-01-05 22:37:28.89	104.94	24.18	-48.7	-49.8	14.7	0.00e+00	0	26	0	1364197376	63	4144
2026-01-05 22:37:29.89	105.21	24.13	-48.5	-49.7	14.8	0.00e+00	0	26	0	1367343104	63	4069
2026-01-05 22:37:30.89	105.48	24.08	-48.6	-49.8	14.8	0.00e+00	0	27	0	1370488832	63	4099
2026-01-05 22:37:31.89	105.75	24.03	-48.6	-49.8	14.7	0.00e+00	0	26	0	1373634560	63	4139
2026-01-05 22:37:32.89	106.02	23.98	-48.6	-49.8	14.8	0.00e+00	0	26	0	1376780288	63	4142
2026-01-05 22:37:33.89	106.29	23.93	-48.8	-50.0	14.7	0.00e+00	0	26	0	1379926016	63	4208
2026-01-05 22:37:34.89	106.55	23.88	-48.7	-49.9	14.7	0.00e+00	0	26	0	1383071744	63	4158
2026-01-05 22:37:35.88	106.82	23.83	-48.7	-49.9	14.7	0.00e+00	0	26	0	1386217472	63	4183
2026-01-05 22:37:36.88	107.08	23.77	-48.8	-50.0	14.7	0.00e+00	0	26	0	1389363200	63	4214
2026-01-05 22:37:37.88	107.35	23.72	-48.8	-50.0	14.7	0.00e+00	0	26	0	1392508928	63	4224
2026-01-05 22:37:38.88	107.61	23.67	-48.8	-50.0	14.7	0.00e+00	0	26	0	1395654656	63	4230
2026-01-05 22:37:39.88	107.87	23.62	-48.8	-50.0	14.7	0.00e+00	0	26	0	1398800384	63	4226
2026-01-05 22:37:40.88	108.13	23.56	-48.7	-49.9	14.7	0.00e+00	0	26	0	1401946112	63	4153
2026-01-05 22:37:41.88	108.39	23.51	-48.5	-49.7	14.8	0.00e+00	0	26	0	1405091840	63	4065
2026-01-05 22:37:42.89	108.66	23.45	-48.6	-49.8	14.8	0.00e+00	0	27	0	1408237568	63	4108
2026-01-05 22:37:43.89	108.91	23.40	-48.6	-49.8	14.7	0.00e+00	0	26	0	1410334720	63	4118
2026-01-05 22:37:44.89	109.17	23.34	-48.5	-49.7	14.8	0.00e+00	0	26	0	1413480448	63	4086
2026-01-05 22:37:45.90	109.43	23.28	-48.5	-49.7	14.8	0.00e+00	0	26	0	1416626176	63	4082
2026-01-05 22:37:46.90	109.69	23.23	-48.5	-49.7	14.8	0.00e+00	0	26	0	1419771904	63	4055
2026-01-05 22:37:47.90	109.94	23.17	-48.3	-49.5	14.9	0.00e+00	0	27	0	1422917632	63	3967
2026-01-05 22:37:48.90	110.20	23.11	-48.3	-49.5	14.9	0.00e+00	0	26	0	1426063360	63	3966
2026-01-05 22:37:49.90	110.45	23.05	-48.5	-49.7	14.8	0.00e+00	0	26	0	1429209088	63	4071
2026-01-05 22:37:50.90	110.70	22.99	-48.6	-49.8	14.8	0.00e+00	0	26	0	1432354816	63	4120
2026-01-05 22:37:51.90	110.95	22.93	-48.6	-49.8	14.7	0.00e+00	0	26	0	1435500544	63	4119
2026-01-05 22:37:52.90	111.21	22.88	-48.7	-49.9	14.7	0.00e+00	0	26	0	1438646272	63	4179
2026-01-05 22:37:53.91	111.46	22.81	-48.9	-50.1	14.6	0.00e+00	0	26	0	1441792000	63	4285
2026-01-05 22:37:54.91	111.71	22.75	-48.8	-50.0	14.7	0.00e+00	0	27	0	1444937728	63	4237
2026-01-05 22:37:55.90	111.95	22.69	-48.8	-50.0	14.7	0.00e+00	0	26	0	1448083456	63	4225
2026-01-05 22:37:56.90	112.20	22.63	-48.8	-50.0	14.7	0.00e+00	0	26	0	1451229184	63	4233
2026-01-05 22:37:57.90	112.44	22.57	-48.8	-50.0	14.7	0.00e+00	0	26	0	1454374912	63	4209
2026-01-05 22:37:58.90	112.69	22.51	-48.9	-50.1	14.7	0.00e+00	0	27	0	1457520640	63	4249
2026-01-05 22:37:59.90	112.93	22.45	-48.8	-50.0	14.7	0.00e+00	0	26	0	1460666368	63	4200
2026-01-05 22:38:00.90	113.18	22.38	-48.8	-49.9	14.7	0.00e+00	0	26	0	1463812096	63	4193
2026-01-05 22:38:01.90	113.42	22.32	-48.8	-50.0	14.7	0.00e+00	0	26	0	1466957824	63	4202
2026-01-05 22:38:02.90	113.66	22.26	-48.5	-49.7	14.8	0.00e+00	0	26	0	1470103552	63	4080
2026-01-05 22:38:03.90	113.90	22.19	-48.6	-49.8	14.8	0.00e+00	0	26	0	1473249280	63	4105
2026-01-05 22:38:04.90	114.14	22.13	-48.7	-49.9	14.7	0.00e+00	0	26	0	1476395008	63	4155
2026-01-05 22:38:05.90	114.38	22.07	-48.7	-49.9	14.7	0.00e+00	0	26	0	1479540736	63	4173
2026-01-05 22:38:06.89	114.61	22.00	-48.7	-49.9	14.7	0.00e+00	0	26	0	1482686464	63	4182
2026-01-05 22:38:07.89	114.85	21.94	-48.9	-50.1	14.6	0.00e+00	0	27	0	1485832192	63	4262
2026-01-05 22:38:08.88	115.08	21.87	-48.9	-50.1	14.6	0.00e+00	0	26	0	1488977920	63	4276
2026-01-05 22:38:09.87	115.31	21.81	-48.9	-50.1	14.6	0.00e+00	0	27	0	1492123648	63	4288
2026-01-05 22:38:10.87	115.55	21.74	-48.9	-50.1	14.7	0.00e+00	0	26	0	1495269376	63	4267
2026-01-05 22:38:11.87	115.78	21.67	-49.0	-50.2	14.6	0.00e+00	0	26	0	1498415104	63	4318
2026-01-05 22:38:12.86	116.01	21.61	-49.0	-50.2	14.6	0.00e+00	0	26	0	1501560832	63	4328
2026-01-05 22:38:13.86	116.24	21.54	-48.9	-50.1	14.6	0.00e+00	0	26	0	1504706560	63	4273
2026-01-05 22:38:14.85	116.47	21.48	-48.8	-50.1	14.7	0.00e+00	0	26	0	1507852288	63	4251
2026-01-05 22:38:15.85	116.69	21.41	-48.7	-49.9	14.7	0.00e+00	0	26	0	1510998016	63	4168
2026-01-05 22:38:16.84	116.92	21.34	-48.6	-49.8	14.7	0.00e+00	0	27	0	1514143744	63	4116
2026-01-05 22:38:17.83	117.14	21.27	-48.7	-49.9	14.7	0.00e+00	0	26	0	1517289472	63	4160
2026-01-05 22:38:18.83	117.37	21.21	-48.6	-49.8	14.7	0.00e+00	0	26	0	1520435200	63	4126
2026-01-05 22:38:19.82	117.59	21.14	-48.6	-49.7	14.8	0.00e+00	0	27	0	1523580928	63	4084
2026-01-05 22:38:20.82	117.82	21.07	-48.6	-49.8	14.7	0.00e+00	0	26	0	1526726656	63	4116
2026-01-05 22:38:21.81	118.04	21.00	-48.8	-50.0	14.7	0.00e+00	0	26	0	1529872384	63	4196
2026-01-05 22:38:22.81	118.26	20.93	-48.8	-50.0	14.7	0.00e+00	0	27	0	1531969536	63	4238
2026-01-05 22:38:23.81	118.48	20.86	-48.8	-50.0	14.7	0.00e+00	0	27	0	1535115264	63	4241
2026-01-05 22:38:24.81	118.70	20.79	-48.8	-50.1	14.6	0.00e+00	0	27	0	1538260992	63	4254
2026-01-05 22:38:25.81	118.92	20.72	-48.8	-50.0	14.7	0.00e+00	0	26	0	1541406720	63	4238
2026-01-05 22:38:26.80	119.13	20.65	-48.8	-50.1	14.6	0.00e+00	0	27	0	1544552448	63	4257
2026-01-05 22:38:27.79	119.35	20.58	-48.8	-50.0	14.7	0.00e+00	0	27	0	1547698176	63	4227
2026-01-05 22:38:28.79	119.56	20.51	-48.7	-50.0	14.7	0.00e+00	0	27	0	1550843904	63	4195
2026-01-05 22:38:29.78	119.78	20.44	-48.7	-49.9	14.7	0.00e+00	0	26	0	1553989632	63	4184
2026-01-05 22:38:30.77	119.99	20.37	-48.8	-50.0	14.7	0.00e+00	0	26	0	1557135360	63	4224
2026-01-05 22:38:31.78	120.20	20.30	-48.9	-50.1	14.6	0.00e+00	0	26	0	1560281088	63	4287
2026-01-05 22:38:32.77	120.41	20.23	-48.9	-50.2	14.6	0.00e+00	0	27	0	1563426816	63	4313
2026-01-05 22:38:33.77	120.63	20.16	-49.0	-50.2	14.6	0.00e+00	0	26	0	1566572544	63	4340
2026-01-05 22:38:34.77	120.84	20.09	-49.0	-50.3	14.6	0.00e+00	0	27	0	1569718272	63	4344
2026-01-05 22:38:35.76	121.04	20.02	-48.8	-50.1	14.6	0.00e+00	0	26	0	1572864000	63	4255
2026-01-05 22:38:36.76	121.25	19.94	-48.8	-50.1	14.6	0.00e+00	0	27	0	1576009728	63	4244
2026-01-05 22:38:37.76	121.46	19.87	-48.9	-50.1	14.6	0.00e+00	0	26	0	1579155456	63	4261
2026-01-05 22:38:38.76	121.67	19.80	-48.8	-50.0	14.7	0.00e+00	0	26	0	1582301184	63	4216
2026-01-05 22:38:39.76	121.87	19.73	-48.6	-49.8	14.7	0.00e+00	0	26	0	1585446912	63	4101
2026-01-05 22:38:40.75	122.07	19.65	-48.7	-49.9	14.7	0.00e+00	0	27	0	1588592640	63	4166
2026-01-05 22:38:41.75	122.28	19.58	-48.7	-49.9	14.7	0.00e+00	0	26	0	1591738368	63	4180
2026-01-05 22:38:42.73	122.48	19.51	-48.8	-50.0	14.7	0.00e+00	0	27	0	1594884096	63	4226
2026-01-05 22:38:43.73	122.68	19.44	-48.8	-50.0	14.7	0.00e+00	0	27	0	1598029824	63	4240
2026-01-05 22:38:44.73	122.88	19.36	-48.9	-50.2	14.6	0.00e+00	0	26	0	1601175552	63	4293
2026-01-05 22:38:45.72	123.08	19.29	-48.8	-50.1	14.6	0.00e+00	0	27	0	1604321280	63	4257
2026-01-05 22:38:46.72	123.28	19.22	-48.9	-50.1	14.6	0.00e+00	0	26	0	1607467008	63	4279
2026-01-05 22:38:47.71	123.47	19.14	-49.0	-50.2	14.6	0.00e+00	0	26	0	1610612736	63	4332
2026-01-05 22:38:48.70	123.67	19.07	-48.9	-50.2	14.6	0.00e+00	0	26	0	1613758464	63	4308
2026-01-05 22:38:49.69	123.86	19.00	-48.7	-50.0	14.7	0.00e+00	0	26	0	1616904192	63	4207
2026-01-05 22:38:50.69	124.06	18.92	-48.8	-50.0	14.6	0.00e+00	0	26	0	1620049920	63	4229
2026-01-05 22:38:51.68	124.25	18.85	-48.8	-50.1	14.6	0.00e+00	0	26	0	1623195648	63	4245
2026-01-05 22:38:52.67	124.44	18.78	-48.9	-50.1	14.6	0.00e+00	0	26	0	1626341376	63	4276
2026-01-05 22:38:53.67	124.63	18.70	-48.8	-50.1	14.6	0.00e+00	0	26	0	1629487104	63	4258
2026-01-05 22:38:54.66	124.82	18.63	-48.9	-50.2	14.6	0.00e+00	0	26	0	1631584256	63	4292
2026-01-05 22:38:55.65	125.01	18.56	-48.8	-50.1	14.6	0.00e+00	0	26	0	1634729984	63	4253
2026-01-05 22:38:56.65	125.20	18.48	-48.9	-50.2	14.6	0.00e+00	0	26	0	1637875712	63	4300
2026-01-05 22:38:57.63	125.39	18.41	-48.8	-50.0	14.6	0.00e+00	0	26	0	1641021440	63	4241
2026-01-05 22:38:58.63	125.58	18.33	-48.9	-50.1	14.6	0.00e+00	0	26	0	1644167168	63	4272
2026-01-05 22:38:59.62	125.76	18.26	-48.9	-50.2	14.6	0.00e+00	0	26	0	1647312896	63	4296
2026-01-05 22:39:00.63	125.95	18.19	-48.9	-50.1	14.6	0.00e+00	0	26	0	1650458624	63	4271
2026-01-05 22:39:01.62	126.13	18.11	-49.0	-50.2	14.6	0.00e+00	0	26	0	1653604352	63	4322
2026-01-05 22:39:02.62	126.32	18.04	-48.9	-50.2	14.6	0.00e+00	0	26	0	1656750080	63	4306
2026-01-05 22:39:03.61	126.50	17.96	-49.0	-50.2	14.6	0.00e+00	0	26	0	1659895808	63	4309
2026-01-05 22:39:04.60	126.68	17.89	-49.0	-50.2	14.6	0.00e+00	0	27	0	1663041536	63	4337
2026-01-05 22:39:05.60	126.86	17.81	-49.0	-50.2	14.6	0.00e+00	0	26	0	1666187264	63	4334
2026-01-05 22:39:06.59	127.04	17.74	-49.0	-50.3	14.6	0.00e+00	0	26	0	1669332992	63	4348
2026-01-05 22:39:07.59	127.22	17.66	-49.1	-50.4	14.5	0.00e+00	0	27	0	1672478720	63	4421
2026-01-05 22:39:08.59	127.40	17.59	-49.2	-50.5	14.5	0.00e+00	0	26	0	1675624448	63	4447
2026-01-05 22:39:09.59	127.58	17.51	-49.3	-50.6	14.4	0.00e+00	0	26	0	1678770176	63	4523
2026-01-05 22:39:10.58	127.76	17.44	-49.3	-50.6	14.4	0.00e+00	0	26	0	1681915904	63	4529
2026-01-05 22:39:11.57	127.93	17.36	-49.3	-50.6	14.5	0.00e+00	0	26	0	1685061632	63	4530
2026-01-05 22:39:12.57	128.11	17.29	-49.3	-50.6	14.5	0.00e+00	0	27	0	1688207360	63	4510
2026-01-05 22:39:13.57	128.28	17.21	-49.3	-50.6	14.5	0.00e+00	0	27	0	1691353088	63	4506
2026-01-05 22:39:14.57	128.46	17.14	-49.2	-50.5	14.5	0.00e+00	0	26	0	1694498816	63	4454
2026-01-05 22:39:15.56	128.63	17.06	-49.3	-50.6	14.4	0.00e+00	0	26	0	1697644544	63	4513
2026-01-05 22:39:16.56	128.80	16.99	-49.3	-50.6	14.4	0.00e+00	0	26	0	1700790272	63	4538
2026-01-05 22:39:17.55	128.97	16.91	-49.3	-50.6	14.4	0.00e+00	0	26	0	1703936000	63	4541
2026-01-05 22:39:18.54	129.14	16.84	-49.2	-50.5	14.5	0.00e+00	0	26	0	1707081728	63	4461
2026-01-05 22:39:19.53	129.31	16.77	-49.3	-50.6	14.5	0.00e+00	0	26	0	1710227456	63	4494
2026-01-05 22:39:20.52	129.48	16.69	-49.3	-50.6	14.4	0.00e+00	0	26	0	1713373184	63	4514
2026-01-05 22:39:21.52	129.65	16.62	-49.4	-50.7	14.4	0.00e+00	0	26	0	1716518912	63	4572
2026-01-05 22:39:22.51	129.81	16.54	-49.4	-50.7	14.5	0.00e+00	0	26	0	1718616064	64	4329
2026-01-05 22:39:23.51	129.98	16.47	-49.4	-50.7	14.5	0.00e+00	0	26	0	1721761792	64	4313
2026-01-05 22:39:24.50	130.14	16.39	-49.3	-50.6	14.5	0.00e+00	0	26	0	1724907520	64	4290
2026-01-05 22:39:25.50	130.31	16.32	-49.3	-50.6	14.5	0.00e+00	0	27	0	1728053248	64	4253
2026-01-05 22:39:26.48	130.47	16.24	-49.2	-50.5	14.5	0.00e+00	0	26	0	1731198976	64	4224
2026-01-05 22:39:27.48	130.63	16.17	-49.2	-50.5	14.6	0.00e+00	0	27	0	1734344704	64	4222
2026-01-05 22:39:28.48	130.80	16.09	-49.2	-50.5	14.5	0.00e+00	0	26	0	1737490432	64	4217
2026-01-05 22:39:29.47	130.96	16.02	-49.3	-50.6	14.5	0.00e+00	0	26	0	1740636160	64	4250
2026-01-05 22:39:30.47	131.12	15.94	-49.4	-50.7	14.5	0.00e+00	0	27	0	1743781888	64	4301
2026-01-05 22:39:31.47	131.28	15.87	-49.3	-50.6	14.5	0.00e+00	0	26	0	1746927616	64	4259
2026-01-05 22:39:32.47	131.44	15.79	-49.4	-50.7	14.5	0.00e+00	0	26	0	1750073344	64	4304
2026-01-05 22:39:33.45	131.60	15.72	-49.5	-50.8	14.4	0.00e+00	0	27	0	1753219072	64	4368
2026-01-05 22:39:34.45	131.75	15.64	-49.5	-50.9	14.4	0.00e+00	0	26	0	1756364800	64	4394
2026-01-05 22:39:35.45	131.91	15.57	-49.7	-51.0	14.3	0.00e+00	0	26	0	1759510528	64	4489
2026-01-05 22:39:36.44	132.07	15.49	-49.6	-51.0	14.4	0.00e+00	0	26	0	1762656256	64	4456
2026-01-05 22:39:37.44	132.22	15.42	-49.6	-50.9	14.4	0.00e+00	0	27	0	1765801984	64	4429
2026-01-05 22:39:38.44	132.38	15.34	-49.7	-51.1	14.3	0.00e+00	0	26	0	1768947712	64	4503
2026-01-05 22:39:39.44	132.53	15.27	-49.7	-51.1	14.3	0.00e+00	0	26	0	1772093440	64	4508
2026-01-05 22:39:40.43	132.68	15.19	-49.7	-51.1	14.3	0.00e+00	0	26	0	1775239168	64	4523
2026-01-05 22:39:41.43	132.84	15.12	-49.6	-51.0	14.4	0.00e+00	0	26	0	1778384896	64	4465
2026-01-05 22:39:42.42	132.99	15.04	-49.4	-50.8	14.4	0.00e+00	0	26	0	1781530624	64	4349
2026-01-05 22:39:43.41	133.14	14.97	-49.5	-50.9	14.4	0.00e+00	0	26	0	1784676352	64	4397
2026-01-05 22:39:44.41	133.29	14.89	-49.5	-50.8	14.4	0.00e+00	0	26	0	1787822080	64	4389
2026-01-05 22:39:45.41	133.44	14.82	-49.5	-50.8	14.4	0.00e+00	0	26	0	1790967808	64	4369
2026-01-05 22:39:46.40	133.59	14.75	-49.5	-50.9	14.4	0.00e+00	0	26	0	1794113536	64	4393
2026-01-05 22:39:47.40	133.74	14.67	-49.4	-50.7	14.5	0.00e+00	0	27	0	1797259264	64	4321
2026-01-05 22:39:48.39	133.88	14.60	-49.5	-50.8	14.4	0.00e+00	0	26	0	1800404992	64	4347
2026-01-05 22:39:49.39	134.03	14.52	-49.3	-50.6	14.5	0.00e+00	0	26	0	1803550720	64	4285
2026-01-05 22:39:50.38	134.17	14.45	-49.4	-50.8	14.4	0.00e+00	0	26	0	1805647872	64	4348
2026-01-05 22:39:51.38	134.32	14.37	-49.4	-50.7	14.4	0.00e+00	0	26	0	1808793600	64	4332
2026-01-05 22:39:52.37	134.46	14.30	-49.4	-50.7	14.4	0.00e+00	0	26	0	1811939328	64	4337
2026-01-05 22:39:53.36	134.61	14.23	-49.5	-50.8	14.4	0.00e+00	0	26	0	1815085056	64	4389
2026-01-05 22:39:54.36	134.75	14.15	-49.6	-51.0	14.3	0.00e+00	0	26	0	1818230784	64	4461
2026-01-05 22:39:55.35	134.89	14.08	-49.8	-51.2	14.3	0.00e+00	0	26	0	1821376512	64	4548
2026-01-05 22:39:56.35	135.04	14.01	-49.9	-51.3	14.3	0.00e+00	0	26	0	1824522240	64	4602
2026-01-05 22:39:57.34	135.18	13.93	-49.9	-51.3	14.2	0.00e+00	0	26	0	1827667968	64	4623
2026-01-05 22:39:58.34	135.32	13.86	-49.8	-51.2	14.4	0.00e+00	0	27	0	1830813696	65	4330
2026-01-05 22:39:59.34	135.46	13.78	-49.8	-51.2	14.4	0.00e+00	0	27	0	1833959424	65	4327
2026-01-05 22:40:00.33	135.60	13.71	-49.9	-51.3	14.3	0.00e+00	0	26	0	1837105152	65	4347
2026-01-05 22:40:01.32	135.73	13.64	-49.8	-51.2	14.4	0.00e+00	0	27	0	1840250880	65	4321
2026-01-05 22:40:02.32	135.87	13.56	-49.8	-51.2	14.3	0.00e+00	0	26	0	1843396608	65	4322
2026-01-05 22:40:03.33	136.01	13.49	-49.8	-51.2	14.4	0.00e+00	0	26	0	1846542336	65	4317
2026-01-05 22:40:04.32	136.15	13.42	-49.8	-51.2	14.3	0.00e+00	0	26	0	1849688064	65	4336
2026-01-05 22:40:05.31	136.28	13.34	-49.8	-51.2	14.3	0.00e+00	0	26	0	1852833792	65	4322
2026-01-05 22:40:06.31	136.42	13.27	-49.9	-51.3	14.3	0.00e+00	0	26	0	1855979520	65	4342
2026-01-05 22:40:07.30	136.55	13.20	-49.8	-51.2	14.4	0.00e+00	0	26	0	1859125248	65	4296
2026-01-05 22:40:08.29	136.68	13.13	-49.8	-51.1	14.4	0.00e+00	0	27	0	1862270976	65	4283
2026-01-05 22:40:09.28	136.82	13.05	-49.8	-51.2	14.4	0.00e+00	0	27	0	1865416704	65	4301
2026-01-05 22:40:10.27	136.95	12.98	-49.8	-51.2	14.3	0.00e+00	0	26	0	1868562432	65	4330
2026-01-05 22:40:11.27	137.08	12.91	-49.9	-51.3	14.3	0.00e+00	0	27	0	1871708160	65	4386
2026-01-05 22:40:12.26	137.21	12.84	-49.9	-51.4	14.3	0.00e+00	0	27	0	1874853888	65	4394
2026-01-05 22:40:13.26	137.34	12.76	-50.0	-51.4	14.2	0.00e+00	0	26	0	1877999616	65	4440
2026-01-05 22:40:14.25	137.47	12.69	-50.0	-51.4	14.3	0.00e+00	0	26	0	1881145344	65	4429
2026-01-05 22:40:15.24	137.60	12.62	-50.0	-51.5	14.2	0.00e+00	0	26	0	1884291072	65	4442
2026-01-05 22:40:16.24	137.73	12.55	-50.0	-51.4	14.2	0.00e+00	0	27	0	1887436800	65	4435
2026-01-05 22:40:17.20	137.85	12.48	-50.0	-51.4	14.3	0.00e+00	0	27	0	1890582528	65	4430
2026-01-05 22:40:18.19	137.98	12.41	-50.0	-51.4	14.3	0.00e+00	0	27	0	1892679680	65	4440
2026-01-05 22:40:19.18	138.11	12.33	-50.0	-51.5	14.2	0.00e+00	0	26	0	1895825408	65	4448
2026-01-05 22:40:20.18	138.23	12.26	-50.1	-51.6	14.2	0.00e+00	0	27	0	1898971136	65	4497
2026-01-05 22:40:21.18	138.36	12.19	-50.1	-51.5	14.2	0.00e+00	0	26	0	1902116864	65	4489
2026-01-05 22:40:22.18	138.49	12.12	-50.1	-51.5	14.2	0.00e+00	0	26	0	1905262592	65	4484
2026-01-05 22:40:23.18	138.61	12.05	-50.2	-51.6	14.2	0.00e+00	0	27	0	1908408320	65	4539
2026-01-05 22:40:24.17	138.74	11.97	-50.1	-51.6	14.2	0.00e+00	0	26	0	1911554048	65	4502
2026-01-05 22:40:25.16	138.86	11.90	-50.2	-51.7	14.1	0.00e+00	0	26	0	1914699776	65	4554
2026-01-05 22:40:26.16	138.98	11.83	-50.3	-51.7	14.1	0.00e+00	0	26	0	1917845504	65	4590
2026-01-05 22:40:27.15	139.10	11.76	-50.1	-51.6	14.2	0.00e+00	0	26	0	1920991232	65	4510
2026-01-05 22:40:28.15	139.23	11.69	-50.1	-51.6	14.2	0.00e+00	0	26	0	1924136960	65	4511
2026-01-05 22:40:29.14	139.35	11.62	-50.2	-51.6	14.2	0.00e+00	0	26	0	1927282688	65	4535
2026-01-05 22:40:30.13	139.47	11.55	-50.1	-51.6	14.2	0.00e+00	0	26	0	1930428416	65	4512
2026-01-05 22:40:31.13	139.59	11.48	-50.1	-51.5	14.2	0.00e+00	0	26	0	1933574144	65	4472
2026-01-05 22:40:32.13	139.71	11.40	-50.1	-51.5	14.2	0.00e+00	0	26	0	1936719872	65	4485
2026-01-05 22:40:33.13	139.83	11.33	-50.1	-51.5	14.2	0.00e+00	0	26	0	1939865600	65	4484
2026-01-05 22:40:34.12	139.94	11.26	-50.0	-51.4	14.3	0.00e+00	0	26	0	1943011328	65	4399
2026-01-05 22:40:35.11	140.06	11.19	-50.0	-51.4	14.2	0.00e+00	0	26	0	1946157056	65	4438
2026-01-05 22:40:36.10	140.18	11.12	-50.2	-51.6	14.2	0.00e+00	0	27	0	1949302784	65	4517
2026-01-05 22:40:37.10	140.30	11.05	-50.1	-51.5	14.2	0.00e+00	0	26	0	1952448512	65	4485
2026-01-05 22:40:38.10	140.41	10.98	-50.1	-51.6	14.2	0.00e+00	0	26	0	1955594240	65	4517
2026-01-05 22:40:39.10	140.53	10.91	-50.3	-51.8	14.1	0.00e+00	0	27	0	1958739968	65	4606
2026-01-05 22:40:40.09	140.64	10.84	-50.3	-51.8	14.1	0.00e+00	0	27	0	1961885696	65	4635
2026-01-05 22:40:41.09	140.76	10.77	-50.3	-51.8	14.1	0.00e+00	0	26	0	1965031424	65	4631
2026-01-05 22:40:42.10	140.88	10.70	-50.5	-52.0	14.1	0.00e+00	0	27	0	1968177152	66	4447
2026-01-05 22:40:43.10	140.99	10.63	-50.4	-51.9	14.1	0.00e+00	0	27	0	1971322880	66	4424
2026-01-05 22:40:44.09	141.10	10.56	-50.5	-52.0	14.1	0.00e+00	0	27	0	1974468608	66	4481
2026-01-05 22:40:45.09	141.22	10.49	-50.5	-52.0	14.1	0.00e+00	0	27	0	1977614336	66	4478
2026-01-05 22:40:46.09	141.33	10.42	-50.4	-51.9	14.1	0.00e+00	0	26	0	1980760064	66	4430
2026-01-05 22:40:47.09	141.44	10.35	-50.4	-51.9	14.1	0.00e+00	0	26	0	1983905792	66	4434
2026-01-05 22:40:48.07	141.55	10.28	-50.4	-51.9	14.1	0.00e+00	0	27	0	1986002944	66	4432
2026-01-05 22:40:49.07	141.66	10.21	-50.4	-51.9	14.1	0.00e+00	0	27	0	1989148672	66	4411
2026-01-05 22:40:50.06	141.77	10.15	-50.4	-51.9	14.1	0.00e+00	0	27	0	1992294400	66	4435
2026-01-05 22:40:51.05	141.88	10.08	-50.3	-51.8	14.2	0.00e+00	0	26	0	1995440128	66	4361
2026-01-05 22:40:52.04	141.99	10.01	-50.4	-51.9	14.1	0.00e+00	0	26	0	1998585856	66	4438
2026-01-05 22:40:53.04	142.10	9.94	-50.4	-51.9	14.1	0.00e+00	0	27	0	2001731584	66	4436
2026-01-05 22:40:54.03	142.20	9.87	-50.5	-52.0	14.1	0.00e+00	0	26	0	2004877312	66	4476
2026-01-05 22:40:55.03	142.31	9.80	-50.5	-52.0	14.0	0.00e+00	0	27	0	2008023040	66	4475
2026-01-05 22:40:56.03	142.42	9.73	-50.5	-52.0	14.0	0.00e+00	0	27	0	2011168768	66	4482
2026-01-05 22:40:57.03	142.53	9.67	-50.5	-52.0	14.1	0.00e+00	0	26	0	2014314496	66	4469
2026-01-05 22:40:58.02	142.63	9.60	-50.5	-52.0	14.0	0.00e+00	0	26	0	2017460224	66	4475
2026-01-05 22:40:59.01	142.74	9.53	-50.5	-52.0	14.0	0.00e+00	0	27	0	2020605952	66	4492
2026-01-05 22:41:00.01	142.84	9.46	-50.6	-52.1	14.0	0.00e+00	0	27	0	2023751680	66	4525
2026-01-05 22:41:01.00	142.95	9.39	-50.6	-52.1	14.0	0.00e+00	0	26	0	2026897408	66	4540
2026-01-05 22:41:02.00	143.05	9.33	-50.6	-52.2	14.0	0.00e+00	0	26	0	2030043136	66	4559
2026-01-05 22:41:03.00	143.16	9.26	-50.6	-52.1	14.0	0.00e+00	0	26	0	2033188864	66	4524
2026-01-05 22:41:03.99	143.26	9.19	-50.7	-52.2	14.0	0.00e+00	0	26	0	2036334592	66	4588
2026-01-05 22:41:04.98	143.36	9.12	-50.6	-52.2	14.0	0.00e+00	0	27	0	2039480320	66	4556
2026-01-05 22:41:05.97	143.47	9.06	-50.7	-52.3	13.9	0.00e+00	0	26	0	2042626048	66	4639
2026-01-05 22:41:06.97	143.57	8.99	-50.8	-52.4	13.9	0.00e+00	0	26	0	2045771776	66	4655
2026-01-05 22:41:07.96	143.67	8.92	-50.7	-52.3	13.9	0.00e+00	0	26	0	2048917504	66	4609
2026-01-05 22:41:08.96	143.77	8.85	-50.8	-52.4	13.9	0.00e+00	0	27	0	2052063232	66	4662
2026-01-05 22:41:09.94	143.87	8.79	-50.8	-52.4	13.9	0.00e+00	0	26	0	2055208960	66	4683
