passes_logs/2026/01/05/R3.2S_Murmansk/R3.2S_Murmansk__20260105_115650_FENGYUN_3D_rec.log

#Pass ID: 20260105_115650_FENGYUN 3D
#Satellite: FENGYUN 3D
#Configuration: FENGYUN 3D
#almurnet v.1.7.20251203
#Start time: 2026-01-05 11:56:50

#Version: 2.2.20231116
#Station: R3.2S_Murmansk
#Location: 33.079688 lon 68.888172 lat
#TLE: 1 43010U 17072A   26004.50247883 -.00000063  00000+0 -78815-5 0  9998
#TLE: 2 43010  98.9915 336.1565 0001968 126.3752 233.7605 14.19691805421760

#Time	Az	El	Level	Level2	SNR	BER	BlckErr	Temp	State	Recorded	gain1	gain2
2026-01-05 11:56:50.66	161.30	2.04	-58.1	-70.8	3.8	8.46e-01	0	25	0	0	81	16346
2026-01-05 11:56:51.65	161.32	2.10	-58.1	-70.7	3.8	8.46e-01	0	25	104	0	81	16168
2026-01-05 11:56:52.65	161.33	2.17	-58.1	-70.8	3.8	8.46e-01	0	25	104	0	81	16406
2026-01-05 11:56:53.65	161.35	2.23	-58.1	-70.9	3.8	8.45e-01	0	25	104	0	81	16618
2026-01-05 11:56:54.65	161.36	2.30	-58.1	-71.0	3.8	8.45e-01	0	25	104	0	81	16790
2026-01-05 11:56:55.64	161.37	2.36	-58.1	-71.0	3.8	8.46e-01	0	25	104	0	81	16802
2026-01-05 11:56:56.64	161.39	2.43	-58.1	-71.0	3.8	8.45e-01	0	25	104	0	81	16785
2026-01-05 11:56:57.63	161.40	2.49	-58.1	-70.9	3.8	8.45e-01	0	25	104	0	81	16556
2026-01-05 11:56:58.62	161.42	2.56	-58.1	-70.7	3.8	8.46e-01	0	25	104	0	81	16283
2026-01-05 11:56:59.62	161.43	2.62	-58.1	-70.7	3.8	8.45e-01	0	25	104	0	81	16149
2026-01-05 11:57:00.62	161.45	2.69	-58.1	-70.6	3.8	8.46e-01	0	25	104	0	81	15976
2026-01-05 11:57:01.61	161.46	2.75	-58.1	-70.7	3.8	8.46e-01	0	25	104	0	81	16129
2026-01-05 11:57:02.60	161.48	2.82	-58.1	-70.8	3.8	8.45e-01	0	25	104	0	81	16457
2026-01-05 11:57:03.59	161.49	2.88	-58.1	-71.0	3.8	8.47e-01	0	25	104	0	81	16754
2026-01-05 11:57:04.57	161.51	2.95	-58.1	-71.1	3.8	8.45e-01	0	25	104	0	81	16910
2026-01-05 11:57:05.58	161.52	3.01	-58.1	-70.9	3.8	8.47e-01	0	25	104	0	81	16578
2026-01-05 11:57:06.57	161.54	3.08	-58.1	-70.5	3.8	8.45e-01	0	25	104	0	81	15886
2026-01-05 11:57:07.57	161.55	3.14	-58.0	-69.6	3.8	8.46e-01	0	25	104	0	81	14363
2026-01-05 11:57:08.56	161.57	3.21	-57.9	-68.6	4.0	8.44e-01	0	25	104	0	81	12738
2026-01-05 11:57:09.56	161.59	3.28	-57.8	-67.5	4.2	8.39e-01	0	25	0	0	81	11214
2026-01-05 11:57:10.56	161.60	3.34	-57.6	-66.3	4.6	8.13e-01	0	25	0	0	81	9796
2026-01-05 11:57:11.56	161.62	3.41	-57.4	-65.0	5.2	7.65e-01	0	26	0	0	81	8452
2026-01-05 11:57:12.56	161.63	3.48	-57.2	-64.1	5.8	5.20e-01	0	26	0	2097152	81	7557
2026-01-05 11:57:13.56	161.65	3.55	-57.0	-63.3	6.3	2.84e-01	0	25	0	8388608	80	7359
2026-01-05 11:57:14.55	161.66	3.61	-56.8	-62.7	6.8	2.02e-01	0	26	0	13631488	80	6810
2026-01-05 11:57:15.55	161.68	3.68	-56.6	-61.9	7.4	9.12e-02	0	26	0	18874368	79	6589
2026-01-05 11:57:16.54	161.70	3.75	-56.4	-61.3	7.9	6.75e-02	0	26	0	25165824	79	6197
2026-01-05 11:57:17.53	161.71	3.82	-56.1	-60.8	8.3	3.41e-02	0	26	0	30408704	78	6138
2026-01-05 11:57:18.53	161.73	3.88	-55.9	-60.3	8.8	1.75e-02	0	26	0	35651584	78	5811
2026-01-05 11:57:19.52	161.74	3.95	-55.7	-59.8	9.2	1.17e-02	0	26	0	41943040	78	5503
2026-01-05 11:57:20.52	161.76	4.02	-55.4	-59.2	9.7	4.74e-03	0	26	0	47185920	77	5447
2026-01-05 11:57:21.52	161.78	4.09	-55.2	-58.8	10.0	2.27e-03	0	26	0	52428800	76	5465
2026-01-05 11:57:22.51	161.79	4.16	-55.0	-58.4	10.3	1.44e-03	0	26	0	58720256	76	5238
2026-01-05 11:57:23.50	161.81	4.23	-54.7	-57.9	10.7	8.07e-04	0	26	0	63963136	76	4973
2026-01-05 11:57:24.50	161.82	4.29	-54.3	-57.3	11.1	2.31e-04	0	26	0	69206016	75	4903
2026-01-05 11:57:25.49	161.84	4.36	-54.0	-56.9	11.4	5.49e-05	0	26	0	75497472	74	4937
2026-01-05 11:57:26.49	161.86	4.43	-54.1	-57.0	11.3	8.58e-05	0	26	0	80740352	74	4994
2026-01-05 11:57:27.48	161.87	4.50	-53.8	-56.6	11.6	2.97e-05	0	26	0	85983232	74	4772
2026-01-05 11:57:28.48	161.89	4.57	-53.9	-56.7	11.5	4.00e-05	0	26	0	92274688	74	4846
2026-01-05 11:57:29.47	161.91	4.64	-53.8	-56.5	11.6	2.74e-05	0	26	0	97517568	74	4746
2026-01-05 11:57:30.47	161.92	4.71	-54.2	-57.1	11.2	4.46e-05	0	26	0	102760448	74	5071
2026-01-05 11:57:31.46	161.94	4.78	-54.4	-57.5	10.9	2.09e-04	0	26	0	109051904	74	5295
2026-01-05 11:57:32.45	161.96	4.85	-54.7	-58.0	10.5	5.17e-04	0	26	0	114294784	74	5647
2026-01-05 11:57:33.44	161.97	4.92	-55.1	-58.7	10.0	1.35e-03	0	26	0	119537664	75	5765
2026-01-05 11:57:34.43	161.99	4.99	-55.6	-59.6	9.2	6.80e-03	0	26	0	125829120	76	6057
2026-01-05 11:57:35.43	162.01	5.06	-56.3	-61.1	8.1	2.23e-02	0	26	0	131072000	77	6772
2026-01-05 11:57:36.42	162.02	5.13	-55.3	-58.9	10.0	9.44e-02	0	26	0	136314880	77	5259
2026-01-05 11:57:37.41	162.04	5.21	-54.8	-58.1	10.5	1.71e-05	0	26	0	142606336	74	5696
2026-01-05 11:57:38.41	162.06	5.28	-57.9	-69.0	3.8	8.39e-01	0	26	104	143654912	81	13321
2026-01-05 11:57:39.41	162.08	5.35	-55.6	-60.2	8.6	6.51e-01	0	26	104	143654912	78	5788
2026-01-05 11:57:40.41	162.09	5.42	-50.1	-51.8	13.9	0.00e+00	0	26	0	148897792	66	4358
2026-01-05 11:57:41.40	162.11	5.49	-50.0	-51.7	14.0	0.00e+00	0	26	0	154140672	66	4298
2026-01-05 11:57:42.39	162.13	5.57	-50.0	-51.7	14.0	0.00e+00	0	26	0	159383552	66	4307
2026-01-05 11:57:43.39	162.14	5.64	-49.9	-51.5	14.1	0.00e+00	0	26	0	165675008	66	4226
2026-01-05 11:57:44.39	162.16	5.71	-49.6	-51.2	14.1	0.00e+00	0	26	0	170917888	65	4304
2026-01-05 11:57:45.38	162.18	5.78	-49.5	-51.0	14.2	0.00e+00	0	26	0	176160768	65	4223
2026-01-05 11:57:46.38	162.20	5.86	-49.5	-51.1	14.2	0.00e+00	0	26	0	182452224	65	4270
2026-01-05 11:57:47.38	162.22	5.93	-49.4	-50.9	14.3	0.00e+00	0	26	0	187695104	65	4183
2026-01-05 11:57:48.38	162.23	6.00	-49.5	-51.1	14.2	0.00e+00	0	26	0	192937984	65	4251
2026-01-05 11:57:49.37	162.25	6.08	-49.6	-51.2	14.1	0.00e+00	0	26	0	199229440	65	4328
2026-01-05 11:57:50.37	162.27	6.15	-49.4	-50.9	14.3	0.00e+00	0	26	0	204472320	65	4171
2026-01-05 11:57:51.36	162.29	6.23	-49.5	-51.0	14.2	0.00e+00	0	26	0	209715200	65	4228
2026-01-05 11:57:52.34	162.31	6.30	-49.1	-50.6	14.3	0.00e+00	0	26	0	216006656	64	4282
2026-01-05 11:57:53.34	162.32	6.37	-49.2	-50.7	14.2	0.00e+00	0	26	0	221249536	64	4337
2026-01-05 11:57:54.33	162.34	6.45	-49.2	-50.7	14.3	0.00e+00	0	26	0	226492416	64	4301
2026-01-05 11:57:55.32	162.36	6.52	-49.2	-50.7	14.3	0.00e+00	0	26	0	232783872	64	4325
2026-01-05 11:57:56.31	162.38	6.60	-49.1	-50.6	14.3	0.00e+00	0	26	0	238026752	64	4254
2026-01-05 11:57:57.31	162.40	6.67	-49.1	-50.6	14.3	0.00e+00	0	26	0	243269632	64	4289
2026-01-05 11:57:58.31	162.42	6.75	-49.0	-50.5	14.4	0.00e+00	0	26	0	249561088	64	4196
2026-01-05 11:57:59.30	162.43	6.83	-49.1	-50.6	14.3	0.00e+00	0	26	0	254803968	64	4261
2026-01-05 11:58:00.29	162.45	6.90	-49.1	-50.6	14.3	0.00e+00	0	26	0	260046848	64	4276
2026-01-05 11:58:01.28	162.47	6.98	-48.9	-50.4	14.4	0.00e+00	0	26	0	266338304	64	4173
2026-01-05 11:58:02.27	162.49	7.05	-49.1	-50.6	14.3	0.00e+00	0	26	0	271581184	64	4246
2026-01-05 11:58:03.27	162.51	7.13	-49.0	-50.4	14.4	0.00e+00	0	26	0	276824064	64	4188
2026-01-05 11:58:04.26	162.53	7.21	-48.9	-50.4	14.4	0.00e+00	0	26	0	282066944	64	4163
2026-01-05 11:58:05.26	162.55	7.28	-48.9	-50.4	14.4	0.00e+00	0	26	0	288358400	64	4178
2026-01-05 11:58:06.25	162.57	7.36	-48.9	-50.3	14.5	0.00e+00	0	26	0	293601280	64	4137
2026-01-05 11:58:07.24	162.59	7.44	-48.8	-50.2	14.5	0.00e+00	0	26	0	299892736	64	4073
2026-01-05 11:58:08.23	162.61	7.52	-48.8	-50.2	14.6	0.00e+00	0	26	0	305135616	64	4081
2026-01-05 11:58:09.23	162.63	7.59	-48.8	-50.3	14.5	0.00e+00	0	26	0	310378496	64	4108
2026-01-05 11:58:10.22	162.65	7.67	-48.9	-50.3	14.5	0.00e+00	0	26	0	316669952	64	4128
2026-01-05 11:58:11.21	162.67	7.75	-48.7	-50.1	14.6	0.00e+00	0	26	0	321912832	64	4036
2026-01-05 11:58:12.21	162.69	7.83	-48.9	-50.3	14.5	0.00e+00	0	26	0	327155712	64	4115
2026-01-05 11:58:13.20	162.70	7.91	-48.8	-50.3	14.5	0.00e+00	0	26	0	333447168	64	4101
2026-01-05 11:58:14.20	162.72	7.99	-48.7	-50.1	14.6	0.00e+00	0	27	0	338690048	64	4016
2026-01-05 11:58:15.20	162.75	8.07	-48.7	-50.1	14.5	0.00e+00	0	26	0	343932928	63	4268
2026-01-05 11:58:16.19	162.77	8.15	-48.8	-50.3	14.4	0.00e+00	0	26	0	350224384	63	4346
2026-01-05 11:58:17.20	162.79	8.23	-48.6	-50.0	14.5	0.00e+00	0	26	0	355467264	63	4219
2026-01-05 11:58:18.19	162.81	8.31	-48.6	-50.0	14.5	0.00e+00	0	26	0	360710144	63	4238
2026-01-05 11:58:19.19	162.83	8.39	-48.7	-50.2	14.5	0.00e+00	0	26	0	367001600	63	4299
2026-01-05 11:58:20.19	162.85	8.47	-48.6	-50.0	14.5	0.00e+00	0	26	0	372244480	63	4226
2026-01-05 11:58:21.20	162.87	8.55	-48.6	-50.1	14.5	0.00e+00	0	26	0	377487360	63	4254
2026-01-05 11:58:22.20	162.89	8.64	-48.5	-49.9	14.6	0.00e+00	0	26	0	383778816	63	4168
2026-01-05 11:58:23.19	162.91	8.72	-48.5	-49.9	14.6	0.00e+00	0	26	0	389021696	63	4183
2026-01-05 11:58:24.18	162.93	8.80	-48.6	-50.0	14.5	0.00e+00	0	27	0	395313152	63	4221
2026-01-05 11:58:25.17	162.95	8.88	-48.5	-49.9	14.6	0.00e+00	0	26	0	400556032	63	4156
2026-01-05 11:58:26.16	162.97	8.96	-48.5	-49.9	14.6	0.00e+00	0	27	0	405798912	63	4185
2026-01-05 11:58:27.16	162.99	9.05	-48.6	-50.0	14.6	0.00e+00	0	27	0	411041792	63	4214
2026-01-05 11:58:28.15	163.01	9.13	-48.4	-49.8	14.6	0.00e+00	0	26	0	417333248	63	4138
2026-01-05 11:58:29.15	163.04	9.21	-48.5	-49.9	14.6	0.00e+00	0	26	0	422576128	63	4148
2026-01-05 11:58:30.14	163.06	9.29	-48.4	-49.8	14.6	0.00e+00	0	26	0	427819008	63	4134
2026-01-05 11:58:31.14	163.08	9.38	-48.4	-49.8	14.6	0.00e+00	0	27	0	434110464	63	4140
2026-01-05 11:58:32.13	163.10	9.46	-48.4	-49.8	14.6	0.00e+00	0	27	0	439353344	63	4118
2026-01-05 11:58:33.12	163.12	9.55	-48.4	-49.8	14.6	0.00e+00	0	27	0	445644800	63	4134
2026-01-05 11:58:34.11	163.14	9.63	-48.3	-49.7	14.7	0.00e+00	0	26	0	450887680	63	4052
2026-01-05 11:58:35.11	163.17	9.72	-48.3	-49.7	14.7	0.00e+00	0	27	0	456130560	63	4070
2026-01-05 11:58:36.10	163.19	9.80	-48.4	-49.8	14.7	0.00e+00	0	27	0	461373440	63	4101
2026-01-05 11:58:37.10	163.21	9.89	-48.2	-49.6	14.7	0.00e+00	0	27	0	467664896	63	4036
2026-01-05 11:58:38.09	163.23	9.97	-48.3	-49.7	14.7	0.00e+00	0	27	0	472907776	63	4069
2026-01-05 11:58:39.09	163.26	10.06	-48.3	-49.7	14.7	0.00e+00	0	27	0	478150656	63	4071
2026-01-05 11:58:40.08	163.28	10.15	-48.2	-49.6	14.7	0.00e+00	0	27	0	484442112	63	4031
2026-01-05 11:58:41.06	163.30	10.23	-48.2	-49.6	14.7	0.00e+00	0	26	0	489684992	63	4041
2026-01-05 11:58:42.05	163.32	10.32	-48.3	-49.7	14.7	0.00e+00	0	27	0	494927872	63	4059
2026-01-05 11:58:43.04	163.35	10.40	-48.2	-49.6	14.8	0.00e+00	0	27	0	501219328	63	4005
2026-01-05 11:58:44.03	163.37	10.49	-48.2	-49.6	14.6	0.00e+00	0	27	0	506462208	62	4262
2026-01-05 11:58:45.01	163.39	10.58	-48.2	-49.6	14.6	0.00e+00	0	27	0	511705088	62	4270
2026-01-05 11:58:46.00	163.42	10.67	-48.2	-49.6	14.6	0.00e+00	0	27	0	516947968	62	4277
2026-01-05 11:58:46.99	163.44	10.75	-48.1	-49.5	14.6	0.00e+00	0	27	0	523239424	62	4240
2026-01-05 11:58:47.98	163.46	10.84	-48.1	-49.5	14.6	0.00e+00	0	27	0	528482304	62	4227
2026-01-05 11:58:48.98	163.49	10.93	-48.2	-49.6	14.6	0.00e+00	0	27	0	534773760	62	4244
2026-01-05 11:58:49.96	163.51	11.02	-48.2	-49.6	14.6	0.00e+00	0	27	0	540016640	62	4243
2026-01-05 11:58:50.96	163.53	11.11	-48.2	-49.6	14.6	0.00e+00	0	27	0	545259520	62	4266
2026-01-05 11:58:51.95	163.56	11.20	-48.2	-49.6	14.7	0.00e+00	0	27	0	550502400	62	4248
2026-01-05 11:58:52.95	163.58	11.29	-48.3	-49.7	14.6	0.00e+00	0	27	0	556793856	62	4308
2026-01-05 11:58:53.93	163.61	11.38	-48.2	-49.6	14.6	0.00e+00	0	27	0	562036736	62	4246
2026-01-05 11:58:54.92	163.63	11.47	-48.1	-49.5	14.7	0.00e+00	0	27	0	567279616	62	4206
2026-01-05 11:58:55.92	163.65	11.56	-48.1	-49.5	14.7	0.00e+00	0	27	0	573571072	62	4223
2026-01-05 11:58:56.91	163.68	11.65	-48.1	-49.5	14.7	0.00e+00	0	27	0	578813952	62	4235
2026-01-05 11:58:57.91	163.70	11.75	-48.1	-49.5	14.7	0.00e+00	0	27	0	584056832	62	4222
2026-01-05 11:58:58.90	163.73	11.84	-48.0	-49.4	14.7	0.00e+00	0	27	0	590348288	62	4154
2026-01-05 11:58:59.89	163.75	11.93	-48.0	-49.4	14.7	0.00e+00	0	27	0	595591168	62	4177
2026-01-05 11:59:00.89	163.78	12.03	-48.0	-49.4	14.7	0.00e+00	0	27	0	600834048	62	4166
2026-01-05 11:59:01.89	163.80	12.12	-47.9	-49.3	14.8	0.00e+00	0	27	0	607125504	62	4118
2026-01-05 11:59:02.88	163.83	12.21	-48.0	-49.3	14.7	0.00e+00	0	27	0	612368384	62	4132
2026-01-05 11:59:03.87	163.86	12.31	-48.1	-49.5	14.7	0.00e+00	0	27	0	617611264	62	4202
2026-01-05 11:59:04.86	163.88	12.40	-47.9	-49.2	14.8	0.00e+00	0	27	0	623902720	62	4085
2026-01-05 11:59:05.85	163.91	12.50	-47.9	-49.2	14.8	0.00e+00	0	27	0	629145600	62	4093
2026-01-05 11:59:06.85	163.93	12.59	-47.8	-49.2	14.8	0.00e+00	0	27	0	634388480	62	4069
2026-01-05 11:59:07.85	163.96	12.69	-47.9	-49.2	14.8	0.00e+00	0	27	0	640679936	62	4096
2026-01-05 11:59:08.85	163.99	12.78	-47.8	-49.2	14.8	0.00e+00	0	27	0	645922816	62	4062
2026-01-05 11:59:09.84	164.01	12.88	-47.9	-49.2	14.8	0.00e+00	0	27	0	651165696	62	4095
2026-01-05 11:59:10.84	164.04	12.98	-47.9	-49.2	14.8	0.00e+00	0	27	0	657457152	62	4086
2026-01-05 11:59:11.83	164.07	13.08	-47.8	-49.1	14.8	0.00e+00	0	27	0	662700032	62	4036
2026-01-05 11:59:12.83	164.09	13.17	-47.8	-49.1	14.8	0.00e+00	0	27	0	668991488	62	4037
2026-01-05 11:59:13.84	164.12	13.27	-47.7	-49.1	14.9	0.00e+00	0	27	0	674234368	62	4010
2026-01-05 11:59:14.83	164.15	13.37	-47.7	-49.1	14.9	0.00e+00	0	27	0	679477248	62	4009
2026-01-05 11:59:15.84	164.17	13.47	-47.6	-49.0	14.8	0.00e+00	0	27	0	685768704	61	4206
2026-01-05 11:59:16.84	164.20	13.57	-47.7	-49.0	14.7	0.00e+00	0	27	0	691011584	61	4224
2026-01-05 11:59:17.83	164.23	13.67	-47.6	-49.0	14.8	0.00e+00	0	27	0	696254464	61	4194
2026-01-05 11:59:18.82	164.26	13.77	-47.5	-48.8	14.8	0.00e+00	0	27	0	702545920	61	4131
2026-01-05 11:59:19.81	164.29	13.87	-47.5	-48.8	14.8	0.00e+00	0	27	0	707788800	61	4142
2026-01-05 11:59:20.81	164.31	13.97	-47.4	-48.7	14.9	0.00e+00	0	27	0	713031680	61	4067
2026-01-05 11:59:21.81	164.34	14.07	-47.3	-48.6	14.9	0.00e+00	0	27	0	719323136	61	4050
2026-01-05 11:59:22.81	164.37	14.18	-47.3	-48.6	14.9	0.00e+00	0	27	0	724566016	61	4026
2026-01-05 11:59:23.80	164.40	14.28	-47.4	-48.7	14.9	0.00e+00	0	27	0	729808896	61	4066
2026-01-05 11:59:24.79	164.43	14.38	-47.2	-48.5	15.0	0.00e+00	0	27	0	736100352	61	3974
2026-01-05 11:59:25.79	164.46	14.48	-47.2	-48.5	15.0	0.00e+00	0	27	0	741343232	61	3998
2026-01-05 11:59:26.78	164.49	14.59	-47.3	-48.6	14.9	0.00e+00	0	27	0	746586112	61	4024
2026-01-05 11:59:27.77	164.52	14.69	-47.1	-48.4	15.0	0.00e+00	0	27	0	752877568	60	4183
2026-01-05 11:59:28.77	164.55	14.79	-47.1	-48.4	14.9	0.00e+00	0	27	0	758120448	60	4175
2026-01-05 11:59:29.76	164.58	14.90	-47.0	-48.3	14.9	0.00e+00	0	27	0	763363328	60	4142
2026-01-05 11:59:30.76	164.61	15.00	-47.0	-48.3	14.9	0.00e+00	0	27	0	769654784	60	4132
2026-01-05 11:59:31.74	164.64	15.11	-47.0	-48.2	14.9	0.00e+00	0	27	0	774897664	60	4089
2026-01-05 11:59:32.74	164.67	15.21	-46.9	-48.2	15.0	0.00e+00	0	27	0	780140544	60	4067
2026-01-05 11:59:33.74	164.70	15.32	-46.8	-48.1	15.0	0.00e+00	0	27	0	786432000	60	4036
2026-01-05 11:59:34.73	164.73	15.43	-46.8	-48.0	15.0	0.00e+00	0	27	0	791674880	60	3999
2026-01-05 11:59:35.72	164.76	15.53	-46.8	-48.0	15.0	0.00e+00	0	27	0	796917760	60	4000
2026-01-05 11:59:36.72	164.79	15.64	-46.7	-48.0	15.0	0.00e+00	0	27	0	803209216	60	3974
2026-01-05 11:59:37.71	164.82	15.75	-46.8	-48.1	15.0	0.00e+00	0	27	0	808452096	60	4009
2026-01-05 11:59:38.70	164.85	15.86	-47.0	-48.3	14.8	0.00e+00	0	27	0	813694976	59	4381
2026-01-05 11:59:39.69	164.88	15.97	-47.0	-48.3	14.9	0.00e+00	0	27	0	819986432	59	4344
2026-01-05 11:59:40.68	164.92	16.08	-46.9	-48.2	14.9	0.00e+00	0	27	0	825229312	59	4296
2026-01-05 11:59:41.68	164.95	16.19	-46.9	-48.1	14.9	0.00e+00	0	27	0	830472192	59	4284
2026-01-05 11:59:42.67	164.98	16.30	-46.8	-48.1	14.9	0.00e+00	0	27	0	836763648	59	4276
2026-01-05 11:59:43.66	165.01	16.41	-46.8	-48.0	14.9	0.00e+00	0	27	0	842006528	59	4240
2026-01-05 11:59:44.66	165.05	16.52	-46.8	-48.1	14.9	0.00e+00	0	27	0	847249408	59	4261
2026-01-05 11:59:45.65	165.08	16.63	-46.9	-48.1	14.9	0.00e+00	0	27	0	852492288	59	4283
2026-01-05 11:59:46.65	165.11	16.75	-46.7	-48.0	15.0	0.00e+00	0	27	0	858783744	59	4208
2026-01-05 11:59:47.64	165.14	16.86	-46.7	-47.9	15.0	0.00e+00	0	27	0	864026624	59	4190
2026-01-05 11:59:48.63	165.18	16.97	-46.7	-48.0	15.0	0.00e+00	0	27	0	870318080	59	4206
2026-01-05 11:59:49.63	165.21	17.09	-46.7	-47.9	15.0	0.00e+00	0	27	0	875560960	59	4182
2026-01-05 11:59:50.63	165.25	17.20	-46.8	-48.1	14.9	0.00e+00	0	27	0	880803840	59	4257
2026-01-05 11:59:51.63	165.28	17.32	-46.6	-47.9	15.0	0.00e+00	0	27	0	887095296	59	4155
2026-01-05 11:59:52.62	165.32	17.44	-46.6	-47.8	15.0	0.00e+00	0	27	0	892338176	59	4142
2026-01-05 11:59:53.62	165.35	17.55	-46.6	-47.8	15.0	0.00e+00	0	27	0	897581056	59	4143
2026-01-05 11:59:54.62	165.39	17.67	-46.5	-47.7	15.1	0.00e+00	0	27	0	903872512	59	4088
2026-01-05 11:59:55.61	165.42	17.79	-46.5	-47.7	15.0	0.00e+00	0	27	0	909115392	59	4097
2026-01-05 11:59:56.61	165.46	17.91	-46.5	-47.8	15.0	0.00e+00	0	27	0	914358272	59	4103
2026-01-05 11:59:57.60	165.49	18.03	-46.5	-47.7	15.1	0.00e+00	0	27	0	920649728	59	4072
2026-01-05 11:59:58.61	165.53	18.15	-46.5	-47.7	15.1	0.00e+00	0	27	0	925892608	59	4075
2026-01-05 11:59:59.60	165.57	18.27	-46.5	-47.8	15.0	0.00e+00	0	27	0	931135488	59	4099
2026-01-05 12:00:00.60	165.60	18.39	-46.3	-47.5	15.1	0.00e+00	0	27	0	937426944	59	3999
2026-01-05 12:00:01.59	165.64	18.51	-46.3	-47.5	15.1	0.00e+00	0	27	0	942669824	59	3999
2026-01-05 12:00:02.59	165.68	18.63	-46.4	-47.6	15.1	0.00e+00	0	27	0	947912704	59	4020
2026-01-05 12:00:03.59	165.71	18.75	-46.4	-47.6	15.1	0.00e+00	0	27	0	954204160	59	4020
2026-01-05 12:00:04.57	165.75	18.87	-46.4	-47.6	15.1	0.00e+00	0	27	0	959447040	59	4042
2026-01-05 12:00:05.57	165.79	19.00	-46.4	-47.6	15.1	0.00e+00	0	27	0	964689920	59	4033
2026-01-05 12:00:06.58	165.83	19.12	-46.3	-47.5	15.1	0.00e+00	0	27	0	970981376	59	4004
2026-01-05 12:00:07.58	165.87	19.25	-46.2	-47.4	15.1	0.00e+00	0	27	0	976224256	59	3957
2026-01-05 12:00:08.58	165.91	19.38	-46.2	-47.4	15.1	0.00e+00	0	27	0	982515712	59	3952
2026-01-05 12:00:09.56	165.94	19.50	-46.1	-47.3	15.1	0.00e+00	0	27	0	987758592	58	4130
2026-01-05 12:00:10.56	165.98	19.63	-46.1	-47.3	15.1	0.00e+00	0	27	0	993001472	58	4141
2026-01-05 12:00:11.54	166.02	19.75	-46.0	-47.2	15.1	0.00e+00	0	27	0	998244352	58	4075
2026-01-05 12:00:12.53	166.06	19.88	-46.0	-47.3	15.1	0.00e+00	0	27	0	1004535808	58	4104
2026-01-05 12:00:13.53	166.10	20.01	-46.0	-47.2	15.1	0.00e+00	0	27	0	1009778688	58	4081
2026-01-05 12:00:14.53	166.14	20.14	-45.9	-47.1	15.2	0.00e+00	0	27	0	1015021568	58	4022
2026-01-05 12:00:15.52	166.18	20.27	-46.0	-47.2	15.1	0.00e+00	0	27	0	1021313024	58	4059
2026-01-05 12:00:16.51	166.23	20.40	-45.9	-47.1	15.2	0.00e+00	0	27	0	1026555904	58	4011
2026-01-05 12:00:17.51	166.27	20.53	-45.9	-47.1	15.1	0.00e+00	0	27	0	1031798784	58	4048
2026-01-05 12:00:18.51	166.31	20.66	-46.0	-47.3	15.1	0.00e+00	0	27	0	1038090240	58	4104
2026-01-05 12:00:19.50	166.35	20.79	-46.0	-47.2	15.1	0.00e+00	0	27	0	1043333120	58	4082
2026-01-05 12:00:20.50	166.39	20.93	-45.9	-47.1	15.1	0.00e+00	0	27	0	1048576000	58	4048
2026-01-05 12:00:21.50	166.44	21.06	-46.0	-47.2	15.1	0.00e+00	0	27	0	1054867456	58	4085
2026-01-05 12:00:22.50	166.48	21.20	-45.9	-47.1	15.1	0.00e+00	0	27	0	1060110336	58	4028
2026-01-05 12:00:23.50	166.52	21.33	-45.9	-47.1	15.1	0.00e+00	0	27	0	1066401792	58	4038
2026-01-05 12:00:24.49	166.57	21.47	-45.9	-47.1	15.1	0.00e+00	0	27	0	1071644672	58	4047
2026-01-05 12:00:25.48	166.61	21.61	-45.8	-47.0	15.2	0.00e+00	0	27	0	1076887552	58	3987
2026-01-05 12:00:26.48	166.66	21.74	-45.8	-47.0	15.2	0.00e+00	0	27	0	1083179008	58	3991
2026-01-05 12:00:27.48	166.70	21.88	-45.8	-47.1	15.2	0.00e+00	0	27	0	1088421888	58	4013
2026-01-05 12:00:28.48	166.75	22.02	-45.8	-47.0	15.2	0.00e+00	0	27	0	1093664768	58	3965
2026-01-05 12:00:29.47	166.79	22.16	-45.9	-47.1	15.1	0.00e+00	0	27	0	1099956224	58	4012
2026-01-05 12:00:30.47	166.84	22.30	-45.7	-46.9	15.2	0.00e+00	0	27	0	1105199104	58	3950
2026-01-05 12:00:31.47	166.89	22.45	-45.7	-46.9	15.2	0.00e+00	0	27	0	1110441984	58	3950
2026-01-05 12:00:32.46	166.93	22.59	-45.7	-46.9	15.2	0.00e+00	0	27	0	1116733440	58	3938
2026-01-05 12:00:33.46	166.98	22.73	-45.7	-46.9	15.2	0.00e+00	0	27	0	1121976320	58	3948
2026-01-05 12:00:34.45	167.03	22.87	-45.6	-46.9	15.1	0.00e+00	0	27	0	1127219200	57	4146
2026-01-05 12:00:35.45	167.08	23.02	-45.6	-46.8	15.1	0.00e+00	0	27	0	1133510656	57	4140
2026-01-05 12:00:36.44	167.12	23.16	-45.6	-46.8	15.1	0.00e+00	0	27	0	1138753536	57	4110
2026-01-05 12:00:37.43	167.17	23.31	-45.6	-46.8	15.1	0.00e+00	0	27	0	1143996416	57	4115
2026-01-05 12:00:38.44	167.22	23.46	-45.6	-46.8	15.1	0.00e+00	0	27	0	1150287872	57	4117
2026-01-05 12:00:39.42	167.27	23.60	-45.5	-46.7	15.1	0.00e+00	0	27	0	1155530752	57	4076
2026-01-05 12:00:40.42	167.32	23.75	-45.4	-46.6	15.2	0.00e+00	0	27	0	1160773632	57	4024
2026-01-05 12:00:41.42	167.37	23.90	-45.4	-46.6	15.2	0.00e+00	0	27	0	1167065088	57	4038
2026-01-05 12:00:42.40	167.42	24.05	-45.4	-46.6	15.2	0.00e+00	0	27	0	1172307968	57	4036
2026-01-05 12:00:43.40	167.47	24.20	-45.4	-46.6	15.2	0.00e+00	0	27	0	1177550848	57	4048
2026-01-05 12:00:44.39	167.53	24.35	-45.4	-46.6	15.2	0.00e+00	0	27	0	1183842304	57	4018
2026-01-05 12:00:45.39	167.58	24.51	-45.3	-46.5	15.2	0.00e+00	0	27	0	1189085184	57	3999
2026-01-05 12:00:46.38	167.63	24.66	-45.3	-46.5	15.2	0.00e+00	0	27	0	1194328064	57	3988
2026-01-05 12:00:47.37	167.69	24.81	-45.3	-46.5	15.2	0.00e+00	0	27	0	1200619520	57	3964
2026-01-05 12:00:48.36	167.74	24.97	-45.4	-46.5	15.2	0.00e+00	0	27	0	1205862400	57	3997
2026-01-05 12:00:49.37	167.79	25.13	-45.2	-46.4	15.3	0.00e+00	0	27	0	1211105280	57	3949
2026-01-05 12:00:50.37	167.85	25.28	-45.3	-46.4	15.3	0.00e+00	0	27	0	1217396736	57	3955
2026-01-05 12:00:51.38	167.91	25.44	-45.3	-46.5	15.2	0.00e+00	0	27	0	1222639616	57	3969
2026-01-05 12:00:52.38	167.96	25.60	-45.4	-46.6	15.2	0.00e+00	0	27	0	1228931072	57	4010
2026-01-05 12:00:53.38	168.02	25.77	-45.4	-46.6	15.2	0.00e+00	0	27	0	1234173952	57	4018
2026-01-05 12:00:54.38	168.08	25.93	-45.5	-46.7	15.2	0.00e+00	0	27	0	1239416832	57	4067
2026-01-05 12:00:55.38	168.13	26.09	-45.4	-46.6	15.2	0.00e+00	0	27	0	1245708288	57	4050
2026-01-05 12:00:56.38	168.19	26.25	-45.5	-46.7	15.2	0.00e+00	0	27	0	1250951168	57	4072
2026-01-05 12:00:57.38	168.25	26.42	-45.5	-46.7	15.2	0.00e+00	0	27	0	1256194048	57	4091
2026-01-05 12:00:58.37	168.31	26.58	-45.4	-46.6	15.2	0.00e+00	0	27	0	1262485504	57	4032
2026-01-05 12:00:59.37	168.37	26.75	-45.3	-46.5	15.2	0.00e+00	0	27	0	1267728384	57	3993
2026-01-05 12:01:00.38	168.43	26.92	-45.2	-46.4	15.3	0.00e+00	0	27	0	1272971264	57	3930
2026-01-05 12:01:01.38	168.49	27.09	-45.2	-46.4	15.3	0.00e+00	0	27	0	1279262720	57	3948
2026-01-05 12:01:02.38	168.55	27.26	-45.2	-46.4	15.3	0.00e+00	0	27	0	1284505600	57	3920
2026-01-05 12:01:03.38	168.62	27.43	-45.2	-46.3	15.2	0.00e+00	0	27	0	1290797056	56	4135
2026-01-05 12:01:04.37	168.68	27.60	-45.2	-46.4	15.1	0.00e+00	0	27	0	1296039936	56	4166
2026-01-05 12:01:05.38	168.74	27.77	-45.1	-46.2	15.2	0.00e+00	0	27	0	1301282816	56	4093
2026-01-05 12:01:06.38	168.81	27.94	-45.1	-46.3	15.2	0.00e+00	0	27	0	1307574272	56	4104
2026-01-05 12:01:07.38	168.87	28.12	-45.1	-46.2	15.2	0.00e+00	0	27	0	1312817152	56	4097
2026-01-05 12:01:08.38	168.94	28.30	-45.1	-46.3	15.2	0.00e+00	0	27	0	1318060032	56	4129
2026-01-05 12:01:09.39	169.01	28.47	-45.2	-46.3	15.2	0.00e+00	0	27	0	1324351488	56	4141
2026-01-05 12:01:10.39	169.07	28.65	-45.2	-46.3	15.2	0.00e+00	0	27	0	1329594368	56	4145
2026-01-05 12:01:11.39	169.14	28.83	-45.2	-46.4	15.1	0.00e+00	0	27	0	1334837248	56	4182
2026-01-05 12:01:12.39	169.21	29.01	-45.3	-46.5	15.1	0.00e+00	0	27	0	1341128704	56	4241
2026-01-05 12:01:13.39	169.28	29.19	-45.3	-46.5	15.1	0.00e+00	0	27	0	1346371584	56	4211
2026-01-05 12:01:14.38	169.35	29.37	-45.4	-46.6	15.1	0.00e+00	0	27	0	1352663040	56	4260
2026-01-05 12:01:15.39	169.42	29.56	-45.5	-46.7	15.0	0.00e+00	0	27	0	1357905920	56	4335
2026-01-05 12:01:16.39	169.49	29.74	-45.6	-46.9	15.0	0.00e+00	0	27	0	1363148800	56	4403
2026-01-05 12:01:17.39	169.56	29.93	-45.4	-46.6	15.1	0.00e+00	0	27	0	1369440256	56	4282
2026-01-05 12:01:18.39	169.64	30.12	-45.4	-46.6	15.1	0.00e+00	0	27	0	1374683136	56	4255
2026-01-05 12:01:19.38	169.71	30.30	-45.3	-46.6	15.1	0.00e+00	0	27	0	1379926016	56	4253
2026-01-05 12:01:20.38	169.79	30.49	-45.3	-46.5	15.1	0.00e+00	0	27	0	1386217472	56	4230
2026-01-05 12:01:21.38	169.86	30.68	-45.2	-46.4	15.1	0.00e+00	0	27	0	1391460352	56	4174
2026-01-05 12:01:22.38	169.94	30.88	-45.2	-46.4	15.1	0.00e+00	0	27	0	1396703232	56	4161
2026-01-05 12:01:23.38	170.02	31.07	-45.0	-46.2	15.2	0.00e+00	0	27	0	1402994688	56	4080
2026-01-05 12:01:24.38	170.09	31.26	-44.9	-46.1	15.2	0.00e+00	0	27	0	1408237568	56	4021
2026-01-05 12:01:25.39	170.17	31.46	-44.7	-45.9	15.3	0.00e+00	0	27	0	1414529024	56	3914
2026-01-05 12:01:26.39	170.25	31.66	-44.4	-45.5	15.3	0.00e+00	0	27	0	1419771904	55	3988
2026-01-05 12:01:27.38	170.33	31.86	-44.3	-45.5	15.3	0.00e+00	0	27	0	1425014784	55	3963
2026-01-05 12:01:28.39	170.42	32.06	-44.4	-45.5	15.3	0.00e+00	0	27	0	1431306240	55	3988
2026-01-05 12:01:29.39	170.50	32.26	-44.6	-45.8	15.2	0.00e+00	0	27	0	1436549120	55	4103
2026-01-05 12:01:30.40	170.58	32.46	-44.8	-45.9	15.1	0.00e+00	0	27	0	1441792000	55	4193
2026-01-05 12:01:31.40	170.67	32.67	-44.8	-46.0	15.1	0.00e+00	0	27	0	1448083456	55	4207
2026-01-05 12:01:32.40	170.76	32.87	-45.0	-46.3	15.0	0.00e+00	0	27	0	1453326336	55	4343
2026-01-05 12:01:33.40	170.84	33.08	-44.9	-46.1	15.1	0.00e+00	0	27	0	1458569216	55	4288
2026-01-05 12:01:34.41	170.93	33.29	-45.1	-46.3	15.0	0.00e+00	0	27	0	1464860672	55	4346
2026-01-05 12:01:35.42	171.02	33.50	-44.8	-45.9	15.1	0.00e+00	0	27	0	1470103552	55	4191
2026-01-05 12:01:36.42	171.11	33.71	-44.7	-45.9	15.2	0.00e+00	0	27	0	1476395008	55	4156
2026-01-05 12:01:37.42	171.20	33.92	-44.6	-45.7	15.2	0.00e+00	0	27	0	1481637888	55	4083
2026-01-05 12:01:38.43	171.30	34.13	-44.4	-45.5	15.3	0.00e+00	0	27	0	1487929344	55	3991
2026-01-05 12:01:39.44	171.39	34.35	-44.3	-45.4	15.2	0.00e+00	0	27	0	1493172224	54	4178
2026-01-05 12:01:40.44	171.49	34.57	-44.1	-45.2	15.2	0.00e+00	0	27	0	1498415104	54	4080
2026-01-05 12:01:41.45	171.58	34.78	-44.3	-45.4	15.2	0.00e+00	0	27	0	1504706560	54	4189
2026-01-05 12:01:42.46	171.68	35.01	-44.4	-45.6	15.1	0.00e+00	0	27	0	1509949440	54	4246
2026-01-05 12:01:43.47	171.78	35.23	-44.6	-45.8	15.1	0.00e+00	0	27	0	1516240896	54	4357
2026-01-05 12:01:44.48	171.88	35.45	-44.5	-45.7	15.1	0.00e+00	0	27	0	1521483776	54	4327
2026-01-05 12:01:45.48	171.98	35.67	-44.6	-45.6	15.1	0.00e+00	0	27	0	1526726656	54	4280
2026-01-05 12:01:46.48	172.09	35.90	-44.5	-45.5	15.1	0.00e+00	0	27	0	1533018112	54	4217
2026-01-05 12:01:47.49	172.19	36.13	-44.5	-45.5	15.1	0.00e+00	0	27	0	1538260992	54	4232
2026-01-05 12:01:48.49	172.30	36.35	-44.5	-45.5	15.1	0.00e+00	0	27	0	1543503872	54	4227
2026-01-05 12:01:49.50	172.40	36.59	-44.6	-45.6	15.1	0.00e+00	0	27	0	1549795328	54	4272
2026-01-05 12:01:50.51	172.51	36.82	-44.4	-45.5	15.2	0.00e+00	0	27	0	1555038208	54	4199
2026-01-05 12:01:51.51	172.62	37.05	-44.5	-45.5	15.1	0.00e+00	0	27	0	1561329664	54	4218
2026-01-05 12:01:52.51	172.73	37.28	-44.4	-45.4	15.2	0.00e+00	0	27	0	1566572544	54	4193
2026-01-05 12:01:53.52	172.85	37.52	-44.4	-45.4	15.1	0.00e+00	0	27	0	1572864000	54	4178
2026-01-05 12:01:54.52	172.96	37.76	-44.5	-45.6	15.1	0.00e+00	0	27	0	1578106880	54	4258
2026-01-05 12:01:55.53	173.08	38.00	-44.5	-45.5	15.1	0.00e+00	0	27	0	1583349760	54	4213
2026-01-05 12:01:56.53	173.20	38.24	-44.4	-45.5	15.2	0.00e+00	0	27	0	1589641216	54	4200
2026-01-05 12:01:57.54	173.32	38.48	-44.4	-45.4	15.1	0.00e+00	0	27	0	1594884096	54	4179
2026-01-05 12:01:58.55	173.44	38.73	-44.4	-45.5	15.1	0.00e+00	0	27	0	1600126976	54	4202
2026-01-05 12:01:59.55	173.56	38.97	-44.5	-45.5	15.2	0.00e+00	0	27	0	1606418432	54	4228
2026-01-05 12:02:00.55	173.69	39.22	-44.6	-45.7	15.1	0.00e+00	0	27	0	1611661312	54	4294
2026-01-05 12:02:01.56	173.82	39.47	-44.8	-45.8	15.1	0.00e+00	0	27	0	1616904192	54	4389
2026-01-05 12:02:02.56	173.94	39.72	-44.9	-45.9	15.1	0.00e+00	0	27	0	1623195648	54	4423
2026-01-05 12:02:03.56	174.08	39.97	-45.0	-46.1	15.1	0.00e+00	0	27	0	1628438528	55	4246
2026-01-05 12:02:04.57	174.21	40.23	-45.0	-46.0	15.1	0.00e+00	0	27	0	1634729984	55	4241
2026-01-05 12:02:05.57	174.34	40.48	-44.8	-45.9	15.1	0.00e+00	0	27	0	1639972864	55	4161
2026-01-05 12:02:06.57	174.48	40.74	-44.7	-45.8	15.2	0.00e+00	0	27	0	1646264320	55	4105
2026-01-05 12:02:07.57	174.62	40.99	-44.7	-45.8	15.2	0.00e+00	0	27	0	1651507200	55	4106
2026-01-05 12:02:08.58	174.76	41.26	-44.7	-45.8	15.2	0.00e+00	0	27	0	1656750080	55	4100
2026-01-05 12:02:09.59	174.91	41.52	-44.8	-45.9	15.1	0.00e+00	0	27	0	1663041536	55	4149
2026-01-05 12:02:10.58	175.05	41.78	-45.0	-46.0	15.1	0.00e+00	0	27	0	1668284416	55	4241
2026-01-05 12:02:11.59	175.20	42.05	-45.1	-46.2	15.1	0.00e+00	0	27	0	1673527296	55	4319
2026-01-05 12:02:12.60	175.35	42.32	-45.2	-46.2	15.1	0.00e+00	0	27	0	1679818752	55	4335
2026-01-05 12:02:13.60	175.50	42.58	-45.1	-46.2	15.1	0.00e+00	0	27	0	1685061632	55	4297
2026-01-05 12:02:14.61	175.66	42.86	-45.1	-46.1	15.1	0.00e+00	0	27	0	1690304512	55	4279
2026-01-05 12:02:15.61	175.82	43.13	-45.0	-46.0	15.1	0.00e+00	0	27	0	1696595968	55	4240
2026-01-05 12:02:16.62	175.98	43.40	-45.2	-46.2	15.1	0.00e+00	0	27	0	1701838848	55	4334
2026-01-05 12:02:17.62	176.14	43.68	-45.3	-46.4	15.1	0.00e+00	0	27	0	1708130304	55	4396
2026-01-05 12:02:18.62	176.31	43.96	-45.2	-46.2	15.1	0.00e+00	0	27	0	1713373184	55	4330
2026-01-05 12:02:19.63	176.48	44.24	-45.2	-46.2	15.1	0.00e+00	0	27	0	1719664640	55	4329
2026-01-05 12:02:20.63	176.65	44.52	-45.4	-46.4	15.1	0.00e+00	0	27	0	1724907520	55	4432
2026-01-05 12:02:21.64	176.82	44.80	-45.3	-46.3	15.1	0.00e+00	0	27	0	1730150400	55	4391
2026-01-05 12:02:22.65	177.00	45.09	-45.6	-46.7	15.1	0.00e+00	0	27	0	1736441856	56	4332
2026-01-05 12:02:23.66	177.19	45.38	-45.5	-46.6	15.1	0.00e+00	0	27	0	1741684736	56	4271
2026-01-05 12:02:24.66	177.37	45.66	-45.3	-46.4	15.1	0.00e+00	0	27	0	1746927616	56	4163
2026-01-05 12:02:25.66	177.56	45.95	-45.3	-46.3	15.1	0.00e+00	0	27	0	1753219072	56	4115
2026-01-05 12:02:26.66	177.75	46.24	-45.0	-46.0	15.2	0.00e+00	0	27	0	1758461952	56	3998
2026-01-05 12:02:27.67	177.94	46.54	-45.0	-46.0	15.2	0.00e+00	0	27	0	1764753408	56	3981
2026-01-05 12:02:28.68	178.14	46.84	-45.0	-46.0	15.2	0.00e+00	0	27	0	1769996288	56	3984
2026-01-05 12:02:29.68	178.35	47.13	-45.0	-46.1	15.2	0.00e+00	0	27	0	1775239168	56	4006
2026-01-05 12:02:30.69	178.55	47.43	-45.1	-46.2	15.2	0.00e+00	0	27	0	1781530624	56	4064
2026-01-05 12:02:31.69	178.76	47.73	-45.1	-46.1	15.2	0.00e+00	0	27	0	1786773504	56	4037
2026-01-05 12:02:32.69	178.97	48.03	-45.1	-46.2	15.2	0.00e+00	0	27	0	1793064960	56	4062
2026-01-05 12:02:33.69	179.19	48.33	-45.4	-46.4	15.1	0.00e+00	0	27	0	1798307840	56	4167
2026-01-05 12:02:34.69	179.41	48.64	-45.6	-46.6	15.1	0.00e+00	0	27	0	1803550720	56	4287
2026-01-05 12:02:35.70	179.64	48.95	-45.7	-46.8	15.1	0.00e+00	0	27	0	1809842176	56	4356
2026-01-05 12:02:36.71	179.87	49.26	-45.7	-46.8	15.1	0.00e+00	0	27	0	1815085056	56	4379
2026-01-05 12:02:37.71	180.11	49.57	-45.8	-46.8	15.0	0.00e+00	0	27	0	1821376512	56	4387
2026-01-05 12:02:38.72	180.35	49.88	-45.7	-46.8	15.1	0.00e+00	0	27	0	1826619392	56	4353
2026-01-05 12:02:39.73	180.60	50.20	-45.6	-46.7	15.1	0.00e+00	0	27	0	1831862272	56	4324
2026-01-05 12:02:40.73	180.85	50.51	-45.7	-46.8	15.1	0.00e+00	0	27	0	1838153728	56	4343
2026-01-05 12:02:41.73	181.10	50.83	-45.8	-46.9	15.0	0.00e+00	0	27	0	1843396608	56	4430
2026-01-05 12:02:42.74	181.37	51.15	-46.0	-47.1	15.1	0.00e+00	0	27	0	1849688064	57	4258
2026-01-05 12:02:43.74	181.63	51.47	-46.2	-47.3	15.0	0.00e+00	0	27	0	1854930944	57	4373
2026-01-05 12:02:44.75	181.90	51.79	-46.3	-47.4	15.0	0.00e+00	0	27	0	1860173824	57	4396
2026-01-05 12:02:45.76	182.18	52.12	-46.4	-47.5	15.1	0.00e+00	0	27	0	1866465280	58	4208
2026-01-05 12:02:46.76	182.47	52.44	-46.5	-47.6	15.0	0.00e+00	0	27	0	1871708160	58	4274
2026-01-05 12:02:47.77	182.76	52.77	-46.6	-47.7	15.0	0.00e+00	0	27	0	1877999616	58	4303
2026-01-05 12:02:48.78	183.06	53.10	-46.5	-47.6	15.0	0.00e+00	0	27	0	1883242496	58	4279
2026-01-05 12:02:49.78	183.36	53.42	-46.2	-47.2	15.1	0.00e+00	0	27	0	1888485376	58	4096
2026-01-05 12:02:50.79	183.67	53.76	-46.0	-47.0	15.2	0.00e+00	0	27	0	1894776832	58	3980
2026-01-05 12:02:51.80	183.99	54.09	-46.0	-47.0	15.2	0.00e+00	0	27	0	1900019712	58	3984
2026-01-05 12:02:52.79	184.31	54.42	-45.9	-47.0	15.2	0.00e+00	0	27	0	1905262592	58	3970
2026-01-05 12:02:53.79	184.65	54.75	-46.2	-47.3	15.1	0.00e+00	0	27	0	1911554048	58	4115
2026-01-05 12:02:54.79	184.98	55.08	-46.6	-47.7	15.0	0.00e+00	0	27	0	1916796928	58	4309
2026-01-05 12:02:55.80	185.34	55.42	-46.6	-47.7	15.0	0.00e+00	0	27	0	1923088384	58	4333
2026-01-05 12:02:56.80	185.69	55.76	-46.6	-47.7	15.0	0.00e+00	0	27	0	1928331264	58	4330
2026-01-05 12:02:57.81	186.06	56.10	-46.5	-47.6	15.0	0.00e+00	0	27	0	1933574144	58	4255
2026-01-05 12:02:58.81	186.43	56.44	-46.0	-47.1	15.2	0.00e+00	0	27	0	1939865600	58	4021
2026-01-05 12:02:59.82	186.82	56.78	-46.2	-47.3	15.1	0.00e+00	0	27	0	1945108480	58	4133
2026-01-05 12:03:00.82	187.21	57.12	-46.5	-47.7	15.0	0.00e+00	0	27	0	1951399936	58	4298
2026-01-05 12:03:01.83	187.61	57.46	-46.4	-47.5	15.1	0.00e+00	0	27	0	1956642816	58	4215
2026-01-05 12:03:02.83	188.02	57.80	-46.2	-47.2	15.1	0.00e+00	0	27	0	1961885696	58	4093
2026-01-05 12:03:03.83	188.45	58.14	-45.9	-46.9	15.2	0.00e+00	0	27	0	1968177152	58	3930
2026-01-05 12:03:04.83	188.88	58.49	-45.6	-46.6	15.2	0.00e+00	0	27	0	1973420032	57	4040
2026-01-05 12:03:05.84	189.33	58.83	-45.9	-46.9	15.1	0.00e+00	0	27	0	1978662912	57	4185
2026-01-05 12:03:06.84	189.78	59.18	-45.5	-46.5	15.2	0.00e+00	0	27	0	1984954368	57	4004
2026-01-05 12:03:07.84	190.25	59.52	-45.1	-46.1	15.2	0.00e+00	0	27	0	1990197248	56	4024
2026-01-05 12:03:08.85	190.73	59.87	-45.3	-46.3	15.1	0.00e+00	0	27	0	1996488704	56	4132
2026-01-05 12:03:09.85	191.23	60.21	-45.6	-46.7	15.1	0.00e+00	0	27	0	2001731584	56	4310
2026-01-05 12:03:10.86	191.74	60.56	-45.4	-46.5	15.1	0.00e+00	0	27	0	2006974464	56	4204
2026-01-05 12:03:11.87	192.26	60.90	-45.0	-46.0	15.2	0.00e+00	0	27	0	2013265920	56	4000
2026-01-05 12:03:12.88	192.80	61.25	-44.9	-45.9	15.3	0.00e+00	0	27	0	2018508800	56	3931
2026-01-05 12:03:13.88	193.35	61.59	-44.9	-45.9	15.3	0.00e+00	0	27	0	2024800256	56	3943
2026-01-05 12:03:14.88	193.91	61.93	-45.0	-46.0	15.2	0.00e+00	0	27	0	2030043136	56	3964
2026-01-05 12:03:15.89	194.50	62.28	-45.0	-46.0	15.3	0.00e+00	0	27	0	2035286016	56	3990
2026-01-05 12:03:16.90	195.10	62.62	-45.3	-46.3	15.2	0.00e+00	0	27	0	2041577472	56	4143
2026-01-05 12:03:17.90	195.72	62.96	-45.2	-46.2	15.2	0.00e+00	0	27	0	2046820352	56	4095
2026-01-05 12:03:18.89	196.34	63.30	-45.0	-46.0	15.2	0.00e+00	0	27	0	2052063232	56	3999
2026-01-05 12:03:19.90	197.00	63.64	-45.2	-46.2	15.2	0.00e+00	0	27	0	2058354688	56	4079
2026-01-05 12:03:20.91	197.67	63.98	-45.0	-46.0	15.2	0.00e+00	0	27	0	2063597568	56	3996
2026-01-05 12:03:21.91	198.36	64.31	-44.7	-45.7	15.3	0.00e+00	0	27	0	2069889024	56	3848
2026-01-05 12:03:22.91	199.07	64.64	-44.6	-45.6	15.2	0.00e+00	0	27	0	2075131904	55	4023
2026-01-05 12:03:23.92	199.80	64.98	-44.4	-45.4	15.3	0.00e+00	0	27	0	2081423360	55	3932
2026-01-05 12:03:24.92	200.55	65.30	-44.3	-45.3	15.3	0.00e+00	0	27	0	2086666240	55	3874
2026-01-05 12:03:25.93	201.34	65.63	-44.5	-45.5	15.2	0.00e+00	0	27	0	2091909120	55	3985
2026-01-05 12:03:26.93	202.13	65.95	-44.3	-45.3	15.3	0.00e+00	0	27	0	2098200576	55	3909
2026-01-05 12:03:27.93	202.95	66.27	-44.5	-45.5	15.3	0.00e+00	0	27	0	2103443456	55	3968
2026-01-05 12:03:28.94	203.80	66.59	-44.9	-45.9	15.2	0.00e+00	0	27	0	2108686336	55	4190
2026-01-05 12:03:29.94	204.67	66.91	-44.5	-45.6	15.2	0.00e+00	0	27	0	2114977792	55	4011
2026-01-05 12:03:30.95	205.58	67.22	-44.6	-45.6	15.2	0.00e+00	0	27	0	2120220672	55	4041
2026-01-05 12:03:31.95	206.50	67.52	-45.0	-46.1	15.1	0.00e+00	0	27	0	2125463552	55	4251
2026-01-05 12:03:32.96	207.46	67.83	-45.0	-46.1	15.1	0.00e+00	0	27	0	2131755008	55	4253
2026-01-05 12:03:33.96	208.43	68.12	-44.5	-45.5	15.2	0.00e+00	0	27	0	2136997888	55	3972
2026-01-05 12:03:34.97	209.45	68.41	-44.6	-45.6	15.2	0.00e+00	0	27	0	2143289344	55	4018
2026-01-05 12:03:35.98	210.50	68.70	-44.7	-45.7	15.2	0.00e+00	0	27	0	2148532224	55	4095
2026-01-05 12:03:36.98	211.56	68.98	-44.6	-45.6	15.2	0.00e+00	0	27	0	2154823680	55	4044
2026-01-05 12:03:37.98	212.66	69.25	-44.3	-45.3	15.3	0.00e+00	0	27	0	2160066560	55	3909
2026-01-05 12:03:38.99	213.80	69.52	-44.2	-45.2	15.4	0.00e+00	0	27	0	2165309440	55	3856
2026-01-05 12:03:39.99	214.95	69.78	-44.2	-45.2	15.2	0.00e+00	0	27	0	2171600896	54	4058
2026-01-05 12:03:41.00	216.16	70.04	-44.2	-45.2	15.2	0.00e+00	0	27	0	2176843776	54	4094
2026-01-05 12:03:42.01	217.39	70.29	-44.3	-45.3	15.2	0.00e+00	0	27	0	2182086656	54	4134
2026-01-05 12:03:43.01	218.65	70.52	-44.0	-45.0	15.3	0.00e+00	0	27	0	2188378112	54	3983
2026-01-05 12:03:44.02	219.95	70.76	-43.9	-44.9	15.3	0.00e+00	0	27	0	2193620992	54	3945
2026-01-05 12:03:45.03	221.28	70.98	-43.8	-44.8	15.3	0.00e+00	0	27	0	2199912448	54	3892
2026-01-05 12:03:46.03	222.64	71.19	-43.9	-44.9	15.3	0.00e+00	0	27	0	2205155328	54	3921
2026-01-05 12:03:47.03	224.02	71.39	-44.2	-45.2	15.2	0.00e+00	0	27	0	2210398208	54	4073
2026-01-05 12:03:48.03	225.44	71.58	-44.4	-45.5	15.2	0.00e+00	0	27	0	2216689664	54	4200
2026-01-05 12:03:49.03	226.88	71.76	-43.9	-44.9	15.3	0.00e+00	0	27	0	2221932544	54	3914
2026-01-05 12:03:50.03	228.36	71.93	-44.0	-45.0	15.3	0.00e+00	0	27	0	2228224000	54	3982
2026-01-05 12:03:51.04	229.88	72.09	-44.1	-45.2	15.2	0.00e+00	0	27	0	2233466880	54	4073
2026-01-05 12:03:52.05	231.43	72.24	-44.0	-45.0	15.3	0.00e+00	0	27	0	2238709760	54	3976
2026-01-05 12:03:53.05	232.98	72.37	-44.1	-45.1	15.2	0.00e+00	0	27	0	2245001216	54	4043
2026-01-05 12:03:54.06	234.58	72.50	-44.0	-45.0	15.3	0.00e+00	0	27	0	2250244096	54	3978
2026-01-05 12:03:55.07	236.20	72.61	-43.8	-44.8	15.3	0.00e+00	0	27	0	2256535552	54	3892
2026-01-05 12:03:56.07	237.83	72.70	-43.9	-44.9	15.3	0.00e+00	0	27	0	2261778432	54	3938
2026-01-05 12:03:57.08	239.48	72.79	-43.6	-44.6	15.3	0.00e+00	0	27	0	2267021312	53	4009
2026-01-05 12:03:58.08	241.14	72.86	-43.6	-44.6	15.2	0.00e+00	0	27	0	2273312768	53	4035
2026-01-05 12:03:59.08	242.81	72.91	-43.9	-44.9	15.2	0.00e+00	0	27	0	2278555648	53	4176
2026-01-05 12:04:00.08	244.49	72.95	-43.9	-44.9	15.2	0.00e+00	0	27	0	2283798528	53	4192
2026-01-05 12:04:01.09	246.19	72.98	-43.8	-44.8	15.2	0.00e+00	0	27	0	2290089984	53	4138
2026-01-05 12:04:02.10	247.90	73.00	-44.0	-45.0	15.2	0.00e+00	0	27	0	2295332864	53	4217
2026-01-05 12:04:03.10	249.60	72.99	-43.9	-45.0	15.2	0.00e+00	0	27	0	2301624320	53	4201
2026-01-05 12:04:04.10	251.29	72.98	-44.0	-45.0	15.2	0.00e+00	0	27	0	2306867200	53	4229
2026-01-05 12:04:05.10	252.97	72.95	-43.9	-44.9	15.2	0.00e+00	0	27	0	2312110080	53	4189
2026-01-05 12:04:06.10	254.65	72.91	-43.6	-44.6	15.2	0.00e+00	0	27	0	2318401536	53	4015
2026-01-05 12:04:07.10	256.32	72.85	-43.6	-44.5	15.3	0.00e+00	0	27	0	2323644416	53	4002
2026-01-05 12:04:08.10	257.98	72.78	-43.5	-44.5	15.3	0.00e+00	0	27	0	2328887296	53	3985
2026-01-05 12:04:09.11	259.64	72.70	-43.7	-44.7	15.2	0.00e+00	0	27	0	2335178752	53	4090
2026-01-05 12:04:10.11	261.26	72.60	-43.8	-44.9	15.2	0.00e+00	0	27	0	2340421632	53	4147
2026-01-05 12:04:11.11	262.86	72.49	-44.0	-45.1	15.2	0.00e+00	0	27	0	2346713088	53	4246
2026-01-05 12:04:12.12	264.46	72.37	-44.2	-45.2	15.2	0.00e+00	0	27	0	2351955968	53	4321
2026-01-05 12:04:13.13	266.03	72.24	-44.0	-45.0	15.2	0.00e+00	0	27	0	2357198848	53	4227
2026-01-05 12:04:14.13	267.56	72.09	-43.9	-44.9	15.2	0.00e+00	0	27	0	2363490304	53	4177
2026-01-05 12:04:15.14	269.08	71.93	-43.9	-44.9	15.2	0.00e+00	0	27	0	2368733184	53	4167
2026-01-05 12:04:16.14	270.56	71.76	-43.7	-44.7	15.2	0.00e+00	0	27	0	2375024640	53	4097
2026-01-05 12:04:17.15	272.02	71.58	-43.7	-44.7	15.2	0.00e+00	0	27	0	2380267520	53	4064
2026-01-05 12:04:18.15	273.43	71.39	-43.7	-44.7	15.2	0.00e+00	0	27	0	2385510400	53	4085
2026-01-05 12:04:19.15	274.81	71.19	-43.9	-44.9	15.2	0.00e+00	0	27	0	2391801856	53	4178
2026-01-05 12:04:20.15	276.17	70.98	-44.0	-45.0	15.2	0.00e+00	0	27	0	2397044736	53	4214
2026-01-05 12:04:21.16	277.50	70.75	-44.0	-45.0	15.2	0.00e+00	0	27	0	2402287616	53	4238
2026-01-05 12:04:22.16	278.79	70.52	-44.1	-45.1	15.2	0.00e+00	0	27	0	2408579072	53	4264
2026-01-05 12:04:23.16	280.04	70.29	-44.1	-45.1	15.2	0.00e+00	0	27	0	2413821952	53	4282
2026-01-05 12:04:24.17	281.28	70.04	-44.0	-45.0	15.2	0.00e+00	0	27	0	2420113408	53	4241
2026-01-05 12:04:25.18	282.48	69.79	-44.1	-45.1	15.2	0.00e+00	0	27	0	2425356288	53	4272
2026-01-05 12:04:26.19	283.65	69.52	-44.3	-45.3	15.2	0.00e+00	0	27	0	2430599168	53	4383
2026-01-05 12:04:27.19	284.77	69.26	-44.3	-45.4	15.1	0.00e+00	0	27	0	2436890624	53	4399
2026-01-05 12:04:28.19	285.87	68.98	-44.3	-45.3	15.1	0.00e+00	0	27	0	2442133504	53	4380
2026-01-05 12:04:29.19	286.93	68.70	-44.5	-45.6	15.2	0.00e+00	0	27	0	2448424960	54	4260
2026-01-05 12:04:30.19	287.97	68.42	-44.6	-45.7	15.1	0.00e+00	0	27	0	2453667840	54	4315
2026-01-05 12:04:31.20	288.98	68.13	-44.7	-45.7	15.1	0.00e+00	0	27	0	2458910720	54	4316
2026-01-05 12:04:32.21	289.97	67.83	-44.7	-45.7	15.1	0.00e+00	0	27	0	2465202176	54	4308
2026-01-05 12:04:33.21	290.92	67.53	-44.6	-45.6	15.1	0.00e+00	0	27	0	2470445056	54	4273
2026-01-05 12:04:34.21	291.84	67.22	-44.4	-45.4	15.2	0.00e+00	0	27	0	2475687936	54	4157
2026-01-05 12:04:35.21	292.73	66.92	-44.5	-45.5	15.2	0.00e+00	0	27	0	2481979392	54	4200
2026-01-05 12:04:36.22	293.61	66.60	-44.6	-45.6	15.1	0.00e+00	0	27	0	2487222272	54	4265
2026-01-05 12:04:37.22	294.46	66.29	-44.7	-45.8	15.1	0.00e+00	0	27	0	2493513728	54	4352
2026-01-05 12:04:38.23	295.28	65.96	-44.7	-45.7	15.1	0.00e+00	0	27	0	2498756608	54	4335
2026-01-05 12:04:39.24	296.09	65.64	-44.7	-45.7	15.1	0.00e+00	0	27	0	2503999488	54	4337
2026-01-05 12:04:40.24	296.86	65.31	-44.7	-45.8	15.1	0.00e+00	0	27	0	2510290944	54	4355
2026-01-05 12:04:41.24	297.61	64.99	-44.8	-45.9	15.1	0.00e+00	0	27	0	2515533824	54	4409
2026-01-05 12:04:42.24	298.34	64.66	-44.9	-45.9	15.2	0.00e+00	0	27	0	2521825280	55	4175
2026-01-05 12:04:43.25	299.05	64.32	-44.9	-45.9	15.2	0.00e+00	0	27	0	2527068160	55	4178
2026-01-05 12:04:44.25	299.74	63.99	-44.9	-45.9	15.2	0.00e+00	0	27	0	2532311040	55	4183
2026-01-05 12:04:45.25	300.41	63.65	-44.9	-45.9	15.2	0.00e+00	0	27	0	2538602496	55	4185
2026-01-05 12:04:46.25	301.06	63.32	-45.0	-46.0	15.1	0.00e+00	0	27	0	2543845376	55	4241
2026-01-05 12:04:47.26	301.69	62.98	-44.8	-45.9	15.2	0.00e+00	0	27	0	2549088256	55	4152
2026-01-05 12:04:48.26	302.31	62.64	-44.7	-45.7	15.2	0.00e+00	0	27	0	2555379712	55	4086
2026-01-05 12:04:49.26	302.90	62.30	-44.7	-45.7	15.2	0.00e+00	0	27	0	2560622592	55	4097
2026-01-05 12:04:50.26	303.48	61.96	-44.8	-45.8	15.2	0.00e+00	0	27	0	2566914048	55	4128
2026-01-05 12:04:51.26	304.05	61.62	-44.9	-45.9	15.2	0.00e+00	0	27	0	2572156928	55	4163
2026-01-05 12:04:52.26	304.60	61.27	-45.0	-46.1	15.1	0.00e+00	0	27	0	2577399808	55	4263
2026-01-05 12:04:53.26	305.13	60.93	-45.2	-46.3	15.1	0.00e+00	0	27	0	2583691264	55	4352
2026-01-05 12:04:54.27	305.66	60.59	-45.3	-46.3	15.1	0.00e+00	0	27	0	2588934144	55	4370
2026-01-05 12:04:55.27	306.16	60.24	-45.3	-46.3	15.1	0.00e+00	0	27	0	2595225600	55	4391
2026-01-05 12:04:56.28	306.66	59.90	-45.4	-46.4	15.1	0.00e+00	0	27	0	2600468480	55	4435
2026-01-05 12:04:57.28	307.14	59.55	-45.4	-46.4	15.1	0.00e+00	0	27	0	2605711360	56	4193
2026-01-05 12:04:58.28	307.61	59.21	-45.4	-46.4	15.1	0.00e+00	0	27	0	2612002816	56	4189
2026-01-05 12:04:59.28	308.06	58.87	-45.6	-46.6	15.1	0.00e+00	0	27	0	2617245696	56	4265
2026-01-05 12:05:00.29	308.51	58.52	-45.7	-46.8	15.1	0.00e+00	0	27	0	2622488576	56	4366
2026-01-05 12:05:01.30	308.95	58.18	-45.7	-46.8	15.1	0.00e+00	0	27	0	2628780032	56	4371
2026-01-05 12:05:02.30	309.37	57.84	-45.9	-46.9	15.1	0.00e+00	0	27	0	2634022912	56	4438
2026-01-05 12:05:03.31	309.79	57.50	-45.9	-47.0	15.1	0.00e+00	0	27	0	2639265792	57	4195
2026-01-05 12:05:04.32	310.19	57.15	-46.1	-47.2	15.1	0.00e+00	0	27	0	2645557248	57	4321
2026-01-05 12:05:05.31	310.58	56.82	-46.2	-47.2	15.0	0.00e+00	0	27	0	2650800128	57	4337
2026-01-05 12:05:06.32	310.97	56.48	-46.2	-47.3	15.0	0.00e+00	0	27	0	2657091584	57	4367
2026-01-05 12:05:07.32	311.34	56.14	-46.3	-47.4	15.0	0.00e+00	0	27	0	2662334464	57	4409
2026-01-05 12:05:08.31	311.70	55.81	-46.3	-47.4	15.0	0.00e+00	0	27	0	2668625920	57	4410
2026-01-05 12:05:09.31	312.05	55.47	-46.4	-47.4	15.0	0.00e+00	0	27	0	2673868800	57	4435
2026-01-05 12:05:10.32	312.41	55.13	-46.3	-47.3	15.0	0.00e+00	0	27	0	2679111680	57	4379
2026-01-05 12:05:11.32	312.74	54.80	-46.3	-47.4	15.0	0.00e+00	0	27	0	2685403136	57	4404
2026-01-05 12:05:12.32	313.08	54.47	-46.4	-47.5	15.0	0.00e+00	0	27	0	2690646016	57	4455
2026-01-05 12:05:13.32	313.40	54.14	-46.3	-47.4	15.0	0.00e+00	0	27	0	2695888896	57	4404
2026-01-05 12:05:14.33	313.72	53.80	-46.2	-47.3	15.0	0.00e+00	0	27	0	2702180352	57	4378
2026-01-05 12:05:15.33	314.03	53.48	-46.3	-47.4	15.0	0.00e+00	0	27	0	2707423232	57	4441
2026-01-05 12:05:16.33	314.33	53.15	-46.3	-47.4	15.0	0.00e+00	0	27	0	2712666112	57	4410
2026-01-05 12:05:17.33	314.63	52.82	-46.3	-47.4	15.0	0.00e+00	0	27	0	2718957568	57	4434
2026-01-05 12:05:18.33	314.92	52.50	-46.1	-47.1	15.1	0.00e+00	0	27	0	2724200448	57	4259
2026-01-05 12:05:19.33	315.20	52.18	-46.1	-47.1	15.0	0.00e+00	0	27	0	2730491904	57	4289
2026-01-05 12:05:20.33	315.48	51.86	-46.0	-47.0	15.1	0.00e+00	0	27	0	2735734784	57	4213
2026-01-05 12:05:21.34	315.76	51.53	-46.1	-47.2	15.1	0.00e+00	0	27	0	2740977664	57	4316
2026-01-05 12:05:22.35	316.02	51.21	-46.0	-47.0	15.1	0.00e+00	0	27	0	2747269120	57	4231
2026-01-05 12:05:23.35	316.28	50.90	-45.8	-46.9	15.1	0.00e+00	0	27	0	2752512000	57	4174
2026-01-05 12:05:24.36	316.54	50.58	-45.8	-46.9	15.1	0.00e+00	0	27	0	2757754880	57	4146
2026-01-05 12:05:25.36	316.79	50.26	-45.5	-46.5	15.2	0.00e+00	0	27	0	2764046336	57	3977
2026-01-05 12:05:26.37	317.04	49.95	-45.4	-46.5	15.2	0.00e+00	0	27	0	2769289216	57	3960
2026-01-05 12:05:27.37	317.28	49.64	-45.3	-46.3	15.3	0.00e+00	0	27	0	2775580672	57	3896
2026-01-05 12:05:28.38	317.52	49.33	-45.4	-46.5	15.2	0.00e+00	0	27	0	2780823552	57	3974
2026-01-05 12:05:29.39	317.75	49.02	-45.6	-46.6	15.2	0.00e+00	0	27	0	2786066432	57	4041
2026-01-05 12:05:30.39	317.98	48.71	-45.7	-46.7	15.2	0.00e+00	0	27	0	2792357888	57	4094
2026-01-05 12:05:31.40	318.20	48.40	-45.7	-46.7	15.2	0.00e+00	0	27	0	2797600768	57	4098
2026-01-05 12:05:32.41	318.42	48.10	-45.8	-46.9	15.1	0.00e+00	0	27	0	2803892224	57	4162
2026-01-05 12:05:33.42	318.64	47.80	-46.0	-47.1	15.1	0.00e+00	0	27	0	2809135104	57	4271
2026-01-05 12:05:34.42	318.85	47.50	-46.0	-47.1	15.1	0.00e+00	0	27	0	2815426560	57	4259
2026-01-05 12:05:35.42	319.05	47.20	-46.0	-47.1	15.1	0.00e+00	0	27	0	2820669440	57	4245
2026-01-05 12:05:36.42	319.25	46.91	-45.8	-46.8	15.1	0.00e+00	0	27	0	2825912320	57	4139
2026-01-05 12:05:37.43	319.45	46.61	-45.6	-46.6	15.2	0.00e+00	0	27	0	2832203776	57	4033
2026-01-05 12:05:38.43	319.65	46.32	-45.6	-46.6	15.2	0.00e+00	0	27	0	2837446656	57	4033
2026-01-05 12:05:39.43	319.84	46.03	-45.5	-46.5	15.2	0.00e+00	0	27	0	2842689536	57	3997
2026-01-05 12:05:40.44	320.03	45.74	-45.4	-46.5	15.2	0.00e+00	0	27	0	2848980992	57	3962
2026-01-05 12:05:41.43	320.21	45.45	-45.4	-46.5	15.3	0.00e+00	0	27	0	2854223872	57	3969
2026-01-05 12:05:42.44	320.39	45.17	-45.5	-46.6	15.2	0.00e+00	0	27	0	2859466752	57	4011
2026-01-05 12:05:43.44	320.57	44.88	-45.4	-46.4	15.2	0.00e+00	0	27	0	2865758208	57	3951
2026-01-05 12:05:44.44	320.75	44.60	-45.4	-46.4	15.2	0.00e+00	0	27	0	2871001088	57	3954
2026-01-05 12:05:45.44	320.92	44.32	-45.4	-46.4	15.2	0.00e+00	0	27	0	2877292544	57	3928
2026-01-05 12:05:46.45	321.09	44.04	-45.4	-46.4	15.3	0.00e+00	0	27	0	2882535424	57	3920
2026-01-05 12:05:47.45	321.25	43.77	-45.0	-46.0	15.2	0.00e+00	0	27	0	2887778304	56	4001
2026-01-05 12:05:48.45	321.42	43.49	-45.1	-46.2	15.2	0.00e+00	0	27	0	2894069760	56	4058
2026-01-05 12:05:49.46	321.58	43.22	-45.1	-46.1	15.2	0.00e+00	0	27	0	2899312640	56	4045
2026-01-05 12:05:50.46	321.74	42.94	-45.3	-46.3	15.1	0.00e+00	0	27	0	2905604096	56	4145
2026-01-05 12:05:51.47	321.89	42.67	-45.2	-46.3	15.2	0.00e+00	0	27	0	2910846976	56	4099
2026-01-05 12:05:52.47	322.05	42.40	-45.1	-46.1	15.2	0.00e+00	0	27	0	2916089856	56	4028
2026-01-05 12:05:53.47	322.20	42.14	-45.1	-46.1	15.2	0.00e+00	0	27	0	2922381312	56	4044
2026-01-05 12:05:54.47	322.35	41.88	-45.1	-46.1	15.2	0.00e+00	0	27	0	2927624192	56	4024
2026-01-05 12:05:55.47	322.49	41.61	-45.0	-46.0	15.2	0.00e+00	0	27	0	2932867072	56	3971
2026-01-05 12:05:56.47	322.64	41.35	-44.8	-45.8	15.3	0.00e+00	0	27	0	2939158528	56	3912
2026-01-05 12:05:57.48	322.78	41.09	-44.9	-45.9	15.3	0.00e+00	0	27	0	2944401408	56	3926
2026-01-05 12:05:58.48	322.92	40.83	-44.9	-45.9	15.3	0.00e+00	0	27	0	2950692864	56	3951
2026-01-05 12:05:59.49	323.06	40.57	-44.9	-45.9	15.3	0.00e+00	0	27	0	2955935744	56	3924
2026-01-05 12:06:00.49	323.19	40.32	-44.9	-45.9	15.3	0.00e+00	0	27	0	2961178624	56	3932
2026-01-05 12:06:01.50	323.32	40.07	-44.9	-45.9	15.3	0.00e+00	0	27	0	2967470080	56	3943
2026-01-05 12:06:02.50	323.45	39.82	-44.9	-45.9	15.3	0.00e+00	0	27	0	2972712960	56	3931
2026-01-05 12:06:03.50	323.58	39.57	-44.8	-45.9	15.3	0.00e+00	0	27	0	2977955840	56	3921
2026-01-05 12:06:04.51	323.71	39.32	-44.8	-45.9	15.3	0.00e+00	0	27	0	2984247296	56	3922
2026-01-05 12:06:05.51	323.84	39.07	-44.8	-45.8	15.3	0.00e+00	0	27	0	2989490176	56	3887
2026-01-05 12:06:06.52	323.96	38.82	-44.8	-45.8	15.3	0.00e+00	0	27	0	2995781632	56	3880
2026-01-05 12:06:07.53	324.08	38.58	-44.8	-45.9	15.3	0.00e+00	0	27	0	3001024512	56	3917
2026-01-05 12:06:08.53	324.20	38.34	-44.8	-45.8	15.3	0.00e+00	0	27	0	3006267392	56	3884
2026-01-05 12:06:09.54	324.32	38.10	-44.9	-45.9	15.3	0.00e+00	0	27	0	3012558848	56	3949
2026-01-05 12:06:10.55	324.44	37.86	-44.9	-46.0	15.3	0.00e+00	0	27	0	3017801728	56	3967
2026-01-05 12:06:11.55	324.56	37.62	-45.0	-46.0	15.2	0.00e+00	0	27	0	3024093184	56	3995
2026-01-05 12:06:12.56	324.67	37.38	-45.1	-46.1	15.2	0.00e+00	0	27	0	3029336064	56	4033
2026-01-05 12:06:13.56	324.78	37.15	-45.1	-46.1	15.2	0.00e+00	0	27	0	3034578944	56	4032
2026-01-05 12:06:14.57	324.89	36.92	-44.9	-46.0	15.2	0.00e+00	0	27	0	3040870400	56	3972
2026-01-05 12:06:15.57	325.00	36.69	-44.9	-45.9	15.3	0.00e+00	0	27	0	3046113280	56	3942
2026-01-05 12:06:16.57	325.11	36.46	-44.9	-45.9	15.3	0.00e+00	0	27	0	3052404736	56	3926
2026-01-05 12:06:17.58	325.22	36.23	-44.8	-45.7	15.3	0.00e+00	0	27	0	3057647616	56	3865
2026-01-05 12:06:18.58	325.32	36.00	-44.7	-45.7	15.3	0.00e+00	0	27	0	3062890496	56	3855
2026-01-05 12:06:19.58	325.42	35.78	-44.7	-45.7	15.3	0.00e+00	0	27	0	3069181952	56	3864
2026-01-05 12:06:20.57	325.52	35.56	-44.8	-45.8	15.3	0.00e+00	0	27	0	3074424832	56	3883
2026-01-05 12:06:21.58	325.63	35.33	-45.0	-46.0	15.2	0.00e+00	0	27	0	3079667712	56	3977
2026-01-05 12:06:22.58	325.72	35.11	-45.0	-46.0	15.2	0.00e+00	0	27	0	3085959168	56	3987
2026-01-05 12:06:23.57	325.82	34.90	-45.0	-46.0	15.2	0.00e+00	0	27	0	3091202048	56	3976
2026-01-05 12:06:24.57	325.92	34.68	-45.1	-46.1	15.2	0.00e+00	0	27	0	3097493504	56	4026
2026-01-05 12:06:25.56	326.01	34.47	-45.0	-46.0	15.2	0.00e+00	0	27	0	3102736384	56	3975
2026-01-05 12:06:26.57	326.11	34.25	-44.9	-46.0	15.2	0.00e+00	0	27	0	3107979264	56	3968
2026-01-05 12:06:27.57	326.20	34.04	-44.9	-45.9	15.3	0.00e+00	0	27	0	3114270720	56	3949
2026-01-05 12:06:28.57	326.29	33.83	-44.9	-46.0	15.3	0.00e+00	0	27	0	3119513600	56	3959
2026-01-05 12:06:29.57	326.38	33.62	-44.9	-45.9	15.3	0.00e+00	0	27	0	3124756480	56	3935
2026-01-05 12:06:30.56	326.47	33.41	-44.9	-45.9	15.2	0.00e+00	0	27	0	3131047936	56	3946
2026-01-05 12:06:31.56	326.56	33.20	-44.9	-45.9	15.2	0.00e+00	0	27	0	3136290816	56	3952
2026-01-05 12:06:32.55	326.65	33.00	-44.9	-46.0	15.3	0.00e+00	0	27	0	3141533696	56	3959
2026-01-05 12:06:33.55	326.73	32.80	-45.0	-46.0	15.2	0.00e+00	0	27	0	3147825152	56	3970
2026-01-05 12:06:34.55	326.82	32.59	-45.0	-46.1	15.2	0.00e+00	0	27	0	3153068032	56	4011
2026-01-05 12:06:35.53	326.90	32.40	-45.0	-46.0	15.2	0.00e+00	0	27	0	3158310912	56	4004
2026-01-05 12:06:36.54	326.99	32.19	-45.1	-46.1	15.2	0.00e+00	0	27	0	3164602368	56	4050
2026-01-05 12:06:37.53	327.07	32.00	-45.1	-46.1	15.2	0.00e+00	0	27	0	3169845248	56	4050
2026-01-05 12:06:38.53	327.15	31.80	-45.1	-46.2	15.2	0.00e+00	0	27	0	3175088128	56	4056
2026-01-05 12:06:39.53	327.23	31.60	-45.2	-46.2	15.2	0.00e+00	0	27	0	3181379584	56	4080
2026-01-05 12:06:40.52	327.31	31.41	-45.2	-46.2	15.2	0.00e+00	0	27	0	3186622464	56	4086
2026-01-05 12:06:41.53	327.39	31.21	-45.1	-46.2	15.2	0.00e+00	0	27	0	3192913920	56	4069
2026-01-05 12:06:42.53	327.47	31.02	-45.2	-46.2	15.2	0.00e+00	0	27	0	3198156800	56	4094
2026-01-05 12:06:43.52	327.54	30.83	-45.2	-46.2	15.2	0.00e+00	0	27	0	3203399680	56	4090
2026-01-05 12:06:44.52	327.62	30.64	-45.0	-46.0	15.2	0.00e+00	0	27	0	3209691136	56	4003
2026-01-05 12:06:45.51	327.69	30.45	-45.0	-46.1	15.2	0.00e+00	0	27	0	3214934016	56	4005
2026-01-05 12:06:46.51	327.77	30.26	-45.0	-46.0	15.2	0.00e+00	0	27	0	3220176896	56	3977
2026-01-05 12:06:47.51	327.84	30.07	-44.9	-45.9	15.2	0.00e+00	0	27	0	3225419776	56	3957
2026-01-05 12:06:48.50	327.91	29.89	-44.9	-45.9	15.2	0.00e+00	0	27	0	3231711232	56	3936
2026-01-05 12:06:49.50	327.98	29.71	-44.9	-45.9	15.3	0.00e+00	0	27	0	3236954112	56	3938
2026-01-05 12:06:50.49	328.06	29.52	-44.9	-45.9	15.2	0.00e+00	0	27	0	3243245568	56	3943
2026-01-05 12:06:51.48	328.13	29.34	-44.9	-46.0	15.2	0.00e+00	0	27	0	3248488448	56	3961
2026-01-05 12:06:52.48	328.20	29.16	-45.0	-46.0	15.2	0.00e+00	0	27	0	3253731328	56	3959
2026-01-05 12:06:53.48	328.26	28.98	-45.0	-46.0	15.2	0.00e+00	0	27	0	3260022784	56	3995
2026-01-05 12:06:54.48	328.33	28.80	-45.0	-46.0	15.2	0.00e+00	0	27	0	3265265664	56	3981
2026-01-05 12:06:55.47	328.40	28.63	-45.1	-46.2	15.2	0.00e+00	0	28	0	3270508544	56	4057
2026-01-05 12:06:56.47	328.47	28.45	-45.1	-46.1	15.2	0.00e+00	0	27	0	3276800000	56	4046
2026-01-05 12:06:57.47	328.53	28.27	-45.1	-46.1	15.2	0.00e+00	0	27	0	3282042880	56	4040
2026-01-05 12:06:58.47	328.60	28.10	-45.1	-46.1	15.2	0.00e+00	0	27	0	3287285760	56	4044
2026-01-05 12:06:59.48	328.66	27.92	-45.1	-46.1	15.2	0.00e+00	0	27	0	3293577216	56	4039
2026-01-05 12:07:00.47	328.73	27.75	-45.1	-46.2	15.2	0.00e+00	0	27	0	3298820096	56	4068
2026-01-05 12:07:01.46	328.79	27.58	-45.1	-46.2	15.2	0.00e+00	0	27	0	3305111552	56	4052
2026-01-05 12:07:02.47	328.85	27.41	-45.1	-46.1	15.2	0.00e+00	0	27	0	3310354432	56	4025
2026-01-05 12:07:03.46	328.92	27.24	-45.2	-46.2	15.2	0.00e+00	0	27	0	3315597312	56	4066
2026-01-05 12:07:04.46	328.98	27.07	-45.1	-46.1	15.2	0.00e+00	0	27	0	3321888768	56	4023
2026-01-05 12:07:05.45	329.04	26.91	-45.1	-46.1	15.2	0.00e+00	0	27	0	3327131648	56	4045
2026-01-05 12:07:06.45	329.10	26.74	-45.3	-46.3	15.1	0.00e+00	0	27	0	3332374528	56	4117
2026-01-05 12:07:07.44	329.16	26.58	-45.3	-46.3	15.1	0.00e+00	0	27	0	3337617408	56	4120
2026-01-05 12:07:08.44	329.22	26.41	-45.3	-46.4	15.1	0.00e+00	0	27	0	3343908864	56	4147
2026-01-05 12:07:09.44	329.28	26.25	-45.3	-46.3	15.1	0.00e+00	0	27	0	3349151744	56	4133
2026-01-05 12:07:10.45	329.34	26.09	-45.3	-46.3	15.1	0.00e+00	0	27	0	3355443200	56	4127
2026-01-05 12:07:11.44	329.39	25.93	-45.3	-46.4	15.1	0.00e+00	0	27	0	3360686080	56	4160
2026-01-05 12:07:12.45	329.45	25.76	-45.4	-46.5	15.1	0.00e+00	0	27	0	3365928960	56	4197
2026-01-05 12:07:13.45	329.51	25.60	-45.4	-46.5	15.1	0.00e+00	0	27	0	3372220416	56	4209
2026-01-05 12:07:14.45	329.56	25.44	-45.5	-46.6	15.1	0.00e+00	0	27	0	3377463296	56	4259
2026-01-05 12:07:15.43	329.62	25.29	-45.6	-46.7	15.1	0.00e+00	0	27	0	3382706176	56	4298
2026-01-05 12:07:16.43	329.67	25.13	-45.6	-46.7	15.1	0.00e+00	0	27	0	3388997632	56	4328
2026-01-05 12:07:17.43	329.73	24.98	-45.7	-46.7	15.1	0.00e+00	0	27	0	3394240512	56	4330
2026-01-05 12:07:18.42	329.78	24.82	-45.8	-46.9	15.0	0.00e+00	0	27	0	3399483392	56	4416
2026-01-05 12:07:19.42	329.84	24.67	-45.8	-46.9	15.0	0.00e+00	0	27	0	3405774848	56	4398
2026-01-05 12:07:20.41	329.89	24.52	-45.8	-46.9	15.1	0.00e+00	0	27	0	3411017728	57	4178
2026-01-05 12:07:21.42	329.94	24.36	-45.8	-46.9	15.1	0.00e+00	0	27	0	3417309184	57	4182
2026-01-05 12:07:22.42	330.00	24.21	-45.8	-46.9	15.1	0.00e+00	0	27	0	3422552064	57	4168
2026-01-05 12:07:23.42	330.05	24.06	-45.8	-46.9	15.1	0.00e+00	0	27	0	3427794944	57	4167
2026-01-05 12:07:24.42	330.10	23.91	-45.8	-46.9	15.1	0.00e+00	0	27	0	3434086400	57	4152
2026-01-05 12:07:25.42	330.15	23.76	-45.9	-47.0	15.1	0.00e+00	0	27	0	3439329280	57	4207
2026-01-05 12:07:26.42	330.20	23.61	-45.9	-47.0	15.1	0.00e+00	0	27	0	3444572160	57	4203
2026-01-05 12:07:27.42	330.25	23.46	-45.9	-47.0	15.1	0.00e+00	0	27	0	3450863616	57	4217
2026-01-05 12:07:28.41	330.30	23.32	-45.9	-46.9	15.1	0.00e+00	0	27	0	3456106496	57	4181
2026-01-05 12:07:29.41	330.35	23.17	-46.0	-47.0	15.0	0.00e+00	0	27	0	3461349376	57	4228
2026-01-05 12:07:30.41	330.40	23.03	-46.0	-47.0	15.0	0.00e+00	0	27	0	3467640832	57	4227
2026-01-05 12:07:31.41	330.45	22.88	-45.9	-47.0	15.1	0.00e+00	0	27	0	3472883712	57	4217
2026-01-05 12:07:32.41	330.49	22.74	-45.9	-47.0	15.1	0.00e+00	0	27	0	3479175168	57	4210
2026-01-05 12:07:33.41	330.54	22.60	-45.9	-47.0	15.1	0.00e+00	0	27	0	3484418048	57	4217
2026-01-05 12:07:34.42	330.59	22.45	-46.0	-47.1	15.0	0.00e+00	0	27	0	3489660928	57	4261
2026-01-05 12:07:35.41	330.64	22.31	-46.0	-47.1	15.0	0.00e+00	0	27	0	3495952384	57	4271
2026-01-05 12:07:36.40	330.68	22.18	-46.0	-47.0	15.1	0.00e+00	0	27	0	3501195264	57	4227
2026-01-05 12:07:37.40	330.73	22.04	-46.1	-47.1	15.0	0.00e+00	0	27	0	3506438144	57	4284
2026-01-05 12:07:38.40	330.77	21.90	-46.1	-47.1	15.0	0.00e+00	0	27	0	3512729600	57	4285
2026-01-05 12:07:39.39	330.82	21.76	-46.0	-47.1	15.0	0.00e+00	0	27	0	3517972480	57	4269
2026-01-05 12:07:40.38	330.86	21.62	-46.1	-47.1	15.0	0.00e+00	0	27	0	3523215360	57	4287
2026-01-05 12:07:41.37	330.91	21.49	-46.1	-47.1	15.0	0.00e+00	0	27	0	3529506816	57	4289
2026-01-05 12:07:42.37	330.95	21.35	-46.1	-47.2	15.0	0.00e+00	0	27	0	3534749696	57	4295
2026-01-05 12:07:43.37	330.99	21.22	-46.2	-47.3	15.0	0.00e+00	0	27	0	3539992576	57	4355
2026-01-05 12:07:44.36	331.04	21.08	-46.1	-47.1	15.0	0.00e+00	0	27	0	3546284032	57	4283
2026-01-05 12:07:45.35	331.08	20.95	-46.2	-47.3	15.0	0.00e+00	0	27	0	3551526912	57	4354
2026-01-05 12:07:46.35	331.12	20.82	-46.2	-47.3	15.0	0.00e+00	0	27	0	3556769792	57	4375
2026-01-05 12:07:47.34	331.17	20.69	-46.2	-47.3	15.0	0.00e+00	0	27	0	3562012672	57	4369
2026-01-05 12:07:48.34	331.21	20.56	-46.3	-47.4	15.0	0.00e+00	0	27	0	3568304128	57	4401
2026-01-05 12:07:49.33	331.25	20.43	-46.3	-47.3	15.0	0.00e+00	0	27	0	3573547008	57	4390
2026-01-05 12:07:50.33	331.29	20.30	-46.2	-47.3	15.0	0.00e+00	0	27	0	3579838464	57	4371
2026-01-05 12:07:51.32	331.33	20.17	-46.3	-47.4	15.0	0.00e+00	0	27	0	3585081344	57	4418
2026-01-05 12:07:52.32	331.37	20.04	-46.3	-47.4	15.0	0.00e+00	0	27	0	3590324224	57	4410
2026-01-05 12:07:53.31	331.41	19.91	-46.3	-47.4	15.0	0.00e+00	0	27	0	3596615680	57	4432
2026-01-05 12:07:54.31	331.45	19.78	-46.4	-47.5	14.9	0.00e+00	0	27	0	3601858560	57	4481
2026-01-05 12:07:55.31	331.49	19.66	-46.4	-47.5	15.0	0.00e+00	0	27	0	3607101440	58	4218
2026-01-05 12:07:56.30	331.53	19.53	-46.4	-47.5	15.0	0.00e+00	0	27	0	3613392896	58	4204
2026-01-05 12:07:57.30	331.57	19.40	-46.3	-47.4	15.0	0.00e+00	0	27	0	3618635776	58	4191
2026-01-05 12:07:58.28	331.61	19.28	-46.5	-47.6	15.0	0.00e+00	0	27	0	3623878656	58	4259
2026-01-05 12:07:59.28	331.65	19.16	-46.5	-47.6	15.0	0.00e+00	0	27	0	3630170112	58	4273
2026-01-05 12:08:00.26	331.69	19.03	-46.6	-47.7	15.0	0.00e+00	0	27	0	3635412992	58	4315
2026-01-05 12:08:01.25	331.73	18.91	-46.6	-47.7	15.0	0.00e+00	0	27	0	3640655872	58	4302
2026-01-05 12:08:02.24	331.76	18.79	-46.6	-47.7	15.0	0.00e+00	0	27	0	3645898752	58	4318
2026-01-05 12:08:03.24	331.80	18.67	-46.7	-47.8	14.9	0.00e+00	0	27	0	3652190208	58	4366
2026-01-05 12:08:04.24	331.84	18.55	-46.8	-47.9	14.9	0.00e+00	0	27	0	3657433088	58	4413
2026-01-05 12:08:05.23	331.88	18.43	-46.8	-47.9	14.9	0.00e+00	0	27	0	3663724544	58	4424
2026-01-05 12:08:06.22	331.91	18.31	-46.8	-47.9	14.9	0.00e+00	0	27	0	3668967424	58	4427
2026-01-05 12:08:07.21	331.95	18.19	-46.9	-48.1	15.0	0.00e+00	0	27	0	3674210304	59	4247
2026-01-05 12:08:08.21	331.99	18.07	-46.9	-48.0	15.0	0.00e+00	0	27	0	3680501760	59	4220
2026-01-05 12:08:09.20	332.02	17.95	-47.0	-48.1	14.9	0.00e+00	0	27	0	3685744640	59	4280
2026-01-05 12:08:10.20	332.06	17.83	-47.1	-48.2	14.9	0.00e+00	0	27	0	3690987520	59	4325
2026-01-05 12:08:11.19	332.09	17.72	-47.0	-48.2	14.9	0.00e+00	0	27	0	3696230400	59	4311
