passes_logs/2026/01/05/R3.2S_Murmansk/R3.2S_Murmansk__20260105_102228_TY-42_rec.log

#Pass ID: 20260105_102228_TY-42
#Satellite: TY-42
#Configuration: TY-42_900M
#almurnet v.1.7.20251203
#Start time: 2026-01-05 10:22:29

#Version: 2.2.20231116
#Station: R3.2S_Murmansk
#Location: 33.079688 lon 68.888172 lat
#TLE: 1 64048U 25103A   26004.62913194  .00008006  00000-0  38191-3 0 09999
#TLE: 2 64048 097.4104 080.2420 0001638 091.3072 286.8001 15.19153636 35244

#Time	Az	El	Level	Level2	SNR	BER	BlckErr	Temp	State	Recorded	gain1	gain2
2026-01-05 10:22:29.13	21.80	2.07	-57.9	-61.1	6.1	0.00e+00	0	32	0	0	82	21100
2026-01-05 10:22:30.13	21.76	2.14	-57.9	-61.1	6.2	0.00e+00	0	32	104	0	83	19916
2026-01-05 10:22:31.11	21.72	2.20	-57.9	-61.1	6.2	0.00e+00	0	32	104	0	83	19932
2026-01-05 10:22:32.11	21.69	2.27	-57.9	-61.2	6.2	0.00e+00	0	32	104	0	83	19935
2026-01-05 10:22:33.10	21.65	2.34	-57.9	-61.1	6.2	0.00e+00	0	32	104	0	83	19889
2026-01-05 10:22:34.08	21.61	2.41	-57.9	-61.1	6.1	0.00e+00	0	32	104	0	83	19857
2026-01-05 10:22:35.07	21.57	2.48	-57.9	-61.2	6.2	0.00e+00	0	32	104	0	83	19991
2026-01-05 10:22:36.06	21.53	2.55	-57.9	-61.1	6.2	0.00e+00	0	32	104	0	83	19931
2026-01-05 10:22:37.04	21.49	2.61	-57.9	-61.2	6.2	0.00e+00	0	32	104	0	83	19978
2026-01-05 10:22:38.03	21.45	2.68	-57.9	-61.1	6.2	0.00e+00	0	32	104	0	83	19929
2026-01-05 10:22:39.02	21.41	2.75	-57.9	-61.1	6.2	0.00e+00	0	32	104	0	83	19886
2026-01-05 10:22:40.01	21.37	2.82	-57.9	-61.1	6.1	0.00e+00	0	32	104	0	83	19858
2026-01-05 10:22:40.99	21.33	2.89	-57.9	-61.1	6.1	0.00e+00	0	32	104	0	82	21056
2026-01-05 10:22:41.98	21.29	2.96	-57.9	-61.1	6.1	0.00e+00	0	32	104	0	82	21011
2026-01-05 10:22:42.97	21.25	3.03	-57.9	-61.1	6.2	0.00e+00	0	32	104	0	82	21027
2026-01-05 10:22:43.96	21.21	3.10	-57.9	-61.1	6.1	0.00e+00	0	32	104	0	82	20987
2026-01-05 10:22:44.95	21.17	3.17	-57.8	-61.1	6.1	0.00e+00	0	33	104	0	82	20955
2026-01-05 10:22:45.94	21.13	3.24	-57.8	-61.1	6.2	0.00e+00	0	33	104	0	82	20913
2026-01-05 10:22:46.93	21.08	3.32	-57.8	-61.1	6.2	0.00e+00	0	33	104	0	82	20912
2026-01-05 10:22:47.92	21.04	3.39	-57.9	-61.1	6.1	0.00e+00	0	33	104	0	82	20916
2026-01-05 10:22:48.91	21.00	3.46	-57.9	-61.1	6.1	0.00e+00	0	33	104	0	82	20975
2026-01-05 10:22:49.90	20.96	3.53	-57.9	-61.1	6.1	0.00e+00	0	33	104	0	82	21071
2026-01-05 10:22:50.89	20.91	3.60	-57.9	-61.1	6.2	0.00e+00	0	33	104	0	82	21064
2026-01-05 10:22:51.87	20.87	3.67	-57.9	-61.1	6.2	0.00e+00	0	33	104	0	82	21079
2026-01-05 10:22:52.85	20.83	3.75	-57.9	-61.2	6.2	0.00e+00	0	33	104	0	82	21122
2026-01-05 10:22:53.84	20.78	3.82	-57.9	-61.2	6.2	0.00e+00	0	33	104	0	82	21162
2026-01-05 10:22:54.83	20.74	3.89	-57.9	-61.2	6.1	0.00e+00	0	33	104	0	82	21187
2026-01-05 10:22:55.81	20.69	3.96	-57.9	-61.2	6.2	0.00e+00	0	33	104	0	82	21172
2026-01-05 10:22:56.80	20.65	4.04	-57.9	-61.2	6.1	0.00e+00	0	33	104	0	82	21154
2026-01-05 10:22:57.79	20.60	4.11	-57.9	-61.2	6.2	0.00e+00	0	33	104	0	82	21197
2026-01-05 10:22:58.78	20.56	4.19	-57.9	-61.2	6.1	0.00e+00	0	33	104	0	82	21132
2026-01-05 10:22:59.77	20.51	4.26	-57.9	-61.2	6.2	0.00e+00	0	33	104	0	82	21158
2026-01-05 10:23:00.75	20.46	4.33	-57.9	-61.2	6.2	0.00e+00	0	33	104	0	82	21178
2026-01-05 10:23:01.74	20.42	4.41	-57.9	-61.2	6.2	0.00e+00	0	33	104	0	82	21146
2026-01-05 10:23:02.73	20.37	4.48	-57.9	-61.2	6.2	0.00e+00	0	34	104	0	82	21147
2026-01-05 10:23:03.72	20.32	4.56	-57.9	-61.2	6.2	0.00e+00	0	34	104	0	82	21150
2026-01-05 10:23:04.71	20.28	4.64	-57.9	-61.2	6.2	0.00e+00	0	34	104	0	82	21146
2026-01-05 10:23:05.70	20.23	4.71	-57.9	-61.2	6.2	0.00e+00	0	34	104	0	82	21173
2026-01-05 10:23:06.69	20.18	4.79	-57.9	-61.2	6.2	0.00e+00	0	34	104	0	82	21140
2026-01-05 10:23:07.68	20.13	4.86	-57.9	-61.2	6.1	0.00e+00	0	34	104	0	82	21226
2026-01-05 10:23:08.67	20.08	4.94	-57.9	-61.1	6.2	0.00e+00	0	34	104	0	82	21111
2026-01-05 10:23:09.65	20.03	5.02	-57.9	-61.2	6.2	0.00e+00	0	34	104	0	82	21145
2026-01-05 10:23:10.64	19.98	5.09	-58.1	-61.3	6.1	0.00e+00	0	34	104	0	82	21583
2026-01-05 10:23:11.64	19.93	5.17	-58.1	-61.3	6.1	0.00e+00	0	34	104	0	82	21555
2026-01-05 10:23:12.64	19.88	5.25	-57.9	-61.2	6.2	0.00e+00	0	34	104	0	82	21335
2026-01-05 10:23:13.63	19.83	5.33	-58.0	-61.3	6.2	0.00e+00	0	34	104	0	82	21382
2026-01-05 10:23:14.63	19.78	5.41	-58.0	-61.2	6.2	0.00e+00	0	34	104	0	82	21317
2026-01-05 10:23:15.62	19.73	5.49	-58.0	-61.3	6.1	0.00e+00	0	34	104	0	82	21415
2026-01-05 10:23:16.61	19.68	5.57	-58.0	-61.2	6.2	0.00e+00	0	34	104	0	82	21298
2026-01-05 10:23:17.60	19.62	5.64	-58.0	-61.3	6.1	0.00e+00	0	34	104	0	82	21457
2026-01-05 10:23:18.59	19.57	5.72	-58.0	-61.3	6.1	0.00e+00	0	34	104	0	82	21384
2026-01-05 10:23:19.58	19.52	5.80	-58.0	-61.3	6.2	0.00e+00	0	34	104	0	82	21421
2026-01-05 10:23:20.58	19.46	5.88	-58.0	-61.3	6.2	0.00e+00	0	34	104	0	82	21425
2026-01-05 10:23:21.58	19.41	5.97	-58.1	-61.3	6.1	0.00e+00	0	34	104	0	82	21498
2026-01-05 10:23:22.57	19.35	6.05	-58.0	-61.3	6.2	0.00e+00	0	34	104	0	82	21479
2026-01-05 10:23:23.55	19.30	6.13	-58.1	-61.3	6.2	0.00e+00	0	34	104	0	82	21542
2026-01-05 10:23:24.55	19.24	6.21	-58.1	-61.3	6.2	0.00e+00	0	35	104	0	82	21562
2026-01-05 10:23:25.54	19.19	6.29	-58.1	-61.3	6.2	0.00e+00	0	34	104	0	82	21527
2026-01-05 10:23:26.54	19.13	6.37	-58.1	-61.3	6.1	0.00e+00	0	34	104	0	82	21528
2026-01-05 10:23:27.53	19.08	6.46	-58.1	-61.3	6.2	0.00e+00	0	34	104	0	82	21598
2026-01-05 10:23:28.53	19.02	6.54	-58.1	-61.4	6.1	0.00e+00	0	34	104	0	82	21701
2026-01-05 10:23:29.53	18.96	6.62	-58.1	-61.4	6.1	0.00e+00	0	34	104	0	82	21689
2026-01-05 10:23:30.53	18.90	6.71	-58.1	-61.4	6.2	0.00e+00	0	34	104	0	82	21692
2026-01-05 10:23:31.52	18.84	6.79	-58.1	-61.4	6.2	0.00e+00	0	35	104	0	82	21680
2026-01-05 10:23:32.51	18.79	6.88	-58.2	-61.4	6.2	0.00e+00	0	34	104	0	82	21730
2026-01-05 10:23:33.50	18.73	6.96	-58.2	-61.4	6.2	0.00e+00	0	35	104	0	82	21786
2026-01-05 10:23:34.49	18.67	7.04	-58.2	-61.4	6.2	0.00e+00	0	35	104	0	82	21829
2026-01-05 10:23:35.49	18.61	7.13	-58.2	-61.4	6.2	0.00e+00	0	35	104	0	82	21783
2026-01-05 10:23:36.48	18.55	7.22	-58.2	-61.5	6.2	0.00e+00	0	35	104	0	82	21889
2026-01-05 10:23:37.47	18.49	7.30	-58.2	-61.4	6.2	0.00e+00	0	35	104	0	82	21808
2026-01-05 10:23:38.46	18.42	7.39	-58.2	-61.5	6.2	0.00e+00	0	35	104	0	82	21971
2026-01-05 10:23:39.45	18.36	7.47	-58.2	-61.4	6.2	0.00e+00	0	35	104	0	82	21810
2026-01-05 10:23:40.44	18.30	7.56	-58.2	-61.5	6.2	0.00e+00	0	35	104	0	82	21912
2026-01-05 10:23:41.43	18.24	7.65	-58.2	-61.5	6.1	0.00e+00	0	35	104	0	82	21869
2026-01-05 10:23:42.42	18.17	7.74	-58.2	-61.5	6.1	0.00e+00	0	35	104	0	82	22019
2026-01-05 10:23:43.42	18.11	7.82	-58.2	-61.5	6.2	0.00e+00	0	35	104	0	82	21880
2026-01-05 10:23:44.41	18.05	7.91	-58.3	-61.5	6.1	0.00e+00	0	35	104	0	82	22041
2026-01-05 10:23:45.40	17.98	8.00	-58.2	-61.5	6.2	0.00e+00	0	35	104	0	82	21969
2026-01-05 10:23:46.40	17.91	8.09	-58.3	-61.5	6.2	0.00e+00	0	35	104	0	82	22109
2026-01-05 10:23:47.39	17.85	8.18	-58.2	-61.5	6.2	0.00e+00	0	35	104	0	82	21861
2026-01-05 10:23:48.38	17.78	8.27	-58.3	-61.6	6.2	0.00e+00	0	35	104	0	82	22261
2026-01-05 10:23:49.38	17.71	8.36	-58.3	-61.5	6.2	0.00e+00	0	35	104	0	82	22059
2026-01-05 10:23:50.37	17.65	8.45	-58.3	-61.6	6.1	0.00e+00	0	35	104	0	82	22263
2026-01-05 10:23:51.36	17.58	8.54	-58.3	-61.5	6.1	0.00e+00	0	35	104	0	82	22040
2026-01-05 10:23:52.36	17.51	8.64	-58.4	-61.6	6.2	0.00e+00	0	35	104	0	82	22275
2026-01-05 10:23:53.35	17.44	8.73	-58.3	-61.5	6.2	0.00e+00	0	35	104	0	82	22041
2026-01-05 10:23:54.35	17.37	8.82	-58.4	-61.6	6.2	0.00e+00	0	35	104	0	82	22319
2026-01-05 10:23:55.34	17.30	8.91	-48.8	-49.4	9.8	0.00e+00	5511	37	0	25165824	64	15340
2026-01-05 10:23:56.34	17.23	9.01	-47.9	-48.4	10.3	0.00e+00	1067	37	0	142606336	63	14550
2026-01-05 10:23:57.33	17.16	9.10	-47.8	-48.4	10.3	1.83e-01	799	37	0	251658240	62	15326
2026-01-05 10:23:58.32	17.08	9.20	-46.4	-47.1	10.8	1.83e-01	0	37	0	360710144	60	14856
2026-01-05 10:23:59.31	17.01	9.29	-46.6	-47.1	10.8	1.83e-01	0	37	0	469762048	59	15695
2026-01-05 10:24:00.31	16.94	9.39	-45.9	-46.3	11.2	1.83e-01	0	36	0	587202560	59	14416
2026-01-05 10:24:01.31	16.86	9.48	-45.0	-45.4	11.5	1.24e-01	0	37	0	696254464	57	14459
2026-01-05 10:24:02.31	16.79	9.58	-44.3	-44.6	11.7	1.24e-01	0	37	0	813694976	55	14895
2026-01-05 10:24:03.30	16.71	9.67	-43.6	-44.0	12.0	1.24e-01	0	36	0	922746880	54	14679
2026-01-05 10:24:04.29	16.64	9.77	-43.2	-43.5	12.1	3.61e-02	0	37	0	1031798784	53	14731
2026-01-05 10:24:05.29	16.56	9.87	-42.8	-43.2	12.1	3.61e-02	0	37	0	1149239296	52	15013
2026-01-05 10:24:06.28	16.48	9.97	-42.8	-43.2	12.2	1.24e-02	0	37	0	1258291200	52	15044
2026-01-05 10:24:07.27	16.40	10.06	-42.6	-43.0	12.2	1.24e-02	0	37	0	1367343104	52	14642
2026-01-05 10:24:08.26	16.32	10.16	-42.8	-43.1	12.2	1.24e-02	0	37	0	1476395008	52	14909
2026-01-05 10:24:09.26	16.24	10.26	-42.4	-42.8	12.3	1.02e-02	0	37	0	1593835520	52	14275
2026-01-05 10:24:10.25	16.16	10.36	-42.2	-42.6	12.3	1.02e-02	0	37	0	1702887424	51	14822
2026-01-05 10:24:11.25	16.08	10.46	-42.2	-42.5	12.4	6.99e-03	0	37	0	1820327936	51	14753
2026-01-05 10:24:12.25	16.00	10.56	-42.2	-42.5	12.4	6.99e-03	0	37	0	1929379840	51	14710
2026-01-05 10:24:13.24	15.92	10.67	-42.0	-42.4	12.4	6.99e-03	0	37	0	2038431744	51	14483
2026-01-05 10:24:14.23	15.84	10.77	-42.1	-42.4	12.4	6.99e-03	0	37	0	2147483648	51	14511
2026-01-05 10:24:15.22	15.75	10.87	-42.1	-42.4	12.4	5.81e-03	0	37	0	2264924160	51	14505
2026-01-05 10:24:16.22	15.67	10.97	-42.1	-42.4	12.4	5.81e-03	0	37	0	2373976064	51	14591
2026-01-05 10:24:17.22	15.58	11.08	-42.1	-42.5	12.4	5.47e-03	0	37	0	2483027968	51	14663
2026-01-05 10:24:18.21	15.50	11.18	-41.9	-42.2	12.5	5.47e-03	0	37	0	2600468480	51	14233
2026-01-05 10:24:19.20	15.41	11.28	-41.9	-42.2	12.5	5.47e-03	0	37	0	2709520384	51	14200
2026-01-05 10:24:20.19	15.32	11.39	-41.9	-42.2	12.5	4.88e-03	0	37	0	2826960896	51	14193
2026-01-05 10:24:21.18	15.23	11.49	-41.9	-42.2	12.5	4.88e-03	0	37	0	2927624192	50	15116
2026-01-05 10:24:22.17	15.14	11.60	-41.7	-42.0	12.5	4.88e-03	0	38	0	3045064704	50	14756
2026-01-05 10:24:23.16	15.05	11.70	-41.8	-42.1	12.4	4.67e-03	0	38	0	3154116608	50	14915
2026-01-05 10:24:24.16	14.96	11.81	-41.7	-42.1	12.5	4.67e-03	0	38	0	3271557120	50	14783
2026-01-05 10:24:25.15	14.87	11.92	-41.6	-42.0	12.5	4.67e-03	0	38	0	3380609024	50	14674
2026-01-05 10:24:26.15	14.78	12.03	-41.5	-41.8	12.6	4.73e-03	0	38	0	3489660928	50	14426
2026-01-05 10:24:27.14	14.68	12.14	-41.3	-41.7	12.5	4.73e-03	0	38	0	3607101440	49	14968
2026-01-05 10:24:28.13	14.59	12.25	-41.4	-41.7	12.5	4.73e-03	0	38	0	3716153344	49	15044
2026-01-05 10:24:29.13	14.50	12.36	-41.2	-41.5	12.6	3.70e-03	0	38	0	3825205248	49	14647
2026-01-05 10:24:30.13	14.40	12.47	-41.2	-41.5	12.6	3.70e-03	0	38	0	3934257152	49	14698
2026-01-05 10:24:31.12	14.30	12.58	-41.1	-41.5	12.6	3.70e-03	0	38	0	4051697664	49	14619
2026-01-05 10:24:32.12	14.20	12.69	-40.9	-41.2	12.7	2.81e-03	0	38	0	4160749568	49	14272
2026-01-05 10:24:33.12	14.10	12.80	-40.9	-41.2	12.7	2.81e-03	0	38	0	4278190080	49	14193
2026-01-05 10:24:34.12	14.00	12.92	-40.8	-41.1	12.6	2.46e-03	0	38	0	4387241984	48	14858
2026-01-05 10:24:35.12	13.90	13.03	-40.7	-41.0	12.6	2.46e-03	0	38	0	4504682496	48	14765
2026-01-05 10:24:36.11	13.80	13.14	-40.5	-40.8	12.6	2.46e-03	0	38	0	4613734400	48	14333
2026-01-05 10:24:37.10	13.70	13.26	-40.5	-40.8	12.6	2.67e-03	0	38	0	4722786304	48	14388
2026-01-05 10:24:38.10	13.59	13.37	-40.5	-40.8	12.6	2.67e-03	0	38	0	4840226816	48	14346
2026-01-05 10:24:39.09	13.49	13.49	-39.5	-39.9	12.4	2.67e-03	0	38	0	4949278720	46	14493
2026-01-05 10:24:40.09	13.38	13.61	-39.6	-40.0	12.5	3.20e-03	0	38	0	5066719232	46	14635
2026-01-05 10:24:41.08	13.28	13.72	-39.4	-39.7	12.6	3.20e-03	0	38	0	5167382528	46	14274
2026-01-05 10:24:42.07	13.17	13.84	-39.3	-39.6	12.6	3.20e-03	0	38	0	5284823040	45	14891
2026-01-05 10:24:43.07	13.06	13.96	-39.4	-39.7	12.7	3.57e-03	0	38	0	5393874944	45	15027
2026-01-05 10:24:44.06	12.95	14.08	-39.4	-39.7	12.7	3.57e-03	0	38	0	5511315456	45	15098
2026-01-05 10:24:45.05	12.84	14.20	-39.4	-39.7	12.7	1.72e-03	0	38	0	5620367360	45	15051
2026-01-05 10:24:46.05	12.73	14.32	-39.4	-39.7	12.7	1.72e-03	0	38	0	5729419264	45	15105
2026-01-05 10:24:47.04	12.61	14.44	-39.6	-39.9	12.6	1.72e-03	0	38	0	5846859776	45	15430
2026-01-05 10:24:48.04	12.50	14.56	-39.7	-40.0	12.6	1.49e-03	0	38	0	5955911680	45	15583
2026-01-05 10:24:49.03	12.38	14.68	-39.7	-40.0	12.6	1.49e-03	0	38	0	6064963584	45	15585
2026-01-05 10:24:50.02	12.27	14.81	-39.7	-40.0	12.6	1.49e-03	0	38	0	6174015488	45	15539
2026-01-05 10:24:51.01	12.15	14.93	-39.4	-39.8	12.7	1.49e-03	0	38	0	6291456000	45	15126
2026-01-05 10:24:52.00	12.03	15.06	-39.5	-39.8	12.6	2.10e-03	0	38	0	6400507904	45	15289
2026-01-05 10:24:52.99	11.91	15.18	-39.3	-39.6	12.7	2.10e-03	0	38	0	6517948416	45	14937
2026-01-05 10:24:53.98	11.79	15.31	-39.2	-39.6	12.6	2.10e-03	0	38	0	6618611712	45	14839
2026-01-05 10:24:54.98	11.67	15.43	-39.3	-39.6	12.6	2.40e-03	0	39	0	6736052224	45	14917
2026-01-05 10:24:55.97	11.54	15.56	-39.1	-39.4	12.6	2.40e-03	0	38	0	6845104128	45	14603
2026-01-05 10:24:56.96	11.42	15.69	-39.1	-39.4	12.7	2.40e-03	0	38	0	6962544640	45	14539
2026-01-05 10:24:57.95	11.29	15.82	-39.2	-39.5	12.6	2.59e-03	0	38	0	7071596544	45	14667
2026-01-05 10:24:58.94	11.16	15.95	-38.9	-39.2	12.8	2.59e-03	0	39	0	7180648448	45	14180
2026-01-05 10:24:59.93	11.03	16.08	-38.6	-39.0	12.7	2.18e-03	0	39	0	7289700352	44	14608
2026-01-05 10:25:00.93	10.90	16.21	-38.6	-38.9	12.7	2.18e-03	0	39	0	7407140864	44	14594
2026-01-05 10:25:01.92	10.77	16.34	-38.6	-38.9	12.7	2.18e-03	0	39	0	7516192768	44	14549
2026-01-05 10:25:02.91	10.64	16.47	-38.3	-38.6	12.8	1.28e-03	0	39	0	7625244672	43	14872
2026-01-05 10:25:03.90	10.50	16.61	-38.3	-38.7	12.8	1.28e-03	0	39	0	7742685184	43	14962
2026-01-05 10:25:04.89	10.37	16.74	-38.2	-38.5	12.9	1.28e-03	0	39	0	7851737088	43	14660
2026-01-05 10:25:05.88	10.23	16.87	-38.2	-38.5	12.9	9.01e-04	0	39	0	7960788992	43	14761
2026-01-05 10:25:06.87	10.09	17.01	-38.0	-38.3	13.0	9.01e-04	0	39	0	8069840896	43	14356
2026-01-05 10:25:07.86	9.95	17.15	-37.8	-38.1	12.9	9.01e-04	0	39	0	8187281408	42	14940
2026-01-05 10:25:08.86	9.81	17.28	-37.7	-38.0	13.0	6.01e-04	0	39	0	8296333312	42	14724
2026-01-05 10:25:09.85	9.66	17.42	-37.7	-38.0	13.0	6.01e-04	0	39	0	8413773824	42	14716
2026-01-05 10:25:10.85	9.52	17.56	-37.7	-38.0	13.0	6.01e-04	0	39	0	8522825728	42	14751
2026-01-05 10:25:11.83	9.37	17.70	-37.5	-37.8	13.0	3.29e-04	0	39	0	8631877632	42	14438
2026-01-05 10:25:12.82	9.22	17.84	-37.4	-37.7	13.1	3.29e-04	0	39	0	8740929536	42	14227
2026-01-05 10:25:13.81	9.08	17.98	-37.5	-37.8	13.0	3.29e-04	0	39	0	8858370048	42	14300
2026-01-05 10:25:14.80	8.92	18.12	-37.3	-37.7	13.0	2.24e-04	0	39	0	8967421952	41	14954
2026-01-05 10:25:15.79	8.77	18.27	-37.2	-37.5	13.0	2.24e-04	0	39	0	9076473856	41	14641
2026-01-05 10:25:16.78	8.62	18.41	-37.2	-37.5	13.1	1.95e-04	0	39	0	9185525760	41	14611
2026-01-05 10:25:17.77	8.46	18.56	-37.1	-37.4	13.1	1.95e-04	0	39	0	9294577664	41	14461
2026-01-05 10:25:18.77	8.30	18.70	-37.1	-37.4	13.1	1.95e-04	0	39	0	9412018176	41	14497
2026-01-05 10:25:19.76	8.14	18.85	-36.8	-37.1	13.1	1.19e-04	0	39	0	9521070080	40	14941
2026-01-05 10:25:20.75	7.98	19.00	-36.8	-37.2	13.1	1.19e-04	0	39	0	9638510592	40	14966
2026-01-05 10:25:21.74	7.81	19.15	-36.8	-37.1	13.1	1.19e-04	0	39	0	9747562496	40	14888
2026-01-05 10:25:22.74	7.65	19.30	-36.9	-37.2	13.0	5.72e-05	0	39	0	9865003008	40	15020
2026-01-05 10:25:23.73	7.48	19.45	-36.7	-37.0	13.1	5.72e-05	0	39	0	9965666304	40	14758
2026-01-05 10:25:24.73	7.31	19.60	-36.7	-37.0	13.1	5.72e-05	0	39	0	10083106816	40	14690
2026-01-05 10:25:25.72	7.13	19.75	-36.7	-37.0	13.1	4.29e-05	0	39	0	10192158720	40	14699
2026-01-05 10:25:26.71	6.96	19.90	-36.5	-36.8	13.2	4.29e-05	0	39	0	10309599232	40	14328
2026-01-05 10:25:27.71	6.78	20.06	-36.4	-36.7	13.1	4.29e-05	0	39	0	10418651136	39	14996
2026-01-05 10:25:28.69	6.61	20.21	-36.4	-36.7	13.1	2.86e-05	0	39	0	10527703040	39	15101
2026-01-05 10:25:29.68	6.43	20.37	-36.3	-36.6	13.1	2.86e-05	0	39	0	10636754944	39	14934
2026-01-05 10:25:30.67	6.25	20.52	-36.2	-36.5	13.2	2.86e-05	0	39	0	10745806848	39	14640
2026-01-05 10:25:31.68	6.06	20.69	-36.2	-36.4	13.2	1.43e-05	0	39	0	10863247360	39	14581
2026-01-05 10:25:32.67	5.87	20.84	-36.0	-36.3	13.2	1.43e-05	0	39	0	10972299264	39	14402
2026-01-05 10:25:33.66	5.68	21.00	-36.0	-36.3	13.2	1.43e-05	0	39	0	11089739776	39	14392
2026-01-05 10:25:34.66	5.49	21.17	-36.1	-36.4	13.2	1.43e-05	0	39	0	11198791680	39	14450
2026-01-05 10:25:35.65	5.30	21.33	-35.8	-36.1	13.2	2.38e-05	0	39	0	11316232192	38	14783
2026-01-05 10:25:36.65	5.10	21.49	-35.8	-36.0	13.2	2.38e-05	0	39	0	11425284096	38	14746
2026-01-05 10:25:37.65	4.90	21.66	-35.8	-36.0	13.2	1.90e-05	0	39	0	11534336000	38	14760
2026-01-05 10:25:38.64	4.70	21.82	-35.8	-36.0	13.2	1.90e-05	0	39	0	11651776512	38	14746
2026-01-05 10:25:39.63	4.50	21.99	-35.7	-36.0	13.2	1.90e-05	0	39	0	11760828416	38	14727
2026-01-05 10:25:40.63	4.29	22.15	-35.7	-35.9	13.3	1.43e-05	0	39	0	11869880320	38	14565
2026-01-05 10:25:41.62	4.08	22.32	-35.6	-35.8	13.3	1.43e-05	0	39	0	11978932224	38	14393
2026-01-05 10:25:42.62	3.87	22.49	-35.6	-35.9	13.3	1.43e-05	0	39	0	12096372736	38	14458
2026-01-05 10:25:43.61	3.65	22.66	-35.5	-35.7	13.3	4.70e-06	0	39	0	12205424640	38	14230
2026-01-05 10:25:44.61	3.44	22.83	-35.3	-35.6	13.3	4.70e-06	0	39	0	12322865152	37	14784
2026-01-05 10:25:45.60	3.22	23.00	-35.3	-35.5	13.3	4.70e-06	0	39	0	12431917056	37	14763
2026-01-05 10:25:46.60	2.99	23.18	-35.2	-35.5	13.3	4.70e-06	0	39	0	12540968960	37	14661
2026-01-05 10:25:47.60	2.77	23.35	-35.2	-35.5	13.3	4.70e-06	0	39	0	12658409472	37	14655
2026-01-05 10:25:48.59	2.54	23.53	-35.2	-35.4	13.3	4.70e-06	0	39	0	12767461376	37	14602
2026-01-05 10:25:49.59	2.31	23.70	-35.2	-35.4	13.3	4.70e-06	0	39	0	12884901888	37	14504
2026-01-05 10:25:50.59	2.07	23.88	-35.1	-35.4	13.4	4.70e-06	0	39	0	12993953792	37	14510
2026-01-05 10:25:51.58	1.84	24.06	-35.2	-35.4	13.4	4.70e-06	0	39	0	13103005696	37	14579
2026-01-05 10:25:52.58	1.60	24.24	-35.2	-35.4	13.4	4.70e-06	0	39	0	13212057600	37	14565
2026-01-05 10:25:53.58	1.35	24.42	-35.1	-35.4	13.4	9.50e-06	0	39	0	13329498112	37	14441
2026-01-05 10:25:54.57	1.11	24.60	-35.1	-35.3	13.4	9.50e-06	0	39	0	13438550016	37	14383
2026-01-05 10:25:55.56	0.86	24.78	-35.0	-35.2	13.4	9.50e-06	0	39	0	13547601920	37	14253
2026-01-05 10:25:56.56	0.60	24.97	-34.9	-35.2	13.5	2.38e-05	0	39	0	13665042432	37	14151
2026-01-05 10:25:57.56	0.35	25.15	-35.0	-35.2	13.5	2.38e-05	0	39	0	13774094336	37	14232
2026-01-05 10:25:58.56	0.08	25.34	-34.9	-35.2	13.5	4.70e-06	0	39	0	13891534848	37	14170
2026-01-05 10:25:59.55	359.82	25.52	-34.8	-35.0	13.4	4.70e-06	0	39	0	14000586752	36	14760
2026-01-05 10:26:00.55	359.55	25.71	-34.7	-34.9	13.5	4.70e-06	0	39	0	14109638656	36	14568
2026-01-05 10:26:01.54	359.29	25.90	-34.6	-34.9	13.5	4.70e-06	0	39	0	14227079168	36	14493
2026-01-05 10:26:02.54	359.01	26.09	-34.7	-34.9	13.5	0.00e+00	0	39	0	14336131072	36	14552
2026-01-05 10:26:03.53	358.73	26.28	-34.5	-34.8	13.5	0.00e+00	0	39	0	14445182976	36	14327
2026-01-05 10:26:04.52	358.46	26.47	-34.5	-34.8	13.5	0.00e+00	0	39	0	14554234880	36	14275
2026-01-05 10:26:05.52	358.17	26.66	-34.5	-34.7	13.5	0.00e+00	0	39	0	14671675392	36	14222
2026-01-05 10:26:06.51	357.88	26.85	-34.5	-34.7	13.5	4.70e-06	0	39	0	14780727296	36	14212
2026-01-05 10:26:07.50	357.59	27.04	-31.8	-32.0	13.4	4.70e-06	0	39	0	14898167808	30	14736
2026-01-05 10:26:08.50	357.29	27.24	-31.7	-32.0	13.4	0.00e+00	0	39	0	15007219712	30	14704
2026-01-05 10:26:09.51	356.99	27.44	-31.8	-32.0	13.4	0.00e+00	0	39	0	15124660224	30	14739
2026-01-05 10:26:10.50	356.68	27.63	-31.5	-31.8	13.5	0.00e+00	0	39	0	15233712128	30	14398
2026-01-05 10:26:11.49	356.38	27.83	-31.5	-31.7	13.5	4.70e-06	0	39	0	15342764032	30	14245
2026-01-05 10:26:12.49	356.06	28.03	-31.4	-31.7	13.5	4.70e-06	0	39	0	15460204544	30	14120
2026-01-05 10:26:13.48	355.74	28.22	-31.5	-31.8	13.5	4.70e-06	0	39	0	15560867840	30	14340
2026-01-05 10:26:14.48	355.42	28.43	-31.4	-31.6	13.5	9.50e-06	0	39	0	15678308352	30	14075
2026-01-05 10:26:15.47	355.10	28.62	-31.1	-31.4	13.5	9.50e-06	0	39	0	15787360256	29	14488
2026-01-05 10:26:16.46	354.77	28.82	-31.1	-31.4	13.5	9.50e-06	0	39	0	15904800768	29	14543
2026-01-05 10:26:17.46	354.43	29.03	-31.0	-31.3	13.5	0.00e+00	0	39	0	16013852672	29	14324
2026-01-05 10:26:18.46	354.09	29.23	-31.2	-31.4	13.5	0.00e+00	0	39	0	16131293184	29	14562
2026-01-05 10:26:19.44	353.75	29.43	-30.9	-31.2	13.5	0.00e+00	0	39	0	16240345088	29	14179
2026-01-05 10:26:20.44	353.40	29.63	-31.0	-31.2	13.5	0.00e+00	0	39	0	16349396992	29	14204
2026-01-05 10:26:21.43	353.04	29.84	-31.0	-31.2	13.5	0.00e+00	0	39	0	16458448896	29	14239
2026-01-05 10:26:22.42	352.69	30.04	-30.8	-31.0	13.4	0.00e+00	0	39	0	16575889408	28	14749
2026-01-05 10:26:23.42	352.32	30.25	-30.8	-31.0	13.4	0.00e+00	0	39	0	16684941312	28	14714
2026-01-05 10:26:24.40	351.96	30.45	-30.6	-30.8	13.5	0.00e+00	0	39	0	16793993216	28	14436
2026-01-05 10:26:25.39	351.58	30.66	-30.6	-30.8	13.5	0.00e+00	0	39	0	16911433728	28	14383
2026-01-05 10:26:26.38	351.21	30.86	-30.6	-30.8	13.5	0.00e+00	0	39	0	17012097024	28	14426
2026-01-05 10:26:27.38	350.82	31.07	-30.5	-30.7	13.5	0.00e+00	0	39	0	17129537536	28	14259
2026-01-05 10:26:28.38	350.43	31.28	-30.5	-30.7	13.5	0.00e+00	0	39	0	17238589440	28	14241
2026-01-05 10:26:29.37	350.03	31.48	-30.4	-30.6	13.5	0.00e+00	0	39	0	17356029952	28	14098
2026-01-05 10:26:30.37	349.63	31.69	-30.4	-30.7	13.5	0.00e+00	0	39	0	17465081856	27	14948
2026-01-05 10:26:31.36	349.22	31.90	-30.3	-30.6	13.5	0.00e+00	0	39	0	17582522368	27	14835
2026-01-05 10:26:32.36	348.81	32.11	-30.2	-30.5	13.5	0.00e+00	0	39	0	17691574272	27	14635
2026-01-05 10:26:33.35	348.39	32.32	-30.3	-30.6	13.5	0.00e+00	0	39	0	17800626176	27	14799
2026-01-05 10:26:34.35	347.96	32.53	-30.1	-30.4	13.6	0.00e+00	0	39	0	17918066688	27	14474
2026-01-05 10:26:35.34	347.54	32.73	-30.1	-30.3	13.6	0.00e+00	0	39	0	18027118592	27	14394
2026-01-05 10:26:36.35	347.09	32.95	-30.0	-30.3	13.6	0.00e+00	0	39	0	18144559104	27	14366
2026-01-05 10:26:37.34	346.65	33.15	-30.1	-30.3	13.5	0.00e+00	0	39	0	18253611008	27	14373
2026-01-05 10:26:38.34	346.20	33.36	-30.0	-30.2	13.6	0.00e+00	0	39	0	18362662912	27	14216
2026-01-05 10:26:39.33	345.75	33.57	-29.8	-30.1	13.5	0.00e+00	0	39	0	18471714816	26	14807
2026-01-05 10:26:40.32	345.29	33.78	-29.8	-30.1	13.5	0.00e+00	0	39	0	18589155328	26	14781
2026-01-05 10:26:41.32	344.82	33.98	-29.7	-30.0	13.5	0.00e+00	0	39	0	18698207232	26	14669
2026-01-05 10:26:42.31	344.35	34.19	-29.8	-30.0	13.5	0.00e+00	0	39	0	18807259136	26	14755
2026-01-05 10:26:43.30	343.87	34.39	-29.6	-29.9	13.6	0.00e+00	0	39	0	18924699648	26	14565
2026-01-05 10:26:44.29	343.39	34.60	-29.7	-30.0	13.5	0.00e+00	0	39	0	19033751552	26	14628
2026-01-05 10:26:45.29	342.89	34.80	-29.7	-29.9	13.5	0.00e+00	0	39	0	19151192064	26	14580
2026-01-05 10:26:46.28	342.39	35.01	-29.5	-29.8	13.6	0.00e+00	0	39	0	19251855360	26	14323
2026-01-05 10:26:47.28	341.88	35.21	-29.5	-29.7	13.6	0.00e+00	0	39	0	19369295872	26	14219
2026-01-05 10:26:48.27	341.37	35.41	-29.5	-29.7	13.6	0.00e+00	0	39	0	19478347776	26	14253
2026-01-05 10:26:49.27	340.85	35.62	-29.4	-29.7	13.6	0.00e+00	0	39	0	19595788288	26	14166
2026-01-05 10:26:50.26	340.32	35.81	-29.4	-29.7	13.6	0.00e+00	0	39	0	19704840192	26	14182
2026-01-05 10:26:51.25	339.79	36.01	-29.5	-29.7	13.6	0.00e+00	0	39	0	19813892096	26	14195
2026-01-05 10:26:52.25	339.25	36.21	-29.3	-29.6	13.5	0.00e+00	0	39	0	19931332608	25	14792
2026-01-05 10:26:53.25	338.70	36.41	-29.2	-29.4	13.5	0.00e+00	0	39	0	20040384512	25	14575
2026-01-05 10:26:54.24	338.14	36.60	-29.2	-29.5	13.5	0.00e+00	0	39	0	20157825024	25	14632
2026-01-05 10:26:55.24	337.58	36.79	-29.1	-29.3	13.6	0.00e+00	0	39	0	20266876928	25	14389
2026-01-05 10:26:56.23	337.01	36.98	-29.1	-29.3	13.6	0.00e+00	0	39	0	20375928832	25	14416
2026-01-05 10:26:57.22	336.44	37.17	-29.0	-29.3	13.6	0.00e+00	0	39	0	20484980736	25	14315
2026-01-05 10:26:58.22	335.85	37.36	-29.0	-29.3	13.6	0.00e+00	0	39	0	20602421248	25	14351
2026-01-05 10:26:59.22	335.26	37.55	-29.1	-29.4	13.6	0.00e+00	0	39	0	20711473152	25	14449
2026-01-05 10:27:00.21	334.66	37.73	-28.9	-29.2	13.6	0.00e+00	0	39	0	20820525056	25	14147
2026-01-05 10:27:01.21	334.05	37.91	-29.0	-29.2	13.6	0.00e+00	0	39	0	20937965568	25	14258
2026-01-05 10:27:02.21	333.44	38.09	-29.0	-29.2	13.6	0.00e+00	0	39	0	21047017472	25	14267
2026-01-05 10:27:03.21	332.82	38.27	-28.8	-29.1	13.5	0.00e+00	0	39	0	21164457984	24	14783
2026-01-05 10:27:04.21	332.19	38.44	-28.9	-29.1	13.5	0.00e+00	0	39	0	21273509888	24	14887
2026-01-05 10:27:05.20	331.56	38.61	-28.9	-29.1	13.5	0.00e+00	0	39	0	21390950400	24	14897
2026-01-05 10:27:06.19	330.92	38.78	-28.7	-29.0	13.6	0.00e+00	0	39	0	21500002304	24	14684
2026-01-05 10:27:07.18	330.27	38.94	-28.8	-29.0	13.5	0.00e+00	0	40	0	21609054208	24	14708
2026-01-05 10:27:08.18	329.62	39.10	-28.7	-29.0	13.6	0.00e+00	0	39	0	21718106112	24	14665
2026-01-05 10:27:09.18	328.95	39.26	-28.7	-28.9	13.6	0.00e+00	0	39	0	21827158016	24	14509
2026-01-05 10:27:10.17	328.29	39.42	-28.7	-28.9	13.6	0.00e+00	0	39	0	21944598528	24	14585
2026-01-05 10:27:11.17	327.61	39.57	-28.6	-28.8	13.6	0.00e+00	0	39	0	22053650432	24	14392
2026-01-05 10:27:12.16	326.93	39.71	-28.6	-28.8	13.6	0.00e+00	0	39	0	22171090944	24	14417
2026-01-05 10:27:13.15	326.25	39.86	-28.5	-28.8	13.6	0.00e+00	0	39	0	22280142848	24	14328
2026-01-05 10:27:14.14	325.56	40.00	-28.6	-28.9	13.6	0.00e+00	0	39	0	22397583360	24	14459
2026-01-05 10:27:15.14	324.85	40.13	-28.5	-28.7	13.6	0.00e+00	0	39	0	22506635264	24	14234
2026-01-05 10:27:16.13	324.15	40.26	-28.5	-28.8	13.6	4.70e-06	0	40	0	22615687168	24	14340
2026-01-05 10:27:17.11	323.45	40.39	-28.5	-28.8	13.6	4.70e-06	0	39	0	22724739072	24	14314
2026-01-05 10:27:18.10	322.74	40.51	-28.5	-28.7	13.6	0.00e+00	0	39	0	22842179584	24	14259
2026-01-05 10:27:19.09	322.02	40.63	-28.5	-28.7	13.6	0.00e+00	0	39	0	22951231488	24	14188
2026-01-05 10:27:20.09	321.28	40.74	-28.4	-28.7	13.6	0.00e+00	0	39	0	23060283392	24	14138
2026-01-05 10:27:21.08	320.55	40.85	-28.3	-28.5	13.5	0.00e+00	0	40	0	23169335296	23	14707
2026-01-05 10:27:22.08	319.81	40.96	-28.3	-28.5	13.5	0.00e+00	0	39	0	23278387200	23	14682
2026-01-05 10:27:23.08	319.06	41.06	-28.3	-28.5	13.5	0.00e+00	0	39	0	23395827712	23	14681
2026-01-05 10:27:24.08	318.31	41.15	-28.3	-28.5	13.5	0.00e+00	0	39	0	23504879616	23	14715
2026-01-05 10:27:25.07	317.56	41.24	-28.2	-28.5	13.5	0.00e+00	0	39	0	23622320128	23	14655
2026-01-05 10:27:26.07	316.80	41.33	-28.2	-28.5	13.5	0.00e+00	0	39	0	23731372032	23	14650
2026-01-05 10:27:27.05	316.05	41.41	-28.1	-28.3	13.6	0.00e+00	0	39	0	23848812544	23	14430
2026-01-05 10:27:28.05	315.28	41.48	-28.2	-28.4	13.5	0.00e+00	0	39	0	23957864448	23	14575
2026-01-05 10:27:29.05	314.51	41.55	-28.3	-28.5	13.5	0.00e+00	0	39	0	24066916352	23	14702
2026-01-05 10:27:30.04	313.74	41.61	-28.2	-28.5	13.5	0.00e+00	0	39	0	24184356864	23	14632
2026-01-05 10:27:31.04	312.96	41.67	-28.1	-28.3	13.5	0.00e+00	0	39	0	24293408768	23	14427
2026-01-05 10:27:32.04	312.18	41.72	-28.1	-28.3	13.5	0.00e+00	0	40	0	24410849280	23	14434
2026-01-05 10:27:33.03	311.40	41.77	-28.2	-28.5	13.5	0.00e+00	0	40	0	24511512576	23	14664
2026-01-05 10:27:34.02	310.62	41.81	-28.1	-28.4	13.6	0.00e+00	0	40	0	24628953088	23	14466
2026-01-05 10:27:35.01	309.84	41.84	-28.0	-28.3	13.6	0.00e+00	0	40	0	24738004992	23	14341
2026-01-05 10:27:36.01	309.05	41.87	-28.1	-28.3	13.6	0.00e+00	0	40	0	24855445504	23	14428
2026-01-05 10:27:37.00	308.26	41.89	-28.0	-28.2	13.6	0.00e+00	0	40	0	24964497408	23	14252
2026-01-05 10:27:38.00	307.47	41.91	-27.9	-28.2	13.6	0.00e+00	0	39	0	25073549312	23	14144
2026-01-05 10:27:38.99	306.69	41.92	-27.9	-28.1	13.6	0.00e+00	0	40	0	25190989824	22	14924
2026-01-05 10:27:39.98	305.90	41.93	-27.8	-28.1	13.6	0.00e+00	0	40	0	25300041728	22	14845
2026-01-05 10:27:40.97	305.11	41.92	-27.8	-28.1	13.6	0.00e+00	0	39	0	25409093632	22	14809
2026-01-05 10:27:41.95	304.33	41.92	-27.8	-28.0	13.6	0.00e+00	0	40	0	25518145536	22	14743
2026-01-05 10:27:42.94	303.55	41.91	-27.9	-28.1	13.6	0.00e+00	0	39	0	25635586048	22	14904
2026-01-05 10:27:43.94	302.76	41.89	-27.9	-28.2	13.6	0.00e+00	0	40	0	25744637952	22	15008
2026-01-05 10:27:44.94	301.96	41.86	-27.8	-28.1	13.6	0.00e+00	0	39	0	25862078464	22	14901
2026-01-05 10:27:45.94	301.17	41.83	-27.9	-28.1	13.6	0.00e+00	0	40	0	25971130368	22	14934
2026-01-05 10:27:46.93	300.39	41.80	-28.0	-28.2	13.6	0.00e+00	0	40	0	26080182272	22	15091
2026-01-05 10:27:47.92	299.61	41.75	-27.9	-28.2	13.6	0.00e+00	0	40	0	26189234176	22	15029
2026-01-05 10:27:48.90	298.85	41.71	-28.1	-28.3	13.6	0.00e+00	0	40	0	26306674688	22	15262
2026-01-05 10:27:49.90	298.06	41.65	-28.1	-28.3	13.5	0.00e+00	0	40	0	26415726592	22	15226
2026-01-05 10:27:50.89	297.29	41.60	-28.1	-28.4	13.5	0.00e+00	0	40	0	26524778496	22	15342
2026-01-05 10:27:51.89	296.52	41.53	-28.0	-28.3	13.5	0.00e+00	0	39	0	26642219008	22	15168
2026-01-05 10:27:52.88	295.75	41.46	-28.1	-28.4	13.5	0.00e+00	0	40	0	26751270912	22	15349
2026-01-05 10:27:53.87	294.99	41.39	-28.1	-28.4	13.5	0.00e+00	0	39	0	26860322816	22	15336
2026-01-05 10:27:54.86	294.23	41.31	-28.2	-28.4	13.5	0.00e+00	0	39	0	26969374720	22	15468
2026-01-05 10:27:55.86	293.47	41.22	-28.1	-28.4	13.5	0.00e+00	0	39	0	27086815232	22	15353
2026-01-05 10:27:56.85	292.72	41.13	-28.2	-28.5	13.5	0.00e+00	0	40	0	27195867136	22	15494
2026-01-05 10:27:57.85	291.97	41.03	-28.2	-28.4	13.5	0.00e+00	0	40	0	27313307648	22	15441
2026-01-05 10:27:58.84	291.23	40.93	-28.2	-28.4	13.5	0.00e+00	0	40	0	27422359552	22	15457
2026-01-05 10:27:59.84	290.49	40.83	-28.3	-28.6	13.5	0.00e+00	0	40	0	27531411456	22	15672
2026-01-05 10:28:00.84	289.75	40.72	-28.2	-28.5	13.5	0.00e+00	0	40	0	27648851968	22	15550
2026-01-05 10:28:01.83	289.02	40.60	-28.3	-28.6	13.5	0.00e+00	0	39	0	27757903872	22	15785
2026-01-05 10:28:02.82	288.30	40.48	-28.3	-28.6	13.5	0.00e+00	0	40	0	27866955776	22	15690
2026-01-05 10:28:03.82	287.58	40.36	-28.4	-28.7	13.5	0.00e+00	0	40	0	27976007680	22	15916
2026-01-05 10:28:04.81	286.88	40.23	-28.4	-28.6	13.5	0.00e+00	0	39	0	28093448192	22	15800
2026-01-05 10:28:05.80	286.17	40.10	-28.2	-28.5	13.5	0.00e+00	0	40	0	28202500096	22	15577
2026-01-05 10:28:06.79	285.48	39.96	-28.3	-28.6	13.5	0.00e+00	0	40	0	28319940608	22	15697
2026-01-05 10:28:07.79	284.78	39.82	-28.3	-28.6	13.5	0.00e+00	0	39	0	28428992512	22	15653
2026-01-05 10:28:08.79	284.09	39.67	-28.3	-28.5	13.5	0.00e+00	0	39	0	28538044416	22	15646
2026-01-05 10:28:09.78	283.41	39.52	-28.4	-28.7	13.5	0.00e+00	0	40	0	28647096320	22	15885
2026-01-05 10:28:10.78	282.74	39.37	-28.3	-28.6	13.5	0.00e+00	0	40	0	28764536832	22	15780
2026-01-05 10:28:11.77	282.07	39.22	-28.3	-28.6	13.5	0.00e+00	0	39	0	28873588736	22	15780
2026-01-05 10:28:12.77	281.41	39.06	-28.3	-28.6	13.5	0.00e+00	0	40	0	28982640640	22	15767
2026-01-05 10:28:13.76	280.76	38.89	-28.4	-28.7	13.6	0.00e+00	0	39	0	29100081152	22	15846
2026-01-05 10:28:14.76	280.11	38.73	-28.5	-28.8	13.5	0.00e+00	0	39	0	29209133056	22	16030
2026-01-05 10:28:15.75	279.47	38.56	-28.5	-28.8	13.5	0.00e+00	0	40	0	29326573568	22	16128
2026-01-05 10:28:16.75	278.84	38.39	-28.6	-28.9	13.6	0.00e+00	0	39	0	29435625472	23	15396
2026-01-05 10:28:17.73	278.22	38.22	-28.7	-28.9	13.6	0.00e+00	0	40	0	29544677376	23	15416
2026-01-05 10:28:18.73	277.60	38.04	-28.6	-28.8	13.6	0.00e+00	0	40	0	29653729280	23	15273
2026-01-05 10:28:19.72	276.99	37.86	-28.6	-28.9	13.6	0.00e+00	0	39	0	29771169792	23	15398
2026-01-05 10:28:20.72	276.38	37.68	-28.7	-28.9	13.6	0.00e+00	0	40	0	29880221696	23	15438
2026-01-05 10:28:21.71	275.79	37.49	-28.7	-29.0	13.6	0.00e+00	0	40	0	29989273600	23	15551
2026-01-05 10:28:22.70	275.20	37.31	-28.8	-29.1	13.6	0.00e+00	0	39	0	30106714112	23	15692
2026-01-05 10:28:23.70	274.61	37.12	-28.9	-29.1	13.6	0.00e+00	0	40	0	30215766016	23	15806
2026-01-05 10:28:24.69	274.04	36.93	-28.9	-29.1	13.6	0.00e+00	0	40	0	30333206528	23	15789
2026-01-05 10:28:25.67	273.48	36.74	-28.9	-29.2	13.6	4.70e-06	0	40	0	30433869824	23	15913
2026-01-05 10:28:26.66	272.92	36.55	-29.0	-29.2	13.6	4.70e-06	0	40	0	30551310336	23	16015
2026-01-05 10:28:27.65	272.37	36.35	-29.1	-29.4	13.6	4.70e-06	0	40	0	30660362240	23	16239
2026-01-05 10:28:28.64	271.82	36.16	-29.2	-29.4	13.7	0.00e+00	0	39	0	30777802752	24	15412
2026-01-05 10:28:29.63	271.29	35.96	-29.2	-29.4	13.7	0.00e+00	0	39	0	30878466048	24	15449
2026-01-05 10:28:30.63	270.75	35.76	-29.3	-29.6	13.7	0.00e+00	0	40	0	30995906560	24	15675
2026-01-05 10:28:31.62	270.22	35.56	-29.2	-29.5	13.6	0.00e+00	0	40	0	31104958464	24	15546
2026-01-05 10:28:32.62	269.70	35.36	-29.3	-29.6	13.7	0.00e+00	0	40	0	31222398976	24	15691
2026-01-05 10:28:33.61	269.19	35.15	-29.4	-29.7	13.6	0.00e+00	0	40	0	31331450880	24	15936
2026-01-05 10:28:34.61	268.68	34.95	-29.4	-29.7	13.6	0.00e+00	0	40	0	31440502784	24	15919
2026-01-05 10:28:35.60	268.18	34.75	-29.4	-29.7	13.6	0.00e+00	0	40	0	31557943296	24	15922
2026-01-05 10:28:36.59	267.69	34.54	-29.5	-29.7	13.7	0.00e+00	0	40	0	31666995200	24	16000
2026-01-05 10:28:37.59	267.20	34.33	-29.6	-29.8	13.7	0.00e+00	0	40	0	31784435712	24	16191
2026-01-05 10:28:38.58	266.72	34.13	-29.6	-29.9	13.7	0.00e+00	0	40	0	31885099008	24	16229
2026-01-05 10:28:39.57	266.25	33.92	-29.7	-29.9	13.7	0.00e+00	0	40	0	32002539520	25	15459
2026-01-05 10:28:40.56	265.79	33.71	-29.7	-30.0	13.7	0.00e+00	0	40	0	32111591424	25	15480
2026-01-05 10:28:41.55	265.33	33.51	-29.8	-30.1	13.7	0.00e+00	0	40	0	32229031936	25	15683
2026-01-05 10:28:42.53	264.88	33.30	-29.9	-30.2	13.6	0.00e+00	0	40	0	32329695232	25	15858
2026-01-05 10:28:43.52	264.43	33.09	-29.9	-30.1	13.6	0.00e+00	0	40	0	32447135744	25	15807
2026-01-05 10:28:44.51	263.99	32.89	-29.9	-30.2	13.6	1.43e-05	0	40	0	32556187648	25	15878
2026-01-05 10:28:45.50	263.56	32.68	-30.1	-30.3	13.6	1.43e-05	0	40	0	32673628160	25	16193
2026-01-05 10:28:46.49	263.13	32.47	-30.0	-30.3	13.6	4.76e-05	0	40	0	32782680064	25	16161
2026-01-05 10:28:47.49	262.70	32.26	-30.1	-30.4	13.7	4.76e-05	0	40	0	32891731968	26	15368
2026-01-05 10:28:48.48	262.29	32.05	-30.2	-30.5	13.7	4.76e-05	0	40	0	33000783872	26	15500
2026-01-05 10:28:49.48	261.87	31.84	-30.3	-30.6	13.6	4.76e-05	0	40	0	33118224384	26	15698
2026-01-05 10:28:50.48	261.46	31.63	-30.4	-30.7	13.6	4.76e-05	0	40	0	33227276288	26	15882
2026-01-05 10:28:51.47	261.06	31.42	-30.5	-30.7	13.6	9.05e-05	0	40	0	33336328192	26	15970
2026-01-05 10:28:52.46	260.67	31.22	-59.4	-54.0	4.6	9.05e-05	0	40	104	33436991488	48	65535
2026-01-05 10:28:53.46	260.28	31.01	-60.0	-63.2	6.2	9.05e-05	0	39	104	33436991488	85	22587
2026-01-05 10:28:54.45	259.89	30.80	-60.0	-63.3	6.2	9.05e-05	0	39	104	33436991488	85	22682
2026-01-05 10:28:55.44	259.51	30.59	-60.0	-63.3	6.2	9.05e-05	0	39	104	33436991488	85	22639
2026-01-05 10:28:56.43	259.14	30.39	-60.0	-63.3	6.2	9.05e-05	0	39	104	33436991488	85	22632
2026-01-05 10:28:57.43	258.77	30.18	-60.0	-63.2	6.1	9.05e-05	0	39	104	33436991488	85	22612
2026-01-05 10:28:58.42	258.41	29.98	-60.0	-63.2	6.2	1.43e-05	0	39	104	33436991488	85	22455
2026-01-05 10:28:59.41	258.05	29.77	-59.9	-63.2	6.2	1.43e-05	0	39	104	33436991488	85	22485
2026-01-05 10:29:00.40	257.70	29.57	-60.0	-63.2	6.2	1.43e-05	0	39	104	33436991488	85	22549
2026-01-05 10:29:01.39	257.35	29.36	-60.0	-63.2	6.1	1.43e-05	0	39	104	33436991488	85	22569
2026-01-05 10:29:02.38	257.01	29.16	-59.9	-63.2	6.2	1.43e-05	0	39	104	33436991488	85	22389
2026-01-05 10:29:03.37	256.67	28.96	-59.9	-63.1	6.2	1.43e-05	0	39	104	33436991488	85	22333
2026-01-05 10:29:04.37	256.33	28.76	-59.9	-63.1	6.2	1.43e-05	0	39	104	33436991488	85	22365
2026-01-05 10:29:05.37	256.00	28.55	-59.9	-63.2	6.2	1.43e-05	0	39	104	33436991488	85	22387
2026-01-05 10:29:06.36	255.67	28.35	-59.9	-63.1	6.2	1.43e-05	0	39	104	33436991488	85	22317
2026-01-05 10:29:07.36	255.35	28.15	-59.9	-63.1	6.2	1.43e-05	0	39	104	33436991488	85	22224
2026-01-05 10:29:08.35	255.03	27.95	-59.9	-63.1	6.2	1.43e-05	0	39	104	33436991488	85	22231
2026-01-05 10:29:09.33	254.72	27.76	-59.9	-63.1	6.2	1.43e-05	0	39	104	33436991488	85	22356
2026-01-05 10:29:10.33	254.41	27.56	-59.9	-63.1	6.2	1.43e-05	0	38	104	33436991488	85	22287
2026-01-05 10:29:11.31	254.11	27.37	-59.8	-63.1	6.2	1.43e-05	0	39	104	33436991488	85	22144
2026-01-05 10:29:12.31	253.81	27.17	-59.8	-63.1	6.2	1.43e-05	0	38	104	33436991488	85	22166
2026-01-05 10:29:13.30	253.51	26.98	-59.8	-63.1	6.2	1.43e-05	0	38	104	33436991488	85	22241
2026-01-05 10:29:14.28	253.22	26.78	-59.8	-63.1	6.2	1.43e-05	0	38	104	33436991488	85	22217
2026-01-05 10:29:15.27	252.94	26.59	-59.8	-63.0	6.2	1.43e-05	0	38	104	33436991488	85	22059
2026-01-05 10:29:16.28	252.65	26.40	-59.8	-63.0	6.2	1.43e-05	0	38	104	33436991488	85	22097
2026-01-05 10:29:17.26	252.37	26.21	-59.8	-63.1	6.2	1.43e-05	0	38	104	33436991488	85	22132
2026-01-05 10:29:18.26	252.09	26.02	-59.8	-63.1	6.2	0.00e+00	0	38	104	33436991488	85	22170
2026-01-05 10:29:19.25	251.82	25.83	-59.8	-63.0	6.2	0.00e+00	0	38	104	33436991488	85	22075
2026-01-05 10:29:20.24	251.55	25.64	-59.8	-63.0	6.2	0.00e+00	0	38	104	33436991488	85	21985
2026-01-05 10:29:21.23	251.28	25.45	-59.8	-63.0	6.2	0.00e+00	0	38	104	33436991488	85	22050
2026-01-05 10:29:22.23	251.02	25.27	-59.8	-63.0	6.2	0.00e+00	0	38	104	33436991488	85	22029
2026-01-05 10:29:23.22	250.76	25.08	-59.7	-63.0	6.2	0.00e+00	0	38	104	33436991488	85	21904
2026-01-05 10:29:24.20	250.51	24.90	-59.7	-63.0	6.2	0.00e+00	0	38	104	33436991488	85	21946
2026-01-05 10:29:25.19	250.25	24.72	-59.7	-63.0	6.2	0.00e+00	0	38	104	33436991488	85	21978
2026-01-05 10:29:26.18	250.01	24.54	-59.7	-63.0	6.2	0.00e+00	0	38	104	33436991488	85	21955
2026-01-05 10:29:27.17	249.76	24.35	-59.7	-62.9	6.2	0.00e+00	0	38	104	33436991488	85	21842
2026-01-05 10:29:28.15	249.52	24.18	-59.7	-63.0	6.2	0.00e+00	0	38	104	33436991488	85	21874
2026-01-05 10:29:29.15	249.28	24.00	-59.7	-63.0	6.1	0.00e+00	0	38	104	33436991488	85	21857
2026-01-05 10:29:30.15	249.04	23.82	-59.7	-62.9	6.2	0.00e+00	0	38	104	33436991488	85	21848
2026-01-05 10:29:31.14	248.81	23.64	-59.7	-62.9	6.1	0.00e+00	0	38	104	33436991488	85	21802
2026-01-05 10:29:32.13	248.58	23.46	-59.7	-62.9	6.2	0.00e+00	0	38	104	33436991488	85	21786
2026-01-05 10:29:33.13	248.35	23.29	-59.7	-62.9	6.2	0.00e+00	0	38	104	33436991488	85	21823
2026-01-05 10:29:34.11	248.12	23.11	-59.7	-62.9	6.2	0.00e+00	0	38	104	33436991488	85	21770
2026-01-05 10:29:35.10	247.90	22.94	-59.7	-62.9	6.2	0.00e+00	0	38	104	33436991488	85	21718
2026-01-05 10:29:36.10	247.68	22.77	-59.7	-62.9	6.2	0.00e+00	0	38	104	33436991488	85	21678
2026-01-05 10:29:37.09	247.46	22.60	-59.7	-62.9	6.2	0.00e+00	0	38	104	33436991488	85	21748
2026-01-05 10:29:38.09	247.25	22.43	-59.6	-62.9	6.2	0.00e+00	0	38	104	33436991488	85	21767
2026-01-05 10:29:39.08	247.04	22.26	-59.6	-62.8	6.2	0.00e+00	0	38	104	33436991488	85	21605
2026-01-05 10:29:40.07	246.83	22.09	-59.6	-62.9	6.2	0.00e+00	0	38	104	33436991488	85	21654
2026-01-05 10:29:41.06	246.62	21.92	-59.6	-62.9	6.2	0.00e+00	0	38	104	33436991488	85	21623
2026-01-05 10:29:42.05	246.42	21.76	-59.6	-62.9	6.2	0.00e+00	0	38	104	33436991488	85	21632
2026-01-05 10:29:43.04	246.22	21.59	-59.6	-62.9	6.2	0.00e+00	0	38	104	33436991488	85	21616
2026-01-05 10:29:44.04	246.02	21.43	-59.6	-62.8	6.2	0.00e+00	0	38	104	33436991488	85	21549
2026-01-05 10:29:45.03	245.82	21.26	-59.6	-62.8	6.2	0.00e+00	0	38	104	33436991488	85	21579
2026-01-05 10:29:46.03	245.62	21.10	-59.6	-62.8	6.2	0.00e+00	0	38	104	33436991488	85	21573
2026-01-05 10:29:47.02	245.43	20.94	-59.6	-62.8	6.2	0.00e+00	0	38	104	33436991488	85	21598
2026-01-05 10:29:48.01	245.24	20.78	-59.6	-62.8	6.2	0.00e+00	0	38	104	33436991488	85	21568
2026-01-05 10:29:49.00	245.06	20.62	-59.6	-62.8	6.2	0.00e+00	0	38	104	33436991488	85	21511
2026-01-05 10:29:50.00	244.87	20.46	-59.6	-62.8	6.2	0.00e+00	0	38	104	33436991488	85	21502
2026-01-05 10:29:50.99	244.69	20.30	-59.5	-62.8	6.2	0.00e+00	0	38	104	33436991488	85	21416
2026-01-05 10:29:51.99	244.51	20.14	-59.6	-62.8	6.2	0.00e+00	0	38	104	33436991488	85	21496
2026-01-05 10:29:52.99	244.33	19.99	-59.5	-62.8	6.2	0.00e+00	0	38	104	33436991488	85	21476
2026-01-05 10:29:53.97	244.15	19.83	-59.5	-62.8	6.2	0.00e+00	0	37	104	33436991488	85	21448
2026-01-05 10:29:54.97	243.97	19.68	-59.5	-62.8	6.2	0.00e+00	0	38	104	33436991488	85	21366
2026-01-05 10:29:55.96	243.80	19.53	-59.5	-62.8	6.2	0.00e+00	0	38	104	33436991488	85	21416
2026-01-05 10:29:56.96	243.63	19.37	-59.5	-62.8	6.2	0.00e+00	0	38	104	33436991488	85	21369
2026-01-05 10:29:57.94	243.46	19.23	-59.5	-62.7	6.2	0.00e+00	0	38	104	33436991488	85	21327
2026-01-05 10:29:58.94	243.30	19.07	-59.5	-62.7	6.2	0.00e+00	0	38	104	33436991488	85	21283
2026-01-05 10:29:59.93	243.13	18.93	-59.5	-62.7	6.2	0.00e+00	0	38	104	33436991488	85	21277
2026-01-05 10:30:00.92	242.97	18.78	-59.5	-62.7	6.2	0.00e+00	0	38	104	33436991488	85	21296
2026-01-05 10:30:01.91	242.81	18.63	-59.5	-62.7	6.2	0.00e+00	0	38	104	33436991488	85	21253
2026-01-05 10:30:02.90	242.65	18.48	-59.4	-62.7	6.2	0.00e+00	0	38	104	33436991488	85	21191
2026-01-05 10:30:03.90	242.49	18.34	-59.5	-62.7	6.2	0.00e+00	0	38	104	33436991488	85	21234
2026-01-05 10:30:04.89	242.33	18.19	-59.4	-62.7	6.2	0.00e+00	0	38	104	33436991488	85	21178
2026-01-05 10:30:05.88	242.18	18.05	-59.4	-62.6	6.2	0.00e+00	0	38	104	33436991488	85	21060
2026-01-05 10:30:06.88	242.03	17.91	-59.4	-62.6	6.2	0.00e+00	0	38	104	33436991488	85	21082
2026-01-05 10:30:07.87	241.88	17.76	-59.4	-62.7	6.2	0.00e+00	0	38	104	33436991488	85	21166
2026-01-05 10:30:08.86	241.73	17.62	-59.4	-62.6	6.2	0.00e+00	0	38	104	33436991488	85	21104
2026-01-05 10:30:09.85	241.58	17.48	-59.4	-62.6	6.2	0.00e+00	0	38	104	33436991488	85	21028
2026-01-05 10:30:10.84	241.44	17.34	-59.4	-62.6	6.2	0.00e+00	0	38	104	33436991488	85	21047
2026-01-05 10:30:11.83	241.29	17.21	-59.4	-62.6	6.2	0.00e+00	0	38	104	33436991488	85	21003
2026-01-05 10:30:12.82	241.15	17.07	-59.4	-62.6	6.2	0.00e+00	0	38	104	33436991488	85	21040
2026-01-05 10:30:13.81	241.01	16.93	-59.4	-62.6	6.2	0.00e+00	0	38	104	33436991488	85	21027
2026-01-05 10:30:14.80	240.87	16.80	-59.3	-62.6	6.2	0.00e+00	0	38	104	33436991488	85	20951
2026-01-05 10:30:15.79	240.73	16.66	-59.4	-62.6	6.2	0.00e+00	0	38	104	33436991488	85	20946
2026-01-05 10:30:16.79	240.59	16.52	-59.3	-62.6	6.2	0.00e+00	0	38	104	33436991488	85	20943
2026-01-05 10:30:17.78	240.46	16.39	-59.3	-62.6	6.2	0.00e+00	0	37	104	33436991488	85	20972
2026-01-05 10:30:18.77	240.33	16.26	-59.3	-62.5	6.2	0.00e+00	0	37	104	33436991488	85	20863
2026-01-05 10:30:19.76	240.19	16.13	-59.3	-62.6	6.2	0.00e+00	0	37	104	33436991488	85	20890
2026-01-05 10:30:20.75	240.06	16.00	-59.3	-62.6	6.2	0.00e+00	0	38	104	33436991488	85	20901
2026-01-05 10:30:21.74	239.93	15.87	-59.3	-62.5	6.2	0.00e+00	0	37	104	33436991488	85	20864
2026-01-05 10:30:22.73	239.81	15.74	-59.3	-62.6	6.2	0.00e+00	0	37	104	33436991488	85	20903
2026-01-05 10:30:23.72	239.68	15.61	-59.3	-62.5	6.2	0.00e+00	0	37	104	33436991488	85	20828
2026-01-05 10:30:24.71	239.55	15.48	-59.3	-62.5	6.1	0.00e+00	0	37	104	33436991488	85	20779
2026-01-05 10:30:25.70	239.43	15.35	-59.3	-62.5	6.2	0.00e+00	0	37	104	33436991488	85	20723
2026-01-05 10:30:26.68	239.31	15.23	-59.3	-62.5	6.2	0.00e+00	0	37	104	33436991488	85	20740
2026-01-05 10:30:27.68	239.18	15.10	-59.3	-62.5	6.2	0.00e+00	0	37	104	33436991488	85	20683
2026-01-05 10:30:28.67	239.06	14.97	-59.3	-62.5	6.2	0.00e+00	0	37	104	33436991488	85	20688
2026-01-05 10:30:29.66	238.94	14.85	-59.2	-62.5	6.2	0.00e+00	0	37	104	33436991488	85	20693
2026-01-05 10:30:30.65	238.83	14.72	-59.3	-62.5	6.2	0.00e+00	0	37	104	33436991488	85	20814
2026-01-05 10:30:31.64	238.71	14.60	-59.2	-62.5	6.2	0.00e+00	0	37	104	33436991488	85	20761
2026-01-05 10:30:32.63	238.59	14.48	-59.2	-62.5	6.1	0.00e+00	0	37	104	33436991488	85	20663
2026-01-05 10:30:33.62	238.48	14.36	-59.2	-62.5	6.2	0.00e+00	0	37	104	33436991488	85	20689
2026-01-05 10:30:34.62	238.36	14.24	-59.2	-62.5	6.2	0.00e+00	0	37	104	33436991488	85	20707
2026-01-05 10:30:35.61	238.25	14.11	-59.2	-62.5	6.1	0.00e+00	0	38	104	33436991488	85	20699
2026-01-05 10:30:36.61	238.14	13.99	-59.2	-62.5	6.2	0.00e+00	0	37	104	33436991488	85	20646
2026-01-05 10:30:37.61	238.03	13.87	-59.2	-62.4	6.2	0.00e+00	0	37	104	33436991488	85	20577
2026-01-05 10:30:38.60	237.92	13.76	-59.2	-62.5	6.2	0.00e+00	0	37	104	33436991488	85	20653
2026-01-05 10:30:39.59	237.81	13.64	-59.2	-62.5	6.2	0.00e+00	0	37	104	33436991488	85	20647
2026-01-05 10:30:40.59	237.70	13.52	-59.2	-62.4	6.2	0.00e+00	0	37	104	33436991488	85	20606
2026-01-05 10:30:41.57	237.60	13.40	-59.2	-62.4	6.2	0.00e+00	0	37	104	33436991488	85	20521
2026-01-05 10:30:42.57	237.49	13.29	-59.2	-62.4	6.2	0.00e+00	0	37	104	33436991488	85	20584
2026-01-05 10:30:43.57	237.39	13.17	-59.2	-62.4	6.2	0.00e+00	0	37	104	33436991488	85	20517
2026-01-05 10:30:44.56	237.29	13.06	-59.2	-62.4	6.2	0.00e+00	0	37	104	33436991488	85	20565
2026-01-05 10:30:45.55	237.18	12.94	-59.1	-62.4	6.1	0.00e+00	0	37	104	33436991488	85	20498
2026-01-05 10:30:46.55	237.08	12.83	-59.2	-62.4	6.2	0.00e+00	0	37	104	33436991488	85	20501
2026-01-05 10:30:47.54	236.98	12.72	-59.2	-62.4	6.2	0.00e+00	0	37	104	33436991488	85	20595
2026-01-05 10:30:48.54	236.88	12.60	-59.1	-62.4	6.2	0.00e+00	0	37	104	33436991488	85	20448
2026-01-05 10:30:49.53	236.78	12.49	-59.1	-62.4	6.2	0.00e+00	0	37	104	33436991488	85	20444
2026-01-05 10:30:50.53	236.69	12.38	-59.1	-62.4	6.2	0.00e+00	0	37	104	33436991488	85	20501
2026-01-05 10:30:51.52	236.59	12.27	-59.1	-62.4	6.2	0.00e+00	0	37	104	33436991488	85	20509
2026-01-05 10:30:52.51	236.49	12.16	-59.1	-62.4	6.2	0.00e+00	0	37	104	33436991488	85	20400
2026-01-05 10:30:53.50	236.40	12.05	-59.1	-62.3	6.2	0.00e+00	0	37	104	33436991488	85	20386
2026-01-05 10:30:54.50	236.30	11.94	-59.1	-62.3	6.2	0.00e+00	0	37	104	33436991488	85	20310
2026-01-05 10:30:55.50	236.21	11.83	-59.1	-62.4	6.2	0.00e+00	0	37	104	33436991488	85	20398
2026-01-05 10:30:56.49	236.12	11.72	-59.1	-62.3	6.2	0.00e+00	0	37	104	33436991488	85	20292
2026-01-05 10:30:57.49	236.03	11.62	-59.0	-62.3	6.2	0.00e+00	0	37	104	33436991488	85	20277
2026-01-05 10:30:58.49	235.94	11.51	-59.1	-62.3	6.2	0.00e+00	0	37	104	33436991488	85	20295
2026-01-05 10:30:59.47	235.85	11.40	-59.0	-62.3	6.2	0.00e+00	0	37	104	33436991488	85	20336
2026-01-05 10:31:00.46	235.76	11.30	-59.0	-62.3	6.2	0.00e+00	0	37	104	33436991488	85	20196
2026-01-05 10:31:01.45	235.67	11.19	-59.0	-62.3	6.1	0.00e+00	0	37	104	33436991488	85	20178
2026-01-05 10:31:02.44	235.58	11.09	-59.0	-62.2	6.1	0.00e+00	0	37	104	33436991488	85	20105
2026-01-05 10:31:03.43	235.50	10.99	-59.0	-62.2	6.2	0.00e+00	0	37	104	33436991488	85	20142
2026-01-05 10:31:04.42	235.41	10.88	-59.0	-62.2	6.2	0.00e+00	0	37	104	33436991488	85	20051
2026-01-05 10:31:05.41	235.33	10.78	-59.0	-62.2	6.2	0.00e+00	0	37	104	33436991488	85	20148
2026-01-05 10:31:06.41	235.24	10.68	-59.0	-62.2	6.2	0.00e+00	0	37	104	33436991488	85	20086
2026-01-05 10:31:07.40	235.16	10.57	-59.0	-62.3	6.2	0.00e+00	0	37	104	33436991488	85	20245
2026-01-05 10:31:08.40	235.08	10.47	-59.0	-62.2	6.2	0.00e+00	0	37	104	33436991488	85	20080
2026-01-05 10:31:09.40	234.99	10.37	-58.9	-62.2	6.2	0.00e+00	0	37	104	33436991488	85	20087
2026-01-05 10:31:10.39	234.91	10.27	-58.9	-62.2	6.2	0.00e+00	0	37	104	33436991488	85	20009
2026-01-05 10:31:11.38	234.83	10.17	-59.0	-62.2	6.2	0.00e+00	0	37	104	33436991488	85	20106
2026-01-05 10:31:12.38	234.75	10.07	-58.9	-62.2	6.2	0.00e+00	0	37	104	33436991488	85	20028
2026-01-05 10:31:13.37	234.67	9.97	-58.9	-62.2	6.2	0.00e+00	0	37	104	33436991488	85	20021
2026-01-05 10:31:14.37	234.59	9.87	-58.9	-62.1	6.2	0.00e+00	0	37	104	33436991488	85	19921
2026-01-05 10:31:15.37	234.51	9.77	-58.9	-62.1	6.2	0.00e+00	0	37	104	33436991488	84	21095
2026-01-05 10:31:16.37	234.44	9.68	-58.9	-62.1	6.1	0.00e+00	0	37	104	33436991488	84	21043
2026-01-05 10:31:17.36	234.36	9.58	-58.8	-62.1	6.2	0.00e+00	0	37	104	33436991488	84	20970
2026-01-05 10:31:18.35	234.28	9.48	-58.9	-62.1	6.2	0.00e+00	0	37	104	33436991488	84	21000
2026-01-05 10:31:19.34	234.21	9.39	-58.9	-62.1	6.2	0.00e+00	0	37	104	33436991488	84	21068
2026-01-05 10:31:20.34	234.13	9.29	-58.8	-62.1	6.2	0.00e+00	0	37	104	33436991488	84	20986
2026-01-05 10:31:21.33	234.06	9.20	-58.8	-62.1	6.2	0.00e+00	0	37	104	33436991488	84	20890
2026-01-05 10:31:22.32	233.99	9.10	-58.8	-62.1	6.2	0.00e+00	0	37	104	33436991488	84	20888
2026-01-05 10:31:23.30	233.91	9.01	-58.8	-62.1	6.2	0.00e+00	0	37	104	33436991488	84	20904
2026-01-05 10:31:24.29	233.84	8.91	-58.8	-62.0	6.2	0.00e+00	0	37	104	33436991488	84	20836
2026-01-05 10:31:25.28	233.77	8.82	-58.7	-62.0	6.1	0.00e+00	0	37	104	33436991488	84	20702
2026-01-05 10:31:26.27	233.70	8.73	-58.7	-62.0	6.1	0.00e+00	0	37	104	33436991488	84	20755
2026-01-05 10:31:27.26	233.63	8.63	-58.8	-62.0	6.2	0.00e+00	0	37	104	33436991488	84	20796
2026-01-05 10:31:28.25	233.56	8.54	-58.8	-62.0	6.2	0.00e+00	0	37	104	33436991488	84	20778
2026-01-05 10:31:29.24	233.49	8.45	-58.7	-61.9	6.2	0.00e+00	0	37	104	33436991488	84	20551
2026-01-05 10:31:30.23	233.42	8.36	-58.7	-61.9	6.2	0.00e+00	0	37	104	33436991488	84	20627
2026-01-05 10:31:31.23	233.35	8.27	-58.8	-62.0	6.2	0.00e+00	0	37	104	33436991488	84	20737
2026-01-05 10:31:32.22	233.29	8.18	-58.7	-62.0	6.2	0.00e+00	0	37	104	33436991488	84	20713
2026-01-05 10:31:33.21	233.22	8.09	-58.7	-61.9	6.2	0.00e+00	0	37	104	33436991488	84	20483
2026-01-05 10:31:34.20	233.15	8.00	-58.8	-62.1	6.2	0.00e+00	0	37	104	33436991488	84	20957
2026-01-05 10:31:35.19	233.09	7.91	-58.9	-62.1	6.2	0.00e+00	0	37	104	33436991488	84	21015
2026-01-05 10:31:36.18	233.02	7.82	-58.8	-62.0	6.2	0.00e+00	0	37	104	33436991488	84	20837
2026-01-05 10:31:37.17	232.96	7.73	-58.7	-61.9	6.2	0.00e+00	0	37	104	33436991488	84	20616
2026-01-05 10:31:38.17	232.89	7.64	-58.7	-61.9	6.2	0.00e+00	0	37	104	33436991488	84	20583
2026-01-05 10:31:39.16	232.83	7.55	-58.7	-62.0	6.2	0.00e+00	0	37	104	33436991488	84	20748
2026-01-05 10:31:40.15	232.76	7.47	-58.7	-61.9	6.2	0.00e+00	0	37	104	33436991488	84	20616
2026-01-05 10:31:41.15	232.70	7.38	-58.6	-61.8	6.2	0.00e+00	0	37	104	33436991488	84	20333
2026-01-05 10:31:42.14	232.64	7.29	-58.6	-61.9	6.2	0.00e+00	0	37	104	33436991488	84	20411
2026-01-05 10:31:43.13	232.57	7.21	-58.7	-61.9	6.2	0.00e+00	0	37	104	33436991488	84	20521
2026-01-05 10:31:44.12	232.51	7.12	-58.6	-61.9	6.2	0.00e+00	0	37	104	33436991488	84	20510
2026-01-05 10:31:45.11	232.45	7.03	-58.5	-61.8	6.2	0.00e+00	0	37	104	33436991488	84	20266
2026-01-05 10:31:46.11	232.39	6.95	-58.5	-61.8	6.2	0.00e+00	0	37	104	33436991488	84	20226
2026-01-05 10:31:47.11	232.33	6.86	-58.6	-61.8	6.1	0.00e+00	0	37	104	33436991488	84	20360
2026-01-05 10:31:48.11	232.27	6.78	-58.6	-61.8	6.2	0.00e+00	0	37	104	33436991488	84	20290
2026-01-05 10:31:49.10	232.21	6.69	-58.5	-61.7	6.2	0.00e+00	0	37	104	33436991488	84	20115
2026-01-05 10:31:50.10	232.15	6.61	-58.5	-61.7	6.2	0.00e+00	0	37	104	33436991488	84	20047
2026-01-05 10:31:51.10	232.09	6.52	-58.6	-61.8	6.2	0.00e+00	0	37	104	33436991488	84	20283
2026-01-05 10:31:52.10	232.03	6.44	-58.5	-61.8	6.2	0.00e+00	0	37	104	33436991488	84	20174
2026-01-05 10:31:53.09	231.98	6.36	-58.4	-61.7	6.2	0.00e+00	0	37	104	33436991488	84	20027
2026-01-05 10:31:54.08	231.92	6.27	-58.4	-61.7	6.2	0.00e+00	0	37	104	33436991488	84	20007
2026-01-05 10:31:55.07	231.86	6.19	-58.5	-61.8	6.2	0.00e+00	0	37	104	33436991488	84	20217
2026-01-05 10:31:56.06	231.81	6.11	-58.5	-61.7	6.1	0.00e+00	0	37	104	33436991488	84	20161
2026-01-05 10:31:57.06	231.75	6.03	-58.4	-61.6	6.2	0.00e+00	0	37	104	33436991488	84	19898
2026-01-05 10:31:58.05	231.70	5.95	-58.2	-61.4	6.2	0.00e+00	0	37	104	33436991488	83	20568
2026-01-05 10:31:59.04	231.64	5.87	-58.3	-61.6	6.2	0.00e+00	0	37	104	33436991488	83	20904
2026-01-05 10:32:00.03	231.59	5.79	-58.3	-61.6	6.2	0.00e+00	0	37	104	33436991488	83	20876
2026-01-05 10:32:01.03	231.53	5.70	-58.2	-61.4	6.2	0.00e+00	0	37	104	33436991488	83	20536
2026-01-05 10:32:02.03	231.48	5.62	-58.1	-61.4	6.1	0.00e+00	0	37	104	33436991488	83	20435
2026-01-05 10:32:03.02	231.42	5.54	-58.2	-61.5	6.2	0.00e+00	0	37	104	33436991488	83	20671
2026-01-05 10:32:04.01	231.37	5.46	-58.2	-61.5	6.1	0.00e+00	0	37	104	33436991488	83	20750
2026-01-05 10:32:05.00	231.32	5.39	-58.1	-61.3	6.2	0.00e+00	0	37	104	33436991488	83	20357
2026-01-05 10:32:06.00	231.27	5.31	-58.0	-61.3	6.2	0.00e+00	0	37	104	33436991488	83	20233
2026-01-05 10:32:06.99	231.22	5.23	-58.2	-61.5	6.2	0.00e+00	0	37	104	33436991488	83	20762
2026-01-05 10:32:07.99	231.16	5.15	-58.2	-61.4	6.1	0.00e+00	0	37	104	33436991488	83	20556
2026-01-05 10:32:08.98	231.11	5.07	-58.0	-61.2	6.2	0.00e+00	0	37	104	33436991488	83	20152
2026-01-05 10:32:09.97	231.06	4.99	-58.3	-61.6	6.2	0.00e+00	0	37	104	33436991488	83	20917
2026-01-05 10:32:10.97	231.01	4.91	-58.9	-62.1	6.2	0.00e+00	0	37	104	33436991488	83	22200
2026-01-05 10:32:11.97	230.96	4.84	-59.3	-62.6	6.2	0.00e+00	0	37	104	33436991488	84	22117
2026-01-05 10:32:12.96	230.91	4.76	-59.5	-62.8	6.2	0.00e+00	0	37	104	33436991488	84	22746
2026-01-05 10:32:13.96	230.86	4.68	-59.7	-63.0	6.2	0.00e+00	0	37	104	33436991488	85	21912
2026-01-05 10:32:14.95	230.81	4.61	-59.9	-63.1	6.1	0.00e+00	0	37	104	33436991488	85	22193
2026-01-05 10:32:15.95	230.76	4.53	-60.0	-63.2	6.2	0.00e+00	0	37	104	33436991488	85	22493
2026-01-05 10:32:16.94	230.71	4.45	-60.1	-63.3	6.2	0.00e+00	0	37	104	33436991488	85	22757
2026-01-05 10:32:17.94	230.67	4.38	-60.2	-63.5	6.2	0.00e+00	0	37	104	33436991488	86	21905
2026-01-05 10:32:18.95	230.62	4.30	-60.3	-63.5	6.2	0.00e+00	0	37	104	33436991488	86	22084
2026-01-05 10:32:19.94	230.57	4.23	-60.3	-63.6	6.2	0.00e+00	0	37	104	33436991488	86	22181
2026-01-05 10:32:20.94	230.52	4.15	-60.4	-63.6	6.2	0.00e+00	0	37	104	33436991488	86	22255
2026-01-05 10:32:21.94	230.48	4.08	-60.4	-63.6	6.2	0.00e+00	0	37	104	33436991488	86	22303
2026-01-05 10:32:22.94	230.43	4.00	-60.4	-63.6	6.2	0.00e+00	0	37	104	33436991488	86	22338
2026-01-05 10:32:23.93	230.38	3.93	-60.4	-63.7	6.2	0.00e+00	0	37	104	33436991488	86	22433
2026-01-05 10:32:24.93	230.34	3.85	-60.5	-63.7	6.2	0.00e+00	0	37	104	33436991488	86	22482
2026-01-05 10:32:25.93	230.29	3.78	-60.5	-63.7	6.2	0.00e+00	0	37	104	33436991488	86	22612
2026-01-05 10:32:26.93	230.25	3.70	-60.5	-63.8	6.2	0.00e+00	0	37	104	33436991488	86	22675
2026-01-05 10:32:27.93	230.20	3.63	-60.5	-63.8	6.1	0.00e+00	0	37	104	33436991488	86	22765
2026-01-05 10:32:28.93	230.16	3.56	-60.6	-63.8	6.1	0.00e+00	0	37	104	33436991488	86	22774
2026-01-05 10:32:29.92	230.11	3.48	-60.6	-63.8	6.1	0.00e+00	0	37	104	33436991488	86	22846
2026-01-05 10:32:30.92	230.07	3.41	-60.7	-63.9	6.2	0.00e+00	0	37	104	33436991488	87	21744
2026-01-05 10:32:31.92	230.02	3.34	-60.7	-64.0	6.2	0.00e+00	0	37	104	33436991488	87	21930
2026-01-05 10:32:32.91	229.98	3.27	-60.7	-63.9	6.2	0.00e+00	0	37	104	33436991488	87	21749
2026-01-05 10:32:33.91	229.94	3.19	-60.6	-63.9	6.2	0.00e+00	0	37	104	33436991488	87	21672
2026-01-05 10:32:34.89	229.90	3.12	-60.6	-63.8	6.2	0.00e+00	0	37	104	33436991488	87	21565
2026-01-05 10:32:35.88	229.85	3.05	-60.5	-63.8	6.2	0.00e+00	0	37	104	33436991488	87	21460
2026-01-05 10:32:36.88	229.81	2.98	-60.5	-63.8	6.2	0.00e+00	0	37	104	33436991488	87	21455
2026-01-05 10:32:37.87	229.77	2.91	-60.5	-63.8	6.2	0.00e+00	0	37	104	33436991488	87	21538
2026-01-05 10:32:38.86	229.73	2.84	-60.5	-63.7	6.2	0.00e+00	0	37	104	33436991488	87	21343
2026-01-05 10:32:39.85	229.69	2.77	-60.5	-63.7	6.2	0.00e+00	0	37	104	33436991488	87	21265
2026-01-05 10:32:40.84	229.64	2.70	-60.5	-63.7	6.2	0.00e+00	0	37	104	33436991488	87	21306
2026-01-05 10:32:41.83	229.60	2.63	-60.4	-63.7	6.2	0.00e+00	0	37	104	33436991488	87	21189
2026-01-05 10:32:42.82	229.56	2.56	-60.4	-63.7	6.2	0.00e+00	0	37	104	33436991488	87	21223
2026-01-05 10:32:43.81	229.52	2.49	-60.4	-63.7	6.2	0.00e+00	0	37	104	33436991488	87	21189
2026-01-05 10:32:44.80	229.48	2.42	-60.4	-63.7	6.2	0.00e+00	0	37	104	33436991488	87	21215
2026-01-05 10:32:45.80	229.44	2.35	-60.4	-63.7	6.2	0.00e+00	0	37	104	33436991488	87	21180
2026-01-05 10:32:46.79	229.40	2.28	-60.4	-63.7	6.2	0.00e+00	0	37	104	33436991488	87	21137
2026-01-05 10:32:47.79	229.36	2.22	-60.4	-63.7	6.2	0.00e+00	0	37	104	33436991488	87	21135
2026-01-05 10:32:48.78	229.33	2.15	-60.4	-63.6	6.2	0.00e+00	0	37	104	33436991488	87	21110
2026-01-05 10:32:49.77	229.29	2.08	-60.4	-63.6	6.2	0.00e+00	0	37	104	33436991488	87	21106
2026-01-05 10:32:50.77	229.25	2.01	-60.4	-63.7	6.2	0.00e+00	0	37	104	33436991488	87	21116
2026-01-05 10:32:51.76	229.21	1.94	-60.4	-63.6	6.2	0.00e+00	0	37	104	33436991488	87	21045

#Closed at: 2026-01-05 10:32:51
#Recorded file [33436 MB]: D:/lorett/data/31004_260105_132228.dat