passes_logs/2026/01/05/R3.2S_Murmansk/R3.2S_Murmansk__20260105_070709_NOAA_21_JPSS-2_rec.log

#Pass ID: 20260105_070709_NOAA 21 (JPSS-2)
#Satellite: NOAA 21 (JPSS-2)
#Configuration: NOAA-21
#almurnet v.1.7.20251203
#Start time: 2026-01-05 07:12:00

#Version: 2.2.20231116
#Station: R3.2S_Murmansk
#Location: 33.079688 lon 68.888172 lat
#TLE: 1 54234U 22150A   26004.43991293  .00000169  00000+0  10108-3 0  9998
#TLE: 2 54234  98.7489 305.4680 0001107 344.3033  15.8108 14.19531967163313

#Time	Az	El	Level	Level2	SNR	BER	BlckErr	Temp	State	Recorded	gain1	gain2
2026-01-05 07:12:00.99	63.83	25.31	-60.8	-73.9	3.8	8.46e-01	0	27	0	0	87	16625
2026-01-05 07:12:01.98	63.59	25.40	-61.0	-74.8	3.8	1.49e+00	0	27	104	0	87	18516
2026-01-05 07:12:02.99	63.34	25.49	-60.9	-74.8	3.8	1.49e+00	0	27	104	0	87	18315
2026-01-05 07:12:03.99	63.10	25.58	-60.9	-74.8	3.8	1.49e+00	0	27	104	0	87	18306
2026-01-05 07:12:04.99	62.85	25.67	-60.9	-74.7	3.8	1.49e+00	0	28	104	0	87	18166
2026-01-05 07:12:05.99	62.60	25.76	-60.8	-74.6	3.8	1.49e+00	0	28	104	0	87	18040
2026-01-05 07:12:06.99	62.35	25.85	-60.8	-74.6	3.8	1.49e+00	0	27	104	0	87	17965
2026-01-05 07:12:07.98	62.10	25.94	-60.7	-74.5	3.8	1.49e+00	0	28	104	0	87	17886
2026-01-05 07:12:08.98	61.85	26.03	-60.7	-74.5	3.8	1.49e+00	0	27	104	0	87	17720
2026-01-05 07:12:09.98	61.59	26.12	-60.5	-74.5	3.8	1.49e+00	0	27	104	0	86	18839
2026-01-05 07:12:10.98	61.34	26.21	-60.6	-74.4	3.8	1.49e+00	0	27	104	0	86	18671
2026-01-05 07:12:11.98	61.08	26.30	-60.6	-74.4	3.8	1.49e+00	0	28	104	0	86	18596
2026-01-05 07:12:12.98	60.82	26.38	-60.5	-74.3	3.8	1.49e+00	0	27	104	0	86	18342
2026-01-05 07:12:13.97	60.56	26.47	-60.4	-74.2	3.8	1.49e+00	0	28	104	0	86	18191
2026-01-05 07:12:14.98	60.30	26.56	-60.4	-74.2	3.8	1.49e+00	0	27	104	0	86	18153
2026-01-05 07:12:15.98	60.03	26.65	-60.4	-74.2	3.8	1.49e+00	0	28	104	0	86	18137
2026-01-05 07:12:16.97	59.77	26.73	-60.4	-74.2	3.8	1.49e+00	0	27	104	0	86	18103
2026-01-05 07:12:17.97	59.51	26.82	-60.4	-74.2	3.8	1.49e+00	0	27	104	0	86	18118
2026-01-05 07:12:18.97	59.24	26.90	-60.3	-74.1	3.8	1.49e+00	0	27	104	0	86	18015
2026-01-05 07:12:19.97	58.97	26.99	-60.3	-74.1	3.8	1.49e+00	0	28	104	0	86	18050
2026-01-05 07:12:20.97	58.70	27.07	-60.3	-74.1	3.8	1.49e+00	0	27	104	0	86	18021
2026-01-05 07:12:21.98	58.42	27.16	-60.3	-74.1	3.8	1.49e+00	0	28	104	0	86	17937
2026-01-05 07:12:22.98	58.15	27.24	-60.3	-74.0	3.8	1.49e+00	0	28	104	0	86	17830
2026-01-05 07:12:23.98	57.87	27.33	-60.3	-74.0	3.8	1.49e+00	0	28	104	0	86	17743
2026-01-05 07:12:24.97	57.60	27.41	-60.3	-73.9	3.8	1.49e+00	0	27	104	0	86	17658
2026-01-05 07:12:25.97	57.32	27.49	-60.3	-74.0	3.8	1.49e+00	0	28	104	0	86	17729
2026-01-05 07:12:26.97	57.04	27.57	-60.3	-74.1	3.8	1.49e+00	0	27	104	0	86	17934
2026-01-05 07:12:27.96	56.77	27.65	-60.3	-74.1	3.8	1.49e+00	0	28	104	0	86	17910
2026-01-05 07:12:28.96	56.48	27.73	-60.3	-74.0	3.8	1.49e+00	0	27	104	0	86	17757
2026-01-05 07:12:29.97	56.20	27.81	-60.3	-74.0	3.8	1.49e+00	0	28	104	0	86	17783
2026-01-05 07:12:30.96	55.91	27.89	-60.3	-74.0	3.8	1.49e+00	0	28	104	0	86	17825
2026-01-05 07:12:31.96	55.63	27.97	-60.3	-74.0	3.8	1.49e+00	0	28	104	0	86	17843
2026-01-05 07:12:32.95	55.34	28.05	-60.3	-74.1	3.8	1.49e+00	0	28	104	0	86	17903
2026-01-05 07:12:33.95	55.05	28.13	-60.2	-74.0	3.8	1.49e+00	0	28	104	0	86	17755
2026-01-05 07:12:34.94	54.77	28.21	-60.2	-74.0	3.8	1.49e+00	0	28	104	0	86	17814
2026-01-05 07:12:35.94	54.47	28.28	-60.2	-74.0	3.8	1.49e+00	0	28	104	0	86	17740
2026-01-05 07:12:36.94	54.18	28.36	-60.2	-73.9	3.8	1.49e+00	0	28	104	0	86	17606
2026-01-05 07:12:37.93	53.89	28.43	-60.2	-74.0	3.8	1.49e+00	0	28	104	0	86	17710
2026-01-05 07:12:38.93	53.59	28.51	-60.2	-73.9	3.8	1.49e+00	0	27	104	0	86	17640
2026-01-05 07:12:39.93	53.29	28.58	-60.2	-73.9	3.9	1.49e+00	0	27	104	0	86	17623
2026-01-05 07:12:40.92	53.00	28.66	-60.2	-73.9	3.8	1.49e+00	0	28	104	0	86	17570
2026-01-05 07:12:41.92	52.70	28.73	-60.2	-73.3	3.8	1.49e+00	0	27	104	0	86	16480
2026-01-05 07:12:42.92	52.40	28.80	-60.1	-73.3	3.8	1.49e+00	0	28	104	0	86	16379
2026-01-05 07:12:43.92	52.09	28.87	-60.2	-73.8	3.8	1.49e+00	0	28	104	0	86	17456
2026-01-05 07:12:44.92	51.79	28.94	-60.2	-73.8	3.8	1.49e+00	0	28	104	0	86	17473
2026-01-05 07:12:45.92	51.48	29.01	-60.1	-73.3	3.8	1.49e+00	0	28	104	0	86	16379
2026-01-05 07:12:46.93	51.17	29.08	-60.1	-73.0	3.8	1.49e+00	0	27	104	0	86	15931
2026-01-05 07:12:47.93	50.86	29.15	-60.1	-73.4	3.8	1.49e+00	0	28	104	0	86	16508
2026-01-05 07:12:48.93	50.55	29.22	-60.1	-72.4	3.8	1.49e+00	0	28	104	0	86	14756
2026-01-05 07:12:49.93	50.24	29.29	-60.0	-71.5	4.0	1.48e+00	0	27	104	0	86	13285
2026-01-05 07:12:50.93	49.93	29.35	-60.2	-73.8	3.8	1.49e+00	0	28	104	0	86	17367
2026-01-05 07:12:51.94	49.61	29.42	-59.7	-68.7	4.8	1.20e+00	0	28	104	0	86	9647
2026-01-05 07:12:52.94	49.30	29.48	-58.4	-63.5	8.2	1.03e-01	0	27	0	2097152	83	6331
2026-01-05 07:12:53.93	48.98	29.55	-56.7	-59.8	11.2	8.23e-04	0	27	0	5242880	79	5206
2026-01-05 07:12:54.93	48.67	29.61	-54.0	-55.9	13.3	0.00e+00	0	28	0	8388608	74	4395
2026-01-05 07:12:55.93	48.35	29.67	-58.7	-64.7	7.2	1.94e-02	0	28	0	11534336	82	7716
2026-01-05 07:12:56.92	48.03	29.73	-57.8	-62.1	9.4	1.96e-03	0	28	0	14680064	80	6366
2026-01-05 07:12:57.92	47.71	29.79	-51.9	-53.3	14.3	0.00e+00	0	28	0	17825792	70	4135
2026-01-05 07:12:58.93	47.38	29.85	-50.3	-51.5	14.5	0.00e+00	0	28	0	20971520	66	4238
2026-01-05 07:12:59.92	47.06	29.91	-57.9	-62.4	9.2	1.60e-05	0	27	0	24117248	80	6609
2026-01-05 07:13:00.92	46.74	29.97	-49.6	-50.7	14.7	0.00e+00	0	28	0	27262976	65	4096
2026-01-05 07:13:01.92	46.41	30.02	-49.5	-50.7	14.7	0.00e+00	0	27	0	30408704	65	4097
2026-01-05 07:13:02.93	46.08	30.08	-49.7	-50.9	14.7	0.00e+00	0	28	0	33554432	65	4182
2026-01-05 07:13:03.92	45.76	30.13	-49.8	-51.0	14.6	0.00e+00	0	27	0	36700160	65	4242
2026-01-05 07:13:04.91	45.43	30.19	-49.8	-51.1	14.6	0.00e+00	0	27	0	39845888	65	4269
2026-01-05 07:13:05.92	45.10	30.24	-50.0	-51.3	14.5	0.00e+00	0	27	0	42991616	65	4352
2026-01-05 07:13:06.92	44.77	30.29	-49.9	-51.2	14.6	0.00e+00	0	28	0	46137344	65	4308
2026-01-05 07:13:07.92	44.43	30.34	-49.8	-51.1	14.6	0.00e+00	0	27	0	49283072	65	4256
2026-01-05 07:13:08.92	44.10	30.39	-49.8	-51.0	14.6	0.00e+00	0	27	0	52428800	65	4230
2026-01-05 07:13:09.91	43.77	30.44	-49.7	-51.0	14.6	0.00e+00	0	28	0	55574528	65	4198
2026-01-05 07:13:10.91	43.43	30.49	-49.7	-50.9	14.6	0.00e+00	0	28	0	58720256	65	4187
2026-01-05 07:13:11.91	43.10	30.54	-49.6	-50.9	14.6	0.00e+00	0	28	0	61865984	65	4161
2026-01-05 07:13:12.92	42.75	30.58	-49.7	-51.0	14.6	0.00e+00	0	28	0	65011712	65	4209
2026-01-05 07:13:13.92	42.42	30.63	-49.9	-51.1	14.6	0.00e+00	0	27	0	68157440	65	4286
2026-01-05 07:13:14.92	42.08	30.67	-49.9	-51.2	14.5	0.00e+00	0	27	0	71303168	65	4322
2026-01-05 07:13:15.91	41.74	30.71	-50.0	-51.3	14.5	0.00e+00	0	27	0	74448896	65	4375
2026-01-05 07:13:16.91	41.40	30.75	-50.1	-51.4	14.5	0.00e+00	0	28	0	77594624	65	4400
2026-01-05 07:13:17.91	41.06	30.79	-50.0	-51.3	14.5	0.00e+00	0	27	0	80740352	65	4387
2026-01-05 07:13:18.91	40.71	30.83	-49.9	-51.2	14.5	0.00e+00	0	28	0	83886080	65	4308
2026-01-05 07:13:19.91	40.37	30.87	-49.7	-51.0	14.6	0.00e+00	0	28	0	87031808	65	4211
2026-01-05 07:13:20.91	40.03	30.91	-49.7	-50.9	14.7	0.00e+00	0	27	0	90177536	65	4161
2026-01-05 07:13:21.91	39.68	30.94	-49.7	-50.9	14.6	0.00e+00	0	27	0	93323264	65	4186
2026-01-05 07:13:22.91	39.33	30.98	-49.7	-50.9	14.6	0.00e+00	0	28	0	96468992	65	4190
2026-01-05 07:13:23.91	38.99	31.01	-49.7	-50.9	14.6	0.00e+00	0	28	0	99614720	65	4174
2026-01-05 07:13:24.90	38.64	31.04	-49.6	-50.8	14.7	0.00e+00	0	27	0	102760448	65	4136
2026-01-05 07:13:25.90	38.29	31.08	-49.5	-50.8	14.7	0.00e+00	0	27	0	105906176	65	4109
2026-01-05 07:13:26.90	37.95	31.11	-49.5	-50.7	14.7	0.00e+00	0	28	0	108003328	65	4098
2026-01-05 07:13:27.89	37.60	31.14	-49.5	-50.7	14.7	0.00e+00	0	28	0	111149056	65	4085
2026-01-05 07:13:28.89	37.25	31.16	-49.6	-50.9	14.7	0.00e+00	0	27	0	114294784	65	4153
2026-01-05 07:13:29.88	36.90	31.19	-49.6	-50.8	14.7	0.00e+00	0	28	0	117440512	65	4125
2026-01-05 07:13:30.87	36.55	31.21	-49.6	-50.8	14.7	0.00e+00	0	27	0	120586240	65	4120
2026-01-05 07:13:31.87	36.20	31.24	-49.5	-50.7	14.7	0.00e+00	0	28	0	123731968	65	4088
2026-01-05 07:13:32.86	35.85	31.26	-49.7	-50.9	14.6	0.00e+00	0	28	0	126877696	65	4176
2026-01-05 07:13:33.85	35.50	31.28	-49.8	-51.0	14.6	0.00e+00	0	27	0	130023424	65	4241
2026-01-05 07:13:34.85	35.15	31.30	-49.8	-51.0	14.6	0.00e+00	0	27	0	133169152	65	4230
2026-01-05 07:13:35.85	34.80	31.32	-50.0	-51.2	14.5	0.00e+00	0	27	0	136314880	65	4334
2026-01-05 07:13:36.85	34.44	31.34	-49.9	-51.2	14.6	0.00e+00	0	27	0	139460608	65	4294
2026-01-05 07:13:37.85	34.09	31.36	-49.9	-51.2	14.5	0.00e+00	0	27	0	142606336	65	4322
2026-01-05 07:13:38.85	33.73	31.37	-49.9	-51.2	14.5	0.00e+00	0	27	0	145752064	65	4295
2026-01-05 07:13:39.84	33.38	31.39	-49.9	-51.2	14.5	0.00e+00	0	27	0	148897792	65	4318
2026-01-05 07:13:40.84	33.03	31.40	-50.1	-51.4	14.5	0.00e+00	0	28	0	152043520	65	4401
2026-01-05 07:13:41.83	32.68	31.41	-50.2	-51.6	14.4	0.00e+00	0	28	0	155189248	65	4494
2026-01-05 07:13:42.83	32.32	31.42	-50.2	-51.5	14.4	0.00e+00	0	27	0	158334976	65	4490
2026-01-05 07:13:43.83	31.96	31.43	-50.2	-51.5	14.4	0.00e+00	0	28	0	161480704	65	4469
2026-01-05 07:13:44.83	31.61	31.44	-50.1	-51.4	14.4	0.00e+00	0	27	0	164626432	65	4431
2026-01-05 07:13:45.83	31.25	31.45	-49.9	-51.2	14.5	0.00e+00	0	27	0	167772160	65	4326
2026-01-05 07:13:46.82	30.90	31.46	-49.8	-51.1	14.6	0.00e+00	0	28	0	170917888	65	4248
2026-01-05 07:13:47.82	30.54	31.46	-49.6	-50.9	14.6	0.00e+00	0	28	0	174063616	65	4154
2026-01-05 07:13:48.82	30.18	31.46	-49.6	-50.8	14.7	0.00e+00	0	28	0	177209344	65	4137
2026-01-05 07:13:49.82	29.83	31.47	-49.8	-51.1	14.6	0.00e+00	0	27	0	180355072	65	4267
2026-01-05 07:13:50.82	29.47	31.47	-50.0	-51.3	14.5	0.00e+00	0	28	0	183500800	65	4360
2026-01-05 07:13:51.82	29.11	31.47	-49.9	-51.2	14.5	0.00e+00	0	27	0	186646528	65	4330
2026-01-05 07:13:52.81	28.76	31.46	-50.0	-51.3	14.5	0.00e+00	0	27	0	189792256	65	4384
2026-01-05 07:13:53.82	28.40	31.46	-50.1	-51.4	14.5	0.00e+00	0	27	0	192937984	65	4400
2026-01-05 07:13:54.81	28.04	31.46	-50.1	-51.4	14.4	0.00e+00	0	28	0	196083712	65	4433
2026-01-05 07:13:55.81	27.69	31.45	-50.1	-51.4	14.4	0.00e+00	0	28	0	199229440	65	4434
2026-01-05 07:13:56.80	27.34	31.44	-50.0	-51.3	14.5	0.00e+00	0	27	0	202375168	65	4351
2026-01-05 07:13:57.80	26.98	31.44	-49.7	-50.9	14.6	0.00e+00	0	27	0	205520896	65	4186
2026-01-05 07:13:58.80	26.62	31.43	-49.6	-50.8	14.6	0.00e+00	0	28	0	208666624	65	4135
2026-01-05 07:13:59.80	26.27	31.42	-49.6	-50.8	14.6	0.00e+00	0	28	0	211812352	65	4122
2026-01-05 07:14:00.79	25.91	31.41	-49.5	-50.8	14.7	0.00e+00	0	27	0	214958080	65	4111
2026-01-05 07:14:01.79	25.56	31.39	-49.3	-50.5	14.8	0.00e+00	0	27	0	217055232	65	3989
2026-01-05 07:14:02.79	25.20	31.38	-49.2	-50.4	14.7	0.00e+00	0	27	0	220200960	64	4152
2026-01-05 07:14:03.79	24.85	31.36	-49.1	-50.3	14.7	0.00e+00	0	27	0	223346688	64	4109
2026-01-05 07:14:04.79	24.49	31.35	-49.3	-50.5	14.7	0.00e+00	0	28	0	226492416	64	4209
2026-01-05 07:14:05.79	24.14	31.33	-49.4	-50.7	14.6	0.00e+00	0	28	0	229638144	64	4308
2026-01-05 07:14:06.79	23.79	31.31	-49.6	-50.8	14.6	0.00e+00	0	27	0	232783872	64	4376
2026-01-05 07:14:07.79	23.43	31.29	-49.6	-50.8	14.5	0.00e+00	0	28	0	235929600	64	4385
2026-01-05 07:14:08.79	23.08	31.27	-49.5	-50.8	14.6	0.00e+00	0	27	0	239075328	64	4350
2026-01-05 07:14:09.78	22.73	31.25	-49.3	-50.5	14.7	0.00e+00	0	28	0	242221056	64	4196
2026-01-05 07:14:10.79	22.38	31.22	-49.3	-50.5	14.7	0.00e+00	0	27	0	245366784	64	4227
2026-01-05 07:14:11.78	22.03	31.20	-49.4	-50.6	14.6	0.00e+00	0	28	0	248512512	64	4254
2026-01-05 07:14:12.77	21.68	31.17	-49.5	-50.7	14.6	0.00e+00	0	27	0	251658240	64	4325
2026-01-05 07:14:13.77	21.33	31.14	-49.6	-50.9	14.5	0.00e+00	0	28	0	254803968	64	4396
2026-01-05 07:14:14.77	20.98	31.11	-49.7	-51.0	14.5	0.00e+00	0	28	0	257949696	64	4448
2026-01-05 07:14:15.76	20.64	31.08	-49.7	-51.0	14.5	0.00e+00	0	28	0	261095424	64	4465
2026-01-05 07:14:16.76	20.29	31.05	-49.6	-50.9	14.6	0.00e+00	0	27	0	264241152	64	4397
2026-01-05 07:14:17.76	19.94	31.02	-49.5	-50.7	14.6	0.00e+00	0	27	0	267386880	64	4328
2026-01-05 07:14:18.76	19.59	30.99	-49.4	-50.6	14.6	0.00e+00	0	28	0	270532608	64	4277
2026-01-05 07:14:19.76	19.25	30.95	-49.6	-50.9	14.6	0.00e+00	0	27	0	273678336	64	4403
2026-01-05 07:14:20.76	18.90	30.92	-49.5	-50.8	14.6	0.00e+00	0	28	0	276824064	64	4350
2026-01-05 07:14:21.75	18.56	30.88	-49.6	-50.8	14.5	0.00e+00	0	28	0	279969792	64	4384
2026-01-05 07:14:22.75	18.22	30.84	-49.8	-51.1	14.5	0.00e+00	0	28	0	283115520	64	4514
2026-01-05 07:14:23.75	17.88	30.80	-50.0	-51.2	14.5	0.00e+00	0	27	0	286261248	65	4340
2026-01-05 07:14:24.74	17.54	30.77	-50.1	-51.4	14.4	0.00e+00	0	28	0	289406976	65	4436
2026-01-05 07:14:25.74	17.20	30.72	-50.3	-51.6	14.4	0.00e+00	0	28	0	292552704	65	4511
2026-01-05 07:14:26.74	16.86	30.68	-50.4	-51.8	14.4	0.00e+00	0	28	0	295698432	66	4353
2026-01-05 07:14:27.73	16.52	30.64	-50.4	-51.7	14.4	0.00e+00	0	28	0	298844160	66	4321
2026-01-05 07:14:28.72	16.18	30.59	-50.1	-51.5	14.5	0.00e+00	0	27	0	301989888	66	4196
2026-01-05 07:14:29.72	15.85	30.55	-50.0	-51.2	14.6	0.00e+00	0	27	0	305135616	66	4091
2026-01-05 07:14:30.71	15.51	30.50	-49.8	-51.1	14.7	0.00e+00	0	28	0	308281344	66	4009
2026-01-05 07:14:31.71	15.18	30.46	-49.5	-50.7	14.7	0.00e+00	0	27	0	311427072	65	4081
2026-01-05 07:14:32.70	14.85	30.41	-49.3	-50.5	14.8	0.00e+00	0	28	0	314572800	65	3971
2026-01-05 07:14:33.69	14.52	30.36	-49.2	-50.4	14.8	0.00e+00	0	27	0	317718528	65	3949
2026-01-05 07:14:34.68	14.19	30.31	-49.2	-50.4	14.7	0.00e+00	0	27	0	319815680	64	4162
2026-01-05 07:14:35.68	13.86	30.26	-49.2	-50.4	14.7	0.00e+00	0	27	0	322961408	64	4173
2026-01-05 07:14:36.68	13.53	30.21	-49.3	-50.5	14.7	0.00e+00	0	27	0	326107136	64	4204
2026-01-05 07:14:37.68	13.20	30.15	-49.3	-50.5	14.7	0.00e+00	0	27	0	329252864	64	4218
2026-01-05 07:14:38.67	12.87	30.10	-49.3	-50.5	14.6	0.00e+00	0	27	0	332398592	64	4239
2026-01-05 07:14:39.67	12.54	30.04	-49.5	-50.7	14.6	0.00e+00	0	27	0	335544320	64	4335
2026-01-05 07:14:40.67	12.22	29.99	-49.5	-50.7	14.6	0.00e+00	0	27	0	338690048	64	4332
2026-01-05 07:14:41.66	11.90	29.93	-49.4	-50.6	14.6	0.00e+00	0	27	0	341835776	64	4251
2026-01-05 07:14:42.67	11.57	29.87	-49.4	-50.6	14.6	0.00e+00	0	27	0	344981504	64	4264
2026-01-05 07:14:43.67	11.25	29.81	-49.5	-50.7	14.6	0.00e+00	0	27	0	348127232	64	4309
2026-01-05 07:14:44.66	10.93	29.75	-49.2	-50.4	14.7	0.00e+00	0	27	0	351272960	64	4178
2026-01-05 07:14:45.67	10.61	29.69	-49.2	-50.4	14.7	0.00e+00	0	28	0	354418688	64	4165
2026-01-05 07:14:46.67	10.29	29.63	-49.2	-50.4	14.7	0.00e+00	0	28	0	357564416	64	4180
2026-01-05 07:14:47.66	9.97	29.57	-49.4	-50.6	14.6	0.00e+00	0	27	0	360710144	64	4288
2026-01-05 07:14:48.65	9.66	29.51	-49.4	-50.7	14.6	0.00e+00	0	28	0	363855872	64	4305
2026-01-05 07:14:49.65	9.34	29.44	-49.5	-50.8	14.6	0.00e+00	0	27	0	367001600	64	4363
2026-01-05 07:14:50.64	9.03	29.38	-49.5	-50.7	14.6	0.00e+00	0	28	0	370147328	64	4314
2026-01-05 07:14:51.64	8.72	29.31	-49.3	-50.5	14.7	0.00e+00	0	27	0	373293056	64	4207
2026-01-05 07:14:52.63	8.41	29.25	-49.0	-50.2	14.8	0.00e+00	0	27	0	376438784	64	4072
2026-01-05 07:14:53.62	8.11	29.18	-48.8	-50.0	14.9	0.00e+00	0	28	0	379584512	64	3959
2026-01-05 07:14:54.62	7.80	29.11	-48.8	-50.0	14.9	0.00e+00	0	27	0	382730240	64	3983
2026-01-05 07:14:55.62	7.49	29.04	-49.1	-50.3	14.7	0.00e+00	0	27	0	385875968	64	4126
2026-01-05 07:14:56.61	7.19	28.97	-49.3	-50.5	14.6	0.00e+00	0	27	0	389021696	64	4231
2026-01-05 07:14:57.62	6.88	28.90	-49.4	-50.6	14.6	0.00e+00	0	27	0	392167424	64	4291
2026-01-05 07:14:58.62	6.58	28.83	-49.4	-50.6	14.6	0.00e+00	0	28	0	395313152	64	4266
2026-01-05 07:14:59.62	6.27	28.76	-49.4	-50.6	14.6	0.00e+00	0	27	0	398458880	64	4266
2026-01-05 07:15:00.62	5.97	28.69	-49.3	-50.5	14.7	0.00e+00	0	28	0	401604608	64	4201
2026-01-05 07:15:01.62	5.67	28.61	-49.2	-50.4	14.7	0.00e+00	0	28	0	404750336	64	4152
2026-01-05 07:15:02.61	5.38	28.54	-48.9	-50.1	14.8	0.00e+00	0	28	0	407896064	64	4006
2026-01-05 07:15:03.61	5.08	28.47	-48.9	-50.1	14.8	0.00e+00	0	27	0	411041792	64	4011
2026-01-05 07:15:04.61	4.79	28.39	-48.9	-50.1	14.8	0.00e+00	0	27	0	414187520	64	4014
2026-01-05 07:15:05.61	4.49	28.31	-48.8	-50.0	14.8	0.00e+00	0	28	0	417333248	64	3978
2026-01-05 07:15:06.60	4.21	28.24	-49.0	-50.2	14.8	0.00e+00	0	28	0	420478976	64	4086
2026-01-05 07:15:07.60	3.91	28.16	-49.1	-50.3	14.7	0.00e+00	0	28	0	423624704	64	4122
2026-01-05 07:15:08.60	3.63	28.08	-49.2	-50.4	14.7	0.00e+00	0	27	0	426770432	64	4164
2026-01-05 07:15:09.60	3.34	28.01	-49.1	-50.4	14.7	0.00e+00	0	28	0	429916160	64	4151
2026-01-05 07:15:10.59	3.05	27.93	-49.2	-50.4	14.7	0.00e+00	0	27	0	433061888	64	4159
2026-01-05 07:15:11.59	2.77	27.85	-49.0	-50.2	14.8	0.00e+00	0	27	0	436207616	64	4067
2026-01-05 07:15:12.59	2.48	27.77	-49.1	-50.3	14.8	0.00e+00	0	27	0	438304768	64	4108
2026-01-05 07:15:13.60	2.20	27.69	-49.2	-50.4	14.7	0.00e+00	0	28	0	441450496	64	4182
2026-01-05 07:15:14.60	1.92	27.61	-49.3	-50.5	14.6	0.00e+00	0	27	0	444596224	64	4240
2026-01-05 07:15:15.60	1.64	27.52	-49.5	-50.7	14.6	0.00e+00	0	27	0	447741952	64	4324
2026-01-05 07:15:16.60	1.36	27.44	-49.4	-50.6	14.6	0.00e+00	0	28	0	450887680	64	4290
2026-01-05 07:15:17.59	1.09	27.36	-49.3	-50.5	14.7	0.00e+00	0	27	0	454033408	64	4208
2026-01-05 07:15:18.58	0.82	27.28	-48.9	-50.1	14.8	0.00e+00	0	28	0	457179136	64	4008
2026-01-05 07:15:19.58	0.54	27.19	-48.6	-49.8	14.8	0.00e+00	0	27	0	460324864	63	4104
2026-01-05 07:15:20.57	0.27	27.11	-48.5	-49.7	14.8	0.00e+00	0	28	0	463470592	63	4064
2026-01-05 07:15:21.57	0.00	27.03	-48.5	-49.7	14.8	0.00e+00	0	27	0	466616320	63	4072
2026-01-05 07:15:22.57	359.73	26.94	-48.4	-49.6	14.9	0.00e+00	0	28	0	469762048	63	4018
2026-01-05 07:15:23.57	359.46	26.86	-48.5	-49.6	14.9	0.00e+00	0	28	0	472907776	63	4035
2026-01-05 07:15:24.57	359.20	26.77	-48.6	-49.8	14.8	0.00e+00	0	28	0	476053504	63	4116
2026-01-05 07:15:25.57	358.93	26.68	-48.7	-49.8	14.8	0.00e+00	0	28	0	479199232	63	4139
2026-01-05 07:15:26.56	358.67	26.60	-48.7	-49.8	14.8	0.00e+00	0	27	0	482344960	63	4136
2026-01-05 07:15:27.56	358.41	26.51	-48.5	-49.7	14.8	0.00e+00	0	28	0	485490688	63	4057
2026-01-05 07:15:28.56	358.15	26.42	-48.3	-49.5	14.9	0.00e+00	0	28	0	488636416	63	3968
2026-01-05 07:15:29.55	357.89	26.34	-48.3	-49.4	14.9	0.00e+00	0	28	0	491782144	63	3957
2026-01-05 07:15:30.54	357.64	26.25	-48.3	-49.5	14.9	0.00e+00	0	28	0	494927872	63	3969
2026-01-05 07:15:31.54	357.38	26.16	-48.5	-49.7	14.8	0.00e+00	0	27	0	498073600	63	4074
2026-01-05 07:15:32.55	357.12	26.07	-48.8	-49.9	14.7	0.00e+00	0	27	0	501219328	63	4190
2026-01-05 07:15:33.54	356.87	25.98	-49.0	-50.2	14.7	0.00e+00	0	27	0	504365056	63	4295
2026-01-05 07:15:34.53	356.62	25.90	-49.2	-50.4	14.6	0.00e+00	0	27	0	507510784	63	4408
2026-01-05 07:15:35.52	356.38	25.81	-49.2	-50.4	14.6	0.00e+00	0	27	0	510656512	63	4431
2026-01-05 07:15:36.51	356.13	25.72	-49.2	-50.5	14.6	0.00e+00	0	27	0	513802240	63	4448
2026-01-05 07:15:37.50	355.88	25.63	-49.3	-50.6	14.5	0.00e+00	0	27	0	516947968	63	4503
2026-01-05 07:15:38.49	355.64	25.54	-49.2	-50.5	14.6	0.00e+00	0	27	0	520093696	63	4444
2026-01-05 07:15:39.49	355.39	25.45	-49.0	-50.2	14.6	0.00e+00	0	28	0	523239424	63	4339
2026-01-05 07:15:40.49	355.15	25.36	-49.0	-50.2	14.7	0.00e+00	0	28	0	526385152	63	4327
2026-01-05 07:15:41.49	354.91	25.27	-49.1	-50.3	14.6	0.00e+00	0	27	0	528482304	63	4370
2026-01-05 07:15:42.48	354.67	25.18	-49.2	-50.4	14.6	0.00e+00	0	28	0	531628032	63	4406
2026-01-05 07:15:43.48	354.43	25.08	-49.3	-50.5	14.6	0.00e+00	0	27	0	534773760	63	4466
2026-01-05 07:15:44.49	354.19	24.99	-49.3	-50.6	14.6	0.00e+00	0	27	0	538968064	63	4513
2026-01-05 07:15:45.48	353.96	24.90	-49.4	-50.6	14.5	0.00e+00	0	28	0	541065216	63	4545
2026-01-05 07:15:46.48	353.72	24.81	-49.4	-50.6	14.5	0.00e+00	0	27	0	544210944	63	4543
2026-01-05 07:15:47.47	353.49	24.71	-49.4	-50.6	14.5	0.00e+00	0	27	0	547356672	63	4529
2026-01-05 07:15:48.46	353.26	24.62	-49.4	-50.6	14.5	0.00e+00	0	27	0	550502400	63	4526
2026-01-05 07:15:49.46	353.03	24.53	-49.3	-50.5	14.6	0.00e+00	0	27	0	553648128	63	4465
2026-01-05 07:15:50.45	352.80	24.44	-49.2	-50.4	14.6	0.00e+00	0	28	0	556793856	63	4428
2026-01-05 07:15:51.45	352.57	24.34	-49.0	-50.2	14.7	0.00e+00	0	27	0	559939584	63	4339
2026-01-05 07:15:52.43	352.35	24.25	-49.0	-50.2	14.7	0.00e+00	0	28	0	563085312	63	4301
2026-01-05 07:15:53.44	352.12	24.16	-48.9	-50.1	14.7	0.00e+00	0	28	0	566231040	63	4271
2026-01-05 07:15:54.43	351.90	24.07	-49.0	-50.2	14.7	0.00e+00	0	27	0	569376768	63	4294
2026-01-05 07:15:55.42	351.68	23.97	-48.9	-50.1	14.7	0.00e+00	0	27	0	572522496	63	4276
2026-01-05 07:15:56.43	351.46	23.88	-49.0	-50.2	14.7	0.00e+00	0	28	0	575668224	63	4328
2026-01-05 07:15:57.43	351.24	23.78	-49.0	-50.2	14.6	0.00e+00	0	27	0	578813952	63	4337
2026-01-05 07:15:58.44	351.02	23.69	-48.9	-50.1	14.7	0.00e+00	0	27	0	581959680	63	4262
2026-01-05 07:15:59.43	350.80	23.59	-48.9	-50.1	14.7	0.00e+00	0	28	0	585105408	63	4268
2026-01-05 07:16:00.44	350.58	23.50	-49.0	-50.2	14.7	0.00e+00	0	28	0	588251136	63	4297
2026-01-05 07:16:01.44	350.37	23.40	-49.1	-50.3	14.6	0.00e+00	0	27	0	591396864	63	4360
2026-01-05 07:16:02.43	350.16	23.31	-49.2	-50.4	14.6	0.00e+00	0	27	0	594542592	63	4412
2026-01-05 07:16:03.43	349.95	23.22	-49.1	-50.4	14.6	0.00e+00	0	27	0	597688320	63	4408
2026-01-05 07:16:04.43	349.74	23.12	-49.1	-50.4	14.6	0.00e+00	0	28	0	600834048	63	4409
2026-01-05 07:16:05.43	349.53	23.03	-49.1	-50.3	14.6	0.00e+00	0	27	0	603979776	63	4373
2026-01-05 07:16:06.42	349.32	22.93	-49.1	-50.3	14.6	0.00e+00	0	27	0	607125504	63	4379
2026-01-05 07:16:07.41	349.12	22.84	-49.1	-50.3	14.6	0.00e+00	0	27	0	610271232	63	4354
2026-01-05 07:16:08.42	348.91	22.74	-49.0	-50.2	14.6	0.00e+00	0	28	0	613416960	63	4331
2026-01-05 07:16:09.40	348.71	22.65	-49.0	-50.2	14.6	0.00e+00	0	27	0	616562688	63	4319
2026-01-05 07:16:10.39	348.51	22.55	-49.0	-50.2	14.7	0.00e+00	0	28	0	619708416	63	4307
2026-01-05 07:16:11.38	348.31	22.46	-49.0	-50.2	14.7	0.00e+00	0	28	0	622854144	63	4300
2026-01-05 07:16:12.38	348.11	22.36	-49.0	-50.2	14.6	0.00e+00	0	27	0	625999872	63	4329
2026-01-05 07:16:13.38	347.91	22.27	-49.0	-50.3	14.6	0.00e+00	0	27	0	629145600	63	4348
2026-01-05 07:16:14.38	347.71	22.17	-49.1	-50.3	14.6	0.00e+00	0	27	0	632291328	63	4371
2026-01-05 07:16:15.37	347.51	22.08	-49.1	-50.3	14.6	0.00e+00	0	28	0	634388480	63	4363
2026-01-05 07:16:16.37	347.32	21.98	-49.0	-50.2	14.7	0.00e+00	0	28	0	637534208	63	4323
2026-01-05 07:16:17.37	347.12	21.89	-48.9	-50.1	14.7	0.00e+00	0	27	0	640679936	63	4284
2026-01-05 07:16:18.36	346.93	21.79	-48.7	-49.9	14.7	0.00e+00	0	27	0	643825664	63	4173
2026-01-05 07:16:19.36	346.74	21.70	-48.8	-49.9	14.7	0.00e+00	0	27	0	646971392	63	4191
2026-01-05 07:16:20.36	346.55	21.60	-48.8	-50.0	14.7	0.00e+00	0	27	0	650117120	63	4237
2026-01-05 07:16:21.35	346.36	21.51	-48.9	-50.1	14.7	0.00e+00	0	28	0	653262848	63	4273
2026-01-05 07:16:22.35	346.17	21.41	-48.9	-50.1	14.7	0.00e+00	0	27	0	656408576	63	4281
2026-01-05 07:16:23.36	345.98	21.32	-48.9	-50.1	14.7	0.00e+00	0	28	0	659554304	63	4266
2026-01-05 07:16:24.35	345.80	21.22	-48.9	-50.1	14.7	0.00e+00	0	27	0	662700032	63	4255
2026-01-05 07:16:25.34	345.61	21.13	-48.7	-49.9	14.7	0.00e+00	0	27	0	665845760	63	4170
2026-01-05 07:16:26.34	345.43	21.03	-48.8	-49.9	14.7	0.00e+00	0	27	0	668991488	63	4188
2026-01-05 07:16:27.34	345.25	20.94	-48.7	-49.9	14.7	0.00e+00	0	27	0	672137216	63	4148
2026-01-05 07:16:28.33	345.07	20.84	-48.5	-49.6	14.8	0.00e+00	0	27	0	675282944	63	4050
2026-01-05 07:16:29.33	344.89	20.75	-48.5	-49.6	14.8	0.00e+00	0	27	0	678428672	63	4045
2026-01-05 07:16:30.31	344.71	20.66	-48.6	-49.8	14.8	0.00e+00	0	27	0	681574400	63	4110
2026-01-05 07:16:31.31	344.53	20.56	-48.7	-49.9	14.7	0.00e+00	0	27	0	684720128	63	4161
2026-01-05 07:16:32.31	344.36	20.47	-48.6	-49.8	14.8	0.00e+00	0	28	0	687865856	63	4115
2026-01-05 07:16:33.30	344.18	20.37	-48.7	-49.9	14.7	0.00e+00	0	27	0	691011584	63	4151
2026-01-05 07:16:34.29	344.01	20.28	-48.8	-50.0	14.7	0.00e+00	0	27	0	694157312	63	4226
2026-01-05 07:16:35.29	343.83	20.18	-48.8	-50.0	14.7	0.00e+00	0	27	0	697303040	63	4225
2026-01-05 07:16:36.28	343.66	20.09	-48.9	-50.1	14.7	0.00e+00	0	28	0	700448768	63	4270
2026-01-05 07:16:37.28	343.49	20.00	-48.9	-50.1	14.6	0.00e+00	0	27	0	703594496	63	4286
2026-01-05 07:16:38.27	343.32	19.90	-48.9	-50.1	14.7	0.00e+00	0	27	0	706740224	63	4267
2026-01-05 07:16:39.27	343.15	19.81	-48.9	-50.1	14.7	0.00e+00	0	28	0	709885952	63	4280
2026-01-05 07:16:40.26	342.99	19.72	-48.8	-50.0	14.7	0.00e+00	0	27	0	713031680	63	4238
2026-01-05 07:16:41.26	342.82	19.62	-48.7	-49.9	14.7	0.00e+00	0	27	0	716177408	63	4174
2026-01-05 07:16:42.25	342.65	19.53	-48.7	-49.9	14.7	0.00e+00	0	27	0	719323136	63	4152
2026-01-05 07:16:43.24	342.49	19.44	-48.7	-49.9	14.7	0.00e+00	0	27	0	722468864	63	4159
2026-01-05 07:16:44.23	342.33	19.34	-48.7	-49.9	14.7	0.00e+00	0	28	0	724566016	63	4158
2026-01-05 07:16:45.22	342.17	19.25	-48.8	-50.0	14.7	0.00e+00	0	27	0	727711744	63	4217
2026-01-05 07:16:46.22	342.00	19.16	-49.0	-50.2	14.6	0.00e+00	0	27	0	730857472	63	4310
2026-01-05 07:16:47.22	341.84	19.06	-49.1	-50.3	14.6	0.00e+00	0	28	0	734003200	63	4362
2026-01-05 07:16:48.22	341.68	18.97	-49.2	-50.5	14.5	0.00e+00	0	27	0	737148928	63	4455
2026-01-05 07:16:49.21	341.52	18.88	-49.3	-50.6	14.5	0.00e+00	0	28	0	740294656	63	4498
2026-01-05 07:16:50.21	341.37	18.78	-49.4	-50.6	14.5	0.00e+00	0	28	0	743440384	63	4540
2026-01-05 07:16:51.20	341.21	18.69	-49.4	-50.7	14.5	0.00e+00	0	28	0	746586112	63	4551
2026-01-05 07:16:52.20	341.05	18.60	-49.3	-50.5	14.5	0.00e+00	0	27	0	749731840	63	4488
2026-01-05 07:16:53.19	340.90	18.51	-49.3	-50.5	14.5	0.00e+00	0	27	0	752877568	63	4485
2026-01-05 07:16:54.20	340.74	18.41	-49.1	-50.4	14.6	0.00e+00	0	27	0	756023296	63	4404
2026-01-05 07:16:55.19	340.59	18.32	-49.2	-50.5	14.5	0.00e+00	0	27	0	759169024	63	4444
2026-01-05 07:16:56.18	340.44	18.23	-49.1	-50.3	14.6	0.00e+00	0	27	0	762314752	63	4390
2026-01-05 07:16:57.18	340.29	18.14	-49.1	-50.4	14.6	0.00e+00	0	27	0	765460480	63	4405
2026-01-05 07:16:58.18	340.14	18.05	-49.2	-50.4	14.6	0.00e+00	0	27	0	768606208	63	4418
2026-01-05 07:16:59.17	339.99	17.95	-49.2	-50.4	14.6	0.00e+00	0	27	0	771751936	63	4429
2026-01-05 07:17:00.18	339.84	17.86	-49.2	-50.4	14.6	0.00e+00	0	28	0	774897664	63	4428
2026-01-05 07:17:01.17	339.69	17.77	-49.3	-50.5	14.5	0.00e+00	0	27	0	778043392	63	4482
2026-01-05 07:17:02.18	339.54	17.68	-49.3	-50.5	14.5	0.00e+00	0	27	0	781189120	63	4475
2026-01-05 07:17:03.18	339.40	17.59	-49.3	-50.6	14.5	0.00e+00	0	27	0	784334848	63	4505
2026-01-05 07:17:04.18	339.25	17.50	-49.4	-50.6	14.6	0.00e+00	0	28	0	787480576	64	4271
2026-01-05 07:17:05.17	339.11	17.41	-49.4	-50.6	14.6	0.00e+00	0	27	0	790626304	64	4278
2026-01-05 07:17:06.17	338.97	17.31	-49.3	-50.6	14.6	0.00e+00	0	27	0	793772032	64	4243
2026-01-05 07:17:07.17	338.82	17.22	-49.4	-50.7	14.5	0.00e+00	0	27	0	796917760	64	4311
2026-01-05 07:17:08.18	338.68	17.13	-49.2	-50.5	14.6	0.00e+00	0	27	0	800063488	64	4203
2026-01-05 07:17:09.17	338.54	17.04	-49.1	-50.4	14.6	0.00e+00	0	27	0	803209216	64	4161
2026-01-05 07:17:10.16	338.40	16.95	-49.1	-50.3	14.7	0.00e+00	0	27	0	806354944	64	4138
2026-01-05 07:17:11.16	338.26	16.86	-49.1	-50.3	14.7	0.00e+00	0	27	0	809500672	64	4126
2026-01-05 07:17:12.16	338.13	16.77	-49.1	-50.3	14.7	0.00e+00	0	28	0	812646400	64	4109
2026-01-05 07:17:13.16	337.99	16.68	-49.1	-50.3	14.7	0.00e+00	0	28	0	815792128	64	4112
2026-01-05 07:17:14.16	337.85	16.59	-49.0	-50.2	14.7	0.00e+00	0	28	0	818937856	64	4093
2026-01-05 07:17:15.15	337.72	16.50	-49.0	-50.2	14.7	0.00e+00	0	28	0	822083584	64	4071
2026-01-05 07:17:16.14	337.58	16.42	-49.0	-50.3	14.7	0.00e+00	0	27	0	825229312	64	4105
2026-01-05 07:17:17.14	337.45	16.33	-49.1	-50.4	14.6	0.00e+00	0	27	0	828375040	64	4161
2026-01-05 07:17:18.14	337.32	16.24	-49.2	-50.4	14.6	0.00e+00	0	28	0	831520768	64	4173
2026-01-05 07:17:19.14	337.18	16.15	-49.3	-50.5	14.6	0.00e+00	0	27	0	833617920	64	4222
2026-01-05 07:17:20.14	337.05	16.06	-49.3	-50.6	14.6	0.00e+00	0	28	0	836763648	64	4256
2026-01-05 07:17:21.14	336.92	15.97	-49.4	-50.7	14.6	0.00e+00	0	27	0	840957952	64	4292
2026-01-05 07:17:22.13	336.79	15.88	-49.4	-50.6	14.6	0.00e+00	0	28	0	843055104	64	4286
2026-01-05 07:17:23.12	336.66	15.80	-49.5	-50.8	14.5	0.00e+00	0	27	0	846200832	64	4346
2026-01-05 07:17:24.11	336.54	15.71	-49.4	-50.7	14.5	0.00e+00	0	28	0	849346560	64	4317
2026-01-05 07:17:25.11	336.41	15.62	-49.4	-50.7	14.5	0.00e+00	0	27	0	852492288	64	4316
2026-01-05 07:17:26.10	336.28	15.53	-49.4	-50.6	14.5	0.00e+00	0	27	0	855638016	64	4280
2026-01-05 07:17:27.11	336.16	15.45	-49.2	-50.5	14.6	0.00e+00	0	27	0	858783744	64	4201
2026-01-05 07:17:28.11	336.03	15.36	-49.1	-50.3	14.7	0.00e+00	0	28	0	861929472	64	4117
2026-01-05 07:17:29.11	335.91	15.27	-49.1	-50.3	14.7	0.00e+00	0	28	0	865075200	64	4140
2026-01-05 07:17:30.11	335.78	15.18	-49.0	-50.3	14.7	0.00e+00	0	28	0	868220928	64	4100
2026-01-05 07:17:31.10	335.66	15.10	-48.9	-50.1	14.7	0.00e+00	0	27	0	871366656	64	4028
2026-01-05 07:17:32.10	335.54	15.01	-49.0	-50.2	14.7	0.00e+00	0	27	0	874512384	64	4060
2026-01-05 07:17:33.10	335.41	14.93	-49.1	-50.3	14.6	0.00e+00	0	28	0	877658112	64	4119
2026-01-05 07:17:34.09	335.29	14.84	-49.1	-50.4	14.6	0.00e+00	0	28	0	880803840	64	4147
2026-01-05 07:17:35.09	335.17	14.75	-49.2	-50.5	14.6	0.00e+00	0	27	0	883949568	64	4214
2026-01-05 07:17:36.08	335.06	14.67	-49.4	-50.6	14.5	0.00e+00	0	27	0	887095296	64	4286
2026-01-05 07:17:37.07	334.94	14.58	-49.4	-50.7	14.5	0.00e+00	0	27	0	890241024	64	4316
2026-01-05 07:17:38.06	334.82	14.50	-49.5	-50.7	14.5	0.00e+00	0	27	0	893386752	64	4334
2026-01-05 07:17:39.06	334.70	14.41	-49.5	-50.8	14.5	0.00e+00	0	27	0	896532480	64	4363
2026-01-05 07:17:40.06	334.59	14.33	-49.6	-50.9	14.4	0.00e+00	0	27	0	899678208	64	4407
2026-01-05 07:17:41.06	334.47	14.24	-49.6	-50.9	14.4	0.00e+00	0	28	0	902823936	64	4439
2026-01-05 07:17:42.05	334.36	14.16	-49.7	-51.0	14.4	0.00e+00	0	28	0	905969664	64	4458
2026-01-05 07:17:43.05	334.24	14.07	-49.7	-51.0	14.4	0.00e+00	0	27	0	909115392	64	4489
2026-01-05 07:17:44.04	334.13	13.99	-49.7	-51.0	14.4	0.00e+00	0	27	0	912261120	64	4479
2026-01-05 07:17:45.03	334.02	13.91	-49.6	-51.0	14.4	0.00e+00	0	27	0	915406848	64	4442
2026-01-05 07:17:46.03	333.90	13.82	-49.6	-50.9	14.4	0.00e+00	0	28	0	918552576	64	4406
2026-01-05 07:17:47.02	333.79	13.74	-49.7	-51.0	14.4	0.00e+00	0	27	0	921698304	64	4463
2026-01-05 07:17:48.02	333.68	13.65	-49.7	-51.0	14.4	0.00e+00	0	28	0	924844032	64	4468
2026-01-05 07:17:49.02	333.57	13.57	-49.6	-50.9	14.4	0.00e+00	0	28	0	927989760	64	4439
2026-01-05 07:17:50.01	333.46	13.49	-49.6	-50.9	14.4	0.00e+00	0	27	0	931135488	64	4441
2026-01-05 07:17:51.01	333.35	13.40	-49.7	-51.0	14.4	0.00e+00	0	28	0	934281216	64	4456
2026-01-05 07:17:52.01	333.24	13.32	-49.7	-51.1	14.4	0.00e+00	0	28	0	937426944	64	4505
2026-01-05 07:17:53.01	333.13	13.24	-49.7	-51.0	14.4	0.00e+00	0	27	0	940572672	64	4472
2026-01-05 07:17:54.01	333.03	13.16	-49.7	-51.1	14.4	0.00e+00	0	28	0	942669824	64	4504
2026-01-05 07:17:55.00	332.92	13.07	-49.7	-51.1	14.4	0.00e+00	0	28	0	945815552	64	4503
2026-01-05 07:17:56.00	332.81	12.99	-49.8	-51.1	14.4	0.00e+00	0	27	0	948961280	64	4539
2026-01-05 07:17:57.00	332.71	12.91	-49.8	-51.2	14.3	0.00e+00	0	27	0	952107008	64	4564
2026-01-05 07:17:57.98	332.60	12.83	-50.0	-51.3	14.4	0.00e+00	0	27	0	955252736	65	4382
2026-01-05 07:17:58.97	332.50	12.75	-50.0	-51.4	14.4	0.00e+00	0	28	0	958398464	65	4394
2026-01-05 07:17:59.97	332.40	12.67	-50.1	-51.5	14.3	0.00e+00	0	28	0	961544192	65	4472
2026-01-05 07:18:00.96	332.29	12.58	-50.2	-51.6	14.2	0.00e+00	0	28	0	964689920	65	4522
2026-01-05 07:18:01.97	332.19	12.50	-50.3	-51.7	14.2	0.00e+00	0	28	0	967835648	65	4586
2026-01-05 07:18:02.96	332.09	12.42	-50.3	-51.7	14.2	0.00e+00	0	27	0	970981376	65	4593
2026-01-05 07:18:03.96	331.99	12.34	-50.5	-51.9	14.2	0.00e+00	0	28	0	974127104	66	4427
2026-01-05 07:18:04.95	331.89	12.26	-50.5	-51.9	14.2	0.00e+00	0	28	0	977272832	66	4414
2026-01-05 07:18:05.95	331.79	12.18	-50.4	-51.9	14.2	0.00e+00	0	27	0	980418560	66	4392
2026-01-05 07:18:06.95	331.69	12.10	-50.4	-51.8	14.2	0.00e+00	0	27	0	983564288	66	4378
2026-01-05 07:18:07.96	331.59	12.02	-50.5	-51.9	14.2	0.00e+00	0	27	0	986710016	66	4424
2026-01-05 07:18:08.95	331.49	11.94	-50.5	-52.0	14.2	0.00e+00	0	28	0	989855744	66	4450
2026-01-05 07:18:09.95	331.39	11.86	-50.4	-51.8	14.3	0.00e+00	0	28	0	993001472	66	4375
2026-01-05 07:18:10.94	331.29	11.78	-50.3	-51.8	14.3	0.00e+00	0	28	0	996147200	66	4346
2026-01-05 07:18:11.94	331.19	11.70	-50.3	-51.7	14.3	0.00e+00	0	28	0	999292928	66	4325
2026-01-05 07:18:12.94	331.10	11.62	-50.2	-51.6	14.3	0.00e+00	0	28	0	1002438656	66	4286
2026-01-05 07:18:13.93	331.00	11.54	-50.2	-51.6	14.3	0.00e+00	0	27	0	1005584384	66	4270
2026-01-05 07:18:14.92	330.91	11.46	-50.2	-51.6	14.3	0.00e+00	0	27	0	1008730112	66	4276
2026-01-05 07:18:15.92	330.81	11.38	-50.2	-51.6	14.3	0.00e+00	0	28	0	1011875840	66	4282
2026-01-05 07:18:16.91	330.72	11.31	-50.1	-51.5	14.4	0.00e+00	0	28	0	1015021568	66	4217
2026-01-05 07:18:17.91	330.63	11.23	-50.2	-51.6	14.3	0.00e+00	0	27	0	1018167296	66	4270
2026-01-05 07:18:18.91	330.53	11.15	-50.1	-51.5	14.4	0.00e+00	0	27	0	1021313024	66	4228
2026-01-05 07:18:19.91	330.44	11.07	-50.2	-51.5	14.3	0.00e+00	0	27	0	1024458752	66	4238
2026-01-05 07:18:20.91	330.35	10.99	-50.2	-51.6	14.3	0.00e+00	0	27	0	1027604480	66	4255
2026-01-05 07:18:21.91	330.25	10.92	-50.3	-51.7	14.3	0.00e+00	0	27	0	1030750208	66	4299
2026-01-05 07:18:22.91	330.16	10.84	-50.3	-51.7	14.3	0.00e+00	0	27	0	1033895936	66	4316
2026-01-05 07:18:23.91	330.07	10.76	-50.4	-51.8	14.2	0.00e+00	0	27	0	1037041664	66	4375
2026-01-05 07:18:24.91	329.98	10.68	-50.5	-52.0	14.2	0.00e+00	0	27	0	1040187392	66	4457
2026-01-05 07:18:25.90	329.89	10.61	-50.6	-52.1	14.1	0.00e+00	0	27	0	1043333120	66	4522
2026-01-05 07:18:26.90	329.80	10.53	-50.7	-52.2	14.0	0.00e+00	0	27	0	1046478848	66	4595
2026-01-05 07:18:27.90	329.71	10.45	-50.8	-52.3	14.0	0.00e+00	0	27	0	1049624576	66	4642
2026-01-05 07:18:28.90	329.62	10.38	-50.9	-52.4	14.0	0.00e+00	0	27	0	1051721728	66	4674
2026-01-05 07:18:29.90	329.54	10.30	-51.0	-52.5	14.0	0.00e+00	0	28	0	1054867456	67	4481
2026-01-05 07:18:30.89	329.45	10.22	-50.9	-52.5	14.0	0.00e+00	0	27	0	1058013184	67	4464
2026-01-05 07:18:31.89	329.36	10.15	-51.0	-52.5	14.0	0.00e+00	0	27	0	1061158912	67	4490
2026-01-05 07:18:32.89	329.28	10.07	-51.0	-52.5	14.0	0.00e+00	0	27	0	1064304640	67	4475
2026-01-05 07:18:33.89	329.19	9.99	-51.0	-52.5	14.0	0.00e+00	0	28	0	1067450368	67	4478
2026-01-05 07:18:34.88	329.11	9.92	-50.9	-52.4	14.0	0.00e+00	0	27	0	1070596096	67	4427
2026-01-05 07:18:35.87	329.02	9.85	-50.9	-52.4	14.1	0.00e+00	0	28	0	1073741824	67	4401
2026-01-05 07:18:36.86	328.94	9.77	-50.9	-52.4	14.1	0.00e+00	0	28	0	1076887552	67	4402
2026-01-05 07:18:37.86	328.85	9.70	-50.8	-52.3	14.1	0.00e+00	0	27	0	1080033280	67	4370
2026-01-05 07:18:38.85	328.77	9.62	-50.8	-52.3	14.1	0.00e+00	0	28	0	1083179008	67	4349
2026-01-05 07:18:39.85	328.69	9.55	-50.6	-52.1	14.2	0.00e+00	0	28	0	1086324736	67	4265
2026-01-05 07:18:40.84	328.60	9.47	-50.5	-52.0	14.2	0.00e+00	0	27	0	1089470464	67	4198
2026-01-05 07:18:41.84	328.52	9.40	-50.5	-51.9	14.3	0.00e+00	0	27	0	1092616192	67	4175
2026-01-05 07:18:42.84	328.44	9.32	-50.4	-51.8	14.3	0.00e+00	0	27	0	1095761920	67	4136
2026-01-05 07:18:43.83	328.36	9.25	-50.5	-52.0	14.2	0.00e+00	0	27	0	1098907648	67	4214
2026-01-05 07:18:44.83	328.28	9.18	-50.5	-51.9	14.2	0.00e+00	0	27	0	1102053376	67	4191
2026-01-05 07:18:45.83	328.20	9.10	-50.4	-51.9	14.3	0.00e+00	0	27	0	1105199104	67	4152
2026-01-05 07:18:46.81	328.12	9.03	-50.4	-51.9	14.3	0.00e+00	0	27	0	1108344832	67	4152
2026-01-05 07:18:47.81	328.04	8.96	-50.5	-51.9	14.2	0.00e+00	0	27	0	1111490560	67	4173
2026-01-05 07:18:48.81	327.96	8.88	-50.5	-52.0	14.2	0.00e+00	0	28	0	1114636288	67	4194
2026-01-05 07:18:49.80	327.88	8.81	-50.6	-52.0	14.2	0.00e+00	0	27	0	1117782016	67	4230
2026-01-05 07:18:50.80	327.80	8.74	-50.6	-52.1	14.1	0.00e+00	0	28	0	1120927744	67	4272
2026-01-05 07:18:51.80	327.72	8.66	-50.6	-52.1	14.2	0.00e+00	0	27	0	1124073472	67	4259
2026-01-05 07:18:52.79	327.64	8.59	-50.7	-52.2	14.1	0.00e+00	0	27	0	1127219200	67	4316
2026-01-05 07:18:53.78	327.57	8.52	-50.8	-52.3	14.0	0.00e+00	0	28	0	1130364928	67	4387
2026-01-05 07:18:54.78	327.49	8.45	-50.7	-52.3	14.1	0.00e+00	0	28	0	1133510656	67	4349
2026-01-05 07:18:55.78	327.41	8.37	-50.8	-52.3	14.0	0.00e+00	0	27	0	1136656384	67	4366
2026-01-05 07:18:56.77	327.34	8.30	-50.9	-52.4	14.0	0.00e+00	0	27	0	1138753536	67	4417
2026-01-05 07:18:57.76	327.26	8.23	-50.9	-52.4	14.0	0.00e+00	0	27	0	1141899264	67	4425
2026-01-05 07:18:58.76	327.19	8.16	-51.0	-52.5	13.9	0.00e+00	0	28	0	1145044992	67	4493
2026-01-05 07:18:59.76	327.11	8.09	-51.0	-52.6	13.9	0.00e+00	0	27	0	1148190720	67	4499
2026-01-05 07:19:00.75	327.04	8.02	-51.0	-52.6	13.9	0.00e+00	0	28	0	1151336448	67	4507
2026-01-05 07:19:01.75	326.96	7.95	-51.0	-52.6	13.9	0.00e+00	0	28	0	1154482176	67	4514
2026-01-05 07:19:02.73	326.89	7.88	-51.0	-52.5	13.9	0.00e+00	0	27	0	1157627904	67	4485
2026-01-05 07:19:03.73	326.82	7.80	-51.0	-52.6	13.9	0.00e+00	0	28	0	1160773632	67	4541
2026-01-05 07:19:04.73	326.74	7.73	-51.1	-52.7	13.9	0.00e+00	0	28	0	1163919360	67	4572
2026-01-05 07:19:05.72	326.67	7.66	-51.0	-52.6	13.9	0.00e+00	0	27	0	1167065088	67	4516
2026-01-05 07:19:06.71	326.60	7.59	-50.9	-52.5	13.9	0.00e+00	0	28	0	1170210816	67	4444
2026-01-05 07:19:07.72	326.53	7.52	-50.8	-52.4	14.0	0.00e+00	0	27	0	1173356544	67	4414
2026-01-05 07:19:08.71	326.46	7.45	-51.0	-52.5	13.9	0.00e+00	0	27	0	1176502272	67	4484
2026-01-05 07:19:09.72	326.38	7.38	-50.9	-52.4	14.0	0.00e+00	0	28	0	1179648000	67	4433
2026-01-05 07:19:10.71	326.31	7.31	-50.9	-52.5	13.9	0.00e+00	0	28	0	1182793728	67	4447
2026-01-05 07:19:11.71	326.24	7.24	-51.1	-52.7	13.8	0.00e+00	0	27	0	1185939456	67	4558
2026-01-05 07:19:12.71	326.17	7.17	-50.9	-52.5	13.9	0.00e+00	0	27	0	1189085184	67	4445
2026-01-05 07:19:13.70	326.10	7.10	-50.9	-52.5	13.9	0.00e+00	0	28	0	1192230912	67	4442
2026-01-05 07:19:14.70	326.03	7.03	-50.8	-52.3	14.0	0.00e+00	0	28	0	1195376640	67	4379
2026-01-05 07:19:15.70	325.96	6.96	-50.9	-52.4	13.9	0.00e+00	0	28	0	1198522368	67	4434
2026-01-05 07:19:16.70	325.90	6.90	-50.9	-52.5	13.9	0.00e+00	0	28	0	1201668096	67	4461
2026-01-05 07:19:17.70	325.83	6.83	-50.8	-52.4	14.0	0.00e+00	0	28	0	1204813824	67	4424
2026-01-05 07:19:18.69	325.76	6.76	-50.8	-52.3	14.0	0.00e+00	0	27	0	1207959552	67	4380
2026-01-05 07:19:19.69	325.69	6.69	-50.9	-52.5	13.9	0.00e+00	0	27	0	1211105280	67	4474
2026-01-05 07:19:20.69	325.62	6.62	-50.8	-52.4	13.9	0.00e+00	0	28	0	1214251008	67	4406
2026-01-05 07:19:21.69	325.56	6.55	-50.9	-52.5	13.9	0.00e+00	0	28	0	1217396736	67	4471
2026-01-05 07:19:22.68	325.49	6.48	-51.0	-52.6	13.8	0.00e+00	0	28	0	1220542464	67	4525
2026-01-05 07:19:23.68	325.42	6.42	-51.0	-52.6	13.9	0.00e+00	0	27	0	1223688192	67	4510
2026-01-05 07:19:24.68	325.36	6.35	-51.2	-52.8	13.7	0.00e+00	0	27	0	1226833920	67	4635
2026-01-05 07:19:25.68	325.29	6.28	-51.1	-52.8	13.7	0.00e+00	0	28	0	1229979648	67	4622
2026-01-05 07:19:26.67	325.23	6.21	-51.1	-52.8	13.7	0.00e+00	0	27	0	1233125376	67	4625
2026-01-05 07:19:27.65	325.16	6.15	-51.2	-52.8	13.7	0.00e+00	0	27	0	1236271104	67	4637
2026-01-05 07:19:28.65	325.10	6.08	-51.2	-52.8	13.7	0.00e+00	0	28	0	1239416832	67	4632
2026-01-05 07:19:29.65	325.03	6.01	-51.2	-52.9	13.7	0.00e+00	0	27	0	1242562560	67	4661
2026-01-05 07:19:30.65	324.97	5.94	-51.3	-53.0	13.6	0.00e+00	0	28	0	1245708288	67	4741
2026-01-05 07:19:31.65	324.90	5.88	-51.3	-53.0	13.6	0.00e+00	0	27	0	1248854016	67	4713
2026-01-05 07:19:32.64	324.84	5.81	-51.2	-52.8	13.7	0.00e+00	0	28	0	1250951168	67	4638
2026-01-05 07:19:33.64	324.78	5.74	-51.3	-53.0	13.6	0.00e+00	0	28	0	1254096896	67	4726
2026-01-05 07:19:34.63	324.72	5.68	-51.3	-53.0	13.6	0.00e+00	0	27	0	1257242624	67	4726
2026-01-05 07:19:35.63	324.65	5.61	-51.3	-53.0	13.6	0.00e+00	0	28	0	1260388352	67	4739
2026-01-05 07:19:36.62	324.59	5.55	-51.4	-53.1	13.6	0.00e+00	0	27	0	1263534080	67	4798
2026-01-05 07:19:37.62	324.53	5.48	-51.7	-53.5	13.5	0.00e+00	0	27	0	1266679808	68	4738
2026-01-05 07:19:38.61	324.47	5.41	-51.6	-53.3	13.6	0.00e+00	0	27	0	1269825536	68	4641
2026-01-05 07:19:39.60	324.41	5.35	-51.7	-53.4	13.5	0.00e+00	0	27	0	1272971264	68	4695
2026-01-05 07:19:40.58	324.35	5.28	-51.8	-53.6	13.4	0.00e+00	0	27	0	1276116992	68	4794
2026-01-05 07:19:41.58	324.29	5.22	-51.7	-53.5	13.5	0.00e+00	0	28	0	1279262720	68	4751
2026-01-05 07:19:42.58	324.22	5.15	-51.8	-53.6	13.4	0.00e+00	0	27	0	1282408448	68	4802
2026-01-05 07:19:43.57	324.16	5.09	-51.7	-53.4	13.5	0.00e+00	0	28	0	1285554176	68	4705
2026-01-05 07:19:44.57	324.10	5.02	-53.4	-55.8	12.6	0.00e+00	0	28	0	1288699904	71	5187
2026-01-05 07:19:45.57	324.04	4.96	-58.9	-72.7	3.8	1.49e+00	0	28	104	1289748480	82	19203
2026-01-05 07:19:46.57	323.98	4.89	-59.3	-73.1	3.8	1.49e+00	0	28	104	1289748480	83	19085
2026-01-05 07:19:47.56	323.93	4.83	-59.9	-73.6	3.8	1.49e+00	0	28	104	1289748480	84	19113
2026-01-05 07:19:48.56	323.87	4.76	-60.1	-73.9	3.8	1.49e+00	0	28	104	1289748480	85	18607
2026-01-05 07:19:49.54	323.81	4.70	-60.3	-74.1	3.9	1.49e+00	0	28	104	1289748480	85	19045
2026-01-05 07:19:50.54	323.75	4.64	-60.5	-74.3	3.8	1.49e+00	0	28	104	1289748480	86	18440
2026-01-05 07:19:51.54	323.69	4.57	-60.6	-74.4	3.8	1.49e+00	0	28	104	1289748480	86	18686
2026-01-05 07:19:52.54	323.63	4.51	-60.7	-74.5	3.8	1.49e+00	0	28	104	1289748480	86	18881
2026-01-05 07:19:53.53	323.58	4.44	-60.8	-74.6	3.8	1.49e+00	0	28	104	1289748480	86	19112
2026-01-05 07:19:54.53	323.52	4.38	-60.9	-74.7	3.8	1.49e+00	0	28	104	1289748480	86	19258
2026-01-05 07:19:55.53	323.46	4.31	-61.0	-74.8	3.8	1.49e+00	0	28	104	1289748480	87	18336
2026-01-05 07:19:56.53	323.41	4.25	-61.0	-74.8	3.8	1.49e+00	0	28	104	1289748480	87	18483
2026-01-05 07:19:57.52	323.35	4.19	-61.1	-74.9	3.8	1.49e+00	0	28	104	1289748480	87	18626
2026-01-05 07:19:58.52	323.29	4.12	-61.1	-74.9	3.8	1.49e+00	0	28	104	1289748480	87	18712
2026-01-05 07:19:59.52	323.24	4.06	-61.1	-75.0	3.8	1.49e+00	0	28	104	1289748480	87	18761
2026-01-05 07:20:00.52	323.18	4.00	-61.2	-75.0	3.8	1.49e+00	0	28	104	1289748480	87	18800
2026-01-05 07:20:01.52	323.13	3.93	-61.2	-75.0	3.8	1.49e+00	0	28	104	1289748480	87	18871
2026-01-05 07:20:02.51	323.07	3.87	-61.2	-75.1	3.8	1.49e+00	0	28	104	1289748480	87	18988
2026-01-05 07:20:03.51	323.02	3.81	-61.2	-75.1	3.8	1.49e+00	0	28	104	1289748480	87	19036
2026-01-05 07:20:04.51	322.96	3.75	-61.2	-75.1	3.8	1.49e+00	0	28	104	1289748480	87	18950
2026-01-05 07:20:05.50	322.91	3.68	-61.2	-75.0	3.8	1.49e+00	0	28	104	1289748480	87	18947
2026-01-05 07:20:06.50	322.85	3.62	-61.2	-75.0	3.8	1.49e+00	0	28	104	1289748480	87	18886
2026-01-05 07:20:07.50	322.80	3.56	-61.1	-75.0	3.8	1.49e+00	0	28	104	1289748480	87	18750
2026-01-05 07:20:08.50	322.74	3.50	-61.1	-75.0	3.8	1.49e+00	0	28	104	1289748480	87	18763
2026-01-05 07:20:09.49	322.69	3.43	-61.1	-75.0	3.8	1.49e+00	0	28	104	1289748480	87	18805
2026-01-05 07:20:10.49	322.64	3.37	-61.1	-74.9	3.8	1.49e+00	0	28	104	1289748480	87	18701
2026-01-05 07:20:11.49	322.59	3.31	-61.1	-74.9	3.8	1.49e+00	0	28	104	1289748480	87	18726
2026-01-05 07:20:12.49	322.53	3.25	-61.1	-74.9	3.8	1.49e+00	0	28	104	1289748480	87	18683
2026-01-05 07:20:13.49	322.48	3.19	-61.1	-74.9	3.8	1.49e+00	0	28	104	1289748480	87	18701
2026-01-05 07:20:14.49	322.43	3.12	-61.1	-74.9	3.8	1.49e+00	0	28	104	1289748480	87	18615
2026-01-05 07:20:15.48	322.38	3.06	-61.0	-74.9	3.8	1.49e+00	0	28	104	1289748480	87	18616
2026-01-05 07:20:16.49	322.32	3.00	-61.0	-74.9	3.8	1.49e+00	0	28	104	1289748480	87	18602
2026-01-05 07:20:17.48	322.27	2.94	-61.0	-74.9	3.8	1.49e+00	0	28	104	1289748480	87	18559
2026-01-05 07:20:18.48	322.22	2.88	-61.0	-74.9	3.8	1.49e+00	0	28	104	1289748480	87	18527
2026-01-05 07:20:19.48	322.17	2.82	-61.0	-74.8	3.8	1.49e+00	0	28	104	1289748480	87	18483
2026-01-05 07:20:20.47	322.12	2.76	-61.0	-74.9	3.8	1.49e+00	0	28	104	1289748480	87	18541
2026-01-05 07:20:21.48	322.07	2.69	-61.0	-74.8	3.8	1.49e+00	0	28	104	1289748480	87	18468
2026-01-05 07:20:22.48	322.02	2.63	-61.0	-74.8	3.8	1.49e+00	0	28	104	1289748480	87	18485
2026-01-05 07:20:23.48	321.97	2.57	-61.0	-74.8	3.8	1.49e+00	0	28	104	1289748480	87	18418
2026-01-05 07:20:24.48	321.92	2.51	-61.0	-74.8	3.8	1.49e+00	0	28	104	1289748480	87	18463
2026-01-05 07:20:25.48	321.87	2.45	-61.0	-74.8	3.8	1.49e+00	0	28	104	1289748480	87	18421
2026-01-05 07:20:26.47	321.82	2.39	-61.0	-74.8	3.8	1.49e+00	0	28	104	1289748480	87	18439
2026-01-05 07:20:27.47	321.77	2.33	-61.0	-74.8	3.8	1.49e+00	0	28	104	1289748480	87	18377
2026-01-05 07:20:28.47	321.72	2.27	-61.0	-74.8	3.8	1.49e+00	0	28	104	1289748480	87	18373
2026-01-05 07:20:29.47	321.67	2.21	-60.9	-74.8	3.8	1.49e+00	0	28	104	1289748480	87	18340
2026-01-05 07:20:30.47	321.62	2.15	-60.9	-74.8	3.8	1.49e+00	0	28	104	1289748480	87	18356
2026-01-05 07:20:31.47	321.57	2.09	-60.9	-74.8	3.8	1.49e+00	0	28	104	1289748480	87	18320
2026-01-05 07:20:32.47	321.52	2.03	-60.9	-74.8	3.8	1.49e+00	0	28	104	1289748480	87	18313

#Closed at: 2026-01-05 07:20:33
#Recorded file [1289 MB]: D:/lorett/data/31004_260105_101200.dat