passes_logs/2026/01/05/R3.2S_Murmansk/R3.2S_Murmansk__20260105_084619_NOAA_21_JPSS-2_rec.log

#Pass ID: 20260105_084619_NOAA 21 (JPSS-2)
#Satellite: NOAA 21 (JPSS-2)
#Configuration: NOAA-21
#almurnet v.1.7.20251203
#Start time: 2026-01-05 08:51:13

#Version: 2.2.20231116
#Station: R3.2S_Murmansk
#Location: 33.079688 lon 68.888172 lat
#TLE: 1 54234U 22150A   26004.43991293  .00000169  00000+0  10108-3 0  9998
#TLE: 2 54234  98.7489 305.4680 0001107 344.3033  15.8108 14.19531967163313

#Time	Az	El	Level	Level2	SNR	BER	BlckErr	Temp	State	Recorded	gain1	gain2
2026-01-05 08:51:13.11	118.49	34.24	-60.7	-73.8	3.8	8.45e-01	0	27	0	0	87	16398
2026-01-05 08:51:14.12	118.33	34.44	-60.8	-74.7	3.8	1.49e+00	0	27	104	0	86	19178
2026-01-05 08:51:15.11	118.17	34.65	-60.8	-74.6	3.8	1.49e+00	0	28	104	0	86	19143
2026-01-05 08:51:16.11	118.01	34.85	-60.8	-74.6	3.8	1.49e+00	0	27	104	0	86	19051
2026-01-05 08:51:17.12	117.84	35.06	-60.7	-74.5	3.8	1.49e+00	0	27	104	0	86	18933
2026-01-05 08:51:18.12	117.67	35.26	-60.6	-74.5	3.8	1.49e+00	0	27	104	0	86	18753
2026-01-05 08:51:19.12	117.50	35.47	-60.6	-74.4	3.8	1.49e+00	0	27	104	0	86	18699
2026-01-05 08:51:20.12	117.33	35.68	-60.6	-74.4	3.8	1.49e+00	0	27	104	0	86	18595
2026-01-05 08:51:21.12	117.16	35.89	-60.5	-74.4	3.8	1.49e+00	0	27	104	0	86	18545
2026-01-05 08:51:22.13	116.98	36.10	-60.4	-74.3	3.8	1.49e+00	0	27	104	0	86	18394
2026-01-05 08:51:23.14	116.80	36.32	-60.4	-74.3	3.8	1.49e+00	0	27	104	0	86	18325
2026-01-05 08:51:24.14	116.62	36.53	-60.4	-74.2	3.8	1.49e+00	0	28	104	0	86	18161
2026-01-05 08:51:25.14	116.44	36.74	-60.3	-74.1	3.8	1.49e+00	0	28	104	0	86	18025
2026-01-05 08:51:26.14	116.26	36.96	-60.3	-74.1	3.8	1.49e+00	0	28	104	0	86	18022
2026-01-05 08:51:27.14	116.07	37.17	-60.3	-74.1	3.8	1.49e+00	0	27	104	0	86	18009
2026-01-05 08:51:28.13	115.88	37.39	-60.3	-74.1	3.8	1.49e+00	0	27	104	0	86	17968
2026-01-05 08:51:29.12	115.69	37.60	-60.3	-74.1	3.8	1.49e+00	0	27	104	0	86	17971
2026-01-05 08:51:30.11	115.50	37.82	-60.3	-74.1	3.8	1.49e+00	0	27	104	0	86	18013
2026-01-05 08:51:31.11	115.30	38.04	-60.3	-74.1	3.8	1.49e+00	0	27	104	0	86	18020
2026-01-05 08:51:32.11	115.10	38.26	-60.3	-74.1	3.8	1.49e+00	0	27	104	0	86	17950
2026-01-05 08:51:33.10	114.90	38.48	-60.2	-74.1	3.8	1.49e+00	0	27	104	0	86	17909
2026-01-05 08:51:34.09	114.69	38.70	-60.2	-74.1	3.8	1.49e+00	0	27	104	0	86	17946
2026-01-05 08:51:35.08	114.48	38.92	-60.2	-74.1	3.8	1.49e+00	0	27	104	0	86	17935
2026-01-05 08:51:36.07	114.27	39.15	-60.2	-74.1	3.8	1.49e+00	0	27	104	0	86	17915
2026-01-05 08:51:37.07	114.06	39.37	-60.3	-74.0	3.8	1.49e+00	0	27	104	0	86	17830
2026-01-05 08:51:38.06	113.84	39.60	-60.2	-74.0	3.8	1.49e+00	0	28	104	0	86	17784
2026-01-05 08:51:39.06	113.62	39.83	-60.2	-74.0	3.8	1.49e+00	0	28	104	0	86	17835
2026-01-05 08:51:40.06	113.40	40.06	-60.2	-74.0	3.8	1.49e+00	0	27	104	0	86	17851
2026-01-05 08:51:41.05	113.17	40.28	-60.2	-74.0	3.8	1.49e+00	0	28	104	0	86	17883
2026-01-05 08:51:42.05	112.94	40.52	-60.2	-74.0	3.8	1.49e+00	0	27	104	0	86	17837
2026-01-05 08:51:43.04	112.71	40.75	-60.2	-74.0	3.8	1.49e+00	0	28	104	0	86	17814
2026-01-05 08:51:44.03	112.48	40.98	-60.2	-74.0	3.8	1.49e+00	0	27	104	0	86	17838
2026-01-05 08:51:45.02	112.24	41.21	-60.2	-74.0	3.8	1.49e+00	0	27	104	0	86	17855
2026-01-05 08:51:46.02	111.99	41.44	-60.2	-74.1	3.8	1.49e+00	0	28	104	0	86	17923
2026-01-05 08:51:47.02	111.74	41.68	-60.2	-74.0	3.8	1.49e+00	0	27	104	0	86	17859
2026-01-05 08:51:48.02	111.49	41.92	-60.2	-74.0	3.8	1.49e+00	0	28	104	0	86	17728
2026-01-05 08:51:49.01	111.24	42.15	-60.2	-74.0	3.8	1.49e+00	0	28	104	0	86	17798
2026-01-05 08:51:50.00	110.98	42.39	-60.2	-73.9	3.8	1.49e+00	0	28	104	0	86	17661
2026-01-05 08:51:51.00	110.72	42.63	-60.2	-73.9	3.8	1.49e+00	0	28	104	0	86	17521
2026-01-05 08:51:52.00	110.45	42.87	-60.2	-73.9	3.8	1.49e+00	0	28	104	0	86	17612
2026-01-05 08:51:52.99	110.18	43.10	-60.2	-73.9	3.8	1.49e+00	0	27	104	0	86	17521
2026-01-05 08:51:53.98	109.91	43.34	-60.2	-74.0	3.8	1.49e+00	0	27	104	0	86	17693
2026-01-05 08:51:54.98	109.63	43.59	-60.2	-73.8	3.8	1.49e+00	0	27	104	0	86	17413
2026-01-05 08:51:55.97	109.35	43.83	-60.2	-73.7	3.8	1.49e+00	0	27	104	0	86	17239
2026-01-05 08:51:56.97	109.06	44.07	-60.2	-73.8	3.8	1.49e+00	0	27	104	0	86	17396
2026-01-05 08:51:57.96	108.77	44.31	-60.2	-73.8	3.8	1.49e+00	0	28	104	0	86	17479
2026-01-05 08:51:58.95	108.48	44.56	-60.2	-73.7	3.8	1.49e+00	0	27	104	0	86	17243
2026-01-05 08:51:59.94	108.18	44.80	-60.2	-73.6	3.8	1.49e+00	0	27	104	0	86	16903
2026-01-05 08:52:00.94	107.87	45.05	-60.2	-73.8	3.8	1.49e+00	0	28	104	0	86	17288
2026-01-05 08:52:01.92	107.56	45.29	-60.1	-73.3	3.8	1.49e+00	0	28	104	0	86	16338
2026-01-05 08:52:02.91	107.25	45.53	-60.1	-73.6	3.8	1.49e+00	0	27	104	0	86	17021
2026-01-05 08:52:03.91	106.93	45.78	-59.3	-66.6	5.9	6.21e-01	0	28	0	0	85	8027
2026-01-05 08:52:04.90	106.61	46.03	-57.9	-62.3	9.3	1.38e-02	0	27	0	3145728	82	5802
2026-01-05 08:52:05.90	106.28	46.28	-55.8	-58.4	12.2	1.35e-04	0	27	0	6291456	78	4695
2026-01-05 08:52:06.90	105.94	46.53	-52.7	-54.3	14.0	0.00e+00	0	28	0	9437184	72	4117
2026-01-05 08:52:07.89	105.60	46.77	-51.8	-53.3	14.3	0.00e+00	0	27	0	12582912	70	4140
2026-01-05 08:52:08.88	105.25	47.02	-58.0	-62.8	8.9	9.61e-05	0	27	0	15728640	81	6521
2026-01-05 08:52:09.88	104.90	47.27	-54.3	-56.4	13.1	0.00e+00	0	28	0	18874368	73	4935
2026-01-05 08:52:10.87	104.55	47.52	-56.6	-59.7	11.3	1.90e-05	0	27	0	22020096	78	5438
2026-01-05 08:52:11.86	104.18	47.77	-52.4	-54.0	14.0	0.00e+00	0	27	0	24117248	70	4473
2026-01-05 08:52:12.85	103.82	48.02	-51.9	-53.4	14.2	0.00e+00	0	27	0	27262976	70	4167
2026-01-05 08:52:13.84	103.44	48.27	-52.1	-53.6	14.1	0.00e+00	0	27	0	30408704	70	4291
2026-01-05 08:52:14.83	103.06	48.51	-51.8	-53.2	14.3	0.00e+00	0	28	0	33554432	70	4082
2026-01-05 08:52:15.81	102.68	48.76	-51.6	-53.0	14.3	0.00e+00	0	28	0	36700160	69	4206
2026-01-05 08:52:16.81	102.29	49.01	-51.5	-52.9	14.3	0.00e+00	0	27	0	39845888	69	4181
2026-01-05 08:52:17.80	101.89	49.26	-51.7	-53.1	14.2	0.00e+00	0	27	0	42991616	69	4274
2026-01-05 08:52:18.80	101.48	49.51	-51.6	-53.1	14.2	0.00e+00	0	27	0	46137344	69	4244
2026-01-05 08:52:19.80	101.06	49.76	-51.4	-52.8	14.4	0.00e+00	0	27	0	49283072	69	4127
2026-01-05 08:52:20.79	100.64	50.01	-51.2	-52.6	14.4	0.00e+00	0	27	0	52428800	68	4271
2026-01-05 08:52:21.77	100.22	50.26	-51.1	-52.5	14.4	0.00e+00	0	27	0	55574528	68	4200
2026-01-05 08:52:22.78	99.78	50.51	-51.1	-52.5	14.4	0.00e+00	0	27	0	58720256	68	4203
2026-01-05 08:52:23.77	99.34	50.76	-51.3	-52.7	14.3	0.00e+00	0	27	0	61865984	68	4309
2026-01-05 08:52:24.76	98.89	51.00	-51.5	-53.0	14.2	0.00e+00	0	27	0	65011712	68	4458
2026-01-05 08:52:25.75	98.44	51.25	-51.8	-53.3	14.1	0.00e+00	0	27	0	68157440	68	4637
2026-01-05 08:52:26.74	97.98	51.49	-51.7	-53.2	14.1	0.00e+00	0	27	0	71303168	68	4564
2026-01-05 08:52:27.74	97.50	51.74	-51.4	-52.8	14.3	0.00e+00	0	28	0	74448896	68	4360
2026-01-05 08:52:28.74	97.02	51.99	-51.1	-52.5	14.4	0.00e+00	0	28	0	77594624	68	4230
2026-01-05 08:52:29.73	96.53	52.23	-50.8	-52.2	14.5	0.00e+00	0	27	0	80740352	68	4065
2026-01-05 08:52:30.73	96.03	52.47	-50.9	-52.3	14.5	0.00e+00	0	27	0	83886080	68	4117
2026-01-05 08:52:31.72	95.53	52.71	-50.8	-52.1	14.6	0.00e+00	0	28	0	87031808	68	4030
2026-01-05 08:52:32.72	95.02	52.96	-50.8	-52.1	14.5	0.00e+00	0	28	0	90177536	68	4018
2026-01-05 08:52:33.71	94.50	53.19	-50.7	-52.0	14.6	0.00e+00	0	28	0	93323264	68	3991
2026-01-05 08:52:34.71	93.96	53.43	-50.4	-51.7	14.6	0.00e+00	0	27	0	96468992	67	4069
2026-01-05 08:52:35.70	93.43	53.67	-50.1	-51.4	14.6	0.00e+00	0	27	0	99614720	66	4154
2026-01-05 08:52:36.69	92.88	53.90	-50.1	-51.4	14.6	0.00e+00	0	27	0	102760448	66	4171
2026-01-05 08:52:37.69	92.32	54.14	-50.1	-51.3	14.6	0.00e+00	0	27	0	105906176	66	4140
2026-01-05 08:52:38.68	91.76	54.37	-49.8	-51.1	14.7	0.00e+00	0	27	0	108003328	66	4005
2026-01-05 08:52:39.67	91.19	54.60	-49.8	-51.0	14.7	0.00e+00	0	27	0	111149056	66	3985
2026-01-05 08:52:40.67	90.60	54.83	-49.9	-51.2	14.7	0.00e+00	0	27	0	114294784	66	4071
2026-01-05 08:52:41.67	90.00	55.05	-50.0	-51.3	14.6	0.00e+00	0	27	0	117440512	66	4107
2026-01-05 08:52:42.66	89.40	55.28	-50.4	-51.7	14.4	0.00e+00	0	27	0	120586240	66	4307
2026-01-05 08:52:43.66	88.79	55.50	-50.6	-52.0	14.3	0.00e+00	0	27	0	123731968	66	4473
2026-01-05 08:52:44.66	88.16	55.72	-50.5	-51.9	14.4	0.00e+00	0	27	0	126877696	66	4404
2026-01-05 08:52:45.66	87.52	55.94	-49.9	-51.2	14.7	0.00e+00	0	27	0	130023424	66	4075
2026-01-05 08:52:46.66	86.88	56.15	-49.7	-51.0	14.8	0.00e+00	0	27	0	133169152	66	3971
2026-01-05 08:52:47.65	86.23	56.36	-49.4	-50.6	14.7	0.00e+00	0	27	0	136314880	65	4042
2026-01-05 08:52:48.64	85.57	56.57	-49.4	-50.6	14.8	0.00e+00	0	27	0	139460608	65	4021
2026-01-05 08:52:49.63	84.90	56.77	-49.5	-50.7	14.7	0.00e+00	0	27	0	142606336	65	4082
2026-01-05 08:52:50.62	84.22	56.97	-49.5	-50.7	14.7	0.00e+00	0	27	0	145752064	65	4085
2026-01-05 08:52:51.62	83.53	57.17	-49.4	-50.6	14.8	0.00e+00	0	27	0	148897792	65	4005
2026-01-05 08:52:52.61	82.83	57.37	-49.3	-50.5	14.8	0.00e+00	0	28	0	152043520	65	3970
2026-01-05 08:52:53.61	82.11	57.56	-49.5	-50.7	14.7	0.00e+00	0	27	0	155189248	65	4062
2026-01-05 08:52:54.60	81.39	57.75	-49.3	-50.5	14.8	0.00e+00	0	27	0	158334976	65	3974
2026-01-05 08:52:55.60	80.65	57.93	-49.3	-50.5	14.8	0.00e+00	0	27	0	161480704	65	3972
2026-01-05 08:52:56.59	79.92	58.11	-49.2	-50.4	14.7	0.00e+00	0	28	0	164626432	64	4149
2026-01-05 08:52:57.58	79.17	58.29	-49.1	-50.3	14.8	0.00e+00	0	27	0	167772160	64	4112
2026-01-05 08:52:58.58	78.40	58.46	-49.0	-50.2	14.8	0.00e+00	0	27	0	170917888	64	4061
2026-01-05 08:52:59.57	77.63	58.63	-48.8	-50.0	14.9	0.00e+00	0	27	0	174063616	64	3961
2026-01-05 08:53:00.57	76.84	58.79	-48.4	-49.5	14.9	0.00e+00	0	27	0	177209344	63	3993
2026-01-05 08:53:01.57	76.05	58.95	-48.2	-49.3	14.9	0.00e+00	0	27	0	180355072	62	4118
2026-01-05 08:53:02.56	75.25	59.11	-48.2	-49.2	14.9	0.00e+00	0	27	0	183500800	62	4095
2026-01-05 08:53:03.55	74.44	59.26	-48.1	-49.2	14.9	0.00e+00	0	27	0	186646528	62	4092
2026-01-05 08:53:04.54	73.63	59.40	-48.2	-49.3	14.9	0.00e+00	0	27	0	189792256	62	4106
2026-01-05 08:53:05.53	72.80	59.54	-48.3	-49.5	14.8	0.00e+00	0	27	0	192937984	62	4195
2026-01-05 08:53:06.53	71.96	59.67	-48.4	-49.5	14.8	0.00e+00	0	27	0	195035136	62	4206
2026-01-05 08:53:07.53	71.11	59.80	-48.2	-49.3	14.8	0.00e+00	0	27	0	198180864	62	4133
2026-01-05 08:53:08.52	70.26	59.92	-48.3	-49.4	14.8	0.00e+00	0	28	0	201326592	62	4190
2026-01-05 08:53:09.51	69.40	60.04	-48.6	-49.7	14.7	0.00e+00	0	27	0	204472320	62	4327
2026-01-05 08:53:10.50	68.54	60.15	-48.7	-49.8	14.7	0.00e+00	0	27	0	207618048	62	4377
2026-01-05 08:53:11.51	67.65	60.26	-48.9	-50.0	14.7	0.00e+00	0	27	0	210763776	62	4493
2026-01-05 08:53:12.50	66.76	60.36	-48.6	-49.8	14.7	0.00e+00	0	27	0	213909504	62	4364
2026-01-05 08:53:13.49	65.88	60.45	-48.6	-49.7	14.8	0.00e+00	0	27	0	217055232	62	4318
2026-01-05 08:53:14.49	64.98	60.54	-48.6	-49.7	14.8	0.00e+00	0	28	0	220200960	62	4313
2026-01-05 08:53:15.48	64.08	60.62	-48.5	-49.7	14.8	0.00e+00	0	27	0	223346688	62	4292
2026-01-05 08:53:16.48	63.16	60.70	-48.5	-49.6	14.8	0.00e+00	0	27	0	226492416	62	4291
2026-01-05 08:53:17.47	62.25	60.77	-48.4	-49.5	14.8	0.00e+00	0	28	0	229638144	62	4239
2026-01-05 08:53:18.46	61.34	60.83	-48.6	-49.7	14.7	0.00e+00	0	27	0	232783872	62	4337
2026-01-05 08:53:19.46	60.41	60.89	-48.6	-49.7	14.7	0.00e+00	0	27	0	235929600	62	4321
2026-01-05 08:53:20.45	59.48	60.94	-48.5	-49.7	14.8	0.00e+00	0	28	0	239075328	62	4301
2026-01-05 08:53:21.45	58.55	60.98	-48.7	-49.8	14.7	0.00e+00	0	28	0	242221056	62	4388
2026-01-05 08:53:22.45	57.61	61.02	-48.5	-49.6	14.8	0.00e+00	0	27	0	245366784	62	4278
2026-01-05 08:53:23.44	56.68	61.05	-48.3	-49.4	14.8	0.00e+00	0	27	0	248512512	62	4150
2026-01-05 08:53:24.44	55.73	61.07	-48.5	-49.6	14.8	0.00e+00	0	27	0	251658240	62	4259
2026-01-05 08:53:25.43	54.80	61.09	-48.8	-49.9	14.7	0.00e+00	0	28	0	254803968	62	4432
2026-01-05 08:53:26.42	53.86	61.09	-48.6	-49.7	14.8	0.00e+00	0	28	0	257949696	62	4327
2026-01-05 08:53:27.41	52.92	61.10	-48.3	-49.4	14.9	0.00e+00	0	27	0	261095424	62	4162
2026-01-05 08:53:28.41	51.98	61.09	-48.3	-49.4	14.8	0.00e+00	0	27	0	264241152	62	4189
2026-01-05 08:53:29.40	51.04	61.08	-48.9	-50.1	14.7	0.00e+00	0	27	0	267386880	62	4505
2026-01-05 08:53:30.40	50.10	61.06	-49.0	-50.1	14.7	0.00e+00	0	27	0	270532608	63	4270
2026-01-05 08:53:31.39	49.16	61.04	-48.7	-49.8	14.8	0.00e+00	0	27	0	273678336	63	4113
2026-01-05 08:53:32.39	48.22	61.01	-48.6	-49.8	14.8	0.00e+00	0	27	0	276824064	63	4099
2026-01-05 08:53:33.38	47.29	60.97	-49.0	-50.2	14.7	0.00e+00	0	27	0	279969792	63	4296
2026-01-05 08:53:34.37	46.37	60.93	-49.5	-50.7	14.6	0.00e+00	0	27	0	282066944	64	4308
2026-01-05 08:53:35.36	45.45	60.87	-49.1	-50.2	14.8	0.00e+00	0	27	0	285212672	64	4094
2026-01-05 08:53:36.36	44.52	60.82	-49.2	-50.4	14.8	0.00e+00	0	27	0	288358400	64	4166
2026-01-05 08:53:37.36	43.60	60.75	-49.4	-50.6	14.7	0.00e+00	0	27	0	291504128	64	4263
2026-01-05 08:53:38.35	42.69	60.68	-49.5	-50.7	14.5	0.00e+00	0	27	0	294649856	64	4314
2026-01-05 08:53:39.34	41.78	60.61	-49.5	-50.7	14.6	0.00e+00	0	27	0	297795584	64	4319
2026-01-05 08:53:40.34	40.88	60.52	-49.4	-50.6	14.7	0.00e+00	0	28	0	300941312	64	4261
2026-01-05 08:53:41.34	39.98	60.43	-49.5	-50.7	14.6	0.00e+00	0	28	0	304087040	64	4330
2026-01-05 08:53:42.34	39.08	60.34	-49.5	-50.7	14.6	0.00e+00	0	27	0	307232768	64	4311
2026-01-05 08:53:43.33	38.20	60.23	-49.4	-50.6	14.6	0.00e+00	0	27	0	310378496	64	4271
2026-01-05 08:53:44.32	37.33	60.13	-49.1	-50.3	14.7	0.00e+00	0	28	0	313524224	64	4126
2026-01-05 08:53:45.32	36.46	60.01	-49.1	-50.3	14.8	0.00e+00	0	28	0	316669952	64	4106
2026-01-05 08:53:46.32	35.60	59.89	-49.2	-50.4	14.7	0.00e+00	0	27	0	319815680	64	4186
2026-01-05 08:53:47.32	34.74	59.77	-49.1	-50.3	14.8	0.00e+00	0	28	0	322961408	64	4143
2026-01-05 08:53:48.31	33.90	59.64	-49.3	-50.5	14.7	0.00e+00	0	27	0	326107136	64	4204
2026-01-05 08:53:49.30	33.07	59.51	-49.6	-50.8	14.6	0.00e+00	0	27	0	329252864	64	4385
2026-01-05 08:53:50.29	32.25	59.37	-49.8	-51.0	14.5	0.00e+00	0	28	0	332398592	64	4486
2026-01-05 08:53:51.28	31.44	59.22	-49.9	-51.2	14.5	0.00e+00	0	27	0	335544320	65	4292
2026-01-05 08:53:52.27	30.63	59.07	-49.8	-51.1	14.6	0.00e+00	0	27	0	338690048	65	4259
2026-01-05 08:53:53.27	29.83	58.92	-49.5	-50.8	14.7	0.00e+00	0	27	0	341835776	65	4099
2026-01-05 08:53:54.27	29.04	58.75	-49.3	-50.4	14.8	0.00e+00	0	27	0	344981504	65	3952
2026-01-05 08:53:55.26	28.26	58.59	-49.3	-50.5	14.8	0.00e+00	0	27	0	348127232	65	3997
2026-01-05 08:53:56.24	27.50	58.42	-49.9	-51.1	14.6	0.00e+00	0	27	0	351272960	65	4286
2026-01-05 08:53:57.23	26.75	58.25	-50.1	-51.4	14.5	0.00e+00	0	27	0	354418688	65	4427
2026-01-05 08:53:58.22	26.00	58.08	-49.9	-51.1	14.6	0.00e+00	0	27	0	357564416	65	4290
2026-01-05 08:53:59.22	25.26	57.89	-49.5	-50.7	14.8	0.00e+00	0	27	0	360710144	65	4069
2026-01-05 08:54:00.21	24.53	57.71	-49.3	-50.4	14.9	0.00e+00	0	27	0	362807296	65	3957
2026-01-05 08:54:01.20	23.82	57.52	-49.5	-50.7	14.7	0.00e+00	0	27	0	365953024	65	4072
2026-01-05 08:54:02.19	23.11	57.33	-50.0	-51.3	14.5	0.00e+00	0	27	0	369098752	65	4354
2026-01-05 08:54:03.18	22.41	57.14	-50.4	-51.7	14.4	0.00e+00	0	27	0	372244480	65	4579
2026-01-05 08:54:04.17	21.73	56.94	-50.8	-52.2	14.3	0.00e+00	0	27	0	375390208	66	4552
2026-01-05 08:54:05.17	21.04	56.73	-50.6	-52.0	14.3	0.00e+00	0	27	0	378535936	67	4221
2026-01-05 08:54:06.16	20.38	56.53	-50.2	-51.5	14.6	0.00e+00	0	27	0	381681664	67	3992
2026-01-05 08:54:07.15	19.72	56.32	-50.0	-51.3	14.6	0.00e+00	0	27	0	384827392	66	4107
2026-01-05 08:54:08.15	19.07	56.11	-50.0	-51.2	14.7	0.00e+00	0	27	0	387973120	66	4085
2026-01-05 08:54:09.15	18.43	55.90	-50.9	-52.3	14.3	0.00e+00	0	28	0	391118848	66	4623
2026-01-05 08:54:10.14	17.80	55.68	-51.7	-53.2	14.1	0.00e+00	0	27	0	394264576	68	4581
2026-01-05 08:54:11.14	17.18	55.46	-51.7	-53.2	14.1	0.00e+00	0	28	0	397410304	68	4570
2026-01-05 08:54:12.13	16.57	55.24	-50.8	-52.2	14.6	0.00e+00	0	27	0	400556032	68	4052
2026-01-05 08:54:13.12	15.97	55.02	-50.2	-51.5	14.7	0.00e+00	0	27	0	403701760	67	3970
2026-01-05 08:54:14.12	15.38	54.79	-50.0	-51.2	14.7	0.00e+00	0	27	0	406847488	66	4087
2026-01-05 08:54:15.11	14.80	54.56	-49.9	-51.1	14.7	0.00e+00	0	27	0	409993216	66	4049
2026-01-05 08:54:16.11	14.22	54.33	-50.3	-51.5	14.5	0.00e+00	0	28	0	413138944	66	4232
2026-01-05 08:54:17.10	13.66	54.10	-50.9	-52.2	14.3	0.00e+00	0	27	0	416284672	66	4595
2026-01-05 08:54:18.09	13.11	53.87	-51.2	-52.6	14.2	0.00e+00	0	27	0	419430400	67	4533
2026-01-05 08:54:19.09	12.56	53.63	-50.6	-51.9	14.5	0.00e+00	0	27	0	422576128	67	4192
2026-01-05 08:54:20.08	12.03	53.40	-49.8	-51.0	14.7	0.00e+00	0	27	0	425721856	66	4004
2026-01-05 08:54:21.07	11.50	53.16	-50.0	-51.2	14.7	0.00e+00	0	27	0	428867584	66	4095
2026-01-05 08:54:22.07	10.98	52.92	-50.8	-52.1	14.3	0.00e+00	0	27	0	432013312	66	4533
2026-01-05 08:54:23.07	10.47	52.68	-51.2	-52.6	14.2	0.00e+00	0	27	0	435159040	67	4525
2026-01-05 08:54:24.07	9.96	52.44	-51.2	-52.6	14.2	0.00e+00	0	27	0	438304768	67	4544
2026-01-05 08:54:25.06	9.47	52.20	-51.7	-53.1	14.1	0.00e+00	0	27	0	440401920	68	4544
2026-01-05 08:54:26.06	8.98	51.95	-51.8	-53.3	14.1	0.00e+00	0	27	0	443547648	68	4611
2026-01-05 08:54:27.05	8.51	51.71	-51.4	-52.8	14.3	0.00e+00	0	27	0	446693376	68	4371
2026-01-05 08:54:28.05	8.04	51.46	-50.5	-51.7	14.5	0.00e+00	0	27	0	449839104	67	4089
2026-01-05 08:54:29.05	7.57	51.21	-50.1	-51.3	14.6	0.00e+00	0	27	0	452984832	66	4130
2026-01-05 08:54:30.06	7.11	50.96	-50.0	-51.2	14.6	0.00e+00	0	27	0	456130560	66	4072
2026-01-05 08:54:31.05	6.66	50.72	-51.2	-52.5	14.3	0.00e+00	0	27	0	459276288	67	4483
2026-01-05 08:54:32.05	6.22	50.47	-52.6	-54.2	13.8	0.00e+00	0	28	0	462422016	70	4592
2026-01-05 08:54:33.04	5.79	50.22	-53.6	-55.5	13.4	0.00e+00	0	28	0	465567744	72	4753
2026-01-05 08:54:34.04	5.36	49.97	-53.9	-55.9	13.3	0.00e+00	0	27	0	468713472	73	4679
2026-01-05 08:54:35.04	4.94	49.72	-53.5	-55.4	13.5	0.00e+00	0	27	0	471859200	73	4414
2026-01-05 08:54:36.02	4.54	49.48	-52.9	-54.6	13.8	0.00e+00	0	27	0	475004928	72	4278
2026-01-05 08:54:37.01	4.14	49.23	-52.0	-53.5	14.1	0.00e+00	0	28	0	478150656	70	4205
2026-01-05 08:54:38.00	3.74	48.98	-51.1	-52.4	14.4	0.00e+00	0	27	0	481296384	68	4177
2026-01-05 08:54:39.00	3.35	48.73	-50.8	-52.1	14.6	0.00e+00	0	27	0	484442112	68	4029
2026-01-05 08:54:39.99	2.96	48.48	-50.9	-52.2	14.5	0.00e+00	0	27	0	487587840	68	4093
2026-01-05 08:54:40.99	2.58	48.23	-52.0	-53.5	14.1	0.00e+00	0	28	0	490733568	69	4480
2026-01-05 08:54:42.00	2.20	47.98	-53.0	-54.7	13.7	0.00e+00	0	27	0	493879296	71	4573
2026-01-05 08:54:42.99	1.84	47.73	-53.3	-55.2	13.4	0.00e+00	0	27	0	497025024	71	4817
2026-01-05 08:54:43.99	1.47	47.48	-52.6	-54.3	13.7	0.00e+00	0	27	0	500170752	71	4351
2026-01-05 08:54:44.97	1.12	47.24	-52.4	-54.0	13.9	0.00e+00	0	27	0	503316480	71	4216
2026-01-05 08:54:45.97	0.77	46.99	-52.4	-54.0	14.0	0.00e+00	0	27	0	506462208	71	4225
2026-01-05 08:54:46.97	0.43	46.74	-52.4	-54.0	14.0	0.00e+00	0	28	0	509607936	71	4202
2026-01-05 08:54:47.96	0.09	46.49	-52.0	-53.5	14.1	0.00e+00	0	28	0	512753664	70	4222
2026-01-05 08:54:48.96	359.75	46.24	-52.0	-53.5	14.1	0.00e+00	0	28	0	515899392	70	4218
2026-01-05 08:54:49.95	359.43	45.99	-52.4	-53.9	13.9	0.00e+00	0	27	0	519045120	70	4430
2026-01-05 08:54:50.94	359.11	45.75	-52.9	-54.6	13.7	0.00e+00	0	27	0	522190848	71	4511
2026-01-05 08:54:51.93	358.79	45.50	-53.8	-55.8	13.1	0.00e+00	0	28	0	525336576	72	4910
2026-01-05 08:54:52.93	358.47	45.26	-54.9	-57.3	12.6	0.00e+00	0	28	0	528482304	74	5160
2026-01-05 08:54:53.91	358.17	45.02	-54.8	-57.2	12.6	0.00e+00	0	28	0	531628032	75	4839
2026-01-05 08:54:54.91	357.87	44.77	-54.0	-55.9	13.1	0.00e+00	0	27	0	533725184	74	4441
2026-01-05 08:54:55.89	357.57	44.53	-53.3	-55.0	13.6	0.00e+00	0	27	0	536870912	73	4228
2026-01-05 08:54:56.90	357.27	44.28	-52.5	-54.0	14.0	0.00e+00	0	28	0	540016640	71	4213
2026-01-05 08:54:57.89	356.98	44.04	-52.3	-53.8	14.1	0.00e+00	0	28	0	543162368	71	4111
2026-01-05 08:54:58.88	356.70	43.80	-51.7	-53.1	14.2	0.00e+00	0	28	0	546308096	69	4260
2026-01-05 08:54:59.87	356.42	43.56	-51.9	-53.4	14.0	0.00e+00	0	28	0	549453824	69	4398
2026-01-05 08:55:00.86	356.15	43.32	-52.7	-54.3	13.7	0.00e+00	0	28	0	552599552	70	4649
2026-01-05 08:55:01.85	355.87	43.09	-52.7	-54.3	13.8	0.00e+00	0	27	0	555745280	70	4650
2026-01-05 08:55:02.85	355.60	42.85	-52.9	-54.6	13.8	0.00e+00	0	27	0	558891008	71	4527
2026-01-05 08:55:03.84	355.34	42.61	-52.7	-54.3	13.9	0.00e+00	0	28	0	562036736	71	4362
2026-01-05 08:55:04.83	355.08	42.37	-52.6	-54.3	13.9	0.00e+00	0	27	0	565182464	71	4349
2026-01-05 08:55:05.82	354.83	42.14	-52.8	-54.5	13.8	0.00e+00	0	27	0	568328192	71	4454
2026-01-05 08:55:06.82	354.57	41.90	-52.7	-54.4	13.8	0.00e+00	0	27	0	571473920	71	4405
2026-01-05 08:55:07.81	354.32	41.67	-52.2	-53.7	14.1	0.00e+00	0	28	0	574619648	71	4098
2026-01-05 08:55:08.81	354.08	41.43	-51.4	-52.8	14.3	0.00e+00	0	28	0	577765376	69	4116
2026-01-05 08:55:09.80	353.84	41.20	-50.8	-52.2	14.5	0.00e+00	0	28	0	580911104	68	4053
2026-01-05 08:55:10.80	353.60	40.97	-50.4	-51.6	14.6	0.00e+00	0	28	0	584056832	67	4045
2026-01-05 08:55:11.80	353.36	40.74	-49.9	-51.2	14.6	0.00e+00	0	27	0	587202560	66	4053
2026-01-05 08:55:12.79	353.13	40.51	-50.1	-51.3	14.5	0.00e+00	0	27	0	590348288	66	4131
2026-01-05 08:55:13.78	352.90	40.28	-50.4	-51.7	14.3	0.00e+00	0	27	0	593494016	66	4337
2026-01-05 08:55:14.79	352.67	40.05	-51.0	-52.3	14.2	0.00e+00	0	27	0	596639744	67	4390
2026-01-05 08:55:15.78	352.45	39.82	-51.3	-52.7	14.2	0.00e+00	0	28	0	599785472	67	4565
2026-01-05 08:55:16.77	352.24	39.60	-51.3	-52.8	14.1	0.00e+00	0	28	0	602931200	67	4617
2026-01-05 08:55:17.76	352.02	39.37	-51.3	-52.7	14.2	0.00e+00	0	27	0	605028352	67	4565
2026-01-05 08:55:18.76	351.81	39.15	-51.4	-52.8	14.1	0.00e+00	0	28	0	608174080	67	4613
2026-01-05 08:55:19.76	351.60	38.92	-51.2	-52.6	14.2	0.00e+00	0	27	0	611319808	67	4537
2026-01-05 08:55:20.76	351.39	38.70	-51.2	-52.6	14.2	0.00e+00	0	28	0	614465536	67	4523
2026-01-05 08:55:21.76	351.18	38.48	-51.3	-52.7	14.2	0.00e+00	0	27	0	617611264	67	4554
2026-01-05 08:55:22.75	350.98	38.26	-51.1	-52.5	14.3	0.00e+00	0	28	0	620756992	67	4469
2026-01-05 08:55:23.74	350.78	38.04	-51.1	-52.5	14.2	0.00e+00	0	28	0	623902720	67	4492
2026-01-05 08:55:24.74	350.59	37.82	-50.7	-52.1	14.4	0.00e+00	0	27	0	627048448	67	4271
2026-01-05 08:55:25.73	350.40	37.60	-50.2	-51.5	14.7	0.00e+00	0	28	0	630194176	67	3959
2026-01-05 08:55:26.73	350.20	37.39	-49.8	-51.1	14.7	0.00e+00	0	27	0	633339904	66	4011
2026-01-05 08:55:27.72	350.02	37.17	-49.7	-50.9	14.8	0.00e+00	0	27	0	636485632	66	3954
2026-01-05 08:55:28.71	349.83	36.96	-49.8	-51.0	14.7	0.00e+00	0	27	0	639631360	66	3985
2026-01-05 08:55:29.69	349.65	36.75	-50.1	-51.4	14.6	0.00e+00	0	27	0	642777088	66	4160
2026-01-05 08:55:30.69	349.47	36.54	-50.5	-51.9	14.4	0.00e+00	0	27	0	645922816	66	4400
2026-01-05 08:55:31.69	349.29	36.33	-50.7	-52.1	14.3	0.00e+00	0	27	0	649068544	66	4522
2026-01-05 08:55:32.68	349.12	36.12	-50.9	-52.3	14.3	0.00e+00	0	27	0	652214272	67	4378
2026-01-05 08:55:33.68	348.94	35.91	-50.9	-52.3	14.3	0.00e+00	0	27	0	655360000	67	4370
2026-01-05 08:55:34.68	348.77	35.70	-50.8	-52.2	14.3	0.00e+00	0	27	0	658505728	67	4329
2026-01-05 08:55:35.68	348.60	35.49	-50.6	-51.9	14.4	0.00e+00	0	27	0	661651456	67	4188
2026-01-05 08:55:36.67	348.43	35.29	-50.6	-52.0	14.4	0.00e+00	0	27	0	664797184	67	4195
2026-01-05 08:55:37.66	348.27	35.08	-50.5	-51.8	14.5	0.00e+00	0	27	0	667942912	67	4117
2026-01-05 08:55:38.66	348.11	34.88	-50.2	-51.5	14.7	0.00e+00	0	27	0	671088640	67	3959
2026-01-05 08:55:39.67	347.94	34.67	-50.2	-51.4	14.5	0.00e+00	0	27	0	674234368	66	4192
2026-01-05 08:55:40.66	347.78	34.47	-50.0	-51.2	14.6	0.00e+00	0	27	0	677380096	66	4084
2026-01-05 08:55:41.65	347.63	34.27	-50.0	-51.2	14.6	0.00e+00	0	27	0	680525824	66	4086
2026-01-05 08:55:42.65	347.47	34.07	-49.9	-51.2	14.7	0.00e+00	0	27	0	683671552	66	4059
2026-01-05 08:55:43.65	347.32	33.87	-49.9	-51.2	14.7	0.00e+00	0	27	0	686817280	66	4066
2026-01-05 08:55:44.64	347.17	33.68	-49.9	-51.1	14.7	0.00e+00	0	27	0	689963008	66	4048
2026-01-05 08:55:45.64	347.02	33.48	-49.8	-51.0	14.7	0.00e+00	0	27	0	693108736	66	4004
2026-01-05 08:55:46.63	346.87	33.29	-49.5	-50.7	14.7	0.00e+00	0	27	0	696254464	65	4093
2026-01-05 08:55:47.63	346.73	33.09	-49.6	-50.8	14.7	0.00e+00	0	27	0	699400192	65	4108
2026-01-05 08:55:48.63	346.58	32.90	-49.5	-50.7	14.7	0.00e+00	0	27	0	702545920	65	4087
2026-01-05 08:55:49.63	346.44	32.70	-49.6	-50.8	14.7	0.00e+00	0	27	0	705691648	65	4128
2026-01-05 08:55:50.63	346.30	32.51	-49.6	-50.8	14.7	0.00e+00	0	27	0	708837376	65	4122
2026-01-05 08:55:51.61	346.16	32.33	-49.7	-50.9	14.6	0.00e+00	0	27	0	710934528	65	4173
2026-01-05 08:55:52.61	346.02	32.14	-49.6	-50.9	14.7	0.00e+00	0	27	0	714080256	65	4147
2026-01-05 08:55:53.60	345.89	31.95	-49.6	-50.9	14.6	0.00e+00	0	27	0	717225984	65	4150
2026-01-05 08:55:54.59	345.76	31.76	-49.5	-50.7	14.7	0.00e+00	0	27	0	720371712	65	4066
2026-01-05 08:55:55.58	345.62	31.58	-49.3	-50.5	14.8	0.00e+00	0	27	0	723517440	65	3987
2026-01-05 08:55:56.58	345.49	31.39	-49.3	-50.5	14.8	0.00e+00	0	27	0	726663168	65	3977
2026-01-05 08:55:57.57	345.36	31.21	-49.0	-50.2	14.8	0.00e+00	0	27	0	729808896	64	4075
2026-01-05 08:55:58.56	345.24	31.03	-49.1	-50.3	14.7	0.00e+00	0	27	0	732954624	64	4104
2026-01-05 08:55:59.55	345.11	30.85	-49.0	-50.2	14.8	0.00e+00	0	27	0	736100352	64	4068
2026-01-05 08:56:00.54	344.99	30.66	-49.1	-50.2	14.8	0.00e+00	0	28	0	739246080	64	4092
2026-01-05 08:56:01.53	344.86	30.49	-49.1	-50.3	14.7	0.00e+00	0	27	0	742391808	64	4119
2026-01-05 08:56:02.53	344.74	30.31	-49.3	-50.5	14.7	0.00e+00	0	27	0	745537536	64	4228
2026-01-05 08:56:03.53	344.62	30.13	-49.5	-50.7	14.6	0.00e+00	0	27	0	748683264	64	4325
2026-01-05 08:56:04.53	344.50	29.95	-49.6	-50.9	14.5	0.00e+00	0	27	0	751828992	64	4416
2026-01-05 08:56:05.52	344.38	29.77	-49.8	-51.1	14.5	0.00e+00	0	27	0	754974720	64	4519
2026-01-05 08:56:06.51	344.27	29.60	-49.9	-51.2	14.6	0.00e+00	0	27	0	758120448	65	4305
2026-01-05 08:56:07.51	344.15	29.42	-49.9	-51.2	14.5	0.00e+00	0	27	0	761266176	65	4308
2026-01-05 08:56:08.50	344.04	29.25	-49.9	-51.2	14.5	0.00e+00	0	27	0	764411904	65	4331
2026-01-05 08:56:09.50	343.93	29.08	-49.8	-51.1	14.6	0.00e+00	0	27	0	767557632	65	4248
2026-01-05 08:56:10.49	343.81	28.91	-49.8	-51.1	14.6	0.00e+00	0	27	0	770703360	65	4247
2026-01-05 08:56:11.48	343.71	28.74	-49.7	-51.0	14.6	0.00e+00	0	27	0	773849088	65	4194
2026-01-05 08:56:12.48	343.60	28.57	-49.6	-50.9	14.6	0.00e+00	0	27	0	776994816	65	4172
2026-01-05 08:56:13.47	343.49	28.40	-49.7	-50.9	14.6	0.00e+00	0	27	0	780140544	65	4188
2026-01-05 08:56:14.48	343.38	28.23	-49.7	-50.9	14.6	0.00e+00	0	27	0	783286272	65	4188
2026-01-05 08:56:15.47	343.28	28.06	-49.4	-50.6	14.7	0.00e+00	0	27	0	786432000	65	4042
2026-01-05 08:56:16.46	343.17	27.90	-49.2	-50.5	14.8	0.00e+00	0	27	0	788529152	65	3959
2026-01-05 08:56:17.45	343.07	27.73	-49.2	-50.4	14.8	0.00e+00	0	27	0	791674880	65	3956
2026-01-05 08:56:18.44	342.97	27.57	-48.9	-50.1	14.8	0.00e+00	0	27	0	794820608	64	4012
2026-01-05 08:56:19.43	342.87	27.41	-48.8	-50.0	14.8	0.00e+00	0	27	0	797966336	64	3992
2026-01-05 08:56:20.42	342.77	27.24	-48.9	-50.1	14.8	0.00e+00	0	27	0	801112064	64	4017
2026-01-05 08:56:21.42	342.67	27.08	-48.8	-49.9	14.9	0.00e+00	0	27	0	804257792	64	3952
2026-01-05 08:56:22.42	342.57	26.92	-48.7	-49.9	14.8	0.00e+00	0	27	0	807403520	63	4148
2026-01-05 08:56:23.42	342.47	26.76	-48.8	-50.0	14.7	0.00e+00	0	27	0	810549248	63	4221
2026-01-05 08:56:24.41	342.38	26.60	-48.8	-50.0	14.7	0.00e+00	0	27	0	813694976	63	4206
2026-01-05 08:56:25.39	342.28	26.44	-48.8	-50.0	14.7	0.00e+00	0	27	0	816840704	63	4228
2026-01-05 08:56:26.39	342.19	26.29	-48.8	-50.0	14.8	0.00e+00	0	27	0	819986432	63	4205
2026-01-05 08:56:27.39	342.09	26.13	-48.9	-50.0	14.7	0.00e+00	0	27	0	823132160	63	4241
2026-01-05 08:56:28.38	342.00	25.97	-48.9	-50.0	14.7	0.00e+00	0	27	0	826277888	63	4235
2026-01-05 08:56:29.38	341.91	25.82	-48.8	-50.0	14.7	0.00e+00	0	27	0	829423616	63	4204
2026-01-05 08:56:30.37	341.82	25.66	-48.7	-49.9	14.8	0.00e+00	0	27	0	832569344	63	4163
2026-01-05 08:56:31.36	341.73	25.51	-48.8	-50.0	14.7	0.00e+00	0	27	0	835715072	63	4196
2026-01-05 08:56:32.35	341.64	25.36	-48.8	-50.0	14.7	0.00e+00	0	27	0	838860800	63	4231
2026-01-05 08:56:33.34	341.56	25.21	-48.7	-49.9	14.8	0.00e+00	0	27	0	842006528	63	4173
2026-01-05 08:56:34.33	341.47	25.06	-48.6	-49.7	14.8	0.00e+00	0	28	0	845152256	63	4084
2026-01-05 08:56:35.33	341.38	24.91	-48.6	-49.7	14.8	0.00e+00	0	27	0	848297984	63	4095
2026-01-05 08:56:36.32	341.30	24.76	-48.5	-49.7	14.8	0.00e+00	0	27	0	851443712	63	4068
2026-01-05 08:56:37.32	341.22	24.61	-48.6	-49.7	14.8	0.00e+00	0	27	0	854589440	63	4081
2026-01-05 08:56:38.31	341.13	24.46	-48.7	-49.8	14.8	0.00e+00	0	27	0	857735168	63	4138
2026-01-05 08:56:39.29	341.05	24.32	-48.6	-49.8	14.8	0.00e+00	0	27	0	860880896	63	4108
2026-01-05 08:56:40.28	340.97	24.17	-48.7	-49.9	14.8	0.00e+00	0	27	0	862978048	63	4161
2026-01-05 08:56:41.28	340.89	24.02	-48.8	-50.0	14.7	0.00e+00	0	27	0	866123776	63	4200
2026-01-05 08:56:42.27	340.81	23.88	-48.9	-50.1	14.7	0.00e+00	0	27	0	869269504	63	4280
2026-01-05 08:56:43.25	340.73	23.74	-49.1	-50.3	14.6	0.00e+00	0	27	0	872415232	63	4353
2026-01-05 08:56:44.25	340.65	23.59	-49.2	-50.4	14.6	0.00e+00	0	27	0	875560960	63	4416
2026-01-05 08:56:45.24	340.57	23.45	-49.2	-50.5	14.6	0.00e+00	0	27	0	878706688	63	4446
2026-01-05 08:56:46.24	340.50	23.31	-49.3	-50.5	14.6	0.00e+00	0	27	0	881852416	63	4468
2026-01-05 08:56:47.24	340.42	23.17	-49.3	-50.5	14.6	0.00e+00	0	27	0	884998144	63	4461
2026-01-05 08:56:48.23	340.34	23.03	-49.2	-50.4	14.6	0.00e+00	0	27	0	888143872	63	4408
2026-01-05 08:56:49.23	340.27	22.89	-49.2	-50.4	14.6	0.00e+00	0	27	0	891289600	63	4433
2026-01-05 08:56:50.23	340.19	22.75	-49.2	-50.5	14.6	0.00e+00	0	27	0	894435328	63	4456
2026-01-05 08:56:51.23	340.12	22.61	-49.3	-50.6	14.5	0.00e+00	0	27	0	897581056	63	4511
2026-01-05 08:56:52.22	340.05	22.47	-49.3	-50.5	14.6	0.00e+00	0	27	0	900726784	63	4482
2026-01-05 08:56:53.21	339.98	22.33	-49.2	-50.5	14.6	0.00e+00	0	27	0	903872512	63	4452
2026-01-05 08:56:54.20	339.91	22.20	-49.3	-50.6	14.5	0.00e+00	0	27	0	907018240	63	4501
2026-01-05 08:56:55.20	339.83	22.06	-49.3	-50.5	14.6	0.00e+00	0	27	0	910163968	63	4470
2026-01-05 08:56:56.20	339.76	21.92	-49.3	-50.6	14.5	0.00e+00	0	27	0	913309696	63	4513
2026-01-05 08:56:57.20	339.69	21.79	-49.3	-50.5	14.6	0.00e+00	0	27	0	916455424	63	4481
2026-01-05 08:56:58.18	339.63	21.66	-49.2	-50.4	14.6	0.00e+00	0	27	0	919601152	63	4438
2026-01-05 08:56:59.18	339.56	21.52	-49.2	-50.4	14.6	0.00e+00	0	27	0	922746880	63	4426
2026-01-05 08:57:00.17	339.49	21.39	-49.2	-50.5	14.6	0.00e+00	0	27	0	925892608	63	4458
2026-01-05 08:57:01.16	339.42	21.26	-49.1	-50.3	14.6	0.00e+00	0	27	0	929038336	63	4388
2026-01-05 08:57:02.15	339.36	21.13	-49.1	-50.3	14.6	0.00e+00	0	27	0	932184064	63	4389
2026-01-05 08:57:03.14	339.29	21.00	-49.0	-50.3	14.7	0.00e+00	0	27	0	935329792	63	4341
2026-01-05 08:57:04.14	339.22	20.87	-49.0	-50.2	14.6	0.00e+00	0	27	0	938475520	63	4329
2026-01-05 08:57:05.13	339.16	20.74	-49.0	-50.2	14.7	0.00e+00	0	27	0	941621248	63	4296
2026-01-05 08:57:06.11	339.10	20.61	-49.0	-50.2	14.7	0.00e+00	0	27	0	943718400	63	4305
2026-01-05 08:57:07.10	339.03	20.49	-49.1	-50.4	14.6	0.00e+00	0	27	0	946864128	63	4398
2026-01-05 08:57:08.10	338.97	20.36	-48.9	-50.1	14.7	0.00e+00	0	27	0	950009856	63	4273
2026-01-05 08:57:09.09	338.91	20.23	-48.9	-50.1	14.7	0.00e+00	0	28	0	953155584	63	4283
2026-01-05 08:57:10.08	338.85	20.11	-49.0	-50.2	14.7	0.00e+00	0	27	0	956301312	63	4305
2026-01-05 08:57:11.08	338.78	19.98	-49.0	-50.3	14.6	0.00e+00	0	27	0	959447040	63	4353
2026-01-05 08:57:12.07	338.72	19.86	-49.1	-50.4	14.6	0.00e+00	0	28	0	962592768	63	4409
2026-01-05 08:57:13.06	338.66	19.73	-49.2	-50.4	14.6	0.00e+00	0	27	0	965738496	63	4435
2026-01-05 08:57:14.05	338.60	19.61	-49.2	-50.4	14.6	0.00e+00	0	27	0	968884224	63	4409
2026-01-05 08:57:15.05	338.54	19.49	-49.2	-50.4	14.6	0.00e+00	0	27	0	972029952	63	4429
2026-01-05 08:57:16.04	338.49	19.36	-49.3	-50.6	14.5	0.00e+00	0	27	0	975175680	63	4510
2026-01-05 08:57:17.03	338.43	19.24	-49.4	-50.6	14.5	0.00e+00	0	27	0	978321408	63	4541
2026-01-05 08:57:18.02	338.37	19.12	-49.4	-50.6	14.5	0.00e+00	0	27	0	981467136	63	4540
2026-01-05 08:57:19.02	338.31	19.00	-49.4	-50.6	14.6	0.00e+00	0	27	0	984612864	64	4287
2026-01-05 08:57:20.02	338.26	18.88	-49.5	-50.8	14.5	0.00e+00	0	27	0	987758592	64	4361
2026-01-05 08:57:21.01	338.20	18.76	-49.5	-50.8	14.5	0.00e+00	0	27	0	990904320	64	4356
2026-01-05 08:57:22.01	338.14	18.64	-49.5	-50.8	14.5	0.00e+00	0	27	0	994050048	64	4381
2026-01-05 08:57:22.99	338.09	18.52	-49.6	-50.8	14.5	0.00e+00	0	27	0	997195776	64	4383
2026-01-05 08:57:23.99	338.03	18.40	-49.5	-50.8	14.5	0.00e+00	0	27	0	1000341504	64	4372
2026-01-05 08:57:24.98	337.98	18.29	-49.6	-50.8	14.5	0.00e+00	0	27	0	1003487232	64	4387
2026-01-05 08:57:25.97	337.92	18.17	-49.6	-50.9	14.5	0.00e+00	0	27	0	1006632960	64	4437
2026-01-05 08:57:26.97	337.87	18.05	-49.6	-50.9	14.5	0.00e+00	0	27	0	1009778688	64	4421
2026-01-05 08:57:27.96	337.82	17.94	-49.6	-50.9	14.5	0.00e+00	0	27	0	1012924416	64	4435
2026-01-05 08:57:28.96	337.76	17.82	-49.7	-51.0	14.5	0.00e+00	0	27	0	1015021568	64	4447
2026-01-05 08:57:29.95	337.71	17.70	-49.9	-51.2	14.4	0.00e+00	0	27	0	1018167296	64	4556
2026-01-05 08:57:30.94	337.66	17.59	-49.6	-50.9	14.5	0.00e+00	0	27	0	1021313024	64	4430
2026-01-05 08:57:31.94	337.61	17.48	-49.6	-50.9	14.5	0.00e+00	0	27	0	1024458752	64	4438
2026-01-05 08:57:32.93	337.56	17.36	-49.6	-50.9	14.5	0.00e+00	0	27	0	1027604480	64	4432
2026-01-05 08:57:33.92	337.51	17.25	-49.8	-51.1	14.4	0.00e+00	0	27	0	1030750208	64	4499
2026-01-05 08:57:34.92	337.46	17.14	-49.7	-51.0	14.4	0.00e+00	0	27	0	1033895936	64	4465
2026-01-05 08:57:35.91	337.41	17.03	-49.7	-51.0	14.4	0.00e+00	0	27	0	1037041664	64	4474
2026-01-05 08:57:36.90	337.36	16.91	-49.8	-51.1	14.4	0.00e+00	0	27	0	1040187392	64	4500
2026-01-05 08:57:37.89	337.31	16.80	-49.8	-51.2	14.4	0.00e+00	0	27	0	1043333120	64	4552
2026-01-05 08:57:38.89	337.26	16.69	-50.0	-51.3	14.4	0.00e+00	0	27	0	1046478848	65	4372
2026-01-05 08:57:39.88	337.21	16.58	-50.0	-51.3	14.4	0.00e+00	0	27	0	1049624576	65	4359
2026-01-05 08:57:40.87	337.16	16.47	-50.0	-51.3	14.4	0.00e+00	0	27	0	1052770304	65	4363
2026-01-05 08:57:41.87	337.12	16.36	-49.9	-51.3	14.4	0.00e+00	0	27	0	1055916032	65	4360
2026-01-05 08:57:42.87	337.07	16.25	-49.9	-51.2	14.5	0.00e+00	0	27	0	1059061760	65	4324
2026-01-05 08:57:43.87	337.02	16.15	-49.9	-51.3	14.4	0.00e+00	0	27	0	1062207488	65	4359
2026-01-05 08:57:44.86	336.98	16.04	-50.0	-51.3	14.4	0.00e+00	0	27	0	1065353216	65	4369
2026-01-05 08:57:45.86	336.93	15.93	-50.0	-51.3	14.4	0.00e+00	0	28	0	1068498944	65	4366
2026-01-05 08:57:46.85	336.88	15.82	-50.0	-51.4	14.4	0.00e+00	0	27	0	1071644672	65	4400
2026-01-05 08:57:47.85	336.84	15.72	-50.0	-51.4	14.4	0.00e+00	0	27	0	1074790400	65	4410
2026-01-05 08:57:48.85	336.79	15.61	-50.2	-51.5	14.3	0.00e+00	0	27	0	1077936128	65	4478
2026-01-05 08:57:49.84	336.75	15.50	-50.2	-51.6	14.3	0.00e+00	0	27	0	1081081856	65	4495
2026-01-05 08:57:50.83	336.70	15.40	-50.0	-51.4	14.4	0.00e+00	0	27	0	1084227584	65	4411
2026-01-05 08:57:51.82	336.66	15.30	-50.0	-51.3	14.4	0.00e+00	0	28	0	1087373312	65	4367
2026-01-05 08:57:52.82	336.62	15.19	-50.0	-51.4	14.4	0.00e+00	0	27	0	1090519040	65	4417
2026-01-05 08:57:53.81	336.57	15.09	-50.0	-51.4	14.4	0.00e+00	0	27	0	1093664768	65	4408
2026-01-05 08:57:54.80	336.53	14.98	-49.9	-51.2	14.4	0.00e+00	0	27	0	1096810496	65	4340
2026-01-05 08:57:55.79	336.49	14.88	-49.9	-51.3	14.4	0.00e+00	0	27	0	1098907648	65	4343
2026-01-05 08:57:56.79	336.45	14.78	-49.9	-51.2	14.4	0.00e+00	0	27	0	1102053376	65	4336
2026-01-05 08:57:57.78	336.40	14.68	-49.9	-51.2	14.4	0.00e+00	0	27	0	1105199104	65	4323
2026-01-05 08:57:58.78	336.36	14.57	-49.9	-51.2	14.4	0.00e+00	0	27	0	1108344832	65	4340
2026-01-05 08:57:59.77	336.32	14.47	-49.8	-51.1	14.5	0.00e+00	0	27	0	1111490560	65	4290
2026-01-05 08:58:00.77	336.28	14.37	-49.9	-51.2	14.4	0.00e+00	0	27	0	1114636288	65	4324
2026-01-05 08:58:01.76	336.24	14.27	-49.9	-51.3	14.4	0.00e+00	0	27	0	1117782016	65	4348
2026-01-05 08:58:02.75	336.20	14.17	-49.8	-51.1	14.5	0.00e+00	0	28	0	1120927744	65	4264
2026-01-05 08:58:03.73	336.16	14.07	-49.8	-51.1	14.5	0.00e+00	0	27	0	1124073472	65	4286
2026-01-05 08:58:04.72	336.12	13.97	-49.8	-51.1	14.5	0.00e+00	0	27	0	1127219200	65	4270
2026-01-05 08:58:05.71	336.08	13.88	-49.8	-51.2	14.5	0.00e+00	0	28	0	1130364928	65	4292
2026-01-05 08:58:06.70	336.04	13.78	-49.8	-51.2	14.4	0.00e+00	0	27	0	1133510656	65	4297
2026-01-05 08:58:07.69	336.00	13.68	-49.9	-51.2	14.4	0.00e+00	0	27	0	1136656384	65	4302
2026-01-05 08:58:08.68	335.96	13.58	-49.9	-51.2	14.4	0.00e+00	0	27	0	1139802112	65	4307
2026-01-05 08:58:09.68	335.92	13.48	-49.9	-51.2	14.4	0.00e+00	0	27	0	1142947840	65	4315
2026-01-05 08:58:10.68	335.89	13.39	-49.9	-51.2	14.4	0.00e+00	0	27	0	1146093568	65	4323
2026-01-05 08:58:11.68	335.85	13.29	-49.8	-51.1	14.5	0.00e+00	0	27	0	1149239296	65	4280
2026-01-05 08:58:12.67	335.81	13.19	-49.9	-51.3	14.4	0.00e+00	0	27	0	1152385024	65	4342
2026-01-05 08:58:13.66	335.77	13.10	-50.0	-51.3	14.4	0.00e+00	0	27	0	1155530752	65	4375
2026-01-05 08:58:14.65	335.74	13.00	-49.9	-51.3	14.4	0.00e+00	0	27	0	1158676480	65	4361
2026-01-05 08:58:15.64	335.70	12.91	-49.9	-51.3	14.4	0.00e+00	0	27	0	1161822208	65	4356
2026-01-05 08:58:16.63	335.66	12.81	-49.9	-51.3	14.4	0.00e+00	0	27	0	1164967936	65	4367
2026-01-05 08:58:17.63	335.63	12.72	-50.0	-51.4	14.3	0.00e+00	0	27	0	1168113664	65	4430
2026-01-05 08:58:18.62	335.59	12.62	-50.0	-51.4	14.3	0.00e+00	0	27	0	1171259392	65	4418
2026-01-05 08:58:19.62	335.55	12.53	-50.0	-51.4	14.3	0.00e+00	0	27	0	1174405120	65	4394
2026-01-05 08:58:20.61	335.52	12.44	-49.9	-51.3	14.4	0.00e+00	0	27	0	1176502272	65	4364
2026-01-05 08:58:21.60	335.48	12.34	-50.1	-51.4	14.3	0.00e+00	0	27	0	1179648000	65	4436
2026-01-05 08:58:22.59	335.45	12.25	-50.0	-51.4	14.3	0.00e+00	0	27	0	1182793728	65	4401
2026-01-05 08:58:23.58	335.41	12.16	-50.1	-51.5	14.3	0.00e+00	0	27	0	1185939456	65	4457
2026-01-05 08:58:24.58	335.38	12.07	-50.1	-51.5	14.3	0.00e+00	0	28	0	1189085184	65	4457
2026-01-05 08:58:25.58	335.34	11.97	-50.1	-51.5	14.3	0.00e+00	0	27	0	1192230912	65	4460
2026-01-05 08:58:26.57	335.31	11.88	-50.2	-51.6	14.2	0.00e+00	0	27	0	1195376640	65	4516
2026-01-05 08:58:27.56	335.28	11.79	-50.1	-51.5	14.3	0.00e+00	0	27	0	1198522368	65	4493
2026-01-05 08:58:28.55	335.24	11.70	-50.1	-51.5	14.2	0.00e+00	0	27	0	1201668096	65	4473
2026-01-05 08:58:29.54	335.21	11.61	-50.1	-51.5	14.3	0.00e+00	0	27	0	1204813824	65	4492
2026-01-05 08:58:30.53	335.18	11.52	-50.2	-51.6	14.2	0.00e+00	0	27	0	1207959552	65	4504
2026-01-05 08:58:31.53	335.14	11.43	-50.1	-51.5	14.2	0.00e+00	0	27	0	1211105280	65	4477
2026-01-05 08:58:32.52	335.11	11.34	-50.2	-51.6	14.2	0.00e+00	0	27	0	1214251008	65	4511
2026-01-05 08:58:33.52	335.08	11.25	-50.3	-51.7	14.2	0.00e+00	0	27	0	1217396736	65	4572
2026-01-05 08:58:34.51	335.05	11.16	-50.2	-51.6	14.2	0.00e+00	0	27	0	1220542464	65	4537
2026-01-05 08:58:35.50	335.01	11.08	-50.3	-51.7	14.2	0.00e+00	0	27	0	1223688192	65	4565
2026-01-05 08:58:36.50	334.98	10.99	-50.2	-51.7	14.2	0.00e+00	0	27	0	1226833920	65	4554
2026-01-05 08:58:37.49	334.95	10.90	-50.2	-51.7	14.2	0.00e+00	0	28	0	1229979648	65	4548
2026-01-05 08:58:38.48	334.92	10.81	-50.4	-51.8	14.2	0.00e+00	0	27	0	1233125376	65	4627
2026-01-05 08:58:39.48	334.89	10.72	-50.5	-51.9	14.2	0.00e+00	0	27	0	1236271104	66	4413
2026-01-05 08:58:40.48	334.86	10.64	-50.4	-51.8	14.2	0.00e+00	0	27	0	1239416832	66	4365
2026-01-05 08:58:41.47	334.83	10.55	-50.4	-51.8	14.2	0.00e+00	0	27	0	1242562560	66	4373
2026-01-05 08:58:42.46	334.80	10.46	-50.4	-51.8	14.2	0.00e+00	0	27	0	1245708288	66	4359
2026-01-05 08:58:43.46	334.77	10.38	-50.5	-52.0	14.2	0.00e+00	0	27	0	1248854016	66	4448
2026-01-05 08:58:44.45	334.74	10.29	-50.3	-51.8	14.3	0.00e+00	0	27	0	1250951168	66	4350
2026-01-05 08:58:45.45	334.71	10.21	-50.4	-51.8	14.2	0.00e+00	0	27	0	1254096896	66	4361
2026-01-05 08:58:46.44	334.68	10.12	-50.5	-51.9	14.2	0.00e+00	0	27	0	1257242624	66	4429
2026-01-05 08:58:47.43	334.65	10.04	-50.4	-51.9	14.2	0.00e+00	0	27	0	1260388352	66	4406
2026-01-05 08:58:48.43	334.62	9.95	-50.4	-51.9	14.2	0.00e+00	0	27	0	1263534080	66	4415
2026-01-05 08:58:49.42	334.59	9.87	-50.5	-51.9	14.2	0.00e+00	0	27	0	1266679808	66	4419
2026-01-05 08:58:50.42	334.56	9.78	-50.6	-52.1	14.1	0.00e+00	0	27	0	1269825536	66	4505
2026-01-05 08:58:51.41	334.53	9.70	-50.4	-51.8	14.2	0.00e+00	0	27	0	1272971264	66	4382
2026-01-05 08:58:52.42	334.50	9.61	-50.4	-51.8	14.2	0.00e+00	0	27	0	1276116992	66	4379
2026-01-05 08:58:53.41	334.47	9.53	-50.5	-51.9	14.2	0.00e+00	0	27	0	1279262720	66	4432
2026-01-05 08:58:54.41	334.44	9.45	-50.5	-51.9	14.2	0.00e+00	0	27	0	1282408448	66	4437
2026-01-05 08:58:55.40	334.42	9.36	-50.6	-52.0	14.1	0.00e+00	0	27	0	1285554176	66	4493
2026-01-05 08:58:56.39	334.39	9.28	-50.6	-52.1	14.1	0.00e+00	0	27	0	1288699904	66	4495
2026-01-05 08:58:57.39	334.36	9.20	-50.5	-52.0	14.1	0.00e+00	0	28	0	1291845632	66	4477
2026-01-05 08:58:58.39	334.33	9.12	-50.6	-52.1	14.1	0.00e+00	0	27	0	1294991360	66	4508
2026-01-05 08:58:59.38	334.31	9.04	-50.4	-51.9	14.2	0.00e+00	0	27	0	1298137088	66	4421
2026-01-05 08:59:00.38	334.28	8.95	-50.5	-52.0	14.1	0.00e+00	0	27	0	1301282816	66	4456
2026-01-05 08:59:01.36	334.25	8.87	-50.6	-52.1	14.1	0.00e+00	0	27	0	1304428544	66	4523
2026-01-05 08:59:02.36	334.22	8.79	-50.6	-52.1	14.1	0.00e+00	0	27	0	1307574272	66	4508
2026-01-05 08:59:03.35	334.20	8.71	-50.6	-52.1	14.1	0.00e+00	0	27	0	1310720000	66	4517
2026-01-05 08:59:04.34	334.17	8.63	-50.7	-52.2	14.0	0.00e+00	0	27	0	1313865728	66	4574
2026-01-05 08:59:05.32	334.15	8.55	-50.6	-52.1	14.1	0.00e+00	0	28	0	1317011456	66	4516
2026-01-05 08:59:06.32	334.12	8.47	-50.7	-52.2	14.0	0.00e+00	0	27	0	1320157184	66	4580
2026-01-05 08:59:07.31	334.09	8.39	-50.6	-52.1	14.0	0.00e+00	0	27	0	1323302912	66	4522
2026-01-05 08:59:08.31	334.07	8.31	-50.6	-52.1	14.0	0.00e+00	0	27	0	1326448640	66	4543
2026-01-05 08:59:09.30	334.04	8.23	-50.7	-52.2	14.0	0.00e+00	0	27	0	1329594368	66	4576
2026-01-05 08:59:10.30	334.02	8.15	-50.7	-52.2	14.0	0.00e+00	0	27	0	1332740096	66	4586
2026-01-05 08:59:11.30	333.99	8.07	-50.6	-52.2	14.0	0.00e+00	0	27	0	1334837248	66	4546
2026-01-05 08:59:12.29	333.97	8.00	-50.7	-52.3	14.0	0.00e+00	0	27	0	1337982976	66	4600
2026-01-05 08:59:13.28	333.94	7.92	-49.9	-52.3	14.1	0.00e+00	0	27	0	1341128704	66	4609
2026-01-05 08:59:14.27	333.92	7.84	-50.8	-52.3	13.9	0.00e+00	0	27	0	1344274432	66	4650
2026-01-05 08:59:15.27	333.89	7.76	-50.7	-52.2	14.0	0.00e+00	0	27	0	1347420160	66	4568
2026-01-05 08:59:16.26	333.87	7.68	-50.7	-52.2	14.0	0.00e+00	0	27	0	1350565888	66	4579
2026-01-05 08:59:17.26	333.84	7.61	-50.8	-52.3	13.9	0.00e+00	0	27	0	1353711616	66	4636
2026-01-05 08:59:18.26	333.82	7.53	-50.7	-52.2	14.0	0.00e+00	0	27	0	1356857344	66	4598
2026-01-05 08:59:19.26	333.79	7.45	-50.7	-52.2	13.9	0.00e+00	0	28	0	1360003072	66	4598
2026-01-05 08:59:20.25	333.77	7.38	-50.8	-52.4	13.9	0.00e+00	0	27	0	1363148800	66	4662
2026-01-05 08:59:21.25	333.75	7.30	-50.9	-52.5	14.0	0.00e+00	0	27	0	1366294528	67	4446
2026-01-05 08:59:22.23	333.72	7.22	-50.8	-52.3	14.0	0.00e+00	0	27	0	1369440256	67	4384
2026-01-05 08:59:23.22	333.70	7.15	-50.8	-52.3	14.0	0.00e+00	0	27	0	1372585984	67	4385
2026-01-05 08:59:24.21	333.68	7.07	-50.9	-52.5	13.9	0.00e+00	0	28	0	1375731712	67	4464
2026-01-05 08:59:25.21	333.65	7.00	-50.9	-52.5	13.9	0.00e+00	0	27	0	1378877440	67	4444
2026-01-05 08:59:26.20	333.63	6.92	-50.8	-52.4	14.0	0.00e+00	0	27	0	1382023168	67	4413
2026-01-05 08:59:27.20	333.61	6.85	-50.9	-52.4	13.9	0.00e+00	0	27	0	1385168896	67	4427
2026-01-05 08:59:28.19	333.58	6.77	-50.9	-52.5	13.9	0.00e+00	0	27	0	1388314624	67	4482
2026-01-05 08:59:29.19	333.56	6.70	-50.9	-52.4	13.9	0.00e+00	0	27	0	1391460352	67	4439
2026-01-05 08:59:30.18	333.54	6.62	-51.0	-52.6	13.9	0.00e+00	0	27	0	1394606080	67	4508
2026-01-05 08:59:31.18	333.52	6.55	-50.9	-52.5	13.9	0.00e+00	0	27	0	1397751808	67	4464
2026-01-05 08:59:32.17	333.49	6.47	-51.0	-52.6	13.9	0.00e+00	0	27	0	1400897536	67	4499
2026-01-05 08:59:33.15	333.47	6.40	-51.0	-52.6	13.8	0.00e+00	0	27	0	1404043264	67	4541
2026-01-05 08:59:34.15	333.45	6.33	-51.1	-52.7	13.8	0.00e+00	0	27	0	1407188992	67	4555
2026-01-05 08:59:35.15	333.43	6.25	-51.1	-52.7	13.8	0.00e+00	0	27	0	1410334720	67	4590
2026-01-05 08:59:36.14	333.41	6.18	-51.1	-52.8	13.8	0.00e+00	0	27	0	1413480448	67	4615
2026-01-05 08:59:37.14	333.38	6.10	-51.1	-52.8	13.8	0.00e+00	0	27	0	1416626176	67	4613
2026-01-05 08:59:38.14	333.36	6.03	-51.3	-52.9	13.7	0.00e+00	0	27	0	1419771904	67	4701
2026-01-05 08:59:39.13	333.34	5.96	-51.1	-52.8	13.7	0.00e+00	0	28	0	1421869056	67	4629
2026-01-05 08:59:40.13	333.32	5.89	-51.2	-52.8	13.7	0.00e+00	0	27	0	1425014784	67	4651
2026-01-05 08:59:41.13	333.30	5.81	-51.2	-52.9	13.7	0.00e+00	0	27	0	1428160512	67	4692
2026-01-05 08:59:42.13	333.28	5.74	-51.4	-53.1	13.6	0.00e+00	0	27	0	1431306240	67	4766
2026-01-05 08:59:43.13	333.26	5.67	-51.4	-53.1	13.6	0.00e+00	0	27	0	1434451968	67	4770
2026-01-05 08:59:44.12	333.24	5.60	-51.4	-53.1	13.6	0.00e+00	0	27	0	1437597696	67	4783
2026-01-05 08:59:45.12	333.22	5.53	-51.3	-53.0	13.6	0.00e+00	0	28	0	1440743424	67	4726
2026-01-05 08:59:46.11	333.19	5.45	-51.5	-53.2	13.6	0.00e+00	0	27	0	1443889152	68	4589
2026-01-05 08:59:47.11	333.17	5.38	-51.4	-53.1	13.7	0.00e+00	0	27	0	1447034880	68	4542
2026-01-05 08:59:48.10	333.15	5.31	-51.5	-53.3	13.6	0.00e+00	0	27	0	1450180608	68	4613
2026-01-05 08:59:49.09	333.13	5.24	-51.6	-53.3	13.6	0.00e+00	0	27	0	1453326336	68	4632
2026-01-05 08:59:50.09	333.11	5.17	-51.7	-53.5	13.5	0.00e+00	0	27	0	1456472064	68	4719
2026-01-05 08:59:51.09	333.09	5.10	-51.7	-53.5	13.5	0.00e+00	0	27	0	1459617792	68	4749
2026-01-05 08:59:52.08	333.07	5.03	-51.8	-53.6	13.4	0.00e+00	0	27	0	1462763520	68	4784
2026-01-05 08:59:53.08	333.05	4.96	-58.4	-69.9	3.9	3.76e-01	2	27	104	1465909248	81	14794
2026-01-05 08:59:54.09	333.03	4.89	-59.2	-73.0	3.8	1.49e+00	0	27	104	1465909248	83	18785
2026-01-05 08:59:55.09	333.02	4.82	-59.7	-73.5	3.8	1.49e+00	0	27	104	1465909248	84	18903
2026-01-05 08:59:56.10	333.00	4.75	-60.0	-73.8	3.8	1.49e+00	0	27	104	1465909248	85	18412
2026-01-05 08:59:57.11	332.98	4.68	-60.2	-74.0	3.8	1.49e+00	0	27	104	1465909248	85	18819
2026-01-05 08:59:58.11	332.96	4.61	-60.3	-74.1	3.8	1.49e+00	0	27	104	1465909248	85	19148
2026-01-05 08:59:59.11	332.94	4.54	-60.5	-74.3	3.8	1.49e+00	0	27	104	1465909248	86	18478
2026-01-05 09:00:00.11	332.92	4.47	-60.6	-74.4	3.8	1.49e+00	0	27	104	1465909248	86	18679
2026-01-05 09:00:01.11	332.90	4.40	-60.7	-74.5	3.8	1.49e+00	0	28	104	1465909248	86	18797
2026-01-05 09:00:02.11	332.88	4.33	-60.7	-74.6	3.8	1.49e+00	0	27	104	1465909248	86	18992
2026-01-05 09:00:03.12	332.86	4.26	-60.8	-74.6	3.8	1.49e+00	0	28	104	1465909248	86	19094
2026-01-05 09:00:04.12	332.84	4.19	-60.8	-74.7	3.8	1.49e+00	0	27	104	1465909248	86	19197
2026-01-05 09:00:05.13	332.83	4.12	-60.9	-74.7	3.8	1.49e+00	0	28	104	1465909248	86	19335
2026-01-05 09:00:06.13	332.81	4.06	-60.9	-74.7	3.8	1.49e+00	0	28	104	1465909248	86	19360
2026-01-05 09:00:07.14	332.79	3.99	-60.9	-74.8	3.8	1.49e+00	0	28	104	1465909248	87	18394
2026-01-05 09:00:08.15	332.77	3.92	-61.0	-74.8	3.8	1.49e+00	0	28	104	1465909248	87	18412
2026-01-05 09:00:09.15	332.75	3.85	-60.9	-74.8	3.8	1.49e+00	0	28	104	1465909248	87	18419
2026-01-05 09:00:10.15	332.73	3.78	-61.0	-74.8	3.8	1.49e+00	0	27	104	1465909248	87	18500
2026-01-05 09:00:11.15	332.72	3.72	-61.0	-74.9	3.8	1.49e+00	0	28	104	1465909248	87	18652
2026-01-05 09:00:12.15	332.70	3.65	-61.1	-74.9	3.8	1.49e+00	0	28	104	1465909248	87	18691
2026-01-05 09:00:13.15	332.68	3.58	-61.1	-74.9	3.8	1.49e+00	0	28	104	1465909248	87	18669
2026-01-05 09:00:14.16	332.66	3.51	-61.1	-74.9	3.8	1.49e+00	0	27	104	1465909248	87	18723
2026-01-05 09:00:15.16	332.65	3.45	-61.0	-74.9	3.8	1.49e+00	0	28	104	1465909248	87	18616
2026-01-05 09:00:16.16	332.63	3.38	-61.0	-74.9	3.8	1.49e+00	0	28	104	1465909248	87	18550
2026-01-05 09:00:17.16	332.61	3.31	-61.0	-74.8	3.8	1.49e+00	0	28	104	1465909248	87	18482
2026-01-05 09:00:18.16	332.59	3.25	-61.0	-74.9	3.8	1.49e+00	0	28	104	1465909248	87	18545
2026-01-05 09:00:19.15	332.58	3.18	-61.0	-74.8	3.8	1.49e+00	0	28	104	1465909248	87	18463
2026-01-05 09:00:20.14	332.56	3.12	-61.0	-74.8	3.8	1.49e+00	0	27	104	1465909248	87	18482
2026-01-05 09:00:21.15	332.54	3.05	-60.9	-74.8	3.8	1.49e+00	0	28	104	1465909248	87	18401
2026-01-05 09:00:22.14	332.53	2.99	-60.9	-74.8	3.8	1.49e+00	0	27	104	1465909248	87	18412
2026-01-05 09:00:23.13	332.51	2.92	-60.9	-74.8	3.8	1.49e+00	0	28	104	1465909248	87	18373
2026-01-05 09:00:24.12	332.49	2.86	-60.9	-74.8	3.8	1.49e+00	0	28	104	1465909248	87	18363
2026-01-05 09:00:25.11	332.48	2.79	-60.9	-74.8	3.8	1.49e+00	0	28	104	1465909248	87	18370
2026-01-05 09:00:26.10	332.46	2.73	-60.9	-74.8	3.8	1.49e+00	0	28	104	1465909248	87	18336
2026-01-05 09:00:27.10	332.45	2.66	-60.9	-74.7	3.8	1.49e+00	0	28	104	1465909248	87	18285
2026-01-05 09:00:28.09	332.43	2.60	-60.9	-74.7	3.8	1.49e+00	0	28	104	1465909248	87	18293
2026-01-05 09:00:29.09	332.41	2.53	-60.9	-74.7	3.8	1.49e+00	0	28	104	1465909248	87	18276
2026-01-05 09:00:30.09	332.40	2.47	-60.9	-74.7	3.8	1.49e+00	0	28	104	1465909248	87	18287
2026-01-05 09:00:31.08	332.38	2.41	-60.9	-74.7	3.8	1.49e+00	0	28	104	1465909248	87	18285
2026-01-05 09:00:32.07	332.37	2.34	-60.9	-74.7	3.8	1.49e+00	0	28	104	1465909248	87	18198
2026-01-05 09:00:33.06	332.35	2.28	-60.9	-74.7	3.8	1.49e+00	0	28	104	1465909248	87	18209
2026-01-05 09:00:34.05	332.33	2.22	-60.9	-74.7	3.8	1.49e+00	0	28	104	1465909248	87	18233
2026-01-05 09:00:35.05	332.32	2.15	-60.8	-74.7	3.8	1.49e+00	0	28	104	1465909248	87	18225
2026-01-05 09:00:36.04	332.30	2.09	-60.8	-74.7	3.8	1.49e+00	0	28	104	1465909248	87	18268
2026-01-05 09:00:37.03	332.29	2.03	-60.8	-74.7	3.8	1.49e+00	0	28	104	1465909248	87	18158
2026-01-05 09:00:38.03	332.27	1.96	-60.8	-74.7	3.8	1.49e+00	0	28	104	1465909248	87	18203
2026-01-05 09:00:39.03	332.26	1.90	-60.8	-74.7	3.8	1.49e+00	0	28	104	1465909248	87	18168

#Closed at: 2026-01-05 09:00:39
#Recorded file [1465 MB]: D:/lorett/data/31004_260105_115112.dat