passes_logs/2026/01/05/R3.2S_Murmansk/R3.2S_Murmansk__20260105_015927_FENGYUN_3D_rec.log

#Pass ID: 20260105_015927_FENGYUN 3D
#Satellite: FENGYUN 3D
#Configuration: FENGYUN 3D
#almurnet v.1.7.20251203
#Start time: 2026-01-05 01:59:29

#Version: 2.2.20231116
#Station: R3.2S_Murmansk
#Location: 33.079688 lon 68.888172 lat
#TLE: 1 43010U 17072A   26004.50247883 -.00000063  00000+0 -78815-5 0  9998
#TLE: 2 43010  98.9915 336.1565 0001968 126.3752 233.7605 14.19691805421760

#Time	Az	El	Level	Level2	SNR	BER	BlckErr	Temp	State	Recorded	gain1	gain2
2026-01-05 01:59:29.08	22.64	2.13	-58.2	-70.5	3.8	8.46e-01	0	26	0	0	83	14074
2026-01-05 01:59:30.08	22.67	2.19	-58.2	-70.8	3.8	8.46e-01	0	26	104	0	81	16362
2026-01-05 01:59:31.08	22.69	2.25	-58.2	-70.9	3.8	8.44e-01	0	26	104	0	81	16549
2026-01-05 01:59:32.07	22.72	2.31	-58.2	-70.8	3.8	8.45e-01	0	26	104	0	81	16427
2026-01-05 01:59:33.07	22.74	2.38	-58.2	-70.7	3.8	8.45e-01	0	26	104	0	81	16268
2026-01-05 01:59:34.07	22.77	2.44	-58.2	-70.5	3.8	8.45e-01	0	26	104	0	81	15922
2026-01-05 01:59:35.07	22.79	2.51	-58.2	-70.3	3.8	8.46e-01	0	26	104	0	81	15566
2026-01-05 01:59:36.07	22.82	2.57	-58.1	-69.9	3.8	8.45e-01	0	26	104	0	81	14823
2026-01-05 01:59:37.07	22.84	2.63	-58.1	-69.6	3.8	8.45e-01	0	26	104	0	81	14263
2026-01-05 01:59:38.06	22.87	2.70	-58.1	-69.1	4.0	8.45e-01	0	26	104	0	81	13491
2026-01-05 01:59:39.06	22.90	2.76	-58.0	-68.7	3.9	8.44e-01	0	26	104	0	81	12937
2026-01-05 01:59:40.05	22.92	2.83	-58.0	-68.5	3.9	8.41e-01	0	26	104	0	81	12604
2026-01-05 01:59:41.05	22.95	2.89	-58.0	-68.1	4.1	8.40e-01	0	26	0	0	81	12014
2026-01-05 01:59:42.04	22.98	2.95	-57.9	-67.8	4.2	8.38e-01	0	26	0	0	81	11574
2026-01-05 01:59:43.04	23.00	3.02	-57.9	-67.4	4.3	8.34e-01	0	26	0	0	81	11050
2026-01-05 01:59:44.04	23.03	3.08	-57.9	-67.2	4.3	8.29e-01	0	26	0	0	81	10831
2026-01-05 01:59:45.04	23.05	3.15	-57.8	-67.0	4.4	8.25e-01	0	26	0	0	81	10601
2026-01-05 01:59:46.03	23.08	3.21	-57.9	-67.2	4.3	8.26e-01	0	27	0	0	81	10804
2026-01-05 01:59:47.03	23.11	3.28	-57.8	-66.9	4.4	8.25e-01	0	26	0	0	81	10470
2026-01-05 01:59:48.03	23.14	3.34	-57.8	-66.6	4.5	8.13e-01	0	27	0	0	81	10082
2026-01-05 01:59:49.03	23.16	3.41	-57.7	-66.0	4.8	7.98e-01	0	26	0	0	81	9430
2026-01-05 01:59:50.03	23.19	3.48	-57.5	-64.9	5.3	7.54e-01	0	26	0	0	81	8360
2026-01-05 01:59:51.02	23.22	3.54	-57.3	-64.2	5.8	4.40e-01	0	26	0	3145728	81	7640
2026-01-05 01:59:52.02	23.24	3.61	-57.0	-63.0	6.6	2.18e-01	0	26	0	9437184	80	7084
2026-01-05 01:59:53.01	23.27	3.67	-56.7	-62.0	7.5	1.24e-01	0	27	0	14680064	80	6282
2026-01-05 01:59:54.01	23.30	3.74	-56.3	-60.8	8.5	3.23e-02	0	27	0	19922944	79	5815
2026-01-05 01:59:55.01	23.33	3.81	-55.8	-59.8	9.3	1.43e-02	0	27	0	26214400	78	5481
2026-01-05 01:59:56.01	23.35	3.87	-55.4	-59.0	10.0	3.41e-03	0	27	0	31457280	77	5295
2026-01-05 01:59:57.01	23.38	3.94	-55.0	-58.2	10.6	8.80e-04	0	27	0	36700160	76	5133
2026-01-05 01:59:58.01	23.41	4.01	-54.7	-57.8	10.9	3.18e-04	0	27	0	42991616	76	4878
2026-01-05 01:59:59.00	23.44	4.07	-54.4	-57.4	11.1	1.57e-04	0	27	0	48234496	75	4934
2026-01-05 02:00:00.01	23.47	4.14	-54.4	-57.3	11.2	1.07e-04	0	27	0	53477376	75	4875
2026-01-05 02:00:01.01	23.49	4.21	-54.3	-57.1	11.3	6.29e-05	0	27	0	59768832	75	4771
2026-01-05 02:00:02.00	23.52	4.28	-54.3	-57.1	11.3	3.31e-05	0	27	0	65011712	75	4771
2026-01-05 02:00:03.00	23.55	4.35	-54.3	-57.1	11.3	6.17e-05	0	27	0	71303168	75	4803
2026-01-05 02:00:04.00	23.58	4.41	-54.5	-57.5	11.0	8.12e-05	0	27	0	76546048	75	4991
2026-01-05 02:00:05.01	23.61	4.48	-54.7	-57.8	10.8	2.68e-04	0	27	0	81788928	75	5180
2026-01-05 02:00:06.00	23.64	4.55	-55.0	-58.4	10.3	7.52e-04	0	27	0	88080384	75	5544
2026-01-05 02:00:07.00	23.67	4.62	-55.2	-58.7	10.0	1.52e-03	0	27	0	93323264	75	5778
2026-01-05 02:00:08.00	23.70	4.69	-55.6	-59.4	9.6	3.40e-03	0	27	0	98566144	76	5878
2026-01-05 02:00:08.99	23.72	4.76	-55.8	-59.9	9.1	5.44e-03	0	27	0	104857600	76	6253
2026-01-05 02:00:09.99	23.75	4.83	-56.0	-60.2	8.9	1.43e-02	0	27	0	110100480	77	6068
2026-01-05 02:00:10.99	23.78	4.90	-56.2	-60.7	8.5	2.06e-02	0	27	0	115343360	77	6460
2026-01-05 02:00:11.98	23.81	4.96	-56.3	-61.0	8.2	3.29e-02	0	27	0	121634816	77	6693
2026-01-05 02:00:12.98	23.84	5.03	-56.6	-61.7	7.7	5.93e-02	0	27	0	126877696	78	6816
2026-01-05 02:00:13.98	23.87	5.10	-52.6	-54.6	12.9	0.00e+00	0	27	0	133169152	71	4522
2026-01-05 02:00:14.98	23.90	5.17	-54.7	-57.8	10.8	3.08e-05	0	27	0	138412032	74	5510
2026-01-05 02:00:15.98	23.93	5.24	-58.0	-69.0	3.9	2.83e-01	0	27	0	142606336	81	13388
2026-01-05 02:00:16.98	23.96	5.32	-53.0	-55.2	12.5	5.29e-04	0	27	0	144703488	72	4562
2026-01-05 02:00:17.98	23.99	5.39	-58.2	-68.4	4.1	1.97e-01	0	27	0	148897792	81	12501
2026-01-05 02:00:18.98	24.02	5.46	-52.9	-55.0	12.6	3.40e-06	0	27	0	152043520	72	4490
2026-01-05 02:00:19.97	24.05	5.53	-52.4	-54.4	13.0	0.00e+00	0	27	0	157286400	71	4397
2026-01-05 02:00:20.98	24.08	5.60	-51.7	-53.6	13.4	0.00e+00	0	27	0	163577856	70	4245
2026-01-05 02:00:21.97	24.11	5.67	-51.2	-52.9	13.8	0.00e+00	0	27	0	168820736	69	4162
2026-01-05 02:00:22.96	24.15	5.74	-50.9	-52.6	13.9	0.00e+00	0	27	0	174063616	68	4245
2026-01-05 02:00:23.95	24.18	5.81	-51.0	-52.7	13.8	0.00e+00	0	27	0	180355072	68	4302
2026-01-05 02:00:24.96	24.21	5.88	-50.5	-52.1	14.0	0.00e+00	0	27	0	185597952	67	4246
2026-01-05 02:00:25.96	24.24	5.96	-50.4	-51.9	14.1	0.00e+00	0	27	0	191889408	67	4172
2026-01-05 02:00:26.95	24.27	6.03	-50.5	-52.0	14.0	0.00e+00	0	27	0	197132288	67	4235
2026-01-05 02:00:27.95	24.30	6.10	-50.5	-52.0	14.0	0.00e+00	0	27	0	202375168	67	4231
2026-01-05 02:00:28.94	24.33	6.17	-50.4	-51.9	14.0	0.00e+00	0	27	0	208666624	67	4179
2026-01-05 02:00:29.95	24.36	6.25	-50.0	-51.5	14.2	0.00e+00	0	27	0	213909504	66	4207
2026-01-05 02:00:30.95	24.40	6.32	-50.1	-51.6	14.1	0.00e+00	0	27	0	219152384	66	4271
2026-01-05 02:00:31.96	24.43	6.39	-50.0	-51.4	14.2	0.00e+00	0	27	0	225443840	66	4191
2026-01-05 02:00:32.95	24.46	6.47	-49.8	-51.2	14.3	0.00e+00	0	27	0	230686720	66	4066
2026-01-05 02:00:33.95	24.49	6.54	-49.5	-50.9	14.4	0.00e+00	0	27	0	235929600	65	4164
2026-01-05 02:00:34.95	24.53	6.61	-49.6	-51.0	14.3	0.00e+00	0	27	0	242221056	65	4230
2026-01-05 02:00:35.95	24.56	6.69	-49.4	-50.8	14.4	0.00e+00	0	27	0	247463936	65	4117
2026-01-05 02:00:36.95	24.59	6.76	-49.3	-50.6	14.5	0.00e+00	0	27	0	253755392	65	4049
2026-01-05 02:00:37.95	24.62	6.84	-49.1	-50.4	14.4	0.00e+00	0	27	0	258998272	64	4191
2026-01-05 02:00:38.94	24.66	6.91	-49.1	-50.5	14.4	0.00e+00	0	27	0	264241152	64	4215
2026-01-05 02:00:39.95	24.69	6.99	-49.1	-50.5	14.4	0.00e+00	0	27	0	270532608	64	4206
2026-01-05 02:00:40.94	24.72	7.06	-49.2	-50.5	14.4	0.00e+00	0	27	0	275775488	64	4227
2026-01-05 02:00:41.94	24.76	7.14	-49.1	-50.4	14.5	0.00e+00	0	27	0	281018368	64	4168
2026-01-05 02:00:42.94	24.79	7.21	-48.9	-50.2	14.6	0.00e+00	0	27	0	287309824	64	4071
2026-01-05 02:00:43.93	24.83	7.29	-48.9	-50.3	14.5	0.00e+00	0	27	0	292552704	64	4108
2026-01-05 02:00:44.93	24.86	7.36	-48.8	-50.1	14.6	0.00e+00	0	27	0	297795584	64	4023
2026-01-05 02:00:45.93	24.89	7.44	-48.8	-50.1	14.6	0.00e+00	0	27	0	304087040	64	4038
2026-01-05 02:00:46.93	24.93	7.52	-48.7	-50.0	14.7	0.00e+00	0	27	0	309329920	64	3980
2026-01-05 02:00:47.92	24.96	7.59	-48.7	-50.0	14.6	0.00e+00	0	27	0	315621376	63	4197
2026-01-05 02:00:48.92	25.00	7.67	-48.7	-50.0	14.5	0.00e+00	0	27	0	320864256	63	4216
2026-01-05 02:00:49.93	25.03	7.75	-48.8	-50.1	14.5	0.00e+00	0	27	0	326107136	63	4258
2026-01-05 02:00:50.92	25.07	7.82	-48.7	-50.0	14.6	0.00e+00	0	27	0	331350016	63	4219
2026-01-05 02:00:51.92	25.10	7.90	-48.8	-50.1	14.5	0.00e+00	0	27	0	337641472	63	4251
2026-01-05 02:00:52.92	25.14	7.98	-48.7	-49.9	14.6	0.00e+00	0	27	0	342884352	63	4188
2026-01-05 02:00:53.92	25.17	8.06	-48.7	-50.0	14.6	0.00e+00	0	27	0	349175808	63	4210
2026-01-05 02:00:54.92	25.21	8.14	-48.6	-49.9	14.6	0.00e+00	0	27	0	354418688	63	4160
2026-01-05 02:00:55.91	25.24	8.21	-48.7	-49.9	14.6	0.00e+00	0	27	0	359661568	63	4188
2026-01-05 02:00:56.91	25.28	8.29	-48.6	-49.9	14.6	0.00e+00	0	27	0	365953024	63	4156
2026-01-05 02:00:57.91	25.32	8.37	-48.7	-49.9	14.6	0.00e+00	0	27	0	371195904	63	4193
2026-01-05 02:00:58.91	25.35	8.45	-48.7	-49.9	14.6	0.00e+00	0	27	0	376438784	63	4186
2026-01-05 02:00:59.91	25.39	8.53	-48.6	-49.9	14.6	0.00e+00	0	27	0	382730240	63	4169
2026-01-05 02:01:00.91	25.42	8.61	-48.7	-49.9	14.6	0.00e+00	0	27	0	387973120	63	4185
2026-01-05 02:01:01.92	25.46	8.69	-48.6	-49.8	14.7	0.00e+00	0	27	0	393216000	63	4134
2026-01-05 02:01:02.92	25.50	8.77	-48.7	-50.0	14.6	0.00e+00	0	27	0	399507456	63	4217
2026-01-05 02:01:03.92	25.54	8.85	-48.7	-49.9	14.6	0.00e+00	0	27	0	404750336	63	4182
2026-01-05 02:01:04.92	25.57	8.93	-48.6	-49.9	14.7	0.00e+00	0	27	0	411041792	63	4146
2026-01-05 02:01:05.92	25.61	9.02	-48.6	-49.8	14.7	0.00e+00	0	27	0	416284672	63	4129
2026-01-05 02:01:06.92	25.65	9.10	-48.7	-50.0	14.6	0.00e+00	0	28	0	421527552	63	4212
2026-01-05 02:01:07.92	25.69	9.18	-48.6	-49.9	14.7	0.00e+00	0	27	0	427819008	63	4166
2026-01-05 02:01:08.92	25.72	9.26	-48.7	-50.0	14.6	0.00e+00	0	28	0	433061888	63	4207
2026-01-05 02:01:09.93	25.76	9.34	-48.7	-50.0	14.6	0.00e+00	0	27	0	439353344	63	4219
2026-01-05 02:01:10.92	25.80	9.42	-48.7	-50.0	14.6	0.00e+00	0	27	0	444596224	63	4235
2026-01-05 02:01:11.91	25.84	9.51	-48.7	-49.9	14.6	0.00e+00	0	27	0	449839104	63	4188
2026-01-05 02:01:12.92	25.88	9.59	-48.7	-50.0	14.6	0.00e+00	0	27	0	455081984	63	4228
2026-01-05 02:01:13.92	25.92	9.67	-48.7	-49.9	14.6	0.00e+00	0	28	0	461373440	63	4186
2026-01-05 02:01:14.92	25.96	9.76	-48.6	-49.9	14.6	0.00e+00	0	27	0	466616320	63	4179
2026-01-05 02:01:15.92	26.00	9.84	-48.7	-50.0	14.6	0.00e+00	0	27	0	472907776	63	4216
2026-01-05 02:01:16.91	26.04	9.92	-48.6	-49.9	14.7	0.00e+00	0	28	0	478150656	63	4174
2026-01-05 02:01:17.91	26.08	10.01	-48.6	-49.9	14.7	0.00e+00	0	27	0	483393536	63	4150
2026-01-05 02:01:18.91	26.12	10.09	-48.6	-49.9	14.7	0.00e+00	0	27	0	489684992	63	4153
2026-01-05 02:01:19.90	26.16	10.18	-48.6	-49.9	14.7	0.00e+00	0	27	0	494927872	63	4167
2026-01-05 02:01:20.90	26.20	10.26	-48.6	-49.8	14.7	0.00e+00	0	27	0	500170752	63	4138
2026-01-05 02:01:21.91	26.24	10.35	-48.6	-49.8	14.7	0.00e+00	0	27	0	506462208	63	4133
2026-01-05 02:01:22.91	26.28	10.43	-48.7	-50.0	14.6	0.00e+00	0	27	0	511705088	63	4198
2026-01-05 02:01:23.91	26.32	10.52	-48.5	-49.7	14.8	0.00e+00	0	27	0	516947968	63	4077
2026-01-05 02:01:24.91	26.36	10.61	-48.5	-49.8	14.7	0.00e+00	0	27	0	523239424	63	4116
2026-01-05 02:01:25.92	26.40	10.69	-48.4	-49.7	14.8	0.00e+00	0	28	0	528482304	63	4067
2026-01-05 02:01:26.92	26.44	10.78	-48.3	-49.6	14.8	0.00e+00	0	27	0	534773760	63	4013
2026-01-05 02:01:27.93	26.49	10.87	-48.3	-49.5	14.9	0.00e+00	0	27	0	540016640	63	3968
2026-01-05 02:01:28.92	26.53	10.95	-48.2	-49.4	14.9	0.00e+00	0	28	0	545259520	63	3949
2026-01-05 02:01:29.92	26.57	11.04	-48.2	-49.4	14.9	0.00e+00	0	27	0	551550976	63	3950
2026-01-05 02:01:30.93	26.61	11.13	-48.1	-49.3	14.8	0.00e+00	0	28	0	556793856	62	4101
2026-01-05 02:01:31.93	26.66	11.22	-48.1	-49.3	14.8	0.00e+00	0	27	0	563085312	62	4107
2026-01-05 02:01:32.93	26.70	11.31	-47.9	-49.1	14.9	0.00e+00	0	27	0	568328192	62	4036
2026-01-05 02:01:33.93	26.74	11.40	-48.0	-49.2	14.9	0.00e+00	0	28	0	573571072	62	4056
2026-01-05 02:01:34.92	26.79	11.49	-47.8	-49.0	14.9	0.00e+00	0	28	0	578813952	62	3989
2026-01-05 02:01:35.92	26.83	11.58	-47.8	-49.0	14.9	0.00e+00	0	28	0	585105408	62	3996
2026-01-05 02:01:36.91	26.87	11.66	-47.8	-49.0	14.9	0.00e+00	0	28	0	590348288	62	3976
2026-01-05 02:01:37.91	26.92	11.75	-47.8	-48.9	15.0	0.00e+00	0	27	0	596639744	62	3950
2026-01-05 02:01:38.92	26.96	11.85	-47.8	-49.0	14.9	0.00e+00	0	27	0	601882624	62	3967
2026-01-05 02:01:39.92	27.01	11.94	-47.7	-48.9	15.0	0.00e+00	0	28	0	607125504	62	3937
2026-01-05 02:01:40.92	27.05	12.03	-47.8	-48.9	15.0	0.00e+00	0	28	0	613416960	62	3945
2026-01-05 02:01:41.91	27.10	12.12	-47.8	-49.0	14.9	0.00e+00	0	28	0	618659840	62	3959
2026-01-05 02:01:42.91	27.14	12.21	-47.7	-48.9	15.0	0.00e+00	0	28	0	623902720	62	3928
2026-01-05 02:01:43.91	27.19	12.30	-47.7	-48.9	15.0	0.00e+00	0	28	0	630194176	62	3945
2026-01-05 02:01:44.90	27.23	12.39	-47.7	-48.9	15.0	0.00e+00	0	27	0	635437056	62	3943
2026-01-05 02:01:45.89	27.28	12.49	-47.8	-49.0	15.0	0.00e+00	0	28	0	640679936	62	3970
2026-01-05 02:01:46.89	27.33	12.58	-47.9	-49.1	14.9	0.00e+00	0	28	0	646971392	62	4011
2026-01-05 02:01:47.89	27.37	12.67	-47.7	-48.9	15.0	0.00e+00	0	28	0	652214272	62	3936
2026-01-05 02:01:48.88	27.42	12.77	-47.8	-49.0	14.9	0.00e+00	0	28	0	658505728	62	3971
2026-01-05 02:01:49.87	27.47	12.86	-47.7	-48.9	15.0	0.00e+00	0	27	0	663748608	62	3934
2026-01-05 02:01:50.87	27.52	12.95	-47.7	-48.9	15.0	0.00e+00	0	28	0	668991488	62	3919
2026-01-05 02:01:51.87	27.56	13.05	-47.8	-48.9	14.9	0.00e+00	0	28	0	674234368	62	3957
2026-01-05 02:01:52.87	27.61	13.14	-47.7	-48.8	15.0	0.00e+00	0	28	0	680525824	62	3911
2026-01-05 02:01:53.86	27.66	13.24	-47.6	-48.8	14.9	0.00e+00	0	28	0	685768704	61	4118
2026-01-05 02:01:54.86	27.71	13.34	-47.6	-48.8	14.9	0.00e+00	0	27	0	691011584	61	4124
2026-01-05 02:01:55.87	27.76	13.43	-47.6	-48.8	14.9	0.00e+00	0	27	0	697303040	61	4110
2026-01-05 02:01:56.87	27.81	13.53	-47.7	-48.9	14.8	0.00e+00	0	28	0	702545920	61	4178
2026-01-05 02:01:57.87	27.86	13.63	-47.7	-48.9	14.8	0.00e+00	0	28	0	708837376	61	4175
2026-01-05 02:01:58.87	27.91	13.72	-47.6	-48.7	14.9	0.00e+00	0	27	0	714080256	61	4098
2026-01-05 02:01:59.87	27.96	13.82	-47.5	-48.7	14.9	0.00e+00	0	28	0	719323136	61	4057
2026-01-05 02:02:00.87	28.01	13.92	-47.5	-48.6	14.9	0.00e+00	0	28	0	725614592	61	4040
2026-01-05 02:02:01.87	28.06	14.02	-47.6	-48.7	14.9	0.00e+00	0	28	0	730857472	61	4084
2026-01-05 02:02:02.86	28.11	14.12	-47.5	-48.6	14.9	0.00e+00	0	28	0	736100352	61	4045
2026-01-05 02:02:03.86	28.16	14.22	-47.4	-48.5	15.0	0.00e+00	0	28	0	742391808	61	3999
2026-01-05 02:02:04.86	28.21	14.32	-47.4	-48.6	15.0	0.00e+00	0	27	0	747634688	61	4005
2026-01-05 02:02:05.86	28.26	14.42	-47.3	-48.4	15.0	0.00e+00	0	28	0	752877568	61	3947
2026-01-05 02:02:06.86	28.32	14.52	-47.3	-48.4	15.0	0.00e+00	0	28	0	759169024	61	3956
2026-01-05 02:02:07.86	28.37	14.62	-47.2	-48.3	15.1	0.00e+00	0	28	0	764411904	61	3894
2026-01-05 02:02:08.86	28.42	14.72	-47.2	-48.3	15.1	0.00e+00	0	28	0	770703360	61	3903
2026-01-05 02:02:09.86	28.48	14.82	-47.1	-48.2	15.0	0.00e+00	0	28	0	775946240	60	4090
2026-01-05 02:02:10.85	28.53	14.92	-47.1	-48.2	15.0	0.00e+00	0	28	0	781189120	60	4087
2026-01-05 02:02:11.86	28.58	15.03	-47.1	-48.2	15.0	0.00e+00	0	28	0	787480576	60	4062
2026-01-05 02:02:12.85	28.64	15.13	-47.1	-48.2	15.0	0.00e+00	0	28	0	792723456	60	4072
2026-01-05 02:02:13.85	28.69	15.23	-47.1	-48.2	15.0	0.00e+00	0	28	0	797966336	60	4079
2026-01-05 02:02:14.85	28.75	15.34	-47.1	-48.2	15.0	0.00e+00	0	28	0	804257792	60	4070
2026-01-05 02:02:15.85	28.80	15.44	-47.1	-48.2	15.0	0.00e+00	0	28	0	809500672	60	4080
2026-01-05 02:02:16.85	28.86	15.54	-47.1	-48.2	15.0	0.00e+00	0	28	0	814743552	60	4069
2026-01-05 02:02:17.85	28.92	15.65	-47.2	-48.3	14.9	0.00e+00	0	28	0	821035008	60	4126
2026-01-05 02:02:18.85	28.97	15.75	-47.1	-48.2	15.0	0.00e+00	0	28	0	826277888	60	4081
2026-01-05 02:02:19.85	29.03	15.86	-47.1	-48.3	14.9	0.00e+00	0	28	0	832569344	60	4100
2026-01-05 02:02:20.85	29.09	15.97	-47.1	-48.2	15.0	0.00e+00	0	28	0	837812224	60	4080
2026-01-05 02:02:21.84	29.14	16.07	-47.0	-48.2	15.0	0.00e+00	0	28	0	843055104	60	4061
2026-01-05 02:02:22.84	29.20	16.18	-47.0	-48.1	15.0	0.00e+00	0	28	0	849346560	60	4037
2026-01-05 02:02:23.84	29.26	16.29	-47.0	-48.1	15.0	0.00e+00	0	28	0	854589440	60	4030
2026-01-05 02:02:24.84	29.32	16.40	-46.9	-48.0	15.1	0.00e+00	0	28	0	859832320	60	3988
2026-01-05 02:02:25.83	29.38	16.50	-46.9	-48.0	15.1	0.00e+00	0	28	0	866123776	60	3985
2026-01-05 02:02:26.83	29.44	16.61	-46.8	-48.0	15.1	0.00e+00	0	28	0	871366656	60	3963
2026-01-05 02:02:27.83	29.50	16.72	-46.7	-47.8	15.1	0.00e+00	0	28	0	877658112	60	3891
2026-01-05 02:02:28.84	29.56	16.83	-47.0	-48.1	14.9	0.00e+00	0	28	0	882900992	59	4270
2026-01-05 02:02:29.83	29.62	16.94	-47.0	-48.2	14.9	0.00e+00	0	28	0	888143872	59	4304
2026-01-05 02:02:30.83	29.68	17.06	-47.0	-48.1	14.9	0.00e+00	0	27	0	894435328	59	4290
2026-01-05 02:02:31.82	29.74	17.17	-46.9	-48.1	14.9	0.00e+00	0	28	0	899678208	59	4248
2026-01-05 02:02:32.82	29.80	17.28	-47.0	-48.1	14.9	0.00e+00	0	28	0	904921088	59	4284
2026-01-05 02:02:33.83	29.87	17.39	-46.9	-48.0	15.0	0.00e+00	0	28	0	911212544	59	4210
2026-01-05 02:02:34.83	29.93	17.50	-46.8	-47.9	15.0	0.00e+00	0	28	0	916455424	59	4177
2026-01-05 02:02:35.83	29.99	17.62	-46.8	-47.9	15.0	0.00e+00	0	28	0	921698304	59	4192
2026-01-05 02:02:36.83	30.06	17.73	-46.8	-48.0	15.0	0.00e+00	0	28	0	927989760	59	4199
2026-01-05 02:02:37.83	30.12	17.85	-46.8	-48.0	15.0	0.00e+00	0	28	0	933232640	59	4201
2026-01-05 02:02:38.82	30.19	17.96	-46.8	-47.9	15.0	0.00e+00	0	28	0	938475520	59	4192
2026-01-05 02:02:39.83	30.25	18.08	-46.8	-47.9	15.0	0.00e+00	0	28	0	944766976	59	4185
2026-01-05 02:02:40.82	30.32	18.19	-46.8	-47.9	15.0	0.00e+00	0	28	0	950009856	59	4165
2026-01-05 02:02:41.82	30.38	18.31	-46.8	-47.9	15.0	0.00e+00	0	28	0	955252736	59	4183
2026-01-05 02:02:42.81	30.45	18.42	-46.7	-47.9	15.0	0.00e+00	0	28	0	961544192	59	4150
2026-01-05 02:02:43.81	30.52	18.54	-46.7	-47.8	15.0	0.00e+00	0	28	0	966787072	59	4135
2026-01-05 02:02:44.80	30.58	18.66	-46.7	-47.8	15.1	0.00e+00	0	28	0	972029952	59	4114
2026-01-05 02:02:45.80	30.65	18.78	-46.7	-47.8	15.0	0.00e+00	0	28	0	978321408	59	4137
2026-01-05 02:02:46.79	30.72	18.90	-46.7	-47.8	15.1	0.00e+00	0	28	0	983564288	59	4127
2026-01-05 02:02:47.78	30.79	19.01	-46.5	-47.6	15.1	0.00e+00	0	28	0	989855744	59	4037
2026-01-05 02:02:48.78	30.86	19.13	-46.5	-47.6	15.1	0.00e+00	0	28	0	995098624	59	4012
2026-01-05 02:02:49.78	30.93	19.25	-46.4	-47.6	15.1	0.00e+00	0	28	0	1000341504	59	4005
2026-01-05 02:02:50.77	31.00	19.38	-46.5	-47.5	15.1	0.00e+00	0	28	0	1005584384	59	4003
2026-01-05 02:02:51.76	31.07	19.50	-46.4	-47.5	15.1	0.00e+00	0	28	0	1011875840	59	4000
2026-01-05 02:02:52.76	31.14	19.62	-46.4	-47.5	15.1	0.00e+00	0	28	0	1017118720	59	3995
2026-01-05 02:02:53.76	31.21	19.74	-46.5	-47.6	15.1	0.00e+00	0	28	0	1022361600	59	4011
2026-01-05 02:02:54.76	31.28	19.86	-46.5	-47.6	15.1	0.00e+00	0	28	0	1028653056	59	4033
2026-01-05 02:02:55.75	31.36	19.99	-46.5	-47.6	15.1	0.00e+00	0	28	0	1033895936	59	4042
2026-01-05 02:02:56.75	31.43	20.11	-46.6	-47.7	15.1	0.00e+00	0	28	0	1040187392	59	4060
2026-01-05 02:02:57.75	31.51	20.24	-46.5	-47.6	15.1	0.00e+00	0	28	0	1045430272	59	4035
2026-01-05 02:02:58.75	31.58	20.36	-46.5	-47.7	15.1	0.00e+00	0	28	0	1050673152	59	4053
2026-01-05 02:02:59.75	31.66	20.49	-46.4	-47.5	15.1	0.00e+00	0	28	0	1056964608	59	3999
2026-01-05 02:03:00.76	31.73	20.62	-46.4	-47.5	15.2	0.00e+00	0	28	0	1062207488	59	3981
2026-01-05 02:03:01.77	31.81	20.75	-46.4	-47.5	15.2	0.00e+00	0	28	0	1067450368	59	3973
2026-01-05 02:03:02.77	31.89	20.88	-46.3	-47.4	15.2	0.00e+00	0	28	0	1073741824	59	3944
2026-01-05 02:03:03.77	31.97	21.01	-46.4	-47.5	15.2	0.00e+00	0	28	0	1078984704	59	3964
2026-01-05 02:03:04.76	32.04	21.13	-46.2	-47.3	15.2	0.00e+00	0	28	0	1084227584	59	3890
2026-01-05 02:03:05.76	32.12	21.26	-46.1	-47.2	15.1	0.00e+00	0	28	0	1090519040	58	4079
2026-01-05 02:03:06.75	32.20	21.39	-46.1	-47.2	15.1	0.00e+00	0	28	0	1095761920	58	4091
2026-01-05 02:03:07.75	32.28	21.52	-46.1	-47.1	15.1	0.00e+00	0	28	0	1102053376	58	4044
2026-01-05 02:03:08.75	32.36	21.66	-46.1	-47.1	15.2	0.00e+00	0	28	0	1107296256	58	4049
2026-01-05 02:03:09.75	32.45	21.79	-46.0	-47.1	15.2	0.00e+00	0	28	0	1112539136	58	4028
2026-01-05 02:03:10.76	32.53	21.92	-46.0	-47.1	15.2	0.00e+00	0	28	0	1118830592	58	4011
2026-01-05 02:03:11.76	32.61	22.06	-46.0	-47.1	15.2	0.00e+00	0	28	0	1124073472	58	4025
2026-01-05 02:03:12.75	32.70	22.19	-46.0	-47.1	15.2	0.00e+00	0	28	0	1129316352	58	4014
2026-01-05 02:03:13.75	32.78	22.33	-46.1	-47.1	15.1	0.00e+00	0	28	0	1135607808	58	4050
2026-01-05 02:03:14.75	32.87	22.46	-46.0	-47.1	15.2	0.00e+00	0	28	0	1140850688	58	4011
2026-01-05 02:03:15.75	32.95	22.60	-46.1	-47.2	15.1	0.00e+00	0	28	0	1146093568	58	4054
2026-01-05 02:03:16.75	33.04	22.74	-46.0	-47.1	15.2	0.00e+00	0	28	0	1152385024	58	4006
2026-01-05 02:03:17.75	33.13	22.88	-46.1	-47.2	15.2	0.00e+00	0	28	0	1157627904	58	4062
2026-01-05 02:03:18.75	33.21	23.01	-46.0	-47.1	15.2	0.00e+00	0	28	0	1163919360	58	4021
2026-01-05 02:03:19.74	33.30	23.15	-46.1	-47.1	15.2	0.00e+00	0	28	0	1169162240	58	4050
2026-01-05 02:03:20.74	33.39	23.29	-46.0	-47.1	15.2	0.00e+00	0	28	0	1174405120	58	4021
2026-01-05 02:03:21.74	33.48	23.43	-46.0	-47.1	15.2	0.00e+00	0	28	0	1180696576	58	4031
2026-01-05 02:03:22.73	33.57	23.57	-46.0	-47.1	15.2	0.00e+00	0	28	0	1185939456	58	4009
2026-01-05 02:03:23.73	33.66	23.72	-45.9	-47.0	15.2	0.00e+00	0	28	0	1191182336	58	3970
2026-01-05 02:03:24.73	33.76	23.86	-46.0	-47.0	15.2	0.00e+00	0	28	0	1197473792	58	4000
2026-01-05 02:03:25.73	33.85	24.00	-45.8	-46.9	15.2	0.00e+00	0	28	0	1202716672	58	3930
2026-01-05 02:03:26.73	33.95	24.15	-45.8	-46.9	15.2	0.00e+00	0	28	0	1207959552	58	3940
2026-01-05 02:03:27.73	34.04	24.29	-45.7	-46.8	15.3	0.00e+00	0	28	0	1214251008	58	3879
2026-01-05 02:03:28.73	34.14	24.44	-45.8	-46.8	15.3	0.00e+00	0	28	0	1219493888	58	3904
2026-01-05 02:03:29.73	34.23	24.58	-45.8	-46.8	15.3	0.00e+00	0	28	0	1225785344	58	3888
2026-01-05 02:03:30.73	34.33	24.73	-45.6	-46.6	15.2	0.00e+00	0	28	0	1231028224	57	4047
2026-01-05 02:03:31.74	34.43	24.88	-45.4	-46.4	15.3	0.00e+00	0	28	0	1236271104	57	3951
2026-01-05 02:03:32.74	34.53	25.03	-45.3	-46.4	15.3	0.00e+00	0	28	0	1242562560	57	3917
2026-01-05 02:03:33.73	34.63	25.18	-45.3	-46.3	15.3	0.00e+00	0	28	0	1247805440	57	3904
2026-01-05 02:03:34.73	34.73	25.33	-45.3	-46.3	15.3	0.00e+00	0	28	0	1253048320	57	3890
2026-01-05 02:03:35.73	34.83	25.48	-45.2	-46.2	15.3	0.00e+00	0	28	0	1259339776	57	3859
2026-01-05 02:03:36.72	34.94	25.63	-45.2	-46.2	15.3	0.00e+00	0	28	0	1264582656	57	3866
2026-01-05 02:03:37.72	35.04	25.78	-45.3	-46.3	15.3	0.00e+00	0	28	0	1269825536	57	3894
2026-01-05 02:03:38.72	35.15	25.94	-45.4	-46.5	15.2	0.00e+00	0	28	0	1276116992	57	3967
2026-01-05 02:03:39.71	35.25	26.09	-45.4	-46.5	15.2	0.00e+00	0	28	0	1281359872	57	3968
2026-01-05 02:03:40.70	35.36	26.24	-45.5	-46.5	15.2	0.00e+00	0	28	0	1286602752	57	3996
2026-01-05 02:03:41.70	35.46	26.40	-45.4	-46.5	15.2	0.00e+00	0	28	0	1292894208	57	3965
2026-01-05 02:03:42.71	35.58	26.56	-45.5	-46.5	15.2	0.00e+00	0	28	0	1298137088	57	3990
2026-01-05 02:03:43.71	35.69	26.71	-45.4	-46.5	15.2	0.00e+00	0	28	0	1303379968	57	3975
2026-01-05 02:03:44.70	35.80	26.87	-45.3	-46.3	15.3	0.00e+00	0	28	0	1309671424	57	3904
2026-01-05 02:03:45.69	35.91	27.03	-45.3	-46.3	15.3	0.00e+00	0	28	0	1314914304	57	3901
2026-01-05 02:03:46.69	36.02	27.19	-45.3	-46.3	15.3	0.00e+00	0	28	0	1320157184	57	3893
2026-01-05 02:03:47.68	36.13	27.35	-45.4	-46.4	15.3	0.00e+00	0	28	0	1326448640	57	3932
2026-01-05 02:03:48.68	36.25	27.51	-45.3	-46.4	15.3	0.00e+00	0	28	0	1331691520	57	3926
2026-01-05 02:03:49.67	36.36	27.67	-45.4	-46.5	15.2	0.00e+00	0	28	0	1336934400	57	3962
2026-01-05 02:03:50.67	36.48	27.83	-45.4	-46.4	15.3	0.00e+00	0	28	0	1343225856	57	3949
2026-01-05 02:03:51.67	36.60	28.00	-45.3	-46.4	15.3	0.00e+00	0	28	0	1348468736	57	3923
2026-01-05 02:03:52.66	36.72	28.16	-45.4	-46.4	15.3	0.00e+00	0	28	0	1353711616	57	3949
2026-01-05 02:03:53.66	36.84	28.32	-45.4	-46.5	15.2	0.00e+00	0	28	0	1360003072	57	3964
2026-01-05 02:03:54.65	36.96	28.49	-45.5	-46.5	15.2	0.00e+00	0	28	0	1365245952	57	3992
2026-01-05 02:03:55.65	37.09	28.66	-45.5	-46.5	15.2	0.00e+00	0	28	0	1371537408	57	3990
2026-01-05 02:03:56.65	37.21	28.83	-45.4	-46.5	15.3	0.00e+00	0	28	0	1376780288	57	3962
2026-01-05 02:03:57.64	37.34	28.99	-45.4	-46.5	15.2	0.00e+00	0	28	0	1382023168	57	3971
2026-01-05 02:03:58.64	37.47	29.16	-45.3	-46.3	15.3	0.00e+00	0	28	0	1388314624	57	3907
2026-01-05 02:03:59.64	37.59	29.33	-45.3	-46.4	15.3	0.00e+00	0	28	0	1393557504	57	3922
2026-01-05 02:04:00.65	37.73	29.51	-45.3	-46.3	15.3	0.00e+00	0	28	0	1398800384	57	3889
2026-01-05 02:04:01.65	37.86	29.68	-45.3	-46.3	15.3	0.00e+00	0	28	0	1405091840	57	3887
2026-01-05 02:04:02.65	37.99	29.85	-45.3	-46.3	15.3	0.00e+00	0	28	0	1410334720	57	3901
2026-01-05 02:04:03.64	38.12	30.03	-45.1	-46.1	15.2	0.00e+00	0	28	0	1415577600	56	4029
2026-01-05 02:04:04.64	38.26	30.20	-44.9	-45.9	15.3	0.00e+00	0	28	0	1421869056	56	3951
2026-01-05 02:04:05.64	38.40	30.38	-45.0	-46.0	15.2	0.00e+00	0	28	0	1427111936	56	3984
2026-01-05 02:04:06.64	38.54	30.56	-45.1	-46.1	15.2	0.00e+00	0	28	0	1433403392	56	4044
2026-01-05 02:04:07.64	38.68	30.74	-45.2	-46.2	15.2	0.00e+00	0	28	0	1438646272	56	4079
2026-01-05 02:04:08.64	38.82	30.91	-45.3	-46.4	15.2	0.00e+00	0	28	0	1443889152	56	4146
2026-01-05 02:04:09.65	38.96	31.10	-45.4	-46.4	15.1	0.00e+00	0	28	0	1450180608	56	4180
2026-01-05 02:04:10.65	39.11	31.28	-45.4	-46.5	15.1	0.00e+00	0	28	0	1455423488	56	4204
2026-01-05 02:04:11.65	39.25	31.46	-45.3	-46.4	15.2	0.00e+00	0	28	0	1460666368	56	4155
2026-01-05 02:04:12.65	39.40	31.64	-45.3	-46.3	15.2	0.00e+00	0	28	0	1466957824	56	4143
2026-01-05 02:04:13.65	39.55	31.83	-45.2	-46.3	15.2	0.00e+00	0	28	0	1472200704	56	4102
2026-01-05 02:04:14.65	39.70	32.01	-45.2	-46.2	15.2	0.00e+00	0	28	0	1477443584	56	4095
2026-01-05 02:04:15.65	39.86	32.20	-45.1	-46.1	15.2	0.00e+00	0	28	0	1483735040	56	4023
2026-01-05 02:04:16.57	40.00	32.37	-45.1	-46.1	15.2	0.00e+00	0	28	0	1488977920	56	4036
2026-01-05 02:04:17.57	40.16	32.56	-45.0	-46.0	15.3	0.00e+00	0	28	0	1495269376	56	3974
2026-01-05 02:04:18.57	40.31	32.75	-45.0	-46.1	15.2	0.00e+00	0	28	0	1500512256	56	4009
2026-01-05 02:04:19.56	40.47	32.93	-44.9	-46.0	15.3	0.00e+00	0	28	0	1505755136	56	3969
2026-01-05 02:04:20.57	40.63	33.13	-45.0	-46.1	15.2	0.00e+00	0	28	0	1512046592	56	4006
2026-01-05 02:04:21.57	40.80	33.32	-45.0	-46.0	15.3	0.00e+00	0	28	0	1517289472	56	3981
2026-01-05 02:04:22.56	40.96	33.51	-45.1	-46.1	15.2	0.00e+00	0	28	0	1522532352	56	4029
2026-01-05 02:04:23.56	41.13	33.70	-45.2	-46.2	15.2	0.00e+00	0	28	0	1528823808	56	4096
2026-01-05 02:04:24.55	41.30	33.89	-45.2	-46.2	15.2	0.00e+00	0	28	0	1534066688	56	4069
2026-01-05 02:04:25.55	41.47	34.09	-45.2	-46.2	15.2	0.00e+00	0	28	0	1539309568	56	4079
2026-01-05 02:04:26.54	41.64	34.28	-45.1	-46.1	15.2	0.00e+00	0	28	0	1545601024	56	4019
2026-01-05 02:04:27.55	41.82	34.48	-44.9	-45.9	15.3	0.00e+00	0	28	0	1550843904	56	3953
2026-01-05 02:04:28.54	41.99	34.68	-45.0	-46.0	15.3	0.00e+00	0	28	0	1556086784	56	3974
2026-01-05 02:04:29.55	42.17	34.88	-45.0	-46.1	15.3	0.00e+00	0	28	0	1562378240	56	4005
2026-01-05 02:04:30.54	42.35	35.08	-45.0	-46.0	15.3	0.00e+00	0	28	0	1567621120	56	3988
2026-01-05 02:04:31.54	42.54	35.28	-45.1	-46.1	15.2	0.00e+00	0	28	0	1572864000	56	4026
2026-01-05 02:04:32.54	42.72	35.48	-45.1	-46.1	15.2	0.00e+00	0	28	0	1579155456	56	4047
2026-01-05 02:04:33.55	42.91	35.69	-45.1	-46.1	15.2	0.00e+00	0	28	0	1584398336	56	4025
2026-01-05 02:04:34.55	43.11	35.89	-45.1	-46.1	15.2	0.00e+00	0	28	0	1590689792	56	4043
2026-01-05 02:04:35.55	43.30	36.10	-45.0	-46.0	15.3	0.00e+00	0	28	0	1595932672	56	3984
2026-01-05 02:04:36.55	43.49	36.30	-44.9	-45.9	15.3	0.00e+00	0	28	0	1601175552	56	3940
2026-01-05 02:04:37.55	43.69	36.51	-44.9	-45.9	15.3	0.00e+00	0	28	0	1607467008	56	3949
2026-01-05 02:04:38.55	43.89	36.72	-44.9	-45.9	15.3	0.00e+00	0	28	0	1612709888	56	3934
2026-01-05 02:04:39.54	44.09	36.92	-44.8	-45.9	15.3	0.00e+00	0	28	0	1617952768	56	3916
2026-01-05 02:04:40.53	44.30	37.13	-44.9	-45.9	15.3	0.00e+00	0	28	0	1624244224	56	3949
2026-01-05 02:04:41.53	44.51	37.34	-44.9	-45.9	15.3	0.00e+00	0	28	0	1629487104	56	3950
2026-01-05 02:04:42.52	44.71	37.55	-44.9	-46.0	15.3	0.00e+00	0	28	0	1634729984	56	3959
2026-01-05 02:04:43.52	44.93	37.77	-44.8	-45.8	15.3	0.00e+00	0	28	0	1641021440	56	3871
2026-01-05 02:04:44.51	45.14	37.98	-44.4	-45.4	15.3	0.00e+00	0	28	0	1646264320	55	3946
2026-01-05 02:04:45.51	45.36	38.19	-44.4	-45.4	15.3	0.00e+00	0	28	0	1651507200	55	3934
2026-01-05 02:04:46.50	45.58	38.40	-44.5	-45.5	15.3	0.00e+00	0	28	0	1657798656	55	3962
2026-01-05 02:04:47.50	45.80	38.62	-44.7	-45.7	15.2	0.00e+00	0	28	0	1663041536	55	4070
2026-01-05 02:04:48.50	46.03	38.84	-44.7	-45.8	15.2	0.00e+00	0	28	0	1668284416	55	4105
2026-01-05 02:04:49.49	46.26	39.05	-44.8	-45.8	15.2	0.00e+00	0	28	0	1674575872	55	4131
2026-01-05 02:04:50.49	46.49	39.27	-44.8	-45.8	15.2	0.00e+00	0	28	0	1679818752	55	4111
2026-01-05 02:04:51.49	46.73	39.49	-44.7	-45.8	15.2	0.00e+00	0	28	0	1685061632	55	4103
2026-01-05 02:04:52.49	46.97	39.71	-44.8	-45.8	15.2	0.00e+00	0	28	0	1691353088	55	4123
2026-01-05 02:04:53.49	47.21	39.94	-44.8	-45.8	15.2	0.00e+00	0	28	0	1696595968	55	4111
2026-01-05 02:04:54.48	47.46	40.16	-44.9	-45.9	15.2	0.00e+00	0	28	0	1701838848	55	4169
2026-01-05 02:04:55.48	47.71	40.38	-44.9	-45.9	15.2	0.00e+00	0	28	0	1708130304	55	4170
2026-01-05 02:04:56.48	47.96	40.60	-44.9	-45.9	15.2	0.00e+00	0	28	0	1713373184	55	4187
2026-01-05 02:04:57.48	48.22	40.83	-44.8	-45.8	15.2	0.00e+00	0	28	0	1719664640	55	4128
2026-01-05 02:04:58.48	48.48	41.05	-44.8	-45.8	15.2	0.00e+00	0	28	0	1724907520	55	4140
2026-01-05 02:04:59.48	48.74	41.28	-44.8	-45.8	15.2	0.00e+00	0	28	0	1730150400	55	4145
2026-01-05 02:05:00.48	49.01	41.51	-45.0	-46.0	15.1	0.00e+00	0	28	0	1736441856	55	4233
2026-01-05 02:05:01.48	49.28	41.73	-45.0	-46.1	15.1	0.00e+00	0	28	0	1741684736	55	4247
2026-01-05 02:05:02.48	49.55	41.96	-44.9	-45.9	15.2	0.00e+00	0	28	0	1746927616	55	4178
2026-01-05 02:05:03.47	49.83	42.19	-44.9	-45.9	15.1	0.00e+00	0	28	0	1753219072	55	4177
2026-01-05 02:05:04.47	50.11	42.42	-44.9	-46.0	15.2	0.00e+00	0	28	0	1758461952	55	4198
2026-01-05 02:05:05.46	50.40	42.65	-45.2	-46.2	15.1	0.00e+00	0	28	0	1763704832	55	4314
2026-01-05 02:05:06.46	50.69	42.88	-45.1	-46.2	15.1	0.00e+00	0	28	0	1769996288	55	4307
2026-01-05 02:05:07.47	50.99	43.11	-45.1	-46.2	15.1	0.00e+00	0	28	0	1775239168	55	4298
2026-01-05 02:05:08.47	51.29	43.35	-45.1	-46.1	15.1	0.00e+00	0	28	0	1781530624	55	4271
2026-01-05 02:05:09.47	51.59	43.58	-45.2	-46.2	15.1	0.00e+00	0	28	0	1786773504	55	4321
2026-01-05 02:05:10.47	51.90	43.81	-45.3	-46.3	15.1	0.00e+00	0	28	0	1792016384	55	4380
2026-01-05 02:05:11.47	52.21	44.05	-45.2	-46.2	15.1	0.00e+00	0	28	0	1798307840	55	4329
2026-01-05 02:05:12.47	52.53	44.28	-45.1	-46.1	15.1	0.00e+00	0	28	0	1803550720	55	4278
2026-01-05 02:05:13.48	52.85	44.52	-45.2	-46.2	15.1	0.00e+00	0	28	0	1808793600	55	4339
2026-01-05 02:05:14.48	53.18	44.76	-45.3	-46.4	15.1	0.00e+00	0	28	0	1815085056	55	4407
2026-01-05 02:05:15.47	53.51	44.99	-45.7	-46.8	15.1	0.00e+00	0	28	0	1820327936	56	4383
2026-01-05 02:05:16.48	53.84	45.23	-46.0	-47.1	15.1	0.00e+00	0	28	0	1825570816	57	4249
2026-01-05 02:05:17.48	54.19	45.47	-45.8	-46.9	15.1	0.00e+00	0	28	0	1831862272	57	4166
2026-01-05 02:05:18.48	54.53	45.70	-45.9	-47.0	15.1	0.00e+00	0	28	0	1837105152	57	4214
2026-01-05 02:05:19.48	54.88	45.94	-45.7	-46.7	15.2	0.00e+00	0	28	0	1843396608	57	4086
2026-01-05 02:05:20.48	55.24	46.18	-45.6	-46.6	15.2	0.00e+00	0	28	0	1848639488	57	4046
2026-01-05 02:05:21.48	55.60	46.41	-45.5	-46.5	15.2	0.00e+00	0	28	0	1853882368	57	3982
2026-01-05 02:05:22.47	55.97	46.65	-45.5	-46.5	15.2	0.00e+00	0	28	0	1860173824	57	3970
2026-01-05 02:05:23.48	56.34	46.89	-45.5	-46.5	15.2	0.00e+00	0	28	0	1865416704	57	3986
2026-01-05 02:05:24.49	56.72	47.13	-45.7	-46.8	15.2	0.00e+00	0	28	0	1870659584	57	4118
2026-01-05 02:05:25.49	57.11	47.37	-45.8	-46.9	15.1	0.00e+00	0	28	0	1876951040	57	4155
2026-01-05 02:05:26.48	57.50	47.60	-45.7	-46.7	15.2	0.00e+00	0	28	0	1882193920	57	4097
2026-01-05 02:05:27.48	57.89	47.84	-45.4	-46.4	15.3	0.00e+00	0	28	0	1887436800	57	3936
2026-01-05 02:05:28.49	58.30	48.08	-45.3	-46.3	15.3	0.00e+00	0	28	0	1893728256	57	3906
2026-01-05 02:05:29.49	58.71	48.32	-45.5	-46.5	15.3	0.00e+00	0	28	0	1898971136	57	3975
2026-01-05 02:05:30.49	59.12	48.56	-45.5	-46.6	15.2	0.00e+00	0	28	0	1905262592	57	4010
2026-01-05 02:05:31.49	59.54	48.79	-45.6	-46.7	15.2	0.00e+00	0	28	0	1910505472	57	4070
2026-01-05 02:05:32.50	59.97	49.03	-45.7	-46.8	15.2	0.00e+00	0	28	0	1916796928	57	4102
2026-01-05 02:05:33.50	60.41	49.27	-45.5	-46.6	15.2	0.00e+00	0	28	0	1922039808	57	4020
2026-01-05 02:05:34.49	60.84	49.50	-45.6	-46.7	15.2	0.00e+00	0	28	0	1927282688	57	4057
2026-01-05 02:05:35.49	61.29	49.74	-45.7	-46.7	15.2	0.00e+00	0	28	0	1932525568	57	4096
2026-01-05 02:05:36.49	61.75	49.97	-45.7	-46.7	15.2	0.00e+00	0	28	0	1938817024	57	4098
2026-01-05 02:05:37.48	62.20	50.20	-46.0	-47.0	15.1	0.00e+00	0	28	0	1944059904	57	4240
2026-01-05 02:05:38.48	62.67	50.44	-46.2	-47.3	15.1	0.00e+00	0	28	0	1950351360	57	4373
2026-01-05 02:05:39.49	63.15	50.67	-46.1	-47.2	15.1	0.00e+00	0	28	0	1955594240	57	4292
2026-01-05 02:05:40.49	63.64	50.90	-45.8	-46.9	15.1	0.00e+00	0	28	0	1960837120	57	4147
2026-01-05 02:05:41.49	64.13	51.13	-45.8	-46.8	15.2	0.00e+00	0	28	0	1967128576	57	4132
2026-01-05 02:05:42.48	64.62	51.36	-45.8	-46.8	15.2	0.00e+00	0	28	0	1972371456	57	4124
2026-01-05 02:05:43.47	65.12	51.59	-45.8	-46.8	15.1	0.00e+00	0	28	0	1977614336	57	4145
2026-01-05 02:05:44.48	65.64	51.81	-45.8	-46.8	15.1	0.00e+00	0	28	0	1983905792	57	4128
2026-01-05 02:05:45.49	66.16	52.04	-45.9	-47.0	15.1	0.00e+00	0	28	0	1989148672	57	4212
2026-01-05 02:05:46.49	66.69	52.27	-46.1	-47.2	15.1	0.00e+00	0	28	0	1994391552	57	4321
2026-01-05 02:05:47.49	67.23	52.49	-45.8	-46.9	15.1	0.00e+00	0	28	0	2000683008	57	4156
2026-01-05 02:05:48.48	67.77	52.71	-45.6	-46.6	15.2	0.00e+00	0	28	0	2005925888	57	4048
2026-01-05 02:05:49.47	68.32	52.93	-45.6	-46.7	15.2	0.00e+00	0	28	0	2012217344	57	4053
2026-01-05 02:05:50.47	68.88	53.14	-46.1	-47.1	15.1	0.00e+00	0	28	0	2017460224	57	4290
2026-01-05 02:05:51.46	69.44	53.36	-46.4	-47.5	15.0	0.00e+00	0	28	0	2022703104	57	4471
2026-01-05 02:05:52.45	70.01	53.57	-46.4	-47.5	15.1	0.00e+00	0	28	0	2028994560	58	4212
2026-01-05 02:05:53.44	70.60	53.78	-46.4	-47.5	15.1	0.00e+00	0	28	0	2034237440	58	4213
2026-01-05 02:05:54.44	71.19	53.99	-46.3	-47.4	15.1	0.00e+00	0	28	0	2039480320	58	4173
2026-01-05 02:05:55.44	71.79	54.20	-46.3	-47.3	15.1	0.00e+00	0	28	0	2044723200	58	4126
2026-01-05 02:05:56.44	72.41	54.40	-46.2	-47.3	15.1	0.00e+00	0	28	0	2051014656	58	4127
2026-01-05 02:05:57.44	73.03	54.61	-46.2	-47.2	15.1	0.00e+00	0	28	0	2056257536	58	4085
2026-01-05 02:05:58.44	73.66	54.81	-46.3	-47.3	15.1	0.00e+00	0	28	0	2062548992	58	4133
2026-01-05 02:05:59.43	74.29	55.00	-46.2	-47.3	15.1	0.00e+00	0	28	0	2067791872	58	4118
2026-01-05 02:06:00.43	74.94	55.20	-46.2	-47.2	15.1	0.00e+00	0	28	0	2073034752	58	4079
2026-01-05 02:06:01.43	75.59	55.39	-46.5	-47.5	15.1	0.00e+00	0	28	0	2079326208	58	4221
2026-01-05 02:06:02.42	76.25	55.58	-46.6	-47.7	15.0	0.00e+00	0	28	0	2084569088	58	4333
2026-01-05 02:06:03.42	76.93	55.76	-46.7	-47.8	15.0	0.00e+00	0	28	0	2089811968	58	4345
2026-01-05 02:06:04.42	77.61	55.95	-46.4	-47.5	15.1	0.00e+00	0	28	0	2096103424	58	4226
2026-01-05 02:06:05.42	78.30	56.12	-46.5	-47.6	15.1	0.00e+00	0	28	0	2101346304	58	4263
2026-01-05 02:06:06.41	78.99	56.30	-46.5	-47.6	15.1	0.00e+00	0	28	0	2106589184	58	4274
2026-01-05 02:06:07.41	79.70	56.47	-46.4	-47.5	15.1	0.00e+00	0	28	0	2112880640	58	4202
2026-01-05 02:06:08.41	80.42	56.64	-46.3	-47.4	15.1	0.00e+00	0	28	0	2118123520	58	4158
2026-01-05 02:06:09.41	81.15	56.80	-46.4	-47.5	15.1	0.00e+00	0	28	0	2124414976	58	4208
2026-01-05 02:06:10.41	81.88	56.97	-46.3	-47.3	15.1	0.00e+00	0	28	0	2129657856	58	4142
2026-01-05 02:06:11.41	82.63	57.12	-46.3	-47.3	15.1	0.00e+00	0	28	0	2134900736	58	4132
2026-01-05 02:06:12.41	83.38	57.28	-46.3	-47.4	15.1	0.00e+00	0	28	0	2141192192	58	4179
2026-01-05 02:06:13.41	84.14	57.42	-46.5	-47.5	15.1	0.00e+00	0	28	0	2146435072	58	4240
2026-01-05 02:06:14.41	84.91	57.57	-46.2	-47.3	15.1	0.00e+00	0	28	0	2151677952	58	4105
2026-01-05 02:06:15.41	85.68	57.71	-46.4	-47.4	15.1	0.00e+00	0	28	0	2157969408	58	4184
2026-01-05 02:06:16.41	86.47	57.84	-46.3	-47.4	15.1	0.00e+00	0	28	0	2163212288	58	4166
2026-01-05 02:06:17.41	87.26	57.97	-46.2	-47.2	15.1	0.00e+00	0	28	0	2168455168	58	4075
2026-01-05 02:06:18.42	88.07	58.10	-46.0	-47.1	15.2	0.00e+00	0	28	0	2174746624	58	4021
2026-01-05 02:06:19.41	88.87	58.22	-46.1	-47.1	15.2	0.00e+00	0	28	0	2179989504	58	4040
2026-01-05 02:06:20.41	89.68	58.33	-46.0	-47.0	15.2	0.00e+00	0	28	0	2186280960	58	3978
2026-01-05 02:06:21.41	90.51	58.44	-45.9	-47.0	15.2	0.00e+00	0	28	0	2191523840	58	3966
2026-01-05 02:06:22.40	91.32	58.55	-46.0	-47.1	15.2	0.00e+00	0	28	0	2196766720	58	4023
2026-01-05 02:06:23.41	92.17	58.65	-45.7	-46.8	15.3	0.00e+00	0	28	0	2203058176	58	3887
2026-01-05 02:06:24.41	93.01	58.74	-45.7	-46.8	15.2	0.00e+00	0	28	0	2208301056	57	4109
2026-01-05 02:06:25.40	93.85	58.83	-46.1	-47.1	15.1	0.00e+00	0	28	0	2213543936	57	4282
2026-01-05 02:06:26.40	94.70	58.91	-46.1	-47.2	15.1	0.00e+00	0	28	0	2219835392	57	4330
2026-01-05 02:06:27.40	95.55	58.99	-46.0	-47.0	15.1	0.00e+00	0	28	0	2225078272	57	4224
2026-01-05 02:06:28.39	96.41	59.06	-46.0	-47.1	15.1	0.00e+00	0	28	0	2230321152	57	4249
2026-01-05 02:06:29.40	97.28	59.13	-46.3	-47.4	15.1	0.00e+00	0	28	0	2236612608	58	4175
2026-01-05 02:06:30.40	98.15	59.19	-46.0	-47.1	15.2	0.00e+00	0	28	0	2241855488	58	4014
2026-01-05 02:06:31.39	99.02	59.24	-45.7	-46.7	15.3	0.00e+00	0	28	0	2247098368	58	3847
2026-01-05 02:06:32.39	99.90	59.29	-45.7	-46.8	15.3	0.00e+00	0	28	0	2253389824	58	3873
2026-01-05 02:06:33.39	100.78	59.33	-46.0	-47.0	15.2	0.00e+00	0	28	0	2258632704	58	4000
2026-01-05 02:06:34.39	101.66	59.37	-45.9	-46.9	15.3	0.00e+00	0	28	0	2263875584	58	3946
2026-01-05 02:06:35.39	102.55	59.40	-46.0	-47.0	15.2	0.00e+00	0	28	0	2270167040	58	3977
2026-01-05 02:06:36.38	103.43	59.42	-45.9	-47.0	15.2	0.00e+00	0	28	0	2275409920	58	3971
2026-01-05 02:06:37.38	104.31	59.44	-46.1	-47.1	15.2	0.00e+00	0	28	0	2280652800	58	4049
2026-01-05 02:06:38.38	105.20	59.45	-46.1	-47.2	15.2	0.00e+00	0	28	0	2286944256	58	4078
2026-01-05 02:06:39.38	106.10	59.46	-46.1	-47.1	15.2	0.00e+00	0	28	0	2292187136	58	4050
2026-01-05 02:06:40.37	106.98	59.45	-46.0	-47.1	15.2	0.00e+00	0	28	0	2298478592	58	4012
2026-01-05 02:06:41.37	107.87	59.45	-46.1	-47.1	15.2	0.00e+00	0	28	0	2303721472	58	4048
2026-01-05 02:06:42.37	108.76	59.43	-46.0	-47.0	15.2	0.00e+00	0	28	0	2308964352	58	3990
2026-01-05 02:06:43.37	109.65	59.41	-45.9	-46.9	15.3	0.00e+00	0	28	0	2315255808	58	3950
2026-01-05 02:06:44.37	110.53	59.39	-45.9	-47.0	15.2	0.00e+00	0	28	0	2320498688	58	3959
2026-01-05 02:06:45.37	111.42	59.36	-46.0	-47.1	15.2	0.00e+00	0	28	0	2325741568	58	4006
2026-01-05 02:06:46.37	112.30	59.32	-46.1	-47.1	15.2	0.00e+00	0	28	0	2332033024	58	4045
2026-01-05 02:06:47.36	113.17	59.28	-46.0	-47.1	15.2	0.00e+00	0	28	0	2337275904	58	4005
2026-01-05 02:06:48.35	114.04	59.23	-46.0	-47.0	15.2	0.00e+00	0	28	0	2342518784	58	4004
2026-01-05 02:06:49.34	114.91	59.17	-45.9	-47.0	15.2	0.00e+00	0	28	0	2348810240	58	3961
2026-01-05 02:06:50.34	115.77	59.11	-45.9	-47.0	15.2	0.00e+00	0	28	0	2354053120	58	3968
2026-01-05 02:06:51.35	116.65	59.04	-45.8	-46.8	15.3	0.00e+00	0	28	0	2359296000	58	3910
2026-01-05 02:06:52.34	117.50	58.97	-46.1	-47.2	15.2	0.00e+00	0	28	0	2365587456	58	4061
2026-01-05 02:06:53.35	118.37	58.89	-46.4	-47.4	15.1	0.00e+00	0	28	0	2370830336	58	4190
2026-01-05 02:06:54.34	119.21	58.80	-46.3	-47.4	15.1	0.00e+00	0	28	0	2376073216	58	4185
2026-01-05 02:06:55.35	120.06	58.71	-46.4	-47.5	15.1	0.00e+00	0	28	0	2382364672	58	4194
2026-01-05 02:06:56.34	120.89	58.62	-46.4	-47.5	15.1	0.00e+00	0	28	0	2387607552	58	4233
2026-01-05 02:06:57.34	121.72	58.51	-46.5	-47.6	15.1	0.00e+00	0	28	0	2392850432	58	4269
2026-01-05 02:06:58.33	122.54	58.41	-46.4	-47.5	15.1	0.00e+00	0	28	0	2399141888	58	4212
2026-01-05 02:06:59.33	123.36	58.30	-46.2	-47.2	15.2	0.00e+00	0	28	0	2404384768	58	4081
2026-01-05 02:07:00.33	124.18	58.18	-46.3	-47.4	15.1	0.00e+00	0	28	0	2410676224	58	4158
2026-01-05 02:07:01.32	124.97	58.06	-46.4	-47.4	15.1	0.00e+00	0	28	0	2415919104	58	4188
2026-01-05 02:07:02.32	125.77	57.93	-46.5	-47.5	15.1	0.00e+00	0	28	0	2421161984	58	4231
2026-01-05 02:07:03.32	126.56	57.80	-46.6	-47.7	15.1	0.00e+00	0	28	0	2427453440	58	4305
2026-01-05 02:07:04.32	127.35	57.66	-46.8	-47.9	15.0	0.00e+00	0	28	0	2432696320	58	4405
2026-01-05 02:07:05.33	128.13	57.52	-46.4	-47.5	15.1	0.00e+00	0	28	0	2437939200	58	4225
2026-01-05 02:07:06.33	128.90	57.37	-46.3	-47.3	15.1	0.00e+00	0	28	0	2444230656	58	4129
2026-01-05 02:07:07.32	129.65	57.23	-46.3	-47.3	15.1	0.00e+00	0	28	0	2449473536	58	4129
2026-01-05 02:07:08.32	130.40	57.07	-46.4	-47.5	15.1	0.00e+00	0	28	0	2454716416	58	4232
2026-01-05 02:07:09.32	131.14	56.91	-46.6	-47.8	15.0	0.00e+00	0	28	0	2461007872	58	4347
2026-01-05 02:07:10.32	131.87	56.75	-46.5	-47.6	15.1	0.00e+00	0	28	0	2466250752	58	4249
2026-01-05 02:07:11.32	132.60	56.58	-46.5	-47.6	15.1	0.00e+00	0	28	0	2472542208	58	4247
2026-01-05 02:07:12.32	133.31	56.41	-46.6	-47.7	15.1	0.00e+00	0	28	0	2477785088	58	4295
2026-01-05 02:07:13.32	134.02	56.24	-47.0	-48.1	15.0	0.00e+00	0	28	0	2483027968	59	4262
2026-01-05 02:07:14.32	134.72	56.06	-46.6	-47.7	15.1	0.00e+00	0	28	0	2489319424	59	4087
2026-01-05 02:07:15.32	135.41	55.88	-46.5	-47.5	15.2	0.00e+00	0	28	0	2494562304	59	3992
2026-01-05 02:07:16.31	136.08	55.70	-46.4	-47.5	15.2	0.00e+00	0	28	0	2499805184	59	3963
2026-01-05 02:07:17.32	136.76	55.51	-46.4	-47.5	15.2	0.00e+00	0	28	0	2506096640	59	3985
2026-01-05 02:07:18.33	137.43	55.32	-46.5	-47.6	15.2	0.00e+00	0	28	0	2511339520	59	4011
2026-01-05 02:07:19.33	138.09	55.12	-46.4	-47.4	15.2	0.00e+00	0	28	0	2517630976	59	3951
2026-01-05 02:07:20.33	138.73	54.93	-46.1	-47.2	15.2	0.00e+00	0	28	0	2522873856	58	4058
2026-01-05 02:07:21.33	139.37	54.73	-46.3	-47.4	15.1	0.00e+00	0	28	0	2528116736	58	4175
2026-01-05 02:07:22.32	139.99	54.53	-46.5	-47.6	15.1	0.00e+00	0	28	0	2534408192	58	4289
2026-01-05 02:07:23.32	140.61	54.32	-46.4	-47.5	15.1	0.00e+00	0	28	0	2539651072	58	4218
2026-01-05 02:07:24.32	141.22	54.12	-46.4	-47.4	15.1	0.00e+00	0	28	0	2544893952	58	4190
2026-01-05 02:07:25.32	141.82	53.91	-46.4	-47.5	15.1	0.00e+00	0	28	0	2551185408	58	4210
2026-01-05 02:07:26.31	142.41	53.70	-46.4	-47.5	15.1	0.00e+00	0	28	0	2556428288	58	4215
2026-01-05 02:07:27.32	143.00	53.48	-46.5	-47.6	15.1	0.00e+00	0	28	0	2561671168	58	4266
2026-01-05 02:07:28.32	143.57	53.27	-46.6	-47.7	15.1	0.00e+00	0	28	0	2567962624	58	4326
2026-01-05 02:07:29.33	144.15	53.05	-46.5	-47.6	15.1	0.00e+00	0	28	0	2573205504	58	4274
2026-01-05 02:07:30.33	144.71	52.83	-46.4	-47.5	15.1	0.00e+00	0	28	0	2579496960	58	4202
2026-01-05 02:07:31.33	145.26	52.61	-46.4	-47.4	15.1	0.00e+00	0	28	0	2584739840	58	4188
2026-01-05 02:07:32.34	145.80	52.38	-46.6	-47.7	15.0	0.00e+00	0	28	0	2589982720	58	4298
2026-01-05 02:07:33.34	146.34	52.16	-46.6	-47.7	15.0	0.00e+00	0	28	0	2596274176	58	4326
2026-01-05 02:07:34.34	146.87	51.93	-46.5	-47.6	15.1	0.00e+00	0	28	0	2601517056	58	4259
2026-01-05 02:07:35.34	147.38	51.71	-46.4	-47.5	15.1	0.00e+00	0	28	0	2606759936	58	4228
2026-01-05 02:07:36.34	147.89	51.48	-46.2	-47.3	15.1	0.00e+00	0	28	0	2613051392	58	4111
2026-01-05 02:07:37.34	148.40	51.25	-46.1	-47.2	15.2	0.00e+00	0	28	0	2618294272	58	4068
2026-01-05 02:07:38.34	148.89	51.02	-46.2	-47.2	15.2	0.00e+00	0	28	0	2623537152	58	4091
2026-01-05 02:07:39.34	149.38	50.79	-46.2	-47.2	15.2	0.00e+00	0	28	0	2629828608	58	4094
2026-01-05 02:07:40.34	149.86	50.56	-46.1	-47.2	15.2	0.00e+00	0	28	0	2635071488	58	4057
2026-01-05 02:07:41.34	150.34	50.32	-46.2	-47.2	15.2	0.00e+00	0	28	0	2641362944	58	4091
2026-01-05 02:07:42.33	150.80	50.09	-46.1	-47.1	15.2	0.00e+00	0	28	0	2646605824	58	4035
2026-01-05 02:07:43.33	151.26	49.85	-45.9	-47.0	15.3	0.00e+00	0	28	0	2651848704	58	3972
2026-01-05 02:07:44.33	151.71	49.62	-45.8	-46.8	15.3	0.00e+00	0	28	0	2658140160	58	3912
2026-01-05 02:07:45.32	152.15	49.39	-45.6	-46.6	15.2	0.00e+00	0	28	0	2663383040	57	4049
2026-01-05 02:07:46.32	152.59	49.15	-45.6	-46.6	15.2	0.00e+00	0	28	0	2668625920	57	4039
2026-01-05 02:07:47.32	153.02	48.91	-45.7	-46.8	15.2	0.00e+00	0	28	0	2674917376	57	4125
2026-01-05 02:07:48.32	153.45	48.67	-45.9	-46.9	15.2	0.00e+00	0	28	0	2680160256	57	4189
2026-01-05 02:07:49.32	153.86	48.44	-45.7	-46.8	15.2	0.00e+00	0	28	0	2685403136	57	4106
2026-01-05 02:07:50.32	154.28	48.20	-45.7	-46.7	15.2	0.00e+00	0	28	0	2691694592	57	4079
2026-01-05 02:07:51.31	154.68	47.96	-45.5	-46.5	15.2	0.00e+00	0	28	0	2696937472	57	3987
2026-01-05 02:07:52.31	155.08	47.72	-45.3	-46.3	15.3	0.00e+00	0	28	0	2703228928	57	3880
2026-01-05 02:07:53.30	155.47	47.49	-45.4	-46.4	15.3	0.00e+00	0	28	0	2708471808	57	3941
2026-01-05 02:07:54.29	155.86	47.25	-45.3	-46.4	15.3	0.00e+00	0	28	0	2713714688	57	3918
2026-01-05 02:07:55.29	156.24	47.01	-45.3	-46.3	15.3	0.00e+00	0	28	0	2718957568	57	3908
2026-01-05 02:07:56.28	156.61	46.78	-45.5	-46.6	15.2	0.00e+00	0	28	0	2725249024	57	4006
2026-01-05 02:07:57.27	156.98	46.54	-45.6	-46.7	15.2	0.00e+00	0	28	0	2730491904	57	4069
2026-01-05 02:07:58.28	157.35	46.30	-45.7	-46.7	15.2	0.00e+00	0	28	0	2735734784	57	4098
2026-01-05 02:07:59.28	157.71	46.06	-45.6	-46.7	15.2	0.00e+00	0	28	0	2742026240	57	4060
2026-01-05 02:08:00.27	158.06	45.82	-45.7	-46.7	15.2	0.00e+00	0	28	0	2747269120	57	4079
2026-01-05 02:08:01.27	158.41	45.59	-45.6	-46.7	15.2	0.00e+00	0	28	0	2753560576	57	4052
2026-01-05 02:08:02.26	158.75	45.35	-45.5	-46.5	15.2	0.00e+00	0	28	0	2758803456	57	3994
2026-01-05 02:08:03.26	159.09	45.11	-45.5	-46.5	15.3	0.00e+00	0	28	0	2764046336	57	3994
2026-01-05 02:08:04.26	159.43	44.88	-45.5	-46.5	15.2	0.00e+00	0	28	0	2770337792	57	4002
2026-01-05 02:08:05.26	159.76	44.64	-45.5	-46.6	15.2	0.00e+00	0	28	0	2775580672	57	4017
2026-01-05 02:08:06.26	160.08	44.40	-45.6	-46.6	15.2	0.00e+00	0	28	0	2780823552	57	4043
2026-01-05 02:08:07.26	160.40	44.17	-45.5	-46.5	15.2	0.00e+00	0	28	0	2787115008	57	3994
2026-01-05 02:08:08.26	160.72	43.93	-45.6	-46.6	15.2	0.00e+00	0	28	0	2792357888	57	4023
2026-01-05 02:08:09.26	161.03	43.70	-45.7	-46.7	15.2	0.00e+00	0	28	0	2797600768	57	4090
2026-01-05 02:08:10.26	161.34	43.46	-45.6	-46.7	15.2	0.00e+00	0	28	0	2803892224	57	4060
2026-01-05 02:08:11.26	161.64	43.23	-45.7	-46.8	15.2	0.00e+00	0	28	0	2809135104	57	4109
2026-01-05 02:08:12.27	161.94	42.99	-45.3	-46.4	15.3	0.00e+00	0	28	0	2815426560	57	3921
2026-01-05 02:08:13.27	162.24	42.76	-45.2	-46.2	15.4	0.00e+00	0	28	0	2820669440	57	3835
2026-01-05 02:08:14.26	162.52	42.53	-45.2	-46.2	15.3	0.00e+00	0	28	0	2825912320	57	3866
2026-01-05 02:08:15.27	162.81	42.30	-45.3	-46.3	15.3	0.00e+00	0	28	0	2832203776	57	3888
2026-01-05 02:08:16.27	163.09	42.07	-45.4	-46.5	15.3	0.00e+00	0	28	0	2837446656	57	3972
2026-01-05 02:08:17.27	163.37	41.84	-45.5	-46.5	15.3	0.00e+00	0	28	0	2842689536	57	4001
2026-01-05 02:08:18.27	163.64	41.61	-45.5	-46.6	15.2	0.00e+00	0	28	0	2848980992	57	4009
2026-01-05 02:08:19.26	163.91	41.38	-45.5	-46.5	15.2	0.00e+00	0	28	0	2854223872	57	3987
2026-01-05 02:08:20.26	164.18	41.15	-45.5	-46.5	15.2	0.00e+00	0	28	0	2859466752	57	3983
2026-01-05 02:08:21.25	164.44	40.93	-45.3	-46.3	15.3	0.00e+00	0	28	0	2865758208	57	3903
2026-01-05 02:08:22.25	164.70	40.70	-45.3	-46.3	15.3	0.00e+00	0	28	0	2871001088	57	3887
2026-01-05 02:08:23.25	164.95	40.48	-45.2	-46.3	15.3	0.00e+00	0	28	0	2877292544	57	3879
2026-01-05 02:08:24.25	165.21	40.25	-45.0	-46.0	15.3	0.00e+00	0	28	0	2882535424	56	4004
2026-01-05 02:08:25.25	165.45	40.03	-45.1	-46.1	15.2	0.00e+00	0	28	0	2887778304	56	4017
2026-01-05 02:08:26.25	165.70	39.80	-45.2	-46.2	15.2	0.00e+00	0	28	0	2894069760	56	4069
2026-01-05 02:08:27.25	165.94	39.58	-45.0	-46.1	15.2	0.00e+00	0	28	0	2899312640	56	4018
2026-01-05 02:08:28.25	166.18	39.36	-45.1	-46.1	15.2	0.00e+00	0	28	0	2904555520	56	4032
2026-01-05 02:08:29.24	166.41	39.14	-45.1	-46.1	15.2	0.00e+00	0	28	0	2909798400	56	4043
2026-01-05 02:08:30.24	166.65	38.92	-45.1	-46.1	15.2	0.00e+00	0	28	0	2916089856	56	4024
2026-01-05 02:08:31.23	166.87	38.71	-45.1	-46.1	15.2	0.00e+00	0	28	0	2921332736	56	4029
2026-01-05 02:08:32.23	167.10	38.49	-45.1	-46.1	15.2	0.00e+00	0	28	0	2927624192	56	4029
2026-01-05 02:08:33.23	167.33	38.27	-45.0	-46.0	15.3	0.00e+00	0	28	0	2932867072	56	3967
2026-01-05 02:08:34.23	167.55	38.06	-44.8	-45.8	15.3	0.00e+00	0	28	0	2938109952	56	3909
2026-01-05 02:08:35.23	167.76	37.84	-44.8	-45.8	15.3	0.00e+00	0	28	0	2944401408	56	3888
2026-01-05 02:08:36.23	167.98	37.63	-44.8	-45.8	15.3	0.00e+00	0	28	0	2949644288	56	3907
2026-01-05 02:08:37.22	168.19	37.42	-44.8	-45.8	15.3	0.00e+00	0	28	0	2954887168	56	3894
2026-01-05 02:08:38.23	168.40	37.20	-44.9	-45.9	15.3	0.00e+00	0	28	0	2961178624	56	3931
2026-01-05 02:08:39.23	168.61	36.99	-45.0	-46.0	15.3	0.00e+00	0	28	0	2966421504	56	3972
2026-01-05 02:08:40.23	168.81	36.78	-45.0	-46.0	15.3	0.00e+00	0	28	0	2971664384	56	4004
2026-01-05 02:08:41.23	169.02	36.57	-45.0	-46.1	15.3	0.00e+00	0	28	0	2977955840	56	4012
2026-01-05 02:08:42.22	169.21	36.36	-45.1	-46.2	15.2	0.00e+00	0	28	0	2983198720	56	4058
2026-01-05 02:08:43.23	169.41	36.15	-45.1	-46.1	15.2	0.00e+00	0	28	0	2989490176	56	4040
2026-01-05 02:08:44.22	169.61	35.95	-45.1	-46.1	15.2	0.00e+00	0	28	0	2994733056	56	4051
2026-01-05 02:08:45.22	169.80	35.74	-45.1	-46.1	15.2	0.00e+00	0	28	0	2999975936	56	4041
2026-01-05 02:08:46.22	169.99	35.54	-45.1	-46.1	15.2	0.00e+00	0	28	0	3006267392	56	4045
2026-01-05 02:08:47.22	170.18	35.34	-45.1	-46.1	15.2	0.00e+00	0	28	0	3011510272	56	4047
2026-01-05 02:08:48.22	170.36	35.13	-45.1	-46.1	15.2	0.00e+00	0	28	0	3016753152	56	4024
2026-01-05 02:08:49.21	170.54	34.93	-45.1	-46.1	15.2	0.00e+00	0	28	0	3023044608	56	4043
2026-01-05 02:08:50.21	170.72	34.73	-45.0	-46.1	15.3	0.00e+00	0	28	0	3028287488	56	4014
2026-01-05 02:08:51.20	170.90	34.54	-45.0	-46.0	15.3	0.00e+00	0	28	0	3033530368	56	3982
2026-01-05 02:08:52.20	171.08	34.34	-45.0	-46.1	15.2	0.00e+00	0	28	0	3039821824	56	4014
2026-01-05 02:08:53.20	171.25	34.14	-44.8	-46.0	15.3	0.00e+00	0	28	0	3045064704	56	3992
2026-01-05 02:08:54.19	171.42	33.94	-44.8	-45.9	15.3	0.00e+00	0	28	0	3050307584	56	3949
2026-01-05 02:08:55.19	171.59	33.75	-44.7	-45.9	15.3	0.00e+00	0	28	0	3056599040	56	3945
2026-01-05 02:08:56.20	171.76	33.55	-44.8	-45.9	15.3	0.00e+00	0	28	0	3061841920	56	3948
2026-01-05 02:08:57.19	171.93	33.36	-44.8	-45.9	15.3	0.00e+00	0	28	0	3067084800	56	3950
2026-01-05 02:08:58.19	172.09	33.17	-44.9	-46.1	15.3	0.00e+00	0	28	0	3073376256	56	4012
2026-01-05 02:08:59.18	172.25	32.98	-45.0	-46.2	15.2	0.00e+00	0	28	0	3078619136	56	4058
2026-01-05 02:09:00.18	172.42	32.79	-44.9	-46.1	15.3	0.00e+00	0	28	0	3084910592	56	4017
2026-01-05 02:09:01.18	172.58	32.60	-44.9	-46.2	15.2	0.00e+00	0	28	0	3090153472	56	4053
2026-01-05 02:09:02.18	172.73	32.41	-45.0	-46.2	15.2	0.00e+00	0	28	0	3095396352	56	4069
2026-01-05 02:09:03.17	172.89	32.22	-45.0	-46.2	15.2	0.00e+00	0	28	0	3101687808	56	4094
2026-01-05 02:09:04.17	173.04	32.03	-45.0	-46.2	15.2	0.00e+00	0	28	0	3106930688	56	4082
2026-01-05 02:09:05.18	173.19	31.85	-45.0	-46.2	15.2	0.00e+00	0	28	0	3112173568	56	4094
2026-01-05 02:09:06.17	173.34	31.66	-45.0	-46.2	15.2	0.00e+00	0	28	0	3118465024	56	4083
2026-01-05 02:09:07.16	173.49	31.48	-45.0	-46.2	15.2	0.00e+00	0	28	0	3123707904	56	4082
2026-01-05 02:09:08.17	173.64	31.29	-45.0	-46.2	15.2	0.00e+00	0	28	0	3128950784	56	4073
2026-01-05 02:09:09.16	173.78	31.11	-45.1	-46.3	15.2	0.00e+00	0	28	0	3135242240	56	4112
2026-01-05 02:09:10.16	173.93	30.93	-45.1	-46.3	15.2	0.00e+00	0	28	0	3140485120	56	4102
2026-01-05 02:09:11.16	174.07	30.75	-45.0	-46.2	15.2	0.00e+00	0	28	0	3146776576	56	4080
2026-01-05 02:09:12.16	174.21	30.57	-45.0	-46.3	15.2	0.00e+00	0	28	0	3152019456	56	4099
2026-01-05 02:09:13.16	174.35	30.39	-45.0	-46.2	15.2	0.00e+00	0	28	0	3157262336	56	4077
2026-01-05 02:09:14.16	174.49	30.22	-45.1	-46.3	15.2	0.00e+00	0	28	0	3163553792	56	4100
2026-01-05 02:09:15.16	174.63	30.04	-45.0	-46.2	15.2	0.00e+00	0	28	0	3168796672	56	4095
2026-01-05 02:09:16.16	174.76	29.86	-45.1	-46.3	15.2	0.00e+00	0	28	0	3174039552	56	4140
2026-01-05 02:09:17.16	174.89	29.69	-45.1	-46.2	15.2	0.00e+00	0	28	0	3180331008	56	4097
2026-01-05 02:09:18.16	175.03	29.51	-45.1	-46.2	15.2	0.00e+00	0	28	0	3185573888	56	4096
2026-01-05 02:09:19.16	175.16	29.34	-45.1	-46.3	15.2	0.00e+00	0	28	0	3190816768	56	4139
2026-01-05 02:09:20.16	175.29	29.17	-45.1	-46.3	15.2	0.00e+00	0	28	0	3197108224	56	4145
2026-01-05 02:09:21.16	175.42	29.00	-45.2	-46.4	15.2	0.00e+00	0	28	0	3202351104	56	4174
2026-01-05 02:09:22.17	175.54	28.83	-45.3	-46.5	15.1	0.00e+00	0	28	0	3208642560	56	4208
2026-01-05 02:09:23.17	175.67	28.66	-45.3	-46.5	15.1	0.00e+00	0	28	0	3213885440	56	4231
2026-01-05 02:09:24.17	175.79	28.49	-45.3	-46.5	15.1	0.00e+00	0	28	0	3219128320	56	4223
2026-01-05 02:09:25.18	175.92	28.32	-45.4	-46.6	15.1	0.00e+00	0	28	0	3225419776	56	4269
2026-01-05 02:09:26.18	176.04	28.15	-45.4	-46.6	15.1	0.00e+00	0	28	0	3230662656	56	4257
2026-01-05 02:09:27.18	176.16	27.98	-45.4	-46.7	15.1	0.00e+00	0	28	0	3235905536	56	4294
2026-01-05 02:09:28.17	176.28	27.82	-45.3	-46.5	15.1	0.00e+00	0	28	0	3242196992	56	4213
2026-01-05 02:09:29.17	176.40	27.66	-45.1	-46.3	15.2	0.00e+00	0	28	0	3247439872	56	4133
2026-01-05 02:09:30.17	176.52	27.49	-45.2	-46.4	15.2	0.00e+00	0	28	0	3252682752	56	4147
2026-01-05 02:09:31.17	176.63	27.33	-45.0	-46.2	15.2	0.00e+00	0	28	0	3258974208	56	4062
2026-01-05 02:09:32.17	176.75	27.17	-45.0	-46.2	15.2	0.00e+00	0	28	0	3264217088	56	4066
2026-01-05 02:09:33.17	176.86	27.01	-45.0	-46.2	15.2	0.00e+00	0	28	0	3270508544	56	4055
2026-01-05 02:09:34.16	176.97	26.85	-45.0	-46.1	15.2	0.00e+00	0	28	0	3275751424	56	4045
2026-01-05 02:09:35.16	177.08	26.69	-45.0	-46.1	15.2	0.00e+00	0	28	0	3280994304	56	4042
2026-01-05 02:09:36.15	177.19	26.53	-45.0	-46.1	15.2	0.00e+00	0	28	0	3287285760	56	4042
2026-01-05 02:09:37.14	177.30	26.38	-45.0	-46.2	15.2	0.00e+00	0	28	0	3292528640	56	4064
2026-01-05 02:09:38.14	177.41	26.22	-45.1	-46.3	15.2	0.00e+00	0	28	0	3297771520	56	4110
2026-01-05 02:09:39.14	177.52	26.06	-45.1	-46.3	15.2	0.00e+00	0	28	0	3303014400	56	4135
2026-01-05 02:09:40.14	177.62	25.91	-45.2	-46.4	15.1	0.00e+00	0	28	0	3309305856	56	4177
2026-01-05 02:09:41.14	177.73	25.75	-45.3	-46.5	15.1	0.00e+00	0	28	0	3314548736	56	4201
2026-01-05 02:09:42.14	177.83	25.60	-45.4	-46.6	15.1	0.00e+00	0	28	0	3320840192	56	4256
2026-01-05 02:09:43.14	177.94	25.45	-45.4	-46.6	15.1	0.00e+00	0	28	0	3326083072	56	4285
2026-01-05 02:09:44.13	178.04	25.30	-45.4	-46.6	15.1	0.00e+00	0	28	0	3331325952	56	4291
2026-01-05 02:09:45.12	178.14	25.15	-45.5	-46.7	15.1	0.00e+00	0	28	0	3337617408	56	4312
2026-01-05 02:09:46.12	178.24	25.00	-45.5	-46.7	15.0	0.00e+00	0	28	0	3342860288	56	4336
2026-01-05 02:09:47.12	178.34	24.85	-45.5	-46.7	15.1	0.00e+00	0	28	0	3348103168	56	4323
2026-01-05 02:09:48.11	178.44	24.70	-45.5	-46.8	15.0	0.00e+00	0	28	0	3354394624	56	4343
2026-01-05 02:09:49.11	178.54	24.55	-45.5	-46.8	15.0	0.00e+00	0	28	0	3359637504	56	4349
2026-01-05 02:09:50.11	178.63	24.40	-45.5	-46.7	15.1	0.00e+00	0	28	0	3364880384	56	4334
2026-01-05 02:09:51.11	178.73	24.26	-45.5	-46.8	15.0	0.00e+00	0	28	0	3371171840	56	4347
2026-01-05 02:09:52.10	178.82	24.11	-45.5	-46.8	15.0	0.00e+00	0	28	0	3376414720	56	4341
2026-01-05 02:09:53.10	178.92	23.97	-45.5	-46.7	15.1	0.00e+00	0	28	0	3382706176	56	4304
2026-01-05 02:09:54.10	179.01	23.82	-45.5	-46.7	15.0	0.00e+00	0	28	0	3387949056	56	4330
2026-01-05 02:09:55.10	179.11	23.68	-45.5	-46.7	15.1	0.00e+00	0	28	0	3393191936	56	4318
2026-01-05 02:09:56.09	179.20	23.54	-45.5	-46.7	15.1	0.00e+00	0	28	0	3398434816	56	4328
2026-01-05 02:09:57.09	179.29	23.40	-45.5	-46.7	15.0	0.00e+00	0	28	0	3404726272	56	4320
2026-01-05 02:09:58.09	179.38	23.25	-45.5	-46.8	15.0	0.00e+00	0	28	0	3409969152	56	4343
2026-01-05 02:09:59.09	179.47	23.11	-45.5	-46.7	15.0	0.00e+00	0	28	0	3415212032	56	4338
2026-01-05 02:10:00.09	179.56	22.97	-45.6	-46.9	15.0	0.00e+00	0	28	0	3421503488	56	4398
2026-01-05 02:10:01.09	179.65	22.83	-45.6	-46.8	15.0	0.00e+00	0	28	0	3426746368	56	4357
2026-01-05 02:10:02.09	179.73	22.69	-45.6	-46.9	15.0	0.00e+00	0	28	0	3433037824	56	4400
2026-01-05 02:10:03.09	179.82	22.56	-45.7	-46.9	15.0	0.00e+00	0	28	0	3438280704	56	4418
2026-01-05 02:10:04.07	179.90	22.42	-45.7	-47.0	15.0	0.00e+00	0	28	0	3443523584	56	4449
2026-01-05 02:10:05.07	179.99	22.28	-45.8	-47.1	14.9	0.00e+00	0	28	0	3449815040	56	4498
2026-01-05 02:10:06.06	180.07	22.15	-45.8	-47.1	14.9	0.00e+00	0	28	0	3455057920	56	4514
2026-01-05 02:10:07.06	180.16	22.01	-45.9	-47.2	14.9	0.00e+00	0	28	0	3460300800	56	4550
2026-01-05 02:10:08.05	180.24	21.88	-45.9	-47.2	15.0	0.00e+00	0	28	0	3466592256	57	4302
2026-01-05 02:10:09.06	180.32	21.74	-46.0	-47.3	15.0	0.00e+00	0	28	0	3471835136	57	4348
2026-01-05 02:10:10.06	180.41	21.61	-46.0	-47.3	15.0	0.00e+00	0	28	0	3477078016	57	4359
2026-01-05 02:10:11.06	180.49	21.48	-46.1	-47.3	15.0	0.00e+00	0	28	0	3483369472	57	4369
2026-01-05 02:10:12.06	180.57	21.35	-46.1	-47.3	15.0	0.00e+00	0	28	0	3488612352	57	4378
2026-01-05 02:10:13.06	180.65	21.21	-46.1	-47.3	15.0	0.00e+00	0	28	0	3494903808	57	4389
2026-01-05 02:10:14.06	180.73	21.08	-46.1	-47.4	15.0	0.00e+00	0	28	0	3500146688	57	4403
2026-01-05 02:10:15.07	180.81	20.95	-46.2	-47.5	14.9	0.00e+00	0	28	0	3505389568	57	4443
2026-01-05 02:10:16.06	180.88	20.82	-46.2	-47.4	14.9	0.00e+00	0	28	0	3511681024	57	4430
2026-01-05 02:10:17.06	180.96	20.69	-46.2	-47.5	14.9	0.00e+00	0	28	0	3516923904	57	4447
2026-01-05 02:10:18.06	181.04	20.57	-46.2	-47.5	14.9	0.00e+00	0	28	0	3522166784	57	4449
2026-01-05 02:10:19.07	181.11	20.44	-46.3	-47.6	14.9	0.00e+00	0	28	0	3528458240	57	4504
2026-01-05 02:10:20.08	181.19	20.31	-46.3	-47.6	14.9	0.00e+00	0	28	0	3533701120	57	4512
2026-01-05 02:10:21.07	181.27	20.18	-46.3	-47.6	14.9	0.00e+00	0	28	0	3538944000	57	4528
2026-01-05 02:10:22.08	181.34	20.05	-46.4	-47.7	14.9	0.00e+00	0	28	0	3545235456	57	4551
2026-01-05 02:10:23.08	181.41	19.93	-46.5	-47.8	14.9	0.00e+00	0	28	0	3550478336	58	4350
2026-01-05 02:10:24.07	181.49	19.81	-46.5	-47.8	14.9	0.00e+00	0	28	0	3556769792	58	4348
2026-01-05 02:10:25.06	181.56	19.68	-46.6	-47.9	14.9	0.00e+00	0	28	0	3562012672	58	4408
2026-01-05 02:10:26.06	181.63	19.56	-46.6	-48.0	14.9	0.00e+00	0	28	0	3567255552	58	4443
2026-01-05 02:10:27.06	181.70	19.44	-46.7	-48.0	14.9	0.00e+00	0	28	0	3573547008	58	4460
2026-01-05 02:10:28.06	181.77	19.31	-46.8	-48.1	14.8	0.00e+00	0	28	0	3578789888	58	4535
2026-01-05 02:10:29.07	181.84	19.19	-46.8	-48.1	14.8	0.00e+00	0	28	0	3584032768	58	4536
2026-01-05 02:10:30.07	181.91	19.07	-46.7	-48.1	14.8	0.00e+00	0	28	0	3590324224	58	4498
2026-01-05 02:10:31.07	181.98	18.95	-46.7	-48.1	14.9	0.00e+00	0	28	0	3595567104	58	4495
2026-01-05 02:10:32.07	182.05	18.83	-46.7	-48.1	14.8	0.00e+00	0	28	0	3600809984	58	4497
2026-01-05 02:10:33.07	182.12	18.71	-46.7	-48.0	14.9	0.00e+00	0	28	0	3607101440	58	4475
2026-01-05 02:10:34.07	182.19	18.59	-46.7	-48.0	14.9	0.00e+00	0	28	0	3612344320	58	4491
2026-01-05 02:10:35.06	182.26	18.47	-46.7	-48.1	14.8	0.00e+00	0	28	0	3618635776	58	4498
2026-01-05 02:10:36.07	182.32	18.35	-46.7	-48.0	14.9	0.00e+00	0	28	0	3623878656	58	4488
2026-01-05 02:10:37.06	182.39	18.23	-46.7	-48.0	14.8	0.00e+00	0	28	0	3629121536	58	4485
2026-01-05 02:10:38.07	182.46	18.12	-46.7	-48.0	14.9	0.00e+00	0	28	0	3635412992	58	4450
2026-01-05 02:10:39.07	182.52	18.00	-46.8	-48.1	14.8	0.00e+00	0	28	0	3640655872	58	4506
2026-01-05 02:10:40.07	182.59	17.88	-46.8	-48.1	14.8	0.00e+00	0	28	0	3645898752	58	4509
2026-01-05 02:10:41.08	182.65	17.77	-46.7	-47.9	14.9	0.00e+00	0	28	0	3652190208	58	4427
2026-01-05 02:10:42.08	182.72	17.65	-46.7	-47.9	14.9	0.00e+00	0	28	0	3657433088	58	4441
2026-01-05 02:10:43.07	182.78	17.54	-46.7	-48.0	14.9	0.00e+00	0	28	0	3662675968	58	4456
2026-01-05 02:10:44.08	182.84	17.42	-46.8	-48.1	14.9	0.00e+00	0	28	0	3668967424	58	4508
2026-01-05 02:10:45.07	182.91	17.31	-46.9	-48.1	14.8	0.00e+00	0	28	0	3674210304	58	4544
2026-01-05 02:10:46.08	182.97	17.20	-46.8	-48.1	14.8	0.00e+00	0	28	0	3680501760	58	4532
2026-01-05 02:10:47.07	183.03	17.08	-46.7	-48.0	14.9	0.00e+00	0	28	0	3685744640	58	4481
2026-01-05 02:10:48.07	183.09	16.97	-46.8	-48.1	14.8	0.00e+00	0	28	0	3690987520	58	4538
2026-01-05 02:10:49.07	183.15	16.86	-47.0	-48.3	14.9	0.00e+00	0	28	0	3697278976	59	4352
2026-01-05 02:10:50.06	183.21	16.75	-47.0	-48.3	14.9	0.00e+00	0	28	0	3702521856	59	4344
2026-01-05 02:10:51.06	183.27	16.64	-47.0	-48.3	14.9	0.00e+00	0	28	0	3707764736	59	4353
2026-01-05 02:10:52.06	183.33	16.53	-47.1	-48.4	14.8	0.00e+00	0	28	0	3714056192	59	4409
2026-01-05 02:10:53.05	183.39	16.42	-47.1	-48.4	14.8	0.00e+00	0	28	0	3719299072	59	4437
2026-01-05 02:10:54.05	183.45	16.31	-47.2	-48.6	14.8	0.00e+00	0	28	0	3724541952	59	4498
