passes_logs/2026/01/05/R3.2S_Murmansk/R3.2S_Murmansk__20260105_011929_NOAA_20_JPSS-1_rec.log

#Pass ID: 20260105_011929_NOAA 20 (JPSS-1)
#Satellite: NOAA 20 (JPSS-1)
#Configuration: NOAA 20
#almurnet v.1.7.20251203
#Start time: 2026-01-05 01:19:29

#Version: 2.2.20231116
#Station: R3.2S_Murmansk
#Location: 33.079688 lon 68.888172 lat
#TLE: 1 43013U 17073A   26004.47528369  .00000132  00000+0  83671-4 0  9999
#TLE: 2 43013  98.7626 305.5264 0001854  54.5883 305.5466 14.19533142421242

#Time	Az	El	Level	Level2	SNR	BER	BlckErr	Temp	State	Recorded	gain1	gain2
2026-01-05 01:19:29.40	27.21	1.98	-58.2	-74.2	3.8	1.49e+00	0	26	104	0	81	24213
2026-01-05 01:19:30.64	27.20	2.06	-58.2	-74.2	3.8	1.49e+00	0	26	104	0	81	24160
2026-01-05 01:19:31.42	27.19	2.11	-58.2	-74.2	3.8	1.49e+00	0	26	104	0	81	24158
2026-01-05 01:19:32.65	27.17	2.19	-58.2	-74.2	3.8	1.49e+00	0	26	104	0	81	24281
2026-01-05 01:19:33.45	27.16	2.24	-58.2	-74.2	3.8	1.49e+00	0	26	104	0	81	24194
2026-01-05 01:19:34.63	27.15	2.31	-58.2	-74.2	3.8	1.49e+00	0	26	104	0	81	24214
2026-01-05 01:19:35.49	27.14	2.37	-58.2	-74.2	3.8	1.49e+00	0	26	104	0	81	24218
2026-01-05 01:19:36.63	27.12	2.44	-58.2	-74.2	3.8	1.49e+00	0	26	104	0	81	24204
2026-01-05 01:19:37.49	27.11	2.50	-58.2	-74.2	3.8	1.49e+00	0	26	104	0	81	24205
2026-01-05 01:19:38.64	27.09	2.57	-58.2	-74.1	3.8	1.49e+00	0	26	104	0	81	24106
2026-01-05 01:19:39.48	27.08	2.63	-58.2	-74.1	3.8	1.49e+00	0	26	104	0	81	24082
2026-01-05 01:19:40.62	27.07	2.70	-58.2	-74.1	3.8	1.49e+00	0	26	104	0	81	24089
2026-01-05 01:19:41.48	27.06	2.76	-58.2	-74.1	3.8	1.49e+00	0	26	104	0	81	24044
2026-01-05 01:19:42.62	27.04	2.83	-58.2	-74.1	3.8	1.49e+00	0	26	104	0	81	24029
2026-01-05 01:19:43.47	27.03	2.89	-58.2	-74.1	3.8	1.49e+00	0	26	104	0	81	23974
2026-01-05 01:19:44.62	27.01	2.96	-58.2	-74.1	3.8	1.49e+00	0	26	104	0	81	23980
2026-01-05 01:19:45.48	27.00	3.02	-58.2	-74.1	3.8	1.49e+00	0	26	104	0	81	24017
2026-01-05 01:19:46.62	26.99	3.10	-58.2	-74.1	3.8	1.49e+00	0	26	104	0	81	24094
2026-01-05 01:19:47.47	26.97	3.15	-58.2	-74.2	3.8	1.49e+00	0	26	104	0	81	24188
2026-01-05 01:19:48.61	26.96	3.23	-58.2	-74.2	3.8	1.49e+00	0	26	104	0	81	24157
2026-01-05 01:19:49.47	26.95	3.28	-58.2	-74.1	3.8	1.49e+00	0	26	104	0	81	24038
2026-01-05 01:19:50.61	26.93	3.36	-58.2	-74.0	3.8	1.49e+00	0	26	104	0	81	23628
2026-01-05 01:19:51.46	26.92	3.42	-58.2	-73.8	3.8	1.49e+00	0	26	104	0	81	23281
2026-01-05 01:19:52.60	26.90	3.49	-58.2	-73.6	3.8	1.49e+00	0	26	104	0	81	22576
2026-01-05 01:19:53.45	26.89	3.55	-58.2	-73.5	3.8	1.49e+00	0	26	104	0	81	22269
2026-01-05 01:19:54.60	26.87	3.63	-58.2	-73.2	3.8	1.49e+00	0	26	104	0	81	21565
2026-01-05 01:19:55.45	26.86	3.68	-58.1	-73.1	3.8	1.49e+00	0	26	104	0	81	21278
2026-01-05 01:19:56.59	26.84	3.76	-58.1	-72.8	3.8	1.49e+00	0	27	104	0	81	20708
2026-01-05 01:19:57.44	26.83	3.82	-58.1	-72.7	3.8	1.49e+00	0	26	104	0	81	20475
2026-01-05 01:19:58.59	26.81	3.90	-58.1	-72.7	3.8	1.49e+00	0	27	104	0	81	20397
2026-01-05 01:19:59.45	26.80	3.96	-58.1	-72.7	3.8	1.49e+00	0	27	104	0	81	20354
2026-01-05 01:20:00.59	26.78	4.03	-58.1	-72.9	3.8	1.49e+00	0	27	104	0	81	20983
2026-01-05 01:20:01.45	26.77	4.09	-58.2	-73.1	3.8	1.49e+00	0	27	104	0	81	21341
2026-01-05 01:20:02.58	26.75	4.17	-58.2	-73.4	3.8	1.49e+00	0	26	104	0	81	22018
2026-01-05 01:20:03.44	26.74	4.23	-58.2	-73.5	3.8	1.49e+00	0	27	104	0	81	22372
2026-01-05 01:20:04.58	26.72	4.31	-58.2	-73.5	3.8	1.49e+00	0	27	104	0	81	22482
2026-01-05 01:20:05.44	26.71	4.37	-58.1	-73.4	3.8	1.49e+00	0	27	104	0	81	22023
2026-01-05 01:20:06.58	26.69	4.45	-58.1	-72.9	3.8	1.49e+00	0	27	104	0	81	20815
2026-01-05 01:20:07.44	26.68	4.51	-58.1	-72.2	3.8	1.49e+00	0	27	104	0	81	19278
2026-01-05 01:20:08.58	26.66	4.58	-58.0	-71.1	4.1	1.48e+00	0	27	104	0	81	16997
2026-01-05 01:20:09.44	26.65	4.64	-58.0	-70.4	4.2	1.38e+00	0	27	0	0	81	15634
2026-01-05 01:20:10.58	26.63	4.72	-58.0	-69.5	4.5	1.19e+00	0	27	0	1048576	81	14166
2026-01-05 01:20:11.43	26.61	4.78	-57.9	-69.0	4.8	8.96e-01	0	27	0	3145728	81	13323
2026-01-05 01:20:12.58	26.60	4.87	-57.8	-67.9	5.3	5.82e-01	0	27	0	5242880	81	11724
2026-01-05 01:20:13.43	26.58	4.92	-57.8	-67.4	5.6	4.41e-01	0	27	0	6291456	81	11079
2026-01-05 01:20:14.57	26.56	5.01	-57.7	-66.7	6.0	2.95e-01	0	27	0	8388608	81	10276
2026-01-05 01:20:15.42	26.55	5.07	-57.9	-67.5	5.7	2.66e-01	0	27	0	10485760	81	11252
2026-01-05 01:20:16.56	26.53	5.15	-58.4	-72.9	3.8	1.49e+00	0	27	104	10485760	81	20954
2026-01-05 01:20:17.42	26.52	5.21	-58.0	-68.2	5.0	1.49e+00	1	27	104	10485760	82	11454
2026-01-05 01:20:18.56	26.50	5.29	-57.2	-64.3	7.8	2.99e-01	0	27	0	11534336	81	7741
2026-01-05 01:20:19.42	26.48	5.35	-57.4	-65.0	7.4	7.57e-03	0	27	0	13631488	79	9459
2026-01-05 01:20:20.56	26.46	5.43	-57.5	-65.9	6.4	1.47e+00	0	27	0	13631488	81	9372
2026-01-05 01:20:21.41	26.45	5.49	-56.5	-61.6	10.2	9.95e-03	0	27	0	14680064	79	6372
2026-01-05 01:20:22.55	26.43	5.58	-55.7	-59.7	11.7	4.34e-05	0	27	0	16777216	78	5416
2026-01-05 01:20:23.41	26.41	5.64	-55.3	-58.7	12.3	2.20e-06	0	27	0	18874368	77	5155
2026-01-05 01:20:24.56	26.39	5.72	-54.9	-58.2	12.7	7.00e-07	0	27	0	20971520	76	5101
2026-01-05 01:20:25.42	26.38	5.78	-54.5	-57.5	13.0	0.00e+00	0	27	0	22020096	75	4992
2026-01-05 01:20:26.56	26.36	5.87	-54.4	-57.3	13.1	0.00e+00	0	27	0	24117248	75	4873
2026-01-05 01:20:27.42	26.34	5.93	-54.4	-57.3	13.1	0.00e+00	0	27	0	26214400	75	4913
2026-01-05 01:20:28.55	26.32	6.01	-54.3	-57.1	13.3	0.00e+00	0	27	0	28311552	75	4791
2026-01-05 01:20:29.41	26.31	6.08	-54.3	-57.1	13.3	0.00e+00	0	27	0	29360128	75	4768
2026-01-05 01:20:30.55	26.29	6.16	-54.1	-56.8	13.4	0.00e+00	0	27	0	31457280	74	4893
2026-01-05 01:20:31.41	26.27	6.22	-54.1	-56.7	13.4	0.00e+00	0	27	0	33554432	74	4843
2026-01-05 01:20:32.56	26.25	6.31	-54.1	-56.7	13.4	0.00e+00	0	27	0	35651584	74	4859
2026-01-05 01:20:33.41	26.23	6.37	-54.1	-56.7	13.4	0.00e+00	0	27	0	37748736	74	4828
2026-01-05 01:20:34.55	26.21	6.46	-54.1	-56.7	13.5	0.00e+00	0	27	0	39845888	74	4830
2026-01-05 01:20:35.41	26.20	6.52	-54.0	-56.6	13.5	0.00e+00	0	27	0	40894464	74	4761
2026-01-05 01:20:36.55	26.18	6.61	-54.0	-56.6	13.5	0.00e+00	0	27	0	42991616	74	4767
2026-01-05 01:20:37.41	26.16	6.67	-54.1	-56.6	13.5	0.00e+00	0	27	0	45088768	74	4804
2026-01-05 01:20:38.54	26.14	6.76	-54.0	-56.6	13.5	0.00e+00	0	27	0	47185920	74	4777
2026-01-05 01:20:39.38	26.12	6.82	-54.0	-56.5	13.5	0.00e+00	0	27	0	48234496	74	4759
2026-01-05 01:20:40.52	26.10	6.91	-53.9	-56.4	13.6	0.00e+00	0	27	0	50331648	74	4699
2026-01-05 01:20:41.37	26.08	6.97	-53.9	-56.4	13.6	0.00e+00	0	27	0	52428800	74	4672
2026-01-05 01:20:42.51	26.06	7.06	-54.0	-56.5	13.6	0.00e+00	0	27	0	54525952	74	4712
2026-01-05 01:20:43.37	26.04	7.13	-53.8	-56.3	13.7	0.00e+00	0	27	0	55574528	74	4622
2026-01-05 01:20:44.50	26.02	7.21	-53.8	-56.2	13.7	0.00e+00	0	27	0	57671680	74	4597
2026-01-05 01:20:45.36	26.00	7.28	-53.8	-56.3	13.7	0.00e+00	0	27	0	59768832	74	4605
2026-01-05 01:20:46.50	25.98	7.37	-53.7	-56.1	13.8	0.00e+00	0	27	0	61865984	74	4520
2026-01-05 01:20:47.36	25.96	7.43	-53.8	-56.2	13.8	0.00e+00	0	27	0	62914560	74	4552
2026-01-05 01:20:48.50	25.94	7.52	-53.8	-56.2	13.7	0.00e+00	0	27	0	66060288	74	4571
2026-01-05 01:20:49.36	25.92	7.59	-53.8	-56.2	13.8	0.00e+00	0	27	0	67108864	74	4547
2026-01-05 01:20:50.50	25.90	7.68	-53.7	-56.1	13.8	0.00e+00	0	27	0	69206016	74	4513
2026-01-05 01:20:51.36	25.88	7.75	-53.7	-56.1	13.8	0.00e+00	0	27	0	71303168	74	4519
2026-01-05 01:20:52.50	25.86	7.84	-53.8	-56.2	13.8	0.00e+00	0	27	0	73400320	74	4551
2026-01-05 01:20:53.36	25.84	7.90	-53.7	-56.1	13.9	0.00e+00	0	27	0	74448896	74	4495
2026-01-05 01:20:54.50	25.82	7.99	-53.6	-56.0	13.8	0.00e+00	0	27	0	76546048	73	4709
2026-01-05 01:20:55.35	25.80	8.06	-53.6	-55.9	13.8	0.00e+00	0	27	0	78643200	73	4685
2026-01-05 01:20:56.50	25.77	8.15	-53.6	-55.8	13.9	0.00e+00	0	27	0	80740352	73	4644
2026-01-05 01:20:57.35	25.76	8.22	-53.5	-55.8	13.9	0.00e+00	0	27	0	81788928	73	4632
2026-01-05 01:20:58.50	25.73	8.31	-53.5	-55.8	13.9	0.00e+00	0	27	0	83886080	73	4636
2026-01-05 01:20:59.36	25.71	8.38	-53.5	-55.7	13.9	0.00e+00	0	27	0	85983232	73	4589
2026-01-05 01:21:00.50	25.69	8.47	-53.4	-55.7	14.0	0.00e+00	0	27	0	88080384	73	4556
2026-01-05 01:21:01.36	25.67	8.54	-53.4	-55.6	14.0	0.00e+00	0	27	0	90177536	73	4515
2026-01-05 01:21:02.50	25.64	8.64	-53.4	-55.6	14.0	0.00e+00	0	27	0	92274688	73	4530
2026-01-05 01:21:03.36	25.62	8.71	-53.3	-55.5	14.1	0.00e+00	0	27	0	93323264	73	4445
2026-01-05 01:21:04.51	25.60	8.80	-53.3	-55.5	14.1	0.00e+00	0	27	0	95420416	73	4463
2026-01-05 01:21:05.37	25.58	8.87	-53.3	-55.5	14.1	0.00e+00	0	27	0	97517568	73	4449
2026-01-05 01:21:06.51	25.55	8.96	-53.3	-55.4	14.1	0.00e+00	0	28	0	99614720	73	4435
2026-01-05 01:21:07.37	25.53	9.03	-53.2	-55.3	14.2	0.00e+00	0	27	0	100663296	73	4353
2026-01-05 01:21:08.52	25.51	9.13	-53.2	-55.3	14.1	0.00e+00	0	27	0	102760448	72	4629
2026-01-05 01:21:09.37	25.49	9.20	-53.2	-55.3	14.1	0.00e+00	0	28	0	104857600	72	4617
2026-01-05 01:21:10.51	25.46	9.29	-53.2	-55.3	14.1	0.00e+00	0	27	0	106954752	72	4646
2026-01-05 01:21:11.37	25.44	9.37	-53.2	-55.3	14.1	0.00e+00	0	27	0	108003328	72	4620
2026-01-05 01:21:12.51	25.41	9.46	-53.2	-55.3	14.1	0.00e+00	0	27	0	110100480	72	4624
2026-01-05 01:21:13.36	25.39	9.53	-53.1	-55.2	14.1	0.00e+00	0	27	0	112197632	72	4550
2026-01-05 01:21:14.50	25.36	9.63	-53.0	-55.1	14.2	0.00e+00	0	27	0	114294784	72	4512
2026-01-05 01:21:15.36	25.34	9.70	-53.0	-55.0	14.2	0.00e+00	0	27	0	116391936	72	4490
2026-01-05 01:21:16.50	25.32	9.80	-52.9	-54.9	14.3	0.00e+00	0	27	0	118489088	72	4433
2026-01-05 01:21:17.36	25.29	9.87	-53.0	-55.0	14.2	0.00e+00	0	27	0	119537664	72	4485
2026-01-05 01:21:18.51	25.27	9.97	-53.0	-55.1	14.2	0.00e+00	0	28	0	121634816	72	4501
2026-01-05 01:21:19.36	25.24	10.04	-52.9	-54.9	14.3	0.00e+00	0	27	0	123731968	72	4430
2026-01-05 01:21:20.51	25.22	10.14	-53.0	-55.0	14.2	0.00e+00	0	27	0	125829120	72	4454
2026-01-05 01:21:21.37	25.19	10.22	-53.0	-55.0	14.2	0.00e+00	0	27	0	126877696	72	4485
2026-01-05 01:21:22.51	25.16	10.32	-52.8	-54.8	14.3	0.00e+00	0	27	0	128974848	72	4363
2026-01-05 01:21:23.37	25.14	10.39	-52.8	-54.7	14.4	0.00e+00	0	27	0	131072000	72	4340
2026-01-05 01:21:24.51	25.11	10.49	-52.8	-54.7	14.4	0.00e+00	0	27	0	133169152	72	4314
2026-01-05 01:21:25.36	25.09	10.56	-52.8	-54.7	14.4	0.00e+00	0	27	0	134217728	72	4339
2026-01-05 01:21:26.51	25.06	10.67	-52.7	-54.6	14.3	0.00e+00	0	27	0	137363456	71	4505
2026-01-05 01:21:27.36	25.04	10.74	-52.7	-54.7	14.3	0.00e+00	0	27	0	138412032	71	4566
2026-01-05 01:21:28.50	25.01	10.84	-52.6	-54.5	14.4	0.00e+00	0	27	0	140509184	71	4454
2026-01-05 01:21:29.36	24.99	10.92	-52.6	-54.5	14.4	0.00e+00	0	27	0	142606336	71	4488
2026-01-05 01:21:30.50	24.96	11.02	-52.7	-54.6	14.3	0.00e+00	0	27	0	144703488	71	4526
2026-01-05 01:21:31.36	24.93	11.10	-52.6	-54.5	14.4	0.00e+00	0	27	0	145752064	71	4493
2026-01-05 01:21:32.50	24.90	11.20	-52.6	-54.6	14.3	0.00e+00	0	27	0	147849216	71	4494
2026-01-05 01:21:33.36	24.88	11.28	-52.5	-54.4	14.4	0.00e+00	0	28	0	149946368	71	4432
2026-01-05 01:21:34.49	24.85	11.38	-52.5	-54.4	14.4	0.00e+00	0	27	0	152043520	71	4428
2026-01-05 01:21:35.36	24.82	11.46	-52.5	-54.3	14.4	0.00e+00	0	28	0	153092096	71	4375
2026-01-05 01:21:36.50	24.79	11.56	-52.4	-54.3	14.5	0.00e+00	0	28	0	155189248	71	4363
2026-01-05 01:21:37.36	24.77	11.64	-52.5	-54.3	14.5	0.00e+00	0	27	0	157286400	71	4384
2026-01-05 01:21:38.50	24.73	11.74	-52.4	-54.3	14.5	0.00e+00	0	27	0	159383552	71	4359
2026-01-05 01:21:39.36	24.71	11.82	-52.4	-54.3	14.5	0.00e+00	0	28	0	160432128	71	4361
2026-01-05 01:21:40.50	24.68	11.93	-52.4	-54.3	14.5	0.00e+00	0	27	0	163577856	71	4345
2026-01-05 01:21:41.36	24.65	12.01	-52.5	-54.3	14.5	0.00e+00	0	27	0	164626432	71	4381
2026-01-05 01:21:42.50	24.62	12.11	-52.4	-54.2	14.5	0.00e+00	0	27	0	166723584	71	4331
2026-01-05 01:21:43.35	24.59	12.19	-52.4	-54.3	14.5	0.00e+00	0	27	0	168820736	71	4343
2026-01-05 01:21:44.49	24.56	12.30	-52.5	-54.3	14.5	0.00e+00	0	28	0	170917888	71	4381
2026-01-05 01:21:45.34	24.53	12.38	-52.5	-54.4	14.5	0.00e+00	0	27	0	171966464	71	4405
2026-01-05 01:21:46.47	24.50	12.49	-52.3	-54.1	14.6	0.00e+00	0	28	0	174063616	71	4281
2026-01-05 01:21:47.33	24.47	12.57	-52.3	-54.1	14.6	0.00e+00	0	27	0	176160768	71	4277
2026-01-05 01:21:48.47	24.44	12.68	-52.3	-54.1	14.6	0.00e+00	0	27	0	178257920	71	4257
2026-01-05 01:21:49.33	24.41	12.76	-52.3	-54.1	14.6	0.00e+00	0	28	0	179306496	71	4269
2026-01-05 01:21:50.47	24.38	12.87	-52.3	-54.1	14.6	0.00e+00	0	28	0	181403648	71	4259
2026-01-05 01:21:51.33	24.35	12.95	-52.2	-54.0	14.6	0.00e+00	0	27	0	183500800	71	4223
2026-01-05 01:21:52.47	24.31	13.06	-52.2	-54.0	14.6	0.00e+00	0	28	0	185597952	71	4208
2026-01-05 01:21:53.32	24.29	13.14	-52.3	-54.1	14.6	0.00e+00	0	28	0	186646528	71	4246
2026-01-05 01:21:54.46	24.25	13.25	-52.2	-53.9	14.7	0.00e+00	0	28	0	188743680	71	4175
2026-01-05 01:21:55.32	24.22	13.34	-52.1	-53.9	14.6	0.00e+00	0	28	0	190840832	70	4412
2026-01-05 01:21:56.47	24.18	13.45	-52.1	-53.8	14.6	0.00e+00	0	28	0	192937984	70	4391
2026-01-05 01:21:57.33	24.16	13.54	-52.1	-53.9	14.6	0.00e+00	0	28	0	195035136	70	4399
2026-01-05 01:21:58.47	24.12	13.65	-52.1	-53.8	14.6	0.00e+00	0	27	0	197132288	70	4368
2026-01-05 01:21:59.33	24.09	13.73	-52.1	-53.8	14.6	0.00e+00	0	27	0	198180864	70	4373
2026-01-05 01:22:00.48	24.05	13.85	-52.1	-53.8	14.6	0.00e+00	0	28	0	200278016	70	4366
2026-01-05 01:22:01.33	24.02	13.93	-52.1	-53.8	14.6	0.00e+00	0	28	0	202375168	70	4352
2026-01-05 01:22:02.48	23.98	14.05	-52.0	-53.7	14.6	0.00e+00	0	28	0	204472320	70	4324
2026-01-05 01:22:03.34	23.96	14.14	-52.0	-53.7	14.6	0.00e+00	0	28	0	205520896	70	4324
2026-01-05 01:22:04.47	23.92	14.25	-52.0	-53.7	14.6	0.00e+00	0	27	0	207618048	70	4322
2026-01-05 01:22:05.33	23.89	14.34	-52.0	-53.7	14.6	0.00e+00	0	28	0	209715200	70	4314
2026-01-05 01:22:06.47	23.85	14.46	-51.9	-53.6	14.7	0.00e+00	0	28	0	211812352	70	4269
2026-01-05 01:22:07.33	23.82	14.54	-52.0	-53.7	14.7	0.00e+00	0	28	0	212860928	70	4294
2026-01-05 01:22:08.47	23.78	14.66	-51.9	-53.5	14.7	0.00e+00	0	27	0	216006656	70	4242
2026-01-05 01:22:09.33	23.74	14.75	-51.9	-53.6	14.7	0.00e+00	0	27	0	217055232	70	4259
2026-01-05 01:22:10.47	23.70	14.87	-51.9	-53.6	14.7	0.00e+00	0	27	0	219152384	70	4263
2026-01-05 01:22:11.32	23.67	14.96	-51.8	-53.5	14.7	0.00e+00	0	28	0	221249536	70	4230
2026-01-05 01:22:12.47	23.63	15.08	-51.8	-53.5	14.7	0.00e+00	0	28	0	223346688	70	4216
2026-01-05 01:22:13.32	23.60	15.17	-51.9	-53.6	14.7	0.00e+00	0	28	0	224395264	70	4257
2026-01-05 01:22:14.46	23.56	15.29	-51.8	-53.5	14.7	0.00e+00	0	28	0	226492416	70	4206
2026-01-05 01:22:15.32	23.52	15.38	-51.8	-53.4	14.8	0.00e+00	0	28	0	228589568	70	4193
2026-01-05 01:22:16.45	23.48	15.50	-51.8	-53.4	14.8	0.00e+00	0	28	0	230686720	70	4168
2026-01-05 01:22:17.30	23.45	15.59	-51.8	-53.5	14.7	0.00e+00	0	28	0	231735296	70	4205
2026-01-05 01:22:18.45	23.41	15.71	-51.7	-53.3	14.8	0.00e+00	0	28	0	233832448	70	4132
2026-01-05 01:22:19.31	23.37	15.81	-51.7	-53.4	14.8	0.00e+00	0	27	0	235929600	70	4152
2026-01-05 01:22:20.45	23.33	15.93	-51.6	-53.2	14.7	0.00e+00	0	28	0	238026752	69	4339
2026-01-05 01:22:21.31	23.29	16.02	-51.6	-53.2	14.7	0.00e+00	0	28	0	239075328	69	4319
2026-01-05 01:22:22.45	23.25	16.15	-51.6	-53.2	14.7	0.00e+00	0	28	0	242221056	69	4338
2026-01-05 01:22:23.30	23.21	16.24	-51.6	-53.2	14.8	0.00e+00	0	28	0	243269632	69	4304
2026-01-05 01:22:24.45	23.17	16.37	-51.6	-53.2	14.7	0.00e+00	0	28	0	245366784	69	4309
2026-01-05 01:22:25.31	23.13	16.46	-51.6	-53.2	14.7	0.00e+00	0	28	0	247463936	69	4305
2026-01-05 01:22:26.46	23.09	16.59	-51.5	-53.1	14.8	0.00e+00	0	28	0	249561088	69	4269
2026-01-05 01:22:27.32	23.05	16.69	-51.6	-53.2	14.7	0.00e+00	0	28	0	250609664	69	4299
2026-01-05 01:22:28.46	23.00	16.81	-51.5	-53.1	14.8	0.00e+00	0	28	0	252706816	69	4284
2026-01-05 01:22:29.31	22.97	16.91	-51.5	-53.1	14.8	0.00e+00	0	28	0	254803968	69	4273
2026-01-05 01:22:30.45	22.92	17.04	-51.4	-52.9	14.9	0.00e+00	0	28	0	256901120	69	4178
2026-01-05 01:22:31.30	22.88	17.14	-51.4	-53.0	14.8	0.00e+00	0	28	0	257949696	69	4212
2026-01-05 01:22:32.45	22.83	17.27	-51.5	-53.1	14.8	0.00e+00	0	28	0	260046848	69	4249
2026-01-05 01:22:33.31	22.80	17.37	-51.4	-52.9	14.9	0.00e+00	0	28	0	262144000	69	4181
2026-01-05 01:22:34.45	22.75	17.50	-51.4	-52.9	14.9	0.00e+00	0	28	0	264241152	69	4177
2026-01-05 01:22:35.31	22.71	17.60	-51.5	-53.1	14.8	0.00e+00	0	28	0	266338304	69	4274
2026-01-05 01:22:36.45	22.66	17.73	-51.3	-52.9	14.9	0.00e+00	0	28	0	268435456	69	4168
2026-01-05 01:22:37.30	22.62	17.83	-51.3	-52.8	14.9	0.00e+00	0	28	0	269484032	69	4140
2026-01-05 01:22:38.44	22.57	17.96	-51.3	-52.9	14.9	0.00e+00	0	28	0	271581184	69	4169
2026-01-05 01:22:39.30	22.53	18.06	-51.3	-52.8	14.9	0.00e+00	0	28	0	273678336	69	4142
2026-01-05 01:22:40.44	22.48	18.20	-51.3	-52.9	14.9	0.00e+00	0	28	0	275775488	69	4164
2026-01-05 01:22:41.30	22.44	18.30	-51.4	-52.9	14.9	0.00e+00	0	28	0	276824064	69	4191
2026-01-05 01:22:42.44	22.38	18.44	-51.4	-52.9	14.9	0.00e+00	0	28	0	278921216	69	4183
2026-01-05 01:22:43.29	22.34	18.54	-51.4	-53.0	14.8	0.00e+00	0	28	0	281018368	69	4206
2026-01-05 01:22:44.44	22.29	18.68	-51.4	-53.0	14.9	0.00e+00	0	28	0	283115520	69	4208
2026-01-05 01:22:45.29	22.25	18.78	-51.4	-52.9	14.9	0.00e+00	0	28	0	284164096	69	4182
2026-01-05 01:22:46.43	22.19	18.92	-51.4	-53.0	14.8	0.00e+00	0	28	0	286261248	69	4216
2026-01-05 01:22:47.28	22.15	19.03	-51.4	-52.9	14.9	0.00e+00	0	28	0	288358400	69	4183
2026-01-05 01:22:48.42	22.09	19.17	-51.3	-52.9	14.9	0.00e+00	0	28	0	290455552	69	4151
2026-01-05 01:22:49.27	22.05	19.27	-51.3	-52.9	14.9	0.00e+00	0	28	0	291504128	69	4147
2026-01-05 01:22:50.41	22.00	19.41	-51.4	-52.9	14.8	0.00e+00	0	28	0	294649856	69	4193
2026-01-05 01:22:51.26	21.95	19.52	-51.3	-52.9	14.9	0.00e+00	0	28	0	295698432	69	4160
2026-01-05 01:22:52.40	21.89	19.66	-51.3	-52.8	14.9	0.00e+00	0	28	0	297795584	69	4144
2026-01-05 01:22:53.25	21.85	19.77	-51.3	-52.9	14.9	0.00e+00	0	28	0	299892736	69	4150
2026-01-05 01:22:54.39	21.79	19.91	-51.3	-52.8	14.9	0.00e+00	0	27	0	301989888	69	4135
2026-01-05 01:22:55.25	21.75	20.02	-51.2	-52.7	14.9	0.00e+00	0	28	0	303038464	69	4098
2026-01-05 01:22:56.39	21.69	20.17	-51.2	-52.7	15.0	0.00e+00	0	28	0	305135616	69	4075
2026-01-05 01:22:57.24	21.64	20.28	-51.2	-52.7	15.0	0.00e+00	0	28	0	307232768	69	4087
2026-01-05 01:22:58.39	21.58	20.43	-51.3	-52.8	14.9	0.00e+00	0	28	0	309329920	69	4137
2026-01-05 01:22:59.24	21.53	20.54	-51.3	-52.9	14.9	0.00e+00	0	28	0	310378496	69	4152
2026-01-05 01:23:00.38	21.47	20.68	-51.3	-52.8	14.9	0.00e+00	0	28	0	312475648	69	4130
2026-01-05 01:23:01.24	21.42	20.80	-51.3	-52.9	14.9	0.00e+00	0	28	0	314572800	69	4158
2026-01-05 01:23:02.38	21.36	20.95	-51.1	-52.6	14.9	0.00e+00	0	28	0	316669952	68	4285
2026-01-05 01:23:03.24	21.31	21.06	-51.2	-52.7	14.8	0.00e+00	0	28	0	317718528	68	4316
2026-01-05 01:23:04.38	21.25	21.21	-51.2	-52.7	14.8	0.00e+00	0	28	0	319815680	68	4309
2026-01-05 01:23:05.24	21.20	21.33	-51.1	-52.6	14.9	0.00e+00	0	28	0	321912832	68	4278
2026-01-05 01:23:06.38	21.13	21.48	-51.2	-52.7	14.8	0.00e+00	0	28	0	324009984	68	4331
2026-01-05 01:23:07.23	21.08	21.60	-51.2	-52.8	14.8	0.00e+00	0	28	0	326107136	68	4351
2026-01-05 01:23:08.37	21.01	21.75	-51.4	-52.9	14.7	0.00e+00	0	28	0	328204288	68	4441
2026-01-05 01:23:09.23	20.96	21.87	-51.3	-52.8	14.8	0.00e+00	0	28	0	329252864	68	4368
2026-01-05 01:23:10.38	20.89	22.03	-51.2	-52.7	14.9	0.00e+00	0	28	0	331350016	68	4306
2026-01-05 01:23:11.23	20.84	22.14	-51.2	-52.7	14.9	0.00e+00	0	28	0	333447168	68	4303
2026-01-05 01:23:12.38	20.77	22.30	-51.2	-52.7	14.9	0.00e+00	0	28	0	335544320	68	4324
2026-01-05 01:23:13.23	20.72	22.42	-51.1	-52.6	14.9	0.00e+00	0	28	0	336592896	68	4278
2026-01-05 01:23:14.37	20.65	22.58	-51.2	-52.7	14.9	0.00e+00	0	28	0	338690048	68	4298
2026-01-05 01:23:15.22	20.59	22.70	-51.2	-52.8	14.8	0.00e+00	0	28	0	340787200	68	4346
2026-01-05 01:23:16.36	20.52	22.86	-51.2	-52.7	14.8	0.00e+00	0	28	0	342884352	68	4330
2026-01-05 01:23:17.22	20.47	22.98	-51.2	-52.7	14.9	0.00e+00	0	28	0	343932928	68	4300
2026-01-05 01:23:18.36	20.39	23.15	-51.2	-52.7	14.9	0.00e+00	0	28	0	347078656	68	4300
2026-01-05 01:23:19.21	20.34	23.27	-51.3	-52.8	14.8	0.00e+00	0	28	0	348127232	68	4356
2026-01-05 01:23:20.36	20.26	23.43	-51.4	-52.9	14.8	0.00e+00	0	28	0	350224384	68	4433
2026-01-05 01:23:21.22	20.20	23.56	-51.4	-52.9	14.8	0.00e+00	0	28	0	352321536	68	4432
2026-01-05 01:23:22.36	20.13	23.73	-51.4	-52.9	14.8	0.00e+00	0	28	0	354418688	68	4408
2026-01-05 01:23:23.22	20.07	23.85	-51.5	-53.0	14.8	0.00e+00	0	28	0	355467264	68	4472
2026-01-05 01:23:24.36	19.99	24.02	-51.5	-53.1	14.7	0.00e+00	0	28	0	357564416	68	4499
2026-01-05 01:23:25.22	19.93	24.15	-51.5	-53.1	14.7	0.00e+00	0	28	0	359661568	68	4494
2026-01-05 01:23:26.36	19.85	24.32	-51.6	-53.1	14.7	0.00e+00	0	28	0	361758720	68	4540
2026-01-05 01:23:27.21	19.79	24.45	-51.6	-53.2	14.7	0.00e+00	0	28	0	362807296	68	4563
2026-01-05 01:23:28.35	19.71	24.62	-51.7	-53.4	14.6	0.00e+00	0	28	0	364904448	68	4653
2026-01-05 01:23:29.21	19.65	24.75	-51.7	-53.3	14.6	0.00e+00	0	28	0	367001600	68	4650
2026-01-05 01:23:30.35	19.56	24.92	-51.8	-53.4	14.6	0.00e+00	0	28	0	369098752	68	4703
2026-01-05 01:23:31.22	19.50	25.05	-52.0	-53.6	14.6	0.00e+00	0	28	0	370147328	69	4524
2026-01-05 01:23:32.36	19.41	25.23	-52.1	-53.8	14.6	0.00e+00	0	28	0	373293056	69	4609
2026-01-05 01:23:33.22	19.35	25.36	-52.1	-53.8	14.6	0.00e+00	0	28	0	374341632	69	4613
2026-01-05 01:23:34.36	19.26	25.54	-52.1	-53.8	14.6	0.00e+00	0	28	0	376438784	69	4640
2026-01-05 01:23:35.22	19.20	25.68	-52.2	-53.9	14.6	0.00e+00	0	28	0	378535936	70	4431
2026-01-05 01:23:36.35	19.11	25.85	-52.4	-54.1	14.5	0.00e+00	0	28	0	380633088	70	4508
2026-01-05 01:23:37.21	19.04	25.99	-52.4	-54.1	14.5	0.00e+00	0	28	0	381681664	70	4543
2026-01-05 01:23:38.35	18.95	26.17	-52.6	-54.3	14.5	0.00e+00	0	28	0	383778816	70	4638
2026-01-05 01:23:39.21	18.88	26.31	-52.7	-54.5	14.4	0.00e+00	0	28	0	385875968	70	4710
2026-01-05 01:23:40.35	18.79	26.49	-52.7	-54.5	14.4	0.00e+00	0	28	0	387973120	70	4747
2026-01-05 01:23:41.21	18.72	26.63	-52.8	-54.6	14.4	0.00e+00	0	28	0	389021696	70	4802
2026-01-05 01:23:42.35	18.62	26.82	-52.9	-54.8	14.4	0.00e+00	0	28	0	391118848	71	4619
2026-01-05 01:23:43.20	18.55	26.96	-53.1	-55.0	14.3	0.00e+00	0	28	0	393216000	71	4724
2026-01-05 01:23:44.34	18.46	27.15	-53.2	-55.1	14.2	0.00e+00	0	28	0	395313152	71	4805
2026-01-05 01:23:45.19	18.38	27.29	-53.4	-55.3	14.2	0.00e+00	0	28	0	396361728	71	4906
2026-01-05 01:23:46.34	18.28	27.48	-53.5	-55.5	14.2	0.00e+00	0	28	0	398458880	72	4759
2026-01-05 01:23:47.19	18.21	27.62	-53.7	-55.8	14.1	0.00e+00	0	28	0	400556032	72	4871
2026-01-05 01:23:48.33	18.11	27.81	-53.9	-56.1	14.0	0.00e+00	0	28	0	402653184	73	4762
2026-01-05 01:23:49.20	18.03	27.96	-54.0	-56.2	14.0	0.00e+00	0	28	0	404750336	73	4840
2026-01-05 01:23:50.34	17.93	28.15	-54.2	-56.4	13.9	0.00e+00	0	28	0	406847488	73	4972
2026-01-05 01:23:51.19	17.85	28.30	-54.4	-56.7	13.8	0.00e+00	0	28	0	407896064	73	5105
2026-01-05 01:23:52.33	17.75	28.50	-54.5	-56.8	13.8	0.00e+00	0	28	0	409993216	74	4876
2026-01-05 01:23:53.18	17.67	28.64	-54.5	-56.9	13.7	0.00e+00	0	28	0	412090368	74	4929
2026-01-05 01:23:54.32	17.56	28.84	-54.5	-56.8	13.8	0.00e+00	0	28	0	414187520	74	4923
2026-01-05 01:23:55.17	17.48	28.99	-54.5	-56.8	13.8	0.00e+00	0	28	0	415236096	74	4873
2026-01-05 01:23:56.32	17.37	29.19	-54.5	-56.8	13.8	0.00e+00	0	28	0	417333248	74	4889
2026-01-05 01:23:57.19	17.28	29.35	-54.4	-56.7	13.8	0.00e+00	0	28	0	419430400	74	4839
2026-01-05 01:23:58.33	17.17	29.55	-54.4	-56.7	13.8	0.00e+00	0	28	0	421527552	74	4842
2026-01-05 01:23:59.17	17.08	29.70	-54.5	-56.7	13.8	0.00e+00	0	28	0	422576128	74	4859
2026-01-05 01:24:00.31	16.97	29.91	-54.5	-56.8	13.8	0.00e+00	0	28	0	425721856	74	4916
2026-01-05 01:24:01.17	16.88	30.06	-54.6	-56.9	13.7	0.00e+00	0	28	0	426770432	74	4945
2026-01-05 01:24:02.31	16.76	30.27	-54.6	-57.0	13.7	0.00e+00	0	28	0	428867584	74	4991
2026-01-05 01:24:03.16	16.67	30.43	-54.7	-57.0	13.7	0.00e+00	0	28	0	430964736	74	5032
2026-01-05 01:24:04.30	16.55	30.64	-54.7	-57.1	13.6	0.00e+00	0	28	0	433061888	74	5079
2026-01-05 01:24:05.16	16.46	30.80	-54.8	-57.2	13.6	0.00e+00	0	28	0	434110464	74	5148
2026-01-05 01:24:06.31	16.34	31.01	-54.9	-57.3	13.5	0.00e+00	0	28	0	436207616	74	5214
2026-01-05 01:24:07.17	16.24	31.17	-54.9	-57.4	13.5	0.00e+00	0	28	0	438304768	74	5228
2026-01-05 01:24:08.32	16.11	31.39	-54.9	-57.4	13.6	0.00e+00	0	28	0	440401920	75	4946
2026-01-05 01:24:09.17	16.02	31.55	-55.1	-57.7	13.5	0.00e+00	0	28	0	441450496	75	5122
2026-01-05 01:24:10.32	15.89	31.77	-55.1	-57.7	13.4	0.00e+00	0	28	0	443547648	75	5124
2026-01-05 01:24:11.17	15.79	31.93	-55.2	-57.8	13.4	0.00e+00	0	28	0	445644800	75	5212
2026-01-05 01:24:12.31	15.66	32.16	-55.5	-58.2	13.2	0.00e+00	0	28	0	447741952	76	5144
2026-01-05 01:24:13.17	15.56	32.32	-55.6	-58.3	13.2	0.00e+00	0	28	0	449839104	76	5218
2026-01-05 01:24:14.31	15.42	32.55	-55.6	-58.4	13.2	0.00e+00	0	28	0	451936256	76	5253
2026-01-05 01:24:15.17	15.32	32.71	-55.7	-58.4	13.1	0.00e+00	0	28	0	452984832	76	5269
2026-01-05 01:24:16.31	15.18	32.94	-55.7	-58.4	13.1	0.00e+00	0	28	0	455081984	76	5269
2026-01-05 01:24:17.17	15.07	33.11	-55.7	-58.5	13.1	0.00e+00	0	28	0	457179136	76	5327
2026-01-05 01:24:18.31	14.93	33.34	-55.7	-58.5	13.1	0.00e+00	0	28	0	459276288	76	5305
2026-01-05 01:24:19.15	14.82	33.51	-55.7	-58.5	13.1	0.00e+00	0	28	0	460324864	76	5320
2026-01-05 01:24:20.29	14.67	33.74	-55.6	-58.4	13.2	0.00e+00	0	28	0	462422016	76	5239
2026-01-05 01:24:21.14	14.56	33.91	-55.6	-58.3	13.2	0.00e+00	0	28	0	464519168	76	5205
2026-01-05 01:24:22.27	14.41	34.14	-55.6	-58.4	13.2	0.00e+00	0	28	0	466616320	76	5235
2026-01-05 01:24:23.13	14.30	34.32	-55.7	-58.4	13.2	0.00e+00	0	28	0	467664896	76	5268
2026-01-05 01:24:24.27	14.14	34.56	-55.5	-58.2	13.2	0.00e+00	0	28	0	469762048	76	5144
2026-01-05 01:24:25.13	14.02	34.74	-55.6	-58.3	13.2	0.00e+00	0	28	0	471859200	76	5193
2026-01-05 01:24:26.27	13.86	34.98	-55.5	-58.1	13.3	0.00e+00	0	28	0	473956352	76	5095
2026-01-05 01:24:27.13	13.74	35.16	-55.7	-58.5	13.1	0.00e+00	0	28	0	475004928	76	5300
2026-01-05 01:24:28.28	13.58	35.40	-55.7	-58.5	13.1	0.00e+00	0	28	0	478150656	76	5295
2026-01-05 01:24:29.13	13.45	35.58	-55.8	-58.6	13.1	0.00e+00	0	28	0	479199232	76	5361
2026-01-05 01:24:30.28	13.29	35.83	-55.8	-58.6	13.0	0.00e+00	0	28	0	481296384	76	5396
2026-01-05 01:24:31.13	13.16	36.01	-55.8	-58.7	13.0	0.00e+00	0	28	0	483393536	76	5424
2026-01-05 01:24:32.28	12.99	36.26	-56.0	-58.9	13.0	0.00e+00	0	28	0	485490688	77	5247
2026-01-05 01:24:33.14	12.85	36.45	-55.9	-58.7	13.1	0.00e+00	0	28	0	486539264	77	5125
2026-01-05 01:24:34.28	12.68	36.70	-55.9	-58.7	13.1	0.00e+00	0	28	0	488636416	77	5146
2026-01-05 01:24:35.14	12.54	36.89	-55.9	-58.7	13.1	0.00e+00	0	28	0	490733568	77	5146
2026-01-05 01:24:36.29	12.36	37.14	-56.0	-58.9	13.0	0.00e+00	0	28	0	492830720	77	5265
2026-01-05 01:24:37.14	12.22	37.33	-55.9	-58.8	13.1	0.00e+00	0	28	0	493879296	77	5163
2026-01-05 01:24:38.28	12.03	37.59	-55.8	-58.5	13.3	0.00e+00	0	28	0	495976448	77	5018
2026-01-05 01:24:39.13	11.89	37.78	-55.8	-58.5	13.2	0.00e+00	0	28	0	498073600	77	5007
2026-01-05 01:24:40.28	11.70	38.04	-55.6	-58.3	13.3	0.00e+00	0	28	0	500170752	77	4905
2026-01-05 01:24:41.13	11.55	38.23	-55.5	-58.1	13.5	0.00e+00	0	28	0	501219328	77	4792
2026-01-05 01:24:42.27	11.35	38.50	-55.4	-58.0	13.5	0.00e+00	0	28	0	504365056	77	4713
2026-01-05 01:24:43.12	11.20	38.69	-55.4	-58.0	13.6	0.00e+00	0	28	0	505413632	77	4718
2026-01-05 01:24:44.26	11.00	38.96	-55.2	-57.7	13.7	0.00e+00	0	28	0	507510784	77	4565
2026-01-05 01:24:45.12	10.84	39.16	-55.2	-57.7	13.7	0.00e+00	0	28	0	509607936	76	4825
2026-01-05 01:24:46.25	10.64	39.42	-55.1	-57.6	13.7	0.00e+00	0	28	0	511705088	76	4774
2026-01-05 01:24:47.11	10.48	39.62	-54.9	-57.3	13.8	0.00e+00	0	28	0	512753664	76	4603
2026-01-05 01:24:48.25	10.26	39.89	-54.9	-57.3	13.8	0.00e+00	0	28	0	514850816	76	4619
2026-01-05 01:24:49.10	10.10	40.10	-54.8	-57.1	13.9	0.00e+00	0	28	0	516947968	76	4497
2026-01-05 01:24:50.24	9.87	40.37	-54.5	-56.7	14.0	0.00e+00	0	28	0	519045120	75	4592
2026-01-05 01:24:51.10	9.70	40.57	-54.5	-56.7	14.0	0.00e+00	0	28	0	520093696	75	4559
2026-01-05 01:24:52.23	9.48	40.85	-54.3	-56.4	14.2	0.00e+00	0	28	0	522190848	75	4394
2026-01-05 01:24:53.09	9.30	41.06	-54.1	-56.2	14.2	0.00e+00	0	28	0	524288000	74	4576
2026-01-05 01:24:54.22	9.07	41.33	-54.2	-56.3	14.1	0.00e+00	0	28	0	526385152	74	4601
2026-01-05 01:24:55.07	8.89	41.54	-54.2	-56.3	14.1	0.00e+00	0	28	0	527433728	74	4600
2026-01-05 01:24:56.21	8.64	41.82	-54.1	-56.1	14.2	0.00e+00	0	28	0	529530880	74	4526
2026-01-05 01:24:57.06	8.46	42.03	-54.0	-56.0	14.2	0.00e+00	0	28	0	531628032	74	4454
2026-01-05 01:24:58.20	8.21	42.32	-53.8	-55.7	14.4	0.00e+00	0	28	0	533725184	74	4317
2026-01-05 01:24:59.05	8.02	42.53	-53.6	-55.5	14.4	0.00e+00	0	28	0	535822336	73	4442
2026-01-05 01:25:00.19	7.76	42.81	-53.8	-55.7	14.3	0.00e+00	0	28	0	537919488	73	4568
2026-01-05 01:25:01.05	7.56	43.03	-53.8	-55.8	14.2	0.00e+00	0	28	0	538968064	73	4627
2026-01-05 01:25:02.19	7.29	43.32	-53.8	-55.7	14.3	0.00e+00	0	28	0	541065216	73	4572
2026-01-05 01:25:03.05	7.08	43.54	-53.4	-55.2	14.5	0.00e+00	0	28	0	543162368	73	4316
2026-01-05 01:25:04.20	6.81	43.83	-53.3	-55.1	14.6	0.00e+00	0	28	0	545259520	73	4258
2026-01-05 01:25:05.06	6.59	44.05	-53.4	-55.2	14.5	0.00e+00	0	28	0	546308096	73	4331
2026-01-05 01:25:06.20	6.31	44.35	-53.5	-55.4	14.4	0.00e+00	0	28	0	548405248	73	4414
2026-01-05 01:25:07.06	6.09	44.57	-53.7	-55.7	14.3	0.00e+00	0	28	0	550502400	73	4565
2026-01-05 01:25:08.20	5.79	44.87	-53.6	-55.5	14.4	0.00e+00	0	28	0	552599552	73	4489
2026-01-05 01:25:09.06	5.57	45.09	-53.6	-55.4	14.4	0.00e+00	0	28	0	553648128	73	4440
2026-01-05 01:25:10.20	5.26	45.39	-53.4	-55.3	14.5	0.00e+00	0	28	0	556793856	73	4342
2026-01-05 01:25:11.06	5.03	45.62	-53.5	-55.3	14.5	0.00e+00	0	28	0	557842432	73	4372
2026-01-05 01:25:12.21	4.71	45.92	-53.5	-55.4	14.4	0.00e+00	0	28	0	559939584	73	4393
2026-01-05 01:25:13.07	4.46	46.15	-53.3	-55.0	14.6	0.00e+00	0	28	0	562036736	73	4234
2026-01-05 01:25:14.21	4.14	46.45	-53.2	-55.0	14.5	0.00e+00	0	28	0	564133888	72	4464
2026-01-05 01:25:15.07	3.89	46.68	-53.1	-54.8	14.6	0.00e+00	0	28	0	565182464	72	4372
2026-01-05 01:25:16.20	3.55	46.98	-53.0	-54.8	14.6	0.00e+00	0	28	0	567279616	72	4351
2026-01-05 01:25:17.05	3.29	47.21	-53.1	-54.8	14.5	0.00e+00	0	28	0	569376768	72	4381
2026-01-05 01:25:18.19	2.94	47.52	-53.1	-54.8	14.6	0.00e+00	0	28	0	571473920	72	4373
2026-01-05 01:25:19.04	2.68	47.75	-53.1	-54.8	14.6	0.00e+00	0	28	0	572522496	72	4377
2026-01-05 01:25:20.18	2.31	48.06	-53.0	-54.7	14.6	0.00e+00	0	28	0	574619648	72	4332
2026-01-05 01:25:21.04	2.04	48.29	-53.0	-54.7	14.6	0.00e+00	0	28	0	576716800	72	4337
2026-01-05 01:25:22.19	1.66	48.60	-53.2	-55.0	14.5	0.00e+00	0	28	0	578813952	72	4478
2026-01-05 01:25:23.04	1.37	48.84	-53.3	-55.0	14.5	0.00e+00	0	28	0	579862528	72	4490
2026-01-05 01:25:24.18	0.98	49.15	-53.1	-54.9	14.5	0.00e+00	0	28	0	581959680	72	4407
2026-01-05 01:25:25.03	0.69	49.38	-53.0	-54.7	14.6	0.00e+00	0	28	0	584056832	72	4336
2026-01-05 01:25:26.17	0.28	49.69	-52.9	-54.6	14.7	0.00e+00	0	28	0	586153984	72	4283
2026-01-05 01:25:27.02	359.97	49.93	-52.9	-54.6	14.6	0.00e+00	0	28	0	588251136	72	4253
2026-01-05 01:25:28.17	359.55	50.24	-52.9	-54.6	14.7	0.00e+00	0	28	0	590348288	72	4263
2026-01-05 01:25:29.02	359.23	50.48	-52.9	-54.6	14.7	0.00e+00	0	28	0	591396864	72	4262
2026-01-05 01:25:30.16	358.80	50.79	-52.7	-54.4	14.8	0.00e+00	0	28	0	593494016	72	4165
2026-01-05 01:25:31.01	358.47	51.03	-52.4	-54.0	14.8	0.00e+00	0	28	0	595591168	71	4219
2026-01-05 01:25:32.16	358.01	51.35	-52.3	-53.8	14.9	0.00e+00	0	28	0	597688320	71	4139
2026-01-05 01:25:33.02	357.67	51.59	-52.5	-54.1	14.8	0.00e+00	0	28	0	598736896	71	4290
2026-01-05 01:25:34.15	357.20	51.90	-52.7	-54.3	14.7	0.00e+00	0	28	0	600834048	71	4386
2026-01-05 01:25:35.01	356.84	52.14	-52.6	-54.3	14.7	0.00e+00	0	28	0	602931200	71	4358
2026-01-05 01:25:36.15	356.36	52.45	-52.6	-54.3	14.7	0.00e+00	0	28	0	605028352	71	4341
2026-01-05 01:25:37.02	355.98	52.69	-52.6	-54.2	14.7	0.00e+00	0	28	0	606076928	71	4325
2026-01-05 01:25:38.16	355.47	53.01	-52.3	-53.9	14.9	0.00e+00	0	28	0	608174080	71	4150
2026-01-05 01:25:39.02	355.09	53.25	-52.3	-53.9	14.9	0.00e+00	0	28	0	610271232	71	4160
2026-01-05 01:25:40.16	354.56	53.56	-52.3	-53.9	14.9	0.00e+00	0	28	0	612368384	71	4157
2026-01-05 01:25:41.02	354.16	53.80	-52.3	-53.8	14.8	0.00e+00	0	28	0	614465536	70	4373
2026-01-05 01:25:42.16	353.61	54.11	-52.3	-53.9	14.8	0.00e+00	0	28	0	616562688	70	4432
2026-01-05 01:25:43.02	353.19	54.35	-52.4	-54.0	14.7	0.00e+00	0	28	0	617611264	70	4450
2026-01-05 01:25:44.16	352.63	54.66	-52.4	-54.0	14.7	0.00e+00	0	28	0	619708416	70	4460
2026-01-05 01:25:45.01	352.20	54.89	-52.9	-54.7	14.5	0.00e+00	0	28	0	621805568	71	4593
2026-01-05 01:25:46.15	351.61	55.20	-53.4	-55.2	14.4	0.00e+00	0	28	0	623902720	72	4593
2026-01-05 01:25:47.01	351.15	55.44	-53.5	-55.3	14.4	0.00e+00	0	28	0	624951296	72	4629
2026-01-05 01:25:48.15	350.54	55.74	-53.9	-55.8	14.2	0.00e+00	0	28	0	627048448	72	4883
2026-01-05 01:25:48.99	350.08	55.97	-53.9	-55.9	14.3	0.00e+00	0	28	0	629145600	73	4665
2026-01-05 01:25:50.13	349.45	56.27	-54.6	-56.7	14.0	0.00e+00	0	28	0	631242752	74	4846
2026-01-05 01:25:50.99	348.96	56.50	-54.6	-56.8	13.9	0.00e+00	0	28	0	632291328	74	4889
2026-01-05 01:25:52.13	348.30	56.80	-54.3	-56.4	14.1	0.00e+00	0	28	0	634388480	74	4683
2026-01-05 01:25:52.98	347.79	57.03	-54.1	-56.0	14.3	0.00e+00	0	28	0	636485632	74	4479
2026-01-05 01:25:54.10	347.12	57.32	-54.2	-56.2	14.2	0.00e+00	0	28	0	638582784	74	4573
2026-01-05 01:25:54.95	346.60	57.54	-54.3	-56.3	14.2	0.00e+00	0	28	0	640679936	74	4623
2026-01-05 01:25:56.10	345.88	57.84	-54.1	-56.1	14.3	0.00e+00	0	28	0	642777088	74	4528
2026-01-05 01:25:56.95	345.34	58.05	-54.0	-55.9	14.4	0.00e+00	0	28	0	643825664	74	4395
2026-01-05 01:25:58.10	344.59	58.35	-54.0	-55.9	14.4	0.00e+00	0	28	0	645922816	74	4429
2026-01-05 01:25:58.94	344.03	58.56	-54.3	-56.3	14.2	0.00e+00	0	28	0	648019968	74	4607
2026-01-05 01:26:00.08	343.26	58.84	-54.4	-56.5	14.1	0.00e+00	0	28	0	650117120	74	4714
2026-01-05 01:26:00.92	342.68	59.04	-54.4	-56.4	14.2	0.00e+00	0	28	0	651165696	74	4691
2026-01-05 01:26:02.06	341.88	59.32	-54.0	-55.9	14.4	0.00e+00	0	28	0	653262848	74	4406
2026-01-05 01:26:02.93	341.26	59.53	-53.6	-55.5	14.5	0.00e+00	0	28	0	655360000	73	4442
2026-01-05 01:26:04.07	340.43	59.80	-53.3	-55.1	14.6	0.00e+00	0	28	0	657457152	73	4253
2026-01-05 01:26:04.93	339.80	60.00	-53.1	-54.8	14.6	0.00e+00	0	28	0	658505728	72	4347
2026-01-05 01:26:06.07	338.94	60.26	-53.1	-54.7	14.7	0.00e+00	0	28	0	660602880	72	4340
2026-01-05 01:26:06.93	338.28	60.45	-53.1	-54.8	14.6	0.00e+00	0	28	0	662700032	72	4362
2026-01-05 01:26:08.07	337.39	60.70	-53.1	-54.8	14.6	0.00e+00	0	28	0	664797184	72	4364
2026-01-05 01:26:08.93	336.70	60.89	-53.1	-54.8	14.6	0.00e+00	0	28	0	665845760	72	4365
2026-01-05 01:26:10.07	335.78	61.13	-52.5	-54.1	14.8	0.00e+00	0	28	0	668991488	71	4244
2026-01-05 01:26:10.93	335.08	61.31	-52.1	-53.6	14.9	0.00e+00	0	28	0	670040064	70	4246
2026-01-05 01:26:12.07	334.12	61.55	-51.9	-53.3	15.0	0.00e+00	0	28	0	672137216	70	4139
2026-01-05 01:26:12.92	333.40	61.72	-51.5	-52.9	15.0	0.00e+00	0	28	0	674234368	69	4178
2026-01-05 01:26:14.08	332.40	61.94	-51.4	-52.8	15.1	0.00e+00	0	28	0	676331520	69	4132
2026-01-05 01:26:14.94	331.64	62.10	-51.0	-52.4	15.1	0.00e+00	0	28	0	677380096	68	4166
2026-01-05 01:26:16.08	330.63	62.31	-50.9	-52.3	15.1	0.00e+00	0	28	0	679477248	68	4118
2026-01-05 01:26:16.94	329.85	62.47	-50.9	-52.2	15.1	0.00e+00	0	28	0	681574400	68	4075
2026-01-05 01:26:18.09	328.79	62.66	-50.5	-51.7	15.1	0.00e+00	0	28	0	683671552	67	4096
2026-01-05 01:26:18.95	327.99	62.81	-50.6	-52.0	15.1	0.00e+00	0	28	0	684720128	67	4208
2026-01-05 01:26:20.09	326.92	62.99	-50.7	-52.0	15.0	0.00e+00	0	28	0	687865856	67	4226
2026-01-05 01:26:20.95	326.09	63.12	-50.7	-52.1	15.0	0.00e+00	0	28	0	688914432	67	4256
2026-01-05 01:26:22.09	324.99	63.29	-50.9	-52.3	15.0	0.00e+00	0	28	0	691011584	67	4347
2026-01-05 01:26:22.95	324.15	63.41	-51.0	-52.4	15.0	0.00e+00	0	28	0	693108736	67	4407
2026-01-05 01:26:24.09	323.01	63.57	-51.0	-52.4	15.0	0.00e+00	0	28	0	695205888	67	4411
2026-01-05 01:26:24.95	322.15	63.68	-51.2	-52.6	14.9	0.00e+00	0	28	0	696254464	67	4531
2026-01-05 01:26:26.09	321.00	63.81	-51.7	-53.1	14.8	0.00e+00	0	28	0	698351616	68	4534
2026-01-05 01:26:26.95	320.11	63.91	-51.4	-52.8	14.9	0.00e+00	0	28	0	700448768	68	4373
2026-01-05 01:26:28.09	318.94	64.03	-51.3	-52.7	15.0	0.00e+00	0	28	0	702545920	68	4336
2026-01-05 01:26:28.94	318.05	64.12	-51.3	-52.7	15.0	0.00e+00	0	28	0	703594496	68	4330
2026-01-05 01:26:30.08	316.85	64.22	-51.4	-52.8	14.9	0.00e+00	0	28	0	705691648	68	4383
2026-01-05 01:26:30.94	315.94	64.29	-51.6	-53.0	14.8	0.00e+00	0	28	0	707788800	68	4490
2026-01-05 01:26:32.07	314.73	64.38	-51.5	-53.0	14.9	0.00e+00	0	28	0	709885952	68	4456
2026-01-05 01:26:32.93	313.81	64.43	-51.5	-52.9	14.9	0.00e+00	0	28	0	710934528	68	4424
2026-01-05 01:26:34.07	312.58	64.50	-51.3	-52.7	15.0	0.00e+00	0	28	0	713031680	68	4293
2026-01-05 01:26:34.92	311.65	64.54	-50.9	-52.2	15.1	0.00e+00	0	28	0	715128832	68	4074
2026-01-05 01:26:36.06	310.41	64.59	-50.9	-52.2	15.1	0.00e+00	0	28	0	717225984	68	4082
2026-01-05 01:26:36.92	309.47	64.62	-50.9	-52.2	15.2	0.00e+00	0	28	0	719323136	68	4082
2026-01-05 01:26:38.06	308.22	64.65	-51.1	-52.5	15.0	0.00e+00	0	28	0	721420288	68	4214
2026-01-05 01:26:38.92	307.28	64.67	-51.3	-52.7	14.9	0.00e+00	0	28	0	722468864	68	4332
2026-01-05 01:26:40.07	306.01	64.68	-51.2	-52.6	15.0	0.00e+00	0	28	0	724566016	68	4253
2026-01-05 01:26:40.92	305.08	64.68	-50.8	-52.1	15.2	0.00e+00	0	28	0	726663168	68	4020
2026-01-05 01:26:42.06	303.82	64.67	-50.3	-51.6	15.2	0.00e+00	0	28	0	728760320	67	4032
2026-01-05 01:26:42.91	302.89	64.66	-50.4	-51.7	15.2	0.00e+00	0	28	0	729808896	67	4078
2026-01-05 01:26:44.05	301.64	64.63	-50.5	-51.8	15.1	0.00e+00	0	28	0	731906048	67	4120
2026-01-05 01:26:44.91	300.69	64.60	-50.8	-52.2	15.0	0.00e+00	0	28	0	734003200	67	4310
2026-01-05 01:26:46.05	299.45	64.56	-50.8	-52.2	15.0	0.00e+00	0	28	0	736100352	67	4299
2026-01-05 01:26:46.90	298.53	64.52	-51.2	-52.6	14.9	0.00e+00	0	28	0	737148928	67	4507
2026-01-05 01:26:48.03	297.30	64.45	-51.4	-52.8	14.9	0.00e+00	0	28	0	739246080	67	4626
2026-01-05 01:26:48.89	296.38	64.39	-51.7	-53.2	14.8	0.00e+00	0	28	0	741343232	68	4587
2026-01-05 01:26:50.03	295.16	64.31	-51.6	-53.0	14.9	0.00e+00	0	28	0	743440384	68	4483
2026-01-05 01:26:50.89	294.25	64.24	-51.4	-52.8	15.0	0.00e+00	0	28	0	744488960	68	4391
2026-01-05 01:26:52.03	293.04	64.14	-51.4	-52.9	14.9	0.00e+00	0	28	0	747634688	68	4396
2026-01-05 01:26:52.89	292.14	64.06	-51.5	-53.0	14.9	0.00e+00	0	28	0	748683264	68	4448
2026-01-05 01:26:54.03	290.96	63.94	-51.8	-53.3	14.8	0.00e+00	0	28	0	750780416	68	4627
2026-01-05 01:26:54.88	290.09	63.84	-51.8	-53.3	14.9	0.00e+00	0	28	0	752877568	69	4342
2026-01-05 01:26:56.01	288.94	63.71	-51.8	-53.2	14.9	0.00e+00	0	28	0	754974720	69	4329
2026-01-05 01:26:56.87	288.07	63.60	-51.5	-52.9	15.0	0.00e+00	0	28	0	756023296	69	4192
2026-01-05 01:26:58.01	286.94	63.45	-51.3	-52.7	15.1	0.00e+00	0	28	0	758120448	69	4056
2026-01-05 01:26:58.86	286.10	63.33	-51.2	-52.6	15.0	0.00e+00	0	28	0	760217600	68	4263
2026-01-05 01:26:59.98	285.01	63.17	-51.0	-52.3	15.1	0.00e+00	0	28	0	762314752	68	4127
2026-01-05 01:27:00.84	284.18	63.04	-50.8	-52.1	15.2	0.00e+00	0	28	0	763363328	68	4021
2026-01-05 01:27:01.98	283.10	62.86	-50.7	-52.0	15.2	0.00e+00	0	28	0	765460480	68	3980
2026-01-05 01:27:02.84	282.30	62.72	-50.9	-52.2	15.2	0.00e+00	0	28	0	767557632	68	4074
2026-01-05 01:27:03.98	281.25	62.52	-50.8	-52.1	15.2	0.00e+00	0	28	0	769654784	68	4014
2026-01-05 01:27:04.84	280.46	62.37	-50.5	-51.8	15.1	0.00e+00	0	28	0	770703360	67	4112
2026-01-05 01:27:05.98	279.44	62.16	-50.5	-51.8	15.1	0.00e+00	0	28	0	772800512	67	4134
2026-01-05 01:27:06.83	278.69	62.00	-50.7	-52.1	15.1	0.00e+00	0	28	0	774897664	67	4267
2026-01-05 01:27:07.97	277.70	61.78	-51.0	-52.4	14.9	0.00e+00	0	28	0	776994816	67	4427
2026-01-05 01:27:08.83	276.97	61.61	-51.2	-52.6	14.9	0.00e+00	0	28	0	779091968	67	4531
2026-01-05 01:27:09.96	276.01	61.38	-51.4	-52.8	14.8	0.00e+00	0	28	0	781189120	67	4651
2026-01-05 01:27:10.82	275.30	61.20	-51.8	-53.3	14.8	0.00e+00	0	28	0	782237696	68	4604
2026-01-05 01:27:11.95	274.38	60.97	-52.6	-54.2	14.7	0.00e+00	0	28	0	784334848	70	4561
2026-01-05 01:27:12.80	273.70	60.78	-53.2	-54.9	14.5	0.00e+00	0	28	0	786432000	71	4670
2026-01-05 01:27:13.94	272.81	60.53	-53.3	-55.1	14.5	0.00e+00	0	28	0	788529152	72	4506
2026-01-05 01:27:14.81	272.13	60.34	-53.5	-55.3	14.5	0.00e+00	0	28	0	789577728	72	4641
2026-01-05 01:27:15.94	271.27	60.08	-53.7	-55.5	14.4	0.00e+00	0	28	0	791674880	72	4716
2026-01-05 01:27:16.79	270.64	59.88	-53.9	-55.7	14.3	0.00e+00	0	28	0	793772032	72	4856
2026-01-05 01:27:17.93	269.80	59.61	-54.8	-57.0	13.9	0.00e+00	0	28	0	795869184	74	4998
2026-01-05 01:27:18.78	269.19	59.41	-55.7	-58.2	13.6	0.00e+00	0	28	0	796917760	76	5106
2026-01-05 01:27:19.92	268.39	59.14	-56.2	-58.9	13.2	0.00e+00	0	28	0	799014912	77	5279
2026-01-05 01:27:20.78	267.79	58.92	-55.9	-58.5	13.4	0.00e+00	0	28	0	801112064	77	5037
2026-01-05 01:27:21.92	267.02	58.64	-55.7	-58.2	13.6	0.00e+00	0	28	0	803209216	77	4831
2026-01-05 01:27:22.77	266.45	58.43	-55.7	-58.1	13.6	0.00e+00	0	28	0	805306368	77	4807
2026-01-05 01:27:23.91	265.70	58.14	-55.4	-57.7	13.9	0.00e+00	0	28	0	807403520	77	4583
2026-01-05 01:27:24.76	265.15	57.93	-55.3	-57.6	13.9	0.00e+00	0	28	0	808452096	77	4530
2026-01-05 01:27:25.90	264.43	57.63	-55.7	-58.3	13.6	0.00e+00	0	28	0	810549248	77	4888
2026-01-05 01:27:26.75	263.91	57.41	-55.8	-58.3	13.5	0.00e+00	0	28	0	812646400	77	4925
2026-01-05 01:27:27.89	263.22	57.12	-55.3	-57.6	13.9	0.00e+00	0	28	0	814743552	77	4539
2026-01-05 01:27:28.74	262.71	56.89	-55.1	-57.3	14.0	0.00e+00	0	28	0	815792128	76	4618
2026-01-05 01:27:29.88	262.04	56.59	-54.4	-56.4	14.3	0.00e+00	0	28	0	817889280	75	4418
2026-01-05 01:27:30.73	261.55	56.36	-53.8	-55.7	14.5	0.00e+00	0	28	0	819986432	74	4294
2026-01-05 01:27:31.87	260.91	56.06	-53.6	-55.4	14.5	0.00e+00	0	28	0	822083584	73	4438
2026-01-05 01:27:32.73	260.44	55.83	-53.6	-55.5	14.5	0.00e+00	0	28	0	823132160	73	4443
2026-01-05 01:27:33.88	259.82	55.52	-53.4	-55.2	14.6	0.00e+00	0	28	0	825229312	73	4300
2026-01-05 01:27:34.73	259.37	55.29	-53.3	-55.0	14.6	0.00e+00	0	28	0	827326464	73	4240
2026-01-05 01:27:35.87	258.77	54.98	-53.4	-55.2	14.6	0.00e+00	0	28	0	829423616	73	4339
2026-01-05 01:27:36.73	258.33	54.74	-53.2	-54.9	14.7	0.00e+00	0	28	0	830472192	73	4171
2026-01-05 01:27:37.88	257.76	54.43	-52.7	-54.3	14.8	0.00e+00	0	28	0	833617920	72	4145
2026-01-05 01:27:38.73	257.34	54.19	-52.6	-54.3	14.8	0.00e+00	0	28	0	834666496	71	4351
2026-01-05 01:27:39.88	256.79	53.88	-52.7	-54.3	14.7	0.00e+00	0	28	0	836763648	71	4386
2026-01-05 01:27:40.72	256.39	53.64	-52.8	-54.5	14.7	0.00e+00	0	28	0	838860800	71	4460
2026-01-05 01:27:41.87	255.85	53.33	-53.3	-55.0	14.4	0.00e+00	0	28	0	840957952	71	4748
2026-01-05 01:27:42.72	255.47	53.09	-53.7	-55.6	14.3	0.00e+00	0	28	0	842006528	72	4782
2026-01-05 01:27:43.87	254.95	52.77	-54.0	-56.0	14.3	0.00e+00	0	28	0	844103680	73	4721
2026-01-05 01:27:44.72	254.58	52.54	-54.0	-55.9	14.3	0.00e+00	0	28	0	846200832	73	4696
2026-01-05 01:27:45.86	254.09	52.22	-53.8	-55.7	14.4	0.00e+00	0	28	0	848297984	73	4594
2026-01-05 01:27:46.72	253.73	51.98	-53.9	-55.9	14.3	0.00e+00	0	28	0	849346560	73	4669
2026-01-05 01:27:47.85	253.26	51.67	-54.0	-55.9	14.2	0.00e+00	0	28	0	851443712	73	4699
2026-01-05 01:27:48.71	252.91	51.43	-54.1	-56.1	14.2	0.00e+00	0	28	0	853540864	73	4776
2026-01-05 01:27:49.85	252.46	51.11	-54.7	-56.9	13.9	0.00e+00	0	28	0	855638016	74	4962
2026-01-05 01:27:50.70	252.12	50.88	-54.9	-57.2	13.9	0.00e+00	0	28	0	857735168	75	4816
2026-01-05 01:27:51.85	251.68	50.56	-55.1	-57.4	13.8	0.00e+00	0	28	0	859832320	75	4976
2026-01-05 01:27:52.70	251.36	50.32	-55.2	-57.5	13.7	0.00e+00	0	28	0	860880896	75	5020
2026-01-05 01:27:53.85	250.94	50.01	-54.9	-57.1	13.9	0.00e+00	0	28	0	862978048	75	4791
2026-01-05 01:27:54.70	250.63	49.77	-54.6	-56.8	14.1	0.00e+00	0	28	0	865075200	75	4613
2026-01-05 01:27:55.83	250.22	49.46	-54.5	-56.6	14.2	0.00e+00	0	28	0	867172352	75	4527
2026-01-05 01:27:56.68	249.92	49.23	-54.5	-56.6	14.2	0.00e+00	0	28	0	868220928	75	4497
2026-01-05 01:27:57.82	249.53	48.91	-54.5	-56.6	14.2	0.00e+00	0	28	0	870318080	75	4502
2026-01-05 01:27:58.68	249.24	48.68	-54.2	-56.2	14.3	0.00e+00	0	28	0	872415232	75	4302
2026-01-05 01:27:59.82	248.86	48.37	-54.4	-56.4	14.2	0.00e+00	0	28	0	874512384	75	4423
2026-01-05 01:28:00.67	248.58	48.13	-54.4	-56.5	14.2	0.00e+00	0	28	0	875560960	75	4474
2026-01-05 01:28:01.81	248.22	47.82	-54.2	-56.2	14.3	0.00e+00	0	28	0	877658112	75	4327
2026-01-05 01:28:02.67	247.95	47.59	-53.9	-55.9	14.4	0.00e+00	0	28	0	879755264	74	4404
2026-01-05 01:28:03.82	247.59	47.28	-53.8	-55.7	14.4	0.00e+00	0	28	0	881852416	74	4339
2026-01-05 01:28:04.67	247.33	47.05	-53.8	-55.8	14.4	0.00e+00	0	28	0	882900992	74	4342
2026-01-05 01:28:05.81	246.99	46.75	-53.8	-55.7	14.5	0.00e+00	0	28	0	886046720	74	4314
2026-01-05 01:28:06.66	246.74	46.52	-53.8	-55.7	14.5	0.00e+00	0	28	0	887095296	74	4304
2026-01-05 01:28:07.80	246.41	46.21	-53.7	-55.6	14.4	0.00e+00	0	28	0	889192448	73	4507
2026-01-05 01:28:08.66	246.17	45.98	-54.0	-56.0	14.2	0.00e+00	0	28	0	891289600	73	4729
2026-01-05 01:28:09.81	245.85	45.68	-54.1	-56.1	14.2	0.00e+00	0	28	0	893386752	73	4774
2026-01-05 01:28:10.66	245.61	45.46	-54.0	-56.0	14.2	0.00e+00	0	28	0	894435328	73	4714
2026-01-05 01:28:11.81	245.30	45.15	-53.8	-55.7	14.3	0.00e+00	0	28	0	896532480	73	4595
2026-01-05 01:28:12.66	245.08	44.93	-53.9	-55.8	14.3	0.00e+00	0	28	0	898629632	73	4620
2026-01-05 01:28:13.80	244.78	44.63	-53.9	-55.9	14.3	0.00e+00	0	28	0	900726784	73	4661
2026-01-05 01:28:14.66	244.56	44.41	-54.0	-56.0	14.2	0.00e+00	0	28	0	901775360	73	4733
2026-01-05 01:28:15.80	244.27	44.11	-54.1	-56.2	14.2	0.00e+00	0	28	0	903872512	73	4827
2026-01-05 01:28:16.65	244.06	43.90	-54.5	-56.7	14.0	0.00e+00	0	28	0	905969664	74	4838
2026-01-05 01:28:17.79	243.78	43.60	-55.1	-57.4	13.7	0.00e+00	0	28	0	908066816	75	4978
2026-01-05 01:28:18.65	243.57	43.38	-55.2	-57.6	13.7	0.00e+00	0	28	0	909115392	75	5078
2026-01-05 01:28:19.79	243.30	43.09	-55.2	-57.6	13.6	0.00e+00	0	28	0	911212544	75	5055
2026-01-05 01:28:20.65	243.10	42.87	-55.1	-57.5	13.7	0.00e+00	0	28	0	913309696	75	4997
2026-01-05 01:28:21.80	242.84	42.58	-55.2	-57.6	13.6	0.00e+00	0	28	0	915406848	75	5076
2026-01-05 01:28:22.65	242.65	42.37	-55.2	-57.5	13.7	0.00e+00	0	28	0	917504000	75	5033
2026-01-05 01:28:23.79	242.39	42.09	-55.1	-57.5	13.7	0.00e+00	0	28	0	919601152	75	5007
2026-01-05 01:28:24.65	242.20	41.87	-55.2	-57.6	13.7	0.00e+00	0	28	0	920649728	75	5043
2026-01-05 01:28:25.79	241.96	41.59	-55.5	-58.0	13.5	0.00e+00	0	28	0	922746880	76	5039
2026-01-05 01:28:26.64	241.78	41.38	-55.9	-58.6	13.3	0.00e+00	0	28	0	924844032	76	5357
2026-01-05 01:28:27.78	241.54	41.10	-56.0	-58.8	13.2	0.00e+00	0	28	0	926941184	77	5197
2026-01-05 01:28:28.63	241.36	40.90	-56.3	-59.3	12.9	0.00e+00	0	28	0	927989760	77	5474
2026-01-05 01:28:29.77	241.13	40.62	-56.6	-59.7	12.8	0.00e+00	0	28	0	930086912	78	5446
2026-01-05 01:28:30.63	240.96	40.41	-56.7	-60.0	12.5	0.00e+00	0	28	0	932184064	78	5631
2026-01-05 01:28:31.77	240.74	40.14	-56.9	-60.2	12.4	0.00e+00	0	28	0	934281216	78	5767
2026-01-05 01:28:32.63	240.57	39.93	-57.0	-60.5	12.3	0.00e+00	0	28	0	935329792	79	5614
2026-01-05 01:28:33.77	240.35	39.66	-57.1	-60.7	12.1	0.00e+00	0	28	0	937426944	79	5766
2026-01-05 01:28:34.63	240.19	39.46	-57.2	-60.9	12.0	1.50e-06	0	28	0	939524096	79	5867
2026-01-05 01:28:35.77	239.98	39.19	-56.9	-60.3	12.4	0.00e+00	0	28	0	941621248	79	5521
2026-01-05 01:28:36.62	239.83	38.99	-57.0	-60.5	12.3	0.00e+00	0	28	0	943718400	79	5595
2026-01-05 01:28:37.77	239.62	38.72	-56.8	-60.2	12.5	0.00e+00	0	28	0	945815552	79	5429
2026-01-05 01:28:38.63	239.47	38.52	-57.0	-60.5	12.3	0.00e+00	0	28	0	946864128	79	5639
2026-01-05 01:28:39.77	239.27	38.26	-56.9	-60.3	12.4	0.00e+00	0	28	0	948961280	79	5512
2026-01-05 01:28:40.63	239.12	38.07	-56.7	-60.0	12.6	7.00e-07	0	28	0	951058432	79	5287
2026-01-05 01:28:41.77	238.92	37.81	-56.0	-58.8	13.2	0.00e+00	0	28	0	953155584	78	4924
2026-01-05 01:28:42.62	238.78	37.61	-55.9	-58.6	13.4	0.00e+00	0	28	0	954204160	78	4779
2026-01-05 01:28:43.77	238.59	37.35	-55.6	-58.2	13.5	0.00e+00	0	28	0	956301312	77	4852
2026-01-05 01:28:44.63	238.45	37.16	-55.5	-58.1	13.5	0.00e+00	0	28	0	958398464	77	4774
2026-01-05 01:28:45.77	238.27	36.91	-55.1	-57.4	13.8	0.00e+00	0	28	0	960495616	76	4661
2026-01-05 01:28:46.62	238.13	36.72	-55.0	-57.3	13.9	0.00e+00	0	28	0	961544192	76	4621
2026-01-05 01:28:47.77	237.95	36.47	-54.9	-57.2	13.9	0.00e+00	0	28	0	964689920	76	4571
2026-01-05 01:28:48.63	237.82	36.28	-54.9	-57.1	13.9	0.00e+00	0	28	0	965738496	76	4534
2026-01-05 01:28:49.77	237.65	36.03	-54.5	-56.7	14.0	0.00e+00	0	28	0	967835648	75	4549
2026-01-05 01:28:50.63	237.52	35.84	-54.2	-56.2	14.3	0.00e+00	0	28	0	969932800	75	4334
2026-01-05 01:28:51.77	237.35	35.60	-54.1	-56.1	14.2	0.00e+00	0	28	0	972029952	74	4531
2026-01-05 01:28:52.63	237.23	35.41	-54.0	-56.0	14.3	0.00e+00	0	28	0	973078528	74	4488
2026-01-05 01:28:53.78	237.06	35.17	-54.3	-56.3	14.1	0.00e+00	0	28	0	975175680	74	4640
2026-01-05 01:28:54.63	236.94	34.99	-54.3	-56.4	14.1	0.00e+00	0	28	0	977272832	74	4696
2026-01-05 01:28:55.78	236.78	34.75	-54.7	-56.9	13.9	0.00e+00	0	28	0	979369984	74	4961
2026-01-05 01:28:56.63	236.66	34.57	-54.8	-57.0	13.8	0.00e+00	0	28	0	980418560	74	5035
2026-01-05 01:28:57.77	236.50	34.33	-54.9	-57.2	13.7	0.00e+00	0	28	0	982515712	74	5124
2026-01-05 01:28:58.63	236.39	34.15	-54.9	-57.2	13.7	0.00e+00	0	28	0	984612864	74	5123
2026-01-05 01:28:59.78	236.24	33.92	-54.9	-57.2	13.7	0.00e+00	0	28	0	986710016	74	5122
2026-01-05 01:29:00.63	236.12	33.74	-54.7	-57.0	13.8	0.00e+00	0	28	0	988807168	74	5000
2026-01-05 01:29:01.76	235.98	33.51	-54.7	-56.9	13.8	0.00e+00	0	28	0	990904320	74	4980
2026-01-05 01:29:02.62	235.87	33.34	-54.5	-56.7	13.9	0.00e+00	0	28	0	991952896	74	4841
2026-01-05 01:29:03.76	235.72	33.11	-54.5	-56.7	13.9	0.00e+00	0	28	0	994050048	74	4860
2026-01-05 01:29:04.61	235.62	32.94	-54.7	-56.9	13.8	0.00e+00	0	28	0	996147200	74	4980
2026-01-05 01:29:05.76	235.47	32.71	-54.9	-57.2	13.7	0.00e+00	0	28	0	998244352	74	5123
2026-01-05 01:29:06.62	235.37	32.54	-55.0	-57.4	13.7	0.00e+00	0	28	0	999292928	75	4964
2026-01-05 01:29:07.76	235.23	32.32	-55.3	-57.9	13.5	0.00e+00	0	28	0	1001390080	75	5257
2026-01-05 01:29:08.61	235.13	32.15	-55.5	-58.2	13.4	0.00e+00	0	28	0	1003487232	76	5103
2026-01-05 01:29:09.74	235.00	31.93	-55.6	-58.2	13.4	0.00e+00	0	28	0	1005584384	76	5136
2026-01-05 01:29:10.60	234.90	31.77	-55.6	-58.3	13.3	0.00e+00	0	28	0	1006632960	76	5181
2026-01-05 01:29:11.74	234.77	31.55	-55.4	-58.0	13.5	0.00e+00	0	28	0	1008730112	76	4986
2026-01-05 01:29:12.59	234.67	31.39	-55.3	-57.9	13.5	0.00e+00	0	28	0	1010827264	76	4934
2026-01-05 01:29:13.73	234.54	31.17	-55.4	-57.9	13.5	0.00e+00	0	28	0	1012924416	76	4965
2026-01-05 01:29:14.59	234.45	31.01	-55.2	-57.6	13.7	0.00e+00	0	28	0	1015021568	76	4786
2026-01-05 01:29:15.74	234.32	30.79	-55.0	-57.4	13.8	0.00e+00	0	28	0	1017118720	76	4681
2026-01-05 01:29:16.60	234.23	30.63	-55.0	-57.3	13.8	0.00e+00	0	28	0	1018167296	76	4614
2026-01-05 01:29:17.74	234.11	30.42	-54.9	-57.2	13.9	0.00e+00	0	28	0	1020264448	76	4587
2026-01-05 01:29:18.60	234.02	30.26	-54.8	-57.1	13.9	0.00e+00	0	28	0	1022361600	76	4524
2026-01-05 01:29:19.74	233.90	30.05	-55.0	-57.3	13.9	0.00e+00	0	28	0	1024458752	76	4604
2026-01-05 01:29:20.59	233.81	29.90	-55.0	-57.3	13.8	0.00e+00	0	28	0	1025507328	76	4616
2026-01-05 01:29:21.73	233.70	29.69	-55.2	-57.6	13.7	0.00e+00	0	28	0	1027604480	76	4772
2026-01-05 01:29:22.59	233.61	29.54	-55.3	-57.7	13.6	0.00e+00	0	28	0	1029701632	76	4851
2026-01-05 01:29:23.73	233.50	29.33	-55.5	-58.0	13.4	0.00e+00	0	28	0	1031798784	76	5041
2026-01-05 01:29:24.59	233.41	29.18	-55.5	-58.1	13.4	0.00e+00	0	28	0	1032847360	76	5092
2026-01-05 01:29:25.73	233.30	28.98	-55.6	-58.2	13.3	0.00e+00	0	28	0	1034944512	76	5148
2026-01-05 01:29:26.58	233.22	28.83	-55.6	-58.3	13.3	0.00e+00	0	28	0	1037041664	76	5168
2026-01-05 01:29:27.72	233.11	28.63	-55.6	-58.3	13.3	0.00e+00	0	28	0	1039138816	76	5177
2026-01-05 01:29:28.57	233.03	28.48	-55.6	-58.3	13.3	0.00e+00	0	28	0	1040187392	76	5211
2026-01-05 01:29:29.71	232.92	28.29	-55.7	-58.4	13.2	0.00e+00	0	28	0	1043333120	76	5247
2026-01-05 01:29:30.56	232.85	28.14	-55.4	-58.0	13.4	0.00e+00	0	28	0	1044381696	76	5022
2026-01-05 01:29:31.71	232.74	27.94	-55.2	-57.6	13.6	0.00e+00	0	28	0	1046478848	76	4809
2026-01-05 01:29:32.57	232.66	27.80	-55.1	-57.6	13.7	0.00e+00	0	28	0	1048576000	76	4774
2026-01-05 01:29:33.72	232.56	27.60	-54.9	-57.2	13.9	0.00e+00	0	28	0	1050673152	76	4567
2026-01-05 01:29:34.57	232.49	27.46	-54.6	-56.8	13.9	0.00e+00	0	28	0	1051721728	75	4615
2026-01-05 01:29:35.71	232.39	27.27	-54.5	-56.6	14.0	0.00e+00	0	28	0	1053818880	75	4545
2026-01-05 01:29:36.57	232.31	27.13	-54.4	-56.6	14.1	0.00e+00	0	28	0	1055916032	75	4499
2026-01-05 01:29:37.71	232.22	26.94	-54.4	-56.5	14.1	0.00e+00	0	28	0	1058013184	75	4491
2026-01-05 01:29:38.57	232.14	26.80	-54.5	-56.7	14.0	0.00e+00	0	28	0	1059061760	75	4551
2026-01-05 01:29:39.71	232.05	26.61	-54.5	-56.8	13.9	0.00e+00	0	28	0	1061158912	75	4615
2026-01-05 01:29:40.57	231.98	26.47	-54.5	-56.8	14.0	0.00e+00	0	28	0	1063256064	75	4609
2026-01-05 01:29:41.71	231.88	26.29	-54.7	-57.0	13.9	0.00e+00	0	28	0	1065353216	75	4714
2026-01-05 01:29:42.57	231.82	26.15	-54.6	-56.9	13.9	0.00e+00	0	28	0	1067450368	75	4693
2026-01-05 01:29:43.72	231.72	25.96	-54.6	-56.9	13.9	0.00e+00	0	28	0	1069547520	75	4677
2026-01-05 01:29:44.57	231.66	25.83	-54.7	-57.0	13.9	0.00e+00	0	28	0	1070596096	75	4731
2026-01-05 01:29:45.72	231.57	25.65	-54.7	-57.0	13.8	0.00e+00	0	28	0	1072693248	75	4742
2026-01-05 01:29:46.58	231.50	25.51	-54.8	-57.1	13.8	0.00e+00	0	28	0	1074790400	75	4792
2026-01-05 01:29:47.71	231.41	25.33	-54.5	-56.8	14.0	0.00e+00	0	28	0	1076887552	75	4607
2026-01-05 01:29:48.57	231.35	25.20	-54.4	-56.6	14.0	0.00e+00	0	28	0	1077936128	75	4525
2026-01-05 01:29:49.70	231.26	25.03	-54.3	-56.5	14.1	0.00e+00	0	28	0	1080033280	75	4470
2026-01-05 01:29:50.55	231.20	24.90	-54.3	-56.4	14.1	0.00e+00	0	28	0	1082130432	75	4425
2026-01-05 01:29:51.69	231.12	24.72	-54.4	-56.6	14.0	0.00e+00	0	28	0	1084227584	75	4500
2026-01-05 01:29:52.55	231.05	24.59	-54.3	-56.5	14.1	0.00e+00	0	28	0	1085276160	75	4461
2026-01-05 01:29:53.69	230.97	24.42	-54.4	-56.6	14.0	0.00e+00	0	28	0	1087373312	75	4535
2026-01-05 01:29:54.54	230.91	24.29	-54.5	-56.7	14.0	0.00e+00	0	28	0	1089470464	75	4565
2026-01-05 01:29:55.68	230.83	24.12	-54.4	-56.6	14.0	0.00e+00	0	28	0	1091567616	75	4544
2026-01-05 01:29:56.53	230.77	23.99	-54.5	-56.8	14.0	0.00e+00	0	28	0	1092616192	75	4601
2026-01-05 01:29:57.66	230.69	23.82	-54.6	-56.9	13.9	0.00e+00	0	28	0	1095761920	75	4670
2026-01-05 01:29:58.51	230.63	23.70	-54.5	-56.7	14.0	0.00e+00	0	28	0	1096810496	75	4598
2026-01-05 01:29:59.65	230.56	23.53	-54.4	-56.6	14.0	0.00e+00	0	28	0	1098907648	75	4542
2026-01-05 01:30:00.51	230.50	23.41	-54.3	-56.6	14.0	0.00e+00	0	28	0	1101004800	75	4500
2026-01-05 01:30:01.64	230.42	23.24	-54.1	-56.2	14.1	0.00e+00	0	28	0	1103101952	74	4547
2026-01-05 01:30:02.50	230.36	23.12	-54.0	-56.1	14.2	0.00e+00	0	28	0	1104150528	74	4506
2026-01-05 01:30:03.63	230.29	22.96	-54.0	-56.1	14.2	0.00e+00	0	28	0	1106247680	74	4521
2026-01-05 01:30:04.48	230.24	22.84	-54.0	-56.1	14.2	0.00e+00	0	28	0	1108344832	74	4506
2026-01-05 01:30:05.63	230.16	22.67	-53.8	-55.8	14.3	0.00e+00	0	28	0	1110441984	74	4387
2026-01-05 01:30:06.49	230.11	22.55	-53.5	-55.5	14.3	0.00e+00	0	28	0	1111490560	73	4452
2026-01-05 01:30:07.63	230.04	22.39	-53.4	-55.3	14.4	0.00e+00	0	28	0	1113587712	73	4387
2026-01-05 01:30:08.48	229.98	22.27	-53.3	-55.2	14.5	0.00e+00	0	28	0	1115684864	73	4325
2026-01-05 01:30:09.62	229.91	22.11	-53.3	-55.2	14.5	0.00e+00	0	28	0	1117782016	73	4317
2026-01-05 01:30:10.48	229.86	21.99	-53.3	-55.1	14.5	0.00e+00	0	28	0	1118830592	73	4286
2026-01-05 01:30:11.62	229.79	21.84	-53.2	-55.0	14.4	0.00e+00	0	28	0	1120927744	72	4478
2026-01-05 01:30:12.47	229.74	21.72	-53.3	-55.2	14.4	0.00e+00	0	28	0	1123024896	72	4552
2026-01-05 01:30:13.61	229.67	21.57	-53.1	-55.0	14.4	0.00e+00	0	28	0	1125122048	72	4460
2026-01-05 01:30:14.47	229.62	21.45	-53.2	-55.0	14.4	0.00e+00	0	28	0	1127219200	72	4489
2026-01-05 01:30:15.61	229.55	21.29	-53.2	-55.1	14.4	0.00e+00	0	28	0	1129316352	72	4508
2026-01-05 01:30:16.46	229.50	21.18	-53.3	-55.2	14.4	0.00e+00	0	28	0	1130364928	72	4547
2026-01-05 01:30:17.61	229.44	21.03	-53.3	-55.2	14.4	0.00e+00	0	28	0	1132462080	72	4563
2026-01-05 01:30:18.47	229.39	20.91	-53.3	-55.2	14.4	0.00e+00	0	28	0	1134559232	72	4572
2026-01-05 01:30:19.61	229.33	20.76	-53.5	-55.4	14.2	0.00e+00	0	28	0	1136656384	72	4683
2026-01-05 01:30:20.47	229.28	20.65	-53.4	-55.4	14.3	0.00e+00	0	28	0	1137704960	72	4664
2026-01-05 01:30:21.62	229.21	20.50	-53.4	-55.4	14.2	0.00e+00	0	28	0	1139802112	72	4681
2026-01-05 01:30:22.47	229.17	20.39	-53.5	-55.5	14.2	0.00e+00	0	28	0	1141899264	72	4719
2026-01-05 01:30:23.62	229.10	20.24	-53.4	-55.3	14.2	0.00e+00	0	28	0	1143996416	72	4650
2026-01-05 01:30:24.47	229.06	20.13	-53.5	-55.4	14.2	0.00e+00	0	28	0	1145044992	72	4702
2026-01-05 01:30:25.62	229.00	19.98	-53.4	-55.4	14.2	0.00e+00	0	28	0	1147142144	72	4669
2026-01-05 01:30:26.48	228.95	19.87	-53.4	-55.4	14.2	0.00e+00	0	28	0	1149239296	72	4688
2026-01-05 01:30:27.62	228.89	19.73	-53.5	-55.5	14.2	0.00e+00	0	28	0	1151336448	72	4755
2026-01-05 01:30:28.47	228.85	19.62	-53.4	-55.3	14.3	0.00e+00	0	28	0	1153433600	72	4634
2026-01-05 01:30:29.62	228.79	19.47	-53.5	-55.4	14.2	0.00e+00	0	28	0	1155530752	72	4695
2026-01-05 01:30:30.48	228.74	19.37	-53.4	-55.3	14.3	0.00e+00	0	28	0	1156579328	72	4641
2026-01-05 01:30:31.61	228.69	19.23	-53.5	-55.4	14.2	0.00e+00	0	28	0	1158676480	72	4703
2026-01-05 01:30:32.47	228.64	19.12	-53.4	-55.4	14.3	0.00e+00	0	28	0	1160773632	72	4657
2026-01-05 01:30:33.61	228.59	18.98	-53.5	-55.5	14.2	0.00e+00	0	28	0	1162870784	72	4748
2026-01-05 01:30:34.47	228.54	18.87	-53.6	-55.6	14.1	0.00e+00	0	28	0	1163919360	72	4794
2026-01-05 01:30:35.61	228.49	18.73	-53.6	-55.7	14.1	0.00e+00	0	28	0	1166016512	72	4822
2026-01-05 01:30:36.46	228.45	18.63	-53.7	-55.8	14.1	0.00e+00	0	28	0	1168113664	72	4889
2026-01-05 01:30:37.62	228.39	18.49	-53.7	-55.7	14.1	0.00e+00	0	28	0	1170210816	72	4846
2026-01-05 01:30:38.48	228.35	18.39	-53.7	-55.7	14.1	0.00e+00	0	28	0	1171259392	72	4847
2026-01-05 01:30:39.63	228.30	18.25	-53.7	-55.8	14.1	0.00e+00	0	28	0	1174405120	72	4897
2026-01-05 01:30:40.49	228.26	18.15	-53.7	-55.8	14.1	0.00e+00	0	28	0	1175453696	72	4875
2026-01-05 01:30:41.63	228.20	18.01	-53.7	-55.7	14.1	0.00e+00	0	28	0	1177550848	72	4847
2026-01-05 01:30:42.48	228.16	17.91	-53.6	-55.7	14.1	0.00e+00	0	28	0	1179648000	72	4820
2026-01-05 01:30:43.63	228.11	17.77	-53.6	-55.6	14.2	0.00e+00	0	28	0	1181745152	72	4772
2026-01-05 01:30:44.48	228.07	17.67	-53.5	-55.6	14.2	0.00e+00	0	28	0	1182793728	72	4769
2026-01-05 01:30:45.63	228.02	17.54	-53.5	-55.4	14.2	0.00e+00	0	28	0	1184890880	72	4701
2026-01-05 01:30:46.49	227.98	17.44	-53.3	-55.3	14.3	0.00e+00	0	28	0	1186988032	72	4599
2026-01-05 01:30:47.63	227.93	17.31	-53.4	-55.3	14.2	0.00e+00	0	28	0	1189085184	72	4648
2026-01-05 01:30:48.48	227.89	17.21	-53.4	-55.4	14.2	0.00e+00	0	28	0	1190133760	72	4667
2026-01-05 01:30:49.62	227.84	17.08	-53.2	-55.2	14.3	0.00e+00	0	28	0	1192230912	72	4559
2026-01-05 01:30:50.47	227.81	16.98	-53.2	-55.1	14.3	0.00e+00	0	28	0	1194328064	72	4545
2026-01-05 01:30:51.60	227.76	16.86	-53.3	-55.2	14.3	0.00e+00	0	28	0	1196425216	72	4595
2026-01-05 01:30:52.45	227.72	16.76	-53.3	-55.3	14.3	0.00e+00	0	28	0	1198522368	72	4616
2026-01-05 01:30:53.59	227.67	16.63	-53.4	-55.4	14.2	0.00e+00	0	28	0	1199570944	72	4695
2026-01-05 01:30:54.44	227.64	16.54	-53.4	-55.4	14.2	0.00e+00	0	28	0	1201668096	72	4667
2026-01-05 01:30:55.58	227.59	16.41	-53.3	-55.3	14.3	0.00e+00	0	28	0	1203765248	72	4599
2026-01-05 01:30:56.43	227.56	16.31	-53.4	-55.4	14.2	0.00e+00	0	28	0	1205862400	72	4689
2026-01-05 01:30:57.57	227.51	16.19	-53.5	-55.5	14.2	0.00e+00	0	28	0	1207959552	72	4732
2026-01-05 01:30:58.43	227.48	16.09	-53.5	-55.5	14.1	0.00e+00	0	28	0	1209008128	72	4749
2026-01-05 01:30:59.57	227.43	15.97	-53.7	-55.7	14.1	0.00e+00	0	28	0	1211105280	72	4860
