passes_logs/2026/01/05/R3.2S_Murmansk/R3.2S_Murmansk__20260105_022924_AQUA_rec.log

#Pass ID: 20260105_022924_AQUA
#Satellite: AQUA
#Configuration: AQUA
#almurnet v.1.7.20251203
#Start time: 2026-01-05 02:29:24

#Version: 2.2.20231116
#Station: R3.2S_Murmansk
#Location: 33.079688 lon 68.888172 lat
#TLE: 1 27424U 02022A   26003.93831470  .00001925  00000+0  39553-3 0  9995
#TLE: 2 27424  98.4067 330.1809 0002003  92.1713 343.8415 14.61796291259276

#Time	Az	El	Level	Level2	SNR	BER	BlckErr	Temp	State	Recorded	gain1	gain2
2026-01-05 02:29:24.43	24.08	1.97	-58.0	-77.3	3.8	7.47e-01	0	25	0	0	85	32115
2026-01-05 02:29:25.42	24.08	2.04	-57.8	-77.2	3.8	7.45e-01	0	25	104	0	83	35416
2026-01-05 02:29:26.42	24.08	2.11	-57.8	-77.1	3.8	7.45e-01	0	25	104	0	83	35225
2026-01-05 02:29:27.42	24.08	2.17	-57.8	-77.1	3.8	7.46e-01	0	26	104	0	83	35085
2026-01-05 02:29:28.42	24.07	2.24	-57.8	-77.0	3.8	7.46e-01	0	25	104	0	83	34841
2026-01-05 02:29:29.42	24.07	2.31	-57.8	-77.0	3.8	7.50e-01	0	26	104	0	83	34547
2026-01-05 02:29:30.42	24.07	2.37	-57.8	-77.0	3.8	7.50e-01	0	26	104	0	83	34593
2026-01-05 02:29:31.41	24.07	2.44	-57.8	-76.9	3.8	7.47e-01	0	26	104	0	83	34249
2026-01-05 02:29:32.41	24.06	2.51	-57.8	-76.9	3.8	7.50e-01	0	26	104	0	83	34394
2026-01-05 02:29:33.40	24.06	2.57	-57.8	-76.9	3.8	7.50e-01	0	26	104	0	83	34395
2026-01-05 02:29:34.39	24.06	2.64	-57.8	-77.0	3.8	7.49e-01	0	26	104	0	83	34572
2026-01-05 02:29:35.39	24.06	2.71	-57.8	-77.0	3.8	7.49e-01	0	26	104	0	83	34669
2026-01-05 02:29:36.39	24.05	2.78	-57.8	-77.0	3.8	7.46e-01	0	26	104	0	83	34861
2026-01-05 02:29:37.40	24.05	2.85	-57.8	-77.0	3.8	7.45e-01	0	26	104	0	83	34849
2026-01-05 02:29:38.39	24.05	2.91	-57.8	-77.0	3.8	7.47e-01	0	26	104	0	83	34683
2026-01-05 02:29:39.39	24.05	2.98	-57.8	-76.9	3.8	7.46e-01	0	26	104	0	83	34089
2026-01-05 02:29:40.40	24.04	3.05	-57.8	-76.6	3.8	7.46e-01	0	26	104	0	83	32931
2026-01-05 02:29:41.40	24.04	3.12	-57.8	-76.0	3.9	7.50e-01	0	26	104	0	83	30993
2026-01-05 02:29:42.40	24.04	3.19	-57.7	-75.3	3.8	7.42e-01	0	26	104	0	83	28383
2026-01-05 02:29:43.41	24.03	3.26	-57.7	-73.9	4.1	7.35e-01	0	26	104	0	83	24385
2026-01-05 02:29:44.41	24.03	3.33	-57.7	-73.4	3.9	7.43e-01	0	26	104	0	83	22999
2026-01-05 02:29:45.40	24.03	3.40	-57.7	-72.1	4.7	7.19e-01	0	26	104	0	83	19686
2026-01-05 02:29:46.40	24.03	3.47	-57.6	-71.6	4.9	7.12e-01	0	26	104	0	83	18591
2026-01-05 02:29:47.40	24.02	3.54	-57.6	-71.4	5.0	7.09e-01	0	26	0	0	83	18178
2026-01-05 02:29:48.40	24.02	3.61	-57.6	-71.7	4.8	7.12e-01	0	26	0	0	83	18946
2026-01-05 02:29:49.40	24.02	3.68	-57.6	-71.9	4.8	7.12e-01	0	26	104	0	83	19193
2026-01-05 02:29:50.40	24.01	3.75	-57.7	-72.3	4.6	7.20e-01	0	26	104	0	83	20099
2026-01-05 02:29:51.40	24.01	3.82	-57.7	-72.9	3.9	7.41e-01	0	26	104	0	83	21694
2026-01-05 02:29:52.40	24.01	3.89	-57.7	-72.3	4.6	7.23e-01	0	26	104	0	83	20289
2026-01-05 02:29:53.40	24.00	3.96	-57.7	-73.8	3.9	7.41e-01	0	26	104	0	83	24093
2026-01-05 02:29:54.40	24.00	4.03	-57.7	-73.6	4.2	7.34e-01	0	26	104	0	83	23543
2026-01-05 02:29:55.41	24.00	4.11	-57.7	-74.5	3.8	7.41e-01	0	26	104	0	83	26085
2026-01-05 02:29:56.41	23.99	4.18	-57.7	-73.3	4.3	7.31e-01	0	26	104	0	83	22705
2026-01-05 02:29:57.41	23.99	4.25	-57.7	-72.7	3.9	7.38e-01	0	26	104	0	83	21140
2026-01-05 02:29:58.41	23.99	4.32	-57.6	-71.0	4.2	7.30e-01	0	26	104	0	83	17299
2026-01-05 02:29:59.41	23.98	4.40	-57.5	-68.8	6.6	6.65e-01	92	27	0	524288	83	13456
2026-01-05 02:30:00.41	23.98	4.47	-57.4	-67.9	7.4	6.47e-01	85	27	0	2621440	83	12097
2026-01-05 02:30:01.40	23.98	4.54	-57.2	-66.4	8.6	6.28e-01	0	26	0	4194304	83	10261
2026-01-05 02:30:02.41	23.97	4.62	-57.0	-65.4	9.6	6.17e-01	0	27	0	6291456	83	9084
2026-01-05 02:30:03.40	23.97	4.69	-56.9	-64.7	10.1	6.13e-01	0	26	0	7864320	83	8445
2026-01-05 02:30:04.40	23.97	4.76	-56.7	-63.7	10.8	6.11e-01	0	26	0	9961472	82	7980
2026-01-05 02:30:05.40	23.96	4.84	-56.6	-63.3	11.1	6.07e-01	0	26	0	12058624	82	7597
2026-01-05 02:30:06.40	23.96	4.91	-56.5	-63.0	11.5	6.05e-01	0	26	0	13631488	82	7288
2026-01-05 02:30:07.40	23.95	4.99	-56.4	-62.7	11.6	6.07e-01	0	27	0	15728640	82	7117
2026-01-05 02:30:08.40	23.95	5.06	-56.8	-64.0	10.9	6.07e-01	0	27	0	17301504	82	8187
2026-01-05 02:30:09.40	23.95	5.13	-57.1	-65.2	9.3	6.14e-01	0	27	0	19398656	83	8884
2026-01-05 02:30:10.40	23.94	5.21	-55.8	-60.8	12.9	6.03e-01	0	27	0	20971520	79	6752
2026-01-05 02:30:11.39	23.94	5.28	-57.0	-65.1	9.6	6.16e-01	0	27	0	23068672	82	9286
2026-01-05 02:30:12.40	23.94	5.36	-54.1	-57.3	14.4	6.00e-01	0	27	0	25165824	77	5071
2026-01-05 02:30:13.40	23.93	5.44	-55.7	-60.7	12.6	6.03e-01	0	27	0	26738688	80	6282
2026-01-05 02:30:14.39	23.93	5.51	-53.9	-57.0	14.3	5.99e-01	0	27	0	28835840	76	5212
2026-01-05 02:30:15.39	23.92	5.59	-53.8	-56.8	14.5	6.02e-01	0	27	0	30408704	76	5060
2026-01-05 02:30:16.39	23.92	5.66	-53.0	-55.7	14.8	6.02e-01	0	27	0	32505856	75	4731
2026-01-05 02:30:17.38	23.91	5.74	-52.4	-54.8	15.0	6.02e-01	0	27	0	34078720	74	4541
2026-01-05 02:30:18.38	23.91	5.82	-52.0	-54.4	15.0	6.02e-01	0	27	0	36175872	73	4548
2026-01-05 02:30:19.37	23.91	5.89	-51.8	-54.0	15.0	6.01e-01	0	27	0	37748736	72	4641
2026-01-05 02:30:20.37	23.90	5.97	-51.7	-53.9	15.1	6.01e-01	0	27	0	39845888	72	4582
2026-01-05 02:30:21.36	23.90	6.05	-51.7	-53.8	15.1	6.02e-01	0	27	0	41943040	72	4536
2026-01-05 02:30:22.36	23.89	6.13	-51.6	-53.8	15.1	6.01e-01	0	27	0	43515904	72	4497
2026-01-05 02:30:23.36	23.89	6.21	-51.3	-53.4	15.2	5.99e-01	0	27	0	45613056	71	4572
2026-01-05 02:30:24.36	23.88	6.28	-51.1	-53.2	15.2	6.02e-01	0	27	0	47185920	71	4448
2026-01-05 02:30:25.36	23.88	6.36	-51.1	-53.1	15.2	6.03e-01	0	27	0	49283072	71	4426
2026-01-05 02:30:26.35	23.87	6.44	-51.2	-53.2	15.2	6.01e-01	0	27	0	50855936	71	4455
2026-01-05 02:30:27.35	23.87	6.52	-51.1	-53.1	15.3	6.02e-01	0	27	0	52953088	71	4408
2026-01-05 02:30:28.34	23.86	6.60	-51.1	-53.1	15.2	6.00e-01	0	27	0	55050240	71	4424
2026-01-05 02:30:29.34	23.86	6.68	-51.0	-53.0	15.3	6.02e-01	0	27	0	56623104	71	4382
2026-01-05 02:30:30.33	23.85	6.76	-51.0	-53.0	15.3	6.02e-01	0	27	0	58720256	71	4355
2026-01-05 02:30:31.34	23.85	6.84	-51.1	-53.1	15.3	6.03e-01	0	27	0	60293120	71	4394
2026-01-05 02:30:32.33	23.84	6.92	-51.0	-52.9	15.3	6.01e-01	0	27	0	62390272	71	4340
2026-01-05 02:30:33.33	23.84	7.00	-51.0	-53.0	15.3	6.02e-01	0	27	0	63963136	71	4375
2026-01-05 02:30:34.32	23.83	7.08	-50.9	-52.9	15.3	6.03e-01	0	27	0	66060288	71	4298
2026-01-05 02:30:35.33	23.83	7.16	-50.9	-52.8	15.3	6.00e-01	0	27	0	68157440	71	4289
2026-01-05 02:30:36.33	23.82	7.25	-50.9	-52.8	15.4	6.03e-01	0	27	0	69730304	71	4272
2026-01-05 02:30:37.33	23.82	7.33	-50.8	-52.7	15.2	6.00e-01	0	27	0	71827456	70	4487
2026-01-05 02:30:38.32	23.81	7.41	-50.8	-52.8	15.2	6.01e-01	0	27	0	73400320	70	4504
2026-01-05 02:30:39.32	23.81	7.49	-50.7	-52.7	15.3	6.04e-01	0	27	0	75497472	70	4442
2026-01-05 02:30:40.32	23.80	7.58	-50.8	-52.8	15.2	6.01e-01	0	27	0	77070336	70	4497
2026-01-05 02:30:41.32	23.80	7.66	-50.7	-52.6	15.3	6.02e-01	0	27	0	79167488	70	4415
2026-01-05 02:30:42.32	23.79	7.74	-50.7	-52.6	15.3	6.04e-01	0	27	0	80740352	70	4423
2026-01-05 02:30:43.32	23.78	7.83	-50.8	-52.7	15.3	6.00e-01	0	27	0	82837504	70	4463
2026-01-05 02:30:44.32	23.78	7.91	-50.8	-52.7	15.3	6.02e-01	0	27	0	84934656	70	4442
2026-01-05 02:30:45.32	23.77	8.00	-50.7	-52.6	15.3	6.02e-01	0	27	0	86507520	70	4417
2026-01-05 02:30:46.31	23.77	8.08	-50.7	-52.5	15.3	6.01e-01	0	27	0	88604672	70	4385
2026-01-05 02:30:47.31	23.76	8.17	-50.7	-52.6	15.3	6.02e-01	0	27	0	90177536	70	4415
2026-01-05 02:30:48.31	23.75	8.25	-50.7	-52.5	15.3	6.01e-01	0	27	0	92274688	70	4376
2026-01-05 02:30:49.31	23.75	8.34	-50.7	-52.6	15.3	6.01e-01	0	27	0	94371840	70	4407
2026-01-05 02:30:50.30	23.74	8.42	-50.7	-52.5	15.3	6.03e-01	0	27	0	95944704	70	4379
2026-01-05 02:30:51.30	23.74	8.51	-50.5	-52.4	15.3	6.01e-01	0	27	0	98041856	70	4309
2026-01-05 02:30:52.29	23.73	8.60	-50.5	-52.4	15.4	6.00e-01	0	27	0	99614720	70	4294
2026-01-05 02:30:53.29	23.72	8.68	-50.5	-52.3	15.4	6.01e-01	0	27	0	101711872	70	4271
2026-01-05 02:30:54.29	23.72	8.77	-50.5	-52.4	15.4	6.00e-01	0	27	0	103284736	70	4294
2026-01-05 02:30:55.28	23.71	8.86	-50.4	-52.2	15.4	6.01e-01	0	27	0	105381888	70	4222
2026-01-05 02:30:56.28	23.70	8.95	-50.5	-52.3	15.4	6.00e-01	0	27	0	107479040	70	4265
2026-01-05 02:30:57.28	23.70	9.04	-50.5	-52.3	15.4	6.02e-01	0	27	0	109051904	70	4290
2026-01-05 02:30:58.28	23.69	9.12	-50.4	-52.2	15.4	6.02e-01	0	27	0	111149056	70	4227
2026-01-05 02:30:59.29	23.68	9.22	-50.3	-52.1	15.3	6.03e-01	0	27	0	112721920	69	4428
2026-01-05 02:31:00.28	23.68	9.30	-50.4	-52.2	15.3	6.04e-01	0	27	0	114819072	69	4475
2026-01-05 02:31:01.28	23.67	9.39	-50.3	-52.1	15.3	6.01e-01	0	27	0	116391936	69	4415
2026-01-05 02:31:02.28	23.66	9.48	-50.3	-52.1	15.3	6.03e-01	0	27	0	118489088	69	4435
2026-01-05 02:31:03.28	23.66	9.58	-50.3	-52.1	15.3	6.02e-01	0	27	0	120061952	69	4433
2026-01-05 02:31:04.28	23.65	9.67	-50.4	-52.2	15.3	6.02e-01	0	27	0	122159104	69	4449
2026-01-05 02:31:05.28	23.64	9.76	-50.3	-52.1	15.3	6.01e-01	0	27	0	124256256	69	4414
2026-01-05 02:31:06.27	23.63	9.85	-50.3	-52.1	15.3	6.04e-01	0	27	0	125829120	69	4417
2026-01-05 02:31:07.27	23.63	9.94	-50.4	-52.2	15.3	6.02e-01	0	27	0	127926272	69	4444
2026-01-05 02:31:08.27	23.62	10.03	-50.2	-52.0	15.3	6.00e-01	0	27	0	129499136	69	4377
2026-01-05 02:31:09.27	23.61	10.13	-50.3	-52.1	15.3	6.04e-01	0	27	0	131596288	69	4418
2026-01-05 02:31:10.27	23.60	10.22	-50.4	-52.2	15.3	6.02e-01	0	27	0	133169152	69	4479
2026-01-05 02:31:11.27	23.60	10.31	-50.3	-52.1	15.3	6.01e-01	0	27	0	135266304	69	4396
2026-01-05 02:31:12.27	23.59	10.41	-50.3	-52.1	15.3	6.01e-01	0	27	0	137363456	69	4410
2026-01-05 02:31:13.27	23.58	10.50	-50.3	-52.1	15.3	6.02e-01	0	27	0	138936320	69	4397
2026-01-05 02:31:14.27	23.57	10.60	-50.4	-52.2	15.3	6.01e-01	0	27	0	141033472	69	4452
2026-01-05 02:31:15.27	23.56	10.69	-50.2	-51.9	15.4	6.03e-01	0	27	0	142606336	69	4318
2026-01-05 02:31:16.27	23.56	10.79	-50.2	-51.9	15.4	6.02e-01	0	27	0	144703488	69	4312
2026-01-05 02:31:17.26	23.55	10.89	-50.1	-51.9	15.4	6.01e-01	0	27	0	146276352	69	4302
2026-01-05 02:31:18.26	23.54	10.98	-50.1	-51.8	15.4	6.00e-01	0	27	0	148373504	69	4258
2026-01-05 02:31:19.26	23.53	11.08	-50.1	-51.9	15.4	6.01e-01	0	27	0	150470656	69	4294
2026-01-05 02:31:20.27	23.52	11.18	-50.0	-51.7	15.4	6.02e-01	0	27	0	152043520	69	4236
2026-01-05 02:31:21.26	23.51	11.28	-50.1	-51.8	15.4	6.00e-01	0	27	0	154140672	69	4263
2026-01-05 02:31:22.27	23.50	11.37	-50.1	-51.9	15.4	6.01e-01	0	27	0	155713536	69	4307
2026-01-05 02:31:23.27	23.50	11.47	-50.1	-51.8	15.4	6.01e-01	0	27	0	157810688	69	4270
2026-01-05 02:31:24.26	23.49	11.57	-50.0	-51.7	15.4	6.03e-01	0	27	0	159383552	69	4230
2026-01-05 02:31:25.26	23.48	11.67	-49.9	-51.6	15.5	6.01e-01	0	27	0	161480704	69	4179
2026-01-05 02:31:26.26	23.47	11.77	-49.9	-51.6	15.4	6.01e-01	0	27	0	163577856	69	4191
2026-01-05 02:31:27.25	23.46	11.87	-49.9	-51.6	15.4	5.98e-01	0	27	0	165150720	69	4177
2026-01-05 02:31:28.24	23.45	11.97	-49.9	-51.6	15.4	6.01e-01	0	27	0	167247872	69	4192
2026-01-05 02:31:29.24	23.44	12.07	-49.8	-51.5	15.3	6.01e-01	0	27	0	168820736	68	4376
2026-01-05 02:31:30.24	23.43	12.18	-49.9	-51.6	15.3	6.02e-01	0	27	0	170917888	68	4394
2026-01-05 02:31:31.24	23.42	12.28	-49.8	-51.5	15.4	6.04e-01	0	28	0	173015040	68	4345
2026-01-05 02:31:32.23	23.41	12.38	-49.8	-51.5	15.3	6.02e-01	0	27	0	174587904	68	4363
2026-01-05 02:31:33.22	23.40	12.48	-49.9	-51.6	15.3	6.00e-01	0	28	0	176685056	68	4392
2026-01-05 02:31:34.22	23.39	12.59	-49.8	-51.4	15.4	6.02e-01	0	27	0	178257920	68	4323
2026-01-05 02:31:35.22	23.38	12.69	-49.9	-51.5	15.3	6.00e-01	0	27	0	180355072	68	4386
2026-01-05 02:31:36.22	23.37	12.80	-49.7	-51.3	15.4	6.01e-01	0	27	0	181927936	68	4275
2026-01-05 02:31:37.22	23.36	12.90	-49.6	-51.2	15.4	6.00e-01	0	27	0	184025088	68	4235
2026-01-05 02:31:38.22	23.35	13.01	-49.6	-51.3	15.4	6.00e-01	0	28	0	185597952	68	4254
2026-01-05 02:31:39.21	23.34	13.11	-49.7	-51.3	15.4	6.03e-01	0	27	0	187695104	68	4272
2026-01-05 02:31:40.21	23.33	13.22	-49.6	-51.3	15.4	5.99e-01	0	27	0	189792256	68	4265
2026-01-05 02:31:41.21	23.32	13.33	-49.6	-51.2	15.4	6.02e-01	0	27	0	191365120	68	4234
2026-01-05 02:31:42.21	23.31	13.44	-49.7	-51.3	15.4	6.01e-01	0	27	0	193462272	68	4257
2026-01-05 02:31:43.21	23.30	13.55	-49.6	-51.3	15.4	6.00e-01	0	28	0	195035136	68	4248
2026-01-05 02:31:44.20	23.29	13.65	-49.6	-51.2	15.4	6.02e-01	0	28	0	197132288	68	4230
2026-01-05 02:31:45.19	23.28	13.76	-49.6	-51.2	15.4	6.02e-01	0	27	0	198705152	68	4241
2026-01-05 02:31:46.20	23.26	13.87	-49.5	-51.2	15.5	6.01e-01	0	27	0	200802304	68	4197
2026-01-05 02:31:47.20	23.25	13.98	-49.6	-51.2	15.4	6.03e-01	0	27	0	202899456	68	4218
2026-01-05 02:31:48.20	23.24	14.10	-49.6	-51.2	15.4	6.01e-01	0	27	0	204472320	68	4226
2026-01-05 02:31:49.20	23.23	14.21	-49.6	-51.2	15.5	5.99e-01	0	28	0	206569472	68	4230
2026-01-05 02:31:50.19	23.22	14.32	-49.6	-51.2	15.4	6.02e-01	0	27	0	208142336	68	4223
2026-01-05 02:31:51.19	23.21	14.43	-49.6	-51.2	15.5	6.03e-01	0	27	0	210239488	68	4213
2026-01-05 02:31:52.19	23.19	14.55	-49.6	-51.2	15.5	6.02e-01	0	28	0	211812352	68	4215
2026-01-05 02:31:53.19	23.18	14.66	-49.6	-51.2	15.4	6.01e-01	0	27	0	213909504	68	4224
2026-01-05 02:31:54.19	23.17	14.78	-49.6	-51.2	15.5	6.01e-01	0	27	0	216006656	68	4231
2026-01-05 02:31:55.20	23.16	14.89	-49.6	-51.3	15.4	6.01e-01	0	27	0	217579520	68	4252
2026-01-05 02:31:56.20	23.14	15.01	-49.6	-51.3	15.4	6.02e-01	0	27	0	219676672	68	4253
2026-01-05 02:31:57.19	23.13	15.12	-49.5	-51.1	15.5	6.01e-01	0	27	0	221249536	68	4193
2026-01-05 02:31:58.19	23.12	15.24	-49.5	-51.2	15.5	6.02e-01	0	27	0	223346688	68	4198
2026-01-05 02:31:59.18	23.10	15.36	-49.6	-51.2	15.4	6.01e-01	0	27	0	224919552	68	4232
2026-01-05 02:32:00.17	23.09	15.48	-49.5	-51.1	15.5	6.00e-01	0	27	0	227016704	68	4155
2026-01-05 02:32:01.16	23.08	15.59	-49.4	-51.0	15.5	6.02e-01	0	27	0	228589568	68	4123
2026-01-05 02:32:02.16	23.07	15.71	-49.3	-50.9	15.4	6.02e-01	0	27	0	230686720	67	4332
2026-01-05 02:32:03.16	23.05	15.83	-49.3	-50.9	15.4	6.01e-01	0	27	0	232783872	67	4330
2026-01-05 02:32:04.16	23.04	15.95	-49.3	-50.9	15.4	6.01e-01	0	28	0	234356736	67	4317
2026-01-05 02:32:05.15	23.02	16.08	-49.3	-50.9	15.4	6.02e-01	0	27	0	236453888	67	4309
2026-01-05 02:32:06.16	23.01	16.20	-49.4	-51.0	15.4	5.99e-01	0	27	0	238026752	67	4348
2026-01-05 02:32:07.16	23.00	16.32	-49.3	-50.9	15.4	6.02e-01	0	27	0	240123904	67	4295
2026-01-05 02:32:08.16	22.98	16.45	-49.2	-50.8	15.4	6.02e-01	0	27	0	241696768	67	4255
2026-01-05 02:32:09.16	22.97	16.57	-49.2	-50.7	15.4	6.00e-01	0	27	0	243793920	67	4241
2026-01-05 02:32:10.16	22.95	16.70	-49.2	-50.7	15.4	6.01e-01	0	27	0	245891072	67	4238
2026-01-05 02:32:11.16	22.94	16.82	-49.2	-50.8	15.4	6.02e-01	0	27	0	247463936	67	4256
2026-01-05 02:32:12.17	22.92	16.95	-49.2	-50.7	15.4	6.02e-01	0	27	0	249561088	67	4241
2026-01-05 02:32:13.16	22.91	17.08	-49.2	-50.8	15.4	6.02e-01	0	28	0	251133952	67	4273
2026-01-05 02:32:14.16	22.89	17.20	-49.2	-50.8	15.4	6.01e-01	0	27	0	253231104	67	4275
2026-01-05 02:32:15.15	22.88	17.33	-49.2	-50.8	15.5	6.02e-01	0	28	0	255328256	67	4246
2026-01-05 02:32:16.16	22.86	17.46	-49.3	-50.9	15.4	6.02e-01	0	27	0	256901120	67	4296
2026-01-05 02:32:17.15	22.84	17.59	-49.4	-51.0	15.4	6.01e-01	0	27	0	258998272	67	4342
2026-01-05 02:32:18.15	22.83	17.72	-49.4	-51.0	15.4	6.01e-01	0	28	0	260571136	67	4356
2026-01-05 02:32:19.15	22.81	17.86	-49.4	-51.0	15.4	6.02e-01	0	27	0	262668288	67	4386
2026-01-05 02:32:20.14	22.79	17.99	-49.5	-51.1	15.4	6.02e-01	0	27	0	264241152	67	4392
2026-01-05 02:32:21.14	22.78	18.12	-49.5	-51.2	15.3	6.02e-01	0	28	0	266338304	67	4443
2026-01-05 02:32:22.13	22.76	18.25	-49.4	-51.0	15.4	5.99e-01	0	27	0	268435456	67	4389
2026-01-05 02:32:23.13	22.74	18.39	-49.5	-51.1	15.4	6.02e-01	0	27	0	270008320	67	4396
2026-01-05 02:32:24.13	22.73	18.52	-49.5	-51.2	15.3	6.02e-01	0	28	0	272105472	67	4452
2026-01-05 02:32:25.13	22.71	18.66	-49.5	-51.2	15.3	6.00e-01	0	27	0	273678336	67	4454
2026-01-05 02:32:26.12	22.69	18.80	-49.7	-51.3	15.3	6.03e-01	0	28	0	275775488	67	4509
2026-01-05 02:32:27.12	22.67	18.94	-49.7	-51.3	15.3	6.02e-01	0	28	0	277348352	67	4531
2026-01-05 02:32:28.12	22.65	19.08	-49.7	-51.4	15.3	5.99e-01	0	28	0	279445504	67	4550
2026-01-05 02:32:29.11	22.64	19.21	-49.6	-51.3	15.3	6.02e-01	0	28	0	281018368	67	4506
2026-01-05 02:32:30.10	22.62	19.35	-49.7	-51.3	15.3	6.02e-01	0	27	0	283115520	67	4538
2026-01-05 02:32:31.10	22.60	19.50	-49.7	-51.3	15.3	6.01e-01	0	28	0	285212672	67	4518
2026-01-05 02:32:32.11	22.58	19.64	-49.7	-51.3	15.3	6.00e-01	0	27	0	286785536	67	4531
2026-01-05 02:32:33.10	22.56	19.78	-49.6	-51.2	15.3	6.02e-01	0	27	0	288882688	67	4460
2026-01-05 02:32:34.11	22.54	19.93	-49.6	-51.2	15.3	6.02e-01	0	28	0	290455552	67	4455
2026-01-05 02:32:35.11	22.52	20.07	-49.5	-51.2	15.3	6.02e-01	0	28	0	292552704	67	4444
2026-01-05 02:32:36.10	22.50	20.22	-49.6	-51.2	15.3	6.03e-01	0	28	0	294125568	67	4460
2026-01-05 02:32:37.10	22.48	20.37	-49.6	-51.2	15.3	6.03e-01	0	28	0	296222720	67	4474
2026-01-05 02:32:38.09	22.46	20.51	-49.6	-51.2	15.3	6.01e-01	0	28	0	298319872	67	4492
2026-01-05 02:32:39.08	22.44	20.66	-49.7	-51.4	15.3	6.02e-01	0	28	0	299892736	67	4554
2026-01-05 02:32:40.08	22.42	20.81	-49.8	-51.4	15.3	6.03e-01	0	27	0	301989888	67	4589
2026-01-05 02:32:41.08	22.40	20.96	-49.9	-51.6	15.2	6.00e-01	0	27	0	303562752	67	4653
2026-01-05 02:32:42.07	22.38	21.11	-49.8	-51.5	15.3	6.03e-01	0	28	0	305659904	67	4619
2026-01-05 02:32:43.07	22.36	21.27	-49.9	-51.6	15.2	6.03e-01	0	27	0	307232768	67	4653
2026-01-05 02:32:44.07	22.33	21.42	-49.9	-51.5	15.3	5.99e-01	0	28	0	309329920	67	4625
2026-01-05 02:32:45.07	22.31	21.58	-49.9	-51.5	15.2	6.00e-01	0	27	0	310902784	67	4646
2026-01-05 02:32:46.07	22.29	21.73	-49.8	-51.5	15.3	6.02e-01	0	27	0	312999936	67	4615
2026-01-05 02:32:47.07	22.27	21.89	-49.9	-51.5	15.3	6.02e-01	0	27	0	315097088	67	4637
2026-01-05 02:32:48.07	22.24	22.05	-49.9	-51.6	15.3	6.01e-01	0	27	0	316669952	67	4655
2026-01-05 02:32:49.07	22.22	22.21	-49.9	-51.6	15.3	6.00e-01	0	27	0	318767104	67	4654
2026-01-05 02:32:50.07	22.19	22.37	-49.9	-51.6	15.3	6.01e-01	0	27	0	320339968	67	4658
2026-01-05 02:32:51.07	22.17	22.53	-49.9	-51.6	15.3	6.02e-01	0	27	0	322437120	67	4671
2026-01-05 02:32:52.08	22.15	22.70	-50.0	-51.6	15.2	6.00e-01	0	27	0	324009984	67	4697
2026-01-05 02:32:53.09	22.12	22.86	-49.9	-51.6	15.2	6.03e-01	0	28	0	326107136	67	4677
2026-01-05 02:32:54.08	22.10	23.02	-49.9	-51.6	15.1	6.02e-01	0	28	0	328204288	67	4673
2026-01-05 02:32:55.08	22.07	23.19	-50.0	-51.6	15.2	6.04e-01	0	28	0	329777152	67	4701
2026-01-05 02:32:56.08	22.05	23.36	-49.9	-51.5	15.3	6.00e-01	0	27	0	331874304	67	4651
2026-01-05 02:32:57.08	22.02	23.53	-49.8	-51.4	15.3	6.01e-01	0	28	0	333447168	67	4587
2026-01-05 02:32:58.07	21.99	23.69	-49.8	-51.4	15.3	6.02e-01	0	27	0	335544320	67	4592
2026-01-05 02:32:59.08	21.97	23.87	-49.8	-51.4	15.3	6.02e-01	0	28	0	337641472	67	4594
2026-01-05 02:33:00.08	21.94	24.04	-49.7	-51.4	15.3	6.01e-01	0	28	0	339214336	67	4551
2026-01-05 02:33:01.08	21.91	24.21	-49.8	-51.4	15.3	6.02e-01	0	27	0	341311488	67	4574
2026-01-05 02:33:02.08	21.88	24.39	-49.8	-51.4	15.3	5.99e-01	0	27	0	342884352	67	4595
2026-01-05 02:33:03.08	21.86	24.56	-50.0	-51.6	15.2	6.03e-01	0	27	0	344981504	67	4692
2026-01-05 02:33:04.08	21.83	24.74	-49.9	-51.6	15.3	5.99e-01	0	28	0	347078656	67	4667
2026-01-05 02:33:05.09	21.80	24.92	-50.0	-51.7	15.2	5.99e-01	0	28	0	348651520	67	4718
2026-01-05 02:33:06.09	21.77	25.10	-50.0	-51.7	15.2	6.03e-01	0	27	0	350748672	67	4714
2026-01-05 02:33:07.08	21.74	25.28	-50.0	-51.6	15.2	6.00e-01	0	27	0	352321536	67	4684
2026-01-05 02:33:08.08	21.71	25.46	-50.0	-51.6	15.2	6.02e-01	0	27	0	354418688	67	4703
2026-01-05 02:33:09.08	21.68	25.65	-50.0	-51.7	15.2	6.00e-01	0	27	0	355991552	67	4706
2026-01-05 02:33:10.09	21.65	25.83	-49.9	-51.5	15.3	6.00e-01	0	28	0	358088704	67	4612
2026-01-05 02:33:11.09	21.62	26.02	-49.8	-51.4	15.3	6.02e-01	0	27	0	360185856	67	4590
2026-01-05 02:33:12.09	21.58	26.21	-49.8	-51.4	15.3	6.00e-01	0	28	0	361758720	67	4571
2026-01-05 02:33:13.08	21.55	26.40	-49.8	-51.4	15.3	6.00e-01	0	28	0	363855872	67	4579
2026-01-05 02:33:14.08	21.52	26.59	-49.7	-51.3	15.3	6.02e-01	0	27	0	365428736	67	4509
2026-01-05 02:33:15.07	21.49	26.78	-49.6	-51.2	15.3	6.01e-01	0	28	0	367525888	67	4474
2026-01-05 02:33:16.07	21.45	26.97	-49.5	-51.1	15.4	6.01e-01	0	28	0	369098752	67	4421
2026-01-05 02:33:17.07	21.42	27.17	-49.4	-51.0	15.4	6.04e-01	0	28	0	371195904	67	4364
2026-01-05 02:33:18.06	21.38	27.36	-49.5	-51.1	15.4	5.99e-01	0	28	0	372768768	67	4405
2026-01-05 02:33:19.07	21.35	27.56	-49.5	-51.1	15.4	6.02e-01	0	28	0	374865920	67	4397
2026-01-05 02:33:20.07	21.31	27.76	-49.4	-51.0	15.4	6.02e-01	0	28	0	376963072	67	4345
2026-01-05 02:33:21.07	21.28	27.97	-49.6	-51.2	15.4	6.01e-01	0	27	0	378535936	67	4445
2026-01-05 02:33:22.07	21.24	28.17	-49.7	-51.3	15.3	6.01e-01	0	27	0	380633088	67	4512
2026-01-05 02:33:23.07	21.20	28.37	-49.8	-51.4	15.3	6.00e-01	0	27	0	382205952	67	4553
2026-01-05 02:33:24.05	21.17	28.58	-49.7	-51.3	15.3	5.99e-01	0	27	0	384303104	67	4537
2026-01-05 02:33:25.05	21.13	28.78	-49.7	-51.3	15.3	6.03e-01	0	28	0	386400256	67	4534
2026-01-05 02:33:26.05	21.09	28.99	-49.6	-51.2	15.3	6.00e-01	0	28	0	387973120	67	4468
2026-01-05 02:33:27.05	21.05	29.20	-49.5	-51.0	15.4	6.03e-01	0	28	0	390070272	67	4387
2026-01-05 02:33:28.05	21.01	29.42	-49.4	-50.9	15.4	6.02e-01	0	28	0	391643136	67	4340
2026-01-05 02:33:29.04	20.97	29.63	-49.5	-51.0	15.4	6.01e-01	0	28	0	393740288	67	4377
2026-01-05 02:33:30.04	20.93	29.85	-49.5	-51.1	15.4	6.00e-01	0	27	0	395313152	67	4428
2026-01-05 02:33:31.02	20.89	30.06	-49.4	-51.0	15.4	6.00e-01	0	28	0	397410304	67	4352
2026-01-05 02:33:32.02	20.84	30.28	-49.4	-50.9	15.4	6.01e-01	0	28	0	398983168	67	4319
2026-01-05 02:33:33.02	20.80	30.50	-49.3	-50.9	15.4	6.02e-01	0	28	0	401080320	67	4306
2026-01-05 02:33:34.01	20.76	30.72	-49.3	-50.9	15.4	6.02e-01	0	28	0	403177472	67	4294
2026-01-05 02:33:35.00	20.71	30.95	-49.3	-50.8	15.4	6.01e-01	0	28	0	404750336	67	4268
2026-01-05 02:33:36.00	20.67	31.17	-49.3	-50.8	15.4	6.01e-01	0	28	0	406847488	67	4288
2026-01-05 02:33:37.00	20.62	31.40	-49.2	-50.7	15.4	5.99e-01	0	28	0	408420352	67	4232
2026-01-05 02:33:37.99	20.58	31.63	-49.1	-50.7	15.5	6.02e-01	0	27	0	410517504	67	4203
2026-01-05 02:33:38.99	20.53	31.86	-49.3	-50.8	15.4	6.05e-01	0	28	0	412090368	67	4269
2026-01-05 02:33:39.99	20.48	32.10	-49.3	-50.8	15.4	6.00e-01	0	28	0	414187520	67	4264
2026-01-05 02:33:40.99	20.43	32.34	-49.4	-50.9	15.4	6.00e-01	0	27	0	416284672	67	4326
2026-01-05 02:33:41.99	20.38	32.58	-49.6	-51.1	15.4	6.00e-01	0	28	0	417857536	67	4430
2026-01-05 02:33:43.00	20.33	32.82	-49.7	-51.3	15.3	6.04e-01	0	27	0	419954688	67	4511
2026-01-05 02:33:44.00	20.28	33.06	-49.8	-51.4	15.3	6.03e-01	0	28	0	421527552	67	4553
2026-01-05 02:33:45.00	20.23	33.31	-49.7	-51.3	15.3	6.00e-01	0	28	0	423624704	67	4528
2026-01-05 02:33:46.00	20.17	33.55	-49.7	-51.2	15.3	6.02e-01	0	27	0	425197568	67	4485
2026-01-05 02:33:47.00	20.12	33.80	-49.7	-51.2	15.3	6.00e-01	0	27	0	427294720	67	4484
2026-01-05 02:33:48.00	20.06	34.05	-49.7	-51.3	15.3	5.99e-01	0	27	0	429391872	67	4504
2026-01-05 02:33:49.01	20.01	34.31	-49.9	-51.5	15.3	6.01e-01	0	27	0	430964736	67	4637
2026-01-05 02:33:50.00	19.95	34.56	-50.1	-51.7	15.2	6.03e-01	0	28	0	433061888	67	4735
2026-01-05 02:33:51.00	19.89	34.82	-50.2	-51.8	15.3	6.02e-01	0	27	0	434634752	68	4525
2026-01-05 02:33:52.00	19.83	35.08	-50.3	-51.9	15.3	6.00e-01	0	27	0	436731904	68	4585
2026-01-05 02:33:53.00	19.77	35.34	-50.5	-52.2	15.2	6.01e-01	0	28	0	438304768	68	4745
2026-01-05 02:33:54.00	19.71	35.61	-50.8	-52.5	15.3	6.02e-01	0	28	0	440401920	69	4625
2026-01-05 02:33:55.00	19.65	35.88	-50.9	-52.6	15.2	6.01e-01	0	27	0	442499072	69	4701
2026-01-05 02:33:56.01	19.59	36.15	-50.9	-52.6	15.2	6.01e-01	0	28	0	444071936	69	4676
2026-01-05 02:33:57.00	19.52	36.42	-51.0	-52.7	15.2	6.00e-01	0	27	0	446169088	69	4749
2026-01-05 02:33:58.00	19.46	36.69	-50.9	-52.7	15.1	6.02e-01	0	28	0	447741952	69	4731
2026-01-05 02:33:58.99	19.39	36.97	-51.0	-52.7	15.2	6.02e-01	0	28	0	449839104	69	4744
2026-01-05 02:34:00.00	19.32	37.25	-51.0	-52.8	15.2	6.02e-01	0	28	0	451936256	69	4781
2026-01-05 02:34:00.99	19.25	37.53	-51.3	-53.1	15.2	6.02e-01	0	28	0	453509120	70	4694
2026-01-05 02:34:02.00	19.18	37.81	-51.4	-53.2	15.2	6.03e-01	0	28	0	455606272	70	4755
2026-01-05 02:34:02.99	19.11	38.10	-51.5	-53.3	15.2	6.00e-01	0	27	0	457179136	71	4536
2026-01-05 02:34:03.99	19.04	38.39	-51.5	-53.3	15.2	6.02e-01	0	28	0	459276288	71	4526
2026-01-05 02:34:04.99	18.96	38.68	-51.5	-53.3	15.2	6.01e-01	0	28	0	460849152	71	4521
2026-01-05 02:34:06.00	18.88	38.97	-51.4	-53.2	15.3	6.01e-01	0	28	0	462946304	71	4460
2026-01-05 02:34:06.99	18.81	39.27	-51.4	-53.2	15.3	5.99e-01	0	28	0	465043456	71	4480
2026-01-05 02:34:07.99	18.73	39.57	-51.3	-53.1	15.3	6.03e-01	0	27	0	466616320	71	4431
2026-01-05 02:34:08.99	18.65	39.87	-51.4	-53.1	15.3	6.00e-01	0	27	0	468713472	71	4441
2026-01-05 02:34:09.99	18.56	40.18	-51.2	-53.0	15.3	6.02e-01	0	27	0	470286336	71	4370
2026-01-05 02:34:11.00	18.48	40.49	-51.3	-53.1	15.3	6.02e-01	0	28	0	472383488	71	4398
2026-01-05 02:34:12.01	18.39	40.80	-51.2	-53.0	15.4	6.01e-01	0	28	0	473956352	71	4345
2026-01-05 02:34:13.01	18.30	41.11	-51.2	-53.0	15.4	6.00e-01	0	27	0	476053504	71	4352
2026-01-05 02:34:14.01	18.21	41.43	-51.2	-53.0	15.3	6.00e-01	0	28	0	478150656	71	4343
2026-01-05 02:34:15.01	18.12	41.75	-51.0	-52.8	15.4	6.02e-01	0	28	0	479723520	71	4246
2026-01-05 02:34:16.02	18.03	42.07	-51.1	-52.8	15.4	6.00e-01	0	28	0	481820672	71	4290
2026-01-05 02:34:17.01	17.93	42.39	-50.8	-52.5	15.5	6.00e-01	0	28	0	483393536	70	4388
2026-01-05 02:34:18.01	17.84	42.72	-50.7	-52.4	15.4	6.01e-01	0	28	0	485490688	70	4306
2026-01-05 02:34:19.00	17.74	43.05	-50.6	-52.3	15.4	6.03e-01	0	28	0	487063552	70	4244
2026-01-05 02:34:20.00	17.63	43.38	-50.5	-52.2	15.5	6.05e-01	0	28	0	489160704	70	4196
2026-01-05 02:34:21.00	17.53	43.72	-50.7	-52.4	15.4	6.02e-01	0	28	0	491257856	70	4333
2026-01-05 02:34:22.00	17.42	44.06	-50.5	-52.1	15.5	6.02e-01	0	28	0	492830720	70	4171
2026-01-05 02:34:23.00	17.32	44.40	-50.1	-51.6	15.5	6.02e-01	0	28	0	494927872	69	4193
2026-01-05 02:34:24.00	17.20	44.75	-50.0	-51.6	15.5	6.01e-01	0	28	0	496500736	69	4152
2026-01-05 02:34:25.00	17.09	45.10	-50.0	-51.6	15.4	6.01e-01	0	28	0	498597888	69	4190
2026-01-05 02:34:26.00	16.97	45.45	-50.0	-51.5	15.5	6.02e-01	0	28	0	500170752	69	4139
2026-01-05 02:34:26.99	16.85	45.80	-50.0	-51.6	15.5	6.06e-01	0	28	0	502267904	69	4152
2026-01-05 02:34:27.99	16.73	46.16	-50.3	-51.9	15.4	5.97e-01	0	28	0	504365056	69	4301
2026-01-05 02:34:28.99	16.61	46.52	-50.2	-51.8	15.4	6.02e-01	0	28	0	505937920	69	4250
2026-01-05 02:34:29.98	16.48	46.88	-50.2	-51.7	15.4	6.03e-01	0	28	0	508035072	69	4239
2026-01-05 02:34:30.97	16.35	47.24	-50.3	-51.9	15.4	6.01e-01	0	28	0	509607936	69	4295
2026-01-05 02:34:31.96	16.22	47.61	-50.4	-52.0	15.4	6.00e-01	0	27	0	511705088	69	4382
2026-01-05 02:34:32.96	16.08	47.98	-50.1	-51.7	15.4	6.02e-01	0	28	0	513277952	69	4201
2026-01-05 02:34:33.96	15.94	48.36	-50.1	-51.7	15.5	6.01e-01	0	28	0	515375104	69	4206
2026-01-05 02:34:34.95	15.79	48.74	-50.3	-51.9	15.4	6.02e-01	0	28	0	516947968	69	4309
2026-01-05 02:34:35.95	15.64	49.12	-50.3	-51.9	15.4	6.05e-01	0	28	0	519045120	69	4310
2026-01-05 02:34:36.94	15.49	49.50	-50.2	-51.8	15.4	6.03e-01	0	28	0	521142272	69	4275
2026-01-05 02:34:37.94	15.34	49.89	-50.1	-51.6	15.5	6.02e-01	0	27	0	522715136	69	4190
2026-01-05 02:34:38.97	15.17	50.30	-49.8	-51.4	15.4	6.01e-01	0	28	0	524812288	68	4316
2026-01-05 02:34:39.97	15.00	50.69	-49.9	-51.5	15.4	5.99e-01	0	28	0	526385152	68	4346
2026-01-05 02:34:40.96	14.84	51.09	-50.1	-51.7	15.3	6.03e-01	0	28	0	528482304	68	4451
2026-01-05 02:34:41.96	14.66	51.49	-49.9	-51.5	15.4	6.02e-01	0	28	0	530579456	68	4364
2026-01-05 02:34:42.96	14.48	51.90	-49.5	-51.0	15.5	6.03e-01	0	28	0	532152320	68	4115
2026-01-05 02:34:43.96	14.30	52.31	-49.6	-51.1	15.5	6.00e-01	0	28	0	534249472	68	4170
2026-01-05 02:34:44.96	14.10	52.72	-49.9	-51.4	15.4	6.01e-01	0	28	0	535822336	68	4337
2026-01-05 02:34:45.96	13.91	53.14	-49.6	-51.1	15.5	6.02e-01	0	28	0	537919488	68	4173
2026-01-05 02:34:46.95	13.71	53.56	-49.3	-50.8	15.4	6.01e-01	0	28	0	539492352	67	4251
2026-01-05 02:34:47.95	13.50	53.98	-49.2	-50.7	15.5	6.00e-01	0	28	0	541589504	67	4216
2026-01-05 02:34:48.94	13.29	54.40	-49.3	-50.8	15.4	6.06e-01	0	28	0	543162368	67	4262
2026-01-05 02:34:49.94	13.07	54.83	-49.3	-50.8	15.4	6.04e-01	0	27	0	545259520	67	4277
2026-01-05 02:34:50.94	12.84	55.26	-49.4	-50.9	15.4	6.00e-01	0	27	0	547356672	67	4334
2026-01-05 02:34:51.94	12.60	55.70	-49.4	-51.0	15.4	6.00e-01	0	28	0	548929536	67	4346
2026-01-05 02:34:52.94	12.36	56.14	-49.7	-51.3	15.3	6.01e-01	0	28	0	551026688	67	4495
2026-01-05 02:34:53.94	12.11	56.58	-49.7	-51.2	15.4	6.00e-01	0	28	0	552599552	67	4484
2026-01-05 02:34:54.94	11.85	57.03	-50.1	-51.7	15.3	6.02e-01	0	28	0	554696704	67	4739
2026-01-05 02:34:55.93	11.58	57.47	-50.4	-52.0	15.3	6.00e-01	0	28	0	556269568	68	4635
2026-01-05 02:34:56.94	11.30	57.93	-50.5	-52.1	15.3	6.02e-01	0	28	0	558366720	68	4692
2026-01-05 02:34:57.94	11.02	58.38	-50.7	-52.4	15.3	6.02e-01	0	27	0	560463872	69	4561
2026-01-05 02:34:58.94	10.72	58.84	-50.7	-52.4	15.3	6.00e-01	0	27	0	562036736	69	4551
2026-01-05 02:34:59.94	10.41	59.30	-51.0	-52.7	15.2	6.00e-01	0	28	0	564133888	69	4714
2026-01-05 02:35:00.94	10.09	59.76	-51.2	-53.0	15.2	6.01e-01	0	28	0	565706752	70	4617
2026-01-05 02:35:01.94	9.76	60.23	-51.0	-52.7	15.3	6.02e-01	0	28	0	567803904	70	4443
2026-01-05 02:35:02.94	9.42	60.70	-51.7	-53.5	15.2	6.01e-01	0	28	0	569376768	71	4624
2026-01-05 02:35:03.94	9.06	61.17	-51.6	-53.3	15.2	6.03e-01	0	27	0	571473920	71	4545
2026-01-05 02:35:04.93	8.69	61.64	-51.3	-53.0	15.4	6.03e-01	0	28	0	573571072	71	4355
2026-01-05 02:35:05.92	8.31	62.11	-51.3	-53.1	15.3	6.03e-01	0	28	0	575143936	71	4408
2026-01-05 02:35:06.91	7.91	62.58	-51.7	-53.5	15.2	6.00e-01	0	28	0	577241088	71	4648
2026-01-05 02:35:07.91	7.50	63.06	-51.7	-53.6	15.2	6.01e-01	0	28	0	578813952	71	4663
2026-01-05 02:35:08.91	7.06	63.55	-51.9	-53.8	15.1	6.01e-01	0	28	0	580911104	71	4785
2026-01-05 02:35:09.90	6.61	64.03	-52.2	-54.1	15.1	6.02e-01	0	28	0	582483968	72	4656
2026-01-05 02:35:10.90	6.14	64.51	-52.5	-54.4	15.1	6.02e-01	0	28	0	584581120	72	4859
2026-01-05 02:35:11.90	5.65	65.00	-52.5	-54.5	15.1	6.00e-01	0	28	0	586678272	72	4910
2026-01-05 02:35:12.91	5.12	65.50	-53.1	-55.3	15.0	6.04e-01	0	28	0	588251136	74	4767
2026-01-05 02:35:13.91	4.58	65.99	-53.2	-55.3	15.0	6.01e-01	0	28	0	590348288	74	4778
2026-01-05 02:35:14.92	4.01	66.48	-53.7	-56.0	14.9	5.99e-01	0	28	0	591921152	75	4888
2026-01-05 02:35:15.92	3.42	66.98	-54.0	-56.4	14.8	6.01e-01	0	28	0	594018304	75	5117
2026-01-05 02:35:16.92	2.80	67.47	-53.8	-56.1	14.9	6.01e-01	0	28	0	596115456	75	4928
2026-01-05 02:35:17.91	2.15	67.96	-54.1	-56.5	14.8	6.03e-01	0	27	0	597688320	75	5207
2026-01-05 02:35:18.92	1.46	68.46	-54.4	-56.8	14.8	6.01e-01	0	28	0	599785472	76	5089
2026-01-05 02:35:19.92	0.74	68.95	-54.0	-56.3	15.0	6.02e-01	0	28	0	601358336	76	4814
2026-01-05 02:35:20.92	359.99	69.45	-53.9	-56.1	15.0	5.99e-01	0	28	0	603455488	76	4691
2026-01-05 02:35:21.92	359.19	69.94	-54.4	-56.8	14.7	6.02e-01	0	28	0	605028352	76	5098
2026-01-05 02:35:22.91	358.36	70.42	-53.3	-55.3	15.1	6.02e-01	0	28	0	607125504	75	4544
2026-01-05 02:35:23.91	357.47	70.91	-53.4	-55.6	15.0	6.01e-01	0	28	0	609222656	75	4687
2026-01-05 02:35:24.91	356.53	71.40	-53.5	-55.6	15.0	6.03e-01	0	28	0	610795520	75	4698
2026-01-05 02:35:25.91	355.54	71.89	-53.3	-55.5	15.1	6.00e-01	0	28	0	612892672	75	4614
2026-01-05 02:35:26.90	354.50	72.36	-52.9	-55.0	15.2	6.01e-01	0	28	0	614465536	74	4611
2026-01-05 02:35:27.91	353.38	72.85	-53.6	-55.9	14.9	5.99e-01	0	28	0	616562688	74	5108
2026-01-05 02:35:28.90	352.22	73.32	-53.5	-55.7	15.0	6.03e-01	0	28	0	618135552	75	4706
2026-01-05 02:35:29.90	350.97	73.78	-53.4	-55.5	15.1	6.01e-01	0	28	0	620232704	75	4634
2026-01-05 02:35:30.89	349.65	74.24	-54.6	-57.2	14.8	6.03e-01	0	28	0	621805568	77	5013
2026-01-05 02:35:31.88	348.26	74.69	-54.0	-56.3	15.1	5.99e-01	0	28	0	623902720	77	4496
2026-01-05 02:35:32.88	346.76	75.14	-53.6	-55.8	15.1	6.01e-01	0	28	0	625999872	76	4520
2026-01-05 02:35:33.87	345.18	75.57	-54.1	-56.4	14.9	6.00e-01	0	28	0	627572736	76	4867
2026-01-05 02:35:34.86	343.50	76.00	-53.1	-55.1	15.2	6.02e-01	0	28	0	629669888	75	4430
2026-01-05 02:35:35.85	341.71	76.41	-52.4	-54.3	15.4	6.01e-01	0	28	0	631242752	74	4255
2026-01-05 02:35:36.84	339.81	76.81	-53.2	-55.4	15.1	6.01e-01	0	28	0	633339904	74	4831
2026-01-05 02:35:37.84	337.77	77.21	-52.1	-53.9	15.3	6.01e-01	0	28	0	634912768	73	4328
2026-01-05 02:35:38.84	335.60	77.58	-52.2	-54.1	15.2	6.00e-01	0	28	0	637009920	72	4668
2026-01-05 02:35:39.83	333.31	77.93	-52.3	-54.2	15.1	6.00e-01	0	27	0	638582784	72	4739
2026-01-05 02:35:40.83	330.86	78.27	-52.2	-54.1	15.2	6.03e-01	0	28	0	640679936	72	4665
2026-01-05 02:35:41.82	328.29	78.59	-51.8	-53.6	15.3	6.00e-01	0	28	0	642777088	72	4430
2026-01-05 02:35:42.82	325.55	78.88	-52.0	-53.8	15.2	6.02e-01	0	28	0	644349952	72	4543
2026-01-05 02:35:43.82	322.67	79.15	-52.0	-53.8	15.2	6.02e-01	0	28	0	646447104	72	4531
2026-01-05 02:35:44.82	319.65	79.39	-51.7	-53.4	15.4	6.01e-01	0	28	0	648019968	72	4339
2026-01-05 02:35:45.82	316.49	79.59	-52.0	-53.8	15.2	6.01e-01	0	28	0	650117120	72	4544
2026-01-05 02:35:46.82	313.21	79.77	-51.8	-53.5	15.3	6.04e-01	0	28	0	651689984	72	4378
2026-01-05 02:35:47.82	309.83	79.91	-51.6	-53.3	15.4	6.01e-01	0	28	0	653787136	72	4274
2026-01-05 02:35:48.81	306.39	80.02	-51.2	-52.9	15.4	6.01e-01	0	28	0	655884288	71	4307
2026-01-05 02:35:49.81	302.85	80.09	-51.7	-53.5	15.2	6.01e-01	0	28	0	657457152	71	4624
2026-01-05 02:35:50.81	299.28	80.13	-51.3	-53.0	15.4	6.02e-01	0	28	0	659554304	71	4384
2026-01-05 02:35:51.81	295.69	80.12	-51.3	-53.0	15.4	6.02e-01	0	28	0	661127168	71	4353
2026-01-05 02:35:52.81	292.13	80.08	-51.5	-53.2	15.3	6.01e-01	0	28	0	663224320	71	4485
2026-01-05 02:35:53.80	288.64	80.00	-51.7	-53.4	15.2	6.02e-01	0	28	0	664797184	71	4589
2026-01-05 02:35:54.80	285.18	79.88	-51.9	-53.8	15.2	6.01e-01	0	28	0	666894336	71	4769
2026-01-05 02:35:55.80	281.82	79.73	-52.4	-54.3	15.1	6.01e-01	0	28	0	668467200	72	4766
2026-01-05 02:35:56.79	278.60	79.55	-51.8	-53.6	15.3	6.02e-01	0	28	0	670564352	72	4422
2026-01-05 02:35:57.80	275.44	79.33	-52.1	-53.9	15.3	6.03e-01	0	28	0	672661504	72	4555
2026-01-05 02:35:58.80	272.45	79.09	-52.1	-53.9	15.2	6.01e-01	0	28	0	674234368	72	4590
2026-01-05 02:35:59.80	269.59	78.81	-51.7	-53.4	15.3	6.01e-01	0	28	0	676331520	72	4340
2026-01-05 02:36:00.79	266.92	78.52	-52.2	-54.1	15.2	6.02e-01	0	28	0	677904384	72	4690
2026-01-05 02:36:01.78	264.38	78.20	-52.4	-54.3	15.1	6.02e-01	0	28	0	680001536	72	4770
2026-01-05 02:36:02.78	261.96	77.86	-52.4	-54.3	15.1	6.01e-01	0	28	0	681574400	72	4763
2026-01-05 02:36:03.78	259.68	77.49	-53.1	-55.1	15.1	6.00e-01	0	28	0	683671552	74	4680
2026-01-05 02:36:04.78	257.54	77.11	-53.0	-55.0	15.1	6.03e-01	0	28	0	685768704	74	4604
2026-01-05 02:36:05.78	255.52	76.72	-53.6	-55.8	15.0	6.02e-01	0	28	0	687341568	75	4803
2026-01-05 02:36:06.78	253.63	76.31	-53.2	-55.2	15.2	6.01e-01	0	28	0	689438720	75	4468
2026-01-05 02:36:07.78	251.85	75.89	-53.5	-55.7	15.0	5.99e-01	0	27	0	691011584	75	4719
2026-01-05 02:36:08.78	250.18	75.46	-53.5	-55.7	15.0	6.01e-01	0	28	0	693108736	75	4721
2026-01-05 02:36:09.78	248.61	75.02	-54.1	-56.4	14.8	6.04e-01	0	28	0	695205888	75	5155
2026-01-05 02:36:10.78	247.14	74.57	-53.8	-56.0	15.0	6.01e-01	0	28	0	696778752	76	4606
2026-01-05 02:36:11.78	245.75	74.11	-53.7	-55.9	15.1	6.04e-01	0	28	0	698875904	76	4569
2026-01-05 02:36:12.78	244.45	73.64	-54.4	-56.8	14.8	6.01e-01	0	28	0	700448768	76	5075
2026-01-05 02:36:13.78	243.22	73.17	-53.6	-55.7	15.1	6.00e-01	0	28	0	702545920	76	4453
2026-01-05 02:36:14.79	242.05	72.69	-53.6	-55.8	15.0	5.99e-01	0	28	0	704118784	75	4766
2026-01-05 02:36:15.78	240.97	72.22	-53.9	-56.1	14.9	6.01e-01	0	28	0	706215936	75	4968
2026-01-05 02:36:16.78	239.94	71.73	-54.1	-56.4	14.9	6.01e-01	0	28	0	708313088	76	4833
2026-01-05 02:36:17.78	238.96	71.25	-54.1	-56.4	14.9	6.01e-01	0	28	0	709885952	76	4829
2026-01-05 02:36:18.77	238.05	70.76	-54.1	-56.3	15.0	6.01e-01	0	28	0	711983104	76	4782
2026-01-05 02:36:19.77	237.18	70.27	-55.3	-58.1	14.6	6.01e-01	0	28	0	713555968	79	4937
2026-01-05 02:36:20.76	236.36	69.78	-54.7	-57.2	14.9	6.03e-01	0	28	0	715653120	78	4719
2026-01-05 02:36:21.76	235.57	69.29	-55.2	-57.9	14.6	6.04e-01	0	28	0	717225984	78	5150
2026-01-05 02:36:22.76	234.82	68.80	-55.9	-59.0	14.3	6.01e-01	0	28	0	719323136	80	5202
2026-01-05 02:36:23.77	234.11	68.30	-55.4	-58.2	14.7	6.03e-01	0	28	0	721420288	80	4757
2026-01-05 02:36:24.77	233.43	67.80	-55.3	-57.9	14.7	6.00e-01	0	28	0	722993152	79	4869
2026-01-05 02:36:25.77	232.79	67.31	-55.4	-58.3	14.6	6.03e-01	0	28	0	725090304	79	5059
2026-01-05 02:36:26.76	232.18	66.82	-55.3	-58.1	14.6	6.04e-01	0	28	0	726663168	79	4964
2026-01-05 02:36:27.76	231.60	66.32	-55.3	-58.0	14.6	6.01e-01	0	28	0	728760320	79	4910
2026-01-05 02:36:28.76	231.04	65.83	-54.4	-56.7	15.0	6.01e-01	0	28	0	730333184	78	4489
2026-01-05 02:36:29.76	230.51	65.34	-53.7	-55.8	15.1	6.00e-01	0	28	0	732430336	76	4542
2026-01-05 02:36:30.76	230.00	64.85	-54.0	-56.3	15.0	6.03e-01	0	28	0	734527488	76	4812
2026-01-05 02:36:31.75	229.51	64.37	-54.0	-56.3	15.0	6.04e-01	0	28	0	736100352	76	4788
2026-01-05 02:36:32.75	229.05	63.88	-53.1	-55.1	15.2	5.99e-01	0	28	0	738197504	75	4395
2026-01-05 02:36:33.75	228.60	63.39	-52.9	-54.8	15.2	6.04e-01	0	28	0	739770368	74	4528
2026-01-05 02:36:34.74	228.17	62.92	-53.3	-55.4	15.0	6.02e-01	0	28	0	741867520	74	4822
2026-01-05 02:36:35.74	227.76	62.43	-52.8	-54.8	15.2	6.02e-01	0	28	0	743440384	74	4505
2026-01-05 02:36:36.73	227.37	61.96	-52.6	-54.5	15.3	6.01e-01	0	28	0	745537536	74	4370
2026-01-05 02:36:37.73	226.98	61.48	-51.7	-53.4	15.4	6.01e-01	0	28	0	747110400	72	4338
2026-01-05 02:36:38.73	226.62	61.01	-51.6	-53.3	15.4	6.02e-01	0	28	0	749207552	72	4289
2026-01-05 02:36:39.72	226.27	60.54	-51.7	-53.5	15.4	6.02e-01	0	28	0	751304704	72	4365
2026-01-05 02:36:40.72	225.93	60.07	-52.3	-54.2	15.2	5.97e-01	0	28	0	752877568	72	4739
2026-01-05 02:36:41.71	225.60	59.61	-51.8	-53.6	15.3	5.99e-01	0	28	0	754974720	72	4428
2026-01-05 02:36:42.71	225.29	59.15	-51.4	-53.1	15.4	6.01e-01	0	28	0	756547584	72	4181
2026-01-05 02:36:43.71	224.98	58.69	-51.1	-52.8	15.4	6.03e-01	0	28	0	758644736	71	4254
2026-01-05 02:36:44.71	224.68	58.23	-51.4	-53.1	15.3	5.99e-01	0	28	0	760741888	71	4410
2026-01-05 02:36:45.70	224.40	57.78	-51.3	-53.0	15.4	6.04e-01	0	28	0	762314752	71	4351
2026-01-05 02:36:46.70	224.13	57.33	-50.9	-52.6	15.5	6.01e-01	0	28	0	764411904	71	4178
2026-01-05 02:36:47.69	223.86	56.88	-50.5	-52.0	15.5	6.04e-01	0	28	0	765984768	70	4135
2026-01-05 02:36:48.69	223.61	56.44	-50.2	-51.7	15.4	6.02e-01	0	28	0	768081920	69	4239
2026-01-05 02:36:49.68	223.36	56.00	-49.7	-51.2	15.5	6.02e-01	0	28	0	769654784	68	4217
2026-01-05 02:36:50.68	223.12	55.56	-49.6	-51.1	15.5	6.02e-01	0	28	0	771751936	68	4151
2026-01-05 02:36:51.68	222.88	55.12	-49.9	-51.5	15.4	6.02e-01	0	28	0	773324800	68	4372
2026-01-05 02:36:52.68	222.66	54.69	-49.7	-51.3	15.5	6.01e-01	0	28	0	775421952	68	4249
2026-01-05 02:36:53.68	222.44	54.26	-49.5	-51.0	15.5	6.02e-01	0	28	0	777519104	68	4112
2026-01-05 02:36:54.68	222.22	53.84	-49.4	-50.9	15.5	6.01e-01	0	28	0	779091968	68	4079
2026-01-05 02:36:55.68	222.02	53.41	-49.2	-50.6	15.5	6.00e-01	0	28	0	781189120	67	4172
2026-01-05 02:36:56.67	221.82	53.00	-49.2	-50.7	15.5	6.03e-01	0	28	0	782761984	67	4222
2026-01-05 02:36:57.66	221.63	52.58	-49.6	-51.1	15.4	6.02e-01	0	28	0	784859136	67	4404
2026-01-05 02:36:58.67	221.43	52.17	-49.8	-51.4	15.3	6.00e-01	0	28	0	786432000	67	4555
2026-01-05 02:36:59.66	221.25	51.76	-49.5	-51.0	15.4	6.00e-01	0	28	0	788529152	67	4359
2026-01-05 02:37:00.66	221.07	51.35	-49.7	-51.2	15.4	6.00e-01	0	28	0	790626304	67	4449
2026-01-05 02:37:01.66	220.90	50.95	-49.7	-51.2	15.4	6.00e-01	0	28	0	792199168	67	4484
2026-01-05 02:37:02.66	220.73	50.55	-49.7	-51.3	15.3	5.98e-01	0	28	0	794296320	67	4505
2026-01-05 02:37:03.66	220.56	50.15	-50.0	-51.6	15.3	6.00e-01	0	28	0	795869184	67	4664
2026-01-05 02:37:04.66	220.40	49.76	-50.3	-51.9	15.3	6.02e-01	0	28	0	797966336	68	4589
2026-01-05 02:37:05.66	220.25	49.37	-50.6	-52.3	15.3	6.00e-01	0	28	0	799539200	68	4787
2026-01-05 02:37:06.65	220.10	48.99	-50.7	-52.3	15.3	6.02e-01	0	28	0	801636352	69	4533
2026-01-05 02:37:07.65	219.95	48.60	-50.6	-52.3	15.3	6.00e-01	0	28	0	803733504	69	4523
2026-01-05 02:37:08.65	219.80	48.22	-50.3	-51.8	15.4	6.04e-01	0	28	0	805306368	69	4288
2026-01-05 02:37:09.65	219.66	47.84	-50.0	-51.6	15.5	6.01e-01	0	28	0	807403520	69	4155
2026-01-05 02:37:10.65	219.53	47.47	-49.9	-51.5	15.5	6.04e-01	0	28	0	808976384	69	4099
2026-01-05 02:37:11.64	219.39	47.10	-50.1	-51.7	15.5	6.01e-01	0	28	0	811073536	69	4214
2026-01-05 02:37:12.64	219.26	46.74	-50.4	-52.0	15.4	6.02e-01	0	28	0	812646400	69	4371
2026-01-05 02:37:13.64	219.13	46.37	-50.3	-51.9	15.4	6.01e-01	0	28	0	814743552	69	4332
2026-01-05 02:37:14.64	219.01	46.01	-50.2	-51.7	15.4	6.02e-01	0	28	0	816316416	69	4239
2026-01-05 02:37:15.63	218.89	45.66	-50.2	-51.8	15.4	6.01e-01	0	28	0	818413568	69	4262
2026-01-05 02:37:16.62	218.77	45.30	-50.2	-51.8	15.4	6.03e-01	0	28	0	820510720	69	4265
2026-01-05 02:37:17.62	218.66	44.95	-50.1	-51.7	15.5	6.02e-01	0	28	0	822083584	69	4205
2026-01-05 02:37:18.62	218.54	44.60	-50.0	-51.5	15.5	6.01e-01	0	28	0	824180736	69	4140
2026-01-05 02:37:19.62	218.43	44.26	-49.9	-51.5	15.5	6.01e-01	0	28	0	825753600	69	4107
2026-01-05 02:37:20.62	218.32	43.92	-50.1	-51.6	15.5	6.04e-01	0	28	0	827850752	69	4187
2026-01-05 02:37:21.62	218.22	43.58	-50.3	-51.9	15.4	6.02e-01	0	28	0	829423616	69	4325
2026-01-05 02:37:22.61	218.11	43.24	-50.4	-52.1	15.4	6.02e-01	0	28	0	831520768	69	4401
2026-01-05 02:37:23.61	218.01	42.91	-50.6	-52.2	15.3	6.00e-01	0	28	0	833617920	69	4489
2026-01-05 02:37:24.60	217.91	42.58	-50.6	-52.3	15.3	6.04e-01	0	28	0	835190784	69	4519
2026-01-05 02:37:25.60	217.82	42.25	-50.8	-52.5	15.3	6.02e-01	0	28	0	837287936	69	4613
2026-01-05 02:37:26.59	217.72	41.93	-50.9	-52.5	15.3	5.99e-01	0	28	0	838860800	69	4648
2026-01-05 02:37:27.59	217.63	41.61	-51.0	-52.6	15.2	6.01e-01	0	28	0	840957952	69	4705
2026-01-05 02:37:28.60	217.54	41.29	-51.2	-52.9	15.3	6.04e-01	0	28	0	842530816	70	4598
2026-01-05 02:37:29.59	217.45	40.98	-51.2	-53.0	15.3	6.03e-01	0	28	0	844627968	70	4612
2026-01-05 02:37:30.58	217.36	40.66	-51.4	-53.2	15.2	6.01e-01	0	28	0	846200832	70	4706
2026-01-05 02:37:31.58	217.27	40.35	-51.4	-53.2	15.2	5.99e-01	0	28	0	848297984	70	4715
2026-01-05 02:37:32.57	217.19	40.05	-51.5	-53.3	15.2	6.02e-01	0	28	0	850395136	70	4813
2026-01-05 02:37:33.58	217.11	39.74	-51.7	-53.5	15.2	6.03e-01	0	28	0	851968000	71	4621
2026-01-05 02:37:34.57	217.03	39.44	-51.6	-53.4	15.2	6.02e-01	0	28	0	854065152	71	4588
2026-01-05 02:37:35.56	216.95	39.14	-51.7	-53.5	15.2	6.01e-01	0	28	0	855638016	71	4641
2026-01-05 02:37:36.56	216.87	38.85	-51.8	-53.7	15.2	6.02e-01	0	28	0	857735168	71	4727
2026-01-05 02:37:37.57	216.79	38.55	-51.8	-53.7	15.2	6.02e-01	0	28	0	859832320	71	4735
2026-01-05 02:37:38.56	216.72	38.26	-51.7	-53.5	15.2	6.02e-01	0	28	0	861405184	71	4647
2026-01-05 02:37:39.56	216.65	37.97	-51.5	-53.2	15.3	6.00e-01	0	28	0	863502336	71	4491
2026-01-05 02:37:40.56	216.57	37.68	-51.4	-53.1	15.3	6.03e-01	0	28	0	865075200	71	4433
2026-01-05 02:37:41.55	216.50	37.40	-51.4	-53.1	15.3	6.01e-01	0	28	0	867172352	71	4439
2026-01-05 02:37:42.55	216.43	37.12	-51.4	-53.2	15.3	6.02e-01	0	28	0	868745216	71	4474
2026-01-05 02:37:43.54	216.37	36.85	-51.5	-53.3	15.3	6.00e-01	0	28	0	870842368	71	4507
2026-01-05 02:37:44.55	216.30	36.57	-51.3	-53.1	15.3	6.04e-01	0	28	0	872415232	71	4399
2026-01-05 02:37:45.55	216.23	36.29	-51.2	-53.0	15.3	6.02e-01	0	28	0	874512384	71	4349
2026-01-05 02:37:46.54	216.17	36.02	-51.1	-52.9	15.4	6.02e-01	0	28	0	876609536	71	4305
2026-01-05 02:37:47.54	216.11	35.75	-51.2	-52.9	15.4	6.01e-01	0	28	0	878182400	71	4311
2026-01-05 02:37:48.54	216.04	35.48	-51.1	-52.8	15.4	6.04e-01	0	28	0	880279552	71	4281
2026-01-05 02:37:49.54	215.98	35.22	-50.9	-52.6	15.5	6.03e-01	0	28	0	881852416	71	4151
2026-01-05 02:37:50.53	215.92	34.96	-50.7	-52.4	15.4	6.00e-01	0	28	0	883949568	70	4316
2026-01-05 02:37:51.52	215.87	34.70	-50.8	-52.4	15.4	6.03e-01	0	28	0	885522432	70	4340
2026-01-05 02:37:52.52	215.81	34.44	-50.2	-51.8	15.4	6.03e-01	0	28	0	887619584	69	4289
2026-01-05 02:37:53.51	215.75	34.19	-50.0	-51.5	15.5	5.99e-01	0	28	0	889716736	69	4141
2026-01-05 02:37:54.51	215.69	33.94	-50.0	-51.5	15.5	6.03e-01	0	28	0	891289600	69	4135
2026-01-05 02:37:55.51	215.64	33.68	-50.0	-51.6	15.5	5.99e-01	0	28	0	893386752	69	4155
2026-01-05 02:37:56.51	215.58	33.43	-50.0	-51.5	15.5	6.03e-01	0	28	0	894959616	69	4144
2026-01-05 02:37:57.51	215.53	33.19	-49.9	-51.5	15.5	6.01e-01	0	28	0	897056768	69	4106
2026-01-05 02:37:58.52	215.48	32.94	-50.0	-51.6	15.5	6.02e-01	0	28	0	898629632	69	4152
2026-01-05 02:37:59.51	215.43	32.70	-49.7	-51.3	15.4	6.03e-01	0	28	0	900726784	68	4266
2026-01-05 02:38:00.52	215.38	32.45	-49.8	-51.3	15.4	6.02e-01	0	28	0	902823936	68	4288
2026-01-05 02:38:01.52	215.33	32.22	-49.8	-51.4	15.4	6.01e-01	0	28	0	904396800	68	4304
2026-01-05 02:38:02.52	215.28	31.98	-49.7	-51.3	15.4	6.02e-01	0	28	0	906493952	68	4266
2026-01-05 02:38:03.52	215.23	31.74	-49.8	-51.4	15.4	6.02e-01	0	28	0	908066816	68	4328
2026-01-05 02:38:04.52	215.18	31.51	-49.7	-51.3	15.4	5.99e-01	0	28	0	910163968	68	4268
2026-01-05 02:38:05.51	215.13	31.28	-49.7	-51.3	15.4	6.02e-01	0	28	0	911736832	68	4251
2026-01-05 02:38:06.52	215.09	31.05	-49.6	-51.1	15.5	6.00e-01	0	28	0	913833984	68	4168
2026-01-05 02:38:07.52	215.04	30.82	-49.6	-51.2	15.5	6.01e-01	0	28	0	915931136	68	4197
2026-01-05 02:38:08.52	215.00	30.60	-49.6	-51.1	15.5	6.04e-01	0	28	0	917504000	68	4184
2026-01-05 02:38:09.51	214.95	30.37	-49.5	-51.0	15.5	6.03e-01	0	28	0	919601152	68	4112
2026-01-05 02:38:10.51	214.91	30.15	-49.5	-51.0	15.5	6.01e-01	0	28	0	921174016	68	4127
2026-01-05 02:38:11.51	214.87	29.93	-49.5	-51.0	15.5	5.99e-01	0	28	0	923271168	68	4130
2026-01-05 02:38:12.51	214.82	29.71	-49.4	-50.9	15.6	6.02e-01	0	28	0	925368320	68	4066
2026-01-05 02:38:13.51	214.78	29.50	-49.3	-50.8	15.5	6.01e-01	0	28	0	926941184	67	4247
2026-01-05 02:38:14.51	214.74	29.28	-49.3	-50.8	15.4	6.00e-01	0	28	0	929038336	67	4271
2026-01-05 02:38:15.50	214.70	29.07	-49.3	-50.8	15.4	6.03e-01	0	28	0	930611200	67	4273
2026-01-05 02:38:16.51	214.66	28.86	-49.3	-50.8	15.5	6.01e-01	0	28	0	932708352	67	4279
2026-01-05 02:38:17.51	214.62	28.65	-49.4	-51.0	15.4	6.02e-01	0	28	0	934281216	67	4343
2026-01-05 02:38:18.51	214.58	28.44	-49.5	-51.0	15.4	6.00e-01	0	28	0	936378368	67	4370
2026-01-05 02:38:19.50	214.55	28.24	-49.6	-51.1	15.4	6.01e-01	0	28	0	938475520	67	4421
2026-01-05 02:38:20.50	214.51	28.03	-49.7	-51.3	15.3	6.02e-01	0	28	0	940048384	67	4504
2026-01-05 02:38:21.50	214.47	27.83	-49.6	-51.2	15.3	5.99e-01	0	28	0	942145536	67	4465
2026-01-05 02:38:22.51	214.44	27.62	-49.8	-51.4	15.3	6.02e-01	0	28	0	943718400	67	4561
2026-01-05 02:38:23.51	214.40	27.42	-49.9	-51.4	15.3	6.02e-01	0	28	0	945815552	67	4596
2026-01-05 02:38:24.52	214.36	27.22	-49.9	-51.5	15.3	6.02e-01	0	28	0	947388416	67	4602
2026-01-05 02:38:25.51	214.33	27.03	-49.9	-51.5	15.3	6.02e-01	0	28	0	949485568	67	4624
2026-01-05 02:38:26.52	214.30	26.83	-50.0	-51.6	15.3	6.02e-01	0	28	0	951582720	67	4663
2026-01-05 02:38:27.51	214.26	26.64	-49.9	-51.5	15.3	6.01e-01	0	28	0	953155584	67	4649
2026-01-05 02:38:28.51	214.23	26.45	-50.0	-51.6	15.3	6.00e-01	0	28	0	955252736	67	4673
2026-01-05 02:38:29.51	214.20	26.25	-50.0	-51.6	15.3	6.02e-01	0	28	0	956825600	67	4676
2026-01-05 02:38:30.51	214.16	26.06	-50.1	-51.7	15.3	6.03e-01	0	28	0	958922752	67	4728
2026-01-05 02:38:31.50	214.13	25.88	-50.1	-51.7	15.3	6.02e-01	0	28	0	960495616	68	4485
2026-01-05 02:38:32.49	214.10	25.69	-50.2	-51.8	15.3	6.00e-01	0	28	0	962592768	68	4522
2026-01-05 02:38:33.49	214.07	25.51	-50.2	-51.8	15.3	6.04e-01	0	28	0	964165632	68	4540
2026-01-05 02:38:34.49	214.04	25.32	-50.2	-51.9	15.3	6.03e-01	0	28	0	966262784	68	4551
2026-01-05 02:38:35.47	214.01	25.15	-50.2	-51.8	15.3	6.00e-01	0	28	0	968359936	68	4537
2026-01-05 02:38:36.48	213.98	24.96	-50.3	-51.9	15.3	6.03e-01	0	28	0	969932800	68	4590
2026-01-05 02:38:37.48	213.95	24.78	-50.3	-51.9	15.3	6.02e-01	0	28	0	972029952	68	4574
2026-01-05 02:38:38.47	213.92	24.60	-50.3	-52.0	15.3	6.00e-01	0	28	0	973602816	68	4607
2026-01-05 02:38:39.47	213.89	24.43	-50.2	-51.9	15.3	6.02e-01	0	28	0	975699968	68	4564
2026-01-05 02:38:40.46	213.86	24.25	-50.3	-51.9	15.3	6.03e-01	0	28	0	977272832	68	4592
2026-01-05 02:38:41.46	213.83	24.08	-50.3	-52.0	15.3	6.01e-01	0	28	0	979369984	68	4603
2026-01-05 02:38:42.46	213.81	23.90	-50.4	-52.1	15.3	6.03e-01	0	28	0	981467136	68	4656
2026-01-05 02:38:43.45	213.78	23.73	-50.4	-52.1	15.3	5.99e-01	0	28	0	983040000	68	4681
2026-01-05 02:38:44.45	213.75	23.56	-50.4	-52.1	15.3	6.02e-01	0	28	0	985137152	68	4671
2026-01-05 02:38:45.44	213.73	23.39	-50.4	-52.0	15.3	6.02e-01	0	28	0	986710016	68	4649
2026-01-05 02:38:46.44	213.70	23.23	-50.4	-52.1	15.2	5.99e-01	0	28	0	988807168	68	4678
2026-01-05 02:38:47.44	213.67	23.06	-50.4	-52.0	15.3	6.02e-01	0	28	0	990380032	68	4643
2026-01-05 02:38:48.43	213.65	22.89	-50.4	-52.1	15.2	6.03e-01	0	28	0	992477184	68	4676
2026-01-05 02:38:49.42	213.62	22.73	-50.4	-52.1	15.2	6.00e-01	0	28	0	994050048	68	4683
2026-01-05 02:38:50.43	213.60	22.56	-50.4	-52.1	15.2	6.03e-01	0	28	0	996147200	68	4680
2026-01-05 02:38:51.43	213.57	22.40	-50.3	-52.0	15.3	6.00e-01	0	28	0	998244352	68	4629
2026-01-05 02:38:52.42	213.55	22.24	-50.4	-52.1	15.2	6.01e-01	0	28	0	999817216	68	4672
2026-01-05 02:38:53.42	213.53	22.08	-50.3	-52.0	15.3	6.02e-01	0	28	0	1001914368	68	4623
2026-01-05 02:38:54.43	213.50	21.92	-50.4	-52.0	15.2	6.01e-01	0	28	0	1003487232	68	4636
2026-01-05 02:38:55.42	213.48	21.76	-50.4	-52.1	15.2	6.06e-01	0	28	0	1005584384	68	4652
2026-01-05 02:38:56.43	213.45	21.60	-50.2	-51.9	15.3	6.02e-01	0	28	0	1007681536	68	4566
2026-01-05 02:38:57.42	213.43	21.45	-50.3	-52.0	15.3	6.00e-01	0	28	0	1009254400	68	4602
2026-01-05 02:38:58.42	213.41	21.29	-50.3	-52.0	15.3	5.99e-01	0	28	0	1011351552	68	4602
2026-01-05 02:38:59.42	213.39	21.14	-50.2	-51.9	15.3	6.03e-01	0	28	0	1012924416	68	4565
2026-01-05 02:39:00.42	213.36	20.98	-50.3	-52.0	15.3	6.00e-01	0	28	0	1015021568	68	4606
2026-01-05 02:39:01.42	213.34	20.83	-50.2	-51.8	15.3	6.04e-01	0	28	0	1016594432	68	4545
2026-01-05 02:39:02.43	213.32	20.68	-50.2	-51.9	15.3	6.02e-01	0	28	0	1018691584	68	4551
2026-01-05 02:39:03.43	213.30	20.53	-50.2	-51.9	15.3	6.02e-01	0	28	0	1020788736	68	4571
2026-01-05 02:39:04.42	213.28	20.38	-50.2	-51.9	15.3	6.02e-01	0	28	0	1022361600	68	4567
2026-01-05 02:39:05.42	213.26	20.23	-50.1	-51.7	15.3	6.00e-01	0	28	0	1024458752	68	4473
2026-01-05 02:39:06.41	213.24	20.09	-50.0	-51.7	15.3	6.03e-01	0	28	0	1026031616	68	4456
2026-01-05 02:39:07.41	213.22	19.94	-50.1	-51.8	15.3	6.01e-01	0	28	0	1028128768	68	4501
2026-01-05 02:39:08.41	213.20	19.79	-50.1	-51.7	15.4	6.00e-01	0	28	0	1029701632	68	4463
2026-01-05 02:39:09.40	213.18	19.65	-50.0	-51.7	15.3	6.01e-01	0	28	0	1031798784	68	4459
2026-01-05 02:39:10.41	213.16	19.50	-50.1	-51.8	15.3	6.00e-01	0	28	0	1033895936	68	4499
2026-01-05 02:39:11.41	213.14	19.36	-50.1	-51.7	15.3	6.01e-01	0	28	0	1035468800	68	4465
2026-01-05 02:39:12.41	213.12	19.22	-50.1	-51.7	15.3	6.00e-01	0	28	0	1037565952	68	4489
2026-01-05 02:39:13.40	213.10	19.08	-50.2	-51.8	15.3	6.02e-01	0	27	0	1039138816	68	4542
2026-01-05 02:39:14.40	213.08	18.94	-50.1	-51.7	15.3	6.01e-01	0	28	0	1041235968	68	4479
2026-01-05 02:39:15.40	213.06	18.80	-50.2	-51.9	15.3	6.01e-01	0	28	0	1042808832	68	4548
2026-01-05 02:39:16.39	213.04	18.66	-50.2	-51.8	15.3	6.03e-01	0	28	0	1044905984	68	4533
2026-01-05 02:39:17.39	213.03	18.52	-50.1	-51.8	15.3	6.04e-01	0	28	0	1046478848	68	4501
2026-01-05 02:39:18.39	213.01	18.39	-50.2	-51.8	15.3	6.01e-01	0	28	0	1048576000	68	4530
2026-01-05 02:39:19.39	212.99	18.25	-50.2	-51.8	15.3	5.99e-01	0	28	0	1050673152	68	4534
2026-01-05 02:39:20.38	212.97	18.12	-50.0	-51.7	15.3	6.01e-01	0	28	0	1052246016	68	4464
2026-01-05 02:39:21.38	212.96	17.98	-50.1	-51.7	15.3	6.02e-01	0	28	0	1054343168	68	4492
2026-01-05 02:39:22.39	212.94	17.85	-50.0	-51.7	15.4	6.02e-01	0	28	0	1055916032	68	4460
2026-01-05 02:39:23.38	212.92	17.72	-50.0	-51.7	15.3	6.03e-01	0	28	0	1058013184	68	4447
2026-01-05 02:39:24.39	212.91	17.58	-50.1	-51.8	15.3	6.01e-01	0	28	0	1059586048	68	4498
2026-01-05 02:39:25.38	212.89	17.45	-50.1	-51.7	15.3	6.02e-01	0	28	0	1061683200	68	4474
2026-01-05 02:39:26.38	212.87	17.32	-50.1	-51.7	15.3	6.02e-01	0	28	0	1063780352	68	4476
2026-01-05 02:39:27.38	212.86	17.19	-50.1	-51.8	15.3	6.01e-01	0	28	0	1065353216	68	4500
2026-01-05 02:39:28.39	212.84	17.06	-50.1	-51.8	15.3	6.02e-01	0	28	0	1067450368	68	4498
2026-01-05 02:39:29.38	212.82	16.94	-50.2	-51.8	15.3	6.01e-01	0	28	0	1069023232	68	4538
2026-01-05 02:39:30.38	212.81	16.81	-50.1	-51.7	15.3	6.03e-01	0	28	0	1071120384	68	4490
2026-01-05 02:39:31.38	212.79	16.68	-50.0	-51.7	15.3	6.00e-01	0	28	0	1072693248	68	4448
2026-01-05 02:39:32.38	212.78	16.56	-50.1	-51.8	15.3	6.00e-01	0	28	0	1074790400	68	4521
2026-01-05 02:39:33.38	212.76	16.43	-50.1	-51.7	15.3	6.04e-01	0	28	0	1076887552	68	4477
2026-01-05 02:39:34.38	212.75	16.30	-50.1	-51.7	15.3	6.04e-01	0	28	0	1078460416	68	4471
2026-01-05 02:39:35.37	212.73	16.18	-50.0	-51.7	15.3	5.99e-01	0	28	0	1080557568	68	4467
2026-01-05 02:39:36.37	212.72	16.06	-50.1	-51.8	15.3	6.04e-01	0	28	0	1082130432	68	4533
2026-01-05 02:39:37.37	212.70	15.94	-50.1	-51.8	15.3	6.02e-01	0	28	0	1084227584	68	4522
2026-01-05 02:39:38.37	212.69	15.81	-50.1	-51.8	15.3	6.01e-01	0	28	0	1086324736	68	4506
2026-01-05 02:39:39.38	212.68	15.69	-50.1	-51.7	15.3	6.01e-01	0	28	0	1087897600	68	4490
2026-01-05 02:39:40.37	212.66	15.57	-50.1	-51.7	15.3	6.02e-01	0	28	0	1089994752	68	4487
2026-01-05 02:39:41.36	212.65	15.45	-50.0	-51.7	15.3	6.01e-01	0	28	0	1091567616	68	4475
2026-01-05 02:39:42.35	212.63	15.34	-50.0	-51.7	15.3	6.03e-01	0	28	0	1093664768	68	4462
2026-01-05 02:39:43.34	212.62	15.22	-50.1	-51.8	15.3	6.02e-01	0	28	0	1095237632	68	4504
2026-01-05 02:39:44.35	212.61	15.10	-50.0	-51.7	15.3	6.00e-01	0	28	0	1097334784	68	4458
2026-01-05 02:39:45.34	212.59	14.98	-50.1	-51.8	15.3	6.03e-01	0	28	0	1098907648	68	4500
2026-01-05 02:39:46.34	212.58	14.87	-50.0	-51.7	15.3	6.02e-01	0	28	0	1101004800	68	4457
2026-01-05 02:39:47.33	212.57	14.75	-50.0	-51.7	15.3	6.01e-01	0	28	0	1103101952	68	4472
2026-01-05 02:39:48.33	212.55	14.63	-50.1	-51.7	15.3	6.01e-01	0	28	0	1104674816	68	4479
2026-01-05 02:39:49.33	212.54	14.52	-50.1	-51.7	15.3	6.00e-01	0	28	0	1106771968	68	4493
2026-01-05 02:39:50.33	212.53	14.41	-50.1	-51.7	15.3	6.00e-01	0	28	0	1108344832	68	4484
2026-01-05 02:39:51.33	212.52	14.29	-50.0	-51.7	15.3	6.01e-01	0	28	0	1110441984	68	4477
2026-01-05 02:39:52.33	212.50	14.18	-50.1	-51.7	15.3	6.01e-01	0	28	0	1112014848	68	4481
2026-01-05 02:39:53.33	212.49	14.07	-50.1	-51.7	15.3	6.00e-01	0	28	0	1114112000	68	4486
2026-01-05 02:39:54.34	212.48	13.95	-50.2	-51.9	15.3	6.01e-01	0	28	0	1116209152	68	4548
2026-01-05 02:39:55.34	212.47	13.84	-50.1	-51.8	15.3	6.01e-01	0	28	0	1117782016	68	4505
2026-01-05 02:39:56.34	212.46	13.73	-50.1	-51.8	15.3	6.00e-01	0	28	0	1119879168	68	4515
2026-01-05 02:39:57.33	212.44	13.62	-50.2	-51.9	15.3	5.99e-01	0	28	0	1121452032	68	4585
2026-01-05 02:39:58.34	212.43	13.51	-50.2	-52.0	15.3	6.03e-01	0	28	0	1123549184	68	4615
2026-01-05 02:39:59.33	212.42	13.40	-50.3	-52.0	15.3	6.03e-01	0	28	0	1125122048	68	4643
2026-01-05 02:40:00.33	212.41	13.29	-50.2	-51.9	15.3	6.02e-01	0	28	0	1127219200	68	4558
2026-01-05 02:40:01.33	212.40	13.18	-50.3	-52.0	15.3	6.02e-01	0	28	0	1129316352	68	4651
2026-01-05 02:40:02.32	212.39	13.08	-50.3	-52.0	15.2	6.02e-01	0	28	0	1130889216	68	4633
2026-01-05 02:40:03.32	212.38	12.97	-50.3	-52.0	15.3	6.01e-01	0	28	0	1132986368	68	4639
2026-01-05 02:40:04.32	212.36	12.86	-50.4	-52.2	15.2	5.99e-01	0	28	0	1134559232	68	4722
2026-01-05 02:40:05.32	212.35	12.76	-50.3	-52.0	15.2	6.01e-01	0	28	0	1136656384	68	4639
2026-01-05 02:40:06.33	212.34	12.65	-50.3	-52.0	15.3	6.01e-01	0	28	0	1138229248	68	4630
2026-01-05 02:40:07.33	212.33	12.55	-50.3	-52.0	15.3	6.00e-01	0	28	0	1140326400	68	4620
2026-01-05 02:40:08.32	212.32	12.44	-50.3	-52.0	15.3	6.01e-01	0	28	0	1142423552	68	4648
2026-01-05 02:40:09.33	212.31	12.34	-50.3	-52.0	15.3	5.99e-01	0	28	0	1143996416	68	4632
2026-01-05 02:40:10.34	212.30	12.23	-50.3	-52.0	15.3	6.03e-01	0	28	0	1146093568	68	4639
2026-01-05 02:40:11.34	212.29	12.13	-50.3	-52.0	15.2	6.02e-01	0	28	0	1147666432	68	4644
2026-01-05 02:40:12.33	212.28	12.03	-50.4	-52.1	15.2	6.02e-01	0	28	0	1149763584	68	4692
2026-01-05 02:40:13.34	212.27	11.92	-50.4	-52.2	15.2	6.04e-01	0	28	0	1151860736	68	4712
2026-01-05 02:40:14.33	212.26	11.82	-50.4	-52.1	15.2	6.00e-01	0	28	0	1153433600	68	4683
2026-01-05 02:40:15.33	212.25	11.72	-50.3	-52.1	15.2	6.01e-01	0	28	0	1155530752	68	4654
2026-01-05 02:40:16.33	212.24	11.62	-50.4	-52.2	15.2	6.00e-01	0	28	0	1157103616	68	4733
2026-01-05 02:40:17.33	212.23	11.52	-50.4	-52.2	15.2	6.02e-01	0	28	0	1159200768	68	4707
2026-01-05 02:40:18.34	212.22	11.42	-50.4	-52.2	15.2	6.00e-01	0	28	0	1160773632	68	4712
2026-01-05 02:40:19.33	212.21	11.32	-50.3	-52.1	15.2	6.01e-01	0	28	0	1162870784	68	4659
2026-01-05 02:40:20.32	212.20	11.22	-50.4	-52.1	15.2	6.00e-01	0	28	0	1164967936	68	4679
2026-01-05 02:40:21.32	212.19	11.13	-50.3	-52.1	15.2	6.02e-01	0	28	0	1166540800	68	4665
2026-01-05 02:40:22.32	212.19	11.03	-50.3	-52.0	15.3	6.02e-01	0	28	0	1168637952	68	4637
2026-01-05 02:40:23.33	212.18	10.93	-50.2	-52.0	15.3	6.01e-01	0	28	0	1170210816	68	4614
2026-01-05 02:40:24.33	212.17	10.83	-50.2	-51.9	15.3	6.02e-01	0	28	0	1172307968	68	4591
2026-01-05 02:40:25.33	212.16	10.73	-50.2	-52.0	15.3	6.03e-01	0	28	0	1173880832	68	4600
2026-01-05 02:40:26.32	212.15	10.64	-50.2	-51.9	15.3	6.02e-01	0	28	0	1175977984	68	4587
2026-01-05 02:40:27.32	212.14	10.54	-50.2	-52.0	15.3	6.02e-01	0	28	0	1178075136	68	4607
2026-01-05 02:40:28.32	212.13	10.45	-50.3	-52.0	15.3	6.02e-01	0	28	0	1179648000	68	4626
2026-01-05 02:40:29.33	212.12	10.35	-50.3	-52.0	15.2	6.03e-01	0	28	0	1181745152	68	4642
2026-01-05 02:40:30.32	212.12	10.26	-50.3	-52.0	15.2	6.00e-01	0	28	0	1183318016	68	4648
2026-01-05 02:40:31.32	212.11	10.16	-50.3	-52.1	15.2	6.00e-01	0	28	0	1185415168	68	4657
2026-01-05 02:40:32.33	212.10	10.07	-50.4	-52.2	15.2	6.01e-01	0	28	0	1186988032	68	4714
2026-01-05 02:40:33.32	212.09	9.98	-50.4	-52.1	15.2	6.00e-01	0	28	0	1189085184	68	4704
2026-01-05 02:40:34.32	212.08	9.88	-50.3	-52.1	15.2	6.00e-01	0	28	0	1191182336	68	4668
2026-01-05 02:40:35.32	212.07	9.79	-50.4	-52.2	15.2	6.00e-01	0	28	0	1192755200	68	4711
2026-01-05 02:40:36.31	212.07	9.70	-50.3	-52.1	15.2	6.01e-01	0	28	0	1194852352	68	4668
2026-01-05 02:40:37.31	212.06	9.61	-50.4	-52.2	15.2	6.02e-01	0	28	0	1196425216	68	4727
2026-01-05 02:40:38.31	212.05	9.52	-50.4	-52.1	15.2	6.00e-01	0	28	0	1198522368	68	4695
2026-01-05 02:40:39.30	212.04	9.42	-50.4	-52.2	15.2	6.02e-01	0	28	0	1200095232	68	4748
2026-01-05 02:40:40.30	212.04	9.33	-50.5	-52.3	15.2	6.02e-01	0	28	0	1202192384	68	4762
2026-01-05 02:40:41.30	212.03	9.24	-50.5	-52.4	15.2	6.01e-01	0	28	0	1203765248	68	4816
2026-01-05 02:40:42.30	212.02	9.15	-50.6	-52.5	15.2	6.00e-01	0	28	0	1205862400	69	4607
2026-01-05 02:40:43.30	212.01	9.06	-50.5	-52.3	15.3	6.02e-01	0	28	0	1207959552	69	4532
2026-01-05 02:40:44.30	212.01	8.97	-50.6	-52.4	15.3	6.02e-01	0	28	0	1209532416	69	4550
2026-01-05 02:40:45.29	212.00	8.89	-50.6	-52.4	15.2	6.02e-01	0	28	0	1211629568	69	4589
2026-01-05 02:40:46.29	211.99	8.80	-50.5	-52.3	15.3	6.01e-01	0	28	0	1213202432	69	4543
2026-01-05 02:40:47.28	211.98	8.71	-50.6	-52.4	15.2	6.04e-01	0	28	0	1215299584	69	4589
2026-01-05 02:40:48.28	211.98	8.62	-50.6	-52.5	15.2	6.02e-01	0	28	0	1216872448	69	4606
2026-01-05 02:40:49.27	211.97	8.53	-50.8	-52.6	15.2	6.00e-01	0	28	0	1218969600	69	4679
2026-01-05 02:40:50.27	211.96	8.45	-50.8	-52.6	15.2	6.03e-01	0	28	0	1221066752	69	4703
2026-01-05 02:40:51.26	211.96	8.36	-50.7	-52.5	15.2	6.02e-01	0	28	0	1222639616	69	4645
2026-01-05 02:40:52.26	211.95	8.27	-50.7	-52.5	15.2	6.00e-01	0	28	0	1224736768	69	4645
2026-01-05 02:40:53.26	211.94	8.19	-50.8	-52.6	15.2	6.01e-01	0	28	0	1226309632	69	4695
2026-01-05 02:40:54.26	211.94	8.10	-50.7	-52.6	15.2	6.04e-01	0	28	0	1228406784	69	4674
