passes_logs/2026/01/05/R3.2S_Murmansk/R3.2S_Murmansk__20260105_213940_NOAA_20_JPSS-1_rec.log

#Pass ID: 20260105_213940_NOAA 20 (JPSS-1)
#Satellite: NOAA 20 (JPSS-1)
#Configuration: NOAA 20
#almurnet v.1.7.20251203
#Start time: 2026-01-05 21:39:42

#Version: 2.2.20231116
#Station: R3.2S_Murmansk
#Location: 33.079688 lon 68.888172 lat
#TLE: 1 43013U 17073A   26005.46207808  .00000128  00000+0  81791-4 0  9997
#TLE: 2 43013  98.7627 306.5027 0001826  53.0458 307.0885 14.19533487421381

#Time	Az	El	Level	Level2	SNR	BER	BlckErr	Temp	State	Recorded	gain1	gain2
2026-01-05 21:39:42.04	18.55	2.10	-58.2	-74.2	3.8	1.49e+00	0	25	0	0	83	21718
2026-01-05 21:39:43.05	18.64	2.15	-58.2	-74.1	3.8	1.49e+00	0	25	104	0	81	24033
2026-01-05 21:39:44.04	18.73	2.20	-58.2	-74.1	3.8	1.49e+00	0	26	104	0	81	24126
2026-01-05 21:39:45.04	18.82	2.25	-58.2	-74.1	3.8	1.49e+00	0	25	104	0	81	24027
2026-01-05 21:39:46.03	18.90	2.29	-58.2	-74.1	3.8	1.49e+00	0	26	104	0	81	24007
2026-01-05 21:39:47.04	18.99	2.34	-58.2	-74.1	3.8	1.49e+00	0	26	104	0	81	24056
2026-01-05 21:39:48.04	19.09	2.39	-58.2	-74.1	3.8	1.49e+00	0	26	104	0	81	24082
2026-01-05 21:39:49.04	19.18	2.44	-58.2	-74.1	3.8	1.49e+00	0	26	104	0	81	24115
2026-01-05 21:39:50.03	19.27	2.49	-58.2	-74.2	3.8	1.49e+00	0	26	104	0	81	24177
2026-01-05 21:39:51.03	19.36	2.54	-58.2	-74.2	3.8	1.49e+00	0	25	104	0	81	24228
2026-01-05 21:39:52.02	19.45	2.59	-58.2	-74.2	3.8	1.49e+00	0	26	104	0	81	24218
2026-01-05 21:39:53.02	19.54	2.64	-58.2	-74.2	3.8	1.49e+00	0	26	104	0	81	24172
2026-01-05 21:39:54.03	19.63	2.69	-58.2	-74.1	3.8	1.49e+00	0	26	104	0	81	24125
2026-01-05 21:39:55.02	19.72	2.73	-58.2	-74.2	3.8	1.49e+00	0	26	104	0	81	24133
2026-01-05 21:39:56.02	19.82	2.78	-58.2	-74.1	3.8	1.49e+00	0	25	104	0	81	24128
2026-01-05 21:39:57.01	19.91	2.83	-58.2	-74.2	3.8	1.49e+00	0	26	104	0	81	24137
2026-01-05 21:39:58.01	20.00	2.88	-58.2	-74.1	3.8	1.49e+00	0	26	104	0	81	24046
2026-01-05 21:39:59.01	20.09	2.93	-58.2	-74.1	3.8	1.49e+00	0	26	104	0	81	23980
2026-01-05 21:40:00.01	20.19	2.98	-58.2	-74.1	3.8	1.49e+00	0	26	104	0	81	23987
2026-01-05 21:40:01.00	20.28	3.03	-58.2	-74.1	3.8	1.49e+00	0	26	104	0	81	24047
2026-01-05 21:40:02.00	20.37	3.08	-58.2	-74.1	3.8	1.49e+00	0	26	104	0	81	24111
2026-01-05 21:40:02.99	20.47	3.13	-58.2	-74.2	3.8	1.49e+00	0	26	104	0	81	24177
2026-01-05 21:40:03.99	20.56	3.18	-58.2	-74.2	3.8	1.49e+00	0	26	104	0	81	24167
2026-01-05 21:40:04.99	20.66	3.23	-58.2	-74.1	3.8	1.49e+00	0	26	104	0	81	24029
2026-01-05 21:40:05.99	20.75	3.27	-58.1	-74.1	3.8	1.49e+00	0	26	104	0	81	23935
2026-01-05 21:40:06.80	20.83	3.31	-58.2	-74.1	3.8	1.49e+00	0	26	104	0	81	23974
2026-01-05 21:40:07.93	20.94	3.37	-58.2	-74.1	3.8	1.49e+00	0	26	104	0	81	23902
2026-01-05 21:40:08.79	21.02	3.41	-58.2	-74.1	3.8	1.49e+00	0	26	104	0	81	24006
2026-01-05 21:40:09.92	21.13	3.47	-58.2	-74.2	3.8	1.49e+00	0	26	104	0	81	24164
2026-01-05 21:40:10.78	21.22	3.51	-58.2	-74.2	3.8	1.49e+00	0	26	104	0	81	24216
2026-01-05 21:40:11.92	21.33	3.57	-58.2	-74.1	3.8	1.49e+00	0	26	104	0	81	23931
2026-01-05 21:40:12.78	21.41	3.61	-58.1	-73.9	3.8	1.49e+00	0	26	104	0	81	23513
2026-01-05 21:40:13.92	21.52	3.67	-58.1	-73.6	3.8	1.49e+00	0	26	104	0	81	22714
2026-01-05 21:40:14.78	21.61	3.71	-58.1	-73.4	3.8	1.49e+00	0	26	104	0	81	22111
2026-01-05 21:40:15.92	21.72	3.77	-58.1	-73.3	3.8	1.49e+00	0	26	104	0	81	21932
2026-01-05 21:40:16.78	21.80	3.81	-58.1	-73.3	3.8	1.49e+00	0	26	104	0	81	22004
2026-01-05 21:40:17.93	21.92	3.87	-58.1	-73.3	3.8	1.49e+00	0	26	104	0	81	21910
2026-01-05 21:40:18.78	22.00	3.91	-58.1	-73.3	3.8	1.49e+00	0	26	104	0	81	21913
2026-01-05 21:40:19.93	22.12	3.96	-58.1	-72.9	3.8	1.49e+00	0	26	104	0	81	20855
2026-01-05 21:40:20.79	22.20	4.01	-58.1	-72.3	3.8	1.49e+00	0	26	104	0	81	19535
2026-01-05 21:40:21.94	22.32	4.06	-58.0	-71.2	4.1	1.48e+00	0	26	0	0	81	17172
2026-01-05 21:40:22.80	22.41	4.11	-58.0	-70.7	4.2	1.42e+00	0	26	0	0	81	16177
2026-01-05 21:40:23.95	22.52	4.16	-58.0	-69.9	4.4	1.35e+00	80	26	0	0	81	14773
2026-01-05 21:40:24.80	22.61	4.21	-57.9	-69.7	4.5	1.12e+00	19	26	0	2097152	81	14462
2026-01-05 21:40:25.95	22.73	4.26	-57.9	-69.0	4.7	9.36e-01	0	26	0	4194304	81	13358
2026-01-05 21:40:26.81	22.81	4.31	-57.8	-68.2	5.1	7.00e-01	0	26	0	5242880	81	12129
2026-01-05 21:40:27.94	22.93	4.36	-57.6	-66.2	6.3	2.63e-01	0	26	0	7340032	81	9609
2026-01-05 21:40:28.80	23.02	4.41	-57.2	-64.1	8.1	5.62e-02	0	26	0	9437184	81	7619
2026-01-05 21:40:29.95	23.14	4.46	-56.7	-62.3	9.6	9.89e-03	0	26	0	11534336	80	6558
2026-01-05 21:40:30.81	23.22	4.51	-56.1	-60.7	10.8	1.46e-03	0	26	0	12582912	78	6103
2026-01-05 21:40:31.96	23.34	4.56	-55.1	-58.6	12.3	4.50e-06	0	26	0	14680064	76	5343
2026-01-05 21:40:32.81	23.43	4.61	-54.7	-57.9	12.7	0.00e+00	0	26	0	16777216	76	4946
2026-01-05 21:40:33.95	23.55	4.66	-54.3	-57.3	13.0	0.00e+00	0	26	0	18874368	75	4890
2026-01-05 21:40:34.81	23.64	4.71	-54.3	-57.3	13.1	0.00e+00	0	26	0	19922944	75	4876
2026-01-05 21:40:35.95	23.76	4.76	-54.5	-57.7	12.8	0.00e+00	0	26	0	22020096	75	5119
2026-01-05 21:40:36.82	23.85	4.81	-54.7	-58.0	12.6	0.00e+00	0	26	0	24117248	75	5313
2026-01-05 21:40:37.96	23.97	4.86	-55.3	-59.1	11.8	7.00e-07	0	26	0	26214400	75	6017
2026-01-05 21:40:38.80	24.06	4.91	-55.8	-60.2	11.2	1.22e-05	0	26	0	28311552	76	6426
2026-01-05 21:40:39.95	24.19	4.96	-56.5	-61.8	10.0	3.13e-04	0	26	0	30408704	78	6917
2026-01-05 21:40:40.80	24.28	5.01	-56.8	-63.0	9.0	4.95e-03	0	26	0	31457280	78	7942
2026-01-05 21:40:41.94	24.40	5.06	-56.8	-62.8	9.1	6.72e-03	0	26	0	33554432	78	7789
2026-01-05 21:40:42.80	24.49	5.11	-55.0	-58.4	12.5	6.80e-06	0	26	0	35651584	76	5244
2026-01-05 21:40:43.94	24.61	5.16	-57.7	-67.7	5.3	1.00e-01	0	26	0	37748736	80	12202
2026-01-05 21:40:44.79	24.71	5.21	-57.1	-64.4	7.8	9.35e-02	0	26	0	38797312	80	8294
2026-01-05 21:40:45.92	24.83	5.26	-56.5	-61.3	10.5	7.85e-05	0	26	0	40894464	78	6558
2026-01-05 21:40:46.78	24.92	5.31	-54.9	-58.1	12.7	7.00e-07	0	26	0	42991616	76	5093
2026-01-05 21:40:47.92	25.05	5.36	-54.6	-57.7	12.8	0.00e+00	0	26	0	45088768	75	5151
2026-01-05 21:40:48.77	25.14	5.41	-54.7	-57.8	12.7	0.00e+00	0	26	0	46137344	75	5218
2026-01-05 21:40:49.91	25.27	5.46	-54.5	-57.6	12.9	0.00e+00	0	26	0	48234496	75	5052
2026-01-05 21:40:50.77	25.36	5.51	-54.3	-57.1	13.2	0.00e+00	0	26	0	50331648	75	4813
2026-01-05 21:40:51.92	25.49	5.56	-54.3	-57.2	13.2	0.00e+00	0	26	0	52428800	75	4817
2026-01-05 21:40:52.77	25.58	5.61	-54.1	-56.9	13.2	0.00e+00	0	26	0	54525952	74	4959
2026-01-05 21:40:53.91	25.71	5.66	-53.9	-56.6	13.4	0.00e+00	0	26	0	56623104	74	4772
2026-01-05 21:40:54.76	25.80	5.71	-53.9	-56.6	13.4	0.00e+00	0	26	0	57671680	74	4773
2026-01-05 21:40:55.89	25.93	5.76	-53.9	-56.5	13.5	0.00e+00	0	26	0	59768832	74	4758
2026-01-05 21:40:56.75	26.03	5.81	-53.8	-56.4	13.5	0.00e+00	0	26	0	61865984	74	4695
2026-01-05 21:40:57.89	26.16	5.86	-53.8	-56.3	13.6	0.00e+00	0	26	0	63963136	74	4631
2026-01-05 21:40:58.75	26.25	5.91	-53.8	-56.3	13.6	0.00e+00	0	26	0	65011712	74	4639
2026-01-05 21:40:59.88	26.38	5.96	-53.6	-56.2	13.6	0.00e+00	0	26	0	67108864	73	4815
2026-01-05 21:41:00.74	26.48	6.01	-53.6	-56.1	13.6	0.00e+00	0	26	0	69206016	73	4790
2026-01-05 21:41:01.88	26.61	6.06	-53.5	-55.9	13.7	0.00e+00	0	26	0	71303168	73	4684
2026-01-05 21:41:02.73	26.71	6.11	-53.5	-56.0	13.7	0.00e+00	0	26	0	72351744	73	4716
2026-01-05 21:41:03.88	26.84	6.17	-53.6	-56.1	13.6	0.00e+00	0	26	0	74448896	73	4773
2026-01-05 21:41:04.73	26.94	6.21	-53.7	-56.2	13.6	0.00e+00	0	26	0	76546048	73	4828
2026-01-05 21:41:05.87	27.07	6.27	-53.8	-56.4	13.5	0.00e+00	0	26	0	78643200	73	4981
2026-01-05 21:41:06.73	27.17	6.31	-53.9	-56.5	13.4	0.00e+00	0	26	0	80740352	73	5014
2026-01-05 21:41:07.87	27.31	6.37	-53.7	-56.1	13.6	0.00e+00	0	26	0	82837504	73	4814
2026-01-05 21:41:08.72	27.40	6.41	-53.7	-56.2	13.6	0.00e+00	0	26	0	83886080	73	4853
2026-01-05 21:41:09.86	27.54	6.47	-53.8	-56.3	13.6	0.00e+00	0	26	0	85983232	73	4895
2026-01-05 21:41:10.72	27.64	6.51	-53.6	-56.1	13.7	0.00e+00	0	26	0	88080384	73	4783
2026-01-05 21:41:11.86	27.77	6.57	-53.7	-56.3	13.6	0.00e+00	0	26	0	90177536	73	4876
2026-01-05 21:41:12.72	27.88	6.61	-53.5	-55.9	13.8	0.00e+00	0	26	0	91226112	73	4687
2026-01-05 21:41:13.86	28.01	6.67	-53.7	-56.2	13.6	0.00e+00	0	26	0	93323264	73	4825
2026-01-05 21:41:14.72	28.12	6.71	-53.5	-55.9	13.8	0.00e+00	0	26	0	95420416	73	4663
2026-01-05 21:41:15.87	28.25	6.77	-53.5	-55.9	13.8	0.00e+00	0	26	0	97517568	73	4662
2026-01-05 21:41:16.72	28.36	6.81	-53.5	-55.9	13.8	0.00e+00	0	27	0	98566144	73	4665
2026-01-05 21:41:17.87	28.49	6.87	-53.5	-56.0	13.7	0.00e+00	0	26	0	100663296	73	4717
2026-01-05 21:41:18.73	28.60	6.91	-53.5	-55.9	13.8	0.00e+00	0	26	0	102760448	73	4686
2026-01-05 21:41:19.87	28.74	6.97	-53.5	-55.9	13.8	0.00e+00	0	26	0	104857600	73	4658
2026-01-05 21:41:20.73	28.84	7.01	-53.5	-55.8	13.8	0.00e+00	0	26	0	106954752	73	4644
2026-01-05 21:41:21.87	28.98	7.07	-53.6	-56.1	13.6	0.00e+00	0	26	0	109051904	73	4800
2026-01-05 21:41:22.72	29.08	7.11	-53.6	-56.1	13.7	0.00e+00	0	26	0	110100480	73	4780
2026-01-05 21:41:23.86	29.23	7.17	-53.7	-56.2	13.6	0.00e+00	0	26	0	112197632	73	4864
2026-01-05 21:41:24.72	29.33	7.21	-53.7	-56.2	13.6	0.00e+00	0	26	0	114294784	73	4824
2026-01-05 21:41:25.86	29.47	7.27	-53.7	-56.2	13.6	0.00e+00	0	26	0	116391936	73	4837
2026-01-05 21:41:26.72	29.58	7.31	-53.8	-56.3	13.6	0.00e+00	0	26	0	117440512	73	4920
2026-01-05 21:41:27.86	29.72	7.37	-53.7	-56.2	13.6	0.00e+00	0	26	0	119537664	73	4861
2026-01-05 21:41:28.71	29.83	7.41	-53.8	-56.3	13.6	0.00e+00	0	26	0	121634816	73	4872
2026-01-05 21:41:29.86	29.97	7.47	-53.8	-56.3	13.6	0.00e+00	0	26	0	123731968	73	4875
2026-01-05 21:41:30.71	30.08	7.51	-53.6	-56.1	13.7	0.00e+00	0	26	0	124780544	73	4778
2026-01-05 21:41:31.86	30.22	7.57	-53.6	-56.0	13.7	0.00e+00	0	26	0	126877696	73	4745
2026-01-05 21:41:32.71	30.33	7.61	-53.6	-56.0	13.7	0.00e+00	0	26	0	128974848	73	4729
2026-01-05 21:41:33.84	30.48	7.67	-53.6	-56.1	13.7	0.00e+00	0	26	0	131072000	73	4770
2026-01-05 21:41:34.70	30.59	7.71	-53.5	-55.8	13.8	0.00e+00	0	26	0	132120576	73	4632
2026-01-05 21:41:35.83	30.73	7.77	-53.5	-55.9	13.8	0.00e+00	0	26	0	135266304	73	4665
2026-01-05 21:41:36.69	30.84	7.81	-53.6	-56.0	13.8	0.00e+00	0	26	0	136314880	73	4712
2026-01-05 21:41:37.83	30.99	7.87	-53.5	-55.8	13.9	0.00e+00	0	26	0	138412032	73	4622
2026-01-05 21:41:38.68	31.10	7.91	-53.4	-55.7	13.9	0.00e+00	0	26	0	140509184	73	4585
2026-01-05 21:41:39.82	31.25	7.97	-53.5	-55.9	13.8	0.00e+00	0	26	0	142606336	73	4666
2026-01-05 21:41:40.68	31.36	8.01	-53.4	-55.7	13.9	0.00e+00	0	27	0	143654912	73	4578
2026-01-05 21:41:41.81	31.50	8.07	-53.4	-55.7	13.9	0.00e+00	0	26	0	145752064	73	4565
2026-01-05 21:41:42.67	31.62	8.11	-53.4	-55.8	13.9	0.00e+00	0	26	0	147849216	73	4604
2026-01-05 21:41:43.81	31.77	8.17	-53.3	-55.6	14.0	0.00e+00	0	26	0	149946368	73	4528
2026-01-05 21:41:44.67	31.88	8.21	-53.2	-55.5	14.1	0.00e+00	0	26	0	150994944	73	4460
2026-01-05 21:41:45.80	32.03	8.27	-53.2	-55.5	14.1	0.00e+00	0	26	0	153092096	73	4454
2026-01-05 21:41:46.65	32.14	8.31	-53.3	-55.5	14.0	0.00e+00	0	26	0	155189248	73	4485
2026-01-05 21:41:47.78	32.29	8.37	-53.3	-55.5	14.0	0.00e+00	0	26	0	157286400	73	4456
2026-01-05 21:41:48.65	32.41	8.41	-53.3	-55.5	14.0	0.00e+00	0	26	0	158334976	73	4479
2026-01-05 21:41:49.78	32.56	8.47	-53.1	-55.3	14.0	0.00e+00	0	26	0	161480704	72	4635
2026-01-05 21:41:50.64	32.68	8.51	-53.0	-55.2	14.1	0.00e+00	0	26	0	162529280	72	4568
2026-01-05 21:41:51.78	32.83	8.56	-53.0	-55.2	14.1	0.00e+00	0	26	0	164626432	72	4564
2026-01-05 21:41:52.64	32.95	8.61	-53.0	-55.2	14.1	0.00e+00	0	26	0	166723584	72	4563
2026-01-05 21:41:53.77	33.10	8.66	-52.9	-55.0	14.2	0.00e+00	0	26	0	168820736	72	4479
2026-01-05 21:41:54.63	33.22	8.71	-52.9	-55.0	14.2	0.00e+00	0	26	0	169869312	72	4451
2026-01-05 21:41:55.76	33.37	8.76	-52.8	-54.9	14.2	0.00e+00	0	26	0	171966464	72	4428
2026-01-05 21:41:56.63	33.49	8.80	-52.9	-55.0	14.2	0.00e+00	0	26	0	174063616	72	4467
2026-01-05 21:41:57.77	33.65	8.86	-52.8	-54.9	14.2	0.00e+00	0	27	0	176160768	72	4416
2026-01-05 21:41:58.63	33.77	8.90	-52.8	-54.8	14.3	0.00e+00	0	27	0	177209344	72	4366
2026-01-05 21:41:59.77	33.92	8.96	-52.6	-54.7	14.2	0.00e+00	0	27	0	179306496	71	4561
2026-01-05 21:42:00.62	34.04	9.00	-52.6	-54.6	14.3	0.00e+00	0	26	0	181403648	71	4536
2026-01-05 21:42:01.77	34.20	9.06	-52.7	-54.7	14.2	0.00e+00	0	26	0	183500800	71	4580
2026-01-05 21:42:02.63	34.32	9.10	-52.8	-54.9	14.2	0.00e+00	0	26	0	184549376	71	4656
2026-01-05 21:42:03.77	34.48	9.16	-52.6	-54.7	14.3	0.00e+00	0	26	0	187695104	71	4562
2026-01-05 21:42:04.62	34.60	9.20	-52.6	-54.6	14.3	0.00e+00	0	26	0	188743680	71	4541
2026-01-05 21:42:05.77	34.76	9.25	-52.5	-54.5	14.3	0.00e+00	0	26	0	190840832	71	4458
2026-01-05 21:42:06.63	34.89	9.30	-52.6	-54.6	14.3	0.00e+00	0	26	0	192937984	71	4535
2026-01-05 21:42:07.77	35.05	9.35	-52.6	-54.6	14.3	0.00e+00	0	26	0	195035136	71	4505
2026-01-05 21:42:08.63	35.17	9.39	-52.7	-54.7	14.2	0.00e+00	0	26	0	196083712	71	4560
2026-01-05 21:42:09.77	35.33	9.45	-52.6	-54.6	14.3	0.00e+00	0	26	0	198180864	71	4496
2026-01-05 21:42:10.63	35.46	9.49	-52.7	-54.7	14.2	0.00e+00	0	27	0	200278016	71	4580
2026-01-05 21:42:11.78	35.62	9.55	-52.7	-54.7	14.2	0.00e+00	0	26	0	202375168	71	4574
2026-01-05 21:42:12.64	35.75	9.59	-52.7	-54.7	14.2	0.00e+00	0	26	0	203423744	71	4562
2026-01-05 21:42:13.77	35.91	9.64	-52.7	-54.8	14.2	0.00e+00	0	26	0	205520896	71	4605
2026-01-05 21:42:14.63	36.04	9.69	-52.6	-54.6	14.3	0.00e+00	0	26	0	207618048	71	4524
2026-01-05 21:42:15.77	36.20	9.74	-52.7	-54.7	14.2	0.00e+00	0	27	0	209715200	71	4576
2026-01-05 21:42:16.62	36.33	9.78	-52.7	-54.7	14.2	0.00e+00	0	26	0	211812352	71	4581
2026-01-05 21:42:17.76	36.49	9.84	-52.6	-54.6	14.3	0.00e+00	0	26	0	213909504	71	4508
2026-01-05 21:42:18.62	36.62	9.88	-52.6	-54.6	14.3	0.00e+00	0	26	0	214958080	71	4503
2026-01-05 21:42:19.76	36.79	9.93	-52.6	-54.5	14.3	0.00e+00	0	26	0	217055232	71	4489
2026-01-05 21:42:20.62	36.92	9.98	-52.5	-54.5	14.3	0.00e+00	0	26	0	219152384	71	4460
2026-01-05 21:42:21.77	37.09	10.03	-52.6	-54.5	14.3	0.00e+00	0	27	0	221249536	71	4488
2026-01-05 21:42:22.62	37.21	10.07	-52.6	-54.6	14.3	0.00e+00	0	26	0	222298112	71	4500
2026-01-05 21:42:23.76	37.38	10.13	-52.6	-54.6	14.3	0.00e+00	0	27	0	224395264	71	4533
2026-01-05 21:42:24.62	37.51	10.17	-52.7	-54.7	14.2	0.00e+00	0	26	0	226492416	71	4588
2026-01-05 21:42:25.76	37.68	10.22	-52.8	-54.8	14.2	0.00e+00	0	26	0	228589568	71	4629
2026-01-05 21:42:26.62	37.81	10.26	-52.8	-54.8	14.2	0.00e+00	0	26	0	229638144	71	4629
2026-01-05 21:42:27.76	37.99	10.32	-52.8	-54.8	14.2	0.00e+00	0	26	0	231735296	71	4651
2026-01-05 21:42:28.62	38.12	10.36	-52.7	-54.7	14.2	0.00e+00	0	26	0	233832448	71	4588
2026-01-05 21:42:29.76	38.29	10.41	-52.6	-54.7	14.3	0.00e+00	0	26	0	235929600	71	4550
2026-01-05 21:42:30.61	38.42	10.45	-52.6	-54.5	14.4	0.00e+00	0	27	0	238026752	71	4493
2026-01-05 21:42:31.76	38.60	10.51	-52.6	-54.5	14.3	0.00e+00	0	26	0	240123904	71	4484
2026-01-05 21:42:32.61	38.73	10.55	-52.6	-54.6	14.3	0.00e+00	0	26	0	241172480	71	4512
2026-01-05 21:42:33.76	38.91	10.60	-52.6	-54.6	14.3	0.00e+00	0	27	0	243269632	71	4496
2026-01-05 21:42:34.61	39.04	10.64	-52.7	-54.7	14.3	0.00e+00	0	27	0	245366784	71	4571
2026-01-05 21:42:35.75	39.21	10.69	-52.7	-54.7	14.2	0.00e+00	0	26	0	247463936	71	4552
2026-01-05 21:42:36.61	39.35	10.73	-52.8	-54.8	14.2	0.00e+00	0	27	0	248512512	71	4609
2026-01-05 21:42:37.75	39.53	10.79	-52.7	-54.8	14.2	0.00e+00	0	27	0	250609664	71	4605
2026-01-05 21:42:38.61	39.66	10.83	-52.9	-54.9	14.1	0.00e+00	0	27	0	252706816	71	4683
2026-01-05 21:42:39.74	39.84	10.88	-52.8	-54.8	14.2	0.00e+00	0	26	0	254803968	71	4615
2026-01-05 21:42:40.60	39.97	10.92	-52.7	-54.8	14.2	0.00e+00	0	27	0	255852544	71	4603
2026-01-05 21:42:41.74	40.15	10.97	-52.7	-54.8	14.2	0.00e+00	0	27	0	257949696	71	4603
2026-01-05 21:42:42.59	40.29	11.01	-52.8	-54.8	14.2	0.00e+00	0	27	0	260046848	71	4625
2026-01-05 21:42:43.73	40.47	11.06	-52.6	-54.6	14.3	0.00e+00	0	26	0	262144000	71	4528
2026-01-05 21:42:44.58	40.61	11.10	-52.7	-54.8	14.2	0.00e+00	0	26	0	263192576	71	4599
2026-01-05 21:42:45.72	40.79	11.15	-52.8	-54.8	14.2	0.00e+00	0	27	0	266338304	71	4621
2026-01-05 21:42:46.58	40.93	11.19	-52.8	-54.8	14.2	0.00e+00	0	26	0	267386880	71	4608
2026-01-05 21:42:47.72	41.11	11.25	-52.9	-54.9	14.2	0.00e+00	0	26	0	269484032	71	4705
2026-01-05 21:42:48.58	41.25	11.29	-53.0	-55.1	14.1	0.00e+00	0	26	0	271581184	71	4760
2026-01-05 21:42:49.72	41.43	11.34	-53.0	-55.1	14.1	0.00e+00	0	26	0	273678336	71	4803
2026-01-05 21:42:50.57	41.57	11.38	-53.0	-55.2	14.0	0.00e+00	0	26	0	274726912	71	4820
2026-01-05 21:42:51.71	41.76	11.43	-53.1	-55.2	14.0	0.00e+00	0	27	0	276824064	71	4835
2026-01-05 21:42:52.56	41.90	11.46	-53.0	-55.1	14.1	0.00e+00	0	27	0	278921216	71	4792
2026-01-05 21:42:53.70	42.08	11.52	-53.1	-55.2	14.0	0.00e+00	0	26	0	281018368	71	4850
2026-01-05 21:42:54.56	42.23	11.55	-53.1	-55.2	14.0	0.00e+00	0	26	0	282066944	71	4863
2026-01-05 21:42:55.69	42.41	11.61	-53.1	-55.3	14.0	0.00e+00	0	26	0	284164096	71	4882
2026-01-05 21:42:56.54	42.55	11.64	-53.1	-55.2	14.0	0.00e+00	0	26	0	286261248	71	4848
2026-01-05 21:42:57.67	42.74	11.69	-53.1	-55.2	14.0	0.00e+00	0	27	0	288358400	71	4860
2026-01-05 21:42:58.53	42.88	11.73	-53.1	-55.3	14.0	0.00e+00	0	27	0	289406976	71	4891
2026-01-05 21:42:59.67	43.07	11.78	-53.2	-55.4	13.9	0.00e+00	0	27	0	291504128	71	4948
2026-01-05 21:43:00.52	43.22	11.82	-53.3	-55.4	13.9	0.00e+00	0	26	0	293601280	71	4983
2026-01-05 21:43:01.65	43.41	11.87	-53.3	-55.5	13.9	0.00e+00	0	26	0	295698432	71	5010
2026-01-05 21:43:02.50	43.55	11.91	-53.4	-55.6	13.8	0.00e+00	0	27	0	297795584	71	5066
2026-01-05 21:43:03.65	43.74	11.96	-53.5	-55.8	13.8	0.00e+00	0	26	0	299892736	72	4885
2026-01-05 21:43:04.50	43.89	11.99	-53.5	-55.8	13.8	0.00e+00	0	27	0	300941312	72	4912
2026-01-05 21:43:05.63	44.08	12.04	-53.6	-55.9	13.8	0.00e+00	0	26	0	303038464	72	4932
2026-01-05 21:43:06.48	44.22	12.08	-53.6	-55.8	13.8	0.00e+00	0	27	0	305135616	72	4924
2026-01-05 21:43:07.62	44.42	12.13	-53.5	-55.8	13.8	0.00e+00	0	27	0	307232768	72	4893
2026-01-05 21:43:08.48	44.56	12.16	-53.5	-55.8	13.8	0.00e+00	0	27	0	308281344	72	4910
2026-01-05 21:43:09.62	44.76	12.21	-53.6	-55.9	13.8	0.00e+00	0	26	0	310378496	72	4973
2026-01-05 21:43:10.48	44.91	12.25	-53.7	-56.0	13.7	0.00e+00	0	26	0	312475648	72	5019
2026-01-05 21:43:11.62	45.11	12.30	-53.5	-55.8	13.8	0.00e+00	0	27	0	314572800	72	4884
2026-01-05 21:43:12.47	45.25	12.33	-53.5	-55.9	13.8	0.00e+00	0	26	0	315621376	72	4927
2026-01-05 21:43:13.60	45.45	12.38	-53.6	-55.9	13.8	0.00e+00	0	26	0	317718528	72	4946
2026-01-05 21:43:14.46	45.60	12.42	-53.6	-55.9	13.8	0.00e+00	0	27	0	319815680	72	4960
2026-01-05 21:43:15.59	45.80	12.46	-53.6	-55.9	13.8	0.00e+00	0	27	0	321912832	72	4978
2026-01-05 21:43:16.45	45.95	12.50	-53.7	-56.1	13.7	0.00e+00	0	27	0	322961408	72	5057
2026-01-05 21:43:17.59	46.15	12.55	-53.8	-56.2	13.6	0.00e+00	0	26	0	326107136	72	5110
2026-01-05 21:43:18.44	46.30	12.58	-53.8	-56.2	13.7	0.00e+00	0	27	0	327155712	72	5141
2026-01-05 21:43:19.57	46.50	12.63	-53.8	-56.3	13.6	0.00e+00	0	27	0	329252864	72	5164
2026-01-05 21:43:20.43	46.65	12.66	-54.0	-56.4	13.6	0.00e+00	0	27	0	331350016	73	4965
2026-01-05 21:43:21.58	46.85	12.71	-53.9	-56.3	13.7	0.00e+00	0	27	0	333447168	73	4905
2026-01-05 21:43:22.43	47.00	12.74	-53.9	-56.3	13.7	0.00e+00	0	27	0	334495744	73	4921
2026-01-05 21:43:23.57	47.21	12.79	-53.8	-56.2	13.7	0.00e+00	0	27	0	336592896	73	4841
2026-01-05 21:43:24.43	47.36	12.83	-53.7	-56.1	13.8	0.00e+00	0	27	0	338690048	73	4761
2026-01-05 21:43:25.58	47.57	12.87	-53.8	-56.2	13.8	0.00e+00	0	26	0	340787200	73	4817
2026-01-05 21:43:26.43	47.72	12.90	-53.6	-55.9	13.9	0.00e+00	0	26	0	341835776	73	4675
2026-01-05 21:43:27.57	47.92	12.95	-53.6	-55.8	13.9	0.00e+00	0	26	0	343932928	73	4642
2026-01-05 21:43:28.42	48.08	12.98	-53.6	-55.9	13.9	0.00e+00	0	27	0	346030080	73	4675
2026-01-05 21:43:29.56	48.28	13.03	-53.8	-56.1	13.8	0.00e+00	0	27	0	348127232	73	4784
2026-01-05 21:43:30.42	48.44	13.06	-53.8	-56.2	13.8	0.00e+00	0	27	0	349175808	73	4838
2026-01-05 21:43:31.56	48.65	13.11	-54.0	-56.5	13.6	0.00e+00	0	26	0	352321536	73	5003
2026-01-05 21:43:32.41	48.80	13.14	-54.1	-56.6	13.5	0.00e+00	0	27	0	353370112	73	5093
2026-01-05 21:43:33.55	49.01	13.18	-54.2	-56.7	13.5	0.00e+00	0	26	0	355467264	73	5149
2026-01-05 21:43:34.41	49.17	13.22	-54.1	-56.7	13.5	0.00e+00	0	27	0	357564416	73	5118
2026-01-05 21:43:35.55	49.38	13.26	-54.2	-56.8	13.4	0.00e+00	0	26	0	359661568	73	5189
2026-01-05 21:43:36.41	49.54	13.29	-54.2	-56.8	13.4	0.00e+00	0	27	0	360710144	73	5191
2026-01-05 21:43:37.55	49.75	13.33	-54.2	-56.8	13.4	0.00e+00	0	27	0	362807296	73	5186
2026-01-05 21:43:38.41	49.91	13.37	-54.1	-56.6	13.5	0.00e+00	0	27	0	364904448	73	5069
2026-01-05 21:43:39.56	50.12	13.41	-53.9	-56.3	13.7	0.00e+00	0	26	0	367001600	73	4882
2026-01-05 21:43:40.43	50.28	13.44	-53.9	-56.3	13.7	0.00e+00	0	26	0	368050176	73	4898
2026-01-05 21:43:41.56	50.50	13.48	-53.8	-56.1	13.8	0.00e+00	0	26	0	370147328	73	4791
2026-01-05 21:43:42.42	50.66	13.51	-53.9	-56.2	13.7	0.00e+00	0	26	0	372244480	73	4865
2026-01-05 21:43:43.56	50.87	13.56	-53.8	-56.1	13.8	0.00e+00	0	27	0	374341632	73	4804
2026-01-05 21:43:44.42	51.03	13.59	-53.8	-56.1	13.8	0.00e+00	0	26	0	376438784	73	4798
2026-01-05 21:43:45.56	51.25	13.63	-53.8	-56.2	13.8	0.00e+00	0	27	0	378535936	73	4842
2026-01-05 21:43:46.41	51.41	13.66	-53.9	-56.3	13.7	0.00e+00	0	26	0	379584512	73	4900
2026-01-05 21:43:47.55	51.62	13.70	-53.9	-56.3	13.7	0.00e+00	0	26	0	381681664	73	4892
2026-01-05 21:43:48.41	51.79	13.73	-53.8	-56.2	13.8	0.00e+00	0	27	0	383778816	73	4822
2026-01-05 21:43:49.55	52.00	13.77	-53.8	-56.1	13.8	0.00e+00	0	27	0	385875968	73	4806
2026-01-05 21:43:50.41	52.17	13.80	-53.9	-56.2	13.8	0.00e+00	0	27	0	386924544	73	4861
2026-01-05 21:43:51.55	52.39	13.84	-53.8	-56.1	13.8	0.00e+00	0	26	0	389021696	73	4797
2026-01-05 21:43:52.40	52.55	13.87	-53.8	-56.1	13.8	0.00e+00	0	27	0	391118848	73	4788
2026-01-05 21:43:53.54	52.77	13.90	-53.7	-55.9	13.9	0.00e+00	0	26	0	393216000	73	4699
2026-01-05 21:43:54.38	52.93	13.93	-53.7	-56.0	13.9	0.00e+00	0	27	0	394264576	73	4707
2026-01-05 21:43:55.53	53.15	13.97	-53.5	-55.7	14.0	0.00e+00	0	27	0	396361728	73	4595
2026-01-05 21:43:56.39	53.32	14.00	-53.5	-55.6	14.1	0.00e+00	0	27	0	398458880	73	4545
2026-01-05 21:43:57.52	53.54	14.04	-53.3	-55.4	14.2	0.00e+00	0	27	0	400556032	73	4406
2026-01-05 21:43:58.38	53.70	14.06	-53.2	-55.3	14.2	0.00e+00	0	27	0	401604608	73	4356
2026-01-05 21:43:59.51	53.92	14.10	-53.1	-55.1	14.2	0.00e+00	0	26	0	404750336	72	4526
2026-01-05 21:44:00.37	54.09	14.13	-52.8	-54.8	14.3	0.00e+00	0	27	0	405798912	72	4363
2026-01-05 21:44:01.51	54.31	14.17	-52.8	-54.7	14.4	0.00e+00	0	27	0	407896064	72	4323
2026-01-05 21:44:02.36	54.48	14.19	-52.8	-54.8	14.4	0.00e+00	0	27	0	409993216	72	4346
2026-01-05 21:44:03.50	54.70	14.23	-52.9	-54.9	14.3	0.00e+00	0	26	0	412090368	72	4401
2026-01-05 21:44:04.34	54.87	14.25	-52.8	-54.8	14.4	0.00e+00	0	26	0	413138944	72	4349
2026-01-05 21:44:05.48	55.09	14.29	-52.8	-54.7	14.4	0.00e+00	0	26	0	415236096	72	4326
2026-01-05 21:44:06.34	55.26	14.32	-52.7	-54.6	14.4	0.00e+00	0	26	0	417333248	72	4284
2026-01-05 21:44:07.47	55.49	14.35	-52.7	-54.7	14.3	0.00e+00	0	27	0	419430400	71	4562
2026-01-05 21:44:08.34	55.66	14.38	-52.9	-54.9	14.2	0.00e+00	0	27	0	420478976	71	4669
2026-01-05 21:44:09.48	55.88	14.41	-52.8	-54.8	14.3	0.00e+00	0	26	0	422576128	71	4615
2026-01-05 21:44:10.33	56.05	14.43	-52.9	-54.8	14.2	0.00e+00	0	27	0	424673280	71	4645
2026-01-05 21:44:11.47	56.28	14.47	-52.8	-54.8	14.3	0.00e+00	0	26	0	426770432	71	4642
2026-01-05 21:44:12.32	56.45	14.49	-52.8	-54.8	14.2	0.00e+00	0	27	0	427819008	71	4618
2026-01-05 21:44:13.45	56.68	14.52	-52.8	-54.8	14.3	0.00e+00	0	26	0	429916160	71	4635
2026-01-05 21:44:14.30	56.85	14.55	-52.8	-54.8	14.2	0.00e+00	0	27	0	432013312	71	4638
2026-01-05 21:44:15.44	57.08	14.58	-52.8	-54.8	14.3	0.00e+00	0	27	0	434110464	71	4606
2026-01-05 21:44:16.29	57.25	14.60	-52.7	-54.6	14.3	0.00e+00	0	26	0	435159040	71	4514
2026-01-05 21:44:17.42	57.47	14.64	-52.6	-54.5	14.4	0.00e+00	0	26	0	438304768	71	4468
2026-01-05 21:44:18.28	57.65	14.66	-52.7	-54.6	14.4	0.00e+00	0	27	0	439353344	71	4520
2026-01-05 21:44:19.42	57.88	14.69	-52.7	-54.6	14.3	0.00e+00	0	27	0	441450496	71	4545
2026-01-05 21:44:20.28	58.05	14.71	-52.8	-54.7	14.3	0.00e+00	0	26	0	443547648	71	4587
2026-01-05 21:44:21.42	58.28	14.74	-52.9	-54.9	14.2	0.00e+00	0	27	0	445644800	71	4652
2026-01-05 21:44:22.28	58.46	14.76	-53.1	-55.2	14.1	0.00e+00	0	26	0	446693376	71	4818
2026-01-05 21:44:23.42	58.69	14.79	-53.2	-55.3	14.0	0.00e+00	0	27	0	448790528	71	4874
2026-01-05 21:44:24.27	58.86	14.81	-53.3	-55.5	13.9	0.00e+00	0	27	0	450887680	71	5020
2026-01-05 21:44:25.40	59.10	14.84	-53.5	-55.7	13.9	0.00e+00	0	27	0	452984832	72	4841
2026-01-05 21:44:26.26	59.27	14.86	-53.5	-55.7	13.9	0.00e+00	0	27	0	454033408	72	4846
2026-01-05 21:44:27.39	59.50	14.89	-53.5	-55.8	13.9	0.00e+00	0	26	0	456130560	72	4880
2026-01-05 21:44:28.24	59.68	14.91	-53.4	-55.6	13.9	0.00e+00	0	27	0	458227712	72	4801
2026-01-05 21:44:29.37	59.91	14.94	-53.4	-55.6	14.0	0.00e+00	0	27	0	460324864	72	4809
2026-01-05 21:44:30.23	60.09	14.96	-53.5	-55.7	13.9	0.00e+00	0	26	0	461373440	72	4837
2026-01-05 21:44:31.36	60.32	14.99	-53.5	-55.7	13.9	0.00e+00	0	27	0	463470592	72	4864
2026-01-05 21:44:32.22	60.50	15.01	-53.4	-55.5	14.0	0.00e+00	0	27	0	465567744	72	4747
2026-01-05 21:44:33.36	60.73	15.03	-53.2	-55.3	14.1	0.00e+00	0	27	0	467664896	72	4637
2026-01-05 21:44:34.21	60.91	15.05	-53.3	-55.5	14.0	0.00e+00	0	27	0	469762048	72	4711
2026-01-05 21:44:35.33	61.14	15.07	-53.4	-55.5	14.0	0.00e+00	0	27	0	471859200	72	4734
2026-01-05 21:44:36.19	61.32	15.09	-53.5	-55.7	13.9	0.00e+00	0	27	0	472907776	72	4827
2026-01-05 21:44:37.32	61.56	15.12	-53.4	-55.6	14.0	0.00e+00	0	26	0	475004928	72	4794
2026-01-05 21:44:38.18	61.74	15.13	-53.5	-55.8	13.8	0.00e+00	0	27	0	477102080	72	4884
2026-01-05 21:44:39.31	61.97	15.16	-53.6	-55.8	13.9	0.00e+00	0	27	0	479199232	72	4907
2026-01-05 21:44:40.16	62.15	15.17	-53.6	-55.8	13.8	0.00e+00	0	26	0	480247808	72	4924
2026-01-05 21:44:41.30	62.39	15.20	-53.5	-55.8	13.9	0.00e+00	0	26	0	482344960	72	4887
2026-01-05 21:44:42.15	62.56	15.21	-53.4	-55.6	14.0	0.00e+00	0	27	0	484442112	72	4782
2026-01-05 21:44:43.29	62.80	15.24	-53.5	-55.8	13.9	0.00e+00	0	27	0	486539264	72	4876
2026-01-05 21:44:44.14	62.98	15.25	-53.3	-55.5	14.0	0.00e+00	0	27	0	487587840	72	4728
2026-01-05 21:44:45.27	63.22	15.27	-53.4	-55.5	14.0	0.00e+00	0	27	0	489684992	72	4753
2026-01-05 21:44:46.12	63.40	15.29	-53.3	-55.4	14.1	0.00e+00	0	26	0	491782144	72	4690
2026-01-05 21:44:47.26	63.64	15.31	-53.2	-55.3	14.1	0.00e+00	0	27	0	493879296	72	4642
2026-01-05 21:44:48.12	63.82	15.32	-53.2	-55.3	14.1	0.00e+00	0	27	0	494927872	72	4649
2026-01-05 21:44:49.26	64.06	15.34	-53.2	-55.3	14.1	0.00e+00	0	27	0	497025024	72	4619
2026-01-05 21:44:50.12	64.24	15.36	-53.2	-55.3	14.1	0.00e+00	0	27	0	499122176	72	4601
2026-01-05 21:44:51.26	64.48	15.38	-53.1	-55.2	14.2	0.00e+00	0	27	0	501219328	72	4550
2026-01-05 21:44:52.12	64.67	15.39	-53.1	-55.1	14.2	0.00e+00	0	26	0	503316480	72	4529
2026-01-05 21:44:53.26	64.91	15.41	-53.1	-55.2	14.2	0.00e+00	0	26	0	505413632	72	4567
2026-01-05 21:44:54.12	65.09	15.42	-53.2	-55.3	14.1	0.00e+00	0	27	0	506462208	72	4621
2026-01-05 21:44:55.26	65.33	15.44	-53.1	-55.2	14.2	0.00e+00	0	27	0	508559360	72	4563
2026-01-05 21:44:56.11	65.51	15.45	-53.1	-55.1	14.2	0.00e+00	0	26	0	510656512	72	4537
2026-01-05 21:44:57.26	65.76	15.47	-53.1	-55.1	14.2	0.00e+00	0	27	0	512753664	72	4537
2026-01-05 21:44:58.12	65.94	15.48	-53.0	-55.0	14.2	0.00e+00	0	27	0	513802240	72	4493
2026-01-05 21:44:59.26	66.19	15.49	-52.9	-54.9	14.3	0.00e+00	0	27	0	515899392	72	4423
2026-01-05 21:45:00.12	66.37	15.51	-52.9	-54.9	14.3	0.00e+00	0	26	0	517996544	72	4407
2026-01-05 21:45:01.26	66.61	15.52	-52.9	-54.9	14.3	0.00e+00	0	27	0	520093696	72	4428
2026-01-05 21:45:02.11	66.80	15.53	-53.0	-55.0	14.3	0.00e+00	0	27	0	521142272	72	4461
2026-01-05 21:45:03.26	67.04	15.54	-53.0	-55.0	14.3	0.00e+00	0	26	0	524288000	72	4485
2026-01-05 21:45:04.12	67.23	15.55	-53.0	-55.1	14.2	0.00e+00	0	27	0	525336576	72	4507
2026-01-05 21:45:05.27	67.47	15.57	-53.1	-55.1	14.2	0.00e+00	0	27	0	527433728	72	4544
2026-01-05 21:45:06.13	67.66	15.58	-53.1	-55.2	14.2	0.00e+00	0	27	0	529530880	72	4577
2026-01-05 21:45:07.27	67.90	15.59	-53.0	-55.1	14.2	0.00e+00	0	27	0	531628032	72	4502
2026-01-05 21:45:08.13	68.09	15.60	-53.2	-55.2	14.1	0.00e+00	0	27	0	532676608	72	4595
2026-01-05 21:45:09.28	68.33	15.61	-53.2	-55.2	14.1	0.00e+00	0	27	0	534773760	72	4595
2026-01-05 21:45:10.13	68.52	15.62	-53.1	-55.1	14.2	0.00e+00	0	27	0	536870912	72	4540
2026-01-05 21:45:11.28	68.76	15.63	-53.1	-55.1	14.3	0.00e+00	0	27	0	538968064	72	4514
2026-01-05 21:45:12.14	68.95	15.63	-52.9	-54.9	14.3	0.00e+00	0	27	0	540016640	72	4400
2026-01-05 21:45:13.28	69.20	15.64	-52.9	-54.9	14.3	0.00e+00	0	26	0	542113792	72	4422
2026-01-05 21:45:14.14	69.38	15.65	-52.9	-54.9	14.4	0.00e+00	0	27	0	544210944	72	4393
2026-01-05 21:45:15.29	69.63	15.66	-52.8	-54.8	14.4	0.00e+00	0	27	0	546308096	72	4351
2026-01-05 21:45:16.15	69.81	15.67	-52.8	-54.7	14.4	0.00e+00	0	27	0	547356672	72	4339
2026-01-05 21:45:17.30	70.06	15.67	-52.9	-54.9	14.3	0.00e+00	0	27	0	550502400	72	4431
2026-01-05 21:45:18.16	70.25	15.68	-52.8	-54.8	14.4	0.00e+00	0	27	0	551550976	72	4341
2026-01-05 21:45:19.30	70.50	15.69	-52.8	-54.8	14.4	0.00e+00	0	27	0	553648128	72	4356
2026-01-05 21:45:20.16	70.68	15.69	-52.9	-54.9	14.3	0.00e+00	0	27	0	555745280	72	4418
2026-01-05 21:45:21.30	70.93	15.70	-53.0	-55.0	14.3	0.00e+00	0	27	0	557842432	72	4471
2026-01-05 21:45:22.15	71.11	15.70	-53.1	-55.1	14.2	0.00e+00	0	26	0	558891008	72	4520
2026-01-05 21:45:23.28	71.36	15.71	-53.0	-55.1	14.2	0.00e+00	0	27	0	560988160	72	4496
2026-01-05 21:45:24.14	71.54	15.71	-53.1	-55.2	14.2	0.00e+00	0	27	0	563085312	72	4562
2026-01-05 21:45:25.29	71.79	15.71	-53.2	-55.3	14.1	0.00e+00	0	27	0	565182464	72	4600
2026-01-05 21:45:26.15	71.98	15.72	-53.0	-55.1	14.2	0.00e+00	0	27	0	566231040	72	4513
2026-01-05 21:45:27.29	72.23	15.72	-52.9	-54.9	14.3	0.00e+00	0	26	0	568328192	72	4409
2026-01-05 21:45:28.14	72.41	15.72	-52.7	-54.6	14.4	0.00e+00	0	27	0	570425344	72	4285
2026-01-05 21:45:29.28	72.66	15.73	-52.4	-54.3	14.5	0.00e+00	0	27	0	572522496	71	4369
2026-01-05 21:45:30.14	72.84	15.73	-52.4	-54.3	14.5	0.00e+00	0	27	0	574619648	71	4364
2026-01-05 21:45:31.28	73.09	15.73	-52.4	-54.3	14.5	0.00e+00	0	27	0	576716800	71	4354
2026-01-05 21:45:32.13	73.27	15.73	-52.5	-54.4	14.4	0.00e+00	0	27	0	577765376	71	4394
2026-01-05 21:45:33.27	73.52	15.73	-52.5	-54.3	14.5	0.00e+00	0	26	0	579862528	71	4387
2026-01-05 21:45:34.12	73.71	15.73	-52.5	-54.3	14.5	0.00e+00	0	26	0	581959680	71	4388
2026-01-05 21:45:35.26	73.95	15.73	-52.6	-54.5	14.4	0.00e+00	0	27	0	584056832	71	4452
2026-01-05 21:45:36.12	74.14	15.73	-52.7	-54.7	14.3	0.00e+00	0	26	0	585105408	71	4568
2026-01-05 21:45:37.26	74.39	15.73	-52.7	-54.7	14.3	0.00e+00	0	26	0	587202560	71	4551
2026-01-05 21:45:38.11	74.57	15.73	-52.7	-54.7	14.3	0.00e+00	0	26	0	589299712	71	4555
2026-01-05 21:45:39.25	74.82	15.73	-52.8	-54.8	14.2	0.00e+00	0	26	0	591396864	71	4626
2026-01-05 21:45:40.11	75.01	15.72	-52.9	-54.8	14.2	0.00e+00	0	27	0	592445440	71	4645
2026-01-05 21:45:41.25	75.25	15.72	-52.8	-54.8	14.3	0.00e+00	0	27	0	594542592	71	4600
2026-01-05 21:45:42.10	75.44	15.72	-52.7	-54.6	14.3	0.00e+00	0	27	0	596639744	71	4527
2026-01-05 21:45:43.24	75.68	15.72	-52.7	-54.6	14.3	0.00e+00	0	27	0	598736896	71	4537
2026-01-05 21:45:44.10	75.87	15.71	-52.6	-54.5	14.4	0.00e+00	0	27	0	599785472	71	4466
2026-01-05 21:45:45.23	76.12	15.71	-52.6	-54.5	14.4	0.00e+00	0	27	0	602931200	71	4465
2026-01-05 21:45:46.09	76.30	15.70	-52.6	-54.5	14.4	0.00e+00	0	27	0	603979776	71	4469
2026-01-05 21:45:47.22	76.55	15.70	-52.6	-54.5	14.4	0.00e+00	0	27	0	606076928	71	4455
2026-01-05 21:45:48.08	76.73	15.69	-52.4	-54.3	14.5	0.00e+00	0	27	0	608174080	71	4373
2026-01-05 21:45:49.22	76.98	15.69	-52.4	-54.3	14.5	0.00e+00	0	27	0	610271232	71	4353
2026-01-05 21:45:50.08	77.17	15.68	-52.5	-54.3	14.5	0.00e+00	0	27	0	611319808	71	4379
2026-01-05 21:45:51.22	77.41	15.68	-52.4	-54.2	14.5	0.00e+00	0	27	0	613416960	71	4334
2026-01-05 21:45:52.08	77.60	15.67	-52.4	-54.3	14.5	0.00e+00	0	27	0	615514112	71	4369
2026-01-05 21:45:53.22	77.84	15.66	-52.6	-54.4	14.4	0.00e+00	0	27	0	617611264	71	4439
2026-01-05 21:45:54.08	78.03	15.66	-52.7	-54.6	14.3	0.00e+00	0	27	0	618659840	71	4507
2026-01-05 21:45:55.22	78.28	15.65	-52.8	-54.8	14.3	0.00e+00	0	27	0	620756992	71	4603
2026-01-05 21:45:56.07	78.46	15.64	-52.8	-54.7	14.3	0.00e+00	0	27	0	622854144	71	4587
2026-01-05 21:45:57.22	78.71	15.63	-52.7	-54.7	14.3	0.00e+00	0	26	0	624951296	71	4579
2026-01-05 21:45:58.07	78.89	15.62	-52.7	-54.7	14.3	0.00e+00	0	27	0	627048448	71	4574
2026-01-05 21:45:59.20	79.13	15.61	-52.7	-54.6	14.3	0.00e+00	0	27	0	628097024	71	4532
2026-01-05 21:46:00.06	79.32	15.61	-52.7	-54.6	14.3	0.00e+00	0	27	0	630194176	71	4528
2026-01-05 21:46:01.19	79.56	15.59	-52.5	-54.4	14.4	0.00e+00	0	27	0	632291328	71	4440
2026-01-05 21:46:02.05	79.75	15.58	-52.5	-54.4	14.4	0.00e+00	0	27	0	634388480	71	4395
2026-01-05 21:46:03.20	79.99	15.57	-52.5	-54.4	14.4	0.00e+00	0	26	0	636485632	71	4396
2026-01-05 21:46:04.06	80.18	15.56	-52.5	-54.4	14.4	0.00e+00	0	27	0	637534208	71	4429
2026-01-05 21:46:05.21	80.43	15.55	-52.5	-54.5	14.4	0.00e+00	0	27	0	639631360	71	4442
2026-01-05 21:46:06.06	80.61	15.54	-52.6	-54.5	14.4	0.00e+00	0	27	0	641728512	71	4474
2026-01-05 21:46:07.21	80.85	15.53	-52.6	-54.5	14.3	0.00e+00	0	27	0	643825664	71	4470
2026-01-05 21:46:08.06	81.04	15.52	-52.4	-54.3	14.5	0.00e+00	0	27	0	644874240	71	4367
2026-01-05 21:46:09.21	81.28	15.50	-52.3	-54.2	14.5	0.00e+00	0	27	0	646971392	71	4311
2026-01-05 21:46:10.07	81.47	15.49	-52.4	-54.2	14.5	0.00e+00	0	27	0	649068544	71	4324
2026-01-05 21:46:11.20	81.71	15.47	-52.4	-54.2	14.5	0.00e+00	0	27	0	651165696	71	4328
2026-01-05 21:46:12.06	81.89	15.46	-52.3	-54.1	14.5	0.00e+00	0	27	0	653262848	71	4271
2026-01-05 21:46:13.21	82.14	15.44	-52.2	-54.0	14.6	0.00e+00	0	27	0	655360000	71	4240
2026-01-05 21:46:14.06	82.32	15.43	-52.1	-53.9	14.5	0.00e+00	0	27	0	656408576	70	4431
2026-01-05 21:46:15.20	82.56	15.41	-52.2	-54.0	14.5	0.00e+00	0	27	0	658505728	70	4454
2026-01-05 21:46:16.06	82.74	15.40	-52.3	-54.1	14.4	0.00e+00	0	27	0	660602880	70	4535
2026-01-05 21:46:17.20	82.98	15.38	-52.4	-54.2	14.4	0.00e+00	0	27	0	662700032	70	4576
2026-01-05 21:46:18.05	83.16	15.37	-52.4	-54.3	14.4	0.00e+00	0	27	0	663748608	70	4621
2026-01-05 21:46:19.20	83.41	15.35	-52.4	-54.3	14.4	0.00e+00	0	27	0	665845760	70	4619
2026-01-05 21:46:20.05	83.59	15.34	-52.5	-54.4	14.3	0.00e+00	0	27	0	667942912	70	4658
2026-01-05 21:46:21.19	83.83	15.32	-52.3	-54.2	14.4	0.00e+00	0	27	0	670040064	70	4580
2026-01-05 21:46:22.05	84.01	15.30	-52.3	-54.2	14.4	0.00e+00	0	27	0	671088640	70	4577
2026-01-05 21:46:23.19	84.25	15.28	-52.4	-54.2	14.4	0.00e+00	0	27	0	673185792	70	4592
2026-01-05 21:46:24.05	84.43	15.27	-52.2	-54.0	14.5	0.00e+00	0	27	0	675282944	70	4478
2026-01-05 21:46:25.20	84.67	15.24	-52.2	-54.0	14.5	0.00e+00	0	26	0	677380096	70	4464
2026-01-05 21:46:26.06	84.86	15.23	-52.2	-54.0	14.5	0.00e+00	0	26	0	679477248	70	4479
2026-01-05 21:46:27.21	85.10	15.21	-52.1	-53.9	14.5	0.00e+00	0	27	0	681574400	70	4426
2026-01-05 21:46:28.07	85.28	15.19	-52.0	-53.8	14.6	0.00e+00	0	26	0	682622976	70	4346
2026-01-05 21:46:29.20	85.51	15.17	-52.0	-53.7	14.6	0.00e+00	0	27	0	684720128	70	4340
2026-01-05 21:46:30.06	85.69	15.15	-51.9	-53.7	14.6	0.00e+00	0	26	0	686817280	70	4301
2026-01-05 21:46:31.20	85.93	15.12	-52.0	-53.8	14.6	0.00e+00	0	27	0	688914432	70	4374
2026-01-05 21:46:32.06	86.11	15.11	-52.1	-53.9	14.5	0.00e+00	0	26	0	689963008	70	4418
2026-01-05 21:46:33.20	86.35	15.08	-52.2	-54.1	14.4	0.00e+00	0	27	0	692060160	70	4512
2026-01-05 21:46:34.06	86.53	15.06	-52.3	-54.1	14.4	0.00e+00	0	27	0	694157312	70	4521
2026-01-05 21:46:35.20	86.76	15.04	-52.3	-54.1	14.4	0.00e+00	0	27	0	696254464	70	4543
2026-01-05 21:46:36.06	86.94	15.02	-52.2	-54.1	14.5	0.00e+00	0	27	0	697303040	70	4494
2026-01-05 21:46:37.21	87.18	14.99	-52.0	-53.8	14.6	0.00e+00	0	27	0	700448768	70	4347
2026-01-05 21:46:38.07	87.36	14.97	-52.0	-53.8	14.6	0.00e+00	0	26	0	701497344	70	4344
2026-01-05 21:46:39.21	87.59	14.95	-51.9	-53.6	14.7	0.00e+00	0	27	0	703594496	70	4269
2026-01-05 21:46:40.06	87.77	14.93	-51.9	-53.7	14.6	0.00e+00	0	27	0	705691648	70	4326
2026-01-05 21:46:41.20	88.00	14.90	-51.7	-53.4	14.7	0.00e+00	0	26	0	707788800	70	4171
2026-01-05 21:46:42.05	88.18	14.88	-51.5	-53.2	14.7	0.00e+00	0	27	0	708837376	69	4330
2026-01-05 21:46:43.20	88.41	14.85	-51.5	-53.2	14.7	0.00e+00	0	27	0	710934528	69	4317
2026-01-05 21:46:44.05	88.59	14.83	-51.4	-53.1	14.8	0.00e+00	0	27	0	713031680	69	4251
2026-01-05 21:46:45.19	88.82	14.80	-51.4	-53.1	14.8	0.00e+00	0	27	0	715128832	69	4265
2026-01-05 21:46:46.04	89.00	14.78	-51.5	-53.2	14.7	0.00e+00	0	27	0	716177408	69	4315
2026-01-05 21:46:47.18	89.23	14.75	-51.5	-53.2	14.7	0.00e+00	0	27	0	718274560	69	4325
2026-01-05 21:46:48.03	89.40	14.73	-51.6	-53.3	14.6	0.00e+00	0	27	0	720371712	69	4388
2026-01-05 21:46:49.18	89.64	14.70	-51.6	-53.3	14.6	0.00e+00	0	26	0	722468864	69	4391
2026-01-05 21:46:50.02	89.81	14.67	-51.7	-53.4	14.6	0.00e+00	0	27	0	723517440	69	4411
2026-01-05 21:46:51.16	90.04	14.64	-51.8	-53.5	14.6	0.00e+00	0	27	0	725614592	69	4480
2026-01-05 21:46:52.01	90.21	14.62	-51.8	-53.5	14.6	0.00e+00	0	27	0	727711744	69	4475
2026-01-05 21:46:53.16	90.44	14.59	-51.9	-53.7	14.5	0.00e+00	0	27	0	729808896	69	4564
2026-01-05 21:46:54.01	90.61	14.56	-51.9	-53.7	14.5	0.00e+00	0	27	0	731906048	69	4580
2026-01-05 21:46:55.15	90.84	14.53	-51.9	-53.7	14.5	0.00e+00	0	27	0	734003200	69	4567
2026-01-05 21:46:56.01	91.01	14.51	-52.0	-53.8	14.5	0.00e+00	0	26	0	735051776	69	4601
2026-01-05 21:46:57.15	91.24	14.47	-51.9	-53.6	14.5	0.00e+00	0	26	0	737148928	69	4535
2026-01-05 21:46:58.01	91.41	14.45	-51.6	-53.3	14.6	0.00e+00	0	27	0	739246080	69	4387
2026-01-05 21:46:59.15	91.64	14.42	-51.6	-53.3	14.7	0.00e+00	0	27	0	741343232	69	4367
2026-01-05 21:47:00.01	91.81	14.39	-51.6	-53.3	14.6	0.00e+00	0	27	0	742391808	69	4363
2026-01-05 21:47:01.15	92.04	14.36	-51.5	-53.1	14.7	0.00e+00	0	27	0	744488960	69	4289
2026-01-05 21:47:02.01	92.21	14.33	-51.5	-53.2	14.7	0.00e+00	0	27	0	746586112	69	4309
2026-01-05 21:47:03.15	92.44	14.30	-51.6	-53.3	14.6	0.00e+00	0	27	0	748683264	69	4351
2026-01-05 21:47:04.00	92.60	14.27	-51.5	-53.2	14.7	0.00e+00	0	27	0	749731840	69	4293
2026-01-05 21:47:05.13	92.83	14.23	-51.5	-53.2	14.7	0.00e+00	0	27	0	751828992	69	4309
2026-01-05 21:47:05.99	93.00	14.21	-51.6	-53.3	14.7	0.00e+00	0	26	0	753926144	69	4352
2026-01-05 21:47:07.12	93.22	14.17	-51.7	-53.5	14.6	0.00e+00	0	27	0	756023296	69	4452
2026-01-05 21:47:07.97	93.38	14.14	-51.8	-53.6	14.5	0.00e+00	0	27	0	757071872	69	4523
2026-01-05 21:47:09.11	93.61	14.11	-51.9	-53.7	14.5	0.00e+00	0	27	0	760217600	69	4585
2026-01-05 21:47:09.97	93.77	14.08	-52.1	-53.9	14.4	0.00e+00	0	27	0	761266176	69	4695
2026-01-05 21:47:11.11	94.00	14.04	-52.1	-54.0	14.4	0.00e+00	0	27	0	763363328	69	4723
2026-01-05 21:47:11.97	94.16	14.01	-52.2	-54.0	14.3	0.00e+00	0	27	0	765460480	69	4739
2026-01-05 21:47:13.11	94.39	13.98	-52.2	-54.1	14.3	0.00e+00	0	27	0	767557632	69	4763
2026-01-05 21:47:13.96	94.55	13.95	-52.3	-54.2	14.3	0.00e+00	0	27	0	768606208	69	4819
2026-01-05 21:47:15.09	94.77	13.91	-52.2	-54.1	14.3	0.00e+00	0	27	0	770703360	69	4760
2026-01-05 21:47:15.94	94.93	13.88	-52.1	-54.0	14.4	0.00e+00	0	27	0	772800512	69	4729
2026-01-05 21:47:17.08	95.15	13.84	-52.2	-54.1	14.3	0.00e+00	0	27	0	774897664	69	4770
2026-01-05 21:47:17.93	95.31	13.81	-52.3	-54.2	14.3	0.00e+00	0	26	0	775946240	69	4828
2026-01-05 21:47:19.08	95.53	13.77	-52.3	-54.2	14.2	0.00e+00	0	27	0	778043392	69	4864
2026-01-05 21:47:19.94	95.70	13.74	-52.4	-54.3	14.2	0.00e+00	0	27	0	780140544	69	4881
2026-01-05 21:47:21.09	95.92	13.70	-52.3	-54.2	14.3	0.00e+00	0	27	0	782237696	69	4817
2026-01-05 21:47:21.94	96.08	13.67	-52.2	-54.1	14.3	0.00e+00	0	27	0	783286272	69	4797
2026-01-05 21:47:23.08	96.30	13.63	-52.3	-54.2	14.3	0.00e+00	0	27	0	785383424	69	4816
2026-01-05 21:47:23.94	96.46	13.60	-52.4	-54.3	14.2	0.00e+00	0	27	0	787480576	69	4874
2026-01-05 21:47:25.08	96.67	13.56	-52.3	-54.1	14.3	0.00e+00	0	27	0	789577728	69	4812
2026-01-05 21:47:25.93	96.83	13.53	-52.5	-54.4	14.3	0.00e+00	0	27	0	791674880	70	4673
2026-01-05 21:47:27.08	97.05	13.49	-52.5	-54.5	14.2	0.00e+00	0	26	0	793772032	70	4713
2026-01-05 21:47:27.93	97.21	13.46	-52.7	-54.7	14.2	0.00e+00	0	26	0	794820608	70	4844
2026-01-05 21:47:29.06	97.42	13.41	-52.9	-55.0	14.0	0.00e+00	0	27	0	796917760	70	4997
2026-01-05 21:47:29.92	97.58	13.38	-53.1	-55.3	14.0	0.00e+00	0	27	0	799014912	71	4896
2026-01-05 21:47:31.06	97.79	13.34	-53.3	-55.6	13.8	0.00e+00	0	27	0	801112064	71	5054
2026-01-05 21:47:31.92	97.95	13.31	-53.6	-55.9	13.8	0.00e+00	0	26	0	802160640	72	4949
2026-01-05 21:47:33.05	98.16	13.26	-53.8	-56.2	13.6	0.00e+00	0	27	0	804257792	72	5111
2026-01-05 21:47:33.91	98.32	13.23	-53.9	-56.4	13.5	0.00e+00	0	26	0	806354944	72	5230
2026-01-05 21:47:35.05	98.53	13.19	-54.0	-56.5	13.6	0.00e+00	0	26	0	808452096	73	4995
2026-01-05 21:47:35.91	98.69	13.15	-54.0	-56.5	13.6	0.00e+00	0	27	0	809500672	73	5009
2026-01-05 21:47:37.05	98.90	13.11	-54.0	-56.5	13.6	0.00e+00	0	26	0	811597824	73	5020
2026-01-05 21:47:37.90	99.05	13.08	-54.1	-56.6	13.5	0.00e+00	0	27	0	813694976	73	5072
2026-01-05 21:47:39.05	99.26	13.03	-54.2	-56.8	13.4	0.00e+00	0	27	0	815792128	73	5163
2026-01-05 21:47:39.90	99.42	13.00	-54.2	-56.8	13.4	0.00e+00	0	27	0	817889280	73	5185
2026-01-05 21:47:41.04	99.62	12.95	-54.3	-57.0	13.3	0.00e+00	0	27	0	819986432	73	5287
2026-01-05 21:47:41.90	99.78	12.92	-54.2	-56.8	13.4	0.00e+00	0	27	0	821035008	73	5215
2026-01-05 21:47:43.04	99.99	12.87	-54.2	-56.8	13.4	0.00e+00	0	27	0	823132160	73	5208
2026-01-05 21:47:43.88	100.14	12.84	-54.0	-56.6	13.5	0.00e+00	0	27	0	825229312	73	5044
2026-01-05 21:47:45.03	100.34	12.79	-53.9	-56.4	13.6	0.00e+00	0	27	0	827326464	73	4947
2026-01-05 21:47:45.88	100.50	12.76	-53.8	-56.2	13.7	0.00e+00	0	27	0	828375040	73	4816
2026-01-05 21:47:47.02	100.70	12.71	-53.6	-56.0	13.9	0.00e+00	0	26	0	830472192	73	4707
2026-01-05 21:47:47.87	100.85	12.68	-53.5	-55.8	13.9	0.00e+00	0	27	0	832569344	73	4631
2026-01-05 21:47:49.01	101.05	12.63	-53.6	-55.8	13.9	0.00e+00	0	26	0	834666496	73	4644
2026-01-05 21:47:49.87	101.21	12.60	-53.5	-55.8	13.9	0.00e+00	0	26	0	835715072	73	4628
2026-01-05 21:47:51.01	101.41	12.55	-53.6	-55.8	13.9	0.00e+00	0	26	0	837812224	73	4642
2026-01-05 21:47:51.87	101.56	12.51	-53.7	-56.0	13.8	0.00e+00	0	27	0	839909376	73	4716
2026-01-05 21:47:53.01	101.76	12.47	-53.8	-56.2	13.7	0.00e+00	0	27	0	842006528	73	4842
2026-01-05 21:47:53.86	101.91	12.43	-53.9	-56.4	13.6	0.00e+00	0	27	0	844103680	73	4935
2026-01-05 21:47:55.01	102.11	12.38	-54.1	-56.6	13.5	0.00e+00	0	27	0	846200832	73	5065
2026-01-05 21:47:55.86	102.26	12.35	-54.2	-56.8	13.4	0.00e+00	0	27	0	847249408	73	5168
2026-01-05 21:47:57.00	102.46	12.30	-54.3	-56.9	13.3	0.00e+00	0	27	0	849346560	73	5242
2026-01-05 21:47:57.86	102.61	12.26	-54.4	-57.1	13.2	0.00e+00	0	27	0	851443712	73	5355
2026-01-05 21:47:59.00	102.80	12.21	-54.4	-57.1	13.2	0.00e+00	0	26	0	853540864	73	5345
2026-01-05 21:47:59.86	102.95	12.18	-54.3	-57.0	13.3	0.00e+00	0	27	0	854589440	73	5290
2026-01-05 21:48:01.00	103.15	12.13	-54.3	-57.0	13.3	0.00e+00	0	27	0	856686592	73	5288
2026-01-05 21:48:01.85	103.29	12.09	-54.1	-56.6	13.5	0.00e+00	0	27	0	858783744	73	5060
2026-01-05 21:48:02.99	103.49	12.04	-53.9	-56.4	13.6	0.00e+00	0	27	0	860880896	73	4952
2026-01-05 21:48:03.85	103.63	12.00	-53.9	-56.3	13.6	0.00e+00	0	27	0	861929472	73	4918
2026-01-05 21:48:04.99	103.83	11.95	-53.8	-56.1	13.8	0.00e+00	0	27	0	864026624	73	4801
2026-01-05 21:48:05.85	103.97	11.92	-53.8	-56.1	13.7	0.00e+00	0	27	0	866123776	73	4806
2026-01-05 21:48:06.99	104.17	11.87	-53.8	-56.2	13.7	0.00e+00	0	27	0	868220928	73	4858
2026-01-05 21:48:07.84	104.31	11.83	-53.9	-56.4	13.6	0.00e+00	0	27	0	870318080	73	4927
2026-01-05 21:48:08.99	104.50	11.78	-53.9	-56.4	13.6	0.00e+00	0	27	0	872415232	73	4958
2026-01-05 21:48:09.84	104.65	11.74	-53.9	-56.3	13.7	0.00e+00	0	27	0	873463808	73	4900
2026-01-05 21:48:10.98	104.84	11.69	-53.6	-55.9	13.9	0.00e+00	0	27	0	875560960	73	4672
2026-01-05 21:48:11.83	104.98	11.65	-53.5	-55.7	14.0	0.00e+00	0	27	0	877658112	73	4569
2026-01-05 21:48:12.97	105.17	11.60	-53.4	-55.6	14.0	0.00e+00	0	26	0	879755264	73	4531
2026-01-05 21:48:13.82	105.31	11.56	-53.3	-55.5	14.1	0.00e+00	0	27	0	880803840	73	4470
2026-01-05 21:48:14.94	105.49	11.51	-53.1	-55.2	14.1	0.00e+00	0	27	0	882900992	72	4563
2026-01-05 21:48:15.80	105.63	11.47	-53.0	-55.1	14.2	0.00e+00	0	27	0	884998144	72	4512
2026-01-05 21:48:16.94	105.82	11.42	-53.0	-55.1	14.2	0.00e+00	0	26	0	887095296	72	4506
2026-01-05 21:48:17.80	105.96	11.38	-53.1	-55.2	14.1	0.00e+00	0	27	0	888143872	72	4571
2026-01-05 21:48:18.93	106.15	11.33	-53.1	-55.3	14.1	0.00e+00	0	27	0	890241024	72	4609
2026-01-05 21:48:19.79	106.29	11.29	-53.3	-55.5	14.0	0.00e+00	0	27	0	892338176	72	4733
2026-01-05 21:48:20.92	106.47	11.24	-53.3	-55.5	14.0	0.00e+00	0	27	0	894435328	72	4741
2026-01-05 21:48:21.78	106.61	11.20	-53.5	-55.7	13.9	0.00e+00	0	27	0	895483904	72	4844
2026-01-05 21:48:22.92	106.79	11.15	-53.6	-55.9	13.8	0.00e+00	0	27	0	898629632	72	4933
2026-01-05 21:48:23.78	106.93	11.11	-53.6	-55.9	13.8	0.00e+00	0	27	0	899678208	72	4936
2026-01-05 21:48:24.92	107.11	11.06	-53.5	-55.8	13.8	0.00e+00	0	27	0	901775360	72	4902
2026-01-05 21:48:25.78	107.25	11.02	-53.6	-55.9	13.8	0.00e+00	0	27	0	903872512	72	4928
2026-01-05 21:48:26.92	107.43	10.96	-53.6	-55.9	13.7	0.00e+00	0	27	0	905969664	72	4961
2026-01-05 21:48:27.78	107.57	10.92	-53.6	-55.9	13.7	0.00e+00	0	27	0	907018240	72	4968
2026-01-05 21:48:28.92	107.75	10.87	-53.6	-55.8	13.8	0.00e+00	0	27	0	909115392	72	4923
2026-01-05 21:48:29.78	107.89	10.83	-53.6	-55.9	13.7	0.00e+00	0	26	0	911212544	72	4974
2026-01-05 21:48:30.92	108.07	10.78	-53.5	-55.8	13.8	0.00e+00	0	26	0	913309696	72	4891
2026-01-05 21:48:31.78	108.20	10.74	-53.4	-55.7	13.9	0.00e+00	0	27	0	914358272	72	4842
2026-01-05 21:48:32.93	108.38	10.68	-53.5	-55.7	13.9	0.00e+00	0	27	0	916455424	72	4855
2026-01-05 21:48:33.79	108.51	10.64	-53.1	-55.3	14.1	0.00e+00	0	27	0	918552576	72	4604
2026-01-05 21:48:34.92	108.69	10.59	-52.6	-54.6	14.3	0.00e+00	0	27	0	920649728	71	4518
2026-01-05 21:48:35.78	108.82	10.55	-52.6	-54.5	14.3	0.00e+00	0	27	0	921698304	71	4470
2026-01-05 21:48:36.92	109.00	10.49	-52.5	-54.4	14.4	0.00e+00	0	27	0	924844032	71	4436
2026-01-05 21:48:37.78	109.13	10.45	-52.6	-54.5	14.3	0.00e+00	0	27	0	925892608	71	4485
2026-01-05 21:48:38.92	109.31	10.40	-52.6	-54.6	14.3	0.00e+00	0	27	0	927989760	71	4528
2026-01-05 21:48:39.78	109.44	10.36	-52.7	-54.7	14.2	0.00e+00	0	27	0	930086912	71	4569
2026-01-05 21:48:40.92	109.61	10.30	-52.9	-54.9	14.1	0.00e+00	0	27	0	932184064	71	4699
2026-01-05 21:48:41.77	109.74	10.26	-53.0	-55.1	14.1	0.00e+00	0	27	0	933232640	71	4769
2026-01-05 21:48:42.91	109.91	10.21	-53.1	-55.2	14.0	0.00e+00	0	27	0	935329792	71	4849
2026-01-05 21:48:43.77	110.04	10.17	-53.1	-55.2	14.0	0.00e+00	0	27	0	937426944	71	4870
2026-01-05 21:48:44.91	110.22	10.11	-53.1	-55.2	14.0	0.00e+00	0	27	0	939524096	71	4856
2026-01-05 21:48:45.76	110.34	10.07	-53.0	-55.1	14.0	0.00e+00	0	27	0	940572672	71	4811
2026-01-05 21:48:46.91	110.52	10.01	-53.0	-55.1	14.0	0.00e+00	0	27	0	942669824	71	4777
2026-01-05 21:48:47.76	110.64	9.97	-53.0	-55.2	14.0	0.00e+00	0	27	0	944766976	71	4815
2026-01-05 21:48:48.90	110.81	9.92	-52.9	-55.1	14.1	0.00e+00	0	27	0	946864128	71	4760
2026-01-05 21:48:49.75	110.94	9.88	-52.9	-54.9	14.1	0.00e+00	0	27	0	947912704	71	4694
2026-01-05 21:48:50.90	111.11	9.82	-52.9	-55.0	14.1	0.00e+00	0	27	0	950009856	71	4711
2026-01-05 21:48:51.76	111.23	9.78	-53.0	-55.1	14.0	0.00e+00	0	27	0	952107008	71	4801
2026-01-05 21:48:52.89	111.40	9.72	-53.0	-55.2	14.0	0.00e+00	0	27	0	954204160	71	4817
2026-01-05 21:48:53.75	111.53	9.68	-53.0	-55.2	14.0	0.00e+00	0	27	0	956301312	71	4844
2026-01-05 21:48:54.89	111.69	9.63	-53.1	-55.2	14.0	0.00e+00	0	27	0	958398464	71	4866
2026-01-05 21:48:55.74	111.82	9.59	-53.0	-55.2	14.0	0.00e+00	0	27	0	959447040	71	4823
2026-01-05 21:48:56.88	111.98	9.53	-53.0	-55.2	14.0	0.00e+00	0	27	0	961544192	71	4819
2026-01-05 21:48:57.74	112.11	9.49	-53.0	-55.1	14.0	0.00e+00	0	27	0	963641344	71	4784
2026-01-05 21:48:58.88	112.27	9.43	-52.9	-55.1	14.0	0.00e+00	0	27	0	965738496	71	4767
2026-01-05 21:48:59.74	112.39	9.39	-52.7	-54.7	14.2	0.00e+00	0	27	0	966787072	71	4592
2026-01-05 21:49:00.87	112.55	9.33	-52.7	-54.8	14.2	0.00e+00	0	27	0	968884224	71	4609
2026-01-05 21:49:01.73	112.68	9.29	-52.8	-54.9	14.1	0.00e+00	0	27	0	970981376	71	4681
2026-01-05 21:49:02.86	112.84	9.24	-52.8	-54.9	14.1	0.00e+00	0	27	0	973078528	71	4692
2026-01-05 21:49:03.71	112.96	9.19	-53.0	-55.1	14.0	0.00e+00	0	26	0	974127104	71	4789
2026-01-05 21:49:04.85	113.12	9.14	-52.9	-55.0	14.0	0.00e+00	0	26	0	976224256	71	4755
2026-01-05 21:49:05.71	113.24	9.09	-53.1	-55.3	13.9	0.00e+00	0	26	0	978321408	71	4892
2026-01-05 21:49:06.84	113.40	9.04	-53.1	-55.4	13.8	0.00e+00	0	27	0	980418560	71	4948
2026-01-05 21:49:07.69	113.52	9.00	-53.1	-55.3	13.9	0.00e+00	0	27	0	982515712	71	4912
2026-01-05 21:49:08.84	113.68	8.94	-53.1	-55.4	13.9	0.00e+00	0	27	0	984612864	71	4935
2026-01-05 21:49:09.69	113.80	8.90	-53.0	-55.2	14.0	0.00e+00	0	27	0	985661440	71	4829
2026-01-05 21:49:10.83	113.95	8.84	-52.9	-55.1	14.0	0.00e+00	0	27	0	987758592	71	4769
2026-01-05 21:49:11.68	114.07	8.80	-52.8	-54.9	14.1	0.00e+00	0	27	0	989855744	71	4693
2026-01-05 21:49:12.82	114.23	8.74	-52.7	-54.8	14.1	0.00e+00	0	27	0	991952896	71	4647
2026-01-05 21:49:13.68	114.35	8.70	-52.8	-55.0	14.1	0.00e+00	0	27	0	993001472	71	4714
2026-01-05 21:49:14.83	114.50	8.64	-53.0	-55.1	14.0	0.00e+00	0	26	0	995098624	71	4808
2026-01-05 21:49:15.69	114.62	8.60	-52.8	-54.9	14.1	0.00e+00	0	27	0	997195776	71	4662
2026-01-05 21:49:16.82	114.78	8.54	-52.9	-55.0	14.0	0.00e+00	0	27	0	999292928	71	4754
2026-01-05 21:49:17.68	114.89	8.50	-53.0	-55.2	13.9	0.00e+00	0	27	0	1000341504	71	4840
2026-01-05 21:49:18.81	115.04	8.44	-53.2	-55.4	13.8	0.00e+00	0	27	0	1002438656	71	4979
2026-01-05 21:49:19.67	115.16	8.40	-53.3	-55.7	13.7	0.00e+00	0	26	0	1004535808	71	5120
2026-01-05 21:49:20.81	115.31	8.34	-53.3	-55.6	13.7	0.00e+00	0	27	0	1006632960	71	5049
2026-01-05 21:49:21.66	115.43	8.30	-53.3	-55.7	13.7	0.00e+00	0	26	0	1008730112	71	5107
2026-01-05 21:49:22.81	115.58	8.24	-53.3	-55.7	13.7	0.00e+00	0	27	0	1010827264	71	5105
2026-01-05 21:49:23.66	115.69	8.20	-53.2	-55.5	13.7	0.00e+00	0	26	0	1011875840	71	5028
2026-01-05 21:49:24.80	115.84	8.14	-53.0	-55.3	13.9	0.00e+00	0	27	0	1013972992	71	4880
2026-01-05 21:49:25.65	115.96	8.10	-52.9	-55.1	14.0	0.00e+00	0	27	0	1016070144	71	4798
2026-01-05 21:49:26.80	116.11	8.04	-52.9	-55.2	13.9	0.00e+00	0	27	0	1018167296	71	4816
2026-01-05 21:49:27.64	116.22	8.00	-53.0	-55.2	13.9	0.00e+00	0	27	0	1019215872	71	4854
2026-01-05 21:49:28.78	116.37	7.94	-53.0	-55.2	13.9	0.00e+00	0	27	0	1021313024	71	4858
2026-01-05 21:49:29.64	116.48	7.90	-53.1	-55.3	13.8	0.00e+00	0	27	0	1023410176	71	4910
2026-01-05 21:49:30.78	116.62	7.84	-53.1	-55.4	13.8	0.00e+00	0	27	0	1025507328	71	4931
2026-01-05 21:49:31.64	116.74	7.80	-53.1	-55.5	13.7	0.00e+00	0	27	0	1026555904	71	4989
2026-01-05 21:49:32.78	116.88	7.74	-53.3	-55.7	13.6	0.00e+00	0	27	0	1028653056	71	5127
2026-01-05 21:49:33.64	116.99	7.70	-53.3	-55.7	13.6	0.00e+00	0	26	0	1030750208	71	5140
2026-01-05 21:49:34.78	117.14	7.64	-53.4	-55.8	13.6	0.00e+00	0	27	0	1032847360	71	5199
2026-01-05 21:49:35.64	117.25	7.60	-53.5	-55.9	13.6	0.00e+00	0	27	0	1034944512	72	4965
2026-01-05 21:49:36.78	117.39	7.54	-53.5	-56.1	13.5	0.00e+00	0	27	0	1037041664	72	5044
2026-01-05 21:49:37.63	117.50	7.50	-53.5	-56.0	13.5	0.00e+00	0	27	0	1038090240	72	4998
2026-01-05 21:49:38.78	117.65	7.44	-53.5	-56.1	13.5	0.00e+00	0	27	0	1040187392	72	5055
2026-01-05 21:49:39.63	117.75	7.40	-53.3	-55.8	13.7	0.00e+00	0	27	0	1042284544	72	4887
2026-01-05 21:49:40.78	117.90	7.34	-53.4	-55.8	13.6	0.00e+00	0	26	0	1044381696	72	4893
2026-01-05 21:49:41.63	118.00	7.29	-53.5	-56.0	13.6	0.00e+00	0	27	0	1045430272	72	4992
2026-01-05 21:49:42.78	118.15	7.24	-53.4	-55.9	13.6	0.00e+00	0	27	0	1047527424	72	4944
2026-01-05 21:49:43.63	118.25	7.19	-53.4	-55.8	13.6	0.00e+00	0	27	0	1049624576	72	4924
2026-01-05 21:49:44.77	118.39	7.14	-53.5	-56.1	13.5	0.00e+00	0	27	0	1051721728	72	5075
2026-01-05 21:49:45.63	118.50	7.09	-53.6	-56.2	13.4	0.00e+00	0	27	0	1052770304	72	5151
2026-01-05 21:49:46.77	118.64	7.03	-53.6	-56.3	13.4	0.00e+00	0	27	0	1054867456	72	5168
2026-01-05 21:49:47.62	118.75	6.99	-53.7	-56.3	13.3	0.00e+00	0	27	0	1056964608	72	5193
2026-01-05 21:49:48.77	118.89	6.93	-53.7	-56.3	13.3	0.00e+00	0	27	0	1059061760	72	5189
2026-01-05 21:49:49.63	118.99	6.89	-53.7	-56.4	13.3	0.00e+00	0	27	0	1061158912	72	5222
2026-01-05 21:49:50.77	119.13	6.83	-53.8	-56.5	13.2	0.00e+00	0	27	0	1063256064	72	5289
2026-01-05 21:49:51.63	119.23	6.79	-53.7	-56.4	13.3	0.00e+00	0	27	0	1064304640	72	5249
2026-01-05 21:49:52.77	119.37	6.73	-53.7	-56.4	13.3	0.00e+00	0	27	0	1066401792	72	5231
2026-01-05 21:49:53.62	119.47	6.69	-53.7	-56.4	13.3	0.00e+00	0	27	0	1068498944	72	5243
2026-01-05 21:49:54.76	119.61	6.63	-53.6	-56.3	13.3	0.00e+00	0	27	0	1070596096	72	5171
2026-01-05 21:49:55.61	119.71	6.59	-53.7	-56.4	13.2	0.00e+00	0	27	0	1071644672	72	5263
2026-01-05 21:49:56.75	119.85	6.53	-53.6	-56.3	13.3	0.00e+00	0	27	0	1073741824	72	5173
2026-01-05 21:49:57.60	119.95	6.49	-53.7	-56.3	13.3	0.00e+00	0	27	0	1075838976	72	5216
2026-01-05 21:49:58.74	120.08	6.43	-53.9	-56.6	13.1	0.00e+00	0	27	0	1077936128	72	5385
2026-01-05 21:49:59.59	120.18	6.38	-53.9	-56.6	13.1	0.00e+00	0	27	0	1078984704	72	5398
2026-01-05 21:50:00.73	120.32	6.33	-53.9	-56.6	13.2	0.00e+00	0	27	0	1081081856	73	5089
2026-01-05 21:50:01.59	120.42	6.28	-54.0	-56.9	13.0	0.00e+00	0	27	0	1083179008	73	5233
2026-01-05 21:50:02.73	120.55	6.23	-54.0	-56.9	13.0	0.00e+00	0	27	0	1085276160	73	5244
2026-01-05 21:50:03.59	120.65	6.18	-54.0	-57.0	13.0	0.00e+00	0	27	0	1086324736	73	5290
2026-01-05 21:50:04.73	120.78	6.12	-54.1	-57.1	12.9	0.00e+00	0	27	0	1089470464	73	5364
2026-01-05 21:50:05.58	120.88	6.08	-54.1	-57.1	12.9	0.00e+00	0	27	0	1090519040	73	5389
2026-01-05 21:50:06.72	121.01	6.02	-54.0	-56.9	13.0	0.00e+00	0	27	0	1092616192	73	5227
2026-01-05 21:50:07.57	121.11	5.98	-54.0	-56.9	13.0	0.00e+00	0	27	0	1094713344	73	5245
2026-01-05 21:50:08.71	121.24	5.92	-54.0	-56.9	13.0	0.00e+00	0	27	0	1096810496	73	5274
2026-01-05 21:50:09.56	121.34	5.88	-53.8	-56.7	13.1	0.00e+00	0	27	0	1097859072	73	5115
2026-01-05 21:50:10.69	121.46	5.82	-53.8	-56.6	13.2	0.00e+00	0	27	0	1099956224	73	5064
2026-01-05 21:50:11.55	121.56	5.78	-53.8	-56.5	13.2	0.00e+00	0	27	0	1102053376	73	5026
2026-01-05 21:50:12.69	121.69	5.72	-53.8	-56.6	13.2	0.00e+00	0	27	0	1104150528	73	5045
2026-01-05 21:50:13.55	121.79	5.68	-53.7	-56.4	13.2	0.00e+00	0	27	0	1105199104	73	4972
2026-01-05 21:50:14.69	121.91	5.62	-53.8	-56.6	13.2	0.00e+00	0	27	0	1107296256	73	5059
2026-01-05 21:50:15.54	122.01	5.58	-53.9	-56.8	13.0	0.00e+00	0	27	0	1109393408	73	5176
2026-01-05 21:50:16.68	122.14	5.52	-53.9	-56.9	13.0	0.00e+00	0	27	0	1111490560	73	5224
2026-01-05 21:50:17.53	122.23	5.48	-54.0	-56.9	12.9	0.00e+00	0	27	0	1112539136	73	5250
2026-01-05 21:50:18.67	122.36	5.42	-54.1	-57.2	12.8	0.00e+00	0	27	0	1114636288	73	5441
2026-01-05 21:50:19.53	122.45	5.37	-54.2	-57.3	12.7	7.00e-07	0	27	0	1116733440	73	5523
2026-01-05 21:50:20.66	122.57	5.32	-54.2	-57.3	12.7	0.00e+00	0	27	0	1118830592	73	5467
2026-01-05 21:50:21.51	122.67	5.27	-54.1	-57.3	12.7	0.00e+00	0	27	0	1120927744	73	5468
2026-01-05 21:50:22.65	122.79	5.22	-54.1	-57.3	12.7	0.00e+00	0	27	0	1123024896	73	5473
2026-01-05 21:50:23.51	122.89	5.17	-54.2	-57.4	12.6	0.00e+00	0	27	0	1124073472	73	5542
2026-01-05 21:50:24.66	123.01	5.11	-54.3	-57.6	12.4	0.00e+00	0	27	0	1126170624	73	5683
2026-01-05 21:50:25.51	123.10	5.07	-54.2	-57.4	12.5	0.00e+00	0	27	0	1128267776	73	5592
2026-01-05 21:50:26.66	123.23	5.01	-57.6	-67.3	5.9	1.09e-04	0	27	0	1130364928	80	11597
2026-01-05 21:50:27.51	123.32	4.97	-58.4	-74.4	3.8	1.49e+00	0	27	104	1130364928	81	24787
2026-01-05 21:50:28.65	123.44	4.91	-58.7	-74.7	3.8	1.49e+00	0	27	104	1130364928	82	24202
2026-01-05 21:50:29.51	123.53	4.87	-59.0	-75.0	3.9	1.49e+00	0	27	104	1130364928	83	23696
2026-01-05 21:50:30.65	123.65	4.81	-59.2	-75.2	3.8	1.49e+00	0	27	104	1130364928	83	24364
2026-01-05 21:50:31.51	123.74	4.77	-59.3	-75.4	3.8	1.49e+00	0	27	104	1130364928	83	24701
2026-01-05 21:50:32.65	123.86	4.71	-59.6	-75.7	3.8	1.49e+00	0	27	104	1130364928	84	24189
2026-01-05 21:50:33.50	123.95	4.67	-59.7	-75.8	3.8	1.49e+00	0	27	104	1130364928	84	24442
2026-01-05 21:50:34.64	124.07	4.61	-59.8	-75.9	3.8	1.49e+00	0	27	104	1130364928	84	24751
2026-01-05 21:50:35.49	124.16	4.57	-59.9	-75.9	3.8	1.49e+00	0	27	104	1130364928	84	24957
2026-01-05 21:50:36.63	124.28	4.51	-60.0	-76.0	3.8	1.49e+00	0	27	104	1130364928	85	23826
2026-01-05 21:50:37.49	124.37	4.47	-60.0	-76.1	3.8	1.49e+00	0	27	104	1130364928	85	23978
2026-01-05 21:50:38.64	124.49	4.41	-60.1	-76.2	3.8	1.49e+00	0	27	104	1130364928	85	24200
2026-01-05 21:50:39.50	124.58	4.37	-60.2	-76.2	3.8	1.49e+00	0	27	104	1130364928	85	24386
2026-01-05 21:50:40.64	124.70	4.31	-60.2	-76.3	3.8	1.49e+00	0	27	104	1130364928	85	24506
2026-01-05 21:50:41.50	124.78	4.27	-60.3	-76.3	3.8	1.49e+00	0	27	104	1130364928	85	24673
2026-01-05 21:50:42.63	124.90	4.21	-60.3	-76.4	3.8	1.49e+00	0	27	104	1130364928	85	24831
2026-01-05 21:50:43.49	124.99	4.17	-60.4	-76.5	3.8	1.49e+00	0	27	104	1130364928	85	25012
2026-01-05 21:50:44.63	125.10	4.11	-60.4	-76.5	3.8	1.49e+00	0	27	104	1130364928	85	25068
2026-01-05 21:50:45.48	125.19	4.07	-60.5	-76.5	3.8	1.49e+00	0	27	104	1130364928	86	23803
2026-01-05 21:50:46.62	125.30	4.01	-60.5	-76.6	3.8	1.49e+00	0	27	104	1130364928	86	23933
2026-01-05 21:50:47.48	125.39	3.97	-60.5	-76.6	3.8	1.49e+00	0	27	104	1130364928	86	24006
2026-01-05 21:50:48.62	125.50	3.91	-60.5	-76.6	3.8	1.49e+00	0	27	104	1130364928	86	24033
2026-01-05 21:50:49.48	125.59	3.87	-60.6	-76.6	3.8	1.49e+00	0	27	104	1130364928	86	24070
2026-01-05 21:50:50.62	125.70	3.81	-60.6	-76.7	3.8	1.49e+00	0	27	104	1130364928	86	24149
2026-01-05 21:50:51.48	125.79	3.77	-60.6	-76.7	3.8	1.49e+00	0	27	104	1130364928	86	24194
2026-01-05 21:50:52.62	125.90	3.71	-60.6	-76.7	3.8	1.49e+00	0	27	104	1130364928	86	24189
2026-01-05 21:50:53.47	125.99	3.67	-60.6	-76.7	3.8	1.49e+00	0	27	104	1130364928	86	24258
2026-01-05 21:50:54.60	126.10	3.61	-60.6	-76.7	3.8	1.49e+00	0	27	104	1130364928	86	24203
2026-01-05 21:50:55.46	126.18	3.57	-60.6	-76.7	3.8	1.49e+00	0	27	104	1130364928	86	24137
2026-01-05 21:50:56.60	126.29	3.51	-60.5	-76.6	3.8	1.49e+00	0	27	104	1130364928	86	24025
2026-01-05 21:50:57.45	126.37	3.47	-60.5	-76.6	3.8	1.49e+00	0	27	104	1130364928	86	24086
2026-01-05 21:50:58.60	126.49	3.41	-60.5	-76.6	3.8	1.49e+00	0	27	104	1130364928	86	23972
2026-01-05 21:50:59.45	126.57	3.37	-60.5	-76.6	3.8	1.49e+00	0	27	104	1130364928	86	23957
2026-01-05 21:51:00.59	126.68	3.31	-60.5	-76.6	3.8	1.49e+00	0	27	104	1130364928	86	23926
2026-01-05 21:51:01.44	126.76	3.27	-60.5	-76.6	3.8	1.49e+00	0	27	104	1130364928	86	24003
2026-01-05 21:51:02.59	126.87	3.21	-60.5	-76.6	3.8	1.49e+00	0	27	104	1130364928	86	23933
2026-01-05 21:51:03.45	126.95	3.17	-60.5	-76.6	3.8	1.49e+00	0	27	104	1130364928	86	23938
2026-01-05 21:51:04.59	127.06	3.11	-60.5	-76.6	3.8	1.49e+00	0	27	104	1130364928	86	23905
2026-01-05 21:51:05.45	127.14	3.07	-60.5	-76.6	3.8	1.49e+00	0	27	104	1130364928	86	23882
2026-01-05 21:51:06.59	127.25	3.01	-60.5	-76.5	3.8	1.49e+00	0	27	104	1130364928	86	23836
2026-01-05 21:51:07.45	127.33	2.97	-60.5	-76.6	3.8	1.49e+00	0	27	104	1130364928	86	23884
2026-01-05 21:51:08.58	127.44	2.91	-60.5	-76.5	3.8	1.49e+00	0	27	104	1130364928	86	23789
2026-01-05 21:51:09.45	127.52	2.87	-60.5	-76.5	3.8	1.49e+00	0	27	104	1130364928	86	23745
2026-01-05 21:51:10.59	127.63	2.81	-60.4	-76.5	3.8	1.49e+00	0	27	104	1130364928	86	23755
2026-01-05 21:51:11.44	127.70	2.77	-60.4	-76.5	3.8	1.49e+00	0	27	104	1130364928	86	23754
2026-01-05 21:51:12.58	127.81	2.72	-60.4	-76.5	3.8	1.49e+00	0	27	104	1130364928	86	23715
2026-01-05 21:51:13.43	127.89	2.67	-60.4	-76.5	3.8	1.49e+00	0	27	104	1130364928	86	23717
