passes_logs/2026/01/05/R3.2S_Murmansk/R3.2S_Murmansk__20260105_194124_TY-42_rec.log

#Pass ID: 20260105_194124_TY-42
#Satellite: TY-42
#Configuration: TY-42_900M
#almurnet v.1.7.20251203
#Start time: 2026-01-05 19:41:26

#Version: 2.2.20231116
#Station: R3.2S_Murmansk
#Location: 33.079688 lon 68.888172 lat
#TLE: 1 64048U 25103A   26005.68684028  .00008011  00000-0  38191-3 0 09993
#TLE: 2 64048 097.4106 081.2795 0001725 092.4682 306.5290 15.19173644 35407

#Time	Az	El	Level	Level2	SNR	BER	BlckErr	Temp	State	Recorded	gain1	gain2
2026-01-05 19:41:26.70	181.79	2.28	-57.8	-61.0	6.1	0.00e+00	0	31	0	0	82	20775
2026-01-05 19:41:27.70	181.83	2.35	-57.8	-61.0	6.2	0.00e+00	0	31	104	0	82	20772
2026-01-05 19:41:28.70	181.88	2.42	-57.7	-61.0	6.1	0.00e+00	0	31	104	0	82	20734
2026-01-05 19:41:29.70	181.93	2.49	-57.8	-61.0	6.2	0.00e+00	0	31	104	0	82	20758
2026-01-05 19:41:30.70	181.98	2.56	-57.8	-61.0	6.2	0.00e+00	0	31	104	0	82	20724
2026-01-05 19:41:31.70	182.02	2.63	-57.8	-61.0	6.2	0.00e+00	0	31	104	0	82	20702
2026-01-05 19:41:32.69	182.07	2.69	-57.8	-61.0	6.2	0.00e+00	0	31	104	0	82	20771
2026-01-05 19:41:33.69	182.12	2.76	-57.8	-61.0	6.2	0.00e+00	0	31	104	0	82	20799
2026-01-05 19:41:34.69	182.17	2.83	-57.8	-61.0	6.2	0.00e+00	0	31	104	0	82	20825
2026-01-05 19:41:35.69	182.22	2.91	-57.8	-61.0	6.1	0.00e+00	0	32	104	0	82	20792
2026-01-05 19:41:36.69	182.27	2.98	-57.8	-61.0	6.1	0.00e+00	0	31	104	0	82	20865
2026-01-05 19:41:37.68	182.32	3.05	-57.8	-61.0	6.2	0.00e+00	0	32	104	0	82	20774
2026-01-05 19:41:38.68	182.37	3.12	-57.8	-61.0	6.2	0.00e+00	0	32	104	0	82	20826
2026-01-05 19:41:39.68	182.42	3.19	-57.8	-61.0	6.2	0.00e+00	0	32	104	0	82	20830
2026-01-05 19:41:40.68	182.47	3.26	-57.8	-61.0	6.1	0.00e+00	0	32	104	0	82	20809
2026-01-05 19:41:41.68	182.52	3.33	-57.8	-61.0	6.1	0.00e+00	0	32	104	0	82	20796
2026-01-05 19:41:42.67	182.57	3.40	-57.8	-61.1	6.2	0.00e+00	0	32	104	0	82	20896
2026-01-05 19:41:43.68	182.62	3.48	-57.8	-61.0	6.1	0.00e+00	0	32	104	0	82	20824
2026-01-05 19:41:44.68	182.67	3.55	-57.8	-61.1	6.1	0.00e+00	0	32	104	0	82	20874
2026-01-05 19:41:45.69	182.73	3.62	-57.8	-61.1	6.2	0.00e+00	0	32	104	0	82	20928
2026-01-05 19:41:46.68	182.78	3.69	-57.8	-61.1	6.1	0.00e+00	0	32	104	0	82	20910
2026-01-05 19:41:47.68	182.83	3.77	-57.8	-61.1	6.1	0.00e+00	0	32	104	0	82	20912
2026-01-05 19:41:48.68	182.88	3.84	-57.8	-61.1	6.2	0.00e+00	0	32	104	0	82	20921
2026-01-05 19:41:49.68	182.94	3.92	-57.8	-61.1	6.2	0.00e+00	0	32	104	0	82	20918
2026-01-05 19:41:50.68	182.99	3.99	-57.8	-61.1	6.2	0.00e+00	0	32	104	0	82	20917
2026-01-05 19:41:51.67	183.04	4.06	-57.8	-61.1	6.2	0.00e+00	0	32	104	0	82	20952
2026-01-05 19:41:52.67	183.10	4.14	-57.8	-61.1	6.1	0.00e+00	0	32	104	0	82	20929
2026-01-05 19:41:53.66	183.15	4.21	-57.8	-61.1	6.2	0.00e+00	0	32	104	0	82	20934
2026-01-05 19:41:54.66	183.21	4.29	-57.8	-61.1	6.2	0.00e+00	0	32	104	0	82	20933
2026-01-05 19:41:55.66	183.26	4.36	-57.8	-61.0	6.2	0.00e+00	0	32	104	0	82	20872
2026-01-05 19:41:56.66	183.32	4.44	-57.8	-61.1	6.2	0.00e+00	0	33	104	0	82	20931
2026-01-05 19:41:57.66	183.37	4.51	-57.8	-61.1	6.2	0.00e+00	0	33	104	0	82	20963
2026-01-05 19:41:58.66	183.43	4.59	-57.8	-61.1	6.2	0.00e+00	0	33	104	0	82	21008
2026-01-05 19:41:59.65	183.49	4.66	-57.8	-61.1	6.2	0.00e+00	0	33	104	0	82	20932
2026-01-05 19:42:00.65	183.54	4.74	-57.8	-61.1	6.1	0.00e+00	0	33	104	0	82	20915
2026-01-05 19:42:01.65	183.60	4.82	-57.8	-61.1	6.1	0.00e+00	0	33	104	0	82	20952
2026-01-05 19:42:02.64	183.66	4.89	-57.9	-61.1	6.2	0.00e+00	0	33	104	0	82	20963
2026-01-05 19:42:03.64	183.72	4.97	-57.9	-61.1	6.2	0.00e+00	0	33	104	0	82	20999
2026-01-05 19:42:04.64	183.77	5.05	-57.9	-61.1	6.1	0.00e+00	0	33	104	0	82	20977
2026-01-05 19:42:05.63	183.83	5.13	-57.9	-61.2	6.2	0.00e+00	0	33	104	0	82	21132
2026-01-05 19:42:06.63	183.89	5.20	-57.8	-61.1	6.2	0.00e+00	0	33	104	0	82	20957
2026-01-05 19:42:07.63	183.95	5.28	-57.9	-61.2	6.1	0.00e+00	0	33	104	0	82	21210
2026-01-05 19:42:08.63	184.01	5.36	-58.0	-61.2	6.1	0.00e+00	0	33	104	0	82	21302
2026-01-05 19:42:09.62	184.07	5.44	-57.9	-61.1	6.1	0.00e+00	0	33	104	0	82	21082
2026-01-05 19:42:10.61	184.13	5.52	-57.8	-61.1	6.1	0.00e+00	0	33	104	0	82	20949
2026-01-05 19:42:11.62	184.19	5.60	-58.0	-61.2	6.1	0.00e+00	0	33	104	0	82	21230
2026-01-05 19:42:12.62	184.25	5.68	-58.0	-61.2	6.2	0.00e+00	0	33	104	0	82	21336
2026-01-05 19:42:13.61	184.32	5.76	-57.9	-61.2	6.1	0.00e+00	0	33	104	0	82	21157
2026-01-05 19:42:14.61	184.38	5.84	-57.9	-61.1	6.2	0.00e+00	0	33	104	0	82	21024
2026-01-05 19:42:15.60	184.44	5.92	-58.0	-61.2	6.2	0.00e+00	0	33	104	0	82	21296
2026-01-05 19:42:16.60	184.50	6.00	-58.0	-61.3	6.2	0.00e+00	0	33	104	0	82	21549
2026-01-05 19:42:17.59	184.57	6.08	-58.0	-61.2	6.2	0.00e+00	0	33	104	0	82	21237
2026-01-05 19:42:18.59	184.63	6.16	-57.9	-61.1	6.1	0.00e+00	0	33	104	0	82	21049
2026-01-05 19:42:19.59	184.69	6.25	-58.0	-61.2	6.1	0.00e+00	0	33	104	0	82	21353
2026-01-05 19:42:20.59	184.76	6.33	-58.1	-61.4	6.1	0.00e+00	0	33	104	0	82	21665
2026-01-05 19:42:21.59	184.82	6.41	-58.0	-61.3	6.2	0.00e+00	0	33	104	0	82	21373
2026-01-05 19:42:22.60	184.89	6.50	-57.9	-61.2	6.2	0.00e+00	0	33	104	0	82	21161
2026-01-05 19:42:23.59	184.96	6.58	-58.0	-61.3	6.2	0.00e+00	0	33	104	0	82	21491
2026-01-05 19:42:24.58	185.02	6.66	-58.1	-61.4	6.2	0.00e+00	0	34	104	0	82	21706
2026-01-05 19:42:25.58	185.09	6.75	-58.1	-61.3	6.1	0.00e+00	0	33	104	0	82	21472
2026-01-05 19:42:26.58	185.16	6.83	-58.0	-61.2	6.1	0.00e+00	0	33	104	0	82	21354
2026-01-05 19:42:27.58	185.22	6.91	-58.1	-61.4	6.2	0.00e+00	0	34	104	0	82	21627
2026-01-05 19:42:28.59	185.29	7.00	-58.2	-61.4	6.2	0.00e+00	0	34	104	0	82	21731
2026-01-05 19:42:29.59	185.36	7.09	-58.1	-61.3	6.2	0.00e+00	0	33	104	0	82	21602
2026-01-05 19:42:30.59	185.43	7.17	-58.1	-61.3	6.1	0.00e+00	0	34	104	0	82	21454
2026-01-05 19:42:31.59	185.50	7.26	-58.1	-61.4	6.2	0.00e+00	0	33	104	0	82	21658
2026-01-05 19:42:32.59	185.57	7.34	-58.2	-61.5	6.2	0.00e+00	0	34	104	0	82	21889
2026-01-05 19:42:33.59	185.64	7.43	-58.2	-61.4	6.1	0.00e+00	0	33	104	0	82	21748
2026-01-05 19:42:34.58	185.71	7.52	-54.1	-55.4	7.3	0.00e+00	0	34	104	0	73	18337
2026-01-05 19:42:35.58	185.78	7.61	-44.8	-45.1	10.1	0.00e+00	0	34	104	0	57	14063
2026-01-05 19:42:36.58	185.86	7.69	-46.4	-46.8	11.0	1.26e-02	0	35	0	50331648	58	16043
2026-01-05 19:42:37.58	185.93	7.78	-42.6	-42.9	12.2	1.26e-02	0	35	0	159383552	52	14477
2026-01-05 19:42:38.58	186.00	7.87	-42.4	-42.7	12.3	1.26e-02	0	35	0	276824064	52	14138
2026-01-05 19:42:39.59	186.08	7.96	-42.3	-42.6	12.2	5.68e-02	0	35	0	385875968	51	14846
2026-01-05 19:42:40.59	186.15	8.05	-42.4	-42.6	12.2	5.68e-02	0	35	0	503316480	51	14947
2026-01-05 19:42:41.59	186.23	8.14	-42.1	-42.4	12.3	5.68e-02	0	35	0	612368384	51	14553
2026-01-05 19:42:42.58	186.30	8.23	-42.2	-42.4	12.3	7.43e-03	0	35	0	729808896	51	14579
2026-01-05 19:42:43.58	186.38	8.32	-42.1	-42.4	12.3	7.43e-03	0	35	0	838860800	51	14552
2026-01-05 19:42:44.58	186.45	8.41	-42.0	-42.3	12.4	7.43e-03	0	35	0	947912704	51	14302
2026-01-05 19:42:45.58	186.53	8.50	-41.8	-42.0	12.4	6.02e-03	0	35	0	1065353216	50	14770
2026-01-05 19:42:46.58	186.61	8.60	-41.9	-42.2	12.4	6.02e-03	0	35	0	1174405120	50	14984
2026-01-05 19:42:47.57	186.69	8.69	-41.7	-42.0	12.4	6.02e-03	0	35	0	1291845632	50	14759
2026-01-05 19:42:48.57	186.76	8.78	-41.6	-41.9	12.4	4.47e-03	0	35	0	1400897536	50	14599
2026-01-05 19:42:49.57	186.84	8.87	-41.6	-41.9	12.4	4.47e-03	0	36	0	1509949440	50	14576
2026-01-05 19:42:50.58	186.92	8.97	-41.6	-41.9	12.5	4.47e-03	0	35	0	1627389952	50	14552
2026-01-05 19:42:51.57	187.00	9.06	-41.7	-42.0	12.5	3.70e-03	0	36	0	1736441856	50	14608
2026-01-05 19:42:52.57	187.09	9.16	-41.6	-41.8	12.5	3.70e-03	0	36	0	1853882368	50	14440
2026-01-05 19:42:53.57	187.17	9.25	-41.5	-41.8	12.5	3.70e-03	0	36	0	1962934272	50	14333
2026-01-05 19:42:54.58	187.25	9.35	-41.5	-41.8	12.5	3.45e-03	0	36	0	2071986176	50	14321
2026-01-05 19:42:55.58	187.33	9.44	-41.4	-41.7	12.6	3.45e-03	0	36	0	2189426688	50	14161
2026-01-05 19:42:56.58	187.42	9.54	-41.3	-41.6	12.4	3.45e-03	0	36	0	2298478592	49	14918
2026-01-05 19:42:57.58	187.50	9.64	-41.4	-41.7	12.4	3.42e-03	0	36	0	2415919104	49	15057
2026-01-05 19:42:58.57	187.59	9.73	-41.1	-41.4	12.5	3.42e-03	0	36	0	2524971008	49	14572
2026-01-05 19:42:59.57	187.67	9.83	-41.2	-41.5	12.4	4.21e-03	0	36	0	2642411520	49	14668
2026-01-05 19:43:00.57	187.76	9.93	-41.2	-41.5	12.4	4.21e-03	0	36	0	2751463424	49	14692
2026-01-05 19:43:01.57	187.85	10.03	-41.4	-41.7	12.4	4.21e-03	0	36	0	2860515328	49	14957
2026-01-05 19:43:02.57	187.93	10.13	-41.4	-41.7	12.4	4.21e-03	0	36	0	2977955840	49	15044
2026-01-05 19:43:03.56	188.02	10.22	-41.1	-41.4	12.5	4.17e-03	0	36	0	3087007744	49	14502
2026-01-05 19:43:04.57	188.11	10.33	-41.0	-41.3	12.5	4.17e-03	0	36	0	3204448256	49	14381
2026-01-05 19:43:05.57	188.20	10.43	-41.0	-41.3	12.5	3.53e-03	0	36	0	3313500160	49	14290
2026-01-05 19:43:06.57	188.29	10.53	-41.0	-41.3	12.5	3.53e-03	0	36	0	3422552064	49	14302
2026-01-05 19:43:07.56	188.38	10.63	-41.0	-41.3	12.5	3.53e-03	0	36	0	3539992576	49	14412
2026-01-05 19:43:08.56	188.47	10.73	-40.9	-41.1	12.6	3.70e-03	0	37	0	3649044480	49	14111
2026-01-05 19:43:09.56	188.57	10.83	-40.8	-41.1	12.5	3.70e-03	0	37	0	3766484992	48	14880
2026-01-05 19:43:10.56	188.66	10.94	-40.8	-41.1	12.5	3.70e-03	0	36	0	3875536896	48	14807
2026-01-05 19:43:11.56	188.75	11.04	-40.8	-41.0	12.6	2.84e-03	0	36	0	3984588800	48	14752
2026-01-05 19:43:12.55	188.85	11.14	-40.6	-40.9	12.6	2.84e-03	0	36	0	4102029312	48	14526
2026-01-05 19:43:13.55	188.94	11.25	-40.7	-40.9	12.6	2.84e-03	0	36	0	4211081216	48	14598
2026-01-05 19:43:14.55	189.04	11.35	-40.7	-40.9	12.6	2.68e-03	0	37	0	4320133120	48	14555
2026-01-05 19:43:15.55	189.14	11.46	-40.5	-40.8	12.6	2.68e-03	0	37	0	4429185024	48	14375
2026-01-05 19:43:16.54	189.24	11.56	-40.5	-40.8	12.6	1.80e-03	0	37	0	4546625536	48	14298
2026-01-05 19:43:17.55	189.34	11.67	-40.5	-40.7	12.7	1.80e-03	0	37	0	4655677440	48	14248
2026-01-05 19:43:18.56	189.44	11.78	-40.4	-40.7	12.7	1.80e-03	0	37	0	4773117952	48	14210
2026-01-05 19:43:19.55	189.54	11.89	-40.5	-40.8	12.7	1.80e-03	0	37	0	4882169856	48	14280
2026-01-05 19:43:20.54	189.64	11.99	-40.5	-40.8	12.7	1.91e-03	0	37	0	4999610368	48	14383
2026-01-05 19:43:21.55	189.74	12.10	-40.4	-40.7	12.7	1.91e-03	0	37	0	5108662272	48	14187
2026-01-05 19:43:22.56	189.85	12.21	-39.4	-39.7	12.6	1.91e-03	0	37	0	5226102784	46	14228
2026-01-05 19:43:23.55	189.95	12.32	-39.3	-39.6	12.6	1.69e-03	0	37	0	5335154688	45	14911
2026-01-05 19:43:24.56	190.06	12.43	-39.4	-39.7	12.6	1.69e-03	0	37	0	5452595200	45	14964
2026-01-05 19:43:25.56	190.16	12.55	-39.3	-39.6	12.6	1.69e-03	0	37	0	5561647104	45	14883
2026-01-05 19:43:26.56	190.27	12.66	-39.4	-39.7	12.6	1.95e-03	0	37	0	5679087616	45	14951
2026-01-05 19:43:27.56	190.38	12.77	-39.2	-39.5	12.6	1.95e-03	0	37	0	5788139520	45	14738
2026-01-05 19:43:28.57	190.49	12.88	-39.2	-39.5	12.7	1.95e-03	0	37	0	5897191424	45	14641
2026-01-05 19:43:29.56	190.60	13.00	-39.3	-39.6	12.6	1.81e-03	0	37	0	6014631936	45	14813
2026-01-05 19:43:30.57	190.71	13.11	-39.2	-39.4	12.7	1.81e-03	0	37	0	6123683840	45	14565
2026-01-05 19:43:31.57	190.82	13.23	-39.2	-39.4	12.7	1.88e-03	0	37	0	6241124352	45	14561
2026-01-05 19:43:32.57	190.93	13.34	-39.2	-39.5	12.7	1.88e-03	0	37	0	6350176256	45	14699
2026-01-05 19:43:33.57	191.05	13.46	-38.9	-39.2	12.8	1.35e-03	0	37	0	6467616768	45	14156
2026-01-05 19:43:34.57	191.16	13.58	-38.9	-39.2	12.8	1.35e-03	0	37	0	6576668672	45	14198
2026-01-05 19:43:35.58	191.28	13.69	-38.9	-39.1	12.8	1.35e-03	0	37	0	6685720576	45	14089
2026-01-05 19:43:36.57	191.39	13.81	-38.8	-39.0	12.7	1.21e-03	0	37	0	6803161088	44	14751
2026-01-05 19:43:37.58	191.51	13.93	-38.8	-39.1	12.7	1.21e-03	0	37	0	6912212992	44	14827
2026-01-05 19:43:38.58	191.63	14.05	-38.7	-39.0	12.8	1.21e-03	0	37	0	7029653504	44	14710
2026-01-05 19:43:39.58	191.75	14.17	-38.7	-39.0	12.8	1.06e-03	0	37	0	7138705408	44	14724
2026-01-05 19:43:40.56	191.87	14.29	-38.8	-39.1	12.7	1.06e-03	0	37	0	7247757312	44	14786
2026-01-05 19:43:41.56	192.00	14.41	-38.7	-39.0	12.8	1.06e-03	0	37	0	7365197824	44	14655
2026-01-05 19:43:42.56	192.12	14.53	-38.7	-38.9	12.9	1.21e-03	0	38	0	7474249728	44	14601
2026-01-05 19:43:43.56	192.24	14.65	-38.5	-38.8	12.9	1.21e-03	0	37	0	7591690240	44	14325
2026-01-05 19:43:44.56	192.37	14.78	-38.5	-38.8	12.9	1.21e-03	0	38	0	7700742144	44	14356
2026-01-05 19:43:45.56	192.50	14.90	-38.6	-38.8	12.9	1.21e-03	0	38	0	7809794048	44	14437
2026-01-05 19:43:46.56	192.63	15.03	-38.6	-38.9	12.9	6.72e-04	0	38	0	7927234560	44	14499
2026-01-05 19:43:47.56	192.76	15.15	-38.5	-38.8	12.9	6.72e-04	0	38	0	8036286464	44	14306
2026-01-05 19:43:48.55	192.89	15.28	-38.5	-38.8	12.9	6.72e-04	0	38	0	8153726976	44	14351
2026-01-05 19:43:49.56	193.02	15.41	-38.4	-38.7	12.9	6.68e-04	0	38	0	8262778880	44	14169
2026-01-05 19:43:50.55	193.15	15.53	-38.5	-38.7	12.9	6.68e-04	0	38	0	8380219392	44	14259
2026-01-05 19:43:51.56	193.29	15.66	-38.3	-38.6	12.9	6.68e-04	0	38	0	8489271296	43	14883
2026-01-05 19:43:52.55	193.42	15.79	-38.3	-38.6	12.8	5.86e-04	0	38	0	8598323200	43	14860
2026-01-05 19:43:53.56	193.56	15.92	-38.3	-38.5	12.9	5.86e-04	0	38	0	8715763712	43	14766
2026-01-05 19:43:54.56	193.70	16.05	-38.2	-38.5	12.9	5.86e-04	0	38	0	8824815616	43	14684
2026-01-05 19:43:55.55	193.84	16.18	-38.2	-38.5	12.9	4.43e-04	0	38	0	8933867520	43	14673
2026-01-05 19:43:56.55	193.98	16.32	-38.1	-38.4	12.9	4.43e-04	0	38	0	9042919424	43	14498
2026-01-05 19:43:57.55	194.12	16.45	-38.1	-38.4	13.0	4.20e-04	0	38	0	9160359936	43	14463
2026-01-05 19:43:58.54	194.27	16.58	-38.0	-38.2	13.0	4.20e-04	0	38	0	9269411840	43	14253
2026-01-05 19:43:59.53	194.41	16.71	-37.9	-38.2	13.0	4.20e-04	0	38	0	9386852352	43	14162
2026-01-05 19:44:00.53	194.56	16.85	-37.9	-38.1	12.9	2.57e-04	0	38	0	9495904256	42	14916
2026-01-05 19:44:01.53	194.71	16.99	-37.8	-38.0	13.0	2.57e-04	0	38	0	9604956160	42	14757
2026-01-05 19:44:02.52	194.86	17.12	-37.7	-37.9	13.0	2.57e-04	0	38	0	9722396672	42	14577
2026-01-05 19:44:03.52	195.01	17.26	-37.7	-38.0	13.0	2.76e-04	0	38	0	9831448576	42	14628
2026-01-05 19:44:04.51	195.16	17.40	-37.6	-37.9	13.0	2.76e-04	0	38	0	9948889088	42	14561
2026-01-05 19:44:05.50	195.32	17.54	-37.4	-37.7	13.1	2.19e-04	0	38	0	10057940992	42	14120
2026-01-05 19:44:06.49	195.47	17.67	-37.4	-37.7	13.1	2.19e-04	0	38	0	10166992896	42	14224
2026-01-05 19:44:07.49	195.63	17.82	-37.5	-37.8	13.0	2.19e-04	0	38	0	10276044800	42	14382
2026-01-05 19:44:08.49	195.79	17.96	-37.5	-37.8	13.1	2.19e-04	0	38	0	10393485312	42	14291
2026-01-05 19:44:09.48	195.95	18.10	-37.4	-37.7	13.1	1.62e-04	0	38	0	10502537216	42	14139
2026-01-05 19:44:10.49	196.11	18.24	-37.6	-37.9	13.0	1.62e-04	0	38	0	10611589120	42	14453
2026-01-05 19:44:11.48	196.28	18.39	-37.5	-37.8	13.1	1.62e-04	0	38	0	10729029632	42	14289
2026-01-05 19:44:12.48	196.45	18.53	-37.2	-37.5	13.1	1.62e-04	0	38	0	10838081536	41	14676
2026-01-05 19:44:13.47	196.61	18.68	-37.2	-37.4	13.1	1.62e-04	0	38	0	10955522048	41	14593
2026-01-05 19:44:14.46	196.78	18.82	-37.0	-37.3	13.1	1.62e-04	0	38	0	11064573952	41	14363
2026-01-05 19:44:15.45	196.95	18.97	-37.0	-37.3	13.1	1.81e-04	0	38	0	11173625856	41	14312
2026-01-05 19:44:16.45	197.13	19.12	-37.0	-37.3	13.1	1.81e-04	0	38	0	11282677760	41	14312
2026-01-05 19:44:17.44	197.30	19.27	-36.9	-37.2	13.1	1.52e-04	0	38	0	11400118272	41	14202
2026-01-05 19:44:18.44	197.48	19.42	-36.9	-37.2	13.2	1.52e-04	0	38	0	11509170176	41	14212
2026-01-05 19:44:19.43	197.66	19.57	-36.8	-37.1	13.1	1.52e-04	0	38	0	11618222080	40	14851
2026-01-05 19:44:20.42	197.84	19.72	-36.9	-37.2	13.1	1.19e-04	0	38	0	11735662592	40	14955
2026-01-05 19:44:21.42	198.02	19.87	-36.8	-37.1	13.1	1.19e-04	0	38	0	11844714496	40	14787
2026-01-05 19:44:22.42	198.21	20.03	-36.6	-36.9	13.1	1.19e-04	0	38	0	11962155008	40	14484
2026-01-05 19:44:23.41	198.39	20.18	-36.8	-37.0	13.1	1.19e-04	0	38	0	12071206912	40	14693
2026-01-05 19:44:24.41	198.59	20.34	-36.7	-36.9	13.1	8.10e-05	0	38	0	12180258816	40	14607
2026-01-05 19:44:25.41	198.78	20.50	-36.5	-36.8	13.2	8.10e-05	0	38	0	12297699328	40	14381
2026-01-05 19:44:26.40	198.97	20.65	-36.6	-36.9	13.2	8.58e-05	0	38	0	12406751232	40	14475
2026-01-05 19:44:27.40	199.17	20.81	-36.5	-36.7	13.2	8.58e-05	0	38	0	12515803136	40	14253
2026-01-05 19:44:28.39	199.37	20.97	-36.4	-36.7	13.2	8.58e-05	0	38	0	12624855040	40	14202
2026-01-05 19:44:29.38	199.56	21.13	-36.4	-36.7	13.2	3.81e-05	0	38	0	12742295552	40	14217
2026-01-05 19:44:30.37	199.77	21.29	-36.4	-36.6	13.2	3.81e-05	0	38	0	12851347456	40	14107
2026-01-05 19:44:31.37	199.97	21.45	-36.3	-36.6	13.2	3.81e-05	0	38	0	12968787968	39	14884
2026-01-05 19:44:32.37	200.18	21.62	-36.2	-36.5	13.2	6.67e-05	0	38	0	13077839872	39	14662
2026-01-05 19:44:33.36	200.39	21.78	-36.2	-36.4	13.2	6.67e-05	0	38	0	13195280384	39	14600
2026-01-05 19:44:34.35	200.60	21.94	-36.1	-36.4	13.2	6.67e-05	0	38	0	13295943680	39	14485
2026-01-05 19:44:35.34	200.82	22.11	-36.0	-36.3	13.2	5.72e-05	0	38	0	13413384192	39	14375
2026-01-05 19:44:36.34	201.03	22.28	-36.1	-36.3	13.2	5.72e-05	0	38	0	13522436096	39	14437
2026-01-05 19:44:37.34	201.26	22.45	-35.9	-36.2	13.3	5.72e-05	0	38	0	13631488000	39	14139
2026-01-05 19:44:38.34	201.48	22.62	-36.0	-36.2	13.2	2.38e-05	0	38	0	13748928512	39	14250
2026-01-05 19:44:39.32	201.70	22.78	-35.9	-36.2	13.3	2.38e-05	0	38	0	13857980416	39	14139
2026-01-05 19:44:40.31	201.93	22.95	-35.8	-36.0	13.2	2.38e-05	0	38	0	13975420928	38	14769
2026-01-05 19:44:41.31	202.16	23.13	-35.8	-36.0	13.2	4.29e-05	0	38	0	14084472832	38	14734
2026-01-05 19:44:42.30	202.39	23.30	-35.7	-36.0	13.2	4.29e-05	0	38	0	14193524736	38	14682
2026-01-05 19:44:43.30	202.63	23.47	-35.7	-36.0	13.2	4.29e-05	0	38	0	14310965248	38	14612
2026-01-05 19:44:44.30	202.87	23.65	-35.6	-35.8	13.2	3.33e-05	0	38	0	14420017152	38	14419
2026-01-05 19:44:45.30	203.12	23.82	-35.5	-35.8	13.3	3.33e-05	0	38	0	14529069056	38	14279
2026-01-05 19:44:46.30	203.36	24.00	-35.5	-35.7	13.3	3.33e-05	0	38	0	14646509568	38	14214
2026-01-05 19:44:47.29	203.61	24.18	-35.4	-35.6	13.3	3.33e-05	0	38	0	14755561472	38	14102
2026-01-05 19:44:48.29	203.86	24.36	-35.3	-35.5	13.2	3.81e-05	0	38	0	14864613376	37	14739
2026-01-05 19:44:49.28	204.12	24.54	-35.2	-35.5	13.3	3.81e-05	0	38	0	14982053888	37	14671
2026-01-05 19:44:50.27	204.37	24.72	-35.2	-35.5	13.3	3.81e-05	0	38	0	15091105792	37	14661
2026-01-05 19:44:51.26	204.63	24.90	-35.2	-35.5	13.3	1.90e-05	0	38	0	15208546304	37	14625
2026-01-05 19:44:52.25	204.90	25.08	-35.0	-35.3	13.3	1.90e-05	0	38	0	15317598208	37	14296
2026-01-05 19:44:53.25	205.16	25.26	-34.9	-35.2	13.3	1.90e-05	0	38	0	15426650112	37	14154
2026-01-05 19:44:54.24	205.43	25.45	-35.0	-35.3	13.3	9.50e-06	0	38	0	15535702016	37	14293
2026-01-05 19:44:55.23	205.71	25.63	-34.8	-35.1	13.3	9.50e-06	0	38	0	15653142528	36	14815
2026-01-05 19:44:56.22	205.98	25.82	-34.8	-35.1	13.3	9.50e-06	0	38	0	15762194432	36	14792
2026-01-05 19:44:57.22	206.27	26.00	-34.8	-35.0	13.3	4.70e-06	0	38	0	15871246336	36	14758
2026-01-05 19:44:58.21	206.55	26.19	-34.7	-35.0	13.3	4.70e-06	0	38	0	15988686848	36	14609
2026-01-05 19:44:59.21	206.84	26.38	-34.5	-34.8	13.3	4.70e-06	0	38	0	16097738752	36	14334
2026-01-05 19:45:00.20	207.13	26.57	-34.5	-34.7	13.4	4.70e-06	0	38	0	16206790656	36	14238
2026-01-05 19:45:01.19	207.43	26.76	-34.5	-34.7	13.4	4.70e-06	0	38	0	16315842560	36	14246
2026-01-05 19:45:02.18	207.73	26.95	-34.4	-34.7	13.4	4.70e-06	0	38	0	16433283072	36	14137
2026-01-05 19:45:03.16	208.03	27.14	-31.8	-32.0	13.2	4.70e-06	0	38	0	16542334976	30	14758
2026-01-05 19:45:04.15	208.33	27.33	-31.7	-31.9	13.3	4.70e-06	0	38	0	16651386880	30	14575
2026-01-05 19:45:05.14	208.64	27.52	-31.7	-32.0	13.3	2.38e-05	0	38	0	16760438784	30	14611
2026-01-05 19:45:06.12	208.95	27.72	-31.7	-31.9	13.3	2.38e-05	0	38	0	16877879296	30	14587
2026-01-05 19:45:07.12	209.28	27.91	-31.5	-31.8	13.3	2.38e-05	0	38	0	16986931200	30	14328
2026-01-05 19:45:08.12	209.60	28.11	-31.4	-31.7	13.3	2.38e-05	0	38	0	17104371712	30	14124
2026-01-05 19:45:09.11	209.93	28.31	-31.2	-31.5	13.3	1.43e-05	0	38	0	17213423616	29	14674
2026-01-05 19:45:10.10	210.26	28.50	-31.2	-31.5	13.3	1.43e-05	0	38	0	17322475520	29	14728
2026-01-05 19:45:11.09	210.60	28.70	-31.3	-31.6	13.3	1.43e-05	0	38	0	17431527424	29	14779
2026-01-05 19:45:12.08	210.94	28.90	-31.1	-31.4	13.3	1.43e-05	0	39	0	17548967936	29	14470
2026-01-05 19:45:13.08	211.29	29.10	-31.0	-31.3	13.4	1.43e-05	0	38	0	17658019840	29	14335
2026-01-05 19:45:14.08	211.64	29.30	-31.1	-31.4	13.3	4.70e-06	0	38	0	17767071744	29	14462
2026-01-05 19:45:15.08	212.00	29.50	-31.2	-31.4	13.3	4.70e-06	0	38	0	17884512256	29	14596
2026-01-05 19:45:16.08	212.36	29.71	-31.0	-31.2	13.3	4.70e-06	0	38	0	17993564160	29	14251
2026-01-05 19:45:17.07	212.72	29.91	-30.9	-31.1	13.4	4.70e-06	0	38	0	18111004672	29	14103
2026-01-05 19:45:18.06	213.09	30.11	-30.7	-31.0	13.3	4.70e-06	0	39	0	18220056576	28	14706
2026-01-05 19:45:19.06	213.47	30.31	-30.6	-30.9	13.3	4.70e-06	0	38	0	18329108480	28	14457
2026-01-05 19:45:20.05	213.85	30.52	-30.5	-30.7	13.4	4.70e-06	0	39	0	18438160384	28	14235
2026-01-05 19:45:21.03	214.23	30.72	-30.4	-30.7	13.4	4.70e-06	0	38	0	18555600896	28	14128
2026-01-05 19:45:22.03	214.62	30.92	-30.3	-30.6	13.3	4.70e-06	0	38	0	18664652800	27	14864
2026-01-05 19:45:23.02	215.02	31.13	-30.4	-30.6	13.3	1.90e-05	0	38	0	18773704704	27	14940
2026-01-05 19:45:24.01	215.42	31.33	-30.3	-30.6	13.3	1.90e-05	0	38	0	18891145216	27	14819
2026-01-05 19:45:25.00	215.82	31.53	-30.3	-30.6	13.3	1.90e-05	0	38	0	19000197120	27	14785
2026-01-05 19:45:26.00	216.24	31.74	-30.1	-30.4	13.4	4.70e-06	0	38	0	19109249024	27	14466
2026-01-05 19:45:26.99	216.65	31.94	-30.2	-30.4	13.4	4.70e-06	0	39	0	19218300928	27	14571
2026-01-05 19:45:27.98	217.07	32.15	-30.1	-30.4	13.4	4.70e-06	0	38	0	19335741440	27	14548
2026-01-05 19:45:28.97	217.50	32.35	-30.0	-30.3	13.4	4.70e-06	0	39	0	19444793344	27	14319
2026-01-05 19:45:29.96	217.93	32.56	-29.9	-30.2	13.5	4.70e-06	0	38	0	19562233856	27	14182
2026-01-05 19:45:30.95	218.37	32.76	-29.9	-30.2	13.5	4.70e-06	0	39	0	19671285760	27	14206
2026-01-05 19:45:31.95	218.82	32.97	-29.7	-30.0	13.4	0.00e+00	0	38	0	19780337664	26	14711
2026-01-05 19:45:32.95	219.28	33.17	-29.8	-30.1	13.4	0.00e+00	0	39	0	19889389568	26	14794
2026-01-05 19:45:33.95	219.74	33.38	-29.6	-29.9	13.4	0.00e+00	0	38	0	20006830080	26	14524
2026-01-05 19:45:34.94	220.20	33.58	-29.7	-29.9	13.4	0.00e+00	0	39	0	20115881984	26	14567
2026-01-05 19:45:35.93	220.67	33.79	-29.6	-29.9	13.4	0.00e+00	0	39	0	20224933888	26	14565
2026-01-05 19:45:36.92	221.14	33.99	-29.6	-29.8	13.5	0.00e+00	0	39	0	20342374400	26	14407
2026-01-05 19:45:37.92	221.63	34.19	-29.5	-29.8	13.5	4.70e-06	0	39	0	20451426304	26	14325
2026-01-05 19:45:38.91	222.12	34.39	-29.5	-29.7	13.5	4.70e-06	0	39	0	20568866816	26	14243
2026-01-05 19:45:39.91	222.62	34.60	-29.5	-29.7	13.5	0.00e+00	0	39	0	20677918720	26	14206
2026-01-05 19:45:40.90	223.12	34.80	-29.5	-29.8	13.5	0.00e+00	0	39	0	20786970624	26	14319
2026-01-05 19:45:41.89	223.62	34.99	-29.4	-29.7	13.5	0.00e+00	0	39	0	20896022528	26	14204
2026-01-05 19:45:42.88	224.14	35.19	-29.4	-29.6	13.5	0.00e+00	0	39	0	21005074432	26	14081
2026-01-05 19:45:43.87	224.66	35.39	-29.3	-29.6	13.5	0.00e+00	0	39	0	21122514944	25	14795
2026-01-05 19:45:44.87	225.19	35.59	-29.2	-29.5	13.5	0.00e+00	0	39	0	21231566848	25	14672
2026-01-05 19:45:45.87	225.73	35.78	-29.2	-29.4	13.5	0.00e+00	0	39	0	21349007360	25	14560
2026-01-05 19:45:46.87	226.27	35.98	-29.1	-29.3	13.5	0.00e+00	0	39	0	21458059264	25	14419
2026-01-05 19:45:47.86	226.82	36.17	-29.0	-29.3	13.5	0.00e+00	0	39	0	21575499776	25	14385
2026-01-05 19:45:48.86	227.38	36.36	-29.0	-29.3	13.5	0.00e+00	0	39	0	21684551680	25	14370
2026-01-05 19:45:49.85	227.94	36.55	-29.0	-29.2	13.5	0.00e+00	0	39	0	21793603584	25	14244
2026-01-05 19:45:50.85	228.51	36.74	-29.0	-29.3	13.5	0.00e+00	0	39	0	21911044096	25	14291
2026-01-05 19:45:51.85	229.09	36.93	-29.0	-29.2	13.5	0.00e+00	0	39	0	22020096000	25	14235
2026-01-05 19:45:52.85	229.68	37.11	-28.8	-29.1	13.5	0.00e+00	0	39	0	22137536512	24	14866
2026-01-05 19:45:53.86	230.28	37.30	-28.9	-29.1	13.5	0.00e+00	0	39	0	22246588416	24	14904
2026-01-05 19:45:54.85	230.87	37.48	-28.8	-29.0	13.5	0.00e+00	0	39	0	22355640320	24	14726
2026-01-05 19:45:55.85	231.48	37.66	-28.7	-28.9	13.5	0.00e+00	0	39	0	22473080832	24	14605
2026-01-05 19:45:56.85	232.10	37.83	-28.7	-28.9	13.5	0.00e+00	0	39	0	22582132736	24	14596
2026-01-05 19:45:57.84	232.71	38.00	-28.6	-28.9	13.5	0.00e+00	0	39	0	22691184640	24	14514
2026-01-05 19:45:58.84	233.34	38.18	-28.6	-28.8	13.5	0.00e+00	0	39	0	22800236544	24	14377
2026-01-05 19:45:59.83	233.97	38.34	-28.6	-28.9	13.5	0.00e+00	0	39	0	22917677056	24	14445
2026-01-05 19:46:00.82	234.60	38.51	-28.6	-28.8	13.5	0.00e+00	0	39	0	23026728960	24	14408
2026-01-05 19:46:01.82	235.25	38.67	-28.5	-28.7	13.6	0.00e+00	0	39	0	23144169472	24	14256
2026-01-05 19:46:02.82	235.91	38.83	-28.4	-28.7	13.6	0.00e+00	0	39	0	23253221376	24	14180
2026-01-05 19:46:03.81	236.56	38.98	-28.5	-28.8	13.6	0.00e+00	0	39	0	23370661888	24	14293
2026-01-05 19:46:04.81	237.23	39.14	-28.3	-28.5	13.5	0.00e+00	0	39	0	23479713792	23	14744
2026-01-05 19:46:05.81	237.90	39.29	-28.3	-28.6	13.5	0.00e+00	0	39	0	23588765696	23	14819
2026-01-05 19:46:06.80	238.58	39.43	-28.2	-28.5	13.5	0.00e+00	0	39	0	23706206208	23	14634
2026-01-05 19:46:07.81	239.27	39.58	-28.3	-28.6	13.5	0.00e+00	0	39	0	23815258112	23	14789
2026-01-05 19:46:08.80	239.96	39.71	-28.2	-28.4	13.5	0.00e+00	0	39	0	23932698624	23	14596
2026-01-05 19:46:09.79	240.65	39.85	-28.2	-28.5	13.5	0.00e+00	0	39	0	24033361920	23	14614
2026-01-05 19:46:10.78	241.35	39.98	-28.0	-28.3	13.6	0.00e+00	0	39	0	24150802432	23	14326
2026-01-05 19:46:11.78	242.06	40.10	-28.1	-28.4	13.5	4.70e-06	0	39	0	24259854336	23	14463
2026-01-05 19:46:12.78	242.78	40.23	-28.0	-28.3	13.6	4.70e-06	0	39	0	24377294848	23	14322
2026-01-05 19:46:13.78	243.50	40.35	-27.9	-28.2	13.6	4.70e-06	0	39	0	24486346752	23	14176
2026-01-05 19:46:14.77	244.22	40.46	-28.0	-28.3	13.6	4.70e-06	0	39	0	24595398656	23	14280
2026-01-05 19:46:15.77	244.96	40.57	-27.9	-28.2	13.6	0.00e+00	0	39	0	24712839168	23	14211
2026-01-05 19:46:16.76	245.69	40.67	-27.8	-28.1	13.5	0.00e+00	0	39	0	24821891072	22	14831
2026-01-05 19:46:17.76	246.43	40.77	-27.9	-28.1	13.5	0.00e+00	0	39	0	24939331584	22	14937
2026-01-05 19:46:18.75	247.17	40.87	-27.8	-28.1	13.5	0.00e+00	0	39	0	25048383488	22	14869
2026-01-05 19:46:19.75	247.92	40.96	-27.8	-28.0	13.5	0.00e+00	0	39	0	25157435392	22	14742
2026-01-05 19:46:20.75	248.68	41.04	-27.8	-28.1	13.5	0.00e+00	0	39	0	25266487296	22	14808
2026-01-05 19:46:21.75	249.44	41.12	-27.9	-28.2	13.5	0.00e+00	0	39	0	25383927808	22	15017
2026-01-05 19:46:22.75	250.20	41.19	-27.8	-28.1	13.5	0.00e+00	0	39	0	25492979712	22	14846
2026-01-05 19:46:23.74	250.96	41.26	-27.8	-28.0	13.5	0.00e+00	0	39	0	25602031616	22	14774
2026-01-05 19:46:24.74	251.73	41.33	-27.8	-28.1	13.5	0.00e+00	0	39	0	25719472128	22	14829
2026-01-05 19:46:25.75	252.51	41.39	-27.9	-28.2	13.5	0.00e+00	0	39	0	25828524032	22	14957
2026-01-05 19:46:26.75	253.29	41.44	-27.8	-28.0	13.5	0.00e+00	0	39	0	25945964544	22	14743
2026-01-05 19:46:27.75	254.07	41.49	-27.8	-28.0	13.5	0.00e+00	0	39	0	26063405056	22	14698
2026-01-05 19:46:28.75	254.85	41.53	-27.8	-28.1	13.5	0.00e+00	0	39	0	26172456960	22	14868
2026-01-05 19:46:29.75	255.63	41.57	-27.8	-28.0	13.5	4.70e-06	0	39	0	26281508864	22	14768
2026-01-05 19:46:30.74	256.41	41.60	-27.8	-28.1	13.5	4.70e-06	0	39	0	26390560768	22	14803
2026-01-05 19:46:31.74	257.19	41.62	-27.9	-28.1	13.5	4.70e-06	0	39	0	26508001280	22	14931
2026-01-05 19:46:32.75	257.99	41.64	-27.8	-28.1	13.5	0.00e+00	0	39	0	26617053184	22	14869
2026-01-05 19:46:33.74	258.77	41.65	-27.9	-28.2	13.5	0.00e+00	0	39	0	26734493696	22	14958
2026-01-05 19:46:34.74	259.56	41.66	-27.9	-28.1	13.5	0.00e+00	0	39	0	26843545600	22	14916
2026-01-05 19:46:35.74	260.35	41.66	-27.9	-28.2	13.5	0.00e+00	0	39	0	26952597504	22	14951
2026-01-05 19:46:36.74	261.13	41.66	-27.9	-28.2	13.5	0.00e+00	0	39	0	27070038016	22	14968
2026-01-05 19:46:37.73	261.91	41.65	-27.9	-28.2	13.5	0.00e+00	0	39	0	27179089920	22	15037
2026-01-05 19:46:38.73	262.70	41.63	-28.0	-28.3	13.5	0.00e+00	0	39	0	27296530432	22	15130
2026-01-05 19:46:39.73	263.49	41.61	-27.9	-28.2	13.5	0.00e+00	0	39	0	27405582336	22	15009
2026-01-05 19:46:40.73	264.27	41.59	-27.9	-28.2	13.5	0.00e+00	0	39	0	27514634240	22	14948
2026-01-05 19:46:41.72	265.05	41.55	-28.0	-28.2	13.5	0.00e+00	0	39	0	27632074752	22	15088
2026-01-05 19:46:42.72	265.83	41.52	-28.0	-28.2	13.5	0.00e+00	0	39	0	27741126656	22	15038
2026-01-05 19:46:43.72	266.61	41.47	-28.1	-28.3	13.4	0.00e+00	0	39	0	27858567168	22	15259
2026-01-05 19:46:44.71	267.38	41.42	-28.0	-28.2	13.4	0.00e+00	0	39	0	27967619072	22	15068
2026-01-05 19:46:45.71	268.16	41.37	-27.9	-28.1	13.4	4.70e-06	0	39	0	28076670976	22	14893
2026-01-05 19:46:46.72	268.94	41.31	-28.0	-28.3	13.4	4.70e-06	0	39	0	28194111488	22	15159
2026-01-05 19:46:47.71	269.70	41.24	-27.9	-28.2	13.4	0.00e+00	0	39	0	28303163392	22	14952
2026-01-05 19:46:48.71	270.46	41.17	-27.9	-28.2	13.4	0.00e+00	0	39	0	28420603904	22	14982
2026-01-05 19:46:49.70	271.22	41.10	-27.8	-28.1	13.5	0.00e+00	0	39	0	28521267200	22	14844
2026-01-05 19:46:50.69	271.97	41.02	-28.0	-28.2	13.5	0.00e+00	0	39	0	28638707712	22	15054
2026-01-05 19:46:51.68	272.71	40.93	-28.0	-28.3	13.5	0.00e+00	0	39	0	28747759616	22	15150
2026-01-05 19:46:52.67	273.46	40.84	-27.9	-28.2	13.5	0.00e+00	0	39	0	28865200128	22	14985
2026-01-05 19:46:53.67	274.20	40.74	-28.1	-28.3	13.5	0.00e+00	0	39	0	28974252032	22	15250
2026-01-05 19:46:54.67	274.94	40.64	-28.1	-28.4	13.5	0.00e+00	0	39	0	29083303936	22	15322
2026-01-05 19:46:55.66	275.67	40.54	-28.1	-28.4	13.5	0.00e+00	0	39	0	29200744448	22	15373
2026-01-05 19:46:56.66	276.40	40.43	-28.1	-28.4	13.5	0.00e+00	0	39	0	29309796352	22	15344
2026-01-05 19:46:57.67	277.13	40.31	-28.2	-28.5	13.5	0.00e+00	0	39	0	29427236864	22	15567
2026-01-05 19:46:58.66	277.85	40.19	-28.3	-28.6	13.4	0.00e+00	0	39	0	29536288768	22	15706
2026-01-05 19:46:59.65	278.55	40.07	-28.3	-28.6	13.4	0.00e+00	0	39	0	29653729280	22	15663
2026-01-05 19:47:00.64	279.25	39.94	-28.5	-28.7	13.5	0.00e+00	0	39	0	29754392576	22	15997
2026-01-05 19:47:01.63	279.95	39.81	-28.5	-28.7	13.4	0.00e+00	0	39	0	29871833088	22	15993
2026-01-05 19:47:02.63	280.65	39.68	-28.4	-28.7	13.4	0.00e+00	0	39	0	29980884992	22	15915
2026-01-05 19:47:03.62	281.33	39.54	-28.5	-28.8	13.5	0.00e+00	0	39	0	30098325504	22	16108
2026-01-05 19:47:04.62	282.01	39.40	-28.6	-28.8	13.4	0.00e+00	0	39	0	30207377408	22	16181
2026-01-05 19:47:05.61	282.69	39.25	-28.5	-28.8	13.4	0.00e+00	0	39	0	30316429312	22	16159
2026-01-05 19:47:06.62	283.36	39.10	-28.6	-28.9	13.5	0.00e+00	0	39	0	30433869824	22	16223
2026-01-05 19:47:07.61	284.02	38.95	-28.6	-28.8	13.4	0.00e+00	0	39	0	30542921728	22	16180
2026-01-05 19:47:08.61	284.68	38.79	-28.7	-28.9	13.4	0.00e+00	0	39	0	30660362240	23	15404
2026-01-05 19:47:09.60	285.33	38.63	-28.7	-28.9	13.5	0.00e+00	0	39	0	30761025536	23	15460
2026-01-05 19:47:10.59	285.97	38.47	-28.7	-29.0	13.4	0.00e+00	0	39	0	30878466048	23	15560
2026-01-05 19:47:11.58	286.60	38.31	-28.8	-29.0	13.5	0.00e+00	0	39	0	30987517952	23	15592
2026-01-05 19:47:12.57	287.22	38.14	-28.8	-29.1	13.5	0.00e+00	0	39	0	31104958464	23	15707
2026-01-05 19:47:13.56	287.84	37.97	-28.7	-29.0	13.5	0.00e+00	0	39	0	31214010368	23	15529
2026-01-05 19:47:14.56	288.46	37.79	-28.7	-29.0	13.5	0.00e+00	0	39	0	31323062272	23	15539
2026-01-05 19:47:15.55	289.07	37.62	-28.7	-28.9	13.5	0.00e+00	0	39	0	31440502784	23	15463
2026-01-05 19:47:16.55	289.67	37.44	-28.8	-29.1	13.5	0.00e+00	0	39	0	31549554688	23	15694
2026-01-05 19:47:17.54	290.26	37.26	-28.8	-29.1	13.5	0.00e+00	0	39	0	31658606592	23	15659
2026-01-05 19:47:18.53	290.85	37.08	-28.8	-29.1	13.6	0.00e+00	0	39	0	31767658496	23	15735
2026-01-05 19:47:19.52	291.42	36.90	-28.9	-29.1	13.6	0.00e+00	0	39	0	31885099008	23	15791
2026-01-05 19:47:20.52	292.00	36.71	-28.9	-29.2	13.6	0.00e+00	0	39	0	31994150912	23	15873
2026-01-05 19:47:21.51	292.57	36.52	-29.0	-29.3	13.6	0.00e+00	0	39	0	32111591424	23	16077
2026-01-05 19:47:22.50	293.12	36.34	-29.1	-29.3	13.5	0.00e+00	0	39	0	32220643328	23	16197
2026-01-05 19:47:23.50	293.68	36.14	-29.1	-29.3	13.6	0.00e+00	0	39	0	32329695232	24	15290
2026-01-05 19:47:24.49	294.22	35.95	-29.2	-29.5	13.5	0.00e+00	0	39	0	32438747136	24	15518
2026-01-05 19:47:25.49	294.77	35.76	-29.2	-29.5	13.5	0.00e+00	0	39	0	32556187648	24	15595
2026-01-05 19:47:26.48	295.30	35.56	-29.2	-29.5	13.6	4.70e-06	0	39	0	32665239552	24	15578
2026-01-05 19:47:27.48	295.83	35.37	-29.3	-29.6	13.6	4.70e-06	0	39	0	32774291456	24	15714
2026-01-05 19:47:28.47	296.34	35.17	-29.3	-29.6	13.6	0.00e+00	0	39	0	32891731968	24	15766
2026-01-05 19:47:29.47	296.86	34.97	-29.4	-29.7	13.5	0.00e+00	0	39	0	33000783872	24	15958
2026-01-05 19:47:30.46	297.36	34.77	-29.5	-29.8	13.5	0.00e+00	0	39	0	33118224384	24	16017
2026-01-05 19:47:31.46	297.87	34.57	-29.5	-29.8	13.5	0.00e+00	0	39	0	33227276288	24	16137
2026-01-05 19:47:32.46	298.36	34.37	-29.6	-29.9	13.6	0.00e+00	0	39	0	33336328192	25	15391
2026-01-05 19:47:33.45	298.85	34.17	-29.6	-29.9	13.6	0.00e+00	0	39	0	33445380096	25	15300
2026-01-05 19:47:34.44	299.33	33.97	-29.7	-29.9	13.5	0.00e+00	0	39	0	33562820608	25	15438
2026-01-05 19:47:35.43	299.80	33.77	-29.6	-29.9	13.5	0.00e+00	0	39	0	33671872512	25	15350
2026-01-05 19:47:36.41	300.26	33.57	-29.6	-29.9	13.5	0.00e+00	0	39	0	33780924416	25	15310
2026-01-05 19:47:37.41	300.72	33.36	-29.7	-29.9	13.5	0.00e+00	0	39	0	33898364928	25	15452
2026-01-05 19:47:38.41	301.18	33.16	-30.1	-30.3	13.5	0.00e+00	0	39	0	34007416832	25	16180
2026-01-05 19:47:39.41	301.64	32.95	-29.7	-30.0	13.5	0.00e+00	0	39	0	34124857344	25	15595
2026-01-05 19:47:40.41	302.08	32.75	-29.8	-30.1	13.5	0.00e+00	0	39	0	34233909248	25	15781
2026-01-05 19:47:41.41	302.52	32.54	-29.9	-30.1	13.5	0.00e+00	0	39	0	34342961152	25	15818
2026-01-05 19:47:42.41	302.96	32.34	-30.0	-30.3	13.5	0.00e+00	0	39	0	34460401664	25	16058
2026-01-05 19:47:43.41	303.39	32.13	-30.0	-30.3	13.5	0.00e+00	0	39	0	34569453568	25	16164
2026-01-05 19:47:44.40	303.81	31.93	-30.1	-30.3	13.5	0.00e+00	0	39	0	34686894080	25	16167
2026-01-05 19:47:45.40	304.22	31.72	-30.1	-30.4	13.5	0.00e+00	0	39	0	34787557376	25	16246
2026-01-05 19:47:46.39	304.63	31.52	-30.2	-30.5	13.5	0.00e+00	0	39	0	34904997888	26	15546
2026-01-05 19:47:47.39	305.04	31.31	-30.3	-30.6	13.5	0.00e+00	0	39	0	35014049792	26	15657
2026-01-05 19:47:48.38	305.44	31.11	-30.4	-30.6	13.5	0.00e+00	0	39	0	35131490304	26	15810
2026-01-05 19:47:49.37	305.83	30.91	-30.4	-30.7	13.5	0.00e+00	0	39	0	35240542208	26	15877
2026-01-05 19:47:50.37	306.22	30.70	-30.4	-30.7	13.4	0.00e+00	0	39	0	35349594112	26	15901
2026-01-05 19:47:51.36	306.60	30.50	-30.5	-30.8	13.4	0.00e+00	0	39	0	35467034624	26	16108
2026-01-05 19:47:52.36	306.98	30.30	-30.6	-30.8	13.4	0.00e+00	0	39	0	35576086528	26	16180
2026-01-05 19:47:53.36	307.36	30.10	-30.6	-30.9	13.4	4.70e-06	0	39	0	35693527040	27	15420
2026-01-05 19:47:54.35	307.72	29.90	-30.7	-31.0	13.4	4.70e-06	0	39	0	35802578944	27	15518
2026-01-05 19:47:55.35	308.09	29.69	-30.7	-31.0	13.4	4.70e-06	0	39	0	35911630848	27	15571
2026-01-05 19:47:56.34	308.44	29.49	-30.8	-31.1	13.4	1.43e-05	0	39	0	36020682752	27	15661
2026-01-05 19:47:57.34	308.80	29.29	-31.0	-31.3	13.4	1.43e-05	0	39	0	36138123264	27	16042
2026-01-05 19:47:58.34	309.15	29.09	-31.0	-31.3	13.4	1.43e-05	0	39	0	36247175168	27	16058
2026-01-05 19:47:59.33	309.49	28.89	-31.1	-31.4	13.3	9.50e-06	0	39	0	36356227072	27	16296
2026-01-05 19:48:00.33	309.84	28.70	-31.1	-31.4	13.4	9.50e-06	0	39	0	36473667584	28	15373
2026-01-05 19:48:01.32	310.17	28.50	-31.2	-31.5	13.3	9.50e-06	0	39	0	36582719488	28	15592
2026-01-05 19:48:02.32	310.50	28.30	-31.3	-31.6	13.3	2.86e-05	0	39	0	36700160000	28	15680
2026-01-05 19:48:03.32	310.83	28.11	-31.3	-31.6	13.3	2.86e-05	0	39	0	36809211904	28	15719
2026-01-05 19:48:04.32	311.16	27.91	-31.4	-31.7	13.3	2.86e-05	0	39	0	36926652416	28	15924
2026-01-05 19:48:05.32	311.48	27.71	-31.4	-31.7	13.3	2.86e-05	0	39	0	37035704320	28	15943
2026-01-05 19:48:06.31	311.79	27.52	-31.4	-31.7	13.3	1.43e-05	0	39	0	37144756224	28	15958
2026-01-05 19:48:07.30	312.10	27.33	-31.5	-31.8	13.3	1.43e-05	0	39	0	37262196736	28	16019
2026-01-05 19:48:08.30	312.40	27.14	-31.5	-31.8	13.3	1.43e-05	0	39	0	37371248640	28	16095
2026-01-05 19:48:09.30	312.71	26.94	-31.6	-31.9	13.3	1.43e-05	0	39	0	37480300544	28	16218
2026-01-05 19:48:10.29	313.01	26.75	-31.6	-31.9	13.3	1.43e-05	0	39	0	37589352448	29	15412
2026-01-05 19:48:11.29	313.30	26.56	-31.8	-32.0	13.3	3.81e-05	0	39	0	37706792960	29	15639
2026-01-05 19:48:12.28	313.59	26.38	-31.7	-32.0	13.3	3.81e-05	0	39	0	37815844864	29	15587
2026-01-05 19:48:13.28	313.88	26.19	-31.9	-32.1	13.3	3.81e-05	0	39	0	37933285376	29	15815
2026-01-05 19:48:14.27	314.16	26.00	-31.8	-32.1	13.3	1.90e-05	0	39	0	38042337280	29	15762
2026-01-05 19:48:15.26	314.44	25.82	-31.9	-32.2	13.3	1.90e-05	0	39	0	38151389184	29	15926
2026-01-05 19:48:16.25	314.71	25.63	-31.9	-32.2	13.3	1.90e-05	0	39	0	38260441088	29	15936
2026-01-05 19:48:17.23	314.98	25.45	-32.0	-32.3	13.3	5.72e-05	0	39	0	38377881600	29	16086
2026-01-05 19:48:18.23	315.25	25.27	-32.1	-32.4	13.2	5.72e-05	0	39	0	38486933504	29	16282
2026-01-05 19:48:19.23	315.52	25.08	-32.3	-32.5	13.2	6.67e-05	0	39	0	38595985408	30	15630
2026-01-05 19:48:20.22	315.78	24.90	-32.3	-32.6	13.2	6.67e-05	0	39	0	38713425920	30	15770
2026-01-05 19:48:21.21	316.04	24.72	-32.4	-32.7	13.2	6.67e-05	0	39	0	38822477824	30	15909
2026-01-05 19:48:22.22	316.30	24.54	-32.5	-32.8	13.2	6.67e-05	0	39	0	38939918336	30	16043
2026-01-05 19:48:23.21	316.55	24.37	-32.6	-32.8	13.2	5.72e-05	0	39	0	39048970240	30	16146
2026-01-05 19:48:24.21	316.80	24.19	-32.6	-32.9	13.2	5.72e-05	0	39	0	39158022144	30	16211
2026-01-05 19:48:25.21	317.05	24.01	-32.7	-33.0	13.2	5.72e-05	0	39	0	39275462656	31	15539
2026-01-05 19:48:26.21	317.30	23.83	-32.8	-33.0	13.2	6.19e-05	0	39	0	39384514560	31	15608
2026-01-05 19:48:27.20	317.54	23.66	-32.8	-33.0	13.2	6.19e-05	0	39	0	39501955072	31	15633
2026-01-05 19:48:28.20	317.78	23.48	-32.9	-33.1	13.2	1.00e-04	0	39	0	39611006976	31	15793
2026-01-05 19:48:29.21	318.02	23.31	-32.9	-33.2	13.2	1.00e-04	0	39	0	39720058880	31	15853
2026-01-05 19:48:30.20	318.25	23.14	-33.0	-33.2	13.2	1.00e-04	0	39	0	39837499392	31	15973
2026-01-05 19:48:31.19	318.48	22.97	-33.1	-33.3	13.2	1.00e-04	0	39	0	39946551296	31	16193
2026-01-05 19:48:32.19	318.70	22.80	-33.0	-33.3	13.2	9.05e-05	0	39	0	40055603200	31	16134
2026-01-05 19:48:33.19	318.93	22.63	-33.1	-33.4	13.2	9.05e-05	0	39	0	40164655104	31	16288
2026-01-05 19:48:34.18	319.15	22.46	-33.2	-33.5	13.2	1.62e-04	0	39	0	40282095616	32	15487
2026-01-05 19:48:35.18	319.37	22.29	-33.2	-33.4	13.2	1.62e-04	0	39	0	40391147520	32	15457
2026-01-05 19:48:36.17	319.58	22.13	-33.2	-33.5	13.2	1.76e-04	0	39	0	40508588032	32	15539
2026-01-05 19:48:37.17	319.80	21.96	-33.3	-33.6	13.2	1.76e-04	0	39	0	40617639936	32	15717
2026-01-05 19:48:38.17	320.01	21.80	-33.3	-33.6	13.2	1.76e-04	0	39	0	40726691840	32	15654
2026-01-05 19:48:39.17	320.22	21.64	-33.2	-33.4	13.2	1.14e-04	0	39	0	40844132352	32	15448
2026-01-05 19:48:40.17	320.43	21.47	-33.2	-33.5	13.2	1.14e-04	0	39	0	40953184256	32	15560
2026-01-05 19:48:41.16	320.63	21.31	-33.2	-33.5	13.2	1.14e-04	0	39	0	41070624768	32	15585
2026-01-05 19:48:42.16	320.84	21.15	-33.3	-33.6	13.2	1.81e-04	0	39	0	41179676672	32	15689
2026-01-05 19:48:43.15	321.03	20.99	-33.4	-33.7	13.2	1.81e-04	0	39	0	41288728576	32	15913
2026-01-05 19:48:44.14	321.23	20.84	-33.5	-33.8	13.1	1.81e-04	0	39	0	41397780480	32	16076
2026-01-05 19:48:45.14	321.43	20.68	-33.5	-33.8	13.1	9.06e-04	0	39	0	41515220992	32	16157
2026-01-05 19:48:46.13	321.62	20.52	-33.6	-33.8	13.2	9.06e-04	0	39	0	41624272896	32	16183
2026-01-05 19:48:47.13	321.81	20.37	-33.7	-33.9	13.2	9.06e-04	0	39	0	41741713408	33	15467
2026-01-05 19:48:48.12	322.00	20.21	-33.8	-34.1	13.1	1.01e-03	0	39	0	41850765312	33	15668
2026-01-05 19:48:49.13	322.19	20.06	-33.8	-34.1	13.1	1.01e-03	0	39	0	41959817216	33	15713
2026-01-05 19:48:50.13	322.37	19.90	-33.9	-34.1	13.1	1.00e-03	0	39	0	42077257728	33	15833
2026-01-05 19:48:51.12	322.55	19.75	-33.9	-34.1	13.1	1.00e-03	0	39	0	42186309632	33	15794
2026-01-05 19:48:52.12	322.73	19.60	-33.9	-34.2	13.1	1.00e-03	0	39	0	42303750144	33	15914
2026-01-05 19:48:53.12	322.91	19.45	-34.0	-34.3	13.1	1.06e-03	0	39	0	42412802048	33	16088
2026-01-05 19:48:54.12	323.09	19.30	-34.0	-34.3	13.1	1.06e-03	0	39	0	42521853952	33	16136
2026-01-05 19:48:55.12	323.27	19.15	-34.1	-34.4	13.1	1.06e-03	0	39	0	42639294464	33	16236
2026-01-05 19:48:56.11	323.44	19.00	-34.1	-34.4	13.1	1.27e-03	0	39	0	42748346368	33	16217
2026-01-05 19:48:57.11	323.61	18.86	-34.2	-34.5	13.1	1.27e-03	0	39	0	42865786880	34	15483
2026-01-05 19:48:58.11	323.78	18.71	-34.2	-34.5	13.1	1.27e-03	0	39	0	42974838784	34	15554
2026-01-05 19:48:59.11	323.95	18.57	-34.3	-34.6	13.1	1.11e-03	0	39	0	43083890688	34	15723
2026-01-05 19:49:00.11	324.11	18.42	-34.4	-34.7	13.1	1.11e-03	0	39	0	43201331200	34	15862
2026-01-05 19:49:01.11	324.28	18.28	-34.5	-34.7	13.1	1.11e-03	0	39	0	43310383104	34	15996
2026-01-05 19:49:02.10	324.44	18.14	-34.4	-34.7	13.1	1.38e-03	0	39	0	43427823616	34	15944
2026-01-05 19:49:03.10	324.60	17.99	-34.5	-34.8	13.1	1.38e-03	0	39	0	43528486912	34	16076
2026-01-05 19:49:04.10	324.76	17.85	-34.5	-34.8	13.1	1.38e-03	0	39	0	43645927424	34	16119
2026-01-05 19:49:05.09	324.92	17.71	-34.6	-34.9	13.0	1.44e-03	0	39	0	43754979328	34	16212
2026-01-05 19:49:06.08	325.07	17.58	-34.6	-34.9	13.1	1.44e-03	0	39	0	43872419840	35	15444
2026-01-05 19:49:07.07	325.22	17.44	-34.8	-35.1	13.0	1.85e-03	0	39	0	43981471744	35	15675
2026-01-05 19:49:08.07	325.38	17.30	-34.7	-35.0	13.0	1.85e-03	0	39	0	44090523648	35	15560
2026-01-05 19:49:09.07	325.53	17.16	-34.8	-35.1	13.0	1.85e-03	0	39	0	44207964160	35	15718
2026-01-05 19:49:10.05	325.67	17.03	-34.9	-35.2	13.0	1.92e-03	0	39	0	44317016064	35	15946
2026-01-05 19:49:11.05	325.82	16.90	-34.9	-35.2	13.0	1.92e-03	0	39	0	44434456576	35	15931
2026-01-05 19:49:12.05	325.97	16.76	-35.0	-35.2	13.0	1.92e-03	0	39	0	44543508480	35	16015
2026-01-05 19:49:13.05	326.11	16.63	-35.1	-35.3	13.0	1.98e-03	0	39	0	44652560384	35	16192
2026-01-05 19:49:14.05	326.26	16.49	-35.1	-35.4	13.0	1.98e-03	0	39	0	44761612288	35	16232
2026-01-05 19:49:15.05	326.40	16.36	-35.1	-35.4	13.0	1.98e-03	0	39	0	44879052800	35	16238
2026-01-05 19:49:16.05	326.54	16.23	-37.6	-37.9	13.1	1.87e-03	0	39	0	44988104704	41	15373
2026-01-05 19:49:17.05	326.68	16.10	-37.5	-37.8	13.2	1.87e-03	0	39	0	45105545216	41	15157
2026-01-05 19:49:18.05	326.82	15.97	-37.6	-37.9	13.1	7.34e-04	0	39	0	45222985728	41	15308
2026-01-05 19:49:19.05	326.96	15.84	-37.5	-37.8	13.1	7.34e-04	0	39	0	45323649024	41	15215
2026-01-05 19:49:20.04	327.09	15.71	-37.6	-37.9	13.1	7.34e-04	0	39	0	45441089536	41	15417
2026-01-05 19:49:21.04	327.23	15.59	-37.7	-38.0	13.1	6.29e-04	0	39	0	45550141440	41	15495
2026-01-05 19:49:22.03	327.36	15.46	-37.8	-38.1	13.1	6.29e-04	0	39	0	45667581952	41	15680
2026-01-05 19:49:23.03	327.49	15.33	-37.8	-38.1	13.1	6.29e-04	0	39	0	45776633856	41	15776
2026-01-05 19:49:24.04	327.62	15.21	-37.8	-38.1	13.1	7.87e-04	0	39	0	45885685760	41	15769
2026-01-05 19:49:25.04	327.75	15.08	-38.0	-38.3	13.1	7.87e-04	0	39	0	46003126272	41	16078
2026-01-05 19:49:26.04	327.88	14.96	-38.0	-38.2	13.0	7.87e-04	0	39	0	46112178176	41	15979
2026-01-05 19:49:27.04	328.01	14.84	-38.0	-38.3	13.1	1.03e-03	0	39	0	46229618688	41	16114
2026-01-05 19:49:28.05	328.13	14.71	-38.1	-38.3	13.0	1.03e-03	0	39	0	46338670592	41	16184
2026-01-05 19:49:29.04	328.26	14.59	-38.2	-38.5	13.1	1.03e-03	0	39	0	46447722496	42	15499
2026-01-05 19:49:30.04	328.38	14.47	-38.2	-38.4	13.1	1.02e-03	0	39	0	46565163008	42	15470
2026-01-05 19:49:31.03	328.50	14.35	-38.2	-38.5	13.1	1.02e-03	0	39	0	46674214912	42	15496
2026-01-05 19:49:32.03	328.62	14.23	-38.3	-38.5	13.0	1.16e-03	0	39	0	46791655424	42	15614
2026-01-05 19:49:33.04	328.74	14.11	-38.3	-38.6	13.0	1.16e-03	0	39	0	46900707328	42	15668
2026-01-05 19:49:34.04	328.86	13.99	-38.4	-38.6	13.0	1.26e-03	0	39	0	47009759232	42	15818
2026-01-05 19:49:35.04	328.98	13.87	-38.3	-38.6	13.0	1.26e-03	0	39	0	47127199744	42	15798
2026-01-05 19:49:36.04	329.10	13.76	-38.3	-38.6	13.0	1.26e-03	0	39	0	47236251648	42	15795
2026-01-05 19:49:37.04	329.21	13.64	-38.4	-38.7	13.0	1.26e-03	0	39	0	47353692160	42	15912
2026-01-05 19:49:38.04	329.33	13.52	-38.5	-38.8	13.0	1.26e-03	0	39	0	47462744064	42	16052
2026-01-05 19:49:39.04	329.44	13.41	-38.4	-38.7	13.0	1.26e-03	0	39	0	47580184576	42	15855
2026-01-05 19:49:40.04	329.55	13.29	-38.4	-38.7	13.0	1.26e-03	0	39	0	47689236480	42	15956
2026-01-05 19:49:41.04	329.66	13.18	-38.5	-38.8	13.0	1.65e-03	0	39	0	47798288384	42	16018
2026-01-05 19:49:42.04	329.78	13.06	-38.5	-38.8	12.9	1.65e-03	0	39	0	47915728896	42	16133
2026-01-05 19:49:43.05	329.89	12.95	-38.6	-38.9	13.0	1.65e-03	0	39	0	48024780800	43	15334
2026-01-05 19:49:44.05	329.99	12.84	-38.7	-39.0	12.9	1.65e-03	0	39	0	48142221312	43	15589
2026-01-05 19:49:45.05	330.10	12.73	-38.7	-39.0	12.9	2.30e-03	0	39	0	48251273216	43	15582
2026-01-05 19:49:46.05	330.21	12.62	-38.7	-39.1	12.9	2.30e-03	0	39	0	48368713728	43	15656
2026-01-05 19:49:47.05	330.32	12.50	-38.8	-39.1	12.9	2.30e-03	0	39	0	48477765632	43	15729
2026-01-05 19:49:48.05	330.42	12.39	-38.9	-39.3	12.9	2.97e-03	0	39	0	48586817536	43	16025
2026-01-05 19:49:49.05	330.52	12.29	-39.0	-39.3	12.9	2.97e-03	0	40	0	48704258048	43	16041
2026-01-05 19:49:50.05	330.63	12.18	-39.0	-39.4	12.8	2.97e-03	0	39	0	48821698560	43	16220
2026-01-05 19:49:51.05	330.73	12.07	-39.1	-39.4	12.8	3.79e-03	0	39	0	48930750464	43	16317
2026-01-05 19:49:52.05	330.83	11.96	-39.1	-39.4	12.8	3.79e-03	0	40	0	49048190976	44	15421
2026-01-05 19:49:53.06	330.93	11.85	-39.1	-39.4	12.8	3.79e-03	0	39	0	49157242880	44	15420
2026-01-05 19:49:54.06	331.03	11.75	-39.3	-39.5	12.8	4.53e-03	0	39	0	49266294784	44	15648
2026-01-05 19:49:55.06	331.13	11.64	-39.3	-39.6	12.8	4.53e-03	0	39	0	49383735296	44	15688
2026-01-05 19:49:56.06	331.23	11.53	-39.4	-39.7	12.8	4.53e-03	0	39	0	49492787200	44	15960
2026-01-05 19:49:57.05	331.33	11.43	-39.4	-39.7	12.8	4.40e-03	0	39	0	49610227712	44	15968
2026-01-05 19:49:58.05	331.42	11.33	-39.4	-39.7	12.8	4.40e-03	0	40	0	49719279616	44	15878
2026-01-05 19:49:59.05	331.52	11.22	-39.5	-39.8	12.8	4.40e-03	0	39	0	49828331520	44	16035
2026-01-05 19:50:00.06	331.62	11.12	-39.5	-39.8	12.8	4.48e-03	0	39	0	49945772032	44	16107
2026-01-05 19:50:01.06	331.71	11.01	-39.6	-39.9	12.8	4.48e-03	0	39	0	50054823936	45	15434
2026-01-05 19:50:02.06	331.80	10.91	-39.6	-39.9	12.8	4.94e-03	0	39	0	50172264448	45	15297
2026-01-05 19:50:03.06	331.90	10.81	-39.6	-39.8	12.8	4.94e-03	0	40	0	50281316352	45	15281
2026-01-05 19:50:04.07	331.99	10.71	-39.6	-39.9	12.8	4.94e-03	0	40	0	50390368256	45	15417
2026-01-05 19:50:05.07	332.08	10.61	-39.7	-40.0	12.8	5.11e-03	0	39	0	50507808768	45	15476
2026-01-05 19:50:06.08	332.17	10.50	-39.7	-40.0	12.7	5.11e-03	0	40	0	50616860672	45	15496
2026-01-05 19:50:07.07	332.26	10.41	-39.8	-40.1	12.7	5.11e-03	0	40	0	50734301184	45	15699
2026-01-05 19:50:08.07	332.35	10.31	-39.8	-40.1	12.7	5.54e-03	0	40	0	50843353088	45	15743
2026-01-05 19:50:09.06	332.44	10.21	-39.9	-40.2	12.7	5.54e-03	0	40	0	50960793600	45	16010
2026-01-05 19:50:10.06	332.53	10.11	-39.9	-40.2	12.7	5.54e-03	0	39	0	51069845504	45	15907
2026-01-05 19:50:11.07	332.61	10.01	-39.9	-40.2	12.7	6.82e-03	0	40	0	51178897408	45	15906
2026-01-05 19:50:12.06	332.70	9.91	-40.0	-40.3	12.7	6.82e-03	0	40	0	51296337920	45	16109
2026-01-05 19:50:13.06	332.78	9.82	-39.9	-40.3	12.6	7.58e-03	0	40	0	51405389824	45	16045
2026-01-05 19:50:14.06	332.87	9.72	-40.0	-40.4	12.6	7.58e-03	0	39	0	51522830336	45	16210
2026-01-05 19:50:15.07	332.95	9.62	-40.0	-40.3	12.6	7.58e-03	0	39	0	51631882240	45	16112
2026-01-05 19:50:16.07	333.04	9.53	-40.1	-40.4	12.6	7.83e-03	0	40	0	51740934144	45	16326
2026-01-05 19:50:17.06	333.12	9.43	-40.1	-40.4	12.6	7.83e-03	0	40	0	51858374656	45	16260
2026-01-05 19:50:18.07	333.20	9.34	-40.3	-40.6	12.6	8.84e-03	0	39	0	51967426560	46	15694
2026-01-05 19:50:19.06	333.29	9.24	-40.1	-40.4	12.6	8.84e-03	0	39	0	52084867072	46	15443
2026-01-05 19:50:20.06	333.37	9.15	-40.3	-40.6	12.6	8.84e-03	0	39	0	52193918976	46	15728
2026-01-05 19:50:21.05	333.45	9.06	-40.2	-40.6	12.6	8.97e-03	0	39	0	52302970880	46	15703
2026-01-05 19:50:22.05	333.53	8.96	-40.4	-40.7	12.6	8.97e-03	0	40	0	52412022784	46	15959
2026-01-05 19:50:23.04	333.61	8.87	-40.4	-40.7	12.6	8.97e-03	0	40	0	52529463296	46	15937
2026-01-05 19:50:24.05	333.68	8.78	-40.4	-40.7	12.6	9.91e-03	0	40	0	52638515200	46	15962
2026-01-05 19:50:25.04	333.76	8.69	-40.6	-40.9	12.5	9.91e-03	0	39	0	52747567104	46	16221
2026-01-05 19:50:26.05	333.84	8.60	-40.5	-40.8	12.5	9.91e-03	0	40	0	52865007616	46	16111
2026-01-05 19:50:27.04	333.92	8.50	-40.6	-40.9	12.5	1.10e-02	0	39	0	52974059520	47	15420
2026-01-05 19:50:28.04	333.99	8.41	-40.7	-41.0	12.5	1.10e-02	0	39	0	53091500032	47	15596
2026-01-05 19:50:29.04	334.07	8.32	-40.8	-41.1	12.5	1.10e-02	0	40	0	53200551936	47	15810
2026-01-05 19:50:30.04	334.15	8.23	-40.7	-41.1	12.5	1.18e-02	0	40	0	53309603840	47	15692
2026-01-05 19:50:31.03	334.22	8.15	-40.8	-41.2	12.5	1.18e-02	0	39	0	53427044352	47	15855
2026-01-05 19:50:32.03	334.29	8.06	-40.8	-41.2	12.5	1.18e-02	0	39	0	53536096256	47	15859
2026-01-05 19:50:33.03	334.37	7.97	-40.9	-41.2	12.5	1.18e-02	0	40	0	53653536768	47	16012
2026-01-05 19:50:34.03	334.44	7.88	-40.8	-41.2	12.5	1.19e-02	0	39	0	53762588672	47	15877
2026-01-05 19:50:35.02	334.51	7.79	-41.0	-41.3	12.4	1.19e-02	0	39	0	53880029184	47	16164
2026-01-05 19:50:36.03	334.59	7.70	-40.9	-41.2	12.5	1.19e-02	0	39	0	53989081088	47	15982
2026-01-05 19:50:37.03	334.66	7.62	-41.0	-41.4	12.4	1.27e-02	0	39	0	54098132992	47	16265
2026-01-05 19:50:38.03	334.73	7.53	-41.8	-42.1	12.6	1.27e-02	0	39	0	54215573504	49	15812
2026-01-05 19:50:39.02	334.80	7.44	-42.0	-42.3	12.5	1.27e-02	0	40	0	54324625408	49	16085
2026-01-05 19:50:40.02	334.87	7.36	-41.9	-42.2	12.6	9.23e-03	0	40	0	54442065920	49	15913
2026-01-05 19:50:41.02	334.94	7.27	-42.0	-42.3	12.5	9.23e-03	0	40	0	54551117824	49	16057
2026-01-05 19:50:42.02	335.01	7.19	-42.0	-42.4	12.6	9.23e-03	0	40	0	54660169728	50	15322
2026-01-05 19:50:43.02	335.08	7.10	-42.1	-42.4	12.6	9.34e-03	0	40	0	54777610240	50	15364
2026-01-05 19:50:44.01	335.15	7.02	-42.1	-42.4	12.5	9.34e-03	0	40	0	54886662144	50	15461
2026-01-05 19:50:45.00	335.22	6.93	-42.2	-42.5	12.5	9.34e-03	0	40	0	55004102656	50	15581
2026-01-05 19:50:46.00	335.28	6.85	-42.2	-42.5	12.5	1.06e-02	0	40	0	55104765952	50	15541
2026-01-05 19:50:46.98	335.35	6.77	-42.3	-42.6	12.5	1.06e-02	0	39	0	55222206464	50	15751
2026-01-05 19:50:47.98	335.42	6.68	-42.2	-42.5	12.5	1.06e-02	0	40	0	55331258368	50	15536
2026-01-05 19:50:48.97	335.48	6.60	-42.1	-42.5	12.5	1.10e-02	0	40	0	55448698880	50	15480
2026-01-05 19:50:49.96	335.55	6.52	-42.3	-42.6	12.4	1.10e-02	0	40	0	55557750784	50	15796
2026-01-05 19:50:50.95	335.61	6.44	-42.3	-42.6	12.5	1.13e-02	0	40	0	55666802688	50	15755
2026-01-05 19:50:51.95	335.68	6.36	-42.4	-42.8	12.4	1.13e-02	0	39	0	55775854592	50	16027
2026-01-05 19:50:52.95	335.74	6.27	-42.3	-42.6	12.4	1.13e-02	0	40	0	55893295104	50	15800
2026-01-05 19:50:53.94	335.81	6.19	-42.5	-42.8	12.3	1.28e-02	0	40	0	56002347008	50	16082
2026-01-05 19:50:54.94	335.87	6.11	-42.6	-42.9	12.3	1.28e-02	0	39	0	56111398912	50	16323
2026-01-05 19:50:55.94	335.93	6.03	-42.6	-42.9	12.4	1.28e-02	0	39	0	56228839424	51	15453
2026-01-05 19:50:56.94	336.00	5.95	-42.8	-43.1	12.3	1.44e-02	0	39	0	56337891328	51	15721
2026-01-05 19:50:57.93	336.06	5.87	-42.7	-43.0	12.3	1.44e-02	0	40	0	56455331840	51	15634
2026-01-05 19:50:58.92	336.12	5.79	-42.7	-43.0	12.3	1.57e-02	0	40	0	56564383744	51	15577
2026-01-05 19:50:59.92	336.18	5.71	-42.7	-43.0	12.3	1.57e-02	0	40	0	56673435648	51	15569
2026-01-05 19:51:00.91	336.24	5.63	-42.8	-43.1	12.3	1.57e-02	0	39	0	56790876160	51	15707
2026-01-05 19:51:01.92	336.30	5.55	-42.7	-43.0	12.3	1.61e-02	0	40	0	56899928064	51	15572
2026-01-05 19:51:02.91	336.36	5.48	-43.0	-43.4	12.2	1.61e-02	0	40	0	57017368576	51	16242
2026-01-05 19:51:03.91	336.42	5.40	-42.8	-43.2	12.2	1.73e-02	0	39	0	57126420480	51	15918
2026-01-05 19:51:04.90	336.48	5.32	-42.7	-43.0	12.3	1.73e-02	0	40	0	57243860992	51	15568
2026-01-05 19:51:05.90	336.54	5.24	-42.8	-43.1	12.2	1.73e-02	0	39	0	57352912896	51	15810
2026-01-05 19:51:06.89	336.60	5.17	-42.9	-43.2	12.2	1.87e-02	0	40	0	57461964800	51	15985
2026-01-05 19:51:07.88	336.66	5.09	-43.1	-43.4	12.1	1.87e-02	0	39	0	57571016704	52	15373
2026-01-05 19:51:08.88	336.72	5.01	-43.2	-43.5	12.1	1.87e-02	0	39	0	57680068608	52	15559
2026-01-05 19:51:09.88	336.78	4.93	-53.0	-54.1	7.8	1.55e-02	15	39	104	57780731904	71	17581
2026-01-05 19:51:10.88	336.83	4.86	-59.1	-62.3	6.2	1.55e-02	0	39	104	57780731904	83	22782
2026-01-05 19:51:11.88	336.89	4.78	-59.1	-61.9	6.2	1.55e-02	0	39	104	57780731904	84	20492
2026-01-05 19:51:12.88	336.95	4.71	-59.8	-63.1	6.2	1.55e-02	0	39	104	57780731904	85	22113
2026-01-05 19:51:13.88	337.00	4.63	-60.0	-63.1	6.2	1.55e-02	0	39	104	57780731904	85	22221
2026-01-05 19:51:14.87	337.06	4.56	-60.2	-63.4	6.2	1.55e-02	0	39	104	57780731904	86	21707
2026-01-05 19:51:15.87	337.12	4.48	-60.3	-63.4	6.2	1.55e-02	0	39	104	57780731904	86	21815
2026-01-05 19:51:16.88	337.17	4.40	-60.2	-63.2	6.2	1.55e-02	0	39	104	57780731904	86	21156
2026-01-05 19:51:17.88	337.23	4.33	-60.4	-63.6	6.2	1.55e-02	0	39	104	57780731904	86	22171
2026-01-05 19:51:18.88	337.28	4.26	-60.5	-63.5	6.1	0.00e+00	0	39	104	57780731904	86	22019
2026-01-05 19:51:19.88	337.34	4.18	-60.7	-63.9	6.2	0.00e+00	0	39	104	57780731904	87	21806
2026-01-05 19:51:20.88	337.39	4.11	-60.6	-63.7	6.1	0.00e+00	0	39	104	57780731904	87	21324
2026-01-05 19:51:21.88	337.45	4.03	-60.7	-63.9	6.1	0.00e+00	0	39	104	57780731904	87	21693
2026-01-05 19:51:22.87	337.50	3.96	-60.8	-64.0	6.2	0.00e+00	0	38	104	57780731904	87	21964
2026-01-05 19:51:23.86	337.55	3.89	-60.8	-64.0	6.2	0.00e+00	0	38	104	57780731904	87	21996
2026-01-05 19:51:24.86	337.61	3.82	-60.8	-64.0	6.1	0.00e+00	0	38	104	57780731904	87	22048
2026-01-05 19:51:25.86	337.66	3.74	-60.8	-64.0	6.2	0.00e+00	0	38	104	57780731904	87	22069
2026-01-05 19:51:26.85	337.71	3.67	-60.8	-64.1	6.2	0.00e+00	0	38	104	57780731904	87	22182
2026-01-05 19:51:27.85	337.76	3.60	-60.8	-64.1	6.2	0.00e+00	0	38	104	57780731904	87	22234
2026-01-05 19:51:28.84	337.81	3.53	-60.8	-64.1	6.2	0.00e+00	0	38	104	57780731904	87	22133
2026-01-05 19:51:29.84	337.87	3.46	-60.8	-64.1	6.2	0.00e+00	0	38	104	57780731904	87	22130
2026-01-05 19:51:30.83	337.92	3.38	-60.9	-64.1	6.2	0.00e+00	0	38	104	57780731904	87	22217
2026-01-05 19:51:31.83	337.97	3.31	-60.8	-64.1	6.2	0.00e+00	0	38	104	57780731904	87	22178
2026-01-05 19:51:32.82	338.02	3.24	-60.8	-64.0	6.2	0.00e+00	0	38	104	57780731904	87	22108
2026-01-05 19:51:33.83	338.07	3.17	-60.7	-64.0	6.2	0.00e+00	0	38	104	57780731904	87	21966
2026-01-05 19:51:34.83	338.12	3.10	-60.7	-64.0	6.2	0.00e+00	0	38	104	57780731904	87	21908
2026-01-05 19:51:35.82	338.17	3.03	-60.7	-63.9	6.1	0.00e+00	0	38	104	57780731904	87	21841
2026-01-05 19:51:36.82	338.22	2.96	-60.7	-64.0	6.2	0.00e+00	0	38	104	57780731904	87	21900
2026-01-05 19:51:37.82	338.27	2.89	-60.7	-64.0	6.2	0.00e+00	0	38	104	57780731904	87	21892
2026-01-05 19:51:38.82	338.32	2.82	-60.7	-63.9	6.2	0.00e+00	0	38	104	57780731904	87	21836
2026-01-05 19:51:39.82	338.37	2.75	-60.7	-63.9	6.2	0.00e+00	0	38	104	57780731904	87	21735
2026-01-05 19:51:40.81	338.41	2.68	-60.7	-63.9	6.2	0.00e+00	0	38	104	57780731904	87	21774
2026-01-05 19:51:41.81	338.46	2.61	-60.6	-63.9	6.2	0.00e+00	0	38	104	57780731904	87	21678
2026-01-05 19:51:42.79	338.51	2.55	-60.7	-63.9	6.2	0.00e+00	0	38	104	57780731904	87	21825
2026-01-05 19:51:43.79	338.56	2.48	-60.6	-63.9	6.2	0.00e+00	0	38	104	57780731904	87	21652
2026-01-05 19:51:44.79	338.60	2.41	-60.6	-63.9	6.2	0.00e+00	0	38	104	57780731904	87	21670
2026-01-05 19:51:45.79	338.65	2.34	-60.6	-63.8	6.2	0.00e+00	0	38	104	57780731904	87	21583
2026-01-05 19:51:46.78	338.70	2.27	-60.6	-63.8	6.2	0.00e+00	0	38	104	57780731904	87	21597
2026-01-05 19:51:47.78	338.75	2.21	-60.6	-63.8	6.1	0.00e+00	0	38	104	57780731904	87	21563
2026-01-05 19:51:48.78	338.79	2.14	-60.6	-63.9	6.2	0.00e+00	0	38	104	57780731904	87	21613
2026-01-05 19:51:49.78	338.84	2.07	-60.6	-63.8	6.2	0.00e+00	0	38	104	57780731904	87	21542
2026-01-05 19:51:50.78	338.88	2.00	-60.6	-63.8	6.1	0.00e+00	0	38	104	57780731904	87	21573
2026-01-05 19:51:51.78	338.93	1.94	-60.6	-63.8	6.2	0.00e+00	0	38	104	57780731904	87	21545
2026-01-05 19:51:52.77	338.98	1.87	-60.6	-63.8	6.2	0.00e+00	0	38	104	57780731904	87	21523
2026-01-05 19:51:53.77	339.02	1.80	-60.6	-63.8	6.2	0.00e+00	0	38	104	57780731904	87	21576
2026-01-05 19:51:54.77	339.07	1.74	-60.6	-63.8	6.2	0.00e+00	0	38	104	57780731904	87	21502

#Closed at: 2026-01-05 19:51:55
#Recorded file [57780 MB]: D:/lorett/data/31004_260105_224126.dat