passes_logs/2026/01/05/R3.2S_Murmansk/R3.2S_Murmansk__20260105_091546_SUOMI_NPP_rec.log

#Pass ID: 20260105_091546_SUOMI NPP
#Satellite: SUOMI NPP
#Configuration: NPP
#almurnet v.1.7.20251203
#Start time: 2026-01-05 09:15:46

#Version: 2.2.20231116
#Station: R3.2S_Murmansk
#Location: 33.079688 lon 68.888172 lat
#TLE: 1 37849U 11061A   26003.96724563  .00000164  00000+0  98899-4 0  9990
#TLE: 2 37849  98.7800 306.1116 0002573  82.3190 277.8279 14.19522066735141

#Time	Az	El	Level	Level2	SNR	BER	BlckErr	Temp	State	Recorded	gain1	gain2
2026-01-05 09:15:46.79	143.78	2.04	-58.1	-74.1	3.8	1.49e+00	0	25	0	0	82	22605
2026-01-05 09:15:47.78	143.78	2.10	-58.0	-74.0	3.8	1.49e+00	0	25	104	0	81	23780
2026-01-05 09:15:48.78	143.77	2.16	-58.0	-74.0	3.8	1.49e+00	0	25	104	0	81	23797
2026-01-05 09:15:49.77	143.76	2.23	-58.0	-74.1	3.8	1.49e+00	0	25	104	0	81	23866
2026-01-05 09:15:50.76	143.76	2.29	-58.0	-74.0	3.8	1.49e+00	0	25	104	0	81	23847
2026-01-05 09:15:51.75	143.75	2.36	-58.0	-74.0	3.8	1.49e+00	0	25	104	0	81	23808
2026-01-05 09:15:52.75	143.75	2.42	-58.0	-74.1	3.8	1.49e+00	0	25	104	0	81	23870
2026-01-05 09:15:53.74	143.74	2.49	-58.0	-74.0	3.8	1.49e+00	0	25	104	0	81	23783
2026-01-05 09:15:54.73	143.74	2.55	-58.1	-74.1	3.8	1.49e+00	0	25	104	0	81	23892
2026-01-05 09:15:55.73	143.73	2.62	-58.1	-74.0	3.8	1.49e+00	0	26	104	0	81	23809
2026-01-05 09:15:56.72	143.72	2.68	-58.1	-74.0	3.8	1.49e+00	0	25	104	0	81	23792
2026-01-05 09:15:57.72	143.72	2.75	-58.0	-74.0	3.8	1.49e+00	0	25	104	0	81	23786
2026-01-05 09:15:58.71	143.71	2.81	-58.0	-74.0	3.8	1.49e+00	0	26	104	0	81	23582
2026-01-05 09:15:59.70	143.70	2.88	-58.0	-73.9	3.8	1.49e+00	0	25	104	0	81	23440
2026-01-05 09:16:00.69	143.70	2.94	-58.0	-73.8	3.8	1.49e+00	0	26	104	0	81	23082
2026-01-05 09:16:01.68	143.69	3.01	-58.0	-73.6	3.8	1.49e+00	0	26	104	0	81	22629
2026-01-05 09:16:02.66	143.69	3.07	-58.0	-73.4	3.8	1.49e+00	0	26	104	0	81	22131
2026-01-05 09:16:03.66	143.68	3.14	-58.0	-73.0	3.8	1.49e+00	0	25	104	0	81	21094
2026-01-05 09:16:04.64	143.67	3.21	-58.0	-72.7	3.8	1.49e+00	0	25	104	0	81	20329
2026-01-05 09:16:05.63	143.67	3.27	-58.0	-72.1	3.8	1.49e+00	0	26	104	0	81	19033
2026-01-05 09:16:06.62	143.66	3.34	-57.9	-71.3	3.9	1.48e+00	0	26	104	0	81	17449
2026-01-05 09:16:07.61	143.65	3.41	-57.9	-70.5	4.2	1.43e+00	0	26	0	0	81	15882
2026-01-05 09:16:08.60	143.65	3.47	-57.8	-69.8	4.4	1.34e+00	90	26	0	0	81	14672
2026-01-05 09:16:09.59	143.64	3.54	-57.8	-68.6	4.8	1.02e+00	0	26	0	2097152	81	12799
2026-01-05 09:16:10.58	143.63	3.61	-57.7	-68.4	5.0	6.71e-01	0	26	0	3145728	81	12432
2026-01-05 09:16:11.56	143.63	3.67	-57.6	-67.3	5.5	4.99e-01	0	26	0	5242880	81	10967
2026-01-05 09:16:12.56	143.62	3.74	-57.6	-66.8	5.9	3.50e-01	0	26	0	7340032	81	10381
2026-01-05 09:16:13.54	143.61	3.81	-57.4	-65.7	6.6	2.41e-01	0	26	0	9437184	81	9131
2026-01-05 09:16:14.53	143.61	3.88	-57.2	-64.8	7.4	1.12e-01	0	26	0	10485760	81	8238
2026-01-05 09:16:15.53	143.60	3.95	-57.0	-64.0	8.0	4.57e-02	0	26	0	12582912	80	7955
2026-01-05 09:16:16.51	143.59	4.01	-56.8	-63.1	8.8	2.65e-02	0	26	0	14680064	80	7203
2026-01-05 09:16:17.49	143.59	4.08	-56.5	-62.0	9.7	8.38e-03	0	26	0	16777216	79	6712
2026-01-05 09:16:18.49	143.58	4.15	-56.3	-61.6	10.1	1.54e-03	0	26	0	18874368	79	6362
2026-01-05 09:16:19.48	143.57	4.22	-55.9	-60.5	10.9	5.33e-04	0	26	0	19922944	78	5939
2026-01-05 09:16:20.47	143.56	4.29	-55.7	-60.0	11.3	9.61e-05	0	26	0	22020096	78	5617
2026-01-05 09:16:21.46	143.56	4.36	-55.5	-59.6	11.6	2.21e-05	0	26	0	24117248	77	5683
2026-01-05 09:16:22.45	143.55	4.43	-55.2	-59.0	12.0	2.20e-06	0	26	0	26214400	77	5305
2026-01-05 09:16:23.44	143.54	4.50	-55.0	-58.6	12.2	3.00e-06	0	26	0	27262976	76	5352
2026-01-05 09:16:24.44	143.53	4.57	-55.0	-58.5	12.2	5.30e-06	0	26	0	29360128	76	5305
2026-01-05 09:16:25.43	143.53	4.64	-55.1	-58.7	12.1	7.00e-07	0	26	0	31457280	76	5415
2026-01-05 09:16:26.42	143.52	4.71	-55.1	-58.8	12.0	2.20e-06	0	26	0	33554432	76	5521
2026-01-05 09:16:27.42	143.51	4.78	-55.2	-59.0	11.9	1.50e-06	0	26	0	35651584	76	5653
2026-01-05 09:16:28.40	143.50	4.85	-55.3	-59.1	11.8	1.50e-06	0	26	0	36700160	76	5703
2026-01-05 09:16:29.39	143.50	4.92	-55.6	-59.7	11.4	2.13e-05	0	26	0	38797312	76	6091
2026-01-05 09:16:30.38	143.49	4.99	-55.9	-60.4	10.8	6.56e-05	0	26	0	40894464	76	6642
2026-01-05 09:16:31.36	143.48	5.06	-56.3	-61.4	10.2	2.05e-04	0	26	0	42991616	77	6987
2026-01-05 09:16:32.35	143.47	5.13	-56.7	-62.5	9.2	5.44e-02	0	26	0	44040192	80	6667
2026-01-05 09:16:33.35	143.47	5.20	-55.0	-58.4	12.4	0.00e+00	0	26	0	46137344	76	5267
2026-01-05 09:16:34.34	143.46	5.27	-57.7	-68.8	4.1	1.26e+00	0	26	104	47185920	80	13770
2026-01-05 09:16:35.34	143.45	5.34	-55.9	-60.2	11.0	1.63e-01	0	26	0	47185920	78	5768
2026-01-05 09:16:36.33	143.44	5.42	-54.2	-57.2	12.9	0.00e+00	0	26	0	49283072	74	5129
2026-01-05 09:16:37.33	143.43	5.49	-54.2	-57.1	13.0	0.00e+00	0	26	0	51380224	74	5095
2026-01-05 09:16:38.33	143.43	5.56	-54.2	-57.1	13.0	0.00e+00	0	26	0	53477376	74	5056
2026-01-05 09:16:39.32	143.42	5.63	-54.0	-56.8	13.2	0.00e+00	0	26	0	54525952	74	4890
2026-01-05 09:16:40.31	143.41	5.71	-54.0	-56.8	13.2	0.00e+00	0	26	0	56623104	74	4918
2026-01-05 09:16:41.31	143.40	5.78	-54.2	-57.1	13.0	0.00e+00	0	26	0	58720256	74	5052
2026-01-05 09:16:42.30	143.39	5.85	-54.1	-57.0	13.1	0.00e+00	0	26	0	60817408	74	5008
2026-01-05 09:16:43.30	143.38	5.93	-54.0	-56.7	13.2	0.00e+00	0	26	0	62914560	74	4867
2026-01-05 09:16:44.28	143.38	6.00	-54.0	-56.7	13.3	0.00e+00	0	26	0	63963136	74	4829
2026-01-05 09:16:45.28	143.37	6.08	-54.1	-56.9	13.2	0.00e+00	0	26	0	66060288	74	4973
2026-01-05 09:16:46.27	143.36	6.15	-53.9	-56.6	13.4	0.00e+00	0	26	0	68157440	74	4766
2026-01-05 09:16:47.27	143.35	6.22	-53.9	-56.6	13.3	0.00e+00	0	26	0	70254592	74	4806
2026-01-05 09:16:48.27	143.34	6.30	-54.0	-56.7	13.3	0.00e+00	0	27	0	71303168	74	4817
2026-01-05 09:16:49.28	143.33	6.38	-53.9	-56.5	13.4	0.00e+00	0	26	0	73400320	74	4743
2026-01-05 09:16:50.28	143.32	6.45	-53.9	-56.5	13.4	0.00e+00	0	26	0	75497472	74	4758
2026-01-05 09:16:51.28	143.31	6.53	-54.0	-56.7	13.3	0.00e+00	0	26	0	77594624	74	4815
2026-01-05 09:16:52.28	143.31	6.60	-53.8	-56.4	13.5	0.00e+00	0	26	0	79691776	74	4683
2026-01-05 09:16:53.27	143.30	6.68	-54.0	-56.6	13.4	0.00e+00	0	26	0	80740352	74	4799
2026-01-05 09:16:54.27	143.29	6.75	-53.9	-56.5	13.5	0.00e+00	0	26	0	82837504	74	4734
2026-01-05 09:16:55.26	143.28	6.83	-53.9	-56.5	13.4	0.00e+00	0	27	0	84934656	74	4732
2026-01-05 09:16:56.25	143.27	6.91	-53.8	-56.4	13.5	0.00e+00	0	26	0	87031808	74	4691
2026-01-05 09:16:57.25	143.26	6.98	-53.9	-56.5	13.4	0.00e+00	0	26	0	89128960	74	4757
2026-01-05 09:16:58.25	143.25	7.06	-53.9	-56.5	13.5	0.00e+00	0	26	0	90177536	74	4731
2026-01-05 09:16:59.25	143.24	7.14	-53.8	-56.4	13.6	0.00e+00	0	27	0	92274688	74	4661
2026-01-05 09:17:00.24	143.23	7.21	-53.7	-56.3	13.6	0.00e+00	0	27	0	94371840	74	4602
2026-01-05 09:17:01.24	143.22	7.29	-53.7	-56.3	13.5	0.00e+00	0	27	0	96468992	73	4872
2026-01-05 09:17:02.24	143.21	7.37	-53.6	-56.1	13.6	0.00e+00	0	27	0	97517568	73	4802
2026-01-05 09:17:03.22	143.20	7.45	-53.6	-56.1	13.6	0.00e+00	0	27	0	99614720	73	4790
2026-01-05 09:17:04.21	143.19	7.53	-53.6	-56.1	13.6	0.00e+00	0	26	0	101711872	73	4792
2026-01-05 09:17:05.21	143.18	7.60	-53.6	-56.1	13.6	0.00e+00	0	26	0	103809024	73	4771
2026-01-05 09:17:06.19	143.17	7.68	-53.5	-55.9	13.7	0.00e+00	0	27	0	105906176	73	4654
2026-01-05 09:17:07.19	143.16	7.76	-53.7	-56.1	13.6	0.00e+00	0	27	0	106954752	73	4799
2026-01-05 09:17:08.18	143.15	7.84	-53.6	-56.0	13.7	0.00e+00	0	26	0	109051904	73	4709
2026-01-05 09:17:09.18	143.14	7.92	-53.6	-56.1	13.6	0.00e+00	0	27	0	111149056	73	4768
2026-01-05 09:17:10.17	143.13	8.00	-53.4	-55.7	13.8	0.00e+00	0	27	0	113246208	73	4591
2026-01-05 09:17:11.16	143.12	8.08	-53.5	-55.8	13.8	0.00e+00	0	27	0	114294784	73	4639
2026-01-05 09:17:12.16	143.11	8.16	-53.3	-55.6	13.9	0.00e+00	0	27	0	116391936	73	4536
2026-01-05 09:17:13.14	143.10	8.24	-53.4	-55.7	13.9	0.00e+00	0	27	0	118489088	73	4551
2026-01-05 09:17:14.12	143.09	8.32	-53.2	-55.5	13.9	0.00e+00	0	26	0	120586240	73	4458
2026-01-05 09:17:15.11	143.08	8.40	-53.3	-55.6	13.9	0.00e+00	0	27	0	121634816	73	4527
2026-01-05 09:17:16.09	143.07	8.48	-53.4	-55.8	13.8	0.00e+00	0	27	0	123731968	73	4605
2026-01-05 09:17:17.08	143.06	8.56	-53.3	-55.7	13.9	0.00e+00	0	27	0	125829120	73	4546
2026-01-05 09:17:18.07	143.05	8.64	-53.2	-55.5	13.9	0.00e+00	0	27	0	127926272	73	4469
2026-01-05 09:17:19.06	143.04	8.72	-53.3	-55.6	13.9	0.00e+00	0	27	0	130023424	73	4500
2026-01-05 09:17:20.05	143.03	8.81	-53.4	-55.7	13.9	0.00e+00	0	27	0	131072000	73	4566
2026-01-05 09:17:21.05	143.02	8.89	-53.3	-55.6	13.9	0.00e+00	0	27	0	133169152	73	4509
2026-01-05 09:17:22.04	143.00	8.97	-53.3	-55.6	13.9	0.00e+00	0	27	0	135266304	73	4505
2026-01-05 09:17:23.03	142.99	9.06	-53.3	-55.6	13.9	0.00e+00	0	27	0	137363456	73	4499
2026-01-05 09:17:24.01	142.98	9.14	-53.1	-55.3	13.9	0.00e+00	0	27	0	138412032	72	4637
2026-01-05 09:17:25.00	142.97	9.22	-53.2	-55.4	13.9	0.00e+00	0	27	0	140509184	72	4667
2026-01-05 09:17:26.00	142.96	9.31	-53.0	-55.1	14.1	0.00e+00	0	27	0	142606336	72	4518
2026-01-05 09:17:26.98	142.95	9.39	-53.0	-55.2	14.0	0.00e+00	0	27	0	144703488	72	4575
2026-01-05 09:17:27.96	142.94	9.47	-53.1	-55.3	14.0	0.00e+00	0	27	0	145752064	72	4628
2026-01-05 09:17:28.94	142.92	9.55	-53.0	-55.1	14.0	0.00e+00	0	27	0	147849216	72	4511
2026-01-05 09:17:29.93	142.91	9.64	-52.9	-55.0	14.1	0.00e+00	0	27	0	149946368	72	4477
2026-01-05 09:17:30.91	142.90	9.72	-53.0	-55.1	14.0	0.00e+00	0	27	0	152043520	72	4524
2026-01-05 09:17:31.91	142.89	9.81	-52.9	-55.0	14.1	0.00e+00	0	27	0	153092096	72	4455
2026-01-05 09:17:32.89	142.88	9.89	-52.8	-54.9	14.2	0.00e+00	0	27	0	155189248	72	4426
2026-01-05 09:17:33.88	142.87	9.98	-53.0	-55.1	14.1	0.00e+00	0	27	0	157286400	72	4508
2026-01-05 09:17:34.87	142.85	10.07	-53.0	-55.2	14.0	0.00e+00	0	27	0	159383552	72	4548
2026-01-05 09:17:35.86	142.84	10.15	-53.2	-55.4	13.9	0.00e+00	0	27	0	161480704	72	4664
2026-01-05 09:17:36.85	142.83	10.24	-53.0	-55.1	14.1	0.00e+00	0	27	0	162529280	72	4538
2026-01-05 09:17:37.82	142.82	10.33	-53.0	-55.1	14.1	0.00e+00	0	27	0	164626432	72	4511
2026-01-05 09:17:38.80	142.80	10.41	-53.0	-55.1	14.1	0.00e+00	0	27	0	166723584	72	4510
2026-01-05 09:17:39.79	142.79	10.50	-53.0	-55.1	14.1	0.00e+00	0	27	0	168820736	72	4541
2026-01-05 09:17:40.78	142.78	10.59	-53.0	-55.2	14.1	0.00e+00	0	27	0	169869312	72	4551
2026-01-05 09:17:41.77	142.77	10.68	-53.1	-55.4	14.0	0.00e+00	0	27	0	171966464	72	4656
2026-01-05 09:17:42.76	142.75	10.76	-53.0	-55.2	14.0	0.00e+00	0	27	0	174063616	72	4568
2026-01-05 09:17:43.74	142.74	10.85	-53.0	-55.2	14.0	0.00e+00	0	27	0	176160768	72	4567
2026-01-05 09:17:44.73	142.73	10.94	-52.9	-55.0	14.1	0.00e+00	0	27	0	177209344	72	4465
2026-01-05 09:17:45.72	142.71	11.03	-52.9	-54.9	14.2	0.00e+00	0	27	0	179306496	72	4434
2026-01-05 09:17:46.71	142.70	11.12	-52.9	-55.0	14.1	0.00e+00	0	27	0	181403648	72	4483
2026-01-05 09:17:47.69	142.69	11.21	-52.9	-54.9	14.2	0.00e+00	0	27	0	183500800	72	4434
2026-01-05 09:17:48.68	142.67	11.30	-52.8	-54.8	14.2	0.00e+00	0	27	0	184549376	72	4364
2026-01-05 09:17:49.66	142.66	11.39	-52.8	-54.8	14.1	0.00e+00	0	27	0	186646528	71	4630
2026-01-05 09:17:50.64	142.65	11.48	-52.8	-54.9	14.1	0.00e+00	0	27	0	188743680	71	4670
2026-01-05 09:17:51.63	142.63	11.57	-52.7	-54.7	14.1	0.00e+00	0	27	0	190840832	71	4595
2026-01-05 09:17:52.62	142.62	11.67	-52.8	-54.8	14.1	0.00e+00	0	27	0	192937984	71	4633
2026-01-05 09:17:53.60	142.60	11.76	-52.6	-54.6	14.2	0.00e+00	0	27	0	193986560	71	4537
2026-01-05 09:17:54.59	142.59	11.85	-52.7	-54.7	14.1	0.00e+00	0	27	0	196083712	71	4596
2026-01-05 09:17:55.58	142.57	11.94	-52.6	-54.6	14.2	0.00e+00	0	27	0	198180864	71	4521
2026-01-05 09:17:56.57	142.56	12.04	-52.6	-54.6	14.2	0.00e+00	0	27	0	200278016	71	4505
2026-01-05 09:17:57.55	142.55	12.13	-52.5	-54.5	14.3	0.00e+00	0	27	0	201326592	71	4452
2026-01-05 09:17:58.54	142.53	12.22	-52.7	-54.7	14.2	0.00e+00	0	27	0	203423744	71	4556
2026-01-05 09:17:59.53	142.52	12.32	-52.5	-54.5	14.3	0.00e+00	0	27	0	205520896	71	4463
2026-01-05 09:18:00.51	142.50	12.41	-52.7	-54.7	14.2	0.00e+00	0	27	0	207618048	71	4580
2026-01-05 09:18:01.50	142.49	12.51	-52.6	-54.6	14.2	0.00e+00	0	27	0	208666624	71	4530
2026-01-05 09:18:02.49	142.47	12.60	-52.6	-54.7	14.2	0.00e+00	0	27	0	210763776	71	4553
2026-01-05 09:18:03.48	142.46	12.70	-52.5	-54.5	14.3	0.00e+00	0	27	0	212860928	71	4459
2026-01-05 09:18:04.46	142.44	12.79	-52.4	-54.4	14.3	0.00e+00	0	27	0	214958080	71	4394
2026-01-05 09:18:05.44	142.43	12.89	-52.5	-54.4	14.3	0.00e+00	0	27	0	216006656	71	4428
2026-01-05 09:18:06.43	142.41	12.99	-52.5	-54.4	14.3	0.00e+00	0	27	0	218103808	71	4417
2026-01-05 09:18:07.42	142.39	13.08	-52.4	-54.3	14.4	0.00e+00	0	27	0	220200960	71	4361
2026-01-05 09:18:08.41	142.38	13.18	-52.4	-54.4	14.4	0.00e+00	0	27	0	222298112	71	4397
2026-01-05 09:18:09.40	142.36	13.28	-52.4	-54.4	14.3	0.00e+00	0	27	0	224395264	71	4410
2026-01-05 09:18:10.38	142.35	13.38	-52.4	-54.3	14.4	0.00e+00	0	27	0	225443840	71	4367
2026-01-05 09:18:11.37	142.33	13.48	-52.4	-54.3	14.4	0.00e+00	0	27	0	227540992	71	4363
2026-01-05 09:18:12.36	142.31	13.57	-52.5	-54.4	14.3	0.00e+00	0	27	0	229638144	71	4413
2026-01-05 09:18:13.34	142.30	13.67	-52.5	-54.4	14.3	0.00e+00	0	27	0	231735296	71	4436
2026-01-05 09:18:14.32	142.28	13.77	-52.4	-54.4	14.3	0.00e+00	0	27	0	232783872	71	4395
2026-01-05 09:18:15.31	142.26	13.87	-52.4	-54.4	14.4	0.00e+00	0	27	0	234881024	71	4402
2026-01-05 09:18:16.30	142.25	13.97	-52.4	-54.3	14.4	0.00e+00	0	27	0	236978176	71	4358
2026-01-05 09:18:17.29	142.23	14.08	-52.4	-54.4	14.3	0.00e+00	0	27	0	239075328	71	4413
2026-01-05 09:18:18.28	142.21	14.18	-52.4	-54.3	14.4	0.00e+00	0	27	0	240123904	71	4370
2026-01-05 09:18:19.27	142.20	14.28	-52.1	-54.3	14.3	0.00e+00	0	27	0	242221056	70	4638
2026-01-05 09:18:20.26	142.18	14.38	-52.1	-54.3	14.3	0.00e+00	0	27	0	244318208	70	4651
2026-01-05 09:18:21.25	142.16	14.49	-52.1	-54.4	14.3	0.00e+00	0	27	0	246415360	70	4675
2026-01-05 09:18:22.24	142.14	14.59	-52.1	-54.3	14.3	0.00e+00	0	27	0	248512512	70	4649
2026-01-05 09:18:23.23	142.12	14.69	-52.1	-54.4	14.3	0.00e+00	0	27	0	249561088	70	4670
2026-01-05 09:18:24.23	142.11	14.80	-51.9	-54.1	14.4	0.00e+00	0	27	0	251658240	70	4538
2026-01-05 09:18:25.22	142.09	14.90	-51.8	-54.0	14.5	0.00e+00	0	27	0	253755392	70	4446
2026-01-05 09:18:26.21	142.07	15.01	-51.7	-53.8	14.5	0.00e+00	0	27	0	255852544	70	4374
2026-01-05 09:18:27.20	142.05	15.12	-51.7	-53.9	14.4	0.00e+00	0	27	0	256901120	69	4673
2026-01-05 09:18:28.19	142.03	15.22	-51.6	-53.8	14.4	0.00e+00	0	27	0	258998272	69	4607
2026-01-05 09:18:29.18	142.01	15.33	-51.7	-53.9	14.4	0.00e+00	0	27	0	261095424	69	4656
2026-01-05 09:18:30.17	141.99	15.44	-51.6	-53.7	14.5	0.00e+00	0	27	0	263192576	69	4574
2026-01-05 09:18:31.16	141.98	15.54	-51.5	-53.6	14.5	0.00e+00	0	27	0	264241152	69	4517
2026-01-05 09:18:32.15	141.96	15.65	-51.5	-53.6	14.5	0.00e+00	0	27	0	266338304	69	4506
2026-01-05 09:18:33.15	141.94	15.76	-51.5	-53.5	14.5	0.00e+00	0	27	0	268435456	69	4470
2026-01-05 09:18:34.14	141.92	15.87	-51.3	-53.3	14.7	0.00e+00	0	27	0	270532608	69	4359
2026-01-05 09:18:35.12	141.90	15.98	-51.4	-53.4	14.6	0.00e+00	0	27	0	272629760	69	4405
2026-01-05 09:18:36.11	141.88	16.09	-51.3	-53.3	14.6	0.00e+00	0	27	0	273678336	69	4362
2026-01-05 09:18:37.10	141.86	16.20	-51.3	-53.3	14.5	0.00e+00	0	27	0	275775488	68	4617
2026-01-05 09:18:38.10	141.84	16.31	-51.3	-53.3	14.5	0.00e+00	0	27	0	277872640	68	4646
2026-01-05 09:18:39.09	141.82	16.42	-51.2	-53.1	14.6	0.00e+00	0	27	0	279969792	68	4521
2026-01-05 09:18:40.09	141.79	16.54	-51.1	-53.1	14.6	0.00e+00	0	27	0	281018368	68	4504
2026-01-05 09:18:41.08	141.77	16.65	-51.1	-53.1	14.6	0.00e+00	0	27	0	283115520	68	4520
2026-01-05 09:18:42.08	141.75	16.76	-51.0	-52.9	14.7	0.00e+00	0	27	0	285212672	68	4421
2026-01-05 09:18:43.06	141.73	16.88	-51.2	-53.2	14.6	0.00e+00	0	27	0	287309824	68	4551
2026-01-05 09:18:44.06	141.71	16.99	-51.1	-53.1	14.6	0.00e+00	0	27	0	289406976	68	4496
2026-01-05 09:18:45.05	141.69	17.11	-51.3	-53.2	14.6	0.00e+00	0	27	0	290455552	68	4573
2026-01-05 09:18:46.04	141.67	17.22	-51.3	-53.2	14.6	0.00e+00	0	27	0	292552704	68	4583
2026-01-05 09:18:47.04	141.64	17.34	-51.3	-53.2	14.5	0.00e+00	0	27	0	294649856	68	4598
2026-01-05 09:18:48.03	141.62	17.45	-51.4	-53.3	14.5	0.00e+00	0	27	0	296747008	68	4639
2026-01-05 09:18:49.02	141.60	17.57	-51.4	-53.3	14.5	0.00e+00	0	27	0	297795584	68	4647
2026-01-05 09:18:50.01	141.58	17.69	-51.4	-53.4	14.5	0.00e+00	0	27	0	299892736	68	4655
2026-01-05 09:18:50.99	141.55	17.81	-51.4	-53.4	14.5	0.00e+00	0	27	0	301989888	68	4670
2026-01-05 09:18:51.98	141.53	17.92	-51.4	-53.4	14.5	0.00e+00	0	27	0	304087040	68	4658
2026-01-05 09:18:52.98	141.51	18.04	-51.4	-53.3	14.5	0.00e+00	0	27	0	305135616	68	4643
2026-01-05 09:18:53.98	141.48	18.17	-51.4	-53.3	14.5	0.00e+00	0	27	0	307232768	68	4624
2026-01-05 09:18:54.97	141.46	18.29	-51.3	-53.2	14.6	0.00e+00	0	27	0	309329920	68	4596
2026-01-05 09:18:55.96	141.44	18.41	-51.4	-53.3	14.5	0.00e+00	0	27	0	311427072	68	4623
2026-01-05 09:18:56.96	141.41	18.53	-51.3	-53.2	14.5	0.00e+00	0	27	0	313524224	68	4593
2026-01-05 09:18:57.96	141.39	18.65	-51.3	-53.2	14.6	0.00e+00	0	27	0	314572800	68	4558
2026-01-05 09:18:58.95	141.36	18.78	-51.2	-53.1	14.6	0.00e+00	0	27	0	316669952	68	4522
2026-01-05 09:18:59.94	141.34	18.90	-51.2	-53.1	14.6	0.00e+00	0	27	0	318767104	68	4530
2026-01-05 09:19:00.93	141.31	19.02	-51.2	-53.1	14.6	0.00e+00	0	27	0	320864256	68	4501
2026-01-05 09:19:01.92	141.29	19.15	-51.3	-53.2	14.6	0.00e+00	0	27	0	321912832	68	4553
2026-01-05 09:19:02.91	141.26	19.27	-51.3	-53.1	14.6	0.00e+00	0	27	0	324009984	68	4539
2026-01-05 09:19:03.91	141.24	19.40	-51.4	-53.3	14.5	0.00e+00	0	27	0	326107136	68	4648
2026-01-05 09:19:04.90	141.21	19.53	-51.3	-53.2	14.6	0.00e+00	0	27	0	328204288	68	4598
2026-01-05 09:19:05.89	141.18	19.65	-51.3	-53.2	14.5	0.00e+00	0	27	0	330301440	68	4593
2026-01-05 09:19:06.88	141.16	19.78	-51.4	-53.2	14.5	0.00e+00	0	27	0	331350016	68	4590
2026-01-05 09:19:07.88	141.13	19.91	-51.3	-53.2	14.6	0.00e+00	0	27	0	333447168	68	4564
2026-01-05 09:19:08.88	141.10	20.04	-51.3	-53.1	14.6	0.00e+00	0	27	0	335544320	68	4545
2026-01-05 09:19:09.86	141.08	20.17	-51.4	-53.4	14.5	0.00e+00	0	27	0	337641472	68	4657
2026-01-05 09:19:10.85	141.05	20.30	-51.4	-53.3	14.5	0.00e+00	0	27	0	338690048	68	4641
2026-01-05 09:19:11.85	141.02	20.43	-51.5	-53.5	14.5	0.00e+00	0	27	0	340787200	68	4720
2026-01-05 09:19:12.84	140.99	20.56	-51.6	-53.5	14.4	0.00e+00	0	27	0	342884352	68	4759
2026-01-05 09:19:13.83	140.97	20.70	-51.7	-53.6	14.4	0.00e+00	0	27	0	344981504	68	4806
2026-01-05 09:19:14.82	140.94	20.83	-51.4	-53.4	14.5	0.00e+00	0	27	0	346030080	68	4659
2026-01-05 09:19:15.82	140.91	20.96	-51.5	-53.5	14.5	0.00e+00	0	27	0	348127232	68	4722
2026-01-05 09:19:16.81	140.88	21.10	-51.3	-53.2	14.6	0.00e+00	0	27	0	350224384	68	4585
2026-01-05 09:19:17.81	140.85	21.23	-51.4	-53.3	14.6	0.00e+00	0	27	0	352321536	68	4620
2026-01-05 09:19:18.80	140.82	21.37	-51.3	-53.3	14.6	0.00e+00	0	27	0	354418688	68	4601
2026-01-05 09:19:19.80	140.79	21.51	-51.4	-53.4	14.5	0.00e+00	0	27	0	355467264	68	4671
2026-01-05 09:19:20.79	140.76	21.65	-51.2	-53.1	14.6	0.00e+00	0	27	0	357564416	68	4509
2026-01-05 09:19:21.78	140.73	21.78	-51.2	-53.1	14.6	0.00e+00	0	27	0	359661568	68	4524
2026-01-05 09:19:22.77	140.70	21.92	-51.2	-53.1	14.6	0.00e+00	0	27	0	361758720	68	4515
2026-01-05 09:19:23.77	140.67	22.06	-51.2	-53.1	14.6	0.00e+00	0	27	0	363855872	68	4524
2026-01-05 09:19:24.76	140.63	22.20	-51.1	-53.0	14.7	0.00e+00	0	27	0	364904448	68	4451
2026-01-05 09:19:25.75	140.60	22.35	-51.3	-53.2	14.6	0.00e+00	0	27	0	367001600	68	4549
2026-01-05 09:19:26.74	140.57	22.49	-51.4	-53.3	14.6	0.00e+00	0	27	0	369098752	68	4602
2026-01-05 09:19:27.73	140.54	22.63	-51.5	-53.4	14.5	0.00e+00	0	27	0	371195904	68	4695
2026-01-05 09:19:28.73	140.50	22.78	-51.3	-53.2	14.6	0.00e+00	0	27	0	372244480	68	4547
2026-01-05 09:19:29.72	140.47	22.92	-51.5	-53.4	14.5	0.00e+00	0	27	0	374341632	68	4676
2026-01-05 09:19:30.71	140.44	23.06	-51.5	-53.5	14.5	0.00e+00	0	27	0	376438784	68	4718
2026-01-05 09:19:31.70	140.40	23.21	-51.4	-53.2	14.5	0.00e+00	0	27	0	378535936	68	4594
2026-01-05 09:19:32.69	140.37	23.36	-51.3	-53.1	14.6	0.00e+00	0	27	0	380633088	68	4509
2026-01-05 09:19:33.68	140.34	23.50	-51.4	-53.2	14.6	0.00e+00	0	27	0	381681664	68	4586
2026-01-05 09:19:34.67	140.30	23.65	-51.4	-53.2	14.6	0.00e+00	0	27	0	383778816	68	4591
2026-01-05 09:19:35.67	140.27	23.80	-51.4	-53.3	14.6	0.00e+00	0	27	0	385875968	68	4613
2026-01-05 09:19:36.66	140.23	23.95	-51.3	-53.1	14.6	0.00e+00	0	27	0	387973120	68	4545
2026-01-05 09:19:37.66	140.19	24.11	-51.3	-53.2	14.6	0.00e+00	0	27	0	389021696	68	4548
2026-01-05 09:19:38.65	140.16	24.26	-51.5	-53.5	14.5	0.00e+00	0	27	0	391118848	68	4709
2026-01-05 09:19:39.64	140.12	24.41	-51.5	-53.4	14.5	0.00e+00	0	27	0	393216000	68	4664
2026-01-05 09:19:40.64	140.08	24.57	-51.6	-53.5	14.5	0.00e+00	0	27	0	395313152	68	4749
2026-01-05 09:19:41.62	140.05	24.72	-51.7	-53.7	14.4	0.00e+00	0	27	0	396361728	68	4839
2026-01-05 09:19:42.61	140.01	24.87	-51.9	-53.8	14.5	0.00e+00	0	27	0	398458880	69	4645
2026-01-05 09:19:43.60	139.97	25.03	-51.9	-54.0	14.4	0.00e+00	0	27	0	400556032	69	4707
2026-01-05 09:19:44.59	139.93	25.19	-52.3	-54.4	14.2	0.00e+00	0	27	0	402653184	69	4956
2026-01-05 09:19:45.58	139.89	25.35	-52.1	-54.2	14.3	0.00e+00	0	27	0	403701760	69	4849
2026-01-05 09:19:46.57	139.85	25.51	-52.4	-54.6	14.2	0.00e+00	0	27	0	405798912	69	5056
2026-01-05 09:19:47.57	139.81	25.67	-52.0	-54.1	14.4	0.00e+00	0	27	0	407896064	69	4760
2026-01-05 09:19:48.56	139.77	25.83	-52.0	-54.0	14.4	0.00e+00	0	27	0	409993216	69	4723
2026-01-05 09:19:49.55	139.73	25.99	-51.9	-53.9	14.4	0.00e+00	0	27	0	412090368	69	4683
2026-01-05 09:19:50.54	139.69	26.15	-51.8	-53.7	14.5	0.00e+00	0	27	0	413138944	69	4590
2026-01-05 09:19:51.53	139.65	26.32	-51.6	-53.5	14.7	0.00e+00	0	27	0	415236096	69	4456
2026-01-05 09:19:52.51	139.60	26.48	-51.6	-53.5	14.6	0.00e+00	0	27	0	417333248	69	4462
2026-01-05 09:19:53.50	139.56	26.65	-51.4	-53.2	14.7	0.00e+00	0	27	0	419430400	69	4315
2026-01-05 09:19:54.49	139.52	26.81	-51.8	-53.6	14.6	0.00e+00	0	27	0	420478976	69	4543
2026-01-05 09:19:55.49	139.47	26.98	-51.5	-53.3	14.7	0.00e+00	0	27	0	422576128	69	4371
2026-01-05 09:19:56.48	139.43	27.15	-51.7	-53.5	14.6	0.00e+00	0	27	0	424673280	69	4459
2026-01-05 09:19:57.47	139.39	27.32	-52.1	-54.0	14.4	0.00e+00	0	27	0	426770432	69	4727
2026-01-05 09:19:58.47	139.34	27.49	-51.8	-53.7	14.5	0.00e+00	0	27	0	428867584	69	4565
2026-01-05 09:19:59.45	139.29	27.66	-52.0	-53.9	14.5	0.00e+00	0	27	0	429916160	69	4653
2026-01-05 09:20:00.45	139.25	27.84	-52.2	-54.2	14.4	0.00e+00	0	27	0	432013312	70	4559
2026-01-05 09:20:01.44	139.20	28.01	-52.1	-54.1	14.5	0.00e+00	0	27	0	434110464	70	4502
2026-01-05 09:20:02.43	139.15	28.19	-52.3	-54.3	14.4	0.00e+00	0	27	0	436207616	70	4619
2026-01-05 09:20:03.42	139.10	28.36	-52.0	-53.9	14.5	0.00e+00	0	27	0	437256192	70	4439
2026-01-05 09:20:04.41	139.06	28.54	-52.0	-53.9	14.6	0.00e+00	0	27	0	439353344	70	4401
2026-01-05 09:20:05.41	139.01	28.72	-52.2	-54.2	14.4	0.00e+00	0	27	0	441450496	70	4595
2026-01-05 09:20:06.40	138.96	28.90	-51.9	-53.8	14.6	0.00e+00	0	27	0	443547648	70	4345
2026-01-05 09:20:07.40	138.91	29.08	-52.2	-54.2	14.5	0.00e+00	0	27	0	445644800	70	4578
2026-01-05 09:20:08.40	138.85	29.27	-52.2	-54.2	14.5	0.00e+00	0	27	0	446693376	70	4574
2026-01-05 09:20:09.39	138.80	29.45	-52.4	-54.5	14.3	0.00e+00	0	27	0	448790528	70	4747
2026-01-05 09:20:10.39	138.75	29.64	-52.6	-54.8	14.2	0.00e+00	0	27	0	450887680	70	4884
2026-01-05 09:20:11.39	138.70	29.82	-52.7	-54.9	14.2	0.00e+00	0	27	0	452984832	70	4938
2026-01-05 09:20:12.38	138.64	30.01	-53.0	-55.2	14.1	0.00e+00	0	27	0	454033408	71	4835
2026-01-05 09:20:13.37	138.59	30.20	-53.3	-55.7	14.0	0.00e+00	0	27	0	456130560	72	4825
2026-01-05 09:20:14.37	138.53	30.39	-53.3	-55.6	14.1	0.00e+00	0	27	0	458227712	72	4782
2026-01-05 09:20:15.36	138.48	30.58	-53.1	-55.3	14.2	0.00e+00	0	27	0	460324864	72	4647
2026-01-05 09:20:16.36	138.42	30.77	-52.8	-54.9	14.4	0.00e+00	0	27	0	462422016	72	4432
2026-01-05 09:20:17.35	138.36	30.97	-52.8	-54.9	14.4	0.00e+00	0	27	0	463470592	72	4425
2026-01-05 09:20:18.35	138.31	31.16	-52.9	-55.2	14.3	0.00e+00	0	27	0	465567744	72	4546
2026-01-05 09:20:19.35	138.25	31.36	-53.1	-55.3	14.2	0.00e+00	0	27	0	467664896	72	4637
2026-01-05 09:20:20.34	138.19	31.56	-53.1	-55.4	14.2	0.00e+00	0	27	0	469762048	72	4656
2026-01-05 09:20:21.33	138.13	31.75	-53.4	-55.9	13.9	0.00e+00	0	27	0	470810624	72	4963
2026-01-05 09:20:22.31	138.07	31.95	-53.9	-56.5	13.6	0.00e+00	0	27	0	472907776	72	5336
2026-01-05 09:20:23.31	138.00	32.15	-54.1	-56.9	13.5	0.00e+00	0	27	0	475004928	73	5263
2026-01-05 09:20:24.30	137.94	32.35	-54.2	-56.9	13.5	0.00e+00	0	27	0	477102080	73	5270
2026-01-05 09:20:25.30	137.88	32.56	-54.5	-57.3	13.4	0.00e+00	0	27	0	479199232	74	5198
2026-01-05 09:20:26.29	137.81	32.76	-54.6	-57.5	13.2	0.00e+00	0	27	0	480247808	74	5321
2026-01-05 09:20:27.28	137.75	32.97	-54.6	-57.5	13.4	0.00e+00	0	27	0	482344960	74	5310
2026-01-05 09:20:28.27	137.68	33.18	-54.3	-57.0	13.6	0.00e+00	0	27	0	484442112	74	4984
2026-01-05 09:20:29.26	137.62	33.38	-54.3	-57.1	13.5	0.00e+00	0	27	0	486539264	74	5047
2026-01-05 09:20:30.25	137.55	33.59	-54.3	-57.0	13.5	0.00e+00	0	27	0	487587840	74	5021
2026-01-05 09:20:31.24	137.48	33.81	-54.5	-57.4	13.4	0.00e+00	0	27	0	489684992	74	5274
2026-01-05 09:20:32.22	137.41	34.02	-54.6	-57.7	13.2	0.00e+00	0	27	0	491782144	74	5441
2026-01-05 09:20:33.21	137.34	34.23	-54.6	-57.8	13.2	0.00e+00	0	27	0	493879296	74	5504
2026-01-05 09:20:34.20	137.27	34.45	-54.7	-58.0	13.2	0.00e+00	0	27	0	494927872	74	5648
2026-01-05 09:20:35.19	137.20	34.66	-54.8	-58.1	13.1	0.00e+00	0	27	0	497025024	75	5370
2026-01-05 09:20:36.19	137.12	34.88	-54.3	-57.3	13.5	0.00e+00	0	27	0	499122176	75	4924
2026-01-05 09:20:37.18	137.05	35.10	-54.4	-57.3	13.4	0.00e+00	0	27	0	501219328	74	5214
2026-01-05 09:20:38.18	136.97	35.33	-53.8	-56.4	13.9	0.00e+00	0	27	0	503316480	74	4683
2026-01-05 09:20:39.17	136.90	35.55	-53.5	-56.0	13.9	0.00e+00	0	27	0	504365056	73	4756
2026-01-05 09:20:40.16	136.82	35.77	-53.8	-56.5	13.7	0.00e+00	0	27	0	506462208	73	5017
2026-01-05 09:20:41.16	136.74	36.00	-53.9	-56.7	13.7	0.00e+00	0	27	0	508559360	73	5123
2026-01-05 09:20:42.15	136.66	36.23	-53.9	-56.7	13.6	0.00e+00	0	27	0	510656512	73	5155
2026-01-05 09:20:43.15	136.58	36.46	-54.0	-57.0	13.5	0.00e+00	0	27	0	511705088	73	5332
2026-01-05 09:20:44.14	136.50	36.69	-54.4	-57.8	13.2	0.00e+00	0	27	0	513802240	74	5504
2026-01-05 09:20:45.13	136.41	36.92	-54.1	-57.2	13.4	0.00e+00	0	27	0	515899392	74	5147
2026-01-05 09:20:46.12	136.33	37.16	-53.8	-56.7	13.7	0.00e+00	0	27	0	517996544	74	4868
2026-01-05 09:20:47.11	136.24	37.39	-53.2	-55.8	14.1	0.00e+00	0	27	0	520093696	73	4606
2026-01-05 09:20:48.11	136.15	37.63	-52.8	-55.1	14.2	0.00e+00	0	27	0	521142272	71	4784
2026-01-05 09:20:49.10	136.06	37.87	-52.5	-54.7	14.4	0.00e+00	0	27	0	523239424	71	4578
2026-01-05 09:20:50.09	135.97	38.11	-52.4	-54.6	14.5	0.00e+00	0	27	0	525336576	71	4497
2026-01-05 09:20:51.09	135.88	38.36	-52.1	-54.2	14.5	0.00e+00	0	27	0	527433728	70	4551
2026-01-05 09:20:52.08	135.79	38.60	-52.4	-54.6	14.3	0.00e+00	0	27	0	528482304	70	4776
2026-01-05 09:20:53.06	135.69	38.84	-52.6	-54.9	14.3	0.00e+00	0	27	0	530579456	71	4700
2026-01-05 09:20:54.05	135.60	39.09	-52.9	-55.4	14.1	0.00e+00	0	27	0	532676608	71	4947
2026-01-05 09:20:55.04	135.50	39.34	-53.3	-55.9	14.0	0.00e+00	0	27	0	534773760	72	4937
2026-01-05 09:20:56.04	135.40	39.59	-53.4	-56.1	13.9	0.00e+00	0	27	0	536870912	72	5057
2026-01-05 09:20:57.03	135.30	39.84	-53.3	-55.9	14.0	0.00e+00	0	27	0	537919488	72	4934
2026-01-05 09:20:58.02	135.20	40.09	-53.4	-56.0	13.9	0.00e+00	0	27	0	540016640	72	5008
2026-01-05 09:20:59.01	135.10	40.35	-53.4	-56.0	13.9	0.00e+00	0	27	0	542113792	72	4998
2026-01-05 09:21:00.00	134.99	40.61	-53.0	-55.5	14.2	0.00e+00	0	27	0	544210944	72	4711
2026-01-05 09:21:01.00	134.88	40.87	-53.0	-55.5	14.1	0.00e+00	0	27	0	545259520	72	4728
2026-01-05 09:21:01.99	134.77	41.13	-53.2	-55.8	14.0	0.00e+00	0	27	0	547356672	72	4907
2026-01-05 09:21:02.98	134.66	41.39	-53.1	-55.8	14.0	0.00e+00	0	27	0	549453824	72	4885
2026-01-05 09:21:03.98	134.55	41.66	-53.6	-56.6	13.6	0.00e+00	0	27	0	551550976	72	5361
2026-01-05 09:21:04.97	134.43	41.92	-53.4	-56.2	13.8	0.00e+00	0	27	0	552599552	72	5151
2026-01-05 09:21:05.96	134.32	42.19	-53.1	-55.9	13.9	0.00e+00	0	27	0	554696704	72	4961
2026-01-05 09:21:06.95	134.20	42.46	-53.2	-56.0	13.9	0.00e+00	0	27	0	556793856	72	5040
2026-01-05 09:21:07.94	134.08	42.73	-53.6	-56.9	13.4	0.00e+00	0	27	0	558891008	72	5536
2026-01-05 09:21:08.94	133.95	43.01	-53.9	-57.3	13.3	0.00e+00	0	27	0	560988160	73	5516
2026-01-05 09:21:09.94	133.83	43.29	-54.1	-57.8	13.0	0.00e+00	0	27	0	562036736	73	5798
2026-01-05 09:21:10.93	133.70	43.56	-54.2	-57.8	13.0	0.00e+00	0	27	0	564133888	73	5853
2026-01-05 09:21:11.92	133.57	43.84	-54.1	-57.9	13.0	0.00e+00	0	27	0	566231040	73	5861
2026-01-05 09:21:12.91	133.44	44.12	-53.8	-57.4	13.2	0.00e+00	0	27	0	568328192	73	5569
2026-01-05 09:21:13.91	133.30	44.41	-53.8	-57.3	13.3	0.00e+00	0	27	0	569376768	73	5520
2026-01-05 09:21:14.91	133.16	44.69	-53.5	-56.8	13.6	0.00e+00	0	27	0	571473920	73	5203
2026-01-05 09:21:15.91	133.02	44.98	-53.2	-56.2	13.8	0.00e+00	0	27	0	573571072	72	5114
2026-01-05 09:21:16.90	132.88	45.27	-52.6	-55.3	14.1	0.00e+00	0	27	0	575668224	71	4924
2026-01-05 09:21:17.90	132.73	45.56	-52.3	-54.7	14.4	0.00e+00	0	27	0	577765376	71	4569
2026-01-05 09:21:18.90	132.58	45.86	-52.2	-54.6	14.3	0.00e+00	0	27	0	578813952	70	4812
2026-01-05 09:21:19.90	132.43	46.15	-52.3	-54.7	14.3	0.00e+00	0	27	0	580911104	70	4855
2026-01-05 09:21:20.90	132.28	46.45	-53.2	-56.2	13.8	0.00e+00	0	27	0	583008256	71	5412
2026-01-05 09:21:21.89	132.12	46.75	-53.8	-57.0	13.4	0.00e+00	0	27	0	585105408	72	5614
2026-01-05 09:21:22.88	131.96	47.05	-53.8	-56.9	13.4	0.00e+00	0	27	0	586153984	72	5563
2026-01-05 09:21:23.88	131.80	47.35	-53.5	-56.5	13.7	0.00e+00	0	27	0	588251136	72	5284
2026-01-05 09:21:24.87	131.63	47.66	-53.0	-55.7	14.1	0.00e+00	0	27	0	590348288	72	4821
2026-01-05 09:21:25.86	131.46	47.96	-52.7	-55.1	14.2	0.00e+00	0	27	0	592445440	71	4800
2026-01-05 09:21:26.86	131.29	48.27	-52.7	-55.1	14.2	0.00e+00	0	27	0	594542592	71	4803
2026-01-05 09:21:27.85	131.11	48.58	-53.0	-55.4	14.1	0.00e+00	0	27	0	595591168	71	4978
2026-01-05 09:21:28.85	130.93	48.89	-52.6	-54.8	14.3	0.00e+00	0	27	0	597688320	71	4641
2026-01-05 09:21:29.83	130.75	49.20	-52.3	-54.3	14.5	0.00e+00	0	27	0	599785472	71	4378
2026-01-05 09:21:30.82	130.56	49.52	-52.0	-54.0	14.5	0.00e+00	0	27	0	601882624	70	4486
2026-01-05 09:21:31.81	130.37	49.84	-51.8	-53.7	14.7	0.00e+00	0	27	0	602931200	70	4335
2026-01-05 09:21:32.80	130.17	50.15	-51.9	-53.8	14.6	0.00e+00	0	27	0	605028352	70	4385
2026-01-05 09:21:33.79	129.98	50.47	-52.1	-54.1	14.5	0.00e+00	0	27	0	607125504	70	4536
2026-01-05 09:21:34.78	129.77	50.80	-52.3	-54.4	14.4	0.00e+00	0	27	0	609222656	70	4700
2026-01-05 09:21:35.77	129.56	51.12	-51.9	-54.0	14.6	0.00e+00	0	27	0	611319808	70	4477
2026-01-05 09:21:36.76	129.35	51.44	-51.9	-54.0	14.6	0.00e+00	0	27	0	612368384	70	4489
2026-01-05 09:21:37.76	129.13	51.77	-51.7	-53.8	14.5	0.00e+00	0	27	0	614465536	69	4601
2026-01-05 09:21:38.74	128.91	52.10	-52.1	-54.3	14.4	0.00e+00	0	27	0	616562688	69	4914
2026-01-05 09:21:39.73	128.68	52.43	-52.5	-55.0	14.2	0.00e+00	0	27	0	618659840	70	4995
2026-01-05 09:21:40.72	128.45	52.76	-52.9	-55.6	14.0	0.00e+00	0	27	0	619708416	71	5087
2026-01-05 09:21:41.72	128.21	53.10	-53.0	-55.5	14.1	0.00e+00	0	27	0	621805568	71	5006
2026-01-05 09:21:42.70	127.96	53.43	-52.4	-54.6	14.4	0.00e+00	0	28	0	623902720	71	4513
2026-01-05 09:21:43.69	127.71	53.77	-52.1	-54.1	14.5	0.00e+00	0	27	0	625999872	70	4501
2026-01-05 09:21:44.68	127.46	54.11	-52.2	-54.4	14.3	0.00e+00	0	27	0	627048448	70	4663
2026-01-05 09:21:45.67	127.20	54.45	-52.5	-54.9	14.1	0.00e+00	0	27	0	629145600	70	4929
2026-01-05 09:21:46.66	126.93	54.80	-52.8	-55.4	13.9	0.00e+00	0	27	0	631242752	70	5259
2026-01-05 09:21:47.65	126.65	55.14	-52.8	-55.4	14.0	0.00e+00	0	27	0	633339904	71	4974
2026-01-05 09:21:48.63	126.37	55.48	-52.2	-54.7	14.3	0.00e+00	0	27	0	635437056	71	4564
2026-01-05 09:21:49.62	126.08	55.83	-51.6	-53.7	14.5	0.00e+00	0	27	0	636485632	69	4593
2026-01-05 09:21:50.61	125.79	56.18	-50.8	-52.6	14.8	0.00e+00	0	27	0	638582784	68	4291
2026-01-05 09:21:51.60	125.48	56.53	-50.5	-52.3	14.8	0.00e+00	0	27	0	640679936	67	4341
2026-01-05 09:21:52.59	125.17	56.88	-50.5	-52.2	14.8	0.00e+00	0	27	0	642777088	67	4340
2026-01-05 09:21:53.58	124.85	57.23	-50.9	-52.9	14.6	0.00e+00	0	27	0	643825664	67	4656
2026-01-05 09:21:54.57	124.52	57.59	-51.6	-53.7	14.4	0.00e+00	0	27	0	645922816	68	4833
2026-01-05 09:21:55.57	124.18	57.95	-52.1	-54.4	14.2	0.00e+00	0	27	0	648019968	69	4935
2026-01-05 09:21:56.56	123.83	58.30	-51.8	-54.0	14.4	0.00e+00	0	27	0	650117120	69	4720
2026-01-05 09:21:57.56	123.47	58.66	-52.0	-54.2	14.3	0.00e+00	0	28	0	652214272	69	4836
2026-01-05 09:21:58.54	123.11	59.02	-52.4	-54.6	14.2	0.00e+00	0	27	0	653262848	69	5093
2026-01-05 09:21:59.54	122.73	59.38	-53.0	-55.4	14.2	0.00e+00	0	27	0	655360000	71	4930
2026-01-05 09:22:00.53	122.34	59.74	-53.2	-55.7	13.9	0.00e+00	0	27	0	657457152	71	5102
2026-01-05 09:22:01.52	121.94	60.11	-53.5	-56.0	13.9	0.00e+00	0	27	0	659554304	72	4986
2026-01-05 09:22:02.51	121.53	60.47	-53.0	-55.3	14.2	0.00e+00	0	27	0	660602880	72	4627
2026-01-05 09:22:03.51	121.11	60.83	-52.9	-55.0	14.3	0.00e+00	0	27	0	662700032	72	4480
2026-01-05 09:22:04.50	120.67	61.20	-52.4	-54.4	14.4	0.00e+00	0	27	0	664797184	71	4430
2026-01-05 09:22:05.49	120.23	61.56	-52.1	-54.0	14.5	0.00e+00	0	27	0	666894336	70	4480
2026-01-05 09:22:06.48	119.77	61.93	-52.1	-54.0	14.5	0.00e+00	0	27	0	667942912	70	4493
2026-01-05 09:22:07.48	119.29	62.30	-51.6	-53.4	14.7	0.00e+00	0	27	0	670040064	69	4427
2026-01-05 09:22:08.48	118.79	62.66	-51.1	-52.7	14.8	0.00e+00	0	27	0	672137216	68	4319
2026-01-05 09:22:09.47	118.29	63.03	-50.5	-52.0	14.9	0.00e+00	0	27	0	674234368	67	4203
2026-01-05 09:22:10.46	117.77	63.40	-50.4	-51.9	14.8	0.00e+00	0	27	0	676331520	66	4436
2026-01-05 09:22:11.45	117.23	63.76	-51.2	-53.0	14.6	0.00e+00	0	27	0	677380096	67	4737
2026-01-05 09:22:12.44	116.68	64.12	-51.7	-53.7	14.5	0.00e+00	0	27	0	679477248	68	4816
2026-01-05 09:22:13.43	116.10	64.49	-51.3	-53.0	14.8	0.00e+00	0	27	0	681574400	69	4235
2026-01-05 09:22:14.42	115.51	64.85	-50.8	-52.4	14.9	0.00e+00	0	27	0	683671552	68	4172
2026-01-05 09:22:15.41	114.90	65.22	-51.2	-52.9	14.6	0.00e+00	0	27	0	684720128	67	4689
2026-01-05 09:22:16.41	114.27	65.58	-52.7	-54.9	14.2	0.00e+00	0	27	0	686817280	70	4975
2026-01-05 09:22:17.39	113.62	65.94	-53.7	-56.4	13.8	0.00e+00	0	27	0	688914432	72	5221
2026-01-05 09:22:18.37	112.95	66.29	-53.5	-56.0	13.9	0.00e+00	0	27	0	691011584	72	5032
2026-01-05 09:22:19.35	112.27	66.65	-53.2	-55.4	14.3	0.00e+00	0	27	0	692060160	72	4671
2026-01-05 09:22:20.34	111.55	67.01	-53.0	-55.1	14.3	0.00e+00	0	27	0	694157312	72	4537
2026-01-05 09:22:21.33	110.80	67.36	-53.0	-55.1	14.3	0.00e+00	0	27	0	696254464	72	4511
2026-01-05 09:22:22.32	110.03	67.71	-53.4	-55.7	14.1	0.00e+00	0	27	0	698351616	72	4842
2026-01-05 09:22:23.31	109.23	68.06	-53.7	-56.2	13.9	0.00e+00	0	27	0	700448768	72	5107
2026-01-05 09:22:24.30	108.41	68.41	-53.8	-56.1	14.0	0.00e+00	0	27	0	701497344	73	4787
2026-01-05 09:22:25.28	107.56	68.75	-54.0	-56.5	13.8	0.00e+00	0	27	0	703594496	73	5025
2026-01-05 09:22:26.27	106.68	69.09	-55.1	-58.4	12.9	0.00e+00	0	28	0	705691648	75	5553
2026-01-05 09:22:27.25	105.77	69.42	-55.7	-59.3	12.6	0.00e+00	0	27	0	707788800	76	5791
2026-01-05 09:22:28.24	104.82	69.76	-55.8	-59.4	12.5	0.00e+00	0	27	0	708837376	77	5579
2026-01-05 09:22:29.23	103.84	70.09	-55.0	-58.1	13.2	0.00e+00	0	27	0	710934528	76	5045
2026-01-05 09:22:30.22	102.82	70.41	-54.3	-57.1	13.6	0.00e+00	0	27	0	713031680	75	4765
2026-01-05 09:22:31.20	101.78	70.73	-54.2	-56.9	13.6	0.00e+00	0	27	0	715128832	74	4975
2026-01-05 09:22:32.19	100.69	71.04	-53.6	-56.0	14.0	0.00e+00	0	27	0	716177408	73	4711
2026-01-05 09:22:33.18	99.56	71.35	-53.0	-55.1	14.2	0.00e+00	0	27	0	718274560	72	4540
2026-01-05 09:22:34.17	98.39	71.65	-53.1	-55.2	14.3	0.00e+00	0	27	0	720371712	72	4575
2026-01-05 09:22:35.17	97.16	71.95	-53.1	-55.2	14.3	0.00e+00	0	27	0	722468864	72	4598
2026-01-05 09:22:36.16	95.91	72.24	-52.6	-54.5	14.4	0.00e+00	0	27	0	724566016	71	4472
2026-01-05 09:22:37.15	94.61	72.52	-51.9	-53.6	14.7	0.00e+00	0	27	0	725614592	70	4290
2026-01-05 09:22:38.14	93.27	72.79	-51.7	-53.4	14.7	0.00e+00	0	27	0	727711744	69	4396
2026-01-05 09:22:39.14	91.87	73.06	-51.7	-53.4	14.6	0.00e+00	0	27	0	729808896	69	4426
2026-01-05 09:22:40.13	90.44	73.31	-52.0	-53.8	14.5	0.00e+00	0	27	0	731906048	69	4618
2026-01-05 09:22:41.12	88.96	73.56	-52.1	-53.9	14.4	0.00e+00	0	27	0	732954624	69	4688
2026-01-05 09:22:42.11	87.44	73.79	-52.1	-53.8	14.5	0.00e+00	0	27	0	735051776	69	4632
2026-01-05 09:22:43.10	85.87	74.01	-53.2	-55.3	14.1	0.00e+00	0	27	0	737148928	71	4917
2026-01-05 09:22:44.09	84.25	74.23	-54.3	-56.9	13.8	0.00e+00	0	27	0	739246080	74	4949
2026-01-05 09:22:45.08	82.59	74.43	-53.9	-56.2	14.1	0.00e+00	0	27	0	740294656	74	4593
2026-01-05 09:22:46.07	80.89	74.61	-53.2	-55.2	14.4	0.00e+00	0	27	0	742391808	73	4302
2026-01-05 09:22:47.06	79.15	74.79	-53.4	-55.5	14.2	0.00e+00	0	27	0	744488960	72	4719
2026-01-05 09:22:48.06	77.34	74.95	-53.9	-56.2	14.0	0.00e+00	0	27	0	746586112	73	4821
2026-01-05 09:22:49.05	75.52	75.09	-54.6	-57.1	13.7	0.00e+00	0	27	0	748683264	74	5068
2026-01-05 09:22:50.04	73.66	75.23	-55.1	-57.9	13.2	0.00e+00	0	27	0	749731840	75	5228
2026-01-05 09:22:51.03	71.77	75.34	-54.9	-57.6	13.6	0.00e+00	0	27	0	751828992	76	4763
2026-01-05 09:22:52.03	69.83	75.44	-56.0	-59.6	12.4	0.00e+00	0	28	0	753926144	77	5685
2026-01-05 09:22:53.02	67.88	75.53	-55.7	-59.2	12.7	0.00e+00	0	27	0	756023296	77	5415
2026-01-05 09:22:54.01	65.91	75.59	-54.5	-57.3	13.7	0.00e+00	0	27	0	757071872	75	4888
2026-01-05 09:22:55.00	63.93	75.65	-53.5	-55.6	14.3	0.00e+00	0	27	0	759169024	73	4544
2026-01-05 09:22:56.00	61.91	75.68	-52.9	-54.8	14.5	0.00e+00	0	27	0	761266176	72	4378
2026-01-05 09:22:56.98	59.93	75.70	-53.3	-55.3	14.2	0.00e+00	0	27	0	763363328	72	4649
2026-01-05 09:22:57.97	57.92	75.70	-54.1	-56.6	13.8	0.00e+00	0	27	0	765460480	73	5071
2026-01-05 09:22:58.97	55.89	75.68	-54.4	-57.0	13.8	0.00e+00	0	27	0	766509056	75	4724
2026-01-05 09:22:59.96	53.90	75.65	-54.1	-56.5	14.0	0.00e+00	0	27	0	768606208	74	4752
2026-01-05 09:23:00.95	51.91	75.60	-54.7	-57.6	13.5	0.00e+00	0	27	0	770703360	76	4783
2026-01-05 09:23:01.94	49.94	75.53	-53.5	-55.8	14.1	0.00e+00	0	27	0	772800512	73	4648
2026-01-05 09:23:02.93	47.99	75.45	-52.6	-54.5	14.5	0.00e+00	0	27	0	773849088	71	4483
2026-01-05 09:23:03.92	46.07	75.35	-53.4	-55.5	14.1	0.00e+00	0	27	0	775946240	71	5002
2026-01-05 09:23:04.91	44.18	75.23	-53.7	-55.9	14.0	0.00e+00	0	27	0	778043392	72	4927
2026-01-05 09:23:05.89	42.34	75.10	-54.5	-57.0	13.7	0.00e+00	0	27	0	780140544	74	4985
2026-01-05 09:23:06.88	40.51	74.96	-54.7	-57.4	13.6	0.00e+00	0	27	0	781189120	75	4944
2026-01-05 09:23:07.88	38.71	74.80	-54.0	-56.3	14.1	0.00e+00	0	27	0	783286272	74	4619
2026-01-05 09:23:08.87	36.96	74.63	-52.8	-54.7	14.5	0.00e+00	0	27	0	785383424	71	4552
2026-01-05 09:23:09.87	35.24	74.44	-52.7	-54.5	14.5	0.00e+00	0	27	0	787480576	71	4469
2026-01-05 09:23:10.86	33.57	74.24	-52.9	-54.7	14.4	0.00e+00	0	27	0	789577728	71	4559
2026-01-05 09:23:11.85	31.96	74.03	-54.1	-56.3	14.0	0.00e+00	0	27	0	790626304	73	4921
2026-01-05 09:23:12.85	30.37	73.80	-55.6	-58.6	13.1	0.00e+00	0	27	0	792723456	76	5349
2026-01-05 09:23:13.84	28.85	73.57	-55.4	-58.2	13.3	0.00e+00	0	27	0	794820608	76	5151
2026-01-05 09:23:14.84	27.35	73.32	-55.6	-58.5	13.3	0.00e+00	0	27	0	796917760	77	5020
2026-01-05 09:23:15.83	25.92	73.07	-55.1	-57.6	13.7	0.00e+00	0	27	0	797966336	76	4781
2026-01-05 09:23:16.82	24.53	72.81	-54.6	-57.0	13.9	0.00e+00	0	27	0	800063488	75	4753
2026-01-05 09:23:17.81	23.19	72.54	-55.1	-57.9	13.4	0.00e+00	0	27	0	802160640	75	5240
2026-01-05 09:23:18.80	21.89	72.26	-56.0	-59.4	12.8	0.00e+00	0	27	0	804257792	77	5554
2026-01-05 09:23:19.79	20.63	71.97	-55.6	-58.5	13.2	0.00e+00	0	27	0	806354944	77	5024
2026-01-05 09:23:20.78	19.42	71.67	-54.5	-57.0	13.8	0.00e+00	0	27	0	807403520	75	4746
2026-01-05 09:23:21.77	18.25	71.37	-55.2	-58.2	13.2	0.00e+00	0	28	0	809500672	75	5415
2026-01-05 09:23:22.75	17.13	71.07	-55.2	-58.3	13.1	0.00e+00	0	27	0	811597824	76	5183
2026-01-05 09:23:23.74	16.03	70.75	-54.6	-57.2	13.7	0.00e+00	0	28	0	813694976	75	4858
2026-01-05 09:23:24.73	14.98	70.44	-54.6	-57.3	13.7	0.00e+00	0	27	0	814743552	75	4885
2026-01-05 09:23:25.72	13.96	70.11	-54.3	-56.8	13.9	0.00e+00	0	27	0	816840704	75	4628
2026-01-05 09:23:26.70	12.98	69.79	-53.7	-55.8	14.2	0.00e+00	0	27	0	818937856	73	4636
2026-01-05 09:23:27.69	12.03	69.45	-55.3	-58.2	13.2	0.00e+00	0	28	0	821035008	76	5139
2026-01-05 09:23:28.69	11.11	69.11	-55.7	-58.7	13.1	0.00e+00	0	27	0	823132160	77	5151
2026-01-05 09:23:29.68	10.22	68.77	-54.2	-56.6	14.0	0.00e+00	0	27	0	824180736	75	4515
2026-01-05 09:23:30.68	9.36	68.43	-53.7	-56.0	14.0	0.00e+00	0	27	0	826277888	73	4757
2026-01-05 09:23:31.67	8.53	68.08	-53.8	-56.2	14.0	0.00e+00	0	27	0	828375040	73	4834
2026-01-05 09:23:32.66	7.73	67.73	-53.5	-55.9	14.1	0.00e+00	0	27	0	830472192	73	4667
2026-01-05 09:23:33.64	6.97	67.38	-53.7	-56.2	13.9	0.00e+00	0	27	0	831520768	72	5132
2026-01-05 09:23:34.63	6.22	67.03	-54.5	-57.4	13.5	0.00e+00	0	27	0	833617920	74	5220
2026-01-05 09:23:35.63	5.50	66.67	-53.9	-56.4	13.9	0.00e+00	0	27	0	835715072	74	4704
2026-01-05 09:23:36.61	4.81	66.32	-53.8	-56.3	13.9	0.00e+00	0	27	0	837812224	73	4911
2026-01-05 09:23:37.60	4.13	65.96	-53.6	-56.1	14.0	0.00e+00	0	27	0	838860800	73	4761
2026-01-05 09:23:38.58	3.49	65.60	-52.5	-54.5	14.5	0.00e+00	0	27	0	840957952	71	4468
2026-01-05 09:23:39.57	2.86	65.24	-51.7	-53.5	14.8	0.00e+00	0	27	0	843055104	70	4203
2026-01-05 09:23:40.56	2.25	64.88	-51.6	-53.5	14.6	0.00e+00	0	27	0	845152256	69	4452
2026-01-05 09:23:41.55	1.66	64.52	-51.4	-53.2	14.7	0.00e+00	0	27	0	846200832	69	4332
2026-01-05 09:23:42.54	1.08	64.15	-50.7	-52.4	14.9	0.00e+00	0	27	0	848297984	68	4176
2026-01-05 09:23:43.52	0.54	63.79	-49.9	-51.4	15.0	0.00e+00	0	27	0	850395136	66	4154
2026-01-05 09:23:44.51	360.00	63.43	-49.9	-51.4	14.9	0.00e+00	0	27	0	852492288	65	4393
2026-01-05 09:23:45.50	359.48	63.06	-50.4	-52.0	14.7	0.00e+00	0	27	0	854589440	65	4732
2026-01-05 09:23:46.49	358.97	62.70	-51.8	-53.6	14.5	0.00e+00	0	27	0	855638016	68	4787
2026-01-05 09:23:47.49	358.48	62.33	-51.1	-52.7	14.8	0.00e+00	0	27	0	857735168	68	4317
2026-01-05 09:23:48.48	358.00	61.97	-51.1	-52.7	14.9	0.00e+00	0	27	0	859832320	68	4292
2026-01-05 09:23:49.47	357.54	61.60	-51.6	-53.3	14.6	0.00e+00	0	27	0	861929472	68	4635
2026-01-05 09:23:50.47	357.09	61.23	-52.7	-54.6	14.4	0.00e+00	0	27	0	862978048	70	4789
2026-01-05 09:23:51.47	356.65	60.87	-53.2	-55.3	14.1	0.00e+00	0	27	0	865075200	72	4630
2026-01-05 09:23:52.47	356.22	60.50	-53.8	-56.2	13.9	0.00e+00	0	27	0	867172352	73	4822
2026-01-05 09:23:53.46	355.81	60.14	-53.5	-55.7	14.3	0.00e+00	0	27	0	869269504	73	4546
2026-01-05 09:23:54.47	355.41	59.77	-54.6	-57.3	13.5	0.00e+00	0	27	0	871366656	74	5166
2026-01-05 09:23:55.46	355.02	59.41	-55.7	-59.2	12.7	0.00e+00	0	27	0	872415232	76	5750
2026-01-05 09:23:56.45	354.64	59.05	-55.8	-59.5	12.6	1.50e-06	0	27	0	874512384	77	5602
2026-01-05 09:23:57.44	354.28	58.69	-53.9	-56.3	14.0	0.00e+00	0	27	0	876609536	74	4622
2026-01-05 09:23:58.44	353.92	58.33	-52.7	-54.7	14.4	0.00e+00	0	27	0	878706688	71	4572
2026-01-05 09:23:59.43	353.57	57.98	-52.3	-54.3	14.5	0.00e+00	0	27	0	879755264	70	4611
2026-01-05 09:24:00.43	353.23	57.62	-52.4	-54.4	14.5	0.00e+00	0	27	0	881852416	71	4417
2026-01-05 09:24:01.42	352.90	57.27	-52.4	-54.5	14.5	0.00e+00	0	27	0	883949568	71	4459
2026-01-05 09:24:02.41	352.58	56.91	-52.5	-54.7	14.4	0.00e+00	0	27	0	886046720	71	4574
2026-01-05 09:24:03.40	352.27	56.56	-53.1	-55.5	14.0	0.00e+00	0	27	0	888143872	71	5022
2026-01-05 09:24:04.39	351.97	56.21	-53.1	-55.7	14.0	0.00e+00	0	27	0	889192448	71	5115
2026-01-05 09:24:05.39	351.67	55.86	-52.7	-55.1	14.2	0.00e+00	0	27	0	891289600	71	4810
2026-01-05 09:24:06.38	351.38	55.52	-52.5	-54.7	14.4	0.00e+00	0	27	0	893386752	71	4594
2026-01-05 09:24:07.37	351.09	55.17	-52.5	-54.7	14.4	0.00e+00	0	27	0	895483904	71	4559
2026-01-05 09:24:08.36	350.82	54.83	-52.1	-54.2	14.5	0.00e+00	0	27	0	896532480	70	4557
2026-01-05 09:24:09.36	350.55	54.48	-52.0	-54.0	14.6	0.00e+00	0	27	0	898629632	70	4483
2026-01-05 09:24:10.36	350.28	54.14	-52.2	-54.3	14.5	0.00e+00	0	27	0	900726784	70	4623
2026-01-05 09:24:11.36	350.03	53.80	-52.7	-55.0	14.2	0.00e+00	0	27	0	902823936	70	5003
2026-01-05 09:24:12.34	349.78	53.46	-52.1	-54.2	14.4	0.00e+00	0	27	0	904921088	70	4587
2026-01-05 09:24:13.33	349.53	53.13	-51.6	-53.5	14.7	0.00e+00	0	27	0	905969664	69	4482
2026-01-05 09:24:14.32	349.30	52.79	-52.0	-54.2	14.4	0.00e+00	0	27	0	908066816	69	4829
2026-01-05 09:24:15.32	349.06	52.46	-52.5	-54.9	14.2	0.00e+00	0	28	0	910163968	70	4958
2026-01-05 09:24:16.31	348.83	52.13	-52.7	-55.1	14.0	0.00e+00	0	27	0	912261120	70	5090
2026-01-05 09:24:17.30	348.61	51.80	-53.1	-55.7	13.9	0.00e+00	0	28	0	913309696	71	5112
2026-01-05 09:24:18.29	348.39	51.47	-54.7	-58.3	12.9	0.00e+00	0	27	0	915406848	74	5833
2026-01-05 09:24:19.28	348.18	51.15	-54.7	-58.2	13.0	0.00e+00	0	27	0	917504000	74	5726
2026-01-05 09:24:20.28	347.97	50.82	-54.7	-58.0	13.1	0.00e+00	0	27	0	919601152	74	5652
2026-01-05 09:24:21.27	347.77	50.50	-53.8	-56.5	13.9	0.00e+00	0	27	0	920649728	74	4715
2026-01-05 09:24:22.25	347.57	50.19	-53.3	-55.6	14.1	0.00e+00	0	27	0	922746880	73	4540
2026-01-05 09:24:23.25	347.37	49.87	-53.1	-55.4	14.2	0.00e+00	0	27	0	924844032	72	4691
2026-01-05 09:24:24.25	347.18	49.55	-53.8	-56.5	13.7	0.00e+00	0	28	0	926941184	72	5297
2026-01-05 09:24:25.23	346.99	49.24	-53.6	-56.2	13.8	0.00e+00	0	27	0	929038336	72	5141
2026-01-05 09:24:26.24	346.81	48.92	-53.8	-56.5	13.8	0.00e+00	0	27	0	930086912	73	4992
2026-01-05 09:24:27.23	346.63	48.61	-53.9	-56.6	13.8	0.00e+00	0	27	0	932184064	73	5068
2026-01-05 09:24:28.22	346.45	48.30	-53.7	-56.3	13.8	0.00e+00	0	27	0	934281216	73	4898
2026-01-05 09:24:29.22	346.28	47.99	-53.9	-56.5	13.8	0.00e+00	0	27	0	936378368	73	5021
2026-01-05 09:24:30.21	346.11	47.69	-54.5	-57.4	13.3	0.00e+00	0	28	0	937426944	74	5269
2026-01-05 09:24:31.21	345.94	47.38	-54.5	-57.5	13.3	0.00e+00	0	27	0	939524096	75	5040
2026-01-05 09:24:32.20	345.78	47.08	-54.4	-57.2	13.5	0.00e+00	0	27	0	941621248	74	5158
2026-01-05 09:24:33.20	345.62	46.78	-54.4	-57.2	13.5	0.00e+00	0	28	0	943718400	74	5153
2026-01-05 09:24:34.19	345.46	46.48	-55.1	-58.3	13.0	0.00e+00	0	27	0	945815552	75	5481
2026-01-05 09:24:35.19	345.31	46.19	-55.9	-59.8	12.3	0.00e+00	0	27	0	946864128	77	5812
2026-01-05 09:24:36.18	345.16	45.89	-55.2	-58.3	13.2	0.00e+00	0	27	0	948961280	77	4910
2026-01-05 09:24:37.17	345.01	45.60	-53.8	-56.2	14.0	0.00e+00	0	27	0	951058432	74	4597
2026-01-05 09:24:38.16	344.87	45.31	-53.4	-55.6	14.2	0.00e+00	0	27	0	953155584	73	4535
2026-01-05 09:24:39.16	344.73	45.02	-52.9	-55.0	14.4	0.00e+00	0	27	0	954204160	72	4446
2026-01-05 09:24:40.15	344.59	44.74	-53.0	-55.2	14.3	0.00e+00	0	27	0	956301312	72	4578
2026-01-05 09:24:41.14	344.45	44.45	-54.2	-56.9	13.6	0.00e+00	0	27	0	958398464	73	5231
2026-01-05 09:24:42.14	344.31	44.17	-54.4	-57.3	13.5	0.00e+00	0	27	0	960495616	74	5170
2026-01-05 09:24:43.13	344.18	43.89	-54.8	-57.8	13.2	0.00e+00	0	27	0	962592768	75	5218
2026-01-05 09:24:44.13	344.05	43.61	-54.4	-57.2	13.6	0.00e+00	0	27	0	963641344	75	4837
2026-01-05 09:24:45.11	343.93	43.34	-54.7	-57.6	13.3	0.00e+00	0	27	0	965738496	75	5096
2026-01-05 09:24:46.11	343.80	43.06	-54.4	-57.3	13.5	0.00e+00	0	27	0	967835648	75	4873
2026-01-05 09:24:47.10	343.68	42.79	-54.0	-56.7	13.8	0.00e+00	0	27	0	969932800	74	4820
2026-01-05 09:24:48.09	343.56	42.52	-53.3	-55.6	14.2	0.00e+00	0	27	0	970981376	73	4529
2026-01-05 09:24:49.08	343.44	42.25	-54.0	-56.7	13.8	0.00e+00	0	27	0	973078528	73	5106
2026-01-05 09:24:50.07	343.32	41.98	-54.8	-58.0	13.3	0.00e+00	0	28	0	975175680	74	5594
2026-01-05 09:24:51.07	343.21	41.71	-55.4	-59.1	12.6	0.00e+00	0	27	0	977272832	75	6009
2026-01-05 09:24:52.06	343.09	41.45	-55.7	-59.4	12.5	0.00e+00	0	27	0	979369984	76	5911
2026-01-05 09:24:53.05	342.98	41.19	-54.8	-57.9	13.3	0.00e+00	0	27	0	980418560	75	5228
2026-01-05 09:24:54.05	342.87	40.93	-53.5	-55.9	14.1	0.00e+00	0	27	0	982515712	73	4675
2026-01-05 09:24:55.04	342.77	40.67	-52.9	-55.0	14.4	0.00e+00	0	27	0	984612864	72	4485
2026-01-05 09:24:56.03	342.66	40.41	-53.1	-55.3	14.2	0.00e+00	0	27	0	986710016	72	4649
2026-01-05 09:24:57.02	342.56	40.16	-53.3	-55.6	14.1	0.00e+00	0	27	0	987758592	72	4778
2026-01-05 09:24:58.02	342.46	39.90	-53.6	-56.0	13.9	0.00e+00	0	27	0	989855744	72	4998
2026-01-05 09:24:59.01	342.35	39.65	-53.5	-55.9	14.0	0.00e+00	0	27	0	991952896	72	4965
2026-01-05 09:25:00.01	342.26	39.40	-54.1	-57.0	13.5	0.00e+00	0	27	0	994050048	73	5295
2026-01-05 09:25:01.00	342.16	39.15	-54.0	-56.8	13.6	0.00e+00	0	28	0	996147200	73	5187
2026-01-05 09:25:02.00	342.06	38.90	-54.3	-57.2	13.4	0.00e+00	0	28	0	997195776	73	5451
2026-01-05 09:25:03.00	341.97	38.65	-54.0	-56.7	13.7	0.00e+00	0	27	0	999292928	73	5130
2026-01-05 09:25:03.99	341.87	38.41	-53.8	-56.4	13.8	0.00e+00	0	28	0	1001390080	73	4950
2026-01-05 09:25:04.98	341.78	38.17	-53.2	-55.5	14.2	0.00e+00	0	27	0	1003487232	73	4492
2026-01-05 09:25:05.98	341.69	37.93	-53.1	-55.4	14.1	0.00e+00	0	27	0	1004535808	72	4689
2026-01-05 09:25:06.98	341.60	37.69	-53.3	-55.7	14.0	0.00e+00	0	27	0	1006632960	72	4853
2026-01-05 09:25:07.97	341.52	37.45	-53.3	-55.7	14.0	0.00e+00	0	27	0	1008730112	72	4859
2026-01-05 09:25:08.96	341.43	37.22	-53.1	-55.5	14.0	0.00e+00	0	27	0	1010827264	72	4731
2026-01-05 09:25:09.96	341.34	36.98	-53.1	-55.4	14.1	0.00e+00	0	27	0	1012924416	72	4690
2026-01-05 09:25:10.96	341.26	36.75	-53.5	-56.0	13.7	0.00e+00	0	27	0	1013972992	72	5037
2026-01-05 09:25:11.95	341.18	36.52	-53.4	-55.9	13.9	0.00e+00	0	27	0	1016070144	73	4664
2026-01-05 09:25:12.94	341.10	36.29	-53.8	-56.5	13.7	0.00e+00	0	27	0	1018167296	73	4996
2026-01-05 09:25:13.94	341.02	36.06	-53.9	-56.6	13.6	0.00e+00	0	27	0	1020264448	73	5086
2026-01-05 09:25:14.93	340.94	35.84	-53.9	-56.7	13.6	0.00e+00	0	27	0	1021313024	73	5131
2026-01-05 09:25:15.92	340.86	35.61	-54.5	-57.5	13.3	0.00e+00	0	28	0	1023410176	74	5311
2026-01-05 09:25:16.91	340.79	35.39	-54.8	-58.1	13.0	0.00e+00	0	27	0	1025507328	74	5712
2026-01-05 09:25:17.91	340.71	35.17	-54.8	-57.9	13.2	0.00e+00	0	27	0	1027604480	75	5254
2026-01-05 09:25:18.90	340.64	34.95	-54.8	-58.0	13.1	0.00e+00	0	27	0	1029701632	75	5295
2026-01-05 09:25:19.89	340.56	34.73	-54.4	-57.3	13.4	0.00e+00	0	28	0	1030750208	74	5178
2026-01-05 09:25:20.88	340.49	34.51	-53.9	-56.6	13.8	0.00e+00	0	28	0	1032847360	74	4768
2026-01-05 09:25:21.88	340.42	34.30	-53.5	-56.0	14.0	0.00e+00	0	28	0	1034944512	73	4710
2026-01-05 09:25:22.86	340.35	34.09	-53.1	-55.4	14.1	0.00e+00	0	27	0	1037041664	72	4654
2026-01-05 09:25:23.86	340.28	33.87	-53.0	-55.1	14.3	0.00e+00	0	28	0	1038090240	72	4541
2026-01-05 09:25:24.85	340.21	33.66	-53.3	-55.5	14.0	0.00e+00	0	27	0	1040187392	72	4752
2026-01-05 09:25:25.85	340.14	33.45	-53.5	-55.8	14.0	0.00e+00	0	27	0	1042284544	72	4903
2026-01-05 09:25:26.84	340.08	33.24	-53.6	-55.9	13.9	0.00e+00	0	27	0	1044381696	72	4979
2026-01-05 09:25:27.84	340.01	33.03	-54.0	-56.5	13.7	0.00e+00	0	27	0	1046478848	73	5035
2026-01-05 09:25:28.83	339.95	32.83	-53.8	-56.1	13.9	0.00e+00	0	27	0	1047527424	73	4798
2026-01-05 09:25:29.82	339.88	32.62	-53.8	-56.2	13.9	0.00e+00	0	27	0	1049624576	73	4829
2026-01-05 09:25:30.81	339.82	32.42	-54.0	-56.4	13.8	0.00e+00	0	27	0	1051721728	73	4936
2026-01-05 09:25:31.81	339.76	32.22	-54.1	-56.5	13.7	0.00e+00	0	28	0	1053818880	73	5031
2026-01-05 09:25:32.80	339.70	32.02	-53.7	-56.0	13.9	0.00e+00	0	27	0	1054867456	73	4714
2026-01-05 09:25:33.79	339.64	31.82	-54.1	-56.5	13.8	0.00e+00	0	27	0	1056964608	73	5037
2026-01-05 09:25:34.78	339.58	31.62	-54.2	-56.7	13.7	0.00e+00	0	27	0	1059061760	73	5110
2026-01-05 09:25:35.77	339.52	31.43	-54.3	-56.8	13.6	0.00e+00	0	27	0	1061158912	73	5205
2026-01-05 09:25:36.76	339.46	31.23	-54.5	-57.1	13.6	0.00e+00	0	28	0	1062207488	74	5047
2026-01-05 09:25:37.75	339.40	31.04	-54.3	-56.8	13.8	0.00e+00	0	27	0	1064304640	74	4885
2026-01-05 09:25:38.75	339.34	30.85	-54.5	-57.1	13.6	0.00e+00	0	27	0	1066401792	74	5077
2026-01-05 09:25:39.74	339.29	30.65	-54.2	-56.7	13.7	0.00e+00	0	27	0	1068498944	74	4851
2026-01-05 09:25:40.73	339.23	30.46	-54.0	-56.4	13.9	0.00e+00	0	27	0	1070596096	74	4696
2026-01-05 09:25:41.72	339.18	30.28	-54.2	-56.8	13.7	0.00e+00	0	27	0	1071644672	74	4882
2026-01-05 09:25:42.72	339.12	30.09	-54.2	-56.7	13.7	0.00e+00	0	27	0	1073741824	74	4849
2026-01-05 09:25:43.71	339.07	29.90	-54.2	-56.8	13.7	0.00e+00	0	27	0	1075838976	74	4879
2026-01-05 09:25:44.70	339.02	29.72	-54.3	-56.9	13.6	0.00e+00	0	27	0	1077936128	74	4983
2026-01-05 09:25:45.69	338.97	29.53	-54.6	-57.5	13.3	0.00e+00	0	27	0	1078984704	74	5291
2026-01-05 09:25:46.69	338.92	29.35	-54.4	-57.1	13.5	0.00e+00	0	27	0	1081081856	74	5097
2026-01-05 09:25:47.68	338.86	29.17	-54.5	-57.2	13.5	0.00e+00	0	27	0	1083179008	74	5126
2026-01-05 09:25:48.68	338.81	28.98	-54.2	-56.8	13.7	0.00e+00	0	27	0	1085276160	74	4892
2026-01-05 09:25:49.67	338.76	28.80	-53.7	-56.0	14.0	0.00e+00	0	27	0	1087373312	74	4468
2026-01-05 09:25:50.66	338.72	28.63	-53.4	-55.6	14.2	0.00e+00	0	27	0	1088421888	73	4524
2026-01-05 09:25:51.64	338.67	28.45	-53.1	-55.3	14.2	0.00e+00	0	27	0	1090519040	72	4602
2026-01-05 09:25:52.64	338.62	28.27	-52.8	-54.8	14.4	0.00e+00	0	27	0	1092616192	72	4363
2026-01-05 09:25:53.63	338.57	28.10	-53.0	-55.0	14.2	0.00e+00	0	27	0	1094713344	72	4489
2026-01-05 09:25:54.62	338.53	27.93	-53.1	-55.2	14.2	0.00e+00	0	27	0	1095761920	72	4577
2026-01-05 09:25:55.62	338.48	27.75	-53.0	-55.1	14.2	0.00e+00	0	28	0	1097859072	72	4535
2026-01-05 09:25:56.61	338.43	27.58	-53.2	-55.3	14.2	0.00e+00	0	27	0	1099956224	72	4613
2026-01-05 09:25:57.61	338.39	27.41	-53.2	-55.3	14.2	0.00e+00	0	27	0	1102053376	72	4651
2026-01-05 09:25:58.60	338.34	27.24	-53.1	-55.2	14.2	0.00e+00	0	27	0	1104150528	72	4584
2026-01-05 09:25:59.60	338.30	27.07	-53.1	-55.2	14.2	0.00e+00	0	27	0	1105199104	72	4556
2026-01-05 09:26:00.60	338.26	26.90	-53.1	-55.3	14.2	0.00e+00	0	27	0	1107296256	72	4603
2026-01-05 09:26:01.59	338.21	26.73	-53.0	-55.1	14.3	0.00e+00	0	27	0	1109393408	72	4504
2026-01-05 09:26:02.58	338.17	26.57	-52.9	-55.0	14.3	0.00e+00	0	27	0	1111490560	72	4463
2026-01-05 09:26:03.57	338.13	26.40	-52.9	-55.0	14.3	0.00e+00	0	27	0	1112539136	72	4462
2026-01-05 09:26:04.56	338.09	26.24	-52.8	-54.9	14.3	0.00e+00	0	27	0	1114636288	71	4660
2026-01-05 09:26:05.55	338.05	26.08	-52.5	-54.4	14.5	0.00e+00	0	27	0	1116733440	71	4439
2026-01-05 09:26:06.55	338.01	25.91	-52.4	-54.4	14.5	0.00e+00	0	28	0	1118830592	71	4413
2026-01-05 09:26:07.54	337.96	25.75	-52.4	-54.4	14.5	0.00e+00	0	27	0	1120927744	71	4392
2026-01-05 09:26:08.53	337.93	25.59	-52.3	-54.2	14.5	0.00e+00	0	27	0	1121976320	71	4331
2026-01-05 09:26:09.52	337.89	25.44	-52.4	-54.4	14.5	0.00e+00	0	27	0	1124073472	71	4404
2026-01-05 09:26:10.52	337.85	25.28	-52.3	-54.3	14.5	0.00e+00	0	27	0	1126170624	71	4351
2026-01-05 09:26:11.51	337.81	25.12	-52.5	-54.5	14.4	0.00e+00	0	27	0	1128267776	71	4486
2026-01-05 09:26:12.51	337.77	24.96	-52.6	-54.7	14.3	0.00e+00	0	27	0	1129316352	71	4550
2026-01-05 09:26:13.50	337.73	24.81	-52.6	-54.6	14.3	0.00e+00	0	27	0	1131413504	71	4545
2026-01-05 09:26:14.51	337.69	24.65	-52.7	-54.8	14.3	0.00e+00	0	27	0	1133510656	71	4618
2026-01-05 09:26:15.50	337.66	24.50	-52.9	-55.0	14.2	0.00e+00	0	27	0	1135607808	71	4744
2026-01-05 09:26:16.49	337.62	24.34	-53.1	-55.3	14.0	0.00e+00	0	27	0	1137704960	71	4881
2026-01-05 09:26:17.48	337.59	24.19	-53.0	-55.2	14.0	0.00e+00	0	27	0	1138753536	71	4863
2026-01-05 09:26:18.47	337.55	24.04	-53.4	-55.7	13.9	0.00e+00	0	27	0	1140850688	71	5114
2026-01-05 09:26:19.46	337.51	23.89	-53.5	-55.9	13.9	0.00e+00	0	27	0	1142947840	72	4937
2026-01-05 09:26:20.46	337.48	23.74	-53.6	-56.0	13.8	0.00e+00	0	27	0	1145044992	72	5024
2026-01-05 09:26:21.46	337.44	23.59	-53.9	-56.5	13.6	0.00e+00	0	27	0	1146093568	72	5289
2026-01-05 09:26:22.45	337.41	23.45	-53.9	-56.5	13.6	0.00e+00	0	28	0	1148190720	73	5029
2026-01-05 09:26:23.44	337.38	23.30	-53.9	-56.5	13.7	0.00e+00	0	27	0	1150287872	73	5037
2026-01-05 09:26:24.43	337.34	23.15	-54.0	-56.6	13.6	0.00e+00	0	27	0	1152385024	73	5064
2026-01-05 09:26:25.42	337.31	23.01	-53.9	-56.5	13.6	0.00e+00	0	27	0	1153433600	73	4990
2026-01-05 09:26:26.41	337.28	22.86	-54.0	-56.6	13.6	0.00e+00	0	28	0	1155530752	73	5080
2026-01-05 09:26:27.40	337.25	22.72	-53.8	-56.4	13.7	0.00e+00	0	28	0	1157627904	73	4945
2026-01-05 09:26:28.39	337.21	22.58	-53.5	-56.0	13.9	0.00e+00	0	27	0	1159725056	73	4707
2026-01-05 09:26:29.39	337.18	22.44	-53.2	-55.4	14.2	0.00e+00	0	27	0	1161822208	73	4429
2026-01-05 09:26:30.39	337.15	22.29	-53.2	-55.4	14.1	0.00e+00	0	27	0	1162870784	72	4682
2026-01-05 09:26:31.38	337.12	22.15	-52.7	-54.8	14.3	0.00e+00	0	27	0	1164967936	72	4371
2026-01-05 09:26:32.38	337.09	22.01	-52.3	-54.3	14.5	0.00e+00	0	27	0	1167065088	71	4350
2026-01-05 09:26:33.38	337.06	21.87	-52.3	-54.3	14.5	0.00e+00	0	27	0	1169162240	71	4346
2026-01-05 09:26:34.37	337.03	21.74	-52.5	-54.5	14.4	0.00e+00	0	27	0	1170210816	71	4442
2026-01-05 09:26:35.37	337.00	21.60	-51.9	-53.8	14.6	0.00e+00	0	27	0	1172307968	70	4348
2026-01-05 09:26:36.36	336.97	21.46	-52.1	-54.0	14.5	0.00e+00	0	27	0	1174405120	70	4450
2026-01-05 09:26:37.35	336.94	21.33	-52.0	-53.9	14.4	0.00e+00	0	27	0	1176502272	69	4655
2026-01-05 09:26:38.35	336.91	21.19	-51.8	-53.7	14.5	0.00e+00	0	27	0	1178599424	69	4548
2026-01-05 09:26:39.35	336.88	21.05	-51.9	-53.8	14.4	0.00e+00	0	28	0	1179648000	69	4628
2026-01-05 09:26:40.35	336.85	20.92	-52.0	-53.9	14.4	0.00e+00	0	27	0	1181745152	69	4665
2026-01-05 09:26:41.34	336.82	20.79	-52.1	-54.0	14.4	0.00e+00	0	27	0	1183842304	69	4745
2026-01-05 09:26:42.34	336.79	20.65	-52.2	-54.2	14.2	0.00e+00	0	27	0	1185939456	69	4861
2026-01-05 09:26:43.33	336.77	20.52	-52.4	-54.4	14.2	0.00e+00	0	27	0	1186988032	69	4973
2026-01-05 09:26:44.32	336.74	20.39	-52.3	-54.3	14.2	0.00e+00	0	27	0	1189085184	69	4892
2026-01-05 09:26:45.31	336.71	20.26	-52.2	-54.2	14.3	0.00e+00	0	27	0	1191182336	69	4830
2026-01-05 09:26:46.30	336.69	20.13	-52.1	-54.2	14.3	0.00e+00	0	27	0	1193279488	69	4815
2026-01-05 09:26:47.29	336.66	20.00	-52.2	-54.3	14.2	0.00e+00	0	28	0	1195376640	69	4875
2026-01-05 09:26:48.29	336.63	19.87	-52.1	-54.0	14.3	0.00e+00	0	28	0	1196425216	69	4757
2026-01-05 09:26:49.28	336.61	19.75	-51.9	-53.9	14.4	0.00e+00	0	27	0	1198522368	69	4679
2026-01-05 09:26:50.27	336.58	19.62	-51.7	-53.6	14.5	0.00e+00	0	27	0	1200619520	69	4536
2026-01-05 09:26:51.26	336.56	19.49	-51.8	-53.7	14.5	0.00e+00	0	27	0	1202716672	69	4576
2026-01-05 09:26:52.25	336.53	19.37	-51.8	-53.7	14.5	0.00e+00	0	27	0	1203765248	69	4571
2026-01-05 09:26:53.25	336.51	19.24	-51.8	-53.7	14.5	0.00e+00	0	28	0	1205862400	69	4564
2026-01-05 09:26:54.24	336.48	19.12	-51.9	-53.8	14.4	0.00e+00	0	28	0	1207959552	69	4635
2026-01-05 09:26:55.24	336.46	18.99	-52.1	-54.1	14.3	0.00e+00	0	27	0	1210056704	69	4793
2026-01-05 09:26:56.23	336.43	18.87	-52.2	-54.2	14.3	0.00e+00	0	28	0	1212153856	69	4857
2026-01-05 09:26:57.22	336.41	18.75	-52.4	-54.6	14.2	0.00e+00	0	28	0	1213202432	70	4773
2026-01-05 09:26:58.21	336.38	18.63	-52.6	-54.8	14.1	0.00e+00	0	27	0	1215299584	70	4905
2026-01-05 09:26:59.20	336.36	18.50	-52.8	-55.1	14.0	0.00e+00	0	27	0	1217396736	70	5090
2026-01-05 09:27:00.19	336.34	18.38	-52.9	-55.2	13.9	0.00e+00	0	27	0	1219493888	70	5120
2026-01-05 09:27:01.18	336.31	18.26	-53.3	-55.8	13.8	0.00e+00	0	27	0	1220542464	71	5187
2026-01-05 09:27:02.17	336.29	18.14	-53.5	-56.2	13.7	0.00e+00	0	27	0	1222639616	72	5109
2026-01-05 09:27:03.17	336.27	18.02	-53.9	-56.7	13.4	0.00e+00	0	27	0	1224736768	72	5454
2026-01-05 09:27:04.16	336.24	17.91	-54.1	-57.0	13.4	0.00e+00	0	28	0	1226833920	73	5292
2026-01-05 09:27:05.15	336.22	17.79	-54.5	-57.6	13.0	0.00e+00	0	27	0	1228931072	74	5386
2026-01-05 09:27:06.14	336.20	17.67	-54.4	-57.5	13.1	0.00e+00	0	27	0	1229979648	74	5329
2026-01-05 09:27:07.13	336.18	17.55	-54.4	-57.5	13.1	0.00e+00	0	28	0	1232076800	74	5309
