passes_logs/2026/01/05/R3.2S_Murmansk/R3.2S_Murmansk__20260105_002906_NOAA_21_JPSS-2_rec.log

#Pass ID: 20260105_002906_NOAA 21 (JPSS-2)
#Satellite: NOAA 21 (JPSS-2)
#Configuration: NOAA-21
#almurnet v.1.7.20251203
#Start time: 2026-01-05 00:29:07

#Version: 2.2.20231116
#Station: R3.2S_Murmansk
#Location: 33.079688 lon 68.888172 lat
#TLE: 1 54234U 22150A   26004.43991293  .00000169  00000+0  10108-3 0  9998
#TLE: 2 54234  98.7489 305.4680 0001107 344.3033  15.8108 14.19531967163313

#Time	Az	El	Level	Level2	SNR	BER	BlckErr	Temp	State	Recorded	gain1	gain2
2026-01-05 00:29:07.34	23.76	2.04	-58.4	-72.2	3.8	1.49e+00	0	26	0	0	83	17195
2026-01-05 00:29:08.33	23.76	2.10	-58.4	-72.1	3.8	1.49e+00	0	26	104	0	81	19137
2026-01-05 00:29:09.33	23.77	2.17	-58.4	-72.1	3.8	1.49e+00	0	26	104	0	81	19146
2026-01-05 00:29:10.33	23.78	2.23	-58.4	-72.1	3.9	1.49e+00	0	26	104	0	81	19101
2026-01-05 00:29:11.33	23.79	2.30	-58.4	-72.1	3.8	1.49e+00	0	26	104	0	81	19103
2026-01-05 00:29:12.33	23.80	2.36	-58.4	-72.1	3.8	1.49e+00	0	26	104	0	81	19066
2026-01-05 00:29:13.33	23.81	2.43	-58.4	-72.1	3.8	1.49e+00	0	26	104	0	81	19159
2026-01-05 00:29:14.33	23.82	2.49	-58.4	-72.1	3.8	1.49e+00	0	26	104	0	81	19105
2026-01-05 00:29:15.32	23.83	2.55	-58.4	-72.1	3.8	1.49e+00	0	26	104	0	81	19164
2026-01-05 00:29:16.32	23.84	2.62	-58.4	-72.1	3.8	1.49e+00	0	26	104	0	81	19157
2026-01-05 00:29:17.32	23.85	2.68	-58.4	-72.1	3.8	1.49e+00	0	26	104	0	81	19092
2026-01-05 00:29:18.32	23.86	2.75	-58.4	-72.1	3.8	1.49e+00	0	26	104	0	81	19020
2026-01-05 00:29:19.32	23.86	2.82	-58.4	-72.0	3.8	1.49e+00	0	26	104	0	81	18861
2026-01-05 00:29:20.32	23.87	2.88	-58.4	-71.9	3.8	1.49e+00	0	26	104	0	81	18630
2026-01-05 00:29:21.31	23.88	2.95	-58.3	-71.7	3.9	1.49e+00	0	26	104	0	81	18174
2026-01-05 00:29:22.31	23.89	3.01	-58.3	-71.4	3.8	1.49e+00	0	26	104	0	81	17641
2026-01-05 00:29:23.31	23.90	3.08	-58.3	-71.1	3.8	1.49e+00	0	26	104	0	81	17067
2026-01-05 00:29:24.31	23.91	3.14	-58.3	-70.8	3.9	1.49e+00	0	26	104	0	81	16376
2026-01-05 00:29:25.31	23.92	3.21	-58.3	-70.5	3.9	1.49e+00	0	26	104	0	81	15902
2026-01-05 00:29:26.31	23.93	3.28	-58.3	-70.3	3.9	1.49e+00	0	26	104	0	81	15438
2026-01-05 00:29:27.31	23.94	3.34	-58.2	-70.1	3.9	1.48e+00	0	26	104	0	81	15127
2026-01-05 00:29:28.31	23.95	3.41	-58.2	-69.8	4.0	1.49e+00	0	26	104	0	81	14675
2026-01-05 00:29:29.30	23.96	3.48	-58.3	-70.4	3.8	1.48e+00	0	26	104	0	81	15750
2026-01-05 00:29:30.29	23.97	3.54	-58.3	-70.8	3.9	1.49e+00	0	26	104	0	81	16353
2026-01-05 00:29:31.29	23.98	3.61	-58.3	-71.1	3.8	1.49e+00	0	26	104	0	81	16976
2026-01-05 00:29:32.29	23.99	3.68	-58.3	-71.5	3.8	1.49e+00	0	26	104	0	81	17763
2026-01-05 00:29:33.30	24.00	3.75	-58.3	-71.7	3.8	1.49e+00	0	26	104	0	81	18250
2026-01-05 00:29:34.29	24.00	3.81	-58.4	-71.9	3.8	1.49e+00	0	26	104	0	81	18666
2026-01-05 00:29:35.29	24.01	3.88	-58.4	-72.0	3.8	1.49e+00	0	27	104	0	81	18842
2026-01-05 00:29:36.29	24.02	3.95	-58.4	-72.0	3.8	1.49e+00	0	27	104	0	81	18758
2026-01-05 00:29:37.29	24.03	4.02	-58.3	-71.7	3.8	1.49e+00	0	26	104	0	81	18190
2026-01-05 00:29:38.29	24.04	4.09	-58.3	-71.3	3.8	1.49e+00	0	27	104	0	81	17402
2026-01-05 00:29:39.29	24.05	4.16	-58.3	-70.8	3.8	1.49e+00	0	27	104	0	81	16337
2026-01-05 00:29:40.29	24.06	4.22	-58.2	-70.3	3.9	1.49e+00	0	27	104	0	81	15436
2026-01-05 00:29:41.29	24.07	4.29	-58.2	-69.4	3.9	1.47e+00	0	27	104	0	81	14034
2026-01-05 00:29:42.30	24.08	4.36	-58.1	-68.1	4.3	1.46e+00	0	27	104	0	81	11987
2026-01-05 00:29:43.30	24.09	4.43	-58.0	-68.0	4.0	1.26e+00	0	27	104	0	81	11918
2026-01-05 00:29:44.30	24.10	4.50	-57.9	-66.9	4.8	1.04e+00	0	27	104	0	81	10485
2026-01-05 00:29:45.31	24.11	4.57	-57.8	-66.3	5.1	6.55e-01	0	27	0	2097152	81	9799
2026-01-05 00:29:46.31	24.12	4.64	-57.8	-65.8	5.4	4.89e-01	0	27	0	5242880	81	9242
2026-01-05 00:29:47.30	24.13	4.71	-57.7	-65.5	5.6	4.05e-01	0	27	0	8388608	81	8904
2026-01-05 00:29:48.31	24.14	4.78	-57.6	-65.1	5.8	3.47e-01	0	27	0	11534336	81	8553
2026-01-05 00:29:49.31	24.15	4.85	-57.6	-64.7	6.1	2.89e-01	0	27	0	14680064	81	8125
2026-01-05 00:29:50.31	24.16	4.92	-57.5	-64.5	6.2	2.70e-01	0	27	0	17825792	81	7961
2026-01-05 00:29:51.30	24.17	4.99	-57.5	-64.4	6.2	2.23e-01	0	27	0	20971520	81	7878
2026-01-05 00:29:52.30	24.18	5.07	-57.4	-64.0	6.5	2.38e-01	0	27	0	24117248	81	7501
2026-01-05 00:29:53.30	24.19	5.14	-56.0	-59.8	10.0	4.75e-04	0	27	0	27262976	77	5855
2026-01-05 00:29:54.29	24.20	5.21	-57.8	-65.4	5.6	6.34e-01	0	27	0	30408704	81	8788
2026-01-05 00:29:55.29	24.21	5.28	-57.9	-66.8	4.7	1.48e+00	2	27	104	31457280	81	10339
2026-01-05 00:29:56.29	24.22	5.35	-56.6	-61.4	8.8	2.28e-03	0	27	0	33554432	78	6609
2026-01-05 00:29:57.30	24.23	5.42	-58.1	-67.3	4.6	1.47e+00	2	27	104	35651584	81	10970
2026-01-05 00:29:58.30	24.24	5.50	-55.9	-59.8	10.1	1.85e-03	0	27	0	37748736	78	5497
2026-01-05 00:29:59.30	24.25	5.57	-55.6	-59.2	10.5	7.22e-04	0	27	0	40894464	77	5421
2026-01-05 00:30:00.30	24.26	5.64	-55.3	-58.5	11.1	2.82e-04	0	27	0	44040192	77	5021
2026-01-05 00:30:01.30	24.27	5.71	-55.0	-58.1	11.3	6.10e-05	0	27	0	47185920	76	5063
2026-01-05 00:30:02.29	24.28	5.79	-54.7	-57.6	11.6	8.30e-06	0	27	0	50331648	75	5062
2026-01-05 00:30:03.29	24.29	5.86	-54.7	-57.6	11.6	1.14e-05	0	27	0	53477376	75	5085
2026-01-05 00:30:04.29	24.30	5.93	-54.7	-57.7	11.5	1.75e-05	0	27	0	56623104	75	5110
2026-01-05 00:30:05.28	24.31	6.00	-54.7	-57.5	11.7	1.67e-05	0	27	0	59768832	75	5028
2026-01-05 00:30:06.27	24.32	6.08	-54.3	-57.0	12.1	3.80e-06	0	27	0	62914560	75	4716
2026-01-05 00:30:07.27	24.33	6.15	-53.5	-55.7	12.8	0.00e+00	0	27	0	66060288	73	4587
2026-01-05 00:30:08.27	24.34	6.23	-53.3	-55.5	12.8	0.00e+00	0	27	0	69206016	72	4741
2026-01-05 00:30:09.27	24.35	6.30	-53.0	-55.0	13.1	0.00e+00	0	27	0	72351744	72	4485
2026-01-05 00:30:10.27	24.36	6.38	-52.5	-54.5	13.4	0.00e+00	0	27	0	75497472	71	4446
2026-01-05 00:30:11.27	24.37	6.45	-52.2	-54.0	13.7	0.00e+00	0	27	0	78643200	71	4218
2026-01-05 00:30:12.27	24.39	6.53	-52.0	-53.8	13.7	0.00e+00	0	27	0	81788928	70	4351
2026-01-05 00:30:13.27	24.40	6.60	-51.9	-53.6	13.8	0.00e+00	0	27	0	84934656	70	4266
2026-01-05 00:30:14.27	24.41	6.68	-51.7	-53.4	13.8	0.00e+00	0	27	0	88080384	69	4416
2026-01-05 00:30:15.26	24.42	6.75	-51.7	-53.4	13.8	0.00e+00	0	27	0	91226112	69	4438
2026-01-05 00:30:16.27	24.43	6.83	-51.7	-53.4	13.8	0.00e+00	0	27	0	94371840	69	4415
2026-01-05 00:30:17.27	24.44	6.90	-51.6	-53.3	13.9	0.00e+00	0	27	0	97517568	69	4345
2026-01-05 00:30:18.27	24.45	6.98	-51.7	-53.3	13.8	0.00e+00	0	27	0	100663296	69	4385
2026-01-05 00:30:19.27	24.46	7.06	-51.4	-53.0	14.0	0.00e+00	0	27	0	103809024	69	4232
2026-01-05 00:30:20.27	24.47	7.13	-51.6	-53.2	13.9	0.00e+00	0	27	0	106954752	69	4316
2026-01-05 00:30:21.26	24.48	7.21	-51.5	-53.1	14.0	0.00e+00	0	27	0	110100480	69	4260
2026-01-05 00:30:22.26	24.49	7.29	-51.5	-53.1	14.0	0.00e+00	0	27	0	113246208	69	4267
2026-01-05 00:30:23.25	24.50	7.36	-51.3	-52.9	14.0	0.00e+00	0	27	0	116391936	69	4179
2026-01-05 00:30:24.26	24.51	7.44	-51.4	-53.0	14.0	0.00e+00	0	27	0	118489088	69	4211
2026-01-05 00:30:25.25	24.53	7.52	-51.4	-53.1	14.0	0.00e+00	0	27	0	121634816	69	4247
2026-01-05 00:30:26.25	24.54	7.60	-51.5	-53.1	14.0	0.00e+00	0	27	0	124780544	69	4253
2026-01-05 00:30:27.26	24.55	7.68	-51.4	-53.0	14.0	0.00e+00	0	27	0	127926272	69	4202
2026-01-05 00:30:28.26	24.56	7.76	-51.5	-53.1	14.0	0.00e+00	0	27	0	131072000	69	4284
2026-01-05 00:30:29.25	24.57	7.84	-51.4	-53.0	14.0	0.00e+00	0	27	0	134217728	69	4241
2026-01-05 00:30:30.25	24.58	7.91	-51.3	-52.8	14.1	0.00e+00	0	27	0	137363456	69	4131
2026-01-05 00:30:31.25	24.59	7.99	-51.2	-52.8	14.2	0.00e+00	0	27	0	140509184	69	4099
2026-01-05 00:30:32.25	24.60	8.07	-51.1	-52.6	14.1	0.00e+00	0	27	0	143654912	68	4291
2026-01-05 00:30:33.25	24.61	8.15	-51.1	-52.7	14.1	0.00e+00	0	27	0	146800640	68	4306
2026-01-05 00:30:34.25	24.63	8.23	-51.2	-52.8	14.1	0.00e+00	0	27	0	149946368	68	4369
2026-01-05 00:30:35.25	24.64	8.31	-51.2	-52.7	14.1	0.00e+00	0	27	0	153092096	68	4333
2026-01-05 00:30:36.25	24.65	8.40	-51.3	-52.8	14.0	0.00e+00	0	27	0	156237824	68	4380
2026-01-05 00:30:37.26	24.66	8.48	-51.1	-52.6	14.2	0.00e+00	0	27	0	159383552	68	4265
2026-01-05 00:30:38.25	24.67	8.56	-51.1	-52.6	14.1	0.00e+00	0	27	0	162529280	68	4276
2026-01-05 00:30:39.25	24.68	8.64	-51.0	-52.5	14.2	0.00e+00	0	27	0	165675008	68	4238
2026-01-05 00:30:40.24	24.69	8.72	-51.1	-52.6	14.2	0.00e+00	0	28	0	168820736	68	4255
2026-01-05 00:30:41.24	24.71	8.80	-51.0	-52.5	14.2	0.00e+00	0	27	0	171966464	68	4225
2026-01-05 00:30:42.23	24.72	8.88	-51.0	-52.5	14.2	0.00e+00	0	28	0	175112192	68	4215
2026-01-05 00:30:43.23	24.73	8.97	-50.9	-52.4	14.3	0.00e+00	0	27	0	178257920	68	4165
2026-01-05 00:30:44.22	24.74	9.05	-50.9	-52.4	14.3	0.00e+00	0	27	0	181403648	68	4161
2026-01-05 00:30:45.23	24.75	9.13	-50.9	-52.4	14.3	0.00e+00	0	27	0	184549376	68	4170
2026-01-05 00:30:46.24	24.76	9.22	-51.0	-52.5	14.2	0.00e+00	0	27	0	187695104	68	4231
2026-01-05 00:30:47.24	24.78	9.30	-51.0	-52.4	14.2	0.00e+00	0	27	0	190840832	68	4187
2026-01-05 00:30:48.24	24.79	9.39	-51.0	-52.4	14.2	0.00e+00	0	27	0	193986560	68	4193
2026-01-05 00:30:49.25	24.80	9.47	-51.1	-52.6	14.2	0.00e+00	0	28	0	197132288	68	4255
2026-01-05 00:30:50.25	24.81	9.56	-51.0	-52.5	14.3	0.00e+00	0	27	0	200278016	68	4195
2026-01-05 00:30:51.25	24.82	9.64	-50.9	-52.4	14.3	0.00e+00	0	28	0	203423744	68	4163
2026-01-05 00:30:52.24	24.84	9.72	-50.9	-52.3	14.3	0.00e+00	0	27	0	206569472	68	4132
2026-01-05 00:30:53.23	24.85	9.81	-50.7	-52.2	14.4	0.00e+00	0	27	0	209715200	68	4054
2026-01-05 00:30:54.23	24.86	9.89	-50.8	-52.2	14.4	0.00e+00	0	28	0	212860928	68	4076
2026-01-05 00:30:55.23	24.87	9.98	-50.5	-51.9	14.3	0.00e+00	0	27	0	216006656	67	4187
2026-01-05 00:30:56.23	24.88	10.07	-50.3	-51.7	14.4	0.00e+00	0	27	0	219152384	67	4094
2026-01-05 00:30:57.23	24.90	10.15	-50.5	-51.9	14.4	0.00e+00	0	28	0	222298112	67	4164
2026-01-05 00:30:58.23	24.91	10.24	-50.5	-51.9	14.4	0.00e+00	0	27	0	225443840	67	4174
2026-01-05 00:30:59.23	24.92	10.33	-50.4	-51.8	14.4	0.00e+00	0	27	0	228589568	67	4109
2026-01-05 00:31:00.23	24.93	10.42	-50.3	-51.7	14.4	0.00e+00	0	28	0	231735296	67	4098
2026-01-05 00:31:01.22	24.95	10.50	-50.3	-51.7	14.5	0.00e+00	0	28	0	234881024	67	4075
2026-01-05 00:31:02.22	24.96	10.59	-50.3	-51.7	14.5	0.00e+00	0	28	0	238026752	67	4056
2026-01-05 00:31:03.22	24.97	10.68	-50.3	-51.7	14.5	0.00e+00	0	28	0	241172480	67	4053
2026-01-05 00:31:04.22	24.98	10.77	-50.2	-51.5	14.5	0.00e+00	0	28	0	244318208	67	4001
2026-01-05 00:31:05.22	25.00	10.86	-50.3	-51.6	14.5	0.00e+00	0	28	0	247463936	67	4049
2026-01-05 00:31:06.23	25.01	10.95	-50.2	-51.6	14.4	0.00e+00	0	28	0	250609664	66	4255
2026-01-05 00:31:07.23	25.02	11.04	-50.1	-51.5	14.5	0.00e+00	0	28	0	253755392	66	4195
2026-01-05 00:31:08.22	25.03	11.13	-50.1	-51.5	14.5	0.00e+00	0	27	0	255852544	66	4226
2026-01-05 00:31:09.22	25.05	11.22	-50.1	-51.5	14.5	0.00e+00	0	28	0	258998272	66	4203
2026-01-05 00:31:10.22	25.06	11.31	-50.0	-51.3	14.5	0.00e+00	0	28	0	262144000	66	4126
2026-01-05 00:31:11.22	25.07	11.40	-49.9	-51.3	14.5	0.00e+00	0	28	0	265289728	66	4100
2026-01-05 00:31:12.22	25.09	11.49	-49.9	-51.2	14.6	0.00e+00	0	27	0	268435456	66	4071
2026-01-05 00:31:13.22	25.10	11.58	-49.9	-51.2	14.5	0.00e+00	0	27	0	271581184	66	4097
2026-01-05 00:31:14.21	25.11	11.67	-49.9	-51.2	14.6	0.00e+00	0	28	0	274726912	66	4093
2026-01-05 00:31:15.21	25.13	11.77	-49.8	-51.1	14.6	0.00e+00	0	28	0	277872640	66	4032
2026-01-05 00:31:16.22	25.14	11.86	-49.8	-51.2	14.6	0.00e+00	0	28	0	281018368	66	4063
2026-01-05 00:31:17.21	25.15	11.95	-49.8	-51.1	14.6	0.00e+00	0	28	0	284164096	66	4050
2026-01-05 00:31:18.21	25.16	12.05	-49.8	-51.2	14.6	0.00e+00	0	28	0	287309824	66	4063
2026-01-05 00:31:19.20	25.18	12.14	-49.7	-51.0	14.6	0.00e+00	0	28	0	290455552	66	3999
2026-01-05 00:31:20.19	25.19	12.23	-49.8	-51.1	14.6	0.00e+00	0	28	0	293601280	66	4047
2026-01-05 00:31:21.19	25.20	12.33	-49.8	-51.1	14.6	0.00e+00	0	28	0	296747008	66	4017
2026-01-05 00:31:22.20	25.22	12.42	-49.7	-51.0	14.7	0.00e+00	0	28	0	299892736	66	3987
2026-01-05 00:31:23.19	25.23	12.52	-49.6	-50.9	14.6	0.00e+00	0	28	0	303038464	65	4166
2026-01-05 00:31:24.19	25.25	12.61	-49.6	-50.9	14.6	0.00e+00	0	28	0	306184192	65	4166
2026-01-05 00:31:25.18	25.26	12.71	-49.7	-51.0	14.6	0.00e+00	0	28	0	309329920	65	4199
2026-01-05 00:31:26.18	25.27	12.81	-49.5	-50.8	14.6	0.00e+00	0	28	0	312475648	65	4140
2026-01-05 00:31:27.18	25.29	12.90	-49.6	-50.9	14.6	0.00e+00	0	28	0	315621376	65	4148
2026-01-05 00:31:28.18	25.30	13.00	-49.5	-50.8	14.6	0.00e+00	0	28	0	318767104	65	4132
2026-01-05 00:31:29.18	25.32	13.10	-49.4	-50.7	14.7	0.00e+00	0	28	0	321912832	65	4067
2026-01-05 00:31:30.18	25.33	13.20	-49.4	-50.7	14.7	0.00e+00	0	28	0	325058560	65	4057
2026-01-05 00:31:31.18	25.34	13.29	-49.4	-50.7	14.7	0.00e+00	0	28	0	328204288	65	4062
2026-01-05 00:31:32.18	25.36	13.39	-49.4	-50.7	14.7	0.00e+00	0	28	0	331350016	65	4087
2026-01-05 00:31:33.18	25.37	13.49	-49.4	-50.7	14.7	0.00e+00	0	28	0	334495744	65	4088
2026-01-05 00:31:34.19	25.39	13.59	-49.4	-50.7	14.7	0.00e+00	0	28	0	337641472	65	4087
2026-01-05 00:31:35.18	25.40	13.69	-49.3	-50.6	14.7	0.00e+00	0	28	0	340787200	65	4025
2026-01-05 00:31:36.18	25.41	13.79	-49.3	-50.6	14.7	0.00e+00	0	28	0	343932928	65	4022
2026-01-05 00:31:37.18	25.43	13.89	-49.4	-50.6	14.7	0.00e+00	0	28	0	347078656	65	4047
2026-01-05 00:31:38.18	25.44	14.00	-49.3	-50.6	14.7	0.00e+00	0	28	0	350224384	65	4026
2026-01-05 00:31:39.18	25.46	14.10	-49.3	-50.5	14.8	0.00e+00	0	28	0	353370112	65	4002
2026-01-05 00:31:40.18	25.47	14.20	-49.3	-50.5	14.8	0.00e+00	0	28	0	356515840	65	3982
2026-01-05 00:31:41.17	25.49	14.30	-49.2	-50.5	14.7	0.00e+00	0	28	0	359661568	64	4201
2026-01-05 00:31:42.17	25.50	14.40	-49.2	-50.4	14.7	0.00e+00	0	28	0	362807296	64	4185
2026-01-05 00:31:43.17	25.52	14.51	-49.2	-50.4	14.7	0.00e+00	0	28	0	365953024	64	4166
2026-01-05 00:31:44.17	25.53	14.61	-49.2	-50.5	14.7	0.00e+00	0	28	0	369098752	64	4199
2026-01-05 00:31:45.17	25.55	14.72	-49.2	-50.5	14.7	0.00e+00	0	28	0	372244480	64	4217
2026-01-05 00:31:46.17	25.56	14.82	-49.1	-50.4	14.7	0.00e+00	0	28	0	375390208	64	4159
2026-01-05 00:31:47.17	25.58	14.93	-49.1	-50.3	14.7	0.00e+00	0	28	0	378535936	64	4128
2026-01-05 00:31:48.17	25.59	15.03	-49.2	-50.4	14.7	0.00e+00	0	28	0	381681664	64	4165
2026-01-05 00:31:49.18	25.61	15.14	-49.3	-50.5	14.7	0.00e+00	0	28	0	384827392	64	4233
2026-01-05 00:31:50.18	25.62	15.25	-49.1	-50.4	14.7	0.00e+00	0	28	0	387973120	64	4157
2026-01-05 00:31:51.18	25.64	15.35	-49.2	-50.4	14.7	0.00e+00	0	28	0	390070272	64	4172
2026-01-05 00:31:52.17	25.66	15.46	-49.1	-50.3	14.7	0.00e+00	0	28	0	393216000	64	4145
2026-01-05 00:31:53.18	25.67	15.57	-49.3	-50.6	14.7	0.00e+00	0	28	0	396361728	64	4247
2026-01-05 00:31:54.17	25.69	15.68	-49.4	-50.6	14.6	0.00e+00	0	28	0	399507456	64	4273
2026-01-05 00:31:55.17	25.70	15.79	-49.2	-50.5	14.7	0.00e+00	0	28	0	402653184	64	4212
2026-01-05 00:31:56.18	25.72	15.90	-49.3	-50.5	14.7	0.00e+00	0	28	0	405798912	64	4240
2026-01-05 00:31:57.18	25.74	16.01	-49.3	-50.6	14.6	0.00e+00	0	28	0	408944640	64	4265
2026-01-05 00:31:58.18	25.75	16.12	-49.4	-50.7	14.6	0.00e+00	0	28	0	412090368	64	4304
2026-01-05 00:31:59.18	25.77	16.23	-49.5	-50.7	14.6	0.00e+00	0	28	0	415236096	64	4323
2026-01-05 00:32:00.17	25.78	16.34	-49.4	-50.7	14.6	0.00e+00	0	28	0	418381824	64	4302
2026-01-05 00:32:01.17	25.80	16.45	-49.5	-50.7	14.6	0.00e+00	0	28	0	421527552	64	4323
2026-01-05 00:32:02.18	25.82	16.56	-49.5	-50.8	14.6	0.00e+00	0	28	0	424673280	64	4355
2026-01-05 00:32:03.17	25.83	16.68	-49.5	-50.8	14.6	0.00e+00	0	28	0	427819008	64	4376
2026-01-05 00:32:04.17	25.85	16.79	-49.7	-50.9	14.5	0.00e+00	0	28	0	430964736	64	4441
2026-01-05 00:32:05.17	25.87	16.90	-49.5	-50.8	14.6	0.00e+00	0	28	0	434110464	64	4366
2026-01-05 00:32:06.17	25.88	17.02	-49.5	-50.8	14.6	0.00e+00	0	28	0	437256192	64	4373
2026-01-05 00:32:07.16	25.90	17.13	-49.5	-50.8	14.6	0.00e+00	0	28	0	440401920	64	4356
2026-01-05 00:32:08.17	25.92	17.25	-49.5	-50.8	14.6	0.00e+00	0	28	0	443547648	64	4362
2026-01-05 00:32:09.17	25.94	17.37	-49.6	-50.9	14.6	0.00e+00	0	28	0	446693376	64	4406
2026-01-05 00:32:10.17	25.95	17.48	-49.6	-50.9	14.5	0.00e+00	0	28	0	449839104	64	4397
2026-01-05 00:32:11.17	25.97	17.60	-49.4	-50.6	14.6	0.00e+00	0	28	0	452984832	64	4288
2026-01-05 00:32:12.17	25.99	17.72	-49.4	-50.7	14.6	0.00e+00	0	28	0	456130560	64	4316
2026-01-05 00:32:13.17	26.01	17.84	-49.4	-50.7	14.6	0.00e+00	0	28	0	459276288	64	4304
2026-01-05 00:32:14.17	26.02	17.96	-49.5	-50.7	14.6	0.00e+00	0	28	0	462422016	64	4335
2026-01-05 00:32:15.17	26.04	18.08	-49.4	-50.6	14.6	0.00e+00	0	28	0	465567744	64	4285
2026-01-05 00:32:16.17	26.06	18.20	-49.4	-50.6	14.6	0.00e+00	0	28	0	468713472	64	4274
2026-01-05 00:32:17.17	26.08	18.32	-49.5	-50.8	14.6	0.00e+00	0	28	0	471859200	64	4345
2026-01-05 00:32:18.17	26.09	18.44	-49.4	-50.7	14.6	0.00e+00	0	28	0	475004928	64	4302
2026-01-05 00:32:19.17	26.11	18.56	-49.3	-50.6	14.7	0.00e+00	0	28	0	478150656	64	4243
2026-01-05 00:32:20.18	26.13	18.69	-49.4	-50.7	14.6	0.00e+00	0	28	0	481296384	64	4309
2026-01-05 00:32:21.18	26.15	18.81	-49.4	-50.6	14.6	0.00e+00	0	28	0	484442112	64	4286
2026-01-05 00:32:22.18	26.17	18.93	-49.4	-50.6	14.6	0.00e+00	0	28	0	487587840	64	4289
2026-01-05 00:32:23.18	26.19	19.06	-49.3	-50.6	14.7	0.00e+00	0	28	0	490733568	64	4258
2026-01-05 00:32:24.17	26.21	19.18	-49.3	-50.5	14.7	0.00e+00	0	28	0	493879296	64	4214
2026-01-05 00:32:25.17	26.22	19.31	-49.3	-50.5	14.7	0.00e+00	0	28	0	497025024	64	4238
2026-01-05 00:32:26.16	26.24	19.43	-49.2	-50.5	14.7	0.00e+00	0	28	0	500170752	64	4204
2026-01-05 00:32:27.16	26.26	19.56	-49.3	-50.5	14.7	0.00e+00	0	28	0	503316480	64	4234
2026-01-05 00:32:28.16	26.28	19.69	-49.2	-50.4	14.7	0.00e+00	0	28	0	506462208	64	4183
2026-01-05 00:32:29.15	26.30	19.81	-49.2	-50.4	14.7	0.00e+00	0	28	0	509607936	64	4167
2026-01-05 00:32:30.14	26.32	19.94	-49.1	-50.3	14.7	0.00e+00	0	28	0	512753664	64	4134
2026-01-05 00:32:31.14	26.34	20.07	-49.1	-50.3	14.7	0.00e+00	0	28	0	515899392	64	4135
2026-01-05 00:32:32.13	26.36	20.20	-49.1	-50.3	14.8	0.00e+00	0	28	0	519045120	64	4104
2026-01-05 00:32:33.13	26.38	20.33	-49.0	-50.2	14.8	0.00e+00	0	28	0	522190848	64	4065
2026-01-05 00:32:34.13	26.40	20.46	-49.0	-50.3	14.8	0.00e+00	0	28	0	524288000	64	4099
2026-01-05 00:32:35.12	26.42	20.60	-48.9	-50.1	14.8	0.00e+00	0	28	0	527433728	64	4044
2026-01-05 00:32:36.12	26.44	20.73	-48.9	-50.1	14.8	0.00e+00	0	28	0	530579456	64	4021
2026-01-05 00:32:37.11	26.46	20.86	-48.9	-50.1	14.8	0.00e+00	0	28	0	533725184	64	4031
2026-01-05 00:32:38.10	26.48	20.99	-48.9	-50.1	14.8	0.00e+00	0	28	0	536870912	64	4011
2026-01-05 00:32:39.10	26.50	21.13	-48.9	-50.1	14.9	0.00e+00	0	28	0	540016640	64	4008
2026-01-05 00:32:40.09	26.52	21.26	-48.8	-50.0	14.9	0.00e+00	0	28	0	543162368	64	3975
2026-01-05 00:32:41.09	26.54	21.40	-48.8	-50.0	14.9	0.00e+00	0	28	0	546308096	64	3971
2026-01-05 00:32:42.08	26.56	21.54	-48.7	-49.8	14.9	0.00e+00	0	28	0	549453824	64	3904
2026-01-05 00:32:43.08	26.59	21.68	-48.7	-49.9	14.8	0.00e+00	0	28	0	552599552	63	4149
2026-01-05 00:32:44.08	26.61	21.82	-48.6	-49.8	14.9	0.00e+00	0	28	0	555745280	63	4112
2026-01-05 00:32:45.07	26.63	21.95	-48.6	-49.8	14.8	0.00e+00	0	28	0	558891008	63	4114
2026-01-05 00:32:46.07	26.65	22.09	-48.6	-49.7	14.9	0.00e+00	0	28	0	562036736	63	4075
2026-01-05 00:32:47.07	26.67	22.24	-48.6	-49.8	14.8	0.00e+00	0	28	0	565182464	63	4104
2026-01-05 00:32:48.07	26.69	22.38	-48.4	-49.6	14.9	0.00e+00	0	28	0	568328192	63	4018
2026-01-05 00:32:49.08	26.72	22.52	-48.3	-49.5	14.9	0.00e+00	0	28	0	571473920	63	3980
2026-01-05 00:32:50.07	26.74	22.66	-48.3	-49.4	15.0	0.00e+00	0	28	0	574619648	63	3956
2026-01-05 00:32:51.06	26.76	22.81	-48.2	-49.3	15.0	0.00e+00	0	28	0	577765376	63	3910
2026-01-05 00:32:52.05	26.78	22.95	-48.3	-49.4	15.0	0.00e+00	0	28	0	580911104	63	3930
2026-01-05 00:32:53.06	26.81	23.10	-48.3	-49.4	15.0	0.00e+00	0	28	0	584056832	63	3950
2026-01-05 00:32:54.05	26.83	23.24	-48.3	-49.4	15.0	0.00e+00	0	28	0	587202560	63	3956
2026-01-05 00:32:55.06	26.85	23.39	-48.2	-49.4	15.0	0.00e+00	0	28	0	590348288	63	3930
2026-01-05 00:32:56.06	26.88	23.54	-48.3	-49.5	15.0	0.00e+00	0	28	0	593494016	63	3959
2026-01-05 00:32:57.06	26.90	23.69	-48.3	-49.5	15.0	0.00e+00	0	28	0	596639744	63	3962
2026-01-05 00:32:58.06	26.93	23.84	-48.4	-49.5	14.9	0.00e+00	0	28	0	599785472	63	3998
2026-01-05 00:32:59.06	26.95	23.99	-48.2	-49.3	15.0	0.00e+00	0	28	0	602931200	63	3899
2026-01-05 00:33:00.05	26.97	24.14	-48.2	-49.4	14.9	0.00e+00	0	28	0	606076928	62	4151
2026-01-05 00:33:01.05	27.00	24.30	-48.3	-49.5	14.8	0.00e+00	0	28	0	609222656	62	4201
2026-01-05 00:33:02.05	27.02	24.45	-48.4	-49.6	14.8	0.00e+00	0	28	0	612368384	62	4256
2026-01-05 00:33:03.05	27.05	24.61	-48.4	-49.5	14.8	0.00e+00	0	28	0	615514112	62	4228
2026-01-05 00:33:04.05	27.07	24.76	-48.4	-49.6	14.8	0.00e+00	0	28	0	618659840	62	4249
2026-01-05 00:33:05.05	27.10	24.92	-48.5	-49.7	14.8	0.00e+00	0	28	0	621805568	62	4298
2026-01-05 00:33:06.05	27.12	25.08	-48.5	-49.7	14.8	0.00e+00	0	28	0	624951296	62	4311
2026-01-05 00:33:07.05	27.15	25.24	-48.6	-49.8	14.8	0.00e+00	0	28	0	628097024	62	4358
2026-01-05 00:33:08.05	27.17	25.39	-48.7	-49.9	14.7	0.00e+00	0	28	0	631242752	62	4405
2026-01-05 00:33:09.05	27.20	25.56	-48.9	-50.1	14.7	0.00e+00	0	28	0	634388480	62	4502
2026-01-05 00:33:10.05	27.23	25.72	-48.9	-50.1	14.7	0.00e+00	0	28	0	637534208	62	4516
2026-01-05 00:33:11.05	27.25	25.88	-49.0	-50.2	14.7	0.00e+00	0	28	0	640679936	63	4323
2026-01-05 00:33:12.05	27.28	26.04	-49.0	-50.2	14.7	0.00e+00	0	28	0	643825664	63	4328
2026-01-05 00:33:13.05	27.31	26.21	-49.1	-50.4	14.7	0.00e+00	0	28	0	646971392	63	4399
2026-01-05 00:33:14.05	27.33	26.37	-49.2	-50.4	14.7	0.00e+00	0	28	0	650117120	63	4417
2026-01-05 00:33:15.06	27.36	26.54	-49.2	-50.5	14.7	0.00e+00	0	28	0	653262848	63	4442
2026-01-05 00:33:16.05	27.39	26.71	-49.2	-50.4	14.7	0.00e+00	0	28	0	656408576	63	4415
2026-01-05 00:33:17.05	27.42	26.87	-49.3	-50.5	14.6	0.00e+00	0	28	0	658505728	63	4486
2026-01-05 00:33:18.04	27.45	27.04	-49.4	-50.6	14.6	0.00e+00	0	28	0	661651456	63	4511
2026-01-05 00:33:19.03	27.47	27.21	-49.3	-50.6	14.6	0.00e+00	0	28	0	664797184	63	4495
2026-01-05 00:33:20.04	27.50	27.39	-49.3	-50.6	14.6	0.00e+00	0	28	0	667942912	63	4503
2026-01-05 00:33:21.04	27.53	27.56	-49.4	-50.6	14.6	0.00e+00	0	28	0	671088640	63	4514
2026-01-05 00:33:22.04	27.56	27.73	-49.4	-50.6	14.7	0.00e+00	0	28	0	674234368	64	4262
2026-01-05 00:33:23.05	27.59	27.91	-49.5	-50.7	14.6	0.00e+00	0	28	0	677380096	64	4311
2026-01-05 00:33:24.05	27.62	28.08	-49.4	-50.6	14.7	0.00e+00	0	28	0	680525824	64	4271
2026-01-05 00:33:25.05	27.65	28.26	-49.6	-50.8	14.6	0.00e+00	0	28	0	683671552	64	4364
2026-01-05 00:33:26.04	27.68	28.44	-49.7	-50.9	14.6	0.00e+00	0	28	0	686817280	64	4441
2026-01-05 00:33:27.04	27.71	28.62	-49.6	-50.9	14.6	0.00e+00	0	28	0	689963008	64	4415
2026-01-05 00:33:28.04	27.74	28.80	-49.6	-50.8	14.6	0.00e+00	0	28	0	693108736	64	4389
2026-01-05 00:33:29.02	27.77	28.98	-49.6	-50.8	14.6	0.00e+00	0	28	0	696254464	64	4391
2026-01-05 00:33:30.02	27.81	29.16	-49.6	-50.9	14.6	0.00e+00	0	28	0	699400192	64	4392
2026-01-05 00:33:31.02	27.84	29.34	-49.6	-50.8	14.6	0.00e+00	0	28	0	702545920	64	4370
2026-01-05 00:33:32.03	27.87	29.53	-49.5	-50.8	14.6	0.00e+00	0	28	0	705691648	64	4345
2026-01-05 00:33:33.03	27.90	29.72	-49.7	-50.9	14.6	0.00e+00	0	28	0	708837376	64	4425
2026-01-05 00:33:34.02	27.94	29.90	-49.6	-50.8	14.6	0.00e+00	0	28	0	711983104	64	4374
2026-01-05 00:33:35.01	27.97	30.09	-49.5	-50.7	14.7	0.00e+00	0	28	0	715128832	64	4329
2026-01-05 00:33:36.00	28.00	30.28	-49.5	-50.7	14.6	0.00e+00	0	28	0	718274560	64	4331
2026-01-05 00:33:36.99	28.04	30.47	-49.4	-50.6	14.7	0.00e+00	0	28	0	721420288	64	4270
2026-01-05 00:33:37.99	28.07	30.66	-49.2	-50.4	14.8	0.00e+00	0	28	0	724566016	64	4149
2026-01-05 00:33:38.98	28.10	30.85	-49.1	-50.3	14.8	0.00e+00	0	28	0	727711744	64	4133
2026-01-05 00:33:39.98	28.14	31.05	-49.0	-50.2	14.8	0.00e+00	0	28	0	730857472	64	4087
2026-01-05 00:33:40.98	28.18	31.25	-49.0	-50.1	14.8	0.00e+00	0	28	0	734003200	64	4050
2026-01-05 00:33:41.98	28.21	31.44	-48.9	-50.1	14.8	0.00e+00	0	28	0	737148928	64	4039
2026-01-05 00:33:42.98	28.25	31.64	-48.8	-50.0	14.9	0.00e+00	0	28	0	740294656	64	3980
2026-01-05 00:33:43.98	28.28	31.84	-48.8	-50.0	14.9	0.00e+00	0	28	0	743440384	64	3963
2026-01-05 00:33:44.98	28.32	32.05	-48.7	-49.9	14.8	0.00e+00	0	28	0	746586112	63	4151
2026-01-05 00:33:45.98	28.36	32.25	-48.8	-49.9	14.8	0.00e+00	0	28	0	749731840	63	4189
2026-01-05 00:33:46.97	28.40	32.45	-48.7	-49.9	14.8	0.00e+00	0	28	0	752877568	63	4148
2026-01-05 00:33:47.98	28.43	32.66	-48.7	-49.9	14.8	0.00e+00	0	28	0	756023296	63	4149
2026-01-05 00:33:48.97	28.47	32.87	-49.0	-50.1	14.8	0.00e+00	0	28	0	759169024	63	4282
2026-01-05 00:33:49.97	28.51	33.08	-49.0	-50.2	14.8	0.00e+00	0	28	0	762314752	63	4294
2026-01-05 00:33:50.97	28.55	33.29	-49.1	-50.3	14.7	0.00e+00	0	28	0	765460480	63	4367
2026-01-05 00:33:51.98	28.59	33.50	-49.3	-50.6	14.6	0.00e+00	0	28	0	767557632	63	4499
2026-01-05 00:33:52.98	28.63	33.71	-49.5	-50.7	14.7	0.00e+00	0	28	0	770703360	64	4306
2026-01-05 00:33:53.97	28.67	33.93	-49.5	-50.8	14.6	0.00e+00	0	28	0	773849088	64	4352
2026-01-05 00:33:54.97	28.71	34.14	-49.7	-51.0	14.6	0.00e+00	0	28	0	776994816	64	4451
2026-01-05 00:33:56.08	28.76	34.38	-50.0	-51.2	14.6	0.00e+00	0	28	0	780140544	65	4332
2026-01-05 00:33:56.93	28.80	34.57	-50.3	-51.6	14.5	0.00e+00	0	28	0	783286272	65	4501
2026-01-05 00:33:58.08	28.85	34.83	-50.4	-51.7	14.4	0.00e+00	0	28	0	786432000	65	4579
2026-01-05 00:33:58.93	28.88	35.01	-50.5	-51.8	14.4	0.00e+00	0	28	0	789577728	66	4390
2026-01-05 00:34:00.08	28.93	35.27	-50.7	-52.1	14.4	0.00e+00	0	28	0	792723456	66	4509
2026-01-05 00:34:00.93	28.97	35.46	-50.8	-52.2	14.3	0.00e+00	0	28	0	795869184	66	4570
2026-01-05 00:34:02.07	29.02	35.72	-50.9	-52.3	14.3	0.00e+00	0	28	0	799014912	66	4617
2026-01-05 00:34:02.92	29.06	35.92	-50.9	-52.2	14.4	0.00e+00	0	28	0	802160640	67	4326
2026-01-05 00:34:04.07	29.12	36.18	-50.8	-52.1	14.4	0.00e+00	0	28	0	805306368	67	4291
2026-01-05 00:34:04.92	29.16	36.38	-50.9	-52.2	14.4	0.00e+00	0	28	0	808452096	67	4333
2026-01-05 00:34:06.06	29.21	36.65	-50.9	-52.2	14.4	0.00e+00	0	28	0	811597824	67	4340
2026-01-05 00:34:06.91	29.25	36.85	-50.9	-52.3	14.4	0.00e+00	0	28	0	814743552	67	4364
2026-01-05 00:34:08.05	29.31	37.12	-50.9	-52.3	14.4	0.00e+00	0	28	0	817889280	67	4372
2026-01-05 00:34:08.91	29.35	37.32	-50.8	-52.2	14.4	0.00e+00	0	28	0	821035008	67	4331
2026-01-05 00:34:10.06	29.41	37.60	-50.8	-52.4	14.4	0.00e+00	0	28	0	824180736	67	4394
2026-01-05 00:34:10.92	29.45	37.81	-50.7	-52.4	14.4	0.00e+00	0	28	0	827326464	67	4424
2026-01-05 00:34:12.06	29.51	38.09	-50.5	-52.5	14.5	0.00e+00	0	28	0	830472192	67	4463
2026-01-05 00:34:12.92	29.56	38.30	-50.5	-52.6	14.5	0.00e+00	0	28	0	833617920	67	4537
2026-01-05 00:34:14.06	29.62	38.58	-50.6	-52.6	14.5	0.00e+00	0	28	0	836763648	67	4515
2026-01-05 00:34:14.91	29.66	38.79	-50.7	-52.4	14.4	0.00e+00	0	28	0	839909376	67	4426
2026-01-05 00:34:16.06	29.72	39.08	-50.8	-52.3	14.4	0.00e+00	0	28	0	843055104	67	4377
2026-01-05 00:34:16.92	29.77	39.30	-50.9	-52.3	14.4	0.00e+00	0	28	0	846200832	67	4352
2026-01-05 00:34:18.07	29.84	39.59	-50.9	-52.3	14.4	0.00e+00	0	28	0	849346560	67	4361
2026-01-05 00:34:18.92	29.88	39.81	-50.8	-52.2	14.4	0.00e+00	0	28	0	852492288	67	4311
2026-01-05 00:34:20.07	29.95	40.11	-51.0	-52.4	14.4	0.00e+00	0	28	0	855638016	67	4412
2026-01-05 00:34:20.92	30.00	40.33	-51.1	-52.5	14.3	0.00e+00	0	28	0	857735168	67	4455
2026-01-05 00:34:22.06	30.07	40.63	-51.3	-52.7	14.2	0.00e+00	0	28	0	861929472	67	4593
2026-01-05 00:34:22.92	30.12	40.86	-51.7	-53.1	14.2	0.00e+00	0	28	0	864026624	68	4542
2026-01-05 00:34:24.06	30.19	41.16	-51.9	-53.5	14.2	0.00e+00	0	28	0	868220928	69	4444
2026-01-05 00:34:24.91	30.24	41.39	-52.2	-53.8	14.0	0.00e+00	0	28	0	870318080	69	4634
2026-01-05 00:34:26.06	30.32	41.70	-52.6	-54.3	13.9	0.00e+00	0	28	0	874512384	70	4610
2026-01-05 00:34:26.91	30.37	41.93	-52.7	-54.4	13.8	0.00e+00	0	28	0	876609536	70	4691
2026-01-05 00:34:28.06	30.45	42.25	-52.8	-54.5	13.7	0.00e+00	0	28	0	880803840	70	4733
2026-01-05 00:34:28.91	30.50	42.48	-52.7	-54.3	13.8	0.00e+00	0	28	0	882900992	70	4626
2026-01-05 00:34:30.05	30.58	42.80	-52.7	-54.4	13.8	0.00e+00	0	28	0	887095296	70	4678
2026-01-05 00:34:30.90	30.64	43.04	-52.8	-54.4	13.8	0.00e+00	0	28	0	889192448	70	4694
2026-01-05 00:34:32.04	30.72	43.36	-52.8	-54.4	13.7	0.00e+00	0	28	0	893386752	70	4696
2026-01-05 00:34:32.89	30.78	43.60	-52.6	-54.3	13.8	0.00e+00	0	28	0	895483904	70	4614
2026-01-05 00:34:34.03	30.86	43.93	-52.7	-54.4	13.8	0.00e+00	0	28	0	899678208	70	4669
2026-01-05 00:34:34.89	30.92	44.18	-52.9	-54.6	13.7	0.00e+00	0	28	0	901775360	70	4777
2026-01-05 00:34:36.02	31.01	44.50	-52.9	-54.6	13.8	0.00e+00	0	28	0	904921088	71	4538
2026-01-05 00:34:36.88	31.07	44.76	-53.0	-54.8	13.7	0.00e+00	0	28	0	908066816	71	4624
2026-01-05 00:34:38.03	31.16	45.09	-52.9	-54.7	13.8	0.00e+00	0	28	0	911212544	71	4552
2026-01-05 00:34:38.88	31.23	45.35	-52.9	-54.7	13.8	0.00e+00	0	28	0	914358272	71	4546
2026-01-05 00:34:40.03	31.32	45.69	-52.8	-54.5	13.8	0.00e+00	0	28	0	917504000	71	4469
2026-01-05 00:34:40.88	31.39	45.95	-52.7	-54.3	13.9	0.00e+00	0	28	0	920649728	71	4374
2026-01-05 00:34:42.01	31.48	46.29	-52.7	-54.3	13.9	0.00e+00	0	28	0	923795456	71	4373
2026-01-05 00:34:42.87	31.56	46.55	-52.5	-54.2	14.0	0.00e+00	0	28	0	926941184	71	4303
2026-01-05 00:34:44.01	31.66	46.90	-52.5	-54.1	14.0	0.00e+00	0	28	0	930086912	71	4276
2026-01-05 00:34:44.87	31.73	47.17	-52.3	-53.9	14.1	0.00e+00	0	28	0	933232640	71	4180
2026-01-05 00:34:46.02	31.83	47.53	-52.0	-53.5	14.3	0.00e+00	0	28	0	936378368	70	4215
2026-01-05 00:34:46.88	31.91	47.80	-51.9	-53.4	14.3	0.00e+00	0	28	0	939524096	70	4169
2026-01-05 00:34:48.02	32.02	48.16	-51.6	-53.1	14.3	0.00e+00	0	28	0	942669824	69	4253
2026-01-05 00:34:48.88	32.10	48.44	-51.4	-52.8	14.4	0.00e+00	0	28	0	945815552	69	4145
2026-01-05 00:34:50.01	32.21	48.80	-51.5	-53.0	14.4	0.00e+00	0	28	0	948961280	69	4206
2026-01-05 00:34:50.86	32.29	49.08	-51.4	-52.9	14.4	0.00e+00	0	28	0	952107008	69	4155
2026-01-05 00:34:52.00	32.41	49.45	-51.5	-52.9	14.4	0.00e+00	0	28	0	955252736	69	4160
2026-01-05 00:34:52.86	32.50	49.73	-51.4	-52.8	14.4	0.00e+00	0	28	0	958398464	69	4135
2026-01-05 00:34:54.00	32.62	50.11	-51.0	-52.3	14.5	0.00e+00	0	28	0	961544192	68	4124
2026-01-05 00:34:54.86	32.71	50.39	-50.9	-52.2	14.6	0.00e+00	0	28	0	964689920	68	4065
2026-01-05 00:34:56.00	32.83	50.78	-50.7	-52.0	14.6	0.00e+00	0	28	0	967835648	68	3973
2026-01-05 00:34:56.85	32.93	51.06	-50.5	-51.8	14.6	0.00e+00	0	28	0	970981376	67	4126
2026-01-05 00:34:57.99	33.06	51.45	-50.7	-52.0	14.5	0.00e+00	0	28	0	974127104	67	4242
2026-01-05 00:34:58.85	33.16	51.75	-50.7	-52.0	14.5	0.00e+00	0	28	0	977272832	67	4228
2026-01-05 00:34:59.99	33.29	52.14	-51.1	-52.5	14.3	0.00e+00	0	28	0	980418560	67	4450
2026-01-05 00:35:00.84	33.40	52.43	-51.1	-52.5	14.3	0.00e+00	0	28	0	982515712	67	4466
2026-01-05 00:35:01.98	33.54	52.83	-50.9	-52.2	14.4	0.00e+00	0	28	0	986710016	67	4334
2026-01-05 00:35:02.84	33.65	53.13	-50.9	-52.3	14.4	0.00e+00	0	28	0	988807168	67	4342
2026-01-05 00:35:03.97	33.80	53.53	-50.6	-51.9	14.5	0.00e+00	0	28	0	993001472	67	4149
2026-01-05 00:35:04.82	33.91	53.84	-50.6	-51.9	14.6	0.00e+00	0	28	0	995098624	67	4182
2026-01-05 00:35:05.97	34.07	54.25	-50.4	-51.8	14.6	0.00e+00	0	28	0	999292928	67	4110
2026-01-05 00:35:06.82	34.19	54.56	-50.2	-51.5	14.6	0.00e+00	0	28	0	1001390080	66	4225
2026-01-05 00:35:07.96	34.35	54.97	-49.9	-51.1	14.7	0.00e+00	0	28	0	1005584384	66	4049
2026-01-05 00:35:08.82	34.48	55.29	-49.6	-50.8	14.8	0.00e+00	0	28	0	1007681536	65	4122
2026-01-05 00:35:09.95	34.65	55.70	-49.4	-50.5	14.8	0.00e+00	0	28	0	1011875840	65	4002
2026-01-05 00:35:10.81	34.79	56.02	-49.5	-50.7	14.8	0.00e+00	0	28	0	1013972992	65	4054
2026-01-05 00:35:11.95	34.97	56.45	-49.8	-51.1	14.7	0.00e+00	0	28	0	1018167296	65	4249
2026-01-05 00:35:12.81	35.11	56.77	-50.0	-51.3	14.6	0.00e+00	0	28	0	1020264448	65	4354
2026-01-05 00:35:13.95	35.30	57.20	-50.0	-51.3	14.6	0.00e+00	0	28	0	1024458752	65	4350
2026-01-05 00:35:14.81	35.45	57.52	-49.9	-51.1	14.6	0.00e+00	0	28	0	1026555904	65	4275
2026-01-05 00:35:15.95	35.65	57.96	-49.6	-50.8	14.8	0.00e+00	0	28	0	1030750208	65	4132
2026-01-05 00:35:16.81	35.81	58.29	-49.4	-50.6	14.8	0.00e+00	0	28	0	1032847360	65	4024
2026-01-05 00:35:17.95	36.02	58.73	-49.2	-50.3	14.9	0.00e+00	0	28	0	1037041664	65	3912
2026-01-05 00:35:18.80	36.19	59.06	-49.2	-50.4	14.9	0.00e+00	0	28	0	1039138816	65	3921
2026-01-05 00:35:19.93	36.41	59.50	-49.0	-50.1	14.9	0.00e+00	0	28	0	1042284544	64	4042
2026-01-05 00:35:20.79	36.59	59.84	-48.7	-49.8	14.9	0.00e+00	0	28	0	1045430272	63	4114
2026-01-05 00:35:21.94	36.83	60.30	-48.4	-49.5	15.0	0.00e+00	0	28	0	1048576000	63	3978
2026-01-05 00:35:22.79	37.02	60.63	-48.4	-49.5	15.0	0.00e+00	0	28	0	1051721728	63	3994
2026-01-05 00:35:23.93	37.27	61.09	-48.5	-49.6	15.0	0.00e+00	0	28	0	1054867456	63	4010
2026-01-05 00:35:24.79	37.47	61.44	-48.6	-49.7	14.9	0.00e+00	0	28	0	1058013184	63	4055
2026-01-05 00:35:25.93	37.74	61.90	-48.4	-49.5	15.0	0.00e+00	0	28	0	1061158912	63	3997
2026-01-05 00:35:26.79	37.96	62.24	-48.4	-49.5	15.0	0.00e+00	0	28	0	1064304640	63	4004
2026-01-05 00:35:27.94	38.25	62.71	-48.4	-49.5	15.0	0.00e+00	0	28	0	1067450368	63	3998
2026-01-05 00:35:28.80	38.48	63.07	-48.3	-49.4	15.0	0.00e+00	0	28	0	1070596096	63	3941
2026-01-05 00:35:29.94	38.79	63.53	-48.3	-49.3	15.0	0.00e+00	0	28	0	1073741824	63	3911
2026-01-05 00:35:30.79	39.03	63.89	-47.9	-49.0	15.0	0.00e+00	0	28	0	1076887552	62	3965
2026-01-05 00:35:31.93	39.36	64.36	-47.6	-48.7	15.0	0.00e+00	0	28	0	1080033280	61	4061
2026-01-05 00:35:32.79	39.62	64.72	-47.7	-48.7	15.0	0.00e+00	0	28	0	1083179008	61	4081
2026-01-05 00:35:33.93	39.98	65.19	-47.7	-48.8	15.0	0.00e+00	0	28	0	1086324736	61	4119
2026-01-05 00:35:34.79	40.26	65.56	-47.7	-48.8	15.0	0.00e+00	0	28	0	1089470464	61	4120
2026-01-05 00:35:35.92	40.65	66.03	-48.0	-49.1	14.9	0.00e+00	0	28	0	1092616192	61	4247
2026-01-05 00:35:36.78	40.95	66.40	-48.3	-49.4	14.8	0.00e+00	0	28	0	1095761920	61	4439
2026-01-05 00:35:37.92	41.37	66.88	-48.3	-49.5	14.8	0.00e+00	0	28	0	1098907648	61	4447
2026-01-05 00:35:38.78	41.70	67.25	-48.3	-49.4	14.8	0.00e+00	0	28	0	1101004800	61	4409
2026-01-05 00:35:39.92	42.15	67.73	-48.2	-49.3	14.8	0.00e+00	0	28	0	1105199104	61	4382
2026-01-05 00:35:40.78	42.50	68.10	-47.9	-49.0	14.8	0.00e+00	0	28	0	1107296256	61	4233
2026-01-05 00:35:41.92	43.00	68.59	-48.0	-49.1	14.9	0.00e+00	0	28	0	1111490560	61	4255
2026-01-05 00:35:42.78	43.38	68.96	-47.9	-49.0	14.9	0.00e+00	0	28	0	1113587712	61	4201
2026-01-05 00:35:43.92	43.92	69.45	-48.0	-49.1	14.9	0.00e+00	0	28	0	1117782016	61	4245
2026-01-05 00:35:44.78	44.34	69.82	-47.8	-48.9	14.9	0.00e+00	0	28	0	1119879168	61	4176
2026-01-05 00:35:45.92	44.93	70.32	-47.6	-48.7	15.0	0.00e+00	0	28	0	1124073472	61	4078
2026-01-05 00:35:46.77	45.39	70.68	-47.7	-48.8	15.0	0.00e+00	0	28	0	1126170624	61	4104
2026-01-05 00:35:47.92	46.04	71.18	-47.9	-49.0	14.9	0.00e+00	0	28	0	1130364928	61	4221
2026-01-05 00:35:48.77	46.55	71.55	-48.3	-49.4	14.8	0.00e+00	0	28	0	1132462080	61	4412
2026-01-05 00:35:49.92	47.26	72.05	-48.2	-49.3	14.8	0.00e+00	0	28	0	1136656384	61	4385
2026-01-05 00:35:50.77	47.82	72.41	-48.2	-49.3	14.9	0.00e+00	0	28	0	1138753536	61	4370
2026-01-05 00:35:51.91	48.61	72.91	-48.1	-49.2	14.9	0.00e+00	0	28	0	1142947840	61	4325
2026-01-05 00:35:52.77	49.24	73.28	-47.7	-48.8	15.0	0.00e+00	0	28	0	1145044992	61	4107
2026-01-05 00:35:53.91	50.11	73.77	-47.4	-48.4	15.1	0.00e+00	0	28	0	1149239296	61	3950
2026-01-05 00:35:54.77	50.81	74.14	-47.4	-48.4	15.1	0.00e+00	0	28	0	1151336448	61	3953
2026-01-05 00:35:55.90	51.78	74.62	-47.6	-48.7	15.0	0.00e+00	0	28	0	1155530752	61	4056
2026-01-05 00:35:56.75	52.55	74.98	-47.8	-48.8	14.9	0.00e+00	0	28	0	1157627904	61	4136
2026-01-05 00:35:57.89	53.65	75.46	-47.6	-48.7	14.9	0.00e+00	0	28	0	1160773632	61	4069
2026-01-05 00:35:58.74	54.52	75.82	-47.7	-48.7	14.9	0.00e+00	0	28	0	1163919360	61	4090
2026-01-05 00:35:59.88	55.76	76.29	-48.1	-49.2	14.9	0.00e+00	0	28	0	1167065088	61	4315
2026-01-05 00:36:00.74	56.75	76.65	-48.3	-49.4	14.8	0.00e+00	0	28	0	1170210816	61	4421
2026-01-05 00:36:01.88	58.15	77.11	-48.6	-49.7	14.8	0.00e+00	0	28	0	1173356544	62	4314
2026-01-05 00:36:02.73	59.27	77.45	-48.4	-49.6	14.9	0.00e+00	0	28	0	1176502272	62	4255
2026-01-05 00:36:03.87	60.87	77.91	-48.1	-49.2	14.9	0.00e+00	0	28	0	1179648000	62	4086
2026-01-05 00:36:04.72	62.14	78.24	-47.8	-48.9	15.0	0.00e+00	0	28	0	1182793728	62	3930
2026-01-05 00:36:05.86	63.96	78.68	-47.5	-48.5	15.0	0.00e+00	0	28	0	1185939456	61	3998
2026-01-05 00:36:06.72	65.43	79.00	-47.4	-48.4	15.1	0.00e+00	0	28	0	1189085184	61	3938
2026-01-05 00:36:07.86	67.53	79.41	-47.3	-48.3	15.1	0.00e+00	0	28	0	1192230912	61	3891
2026-01-05 00:36:08.72	69.22	79.72	-47.3	-48.4	15.1	0.00e+00	0	28	0	1195376640	61	3916
2026-01-05 00:36:09.86	71.62	80.11	-47.7	-48.8	15.0	0.00e+00	0	28	0	1198522368	61	4110
2026-01-05 00:36:10.72	73.56	80.39	-48.2	-49.3	14.9	0.00e+00	0	28	0	1201668096	61	4365
2026-01-05 00:36:11.86	76.31	80.75	-48.5	-49.6	14.9	0.00e+00	0	28	0	1204813824	62	4282
2026-01-05 00:36:12.73	78.56	81.01	-48.5	-49.7	14.9	0.00e+00	0	28	0	1207959552	62	4300
2026-01-05 00:36:13.87	81.70	81.33	-48.4	-49.6	14.8	0.00e+00	0	28	0	1211105280	62	4252
2026-01-05 00:36:14.73	84.23	81.55	-48.6	-49.7	14.8	0.00e+00	0	28	0	1214251008	62	4311
2026-01-05 00:36:15.87	87.78	81.82	-47.9	-48.9	15.0	0.00e+00	0	28	0	1217396736	62	3957
2026-01-05 00:36:16.72	90.57	81.99	-47.6	-48.6	15.0	0.00e+00	0	28	0	1220542464	61	4035
2026-01-05 00:36:17.86	94.51	82.20	-47.6	-48.7	15.0	0.00e+00	0	28	0	1223688192	61	4057
2026-01-05 00:36:18.73	97.65	82.34	-47.5	-48.5	15.1	0.00e+00	0	28	0	1226833920	61	3995
2026-01-05 00:36:19.87	101.92	82.48	-47.6	-48.7	15.0	0.00e+00	0	28	0	1229979648	61	4065
2026-01-05 00:36:20.73	105.23	82.55	-48.0	-49.1	14.9	0.00e+00	0	28	0	1233125376	61	4252
2026-01-05 00:36:21.87	109.70	82.62	-48.6	-49.8	14.8	0.00e+00	0	28	0	1236271104	62	4346
2026-01-05 00:36:22.73	113.11	82.63	-48.7	-49.8	14.8	0.00e+00	0	28	0	1238368256	62	4364
2026-01-05 00:36:23.87	117.64	82.62	-48.7	-49.8	14.8	0.00e+00	0	28	0	1242562560	62	4372
2026-01-05 00:36:24.73	121.03	82.57	-49.0	-50.2	14.8	0.00e+00	0	28	0	1244659712	63	4306
2026-01-05 00:36:25.88	125.47	82.48	-49.3	-50.5	14.7	0.00e+00	0	28	0	1248854016	63	4465
2026-01-05 00:36:26.74	128.71	82.38	-48.7	-49.8	14.9	0.00e+00	0	28	0	1250951168	63	4131
2026-01-05 00:36:27.88	132.85	82.21	-48.6	-49.7	14.9	0.00e+00	0	28	0	1255145472	63	4097
2026-01-05 00:36:28.74	135.85	82.06	-48.4	-49.5	15.0	0.00e+00	0	28	0	1257242624	63	3985
2026-01-05 00:36:29.87	139.60	81.83	-48.1	-49.1	15.0	0.00e+00	0	28	0	1261436928	62	4046
2026-01-05 00:36:30.72	142.28	81.63	-48.1	-49.2	15.0	0.00e+00	0	28	0	1263534080	62	4069
2026-01-05 00:36:31.85	145.64	81.34	-48.5	-49.7	14.9	0.00e+00	0	28	0	1267728384	62	4298
2026-01-05 00:36:32.70	148.01	81.11	-48.5	-49.7	14.9	0.00e+00	0	28	0	1269825536	62	4297
2026-01-05 00:36:33.83	150.98	80.78	-48.0	-49.1	15.0	0.00e+00	0	28	0	1274019840	62	4023
2026-01-05 00:36:34.69	153.09	80.51	-47.9	-48.9	15.1	0.00e+00	0	28	0	1276116992	62	3945
2026-01-05 00:36:35.83	155.70	80.14	-48.4	-49.5	14.9	0.00e+00	0	28	0	1280311296	62	4204
2026-01-05 00:36:36.69	157.55	79.85	-48.4	-49.5	14.9	0.00e+00	0	28	0	1282408448	62	4233
2026-01-05 00:36:37.83	159.83	79.45	-48.3	-49.3	14.9	0.00e+00	0	28	0	1285554176	62	4135
2026-01-05 00:36:38.68	161.41	79.14	-48.3	-49.4	14.9	0.00e+00	0	28	0	1288699904	62	4162
2026-01-05 00:36:39.82	163.40	78.71	-48.5	-49.6	14.8	0.00e+00	0	28	0	1291845632	62	4274
2026-01-05 00:36:40.67	164.78	78.39	-48.1	-49.2	15.0	0.00e+00	0	28	0	1294991360	62	4082
2026-01-05 00:36:41.82	166.53	77.94	-47.8	-48.8	15.1	0.00e+00	0	28	0	1298137088	62	3897
2026-01-05 00:36:42.66	167.73	77.61	-48.6	-49.7	14.8	0.00e+00	0	28	0	1301282816	62	4326
2026-01-05 00:36:43.81	169.26	77.15	-49.1	-50.3	14.8	0.00e+00	0	28	0	1304428544	63	4373
2026-01-05 00:36:44.67	170.34	76.80	-48.6	-49.7	14.9	0.00e+00	0	28	0	1307574272	63	4092
2026-01-05 00:36:45.81	171.67	76.33	-48.1	-49.2	14.9	0.00e+00	0	28	0	1310720000	62	4054
2026-01-05 00:36:46.66	172.61	75.97	-48.1	-49.2	15.0	0.00e+00	0	28	0	1313865728	62	4086
2026-01-05 00:36:47.79	173.78	75.50	-48.0	-49.1	15.0	0.00e+00	0	28	0	1317011456	62	4031
2026-01-05 00:36:48.65	174.62	75.14	-48.0	-49.0	15.0	0.00e+00	0	28	0	1320157184	62	3998
2026-01-05 00:36:49.79	175.67	74.65	-48.5	-49.6	14.9	0.00e+00	0	28	0	1323302912	62	4271
2026-01-05 00:36:50.64	176.41	74.29	-49.1	-50.2	14.8	0.00e+00	0	28	0	1326448640	63	4325
2026-01-05 00:36:51.77	177.34	73.81	-48.4	-49.5	15.0	0.00e+00	0	28	0	1329594368	63	4002
2026-01-05 00:36:52.62	178.01	73.44	-48.0	-49.1	15.0	0.00e+00	0	28	0	1332740096	62	4006
2026-01-05 00:36:53.76	178.85	72.95	-48.0	-49.1	15.0	0.00e+00	0	28	0	1335885824	62	4032
2026-01-05 00:36:54.62	179.45	72.58	-48.2	-49.3	15.0	0.00e+00	0	28	0	1339031552	62	4115
2026-01-05 00:36:55.76	180.21	72.08	-48.2	-49.3	14.9	0.00e+00	0	28	0	1342177280	62	4138
2026-01-05 00:36:56.62	180.75	71.71	-48.5	-49.6	14.9	0.00e+00	0	28	0	1345323008	62	4289
2026-01-05 00:36:57.77	181.44	71.21	-48.6	-49.7	14.8	0.00e+00	0	28	0	1348468736	62	4339
2026-01-05 00:36:58.63	181.94	70.84	-48.2	-49.3	14.9	0.00e+00	0	28	0	1350565888	62	4129
2026-01-05 00:36:59.78	182.56	70.34	-47.7	-48.8	15.1	0.00e+00	0	28	0	1354760192	62	3894
2026-01-05 00:37:00.63	183.01	69.97	-47.6	-48.6	15.0	0.00e+00	0	28	0	1356857344	61	4036
2026-01-05 00:37:01.77	183.57	69.48	-48.1	-49.1	14.9	0.00e+00	0	28	0	1361051648	61	4288
2026-01-05 00:37:02.62	183.98	69.11	-49.0	-50.2	14.8	0.00e+00	0	28	0	1363148800	63	4316
2026-01-05 00:37:03.76	184.50	68.62	-49.6	-50.9	14.7	0.00e+00	0	28	0	1367343104	64	4419
2026-01-05 00:37:04.62	184.87	68.25	-49.6	-50.8	14.7	0.00e+00	0	28	0	1369440256	64	4371
2026-01-05 00:37:05.76	185.35	67.76	-48.9	-50.0	14.9	0.00e+00	0	28	0	1373634560	64	3986
2026-01-05 00:37:06.62	185.69	67.39	-48.2	-49.3	15.1	0.00e+00	0	28	0	1375731712	63	3886
2026-01-05 00:37:07.76	186.13	66.91	-47.9	-49.0	15.1	0.00e+00	0	28	0	1379926016	62	3960
2026-01-05 00:37:08.63	186.46	66.54	-47.9	-48.9	15.0	0.00e+00	0	28	0	1382023168	62	3952
2026-01-05 00:37:09.77	186.86	66.05	-48.3	-49.4	14.7	0.00e+00	0	28	0	1386217472	62	4156
2026-01-05 00:37:10.63	187.15	65.69	-49.0	-50.1	14.7	0.00e+00	0	28	0	1388314624	63	4269
2026-01-05 00:37:11.77	187.53	65.21	-49.4	-50.6	14.7	0.00e+00	0	28	0	1392508928	64	4246
2026-01-05 00:37:12.63	187.80	64.85	-48.8	-50.0	14.9	0.00e+00	0	28	0	1394606080	64	3982
2026-01-05 00:37:13.77	188.15	64.37	-47.8	-48.9	15.1	0.00e+00	0	28	0	1398800384	62	3936
2026-01-05 00:37:14.63	188.41	64.01	-47.7	-48.7	15.0	0.00e+00	0	28	0	1400897536	61	4072
2026-01-05 00:37:15.77	188.73	63.54	-47.8	-48.8	15.0	0.00e+00	0	28	0	1405091840	61	4123
2026-01-05 00:37:16.62	188.96	63.19	-47.8	-48.9	15.0	0.00e+00	0	28	0	1407188992	61	4168
2026-01-05 00:37:17.77	189.27	62.72	-48.9	-50.0	14.7	0.00e+00	0	28	0	1411383296	62	4480
2026-01-05 00:37:18.62	189.49	62.37	-49.8	-51.1	14.4	0.00e+00	0	28	0	1413480448	64	4516
2026-01-05 00:37:19.76	189.77	61.91	-50.8	-52.2	14.3	0.00e+00	0	28	0	1416626176	66	4556
2026-01-05 00:37:20.62	189.98	61.56	-50.3	-51.7	14.5	0.00e+00	0	28	0	1419771904	66	4295
2026-01-05 00:37:21.76	190.25	61.10	-49.0	-50.2	14.7	0.00e+00	0	28	0	1422917632	64	4057
2026-01-05 00:37:22.62	190.44	60.75	-48.8	-49.9	14.8	0.00e+00	0	28	0	1426063360	64	3926
2026-01-05 00:37:23.76	190.69	60.30	-48.5	-49.6	14.9	0.00e+00	0	28	0	1429209088	63	4005
2026-01-05 00:37:24.62	190.87	59.96	-48.3	-49.4	15.0	0.00e+00	0	28	0	1432354816	63	3942
2026-01-05 00:37:25.77	191.11	59.51	-48.6	-49.7	14.9	0.00e+00	0	28	0	1435500544	63	4058
2026-01-05 00:37:26.62	191.28	59.17	-48.8	-49.9	14.9	0.00e+00	0	28	0	1438646272	63	4189
2026-01-05 00:37:27.76	191.50	58.73	-48.9	-50.1	14.8	0.00e+00	0	28	0	1441792000	63	4247
2026-01-05 00:37:28.62	191.67	58.39	-49.2	-50.4	14.7	0.00e+00	0	28	0	1444937728	63	4392
2026-01-05 00:37:29.76	191.87	57.95	-49.2	-50.4	14.6	0.00e+00	0	28	0	1448083456	63	4429
2026-01-05 00:37:30.62	192.03	57.62	-49.3	-50.5	14.5	0.00e+00	0	28	0	1451229184	63	4456
2026-01-05 00:37:31.76	192.23	57.19	-49.3	-50.4	14.6	0.00e+00	0	28	0	1454374912	63	4439
2026-01-05 00:37:32.61	192.37	56.87	-49.0	-50.1	14.8	0.00e+00	0	28	0	1457520640	63	4291
2026-01-05 00:37:33.75	192.56	56.44	-49.3	-50.4	14.7	0.00e+00	0	28	0	1460666368	63	4435
2026-01-05 00:37:34.61	192.70	56.12	-49.2	-50.3	14.6	0.00e+00	0	28	0	1463812096	63	4386
2026-01-05 00:37:35.75	192.87	55.69	-49.4	-50.6	14.7	0.00e+00	0	28	0	1466957824	64	4273
2026-01-05 00:37:36.60	193.00	55.38	-50.1	-51.3	14.6	0.00e+00	0	28	0	1470103552	65	4379
2026-01-05 00:37:37.74	193.17	54.96	-50.5	-51.8	14.5	0.00e+00	0	28	0	1473249280	66	4367
2026-01-05 00:37:38.59	193.30	54.65	-50.9	-52.2	14.4	0.00e+00	0	28	0	1476395008	66	4595
2026-01-05 00:37:39.73	193.46	54.24	-51.0	-52.4	14.4	0.00e+00	0	28	0	1479540736	67	4404
2026-01-05 00:37:40.57	193.57	53.93	-50.7	-52.1	14.5	0.00e+00	0	28	0	1481637888	67	4257
2026-01-05 00:37:41.71	193.73	53.53	-50.6	-52.0	14.6	0.00e+00	0	28	0	1485832192	67	4194
2026-01-05 00:37:42.57	193.84	53.22	-50.3	-51.6	14.7	0.00e+00	0	28	0	1487929344	67	4026
2026-01-05 00:37:43.70	193.98	52.82	-50.0	-51.2	14.7	0.00e+00	0	28	0	1492123648	66	4084
2026-01-05 00:37:44.55	194.09	52.52	-50.1	-51.3	14.7	0.00e+00	0	28	0	1494220800	66	4138
2026-01-05 00:37:45.70	194.23	52.12	-50.7	-52.0	14.4	0.00e+00	0	28	0	1498415104	66	4448
2026-01-05 00:37:46.56	194.34	51.83	-51.3	-52.7	14.3	0.00e+00	0	28	0	1500512256	67	4580
2026-01-05 00:37:47.69	194.47	51.44	-52.7	-54.4	13.8	0.00e+00	0	28	0	1504706560	70	4666
2026-01-05 00:37:48.55	194.57	51.14	-53.0	-54.8	13.8	0.00e+00	0	28	0	1506803712	71	4616
2026-01-05 00:37:49.68	194.69	50.76	-52.8	-54.4	13.9	0.00e+00	0	28	0	1510998016	71	4419
2026-01-05 00:37:50.54	194.79	50.47	-52.2	-53.7	14.2	0.00e+00	0	28	0	1513095168	71	4079
2026-01-05 00:37:51.68	194.91	50.09	-51.7	-53.1	14.4	0.00e+00	0	28	0	1517289472	70	4050
2026-01-05 00:37:52.53	195.00	49.81	-51.7	-53.1	14.3	0.00e+00	0	28	0	1519386624	69	4282
2026-01-05 00:37:53.67	195.12	49.43	-52.0	-53.5	14.1	0.00e+00	0	28	0	1523580928	69	4478
2026-01-05 00:37:54.53	195.20	49.15	-52.3	-53.9	13.9	0.00e+00	0	28	0	1525678080	69	4681
2026-01-05 00:37:55.66	195.32	48.78	-52.1	-53.6	14.1	0.00e+00	0	28	0	1528823808	69	4523
2026-01-05 00:37:56.52	195.40	48.50	-51.9	-53.3	14.2	0.00e+00	0	28	0	1531969536	69	4391
2026-01-05 00:37:57.67	195.51	48.14	-51.7	-53.2	14.3	0.00e+00	0	28	0	1535115264	69	4296
2026-01-05 00:37:58.52	195.59	47.86	-51.7	-53.1	14.2	0.00e+00	0	28	0	1538260992	69	4286
2026-01-05 00:37:59.66	195.69	47.50	-51.5	-52.8	14.4	0.00e+00	0	28	0	1541406720	69	4130
2026-01-05 00:38:00.53	195.77	47.23	-51.6	-53.0	14.3	0.00e+00	0	28	0	1544552448	69	4207
2026-01-05 00:38:01.67	195.87	46.88	-52.4	-54.0	14.0	0.00e+00	0	28	0	1547698176	70	4445
2026-01-05 00:38:02.53	195.95	46.61	-53.0	-54.7	13.8	0.00e+00	0	28	0	1550843904	71	4597
2026-01-05 00:38:03.66	196.04	46.26	-53.4	-55.2	13.6	0.00e+00	0	28	0	1553989632	72	4583
2026-01-05 00:38:04.52	196.11	46.00	-53.5	-55.3	13.6	0.00e+00	0	28	0	1557135360	72	4630
2026-01-05 00:38:05.67	196.21	45.65	-52.9	-54.6	13.9	0.00e+00	0	28	0	1560281088	72	4247
2026-01-05 00:38:06.53	196.28	45.39	-52.6	-54.1	14.0	0.00e+00	0	28	0	1563426816	71	4278
2026-01-05 00:38:07.67	196.37	45.05	-52.0	-53.4	14.2	0.00e+00	0	28	0	1566572544	70	4186
2026-01-05 00:38:08.52	196.43	44.80	-52.1	-53.6	14.1	0.00e+00	0	28	0	1569718272	70	4245
2026-01-05 00:38:09.66	196.52	44.47	-52.4	-54.0	14.0	0.00e+00	0	28	0	1572864000	70	4468
2026-01-05 00:38:10.51	196.58	44.22	-52.7	-54.3	13.8	0.00e+00	0	28	0	1576009728	70	4649
2026-01-05 00:38:11.66	196.67	43.89	-53.1	-54.8	13.6	0.00e+00	0	28	0	1579155456	71	4620
2026-01-05 00:38:12.52	196.73	43.64	-53.2	-55.0	13.4	0.00e+00	0	28	0	1582301184	71	4737
2026-01-05 00:38:13.65	196.81	43.32	-53.1	-54.9	13.5	0.00e+00	0	28	0	1585446912	71	4660
2026-01-05 00:38:14.51	196.87	43.07	-52.9	-54.7	13.7	0.00e+00	0	28	0	1588592640	71	4547
2026-01-05 00:38:15.65	196.95	42.75	-52.5	-54.2	13.9	0.00e+00	0	28	0	1591738368	71	4292
2026-01-05 00:38:16.51	197.00	42.51	-52.3	-53.8	14.1	0.00e+00	0	28	0	1594884096	71	4129
2026-01-05 00:38:17.65	197.08	42.19	-51.7	-53.1	14.3	0.00e+00	0	28	0	1598029824	70	4008
2026-01-05 00:38:18.51	197.14	41.96	-51.5	-52.9	14.3	0.00e+00	0	28	0	1601175552	69	4188
2026-01-05 00:38:19.65	197.21	41.65	-51.7	-53.1	14.2	0.00e+00	0	28	0	1604321280	69	4284
2026-01-05 00:38:20.51	197.26	41.41	-52.0	-53.5	14.1	0.00e+00	0	28	0	1607467008	69	4447
2026-01-05 00:38:21.65	197.34	41.11	-52.1	-53.7	13.9	0.00e+00	0	28	0	1610612736	69	4555
2026-01-05 00:38:22.50	197.39	40.88	-52.3	-53.8	13.9	0.00e+00	0	28	0	1613758464	69	4649
2026-01-05 00:38:23.65	197.46	40.57	-52.4	-53.9	13.9	0.00e+00	0	28	0	1616904192	69	4693
2026-01-05 00:38:24.51	197.51	40.35	-52.3	-53.8	14.1	0.00e+00	0	28	0	1619001344	70	4375
2026-01-05 00:38:25.64	197.58	40.05	-52.1	-53.5	14.2	0.00e+00	0	28	0	1623195648	70	4229
2026-01-05 00:38:26.50	197.62	39.83	-51.9	-53.4	14.3	0.00e+00	0	28	0	1625292800	70	4154
2026-01-05 00:38:27.64	197.69	39.53	-51.9	-53.3	14.3	0.00e+00	0	28	0	1629487104	70	4126
2026-01-05 00:38:28.50	197.74	39.31	-51.8	-53.3	14.3	0.00e+00	0	28	0	1631584256	70	4100
2026-01-05 00:38:29.64	197.80	39.02	-52.0	-53.5	14.2	0.00e+00	0	28	0	1635778560	70	4213
2026-01-05 00:38:30.49	197.85	38.81	-52.1	-53.6	14.2	0.00e+00	0	28	0	1637875712	70	4263
2026-01-05 00:38:31.63	197.91	38.52	-51.9	-53.4	14.3	0.00e+00	0	28	0	1642070016	70	4162
2026-01-05 00:38:32.49	197.95	38.31	-51.8	-53.3	14.3	0.00e+00	0	28	0	1644167168	70	4122
2026-01-05 00:38:33.63	198.01	38.03	-51.2	-52.5	14.5	0.00e+00	0	28	0	1648361472	69	4000
2026-01-05 00:38:34.48	198.06	37.82	-51.0	-52.4	14.5	0.00e+00	0	28	0	1650458624	68	4160
2026-01-05 00:38:35.63	198.12	37.54	-50.9	-52.2	14.5	0.00e+00	0	28	0	1654652928	68	4090
2026-01-05 00:38:36.47	198.16	37.34	-50.8	-52.1	14.6	0.00e+00	0	28	0	1656750080	68	4012
2026-01-05 00:38:37.61	198.21	37.06	-50.5	-51.7	14.6	0.00e+00	0	28	0	1659895808	67	4091
2026-01-05 00:38:38.46	198.26	36.86	-50.2	-51.5	14.7	0.00e+00	0	28	0	1663041536	67	3977
2026-01-05 00:38:39.60	198.31	36.59	-50.2	-51.4	14.6	0.00e+00	0	28	0	1666187264	66	4187
2026-01-05 00:38:40.45	198.35	36.39	-50.0	-51.3	14.7	0.00e+00	0	28	0	1669332992	66	4111
2026-01-05 00:38:41.59	198.40	36.12	-50.3	-51.5	14.6	0.00e+00	0	28	0	1672478720	66	4224
2026-01-05 00:38:42.45	198.44	35.93	-50.4	-51.7	14.5	0.00e+00	0	28	0	1675624448	66	4292
2026-01-05 00:38:43.59	198.50	35.66	-50.4	-51.7	14.5	0.00e+00	0	28	0	1678770176	66	4318
2026-01-05 00:38:44.44	198.54	35.47	-50.4	-51.7	14.5	0.00e+00	0	28	0	1681915904	66	4327
2026-01-05 00:38:45.58	198.59	35.21	-50.6	-51.9	14.4	0.00e+00	0	28	0	1685061632	66	4408
2026-01-05 00:38:46.44	198.62	35.02	-50.5	-51.8	14.5	0.00e+00	0	28	0	1688207360	66	4366
2026-01-05 00:38:47.59	198.67	34.76	-50.6	-52.0	14.4	0.00e+00	0	28	0	1691353088	66	4461
2026-01-05 00:38:48.45	198.71	34.57	-50.8	-52.1	14.4	0.00e+00	0	28	0	1694498816	66	4521
2026-01-05 00:38:49.59	198.76	34.32	-50.8	-52.1	14.4	0.00e+00	0	28	0	1697644544	66	4516
2026-01-05 00:38:50.45	198.79	34.13	-50.9	-52.2	14.4	0.00e+00	0	28	0	1700790272	66	4590
2026-01-05 00:38:51.58	198.84	33.88	-50.9	-52.2	14.3	0.00e+00	0	28	0	1703936000	66	4592
2026-01-05 00:38:52.43	198.88	33.70	-50.7	-52.1	14.4	0.00e+00	0	28	0	1707081728	66	4498
2026-01-05 00:38:53.57	198.92	33.46	-50.7	-52.0	14.4	0.00e+00	0	28	0	1710227456	66	4489
2026-01-05 00:38:54.42	198.96	33.27	-50.6	-51.9	14.4	0.00e+00	0	28	0	1713373184	66	4427
2026-01-05 00:38:55.56	199.00	33.03	-50.3	-51.6	14.5	0.00e+00	0	28	0	1716518912	66	4260
2026-01-05 00:38:56.42	199.03	32.85	-50.0	-51.3	14.7	0.00e+00	0	28	0	1719664640	66	4108
2026-01-05 00:38:57.57	199.08	32.61	-50.0	-51.2	14.7	0.00e+00	0	28	0	1722810368	66	4092
2026-01-05 00:38:58.43	199.11	32.44	-49.8	-51.1	14.7	0.00e+00	0	28	0	1724907520	66	4020
2026-01-05 00:38:59.57	199.15	32.20	-49.8	-51.1	14.7	0.00e+00	0	28	0	1729101824	66	4006
2026-01-05 00:39:00.43	199.19	32.02	-49.8	-51.0	14.8	0.00e+00	0	28	0	1731198976	66	3984
2026-01-05 00:39:01.57	199.23	31.79	-49.7	-51.0	14.8	0.00e+00	0	28	0	1735393280	66	3967
2026-01-05 00:39:02.42	199.26	31.62	-49.5	-50.7	14.8	0.00e+00	0	28	0	1737490432	65	4074
2026-01-05 00:39:03.56	199.30	31.39	-49.5	-50.7	14.8	0.00e+00	0	28	0	1741684736	65	4078
2026-01-05 00:39:04.41	199.33	31.22	-49.6	-50.8	14.7	0.00e+00	0	28	0	1743781888	65	4142
2026-01-05 00:39:05.56	199.37	31.00	-49.7	-51.0	14.6	0.00e+00	0	28	0	1747976192	65	4216
2026-01-05 00:39:06.42	199.40	30.83	-49.9	-51.2	14.6	0.00e+00	0	28	0	1750073344	65	4296
2026-01-05 00:39:07.57	199.44	30.60	-49.9	-51.2	14.6	0.00e+00	0	28	0	1754267648	65	4333
2026-01-05 00:39:08.43	199.47	30.44	-50.1	-51.4	14.5	0.00e+00	0	28	0	1756364800	65	4427
2026-01-05 00:39:09.56	199.51	30.22	-50.1	-51.4	14.5	0.00e+00	0	28	0	1760559104	65	4435
2026-01-05 00:39:10.42	199.54	30.06	-50.1	-51.5	14.5	0.00e+00	0	28	0	1762656256	65	4442
2026-01-05 00:39:11.57	199.58	29.84	-50.0	-51.3	14.6	0.00e+00	0	28	0	1766850560	65	4381
2026-01-05 00:39:12.42	199.60	29.68	-49.9	-51.2	14.6	0.00e+00	0	28	0	1768947712	65	4331
2026-01-05 00:39:13.56	199.64	29.46	-49.9	-51.2	14.6	0.00e+00	0	28	0	1773142016	65	4324
2026-01-05 00:39:14.41	199.67	29.31	-50.0	-51.3	14.6	0.00e+00	0	28	0	1775239168	65	4349
2026-01-05 00:39:15.56	199.70	29.09	-50.1	-51.4	14.5	0.00e+00	0	28	0	1779433472	65	4405
2026-01-05 00:39:16.41	199.73	28.94	-50.0	-51.3	14.6	0.00e+00	0	28	0	1781530624	65	4354
2026-01-05 00:39:17.55	199.77	28.73	-50.0	-51.3	14.5	0.00e+00	0	28	0	1785724928	65	4366
2026-01-05 00:39:18.41	199.79	28.57	-50.1	-51.4	14.5	0.00e+00	0	28	0	1787822080	65	4407
2026-01-05 00:39:19.55	199.83	28.37	-50.1	-51.4	14.5	0.00e+00	0	28	0	1792016384	65	4398
2026-01-05 00:39:20.42	199.85	28.21	-49.9	-51.2	14.6	0.00e+00	0	28	0	1794113536	65	4309
2026-01-05 00:39:21.56	199.89	28.01	-49.8	-51.1	14.6	0.00e+00	0	28	0	1797259264	65	4277
2026-01-05 00:39:22.42	199.91	27.86	-49.8	-51.1	14.6	0.00e+00	0	28	0	1800404992	65	4268
2026-01-05 00:39:23.56	199.95	27.66	-49.8	-51.0	14.6	0.00e+00	0	28	0	1803550720	65	4224
2026-01-05 00:39:24.42	199.97	27.51	-49.7	-51.0	14.7	0.00e+00	0	28	0	1806696448	65	4202
2026-01-05 00:39:25.56	200.00	27.31	-49.6	-50.9	14.7	0.00e+00	0	28	0	1809842176	65	4149
2026-01-05 00:39:26.41	200.03	27.16	-49.3	-50.5	14.9	0.00e+00	0	28	0	1812987904	65	3962
2026-01-05 00:39:27.55	200.06	26.97	-48.8	-50.0	14.9	0.00e+00	0	28	0	1816133632	64	3980
2026-01-05 00:39:28.41	200.09	26.82	-48.8	-50.0	14.9	0.00e+00	0	28	0	1819279360	64	3963
2026-01-05 00:39:29.55	200.12	26.63	-48.9	-50.1	14.9	0.00e+00	0	28	0	1822425088	64	4016
2026-01-05 00:39:30.41	200.14	26.48	-48.8	-50.0	14.9	0.00e+00	0	28	0	1825570816	64	3976
2026-01-05 00:39:31.55	200.17	26.29	-48.8	-50.0	14.9	0.00e+00	0	28	0	1828716544	64	3967
2026-01-05 00:39:32.40	200.19	26.15	-48.7	-49.8	15.0	0.00e+00	0	28	0	1831862272	64	3905
2026-01-05 00:39:33.53	200.22	25.97	-48.7	-49.8	14.8	0.00e+00	0	28	0	1835008000	63	4135
2026-01-05 00:39:34.39	200.25	25.82	-48.6	-49.7	14.9	0.00e+00	0	28	0	1838153728	63	4094
2026-01-05 00:39:35.52	200.28	25.64	-48.5	-49.7	14.9	0.00e+00	0	28	0	1841299456	63	4069
2026-01-05 00:39:36.38	200.30	25.50	-48.6	-49.8	14.9	0.00e+00	0	28	0	1844445184	63	4106
2026-01-05 00:39:37.52	200.33	25.32	-48.6	-49.8	14.9	0.00e+00	0	28	0	1847590912	63	4114
2026-01-05 00:39:38.38	200.35	25.18	-48.7	-49.9	14.8	0.00e+00	0	28	0	1850736640	63	4152
2026-01-05 00:39:39.51	200.38	25.00	-48.8	-50.0	14.8	0.00e+00	0	28	0	1853882368	63	4213
2026-01-05 00:39:40.37	200.40	24.86	-48.9	-50.1	14.8	0.00e+00	0	28	0	1857028096	63	4248
2026-01-05 00:39:41.51	200.43	24.68	-49.0	-50.2	14.7	0.00e+00	0	28	0	1860173824	63	4297
2026-01-05 00:39:42.37	200.45	24.55	-49.0	-50.2	14.7	0.00e+00	0	28	0	1862270976	63	4334
2026-01-05 00:39:43.51	200.48	24.37	-48.9	-50.1	14.7	0.00e+00	0	28	0	1866465280	63	4273
2026-01-05 00:39:44.36	200.50	24.24	-49.0	-50.2	14.7	0.00e+00	0	28	0	1868562432	63	4307
2026-01-05 00:39:45.50	200.53	24.07	-49.0	-50.2	14.7	0.00e+00	0	28	0	1872756736	63	4303
2026-01-05 00:39:46.36	200.55	23.93	-48.9	-50.1	14.8	0.00e+00	0	28	0	1874853888	63	4269
2026-01-05 00:39:47.50	200.57	23.76	-48.9	-50.1	14.8	0.00e+00	0	28	0	1879048192	63	4267
2026-01-05 00:39:48.35	200.59	23.63	-48.9	-50.1	14.7	0.00e+00	0	28	0	1881145344	63	4275
2026-01-05 00:39:49.48	200.62	23.46	-48.9	-50.1	14.7	0.00e+00	0	28	0	1885339648	63	4273
2026-01-05 00:39:50.34	200.64	23.33	-48.9	-50.1	14.8	0.00e+00	0	28	0	1887436800	63	4257
2026-01-05 00:39:51.48	200.67	23.17	-48.9	-50.0	14.8	0.00e+00	0	28	0	1891631104	63	4235
2026-01-05 00:39:52.33	200.69	23.04	-48.8	-50.0	14.8	0.00e+00	0	28	0	1893728256	63	4215
2026-01-05 00:39:53.47	200.71	22.87	-48.9	-50.0	14.8	0.00e+00	0	28	0	1897922560	63	4242
2026-01-05 00:39:54.33	200.73	22.75	-49.0	-50.2	14.7	0.00e+00	0	28	0	1900019712	63	4303
2026-01-05 00:39:55.47	200.76	22.58	-49.1	-50.3	14.7	0.00e+00	0	28	0	1904214016	63	4343
2026-01-05 00:39:56.33	200.78	22.46	-49.1	-50.3	14.7	0.00e+00	0	28	0	1906311168	63	4353
2026-01-05 00:39:57.48	200.80	22.29	-49.2	-50.4	14.7	0.00e+00	0	28	0	1909456896	63	4433
2026-01-05 00:39:58.34	200.82	22.17	-49.2	-50.4	14.6	0.00e+00	0	28	0	1912602624	63	4433
2026-01-05 00:39:59.48	200.85	22.01	-49.2	-50.4	14.6	0.00e+00	0	28	0	1915748352	63	4434
2026-01-05 00:40:00.33	200.86	21.89	-49.5	-50.7	14.8	0.00e+00	0	28	0	1918894080	65	4081
2026-01-05 00:40:01.48	200.89	21.73	-59.6	-70.8	3.9	1.47e+00	0	28	104	1919942656	84	13784
2026-01-05 00:40:02.33	200.91	21.61	-59.5	-70.8	3.9	1.47e+00	0	28	104	1919942656	84	13727
2026-01-05 00:40:03.48	200.93	21.45	-59.6	-71.1	3.9	1.47e+00	0	28	104	1919942656	84	14262
2026-01-05 00:40:04.34	200.95	21.33	-59.7	-72.8	3.8	1.49e+00	0	28	104	1919942656	84	17382
2026-01-05 00:40:05.49	200.97	21.17	-59.8	-73.4	3.8	1.49e+00	0	28	104	1919942656	84	18729
2026-01-05 00:40:06.35	200.99	21.05	-59.7	-73.3	3.8	1.49e+00	0	28	104	1919942656	84	18324
2026-01-05 00:40:07.48	201.01	20.90	-59.6	-71.7	3.8	1.49e+00	0	28	104	1919942656	84	15339
2026-01-05 00:40:08.34	201.03	20.79	-59.6	-71.6	3.9	1.49e+00	0	28	104	1919942656	84	15217
2026-01-05 00:40:09.48	201.05	20.63	-59.6	-71.5	3.9	1.48e+00	0	28	104	1919942656	84	15033
2026-01-05 00:40:10.34	201.07	20.52	-59.6	-71.4	3.8	1.48e+00	0	28	104	1919942656	84	14796
2026-01-05 00:40:11.49	201.09	20.36	-59.6	-71.8	3.9	1.48e+00	0	28	104	1919942656	84	15435
2026-01-05 00:40:12.34	201.11	20.25	-59.6	-72.3	3.8	1.49e+00	0	28	104	1919942656	84	16433
2026-01-05 00:40:13.48	201.13	20.10	-59.7	-73.5	3.8	1.49e+00	0	28	104	1919942656	84	18838
2026-01-05 00:40:14.34	201.15	19.99	-59.6	-71.8	3.8	1.49e+00	0	28	104	1919942656	84	15579
2026-01-05 00:40:15.48	201.17	19.84	-59.6	-72.4	3.8	1.49e+00	0	28	104	1919942656	84	16621
2026-01-05 00:40:16.33	201.19	19.73	-59.5	-71.5	3.9	1.48e+00	0	28	104	1919942656	84	15035
2026-01-05 00:40:17.48	201.21	19.58	-59.5	-71.6	3.9	1.49e+00	0	28	104	1919942656	84	15112
2026-01-05 00:40:18.34	201.22	19.47	-59.5	-71.7	3.9	1.49e+00	0	28	104	1919942656	84	15279
2026-01-05 00:40:19.47	201.25	19.33	-59.6	-72.9	3.8	1.49e+00	0	28	104	1919942656	84	17524
2026-01-05 00:40:20.33	201.26	19.22	-59.6	-72.6	3.8	1.49e+00	0	28	104	1919942656	84	16919
2026-01-05 00:40:21.48	201.28	19.07	-59.6	-73.4	3.8	1.49e+00	0	28	104	1919942656	84	18528
2026-01-05 00:40:22.33	201.30	18.97	-59.6	-73.2	3.8	1.49e+00	0	28	104	1919942656	84	18183
2026-01-05 00:40:23.47	201.32	18.82	-59.5	-71.5	3.9	1.49e+00	0	28	104	1919942656	84	14978
2026-01-05 00:40:24.32	201.33	18.72	-59.5	-71.4	3.9	1.48e+00	0	28	104	1919942656	84	14837
2026-01-05 00:40:25.47	201.36	18.58	-59.4	-71.3	3.9	1.49e+00	0	28	104	1919942656	84	14594
2026-01-05 00:40:26.33	201.37	18.47	-59.4	-71.3	3.9	1.48e+00	0	28	104	1919942656	84	14685
2026-01-05 00:40:27.48	201.39	18.33	-59.5	-72.1	3.8	1.49e+00	0	28	104	1919942656	84	15981
2026-01-05 00:40:28.34	201.41	18.22	-59.5	-72.6	3.8	1.49e+00	0	28	104	1919942656	84	17000
2026-01-05 00:40:29.47	201.43	18.09	-59.6	-73.3	3.8	1.49e+00	0	28	104	1919942656	84	18408
2026-01-05 00:40:30.33	201.44	17.98	-59.6	-73.3	3.8	1.49e+00	0	28	104	1919942656	84	18332
2026-01-05 00:40:31.48	201.46	17.85	-59.5	-71.9	3.9	1.49e+00	0	28	104	1919942656	84	15620
2026-01-05 00:40:32.33	201.48	17.74	-59.5	-71.7	3.8	1.49e+00	0	28	104	1919942656	84	15305
2026-01-05 00:40:33.48	201.50	17.61	-59.4	-71.7	3.8	1.49e+00	0	28	104	1919942656	84	15349
2026-01-05 00:40:34.34	201.51	17.51	-59.4	-71.5	3.9	1.49e+00	0	28	104	1919942656	84	14971
