passes_logs/2026/01/05/R3.2S_Murmansk/R3.2S_Murmansk__20260105_075649_NOAA_20_JPSS-1_rec.log

#Pass ID: 20260105_075649_NOAA 20 (JPSS-1)
#Satellite: NOAA 20 (JPSS-1)
#Configuration: NOAA 20
#almurnet v.1.7.20251203
#Start time: 2026-01-05 07:56:48

#Version: 2.2.20231116
#Station: R3.2S_Murmansk
#Location: 33.079688 lon 68.888172 lat
#TLE: 1 43013U 17073A   26004.47528369  .00000132  00000+0  83671-4 0  9999
#TLE: 2 43013  98.7626 305.5264 0001854  54.5883 305.5466 14.19533142421242

#Time	Az	El	Level	Level2	SNR	BER	BlckErr	Temp	State	Recorded	gain1	gain2
2026-01-05 07:56:48.45	115.23	1.96	-58.2	-74.2	3.8	1.49e+00	0	25	0	0	83	21682
2026-01-05 07:56:49.43	115.19	2.02	-58.2	-74.2	3.8	1.49e+00	0	25	104	0	81	24160
2026-01-05 07:56:50.43	115.16	2.08	-58.2	-74.2	3.8	1.49e+00	0	25	104	0	81	24165
2026-01-05 07:56:51.42	115.12	2.15	-58.2	-74.2	3.8	1.49e+00	0	25	104	0	81	24143
2026-01-05 07:56:52.40	115.09	2.21	-58.2	-74.2	3.8	1.49e+00	0	25	104	0	81	24157
2026-01-05 07:56:53.40	115.05	2.27	-58.2	-74.1	3.8	1.49e+00	0	25	104	0	81	24125
2026-01-05 07:56:54.40	115.02	2.33	-58.2	-74.2	3.8	1.49e+00	0	25	104	0	81	24168
2026-01-05 07:56:55.39	114.98	2.39	-58.2	-74.1	3.8	1.49e+00	0	25	104	0	81	24073
2026-01-05 07:56:56.39	114.95	2.46	-58.2	-74.2	3.8	1.49e+00	0	25	104	0	81	24143
2026-01-05 07:56:57.38	114.91	2.52	-58.2	-74.1	3.8	1.49e+00	0	25	104	0	81	24107
2026-01-05 07:56:58.38	114.88	2.58	-58.2	-74.1	3.8	1.49e+00	0	26	104	0	81	24115
2026-01-05 07:56:59.38	114.84	2.65	-58.2	-74.1	3.8	1.49e+00	0	25	104	0	81	23994
2026-01-05 07:57:00.37	114.81	2.71	-58.2	-74.0	3.8	1.49e+00	0	26	104	0	81	23849
2026-01-05 07:57:01.38	114.77	2.77	-58.2	-74.0	3.8	1.49e+00	0	25	104	0	81	23588
2026-01-05 07:57:02.37	114.73	2.84	-58.2	-73.9	3.8	1.49e+00	0	25	104	0	81	23327
2026-01-05 07:57:03.37	114.70	2.90	-58.2	-73.8	3.8	1.49e+00	0	26	104	0	81	23199
2026-01-05 07:57:04.36	114.66	2.96	-58.2	-73.9	3.8	1.49e+00	0	26	104	0	81	23369
2026-01-05 07:57:05.36	114.62	3.03	-58.2	-73.9	3.8	1.49e+00	0	26	104	0	81	23409
2026-01-05 07:57:06.36	114.59	3.09	-58.2	-73.9	3.8	1.49e+00	0	26	104	0	81	23571
2026-01-05 07:57:07.35	114.55	3.16	-58.2	-73.9	3.8	1.49e+00	0	26	104	0	81	23542
2026-01-05 07:57:08.35	114.51	3.22	-58.2	-74.0	3.8	1.49e+00	0	26	104	0	81	23596
2026-01-05 07:57:09.34	114.47	3.28	-58.2	-73.9	3.8	1.49e+00	0	26	104	0	81	23569
2026-01-05 07:57:10.34	114.43	3.35	-58.2	-74.0	3.8	1.49e+00	0	26	104	0	81	23643
2026-01-05 07:57:11.33	114.40	3.41	-58.2	-74.0	3.8	1.49e+00	0	26	104	0	81	23604
2026-01-05 07:57:12.33	114.36	3.48	-58.2	-73.9	3.8	1.49e+00	0	26	104	0	81	23551
2026-01-05 07:57:13.34	114.32	3.55	-58.2	-74.0	3.8	1.49e+00	0	26	104	0	81	23598
2026-01-05 07:57:14.33	114.28	3.61	-58.2	-73.9	3.8	1.49e+00	0	26	104	0	81	23551
2026-01-05 07:57:15.33	114.24	3.68	-58.2	-74.0	3.8	1.49e+00	0	26	104	0	81	23729
2026-01-05 07:57:16.33	114.20	3.74	-58.2	-74.1	3.8	1.49e+00	0	26	104	0	81	24070
2026-01-05 07:57:17.32	114.16	3.81	-58.2	-74.0	3.8	1.49e+00	0	26	104	0	81	23629
2026-01-05 07:57:18.31	114.13	3.87	-58.2	-73.5	3.8	1.49e+00	0	26	104	0	81	22476
2026-01-05 07:57:19.30	114.09	3.94	-58.1	-72.8	3.8	1.49e+00	0	26	104	0	81	20682
2026-01-05 07:57:20.30	114.05	4.00	-58.1	-71.9	3.8	1.49e+00	0	26	104	0	81	18594
2026-01-05 07:57:21.30	114.01	4.07	-58.0	-70.7	4.2	1.48e+00	0	26	0	0	81	16263
2026-01-05 07:57:22.30	113.97	4.14	-58.0	-69.7	4.5	1.26e+00	30	26	0	0	81	14530
2026-01-05 07:57:23.29	113.93	4.20	-57.9	-69.0	4.8	8.72e-01	0	26	0	2097152	81	13290
2026-01-05 07:57:24.29	113.89	4.27	-57.8	-67.8	5.3	6.33e-01	0	26	0	3145728	81	11581
2026-01-05 07:57:25.28	113.84	4.34	-57.7	-67.1	5.8	4.44e-01	0	26	0	5242880	81	10727
2026-01-05 07:57:26.28	113.80	4.40	-57.6	-66.4	6.2	2.33e-01	0	26	0	7340032	81	9895
2026-01-05 07:57:27.27	113.76	4.47	-57.5	-65.7	6.7	1.96e-01	0	26	0	9437184	81	9160
2026-01-05 07:57:28.27	113.72	4.54	-57.2	-64.4	7.8	9.15e-02	0	26	0	11534336	81	7896
2026-01-05 07:57:29.26	113.68	4.60	-57.0	-63.3	8.8	2.19e-02	0	26	0	12582912	80	7336
2026-01-05 07:57:30.24	113.64	4.67	-56.6	-62.2	9.7	5.88e-03	0	26	0	14680064	79	6814
2026-01-05 07:57:31.23	113.60	4.74	-56.3	-61.4	10.4	9.62e-04	0	26	0	16777216	79	6213
2026-01-05 07:57:32.23	113.56	4.81	-55.9	-60.3	11.2	3.56e-04	0	26	0	18874368	78	5838
2026-01-05 07:57:33.22	113.51	4.87	-55.6	-59.6	11.6	2.67e-05	0	26	0	19922944	77	5700
2026-01-05 07:57:34.21	113.47	4.94	-55.2	-58.8	12.2	3.00e-06	0	26	0	22020096	77	5186
2026-01-05 07:57:35.20	113.43	5.01	-55.0	-58.4	12.4	0.00e+00	0	26	0	24117248	76	5223
2026-01-05 07:57:36.20	113.38	5.08	-54.7	-57.9	12.7	0.00e+00	0	26	0	26214400	76	4967
2026-01-05 07:57:37.19	113.34	5.15	-54.6	-57.7	12.8	0.00e+00	0	26	0	27262976	75	5152
2026-01-05 07:57:38.18	113.30	5.21	-55.9	-60.2	11.2	1.11e-04	0	26	0	29360128	77	6064
2026-01-05 07:57:39.18	113.26	5.28	-56.9	-63.0	9.0	3.49e-04	0	26	0	31457280	79	7468
2026-01-05 07:57:40.17	113.21	5.35	-56.9	-62.2	9.9	8.23e-03	0	26	0	33554432	79	6844
2026-01-05 07:57:41.17	113.17	5.42	-56.6	-61.7	10.2	2.08e-04	0	26	0	35651584	78	6843
2026-01-05 07:57:42.17	113.12	5.49	-58.2	-68.4	5.2	3.22e-01	0	26	0	36700160	81	12507
2026-01-05 07:57:43.16	113.08	5.56	-58.2	-68.7	5.1	6.03e-01	0	26	0	38797312	81	12858
2026-01-05 07:57:44.15	113.03	5.63	-58.1	-68.2	5.3	5.51e-01	0	26	0	40894464	81	12207
2026-01-05 07:57:45.15	112.99	5.70	-58.1	-68.1	5.3	5.32e-01	0	27	0	42991616	81	12000
2026-01-05 07:57:46.14	112.94	5.77	-58.1	-67.7	5.6	4.58e-01	0	26	0	44040192	81	11502
2026-01-05 07:57:47.13	112.90	5.84	-58.0	-67.3	5.9	3.57e-01	0	27	0	46137344	81	10909
2026-01-05 07:57:48.12	112.85	5.91	-56.3	-60.7	11.2	3.84e-04	0	26	0	48234496	79	5754
2026-01-05 07:57:49.11	112.81	5.98	-57.1	-62.8	9.7	1.59e-03	0	26	0	50331648	79	7290
2026-01-05 07:57:50.11	112.76	6.05	-58.7	-72.5	3.8	5.06e-01	0	27	104	51380224	82	18884
2026-01-05 07:57:51.11	112.71	6.12	-56.0	-59.9	11.8	1.12e-03	0	27	0	52428800	78	5551
2026-01-05 07:57:52.11	112.67	6.19	-58.5	-73.3	3.8	9.87e-01	0	27	104	53477376	82	20544
2026-01-05 07:57:53.10	112.62	6.26	-56.0	-60.1	11.5	5.18e-01	0	26	0	53477376	78	5689
2026-01-05 07:57:54.09	112.57	6.34	-56.0	-60.0	11.7	1.67e-05	0	27	0	55574528	78	5652
2026-01-05 07:57:55.08	112.53	6.41	-56.2	-60.4	11.3	4.04e-05	0	27	0	57671680	78	5885
2026-01-05 07:57:56.07	112.48	6.48	-56.2	-60.4	11.3	3.58e-05	0	26	0	58720256	78	5887
2026-01-05 07:57:57.07	112.43	6.55	-56.2	-60.5	11.5	5.72e-05	0	26	0	60817408	78	5961
2026-01-05 07:57:58.05	112.38	6.62	-56.2	-60.5	11.2	4.57e-05	0	27	0	62914560	78	5965
2026-01-05 07:57:59.05	112.34	6.69	-56.2	-60.5	11.3	4.04e-05	0	27	0	65011712	78	5942
2026-01-05 07:58:00.04	112.29	6.77	-56.1	-60.3	11.5	4.80e-05	0	26	0	66060288	78	5808
2026-01-05 07:58:01.03	112.24	6.84	-56.0	-60.0	11.7	2.74e-05	0	27	0	68157440	78	5605
2026-01-05 07:58:02.03	112.19	6.91	-56.2	-60.4	11.6	2.44e-05	0	27	0	70254592	78	5876
2026-01-05 07:58:03.01	112.14	6.98	-56.0	-60.0	11.7	2.13e-05	0	27	0	72351744	78	5616
2026-01-05 07:58:04.01	112.09	7.06	-55.9	-59.8	11.8	1.37e-05	0	27	0	74448896	78	5481
2026-01-05 07:58:05.00	112.04	7.13	-55.9	-59.8	11.8	6.80e-06	0	27	0	75497472	78	5507
2026-01-05 07:58:05.99	111.99	7.20	-55.8	-59.5	11.9	1.50e-06	0	27	0	77594624	77	5642
2026-01-05 07:58:06.98	111.94	7.28	-55.9	-59.8	11.8	4.50e-06	0	27	0	79691776	77	5825
2026-01-05 07:58:07.97	111.89	7.35	-55.9	-59.7	11.8	2.20e-06	0	27	0	81788928	77	5771
2026-01-05 07:58:08.96	111.84	7.42	-55.8	-59.6	11.9	0.00e+00	0	26	0	82837504	77	5658
2026-01-05 07:58:09.95	111.79	7.50	-56.0	-59.9	11.7	3.00e-06	0	27	0	84934656	77	5872
2026-01-05 07:58:10.94	111.74	7.57	-55.8	-59.5	11.9	9.90e-06	0	27	0	87031808	77	5627
2026-01-05 07:58:11.94	111.69	7.65	-55.9	-59.6	11.9	1.50e-06	0	27	0	89128960	77	5704
2026-01-05 07:58:12.93	111.63	7.72	-56.0	-59.9	11.6	5.30e-06	0	27	0	90177536	77	5860
2026-01-05 07:58:13.92	111.58	7.80	-55.7	-59.3	12.1	5.30e-06	0	27	0	92274688	77	5509
2026-01-05 07:58:14.92	111.53	7.87	-55.5	-58.8	12.5	0.00e+00	0	27	0	94371840	77	5191
2026-01-05 07:58:15.91	111.48	7.95	-55.2	-58.3	12.8	0.00e+00	0	27	0	96468992	77	4921
2026-01-05 07:58:16.90	111.42	8.02	-55.0	-58.0	12.9	0.00e+00	0	27	0	97517568	76	5039
2026-01-05 07:58:17.89	111.37	8.10	-54.5	-57.3	13.3	0.00e+00	0	27	0	99614720	75	4876
2026-01-05 07:58:18.88	111.32	8.18	-54.2	-56.8	13.5	0.00e+00	0	27	0	101711872	75	4629
2026-01-05 07:58:19.87	111.26	8.25	-54.1	-56.6	13.6	0.00e+00	0	27	0	103809024	74	4780
2026-01-05 07:58:20.86	111.21	8.33	-54.1	-56.7	13.5	0.00e+00	0	27	0	105906176	74	4849
2026-01-05 07:58:21.85	111.15	8.40	-54.0	-56.6	13.6	0.00e+00	0	27	0	106954752	74	4772
2026-01-05 07:58:22.84	111.10	8.48	-54.2	-56.8	13.5	0.00e+00	0	27	0	109051904	74	4871
2026-01-05 07:58:23.83	111.04	8.56	-54.2	-56.8	13.4	0.00e+00	0	27	0	111149056	74	4892
2026-01-05 07:58:24.82	110.99	8.63	-54.1	-56.6	13.6	0.00e+00	0	27	0	113246208	74	4802
2026-01-05 07:58:25.81	110.93	8.71	-54.1	-56.7	13.5	0.00e+00	0	27	0	114294784	74	4839
2026-01-05 07:58:26.80	110.88	8.79	-54.0	-56.5	13.6	0.00e+00	0	27	0	116391936	74	4754
2026-01-05 07:58:27.79	110.82	8.87	-54.0	-56.6	13.6	0.00e+00	0	27	0	118489088	74	4769
2026-01-05 07:58:28.78	110.76	8.94	-54.1	-56.6	13.6	0.00e+00	0	27	0	120586240	74	4768
2026-01-05 07:58:29.77	110.71	9.02	-54.1	-56.6	13.5	0.00e+00	0	27	0	122683392	74	4805
2026-01-05 07:58:30.76	110.65	9.10	-54.1	-56.7	13.5	0.00e+00	0	27	0	123731968	74	4835
2026-01-05 07:58:31.76	110.59	9.18	-53.9	-56.3	13.7	0.00e+00	0	27	0	125829120	74	4616
2026-01-05 07:58:32.75	110.53	9.26	-53.9	-56.4	13.7	0.00e+00	0	27	0	127926272	74	4655
2026-01-05 07:58:33.73	110.48	9.34	-54.0	-56.5	13.7	0.00e+00	0	27	0	130023424	74	4715
2026-01-05 07:58:34.72	110.42	9.42	-53.9	-56.3	13.7	0.00e+00	0	27	0	131072000	74	4617
2026-01-05 07:58:35.71	110.36	9.50	-54.0	-56.5	13.6	0.00e+00	0	27	0	133169152	74	4722
2026-01-05 07:58:36.70	110.30	9.58	-53.8	-56.2	13.8	0.00e+00	0	27	0	135266304	74	4569
2026-01-05 07:58:37.70	110.24	9.66	-53.6	-55.8	13.9	0.00e+00	0	27	0	137363456	73	4648
2026-01-05 07:58:38.70	110.18	9.74	-53.5	-55.7	14.0	0.00e+00	0	27	0	138412032	73	4583
2026-01-05 07:58:39.68	110.12	9.82	-53.4	-55.6	14.0	0.00e+00	0	27	0	140509184	73	4516
2026-01-05 07:58:40.67	110.06	9.90	-53.4	-55.6	14.0	0.00e+00	0	27	0	142606336	73	4543
2026-01-05 07:58:41.67	110.00	9.98	-53.5	-55.7	13.9	0.00e+00	0	27	0	144703488	73	4598
2026-01-05 07:58:42.66	109.94	10.06	-53.4	-55.6	14.0	0.00e+00	0	27	0	146800640	73	4498
2026-01-05 07:58:43.66	109.87	10.14	-53.4	-55.6	14.0	0.00e+00	0	27	0	147849216	73	4530
2026-01-05 07:58:44.64	109.81	10.22	-53.3	-55.4	14.1	0.00e+00	0	27	0	149946368	73	4437
2026-01-05 07:58:45.64	109.75	10.30	-53.2	-55.4	14.1	0.00e+00	0	27	0	152043520	73	4417
2026-01-05 07:58:46.63	109.69	10.39	-53.1	-55.3	14.1	0.00e+00	0	27	0	154140672	72	4599
2026-01-05 07:58:47.63	109.62	10.47	-53.1	-55.1	14.1	0.00e+00	0	27	0	155189248	72	4539
2026-01-05 07:58:48.62	109.56	10.55	-53.1	-55.2	14.1	0.00e+00	0	27	0	157286400	72	4587
2026-01-05 07:58:49.61	109.49	10.63	-53.0	-55.1	14.2	0.00e+00	0	27	0	159383552	72	4518
2026-01-05 07:58:50.61	109.43	10.72	-53.1	-55.1	14.1	0.00e+00	0	27	0	161480704	72	4545
2026-01-05 07:58:51.60	109.36	10.80	-53.1	-55.1	14.2	0.00e+00	0	27	0	163577856	72	4532
2026-01-05 07:58:52.59	109.30	10.88	-53.1	-55.2	14.1	0.00e+00	0	27	0	164626432	72	4559
2026-01-05 07:58:53.58	109.23	10.97	-53.1	-55.2	14.1	0.00e+00	0	27	0	166723584	72	4555
2026-01-05 07:58:54.58	109.17	11.05	-53.1	-55.2	14.1	0.00e+00	0	27	0	168820736	72	4560
2026-01-05 07:58:55.57	109.10	11.14	-53.0	-55.0	14.2	0.00e+00	0	27	0	170917888	72	4487
2026-01-05 07:58:56.55	109.04	11.22	-53.1	-55.1	14.2	0.00e+00	0	27	0	171966464	72	4527
2026-01-05 07:58:57.54	108.97	11.31	-52.9	-54.9	14.3	0.00e+00	0	27	0	174063616	72	4431
2026-01-05 07:58:58.53	108.90	11.39	-52.9	-54.9	14.3	0.00e+00	0	27	0	176160768	72	4407
2026-01-05 07:58:59.52	108.83	11.47	-52.9	-54.9	14.3	0.00e+00	0	27	0	178257920	72	4436
2026-01-05 07:59:00.52	108.76	11.56	-52.8	-54.8	14.3	0.00e+00	0	27	0	180355072	72	4383
2026-01-05 07:59:01.51	108.70	11.65	-53.0	-55.0	14.2	0.00e+00	0	27	0	181403648	72	4485
2026-01-05 07:59:02.50	108.63	11.73	-53.0	-55.0	14.2	0.00e+00	0	27	0	183500800	72	4448
2026-01-05 07:59:03.50	108.56	11.82	-53.0	-55.0	14.2	0.00e+00	0	27	0	185597952	72	4453
2026-01-05 07:59:04.49	108.49	11.91	-53.0	-55.1	14.2	0.00e+00	0	27	0	187695104	72	4496
2026-01-05 07:59:05.48	108.42	11.99	-53.0	-55.0	14.2	0.00e+00	0	27	0	188743680	72	4479
2026-01-05 07:59:06.48	108.34	12.08	-53.0	-55.0	14.2	0.00e+00	0	27	0	190840832	72	4484
2026-01-05 07:59:07.47	108.27	12.17	-52.9	-55.0	14.2	0.00e+00	0	27	0	192937984	72	4450
2026-01-05 07:59:08.46	108.20	12.26	-53.0	-55.1	14.2	0.00e+00	0	27	0	195035136	72	4496
2026-01-05 07:59:09.45	108.13	12.34	-53.1	-55.1	14.2	0.00e+00	0	27	0	197132288	72	4545
2026-01-05 07:59:10.44	108.06	12.43	-53.0	-55.0	14.2	0.00e+00	0	27	0	198180864	72	4493
2026-01-05 07:59:11.43	107.98	12.52	-53.1	-55.1	14.2	0.00e+00	0	27	0	200278016	72	4537
2026-01-05 07:59:12.43	107.91	12.61	-53.2	-55.2	14.1	0.00e+00	0	27	0	202375168	72	4598
2026-01-05 07:59:13.42	107.83	12.70	-53.2	-55.3	14.1	0.00e+00	0	27	0	204472320	72	4602
2026-01-05 07:59:14.42	107.76	12.79	-53.2	-55.3	14.1	0.00e+00	0	27	0	205520896	72	4614
2026-01-05 07:59:15.42	107.68	12.88	-53.2	-55.4	14.1	0.00e+00	0	27	0	207618048	72	4653
2026-01-05 07:59:16.41	107.61	12.97	-53.3	-55.5	14.0	0.00e+00	0	27	0	209715200	72	4708
2026-01-05 07:59:17.40	107.53	13.06	-53.4	-55.6	14.0	0.00e+00	0	27	0	211812352	72	4781
2026-01-05 07:59:18.40	107.45	13.15	-53.4	-55.6	14.0	0.00e+00	0	27	0	212860928	72	4776
2026-01-05 07:59:19.39	107.38	13.24	-53.4	-55.6	14.0	0.00e+00	0	27	0	214958080	72	4770
2026-01-05 07:59:20.38	107.30	13.33	-53.6	-55.8	13.8	0.00e+00	0	27	0	217055232	72	4905
2026-01-05 07:59:21.38	107.22	13.42	-53.6	-55.9	13.8	0.00e+00	0	27	0	219152384	72	4949
2026-01-05 07:59:22.37	107.14	13.51	-53.7	-56.0	13.8	0.00e+00	0	27	0	221249536	72	4997
2026-01-05 07:59:23.36	107.06	13.61	-53.7	-56.0	13.8	0.00e+00	0	27	0	222298112	72	5016
2026-01-05 07:59:24.36	106.98	13.70	-53.8	-56.2	13.8	0.00e+00	0	27	0	224395264	73	4816
2026-01-05 07:59:25.35	106.90	13.79	-53.9	-56.2	13.8	0.00e+00	0	27	0	226492416	73	4857
2026-01-05 07:59:26.35	106.82	13.88	-54.0	-56.3	13.7	0.00e+00	0	27	0	228589568	73	4921
2026-01-05 07:59:27.34	106.74	13.98	-54.0	-56.5	13.6	0.00e+00	0	27	0	229638144	73	4993
2026-01-05 07:59:28.34	106.66	14.07	-54.1	-56.5	13.6	0.00e+00	0	27	0	231735296	73	5037
2026-01-05 07:59:29.32	106.58	14.16	-54.3	-56.9	13.4	0.00e+00	0	27	0	233832448	73	5236
2026-01-05 07:59:30.31	106.50	14.26	-54.5	-57.0	13.4	0.00e+00	0	27	0	235929600	74	5038
2026-01-05 07:59:31.30	106.41	14.35	-54.6	-57.2	13.3	0.00e+00	0	27	0	238026752	74	5158
2026-01-05 07:59:32.29	106.33	14.45	-54.6	-57.3	13.3	0.00e+00	0	27	0	239075328	74	5183
2026-01-05 07:59:33.28	106.25	14.54	-54.5	-57.1	13.4	0.00e+00	0	27	0	241172480	74	5086
2026-01-05 07:59:34.27	106.16	14.63	-54.7	-57.4	13.1	0.00e+00	0	27	0	243269632	74	5279
2026-01-05 07:59:35.27	106.07	14.73	-54.7	-57.4	13.2	0.00e+00	0	27	0	245366784	74	5260
2026-01-05 07:59:36.26	105.99	14.83	-54.8	-57.6	13.2	0.00e+00	0	27	0	246415360	75	5063
2026-01-05 07:59:37.25	105.90	14.92	-55.1	-58.0	12.9	0.00e+00	0	27	0	248512512	75	5317
2026-01-05 07:59:38.23	105.82	15.02	-55.1	-58.0	12.9	0.00e+00	0	27	0	250609664	75	5332
2026-01-05 07:59:39.22	105.73	15.11	-55.2	-58.2	12.8	0.00e+00	0	27	0	252706816	75	5449
2026-01-05 07:59:40.22	105.64	15.21	-55.4	-58.5	12.8	0.00e+00	0	27	0	254803968	76	5307
2026-01-05 07:59:41.21	105.55	15.31	-55.6	-58.9	12.5	0.00e+00	0	27	0	255852544	76	5535
2026-01-05 07:59:42.20	105.46	15.41	-55.9	-59.3	12.2	0.00e+00	0	27	0	257949696	76	5842
2026-01-05 07:59:43.21	105.37	15.51	-55.9	-59.3	12.2	0.00e+00	0	27	0	260046848	76	5832
2026-01-05 07:59:44.20	105.28	15.60	-55.8	-59.2	12.5	0.00e+00	0	27	0	262144000	77	5403
2026-01-05 07:59:45.19	105.19	15.70	-56.1	-59.7	12.1	0.00e+00	0	27	0	263192576	77	5729
2026-01-05 07:59:46.18	105.10	15.80	-56.0	-59.6	12.1	7.00e-07	0	27	0	265289728	77	5695
2026-01-05 07:59:47.18	105.00	15.90	-56.2	-59.9	11.9	3.80e-06	0	27	0	267386880	77	5915
2026-01-05 07:59:48.17	104.91	16.00	-56.2	-60.0	11.8	3.00e-06	0	27	0	269484032	77	5989
2026-01-05 07:59:49.16	104.82	16.10	-56.7	-60.9	11.4	5.30e-06	0	27	0	271581184	78	6206
2026-01-05 07:59:50.14	104.72	16.20	-56.5	-60.4	11.6	9.10e-06	0	27	0	272629760	78	5919
2026-01-05 07:59:51.13	104.63	16.30	-56.6	-60.8	11.4	2.59e-05	0	27	0	274726912	78	6155
2026-01-05 07:59:52.12	104.53	16.40	-56.6	-60.7	11.4	2.97e-05	0	27	0	276824064	78	6108
2026-01-05 07:59:53.12	104.43	16.50	-56.7	-60.9	11.2	4.80e-05	0	27	0	278921216	78	6233
2026-01-05 07:59:54.12	104.34	16.60	-56.9	-61.3	11.1	7.40e-05	0	27	0	279969792	79	6170
2026-01-05 07:59:55.12	104.24	16.71	-57.1	-61.8	10.7	1.14e-04	0	27	0	282066944	79	6502
2026-01-05 07:59:56.11	104.14	16.81	-57.1	-61.9	10.6	2.85e-04	0	27	0	284164096	79	6586
2026-01-05 07:59:57.10	104.04	16.91	-57.2	-62.0	10.5	4.43e-04	0	27	0	286261248	79	6711
2026-01-05 07:59:58.10	103.94	17.02	-57.2	-62.2	10.4	5.13e-04	0	27	0	287309824	79	6807
2026-01-05 07:59:59.09	103.84	17.12	-57.3	-62.5	10.2	9.18e-04	0	27	0	289406976	80	6671
2026-01-05 08:00:00.08	103.74	17.22	-57.6	-63.1	9.6	1.44e-03	0	27	0	291504128	80	7175
2026-01-05 08:00:01.08	103.63	17.33	-57.5	-63.1	9.8	2.66e-03	0	27	0	293601280	80	7127
2026-01-05 08:00:02.07	103.53	17.43	-57.7	-63.4	9.3	3.91e-03	0	27	0	295698432	80	7455
2026-01-05 08:00:03.07	103.43	17.54	-57.7	-63.7	9.2	6.60e-03	0	27	0	296747008	80	7664
2026-01-05 08:00:04.06	103.32	17.64	-57.8	-63.9	9.1	1.26e-02	0	27	0	298844160	81	7393
2026-01-05 08:00:05.05	103.22	17.75	-57.9	-64.4	8.8	1.24e-02	0	27	0	300941312	81	7831
2026-01-05 08:00:06.05	103.11	17.85	-58.0	-64.7	8.5	1.33e-02	0	27	0	303038464	81	8096
2026-01-05 08:00:07.04	103.00	17.96	-58.0	-64.8	8.3	2.34e-02	0	27	0	304087040	81	8193
2026-01-05 08:00:08.03	102.90	18.06	-58.1	-65.0	8.1	3.27e-02	0	27	0	306184192	81	8452
2026-01-05 08:00:09.03	102.79	18.17	-58.3	-65.7	7.6	3.91e-02	0	27	0	308281344	81	9170
2026-01-05 08:00:10.02	102.68	18.28	-58.3	-65.7	7.5	5.08e-02	0	27	0	310378496	81	9174
2026-01-05 08:00:11.01	102.57	18.39	-58.3	-65.6	7.6	6.33e-02	0	27	0	312475648	81	9002
2026-01-05 08:00:12.00	102.46	18.49	-58.3	-65.8	7.4	5.35e-02	0	27	0	313524224	81	9257
2026-01-05 08:00:12.99	102.35	18.60	-58.3	-65.9	7.3	6.01e-02	0	27	0	315621376	81	9325
2026-01-05 08:00:14.00	102.23	18.71	-58.2	-65.2	7.9	3.75e-02	0	27	0	317718528	81	8654
2026-01-05 08:00:14.99	102.12	18.82	-59.3	-74.6	3.8	1.44e+00	0	27	104	318767104	83	22564
2026-01-05 08:00:15.99	102.01	18.93	-59.3	-74.8	3.8	1.49e+00	0	27	104	318767104	83	23093
2026-01-05 08:00:16.97	101.89	19.04	-59.3	-74.7	3.8	1.49e+00	0	27	104	318767104	83	22888
2026-01-05 08:00:17.96	101.78	19.15	-59.2	-74.3	3.8	1.49e+00	0	27	104	318767104	83	21762
2026-01-05 08:00:18.95	101.66	19.26	-59.2	-74.1	3.8	1.49e+00	0	27	104	318767104	83	21365
2026-01-05 08:00:19.95	101.54	19.37	-59.2	-74.0	3.8	1.49e+00	0	27	104	318767104	83	21215
2026-01-05 08:00:20.95	101.42	19.48	-59.2	-74.0	3.8	1.49e+00	0	27	104	318767104	83	21069
2026-01-05 08:00:21.95	101.30	19.59	-59.2	-74.0	3.8	1.49e+00	0	27	104	318767104	83	21095
2026-01-05 08:00:22.95	101.18	19.71	-59.2	-74.7	3.8	1.49e+00	0	27	104	318767104	83	22819
2026-01-05 08:00:23.95	101.06	19.82	-59.3	-74.2	3.8	1.49e+00	0	27	104	318767104	83	21703
2026-01-05 08:00:24.93	100.94	19.93	-59.3	-74.2	3.8	1.49e+00	0	27	104	318767104	83	21663
2026-01-05 08:00:25.93	100.82	20.05	-59.3	-75.3	3.8	1.49e+00	0	27	104	318767104	83	24535
2026-01-05 08:00:26.92	100.69	20.16	-59.2	-73.7	3.8	1.49e+00	0	27	104	318767104	83	20489
2026-01-05 08:00:27.91	100.57	20.27	-59.2	-73.9	3.8	1.49e+00	0	27	104	318767104	83	20810
2026-01-05 08:00:28.90	100.44	20.39	-59.2	-73.7	3.8	1.49e+00	0	27	104	318767104	83	20519
2026-01-05 08:00:29.89	100.32	20.50	-59.2	-73.6	3.8	1.49e+00	0	27	104	318767104	83	20252
2026-01-05 08:00:30.88	100.19	20.61	-59.3	-74.7	3.8	1.49e+00	0	27	104	318767104	83	22842
2026-01-05 08:00:31.87	100.06	20.73	-59.3	-74.4	3.8	1.49e+00	0	27	104	318767104	83	22152
2026-01-05 08:00:32.87	99.93	20.85	-59.3	-74.5	3.8	1.49e+00	0	27	104	318767104	83	22360
2026-01-05 08:00:33.85	99.80	20.96	-59.3	-75.2	3.8	1.49e+00	0	27	104	318767104	83	24405
2026-01-05 08:00:34.85	99.67	21.08	-59.3	-73.9	3.8	1.49e+00	0	27	104	318767104	83	20998
2026-01-05 08:00:35.83	99.54	21.19	-59.2	-73.8	3.8	1.49e+00	0	27	104	318767104	83	20736
2026-01-05 08:00:36.81	99.41	21.31	-59.2	-73.8	3.8	1.49e+00	0	27	104	318767104	83	20712
2026-01-05 08:00:37.80	99.27	21.43	-59.2	-73.7	3.8	1.49e+00	0	27	104	318767104	83	20470
2026-01-05 08:00:38.80	99.14	21.54	-59.3	-74.7	3.8	1.49e+00	0	27	104	318767104	83	22871
2026-01-05 08:00:39.80	99.00	21.66	-59.3	-75.2	3.8	1.49e+00	0	27	104	318767104	83	24173
2026-01-05 08:00:40.79	98.86	21.78	-59.4	-75.3	3.8	1.49e+00	0	27	104	318767104	83	24639
2026-01-05 08:00:41.78	98.72	21.90	-59.3	-74.4	3.8	1.49e+00	0	27	104	318767104	83	22160
2026-01-05 08:00:42.78	98.58	22.02	-59.2	-74.2	3.8	1.49e+00	0	27	104	318767104	83	21517
2026-01-05 08:00:43.76	98.44	22.14	-59.2	-74.0	3.8	1.49e+00	0	27	104	318767104	83	21216
2026-01-05 08:00:44.76	98.30	22.26	-59.2	-73.9	3.8	1.49e+00	0	27	104	318767104	83	20805
2026-01-05 08:00:45.75	98.16	22.38	-59.2	-73.6	3.8	1.49e+00	0	27	104	318767104	83	20261
2026-01-05 08:00:46.74	98.01	22.50	-59.2	-74.0	3.8	1.49e+00	0	27	104	318767104	83	21197
2026-01-05 08:00:47.72	97.87	22.62	-59.3	-75.1	3.8	1.49e+00	0	27	104	318767104	83	24128
2026-01-05 08:00:48.72	97.72	22.74	-59.3	-75.3	3.8	1.49e+00	0	27	104	318767104	83	24641
2026-01-05 08:00:49.72	97.57	22.86	-59.3	-74.3	3.8	1.49e+00	0	28	104	318767104	83	21867
2026-01-05 08:00:50.71	97.43	22.99	-59.2	-73.8	3.8	1.49e+00	0	27	104	318767104	83	20679
2026-01-05 08:00:51.70	97.28	23.11	-59.2	-73.8	3.8	1.49e+00	0	27	104	318767104	83	20551
2026-01-05 08:00:52.70	97.12	23.23	-59.2	-73.7	3.8	1.49e+00	0	27	104	318767104	83	20417
2026-01-05 08:00:53.68	96.97	23.35	-59.2	-73.6	3.8	1.49e+00	0	27	104	318767104	83	20300
2026-01-05 08:00:54.67	96.82	23.48	-59.3	-75.0	3.8	1.49e+00	0	27	104	318767104	83	23776
2026-01-05 08:00:55.67	96.66	23.60	-59.3	-73.9	3.8	1.49e+00	0	28	104	318767104	83	20917
2026-01-05 08:00:56.66	96.51	23.73	-59.3	-75.1	3.8	1.49e+00	0	27	104	318767104	83	24058
2026-01-05 08:00:57.65	96.35	23.85	-59.4	-75.4	3.8	1.49e+00	0	27	104	318767104	83	24698
2026-01-05 08:00:58.65	96.19	23.98	-59.3	-74.0	3.8	1.49e+00	0	28	104	318767104	83	21044
2026-01-05 08:00:59.64	96.03	24.10	-59.3	-73.9	3.8	1.49e+00	0	28	104	318767104	83	21016
2026-01-05 08:01:00.63	95.87	24.23	-59.2	-73.7	3.8	1.49e+00	0	27	104	318767104	83	20452
2026-01-05 08:01:01.63	95.71	24.36	-59.2	-73.7	3.8	1.49e+00	0	27	104	318767104	83	20445
2026-01-05 08:01:02.61	95.54	24.48	-59.3	-74.1	3.8	1.49e+00	0	27	104	318767104	83	21417
2026-01-05 08:01:03.60	95.38	24.61	-59.2	-73.5	3.8	1.49e+00	0	27	104	318767104	83	20058
2026-01-05 08:01:04.59	95.21	24.73	-59.4	-75.2	3.8	1.49e+00	0	27	104	318767104	83	24256
2026-01-05 08:01:05.58	95.04	24.86	-59.4	-75.4	3.8	1.49e+00	0	27	104	318767104	83	24711
2026-01-05 08:01:06.57	94.88	24.99	-59.3	-73.7	3.8	1.49e+00	0	27	104	318767104	83	20362
2026-01-05 08:01:07.56	94.70	25.12	-59.3	-73.9	3.8	1.49e+00	0	27	104	318767104	83	20799
2026-01-05 08:01:08.54	94.53	25.24	-59.2	-73.6	3.8	1.49e+00	0	27	104	318767104	83	20236
2026-01-05 08:01:09.54	94.36	25.37	-59.2	-73.6	3.8	1.49e+00	0	28	104	318767104	83	20269
2026-01-05 08:01:10.53	94.18	25.50	-59.3	-74.1	3.8	1.49e+00	0	28	104	318767104	83	21409
2026-01-05 08:01:11.52	94.01	25.63	-59.2	-73.8	3.8	1.49e+00	0	27	104	318767104	83	20692
2026-01-05 08:01:12.51	93.83	25.76	-59.4	-75.2	3.8	1.49e+00	0	27	104	318767104	83	24361
2026-01-05 08:01:13.51	93.65	25.89	-59.4	-75.3	3.8	1.49e+00	0	27	104	318767104	83	24570
2026-01-05 08:01:14.50	93.47	26.02	-59.4	-74.4	3.8	1.49e+00	0	27	104	318767104	83	22051
2026-01-05 08:01:15.49	93.29	26.15	-59.3	-75.2	3.8	1.49e+00	0	27	104	318767104	83	24285
2026-01-05 08:01:16.48	93.10	26.28	-59.2	-74.0	3.8	1.49e+00	0	27	104	318767104	83	21191
2026-01-05 08:01:17.46	92.92	26.41	-59.2	-74.1	3.8	1.49e+00	0	27	104	318767104	83	21402
2026-01-05 08:01:18.45	92.73	26.55	-59.3	-74.3	3.8	1.49e+00	0	27	104	318767104	83	21925
2026-01-05 08:01:19.45	92.54	26.68	-59.3	-74.3	3.8	1.49e+00	0	27	104	318767104	83	21948
2026-01-05 08:01:20.45	92.35	26.81	-59.4	-75.3	3.8	1.49e+00	0	27	104	318767104	83	24578
2026-01-05 08:01:21.45	92.16	26.95	-59.4	-75.0	3.8	1.49e+00	0	28	104	318767104	83	23807
2026-01-05 08:01:22.43	91.97	27.08	-59.4	-75.2	3.8	1.49e+00	0	27	104	318767104	83	24214
2026-01-05 08:01:23.43	91.77	27.21	-59.3	-74.7	3.8	1.49e+00	0	27	104	318767104	83	22881
2026-01-05 08:01:24.42	91.57	27.34	-59.3	-74.7	3.8	1.49e+00	0	27	104	318767104	83	22883
2026-01-05 08:01:25.42	91.37	27.48	-59.3	-74.8	3.8	1.49e+00	0	27	104	318767104	83	23203
2026-01-05 08:01:26.41	91.17	27.61	-59.3	-74.9	3.8	1.49e+00	0	27	104	318767104	83	23352
2026-01-05 08:01:27.40	90.97	27.75	-59.3	-75.0	3.8	1.49e+00	0	27	104	318767104	83	23585
2026-01-05 08:01:28.40	90.77	27.88	-59.3	-75.0	3.8	1.49e+00	0	27	104	318767104	83	23694
2026-01-05 08:01:29.39	90.56	28.02	-59.3	-75.1	3.8	1.49e+00	0	27	104	318767104	83	23902
2026-01-05 08:01:30.39	90.35	28.15	-59.3	-75.1	3.8	1.49e+00	0	27	104	318767104	83	23891
2026-01-05 08:01:31.38	90.14	28.29	-59.2	-75.0	3.8	1.49e+00	0	28	104	318767104	83	23851
2026-01-05 08:01:32.36	89.93	28.42	-59.2	-75.1	3.8	1.49e+00	0	27	104	318767104	83	23879
2026-01-05 08:01:33.36	89.72	28.56	-59.3	-74.9	3.9	1.49e+00	0	27	104	318767104	83	23528
2026-01-05 08:01:34.35	89.51	28.69	-59.3	-75.2	3.8	1.49e+00	0	27	104	318767104	83	24174
2026-01-05 08:01:35.35	89.29	28.83	-59.3	-75.2	3.8	1.49e+00	0	27	104	318767104	83	24287
2026-01-05 08:01:36.34	89.07	28.97	-59.3	-75.0	3.8	1.49e+00	0	27	104	318767104	83	23739
2026-01-05 08:01:37.33	88.85	29.10	-59.2	-74.8	3.8	1.49e+00	0	27	104	318767104	83	23109
2026-01-05 08:01:38.32	88.63	29.24	-59.2	-74.8	3.8	1.49e+00	0	27	104	318767104	83	23217
2026-01-05 08:01:39.31	88.41	29.38	-59.2	-75.0	3.8	1.49e+00	0	27	104	318767104	83	23845
2026-01-05 08:01:40.30	88.18	29.51	-59.2	-75.0	3.8	1.49e+00	0	27	104	318767104	83	23652
2026-01-05 08:01:41.29	87.95	29.65	-59.2	-74.6	3.8	1.49e+00	0	27	104	318767104	83	22710
2026-01-05 08:01:42.27	87.73	29.79	-59.2	-74.1	3.8	1.49e+00	0	27	104	318767104	83	21417
2026-01-05 08:01:43.28	87.49	29.93	-59.1	-72.0	4.1	1.45e+00	0	28	0	318767104	83	16767
2026-01-05 08:01:44.27	87.26	30.06	-59.1	-72.3	4.1	1.43e+00	0	27	0	318767104	83	17474
2026-01-05 08:01:45.26	87.02	30.20	-59.1	-71.9	4.0	1.47e+00	0	27	104	318767104	83	16536
2026-01-05 08:01:46.25	86.79	30.34	-59.0	-69.7	5.1	7.00e-01	0	27	0	319815680	83	12851
2026-01-05 08:01:47.23	86.55	30.47	-58.8	-68.3	5.9	4.16e-01	0	27	0	321912832	83	11002
2026-01-05 08:01:48.22	86.31	30.61	-58.7	-67.3	6.4	2.54e-01	0	27	0	322961408	83	9788
2026-01-05 08:01:49.20	86.07	30.75	-58.7	-67.1	6.6	2.02e-01	0	27	0	325058560	83	9564
2026-01-05 08:01:50.20	85.82	30.89	-58.4	-65.9	7.6	1.28e-01	0	27	0	327155712	83	8298
2026-01-05 08:01:51.18	85.57	31.02	-58.6	-66.6	7.1	1.10e-01	0	27	0	329252864	83	9059
2026-01-05 08:01:52.18	85.32	31.16	-58.6	-66.7	6.9	1.22e-01	0	28	0	330301440	83	9072
2026-01-05 08:01:53.16	85.07	31.30	-58.6	-66.8	6.7	1.26e-01	0	28	0	332398592	83	9273
2026-01-05 08:01:54.16	84.81	31.44	-58.5	-65.9	7.6	1.19e-01	0	27	0	334495744	83	8352
2026-01-05 08:01:55.15	84.56	31.58	-57.9	-63.8	9.4	2.08e-02	0	28	0	336592896	82	6922
2026-01-05 08:01:56.14	84.30	31.72	-57.4	-62.3	10.5	2.11e-03	0	27	0	338690048	81	6167
2026-01-05 08:01:57.14	84.04	31.85	-57.0	-61.4	11.2	4.19e-05	0	27	0	339738624	79	6233
2026-01-05 08:01:58.12	83.78	31.99	-56.9	-61.2	11.3	3.43e-05	0	27	0	341835776	79	6078
2026-01-05 08:01:59.11	83.51	32.13	-57.0	-61.3	11.2	4.50e-05	0	27	0	343932928	79	6175
2026-01-05 08:02:00.11	83.24	32.27	-57.0	-61.3	11.1	6.48e-05	0	27	0	346030080	79	6182
2026-01-05 08:02:01.10	82.97	32.41	-57.1	-61.6	11.0	1.01e-04	0	28	0	347078656	79	6351
2026-01-05 08:02:02.08	82.70	32.54	-57.1	-61.5	11.1	9.30e-05	0	27	0	349175808	79	6300
2026-01-05 08:02:03.07	82.43	32.68	-56.9	-61.2	11.3	5.87e-05	0	27	0	351272960	79	6093
2026-01-05 08:02:04.06	82.15	32.82	-56.4	-60.1	11.9	7.00e-07	0	27	0	353370112	78	5665
2026-01-05 08:02:05.05	81.87	32.95	-54.9	-57.5	13.5	0.00e+00	0	27	0	355467264	76	4757
2026-01-05 08:02:06.05	81.59	33.09	-54.5	-57.0	13.5	0.00e+00	0	27	0	356515840	75	4743
2026-01-05 08:02:07.03	81.31	33.23	-54.2	-56.6	13.8	0.00e+00	0	27	0	358612992	74	4775
2026-01-05 08:02:08.03	81.02	33.37	-54.2	-56.5	13.8	0.00e+00	0	27	0	360710144	74	4744
2026-01-05 08:02:09.02	80.73	33.50	-54.2	-56.5	13.9	0.00e+00	0	27	0	362807296	74	4710
2026-01-05 08:02:10.01	80.44	33.64	-54.0	-56.3	13.9	0.00e+00	0	27	0	363855872	74	4615
2026-01-05 08:02:11.01	80.14	33.77	-54.1	-56.4	13.9	0.00e+00	0	28	0	365953024	74	4655
2026-01-05 08:02:12.01	79.84	33.91	-54.4	-56.8	13.7	0.00e+00	0	27	0	368050176	74	4871
2026-01-05 08:02:13.00	79.54	34.05	-54.2	-56.6	13.8	0.00e+00	0	27	0	370147328	74	4778
2026-01-05 08:02:13.99	79.24	34.18	-55.5	-58.4	12.8	0.00e+00	0	27	0	371195904	76	5251
2026-01-05 08:02:14.98	78.94	34.32	-56.2	-59.8	12.2	1.50e-06	0	27	0	373293056	77	5821
2026-01-05 08:02:15.98	78.63	34.45	-56.1	-59.5	12.4	0.00e+00	0	27	0	375390208	78	5329
2026-01-05 08:02:16.96	78.32	34.59	-55.0	-57.6	13.5	0.00e+00	0	28	0	377487360	76	4778
2026-01-05 08:02:17.95	78.01	34.72	-54.7	-57.3	13.5	0.00e+00	0	27	0	379584512	75	4884
2026-01-05 08:02:18.94	77.70	34.85	-54.6	-57.1	13.6	0.00e+00	0	27	0	380633088	75	4760
2026-01-05 08:02:19.93	77.38	34.98	-54.9	-57.5	13.4	0.00e+00	0	28	0	382730240	75	5009
2026-01-05 08:02:20.93	77.06	35.12	-55.9	-59.1	12.6	0.00e+00	0	27	0	384827392	77	5384
2026-01-05 08:02:21.92	76.73	35.25	-56.1	-59.5	12.3	0.00e+00	0	27	0	386924544	77	5636
2026-01-05 08:02:22.92	76.41	35.38	-55.1	-57.8	13.4	0.00e+00	0	27	0	387973120	76	4873
2026-01-05 08:02:23.92	76.08	35.52	-55.1	-57.8	13.4	0.00e+00	0	27	0	390070272	76	4898
2026-01-05 08:02:24.91	75.75	35.65	-55.4	-58.2	13.1	0.00e+00	0	27	0	392167424	76	5149
2026-01-05 08:02:25.90	75.41	35.78	-55.4	-58.3	13.0	0.00e+00	0	27	0	394264576	76	5197
2026-01-05 08:02:26.89	75.08	35.90	-55.2	-58.0	13.3	0.00e+00	0	27	0	396361728	76	4985
2026-01-05 08:02:27.88	74.74	36.03	-55.4	-58.3	13.0	0.00e+00	0	27	0	397410304	76	5211
2026-01-05 08:02:28.87	74.40	36.16	-55.7	-58.7	12.8	0.00e+00	0	27	0	399507456	76	5433
2026-01-05 08:02:29.86	74.06	36.29	-55.7	-58.8	12.8	0.00e+00	0	27	0	401604608	76	5487
2026-01-05 08:02:30.85	73.71	36.41	-55.8	-58.9	12.7	0.00e+00	0	27	0	403701760	76	5552
2026-01-05 08:02:31.84	73.36	36.54	-56.0	-59.2	12.6	0.00e+00	0	28	0	404750336	77	5453
2026-01-05 08:02:32.83	73.01	36.67	-56.2	-59.5	12.4	0.00e+00	0	27	0	406847488	77	5650
2026-01-05 08:02:33.82	72.66	36.79	-56.2	-59.5	12.4	0.00e+00	0	27	0	408944640	77	5656
2026-01-05 08:02:34.81	72.30	36.91	-56.1	-59.4	12.5	7.00e-07	0	27	0	411041792	77	5533
2026-01-05 08:02:35.80	71.94	37.04	-56.2	-59.5	12.4	0.00e+00	0	27	0	413138944	77	5655
2026-01-05 08:02:36.79	71.58	37.16	-56.1	-59.5	12.4	0.00e+00	0	27	0	414187520	77	5596
2026-01-05 08:02:37.79	71.21	37.28	-56.3	-59.7	12.2	0.00e+00	0	27	0	416284672	77	5759
2026-01-05 08:02:38.78	70.84	37.40	-56.4	-59.9	12.1	0.00e+00	0	27	0	418381824	77	5870
2026-01-05 08:02:39.78	70.47	37.52	-56.4	-59.9	12.2	7.00e-07	0	27	0	420478976	78	5586
2026-01-05 08:02:40.77	70.10	37.64	-56.4	-59.9	12.2	3.80e-06	0	27	0	421527552	78	5562
2026-01-05 08:02:41.77	69.72	37.76	-56.6	-60.4	11.9	2.20e-06	0	27	0	423624704	78	5869
2026-01-05 08:02:42.75	69.34	37.87	-56.8	-60.6	11.7	2.20e-06	0	28	0	425721856	78	6036
2026-01-05 08:02:43.75	68.96	37.99	-56.8	-60.6	11.8	3.00e-06	0	27	0	427819008	78	6030
2026-01-05 08:02:44.74	68.57	38.10	-56.9	-60.9	11.6	7.60e-06	0	27	0	428867584	78	6221
2026-01-05 08:02:45.73	68.19	38.21	-56.9	-61.0	11.6	6.80e-06	0	27	0	430964736	79	5927
2026-01-05 08:02:46.73	67.80	38.33	-57.0	-61.1	11.5	1.29e-05	0	27	0	433061888	79	6005
2026-01-05 08:02:47.71	67.41	38.44	-56.9	-60.9	11.6	1.60e-05	0	27	0	435159040	79	5918
2026-01-05 08:02:48.71	67.01	38.55	-56.9	-60.8	11.7	4.50e-06	0	27	0	437256192	79	5842
2026-01-05 08:02:49.69	66.62	38.65	-56.9	-61.0	11.6	6.10e-06	0	27	0	438304768	79	5931
2026-01-05 08:02:50.68	66.22	38.76	-57.2	-61.5	11.3	2.13e-05	0	27	0	440401920	79	6278
2026-01-05 08:02:51.68	65.81	38.87	-57.3	-61.7	11.0	6.71e-05	0	27	0	442499072	79	6461
2026-01-05 08:02:52.67	65.40	38.97	-57.4	-62.0	10.8	9.00e-05	0	28	0	444596224	79	6662
2026-01-05 08:02:53.66	65.00	39.08	-57.4	-62.1	10.8	1.31e-04	0	27	0	445644800	80	6360
2026-01-05 08:02:54.65	64.59	39.18	-57.5	-62.3	10.6	1.68e-04	0	27	0	447741952	80	6535
2026-01-05 08:02:55.64	64.17	39.28	-57.7	-62.8	10.2	7.00e-04	0	27	0	449839104	80	6954
2026-01-05 08:02:56.63	63.76	39.38	-57.9	-63.3	9.9	1.21e-03	0	27	0	451936256	80	7308
2026-01-05 08:02:57.62	63.34	39.47	-57.9	-63.3	9.9	1.31e-03	0	27	0	454033408	80	7337
2026-01-05 08:02:58.62	62.91	39.57	-58.0	-63.6	9.7	1.89e-03	0	27	0	455081984	81	7155
2026-01-05 08:02:59.61	62.49	39.66	-58.0	-63.7	9.6	2.80e-03	0	27	0	457179136	81	7252
2026-01-05 08:03:00.60	62.07	39.76	-58.1	-63.9	9.5	3.23e-03	0	27	0	459276288	81	7384
2026-01-05 08:03:01.58	61.64	39.85	-58.2	-64.2	9.2	5.88e-03	0	27	0	461373440	81	7632
2026-01-05 08:03:02.57	61.21	39.94	-58.1	-64.0	9.3	6.66e-03	0	27	0	462422016	81	7535
2026-01-05 08:03:03.56	60.78	40.03	-58.2	-64.1	9.3	4.95e-03	0	27	0	464519168	81	7584
2026-01-05 08:03:04.55	60.35	40.11	-58.3	-64.5	8.9	8.36e-03	0	28	0	466616320	81	7916
2026-01-05 08:03:05.54	59.91	40.20	-58.2	-64.2	9.1	8.06e-03	0	27	0	468713472	81	7659
2026-01-05 08:03:06.54	59.46	40.28	-58.2	-64.3	9.0	7.51e-03	0	28	0	469762048	81	7735
2026-01-05 08:03:07.55	59.01	40.36	-58.3	-64.5	8.9	1.00e-02	0	27	0	471859200	81	7960
2026-01-05 08:03:08.54	58.57	40.44	-58.3	-64.6	8.8	1.05e-02	0	28	0	473956352	81	8009
2026-01-05 08:03:09.54	58.12	40.52	-58.4	-65.0	8.5	1.55e-02	0	28	0	476053504	82	7980
2026-01-05 08:03:10.53	57.67	40.60	-58.4	-65.0	8.5	1.75e-02	0	27	0	478150656	82	7931
2026-01-05 08:03:11.53	57.22	40.67	-58.5	-65.4	8.2	2.06e-02	0	27	0	479199232	82	8313
2026-01-05 08:03:12.52	56.76	40.74	-58.7	-66.1	7.6	4.22e-02	0	27	0	481296384	82	8990
2026-01-05 08:03:13.52	56.30	40.82	-58.8	-66.4	7.3	7.03e-02	0	27	0	483393536	82	9371
2026-01-05 08:03:14.51	55.85	40.88	-58.8	-66.7	7.0	8.45e-02	0	27	0	485490688	82	9697
2026-01-05 08:03:15.50	55.39	40.95	-58.8	-66.6	7.1	8.45e-02	0	27	0	487587840	82	9565
2026-01-05 08:03:16.51	54.92	41.02	-58.8	-66.5	7.2	8.85e-02	0	27	0	488636416	82	9459
2026-01-05 08:03:17.50	54.46	41.08	-58.9	-67.0	6.8	1.07e-01	0	28	0	490733568	82	10024
2026-01-05 08:03:18.49	53.99	41.14	-58.9	-67.0	6.8	1.25e-01	0	27	0	492830720	82	9954
2026-01-05 08:03:19.47	53.53	41.20	-58.8	-66.7	7.1	1.06e-01	0	28	0	494927872	82	9694
2026-01-05 08:03:20.47	53.06	41.25	-58.9	-66.9	7.0	1.00e-01	0	28	0	495976448	82	9839
2026-01-05 08:03:21.46	52.59	41.31	-58.9	-66.8	7.0	9.54e-02	0	27	0	498073600	82	9806
2026-01-05 08:03:22.45	52.12	41.36	-58.9	-67.1	6.8	1.23e-01	0	27	0	500170752	82	10156
2026-01-05 08:03:23.44	51.65	41.41	-58.9	-67.3	6.7	1.49e-01	0	28	0	502267904	83	9750
2026-01-05 08:03:24.43	51.18	41.46	-58.9	-67.2	6.8	1.54e-01	0	27	0	503316480	83	9627
2026-01-05 08:03:25.42	50.70	41.50	-59.0	-67.5	6.5	1.69e-01	0	28	0	505413632	83	10033
2026-01-05 08:03:26.41	50.23	41.55	-59.0	-67.6	6.4	1.90e-01	0	28	0	507510784	83	10112
2026-01-05 08:03:27.41	49.74	41.59	-59.0	-67.7	6.3	2.00e-01	0	28	0	509607936	83	10231
2026-01-05 08:03:28.40	49.27	41.63	-59.1	-68.0	6.2	2.31e-01	0	28	0	510656512	83	10580
2026-01-05 08:03:29.39	48.79	41.66	-59.0	-67.9	6.2	2.23e-01	0	28	0	512753664	83	10469
2026-01-05 08:03:30.39	48.30	41.70	-59.1	-68.2	6.0	2.70e-01	0	28	0	514850816	83	10875
2026-01-05 08:03:31.38	47.82	41.73	-59.2	-69.4	5.2	3.37e-01	0	27	0	516947968	83	12487
2026-01-05 08:03:32.37	47.34	41.76	-59.7	-72.2	4.2	1.03e+00	0	28	0	517996544	84	16218
2026-01-05 08:03:33.36	46.85	41.79	-59.6	-72.2	4.2	1.38e+00	0	28	0	517996544	84	16243
2026-01-05 08:03:34.36	46.37	41.81	-59.4	-69.5	5.4	8.93e-01	0	28	0	520093696	84	11872
2026-01-05 08:03:35.35	45.88	41.84	-59.1	-67.6	6.3	3.30e-01	0	27	0	521142272	84	9605
2026-01-05 08:03:36.34	45.40	41.86	-58.7	-66.1	7.5	1.09e-01	0	27	0	523239424	83	8491
2026-01-05 08:03:37.33	44.91	41.88	-56.8	-60.5	12.0	3.02e-03	0	27	0	525336576	80	5324
2026-01-05 08:03:38.32	44.42	41.89	-56.3	-59.6	12.6	2.28e-04	0	27	0	527433728	79	5079
2026-01-05 08:03:39.32	43.93	41.91	-56.0	-59.2	12.6	0.00e+00	0	28	0	528482304	77	5457
2026-01-05 08:03:40.31	43.44	41.92	-55.2	-57.8	13.4	0.00e+00	0	28	0	530579456	76	4926
2026-01-05 08:03:41.30	42.96	41.93	-55.2	-57.9	13.3	0.00e+00	0	28	0	532676608	76	4962
2026-01-05 08:03:42.30	42.46	41.93	-55.3	-57.9	13.3	0.00e+00	0	27	0	534773760	76	4969
2026-01-05 08:03:43.29	41.98	41.94	-54.6	-57.0	13.6	0.00e+00	0	27	0	536870912	74	5039
2026-01-05 08:03:44.29	41.48	41.94	-54.7	-57.2	13.5	0.00e+00	0	28	0	537919488	74	5140
2026-01-05 08:03:45.28	40.99	41.94	-55.8	-58.8	12.9	0.00e+00	0	27	0	540016640	76	5528
2026-01-05 08:03:46.27	40.51	41.94	-56.2	-59.6	12.4	0.00e+00	0	27	0	542113792	78	5341
2026-01-05 08:03:47.27	40.01	41.93	-55.8	-58.7	12.9	0.00e+00	0	27	0	544210944	78	4870
2026-01-05 08:03:48.26	39.53	41.92	-55.7	-58.6	13.1	0.00e+00	0	27	0	545259520	77	5069
2026-01-05 08:03:49.25	39.04	41.91	-55.8	-58.7	12.9	0.00e+00	0	28	0	547356672	77	5157
2026-01-05 08:03:50.24	38.55	41.90	-56.0	-59.0	12.8	0.00e+00	0	28	0	549453824	77	5332
2026-01-05 08:03:51.23	38.06	41.89	-56.0	-59.1	12.8	0.00e+00	0	27	0	551550976	77	5380
2026-01-05 08:03:52.21	37.58	41.87	-55.9	-59.0	12.8	0.00e+00	0	27	0	553648128	77	5295
2026-01-05 08:03:53.21	37.09	41.85	-56.0	-59.1	12.8	0.00e+00	0	28	0	554696704	77	5343
2026-01-05 08:03:54.20	36.61	41.83	-56.3	-59.6	12.4	7.00e-07	0	27	0	556793856	77	5676
2026-01-05 08:03:55.20	36.12	41.81	-56.6	-60.2	12.1	7.00e-07	0	27	0	558891008	78	5724
2026-01-05 08:03:56.18	35.64	41.78	-56.8	-60.6	11.9	2.20e-06	0	28	0	560988160	78	5999
2026-01-05 08:03:57.17	35.16	41.75	-56.9	-60.8	11.8	1.50e-06	0	28	0	562036736	79	5805
2026-01-05 08:03:58.16	34.67	41.72	-57.9	-62.2	11.0	1.52e-05	0	27	0	564133888	80	6426
2026-01-05 08:03:59.16	34.19	41.69	-58.9	-67.0	7.0	1.03e-02	0	27	0	566231040	82	10001
2026-01-05 08:04:00.15	33.71	41.65	-59.7	-72.5	3.9	8.88e-01	0	28	104	567279616	84	16847
2026-01-05 08:04:01.14	33.23	41.62	-60.0	-76.0	3.8	3.16e-01	0	27	104	567279616	85	23793
2026-01-05 08:04:02.14	32.75	41.58	-60.2	-76.2	3.8	1.49e+00	0	28	104	567279616	85	24262
2026-01-05 08:04:03.14	32.27	41.53	-60.3	-76.3	3.8	1.49e+00	0	27	104	567279616	85	24557
2026-01-05 08:04:04.14	31.79	41.49	-60.4	-76.4	3.8	1.49e+00	0	28	104	567279616	85	24884
2026-01-05 08:04:05.15	31.30	41.44	-60.5	-76.5	3.8	1.49e+00	0	28	104	567279616	86	23703
2026-01-05 08:04:06.16	30.82	41.39	-60.5	-76.5	3.8	1.49e+00	0	28	104	567279616	86	23845
2026-01-05 08:04:07.16	30.34	41.34	-60.5	-76.6	3.8	1.49e+00	0	27	104	567279616	86	23912
2026-01-05 08:04:08.16	29.87	41.29	-60.6	-76.6	3.8	1.49e+00	0	27	104	567279616	86	24079
2026-01-05 08:04:09.17	29.39	41.23	-60.6	-76.7	3.8	1.49e+00	0	28	104	567279616	86	24177
2026-01-05 08:04:10.16	28.93	41.17	-60.6	-76.7	3.8	1.49e+00	0	28	104	567279616	86	24322
2026-01-05 08:04:11.16	28.46	41.11	-60.7	-76.8	3.8	1.49e+00	0	28	104	567279616	86	24423
2026-01-05 08:04:12.15	28.00	41.05	-60.6	-76.7	3.8	1.49e+00	0	27	104	567279616	86	24291
2026-01-05 08:04:13.14	27.53	40.99	-60.6	-76.7	3.8	1.49e+00	0	27	104	567279616	86	24227
2026-01-05 08:04:14.13	27.08	40.93	-60.6	-76.7	3.8	1.49e+00	0	28	104	567279616	86	24229
2026-01-05 08:04:15.13	26.61	40.86	-60.6	-76.7	3.8	1.49e+00	0	28	104	567279616	86	24145
2026-01-05 08:04:16.12	26.16	40.79	-60.6	-76.7	3.8	1.49e+00	0	28	104	567279616	86	24161
2026-01-05 08:04:17.12	25.70	40.72	-60.6	-76.7	3.8	1.49e+00	0	27	104	567279616	86	24315
2026-01-05 08:04:18.12	25.24	40.64	-60.7	-76.7	3.8	1.49e+00	0	27	104	567279616	86	24360
2026-01-05 08:04:19.12	24.79	40.57	-60.7	-76.7	3.8	1.49e+00	0	28	104	567279616	86	24297
2026-01-05 08:04:20.11	24.34	40.49	-60.6	-76.7	3.8	1.49e+00	0	27	104	567279616	86	24202
2026-01-05 08:04:21.11	23.89	40.41	-60.6	-76.7	3.8	1.49e+00	0	27	104	567279616	86	24187
2026-01-05 08:04:22.10	23.45	40.33	-60.6	-76.7	3.8	1.49e+00	0	28	104	567279616	86	24192
2026-01-05 08:04:23.09	23.01	40.25	-60.6	-76.7	3.8	1.49e+00	0	28	104	567279616	86	24247
2026-01-05 08:04:24.09	22.57	40.17	-60.6	-76.6	3.8	1.49e+00	0	27	104	567279616	86	24128
2026-01-05 08:04:25.07	22.14	40.08	-60.6	-76.7	3.8	1.49e+00	0	27	104	567279616	86	24236
2026-01-05 08:04:26.06	21.70	40.00	-60.6	-76.6	3.8	1.49e+00	0	27	104	567279616	86	24095
2026-01-05 08:04:27.05	21.27	39.91	-60.6	-76.6	3.8	1.49e+00	0	28	104	567279616	86	24025
2026-01-05 08:04:28.05	20.84	39.82	-60.6	-76.6	3.8	1.49e+00	0	27	104	567279616	86	24012
2026-01-05 08:04:29.03	20.42	39.72	-60.6	-76.6	3.8	1.49e+00	0	27	104	567279616	86	24000
2026-01-05 08:04:30.02	19.99	39.63	-60.6	-76.6	3.8	1.49e+00	0	28	104	567279616	86	23923
2026-01-05 08:04:31.02	19.57	39.54	-60.5	-76.6	3.8	1.49e+00	0	28	104	567279616	86	23910
2026-01-05 08:04:32.01	19.15	39.44	-60.5	-76.6	3.8	1.49e+00	0	27	104	567279616	86	23928
2026-01-05 08:04:33.01	18.73	39.34	-60.5	-76.6	3.8	1.49e+00	0	28	104	567279616	86	23963
2026-01-05 08:04:34.00	18.32	39.24	-60.5	-76.6	3.8	1.49e+00	0	28	104	567279616	86	23913
2026-01-05 08:04:35.00	17.90	39.14	-60.5	-76.5	3.8	1.49e+00	0	28	104	567279616	86	23796
2026-01-05 08:04:35.99	17.49	39.04	-60.5	-76.5	3.8	1.49e+00	0	28	104	567279616	86	23849
2026-01-05 08:04:36.99	17.08	38.93	-60.5	-76.5	3.8	1.49e+00	0	28	104	567279616	86	23841
2026-01-05 08:04:37.97	16.68	38.83	-60.5	-76.5	3.8	1.49e+00	0	27	104	567279616	86	23786
2026-01-05 08:04:38.96	16.28	38.72	-60.5	-76.6	3.8	1.49e+00	0	27	104	567279616	86	23865
2026-01-05 08:04:39.96	15.88	38.62	-60.5	-76.5	3.8	1.49e+00	0	27	104	567279616	86	23775
2026-01-05 08:04:40.95	15.48	38.51	-60.5	-76.5	3.8	1.49e+00	0	27	104	567279616	86	23824
2026-01-05 08:04:41.95	15.09	38.40	-60.5	-76.5	3.8	1.49e+00	0	27	104	567279616	86	23845
2026-01-05 08:04:42.94	14.70	38.29	-60.5	-76.6	3.8	1.49e+00	0	28	104	567279616	86	23859
2026-01-05 08:04:43.93	14.31	38.17	-60.6	-76.7	3.8	1.49e+00	0	28	104	567279616	86	24224
2026-01-05 08:04:44.93	13.92	38.06	-60.7	-76.8	3.8	1.49e+00	0	28	104	567279616	86	24505
2026-01-05 08:04:45.93	13.53	37.94	-60.8	-76.8	3.8	1.49e+00	0	28	104	567279616	86	24657
2026-01-05 08:04:46.94	13.15	37.83	-60.8	-76.8	3.8	1.49e+00	0	28	104	567279616	86	24683
2026-01-05 08:04:47.94	12.77	37.71	-60.8	-76.8	3.8	1.49e+00	0	28	104	567279616	86	24659
2026-01-05 08:04:48.94	12.39	37.59	-60.8	-76.8	3.8	1.49e+00	0	28	104	567279616	86	24635
2026-01-05 08:04:49.94	12.01	37.47	-60.6	-76.8	3.8	1.49e+00	0	28	104	567279616	86	24640
2026-01-05 08:04:50.94	11.64	37.35	-60.8	-76.8	3.8	1.49e+00	0	28	104	567279616	86	24670
2026-01-05 08:04:51.95	11.27	37.23	-60.7	-76.8	3.8	1.49e+00	0	28	104	567279616	86	24586
2026-01-05 08:04:52.95	10.90	37.11	-60.7	-76.8	3.8	1.49e+00	0	28	104	567279616	86	24471
2026-01-05 08:04:53.95	10.54	36.98	-60.7	-76.7	3.8	1.49e+00	0	28	104	567279616	86	24394
2026-01-05 08:04:54.95	10.18	36.86	-60.7	-76.7	3.8	1.49e+00	0	28	104	567279616	86	24339
2026-01-05 08:04:55.95	9.82	36.73	-60.6	-76.6	3.8	1.49e+00	0	28	104	567279616	86	23902
2026-01-05 08:04:56.94	9.47	36.61	-60.6	-75.9	3.9	1.49e+00	0	28	104	567279616	86	22217
2026-01-05 08:04:57.95	9.11	36.48	-56.9	-60.2	12.6	1.21e+00	0	28	0	567279616	80	5122
2026-01-05 08:04:58.94	8.77	36.36	-54.4	-56.5	14.2	0.00e+00	0	28	0	569376768	75	4471
2026-01-05 08:04:59.93	8.42	36.23	-55.5	-58.0	13.5	0.00e+00	0	28	0	571473920	76	4997
2026-01-05 08:05:00.91	8.08	36.10	-60.0	-69.8	5.6	2.60e-04	0	27	0	573571072	85	11634
2026-01-05 08:05:01.92	7.74	35.97	-53.2	-55.0	14.6	9.90e-06	0	28	0	574619648	73	4211
2026-01-05 08:05:02.91	7.40	35.84	-56.7	-59.8	12.7	0.00e+00	0	28	0	576716800	78	5487
2026-01-05 08:05:03.90	7.07	35.71	-59.2	-66.1	8.4	0.00e+00	0	28	0	578813952	83	8523
2026-01-05 08:05:04.89	6.74	35.59	-53.7	-55.6	14.4	6.59e-02	0	28	0	580911104	74	4287
2026-01-05 08:05:05.89	6.41	35.45	-53.5	-55.3	14.5	0.00e+00	0	27	0	583008256	73	4356
2026-01-05 08:05:06.88	6.08	35.32	-53.6	-55.5	14.4	0.00e+00	0	28	0	584056832	73	4478
2026-01-05 08:05:07.87	5.76	35.19	-53.9	-55.8	14.2	0.00e+00	0	28	0	586153984	73	4639
2026-01-05 08:05:08.87	5.44	35.06	-53.9	-55.9	14.2	0.00e+00	0	28	0	588251136	73	4658
2026-01-05 08:05:09.85	5.13	34.93	-53.8	-55.8	14.3	0.00e+00	0	28	0	590348288	73	4603
2026-01-05 08:05:10.85	4.81	34.79	-53.8	-55.8	14.3	0.00e+00	0	28	0	591396864	73	4608
2026-01-05 08:05:11.84	4.50	34.66	-53.7	-55.7	14.3	0.00e+00	0	27	0	593494016	73	4552
2026-01-05 08:05:12.83	4.19	34.53	-53.9	-55.8	14.2	0.00e+00	0	28	0	595591168	73	4634
2026-01-05 08:05:13.83	3.88	34.39	-53.9	-55.9	14.2	0.00e+00	0	28	0	597688320	73	4693
2026-01-05 08:05:14.83	3.57	34.26	-53.9	-55.9	14.2	0.00e+00	0	27	0	599785472	73	4681
2026-01-05 08:05:15.81	3.27	34.12	-54.1	-56.1	14.1	0.00e+00	0	28	0	600834048	73	4797
2026-01-05 08:05:16.80	2.97	33.99	-54.2	-56.4	14.0	0.00e+00	0	27	0	602931200	73	4940
2026-01-05 08:05:17.79	2.67	33.85	-54.4	-56.6	13.9	0.00e+00	0	28	0	605028352	74	4783
2026-01-05 08:05:18.79	2.38	33.72	-54.5	-56.6	14.0	0.00e+00	0	27	0	607125504	74	4796
2026-01-05 08:05:19.77	2.09	33.58	-54.5	-56.7	13.9	0.00e+00	0	28	0	608174080	74	4818
2026-01-05 08:05:20.76	1.80	33.45	-54.6	-56.8	13.8	0.00e+00	0	28	0	610271232	74	4911
2026-01-05 08:05:21.75	1.51	33.31	-54.9	-57.2	13.6	0.00e+00	0	28	0	612368384	74	5131
2026-01-05 08:05:22.73	1.23	33.18	-55.0	-57.4	13.7	0.00e+00	0	27	0	614465536	75	4981
2026-01-05 08:05:23.72	0.95	33.04	-55.1	-57.6	13.6	0.00e+00	0	28	0	615514112	75	5064
2026-01-05 08:05:24.71	0.67	32.90	-55.2	-57.8	13.4	0.00e+00	0	27	0	617611264	75	5163
2026-01-05 08:05:25.70	0.39	32.77	-55.5	-58.1	13.4	0.00e+00	0	28	0	619708416	76	5098
2026-01-05 08:05:26.70	0.11	32.63	-55.4	-58.0	13.4	0.00e+00	0	27	0	621805568	76	5010
2026-01-05 08:05:27.69	359.84	32.49	-55.3	-57.8	13.6	0.00e+00	0	28	0	622854144	76	4885
2026-01-05 08:05:28.68	359.57	32.35	-55.5	-58.0	13.5	0.00e+00	0	27	0	624951296	76	5038
2026-01-05 08:05:29.67	359.30	32.22	-55.5	-58.1	13.4	0.00e+00	0	28	0	627048448	76	5075
2026-01-05 08:05:30.66	359.04	32.08	-55.6	-58.2	13.4	0.00e+00	0	27	0	629145600	76	5109
2026-01-05 08:05:31.66	358.77	31.94	-55.5	-58.1	13.3	0.00e+00	0	27	0	631242752	76	5078
2026-01-05 08:05:32.65	358.51	31.80	-55.4	-58.0	13.5	0.00e+00	0	27	0	632291328	76	4991
2026-01-05 08:05:33.65	358.25	31.66	-55.3	-57.8	13.5	0.00e+00	0	28	0	634388480	76	4919
2026-01-05 08:05:34.63	357.99	31.53	-55.4	-57.9	13.4	0.00e+00	0	28	0	636485632	76	4946
2026-01-05 08:05:35.62	357.74	31.39	-55.4	-58.0	13.5	0.00e+00	0	27	0	638582784	76	5002
2026-01-05 08:05:36.61	357.49	31.25	-55.6	-58.2	13.4	0.00e+00	0	28	0	639631360	76	5136
2026-01-05 08:05:37.60	357.24	31.11	-55.5	-58.1	13.4	0.00e+00	0	28	0	641728512	76	5063
2026-01-05 08:05:38.59	356.99	30.98	-55.3	-57.8	13.5	0.00e+00	0	28	0	643825664	76	4917
2026-01-05 08:05:39.57	356.75	30.84	-55.2	-57.7	13.7	0.00e+00	0	27	0	645922816	76	4830
2026-01-05 08:05:40.57	356.50	30.70	-55.2	-57.6	13.6	0.00e+00	0	28	0	648019968	76	4813
2026-01-05 08:05:41.56	356.26	30.56	-55.1	-57.4	13.7	0.00e+00	0	28	0	649068544	76	4699
2026-01-05 08:05:42.56	356.02	30.43	-55.0	-57.4	13.7	0.00e+00	0	28	0	651165696	76	4670
2026-01-05 08:05:43.54	355.78	30.29	-55.0	-57.4	13.8	0.00e+00	0	27	0	653262848	76	4690
2026-01-05 08:05:44.54	355.54	30.15	-55.0	-57.4	13.7	0.00e+00	0	28	0	655360000	76	4689
2026-01-05 08:05:45.52	355.31	30.02	-54.9	-57.3	13.8	0.00e+00	0	28	0	656408576	76	4616
2026-01-05 08:05:46.52	355.08	29.88	-54.9	-57.2	13.9	0.00e+00	0	28	0	658505728	76	4581
2026-01-05 08:05:47.50	354.85	29.74	-54.6	-56.8	13.9	0.00e+00	0	28	0	660602880	75	4631
2026-01-05 08:05:48.49	354.62	29.61	-54.6	-56.8	14.0	0.00e+00	0	28	0	662700032	75	4645
2026-01-05 08:05:49.48	354.40	29.47	-54.3	-56.4	14.1	0.00e+00	0	28	0	663748608	75	4435
2026-01-05 08:05:50.47	354.17	29.33	-54.3	-56.5	14.1	0.00e+00	0	28	0	665845760	75	4453
2026-01-05 08:05:51.45	353.95	29.20	-54.1	-56.2	14.1	0.00e+00	0	28	0	667942912	74	4574
2026-01-05 08:05:52.45	353.73	29.06	-54.0	-56.0	14.2	0.00e+00	0	27	0	670040064	74	4465
2026-01-05 08:05:53.45	353.51	28.92	-53.9	-55.9	14.2	0.00e+00	0	27	0	672137216	74	4433
2026-01-05 08:05:54.43	353.30	28.79	-53.8	-55.8	14.3	0.00e+00	0	28	0	673185792	74	4368
2026-01-05 08:05:55.42	353.08	28.65	-53.9	-55.9	14.3	0.00e+00	0	28	0	675282944	74	4394
2026-01-05 08:05:56.41	352.87	28.52	-53.9	-55.9	14.3	0.00e+00	0	27	0	677380096	74	4404
2026-01-05 08:05:57.40	352.66	28.38	-53.8	-55.8	14.3	0.00e+00	0	27	0	679477248	74	4359
2026-01-05 08:05:58.38	352.45	28.25	-53.6	-55.6	14.3	0.00e+00	0	27	0	680525824	73	4518
2026-01-05 08:05:59.37	352.25	28.12	-53.7	-55.7	14.2	0.00e+00	0	28	0	682622976	73	4561
2026-01-05 08:06:00.37	352.04	27.98	-53.6	-55.6	14.3	0.00e+00	0	27	0	684720128	73	4526
2026-01-05 08:06:01.36	351.84	27.85	-53.8	-55.8	14.2	0.00e+00	0	27	0	686817280	73	4629
2026-01-05 08:06:02.36	351.63	27.71	-53.5	-55.4	14.4	0.00e+00	0	27	0	688914432	73	4401
2026-01-05 08:06:03.36	351.43	27.58	-53.5	-55.5	14.3	0.00e+00	0	28	0	689963008	73	4457
2026-01-05 08:06:04.35	351.23	27.44	-53.4	-55.3	14.4	0.00e+00	0	28	0	692060160	73	4342
2026-01-05 08:06:05.34	351.03	27.31	-53.4	-55.3	14.4	0.00e+00	0	28	0	694157312	73	4347
2026-01-05 08:06:06.33	350.84	27.18	-53.4	-55.3	14.5	0.00e+00	0	27	0	696254464	73	4342
2026-01-05 08:06:07.31	350.65	27.05	-53.5	-55.5	14.3	0.00e+00	0	27	0	697303040	73	4457
2026-01-05 08:06:08.30	350.46	26.92	-53.5	-55.5	14.3	0.00e+00	0	27	0	699400192	73	4451
2026-01-05 08:06:09.29	350.26	26.78	-53.7	-55.7	14.2	0.00e+00	0	27	0	701497344	73	4567
2026-01-05 08:06:10.28	350.08	26.65	-53.7	-55.7	14.2	0.00e+00	0	27	0	703594496	73	4577
2026-01-05 08:06:11.28	349.89	26.52	-53.8	-55.8	14.2	0.00e+00	0	27	0	704643072	73	4607
2026-01-05 08:06:12.27	349.70	26.39	-53.7	-55.6	14.2	0.00e+00	0	27	0	706740224	73	4533
2026-01-05 08:06:13.27	349.52	26.26	-53.5	-55.5	14.3	0.00e+00	0	27	0	708837376	73	4456
2026-01-05 08:06:14.25	349.34	26.13	-53.5	-55.4	14.3	0.00e+00	0	27	0	710934528	73	4441
2026-01-05 08:06:15.24	349.15	26.00	-53.4	-55.3	14.4	0.00e+00	0	27	0	713031680	73	4388
2026-01-05 08:06:16.23	348.97	25.87	-53.3	-55.2	14.4	0.00e+00	0	27	0	714080256	73	4339
2026-01-05 08:06:17.21	348.80	25.74	-53.5	-55.4	14.4	0.00e+00	0	27	0	716177408	73	4424
2026-01-05 08:06:18.20	348.62	25.61	-53.5	-55.4	14.4	0.00e+00	0	27	0	718274560	73	4436
2026-01-05 08:06:19.19	348.45	25.48	-53.5	-55.5	14.3	0.00e+00	0	28	0	720371712	73	4474
2026-01-05 08:06:20.18	348.27	25.35	-53.7	-55.7	14.2	0.00e+00	0	27	0	721420288	73	4578
2026-01-05 08:06:21.17	348.10	25.23	-53.8	-55.8	14.1	0.00e+00	0	27	0	723517440	73	4636
2026-01-05 08:06:22.16	347.93	25.10	-53.8	-55.9	14.1	0.00e+00	0	27	0	725614592	73	4675
2026-01-05 08:06:23.14	347.76	24.97	-53.8	-55.8	14.2	0.00e+00	0	27	0	727711744	73	4651
2026-01-05 08:06:24.13	347.60	24.84	-53.9	-55.9	14.1	0.00e+00	0	28	0	728760320	73	4702
2026-01-05 08:06:25.12	347.43	24.72	-53.9	-56.0	14.1	0.00e+00	0	27	0	730857472	73	4738
2026-01-05 08:06:26.11	347.26	24.59	-53.7	-55.8	14.1	0.00e+00	0	27	0	732954624	73	4628
2026-01-05 08:06:27.11	347.10	24.46	-53.9	-56.1	14.0	0.00e+00	0	27	0	735051776	73	4761
2026-01-05 08:06:28.10	346.94	24.34	-53.8	-55.8	14.1	0.00e+00	0	27	0	736100352	73	4645
2026-01-05 08:06:29.09	346.77	24.21	-53.8	-55.9	14.1	0.00e+00	0	27	0	738197504	73	4653
2026-01-05 08:06:30.17	346.60	24.08	-53.8	-55.8	14.1	0.00e+00	0	27	0	740294656	73	4647
2026-01-05 08:06:31.02	346.46	23.97	-53.9	-56.0	14.1	0.00e+00	0	28	0	742391808	73	4711
2026-01-05 08:06:32.16	346.28	23.83	-53.8	-55.9	14.1	0.00e+00	0	27	0	744488960	73	4666
2026-01-05 08:06:33.00	346.15	23.72	-53.8	-55.9	14.1	0.00e+00	0	27	0	745537536	73	4668
2026-01-05 08:06:34.13	345.97	23.58	-53.6	-55.7	14.2	0.00e+00	0	27	0	747634688	73	4555
2026-01-05 08:06:34.98	345.84	23.47	-53.6	-55.5	14.2	0.00e+00	0	28	0	749731840	73	4490
2026-01-05 08:06:36.11	345.67	23.33	-53.5	-55.5	14.3	0.00e+00	0	27	0	751828992	73	4484
2026-01-05 08:06:36.96	345.54	23.23	-53.5	-55.4	14.3	0.00e+00	0	28	0	752877568	73	4428
2026-01-05 08:06:38.09	345.37	23.09	-53.4	-55.3	14.3	0.00e+00	0	27	0	754974720	73	4388
2026-01-05 08:06:38.93	345.24	22.99	-53.3	-55.2	14.4	0.00e+00	0	27	0	757071872	73	4336
2026-01-05 08:06:40.06	345.07	22.85	-53.4	-55.3	14.4	0.00e+00	0	27	0	759169024	73	4360
2026-01-05 08:06:40.91	344.95	22.74	-53.5	-55.4	14.3	0.00e+00	0	27	0	760217600	73	4437
2026-01-05 08:06:42.04	344.78	22.61	-53.5	-55.5	14.3	0.00e+00	0	27	0	762314752	73	4472
2026-01-05 08:06:42.89	344.66	22.50	-53.6	-55.6	14.3	0.00e+00	0	27	0	764411904	73	4511
2026-01-05 08:06:44.03	344.49	22.36	-53.6	-55.6	14.2	0.00e+00	0	27	0	766509056	73	4537
2026-01-05 08:06:44.87	344.37	22.26	-53.7	-55.8	14.2	0.00e+00	0	27	0	767557632	73	4607
2026-01-05 08:06:46.00	344.21	22.13	-53.7	-55.7	14.2	0.00e+00	0	27	0	769654784	73	4597
2026-01-05 08:06:46.85	344.09	22.02	-53.7	-55.8	14.1	0.00e+00	0	27	0	771751936	73	4631
2026-01-05 08:06:47.99	343.93	21.89	-53.7	-55.8	14.1	0.00e+00	0	27	0	773849088	73	4615
2026-01-05 08:06:48.84	343.81	21.79	-53.7	-55.8	14.1	0.00e+00	0	27	0	774897664	73	4619
2026-01-05 08:06:49.97	343.66	21.65	-53.7	-55.8	14.1	0.00e+00	0	27	0	776994816	73	4626
2026-01-05 08:06:50.82	343.54	21.55	-53.7	-55.8	14.1	0.00e+00	0	27	0	779091968	73	4633
2026-01-05 08:06:51.95	343.39	21.42	-53.6	-55.6	14.2	0.00e+00	0	27	0	781189120	73	4517
2026-01-05 08:06:52.79	343.28	21.32	-53.7	-55.8	14.1	0.00e+00	0	27	0	783286272	73	4619
2026-01-05 08:06:53.93	343.12	21.19	-53.6	-55.7	14.2	0.00e+00	0	27	0	785383424	73	4555
2026-01-05 08:06:54.78	343.01	21.09	-53.5	-55.5	14.3	0.00e+00	0	28	0	786432000	73	4479
2026-01-05 08:06:55.91	342.86	20.95	-53.4	-55.4	14.3	0.00e+00	0	27	0	788529152	73	4430
2026-01-05 08:06:56.76	342.75	20.86	-53.5	-55.4	14.3	0.00e+00	0	27	0	790626304	73	4432
2026-01-05 08:06:57.89	342.61	20.72	-53.3	-55.2	14.4	0.00e+00	0	27	0	792723456	73	4323
2026-01-05 08:06:58.74	342.50	20.63	-53.4	-55.3	14.3	0.00e+00	0	27	0	793772032	73	4379
2026-01-05 08:06:59.87	342.35	20.50	-53.3	-55.3	14.4	0.00e+00	0	28	0	795869184	73	4365
2026-01-05 08:07:00.73	342.24	20.40	-53.4	-55.4	14.3	0.00e+00	0	27	0	797966336	73	4419
2026-01-05 08:07:01.86	342.10	20.27	-53.5	-55.5	14.3	0.00e+00	0	27	0	800063488	73	4472
2026-01-05 08:07:02.71	342.00	20.17	-53.5	-55.5	14.3	0.00e+00	0	27	0	801112064	73	4469
2026-01-05 08:07:03.84	341.86	20.04	-53.5	-55.5	14.2	0.00e+00	0	27	0	803209216	73	4474
2026-01-05 08:07:04.69	341.75	19.95	-53.6	-55.6	14.2	0.00e+00	0	27	0	805306368	73	4545
2026-01-05 08:07:05.83	341.61	19.82	-53.5	-55.6	14.2	0.00e+00	0	27	0	807403520	73	4505
2026-01-05 08:07:06.68	341.51	19.72	-53.6	-55.7	14.2	0.00e+00	0	28	0	808452096	73	4548
2026-01-05 08:07:07.81	341.37	19.59	-53.5	-55.5	14.2	0.00e+00	0	28	0	810549248	73	4463
2026-01-05 08:07:08.67	341.27	19.50	-53.5	-55.6	14.2	0.00e+00	0	27	0	812646400	73	4521
2026-01-05 08:07:09.80	341.14	19.37	-53.4	-55.4	14.2	0.00e+00	0	27	0	814743552	73	4441
2026-01-05 08:07:10.66	341.04	19.28	-53.4	-55.4	14.3	0.00e+00	0	27	0	815792128	73	4415
2026-01-05 08:07:11.79	340.91	19.15	-53.4	-55.4	14.3	0.00e+00	0	27	0	818937856	73	4421
2026-01-05 08:07:12.64	340.81	19.06	-53.4	-55.3	14.3	0.00e+00	0	28	0	819986432	73	4389
2026-01-05 08:07:13.78	340.68	18.93	-53.4	-55.4	14.3	0.00e+00	0	27	0	822083584	73	4401
2026-01-05 08:07:14.64	340.58	18.84	-53.2	-55.2	14.3	0.00e+00	0	28	0	824180736	73	4306
2026-01-05 08:07:15.78	340.45	18.71	-53.2	-55.2	14.4	0.00e+00	0	27	0	826277888	73	4305
2026-01-05 08:07:16.63	340.35	18.62	-53.3	-55.2	14.4	0.00e+00	0	27	0	827326464	73	4332
2026-01-05 08:07:17.76	340.23	18.50	-53.2	-55.2	14.3	0.00e+00	0	27	0	829423616	72	4556
2026-01-05 08:07:18.61	340.13	18.41	-53.2	-55.1	14.3	0.00e+00	0	27	0	831520768	72	4541
2026-01-05 08:07:19.74	340.01	18.28	-53.3	-55.3	14.3	0.00e+00	0	28	0	833617920	72	4604
2026-01-05 08:07:20.60	339.92	18.19	-53.3	-55.2	14.2	0.00e+00	0	27	0	834666496	72	4576
2026-01-05 08:07:21.73	339.79	18.07	-53.4	-55.4	14.2	0.00e+00	0	27	0	836763648	72	4679
2026-01-05 08:07:22.58	339.70	17.98	-53.3	-55.3	14.2	0.00e+00	0	27	0	838860800	72	4623
2026-01-05 08:07:23.71	339.58	17.86	-53.4	-55.4	14.1	0.00e+00	0	28	0	840957952	72	4684
2026-01-05 08:07:24.57	339.49	17.77	-53.5	-55.6	14.1	0.00e+00	0	27	0	842006528	72	4793
2026-01-05 08:07:25.70	339.37	17.65	-53.5	-55.6	14.0	0.00e+00	0	27	0	844103680	72	4792
2026-01-05 08:07:26.56	339.28	17.56	-53.6	-55.7	14.0	0.00e+00	0	28	0	846200832	72	4835
2026-01-05 08:07:27.69	339.16	17.44	-53.7	-55.8	13.9	0.00e+00	0	27	0	848297984	72	4922
2026-01-05 08:07:28.54	339.08	17.35	-53.7	-55.9	14.0	0.00e+00	0	27	0	849346560	72	4928
2026-01-05 08:07:29.67	338.96	17.23	-53.7	-55.8	14.0	0.00e+00	0	27	0	851443712	72	4894
2026-01-05 08:07:30.52	338.88	17.14	-53.7	-55.8	14.0	0.00e+00	0	28	0	853540864	72	4920
2026-01-05 08:07:31.66	338.76	17.03	-53.6	-55.8	14.0	0.00e+00	0	28	0	855638016	72	4877
2026-01-05 08:07:32.51	338.68	16.94	-53.7	-55.8	14.0	0.00e+00	0	27	0	857735168	72	4913
2026-01-05 08:07:33.65	338.56	16.82	-53.6	-55.7	14.0	0.00e+00	0	27	0	859832320	72	4851
2026-01-05 08:07:34.50	338.48	16.73	-53.5	-55.6	14.0	0.00e+00	0	27	0	860880896	72	4814
2026-01-05 08:07:35.63	338.37	16.62	-53.5	-55.6	14.0	0.00e+00	0	27	0	862978048	72	4798
2026-01-05 08:07:36.48	338.28	16.53	-53.5	-55.7	14.0	0.00e+00	0	27	0	865075200	72	4819
2026-01-05 08:07:37.61	338.18	16.42	-53.5	-55.6	14.0	0.00e+00	0	27	0	867172352	72	4802
2026-01-05 08:07:38.46	338.09	16.33	-53.5	-55.6	14.0	0.00e+00	0	28	0	868220928	72	4774
2026-01-05 08:07:39.60	337.99	16.22	-53.6	-55.8	14.0	0.00e+00	0	27	0	870318080	72	4883
2026-01-05 08:07:40.45	337.90	16.13	-53.6	-55.7	14.0	0.00e+00	0	27	0	872415232	72	4866
2026-01-05 08:07:41.58	337.80	16.02	-53.6	-55.7	14.0	0.00e+00	0	27	0	874512384	72	4837
2026-01-05 08:07:42.43	337.72	15.93	-53.6	-55.7	14.0	0.00e+00	0	27	0	875560960	72	4845
2026-01-05 08:07:43.57	337.61	15.82	-53.6	-55.7	13.9	0.00e+00	0	28	0	877658112	72	4865
2026-01-05 08:07:44.42	337.54	15.73	-53.6	-55.7	14.0	0.00e+00	0	27	0	879755264	72	4846
2026-01-05 08:07:45.56	337.43	15.62	-53.7	-55.8	13.9	0.00e+00	0	27	0	881852416	72	4923
2026-01-05 08:07:46.41	337.35	15.54	-53.7	-55.9	13.9	0.00e+00	0	27	0	882900992	72	4948
2026-01-05 08:07:47.55	337.25	15.42	-53.7	-55.9	13.9	0.00e+00	0	27	0	884998144	72	4931
2026-01-05 08:07:48.40	337.17	15.34	-53.7	-55.9	13.9	0.00e+00	0	27	0	887095296	72	4947
2026-01-05 08:07:49.53	337.07	15.23	-53.6	-55.8	13.9	0.00e+00	0	27	0	889192448	72	4883
2026-01-05 08:07:50.39	337.00	15.15	-53.6	-55.8	13.9	0.00e+00	0	27	0	890241024	72	4880
2026-01-05 08:07:51.52	336.90	15.04	-53.7	-55.9	13.9	0.00e+00	0	27	0	893386752	72	4939
2026-01-05 08:07:52.37	336.82	14.96	-53.7	-55.8	13.9	0.00e+00	0	27	0	894435328	72	4924
2026-01-05 08:07:53.50	336.73	14.85	-53.8	-55.9	13.9	0.00e+00	0	27	0	896532480	72	4974
2026-01-05 08:07:54.35	336.65	14.76	-53.8	-56.0	13.9	0.00e+00	0	28	0	898629632	72	4986
2026-01-05 08:07:55.48	336.56	14.66	-53.8	-55.9	13.9	0.00e+00	0	28	0	900726784	72	4978
2026-01-05 08:07:56.32	336.49	14.58	-53.7	-55.9	13.9	0.00e+00	0	27	0	901775360	72	4973
2026-01-05 08:07:57.45	336.39	14.47	-53.7	-55.9	13.9	0.00e+00	0	27	0	903872512	72	4979
2026-01-05 08:07:58.31	336.32	14.39	-53.8	-56.0	13.8	0.00e+00	0	27	0	905969664	72	5003
2026-01-05 08:07:59.44	336.22	14.28	-53.9	-56.1	13.8	0.00e+00	0	28	0	908066816	72	5083
2026-01-05 08:08:00.28	336.16	14.20	-54.0	-56.3	13.8	0.00e+00	0	27	0	909115392	73	4892
2026-01-05 08:08:01.42	336.06	14.09	-54.1	-56.4	13.7	0.00e+00	0	27	0	911212544	73	4970
2026-01-05 08:08:02.27	335.99	14.01	-54.0	-56.3	13.7	0.00e+00	0	27	0	913309696	73	4907
2026-01-05 08:08:03.41	335.90	13.91	-53.9	-56.2	13.9	0.00e+00	0	27	0	915406848	73	4825
2026-01-05 08:08:04.26	335.83	13.83	-54.0	-56.3	13.8	0.00e+00	0	27	0	916455424	73	4913
2026-01-05 08:08:05.39	335.74	13.72	-54.0	-56.3	13.8	0.00e+00	0	27	0	918552576	73	4888
2026-01-05 08:08:06.24	335.67	13.64	-54.0	-56.4	13.7	0.00e+00	0	27	0	920649728	73	4949
2026-01-05 08:08:07.37	335.58	13.54	-54.1	-56.5	13.7	0.00e+00	0	27	0	922746880	73	4990
2026-01-05 08:08:08.22	335.52	13.46	-54.1	-56.4	13.7	0.00e+00	0	28	0	923795456	73	4969
2026-01-05 08:08:09.35	335.43	13.36	-54.2	-56.6	13.6	0.00e+00	0	28	0	925892608	73	5062
2026-01-05 08:08:10.20	335.36	13.28	-54.2	-56.6	13.6	0.00e+00	0	28	0	927989760	73	5067
2026-01-05 08:08:11.33	335.28	13.18	-54.1	-56.5	13.6	0.00e+00	0	27	0	930086912	73	5006
