passes_logs/2026/01/05/R3.2S_Murmansk/R3.2S_Murmansk__20260105_040651_AQUA_rec.log

#Pass ID: 20260105_040651_AQUA
#Satellite: AQUA
#Configuration: AQUA
#almurnet v.1.7.20251203
#Start time: 2026-01-05 04:06:52

#Version: 2.2.20231116
#Station: R3.2S_Murmansk
#Location: 33.079688 lon 68.888172 lat
#TLE: 1 27424U 02022A   26003.93831470  .00001925  00000+0  39553-3 0  9995
#TLE: 2 27424  98.4067 330.1809 0002003  92.1713 343.8415 14.61796291259276

#Time	Az	El	Level	Level2	SNR	BER	BlckErr	Temp	State	Recorded	gain1	gain2
2026-01-05 04:06:52.87	30.87	2.08	-57.8	-77.1	3.8	7.47e-01	0	25	0	0	84	33231
2026-01-05 04:06:53.87	30.82	2.14	-57.5	-76.9	3.8	7.46e-01	0	25	104	0	82	36511
2026-01-05 04:06:54.85	30.77	2.21	-57.5	-76.9	3.8	7.43e-01	0	25	104	0	82	36383
2026-01-05 04:06:55.85	30.72	2.27	-57.5	-76.9	3.8	7.44e-01	0	25	104	0	82	36469
2026-01-05 04:06:56.85	30.67	2.33	-57.5	-76.9	3.8	7.44e-01	0	25	104	0	82	36431
2026-01-05 04:06:57.85	30.63	2.40	-57.5	-76.9	3.8	7.47e-01	0	25	104	0	82	36475
2026-01-05 04:06:58.84	30.58	2.46	-57.5	-76.9	3.8	7.44e-01	0	26	104	0	82	36428
2026-01-05 04:06:59.84	30.53	2.52	-57.5	-76.9	3.8	7.44e-01	0	26	104	0	82	36419
2026-01-05 04:07:00.84	30.48	2.59	-57.5	-76.9	3.8	7.46e-01	0	26	104	0	82	36361
2026-01-05 04:07:01.83	30.43	2.65	-57.5	-76.9	3.8	7.48e-01	0	26	104	0	82	36342
2026-01-05 04:07:02.84	30.38	2.72	-57.5	-76.9	3.8	7.47e-01	0	26	104	0	82	36451
2026-01-05 04:07:03.84	30.33	2.78	-57.5	-76.9	3.8	7.45e-01	0	26	104	0	82	36366
2026-01-05 04:07:04.84	30.28	2.85	-57.5	-76.9	3.8	7.43e-01	0	26	104	0	82	36358
2026-01-05 04:07:05.83	30.22	2.91	-57.5	-76.9	3.8	7.44e-01	0	26	104	0	82	36372
2026-01-05 04:07:06.83	30.17	2.97	-57.5	-76.9	3.8	7.48e-01	0	26	104	0	82	36394
2026-01-05 04:07:07.83	30.12	3.04	-57.5	-76.9	3.8	7.47e-01	0	26	104	0	82	36429
2026-01-05 04:07:08.83	30.07	3.11	-57.5	-76.9	3.8	7.47e-01	0	26	104	0	82	36358
2026-01-05 04:07:09.83	30.02	3.17	-57.5	-76.9	3.8	7.44e-01	0	26	104	0	82	36379
2026-01-05 04:07:10.83	29.97	3.24	-57.5	-76.9	3.8	7.47e-01	0	26	104	0	82	36297
2026-01-05 04:07:11.83	29.91	3.30	-57.5	-76.9	3.8	7.45e-01	0	26	104	0	82	36238
2026-01-05 04:07:12.84	29.86	3.37	-57.5	-76.9	3.8	7.46e-01	0	26	104	0	82	36353
2026-01-05 04:07:13.84	29.81	3.43	-57.5	-76.9	3.8	7.42e-01	0	26	104	0	82	36148
2026-01-05 04:07:14.83	29.75	3.50	-57.5	-76.8	3.8	7.45e-01	0	26	104	0	82	36069
2026-01-05 04:07:15.83	29.70	3.57	-57.5	-76.9	3.8	7.48e-01	0	26	104	0	82	36306
2026-01-05 04:07:16.83	29.64	3.63	-57.5	-76.9	3.8	7.49e-01	0	26	104	0	82	36264
2026-01-05 04:07:17.83	29.59	3.70	-57.5	-76.9	3.8	7.48e-01	0	26	104	0	82	36223
2026-01-05 04:07:18.83	29.54	3.77	-57.5	-76.9	3.8	7.45e-01	0	26	104	0	82	36229
2026-01-05 04:07:19.82	29.48	3.83	-57.5	-76.9	3.8	7.46e-01	0	26	104	0	82	36347
2026-01-05 04:07:20.82	29.43	3.90	-57.5	-76.9	3.8	7.48e-01	0	26	104	0	82	36221
2026-01-05 04:07:21.83	29.37	3.97	-57.5	-76.8	3.8	7.48e-01	0	26	104	0	82	36085
2026-01-05 04:07:22.83	29.31	4.03	-57.5	-76.9	3.8	7.45e-01	0	26	104	0	82	36112
2026-01-05 04:07:23.84	29.26	4.10	-57.5	-76.9	3.8	7.49e-01	0	26	104	0	82	36193
2026-01-05 04:07:24.84	29.20	4.17	-57.5	-76.9	3.8	7.44e-01	0	26	104	0	82	36292
2026-01-05 04:07:25.83	29.14	4.24	-57.5	-76.9	3.8	7.46e-01	0	26	104	0	82	36269
2026-01-05 04:07:26.83	29.09	4.30	-57.5	-76.8	3.8	7.47e-01	0	26	104	0	82	35970
2026-01-05 04:07:27.83	29.03	4.37	-57.5	-76.6	3.8	7.43e-01	0	26	104	0	82	35271
2026-01-05 04:07:28.83	28.97	4.44	-57.4	-76.4	3.8	7.45e-01	0	26	104	0	82	34411
2026-01-05 04:07:29.82	28.91	4.51	-57.4	-76.2	3.8	7.50e-01	0	26	104	0	82	33646
2026-01-05 04:07:30.83	28.85	4.58	-57.4	-75.9	3.8	7.46e-01	0	26	104	0	82	32300
2026-01-05 04:07:31.83	28.80	4.65	-57.3	-75.4	3.8	7.45e-01	0	26	104	0	82	30387
2026-01-05 04:07:32.83	28.74	4.72	-57.2	-74.8	3.8	7.46e-01	0	26	104	0	82	28352
2026-01-05 04:07:33.83	28.68	4.79	-57.0	-74.1	3.8	7.45e-01	0	26	104	0	82	26262
2026-01-05 04:07:34.83	28.62	4.85	-56.9	-73.4	3.8	7.44e-01	0	26	104	0	82	24135
2026-01-05 04:07:35.83	28.56	4.92	-56.7	-72.5	3.8	7.45e-01	0	26	104	0	82	21907
2026-01-05 04:07:36.84	28.50	4.99	-56.5	-72.0	3.8	7.45e-01	0	27	104	0	82	20607
2026-01-05 04:07:37.84	28.44	5.06	-57.0	-73.3	3.8	7.46e-01	0	26	104	0	82	23923
2026-01-05 04:07:38.84	28.37	5.13	-56.1	-70.7	3.8	7.45e-01	0	26	104	0	81	18847
2026-01-05 04:07:39.84	28.31	5.20	-57.1	-74.9	3.8	7.45e-01	0	26	104	0	81	30711
2026-01-05 04:07:40.84	28.25	5.27	-57.7	-76.0	3.8	7.48e-01	0	26	104	0	83	30979
2026-01-05 04:07:41.83	28.19	5.34	-54.0	-66.7	3.8	7.44e-01	0	26	104	0	77	14907
2026-01-05 04:07:42.83	28.13	5.42	-54.0	-66.7	3.8	7.45e-01	0	26	104	0	77	14902
2026-01-05 04:07:43.83	28.06	5.49	-53.6	-66.1	3.9	7.46e-01	0	26	104	0	76	14818
2026-01-05 04:07:44.83	28.00	5.56	-52.8	-65.0	3.8	7.48e-01	0	26	104	0	74	14619
2026-01-05 04:07:45.83	27.94	5.63	-52.6	-64.6	3.8	7.45e-01	0	27	104	0	74	13982
2026-01-05 04:07:46.83	27.87	5.70	-55.5	-69.1	3.9	7.48e-01	0	27	104	0	78	18566
2026-01-05 04:07:47.83	27.81	5.77	-57.3	-75.0	3.8	7.43e-01	0	27	104	0	82	29253
2026-01-05 04:07:48.82	27.75	5.84	-57.8	-76.3	3.8	7.50e-01	0	26	104	0	83	31922
2026-01-05 04:07:49.81	27.68	5.91	-53.2	-65.4	3.8	7.46e-01	0	27	104	0	75	14393
2026-01-05 04:07:50.80	27.62	5.99	-53.0	-65.3	3.8	7.46e-01	0	27	104	0	75	14236
2026-01-05 04:07:51.80	27.55	6.06	-52.9	-65.0	3.8	7.46e-01	0	27	104	0	75	13790
2026-01-05 04:07:52.79	27.49	6.13	-52.2	-64.1	3.8	7.44e-01	0	27	104	0	73	14031
2026-01-05 04:07:53.79	27.42	6.20	-53.0	-65.2	3.8	7.45e-01	0	27	104	0	73	15921
2026-01-05 04:07:54.79	27.35	6.28	-55.2	-68.8	3.8	7.44e-01	0	27	104	0	78	17931
2026-01-05 04:07:55.78	27.29	6.35	-57.3	-74.5	3.8	7.48e-01	0	27	104	0	82	27509
2026-01-05 04:07:56.78	27.22	6.42	-57.8	-75.8	3.8	7.46e-01	0	27	104	0	83	30273
2026-01-05 04:07:57.77	27.15	6.49	-53.7	-66.1	3.9	7.47e-01	0	27	104	0	76	14862
2026-01-05 04:07:58.76	27.08	6.57	-53.5	-65.8	3.8	7.49e-01	0	27	104	0	76	14342
2026-01-05 04:07:59.76	27.01	6.64	-53.2	-65.4	3.8	7.43e-01	0	27	104	0	75	14498
2026-01-05 04:08:00.76	26.95	6.71	-52.6	-64.6	3.8	7.47e-01	0	27	104	0	74	13996
2026-01-05 04:08:01.76	26.88	6.79	-52.0	-63.9	3.8	7.44e-01	0	27	104	0	73	13604
2026-01-05 04:08:02.76	26.81	6.86	-55.4	-68.8	3.8	7.45e-01	0	27	104	0	78	18010
2026-01-05 04:08:03.75	26.74	6.94	-57.5	-74.2	3.8	7.47e-01	0	27	104	0	82	26692
2026-01-05 04:08:04.74	26.67	7.01	-54.8	-67.5	3.9	7.45e-01	0	27	104	0	78	15478
2026-01-05 04:08:05.74	26.59	7.09	-57.1	-73.1	3.8	7.49e-01	0	27	104	0	81	24937
2026-01-05 04:08:06.74	26.52	7.16	-54.5	-67.4	3.9	7.47e-01	0	27	104	0	78	15313
2026-01-05 04:08:07.74	26.45	7.24	-53.0	-65.1	3.9	7.44e-01	0	27	104	0	75	13920
2026-01-05 04:08:08.73	26.38	7.31	-52.5	-64.5	3.9	7.44e-01	0	27	104	0	74	13819
2026-01-05 04:08:09.73	26.31	7.39	-58.3	-77.4	3.7	7.50e-01	0	27	104	0	84	34334
2026-01-05 04:08:10.73	26.23	7.46	-56.5	-71.0	3.8	7.45e-01	0	27	104	0	82	18515
2026-01-05 04:08:11.73	26.16	7.54	-57.4	-73.9	3.8	7.49e-01	0	27	104	0	82	25841
2026-01-05 04:08:12.73	26.08	7.62	-57.8	-75.6	3.8	7.49e-01	0	27	104	0	83	29529
2026-01-05 04:08:13.73	26.01	7.69	-53.6	-65.9	3.9	7.46e-01	0	27	104	0	76	14499
2026-01-05 04:08:14.73	25.93	7.77	-53.0	-65.1	3.8	7.43e-01	0	27	104	0	75	14003
2026-01-05 04:08:15.73	25.86	7.85	-52.8	-64.7	3.8	7.45e-01	0	27	104	0	74	14208
2026-01-05 04:08:16.73	25.78	7.93	-52.1	-63.9	3.9	7.48e-01	0	27	104	0	73	13637
2026-01-05 04:08:17.73	25.71	8.00	-51.6	-63.3	3.8	7.44e-01	0	27	104	0	72	13434
2026-01-05 04:08:18.73	25.63	8.08	-55.1	-68.3	3.9	7.47e-01	0	27	104	0	77	17952
2026-01-05 04:08:19.73	25.55	8.16	-57.6	-74.2	3.8	7.47e-01	0	27	104	0	82	26501
2026-01-05 04:08:20.73	25.47	8.24	-55.4	-68.7	3.9	7.44e-01	0	27	104	0	80	15917
2026-01-05 04:08:21.73	25.40	8.32	-57.2	-73.4	3.8	7.50e-01	0	27	104	0	82	24256
2026-01-05 04:08:22.73	25.32	8.40	-54.7	-67.6	3.9	7.45e-01	0	27	104	0	78	15633
2026-01-05 04:08:23.73	25.24	8.47	-53.8	-66.2	3.9	7.44e-01	0	27	104	0	76	15003
2026-01-05 04:08:24.73	25.16	8.55	-53.1	-65.3	3.8	7.49e-01	0	27	104	0	75	14227
2026-01-05 04:08:25.73	25.08	8.63	-57.9	-75.0	3.7	7.48e-01	0	27	104	0	83	27465
2026-01-05 04:08:26.73	25.00	8.71	-56.5	-70.9	3.9	7.48e-01	0	27	104	0	82	18241
2026-01-05 04:08:27.74	24.91	8.79	-57.4	-73.4	3.8	7.48e-01	0	27	104	0	82	24281
2026-01-05 04:08:28.73	24.83	8.87	-57.9	-75.5	3.8	7.46e-01	0	27	104	0	83	29195
2026-01-05 04:08:29.73	24.75	8.95	-53.4	-65.6	3.9	7.48e-01	0	27	104	0	76	13898
2026-01-05 04:08:30.73	24.67	9.03	-52.6	-64.5	3.9	7.48e-01	0	27	104	0	74	13784
2026-01-05 04:08:31.73	24.58	9.11	-52.3	-64.1	3.8	7.47e-01	0	27	104	0	73	14030
2026-01-05 04:08:32.73	24.50	9.19	-51.6	-63.3	3.9	7.42e-01	0	27	104	0	72	13416
2026-01-05 04:08:33.73	24.41	9.28	-51.1	-62.7	3.8	7.48e-01	0	27	104	0	71	13316
2026-01-05 04:08:34.74	24.33	9.36	-54.8	-67.6	3.8	7.47e-01	0	27	104	0	77	16552
2026-01-05 04:08:35.74	24.24	9.44	-57.6	-74.1	3.8	7.49e-01	0	27	104	0	82	26249
2026-01-05 04:08:36.74	24.16	9.52	-54.2	-66.6	3.9	7.44e-01	0	27	104	0	77	14861
2026-01-05 04:08:37.75	24.07	9.61	-57.1	-72.4	3.8	7.48e-01	0	27	104	0	81	22902
2026-01-05 04:08:38.75	23.98	9.69	-53.8	-65.9	3.8	7.45e-01	0	27	104	0	76	14419
2026-01-05 04:08:39.75	23.89	9.77	-52.2	-63.9	3.9	7.45e-01	0	27	104	0	73	13629
2026-01-05 04:08:40.75	23.81	9.85	-52.0	-63.7	3.9	7.45e-01	0	27	104	0	73	13330
2026-01-05 04:08:41.75	23.72	9.94	-54.6	-67.2	3.8	7.44e-01	0	27	104	0	76	16835
2026-01-05 04:08:42.75	23.63	10.02	-55.1	-68.0	3.8	7.46e-01	0	27	104	0	77	17397
2026-01-05 04:08:43.75	23.54	10.10	-57.4	-73.4	3.8	7.44e-01	0	27	104	0	82	24243
2026-01-05 04:08:44.75	23.45	10.19	-58.0	-75.6	3.8	7.46e-01	0	27	104	0	83	29516
2026-01-05 04:08:45.76	23.35	10.27	-52.8	-64.5	3.9	7.43e-01	0	27	104	0	74	13875
2026-01-05 04:08:46.75	23.26	10.36	-52.1	-63.9	3.9	7.45e-01	0	27	104	0	73	13611
2026-01-05 04:08:47.76	23.17	10.44	-52.1	-63.9	3.9	7.45e-01	0	27	104	0	73	13579
2026-01-05 04:08:48.76	23.08	10.53	-51.4	-63.1	3.8	7.50e-01	0	27	104	0	72	13158
2026-01-05 04:08:49.76	22.98	10.61	-50.8	-62.3	3.9	7.46e-01	0	27	104	0	70	13543
2026-01-05 04:08:50.75	22.89	10.70	-54.6	-67.2	3.8	7.46e-01	0	27	104	0	76	16824
2026-01-05 04:08:51.74	22.80	10.78	-57.7	-74.2	3.8	7.46e-01	0	27	104	0	83	25234
2026-01-05 04:08:52.74	22.70	10.87	-54.0	-66.4	3.9	7.47e-01	0	27	104	0	77	14430
2026-01-05 04:08:53.73	22.60	10.95	-57.0	-72.0	3.8	7.47e-01	0	27	104	0	81	21947
2026-01-05 04:08:54.73	22.51	11.04	-53.4	-65.6	3.9	7.44e-01	0	27	104	0	76	13896
2026-01-05 04:08:55.73	22.41	11.13	-51.7	-63.4	3.9	7.45e-01	0	27	104	0	72	13644
2026-01-05 04:08:56.73	22.31	11.21	-51.4	-63.0	3.9	7.45e-01	0	27	104	0	72	13011
2026-01-05 04:08:57.72	22.21	11.30	-57.3	-72.6	3.8	7.48e-01	0	27	104	0	82	22157
2026-01-05 04:08:58.71	22.12	11.39	-56.5	-70.6	3.9	7.44e-01	0	27	104	0	82	17653
2026-01-05 04:08:59.71	22.02	11.47	-57.1	-72.2	3.9	7.50e-01	0	27	104	0	81	22411
2026-01-05 04:09:00.71	21.92	11.56	-57.9	-74.9	3.8	7.50e-01	0	27	104	0	83	27356
2026-01-05 04:09:01.71	21.81	11.65	-53.7	-65.8	3.9	7.43e-01	0	27	104	0	76	14347
2026-01-05 04:09:02.70	21.71	11.74	-52.6	-64.5	3.9	7.48e-01	0	27	104	0	74	13767
2026-01-05 04:09:03.70	21.61	11.83	-52.2	-63.9	3.9	7.45e-01	0	27	104	0	73	13716
2026-01-05 04:09:04.70	21.51	11.92	-52.2	-64.0	3.9	7.47e-01	0	27	104	0	73	13802
2026-01-05 04:09:05.69	21.40	12.00	-51.6	-63.2	3.9	7.46e-01	0	27	104	0	72	13384
2026-01-05 04:09:06.69	21.30	12.09	-54.1	-66.5	3.9	7.47e-01	0	27	104	0	75	16393
2026-01-05 04:09:07.69	21.19	12.18	-57.6	-73.4	3.8	7.48e-01	0	27	104	0	82	24299
2026-01-05 04:09:08.69	21.09	12.27	-53.9	-66.3	3.9	7.46e-01	0	27	104	0	77	14239
2026-01-05 04:09:09.69	20.98	12.36	-56.6	-70.9	3.8	7.47e-01	0	27	104	0	80	20370
2026-01-05 04:09:10.69	20.87	12.46	-53.1	-65.0	3.9	7.40e-01	0	27	104	0	75	13871
2026-01-05 04:09:11.68	20.76	12.55	-51.1	-62.7	3.9	7.44e-01	0	27	104	0	71	13349
2026-01-05 04:09:12.68	20.66	12.64	-51.0	-62.4	3.9	7.46e-01	0	27	104	0	71	12956
2026-01-05 04:09:13.68	20.55	12.73	-57.5	-73.0	3.8	7.49e-01	0	27	104	0	82	23183
2026-01-05 04:09:14.68	20.43	12.82	-56.6	-70.7	3.8	7.46e-01	0	27	104	0	82	17685
2026-01-05 04:09:15.68	20.32	12.91	-57.2	-72.4	3.8	7.45e-01	0	27	104	0	82	21723
2026-01-05 04:09:16.68	20.21	13.01	-58.0	-74.9	3.8	7.48e-01	0	27	104	0	83	27260
2026-01-05 04:09:17.68	20.10	13.10	-53.5	-65.7	3.9	7.48e-01	0	27	104	0	76	14191
2026-01-05 04:09:18.68	19.98	13.19	-52.2	-63.9	3.9	7.43e-01	0	27	104	0	73	13681
2026-01-05 04:09:19.67	19.87	13.28	-52.3	-64.0	3.9	7.46e-01	0	27	104	0	73	13843
2026-01-05 04:09:20.67	19.76	13.38	-51.5	-63.1	3.9	7.46e-01	0	27	104	0	72	13168
2026-01-05 04:09:21.68	19.64	13.47	-51.0	-62.5	3.8	7.48e-01	0	27	104	0	71	13024
2026-01-05 04:09:22.68	19.52	13.57	-53.9	-66.1	3.8	7.45e-01	0	27	104	0	75	15621
2026-01-05 04:09:23.68	19.40	13.66	-57.7	-73.7	3.8	7.48e-01	0	27	104	0	83	23737
2026-01-05 04:09:24.68	19.28	13.76	-53.8	-66.1	3.9	7.47e-01	0	27	104	0	77	13935
2026-01-05 04:09:25.67	19.17	13.85	-56.6	-70.6	3.8	7.49e-01	0	27	104	0	80	19732
2026-01-05 04:09:26.68	19.04	13.95	-52.8	-64.5	3.9	7.44e-01	0	27	104	0	74	13735
2026-01-05 04:09:27.67	18.92	14.04	-50.9	-62.4	3.9	7.43e-01	0	27	104	0	71	12819
2026-01-05 04:09:28.68	18.80	14.14	-50.8	-62.3	3.9	7.43e-01	0	27	104	0	70	13447
2026-01-05 04:09:29.67	18.68	14.23	-57.7	-73.7	3.8	7.49e-01	0	27	104	0	83	23735
2026-01-05 04:09:30.67	18.55	14.33	-56.6	-70.7	3.9	7.43e-01	0	27	104	0	82	17778
2026-01-05 04:09:31.67	18.43	14.43	-57.1	-71.8	3.8	7.46e-01	0	27	104	0	81	21473
2026-01-05 04:09:32.67	18.30	14.52	-58.1	-75.0	3.8	7.47e-01	0	27	104	0	83	27486
2026-01-05 04:09:33.67	18.18	14.62	-53.0	-65.0	3.9	7.48e-01	0	27	104	0	75	13839
2026-01-05 04:09:34.67	18.05	14.72	-51.8	-63.4	3.9	7.44e-01	0	27	104	0	72	13699
2026-01-05 04:09:35.66	17.92	14.81	-51.7	-63.3	3.9	7.48e-01	0	27	104	0	72	13464
2026-01-05 04:09:36.66	17.79	14.91	-51.8	-63.4	3.9	7.46e-01	0	27	104	0	72	13693
2026-01-05 04:09:37.67	17.66	15.01	-50.7	-62.2	3.9	7.44e-01	0	27	104	0	70	13283
2026-01-05 04:09:38.67	17.53	15.11	-53.6	-65.6	3.9	7.50e-01	0	27	104	0	74	15682
2026-01-05 04:09:39.66	17.40	15.21	-57.8	-73.6	3.8	7.45e-01	0	27	104	0	83	23580
2026-01-05 04:09:40.66	17.27	15.31	-52.9	-64.9	3.9	7.45e-01	0	27	104	0	75	13634
2026-01-05 04:09:41.67	17.13	15.41	-56.4	-70.0	3.8	7.47e-01	0	27	104	0	80	18475
2026-01-05 04:09:42.66	17.00	15.51	-52.6	-64.5	3.9	7.47e-01	0	27	104	0	74	13806
2026-01-05 04:09:43.67	16.86	15.61	-50.3	-61.7	3.8	7.46e-01	0	27	104	0	69	13268
2026-01-05 04:09:44.66	16.72	15.71	-50.3	-61.7	3.8	7.46e-01	0	27	104	0	69	13307
2026-01-05 04:09:45.66	16.59	15.81	-56.8	-71.1	3.8	7.47e-01	0	27	104	0	81	19694
2026-01-05 04:09:46.66	16.45	15.91	-56.7	-70.7	3.9	7.50e-01	0	27	104	0	82	17867
2026-01-05 04:09:47.66	16.31	16.01	-57.0	-71.3	3.8	7.45e-01	0	27	104	0	81	20192
2026-01-05 04:09:48.66	16.17	16.12	-58.3	-75.0	3.8	7.51e-01	0	27	104	0	84	25875
2026-01-05 04:09:49.66	16.02	16.22	-53.6	-65.7	3.9	7.49e-01	0	27	104	0	76	14118
2026-01-05 04:09:50.66	15.88	16.32	-51.5	-63.1	3.8	7.47e-01	0	27	104	0	72	13185
2026-01-05 04:09:51.66	15.74	16.42	-51.4	-62.9	3.9	7.44e-01	0	27	104	0	72	12920
2026-01-05 04:09:52.66	15.59	16.53	-51.2	-62.8	3.8	7.45e-01	0	27	104	0	71	13421
2026-01-05 04:09:53.64	15.45	16.63	-50.5	-61.9	3.8	7.46e-01	0	27	104	0	70	12933
2026-01-05 04:09:54.65	15.30	16.73	-53.1	-65.0	3.9	7.49e-01	0	27	104	0	73	15480
2026-01-05 04:09:55.64	15.15	16.83	-57.7	-73.3	3.8	7.46e-01	0	27	104	0	83	22701
2026-01-05 04:09:56.64	15.00	16.94	-53.5	-65.6	3.9	7.42e-01	0	27	104	0	76	13898
2026-01-05 04:09:57.63	14.85	17.04	-56.0	-69.2	3.8	7.44e-01	0	27	104	0	79	17881
2026-01-05 04:09:58.63	14.70	17.15	-52.5	-64.3	3.9	7.48e-01	0	27	104	0	74	13541
2026-01-05 04:09:59.63	14.54	17.25	-50.2	-61.6	3.9	7.42e-01	0	27	104	0	69	13155
2026-01-05 04:10:00.62	14.39	17.36	-50.0	-61.4	3.8	7.46e-01	0	27	104	0	69	12815
2026-01-05 04:10:01.62	14.24	17.46	-56.3	-70.0	3.8	7.45e-01	0	27	104	0	80	18405
2026-01-05 04:10:02.61	14.08	17.57	-56.5	-70.3	3.9	7.47e-01	0	27	104	0	82	16964
2026-01-05 04:10:03.61	13.92	17.67	-57.1	-71.5	3.8	7.48e-01	0	27	104	0	81	20635
2026-01-05 04:10:04.61	13.76	17.78	-58.2	-74.4	3.8	7.47e-01	0	27	104	0	84	24383
2026-01-05 04:10:05.61	13.60	17.89	-54.7	-67.1	3.9	7.41e-01	0	27	104	0	78	14713
2026-01-05 04:10:06.61	13.44	17.99	-51.7	-63.2	3.9	7.45e-01	0	27	104	0	72	13414
2026-01-05 04:10:07.61	13.28	18.10	-51.5	-63.1	3.9	7.45e-01	0	27	104	0	72	13141
2026-01-05 04:10:08.62	13.11	18.21	-51.5	-63.1	3.8	7.46e-01	0	27	104	0	72	13147
2026-01-05 04:10:09.61	12.95	18.32	-50.9	-62.4	3.9	7.45e-01	0	27	104	0	71	12849
2026-01-05 04:10:10.61	12.78	18.43	-53.1	-65.0	3.9	7.47e-01	0	27	104	0	73	15451
2026-01-05 04:10:11.61	12.61	18.53	-57.5	-72.4	3.8	7.49e-01	0	27	104	0	82	21577
2026-01-05 04:10:12.60	12.45	18.64	-54.3	-66.9	3.9	7.42e-01	0	27	104	0	78	14518
2026-01-05 04:10:13.61	12.27	18.75	-55.5	-68.3	3.8	7.45e-01	0	27	104	0	78	16923
2026-01-05 04:10:14.62	12.10	18.86	-52.4	-64.1	3.9	7.50e-01	0	27	104	0	74	13247
2026-01-05 04:10:15.62	11.93	18.97	-50.2	-61.6	3.8	7.43e-01	0	27	104	0	69	13168
2026-01-05 04:10:16.62	11.75	19.08	-49.9	-61.2	3.9	7.46e-01	0	27	104	0	69	12614
2026-01-05 04:10:17.63	11.57	19.19	-55.8	-69.0	3.8	7.49e-01	0	27	104	0	79	17435
2026-01-05 04:10:18.62	11.40	19.30	-56.6	-70.4	3.8	7.43e-01	0	27	104	0	82	17202
2026-01-05 04:10:19.63	11.22	19.41	-57.2	-71.8	3.8	7.47e-01	0	27	104	0	82	20221
2026-01-05 04:10:20.63	11.04	19.52	-58.5	-75.2	3.8	7.49e-01	0	27	104	0	84	26502
2026-01-05 04:10:21.63	10.86	19.64	-53.8	-66.0	3.9	7.46e-01	0	27	104	0	77	13736
2026-01-05 04:10:22.63	10.67	19.75	-51.5	-63.0	3.8	7.51e-01	0	27	104	0	71	13746
2026-01-05 04:10:23.64	10.49	19.86	-51.2	-62.7	3.9	7.46e-01	0	27	104	0	71	13364
2026-01-05 04:10:24.64	10.30	19.97	-51.2	-62.7	3.9	7.44e-01	0	27	104	0	71	13396
2026-01-05 04:10:25.64	10.11	20.08	-50.7	-62.1	3.9	7.46e-01	0	27	104	0	70	13124
2026-01-05 04:10:26.63	9.93	20.20	-53.1	-65.0	3.8	7.47e-01	0	27	104	0	73	15445
2026-01-05 04:10:27.64	9.73	20.31	-58.0	-73.6	3.7	7.50e-01	0	27	104	0	83	23332
2026-01-05 04:10:28.64	9.54	20.42	-54.0	-66.2	3.9	7.45e-01	0	27	104	0	77	14092
2026-01-05 04:10:29.64	9.35	20.54	-56.1	-69.3	3.8	7.46e-01	0	27	104	0	79	18020
2026-01-05 04:10:30.64	9.15	20.65	-52.5	-64.3	3.9	7.46e-01	0	27	104	0	74	13549
2026-01-05 04:10:31.64	8.96	20.76	-50.6	-61.9	3.8	7.46e-01	0	27	104	0	70	12894
2026-01-05 04:10:32.64	8.76	20.88	-50.4	-61.8	3.8	7.47e-01	0	27	104	0	70	12667
2026-01-05 04:10:33.64	8.56	20.99	-57.1	-71.2	3.8	7.48e-01	0	27	104	0	81	19923
2026-01-05 04:10:34.64	8.36	21.10	-57.0	-71.3	3.8	7.44e-01	0	27	104	0	83	17940
2026-01-05 04:10:35.63	8.16	21.22	-57.4	-72.0	3.8	7.49e-01	0	27	104	0	82	20648
2026-01-05 04:10:36.64	7.95	21.33	-58.7	-76.0	3.8	7.46e-01	0	27	104	0	85	27451
2026-01-05 04:10:37.64	7.75	21.45	-53.7	-65.6	3.9	7.45e-01	0	27	104	0	76	13894
2026-01-05 04:10:38.64	7.54	21.56	-51.0	-62.5	3.9	7.43e-01	0	27	104	0	70	13847
2026-01-05 04:10:39.63	7.33	21.68	-50.7	-62.2	3.8	7.43e-01	0	27	104	0	70	13284
2026-01-05 04:10:40.63	7.12	21.79	-50.4	-61.8	3.9	7.47e-01	0	27	104	0	70	12737
2026-01-05 04:10:41.63	6.91	21.91	-51.3	-62.9	3.8	7.44e-01	0	27	104	0	70	14380
2026-01-05 04:10:42.62	6.70	22.02	-55.9	-69.1	3.8	7.45e-01	0	27	104	0	79	17494
2026-01-05 04:10:43.62	6.48	22.14	-57.4	-71.9	3.8	7.48e-01	0	27	104	0	82	20454
2026-01-05 04:10:44.63	6.26	22.25	-58.7	-75.6	3.8	7.44e-01	0	27	104	0	85	26370
2026-01-05 04:10:45.63	6.04	22.37	-54.5	-66.9	3.9	7.43e-01	0	27	104	0	78	14461
2026-01-05 04:10:46.63	5.82	22.49	-52.7	-64.5	3.9	7.44e-01	0	27	104	0	74	13758
2026-01-05 04:10:47.64	5.59	22.60	-52.5	-64.2	3.9	7.47e-01	0	27	104	0	74	13378
2026-01-05 04:10:48.63	5.37	22.72	-51.8	-63.4	3.8	7.43e-01	0	27	104	0	72	13664
2026-01-05 04:10:49.63	5.15	22.84	-51.8	-63.4	3.8	7.48e-01	0	27	104	0	72	13592
2026-01-05 04:10:50.63	4.92	22.95	-53.5	-65.4	3.9	7.46e-01	0	27	104	0	74	15305
2026-01-05 04:10:51.62	4.69	23.07	-58.4	-74.5	3.8	7.48e-01	0	27	104	0	84	24489
2026-01-05 04:10:52.62	4.46	23.18	-54.2	-66.2	3.9	7.47e-01	0	27	104	0	77	14158
2026-01-05 04:10:53.61	4.23	23.30	-55.8	-68.7	3.8	7.49e-01	0	27	104	0	79	16873
2026-01-05 04:10:54.60	3.99	23.42	-53.1	-64.9	3.9	7.43e-01	0	27	104	0	75	13623
2026-01-05 04:10:55.60	3.76	23.53	-50.6	-62.0	3.8	7.46e-01	0	27	104	0	70	13038
2026-01-05 04:10:56.59	3.52	23.65	-50.2	-61.5	3.9	7.43e-01	0	27	104	0	69	13041
2026-01-05 04:10:57.59	3.28	23.77	-55.7	-68.5	3.8	7.48e-01	0	27	104	0	78	17372
2026-01-05 04:10:58.58	3.04	23.88	-52.2	-63.8	3.9	7.46e-01	0	27	104	0	73	13541
2026-01-05 04:10:59.58	2.79	24.00	-57.9	-73.1	3.8	7.47e-01	0	28	104	0	83	22097
2026-01-05 04:11:00.57	2.55	24.12	-55.0	-67.6	3.9	7.47e-01	0	27	104	0	79	14793
2026-01-05 04:11:01.57	2.30	24.23	-55.7	-68.8	3.8	7.46e-01	0	27	104	0	79	17049
2026-01-05 04:11:02.56	2.05	24.35	-53.0	-64.8	3.9	7.42e-01	0	27	104	0	75	13468
2026-01-05 04:11:03.56	1.80	24.47	-50.7	-62.1	3.9	7.45e-01	0	27	104	0	70	13203
2026-01-05 04:11:04.56	1.54	24.58	-50.5	-61.9	3.8	7.43e-01	0	27	104	0	70	12904
2026-01-05 04:11:05.55	1.29	24.70	-55.5	-68.3	3.8	7.49e-01	0	27	104	0	78	16977
2026-01-05 04:11:06.55	1.03	24.82	-57.6	-72.1	3.9	7.46e-01	0	27	104	0	84	18653
2026-01-05 04:11:07.55	0.77	24.93	-57.3	-71.4	3.8	7.49e-01	0	27	104	0	82	19366
2026-01-05 04:11:08.55	0.50	25.05	-58.6	-75.0	3.8	7.47e-01	0	27	104	0	85	24544
2026-01-05 04:11:09.54	0.24	25.17	-55.8	-69.0	4.0	7.47e-01	0	28	104	0	81	15437
2026-01-05 04:11:10.55	359.97	25.28	-50.9	-62.3	3.8	7.47e-01	0	27	104	0	70	13474
2026-01-05 04:11:11.54	359.71	25.40	-50.5	-61.8	3.8	7.43e-01	0	27	104	0	70	12807
2026-01-05 04:11:12.55	359.43	25.52	-50.4	-61.7	3.9	7.43e-01	0	27	104	0	69	13405
2026-01-05 04:11:13.54	359.16	25.63	-50.4	-61.7	3.8	7.44e-01	0	27	104	0	69	13318
2026-01-05 04:11:14.55	358.88	25.75	-52.6	-64.3	3.9	7.43e-01	0	27	104	0	72	15138
2026-01-05 04:11:15.54	358.61	25.87	-57.7	-72.6	3.8	7.47e-01	0	27	104	0	83	21012
2026-01-05 04:11:16.54	358.33	25.98	-56.6	-70.2	3.9	7.42e-01	0	27	104	0	82	16848
2026-01-05 04:11:17.54	358.05	26.10	-55.3	-67.9	3.8	7.46e-01	0	27	104	0	78	16293
2026-01-05 04:11:18.54	357.76	26.21	-53.9	-66.1	3.9	7.46e-01	0	27	104	0	77	13905
2026-01-05 04:11:19.54	357.47	26.33	-50.9	-62.4	3.9	7.45e-01	0	27	104	0	71	12853
2026-01-05 04:11:20.54	357.19	26.44	-50.3	-61.6	3.9	7.47e-01	0	27	104	0	69	13124
2026-01-05 04:11:21.53	356.90	26.56	-54.2	-66.0	3.8	7.48e-01	0	27	104	0	75	15566
2026-01-05 04:11:22.54	356.60	26.67	-52.2	-63.8	3.8	7.45e-01	0	27	104	0	73	13478
2026-01-05 04:11:23.54	356.31	26.79	-57.8	-72.5	3.8	7.46e-01	0	27	104	0	83	20774
2026-01-05 04:11:24.53	356.01	26.90	-56.0	-69.2	3.9	7.42e-01	0	28	104	0	81	15796
2026-01-05 04:11:25.53	355.71	27.01	-55.0	-67.3	3.8	7.48e-01	0	27	104	0	77	16047
2026-01-05 04:11:26.53	355.41	27.13	-53.3	-65.2	3.9	7.42e-01	0	28	104	0	76	13334
2026-01-05 04:11:27.53	355.11	27.24	-50.3	-61.5	3.8	7.45e-01	0	28	104	0	69	13105
2026-01-05 04:11:28.52	354.80	27.35	-49.8	-61.1	3.8	7.43e-01	0	27	104	0	68	13207
2026-01-05 04:11:29.52	354.50	27.46	-55.0	-67.4	3.8	7.47e-01	0	27	104	0	77	16269
2026-01-05 04:11:30.52	354.18	27.57	-51.9	-63.4	3.9	7.44e-01	0	27	104	0	73	12898
2026-01-05 04:11:31.52	353.87	27.69	-57.8	-72.5	3.8	7.44e-01	0	28	104	0	83	20704
2026-01-05 04:11:32.52	353.56	27.80	-56.5	-70.0	3.9	7.45e-01	0	27	104	0	82	16459
2026-01-05 04:11:33.53	353.23	27.91	-55.2	-67.5	3.8	7.42e-01	0	27	104	0	77	16342
2026-01-05 04:11:34.52	352.92	28.02	-53.9	-65.9	3.9	7.45e-01	0	27	104	0	77	13627
2026-01-05 04:11:35.52	352.60	28.13	-50.7	-62.0	3.9	7.42e-01	0	27	104	0	70	13067
2026-01-05 04:11:36.52	352.27	28.24	-50.1	-61.4	3.8	7.44e-01	0	28	104	0	69	12815
2026-01-05 04:11:37.53	351.94	28.34	-53.4	-65.3	3.8	7.45e-01	0	27	104	0	74	15122
2026-01-05 04:11:38.52	351.61	28.45	-51.9	-63.4	3.9	7.47e-01	0	27	104	0	73	12841
2026-01-05 04:11:39.52	351.28	28.56	-57.8	-72.5	3.8	7.47e-01	0	28	104	0	83	20613
2026-01-05 04:11:40.51	350.95	28.66	-56.7	-70.1	3.9	7.42e-01	0	27	104	0	82	16612
2026-01-05 04:11:41.52	350.61	28.77	-55.0	-67.2	3.8	7.46e-01	0	27	104	0	77	15942
2026-01-05 04:11:42.51	350.28	28.88	-53.1	-64.8	3.9	7.47e-01	0	27	104	0	75	13481
2026-01-05 04:11:43.52	349.93	28.98	-50.0	-61.3	3.8	7.47e-01	0	27	104	0	69	12793
2026-01-05 04:11:44.52	349.59	29.09	-49.6	-60.9	3.8	7.46e-01	0	27	104	0	68	12827
2026-01-05 04:11:45.52	349.24	29.19	-53.9	-65.9	3.8	7.47e-01	0	28	104	0	75	15379
2026-01-05 04:11:46.52	348.90	29.29	-51.8	-63.2	3.8	7.46e-01	0	27	104	0	72	13302
2026-01-05 04:11:47.51	348.55	29.39	-57.4	-71.4	3.8	7.48e-01	0	28	104	0	82	19301
2026-01-05 04:11:48.51	348.20	29.49	-56.9	-70.6	3.9	7.41e-01	0	27	104	0	83	16671
2026-01-05 04:11:49.51	347.84	29.59	-54.3	-66.6	3.8	7.44e-01	0	28	104	0	76	15607
2026-01-05 04:11:50.50	347.49	29.69	-53.3	-65.3	3.9	7.48e-01	0	27	104	0	76	13502
2026-01-05 04:11:51.50	347.13	29.79	-50.0	-61.2	3.9	7.44e-01	0	27	104	0	69	12656
2026-01-05 04:11:52.49	346.77	29.89	-49.6	-60.8	3.9	7.46e-01	0	27	104	0	68	12762
2026-01-05 04:11:53.49	346.41	29.98	-52.9	-64.7	3.8	7.49e-01	0	27	104	0	73	14909
2026-01-05 04:11:54.48	346.05	30.08	-51.9	-63.4	3.8	7.45e-01	0	27	104	0	73	12934
2026-01-05 04:11:55.48	345.68	30.17	-57.5	-71.4	3.8	7.47e-01	0	27	104	0	82	19347
2026-01-05 04:11:56.47	345.31	30.27	-56.8	-70.4	3.9	7.44e-01	0	27	104	0	83	16304
2026-01-05 04:11:57.46	344.94	30.36	-53.3	-65.3	3.8	7.48e-01	0	27	104	0	74	15157
2026-01-05 04:11:58.46	344.57	30.45	-54.6	-66.8	3.9	7.44e-01	0	27	104	0	78	14240
2026-01-05 04:11:59.45	344.19	30.54	-50.0	-61.2	3.8	7.46e-01	0	27	104	0	69	12635
2026-01-05 04:12:00.45	343.81	30.63	-49.9	-61.1	3.8	7.45e-01	0	27	104	0	68	13209
2026-01-05 04:12:01.44	343.44	30.72	-52.9	-64.7	3.8	7.43e-01	0	27	104	0	73	14932
2026-01-05 04:12:02.45	343.05	30.81	-57.9	-72.5	3.8	7.48e-01	0	28	104	0	85	18457
2026-01-05 04:12:03.45	342.66	30.89	-57.3	-71.0	3.8	7.47e-01	0	27	104	0	82	18435
2026-01-05 04:12:04.45	342.27	30.98	-58.7	-74.3	3.8	7.47e-01	0	27	104	0	86	21326
2026-01-05 04:12:05.45	341.88	31.06	-57.9	-72.9	4.0	7.41e-01	0	28	104	0	85	19328
2026-01-05 04:12:06.45	341.49	31.14	-50.1	-61.3	3.8	7.45e-01	0	27	104	0	69	12809
2026-01-05 04:12:07.44	341.10	31.22	-49.9	-61.1	3.8	7.46e-01	0	28	104	0	69	12493
2026-01-05 04:12:08.44	340.70	31.30	-49.7	-61.0	3.8	7.47e-01	0	27	104	0	68	13002
2026-01-05 04:12:09.43	340.31	31.38	-49.7	-61.0	3.8	7.45e-01	0	27	104	0	68	12974
2026-01-05 04:12:10.43	339.91	31.46	-51.6	-63.0	3.9	7.45e-01	0	28	104	0	70	14610
2026-01-05 04:12:11.43	339.51	31.54	-57.0	-70.4	3.8	7.50e-01	0	28	104	0	81	18105
2026-01-05 04:12:12.43	339.10	31.61	-58.0	-72.8	3.9	7.44e-01	0	27	104	0	85	18967
2026-01-05 04:12:13.43	338.70	31.69	-53.5	-65.3	3.8	7.46e-01	0	28	104	0	74	15080
2026-01-05 04:12:14.44	338.28	31.76	-54.6	-66.7	3.9	7.47e-01	0	28	104	0	78	14129
2026-01-05 04:12:15.44	337.87	31.83	-50.0	-61.2	3.8	7.46e-01	0	28	104	0	69	12583
2026-01-05 04:12:16.43	337.47	31.90	-49.9	-61.2	3.8	7.42e-01	0	27	104	0	68	13285
2026-01-05 04:12:17.44	337.05	31.97	-52.6	-64.2	3.8	7.46e-01	0	27	104	0	72	14911
2026-01-05 04:12:18.44	336.63	32.03	-57.7	-71.9	3.8	7.46e-01	0	27	104	0	84	18246
2026-01-05 04:12:19.44	336.22	32.10	-57.5	-71.3	3.8	7.47e-01	0	28	104	0	82	19079
2026-01-05 04:12:20.45	335.79	32.16	-58.8	-74.7	3.8	7.48e-01	0	28	104	0	86	22363
2026-01-05 04:12:21.46	335.37	32.23	-57.9	-72.6	4.0	7.43e-01	0	27	104	0	85	18703
2026-01-05 04:12:22.46	334.94	32.29	-50.2	-61.4	3.8	7.48e-01	0	27	104	0	69	12848
2026-01-05 04:12:23.46	334.52	32.34	-49.9	-61.1	3.8	7.44e-01	0	28	104	0	69	12435
2026-01-05 04:12:24.46	334.10	32.40	-49.8	-61.1	3.8	7.46e-01	0	27	104	0	68	13183
2026-01-05 04:12:25.47	333.66	32.46	-50.1	-61.3	3.8	7.49e-01	0	28	104	0	68	13492
2026-01-05 04:12:26.47	333.24	32.51	-52.1	-63.5	3.8	7.47e-01	0	28	104	0	71	14610
2026-01-05 04:12:27.47	332.81	32.56	-57.9	-72.3	3.8	7.46e-01	0	28	104	0	83	20244
2026-01-05 04:12:28.47	332.37	32.61	-56.9	-70.6	3.9	7.41e-01	0	27	104	0	83	16534
2026-01-05 04:12:29.47	331.94	32.66	-54.8	-67.1	3.8	7.43e-01	0	27	104	0	77	15658
2026-01-05 04:12:30.48	331.50	32.71	-54.1	-66.0	3.9	7.44e-01	0	27	104	0	77	13824
2026-01-05 04:12:31.48	331.07	32.75	-50.0	-61.2	3.8	7.45e-01	0	27	104	0	69	12578
2026-01-05 04:12:32.47	330.63	32.80	-49.7	-60.9	3.9	7.46e-01	0	28	104	0	68	12958
2026-01-05 04:12:33.47	330.20	32.84	-54.6	-66.7	3.8	7.46e-01	0	28	104	0	76	15832
2026-01-05 04:12:34.46	329.76	32.88	-54.8	-67.2	3.9	7.43e-01	0	27	104	0	79	14128
2026-01-05 04:12:35.45	329.33	32.92	-57.4	-71.1	3.8	7.50e-01	0	27	104	0	82	18658
2026-01-05 04:12:36.45	328.89	32.95	-58.1	-72.8	3.9	7.42e-01	0	27	104	0	85	19028
2026-01-05 04:12:37.45	328.44	32.99	-54.0	-65.9	3.8	7.49e-01	0	28	104	0	75	15257
2026-01-05 04:12:38.45	328.00	33.02	-55.0	-67.2	3.8	7.47e-01	0	27	104	0	79	14189
2026-01-05 04:12:39.46	327.55	33.05	-50.2	-61.6	3.9	7.46e-01	0	27	104	0	69	13116
2026-01-05 04:12:40.46	327.11	33.08	-50.2	-61.4	3.8	7.47e-01	0	27	104	0	69	12955
2026-01-05 04:12:41.46	326.66	33.11	-54.0	-65.9	3.8	7.49e-01	0	27	104	0	75	15287
2026-01-05 04:12:42.46	326.21	33.13	-58.4	-73.7	3.9	7.44e-01	0	27	104	0	86	19842
2026-01-05 04:12:43.46	325.77	33.15	-57.9	-72.2	3.8	7.49e-01	0	27	104	0	83	19966
2026-01-05 04:12:44.46	325.32	33.17	-59.1	-75.2	3.8	7.45e-01	0	27	104	0	86	23853
2026-01-05 04:12:45.46	324.87	33.19	-57.4	-71.4	4.1	7.42e-01	0	28	104	0	84	17269
2026-01-05 04:12:46.46	324.42	33.21	-50.6	-61.8	3.8	7.44e-01	0	27	104	0	70	12798
2026-01-05 04:12:47.47	323.97	33.23	-50.5	-61.9	3.9	7.45e-01	0	27	104	0	70	12852
2026-01-05 04:12:48.47	323.52	33.24	-50.5	-61.8	3.8	7.44e-01	0	28	104	0	70	12735
2026-01-05 04:12:49.47	323.07	33.25	-50.4	-61.7	3.8	7.43e-01	0	27	104	0	70	12604
2026-01-05 04:12:50.46	322.62	33.26	-52.1	-63.3	3.8	7.44e-01	0	28	104	0	71	14295
2026-01-05 04:12:51.46	322.17	33.27	-57.7	-71.5	3.8	7.46e-01	0	28	104	0	82	19412
2026-01-05 04:12:52.46	321.72	33.27	-58.1	-72.8	3.9	7.42e-01	0	27	104	0	85	18955
2026-01-05 04:12:53.46	321.27	33.28	-54.5	-66.6	3.8	7.49e-01	0	28	104	0	76	15728
2026-01-05 04:12:54.46	320.82	33.28	-55.3	-67.4	3.8	7.47e-01	0	28	104	0	79	14437
2026-01-05 04:12:55.46	320.37	33.28	-49.6	-52.0	5.0	7.04e-01	92	28	104	0	68	4600
2026-01-05 04:12:56.46	319.92	33.28	-49.8	-51.4	15.4	6.01e-01	0	28	0	1048576	68	4309
2026-01-05 04:12:57.46	319.47	33.27	-49.9	-51.4	15.4	6.04e-01	0	28	0	3145728	68	4336
2026-01-05 04:12:58.44	319.03	33.27	-49.7	-51.2	15.4	6.03e-01	0	28	0	4718592	68	4220
2026-01-05 04:12:59.44	318.58	33.26	-49.6	-51.2	15.4	6.02e-01	0	28	0	6815744	68	4205
2026-01-05 04:13:00.43	318.13	33.25	-49.8	-51.4	15.4	6.03e-01	0	27	0	8388608	68	4298
2026-01-05 04:13:01.43	317.68	33.23	-49.9	-51.5	15.4	6.01e-01	0	27	0	10485760	68	4352
2026-01-05 04:13:02.43	317.23	33.22	-50.1	-51.7	15.3	6.03e-01	0	28	0	12058624	68	4468
2026-01-05 04:13:03.42	316.78	33.20	-50.1	-51.7	15.3	6.03e-01	0	28	0	14155776	68	4459
2026-01-05 04:13:04.42	316.34	33.19	-49.6	-51.0	15.5	6.02e-01	0	28	0	16252928	68	4145
2026-01-05 04:13:05.41	315.89	33.17	-49.3	-50.8	15.4	6.01e-01	0	27	0	17825792	67	4255
2026-01-05 04:13:06.40	315.45	33.15	-49.5	-51.0	15.4	6.03e-01	0	27	0	19922944	67	4363
2026-01-05 04:13:07.40	315.00	33.12	-49.7	-51.3	15.4	6.03e-01	0	27	0	21495808	68	4246
2026-01-05 04:13:08.40	314.56	33.10	-49.8	-51.4	15.3	6.02e-01	0	27	0	23592960	67	4563
2026-01-05 04:13:09.41	314.11	33.07	-50.1	-51.7	15.2	6.02e-01	0	27	0	25165824	67	4736
2026-01-05 04:13:10.41	313.66	33.04	-50.4	-52.0	15.3	6.02e-01	0	28	0	27262976	68	4645
2026-01-05 04:13:11.40	313.22	33.01	-50.3	-51.9	15.3	6.03e-01	0	27	0	28835840	68	4569
2026-01-05 04:13:12.40	312.78	32.98	-50.0	-51.5	15.4	6.05e-01	0	28	0	30932992	68	4383
2026-01-05 04:13:13.40	312.34	32.94	-50.0	-51.5	15.4	6.01e-01	0	27	0	33030144	68	4387
2026-01-05 04:13:14.40	311.90	32.90	-49.7	-51.2	15.5	6.01e-01	0	28	0	34603008	68	4200
2026-01-05 04:13:15.40	311.46	32.86	-49.5	-50.9	15.5	6.04e-01	0	28	0	36700160	68	4095
2026-01-05 04:13:16.40	311.02	32.82	-49.6	-51.1	15.4	6.03e-01	0	27	0	38273024	68	4190
2026-01-05 04:13:17.40	310.58	32.78	-49.9	-51.5	15.3	6.04e-01	0	27	0	40370176	68	4360
2026-01-05 04:13:18.40	310.14	32.74	-50.2	-51.8	15.3	6.02e-01	0	27	0	41943040	68	4514
2026-01-05 04:13:19.40	309.71	32.69	-50.1	-51.8	15.3	6.02e-01	0	27	0	44040192	68	4498
2026-01-05 04:13:20.39	309.28	32.65	-49.9	-51.5	15.4	6.05e-01	0	27	0	46137344	68	4369
2026-01-05 04:13:21.39	308.84	32.60	-49.6	-51.1	15.5	6.00e-01	0	28	0	47710208	68	4192
2026-01-05 04:13:22.39	308.41	32.55	-49.7	-51.2	15.5	6.02e-01	0	28	0	49807360	68	4215
2026-01-05 04:13:23.39	307.98	32.49	-49.9	-51.5	15.4	6.04e-01	0	27	0	51380224	68	4368
2026-01-05 04:13:24.39	307.55	32.44	-50.0	-51.6	15.3	6.02e-01	0	28	0	53477376	68	4423
2026-01-05 04:13:25.39	307.13	32.38	-49.9	-51.5	15.4	6.03e-01	0	28	0	55574528	68	4344
2026-01-05 04:13:26.39	306.70	32.32	-50.0	-51.6	15.4	6.03e-01	0	27	0	57147392	68	4402
2026-01-05 04:13:27.39	306.28	32.27	-49.9	-51.5	15.4	6.01e-01	0	27	0	59244544	68	4341
2026-01-05 04:13:28.38	305.86	32.21	-50.0	-51.6	15.3	6.03e-01	0	28	0	60817408	68	4396
2026-01-05 04:13:29.38	305.44	32.14	-50.6	-52.3	15.3	6.02e-01	0	27	0	62914560	69	4510
2026-01-05 04:13:30.38	305.02	32.08	-51.0	-52.8	15.2	6.02e-01	0	28	0	64487424	69	4795
2026-01-05 04:13:31.38	304.60	32.01	-50.6	-52.3	15.2	6.04e-01	0	27	0	66584576	68	4782
2026-01-05 04:13:32.38	304.19	31.95	-50.4	-52.0	15.3	6.03e-01	0	27	0	68681728	68	4644
2026-01-05 04:13:33.37	303.78	31.88	-50.2	-51.9	15.3	6.03e-01	0	28	0	70254592	68	4552
2026-01-05 04:13:34.38	303.36	31.81	-50.0	-51.6	15.4	6.03e-01	0	28	0	72351744	68	4411
2026-01-05 04:13:35.37	302.96	31.74	-49.6	-51.1	15.5	6.01e-01	0	27	0	73924608	68	4182
2026-01-05 04:13:36.37	302.55	31.66	-49.5	-50.9	15.5	6.03e-01	0	27	0	76021760	68	4088
2026-01-05 04:13:37.37	302.14	31.59	-50.1	-51.6	15.4	6.00e-01	0	27	0	77594624	69	4186
2026-01-05 04:13:38.37	301.74	31.51	-50.6	-52.3	15.3	6.03e-01	0	27	0	79691776	69	4509
2026-01-05 04:13:39.37	301.33	31.44	-50.8	-52.6	15.2	6.03e-01	0	27	0	81788928	69	4668
2026-01-05 04:13:40.37	300.93	31.36	-50.7	-52.4	15.2	6.03e-01	0	28	0	83361792	69	4582
2026-01-05 04:13:41.37	300.54	31.28	-49.7	-51.3	15.3	6.01e-01	0	27	0	85458944	67	4501
2026-01-05 04:13:42.37	300.14	31.20	-49.7	-51.2	15.5	6.01e-01	0	27	0	87031808	68	4201
2026-01-05 04:13:43.38	299.74	31.12	-49.9	-51.4	15.4	6.04e-01	0	27	0	89128960	68	4327
2026-01-05 04:13:44.37	299.35	31.03	-50.1	-51.7	15.3	6.02e-01	0	27	0	90701824	68	4449
2026-01-05 04:13:45.37	298.96	30.95	-50.4	-52.1	15.2	6.02e-01	0	27	0	92798976	68	4686
2026-01-05 04:13:46.37	298.57	30.86	-50.5	-52.1	15.2	6.03e-01	0	27	0	94896128	68	4705
2026-01-05 04:13:47.37	298.19	30.78	-49.5	-51.0	15.4	6.04e-01	0	27	0	96468992	67	4375
2026-01-05 04:13:48.36	297.81	30.69	-49.7	-51.3	15.5	6.04e-01	0	28	0	98566144	68	4243
2026-01-05 04:13:49.36	297.43	30.60	-50.9	-52.7	15.2	6.01e-01	0	27	0	100139008	69	4726
2026-01-05 04:13:50.36	297.05	30.51	-50.3	-52.0	15.3	6.01e-01	0	27	0	102236160	68	4606
2026-01-05 04:13:51.35	296.67	30.42	-49.9	-51.4	15.4	6.00e-01	0	27	0	103809024	68	4309
2026-01-05 04:13:52.36	296.30	30.33	-50.5	-52.2	15.3	6.02e-01	0	27	0	105906176	69	4452
2026-01-05 04:13:53.36	295.92	30.23	-50.3	-52.0	15.4	6.01e-01	0	27	0	107479040	69	4356
2026-01-05 04:13:54.35	295.56	30.14	-50.2	-51.7	15.4	6.03e-01	0	27	0	109576192	69	4228
2026-01-05 04:13:55.35	295.19	30.04	-50.1	-51.7	15.4	6.02e-01	0	27	0	111673344	69	4217
2026-01-05 04:13:56.35	294.82	29.95	-50.4	-52.0	15.4	6.03e-01	0	27	0	113246208	69	4389
2026-01-05 04:13:57.35	294.46	29.85	-50.4	-52.1	15.4	6.02e-01	0	27	0	115343360	69	4393
2026-01-05 04:13:58.35	294.10	29.75	-50.5	-52.1	15.4	6.02e-01	0	27	0	116916224	69	4436
2026-01-05 04:13:59.34	293.74	29.65	-50.2	-51.8	15.4	6.02e-01	0	28	0	119013376	69	4255
2026-01-05 04:14:00.34	293.38	29.55	-50.2	-51.8	15.4	6.02e-01	0	27	0	120586240	69	4277
2026-01-05 04:14:01.33	293.03	29.45	-50.6	-52.2	15.2	6.02e-01	0	27	0	122683392	68	4757
2026-01-05 04:14:02.34	292.68	29.35	-49.7	-51.1	15.5	6.04e-01	0	27	0	124780544	68	4189
2026-01-05 04:14:03.33	292.33	29.25	-51.1	-52.9	15.2	6.04e-01	0	28	0	126353408	69	4844
2026-01-05 04:14:04.33	291.98	29.15	-50.0	-51.6	15.5	6.03e-01	0	27	0	128450560	69	4169
2026-01-05 04:14:05.33	291.64	29.04	-50.2	-51.8	15.4	6.01e-01	0	27	0	130023424	69	4284
2026-01-05 04:14:06.33	291.29	28.94	-50.0	-51.6	15.5	6.04e-01	0	27	0	132120576	69	4155
2026-01-05 04:14:07.32	290.96	28.84	-50.5	-52.2	15.3	6.02e-01	0	27	0	134217728	69	4452
2026-01-05 04:14:08.32	290.62	28.73	-50.7	-52.4	15.3	6.04e-01	0	27	0	135790592	69	4561
2026-01-05 04:14:09.32	290.28	28.62	-50.2	-51.8	15.4	6.00e-01	0	27	0	137887744	69	4291
2026-01-05 04:14:10.31	289.95	28.52	-50.4	-52.0	15.4	6.04e-01	0	27	0	139460608	69	4367
2026-01-05 04:14:11.32	289.62	28.41	-50.3	-51.9	15.4	6.03e-01	0	27	0	141557760	69	4319
2026-01-05 04:14:12.32	289.29	28.30	-50.6	-52.3	15.3	6.02e-01	0	27	0	143130624	69	4542
2026-01-05 04:14:13.32	288.96	28.19	-49.8	-51.3	15.4	6.02e-01	0	27	0	145227776	68	4260
2026-01-05 04:14:14.31	288.64	28.08	-50.8	-52.6	15.2	6.03e-01	0	27	0	146800640	69	4691
2026-01-05 04:14:15.31	288.32	27.97	-50.1	-51.6	15.5	6.01e-01	0	27	0	148897792	69	4179
2026-01-05 04:14:16.32	287.99	27.86	-51.2	-53.0	15.2	6.00e-01	0	27	0	150994944	70	4651
2026-01-05 04:14:17.32	287.68	27.75	-50.0	-51.6	15.5	6.03e-01	0	27	0	152567808	69	4164
2026-01-05 04:14:18.32	287.36	27.64	-51.0	-52.8	15.2	6.03e-01	0	27	0	154664960	69	4803
2026-01-05 04:14:19.32	287.05	27.53	-49.9	-51.5	15.5	6.03e-01	0	27	0	156237824	69	4114
2026-01-05 04:14:20.32	286.74	27.42	-50.7	-52.4	15.3	6.04e-01	0	28	0	158334976	69	4593
2026-01-05 04:14:21.32	286.43	27.30	-50.3	-51.9	15.4	6.01e-01	0	27	0	160432128	69	4319
2026-01-05 04:14:22.32	286.12	27.19	-50.9	-52.6	15.2	6.03e-01	0	27	0	162004992	69	4700
2026-01-05 04:14:23.32	285.82	27.08	-50.2	-51.7	15.4	6.01e-01	0	27	0	164102144	69	4240
2026-01-05 04:14:24.33	285.51	26.96	-50.8	-52.6	15.2	6.01e-01	0	27	0	165675008	69	4656
2026-01-05 04:14:25.33	285.21	26.85	-50.7	-52.3	15.3	6.02e-01	0	27	0	167772160	70	4281
2026-01-05 04:14:26.33	284.92	26.73	-50.3	-52.0	15.3	6.02e-01	0	27	0	169345024	69	4345
2026-01-05 04:14:27.32	284.62	26.62	-51.1	-53.0	15.2	6.05e-01	0	27	0	171442176	70	4600
2026-01-05 04:14:28.32	284.33	26.51	-50.1	-51.6	15.5	6.02e-01	0	27	0	173539328	69	4189
2026-01-05 04:14:29.32	284.04	26.39	-51.1	-52.9	15.1	6.05e-01	0	27	0	175112192	69	4865
2026-01-05 04:14:30.33	283.75	26.27	-50.4	-52.0	15.3	6.01e-01	0	27	0	177209344	69	4367
2026-01-05 04:14:31.33	283.46	26.16	-51.1	-52.9	15.1	6.04e-01	0	27	0	178782208	69	4834
2026-01-05 04:14:32.33	283.18	26.04	-51.1	-52.9	15.3	6.03e-01	0	27	0	180879360	71	4293
2026-01-05 04:14:33.33	282.90	25.93	-50.0	-51.5	15.5	6.03e-01	0	27	0	182976512	69	4138
2026-01-05 04:14:34.33	282.62	25.81	-51.4	-53.3	15.2	6.02e-01	0	27	0	184549376	70	4795
2026-01-05 04:14:35.33	282.34	25.69	-50.2	-51.8	15.3	6.01e-01	0	28	0	186646528	69	4277
2026-01-05 04:14:36.33	282.06	25.58	-50.4	-52.0	15.3	6.01e-01	0	27	0	188219392	69	4389
2026-01-05 04:14:37.33	281.79	25.46	-51.8	-53.8	15.1	6.03e-01	0	27	0	190316544	71	4770
2026-01-05 04:14:38.32	281.52	25.34	-50.5	-52.2	15.4	6.03e-01	0	27	0	191889408	70	4202
2026-01-05 04:14:39.32	281.25	25.23	-50.8	-52.4	15.2	6.02e-01	0	28	0	193986560	69	4595
2026-01-05 04:14:40.31	280.99	25.11	-51.7	-53.7	15.1	6.02e-01	0	28	0	195559424	71	4735
2026-01-05 04:14:41.31	280.72	24.99	-50.2	-51.7	15.4	6.01e-01	0	27	0	197656576	69	4228
2026-01-05 04:14:42.30	280.46	24.88	-50.2	-51.8	15.3	6.02e-01	0	28	0	199753728	68	4495
2026-01-05 04:14:43.30	280.20	24.76	-51.3	-53.2	15.2	6.02e-01	0	27	0	201326592	70	4716
2026-01-05 04:14:44.30	279.94	24.64	-50.4	-52.1	15.4	6.03e-01	0	27	0	203423744	70	4148
2026-01-05 04:14:45.30	279.69	24.53	-50.3	-51.9	15.4	6.01e-01	0	27	0	204996608	69	4319
2026-01-05 04:14:46.30	279.43	24.41	-51.1	-53.0	15.2	6.04e-01	0	27	0	207093760	70	4619
2026-01-05 04:14:47.30	279.18	24.29	-51.0	-52.8	15.2	6.04e-01	0	27	0	208666624	70	4496
2026-01-05 04:14:48.30	278.93	24.17	-50.9	-52.6	15.3	6.05e-01	0	28	0	210763776	70	4427
2026-01-05 04:14:49.30	278.68	24.06	-51.5	-53.3	15.1	6.00e-01	0	27	0	212860928	70	4814
2026-01-05 04:14:50.30	278.43	23.94	-51.7	-53.6	15.1	6.02e-01	0	27	0	214433792	71	4696
2026-01-05 04:14:51.30	278.19	23.82	-50.5	-52.1	15.4	6.01e-01	0	28	0	216530944	70	4188
2026-01-05 04:14:52.30	277.94	23.70	-50.2	-51.8	15.4	6.01e-01	0	27	0	218103808	69	4254
2026-01-05 04:14:53.30	277.70	23.59	-50.9	-52.7	15.2	6.01e-01	0	27	0	220200960	69	4720
2026-01-05 04:14:54.29	277.46	23.47	-50.8	-52.6	15.2	6.03e-01	0	27	0	221773824	69	4689
2026-01-05 04:14:55.29	277.23	23.35	-50.4	-52.0	15.4	6.03e-01	0	28	0	223870976	69	4370
2026-01-05 04:14:56.30	276.99	23.23	-50.5	-52.1	15.3	6.03e-01	0	27	0	225968128	69	4433
2026-01-05 04:14:57.30	276.76	23.12	-50.8	-52.5	15.2	6.03e-01	0	28	0	227540992	69	4640
2026-01-05 04:14:58.30	276.52	23.00	-50.9	-52.6	15.2	6.03e-01	0	27	0	229638144	69	4695
2026-01-05 04:14:59.30	276.29	22.88	-50.5	-52.2	15.3	6.04e-01	0	28	0	231211008	69	4472
2026-01-05 04:15:00.30	276.07	22.76	-50.4	-52.1	15.4	6.04e-01	0	27	0	233308160	69	4403
2026-01-05 04:15:01.30	275.84	22.65	-50.6	-52.2	15.3	6.02e-01	0	27	0	234881024	69	4488
2026-01-05 04:15:02.30	275.61	22.53	-50.9	-52.6	15.2	6.03e-01	0	27	0	236978176	69	4705
2026-01-05 04:15:03.30	275.39	22.41	-50.9	-52.7	15.2	6.02e-01	0	28	0	239075328	69	4755
2026-01-05 04:15:04.29	275.17	22.30	-50.7	-52.4	15.2	6.04e-01	0	28	0	240648192	69	4567
2026-01-05 04:15:05.28	274.96	22.18	-50.8	-52.5	15.2	6.00e-01	0	28	0	242745344	69	4628
2026-01-05 04:15:06.29	274.74	22.07	-50.9	-52.6	15.2	6.05e-01	0	27	0	244318208	69	4687
2026-01-05 04:15:07.29	274.52	21.95	-50.8	-52.5	15.2	6.00e-01	0	28	0	246415360	69	4641
2026-01-05 04:15:08.28	274.31	21.84	-50.5	-52.3	15.3	6.04e-01	0	27	0	247988224	69	4496
2026-01-05 04:15:09.28	274.10	21.72	-50.5	-52.2	15.3	6.03e-01	0	28	0	250085376	69	4444
2026-01-05 04:15:10.27	273.89	21.61	-50.3	-52.0	15.3	6.03e-01	0	27	0	252182528	69	4364
2026-01-05 04:15:11.27	273.68	21.49	-50.3	-51.9	15.4	6.01e-01	0	28	0	253755392	69	4326
2026-01-05 04:15:12.27	273.47	21.38	-50.5	-52.2	15.3	6.02e-01	0	27	0	255852544	69	4488
2026-01-05 04:15:13.27	273.26	21.26	-50.7	-52.5	15.3	6.02e-01	0	27	0	257425408	69	4603
2026-01-05 04:15:14.27	273.06	21.15	-50.7	-52.5	15.2	6.03e-01	0	27	0	259522560	69	4623
2026-01-05 04:15:15.25	272.86	21.03	-50.8	-52.5	15.2	6.05e-01	0	28	0	261095424	69	4638
2026-01-05 04:15:16.26	272.66	20.92	-50.6	-52.3	15.3	6.03e-01	0	27	0	263192576	69	4543
2026-01-05 04:15:17.25	272.46	20.80	-50.5	-52.2	15.3	6.02e-01	0	28	0	265289728	69	4475
2026-01-05 04:15:18.25	272.26	20.69	-50.5	-52.2	15.2	6.00e-01	0	28	0	266862592	69	4464
2026-01-05 04:15:19.25	272.07	20.58	-50.5	-52.2	15.3	6.04e-01	0	27	0	268959744	69	4486
2026-01-05 04:15:20.25	271.87	20.46	-50.5	-52.2	15.3	6.01e-01	0	28	0	270532608	69	4462
2026-01-05 04:15:21.25	271.68	20.35	-50.5	-52.3	15.3	6.03e-01	0	28	0	272629760	69	4496
2026-01-05 04:15:22.25	271.49	20.24	-50.6	-52.4	15.3	6.03e-01	0	28	0	274202624	69	4556
2026-01-05 04:15:23.25	271.30	20.12	-50.5	-52.2	15.3	6.02e-01	0	28	0	276299776	69	4480
2026-01-05 04:15:24.25	271.11	20.01	-50.4	-52.1	15.3	6.04e-01	0	28	0	278396928	69	4418
2026-01-05 04:15:25.25	270.92	19.90	-50.4	-52.1	15.3	6.03e-01	0	28	0	279969792	69	4409
2026-01-05 04:15:26.25	270.73	19.79	-50.3	-52.0	15.4	6.02e-01	0	27	0	282066944	69	4352
2026-01-05 04:15:27.25	270.55	19.68	-50.4	-52.1	15.3	6.01e-01	0	28	0	283639808	69	4394
2026-01-05 04:15:28.26	270.36	19.56	-50.5	-52.2	15.3	6.04e-01	0	27	0	285736960	69	4449
2026-01-05 04:15:29.25	270.18	19.45	-50.4	-52.1	15.3	6.01e-01	0	28	0	287309824	69	4428
2026-01-05 04:15:30.26	270.00	19.34	-50.4	-52.1	15.3	6.03e-01	0	28	0	289406976	69	4435
2026-01-05 04:15:31.26	269.82	19.23	-50.5	-52.2	15.3	6.03e-01	0	28	0	291504128	69	4469
2026-01-05 04:15:32.26	269.65	19.12	-50.5	-52.2	15.3	6.04e-01	0	27	0	293076992	69	4474
2026-01-05 04:15:33.26	269.47	19.01	-50.5	-52.2	15.3	6.01e-01	0	27	0	295174144	69	4454
2026-01-05 04:15:34.25	269.30	18.90	-50.6	-52.3	15.3	6.01e-01	0	27	0	296747008	69	4505
2026-01-05 04:15:35.25	269.12	18.79	-50.4	-52.0	15.4	6.05e-01	0	28	0	298844160	69	4378
2026-01-05 04:15:36.25	268.95	18.68	-50.2	-51.9	15.4	6.02e-01	0	27	0	300417024	69	4294
2026-01-05 04:15:37.25	268.78	18.57	-50.2	-51.8	15.4	6.01e-01	0	28	0	302514176	69	4274
2026-01-05 04:15:38.25	268.61	18.46	-50.2	-51.8	15.4	6.03e-01	0	27	0	304611328	69	4264
2026-01-05 04:15:39.26	268.44	18.35	-50.3	-52.0	15.4	6.02e-01	0	27	0	306184192	69	4352
2026-01-05 04:15:40.26	268.27	18.24	-50.4	-52.2	15.3	6.02e-01	0	27	0	308281344	69	4444
2026-01-05 04:15:41.26	268.11	18.14	-50.5	-52.3	15.3	6.05e-01	0	27	0	309854208	69	4505
2026-01-05 04:15:42.26	267.95	18.03	-50.5	-52.2	15.3	6.01e-01	0	28	0	311951360	69	4490
2026-01-05 04:15:43.27	267.78	17.92	-50.5	-52.2	15.3	6.01e-01	0	27	0	314048512	69	4444
2026-01-05 04:15:44.27	267.62	17.81	-50.4	-52.0	15.3	6.02e-01	0	27	0	315621376	69	4387
2026-01-05 04:15:45.27	267.46	17.70	-50.3	-52.0	15.3	6.01e-01	0	27	0	317718528	69	4371
2026-01-05 04:15:46.27	267.30	17.60	-50.3	-52.0	15.3	6.03e-01	0	27	0	319291392	69	4373
2026-01-05 04:15:47.27	267.14	17.49	-50.3	-51.9	15.4	6.02e-01	0	27	0	321388544	69	4339
2026-01-05 04:15:48.27	266.98	17.39	-50.2	-51.8	15.4	6.03e-01	0	27	0	323485696	69	4277
2026-01-05 04:15:49.27	266.83	17.28	-50.2	-51.8	15.4	6.04e-01	0	28	0	325058560	69	4275
2026-01-05 04:15:50.26	266.67	17.17	-50.3	-51.9	15.3	6.02e-01	0	27	0	327155712	69	4323
2026-01-05 04:15:51.26	266.52	17.07	-50.2	-51.9	15.4	6.04e-01	0	28	0	328728576	69	4308
2026-01-05 04:15:52.26	266.37	16.96	-50.3	-52.0	15.4	6.03e-01	0	28	0	330825728	69	4341
2026-01-05 04:15:53.25	266.22	16.86	-50.4	-52.1	15.3	6.01e-01	0	27	0	332398592	69	4395
2026-01-05 04:15:54.25	266.07	16.76	-50.4	-52.2	15.3	6.04e-01	0	28	0	334495744	69	4445
2026-01-05 04:15:55.24	265.92	16.65	-50.4	-52.1	15.3	6.01e-01	0	27	0	336068608	69	4401
2026-01-05 04:15:56.24	265.77	16.55	-50.4	-52.1	15.3	6.01e-01	0	27	0	338165760	69	4426
2026-01-05 04:15:57.23	265.63	16.45	-50.3	-52.0	15.4	6.04e-01	0	27	0	340262912	69	4350
2026-01-05 04:15:58.24	265.48	16.34	-50.2	-51.8	15.4	6.03e-01	0	28	0	341835776	69	4266
2026-01-05 04:15:59.23	265.34	16.24	-50.3	-52.0	15.4	6.02e-01	0	28	0	343932928	69	4350
2026-01-05 04:16:00.23	265.20	16.14	-50.3	-51.9	15.4	6.01e-01	0	27	0	345505792	69	4339
2026-01-05 04:16:01.22	265.05	16.04	-50.2	-51.9	15.3	6.01e-01	0	28	0	347602944	69	4318
2026-01-05 04:16:02.21	264.91	15.94	-50.4	-52.1	15.3	6.04e-01	0	28	0	349175808	69	4416
2026-01-05 04:16:03.22	264.77	15.83	-50.3	-52.0	15.3	6.02e-01	0	28	0	351272960	69	4387
2026-01-05 04:16:04.22	264.63	15.73	-50.3	-52.0	15.3	6.02e-01	0	27	0	353370112	69	4373
2026-01-05 04:16:05.21	264.50	15.63	-50.3	-52.0	15.3	6.02e-01	0	28	0	354942976	69	4369
2026-01-05 04:16:06.20	264.36	15.53	-50.3	-52.0	15.4	6.02e-01	0	27	0	357040128	69	4359
2026-01-05 04:16:07.20	264.22	15.43	-50.4	-52.1	15.3	6.04e-01	0	27	0	358612992	69	4409
2026-01-05 04:16:08.19	264.09	15.33	-50.3	-52.0	15.4	6.03e-01	0	27	0	360710144	69	4346
2026-01-05 04:16:09.19	263.96	15.23	-50.3	-52.0	15.4	6.03e-01	0	27	0	362283008	69	4380
2026-01-05 04:16:10.19	263.82	15.13	-50.5	-52.2	15.3	6.03e-01	0	27	0	364380160	69	4452
2026-01-05 04:16:11.19	263.69	15.03	-50.4	-52.1	15.3	6.01e-01	0	27	0	365953024	69	4418
2026-01-05 04:16:12.19	263.56	14.93	-50.3	-52.0	15.4	6.04e-01	0	27	0	368050176	69	4369
2026-01-05 04:16:13.18	263.43	14.84	-50.4	-52.1	15.3	6.03e-01	0	28	0	370147328	69	4408
2026-01-05 04:16:14.18	263.30	14.74	-50.4	-52.1	15.3	6.01e-01	0	27	0	371720192	69	4416
2026-01-05 04:16:15.17	263.17	14.64	-50.4	-52.1	15.4	6.03e-01	0	28	0	373817344	69	4395
2026-01-05 04:16:16.17	263.04	14.54	-50.3	-52.0	15.3	6.01e-01	0	28	0	375390208	69	4365
2026-01-05 04:16:17.16	262.92	14.45	-50.2	-51.9	15.4	6.02e-01	0	27	0	377487360	69	4310
2026-01-05 04:16:18.16	262.79	14.35	-50.3	-52.0	15.4	6.04e-01	0	27	0	379060224	69	4376
2026-01-05 04:16:19.16	262.67	14.25	-50.3	-52.0	15.4	6.04e-01	0	28	0	381157376	69	4364
2026-01-05 04:16:20.15	262.55	14.16	-50.4	-52.1	15.3	6.02e-01	0	27	0	382730240	69	4414
2026-01-05 04:16:21.15	262.42	14.06	-50.5	-52.2	15.3	6.02e-01	0	27	0	384827392	69	4476
2026-01-05 04:16:22.15	262.30	13.96	-50.6	-52.3	15.3	6.02e-01	0	28	0	386924544	69	4533
2026-01-05 04:16:23.15	262.18	13.87	-50.7	-52.5	15.2	6.02e-01	0	28	0	388497408	69	4618
2026-01-05 04:16:24.16	262.06	13.77	-50.7	-52.4	15.2	6.01e-01	0	27	0	390594560	69	4596
2026-01-05 04:16:25.16	261.94	13.68	-50.6	-52.4	15.2	6.01e-01	0	28	0	392167424	69	4574
2026-01-05 04:16:26.15	261.82	13.58	-50.6	-52.4	15.2	6.02e-01	0	27	0	394264576	69	4577
2026-01-05 04:16:27.16	261.70	13.49	-50.5	-52.2	15.3	6.01e-01	0	27	0	395837440	69	4491
2026-01-05 04:16:28.16	261.58	13.39	-50.6	-52.3	15.3	6.05e-01	0	27	0	397934592	69	4536
2026-01-05 04:16:29.15	261.47	13.30	-50.4	-52.1	15.3	6.02e-01	0	27	0	400031744	69	4408
2026-01-05 04:16:30.14	261.35	13.21	-50.4	-52.1	15.3	6.02e-01	0	28	0	401604608	69	4427
2026-01-05 04:16:31.15	261.24	13.11	-50.3	-52.0	15.3	6.04e-01	0	27	0	403701760	69	4349
2026-01-05 04:16:32.15	261.12	13.02	-50.3	-52.0	15.3	6.03e-01	0	27	0	405274624	69	4388
2026-01-05 04:16:33.16	261.01	12.93	-50.4	-52.1	15.3	6.01e-01	0	27	0	407371776	69	4422
2026-01-05 04:16:34.16	260.90	12.83	-50.6	-52.3	15.3	6.04e-01	0	27	0	409468928	69	4513
2026-01-05 04:16:35.16	260.78	12.74	-50.6	-52.4	15.3	6.04e-01	0	28	0	411041792	69	4573
2026-01-05 04:16:36.16	260.67	12.65	-50.7	-52.5	15.2	6.02e-01	0	27	0	413138944	69	4626
2026-01-05 04:16:37.16	260.56	12.56	-50.7	-52.4	15.2	6.04e-01	0	27	0	414711808	69	4594
2026-01-05 04:16:38.16	260.45	12.47	-50.8	-52.6	15.2	6.03e-01	0	27	0	416808960	69	4666
2026-01-05 04:16:39.16	260.34	12.38	-50.6	-52.4	15.3	6.04e-01	0	27	0	418381824	69	4551
2026-01-05 04:16:40.16	260.24	12.28	-50.7	-52.4	15.3	6.03e-01	0	27	0	420478976	69	4597
2026-01-05 04:16:41.16	260.13	12.19	-50.5	-52.2	15.3	6.02e-01	0	28	0	422576128	69	4493
2026-01-05 04:16:42.16	260.02	12.10	-50.6	-52.4	15.3	6.01e-01	0	28	0	424148992	69	4556
2026-01-05 04:16:43.16	259.92	12.01	-50.5	-52.3	15.3	6.03e-01	0	28	0	426246144	69	4501
2026-01-05 04:16:44.15	259.81	11.92	-50.6	-52.3	15.3	6.00e-01	0	27	0	427819008	69	4525
2026-01-05 04:16:45.16	259.71	11.83	-50.5	-52.3	15.3	6.04e-01	0	28	0	429916160	69	4494
2026-01-05 04:16:46.16	259.60	11.74	-50.5	-52.3	15.3	6.02e-01	0	28	0	432013312	69	4511
2026-01-05 04:16:47.16	259.50	11.66	-50.6	-52.4	15.2	6.03e-01	0	28	0	433586176	69	4547
2026-01-05 04:16:48.16	259.40	11.57	-50.7	-52.4	15.2	6.04e-01	0	28	0	435683328	69	4595
2026-01-05 04:16:49.16	259.30	11.48	-50.6	-52.4	15.2	6.02e-01	0	28	0	437256192	69	4579
2026-01-05 04:16:50.17	259.19	11.39	-50.6	-52.4	15.2	6.03e-01	0	27	0	439353344	69	4557
2026-01-05 04:16:51.17	259.09	11.30	-50.6	-52.4	15.2	6.03e-01	0	27	0	440926208	69	4569
2026-01-05 04:16:52.17	258.99	11.21	-50.6	-52.3	15.3	6.00e-01	0	27	0	443023360	69	4535
2026-01-05 04:16:53.18	258.89	11.13	-50.7	-52.4	15.2	6.02e-01	0	28	0	445120512	69	4590
2026-01-05 04:16:54.18	258.80	11.04	-50.7	-52.5	15.2	6.01e-01	0	28	0	446693376	69	4626
2026-01-05 04:16:55.18	258.70	10.95	-50.7	-52.5	15.2	6.02e-01	0	28	0	448790528	69	4625
2026-01-05 04:16:56.18	258.60	10.87	-50.8	-52.6	15.2	6.02e-01	0	28	0	450363392	69	4668
2026-01-05 04:16:57.18	258.50	10.78	-50.9	-52.7	15.2	6.02e-01	0	27	0	452460544	69	4735
2026-01-05 04:16:58.18	258.41	10.69	-50.8	-52.6	15.2	6.03e-01	0	27	0	454557696	69	4668
2026-01-05 04:16:59.17	258.31	10.61	-50.8	-52.6	15.2	6.02e-01	0	27	0	456130560	69	4695
2026-01-05 04:17:00.16	258.22	10.52	-50.9	-52.7	15.1	6.02e-01	0	27	0	457703424	69	4736
2026-01-05 04:17:01.16	258.13	10.44	-50.9	-52.7	15.2	6.03e-01	0	27	0	459800576	69	4739
2026-01-05 04:17:02.15	258.03	10.35	-50.9	-52.8	15.1	6.01e-01	0	28	0	461897728	69	4762
2026-01-05 04:17:03.15	257.94	10.27	-50.9	-52.8	15.1	6.02e-01	0	28	0	463470592	69	4761
2026-01-05 04:17:04.15	257.85	10.18	-50.8	-52.7	15.2	6.01e-01	0	28	0	465567744	69	4716
2026-01-05 04:17:05.14	257.76	10.10	-50.9	-52.8	15.1	6.03e-01	0	27	0	467140608	69	4761
2026-01-05 04:17:06.13	257.67	10.02	-50.9	-52.7	15.2	6.03e-01	0	27	0	469237760	69	4726
2026-01-05 04:17:07.14	257.58	9.93	-50.9	-52.7	15.1	6.03e-01	0	28	0	471334912	69	4740
2026-01-05 04:17:08.14	257.49	9.85	-50.9	-52.8	15.1	6.02e-01	0	27	0	472907776	69	4781
2026-01-05 04:17:09.12	257.40	9.77	-51.0	-52.8	15.1	6.01e-01	0	28	0	475004928	69	4801
2026-01-05 04:17:10.12	257.31	9.69	-50.9	-52.8	15.1	6.03e-01	0	28	0	476577792	69	4787
2026-01-05 04:17:11.12	257.22	9.60	-50.9	-52.8	15.1	6.03e-01	0	28	0	478674944	69	4778
2026-01-05 04:17:12.11	257.14	9.52	-50.9	-52.8	15.1	6.02e-01	0	28	0	480247808	69	4773
2026-01-05 04:17:13.11	257.05	9.44	-50.9	-52.8	15.2	6.01e-01	0	27	0	482344960	69	4788
2026-01-05 04:17:14.10	256.96	9.36	-51.0	-52.8	15.1	6.02e-01	0	28	0	483917824	69	4799
2026-01-05 04:17:15.10	256.88	9.28	-50.9	-52.8	15.1	6.02e-01	0	28	0	486014976	69	4762
2026-01-05 04:17:16.10	256.79	9.19	-51.0	-52.9	15.1	6.02e-01	0	28	0	488112128	69	4850
2026-01-05 04:17:17.10	256.71	9.11	-50.9	-52.8	15.1	6.03e-01	0	28	0	489684992	69	4796
2026-01-05 04:17:18.10	256.62	9.03	-50.9	-52.8	15.1	6.05e-01	0	28	0	491782144	69	4775
2026-01-05 04:17:19.11	256.54	8.95	-51.0	-52.9	15.1	6.04e-01	0	27	0	493355008	69	4827
2026-01-05 04:17:20.10	256.46	8.87	-51.1	-53.0	15.1	6.04e-01	0	28	0	495452160	69	4893
2026-01-05 04:17:21.09	256.37	8.79	-51.1	-53.0	15.2	6.01e-01	0	28	0	497025024	70	4604
2026-01-05 04:17:22.09	256.29	8.71	-51.2	-53.1	15.2	6.04e-01	0	28	0	499122176	70	4694
2026-01-05 04:17:23.09	256.21	8.63	-51.1	-53.1	15.2	6.05e-01	0	28	0	501219328	70	4653
2026-01-05 04:17:24.09	256.13	8.55	-51.2	-53.1	15.2	6.02e-01	0	28	0	502792192	70	4667
2026-01-05 04:17:25.08	256.05	8.47	-51.2	-53.1	15.1	6.02e-01	0	28	0	504889344	70	4692
2026-01-05 04:17:26.09	255.97	8.39	-51.2	-53.2	15.1	6.02e-01	0	28	0	506462208	70	4727
2026-01-05 04:17:27.08	255.89	8.31	-51.3	-53.2	15.1	6.03e-01	0	28	0	508559360	70	4754
2026-01-05 04:17:28.08	255.81	8.23	-51.3	-53.3	15.1	6.02e-01	0	28	0	510132224	70	4762
2026-01-05 04:17:29.09	255.73	8.16	-51.2	-53.2	15.1	6.04e-01	0	27	0	512229376	70	4722
2026-01-05 04:17:30.09	255.65	8.08	-51.3	-53.3	15.1	6.02e-01	0	28	0	514326528	70	4763
2026-01-05 04:17:31.09	255.57	8.00	-51.1	-53.0	15.1	6.02e-01	0	28	0	515899392	70	4649
2026-01-05 04:17:32.08	255.50	7.92	-51.3	-53.3	15.1	6.03e-01	0	27	0	517996544	70	4771
2026-01-05 04:17:33.08	255.42	7.84	-51.3	-53.2	15.1	6.00e-01	0	28	0	519569408	70	4758
2026-01-05 04:17:34.08	255.34	7.77	-51.3	-53.2	15.1	6.03e-01	0	28	0	521666560	70	4752
2026-01-05 04:17:35.08	255.27	7.69	-51.3	-53.3	15.1	6.02e-01	0	27	0	523239424	70	4760
2026-01-05 04:17:36.07	255.19	7.61	-51.4	-53.4	15.1	6.03e-01	0	27	0	525336576	70	4844
2026-01-05 04:17:37.08	255.12	7.54	-51.4	-53.4	15.1	6.04e-01	0	28	0	527433728	70	4821
2026-01-05 04:17:38.07	255.04	7.46	-51.2	-53.2	15.1	6.03e-01	0	28	0	529006592	70	4748
2026-01-05 04:17:39.08	254.97	7.38	-51.4	-53.4	15.1	6.03e-01	0	28	0	531103744	70	4827
2026-01-05 04:17:40.08	254.89	7.31	-51.4	-53.4	15.1	6.00e-01	0	28	0	532676608	70	4816
2026-01-05 04:17:41.08	254.82	7.23	-51.4	-53.5	15.1	6.03e-01	0	28	0	534773760	70	4881
2026-01-05 04:17:42.08	254.75	7.15	-51.4	-53.4	15.1	6.02e-01	0	28	0	536870912	70	4847
2026-01-05 04:17:43.08	254.68	7.08	-51.4	-53.4	15.0	6.04e-01	0	28	0	538443776	70	4837
2026-01-05 04:17:44.08	254.60	7.00	-51.4	-53.4	15.1	6.01e-01	0	28	0	540540928	70	4840
2026-01-05 04:17:45.07	254.53	6.93	-51.3	-53.4	15.1	6.01e-01	0	28	0	542113792	70	4823
2026-01-05 04:17:46.07	254.46	6.85	-51.4	-53.4	15.0	6.03e-01	0	28	0	544210944	70	4864
2026-01-05 04:17:47.07	254.39	6.78	-51.4	-53.5	15.0	6.04e-01	0	28	0	545783808	70	4881
2026-01-05 04:17:48.07	254.32	6.70	-51.4	-53.5	15.0	6.02e-01	0	28	0	547880960	70	4880
2026-01-05 04:17:49.07	254.25	6.63	-51.5	-53.5	15.0	6.03e-01	0	28	0	549978112	70	4913
2026-01-05 04:17:50.06	254.18	6.56	-51.5	-53.6	15.0	6.02e-01	0	28	0	551550976	70	4975
2026-01-05 04:17:51.06	254.11	6.48	-51.5	-53.6	15.0	6.02e-01	0	28	0	553123840	70	4966
2026-01-05 04:17:52.06	254.04	6.41	-51.6	-53.6	15.0	6.01e-01	0	28	0	555220992	70	4980
2026-01-05 04:17:53.06	253.98	6.34	-51.5	-53.5	15.0	6.03e-01	0	28	0	557318144	70	4921
2026-01-05 04:17:54.06	253.91	6.26	-51.6	-53.7	15.0	6.02e-01	0	28	0	558891008	70	5012
2026-01-05 04:17:55.06	253.84	6.19	-51.6	-53.6	15.1	6.01e-01	0	28	0	560988160	71	4703
2026-01-05 04:17:56.05	253.77	6.12	-51.5	-53.6	15.1	6.02e-01	0	27	0	562561024	71	4684
2026-01-05 04:17:57.05	253.71	6.04	-51.7	-53.8	15.0	6.01e-01	0	28	0	564658176	71	4813
2026-01-05 04:17:58.05	253.64	5.97	-51.8	-54.0	14.9	6.06e-01	0	28	0	566755328	71	4872
2026-01-05 04:17:59.05	253.57	5.90	-51.7	-53.8	15.0	6.01e-01	0	28	0	568328192	71	4802
2026-01-05 04:18:00.05	253.51	5.83	-51.6	-53.7	15.0	6.05e-01	0	27	0	570425344	71	4744
2026-01-05 04:18:01.05	253.44	5.75	-51.7	-53.8	15.0	6.03e-01	0	28	0	571998208	71	4799
2026-01-05 04:18:02.04	253.38	5.68	-51.9	-54.1	14.9	6.02e-01	0	28	0	574095360	71	4945
2026-01-05 04:18:03.04	253.31	5.61	-51.7	-53.8	15.0	6.02e-01	0	28	0	575668224	71	4813
2026-01-05 04:18:04.04	253.25	5.54	-51.7	-53.8	15.0	6.03e-01	0	28	0	577765376	71	4795
2026-01-05 04:18:05.03	253.19	5.47	-51.7	-53.9	15.0	6.03e-01	0	28	0	579862528	71	4852
2026-01-05 04:18:06.03	253.12	5.40	-51.8	-54.0	14.9	6.03e-01	0	27	0	581435392	71	4909
2026-01-05 04:18:07.03	253.06	5.33	-51.7	-53.9	15.0	6.04e-01	0	27	0	583532544	71	4828
2026-01-05 04:18:08.04	253.00	5.26	-51.7	-53.9	14.9	6.01e-01	0	27	0	585105408	71	4863
2026-01-05 04:18:09.04	252.93	5.19	-51.6	-53.8	15.0	6.02e-01	0	28	0	587202560	71	4796
2026-01-05 04:18:10.03	252.87	5.12	-51.7	-53.8	15.0	6.02e-01	0	28	0	588775424	71	4813
2026-01-05 04:18:11.02	252.81	5.05	-51.7	-53.9	15.0	6.04e-01	0	28	0	590872576	71	4864
2026-01-05 04:18:12.02	252.75	4.98	-58.6	-77.4	3.6	7.47e-01	0	28	104	592445440	84	34394
2026-01-05 04:18:13.02	252.69	4.91	-59.0	-78.4	3.8	7.48e-01	0	27	104	592445440	85	36234
2026-01-05 04:18:14.03	252.63	4.84	-59.3	-78.7	3.8	7.47e-01	0	28	104	592445440	86	35489
2026-01-05 04:18:15.02	252.57	4.77	-59.5	-78.9	3.8	7.47e-01	0	28	104	592445440	86	36141
2026-01-05 04:18:16.02	252.51	4.70	-59.6	-79.0	3.8	7.49e-01	0	28	104	592445440	86	36760
2026-01-05 04:18:17.02	252.45	4.63	-59.7	-79.1	3.8	7.46e-01	0	28	104	592445440	87	35216
2026-01-05 04:18:18.02	252.39	4.56	-59.9	-79.2	3.8	7.43e-01	0	28	104	592445440	87	35559
2026-01-05 04:18:19.02	252.33	4.49	-60.0	-79.4	3.8	7.44e-01	0	28	104	592445440	87	36121
2026-01-05 04:18:20.01	252.27	4.42	-60.1	-79.5	3.8	7.47e-01	0	28	104	592445440	87	36572
2026-01-05 04:18:21.01	252.21	4.35	-60.2	-79.6	3.8	7.50e-01	0	28	104	592445440	88	34965
2026-01-05 04:18:22.01	252.15	4.29	-60.2	-79.6	3.8	7.45e-01	0	27	104	592445440	88	35261
2026-01-05 04:18:23.01	252.10	4.22	-60.3	-79.7	3.8	7.47e-01	0	28	104	592445440	88	35488
2026-01-05 04:18:24.02	252.04	4.15	-60.4	-79.7	3.8	7.45e-01	0	28	104	592445440	88	35669
2026-01-05 04:18:25.02	251.98	4.08	-60.4	-79.8	3.8	7.47e-01	0	28	104	592445440	88	35779
2026-01-05 04:18:26.02	251.92	4.01	-60.4	-79.8	3.8	7.45e-01	0	28	104	592445440	88	35949
2026-01-05 04:18:27.01	251.87	3.95	-60.5	-79.9	3.8	7.47e-01	0	28	104	592445440	88	36134
2026-01-05 04:18:28.01	251.81	3.88	-60.5	-79.9	3.8	7.44e-01	0	28	104	592445440	88	36266
2026-01-05 04:18:29.01	251.75	3.81	-60.5	-79.9	3.9	7.44e-01	0	28	104	592445440	88	36210
2026-01-05 04:18:30.01	251.70	3.74	-60.5	-79.9	3.8	7.46e-01	0	28	104	592445440	88	36201
2026-01-05 04:18:31.01	251.64	3.68	-60.5	-79.9	3.8	7.46e-01	0	28	104	592445440	88	36244
2026-01-05 04:18:32.01	251.59	3.61	-60.5	-79.9	3.8	7.44e-01	0	28	104	592445440	88	36271
2026-01-05 04:18:33.00	251.53	3.54	-60.6	-80.0	3.8	7.50e-01	0	28	104	592445440	88	36589
2026-01-05 04:18:34.00	251.48	3.48	-60.5	-79.9	3.8	7.47e-01	0	28	104	592445440	88	36341
2026-01-05 04:18:35.00	251.42	3.41	-60.5	-79.9	3.8	7.49e-01	0	28	104	592445440	88	36369
2026-01-05 04:18:35.99	251.37	3.35	-60.5	-79.9	3.8	7.44e-01	0	28	104	592445440	88	36173
2026-01-05 04:18:36.99	251.32	3.28	-60.5	-79.9	3.8	7.46e-01	0	28	104	592445440	88	36118
2026-01-05 04:18:37.99	251.26	3.21	-60.5	-79.8	3.8	7.46e-01	0	28	104	592445440	88	36058
2026-01-05 04:18:38.99	251.21	3.15	-60.4	-79.8	3.8	7.44e-01	0	28	104	592445440	88	36029
2026-01-05 04:18:39.99	251.16	3.08	-60.4	-79.8	3.8	7.45e-01	0	28	104	592445440	88	35851
2026-01-05 04:18:40.99	251.10	3.02	-60.4	-79.8	3.8	7.44e-01	0	28	104	592445440	88	35822
2026-01-05 04:18:41.99	251.05	2.95	-60.4	-79.8	3.8	7.46e-01	0	28	104	592445440	88	35777
2026-01-05 04:18:42.99	251.00	2.89	-60.4	-79.8	3.8	7.46e-01	0	28	104	592445440	88	35710
2026-01-05 04:18:43.99	250.95	2.82	-60.4	-79.7	3.8	7.45e-01	0	28	104	592445440	88	35685
2026-01-05 04:18:44.99	250.90	2.76	-60.4	-79.7	3.8	7.47e-01	0	28	104	592445440	88	35678
2026-01-05 04:18:45.98	250.85	2.69	-60.4	-79.7	3.8	7.46e-01	0	28	104	592445440	88	35623
