passes_logs/2026/01/05/R3.2S_Murmansk/R3.2S_Murmansk__20260105_152223_FENGYUN_3D_rec.log

#Pass ID: 20260105_152223_FENGYUN 3D
#Satellite: FENGYUN 3D
#Configuration: FENGYUN 3D
#almurnet v.1.7.20251203
#Start time: 2026-01-05 15:22:24

#Version: 2.2.20231116
#Station: R3.2S_Murmansk
#Location: 33.079688 lon 68.888172 lat
#TLE: 1 43010U 17072A   26005.27772741  .00000192  00000+0  11272-3 0  9992
#TLE: 2 43010  98.9919 336.9437 0001997 125.0511 235.0852 14.19692734421874

#Time	Az	El	Level	Level2	SNR	BER	BlckErr	Temp	State	Recorded	gain1	gain2
2026-01-05 15:22:24.27	253.45	2.04	-58.5	-71.5	3.8	8.46e-01	0	25	0	0	83	15778
2026-01-05 15:22:25.27	253.56	2.08	-58.5	-71.4	3.8	8.45e-01	0	25	104	0	82	16639
2026-01-05 15:22:26.28	253.67	2.12	-58.4	-71.4	3.8	8.45e-01	0	25	104	0	82	16677
2026-01-05 15:22:27.28	253.77	2.16	-58.4	-71.4	3.8	8.45e-01	0	25	104	0	82	16606
2026-01-05 15:22:28.27	253.88	2.20	-58.5	-71.5	3.8	8.46e-01	0	25	104	0	82	16698
2026-01-05 15:22:29.27	253.99	2.24	-58.5	-71.4	3.8	8.46e-01	0	25	104	0	82	16691
2026-01-05 15:22:30.26	254.10	2.28	-58.5	-71.4	3.8	8.45e-01	0	25	104	0	82	16669
2026-01-05 15:22:31.26	254.21	2.32	-58.5	-71.4	3.8	8.46e-01	0	25	104	0	82	16678
2026-01-05 15:22:32.26	254.32	2.36	-58.5	-71.4	3.8	8.46e-01	0	25	104	0	82	16680
2026-01-05 15:22:33.27	254.43	2.40	-58.5	-71.5	3.8	8.45e-01	0	25	104	0	82	16705
2026-01-05 15:22:34.27	254.54	2.44	-58.5	-71.4	3.8	8.46e-01	0	25	104	0	82	16661
2026-01-05 15:22:35.28	254.65	2.47	-58.5	-71.5	3.8	8.45e-01	0	25	104	0	82	16701
2026-01-05 15:22:36.27	254.76	2.51	-58.5	-71.4	3.8	8.46e-01	0	25	104	0	82	16682
2026-01-05 15:22:37.27	254.87	2.55	-58.5	-71.5	3.8	8.45e-01	0	25	104	0	82	16738
2026-01-05 15:22:38.26	254.98	2.59	-58.5	-71.4	3.8	8.45e-01	0	25	104	0	82	16693
2026-01-05 15:22:39.27	255.10	2.63	-58.5	-71.4	3.8	8.45e-01	0	25	104	0	82	16680
2026-01-05 15:22:40.27	255.21	2.67	-58.4	-71.4	3.8	8.46e-01	0	25	104	0	82	16670
2026-01-05 15:22:41.26	255.32	2.71	-58.4	-71.4	3.8	8.46e-01	0	25	104	0	82	16688
2026-01-05 15:22:42.27	255.43	2.75	-58.5	-71.4	3.8	8.46e-01	0	25	104	0	82	16660
2026-01-05 15:22:43.27	255.55	2.79	-58.4	-71.4	3.8	8.46e-01	0	25	104	0	82	16627
2026-01-05 15:22:44.26	255.66	2.83	-58.5	-71.5	3.8	8.45e-01	0	25	104	0	82	16695
2026-01-05 15:22:45.25	255.77	2.87	-58.5	-71.4	3.8	8.44e-01	0	25	104	0	82	16676
2026-01-05 15:22:46.25	255.89	2.91	-58.4	-71.4	3.8	8.45e-01	0	25	104	0	82	16683
2026-01-05 15:22:47.24	256.00	2.94	-58.5	-71.4	3.8	8.45e-01	0	25	104	0	82	16654
2026-01-05 15:22:48.23	256.11	2.98	-58.5	-71.4	3.8	8.45e-01	0	25	104	0	82	16587
2026-01-05 15:22:49.22	256.23	3.02	-58.5	-71.3	3.8	8.45e-01	0	26	104	0	82	16501
2026-01-05 15:22:50.22	256.34	3.06	-58.4	-71.3	3.8	8.46e-01	0	25	104	0	82	16490
2026-01-05 15:22:51.22	256.46	3.10	-58.4	-71.3	3.8	8.47e-01	0	25	104	0	82	16439
2026-01-05 15:22:52.21	256.57	3.14	-58.4	-71.3	3.8	8.45e-01	0	26	104	0	82	16448
2026-01-05 15:22:53.20	256.69	3.18	-58.4	-71.4	3.8	8.46e-01	0	26	104	0	82	16514
2026-01-05 15:22:54.19	256.80	3.21	-58.4	-71.4	3.8	8.45e-01	0	26	104	0	82	16557
2026-01-05 15:22:55.18	256.92	3.25	-58.5	-71.4	3.8	8.46e-01	0	26	104	0	82	16542
2026-01-05 15:22:56.18	257.03	3.29	-58.5	-71.4	3.8	8.46e-01	0	26	104	0	82	16584
2026-01-05 15:22:57.18	257.15	3.33	-58.4	-71.4	3.8	8.46e-01	0	26	104	0	82	16622
2026-01-05 15:22:58.17	257.27	3.37	-58.5	-71.4	3.8	8.44e-01	0	26	104	0	82	16627
2026-01-05 15:22:59.17	257.38	3.41	-58.5	-71.4	3.8	8.45e-01	0	26	104	0	82	16680
2026-01-05 15:23:00.18	257.50	3.45	-58.5	-71.4	3.8	8.47e-01	0	26	104	0	82	16648
2026-01-05 15:23:01.17	257.62	3.48	-58.4	-71.3	3.8	8.44e-01	0	26	104	0	82	16479
2026-01-05 15:23:02.17	257.74	3.52	-58.4	-71.3	3.8	8.45e-01	0	26	104	0	82	16357
2026-01-05 15:23:03.17	257.86	3.56	-58.4	-71.2	3.8	8.45e-01	0	26	104	0	82	16231
2026-01-05 15:23:04.16	257.98	3.60	-58.4	-71.2	3.8	8.46e-01	0	26	104	0	82	16172
2026-01-05 15:23:05.16	258.09	3.64	-58.4	-71.2	3.8	8.44e-01	0	26	104	0	82	16225
2026-01-05 15:23:06.15	258.21	3.67	-58.4	-71.3	3.8	8.47e-01	0	26	104	0	82	16336
2026-01-05 15:23:07.15	258.33	3.71	-58.4	-71.3	3.8	8.46e-01	0	26	104	0	82	16364
2026-01-05 15:23:08.16	258.45	3.75	-58.5	-71.3	3.8	8.46e-01	0	26	104	0	82	16460
2026-01-05 15:23:09.15	258.57	3.79	-58.4	-71.4	3.8	8.46e-01	0	26	104	0	82	16584
2026-01-05 15:23:10.15	258.70	3.83	-58.5	-71.4	3.8	8.46e-01	0	26	104	0	82	16656
2026-01-05 15:23:11.16	258.82	3.87	-58.5	-71.4	3.8	8.44e-01	0	26	104	0	82	16685
2026-01-05 15:23:12.15	258.94	3.90	-58.4	-71.4	3.8	8.45e-01	0	26	104	0	82	16598
2026-01-05 15:23:13.15	259.06	3.94	-58.4	-71.3	3.8	8.46e-01	0	26	104	0	82	16317
2026-01-05 15:23:14.16	259.18	3.98	-58.4	-71.2	3.8	8.45e-01	0	26	104	0	82	16201
2026-01-05 15:23:15.15	259.30	4.02	-58.4	-71.0	3.8	8.47e-01	0	26	104	0	82	15842
2026-01-05 15:23:16.15	259.43	4.05	-58.4	-71.0	3.8	8.45e-01	0	26	104	0	82	15889
2026-01-05 15:23:17.14	259.55	4.09	-58.4	-71.2	3.8	8.46e-01	0	26	104	0	82	16307
2026-01-05 15:23:18.14	259.67	4.13	-58.5	-71.4	3.8	8.45e-01	0	26	104	0	82	16508
2026-01-05 15:23:19.14	259.80	4.17	-58.5	-71.4	3.8	8.45e-01	0	26	104	0	82	16662
2026-01-05 15:23:20.14	259.92	4.20	-58.5	-71.4	3.8	8.46e-01	0	26	104	0	82	16654
2026-01-05 15:23:21.13	260.04	4.24	-58.5	-71.4	3.8	8.47e-01	0	26	104	0	82	16546
2026-01-05 15:23:22.14	260.17	4.28	-58.4	-71.1	3.8	8.46e-01	0	26	104	0	82	16033
2026-01-05 15:23:23.14	260.29	4.32	-58.4	-70.8	3.8	8.45e-01	0	26	104	0	82	15413
2026-01-05 15:23:24.13	260.42	4.35	-58.4	-70.7	3.8	8.44e-01	0	26	104	0	82	15375
2026-01-05 15:23:25.13	260.54	4.39	-58.4	-70.8	3.8	8.46e-01	0	26	104	0	82	15522
2026-01-05 15:23:26.14	260.67	4.43	-58.4	-70.7	3.8	8.45e-01	0	26	104	0	82	15368
2026-01-05 15:23:27.13	260.79	4.46	-58.4	-70.9	3.8	8.45e-01	0	26	104	0	82	15638
2026-01-05 15:23:28.13	260.92	4.50	-58.4	-70.7	3.8	8.45e-01	0	26	104	0	82	15321
2026-01-05 15:23:29.14	261.05	4.54	-58.4	-70.3	3.8	8.45e-01	0	26	104	0	82	14601
2026-01-05 15:23:30.14	261.18	4.58	-58.4	-70.2	3.8	8.45e-01	0	26	104	0	82	14393
2026-01-05 15:23:31.15	261.30	4.61	-58.4	-70.4	3.8	8.44e-01	0	26	104	0	82	14857
2026-01-05 15:23:32.15	261.43	4.65	-58.4	-70.9	3.8	8.45e-01	0	26	104	0	82	15608
2026-01-05 15:23:33.15	261.56	4.69	-58.5	-71.4	3.8	8.46e-01	0	26	104	0	82	16518
2026-01-05 15:23:34.15	261.69	4.72	-58.4	-70.7	3.8	8.44e-01	0	26	104	0	82	15333
2026-01-05 15:23:35.15	261.82	4.76	-58.2	-68.8	3.9	8.44e-01	0	26	104	0	82	12278
2026-01-05 15:23:36.15	261.95	4.80	-58.0	-67.1	4.4	8.31e-01	0	26	0	0	82	10089
2026-01-05 15:23:37.15	262.07	4.83	-57.9	-66.4	4.7	8.04e-01	0	26	0	0	82	9327
2026-01-05 15:23:38.15	262.20	4.87	-57.9	-66.0	4.9	7.85e-01	0	26	0	0	82	8905
2026-01-05 15:23:39.15	262.33	4.91	-57.6	-64.8	5.5	7.36e-01	0	26	0	0	81	8213
2026-01-05 15:23:40.14	262.46	4.94	-57.0	-62.5	7.1	1.71e-01	0	26	0	5242880	80	6681
2026-01-05 15:23:41.14	262.59	4.98	-55.6	-59.2	9.9	1.24e-02	0	26	0	10485760	77	5435
2026-01-05 15:23:42.13	262.72	5.01	-54.2	-56.9	11.5	5.95e-05	0	26	0	16777216	74	4949
2026-01-05 15:23:43.13	262.85	5.05	-55.8	-59.6	9.6	6.49e-03	0	26	0	22020096	77	5666
2026-01-05 15:23:44.13	262.99	5.09	-57.5	-64.1	5.9	3.63e-01	0	26	0	27262976	80	8012
2026-01-05 15:23:45.13	263.12	5.12	-51.6	-53.4	13.5	0.00e+00	0	26	0	32505856	69	4427
2026-01-05 15:23:46.13	263.25	5.16	-57.5	-64.3	5.6	3.24e-01	0	26	0	36700160	80	8259
2026-01-05 15:23:47.12	263.38	5.19	-50.2	-51.6	14.1	0.00e+00	0	26	0	42991616	66	4287
2026-01-05 15:23:48.12	263.51	5.23	-49.6	-51.0	14.3	0.00e+00	0	26	0	48234496	65	4215
2026-01-05 15:23:49.12	263.65	5.26	-49.6	-51.0	14.3	0.00e+00	0	26	0	53477376	65	4203
2026-01-05 15:23:50.11	263.78	5.30	-49.5	-50.9	14.3	0.00e+00	0	26	0	59768832	65	4166
2026-01-05 15:23:51.11	263.91	5.33	-49.6	-51.0	14.3	0.00e+00	0	26	0	65011712	65	4220
2026-01-05 15:23:52.11	264.04	5.37	-49.6	-51.0	14.3	0.00e+00	0	26	0	70254592	65	4217
2026-01-05 15:23:53.11	264.18	5.41	-49.6	-51.1	14.2	0.00e+00	0	26	0	76546048	65	4264
2026-01-05 15:23:54.11	264.31	5.44	-49.5	-50.9	14.3	0.00e+00	0	26	0	81788928	65	4189
2026-01-05 15:23:55.11	264.45	5.48	-49.6	-51.1	14.3	0.00e+00	0	26	0	87031808	65	4247
2026-01-05 15:23:56.10	264.58	5.51	-49.6	-51.0	14.3	0.00e+00	0	26	0	93323264	65	4242
2026-01-05 15:23:57.10	264.72	5.54	-49.5	-50.9	14.3	0.00e+00	0	26	0	98566144	65	4187
2026-01-05 15:23:58.09	264.85	5.58	-49.4	-50.9	14.4	0.00e+00	0	26	0	104857600	65	4150
2026-01-05 15:23:59.09	264.99	5.61	-49.5	-50.9	14.4	0.00e+00	0	26	0	110100480	65	4155
2026-01-05 15:24:00.09	265.12	5.65	-49.3	-50.6	14.5	0.00e+00	0	26	0	115343360	65	4047
2026-01-05 15:24:01.09	265.26	5.68	-49.3	-50.7	14.5	0.00e+00	0	26	0	121634816	65	4063
2026-01-05 15:24:02.09	265.40	5.72	-49.3	-50.6	14.5	0.00e+00	0	26	0	126877696	65	4046
2026-01-05 15:24:03.08	265.53	5.75	-49.2	-50.6	14.3	0.00e+00	0	27	0	132120576	64	4267
2026-01-05 15:24:04.09	265.67	5.79	-49.1	-50.5	14.4	0.00e+00	0	26	0	138412032	64	4226
2026-01-05 15:24:05.09	265.81	5.82	-49.2	-50.6	14.4	0.00e+00	0	27	0	143654912	64	4251
2026-01-05 15:24:06.09	265.95	5.85	-49.1	-50.4	14.4	0.00e+00	0	27	0	148897792	64	4180
2026-01-05 15:24:07.09	266.09	5.89	-49.1	-50.4	14.4	0.00e+00	0	27	0	155189248	64	4178
2026-01-05 15:24:08.09	266.22	5.92	-49.0	-50.3	14.5	0.00e+00	0	26	0	160432128	64	4129
2026-01-05 15:24:09.10	266.36	5.96	-49.1	-50.5	14.4	0.00e+00	0	27	0	166723584	64	4200
2026-01-05 15:24:10.09	266.50	5.99	-49.4	-50.8	14.3	0.00e+00	0	26	0	171966464	64	4360
2026-01-05 15:24:11.09	266.64	6.02	-49.3	-50.7	14.3	0.00e+00	0	26	0	177209344	64	4316
2026-01-05 15:24:12.09	266.78	6.06	-49.1	-50.5	14.4	0.00e+00	0	26	0	183500800	64	4228
2026-01-05 15:24:13.08	266.92	6.09	-49.1	-50.5	14.4	0.00e+00	0	27	0	188743680	64	4230
2026-01-05 15:24:14.08	267.06	6.12	-48.9	-50.2	14.5	0.00e+00	0	27	0	193986560	64	4081
2026-01-05 15:24:15.08	267.20	6.16	-48.8	-50.2	14.5	0.00e+00	0	27	0	200278016	64	4054
2026-01-05 15:24:16.08	267.34	6.19	-49.1	-50.5	14.4	0.00e+00	0	26	0	205520896	64	4197
2026-01-05 15:24:17.08	267.49	6.22	-49.3	-50.7	14.3	0.00e+00	0	26	0	210763776	64	4311
2026-01-05 15:24:18.07	267.63	6.26	-49.6	-51.0	14.1	0.00e+00	0	27	0	217055232	64	4471
2026-01-05 15:24:19.08	267.77	6.29	-49.8	-51.3	14.0	0.00e+00	0	27	0	222298112	64	4610
2026-01-05 15:24:20.08	267.91	6.32	-50.4	-52.0	13.7	0.00e+00	0	26	0	228589568	65	4753
2026-01-05 15:24:21.08	268.05	6.35	-50.8	-52.5	13.6	0.00e+00	0	26	0	233832448	67	4492
2026-01-05 15:24:22.07	268.20	6.39	-51.1	-52.9	13.4	0.00e+00	0	26	0	239075328	67	4658
2026-01-05 15:24:23.07	268.34	6.42	-51.4	-53.3	13.2	0.00e+00	0	27	0	244318208	67	4896
2026-01-05 15:24:24.06	268.48	6.45	-51.7	-53.6	13.1	0.00e+00	0	27	0	250609664	68	4768
2026-01-05 15:24:25.06	268.63	6.48	-51.9	-53.8	13.0	0.00e+00	0	27	0	255852544	68	4896
2026-01-05 15:24:26.06	268.77	6.52	-51.9	-53.9	13.0	0.00e+00	0	27	0	261095424	69	4689
2026-01-05 15:24:27.07	268.92	6.55	-52.1	-54.2	12.8	0.00e+00	0	27	0	267386880	69	4842
2026-01-05 15:24:28.06	269.06	6.58	-52.3	-54.4	12.7	0.00e+00	0	27	0	272629760	69	4944
2026-01-05 15:24:29.06	269.20	6.61	-52.2	-54.3	12.8	0.00e+00	0	27	0	278921216	69	4881
2026-01-05 15:24:30.06	269.35	6.64	-52.3	-54.4	12.7	0.00e+00	0	27	0	284164096	69	4975
2026-01-05 15:24:31.07	269.50	6.67	-52.3	-54.4	12.7	0.00e+00	0	27	0	289406976	69	4954
2026-01-05 15:24:32.06	269.64	6.71	-52.2	-54.3	12.8	0.00e+00	0	27	0	295698432	69	4879
2026-01-05 15:24:33.06	269.79	6.74	-51.9	-53.8	13.1	0.00e+00	0	27	0	300941312	69	4634
2026-01-05 15:24:34.05	269.93	6.77	-51.6	-53.4	13.4	0.00e+00	0	27	0	306184192	69	4403
2026-01-05 15:24:35.05	270.08	6.80	-51.0	-52.7	13.7	0.00e+00	0	26	0	312475648	68	4292
2026-01-05 15:24:36.04	270.23	6.83	-50.4	-51.9	14.0	0.00e+00	0	27	0	317718528	67	4174
2026-01-05 15:24:37.04	270.37	6.86	-49.8	-51.3	14.2	0.00e+00	0	26	0	322961408	66	4118
2026-01-05 15:24:38.04	270.52	6.89	-49.5	-51.0	14.3	0.00e+00	0	27	0	329252864	65	4205
2026-01-05 15:24:39.04	270.67	6.92	-49.4	-50.9	14.3	0.00e+00	0	27	0	334495744	65	4149
2026-01-05 15:24:40.04	270.82	6.95	-49.5	-51.0	14.3	0.00e+00	0	27	0	340787200	65	4203
2026-01-05 15:24:41.04	270.97	6.98	-49.5	-51.0	14.3	0.00e+00	0	27	0	346030080	65	4204
2026-01-05 15:24:42.04	271.12	7.01	-49.7	-51.1	14.2	0.00e+00	0	26	0	351272960	65	4277
2026-01-05 15:24:43.03	271.26	7.04	-49.5	-50.9	14.4	0.00e+00	0	27	0	357564416	65	4180
2026-01-05 15:24:44.02	271.41	7.07	-49.4	-50.8	14.4	0.00e+00	0	27	0	362807296	65	4126
2026-01-05 15:24:45.02	271.56	7.10	-49.5	-50.9	14.4	0.00e+00	0	27	0	368050176	65	4155
2026-01-05 15:24:46.02	271.71	7.13	-49.4	-50.7	14.4	0.00e+00	0	26	0	373293056	65	4097
2026-01-05 15:24:47.01	271.86	7.16	-49.3	-50.7	14.5	0.00e+00	0	27	0	379584512	65	4089
2026-01-05 15:24:48.01	272.01	7.19	-49.1	-50.4	14.5	0.00e+00	0	27	0	384827392	64	4183
2026-01-05 15:24:49.00	272.16	7.22	-49.0	-50.4	14.5	0.00e+00	0	27	0	391118848	64	4149
2026-01-05 15:24:50.00	272.31	7.25	-49.0	-50.3	14.5	0.00e+00	0	26	0	396361728	64	4114
2026-01-05 15:24:51.00	272.47	7.28	-48.8	-50.1	14.6	0.00e+00	0	26	0	401604608	64	4036
2026-01-05 15:24:51.99	272.62	7.30	-48.9	-50.2	14.6	0.00e+00	0	27	0	407896064	64	4056
2026-01-05 15:24:52.99	272.77	7.33	-48.8	-50.1	14.5	0.00e+00	0	27	0	413138944	63	4260
2026-01-05 15:24:53.99	272.92	7.36	-48.8	-50.1	14.5	0.00e+00	0	27	0	418381824	63	4266
2026-01-05 15:24:54.99	273.07	7.39	-48.8	-50.1	14.5	0.00e+00	0	27	0	424673280	63	4261
2026-01-05 15:24:55.98	273.23	7.42	-48.6	-49.9	14.6	0.00e+00	0	27	0	429916160	63	4155
2026-01-05 15:24:56.98	273.38	7.45	-48.6	-49.9	14.6	0.00e+00	0	27	0	435159040	63	4171
2026-01-05 15:24:57.98	273.53	7.47	-48.6	-49.9	14.6	0.00e+00	0	27	0	441450496	63	4148
2026-01-05 15:24:58.97	273.68	7.50	-48.6	-49.9	14.6	0.00e+00	0	27	0	446693376	63	4175
2026-01-05 15:24:59.97	273.84	7.53	-48.6	-49.9	14.6	0.00e+00	0	26	0	451936256	63	4164
2026-01-05 15:25:00.97	273.99	7.56	-48.6	-49.9	14.6	0.00e+00	0	27	0	458227712	63	4184
2026-01-05 15:25:01.97	274.15	7.58	-48.6	-49.9	14.6	0.00e+00	0	27	0	463470592	63	4153
2026-01-05 15:25:02.97	274.30	7.61	-48.8	-50.1	14.5	0.00e+00	0	27	0	468713472	63	4265
2026-01-05 15:25:03.96	274.46	7.64	-48.9	-50.2	14.5	0.00e+00	0	27	0	475004928	63	4320
2026-01-05 15:25:04.97	274.61	7.67	-48.9	-50.2	14.5	0.00e+00	0	27	0	480247808	63	4328
2026-01-05 15:25:05.97	274.77	7.69	-48.9	-50.2	14.5	0.00e+00	0	27	0	486539264	63	4303
2026-01-05 15:25:06.97	274.93	7.72	-48.9	-50.2	14.5	0.00e+00	0	27	0	491782144	63	4331
2026-01-05 15:25:07.96	275.08	7.75	-48.7	-50.0	14.5	0.00e+00	0	27	0	497025024	63	4226
2026-01-05 15:25:08.97	275.24	7.77	-48.7	-50.0	14.6	0.00e+00	0	27	0	503316480	63	4221
2026-01-05 15:25:09.97	275.40	7.80	-48.7	-50.0	14.6	0.00e+00	0	27	0	508559360	63	4234
2026-01-05 15:25:10.96	275.55	7.82	-48.7	-50.0	14.6	0.00e+00	0	27	0	513802240	63	4197
2026-01-05 15:25:11.96	275.71	7.85	-48.7	-50.0	14.6	0.00e+00	0	27	0	520093696	63	4234
2026-01-05 15:25:12.96	275.87	7.88	-48.6	-49.9	14.6	0.00e+00	0	27	0	525336576	63	4160
2026-01-05 15:25:13.95	276.02	7.90	-48.6	-49.9	14.6	0.00e+00	0	27	0	530579456	63	4176
2026-01-05 15:25:14.95	276.18	7.93	-48.8	-50.1	14.5	0.00e+00	0	26	0	536870912	63	4247
2026-01-05 15:25:15.95	276.34	7.95	-48.8	-50.1	14.5	0.00e+00	0	27	0	542113792	63	4278
2026-01-05 15:25:16.94	276.50	7.98	-48.9	-50.2	14.5	0.00e+00	0	27	0	547356672	63	4303
2026-01-05 15:25:17.95	276.66	8.00	-48.8	-50.2	14.5	0.00e+00	0	27	0	553648128	63	4295
2026-01-05 15:25:18.95	276.82	8.03	-48.8	-50.1	14.5	0.00e+00	0	26	0	558891008	63	4273
2026-01-05 15:25:19.94	276.98	8.05	-48.7	-50.0	14.6	0.00e+00	0	27	0	565182464	63	4232
2026-01-05 15:25:20.94	277.14	8.08	-48.8	-50.1	14.5	0.00e+00	0	27	0	570425344	63	4255
2026-01-05 15:25:21.93	277.30	8.10	-48.8	-50.1	14.5	0.00e+00	0	27	0	575668224	63	4251
2026-01-05 15:25:22.93	277.46	8.12	-48.8	-50.1	14.5	0.00e+00	0	27	0	581959680	63	4262
2026-01-05 15:25:23.93	277.62	8.15	-48.8	-50.1	14.5	0.00e+00	0	27	0	587202560	63	4270
2026-01-05 15:25:24.92	277.78	8.17	-48.8	-50.1	14.5	0.00e+00	0	27	0	592445440	63	4277
2026-01-05 15:25:25.92	277.94	8.19	-48.8	-50.1	14.5	0.00e+00	0	27	0	597688320	63	4270
2026-01-05 15:25:26.91	278.10	8.22	-48.8	-50.1	14.5	0.00e+00	0	27	0	603979776	63	4264
2026-01-05 15:25:27.91	278.26	8.24	-48.9	-50.2	14.5	0.00e+00	0	27	0	609222656	63	4309
2026-01-05 15:25:28.91	278.42	8.26	-48.8	-50.1	14.5	0.00e+00	0	27	0	615514112	63	4291
2026-01-05 15:25:29.91	278.58	8.29	-48.9	-50.2	14.5	0.00e+00	0	27	0	620756992	63	4325
2026-01-05 15:25:30.91	278.75	8.31	-48.9	-50.3	14.5	0.00e+00	0	27	0	625999872	63	4351
2026-01-05 15:25:31.91	278.91	8.33	-48.8	-50.1	14.6	0.00e+00	0	27	0	632291328	63	4253
2026-01-05 15:25:32.91	279.07	8.35	-48.8	-50.1	14.6	0.00e+00	0	26	0	637534208	63	4286
2026-01-05 15:25:33.90	279.23	8.38	-48.9	-50.2	14.5	0.00e+00	0	26	0	642777088	63	4299
2026-01-05 15:25:34.89	279.39	8.40	-48.7	-50.0	14.6	0.00e+00	0	27	0	649068544	63	4199
2026-01-05 15:25:35.89	279.56	8.42	-48.8	-50.1	14.6	0.00e+00	0	27	0	654311424	63	4259
2026-01-05 15:25:36.89	279.72	8.44	-48.8	-50.1	14.5	0.00e+00	0	27	0	660602880	63	4252
2026-01-05 15:25:37.88	279.88	8.46	-48.9	-50.3	14.5	0.00e+00	0	27	0	665845760	63	4349
2026-01-05 15:25:38.89	280.05	8.48	-48.9	-50.2	14.5	0.00e+00	0	27	0	671088640	63	4298
2026-01-05 15:25:39.89	280.21	8.51	-48.9	-50.2	14.5	0.00e+00	0	27	0	677380096	63	4324
2026-01-05 15:25:40.89	280.38	8.53	-49.0	-50.3	14.5	0.00e+00	0	27	0	682622976	63	4378
2026-01-05 15:25:41.89	280.54	8.55	-48.9	-50.3	14.5	0.00e+00	0	27	0	687865856	63	4345
2026-01-05 15:25:42.88	280.71	8.57	-48.9	-50.3	14.5	0.00e+00	0	27	0	694157312	63	4347
2026-01-05 15:25:43.88	280.87	8.59	-49.0	-50.3	14.5	0.00e+00	0	27	0	699400192	63	4376
2026-01-05 15:25:44.89	281.04	8.61	-49.0	-50.3	14.5	0.00e+00	0	27	0	704643072	63	4362
2026-01-05 15:25:45.89	281.21	8.63	-48.9	-50.2	14.5	0.00e+00	0	27	0	710934528	63	4322
2026-01-05 15:25:46.90	281.37	8.65	-48.9	-50.3	14.5	0.00e+00	0	27	0	716177408	63	4348
2026-01-05 15:25:47.90	281.54	8.67	-48.9	-50.2	14.5	0.00e+00	0	27	0	722468864	63	4307
2026-01-05 15:25:48.90	281.71	8.69	-48.8	-50.0	14.6	0.00e+00	0	27	0	727711744	63	4237
2026-01-05 15:25:49.89	281.87	8.71	-48.7	-50.0	14.6	0.00e+00	0	27	0	732954624	63	4219
2026-01-05 15:25:50.88	282.04	8.73	-48.7	-50.0	14.6	0.00e+00	0	27	0	739246080	63	4228
2026-01-05 15:25:51.89	282.21	8.74	-48.7	-50.0	14.6	0.00e+00	0	27	0	744488960	63	4213
2026-01-05 15:25:52.87	282.37	8.76	-48.7	-49.9	14.6	0.00e+00	0	27	0	749731840	63	4182
2026-01-05 15:25:53.86	282.54	8.78	-48.7	-50.0	14.6	0.00e+00	0	27	0	754974720	63	4197
2026-01-05 15:25:54.86	282.70	8.80	-48.8	-50.1	14.6	0.00e+00	0	27	0	761266176	63	4272
2026-01-05 15:25:55.85	282.87	8.82	-48.6	-49.9	14.6	0.00e+00	0	27	0	766509056	63	4172
2026-01-05 15:25:56.85	283.04	8.83	-48.7	-49.9	14.6	0.00e+00	0	27	0	772800512	63	4190
2026-01-05 15:25:57.85	283.21	8.85	-48.8	-50.1	14.6	0.00e+00	0	27	0	778043392	63	4249
2026-01-05 15:25:58.84	283.37	8.87	-48.7	-49.9	14.6	0.00e+00	0	27	0	783286272	63	4186
2026-01-05 15:25:59.84	283.54	8.89	-48.7	-50.0	14.7	0.00e+00	0	27	0	789577728	63	4197
2026-01-05 15:26:00.84	283.71	8.90	-48.7	-50.0	14.6	0.00e+00	0	27	0	794820608	63	4219
2026-01-05 15:26:01.83	283.88	8.92	-48.7	-50.0	14.6	0.00e+00	0	27	0	800063488	63	4213
2026-01-05 15:26:02.84	284.05	8.94	-48.7	-50.0	14.6	0.00e+00	0	27	0	806354944	63	4219
2026-01-05 15:26:03.83	284.22	8.95	-48.7	-50.0	14.6	0.00e+00	0	27	0	811597824	63	4205
2026-01-05 15:26:04.82	284.39	8.97	-48.7	-49.9	14.6	0.00e+00	0	27	0	816840704	63	4180
2026-01-05 15:26:05.82	284.56	8.99	-48.7	-49.9	14.6	0.00e+00	0	27	0	823132160	63	4186
2026-01-05 15:26:06.82	284.73	9.00	-48.6	-49.8	14.7	0.00e+00	0	27	0	828375040	63	4129
2026-01-05 15:26:07.82	284.90	9.02	-48.5	-49.7	14.7	0.00e+00	0	27	0	834666496	63	4075
2026-01-05 15:26:08.82	285.07	9.03	-48.5	-49.7	14.7	0.00e+00	0	27	0	839909376	63	4076
2026-01-05 15:26:09.82	285.24	9.05	-48.5	-49.8	14.7	0.00e+00	0	27	0	845152256	63	4106
2026-01-05 15:26:10.82	285.41	9.06	-48.6	-49.8	14.7	0.00e+00	0	27	0	851443712	63	4145
2026-01-05 15:26:11.82	285.58	9.08	-48.6	-49.9	14.7	0.00e+00	0	27	0	856686592	63	4158
2026-01-05 15:26:12.82	285.75	9.09	-48.7	-49.9	14.7	0.00e+00	0	27	0	861929472	63	4181
2026-01-05 15:26:13.82	285.92	9.11	-48.8	-50.0	14.6	0.00e+00	0	27	0	868220928	63	4232
2026-01-05 15:26:14.82	286.09	9.12	-48.9	-50.2	14.5	0.00e+00	0	27	0	873463808	63	4318
2026-01-05 15:26:15.82	286.26	9.13	-48.9	-50.2	14.6	0.00e+00	0	27	0	878706688	63	4319
2026-01-05 15:26:16.82	286.44	9.15	-49.0	-50.3	14.5	0.00e+00	0	27	0	884998144	63	4371
2026-01-05 15:26:17.82	286.61	9.16	-49.0	-50.3	14.5	0.00e+00	0	27	0	890241024	63	4350
2026-01-05 15:26:18.82	286.78	9.18	-49.0	-50.4	14.5	0.00e+00	0	27	0	895483904	63	4395
2026-01-05 15:26:19.82	286.95	9.19	-48.8	-50.1	14.6	0.00e+00	0	27	0	901775360	63	4279
2026-01-05 15:26:20.82	287.12	9.20	-48.8	-50.1	14.6	0.00e+00	0	27	0	907018240	63	4285
2026-01-05 15:26:21.82	287.30	9.21	-48.8	-50.1	14.6	0.00e+00	0	27	0	913309696	63	4265
2026-01-05 15:26:22.82	287.47	9.23	-48.9	-50.1	14.6	0.00e+00	0	27	0	918552576	63	4282
2026-01-05 15:26:23.82	287.64	9.24	-48.8	-50.1	14.6	0.00e+00	0	27	0	923795456	63	4263
2026-01-05 15:26:24.82	287.81	9.25	-48.7	-49.9	14.7	0.00e+00	0	27	0	930086912	63	4187
2026-01-05 15:26:25.81	287.98	9.26	-48.7	-50.0	14.6	0.00e+00	0	27	0	935329792	63	4208
2026-01-05 15:26:26.81	288.16	9.27	-48.7	-50.0	14.6	0.00e+00	0	27	0	940572672	63	4199
2026-01-05 15:26:27.81	288.33	9.28	-48.7	-50.0	14.6	0.00e+00	0	27	0	946864128	63	4217
2026-01-05 15:26:28.81	288.50	9.30	-48.8	-50.1	14.6	0.00e+00	0	27	0	952107008	63	4257
2026-01-05 15:26:29.81	288.68	9.31	-48.9	-50.2	14.5	0.00e+00	0	27	0	957349888	63	4334
2026-01-05 15:26:30.81	288.85	9.32	-48.9	-50.2	14.5	0.00e+00	0	27	0	963641344	63	4309
2026-01-05 15:26:31.81	289.03	9.33	-49.0	-50.2	14.5	0.00e+00	0	27	0	968884224	63	4339
2026-01-05 15:26:32.80	289.20	9.34	-49.0	-50.3	14.5	0.00e+00	0	27	0	974127104	63	4361
2026-01-05 15:26:33.81	289.37	9.35	-49.1	-50.4	14.5	0.00e+00	0	27	0	980418560	63	4438
2026-01-05 15:26:34.81	289.55	9.36	-49.0	-50.3	14.5	0.00e+00	0	27	0	985661440	63	4385
2026-01-05 15:26:35.80	289.72	9.37	-49.0	-50.3	14.5	0.00e+00	0	27	0	990904320	63	4343
2026-01-05 15:26:36.80	289.89	9.38	-49.0	-50.3	14.5	0.00e+00	0	27	0	997195776	63	4354
2026-01-05 15:26:37.80	290.07	9.39	-49.1	-50.4	14.5	0.00e+00	0	27	0	1002438656	63	4404
2026-01-05 15:26:38.79	290.24	9.39	-48.8	-50.1	14.6	0.00e+00	0	27	0	1008730112	63	4265
2026-01-05 15:26:39.79	290.42	9.40	-48.9	-50.2	14.5	0.00e+00	0	27	0	1013972992	63	4297
2026-01-05 15:26:40.79	290.59	9.41	-48.8	-50.1	14.6	0.00e+00	0	27	0	1019215872	63	4267
2026-01-05 15:26:41.79	290.76	9.42	-48.9	-50.1	14.6	0.00e+00	0	27	0	1025507328	63	4284
2026-01-05 15:26:42.79	290.94	9.43	-48.8	-50.1	14.6	0.00e+00	0	27	0	1030750208	63	4279
2026-01-05 15:26:43.79	291.11	9.43	-48.9	-50.2	14.6	0.00e+00	0	27	0	1035993088	63	4294
2026-01-05 15:26:44.79	291.29	9.44	-48.8	-50.1	14.6	0.00e+00	0	27	0	1042284544	63	4277
2026-01-05 15:26:45.78	291.46	9.45	-48.8	-50.1	14.6	0.00e+00	0	27	0	1047527424	63	4245
2026-01-05 15:26:46.78	291.64	9.46	-48.7	-50.0	14.6	0.00e+00	0	27	0	1052770304	63	4225
2026-01-05 15:26:47.78	291.81	9.46	-48.7	-50.0	14.6	0.00e+00	0	27	0	1059061760	63	4231
2026-01-05 15:26:48.77	291.99	9.47	-48.7	-50.0	14.6	0.00e+00	0	27	0	1064304640	63	4227
2026-01-05 15:26:49.77	292.16	9.48	-48.7	-49.9	14.6	0.00e+00	0	27	0	1070596096	63	4191
2026-01-05 15:26:50.76	292.34	9.48	-48.7	-50.0	14.6	0.00e+00	0	27	0	1075838976	63	4196
2026-01-05 15:26:51.76	292.51	9.49	-48.7	-49.9	14.7	0.00e+00	0	27	0	1081081856	63	4187
2026-01-05 15:26:52.75	292.69	9.49	-48.7	-49.9	14.6	0.00e+00	0	27	0	1086324736	63	4187
2026-01-05 15:26:53.75	292.86	9.50	-48.7	-50.0	14.6	0.00e+00	0	27	0	1092616192	63	4203
2026-01-05 15:26:54.75	293.04	9.50	-48.9	-50.1	14.6	0.00e+00	0	27	0	1097859072	63	4289
2026-01-05 15:26:55.75	293.21	9.51	-48.8	-50.1	14.6	0.00e+00	0	27	0	1103101952	63	4255
2026-01-05 15:26:56.74	293.39	9.51	-48.9	-50.2	14.6	2.28e-04	0	27	0	1109393408	63	4317
2026-01-05 15:26:57.74	293.56	9.52	-48.9	-50.2	14.5	0.00e+00	0	27	0	1114636288	63	4316
2026-01-05 15:26:58.74	293.74	9.52	-48.9	-50.2	14.5	0.00e+00	0	27	0	1120927744	63	4317
2026-01-05 15:26:59.74	293.91	9.53	-48.9	-50.2	14.5	0.00e+00	0	27	0	1126170624	63	4325
2026-01-05 15:27:00.73	294.09	9.53	-48.9	-50.2	14.5	0.00e+00	0	27	0	1131413504	63	4328
2026-01-05 15:27:01.73	294.26	9.53	-48.9	-50.3	14.5	0.00e+00	0	27	0	1137704960	63	4342
2026-01-05 15:27:02.72	294.44	9.54	-48.9	-50.2	14.6	0.00e+00	0	27	0	1142947840	63	4306
2026-01-05 15:27:03.72	294.62	9.54	-48.9	-50.1	14.6	0.00e+00	0	27	0	1148190720	63	4287
2026-01-05 15:27:04.72	294.79	9.54	-48.7	-49.9	14.6	0.00e+00	0	27	0	1153433600	63	4188
2026-01-05 15:27:05.71	294.97	9.55	-48.8	-50.1	14.6	0.00e+00	0	27	0	1159725056	63	4255
2026-01-05 15:27:06.71	295.14	9.55	-48.7	-49.9	14.7	0.00e+00	0	27	0	1164967936	63	4177
2026-01-05 15:27:07.71	295.32	9.55	-48.6	-49.9	14.7	0.00e+00	0	27	0	1171259392	63	4165
2026-01-05 15:27:08.71	295.49	9.55	-48.6	-49.8	14.7	0.00e+00	0	27	0	1176502272	63	4144
2026-01-05 15:27:09.71	295.67	9.55	-48.6	-49.8	14.7	0.00e+00	0	27	0	1181745152	63	4144
2026-01-05 15:27:10.71	295.85	9.55	-48.6	-49.9	14.7	0.00e+00	0	27	0	1188036608	63	4148
2026-01-05 15:27:11.70	296.02	9.56	-48.5	-49.8	14.7	0.00e+00	0	27	0	1193279488	63	4101
2026-01-05 15:27:12.71	296.20	9.56	-48.5	-49.8	14.7	0.00e+00	0	27	0	1198522368	63	4112
2026-01-05 15:27:13.71	296.38	9.56	-48.6	-49.8	14.7	0.00e+00	0	27	0	1204813824	63	4122
2026-01-05 15:27:14.70	296.55	9.56	-48.6	-49.8	14.7	0.00e+00	0	27	0	1210056704	63	4141
2026-01-05 15:27:15.70	296.73	9.56	-48.7	-49.9	14.6	0.00e+00	0	27	0	1216348160	63	4184
2026-01-05 15:27:16.70	296.90	9.56	-48.6	-49.9	14.7	0.00e+00	0	27	0	1221591040	63	4171
2026-01-05 15:27:17.70	297.08	9.56	-48.7	-50.0	14.6	0.00e+00	0	27	0	1226833920	63	4211
2026-01-05 15:27:18.70	297.26	9.56	-48.8	-50.1	14.6	0.00e+00	0	27	0	1233125376	63	4245
2026-01-05 15:27:19.70	297.43	9.56	-48.7	-49.9	14.6	0.00e+00	0	27	0	1238368256	63	4186
2026-01-05 15:27:20.70	297.61	9.56	-48.6	-49.9	14.6	0.00e+00	0	27	0	1243611136	63	4159
2026-01-05 15:27:21.69	297.78	9.55	-48.6	-49.9	14.7	0.00e+00	0	27	0	1249902592	63	4161
2026-01-05 15:27:22.68	297.96	9.55	-48.6	-49.8	14.7	0.00e+00	0	27	0	1255145472	63	4141
2026-01-05 15:27:23.68	298.13	9.55	-48.5	-49.8	14.7	0.00e+00	0	27	0	1260388352	63	4123
2026-01-05 15:27:24.69	298.31	9.55	-48.6	-49.8	14.7	0.00e+00	0	27	0	1266679808	63	4143
2026-01-05 15:27:25.68	298.49	9.55	-48.7	-49.9	14.6	0.00e+00	0	27	0	1271922688	63	4190
2026-01-05 15:27:26.67	298.66	9.55	-48.8	-50.1	14.6	0.00e+00	0	27	0	1278214144	63	4255
2026-01-05 15:27:27.67	298.84	9.54	-48.8	-50.1	14.6	0.00e+00	0	27	0	1283457024	63	4272
2026-01-05 15:27:28.67	299.01	9.54	-49.0	-50.3	14.5	0.00e+00	0	27	0	1288699904	63	4350
2026-01-05 15:27:29.67	299.19	9.54	-48.9	-50.2	14.5	0.00e+00	0	27	0	1294991360	63	4306
2026-01-05 15:27:30.67	299.37	9.53	-48.8	-50.1	14.6	0.00e+00	0	27	0	1300234240	63	4263
2026-01-05 15:27:31.67	299.54	9.53	-48.8	-50.1	14.6	0.00e+00	0	27	0	1305477120	63	4263
2026-01-05 15:27:32.66	299.72	9.53	-48.7	-50.0	14.6	0.00e+00	0	27	0	1310720000	63	4223
2026-01-05 15:27:33.65	299.89	9.52	-48.7	-50.0	14.6	0.00e+00	0	27	0	1317011456	63	4213
2026-01-05 15:27:34.65	300.07	9.52	-48.7	-50.0	14.6	0.00e+00	0	27	0	1322254336	63	4220
2026-01-05 15:27:35.64	300.24	9.51	-48.7	-50.0	14.6	0.00e+00	0	27	0	1328545792	63	4212
2026-01-05 15:27:36.64	300.42	9.51	-48.6	-49.8	14.7	0.00e+00	0	27	0	1333788672	63	4121
2026-01-05 15:27:37.64	300.59	9.50	-48.6	-49.9	14.7	0.00e+00	0	27	0	1339031552	63	4155
2026-01-05 15:27:38.64	300.77	9.50	-48.6	-49.9	14.6	0.00e+00	0	27	0	1345323008	63	4175
2026-01-05 15:27:39.64	300.94	9.49	-48.7	-49.9	14.6	0.00e+00	0	27	0	1350565888	63	4184
2026-01-05 15:27:40.64	301.12	9.49	-48.7	-50.0	14.6	0.00e+00	0	27	0	1355808768	63	4201
2026-01-05 15:27:41.63	301.29	9.48	-48.7	-50.0	14.6	0.00e+00	0	27	0	1362100224	63	4216
2026-01-05 15:27:42.63	301.47	9.48	-48.7	-50.0	14.6	0.00e+00	0	27	0	1367343104	63	4195
2026-01-05 15:27:43.62	301.64	9.47	-48.8	-50.0	14.6	0.00e+00	0	27	0	1372585984	63	4242
2026-01-05 15:27:44.62	301.82	9.46	-48.7	-49.9	14.6	0.00e+00	0	27	0	1378877440	63	4184
2026-01-05 15:27:45.62	301.99	9.46	-48.6	-49.9	14.7	0.00e+00	0	27	0	1384120320	63	4149
2026-01-05 15:27:46.61	302.16	9.45	-48.6	-49.8	14.7	0.00e+00	0	27	0	1389363200	63	4139
2026-01-05 15:27:47.60	302.34	9.44	-48.6	-49.9	14.6	0.00e+00	0	27	0	1395654656	63	4168
2026-01-05 15:27:48.60	302.51	9.44	-48.7	-50.0	14.6	0.00e+00	0	27	0	1400897536	63	4212
2026-01-05 15:27:49.60	302.69	9.43	-48.8	-50.0	14.6	0.00e+00	0	27	0	1406140416	63	4232
2026-01-05 15:27:50.60	302.86	9.42	-48.7	-50.0	14.6	0.00e+00	0	27	0	1412431872	63	4227
2026-01-05 15:27:51.60	303.04	9.41	-48.9	-50.2	14.5	0.00e+00	0	27	0	1417674752	63	4297
2026-01-05 15:27:52.59	303.21	9.40	-48.9	-50.3	14.5	0.00e+00	0	27	0	1422917632	63	4342
2026-01-05 15:27:53.59	303.38	9.39	-48.9	-50.2	14.5	0.00e+00	0	27	0	1429209088	63	4320
2026-01-05 15:27:54.58	303.56	9.39	-48.9	-50.2	14.5	0.00e+00	0	27	0	1434451968	63	4305
2026-01-05 15:27:55.58	303.73	9.38	-48.9	-50.2	14.5	0.00e+00	0	27	0	1440743424	63	4305
2026-01-05 15:27:56.57	303.90	9.37	-48.9	-50.2	14.5	0.00e+00	0	27	0	1445986304	63	4335
2026-01-05 15:27:57.57	304.08	9.36	-48.9	-50.2	14.5	0.00e+00	0	27	0	1451229184	63	4305
2026-01-05 15:27:58.57	304.25	9.35	-48.8	-50.1	14.6	0.00e+00	0	27	0	1457520640	63	4252
2026-01-05 15:27:59.56	304.42	9.34	-48.9	-50.2	14.5	0.00e+00	0	27	0	1462763520	63	4296
2026-01-05 15:28:00.56	304.60	9.33	-48.8	-50.1	14.5	0.00e+00	0	27	0	1468006400	63	4266
2026-01-05 15:28:01.55	304.77	9.32	-48.8	-50.1	14.6	0.00e+00	0	27	0	1473249280	63	4250
2026-01-05 15:28:02.55	304.94	9.31	-48.7	-50.0	14.6	0.00e+00	0	27	0	1479540736	63	4231
2026-01-05 15:28:03.55	305.11	9.30	-48.7	-50.0	14.6	0.00e+00	0	27	0	1484783616	63	4223
2026-01-05 15:28:04.55	305.29	9.29	-48.7	-50.0	14.6	0.00e+00	0	27	0	1491075072	63	4221
2026-01-05 15:28:05.54	305.46	9.28	-48.7	-50.0	14.6	0.00e+00	0	27	0	1496317952	63	4211
2026-01-05 15:28:06.54	305.63	9.26	-48.7	-50.0	14.6	0.00e+00	0	27	0	1501560832	63	4223
2026-01-05 15:28:07.53	305.80	9.25	-48.7	-50.0	14.6	0.00e+00	0	27	0	1507852288	63	4201
2026-01-05 15:28:08.54	305.98	9.24	-48.5	-49.8	14.7	0.00e+00	0	27	0	1513095168	63	4110
2026-01-05 15:28:09.54	306.15	9.23	-48.5	-49.7	14.7	0.00e+00	0	27	0	1518338048	63	4092
2026-01-05 15:28:10.53	306.32	9.22	-48.4	-49.7	14.7	0.00e+00	0	27	0	1524629504	63	4071
2026-01-05 15:28:11.53	306.49	9.20	-48.5	-49.7	14.7	0.00e+00	0	27	0	1529872384	63	4070
2026-01-05 15:28:12.54	306.67	9.19	-48.5	-49.8	14.7	0.00e+00	0	27	0	1535115264	63	4111
2026-01-05 15:28:13.54	306.84	9.18	-48.4	-49.7	14.7	0.00e+00	0	27	0	1541406720	63	4076
2026-01-05 15:28:14.55	307.01	9.16	-48.6	-49.8	14.7	0.00e+00	0	27	0	1546649600	63	4135
2026-01-05 15:28:15.54	307.18	9.15	-48.6	-49.9	14.6	0.00e+00	0	27	0	1552941056	63	4157
2026-01-05 15:28:16.54	307.35	9.14	-48.7	-50.0	14.6	0.00e+00	0	27	0	1558183936	63	4213
2026-01-05 15:28:17.53	307.52	9.12	-48.8	-50.1	14.6	0.00e+00	0	27	0	1563426816	63	4251
2026-01-05 15:28:18.53	307.69	9.11	-48.8	-50.1	14.5	0.00e+00	0	27	0	1569718272	63	4273
2026-01-05 15:28:19.53	307.86	9.10	-48.8	-50.1	14.5	0.00e+00	0	27	0	1574961152	63	4274
2026-01-05 15:28:20.54	308.04	9.08	-48.9	-50.2	14.5	0.00e+00	0	27	0	1580204032	63	4293
2026-01-05 15:28:21.54	308.21	9.07	-48.7	-50.0	14.6	0.00e+00	0	27	0	1586495488	63	4220
2026-01-05 15:28:22.54	308.38	9.05	-48.6	-49.9	14.7	0.00e+00	0	27	0	1591738368	63	4153
2026-01-05 15:28:23.55	308.55	9.04	-48.5	-49.8	14.7	0.00e+00	0	27	0	1596981248	63	4118
2026-01-05 15:28:24.54	308.72	9.02	-48.6	-49.9	14.6	0.00e+00	0	27	0	1603272704	63	4159
2026-01-05 15:28:25.53	308.89	9.01	-48.6	-49.9	14.7	0.00e+00	0	27	0	1608515584	63	4147
2026-01-05 15:28:26.53	309.06	8.99	-48.6	-49.8	14.6	0.00e+00	0	27	0	1614807040	63	4145
2026-01-05 15:28:27.53	309.23	8.97	-48.6	-49.9	14.6	0.00e+00	0	27	0	1620049920	63	4151
2026-01-05 15:28:28.52	309.39	8.96	-48.7	-49.9	14.6	0.00e+00	0	27	0	1625292800	63	4188
2026-01-05 15:28:29.52	309.56	8.94	-48.7	-50.0	14.6	0.00e+00	0	27	0	1631584256	63	4194
2026-01-05 15:28:30.52	309.73	8.92	-48.6	-49.9	14.6	0.00e+00	0	27	0	1636827136	63	4184
2026-01-05 15:28:31.52	309.90	8.91	-48.7	-49.9	14.6	0.00e+00	0	27	0	1642070016	63	4184
2026-01-05 15:28:32.52	310.07	8.89	-48.7	-49.9	14.6	0.00e+00	0	27	0	1648361472	63	4186
2026-01-05 15:28:33.51	310.24	8.87	-48.6	-49.9	14.6	0.00e+00	0	27	0	1653604352	63	4175
2026-01-05 15:28:34.51	310.40	8.86	-48.7	-49.9	14.6	0.00e+00	0	27	0	1658847232	63	4190
2026-01-05 15:28:35.50	310.57	8.84	-48.7	-50.0	14.6	0.00e+00	0	27	0	1665138688	63	4214
2026-01-05 15:28:36.49	310.74	8.82	-48.8	-50.1	14.5	0.00e+00	0	27	0	1670381568	63	4248
2026-01-05 15:28:37.49	310.90	8.80	-48.7	-50.0	14.5	0.00e+00	0	27	0	1675624448	63	4239
2026-01-05 15:28:38.48	311.07	8.79	-48.7	-50.0	14.5	0.00e+00	0	27	0	1681915904	63	4231
2026-01-05 15:28:39.47	311.24	8.77	-48.8	-50.0	14.5	0.00e+00	0	27	0	1687158784	63	4237
2026-01-05 15:28:40.47	311.40	8.75	-48.6	-49.9	14.6	0.00e+00	0	27	0	1692401664	63	4178
2026-01-05 15:28:41.47	311.57	8.73	-48.6	-49.9	14.6	0.00e+00	0	27	0	1698693120	63	4178
2026-01-05 15:28:42.48	311.74	8.71	-48.7	-50.0	14.6	0.00e+00	0	27	0	1703936000	63	4205
2026-01-05 15:28:43.47	311.90	8.69	-48.8	-50.1	14.5	0.00e+00	0	27	0	1710227456	63	4245
2026-01-05 15:28:44.46	312.07	8.67	-48.8	-50.1	14.5	0.00e+00	0	27	0	1715470336	63	4269
2026-01-05 15:28:45.46	312.23	8.65	-48.8	-50.2	14.5	0.00e+00	0	27	0	1720713216	63	4294
2026-01-05 15:28:46.46	312.40	8.63	-48.9	-50.2	14.5	0.00e+00	0	27	0	1725956096	63	4301
2026-01-05 15:28:47.45	312.56	8.61	-48.9	-50.2	14.5	0.00e+00	0	27	0	1732247552	63	4305
2026-01-05 15:28:48.45	312.73	8.59	-48.9	-50.3	14.5	0.00e+00	0	27	0	1737490432	63	4346
2026-01-05 15:28:49.45	312.89	8.57	-48.8	-50.1	14.5	0.00e+00	0	27	0	1742733312	63	4252
2026-01-05 15:28:50.45	313.06	8.55	-48.8	-50.1	14.5	0.00e+00	0	27	0	1749024768	63	4291
2026-01-05 15:28:51.43	313.22	8.53	-48.7	-50.0	14.5	0.00e+00	0	27	0	1754267648	63	4232
2026-01-05 15:28:52.43	313.38	8.51	-48.7	-50.0	14.6	0.00e+00	0	27	0	1760559104	63	4216
2026-01-05 15:28:53.43	313.55	8.49	-48.7	-50.0	14.6	0.00e+00	0	27	0	1765801984	63	4197
2026-01-05 15:28:54.42	313.71	8.47	-48.7	-49.9	14.6	0.00e+00	0	27	0	1771044864	63	4191
2026-01-05 15:28:55.42	313.87	8.45	-48.6	-49.9	14.6	0.00e+00	0	27	0	1776287744	63	4179
2026-01-05 15:28:56.41	314.04	8.43	-48.7	-50.0	14.6	0.00e+00	0	27	0	1782579200	63	4211
2026-01-05 15:28:57.41	314.20	8.41	-48.6	-49.9	14.6	0.00e+00	0	27	0	1787822080	63	4167
2026-01-05 15:28:58.40	314.36	8.38	-48.7	-50.0	14.6	0.00e+00	0	27	0	1793064960	63	4211
2026-01-05 15:28:59.39	314.52	8.36	-48.7	-50.0	14.6	0.00e+00	0	27	0	1799356416	63	4225
2026-01-05 15:29:00.37	314.68	8.34	-48.7	-50.0	14.6	0.00e+00	0	27	0	1804599296	63	4232
2026-01-05 15:29:01.37	314.84	8.32	-48.8	-50.1	14.5	0.00e+00	0	27	0	1809842176	63	4261
2026-01-05 15:29:02.37	315.01	8.30	-48.8	-50.1	14.5	0.00e+00	0	27	0	1816133632	63	4262
2026-01-05 15:29:03.36	315.17	8.27	-48.8	-50.1	14.5	0.00e+00	0	27	0	1821376512	63	4257
2026-01-05 15:29:04.36	315.33	8.25	-48.8	-50.1	14.5	0.00e+00	0	27	0	1826619392	63	4257
2026-01-05 15:29:05.36	315.49	8.23	-48.8	-50.2	14.5	0.00e+00	0	27	0	1832910848	63	4298
2026-01-05 15:29:06.37	315.65	8.20	-48.9	-50.2	14.4	0.00e+00	0	27	0	1838153728	63	4324
2026-01-05 15:29:07.37	315.81	8.18	-48.8	-50.2	14.5	0.00e+00	0	27	0	1843396608	63	4302
2026-01-05 15:29:08.37	315.97	8.16	-48.8	-50.2	14.5	0.00e+00	0	27	0	1849688064	63	4297
2026-01-05 15:29:09.37	316.13	8.13	-48.9	-50.3	14.4	0.00e+00	0	27	0	1854930944	63	4346
2026-01-05 15:29:10.37	316.29	8.11	-48.9	-50.2	14.4	0.00e+00	0	27	0	1861222400	63	4333
2026-01-05 15:29:11.37	316.45	8.08	-49.0	-50.3	14.4	0.00e+00	0	27	0	1866465280	63	4390
2026-01-05 15:29:12.36	316.61	8.06	-49.0	-50.3	14.4	0.00e+00	0	27	0	1871708160	63	4369
2026-01-05 15:29:13.35	316.77	8.04	-49.0	-50.3	14.4	0.00e+00	0	27	0	1877999616	63	4385
2026-01-05 15:29:14.35	316.93	8.01	-49.0	-50.4	14.4	0.00e+00	0	27	0	1883242496	63	4400
2026-01-05 15:29:15.35	317.09	7.99	-49.1	-50.4	14.4	0.00e+00	0	27	0	1888485376	63	4425
2026-01-05 15:29:16.35	317.25	7.96	-49.0	-50.4	14.4	0.00e+00	0	27	0	1894776832	63	4416
2026-01-05 15:29:17.35	317.40	7.94	-49.1	-50.4	14.4	0.00e+00	0	27	0	1900019712	63	4427
2026-01-05 15:29:18.35	317.56	7.91	-49.1	-50.4	14.4	0.00e+00	0	27	0	1905262592	63	4432
2026-01-05 15:29:19.34	317.72	7.89	-49.1	-50.5	14.3	0.00e+00	0	27	0	1911554048	63	4468
2026-01-05 15:29:20.33	317.87	7.86	-49.0	-50.4	14.4	0.00e+00	0	27	0	1916796928	63	4399
2026-01-05 15:29:21.32	318.03	7.84	-49.0	-50.4	14.4	0.00e+00	0	27	0	1923088384	63	4414
2026-01-05 15:29:22.33	318.19	7.81	-49.0	-50.3	14.4	0.00e+00	0	27	0	1928331264	63	4381
2026-01-05 15:29:23.32	318.34	7.78	-49.0	-50.4	14.4	0.00e+00	0	27	0	1933574144	63	4395
2026-01-05 15:29:24.33	318.50	7.76	-49.0	-50.3	14.4	0.00e+00	0	27	0	1939865600	63	4386
2026-01-05 15:29:25.32	318.66	7.73	-49.0	-50.3	14.4	0.00e+00	0	27	0	1945108480	63	4381
2026-01-05 15:29:26.32	318.81	7.71	-49.0	-50.4	14.4	0.00e+00	0	27	0	1950351360	63	4408
2026-01-05 15:29:27.32	318.97	7.68	-48.9	-50.3	14.4	0.00e+00	0	27	0	1956642816	63	4353
2026-01-05 15:29:28.32	319.12	7.65	-49.0	-50.4	14.4	0.00e+00	0	27	0	1961885696	63	4394
2026-01-05 15:29:29.32	319.28	7.62	-48.9	-50.2	14.4	0.00e+00	0	27	0	1967128576	63	4330
2026-01-05 15:29:30.33	319.43	7.60	-48.8	-50.1	14.5	0.00e+00	0	27	0	1973420032	63	4283
2026-01-05 15:29:31.32	319.59	7.57	-48.9	-50.3	14.4	0.00e+00	0	27	0	1978662912	63	4344
2026-01-05 15:29:32.32	319.74	7.54	-48.9	-50.2	14.4	0.00e+00	0	27	0	1984954368	63	4331
2026-01-05 15:29:33.33	319.90	7.52	-48.9	-50.2	14.4	0.00e+00	0	27	0	1990197248	63	4335
2026-01-05 15:29:34.32	320.05	7.49	-48.9	-50.2	14.4	0.00e+00	0	27	0	1995440128	63	4323
2026-01-05 15:29:35.33	320.20	7.46	-48.9	-50.2	14.4	0.00e+00	0	27	0	2001731584	63	4324
2026-01-05 15:29:36.32	320.36	7.43	-48.9	-50.3	14.4	0.00e+00	0	27	0	2006974464	63	4366
2026-01-05 15:29:37.32	320.51	7.40	-49.0	-50.4	14.3	0.00e+00	0	27	0	2012217344	63	4412
2026-01-05 15:29:38.33	320.66	7.38	-49.1	-50.4	14.4	0.00e+00	0	27	0	2018508800	63	4425
2026-01-05 15:29:39.32	320.81	7.35	-49.1	-50.4	14.3	0.00e+00	0	27	0	2023751680	63	4430
2026-01-05 15:29:40.32	320.97	7.32	-49.0	-50.4	14.4	0.00e+00	0	27	0	2028994560	63	4401
2026-01-05 15:29:41.32	321.12	7.29	-49.0	-50.4	14.4	0.00e+00	0	27	0	2035286016	63	4402
2026-01-05 15:29:42.32	321.27	7.26	-49.1	-50.5	14.3	0.00e+00	0	27	0	2040528896	63	4448
2026-01-05 15:29:43.33	321.42	7.23	-49.1	-50.5	14.3	0.00e+00	0	27	0	2046820352	63	4464
2026-01-05 15:29:44.34	321.57	7.20	-49.1	-50.5	14.3	0.00e+00	0	27	0	2052063232	63	4480
2026-01-05 15:29:45.33	321.72	7.17	-49.1	-50.5	14.3	0.00e+00	0	27	0	2057306112	63	4466
2026-01-05 15:29:46.33	321.87	7.14	-49.2	-50.5	14.3	0.00e+00	0	27	0	2063597568	63	4489
2026-01-05 15:29:47.34	322.02	7.12	-49.3	-50.6	14.2	0.00e+00	0	27	0	2068840448	63	4543
2026-01-05 15:29:48.34	322.17	7.09	-49.3	-50.7	14.2	0.00e+00	0	27	0	2074083328	63	4560
2026-01-05 15:29:49.34	322.32	7.06	-49.3	-50.7	14.2	0.00e+00	0	27	0	2080374784	63	4598
2026-01-05 15:29:50.34	322.47	7.03	-49.3	-50.7	14.2	0.00e+00	0	27	0	2085617664	63	4572
2026-01-05 15:29:51.34	322.62	7.00	-49.4	-50.8	14.2	0.00e+00	0	27	0	2090860544	63	4611
2026-01-05 15:29:52.34	322.77	6.97	-49.3	-50.7	14.2	0.00e+00	0	27	0	2097152000	63	4578
2026-01-05 15:29:53.33	322.92	6.94	-49.3	-50.7	14.2	0.00e+00	0	27	0	2102394880	63	4594
2026-01-05 15:29:54.33	323.06	6.91	-49.3	-50.7	14.2	0.00e+00	0	27	0	2108686336	63	4567
2026-01-05 15:29:55.33	323.21	6.88	-49.3	-50.7	14.2	0.00e+00	0	27	0	2113929216	63	4578
2026-01-05 15:29:56.32	323.36	6.84	-49.4	-50.8	14.2	0.00e+00	0	27	0	2119172096	63	4608
2026-01-05 15:29:57.32	323.50	6.81	-49.2	-50.5	14.3	0.00e+00	0	27	0	2125463552	63	4473
2026-01-05 15:29:58.32	323.65	6.78	-49.1	-50.5	14.3	0.00e+00	0	27	0	2130706432	63	4453
2026-01-05 15:29:59.31	323.79	6.75	-49.1	-50.4	14.3	0.00e+00	0	27	0	2135949312	63	4424
2026-01-05 15:30:00.31	323.94	6.72	-49.1	-50.5	14.3	0.00e+00	0	27	0	2141192192	63	4457
2026-01-05 15:30:01.30	324.08	6.69	-49.2	-50.6	14.2	0.00e+00	0	27	0	2147483648	63	4517
2026-01-05 15:30:02.30	324.23	6.66	-49.3	-50.7	14.2	0.00e+00	0	27	0	2152726528	63	4558
2026-01-05 15:30:03.30	324.38	6.63	-49.4	-50.8	14.2	0.00e+00	0	27	0	2159017984	63	4614
2026-01-05 15:30:04.30	324.52	6.60	-49.4	-50.8	14.2	0.00e+00	0	27	0	2164260864	64	4389
2026-01-05 15:30:05.30	324.66	6.57	-49.5	-50.9	14.2	0.00e+00	0	27	0	2169503744	64	4413
2026-01-05 15:30:06.30	324.81	6.53	-49.4	-50.9	14.2	0.00e+00	0	27	0	2175795200	64	4399
2026-01-05 15:30:07.29	324.95	6.50	-49.5	-50.9	14.2	0.00e+00	0	27	0	2181038080	64	4434
2026-01-05 15:30:08.30	325.10	6.47	-49.4	-50.8	14.2	0.00e+00	0	27	0	2186280960	64	4367
2026-01-05 15:30:09.29	325.24	6.44	-49.4	-50.8	14.3	0.00e+00	0	27	0	2192572416	64	4358
2026-01-05 15:30:10.29	325.38	6.41	-49.4	-50.8	14.2	0.00e+00	0	27	0	2197815296	64	4379
2026-01-05 15:30:11.29	325.52	6.37	-49.3	-50.7	14.3	0.00e+00	0	27	0	2203058176	64	4338
2026-01-05 15:30:12.29	325.67	6.34	-49.4	-50.8	14.3	0.00e+00	0	27	0	2209349632	64	4350
2026-01-05 15:30:13.29	325.81	6.31	-49.3	-50.7	14.3	0.00e+00	0	27	0	2214592512	64	4318
2026-01-05 15:30:14.29	325.95	6.28	-49.3	-50.7	14.3	0.00e+00	0	27	0	2220883968	64	4326
2026-01-05 15:30:15.28	326.09	6.24	-49.2	-50.6	14.3	0.00e+00	0	27	0	2226126848	64	4285
2026-01-05 15:30:16.28	326.23	6.21	-49.3	-50.7	14.3	0.00e+00	0	27	0	2231369728	64	4340
2026-01-05 15:30:17.28	326.37	6.18	-49.3	-50.7	14.3	0.00e+00	0	27	0	2237661184	64	4334
2026-01-05 15:30:18.29	326.51	6.14	-49.4	-50.8	14.2	0.00e+00	0	27	0	2242904064	64	4355
2026-01-05 15:30:19.28	326.65	6.11	-49.4	-50.9	14.2	0.00e+00	0	27	0	2248146944	64	4392
2026-01-05 15:30:20.28	326.79	6.08	-49.4	-50.8	14.2	0.00e+00	0	27	0	2254438400	64	4362
2026-01-05 15:30:21.28	326.93	6.05	-49.2	-50.6	14.3	0.00e+00	0	27	0	2259681280	64	4284
2026-01-05 15:30:22.28	327.07	6.01	-49.2	-50.6	14.3	0.00e+00	0	27	0	2265972736	64	4274
2026-01-05 15:30:23.28	327.21	5.98	-49.3	-50.7	14.2	0.00e+00	0	27	0	2271215616	64	4335
2026-01-05 15:30:24.28	327.35	5.94	-49.5	-51.0	14.1	0.00e+00	0	27	0	2276458496	64	4443
2026-01-05 15:30:25.27	327.49	5.91	-49.4	-50.9	14.2	0.00e+00	0	27	0	2282749952	64	4406
2026-01-05 15:30:26.28	327.63	5.88	-49.4	-50.9	14.1	0.00e+00	0	27	0	2287992832	64	4414
2026-01-05 15:30:27.27	327.76	5.84	-49.4	-50.8	14.2	0.00e+00	0	27	0	2293235712	64	4377
2026-01-05 15:30:28.27	327.90	5.81	-49.4	-50.8	14.2	0.00e+00	0	27	0	2299527168	64	4361
2026-01-05 15:30:29.27	328.04	5.78	-49.3	-50.7	14.2	0.00e+00	0	27	0	2304770048	64	4337
2026-01-05 15:30:30.26	328.17	5.74	-49.4	-50.8	14.2	0.00e+00	0	27	0	2310012928	64	4349
2026-01-05 15:30:31.27	328.31	5.71	-49.5	-50.9	14.1	0.00e+00	0	27	0	2316304384	64	4429
2026-01-05 15:30:32.27	328.45	5.67	-49.3	-50.7	14.2	0.00e+00	0	27	0	2321547264	64	4304
2026-01-05 15:30:33.26	328.58	5.64	-49.3	-50.7	14.2	0.00e+00	0	27	0	2326790144	64	4306
2026-01-05 15:30:34.26	328.72	5.60	-49.4	-50.8	14.2	0.00e+00	0	27	0	2333081600	64	4386
2026-01-05 15:30:35.26	328.85	5.57	-49.5	-51.0	14.1	0.00e+00	0	27	0	2338324480	64	4455
2026-01-05 15:30:36.26	328.99	5.54	-49.4	-50.9	14.1	0.00e+00	0	27	0	2343567360	64	4405
2026-01-05 15:30:37.26	329.12	5.50	-49.5	-51.0	14.1	0.00e+00	0	27	0	2349858816	64	4442
2026-01-05 15:30:38.25	329.26	5.47	-49.6	-51.1	14.1	0.00e+00	0	27	0	2355101696	64	4513
2026-01-05 15:30:39.25	329.39	5.43	-49.7	-51.2	14.0	0.00e+00	0	27	0	2360344576	64	4588
2026-01-05 15:30:40.25	329.52	5.40	-49.9	-51.4	13.9	0.00e+00	0	27	0	2366636032	64	4704
2026-01-05 15:30:41.25	329.66	5.36	-49.9	-51.5	14.0	0.00e+00	0	27	0	2371878912	65	4442
2026-01-05 15:30:42.24	329.79	5.33	-49.8	-51.4	14.0	0.00e+00	0	27	0	2378170368	65	4394
2026-01-05 15:30:43.24	329.92	5.29	-49.8	-51.3	14.0	0.00e+00	0	27	0	2383413248	65	4388
2026-01-05 15:30:44.25	330.06	5.26	-49.8	-51.3	14.0	0.00e+00	0	27	0	2388656128	65	4365
2026-01-05 15:30:45.25	330.19	5.22	-49.8	-51.3	14.0	0.00e+00	0	27	0	2394947584	65	4380
2026-01-05 15:30:46.24	330.32	5.19	-49.7	-51.2	14.1	0.00e+00	0	27	0	2400190464	65	4315
2026-01-05 15:30:47.24	330.45	5.15	-49.7	-51.1	14.1	0.00e+00	0	27	0	2405433344	65	4289
2026-01-05 15:30:48.24	330.58	5.11	-49.8	-51.3	14.0	0.00e+00	0	27	0	2411724800	65	4353
2026-01-05 15:30:49.24	330.71	5.08	-49.7	-51.2	14.1	0.00e+00	0	27	0	2416967680	65	4306
2026-01-05 15:30:50.24	330.84	5.04	-49.6	-51.1	14.1	0.00e+00	0	27	0	2422210560	65	4270
2026-01-05 15:30:51.24	330.97	5.01	-49.9	-51.4	14.0	0.00e+00	0	27	0	2428502016	65	4401
2026-01-05 15:30:52.24	331.10	4.97	-58.5	-69.6	4.0	2.01e-01	0	27	0	2432696320	82	13502
2026-01-05 15:30:53.24	331.23	4.93	-59.2	-72.1	3.8	8.46e-01	0	27	104	2432696320	83	17043
2026-01-05 15:30:54.24	331.36	4.90	-59.7	-72.7	3.8	8.46e-01	0	27	104	2432696320	84	17267
2026-01-05 15:30:55.23	331.49	4.86	-57.2	-73.0	3.9	8.45e-01	0	27	104	2432696320	79	23813
2026-01-05 15:30:56.22	331.62	4.83	-60.2	-73.2	3.8	8.47e-01	0	27	104	2432696320	85	17262
2026-01-05 15:30:57.22	331.75	4.79	-60.4	-73.4	3.8	8.46e-01	0	27	104	2432696320	85	17582
2026-01-05 15:30:58.21	331.87	4.76	-60.5	-73.6	3.8	8.46e-01	0	27	104	2432696320	86	16902
2026-01-05 15:30:59.20	332.00	4.72	-60.6	-73.6	3.8	8.46e-01	0	27	104	2432696320	86	16999
2026-01-05 15:31:00.20	332.13	4.68	-60.7	-73.7	3.8	8.46e-01	0	27	104	2432696320	86	17244
2026-01-05 15:31:01.19	332.25	4.65	-60.8	-73.8	3.8	8.46e-01	0	27	104	2432696320	86	17436
2026-01-05 15:31:02.19	332.38	4.61	-60.8	-73.8	3.8	8.46e-01	0	27	104	2432696320	86	17467
2026-01-05 15:31:03.19	332.51	4.57	-60.8	-73.9	3.8	8.45e-01	0	27	104	2432696320	86	17584
2026-01-05 15:31:04.19	332.64	4.54	-60.9	-73.9	3.8	8.45e-01	0	27	104	2432696320	86	17558
2026-01-05 15:31:05.19	332.76	4.50	-60.9	-74.0	3.8	8.45e-01	0	27	104	2432696320	86	17702
2026-01-05 15:31:06.19	332.89	4.46	-60.9	-74.0	3.9	8.45e-01	0	27	104	2432696320	86	17722
2026-01-05 15:31:07.19	333.01	4.43	-60.9	-74.0	3.8	8.45e-01	0	27	104	2432696320	87	16824
2026-01-05 15:31:08.18	333.14	4.39	-61.0	-74.0	3.8	8.47e-01	0	27	104	2432696320	87	16833
2026-01-05 15:31:09.17	333.26	4.35	-61.0	-74.0	3.8	8.45e-01	0	27	104	2432696320	87	16837
2026-01-05 15:31:10.17	333.39	4.32	-61.0	-74.0	3.8	8.46e-01	0	27	104	2432696320	87	16860
2026-01-05 15:31:11.17	333.51	4.28	-61.0	-74.1	3.8	8.47e-01	0	27	104	2432696320	87	16902
2026-01-05 15:31:12.17	333.63	4.24	-61.0	-74.0	3.8	8.46e-01	0	27	104	2432696320	87	16844
2026-01-05 15:31:13.17	333.76	4.20	-61.0	-74.0	3.8	8.45e-01	0	27	104	2432696320	87	16862
2026-01-05 15:31:14.16	333.88	4.17	-60.9	-74.0	3.8	8.45e-01	0	27	104	2432696320	87	16762
2026-01-05 15:31:15.16	334.00	4.13	-60.9	-73.9	3.8	8.45e-01	0	27	104	2432696320	87	16670
2026-01-05 15:31:16.17	334.13	4.09	-60.8	-73.9	3.8	8.45e-01	0	27	104	2432696320	87	16603
2026-01-05 15:31:17.17	334.25	4.06	-60.8	-73.9	3.8	8.45e-01	0	27	104	2432696320	87	16633
2026-01-05 15:31:18.18	334.37	4.02	-60.8	-73.9	3.8	8.46e-01	0	27	104	2432696320	87	16571
2026-01-05 15:31:19.18	334.49	3.98	-60.8	-73.9	3.8	8.46e-01	0	27	104	2432696320	87	16535
2026-01-05 15:31:20.18	334.62	3.94	-60.8	-73.9	3.8	8.45e-01	0	27	104	2432696320	87	16551
2026-01-05 15:31:21.18	334.74	3.90	-60.8	-73.9	3.8	8.45e-01	0	27	104	2432696320	87	16547
2026-01-05 15:31:22.17	334.86	3.87	-60.8	-73.9	3.8	8.45e-01	0	27	104	2432696320	87	16531
2026-01-05 15:31:23.18	334.98	3.83	-60.8	-73.8	3.8	8.46e-01	0	27	104	2432696320	87	16485
2026-01-05 15:31:24.17	335.10	3.79	-60.8	-73.8	3.8	8.45e-01	0	27	104	2432696320	87	16457
2026-01-05 15:31:25.16	335.22	3.75	-60.8	-73.8	3.8	8.44e-01	0	27	104	2432696320	87	16433
2026-01-05 15:31:26.16	335.34	3.72	-60.7	-73.8	3.8	8.46e-01	0	27	104	2432696320	87	16427
2026-01-05 15:31:27.17	335.46	3.68	-60.7	-73.8	3.8	8.46e-01	0	27	104	2432696320	87	16392
2026-01-05 15:31:28.17	335.58	3.64	-60.7	-73.8	3.8	8.47e-01	0	27	104	2432696320	87	16349
2026-01-05 15:31:29.17	335.70	3.60	-60.7	-73.8	3.8	8.44e-01	0	27	104	2432696320	87	16391
2026-01-05 15:31:30.17	335.82	3.56	-60.7	-73.8	3.8	8.45e-01	0	27	104	2432696320	87	16335
2026-01-05 15:31:31.18	335.93	3.53	-60.7	-73.7	3.8	8.46e-01	0	27	104	2432696320	87	16278
2026-01-05 15:31:32.17	336.05	3.49	-60.7	-73.8	3.8	8.45e-01	0	27	104	2432696320	87	16321
2026-01-05 15:31:33.16	336.17	3.45	-60.7	-73.7	3.8	8.45e-01	0	27	104	2432696320	87	16313
2026-01-05 15:31:34.17	336.29	3.41	-60.7	-73.7	3.8	8.44e-01	0	27	104	2432696320	87	16308
2026-01-05 15:31:35.17	336.40	3.37	-60.7	-73.7	3.8	8.45e-01	0	27	104	2432696320	87	16286
2026-01-05 15:31:36.17	336.52	3.33	-60.7	-73.7	3.8	8.45e-01	0	27	104	2432696320	87	16293
2026-01-05 15:31:37.16	336.64	3.30	-60.6	-73.7	3.8	8.46e-01	0	27	104	2432696320	87	16189
2026-01-05 15:31:38.17	336.75	3.26	-60.6	-73.7	3.8	8.45e-01	0	27	104	2432696320	87	16246
2026-01-05 15:31:39.16	336.87	3.22	-60.6	-73.7	3.8	8.46e-01	0	27	104	2432696320	87	16182
2026-01-05 15:31:40.17	336.99	3.18	-60.6	-73.7	3.8	8.46e-01	0	27	104	2432696320	87	16194
2026-01-05 15:31:41.16	337.10	3.14	-60.6	-73.7	3.8	8.45e-01	0	27	104	2432696320	87	16235
2026-01-05 15:31:42.16	337.22	3.10	-60.6	-73.7	3.8	8.45e-01	0	27	104	2432696320	87	16207
2026-01-05 15:31:43.16	337.33	3.07	-60.6	-73.7	3.8	8.45e-01	0	27	104	2432696320	87	16182
2026-01-05 15:31:44.16	337.44	3.03	-60.6	-73.7	3.8	8.45e-01	0	27	104	2432696320	87	16187
2026-01-05 15:31:45.16	337.56	2.99	-60.6	-73.7	3.8	8.45e-01	0	27	104	2432696320	87	16145
2026-01-05 15:31:46.16	337.67	2.95	-60.6	-73.7	3.8	8.45e-01	0	27	104	2432696320	87	16186
2026-01-05 15:31:47.16	337.79	2.91	-60.6	-73.6	3.8	8.46e-01	0	27	104	2432696320	87	16115
2026-01-05 15:31:48.16	337.90	2.87	-60.6	-73.6	3.8	8.44e-01	0	27	104	2432696320	87	16102
2026-01-05 15:31:49.16	338.01	2.83	-60.6	-73.7	3.8	8.45e-01	0	27	104	2432696320	87	16176
2026-01-05 15:31:50.17	338.13	2.79	-60.6	-73.7	3.8	8.46e-01	0	27	104	2432696320	87	16201
2026-01-05 15:31:51.17	338.24	2.76	-60.6	-73.6	3.8	8.46e-01	0	27	104	2432696320	87	16109
2026-01-05 15:31:52.17	338.35	2.72	-60.6	-73.6	3.8	8.46e-01	0	27	104	2432696320	87	16073
2026-01-05 15:31:53.17	338.46	2.68	-60.6	-73.6	3.8	8.44e-01	0	27	104	2432696320	87	16082
2026-01-05 15:31:54.17	338.58	2.64	-60.6	-73.6	3.8	8.46e-01	0	27	104	2432696320	87	16120
2026-01-05 15:31:55.17	338.69	2.60	-60.6	-73.7	3.8	8.45e-01	0	27	104	2432696320	87	16132
2026-01-05 15:31:56.17	338.80	2.56	-60.6	-73.6	3.8	8.45e-01	0	27	104	2432696320	87	16112
2026-01-05 15:31:57.17	338.91	2.52	-60.6	-73.6	3.8	8.46e-01	0	27	104	2432696320	87	16079
2026-01-05 15:31:58.16	339.02	2.48	-60.6	-73.7	3.8	8.46e-01	0	27	104	2432696320	87	16149
2026-01-05 15:31:59.16	339.13	2.44	-60.6	-73.6	3.8	8.44e-01	0	27	104	2432696320	87	16076
2026-01-05 15:32:00.16	339.24	2.40	-60.5	-73.6	3.8	8.46e-01	0	27	104	2432696320	87	16087
2026-01-05 15:32:01.16	339.35	2.37	-60.5	-73.6	3.8	8.45e-01	0	27	104	2432696320	87	15986
2026-01-05 15:32:02.15	339.46	2.33	-60.5	-73.6	3.8	8.45e-01	0	27	104	2432696320	87	16033
2026-01-05 15:32:03.15	339.57	2.29	-60.5	-73.6	3.8	8.46e-01	0	27	104	2432696320	87	16057
2026-01-05 15:32:04.15	339.68	2.25	-60.5	-73.6	3.8	8.45e-01	0	27	104	2432696320	87	16013
2026-01-05 15:32:05.15	339.78	2.21	-60.5	-73.6	3.8	8.46e-01	0	27	104	2432696320	87	16050
2026-01-05 15:32:06.15	339.89	2.17	-60.5	-73.6	3.8	8.46e-01	0	27	104	2432696320	87	16067
2026-01-05 15:32:07.16	340.00	2.13	-60.5	-73.6	3.8	8.45e-01	0	27	104	2432696320	87	16060
2026-01-05 15:32:08.15	340.11	2.09	-60.5	-73.6	3.8	8.46e-01	0	27	104	2432696320	87	16034
2026-01-05 15:32:09.14	340.22	2.05	-60.5	-73.6	3.8	8.45e-01	0	27	104	2432696320	87	16007
2026-01-05 15:32:10.15	340.32	2.01	-60.5	-73.6	3.8	8.46e-01	0	27	104	2432696320	87	16066

#Closed at: 2026-01-05 15:32:11
#Recorded file [2432 MB]: D:/lorett/data/31004_260105_182224.dat