passes_logs/2026/01/05/R3.2S_Murmansk/R3.2S_Murmansk__20260105_130113_NOAA_20_JPSS-1_rec.log

#Pass ID: 20260105_130113_NOAA 20 (JPSS-1)
#Satellite: NOAA 20 (JPSS-1)
#Configuration: NOAA 20
#almurnet v.1.7.20251203
#Start time: 2026-01-05 13:01:14

#Version: 2.2.20231116
#Station: R3.2S_Murmansk
#Location: 33.079688 lon 68.888172 lat
#TLE: 1 43013U 17073A   26004.47528369  .00000132  00000+0  83671-4 0  9999
#TLE: 2 43013  98.7626 305.5264 0001854  54.5883 305.5466 14.19533142421242

#Time	Az	El	Level	Level2	SNR	BER	BlckErr	Temp	State	Recorded	gain1	gain2
2026-01-05 13:01:14.37	243.46	2.05	-58.7	-74.7	3.8	1.49e+00	0	25	0	0	84	21631
2026-01-05 13:01:15.36	243.55	2.09	-58.5	-74.5	3.8	1.49e+00	0	25	104	0	82	23750
2026-01-05 13:01:16.35	243.65	2.14	-58.5	-74.5	3.8	1.49e+00	0	25	104	0	82	23748
2026-01-05 13:01:17.35	243.75	2.18	-58.5	-74.5	3.8	1.49e+00	0	25	104	0	82	23761
2026-01-05 13:01:18.35	243.85	2.22	-58.5	-74.5	3.8	1.49e+00	0	25	104	0	82	23700
2026-01-05 13:01:19.35	243.96	2.27	-58.5	-74.5	3.8	1.49e+00	0	25	104	0	82	23740
2026-01-05 13:01:20.35	244.06	2.31	-58.5	-74.5	3.8	1.49e+00	0	25	104	0	82	23752
2026-01-05 13:01:21.35	244.16	2.36	-58.5	-74.5	3.8	1.49e+00	0	25	104	0	82	23811
2026-01-05 13:01:22.35	244.26	2.40	-58.5	-74.5	3.8	1.49e+00	0	25	104	0	82	23715
2026-01-05 13:01:23.34	244.36	2.44	-58.5	-74.5	3.8	1.49e+00	0	25	104	0	82	23700
2026-01-05 13:01:24.34	244.46	2.49	-58.5	-74.5	3.8	1.49e+00	0	25	104	0	82	23721
2026-01-05 13:01:25.34	244.57	2.53	-58.5	-74.5	3.8	1.49e+00	0	25	104	0	82	23638
2026-01-05 13:01:26.33	244.67	2.58	-58.5	-74.5	3.8	1.49e+00	0	25	104	0	82	23603
2026-01-05 13:01:27.33	244.77	2.62	-58.5	-74.4	3.8	1.49e+00	0	25	104	0	82	23540
2026-01-05 13:01:28.33	244.87	2.67	-58.5	-74.5	3.8	1.49e+00	0	25	104	0	82	23598
2026-01-05 13:01:29.33	244.98	2.71	-58.5	-74.5	3.8	1.49e+00	0	25	104	0	82	23617
2026-01-05 13:01:30.33	245.08	2.75	-58.5	-74.5	3.8	1.49e+00	0	25	104	0	82	23597
2026-01-05 13:01:31.33	245.19	2.80	-58.5	-74.5	3.8	1.49e+00	0	25	104	0	82	23625
2026-01-05 13:01:32.33	245.29	2.84	-58.5	-74.4	3.8	1.49e+00	0	25	104	0	82	23573
2026-01-05 13:01:33.33	245.40	2.89	-58.5	-74.5	3.8	1.49e+00	0	25	104	0	82	23683
2026-01-05 13:01:34.34	245.50	2.93	-58.5	-74.5	3.8	1.49e+00	0	25	104	0	82	23692
2026-01-05 13:01:35.33	245.61	2.98	-58.5	-74.5	3.8	1.49e+00	0	25	104	0	82	23719
2026-01-05 13:01:36.33	245.71	3.02	-58.5	-74.5	3.8	1.49e+00	0	25	104	0	82	23643
2026-01-05 13:01:37.33	245.82	3.06	-58.5	-74.5	3.8	1.49e+00	0	25	104	0	82	23610
2026-01-05 13:01:38.33	245.92	3.11	-58.5	-74.5	3.8	1.49e+00	0	25	104	0	82	23598
2026-01-05 13:01:39.34	246.03	3.15	-58.5	-74.4	3.8	1.49e+00	0	25	104	0	82	23550
2026-01-05 13:01:40.34	246.14	3.20	-58.5	-74.4	3.8	1.49e+00	0	26	104	0	82	23430
2026-01-05 13:01:41.33	246.25	3.24	-58.5	-74.4	3.8	1.49e+00	0	25	104	0	82	23465
2026-01-05 13:01:42.33	246.35	3.28	-58.5	-74.4	3.8	1.49e+00	0	25	104	0	82	23506
2026-01-05 13:01:43.33	246.46	3.33	-58.5	-74.4	3.8	1.49e+00	0	25	104	0	82	23499
2026-01-05 13:01:44.33	246.57	3.37	-58.5	-74.4	3.8	1.49e+00	0	26	104	0	82	23521
2026-01-05 13:01:45.33	246.68	3.42	-58.5	-74.5	3.8	1.49e+00	0	26	104	0	82	23593
2026-01-05 13:01:46.32	246.79	3.46	-58.5	-74.5	3.8	1.49e+00	0	25	104	0	82	23655
2026-01-05 13:01:47.32	246.90	3.50	-58.5	-74.5	3.8	1.49e+00	0	25	104	0	82	23675
2026-01-05 13:01:48.31	247.00	3.55	-58.5	-74.5	3.8	1.49e+00	0	26	104	0	82	23652
2026-01-05 13:01:49.31	247.11	3.59	-58.5	-74.5	3.8	1.49e+00	0	26	104	0	82	23694
2026-01-05 13:01:50.31	247.22	3.64	-58.5	-74.5	3.8	1.49e+00	0	26	104	0	82	23608
2026-01-05 13:01:51.31	247.33	3.68	-58.5	-74.4	3.8	1.49e+00	0	26	104	0	82	23443
2026-01-05 13:01:52.31	247.45	3.72	-58.5	-74.2	3.8	1.49e+00	0	26	104	0	82	23013
2026-01-05 13:01:53.31	247.56	3.77	-58.5	-74.2	3.8	1.49e+00	0	26	104	0	82	22977
2026-01-05 13:01:54.30	247.67	3.81	-58.5	-74.2	3.8	1.49e+00	0	26	104	0	82	22915
2026-01-05 13:01:55.30	247.78	3.86	-58.5	-74.2	3.8	1.49e+00	0	26	104	0	82	22821
2026-01-05 13:01:56.30	247.89	3.90	-58.5	-74.4	3.8	1.49e+00	0	26	104	0	82	23349
2026-01-05 13:01:57.30	248.00	3.94	-58.5	-74.4	3.8	1.49e+00	0	26	104	0	82	23501
2026-01-05 13:01:58.30	248.12	3.99	-58.5	-74.5	3.8	1.49e+00	0	26	104	0	82	23672
2026-01-05 13:01:59.31	248.23	4.03	-58.5	-74.5	3.8	1.49e+00	0	26	104	0	82	23640
2026-01-05 13:02:00.31	248.34	4.08	-58.5	-74.3	3.8	1.49e+00	0	26	104	0	82	23254
2026-01-05 13:02:01.31	248.46	4.12	-58.5	-74.3	3.8	1.49e+00	0	26	104	0	82	23064
2026-01-05 13:02:02.31	248.57	4.16	-58.5	-74.3	3.9	1.49e+00	0	26	104	0	82	23109
2026-01-05 13:02:03.31	248.69	4.21	-58.5	-74.3	3.8	1.49e+00	0	26	104	0	82	23064
2026-01-05 13:02:04.31	248.80	4.25	-58.5	-74.2	3.8	1.49e+00	0	26	104	0	82	22801
2026-01-05 13:02:05.32	248.92	4.30	-58.5	-74.2	3.8	1.49e+00	0	26	104	0	82	22843
2026-01-05 13:02:06.32	249.03	4.34	-58.5	-74.2	3.8	1.49e+00	0	26	104	0	82	22795
2026-01-05 13:02:07.31	249.15	4.38	-58.5	-74.1	3.8	1.49e+00	0	26	104	0	82	22710
2026-01-05 13:02:08.31	249.26	4.43	-58.5	-73.9	3.8	1.49e+00	0	26	104	0	82	22256
2026-01-05 13:02:09.32	249.38	4.47	-58.5	-73.9	3.8	1.49e+00	0	26	104	0	82	22095
2026-01-05 13:02:10.32	249.50	4.51	-58.5	-73.9	3.8	1.49e+00	0	26	104	0	82	22155
2026-01-05 13:02:11.32	249.61	4.56	-58.5	-74.2	3.8	1.49e+00	0	26	104	0	82	22904
2026-01-05 13:02:12.32	249.73	4.60	-58.5	-74.4	3.8	1.49e+00	0	26	104	0	82	23562
2026-01-05 13:02:13.32	249.85	4.65	-58.5	-74.3	3.8	1.49e+00	0	26	104	0	82	23175
2026-01-05 13:02:14.32	249.97	4.69	-58.5	-73.4	3.8	1.49e+00	0	26	104	0	82	21005
2026-01-05 13:02:15.33	250.09	4.73	-58.4	-72.2	3.8	1.49e+00	0	26	104	0	82	18200
2026-01-05 13:02:16.32	250.20	4.78	-58.4	-71.1	4.1	1.44e+00	0	26	0	0	82	16125
2026-01-05 13:02:17.31	250.32	4.82	-58.3	-70.5	4.3	1.38e+00	92	26	0	0	82	14885
2026-01-05 13:02:18.30	250.44	4.86	-58.3	-69.8	4.6	1.24e+00	0	26	0	1048576	82	13766
2026-01-05 13:02:19.30	250.56	4.91	-58.1	-68.3	5.2	6.55e-01	0	26	0	3145728	82	11588
2026-01-05 13:02:20.30	250.68	4.95	-57.8	-66.1	6.6	3.16e-01	0	26	0	5242880	82	9069
2026-01-05 13:02:21.30	250.80	4.99	-57.2	-63.5	8.9	6.31e-02	0	26	0	7340032	81	7072
2026-01-05 13:02:22.29	250.92	5.04	-56.6	-61.6	10.5	1.21e-03	0	26	0	9437184	79	6354
2026-01-05 13:02:23.28	251.04	5.08	-57.0	-62.7	9.6	1.13e-03	0	26	0	10485760	79	7237
2026-01-05 13:02:24.27	251.16	5.12	-57.9	-66.7	6.1	5.77e-01	0	26	0	12582912	81	10240
2026-01-05 13:02:25.27	251.28	5.16	-55.7	-59.6	11.9	1.06e-03	0	26	0	14680064	76	6013
2026-01-05 13:02:26.26	251.40	5.21	-57.8	-66.5	6.1	1.01e+00	0	26	0	15728640	81	9981
2026-01-05 13:02:27.26	251.52	5.25	-54.8	-57.8	12.8	0.00e+00	0	26	0	17825792	74	5497
2026-01-05 13:02:28.27	251.65	5.29	-54.5	-57.3	13.1	0.00e+00	0	26	0	19922944	74	5186
2026-01-05 13:02:29.27	251.77	5.34	-54.3	-57.0	13.3	0.00e+00	0	26	0	22020096	74	5004
2026-01-05 13:02:30.26	251.89	5.38	-54.2	-56.9	13.3	0.00e+00	0	26	0	24117248	74	4945
2026-01-05 13:02:31.26	252.02	5.42	-54.0	-56.5	13.6	0.00e+00	0	26	0	25165824	74	4746
2026-01-05 13:02:32.25	252.14	5.47	-53.9	-56.5	13.6	0.00e+00	0	26	0	27262976	74	4711
2026-01-05 13:02:33.25	252.27	5.51	-53.9	-56.4	13.6	0.00e+00	0	26	0	29360128	74	4687
2026-01-05 13:02:34.25	252.39	5.55	-53.9	-56.5	13.6	0.00e+00	0	26	0	31457280	74	4722
2026-01-05 13:02:35.25	252.52	5.59	-53.8	-56.3	13.7	0.00e+00	0	26	0	32505856	74	4615
2026-01-05 13:02:36.24	252.64	5.64	-53.8	-56.3	13.7	0.00e+00	0	26	0	34603008	74	4628
2026-01-05 13:02:37.23	252.76	5.68	-53.9	-56.4	13.6	0.00e+00	0	26	0	36700160	74	4684
2026-01-05 13:02:38.23	252.89	5.72	-53.9	-56.5	13.6	0.00e+00	0	26	0	38797312	74	4725
2026-01-05 13:02:39.23	253.02	5.76	-53.8	-56.2	13.8	0.00e+00	0	26	0	40894464	74	4577
2026-01-05 13:02:40.24	253.15	5.81	-53.8	-56.3	13.7	0.00e+00	0	26	0	41943040	74	4623
2026-01-05 13:02:41.24	253.27	5.85	-53.8	-56.3	13.7	0.00e+00	0	26	0	44040192	74	4612
2026-01-05 13:02:42.24	253.40	5.89	-53.8	-56.3	13.7	0.00e+00	0	26	0	46137344	74	4609
2026-01-05 13:02:43.23	253.53	5.93	-53.8	-56.3	13.7	0.00e+00	0	26	0	48234496	74	4613
2026-01-05 13:02:44.23	253.66	5.98	-53.8	-56.3	13.7	0.00e+00	0	26	0	50331648	74	4606
2026-01-05 13:02:45.24	253.79	6.02	-53.9	-56.4	13.7	0.00e+00	0	26	0	51380224	74	4669
2026-01-05 13:02:46.23	253.91	6.06	-53.8	-56.3	13.7	0.00e+00	0	26	0	53477376	74	4618
2026-01-05 13:02:47.22	254.04	6.10	-53.8	-56.2	13.7	0.00e+00	0	26	0	55574528	74	4579
2026-01-05 13:02:48.22	254.17	6.15	-53.7	-56.1	13.8	0.00e+00	0	26	0	57671680	74	4543
2026-01-05 13:02:49.22	254.30	6.19	-53.8	-56.3	13.7	0.00e+00	0	26	0	59768832	74	4610
2026-01-05 13:02:50.22	254.43	6.23	-53.8	-56.2	13.7	0.00e+00	0	26	0	60817408	74	4580
2026-01-05 13:02:51.22	254.56	6.27	-53.7	-56.1	13.8	0.00e+00	0	26	0	62914560	74	4511
2026-01-05 13:02:52.21	254.69	6.31	-53.7	-56.1	13.8	0.00e+00	0	26	0	65011712	74	4507
2026-01-05 13:02:53.21	254.83	6.36	-53.6	-56.0	13.7	0.00e+00	0	26	0	67108864	73	4729
2026-01-05 13:02:54.21	254.96	6.40	-53.6	-56.0	13.7	0.00e+00	0	26	0	68157440	73	4727
2026-01-05 13:02:55.21	255.09	6.44	-53.6	-56.0	13.7	0.00e+00	0	26	0	70254592	73	4750
2026-01-05 13:02:56.22	255.22	6.48	-53.6	-55.9	13.8	0.00e+00	0	26	0	72351744	73	4688
2026-01-05 13:02:57.22	255.36	6.52	-53.6	-56.0	13.7	0.00e+00	0	26	0	74448896	73	4742
2026-01-05 13:02:58.22	255.49	6.56	-53.6	-56.0	13.7	0.00e+00	0	26	0	76546048	73	4756
2026-01-05 13:02:59.23	255.63	6.61	-53.6	-55.9	13.8	0.00e+00	0	26	0	77594624	73	4701
2026-01-05 13:03:00.22	255.76	6.65	-53.6	-55.9	13.8	0.00e+00	0	26	0	79691776	73	4687
2026-01-05 13:03:01.22	255.89	6.69	-53.6	-55.9	13.8	0.00e+00	0	26	0	81788928	73	4676
2026-01-05 13:03:02.22	256.03	6.73	-53.5	-55.9	13.8	0.00e+00	0	26	0	83886080	73	4666
2026-01-05 13:03:03.22	256.16	6.77	-53.7	-56.1	13.7	0.00e+00	0	26	0	85983232	73	4787
2026-01-05 13:03:04.23	256.30	6.81	-53.7	-56.1	13.7	0.00e+00	0	26	0	87031808	73	4771
2026-01-05 13:03:05.22	256.44	6.85	-53.7	-56.1	13.7	0.00e+00	0	26	0	89128960	73	4770
2026-01-05 13:03:06.22	256.57	6.90	-53.7	-56.1	13.7	0.00e+00	0	26	0	91226112	73	4789
2026-01-05 13:03:07.22	256.71	6.94	-53.7	-56.2	13.7	0.00e+00	0	26	0	93323264	73	4825
2026-01-05 13:03:08.23	256.85	6.98	-53.5	-55.9	13.8	0.00e+00	0	26	0	94371840	73	4660
2026-01-05 13:03:09.23	256.98	7.02	-53.6	-55.9	13.8	0.00e+00	0	26	0	96468992	73	4679
2026-01-05 13:03:10.23	257.12	7.06	-53.5	-55.8	13.8	0.00e+00	0	26	0	98566144	73	4648
2026-01-05 13:03:11.22	257.26	7.10	-53.5	-55.8	13.9	0.00e+00	0	26	0	100663296	73	4619
2026-01-05 13:03:12.22	257.40	7.14	-53.5	-55.7	13.9	0.00e+00	0	26	0	102760448	73	4592
2026-01-05 13:03:13.22	257.54	7.18	-53.4	-55.6	14.0	0.00e+00	0	26	0	103809024	73	4531
2026-01-05 13:03:14.21	257.68	7.22	-53.4	-55.6	14.0	0.00e+00	0	26	0	105906176	73	4534
2026-01-05 13:03:15.21	257.82	7.26	-53.4	-55.7	13.9	0.00e+00	0	26	0	108003328	73	4577
2026-01-05 13:03:16.20	257.95	7.30	-53.5	-55.8	13.9	0.00e+00	0	26	0	110100480	73	4614
2026-01-05 13:03:17.20	258.09	7.34	-53.6	-55.9	13.8	0.00e+00	0	26	0	111149056	73	4694
2026-01-05 13:03:18.20	258.24	7.38	-53.6	-55.9	13.8	0.00e+00	0	26	0	113246208	73	4694
2026-01-05 13:03:19.19	258.38	7.42	-53.5	-55.8	13.9	0.00e+00	0	26	0	115343360	73	4615
2026-01-05 13:03:20.19	258.52	7.46	-53.6	-55.9	13.8	0.00e+00	0	26	0	117440512	73	4680
2026-01-05 13:03:21.19	258.66	7.50	-53.6	-55.9	13.8	0.00e+00	0	26	0	119537664	73	4703
2026-01-05 13:03:22.19	258.80	7.54	-53.6	-55.9	13.8	0.00e+00	0	26	0	120586240	73	4686
2026-01-05 13:03:23.19	258.94	7.58	-53.6	-55.9	13.8	0.00e+00	0	26	0	122683392	73	4686
2026-01-05 13:03:24.18	259.09	7.62	-53.6	-55.9	13.8	0.00e+00	0	27	0	124780544	73	4691
2026-01-05 13:03:25.19	259.23	7.66	-53.6	-55.9	13.9	0.00e+00	0	26	0	126877696	73	4670
2026-01-05 13:03:26.18	259.37	7.70	-53.6	-56.0	13.8	0.00e+00	0	27	0	128974848	73	4728
2026-01-05 13:03:27.18	259.52	7.74	-53.6	-56.0	13.8	0.00e+00	0	26	0	130023424	73	4715
2026-01-05 13:03:28.18	259.66	7.78	-53.6	-56.0	13.8	0.00e+00	0	26	0	132120576	73	4722
2026-01-05 13:03:29.18	259.81	7.82	-53.7	-56.0	13.8	0.00e+00	0	26	0	134217728	73	4733
2026-01-05 13:03:30.18	259.95	7.86	-53.7	-56.1	13.7	0.00e+00	0	26	0	136314880	73	4774
2026-01-05 13:03:31.19	260.10	7.90	-53.7	-56.1	13.7	0.00e+00	0	27	0	138412032	73	4765
2026-01-05 13:03:32.19	260.25	7.94	-53.7	-56.1	13.7	0.00e+00	0	27	0	139460608	73	4785
2026-01-05 13:03:33.19	260.39	7.97	-53.7	-56.1	13.7	0.00e+00	0	26	0	141557760	73	4800
2026-01-05 13:03:34.19	260.54	8.01	-53.6	-56.0	13.8	0.00e+00	0	27	0	143654912	73	4733
2026-01-05 13:03:35.19	260.69	8.05	-53.7	-56.1	13.8	0.00e+00	0	26	0	145752064	73	4772
2026-01-05 13:03:36.19	260.83	8.09	-53.7	-56.1	13.8	0.00e+00	0	26	0	146800640	73	4770
2026-01-05 13:03:37.19	260.98	8.13	-53.7	-56.1	13.8	0.00e+00	0	26	0	148897792	73	4766
2026-01-05 13:03:38.19	261.13	8.17	-53.7	-56.1	13.8	0.00e+00	0	26	0	150994944	73	4777
2026-01-05 13:03:39.19	261.28	8.21	-53.7	-56.1	13.8	0.00e+00	0	27	0	153092096	73	4781
2026-01-05 13:03:40.19	261.43	8.24	-53.8	-56.1	13.7	0.00e+00	0	26	0	155189248	73	4812
2026-01-05 13:03:41.19	261.58	8.28	-53.7	-56.1	13.8	0.00e+00	0	27	0	156237824	73	4771
2026-01-05 13:03:42.19	261.73	8.32	-53.7	-56.1	13.8	0.00e+00	0	27	0	158334976	73	4780
2026-01-05 13:03:43.18	261.88	8.36	-53.7	-56.1	13.7	0.00e+00	0	27	0	160432128	73	4784
2026-01-05 13:03:44.19	262.03	8.40	-53.7	-56.1	13.8	0.00e+00	0	26	0	162529280	73	4761
2026-01-05 13:03:45.18	262.18	8.43	-53.7	-56.1	13.7	0.00e+00	0	26	0	164626432	73	4786
2026-01-05 13:03:46.18	262.33	8.47	-53.7	-56.1	13.8	0.00e+00	0	27	0	165675008	73	4800
2026-01-05 13:03:47.18	262.48	8.51	-53.7	-56.1	13.8	0.00e+00	0	26	0	167772160	73	4778
2026-01-05 13:03:48.18	262.63	8.54	-53.8	-56.2	13.7	0.00e+00	0	27	0	169869312	73	4837
2026-01-05 13:03:49.17	262.78	8.58	-53.8	-56.3	13.7	0.00e+00	0	26	0	171966464	73	4887
2026-01-05 13:03:50.16	262.94	8.62	-53.8	-56.1	13.7	0.00e+00	0	26	0	173015040	73	4807
2026-01-05 13:03:51.15	263.09	8.65	-53.8	-56.2	13.7	0.00e+00	0	26	0	175112192	73	4829
2026-01-05 13:03:52.15	263.24	8.69	-53.8	-56.3	13.7	0.00e+00	0	27	0	177209344	73	4889
2026-01-05 13:03:53.15	263.39	8.73	-53.9	-56.3	13.6	0.00e+00	0	27	0	179306496	73	4913
2026-01-05 13:03:54.15	263.55	8.76	-53.8	-56.1	13.7	0.00e+00	0	27	0	181403648	73	4803
2026-01-05 13:03:55.15	263.70	8.80	-53.8	-56.1	13.8	0.00e+00	0	27	0	182452224	73	4804
2026-01-05 13:03:56.14	263.86	8.84	-53.7	-56.1	13.8	0.00e+00	0	27	0	184549376	73	4787
2026-01-05 13:03:57.13	264.01	8.87	-53.8	-56.2	13.7	0.00e+00	0	27	0	186646528	73	4818
2026-01-05 13:03:58.13	264.17	8.91	-53.8	-56.1	13.7	0.00e+00	0	27	0	188743680	73	4811
2026-01-05 13:03:59.13	264.32	8.94	-53.7	-56.1	13.8	0.00e+00	0	27	0	190840832	73	4787
2026-01-05 13:04:00.13	264.48	8.98	-53.8	-56.1	13.8	0.00e+00	0	27	0	191889408	73	4797
2026-01-05 13:04:01.12	264.64	9.01	-53.9	-56.3	13.7	0.00e+00	0	27	0	193986560	73	4884
2026-01-05 13:04:02.12	264.79	9.05	-53.8	-56.2	13.8	0.00e+00	0	27	0	196083712	73	4822
2026-01-05 13:04:03.11	264.95	9.09	-53.8	-56.1	13.7	0.00e+00	0	27	0	198180864	73	4806
2026-01-05 13:04:04.10	265.11	9.12	-53.7	-56.1	13.8	0.00e+00	0	27	0	199229440	73	4777
2026-01-05 13:04:05.10	265.26	9.16	-53.8	-56.1	13.7	0.00e+00	0	27	0	201326592	73	4808
2026-01-05 13:04:06.11	265.42	9.19	-53.8	-56.2	13.7	0.00e+00	0	27	0	203423744	73	4869
2026-01-05 13:04:07.10	265.58	9.22	-53.7	-56.1	13.8	0.00e+00	0	27	0	205520896	73	4780
2026-01-05 13:04:08.09	265.74	9.26	-53.6	-55.9	13.9	0.00e+00	0	27	0	207618048	73	4676
2026-01-05 13:04:09.09	265.90	9.29	-53.6	-55.9	13.9	0.00e+00	0	27	0	208666624	73	4664
2026-01-05 13:04:10.09	266.06	9.33	-53.6	-55.9	13.9	0.00e+00	0	27	0	210763776	73	4675
2026-01-05 13:04:11.08	266.22	9.36	-53.6	-55.9	13.9	0.00e+00	0	27	0	212860928	73	4682
2026-01-05 13:04:12.08	266.38	9.40	-53.7	-56.1	13.8	0.00e+00	0	27	0	214958080	73	4761
2026-01-05 13:04:13.08	266.54	9.43	-54.0	-56.5	13.5	0.00e+00	0	27	0	216006656	73	5028
2026-01-05 13:04:14.08	266.70	9.46	-54.3	-57.0	13.2	0.00e+00	0	26	0	218103808	73	5333
2026-01-05 13:04:15.08	266.86	9.50	-54.7	-57.7	12.9	0.00e+00	0	26	0	220200960	74	5437
2026-01-05 13:04:16.08	267.03	9.53	-55.1	-58.4	12.5	0.00e+00	0	27	0	222298112	75	5580
2026-01-05 13:04:17.07	267.19	9.56	-55.3	-58.9	12.1	0.00e+00	0	26	0	224395264	75	5912
2026-01-05 13:04:18.06	267.35	9.60	-55.3	-58.9	12.1	1.50e-06	0	27	0	225443840	75	5870
2026-01-05 13:04:19.06	267.51	9.63	-55.1	-58.6	12.2	7.00e-07	0	27	0	227540992	75	5682
2026-01-05 13:04:20.05	267.67	9.66	-55.0	-58.5	12.3	1.50e-06	0	27	0	229638144	75	5603
2026-01-05 13:04:21.04	267.84	9.69	-55.1	-58.7	12.1	1.50e-06	0	27	0	231735296	75	5730
2026-01-05 13:04:22.04	268.00	9.73	-55.2	-59.0	11.9	7.00e-07	0	27	0	232783872	75	5975
2026-01-05 13:04:23.03	268.16	9.76	-55.6	-59.6	11.5	7.60e-06	0	27	0	234881024	76	6016
2026-01-05 13:04:24.04	268.33	9.79	-55.7	-60.0	11.2	1.98e-05	0	27	0	236978176	76	6298
2026-01-05 13:04:25.03	268.50	9.82	-55.9	-60.3	11.0	6.25e-05	0	27	0	239075328	76	6537
2026-01-05 13:04:26.03	268.66	9.85	-55.9	-60.3	11.1	1.14e-04	0	27	0	241172480	77	6167
2026-01-05 13:04:27.04	268.83	9.89	-55.8	-60.0	11.4	4.73e-05	0	27	0	242221056	77	5955
2026-01-05 13:04:28.03	268.99	9.92	-55.8	-59.7	11.6	2.13e-05	0	27	0	244318208	77	5787
2026-01-05 13:04:29.03	269.16	9.95	-55.4	-59.0	12.2	7.00e-07	0	27	0	246415360	77	5310
2026-01-05 13:04:30.02	269.33	9.98	-55.1	-58.3	12.6	1.50e-06	0	27	0	248512512	76	5206
2026-01-05 13:04:31.02	269.49	10.01	-54.9	-58.0	12.8	0.00e+00	0	27	0	250609664	76	5029
2026-01-05 13:04:32.01	269.66	10.04	-54.8	-57.9	12.9	0.00e+00	0	27	0	251658240	76	4931
2026-01-05 13:04:33.02	269.83	10.07	-55.0	-58.2	12.6	0.00e+00	0	27	0	253755392	76	5140
2026-01-05 13:04:34.02	270.00	10.10	-55.2	-58.5	12.5	0.00e+00	0	27	0	255852544	76	5307
2026-01-05 13:04:35.02	270.17	10.13	-55.3	-58.7	12.4	0.00e+00	0	27	0	257949696	76	5417
2026-01-05 13:04:36.02	270.34	10.16	-55.1	-58.4	12.7	0.00e+00	0	27	0	258998272	76	5219
2026-01-05 13:04:37.02	270.51	10.19	-54.7	-57.6	13.2	0.00e+00	0	27	0	261095424	76	4761
2026-01-05 13:04:38.02	270.68	10.22	-54.3	-56.9	13.5	0.00e+00	0	27	0	263192576	75	4698
2026-01-05 13:04:39.02	270.85	10.25	-54.1	-56.6	13.6	0.00e+00	0	27	0	265289728	74	4796
2026-01-05 13:04:40.02	271.02	10.28	-54.1	-56.5	13.7	0.00e+00	0	27	0	267386880	74	4733
2026-01-05 13:04:41.03	271.19	10.31	-53.9	-56.3	13.8	0.00e+00	0	27	0	268435456	74	4625
2026-01-05 13:04:42.02	271.36	10.34	-53.6	-55.9	13.9	0.00e+00	0	27	0	270532608	73	4682
2026-01-05 13:04:43.03	271.53	10.37	-53.6	-55.9	13.9	0.00e+00	0	27	0	272629760	73	4670
2026-01-05 13:04:44.03	271.70	10.40	-53.7	-56.0	13.8	0.00e+00	0	27	0	274726912	73	4728
2026-01-05 13:04:45.03	271.88	10.43	-53.8	-56.2	13.7	0.00e+00	0	27	0	276824064	73	4816
2026-01-05 13:04:46.03	272.05	10.45	-53.9	-56.2	13.7	0.00e+00	0	27	0	277872640	73	4856
2026-01-05 13:04:47.03	272.22	10.48	-53.8	-56.2	13.8	0.00e+00	0	27	0	279969792	73	4844
2026-01-05 13:04:48.03	272.40	10.51	-53.9	-56.3	13.7	0.00e+00	0	27	0	282066944	73	4884
2026-01-05 13:04:49.03	272.57	10.54	-53.9	-56.2	13.7	0.00e+00	0	27	0	284164096	73	4860
2026-01-05 13:04:50.02	272.74	10.56	-53.8	-56.2	13.8	0.00e+00	0	27	0	286261248	73	4840
2026-01-05 13:04:51.02	272.92	10.59	-53.8	-56.1	13.8	0.00e+00	0	27	0	287309824	73	4787
2026-01-05 13:04:52.01	273.09	10.62	-53.8	-56.2	13.7	0.00e+00	0	27	0	289406976	73	4843
2026-01-05 13:04:53.01	273.26	10.64	-53.9	-56.2	13.7	0.00e+00	0	27	0	291504128	73	4849
2026-01-05 13:04:54.01	273.44	10.67	-54.1	-56.5	13.6	0.00e+00	0	27	0	293601280	73	5015
2026-01-05 13:04:55.02	273.61	10.70	-54.1	-56.5	13.6	0.00e+00	0	27	0	294649856	73	5025
2026-01-05 13:04:56.02	273.79	10.72	-54.2	-56.6	13.6	0.00e+00	0	27	0	296747008	73	5089
2026-01-05 13:04:57.02	273.97	10.75	-54.2	-56.7	13.5	0.00e+00	0	27	0	298844160	73	5120
2026-01-05 13:04:58.02	274.14	10.78	-54.2	-56.7	13.5	0.00e+00	0	27	0	300941312	73	5148
2026-01-05 13:04:59.02	274.32	10.80	-54.1	-56.5	13.6	0.00e+00	0	27	0	303038464	73	5024
2026-01-05 13:05:00.02	274.50	10.83	-54.1	-56.5	13.6	0.00e+00	0	27	0	304087040	73	5006
2026-01-05 13:05:01.02	274.67	10.85	-54.0	-56.4	13.7	0.00e+00	0	27	0	306184192	73	4930
2026-01-05 13:05:02.02	274.85	10.88	-53.9	-56.2	13.7	0.00e+00	0	27	0	308281344	73	4851
2026-01-05 13:05:03.03	275.03	10.90	-53.8	-56.2	13.8	0.00e+00	0	27	0	310378496	73	4823
2026-01-05 13:05:04.02	275.21	10.93	-53.9	-56.2	13.8	0.00e+00	0	27	0	312475648	73	4862
2026-01-05 13:05:05.02	275.38	10.95	-53.7	-56.0	13.9	0.00e+00	0	27	0	313524224	73	4726
2026-01-05 13:05:06.02	275.56	10.97	-53.8	-56.0	13.9	0.00e+00	0	27	0	315621376	73	4746
2026-01-05 13:05:07.02	275.74	11.00	-53.7	-55.9	13.9	0.00e+00	0	27	0	317718528	73	4704
2026-01-05 13:05:08.02	275.92	11.02	-53.8	-56.1	13.8	0.00e+00	0	27	0	319815680	73	4780
2026-01-05 13:05:09.01	276.10	11.04	-53.9	-56.2	13.7	0.00e+00	0	27	0	320864256	73	4868
2026-01-05 13:05:10.01	276.28	11.07	-53.8	-56.1	13.8	0.00e+00	0	27	0	322961408	73	4800
2026-01-05 13:05:10.99	276.45	11.09	-53.8	-56.0	13.9	0.00e+00	0	27	0	325058560	73	4753
2026-01-05 13:05:11.98	276.63	11.11	-53.9	-56.2	13.8	0.00e+00	0	27	0	327155712	73	4830
2026-01-05 13:05:12.99	276.82	11.13	-53.8	-56.1	13.8	0.00e+00	0	27	0	329252864	73	4809
2026-01-05 13:05:13.99	277.00	11.16	-53.9	-56.2	13.8	0.00e+00	0	27	0	330301440	73	4858
2026-01-05 13:05:14.98	277.17	11.18	-53.8	-56.1	13.8	0.00e+00	0	27	0	332398592	73	4764
2026-01-05 13:05:15.98	277.36	11.20	-53.8	-56.1	13.9	0.00e+00	0	27	0	334495744	73	4765
2026-01-05 13:05:16.97	277.54	11.22	-53.7	-56.0	13.9	0.00e+00	0	27	0	336592896	73	4730
2026-01-05 13:05:17.97	277.72	11.24	-53.7	-56.0	13.9	0.00e+00	0	27	0	338690048	73	4711
2026-01-05 13:05:18.96	277.90	11.26	-53.7	-55.9	13.9	0.00e+00	0	27	0	339738624	73	4685
2026-01-05 13:05:19.96	278.08	11.28	-53.6	-55.8	14.0	0.00e+00	0	27	0	341835776	73	4608
2026-01-05 13:05:20.96	278.26	11.31	-53.5	-55.7	14.0	0.00e+00	0	27	0	343932928	73	4572
2026-01-05 13:05:21.95	278.44	11.33	-53.5	-55.6	14.1	0.00e+00	0	27	0	346030080	73	4543
2026-01-05 13:05:22.94	278.62	11.34	-53.4	-55.5	14.1	0.00e+00	0	27	0	347078656	73	4488
2026-01-05 13:05:23.94	278.81	11.36	-53.5	-55.6	14.1	0.00e+00	0	27	0	349175808	73	4523
2026-01-05 13:05:24.93	278.99	11.38	-53.3	-55.4	14.2	0.00e+00	0	27	0	351272960	73	4397
2026-01-05 13:05:25.93	279.17	11.40	-53.3	-55.4	14.2	0.00e+00	0	27	0	353370112	73	4406
2026-01-05 13:05:26.93	279.36	11.42	-53.5	-55.6	14.1	0.00e+00	0	27	0	355467264	73	4529
2026-01-05 13:05:27.92	279.54	11.44	-53.4	-55.5	14.1	0.00e+00	0	27	0	356515840	73	4489
2026-01-05 13:05:28.92	279.72	11.46	-53.6	-55.7	14.1	0.00e+00	0	27	0	358612992	73	4583
2026-01-05 13:05:29.91	279.91	11.48	-53.6	-55.8	14.0	0.00e+00	0	27	0	360710144	73	4645
2026-01-05 13:05:30.91	280.09	11.50	-53.8	-56.0	13.9	0.00e+00	0	27	0	362807296	73	4737
2026-01-05 13:05:31.92	280.28	11.51	-53.8	-56.0	13.9	0.00e+00	0	27	0	363855872	73	4735
2026-01-05 13:05:32.92	280.46	11.53	-53.9	-56.2	13.8	0.00e+00	0	27	0	365953024	73	4852
2026-01-05 13:05:33.92	280.65	11.55	-53.9	-56.2	13.8	0.00e+00	0	27	0	368050176	73	4829
2026-01-05 13:05:34.91	280.83	11.57	-53.9	-56.2	13.8	0.00e+00	0	27	0	370147328	73	4835
2026-01-05 13:05:35.92	281.02	11.58	-54.0	-56.3	13.7	0.00e+00	0	27	0	372244480	73	4917
2026-01-05 13:05:36.92	281.21	11.60	-54.0	-56.4	13.7	0.00e+00	0	27	0	373293056	73	4952
2026-01-05 13:05:37.92	281.39	11.62	-54.0	-56.3	13.8	0.00e+00	0	27	0	375390208	73	4900
2026-01-05 13:05:38.91	281.58	11.63	-54.0	-56.4	13.7	0.00e+00	0	27	0	377487360	73	4939
2026-01-05 13:05:39.91	281.76	11.65	-54.1	-56.4	13.7	0.00e+00	0	27	0	379584512	73	4981
2026-01-05 13:05:40.92	281.95	11.66	-54.1	-56.4	13.7	0.00e+00	0	27	0	380633088	73	4980
2026-01-05 13:05:41.92	282.14	11.68	-54.1	-56.5	13.7	0.00e+00	0	27	0	382730240	73	5020
2026-01-05 13:05:42.92	282.33	11.69	-54.2	-56.6	13.6	0.00e+00	0	27	0	384827392	73	5082
2026-01-05 13:05:43.92	282.51	11.71	-54.3	-56.8	13.6	0.00e+00	0	27	0	386924544	73	5167
2026-01-05 13:05:44.92	282.70	11.72	-54.3	-56.7	13.6	0.00e+00	0	27	0	389021696	73	5130
2026-01-05 13:05:45.92	282.89	11.74	-54.5	-57.0	13.6	0.00e+00	0	27	0	390070272	74	4998
2026-01-05 13:05:46.91	283.08	11.75	-54.5	-57.1	13.4	0.00e+00	0	27	0	392167424	74	5043
2026-01-05 13:05:47.92	283.26	11.76	-54.5	-57.0	13.5	0.00e+00	0	27	0	394264576	74	5022
2026-01-05 13:05:48.92	283.45	11.78	-54.6	-57.2	13.4	0.00e+00	0	27	0	396361728	74	5101
2026-01-05 13:05:49.91	283.64	11.79	-54.5	-57.0	13.5	0.00e+00	0	27	0	398458880	74	4996
2026-01-05 13:05:50.92	283.83	11.80	-54.6	-57.1	13.5	0.00e+00	0	27	0	399507456	74	5091
2026-01-05 13:05:51.92	284.02	11.82	-54.5	-57.0	13.5	0.00e+00	0	27	0	401604608	74	4985
2026-01-05 13:05:52.92	284.21	11.83	-54.5	-56.9	13.5	0.00e+00	0	27	0	403701760	74	4983
2026-01-05 13:05:53.91	284.39	11.84	-54.5	-57.0	13.5	0.00e+00	0	27	0	405798912	74	4993
2026-01-05 13:05:54.92	284.59	11.85	-54.5	-57.0	13.5	0.00e+00	0	27	0	406847488	74	5039
2026-01-05 13:05:55.91	284.77	11.86	-54.6	-57.2	13.4	0.00e+00	0	27	0	408944640	74	5139
2026-01-05 13:05:56.92	284.96	11.87	-54.6	-57.2	13.4	0.00e+00	0	27	0	411041792	74	5131
2026-01-05 13:05:57.92	285.15	11.89	-54.6	-57.2	13.4	0.00e+00	0	27	0	413138944	74	5137
2026-01-05 13:05:58.92	285.34	11.90	-54.7	-57.3	13.3	0.00e+00	0	27	0	415236096	74	5199
2026-01-05 13:05:59.92	285.53	11.91	-54.7	-57.3	13.4	0.00e+00	0	27	0	417333248	74	5174
2026-01-05 13:06:00.92	285.72	11.92	-54.7	-57.3	13.4	0.00e+00	0	27	0	418381824	74	5176
2026-01-05 13:06:01.92	285.91	11.93	-54.7	-57.3	13.3	0.00e+00	0	27	0	420478976	74	5184
2026-01-05 13:06:02.91	286.10	11.94	-54.7	-57.3	13.4	0.00e+00	0	27	0	422576128	74	5162
2026-01-05 13:06:03.91	286.29	11.95	-54.6	-57.1	13.5	0.00e+00	0	27	0	424673280	74	5092
2026-01-05 13:06:04.91	286.48	11.95	-54.6	-57.1	13.5	0.00e+00	0	27	0	425721856	74	5088
2026-01-05 13:06:05.91	286.67	11.96	-54.5	-57.0	13.5	0.00e+00	0	27	0	427819008	74	5006
2026-01-05 13:06:06.91	286.86	11.97	-54.5	-57.1	13.5	0.00e+00	0	27	0	429916160	74	5045
2026-01-05 13:06:07.90	287.05	11.98	-54.6	-57.1	13.5	0.00e+00	0	27	0	432013312	74	5096
2026-01-05 13:06:08.89	287.24	11.99	-54.4	-56.8	13.6	0.00e+00	0	27	0	434110464	74	4925
2026-01-05 13:06:09.89	287.43	11.99	-54.3	-56.7	13.7	0.00e+00	0	27	0	435159040	74	4843
2026-01-05 13:06:10.88	287.62	12.00	-54.3	-56.7	13.7	0.00e+00	0	27	0	437256192	74	4857
2026-01-05 13:06:11.88	287.81	12.01	-54.4	-56.8	13.7	0.00e+00	0	27	0	439353344	74	4893
2026-01-05 13:06:12.88	288.00	12.02	-54.4	-56.9	13.6	0.00e+00	0	27	0	441450496	74	4953
2026-01-05 13:06:13.88	288.20	12.02	-54.3	-56.7	13.7	0.00e+00	0	27	0	442499072	74	4870
2026-01-05 13:06:14.87	288.38	12.03	-54.4	-56.8	13.6	0.00e+00	0	27	0	444596224	74	4893
2026-01-05 13:06:15.87	288.58	12.03	-54.4	-56.9	13.6	0.00e+00	0	27	0	446693376	74	4933
2026-01-05 13:06:16.87	288.77	12.04	-54.4	-56.8	13.6	0.00e+00	0	27	0	448790528	74	4923
2026-01-05 13:06:17.85	288.96	12.05	-54.4	-56.9	13.6	0.00e+00	0	27	0	450887680	74	4936
2026-01-05 13:06:18.85	289.15	12.05	-54.3	-56.6	13.7	0.00e+00	0	27	0	451936256	74	4803
2026-01-05 13:06:19.84	289.34	12.05	-54.1	-56.4	13.8	0.00e+00	0	27	0	454033408	74	4658
2026-01-05 13:06:20.84	289.53	12.06	-54.1	-56.4	13.9	0.00e+00	0	27	0	456130560	74	4661
2026-01-05 13:06:21.83	289.72	12.06	-54.1	-56.3	13.9	0.00e+00	0	27	0	458227712	74	4646
2026-01-05 13:06:22.83	289.91	12.07	-54.1	-56.3	13.9	0.00e+00	0	27	0	459276288	74	4649
2026-01-05 13:06:23.82	290.10	12.07	-54.1	-56.5	13.8	0.00e+00	0	27	0	461373440	74	4707
2026-01-05 13:06:24.82	290.29	12.07	-54.2	-56.5	13.8	0.00e+00	0	27	0	463470592	74	4711
2026-01-05 13:06:25.81	290.48	12.08	-54.2	-56.6	13.8	0.00e+00	0	27	0	465567744	74	4788
2026-01-05 13:06:26.81	290.67	12.08	-54.2	-56.6	13.8	0.00e+00	0	27	0	467664896	74	4788
2026-01-05 13:06:27.81	290.87	12.08	-54.4	-56.8	13.7	0.00e+00	0	27	0	468713472	74	4883
2026-01-05 13:06:28.81	291.06	12.08	-54.2	-56.6	13.8	0.00e+00	0	27	0	470810624	74	4785
2026-01-05 13:06:29.81	291.25	12.09	-54.1	-56.4	13.9	0.00e+00	0	27	0	472907776	74	4662
2026-01-05 13:06:30.81	291.44	12.09	-54.1	-56.4	13.9	0.00e+00	0	27	0	475004928	74	4669
2026-01-05 13:06:31.81	291.63	12.09	-54.0	-56.3	13.9	0.00e+00	0	27	0	476053504	74	4633
2026-01-05 13:06:32.80	291.82	12.09	-53.9	-56.2	14.0	0.00e+00	0	27	0	478150656	74	4561
2026-01-05 13:06:33.80	292.02	12.09	-53.9	-56.1	14.0	0.00e+00	0	27	0	480247808	74	4502
2026-01-05 13:06:34.78	292.20	12.09	-53.8	-56.0	14.1	0.00e+00	0	27	0	482344960	74	4468
2026-01-05 13:06:35.78	292.40	12.09	-53.9	-56.1	14.0	0.00e+00	0	27	0	484442112	74	4518
2026-01-05 13:06:36.77	292.59	12.09	-53.9	-56.1	14.0	0.00e+00	0	27	0	485490688	74	4518
2026-01-05 13:06:37.78	292.78	12.09	-53.8	-55.9	14.1	0.00e+00	0	27	0	487587840	74	4429
2026-01-05 13:06:38.78	292.97	12.09	-53.7	-55.9	14.1	0.00e+00	0	27	0	489684992	74	4420
2026-01-05 13:06:39.77	293.16	12.09	-53.7	-55.9	14.1	0.00e+00	0	27	0	491782144	74	4409
2026-01-05 13:06:40.77	293.36	12.09	-53.6	-55.7	14.1	0.00e+00	0	27	0	493879296	73	4549
2026-01-05 13:06:41.77	293.55	12.09	-53.5	-55.6	14.2	0.00e+00	0	27	0	494927872	73	4516
2026-01-05 13:06:42.77	293.74	12.09	-53.4	-55.5	14.2	0.00e+00	0	27	0	497025024	73	4443
2026-01-05 13:06:43.78	293.93	12.08	-53.4	-55.4	14.2	0.00e+00	0	27	0	499122176	73	4429
2026-01-05 13:06:44.77	294.12	12.08	-53.2	-55.1	14.3	0.00e+00	0	27	0	501219328	72	4545
2026-01-05 13:06:45.77	294.32	12.08	-53.1	-55.1	14.3	0.00e+00	0	27	0	503316480	72	4530
2026-01-05 13:06:46.77	294.51	12.07	-53.1	-55.1	14.3	0.00e+00	0	27	0	504365056	72	4526
2026-01-05 13:06:47.76	294.70	12.07	-53.1	-55.1	14.3	0.00e+00	0	27	0	506462208	72	4523
2026-01-05 13:06:48.75	294.89	12.07	-53.1	-55.1	14.3	0.00e+00	0	27	0	508559360	72	4510
2026-01-05 13:06:49.75	295.08	12.06	-53.2	-55.2	14.2	0.00e+00	0	27	0	510656512	72	4586
2026-01-05 13:06:50.75	295.27	12.06	-53.2	-55.2	14.2	0.00e+00	0	27	0	511705088	72	4580
2026-01-05 13:06:51.75	295.46	12.06	-53.1	-55.2	14.2	0.00e+00	0	27	0	513802240	72	4546
2026-01-05 13:06:52.75	295.65	12.05	-53.1	-55.1	14.3	0.00e+00	0	27	0	515899392	72	4523
2026-01-05 13:06:53.75	295.84	12.05	-53.1	-55.1	14.3	0.00e+00	0	27	0	517996544	72	4538
2026-01-05 13:06:54.75	296.04	12.04	-53.0	-54.9	14.3	0.00e+00	0	27	0	520093696	72	4438
2026-01-05 13:06:55.75	296.23	12.04	-52.9	-54.8	14.4	0.00e+00	0	27	0	521142272	72	4381
2026-01-05 13:06:56.75	296.42	12.03	-52.9	-54.8	14.4	0.00e+00	0	27	0	523239424	72	4350
2026-01-05 13:06:57.74	296.61	12.02	-52.8	-54.7	14.4	0.00e+00	0	27	0	525336576	72	4330
2026-01-05 13:06:58.74	296.80	12.02	-52.7	-54.6	14.5	0.00e+00	0	27	0	527433728	72	4281
2026-01-05 13:06:59.74	296.99	12.01	-52.8	-54.7	14.4	0.00e+00	0	27	0	528482304	72	4321
2026-01-05 13:07:00.74	297.18	12.00	-52.8	-54.7	14.4	0.00e+00	0	27	0	530579456	72	4335
2026-01-05 13:07:01.73	297.37	12.00	-52.9	-54.8	14.4	0.00e+00	0	27	0	532676608	72	4378
2026-01-05 13:07:02.74	297.56	11.99	-53.0	-54.9	14.4	0.00e+00	0	27	0	534773760	72	4415
2026-01-05 13:07:03.75	297.76	11.98	-52.8	-54.7	14.4	0.00e+00	0	27	0	536870912	72	4333
2026-01-05 13:07:04.75	297.95	11.97	-52.8	-54.7	14.5	0.00e+00	0	27	0	537919488	72	4298
2026-01-05 13:07:05.75	298.14	11.96	-52.8	-54.7	14.4	0.00e+00	0	27	0	540016640	72	4327
2026-01-05 13:07:06.75	298.33	11.96	-52.9	-54.8	14.4	0.00e+00	0	27	0	542113792	72	4350
2026-01-05 13:07:07.74	298.52	11.95	-53.0	-54.9	14.3	0.00e+00	0	27	0	544210944	72	4412
2026-01-05 13:07:08.74	298.71	11.94	-52.8	-54.6	14.5	0.00e+00	0	27	0	546308096	72	4288
2026-01-05 13:07:09.73	298.89	11.93	-52.6	-54.5	14.4	0.00e+00	0	27	0	547356672	71	4458
2026-01-05 13:07:10.74	299.09	11.92	-52.5	-54.4	14.5	0.00e+00	0	27	0	549453824	71	4414
2026-01-05 13:07:11.73	299.27	11.91	-52.5	-54.3	14.5	0.00e+00	0	27	0	551550976	71	4380
2026-01-05 13:07:12.73	299.46	11.90	-52.5	-54.4	14.5	0.00e+00	0	27	0	553648128	71	4397
2026-01-05 13:07:13.72	299.65	11.89	-52.6	-54.4	14.4	0.00e+00	0	27	0	554696704	71	4435
2026-01-05 13:07:14.72	299.84	11.88	-52.6	-54.5	14.4	0.00e+00	0	27	0	556793856	71	4475
2026-01-05 13:07:15.71	300.03	11.86	-52.8	-54.7	14.3	0.00e+00	0	27	0	558891008	71	4574
2026-01-05 13:07:16.71	300.22	11.85	-52.8	-54.7	14.3	0.00e+00	0	27	0	560988160	71	4572
2026-01-05 13:07:17.70	300.40	11.84	-52.8	-54.7	14.3	0.00e+00	0	27	0	563085312	71	4591
2026-01-05 13:07:18.70	300.59	11.83	-52.7	-54.7	14.3	0.00e+00	0	27	0	564133888	71	4546
2026-01-05 13:07:19.69	300.78	11.82	-52.8	-54.7	14.3	0.00e+00	0	27	0	566231040	71	4588
2026-01-05 13:07:20.69	300.97	11.81	-52.8	-54.8	14.3	0.00e+00	0	27	0	568328192	71	4611
2026-01-05 13:07:21.69	301.16	11.79	-52.8	-54.7	14.3	0.00e+00	0	27	0	570425344	71	4581
2026-01-05 13:07:22.68	301.34	11.78	-52.9	-54.9	14.2	0.00e+00	0	27	0	571473920	71	4667
2026-01-05 13:07:23.68	301.53	11.77	-52.9	-54.9	14.2	0.00e+00	0	27	0	573571072	71	4663
2026-01-05 13:07:24.67	301.72	11.75	-53.0	-55.0	14.2	0.00e+00	0	27	0	575668224	71	4711
2026-01-05 13:07:25.67	301.90	11.74	-52.9	-54.8	14.2	0.00e+00	0	27	0	577765376	71	4629
2026-01-05 13:07:26.66	302.09	11.73	-52.8	-54.8	14.3	0.00e+00	0	27	0	579862528	71	4600
2026-01-05 13:07:27.65	302.27	11.71	-52.8	-54.8	14.3	0.00e+00	0	27	0	580911104	71	4599
2026-01-05 13:07:28.64	302.46	11.70	-52.9	-54.8	14.3	0.00e+00	0	27	0	583008256	71	4637
2026-01-05 13:07:29.64	302.65	11.68	-52.8	-54.7	14.3	0.00e+00	0	27	0	585105408	71	4575
2026-01-05 13:07:30.63	302.83	11.67	-52.8	-54.7	14.3	0.00e+00	0	27	0	587202560	71	4549
2026-01-05 13:07:31.61	303.01	11.65	-52.8	-54.8	14.3	0.00e+00	0	27	0	588251136	71	4615
2026-01-05 13:07:32.62	303.20	11.64	-52.9	-54.8	14.3	0.00e+00	0	27	0	590348288	71	4633
2026-01-05 13:07:33.61	303.39	11.62	-52.9	-54.8	14.3	0.00e+00	0	27	0	592445440	71	4630
2026-01-05 13:07:34.61	303.57	11.60	-52.9	-54.8	14.2	0.00e+00	0	27	0	594542592	71	4650
2026-01-05 13:07:35.60	303.76	11.59	-53.0	-55.0	14.2	0.00e+00	0	27	0	596639744	71	4708
2026-01-05 13:07:36.54	303.93	11.57	-53.1	-55.1	14.1	0.00e+00	0	27	0	597688320	71	4773
2026-01-05 13:07:37.53	304.11	11.55	-53.1	-55.2	14.1	0.00e+00	0	27	0	599785472	71	4835
2026-01-05 13:07:38.53	304.30	11.54	-53.2	-55.3	14.1	0.00e+00	0	27	0	601882624	71	4883
2026-01-05 13:07:39.53	304.48	11.52	-53.2	-55.2	14.1	0.00e+00	0	27	0	603979776	71	4864
2026-01-05 13:07:40.52	304.67	11.50	-53.2	-55.2	14.1	0.00e+00	0	27	0	605028352	71	4843
2026-01-05 13:07:41.52	304.85	11.48	-53.0	-55.0	14.2	0.00e+00	0	27	0	607125504	71	4743
2026-01-05 13:07:42.52	305.04	11.47	-53.1	-55.1	14.1	0.00e+00	0	27	0	609222656	71	4773
2026-01-05 13:07:43.51	305.22	11.45	-53.0	-55.0	14.2	0.00e+00	0	27	0	611319808	71	4753
2026-01-05 13:07:44.52	305.40	11.43	-53.0	-54.9	14.2	0.00e+00	0	27	0	613416960	71	4688
2026-01-05 13:07:45.51	305.58	11.41	-52.8	-54.7	14.3	0.00e+00	0	27	0	614465536	71	4562
2026-01-05 13:07:46.51	305.77	11.39	-52.7	-54.6	14.3	0.00e+00	0	27	0	616562688	71	4540
2026-01-05 13:07:47.50	305.95	11.37	-52.7	-54.6	14.3	0.00e+00	0	27	0	618659840	71	4537
2026-01-05 13:07:48.48	306.13	11.35	-52.7	-54.5	14.4	0.00e+00	0	27	0	620756992	71	4490
2026-01-05 13:07:49.47	306.31	11.33	-52.7	-54.6	14.3	0.00e+00	0	27	0	622854144	71	4523
2026-01-05 13:07:50.47	306.49	11.31	-52.8	-54.7	14.3	0.00e+00	0	27	0	623902720	71	4572
2026-01-05 13:07:51.46	306.67	11.29	-52.8	-54.7	14.3	0.00e+00	0	27	0	625999872	71	4553
2026-01-05 13:07:52.46	306.85	11.27	-52.7	-54.6	14.3	0.00e+00	0	27	0	628097024	71	4533
2026-01-05 13:07:53.46	307.04	11.25	-52.7	-54.6	14.3	0.00e+00	0	27	0	630194176	71	4500
2026-01-05 13:07:54.46	307.22	11.23	-52.6	-54.6	14.4	0.00e+00	0	27	0	631242752	71	4494
2026-01-05 13:07:55.46	307.40	11.21	-52.7	-54.6	14.4	0.00e+00	0	27	0	633339904	71	4497
2026-01-05 13:07:56.45	307.58	11.19	-52.6	-54.5	14.4	0.00e+00	0	27	0	635437056	71	4461
2026-01-05 13:07:57.45	307.76	11.17	-52.7	-54.6	14.3	0.00e+00	0	27	0	637534208	71	4499
2026-01-05 13:07:58.43	307.93	11.14	-52.6	-54.5	14.4	0.00e+00	0	27	0	639631360	71	4483
2026-01-05 13:07:59.42	308.11	11.12	-52.7	-54.6	14.4	0.00e+00	0	27	0	640679936	71	4499
2026-01-05 13:08:00.42	308.29	11.10	-52.6	-54.5	14.4	0.00e+00	0	27	0	642777088	71	4449
2026-01-05 13:08:01.43	308.47	11.08	-52.7	-54.6	14.4	0.00e+00	0	27	0	644874240	71	4503
2026-01-05 13:08:02.43	308.65	11.05	-52.7	-54.7	14.3	0.00e+00	0	27	0	646971392	71	4556
2026-01-05 13:08:03.43	308.83	11.03	-52.7	-54.6	14.3	0.00e+00	0	27	0	648019968	71	4523
2026-01-05 13:08:04.43	309.01	11.01	-52.6	-54.5	14.4	0.00e+00	0	27	0	650117120	71	4454
2026-01-05 13:08:05.43	309.19	10.98	-52.5	-54.4	14.4	0.00e+00	0	27	0	652214272	71	4418
2026-01-05 13:08:06.42	309.37	10.96	-52.6	-54.5	14.4	0.00e+00	0	27	0	654311424	71	4448
2026-01-05 13:08:07.42	309.54	10.94	-52.6	-54.4	14.4	0.00e+00	0	27	0	656408576	71	4435
2026-01-05 13:08:08.41	309.72	10.91	-52.5	-54.3	14.5	0.00e+00	0	27	0	657457152	71	4387
2026-01-05 13:08:09.40	309.89	10.89	-52.5	-54.4	14.4	0.00e+00	0	27	0	659554304	71	4419
2026-01-05 13:08:10.40	310.07	10.86	-52.6	-54.5	14.4	0.00e+00	0	27	0	661651456	71	4448
2026-01-05 13:08:11.40	310.25	10.84	-52.5	-54.4	14.4	0.00e+00	0	27	0	663748608	71	4407
2026-01-05 13:08:12.40	310.43	10.81	-52.6	-54.5	14.4	0.00e+00	0	27	0	665845760	71	4477
2026-01-05 13:08:13.40	310.60	10.79	-52.6	-54.4	14.4	0.00e+00	0	27	0	666894336	71	4438
2026-01-05 13:08:14.40	310.78	10.76	-52.6	-54.5	14.4	0.00e+00	0	27	0	668991488	71	4466
2026-01-05 13:08:15.39	310.95	10.74	-52.6	-54.6	14.3	0.00e+00	0	27	0	671088640	71	4505
2026-01-05 13:08:16.39	311.13	10.71	-52.6	-54.5	14.4	0.00e+00	0	27	0	673185792	71	4479
2026-01-05 13:08:17.40	311.30	10.68	-52.7	-54.6	14.3	0.00e+00	0	27	0	674234368	71	4544
2026-01-05 13:08:18.39	311.48	10.66	-52.7	-54.7	14.3	0.00e+00	0	27	0	676331520	71	4550
2026-01-05 13:08:19.38	311.65	10.63	-52.6	-54.6	14.4	0.00e+00	0	27	0	678428672	71	4496
2026-01-05 13:08:20.38	311.82	10.61	-52.7	-54.6	14.3	0.00e+00	0	27	0	680525824	71	4516
2026-01-05 13:08:21.38	312.00	10.58	-52.8	-54.7	14.3	0.00e+00	0	27	0	682622976	71	4579
2026-01-05 13:08:22.38	312.17	10.55	-52.7	-54.6	14.3	0.00e+00	0	27	0	683671552	71	4544
2026-01-05 13:08:23.38	312.34	10.52	-52.8	-54.7	14.3	0.00e+00	0	27	0	685768704	71	4584
2026-01-05 13:08:24.38	312.52	10.50	-52.7	-54.7	14.3	0.00e+00	0	27	0	687865856	71	4563
2026-01-05 13:08:25.37	312.69	10.47	-52.5	-54.5	14.4	0.00e+00	0	27	0	689963008	71	4444
2026-01-05 13:08:26.38	312.86	10.44	-52.5	-54.4	14.4	0.00e+00	0	27	0	691011584	71	4432
2026-01-05 13:08:27.37	313.03	10.41	-52.5	-54.4	14.4	0.00e+00	0	27	0	693108736	71	4420
2026-01-05 13:08:28.37	313.20	10.38	-52.5	-54.4	14.4	0.00e+00	0	27	0	695205888	71	4411
2026-01-05 13:08:29.36	313.37	10.36	-52.5	-54.4	14.4	0.00e+00	0	27	0	697303040	71	4430
2026-01-05 13:08:30.36	313.54	10.33	-52.5	-54.4	14.4	0.00e+00	0	27	0	699400192	71	4405
2026-01-05 13:08:31.36	313.71	10.30	-52.6	-54.5	14.3	0.00e+00	0	27	0	700448768	71	4473
2026-01-05 13:08:32.36	313.88	10.27	-52.7	-54.6	14.3	0.00e+00	0	27	0	702545920	71	4539
2026-01-05 13:08:33.36	314.05	10.24	-52.8	-54.8	14.2	0.00e+00	0	27	0	704643072	71	4613
2026-01-05 13:08:34.36	314.22	10.21	-52.8	-54.8	14.2	0.00e+00	0	27	0	706740224	71	4601
2026-01-05 13:08:35.36	314.39	10.18	-52.8	-54.8	14.2	0.00e+00	0	27	0	708837376	71	4635
2026-01-05 13:08:36.36	314.56	10.15	-52.9	-54.9	14.1	0.00e+00	0	27	0	709885952	71	4699
2026-01-05 13:08:37.36	314.73	10.12	-52.9	-54.9	14.2	0.00e+00	0	27	0	711983104	71	4674
2026-01-05 13:08:38.37	314.90	10.09	-52.8	-54.8	14.2	0.00e+00	0	27	0	714080256	71	4621
2026-01-05 13:08:39.37	315.07	10.06	-52.9	-55.0	14.2	0.00e+00	0	27	0	716177408	71	4707
2026-01-05 13:08:40.37	315.23	10.03	-52.9	-54.9	14.2	0.00e+00	0	27	0	718274560	71	4662
2026-01-05 13:08:41.37	315.40	10.00	-52.9	-54.9	14.1	0.00e+00	0	27	0	719323136	71	4679
2026-01-05 13:08:42.37	315.57	9.97	-53.0	-55.0	14.1	0.00e+00	0	27	0	721420288	71	4753
2026-01-05 13:08:43.38	315.74	9.94	-53.0	-55.0	14.1	0.00e+00	0	27	0	723517440	71	4753
2026-01-05 13:08:44.38	315.90	9.91	-53.0	-55.1	14.1	0.00e+00	0	27	0	725614592	71	4775
2026-01-05 13:08:45.38	316.07	9.87	-52.9	-54.9	14.1	0.00e+00	0	27	0	726663168	71	4699
2026-01-05 13:08:46.38	316.23	9.84	-53.0	-55.1	14.1	0.00e+00	0	27	0	728760320	71	4777
2026-01-05 13:08:47.38	316.40	9.81	-53.1	-55.2	14.0	0.00e+00	0	27	0	730857472	71	4830
2026-01-05 13:08:48.38	316.56	9.78	-53.2	-55.4	13.9	0.00e+00	0	27	0	732954624	71	4947
2026-01-05 13:08:49.38	316.73	9.75	-53.2	-55.4	13.9	0.00e+00	0	27	0	735051776	71	4952
2026-01-05 13:08:50.38	316.89	9.72	-53.3	-55.6	13.8	0.00e+00	0	27	0	736100352	71	5053
2026-01-05 13:08:51.37	317.05	9.68	-53.5	-55.8	13.8	0.00e+00	0	27	0	738197504	72	4871
2026-01-05 13:08:52.37	317.22	9.65	-53.7	-56.0	13.7	0.00e+00	0	27	0	740294656	72	5007
2026-01-05 13:08:53.37	317.38	9.62	-53.7	-56.1	13.7	0.00e+00	0	27	0	742391808	72	5046
2026-01-05 13:08:54.37	317.54	9.58	-53.8	-56.2	13.6	0.00e+00	0	27	0	744488960	72	5146
2026-01-05 13:08:55.36	317.70	9.55	-54.0	-56.5	13.5	0.00e+00	0	27	0	745537536	73	5012
2026-01-05 13:08:56.36	317.86	9.52	-54.1	-56.7	13.5	0.00e+00	0	27	0	747634688	73	5121
2026-01-05 13:08:57.36	318.03	9.49	-54.2	-56.8	13.3	0.00e+00	0	27	0	749731840	73	5201
2026-01-05 13:08:58.36	318.19	9.45	-54.4	-57.1	13.2	0.00e+00	0	27	0	751828992	73	5362
2026-01-05 13:08:59.36	318.35	9.42	-54.4	-57.1	13.3	0.00e+00	0	27	0	752877568	74	5091
2026-01-05 13:09:00.36	318.51	9.38	-54.4	-57.1	13.4	0.00e+00	0	27	0	754974720	74	5092
2026-01-05 13:09:01.35	318.67	9.35	-54.3	-57.0	13.4	0.00e+00	0	27	0	757071872	74	4999
2026-01-05 13:09:02.36	318.83	9.32	-54.2	-56.8	13.5	0.00e+00	0	27	0	759169024	74	4907
2026-01-05 13:09:03.36	318.99	9.28	-54.1	-56.7	13.5	0.00e+00	0	27	0	761266176	74	4860
2026-01-05 13:09:04.35	319.14	9.25	-54.1	-56.6	13.5	0.00e+00	0	27	0	762314752	74	4808
2026-01-05 13:09:05.36	319.31	9.21	-54.2	-56.8	13.5	0.00e+00	0	27	0	764411904	74	4922
2026-01-05 13:09:06.37	319.46	9.18	-54.3	-56.9	13.4	0.00e+00	0	27	0	766509056	74	4949
2026-01-05 13:09:07.36	319.62	9.14	-54.3	-56.9	13.4	0.00e+00	0	27	0	768606208	74	4979
2026-01-05 13:09:08.36	319.78	9.11	-54.3	-56.9	13.4	0.00e+00	0	27	0	770703360	74	4978
2026-01-05 13:09:09.36	319.94	9.07	-54.4	-57.0	13.3	0.00e+00	0	27	0	771751936	74	5039
2026-01-05 13:09:10.35	320.09	9.04	-54.4	-57.1	13.3	0.00e+00	0	27	0	773849088	74	5077
2026-01-05 13:09:11.35	320.25	9.00	-54.4	-57.0	13.3	0.00e+00	0	27	0	775946240	74	5031
2026-01-05 13:09:12.35	320.40	8.97	-54.5	-57.2	13.2	0.00e+00	0	27	0	778043392	74	5131
2026-01-05 13:09:13.36	320.56	8.93	-54.4	-57.2	13.3	0.00e+00	0	27	0	780140544	74	5113
2026-01-05 13:09:14.35	320.72	8.90	-54.5	-57.3	13.2	0.00e+00	0	27	0	781189120	74	5184
2026-01-05 13:09:15.36	320.87	8.86	-54.7	-57.5	13.0	0.00e+00	0	27	0	783286272	74	5313
2026-01-05 13:09:16.36	321.03	8.83	-54.8	-57.7	12.9	0.00e+00	0	27	0	785383424	74	5421
2026-01-05 13:09:17.37	321.18	8.79	-54.9	-57.9	12.8	0.00e+00	0	27	0	787480576	74	5533
2026-01-05 13:09:18.37	321.34	8.75	-55.0	-58.2	12.7	0.00e+00	0	27	0	788529152	75	5404
2026-01-05 13:09:19.37	321.49	8.72	-55.2	-58.4	12.6	0.00e+00	0	27	0	790626304	75	5567
2026-01-05 13:09:20.37	321.64	8.68	-55.3	-58.6	12.4	7.00e-07	0	27	0	792723456	75	5712
2026-01-05 13:09:21.37	321.80	8.64	-55.4	-58.8	12.3	0.00e+00	0	27	0	794820608	75	5798
2026-01-05 13:09:22.36	321.95	8.61	-55.3	-58.6	12.4	7.00e-07	0	27	0	796917760	75	5714
2026-01-05 13:09:23.36	322.10	8.57	-55.3	-58.7	12.4	0.00e+00	0	27	0	797966336	75	5731
2026-01-05 13:09:24.36	322.25	8.53	-55.3	-58.6	12.4	0.00e+00	0	27	0	800063488	75	5674
2026-01-05 13:09:25.35	322.40	8.50	-55.3	-58.7	12.4	7.00e-07	0	27	0	802160640	75	5747
2026-01-05 13:09:26.35	322.55	8.46	-55.3	-58.6	12.4	7.00e-07	0	27	0	804257792	75	5675
2026-01-05 13:09:27.34	322.70	8.42	-55.1	-58.3	12.6	0.00e+00	0	27	0	805306368	75	5510
2026-01-05 13:09:28.34	322.85	8.39	-55.0	-58.1	12.7	0.00e+00	0	27	0	807403520	75	5383
2026-01-05 13:09:29.33	323.00	8.35	-55.0	-58.0	12.8	0.00e+00	0	27	0	809500672	75	5333
2026-01-05 13:09:30.33	323.15	8.31	-54.9	-58.0	12.8	0.00e+00	0	27	0	811597824	75	5305
2026-01-05 13:09:31.33	323.30	8.27	-54.9	-58.0	12.8	0.00e+00	0	27	0	813694976	75	5313
2026-01-05 13:09:32.32	323.44	8.24	-54.9	-57.9	12.8	0.00e+00	0	27	0	814743552	75	5272
2026-01-05 13:09:33.32	323.59	8.20	-54.9	-58.0	12.8	0.00e+00	0	27	0	816840704	75	5312
2026-01-05 13:09:34.31	323.74	8.16	-55.0	-58.1	12.8	0.00e+00	0	27	0	818937856	75	5344
2026-01-05 13:09:35.31	323.89	8.12	-54.9	-57.9	12.9	7.00e-07	0	27	0	821035008	75	5260
2026-01-05 13:09:36.31	324.03	8.08	-54.9	-58.0	12.8	0.00e+00	0	27	0	823132160	75	5309
2026-01-05 13:09:37.30	324.18	8.05	-55.0	-58.1	12.7	0.00e+00	0	27	0	824180736	75	5380
2026-01-05 13:09:38.30	324.33	8.01	-55.1	-58.3	12.6	0.00e+00	0	27	0	826277888	75	5496
2026-01-05 13:09:39.30	324.47	7.97	-55.1	-58.4	12.6	0.00e+00	0	27	0	828375040	75	5529
2026-01-05 13:09:40.30	324.62	7.93	-55.2	-58.5	12.5	0.00e+00	0	27	0	830472192	75	5611
2026-01-05 13:09:41.29	324.76	7.89	-55.2	-58.6	12.4	0.00e+00	0	27	0	831520768	75	5680
2026-01-05 13:09:42.29	324.91	7.85	-55.2	-58.5	12.5	0.00e+00	0	27	0	833617920	75	5610
2026-01-05 13:09:43.29	325.05	7.81	-55.1	-58.4	12.5	0.00e+00	0	27	0	835715072	75	5540
2026-01-05 13:09:44.28	325.19	7.78	-55.0	-58.1	12.7	0.00e+00	0	27	0	837812224	75	5372
2026-01-05 13:09:45.28	325.34	7.74	-54.9	-58.0	12.8	0.00e+00	0	27	0	839909376	75	5294
2026-01-05 13:09:46.28	325.48	7.70	-54.7	-57.7	13.0	0.00e+00	0	27	0	840957952	75	5101
2026-01-05 13:09:47.28	325.62	7.66	-54.7	-57.6	13.0	0.00e+00	0	27	0	843055104	75	5063
2026-01-05 13:09:48.27	325.76	7.62	-54.6	-57.6	13.0	0.00e+00	0	27	0	845152256	75	5042
2026-01-05 13:09:49.27	325.91	7.58	-54.6	-57.5	13.0	0.00e+00	0	27	0	847249408	75	5032
2026-01-05 13:09:50.27	326.05	7.54	-54.6	-57.5	13.1	0.00e+00	0	27	0	849346560	75	5015
2026-01-05 13:09:51.26	326.19	7.50	-54.7	-57.7	12.9	0.00e+00	0	27	0	850395136	75	5136
2026-01-05 13:09:52.26	326.33	7.46	-54.8	-57.9	12.8	0.00e+00	0	27	0	852492288	75	5223
2026-01-05 13:09:53.26	326.47	7.42	-55.0	-58.1	12.7	0.00e+00	0	27	0	854589440	75	5392
2026-01-05 13:09:54.26	326.61	7.38	-55.1	-58.3	12.6	0.00e+00	0	27	0	856686592	75	5511
2026-01-05 13:09:55.26	326.75	7.34	-55.1	-58.4	12.5	0.00e+00	0	27	0	857735168	75	5537
2026-01-05 13:09:56.25	326.89	7.30	-55.1	-58.3	12.5	0.00e+00	0	27	0	859832320	75	5499
2026-01-05 13:09:57.25	327.03	7.26	-55.0	-58.2	12.6	0.00e+00	0	27	0	861929472	75	5461
2026-01-05 13:09:58.25	327.17	7.22	-54.9	-58.0	12.7	0.00e+00	0	27	0	864026624	75	5300
2026-01-05 13:09:59.26	327.31	7.18	-54.9	-58.0	12.8	0.00e+00	0	27	0	866123776	75	5307
2026-01-05 13:10:00.26	327.45	7.14	-54.7	-57.7	12.9	0.00e+00	0	27	0	867172352	75	5126
2026-01-05 13:10:01.26	327.59	7.10	-54.6	-57.5	13.0	0.00e+00	0	27	0	869269504	75	5036
2026-01-05 13:10:02.26	327.72	7.06	-54.5	-57.4	13.1	0.00e+00	0	27	0	871366656	75	4972
2026-01-05 13:10:03.26	327.86	7.02	-54.3	-57.1	13.3	0.00e+00	0	27	0	873463808	75	4772
2026-01-05 13:10:04.27	328.00	6.98	-54.1	-56.8	13.4	0.00e+00	0	27	0	875560960	74	4877
2026-01-05 13:10:05.27	328.13	6.94	-54.2	-56.8	13.3	0.00e+00	0	27	0	876609536	74	4922
2026-01-05 13:10:06.27	328.27	6.90	-54.3	-57.1	13.2	0.00e+00	0	27	0	878706688	74	5047
2026-01-05 13:10:07.27	328.41	6.86	-54.3	-57.2	13.2	0.00e+00	0	27	0	880803840	74	5111
2026-01-05 13:10:08.27	328.54	6.82	-54.3	-57.1	13.2	0.00e+00	0	27	0	882900992	74	5067
2026-01-05 13:10:09.26	328.68	6.77	-54.4	-57.3	13.1	0.00e+00	0	27	0	883949568	74	5172
2026-01-05 13:10:10.27	328.81	6.73	-54.3	-57.2	13.1	0.00e+00	0	27	0	886046720	74	5102
2026-01-05 13:10:11.27	328.95	6.69	-54.3	-57.1	13.1	0.00e+00	0	27	0	888143872	74	5093
2026-01-05 13:10:12.27	329.08	6.65	-54.3	-57.1	13.2	0.00e+00	0	27	0	890241024	74	5083
2026-01-05 13:10:13.28	329.21	6.61	-54.3	-57.2	13.1	0.00e+00	0	27	0	892338176	74	5107
2026-01-05 13:10:14.29	329.35	6.57	-54.2	-57.0	13.2	0.00e+00	0	27	0	893386752	74	5023
2026-01-05 13:10:15.29	329.48	6.53	-54.2	-57.0	13.2	0.00e+00	0	27	0	895483904	74	5031
2026-01-05 13:10:16.29	329.61	6.49	-54.3	-57.1	13.2	0.00e+00	0	27	0	897581056	74	5052
2026-01-05 13:10:17.30	329.75	6.44	-54.2	-56.9	13.2	0.00e+00	0	27	0	899678208	74	4975
2026-01-05 13:10:18.30	329.88	6.40	-54.3	-57.2	13.1	0.00e+00	0	27	0	901775360	74	5114
2026-01-05 13:10:19.31	330.01	6.36	-54.4	-57.3	13.0	0.00e+00	0	27	0	902823936	74	5177
2026-01-05 13:10:20.30	330.14	6.32	-54.5	-57.4	13.0	0.00e+00	0	27	0	904921088	74	5240
2026-01-05 13:10:21.30	330.27	6.28	-54.4	-57.3	13.0	0.00e+00	0	27	0	907018240	74	5211
2026-01-05 13:10:22.29	330.40	6.24	-54.4	-57.2	13.0	0.00e+00	0	27	0	909115392	74	5159
2026-01-05 13:10:23.30	330.53	6.19	-54.3	-57.1	13.1	0.00e+00	0	27	0	911212544	74	5078
2026-01-05 13:10:24.30	330.66	6.15	-54.1	-56.9	13.3	0.00e+00	0	27	0	912261120	74	4928
2026-01-05 13:10:25.30	330.79	6.11	-54.0	-56.7	13.4	0.00e+00	0	27	0	914358272	74	4826
2026-01-05 13:10:26.30	330.92	6.07	-54.0	-56.6	13.4	0.00e+00	0	27	0	916455424	74	4780
2026-01-05 13:10:27.30	331.05	6.03	-54.0	-56.6	13.4	0.00e+00	0	27	0	918552576	74	4791
2026-01-05 13:10:28.30	331.18	5.98	-53.9	-56.5	13.5	0.00e+00	0	27	0	919601152	74	4731
2026-01-05 13:10:29.30	331.30	5.94	-53.9	-56.5	13.5	0.00e+00	0	27	0	921698304	74	4720
2026-01-05 13:10:30.30	331.43	5.90	-53.9	-56.4	13.5	0.00e+00	0	27	0	923795456	74	4697
2026-01-05 13:10:31.30	331.56	5.86	-53.8	-56.3	13.5	0.00e+00	0	27	0	925892608	74	4642
2026-01-05 13:10:32.30	331.69	5.81	-53.6	-56.1	13.6	0.00e+00	0	27	0	927989760	73	4776
2026-01-05 13:10:33.30	331.81	5.77	-53.6	-56.0	13.6	0.00e+00	0	27	0	929038336	73	4759
2026-01-05 13:10:34.29	331.94	5.73	-53.6	-56.2	13.5	0.00e+00	0	27	0	931135488	73	4815
2026-01-05 13:10:35.29	332.06	5.69	-53.7	-56.3	13.5	0.00e+00	0	27	0	933232640	73	4873
2026-01-05 13:10:36.28	332.19	5.65	-53.7	-56.2	13.5	0.00e+00	0	27	0	935329792	73	4848
2026-01-05 13:10:37.28	332.31	5.60	-53.6	-56.2	13.5	0.00e+00	0	27	0	937426944	73	4817
2026-01-05 13:10:38.28	332.44	5.56	-53.6	-56.1	13.6	0.00e+00	0	27	0	938475520	73	4800
2026-01-05 13:10:39.28	332.56	5.52	-53.6	-56.1	13.6	0.00e+00	0	27	0	940572672	73	4767
2026-01-05 13:10:40.28	332.68	5.48	-53.5	-56.0	13.6	0.00e+00	0	27	0	942669824	73	4721
2026-01-05 13:10:41.28	332.81	5.43	-53.5	-56.0	13.6	0.00e+00	0	27	0	944766976	73	4737
2026-01-05 13:10:42.28	332.93	5.39	-53.4	-55.9	13.7	0.00e+00	0	27	0	945815552	73	4663
2026-01-05 13:10:43.28	333.05	5.35	-53.6	-56.1	13.5	0.00e+00	0	27	0	947912704	73	4776
2026-01-05 13:10:44.27	333.18	5.31	-53.6	-56.2	13.5	0.00e+00	0	27	0	950009856	73	4836
2026-01-05 13:10:45.27	333.30	5.26	-53.7	-56.3	13.4	0.00e+00	0	27	0	952107008	73	4899
2026-01-05 13:10:46.28	333.42	5.22	-53.7	-56.3	13.4	0.00e+00	0	27	0	954204160	73	4899
2026-01-05 13:10:47.29	333.54	5.18	-53.7	-56.4	13.4	0.00e+00	0	27	0	955252736	73	4932
2026-01-05 13:10:48.29	333.66	5.13	-53.8	-56.5	13.3	0.00e+00	0	27	0	957349888	73	5020
2026-01-05 13:10:49.29	333.79	5.09	-53.9	-56.6	13.2	0.00e+00	0	27	0	959447040	73	5064
2026-01-05 13:10:50.29	333.91	5.05	-54.2	-57.2	12.8	0.00e+00	0	27	0	961544192	73	5416
2026-01-05 13:10:51.28	334.02	5.01	-53.7	-56.6	13.1	0.00e+00	0	27	0	963641344	73	5046
2026-01-05 13:10:52.28	334.14	4.96	-58.8	-74.1	3.8	4.76e-01	0	27	104	964689920	82	22736
2026-01-05 13:10:53.28	334.26	4.92	-59.3	-75.3	3.8	1.49e+00	0	27	104	964689920	83	24523
2026-01-05 13:10:54.28	334.38	4.88	-59.9	-75.9	3.8	1.49e+00	0	27	104	964689920	84	24783
2026-01-05 13:10:55.28	334.50	4.83	-60.1	-76.2	3.8	1.49e+00	0	27	104	964689920	85	24135
2026-01-05 13:10:56.29	334.62	4.79	-60.3	-76.3	3.8	1.49e+00	0	27	104	964689920	85	24682
2026-01-05 13:10:57.29	334.74	4.75	-60.5	-76.6	3.8	1.49e+00	0	27	104	964689920	86	23921
2026-01-05 13:10:58.29	334.86	4.70	-60.6	-76.7	3.8	1.49e+00	0	27	104	964689920	86	24267
2026-01-05 13:10:59.30	334.98	4.66	-60.7	-76.7	3.8	1.49e+00	0	27	104	964689920	86	24410
2026-01-05 13:11:00.30	335.09	4.62	-60.8	-76.8	3.8	1.49e+00	0	27	104	964689920	86	24660
2026-01-05 13:11:01.30	335.21	4.57	-60.8	-76.9	3.8	1.49e+00	0	27	104	964689920	86	24853
2026-01-05 13:11:02.29	335.33	4.53	-60.9	-76.9	3.8	1.49e+00	0	27	104	964689920	86	24910
2026-01-05 13:11:03.29	335.44	4.49	-60.9	-76.9	3.8	1.49e+00	0	27	104	964689920	86	24977
2026-01-05 13:11:04.29	335.56	4.44	-60.9	-77.0	3.8	1.49e+00	0	27	104	964689920	87	23673
2026-01-05 13:11:05.29	335.67	4.40	-61.0	-77.0	3.8	1.49e+00	0	27	104	964689920	87	23793
2026-01-05 13:11:06.29	335.79	4.36	-61.0	-77.0	3.8	1.49e+00	0	27	104	964689920	87	23837
2026-01-05 13:11:07.29	335.90	4.31	-61.0	-77.1	3.8	1.49e+00	0	27	104	964689920	87	23878
2026-01-05 13:11:08.29	336.02	4.27	-61.0	-77.1	3.8	1.49e+00	0	27	104	964689920	87	23873
2026-01-05 13:11:09.29	336.13	4.23	-61.0	-77.1	3.8	1.49e+00	0	27	104	964689920	87	23911
2026-01-05 13:11:10.29	336.25	4.18	-61.0	-77.1	3.8	1.49e+00	0	27	104	964689920	87	23976
2026-01-05 13:11:11.28	336.36	4.14	-61.0	-77.1	3.8	1.49e+00	0	27	104	964689920	87	23923
2026-01-05 13:11:12.28	336.47	4.10	-61.0	-77.1	3.8	1.49e+00	0	27	104	964689920	87	23991
2026-01-05 13:11:13.28	336.58	4.05	-61.0	-77.1	3.8	1.49e+00	0	27	104	964689920	87	23985
2026-01-05 13:11:14.27	336.70	4.01	-61.0	-77.0	3.8	1.49e+00	0	27	104	964689920	87	23809
2026-01-05 13:11:15.28	336.81	3.97	-60.9	-77.0	3.8	1.49e+00	0	27	104	964689920	87	23670
2026-01-05 13:11:16.28	336.92	3.92	-60.9	-77.0	3.8	1.49e+00	0	27	104	964689920	87	23752
2026-01-05 13:11:17.29	337.03	3.88	-60.9	-77.0	3.8	1.49e+00	0	27	104	964689920	87	23591
2026-01-05 13:11:18.29	337.15	3.83	-60.9	-77.0	3.8	1.49e+00	0	27	104	964689920	87	23616
2026-01-05 13:11:19.30	337.26	3.79	-60.9	-76.9	3.8	1.49e+00	0	27	104	964689920	87	23564
2026-01-05 13:11:20.31	337.37	3.75	-60.9	-76.9	3.8	1.49e+00	0	27	104	964689920	87	23556
2026-01-05 13:11:21.31	337.48	3.70	-60.9	-76.9	3.8	1.49e+00	0	27	104	964689920	87	23535
2026-01-05 13:11:22.31	337.59	3.66	-60.9	-76.9	3.8	1.49e+00	0	27	104	964689920	87	23469
2026-01-05 13:11:23.30	337.70	3.62	-60.9	-76.9	3.8	1.49e+00	0	27	104	964689920	87	23487
2026-01-05 13:11:24.30	337.81	3.57	-60.8	-76.9	3.8	1.49e+00	0	27	104	964689920	87	23417
2026-01-05 13:11:25.30	337.92	3.53	-60.8	-76.9	3.8	1.49e+00	0	27	104	964689920	87	23386
2026-01-05 13:11:26.30	338.03	3.48	-60.8	-76.8	3.8	1.49e+00	0	27	104	964689920	87	23310
2026-01-05 13:11:27.30	338.13	3.44	-60.8	-76.9	3.8	1.49e+00	0	27	104	964689920	87	23320
2026-01-05 13:11:28.30	338.24	3.40	-60.8	-76.8	3.8	1.49e+00	0	27	104	964689920	87	23287
2026-01-05 13:11:29.30	338.35	3.35	-60.8	-76.8	3.8	1.49e+00	0	27	104	964689920	87	23311
2026-01-05 13:11:30.29	338.46	3.31	-60.8	-76.8	3.8	1.49e+00	0	27	104	964689920	87	23288
2026-01-05 13:11:31.28	338.56	3.27	-60.8	-76.8	3.8	1.49e+00	0	27	104	964689920	87	23229
2026-01-05 13:11:32.27	338.67	3.22	-60.8	-76.8	3.8	1.49e+00	0	27	104	964689920	87	23234
2026-01-05 13:11:33.28	338.78	3.18	-60.8	-76.8	3.8	1.49e+00	0	27	104	964689920	87	23219
2026-01-05 13:11:34.28	338.88	3.14	-60.8	-76.8	3.8	1.49e+00	0	27	104	964689920	87	23206
2026-01-05 13:11:35.28	338.99	3.09	-60.7	-76.8	3.8	1.49e+00	0	27	104	964689920	87	23128
2026-01-05 13:11:36.28	339.09	3.05	-60.7	-76.8	3.8	1.49e+00	0	27	104	964689920	87	23146
2026-01-05 13:11:37.27	339.20	3.00	-60.7	-76.8	3.8	1.49e+00	0	27	104	964689920	87	23161
2026-01-05 13:11:38.27	339.30	2.96	-60.7	-76.8	3.8	1.49e+00	0	27	104	964689920	87	23173
2026-01-05 13:11:39.26	339.41	2.92	-60.7	-76.8	3.8	1.49e+00	0	27	104	964689920	87	23136
2026-01-05 13:11:40.25	339.51	2.87	-60.7	-76.8	3.8	1.49e+00	0	27	104	964689920	87	23124
2026-01-05 13:11:41.26	339.62	2.83	-60.7	-76.7	3.8	1.49e+00	0	27	104	964689920	87	23035
2026-01-05 13:11:42.25	339.72	2.79	-60.7	-76.7	3.8	1.49e+00	0	27	104	964689920	87	22995
2026-01-05 13:11:43.26	339.82	2.74	-60.7	-76.7	3.8	1.49e+00	0	27	104	964689920	87	23030
2026-01-05 13:11:44.26	339.93	2.70	-60.7	-76.7	3.8	1.49e+00	0	27	104	964689920	87	23035
2026-01-05 13:11:45.26	340.03	2.65	-60.7	-76.8	3.8	1.49e+00	0	27	104	964689920	87	23047
2026-01-05 13:11:46.27	340.14	2.61	-60.7	-76.7	3.8	1.49e+00	0	27	104	964689920	87	23020
2026-01-05 13:11:47.27	340.24	2.57	-60.7	-76.7	3.8	1.49e+00	0	27	104	964689920	87	22988
2026-01-05 13:11:48.28	340.34	2.52	-60.7	-76.7	3.8	1.49e+00	0	27	104	964689920	87	22983
2026-01-05 13:11:49.29	340.44	2.48	-60.7	-76.7	3.8	1.49e+00	0	27	104	964689920	87	22982
2026-01-05 13:11:50.29	340.55	2.43	-60.7	-76.7	3.8	1.49e+00	0	27	104	964689920	87	22918
2026-01-05 13:11:51.29	340.65	2.39	-60.7	-76.7	3.8	1.49e+00	0	27	104	964689920	87	22963
2026-01-05 13:11:52.29	340.75	2.35	-60.7	-76.7	3.8	1.49e+00	0	27	104	964689920	87	22999
2026-01-05 13:11:53.29	340.85	2.30	-60.7	-76.7	3.8	1.49e+00	0	27	104	964689920	87	22995
2026-01-05 13:11:54.29	340.95	2.26	-60.7	-76.7	3.8	1.49e+00	0	27	104	964689920	87	22977
2026-01-05 13:11:55.30	341.05	2.21	-60.7	-76.7	3.8	1.49e+00	0	27	104	964689920	87	22977
2026-01-05 13:11:56.31	341.15	2.17	-60.7	-76.7	3.8	1.49e+00	0	27	104	964689920	87	22945
2026-01-05 13:11:57.31	341.25	2.13	-60.6	-76.7	3.8	1.49e+00	0	27	104	964689920	87	22916
2026-01-05 13:11:58.30	341.35	2.08	-60.6	-76.7	3.8	1.49e+00	0	27	104	964689920	87	22917
2026-01-05 13:11:59.31	341.45	2.04	-60.6	-76.7	3.8	1.49e+00	0	27	104	964689920	87	22869
2026-01-05 13:12:00.31	341.55	1.99	-60.6	-76.7	3.8	1.49e+00	0	27	104	964689920	87	22827

#Closed at: 2026-01-05 13:12:01
#Recorded file [964 MB]: D:/lorett/data/31004_260105_160114.dat