passes_logs/2026/01/05/R3.2S_Murmansk/R3.2S_Murmansk__20260105_043906_NOAA_20_JPSS-1_rec.log

#Pass ID: 20260105_043906_NOAA 20 (JPSS-1)
#Satellite: NOAA 20 (JPSS-1)
#Configuration: NOAA 20
#almurnet v.1.7.20251203
#Start time: 2026-01-05 04:39:06

#Version: 2.2.20231116
#Station: R3.2S_Murmansk
#Location: 33.079688 lon 68.888172 lat
#TLE: 1 43013U 17073A   26004.47528369  .00000132  00000+0  83671-4 0  9999
#TLE: 2 43013  98.7626 305.5264 0001854  54.5883 305.5466 14.19533142421242

#Time	Az	El	Level	Level2	SNR	BER	BlckErr	Temp	State	Recorded	gain1	gain2
2026-01-05 04:39:06.47	54.96	2.02	-58.1	-74.1	3.8	1.49e+00	0	25	0	0	82	22596
2026-01-05 04:39:07.47	54.89	2.08	-58.1	-74.1	3.8	1.49e+00	0	25	104	0	81	23868
2026-01-05 04:39:08.47	54.83	2.13	-58.1	-74.1	3.8	1.49e+00	0	25	104	0	81	23855
2026-01-05 04:39:09.47	54.77	2.19	-58.1	-74.1	3.8	1.49e+00	0	25	104	0	81	23877
2026-01-05 04:39:10.48	54.70	2.25	-58.1	-74.1	3.8	1.49e+00	0	25	104	0	81	23878
2026-01-05 04:39:11.48	54.64	2.31	-58.1	-74.1	3.8	1.49e+00	0	25	104	0	81	23898
2026-01-05 04:39:12.47	54.58	2.36	-58.1	-74.1	3.8	1.49e+00	0	26	104	0	81	23879
2026-01-05 04:39:13.47	54.51	2.42	-58.1	-74.1	3.8	1.49e+00	0	25	104	0	81	23888
2026-01-05 04:39:14.47	54.45	2.48	-58.1	-74.0	3.8	1.49e+00	0	25	104	0	81	23836
2026-01-05 04:39:15.47	54.38	2.53	-58.1	-74.1	3.8	1.49e+00	0	25	104	0	81	23884
2026-01-05 04:39:16.48	54.31	2.59	-58.1	-74.1	3.8	1.49e+00	0	25	104	0	81	23902
2026-01-05 04:39:17.48	54.25	2.65	-58.1	-74.0	3.8	1.49e+00	0	26	104	0	81	23809
2026-01-05 04:39:18.48	54.18	2.71	-58.1	-74.0	3.8	1.49e+00	0	25	104	0	81	23820
2026-01-05 04:39:19.48	54.12	2.77	-58.1	-74.0	3.8	1.49e+00	0	25	104	0	81	23789
2026-01-05 04:39:20.48	54.05	2.82	-58.1	-74.0	3.8	1.49e+00	0	26	104	0	81	23777
2026-01-05 04:39:21.48	53.98	2.88	-58.1	-74.0	3.8	1.49e+00	0	26	104	0	81	23785
2026-01-05 04:39:22.48	53.92	2.94	-58.1	-74.0	3.8	1.49e+00	0	26	104	0	81	23755
2026-01-05 04:39:23.48	53.85	3.00	-58.1	-74.0	3.8	1.49e+00	0	26	104	0	81	23783
2026-01-05 04:39:24.48	53.78	3.06	-58.1	-74.0	3.8	1.49e+00	0	26	104	0	81	23807
2026-01-05 04:39:25.48	53.71	3.11	-58.1	-74.0	3.8	1.49e+00	0	26	104	0	81	23755
2026-01-05 04:39:26.47	53.64	3.17	-58.1	-74.0	3.8	1.49e+00	0	26	104	0	81	23753
2026-01-05 04:39:27.47	53.58	3.23	-58.1	-74.0	3.8	1.49e+00	0	26	104	0	81	23770
2026-01-05 04:39:28.46	53.51	3.29	-58.1	-74.0	3.8	1.49e+00	0	26	104	0	81	23837
2026-01-05 04:39:29.46	53.44	3.35	-58.1	-74.1	3.8	1.49e+00	0	25	104	0	81	23884
2026-01-05 04:39:30.46	53.37	3.41	-58.1	-74.1	3.8	1.49e+00	0	26	104	0	81	23954
2026-01-05 04:39:31.46	53.30	3.46	-58.1	-74.1	3.8	1.49e+00	0	26	104	0	81	23956
2026-01-05 04:39:32.45	53.23	3.52	-58.1	-74.1	3.8	1.49e+00	0	26	104	0	81	23935
2026-01-05 04:39:33.46	53.16	3.58	-58.1	-74.0	3.8	1.49e+00	0	26	104	0	81	23832
2026-01-05 04:39:34.45	53.09	3.64	-58.1	-74.0	3.8	1.49e+00	0	26	104	0	81	23786
2026-01-05 04:39:35.43	53.02	3.70	-58.1	-74.0	3.8	1.49e+00	0	26	104	0	81	23813
2026-01-05 04:39:36.42	52.95	3.76	-58.1	-74.0	3.8	1.49e+00	0	26	104	0	81	23750
2026-01-05 04:39:37.41	52.88	3.82	-58.1	-74.0	3.8	1.49e+00	0	26	104	0	81	23766
2026-01-05 04:39:38.41	52.81	3.88	-58.1	-74.0	3.8	1.49e+00	0	26	104	0	81	23825
2026-01-05 04:39:39.40	52.74	3.93	-58.1	-74.0	3.9	1.49e+00	0	26	104	0	81	23834
2026-01-05 04:39:40.39	52.66	3.99	-58.1	-74.0	3.8	1.49e+00	0	26	104	0	81	23842
2026-01-05 04:39:41.38	52.59	4.05	-58.1	-74.0	3.8	1.49e+00	0	26	104	0	81	23810
2026-01-05 04:39:42.37	52.52	4.11	-58.1	-74.0	3.8	1.49e+00	0	26	104	0	81	23662
2026-01-05 04:39:43.37	52.45	4.17	-58.1	-74.0	3.8	1.49e+00	0	26	104	0	81	23610
2026-01-05 04:39:44.38	52.37	4.23	-58.1	-73.9	3.8	1.49e+00	0	26	104	0	81	23504
2026-01-05 04:39:45.36	52.30	4.29	-58.1	-74.0	3.8	1.49e+00	0	26	104	0	81	23594
2026-01-05 04:39:46.36	52.23	4.35	-58.1	-74.0	3.8	1.49e+00	0	26	104	0	81	23716
2026-01-05 04:39:47.35	52.15	4.41	-58.1	-74.0	3.8	1.49e+00	0	26	104	0	81	23784
2026-01-05 04:39:48.35	52.08	4.47	-58.1	-74.0	3.8	1.49e+00	0	26	104	0	81	23758
2026-01-05 04:39:49.35	52.00	4.53	-58.1	-73.8	3.8	1.49e+00	0	26	104	0	81	23239
2026-01-05 04:39:50.34	51.93	4.59	-58.1	-73.4	3.8	1.49e+00	0	26	104	0	81	22152
2026-01-05 04:39:51.34	51.85	4.65	-58.1	-72.9	3.8	1.49e+00	0	26	104	0	81	20942
2026-01-05 04:39:52.34	51.78	4.71	-58.0	-72.2	3.8	1.49e+00	0	26	104	0	81	19373
2026-01-05 04:39:53.34	51.70	4.77	-58.0	-71.4	4.0	1.49e+00	0	26	104	0	81	17508
2026-01-05 04:39:54.34	51.62	4.83	-57.9	-70.5	4.2	1.42e+00	0	26	0	0	81	15875
2026-01-05 04:39:55.35	51.54	4.90	-57.9	-69.6	4.5	1.32e+00	12	26	0	0	81	14285
2026-01-05 04:39:56.36	51.47	4.96	-57.8	-68.6	4.8	9.51e-01	0	26	0	2097152	81	12796
2026-01-05 04:39:57.37	51.39	5.02	-57.7	-67.9	5.2	5.81e-01	0	26	0	4194304	81	11718
2026-01-05 04:39:58.37	51.31	5.08	-57.9	-68.6	5.0	4.21e-01	0	26	0	6291456	81	12730
2026-01-05 04:39:59.38	51.23	5.14	-58.3	-73.2	3.8	1.49e+00	0	26	104	6291456	81	21696
2026-01-05 04:40:00.39	51.15	5.20	-57.6	-66.5	6.2	1.47e-01	0	27	0	6291456	81	10007
2026-01-05 04:40:01.39	51.07	5.26	-57.9	-69.3	4.6	1.47e+00	2	26	104	7340032	81	13790
2026-01-05 04:40:02.39	50.99	5.33	-58.0	-69.8	4.0	1.48e+00	0	26	104	7340032	81	14694
2026-01-05 04:40:03.40	50.91	5.39	-56.0	-60.5	11.0	8.59e-03	0	26	0	8388608	78	5972
2026-01-05 04:40:04.40	50.83	5.45	-55.9	-60.4	11.1	1.12e-04	0	27	0	9437184	78	5866
2026-01-05 04:40:05.41	50.75	5.51	-55.8	-60.1	11.3	7.62e-05	0	27	0	11534336	78	5711
2026-01-05 04:40:06.41	50.67	5.57	-55.4	-59.1	12.0	2.05e-05	0	26	0	13631488	77	5371
2026-01-05 04:40:07.41	50.59	5.64	-55.1	-58.5	12.3	1.50e-06	0	27	0	15728640	76	5322
2026-01-05 04:40:08.41	50.50	5.70	-55.0	-58.5	12.4	0.00e+00	0	26	0	16777216	76	5294
2026-01-05 04:40:09.42	50.42	5.76	-55.0	-58.3	12.5	7.00e-07	0	26	0	18874368	76	5214
2026-01-05 04:40:10.40	50.34	5.82	-54.9	-58.1	12.6	0.00e+00	0	27	0	20971520	76	5087
2026-01-05 04:40:11.40	50.26	5.88	-54.9	-58.2	12.6	0.00e+00	0	27	0	23068672	76	5118
2026-01-05 04:40:12.40	50.17	5.95	-54.8	-57.9	12.8	0.00e+00	0	26	0	25165824	76	4950
2026-01-05 04:40:13.39	50.09	6.01	-54.8	-57.9	12.8	0.00e+00	0	27	0	26214400	76	4940
2026-01-05 04:40:14.38	50.01	6.07	-54.7	-57.7	12.9	0.00e+00	0	27	0	28311552	76	4855
2026-01-05 04:40:15.37	49.93	6.13	-54.5	-57.6	12.9	0.00e+00	0	27	0	30408704	75	5068
2026-01-05 04:40:16.37	49.84	6.20	-54.5	-57.5	12.9	0.00e+00	0	27	0	32505856	75	5039
2026-01-05 04:40:17.36	49.76	6.26	-54.5	-57.5	13.0	0.00e+00	0	27	0	34603008	75	4984
2026-01-05 04:40:18.35	49.67	6.32	-54.5	-57.5	13.0	0.00e+00	0	27	0	35651584	75	4996
2026-01-05 04:40:19.34	49.59	6.38	-54.5	-57.5	13.0	7.00e-07	0	27	0	37748736	75	5014
2026-01-05 04:40:20.34	49.50	6.45	-54.4	-57.4	13.0	0.00e+00	0	27	0	39845888	75	4950
2026-01-05 04:40:21.34	49.41	6.51	-54.4	-57.3	13.0	0.00e+00	0	27	0	41943040	75	4926
2026-01-05 04:40:22.34	49.33	6.57	-54.4	-57.3	13.1	0.00e+00	0	27	0	42991616	75	4874
2026-01-05 04:40:23.33	49.24	6.63	-54.5	-57.5	13.0	0.00e+00	0	27	0	45088768	75	4993
2026-01-05 04:40:24.34	49.15	6.70	-54.4	-57.3	13.1	0.00e+00	0	27	0	47185920	75	4895
2026-01-05 04:40:25.33	49.06	6.76	-54.4	-57.3	13.1	0.00e+00	0	27	0	49283072	75	4917
2026-01-05 04:40:26.33	48.98	6.83	-54.4	-57.3	13.1	0.00e+00	0	27	0	51380224	75	4918
2026-01-05 04:40:27.32	48.89	6.89	-54.4	-57.4	13.1	0.00e+00	0	27	0	52428800	75	4932
2026-01-05 04:40:28.32	48.80	6.95	-54.4	-57.3	13.1	0.00e+00	0	27	0	54525952	75	4897
2026-01-05 04:40:29.32	48.71	7.02	-54.4	-57.3	13.2	0.00e+00	0	27	0	56623104	75	4873
2026-01-05 04:40:30.31	48.62	7.08	-54.4	-57.3	13.1	0.00e+00	0	27	0	58720256	75	4912
2026-01-05 04:40:31.30	48.53	7.14	-54.5	-57.4	13.1	0.00e+00	0	27	0	59768832	75	4934
2026-01-05 04:40:32.29	48.44	7.21	-54.5	-57.5	13.0	0.00e+00	0	27	0	61865984	75	4989
2026-01-05 04:40:33.29	48.35	7.27	-54.4	-57.3	13.1	0.00e+00	0	27	0	63963136	75	4900
2026-01-05 04:40:34.28	48.26	7.33	-54.4	-57.3	13.1	0.00e+00	0	27	0	66060288	75	4887
2026-01-05 04:40:35.28	48.16	7.40	-54.5	-57.4	13.1	0.00e+00	0	27	0	68157440	75	4942
2026-01-05 04:40:36.26	48.07	7.46	-54.4	-57.3	13.1	0.00e+00	0	27	0	69206016	75	4902
2026-01-05 04:40:37.26	47.98	7.53	-54.5	-57.4	13.1	0.00e+00	0	27	0	71303168	75	4945
2026-01-05 04:40:38.25	47.89	7.59	-54.6	-57.5	13.0	0.00e+00	0	27	0	73400320	75	5013
2026-01-05 04:40:39.24	47.79	7.66	-54.5	-57.3	13.1	0.00e+00	0	27	0	75497472	75	4926
2026-01-05 04:40:40.24	47.70	7.72	-54.5	-57.5	13.1	0.00e+00	0	27	0	76546048	75	4989
2026-01-05 04:40:41.23	47.61	7.79	-54.5	-57.3	13.2	0.00e+00	0	27	0	78643200	75	4903
2026-01-05 04:40:42.22	47.51	7.85	-54.5	-57.3	13.1	0.00e+00	0	27	0	80740352	75	4922
2026-01-05 04:40:43.21	47.42	7.91	-54.5	-57.4	13.1	0.00e+00	0	27	0	82837504	75	4952
2026-01-05 04:40:44.20	47.32	7.98	-54.4	-57.2	13.2	0.00e+00	0	27	0	84934656	75	4862
2026-01-05 04:40:45.19	47.23	8.04	-54.5	-57.3	13.1	0.00e+00	0	27	0	85983232	75	4909
2026-01-05 04:40:46.18	47.13	8.11	-54.4	-57.2	13.2	0.00e+00	0	27	0	88080384	75	4829
2026-01-05 04:40:47.17	47.03	8.17	-54.4	-57.1	13.3	0.00e+00	0	27	0	90177536	75	4798
2026-01-05 04:40:48.16	46.94	8.24	-54.4	-57.1	13.3	0.00e+00	0	27	0	92274688	75	4802
2026-01-05 04:40:49.16	46.84	8.30	-54.3	-57.0	13.4	0.00e+00	0	27	0	93323264	75	4732
2026-01-05 04:40:50.14	46.74	8.37	-54.3	-57.0	13.4	0.00e+00	0	27	0	95420416	75	4712
2026-01-05 04:40:51.13	46.64	8.43	-54.3	-56.9	13.4	0.00e+00	0	27	0	97517568	75	4704
2026-01-05 04:40:52.12	46.54	8.50	-54.2	-56.8	13.4	0.00e+00	0	27	0	99614720	74	4902
2026-01-05 04:40:53.11	46.45	8.56	-54.2	-56.9	13.3	0.00e+00	0	27	0	100663296	74	4934
2026-01-05 04:40:54.10	46.35	8.63	-54.1	-56.7	13.4	0.00e+00	0	27	0	102760448	74	4858
2026-01-05 04:40:55.09	46.25	8.70	-54.1	-56.7	13.4	0.00e+00	0	27	0	104857600	74	4867
2026-01-05 04:40:56.08	46.15	8.76	-54.1	-56.7	13.4	0.00e+00	0	27	0	106954752	74	4853
2026-01-05 04:40:57.07	46.04	8.83	-54.1	-56.6	13.5	0.00e+00	0	27	0	109051904	74	4794
2026-01-05 04:40:58.06	45.94	8.89	-54.0	-56.5	13.6	0.00e+00	0	27	0	110100480	74	4742
2026-01-05 04:40:59.05	45.84	8.96	-54.1	-56.6	13.5	0.00e+00	0	27	0	112197632	74	4797
2026-01-05 04:41:00.05	45.74	9.03	-54.0	-56.5	13.6	0.00e+00	0	27	0	114294784	74	4720
2026-01-05 04:41:01.04	45.63	9.09	-54.0	-56.5	13.6	0.00e+00	0	27	0	116391936	74	4714
2026-01-05 04:41:02.03	45.53	9.16	-54.0	-56.5	13.6	0.00e+00	0	27	0	117440512	74	4724
2026-01-05 04:41:03.02	45.43	9.22	-54.0	-56.4	13.6	0.00e+00	0	27	0	119537664	74	4703
2026-01-05 04:41:04.01	45.32	9.29	-54.0	-56.5	13.6	0.00e+00	0	27	0	121634816	74	4724
2026-01-05 04:41:04.99	45.22	9.36	-54.0	-56.5	13.6	0.00e+00	0	27	0	123731968	74	4718
2026-01-05 04:41:05.98	45.11	9.42	-54.0	-56.5	13.6	0.00e+00	0	27	0	124780544	74	4720
2026-01-05 04:41:06.97	45.01	9.49	-54.0	-56.5	13.6	0.00e+00	0	27	0	126877696	74	4750
2026-01-05 04:41:07.96	44.90	9.56	-54.0	-56.5	13.6	0.00e+00	0	27	0	128974848	74	4730
2026-01-05 04:41:08.95	44.79	9.62	-54.1	-56.6	13.5	0.00e+00	0	27	0	131072000	74	4798
2026-01-05 04:41:09.94	44.69	9.69	-54.1	-56.6	13.5	0.00e+00	0	27	0	133169152	74	4778
2026-01-05 04:41:10.93	44.58	9.76	-54.1	-56.6	13.5	0.00e+00	0	27	0	134217728	74	4780
2026-01-05 04:41:11.93	44.47	9.82	-54.1	-56.6	13.5	0.00e+00	0	27	0	136314880	74	4805
2026-01-05 04:41:12.93	44.36	9.89	-54.2	-56.7	13.5	0.00e+00	0	27	0	138412032	74	4868
2026-01-05 04:41:13.92	44.25	9.96	-54.2	-56.9	13.4	0.00e+00	0	27	0	140509184	74	4930
2026-01-05 04:41:14.91	44.14	10.03	-54.1	-56.7	13.5	0.00e+00	0	27	0	141557760	74	4856
2026-01-05 04:41:15.91	44.03	10.09	-54.2	-56.8	13.4	0.00e+00	0	27	0	143654912	74	4912
2026-01-05 04:41:16.90	43.92	10.16	-54.2	-56.7	13.5	0.00e+00	0	27	0	145752064	74	4861
2026-01-05 04:41:17.89	43.80	10.23	-54.2	-56.8	13.5	0.00e+00	0	27	0	147849216	74	4875
2026-01-05 04:41:18.89	43.69	10.30	-54.2	-56.7	13.5	0.00e+00	0	27	0	149946368	74	4869
2026-01-05 04:41:19.88	43.58	10.37	-54.2	-56.8	13.4	0.00e+00	0	27	0	150994944	74	4907
2026-01-05 04:41:20.87	43.47	10.43	-54.2	-56.8	13.5	0.00e+00	0	27	0	153092096	74	4897
2026-01-05 04:41:21.86	43.35	10.50	-54.1	-56.7	13.5	0.00e+00	0	27	0	155189248	74	4838
2026-01-05 04:41:22.86	43.24	10.57	-54.1	-56.7	13.5	0.00e+00	0	27	0	157286400	74	4838
2026-01-05 04:41:23.86	43.12	10.64	-54.1	-56.6	13.5	0.00e+00	0	27	0	158334976	74	4799
2026-01-05 04:41:24.86	43.00	10.71	-54.2	-56.7	13.5	0.00e+00	0	27	0	160432128	74	4862
2026-01-05 04:41:25.84	42.89	10.77	-54.2	-56.8	13.5	0.00e+00	0	27	0	162529280	74	4898
2026-01-05 04:41:26.83	42.77	10.84	-54.1	-56.6	13.6	0.00e+00	0	27	0	164626432	74	4775
2026-01-05 04:41:27.82	42.66	10.91	-54.1	-56.7	13.5	0.00e+00	0	27	0	166723584	74	4821
2026-01-05 04:41:28.81	42.54	10.98	-54.1	-56.6	13.6	0.00e+00	0	27	0	167772160	74	4776
2026-01-05 04:41:29.81	42.42	11.05	-54.1	-56.6	13.6	0.00e+00	0	27	0	169869312	74	4772
2026-01-05 04:41:30.80	42.30	11.12	-54.0	-56.5	13.7	0.00e+00	0	27	0	171966464	74	4713
2026-01-05 04:41:31.79	42.18	11.18	-53.9	-56.3	13.7	0.00e+00	0	27	0	174063616	74	4640
2026-01-05 04:41:32.78	42.06	11.25	-54.0	-56.4	13.7	0.00e+00	0	27	0	175112192	74	4694
2026-01-05 04:41:33.77	41.94	11.32	-53.9	-56.4	13.7	0.00e+00	0	27	0	177209344	74	4660
2026-01-05 04:41:34.76	41.82	11.39	-53.8	-56.2	13.8	0.00e+00	0	27	0	179306496	74	4569
2026-01-05 04:41:35.76	41.70	11.46	-53.9	-56.3	13.8	0.00e+00	0	27	0	181403648	74	4616
2026-01-05 04:41:36.75	41.57	11.53	-53.9	-56.3	13.7	0.00e+00	0	27	0	182452224	74	4642
2026-01-05 04:41:37.75	41.45	11.60	-53.8	-56.2	13.8	0.00e+00	0	27	0	184549376	74	4551
2026-01-05 04:41:38.75	41.32	11.67	-53.8	-56.2	13.8	0.00e+00	0	27	0	186646528	74	4563
2026-01-05 04:41:39.73	41.20	11.74	-53.8	-56.1	13.9	0.00e+00	0	27	0	188743680	74	4515
2026-01-05 04:41:40.72	41.08	11.81	-53.7	-56.1	13.9	0.00e+00	0	27	0	190840832	74	4503
2026-01-05 04:41:41.71	40.95	11.87	-53.6	-55.9	13.9	0.00e+00	0	27	0	191889408	73	4680
2026-01-05 04:41:42.71	40.82	11.94	-53.7	-56.0	13.8	0.00e+00	0	27	0	193986560	73	4737
2026-01-05 04:41:43.69	40.70	12.01	-53.6	-55.9	13.9	0.00e+00	0	27	0	196083712	73	4664
2026-01-05 04:41:44.69	40.57	12.08	-53.6	-55.9	13.8	0.00e+00	0	27	0	198180864	73	4704
2026-01-05 04:41:45.68	40.44	12.15	-53.6	-55.8	13.9	0.00e+00	0	27	0	199229440	73	4648
2026-01-05 04:41:46.67	40.32	12.22	-53.6	-55.9	13.9	0.00e+00	0	27	0	201326592	73	4662
2026-01-05 04:41:47.66	40.19	12.29	-53.6	-55.9	13.9	0.00e+00	0	27	0	203423744	73	4652
2026-01-05 04:41:48.65	40.06	12.36	-53.6	-55.8	13.9	0.00e+00	0	27	0	205520896	73	4651
2026-01-05 04:41:49.66	39.92	12.43	-53.5	-55.8	13.9	0.00e+00	0	27	0	207618048	73	4620
2026-01-05 04:41:50.66	39.79	12.50	-53.5	-55.8	13.9	0.00e+00	0	27	0	208666624	73	4616
2026-01-05 04:41:51.65	39.66	12.57	-53.5	-55.7	14.0	0.00e+00	0	27	0	210763776	73	4593
2026-01-05 04:41:52.65	39.53	12.64	-53.5	-55.8	13.9	0.00e+00	0	27	0	212860928	73	4601
2026-01-05 04:41:53.65	39.39	12.71	-53.6	-55.8	13.9	0.00e+00	0	27	0	214958080	73	4626
2026-01-05 04:41:54.65	39.26	12.78	-53.5	-55.8	13.9	0.00e+00	0	27	0	216006656	73	4620
2026-01-05 04:41:55.64	39.12	12.85	-53.6	-55.9	13.9	0.00e+00	0	27	0	218103808	73	4673
2026-01-05 04:41:56.63	38.99	12.92	-53.4	-55.6	14.0	0.00e+00	0	27	0	220200960	73	4518
2026-01-05 04:41:57.62	38.85	12.99	-53.4	-55.5	14.1	0.00e+00	0	27	0	222298112	73	4484
2026-01-05 04:41:58.63	38.72	13.06	-53.5	-55.7	14.0	0.00e+00	0	27	0	224395264	73	4559
2026-01-05 04:41:59.62	38.58	13.13	-53.3	-55.4	14.1	0.00e+00	0	27	0	225443840	73	4422
2026-01-05 04:42:00.62	38.44	13.21	-53.3	-55.4	14.2	0.00e+00	0	27	0	227540992	73	4399
2026-01-05 04:42:01.62	38.30	13.28	-53.3	-55.4	14.2	0.00e+00	0	27	0	229638144	73	4411
2026-01-05 04:42:02.61	38.16	13.35	-53.3	-55.5	14.1	0.00e+00	0	27	0	231735296	73	4454
2026-01-05 04:42:03.61	38.02	13.42	-53.1	-55.2	14.1	0.00e+00	0	27	0	232783872	72	4570
2026-01-05 04:42:04.60	37.88	13.49	-53.1	-55.1	14.2	0.00e+00	0	27	0	234881024	72	4528
2026-01-05 04:42:05.60	37.74	13.56	-53.1	-55.2	14.2	0.00e+00	0	27	0	236978176	72	4561
2026-01-05 04:42:06.61	37.59	13.63	-53.0	-55.0	14.2	0.00e+00	0	27	0	239075328	72	4467
2026-01-05 04:42:07.60	37.45	13.70	-53.0	-55.0	14.2	0.00e+00	0	27	0	241172480	72	4483
2026-01-05 04:42:08.60	37.31	13.77	-53.0	-55.0	14.2	0.00e+00	0	27	0	242221056	72	4450
2026-01-05 04:42:09.60	37.16	13.84	-52.9	-54.9	14.3	0.00e+00	0	27	0	244318208	72	4413
2026-01-05 04:42:10.59	37.02	13.91	-53.0	-55.0	14.3	0.00e+00	0	27	0	246415360	72	4452
2026-01-05 04:42:11.59	36.87	13.98	-53.1	-55.2	14.1	0.00e+00	0	27	0	248512512	72	4564
2026-01-05 04:42:12.59	36.73	14.05	-53.0	-55.1	14.2	0.00e+00	0	27	0	250609664	72	4513
2026-01-05 04:42:13.58	36.58	14.12	-53.1	-55.1	14.2	0.00e+00	0	27	0	251658240	72	4519
2026-01-05 04:42:14.58	36.43	14.20	-53.0	-55.1	14.2	0.00e+00	0	27	0	253755392	72	4494
2026-01-05 04:42:15.58	36.28	14.27	-53.0	-55.1	14.2	0.00e+00	0	27	0	255852544	72	4509
2026-01-05 04:42:16.57	36.13	14.34	-53.1	-55.2	14.1	0.00e+00	0	27	0	257949696	72	4556
2026-01-05 04:42:17.57	35.98	14.41	-53.2	-55.3	14.1	0.00e+00	0	27	0	260046848	72	4610
2026-01-05 04:42:18.56	35.83	14.48	-53.2	-55.3	14.1	0.00e+00	0	27	0	261095424	72	4650
2026-01-05 04:42:19.56	35.68	14.55	-53.3	-55.5	14.0	0.00e+00	0	27	0	263192576	72	4719
2026-01-05 04:42:20.56	35.53	14.62	-53.3	-55.4	14.0	0.00e+00	0	27	0	265289728	72	4703
2026-01-05 04:42:21.56	35.37	14.69	-53.3	-55.4	14.1	0.00e+00	0	27	0	267386880	72	4680
2026-01-05 04:42:22.56	35.22	14.76	-53.3	-55.5	14.0	0.00e+00	0	27	0	268435456	72	4713
2026-01-05 04:42:23.56	35.06	14.84	-53.3	-55.4	14.0	0.00e+00	0	27	0	270532608	72	4702
2026-01-05 04:42:24.56	34.91	14.91	-53.4	-55.5	14.0	0.00e+00	0	27	0	272629760	72	4745
2026-01-05 04:42:25.56	34.75	14.98	-53.4	-55.6	14.0	0.00e+00	0	27	0	274726912	72	4776
2026-01-05 04:42:26.55	34.60	15.05	-53.4	-55.6	14.0	0.00e+00	0	27	0	276824064	72	4772
2026-01-05 04:42:27.55	34.44	15.12	-53.5	-55.7	13.9	0.00e+00	0	27	0	277872640	72	4819
2026-01-05 04:42:28.56	34.28	15.19	-53.4	-55.6	14.0	0.00e+00	0	27	0	279969792	72	4773
2026-01-05 04:42:29.56	34.12	15.26	-53.6	-55.8	13.9	0.00e+00	0	27	0	282066944	72	4895
2026-01-05 04:42:30.56	33.96	15.33	-53.6	-55.8	13.9	0.00e+00	0	27	0	284164096	72	4889
2026-01-05 04:42:31.56	33.80	15.40	-53.6	-55.8	13.9	0.00e+00	0	27	0	285212672	72	4884
2026-01-05 04:42:32.56	33.63	15.48	-53.6	-55.9	13.8	0.00e+00	0	27	0	287309824	72	4958
2026-01-05 04:42:33.56	33.47	15.55	-53.7	-56.0	13.8	0.00e+00	0	27	0	289406976	72	5028
2026-01-05 04:42:34.55	33.31	15.62	-53.7	-55.9	13.8	0.00e+00	0	27	0	291504128	72	4967
2026-01-05 04:42:35.55	33.14	15.69	-53.6	-55.8	13.9	0.00e+00	0	27	0	293601280	72	4916
2026-01-05 04:42:36.53	32.98	15.76	-53.7	-55.9	13.8	0.00e+00	0	27	0	294649856	72	4943
2026-01-05 04:42:37.54	32.81	15.83	-53.6	-55.8	13.8	0.00e+00	0	27	0	296747008	72	4915
2026-01-05 04:42:38.53	32.65	15.90	-53.6	-55.8	13.9	0.00e+00	0	27	0	298844160	72	4888
2026-01-05 04:42:39.53	32.48	15.97	-53.6	-55.8	13.9	0.00e+00	0	27	0	300941312	72	4922
2026-01-05 04:42:40.52	32.31	16.04	-53.6	-55.8	13.9	0.00e+00	0	27	0	303038464	72	4903
2026-01-05 04:42:41.52	32.15	16.11	-53.6	-55.8	13.9	0.00e+00	0	27	0	304087040	72	4896
2026-01-05 04:42:42.52	31.98	16.18	-53.6	-55.8	13.9	0.00e+00	0	27	0	306184192	72	4902
2026-01-05 04:42:43.51	31.81	16.25	-53.6	-55.7	13.9	0.00e+00	0	27	0	308281344	72	4858
2026-01-05 04:42:44.49	31.64	16.32	-53.6	-55.8	13.9	0.00e+00	0	27	0	310378496	72	4918
2026-01-05 04:42:45.49	31.47	16.39	-53.7	-55.9	13.8	0.00e+00	0	27	0	311427072	72	4963
2026-01-05 04:42:46.48	31.29	16.46	-53.6	-55.8	13.9	0.00e+00	0	27	0	313524224	72	4894
2026-01-05 04:42:47.48	31.12	16.53	-53.7	-55.9	13.8	0.00e+00	0	27	0	315621376	72	4947
2026-01-05 04:42:48.47	30.95	16.60	-53.7	-55.9	13.8	0.00e+00	0	27	0	317718528	72	4975
2026-01-05 04:42:49.46	30.77	16.67	-53.8	-56.1	13.8	0.00e+00	0	27	0	318767104	72	5052
2026-01-05 04:42:50.46	30.60	16.74	-53.9	-56.2	13.7	0.00e+00	0	27	0	320864256	72	5120
2026-01-05 04:42:51.45	30.42	16.81	-53.8	-56.0	13.8	0.00e+00	0	27	0	322961408	72	5023
2026-01-05 04:42:52.45	30.24	16.88	-53.8	-56.1	13.7	0.00e+00	0	27	0	325058560	72	5055
2026-01-05 04:42:53.45	30.06	16.95	-53.7	-55.9	13.8	0.00e+00	0	27	0	327155712	72	4940
2026-01-05 04:42:54.44	29.88	17.02	-53.7	-55.9	13.8	0.00e+00	0	27	0	328204288	72	4970
2026-01-05 04:42:55.44	29.70	17.09	-53.7	-55.9	13.8	0.00e+00	0	27	0	330301440	72	4977
2026-01-05 04:42:56.43	29.52	17.16	-53.7	-55.9	13.8	0.00e+00	0	27	0	332398592	72	4967
2026-01-05 04:42:57.43	29.34	17.22	-53.9	-56.2	13.7	0.00e+00	0	27	0	334495744	72	5119
2026-01-05 04:42:58.43	29.16	17.29	-53.7	-56.0	13.8	0.00e+00	0	27	0	336592896	72	4991
2026-01-05 04:42:59.43	28.97	17.36	-53.7	-56.0	13.8	0.00e+00	0	27	0	337641472	72	4988
2026-01-05 04:43:00.42	28.79	17.43	-53.7	-55.9	13.9	0.00e+00	0	27	0	339738624	72	4961
2026-01-05 04:43:01.42	28.60	17.50	-53.7	-55.8	13.9	0.00e+00	0	27	0	341835776	72	4923
2026-01-05 04:43:02.42	28.42	17.57	-53.6	-55.8	13.9	0.00e+00	0	27	0	343932928	72	4873
2026-01-05 04:43:03.41	28.23	17.64	-53.6	-55.8	13.9	0.00e+00	0	27	0	344981504	72	4898
2026-01-05 04:43:04.41	28.04	17.71	-53.6	-55.8	13.9	0.00e+00	0	27	0	347078656	72	4880
2026-01-05 04:43:05.41	27.85	17.78	-53.6	-55.7	13.9	0.00e+00	0	27	0	349175808	72	4850
2026-01-05 04:43:06.41	27.66	17.84	-53.5	-55.6	14.0	0.00e+00	0	27	0	351272960	72	4806
2026-01-05 04:43:07.41	27.47	17.91	-53.3	-55.4	14.0	0.00e+00	0	27	0	353370112	72	4687
2026-01-05 04:43:08.40	27.28	17.98	-53.2	-55.2	14.2	0.00e+00	0	28	0	354418688	72	4562
2026-01-05 04:43:09.40	27.09	18.05	-53.2	-55.3	14.1	0.00e+00	0	27	0	356515840	72	4619
2026-01-05 04:43:10.40	26.90	18.11	-53.1	-55.1	14.2	0.00e+00	0	27	0	358612992	72	4520
2026-01-05 04:43:11.40	26.70	18.18	-52.9	-54.9	14.3	0.00e+00	0	28	0	360710144	72	4419
2026-01-05 04:43:12.40	26.51	18.25	-52.9	-54.9	14.3	0.00e+00	0	27	0	362807296	72	4399
2026-01-05 04:43:13.40	26.31	18.32	-52.8	-54.8	14.4	0.00e+00	0	27	0	363855872	72	4345
2026-01-05 04:43:14.39	26.11	18.38	-52.7	-54.6	14.5	0.00e+00	0	27	0	365953024	72	4248
2026-01-05 04:43:15.39	25.92	18.45	-52.6	-54.4	14.5	0.00e+00	0	27	0	368050176	71	4406
2026-01-05 04:43:16.39	25.72	18.52	-52.5	-54.3	14.5	0.00e+00	0	28	0	370147328	71	4372
2026-01-05 04:43:17.39	25.52	18.58	-52.4	-54.2	14.5	0.00e+00	0	28	0	371195904	71	4316
2026-01-05 04:43:18.39	25.32	18.65	-52.2	-54.0	14.6	0.00e+00	0	27	0	373293056	71	4213
2026-01-05 04:43:19.39	25.11	18.72	-52.1	-53.9	14.6	0.00e+00	0	28	0	375390208	70	4406
2026-01-05 04:43:20.38	24.91	18.78	-52.1	-53.9	14.6	0.00e+00	0	27	0	377487360	70	4408
2026-01-05 04:43:21.38	24.71	18.85	-52.0	-53.8	14.6	0.00e+00	0	27	0	379584512	70	4342
2026-01-05 04:43:22.38	24.51	18.91	-52.2	-53.9	14.6	0.00e+00	0	27	0	380633088	70	4424
2026-01-05 04:43:23.38	24.30	18.98	-52.0	-53.7	14.6	0.00e+00	0	27	0	382730240	70	4339
2026-01-05 04:43:24.37	24.10	19.04	-51.8	-53.5	14.7	0.00e+00	0	27	0	384827392	70	4201
2026-01-05 04:43:25.36	23.89	19.11	-51.9	-53.5	14.7	0.00e+00	0	27	0	386924544	70	4237
2026-01-05 04:43:26.36	23.68	19.17	-51.9	-53.6	14.7	0.00e+00	0	28	0	387973120	70	4243
2026-01-05 04:43:27.36	23.48	19.24	-51.8	-53.5	14.7	0.00e+00	0	27	0	390070272	70	4222
2026-01-05 04:43:28.36	23.27	19.30	-51.8	-53.5	14.7	0.00e+00	0	27	0	392167424	70	4195
2026-01-05 04:43:29.36	23.06	19.37	-51.6	-53.3	14.7	0.00e+00	0	27	0	394264576	69	4358
2026-01-05 04:43:30.36	22.84	19.43	-51.6	-53.2	14.7	0.00e+00	0	27	0	396361728	69	4338
2026-01-05 04:43:31.35	22.63	19.49	-51.6	-53.2	14.7	0.00e+00	0	28	0	397410304	69	4335
2026-01-05 04:43:32.34	22.42	19.55	-51.7	-53.3	14.7	0.00e+00	0	27	0	399507456	69	4370
2026-01-05 04:43:33.33	22.21	19.62	-51.7	-53.3	14.7	0.00e+00	0	28	0	401604608	69	4382
2026-01-05 04:43:34.32	22.00	19.68	-51.8	-53.5	14.6	0.00e+00	0	27	0	403701760	69	4461
2026-01-05 04:43:35.32	21.78	19.74	-51.7	-53.4	14.7	0.00e+00	0	27	0	405798912	69	4415
2026-01-05 04:43:36.32	21.57	19.80	-51.6	-53.2	14.7	0.00e+00	0	27	0	406847488	69	4334
2026-01-05 04:43:37.32	21.35	19.87	-51.5	-53.0	14.8	0.00e+00	0	27	0	408944640	69	4241
2026-01-05 04:43:38.31	21.13	19.93	-51.5	-53.1	14.8	0.00e+00	0	27	0	411041792	69	4244
2026-01-05 04:43:39.31	20.91	19.99	-51.4	-52.9	14.8	0.00e+00	0	27	0	413138944	69	4180
2026-01-05 04:43:40.30	20.69	20.05	-51.5	-53.1	14.8	0.00e+00	0	27	0	414187520	69	4250
2026-01-05 04:43:41.29	20.47	20.11	-51.4	-53.0	14.8	0.00e+00	0	27	0	416284672	69	4222
2026-01-05 04:43:42.29	20.25	20.17	-51.5	-53.1	14.8	0.00e+00	0	28	0	418381824	69	4250
2026-01-05 04:43:43.28	20.03	20.23	-51.4	-53.0	14.8	0.00e+00	0	27	0	420478976	69	4217
2026-01-05 04:43:44.28	19.81	20.29	-51.4	-53.0	14.8	0.00e+00	0	27	0	422576128	69	4209
2026-01-05 04:43:45.28	19.58	20.35	-51.4	-53.0	14.8	0.00e+00	0	27	0	423624704	69	4218
2026-01-05 04:43:46.28	19.36	20.41	-51.5	-53.0	14.8	0.00e+00	0	27	0	425721856	69	4240
2026-01-05 04:43:47.28	19.13	20.47	-51.5	-53.1	14.7	0.00e+00	0	27	0	427819008	69	4291
2026-01-05 04:43:48.27	18.91	20.52	-51.5	-53.2	14.7	0.00e+00	0	27	0	429916160	69	4294
2026-01-05 04:43:49.27	18.68	20.58	-51.5	-53.1	14.7	0.00e+00	0	27	0	432013312	69	4289
2026-01-05 04:43:50.26	18.45	20.64	-51.5	-53.1	14.8	0.00e+00	0	27	0	433061888	69	4258
2026-01-05 04:43:51.26	18.22	20.70	-51.6	-53.2	14.7	0.00e+00	0	27	0	435159040	69	4310
2026-01-05 04:43:52.26	17.99	20.76	-51.6	-53.2	14.7	0.00e+00	0	27	0	437256192	69	4333
2026-01-05 04:43:53.25	17.76	20.81	-51.7	-53.3	14.7	0.00e+00	0	27	0	439353344	69	4361
2026-01-05 04:43:54.24	17.53	20.87	-51.7	-53.3	14.7	0.00e+00	0	28	0	440401920	69	4380
2026-01-05 04:43:55.24	17.30	20.92	-51.6	-53.1	14.8	0.00e+00	0	27	0	442499072	69	4287
2026-01-05 04:43:56.23	17.06	20.98	-51.7	-53.3	14.7	0.00e+00	0	27	0	444596224	69	4380
2026-01-05 04:43:57.23	16.83	21.03	-51.7	-53.3	14.7	0.00e+00	0	27	0	446693376	69	4381
2026-01-05 04:43:58.22	16.60	21.09	-51.7	-53.3	14.7	0.00e+00	0	27	0	448790528	69	4368
2026-01-05 04:43:59.22	16.36	21.14	-51.7	-53.3	14.7	0.00e+00	0	27	0	449839104	69	4385
2026-01-05 04:44:00.22	16.12	21.20	-51.7	-53.3	14.7	0.00e+00	0	27	0	451936256	69	4357
2026-01-05 04:44:01.22	15.88	21.25	-51.7	-53.3	14.7	0.00e+00	0	28	0	454033408	69	4380
2026-01-05 04:44:02.23	15.64	21.30	-51.7	-53.3	14.7	0.00e+00	0	27	0	456130560	69	4354
2026-01-05 04:44:03.23	15.40	21.36	-51.6	-53.3	14.7	0.00e+00	0	27	0	457179136	69	4350
2026-01-05 04:44:04.23	15.16	21.41	-51.3	-52.9	14.8	0.00e+00	0	27	0	459276288	69	4166
2026-01-05 04:44:05.24	14.92	21.46	-51.4	-52.9	14.9	0.00e+00	0	27	0	461373440	69	4175
2026-01-05 04:44:06.24	14.67	21.51	-51.3	-52.9	14.9	0.00e+00	0	27	0	463470592	69	4156
2026-01-05 04:44:07.24	14.43	21.56	-51.3	-52.9	14.9	0.00e+00	0	27	0	465567744	69	4159
2026-01-05 04:44:08.24	14.19	21.61	-51.3	-52.9	14.9	0.00e+00	0	27	0	466616320	69	4151
2026-01-05 04:44:09.24	13.94	21.67	-51.1	-52.6	14.8	0.00e+00	0	27	0	468713472	68	4273
2026-01-05 04:44:10.23	13.70	21.71	-51.0	-52.5	14.9	0.00e+00	0	27	0	470810624	68	4234
2026-01-05 04:44:11.24	13.45	21.76	-51.0	-52.5	14.9	0.00e+00	0	27	0	472907776	68	4232
2026-01-05 04:44:12.24	13.20	21.81	-51.1	-52.7	14.8	0.00e+00	0	27	0	475004928	68	4306
2026-01-05 04:44:13.24	12.95	21.86	-51.2	-52.7	14.8	0.00e+00	0	27	0	476053504	68	4326
2026-01-05 04:44:14.25	12.70	21.91	-51.2	-52.7	14.8	0.00e+00	0	27	0	478150656	68	4322
2026-01-05 04:44:15.24	12.45	21.96	-51.2	-52.8	14.8	0.00e+00	0	27	0	480247808	68	4353
2026-01-05 04:44:16.24	12.20	22.00	-51.0	-52.5	14.9	0.00e+00	0	27	0	482344960	68	4229
2026-01-05 04:44:17.23	11.95	22.05	-51.0	-52.5	14.9	0.00e+00	0	27	0	483393536	68	4198
2026-01-05 04:44:18.23	11.70	22.09	-50.8	-52.2	15.0	0.00e+00	0	27	0	485490688	68	4077
2026-01-05 04:44:19.22	11.45	22.14	-50.8	-52.2	15.0	0.00e+00	0	27	0	487587840	68	4092
2026-01-05 04:44:20.23	11.20	22.18	-50.8	-52.3	14.9	0.00e+00	0	27	0	489684992	68	4131
2026-01-05 04:44:21.22	10.94	22.23	-50.8	-52.3	15.0	0.00e+00	0	27	0	491782144	68	4123
2026-01-05 04:44:22.22	10.69	22.27	-50.8	-52.3	15.0	0.00e+00	0	27	0	492830720	68	4112
2026-01-05 04:44:23.22	10.43	22.32	-50.8	-52.3	15.0	0.00e+00	0	27	0	494927872	68	4133
2026-01-05 04:44:24.22	10.18	22.36	-50.8	-52.3	15.0	0.00e+00	0	27	0	497025024	68	4129
2026-01-05 04:44:25.22	9.92	22.40	-50.8	-52.3	15.0	0.00e+00	0	27	0	499122176	68	4116
2026-01-05 04:44:26.21	9.66	22.44	-50.9	-52.4	14.9	0.00e+00	0	27	0	500170752	68	4166
2026-01-05 04:44:27.21	9.41	22.48	-51.0	-52.5	14.9	0.00e+00	0	27	0	502267904	68	4226
2026-01-05 04:44:28.21	9.15	22.52	-51.1	-52.6	14.9	0.00e+00	0	27	0	504365056	68	4246
2026-01-05 04:44:29.21	8.89	22.56	-51.1	-52.7	14.8	0.00e+00	0	27	0	506462208	68	4298
2026-01-05 04:44:30.21	8.63	22.60	-51.2	-52.8	14.8	0.00e+00	0	27	0	508559360	68	4352
2026-01-05 04:44:31.21	8.37	22.64	-51.3	-52.9	14.7	0.00e+00	0	27	0	509607936	68	4418
2026-01-05 04:44:32.21	8.10	22.68	-51.3	-52.9	14.8	0.00e+00	0	27	0	511705088	68	4397
2026-01-05 04:44:33.21	7.84	22.72	-51.3	-52.9	14.7	0.00e+00	0	27	0	513802240	68	4395
2026-01-05 04:44:34.21	7.58	22.75	-51.3	-52.8	14.8	0.00e+00	0	27	0	515899392	68	4377
2026-01-05 04:44:35.20	7.32	22.79	-51.3	-52.8	14.8	0.00e+00	0	27	0	517996544	68	4373
2026-01-05 04:44:36.20	7.05	22.82	-51.4	-52.9	14.7	0.00e+00	0	27	0	519045120	68	4439
2026-01-05 04:44:37.20	6.79	22.86	-51.4	-52.9	14.7	0.00e+00	0	27	0	521142272	68	4430
2026-01-05 04:44:38.20	6.52	22.89	-51.6	-53.2	14.7	0.00e+00	0	27	0	523239424	68	4547
2026-01-05 04:44:39.20	6.26	22.93	-51.7	-53.4	14.6	0.00e+00	0	27	0	525336576	68	4655
2026-01-05 04:44:40.19	5.99	22.96	-52.0	-53.6	14.6	0.00e+00	0	27	0	527433728	69	4528
2026-01-05 04:44:41.19	5.72	22.99	-52.1	-53.8	14.5	0.00e+00	0	27	0	528482304	69	4645
2026-01-05 04:44:42.19	5.46	23.03	-52.3	-54.1	14.4	0.00e+00	0	27	0	530579456	69	4778
2026-01-05 04:44:43.18	5.19	23.06	-52.2	-54.0	14.4	0.00e+00	0	27	0	532676608	69	4715
2026-01-05 04:44:44.18	4.92	23.09	-52.2	-54.0	14.5	0.00e+00	0	27	0	534773760	69	4729
2026-01-05 04:44:45.18	4.65	23.12	-52.3	-54.0	14.4	0.00e+00	0	27	0	535822336	69	4759
2026-01-05 04:44:46.17	4.39	23.15	-52.3	-54.1	14.4	0.00e+00	0	27	0	537919488	69	4760
2026-01-05 04:44:47.16	4.12	23.17	-52.4	-54.2	14.4	0.00e+00	0	27	0	540016640	69	4817
2026-01-05 04:44:48.16	3.85	23.20	-52.5	-54.4	14.4	0.00e+00	0	27	0	542113792	70	4653
2026-01-05 04:44:49.16	3.58	23.23	-52.5	-54.3	14.4	0.00e+00	0	27	0	544210944	70	4624
2026-01-05 04:44:50.15	3.31	23.26	-52.5	-54.3	14.4	0.00e+00	0	27	0	545259520	70	4643
2026-01-05 04:44:51.15	3.03	23.28	-52.4	-54.2	14.5	0.00e+00	0	27	0	547356672	70	4564
2026-01-05 04:44:52.15	2.76	23.31	-52.5	-54.3	14.4	0.00e+00	0	27	0	549453824	70	4629
2026-01-05 04:44:53.14	2.49	23.33	-52.6	-54.4	14.4	0.00e+00	0	27	0	551550976	70	4652
2026-01-05 04:44:54.14	2.22	23.36	-52.7	-54.5	14.3	0.00e+00	0	27	0	552599552	70	4727
2026-01-05 04:44:55.13	1.95	23.38	-52.8	-54.7	14.3	0.00e+00	0	27	0	554696704	70	4831
2026-01-05 04:44:56.13	1.67	23.40	-52.8	-54.7	14.3	0.00e+00	0	27	0	556793856	70	4842
2026-01-05 04:44:57.12	1.40	23.42	-52.8	-54.7	14.4	0.00e+00	0	27	0	558891008	71	4584
2026-01-05 04:44:58.11	1.13	23.45	-52.9	-54.8	14.3	0.00e+00	0	28	0	560988160	71	4619
2026-01-05 04:44:59.11	0.85	23.47	-52.9	-54.8	14.3	0.00e+00	0	27	0	562036736	71	4628
2026-01-05 04:45:00.11	0.57	23.49	-53.1	-55.1	14.2	0.00e+00	0	27	0	564133888	71	4764
2026-01-05 04:45:01.11	0.30	23.51	-53.2	-55.2	14.2	0.00e+00	0	27	0	566231040	71	4847
2026-01-05 04:45:02.11	0.02	23.52	-53.3	-55.3	14.1	0.00e+00	0	28	0	568328192	71	4916
2026-01-05 04:45:03.11	359.74	23.54	-53.3	-55.2	14.1	0.00e+00	0	27	0	569376768	71	4858
2026-01-05 04:45:04.11	359.47	23.56	-53.1	-55.1	14.2	0.00e+00	0	27	0	571473920	71	4777
2026-01-05 04:45:05.10	359.19	23.58	-53.2	-55.2	14.2	0.00e+00	0	27	0	573571072	71	4818
2026-01-05 04:45:06.10	358.91	23.59	-53.2	-55.2	14.1	0.00e+00	0	27	0	575668224	71	4845
2026-01-05 04:45:07.10	358.64	23.61	-53.2	-55.2	14.2	0.00e+00	0	27	0	577765376	71	4828
2026-01-05 04:45:08.10	358.36	23.62	-53.2	-55.2	14.2	0.00e+00	0	28	0	578813952	71	4856
2026-01-05 04:45:09.10	358.08	23.63	-53.1	-55.0	14.2	0.00e+00	0	27	0	580911104	71	4744
2026-01-05 04:45:10.10	357.80	23.65	-53.0	-54.8	14.3	0.00e+00	0	27	0	583008256	71	4650
2026-01-05 04:45:11.09	357.52	23.66	-52.8	-54.7	14.4	0.00e+00	0	27	0	585105408	71	4557
2026-01-05 04:45:12.10	357.24	23.67	-52.8	-54.6	14.4	0.00e+00	0	27	0	587202560	71	4533
2026-01-05 04:45:13.10	356.96	23.68	-52.9	-54.7	14.4	0.00e+00	0	27	0	588251136	71	4578
2026-01-05 04:45:14.10	356.68	23.69	-52.9	-54.8	14.3	0.00e+00	0	27	0	590348288	71	4638
2026-01-05 04:45:15.08	356.41	23.70	-53.0	-54.9	14.3	0.00e+00	0	27	0	592445440	71	4678
2026-01-05 04:45:16.09	356.12	23.71	-53.0	-54.9	14.3	0.00e+00	0	27	0	594542592	71	4699
2026-01-05 04:45:17.09	355.84	23.72	-53.0	-54.9	14.3	0.00e+00	0	28	0	596639744	71	4696
2026-01-05 04:45:18.09	355.56	23.72	-53.1	-55.0	14.2	0.00e+00	0	27	0	597688320	71	4746
2026-01-05 04:45:19.10	355.28	23.73	-52.9	-54.8	14.3	0.00e+00	0	27	0	599785472	71	4615
2026-01-05 04:45:20.09	355.00	23.73	-52.9	-54.7	14.4	0.00e+00	0	27	0	601882624	71	4571
2026-01-05 04:45:21.09	354.72	23.74	-52.7	-54.6	14.4	0.00e+00	0	27	0	603979776	71	4499
2026-01-05 04:45:22.09	354.44	23.74	-52.6	-54.4	14.5	0.00e+00	0	27	0	605028352	71	4422
2026-01-05 04:45:23.09	354.16	23.75	-52.6	-54.4	14.5	0.00e+00	0	27	0	607125504	71	4428
2026-01-05 04:45:24.09	353.88	23.75	-52.7	-54.5	14.5	0.00e+00	0	28	0	609222656	71	4467
2026-01-05 04:45:25.09	353.60	23.75	-52.9	-54.7	14.4	0.00e+00	0	27	0	611319808	71	4573
2026-01-05 04:45:26.09	353.32	23.75	-53.0	-54.9	14.3	0.00e+00	0	28	0	613416960	71	4655
2026-01-05 04:45:27.09	353.04	23.75	-53.1	-55.0	14.3	0.00e+00	0	28	0	614465536	71	4707
2026-01-05 04:45:28.09	352.76	23.75	-52.8	-54.6	14.4	0.00e+00	0	27	0	616562688	71	4544
2026-01-05 04:45:29.08	352.48	23.75	-52.7	-54.5	14.5	0.00e+00	0	28	0	618659840	71	4482
2026-01-05 04:45:30.07	352.20	23.75	-52.6	-54.3	14.5	0.00e+00	0	28	0	620756992	71	4391
2026-01-05 04:45:31.08	351.92	23.74	-52.4	-54.2	14.6	0.00e+00	0	27	0	622854144	71	4302
2026-01-05 04:45:32.07	351.64	23.74	-52.4	-54.2	14.6	0.00e+00	0	27	0	623902720	71	4293
2026-01-05 04:45:33.07	351.36	23.74	-52.3	-54.0	14.7	0.00e+00	0	27	0	625999872	71	4231
2026-01-05 04:45:34.07	351.08	23.73	-52.3	-54.1	14.7	0.00e+00	0	27	0	628097024	71	4247
2026-01-05 04:45:35.06	350.80	23.73	-52.2	-53.9	14.7	0.00e+00	0	28	0	630194176	71	4184
2026-01-05 04:45:36.06	350.52	23.72	-52.2	-53.9	14.7	0.00e+00	0	27	0	631242752	71	4186
2026-01-05 04:45:37.06	350.24	23.71	-52.0	-53.6	14.7	0.00e+00	0	28	0	633339904	70	4281
2026-01-05 04:45:38.06	349.96	23.70	-51.9	-53.5	14.8	0.00e+00	0	27	0	635437056	70	4225
2026-01-05 04:45:39.07	349.67	23.70	-51.9	-53.5	14.8	0.00e+00	0	27	0	637534208	70	4225
2026-01-05 04:45:40.05	349.40	23.69	-51.7	-53.3	14.8	0.00e+00	0	28	0	639631360	70	4137
2026-01-05 04:45:41.06	349.12	23.68	-51.7	-53.3	14.9	0.00e+00	0	27	0	640679936	70	4119
2026-01-05 04:45:42.06	348.84	23.66	-51.7	-53.3	14.9	0.00e+00	0	27	0	642777088	70	4102
2026-01-05 04:45:43.06	348.56	23.65	-51.6	-53.2	14.8	0.00e+00	0	27	0	644874240	69	4302
2026-01-05 04:45:44.06	348.28	23.64	-51.7	-53.3	14.7	0.00e+00	0	27	0	646971392	69	4341
2026-01-05 04:45:45.05	348.00	23.63	-51.5	-53.1	14.8	0.00e+00	0	27	0	648019968	69	4246
2026-01-05 04:45:46.05	347.73	23.61	-51.3	-52.8	14.9	0.00e+00	0	27	0	650117120	69	4115
2026-01-05 04:45:47.05	347.45	23.60	-51.1	-52.6	14.9	0.00e+00	0	27	0	652214272	68	4271
2026-01-05 04:45:48.04	347.17	23.58	-51.0	-52.5	14.9	0.00e+00	0	28	0	654311424	68	4228
2026-01-05 04:45:49.04	346.89	23.57	-51.1	-52.6	14.9	0.00e+00	0	28	0	656408576	68	4247
2026-01-05 04:45:50.04	346.62	23.55	-51.0	-52.4	14.9	0.00e+00	0	27	0	657457152	68	4185
2026-01-05 04:45:51.03	346.34	23.53	-50.9	-52.4	14.9	0.00e+00	0	28	0	659554304	68	4177
2026-01-05 04:45:52.02	346.07	23.52	-51.0	-52.5	14.8	0.00e+00	0	28	0	661651456	68	4203
2026-01-05 04:45:53.00	345.80	23.50	-51.1	-52.5	14.9	0.00e+00	0	28	0	663748608	68	4241
2026-01-05 04:45:53.99	345.52	23.48	-50.9	-52.3	15.0	0.00e+00	0	28	0	664797184	68	4122
2026-01-05 04:45:54.99	345.25	23.46	-50.8	-52.2	15.0	0.00e+00	0	27	0	666894336	68	4091
2026-01-05 04:45:55.99	344.97	23.44	-50.9	-52.4	15.0	0.00e+00	0	28	0	668991488	68	4147
2026-01-05 04:45:56.99	344.70	23.42	-50.9	-52.4	15.0	0.00e+00	0	27	0	671088640	68	4148
2026-01-05 04:45:57.99	344.42	23.39	-50.8	-52.2	15.0	0.00e+00	0	27	0	673185792	68	4073
2026-01-05 04:45:58.99	344.15	23.37	-50.5	-51.9	15.1	0.00e+00	0	27	0	674234368	67	4174
2026-01-05 04:45:59.99	343.87	23.35	-50.4	-51.7	15.0	0.00e+00	0	28	0	676331520	67	4094
2026-01-05 04:46:00.99	343.60	23.32	-50.3	-51.7	15.0	0.00e+00	0	27	0	678428672	67	4087
2026-01-05 04:46:01.99	343.33	23.30	-50.4	-51.8	15.0	0.00e+00	0	27	0	680525824	67	4103
2026-01-05 04:46:02.99	343.05	23.27	-50.5	-51.9	15.0	0.00e+00	0	28	0	682622976	67	4149
2026-01-05 04:46:03.99	342.78	23.25	-50.5	-51.9	15.0	0.00e+00	0	27	0	683671552	67	4165
2026-01-05 04:46:04.99	342.51	23.22	-50.7	-52.1	14.9	0.00e+00	0	27	0	685768704	67	4265
2026-01-05 04:46:05.99	342.24	23.19	-50.7	-52.2	14.9	0.00e+00	0	28	0	687865856	67	4305
2026-01-05 04:46:06.99	341.97	23.16	-50.8	-52.3	14.8	0.00e+00	0	28	0	689963008	67	4372
2026-01-05 04:46:07.98	341.70	23.13	-50.9	-52.4	14.8	0.00e+00	0	27	0	692060160	67	4406
2026-01-05 04:46:08.98	341.43	23.10	-50.9	-52.4	14.8	0.00e+00	0	28	0	693108736	67	4411
2026-01-05 04:46:09.98	341.16	23.07	-50.9	-52.4	14.8	0.00e+00	0	28	0	695205888	67	4425
2026-01-05 04:46:10.97	340.90	23.04	-50.9	-52.3	14.8	0.00e+00	0	27	0	697303040	67	4389
2026-01-05 04:46:11.97	340.63	23.01	-50.8	-52.3	14.8	0.00e+00	0	28	0	699400192	67	4375
2026-01-05 04:46:12.97	340.36	22.98	-50.9	-52.4	14.8	0.00e+00	0	27	0	700448768	67	4413
2026-01-05 04:46:13.96	340.10	22.95	-51.1	-52.6	14.7	0.00e+00	0	28	0	702545920	67	4524
2026-01-05 04:46:14.96	339.83	22.91	-51.0	-52.5	14.7	0.00e+00	0	27	0	704643072	67	4483
2026-01-05 04:46:15.96	339.56	22.88	-51.1	-52.6	14.8	0.00e+00	0	28	0	706740224	67	4503
2026-01-05 04:46:16.96	339.30	22.84	-51.1	-52.6	14.7	0.00e+00	0	27	0	708837376	67	4538
2026-01-05 04:46:17.97	339.03	22.81	-51.3	-52.8	14.7	0.00e+00	0	28	0	709885952	67	4617
2026-01-05 04:46:18.96	338.77	22.77	-51.4	-53.0	14.6	0.00e+00	0	27	0	711983104	67	4709
2026-01-05 04:46:19.96	338.51	22.74	-51.7	-53.3	14.6	0.00e+00	0	28	0	714080256	68	4639
2026-01-05 04:46:20.95	338.25	22.70	-51.9	-53.5	14.6	0.00e+00	0	28	0	716177408	68	4724
2026-01-05 04:46:21.95	337.98	22.66	-51.9	-53.6	14.6	0.00e+00	0	27	0	717225984	69	4512
2026-01-05 04:46:22.94	337.72	22.62	-52.1	-53.7	14.6	0.00e+00	0	28	0	719323136	69	4594
2026-01-05 04:46:23.95	337.46	22.58	-52.0	-53.6	14.6	0.00e+00	0	27	0	721420288	69	4543
2026-01-05 04:46:24.95	337.20	22.54	-52.0	-53.7	14.6	0.00e+00	0	27	0	723517440	69	4571
2026-01-05 04:46:25.95	336.94	22.50	-52.1	-53.7	14.6	0.00e+00	0	28	0	725614592	69	4597
2026-01-05 04:46:26.94	336.68	22.46	-52.1	-53.8	14.6	0.00e+00	0	28	0	726663168	69	4602
2026-01-05 04:46:27.94	336.43	22.42	-52.0	-53.7	14.6	0.00e+00	0	28	0	728760320	69	4547
2026-01-05 04:46:28.93	336.17	22.38	-52.0	-53.7	14.6	0.00e+00	0	27	0	730857472	69	4577
2026-01-05 04:46:29.92	335.92	22.34	-52.1	-53.8	14.5	0.00e+00	0	28	0	732954624	69	4612
2026-01-05 04:46:30.92	335.66	22.30	-52.2	-53.9	14.5	0.00e+00	0	27	0	735051776	69	4700
2026-01-05 04:46:31.92	335.41	22.25	-52.3	-54.1	14.4	0.00e+00	0	27	0	736100352	69	4767
2026-01-05 04:46:32.92	335.15	22.21	-52.4	-54.1	14.4	0.00e+00	0	28	0	738197504	69	4793
2026-01-05 04:46:33.92	334.90	22.16	-52.4	-54.1	14.5	0.00e+00	0	27	0	740294656	70	4528
2026-01-05 04:46:34.91	334.65	22.12	-52.5	-54.2	14.5	0.00e+00	0	28	0	742391808	70	4589
2026-01-05 04:46:35.91	334.39	22.07	-52.5	-54.2	14.5	0.00e+00	0	27	0	743440384	70	4586
2026-01-05 04:46:36.91	334.14	22.03	-52.6	-54.3	14.4	0.00e+00	0	28	0	745537536	70	4634
2026-01-05 04:46:37.90	333.89	21.98	-52.6	-54.4	14.4	0.00e+00	0	27	0	747634688	70	4687
2026-01-05 04:46:38.90	333.64	21.94	-52.6	-54.3	14.4	0.00e+00	0	27	0	749731840	70	4643
2026-01-05 04:46:39.89	333.40	21.89	-52.6	-54.4	14.4	0.00e+00	0	28	0	751828992	70	4692
2026-01-05 04:46:40.89	333.15	21.84	-52.7	-54.6	14.4	0.00e+00	0	28	0	752877568	70	4762
2026-01-05 04:46:41.90	332.90	21.79	-52.8	-54.6	14.3	0.00e+00	0	28	0	754974720	70	4773
2026-01-05 04:46:42.89	332.65	21.74	-52.8	-54.6	14.3	0.00e+00	0	27	0	757071872	70	4778
2026-01-05 04:46:43.89	332.41	21.69	-52.7	-54.5	14.4	1.50e-06	0	27	0	759169024	70	4742
2026-01-05 04:46:44.89	332.16	21.64	-52.7	-54.6	14.3	0.00e+00	0	27	0	761266176	70	4766
2026-01-05 04:46:45.89	331.92	21.59	-52.8	-54.6	14.3	0.00e+00	0	28	0	762314752	70	4776
2026-01-05 04:46:46.89	331.67	21.54	-52.9	-54.8	14.3	0.00e+00	0	28	0	764411904	70	4872
2026-01-05 04:46:47.89	331.43	21.49	-52.9	-54.7	14.3	0.00e+00	0	28	0	766509056	70	4846
2026-01-05 04:46:48.89	331.19	21.44	-52.9	-54.7	14.3	3.00e-06	0	28	0	768606208	70	4863
2026-01-05 04:46:49.88	330.95	21.39	-52.8	-54.6	14.3	0.00e+00	0	27	0	769654784	70	4793
2026-01-05 04:46:50.88	330.71	21.34	-52.9	-54.8	14.2	0.00e+00	0	27	0	771751936	70	4880
2026-01-05 04:46:51.88	330.47	21.28	-52.7	-54.5	14.5	0.00e+00	0	27	0	773849088	71	4455
2026-01-05 04:46:52.87	330.23	21.23	-52.6	-54.4	14.5	0.00e+00	0	28	0	775946240	71	4410
2026-01-05 04:46:53.88	329.99	21.18	-52.7	-54.5	14.5	0.00e+00	0	28	0	778043392	71	4492
2026-01-05 04:46:54.87	329.75	21.12	-53.0	-54.8	14.3	0.00e+00	0	27	0	779091968	71	4639
2026-01-05 04:46:55.88	329.52	21.07	-53.0	-54.9	14.3	0.00e+00	0	27	0	781189120	71	4699
2026-01-05 04:46:56.88	329.28	21.01	-53.0	-54.9	14.3	0.00e+00	0	28	0	783286272	71	4680
2026-01-05 04:46:57.87	329.05	20.96	-53.0	-54.9	14.3	0.00e+00	0	27	0	785383424	71	4672
2026-01-05 04:46:58.87	328.81	20.90	-53.0	-54.9	14.3	0.00e+00	0	27	0	786432000	71	4668
2026-01-05 04:46:59.86	328.58	20.84	-52.9	-54.7	14.4	0.00e+00	0	27	0	788529152	71	4591
2026-01-05 04:47:00.85	328.35	20.79	-52.8	-54.6	14.4	0.00e+00	0	28	0	790626304	71	4508
2026-01-05 04:47:01.86	328.12	20.73	-52.7	-54.5	14.5	0.00e+00	0	27	0	792723456	71	4461
2026-01-05 04:47:02.85	327.89	20.67	-52.7	-54.5	14.4	0.00e+00	0	27	0	794820608	71	4453
2026-01-05 04:47:03.85	327.66	20.62	-52.7	-54.5	14.5	0.00e+00	0	27	0	795869184	71	4482
2026-01-05 04:47:04.85	327.43	20.56	-52.7	-54.6	14.4	0.00e+00	0	28	0	797966336	71	4503
2026-01-05 04:47:05.84	327.21	20.50	-52.6	-54.4	14.5	0.00e+00	0	28	0	800063488	71	4419
2026-01-05 04:47:06.84	326.98	20.44	-52.6	-54.4	14.5	0.00e+00	0	28	0	802160640	71	4395
2026-01-05 04:47:07.84	326.75	20.38	-52.6	-54.4	14.5	0.00e+00	0	28	0	804257792	71	4422
2026-01-05 04:47:08.84	326.53	20.32	-52.5	-54.3	14.6	0.00e+00	0	28	0	805306368	71	4349
2026-01-05 04:47:09.83	326.31	20.26	-52.4	-54.1	14.6	0.00e+00	0	28	0	807403520	71	4277
2026-01-05 04:47:10.83	326.08	20.20	-52.3	-54.0	14.7	0.00e+00	0	28	0	809500672	71	4229
2026-01-05 04:47:11.83	325.86	20.14	-52.3	-53.9	14.7	0.00e+00	0	27	0	811597824	71	4188
2026-01-05 04:47:12.82	325.64	20.08	-52.3	-54.0	14.7	0.00e+00	0	27	0	812646400	71	4221
2026-01-05 04:47:13.82	325.42	20.02	-52.3	-54.0	14.7	0.00e+00	0	27	0	814743552	71	4227
2026-01-05 04:47:14.82	325.20	19.96	-52.4	-54.1	14.6	0.00e+00	0	28	0	816840704	71	4277
2026-01-05 04:47:15.82	324.98	19.90	-52.5	-54.2	14.6	0.00e+00	0	28	0	818937856	71	4329
2026-01-05 04:47:16.83	324.76	19.84	-52.4	-54.1	14.6	0.00e+00	0	27	0	821035008	71	4267
2026-01-05 04:47:17.82	324.54	19.78	-52.4	-54.1	14.6	0.00e+00	0	27	0	822083584	71	4291
2026-01-05 04:47:18.82	324.33	19.71	-52.4	-54.1	14.6	0.00e+00	0	27	0	824180736	71	4259
2026-01-05 04:47:19.82	324.11	19.65	-52.4	-54.1	14.6	0.00e+00	0	27	0	826277888	71	4279
2026-01-05 04:47:20.82	323.90	19.59	-52.4	-54.1	14.6	0.00e+00	0	28	0	828375040	71	4277
2026-01-05 04:47:21.82	323.68	19.53	-52.4	-54.2	14.6	0.00e+00	0	28	0	830472192	71	4311
2026-01-05 04:47:22.82	323.47	19.46	-52.5	-54.3	14.5	0.00e+00	0	27	0	831520768	71	4361
2026-01-05 04:47:23.83	323.26	19.40	-52.5	-54.2	14.6	0.00e+00	0	27	0	833617920	71	4338
2026-01-05 04:47:24.82	323.05	19.33	-52.5	-54.2	14.6	0.00e+00	0	27	0	835715072	71	4325
2026-01-05 04:47:25.82	322.84	19.27	-52.5	-54.3	14.5	0.00e+00	0	28	0	837812224	71	4368
2026-01-05 04:47:26.82	322.63	19.21	-52.6	-54.3	14.5	0.00e+00	0	27	0	839909376	71	4385
2026-01-05 04:47:27.83	322.42	19.14	-52.5	-54.3	14.5	0.00e+00	0	28	0	840957952	71	4373
2026-01-05 04:47:28.82	322.21	19.08	-52.4	-54.2	14.6	0.00e+00	0	28	0	843055104	71	4299
2026-01-05 04:47:29.81	322.01	19.01	-52.4	-54.1	14.6	0.00e+00	0	27	0	845152256	71	4290
2026-01-05 04:47:30.81	321.80	18.95	-52.4	-54.2	14.5	0.00e+00	0	28	0	847249408	71	4302
2026-01-05 04:47:31.80	321.60	18.88	-52.3	-54.1	14.6	0.00e+00	0	28	0	848297984	71	4255
2026-01-05 04:47:32.80	321.40	18.82	-52.4	-54.1	14.6	0.00e+00	0	28	0	850395136	71	4286
2026-01-05 04:47:33.80	321.19	18.75	-52.5	-54.3	14.6	0.00e+00	0	28	0	852492288	71	4350
2026-01-05 04:47:34.80	320.99	18.68	-52.5	-54.3	14.5	0.00e+00	0	28	0	854589440	71	4364
2026-01-05 04:47:35.80	320.79	18.62	-52.6	-54.4	14.5	0.00e+00	0	28	0	856686592	71	4404
2026-01-05 04:47:36.79	320.59	18.55	-52.6	-54.4	14.5	0.00e+00	0	27	0	857735168	71	4440
2026-01-05 04:47:37.79	320.39	18.49	-52.6	-54.4	14.5	0.00e+00	0	28	0	859832320	71	4420
2026-01-05 04:47:38.79	320.19	18.42	-52.7	-54.5	14.5	0.00e+00	0	28	0	861929472	71	4484
2026-01-05 04:47:39.79	320.00	18.35	-52.6	-54.4	14.5	0.00e+00	0	27	0	864026624	71	4408
2026-01-05 04:47:40.79	319.80	18.28	-52.6	-54.4	14.5	0.00e+00	0	27	0	865075200	71	4432
2026-01-05 04:47:41.79	319.60	18.22	-52.7	-54.6	14.4	0.00e+00	0	28	0	867172352	71	4499
2026-01-05 04:47:42.78	319.41	18.15	-52.7	-54.5	14.5	0.00e+00	0	27	0	869269504	71	4473
2026-01-05 04:47:43.78	319.21	18.08	-52.8	-54.6	14.4	0.00e+00	0	27	0	871366656	71	4538
2026-01-05 04:47:44.78	319.02	18.01	-52.7	-54.5	14.4	0.00e+00	0	28	0	873463808	71	4464
2026-01-05 04:47:45.77	318.83	17.95	-52.7	-54.5	14.5	0.00e+00	0	28	0	874512384	71	4464
2026-01-05 04:47:46.77	318.64	17.88	-52.7	-54.5	14.4	0.00e+00	0	27	0	876609536	71	4455
2026-01-05 04:47:47.76	318.45	17.81	-52.6	-54.3	14.5	0.00e+00	0	28	0	878706688	71	4384
2026-01-05 04:47:48.76	318.26	17.74	-52.6	-54.4	14.5	0.00e+00	0	27	0	880803840	71	4398
2026-01-05 04:47:49.76	318.07	17.67	-52.5	-54.3	14.5	0.00e+00	0	28	0	881852416	71	4357
2026-01-05 04:47:50.76	317.88	17.61	-52.6	-54.3	14.5	0.00e+00	0	28	0	883949568	71	4384
2026-01-05 04:47:51.76	317.70	17.54	-52.6	-54.3	14.5	0.00e+00	0	28	0	886046720	71	4388
2026-01-05 04:47:52.75	317.51	17.47	-52.6	-54.3	14.5	0.00e+00	0	28	0	888143872	71	4384
2026-01-05 04:47:53.75	317.33	17.40	-52.5	-54.3	14.5	0.00e+00	0	28	0	890241024	71	4347
2026-01-05 04:47:54.74	317.14	17.33	-52.4	-54.2	14.6	0.00e+00	0	28	0	891289600	71	4305
2026-01-05 04:47:55.73	316.96	17.26	-52.4	-54.2	14.6	0.00e+00	0	27	0	893386752	71	4314
2026-01-05 04:47:56.73	316.78	17.19	-52.4	-54.2	14.6	0.00e+00	0	27	0	895483904	71	4302
2026-01-05 04:47:57.72	316.60	17.12	-52.5	-54.2	14.6	0.00e+00	0	27	0	897581056	71	4332
2026-01-05 04:47:58.72	316.42	17.05	-52.4	-54.1	14.6	0.00e+00	0	27	0	899678208	71	4286
2026-01-05 04:47:59.73	316.23	16.98	-52.3	-54.1	14.6	0.00e+00	0	28	0	900726784	71	4252
2026-01-05 04:48:00.73	316.05	16.91	-52.3	-54.0	14.7	0.00e+00	0	28	0	902823936	71	4229
2026-01-05 04:48:01.71	315.88	16.85	-52.2	-54.0	14.7	0.00e+00	0	27	0	904921088	71	4198
2026-01-05 04:48:02.71	315.70	16.78	-52.3	-54.0	14.6	0.00e+00	0	27	0	907018240	71	4240
2026-01-05 04:48:03.71	315.52	16.71	-52.1	-53.8	14.6	0.00e+00	0	27	0	908066816	70	4373
2026-01-05 04:48:04.71	315.35	16.64	-52.0	-53.6	14.7	0.00e+00	0	27	0	910163968	70	4277
2026-01-05 04:48:05.70	315.17	16.57	-51.9	-53.6	14.7	0.00e+00	0	28	0	912261120	70	4255
2026-01-05 04:48:06.70	315.00	16.50	-51.9	-53.5	14.7	0.00e+00	0	28	0	914358272	70	4233
2026-01-05 04:48:07.71	314.82	16.43	-51.9	-53.5	14.7	0.00e+00	0	28	0	916455424	70	4235
2026-01-05 04:48:08.71	314.65	16.35	-52.0	-53.6	14.7	0.00e+00	0	27	0	917504000	70	4274
2026-01-05 04:48:09.71	314.48	16.28	-52.0	-53.6	14.7	0.00e+00	0	28	0	919601152	70	4287
2026-01-05 04:48:10.71	314.31	16.21	-52.0	-53.6	14.7	0.00e+00	0	28	0	921698304	70	4290
2026-01-05 04:48:11.71	314.14	16.14	-52.0	-53.6	14.7	0.00e+00	0	28	0	923795456	70	4288
2026-01-05 04:48:12.71	313.97	16.07	-52.0	-53.6	14.7	0.00e+00	0	27	0	925892608	70	4282
2026-01-05 04:48:13.71	313.80	16.00	-52.0	-53.6	14.7	0.00e+00	0	27	0	926941184	70	4280
2026-01-05 04:48:14.71	313.63	15.93	-51.9	-53.6	14.7	0.00e+00	0	27	0	929038336	70	4269
2026-01-05 04:48:15.70	313.47	15.86	-51.9	-53.5	14.7	0.00e+00	0	28	0	931135488	70	4222
2026-01-05 04:48:16.71	313.30	15.79	-51.9	-53.6	14.7	0.00e+00	0	27	0	933232640	70	4266
2026-01-05 04:48:17.70	313.13	15.72	-51.8	-53.5	14.7	0.00e+00	0	27	0	934281216	70	4212
2026-01-05 04:48:18.70	312.97	15.65	-51.8	-53.5	14.7	0.00e+00	0	27	0	936378368	70	4202
2026-01-05 04:48:19.70	312.80	15.58	-51.7	-53.3	14.8	0.00e+00	0	28	0	938475520	70	4114
2026-01-05 04:48:20.69	312.64	15.51	-51.6	-53.2	14.7	0.00e+00	0	27	0	940572672	69	4339
2026-01-05 04:48:21.69	312.48	15.44	-51.6	-53.2	14.7	0.00e+00	0	27	0	942669824	69	4322
2026-01-05 04:48:22.68	312.32	15.37	-51.6	-53.2	14.7	0.00e+00	0	27	0	943718400	69	4302
2026-01-05 04:48:23.68	312.16	15.29	-51.7	-53.3	14.7	0.00e+00	0	27	0	945815552	69	4359
2026-01-05 04:48:24.67	312.00	15.22	-51.6	-53.2	14.7	0.00e+00	0	27	0	947912704	69	4328
2026-01-05 04:48:25.67	311.84	15.15	-51.7	-53.3	14.7	0.00e+00	0	27	0	950009856	69	4374
2026-01-05 04:48:26.67	311.68	15.08	-51.7	-53.3	14.7	0.00e+00	0	27	0	952107008	69	4363
2026-01-05 04:48:27.67	311.52	15.01	-51.7	-53.3	14.7	0.00e+00	0	28	0	953155584	69	4363
2026-01-05 04:48:28.66	311.37	14.94	-51.7	-53.3	14.7	0.00e+00	0	28	0	955252736	69	4357
2026-01-05 04:48:29.65	311.21	14.87	-51.7	-53.3	14.7	0.00e+00	0	27	0	957349888	69	4390
2026-01-05 04:48:30.65	311.06	14.80	-51.6	-53.2	14.7	0.00e+00	0	27	0	959447040	69	4325
2026-01-05 04:48:31.64	310.90	14.73	-51.6	-53.2	14.7	0.00e+00	0	27	0	960495616	69	4321
2026-01-05 04:48:32.64	310.75	14.66	-51.7	-53.3	14.7	0.00e+00	0	28	0	962592768	69	4391
2026-01-05 04:48:33.65	310.60	14.59	-51.6	-53.2	14.7	0.00e+00	0	28	0	964689920	69	4334
2026-01-05 04:48:34.64	310.44	14.51	-51.6	-53.2	14.7	0.00e+00	0	28	0	966787072	69	4321
2026-01-05 04:48:35.63	310.29	14.44	-51.7	-53.3	14.7	0.00e+00	0	27	0	968884224	69	4379
2026-01-05 04:48:36.63	310.14	14.37	-51.7	-53.4	14.6	0.00e+00	0	28	0	969932800	69	4413
2026-01-05 04:48:37.63	309.99	14.30	-51.6	-53.3	14.7	0.00e+00	0	28	0	972029952	69	4354
2026-01-05 04:48:38.63	309.84	14.23	-51.7	-53.4	14.6	0.00e+00	0	27	0	974127104	69	4408
2026-01-05 04:48:39.64	309.69	14.16	-51.8	-53.5	14.6	0.00e+00	0	27	0	976224256	69	4452
2026-01-05 04:48:40.63	309.55	14.09	-51.8	-53.5	14.6	0.00e+00	0	28	0	977272832	69	4445
2026-01-05 04:48:41.63	309.40	14.02	-51.8	-53.5	14.6	0.00e+00	0	28	0	979369984	69	4475
2026-01-05 04:48:42.63	309.25	13.95	-51.9	-53.6	14.5	0.00e+00	0	28	0	981467136	69	4543
2026-01-05 04:48:43.63	309.11	13.88	-51.9	-53.6	14.6	0.00e+00	0	27	0	983564288	69	4507
2026-01-05 04:48:44.63	308.96	13.80	-52.0	-53.8	14.5	0.00e+00	0	27	0	985661440	69	4604
2026-01-05 04:48:45.63	308.82	13.73	-52.1	-53.8	14.5	0.00e+00	0	27	0	986710016	69	4624
2026-01-05 04:48:46.63	308.67	13.66	-52.1	-53.9	14.4	0.00e+00	0	27	0	988807168	69	4678
2026-01-05 04:48:47.63	308.53	13.59	-52.2	-54.0	14.4	0.00e+00	0	27	0	990904320	69	4715
2026-01-05 04:48:48.63	308.39	13.52	-52.3	-54.1	14.4	0.00e+00	0	28	0	993001472	69	4797
2026-01-05 04:48:49.62	308.25	13.45	-52.2	-54.0	14.4	0.00e+00	0	27	0	995098624	69	4748
2026-01-05 04:48:50.61	308.11	13.38	-52.3	-54.2	14.3	0.00e+00	0	27	0	996147200	69	4822
2026-01-05 04:48:51.60	307.97	13.31	-52.4	-54.2	14.4	0.00e+00	0	27	0	998244352	70	4598
2026-01-05 04:48:52.61	307.83	13.24	-52.4	-54.3	14.4	0.00e+00	0	27	0	1000341504	70	4617
2026-01-05 04:48:53.61	307.69	13.17	-52.5	-54.3	14.4	0.00e+00	0	28	0	1002438656	70	4621
2026-01-05 04:48:54.61	307.55	13.10	-52.4	-54.2	14.4	0.00e+00	0	27	0	1003487232	70	4571
2026-01-05 04:48:55.60	307.41	13.03	-52.4	-54.2	14.4	0.00e+00	0	27	0	1005584384	70	4586
2026-01-05 04:48:56.59	307.28	12.96	-52.3	-54.1	14.5	0.00e+00	0	28	0	1007681536	70	4508
2026-01-05 04:48:57.58	307.14	12.89	-52.2	-54.0	14.5	0.00e+00	0	27	0	1009778688	70	4485
2026-01-05 04:48:58.58	307.01	12.82	-52.3	-54.1	14.4	0.00e+00	0	27	0	1011875840	70	4499
2026-01-05 04:48:59.58	306.87	12.75	-52.2	-53.9	14.5	0.00e+00	0	27	0	1012924416	70	4427
2026-01-05 04:49:00.58	306.74	12.68	-52.2	-54.0	14.5	0.00e+00	0	28	0	1015021568	70	4464
2026-01-05 04:49:01.57	306.60	12.61	-52.3	-54.1	14.4	0.00e+00	0	28	0	1017118720	70	4511
2026-01-05 04:49:02.56	306.47	12.54	-52.4	-54.2	14.4	0.00e+00	0	28	0	1019215872	70	4569
2026-01-05 04:49:03.56	306.34	12.47	-52.4	-54.3	14.4	0.00e+00	0	27	0	1020264448	70	4615
2026-01-05 04:49:04.55	306.21	12.40	-52.5	-54.3	14.3	0.00e+00	0	28	0	1022361600	70	4640
2026-01-05 04:49:05.54	306.08	12.33	-52.6	-54.5	14.3	0.00e+00	0	27	0	1024458752	70	4717
2026-01-05 04:49:06.54	305.95	12.26	-52.6	-54.6	14.2	0.00e+00	0	27	0	1026555904	70	4768
2026-01-05 04:49:07.53	305.82	12.19	-52.7	-54.6	14.2	0.00e+00	0	27	0	1028653056	70	4787
2026-01-05 04:49:08.52	305.69	12.12	-52.6	-54.5	14.3	0.00e+00	0	28	0	1029701632	70	4713
2026-01-05 04:49:09.53	305.56	12.05	-52.6	-54.6	14.2	0.00e+00	0	27	0	1031798784	70	4763
2026-01-05 04:49:10.53	305.43	11.98	-52.6	-54.6	14.2	0.00e+00	0	27	0	1033895936	70	4763
2026-01-05 04:49:11.53	305.31	11.91	-52.7	-54.7	14.2	0.00e+00	0	27	0	1035993088	70	4828
2026-01-05 04:49:12.53	305.18	11.84	-52.8	-54.7	14.2	0.00e+00	0	27	0	1038090240	70	4852
2026-01-05 04:49:13.52	305.05	11.77	-52.7	-54.7	14.2	0.00e+00	0	27	0	1039138816	70	4836
2026-01-05 04:49:14.52	304.93	11.70	-52.8	-54.8	14.1	0.00e+00	0	28	0	1041235968	70	4892
2026-01-05 04:49:15.51	304.80	11.63	-52.7	-54.6	14.2	0.00e+00	0	27	0	1043333120	70	4800
2026-01-05 04:49:16.51	304.68	11.56	-52.8	-54.8	14.2	0.00e+00	0	27	0	1045430272	70	4876
2026-01-05 04:49:17.51	304.56	11.49	-52.8	-54.8	14.2	0.00e+00	0	28	0	1046478848	70	4880
2026-01-05 04:49:18.50	304.43	11.42	-52.8	-54.7	14.1	0.00e+00	0	27	0	1048576000	70	4863
2026-01-05 04:49:19.50	304.31	11.35	-52.8	-54.8	14.2	0.00e+00	0	27	0	1050673152	70	4873
2026-01-05 04:49:20.50	304.19	11.28	-52.8	-54.7	14.1	0.00e+00	0	28	0	1052770304	70	4852
2026-01-05 04:49:21.50	304.07	11.21	-52.7	-54.7	14.2	0.00e+00	0	27	0	1054867456	70	4823
2026-01-05 04:49:22.51	303.95	11.14	-52.8	-54.8	14.1	0.00e+00	0	27	0	1055916032	70	4876
2026-01-05 04:49:23.50	303.83	11.07	-52.9	-54.9	14.0	0.00e+00	0	27	0	1058013184	70	4971
2026-01-05 04:49:24.51	303.71	11.00	-52.9	-55.0	14.2	0.00e+00	0	28	0	1060110336	71	4709
2026-01-05 04:49:25.50	303.59	10.94	-53.0	-55.0	14.1	0.00e+00	0	27	0	1062207488	71	4731
2026-01-05 04:49:26.50	303.47	10.87	-53.1	-55.2	14.0	0.00e+00	0	28	0	1063256064	71	4824
2026-01-05 04:49:27.50	303.35	10.80	-53.1	-55.2	14.0	0.00e+00	0	28	0	1065353216	71	4825
2026-01-05 04:49:28.49	303.24	10.73	-53.1	-55.2	14.0	0.00e+00	0	28	0	1067450368	71	4850
2026-01-05 04:49:29.49	303.12	10.66	-53.2	-55.4	14.0	0.00e+00	0	28	0	1069547520	71	4935
2026-01-05 04:49:30.50	303.00	10.59	-53.2	-55.3	14.0	0.00e+00	0	28	0	1071644672	71	4876
2026-01-05 04:49:31.49	302.89	10.52	-53.2	-55.3	14.0	0.00e+00	0	28	0	1072693248	71	4885
2026-01-05 04:49:32.50	302.77	10.46	-53.2	-55.3	14.0	0.00e+00	0	27	0	1074790400	71	4891
2026-01-05 04:49:33.50	302.66	10.39	-53.2	-55.4	14.0	0.00e+00	0	28	0	1076887552	71	4931
2026-01-05 04:49:34.50	302.54	10.32	-53.2	-55.3	14.0	0.00e+00	0	28	0	1078984704	71	4917
2026-01-05 04:49:35.50	302.43	10.25	-53.2	-55.3	13.9	0.00e+00	0	28	0	1081081856	71	4917
2026-01-05 04:49:36.49	302.32	10.18	-53.1	-55.2	14.0	0.00e+00	0	27	0	1082130432	71	4854
2026-01-05 04:49:37.49	302.20	10.11	-53.2	-55.3	14.0	0.00e+00	0	27	0	1084227584	71	4910
2026-01-05 04:49:38.48	302.09	10.05	-53.2	-55.3	14.0	0.00e+00	0	28	0	1086324736	71	4892
2026-01-05 04:49:39.48	301.98	9.98	-53.2	-55.3	14.0	0.00e+00	0	28	0	1088421888	71	4923
2026-01-05 04:49:40.48	301.87	9.91	-53.1	-55.2	14.0	0.00e+00	0	27	0	1089470464	71	4845
2026-01-05 04:49:41.48	301.76	9.84	-53.2	-55.3	14.0	0.00e+00	0	27	0	1091567616	71	4873
2026-01-05 04:49:42.48	301.65	9.78	-53.1	-55.2	14.0	0.00e+00	0	27	0	1093664768	71	4839
2026-01-05 04:49:43.47	301.54	9.71	-53.2	-55.3	14.0	0.00e+00	0	28	0	1095761920	71	4893
2026-01-05 04:49:44.47	301.43	9.64	-53.3	-55.5	13.9	0.00e+00	0	27	0	1097859072	71	5005
2026-01-05 04:49:45.47	301.33	9.57	-53.3	-55.4	13.9	0.00e+00	0	28	0	1098907648	71	4980
2026-01-05 04:49:46.46	301.22	9.51	-53.3	-55.5	13.9	0.00e+00	0	27	0	1101004800	71	5026
2026-01-05 04:49:47.45	301.11	9.44	-53.4	-55.6	13.8	0.00e+00	0	27	0	1103101952	71	5084
2026-01-05 04:49:48.44	301.01	9.37	-53.5	-55.8	13.8	0.00e+00	0	28	0	1105199104	72	4884
2026-01-05 04:49:49.44	300.90	9.31	-53.5	-55.8	13.8	0.00e+00	0	27	0	1107296256	72	4894
2026-01-05 04:49:50.44	300.80	9.24	-53.6	-55.8	13.8	0.00e+00	0	28	0	1108344832	72	4915
2026-01-05 04:49:51.43	300.69	9.17	-53.7	-56.0	13.7	0.00e+00	0	28	0	1110441984	72	4994
2026-01-05 04:49:52.42	300.59	9.11	-53.6	-56.0	13.7	0.00e+00	0	27	0	1112539136	72	4986
2026-01-05 04:49:53.42	300.48	9.04	-53.7	-56.0	13.7	0.00e+00	0	27	0	1114636288	72	5032
2026-01-05 04:49:54.42	300.38	8.97	-53.7	-56.0	13.7	0.00e+00	0	28	0	1115684864	72	5019
2026-01-05 04:49:55.41	300.28	8.91	-53.7	-56.1	13.7	0.00e+00	0	28	0	1117782016	72	5045
2026-01-05 04:49:56.41	300.17	8.84	-53.7	-56.0	13.7	0.00e+00	0	28	0	1119879168	72	5006
2026-01-05 04:49:57.42	300.07	8.77	-53.8	-56.2	13.6	0.00e+00	0	28	0	1121976320	72	5107
2026-01-05 04:49:58.41	299.97	8.71	-53.8	-56.1	13.6	0.00e+00	0	28	0	1124073472	72	5098
2026-01-05 04:49:59.41	299.87	8.64	-53.8	-56.2	13.6	0.00e+00	0	27	0	1125122048	72	5120
2026-01-05 04:50:00.40	299.77	8.58	-53.9	-56.3	13.5	0.00e+00	0	28	0	1127219200	72	5188
2026-01-05 04:50:01.40	299.67	8.51	-53.9	-56.4	13.5	0.00e+00	0	28	0	1129316352	73	4956
2026-01-05 04:50:02.39	299.57	8.45	-54.0	-56.5	13.5	0.00e+00	0	28	0	1131413504	73	5002
2026-01-05 04:50:03.38	299.47	8.38	-54.0	-56.5	13.5	0.00e+00	0	28	0	1132462080	73	5038
2026-01-05 04:50:04.38	299.37	8.31	-54.0	-56.5	13.5	0.00e+00	0	28	0	1134559232	73	5014
2026-01-05 04:50:05.37	299.27	8.25	-54.1	-56.7	13.4	0.00e+00	0	27	0	1136656384	73	5113
2026-01-05 04:50:06.36	299.18	8.18	-54.0	-56.6	13.4	0.00e+00	0	28	0	1138753536	73	5056
2026-01-05 04:50:07.36	299.08	8.12	-54.1	-56.7	13.4	0.00e+00	0	28	0	1140850688	73	5128
2026-01-05 04:50:08.35	298.98	8.05	-54.1	-56.7	13.3	0.00e+00	0	27	0	1141899264	73	5158
2026-01-05 04:50:09.35	298.89	7.99	-54.2	-56.8	13.3	0.00e+00	0	27	0	1143996416	73	5213
2026-01-05 04:50:10.35	298.79	7.92	-54.1	-56.7	13.4	0.00e+00	0	27	0	1146093568	73	5145
2026-01-05 04:50:11.36	298.69	7.86	-54.2	-56.8	13.3	0.00e+00	0	27	0	1148190720	73	5176
2026-01-05 04:50:12.35	298.60	7.79	-54.1	-56.8	13.3	0.00e+00	0	28	0	1149239296	73	5166
2026-01-05 04:50:13.35	298.50	7.73	-54.2	-56.9	13.3	0.00e+00	0	27	0	1151336448	73	5230
2026-01-05 04:50:14.35	298.41	7.66	-54.0	-56.6	13.4	0.00e+00	0	27	0	1153433600	73	5073
2026-01-05 04:50:15.35	298.32	7.60	-54.1	-56.6	13.4	0.00e+00	0	27	0	1155530752	73	5095
2026-01-05 04:50:16.34	298.22	7.53	-54.1	-56.7	13.4	0.00e+00	0	27	0	1157627904	73	5101
2026-01-05 04:50:17.34	298.13	7.47	-54.1	-56.7	13.3	0.00e+00	0	28	0	1158676480	73	5123
2026-01-05 04:50:18.34	298.04	7.40	-54.1	-56.7	13.3	0.00e+00	0	28	0	1160773632	73	5154
2026-01-05 04:50:19.34	297.94	7.34	-54.1	-56.7	13.3	0.00e+00	0	28	0	1162870784	73	5112
2026-01-05 04:50:20.34	297.85	7.28	-54.1	-56.8	13.3	0.00e+00	0	27	0	1164967936	73	5160
2026-01-05 04:50:21.34	297.76	7.21	-54.2	-56.8	13.3	0.00e+00	0	27	0	1167065088	73	5214
2026-01-05 04:50:22.34	297.67	7.15	-54.3	-57.0	13.1	0.00e+00	0	28	0	1168113664	73	5322
2026-01-05 04:50:23.34	297.58	7.08	-54.3	-56.9	13.2	0.00e+00	0	28	0	1170210816	73	5273
2026-01-05 04:50:24.34	297.49	7.02	-54.3	-57.0	13.2	0.00e+00	0	27	0	1172307968	73	5316
2026-01-05 04:50:25.33	297.40	6.96	-54.3	-57.0	13.2	0.00e+00	0	28	0	1174405120	73	5310
2026-01-05 04:50:26.33	297.31	6.89	-54.3	-57.1	13.1	0.00e+00	0	28	0	1175453696	73	5372
2026-01-05 04:50:27.33	297.22	6.83	-54.3	-57.0	13.1	0.00e+00	0	27	0	1177550848	73	5331
2026-01-05 04:50:28.32	297.13	6.76	-54.5	-57.3	13.0	0.00e+00	0	28	0	1179648000	74	5198
2026-01-05 04:50:29.32	297.05	6.70	-54.5	-57.3	13.1	0.00e+00	0	28	0	1181745152	74	5187
2026-01-05 04:50:30.32	296.96	6.64	-54.5	-57.3	13.1	0.00e+00	0	27	0	1183842304	74	5184
2026-01-05 04:50:31.32	296.87	6.57	-54.5	-57.4	13.0	0.00e+00	0	28	0	1184890880	74	5221
2026-01-05 04:50:32.32	296.78	6.51	-54.6	-57.5	12.9	0.00e+00	0	28	0	1186988032	74	5314
2026-01-05 04:50:33.32	296.70	6.45	-54.5	-57.4	13.0	0.00e+00	0	28	0	1189085184	74	5264
2026-01-05 04:50:34.32	296.61	6.38	-54.6	-57.5	12.8	0.00e+00	0	28	0	1191182336	74	5335
2026-01-05 04:50:35.32	296.52	6.32	-54.6	-57.5	12.9	0.00e+00	0	28	0	1192230912	74	5293
2026-01-05 04:50:36.31	296.44	6.26	-54.6	-57.6	12.9	0.00e+00	0	28	0	1194328064	74	5347
