passes_logs/2026/01/05/R3.2S_Murmansk/R3.2S_Murmansk__20260105_235219_AQUA_rec.log

#Pass ID: 20260105_235219_AQUA
#Satellite: AQUA
#Configuration: AQUA
#almurnet v.1.7.20251203
#Start time: 2026-01-05 23:52:19

#Version: 2.2.20231116
#Station: R3.2S_Murmansk
#Location: 33.079688 lon 68.888172 lat
#TLE: 1 27424U 02022A   26004.96787593  .00001598  00000+0  32997-3 0  9996
#TLE: 2 27424  98.4069 331.2279 0002002  90.2377   0.6092 14.61798176259425

#Time	Az	El	Level	Level2	SNR	BER	BlckErr	Temp	State	Recorded	gain1	gain2
2026-01-05 23:52:19.16	21.18	2.00	-57.7	-76.8	3.8	7.49e-01	0	24	0	0	84	31993
2026-01-05 23:52:20.16	21.27	2.06	-57.4	-76.2	3.8	7.49e-01	0	24	104	0	82	33551
2026-01-05 23:52:21.16	21.36	2.11	-57.4	-76.3	3.8	7.45e-01	0	25	104	0	82	33874
2026-01-05 23:52:22.16	21.44	2.16	-57.4	-76.4	3.8	7.48e-01	0	24	104	0	82	34290
2026-01-05 23:52:23.16	21.53	2.22	-57.4	-76.5	3.8	7.45e-01	0	24	104	0	82	34715
2026-01-05 23:52:24.15	21.62	2.27	-57.4	-76.5	3.8	7.46e-01	0	25	104	0	82	34731
2026-01-05 23:52:25.15	21.71	2.33	-57.4	-76.7	3.8	7.48e-01	0	24	104	0	82	35458
2026-01-05 23:52:26.15	21.80	2.38	-57.5	-76.8	3.8	7.46e-01	0	25	104	0	82	35758
2026-01-05 23:52:27.15	21.89	2.44	-57.5	-76.8	3.8	7.43e-01	0	24	104	0	82	35789
2026-01-05 23:52:28.15	21.98	2.49	-57.5	-76.8	3.8	7.45e-01	0	25	104	0	82	35844
2026-01-05 23:52:29.14	22.07	2.54	-57.5	-76.7	3.8	7.46e-01	0	25	104	0	82	35412
2026-01-05 23:52:30.14	22.16	2.60	-57.5	-76.6	3.8	7.44e-01	0	25	104	0	82	34934
2026-01-05 23:52:31.15	22.25	2.65	-57.4	-76.5	3.8	7.47e-01	0	25	104	0	82	34727
2026-01-05 23:52:32.15	22.34	2.71	-57.4	-76.3	3.8	7.44e-01	0	25	104	0	82	33815
2026-01-05 23:52:33.15	22.44	2.76	-57.4	-76.1	3.8	7.41e-01	0	25	104	0	82	33266
2026-01-05 23:52:34.15	22.53	2.82	-57.4	-76.2	3.8	7.47e-01	0	25	104	0	82	33346
2026-01-05 23:52:35.15	22.62	2.88	-57.5	-76.3	3.8	7.44e-01	0	25	104	0	82	34032
2026-01-05 23:52:36.15	22.71	2.93	-57.5	-76.4	3.8	7.47e-01	0	25	104	0	82	34397
2026-01-05 23:52:37.15	22.81	2.99	-57.5	-76.7	3.8	7.47e-01	0	25	104	0	82	35492
2026-01-05 23:52:38.15	22.90	3.04	-57.5	-76.7	3.8	7.45e-01	0	25	104	0	82	35505
2026-01-05 23:52:39.15	22.99	3.10	-57.5	-76.8	3.8	7.48e-01	0	25	104	0	82	36012
2026-01-05 23:52:40.15	23.09	3.15	-57.5	-76.5	3.8	7.44e-01	0	25	104	0	82	34634
2026-01-05 23:52:41.14	23.18	3.21	-57.5	-76.8	3.8	7.48e-01	0	25	104	0	82	35803
2026-01-05 23:52:42.15	23.28	3.26	-57.4	-76.3	3.8	7.47e-01	0	25	104	0	82	33882
2026-01-05 23:52:43.15	23.37	3.32	-57.5	-76.6	3.8	7.44e-01	0	25	104	0	82	35126
2026-01-05 23:52:44.15	23.47	3.37	-57.4	-75.4	3.8	7.49e-01	0	25	104	0	82	30728
2026-01-05 23:52:45.15	23.57	3.43	-57.5	-75.6	3.8	7.45e-01	0	25	104	0	82	31283
2026-01-05 23:52:46.15	23.66	3.49	-57.4	-74.9	3.9	7.43e-01	0	25	104	0	82	28965
2026-01-05 23:52:47.15	23.76	3.54	-57.4	-73.8	3.8	7.41e-01	0	25	104	0	82	25358
2026-01-05 23:52:48.16	23.86	3.60	-57.4	-72.6	4.4	7.27e-01	0	25	104	0	82	22226
2026-01-05 23:52:49.16	23.96	3.65	-57.4	-74.2	3.8	7.42e-01	0	25	104	0	82	26503
2026-01-05 23:52:50.16	24.06	3.71	-57.4	-73.7	4.1	7.38e-01	0	25	104	0	82	25239
2026-01-05 23:52:51.16	24.15	3.77	-57.4	-74.0	3.9	7.41e-01	0	25	104	0	82	26155
2026-01-05 23:52:52.16	24.25	3.82	-57.4	-72.7	4.4	7.28e-01	0	25	104	0	82	22266
2026-01-05 23:52:53.17	24.35	3.88	-57.3	-70.7	5.2	7.04e-01	9	25	0	0	82	17814
2026-01-05 23:52:54.17	24.45	3.94	-57.2	-70.3	4.5	7.27e-01	0	25	104	524288	82	17079
2026-01-05 23:52:55.17	24.55	3.99	-57.1	-67.5	7.5	6.47e-01	87	26	0	1048576	82	12320
2026-01-05 23:52:56.17	24.65	4.05	-57.0	-66.6	8.2	6.37e-01	0	25	0	3145728	82	11146
2026-01-05 23:52:57.17	24.76	4.11	-56.9	-66.3	8.5	6.33e-01	0	25	0	4718592	82	10755
2026-01-05 23:52:58.17	24.86	4.16	-56.9	-66.4	8.4	6.34e-01	0	26	0	6815744	82	10894
2026-01-05 23:52:59.17	24.96	4.22	-56.9	-65.9	8.8	6.27e-01	0	25	0	8388608	82	10280
2026-01-05 23:53:00.16	25.06	4.28	-56.7	-65.0	9.6	6.17e-01	0	26	0	10485760	82	9200
2026-01-05 23:53:01.16	25.16	4.33	-55.9	-61.7	12.1	6.06e-01	0	25	0	12058624	81	6662
2026-01-05 23:53:02.15	25.27	4.39	-55.4	-60.4	12.9	6.04e-01	0	26	0	14155776	80	6072
2026-01-05 23:53:03.16	25.37	4.45	-54.6	-58.5	13.8	6.05e-01	0	25	0	16252928	78	5504
2026-01-05 23:53:04.16	25.47	4.50	-53.8	-57.1	14.3	6.02e-01	0	25	0	17825792	76	5226
2026-01-05 23:53:05.15	25.58	4.56	-52.5	-55.2	14.8	6.04e-01	0	25	0	19922944	74	4733
2026-01-05 23:53:06.16	25.68	4.62	-52.0	-54.5	15.0	6.03e-01	0	26	0	21495808	73	4616
2026-01-05 23:53:07.16	25.79	4.68	-52.1	-54.6	15.0	6.03e-01	0	25	0	23592960	73	4678
2026-01-05 23:53:08.16	25.89	4.73	-52.3	-54.9	14.9	6.03e-01	0	25	0	25690112	73	4844
2026-01-05 23:53:09.16	26.00	4.79	-52.8	-55.6	14.6	6.03e-01	0	25	0	27262976	73	5233
2026-01-05 23:53:10.16	26.11	4.85	-53.5	-56.8	14.2	6.04e-01	0	26	0	29360128	74	5682
2026-01-05 23:53:11.16	26.21	4.90	-54.4	-58.3	13.8	6.03e-01	0	26	0	30932992	76	6027
2026-01-05 23:53:12.16	26.32	4.96	-55.0	-59.6	13.2	6.03e-01	0	25	0	33030144	77	6575
2026-01-05 23:53:13.17	26.43	5.02	-55.7	-61.1	12.3	6.06e-01	0	26	0	34603008	79	7035
2026-01-05 23:53:14.16	26.54	5.08	-53.3	-56.3	14.6	6.02e-01	0	26	0	36700160	75	5072
2026-01-05 23:53:15.16	26.65	5.14	-53.4	-56.4	14.5	6.05e-01	0	26	0	38797312	74	5456
2026-01-05 23:53:16.16	26.76	5.19	-56.8	-65.5	8.9	6.25e-01	0	26	0	40370176	81	10297
2026-01-05 23:53:17.15	26.86	5.25	-55.8	-61.8	11.8	6.07e-01	0	26	0	42467328	80	7142
2026-01-05 23:53:18.14	26.97	5.31	-55.3	-59.6	13.3	6.04e-01	0	26	0	44040192	78	6224
2026-01-05 23:53:19.14	27.08	5.37	-53.0	-55.8	14.8	6.03e-01	0	26	0	46137344	75	4814
2026-01-05 23:53:20.14	27.20	5.42	-52.7	-55.3	14.9	6.02e-01	0	26	0	47710208	74	4792
2026-01-05 23:53:21.14	27.31	5.48	-52.3	-54.8	14.9	6.04e-01	0	26	0	49807360	73	4779
2026-01-05 23:53:22.14	27.42	5.54	-52.0	-54.3	15.1	6.05e-01	0	26	0	51380224	73	4538
2026-01-05 23:53:23.14	27.53	5.60	-51.9	-54.3	15.0	6.03e-01	0	26	0	53477376	72	4776
2026-01-05 23:53:24.15	27.65	5.66	-52.0	-54.3	15.0	6.01e-01	0	26	0	55574528	72	4798
2026-01-05 23:53:25.15	27.76	5.72	-51.9	-54.2	15.0	6.04e-01	0	26	0	57147392	72	4734
2026-01-05 23:53:26.15	27.87	5.77	-51.7	-54.0	15.1	6.05e-01	0	26	0	59244544	72	4617
2026-01-05 23:53:27.14	27.99	5.83	-51.8	-54.0	15.1	6.01e-01	0	26	0	60817408	72	4648
2026-01-05 23:53:28.14	28.10	5.89	-51.7	-54.0	15.1	6.04e-01	0	26	0	62914560	72	4612
2026-01-05 23:53:29.14	28.22	5.95	-51.7	-53.9	15.1	6.04e-01	0	26	0	64487424	72	4588
2026-01-05 23:53:30.14	28.33	6.01	-51.8	-54.0	15.1	6.05e-01	0	26	0	66584576	72	4648
2026-01-05 23:53:31.14	28.45	6.07	-51.7	-54.0	15.1	6.05e-01	0	26	0	68681728	72	4617
2026-01-05 23:53:32.14	28.56	6.13	-51.8	-54.1	15.1	6.03e-01	0	26	0	70254592	72	4655
2026-01-05 23:53:33.14	28.68	6.18	-51.6	-53.8	15.2	6.02e-01	0	26	0	72351744	72	4524
2026-01-05 23:53:34.14	28.80	6.24	-51.9	-54.2	15.0	6.04e-01	0	26	0	73924608	72	4729
2026-01-05 23:53:35.13	28.92	6.30	-51.8	-54.1	15.1	6.03e-01	0	26	0	76021760	72	4663
2026-01-05 23:53:36.14	29.04	6.36	-51.8	-54.1	15.1	6.02e-01	0	26	0	78118912	72	4671
2026-01-05 23:53:37.14	29.16	6.42	-51.8	-54.0	15.1	6.02e-01	0	26	0	79691776	72	4621
2026-01-05 23:53:38.15	29.28	6.48	-51.9	-54.1	15.1	6.05e-01	0	26	0	81788928	72	4686
2026-01-05 23:53:39.15	29.40	6.54	-51.8	-54.0	15.1	6.03e-01	0	26	0	83361792	72	4632
2026-01-05 23:53:40.15	29.52	6.60	-51.7	-53.9	15.1	6.05e-01	0	26	0	85458944	72	4586
2026-01-05 23:53:41.15	29.64	6.66	-51.6	-53.8	15.2	6.02e-01	0	26	0	87031808	72	4524
2026-01-05 23:53:42.14	29.76	6.72	-51.6	-53.8	15.1	6.04e-01	0	26	0	89128960	72	4511
2026-01-05 23:53:43.14	29.88	6.78	-51.7	-53.9	15.2	6.02e-01	0	26	0	91226112	72	4554
2026-01-05 23:53:44.14	30.00	6.83	-51.6	-53.8	15.2	6.04e-01	0	26	0	92798976	72	4513
2026-01-05 23:53:45.14	30.13	6.89	-51.7	-53.9	15.1	6.02e-01	0	26	0	94896128	72	4572
2026-01-05 23:53:46.14	30.25	6.95	-51.3	-53.4	15.2	6.01e-01	0	26	0	96468992	71	4561
2026-01-05 23:53:47.15	30.38	7.01	-51.4	-53.5	15.2	6.04e-01	0	26	0	98566144	71	4609
2026-01-05 23:53:48.15	30.50	7.07	-51.3	-53.3	15.2	6.03e-01	0	26	0	100139008	71	4541
2026-01-05 23:53:49.15	30.63	7.13	-51.4	-53.6	15.1	6.01e-01	0	26	0	102236160	71	4655
2026-01-05 23:53:50.15	30.75	7.19	-51.3	-53.4	15.2	6.02e-01	0	26	0	104333312	71	4578
2026-01-05 23:53:51.16	30.88	7.25	-51.5	-53.7	15.1	6.02e-01	0	26	0	105906176	71	4711
2026-01-05 23:53:52.16	31.01	7.31	-51.5	-53.6	15.1	6.03e-01	0	26	0	108003328	71	4658
2026-01-05 23:53:53.16	31.14	7.37	-51.4	-53.4	15.2	6.03e-01	0	26	0	109576192	71	4595
2026-01-05 23:53:54.17	31.27	7.43	-51.3	-53.4	15.2	6.02e-01	0	26	0	111673344	71	4578
2026-01-05 23:53:55.16	31.39	7.49	-51.3	-53.4	15.2	6.04e-01	0	26	0	113770496	71	4560
2026-01-05 23:53:56.17	31.52	7.55	-51.3	-53.3	15.2	6.06e-01	0	26	0	115343360	71	4532
2026-01-05 23:53:57.17	31.65	7.61	-51.3	-53.4	15.2	6.05e-01	0	26	0	117440512	71	4564
2026-01-05 23:53:58.18	31.79	7.67	-51.3	-53.4	15.2	6.02e-01	0	26	0	119013376	71	4552
2026-01-05 23:53:59.17	31.92	7.73	-51.4	-53.5	15.2	6.03e-01	0	26	0	121110528	71	4604
2026-01-05 23:54:00.17	32.05	7.79	-51.3	-53.4	15.2	6.04e-01	0	26	0	123207680	71	4576
2026-01-05 23:54:01.17	32.18	7.85	-51.3	-53.3	15.2	6.05e-01	0	26	0	124780544	71	4539
2026-01-05 23:54:02.17	32.31	7.91	-51.2	-53.2	15.3	6.04e-01	0	26	0	126877696	71	4460
2026-01-05 23:54:03.17	32.45	7.97	-51.1	-53.1	15.3	6.04e-01	0	26	0	128450560	71	4393
2026-01-05 23:54:04.16	32.58	8.03	-51.1	-53.1	15.3	6.03e-01	0	26	0	130547712	71	4438
2026-01-05 23:54:05.16	32.71	8.09	-51.1	-53.1	15.3	6.06e-01	0	26	0	132120576	71	4399
2026-01-05 23:54:06.15	32.85	8.15	-51.1	-53.1	15.3	6.03e-01	0	26	0	134217728	71	4408
2026-01-05 23:54:07.15	32.98	8.21	-51.2	-53.2	15.3	6.06e-01	0	26	0	135790592	71	4488
2026-01-05 23:54:08.14	33.12	8.27	-51.2	-53.2	15.3	6.04e-01	0	26	0	137887744	71	4466
2026-01-05 23:54:09.14	33.25	8.33	-51.1	-53.1	15.3	6.03e-01	0	26	0	139984896	71	4430
2026-01-05 23:54:10.14	33.39	8.40	-51.1	-53.1	15.3	6.04e-01	0	26	0	141557760	71	4404
2026-01-05 23:54:11.14	33.53	8.46	-50.9	-52.9	15.2	6.04e-01	0	26	0	143654912	70	4548
2026-01-05 23:54:12.13	33.67	8.52	-51.0	-53.0	15.2	6.01e-01	0	26	0	145227776	70	4605
2026-01-05 23:54:13.12	33.80	8.58	-50.9	-52.9	15.2	6.02e-01	0	26	0	147324928	70	4547
2026-01-05 23:54:14.12	33.94	8.64	-50.9	-52.9	15.2	6.05e-01	0	26	0	148897792	70	4565
2026-01-05 23:54:15.12	34.08	8.70	-51.0	-53.0	15.2	6.04e-01	0	26	0	150994944	70	4607
2026-01-05 23:54:16.11	34.22	8.76	-51.0	-53.0	15.2	6.03e-01	0	26	0	153092096	70	4605
2026-01-05 23:54:17.10	34.36	8.82	-51.0	-53.0	15.2	6.02e-01	0	26	0	154664960	70	4638
2026-01-05 23:54:18.09	34.51	8.88	-50.8	-52.7	15.3	6.04e-01	0	26	0	156762112	70	4474
2026-01-05 23:54:19.10	34.65	8.94	-50.8	-52.7	15.3	6.03e-01	0	26	0	158334976	70	4487
2026-01-05 23:54:20.09	34.79	9.00	-50.9	-52.8	15.3	6.01e-01	0	26	0	160432128	70	4543
2026-01-05 23:54:21.10	34.94	9.06	-50.9	-52.8	15.3	6.04e-01	0	26	0	162004992	70	4513
2026-01-05 23:54:22.09	35.08	9.12	-50.7	-52.6	15.3	6.03e-01	0	26	0	164102144	70	4436
2026-01-05 23:54:23.08	35.22	9.18	-50.9	-52.9	15.2	6.04e-01	0	26	0	165675008	70	4558
2026-01-05 23:54:24.08	35.37	9.24	-51.0	-52.9	15.2	6.03e-01	0	26	0	167772160	70	4590
2026-01-05 23:54:25.08	35.52	9.30	-51.1	-53.1	15.2	6.02e-01	0	26	0	169869312	70	4659
2026-01-05 23:54:26.07	35.66	9.36	-50.8	-52.7	15.3	6.05e-01	0	26	0	171442176	70	4478
2026-01-05 23:54:27.07	35.81	9.42	-50.6	-52.5	15.4	6.02e-01	0	26	0	173539328	70	4348
2026-01-05 23:54:28.07	35.96	9.48	-50.7	-52.5	15.3	6.04e-01	0	26	0	175112192	70	4386
2026-01-05 23:54:29.07	36.11	9.55	-50.6	-52.5	15.3	6.04e-01	0	26	0	177209344	70	4375
2026-01-05 23:54:30.08	36.26	9.61	-50.8	-52.7	15.3	6.04e-01	0	26	0	178782208	70	4448
2026-01-05 23:54:31.08	36.41	9.67	-50.7	-52.6	15.3	6.07e-01	0	26	0	180879360	70	4399
2026-01-05 23:54:32.06	36.56	9.73	-50.6	-52.5	15.3	6.02e-01	0	26	0	182976512	70	4378
2026-01-05 23:54:33.07	36.71	9.79	-50.7	-52.6	15.3	6.05e-01	0	26	0	184549376	70	4406
2026-01-05 23:54:34.07	36.86	9.85	-50.8	-52.6	15.3	6.04e-01	0	26	0	186646528	70	4441
2026-01-05 23:54:35.06	37.02	9.91	-50.7	-52.6	15.3	6.02e-01	0	26	0	188219392	70	4416
2026-01-05 23:54:36.06	37.17	9.97	-50.7	-52.5	15.4	6.03e-01	0	26	0	190316544	70	4379
2026-01-05 23:54:37.06	37.32	10.03	-50.6	-52.5	15.4	6.04e-01	0	26	0	191889408	70	4369
2026-01-05 23:54:38.06	37.48	10.09	-50.6	-52.4	15.4	6.03e-01	0	26	0	193986560	70	4327
2026-01-05 23:54:39.06	37.64	10.15	-50.6	-52.5	15.4	6.04e-01	0	26	0	196083712	70	4368
2026-01-05 23:54:40.05	37.79	10.21	-50.6	-52.5	15.4	6.04e-01	0	26	0	197656576	70	4344
2026-01-05 23:54:41.05	37.95	10.27	-50.6	-52.5	15.4	6.03e-01	0	26	0	199753728	70	4355
2026-01-05 23:54:42.05	38.11	10.34	-50.7	-52.6	15.3	6.03e-01	0	26	0	201326592	70	4426
2026-01-05 23:54:43.05	38.26	10.40	-50.7	-52.6	15.3	6.03e-01	0	26	0	203423744	70	4411
2026-01-05 23:54:44.05	38.42	10.46	-50.7	-52.6	15.3	6.03e-01	0	26	0	204996608	70	4407
2026-01-05 23:54:45.05	38.58	10.52	-50.7	-52.5	15.3	6.04e-01	0	26	0	207093760	70	4382
2026-01-05 23:54:46.06	38.75	10.58	-50.7	-52.5	15.3	6.02e-01	0	26	0	209190912	70	4374
2026-01-05 23:54:47.06	38.91	10.64	-50.6	-52.5	15.3	6.02e-01	0	26	0	210763776	70	4364
2026-01-05 23:54:48.06	39.07	10.70	-50.5	-52.3	15.4	6.03e-01	0	26	0	212860928	70	4273
2026-01-05 23:54:49.05	39.23	10.76	-50.4	-52.2	15.4	6.02e-01	0	26	0	214433792	70	4205
2026-01-05 23:54:50.04	39.39	10.82	-50.5	-52.3	15.3	6.04e-01	0	26	0	216530944	69	4515
2026-01-05 23:54:51.03	39.55	10.88	-50.4	-52.2	15.3	6.03e-01	0	26	0	218103808	69	4487
2026-01-05 23:54:52.03	39.72	10.94	-50.5	-52.3	15.3	6.02e-01	0	26	0	220200960	69	4514
2026-01-05 23:54:53.03	39.88	11.00	-50.5	-52.3	15.3	6.05e-01	0	26	0	222298112	69	4523
2026-01-05 23:54:54.04	40.05	11.06	-50.5	-52.3	15.3	6.03e-01	0	26	0	223870976	69	4530
2026-01-05 23:54:55.04	40.22	11.12	-50.3	-52.1	15.3	6.01e-01	0	26	0	225968128	69	4415
2026-01-05 23:54:56.03	40.39	11.18	-50.2	-52.0	15.4	6.04e-01	0	26	0	227540992	69	4344
2026-01-05 23:54:57.03	40.55	11.25	-50.3	-52.1	15.3	6.02e-01	0	26	0	229638144	69	4425
2026-01-05 23:54:58.03	40.72	11.31	-50.4	-52.2	15.3	6.04e-01	0	26	0	231211008	69	4444
2026-01-05 23:54:59.03	40.89	11.37	-50.3	-52.1	15.3	6.03e-01	0	26	0	233308160	69	4423
2026-01-05 23:55:00.03	41.06	11.43	-50.3	-52.1	15.3	6.03e-01	0	26	0	235405312	69	4416
2026-01-05 23:55:01.02	41.23	11.49	-50.3	-52.1	15.3	6.03e-01	0	26	0	236978176	69	4425
2026-01-05 23:55:02.03	41.41	11.55	-50.5	-52.3	15.2	6.05e-01	0	26	0	239075328	69	4507
2026-01-05 23:55:03.03	41.58	11.61	-50.3	-52.1	15.3	6.03e-01	0	26	0	240648192	69	4411
2026-01-05 23:55:04.02	41.75	11.67	-50.4	-52.3	15.3	6.04e-01	0	26	0	242745344	69	4508
2026-01-05 23:55:05.02	41.93	11.73	-50.3	-52.1	15.3	6.03e-01	0	26	0	244318208	69	4397
2026-01-05 23:55:06.01	42.10	11.79	-50.3	-52.1	15.3	6.02e-01	0	26	0	246415360	69	4436
2026-01-05 23:55:07.02	42.28	11.85	-50.3	-52.1	15.3	6.03e-01	0	26	0	248512512	69	4405
2026-01-05 23:55:08.02	42.45	11.91	-50.3	-52.1	15.3	6.04e-01	0	26	0	250085376	69	4440
2026-01-05 23:55:09.02	42.63	11.97	-50.2	-52.0	15.4	6.02e-01	0	26	0	252182528	69	4347
2026-01-05 23:55:10.02	42.81	12.03	-50.0	-51.7	15.4	6.01e-01	0	26	0	253755392	69	4235
2026-01-05 23:55:11.01	42.99	12.09	-50.0	-51.7	15.4	6.04e-01	0	26	0	255852544	69	4239
2026-01-05 23:55:12.01	43.17	12.15	-50.1	-51.8	15.4	6.02e-01	0	26	0	257425408	69	4265
2026-01-05 23:55:13.01	43.35	12.20	-50.1	-51.8	15.4	6.03e-01	0	26	0	259522560	69	4291
2026-01-05 23:55:14.01	43.53	12.26	-50.1	-51.8	15.4	6.02e-01	0	26	0	261095424	69	4290
2026-01-05 23:55:15.01	43.71	12.32	-50.1	-51.9	15.4	6.03e-01	0	26	0	263192576	69	4300
2026-01-05 23:55:16.00	43.89	12.38	-50.1	-51.8	15.4	6.02e-01	0	26	0	265289728	69	4285
2026-01-05 23:55:17.00	44.08	12.44	-50.1	-51.8	15.4	6.04e-01	0	26	0	266862592	69	4291
2026-01-05 23:55:17.99	44.26	12.50	-50.0	-51.7	15.5	6.03e-01	0	26	0	268959744	69	4230
2026-01-05 23:55:18.98	44.44	12.56	-50.0	-51.7	15.4	6.04e-01	0	26	0	270532608	69	4240
2026-01-05 23:55:19.98	44.63	12.62	-50.1	-51.8	15.4	6.02e-01	0	26	0	272629760	69	4269
2026-01-05 23:55:20.98	44.81	12.68	-50.1	-51.8	15.4	6.03e-01	0	26	0	274726912	69	4291
2026-01-05 23:55:21.97	45.00	12.73	-50.2	-52.0	15.4	6.02e-01	0	26	0	276299776	69	4345
2026-01-05 23:55:22.97	45.19	12.79	-50.1	-51.8	15.4	6.03e-01	0	26	0	278396928	69	4288
2026-01-05 23:55:23.96	45.37	12.85	-50.1	-51.8	15.4	6.02e-01	0	26	0	279969792	69	4260
2026-01-05 23:55:24.96	45.56	12.91	-50.0	-51.8	15.4	6.04e-01	0	26	0	282066944	69	4250
2026-01-05 23:55:25.96	45.75	12.97	-49.9	-51.6	15.5	6.02e-01	0	26	0	283639808	69	4183
2026-01-05 23:55:26.97	45.95	13.03	-49.9	-51.6	15.3	6.05e-01	0	26	0	285736960	68	4427
2026-01-05 23:55:27.96	46.14	13.08	-49.8	-51.6	15.3	6.04e-01	0	26	0	287834112	68	4393
2026-01-05 23:55:28.96	46.33	13.14	-49.9	-51.6	15.4	6.04e-01	0	26	0	289406976	68	4412
2026-01-05 23:55:29.96	46.52	13.20	-49.9	-51.6	15.3	6.04e-01	0	26	0	291504128	68	4434
2026-01-05 23:55:30.96	46.72	13.26	-49.8	-51.5	15.4	6.04e-01	0	26	0	293076992	68	4372
2026-01-05 23:55:31.95	46.91	13.31	-49.9	-51.6	15.3	6.04e-01	0	26	0	295174144	68	4431
2026-01-05 23:55:32.95	47.11	13.37	-50.0	-51.8	15.3	6.04e-01	0	26	0	296747008	68	4495
2026-01-05 23:55:33.95	47.30	13.43	-49.9	-51.7	15.3	6.05e-01	0	26	0	298844160	68	4444
2026-01-05 23:55:34.95	47.50	13.49	-49.9	-51.6	15.4	6.05e-01	0	26	0	300417024	68	4398
2026-01-05 23:55:35.95	47.70	13.54	-49.9	-51.7	15.3	6.03e-01	0	26	0	302514176	68	4456
2026-01-05 23:55:36.94	47.90	13.60	-50.0	-51.8	15.3	6.03e-01	0	26	0	304611328	68	4501
2026-01-05 23:55:37.94	48.10	13.66	-49.9	-51.6	15.4	6.03e-01	0	26	0	306184192	68	4408
2026-01-05 23:55:38.93	48.30	13.71	-49.8	-51.5	15.4	6.04e-01	0	26	0	308281344	68	4373
2026-01-05 23:55:39.93	48.50	13.77	-49.8	-51.5	15.4	6.05e-01	0	26	0	309854208	68	4374
2026-01-05 23:55:40.91	48.70	13.82	-49.7	-51.4	15.4	6.04e-01	0	26	0	311951360	68	4306
2026-01-05 23:55:41.90	48.90	13.88	-49.7	-51.4	15.4	6.04e-01	0	26	0	313524224	68	4293
2026-01-05 23:55:42.90	49.10	13.93	-49.7	-51.4	15.4	6.04e-01	0	26	0	315621376	68	4312
2026-01-05 23:55:43.90	49.31	13.99	-49.8	-51.5	15.4	6.06e-01	0	26	0	317194240	68	4349
2026-01-05 23:55:44.90	49.51	14.05	-49.8	-51.5	15.4	6.04e-01	0	26	0	319291392	68	4348
2026-01-05 23:55:45.89	49.72	14.10	-49.9	-51.6	15.4	6.04e-01	0	26	0	321388544	68	4405
2026-01-05 23:55:46.89	49.92	14.16	-49.8	-51.5	15.4	6.05e-01	0	26	0	322961408	68	4343
2026-01-05 23:55:47.89	50.13	14.21	-49.8	-51.5	15.4	6.03e-01	0	26	0	325058560	68	4355
2026-01-05 23:55:48.89	50.34	14.27	-49.8	-51.5	15.4	5.99e-01	0	26	0	326631424	68	4391
2026-01-05 23:55:49.88	50.55	14.32	-50.0	-51.7	15.3	6.03e-01	0	26	0	328728576	68	4451
2026-01-05 23:55:50.87	50.76	14.37	-49.9	-51.6	15.4	6.02e-01	0	26	0	330301440	68	4408
2026-01-05 23:55:51.87	50.97	14.43	-49.8	-51.5	15.4	6.03e-01	0	26	0	332398592	68	4347
2026-01-05 23:55:52.87	51.18	14.48	-49.7	-51.4	15.4	6.02e-01	0	26	0	334495744	68	4329
2026-01-05 23:55:53.87	51.39	14.53	-49.7	-51.4	15.4	6.05e-01	0	26	0	336068608	68	4326
2026-01-05 23:55:54.87	51.61	14.59	-49.7	-51.4	15.4	6.03e-01	0	26	0	338165760	68	4328
2026-01-05 23:55:55.87	51.82	14.64	-49.7	-51.4	15.4	6.03e-01	0	26	0	339738624	68	4333
2026-01-05 23:55:56.88	52.04	14.70	-49.7	-51.4	15.4	6.04e-01	0	26	0	341835776	68	4317
2026-01-05 23:55:57.88	52.25	14.75	-49.8	-51.5	15.4	6.03e-01	0	26	0	343408640	68	4363
2026-01-05 23:55:58.88	52.47	14.80	-49.9	-51.5	15.4	6.04e-01	0	26	0	345505792	68	4387
2026-01-05 23:55:59.87	52.69	14.85	-49.8	-51.4	15.4	6.04e-01	0	26	0	347602944	68	4331
2026-01-05 23:56:00.87	52.90	14.90	-49.7	-51.4	15.4	6.02e-01	0	26	0	349175808	68	4331
2026-01-05 23:56:01.87	53.12	14.96	-49.8	-51.5	15.4	6.03e-01	0	26	0	351272960	68	4355
2026-01-05 23:56:02.87	53.34	15.01	-49.9	-51.6	15.4	6.03e-01	0	26	0	352845824	68	4395
2026-01-05 23:56:03.87	53.56	15.06	-49.8	-51.5	15.4	6.03e-01	0	26	0	354942976	68	4342
2026-01-05 23:56:04.86	53.78	15.11	-49.7	-51.4	15.4	6.03e-01	0	26	0	357040128	68	4305
2026-01-05 23:56:05.86	54.01	15.16	-49.8	-51.4	15.4	6.03e-01	0	26	0	358612992	68	4335
2026-01-05 23:56:06.85	54.23	15.21	-49.7	-51.3	15.4	6.07e-01	0	26	0	360185856	68	4273
2026-01-05 23:56:07.86	54.45	15.26	-49.6	-51.3	15.4	6.04e-01	0	26	0	362283008	68	4267
2026-01-05 23:56:08.85	54.68	15.31	-49.7	-51.4	15.4	6.02e-01	0	26	0	364380160	68	4307
2026-01-05 23:56:09.84	54.90	15.36	-49.7	-51.4	15.4	6.03e-01	0	26	0	365953024	68	4329
2026-01-05 23:56:10.84	55.12	15.41	-49.9	-51.6	15.4	6.03e-01	0	26	0	368050176	68	4400
2026-01-05 23:56:11.84	55.35	15.46	-49.9	-51.6	15.3	6.05e-01	0	26	0	369623040	68	4441
2026-01-05 23:56:12.83	55.58	15.51	-49.8	-51.5	15.4	6.04e-01	0	26	0	371720192	68	4369
2026-01-05 23:56:13.83	55.81	15.56	-49.8	-51.5	15.4	6.05e-01	0	26	0	373817344	68	4343
2026-01-05 23:56:14.84	56.04	15.60	-49.7	-51.4	15.4	6.03e-01	0	26	0	375390208	68	4314
2026-01-05 23:56:15.83	56.27	15.65	-49.7	-51.3	15.4	6.03e-01	0	26	0	377487360	68	4276
2026-01-05 23:56:16.83	56.50	15.70	-49.6	-51.2	15.5	6.01e-01	0	26	0	379060224	68	4228
2026-01-05 23:56:17.83	56.73	15.75	-49.6	-51.3	15.4	6.05e-01	0	26	0	381157376	68	4245
2026-01-05 23:56:18.82	56.96	15.79	-49.7	-51.4	15.4	6.04e-01	0	26	0	382730240	68	4305
2026-01-05 23:56:19.81	57.19	15.84	-49.7	-51.3	15.4	6.03e-01	0	26	0	384827392	68	4286
2026-01-05 23:56:20.81	57.42	15.89	-49.7	-51.3	15.4	6.04e-01	0	26	0	386924544	68	4285
2026-01-05 23:56:21.81	57.66	15.93	-49.7	-51.4	15.4	6.03e-01	0	26	0	388497408	68	4298
2026-01-05 23:56:22.81	57.89	15.98	-49.6	-51.3	15.5	6.03e-01	0	27	0	390594560	68	4263
2026-01-05 23:56:23.80	58.13	16.02	-49.7	-51.4	15.4	6.02e-01	0	26	0	392167424	68	4293
2026-01-05 23:56:24.81	58.37	16.07	-49.7	-51.3	15.4	6.04e-01	0	26	0	394264576	68	4279
2026-01-05 23:56:25.80	58.60	16.11	-49.7	-51.4	15.4	6.04e-01	0	26	0	395837440	68	4296
2026-01-05 23:56:26.79	58.84	16.16	-49.7	-51.4	15.4	6.02e-01	0	26	0	397934592	68	4335
2026-01-05 23:56:27.79	59.08	16.20	-49.7	-51.4	15.4	6.05e-01	0	26	0	399507456	68	4317
2026-01-05 23:56:28.78	59.32	16.24	-49.7	-51.4	15.4	6.00e-01	0	26	0	401604608	68	4321
2026-01-05 23:56:29.77	59.55	16.29	-49.8	-51.5	15.4	6.04e-01	0	26	0	403701760	68	4357
2026-01-05 23:56:30.77	59.79	16.33	-49.7	-51.4	15.4	6.02e-01	0	26	0	405274624	68	4313
2026-01-05 23:56:31.76	60.03	16.37	-49.9	-51.6	15.4	6.04e-01	0	26	0	407371776	68	4408
2026-01-05 23:56:32.76	60.28	16.41	-49.9	-51.6	15.4	6.04e-01	0	26	0	408944640	68	4405
2026-01-05 23:56:33.76	60.52	16.46	-49.7	-51.3	15.4	6.03e-01	0	26	0	411041792	68	4274
2026-01-05 23:56:34.76	60.76	16.50	-49.7	-51.4	15.4	6.04e-01	0	26	0	412614656	68	4317
2026-01-05 23:56:35.76	61.01	16.54	-49.7	-51.4	15.4	6.02e-01	0	26	0	414711808	68	4302
2026-01-05 23:56:36.75	61.25	16.58	-49.7	-51.4	15.4	6.04e-01	0	26	0	416284672	68	4313
2026-01-05 23:56:37.76	61.50	16.62	-49.8	-51.4	15.4	6.02e-01	0	26	0	418381824	68	4330
2026-01-05 23:56:38.76	61.75	16.66	-49.9	-51.5	15.4	6.02e-01	0	26	0	420478976	68	4384
2026-01-05 23:56:39.75	61.99	16.70	-49.8	-51.5	15.4	6.04e-01	0	26	0	422051840	68	4370
2026-01-05 23:56:40.75	62.24	16.74	-49.8	-51.5	15.4	6.04e-01	0	26	0	424148992	68	4353
2026-01-05 23:56:41.73	62.49	16.77	-49.8	-51.5	15.4	6.04e-01	0	26	0	425721856	68	4369
2026-01-05 23:56:42.73	62.74	16.81	-49.8	-51.5	15.4	6.03e-01	0	26	0	427819008	68	4356
2026-01-05 23:56:43.72	62.98	16.85	-49.8	-51.4	15.4	6.04e-01	0	26	0	429391872	68	4339
2026-01-05 23:56:44.72	63.23	16.89	-49.7	-51.4	15.4	6.02e-01	0	26	0	431489024	68	4313
2026-01-05 23:56:45.71	63.48	16.92	-49.7	-51.3	15.4	6.02e-01	0	27	0	433586176	68	4283
2026-01-05 23:56:46.71	63.74	16.96	-49.6	-51.3	15.5	6.04e-01	0	27	0	435159040	68	4263
2026-01-05 23:56:47.71	63.99	16.99	-49.7	-51.4	15.4	6.03e-01	0	26	0	437256192	68	4306
2026-01-05 23:56:48.71	64.24	17.03	-49.6	-51.3	15.5	6.04e-01	0	26	0	438829056	68	4253
2026-01-05 23:56:49.72	64.50	17.06	-49.8	-51.5	15.4	6.04e-01	0	26	0	440926208	68	4352
2026-01-05 23:56:50.72	64.75	17.10	-49.7	-51.4	15.4	6.04e-01	0	26	0	442499072	68	4314
2026-01-05 23:56:51.72	65.01	17.13	-49.7	-51.3	15.4	6.02e-01	0	26	0	444596224	68	4280
2026-01-05 23:56:52.71	65.26	17.17	-49.7	-51.3	15.4	6.04e-01	0	26	0	446693376	68	4291
2026-01-05 23:56:53.71	65.52	17.20	-49.7	-51.3	15.4	6.04e-01	0	26	0	448266240	68	4289
2026-01-05 23:56:54.71	65.78	17.23	-49.6	-51.3	15.4	6.05e-01	0	26	0	450363392	68	4262
2026-01-05 23:56:55.72	66.04	17.26	-49.7	-51.3	15.4	6.05e-01	0	26	0	451936256	68	4290
2026-01-05 23:56:56.71	66.29	17.30	-49.8	-51.4	15.4	6.03e-01	0	26	0	454033408	68	4340
2026-01-05 23:56:57.71	66.55	17.33	-49.6	-51.3	15.4	6.04e-01	0	26	0	455606272	68	4256
2026-01-05 23:56:58.70	66.81	17.36	-49.7	-51.4	15.4	6.03e-01	0	26	0	457703424	68	4296
2026-01-05 23:56:59.71	67.07	17.39	-49.7	-51.4	15.4	6.02e-01	0	26	0	459276288	68	4300
2026-01-05 23:57:00.70	67.33	17.42	-49.8	-51.4	15.4	6.03e-01	0	26	0	461373440	68	4338
2026-01-05 23:57:01.70	67.59	17.45	-49.9	-51.6	15.3	6.03e-01	0	26	0	463470592	68	4392
2026-01-05 23:57:02.70	67.85	17.47	-49.7	-51.4	15.4	6.03e-01	0	26	0	465043456	68	4311
2026-01-05 23:57:03.70	68.11	17.50	-49.7	-51.4	15.4	6.04e-01	0	26	0	467140608	68	4309
2026-01-05 23:57:04.69	68.37	17.53	-49.8	-51.5	15.4	6.04e-01	0	26	0	468713472	68	4375
2026-01-05 23:57:05.68	68.63	17.56	-49.9	-51.6	15.3	6.01e-01	0	26	0	470810624	68	4412
2026-01-05 23:57:06.68	68.90	17.58	-49.8	-51.5	15.4	6.04e-01	0	26	0	472907776	68	4355
2026-01-05 23:57:07.67	69.16	17.61	-49.7	-51.4	15.4	6.02e-01	0	26	0	474480640	68	4322
2026-01-05 23:57:08.67	69.42	17.63	-49.8	-51.4	15.4	6.06e-01	0	26	0	476577792	68	4327
2026-01-05 23:57:09.67	69.69	17.66	-49.8	-51.5	15.4	6.03e-01	0	26	0	478150656	68	4356
2026-01-05 23:57:10.66	69.95	17.68	-49.7	-51.4	15.4	6.04e-01	0	26	0	480247808	68	4319
2026-01-05 23:57:11.66	70.22	17.71	-49.7	-51.4	15.4	6.05e-01	0	26	0	481820672	68	4321
2026-01-05 23:57:12.66	70.48	17.73	-49.8	-51.4	15.4	6.01e-01	0	26	0	483917824	68	4331
2026-01-05 23:57:13.66	70.75	17.75	-49.8	-51.5	15.4	6.03e-01	0	26	0	486014976	68	4345
2026-01-05 23:57:14.65	71.01	17.78	-49.8	-51.4	15.4	6.04e-01	0	26	0	487587840	68	4338
2026-01-05 23:57:15.64	71.28	17.80	-49.7	-51.3	15.4	6.01e-01	0	26	0	489684992	68	4280
2026-01-05 23:57:16.63	71.54	17.82	-49.8	-51.5	15.4	6.04e-01	0	26	0	491257856	68	4362
2026-01-05 23:57:17.63	71.81	17.84	-49.8	-51.5	15.4	6.02e-01	0	26	0	493355008	68	4347
2026-01-05 23:57:18.63	72.08	17.86	-49.6	-51.3	15.4	6.03e-01	0	26	0	494927872	68	4256
2026-01-05 23:57:19.63	72.35	17.88	-49.6	-51.3	15.4	6.01e-01	0	26	0	497025024	68	4258
2026-01-05 23:57:20.63	72.62	17.90	-49.7	-51.3	15.4	6.04e-01	0	26	0	498597888	68	4282
2026-01-05 23:57:21.63	72.89	17.92	-49.7	-51.4	15.4	6.03e-01	0	26	0	500695040	68	4330
2026-01-05 23:57:22.62	73.16	17.93	-49.6	-51.3	15.4	6.00e-01	0	26	0	502792192	68	4267
2026-01-05 23:57:23.61	73.42	17.95	-49.7	-51.3	15.4	6.04e-01	0	26	0	504365056	68	4280
2026-01-05 23:57:24.61	73.69	17.97	-49.7	-51.3	15.4	6.02e-01	0	26	0	506462208	68	4280
2026-01-05 23:57:25.61	73.96	17.98	-49.7	-51.4	15.4	6.03e-01	0	26	0	508035072	68	4303
2026-01-05 23:57:26.61	74.24	18.00	-49.7	-51.4	15.4	6.03e-01	0	26	0	510132224	68	4317
2026-01-05 23:57:27.60	74.50	18.01	-49.9	-51.6	15.3	6.05e-01	0	26	0	511705088	68	4407
2026-01-05 23:57:28.60	74.78	18.03	-49.7	-51.4	15.4	6.04e-01	0	26	0	513802240	68	4315
2026-01-05 23:57:29.60	75.05	18.04	-49.7	-51.3	15.4	6.03e-01	0	26	0	515375104	68	4291
2026-01-05 23:57:30.60	75.32	18.05	-49.7	-51.3	15.4	6.03e-01	0	26	0	517472256	68	4284
2026-01-05 23:57:31.60	75.59	18.07	-49.8	-51.4	15.4	6.03e-01	0	26	0	519569408	68	4327
2026-01-05 23:57:32.59	75.86	18.08	-49.8	-51.4	15.4	6.02e-01	0	26	0	521142272	68	4328
2026-01-05 23:57:33.58	76.13	18.09	-49.7	-51.4	15.4	6.04e-01	0	26	0	523239424	68	4304
2026-01-05 23:57:34.58	76.41	18.10	-49.7	-51.3	15.4	6.03e-01	0	26	0	524812288	68	4283
2026-01-05 23:57:35.58	76.68	18.11	-49.7	-51.3	15.4	6.03e-01	0	26	0	526909440	68	4270
2026-01-05 23:57:36.57	76.95	18.12	-49.7	-51.3	15.4	6.03e-01	0	26	0	528482304	68	4281
2026-01-05 23:57:37.57	77.23	18.13	-49.8	-51.4	15.4	6.02e-01	0	26	0	530579456	68	4328
2026-01-05 23:57:38.57	77.50	18.14	-49.6	-51.3	15.4	6.02e-01	0	26	0	532676608	68	4243
2026-01-05 23:57:39.56	77.77	18.14	-49.7	-51.3	15.4	6.03e-01	0	26	0	534249472	68	4280
2026-01-05 23:57:40.56	78.05	18.15	-49.6	-51.2	15.5	6.01e-01	0	26	0	536346624	68	4237
2026-01-05 23:57:41.55	78.32	18.16	-49.6	-51.3	15.5	6.03e-01	0	26	0	537919488	68	4246
2026-01-05 23:57:42.55	78.59	18.16	-49.6	-51.3	15.5	6.03e-01	0	26	0	540016640	68	4244
2026-01-05 23:57:43.55	78.87	18.17	-49.7	-51.3	15.4	6.03e-01	0	26	0	541589504	68	4286
2026-01-05 23:57:44.55	79.14	18.17	-49.6	-51.3	15.4	6.04e-01	0	26	0	543686656	68	4251
2026-01-05 23:57:45.54	79.41	18.18	-49.6	-51.3	15.5	6.05e-01	0	26	0	545259520	68	4244
2026-01-05 23:57:46.54	79.69	18.18	-49.7	-51.4	15.4	6.03e-01	0	26	0	547356672	68	4292
2026-01-05 23:57:47.55	79.97	18.18	-49.6	-51.3	15.4	6.05e-01	0	26	0	549453824	68	4261
2026-01-05 23:57:48.54	80.24	18.19	-49.6	-51.2	15.5	6.04e-01	0	26	0	551026688	68	4222
2026-01-05 23:57:49.53	80.51	18.19	-49.7	-51.4	15.4	6.00e-01	0	26	0	553123840	68	4297
2026-01-05 23:57:50.53	80.79	18.19	-49.6	-51.3	15.4	6.02e-01	0	26	0	554696704	68	4267
2026-01-05 23:57:51.54	81.06	18.19	-49.7	-51.4	15.4	6.04e-01	0	26	0	556793856	68	4325
2026-01-05 23:57:52.54	81.34	18.19	-49.8	-51.5	15.4	6.03e-01	0	26	0	558366720	68	4366
2026-01-05 23:57:53.53	81.61	18.19	-49.6	-51.3	15.5	6.01e-01	0	26	0	560463872	68	4270
2026-01-05 23:57:54.53	81.89	18.19	-49.7	-51.3	15.4	6.03e-01	0	26	0	562561024	68	4282
2026-01-05 23:57:55.53	82.16	18.19	-49.6	-51.3	15.4	6.03e-01	0	26	0	564133888	68	4264
2026-01-05 23:57:56.52	82.43	18.18	-49.7	-51.4	15.4	6.02e-01	0	26	0	566231040	68	4314
2026-01-05 23:57:57.52	82.71	18.18	-49.8	-51.5	15.4	6.03e-01	0	26	0	567803904	68	4364
2026-01-05 23:57:58.52	82.98	18.18	-49.7	-51.4	15.4	6.01e-01	0	26	0	569901056	68	4323
2026-01-05 23:57:59.52	83.26	18.17	-49.7	-51.4	15.4	6.03e-01	0	26	0	571998208	68	4312
2026-01-05 23:58:00.51	83.53	18.17	-49.8	-51.5	15.4	6.04e-01	0	26	0	573571072	68	4342
2026-01-05 23:58:01.51	83.81	18.16	-49.7	-51.4	15.4	6.04e-01	0	26	0	575143936	68	4317
2026-01-05 23:58:02.51	84.08	18.15	-49.8	-51.4	15.4	6.04e-01	0	26	0	577241088	68	4336
2026-01-05 23:58:03.50	84.35	18.15	-49.7	-51.3	15.4	6.04e-01	0	26	0	579338240	68	4286
2026-01-05 23:58:04.49	84.62	18.14	-49.7	-51.4	15.4	6.03e-01	0	26	0	580911104	68	4300
2026-01-05 23:58:05.48	84.90	18.13	-49.7	-51.4	15.4	6.01e-01	0	26	0	583008256	68	4316
2026-01-05 23:58:06.48	85.17	18.12	-49.7	-51.3	15.4	6.04e-01	0	26	0	584581120	68	4280
2026-01-05 23:58:07.47	85.44	18.11	-49.5	-51.2	15.5	6.02e-01	0	26	0	586678272	68	4212
2026-01-05 23:58:08.47	85.72	18.10	-49.6	-51.2	15.5	6.02e-01	0	26	0	588775424	68	4220
2026-01-05 23:58:09.47	85.99	18.09	-49.6	-51.2	15.5	6.03e-01	0	26	0	590348288	68	4217
2026-01-05 23:58:10.46	86.26	18.08	-49.6	-51.2	15.5	6.04e-01	0	26	0	592445440	68	4230
2026-01-05 23:58:11.45	86.53	18.07	-49.6	-51.2	15.5	6.05e-01	0	26	0	594018304	68	4241
2026-01-05 23:58:12.45	86.80	18.06	-49.6	-51.2	15.5	6.03e-01	0	26	0	596115456	68	4215
2026-01-05 23:58:13.44	87.07	18.04	-49.6	-51.3	15.4	6.03e-01	0	26	0	597688320	68	4257
2026-01-05 23:58:14.43	87.34	18.03	-49.6	-51.2	15.4	6.03e-01	0	26	0	599785472	68	4230
2026-01-05 23:58:15.42	87.61	18.02	-49.5	-51.1	15.5	6.02e-01	0	26	0	601358336	68	4167
2026-01-05 23:58:16.42	87.88	18.00	-49.5	-51.2	15.5	6.03e-01	0	26	0	603455488	68	4197
2026-01-05 23:58:17.42	88.16	17.99	-49.7	-51.3	15.4	6.02e-01	0	26	0	605552640	68	4285
2026-01-05 23:58:18.41	88.42	17.97	-49.6	-51.3	15.5	6.03e-01	0	26	0	607125504	68	4252
2026-01-05 23:58:19.42	88.70	17.96	-49.6	-51.3	15.4	6.03e-01	0	26	0	609222656	68	4245
2026-01-05 23:58:20.42	88.97	17.94	-49.5	-51.1	15.5	6.04e-01	0	26	0	610795520	68	4186
2026-01-05 23:58:21.41	89.24	17.92	-49.5	-51.1	15.5	6.05e-01	0	26	0	612892672	68	4193
2026-01-05 23:58:22.41	89.51	17.90	-49.7	-51.3	15.4	6.01e-01	0	26	0	614465536	68	4281
2026-01-05 23:58:23.40	89.77	17.88	-49.6	-51.3	15.4	6.02e-01	0	26	0	616562688	68	4246
2026-01-05 23:58:24.39	90.04	17.86	-49.5	-51.1	15.5	6.03e-01	0	26	0	618135552	68	4183
2026-01-05 23:58:25.39	90.31	17.85	-49.5	-51.2	15.5	6.03e-01	0	26	0	620232704	68	4200
2026-01-05 23:58:26.38	90.58	17.82	-49.5	-51.2	15.5	6.03e-01	0	26	0	622329856	68	4200
2026-01-05 23:58:27.37	90.84	17.80	-49.5	-51.1	15.5	6.04e-01	0	26	0	623902720	68	4190
2026-01-05 23:58:28.37	91.11	17.78	-49.5	-51.1	15.5	6.03e-01	0	26	0	625999872	68	4161
2026-01-05 23:58:29.36	91.38	17.76	-49.4	-51.0	15.6	6.03e-01	0	26	0	627572736	68	4130
2026-01-05 23:58:30.36	91.64	17.74	-49.5	-51.2	15.5	6.02e-01	0	26	0	629669888	68	4201
2026-01-05 23:58:31.37	91.91	17.71	-49.6	-51.2	15.5	6.04e-01	0	26	0	631242752	68	4241
2026-01-05 23:58:32.36	92.18	17.69	-49.6	-51.2	15.5	6.03e-01	0	26	0	633339904	68	4223
2026-01-05 23:58:33.36	92.44	17.67	-49.5	-51.2	15.5	6.05e-01	0	26	0	635437056	68	4204
2026-01-05 23:58:34.35	92.70	17.64	-49.5	-51.1	15.5	6.05e-01	0	26	0	637009920	68	4178
2026-01-05 23:58:35.34	92.97	17.62	-49.5	-51.2	15.5	6.03e-01	0	26	0	639107072	68	4194
2026-01-05 23:58:36.34	93.23	17.59	-49.6	-51.2	15.5	6.03e-01	0	26	0	640679936	68	4232
2026-01-05 23:58:37.34	93.50	17.56	-49.6	-51.2	15.5	6.02e-01	0	26	0	642777088	68	4221
2026-01-05 23:58:38.34	93.76	17.54	-49.6	-51.2	15.5	6.05e-01	0	26	0	644349952	68	4228
2026-01-05 23:58:39.34	94.02	17.51	-49.6	-51.3	15.5	6.05e-01	0	26	0	646447104	68	4260
2026-01-05 23:58:40.34	94.29	17.48	-49.4	-51.0	15.5	6.03e-01	0	26	0	648019968	68	4140
2026-01-05 23:58:41.34	94.55	17.45	-49.4	-51.0	15.5	6.02e-01	0	26	0	650117120	68	4133
2026-01-05 23:58:42.34	94.81	17.42	-49.5	-51.1	15.5	6.02e-01	0	26	0	652214272	68	4177
2026-01-05 23:58:43.34	95.07	17.39	-49.6	-51.2	15.5	6.04e-01	0	26	0	653787136	68	4234
2026-01-05 23:58:44.34	95.33	17.36	-49.5	-51.1	15.5	6.04e-01	0	26	0	655884288	68	4191
2026-01-05 23:58:45.34	95.59	17.33	-49.5	-51.1	15.5	6.03e-01	0	26	0	657457152	68	4165
2026-01-05 23:58:46.34	95.85	17.30	-49.4	-51.1	15.5	6.03e-01	0	26	0	659554304	68	4153
2026-01-05 23:58:47.34	96.11	17.27	-49.5	-51.2	15.5	6.04e-01	0	26	0	661127168	68	4206
2026-01-05 23:58:48.34	96.37	17.24	-49.6	-51.2	15.4	6.05e-01	0	26	0	663224320	68	4230
2026-01-05 23:58:49.33	96.62	17.21	-49.5	-51.1	15.5	6.02e-01	0	26	0	665321472	68	4193
2026-01-05 23:58:50.34	96.88	17.17	-49.5	-51.1	15.5	6.05e-01	0	26	0	666894336	68	4179
2026-01-05 23:58:51.34	97.14	17.14	-49.6	-51.2	15.5	6.03e-01	0	26	0	668991488	68	4237
2026-01-05 23:58:52.34	97.40	17.11	-49.4	-51.0	15.5	6.01e-01	0	26	0	670564352	68	4145
2026-01-05 23:58:53.33	97.65	17.07	-49.5	-51.1	15.5	6.03e-01	0	26	0	672661504	68	4160
2026-01-05 23:58:54.33	97.90	17.04	-49.5	-51.1	15.5	6.03e-01	0	26	0	674234368	68	4170
2026-01-05 23:58:55.33	98.16	17.00	-49.5	-51.1	15.5	6.04e-01	0	26	0	676331520	68	4169
2026-01-05 23:58:56.34	98.41	16.97	-49.5	-51.1	15.5	6.05e-01	0	26	0	678428672	68	4165
2026-01-05 23:58:57.34	98.67	16.93	-49.5	-51.2	15.5	6.03e-01	0	26	0	680001536	68	4209
2026-01-05 23:58:58.34	98.92	16.89	-49.5	-51.1	15.5	6.03e-01	0	26	0	682098688	68	4169
2026-01-05 23:58:59.34	99.17	16.86	-49.5	-51.1	15.5	6.04e-01	0	26	0	683671552	68	4190
2026-01-05 23:59:00.33	99.42	16.82	-49.5	-51.1	15.5	6.03e-01	0	26	0	685768704	68	4164
2026-01-05 23:59:01.34	99.67	16.78	-49.5	-51.1	15.5	6.01e-01	0	26	0	687865856	68	4161
2026-01-05 23:59:02.34	99.92	16.74	-49.5	-51.1	15.5	6.04e-01	0	26	0	689438720	68	4159
2026-01-05 23:59:03.33	100.17	16.70	-49.5	-51.1	15.5	6.01e-01	0	27	0	691535872	68	4193
2026-01-05 23:59:04.33	100.42	16.66	-49.4	-51.1	15.5	6.02e-01	0	26	0	693108736	68	4146
2026-01-05 23:59:05.32	100.66	16.62	-49.4	-51.0	15.5	6.04e-01	0	26	0	695205888	68	4128
2026-01-05 23:59:06.32	100.91	16.58	-49.5	-51.1	15.5	6.02e-01	0	26	0	696778752	68	4193
2026-01-05 23:59:07.33	101.16	16.54	-49.5	-51.1	15.5	6.03e-01	0	26	0	698875904	68	4193
2026-01-05 23:59:08.32	101.40	16.50	-49.5	-51.1	15.5	6.03e-01	0	26	0	700973056	68	4177
2026-01-05 23:59:09.32	101.65	16.46	-49.4	-51.1	15.5	6.04e-01	0	26	0	702545920	68	4153
2026-01-05 23:59:10.31	101.89	16.42	-49.4	-51.0	15.5	6.03e-01	0	26	0	704643072	68	4140
2026-01-05 23:59:11.31	102.13	16.38	-49.4	-51.1	15.5	6.02e-01	0	26	0	706215936	68	4151
2026-01-05 23:59:12.31	102.38	16.33	-49.5	-51.1	15.5	6.05e-01	0	26	0	708313088	68	4186
2026-01-05 23:59:13.31	102.62	16.29	-49.4	-51.1	15.5	6.01e-01	0	26	0	709885952	68	4147
2026-01-05 23:59:14.32	102.86	16.25	-49.4	-51.0	15.5	6.04e-01	0	26	0	711983104	68	4143
2026-01-05 23:59:15.31	103.10	16.20	-49.5	-51.2	15.5	6.05e-01	0	26	0	714080256	68	4212
2026-01-05 23:59:16.31	103.34	16.16	-49.6	-51.2	15.5	6.04e-01	0	26	0	715653120	68	4222
2026-01-05 23:59:17.31	103.58	16.12	-49.5	-51.2	15.5	6.04e-01	0	26	0	717750272	68	4203
2026-01-05 23:59:18.30	103.82	16.07	-49.6	-51.3	15.4	6.01e-01	0	26	0	719323136	68	4244
2026-01-05 23:59:19.30	104.06	16.03	-49.5	-51.1	15.5	6.02e-01	0	26	0	721420288	68	4186
2026-01-05 23:59:20.30	104.29	15.98	-49.5	-51.2	15.5	6.04e-01	0	26	0	722993152	68	4194
2026-01-05 23:59:21.30	104.53	15.93	-49.4	-51.0	15.5	6.05e-01	0	26	0	725090304	68	4130
2026-01-05 23:59:22.30	104.77	15.89	-49.4	-51.1	15.4	6.02e-01	0	26	0	726663168	67	4397
2026-01-05 23:59:23.30	105.00	15.84	-49.4	-51.1	15.4	6.02e-01	0	26	0	728760320	67	4408
2026-01-05 23:59:24.30	105.23	15.79	-49.6	-51.3	15.3	6.02e-01	0	26	0	730857472	67	4497
2026-01-05 23:59:25.30	105.47	15.75	-49.5	-51.2	15.3	6.02e-01	0	26	0	732430336	67	4461
2026-01-05 23:59:26.30	105.70	15.70	-49.6	-51.3	15.3	6.03e-01	0	26	0	734527488	67	4497
2026-01-05 23:59:27.30	105.93	15.65	-49.5	-51.2	15.3	6.05e-01	0	26	0	736100352	67	4459
2026-01-05 23:59:28.30	106.16	15.60	-49.5	-51.1	15.4	6.03e-01	0	26	0	738197504	67	4426
2026-01-05 23:59:29.30	106.39	15.56	-49.5	-51.1	15.4	6.03e-01	0	26	0	739770368	67	4430
2026-01-05 23:59:30.30	106.62	15.51	-49.4	-51.1	15.4	6.02e-01	0	26	0	741867520	67	4401
2026-01-05 23:59:31.30	106.85	15.46	-49.3	-50.9	15.4	6.03e-01	0	26	0	743964672	67	4328
2026-01-05 23:59:32.30	107.08	15.41	-49.3	-50.9	15.4	6.05e-01	0	26	0	745537536	67	4331
2026-01-05 23:59:33.30	107.31	15.36	-49.4	-51.1	15.4	6.03e-01	0	26	0	747634688	67	4406
2026-01-05 23:59:34.30	107.53	15.31	-49.5	-51.2	15.3	6.05e-01	0	26	0	749207552	67	4461
2026-01-05 23:59:35.30	107.76	15.26	-49.6	-51.2	15.3	6.04e-01	0	26	0	751304704	67	4477
2026-01-05 23:59:36.30	107.98	15.21	-49.4	-51.1	15.3	6.05e-01	0	26	0	753401856	67	4416
2026-01-05 23:59:37.30	108.21	15.16	-49.4	-51.0	15.4	6.03e-01	0	26	0	754974720	67	4376
2026-01-05 23:59:38.30	108.43	15.11	-49.4	-51.0	15.4	6.03e-01	0	26	0	757071872	67	4385
2026-01-05 23:59:39.30	108.65	15.05	-49.4	-51.1	15.4	6.05e-01	0	26	0	758644736	67	4404
2026-01-05 23:59:40.30	108.88	15.00	-49.6	-51.3	15.3	6.04e-01	0	26	0	760741888	67	4511
2026-01-05 23:59:41.30	109.10	14.95	-49.5	-51.2	15.3	6.06e-01	0	26	0	762314752	67	4447
2026-01-05 23:59:42.30	109.32	14.90	-49.5	-51.1	15.4	6.02e-01	0	26	0	764411904	67	4441
2026-01-05 23:59:43.29	109.53	14.85	-49.4	-51.1	15.4	6.03e-01	0	26	0	766509056	67	4411
2026-01-05 23:59:44.29	109.75	14.79	-49.4	-51.1	15.4	6.02e-01	0	26	0	768081920	67	4412
2026-01-05 23:59:45.30	109.97	14.74	-49.5	-51.1	15.4	6.03e-01	0	26	0	770179072	67	4428
2026-01-05 23:59:46.29	110.19	14.69	-49.4	-51.1	15.4	6.02e-01	0	26	0	771751936	67	4401
2026-01-05 23:59:47.29	110.40	14.64	-49.4	-51.1	15.4	6.04e-01	0	26	0	773849088	67	4410
2026-01-05 23:59:48.29	110.62	14.58	-49.5	-51.2	15.3	6.03e-01	0	26	0	775421952	67	4449
2026-01-05 23:59:49.29	110.83	14.53	-49.5	-51.2	15.3	6.04e-01	0	26	0	777519104	67	4445
2026-01-05 23:59:50.29	111.05	14.47	-49.5	-51.2	15.3	6.02e-01	0	26	0	779616256	67	4445
2026-01-05 23:59:51.28	111.26	14.42	-49.6	-51.3	15.3	6.01e-01	0	26	0	781189120	67	4498
2026-01-05 23:59:52.28	111.47	14.37	-49.5	-51.2	15.3	6.04e-01	0	26	0	783286272	67	4467
2026-01-05 23:59:53.29	111.68	14.31	-49.5	-51.2	15.3	6.00e-01	0	26	0	784859136	67	4471
2026-01-05 23:59:54.29	111.89	14.26	-49.6	-51.2	15.3	6.04e-01	0	26	0	786956288	67	4479
2026-01-05 23:59:55.29	112.10	14.20	-49.5	-51.2	15.3	6.01e-01	0	26	0	788529152	67	4442
2026-01-05 23:59:56.29	112.31	14.15	-49.5	-51.1	15.4	6.05e-01	0	26	0	790626304	67	4430
2026-01-05 23:59:57.29	112.52	14.09	-49.6	-51.3	15.3	6.02e-01	0	26	0	792723456	67	4495
2026-01-05 23:59:58.29	112.73	14.03	-49.6	-51.2	15.3	6.03e-01	0	26	0	794296320	67	4491
2026-01-05 23:59:59.28	112.93	13.98	-49.7	-51.3	15.3	6.04e-01	0	26	0	796393472	67	4543
2026-01-06 00:00:00.28	113.14	13.92	-49.6	-51.3	15.3	6.03e-01	0	26	0	797966336	67	4515
2026-01-06 00:00:01.28	113.34	13.87	-49.6	-51.2	15.3	6.04e-01	0	26	0	800063488	67	4493
2026-01-06 00:00:02.28	113.55	13.81	-49.5	-51.2	15.3	6.05e-01	0	26	0	802160640	67	4463
2026-01-06 00:00:03.28	113.75	13.75	-49.5	-51.2	15.3	6.04e-01	0	26	0	803733504	67	4454
2026-01-06 00:00:04.28	113.95	13.70	-49.6	-51.3	15.3	6.02e-01	0	26	0	805830656	67	4498
2026-01-06 00:00:05.28	114.15	13.64	-49.5	-51.2	15.3	6.04e-01	0	26	0	807403520	67	4474
2026-01-06 00:00:06.28	114.35	13.58	-49.5	-51.2	15.3	6.02e-01	0	26	0	809500672	67	4482
2026-01-06 00:00:07.28	114.55	13.53	-49.5	-51.2	15.3	6.04e-01	0	26	0	811073536	67	4471
2026-01-06 00:00:08.29	114.76	13.47	-49.6	-51.3	15.3	6.06e-01	0	26	0	813170688	67	4509
2026-01-06 00:00:09.29	114.95	13.41	-49.7	-51.3	15.3	6.02e-01	0	26	0	815267840	67	4541
2026-01-06 00:00:10.29	115.15	13.35	-49.6	-51.3	15.3	6.05e-01	0	26	0	816840704	67	4526
2026-01-06 00:00:11.29	115.35	13.30	-49.6	-51.3	15.3	6.06e-01	0	26	0	818937856	67	4513
2026-01-06 00:00:12.29	115.54	13.24	-49.7	-51.4	15.3	6.05e-01	0	26	0	820510720	67	4574
2026-01-06 00:00:13.29	115.74	13.18	-49.6	-51.3	15.3	6.04e-01	0	26	0	822607872	67	4507
2026-01-06 00:00:14.29	115.93	13.12	-49.7	-51.4	15.3	6.04e-01	0	26	0	824180736	67	4567
2026-01-06 00:00:15.29	116.13	13.06	-49.7	-51.4	15.3	6.04e-01	0	26	0	826277888	67	4571
2026-01-06 00:00:16.28	116.32	13.01	-49.8	-51.5	15.2	6.02e-01	0	26	0	828375040	67	4639
2026-01-06 00:00:17.28	116.51	12.95	-49.8	-51.5	15.2	6.04e-01	0	26	0	829947904	67	4641
2026-01-06 00:00:18.28	116.70	12.89	-49.7	-51.4	15.3	6.03e-01	0	26	0	832045056	67	4570
2026-01-06 00:00:19.28	116.89	12.83	-49.7	-51.4	15.3	6.01e-01	0	26	0	833617920	67	4559
2026-01-06 00:00:20.27	117.08	12.77	-49.7	-51.4	15.3	6.03e-01	0	26	0	835715072	67	4549
2026-01-06 00:00:21.27	117.27	12.71	-49.7	-51.4	15.3	6.02e-01	0	26	0	837287936	67	4596
2026-01-06 00:00:22.27	117.46	12.65	-49.8	-51.6	15.2	6.02e-01	0	26	0	839385088	67	4658
2026-01-06 00:00:23.26	117.64	12.59	-49.8	-51.5	15.2	6.03e-01	0	26	0	841482240	67	4624
2026-01-06 00:00:24.26	117.83	12.53	-49.8	-51.6	15.2	6.04e-01	0	26	0	843055104	67	4657
2026-01-06 00:00:25.26	118.01	12.48	-49.7	-51.4	15.3	6.03e-01	0	26	0	845152256	67	4585
2026-01-06 00:00:26.25	118.20	12.42	-49.8	-51.5	15.3	6.05e-01	0	26	0	846725120	67	4621
2026-01-06 00:00:27.26	118.38	12.36	-49.7	-51.4	15.3	6.05e-01	0	26	0	848822272	67	4589
2026-01-06 00:00:28.24	118.56	12.30	-49.8	-51.5	15.2	6.03e-01	0	26	0	850395136	67	4615
2026-01-06 00:00:29.24	118.75	12.24	-49.8	-51.6	15.2	6.04e-01	0	26	0	852492288	67	4652
2026-01-06 00:00:30.24	118.93	12.18	-49.8	-51.5	15.2	6.04e-01	0	26	0	854065152	67	4629
2026-01-06 00:00:31.23	119.11	12.12	-49.7	-51.5	15.2	6.02e-01	0	26	0	856162304	67	4610
2026-01-06 00:00:32.24	119.29	12.06	-49.8	-51.5	15.2	6.05e-01	0	26	0	858259456	67	4646
2026-01-06 00:00:33.23	119.47	12.00	-49.8	-51.5	15.2	6.03e-01	0	26	0	859832320	67	4638
2026-01-06 00:00:34.23	119.65	11.94	-49.8	-51.5	15.2	6.04e-01	0	26	0	861929472	67	4634
2026-01-06 00:00:35.23	119.82	11.88	-49.8	-51.6	15.2	6.03e-01	0	26	0	863502336	67	4677
2026-01-06 00:00:36.23	120.00	11.82	-49.9	-51.6	15.2	6.03e-01	0	27	0	865599488	67	4682
2026-01-06 00:00:37.23	120.18	11.76	-49.8	-51.6	15.2	6.03e-01	0	26	0	867172352	67	4680
2026-01-06 00:00:38.24	120.36	11.70	-49.9	-51.7	15.2	6.03e-01	0	26	0	869269504	67	4739
2026-01-06 00:00:39.24	120.53	11.64	-49.9	-51.7	15.2	6.03e-01	0	26	0	871366656	67	4722
2026-01-06 00:00:40.25	120.71	11.57	-49.8	-51.6	15.2	6.04e-01	0	26	0	872939520	67	4667
2026-01-06 00:00:41.25	120.88	11.51	-49.8	-51.6	15.2	6.05e-01	0	26	0	875036672	67	4663
2026-01-06 00:00:42.24	121.05	11.45	-49.9	-51.7	15.2	6.03e-01	0	26	0	876609536	67	4715
2026-01-06 00:00:43.24	121.22	11.39	-49.9	-51.6	15.2	6.04e-01	0	26	0	878706688	67	4693
2026-01-06 00:00:44.24	121.39	11.33	-49.8	-51.6	15.2	6.04e-01	0	26	0	880803840	67	4680
2026-01-06 00:00:45.23	121.56	11.27	-49.9	-51.6	15.2	6.03e-01	0	26	0	882376704	67	4705
2026-01-06 00:00:46.23	121.73	11.21	-49.9	-51.7	15.2	6.02e-01	0	26	0	884473856	67	4731
2026-01-06 00:00:47.22	121.90	11.15	-49.9	-51.7	15.2	6.04e-01	0	26	0	886046720	67	4748
2026-01-06 00:00:48.22	122.07	11.09	-49.9	-51.7	15.2	6.02e-01	0	26	0	888143872	67	4744
2026-01-06 00:00:49.22	122.24	11.03	-49.9	-51.7	15.2	6.02e-01	0	26	0	889716736	67	4755
2026-01-06 00:00:50.22	122.40	10.97	-50.0	-51.7	15.2	6.05e-01	0	26	0	891813888	67	4757
2026-01-06 00:00:51.22	122.57	10.91	-49.9	-51.7	15.2	6.03e-01	0	26	0	893911040	67	4733
2026-01-06 00:00:52.21	122.73	10.85	-49.9	-51.7	15.2	6.03e-01	0	26	0	895483904	67	4742
2026-01-06 00:00:53.21	122.90	10.78	-49.9	-51.7	15.2	6.03e-01	0	26	0	897581056	67	4714
2026-01-06 00:00:54.21	123.06	10.72	-49.9	-51.6	15.2	6.03e-01	0	26	0	899153920	67	4702
2026-01-06 00:00:55.21	123.23	10.66	-49.9	-51.7	15.2	6.04e-01	0	26	0	901251072	67	4718
2026-01-06 00:00:56.21	123.39	10.60	-49.9	-51.7	15.2	6.03e-01	0	26	0	902823936	67	4752
2026-01-06 00:00:57.21	123.55	10.54	-49.9	-51.7	15.2	6.02e-01	0	26	0	904921088	67	4727
2026-01-06 00:00:58.21	123.71	10.48	-50.0	-51.8	15.2	6.04e-01	0	26	0	907018240	67	4809
2026-01-06 00:00:59.20	123.87	10.42	-50.1	-51.9	15.1	6.04e-01	0	26	0	908591104	67	4865
2026-01-06 00:01:00.20	124.03	10.36	-50.2	-52.0	15.2	6.04e-01	0	26	0	910688256	68	4630
2026-01-06 00:01:01.20	124.19	10.30	-50.2	-52.1	15.2	6.04e-01	0	26	0	912261120	68	4664
2026-01-06 00:01:02.19	124.35	10.23	-50.2	-52.1	15.2	6.03e-01	0	26	0	914358272	68	4662
2026-01-06 00:01:03.20	124.51	10.17	-50.3	-52.1	15.2	6.03e-01	0	26	0	915931136	68	4705
2026-01-06 00:01:04.19	124.66	10.11	-50.4	-52.3	15.1	6.05e-01	0	26	0	918028288	68	4782
2026-01-06 00:01:05.19	124.82	10.05	-50.3	-52.2	15.1	6.01e-01	0	26	0	919601152	68	4716
2026-01-06 00:01:06.20	124.97	9.99	-50.3	-52.2	15.1	6.03e-01	0	26	0	921698304	68	4706
2026-01-06 00:01:07.19	125.13	9.93	-50.2	-52.1	15.2	6.04e-01	0	26	0	923795456	68	4687
2026-01-06 00:01:08.19	125.28	9.87	-50.2	-52.0	15.2	6.02e-01	0	26	0	925368320	68	4632
2026-01-06 00:01:09.19	125.44	9.80	-50.1	-52.0	15.2	6.05e-01	0	26	0	927465472	68	4606
2026-01-06 00:01:10.17	125.59	9.74	-50.1	-51.9	15.2	6.04e-01	0	26	0	929038336	68	4581
2026-01-06 00:01:11.17	125.74	9.68	-50.2	-52.0	15.2	6.04e-01	0	26	0	931135488	68	4627
2026-01-06 00:01:12.16	125.89	9.62	-50.2	-52.0	15.2	6.02e-01	0	26	0	932708352	68	4624
2026-01-06 00:01:13.16	126.04	9.56	-50.1	-51.9	15.2	6.01e-01	0	26	0	934805504	68	4566
2026-01-06 00:01:14.16	126.19	9.50	-50.1	-51.9	15.3	6.04e-01	0	26	0	936902656	68	4551
2026-01-06 00:01:15.16	126.34	9.44	-50.1	-51.9	15.2	6.03e-01	0	26	0	938475520	68	4586
2026-01-06 00:01:16.16	126.49	9.38	-50.1	-52.0	15.2	6.03e-01	0	26	0	940572672	68	4599
2026-01-06 00:01:17.16	126.64	9.32	-50.2	-52.1	15.2	6.03e-01	0	26	0	942145536	68	4685
2026-01-06 00:01:18.16	126.78	9.25	-50.3	-52.2	15.2	6.05e-01	0	26	0	944242688	68	4734
2026-01-06 00:01:19.15	126.93	9.19	-50.4	-52.3	15.1	6.02e-01	0	26	0	945815552	68	4771
2026-01-06 00:01:20.15	127.08	9.13	-50.3	-52.2	15.1	6.04e-01	0	26	0	947912704	68	4751
2026-01-06 00:01:21.15	127.22	9.07	-50.3	-52.1	15.2	6.03e-01	0	26	0	949485568	68	4702
2026-01-06 00:01:22.15	127.37	9.01	-50.3	-52.2	15.2	6.05e-01	0	26	0	951582720	68	4737
2026-01-06 00:01:23.15	127.51	8.95	-50.4	-52.3	15.1	6.03e-01	0	26	0	953679872	68	4792
2026-01-06 00:01:24.14	127.65	8.89	-50.4	-52.3	15.1	6.06e-01	0	26	0	955252736	68	4810
2026-01-06 00:01:25.14	127.80	8.83	-50.4	-52.3	15.1	6.03e-01	0	26	0	957349888	68	4811
2026-01-06 00:01:26.13	127.94	8.77	-50.5	-52.4	15.1	6.03e-01	0	27	0	958922752	68	4862
2026-01-06 00:01:27.12	128.08	8.71	-50.5	-52.4	15.1	6.01e-01	0	26	0	961019904	68	4869
2026-01-06 00:01:28.11	128.22	8.65	-50.4	-52.3	15.1	6.03e-01	0	26	0	963117056	68	4787
2026-01-06 00:01:29.11	128.36	8.58	-50.4	-52.3	15.1	6.03e-01	0	26	0	964689920	68	4778
2026-01-06 00:01:30.10	128.50	8.52	-50.5	-52.4	15.1	6.05e-01	0	27	0	966262784	68	4839
2026-01-06 00:01:31.10	128.64	8.46	-50.4	-52.3	15.1	6.02e-01	0	26	0	968359936	68	4798
2026-01-06 00:01:32.09	128.78	8.40	-50.4	-52.3	15.1	6.04e-01	0	26	0	970457088	68	4760
2026-01-06 00:01:33.09	128.91	8.34	-50.3	-52.2	15.1	6.03e-01	0	26	0	972029952	68	4737
2026-01-06 00:01:34.09	129.05	8.28	-50.5	-52.4	15.1	6.04e-01	0	26	0	974127104	68	4839
2026-01-06 00:01:35.08	129.19	8.22	-50.5	-52.4	15.1	6.01e-01	0	26	0	975699968	68	4856
2026-01-06 00:01:36.08	129.32	8.16	-50.5	-52.5	15.1	6.03e-01	0	26	0	977797120	68	4872
2026-01-06 00:01:37.08	129.46	8.10	-50.5	-52.5	15.1	6.03e-01	0	26	0	979894272	68	4874
2026-01-06 00:01:38.09	129.60	8.04	-50.5	-52.4	15.1	6.03e-01	0	26	0	981467136	68	4864
2026-01-06 00:01:39.09	129.73	7.98	-50.5	-52.4	15.1	6.04e-01	0	26	0	983564288	68	4834
2026-01-06 00:01:40.09	129.87	7.92	-50.5	-52.5	15.1	6.03e-01	0	27	0	985137152	68	4871
2026-01-06 00:01:41.09	130.00	7.85	-50.5	-52.5	15.1	6.03e-01	0	26	0	987234304	68	4881
2026-01-06 00:01:42.09	130.13	7.79	-50.6	-52.6	15.0	6.04e-01	0	26	0	988807168	68	4946
2026-01-06 00:01:43.09	130.26	7.73	-50.7	-52.7	15.1	6.06e-01	0	26	0	990904320	69	4709
2026-01-06 00:01:44.09	130.40	7.67	-50.7	-52.7	15.1	6.03e-01	0	26	0	993001472	69	4740
2026-01-06 00:01:45.08	130.53	7.61	-50.6	-52.6	15.2	6.04e-01	0	26	0	994574336	69	4676
2026-01-06 00:01:46.09	130.66	7.55	-50.7	-52.7	15.1	6.03e-01	0	26	0	996671488	69	4736
2026-01-06 00:01:47.09	130.79	7.49	-50.7	-52.6	15.1	6.03e-01	0	26	0	998244352	69	4704
2026-01-06 00:01:48.09	130.92	7.43	-50.8	-52.8	15.1	6.02e-01	0	26	0	1000341504	69	4765
2026-01-06 00:01:49.09	131.05	7.37	-50.7	-52.7	15.1	6.02e-01	0	26	0	1001914368	69	4752
2026-01-06 00:01:50.09	131.18	7.31	-50.7	-52.7	15.1	6.04e-01	0	26	0	1004011520	69	4754
2026-01-06 00:01:51.09	131.30	7.25	-50.7	-52.8	15.1	6.04e-01	0	26	0	1006108672	69	4773
2026-01-06 00:01:52.08	131.43	7.19	-50.9	-52.9	15.0	6.03e-01	0	26	0	1007681536	69	4862
2026-01-06 00:01:53.08	131.56	7.13	-50.9	-53.0	15.0	6.04e-01	0	26	0	1009778688	69	4895
2026-01-06 00:01:54.08	131.68	7.07	-50.8	-52.9	15.0	6.06e-01	0	26	0	1011351552	69	4825
2026-01-06 00:01:55.08	131.81	7.01	-50.9	-53.0	15.0	6.02e-01	0	26	0	1013448704	69	4874
2026-01-06 00:01:56.08	131.93	6.95	-50.7	-52.7	15.1	6.04e-01	0	26	0	1015021568	69	4753
2026-01-06 00:01:57.08	132.06	6.89	-50.8	-52.9	15.0	6.05e-01	0	26	0	1017118720	69	4827
2026-01-06 00:01:58.07	132.18	6.83	-50.7	-52.7	15.1	6.04e-01	0	26	0	1019215872	69	4755
2026-01-06 00:01:59.07	132.30	6.77	-50.7	-52.8	15.1	6.05e-01	0	26	0	1020788736	69	4765
2026-01-06 00:02:00.07	132.43	6.71	-50.7	-52.7	15.1	6.04e-01	0	26	0	1022885888	69	4743
2026-01-06 00:02:01.07	132.55	6.65	-50.7	-52.7	15.1	6.03e-01	0	26	0	1024458752	69	4754
2026-01-06 00:02:02.05	132.67	6.59	-50.7	-52.7	15.1	6.03e-01	0	26	0	1026555904	69	4743
2026-01-06 00:02:03.05	132.79	6.53	-50.8	-52.8	15.1	6.01e-01	0	26	0	1028128768	69	4810
2026-01-06 00:02:04.05	132.91	6.47	-50.7	-52.7	15.1	6.03e-01	0	26	0	1030225920	69	4722
2026-01-06 00:02:05.04	133.03	6.41	-50.8	-52.9	15.0	6.02e-01	0	26	0	1031798784	69	4825
2026-01-06 00:02:06.03	133.15	6.35	-50.8	-52.9	15.1	6.04e-01	0	26	0	1033895936	69	4822
2026-01-06 00:02:07.03	133.27	6.30	-50.8	-52.9	15.0	6.03e-01	0	27	0	1035993088	69	4825
2026-01-06 00:02:08.03	133.39	6.24	-50.9	-53.0	15.0	6.02e-01	0	26	0	1037565952	69	4888
2026-01-06 00:02:09.03	133.51	6.18	-50.9	-53.0	15.0	6.02e-01	0	26	0	1039663104	69	4913
2026-01-06 00:02:10.02	133.62	6.12	-51.0	-53.2	15.0	6.02e-01	0	26	0	1041235968	69	4995
2026-01-06 00:02:11.03	133.74	6.06	-50.9	-53.1	15.0	6.03e-01	0	26	0	1043333120	69	4928
2026-01-06 00:02:12.02	133.86	6.00	-51.0	-53.2	14.9	6.02e-01	0	26	0	1045430272	69	4994
2026-01-06 00:02:13.02	133.97	5.94	-51.1	-53.2	14.9	6.05e-01	0	26	0	1047003136	69	5026
2026-01-06 00:02:14.01	134.09	5.88	-51.0	-53.2	15.0	6.04e-01	0	26	0	1049100288	70	4719
2026-01-06 00:02:15.00	134.20	5.82	-51.1	-53.3	15.1	6.04e-01	0	26	0	1050673152	70	4765
2026-01-06 00:02:16.00	134.32	5.76	-51.2	-53.4	15.0	6.05e-01	0	26	0	1052770304	70	4830
2026-01-06 00:02:16.99	134.43	5.71	-51.1	-53.3	15.0	6.05e-01	0	26	0	1054343168	70	4766
2026-01-06 00:02:18.00	134.55	5.65	-51.2	-53.4	15.0	6.02e-01	0	26	0	1056440320	70	4866
2026-01-06 00:02:19.00	134.66	5.59	-51.2	-53.4	15.0	6.04e-01	0	26	0	1058013184	70	4853
2026-01-06 00:02:20.00	134.77	5.53	-51.3	-53.6	14.9	6.02e-01	0	26	0	1060110336	70	4963
2026-01-06 00:02:21.00	134.89	5.47	-51.4	-53.6	14.9	6.02e-01	0	26	0	1062207488	70	4975
2026-01-06 00:02:22.00	135.00	5.41	-51.4	-53.6	14.9	6.04e-01	0	26	0	1063780352	70	4977
2026-01-06 00:02:22.99	135.11	5.35	-51.4	-53.6	14.9	6.02e-01	0	26	0	1065877504	70	4982
2026-01-06 00:02:23.99	135.22	5.29	-51.2	-53.5	14.9	6.05e-01	0	26	0	1067450368	70	4894
2026-01-06 00:02:24.98	135.33	5.24	-51.3	-53.6	14.9	6.05e-01	0	26	0	1069547520	70	4969
2026-01-06 00:02:25.98	135.44	5.18	-51.3	-53.6	14.9	6.04e-01	0	26	0	1071120384	70	4977
2026-01-06 00:02:26.97	135.55	5.12	-51.3	-53.6	14.9	6.01e-01	0	27	0	1073217536	70	4929
2026-01-06 00:02:27.97	135.66	5.06	-51.2	-53.5	14.9	6.02e-01	0	26	0	1075314688	70	4895
2026-01-06 00:02:28.97	135.77	5.00	-51.2	-53.4	14.9	6.01e-01	0	26	0	1076887552	70	4854
2026-01-06 00:02:29.96	135.87	4.95	-57.4	-69.1	7.4	6.46e-01	58	26	0	1078984704	82	14872
2026-01-06 00:02:30.97	135.98	4.89	-58.0	-76.9	3.8	7.46e-01	0	26	104	1078984704	83	34159
2026-01-06 00:02:31.97	136.09	4.83	-58.5	-77.9	3.8	7.46e-01	0	27	104	1078984704	84	36151
2026-01-06 00:02:32.96	136.20	4.77	-58.8	-78.1	3.8	7.45e-01	0	26	104	1078984704	85	35177
2026-01-06 00:02:33.96	136.30	4.72	-58.9	-78.3	3.8	7.47e-01	0	26	104	1078984704	85	35858
2026-01-06 00:02:34.96	136.41	4.66	-59.1	-78.4	3.8	7.45e-01	0	26	104	1078984704	85	36410
2026-01-06 00:02:35.96	136.51	4.60	-59.2	-78.6	3.8	7.47e-01	0	26	104	1078984704	86	34929
2026-01-06 00:02:36.97	136.62	4.54	-59.3	-78.7	3.8	7.50e-01	0	27	104	1078984704	86	35332
2026-01-06 00:02:37.97	136.73	4.48	-59.4	-78.8	3.8	7.45e-01	0	27	104	1078984704	86	35724
2026-01-06 00:02:38.96	136.83	4.43	-59.5	-78.8	3.8	7.46e-01	0	27	104	1078984704	86	36028
2026-01-06 00:02:39.96	136.93	4.37	-59.5	-78.9	3.8	7.46e-01	0	27	104	1078984704	86	36313
2026-01-06 00:02:40.96	137.04	4.31	-59.6	-78.9	3.8	7.46e-01	0	27	104	1078984704	86	36489
2026-01-06 00:02:41.96	137.14	4.25	-59.6	-79.0	3.9	7.45e-01	0	26	104	1078984704	87	34760
2026-01-06 00:02:42.96	137.24	4.20	-59.7	-79.1	3.8	7.48e-01	0	27	104	1078984704	87	34937
2026-01-06 00:02:43.96	137.35	4.14	-59.7	-79.1	3.8	7.44e-01	0	26	104	1078984704	87	35138
2026-01-06 00:02:44.96	137.45	4.08	-59.8	-79.1	3.8	7.46e-01	0	26	104	1078984704	87	35240
2026-01-06 00:02:45.97	137.55	4.03	-59.8	-79.2	3.8	7.48e-01	0	26	104	1078984704	87	35482
2026-01-06 00:02:46.97	137.65	3.97	-59.9	-79.3	3.8	7.46e-01	0	27	104	1078984704	87	35770
2026-01-06 00:02:47.98	137.75	3.91	-59.9	-79.3	3.8	7.47e-01	0	26	104	1078984704	87	35878
2026-01-06 00:02:48.98	137.85	3.85	-60.0	-79.4	3.8	7.49e-01	0	27	104	1078984704	87	36116
2026-01-06 00:02:49.99	137.95	3.80	-60.0	-79.4	3.8	7.45e-01	0	27	104	1078984704	87	36215
2026-01-06 00:02:50.99	138.05	3.74	-60.0	-79.4	3.8	7.46e-01	0	27	104	1078984704	87	36280
2026-01-06 00:02:51.99	138.15	3.68	-60.1	-79.5	3.8	7.48e-01	0	27	104	1078984704	87	36595
2026-01-06 00:02:52.99	138.25	3.63	-60.0	-79.4	3.8	7.48e-01	0	27	104	1078984704	87	36410
2026-01-06 00:02:53.99	138.35	3.57	-60.0	-79.4	3.8	7.46e-01	0	27	104	1078984704	87	36284
2026-01-06 00:02:54.98	138.45	3.51	-60.0	-79.4	3.8	7.47e-01	0	26	104	1078984704	87	36169
2026-01-06 00:02:55.98	138.54	3.46	-60.0	-79.4	3.8	7.47e-01	0	26	104	1078984704	87	36151
2026-01-06 00:02:56.97	138.64	3.40	-60.0	-79.4	3.8	7.47e-01	0	27	104	1078984704	87	36114
2026-01-06 00:02:57.96	138.73	3.35	-59.9	-79.3	3.8	7.45e-01	0	27	104	1078984704	87	36041
2026-01-06 00:02:58.96	138.83	3.29	-59.9	-79.3	3.8	7.45e-01	0	26	104	1078984704	87	36035
2026-01-06 00:02:59.95	138.93	3.23	-59.9	-79.3	3.8	7.49e-01	0	27	104	1078984704	87	35901
2026-01-06 00:03:00.95	139.02	3.18	-59.9	-79.3	3.8	7.44e-01	0	27	104	1078984704	87	35891
2026-01-06 00:03:01.96	139.12	3.12	-59.9	-79.3	3.8	7.47e-01	0	27	104	1078984704	87	35892
2026-01-06 00:03:02.95	139.21	3.07	-59.9	-79.3	3.8	7.46e-01	0	26	104	1078984704	87	35878
2026-01-06 00:03:03.94	139.30	3.01	-59.9	-79.3	3.8	7.47e-01	0	27	104	1078984704	87	35827
2026-01-06 00:03:04.94	139.40	2.95	-59.9	-79.3	3.8	7.44e-01	0	26	104	1078984704	87	35797
2026-01-06 00:03:05.94	139.49	2.90	-59.9	-79.3	3.8	7.47e-01	0	27	104	1078984704	87	35796
2026-01-06 00:03:06.94	139.59	2.84	-59.9	-79.2	3.8	7.46e-01	0	27	104	1078984704	87	35682
2026-01-06 00:03:07.94	139.68	2.79	-59.9	-79.3	3.8	7.47e-01	0	27	104	1078984704	87	35713
2026-01-06 00:03:08.94	139.77	2.73	-59.9	-79.3	3.8	7.46e-01	0	27	104	1078984704	87	35728
2026-01-06 00:03:09.94	139.86	2.68	-59.9	-79.2	3.8	7.46e-01	0	27	104	1078984704	87	35634
2026-01-06 00:03:10.94	139.96	2.62	-59.9	-79.2	3.8	7.44e-01	0	26	104	1078984704	87	35649
2026-01-06 00:03:11.93	140.05	2.57	-59.9	-79.2	3.8	7.47e-01	0	27	104	1078984704	87	35681
2026-01-06 00:03:12.93	140.14	2.51	-59.9	-79.3	3.8	7.48e-01	0	27	104	1078984704	87	35693
2026-01-06 00:03:13.92	140.23	2.46	-59.8	-79.2	3.8	7.46e-01	0	27	104	1078984704	87	35613
2026-01-06 00:03:14.92	140.32	2.40	-59.8	-79.2	3.8	7.46e-01	0	27	104	1078984704	87	35581
2026-01-06 00:03:15.92	140.41	2.35	-59.8	-79.2	3.8	7.45e-01	0	27	104	1078984704	87	35661
2026-01-06 00:03:16.92	140.50	2.29	-59.8	-79.2	3.8	7.48e-01	0	27	104	1078984704	87	35562
2026-01-06 00:03:17.93	140.59	2.24	-59.8	-79.2	3.8	7.48e-01	0	27	104	1078984704	87	35533
2026-01-06 00:03:18.93	140.68	2.18	-59.8	-79.2	3.8	7.44e-01	0	27	104	1078984704	87	35489
2026-01-06 00:03:19.91	140.76	2.13	-59.8	-79.2	3.8	7.45e-01	0	27	104	1078984704	87	35502
2026-01-06 00:03:20.91	140.85	2.07	-59.8	-79.2	3.8	7.50e-01	0	27	104	1078984704	87	35554
2026-01-06 00:03:21.91	140.94	2.02	-59.8	-79.2	3.8	7.49e-01	0	26	104	1078984704	87	35559
2026-01-06 00:03:22.90	141.03	1.96	-59.8	-79.2	3.8	7.45e-01	0	27	104	1078984704	87	35546
2026-01-06 00:03:23.90	141.11	1.91	-59.8	-79.2	3.9	7.45e-01	0	27	104	1078984704	87	35516

#Closed at: 2026-01-06 00:03:24
#Recorded file [1078 MB]: D:/lorett/data/31004_260106_025218.dat