passes_logs/2026/01/05/R3.2S_Murmansk/R3.2S_Murmansk__20260105_065910_FENGYUN_3D_rec.log

#Pass ID: 20260105_065910_FENGYUN 3D
#Satellite: FENGYUN 3D
#Configuration: FENGYUN 3D
#almurnet v.1.7.20251203
#Start time: 2026-01-05 06:59:12

#Version: 2.2.20231116
#Station: R3.2S_Murmansk
#Location: 33.079688 lon 68.888172 lat
#TLE: 1 43010U 17072A   26004.50247883 -.00000063  00000+0 -78815-5 0  9998
#TLE: 2 43010  98.9915 336.1565 0001968 126.3752 233.7605 14.19691805421760

#Time	Az	El	Level	Level2	SNR	BER	BlckErr	Temp	State	Recorded	gain1	gain2
2026-01-05 06:59:12.24	59.44	2.09	-58.1	-71.1	3.8	8.45e-01	0	25	0	0	82	15977
2026-01-05 06:59:13.24	59.37	2.15	-58.1	-71.1	3.8	8.46e-01	0	25	104	0	81	16927
2026-01-05 06:59:14.24	59.31	2.21	-58.1	-71.1	3.8	8.47e-01	0	25	104	0	81	16913
2026-01-05 06:59:15.23	59.25	2.26	-58.1	-71.0	3.8	8.44e-01	0	26	104	0	81	16862
2026-01-05 06:59:16.23	59.18	2.32	-58.1	-71.0	3.8	8.46e-01	0	25	104	0	81	16873
2026-01-05 06:59:17.23	59.12	2.38	-58.1	-71.0	3.8	8.45e-01	0	26	104	0	81	16887
2026-01-05 06:59:18.23	59.05	2.44	-58.1	-71.0	3.8	8.45e-01	0	25	104	0	81	16859
2026-01-05 06:59:19.22	58.99	2.49	-58.1	-71.1	3.8	8.45e-01	0	25	104	0	81	16922
2026-01-05 06:59:20.22	58.93	2.55	-58.1	-71.0	3.8	8.45e-01	0	26	104	0	81	16796
2026-01-05 06:59:21.22	58.86	2.61	-58.1	-71.0	3.8	8.46e-01	0	26	104	0	81	16828
2026-01-05 06:59:22.21	58.80	2.67	-58.1	-71.0	3.8	8.46e-01	0	26	104	0	81	16821
2026-01-05 06:59:23.20	58.73	2.72	-58.1	-71.0	3.8	8.46e-01	0	26	104	0	81	16822
2026-01-05 06:59:24.19	58.67	2.78	-58.1	-71.0	3.8	8.45e-01	0	26	104	0	81	16813
2026-01-05 06:59:25.19	58.60	2.84	-58.1	-71.0	3.8	8.45e-01	0	26	104	0	81	16778
2026-01-05 06:59:26.18	58.53	2.90	-58.1	-71.0	3.8	8.46e-01	0	26	104	0	81	16804
2026-01-05 06:59:27.18	58.47	2.95	-58.1	-71.0	3.8	8.45e-01	0	26	104	0	81	16842
2026-01-05 06:59:28.18	58.40	3.01	-58.1	-71.0	3.8	8.46e-01	0	26	104	0	81	16822
2026-01-05 06:59:29.19	58.33	3.07	-58.1	-71.0	3.8	8.46e-01	0	26	104	0	81	16871
2026-01-05 06:59:30.18	58.27	3.13	-58.1	-71.1	3.8	8.45e-01	0	26	104	0	81	16982
2026-01-05 06:59:31.18	58.20	3.19	-58.1	-71.1	3.8	8.45e-01	0	26	104	0	81	17001
2026-01-05 06:59:32.18	58.13	3.25	-58.1	-71.1	3.8	8.46e-01	0	26	104	0	81	16984
2026-01-05 06:59:33.18	58.06	3.31	-58.1	-71.0	3.8	8.46e-01	0	26	104	0	81	16886
2026-01-05 06:59:34.18	57.99	3.36	-58.1	-71.0	3.8	8.46e-01	0	26	104	0	81	16762
2026-01-05 06:59:35.18	57.92	3.42	-58.1	-70.9	3.8	8.46e-01	0	26	104	0	81	16654
2026-01-05 06:59:36.17	57.85	3.48	-58.1	-70.9	3.8	8.46e-01	0	26	104	0	81	16521
2026-01-05 06:59:37.17	57.79	3.54	-58.1	-70.9	3.8	8.45e-01	0	26	104	0	81	16639
2026-01-05 06:59:38.18	57.71	3.60	-58.1	-70.9	3.8	8.45e-01	0	26	104	0	81	16653
2026-01-05 06:59:39.18	57.64	3.66	-58.1	-71.0	3.8	8.45e-01	0	26	104	0	81	16747
2026-01-05 06:59:40.18	57.57	3.72	-58.1	-71.0	3.8	8.46e-01	0	26	104	0	81	16823
2026-01-05 06:59:41.17	57.50	3.78	-58.1	-71.1	3.8	8.44e-01	0	26	104	0	81	16956
2026-01-05 06:59:42.16	57.43	3.84	-58.1	-71.0	3.8	8.46e-01	0	26	104	0	81	16835
2026-01-05 06:59:43.16	57.36	3.90	-58.1	-71.0	3.8	8.45e-01	0	26	104	0	81	16718
2026-01-05 06:59:44.15	57.29	3.96	-58.1	-70.9	3.8	8.44e-01	0	26	104	0	81	16597
2026-01-05 06:59:45.15	57.22	4.01	-58.1	-70.9	3.8	8.46e-01	0	26	104	0	81	16625
2026-01-05 06:59:46.14	57.15	4.07	-58.1	-71.0	3.8	8.45e-01	0	26	104	0	81	16787
2026-01-05 06:59:47.15	57.07	4.13	-58.1	-71.1	3.8	8.45e-01	0	26	104	0	81	16898
2026-01-05 06:59:48.14	57.00	4.19	-58.1	-71.0	3.8	8.45e-01	0	26	104	0	81	16798
2026-01-05 06:59:49.14	56.93	4.25	-58.0	-70.7	3.8	8.45e-01	0	26	104	0	81	16206
2026-01-05 06:59:50.13	56.86	4.31	-58.0	-70.1	3.8	8.45e-01	0	26	104	0	81	15215
2026-01-05 06:59:51.13	56.78	4.37	-58.0	-69.5	3.8	8.45e-01	0	26	104	0	81	14155
2026-01-05 06:59:52.13	56.71	4.43	-57.9	-68.7	3.8	8.45e-01	0	26	104	0	81	12903
2026-01-05 06:59:53.13	56.63	4.49	-57.8	-67.9	4.1	8.41e-01	0	27	0	0	81	11771
2026-01-05 06:59:54.13	56.56	4.56	-57.7	-67.0	4.3	8.31e-01	0	26	0	0	81	10607
2026-01-05 06:59:55.12	56.48	4.62	-57.6	-66.1	4.6	8.07e-01	0	26	0	0	81	9575
2026-01-05 06:59:56.13	56.41	4.68	-57.3	-64.4	5.5	6.75e-01	0	27	0	0	81	7877
2026-01-05 06:59:57.12	56.33	4.74	-56.9	-63.0	6.4	2.58e-01	0	27	0	6291456	80	7099
2026-01-05 06:59:58.12	56.26	4.80	-56.6	-62.0	7.3	1.13e-01	0	26	0	11534336	79	6719
2026-01-05 06:59:59.12	56.18	4.86	-56.0	-60.3	8.7	3.19e-02	0	26	0	16777216	78	5847
2026-01-05 07:00:00.11	56.10	4.92	-55.5	-59.4	9.5	7.88e-03	0	27	0	23068672	77	5553
2026-01-05 07:00:01.12	56.03	4.98	-55.1	-58.6	10.1	2.37e-03	0	27	0	28311552	76	5355
2026-01-05 07:00:02.11	55.95	5.04	-54.5	-57.5	10.9	3.68e-04	0	27	0	33554432	75	5026
2026-01-05 07:00:03.12	55.87	5.10	-54.7	-57.8	10.7	3.75e-04	0	27	0	39845888	75	5216
2026-01-05 07:00:04.12	55.79	5.17	-56.8	-62.4	6.9	6.54e-02	0	27	0	45088768	78	7429
2026-01-05 07:00:05.11	55.72	5.23	-55.1	-58.7	9.9	1.39e-03	0	27	0	51380224	75	5770
2026-01-05 07:00:06.11	55.64	5.29	-50.4	-52.0	13.9	0.00e+00	0	27	0	56623104	67	4210
2026-01-05 07:00:07.10	55.56	5.35	-57.1	-64.1	5.6	3.29e-01	0	27	0	61865984	79	8483
2026-01-05 07:00:08.10	55.48	5.41	-50.4	-52.0	13.9	0.00e+00	0	27	0	67108864	67	4198
2026-01-05 07:00:09.09	55.40	5.47	-49.9	-51.4	14.2	0.00e+00	0	27	0	73400320	66	4174
2026-01-05 07:00:10.09	55.32	5.53	-49.8	-51.3	14.2	0.00e+00	0	27	0	78643200	66	4105
2026-01-05 07:00:11.09	55.24	5.60	-49.7	-51.2	14.1	0.00e+00	0	27	0	84934656	65	4335
2026-01-05 07:00:12.08	55.16	5.66	-49.5	-51.0	14.2	0.00e+00	0	27	0	90177536	65	4201
2026-01-05 07:00:13.08	55.08	5.72	-49.6	-51.1	14.1	0.00e+00	0	27	0	95420416	65	4265
2026-01-05 07:00:14.08	55.00	5.78	-49.8	-51.3	14.1	0.00e+00	0	27	0	100663296	65	4358
2026-01-05 07:00:15.07	54.91	5.84	-49.8	-51.3	14.1	0.00e+00	0	27	0	106954752	65	4379
2026-01-05 07:00:16.07	54.83	5.91	-49.6	-51.1	14.2	0.00e+00	0	27	0	112197632	65	4267
2026-01-05 07:00:17.08	54.75	5.97	-49.8	-51.3	14.1	0.00e+00	0	27	0	117440512	65	4371
2026-01-05 07:00:18.07	54.67	6.03	-49.6	-51.1	14.2	0.00e+00	0	27	0	123731968	65	4267
2026-01-05 07:00:19.07	54.58	6.09	-49.4	-50.9	14.3	0.00e+00	0	27	0	128974848	65	4167
2026-01-05 07:00:20.07	54.50	6.16	-49.5	-51.0	14.2	0.00e+00	0	27	0	135266304	65	4217
2026-01-05 07:00:21.07	54.41	6.22	-49.6	-51.0	14.2	0.00e+00	0	27	0	140509184	65	4226
2026-01-05 07:00:22.06	54.33	6.28	-49.5	-51.0	14.2	0.00e+00	0	27	0	145752064	65	4212
2026-01-05 07:00:23.07	54.24	6.35	-49.5	-51.0	14.3	0.00e+00	0	27	0	152043520	65	4198
2026-01-05 07:00:24.07	54.16	6.41	-49.6	-51.1	14.2	0.00e+00	0	27	0	157286400	65	4253
2026-01-05 07:00:25.06	54.07	6.47	-49.5	-51.0	14.3	0.00e+00	0	27	0	162529280	65	4199
2026-01-05 07:00:26.06	53.99	6.54	-49.5	-50.9	14.3	0.00e+00	0	27	0	168820736	65	4170
2026-01-05 07:00:27.06	53.90	6.60	-49.5	-50.9	14.3	0.00e+00	0	27	0	174063616	65	4164
2026-01-05 07:00:28.06	53.81	6.66	-49.5	-50.9	14.3	0.00e+00	0	27	0	179306496	65	4181
2026-01-05 07:00:29.06	53.73	6.73	-49.4	-50.8	14.4	0.00e+00	0	27	0	185597952	65	4099
2026-01-05 07:00:30.07	53.64	6.79	-49.4	-50.8	14.4	0.00e+00	0	27	0	190840832	65	4126
2026-01-05 07:00:31.07	53.55	6.86	-49.5	-51.0	14.3	0.00e+00	0	27	0	197132288	65	4208
2026-01-05 07:00:32.06	53.46	6.92	-49.7	-51.1	14.2	0.00e+00	0	27	0	202375168	65	4276
2026-01-05 07:00:33.06	53.37	6.98	-49.8	-51.2	14.2	0.00e+00	0	27	0	207618048	65	4326
2026-01-05 07:00:34.06	53.28	7.05	-49.5	-50.9	14.3	0.00e+00	0	27	0	213909504	65	4189
2026-01-05 07:00:35.06	53.19	7.11	-49.6	-51.1	14.2	0.00e+00	0	27	0	219152384	65	4244
2026-01-05 07:00:36.06	53.10	7.18	-49.5	-50.9	14.3	0.00e+00	0	27	0	224395264	65	4174
2026-01-05 07:00:37.06	53.01	7.24	-49.5	-50.9	14.3	0.00e+00	0	27	0	230686720	65	4187
2026-01-05 07:00:38.05	52.92	7.30	-49.5	-50.9	14.3	0.00e+00	0	27	0	235929600	65	4183
2026-01-05 07:00:39.06	52.83	7.37	-49.4	-50.8	14.3	0.00e+00	0	27	0	242221056	65	4131
2026-01-05 07:00:40.06	52.74	7.43	-49.4	-50.8	14.4	0.00e+00	0	27	0	247463936	65	4113
2026-01-05 07:00:41.07	52.65	7.50	-49.3	-50.7	14.4	0.00e+00	0	27	0	252706816	65	4068
2026-01-05 07:00:42.07	52.55	7.57	-49.3	-50.7	14.4	0.00e+00	0	27	0	258998272	65	4082
2026-01-05 07:00:43.07	52.46	7.63	-49.2	-50.6	14.5	0.00e+00	0	27	0	264241152	65	4026
2026-01-05 07:00:44.07	52.37	7.70	-49.3	-50.6	14.5	0.00e+00	0	27	0	269484032	65	4040
2026-01-05 07:00:45.07	52.27	7.76	-49.1	-50.5	14.4	0.00e+00	0	27	0	275775488	64	4204
2026-01-05 07:00:46.06	52.18	7.83	-49.1	-50.5	14.4	0.00e+00	0	27	0	281018368	64	4194
2026-01-05 07:00:47.07	52.08	7.89	-49.0	-50.4	14.5	0.00e+00	0	27	0	286261248	64	4158
2026-01-05 07:00:48.07	51.99	7.96	-49.1	-50.4	14.4	0.00e+00	0	27	0	292552704	64	4177
2026-01-05 07:00:49.07	51.89	8.02	-49.1	-50.5	14.4	0.00e+00	0	27	0	297795584	64	4197
2026-01-05 07:00:50.07	51.80	8.09	-49.0	-50.4	14.5	0.00e+00	0	27	0	304087040	64	4156
2026-01-05 07:00:51.07	51.70	8.15	-49.1	-50.4	14.5	0.00e+00	0	27	0	309329920	64	4179
2026-01-05 07:00:52.07	51.60	8.22	-48.9	-50.2	14.5	0.00e+00	0	27	0	314572800	64	4086
2026-01-05 07:00:53.08	51.50	8.29	-48.9	-50.2	14.6	0.00e+00	0	27	0	320864256	64	4094
2026-01-05 07:00:54.07	51.41	8.35	-48.8	-50.1	14.6	0.00e+00	0	27	0	326107136	64	4028
2026-01-05 07:00:55.08	51.31	8.42	-48.8	-50.1	14.6	0.00e+00	0	27	0	331350016	64	4045
2026-01-05 07:00:56.08	51.21	8.49	-48.8	-50.1	14.6	0.00e+00	0	27	0	337641472	64	4019
2026-01-05 07:00:57.08	51.11	8.55	-48.8	-50.1	14.6	0.00e+00	0	27	0	342884352	64	4006
2026-01-05 07:00:58.08	51.01	8.62	-48.8	-50.1	14.6	0.00e+00	0	27	0	348127232	64	4020
2026-01-05 07:00:59.09	50.91	8.69	-48.8	-50.1	14.6	0.00e+00	0	27	0	354418688	64	4042
2026-01-05 07:01:00.09	50.81	8.75	-48.9	-50.2	14.6	0.00e+00	0	27	0	359661568	64	4081
2026-01-05 07:01:01.08	50.71	8.82	-48.8	-50.1	14.5	0.00e+00	0	27	0	365953024	63	4257
2026-01-05 07:01:02.07	50.61	8.88	-48.8	-50.2	14.5	0.00e+00	0	27	0	371195904	63	4297
2026-01-05 07:01:03.07	50.50	8.95	-48.9	-50.2	14.4	0.00e+00	0	27	0	376438784	63	4313
2026-01-05 07:01:04.06	50.40	9.02	-48.9	-50.2	14.5	0.00e+00	0	27	0	382730240	63	4311
2026-01-05 07:01:05.06	50.30	9.08	-48.8	-50.1	14.5	0.00e+00	0	27	0	387973120	63	4276
2026-01-05 07:01:06.05	50.20	9.15	-48.8	-50.1	14.5	0.00e+00	0	27	0	393216000	63	4269
2026-01-05 07:01:07.05	50.09	9.22	-48.7	-50.0	14.5	0.00e+00	0	27	0	399507456	63	4241
2026-01-05 07:01:08.03	49.99	9.28	-48.7	-50.0	14.6	0.00e+00	0	27	0	404750336	63	4223
2026-01-05 07:01:09.03	49.88	9.35	-48.8	-50.1	14.5	0.00e+00	0	27	0	409993216	63	4263
2026-01-05 07:01:10.03	49.78	9.42	-48.8	-50.1	14.5	0.00e+00	0	27	0	416284672	63	4268
2026-01-05 07:01:11.02	49.67	9.49	-48.8	-50.1	14.5	0.00e+00	0	27	0	421527552	63	4267
2026-01-05 07:01:12.02	49.57	9.55	-48.7	-49.9	14.6	0.00e+00	0	27	0	426770432	63	4192
2026-01-05 07:01:13.01	49.46	9.62	-48.6	-49.9	14.6	0.00e+00	0	27	0	433061888	63	4180
2026-01-05 07:01:14.00	49.35	9.69	-48.7	-50.0	14.6	0.00e+00	0	27	0	438304768	63	4209
2026-01-05 07:01:15.00	49.24	9.76	-48.6	-49.9	14.6	0.00e+00	0	27	0	443547648	63	4179
2026-01-05 07:01:15.99	49.14	9.82	-48.8	-50.1	14.5	0.00e+00	0	27	0	449839104	63	4275
2026-01-05 07:01:16.98	49.03	9.89	-48.8	-50.1	14.5	0.00e+00	0	27	0	455081984	63	4275
2026-01-05 07:01:17.97	48.92	9.96	-48.9	-50.2	14.5	0.00e+00	0	27	0	460324864	63	4330
2026-01-05 07:01:18.96	48.81	10.03	-48.7	-50.0	14.6	0.00e+00	0	27	0	466616320	63	4214
2026-01-05 07:01:19.95	48.70	10.09	-48.7	-50.0	14.6	0.00e+00	0	27	0	471859200	63	4225
2026-01-05 07:01:20.96	48.59	10.16	-48.6	-50.0	14.6	0.00e+00	0	27	0	477102080	63	4194
2026-01-05 07:01:21.95	48.48	10.23	-48.7	-50.0	14.5	0.00e+00	0	27	0	483393536	63	4217
2026-01-05 07:01:22.94	48.37	10.30	-48.5	-49.8	14.7	0.00e+00	0	27	0	488636416	63	4131
2026-01-05 07:01:23.94	48.25	10.37	-48.5	-49.8	14.7	0.00e+00	0	27	0	493879296	63	4129
2026-01-05 07:01:24.93	48.14	10.43	-48.6	-49.9	14.6	0.00e+00	0	27	0	499122176	63	4156
2026-01-05 07:01:25.93	48.03	10.50	-48.6	-49.9	14.6	0.00e+00	0	27	0	505413632	63	4154
2026-01-05 07:01:26.92	47.91	10.57	-48.4	-49.7	14.7	0.00e+00	0	27	0	510656512	63	4056
2026-01-05 07:01:27.92	47.80	10.64	-48.4	-49.6	14.7	0.00e+00	0	27	0	516947968	63	4034
2026-01-05 07:01:28.91	47.68	10.71	-48.4	-49.6	14.8	0.00e+00	0	27	0	522190848	63	4034
2026-01-05 07:01:29.91	47.57	10.78	-48.3	-49.6	14.8	0.00e+00	0	27	0	527433728	63	4010
2026-01-05 07:01:30.90	47.45	10.85	-48.3	-49.6	14.8	0.00e+00	0	27	0	533725184	63	4020
2026-01-05 07:01:31.90	47.33	10.92	-48.3	-49.6	14.8	0.00e+00	0	27	0	538968064	63	4022
2026-01-05 07:01:32.89	47.22	10.98	-48.3	-49.6	14.8	0.00e+00	0	27	0	544210944	63	4018
2026-01-05 07:01:33.88	47.10	11.05	-48.3	-49.5	14.8	0.00e+00	0	27	0	549453824	63	4002
2026-01-05 07:01:34.87	46.98	11.12	-48.3	-49.5	14.7	0.00e+00	0	27	0	555745280	62	4232
2026-01-05 07:01:35.87	46.86	11.19	-48.2	-49.5	14.7	0.00e+00	0	27	0	560988160	62	4202
2026-01-05 07:01:36.86	46.74	11.26	-48.3	-49.5	14.7	0.00e+00	0	27	0	567279616	62	4242
2026-01-05 07:01:37.85	46.62	11.33	-48.3	-49.5	14.6	0.00e+00	0	27	0	572522496	62	4242
2026-01-05 07:01:38.85	46.50	11.40	-48.1	-49.4	14.7	0.00e+00	0	27	0	577765376	62	4150
2026-01-05 07:01:39.84	46.38	11.47	-48.1	-49.3	14.7	0.00e+00	0	27	0	584056832	62	4128
2026-01-05 07:01:40.84	46.26	11.54	-48.1	-49.3	14.7	0.00e+00	0	27	0	589299712	62	4143
2026-01-05 07:01:41.83	46.13	11.61	-48.1	-49.4	14.7	0.00e+00	0	27	0	594542592	62	4149
2026-01-05 07:01:42.83	46.01	11.68	-48.0	-49.3	14.7	0.00e+00	0	27	0	599785472	62	4106
2026-01-05 07:01:43.82	45.89	11.75	-48.0	-49.3	14.8	0.00e+00	0	27	0	606076928	62	4101
2026-01-05 07:01:44.82	45.76	11.82	-48.1	-49.4	14.7	0.00e+00	0	27	0	611319808	62	4151
2026-01-05 07:01:45.82	45.64	11.89	-48.0	-49.2	14.8	0.00e+00	0	27	0	617611264	62	4085
2026-01-05 07:01:46.81	45.51	11.96	-48.0	-49.2	14.8	0.00e+00	0	27	0	622854144	62	4094
2026-01-05 07:01:47.81	45.38	12.03	-47.9	-49.1	14.8	0.00e+00	0	27	0	628097024	62	4027
2026-01-05 07:01:48.79	45.26	12.10	-47.9	-49.1	14.8	0.00e+00	0	27	0	634388480	62	4044
2026-01-05 07:01:49.80	45.13	12.17	-48.0	-49.2	14.8	0.00e+00	0	27	0	639631360	62	4059
2026-01-05 07:01:50.80	45.00	12.24	-48.0	-49.2	14.8	0.00e+00	0	27	0	644874240	62	4073
2026-01-05 07:01:51.80	44.87	12.31	-48.0	-49.2	14.8	0.00e+00	0	27	0	651165696	62	4080
2026-01-05 07:01:52.81	44.74	12.38	-48.0	-49.2	14.8	0.00e+00	0	27	0	656408576	62	4077
2026-01-05 07:01:53.80	44.61	12.45	-47.9	-49.1	14.9	0.00e+00	0	27	0	662700032	62	4048
2026-01-05 07:01:54.81	44.48	12.52	-47.9	-49.1	14.8	0.00e+00	0	27	0	667942912	62	4008
2026-01-05 07:01:55.81	44.35	12.59	-47.8	-49.1	14.9	0.00e+00	0	27	0	673185792	62	4005
2026-01-05 07:01:56.80	44.21	12.66	-47.9	-49.1	14.8	0.00e+00	0	28	0	679477248	62	4022
2026-01-05 07:01:57.80	44.08	12.73	-47.9	-49.1	14.9	0.00e+00	0	27	0	684720128	62	4021
2026-01-05 07:01:58.80	43.95	12.81	-47.9	-49.1	14.9	0.00e+00	0	27	0	689963008	62	4026
2026-01-05 07:01:59.80	43.81	12.88	-47.9	-49.1	14.9	0.00e+00	0	27	0	696254464	62	4011
2026-01-05 07:02:00.79	43.68	12.95	-47.8	-49.0	14.9	0.00e+00	0	27	0	701497344	62	3979
2026-01-05 07:02:01.79	43.54	13.02	-47.9	-49.1	14.9	0.00e+00	0	27	0	706740224	62	4010
2026-01-05 07:02:02.79	43.41	13.09	-47.7	-48.9	14.9	0.00e+00	0	27	0	713031680	62	3935
2026-01-05 07:02:03.79	43.27	13.16	-47.6	-48.7	14.9	0.00e+00	0	27	0	718274560	61	4096
2026-01-05 07:02:04.79	43.13	13.23	-47.5	-48.7	14.8	0.00e+00	0	27	0	724566016	61	4079
2026-01-05 07:02:05.79	42.99	13.30	-47.5	-48.7	14.9	0.00e+00	0	27	0	729808896	61	4057
2026-01-05 07:02:06.78	42.85	13.37	-47.5	-48.6	14.9	0.00e+00	0	27	0	735051776	61	4051
2026-01-05 07:02:07.78	42.71	13.45	-47.4	-48.6	14.9	0.00e+00	0	27	0	740294656	61	4035
2026-01-05 07:02:08.76	42.58	13.52	-47.5	-48.7	14.9	0.00e+00	0	27	0	746586112	61	4056
2026-01-05 07:02:09.77	42.43	13.59	-47.4	-48.6	14.9	0.00e+00	0	27	0	751828992	61	4014
2026-01-05 07:02:10.77	42.29	13.66	-47.5	-48.7	14.9	0.00e+00	0	27	0	757071872	61	4069
2026-01-05 07:02:11.77	42.15	13.73	-47.4	-48.5	14.9	0.00e+00	0	27	0	763363328	61	3996
2026-01-05 07:02:12.77	42.00	13.80	-47.4	-48.6	14.9	0.00e+00	0	27	0	768606208	61	4022
2026-01-05 07:02:13.76	41.86	13.87	-47.5	-48.7	14.9	0.00e+00	0	28	0	774897664	61	4064
2026-01-05 07:02:14.77	41.71	13.95	-47.5	-48.7	14.9	0.00e+00	0	27	0	780140544	61	4084
2026-01-05 07:02:15.77	41.57	14.02	-47.3	-48.5	15.0	0.00e+00	0	27	0	785383424	61	3965
2026-01-05 07:02:16.76	41.42	14.09	-47.4	-48.5	15.0	0.00e+00	0	27	0	791674880	61	3997
2026-01-05 07:02:17.76	41.28	14.16	-47.3	-48.5	15.0	0.00e+00	0	27	0	796917760	61	3970
2026-01-05 07:02:18.76	41.13	14.23	-47.3	-48.5	15.0	0.00e+00	0	27	0	802160640	61	3973
2026-01-05 07:02:19.75	40.98	14.30	-47.4	-48.6	14.9	0.00e+00	0	27	0	808452096	61	4010
2026-01-05 07:02:20.74	40.83	14.37	-47.4	-48.6	14.9	0.00e+00	0	27	0	813694976	61	4034
2026-01-05 07:02:21.74	40.68	14.45	-47.5	-48.7	14.9	0.00e+00	0	27	0	818937856	61	4076
2026-01-05 07:02:22.73	40.53	14.52	-47.4	-48.6	14.9	0.00e+00	0	27	0	825229312	61	4024
2026-01-05 07:02:23.73	40.38	14.59	-47.3	-48.4	15.0	0.00e+00	0	28	0	830472192	61	3941
2026-01-05 07:02:24.73	40.23	14.66	-47.2	-48.4	14.9	0.00e+00	0	28	0	835715072	60	4168
2026-01-05 07:02:25.72	40.08	14.73	-47.0	-48.2	15.0	0.00e+00	0	27	0	842006528	60	4072
2026-01-05 07:02:26.72	39.92	14.80	-47.0	-48.1	15.0	0.00e+00	0	28	0	847249408	60	4046
2026-01-05 07:02:27.72	39.77	14.87	-47.0	-48.1	15.0	0.00e+00	0	28	0	852492288	60	4039
2026-01-05 07:02:28.71	39.62	14.95	-47.0	-48.1	15.0	0.00e+00	0	28	0	858783744	60	4023
2026-01-05 07:02:29.70	39.46	15.02	-47.0	-48.1	15.0	0.00e+00	0	27	0	864026624	60	4051
2026-01-05 07:02:30.70	39.31	15.09	-46.9	-48.1	15.0	0.00e+00	0	27	0	869269504	60	4023
2026-01-05 07:02:31.70	39.15	15.16	-46.9	-48.0	15.0	0.00e+00	0	27	0	875560960	60	3994
2026-01-05 07:02:32.69	38.99	15.23	-46.9	-48.0	15.0	0.00e+00	0	28	0	880803840	60	3978
2026-01-05 07:02:33.68	38.83	15.30	-46.8	-48.0	15.0	0.00e+00	0	27	0	886046720	60	3967
2026-01-05 07:02:34.67	38.67	15.37	-46.9	-48.0	15.0	0.00e+00	0	27	0	892338176	60	3984
2026-01-05 07:02:35.66	38.52	15.44	-47.0	-48.1	15.0	0.00e+00	0	28	0	897581056	60	4026
2026-01-05 07:02:36.65	38.36	15.52	-47.0	-48.1	15.0	0.00e+00	0	27	0	902823936	60	4027
2026-01-05 07:02:37.64	38.20	15.59	-47.0	-48.1	15.0	0.00e+00	0	28	0	909115392	60	4038
2026-01-05 07:02:38.63	38.03	15.66	-47.0	-48.2	14.9	0.00e+00	0	27	0	914358272	60	4069
2026-01-05 07:02:39.63	37.87	15.73	-47.1	-48.3	14.9	0.00e+00	0	27	0	919601152	60	4101
2026-01-05 07:02:40.62	37.71	15.80	-47.1	-48.3	14.9	0.00e+00	0	28	0	925892608	60	4112
2026-01-05 07:02:41.63	37.54	15.87	-47.0	-48.1	15.0	0.00e+00	0	27	0	931135488	60	4042
2026-01-05 07:02:42.62	37.38	15.94	-47.0	-48.1	15.0	0.00e+00	0	27	0	936378368	60	4039
2026-01-05 07:02:43.62	37.21	16.01	-47.0	-48.1	15.0	0.00e+00	0	27	0	942669824	60	4040
2026-01-05 07:02:44.62	37.04	16.09	-46.8	-48.0	15.0	0.00e+00	0	27	0	947912704	60	3964
2026-01-05 07:02:45.61	36.87	16.16	-46.9	-48.1	15.0	0.00e+00	0	27	0	953155584	60	4009
2026-01-05 07:02:46.62	36.70	16.23	-46.8	-48.0	15.1	0.00e+00	0	27	0	959447040	60	3974
2026-01-05 07:02:47.62	36.53	16.30	-46.8	-48.0	15.1	0.00e+00	0	27	0	964689920	60	3964
2026-01-05 07:02:48.61	36.36	16.37	-46.9	-48.0	15.0	0.00e+00	0	28	0	969932800	60	4002
2026-01-05 07:02:49.60	36.19	16.44	-46.9	-48.0	15.0	0.00e+00	0	27	0	976224256	60	3975
2026-01-05 07:02:50.59	36.02	16.51	-46.9	-48.0	15.0	0.00e+00	0	27	0	981467136	60	3982
2026-01-05 07:02:51.59	35.85	16.58	-46.9	-48.1	15.0	0.00e+00	0	28	0	987758592	60	4013
2026-01-05 07:02:52.58	35.67	16.65	-46.9	-48.1	15.0	0.00e+00	0	27	0	993001472	60	4007
2026-01-05 07:02:53.57	35.50	16.72	-46.9	-48.0	15.0	0.00e+00	0	27	0	998244352	60	3988
2026-01-05 07:02:54.57	35.33	16.79	-46.9	-48.0	15.1	0.00e+00	0	28	0	1003487232	60	3997
2026-01-05 07:02:55.56	35.15	16.86	-46.8	-48.0	15.0	0.00e+00	0	27	0	1009778688	60	3972
2026-01-05 07:02:56.56	34.97	16.94	-46.8	-47.9	15.1	0.00e+00	0	28	0	1015021568	60	3951
2026-01-05 07:02:57.55	34.80	17.01	-46.9	-48.0	15.0	0.00e+00	0	27	0	1020264448	60	3997
2026-01-05 07:02:58.55	34.62	17.08	-47.1	-48.2	14.9	0.00e+00	0	27	0	1026555904	59	4338
2026-01-05 07:02:59.54	34.44	17.15	-47.0	-48.2	14.9	0.00e+00	0	28	0	1031798784	59	4319
2026-01-05 07:03:00.52	34.26	17.21	-46.9	-48.0	14.9	0.00e+00	0	27	0	1037041664	59	4240
2026-01-05 07:03:01.52	34.08	17.29	-46.9	-48.0	14.9	0.00e+00	0	28	0	1043333120	59	4228
2026-01-05 07:03:02.52	33.89	17.36	-46.9	-48.1	14.9	0.00e+00	0	27	0	1048576000	59	4253
2026-01-05 07:03:03.51	33.71	17.42	-46.9	-48.1	14.9	0.00e+00	0	28	0	1053818880	59	4252
2026-01-05 07:03:04.50	33.53	17.49	-46.9	-48.1	14.9	0.00e+00	0	27	0	1060110336	59	4261
2026-01-05 07:03:05.49	33.35	17.56	-46.9	-48.0	14.9	0.00e+00	0	27	0	1065353216	59	4212
2026-01-05 07:03:06.49	33.16	17.63	-47.0	-48.1	14.9	0.00e+00	0	27	0	1070596096	59	4279
2026-01-05 07:03:07.49	32.97	17.70	-46.8	-47.9	15.0	0.00e+00	0	27	0	1076887552	59	4173
2026-01-05 07:03:08.49	32.78	17.77	-46.8	-47.9	15.0	0.00e+00	0	27	0	1082130432	59	4170
2026-01-05 07:03:09.48	32.60	17.84	-46.7	-47.8	15.0	0.00e+00	0	27	0	1087373312	59	4113
2026-01-05 07:03:10.48	32.41	17.91	-46.6	-47.7	15.0	0.00e+00	0	27	0	1093664768	59	4084
2026-01-05 07:03:11.47	32.22	17.98	-46.6	-47.7	15.1	0.00e+00	0	28	0	1098907648	59	4071
2026-01-05 07:03:12.46	32.03	18.05	-46.5	-47.7	15.1	0.00e+00	0	27	0	1104150528	59	4055
2026-01-05 07:03:13.45	31.84	18.12	-46.6	-47.7	15.0	0.00e+00	0	28	0	1110441984	59	4092
2026-01-05 07:03:14.44	31.65	18.18	-46.6	-47.7	15.1	0.00e+00	0	28	0	1115684864	59	4086
2026-01-05 07:03:15.43	31.45	18.25	-46.8	-47.9	15.0	0.00e+00	0	28	0	1120927744	59	4167
2026-01-05 07:03:16.42	31.26	18.32	-46.8	-47.9	15.0	0.00e+00	0	28	0	1127219200	59	4166
2026-01-05 07:03:17.42	31.07	18.39	-46.8	-47.9	15.0	0.00e+00	0	27	0	1132462080	59	4186
2026-01-05 07:03:18.41	30.87	18.45	-46.4	-47.5	15.1	0.00e+00	0	27	0	1137704960	59	3995
2026-01-05 07:03:19.40	30.67	18.52	-46.6	-47.7	15.0	0.00e+00	0	28	0	1143996416	59	4085
2026-01-05 07:03:20.40	30.48	18.59	-46.5	-47.6	15.1	0.00e+00	0	27	0	1149239296	59	4013
2026-01-05 07:03:21.40	30.28	18.66	-46.3	-47.4	15.2	0.00e+00	0	27	0	1154482176	59	3915
2026-01-05 07:03:22.39	30.08	18.72	-46.3	-47.4	15.2	0.00e+00	0	28	0	1160773632	59	3916
2026-01-05 07:03:23.39	29.88	18.79	-46.4	-47.5	15.1	0.00e+00	0	27	0	1166016512	59	3965
2026-01-05 07:03:24.39	29.67	18.86	-46.6	-47.7	15.0	0.00e+00	0	27	0	1171259392	59	4085
2026-01-05 07:03:25.37	29.48	18.92	-46.6	-47.8	15.0	0.00e+00	0	27	0	1177550848	59	4116
2026-01-05 07:03:26.36	29.27	18.99	-46.8	-47.9	15.0	0.00e+00	0	28	0	1182793728	59	4183
2026-01-05 07:03:27.35	29.07	19.06	-46.6	-47.7	15.1	0.00e+00	0	28	0	1188036608	59	4060
2026-01-05 07:03:28.34	28.87	19.12	-46.6	-47.7	15.1	0.00e+00	0	28	0	1194328064	59	4069
2026-01-05 07:03:29.33	28.66	19.19	-46.4	-47.5	15.1	0.00e+00	0	28	0	1199570944	59	3996
2026-01-05 07:03:30.32	28.46	19.25	-46.4	-47.5	15.1	0.00e+00	0	27	0	1204813824	59	4003
2026-01-05 07:03:31.32	28.25	19.32	-46.3	-47.4	15.2	0.00e+00	0	28	0	1211105280	59	3942
2026-01-05 07:03:32.31	28.04	19.38	-46.3	-47.5	15.2	0.00e+00	0	28	0	1216348160	59	3962
2026-01-05 07:03:33.30	27.83	19.45	-46.3	-47.4	15.2	0.00e+00	0	28	0	1221591040	59	3937
2026-01-05 07:03:34.30	27.62	19.51	-46.3	-47.4	15.2	0.00e+00	0	28	0	1227882496	59	3937
2026-01-05 07:03:35.28	27.41	19.57	-46.3	-47.4	15.2	0.00e+00	0	28	0	1233125376	59	3933
2026-01-05 07:03:36.28	27.20	19.64	-46.4	-47.5	15.2	0.00e+00	0	28	0	1238368256	59	3976
2026-01-05 07:03:37.27	26.99	19.70	-46.5	-47.6	15.1	0.00e+00	0	28	0	1243611136	59	4011
2026-01-05 07:03:38.27	26.77	19.77	-46.4	-47.5	15.1	0.00e+00	0	28	0	1249902592	59	3986
2026-01-05 07:03:39.27	26.56	19.83	-46.3	-47.5	15.1	0.00e+00	0	28	0	1255145472	59	3961
2026-01-05 07:03:40.26	26.34	19.89	-46.3	-47.4	15.2	0.00e+00	0	28	0	1261436928	59	3932
2026-01-05 07:03:41.26	26.13	19.96	-46.2	-47.3	15.2	0.00e+00	0	28	0	1266679808	59	3906
2026-01-05 07:03:42.26	25.91	20.02	-46.1	-47.2	15.1	0.00e+00	0	28	0	1271922688	58	4059
2026-01-05 07:03:43.26	25.69	20.08	-46.2	-47.2	15.1	0.00e+00	0	28	0	1278214144	58	4095
2026-01-05 07:03:44.25	25.47	20.14	-46.1	-47.2	15.1	0.00e+00	0	28	0	1283457024	58	4059
2026-01-05 07:03:45.25	25.25	20.20	-46.0	-47.1	15.1	0.00e+00	0	28	0	1288699904	58	4035
2026-01-05 07:03:46.25	25.03	20.27	-46.1	-47.2	15.1	0.00e+00	0	27	0	1294991360	58	4084
2026-01-05 07:03:47.25	24.80	20.33	-46.2	-47.3	15.1	0.00e+00	0	27	0	1300234240	58	4108
2026-01-05 07:03:48.25	24.58	20.39	-46.4	-47.5	15.0	0.00e+00	0	28	0	1305477120	58	4204
2026-01-05 07:03:49.25	24.35	20.45	-46.4	-47.5	15.0	0.00e+00	0	27	0	1311768576	58	4214
2026-01-05 07:03:50.26	24.13	20.51	-46.3	-47.4	15.0	0.00e+00	0	28	0	1317011456	58	4149
2026-01-05 07:03:51.25	23.90	20.57	-46.3	-47.4	15.0	0.00e+00	0	27	0	1323302912	58	4188
2026-01-05 07:03:52.26	23.67	20.63	-46.3	-47.4	15.0	0.00e+00	0	27	0	1328545792	58	4171
2026-01-05 07:03:53.25	23.45	20.69	-46.3	-47.4	15.0	0.00e+00	0	28	0	1333788672	58	4183
2026-01-05 07:03:54.25	23.22	20.75	-47.1	-48.3	15.0	0.00e+00	0	28	0	1340080128	60	4107
2026-01-05 07:03:55.26	22.98	20.81	-49.5	-50.8	14.4	0.00e+00	0	28	0	1345323008	64	4391
2026-01-05 07:03:56.26	22.75	20.87	-59.7	-72.1	3.8	1.70e-01	0	27	104	1349517312	84	16044
2026-01-05 07:03:57.26	22.52	20.92	-60.0	-72.8	3.8	8.44e-01	0	28	104	1349517312	85	16385
2026-01-05 07:03:58.25	22.29	20.98	-60.1	-72.5	3.8	8.45e-01	0	28	104	1349517312	85	15824
2026-01-05 07:03:59.25	22.06	21.04	-60.2	-73.3	3.8	8.46e-01	0	28	104	1349517312	85	17307
2026-01-05 07:04:00.24	21.83	21.09	-60.3	-73.3	3.8	8.46e-01	0	28	104	1349517312	85	17471
2026-01-05 07:04:01.23	21.59	21.15	-60.4	-73.5	3.8	8.46e-01	0	28	104	1349517312	85	17718
2026-01-05 07:04:02.22	21.36	21.21	-60.5	-73.6	3.8	8.45e-01	0	28	104	1349517312	86	16913
2026-01-05 07:04:03.21	21.12	21.26	-60.6	-73.6	3.8	8.45e-01	0	28	104	1349517312	86	16942
2026-01-05 07:04:04.21	20.89	21.32	-60.6	-73.7	3.8	8.45e-01	0	28	104	1349517312	86	17188
2026-01-05 07:04:05.20	20.65	21.37	-60.7	-73.7	3.8	8.46e-01	0	28	104	1349517312	86	17237
2026-01-05 07:04:06.19	20.41	21.42	-60.8	-73.8	3.8	8.45e-01	0	28	104	1349517312	86	17339
2026-01-05 07:04:07.19	20.17	21.48	-60.8	-73.9	3.8	8.46e-01	0	28	104	1349517312	86	17514
2026-01-05 07:04:08.18	19.93	21.53	-60.9	-73.9	3.8	8.45e-01	0	28	104	1349517312	86	17558
2026-01-05 07:04:09.18	19.69	21.59	-60.9	-73.9	3.8	8.46e-01	0	27	104	1349517312	86	17606
2026-01-05 07:04:10.17	19.45	21.64	-60.9	-74.0	3.8	8.45e-01	0	28	104	1349517312	87	16836
2026-01-05 07:04:11.16	19.21	21.69	-61.0	-74.0	3.9	8.46e-01	0	28	104	1349517312	87	16810
2026-01-05 07:04:12.15	18.97	21.74	-60.9	-74.0	3.8	8.44e-01	0	28	104	1349517312	87	16758
2026-01-05 07:04:13.15	18.72	21.79	-61.0	-74.0	3.8	8.45e-01	0	28	104	1349517312	87	16815
2026-01-05 07:04:14.14	18.48	21.84	-61.0	-74.0	3.8	8.45e-01	0	27	104	1349517312	87	16847
2026-01-05 07:04:15.14	18.23	21.89	-60.9	-74.0	3.8	8.44e-01	0	28	104	1349517312	87	16762
2026-01-05 07:04:16.15	17.98	21.94	-60.9	-74.0	3.8	8.44e-01	0	28	104	1349517312	87	16728
2026-01-05 07:04:17.14	17.73	21.99	-60.9	-73.9	3.8	8.47e-01	0	28	104	1349517312	87	16654
2026-01-05 07:04:18.13	17.49	22.04	-60.9	-73.9	3.8	8.46e-01	0	28	104	1349517312	87	16664
2026-01-05 07:04:19.13	17.23	22.09	-60.9	-73.9	3.8	8.46e-01	0	28	104	1349517312	87	16666
2026-01-05 07:04:20.13	16.98	22.14	-60.9	-73.9	3.8	8.45e-01	0	28	104	1349517312	87	16595
2026-01-05 07:04:21.13	16.73	22.19	-60.9	-73.9	3.8	8.45e-01	0	27	104	1349517312	87	16621
2026-01-05 07:04:22.13	16.48	22.23	-60.8	-73.9	3.8	8.46e-01	0	27	104	1349517312	87	16619
2026-01-05 07:04:23.13	16.23	22.28	-60.8	-73.9	3.8	8.44e-01	0	28	104	1349517312	87	16632
2026-01-05 07:04:24.12	15.97	22.32	-60.8	-73.9	3.8	8.46e-01	0	28	104	1349517312	87	16589
2026-01-05 07:04:25.12	15.72	22.37	-60.8	-73.9	3.8	8.45e-01	0	28	104	1349517312	87	16527
2026-01-05 07:04:26.11	15.47	22.42	-60.8	-73.9	3.8	8.44e-01	0	28	104	1349517312	87	16556
2026-01-05 07:04:27.10	15.21	22.46	-60.8	-73.9	3.8	8.46e-01	0	28	104	1349517312	87	16524
2026-01-05 07:04:28.09	14.96	22.50	-60.8	-73.9	3.8	8.45e-01	0	28	104	1349517312	87	16556
2026-01-05 07:04:29.09	14.70	22.55	-60.8	-73.9	3.8	8.45e-01	0	28	104	1349517312	87	16588
2026-01-05 07:04:30.09	14.44	22.59	-60.8	-73.9	3.8	8.44e-01	0	28	104	1349517312	87	16522
2026-01-05 07:04:31.08	14.18	22.63	-60.8	-73.9	3.8	8.47e-01	0	28	104	1349517312	87	16518
2026-01-05 07:04:32.09	13.92	22.67	-60.8	-73.9	3.8	8.45e-01	0	28	104	1349517312	87	16504
2026-01-05 07:04:33.08	13.66	22.71	-60.8	-73.8	3.8	8.46e-01	0	28	104	1349517312	87	16489
2026-01-05 07:04:34.06	13.41	22.75	-60.8	-73.8	3.8	8.46e-01	0	28	104	1349517312	87	16479
2026-01-05 07:04:35.05	13.15	22.79	-60.8	-73.8	3.8	8.46e-01	0	28	104	1349517312	87	16431
2026-01-05 07:04:36.05	12.88	22.83	-60.8	-73.8	3.8	8.46e-01	0	28	104	1349517312	87	16417
2026-01-05 07:04:37.05	12.62	22.87	-60.8	-73.8	3.8	8.45e-01	0	28	104	1349517312	87	16448
2026-01-05 07:04:38.05	12.36	22.91	-60.7	-73.8	3.8	8.46e-01	0	28	104	1349517312	87	16442
2026-01-05 07:04:39.06	12.09	22.95	-60.7	-73.8	3.8	8.47e-01	0	28	104	1349517312	87	16463
2026-01-05 07:04:40.06	11.82	22.98	-60.7	-73.8	3.8	8.47e-01	0	28	104	1349517312	87	16437
2026-01-05 07:04:41.05	11.56	23.02	-60.7	-73.8	3.8	8.46e-01	0	28	104	1349517312	87	16401
2026-01-05 07:04:42.05	11.29	23.06	-60.7	-73.8	3.8	8.45e-01	0	28	104	1349517312	87	16366
2026-01-05 07:04:43.05	11.03	23.09	-60.7	-73.8	3.8	8.46e-01	0	28	104	1349517312	87	16402
2026-01-05 07:04:44.05	10.76	23.13	-60.7	-73.8	3.8	8.46e-01	0	28	104	1349517312	87	16368
2026-01-05 07:04:45.05	10.49	23.16	-60.7	-73.8	3.8	8.46e-01	0	28	104	1349517312	87	16315
2026-01-05 07:04:46.06	10.22	23.19	-60.7	-73.8	3.8	8.46e-01	0	28	104	1349517312	87	16368
2026-01-05 07:04:47.06	9.95	23.23	-60.7	-73.8	3.8	8.46e-01	0	28	104	1349517312	87	16364
2026-01-05 07:04:48.06	9.68	23.26	-60.7	-73.8	3.8	8.45e-01	0	28	104	1349517312	87	16323
2026-01-05 07:04:49.06	9.41	23.29	-60.7	-73.8	3.8	8.46e-01	0	28	104	1349517312	87	16352
2026-01-05 07:04:50.06	9.14	23.32	-60.7	-73.8	3.8	8.47e-01	0	28	104	1349517312	87	16325
2026-01-05 07:04:51.06	8.86	23.35	-60.7	-73.7	3.8	8.45e-01	0	28	104	1349517312	87	16274
2026-01-05 07:04:52.06	8.59	23.38	-60.7	-73.8	3.8	8.46e-01	0	28	104	1349517312	87	16347
2026-01-05 07:04:53.05	8.32	23.41	-60.7	-73.8	3.8	8.46e-01	0	28	104	1349517312	87	16370
2026-01-05 07:04:54.05	8.05	23.44	-60.7	-73.7	3.8	8.46e-01	0	28	104	1349517312	87	16268
2026-01-05 07:04:55.05	7.77	23.46	-60.7	-73.7	3.8	8.46e-01	0	28	104	1349517312	87	16267
2026-01-05 07:04:56.05	7.50	23.49	-60.7	-73.7	3.8	8.46e-01	0	28	104	1349517312	87	16304
2026-01-05 07:04:57.05	7.23	23.52	-60.7	-73.7	3.8	8.46e-01	0	28	104	1349517312	87	16255
2026-01-05 07:04:58.05	6.95	23.54	-60.6	-73.7	3.8	8.46e-01	0	28	104	1349517312	87	16204
2026-01-05 07:04:59.05	6.67	23.57	-60.6	-73.7	3.8	8.46e-01	0	28	104	1349517312	87	16185
2026-01-05 07:05:00.05	6.40	23.59	-60.6	-73.7	3.8	8.45e-01	0	28	104	1349517312	87	16179
2026-01-05 07:05:01.05	6.12	23.61	-60.6	-73.7	3.8	8.45e-01	0	28	104	1349517312	87	16170
2026-01-05 07:05:02.05	5.84	23.64	-60.6	-73.7	3.8	8.46e-01	0	27	104	1349517312	87	16192
2026-01-05 07:05:03.05	5.57	23.66	-60.6	-73.7	3.8	8.45e-01	0	28	104	1349517312	87	16245
2026-01-05 07:05:04.06	5.29	23.68	-60.6	-73.7	3.8	8.45e-01	0	28	104	1349517312	87	16190
2026-01-05 07:05:05.05	5.01	23.70	-60.6	-73.7	3.8	8.46e-01	0	28	104	1349517312	87	16193
2026-01-05 07:05:06.05	4.73	23.72	-60.6	-73.7	3.8	8.45e-01	0	28	104	1349517312	87	16185
2026-01-05 07:05:07.05	4.45	23.74	-60.6	-73.7	3.8	8.45e-01	0	28	104	1349517312	87	16197
2026-01-05 07:05:08.05	4.17	23.76	-60.6	-73.7	3.8	8.46e-01	0	28	104	1349517312	87	16172
2026-01-05 07:05:09.04	3.90	23.77	-60.6	-73.7	3.8	8.45e-01	0	28	104	1349517312	87	16188
2026-01-05 07:05:10.04	3.62	23.79	-60.6	-73.7	3.8	8.45e-01	0	28	104	1349517312	87	16162
2026-01-05 07:05:11.04	3.34	23.81	-60.6	-73.7	3.8	8.45e-01	0	28	104	1349517312	87	16153
2026-01-05 07:05:12.03	3.06	23.82	-60.6	-73.7	3.8	8.45e-01	0	28	104	1349517312	87	16140
2026-01-05 07:05:13.03	2.78	23.84	-60.6	-73.7	3.8	8.45e-01	0	28	104	1349517312	87	16160
2026-01-05 07:05:14.02	2.50	23.85	-60.6	-73.7	3.8	8.45e-01	0	28	104	1349517312	87	16149
2026-01-05 07:05:15.01	2.22	23.86	-60.6	-73.7	3.8	8.46e-01	0	28	104	1349517312	87	16135
2026-01-05 07:05:16.01	1.94	23.87	-60.6	-73.6	3.8	8.44e-01	0	28	104	1349517312	87	16112
2026-01-05 07:05:17.01	1.66	23.89	-60.6	-73.6	3.8	8.45e-01	0	28	104	1349517312	87	16126
2026-01-05 07:05:18.01	1.38	23.90	-60.6	-73.6	3.8	8.47e-01	0	28	104	1349517312	87	16117
2026-01-05 07:05:19.01	1.10	23.91	-60.6	-73.7	3.8	8.46e-01	0	28	104	1349517312	87	16150
2026-01-05 07:05:20.00	0.82	23.92	-60.6	-73.6	3.8	8.46e-01	0	28	104	1349517312	87	16106
2026-01-05 07:05:21.00	0.54	23.93	-60.6	-73.7	3.8	8.46e-01	0	28	104	1349517312	87	16191
2026-01-05 07:05:21.99	0.26	23.93	-60.6	-73.7	3.8	8.45e-01	0	28	104	1349517312	87	16210
2026-01-05 07:05:22.98	359.98	23.94	-60.6	-73.7	3.8	8.46e-01	0	28	104	1349517312	87	16180
2026-01-05 07:05:23.99	359.69	23.95	-60.6	-73.7	3.8	8.45e-01	0	28	104	1349517312	87	16158
2026-01-05 07:05:24.99	359.41	23.95	-60.6	-73.7	3.8	8.46e-01	0	28	104	1349517312	87	16129
2026-01-05 07:05:25.99	359.12	23.96	-60.6	-73.7	3.8	8.44e-01	0	28	104	1349517312	87	16130
2026-01-05 07:05:26.98	358.84	23.96	-60.6	-73.7	3.9	8.45e-01	0	28	104	1349517312	87	16161
2026-01-05 07:05:27.98	358.56	23.96	-60.6	-73.6	3.8	8.44e-01	0	28	104	1349517312	87	16110
2026-01-05 07:05:28.98	358.28	23.97	-60.6	-73.7	3.8	8.45e-01	0	28	104	1349517312	87	16133
2026-01-05 07:05:29.98	358.00	23.97	-60.6	-73.6	3.8	8.44e-01	0	28	104	1349517312	87	16093
2026-01-05 07:05:30.97	357.71	23.97	-60.6	-73.6	3.8	8.44e-01	0	28	104	1349517312	87	16125
2026-01-05 07:05:31.97	357.43	23.97	-60.6	-73.7	3.8	8.45e-01	0	28	104	1349517312	87	16137
2026-01-05 07:05:32.96	357.15	23.97	-60.6	-73.6	3.8	8.46e-01	0	28	104	1349517312	87	16080
2026-01-05 07:05:33.95	356.87	23.97	-60.6	-73.6	3.8	8.45e-01	0	28	104	1349517312	87	16023
2026-01-05 07:05:34.95	356.59	23.97	-60.5	-73.6	3.8	8.46e-01	0	28	104	1349517312	87	16020
2026-01-05 07:05:35.94	356.31	23.96	-60.5	-73.6	3.8	8.46e-01	0	28	104	1349517312	87	16032
2026-01-05 07:05:36.94	356.02	23.96	-60.6	-73.6	3.8	8.45e-01	0	28	104	1349517312	87	16030
2026-01-05 07:05:37.94	355.74	23.96	-60.6	-73.6	3.8	8.45e-01	0	28	104	1349517312	87	16076
2026-01-05 07:05:38.93	355.46	23.95	-60.5	-73.6	3.8	8.46e-01	0	28	104	1349517312	87	16019
2026-01-05 07:05:39.93	355.18	23.95	-60.6	-73.6	3.8	8.46e-01	0	28	104	1349517312	87	16036
2026-01-05 07:05:40.93	354.90	23.94	-60.5	-73.6	3.8	8.45e-01	0	28	104	1349517312	87	16068
2026-01-05 07:05:41.93	354.61	23.93	-60.5	-73.6	3.9	8.45e-01	0	28	104	1349517312	87	16109
2026-01-05 07:05:42.93	354.33	23.92	-60.6	-73.6	3.8	8.45e-01	0	28	104	1349517312	87	16079
2026-01-05 07:05:43.93	354.05	23.92	-60.6	-73.6	3.8	8.45e-01	0	28	104	1349517312	87	16053
2026-01-05 07:05:44.92	353.77	23.91	-60.6	-73.6	3.8	8.46e-01	0	28	104	1349517312	87	16020
2026-01-05 07:05:45.92	353.49	23.90	-60.5	-73.6	3.9	8.45e-01	0	28	104	1349517312	87	16044
2026-01-05 07:05:46.92	353.21	23.89	-60.5	-73.6	3.8	8.45e-01	0	28	104	1349517312	87	16044
2026-01-05 07:05:47.91	352.93	23.87	-60.5	-73.6	3.8	8.46e-01	0	28	104	1349517312	87	16065
2026-01-05 07:05:48.91	352.64	23.86	-60.5	-73.6	3.8	8.46e-01	0	28	104	1349517312	87	16028
2026-01-05 07:05:49.90	352.37	23.85	-60.5	-73.5	3.8	8.46e-01	0	28	104	1349517312	87	15908
2026-01-05 07:05:50.90	352.09	23.83	-60.5	-73.6	3.8	8.46e-01	0	28	104	1349517312	87	15975
2026-01-05 07:05:51.90	351.81	23.82	-60.5	-73.6	3.8	8.45e-01	0	28	104	1349517312	87	15967
2026-01-05 07:05:52.89	351.53	23.80	-60.5	-73.6	3.8	8.46e-01	0	28	104	1349517312	87	15976
2026-01-05 07:05:53.88	351.25	23.79	-60.5	-73.6	3.8	8.46e-01	0	28	104	1349517312	87	15952
2026-01-05 07:05:54.87	350.97	23.77	-60.5	-73.6	3.8	8.46e-01	0	28	104	1349517312	87	15954
2026-01-05 07:05:55.86	350.70	23.75	-60.5	-73.6	3.8	8.46e-01	0	28	104	1349517312	87	15967
2026-01-05 07:05:56.86	350.42	23.74	-60.5	-73.6	3.8	8.46e-01	0	28	104	1349517312	87	15969
2026-01-05 07:05:57.86	350.14	23.72	-60.5	-73.5	3.8	8.46e-01	0	28	104	1349517312	87	15926
2026-01-05 07:05:58.85	349.86	23.70	-60.5	-73.6	3.8	8.46e-01	0	28	104	1349517312	87	16025
2026-01-05 07:05:59.84	349.59	23.68	-60.5	-73.5	3.8	8.46e-01	0	28	104	1349517312	87	15941
2026-01-05 07:06:00.84	349.31	23.66	-60.5	-73.6	3.8	8.45e-01	0	28	104	1349517312	87	15991
2026-01-05 07:06:01.83	349.04	23.63	-60.5	-73.6	3.8	8.46e-01	0	28	104	1349517312	87	16014
2026-01-05 07:06:02.83	348.76	23.61	-60.5	-73.6	3.8	8.44e-01	0	28	104	1349517312	87	15978
2026-01-05 07:06:03.84	348.48	23.59	-60.5	-73.6	3.8	8.46e-01	0	28	104	1349517312	87	15959
2026-01-05 07:06:04.84	348.20	23.56	-60.5	-73.6	3.8	8.46e-01	0	28	104	1349517312	87	15989
2026-01-05 07:06:05.84	347.93	23.54	-60.6	-73.6	3.8	8.46e-01	0	28	104	1349517312	87	16000
2026-01-05 07:06:06.84	347.65	23.51	-60.5	-73.6	3.8	8.47e-01	0	28	104	1349517312	87	16042
2026-01-05 07:06:07.84	347.38	23.49	-60.5	-73.6	3.8	8.45e-01	0	28	104	1349517312	87	16040
2026-01-05 07:06:08.84	347.10	23.46	-60.5	-73.6	3.8	8.45e-01	0	28	104	1349517312	87	16029
2026-01-05 07:06:09.84	346.83	23.43	-60.6	-73.7	3.8	8.45e-01	0	28	104	1349517312	87	16233
2026-01-05 07:06:10.84	346.56	23.41	-60.7	-73.8	3.8	8.45e-01	0	28	104	1349517312	87	16385
2026-01-05 07:06:11.84	346.28	23.38	-60.7	-73.8	3.8	8.45e-01	0	28	104	1349517312	87	16365
2026-01-05 07:06:12.84	346.01	23.35	-60.7	-73.8	3.8	8.45e-01	0	28	104	1349517312	87	16333
2026-01-05 07:06:13.84	345.74	23.32	-60.6	-73.7	3.8	8.46e-01	0	28	104	1349517312	87	16248
2026-01-05 07:06:14.84	345.47	23.29	-60.6	-73.7	3.8	8.45e-01	0	28	104	1349517312	87	16199
2026-01-05 07:06:15.84	345.20	23.26	-60.6	-73.7	3.8	8.46e-01	0	28	104	1349517312	87	16216
2026-01-05 07:06:16.84	344.93	23.22	-60.6	-73.7	3.8	8.46e-01	0	28	104	1349517312	87	16169
2026-01-05 07:06:17.85	344.65	23.19	-60.6	-73.7	3.8	8.45e-01	0	28	104	1349517312	87	16170
2026-01-05 07:06:18.85	344.38	23.16	-60.6	-73.7	3.8	8.45e-01	0	28	104	1349517312	87	16162
2026-01-05 07:06:19.83	344.12	23.12	-60.6	-73.6	3.8	8.46e-01	0	28	104	1349517312	87	16121
2026-01-05 07:06:20.83	343.85	23.09	-60.6	-73.6	3.8	8.45e-01	0	28	104	1349517312	87	16122
2026-01-05 07:06:21.83	343.59	23.05	-60.6	-73.6	3.8	8.45e-01	0	28	104	1349517312	87	16092
2026-01-05 07:06:22.83	343.32	23.02	-60.6	-73.6	3.8	8.46e-01	0	28	104	1349517312	87	16086
2026-01-05 07:06:23.82	343.06	22.98	-60.6	-73.6	3.8	8.47e-01	0	28	104	1349517312	87	16104
2026-01-05 07:06:24.82	342.79	22.94	-60.6	-73.6	3.8	8.45e-01	0	28	104	1349517312	87	16104
2026-01-05 07:06:25.81	342.53	22.91	-60.5	-73.6	3.8	8.46e-01	0	28	104	1349517312	87	16055
2026-01-05 07:06:26.82	342.26	22.87	-60.5	-73.6	3.8	8.46e-01	0	28	104	1349517312	87	16087
2026-01-05 07:06:27.82	342.00	22.83	-60.5	-73.6	3.8	8.45e-01	0	28	104	1349517312	87	16098
2026-01-05 07:06:28.81	341.74	22.79	-60.6	-73.6	3.8	8.47e-01	0	28	104	1349517312	87	16103
2026-01-05 07:06:29.81	341.48	22.75	-60.6	-73.6	3.8	8.46e-01	0	28	104	1349517312	87	16047
2026-01-05 07:06:30.81	341.21	22.71	-60.5	-73.6	3.8	8.46e-01	0	28	104	1349517312	87	16059
2026-01-05 07:06:31.80	340.96	22.67	-60.5	-73.6	3.8	8.45e-01	0	28	104	1349517312	87	16066
2026-01-05 07:06:32.80	340.70	22.63	-60.5	-73.6	3.8	8.45e-01	0	28	104	1349517312	87	16009
2026-01-05 07:06:33.79	340.44	22.59	-60.5	-73.6	3.8	8.45e-01	0	28	104	1349517312	87	16103
2026-01-05 07:06:34.78	340.18	22.54	-60.5	-73.6	3.8	8.46e-01	0	28	104	1349517312	87	16025
2026-01-05 07:06:35.78	339.92	22.50	-60.5	-73.6	3.8	8.44e-01	0	28	104	1349517312	87	16031
2026-01-05 07:06:36.77	339.67	22.46	-76.6	-90.7	3.8	8.45e-01	0	28	104	1349517312	99	57572
2026-01-05 07:06:37.77	339.41	22.41	-76.6	-90.7	3.8	8.45e-01	0	28	104	1349517312	99	57585
2026-01-05 07:06:38.77	339.16	22.37	-76.6	-90.7	3.9	8.45e-01	0	28	104	1349517312	99	57745
2026-01-05 07:06:39.78	338.90	22.32	-60.5	-73.5	3.8	8.45e-01	0	28	104	1349517312	87	15911
2026-01-05 07:06:40.78	338.65	22.27	-60.5	-73.5	3.8	8.46e-01	0	28	104	1349517312	87	15932
2026-01-05 07:06:41.77	338.39	22.23	-60.5	-73.6	3.8	8.46e-01	0	28	104	1349517312	87	15953
2026-01-05 07:06:42.78	338.14	22.18	-60.5	-73.5	3.8	8.46e-01	0	28	104	1349517312	87	15910
2026-01-05 07:06:43.77	337.89	22.13	-60.5	-73.5	3.8	8.45e-01	0	28	104	1349517312	87	15904
2026-01-05 07:06:44.76	337.64	22.09	-60.5	-73.6	3.8	8.46e-01	0	28	104	1349517312	87	16057
2026-01-05 07:06:45.76	337.39	22.04	-60.6	-73.7	3.9	8.45e-01	0	28	104	1349517312	87	16183
2026-01-05 07:06:46.76	337.14	21.99	-60.7	-73.7	3.8	8.45e-01	0	28	104	1349517312	87	16232
2026-01-05 07:06:47.76	336.89	21.94	-60.6	-73.7	3.8	8.45e-01	0	28	104	1349517312	87	16188
2026-01-05 07:06:48.75	336.65	21.89	-60.6	-73.7	3.8	8.45e-01	0	28	104	1349517312	87	16140
2026-01-05 07:06:49.76	336.40	21.84	-60.7	-73.7	3.8	8.45e-01	0	28	104	1349517312	87	16250
2026-01-05 07:06:50.76	336.15	21.79	-60.7	-73.8	3.8	8.45e-01	0	28	104	1349517312	87	16377
2026-01-05 07:06:51.76	335.91	21.74	-60.7	-73.7	3.8	8.45e-01	0	28	104	1349517312	87	16314
2026-01-05 07:06:52.75	335.66	21.68	-60.7	-73.7	3.8	8.45e-01	0	28	104	1349517312	87	16277
2026-01-05 07:06:53.75	335.42	21.63	-60.7	-73.8	3.8	8.46e-01	0	28	104	1349517312	87	16437
2026-01-05 07:06:54.75	335.18	21.58	-60.7	-73.8	3.8	8.45e-01	0	28	104	1349517312	87	16359
2026-01-05 07:06:55.76	334.93	21.52	-60.7	-73.7	3.8	8.46e-01	0	28	104	1349517312	87	16255
2026-01-05 07:06:56.75	334.69	21.47	-60.7	-73.7	3.8	8.45e-01	0	28	104	1349517312	87	16253
2026-01-05 07:06:57.74	334.45	21.42	-60.6	-73.7	3.8	8.46e-01	0	28	104	1349517312	87	16213
2026-01-05 07:06:58.75	334.21	21.36	-60.6	-73.7	3.8	8.46e-01	0	28	104	1349517312	87	16214
2026-01-05 07:06:59.75	333.97	21.31	-60.6	-73.7	3.8	8.45e-01	0	28	104	1349517312	87	16222
2026-01-05 07:07:00.74	333.74	21.25	-60.6	-73.7	3.8	8.45e-01	0	28	104	1349517312	87	16166
2026-01-05 07:07:01.73	333.50	21.20	-60.6	-73.7	3.8	8.45e-01	0	28	104	1349517312	87	16156
2026-01-05 07:07:02.73	333.27	21.14	-60.6	-73.6	3.8	8.46e-01	0	28	104	1349517312	87	16052
2026-01-05 07:07:03.72	333.03	21.09	-60.6	-73.6	3.8	8.46e-01	0	28	104	1349517312	87	16079
2026-01-05 07:07:04.72	332.80	21.03	-60.6	-73.6	3.8	8.46e-01	0	28	104	1349517312	87	16022
2026-01-05 07:07:05.72	332.57	20.97	-60.6	-73.6	3.8	8.46e-01	0	28	104	1349517312	87	16070
2026-01-05 07:07:06.72	332.33	20.91	-60.5	-73.6	3.8	8.44e-01	0	28	104	1349517312	87	16024
2026-01-05 07:07:07.71	332.10	20.86	-60.6	-73.6	3.8	8.46e-01	0	28	104	1349517312	87	16054
2026-01-05 07:07:08.71	331.87	20.80	-60.5	-73.6	3.8	8.45e-01	0	28	104	1349517312	87	15995
2026-01-05 07:07:09.71	331.64	20.74	-60.5	-73.6	3.8	8.46e-01	0	28	104	1349517312	87	16022
2026-01-05 07:07:10.70	331.42	20.68	-60.5	-73.6	3.8	8.46e-01	0	28	104	1349517312	87	15983
2026-01-05 07:07:11.68	331.19	20.62	-60.5	-73.6	3.8	8.45e-01	0	28	104	1349517312	87	15974
2026-01-05 07:07:12.67	330.97	20.56	-60.5	-73.6	3.8	8.45e-01	0	28	104	1349517312	87	15955
2026-01-05 07:07:13.66	330.74	20.50	-60.5	-73.5	3.8	8.45e-01	0	28	104	1349517312	87	15911
2026-01-05 07:07:14.66	330.52	20.44	-60.5	-73.5	3.8	8.45e-01	0	28	104	1349517312	87	15915
2026-01-05 07:07:15.65	330.29	20.38	-60.5	-73.5	3.8	8.45e-01	0	28	104	1349517312	87	15911
2026-01-05 07:07:16.65	330.07	20.32	-60.6	-73.6	3.8	8.47e-01	0	28	104	1349517312	87	16124
2026-01-05 07:07:17.65	329.85	20.26	-60.8	-73.8	3.8	8.45e-01	0	28	104	1349517312	87	16470
2026-01-05 07:07:18.65	329.62	20.20	-60.8	-73.9	3.8	8.45e-01	0	28	104	1349517312	87	16583
2026-01-05 07:07:19.65	329.40	20.14	-60.9	-74.0	3.8	8.44e-01	0	28	104	1349517312	87	16701
2026-01-05 07:07:20.65	329.18	20.07	-60.9	-73.9	3.8	8.45e-01	0	28	104	1349517312	87	16677
2026-01-05 07:07:21.65	328.96	20.01	-60.9	-73.9	3.8	8.45e-01	0	28	104	1349517312	87	16678
2026-01-05 07:07:22.64	328.75	19.95	-60.9	-73.9	3.8	8.46e-01	0	28	104	1349517312	87	16676
2026-01-05 07:07:23.64	328.53	19.89	-60.9	-74.0	3.8	8.46e-01	0	28	104	1349517312	87	16728
2026-01-05 07:07:24.64	328.31	19.82	-60.9	-74.0	3.8	8.46e-01	0	28	104	1349517312	87	16743
2026-01-05 07:07:25.64	328.10	19.76	-60.9	-74.0	3.8	8.46e-01	0	28	104	1349517312	87	16695
2026-01-05 07:07:26.64	327.88	19.69	-60.9	-73.9	3.9	8.44e-01	0	28	104	1349517312	87	16606
2026-01-05 07:07:27.64	327.67	19.63	-60.8	-73.8	3.8	8.45e-01	0	28	104	1349517312	87	16482
2026-01-05 07:07:28.64	327.46	19.57	-60.8	-73.8	3.8	8.45e-01	0	28	104	1349517312	87	16445
2026-01-05 07:07:29.64	327.24	19.50	-60.7	-73.6	3.8	8.45e-01	0	28	104	1349517312	87	16101
2026-01-05 07:07:30.64	327.03	19.44	-60.6	-73.6	3.8	8.46e-01	0	28	104	1349517312	87	16105
2026-01-05 07:07:31.64	326.82	19.37	-60.4	-72.1	3.8	8.45e-01	0	28	104	1349517312	87	13530
2026-01-05 07:07:32.63	326.61	19.31	-60.4	-73.4	3.8	8.46e-01	0	28	104	1349517312	87	15679
2026-01-05 07:07:33.63	326.41	19.24	-57.5	-61.3	5.1	8.42e-01	0	28	104	1349517312	82	5213
2026-01-05 07:07:34.62	326.20	19.18	-48.8	-50.0	14.8	0.00e+00	0	28	0	1352663040	63	4197
2026-01-05 07:07:35.62	325.99	19.11	-48.0	-49.1	15.0	0.00e+00	0	28	0	1358954496	62	4034
2026-01-05 07:07:36.61	325.79	19.04	-53.3	-55.1	13.4	0.00e+00	0	28	0	1364197376	71	4800
2026-01-05 07:07:37.60	325.59	18.98	-51.2	-52.6	14.3	2.22e-03	0	28	0	1369440256	69	4009
2026-01-05 07:07:38.59	325.38	18.91	-46.8	-47.9	15.2	0.00e+00	0	28	0	1374683136	60	3928
2026-01-05 07:07:39.58	325.18	18.85	-49.5	-50.7	14.6	0.00e+00	0	28	0	1380974592	63	4598
2026-01-05 07:07:40.57	324.98	18.78	-48.9	-50.1	14.8	0.00e+00	0	28	0	1386217472	64	4014
2026-01-05 07:07:41.57	324.78	18.71	-46.8	-47.9	15.2	0.00e+00	0	28	0	1391460352	60	3938
2026-01-05 07:07:42.56	324.58	18.65	-47.0	-48.1	15.0	0.00e+00	0	28	0	1397751808	59	4256
2026-01-05 07:07:43.56	324.38	18.58	-47.1	-48.2	15.0	0.00e+00	0	28	0	1402994688	59	4309
2026-01-05 07:07:44.55	324.19	18.51	-46.9	-48.0	15.0	0.00e+00	0	28	0	1408237568	59	4233
2026-01-05 07:07:45.55	323.99	18.44	-46.7	-47.8	15.1	0.00e+00	0	28	0	1414529024	59	4129
2026-01-05 07:07:46.55	323.79	18.37	-46.8	-47.9	15.0	0.00e+00	0	28	0	1419771904	59	4164
2026-01-05 07:07:47.54	323.60	18.31	-46.8	-48.0	15.0	0.00e+00	0	28	0	1425014784	59	4196
2026-01-05 07:07:48.54	323.40	18.24	-46.9	-48.0	15.0	0.00e+00	0	28	0	1431306240	59	4228
2026-01-05 07:07:49.54	323.21	18.17	-46.9	-48.0	15.0	0.00e+00	0	28	0	1436549120	59	4214
2026-01-05 07:07:50.53	323.02	18.10	-46.9	-48.0	15.0	0.00e+00	0	28	0	1442840576	59	4241
2026-01-05 07:07:51.53	322.83	18.03	-46.9	-48.0	15.0	0.00e+00	0	28	0	1448083456	59	4199
2026-01-05 07:07:52.52	322.64	17.96	-46.9	-48.0	15.0	0.00e+00	0	28	0	1453326336	59	4207
2026-01-05 07:07:53.50	322.45	17.90	-46.9	-48.0	15.0	0.00e+00	0	28	0	1458569216	59	4199
2026-01-05 07:07:54.50	322.26	17.83	-47.0	-48.1	15.0	0.00e+00	0	28	0	1464860672	59	4260
2026-01-05 07:07:55.50	322.07	17.76	-47.0	-48.2	15.0	0.00e+00	0	28	0	1470103552	59	4294
2026-01-05 07:07:56.48	321.89	17.69	-47.0	-48.1	15.0	0.00e+00	0	28	0	1475346432	59	4274
2026-01-05 07:07:57.47	321.70	17.62	-46.9	-48.0	15.0	0.00e+00	0	28	0	1481637888	59	4237
2026-01-05 07:07:58.47	321.51	17.55	-46.9	-48.0	15.0	0.00e+00	0	28	0	1486880768	59	4204
2026-01-05 07:07:59.48	321.33	17.48	-46.8	-47.9	15.0	0.00e+00	0	28	0	1493172224	59	4166
2026-01-05 07:08:00.48	321.14	17.41	-46.9	-48.0	15.0	0.00e+00	0	28	0	1498415104	59	4200
2026-01-05 07:08:01.47	320.96	17.34	-46.9	-48.0	15.0	0.00e+00	0	28	0	1503657984	59	4233
2026-01-05 07:08:02.47	320.78	17.27	-46.9	-48.0	15.0	0.00e+00	0	28	0	1509949440	59	4212
2026-01-05 07:08:03.46	320.60	17.20	-47.0	-48.1	15.0	0.00e+00	0	28	0	1515192320	59	4255
2026-01-05 07:08:04.46	320.42	17.13	-46.9	-48.0	15.0	0.00e+00	0	28	0	1520435200	59	4232
2026-01-05 07:08:05.46	320.24	17.06	-46.9	-48.0	15.0	0.00e+00	0	28	0	1525678080	59	4227
2026-01-05 07:08:06.45	320.06	16.99	-46.8	-47.9	15.0	0.00e+00	0	28	0	1531969536	59	4176
2026-01-05 07:08:07.45	319.88	16.92	-46.8	-48.0	15.0	0.00e+00	0	28	0	1537212416	59	4201
2026-01-05 07:08:08.44	319.70	16.85	-46.9	-48.0	15.0	0.00e+00	0	28	0	1543503872	59	4203
2026-01-05 07:08:09.43	319.53	16.78	-46.9	-48.0	15.0	0.00e+00	0	28	0	1548746752	59	4239
2026-01-05 07:08:10.43	319.35	16.71	-46.9	-48.0	15.0	0.00e+00	0	28	0	1553989632	59	4203
2026-01-05 07:08:11.42	319.18	16.64	-46.9	-48.0	15.0	0.00e+00	0	28	0	1560281088	59	4227
2026-01-05 07:08:12.42	319.01	16.57	-47.0	-48.1	15.0	0.00e+00	0	28	0	1565523968	59	4267
2026-01-05 07:08:13.41	318.83	16.50	-47.0	-48.1	14.9	0.00e+00	0	28	0	1570766848	59	4290
2026-01-05 07:08:14.41	318.66	16.42	-47.0	-48.1	15.0	0.00e+00	0	28	0	1576009728	59	4286
2026-01-05 07:08:15.41	318.49	16.35	-47.1	-48.2	14.9	0.00e+00	0	28	0	1582301184	59	4327
2026-01-05 07:08:16.41	318.32	16.28	-47.2	-48.3	14.9	0.00e+00	0	28	0	1587544064	59	4388
2026-01-05 07:08:17.42	318.15	16.21	-47.2	-48.4	14.9	0.00e+00	0	28	0	1593835520	59	4414
2026-01-05 07:08:18.41	317.98	16.14	-47.3	-48.5	14.9	0.00e+00	0	28	0	1599078400	59	4452
2026-01-05 07:08:19.41	317.81	16.07	-47.3	-48.5	14.9	0.00e+00	0	28	0	1604321280	59	4447
2026-01-05 07:08:20.40	317.64	16.00	-47.4	-48.5	14.8	0.00e+00	0	28	0	1610612736	59	4487
2026-01-05 07:08:21.40	317.48	15.92	-47.0	-48.1	15.0	0.00e+00	0	28	0	1615855616	60	4032
2026-01-05 07:08:22.39	317.31	15.85	-47.1	-48.2	15.0	0.00e+00	0	28	0	1621098496	60	4063
2026-01-05 07:08:23.39	317.15	15.78	-47.0	-48.1	15.0	0.00e+00	0	28	0	1627389952	60	4012
2026-01-05 07:08:24.40	316.98	15.71	-46.9	-48.0	15.1	0.00e+00	0	28	0	1632632832	60	4000
2026-01-05 07:08:25.40	316.82	15.64	-47.0	-48.1	15.0	0.00e+00	0	28	0	1637875712	60	4022
2026-01-05 07:08:26.40	316.65	15.57	-47.0	-48.1	15.0	0.00e+00	0	28	0	1644167168	60	4012
2026-01-05 07:08:27.41	316.49	15.49	-47.0	-48.1	15.0	0.00e+00	0	28	0	1649410048	60	4026
2026-01-05 07:08:28.40	316.33	15.42	-47.0	-48.1	15.0	0.00e+00	0	28	0	1655701504	60	4007
2026-01-05 07:08:29.41	316.17	15.35	-46.9	-48.0	15.1	0.00e+00	0	28	0	1660944384	60	3974
2026-01-05 07:08:30.41	316.01	15.28	-46.9	-48.0	15.1	0.00e+00	0	28	0	1666187264	60	3995
2026-01-05 07:08:31.42	315.85	15.21	-46.9	-48.0	15.1	0.00e+00	0	28	0	1672478720	60	3978
2026-01-05 07:08:32.41	315.69	15.14	-46.9	-48.0	15.1	0.00e+00	0	28	0	1677721600	60	3980
2026-01-05 07:08:33.41	315.53	15.06	-46.9	-48.0	15.0	0.00e+00	0	28	0	1682964480	60	3990
2026-01-05 07:08:34.41	315.38	14.99	-47.0	-48.1	15.0	0.00e+00	0	28	0	1689255936	60	4029
2026-01-05 07:08:35.41	315.22	14.92	-47.0	-48.1	15.0	0.00e+00	0	28	0	1694498816	60	4038
2026-01-05 07:08:36.41	315.06	14.85	-47.1	-48.2	15.0	0.00e+00	0	28	0	1699741696	60	4078
2026-01-05 07:08:37.41	314.91	14.78	-47.0	-48.1	15.0	0.00e+00	0	28	0	1706033152	60	4047
2026-01-05 07:08:38.41	314.76	14.70	-47.1	-48.2	15.0	0.00e+00	0	28	0	1711276032	60	4085
2026-01-05 07:08:39.42	314.60	14.63	-47.1	-48.3	15.0	0.00e+00	0	28	0	1717567488	60	4106
2026-01-05 07:08:40.42	314.45	14.56	-47.1	-48.3	14.9	0.00e+00	0	28	0	1722810368	60	4111
2026-01-05 07:08:41.43	314.30	14.49	-47.2	-48.4	14.9	0.00e+00	0	28	0	1729101824	60	4160
2026-01-05 07:08:42.43	314.15	14.42	-47.2	-48.4	14.9	0.00e+00	0	28	0	1734344704	60	4163
2026-01-05 07:08:43.44	314.00	14.34	-47.3	-48.4	14.9	0.00e+00	0	28	0	1739587584	60	4175
2026-01-05 07:08:44.45	313.84	14.27	-47.2	-48.4	14.9	0.00e+00	0	28	0	1745879040	60	4163
2026-01-05 07:08:45.44	313.70	14.20	-47.2	-48.3	14.9	0.00e+00	0	28	0	1751121920	60	4130
2026-01-05 07:08:46.45	313.55	14.13	-47.1	-48.3	14.9	0.00e+00	0	28	0	1756364800	60	4099
2026-01-05 07:08:47.44	313.40	14.06	-47.1	-48.3	14.9	0.00e+00	0	28	0	1762656256	60	4105
2026-01-05 07:08:48.43	313.26	13.98	-47.2	-48.3	14.9	0.00e+00	0	28	0	1767899136	60	4126
2026-01-05 07:08:49.42	313.11	13.91	-47.3	-48.4	14.9	0.00e+00	0	28	0	1773142016	60	4181
2026-01-05 07:08:50.42	312.97	13.84	-47.2	-48.4	14.9	0.00e+00	0	28	0	1779433472	60	4157
2026-01-05 07:08:51.41	312.83	13.77	-47.3	-48.4	14.9	0.00e+00	0	28	0	1784676352	60	4177
2026-01-05 07:08:52.41	312.68	13.70	-47.3	-48.4	14.9	0.00e+00	0	28	0	1789919232	60	4189
2026-01-05 07:08:53.40	312.54	13.63	-47.3	-48.4	14.9	0.00e+00	0	28	0	1796210688	60	4191
2026-01-05 07:08:54.39	312.40	13.56	-47.3	-48.4	14.9	0.00e+00	0	28	0	1801453568	60	4184
2026-01-05 07:08:55.39	312.26	13.49	-47.4	-48.5	14.9	0.00e+00	0	28	0	1806696448	60	4210
2026-01-05 07:08:56.39	312.12	13.41	-47.3	-48.5	14.9	0.00e+00	0	28	0	1812987904	60	4198
2026-01-05 07:08:57.38	311.98	13.34	-47.4	-48.6	14.8	0.00e+00	0	28	0	1818230784	60	4249
2026-01-05 07:08:58.39	311.84	13.27	-47.4	-48.5	14.8	0.00e+00	0	28	0	1823473664	60	4241
2026-01-05 07:08:59.39	311.70	13.20	-47.5	-48.6	14.8	0.00e+00	0	28	0	1829765120	60	4288
2026-01-05 07:09:00.39	311.56	13.13	-47.6	-48.8	14.8	0.00e+00	0	28	0	1835008000	60	4350
2026-01-05 07:09:01.38	311.43	13.06	-47.7	-48.9	14.8	0.00e+00	0	28	0	1841299456	60	4394
2026-01-05 07:09:02.38	311.29	12.99	-47.7	-48.9	14.7	0.00e+00	0	28	0	1846542336	60	4424
2026-01-05 07:09:03.37	311.16	12.92	-47.6	-48.8	14.8	0.00e+00	0	28	0	1851785216	60	4365
2026-01-05 07:09:04.37	311.02	12.85	-47.5	-48.7	14.8	0.00e+00	0	28	0	1858076672	60	4338
2026-01-05 07:09:05.37	310.89	12.77	-47.4	-48.6	14.8	0.00e+00	0	28	0	1863319552	60	4257
2026-01-05 07:09:06.37	310.75	12.70	-47.5	-48.7	14.8	0.00e+00	0	28	0	1868562432	60	4297
2026-01-05 07:09:07.37	310.62	12.63	-47.4	-48.6	14.8	0.00e+00	0	28	0	1874853888	60	4260
2026-01-05 07:09:08.36	310.49	12.56	-47.4	-48.6	14.8	0.00e+00	0	28	0	1880096768	60	4255
2026-01-05 07:09:09.37	310.36	12.49	-47.5	-48.7	14.8	0.00e+00	0	28	0	1885339648	60	4303
2026-01-05 07:09:10.36	310.23	12.42	-47.7	-48.9	14.7	0.00e+00	0	28	0	1891631104	60	4400
2026-01-05 07:09:11.36	310.09	12.35	-47.7	-48.9	14.7	0.00e+00	0	28	0	1896873984	60	4406
2026-01-05 07:09:12.36	309.96	12.28	-47.6	-48.8	14.7	0.00e+00	0	28	0	1902116864	60	4382
2026-01-05 07:09:13.36	309.84	12.21	-47.8	-49.0	14.7	0.00e+00	0	28	0	1908408320	60	4442
2026-01-05 07:09:14.36	309.71	12.14	-47.7	-48.9	14.7	0.00e+00	0	28	0	1913651200	60	4399
2026-01-05 07:09:15.35	309.58	12.07	-47.8	-49.0	14.7	0.00e+00	0	28	0	1918894080	60	4455
2026-01-05 07:09:16.35	309.45	12.00	-47.8	-49.0	14.7	0.00e+00	0	28	0	1925185536	60	4446
2026-01-05 07:09:17.35	309.33	11.93	-47.7	-48.9	14.7	0.00e+00	0	28	0	1930428416	60	4407
2026-01-05 07:09:18.34	309.20	11.86	-47.8	-49.0	14.7	0.00e+00	0	28	0	1935671296	60	4442
2026-01-05 07:09:19.34	309.07	11.79	-47.8	-49.0	14.7	0.00e+00	0	28	0	1941962752	60	4465
2026-01-05 07:09:20.35	308.95	11.72	-47.9	-49.1	14.7	0.00e+00	0	28	0	1947205632	60	4518
2026-01-05 07:09:21.34	308.83	11.65	-47.8	-49.0	14.8	0.00e+00	0	28	0	1953497088	61	4240
2026-01-05 07:09:22.33	308.70	11.58	-47.8	-49.0	14.8	0.00e+00	0	28	0	1958739968	61	4235
2026-01-05 07:09:23.33	308.58	11.51	-47.9	-49.1	14.7	0.00e+00	0	28	0	1963982848	61	4278
2026-01-05 07:09:24.32	308.46	11.44	-47.9	-49.1	14.7	0.00e+00	0	28	0	1970274304	61	4283
2026-01-05 07:09:25.32	308.34	11.37	-47.9	-49.1	14.8	0.00e+00	0	28	0	1975517184	61	4250
2026-01-05 07:09:26.31	308.22	11.30	-47.8	-49.0	14.8	0.00e+00	0	28	0	1980760064	61	4208
2026-01-05 07:09:27.30	308.10	11.23	-47.9	-49.1	14.8	0.00e+00	0	28	0	1986002944	61	4251
2026-01-05 07:09:28.29	307.98	11.16	-48.0	-49.2	14.7	0.00e+00	0	28	0	1992294400	61	4300
2026-01-05 07:09:29.29	307.86	11.09	-47.9	-49.1	14.7	0.00e+00	0	28	0	1997537280	61	4282
2026-01-05 07:09:30.28	307.74	11.02	-47.9	-49.1	14.7	0.00e+00	0	28	0	2003828736	61	4277
2026-01-05 07:09:31.28	307.62	10.95	-48.1	-49.3	14.7	0.00e+00	0	28	0	2009071616	61	4366
2026-01-05 07:09:32.26	307.51	10.89	-48.2	-49.4	14.6	0.00e+00	0	28	0	2014314496	61	4435
2026-01-05 07:09:33.25	307.39	10.82	-48.2	-49.4	14.6	0.00e+00	0	28	0	2019557376	61	4425
2026-01-05 07:09:34.25	307.27	10.75	-48.2	-49.4	14.6	0.00e+00	0	28	0	2025848832	61	4431
2026-01-05 07:09:35.24	307.16	10.68	-48.2	-49.4	14.6	0.00e+00	0	28	0	2031091712	61	4416
2026-01-05 07:09:36.24	307.04	10.61	-48.2	-49.4	14.6	0.00e+00	0	28	0	2037383168	61	4435
2026-01-05 07:09:37.24	306.93	10.54	-48.3	-49.5	14.6	0.00e+00	0	28	0	2042626048	61	4468
2026-01-05 07:09:38.24	306.81	10.47	-48.3	-49.6	14.6	0.00e+00	0	28	0	2047868928	61	4502
2026-01-05 07:09:39.24	306.70	10.40	-48.4	-49.6	14.6	0.00e+00	0	28	0	2054160384	62	4287
2026-01-05 07:09:40.23	306.59	10.33	-48.3	-49.6	14.7	0.00e+00	0	28	0	2059403264	62	4256
2026-01-05 07:09:41.22	306.47	10.27	-48.4	-49.7	14.6	0.00e+00	0	28	0	2064646144	62	4300
2026-01-05 07:09:42.21	306.36	10.20	-48.3	-49.6	14.7	0.00e+00	0	28	0	2069889024	62	4251
2026-01-05 07:09:43.21	306.25	10.13	-48.4	-49.6	14.6	0.00e+00	0	28	0	2076180480	62	4280
2026-01-05 07:09:44.21	306.14	10.06	-48.4	-49.6	14.6	0.00e+00	0	28	0	2081423360	62	4260
2026-01-05 07:09:45.21	306.03	9.99	-48.3	-49.6	14.7	0.00e+00	0	28	0	2087714816	62	4243
2026-01-05 07:09:46.21	305.92	9.93	-48.3	-49.5	14.7	0.00e+00	0	28	0	2092957696	62	4230
2026-01-05 07:09:47.21	305.81	9.86	-48.3	-49.5	14.7	0.00e+00	0	28	0	2098200576	62	4232
2026-01-05 07:09:48.20	305.70	9.79	-48.4	-49.6	14.6	0.00e+00	0	28	0	2104492032	62	4274
2026-01-05 07:09:49.21	305.59	9.72	-48.3	-49.5	14.7	0.00e+00	0	28	0	2109734912	62	4224
2026-01-05 07:09:50.21	305.48	9.65	-48.3	-49.5	14.7	0.00e+00	0	28	0	2114977792	62	4217
2026-01-05 07:09:51.20	305.38	9.59	-48.4	-49.6	14.6	0.00e+00	0	28	0	2121269248	62	4267
2026-01-05 07:09:52.20	305.27	9.52	-48.4	-49.6	14.6	0.00e+00	0	28	0	2126512128	62	4284
2026-01-05 07:09:53.19	305.16	9.45	-48.3	-49.5	14.7	0.00e+00	0	28	0	2131755008	62	4224
2026-01-05 07:09:54.19	305.06	9.38	-48.3	-49.5	14.6	0.00e+00	0	28	0	2138046464	62	4234
2026-01-05 07:09:55.19	304.95	9.32	-48.4	-49.6	14.6	0.00e+00	0	28	0	2143289344	62	4278
2026-01-05 07:09:56.18	304.85	9.25	-48.6	-49.8	14.6	0.00e+00	0	28	0	2149580800	62	4383
2026-01-05 07:09:57.18	304.74	9.18	-48.5	-49.8	14.5	0.00e+00	0	28	0	2154823680	62	4365
2026-01-05 07:09:58.18	304.64	9.11	-48.6	-49.9	14.5	0.00e+00	0	28	0	2160066560	62	4423
2026-01-05 07:09:59.17	304.54	9.05	-48.6	-49.9	14.5	0.00e+00	0	28	0	2166358016	62	4428
2026-01-05 07:10:00.17	304.43	8.98	-48.6	-49.9	14.5	0.00e+00	0	28	0	2171600896	62	4412
2026-01-05 07:10:01.17	304.33	8.91	-48.6	-49.9	14.5	0.00e+00	0	28	0	2176843776	62	4433
2026-01-05 07:10:02.17	304.23	8.85	-48.6	-49.9	14.5	0.00e+00	0	28	0	2182086656	62	4418
2026-01-05 07:10:03.16	304.13	8.78	-48.6	-49.9	14.5	0.00e+00	0	28	0	2188378112	62	4403
2026-01-05 07:10:04.16	304.03	8.71	-48.6	-49.9	14.5	0.00e+00	0	28	0	2193620992	62	4412
2026-01-05 07:10:05.16	303.93	8.65	-48.7	-50.0	14.5	0.00e+00	0	28	0	2199912448	62	4444
2026-01-05 07:10:06.17	303.82	8.58	-48.6	-49.9	14.5	0.00e+00	0	28	0	2205155328	62	4419
2026-01-05 07:10:07.16	303.73	8.52	-48.7	-50.0	14.5	0.00e+00	0	28	0	2210398208	62	4483
2026-01-05 07:10:08.17	303.63	8.45	-48.7	-50.0	14.5	0.00e+00	0	28	0	2216689664	62	4457
2026-01-05 07:10:09.16	303.53	8.38	-48.8	-50.1	14.4	0.00e+00	0	28	0	2221932544	62	4501
2026-01-05 07:10:10.16	303.43	8.32	-48.7	-50.0	14.5	0.00e+00	0	28	0	2227175424	62	4458
2026-01-05 07:10:11.16	303.33	8.25	-48.7	-50.1	14.4	0.00e+00	0	28	0	2233466880	62	4498
2026-01-05 07:10:12.16	303.23	8.18	-48.7	-50.1	14.4	0.00e+00	0	28	0	2238709760	62	4498
2026-01-05 07:10:13.15	303.14	8.12	-48.8	-50.1	14.4	0.00e+00	0	28	0	2243952640	62	4517
2026-01-05 07:10:14.15	303.04	8.05	-48.8	-50.1	14.4	0.00e+00	0	28	0	2250244096	62	4545
2026-01-05 07:10:15.15	302.94	7.99	-48.8	-50.1	14.4	0.00e+00	0	28	0	2255486976	62	4533
2026-01-05 07:10:16.15	302.85	7.92	-48.8	-50.1	14.4	0.00e+00	0	28	0	2261778432	62	4520
2026-01-05 07:10:17.15	302.75	7.86	-48.7	-50.0	14.4	0.00e+00	0	28	0	2267021312	62	4488
2026-01-05 07:10:18.15	302.66	7.79	-48.7	-50.0	14.4	0.00e+00	0	28	0	2272264192	62	4450
2026-01-05 07:10:19.14	302.57	7.73	-48.8	-50.1	14.4	0.00e+00	0	28	0	2278555648	62	4500
2026-01-05 07:10:20.14	302.47	7.66	-48.7	-50.0	14.4	0.00e+00	0	28	0	2283798528	62	4483
2026-01-05 07:10:21.14	302.38	7.60	-48.8	-50.1	14.4	0.00e+00	0	28	0	2289041408	62	4537
2026-01-05 07:10:22.14	302.29	7.53	-48.8	-50.2	14.4	0.00e+00	0	28	0	2295332864	62	4547
2026-01-05 07:10:23.14	302.19	7.47	-48.9	-50.2	14.3	0.00e+00	0	28	0	2300575744	62	4577
2026-01-05 07:10:24.12	302.10	7.40	-48.9	-50.2	14.4	0.00e+00	0	28	0	2305818624	63	4340
2026-01-05 07:10:25.13	302.01	7.34	-48.9	-50.3	14.4	0.00e+00	0	28	0	2312110080	63	4368
2026-01-05 07:10:26.12	301.92	7.27	-49.0	-50.4	14.3	0.00e+00	0	28	0	2317352960	63	4425
2026-01-05 07:10:27.12	301.83	7.21	-49.1	-50.4	14.3	0.00e+00	0	28	0	2322595840	63	4429
2026-01-05 07:10:28.10	301.74	7.15	-49.2	-50.6	14.3	0.00e+00	0	28	0	2328887296	63	4495
2026-01-05 07:10:29.10	301.65	7.08	-49.1	-50.5	14.3	0.00e+00	0	28	0	2334130176	63	4480
2026-01-05 07:10:30.10	301.56	7.02	-49.1	-50.5	14.3	0.00e+00	0	28	0	2339373056	63	4469
2026-01-05 07:10:31.09	301.47	6.95	-49.2	-50.6	14.3	0.00e+00	0	28	0	2345664512	63	4524
2026-01-05 07:10:32.08	301.38	6.89	-49.1	-50.4	14.3	0.00e+00	0	28	0	2350907392	63	4439
2026-01-05 07:10:33.09	301.29	6.82	-49.1	-50.4	14.3	0.00e+00	0	28	0	2356150272	63	4429
