passes_logs/2026/01/05/R3.2S_Murmansk/R3.2S_Murmansk__20260105_051949_FENGYUN_3D_rec.log

#Pass ID: 20260105_051949_FENGYUN 3D
#Satellite: FENGYUN 3D
#Configuration: FENGYUN 3D
#almurnet v.1.7.20251203
#Start time: 2026-01-05 05:19:48

#Version: 2.2.20231116
#Station: R3.2S_Murmansk
#Location: 33.079688 lon 68.888172 lat
#TLE: 1 43010U 17072A   26004.50247883 -.00000063  00000+0 -78815-5 0  9998
#TLE: 2 43010  98.9915 336.1565 0001968 126.3752 233.7605 14.19691805421760

#Time	Az	El	Level	Level2	SNR	BER	BlckErr	Temp	State	Recorded	gain1	gain2
2026-01-05 05:19:48.59	40.67	1.96	-58.1	-71.1	3.8	8.45e-01	0	25	0	0	82	15988
2026-01-05 05:19:49.58	40.62	2.02	-58.1	-71.0	3.8	8.46e-01	0	25	104	0	81	16874
2026-01-05 05:19:50.58	40.57	2.08	-58.1	-71.0	3.8	8.45e-01	0	25	104	0	81	16849
2026-01-05 05:19:51.57	40.52	2.14	-58.1	-71.1	3.8	8.46e-01	0	25	104	0	81	16894
2026-01-05 05:19:52.57	40.47	2.20	-58.1	-71.1	3.8	8.45e-01	0	25	104	0	81	16906
2026-01-05 05:19:53.57	40.42	2.26	-58.1	-71.0	3.8	8.44e-01	0	25	104	0	81	16820
2026-01-05 05:19:54.58	40.37	2.32	-58.1	-71.0	3.8	8.45e-01	0	25	104	0	81	16783
2026-01-05 05:19:55.57	40.32	2.38	-58.1	-71.0	3.8	8.45e-01	0	25	104	0	81	16877
2026-01-05 05:19:56.58	40.27	2.44	-58.1	-71.0	3.8	8.45e-01	0	25	104	0	81	16877
2026-01-05 05:19:57.58	40.22	2.50	-58.1	-71.0	3.8	8.46e-01	0	25	104	0	81	16855
2026-01-05 05:19:58.57	40.17	2.56	-58.1	-71.0	3.8	8.45e-01	0	25	104	0	81	16861
2026-01-05 05:19:59.57	40.11	2.62	-58.1	-71.1	3.8	8.45e-01	0	25	104	0	81	16900
2026-01-05 05:20:00.57	40.06	2.68	-58.1	-71.0	3.8	8.45e-01	0	26	104	0	81	16853
2026-01-05 05:20:01.57	40.01	2.74	-58.1	-71.0	3.8	8.45e-01	0	25	104	0	81	16867
2026-01-05 05:20:02.58	39.96	2.81	-58.1	-71.0	3.8	8.47e-01	0	25	104	0	81	16792
2026-01-05 05:20:03.57	39.90	2.87	-58.1	-71.0	3.8	8.46e-01	0	26	104	0	81	16868
2026-01-05 05:20:04.57	39.85	2.93	-58.1	-71.0	3.8	8.45e-01	0	25	104	0	81	16790
2026-01-05 05:20:05.57	39.80	2.99	-58.1	-70.9	3.8	8.46e-01	0	26	104	0	81	16673
2026-01-05 05:20:06.56	39.75	3.05	-58.0	-70.9	3.8	8.45e-01	0	26	104	0	81	16604
2026-01-05 05:20:07.56	39.69	3.11	-58.1	-70.9	3.8	8.46e-01	0	26	104	0	81	16532
2026-01-05 05:20:08.56	39.64	3.17	-58.1	-70.8	3.8	8.46e-01	0	26	104	0	81	16426
2026-01-05 05:20:09.57	39.58	3.23	-58.1	-70.8	3.8	8.46e-01	0	25	104	0	81	16410
2026-01-05 05:20:10.56	39.53	3.29	-58.1	-70.8	3.8	8.45e-01	0	26	104	0	81	16423
2026-01-05 05:20:11.55	39.48	3.36	-58.1	-70.9	3.8	8.44e-01	0	26	104	0	81	16581
2026-01-05 05:20:12.56	39.42	3.42	-58.1	-70.9	3.8	8.46e-01	0	26	104	0	81	16663
2026-01-05 05:20:13.56	39.36	3.48	-58.1	-71.0	3.8	8.46e-01	0	26	104	0	81	16795
2026-01-05 05:20:14.56	39.31	3.54	-58.1	-71.0	3.8	8.44e-01	0	26	104	0	81	16872
2026-01-05 05:20:15.56	39.25	3.61	-58.1	-71.0	3.8	8.46e-01	0	26	104	0	81	16885
2026-01-05 05:20:16.56	39.20	3.67	-58.1	-71.1	3.8	8.46e-01	0	26	104	0	81	16900
2026-01-05 05:20:17.56	39.14	3.73	-58.1	-71.0	3.8	8.45e-01	0	26	104	0	81	16780
2026-01-05 05:20:18.56	39.08	3.79	-58.1	-71.0	3.8	8.46e-01	0	26	104	0	81	16795
2026-01-05 05:20:19.56	39.03	3.86	-58.1	-71.0	3.8	8.45e-01	0	26	104	0	81	16840
2026-01-05 05:20:20.56	38.97	3.92	-58.0	-71.0	3.8	8.46e-01	0	26	104	0	81	16759
2026-01-05 05:20:21.55	38.91	3.98	-58.1	-70.9	3.8	8.46e-01	0	26	104	0	81	16663
2026-01-05 05:20:22.56	38.86	4.04	-58.0	-70.8	3.8	8.45e-01	0	26	104	0	81	16340
2026-01-05 05:20:23.56	38.80	4.11	-58.0	-70.4	3.8	8.44e-01	0	26	104	0	81	15646
2026-01-05 05:20:24.56	38.74	4.17	-58.0	-69.9	3.8	8.45e-01	0	26	104	0	81	14813
2026-01-05 05:20:25.57	38.68	4.24	-57.9	-69.5	3.8	8.46e-01	0	26	104	0	81	14075
2026-01-05 05:20:26.56	38.62	4.30	-57.9	-69.1	3.8	8.44e-01	0	26	104	0	81	13561
2026-01-05 05:20:27.56	38.56	4.36	-57.9	-68.8	3.9	8.43e-01	0	26	104	0	81	13012
2026-01-05 05:20:28.56	38.51	4.43	-57.8	-68.3	4.0	8.43e-01	0	26	104	0	81	12266
2026-01-05 05:20:29.55	38.45	4.49	-57.8	-67.9	4.1	8.40e-01	0	26	0	0	81	11797
2026-01-05 05:20:30.55	38.39	4.55	-57.7	-67.2	4.3	8.37e-01	0	26	0	0	81	10783
2026-01-05 05:20:31.55	38.33	4.62	-57.5	-65.7	4.8	8.03e-01	0	26	0	0	81	9117
2026-01-05 05:20:32.55	38.27	4.68	-57.2	-64.2	5.6	7.13e-01	0	26	0	0	81	7715
2026-01-05 05:20:33.54	38.21	4.75	-56.8	-62.8	6.5	2.24e-01	0	26	0	6291456	80	6954
2026-01-05 05:20:34.53	38.15	4.81	-56.3	-61.2	7.9	8.58e-02	0	26	0	11534336	79	6119
2026-01-05 05:20:35.52	38.09	4.87	-55.9	-60.2	8.8	2.80e-02	0	26	0	16777216	78	5769
2026-01-05 05:20:36.52	38.03	4.94	-55.4	-59.2	9.6	6.63e-03	0	26	0	22020096	77	5434
2026-01-05 05:20:37.52	37.96	5.00	-55.1	-58.6	10.0	2.13e-03	0	26	0	28311552	76	5388
2026-01-05 05:20:38.52	37.90	5.07	-55.0	-58.3	10.3	1.02e-03	0	26	0	33554432	76	5216
2026-01-05 05:20:39.51	37.84	5.13	-56.1	-60.6	8.6	1.35e-03	0	26	0	38797312	77	6388
2026-01-05 05:20:40.51	37.78	5.20	-54.9	-58.2	10.4	4.00e-02	0	26	0	45088768	76	5129
2026-01-05 05:20:41.50	37.72	5.26	-52.8	-54.9	12.5	1.21e-03	0	26	0	50331648	72	4432
2026-01-05 05:20:42.50	37.65	5.33	-54.4	-57.4	11.0	0.00e+00	0	26	0	56623104	73	5587
2026-01-05 05:20:43.50	37.59	5.39	-54.7	-57.8	10.6	1.36e-01	0	26	0	61865984	76	4914
2026-01-05 05:20:44.49	37.53	5.46	-50.0	-51.5	14.0	0.00e+00	0	26	0	67108864	66	4231
2026-01-05 05:20:45.49	37.46	5.53	-49.6	-51.0	14.2	0.00e+00	0	26	0	73400320	65	4214
2026-01-05 05:20:46.48	37.40	5.59	-49.5	-50.9	14.2	0.00e+00	0	26	0	78643200	65	4180
2026-01-05 05:20:47.48	37.33	5.66	-49.4	-50.8	14.3	0.00e+00	0	26	0	83886080	65	4144
2026-01-05 05:20:48.48	37.27	5.72	-49.6	-51.1	14.2	0.00e+00	0	26	0	89128960	65	4248
2026-01-05 05:20:49.48	37.20	5.79	-49.5	-50.9	14.3	0.00e+00	0	26	0	95420416	65	4186
2026-01-05 05:20:50.48	37.14	5.86	-49.5	-51.0	14.2	0.00e+00	0	27	0	100663296	65	4206
2026-01-05 05:20:51.47	37.07	5.92	-49.6	-51.1	14.2	0.00e+00	0	27	0	105906176	65	4245
2026-01-05 05:20:52.47	37.01	5.99	-49.5	-51.0	14.2	0.00e+00	0	26	0	112197632	65	4209
2026-01-05 05:20:53.46	36.94	6.06	-49.5	-50.9	14.3	0.00e+00	0	26	0	117440512	65	4164
2026-01-05 05:20:54.46	36.87	6.12	-49.4	-50.8	14.3	0.00e+00	0	27	0	123731968	65	4143
2026-01-05 05:20:55.45	36.81	6.19	-49.5	-50.9	14.3	0.00e+00	0	27	0	128974848	65	4173
2026-01-05 05:20:56.45	36.74	6.26	-49.5	-50.9	14.3	0.00e+00	0	26	0	134217728	65	4186
2026-01-05 05:20:57.44	36.67	6.32	-49.5	-51.0	14.3	0.00e+00	0	27	0	140509184	65	4197
2026-01-05 05:20:58.45	36.60	6.39	-49.6	-51.0	14.2	0.00e+00	0	27	0	145752064	65	4221
2026-01-05 05:20:59.45	36.53	6.46	-49.6	-51.0	14.2	0.00e+00	0	27	0	150994944	65	4241
2026-01-05 05:21:00.45	36.47	6.53	-49.4	-50.8	14.3	0.00e+00	0	27	0	157286400	65	4120
2026-01-05 05:21:01.44	36.40	6.59	-49.4	-50.8	14.3	0.00e+00	0	26	0	162529280	65	4124
2026-01-05 05:21:02.44	36.33	6.66	-49.4	-50.8	14.4	0.00e+00	0	27	0	167772160	65	4128
2026-01-05 05:21:03.43	36.26	6.73	-49.4	-50.8	14.4	0.00e+00	0	27	0	174063616	65	4121
2026-01-05 05:21:04.44	36.19	6.80	-49.4	-50.8	14.3	0.00e+00	0	27	0	179306496	65	4132
2026-01-05 05:21:05.45	36.12	6.87	-49.4	-50.8	14.3	0.00e+00	0	27	0	185597952	65	4121
2026-01-05 05:21:06.45	36.05	6.94	-49.3	-50.6	14.4	0.00e+00	0	27	0	190840832	65	4049
2026-01-05 05:21:07.45	35.97	7.01	-49.1	-50.5	14.4	0.00e+00	0	27	0	196083712	64	4194
2026-01-05 05:21:08.46	35.90	7.08	-49.1	-50.5	14.4	0.00e+00	0	27	0	202375168	64	4221
2026-01-05 05:21:09.45	35.83	7.15	-49.1	-50.5	14.4	0.00e+00	0	27	0	207618048	64	4211
2026-01-05 05:21:10.45	35.76	7.21	-49.2	-50.6	14.3	0.00e+00	0	27	0	212860928	64	4263
2026-01-05 05:21:11.45	35.69	7.28	-49.2	-50.5	14.4	0.00e+00	0	27	0	219152384	64	4226
2026-01-05 05:21:12.45	35.61	7.35	-49.1	-50.5	14.4	0.00e+00	0	27	0	224395264	64	4208
2026-01-05 05:21:13.44	35.54	7.42	-49.0	-50.3	14.5	0.00e+00	0	27	0	229638144	64	4142
2026-01-05 05:21:14.45	35.46	7.49	-49.1	-50.5	14.4	0.00e+00	0	27	0	235929600	64	4211
2026-01-05 05:21:15.45	35.39	7.56	-49.0	-50.4	14.5	0.00e+00	0	27	0	241172480	64	4154
2026-01-05 05:21:16.44	35.32	7.63	-49.0	-50.3	14.5	0.00e+00	0	27	0	247463936	64	4128
2026-01-05 05:21:17.44	35.24	7.70	-48.9	-50.2	14.5	0.00e+00	0	27	0	252706816	64	4095
2026-01-05 05:21:18.43	35.17	7.77	-48.8	-50.1	14.6	0.00e+00	0	27	0	257949696	64	4046
2026-01-05 05:21:19.43	35.09	7.84	-48.9	-50.2	14.5	0.00e+00	0	27	0	263192576	64	4078
2026-01-05 05:21:20.43	35.02	7.91	-48.9	-50.2	14.5	0.00e+00	0	27	0	269484032	64	4089
2026-01-05 05:21:21.42	34.94	7.99	-48.9	-50.2	14.5	0.00e+00	0	27	0	274726912	64	4085
2026-01-05 05:21:22.42	34.86	8.06	-48.8	-50.1	14.6	0.00e+00	0	27	0	279969792	64	4047
2026-01-05 05:21:23.42	34.79	8.13	-48.9	-50.2	14.6	0.00e+00	0	27	0	286261248	64	4064
2026-01-05 05:21:24.43	34.71	8.20	-48.9	-50.2	14.5	0.00e+00	0	27	0	291504128	64	4095
2026-01-05 05:21:25.43	34.63	8.27	-48.9	-50.2	14.6	0.00e+00	0	27	0	297795584	64	4072
2026-01-05 05:21:26.43	34.55	8.34	-48.8	-50.1	14.6	0.00e+00	0	27	0	303038464	64	4019
2026-01-05 05:21:27.44	34.47	8.42	-48.8	-50.1	14.6	0.00e+00	0	27	0	309329920	64	4031
2026-01-05 05:21:28.44	34.39	8.49	-48.8	-50.1	14.6	0.00e+00	0	27	0	314572800	64	4040
2026-01-05 05:21:29.44	34.31	8.56	-48.9	-50.2	14.5	0.00e+00	0	27	0	319815680	64	4082
2026-01-05 05:21:30.44	34.23	8.63	-48.8	-50.0	14.6	0.00e+00	0	27	0	326107136	64	4003
2026-01-05 05:21:31.44	34.15	8.70	-48.7	-50.0	14.6	0.00e+00	0	27	0	331350016	64	4003
2026-01-05 05:21:32.43	34.07	8.78	-48.8	-50.1	14.6	0.00e+00	0	27	0	336592896	64	4009
2026-01-05 05:21:33.43	33.99	8.85	-48.8	-50.1	14.7	0.00e+00	0	27	0	341835776	64	4009
2026-01-05 05:21:34.42	33.91	8.92	-48.8	-50.1	14.6	0.00e+00	0	27	0	348127232	64	4007
2026-01-05 05:21:35.42	33.83	8.99	-48.7	-50.0	14.7	0.00e+00	0	27	0	353370112	64	3992
2026-01-05 05:21:36.41	33.74	9.07	-48.8	-50.1	14.6	0.00e+00	0	27	0	359661568	64	4030
2026-01-05 05:21:37.42	33.66	9.14	-48.9	-50.2	14.5	0.00e+00	0	27	0	364904448	64	4094
2026-01-05 05:21:38.42	33.58	9.21	-48.8	-50.1	14.6	0.00e+00	0	27	0	370147328	64	4022
2026-01-05 05:21:39.41	33.49	9.29	-48.8	-50.1	14.6	0.00e+00	0	27	0	376438784	64	4031
2026-01-05 05:21:40.40	33.41	9.36	-48.8	-50.1	14.6	0.00e+00	0	27	0	381681664	64	4006
2026-01-05 05:21:41.40	33.33	9.43	-48.8	-50.2	14.6	0.00e+00	0	27	0	386924544	64	4052
2026-01-05 05:21:42.39	33.24	9.51	-48.7	-49.9	14.6	0.00e+00	0	27	0	393216000	63	4193
2026-01-05 05:21:43.37	33.16	9.58	-48.6	-49.9	14.6	0.00e+00	0	27	0	398458880	63	4146
2026-01-05 05:21:44.37	33.07	9.65	-48.6	-49.9	14.6	0.00e+00	0	27	0	403701760	63	4159
2026-01-05 05:21:45.37	32.98	9.73	-48.6	-49.9	14.6	0.00e+00	0	27	0	409993216	63	4151
2026-01-05 05:21:46.36	32.90	9.80	-48.6	-49.9	14.6	0.00e+00	0	27	0	415236096	63	4156
2026-01-05 05:21:47.34	32.81	9.88	-48.6	-49.9	14.6	0.00e+00	0	27	0	420478976	63	4191
2026-01-05 05:21:48.33	32.72	9.95	-48.5	-49.8	14.7	0.00e+00	0	27	0	426770432	63	4115
2026-01-05 05:21:49.32	32.64	10.03	-48.5	-49.8	14.7	0.00e+00	0	27	0	432013312	63	4129
2026-01-05 05:21:50.31	32.55	10.10	-48.6	-49.9	14.6	0.00e+00	0	27	0	437256192	63	4147
2026-01-05 05:21:51.29	32.46	10.17	-48.5	-49.8	14.7	0.00e+00	0	27	0	443547648	63	4117
2026-01-05 05:21:52.28	32.37	10.25	-48.6	-49.9	14.6	0.00e+00	0	27	0	448790528	63	4171
2026-01-05 05:21:53.27	32.28	10.32	-48.5	-49.8	14.7	0.00e+00	0	27	0	454033408	63	4123
2026-01-05 05:21:54.26	32.19	10.40	-48.4	-49.7	14.7	0.00e+00	0	27	0	459276288	63	4074
2026-01-05 05:21:55.25	32.10	10.48	-48.6	-49.8	14.6	0.00e+00	0	27	0	465567744	63	4143
2026-01-05 05:21:56.25	32.01	10.55	-48.5	-49.7	14.7	0.00e+00	0	27	0	470810624	63	4089
2026-01-05 05:21:57.24	31.92	10.63	-48.5	-49.7	14.7	0.00e+00	0	27	0	476053504	63	4088
2026-01-05 05:21:58.23	31.83	10.70	-48.4	-49.7	14.7	0.00e+00	0	27	0	482344960	63	4078
2026-01-05 05:21:59.22	31.73	10.78	-48.4	-49.7	14.7	0.00e+00	0	27	0	487587840	63	4080
2026-01-05 05:22:00.21	31.64	10.86	-48.4	-49.6	14.8	0.00e+00	0	27	0	492830720	63	4039
2026-01-05 05:22:01.21	31.55	10.93	-48.4	-49.6	14.7	0.00e+00	0	27	0	499122176	63	4042
2026-01-05 05:22:02.19	31.45	11.01	-48.3	-49.6	14.8	0.00e+00	0	27	0	504365056	63	4012
2026-01-05 05:22:03.19	31.36	11.09	-48.1	-49.4	14.7	0.00e+00	0	27	0	509607936	62	4158
2026-01-05 05:22:04.18	31.26	11.16	-48.2	-49.5	14.7	0.00e+00	0	27	0	514850816	62	4202
2026-01-05 05:22:05.17	31.17	11.24	-48.1	-49.4	14.7	0.00e+00	0	27	0	521142272	62	4146
2026-01-05 05:22:06.16	31.07	11.32	-48.1	-49.3	14.7	0.00e+00	0	27	0	526385152	62	4120
2026-01-05 05:22:07.15	30.98	11.39	-48.1	-49.3	14.7	0.00e+00	0	27	0	532676608	62	4143
2026-01-05 05:22:08.14	30.88	11.47	-48.2	-49.4	14.7	0.00e+00	0	27	0	537919488	62	4171
2026-01-05 05:22:09.13	30.78	11.55	-48.1	-49.4	14.7	0.00e+00	0	27	0	543162368	62	4159
2026-01-05 05:22:10.12	30.68	11.63	-48.2	-49.5	14.7	0.00e+00	0	27	0	548405248	62	4205
2026-01-05 05:22:11.12	30.58	11.71	-48.1	-49.3	14.8	0.00e+00	0	27	0	554696704	62	4127
2026-01-05 05:22:12.11	30.48	11.79	-48.1	-49.3	14.8	0.00e+00	0	27	0	559939584	62	4140
2026-01-05 05:22:13.11	30.38	11.86	-48.0	-49.3	14.8	0.00e+00	0	27	0	565182464	62	4108
2026-01-05 05:22:14.10	30.28	11.94	-48.0	-49.2	14.8	0.00e+00	0	27	0	571473920	62	4082
2026-01-05 05:22:15.09	30.18	12.02	-48.0	-49.3	14.8	0.00e+00	0	27	0	576716800	62	4099
2026-01-05 05:22:16.09	30.08	12.10	-47.9	-49.2	14.8	0.00e+00	0	27	0	583008256	62	4059
2026-01-05 05:22:17.08	29.98	12.18	-47.9	-49.1	14.8	0.00e+00	0	27	0	588251136	62	4045
2026-01-05 05:22:18.08	29.87	12.26	-47.9	-49.1	14.8	0.00e+00	0	27	0	593494016	62	4038
2026-01-05 05:22:19.07	29.77	12.34	-48.0	-49.2	14.8	0.00e+00	0	27	0	598736896	62	4061
2026-01-05 05:22:20.05	29.67	12.42	-47.8	-49.0	14.9	0.00e+00	0	27	0	605028352	62	3992
2026-01-05 05:22:21.05	29.56	12.50	-47.8	-48.9	14.9	0.00e+00	0	27	0	610271232	62	3958
2026-01-05 05:22:22.04	29.46	12.58	-47.8	-49.0	14.9	0.00e+00	0	27	0	615514112	62	3976
2026-01-05 05:22:23.03	29.35	12.66	-47.9	-49.1	14.8	0.00e+00	0	27	0	621805568	62	4042
2026-01-05 05:22:24.03	29.24	12.74	-47.9	-49.1	14.9	0.00e+00	0	27	0	627048448	62	4015
2026-01-05 05:22:25.03	29.14	12.82	-47.8	-49.0	14.9	0.00e+00	0	27	0	632291328	62	3993
2026-01-05 05:22:26.02	29.03	12.90	-47.9	-49.1	14.9	0.00e+00	0	27	0	638582784	62	4018
2026-01-05 05:22:27.03	28.92	12.98	-47.9	-49.0	14.9	0.00e+00	0	27	0	643825664	62	3999
2026-01-05 05:22:28.02	28.81	13.06	-47.9	-49.1	14.8	0.00e+00	0	27	0	649068544	62	4039
2026-01-05 05:22:29.02	28.70	13.15	-47.9	-49.0	14.9	0.00e+00	0	27	0	655360000	62	4001
2026-01-05 05:22:30.01	28.59	13.23	-47.8	-49.0	14.9	0.00e+00	0	27	0	660602880	62	3967
2026-01-05 05:22:31.00	28.48	13.31	-47.8	-49.0	14.9	0.00e+00	0	27	0	665845760	62	3975
2026-01-05 05:22:31.99	28.37	13.39	-47.8	-49.0	14.9	0.00e+00	0	27	0	672137216	62	3971
2026-01-05 05:22:32.98	28.26	13.47	-47.5	-48.7	14.9	0.00e+00	0	27	0	677380096	61	4086
2026-01-05 05:22:33.96	28.15	13.55	-47.5	-48.7	14.9	0.00e+00	0	27	0	682622976	61	4071
2026-01-05 05:22:34.95	28.03	13.63	-47.5	-48.7	14.9	0.00e+00	0	27	0	688914432	61	4085
2026-01-05 05:22:35.94	27.92	13.72	-47.5	-48.7	14.9	0.00e+00	0	27	0	694157312	61	4053
2026-01-05 05:22:36.92	27.81	13.80	-47.5	-48.7	14.9	0.00e+00	0	27	0	699400192	61	4066
2026-01-05 05:22:37.91	27.69	13.88	-47.6	-48.7	14.9	0.00e+00	0	27	0	704643072	61	4083
2026-01-05 05:22:38.90	27.58	13.96	-47.5	-48.7	14.9	0.00e+00	0	27	0	710934528	61	4067
2026-01-05 05:22:39.88	27.46	14.05	-47.6	-48.7	14.9	0.00e+00	0	27	0	716177408	61	4087
2026-01-05 05:22:40.87	27.34	14.13	-47.5	-48.6	14.9	0.00e+00	0	27	0	721420288	61	4040
2026-01-05 05:22:41.86	27.23	14.21	-47.4	-48.6	14.9	0.00e+00	0	27	0	727711744	61	4028
2026-01-05 05:22:42.84	27.11	14.29	-47.5	-48.6	14.9	0.00e+00	0	27	0	732954624	61	4050
2026-01-05 05:22:43.83	26.99	14.38	-47.4	-48.6	14.9	0.00e+00	0	27	0	738197504	61	4023
2026-01-05 05:22:44.82	26.87	14.46	-47.5	-48.7	14.9	0.00e+00	0	27	0	744488960	61	4066
2026-01-05 05:22:45.82	26.75	14.55	-47.4	-48.5	14.9	0.00e+00	0	27	0	749731840	61	4002
2026-01-05 05:22:46.81	26.63	14.63	-47.5	-48.7	14.9	0.00e+00	0	27	0	754974720	61	4061
2026-01-05 05:22:47.81	26.51	14.71	-47.4	-48.5	15.0	0.00e+00	0	27	0	761266176	61	3989
2026-01-05 05:22:48.80	26.38	14.80	-47.4	-48.6	14.9	0.00e+00	0	27	0	766509056	61	4020
2026-01-05 05:22:49.79	26.26	14.88	-47.4	-48.6	14.9	0.00e+00	0	27	0	771751936	61	4015
2026-01-05 05:22:50.79	26.13	14.97	-47.4	-48.6	14.9	0.00e+00	0	27	0	778043392	61	4030
2026-01-05 05:22:51.79	26.01	15.05	-47.3	-48.5	15.0	0.00e+00	0	27	0	783286272	61	3967
2026-01-05 05:22:52.79	25.88	15.14	-47.2	-48.4	15.0	0.00e+00	0	27	0	788529152	61	3929
2026-01-05 05:22:53.79	25.76	15.23	-47.1	-48.2	15.0	0.00e+00	0	27	0	794820608	60	4066
2026-01-05 05:22:54.78	25.63	15.31	-47.0	-48.1	15.0	0.00e+00	0	27	0	800063488	60	4041
2026-01-05 05:22:55.77	25.50	15.40	-46.9	-48.0	15.0	0.00e+00	0	27	0	805306368	60	4003
2026-01-05 05:22:56.76	25.37	15.48	-46.9	-48.1	15.0	0.00e+00	0	27	0	811597824	60	4005
2026-01-05 05:22:57.76	25.24	15.57	-46.9	-48.0	15.0	0.00e+00	0	27	0	816840704	60	3992
2026-01-05 05:22:58.75	25.11	15.65	-46.9	-48.0	15.0	0.00e+00	0	27	0	822083584	60	3987
2026-01-05 05:22:59.75	24.98	15.74	-46.9	-48.0	15.0	0.00e+00	0	27	0	828375040	60	3979
2026-01-05 05:23:00.75	24.85	15.83	-46.9	-48.0	15.0	0.00e+00	0	27	0	833617920	60	3981
2026-01-05 05:23:01.74	24.72	15.91	-46.9	-48.1	15.0	0.00e+00	0	27	0	838860800	60	4005
2026-01-05 05:23:02.73	24.58	16.00	-47.0	-48.1	15.0	0.00e+00	0	27	0	845152256	60	4029
2026-01-05 05:23:03.72	24.45	16.09	-47.0	-48.2	15.0	0.00e+00	0	27	0	850395136	60	4056
2026-01-05 05:23:04.72	24.31	16.17	-47.0	-48.2	15.0	0.00e+00	0	27	0	855638016	60	4054
2026-01-05 05:23:05.71	24.18	16.26	-47.0	-48.1	15.0	0.00e+00	0	27	0	861929472	60	4034
2026-01-05 05:23:06.71	24.04	16.35	-47.0	-48.2	15.0	0.00e+00	0	27	0	867172352	60	4057
2026-01-05 05:23:07.71	23.90	16.44	-46.9	-48.1	15.0	0.00e+00	0	27	0	872415232	60	4007
2026-01-05 05:23:08.71	23.76	16.52	-47.0	-48.2	15.0	0.00e+00	0	27	0	878706688	60	4061
2026-01-05 05:23:09.71	23.62	16.61	-46.8	-47.9	15.1	0.00e+00	0	27	0	883949568	60	3957
2026-01-05 05:23:10.71	23.48	16.70	-46.7	-47.8	15.1	0.00e+00	0	27	0	889192448	60	3913
2026-01-05 05:23:11.71	23.34	16.79	-46.8	-47.9	15.1	0.00e+00	0	27	0	895483904	60	3943
2026-01-05 05:23:12.71	23.20	16.88	-46.8	-47.9	15.1	0.00e+00	0	27	0	900726784	60	3950
2026-01-05 05:23:13.71	23.05	16.97	-46.8	-47.9	15.1	0.00e+00	0	27	0	907018240	60	3928
2026-01-05 05:23:14.71	22.91	17.06	-46.8	-47.9	15.1	0.00e+00	0	27	0	912261120	60	3922
2026-01-05 05:23:15.70	22.77	17.14	-47.0	-48.1	14.9	0.00e+00	0	27	0	917504000	59	4271
2026-01-05 05:23:16.70	22.62	17.23	-47.0	-48.1	14.9	0.00e+00	0	27	0	923795456	59	4272
2026-01-05 05:23:17.71	22.47	17.32	-47.0	-48.2	14.9	0.00e+00	0	27	0	929038336	59	4298
2026-01-05 05:23:18.70	22.32	17.41	-47.0	-48.1	14.9	0.00e+00	0	27	0	934281216	59	4281
2026-01-05 05:23:19.70	22.18	17.50	-47.0	-48.1	14.9	0.00e+00	0	27	0	940572672	59	4275
2026-01-05 05:23:20.70	22.03	17.59	-46.9	-48.1	14.9	0.00e+00	0	27	0	945815552	59	4251
2026-01-05 05:23:21.71	21.87	17.68	-46.8	-48.0	15.0	0.00e+00	0	27	0	951058432	59	4207
2026-01-05 05:23:22.70	21.72	17.77	-46.8	-47.9	15.0	0.00e+00	0	27	0	957349888	59	4172
2026-01-05 05:23:23.70	21.57	17.86	-46.9	-48.1	14.9	0.00e+00	0	27	0	962592768	59	4256
2026-01-05 05:23:24.70	21.42	17.95	-46.9	-48.0	14.9	0.00e+00	0	27	0	968884224	59	4232
2026-01-05 05:23:25.70	21.26	18.04	-46.8	-48.0	14.9	0.00e+00	0	27	0	974127104	59	4205
2026-01-05 05:23:26.69	21.11	18.13	-46.8	-47.9	15.0	0.00e+00	0	27	0	979369984	59	4184
2026-01-05 05:23:27.69	20.95	18.22	-46.8	-47.9	15.0	0.00e+00	0	27	0	985661440	59	4175
2026-01-05 05:23:28.69	20.80	18.31	-46.8	-47.9	15.0	0.00e+00	0	27	0	990904320	59	4182
2026-01-05 05:23:29.68	20.64	18.40	-46.8	-47.9	15.0	0.00e+00	0	27	0	996147200	59	4171
2026-01-05 05:23:30.68	20.48	18.49	-46.7	-47.9	15.0	0.00e+00	0	27	0	1001390080	59	4146
2026-01-05 05:23:31.67	20.32	18.58	-46.7	-47.8	15.0	0.00e+00	0	27	0	1007681536	59	4140
2026-01-05 05:23:32.66	20.16	18.67	-46.6	-47.7	15.1	0.00e+00	0	27	0	1012924416	59	4074
2026-01-05 05:23:33.66	20.00	18.76	-46.7	-47.8	15.0	0.00e+00	0	27	0	1019215872	59	4113
2026-01-05 05:23:34.66	19.84	18.86	-46.5	-47.6	15.1	0.00e+00	0	27	0	1024458752	59	4041
2026-01-05 05:23:35.66	19.67	18.95	-46.5	-47.6	15.1	0.00e+00	0	27	0	1029701632	59	4020
2026-01-05 05:23:36.66	19.51	19.04	-46.5	-47.6	15.1	0.00e+00	0	27	0	1035993088	59	4050
2026-01-05 05:23:37.66	19.34	19.13	-46.5	-47.6	15.1	0.00e+00	0	27	0	1041235968	59	4013
2026-01-05 05:23:38.65	19.18	19.22	-46.5	-47.6	15.1	0.00e+00	0	27	0	1046478848	59	4031
2026-01-05 05:23:39.66	19.01	19.31	-46.4	-47.5	15.1	0.00e+00	0	27	0	1052770304	59	3979
2026-01-05 05:23:40.65	18.84	19.40	-46.4	-47.5	15.1	0.00e+00	0	27	0	1058013184	59	3982
2026-01-05 05:23:41.65	18.67	19.50	-46.4	-47.5	15.1	0.00e+00	0	27	0	1063256064	59	3999
2026-01-05 05:23:42.64	18.50	19.59	-46.5	-47.6	15.1	0.00e+00	0	27	0	1069547520	59	4026
2026-01-05 05:23:43.64	18.33	19.68	-46.6	-47.7	15.1	0.00e+00	0	27	0	1074790400	59	4068
2026-01-05 05:23:44.63	18.16	19.77	-46.5	-47.6	15.1	0.00e+00	0	27	0	1080033280	59	4046
2026-01-05 05:23:45.62	17.99	19.86	-46.4	-47.5	15.1	0.00e+00	0	27	0	1086324736	59	3980
2026-01-05 05:23:46.61	17.81	19.95	-46.4	-47.5	15.1	0.00e+00	0	27	0	1091567616	59	3977
2026-01-05 05:23:47.60	17.64	20.04	-46.4	-47.5	15.1	0.00e+00	0	27	0	1096810496	59	3991
2026-01-05 05:23:48.60	17.46	20.14	-46.4	-47.5	15.1	0.00e+00	0	27	0	1103101952	59	3960
2026-01-05 05:23:49.59	17.28	20.23	-46.4	-47.5	15.1	0.00e+00	0	27	0	1108344832	59	3982
2026-01-05 05:23:50.58	17.11	20.32	-46.4	-47.5	15.1	0.00e+00	0	27	0	1113587712	59	3979
2026-01-05 05:23:51.58	16.93	20.41	-46.5	-47.6	15.1	0.00e+00	0	27	0	1119879168	59	4013
2026-01-05 05:23:52.56	16.75	20.50	-46.6	-47.7	15.1	0.00e+00	0	27	0	1125122048	59	4072
2026-01-05 05:23:53.55	16.57	20.59	-46.7	-47.8	15.0	0.00e+00	0	27	0	1130364928	59	4124
2026-01-05 05:23:54.55	16.38	20.69	-46.6	-47.8	15.0	0.00e+00	0	27	0	1136656384	59	4109
2026-01-05 05:23:55.53	16.20	20.78	-46.7	-47.8	15.0	0.00e+00	0	27	0	1141899264	59	4136
2026-01-05 05:23:56.53	16.01	20.87	-46.7	-47.9	15.0	0.00e+00	0	27	0	1147142144	59	4152
2026-01-05 05:23:57.52	15.83	20.96	-46.5	-47.6	15.1	0.00e+00	0	27	0	1153433600	59	4029
2026-01-05 05:23:58.51	15.64	21.05	-46.4	-47.5	15.1	0.00e+00	0	27	0	1158676480	59	3980
2026-01-05 05:23:59.51	15.45	21.14	-46.4	-47.5	15.1	0.00e+00	0	27	0	1163919360	59	3998
2026-01-05 05:24:00.50	15.26	21.24	-46.4	-47.5	15.1	0.00e+00	0	27	0	1170210816	59	3988
2026-01-05 05:24:01.49	15.07	21.33	-46.4	-47.5	15.2	0.00e+00	0	27	0	1175453696	59	3963
2026-01-05 05:24:02.50	14.88	21.42	-46.3	-47.4	15.2	0.00e+00	0	27	0	1180696576	59	3944
2026-01-05 05:24:03.49	14.69	21.51	-46.4	-47.5	15.1	0.00e+00	0	27	0	1186988032	59	4004
2026-01-05 05:24:04.49	14.49	21.61	-46.4	-47.5	15.2	0.00e+00	0	27	0	1192230912	59	3967
2026-01-05 05:24:05.48	14.30	21.70	-46.3	-47.4	15.2	0.00e+00	0	27	0	1197473792	59	3931
2026-01-05 05:24:06.46	14.10	21.79	-46.3	-47.4	15.2	0.00e+00	0	27	0	1203765248	59	3939
2026-01-05 05:24:07.45	13.90	21.88	-46.3	-47.4	15.2	0.00e+00	0	27	0	1209008128	59	3942
2026-01-05 05:24:08.45	13.70	21.97	-46.3	-47.4	15.2	0.00e+00	0	27	0	1214251008	59	3923
2026-01-05 05:24:09.44	13.51	22.06	-46.3	-47.3	15.2	0.00e+00	0	27	0	1220542464	59	3910
2026-01-05 05:24:10.43	13.30	22.15	-46.1	-47.2	15.1	0.00e+00	0	27	0	1225785344	58	4060
2026-01-05 05:24:11.43	13.10	22.25	-46.1	-47.1	15.1	0.00e+00	0	27	0	1231028224	58	4046
2026-01-05 05:24:12.42	12.90	22.34	-46.0	-47.1	15.1	0.00e+00	0	27	0	1236271104	58	4020
2026-01-05 05:24:13.42	12.69	22.43	-46.0	-47.1	15.1	0.00e+00	0	27	0	1242562560	58	4036
2026-01-05 05:24:14.42	12.48	22.52	-46.0	-47.1	15.1	0.00e+00	0	27	0	1247805440	58	4026
2026-01-05 05:24:15.41	12.28	22.61	-46.1	-47.2	15.1	0.00e+00	0	27	0	1254096896	58	4063
2026-01-05 05:24:16.41	12.07	22.70	-46.2	-47.3	15.1	0.00e+00	0	27	0	1259339776	58	4120
2026-01-05 05:24:17.40	11.86	22.80	-46.0	-47.1	15.1	0.00e+00	0	27	0	1264582656	58	4016
2026-01-05 05:24:18.40	11.65	22.89	-45.9	-46.9	15.2	0.00e+00	0	27	0	1270874112	58	3946
2026-01-05 05:24:19.39	11.43	22.98	-45.8	-46.8	15.2	0.00e+00	0	27	0	1276116992	58	3899
2026-01-05 05:24:20.38	11.22	23.07	-45.5	-46.5	15.2	0.00e+00	0	27	0	1281359872	57	4002
2026-01-05 05:24:21.38	11.00	23.16	-45.5	-46.5	15.2	0.00e+00	0	27	0	1286602752	57	3986
2026-01-05 05:24:22.37	10.79	23.25	-45.6	-46.6	15.1	0.00e+00	0	27	0	1292894208	57	4047
2026-01-05 05:24:23.37	10.57	23.34	-45.7	-46.7	15.1	0.00e+00	0	27	0	1298137088	57	4076
2026-01-05 05:24:24.36	10.35	23.43	-45.8	-46.9	15.1	0.00e+00	0	27	0	1304428544	57	4172
2026-01-05 05:24:25.35	10.13	23.52	-45.8	-46.9	15.1	0.00e+00	0	27	0	1309671424	57	4180
2026-01-05 05:24:26.34	9.91	23.61	-45.9	-47.0	15.1	0.00e+00	0	27	0	1314914304	57	4206
2026-01-05 05:24:27.34	9.69	23.70	-45.9	-47.0	15.0	0.00e+00	0	27	0	1321205760	57	4213
2026-01-05 05:24:28.32	9.47	23.79	-46.0	-47.1	15.0	0.00e+00	0	27	0	1326448640	57	4244
2026-01-05 05:24:29.32	9.24	23.88	-45.8	-46.9	15.1	0.00e+00	0	27	0	1331691520	57	4157
2026-01-05 05:24:30.31	9.01	23.97	-45.7	-46.7	15.1	0.00e+00	0	27	0	1336934400	57	4090
2026-01-05 05:24:31.30	8.79	24.06	-45.5	-46.6	15.2	0.00e+00	0	27	0	1343225856	57	4009
2026-01-05 05:24:32.30	8.56	24.15	-45.5	-46.5	15.2	0.00e+00	0	27	0	1348468736	57	3985
2026-01-05 05:24:33.29	8.33	24.24	-45.5	-46.5	15.2	0.00e+00	0	27	0	1354760192	57	3990
2026-01-05 05:24:34.28	8.10	24.32	-45.5	-46.6	15.2	0.00e+00	0	27	0	1360003072	57	4010
2026-01-05 05:24:35.28	7.86	24.41	-45.5	-46.5	15.2	0.00e+00	0	27	0	1365245952	57	3994
2026-01-05 05:24:36.28	7.62	24.50	-45.5	-46.6	15.2	0.00e+00	0	27	0	1370488832	57	4011
2026-01-05 05:24:37.27	7.39	24.59	-45.5	-46.5	15.2	0.00e+00	0	27	0	1376780288	57	3991
2026-01-05 05:24:38.25	7.16	24.68	-45.5	-46.6	15.2	0.00e+00	0	27	0	1382023168	57	4023
2026-01-05 05:24:39.25	6.92	24.76	-45.4	-46.5	15.2	0.00e+00	0	27	0	1387266048	57	3964
2026-01-05 05:24:40.24	6.68	24.85	-45.2	-46.3	15.3	0.00e+00	0	27	0	1393557504	57	3887
2026-01-05 05:24:41.24	6.43	24.94	-45.3	-46.3	15.3	0.00e+00	0	27	0	1398800384	57	3891
2026-01-05 05:24:42.22	6.19	25.02	-45.2	-46.3	15.3	0.00e+00	0	27	0	1404043264	57	3869
2026-01-05 05:24:43.22	5.95	25.11	-45.3	-46.3	15.3	0.00e+00	0	27	0	1410334720	57	3893
2026-01-05 05:24:44.22	5.70	25.20	-45.3	-46.4	15.2	0.00e+00	0	27	0	1415577600	57	3914
2026-01-05 05:24:45.21	5.46	25.28	-45.5	-46.5	15.2	0.00e+00	0	27	0	1420820480	57	3983
2026-01-05 05:24:46.20	5.21	25.37	-45.5	-46.5	15.2	0.00e+00	0	27	0	1427111936	57	3993
2026-01-05 05:24:47.19	4.96	25.45	-45.6	-46.7	15.2	0.00e+00	0	27	0	1432354816	57	4052
2026-01-05 05:24:48.19	4.71	25.54	-45.7	-46.8	15.1	0.00e+00	0	27	0	1437597696	57	4111
2026-01-05 05:24:49.19	4.46	25.62	-45.6	-46.7	15.2	0.00e+00	0	27	0	1443889152	57	4067
2026-01-05 05:24:50.18	4.20	25.71	-45.5	-46.6	15.2	0.00e+00	0	27	0	1449132032	57	4015
2026-01-05 05:24:51.17	3.95	25.79	-45.4	-46.5	15.2	0.00e+00	0	27	0	1454374912	57	3971
2026-01-05 05:24:52.16	3.69	25.87	-45.4	-46.5	15.2	0.00e+00	0	27	0	1460666368	57	3974
2026-01-05 05:24:53.16	3.43	25.96	-45.5	-46.5	15.2	0.00e+00	0	27	0	1465909248	57	3995
2026-01-05 05:24:54.14	3.18	26.04	-45.3	-46.3	15.3	0.00e+00	0	27	0	1471152128	57	3891
2026-01-05 05:24:55.14	2.92	26.12	-45.4	-46.4	15.2	0.00e+00	0	27	0	1477443584	57	3933
2026-01-05 05:24:56.13	2.66	26.20	-45.5	-46.5	15.2	0.00e+00	0	27	0	1482686464	57	3985
2026-01-05 05:24:57.12	2.39	26.28	-45.6	-46.6	15.2	0.00e+00	0	27	0	1487929344	57	4044
2026-01-05 05:24:58.12	2.13	26.37	-45.7	-46.7	15.1	0.00e+00	0	27	0	1494220800	57	4094
2026-01-05 05:24:59.12	1.86	26.45	-45.8	-46.8	15.1	0.00e+00	0	27	0	1499463680	57	4135
2026-01-05 05:25:00.11	1.60	26.53	-45.5	-46.6	15.2	0.00e+00	0	27	0	1504706560	57	4016
2026-01-05 05:25:01.11	1.32	26.61	-45.6	-46.6	15.1	0.00e+00	0	27	0	1510998016	57	4051
2026-01-05 05:25:02.10	1.06	26.69	-45.4	-46.4	15.2	0.00e+00	0	27	0	1516240896	57	3944
2026-01-05 05:25:03.10	0.78	26.77	-45.4	-46.4	15.2	0.00e+00	0	27	0	1521483776	57	3941
2026-01-05 05:25:04.10	0.51	26.84	-45.3	-46.3	15.3	0.00e+00	0	27	0	1527775232	57	3897
2026-01-05 05:25:05.10	0.23	26.92	-45.2	-46.3	15.3	0.00e+00	0	27	0	1533018112	57	3882
2026-01-05 05:25:06.09	359.96	27.00	-45.2	-46.2	15.3	0.00e+00	0	27	0	1539309568	57	3853
2026-01-05 05:25:07.09	359.68	27.08	-45.1	-46.1	15.2	0.00e+00	0	27	0	1544552448	56	4036
2026-01-05 05:25:08.08	359.40	27.15	-45.0	-46.0	15.2	0.00e+00	0	27	0	1549795328	56	3999
2026-01-05 05:25:09.08	359.12	27.23	-45.0	-46.0	15.2	0.00e+00	0	28	0	1555038208	56	3980
2026-01-05 05:25:10.07	358.84	27.30	-45.0	-46.0	15.2	0.00e+00	0	27	0	1561329664	56	3968
2026-01-05 05:25:11.07	358.56	27.38	-45.0	-46.1	15.2	0.00e+00	0	27	0	1566572544	56	4014
2026-01-05 05:25:12.07	358.27	27.45	-45.1	-46.1	15.2	0.00e+00	0	27	0	1571815424	56	4048
2026-01-05 05:25:13.07	357.99	27.53	-45.2	-46.2	15.2	0.00e+00	0	27	0	1578106880	56	4086
2026-01-05 05:25:14.07	357.70	27.60	-45.3	-46.3	15.1	0.00e+00	0	27	0	1583349760	56	4131
2026-01-05 05:25:15.07	357.41	27.67	-45.3	-46.3	15.1	0.00e+00	0	27	0	1589641216	56	4136
2026-01-05 05:25:16.07	357.12	27.75	-45.3	-46.3	15.1	0.00e+00	0	27	0	1594884096	56	4138
2026-01-05 05:25:17.07	356.83	27.82	-45.3	-46.3	15.1	0.00e+00	0	27	0	1600126976	56	4137
2026-01-05 05:25:18.07	356.54	27.89	-45.2	-46.3	15.1	0.00e+00	0	27	0	1606418432	56	4110
2026-01-05 05:25:19.06	356.24	27.96	-45.3	-46.3	15.1	0.00e+00	0	27	0	1611661312	56	4143
2026-01-05 05:25:20.06	355.95	28.03	-45.3	-46.3	15.1	0.00e+00	0	27	0	1616904192	56	4128
2026-01-05 05:25:21.06	355.65	28.09	-45.2	-46.2	15.2	0.00e+00	0	27	0	1623195648	56	4090
2026-01-05 05:25:22.06	355.35	28.16	-45.3	-46.4	15.1	0.00e+00	0	27	0	1628438528	56	4157
2026-01-05 05:25:23.06	355.05	28.23	-45.1	-46.1	15.2	0.00e+00	0	27	0	1633681408	56	4049
2026-01-05 05:25:24.06	354.75	28.30	-45.1	-46.1	15.2	0.00e+00	0	27	0	1639972864	56	4040
2026-01-05 05:25:25.06	354.45	28.36	-45.1	-46.1	15.2	0.00e+00	0	27	0	1645215744	56	4049
2026-01-05 05:25:26.05	354.15	28.43	-45.2	-46.2	15.2	0.00e+00	0	27	0	1651507200	56	4067
2026-01-05 05:25:27.05	353.85	28.49	-45.3	-46.3	15.1	0.00e+00	0	27	0	1656750080	56	4135
2026-01-05 05:25:28.05	353.54	28.55	-45.2	-46.2	15.2	0.00e+00	0	27	0	1661992960	56	4079
2026-01-05 05:25:29.05	353.23	28.62	-45.2	-46.2	15.2	0.00e+00	0	27	0	1668284416	56	4096
2026-01-05 05:25:30.05	352.93	28.68	-45.0	-46.0	15.2	0.00e+00	0	27	0	1673527296	56	3983
2026-01-05 05:25:31.05	352.62	28.74	-44.8	-45.8	15.3	0.00e+00	0	27	0	1678770176	56	3906
2026-01-05 05:25:32.05	352.31	28.80	-44.8	-45.8	15.3	0.00e+00	0	27	0	1685061632	56	3879
2026-01-05 05:25:33.05	351.99	28.86	-44.8	-45.8	15.3	0.00e+00	0	27	0	1690304512	56	3906
2026-01-05 05:25:34.05	351.68	28.92	-44.9	-45.9	15.3	0.00e+00	0	27	0	1695547392	56	3945
2026-01-05 05:25:35.05	351.37	28.98	-45.0	-46.1	15.2	0.00e+00	0	27	0	1701838848	56	4014
2026-01-05 05:25:36.05	351.05	29.04	-45.1	-46.2	15.2	0.00e+00	0	27	0	1707081728	56	4053
2026-01-05 05:25:37.05	350.74	29.09	-45.2	-46.3	15.2	0.00e+00	0	27	0	1713373184	56	4100
2026-01-05 05:25:38.05	350.42	29.15	-45.1	-46.2	15.2	0.00e+00	0	27	0	1718616064	56	4058
2026-01-05 05:25:39.05	350.10	29.20	-45.1	-46.1	15.2	0.00e+00	0	27	0	1723858944	56	4028
2026-01-05 05:25:40.04	349.78	29.25	-45.0	-46.1	15.2	0.00e+00	0	27	0	1730150400	56	4013
2026-01-05 05:25:41.04	349.46	29.31	-44.9	-45.9	15.3	0.00e+00	0	27	0	1735393280	56	3932
2026-01-05 05:25:42.04	349.14	29.36	-44.9	-45.9	15.2	0.00e+00	0	27	0	1740636160	56	3956
2026-01-05 05:25:43.04	348.82	29.41	-45.0	-46.0	15.2	0.00e+00	0	27	0	1746927616	56	3999
2026-01-05 05:25:44.03	348.50	29.46	-45.1	-46.1	15.2	0.00e+00	0	27	0	1752170496	56	4044
2026-01-05 05:25:45.03	348.17	29.51	-45.0	-46.1	15.2	0.00e+00	0	27	0	1757413376	56	4017
2026-01-05 05:25:46.02	347.85	29.56	-45.0	-46.1	15.2	0.00e+00	0	27	0	1763704832	56	4006
2026-01-05 05:25:47.01	347.53	29.60	-45.0	-46.0	15.2	0.00e+00	0	27	0	1768947712	56	3985
2026-01-05 05:25:48.01	347.20	29.65	-44.9	-45.9	15.2	0.00e+00	0	27	0	1774190592	56	3953
2026-01-05 05:25:49.00	346.87	29.69	-44.9	-45.9	15.3	0.00e+00	0	27	0	1780482048	56	3940
2026-01-05 05:25:49.99	346.55	29.74	-45.0	-46.0	15.2	0.00e+00	0	27	0	1785724928	56	3993
2026-01-05 05:25:51.00	346.21	29.78	-45.1	-46.1	15.2	0.00e+00	0	27	0	1790967808	56	4044
2026-01-05 05:25:51.99	345.89	29.82	-45.0	-46.0	15.2	0.00e+00	0	27	0	1797259264	56	3992
2026-01-05 05:25:52.98	345.56	29.86	-44.9	-45.9	15.3	0.00e+00	0	27	0	1802502144	56	3932
2026-01-05 05:25:53.96	345.23	29.90	-44.8	-45.8	15.3	0.00e+00	0	28	0	1807745024	56	3882
2026-01-05 05:25:54.96	344.90	29.94	-44.8	-45.8	15.3	0.00e+00	0	27	0	1814036480	56	3888
2026-01-05 05:25:55.96	344.56	29.98	-44.8	-45.8	15.3	0.00e+00	0	27	0	1819279360	56	3892
2026-01-05 05:25:56.95	344.23	30.02	-44.8	-45.8	15.3	0.00e+00	0	27	0	1824522240	56	3888
2026-01-05 05:25:57.95	343.89	30.05	-45.0	-46.0	15.2	0.00e+00	0	27	0	1830813696	56	3980
2026-01-05 05:25:58.95	343.56	30.09	-44.9	-45.9	15.2	0.00e+00	0	27	0	1836056576	56	3957
2026-01-05 05:25:59.94	343.22	30.12	-44.8	-45.8	15.3	0.00e+00	0	27	0	1841299456	56	3887
2026-01-05 05:26:00.93	342.89	30.15	-44.9	-45.9	15.3	0.00e+00	0	27	0	1847590912	56	3919
2026-01-05 05:26:01.92	342.55	30.19	-45.1	-46.1	15.2	0.00e+00	0	27	0	1852833792	56	4030
2026-01-05 05:26:02.91	342.22	30.22	-45.1	-46.1	15.2	0.00e+00	0	27	0	1858076672	56	4050
2026-01-05 05:26:03.91	341.87	30.25	-45.3	-46.3	15.1	0.00e+00	0	27	0	1864368128	56	4126
2026-01-05 05:26:04.90	341.54	30.27	-45.2	-46.2	15.2	0.00e+00	0	27	0	1869611008	56	4080
2026-01-05 05:26:05.90	341.20	30.30	-45.0	-46.1	15.2	0.00e+00	0	27	0	1874853888	56	4014
2026-01-05 05:26:06.90	340.85	30.33	-44.9	-45.9	15.3	0.00e+00	0	27	0	1881145344	56	3916
2026-01-05 05:26:07.90	340.51	30.35	-44.8	-45.8	15.3	0.00e+00	0	27	0	1886388224	56	3905
2026-01-05 05:26:08.90	340.17	30.38	-44.8	-45.8	15.3	0.00e+00	0	27	0	1891631104	56	3893
2026-01-05 05:26:09.90	339.82	30.40	-44.9	-45.9	15.3	0.00e+00	0	27	0	1897922560	56	3946
2026-01-05 05:26:10.89	339.48	30.42	-44.9	-45.9	15.3	0.00e+00	0	27	0	1903165440	56	3947
2026-01-05 05:26:11.90	339.14	30.44	-45.0	-46.0	15.2	0.00e+00	0	28	0	1908408320	56	3987
2026-01-05 05:26:12.89	338.79	30.46	-44.9	-46.0	15.3	0.00e+00	0	27	0	1914699776	56	3959
2026-01-05 05:26:13.88	338.45	30.48	-44.7	-45.8	15.3	0.00e+00	0	27	0	1919942656	56	3878
2026-01-05 05:26:14.89	338.10	30.50	-44.8	-45.7	15.3	0.00e+00	0	27	0	1926234112	56	3868
2026-01-05 05:26:15.88	337.76	30.51	-44.7	-45.7	15.3	0.00e+00	0	27	0	1931476992	56	3846
2026-01-05 05:26:16.86	337.42	30.53	-44.7	-45.7	15.3	0.00e+00	0	27	0	1936719872	56	3839
2026-01-05 05:26:17.86	337.07	30.54	-44.7	-45.7	15.3	0.00e+00	0	27	0	1941962752	56	3864
2026-01-05 05:26:18.86	336.73	30.55	-44.8	-45.8	15.3	0.00e+00	0	27	0	1948254208	56	3877
2026-01-05 05:26:19.85	336.38	30.56	-44.9	-46.0	15.3	0.00e+00	0	27	0	1953497088	56	3969
2026-01-05 05:26:20.84	336.04	30.57	-44.9	-46.0	15.3	0.00e+00	0	27	0	1959788544	56	3962
2026-01-05 05:26:21.83	335.69	30.58	-44.8	-45.8	15.3	0.00e+00	0	28	0	1965031424	56	3886
2026-01-05 05:26:22.83	335.35	30.59	-44.7	-45.7	15.3	0.00e+00	0	27	0	1970274304	56	3855
2026-01-05 05:26:23.81	335.00	30.60	-44.7	-45.7	15.3	0.00e+00	0	27	0	1975517184	56	3863
2026-01-05 05:26:24.80	334.66	30.60	-44.8	-45.8	15.3	0.00e+00	0	27	0	1981808640	56	3891
2026-01-05 05:26:25.79	334.31	30.60	-44.9	-45.9	15.3	0.00e+00	0	27	0	1987051520	56	3932
2026-01-05 05:26:26.78	333.97	30.61	-45.0	-46.0	15.2	0.00e+00	0	27	0	1992294400	56	3975
2026-01-05 05:26:27.77	333.62	30.61	-44.9	-45.9	15.3	0.00e+00	0	27	0	1998585856	56	3934
2026-01-05 05:26:28.76	333.28	30.61	-44.9	-45.9	15.3	0.00e+00	0	27	0	2003828736	56	3945
2026-01-05 05:26:29.76	332.93	30.61	-44.9	-45.9	15.3	0.00e+00	0	27	0	2009071616	56	3935
2026-01-05 05:26:30.75	332.59	30.61	-44.9	-45.9	15.3	0.00e+00	0	27	0	2015363072	56	3956
2026-01-05 05:26:31.74	332.24	30.60	-44.8	-45.9	15.3	0.00e+00	0	27	0	2020605952	56	3918
2026-01-05 05:26:32.72	331.90	30.60	-44.8	-45.8	15.3	0.00e+00	0	27	0	2025848832	56	3907
2026-01-05 05:26:33.72	331.55	30.60	-44.8	-45.9	15.3	0.00e+00	0	27	0	2031091712	56	3914
2026-01-05 05:26:34.71	331.21	30.59	-44.8	-45.9	15.3	0.00e+00	0	27	0	2037383168	56	3922
2026-01-05 05:26:35.71	330.86	30.58	-44.9	-45.9	15.3	0.00e+00	0	27	0	2042626048	56	3941
2026-01-05 05:26:36.70	330.51	30.57	-44.9	-46.0	15.3	0.00e+00	0	27	0	2048917504	56	3959
2026-01-05 05:26:37.69	330.17	30.56	-44.8	-45.8	15.3	0.00e+00	0	27	0	2054160384	56	3874
2026-01-05 05:26:38.69	329.82	30.55	-44.8	-45.8	15.3	0.00e+00	0	27	0	2059403264	56	3906
2026-01-05 05:26:39.68	329.48	30.54	-44.8	-45.8	15.3	0.00e+00	0	27	0	2064646144	56	3881
2026-01-05 05:26:40.67	329.13	30.53	-44.8	-45.8	15.3	0.00e+00	0	27	0	2070937600	56	3876
2026-01-05 05:26:41.66	328.79	30.51	-44.8	-45.8	15.3	0.00e+00	0	27	0	2076180480	56	3899
2026-01-05 05:26:42.64	328.45	30.50	-44.8	-45.9	15.3	0.00e+00	0	27	0	2081423360	56	3916
2026-01-05 05:26:43.63	328.11	30.48	-44.9	-46.0	15.2	0.00e+00	0	27	0	2087714816	56	3966
2026-01-05 05:26:44.62	327.77	30.46	-45.0	-46.0	15.2	0.00e+00	0	27	0	2092957696	56	3997
2026-01-05 05:26:45.61	327.43	30.44	-45.0	-46.0	15.2	0.00e+00	0	28	0	2098200576	56	3984
2026-01-05 05:26:46.61	327.08	30.42	-44.9	-45.9	15.3	0.00e+00	0	28	0	2104492032	56	3924
2026-01-05 05:26:47.60	326.74	30.40	-44.7	-45.7	15.3	0.00e+00	0	27	0	2109734912	56	3862
2026-01-05 05:26:48.59	326.40	30.38	-44.9	-45.9	15.3	0.00e+00	0	27	0	2114977792	56	3926
2026-01-05 05:26:49.59	326.06	30.35	-44.9	-45.9	15.2	0.00e+00	0	27	0	2121269248	56	3954
2026-01-05 05:26:50.59	325.71	30.33	-44.9	-45.9	15.3	0.00e+00	0	27	0	2126512128	56	3926
2026-01-05 05:26:51.57	325.38	30.30	-44.9	-45.9	15.3	0.00e+00	0	27	0	2131755008	56	3954
2026-01-05 05:26:52.56	325.04	30.28	-44.8	-45.8	15.3	0.00e+00	0	27	0	2138046464	56	3890
2026-01-05 05:26:53.56	324.70	30.25	-44.8	-45.8	15.3	0.00e+00	0	27	0	2143289344	56	3878
2026-01-05 05:26:54.56	324.36	30.22	-44.7	-45.7	15.3	0.00e+00	0	27	0	2148532224	56	3841
2026-01-05 05:26:55.56	324.02	30.19	-44.7	-45.7	15.3	0.00e+00	0	27	0	2154823680	56	3858
2026-01-05 05:26:56.55	323.68	30.16	-44.8	-45.8	15.3	0.00e+00	0	27	0	2160066560	56	3879
2026-01-05 05:26:57.53	323.35	30.12	-44.9	-45.9	15.3	0.00e+00	0	27	0	2165309440	56	3926
2026-01-05 05:26:58.52	323.01	30.09	-44.9	-45.9	15.3	0.00e+00	0	27	0	2170552320	56	3950
2026-01-05 05:26:59.52	322.68	30.05	-44.8	-45.9	15.3	0.00e+00	0	27	0	2176843776	56	3920
2026-01-05 05:27:00.48	322.35	30.02	-45.0	-46.0	15.2	0.00e+00	0	27	0	2182086656	56	3994
2026-01-05 05:27:01.48	322.02	29.98	-45.0	-46.0	15.2	0.00e+00	0	27	0	2188378112	56	3975
2026-01-05 05:27:02.48	321.68	29.95	-45.0	-46.0	15.2	0.00e+00	0	27	0	2193620992	56	3977
2026-01-05 05:27:03.48	321.35	29.91	-44.9	-45.9	15.3	0.00e+00	0	27	0	2198863872	56	3958
2026-01-05 05:27:04.47	321.02	29.87	-44.9	-45.9	15.3	0.00e+00	0	28	0	2204106752	56	3933
2026-01-05 05:27:05.47	320.69	29.83	-44.8	-45.8	15.3	0.00e+00	0	27	0	2210398208	56	3907
2026-01-05 05:27:06.46	320.36	29.78	-44.8	-45.8	15.3	0.00e+00	0	27	0	2215641088	56	3892
2026-01-05 05:27:07.45	320.03	29.74	-44.8	-45.8	15.3	0.00e+00	0	27	0	2220883968	56	3890
2026-01-05 05:27:08.45	319.70	29.70	-44.9	-45.9	15.3	0.00e+00	0	28	0	2227175424	56	3920
2026-01-05 05:27:09.44	319.38	29.65	-44.9	-45.9	15.3	0.00e+00	0	27	0	2232418304	56	3958
2026-01-05 05:27:10.44	319.05	29.61	-45.0	-46.0	15.2	0.00e+00	0	27	0	2238709760	56	3999
2026-01-05 05:27:11.43	318.72	29.56	-45.0	-46.0	15.2	0.00e+00	0	27	0	2243952640	56	3991
2026-01-05 05:27:12.42	318.40	29.51	-45.1	-46.2	15.2	0.00e+00	0	27	0	2249195520	56	4054
2026-01-05 05:27:13.42	318.08	29.46	-45.3	-46.3	15.1	0.00e+00	0	27	0	2254438400	56	4139
2026-01-05 05:27:14.41	317.75	29.41	-45.4	-46.4	15.1	0.00e+00	0	27	0	2260729856	56	4175
2026-01-05 05:27:15.41	317.43	29.36	-45.5	-46.6	15.1	0.00e+00	0	27	0	2265972736	56	4256
2026-01-05 05:27:16.39	317.12	29.31	-45.5	-46.6	15.1	0.00e+00	0	27	0	2271215616	56	4277
2026-01-05 05:27:17.39	316.79	29.26	-45.4	-46.5	15.1	0.00e+00	0	27	0	2277507072	56	4210
2026-01-05 05:27:18.38	316.48	29.21	-45.5	-46.5	15.1	0.00e+00	0	28	0	2282749952	56	4240
2026-01-05 05:27:19.37	316.16	29.15	-45.3	-46.4	15.1	0.00e+00	0	27	0	2287992832	56	4155
2026-01-05 05:27:20.36	315.85	29.10	-45.2	-46.3	15.2	0.00e+00	0	28	0	2294284288	56	4109
2026-01-05 05:27:21.34	315.54	29.04	-45.1	-46.1	15.2	0.00e+00	0	27	0	2299527168	56	4047
2026-01-05 05:27:22.33	315.22	28.98	-45.1	-46.1	15.2	0.00e+00	0	27	0	2304770048	56	4047
2026-01-05 05:27:23.32	314.91	28.93	-45.1	-46.1	15.2	0.00e+00	0	28	0	2311061504	56	4023
2026-01-05 05:27:24.31	314.60	28.87	-45.0	-46.0	15.2	0.00e+00	0	27	0	2316304384	56	3970
2026-01-05 05:27:25.30	314.29	28.81	-45.0	-46.0	15.2	0.00e+00	0	28	0	2321547264	56	4002
2026-01-05 05:27:26.28	313.99	28.75	-45.1	-46.1	15.2	0.00e+00	0	27	0	2327838720	56	4050
2026-01-05 05:27:27.27	313.68	28.69	-45.3	-46.3	15.2	0.00e+00	0	27	0	2333081600	56	4128
2026-01-05 05:27:28.26	313.38	28.63	-45.3	-46.3	15.1	0.00e+00	0	27	0	2338324480	56	4126
2026-01-05 05:27:29.24	313.07	28.57	-45.1	-46.2	15.2	0.00e+00	0	27	0	2343567360	56	4069
2026-01-05 05:27:30.24	312.77	28.50	-45.2	-46.2	15.2	0.00e+00	0	27	0	2349858816	56	4074
2026-01-05 05:27:31.22	312.47	28.44	-45.2	-46.3	15.1	0.00e+00	0	28	0	2355101696	56	4107
2026-01-05 05:27:32.21	312.17	28.38	-45.2	-46.2	15.2	0.00e+00	0	28	0	2360344576	56	4084
2026-01-05 05:27:33.20	311.87	28.31	-45.3	-46.3	15.2	0.00e+00	0	27	0	2366636032	56	4117
2026-01-05 05:27:34.19	311.57	28.25	-45.4	-46.4	15.1	0.00e+00	0	27	0	2371878912	56	4172
2026-01-05 05:27:35.19	311.27	28.18	-45.3	-46.3	15.1	0.00e+00	0	27	0	2377121792	56	4141
2026-01-05 05:27:36.18	310.97	28.11	-45.1	-46.1	15.2	0.00e+00	0	27	0	2382364672	56	4051
2026-01-05 05:27:37.17	310.68	28.04	-45.1	-46.2	15.2	0.00e+00	0	27	0	2388656128	56	4053
2026-01-05 05:27:38.15	310.39	27.98	-45.0	-46.1	15.2	0.00e+00	0	27	0	2393899008	56	4010
2026-01-05 05:27:39.15	310.09	27.91	-45.0	-46.1	15.2	0.00e+00	0	27	0	2400190464	56	4008
2026-01-05 05:27:40.14	309.80	27.84	-45.1	-46.1	15.2	0.00e+00	0	27	0	2405433344	56	4027
2026-01-05 05:27:41.13	309.51	27.76	-45.1	-46.1	15.2	0.00e+00	0	27	0	2410676224	56	4041
2026-01-05 05:27:42.11	309.23	27.69	-45.1	-46.1	15.2	0.00e+00	0	27	0	2415919104	56	4038
2026-01-05 05:27:43.10	308.94	27.62	-45.2	-46.2	15.2	0.00e+00	0	27	0	2422210560	56	4067
2026-01-05 05:27:44.09	308.65	27.55	-45.2	-46.2	15.2	0.00e+00	0	28	0	2427453440	56	4082
2026-01-05 05:27:45.08	308.37	27.48	-45.2	-46.2	15.2	0.00e+00	0	27	0	2432696320	56	4083
2026-01-05 05:27:46.06	308.09	27.40	-45.2	-46.3	15.2	0.00e+00	0	27	0	2438987776	56	4114
2026-01-05 05:27:47.05	307.81	27.33	-45.1	-46.1	15.2	0.00e+00	0	28	0	2444230656	56	4050
2026-01-05 05:27:48.04	307.53	27.26	-45.1	-46.1	15.2	0.00e+00	0	28	0	2449473536	56	4031
2026-01-05 05:27:49.03	307.25	27.18	-45.1	-46.1	15.2	0.00e+00	0	27	0	2454716416	56	4033
2026-01-05 05:27:50.01	306.97	27.10	-45.2	-46.2	15.2	0.00e+00	0	28	0	2461007872	56	4068
2026-01-05 05:27:51.00	306.70	27.03	-45.3	-46.3	15.1	0.00e+00	0	27	0	2466250752	56	4117
2026-01-05 05:27:51.99	306.42	26.95	-45.4	-46.4	15.1	0.00e+00	0	27	0	2471493632	56	4167
2026-01-05 05:27:52.99	306.14	26.87	-45.5	-46.5	15.1	0.00e+00	0	27	0	2477785088	56	4239
2026-01-05 05:27:53.98	305.87	26.80	-45.6	-46.7	15.1	0.00e+00	0	27	0	2483027968	56	4299
2026-01-05 05:27:54.96	305.60	26.72	-45.5	-46.6	15.1	0.00e+00	0	27	0	2488270848	56	4263
2026-01-05 05:27:55.95	305.33	26.64	-45.6	-46.6	15.1	0.00e+00	0	27	0	2494562304	56	4281
2026-01-05 05:27:56.93	305.07	26.56	-45.6	-46.6	15.1	0.00e+00	0	27	0	2499805184	56	4281
2026-01-05 05:27:57.92	304.80	26.48	-45.6	-46.6	15.1	0.00e+00	0	27	0	2505048064	56	4285
2026-01-05 05:27:58.90	304.54	26.40	-45.6	-46.6	15.1	0.00e+00	0	27	0	2510290944	56	4282
2026-01-05 05:27:59.89	304.27	26.32	-45.6	-46.7	15.1	0.00e+00	0	27	0	2516582400	56	4309
2026-01-05 05:28:00.88	304.01	26.24	-45.6	-46.7	15.1	0.00e+00	0	27	0	2521825280	56	4306
2026-01-05 05:28:01.87	303.75	26.16	-45.6	-46.7	15.1	0.00e+00	0	27	0	2527068160	56	4324
2026-01-05 05:28:02.85	303.49	26.08	-45.5	-46.6	15.1	0.00e+00	0	27	0	2533359616	56	4268
2026-01-05 05:28:03.85	303.23	25.99	-45.5	-46.6	15.1	0.00e+00	0	27	0	2538602496	56	4255
2026-01-05 05:28:04.84	302.97	25.91	-45.5	-46.6	15.1	0.00e+00	0	27	0	2543845376	56	4244
2026-01-05 05:28:05.83	302.71	25.83	-45.4	-46.4	15.1	0.00e+00	0	28	0	2550136832	56	4176
2026-01-05 05:28:06.82	302.46	25.74	-45.4	-46.5	15.1	0.00e+00	0	27	0	2555379712	56	4196
2026-01-05 05:28:07.81	302.21	25.66	-45.5	-46.6	15.1	0.00e+00	0	27	0	2560622592	56	4244
2026-01-05 05:28:08.81	301.95	25.58	-45.7	-46.8	15.1	0.00e+00	0	27	0	2566914048	56	4351
2026-01-05 05:28:09.80	301.70	25.49	-45.8	-46.9	15.1	0.00e+00	0	27	0	2572156928	56	4407
2026-01-05 05:28:10.79	301.45	25.41	-45.8	-46.8	15.1	0.00e+00	0	27	0	2577399808	56	4386
2026-01-05 05:28:11.78	301.20	25.32	-45.7	-46.8	15.1	0.00e+00	0	27	0	2583691264	56	4348
2026-01-05 05:28:12.77	300.96	25.24	-45.6	-46.6	15.1	0.00e+00	0	27	0	2588934144	56	4280
2026-01-05 05:28:13.76	300.71	25.15	-45.5	-46.5	15.1	0.00e+00	0	27	0	2594177024	56	4238
2026-01-05 05:28:14.76	300.46	25.06	-45.5	-46.5	15.1	0.00e+00	0	27	0	2600468480	56	4238
2026-01-05 05:28:15.75	300.22	24.98	-45.7	-46.7	15.1	0.00e+00	0	27	0	2605711360	56	4319
2026-01-05 05:28:16.74	299.98	24.89	-45.7	-46.7	15.1	0.00e+00	0	27	0	2610954240	56	4314
2026-01-05 05:28:17.73	299.74	24.80	-45.5	-46.6	15.1	0.00e+00	0	27	0	2616197120	56	4253
2026-01-05 05:28:18.72	299.50	24.72	-45.6	-46.7	15.1	0.00e+00	0	27	0	2622488576	56	4325
2026-01-05 05:28:19.70	299.26	24.63	-45.7	-46.8	15.1	0.00e+00	0	27	0	2627731456	56	4373
2026-01-05 05:28:20.69	299.03	24.54	-45.8	-46.8	15.1	0.00e+00	0	27	0	2632974336	56	4381
2026-01-05 05:28:21.68	298.79	24.45	-45.8	-46.8	15.1	0.00e+00	0	28	0	2639265792	56	4375
2026-01-05 05:28:22.67	298.56	24.37	-45.8	-46.9	15.1	0.00e+00	0	27	0	2644508672	56	4408
2026-01-05 05:28:23.66	298.33	24.28	-45.7	-46.7	15.1	0.00e+00	0	27	0	2649751552	56	4325
2026-01-05 05:28:24.64	298.10	24.19	-45.8	-46.8	15.0	0.00e+00	0	27	0	2656043008	56	4384
2026-01-05 05:28:25.63	297.87	24.10	-45.8	-46.9	15.0	0.00e+00	0	27	0	2661285888	56	4395
2026-01-05 05:28:26.61	297.64	24.01	-45.8	-46.8	15.1	0.00e+00	0	28	0	2666528768	56	4387
2026-01-05 05:28:27.60	297.42	23.92	-45.9	-47.0	15.0	0.00e+00	0	27	0	2671771648	56	4446
2026-01-05 05:28:28.59	297.19	23.83	-46.0	-47.1	15.1	0.00e+00	0	27	0	2678063104	57	4257
2026-01-05 05:28:29.58	296.97	23.74	-46.1	-47.1	15.1	0.00e+00	0	27	0	2683305984	57	4290
2026-01-05 05:28:30.57	296.74	23.65	-46.1	-47.2	15.0	0.00e+00	0	27	0	2688548864	57	4329
2026-01-05 05:28:31.56	296.52	23.56	-46.3	-47.4	15.0	0.00e+00	0	28	0	2694840320	57	4395
2026-01-05 05:28:32.55	296.30	23.47	-46.2	-47.3	15.0	0.00e+00	0	27	0	2700083200	57	4346
2026-01-05 05:28:33.54	296.08	23.38	-46.3	-47.4	15.0	0.00e+00	0	27	0	2705326080	57	4398
2026-01-05 05:28:34.53	295.86	23.29	-46.1	-47.2	15.0	0.00e+00	0	27	0	2710568960	57	4320
2026-01-05 05:28:35.52	295.65	23.20	-46.0	-47.1	15.1	0.00e+00	0	27	0	2716860416	57	4257
2026-01-05 05:28:36.50	295.43	23.11	-46.2	-47.2	15.0	0.00e+00	0	27	0	2722103296	57	4337
2026-01-05 05:28:37.49	295.22	23.02	-46.2	-47.3	15.0	0.00e+00	0	27	0	2728394752	57	4341
2026-01-05 05:28:38.47	295.01	22.93	-46.4	-47.5	15.0	0.00e+00	0	27	0	2733637632	57	4447
2026-01-05 05:28:39.45	294.80	22.84	-46.3	-47.4	15.0	0.00e+00	0	28	0	2738880512	57	4414
2026-01-05 05:28:40.44	294.59	22.75	-46.2	-47.3	15.0	0.00e+00	0	27	0	2744123392	57	4380
2026-01-05 05:28:41.44	294.38	22.66	-46.3	-47.4	15.0	0.00e+00	0	27	0	2750414848	57	4401
2026-01-05 05:28:42.43	294.17	22.57	-46.2	-47.3	15.0	0.00e+00	0	27	0	2755657728	57	4364
2026-01-05 05:28:43.41	293.96	22.48	-46.3	-47.3	15.0	0.00e+00	0	28	0	2760900608	57	4380
2026-01-05 05:28:44.40	293.76	22.39	-46.2	-47.3	15.0	0.00e+00	0	27	0	2767192064	57	4350
2026-01-05 05:28:45.39	293.55	22.30	-46.3	-47.4	15.0	0.00e+00	0	27	0	2772434944	57	4414
2026-01-05 05:28:46.38	293.35	22.20	-46.3	-47.4	15.0	0.00e+00	0	27	0	2777677824	57	4396
2026-01-05 05:28:47.37	293.15	22.11	-46.2	-47.3	15.0	0.00e+00	0	27	0	2782920704	57	4381
2026-01-05 05:28:48.35	292.95	22.02	-46.2	-47.3	15.0	0.00e+00	0	28	0	2789212160	57	4351
2026-01-05 05:28:49.34	292.75	21.93	-46.3	-47.3	15.0	0.00e+00	0	27	0	2794455040	57	4380
2026-01-05 05:28:50.33	292.55	21.84	-46.4	-47.5	15.0	0.00e+00	0	27	0	2799697920	57	4456
2026-01-05 05:28:51.31	292.36	21.75	-46.4	-47.5	15.0	0.00e+00	0	27	0	2805989376	58	4229
2026-01-05 05:28:52.30	292.16	21.66	-46.4	-47.6	15.0	0.00e+00	0	27	0	2811232256	58	4246
2026-01-05 05:28:53.29	291.97	21.57	-46.5	-47.6	15.0	0.00e+00	0	27	0	2816475136	58	4286
2026-01-05 05:28:54.28	291.77	21.47	-46.4	-47.5	15.1	0.00e+00	0	28	0	2821718016	58	4204
2026-01-05 05:28:55.26	291.58	21.38	-46.3	-47.4	15.1	0.00e+00	0	27	0	2828009472	58	4158
2026-01-05 05:28:56.25	291.39	21.29	-46.4	-47.4	15.0	0.00e+00	0	27	0	2833252352	58	4192
2026-01-05 05:28:57.24	291.20	21.20	-46.3	-47.3	15.1	0.00e+00	0	27	0	2838495232	58	4142
2026-01-05 05:28:58.22	291.01	21.11	-46.3	-47.4	15.1	0.00e+00	0	27	0	2844786688	58	4153
2026-01-05 05:28:59.21	290.82	21.02	-46.3	-47.4	15.1	0.00e+00	0	27	0	2850029568	58	4174
2026-01-05 05:29:00.20	290.64	20.92	-46.4	-47.5	15.0	0.00e+00	0	27	0	2855272448	58	4225
2026-01-05 05:29:01.18	290.45	20.83	-46.4	-47.5	15.0	0.00e+00	0	27	0	2860515328	58	4221
2026-01-05 05:29:02.17	290.27	20.74	-46.5	-47.6	15.0	0.00e+00	0	27	0	2866806784	58	4247
2026-01-05 05:29:03.16	290.09	20.65	-46.3	-47.4	15.1	0.00e+00	0	28	0	2872049664	58	4148
2026-01-05 05:29:04.14	289.91	20.56	-46.4	-47.5	15.0	0.00e+00	0	27	0	2878341120	58	4194
2026-01-05 05:29:05.14	289.72	20.47	-46.3	-47.4	15.1	0.00e+00	0	27	0	2883584000	58	4161
2026-01-05 05:29:06.13	289.54	20.37	-46.4	-47.5	15.0	0.00e+00	0	27	0	2888826880	58	4217
2026-01-05 05:29:07.11	289.36	20.28	-46.5	-47.5	15.0	0.00e+00	0	27	0	2894069760	58	4237
2026-01-05 05:29:08.11	289.18	20.19	-46.4	-47.5	15.0	0.00e+00	0	27	0	2900361216	58	4237
2026-01-05 05:29:09.09	289.01	20.10	-46.4	-47.5	15.0	0.00e+00	0	28	0	2905604096	58	4232
2026-01-05 05:29:10.09	288.83	20.01	-46.4	-47.5	15.0	0.00e+00	0	28	0	2910846976	58	4223
2026-01-05 05:29:11.08	288.66	19.92	-46.5	-47.6	15.0	0.00e+00	0	28	0	2917138432	58	4254
2026-01-05 05:29:12.06	288.48	19.83	-46.5	-47.6	15.0	0.00e+00	0	27	0	2922381312	58	4258
2026-01-05 05:29:13.05	288.31	19.74	-46.5	-47.6	15.0	0.00e+00	0	27	0	2927624192	58	4277
2026-01-05 05:29:14.04	288.14	19.64	-46.6	-47.7	15.0	0.00e+00	0	27	0	2933915648	58	4302
2026-01-05 05:29:15.03	287.97	19.55	-46.7	-47.8	15.0	0.00e+00	0	27	0	2939158528	58	4342
2026-01-05 05:29:16.03	287.80	19.46	-46.7	-47.8	15.0	0.00e+00	0	28	0	2944401408	58	4381
2026-01-05 05:29:17.02	287.63	19.37	-46.6	-47.8	15.0	0.00e+00	0	27	0	2949644288	58	4345
2026-01-05 05:29:18.00	287.46	19.28	-46.6	-47.8	15.0	0.00e+00	0	27	0	2955935744	58	4349
2026-01-05 05:29:18.99	287.30	19.19	-46.4	-47.5	15.0	0.00e+00	0	27	0	2961178624	58	4231
2026-01-05 05:29:19.98	287.13	19.10	-46.5	-47.6	15.0	0.00e+00	0	27	0	2967470080	58	4272
2026-01-05 05:29:20.97	286.97	19.01	-46.6	-47.6	15.0	0.00e+00	0	27	0	2972712960	58	4291
2026-01-05 05:29:21.96	286.80	18.92	-46.6	-47.7	15.0	0.00e+00	0	27	0	2977955840	58	4328
2026-01-05 05:29:22.95	286.64	18.83	-46.7	-47.9	14.9	0.00e+00	0	27	0	2983198720	58	4392
2026-01-05 05:29:23.93	286.48	18.74	-46.7	-47.8	14.9	0.00e+00	0	27	0	2989490176	58	4380
2026-01-05 05:29:24.92	286.32	18.65	-46.7	-47.9	14.9	0.00e+00	0	27	0	2994733056	58	4398
2026-01-05 05:29:25.91	286.16	18.56	-46.8	-48.0	14.9	0.00e+00	0	27	0	2999975936	58	4446
2026-01-05 05:29:26.90	286.00	18.46	-46.9	-48.0	15.0	0.00e+00	0	27	0	3006267392	59	4232
2026-01-05 05:29:27.89	285.84	18.37	-46.9	-48.0	15.0	0.00e+00	0	27	0	3011510272	59	4224
2026-01-05 05:29:28.88	285.69	18.28	-47.0	-48.2	15.0	0.00e+00	0	27	0	3016753152	59	4299
2026-01-05 05:29:29.86	285.53	18.20	-47.1	-48.2	14.9	0.00e+00	0	27	0	3021996032	59	4324
2026-01-05 05:29:30.85	285.38	18.11	-47.1	-48.2	14.9	0.00e+00	0	27	0	3028287488	59	4330
2026-01-05 05:29:31.84	285.22	18.02	-47.1	-48.2	14.9	0.00e+00	0	27	0	3033530368	59	4306
2026-01-05 05:29:32.84	285.07	17.93	-47.1	-48.2	14.9	0.00e+00	0	27	0	3038773248	59	4331
2026-01-05 05:29:33.83	284.92	17.84	-47.1	-48.2	14.9	0.00e+00	0	27	0	3045064704	59	4305
2026-01-05 05:29:34.81	284.77	17.75	-47.2	-48.3	14.9	0.00e+00	0	27	0	3050307584	59	4362
2026-01-05 05:29:35.80	284.62	17.66	-47.1	-48.3	14.9	0.00e+00	0	27	0	3055550464	59	4348
2026-01-05 05:29:36.79	284.47	17.57	-47.2	-48.3	14.9	0.00e+00	0	27	0	3061841920	59	4386
2026-01-05 05:29:37.78	284.32	17.48	-47.3	-48.4	14.9	0.00e+00	0	27	0	3067084800	59	4422
2026-01-05 05:29:38.77	284.17	17.39	-47.2	-48.4	14.9	0.00e+00	0	27	0	3072327680	59	4418
2026-01-05 05:29:39.74	284.03	17.30	-47.2	-48.4	14.9	0.00e+00	0	27	0	3077570560	59	4406
2026-01-05 05:29:40.73	283.88	17.22	-47.3	-48.5	14.9	0.00e+00	0	27	0	3083862016	59	4452
2026-01-05 05:29:41.73	283.73	17.13	-47.0	-48.1	15.1	0.00e+00	0	27	0	3089104896	60	4016
2026-01-05 05:29:42.73	283.59	17.04	-46.9	-48.0	15.1	0.00e+00	0	27	0	3094347776	60	3981
2026-01-05 05:29:43.72	283.45	16.95	-46.9	-48.0	15.1	0.00e+00	0	27	0	3100639232	60	3996
2026-01-05 05:29:44.71	283.30	16.86	-47.0	-48.1	15.1	0.00e+00	0	27	0	3105882112	60	4007
2026-01-05 05:29:45.70	283.16	16.77	-47.0	-48.1	15.0	0.00e+00	0	27	0	3111124992	60	4039
2026-01-05 05:29:46.69	283.02	16.68	-47.1	-48.2	15.0	0.00e+00	0	27	0	3117416448	60	4075
2026-01-05 05:29:47.68	282.88	16.60	-47.2	-48.3	15.0	0.00e+00	0	27	0	3122659328	60	4121
2026-01-05 05:29:48.66	282.74	16.51	-47.2	-48.4	15.0	0.00e+00	0	27	0	3127902208	60	4162
2026-01-05 05:29:49.66	282.60	16.42	-47.3	-48.4	14.9	0.00e+00	0	27	0	3134193664	60	4183
2026-01-05 05:29:50.65	282.46	16.33	-47.2	-48.3	15.0	0.00e+00	0	27	0	3139436544	60	4133
2026-01-05 05:29:51.64	282.33	16.25	-47.1	-48.2	15.0	0.00e+00	0	27	0	3144679424	60	4071
2026-01-05 05:29:52.64	282.19	16.16	-47.1	-48.2	15.0	0.00e+00	0	27	0	3150970880	60	4095
2026-01-05 05:29:53.64	282.05	16.07	-47.1	-48.2	15.0	0.00e+00	0	27	0	3156213760	60	4066
2026-01-05 05:29:54.62	281.92	15.99	-47.2	-48.3	15.0	0.00e+00	0	27	0	3161456640	60	4112
2026-01-05 05:29:55.62	281.79	15.90	-47.1	-48.2	15.0	0.00e+00	0	27	0	3166699520	60	4074
2026-01-05 05:29:56.61	281.65	15.81	-47.2	-48.3	15.0	0.00e+00	0	27	0	3172990976	60	4121
2026-01-05 05:29:57.60	281.52	15.73	-47.3	-48.4	14.9	0.00e+00	0	27	0	3178233856	60	4176
2026-01-05 05:29:58.58	281.39	15.64	-47.3	-48.4	14.9	0.00e+00	0	28	0	3184525312	60	4182
2026-01-05 05:29:59.57	281.26	15.55	-47.4	-48.5	14.9	0.00e+00	0	28	0	3189768192	60	4224
2026-01-05 05:30:00.56	281.13	15.47	-47.4	-48.5	14.9	0.00e+00	0	28	0	3195011072	60	4240
2026-01-05 05:30:01.55	281.00	15.38	-47.3	-48.5	14.9	0.00e+00	0	27	0	3200253952	60	4211
2026-01-05 05:30:02.54	280.88	15.30	-47.4	-48.5	14.9	0.00e+00	0	27	0	3206545408	60	4238
2026-01-05 05:30:03.53	280.75	15.21	-47.4	-48.6	14.9	0.00e+00	0	28	0	3211788288	60	4251
2026-01-05 05:30:04.53	280.62	15.13	-47.2	-48.3	14.9	0.00e+00	0	27	0	3217031168	60	4128
2026-01-05 05:30:05.52	280.49	15.04	-47.2	-48.4	14.9	0.00e+00	0	27	0	3223322624	60	4157
2026-01-05 05:30:06.52	280.37	14.96	-47.4	-48.5	14.9	0.00e+00	0	28	0	3228565504	60	4208
2026-01-05 05:30:07.52	280.24	14.87	-47.4	-48.6	14.9	0.00e+00	0	28	0	3233808384	60	4255
2026-01-05 05:30:08.51	280.12	14.79	-47.6	-48.8	14.8	0.00e+00	0	27	0	3240099840	60	4343
2026-01-05 05:30:09.51	279.99	14.70	-47.6	-48.8	14.8	0.00e+00	0	27	0	3245342720	60	4341
2026-01-05 05:30:10.50	279.87	14.62	-47.7	-48.9	14.8	0.00e+00	0	27	0	3250585600	60	4394
2026-01-05 05:30:11.49	279.75	14.53	-47.8	-49.0	14.8	0.00e+00	0	27	0	3256877056	60	4444
2026-01-05 05:30:12.48	279.63	14.45	-47.8	-49.0	14.8	0.00e+00	0	27	0	3262119936	60	4450
2026-01-05 05:30:13.48	279.51	14.36	-47.9	-49.1	14.7	0.00e+00	0	27	0	3267362816	60	4505
2026-01-05 05:30:14.48	279.39	14.28	-47.7	-48.8	14.8	0.00e+00	0	27	0	3273654272	60	4378
2026-01-05 05:30:15.48	279.27	14.19	-47.7	-48.9	14.8	0.00e+00	0	28	0	3278897152	60	4396
2026-01-05 05:30:16.47	279.15	14.11	-47.7	-48.8	14.8	0.00e+00	0	27	0	3284140032	60	4379
2026-01-05 05:30:17.47	279.03	14.03	-47.7	-48.8	14.8	0.00e+00	0	27	0	3290431488	60	4391
2026-01-05 05:30:18.46	278.91	13.94	-47.7	-48.9	14.8	0.00e+00	0	27	0	3295674368	60	4421
2026-01-05 05:30:19.46	278.80	13.86	-47.8	-49.0	14.7	0.00e+00	0	27	0	3300917248	60	4448
2026-01-05 05:30:20.45	278.68	13.78	-47.8	-49.0	14.7	0.00e+00	0	27	0	3307208704	60	4442
2026-01-05 05:30:21.45	278.57	13.69	-47.9	-49.1	14.7	0.00e+00	0	28	0	3312451584	60	4522
2026-01-05 05:30:22.45	278.45	13.61	-47.9	-49.1	14.8	0.00e+00	0	28	0	3318743040	61	4268
2026-01-05 05:30:23.44	278.34	13.53	-47.9	-49.1	14.8	0.00e+00	0	27	0	3323985920	61	4271
2026-01-05 05:30:24.44	278.22	13.45	-47.9	-49.1	14.8	0.00e+00	0	27	0	3329228800	61	4284
2026-01-05 05:30:25.43	278.11	13.36	-47.8	-49.0	14.8	0.00e+00	0	27	0	3334471680	61	4207
2026-01-05 05:30:26.43	278.00	13.28	-47.7	-48.8	14.9	0.00e+00	0	27	0	3340763136	61	4139
2026-01-05 05:30:27.43	277.89	13.20	-47.7	-48.9	14.9	0.00e+00	0	28	0	3346006016	61	4152
2026-01-05 05:30:28.42	277.78	13.12	-47.8	-48.9	14.8	0.00e+00	0	27	0	3351248896	61	4177
2026-01-05 05:30:29.42	277.66	13.04	-47.8	-49.0	14.8	0.00e+00	0	27	0	3357540352	61	4225
2026-01-05 05:30:30.40	277.56	12.96	-47.8	-49.0	14.8	0.00e+00	0	27	0	3362783232	61	4195
2026-01-05 05:30:31.40	277.45	12.87	-47.8	-49.0	14.8	0.00e+00	0	27	0	3369074688	61	4211
2026-01-05 05:30:32.40	277.34	12.79	-47.9	-49.1	14.8	0.00e+00	0	27	0	3374317568	61	4246
2026-01-05 05:30:33.41	277.23	12.71	-47.9	-49.1	14.8	0.00e+00	0	27	0	3379560448	61	4260
2026-01-05 05:30:34.40	277.12	12.63	-48.0	-49.1	14.7	0.00e+00	0	27	0	3385851904	61	4290
2026-01-05 05:30:35.40	277.02	12.55	-48.0	-49.2	14.8	0.00e+00	0	27	0	3391094784	61	4304
2026-01-05 05:30:36.40	276.91	12.47	-48.1	-49.3	14.7	0.00e+00	0	27	0	3396337664	61	4367
2026-01-05 05:30:37.40	276.80	12.39	-48.1	-49.3	14.7	0.00e+00	0	27	0	3402629120	61	4380
2026-01-05 05:30:38.40	276.70	12.31	-48.1	-49.3	14.7	0.00e+00	0	27	0	3407872000	61	4387
2026-01-05 05:30:39.40	276.59	12.23	-48.2	-49.4	14.7	0.00e+00	0	27	0	3413114880	61	4421
2026-01-05 05:30:40.39	276.49	12.15	-48.2	-49.4	14.7	0.00e+00	0	28	0	3419406336	61	4427
2026-01-05 05:30:41.39	276.39	12.07	-48.1	-49.3	14.7	0.00e+00	0	28	0	3424649216	61	4387
2026-01-05 05:30:42.40	276.28	11.99	-48.2	-49.5	14.7	0.00e+00	0	27	0	3430940672	61	4448
2026-01-05 05:30:43.39	276.18	11.91	-48.2	-49.4	14.7	0.00e+00	0	27	0	3436183552	61	4422
2026-01-05 05:30:44.39	276.08	11.83	-48.2	-49.4	14.7	0.00e+00	0	27	0	3441426432	61	4429
2026-01-05 05:30:45.38	275.98	11.75	-48.3	-49.5	14.6	0.00e+00	0	27	0	3446669312	61	4483
2026-01-05 05:30:46.37	275.88	11.67	-48.3	-49.5	14.7	0.00e+00	0	28	0	3452960768	61	4448
2026-01-05 05:30:47.37	275.78	11.59	-48.3	-49.5	14.6	0.00e+00	0	27	0	3458203648	61	4480
2026-01-05 05:30:48.37	275.68	11.51	-48.4	-49.6	14.7	0.00e+00	0	28	0	3463446528	62	4266
2026-01-05 05:30:49.37	275.58	11.44	-48.3	-49.5	14.7	0.00e+00	0	28	0	3469737984	62	4227
2026-01-05 05:30:50.37	275.48	11.36	-48.3	-49.5	14.7	0.00e+00	0	27	0	3474980864	62	4225
2026-01-05 05:30:51.37	275.38	11.28	-48.5	-49.7	14.7	0.00e+00	0	28	0	3481272320	62	4315
2026-01-05 05:30:52.37	275.29	11.20	-48.5	-49.7	14.7	0.00e+00	0	28	0	3486515200	62	4323
2026-01-05 05:30:53.36	275.19	11.12	-48.5	-49.8	14.6	0.00e+00	0	27	0	3491758080	62	4353
2026-01-05 05:30:54.36	275.10	11.05	-48.5	-49.7	14.7	0.00e+00	0	27	0	3498049536	62	4333
2026-01-05 05:30:55.36	275.00	10.97	-48.5	-49.7	14.7	0.00e+00	0	28	0	3503292416	62	4338
2026-01-05 05:30:56.35	274.91	10.89	-48.5	-49.8	14.6	0.00e+00	0	28	0	3508535296	62	4353
2026-01-05 05:30:57.33	274.81	10.82	-48.6	-49.8	14.6	0.00e+00	0	28	0	3513778176	62	4387
2026-01-05 05:30:58.31	274.72	10.74	-48.7	-49.9	14.6	0.00e+00	0	28	0	3520069632	62	4440
2026-01-05 05:30:59.30	274.63	10.66	-48.6	-49.8	14.6	0.00e+00	0	28	0	3525312512	62	4362
2026-01-05 05:31:00.29	274.53	10.59	-48.6	-49.8	14.6	0.00e+00	0	28	0	3531603968	62	4363
2026-01-05 05:31:01.28	274.44	10.51	-48.7	-50.0	14.6	0.00e+00	0	28	0	3536846848	62	4456
2026-01-05 05:31:02.29	274.35	10.43	-48.5	-49.7	14.6	0.00e+00	0	28	0	3542089728	62	4331
2026-01-05 05:31:03.29	274.26	10.36	-48.5	-49.7	14.7	0.00e+00	0	28	0	3548381184	62	4318
2026-01-05 05:31:04.28	274.17	10.28	-48.5	-49.8	14.6	0.00e+00	0	28	0	3553624064	62	4349
2026-01-05 05:31:05.27	274.08	10.21	-48.6	-49.9	14.6	0.00e+00	0	27	0	3558866944	62	4396
2026-01-05 05:31:06.28	273.99	10.13	-48.5	-49.8	14.6	0.00e+00	0	27	0	3564109824	62	4347
2026-01-05 05:31:07.28	273.90	10.06	-48.6	-49.8	14.6	0.00e+00	0	28	0	3570401280	62	4376
2026-01-05 05:31:08.28	273.81	9.98	-48.6	-49.8	14.6	0.00e+00	0	28	0	3575644160	62	4357
2026-01-05 05:31:09.28	273.72	9.90	-48.6	-49.8	14.6	0.00e+00	0	28	0	3581935616	62	4371
2026-01-05 05:31:10.28	273.63	9.83	-48.7	-50.0	14.6	0.00e+00	0	28	0	3587178496	62	4442
2026-01-05 05:31:11.28	273.54	9.75	-48.5	-49.8	14.6	0.00e+00	0	28	0	3592421376	62	4368
