passes_logs/2026/01/05/R3.2S_Murmansk/R3.2S_Murmansk__20260105_232012_NOAA_20_JPSS-1_rec.log

#Pass ID: 20260105_232012_NOAA 20 (JPSS-1)
#Satellite: NOAA 20 (JPSS-1)
#Configuration: NOAA 20
#almurnet v.1.7.20251203
#Start time: 2026-01-05 23:20:11

#Version: 2.2.20231116
#Station: R3.2S_Murmansk
#Location: 33.079688 lon 68.888172 lat
#TLE: 1 43013U 17073A   26005.46207808  .00000128  00000+0  81791-4 0  9997
#TLE: 2 43013  98.7627 306.5027 0001826  53.0458 307.0885 14.19533487421381

#Time	Az	El	Level	Level2	SNR	BER	BlckErr	Temp	State	Recorded	gain1	gain2
2026-01-05 23:20:11.89	20.48	1.99	-58.2	-74.1	3.8	1.49e+00	0	24	0	0	83	21414
2026-01-05 23:20:12.88	20.53	2.05	-58.2	-74.0	3.8	1.49e+00	0	24	104	0	81	23589
2026-01-05 23:20:13.87	20.57	2.11	-58.2	-73.9	3.8	1.49e+00	0	24	104	0	81	23392
2026-01-05 23:20:14.86	20.61	2.17	-58.2	-73.8	3.8	1.49e+00	0	25	104	0	81	23237
2026-01-05 23:20:15.86	20.65	2.23	-58.2	-73.6	3.8	1.49e+00	0	24	104	0	81	22669
2026-01-05 23:20:16.85	20.69	2.30	-58.2	-73.6	3.8	1.49e+00	0	25	104	0	81	22543
2026-01-05 23:20:17.85	20.73	2.36	-58.2	-73.5	3.8	1.49e+00	0	25	104	0	81	22392
2026-01-05 23:20:18.85	20.78	2.42	-58.1	-73.4	3.8	1.49e+00	0	25	104	0	81	22021
2026-01-05 23:20:19.85	20.82	2.48	-58.1	-73.0	3.8	1.49e+00	0	25	104	0	81	21119
2026-01-05 23:20:20.84	20.86	2.54	-58.1	-73.0	3.8	1.49e+00	0	25	104	0	81	21103
2026-01-05 23:20:21.83	20.90	2.60	-58.1	-73.0	3.8	1.49e+00	0	25	104	0	81	21129
2026-01-05 23:20:22.83	20.95	2.66	-58.1	-73.0	3.8	1.49e+00	0	25	104	0	81	21098
2026-01-05 23:20:23.82	20.99	2.73	-58.1	-73.0	3.8	1.49e+00	0	25	104	0	81	21110
2026-01-05 23:20:24.82	21.03	2.79	-58.1	-72.9	3.8	1.49e+00	0	25	104	0	81	20905
2026-01-05 23:20:25.82	21.08	2.85	-58.1	-72.9	3.8	1.49e+00	0	25	104	0	81	20792
2026-01-05 23:20:26.81	21.12	2.91	-58.1	-72.7	3.8	1.49e+00	0	25	104	0	81	20358
2026-01-05 23:20:27.80	21.16	2.97	-58.1	-72.2	3.8	1.49e+00	0	25	104	0	81	19261
2026-01-05 23:20:28.80	21.21	3.04	-58.1	-72.1	3.8	1.49e+00	0	25	104	0	81	19124
2026-01-05 23:20:29.80	21.25	3.10	-58.1	-71.5	3.9	1.48e+00	0	25	104	0	81	17726
2026-01-05 23:20:30.80	21.29	3.16	-58.0	-70.8	4.2	1.45e+00	0	25	0	0	81	16422
2026-01-05 23:20:31.80	21.34	3.23	-58.0	-70.2	4.3	1.37e+00	29	25	0	0	81	15385
2026-01-05 23:20:32.79	21.38	3.29	-58.0	-69.8	4.4	1.29e+00	33	25	0	1048576	81	14695
2026-01-05 23:20:33.79	21.43	3.35	-57.9	-69.4	4.6	1.02e+00	0	25	0	3145728	81	13951
2026-01-05 23:20:34.79	21.47	3.42	-57.9	-69.0	4.8	8.28e-01	0	25	0	4194304	81	13343
2026-01-05 23:20:35.78	21.52	3.48	-57.9	-69.0	4.8	7.65e-01	0	25	0	6291456	81	13339
2026-01-05 23:20:36.77	21.56	3.54	-57.9	-68.8	4.9	7.36e-01	0	25	0	8388608	81	13037
2026-01-05 23:20:37.76	21.61	3.61	-57.9	-68.7	4.9	7.09e-01	0	25	0	10485760	81	12958
2026-01-05 23:20:38.76	21.65	3.67	-57.9	-68.7	4.9	7.03e-01	0	25	0	12582912	81	12869
2026-01-05 23:20:39.76	21.70	3.73	-57.9	-68.4	5.1	5.97e-01	0	25	0	13631488	81	12385
2026-01-05 23:20:40.76	21.74	3.80	-57.8	-67.7	5.4	5.64e-01	0	25	0	15728640	81	11508
2026-01-05 23:20:41.76	21.79	3.86	-57.7	-66.8	6.0	4.30e-01	0	25	0	17825792	81	10357
2026-01-05 23:20:42.76	21.84	3.93	-57.5	-65.6	6.9	1.74e-01	0	25	0	19922944	81	9039
2026-01-05 23:20:43.75	21.88	3.99	-57.3	-64.4	7.9	7.41e-02	0	25	0	20971520	81	7882
2026-01-05 23:20:44.75	21.93	4.06	-57.0	-63.2	8.9	2.81e-02	0	25	0	23068672	80	7244
2026-01-05 23:20:45.74	21.98	4.12	-56.7	-62.3	9.8	4.51e-03	0	25	0	25165824	80	6504
2026-01-05 23:20:46.75	22.02	4.19	-56.4	-61.5	10.4	1.23e-03	0	25	0	27262976	79	6307
2026-01-05 23:20:47.74	22.07	4.25	-56.2	-60.9	10.8	4.42e-04	0	25	0	29360128	79	5916
2026-01-05 23:20:48.74	22.12	4.32	-55.9	-60.3	11.3	5.64e-05	0	25	0	30408704	78	5801
2026-01-05 23:20:49.75	22.17	4.38	-55.8	-59.8	11.6	4.27e-05	0	25	0	32505856	78	5521
2026-01-05 23:20:50.75	22.21	4.45	-55.6	-59.6	11.7	8.30e-06	0	25	0	34603008	77	5684
2026-01-05 23:20:51.74	22.26	4.52	-55.5	-59.4	11.8	8.30e-06	0	25	0	36700160	77	5585
2026-01-05 23:20:52.74	22.31	4.58	-55.7	-59.7	11.7	9.10e-06	0	25	0	38797312	77	5784
2026-01-05 23:20:53.73	22.36	4.65	-55.8	-60.0	11.4	2.44e-05	0	25	0	39845888	77	5924
2026-01-05 23:20:54.72	22.41	4.71	-55.9	-60.3	11.2	4.04e-05	0	25	0	41943040	77	6168
2026-01-05 23:20:55.72	22.45	4.78	-56.2	-61.1	10.6	1.27e-04	0	25	0	44040192	77	6735
2026-01-05 23:20:56.72	22.50	4.85	-56.5	-61.7	10.2	8.03e-04	0	25	0	46137344	78	6825
2026-01-05 23:20:57.72	22.55	4.91	-56.8	-62.5	9.5	2.95e-03	0	25	0	47185920	78	7525
2026-01-05 23:20:58.72	22.60	4.98	-57.0	-63.5	8.7	7.47e-03	0	25	0	49283072	79	7914
2026-01-05 23:20:59.72	22.65	5.05	-57.2	-64.3	8.0	3.11e-02	0	25	0	51380224	79	8732
2026-01-05 23:21:00.72	22.70	5.11	-55.4	-59.0	12.1	1.94e-02	0	25	0	53477376	77	5338
2026-01-05 23:21:01.72	22.75	5.18	-57.0	-63.5	8.8	7.00e-07	0	25	0	55574528	79	7963
2026-01-05 23:21:02.72	22.80	5.25	-57.8	-66.9	6.2	1.06e-01	0	26	0	56623104	80	11097
2026-01-05 23:21:03.72	22.85	5.32	-56.4	-61.2	10.7	3.52e-01	0	26	0	58720256	79	6062
2026-01-05 23:21:04.71	22.90	5.39	-57.7	-66.8	6.2	2.13e-03	0	26	0	60817408	80	11009
2026-01-05 23:21:05.71	22.95	5.45	-56.3	-61.1	10.5	5.82e-01	0	26	0	61865984	79	6038
2026-01-05 23:21:06.71	23.00	5.52	-55.5	-59.1	12.2	2.20e-06	0	26	0	63963136	77	5378
2026-01-05 23:21:07.71	23.06	5.59	-55.3	-58.7	12.5	0.00e+00	0	26	0	66060288	77	5149
2026-01-05 23:21:08.70	23.11	5.66	-55.3	-58.8	12.4	0.00e+00	0	26	0	68157440	77	5196
2026-01-05 23:21:09.70	23.16	5.73	-55.0	-58.2	12.7	7.00e-07	0	26	0	70254592	76	5131
2026-01-05 23:21:10.71	23.21	5.80	-54.8	-57.8	13.0	0.00e+00	0	26	0	71303168	76	4896
2026-01-05 23:21:11.71	23.26	5.87	-54.8	-57.9	12.9	0.00e+00	0	26	0	73400320	76	4947
2026-01-05 23:21:12.71	23.32	5.93	-54.7	-57.8	13.0	0.00e+00	0	26	0	75497472	76	4884
2026-01-05 23:21:13.71	23.37	6.00	-54.5	-57.6	13.0	0.00e+00	0	26	0	77594624	75	5044
2026-01-05 23:21:14.71	23.42	6.07	-54.5	-57.5	13.1	0.00e+00	0	26	0	79691776	75	5031
2026-01-05 23:21:15.71	23.48	6.14	-54.5	-57.5	13.1	0.00e+00	0	26	0	80740352	75	5001
2026-01-05 23:21:16.71	23.53	6.21	-54.5	-57.4	13.1	0.00e+00	0	26	0	82837504	75	4953
2026-01-05 23:21:17.70	23.58	6.28	-54.4	-57.3	13.2	0.00e+00	0	26	0	84934656	75	4891
2026-01-05 23:21:18.71	23.64	6.35	-54.5	-57.4	13.1	0.00e+00	0	26	0	87031808	75	4961
2026-01-05 23:21:19.70	23.69	6.42	-54.4	-57.2	13.3	0.00e+00	0	26	0	89128960	75	4847
2026-01-05 23:21:20.70	23.74	6.49	-54.5	-57.4	13.2	0.00e+00	0	26	0	90177536	75	4937
2026-01-05 23:21:21.69	23.80	6.56	-54.3	-57.2	13.3	0.00e+00	0	26	0	92274688	75	4823
2026-01-05 23:21:22.68	23.85	6.63	-54.3	-57.1	13.4	0.00e+00	0	26	0	94371840	75	4792
2026-01-05 23:21:23.68	23.91	6.71	-54.4	-57.2	13.3	0.00e+00	0	26	0	96468992	75	4864
2026-01-05 23:21:24.67	23.96	6.78	-54.4	-57.3	13.3	0.00e+00	0	26	0	97517568	75	4877
2026-01-05 23:21:25.67	24.02	6.85	-54.4	-57.2	13.3	0.00e+00	0	26	0	99614720	75	4851
2026-01-05 23:21:26.66	24.07	6.92	-54.5	-57.3	13.2	0.00e+00	0	26	0	101711872	75	4896
2026-01-05 23:21:27.66	24.13	6.99	-54.4	-57.2	13.3	0.00e+00	0	26	0	103809024	75	4863
2026-01-05 23:21:28.66	24.18	7.06	-54.4	-57.2	13.3	0.00e+00	0	26	0	105906176	75	4843
2026-01-05 23:21:29.66	24.24	7.14	-54.4	-57.1	13.3	0.00e+00	0	26	0	106954752	75	4800
2026-01-05 23:21:30.65	24.30	7.21	-54.4	-57.1	13.4	0.00e+00	0	26	0	109051904	75	4794
2026-01-05 23:21:31.65	24.35	7.28	-54.5	-57.3	13.2	0.00e+00	0	26	0	111149056	75	4914
2026-01-05 23:21:32.64	24.41	7.35	-54.4	-57.2	13.3	0.00e+00	0	26	0	113246208	75	4853
2026-01-05 23:21:33.63	24.47	7.42	-54.4	-57.2	13.3	0.00e+00	0	26	0	114294784	75	4846
2026-01-05 23:21:34.63	24.53	7.50	-54.5	-57.3	13.3	0.00e+00	0	26	0	116391936	75	4902
2026-01-05 23:21:35.62	24.58	7.57	-54.4	-57.2	13.3	0.00e+00	0	26	0	118489088	75	4838
2026-01-05 23:21:36.62	24.64	7.64	-54.3	-57.1	13.4	0.00e+00	0	26	0	120586240	75	4767
2026-01-05 23:21:37.61	24.70	7.72	-54.4	-57.1	13.4	0.00e+00	0	26	0	122683392	75	4782
2026-01-05 23:21:38.60	24.76	7.79	-54.4	-57.1	13.4	0.00e+00	0	26	0	123731968	75	4789
2026-01-05 23:21:39.61	24.82	7.86	-54.4	-57.2	13.4	0.00e+00	0	26	0	125829120	75	4835
2026-01-05 23:21:40.61	24.88	7.94	-54.4	-57.1	13.4	0.00e+00	0	26	0	127926272	75	4772
2026-01-05 23:21:41.60	24.94	8.01	-54.4	-57.2	13.4	0.00e+00	0	26	0	130023424	75	4816
2026-01-05 23:21:42.59	25.00	8.09	-54.4	-57.1	13.4	0.00e+00	0	26	0	131072000	75	4768
2026-01-05 23:21:43.58	25.06	8.16	-54.4	-57.1	13.4	0.00e+00	0	26	0	133169152	75	4761
2026-01-05 23:21:44.57	25.12	8.23	-54.3	-57.0	13.5	0.00e+00	0	26	0	135266304	75	4742
2026-01-05 23:21:45.56	25.18	8.31	-54.3	-57.0	13.5	0.00e+00	0	26	0	137363456	75	4737
2026-01-05 23:21:46.56	25.24	8.38	-54.4	-57.1	13.4	0.00e+00	0	26	0	139460608	75	4798
2026-01-05 23:21:47.55	25.30	8.46	-54.3	-57.0	13.5	0.00e+00	0	26	0	140509184	75	4732
2026-01-05 23:21:48.55	25.36	8.54	-54.4	-57.1	13.4	0.00e+00	0	26	0	142606336	75	4767
2026-01-05 23:21:49.55	25.42	8.61	-54.4	-57.1	13.4	0.00e+00	0	26	0	144703488	75	4775
2026-01-05 23:21:50.54	25.48	8.69	-54.2	-56.8	13.6	0.00e+00	0	26	0	146800640	75	4619
2026-01-05 23:21:51.54	25.55	8.76	-54.3	-56.9	13.6	0.00e+00	0	26	0	147849216	75	4683
2026-01-05 23:21:52.53	25.61	8.84	-54.2	-56.8	13.6	0.00e+00	0	26	0	149946368	75	4641
2026-01-05 23:21:53.53	25.67	8.92	-54.2	-56.8	13.6	0.00e+00	0	26	0	152043520	75	4650
2026-01-05 23:21:54.52	25.74	8.99	-54.2	-56.8	13.6	0.00e+00	0	26	0	154140672	75	4615
2026-01-05 23:21:55.52	25.80	9.07	-54.1	-56.6	13.6	0.00e+00	0	26	0	156237824	74	4805
2026-01-05 23:21:56.52	25.86	9.15	-54.1	-56.6	13.6	0.00e+00	0	26	0	157286400	74	4799
2026-01-05 23:21:57.52	25.93	9.23	-54.1	-56.6	13.6	0.00e+00	0	26	0	159383552	74	4799
2026-01-05 23:21:58.52	25.99	9.30	-54.0	-56.5	13.7	0.00e+00	0	26	0	161480704	74	4707
2026-01-05 23:21:59.53	26.06	9.38	-54.0	-56.4	13.7	0.00e+00	0	26	0	163577856	74	4679
2026-01-05 23:22:00.52	26.12	9.46	-54.0	-56.5	13.7	0.00e+00	0	26	0	164626432	74	4727
2026-01-05 23:22:01.52	26.19	9.54	-54.0	-56.4	13.7	0.00e+00	0	26	0	166723584	74	4678
2026-01-05 23:22:02.52	26.26	9.62	-54.0	-56.5	13.7	0.00e+00	0	26	0	168820736	74	4734
2026-01-05 23:22:03.52	26.32	9.70	-54.0	-56.4	13.7	0.00e+00	0	26	0	170917888	74	4674
2026-01-05 23:22:04.52	26.39	9.78	-53.9	-56.3	13.8	0.00e+00	0	26	0	173015040	74	4638
2026-01-05 23:22:05.52	26.46	9.86	-53.8	-56.2	13.9	0.00e+00	0	26	0	174063616	74	4579
2026-01-05 23:22:06.52	26.52	9.94	-53.8	-56.1	13.9	0.00e+00	0	26	0	176160768	74	4522
2026-01-05 23:22:07.52	26.59	10.02	-53.8	-56.1	13.9	0.00e+00	0	26	0	178257920	74	4522
2026-01-05 23:22:08.51	26.66	10.09	-53.8	-56.1	13.9	0.00e+00	0	26	0	180355072	74	4542
2026-01-05 23:22:09.51	26.73	10.18	-53.8	-56.1	13.9	0.00e+00	0	26	0	182452224	74	4506
2026-01-05 23:22:10.51	26.80	10.26	-53.8	-56.1	14.0	0.00e+00	0	26	0	183500800	74	4506
2026-01-05 23:22:11.52	26.87	10.34	-53.8	-56.1	13.9	0.00e+00	0	26	0	185597952	74	4514
2026-01-05 23:22:12.52	26.94	10.42	-53.8	-56.1	13.9	0.00e+00	0	26	0	187695104	74	4535
2026-01-05 23:22:13.52	27.01	10.50	-53.7	-56.1	14.0	0.00e+00	0	26	0	189792256	74	4498
2026-01-05 23:22:14.52	27.08	10.58	-53.6	-55.9	13.9	0.00e+00	0	26	0	190840832	73	4659
2026-01-05 23:22:15.52	27.15	10.66	-53.6	-55.8	14.0	0.00e+00	0	26	0	192937984	73	4647
2026-01-05 23:22:16.51	27.22	10.74	-53.6	-55.9	13.9	0.00e+00	0	26	0	195035136	73	4666
2026-01-05 23:22:17.50	27.29	10.83	-53.5	-55.7	14.0	0.00e+00	0	26	0	197132288	73	4586
2026-01-05 23:22:18.50	27.36	10.91	-53.5	-55.7	14.0	0.00e+00	0	26	0	199229440	73	4568
2026-01-05 23:22:19.50	27.43	10.99	-53.5	-55.7	14.0	0.00e+00	0	26	0	200278016	73	4572
2026-01-05 23:22:20.50	27.50	11.07	-53.5	-55.7	14.0	0.00e+00	0	26	0	202375168	73	4574
2026-01-05 23:22:21.49	27.58	11.16	-53.4	-55.5	14.1	0.00e+00	0	26	0	204472320	73	4490
2026-01-05 23:22:22.48	27.65	11.24	-53.4	-55.6	14.1	0.00e+00	0	26	0	206569472	73	4506
2026-01-05 23:22:23.49	27.72	11.32	-53.4	-55.5	14.1	0.00e+00	0	26	0	208666624	73	4479
2026-01-05 23:22:24.48	27.80	11.41	-53.3	-55.5	14.2	0.00e+00	0	26	0	209715200	73	4455
2026-01-05 23:22:25.47	27.87	11.49	-53.3	-55.5	14.2	0.00e+00	0	26	0	211812352	73	4443
2026-01-05 23:22:26.47	27.95	11.58	-53.4	-55.6	14.1	0.00e+00	0	26	0	213909504	73	4531
2026-01-05 23:22:27.47	28.02	11.66	-53.4	-55.6	14.1	0.00e+00	0	26	0	216006656	73	4517
2026-01-05 23:22:28.47	28.10	11.74	-53.3	-55.4	14.2	0.00e+00	0	26	0	217055232	73	4430
2026-01-05 23:22:29.45	28.17	11.83	-53.3	-55.4	14.2	0.00e+00	0	26	0	219152384	73	4401
2026-01-05 23:22:30.45	28.25	11.91	-53.2	-55.3	14.2	0.00e+00	0	26	0	221249536	73	4385
2026-01-05 23:22:31.45	28.32	12.00	-53.2	-55.3	14.3	0.00e+00	0	26	0	223346688	73	4349
2026-01-05 23:22:32.45	28.40	12.09	-53.2	-55.2	14.2	0.00e+00	0	26	0	225443840	72	4595
2026-01-05 23:22:33.44	28.48	12.17	-53.1	-55.2	14.2	0.00e+00	0	26	0	226492416	72	4573
2026-01-05 23:22:34.44	28.56	12.26	-53.0	-55.0	14.3	0.00e+00	0	26	0	228589568	72	4456
2026-01-05 23:22:35.44	28.64	12.34	-53.0	-55.0	14.3	0.00e+00	0	26	0	230686720	72	4459
2026-01-05 23:22:36.44	28.71	12.43	-53.0	-55.0	14.3	0.00e+00	0	26	0	232783872	72	4482
2026-01-05 23:22:37.44	28.79	12.52	-52.9	-55.0	14.3	0.00e+00	0	26	0	234881024	72	4449
2026-01-05 23:22:38.43	28.87	12.61	-53.0	-55.0	14.3	0.00e+00	0	26	0	235929600	72	4458
2026-01-05 23:22:39.41	28.95	12.69	-52.9	-54.9	14.3	0.00e+00	0	26	0	238026752	72	4427
2026-01-05 23:22:40.41	29.03	12.78	-53.0	-55.0	14.3	0.00e+00	0	26	0	240123904	72	4482
2026-01-05 23:22:41.41	29.11	12.87	-53.0	-55.1	14.3	0.00e+00	0	26	0	242221056	72	4506
2026-01-05 23:22:42.41	29.20	12.96	-53.0	-55.1	14.3	0.00e+00	0	26	0	243269632	72	4501
2026-01-05 23:22:43.41	29.28	13.05	-52.9	-54.9	14.3	0.00e+00	0	26	0	245366784	72	4429
2026-01-05 23:22:44.41	29.36	13.14	-53.0	-55.0	14.3	0.00e+00	0	26	0	247463936	72	4476
2026-01-05 23:22:45.41	29.44	13.22	-53.0	-55.0	14.3	0.00e+00	0	26	0	249561088	72	4466
2026-01-05 23:22:46.40	29.53	13.31	-53.1	-55.1	14.2	0.00e+00	0	26	0	251658240	72	4543
2026-01-05 23:22:47.39	29.61	13.40	-52.9	-54.9	14.3	0.00e+00	0	26	0	252706816	72	4435
2026-01-05 23:22:48.40	29.70	13.49	-52.9	-54.9	14.3	0.00e+00	0	26	0	254803968	72	4424
2026-01-05 23:22:49.40	29.78	13.58	-52.9	-54.9	14.4	0.00e+00	0	26	0	256901120	72	4410
2026-01-05 23:22:50.40	29.87	13.68	-53.0	-55.0	14.3	0.00e+00	0	26	0	258998272	72	4472
2026-01-05 23:22:51.39	29.95	13.77	-53.0	-55.0	14.3	0.00e+00	0	26	0	260046848	72	4457
2026-01-05 23:22:52.39	30.04	13.86	-53.0	-55.0	14.3	0.00e+00	0	26	0	262144000	72	4486
2026-01-05 23:22:53.38	30.12	13.95	-53.0	-55.0	14.3	0.00e+00	0	26	0	264241152	72	4450
2026-01-05 23:22:54.38	30.21	14.04	-53.0	-55.0	14.3	0.00e+00	0	26	0	266338304	72	4457
2026-01-05 23:22:55.38	30.30	14.13	-52.9	-54.9	14.4	0.00e+00	0	26	0	268435456	72	4400
2026-01-05 23:22:56.38	30.39	14.23	-52.9	-54.8	14.4	0.00e+00	0	26	0	269484032	72	4388
2026-01-05 23:22:57.38	30.48	14.32	-52.9	-54.8	14.4	0.00e+00	0	26	0	271581184	72	4388
2026-01-05 23:22:58.37	30.57	14.41	-52.9	-54.9	14.4	0.00e+00	0	26	0	273678336	72	4401
2026-01-05 23:22:59.37	30.66	14.50	-53.0	-55.0	14.3	0.00e+00	0	26	0	275775488	72	4457
2026-01-05 23:23:00.37	30.75	14.60	-52.9	-54.9	14.4	0.00e+00	0	26	0	276824064	72	4410
2026-01-05 23:23:01.38	30.84	14.69	-53.0	-54.9	14.4	0.00e+00	0	26	0	278921216	72	4428
2026-01-05 23:23:02.38	30.93	14.79	-52.9	-54.9	14.4	0.00e+00	0	26	0	281018368	72	4415
2026-01-05 23:23:03.37	31.02	14.88	-52.9	-54.8	14.4	0.00e+00	0	26	0	283115520	72	4384
2026-01-05 23:23:04.38	31.12	14.98	-52.9	-54.8	14.4	0.00e+00	0	26	0	285212672	72	4367
2026-01-05 23:23:05.37	31.21	15.07	-52.8	-54.7	14.5	0.00e+00	0	26	0	286261248	72	4339
2026-01-05 23:23:06.37	31.30	15.17	-52.7	-54.6	14.5	0.00e+00	0	27	0	288358400	72	4288
2026-01-05 23:23:07.38	31.40	15.26	-52.7	-54.6	14.5	0.00e+00	0	26	0	290455552	72	4286
2026-01-05 23:23:08.37	31.49	15.36	-52.6	-54.5	14.4	0.00e+00	0	26	0	292552704	71	4451
2026-01-05 23:23:09.37	31.59	15.46	-52.6	-54.5	14.4	0.00e+00	0	26	0	294649856	71	4470
2026-01-05 23:23:10.36	31.69	15.55	-52.6	-54.5	14.4	0.00e+00	0	26	0	295698432	71	4447
2026-01-05 23:23:11.36	31.78	15.65	-52.6	-54.5	14.4	0.00e+00	0	26	0	297795584	71	4473
2026-01-05 23:23:12.36	31.88	15.75	-52.6	-54.4	14.5	0.00e+00	0	26	0	299892736	71	4427
2026-01-05 23:23:13.36	31.98	15.84	-52.4	-54.2	14.6	0.00e+00	0	26	0	301989888	71	4308
2026-01-05 23:23:14.35	32.08	15.94	-52.3	-54.1	14.6	0.00e+00	0	27	0	304087040	71	4289
2026-01-05 23:23:15.35	32.18	16.04	-52.4	-54.2	14.6	0.00e+00	0	26	0	305135616	71	4318
2026-01-05 23:23:16.35	32.28	16.14	-52.5	-54.3	14.5	0.00e+00	0	26	0	307232768	71	4373
2026-01-05 23:23:17.35	32.38	16.24	-52.5	-54.4	14.5	0.00e+00	0	27	0	309329920	71	4396
2026-01-05 23:23:18.36	32.48	16.34	-52.6	-54.4	14.5	0.00e+00	0	26	0	311427072	71	4434
2026-01-05 23:23:19.35	32.58	16.44	-52.7	-54.5	14.4	0.00e+00	0	26	0	312475648	71	4484
2026-01-05 23:23:20.34	32.68	16.54	-52.7	-54.6	14.4	0.00e+00	0	27	0	314572800	71	4537
2026-01-05 23:23:21.34	32.79	16.64	-52.8	-54.7	14.4	0.00e+00	0	27	0	316669952	71	4564
2026-01-05 23:23:22.33	32.89	16.74	-52.8	-54.7	14.3	0.00e+00	0	27	0	318767104	71	4579
2026-01-05 23:23:23.33	32.99	16.84	-52.8	-54.8	14.3	0.00e+00	0	26	0	320864256	71	4609
2026-01-05 23:23:24.32	33.10	16.94	-52.8	-54.8	14.3	0.00e+00	0	27	0	321912832	71	4617
2026-01-05 23:23:25.32	33.20	17.04	-52.9	-54.9	14.3	0.00e+00	0	26	0	324009984	71	4686
2026-01-05 23:23:26.32	33.31	17.14	-53.0	-54.9	14.3	0.00e+00	0	26	0	326107136	71	4692
2026-01-05 23:23:27.33	33.42	17.25	-52.8	-54.8	14.3	0.00e+00	0	26	0	328204288	71	4609
2026-01-05 23:23:28.33	33.53	17.35	-52.9	-54.9	14.3	0.00e+00	0	26	0	329252864	71	4666
2026-01-05 23:23:29.32	33.63	17.45	-52.9	-54.9	14.3	0.00e+00	0	27	0	331350016	71	4662
2026-01-05 23:23:30.32	33.74	17.55	-53.0	-55.0	14.2	0.00e+00	0	26	0	333447168	71	4712
2026-01-05 23:23:31.31	33.85	17.66	-52.9	-54.9	14.3	0.00e+00	0	27	0	335544320	71	4659
2026-01-05 23:23:32.31	33.96	17.76	-52.9	-54.8	14.3	0.00e+00	0	26	0	337641472	71	4629
2026-01-05 23:23:33.30	34.07	17.86	-53.0	-54.9	14.2	0.00e+00	0	27	0	338690048	71	4704
2026-01-05 23:23:34.30	34.19	17.97	-52.9	-54.9	14.3	0.00e+00	0	26	0	340787200	71	4656
2026-01-05 23:23:35.30	34.30	18.07	-53.0	-55.0	14.2	0.00e+00	0	26	0	342884352	71	4751
2026-01-05 23:23:36.29	34.41	18.18	-53.0	-55.0	14.2	0.00e+00	0	27	0	344981504	71	4742
2026-01-05 23:23:37.29	34.53	18.29	-53.0	-55.0	14.2	0.00e+00	0	27	0	347078656	71	4734
2026-01-05 23:23:38.29	34.64	18.39	-53.1	-55.1	14.2	0.00e+00	0	26	0	348127232	71	4794
2026-01-05 23:23:39.29	34.76	18.50	-53.1	-55.0	14.2	0.00e+00	0	26	0	350224384	71	4756
2026-01-05 23:23:40.29	34.88	18.61	-53.0	-55.0	14.2	0.00e+00	0	27	0	352321536	71	4741
2026-01-05 23:23:41.29	34.99	18.71	-53.1	-55.2	14.1	0.00e+00	0	27	0	354418688	71	4820
2026-01-05 23:23:42.28	35.11	18.82	-53.1	-55.2	14.2	0.00e+00	0	27	0	355467264	71	4828
2026-01-05 23:23:43.28	35.23	18.93	-53.1	-55.1	14.2	0.00e+00	0	26	0	357564416	71	4798
2026-01-05 23:23:44.28	35.35	19.04	-53.1	-55.1	14.2	0.00e+00	0	26	0	359661568	71	4794
2026-01-05 23:23:45.28	35.47	19.14	-53.1	-55.2	14.1	0.00e+00	0	26	0	361758720	71	4823
2026-01-05 23:23:46.28	35.59	19.25	-53.1	-55.1	14.2	0.00e+00	0	27	0	363855872	71	4791
2026-01-05 23:23:47.27	35.71	19.36	-53.1	-55.1	14.2	0.00e+00	0	26	0	364904448	71	4800
2026-01-05 23:23:48.27	35.84	19.47	-53.1	-55.2	14.2	0.00e+00	0	27	0	367001600	71	4818
2026-01-05 23:23:49.28	35.96	19.58	-53.2	-55.2	14.1	0.00e+00	0	27	0	369098752	71	4827
2026-01-05 23:23:50.27	36.09	19.69	-53.2	-55.3	14.1	0.00e+00	0	27	0	371195904	71	4878
2026-01-05 23:23:51.26	36.21	19.80	-53.3	-55.4	14.1	0.00e+00	0	26	0	372244480	71	4937
2026-01-05 23:23:52.27	36.34	19.91	-53.3	-55.4	14.1	0.00e+00	0	26	0	374341632	71	4927
2026-01-05 23:23:53.26	36.47	20.02	-53.2	-55.2	14.1	0.00e+00	0	27	0	376438784	71	4857
2026-01-05 23:23:54.26	36.60	20.14	-53.2	-55.2	14.1	0.00e+00	0	27	0	378535936	71	4853
2026-01-05 23:23:55.25	36.72	20.25	-53.3	-55.3	14.1	0.00e+00	0	27	0	380633088	71	4901
2026-01-05 23:23:56.26	36.86	20.36	-53.3	-55.4	14.1	0.00e+00	0	27	0	381681664	71	4938
2026-01-05 23:23:57.25	36.99	20.47	-53.3	-55.4	14.1	0.00e+00	0	27	0	383778816	71	4945
2026-01-05 23:23:58.24	37.12	20.59	-53.3	-55.4	14.1	0.00e+00	0	27	0	385875968	71	4942
2026-01-05 23:23:59.25	37.25	20.70	-53.3	-55.4	14.2	0.00e+00	0	27	0	387973120	72	4657
2026-01-05 23:24:00.24	37.39	20.81	-53.4	-55.5	14.1	0.00e+00	0	26	0	390070272	72	4726
2026-01-05 23:24:01.24	37.52	20.93	-53.3	-55.4	14.2	0.00e+00	0	27	0	391118848	72	4652
2026-01-05 23:24:02.23	37.66	21.04	-53.4	-55.4	14.2	0.00e+00	0	27	0	393216000	72	4683
2026-01-05 23:24:03.24	37.80	21.16	-53.4	-55.5	14.1	0.00e+00	0	26	0	395313152	72	4744
2026-01-05 23:24:04.24	37.93	21.27	-53.4	-55.5	14.1	0.00e+00	0	26	0	397410304	72	4734
2026-01-05 23:24:05.24	38.07	21.39	-53.4	-55.5	14.1	0.00e+00	0	27	0	399507456	72	4744
2026-01-05 23:24:06.24	38.21	21.51	-53.5	-55.5	14.1	0.00e+00	0	26	0	400556032	72	4754
2026-01-05 23:24:07.24	38.35	21.62	-53.5	-55.5	14.1	0.00e+00	0	26	0	402653184	72	4754
2026-01-05 23:24:08.25	38.50	21.74	-53.5	-55.6	14.1	0.00e+00	0	26	0	404750336	72	4796
2026-01-05 23:24:09.25	38.64	21.86	-53.5	-55.6	14.1	0.00e+00	0	27	0	406847488	72	4765
2026-01-05 23:24:10.25	38.79	21.98	-53.5	-55.6	14.1	0.00e+00	0	26	0	407896064	72	4781
2026-01-05 23:24:11.25	38.93	22.10	-53.5	-55.6	14.1	0.00e+00	0	26	0	409993216	72	4790
2026-01-05 23:24:12.25	39.08	22.21	-53.5	-55.5	14.1	0.00e+00	0	26	0	412090368	72	4748
2026-01-05 23:24:13.24	39.22	22.33	-53.4	-55.5	14.1	0.00e+00	0	26	0	414187520	72	4747
2026-01-05 23:24:14.24	39.37	22.45	-53.4	-55.4	14.1	0.00e+00	0	26	0	416284672	72	4696
2026-01-05 23:24:15.23	39.52	22.57	-53.2	-55.2	14.3	0.00e+00	0	26	0	417333248	72	4576
2026-01-05 23:24:16.23	39.67	22.69	-53.2	-55.2	14.2	0.00e+00	0	26	0	419430400	72	4584
2026-01-05 23:24:17.22	39.82	22.81	-53.3	-55.3	14.3	0.00e+00	0	26	0	421527552	72	4601
2026-01-05 23:24:18.22	39.98	22.93	-53.2	-55.2	14.3	0.00e+00	0	27	0	423624704	72	4560
2026-01-05 23:24:19.21	40.13	23.05	-53.2	-55.2	14.3	0.00e+00	0	27	0	424673280	72	4581
2026-01-05 23:24:20.21	40.28	23.17	-53.1	-55.1	14.3	0.00e+00	0	27	0	426770432	72	4521
2026-01-05 23:24:21.21	40.44	23.29	-53.1	-55.1	14.3	0.00e+00	0	26	0	428867584	72	4533
2026-01-05 23:24:22.21	40.60	23.42	-53.1	-55.0	14.4	0.00e+00	0	26	0	430964736	72	4484
2026-01-05 23:24:23.21	40.76	23.54	-53.1	-55.0	14.4	0.00e+00	0	27	0	433061888	72	4469
2026-01-05 23:24:24.20	40.92	23.66	-52.9	-54.8	14.4	0.00e+00	0	26	0	434110464	72	4388
2026-01-05 23:24:25.19	41.08	23.78	-52.9	-54.8	14.5	0.00e+00	0	26	0	436207616	72	4386
2026-01-05 23:24:26.19	41.24	23.91	-53.0	-54.9	14.4	0.00e+00	0	26	0	438304768	72	4409
2026-01-05 23:24:27.19	41.40	24.03	-52.9	-54.7	14.5	0.00e+00	0	27	0	440401920	72	4334
2026-01-05 23:24:28.18	41.57	24.15	-52.8	-54.6	14.5	0.00e+00	0	26	0	442499072	72	4276
2026-01-05 23:24:29.18	41.73	24.28	-52.8	-54.6	14.6	0.00e+00	0	26	0	443547648	72	4268
2026-01-05 23:24:30.18	41.90	24.40	-52.9	-54.7	14.5	0.00e+00	0	26	0	445644800	72	4335
2026-01-05 23:24:31.19	42.07	24.53	-52.9	-54.8	14.5	0.00e+00	0	27	0	447741952	72	4386
2026-01-05 23:24:32.18	42.24	24.65	-53.0	-55.0	14.4	0.00e+00	0	27	0	449839104	72	4451
2026-01-05 23:24:33.18	42.41	24.78	-53.0	-54.9	14.4	0.00e+00	0	27	0	450887680	72	4438
2026-01-05 23:24:34.18	42.59	24.91	-53.1	-55.0	14.4	0.00e+00	0	27	0	452984832	72	4472
2026-01-05 23:24:35.18	42.76	25.03	-53.0	-55.0	14.4	0.00e+00	0	26	0	455081984	72	4457
2026-01-05 23:24:36.18	42.94	25.16	-52.9	-54.9	14.5	0.00e+00	0	26	0	457179136	72	4395
2026-01-05 23:24:37.17	43.11	25.29	-52.5	-54.9	14.5	0.00e+00	0	26	0	459276288	71	4668
2026-01-05 23:24:38.16	43.29	25.41	-52.1	-54.7	14.5	0.00e+00	0	27	0	460324864	70	4853
2026-01-05 23:24:39.15	43.47	25.54	-52.5	-54.7	14.4	0.00e+00	0	27	0	462422016	70	4857
2026-01-05 23:24:40.15	43.65	25.67	-52.8	-54.8	14.3	0.00e+00	0	27	0	464519168	70	4892
2026-01-05 23:24:41.14	43.83	25.80	-52.9	-54.9	14.3	0.00e+00	0	26	0	466616320	71	4669
2026-01-05 23:24:42.13	44.01	25.92	-53.1	-55.0	14.3	0.00e+00	0	27	0	467664896	71	4731
2026-01-05 23:24:43.12	44.20	26.05	-53.1	-55.0	14.3	0.00e+00	0	27	0	469762048	71	4747
2026-01-05 23:24:44.13	44.39	26.18	-53.3	-55.3	14.2	0.00e+00	0	27	0	471859200	71	4877
2026-01-05 23:24:45.12	44.57	26.31	-53.4	-55.5	14.1	0.00e+00	0	26	0	473956352	71	4990
2026-01-05 23:24:46.12	44.76	26.44	-53.4	-55.4	14.2	0.00e+00	0	26	0	476053504	72	4702
2026-01-05 23:24:47.11	44.95	26.57	-53.4	-55.5	14.2	0.00e+00	0	27	0	477102080	72	4725
2026-01-05 23:24:48.12	45.15	26.71	-53.2	-55.2	14.3	0.00e+00	0	26	0	479199232	72	4582
2026-01-05 23:24:49.12	45.34	26.84	-53.1	-55.0	14.4	0.00e+00	0	26	0	481296384	72	4454
2026-01-05 23:24:50.12	45.54	26.97	-53.1	-55.0	14.4	0.00e+00	0	26	0	483393536	72	4454
2026-01-05 23:24:51.11	45.74	27.10	-53.1	-55.0	14.4	0.00e+00	0	26	0	485490688	72	4468
2026-01-05 23:24:52.12	45.94	27.23	-53.2	-55.2	14.3	0.00e+00	0	26	0	486539264	72	4550
2026-01-05 23:24:53.11	46.14	27.36	-53.5	-55.5	14.2	0.00e+00	0	27	0	488636416	72	4730
2026-01-05 23:24:54.11	46.34	27.50	-53.6	-55.7	14.1	0.00e+00	0	27	0	490733568	72	4844
2026-01-05 23:24:55.11	46.55	27.63	-53.8	-56.0	13.9	0.00e+00	0	27	0	492830720	72	5019
2026-01-05 23:24:56.12	46.75	27.76	-53.9	-56.2	14.0	0.00e+00	0	26	0	493879296	73	4819
2026-01-05 23:24:57.11	46.96	27.90	-54.1	-56.3	13.9	0.00e+00	0	26	0	495976448	73	4905
2026-01-05 23:24:58.11	47.17	28.03	-53.9	-56.0	14.0	0.00e+00	0	27	0	498073600	73	4749
2026-01-05 23:24:59.10	47.38	28.16	-53.8	-56.0	14.1	0.00e+00	0	27	0	500170752	73	4706
2026-01-05 23:25:00.10	47.59	28.30	-53.6	-55.7	14.2	0.00e+00	0	27	0	502267904	73	4558
2026-01-05 23:25:01.10	47.81	28.43	-53.6	-55.7	14.2	0.00e+00	0	26	0	503316480	73	4548
2026-01-05 23:25:02.10	48.02	28.57	-53.5	-55.5	14.3	0.00e+00	0	26	0	505413632	73	4461
2026-01-05 23:25:03.10	48.24	28.70	-53.5	-55.6	14.3	0.00e+00	0	27	0	507510784	73	4499
2026-01-05 23:25:04.10	48.46	28.84	-53.7	-55.8	14.1	0.00e+00	0	26	0	509607936	73	4639
2026-01-05 23:25:05.09	48.68	28.97	-54.0	-56.2	13.9	0.00e+00	0	27	0	511705088	73	4838
2026-01-05 23:25:06.09	48.91	29.11	-54.0	-56.2	13.9	0.00e+00	0	26	0	512753664	73	4835
2026-01-05 23:25:07.08	49.13	29.24	-54.0	-56.2	13.9	0.00e+00	0	27	0	514850816	73	4868
2026-01-05 23:25:08.08	49.36	29.38	-53.9	-56.1	14.0	0.00e+00	0	27	0	516947968	73	4775
2026-01-05 23:25:09.08	49.59	29.51	-53.8	-56.0	14.0	0.00e+00	0	26	0	519045120	73	4717
2026-01-05 23:25:10.08	49.82	29.65	-53.7	-55.8	14.1	0.00e+00	0	26	0	520093696	73	4651
2026-01-05 23:25:11.06	50.05	29.78	-53.8	-55.9	14.1	0.00e+00	0	26	0	522190848	73	4700
2026-01-05 23:25:12.06	50.28	29.92	-53.8	-55.9	14.1	0.00e+00	0	26	0	524288000	73	4704
2026-01-05 23:25:13.05	50.52	30.06	-53.9	-56.2	14.0	0.00e+00	0	27	0	526385152	73	4815
2026-01-05 23:25:14.05	50.76	30.19	-54.0	-56.3	13.9	0.00e+00	0	26	0	528482304	73	4873
2026-01-05 23:25:15.05	51.00	30.33	-53.9	-56.1	14.0	0.00e+00	0	27	0	529530880	73	4787
2026-01-05 23:25:16.05	51.24	30.47	-54.0	-56.2	13.9	0.00e+00	0	27	0	531628032	73	4847
2026-01-05 23:25:17.05	51.49	30.60	-54.0	-56.1	14.0	0.00e+00	0	27	0	533725184	73	4808
2026-01-05 23:25:18.06	51.74	30.74	-53.8	-55.9	14.1	0.00e+00	0	26	0	535822336	73	4702
2026-01-05 23:25:19.05	51.98	30.88	-53.8	-55.9	14.1	0.00e+00	0	27	0	537919488	73	4691
2026-01-05 23:25:20.05	52.23	31.02	-53.8	-55.9	14.1	0.00e+00	0	27	0	538968064	73	4684
2026-01-05 23:25:21.05	52.49	31.15	-53.8	-56.0	14.1	0.00e+00	0	26	0	541065216	73	4714
2026-01-05 23:25:22.05	52.74	31.29	-53.9	-56.1	14.0	0.00e+00	0	26	0	543162368	73	4791
2026-01-05 23:25:23.05	53.00	31.43	-54.0	-56.1	14.0	0.00e+00	0	27	0	545259520	73	4806
2026-01-05 23:25:24.05	53.26	31.57	-54.2	-56.5	13.8	0.00e+00	0	27	0	546308096	73	5021
2026-01-05 23:25:25.04	53.52	31.70	-54.3	-56.6	13.7	0.00e+00	0	27	0	548405248	73	5060
2026-01-05 23:25:26.05	53.79	31.84	-54.3	-56.7	13.7	0.00e+00	0	26	0	550502400	73	5107
2026-01-05 23:25:27.04	54.05	31.98	-54.2	-56.5	13.8	0.00e+00	0	27	0	552599552	73	5034
2026-01-05 23:25:28.03	54.32	32.11	-54.2	-56.5	13.8	0.00e+00	0	26	0	554696704	73	5020
2026-01-05 23:25:29.03	54.59	32.25	-54.2	-56.5	13.8	0.00e+00	0	27	0	555745280	73	5023
2026-01-05 23:25:30.02	54.86	32.39	-54.5	-57.0	13.7	0.00e+00	0	26	0	557842432	74	4986
2026-01-05 23:25:31.02	55.13	32.53	-54.7	-57.2	13.5	0.00e+00	0	27	0	559939584	74	5132
2026-01-05 23:25:32.02	55.41	32.66	-55.0	-57.7	13.4	0.00e+00	0	27	0	562036736	75	5103
2026-01-05 23:25:33.02	55.69	32.80	-55.0	-57.6	13.4	0.00e+00	0	27	0	563085312	75	5095
2026-01-05 23:25:34.01	55.97	32.94	-55.1	-57.8	13.3	0.00e+00	0	26	0	565182464	75	5201
2026-01-05 23:25:35.01	56.26	33.07	-54.9	-57.5	13.5	0.00e+00	0	26	0	567279616	75	5027
2026-01-05 23:25:36.00	56.54	33.21	-54.9	-57.4	13.5	0.00e+00	0	27	0	569376768	75	4971
2026-01-05 23:25:37.00	56.83	33.35	-54.8	-57.3	13.6	0.00e+00	0	27	0	571473920	75	4901
2026-01-05 23:25:37.99	57.12	33.48	-55.0	-57.6	13.4	0.00e+00	0	27	0	572522496	75	5051
2026-01-05 23:25:39.00	57.42	33.62	-55.1	-57.8	13.3	0.00e+00	0	27	0	574619648	75	5183
2026-01-05 23:25:39.99	57.71	33.75	-55.3	-58.1	13.1	0.00e+00	0	26	0	576716800	75	5353
2026-01-05 23:25:40.99	58.01	33.89	-55.4	-58.2	13.0	0.00e+00	0	27	0	578813952	75	5464
2026-01-05 23:25:41.99	58.31	34.02	-55.6	-58.4	13.1	0.00e+00	0	26	0	580911104	76	5279
2026-01-05 23:25:42.99	58.62	34.16	-55.4	-58.2	13.2	0.00e+00	0	26	0	581959680	76	5156
2026-01-05 23:25:43.99	58.92	34.30	-55.5	-58.3	13.1	0.00e+00	0	26	0	584056832	76	5217
2026-01-05 23:25:44.98	59.23	34.43	-55.6	-58.4	13.1	0.00e+00	0	27	0	586153984	76	5265
2026-01-05 23:25:45.98	59.54	34.56	-55.7	-58.6	13.0	0.00e+00	0	26	0	588251136	76	5365
2026-01-05 23:25:46.98	59.85	34.70	-55.8	-58.9	12.8	7.00e-07	0	26	0	589299712	76	5561
2026-01-05 23:25:47.97	60.17	34.83	-55.8	-58.8	12.8	0.00e+00	0	27	0	591396864	76	5512
2026-01-05 23:25:48.97	60.49	34.96	-55.7	-58.7	12.9	0.00e+00	0	27	0	593494016	76	5452
2026-01-05 23:25:49.97	60.81	35.10	-55.7	-58.7	12.9	0.00e+00	0	27	0	595591168	76	5413
2026-01-05 23:25:50.97	61.13	35.23	-55.4	-58.2	13.2	0.00e+00	0	26	0	597688320	76	5106
2026-01-05 23:25:51.97	61.46	35.36	-55.3	-58.1	13.3	0.00e+00	0	26	0	598736896	76	5056
2026-01-05 23:25:52.97	61.79	35.49	-55.2	-57.9	13.4	0.00e+00	0	27	0	600834048	76	4938
2026-01-05 23:25:53.98	62.13	35.62	-55.2	-57.9	13.4	0.00e+00	0	26	0	602931200	76	4934
2026-01-05 23:25:54.98	62.46	35.75	-55.4	-58.2	13.3	0.00e+00	0	27	0	605028352	76	5106
2026-01-05 23:25:55.96	62.79	35.88	-55.5	-58.4	13.1	0.00e+00	0	27	0	606076928	76	5227
2026-01-05 23:25:56.97	63.14	36.01	-55.6	-58.6	13.0	0.00e+00	0	26	0	608174080	76	5342
2026-01-05 23:25:57.97	63.48	36.14	-55.8	-58.9	12.9	0.00e+00	0	27	0	610271232	76	5537
2026-01-05 23:25:58.96	63.82	36.27	-55.8	-58.9	12.8	0.00e+00	0	26	0	612368384	76	5539
2026-01-05 23:25:59.96	64.17	36.40	-55.6	-58.5	13.0	0.00e+00	0	26	0	614465536	76	5338
2026-01-05 23:26:00.95	64.52	36.52	-55.5	-58.3	13.2	0.00e+00	0	26	0	615514112	76	5165
2026-01-05 23:26:01.95	64.87	36.65	-55.4	-58.1	13.3	0.00e+00	0	27	0	617611264	76	5081
2026-01-05 23:26:02.94	65.22	36.77	-55.0	-57.6	13.5	0.00e+00	0	26	0	619708416	76	4778
2026-01-05 23:26:03.95	65.59	36.90	-55.1	-57.7	13.5	0.00e+00	0	27	0	621805568	76	4844
2026-01-05 23:26:04.94	65.94	37.02	-55.2	-57.8	13.4	0.00e+00	0	26	0	623902720	76	4910
2026-01-05 23:26:05.95	66.31	37.14	-55.4	-58.2	13.2	0.00e+00	0	26	0	624951296	76	5113
2026-01-05 23:26:06.94	66.68	37.27	-55.9	-58.9	12.8	0.00e+00	0	27	0	627048448	76	5570
2026-01-05 23:26:07.94	67.04	37.39	-56.1	-59.3	12.6	0.00e+00	0	27	0	629145600	77	5491
2026-01-05 23:26:08.93	67.41	37.51	-55.8	-58.7	13.0	0.00e+00	0	26	0	631242752	77	5150
2026-01-05 23:26:09.93	67.79	37.63	-55.3	-58.0	13.5	0.00e+00	0	27	0	632291328	77	4710
2026-01-05 23:26:10.92	68.16	37.74	-54.5	-56.9	13.9	0.00e+00	0	26	0	634388480	75	4672
2026-01-05 23:26:11.92	68.54	37.86	-54.1	-56.2	14.1	0.00e+00	0	26	0	636485632	74	4585
2026-01-05 23:26:12.92	68.93	37.98	-54.0	-56.1	14.1	0.00e+00	0	27	0	638582784	74	4514
2026-01-05 23:26:13.92	69.31	38.09	-54.0	-56.1	14.1	0.00e+00	0	26	0	640679936	74	4531
2026-01-05 23:26:14.92	69.70	38.21	-54.4	-56.6	13.9	0.00e+00	0	26	0	641728512	74	4813
2026-01-05 23:26:15.93	70.10	38.32	-54.7	-57.2	13.6	0.00e+00	0	27	0	643825664	74	5135
2026-01-05 23:26:16.93	70.49	38.44	-55.2	-57.9	13.3	0.00e+00	0	26	0	645922816	75	5244
2026-01-05 23:26:17.93	70.89	38.55	-55.4	-58.2	13.1	0.00e+00	0	27	0	648019968	75	5438
2026-01-05 23:26:18.92	71.28	38.66	-55.4	-58.2	13.3	0.00e+00	0	26	0	650117120	76	5113
2026-01-05 23:26:19.93	71.69	38.77	-54.9	-57.3	13.7	0.00e+00	0	27	0	651165696	76	4644
2026-01-05 23:26:20.92	72.09	38.88	-55.0	-57.5	13.6	0.00e+00	0	26	0	653262848	76	4747
2026-01-05 23:26:21.92	72.50	38.98	-55.0	-57.6	13.5	0.00e+00	0	27	0	655360000	76	4765
2026-01-05 23:26:22.91	72.91	39.09	-55.3	-58.0	13.4	0.00e+00	0	27	0	657457152	76	5017
2026-01-05 23:26:23.91	73.32	39.19	-55.7	-58.7	13.0	0.00e+00	0	27	0	658505728	76	5427
2026-01-05 23:26:24.90	73.73	39.29	-55.9	-59.0	12.9	0.00e+00	0	26	0	660602880	77	5280
2026-01-05 23:26:25.90	74.15	39.39	-55.8	-58.8	13.0	0.00e+00	0	27	0	662700032	77	5181
2026-01-05 23:26:26.89	74.56	39.49	-55.6	-58.4	13.2	0.00e+00	0	27	0	664797184	77	4964
2026-01-05 23:26:27.89	74.99	39.59	-55.4	-58.1	13.4	0.00e+00	0	26	0	666894336	77	4798
2026-01-05 23:26:28.88	75.41	39.69	-55.3	-58.0	13.5	0.00e+00	0	27	0	667942912	77	4746
2026-01-05 23:26:29.88	75.84	39.78	-55.4	-58.1	13.4	0.00e+00	0	26	0	670040064	77	4777
2026-01-05 23:26:30.88	76.27	39.88	-55.2	-57.8	13.5	0.00e+00	0	26	0	672137216	77	4641
2026-01-05 23:26:31.88	76.70	39.97	-55.3	-58.0	13.5	0.00e+00	0	27	0	674234368	77	4726
2026-01-05 23:26:32.86	77.13	40.06	-55.1	-57.7	13.5	0.00e+00	0	26	0	675282944	76	4843
2026-01-05 23:26:33.86	77.57	40.15	-55.0	-57.5	13.6	0.00e+00	0	26	0	677380096	76	4732
2026-01-05 23:26:34.86	78.01	40.24	-54.5	-56.9	13.8	0.00e+00	0	26	0	679477248	75	4674
2026-01-05 23:26:35.86	78.45	40.32	-54.3	-56.6	14.0	0.00e+00	0	26	0	681574400	75	4516
2026-01-05 23:26:36.86	78.89	40.41	-53.9	-56.0	14.2	0.00e+00	0	26	0	683671552	74	4459
2026-01-05 23:26:37.86	79.34	40.49	-54.0	-56.2	14.1	0.00e+00	0	27	0	684720128	74	4578
2026-01-05 23:26:38.84	79.78	40.57	-54.1	-56.3	14.1	0.00e+00	0	27	0	686817280	74	4621
2026-01-05 23:26:39.85	80.24	40.65	-54.4	-56.7	13.9	0.00e+00	0	26	0	688914432	74	4847
2026-01-05 23:26:40.84	80.69	40.73	-54.4	-56.8	13.7	0.00e+00	0	26	0	691011584	74	4885
2026-01-05 23:26:41.83	81.14	40.80	-54.5	-56.9	13.7	0.00e+00	0	26	0	693108736	74	4945
2026-01-05 23:26:42.83	81.60	40.88	-54.3	-56.6	13.8	0.00e+00	0	27	0	694157312	74	4802
2026-01-05 23:26:43.83	82.06	40.95	-54.4	-56.8	13.8	0.00e+00	0	26	0	696254464	74	4881
2026-01-05 23:26:44.83	82.52	41.02	-54.5	-56.9	13.8	0.00e+00	0	26	0	698351616	74	4945
2026-01-05 23:26:45.83	82.98	41.09	-54.9	-57.4	13.4	0.00e+00	0	27	0	700448768	74	5232
2026-01-05 23:26:46.82	83.45	41.15	-54.9	-57.4	13.5	0.00e+00	0	26	0	701497344	75	4983
2026-01-05 23:26:47.82	83.91	41.22	-55.0	-57.6	13.5	0.00e+00	0	27	0	703594496	75	5047
2026-01-05 23:26:48.82	84.38	41.28	-55.1	-57.7	13.4	0.00e+00	0	26	0	705691648	75	5159
2026-01-05 23:26:49.82	84.85	41.34	-55.2	-57.8	13.3	0.00e+00	0	27	0	707788800	75	5216
2026-01-05 23:26:50.82	85.33	41.40	-55.4	-58.2	13.2	0.00e+00	0	26	0	709885952	75	5414
2026-01-05 23:26:51.82	85.80	41.46	-55.5	-58.4	13.2	0.00e+00	0	26	0	710934528	76	5221
2026-01-05 23:26:52.82	86.28	41.51	-55.5	-58.4	13.2	0.00e+00	0	27	0	713031680	76	5228
2026-01-05 23:26:53.82	86.76	41.56	-55.6	-58.4	13.1	0.00e+00	0	27	0	715128832	76	5253
2026-01-05 23:26:54.82	87.24	41.61	-55.5	-58.3	13.2	0.00e+00	0	27	0	717225984	76	5180
2026-01-05 23:26:55.82	87.72	41.66	-55.6	-58.4	13.2	0.00e+00	0	26	0	719323136	76	5255
2026-01-05 23:26:56.81	88.20	41.71	-55.7	-58.7	12.9	0.00e+00	0	27	0	720371712	76	5421
2026-01-05 23:26:57.80	88.67	41.75	-55.6	-58.4	13.1	0.00e+00	0	27	0	722468864	76	5273
2026-01-05 23:26:58.80	89.16	41.79	-55.4	-58.2	13.3	0.00e+00	0	26	0	724566016	76	5102
2026-01-05 23:26:59.80	89.65	41.83	-55.2	-57.8	13.5	0.00e+00	0	27	0	726663168	76	4887
2026-01-05 23:27:00.80	90.13	41.87	-54.8	-57.3	13.8	0.00e+00	0	27	0	727711744	76	4610
2026-01-05 23:27:01.79	90.62	41.90	-54.7	-57.1	13.9	0.00e+00	0	27	0	729808896	76	4517
2026-01-05 23:27:02.80	91.11	41.93	-54.8	-57.3	13.6	0.00e+00	0	27	0	731906048	75	4898
2026-01-05 23:27:03.79	91.60	41.96	-55.1	-57.7	13.5	0.00e+00	0	27	0	734003200	75	5147
2026-01-05 23:27:04.79	92.09	41.99	-54.8	-57.3	13.6	0.00e+00	0	26	0	736100352	75	4916
2026-01-05 23:27:05.80	92.59	42.02	-54.5	-56.8	13.9	0.00e+00	0	27	0	737148928	75	4632
2026-01-05 23:27:06.79	93.07	42.04	-54.2	-56.4	14.0	0.00e+00	0	27	0	739246080	74	4687
2026-01-05 23:27:07.79	93.57	42.06	-53.7	-55.7	14.3	0.00e+00	0	27	0	741343232	74	4337
2026-01-05 23:27:08.79	94.06	42.08	-53.9	-56.0	14.1	0.00e+00	0	27	0	743440384	73	4742
2026-01-05 23:27:09.79	94.56	42.10	-54.4	-56.8	13.7	0.00e+00	0	27	0	745537536	73	5172
2026-01-05 23:27:10.78	95.05	42.11	-54.9	-57.5	13.5	0.00e+00	0	26	0	746586112	75	5007
2026-01-05 23:27:11.78	95.54	42.12	-55.0	-57.7	13.4	0.00e+00	0	26	0	748683264	75	5101
2026-01-05 23:27:12.78	96.04	42.13	-54.9	-57.3	13.6	0.00e+00	0	26	0	750780416	75	4925
2026-01-05 23:27:13.78	96.53	42.14	-54.5	-56.8	13.9	0.00e+00	0	27	0	752877568	75	4611
2026-01-05 23:27:14.77	97.03	42.14	-54.3	-56.6	14.0	0.00e+00	0	26	0	753926144	75	4518
2026-01-05 23:27:15.76	97.52	42.15	-53.9	-56.0	14.2	0.00e+00	0	27	0	756023296	74	4464
2026-01-05 23:27:16.77	98.02	42.15	-53.5	-55.5	14.3	0.00e+00	0	27	0	758120448	73	4460
2026-01-05 23:27:17.77	98.52	42.15	-53.3	-55.2	14.5	0.00e+00	0	26	0	760217600	73	4298
2026-01-05 23:27:18.76	99.01	42.14	-53.0	-54.9	14.5	0.00e+00	0	27	0	762314752	72	4406
2026-01-05 23:27:19.76	99.50	42.13	-52.7	-54.4	14.6	0.00e+00	0	27	0	763363328	71	4428
2026-01-05 23:27:20.76	100.00	42.12	-52.8	-54.5	14.5	0.00e+00	0	27	0	765460480	71	4491
2026-01-05 23:27:21.76	100.50	42.11	-53.0	-54.9	14.4	0.00e+00	0	27	0	767557632	71	4688
2026-01-05 23:27:22.76	100.99	42.10	-53.5	-55.4	14.2	0.00e+00	0	26	0	769654784	72	4703
2026-01-05 23:27:23.76	101.49	42.08	-53.5	-55.5	14.2	0.00e+00	0	26	0	770703360	72	4730
2026-01-05 23:27:24.76	101.98	42.06	-53.3	-55.3	14.3	0.00e+00	0	27	0	772800512	72	4603
2026-01-05 23:27:25.75	102.47	42.04	-53.3	-55.2	14.3	0.00e+00	0	27	0	774897664	72	4593
2026-01-05 23:27:26.74	102.96	42.02	-53.5	-55.5	14.2	0.00e+00	0	27	0	776994816	72	4740
2026-01-05 23:27:27.75	103.45	41.99	-54.2	-56.4	13.9	0.00e+00	0	27	0	779091968	73	4948
2026-01-05 23:27:28.74	103.94	41.97	-54.5	-56.8	13.8	0.00e+00	0	27	0	780140544	74	4920
2026-01-05 23:27:29.74	104.43	41.94	-54.4	-56.8	13.8	0.00e+00	0	26	0	782237696	74	4880
2026-01-05 23:27:30.74	104.92	41.90	-54.0	-56.1	14.1	0.00e+00	0	26	0	784334848	74	4528
2026-01-05 23:27:31.74	105.41	41.87	-54.1	-56.2	14.1	0.00e+00	0	27	0	786432000	74	4594
2026-01-05 23:27:32.74	105.90	41.83	-54.4	-56.7	13.8	0.00e+00	0	26	0	788529152	74	4852
2026-01-05 23:27:33.74	106.39	41.79	-54.8	-57.3	13.5	0.00e+00	0	27	0	789577728	74	5207
2026-01-05 23:27:34.73	106.87	41.75	-54.7	-57.1	13.6	0.00e+00	0	26	0	791674880	74	5069
2026-01-05 23:27:35.73	107.35	41.71	-54.6	-56.9	13.7	0.00e+00	0	26	0	793772032	74	4975
2026-01-05 23:27:36.73	107.83	41.66	-54.5	-56.8	13.8	0.00e+00	0	27	0	795869184	74	4916
2026-01-05 23:27:37.73	108.31	41.61	-54.6	-57.0	13.7	0.00e+00	0	26	0	796917760	74	5011
2026-01-05 23:27:38.73	108.80	41.56	-55.2	-57.9	13.3	0.00e+00	0	26	0	799014912	75	5221
2026-01-05 23:27:39.73	109.27	41.51	-55.4	-58.1	13.2	0.00e+00	0	26	0	801112064	75	5384
2026-01-05 23:27:40.72	109.75	41.46	-55.4	-58.1	13.3	0.00e+00	0	27	0	803209216	76	5056
2026-01-05 23:27:41.72	110.22	41.40	-55.3	-57.9	13.4	0.00e+00	0	27	0	805306368	76	4953
2026-01-05 23:27:42.71	110.69	41.34	-55.2	-57.8	13.5	0.00e+00	0	26	0	806354944	76	4881
2026-01-05 23:27:43.70	111.16	41.28	-55.4	-58.1	13.3	0.00e+00	0	27	0	808452096	76	5044
2026-01-05 23:27:44.70	111.63	41.22	-55.8	-58.8	12.9	0.00e+00	0	27	0	810549248	76	5465
2026-01-05 23:27:45.70	112.10	41.16	-55.8	-58.7	13.0	0.00e+00	0	26	0	812646400	77	5135
2026-01-05 23:27:46.70	112.56	41.09	-55.1	-57.7	13.5	0.00e+00	0	26	0	814743552	76	4852
2026-01-05 23:27:47.70	113.03	41.02	-54.8	-57.2	13.8	0.00e+00	0	27	0	815792128	76	4597
2026-01-05 23:27:48.68	113.48	40.95	-54.7	-57.1	13.8	0.00e+00	0	27	0	817889280	76	4522
2026-01-05 23:27:49.69	113.95	40.88	-54.6	-56.9	13.8	0.00e+00	0	27	0	819986432	75	4696
2026-01-05 23:27:50.68	114.40	40.81	-54.7	-57.1	13.7	0.00e+00	0	27	0	822083584	75	4812
2026-01-05 23:27:51.68	114.86	40.73	-54.5	-56.9	13.9	0.00e+00	0	27	0	823132160	75	4652
2026-01-05 23:27:52.68	115.31	40.65	-53.8	-55.9	14.3	0.00e+00	0	27	0	825229312	74	4393
2026-01-05 23:27:53.68	115.77	40.57	-53.7	-55.8	14.2	0.00e+00	0	26	0	827326464	73	4606
2026-01-05 23:27:54.68	116.22	40.49	-54.4	-56.7	13.7	0.00e+00	0	26	0	829423616	73	5105
2026-01-05 23:27:55.67	116.66	40.41	-54.8	-57.4	13.5	0.00e+00	0	27	0	831520768	74	5235
2026-01-05 23:27:56.67	117.11	40.33	-54.5	-56.9	13.8	0.00e+00	0	27	0	832569344	75	4694
2026-01-05 23:27:57.67	117.55	40.24	-53.9	-56.1	14.1	0.00e+00	0	27	0	834666496	74	4513
2026-01-05 23:27:58.67	117.99	40.15	-53.3	-55.3	14.4	0.00e+00	0	27	0	836763648	73	4354
2026-01-05 23:27:59.66	118.42	40.06	-53.2	-55.1	14.5	0.00e+00	0	26	0	838860800	73	4290
2026-01-05 23:28:00.66	118.86	39.97	-53.5	-55.5	14.3	0.00e+00	0	27	0	839909376	73	4455
2026-01-05 23:28:01.66	119.29	39.88	-53.4	-55.3	14.4	0.00e+00	0	27	0	842006528	73	4380
2026-01-05 23:28:02.66	119.73	39.78	-53.0	-54.8	14.5	0.00e+00	0	27	0	844103680	72	4380
2026-01-05 23:28:03.65	120.15	39.69	-52.6	-54.3	14.6	0.00e+00	0	26	0	846200832	71	4383
2026-01-05 23:28:04.65	120.58	39.59	-52.7	-54.4	14.5	0.00e+00	0	27	0	848297984	71	4435
2026-01-05 23:28:05.65	121.00	39.49	-52.3	-54.0	14.8	0.00e+00	0	26	0	849346560	71	4216
2026-01-05 23:28:06.65	121.42	39.39	-52.8	-54.6	14.5	0.00e+00	0	27	0	851443712	71	4496
2026-01-05 23:28:07.65	121.84	39.29	-52.8	-54.7	14.4	0.00e+00	0	27	0	853540864	71	4559
2026-01-05 23:28:08.64	122.25	39.19	-52.3	-54.0	14.8	0.00e+00	0	26	0	855638016	71	4200
2026-01-05 23:28:09.63	122.66	39.09	-51.8	-53.4	14.8	0.00e+00	0	27	0	856686592	70	4162
2026-01-05 23:28:10.62	123.07	38.98	-51.8	-53.4	14.9	0.00e+00	0	27	0	858783744	70	4179
2026-01-05 23:28:11.62	123.48	38.87	-52.3	-53.9	14.6	0.00e+00	0	26	0	860880896	70	4435
2026-01-05 23:28:12.63	123.89	38.76	-52.5	-54.3	14.5	0.00e+00	0	26	0	862978048	70	4630
2026-01-05 23:28:13.62	124.29	38.66	-52.2	-53.9	14.7	0.00e+00	0	27	0	865075200	70	4401
2026-01-05 23:28:14.62	124.69	38.55	-51.7	-53.3	14.9	0.00e+00	0	26	0	866123776	70	4104
2026-01-05 23:28:15.61	125.08	38.43	-51.3	-52.8	14.9	0.00e+00	0	27	0	868220928	69	4137
2026-01-05 23:28:16.61	125.48	38.32	-51.1	-52.6	14.9	0.00e+00	0	27	0	870318080	68	4254
2026-01-05 23:28:17.62	125.87	38.21	-51.4	-53.0	14.8	0.00e+00	0	26	0	872415232	68	4443
2026-01-05 23:28:18.61	126.26	38.09	-52.1	-53.8	14.6	0.00e+00	0	27	0	874512384	69	4613
2026-01-05 23:28:19.61	126.65	37.98	-52.1	-53.8	14.5	0.00e+00	0	27	0	875560960	69	4625
2026-01-05 23:28:20.61	127.03	37.86	-51.9	-53.5	14.7	0.00e+00	0	27	0	877658112	69	4463
2026-01-05 23:28:21.61	127.41	37.74	-51.5	-53.1	14.9	0.00e+00	0	27	0	879755264	69	4256
2026-01-05 23:28:22.61	127.79	37.62	-51.4	-53.0	14.9	0.00e+00	0	27	0	881852416	69	4206
2026-01-05 23:28:23.62	128.17	37.50	-51.7	-53.3	14.8	0.00e+00	0	27	0	883949568	69	4380
2026-01-05 23:28:24.61	128.54	37.38	-52.0	-53.7	14.6	0.00e+00	0	26	0	884998144	69	4565
2026-01-05 23:28:25.60	128.91	37.26	-51.9	-53.6	14.7	0.00e+00	0	27	0	887095296	69	4502
2026-01-05 23:28:26.60	129.28	37.14	-51.8	-53.5	14.7	0.00e+00	0	26	0	889192448	69	4454
2026-01-05 23:28:27.60	129.64	37.01	-51.8	-53.4	14.7	0.00e+00	0	26	0	891289600	69	4435
2026-01-05 23:28:28.59	130.00	36.89	-51.8	-53.4	14.7	0.00e+00	0	27	0	892338176	69	4414
2026-01-05 23:28:29.59	130.36	36.76	-52.0	-53.7	14.6	0.00e+00	0	26	0	894435328	69	4564
2026-01-05 23:28:30.59	130.72	36.64	-52.1	-53.8	14.6	0.00e+00	0	27	0	896532480	69	4627
2026-01-05 23:28:31.59	131.07	36.51	-52.2	-53.9	14.5	0.00e+00	0	27	0	898629632	69	4679
2026-01-05 23:28:32.59	131.42	36.38	-52.4	-54.2	14.4	0.00e+00	0	26	0	900726784	69	4825
2026-01-05 23:28:33.58	131.77	36.26	-52.6	-54.4	14.4	0.00e+00	0	27	0	901775360	70	4703
2026-01-05 23:28:34.58	132.12	36.13	-52.7	-54.5	14.4	0.00e+00	0	27	0	903872512	70	4755
2026-01-05 23:28:35.58	132.46	36.00	-52.8	-54.7	14.3	0.00e+00	0	27	0	905969664	70	4829
2026-01-05 23:28:36.57	132.80	35.87	-52.8	-54.7	14.3	0.00e+00	0	26	0	908066816	70	4827
2026-01-05 23:28:37.56	133.13	35.74	-52.7	-54.5	14.3	0.00e+00	0	26	0	909115392	70	4756
2026-01-05 23:28:38.56	133.47	35.61	-52.4	-54.1	14.5	0.00e+00	0	27	0	911212544	70	4544
2026-01-05 23:28:39.55	133.80	35.48	-52.4	-54.1	14.5	0.00e+00	0	26	0	913309696	70	4539
2026-01-05 23:28:40.55	134.13	35.35	-52.3	-54.1	14.6	0.00e+00	0	27	0	915406848	70	4499
2026-01-05 23:28:41.55	134.46	35.22	-52.4	-54.2	14.5	0.00e+00	0	27	0	917504000	70	4555
2026-01-05 23:28:42.54	134.78	35.09	-52.3	-54.0	14.6	0.00e+00	0	27	0	918552576	70	4465
2026-01-05 23:28:43.54	135.10	34.95	-52.1	-53.8	14.7	0.00e+00	0	27	0	920649728	70	4369
2026-01-05 23:28:44.54	135.42	34.82	-52.1	-53.8	14.7	0.00e+00	0	26	0	922746880	70	4367
2026-01-05 23:28:45.54	135.74	34.68	-52.4	-54.2	14.5	0.00e+00	0	26	0	924844032	70	4565
2026-01-05 23:28:46.54	136.05	34.55	-53.3	-55.3	14.2	0.00e+00	0	26	0	926941184	71	4888
2026-01-05 23:28:47.53	136.36	34.42	-53.5	-55.6	14.1	0.00e+00	0	27	0	927989760	72	4777
2026-01-05 23:28:48.53	136.67	34.28	-53.1	-55.1	14.4	0.00e+00	0	27	0	930086912	72	4500
2026-01-05 23:28:49.52	136.98	34.15	-52.6	-54.4	14.6	0.00e+00	0	27	0	932184064	71	4392
2026-01-05 23:28:50.52	137.28	34.01	-52.6	-54.3	14.6	0.00e+00	0	27	0	934281216	71	4383
2026-01-05 23:28:51.52	137.58	33.87	-52.9	-54.7	14.4	0.00e+00	0	26	0	935329792	71	4572
2026-01-05 23:28:52.51	137.88	33.74	-53.9	-56.0	13.9	0.00e+00	0	26	0	937426944	72	5028
2026-01-05 23:28:53.52	138.18	33.60	-54.9	-57.6	13.4	0.00e+00	0	27	0	939524096	74	5352
2026-01-05 23:28:54.52	138.48	33.46	-55.1	-57.8	13.3	0.00e+00	0	27	0	941621248	75	5168
2026-01-05 23:28:55.53	138.77	33.33	-54.8	-57.3	13.6	0.00e+00	0	27	0	943718400	75	4885
2026-01-05 23:28:56.52	139.06	33.19	-54.3	-56.5	14.0	0.00e+00	0	27	0	944766976	75	4493
2026-01-05 23:28:57.52	139.35	33.05	-54.1	-56.3	14.0	0.00e+00	0	27	0	946864128	74	4641
2026-01-05 23:28:58.51	139.63	32.92	-53.8	-56.0	14.2	0.00e+00	0	26	0	948961280	74	4444
2026-01-05 23:28:59.50	139.91	32.78	-53.6	-55.6	14.2	0.00e+00	0	26	0	951058432	73	4522
2026-01-05 23:29:00.51	140.19	32.64	-54.3	-56.6	13.7	0.00e+00	0	27	0	952107008	73	5095
2026-01-05 23:29:01.51	140.47	32.50	-54.8	-57.3	13.5	0.00e+00	0	27	0	954204160	74	5207
2026-01-05 23:29:02.50	140.75	32.37	-54.7	-57.2	13.6	0.00e+00	0	26	0	956301312	75	4832
2026-01-05 23:29:03.50	141.02	32.23	-53.6	-55.6	14.2	0.00e+00	0	27	0	958398464	73	4514
2026-01-05 23:29:04.50	141.29	32.09	-52.8	-54.6	14.6	0.00e+00	0	26	0	960495616	72	4257
2026-01-05 23:29:05.50	141.56	31.95	-52.6	-54.4	14.5	0.00e+00	0	26	0	961544192	71	4423
2026-01-05 23:29:06.50	141.83	31.81	-52.7	-54.6	14.5	0.00e+00	0	27	0	963641344	71	4500
2026-01-05 23:29:07.50	142.09	31.67	-53.9	-56.1	13.9	0.00e+00	0	27	0	965738496	72	5052
2026-01-05 23:29:08.50	142.35	31.54	-55.0	-57.7	13.3	0.00e+00	0	26	0	967835648	75	5148
2026-01-05 23:29:09.50	142.62	31.40	-55.5	-58.4	13.1	0.00e+00	0	27	0	969932800	76	5248
2026-01-05 23:29:10.49	142.87	31.26	-54.5	-56.9	13.7	0.00e+00	0	27	0	970981376	75	4703
2026-01-05 23:29:11.48	143.12	31.12	-53.3	-55.2	14.4	0.00e+00	0	27	0	973078528	73	4326
2026-01-05 23:29:12.48	143.38	30.99	-52.6	-54.4	14.5	0.00e+00	0	26	0	975175680	71	4414
2026-01-05 23:29:13.47	143.63	30.85	-52.3	-54.1	14.7	0.00e+00	0	26	0	977272832	71	4247
2026-01-05 23:29:14.48	143.88	30.71	-52.3	-54.0	14.7	0.00e+00	0	26	0	978321408	71	4227
2026-01-05 23:29:15.48	144.13	30.57	-53.0	-54.9	14.3	0.00e+00	0	26	0	980418560	71	4674
2026-01-05 23:29:16.47	144.37	30.44	-53.8	-56.0	13.9	0.00e+00	0	26	0	982515712	72	5015
2026-01-05 23:29:17.47	144.62	30.30	-54.6	-57.1	13.5	0.00e+00	0	27	0	984612864	74	5086
2026-01-05 23:29:18.47	144.86	30.16	-54.3	-56.7	13.7	0.00e+00	0	26	0	986710016	74	4842
2026-01-05 23:29:19.47	145.10	30.02	-53.5	-55.6	14.2	0.00e+00	0	27	0	987758592	73	4515
2026-01-05 23:29:20.47	145.33	29.89	-52.8	-54.6	14.6	0.00e+00	0	27	0	989855744	72	4248
2026-01-05 23:29:21.47	145.57	29.75	-52.5	-54.2	14.6	0.00e+00	0	26	0	991952896	71	4312
2026-01-05 23:29:22.48	145.81	29.61	-52.2	-53.8	14.8	0.00e+00	0	26	0	994050048	71	4133
2026-01-05 23:29:23.48	146.04	29.47	-52.5	-54.2	14.5	0.00e+00	0	27	0	996147200	70	4598
2026-01-05 23:29:24.48	146.27	29.34	-53.4	-55.4	14.1	0.00e+00	0	27	0	997195776	71	4950
2026-01-05 23:29:25.48	146.50	29.20	-54.2	-56.6	13.7	0.00e+00	0	27	0	999292928	73	5054
2026-01-05 23:29:26.48	146.72	29.06	-54.5	-57.0	13.6	0.00e+00	0	26	0	1001390080	74	5016
2026-01-05 23:29:27.48	146.95	28.93	-54.0	-56.3	14.0	0.00e+00	0	27	0	1003487232	74	4616
2026-01-05 23:29:28.48	147.17	28.79	-53.4	-55.4	14.3	0.00e+00	0	27	0	1005584384	73	4440
2026-01-05 23:29:29.48	147.39	28.65	-53.2	-55.1	14.4	0.00e+00	0	26	0	1006632960	73	4289
2026-01-05 23:29:30.48	147.61	28.52	-52.2	-53.9	14.7	0.00e+00	0	27	0	1008730112	71	4176
2026-01-05 23:29:31.48	147.83	28.38	-51.9	-53.5	14.8	0.00e+00	0	27	0	1010827264	70	4241
2026-01-05 23:29:32.48	148.04	28.25	-51.8	-53.4	14.8	0.00e+00	0	27	0	1012924416	70	4150
2026-01-05 23:29:33.47	148.25	28.11	-52.2	-53.9	14.6	0.00e+00	0	27	0	1013972992	70	4422
2026-01-05 23:29:34.47	148.46	27.98	-52.9	-54.8	14.2	0.00e+00	0	26	0	1016070144	70	4895
2026-01-05 23:29:35.47	148.67	27.85	-53.4	-55.4	14.1	0.00e+00	0	26	0	1018167296	71	4967
2026-01-05 23:29:36.47	148.88	27.71	-53.4	-55.4	14.1	0.00e+00	0	27	0	1020264448	72	4704
2026-01-05 23:29:37.47	149.09	27.58	-53.1	-55.1	14.3	0.00e+00	0	27	0	1022361600	72	4506
2026-01-05 23:29:38.47	149.29	27.44	-52.9	-54.7	14.5	0.00e+00	0	26	0	1023410176	72	4324
2026-01-05 23:29:39.46	149.49	27.31	-52.9	-54.7	14.5	0.00e+00	0	27	0	1025507328	72	4331
2026-01-05 23:29:40.46	149.70	27.18	-52.2	-53.9	14.7	0.00e+00	0	26	0	1027604480	71	4156
2026-01-05 23:29:41.45	149.89	27.05	-51.8	-53.4	14.8	0.00e+00	0	27	0	1029701632	70	4168
2026-01-05 23:29:42.45	150.09	26.91	-51.8	-53.5	14.8	0.00e+00	0	27	0	1030750208	70	4196
2026-01-05 23:29:43.45	150.29	26.78	-52.4	-54.2	14.5	0.00e+00	0	27	0	1032847360	70	4556
2026-01-05 23:29:44.44	150.48	26.65	-52.9	-54.8	14.2	0.00e+00	0	27	0	1034944512	70	4892
2026-01-05 23:29:45.44	150.68	26.52	-53.0	-54.9	14.3	0.00e+00	0	27	0	1037041664	71	4698
2026-01-05 23:29:46.44	150.87	26.39	-52.9	-54.9	14.3	0.00e+00	0	26	0	1039138816	71	4654
2026-01-05 23:29:47.44	151.06	26.26	-52.4	-54.2	14.6	0.00e+00	0	26	0	1040187392	71	4339
2026-01-05 23:29:48.44	151.25	26.13	-52.2	-53.9	14.7	0.00e+00	0	27	0	1042284544	71	4175
2026-01-05 23:29:49.45	151.44	25.99	-52.2	-53.9	14.6	0.00e+00	0	27	0	1044381696	70	4401
2026-01-05 23:29:50.44	151.62	25.87	-51.2	-53.1	14.9	0.00e+00	0	27	0	1046478848	69	4253
2026-01-05 23:29:51.44	151.81	25.74	-51.4	-52.9	14.9	0.00e+00	0	26	0	1048576000	69	4182
2026-01-05 23:29:52.44	151.99	25.61	-51.5	-53.1	14.8	0.00e+00	0	26	0	1049624576	69	4253
2026-01-05 23:29:53.44	152.17	25.48	-51.6	-53.3	14.8	0.00e+00	0	26	0	1051721728	69	4346
2026-01-05 23:29:54.43	152.35	25.35	-51.9	-53.5	14.6	0.00e+00	0	27	0	1053818880	69	4483
2026-01-05 23:29:55.43	152.53	25.22	-52.2	-54.0	14.5	0.00e+00	0	27	0	1055916032	69	4718
2026-01-05 23:29:56.43	152.71	25.09	-52.4	-54.2	14.4	0.00e+00	0	27	0	1056964608	69	4834
2026-01-05 23:29:57.43	152.88	24.97	-52.6	-54.4	14.4	0.00e+00	0	27	0	1059061760	70	4686
2026-01-05 23:29:58.43	153.06	24.84	-52.8	-54.7	14.3	0.00e+00	0	26	0	1061158912	70	4827
2026-01-05 23:29:59.44	153.23	24.71	-52.7	-54.6	14.3	0.00e+00	0	27	0	1063256064	70	4781
2026-01-05 23:30:00.44	153.40	24.58	-52.8	-54.7	14.3	0.00e+00	0	26	0	1065353216	70	4869
2026-01-05 23:30:01.44	153.57	24.46	-52.6	-54.4	14.4	0.00e+00	0	26	0	1066401792	70	4684
2026-01-05 23:30:02.44	153.74	24.33	-52.3	-54.1	14.5	0.00e+00	0	26	0	1068498944	70	4507
2026-01-05 23:30:03.44	153.91	24.20	-52.3	-54.0	14.5	0.00e+00	0	26	0	1070596096	70	4484
2026-01-05 23:30:04.43	154.08	24.08	-52.1	-53.8	14.6	0.00e+00	0	26	0	1072693248	70	4373
2026-01-05 23:30:05.43	154.24	23.96	-52.1	-53.8	14.6	0.00e+00	0	27	0	1074790400	70	4366
2026-01-05 23:30:06.42	154.40	23.83	-51.9	-53.6	14.7	0.00e+00	0	26	0	1075838976	70	4274
2026-01-05 23:30:07.43	154.57	23.71	-51.9	-53.5	14.8	0.00e+00	0	27	0	1077936128	70	4227
2026-01-05 23:30:08.42	154.73	23.58	-52.0	-53.6	14.7	0.00e+00	0	26	0	1080033280	70	4278
2026-01-05 23:30:09.41	154.89	23.46	-52.1	-53.8	14.6	0.00e+00	0	26	0	1082130432	70	4388
2026-01-05 23:30:10.41	155.05	23.34	-52.1	-53.8	14.6	0.00e+00	0	27	0	1083179008	70	4370
2026-01-05 23:30:11.40	155.20	23.22	-52.3	-54.0	14.5	0.00e+00	0	26	0	1085276160	70	4479
2026-01-05 23:30:12.40	155.36	23.09	-52.3	-54.1	14.5	0.00e+00	0	27	0	1087373312	70	4523
2026-01-05 23:30:13.39	155.51	22.97	-52.3	-54.1	14.5	0.00e+00	0	27	0	1089470464	70	4511
2026-01-05 23:30:14.38	155.67	22.85	-52.3	-54.1	14.5	0.00e+00	0	27	0	1091567616	70	4508
2026-01-05 23:30:15.38	155.82	22.73	-52.4	-54.2	14.5	0.00e+00	0	27	0	1092616192	70	4581
2026-01-05 23:30:16.38	155.97	22.61	-52.3	-54.0	14.5	0.00e+00	0	27	0	1094713344	70	4476
2026-01-05 23:30:17.37	156.12	22.49	-52.3	-54.0	14.5	0.00e+00	0	27	0	1096810496	70	4488
2026-01-05 23:30:18.37	156.27	22.37	-52.2	-54.0	14.6	0.00e+00	0	27	0	1098907648	70	4465
2026-01-05 23:30:19.37	156.42	22.25	-52.3	-54.0	14.5	0.00e+00	0	27	0	1099956224	70	4491
2026-01-05 23:30:20.37	156.57	22.13	-52.3	-54.1	14.5	0.00e+00	0	26	0	1102053376	70	4499
2026-01-05 23:30:21.37	156.71	22.01	-52.3	-54.1	14.5	0.00e+00	0	27	0	1104150528	70	4509
2026-01-05 23:30:22.37	156.86	21.89	-52.4	-54.1	14.5	0.00e+00	0	27	0	1106247680	70	4541
2026-01-05 23:30:23.37	157.00	21.77	-52.5	-54.3	14.4	0.00e+00	0	27	0	1108344832	70	4609
2026-01-05 23:30:24.37	157.15	21.66	-52.4	-54.3	14.4	0.00e+00	0	27	0	1109393408	70	4601
2026-01-05 23:30:25.36	157.29	21.54	-52.5	-54.3	14.4	0.00e+00	0	26	0	1111490560	70	4651
2026-01-05 23:30:26.37	157.43	21.42	-52.8	-54.7	14.3	0.00e+00	0	27	0	1113587712	70	4827
2026-01-05 23:30:27.37	157.57	21.31	-52.7	-54.7	14.3	0.00e+00	0	26	0	1115684864	70	4821
2026-01-05 23:30:28.37	157.71	21.19	-52.9	-54.9	14.2	0.00e+00	0	27	0	1117782016	71	4690
2026-01-05 23:30:29.37	157.85	21.07	-53.0	-55.0	14.2	0.00e+00	0	27	0	1118830592	71	4744
2026-01-05 23:30:30.36	157.98	20.96	-53.1	-55.0	14.2	0.00e+00	0	26	0	1120927744	71	4758
2026-01-05 23:30:31.36	158.12	20.84	-53.1	-55.1	14.2	0.00e+00	0	27	0	1123024896	71	4779
2026-01-05 23:30:32.37	158.26	20.73	-53.1	-55.1	14.2	0.00e+00	0	26	0	1125122048	71	4769
2026-01-05 23:30:33.35	158.39	20.61	-53.0	-55.0	14.2	0.00e+00	0	26	0	1127219200	71	4736
2026-01-05 23:30:34.35	158.52	20.50	-52.9	-54.9	14.3	0.00e+00	0	26	0	1128267776	71	4656
2026-01-05 23:30:35.34	158.65	20.39	-52.6	-54.5	14.5	0.00e+00	0	26	0	1130364928	71	4469
2026-01-05 23:30:36.33	158.78	20.27	-52.7	-54.6	14.4	0.00e+00	0	26	0	1132462080	71	4503
2026-01-05 23:30:37.33	158.91	20.16	-52.7	-54.5	14.4	0.00e+00	0	27	0	1134559232	71	4485
2026-01-05 23:30:38.32	159.04	20.05	-52.5	-54.3	14.5	0.00e+00	0	26	0	1135607808	71	4375
2026-01-05 23:30:39.31	159.17	19.94	-52.6	-54.5	14.4	0.00e+00	0	26	0	1137704960	71	4466
2026-01-05 23:30:40.31	159.30	19.83	-52.6	-54.5	14.4	0.00e+00	0	26	0	1139802112	71	4479
2026-01-05 23:30:41.31	159.42	19.71	-52.7	-54.6	14.4	0.00e+00	0	26	0	1141899264	71	4500
2026-01-05 23:30:42.30	159.55	19.60	-52.8	-54.7	14.4	0.00e+00	0	27	0	1143996416	71	4567
2026-01-05 23:30:43.30	159.67	19.49	-52.8	-54.7	14.4	0.00e+00	0	27	0	1145044992	71	4564
2026-01-05 23:30:44.30	159.80	19.38	-52.9	-54.8	14.3	0.00e+00	0	26	0	1147142144	71	4629
2026-01-05 23:30:45.30	159.92	19.27	-52.9	-54.8	14.3	0.00e+00	0	26	0	1149239296	71	4641
2026-01-05 23:30:46.30	160.04	19.16	-52.9	-54.8	14.3	0.00e+00	0	26	0	1151336448	71	4625
2026-01-05 23:30:47.29	160.16	19.05	-52.8	-54.7	14.3	0.00e+00	0	26	0	1152385024	71	4582
2026-01-05 23:30:48.29	160.28	18.94	-52.8	-54.7	14.4	0.00e+00	0	26	0	1154482176	71	4573
2026-01-05 23:30:49.28	160.40	18.84	-52.8	-54.7	14.3	0.00e+00	0	26	0	1156579328	71	4562
2026-01-05 23:30:50.28	160.52	18.73	-52.6	-54.5	14.4	0.00e+00	0	26	0	1158676480	71	4452
2026-01-05 23:30:51.27	160.64	18.62	-52.4	-54.2	14.6	0.00e+00	0	27	0	1160773632	71	4316
2026-01-05 23:30:52.28	160.76	18.51	-52.4	-54.2	14.6	0.00e+00	0	27	0	1161822208	71	4305
2026-01-05 23:30:53.28	160.88	18.40	-52.4	-54.2	14.6	0.00e+00	0	26	0	1163919360	71	4295
2026-01-05 23:30:54.27	160.99	18.30	-52.3	-54.1	14.6	0.00e+00	0	26	0	1166016512	71	4274
2026-01-05 23:30:55.27	161.11	18.19	-52.4	-54.2	14.6	0.00e+00	0	27	0	1168113664	71	4326
2026-01-05 23:30:56.26	161.22	18.09	-52.5	-54.3	14.5	0.00e+00	0	26	0	1169162240	71	4357
2026-01-05 23:30:57.26	161.33	17.98	-52.6	-54.4	14.5	0.00e+00	0	26	0	1171259392	71	4434
2026-01-05 23:30:58.26	161.45	17.88	-52.7	-54.6	14.4	0.00e+00	0	26	0	1173356544	71	4541
2026-01-05 23:30:59.26	161.56	17.77	-52.9	-54.9	14.3	0.00e+00	0	26	0	1175453696	71	4652
2026-01-05 23:31:00.26	161.67	17.66	-53.1	-55.1	14.1	0.00e+00	0	27	0	1177550848	71	4779
2026-01-05 23:31:01.26	161.78	17.56	-53.1	-55.2	14.0	0.00e+00	0	27	0	1178599424	71	4838
2026-01-05 23:31:02.25	161.89	17.46	-53.1	-55.2	14.0	0.00e+00	0	27	0	1180696576	71	4856
2026-01-05 23:31:03.25	162.00	17.35	-53.3	-55.4	14.0	0.00e+00	0	26	0	1182793728	71	4946
2026-01-05 23:31:04.25	162.11	17.25	-53.3	-55.4	14.0	0.00e+00	0	26	0	1184890880	71	4974
2026-01-05 23:31:05.25	162.21	17.15	-53.3	-55.5	14.0	0.00e+00	0	27	0	1186988032	71	4989
2026-01-05 23:31:06.26	162.32	17.04	-53.4	-55.6	13.9	0.00e+00	0	27	0	1188036608	71	5057
2026-01-05 23:31:07.26	162.43	16.94	-53.4	-55.5	14.0	0.00e+00	0	27	0	1190133760	72	4734
2026-01-05 23:31:08.26	162.53	16.84	-53.3	-55.4	14.1	0.00e+00	0	27	0	1192230912	72	4675
2026-01-05 23:31:09.26	162.64	16.74	-53.4	-55.5	14.1	0.00e+00	0	26	0	1194328064	72	4711
2026-01-05 23:31:10.26	162.74	16.63	-53.2	-55.3	14.1	0.00e+00	0	26	0	1195376640	72	4639
2026-01-05 23:31:11.26	162.85	16.53	-53.2	-55.3	14.2	0.00e+00	0	27	0	1197473792	72	4622
2026-01-05 23:31:12.26	162.95	16.43	-53.2	-55.3	14.2	0.00e+00	0	26	0	1199570944	72	4634
2026-01-05 23:31:13.26	163.05	16.33	-53.1	-55.2	14.2	0.00e+00	0	26	0	1201668096	72	4550
2026-01-05 23:31:14.26	163.15	16.23	-53.1	-55.1	14.2	0.00e+00	0	27	0	1203765248	72	4528
2026-01-05 23:31:15.26	163.26	16.13	-53.1	-55.2	14.2	0.00e+00	0	26	0	1204813824	72	4563
2026-01-05 23:31:16.25	163.36	16.03	-53.1	-55.1	14.2	0.00e+00	0	26	0	1206910976	72	4527
2026-01-05 23:31:17.25	163.45	15.93	-53.0	-55.0	14.3	0.00e+00	0	27	0	1209008128	72	4484
2026-01-05 23:31:18.25	163.55	15.83	-53.0	-55.0	14.3	0.00e+00	0	27	0	1211105280	72	4442
2026-01-05 23:31:19.25	163.65	15.74	-53.0	-55.0	14.3	0.00e+00	0	26	0	1213202432	72	4471
2026-01-05 23:31:20.24	163.75	15.64	-53.0	-55.0	14.3	0.00e+00	0	27	0	1214251008	72	4474
2026-01-05 23:31:21.25	163.85	15.54	-53.1	-55.1	14.2	0.00e+00	0	27	0	1216348160	72	4518
2026-01-05 23:31:22.25	163.94	15.44	-53.0	-54.9	14.3	0.00e+00	0	27	0	1218445312	72	4433
2026-01-05 23:31:23.24	164.04	15.35	-52.9	-54.9	14.3	0.00e+00	0	27	0	1220542464	72	4431
2026-01-05 23:31:24.24	164.14	15.25	-53.0	-55.0	14.3	0.00e+00	0	27	0	1222639616	72	4478
2026-01-05 23:31:25.23	164.23	15.15	-53.0	-55.0	14.3	0.00e+00	0	27	0	1223688192	72	4446
2026-01-05 23:31:26.23	164.32	15.06	-52.9	-54.9	14.3	0.00e+00	0	27	0	1225785344	72	4438
2026-01-05 23:31:27.24	164.42	14.96	-53.1	-55.1	14.2	0.00e+00	0	27	0	1227882496	72	4505
2026-01-05 23:31:28.23	164.51	14.87	-53.0	-55.1	14.3	0.00e+00	0	26	0	1229979648	72	4497
2026-01-05 23:31:29.23	164.60	14.77	-53.1	-55.1	14.2	0.00e+00	0	26	0	1231028224	72	4521
2026-01-05 23:31:30.23	164.70	14.67	-53.1	-55.1	14.2	0.00e+00	0	27	0	1233125376	72	4517
2026-01-05 23:31:31.23	164.79	14.58	-53.1	-55.2	14.2	0.00e+00	0	27	0	1235222528	72	4566
2026-01-05 23:31:32.23	164.88	14.49	-53.1	-55.2	14.2	0.00e+00	0	27	0	1237319680	72	4562
2026-01-05 23:31:33.23	164.97	14.39	-53.1	-55.2	14.2	0.00e+00	0	26	0	1239416832	72	4577
2026-01-05 23:31:34.23	165.06	14.30	-53.3	-55.4	14.1	0.00e+00	0	26	0	1240465408	72	4655
2026-01-05 23:31:35.23	165.15	14.20	-53.2	-55.3	14.1	0.00e+00	0	27	0	1242562560	72	4619
2026-01-05 23:31:36.21	165.23	14.11	-53.2	-55.3	14.1	0.00e+00	0	26	0	1244659712	72	4610
2026-01-05 23:31:37.20	165.32	14.02	-53.3	-55.4	14.1	0.00e+00	0	27	0	1246756864	72	4665
2026-01-05 23:31:38.20	165.41	13.93	-53.2	-55.2	14.1	0.00e+00	0	27	0	1247805440	72	4598
2026-01-05 23:31:39.19	165.50	13.84	-53.3	-55.4	14.1	0.00e+00	0	26	0	1249902592	72	4685
2026-01-05 23:31:40.19	165.58	13.74	-53.3	-55.4	14.1	0.00e+00	0	26	0	1251999744	72	4667
