passes_logs/2026/01/05/R3.2S_Murmansk/R3.2S_Murmansk__20260105_211853_SUOMI_NPP_rec.log

#Pass ID: 20260105_211853_SUOMI NPP
#Satellite: SUOMI NPP
#Configuration: NPP
#almurnet v.1.7.20251203
#Start time: 2026-01-05 21:18:54

#Version: 2.2.20231116
#Station: R3.2S_Murmansk
#Location: 33.079688 lon 68.888172 lat
#TLE: 1 37849U 11061A   26004.95404768  .00000136  00000+0  85334-4 0  9991
#TLE: 2 37849  98.7801 307.0898 0002575  80.6707 279.4760 14.19522289735281

#Time	Az	El	Level	Level2	SNR	BER	BlckErr	Temp	State	Recorded	gain1	gain2
2026-01-05 21:18:54.56	18.66	2.05	-57.9	-73.9	3.8	1.49e+00	0	25	0	0	82	22018
2026-01-05 21:18:55.56	18.76	2.09	-57.8	-73.8	3.8	1.49e+00	0	25	104	0	80	24494
2026-01-05 21:18:56.56	18.86	2.13	-57.8	-73.7	3.8	1.49e+00	0	25	104	0	80	24359
2026-01-05 21:18:57.56	18.96	2.18	-57.8	-73.7	3.8	1.49e+00	0	25	104	0	80	24337
2026-01-05 21:18:58.57	19.06	2.22	-57.8	-73.7	3.8	1.49e+00	0	25	104	0	80	24280
2026-01-05 21:18:59.57	19.16	2.27	-57.8	-73.7	3.8	1.49e+00	0	25	104	0	80	24243
2026-01-05 21:19:00.58	19.26	2.31	-57.8	-73.7	3.8	1.49e+00	0	25	104	0	80	24239
2026-01-05 21:19:01.58	19.37	2.35	-57.8	-73.7	3.8	1.49e+00	0	25	104	0	80	24307
2026-01-05 21:19:02.58	19.47	2.40	-57.8	-73.7	3.8	1.49e+00	0	25	104	0	80	24335
2026-01-05 21:19:03.59	19.57	2.44	-57.8	-73.7	3.8	1.49e+00	0	25	104	0	80	24367
2026-01-05 21:19:04.60	19.67	2.49	-57.8	-73.8	3.8	1.49e+00	0	25	104	0	80	24468
2026-01-05 21:19:05.59	19.77	2.53	-57.8	-73.8	3.8	1.49e+00	0	25	104	0	80	24533
2026-01-05 21:19:06.60	19.88	2.57	-57.8	-73.8	3.8	1.49e+00	0	25	104	0	80	24531
2026-01-05 21:19:07.60	19.98	2.62	-57.8	-73.8	3.8	1.49e+00	0	25	104	0	80	24459
2026-01-05 21:19:08.61	20.09	2.66	-57.8	-73.8	3.8	1.49e+00	0	25	104	0	80	24433
2026-01-05 21:19:09.61	20.19	2.71	-57.8	-73.7	3.8	1.49e+00	0	25	104	0	80	24336
2026-01-05 21:19:10.61	20.29	2.75	-57.8	-73.7	3.8	1.49e+00	0	25	104	0	80	24344
2026-01-05 21:19:11.61	20.40	2.79	-57.8	-73.7	3.8	1.49e+00	0	25	104	0	80	24372
2026-01-05 21:19:12.60	20.50	2.84	-57.9	-73.8	3.8	1.49e+00	0	25	104	0	80	24444
2026-01-05 21:19:13.62	20.61	2.88	-57.8	-73.8	3.8	1.49e+00	0	25	104	0	80	24547
2026-01-05 21:19:14.62	20.71	2.92	-57.8	-73.8	3.8	1.49e+00	0	25	104	0	80	24548
2026-01-05 21:19:15.62	20.82	2.97	-57.8	-73.8	3.8	1.49e+00	0	25	104	0	80	24582
2026-01-05 21:19:16.62	20.92	3.01	-57.8	-73.8	3.8	1.49e+00	0	25	104	0	80	24627
2026-01-05 21:19:17.63	21.03	3.06	-57.8	-73.8	3.8	1.49e+00	0	25	104	0	80	24643
2026-01-05 21:19:18.63	21.14	3.10	-57.8	-73.8	3.8	1.49e+00	0	25	104	0	80	24654
2026-01-05 21:19:19.63	21.24	3.14	-57.8	-73.8	3.8	1.49e+00	0	25	104	0	80	24665
2026-01-05 21:19:20.64	21.35	3.19	-57.9	-73.9	3.8	1.49e+00	0	25	104	0	80	24700
2026-01-05 21:19:21.64	21.46	3.23	-57.8	-73.8	3.8	1.49e+00	0	25	104	0	80	24613
2026-01-05 21:19:22.64	21.57	3.28	-57.9	-73.8	3.8	1.49e+00	0	25	104	0	80	24534
2026-01-05 21:19:23.64	21.67	3.32	-57.9	-73.8	3.8	1.49e+00	0	25	104	0	80	24537
2026-01-05 21:19:24.64	21.78	3.36	-57.9	-73.7	3.8	1.49e+00	0	25	104	0	80	24338
2026-01-05 21:19:25.64	21.89	3.41	-57.8	-73.7	3.8	1.49e+00	0	25	104	0	80	24170
2026-01-05 21:19:26.64	22.00	3.45	-57.9	-73.8	3.8	1.49e+00	0	26	104	0	80	24425
2026-01-05 21:19:27.64	22.11	3.49	-57.9	-73.8	3.8	1.49e+00	0	25	104	0	80	24612
2026-01-05 21:19:28.64	22.22	3.54	-57.9	-73.8	3.8	1.49e+00	0	26	104	0	80	24558
2026-01-05 21:19:29.64	22.33	3.58	-57.9	-73.8	3.8	1.49e+00	0	26	104	0	80	24633
2026-01-05 21:19:30.64	22.44	3.62	-57.9	-73.9	3.8	1.49e+00	0	26	104	0	80	24700
2026-01-05 21:19:31.65	22.55	3.67	-57.9	-73.8	3.8	1.49e+00	0	26	104	0	80	24438
2026-01-05 21:19:32.66	22.66	3.71	-57.9	-73.8	3.8	1.49e+00	0	26	104	0	80	24441
2026-01-05 21:19:33.66	22.77	3.76	-57.9	-73.8	3.8	1.49e+00	0	26	104	0	80	24526
2026-01-05 21:19:34.66	22.88	3.80	-57.9	-73.8	3.8	1.49e+00	0	26	104	0	80	24586
2026-01-05 21:19:35.67	22.99	3.84	-57.9	-73.8	3.8	1.49e+00	0	26	104	0	80	24615
2026-01-05 21:19:36.68	23.11	3.89	-57.9	-73.7	3.8	1.49e+00	0	26	104	0	80	24360
2026-01-05 21:19:37.68	23.22	3.93	-57.8	-73.6	3.8	1.49e+00	0	26	104	0	80	24010
2026-01-05 21:19:38.68	23.33	3.97	-57.8	-73.5	3.8	1.49e+00	0	26	104	0	80	23696
2026-01-05 21:19:39.69	23.44	4.02	-57.9	-73.6	3.8	1.49e+00	0	26	104	0	80	23917
2026-01-05 21:19:40.68	23.56	4.06	-57.9	-73.6	3.8	1.49e+00	0	26	104	0	80	24101
2026-01-05 21:19:41.69	23.67	4.10	-57.9	-73.7	3.8	1.49e+00	0	26	104	0	80	24309
2026-01-05 21:19:42.69	23.78	4.15	-57.8	-73.8	3.8	1.49e+00	0	26	104	0	80	24457
2026-01-05 21:19:43.70	23.90	4.19	-57.9	-73.7	3.8	1.49e+00	0	26	104	0	80	24203
2026-01-05 21:19:44.70	24.01	4.23	-57.8	-73.3	3.8	1.49e+00	0	26	104	0	80	23116
2026-01-05 21:19:45.71	24.13	4.28	-57.8	-72.7	3.8	1.49e+00	0	26	104	0	80	21538
2026-01-05 21:19:46.71	24.24	4.32	-57.8	-72.1	3.8	1.49e+00	0	26	104	0	80	20285
2026-01-05 21:19:47.72	24.36	4.37	-57.8	-71.8	3.8	1.49e+00	0	26	104	0	80	19599
2026-01-05 21:19:48.73	24.48	4.41	-57.8	-71.7	3.9	1.48e+00	0	26	104	0	80	19261
2026-01-05 21:19:49.73	24.59	4.45	-57.7	-70.8	4.1	1.48e+00	0	26	104	0	80	17289
2026-01-05 21:19:50.73	24.71	4.50	-57.6	-68.6	4.8	1.15e+00	0	26	0	0	80	13545
2026-01-05 21:19:51.74	24.83	4.54	-57.3	-66.0	6.3	4.01e-01	0	26	0	2097152	80	9952
2026-01-05 21:19:52.74	24.94	4.58	-56.8	-63.7	8.1	1.01e-01	0	26	0	4194304	80	7689
2026-01-05 21:19:53.74	25.06	4.62	-56.1	-61.5	10.0	4.20e-03	0	26	0	6291456	78	6652
2026-01-05 21:19:54.74	25.18	4.67	-55.5	-59.9	11.2	2.62e-04	0	26	0	7340032	77	5902
2026-01-05 21:19:55.75	25.30	4.71	-55.0	-58.9	11.8	2.67e-05	0	26	0	9437184	76	5571
2026-01-05 21:19:56.76	25.42	4.75	-54.8	-58.5	12.2	7.00e-07	0	26	0	11534336	76	5295
2026-01-05 21:19:57.76	25.54	4.80	-55.0	-58.9	11.8	7.00e-07	0	26	0	13631488	76	5574
2026-01-05 21:19:58.77	25.66	4.84	-55.2	-59.3	11.5	3.80e-06	0	26	0	15728640	76	5852
2026-01-05 21:19:59.78	25.78	4.88	-55.5	-60.0	11.1	3.50e-05	0	26	0	16777216	76	6295
2026-01-05 21:20:00.78	25.90	4.93	-55.8	-60.7	10.4	3.10e-04	0	26	0	18874368	76	6875
2026-01-05 21:20:01.79	26.02	4.97	-56.3	-62.1	9.5	1.49e-03	0	26	0	20971520	77	7564
2026-01-05 21:20:02.80	26.14	5.01	-56.6	-63.2	8.6	7.54e-03	0	26	0	23068672	78	8154
2026-01-05 21:20:03.80	26.26	5.06	-56.4	-62.2	9.5	1.04e-02	0	26	0	25165824	78	7223
2026-01-05 21:20:04.80	26.38	5.10	-55.3	-59.5	11.5	9.77e-04	0	26	0	26214400	77	5606
2026-01-05 21:20:05.81	26.50	5.14	-57.3	-66.3	6.2	2.33e-03	0	26	0	28311552	79	10964
2026-01-05 21:20:06.81	26.63	5.19	-57.0	-65.9	6.2	1.73e-01	0	26	0	30408704	80	9854
2026-01-05 21:20:07.81	26.75	5.23	-54.2	-57.3	12.9	1.74e-02	0	26	0	32505856	74	5183
2026-01-05 21:20:08.82	26.87	5.27	-54.3	-57.5	12.8	0.00e+00	0	26	0	34603008	74	5282
2026-01-05 21:20:09.82	26.99	5.31	-54.2	-57.4	12.8	0.00e+00	0	26	0	35651584	74	5238
2026-01-05 21:20:10.82	27.12	5.36	-54.2	-57.3	12.9	0.00e+00	0	26	0	37748736	74	5195
2026-01-05 21:20:11.83	27.24	5.40	-53.8	-56.7	13.3	0.00e+00	0	26	0	39845888	74	4831
2026-01-05 21:20:12.83	27.37	5.44	-53.9	-56.8	13.1	0.00e+00	0	26	0	41943040	73	5209
2026-01-05 21:20:13.83	27.49	5.48	-53.9	-56.9	13.1	0.00e+00	0	26	0	44040192	73	5238
2026-01-05 21:20:14.83	27.61	5.53	-53.9	-56.9	13.0	0.00e+00	0	26	0	45088768	73	5247
2026-01-05 21:20:15.83	27.74	5.57	-54.2	-57.3	12.8	0.00e+00	0	26	0	47185920	73	5502
2026-01-05 21:20:16.83	27.86	5.61	-54.1	-57.1	12.9	0.00e+00	0	26	0	49283072	73	5394
2026-01-05 21:20:17.83	27.99	5.65	-54.3	-57.4	12.8	0.00e+00	0	26	0	51380224	73	5574
2026-01-05 21:20:18.83	28.11	5.70	-54.1	-57.1	12.9	0.00e+00	0	26	0	53477376	73	5392
2026-01-05 21:20:19.83	28.24	5.74	-54.2	-57.4	12.8	0.00e+00	0	26	0	54525952	73	5559
2026-01-05 21:20:20.82	28.37	5.78	-54.1	-57.2	12.9	0.00e+00	0	26	0	56623104	73	5427
2026-01-05 21:20:21.83	28.49	5.82	-53.9	-56.8	13.1	0.00e+00	0	26	0	58720256	73	5206
2026-01-05 21:20:22.84	28.62	5.86	-53.8	-56.6	13.2	0.00e+00	0	26	0	60817408	73	5074
2026-01-05 21:20:23.83	28.75	5.91	-53.7	-56.5	13.3	0.00e+00	0	26	0	61865984	73	5012
2026-01-05 21:20:24.83	28.88	5.95	-53.6	-56.3	13.4	0.00e+00	0	26	0	63963136	73	4919
2026-01-05 21:20:25.83	29.01	5.99	-53.4	-56.1	13.5	0.00e+00	0	26	0	66060288	73	4791
2026-01-05 21:20:26.84	29.14	6.03	-53.7	-56.6	13.3	0.00e+00	0	26	0	68157440	73	5049
2026-01-05 21:20:27.84	29.26	6.07	-53.9	-56.8	13.2	0.00e+00	0	26	0	70254592	73	5195
2026-01-05 21:20:28.84	29.39	6.12	-53.7	-56.6	13.3	0.00e+00	0	26	0	71303168	73	5067
2026-01-05 21:20:29.84	29.52	6.16	-53.8	-56.8	13.2	0.00e+00	0	26	0	73400320	73	5166
2026-01-05 21:20:30.84	29.65	6.20	-53.8	-56.8	13.1	0.00e+00	0	26	0	75497472	73	5180
2026-01-05 21:20:31.85	29.79	6.24	-53.8	-56.7	13.2	0.00e+00	0	26	0	77594624	73	5116
2026-01-05 21:20:32.85	29.92	6.28	-53.8	-56.7	13.2	0.00e+00	0	26	0	79691776	73	5116
2026-01-05 21:20:33.85	30.05	6.32	-53.9	-56.9	13.1	0.00e+00	0	26	0	80740352	73	5221
2026-01-05 21:20:34.85	30.18	6.37	-53.8	-56.7	13.2	0.00e+00	0	26	0	82837504	73	5138
2026-01-05 21:20:35.84	30.31	6.41	-53.7	-56.6	13.3	0.00e+00	0	26	0	84934656	73	5054
2026-01-05 21:20:36.85	30.44	6.45	-53.7	-56.6	13.2	0.00e+00	0	26	0	87031808	73	5068
2026-01-05 21:20:37.85	30.58	6.49	-53.6	-56.3	13.4	0.00e+00	0	26	0	89128960	73	4924
2026-01-05 21:20:38.86	30.71	6.53	-53.5	-56.2	13.5	0.00e+00	0	26	0	90177536	73	4849
2026-01-05 21:20:39.86	30.84	6.57	-53.6	-56.3	13.4	0.00e+00	0	26	0	92274688	73	4902
2026-01-05 21:20:40.86	30.98	6.61	-53.6	-56.4	13.4	0.00e+00	0	26	0	94371840	73	4930
2026-01-05 21:20:41.87	31.11	6.65	-53.6	-56.3	13.5	0.00e+00	0	26	0	96468992	73	4908
2026-01-05 21:20:42.86	31.24	6.69	-53.7	-56.6	13.3	0.00e+00	0	26	0	98566144	73	5048
2026-01-05 21:20:43.86	31.38	6.74	-53.6	-56.4	13.4	0.00e+00	0	26	0	99614720	73	4949
2026-01-05 21:20:44.86	31.51	6.78	-53.6	-56.5	13.4	0.00e+00	0	26	0	101711872	73	4984
2026-01-05 21:20:45.86	31.65	6.82	-53.7	-56.5	13.3	0.00e+00	0	26	0	103809024	73	4999
2026-01-05 21:20:46.86	31.79	6.86	-53.5	-56.3	13.5	0.00e+00	0	26	0	105906176	73	4884
2026-01-05 21:20:47.87	31.92	6.90	-53.5	-56.3	13.5	0.00e+00	0	26	0	106954752	73	4886
2026-01-05 21:20:48.88	32.06	6.94	-53.7	-56.6	13.3	0.00e+00	0	26	0	109051904	73	5057
2026-01-05 21:20:49.88	32.20	6.98	-53.6	-56.3	13.5	0.00e+00	0	26	0	111149056	73	4902
2026-01-05 21:20:50.88	32.34	7.02	-53.6	-56.4	13.4	0.00e+00	0	26	0	113246208	73	4928
2026-01-05 21:20:51.88	32.47	7.06	-53.4	-56.0	13.6	0.00e+00	0	26	0	115343360	73	4758
2026-01-05 21:20:52.89	32.61	7.10	-53.5	-56.2	13.5	0.00e+00	0	26	0	116391936	73	4869
2026-01-05 21:20:53.89	32.75	7.14	-53.6	-56.3	13.5	0.00e+00	0	26	0	118489088	73	4906
2026-01-05 21:20:54.89	32.89	7.18	-53.6	-56.4	13.4	0.00e+00	0	26	0	120586240	73	4932
2026-01-05 21:20:55.89	33.03	7.22	-53.8	-56.8	13.2	0.00e+00	0	26	0	122683392	73	5162
2026-01-05 21:20:56.88	33.17	7.26	-53.7	-56.5	13.4	0.00e+00	0	26	0	124780544	73	5029
2026-01-05 21:20:57.88	33.31	7.30	-53.7	-56.6	13.3	0.00e+00	0	26	0	125829120	73	5069
2026-01-05 21:20:58.88	33.45	7.34	-53.9	-56.8	13.2	0.00e+00	0	26	0	127926272	73	5179
2026-01-05 21:20:59.88	33.59	7.38	-53.9	-56.8	13.2	0.00e+00	0	27	0	130023424	73	5217
2026-01-05 21:21:00.88	33.73	7.42	-53.8	-56.7	13.3	0.00e+00	0	26	0	132120576	73	5105
2026-01-05 21:21:01.89	33.87	7.46	-53.6	-56.3	13.5	0.00e+00	0	26	0	134217728	73	4883
2026-01-05 21:21:02.88	34.01	7.50	-53.6	-56.3	13.5	0.00e+00	0	27	0	135266304	73	4882
2026-01-05 21:21:03.89	34.16	7.54	-53.5	-56.2	13.5	0.00e+00	0	26	0	137363456	73	4834
2026-01-05 21:21:04.89	34.30	7.58	-53.5	-56.2	13.5	0.00e+00	0	26	0	139460608	73	4825
2026-01-05 21:21:05.88	34.44	7.62	-53.4	-56.0	13.6	0.00e+00	0	26	0	141557760	73	4735
2026-01-05 21:21:06.89	34.58	7.66	-53.6	-56.3	13.5	0.00e+00	0	26	0	142606336	73	4900
2026-01-05 21:21:07.89	34.73	7.69	-53.6	-56.3	13.5	0.00e+00	0	26	0	144703488	73	4878
2026-01-05 21:21:08.89	34.87	7.73	-53.7	-56.4	13.3	0.00e+00	0	26	0	146800640	73	4983
2026-01-05 21:21:09.89	35.02	7.77	-53.8	-56.6	13.3	0.00e+00	0	27	0	148897792	73	5089
2026-01-05 21:21:10.89	35.16	7.81	-53.8	-56.6	13.3	0.00e+00	0	26	0	150994944	73	5094
2026-01-05 21:21:11.89	35.31	7.85	-53.8	-56.7	13.2	0.00e+00	0	26	0	152043520	73	5141
2026-01-05 21:21:12.89	35.45	7.89	-53.9	-56.8	13.1	0.00e+00	0	26	0	154140672	73	5217
2026-01-05 21:21:13.89	35.60	7.93	-53.9	-56.8	13.2	0.00e+00	0	26	0	156237824	73	5218
2026-01-05 21:21:14.90	35.74	7.97	-53.9	-56.8	13.2	0.00e+00	0	27	0	158334976	73	5216
2026-01-05 21:21:15.91	35.89	8.00	-53.9	-56.9	13.1	0.00e+00	0	26	0	160432128	73	5255
2026-01-05 21:21:16.91	36.04	8.04	-53.7	-56.6	13.3	0.00e+00	0	27	0	161480704	73	5060
2026-01-05 21:21:17.91	36.19	8.08	-53.7	-56.5	13.4	0.00e+00	0	26	0	163577856	73	4986
2026-01-05 21:21:18.91	36.33	8.12	-53.5	-56.3	13.5	0.00e+00	0	26	0	165675008	73	4876
2026-01-05 21:21:19.92	36.48	8.16	-53.5	-56.2	13.6	0.00e+00	0	27	0	167772160	73	4828
2026-01-05 21:21:20.93	36.63	8.19	-53.4	-56.0	13.7	0.00e+00	0	26	0	169869312	73	4717
2026-01-05 21:21:21.93	36.78	8.23	-53.4	-56.0	13.6	0.00e+00	0	26	0	170917888	73	4734
2026-01-05 21:21:22.94	36.93	8.27	-53.4	-56.0	13.7	0.00e+00	0	26	0	173015040	73	4709
2026-01-05 21:21:23.94	37.08	8.31	-53.5	-56.2	13.5	0.00e+00	0	27	0	175112192	73	4862
2026-01-05 21:21:24.94	37.23	8.34	-53.7	-56.4	13.4	0.00e+00	0	26	0	177209344	73	4974
2026-01-05 21:21:25.95	37.38	8.38	-53.7	-56.5	13.4	0.00e+00	0	26	0	179306496	73	5023
2026-01-05 21:21:26.95	37.53	8.42	-53.8	-56.6	13.3	0.00e+00	0	26	0	180355072	73	5056
2026-01-05 21:21:27.95	37.69	8.46	-53.7	-56.4	13.4	0.00e+00	0	26	0	182452224	73	4971
2026-01-05 21:21:28.94	37.84	8.49	-53.8	-56.7	13.3	0.00e+00	0	27	0	184549376	73	5126
2026-01-05 21:21:29.94	37.99	8.53	-53.9	-56.7	13.3	0.00e+00	0	26	0	186646528	73	5155
2026-01-05 21:21:30.95	38.14	8.57	-53.9	-56.7	13.3	0.00e+00	0	26	0	187695104	73	5158
2026-01-05 21:21:31.95	38.29	8.60	-53.9	-56.8	13.2	0.00e+00	0	26	0	189792256	73	5167
2026-01-05 21:21:32.95	38.45	8.64	-53.9	-56.8	13.2	0.00e+00	0	27	0	191889408	73	5182
2026-01-05 21:21:33.96	38.60	8.67	-54.0	-56.8	13.2	0.00e+00	0	27	0	193986560	73	5215
2026-01-05 21:21:34.95	38.75	8.71	-54.0	-56.9	13.2	0.00e+00	0	27	0	196083712	73	5268
2026-01-05 21:21:35.95	38.91	8.75	-54.0	-57.0	13.1	0.00e+00	0	26	0	197132288	73	5296
2026-01-05 21:21:36.96	39.06	8.78	-53.9	-56.8	13.2	0.00e+00	0	27	0	199229440	73	5216
2026-01-05 21:21:37.96	39.22	8.82	-54.0	-57.0	13.1	0.00e+00	0	26	0	201326592	73	5326
2026-01-05 21:21:38.96	39.37	8.85	-54.0	-56.9	13.1	0.00e+00	0	26	0	203423744	73	5277
2026-01-05 21:21:39.96	39.53	8.89	-54.0	-57.0	13.1	0.00e+00	0	26	0	205520896	73	5295
2026-01-05 21:21:40.97	39.69	8.92	-54.0	-57.0	13.2	0.00e+00	0	27	0	206569472	73	5283
2026-01-05 21:21:41.96	39.84	8.96	-54.0	-56.9	13.2	0.00e+00	0	26	0	208666624	73	5256
2026-01-05 21:21:42.97	40.00	9.00	-53.9	-56.8	13.2	0.00e+00	0	26	0	210763776	73	5201
2026-01-05 21:21:43.97	40.16	9.03	-53.8	-56.6	13.3	0.00e+00	0	26	0	212860928	73	5093
2026-01-05 21:21:44.97	40.31	9.06	-53.7	-56.6	13.4	0.00e+00	0	27	0	214958080	73	5050
2026-01-05 21:21:45.97	40.47	9.10	-53.8	-56.6	13.3	0.00e+00	0	27	0	216006656	73	5081
2026-01-05 21:21:46.97	40.63	9.13	-53.7	-56.5	13.4	0.00e+00	0	27	0	218103808	73	5005
2026-01-05 21:21:47.98	40.79	9.17	-53.6	-56.3	13.5	0.00e+00	0	27	0	220200960	73	4889
2026-01-05 21:21:48.98	40.95	9.20	-53.7	-56.4	13.4	0.00e+00	0	27	0	222298112	73	4960
2026-01-05 21:21:49.98	41.11	9.24	-53.7	-56.5	13.4	0.00e+00	0	27	0	224395264	73	4996
2026-01-05 21:21:50.98	41.27	9.27	-53.7	-56.5	13.4	0.00e+00	0	27	0	225443840	73	5016
2026-01-05 21:21:51.99	41.43	9.30	-53.7	-56.4	13.5	0.00e+00	0	27	0	227540992	73	4981
2026-01-05 21:21:53.00	41.59	9.34	-53.7	-56.5	13.4	0.00e+00	0	27	0	229638144	73	5030
2026-01-05 21:21:53.99	41.75	9.37	-53.8	-56.6	13.3	0.00e+00	0	27	0	231735296	73	5097
2026-01-05 21:21:55.00	41.91	9.41	-53.8	-56.6	13.3	0.00e+00	0	27	0	232783872	73	5069
2026-01-05 21:21:56.00	42.07	9.44	-53.9	-56.7	13.3	0.00e+00	0	27	0	234881024	73	5154
2026-01-05 21:21:57.00	42.23	9.47	-53.9	-56.8	13.2	0.00e+00	0	26	0	236978176	73	5215
2026-01-05 21:21:58.01	42.40	9.51	-53.9	-56.7	13.3	0.00e+00	0	27	0	239075328	73	5156
2026-01-05 21:21:59.02	42.56	9.54	-53.7	-56.5	13.4	0.00e+00	0	27	0	241172480	73	5024
2026-01-05 21:22:00.02	42.72	9.57	-53.6	-56.4	13.5	0.00e+00	0	27	0	242221056	73	4952
2026-01-05 21:22:01.02	42.89	9.60	-53.6	-56.3	13.5	0.00e+00	0	26	0	244318208	73	4926
2026-01-05 21:22:02.02	43.05	9.64	-53.5	-56.1	13.6	0.00e+00	0	26	0	246415360	73	4808
2026-01-05 21:22:03.02	43.21	9.67	-53.3	-55.9	13.7	0.00e+00	0	27	0	248512512	73	4681
2026-01-05 21:22:04.02	43.38	9.70	-53.2	-55.7	13.8	0.00e+00	0	27	0	250609664	73	4579
2026-01-05 21:22:05.02	43.54	9.73	-53.1	-55.5	13.8	0.00e+00	0	26	0	251658240	72	4754
2026-01-05 21:22:06.03	43.71	9.76	-53.1	-55.6	13.8	0.00e+00	0	27	0	253755392	72	4785
2026-01-05 21:22:07.03	43.87	9.79	-53.1	-55.5	13.8	0.00e+00	0	26	0	255852544	72	4752
2026-01-05 21:22:08.04	44.04	9.83	-53.2	-55.8	13.7	0.00e+00	0	26	0	257949696	72	4897
2026-01-05 21:22:09.05	44.21	9.86	-53.4	-56.0	13.6	0.00e+00	0	27	0	260046848	72	5003
2026-01-05 21:22:10.04	44.37	9.89	-53.4	-56.1	13.5	0.00e+00	0	27	0	261095424	72	5083
2026-01-05 21:22:11.05	44.54	9.92	-53.5	-56.3	13.4	0.00e+00	0	26	0	263192576	72	5161
2026-01-05 21:22:12.05	44.71	9.95	-53.7	-56.6	13.3	0.00e+00	0	27	0	265289728	72	5347
2026-01-05 21:22:13.05	44.87	9.98	-53.7	-56.5	13.3	0.00e+00	0	27	0	267386880	72	5337
2026-01-05 21:22:14.05	45.04	10.01	-53.7	-56.5	13.3	0.00e+00	0	27	0	269484032	72	5339
2026-01-05 21:22:15.05	45.21	10.04	-53.7	-56.5	13.3	0.00e+00	0	27	0	270532608	72	5287
2026-01-05 21:22:16.05	45.38	10.07	-53.7	-56.5	13.3	0.00e+00	0	27	0	272629760	72	5332
2026-01-05 21:22:17.06	45.55	10.10	-53.7	-56.5	13.4	0.00e+00	0	27	0	274726912	72	5287
2026-01-05 21:22:18.07	45.72	10.13	-53.6	-56.4	13.4	0.00e+00	0	27	0	276824064	72	5237
2026-01-05 21:22:19.07	45.89	10.16	-53.7	-56.5	13.4	0.00e+00	0	26	0	278921216	72	5284
2026-01-05 21:22:20.07	46.06	10.19	-53.6	-56.4	13.4	0.00e+00	0	27	0	279969792	72	5247
2026-01-05 21:22:21.07	46.23	10.22	-53.5	-56.1	13.5	0.00e+00	0	26	0	282066944	72	5085
2026-01-05 21:22:22.07	46.40	10.25	-53.4	-56.1	13.5	0.00e+00	0	27	0	284164096	72	5050
2026-01-05 21:22:23.07	46.57	10.28	-53.4	-56.1	13.6	0.00e+00	0	26	0	286261248	72	5065
2026-01-05 21:22:24.07	46.74	10.30	-53.4	-56.0	13.6	0.00e+00	0	26	0	287309824	72	4995
2026-01-05 21:22:25.07	46.91	10.33	-53.3	-55.9	13.6	0.00e+00	0	26	0	289406976	72	4969
2026-01-05 21:22:26.08	47.08	10.36	-53.3	-55.9	13.6	0.00e+00	0	26	0	291504128	72	4935
2026-01-05 21:22:27.08	47.25	10.39	-53.2	-55.6	13.8	0.00e+00	0	27	0	293601280	72	4806
2026-01-05 21:22:28.08	47.43	10.42	-53.1	-55.6	13.8	0.00e+00	0	27	0	295698432	72	4775
2026-01-05 21:22:29.08	47.60	10.44	-53.1	-55.5	13.9	0.00e+00	0	26	0	296747008	72	4724
2026-01-05 21:22:30.08	47.77	10.47	-53.3	-55.8	13.7	0.00e+00	0	27	0	298844160	72	4902
2026-01-05 21:22:31.08	47.94	10.50	-53.4	-55.9	13.7	0.00e+00	0	27	0	300941312	72	4980
2026-01-05 21:22:32.09	48.12	10.52	-53.6	-56.2	13.5	0.00e+00	0	26	0	303038464	72	5152
2026-01-05 21:22:33.09	48.29	10.55	-53.6	-56.3	13.5	0.00e+00	0	26	0	305135616	72	5164
2026-01-05 21:22:34.10	48.47	10.58	-53.8	-56.7	13.3	0.00e+00	0	27	0	306184192	72	5414
2026-01-05 21:22:35.10	48.64	10.60	-54.0	-56.9	13.2	0.00e+00	0	26	0	308281344	73	5228
2026-01-05 21:22:36.10	48.82	10.63	-54.0	-56.9	13.2	0.00e+00	0	27	0	310378496	73	5268
2026-01-05 21:22:37.11	48.99	10.66	-54.0	-56.8	13.3	0.00e+00	0	27	0	312475648	73	5213
2026-01-05 21:22:38.11	49.17	10.68	-53.8	-56.6	13.4	0.00e+00	0	27	0	314572800	73	5064
2026-01-05 21:22:39.12	49.35	10.71	-53.6	-56.3	13.6	0.00e+00	0	27	0	315621376	73	4875
2026-01-05 21:22:40.11	49.52	10.73	-53.4	-55.9	13.8	0.00e+00	0	26	0	317718528	73	4678
2026-01-05 21:22:41.12	49.70	10.76	-53.4	-55.9	13.8	0.00e+00	0	27	0	319815680	73	4669
2026-01-05 21:22:42.12	49.87	10.78	-53.2	-55.7	13.8	0.00e+00	0	26	0	321912832	72	4822
2026-01-05 21:22:43.13	50.05	10.81	-53.2	-55.7	13.8	0.00e+00	0	27	0	324009984	72	4820
2026-01-05 21:22:44.13	50.23	10.83	-53.4	-55.9	13.7	0.00e+00	0	27	0	325058560	72	4945
2026-01-05 21:22:45.14	50.41	10.86	-53.6	-56.2	13.5	0.00e+00	0	27	0	327155712	72	5107
2026-01-05 21:22:46.14	50.59	10.88	-53.6	-56.2	13.5	0.00e+00	0	27	0	329252864	72	5124
2026-01-05 21:22:47.15	50.77	10.90	-53.6	-56.2	13.5	0.00e+00	0	27	0	331350016	72	5143
2026-01-05 21:22:48.15	50.94	10.93	-53.5	-56.0	13.6	0.00e+00	0	27	0	333447168	72	5010
2026-01-05 21:22:49.15	51.12	10.95	-53.3	-55.7	13.8	0.00e+00	0	27	0	334495744	72	4832
2026-01-05 21:22:50.15	51.30	10.97	-53.1	-55.4	13.9	0.00e+00	0	27	0	336592896	72	4694
2026-01-05 21:22:51.15	51.48	11.00	-52.9	-55.1	14.0	0.00e+00	0	27	0	338690048	72	4543
2026-01-05 21:22:52.15	51.66	11.02	-52.8	-55.0	14.1	0.00e+00	0	27	0	340787200	72	4464
2026-01-05 21:22:53.16	51.84	11.04	-52.8	-55.0	14.1	0.00e+00	0	26	0	341835776	72	4482
2026-01-05 21:22:54.16	52.02	11.06	-53.1	-55.4	13.9	0.00e+00	0	27	0	343932928	72	4673
2026-01-05 21:22:55.16	52.20	11.09	-53.3	-55.7	13.7	0.00e+00	0	27	0	346030080	72	4857
2026-01-05 21:22:56.16	52.38	11.11	-53.5	-56.1	13.6	0.00e+00	0	27	0	348127232	72	5053
2026-01-05 21:22:57.16	52.56	11.13	-53.4	-55.9	13.6	0.00e+00	0	27	0	350224384	72	4973
2026-01-05 21:22:58.17	52.74	11.15	-53.4	-55.9	13.7	0.00e+00	0	27	0	351272960	72	4951
2026-01-05 21:22:59.18	52.93	11.17	-53.5	-56.0	13.6	0.00e+00	0	27	0	353370112	72	4993
2026-01-05 21:23:00.17	53.11	11.19	-53.4	-55.9	13.6	0.00e+00	0	27	0	355467264	72	4952
2026-01-05 21:23:01.18	53.29	11.21	-53.5	-55.9	13.6	0.00e+00	0	27	0	357564416	72	4983
2026-01-05 21:23:02.18	53.47	11.23	-53.5	-55.9	13.7	0.00e+00	0	27	0	359661568	72	4978
2026-01-05 21:23:03.18	53.65	11.25	-53.5	-56.0	13.6	0.00e+00	0	27	0	360710144	72	4993
2026-01-05 21:23:04.18	53.83	11.27	-54.0	-56.7	13.3	0.00e+00	0	27	0	362807296	73	5134
2026-01-05 21:23:05.18	54.02	11.29	-54.2	-57.2	13.1	0.00e+00	0	27	0	364904448	73	5439
2026-01-05 21:23:06.19	54.20	11.31	-54.5	-57.6	12.9	0.00e+00	0	27	0	367001600	74	5379
2026-01-05 21:23:07.18	54.38	11.33	-54.5	-57.7	12.9	0.00e+00	0	27	0	369098752	74	5413
2026-01-05 21:23:08.19	54.57	11.35	-54.4	-57.5	13.0	0.00e+00	0	27	0	370147328	74	5281
2026-01-05 21:23:09.20	54.75	11.37	-54.0	-56.8	13.4	0.00e+00	0	27	0	372244480	74	4890
2026-01-05 21:23:10.20	54.94	11.39	-53.8	-56.4	13.6	0.00e+00	0	27	0	374341632	74	4669
2026-01-05 21:23:11.20	55.12	11.40	-53.6	-56.1	13.7	0.00e+00	0	26	0	376438784	73	4807
2026-01-05 21:23:12.21	55.31	11.42	-53.5	-56.0	13.7	0.00e+00	0	27	0	378535936	73	4712
2026-01-05 21:23:13.22	55.49	11.44	-53.5	-56.1	13.7	0.00e+00	0	27	0	379584512	73	4760
2026-01-05 21:23:14.22	55.68	11.46	-53.7	-56.3	13.6	0.00e+00	0	27	0	381681664	73	4912
2026-01-05 21:23:15.22	55.86	11.47	-53.8	-56.6	13.4	0.00e+00	0	27	0	383778816	73	5054
2026-01-05 21:23:16.22	56.05	11.49	-54.0	-56.9	13.2	0.00e+00	0	27	0	385875968	73	5233
2026-01-05 21:23:17.22	56.23	11.51	-54.2	-57.2	13.1	0.00e+00	0	26	0	387973120	73	5421
2026-01-05 21:23:18.23	56.42	11.52	-54.2	-57.2	13.1	0.00e+00	0	27	0	389021696	73	5437
2026-01-05 21:23:19.24	56.61	11.54	-54.1	-57.0	13.2	0.00e+00	0	26	0	391118848	73	5328
2026-01-05 21:23:20.23	56.79	11.56	-54.0	-56.9	13.2	0.00e+00	0	27	0	393216000	73	5236
2026-01-05 21:23:21.24	56.98	11.57	-54.1	-57.0	13.2	0.00e+00	0	27	0	395313152	73	5316
2026-01-05 21:23:22.24	57.16	11.59	-54.2	-57.2	13.0	0.00e+00	0	27	0	396361728	73	5448
2026-01-05 21:23:23.25	57.35	11.60	-54.4	-57.5	13.0	0.00e+00	0	26	0	398458880	74	5306
2026-01-05 21:23:24.25	57.54	11.62	-54.7	-58.0	12.7	0.00e+00	0	27	0	400556032	74	5649
2026-01-05 21:23:25.25	57.73	11.63	-54.9	-58.4	12.4	0.00e+00	0	27	0	402653184	74	5898
2026-01-05 21:23:26.25	57.91	11.65	-55.0	-58.5	12.4	7.00e-07	0	26	0	404750336	75	5645
2026-01-05 21:23:27.25	58.10	11.66	-55.0	-58.6	12.4	7.00e-07	0	27	0	405798912	75	5720
2026-01-05 21:23:28.26	58.29	11.67	-54.9	-58.5	12.4	0.00e+00	0	27	0	407896064	75	5615
2026-01-05 21:23:29.26	58.48	11.69	-54.8	-58.2	12.7	0.00e+00	0	26	0	409993216	75	5405
2026-01-05 21:23:30.25	58.66	11.70	-54.5	-57.6	13.0	0.00e+00	0	27	0	412090368	75	5087
2026-01-05 21:23:31.26	58.85	11.71	-54.2	-57.2	13.3	0.00e+00	0	27	0	414187520	75	4855
2026-01-05 21:23:32.26	59.04	11.73	-54.0	-56.8	13.4	0.00e+00	0	27	0	415236096	74	4894
2026-01-05 21:23:33.26	59.23	11.74	-54.0	-56.8	13.4	0.00e+00	0	26	0	417333248	74	4893
2026-01-05 21:23:34.26	59.42	11.75	-53.8	-56.6	13.5	0.00e+00	0	27	0	419430400	74	4763
2026-01-05 21:23:35.26	59.60	11.76	-54.0	-56.8	13.4	0.00e+00	0	27	0	421527552	74	4909
2026-01-05 21:23:36.27	59.79	11.77	-54.0	-56.8	13.4	0.00e+00	0	26	0	423624704	74	4887
2026-01-05 21:23:37.28	59.99	11.79	-53.9	-56.7	13.4	0.00e+00	0	27	0	424673280	74	4869
2026-01-05 21:23:38.28	60.17	11.80	-53.8	-56.6	13.5	0.00e+00	0	27	0	426770432	74	4779
2026-01-05 21:23:39.28	60.36	11.81	-53.6	-56.3	13.6	0.00e+00	0	27	0	428867584	73	4892
2026-01-05 21:23:40.28	60.55	11.82	-53.5	-56.1	13.7	0.00e+00	0	27	0	430964736	73	4774
2026-01-05 21:23:41.28	60.74	11.83	-53.3	-55.7	13.9	0.00e+00	0	27	0	433061888	73	4591
2026-01-05 21:23:42.29	60.93	11.84	-53.1	-55.5	13.9	0.00e+00	0	27	0	434110464	72	4752
2026-01-05 21:23:43.28	61.12	11.85	-53.0	-55.3	13.9	0.00e+00	0	27	0	436207616	72	4645
2026-01-05 21:23:44.28	61.31	11.86	-53.0	-55.4	13.9	0.00e+00	0	27	0	438304768	72	4690
2026-01-05 21:23:45.27	61.50	11.87	-53.0	-55.4	13.9	0.00e+00	0	27	0	440401920	72	4680
2026-01-05 21:23:46.28	61.69	11.87	-53.1	-55.5	13.9	0.00e+00	0	26	0	441450496	72	4733
2026-01-05 21:23:47.28	61.88	11.88	-53.0	-55.4	13.9	0.00e+00	0	27	0	443547648	72	4663
2026-01-05 21:23:48.29	62.07	11.89	-53.0	-55.4	14.0	0.00e+00	0	27	0	445644800	72	4653
2026-01-05 21:23:49.29	62.26	11.90	-52.9	-55.4	13.9	0.00e+00	0	26	0	447741952	72	4654
2026-01-05 21:23:50.29	62.45	11.91	-52.8	-55.1	14.1	0.00e+00	0	27	0	449839104	72	4531
2026-01-05 21:23:51.30	62.64	11.91	-52.8	-55.1	14.1	0.00e+00	0	27	0	450887680	72	4545
2026-01-05 21:23:52.31	62.84	11.92	-52.8	-55.2	14.1	0.00e+00	0	27	0	452984832	72	4556
2026-01-05 21:23:53.31	63.03	11.93	-52.9	-55.2	14.0	0.00e+00	0	27	0	455081984	72	4575
2026-01-05 21:23:54.31	63.22	11.93	-53.0	-55.4	13.9	0.00e+00	0	27	0	457179136	72	4684
2026-01-05 21:23:55.31	63.41	11.94	-53.1	-55.5	13.9	0.00e+00	0	27	0	459276288	72	4737
2026-01-05 21:23:56.32	63.60	11.95	-53.1	-55.5	13.8	0.00e+00	0	26	0	460324864	72	4756
2026-01-05 21:23:57.32	63.79	11.95	-53.1	-55.5	13.9	0.00e+00	0	27	0	462422016	72	4739
2026-01-05 21:23:58.32	63.98	11.96	-53.0	-55.4	13.9	0.00e+00	0	27	0	464519168	72	4701
2026-01-05 21:23:59.32	64.17	11.96	-52.9	-55.3	14.0	0.00e+00	0	26	0	466616320	72	4618
2026-01-05 21:24:00.32	64.36	11.97	-52.8	-55.2	14.0	0.00e+00	0	27	0	468713472	72	4564
2026-01-05 21:24:01.33	64.56	11.97	-52.8	-55.1	14.1	0.00e+00	0	27	0	469762048	72	4513
2026-01-05 21:24:02.33	64.75	11.98	-52.8	-55.1	14.1	0.00e+00	0	27	0	471859200	72	4534
2026-01-05 21:24:03.34	64.94	11.98	-53.0	-55.4	13.9	0.00e+00	0	26	0	473956352	72	4665
2026-01-05 21:24:04.33	65.13	11.98	-53.1	-55.5	13.8	0.00e+00	0	26	0	476053504	72	4758
2026-01-05 21:24:05.34	65.32	11.99	-53.0	-55.4	13.9	0.00e+00	0	26	0	478150656	72	4654
2026-01-05 21:24:06.34	65.52	11.99	-53.0	-55.4	13.9	0.00e+00	0	27	0	479199232	72	4685
2026-01-05 21:24:07.34	65.71	11.99	-52.9	-55.3	14.0	0.00e+00	0	27	0	481296384	72	4600
2026-01-05 21:24:08.34	65.90	12.00	-52.8	-55.1	14.1	0.00e+00	0	27	0	483393536	72	4521
2026-01-05 21:24:09.35	66.09	12.00	-52.8	-55.1	14.1	0.00e+00	0	27	0	485490688	72	4528
2026-01-05 21:24:10.34	66.28	12.00	-52.7	-54.9	14.1	0.00e+00	0	26	0	486539264	71	4676
2026-01-05 21:24:11.34	66.47	12.00	-52.7	-54.9	14.1	0.00e+00	0	26	0	488636416	71	4701
2026-01-05 21:24:12.35	66.67	12.00	-52.8	-55.1	14.0	0.00e+00	0	27	0	490733568	71	4786
2026-01-05 21:24:13.35	66.86	12.01	-52.8	-55.1	13.9	0.00e+00	0	27	0	492830720	71	4783
2026-01-05 21:24:14.35	67.05	12.01	-52.9	-55.2	13.9	0.00e+00	0	27	0	494927872	71	4835
2026-01-05 21:24:15.35	67.24	12.01	-52.8	-55.2	14.0	0.00e+00	0	27	0	495976448	71	4819
2026-01-05 21:24:16.35	67.43	12.01	-52.8	-55.1	14.0	0.00e+00	0	27	0	498073600	71	4784
2026-01-05 21:24:17.36	67.63	12.01	-52.6	-54.8	14.1	0.00e+00	0	26	0	500170752	71	4623
2026-01-05 21:24:18.36	67.82	12.01	-52.6	-54.8	14.2	0.00e+00	0	26	0	502267904	71	4607
2026-01-05 21:24:19.37	68.01	12.01	-52.7	-54.9	14.1	0.00e+00	0	27	0	504365056	71	4697
2026-01-05 21:24:20.36	68.20	12.00	-52.8	-55.1	14.0	0.00e+00	0	27	0	505413632	71	4772
2026-01-05 21:24:21.36	68.39	12.00	-52.8	-55.1	14.0	0.00e+00	0	27	0	507510784	71	4790
2026-01-05 21:24:22.36	68.58	12.00	-52.9	-55.3	13.9	0.00e+00	0	27	0	509607936	71	4904
2026-01-05 21:24:23.37	68.78	12.00	-53.0	-55.4	13.8	0.00e+00	0	26	0	511705088	71	4976
2026-01-05 21:24:24.38	68.97	12.00	-53.0	-55.5	13.8	0.00e+00	0	27	0	513802240	71	4987
2026-01-05 21:24:25.37	69.16	12.00	-53.0	-55.5	13.8	0.00e+00	0	27	0	514850816	71	4991
2026-01-05 21:24:26.37	69.35	11.99	-52.8	-55.1	14.0	0.00e+00	0	27	0	516947968	71	4786
2026-01-05 21:24:27.38	69.55	11.99	-52.7	-54.9	14.0	0.00e+00	0	27	0	519045120	71	4689
2026-01-05 21:24:28.39	69.74	11.99	-52.4	-54.6	14.2	0.00e+00	0	27	0	521142272	71	4505
2026-01-05 21:24:29.38	69.93	11.98	-52.2	-54.4	14.3	0.00e+00	0	27	0	523239424	71	4399
2026-01-05 21:24:30.37	70.12	11.98	-52.0	-54.1	14.3	0.00e+00	0	27	0	524288000	70	4521
2026-01-05 21:24:31.38	70.31	11.98	-52.1	-54.2	14.3	0.00e+00	0	26	0	526385152	70	4585
2026-01-05 21:24:32.37	70.50	11.97	-52.1	-54.2	14.3	0.00e+00	0	27	0	528482304	70	4594
2026-01-05 21:24:33.38	70.69	11.97	-52.2	-54.4	14.2	0.00e+00	0	27	0	530579456	70	4679
2026-01-05 21:24:34.38	70.88	11.96	-52.4	-54.6	14.1	0.00e+00	0	27	0	531628032	70	4767
2026-01-05 21:24:35.38	71.08	11.96	-52.3	-54.5	14.1	0.00e+00	0	27	0	533725184	70	4738
2026-01-05 21:24:36.39	71.27	11.95	-52.3	-54.4	14.2	0.00e+00	0	27	0	535822336	70	4702
2026-01-05 21:24:37.39	71.46	11.95	-52.2	-54.3	14.2	0.00e+00	0	27	0	537919488	70	4646
2026-01-05 21:24:38.39	71.65	11.94	-51.9	-53.9	14.4	0.00e+00	0	27	0	540016640	70	4415
2026-01-05 21:24:39.39	71.84	11.93	-52.0	-54.0	14.4	0.00e+00	0	27	0	541065216	70	4473
2026-01-05 21:24:40.38	72.03	11.93	-52.0	-54.1	14.3	0.00e+00	0	26	0	543162368	70	4519
2026-01-05 21:24:41.38	72.22	11.92	-52.1	-54.2	14.3	0.00e+00	0	27	0	545259520	70	4569
2026-01-05 21:24:42.39	72.41	11.91	-52.3	-54.5	14.1	0.00e+00	0	27	0	547356672	70	4723
2026-01-05 21:24:43.40	72.61	11.91	-52.5	-54.7	14.1	0.00e+00	0	26	0	549453824	70	4862
2026-01-05 21:24:44.40	72.80	11.90	-52.4	-54.6	14.1	0.00e+00	0	27	0	550502400	70	4788
2026-01-05 21:24:45.40	72.99	11.89	-52.5	-54.7	14.1	0.00e+00	0	26	0	552599552	70	4839
2026-01-05 21:24:46.41	73.18	11.88	-52.5	-54.6	14.1	0.00e+00	0	26	0	554696704	70	4798
2026-01-05 21:24:47.40	73.37	11.87	-52.2	-54.3	14.2	0.00e+00	0	26	0	556793856	70	4651
2026-01-05 21:24:48.40	73.56	11.86	-52.2	-54.2	14.3	0.00e+00	0	27	0	558891008	70	4594
2026-01-05 21:24:49.41	73.75	11.85	-52.2	-54.3	14.2	0.00e+00	0	26	0	559939584	70	4613
2026-01-05 21:24:50.41	73.94	11.85	-52.0	-54.0	14.4	0.00e+00	0	27	0	562036736	70	4449
2026-01-05 21:24:51.41	74.13	11.84	-52.2	-54.2	14.3	0.00e+00	0	26	0	564133888	70	4586
2026-01-05 21:24:52.41	74.32	11.83	-52.2	-54.3	14.3	0.00e+00	0	27	0	566231040	70	4605
2026-01-05 21:24:53.42	74.51	11.82	-52.3	-54.5	14.2	0.00e+00	0	26	0	568328192	70	4711
2026-01-05 21:24:54.41	74.70	11.80	-52.4	-54.6	14.1	0.00e+00	0	27	0	569376768	70	4761
2026-01-05 21:24:55.41	74.88	11.79	-52.5	-54.7	14.1	0.00e+00	0	27	0	571473920	70	4826
2026-01-05 21:24:56.42	75.08	11.78	-52.5	-54.7	14.0	0.00e+00	0	27	0	573571072	70	4839
2026-01-05 21:24:57.43	75.27	11.77	-52.3	-54.5	14.2	0.00e+00	0	27	0	575668224	70	4711
2026-01-05 21:24:58.43	75.45	11.76	-52.4	-54.5	14.1	0.00e+00	0	27	0	576716800	70	4752
2026-01-05 21:24:59.44	75.64	11.75	-52.2	-54.4	14.2	0.00e+00	0	26	0	578813952	70	4652
2026-01-05 21:25:00.44	75.83	11.74	-52.1	-54.2	14.3	0.00e+00	0	27	0	580911104	70	4558
2026-01-05 21:25:01.44	76.02	11.72	-52.1	-54.2	14.3	0.00e+00	0	27	0	583008256	70	4587
2026-01-05 21:25:02.44	76.21	11.71	-52.3	-54.4	14.2	0.00e+00	0	27	0	585105408	70	4658
2026-01-05 21:25:03.44	76.40	11.70	-52.2	-54.3	14.2	0.00e+00	0	27	0	586153984	70	4607
2026-01-05 21:25:04.44	76.59	11.68	-52.3	-54.4	14.2	0.00e+00	0	27	0	588251136	70	4654
2026-01-05 21:25:05.44	76.77	11.67	-52.3	-54.4	14.2	0.00e+00	0	27	0	590348288	70	4662
2026-01-05 21:25:06.45	76.96	11.66	-52.1	-54.2	14.3	0.00e+00	0	27	0	592445440	70	4572
2026-01-05 21:25:07.45	77.15	11.64	-52.2	-54.3	14.2	0.00e+00	0	27	0	594542592	70	4609
2026-01-05 21:25:08.45	77.34	11.63	-52.2	-54.3	14.2	0.00e+00	0	27	0	595591168	70	4613
2026-01-05 21:25:09.45	77.52	11.61	-52.2	-54.3	14.2	0.00e+00	0	27	0	597688320	70	4647
2026-01-05 21:25:10.45	77.71	11.60	-52.1	-54.1	14.3	0.00e+00	0	27	0	599785472	70	4527
2026-01-05 21:25:11.46	77.90	11.58	-52.3	-54.3	14.2	0.00e+00	0	27	0	601882624	70	4651
2026-01-05 21:25:12.45	78.08	11.57	-52.2	-54.3	14.2	0.00e+00	0	27	0	603979776	70	4603
2026-01-05 21:25:13.46	78.27	11.55	-52.3	-54.4	14.2	0.00e+00	0	27	0	605028352	70	4673
2026-01-05 21:25:14.46	78.46	11.54	-52.3	-54.4	14.2	0.00e+00	0	26	0	607125504	70	4669
2026-01-05 21:25:15.46	78.64	11.52	-52.4	-54.5	14.2	0.00e+00	0	27	0	609222656	70	4727
2026-01-05 21:25:16.46	78.83	11.50	-52.4	-54.5	14.1	0.00e+00	0	27	0	611319808	70	4728
2026-01-05 21:25:17.46	79.01	11.49	-52.4	-54.6	14.1	0.00e+00	0	27	0	613416960	70	4777
2026-01-05 21:25:18.47	79.20	11.47	-52.4	-54.6	14.1	0.00e+00	0	27	0	614465536	70	4767
2026-01-05 21:25:19.48	79.39	11.45	-52.3	-54.4	14.2	0.00e+00	0	27	0	616562688	70	4665
2026-01-05 21:25:20.47	79.57	11.44	-52.3	-54.4	14.2	0.00e+00	0	26	0	618659840	70	4684
2026-01-05 21:25:21.48	79.76	11.42	-52.1	-54.2	14.3	0.00e+00	0	27	0	620756992	70	4558
2026-01-05 21:25:22.48	79.94	11.40	-52.1	-54.1	14.3	0.00e+00	0	27	0	621805568	70	4538
2026-01-05 21:25:23.49	80.13	11.38	-52.1	-54.1	14.4	0.00e+00	0	27	0	623902720	70	4499
2026-01-05 21:25:24.50	80.31	11.36	-51.8	-53.7	14.5	0.00e+00	0	27	0	625999872	70	4317
2026-01-05 21:25:25.49	80.50	11.35	-51.9	-53.8	14.4	0.00e+00	0	27	0	628097024	70	4370
2026-01-05 21:25:26.49	80.68	11.33	-51.7	-53.6	14.5	0.00e+00	0	27	0	630194176	70	4283
2026-01-05 21:25:27.49	80.86	11.31	-51.8	-53.7	14.5	0.00e+00	0	27	0	631242752	70	4332
2026-01-05 21:25:28.50	81.05	11.29	-51.8	-53.7	14.5	0.00e+00	0	27	0	633339904	70	4308
2026-01-05 21:25:29.50	81.23	11.27	-51.8	-53.7	14.5	0.00e+00	0	27	0	635437056	70	4313
2026-01-05 21:25:30.50	81.41	11.25	-51.8	-53.8	14.5	0.00e+00	0	27	0	637534208	70	4350
2026-01-05 21:25:31.50	81.60	11.23	-51.8	-53.7	14.5	0.00e+00	0	27	0	639631360	70	4293
2026-01-05 21:25:32.51	81.78	11.21	-51.5	-53.3	14.5	0.00e+00	0	27	0	640679936	69	4380
2026-01-05 21:25:33.50	81.96	11.19	-51.6	-53.4	14.5	0.00e+00	0	27	0	642777088	69	4441
2026-01-05 21:25:34.51	82.14	11.17	-51.6	-53.5	14.5	0.00e+00	0	27	0	644874240	69	4456
2026-01-05 21:25:35.50	82.32	11.15	-51.7	-53.5	14.4	0.00e+00	0	27	0	646971392	69	4489
2026-01-05 21:25:36.50	82.50	11.12	-51.7	-53.6	14.4	0.00e+00	0	27	0	649068544	69	4518
2026-01-05 21:25:37.50	82.68	11.10	-51.8	-53.7	14.4	0.00e+00	0	27	0	650117120	69	4579
2026-01-05 21:25:38.50	82.86	11.08	-51.8	-53.7	14.3	0.00e+00	0	27	0	652214272	69	4596
2026-01-05 21:25:39.50	83.04	11.06	-52.0	-53.9	14.3	0.00e+00	0	26	0	654311424	69	4705
2026-01-05 21:25:40.49	83.22	11.04	-51.9	-53.9	14.3	0.00e+00	0	26	0	656408576	69	4669
2026-01-05 21:25:41.49	83.40	11.01	-51.9	-53.9	14.3	0.00e+00	0	27	0	657457152	69	4679
2026-01-05 21:25:42.50	83.58	10.99	-51.9	-53.9	14.3	0.00e+00	0	26	0	659554304	69	4685
2026-01-05 21:25:43.50	83.76	10.97	-51.7	-53.6	14.4	0.00e+00	0	27	0	661651456	69	4511
2026-01-05 21:25:44.51	83.94	10.95	-51.6	-53.5	14.5	0.00e+00	0	27	0	663748608	69	4445
2026-01-05 21:25:45.51	84.12	10.92	-51.7	-53.6	14.4	0.00e+00	0	27	0	665845760	69	4528
2026-01-05 21:25:46.51	84.30	10.90	-51.6	-53.6	14.4	0.00e+00	0	27	0	667942912	69	4494
2026-01-05 21:25:47.51	84.48	10.87	-51.6	-53.5	14.5	0.00e+00	0	27	0	668991488	69	4455
2026-01-05 21:25:48.51	84.66	10.85	-51.8	-53.7	14.4	0.00e+00	0	27	0	671088640	69	4562
2026-01-05 21:25:49.51	84.83	10.83	-52.1	-54.1	14.2	0.00e+00	0	26	0	673185792	69	4771
2026-01-05 21:25:50.51	85.01	10.80	-52.2	-54.3	14.1	0.00e+00	0	27	0	675282944	69	4892
2026-01-05 21:25:51.50	85.19	10.78	-52.1	-54.1	14.2	0.00e+00	0	27	0	676331520	69	4776
2026-01-05 21:25:52.50	85.36	10.75	-51.7	-53.7	14.4	0.00e+00	0	27	0	678428672	69	4561
2026-01-05 21:25:53.50	85.54	10.73	-51.7	-53.6	14.4	0.00e+00	0	26	0	680525824	69	4514
2026-01-05 21:25:54.50	85.72	10.70	-51.6	-53.4	14.5	0.00e+00	0	26	0	682622976	69	4427
2026-01-05 21:25:55.50	85.89	10.68	-51.6	-53.5	14.4	0.00e+00	0	26	0	684720128	69	4471
2026-01-05 21:25:56.50	86.07	10.65	-51.5	-53.4	14.5	0.00e+00	0	27	0	685768704	69	4412
2026-01-05 21:25:57.50	86.24	10.62	-51.6	-53.5	14.5	0.00e+00	0	26	0	687865856	69	4451
2026-01-05 21:25:58.50	86.42	10.60	-51.5	-53.3	14.5	0.00e+00	0	27	0	689963008	69	4390
2026-01-05 21:25:59.51	86.60	10.57	-51.6	-53.5	14.5	0.00e+00	0	27	0	692060160	69	4465
2026-01-05 21:26:00.51	86.77	10.54	-51.6	-53.5	14.5	0.00e+00	0	26	0	694157312	69	4455
2026-01-05 21:26:01.52	86.95	10.52	-51.6	-53.5	14.5	0.00e+00	0	26	0	695205888	69	4475
2026-01-05 21:26:02.52	87.12	10.49	-51.6	-53.5	14.4	0.00e+00	0	27	0	697303040	69	4472
2026-01-05 21:26:03.52	87.29	10.46	-51.6	-53.6	14.4	0.00e+00	0	26	0	699400192	69	4499
2026-01-05 21:26:04.53	87.47	10.44	-51.8	-53.7	14.4	0.00e+00	0	26	0	701497344	69	4571
2026-01-05 21:26:05.53	87.64	10.41	-51.7	-53.7	14.4	0.00e+00	0	26	0	702545920	69	4547
2026-01-05 21:26:06.53	87.81	10.38	-51.8	-53.7	14.3	0.00e+00	0	26	0	704643072	69	4589
2026-01-05 21:26:07.54	87.99	10.35	-51.9	-53.9	14.3	0.00e+00	0	27	0	706740224	69	4658
2026-01-05 21:26:08.54	88.16	10.32	-52.0	-54.0	14.2	0.00e+00	0	27	0	708837376	69	4752
2026-01-05 21:26:09.55	88.33	10.30	-52.1	-54.2	14.1	0.00e+00	0	26	0	710934528	69	4858
2026-01-05 21:26:10.54	88.50	10.27	-52.1	-54.2	14.1	0.00e+00	0	26	0	711983104	69	4828
2026-01-05 21:26:11.54	88.67	10.24	-52.2	-54.3	14.0	0.00e+00	0	26	0	714080256	69	4924
2026-01-05 21:26:12.55	88.84	10.21	-52.3	-54.4	14.0	0.00e+00	0	27	0	716177408	69	4981
2026-01-05 21:26:13.55	89.01	10.18	-52.5	-54.7	14.0	0.00e+00	0	26	0	718274560	70	4862
2026-01-05 21:26:14.55	89.18	10.15	-52.7	-55.0	13.9	0.00e+00	0	26	0	720371712	70	4993
2026-01-05 21:26:15.56	89.36	10.12	-52.8	-55.2	13.8	0.00e+00	0	26	0	721420288	70	5103
2026-01-05 21:26:16.57	89.53	10.09	-53.0	-55.4	13.8	0.00e+00	0	26	0	723517440	71	4949
2026-01-05 21:26:17.57	89.70	10.06	-53.0	-55.4	13.8	0.00e+00	0	27	0	725614592	71	4975
2026-01-05 21:26:18.58	89.87	10.03	-52.8	-55.2	13.9	0.00e+00	0	26	0	727711744	71	4841
2026-01-05 21:26:19.58	90.03	10.00	-52.9	-55.2	13.9	0.00e+00	0	26	0	729808896	71	4861
2026-01-05 21:26:20.58	90.20	9.97	-52.8	-55.1	13.9	0.00e+00	0	27	0	730857472	71	4791
2026-01-05 21:26:21.58	90.37	9.94	-52.8	-55.2	13.8	0.00e+00	0	27	0	732954624	71	4843
2026-01-05 21:26:22.59	90.54	9.91	-52.8	-55.2	13.9	0.00e+00	0	26	0	735051776	71	4855
2026-01-05 21:26:23.59	90.71	9.88	-52.8	-55.2	13.9	0.00e+00	0	26	0	737148928	71	4842
2026-01-05 21:26:24.60	90.87	9.85	-52.7	-55.0	14.0	0.00e+00	0	27	0	739246080	71	4747
2026-01-05 21:26:25.60	91.04	9.81	-52.6	-54.9	14.0	0.00e+00	0	26	0	740294656	71	4659
2026-01-05 21:26:26.61	91.21	9.78	-52.8	-55.1	13.9	0.00e+00	0	27	0	742391808	71	4780
2026-01-05 21:26:27.61	91.37	9.75	-52.8	-55.1	13.9	0.00e+00	0	27	0	744488960	71	4808
2026-01-05 21:26:28.61	91.54	9.72	-52.9	-55.3	13.8	0.00e+00	0	26	0	746586112	71	4888
2026-01-05 21:26:29.62	91.70	9.69	-53.0	-55.5	13.7	0.00e+00	0	26	0	748683264	71	5011
2026-01-05 21:26:30.61	91.87	9.65	-53.2	-55.7	13.6	0.00e+00	0	27	0	749731840	71	5153
2026-01-05 21:26:31.62	92.03	9.62	-53.3	-55.9	13.5	0.00e+00	0	26	0	751828992	71	5265
2026-01-05 21:26:32.61	92.20	9.59	-53.6	-56.4	13.3	0.00e+00	0	27	0	753926144	72	5241
2026-01-05 21:26:33.61	92.36	9.56	-53.6	-56.5	13.2	0.00e+00	0	26	0	756023296	72	5310
2026-01-05 21:26:34.61	92.52	9.52	-53.6	-56.5	13.2	0.00e+00	0	26	0	757071872	72	5322
2026-01-05 21:26:35.61	92.68	9.49	-53.5	-56.3	13.4	0.00e+00	0	27	0	759169024	72	5201
2026-01-05 21:26:36.62	92.85	9.46	-53.4	-56.2	13.5	0.00e+00	0	27	0	761266176	72	5113
2026-01-05 21:26:37.63	93.01	9.42	-53.3	-56.0	13.5	0.00e+00	0	26	0	763363328	72	5029
2026-01-05 21:26:38.63	93.17	9.39	-53.3	-56.0	13.5	0.00e+00	0	27	0	765460480	72	5019
2026-01-05 21:26:39.63	93.34	9.36	-53.3	-56.0	13.5	0.00e+00	0	27	0	766509056	72	5017
2026-01-05 21:26:40.64	93.50	9.32	-53.3	-56.0	13.5	0.00e+00	0	26	0	768606208	72	5030
2026-01-05 21:26:41.64	93.66	9.29	-53.6	-56.4	13.3	0.00e+00	0	26	0	770703360	72	5250
2026-01-05 21:26:42.64	93.82	9.26	-53.6	-56.6	13.2	0.00e+00	0	27	0	772800512	72	5349
2026-01-05 21:26:43.64	93.98	9.22	-53.8	-56.9	13.0	0.00e+00	0	26	0	774897664	72	5540
2026-01-05 21:26:44.64	94.14	9.19	-53.9	-57.0	13.1	0.00e+00	0	26	0	775946240	73	5308
2026-01-05 21:26:45.65	94.30	9.15	-53.9	-56.9	13.1	0.00e+00	0	26	0	778043392	73	5268
2026-01-05 21:26:46.64	94.46	9.12	-53.7	-56.6	13.2	0.00e+00	0	27	0	780140544	73	5097
2026-01-05 21:26:47.64	94.61	9.08	-53.6	-56.5	13.3	0.00e+00	0	26	0	782237696	73	5026
2026-01-05 21:26:48.65	94.77	9.05	-53.6	-56.5	13.3	0.00e+00	0	27	0	784334848	73	4986
2026-01-05 21:26:49.64	94.93	9.01	-53.6	-56.5	13.3	0.00e+00	0	26	0	785383424	73	4995
2026-01-05 21:26:50.64	95.09	8.98	-53.7	-56.6	13.3	0.00e+00	0	27	0	787480576	73	5052
2026-01-05 21:26:51.64	95.24	8.94	-53.7	-56.7	13.2	0.00e+00	0	27	0	789577728	73	5107
2026-01-05 21:26:52.65	95.40	8.91	-53.6	-56.5	13.3	0.00e+00	0	27	0	791674880	73	5003
2026-01-05 21:26:53.64	95.56	8.87	-53.9	-56.9	13.1	0.00e+00	0	27	0	792723456	73	5273
2026-01-05 21:26:54.64	95.71	8.84	-53.7	-56.6	13.3	0.00e+00	0	27	0	794820608	73	5072
2026-01-05 21:26:55.65	95.87	8.80	-54.0	-57.1	13.0	0.00e+00	0	26	0	796917760	73	5346
2026-01-05 21:26:56.64	96.02	8.77	-53.8	-56.8	13.2	0.00e+00	0	27	0	799014912	73	5160
2026-01-05 21:26:57.64	96.18	8.73	-53.8	-56.8	13.1	0.00e+00	0	27	0	801112064	73	5183
2026-01-05 21:26:58.65	96.33	8.69	-53.8	-56.8	13.2	0.00e+00	0	27	0	802160640	73	5167
2026-01-05 21:26:59.66	96.49	8.66	-53.8	-56.8	13.2	0.00e+00	0	26	0	804257792	73	5177
2026-01-05 21:27:00.66	96.64	8.62	-53.9	-57.0	13.0	0.00e+00	0	26	0	806354944	73	5305
2026-01-05 21:27:01.67	96.80	8.58	-53.9	-57.0	13.0	0.00e+00	0	26	0	808452096	73	5281
2026-01-05 21:27:02.67	96.95	8.55	-53.9	-57.0	13.0	0.00e+00	0	27	0	810549248	73	5310
2026-01-05 21:27:03.67	97.10	8.51	-54.0	-57.1	12.9	0.00e+00	0	26	0	811597824	73	5389
2026-01-05 21:27:04.68	97.26	8.47	-54.0	-57.2	12.9	0.00e+00	0	26	0	813694976	73	5430
2026-01-05 21:27:05.68	97.41	8.43	-54.0	-57.2	12.9	0.00e+00	0	26	0	815792128	73	5424
2026-01-05 21:27:06.68	97.56	8.40	-54.0	-57.1	12.9	0.00e+00	0	27	0	817889280	73	5399
2026-01-05 21:27:07.69	97.71	8.36	-54.1	-57.4	12.7	0.00e+00	0	26	0	819986432	73	5579
2026-01-05 21:27:08.69	97.86	8.32	-54.1	-57.4	12.7	0.00e+00	0	27	0	821035008	73	5589
2026-01-05 21:27:09.69	98.01	8.28	-54.0	-57.2	12.9	0.00e+00	0	26	0	823132160	73	5413
2026-01-05 21:27:10.69	98.16	8.25	-54.0	-57.2	12.8	0.00e+00	0	27	0	825229312	73	5463
2026-01-05 21:27:11.70	98.31	8.21	-54.0	-57.3	12.8	0.00e+00	0	27	0	827326464	73	5510
2026-01-05 21:27:12.70	98.46	8.17	-53.8	-57.0	13.0	0.00e+00	0	26	0	829423616	73	5281
2026-01-05 21:27:13.70	98.61	8.13	-53.7	-56.8	13.1	0.00e+00	0	27	0	830472192	73	5195
2026-01-05 21:27:14.71	98.76	8.09	-53.7	-56.7	13.1	0.00e+00	0	27	0	832569344	73	5153
2026-01-05 21:27:15.71	98.91	8.06	-53.6	-56.6	13.2	0.00e+00	0	27	0	834666496	73	5075
2026-01-05 21:27:16.72	99.06	8.02	-53.6	-56.6	13.3	0.00e+00	0	27	0	836763648	73	5056
2026-01-05 21:27:17.73	99.21	7.98	-53.7	-56.3	13.4	0.00e+00	0	27	0	838860800	73	4897
2026-01-05 21:27:18.74	99.36	7.94	-53.6	-56.1	13.5	0.00e+00	0	27	0	839909376	73	4806
2026-01-05 21:27:19.74	99.50	7.90	-53.4	-55.9	13.7	0.00e+00	0	27	0	842006528	73	4652
2026-01-05 21:27:20.74	99.65	7.86	-53.4	-55.8	13.7	0.00e+00	0	27	0	844103680	73	4641
2026-01-05 21:27:21.74	99.80	7.82	-53.2	-55.5	13.9	0.00e+00	0	26	0	846200832	73	4490
2026-01-05 21:27:22.75	99.94	7.79	-53.3	-55.6	13.8	0.00e+00	0	27	0	848297984	73	4545
2026-01-05 21:27:23.75	100.09	7.75	-53.4	-55.8	13.7	0.00e+00	0	26	0	849346560	73	4625
2026-01-05 21:27:24.76	100.23	7.71	-53.4	-55.9	13.7	0.00e+00	0	26	0	851443712	73	4668
2026-01-05 21:27:25.76	100.38	7.67	-53.6	-56.1	13.5	0.00e+00	0	27	0	853540864	73	4789
2026-01-05 21:27:26.76	100.52	7.63	-53.8	-56.4	13.4	0.00e+00	0	27	0	855638016	73	4962
2026-01-05 21:27:27.76	100.67	7.59	-53.7	-56.3	13.4	0.00e+00	0	27	0	857735168	73	4901
2026-01-05 21:27:28.76	100.81	7.55	-54.0	-56.8	13.1	0.00e+00	0	26	0	858783744	73	5174
2026-01-05 21:27:29.77	100.95	7.51	-54.0	-56.7	13.1	0.00e+00	0	27	0	860880896	73	5150
2026-01-05 21:27:30.76	101.09	7.47	-54.0	-56.8	13.1	0.00e+00	0	26	0	862978048	73	5214
2026-01-05 21:27:31.76	101.24	7.43	-54.0	-56.8	13.2	0.00e+00	0	27	0	865075200	73	5169
2026-01-05 21:27:32.75	101.38	7.39	-54.0	-56.7	13.2	0.00e+00	0	27	0	866123776	73	5145
2026-01-05 21:27:33.75	101.52	7.35	-54.0	-56.7	13.2	0.00e+00	0	27	0	868220928	73	5129
2026-01-05 21:27:34.75	101.66	7.31	-53.9	-56.6	13.2	0.00e+00	0	26	0	870318080	73	5051
2026-01-05 21:27:35.75	101.80	7.27	-53.8	-56.5	13.3	0.00e+00	0	27	0	872415232	73	5016
2026-01-05 21:27:36.75	101.94	7.23	-53.8	-56.4	13.3	0.00e+00	0	27	0	874512384	73	4968
2026-01-05 21:27:37.75	102.08	7.19	-53.6	-56.2	13.5	0.00e+00	0	26	0	875560960	73	4849
2026-01-05 21:27:38.75	102.22	7.15	-53.6	-56.2	13.5	0.00e+00	0	26	0	877658112	73	4846
2026-01-05 21:27:39.75	102.36	7.11	-53.7	-56.4	13.4	0.00e+00	0	26	0	879755264	73	4935
2026-01-05 21:27:40.75	102.50	7.07	-53.8	-56.5	13.3	0.00e+00	0	27	0	881852416	73	4997
2026-01-05 21:27:41.75	102.63	7.03	-53.7	-56.3	13.4	0.00e+00	0	27	0	882900992	73	4887
2026-01-05 21:27:42.75	102.77	6.99	-53.8	-56.5	13.3	0.00e+00	0	27	0	884998144	73	5021
2026-01-05 21:27:43.76	102.91	6.95	-53.6	-56.2	13.5	0.00e+00	0	26	0	887095296	73	4840
2026-01-05 21:27:44.76	103.05	6.91	-53.6	-56.1	13.5	0.00e+00	0	26	0	889192448	73	4805
2026-01-05 21:27:45.76	103.19	6.87	-53.5	-56.0	13.6	0.00e+00	0	26	0	891289600	73	4758
2026-01-05 21:27:46.76	103.32	6.83	-53.4	-55.9	13.6	0.00e+00	0	26	0	893386752	73	4693
2026-01-05 21:27:47.77	103.46	6.78	-53.4	-55.8	13.7	0.00e+00	0	26	0	894435328	73	4642
2026-01-05 21:27:48.77	103.60	6.74	-53.3	-55.7	13.8	0.00e+00	0	26	0	896532480	73	4553
2026-01-05 21:27:49.75	103.73	6.70	-53.1	-55.5	13.7	0.00e+00	0	27	0	898629632	72	4712
2026-01-05 21:27:50.74	103.86	6.66	-53.1	-55.5	13.7	0.00e+00	0	27	0	900726784	72	4743
2026-01-05 21:27:51.73	104.00	6.62	-53.2	-55.6	13.6	0.00e+00	0	27	0	901775360	72	4782
2026-01-05 21:27:52.72	104.13	6.58	-53.2	-55.6	13.7	0.00e+00	0	26	0	903872512	72	4793
2026-01-05 21:27:53.73	104.26	6.54	-53.2	-55.6	13.7	0.00e+00	0	27	0	905969664	72	4779
2026-01-05 21:27:54.73	104.40	6.50	-53.3	-55.8	13.6	0.00e+00	0	27	0	908066816	72	4890
2026-01-05 21:27:55.72	104.53	6.46	-53.4	-55.9	13.5	0.00e+00	0	26	0	910163968	72	4936
2026-01-05 21:27:56.72	104.66	6.41	-53.5	-56.0	13.5	0.00e+00	0	27	0	911212544	72	5013
2026-01-05 21:27:57.71	104.79	6.37	-53.3	-55.8	13.6	0.00e+00	0	27	0	913309696	72	4872
2026-01-05 21:27:58.71	104.93	6.33	-53.1	-55.4	13.7	0.00e+00	0	26	0	915406848	72	4696
2026-01-05 21:27:59.71	105.06	6.29	-53.1	-55.4	13.8	0.00e+00	0	26	0	917504000	72	4695
2026-01-05 21:28:00.71	105.19	6.25	-53.1	-55.4	13.8	0.00e+00	0	26	0	918552576	72	4685
2026-01-05 21:28:01.71	105.32	6.21	-53.1	-55.4	13.7	0.00e+00	0	26	0	920649728	72	4701
2026-01-05 21:28:02.70	105.45	6.16	-53.0	-55.4	13.8	0.00e+00	0	27	0	922746880	72	4666
2026-01-05 21:28:03.69	105.58	6.12	-52.9	-55.2	13.9	0.00e+00	0	26	0	924844032	72	4549
2026-01-05 21:28:04.69	105.71	6.08	-53.0	-55.3	13.9	0.00e+00	0	27	0	926941184	72	4602
2026-01-05 21:28:05.70	105.84	6.04	-53.0	-55.3	13.8	0.00e+00	0	27	0	927989760	72	4650
2026-01-05 21:28:06.69	105.97	6.00	-53.0	-55.4	13.8	0.00e+00	0	26	0	930086912	72	4668
2026-01-05 21:28:07.69	106.10	5.95	-53.2	-55.6	13.7	0.00e+00	0	27	0	932184064	72	4811
2026-01-05 21:28:08.69	106.22	5.91	-53.2	-55.6	13.7	0.00e+00	0	26	0	934281216	72	4789
2026-01-05 21:28:09.69	106.35	5.87	-53.4	-56.0	13.5	0.00e+00	0	26	0	935329792	72	4986
2026-01-05 21:28:10.69	106.48	5.83	-53.5	-56.1	13.4	0.00e+00	0	26	0	937426944	72	5074
2026-01-05 21:28:11.69	106.61	5.79	-53.4	-56.0	13.5	0.00e+00	0	26	0	939524096	72	4997
2026-01-05 21:28:12.69	106.74	5.74	-53.6	-56.3	13.3	0.00e+00	0	27	0	941621248	72	5173
2026-01-05 21:28:13.70	106.86	5.70	-53.6	-56.2	13.3	0.00e+00	0	27	0	943718400	72	5115
2026-01-05 21:28:14.69	106.99	5.66	-53.4	-56.0	13.4	0.00e+00	0	27	0	944766976	72	4988
2026-01-05 21:28:15.69	107.11	5.62	-53.6	-56.2	13.3	0.00e+00	0	27	0	946864128	72	5143
2026-01-05 21:28:16.69	107.24	5.57	-53.6	-56.2	13.3	0.00e+00	0	26	0	948961280	72	5142
2026-01-05 21:28:17.69	107.37	5.53	-53.6	-56.3	13.2	0.00e+00	0	26	0	951058432	72	5183
2026-01-05 21:28:18.68	107.49	5.49	-53.8	-56.7	13.1	0.00e+00	0	27	0	953155584	72	5414
2026-01-05 21:28:19.69	107.62	5.45	-53.7	-56.4	13.2	0.00e+00	0	26	0	954204160	72	5270
2026-01-05 21:28:20.69	107.74	5.40	-53.8	-56.5	13.2	0.00e+00	0	26	0	956301312	73	5038
2026-01-05 21:28:21.70	107.86	5.36	-53.9	-56.8	13.1	0.00e+00	0	27	0	958398464	73	5165
2026-01-05 21:28:22.70	107.99	5.32	-53.9	-56.7	13.2	0.00e+00	0	26	0	960495616	73	5129
2026-01-05 21:28:23.70	108.11	5.27	-53.8	-56.5	13.2	0.00e+00	0	26	0	961544192	73	5008
2026-01-05 21:28:24.71	108.24	5.23	-53.8	-56.5	13.2	0.00e+00	0	27	0	963641344	73	5037
2026-01-05 21:28:25.70	108.36	5.19	-53.6	-56.3	13.4	0.00e+00	0	27	0	965738496	73	4909
2026-01-05 21:28:26.71	108.48	5.14	-53.7	-56.4	13.3	0.00e+00	0	26	0	967835648	73	4937
2026-01-05 21:28:27.71	108.60	5.10	-53.7	-56.3	13.4	0.00e+00	0	27	0	969932800	73	4919
2026-01-05 21:28:28.71	108.72	5.06	-53.5	-56.2	13.4	0.00e+00	0	26	0	970981376	73	4825
2026-01-05 21:28:29.71	108.85	5.01	-53.6	-56.2	13.4	0.00e+00	0	27	0	973078528	73	4843
2026-01-05 21:28:30.71	108.97	4.97	-57.4	-65.1	8.1	0.00e+00	0	26	0	975175680	79	9501
2026-01-05 21:28:31.71	109.09	4.93	-58.7	-74.6	3.8	1.49e+00	0	26	104	975175680	82	24088
2026-01-05 21:28:32.71	109.21	4.89	-58.9	-74.8	3.8	1.49e+00	0	27	104	975175680	82	24489
2026-01-05 21:28:33.71	109.33	4.84	-59.1	-75.1	3.8	1.49e+00	0	27	104	975175680	83	24041
2026-01-05 21:28:34.70	109.45	4.80	-59.3	-75.3	3.8	1.49e+00	0	27	104	975175680	83	24597
2026-01-05 21:28:35.71	109.57	4.76	-59.4	-75.4	3.8	1.49e+00	0	27	104	975175680	83	24941
2026-01-05 21:28:36.72	109.69	4.71	-59.6	-75.7	3.8	1.49e+00	0	27	104	975175680	84	24187
2026-01-05 21:28:37.71	109.80	4.67	-59.7	-75.7	3.8	1.49e+00	0	27	104	975175680	84	24333
2026-01-05 21:28:38.71	109.92	4.63	-59.8	-75.8	3.8	1.49e+00	0	27	104	975175680	84	24578
2026-01-05 21:28:39.71	110.04	4.58	-59.8	-75.9	3.8	1.49e+00	0	27	104	975175680	84	24744
2026-01-05 21:28:40.71	110.16	4.54	-59.9	-75.9	3.8	1.49e+00	0	26	104	975175680	84	24891
2026-01-05 21:28:41.70	110.27	4.50	-59.9	-76.0	3.9	1.49e+00	0	27	104	975175680	85	23685
2026-01-05 21:28:42.69	110.39	4.45	-60.0	-76.0	3.8	1.49e+00	0	27	104	975175680	85	23770
2026-01-05 21:28:43.69	110.50	4.41	-60.0	-76.1	3.8	1.49e+00	0	27	104	975175680	85	23899
2026-01-05 21:28:44.69	110.62	4.37	-60.0	-76.1	3.8	1.49e+00	0	27	104	975175680	85	24019
2026-01-05 21:28:45.69	110.74	4.32	-60.1	-76.1	3.8	1.49e+00	0	27	104	975175680	85	24098
2026-01-05 21:28:46.69	110.85	4.28	-60.1	-76.2	3.8	1.49e+00	0	27	104	975175680	85	24228
2026-01-05 21:28:47.69	110.97	4.23	-60.2	-76.2	3.8	1.49e+00	0	27	104	975175680	85	24325
2026-01-05 21:28:48.68	111.08	4.19	-60.2	-76.2	3.8	1.49e+00	0	26	104	975175680	85	24365
2026-01-05 21:28:49.67	111.19	4.15	-60.2	-76.3	3.8	1.49e+00	0	27	104	975175680	85	24529
2026-01-05 21:28:50.66	111.31	4.10	-60.3	-76.3	3.8	1.49e+00	0	27	104	975175680	85	24661
2026-01-05 21:28:51.66	111.42	4.06	-60.3	-76.4	3.8	1.49e+00	0	27	104	975175680	85	24728
2026-01-05 21:28:52.66	111.53	4.02	-60.3	-76.4	3.8	1.49e+00	0	27	104	975175680	85	24894
2026-01-05 21:28:53.65	111.65	3.97	-60.4	-76.4	3.8	1.49e+00	0	27	104	975175680	85	24939
2026-01-05 21:28:54.66	111.76	3.93	-60.4	-76.4	3.8	1.49e+00	0	27	104	975175680	85	24964
2026-01-05 21:28:55.65	111.87	3.89	-60.4	-76.5	3.8	1.49e+00	0	27	104	975175680	85	25083
2026-01-05 21:28:56.65	111.98	3.84	-60.5	-76.6	3.8	1.49e+00	0	27	104	975175680	86	23872
2026-01-05 21:28:57.65	112.10	3.80	-60.5	-76.6	3.8	1.49e+00	0	27	104	975175680	86	23942
2026-01-05 21:28:58.65	112.21	3.76	-60.5	-76.6	3.8	1.49e+00	0	27	104	975175680	86	23938
2026-01-05 21:28:59.64	112.32	3.71	-60.5	-76.6	3.8	1.49e+00	0	27	104	975175680	86	24023
2026-01-05 21:29:00.64	112.43	3.67	-60.6	-76.6	3.8	1.49e+00	0	27	104	975175680	86	24074
2026-01-05 21:29:01.63	112.54	3.62	-60.5	-76.6	3.8	1.49e+00	0	27	104	975175680	86	23988
2026-01-05 21:29:02.62	112.65	3.58	-60.5	-76.6	3.8	1.49e+00	0	27	104	975175680	86	23922
2026-01-05 21:29:03.61	112.76	3.54	-60.5	-76.6	3.8	1.49e+00	0	27	104	975175680	86	23891
2026-01-05 21:29:04.62	112.87	3.49	-60.5	-76.5	3.8	1.49e+00	0	27	104	975175680	86	23845
2026-01-05 21:29:05.62	112.98	3.45	-60.5	-76.6	3.8	1.49e+00	0	27	104	975175680	86	23868
2026-01-05 21:29:06.62	113.09	3.41	-60.5	-76.5	3.8	1.49e+00	0	27	104	975175680	86	23807
2026-01-05 21:29:07.62	113.20	3.36	-60.5	-76.5	3.8	1.49e+00	0	27	104	975175680	86	23781
2026-01-05 21:29:08.61	113.30	3.32	-60.4	-76.5	3.8	1.49e+00	0	27	104	975175680	86	23769
2026-01-05 21:29:09.61	113.41	3.27	-60.4	-76.5	3.8	1.49e+00	0	27	104	975175680	86	23784
2026-01-05 21:29:10.61	113.52	3.23	-60.4	-76.5	3.8	1.49e+00	0	27	104	975175680	86	23715
2026-01-05 21:29:11.60	113.62	3.19	-60.4	-76.5	3.8	1.49e+00	0	27	104	975175680	86	23710
2026-01-05 21:29:12.61	113.73	3.14	-60.4	-76.5	3.8	1.49e+00	0	27	104	975175680	86	23764
2026-01-05 21:29:13.61	113.84	3.10	-60.4	-76.5	3.8	1.49e+00	0	27	104	975175680	86	23650
2026-01-05 21:29:14.61	113.95	3.05	-60.4	-76.5	3.8	1.49e+00	0	27	104	975175680	86	23632
2026-01-05 21:29:15.61	114.05	3.01	-60.4	-76.5	3.8	1.49e+00	0	27	104	975175680	86	23647
2026-01-05 21:29:16.60	114.16	2.97	-60.4	-76.5	3.8	1.49e+00	0	27	104	975175680	86	23609
2026-01-05 21:29:17.61	114.26	2.92	-60.4	-76.5	3.8	1.49e+00	0	27	104	975175680	86	23596
2026-01-05 21:29:18.60	114.37	2.88	-60.4	-76.5	3.8	1.49e+00	0	27	104	975175680	86	23623
2026-01-05 21:29:19.60	114.47	2.83	-60.4	-76.4	3.8	1.49e+00	0	27	104	975175680	86	23570
2026-01-05 21:29:20.60	114.58	2.79	-60.4	-76.4	3.8	1.49e+00	0	27	104	975175680	86	23540
2026-01-05 21:29:21.59	114.68	2.75	-60.4	-76.5	3.8	1.49e+00	0	27	104	975175680	86	23638
2026-01-05 21:29:22.59	114.79	2.70	-60.4	-76.4	3.8	1.49e+00	0	27	104	975175680	86	23568
2026-01-05 21:29:23.59	114.89	2.66	-60.3	-76.4	3.8	1.49e+00	0	27	104	975175680	86	23497
2026-01-05 21:29:24.59	114.99	2.61	-60.3	-76.4	3.8	1.49e+00	0	27	104	975175680	86	23500
2026-01-05 21:29:25.59	115.10	2.57	-60.3	-76.4	3.8	1.49e+00	0	27	104	975175680	86	23448
2026-01-05 21:29:26.59	115.20	2.53	-60.3	-76.4	3.8	1.49e+00	0	27	104	975175680	86	23461
2026-01-05 21:29:27.59	115.30	2.48	-60.3	-76.4	3.8	1.49e+00	0	27	104	975175680	86	23412
2026-01-05 21:29:28.59	115.41	2.44	-60.3	-76.4	3.8	1.49e+00	0	27	104	975175680	86	23390
2026-01-05 21:29:29.59	115.51	2.39	-60.3	-76.4	3.8	1.49e+00	0	27	104	975175680	86	23450
2026-01-05 21:29:30.59	115.61	2.35	-60.3	-76.4	3.8	1.49e+00	0	27	104	975175680	86	23358
2026-01-05 21:29:31.58	115.71	2.31	-60.3	-76.4	3.8	1.49e+00	0	27	104	975175680	86	23417
2026-01-05 21:29:32.58	115.81	2.26	-60.3	-76.4	3.8	1.49e+00	0	27	104	975175680	86	23413
2026-01-05 21:29:33.58	115.91	2.22	-60.3	-76.4	3.8	1.49e+00	0	27	104	975175680	86	23419
2026-01-05 21:29:34.58	116.01	2.17	-60.3	-76.4	3.8	1.49e+00	0	27	104	975175680	86	23361
2026-01-05 21:29:35.57	116.11	2.13	-60.3	-76.4	3.8	1.49e+00	0	27	104	975175680	86	23354
2026-01-05 21:29:36.58	116.21	2.08	-60.3	-76.4	3.8	1.49e+00	0	27	104	975175680	86	23330
2026-01-05 21:29:37.58	116.31	2.04	-60.3	-76.4	3.8	1.49e+00	0	27	104	975175680	86	23315
2026-01-05 21:29:38.58	116.41	2.00	-60.3	-76.4	3.8	1.49e+00	0	27	104	975175680	86	23319
2026-01-05 21:29:39.58	116.51	1.95	-60.3	-76.3	3.8	1.49e+00	0	27	104	975175680	86	23305
2026-01-05 21:29:40.58	116.61	1.91	-60.3	-76.4	3.8	1.49e+00	0	27	104	975175680	86	23354

#Closed at: 2026-01-05 21:29:41
#Recorded file [975 MB]: D:/lorett/data/31004_260106_001854.dat