passes_logs/2026/01/05/R3.2S_Murmansk/R3.2S_Murmansk__20260105_093630_NOAA_20_JPSS-1_rec.log

#Pass ID: 20260105_093630_NOAA 20 (JPSS-1)
#Satellite: NOAA 20 (JPSS-1)
#Configuration: NOAA 20
#almurnet v.1.7.20251203
#Start time: 2026-01-05 09:36:30

#Version: 2.2.20231116
#Station: R3.2S_Murmansk
#Location: 33.079688 lon 68.888172 lat
#TLE: 1 43013U 17073A   26004.47528369  .00000132  00000+0  83671-4 0  9999
#TLE: 2 43013  98.7626 305.5264 0001854  54.5883 305.5466 14.19533142421242

#Time	Az	El	Level	Level2	SNR	BER	BlckErr	Temp	State	Recorded	gain1	gain2
2026-01-05 09:36:30.91	153.74	2.03	-58.2	-74.2	3.8	1.49e+00	0	25	0	0	82	22832
2026-01-05 09:36:31.90	153.75	2.09	-58.2	-74.2	3.8	1.49e+00	0	25	104	0	81	24152
2026-01-05 09:36:32.88	153.75	2.16	-58.2	-74.1	3.8	1.49e+00	0	25	104	0	81	24052
2026-01-05 09:36:33.86	153.76	2.22	-58.2	-74.1	3.8	1.49e+00	0	25	104	0	81	24015
2026-01-05 09:36:34.86	153.76	2.29	-58.2	-74.1	3.8	1.49e+00	0	25	104	0	81	23871
2026-01-05 09:36:35.84	153.77	2.35	-58.2	-74.1	3.8	1.49e+00	0	25	104	0	81	23864
2026-01-05 09:36:36.84	153.77	2.41	-58.2	-74.0	3.8	1.49e+00	0	25	104	0	81	23839
2026-01-05 09:36:37.82	153.78	2.48	-58.2	-74.0	3.8	1.49e+00	0	25	104	0	81	23804
2026-01-05 09:36:38.80	153.78	2.54	-58.2	-74.0	3.8	1.49e+00	0	25	104	0	81	23783
2026-01-05 09:36:39.80	153.79	2.61	-58.2	-74.0	3.8	1.49e+00	0	25	104	0	81	23745
2026-01-05 09:36:40.78	153.80	2.67	-58.2	-74.0	3.8	1.49e+00	0	25	104	0	81	23708
2026-01-05 09:36:41.77	153.80	2.74	-58.2	-74.0	3.8	1.49e+00	0	26	104	0	81	23639
2026-01-05 09:36:42.77	153.81	2.80	-58.2	-73.9	3.8	1.49e+00	0	26	104	0	81	23575
2026-01-05 09:36:43.76	153.81	2.87	-58.2	-74.0	3.8	1.49e+00	0	26	104	0	81	23595
2026-01-05 09:36:44.74	153.82	2.93	-58.2	-74.0	3.8	1.49e+00	0	25	104	0	81	23659
2026-01-05 09:36:45.72	153.82	3.00	-58.2	-74.0	3.8	1.49e+00	0	26	104	0	81	23730
2026-01-05 09:36:46.71	153.83	3.06	-58.2	-74.1	3.8	1.49e+00	0	26	104	0	81	23973
2026-01-05 09:36:47.71	153.83	3.13	-58.2	-74.1	3.8	1.49e+00	0	26	104	0	81	24095
2026-01-05 09:36:48.69	153.84	3.20	-58.2	-74.1	3.8	1.49e+00	0	26	104	0	81	24008
2026-01-05 09:36:49.68	153.84	3.26	-58.2	-73.9	3.8	1.49e+00	0	26	104	0	81	23475
2026-01-05 09:36:50.66	153.85	3.33	-58.1	-73.5	3.8	1.49e+00	0	26	104	0	81	22397
2026-01-05 09:36:51.66	153.85	3.40	-58.1	-72.8	3.8	1.49e+00	0	26	104	0	81	20764
2026-01-05 09:36:52.65	153.86	3.46	-58.1	-72.1	3.8	1.49e+00	0	26	104	0	81	19032
2026-01-05 09:36:53.64	153.86	3.53	-58.1	-71.2	4.1	1.49e+00	0	26	0	0	81	17239
2026-01-05 09:36:54.62	153.87	3.60	-58.0	-70.6	4.2	1.42e+00	0	26	0	0	81	16007
2026-01-05 09:36:55.61	153.87	3.66	-58.0	-69.9	4.4	1.29e+00	82	26	0	0	81	14743
2026-01-05 09:36:56.60	153.88	3.73	-57.9	-69.3	4.6	9.87e-01	0	26	0	2097152	81	13739
2026-01-05 09:36:57.59	153.89	3.80	-57.9	-68.6	4.9	8.12e-01	0	26	0	4194304	81	12737
2026-01-05 09:36:58.58	153.89	3.87	-57.8	-67.8	5.4	5.45e-01	0	26	0	5242880	81	11551
2026-01-05 09:36:59.57	153.90	3.94	-57.7	-67.1	5.7	3.86e-01	0	26	0	7340032	81	10768
2026-01-05 09:37:00.55	153.90	4.00	-57.6	-66.4	6.2	2.39e-01	0	26	0	9437184	81	9836
2026-01-05 09:37:01.55	153.91	4.07	-57.5	-65.8	6.7	1.84e-01	0	26	0	11534336	81	9201
2026-01-05 09:37:02.53	153.91	4.14	-57.4	-65.1	7.2	1.00e-01	0	26	0	12582912	81	8549
2026-01-05 09:37:03.52	153.92	4.21	-57.2	-64.2	8.0	4.91e-02	0	26	0	14680064	81	7719
2026-01-05 09:37:04.51	153.92	4.28	-57.0	-63.3	8.7	2.59e-02	0	26	0	16777216	80	7361
2026-01-05 09:37:05.50	153.93	4.35	-56.8	-62.8	9.2	9.02e-03	0	26	0	18874368	80	6933
2026-01-05 09:37:06.48	153.93	4.42	-56.6	-62.1	9.7	3.91e-03	0	26	0	20971520	79	6790
2026-01-05 09:37:07.47	153.94	4.49	-56.5	-61.7	10.2	1.51e-03	0	26	0	22020096	79	6429
2026-01-05 09:37:08.46	153.95	4.55	-56.3	-61.3	10.5	9.22e-04	0	26	0	24117248	79	6132
2026-01-05 09:37:09.46	153.95	4.63	-56.2	-60.9	10.8	5.21e-04	0	26	0	26214400	79	5866
2026-01-05 09:37:10.45	153.96	4.70	-56.1	-60.7	10.8	1.91e-04	0	26	0	28311552	78	6115
2026-01-05 09:37:11.44	153.96	4.77	-56.1	-60.7	10.8	1.69e-04	0	26	0	29360128	78	6123
2026-01-05 09:37:12.42	153.97	4.84	-56.1	-60.7	10.9	1.48e-04	0	26	0	31457280	78	6070
2026-01-05 09:37:13.41	153.97	4.91	-56.1	-60.8	10.8	1.68e-04	0	26	0	33554432	78	6164
2026-01-05 09:37:14.40	153.98	4.98	-56.2	-61.0	10.6	3.26e-04	0	26	0	35651584	78	6303
2026-01-05 09:37:15.39	153.98	5.05	-56.4	-61.5	10.2	5.75e-04	0	26	0	36700160	78	6696
2026-01-05 09:37:16.38	153.99	5.12	-57.2	-64.2	8.2	2.34e-03	0	26	0	38797312	79	8590
2026-01-05 09:37:17.37	154.00	5.19	-56.9	-62.9	8.9	5.15e-01	0	27	0	40894464	80	7002
2026-01-05 09:37:18.37	154.00	5.26	-55.3	-59.0	12.2	7.00e-07	0	27	0	42991616	77	5286
2026-01-05 09:37:19.36	154.01	5.33	-55.1	-58.6	12.3	2.42e-04	0	26	0	45088768	76	5363
2026-01-05 09:37:20.35	154.01	5.41	-57.0	-63.7	8.2	9.36e-02	0	26	0	46137344	80	7643
2026-01-05 09:37:21.35	154.02	5.48	-55.3	-58.9	12.2	1.50e-06	0	27	0	48234496	77	5230
2026-01-05 09:37:22.36	154.02	5.55	-55.1	-58.6	12.3	0.00e+00	0	26	0	50331648	76	5367
2026-01-05 09:37:23.35	154.03	5.62	-55.0	-58.4	12.4	0.00e+00	0	26	0	52428800	76	5252
2026-01-05 09:37:24.34	154.04	5.70	-55.1	-58.5	12.4	7.00e-07	0	27	0	53477376	76	5282
2026-01-05 09:37:25.33	154.04	5.77	-55.1	-58.5	12.4	0.00e+00	0	26	0	55574528	76	5313
2026-01-05 09:37:26.33	154.05	5.84	-55.2	-58.8	12.2	0.00e+00	0	27	0	57671680	76	5496
2026-01-05 09:37:27.32	154.05	5.92	-55.3	-58.9	12.1	7.00e-07	0	27	0	59768832	76	5561
2026-01-05 09:37:28.32	154.06	5.99	-55.1	-58.6	12.3	1.50e-06	0	27	0	61865984	76	5356
2026-01-05 09:37:29.32	154.06	6.07	-55.1	-58.4	12.5	7.00e-07	0	27	0	62914560	76	5233
2026-01-05 09:37:30.31	154.07	6.14	-55.1	-58.5	12.5	0.00e+00	0	26	0	65011712	76	5291
2026-01-05 09:37:31.30	154.08	6.21	-55.0	-58.2	12.6	0.00e+00	0	27	0	67108864	76	5156
2026-01-05 09:37:32.29	154.08	6.29	-55.0	-58.3	12.6	7.00e-07	0	27	0	69206016	76	5216
2026-01-05 09:37:33.29	154.09	6.36	-55.0	-58.3	12.6	1.50e-06	0	26	0	70254592	76	5184
2026-01-05 09:37:34.29	154.09	6.44	-55.1	-58.3	12.6	0.00e+00	0	27	0	72351744	76	5212
2026-01-05 09:37:35.28	154.10	6.51	-55.1	-58.4	12.5	0.00e+00	0	27	0	74448896	76	5253
2026-01-05 09:37:36.27	154.11	6.59	-55.1	-58.4	12.6	0.00e+00	0	27	0	76546048	76	5224
2026-01-05 09:37:37.26	154.11	6.67	-55.0	-58.2	12.7	0.00e+00	0	27	0	78643200	76	5104
2026-01-05 09:37:38.25	154.12	6.74	-55.1	-58.4	12.6	0.00e+00	0	26	0	79691776	76	5223
2026-01-05 09:37:39.25	154.12	6.82	-54.9	-58.0	12.8	0.00e+00	0	27	0	81788928	76	5027
2026-01-05 09:37:40.24	154.13	6.89	-55.0	-58.1	12.7	0.00e+00	0	27	0	83886080	76	5084
2026-01-05 09:37:41.23	154.13	6.97	-54.9	-58.1	12.8	0.00e+00	0	27	0	85983232	76	5045
2026-01-05 09:37:42.22	154.14	7.05	-55.0	-58.2	12.7	0.00e+00	0	27	0	87031808	76	5109
2026-01-05 09:37:43.21	154.15	7.12	-55.0	-58.1	12.8	0.00e+00	0	27	0	89128960	76	5091
2026-01-05 09:37:44.19	154.15	7.20	-54.9	-58.0	12.9	0.00e+00	0	27	0	91226112	76	4985
2026-01-05 09:37:45.19	154.16	7.28	-54.9	-58.0	12.8	0.00e+00	0	27	0	93323264	76	5033
2026-01-05 09:37:46.18	154.16	7.36	-54.9	-58.0	12.9	0.00e+00	0	27	0	95420416	76	4998
2026-01-05 09:37:47.17	154.17	7.43	-54.9	-58.0	12.8	0.00e+00	0	27	0	96468992	76	5025
2026-01-05 09:37:48.16	154.18	7.51	-55.0	-58.1	12.8	0.00e+00	0	27	0	98566144	76	5052
2026-01-05 09:37:49.15	154.18	7.59	-54.9	-57.9	12.9	0.00e+00	0	27	0	100663296	76	4970
2026-01-05 09:37:50.15	154.19	7.67	-54.8	-57.8	13.0	0.00e+00	0	27	0	102760448	76	4887
2026-01-05 09:37:51.14	154.19	7.75	-54.8	-57.8	13.0	0.00e+00	0	27	0	103809024	76	4886
2026-01-05 09:37:52.13	154.20	7.83	-54.8	-57.8	13.0	0.00e+00	0	27	0	105906176	76	4906
2026-01-05 09:37:53.12	154.21	7.91	-54.9	-57.9	12.9	0.00e+00	0	27	0	108003328	76	4953
2026-01-05 09:37:54.11	154.21	7.99	-54.8	-57.8	13.0	0.00e+00	0	27	0	110100480	76	4892
2026-01-05 09:37:55.11	154.22	8.07	-54.8	-57.7	13.1	0.00e+00	0	27	0	111149056	76	4859
2026-01-05 09:37:56.10	154.22	8.15	-54.8	-57.8	13.0	0.00e+00	0	27	0	113246208	76	4913
2026-01-05 09:37:57.09	154.23	8.23	-54.7	-57.6	13.1	0.00e+00	0	27	0	115343360	76	4795
2026-01-05 09:37:58.08	154.24	8.31	-54.8	-57.7	13.1	0.00e+00	0	27	0	117440512	76	4841
2026-01-05 09:37:59.08	154.24	8.39	-54.8	-57.8	13.1	0.00e+00	0	27	0	119537664	76	4881
2026-01-05 09:38:00.07	154.25	8.47	-54.7	-57.6	13.2	0.00e+00	0	27	0	120586240	76	4805
2026-01-05 09:38:01.06	154.26	8.55	-54.7	-57.6	13.2	0.00e+00	0	27	0	122683392	76	4774
2026-01-05 09:38:02.05	154.26	8.63	-54.7	-57.6	13.2	0.00e+00	0	27	0	124780544	76	4770
2026-01-05 09:38:03.04	154.27	8.71	-54.8	-57.6	13.2	0.00e+00	0	27	0	126877696	76	4800
2026-01-05 09:38:04.04	154.27	8.80	-54.8	-57.6	13.2	0.00e+00	0	27	0	127926272	76	4812
2026-01-05 09:38:05.03	154.28	8.88	-54.7	-57.6	13.2	0.00e+00	0	27	0	130023424	76	4799
2026-01-05 09:38:06.02	154.29	8.96	-54.8	-57.7	13.1	0.00e+00	0	27	0	132120576	76	4841
2026-01-05 09:38:07.01	154.29	9.04	-54.7	-57.6	13.2	0.00e+00	0	27	0	134217728	76	4764
2026-01-05 09:38:08.00	154.30	9.13	-54.5	-57.3	13.2	0.00e+00	0	27	0	136314880	75	4920
2026-01-05 09:38:08.99	154.31	9.21	-54.6	-57.4	13.2	0.00e+00	0	27	0	137363456	75	4940
2026-01-05 09:38:09.99	154.31	9.30	-54.5	-57.3	13.3	0.00e+00	0	27	0	139460608	75	4899
2026-01-05 09:38:10.99	154.32	9.38	-54.6	-57.4	13.2	0.00e+00	0	27	0	141557760	75	4955
2026-01-05 09:38:11.99	154.33	9.47	-54.5	-57.3	13.3	0.00e+00	0	27	0	143654912	75	4907
2026-01-05 09:38:12.98	154.33	9.55	-54.6	-57.4	13.2	0.00e+00	0	27	0	144703488	75	4938
2026-01-05 09:38:13.97	154.34	9.64	-54.4	-57.2	13.3	0.00e+00	0	27	0	146800640	75	4823
2026-01-05 09:38:14.97	154.34	9.72	-54.5	-57.2	13.3	0.00e+00	0	27	0	148897792	75	4853
2026-01-05 09:38:15.95	154.35	9.81	-54.4	-57.1	13.4	0.00e+00	0	27	0	150994944	75	4797
2026-01-05 09:38:16.94	154.36	9.89	-54.4	-57.1	13.4	0.00e+00	0	27	0	153092096	75	4791
2026-01-05 09:38:17.94	154.36	9.98	-54.3	-57.0	13.5	0.00e+00	0	27	0	154140672	75	4712
2026-01-05 09:38:18.94	154.37	10.07	-54.3	-56.9	13.5	0.00e+00	0	27	0	156237824	75	4690
2026-01-05 09:38:19.94	154.38	10.15	-54.4	-57.0	13.5	0.00e+00	0	27	0	158334976	75	4731
2026-01-05 09:38:20.93	154.38	10.24	-54.3	-56.9	13.5	0.00e+00	0	27	0	160432128	75	4689
2026-01-05 09:38:21.92	154.39	10.33	-54.3	-56.9	13.5	0.00e+00	0	27	0	161480704	75	4655
2026-01-05 09:38:22.91	154.40	10.42	-54.2	-56.7	13.5	0.00e+00	0	27	0	163577856	74	4838
2026-01-05 09:38:23.90	154.40	10.50	-54.2	-56.7	13.5	0.00e+00	0	27	0	165675008	74	4856
2026-01-05 09:38:24.90	154.41	10.59	-54.2	-56.7	13.5	0.00e+00	0	27	0	167772160	74	4834
2026-01-05 09:38:25.89	154.42	10.68	-54.2	-56.8	13.5	0.00e+00	0	27	0	169869312	74	4874
2026-01-05 09:38:26.88	154.42	10.77	-54.1	-56.6	13.6	0.00e+00	0	27	0	170917888	74	4807
2026-01-05 09:38:27.88	154.43	10.86	-54.1	-56.6	13.6	0.00e+00	0	27	0	173015040	74	4783
2026-01-05 09:38:28.87	154.44	10.95	-54.2	-56.7	13.5	0.00e+00	0	27	0	175112192	74	4834
2026-01-05 09:38:29.87	154.44	11.04	-54.1	-56.6	13.6	0.00e+00	0	27	0	177209344	74	4761
2026-01-05 09:38:30.86	154.45	11.13	-54.1	-56.6	13.6	0.00e+00	0	27	0	178257920	74	4768
2026-01-05 09:38:31.86	154.46	11.22	-54.0	-56.4	13.7	0.00e+00	0	27	0	180355072	74	4691
2026-01-05 09:38:32.85	154.46	11.31	-54.0	-56.4	13.7	0.00e+00	0	27	0	182452224	74	4663
2026-01-05 09:38:33.85	154.47	11.40	-53.9	-56.4	13.7	0.00e+00	0	27	0	184549376	74	4662
2026-01-05 09:38:34.85	154.48	11.50	-54.0	-56.5	13.7	0.00e+00	0	27	0	186646528	74	4711
2026-01-05 09:38:35.84	154.48	11.59	-53.9	-56.3	13.7	0.00e+00	0	27	0	187695104	74	4643
2026-01-05 09:38:36.84	154.49	11.68	-53.9	-56.3	13.8	0.00e+00	0	27	0	189792256	74	4633
2026-01-05 09:38:37.83	154.50	11.78	-53.9	-56.3	13.7	0.00e+00	0	27	0	191889408	74	4641
2026-01-05 09:38:38.83	154.51	11.87	-53.9	-56.2	13.8	0.00e+00	0	27	0	193986560	74	4597
2026-01-05 09:38:39.83	154.51	11.96	-53.9	-56.2	13.8	0.00e+00	0	27	0	195035136	74	4596
2026-01-05 09:38:40.82	154.52	12.06	-53.9	-56.2	13.8	0.00e+00	0	27	0	197132288	74	4591
2026-01-05 09:38:41.81	154.53	12.15	-53.8	-56.1	13.9	0.00e+00	0	27	0	199229440	74	4535
2026-01-05 09:38:42.81	154.53	12.25	-53.8	-56.1	13.9	0.00e+00	0	27	0	201326592	74	4537
2026-01-05 09:38:43.80	154.54	12.34	-53.8	-56.2	13.9	0.00e+00	0	27	0	203423744	74	4553
2026-01-05 09:38:44.80	154.55	12.44	-53.7	-56.0	14.0	0.00e+00	0	27	0	204472320	74	4458
2026-01-05 09:38:45.80	154.55	12.53	-53.8	-56.1	13.9	0.00e+00	0	27	0	206569472	74	4530
2026-01-05 09:38:46.79	154.56	12.63	-53.7	-56.0	13.8	0.00e+00	0	27	0	208666624	73	4718
2026-01-05 09:38:47.79	154.57	12.73	-53.6	-55.9	13.9	0.00e+00	0	27	0	210763776	73	4668
2026-01-05 09:38:48.78	154.58	12.82	-53.6	-55.8	14.0	0.00e+00	0	27	0	211812352	73	4614
2026-01-05 09:38:49.78	154.58	12.92	-53.5	-55.7	14.0	0.00e+00	0	27	0	213909504	73	4596
2026-01-05 09:38:50.77	154.59	13.02	-53.6	-55.8	13.9	0.00e+00	0	27	0	216006656	73	4625
2026-01-05 09:38:51.76	154.60	13.12	-53.5	-55.6	14.0	0.00e+00	0	27	0	218103808	73	4545
2026-01-05 09:38:52.75	154.61	13.21	-53.5	-55.7	14.0	0.00e+00	0	27	0	220200960	73	4546
2026-01-05 09:38:53.74	154.61	13.31	-53.5	-55.7	14.0	0.00e+00	0	27	0	221249536	73	4590
2026-01-05 09:38:54.74	154.62	13.41	-53.4	-55.6	14.0	0.00e+00	0	27	0	223346688	73	4534
2026-01-05 09:38:55.73	154.63	13.51	-53.3	-55.5	14.1	0.00e+00	0	27	0	225443840	73	4466
2026-01-05 09:38:56.73	154.63	13.61	-53.4	-55.6	14.0	0.00e+00	0	27	0	227540992	73	4528
2026-01-05 09:38:57.72	154.64	13.71	-53.4	-55.5	14.1	0.00e+00	0	27	0	228589568	73	4470
2026-01-05 09:38:58.71	154.65	13.81	-53.4	-55.5	14.1	0.00e+00	0	27	0	230686720	73	4484
2026-01-05 09:38:59.71	154.66	13.92	-53.3	-55.4	14.2	0.00e+00	0	27	0	232783872	73	4421
2026-01-05 09:39:00.69	154.66	14.02	-53.4	-55.5	14.1	0.00e+00	0	27	0	234881024	73	4493
2026-01-05 09:39:01.69	154.67	14.12	-53.3	-55.4	14.2	0.00e+00	0	27	0	236978176	73	4436
2026-01-05 09:39:02.68	154.68	14.22	-53.3	-55.4	14.2	0.00e+00	0	27	0	238026752	73	4407
2026-01-05 09:39:03.66	154.69	14.32	-53.3	-55.4	14.2	0.00e+00	0	27	0	240123904	73	4437
2026-01-05 09:39:04.66	154.69	14.43	-53.4	-55.6	14.1	0.00e+00	0	27	0	242221056	73	4496
2026-01-05 09:39:05.64	154.70	14.53	-53.3	-55.3	14.2	0.00e+00	0	27	0	244318208	73	4383
2026-01-05 09:39:06.63	154.71	14.64	-53.3	-55.3	14.2	0.00e+00	0	27	0	245366784	73	4377
2026-01-05 09:39:07.62	154.72	14.74	-53.2	-55.2	14.2	0.00e+00	0	27	0	247463936	72	4578
2026-01-05 09:39:08.62	154.72	14.85	-53.2	-55.2	14.1	0.00e+00	0	27	0	249561088	72	4597
2026-01-05 09:39:09.61	154.73	14.95	-53.1	-55.1	14.2	0.00e+00	0	27	0	251658240	72	4505
2026-01-05 09:39:10.61	154.74	15.06	-53.0	-55.0	14.3	0.00e+00	0	27	0	252706816	72	4485
2026-01-05 09:39:11.59	154.75	15.16	-53.0	-55.0	14.3	0.00e+00	0	27	0	254803968	72	4450
2026-01-05 09:39:12.59	154.76	15.27	-53.0	-55.0	14.3	0.00e+00	0	27	0	256901120	72	4468
2026-01-05 09:39:13.59	154.76	15.38	-53.0	-55.0	14.3	0.00e+00	0	27	0	258998272	72	4466
2026-01-05 09:39:14.59	154.77	15.49	-53.0	-55.0	14.3	0.00e+00	0	27	0	261095424	72	4442
2026-01-05 09:39:15.58	154.78	15.60	-52.9	-54.8	14.3	0.00e+00	0	27	0	262144000	72	4386
2026-01-05 09:39:16.57	154.79	15.71	-53.0	-54.9	14.3	0.00e+00	0	27	0	264241152	72	4430
2026-01-05 09:39:17.56	154.80	15.82	-52.9	-54.9	14.3	0.00e+00	0	27	0	266338304	72	4404
2026-01-05 09:39:18.55	154.80	15.92	-52.8	-54.7	14.4	0.00e+00	0	27	0	268435456	72	4303
2026-01-05 09:39:19.55	154.81	16.04	-52.8	-54.8	14.4	0.00e+00	0	27	0	269484032	72	4352
2026-01-05 09:39:20.54	154.82	16.15	-52.8	-54.7	14.4	0.00e+00	0	27	0	271581184	72	4310
2026-01-05 09:39:21.54	154.83	16.26	-52.8	-54.7	14.4	0.00e+00	0	27	0	273678336	72	4307
2026-01-05 09:39:22.54	154.84	16.37	-52.8	-54.7	14.4	0.00e+00	0	27	0	275775488	72	4316
2026-01-05 09:39:23.54	154.84	16.49	-52.8	-54.7	14.4	0.00e+00	0	27	0	277872640	72	4338
2026-01-05 09:39:24.54	154.85	16.60	-52.8	-54.7	14.4	0.00e+00	0	27	0	278921216	72	4301
2026-01-05 09:39:25.53	154.86	16.71	-52.6	-54.5	14.4	0.00e+00	0	27	0	281018368	71	4446
2026-01-05 09:39:26.53	154.87	16.83	-52.6	-54.4	14.4	0.00e+00	0	27	0	283115520	71	4421
2026-01-05 09:39:27.53	154.88	16.94	-52.6	-54.4	14.4	0.00e+00	0	27	0	285212672	71	4433
2026-01-05 09:39:28.53	154.89	17.06	-52.6	-54.4	14.4	0.00e+00	0	27	0	287309824	71	4439
2026-01-05 09:39:29.53	154.89	17.18	-52.6	-54.4	14.4	0.00e+00	0	27	0	288358400	71	4433
2026-01-05 09:39:30.52	154.90	17.29	-52.6	-54.4	14.4	0.00e+00	0	27	0	290455552	71	4433
2026-01-05 09:39:31.51	154.91	17.41	-52.5	-54.3	14.5	0.00e+00	0	27	0	292552704	71	4384
2026-01-05 09:39:32.50	154.92	17.53	-52.5	-54.3	14.5	0.00e+00	0	27	0	294649856	71	4383
2026-01-05 09:39:33.48	154.93	17.64	-52.6	-54.4	14.4	0.00e+00	0	27	0	295698432	71	4429
2026-01-05 09:39:34.47	154.94	17.76	-52.6	-54.5	14.4	0.00e+00	0	27	0	297795584	71	4458
2026-01-05 09:39:35.47	154.95	17.88	-52.6	-54.4	14.4	0.00e+00	0	27	0	299892736	71	4408
2026-01-05 09:39:36.46	154.95	18.00	-52.6	-54.5	14.4	0.00e+00	0	27	0	301989888	71	4443
2026-01-05 09:39:37.45	154.96	18.12	-52.5	-54.3	14.5	0.00e+00	0	27	0	303038464	71	4368
2026-01-05 09:39:38.45	154.97	18.24	-52.4	-54.2	14.5	0.00e+00	0	27	0	305135616	71	4313
2026-01-05 09:39:39.44	154.98	18.36	-52.4	-54.2	14.5	0.00e+00	0	27	0	307232768	71	4333
2026-01-05 09:39:40.43	154.99	18.49	-52.4	-54.2	14.6	0.00e+00	0	27	0	309329920	71	4302
2026-01-05 09:39:41.42	155.00	18.61	-52.4	-54.3	14.5	0.00e+00	0	27	0	311427072	71	4345
2026-01-05 09:39:42.41	155.01	18.73	-52.3	-54.1	14.6	0.00e+00	0	27	0	312475648	71	4266
2026-01-05 09:39:43.41	155.02	18.86	-52.3	-54.1	14.6	0.00e+00	0	27	0	314572800	71	4278
2026-01-05 09:39:44.40	155.02	18.98	-52.4	-54.2	14.5	0.00e+00	0	27	0	316669952	71	4334
2026-01-05 09:39:45.39	155.03	19.11	-52.4	-54.2	14.6	0.00e+00	0	27	0	318767104	71	4301
2026-01-05 09:39:46.39	155.04	19.23	-52.5	-54.3	14.5	0.00e+00	0	27	0	319815680	71	4384
2026-01-05 09:39:47.38	155.05	19.36	-52.3	-54.1	14.6	0.00e+00	0	27	0	321912832	71	4285
2026-01-05 09:39:48.38	155.06	19.49	-52.3	-54.1	14.6	0.00e+00	0	27	0	324009984	71	4257
2026-01-05 09:39:49.37	155.07	19.61	-52.4	-54.2	14.6	0.00e+00	0	27	0	326107136	71	4312
2026-01-05 09:39:50.37	155.08	19.74	-52.3	-54.0	14.6	0.00e+00	0	27	0	328204288	71	4241
2026-01-05 09:39:51.36	155.09	19.87	-52.4	-54.2	14.6	0.00e+00	0	27	0	329252864	71	4300
2026-01-05 09:39:52.35	155.10	20.00	-52.4	-54.1	14.6	0.00e+00	0	27	0	331350016	71	4291
2026-01-05 09:39:53.35	155.11	20.13	-52.1	-53.9	14.6	0.00e+00	0	27	0	333447168	70	4397
2026-01-05 09:39:54.34	155.12	20.26	-52.2	-53.9	14.6	0.00e+00	0	27	0	335544320	70	4411
2026-01-05 09:39:55.33	155.13	20.40	-52.2	-54.0	14.5	0.00e+00	0	27	0	336592896	70	4463
2026-01-05 09:39:56.33	155.14	20.53	-52.3	-54.0	14.5	0.00e+00	0	27	0	338690048	70	4476
2026-01-05 09:39:57.32	155.15	20.66	-52.2	-54.0	14.5	0.00e+00	0	27	0	340787200	70	4454
2026-01-05 09:39:58.32	155.16	20.80	-52.1	-53.8	14.6	0.00e+00	0	27	0	342884352	70	4385
2026-01-05 09:39:59.31	155.17	20.93	-52.1	-53.8	14.6	0.00e+00	0	27	0	344981504	70	4366
2026-01-05 09:40:00.30	155.18	21.07	-52.2	-53.9	14.6	0.00e+00	0	27	0	346030080	70	4414
2026-01-05 09:40:01.29	155.19	21.20	-52.1	-53.8	14.6	0.00e+00	0	27	0	348127232	70	4360
2026-01-05 09:40:02.29	155.20	21.34	-52.1	-53.8	14.6	0.00e+00	0	27	0	350224384	70	4368
2026-01-05 09:40:03.28	155.21	21.48	-52.0	-53.7	14.7	0.00e+00	0	27	0	352321536	70	4313
2026-01-05 09:40:04.27	155.22	21.62	-52.0	-53.7	14.7	0.00e+00	0	27	0	353370112	70	4304
2026-01-05 09:40:05.27	155.23	21.76	-52.0	-53.7	14.7	0.00e+00	0	27	0	355467264	70	4327
2026-01-05 09:40:06.26	155.24	21.90	-52.0	-53.8	14.6	0.00e+00	0	27	0	357564416	70	4342
2026-01-05 09:40:07.25	155.25	22.04	-52.0	-53.7	14.7	0.00e+00	0	27	0	359661568	70	4321
2026-01-05 09:40:08.24	155.26	22.18	-52.1	-53.8	14.6	0.00e+00	0	27	0	361758720	70	4366
2026-01-05 09:40:09.24	155.27	22.32	-52.1	-53.8	14.6	0.00e+00	0	27	0	362807296	70	4385
2026-01-05 09:40:10.23	155.28	22.46	-52.1	-53.8	14.6	0.00e+00	0	27	0	364904448	70	4385
2026-01-05 09:40:11.22	155.29	22.61	-52.1	-53.8	14.6	0.00e+00	0	27	0	367001600	70	4361
2026-01-05 09:40:12.21	155.30	22.75	-52.0	-53.7	14.6	0.00e+00	0	27	0	369098752	70	4336
2026-01-05 09:40:13.20	155.31	22.90	-52.1	-53.8	14.6	0.00e+00	0	27	0	370147328	70	4345
2026-01-05 09:40:14.20	155.32	23.04	-52.1	-53.8	14.6	0.00e+00	0	27	0	372244480	70	4345
2026-01-05 09:40:15.19	155.33	23.19	-52.1	-53.8	14.6	0.00e+00	0	27	0	374341632	70	4364
2026-01-05 09:40:16.18	155.34	23.34	-52.1	-53.8	14.6	0.00e+00	0	27	0	376438784	70	4357
2026-01-05 09:40:17.17	155.35	23.49	-52.2	-53.9	14.6	0.00e+00	0	27	0	378535936	70	4405
2026-01-05 09:40:18.17	155.36	23.64	-52.3	-54.0	14.5	0.00e+00	0	27	0	379584512	70	4480
2026-01-05 09:40:19.16	155.37	23.79	-52.1	-53.8	14.6	0.00e+00	0	27	0	381681664	70	4369
2026-01-05 09:40:20.15	155.38	23.94	-52.1	-53.8	14.6	0.00e+00	0	27	0	383778816	70	4375
2026-01-05 09:40:21.15	155.40	24.09	-52.1	-53.8	14.6	0.00e+00	0	27	0	385875968	70	4379
2026-01-05 09:40:22.14	155.41	24.25	-52.1	-53.8	14.6	0.00e+00	0	27	0	386924544	70	4344
2026-01-05 09:40:23.14	155.42	24.40	-52.2	-53.9	14.6	0.00e+00	0	27	0	389021696	70	4429
2026-01-05 09:40:24.12	155.43	24.56	-52.2	-54.0	14.5	0.00e+00	0	27	0	391118848	70	4450
2026-01-05 09:40:25.11	155.44	24.71	-52.1	-53.8	14.6	0.00e+00	0	27	0	393216000	70	4375
2026-01-05 09:40:26.10	155.45	24.87	-52.2	-53.9	14.6	0.00e+00	0	27	0	394264576	70	4412
2026-01-05 09:40:27.08	155.46	25.02	-52.2	-53.9	14.6	0.00e+00	0	27	0	396361728	70	4402
2026-01-05 09:40:28.07	155.47	25.18	-52.3	-54.1	14.5	0.00e+00	0	27	0	398458880	70	4506
2026-01-05 09:40:29.06	155.49	25.34	-52.4	-54.1	14.5	0.00e+00	0	27	0	400556032	70	4529
2026-01-05 09:40:30.05	155.50	25.50	-52.3	-54.0	14.5	0.00e+00	0	27	0	402653184	70	4469
2026-01-05 09:40:31.04	155.51	25.66	-52.3	-54.1	14.5	0.00e+00	0	27	0	403701760	70	4516
2026-01-05 09:40:32.04	155.52	25.83	-52.5	-54.3	14.4	0.00e+00	0	27	0	405798912	70	4624
2026-01-05 09:40:33.03	155.53	25.99	-52.5	-54.2	14.5	0.00e+00	0	27	0	407896064	70	4581
2026-01-05 09:40:34.02	155.55	26.15	-52.6	-54.4	14.4	0.00e+00	0	27	0	409993216	70	4665
2026-01-05 09:40:35.03	155.56	26.32	-52.6	-54.4	14.4	0.00e+00	0	27	0	411041792	70	4659
2026-01-05 09:40:36.03	155.57	26.49	-52.7	-54.5	14.4	0.00e+00	0	27	0	413138944	70	4722
2026-01-05 09:40:37.03	155.58	26.66	-52.7	-54.5	14.4	0.00e+00	0	27	0	415236096	70	4719
2026-01-05 09:40:38.02	155.60	26.83	-52.8	-54.6	14.3	0.00e+00	0	27	0	417333248	70	4812
2026-01-05 09:40:39.02	155.61	27.00	-52.9	-54.8	14.2	0.00e+00	0	27	0	419430400	70	4874
2026-01-05 09:40:40.01	155.62	27.17	-53.0	-54.9	14.3	0.00e+00	0	27	0	420478976	71	4679
2026-01-05 09:40:41.00	155.63	27.34	-53.1	-55.0	14.2	0.00e+00	0	27	0	422576128	71	4747
2026-01-05 09:40:42.00	155.65	27.52	-53.2	-55.1	14.2	0.00e+00	0	27	0	424673280	71	4812
2026-01-05 09:40:42.99	155.66	27.69	-53.5	-55.5	14.1	0.00e+00	0	27	0	426770432	72	4716
2026-01-05 09:40:43.99	155.67	27.87	-53.7	-55.8	14.0	0.00e+00	0	27	0	427819008	72	4906
2026-01-05 09:40:44.98	155.69	28.04	-53.7	-55.9	14.0	0.00e+00	0	27	0	429916160	72	4927
2026-01-05 09:40:45.97	155.70	28.22	-54.0	-56.3	13.9	0.00e+00	0	27	0	432013312	73	4884
2026-01-05 09:40:46.97	155.71	28.40	-54.1	-56.3	13.9	0.00e+00	0	27	0	434110464	73	4891
2026-01-05 09:40:47.96	155.73	28.58	-54.2	-56.4	13.8	0.00e+00	0	27	0	436207616	73	4974
2026-01-05 09:40:48.96	155.74	28.76	-54.3	-56.7	13.6	0.00e+00	0	27	0	437256192	73	5126
2026-01-05 09:40:49.95	155.75	28.94	-54.5	-56.9	13.6	0.00e+00	0	27	0	439353344	74	4954
2026-01-05 09:40:50.95	155.77	29.13	-54.7	-57.2	13.5	0.00e+00	0	27	0	441450496	74	5134
2026-01-05 09:40:51.95	155.78	29.32	-54.9	-57.4	13.4	0.00e+00	0	27	0	443547648	74	5267
2026-01-05 09:40:52.94	155.80	29.50	-54.9	-57.4	13.5	0.00e+00	0	27	0	444596224	75	4982
2026-01-05 09:40:53.94	155.81	29.69	-55.0	-57.7	13.3	0.00e+00	0	27	0	446693376	75	5105
2026-01-05 09:40:54.93	155.83	29.88	-55.0	-57.7	13.3	0.00e+00	0	27	0	448790528	75	5127
2026-01-05 09:40:55.92	155.84	30.07	-55.1	-57.8	13.3	0.00e+00	0	27	0	450887680	75	5193
2026-01-05 09:40:56.91	155.85	30.26	-55.1	-57.7	13.3	0.00e+00	0	27	0	452984832	75	5131
2026-01-05 09:40:57.91	155.87	30.45	-55.1	-57.7	13.3	0.00e+00	0	27	0	454033408	75	5121
2026-01-05 09:40:58.89	155.88	30.64	-55.1	-57.8	13.3	0.00e+00	0	27	0	456130560	75	5161
2026-01-05 09:40:59.90	155.90	30.84	-55.1	-57.7	13.3	0.00e+00	0	27	0	458227712	75	5141
2026-01-05 09:41:00.89	155.91	31.04	-55.1	-57.7	13.3	0.00e+00	0	27	0	460324864	75	5128
2026-01-05 09:41:01.87	155.93	31.23	-55.1	-57.7	13.3	0.00e+00	0	27	0	461373440	75	5137
2026-01-05 09:41:02.87	155.95	31.43	-55.0	-57.6	13.4	0.00e+00	0	27	0	463470592	75	5071
2026-01-05 09:41:03.86	155.96	31.63	-55.0	-57.6	13.4	0.00e+00	0	27	0	465567744	75	5064
2026-01-05 09:41:04.85	155.98	31.83	-55.0	-57.6	13.4	0.00e+00	0	27	0	467664896	75	5093
2026-01-05 09:41:05.85	155.99	32.04	-55.0	-57.7	13.3	0.00e+00	0	27	0	469762048	75	5112
2026-01-05 09:41:06.84	156.01	32.24	-54.9	-57.5	13.5	0.00e+00	0	27	0	470810624	75	4994
2026-01-05 09:41:07.84	156.03	32.45	-54.9	-57.5	13.5	0.00e+00	0	27	0	472907776	75	4988
2026-01-05 09:41:08.83	156.04	32.65	-54.9	-57.4	13.5	0.00e+00	0	27	0	475004928	75	4961
2026-01-05 09:41:09.81	156.06	32.86	-54.8	-57.3	13.6	0.00e+00	0	27	0	477102080	75	4914
2026-01-05 09:41:10.80	156.07	33.07	-54.6	-57.1	13.7	0.00e+00	0	28	0	478150656	75	4770
2026-01-05 09:41:11.78	156.09	33.28	-54.4	-56.7	13.9	0.00e+00	0	27	0	480247808	75	4586
2026-01-05 09:41:12.77	156.11	33.49	-54.2	-56.5	14.0	0.00e+00	0	27	0	482344960	75	4465
2026-01-05 09:41:13.77	156.13	33.71	-54.0	-56.1	14.1	0.00e+00	0	27	0	484442112	74	4516
2026-01-05 09:41:14.76	156.14	33.92	-53.7	-55.8	14.2	0.00e+00	0	27	0	485490688	74	4342
2026-01-05 09:41:15.75	156.16	34.14	-53.4	-55.4	14.3	0.00e+00	0	27	0	487587840	73	4393
2026-01-05 09:41:16.74	156.18	34.36	-53.2	-55.1	14.3	0.00e+00	0	27	0	489684992	72	4506
2026-01-05 09:41:17.74	156.20	34.58	-53.2	-55.1	14.3	0.00e+00	0	27	0	491782144	72	4503
2026-01-05 09:41:18.73	156.21	34.80	-53.1	-55.0	14.4	0.00e+00	0	27	0	493879296	72	4455
2026-01-05 09:41:19.71	156.23	35.02	-52.8	-54.6	14.6	0.00e+00	0	27	0	494927872	72	4287
2026-01-05 09:41:20.70	156.25	35.25	-52.5	-54.3	14.6	0.00e+00	0	27	0	497025024	71	4360
2026-01-05 09:41:21.70	156.27	35.47	-52.1	-53.8	14.8	0.00e+00	0	27	0	499122176	70	4350
2026-01-05 09:41:22.69	156.29	35.70	-52.2	-53.8	14.6	0.00e+00	0	27	0	501219328	70	4387
2026-01-05 09:41:23.67	156.31	35.93	-52.1	-53.8	14.7	0.00e+00	0	27	0	502267904	70	4367
2026-01-05 09:41:24.66	156.33	36.16	-52.1	-53.8	14.7	0.00e+00	0	27	0	504365056	70	4354
2026-01-05 09:41:25.66	156.35	36.40	-52.0	-53.7	14.7	0.00e+00	0	27	0	506462208	70	4300
2026-01-05 09:41:26.66	156.37	36.63	-52.0	-53.7	14.7	0.00e+00	0	27	0	508559360	70	4309
2026-01-05 09:41:27.65	156.39	36.87	-51.9	-53.5	14.8	0.00e+00	0	27	0	510656512	70	4232
2026-01-05 09:41:28.64	156.41	37.11	-51.8	-53.4	14.8	0.00e+00	0	27	0	511705088	70	4190
2026-01-05 09:41:29.64	156.43	37.35	-51.4	-52.9	14.9	0.00e+00	0	27	0	513802240	69	4154
2026-01-05 09:41:30.63	156.45	37.59	-51.3	-52.8	15.0	0.00e+00	0	27	0	515899392	69	4100
2026-01-05 09:41:31.62	156.47	37.83	-51.2	-52.7	14.8	0.00e+00	0	27	0	517996544	68	4302
2026-01-05 09:41:32.62	156.49	38.08	-51.2	-52.7	14.8	0.00e+00	0	27	0	519045120	68	4302
2026-01-05 09:41:33.61	156.51	38.33	-50.9	-52.4	15.0	0.00e+00	0	27	0	521142272	68	4158
2026-01-05 09:41:34.60	156.53	38.58	-51.0	-52.5	14.9	0.00e+00	0	27	0	523239424	68	4217
2026-01-05 09:41:35.59	156.56	38.83	-51.1	-52.5	14.9	0.00e+00	0	27	0	525336576	68	4238
2026-01-05 09:41:36.58	156.58	39.08	-51.2	-52.6	14.9	0.00e+00	0	27	0	527433728	68	4291
2026-01-05 09:41:37.58	156.60	39.33	-51.1	-52.6	14.9	0.00e+00	0	27	0	528482304	68	4253
2026-01-05 09:41:38.57	156.62	39.59	-51.1	-52.5	14.9	0.00e+00	0	27	0	530579456	68	4229
2026-01-05 09:41:39.57	156.65	39.85	-51.1	-52.6	14.9	0.00e+00	0	27	0	532676608	68	4247
2026-01-05 09:41:40.57	156.67	40.11	-51.0	-52.5	14.9	0.00e+00	0	27	0	534773760	68	4196
2026-01-05 09:41:41.56	156.70	40.38	-51.0	-52.5	14.9	0.00e+00	0	27	0	535822336	68	4197
2026-01-05 09:41:42.55	156.72	40.64	-50.9	-52.4	15.0	0.00e+00	0	28	0	537919488	68	4163
2026-01-05 09:41:43.54	156.74	40.90	-50.9	-52.3	15.0	0.00e+00	0	27	0	540016640	68	4123
2026-01-05 09:41:44.54	156.77	41.17	-50.9	-52.3	15.0	0.00e+00	0	27	0	542113792	68	4131
2026-01-05 09:41:45.52	156.79	41.44	-50.9	-52.3	15.0	0.00e+00	0	27	0	544210944	68	4122
2026-01-05 09:41:46.52	156.82	41.72	-50.9	-52.3	15.0	0.00e+00	0	27	0	545259520	68	4139
2026-01-05 09:41:47.51	156.85	41.99	-51.0	-52.4	14.9	0.00e+00	0	27	0	547356672	68	4172
2026-01-05 09:41:48.50	156.87	42.26	-51.2	-52.7	14.8	0.00e+00	0	27	0	549453824	68	4310
2026-01-05 09:41:49.49	156.90	42.54	-51.4	-52.9	14.8	0.00e+00	0	27	0	551550976	68	4440
2026-01-05 09:41:50.48	156.93	42.82	-51.6	-53.2	14.7	0.00e+00	0	27	0	552599552	68	4578
2026-01-05 09:41:51.48	156.96	43.11	-51.8	-53.4	14.6	0.00e+00	0	27	0	554696704	68	4654
2026-01-05 09:41:52.47	156.98	43.39	-52.0	-53.6	14.5	0.00e+00	0	27	0	556793856	69	4526
2026-01-05 09:41:53.47	157.01	43.68	-52.2	-53.9	14.5	0.00e+00	0	27	0	558891008	69	4684
2026-01-05 09:41:54.48	157.04	43.97	-52.6	-54.3	14.5	0.00e+00	0	28	0	560988160	70	4643
2026-01-05 09:41:55.48	157.07	44.27	-52.7	-54.5	14.4	0.00e+00	0	27	0	562036736	70	4728
2026-01-05 09:41:56.47	157.10	44.56	-52.8	-54.6	14.4	0.00e+00	0	27	0	564133888	70	4786
2026-01-05 09:41:57.47	157.13	44.86	-53.2	-55.1	14.3	0.00e+00	0	27	0	566231040	71	4762
2026-01-05 09:41:58.46	157.16	45.15	-53.2	-55.1	14.2	0.00e+00	0	27	0	568328192	71	4810
2026-01-05 09:41:59.46	157.19	45.46	-53.6	-55.6	14.2	0.00e+00	0	27	0	569376768	72	4761
2026-01-05 09:42:00.46	157.23	45.76	-53.9	-56.0	14.0	0.00e+00	0	27	0	571473920	72	5023
2026-01-05 09:42:01.45	157.26	46.07	-54.2	-56.4	13.8	0.00e+00	0	27	0	573571072	73	4974
2026-01-05 09:42:02.44	157.29	46.37	-54.3	-56.6	13.8	0.00e+00	0	27	0	575668224	73	5070
2026-01-05 09:42:03.43	157.33	46.68	-54.5	-56.9	13.8	0.00e+00	0	27	0	577765376	74	4947
2026-01-05 09:42:04.42	157.36	46.99	-54.5	-56.8	13.8	0.00e+00	0	27	0	578813952	74	4906
2026-01-05 09:42:05.41	157.39	47.30	-54.3	-56.6	13.9	0.00e+00	0	27	0	580911104	74	4775
2026-01-05 09:42:06.40	157.43	47.62	-54.2	-56.4	14.0	0.00e+00	0	27	0	583008256	74	4656
2026-01-05 09:42:07.40	157.47	47.94	-54.2	-56.3	14.0	0.00e+00	0	27	0	585105408	74	4643
2026-01-05 09:42:08.39	157.50	48.26	-54.3	-56.4	14.0	0.00e+00	0	27	0	586153984	74	4702
2026-01-05 09:42:09.39	157.54	48.58	-54.5	-56.8	13.8	0.00e+00	0	27	0	588251136	74	4919
2026-01-05 09:42:10.37	157.58	48.91	-54.7	-57.1	13.6	0.00e+00	0	27	0	590348288	74	5090
2026-01-05 09:42:11.37	157.62	49.24	-54.9	-57.3	13.5	0.00e+00	0	27	0	592445440	74	5208
2026-01-05 09:42:12.36	157.66	49.57	-54.8	-57.3	13.6	0.00e+00	0	27	0	594542592	75	4883
2026-01-05 09:42:13.35	157.70	49.90	-54.5	-56.8	13.9	0.00e+00	0	27	0	595591168	75	4624
2026-01-05 09:42:14.34	157.74	50.23	-54.2	-56.4	14.1	0.00e+00	0	27	0	597688320	75	4394
2026-01-05 09:42:15.33	157.78	50.57	-53.6	-55.5	14.3	0.00e+00	0	27	0	599785472	73	4472
2026-01-05 09:42:16.32	157.82	50.91	-53.2	-55.1	14.5	0.00e+00	0	27	0	601882624	73	4247
2026-01-05 09:42:17.32	157.87	51.25	-52.8	-54.6	14.6	0.00e+00	0	27	0	602931200	72	4270
2026-01-05 09:42:18.30	157.91	51.59	-52.2	-53.8	14.8	0.00e+00	0	27	0	605028352	71	4141
2026-01-05 09:42:19.30	157.96	51.94	-51.7	-53.2	14.9	0.00e+00	0	27	0	607125504	70	4081
2026-01-05 09:42:20.28	158.01	52.29	-51.0	-52.4	15.0	0.00e+00	0	27	0	609222656	68	4187
2026-01-05 09:42:21.28	158.05	52.64	-50.5	-51.8	15.0	0.00e+00	0	27	0	610271232	67	4144
2026-01-05 09:42:22.27	158.10	53.00	-50.1	-51.5	15.0	0.00e+00	0	27	0	612368384	66	4200
2026-01-05 09:42:23.26	158.15	53.35	-50.1	-51.4	15.0	0.00e+00	0	27	0	614465536	66	4191
2026-01-05 09:42:24.25	158.20	53.71	-50.2	-51.6	15.0	0.00e+00	0	27	0	616562688	66	4273
2026-01-05 09:42:25.24	158.26	54.08	-50.2	-51.6	15.0	0.00e+00	0	28	0	618659840	66	4269
2026-01-05 09:42:26.24	158.31	54.44	-50.3	-51.7	14.9	0.00e+00	0	27	0	619708416	66	4320
2026-01-05 09:42:27.23	158.37	54.81	-50.6	-52.0	14.9	0.00e+00	0	27	0	621805568	66	4449
2026-01-05 09:42:28.23	158.42	55.18	-50.8	-52.2	14.8	0.00e+00	0	27	0	623902720	66	4576
2026-01-05 09:42:29.23	158.48	55.56	-51.4	-52.9	14.7	0.00e+00	0	27	0	625999872	67	4684
2026-01-05 09:42:30.23	158.54	55.94	-51.8	-53.3	14.6	0.00e+00	0	27	0	627048448	68	4649
2026-01-05 09:42:31.21	158.60	56.31	-52.0	-53.6	14.6	0.00e+00	0	27	0	629145600	69	4541
2026-01-05 09:42:32.20	158.66	56.69	-52.4	-54.0	14.5	0.00e+00	0	27	0	631242752	69	4750
2026-01-05 09:42:33.20	158.73	57.08	-52.5	-54.2	14.5	0.00e+00	0	27	0	633339904	70	4594
2026-01-05 09:42:34.19	158.79	57.46	-52.8	-54.5	14.4	0.00e+00	0	27	0	635437056	70	4754
2026-01-05 09:42:35.18	158.86	57.85	-53.0	-54.8	14.4	0.00e+00	0	27	0	636485632	71	4636
2026-01-05 09:42:36.18	158.93	58.24	-53.1	-54.9	14.3	0.00e+00	0	27	0	638582784	71	4705
2026-01-05 09:42:37.18	159.00	58.64	-53.2	-55.1	14.3	0.00e+00	0	27	0	640679936	71	4760
2026-01-05 09:42:38.17	159.07	59.03	-53.0	-54.8	14.4	0.00e+00	0	27	0	642777088	71	4640
2026-01-05 09:42:39.18	159.15	59.44	-52.6	-54.3	14.6	0.00e+00	0	27	0	643825664	71	4361
2026-01-05 09:42:40.17	159.23	59.84	-52.1	-53.7	14.8	0.00e+00	0	27	0	645922816	70	4305
2026-01-05 09:42:41.16	159.31	60.24	-51.4	-52.9	14.9	0.00e+00	0	27	0	648019968	69	4174
2026-01-05 09:42:42.15	159.39	60.65	-51.2	-52.7	15.0	0.00e+00	0	27	0	650117120	69	4056
2026-01-05 09:42:43.15	159.48	61.06	-50.5	-51.9	15.0	0.00e+00	0	27	0	652214272	67	4176
2026-01-05 09:42:44.15	159.56	61.47	-50.4	-51.8	15.1	0.00e+00	0	27	0	653262848	67	4109
2026-01-05 09:42:45.13	159.65	61.88	-50.2	-51.6	15.1	0.00e+00	0	27	0	655360000	67	4017
2026-01-05 09:42:46.13	159.75	62.30	-49.9	-51.2	15.1	0.00e+00	0	27	0	657457152	66	4076
2026-01-05 09:42:47.11	159.84	62.71	-49.8	-51.1	15.2	0.00e+00	0	27	0	659554304	66	4014
2026-01-05 09:42:48.10	159.94	63.13	-49.7	-50.9	15.1	0.00e+00	0	27	0	660602880	65	4190
2026-01-05 09:42:49.10	160.05	63.56	-50.0	-51.4	14.9	0.00e+00	0	27	0	662700032	65	4409
2026-01-05 09:42:50.10	160.16	63.99	-50.6	-52.1	14.8	0.00e+00	0	27	0	664797184	66	4501
2026-01-05 09:42:51.09	160.27	64.42	-51.8	-53.4	14.7	0.00e+00	0	27	0	666894336	68	4653
2026-01-05 09:42:52.09	160.38	64.85	-52.5	-54.2	14.5	0.00e+00	0	27	0	668991488	70	4573
2026-01-05 09:42:53.08	160.50	65.28	-52.5	-54.2	14.5	0.00e+00	0	27	0	670040064	70	4595
2026-01-05 09:42:54.08	160.63	65.72	-52.9	-54.6	14.4	0.00e+00	0	27	0	672137216	70	4803
2026-01-05 09:42:55.08	160.76	66.16	-52.9	-54.7	14.5	0.00e+00	0	27	0	674234368	71	4572
2026-01-05 09:42:56.07	160.89	66.60	-52.9	-54.7	14.5	0.00e+00	0	27	0	676331520	71	4550
2026-01-05 09:42:57.07	161.03	67.05	-52.8	-54.6	14.5	0.00e+00	0	27	0	677380096	71	4508
2026-01-05 09:42:58.06	161.18	67.49	-53.2	-55.0	14.3	0.00e+00	0	27	0	679477248	71	4753
2026-01-05 09:42:59.05	161.33	67.94	-53.7	-55.7	14.2	0.00e+00	0	27	0	681574400	72	4836
2026-01-05 09:43:00.05	161.49	68.39	-54.2	-56.3	14.0	0.00e+00	0	27	0	683671552	73	4903
2026-01-05 09:43:01.05	161.65	68.84	-54.2	-56.3	14.0	0.00e+00	0	27	0	685768704	73	4892
2026-01-05 09:43:02.03	161.83	69.29	-53.4	-55.3	14.4	0.00e+00	0	27	0	686817280	73	4365
2026-01-05 09:43:03.02	162.01	69.75	-53.1	-54.9	14.5	0.00e+00	0	27	0	688914432	72	4407
2026-01-05 09:43:04.02	162.20	70.21	-52.8	-54.5	14.7	0.00e+00	0	27	0	691011584	72	4209
2026-01-05 09:43:05.01	162.40	70.66	-52.4	-54.0	14.8	0.00e+00	0	27	0	693108736	71	4217
2026-01-05 09:43:06.00	162.61	71.12	-52.5	-54.2	14.7	0.00e+00	0	28	0	694157312	71	4317
2026-01-05 09:43:06.98	162.82	71.58	-53.3	-55.1	14.3	0.00e+00	0	27	0	696254464	71	4783
2026-01-05 09:43:07.98	163.06	72.05	-53.6	-55.6	14.2	0.00e+00	0	27	0	698351616	72	4764
2026-01-05 09:43:08.96	163.30	72.51	-53.3	-55.1	14.4	0.00e+00	0	27	0	700448768	72	4527
2026-01-05 09:43:09.96	163.56	72.98	-53.3	-55.1	14.4	0.00e+00	0	27	0	702545920	72	4506
2026-01-05 09:43:10.95	163.84	73.45	-53.6	-55.5	14.3	0.00e+00	0	28	0	703594496	72	4730
2026-01-05 09:43:11.95	164.13	73.92	-54.1	-56.2	14.0	0.00e+00	0	27	0	705691648	73	4848
2026-01-05 09:43:12.95	164.44	74.40	-54.7	-56.9	13.8	0.00e+00	0	27	0	707788800	74	4963
2026-01-05 09:43:13.94	164.77	74.87	-54.8	-57.2	13.7	0.00e+00	0	27	0	709885952	74	5118
2026-01-05 09:43:14.94	165.12	75.35	-54.5	-56.7	13.9	0.00e+00	0	28	0	710934528	74	4846
2026-01-05 09:43:15.93	165.50	75.83	-54.3	-56.4	14.1	0.00e+00	0	27	0	713031680	74	4688
2026-01-05 09:43:16.93	165.90	76.31	-54.3	-56.3	14.1	0.00e+00	0	27	0	715128832	74	4648
2026-01-05 09:43:17.92	166.34	76.78	-53.9	-55.8	14.3	0.00e+00	0	27	0	717225984	74	4377
2026-01-05 09:43:18.91	166.80	77.26	-53.8	-55.8	14.4	0.00e+00	0	27	0	718274560	74	4352
2026-01-05 09:43:19.89	167.30	77.73	-53.6	-55.5	14.4	0.00e+00	0	27	0	720371712	73	4452
2026-01-05 09:43:20.89	167.84	78.22	-53.3	-55.1	14.6	0.00e+00	0	27	0	722468864	73	4251
2026-01-05 09:43:21.88	168.43	78.70	-52.8	-54.5	14.7	0.00e+00	0	27	0	724566016	72	4228
2026-01-05 09:43:22.88	169.08	79.18	-52.2	-53.8	14.8	0.00e+00	0	27	0	726663168	71	4141
2026-01-05 09:43:23.87	169.79	79.66	-51.6	-53.1	15.0	0.00e+00	0	27	0	727711744	69	4269
2026-01-05 09:43:24.87	170.57	80.14	-51.7	-53.2	14.8	0.00e+00	0	27	0	729808896	69	4334
2026-01-05 09:43:25.86	171.42	80.62	-51.9	-53.5	14.7	0.00e+00	0	27	0	731906048	69	4465
2026-01-05 09:43:26.86	172.38	81.10	-52.4	-54.1	14.6	0.00e+00	0	27	0	734003200	70	4513
2026-01-05 09:43:27.85	173.43	81.57	-53.6	-55.6	14.3	0.00e+00	0	27	0	735051776	72	4760
2026-01-05 09:43:28.85	174.63	82.05	-55.6	-58.2	13.4	0.00e+00	0	27	0	737148928	76	5154
2026-01-05 09:43:29.84	175.96	82.52	-56.1	-59.0	13.0	0.00e+00	0	27	0	739246080	77	5311
2026-01-05 09:43:30.83	177.47	82.99	-55.2	-57.5	13.8	0.00e+00	0	27	0	741343232	77	4479
2026-01-05 09:43:31.83	179.22	83.45	-54.7	-56.9	14.0	0.00e+00	0	27	0	743440384	76	4424
2026-01-05 09:43:32.83	181.23	83.91	-54.2	-56.2	14.3	0.00e+00	0	27	0	744488960	75	4326
2026-01-05 09:43:33.82	183.54	84.36	-53.4	-55.3	14.5	0.00e+00	0	27	0	746586112	73	4344
2026-01-05 09:43:34.81	186.25	84.80	-53.3	-55.1	14.4	0.00e+00	0	27	0	748683264	72	4543
2026-01-05 09:43:35.79	189.42	85.22	-53.2	-54.9	14.5	0.00e+00	0	27	0	750780416	72	4427
2026-01-05 09:43:36.79	193.26	85.63	-52.7	-54.4	14.8	0.00e+00	0	27	0	751828992	72	4179
2026-01-05 09:43:37.79	197.88	86.01	-53.2	-54.9	14.5	0.00e+00	0	27	0	753926144	72	4441
2026-01-05 09:43:38.79	203.45	86.37	-53.6	-55.5	14.3	0.00e+00	0	27	0	756023296	72	4726
2026-01-05 09:43:39.78	210.08	86.68	-53.8	-55.7	14.2	0.00e+00	0	27	0	758120448	72	4835
2026-01-05 09:43:40.77	217.97	86.94	-54.2	-56.2	14.1	0.00e+00	0	27	0	760217600	73	4853
2026-01-05 09:43:41.77	227.20	87.14	-54.0	-56.0	14.2	0.00e+00	0	27	0	761266176	73	4706
2026-01-05 09:43:42.76	237.36	87.25	-53.7	-55.6	14.3	0.00e+00	0	27	0	763363328	73	4545
2026-01-05 09:43:43.76	248.11	87.26	-53.4	-55.3	14.5	0.00e+00	0	27	0	765460480	73	4348
2026-01-05 09:43:44.75	258.52	87.19	-53.5	-55.3	14.5	0.00e+00	0	27	0	767557632	73	4384
2026-01-05 09:43:45.75	268.17	87.02	-53.5	-55.3	14.5	0.00e+00	0	27	0	768606208	73	4380
2026-01-05 09:43:46.75	276.60	86.78	-53.7	-55.6	14.3	0.00e+00	0	27	0	770703360	73	4511
2026-01-05 09:43:47.74	283.67	86.49	-53.7	-55.6	14.3	0.00e+00	0	27	0	772800512	73	4536
2026-01-05 09:43:48.73	289.57	86.15	-53.0	-54.7	14.6	0.00e+00	0	27	0	774897664	72	4314
2026-01-05 09:43:49.73	294.51	85.77	-52.8	-54.5	14.7	0.00e+00	0	27	0	776994816	72	4212
2026-01-05 09:43:50.73	298.62	85.37	-52.6	-54.2	14.7	0.00e+00	0	27	0	778043392	71	4327
2026-01-05 09:43:51.72	302.02	84.95	-52.1	-53.7	14.8	0.00e+00	0	27	0	780140544	70	4292
2026-01-05 09:43:52.71	304.90	84.52	-52.0	-53.6	14.9	0.00e+00	0	27	0	782237696	70	4244
2026-01-05 09:43:53.69	307.32	84.08	-53.1	-54.8	14.5	0.00e+00	0	27	0	784334848	71	4634
2026-01-05 09:43:54.68	309.43	83.63	-53.9	-55.9	14.2	0.00e+00	0	27	0	785383424	73	4665
2026-01-05 09:43:55.67	311.25	83.17	-55.1	-57.4	13.7	0.00e+00	0	27	0	787480576	75	4983
2026-01-05 09:43:56.66	312.84	82.71	-56.0	-58.7	13.3	0.00e+00	0	27	0	789577728	77	5153
2026-01-05 09:43:57.66	314.25	82.23	-55.7	-58.3	13.5	0.00e+00	0	27	0	791674880	77	4880
2026-01-05 09:43:58.66	315.50	81.76	-55.2	-57.6	13.7	0.00e+00	0	27	0	793772032	76	4761
2026-01-05 09:43:59.65	316.60	81.28	-53.9	-55.8	14.4	0.00e+00	0	27	0	794820608	74	4386
2026-01-05 09:44:00.65	317.59	80.80	-53.2	-54.9	14.5	0.00e+00	0	27	0	796917760	72	4423
2026-01-05 09:44:01.65	318.49	80.32	-52.8	-54.5	14.7	0.00e+00	0	27	0	799014912	72	4230
2026-01-05 09:44:02.64	319.29	79.84	-52.2	-53.7	14.9	0.00e+00	0	27	0	801112064	71	4082
2026-01-05 09:44:03.63	320.02	79.37	-52.6	-54.3	14.6	0.00e+00	0	27	0	802160640	70	4608
2026-01-05 09:44:04.63	320.69	78.88	-53.8	-55.7	14.2	0.00e+00	0	27	0	804257792	72	4844
2026-01-05 09:44:05.63	321.31	78.40	-54.3	-56.3	14.0	0.00e+00	0	28	0	806354944	73	4923
2026-01-05 09:44:06.62	321.86	77.92	-54.7	-56.8	13.9	0.00e+00	0	27	0	808452096	74	4912
2026-01-05 09:44:07.62	322.39	77.44	-56.1	-58.9	13.1	0.00e+00	0	27	0	810549248	77	5265
2026-01-05 09:44:08.61	322.86	76.96	-56.6	-59.7	12.8	0.00e+00	0	27	0	811597824	78	5458
2026-01-05 09:44:09.61	323.31	76.48	-56.4	-59.4	12.9	0.00e+00	0	27	0	813694976	78	5234
2026-01-05 09:44:10.60	323.72	76.00	-55.9	-58.5	13.4	0.00e+00	0	27	0	815792128	78	4727
2026-01-05 09:44:11.59	324.11	75.53	-55.6	-58.2	13.6	0.00e+00	0	27	0	817889280	77	4833
2026-01-05 09:44:12.59	324.47	75.05	-56.1	-58.9	13.1	0.00e+00	0	27	0	818937856	77	5261
2026-01-05 09:44:13.57	324.80	74.58	-56.0	-58.7	13.3	0.00e+00	0	27	0	821035008	77	5122
2026-01-05 09:44:14.56	325.12	74.11	-54.3	-56.3	14.3	0.00e+00	0	27	0	823132160	75	4363
2026-01-05 09:44:15.55	325.41	73.64	-53.1	-54.8	14.7	0.00e+00	0	27	0	825229312	72	4386
2026-01-05 09:44:16.54	325.70	73.17	-53.1	-54.9	14.6	0.00e+00	0	27	0	827326464	72	4397
2026-01-05 09:44:17.52	325.96	72.71	-53.1	-54.9	14.6	0.00e+00	0	27	0	828375040	72	4398
2026-01-05 09:44:18.51	326.21	72.25	-53.0	-54.7	14.6	0.00e+00	0	27	0	830472192	72	4303
2026-01-05 09:44:19.49	326.44	71.79	-52.3	-53.8	14.9	0.00e+00	0	27	0	832569344	71	4137
2026-01-05 09:44:20.48	326.67	71.33	-51.6	-53.1	14.9	0.00e+00	0	27	0	834666496	69	4255
2026-01-05 09:44:21.47	326.88	70.87	-52.1	-53.6	14.7	0.00e+00	0	27	0	835715072	69	4522
2026-01-05 09:44:22.46	327.08	70.41	-53.3	-55.1	14.4	0.00e+00	0	28	0	837812224	71	4806
2026-01-05 09:44:23.45	327.28	69.95	-54.3	-56.3	14.0	0.00e+00	0	27	0	839909376	73	4925
2026-01-05 09:44:24.44	327.46	69.50	-53.5	-55.3	14.5	0.00e+00	0	27	0	842006528	73	4360
2026-01-05 09:44:25.43	327.64	69.05	-53.6	-55.4	14.4	0.00e+00	0	27	0	843055104	73	4433
2026-01-05 09:44:26.42	327.81	68.60	-55.3	-57.8	13.6	0.00e+00	0	27	0	845152256	75	5163
2026-01-05 09:44:27.41	327.97	68.15	-57.0	-60.4	12.3	0.00e+00	0	27	0	847249408	79	5539
2026-01-05 09:44:28.40	328.12	67.70	-56.5	-59.5	12.9	0.00e+00	0	27	0	849346560	79	5005
2026-01-05 09:44:29.39	328.27	67.26	-55.7	-58.2	13.6	0.00e+00	0	27	0	851443712	78	4578
2026-01-05 09:44:30.38	328.41	66.82	-54.9	-57.0	14.0	0.00e+00	0	27	0	852492288	76	4490
2026-01-05 09:44:31.37	328.55	66.38	-54.0	-55.9	14.3	0.00e+00	0	27	0	854589440	74	4439
2026-01-05 09:44:32.37	328.68	65.94	-54.5	-56.6	14.1	0.00e+00	0	27	0	856686592	74	4761
2026-01-05 09:44:33.36	328.81	65.50	-55.2	-57.5	13.6	0.00e+00	0	27	0	858783744	75	5041
2026-01-05 09:44:34.35	328.93	65.07	-54.3	-56.4	14.2	0.00e+00	0	27	0	859832320	75	4399
2026-01-05 09:44:35.34	329.04	64.64	-52.9	-54.6	14.7	0.00e+00	0	27	0	861929472	72	4279
2026-01-05 09:44:36.33	329.16	64.21	-52.5	-54.1	14.8	0.00e+00	0	28	0	864026624	71	4280
2026-01-05 09:44:37.32	329.27	63.79	-51.9	-53.4	14.9	0.00e+00	0	27	0	866123776	70	4167
2026-01-05 09:44:38.32	329.37	63.36	-51.1	-52.5	15.0	0.00e+00	0	27	0	868220928	68	4241
2026-01-05 09:44:39.31	329.47	62.94	-50.9	-52.3	15.0	0.00e+00	0	27	0	869269504	68	4105
2026-01-05 09:44:40.30	329.57	62.52	-50.8	-52.2	15.1	0.00e+00	0	27	0	871366656	68	4053
2026-01-05 09:44:41.29	329.67	62.11	-50.1	-51.4	15.1	0.00e+00	0	27	0	873463808	66	4181
2026-01-05 09:44:42.28	329.76	61.69	-50.2	-51.5	15.1	0.00e+00	0	27	0	875560960	66	4227
2026-01-05 09:44:43.28	329.85	61.28	-51.1	-52.5	14.9	0.00e+00	0	27	0	876609536	67	4477
2026-01-05 09:44:44.27	329.93	60.87	-53.1	-54.9	14.5	0.00e+00	0	27	0	878706688	71	4663
2026-01-05 09:44:45.25	330.02	60.47	-54.3	-56.4	14.0	0.00e+00	0	27	0	880803840	73	4973
2026-01-05 09:44:46.25	330.10	60.06	-53.8	-55.7	14.3	0.00e+00	0	27	0	882900992	73	4588
2026-01-05 09:44:47.24	330.18	59.66	-53.4	-55.1	14.6	0.00e+00	0	27	0	883949568	73	4285
2026-01-05 09:44:48.24	330.25	59.26	-53.6	-55.4	14.5	0.00e+00	0	27	0	886046720	73	4405
2026-01-05 09:44:49.24	330.33	58.86	-54.3	-56.4	14.0	0.00e+00	0	27	0	888143872	73	4954
2026-01-05 09:44:50.24	330.40	58.47	-55.0	-57.3	13.8	0.00e+00	0	28	0	890241024	75	4897
2026-01-05 09:44:51.23	330.47	58.08	-55.1	-57.5	13.6	0.00e+00	0	28	0	892338176	75	5023
2026-01-05 09:44:52.22	330.54	57.69	-55.3	-57.8	13.5	0.00e+00	0	27	0	893386752	75	5165
2026-01-05 09:44:53.22	330.61	57.30	-55.1	-57.4	13.7	0.00e+00	0	27	0	895483904	75	4957
2026-01-05 09:44:54.21	330.67	56.92	-54.5	-56.5	14.2	0.00e+00	0	27	0	897581056	75	4489
2026-01-05 09:44:55.20	330.74	56.54	-53.9	-55.8	14.4	0.00e+00	0	27	0	899678208	74	4374
2026-01-05 09:44:56.19	330.80	56.16	-53.8	-55.7	14.5	0.00e+00	0	28	0	900726784	74	4307
2026-01-05 09:44:57.19	330.86	55.78	-53.8	-55.6	14.4	0.00e+00	0	27	0	902823936	74	4288
2026-01-05 09:44:58.18	330.92	55.41	-52.9	-54.6	14.6	0.00e+00	0	27	0	904921088	72	4291
2026-01-05 09:44:59.17	330.97	55.04	-52.1	-53.6	14.9	0.00e+00	0	27	0	907018240	70	4257
2026-01-05 09:45:00.17	331.03	54.67	-52.0	-53.5	14.9	0.00e+00	0	27	0	909115392	70	4240
2026-01-05 09:45:01.17	331.08	54.30	-52.5	-54.1	14.6	0.00e+00	0	27	0	910163968	70	4511
2026-01-05 09:45:02.15	331.14	53.94	-52.9	-54.7	14.4	0.00e+00	0	27	0	912261120	70	4822
2026-01-05 09:45:03.14	331.19	53.58	-52.6	-54.3	14.5	0.00e+00	0	27	0	914358272	70	4633
2026-01-05 09:45:04.14	331.24	53.22	-52.2	-53.8	14.7	0.00e+00	0	27	0	916455424	70	4356
2026-01-05 09:45:05.13	331.29	52.87	-52.3	-53.9	14.7	0.00e+00	0	27	0	917504000	70	4417
2026-01-05 09:45:06.12	331.34	52.52	-52.8	-54.4	14.5	0.00e+00	0	27	0	919601152	70	4699
2026-01-05 09:45:07.11	331.39	52.17	-53.4	-55.2	14.4	0.00e+00	0	27	0	921698304	71	4833
2026-01-05 09:45:08.10	331.43	51.82	-54.1	-56.2	14.1	0.00e+00	0	27	0	923795456	73	4842
2026-01-05 09:45:09.10	331.48	51.47	-54.6	-56.7	13.9	0.00e+00	0	27	0	925892608	74	4844
2026-01-05 09:45:10.08	331.52	51.13	-55.0	-57.3	13.7	0.00e+00	0	27	0	926941184	75	4910
2026-01-05 09:45:11.07	331.56	50.79	-55.4	-57.9	13.5	0.00e+00	0	27	0	929038336	75	5251
2026-01-05 09:45:12.06	331.61	50.46	-55.5	-58.1	13.4	0.00e+00	0	27	0	931135488	76	5056
2026-01-05 09:45:13.06	331.65	50.12	-55.4	-57.9	13.5	0.00e+00	0	27	0	933232640	76	4966
2026-01-05 09:45:14.06	331.69	49.78	-55.1	-57.4	13.8	0.00e+00	0	27	0	934281216	76	4653
2026-01-05 09:45:15.05	331.73	49.45	-54.8	-57.0	14.0	0.00e+00	0	27	0	936378368	76	4453
2026-01-05 09:45:16.03	331.77	49.13	-55.6	-58.1	13.4	0.00e+00	0	27	0	938475520	76	5099
2026-01-05 09:45:17.02	331.81	48.80	-57.4	-61.5	11.6	0.00e+00	0	27	0	940572672	80	5943
2026-01-05 09:45:18.01	331.85	48.48	-59.2	-66.9	7.4	3.67e-02	0	27	0	941621248	83	9379
2026-01-05 09:45:19.00	331.88	48.16	-58.1	-63.2	10.1	3.27e-02	0	27	0	943718400	82	6465
2026-01-05 09:45:19.99	331.92	47.84	-56.4	-59.5	12.8	5.30e-06	0	27	0	945815552	79	5000
2026-01-05 09:45:20.98	331.96	47.53	-55.2	-57.6	13.7	0.00e+00	0	27	0	947912704	77	4539
2026-01-05 09:45:21.97	331.99	47.22	-55.2	-57.5	13.7	0.00e+00	0	27	0	950009856	76	4730
2026-01-05 09:45:22.95	332.03	46.91	-54.5	-56.6	14.1	0.00e+00	0	27	0	951058432	75	4528
2026-01-05 09:45:23.95	332.06	46.60	-54.3	-56.3	14.2	0.00e+00	0	27	0	953155584	75	4382
2026-01-05 09:45:24.94	332.09	46.29	-54.9	-57.1	13.8	0.00e+00	0	27	0	955252736	75	4810
2026-01-05 09:45:25.93	332.13	45.99	-55.6	-58.2	13.4	0.00e+00	0	28	0	957349888	76	5158
2026-01-05 09:45:26.93	332.16	45.68	-55.7	-58.3	13.3	0.00e+00	0	27	0	958398464	76	5195
2026-01-05 09:45:27.92	332.19	45.38	-55.4	-57.9	13.5	0.00e+00	0	27	0	960495616	76	4962
2026-01-05 09:45:28.92	332.22	45.08	-55.3	-57.8	13.6	0.00e+00	0	27	0	962592768	76	4898
2026-01-05 09:45:29.93	332.26	44.78	-54.4	-56.5	14.1	0.00e+00	0	27	0	964689920	75	4489
2026-01-05 09:45:30.92	332.29	44.49	-53.4	-55.3	14.5	0.00e+00	0	27	0	966787072	73	4369
2026-01-05 09:45:31.92	332.32	44.19	-52.9	-54.6	14.7	0.00e+00	0	27	0	967835648	72	4259
2026-01-05 09:45:32.90	332.34	43.91	-52.9	-54.7	14.6	0.00e+00	0	27	0	969932800	72	4293
2026-01-05 09:45:33.89	332.37	43.62	-52.0	-53.6	14.8	0.00e+00	0	28	0	972029952	70	4253
2026-01-05 09:45:34.89	332.40	43.33	-51.6	-53.0	14.9	0.00e+00	0	27	0	974127104	69	4222
2026-01-05 09:45:35.88	332.43	43.05	-51.3	-52.7	15.0	0.00e+00	0	27	0	975175680	69	4093
2026-01-05 09:45:36.88	332.46	42.77	-51.8	-53.4	14.8	0.00e+00	0	27	0	977272832	69	4394
2026-01-05 09:45:37.87	332.49	42.49	-52.6	-54.3	14.6	0.00e+00	0	27	0	979369984	70	4614
2026-01-05 09:45:38.86	332.51	42.21	-53.6	-55.6	14.2	0.00e+00	0	27	0	981467136	72	4763
2026-01-05 09:45:39.86	332.54	41.94	-54.3	-56.5	13.9	0.00e+00	0	27	0	983564288	73	5005
2026-01-05 09:45:40.85	332.57	41.67	-54.1	-56.2	14.0	0.00e+00	0	27	0	984612864	73	4850
2026-01-05 09:45:41.84	332.59	41.40	-53.6	-55.5	14.3	0.00e+00	0	27	0	986710016	73	4484
2026-01-05 09:45:42.83	332.62	41.13	-53.2	-55.0	14.6	0.00e+00	0	27	0	988807168	73	4234
2026-01-05 09:45:43.83	332.64	40.86	-52.9	-54.7	14.6	0.00e+00	0	27	0	990904320	72	4295
2026-01-05 09:45:44.82	332.67	40.60	-52.2	-53.7	14.9	0.00e+00	0	27	0	991952896	71	4096
2026-01-05 09:45:45.80	332.69	40.34	-52.0	-53.5	14.8	0.00e+00	0	27	0	994050048	70	4233
2026-01-05 09:45:46.79	332.71	40.08	-51.9	-53.5	14.8	0.00e+00	0	27	0	996147200	70	4194
2026-01-05 09:45:47.79	332.74	39.82	-52.3	-53.9	14.7	0.00e+00	0	27	0	998244352	70	4427
2026-01-05 09:45:48.78	332.76	39.56	-52.9	-54.6	14.4	0.00e+00	0	27	0	1000341504	70	4811
2026-01-05 09:45:49.78	332.78	39.30	-53.9	-55.8	14.1	0.00e+00	0	27	0	1001390080	72	4926
2026-01-05 09:45:50.77	332.81	39.05	-54.7	-57.0	13.7	0.00e+00	0	27	0	1003487232	74	5025
2026-01-05 09:45:51.77	332.83	38.80	-55.7	-58.5	13.2	0.00e+00	0	27	0	1005584384	76	5285
2026-01-05 09:45:52.77	332.85	38.55	-56.6	-59.9	12.4	0.00e+00	0	27	0	1007681536	78	5589
2026-01-05 09:45:53.76	332.87	38.30	-56.9	-60.5	12.1	0.00e+00	0	28	0	1008730112	78	5937
2026-01-05 09:45:54.75	332.90	38.05	-56.8	-60.4	12.2	0.00e+00	0	28	0	1010827264	78	5866
2026-01-05 09:45:55.74	332.92	37.81	-56.5	-59.8	12.5	7.00e-07	0	27	0	1012924416	78	5521
2026-01-05 09:45:56.73	332.94	37.57	-56.1	-59.2	13.0	0.00e+00	0	27	0	1015021568	78	5115
2026-01-05 09:45:57.72	332.96	37.33	-55.9	-58.6	13.3	0.00e+00	0	27	0	1017118720	78	4807
2026-01-05 09:45:58.71	332.98	37.09	-55.2	-57.7	13.7	0.00e+00	0	27	0	1018167296	77	4549
2026-01-05 09:45:59.71	333.00	36.85	-54.4	-56.6	14.1	0.00e+00	0	27	0	1020264448	75	4513
2026-01-05 09:46:00.71	333.02	36.61	-54.1	-56.1	14.2	0.00e+00	0	27	0	1022361600	74	4511
2026-01-05 09:46:01.70	333.04	36.38	-54.2	-56.2	14.1	0.00e+00	0	27	0	1024458752	74	4580
2026-01-05 09:46:02.70	333.06	36.15	-54.2	-56.2	14.1	0.00e+00	0	28	0	1025507328	74	4592
2026-01-05 09:46:03.69	333.08	35.92	-54.2	-56.3	14.1	0.00e+00	0	27	0	1027604480	74	4611
2026-01-05 09:46:04.70	333.10	35.68	-54.2	-56.3	14.1	0.00e+00	0	28	0	1029701632	74	4638
2026-01-05 09:46:05.70	333.12	35.46	-54.4	-56.6	14.0	0.00e+00	0	27	0	1031798784	74	4766
2026-01-05 09:46:06.69	333.14	35.23	-54.8	-57.1	13.7	0.00e+00	0	27	0	1033895936	74	5056
2026-01-05 09:46:07.69	333.16	35.01	-55.6	-58.2	13.3	0.00e+00	0	27	0	1034944512	76	5138
2026-01-05 09:46:08.68	333.18	34.78	-56.4	-59.6	12.6	0.00e+00	0	27	0	1037041664	77	5671
2026-01-05 09:46:09.67	333.19	34.56	-57.1	-61.0	11.8	7.00e-07	0	27	0	1039138816	79	5968
2026-01-05 09:46:10.66	333.21	34.35	-57.7	-62.1	11.1	2.44e-05	0	27	0	1041235968	80	6419
2026-01-05 09:46:11.65	333.23	34.13	-57.9	-62.8	10.5	1.73e-04	0	27	0	1042284544	80	6945
2026-01-05 09:46:12.64	333.25	33.91	-58.0	-63.0	10.4	4.61e-04	0	28	0	1044381696	81	6661
2026-01-05 09:46:13.63	333.27	33.70	-57.7	-62.2	11.0	2.74e-04	0	27	0	1046478848	81	6092
2026-01-05 09:46:14.62	333.28	33.49	-57.6	-62.0	11.2	8.16e-05	0	28	0	1048576000	81	5934
2026-01-05 09:46:15.60	333.30	33.28	-57.2	-61.1	11.8	2.51e-05	0	27	0	1049624576	81	5379
2026-01-05 09:46:16.59	333.32	33.07	-56.6	-60.0	12.5	7.00e-07	0	28	0	1051721728	79	5305
2026-01-05 09:46:17.58	333.33	32.86	-56.3	-59.3	12.9	0.00e+00	0	27	0	1053818880	79	4923
2026-01-05 09:46:18.57	333.35	32.65	-56.0	-58.9	13.1	0.00e+00	0	28	0	1055916032	78	4937
2026-01-05 09:46:19.57	333.37	32.45	-55.6	-58.3	13.3	0.00e+00	0	27	0	1058013184	77	4886
2026-01-05 09:46:20.56	333.38	32.24	-55.4	-58.0	13.5	0.00e+00	0	27	0	1059061760	77	4744
2026-01-05 09:46:21.56	333.40	32.04	-55.5	-58.1	13.5	0.00e+00	0	28	0	1061158912	77	4777
2026-01-05 09:46:22.54	333.42	31.84	-55.4	-58.0	13.5	0.00e+00	0	28	0	1063256064	77	4739
2026-01-05 09:46:23.53	333.43	31.64	-55.4	-57.9	13.5	0.00e+00	0	28	0	1065353216	77	4691
2026-01-05 09:46:24.52	333.45	31.44	-55.5	-58.2	13.4	0.00e+00	0	28	0	1066401792	77	4817
2026-01-05 09:46:25.51	333.46	31.24	-55.6	-58.3	13.3	0.00e+00	0	28	0	1068498944	77	4917
2026-01-05 09:46:26.51	333.48	31.05	-55.6	-58.3	13.3	0.00e+00	0	28	0	1070596096	77	4888
2026-01-05 09:46:27.50	333.49	30.85	-55.7	-58.4	13.2	0.00e+00	0	27	0	1072693248	77	4951
2026-01-05 09:46:28.50	333.51	30.66	-55.8	-58.7	13.1	0.00e+00	0	27	0	1073741824	77	5146
2026-01-05 09:46:29.49	333.52	30.46	-55.9	-58.9	12.9	0.00e+00	0	27	0	1075838976	77	5226
2026-01-05 09:46:30.48	333.54	30.27	-55.9	-58.8	13.0	0.00e+00	0	28	0	1077936128	77	5202
2026-01-05 09:46:31.48	333.55	30.08	-55.9	-58.9	13.0	0.00e+00	0	28	0	1080033280	77	5240
2026-01-05 09:46:32.48	333.57	29.89	-55.8	-58.7	13.1	0.00e+00	0	28	0	1082130432	77	5146
2026-01-05 09:46:33.48	333.58	29.70	-55.8	-58.6	13.1	0.00e+00	0	27	0	1083179008	77	5076
2026-01-05 09:46:34.47	333.60	29.52	-55.7	-58.4	13.2	0.00e+00	0	27	0	1085276160	77	4983
2026-01-05 09:46:35.46	333.61	29.33	-55.6	-58.4	13.3	0.00e+00	0	27	0	1087373312	77	4945
2026-01-05 09:46:36.45	333.63	29.15	-55.3	-57.9	13.5	0.00e+00	0	27	0	1089470464	77	4690
2026-01-05 09:46:37.45	333.64	28.97	-55.0	-57.5	13.6	0.00e+00	0	27	0	1091567616	76	4738
2026-01-05 09:46:38.45	333.66	28.78	-55.0	-57.4	13.7	0.00e+00	0	28	0	1092616192	76	4688
2026-01-05 09:46:39.44	333.67	28.60	-54.8	-57.2	13.8	0.00e+00	0	28	0	1094713344	76	4569
2026-01-05 09:46:40.42	333.68	28.43	-54.8	-57.1	13.9	0.00e+00	0	28	0	1096810496	76	4527
2026-01-05 09:46:41.42	333.70	28.25	-54.3	-56.5	14.1	0.00e+00	0	28	0	1098907648	75	4450
2026-01-05 09:46:42.41	333.71	28.07	-54.0	-56.1	14.1	0.00e+00	0	28	0	1099956224	74	4506
2026-01-05 09:46:43.39	333.72	27.90	-53.9	-55.9	14.2	0.00e+00	0	27	0	1102053376	74	4404
2026-01-05 09:46:44.38	333.74	27.72	-53.6	-55.5	14.3	0.00e+00	0	28	0	1104150528	73	4475
2026-01-05 09:46:45.37	333.75	27.55	-53.6	-55.5	14.3	0.00e+00	0	27	0	1106247680	73	4465
2026-01-05 09:46:46.37	333.76	27.38	-53.3	-55.2	14.4	0.00e+00	0	27	0	1108344832	73	4330
2026-01-05 09:46:47.37	333.78	27.21	-53.3	-55.1	14.5	0.00e+00	0	27	0	1109393408	73	4276
2026-01-05 09:46:48.36	333.79	27.04	-52.9	-54.7	14.5	0.00e+00	0	27	0	1111490560	72	4305
2026-01-05 09:46:49.35	333.80	26.87	-52.8	-54.5	14.6	0.00e+00	0	27	0	1113587712	72	4217
2026-01-05 09:46:50.33	333.82	26.70	-52.9	-54.6	14.6	0.00e+00	0	27	0	1115684864	72	4276
2026-01-05 09:46:51.32	333.83	26.53	-52.8	-54.6	14.6	0.00e+00	0	27	0	1116733440	72	4249
2026-01-05 09:46:52.32	333.84	26.37	-52.9	-54.6	14.6	0.00e+00	0	28	0	1118830592	72	4282
2026-01-05 09:46:53.31	333.85	26.20	-53.0	-54.8	14.5	0.00e+00	0	27	0	1120927744	72	4364
2026-01-05 09:46:54.31	333.87	26.04	-52.9	-54.7	14.5	0.00e+00	0	27	0	1123024896	72	4323
2026-01-05 09:46:55.30	333.88	25.88	-53.1	-54.9	14.5	0.00e+00	0	27	0	1124073472	72	4419
2026-01-05 09:46:56.29	333.89	25.71	-53.1	-55.0	14.4	0.00e+00	0	27	0	1126170624	72	4442
2026-01-05 09:46:57.28	333.90	25.55	-53.1	-55.0	14.4	0.00e+00	0	27	0	1128267776	72	4443
2026-01-05 09:46:58.26	333.91	25.40	-53.0	-54.9	14.5	0.00e+00	0	27	0	1130364928	72	4409
2026-01-05 09:46:59.26	333.93	25.24	-53.0	-54.9	14.5	0.00e+00	0	27	0	1131413504	72	4393
2026-01-05 09:47:00.25	333.94	25.08	-53.0	-54.8	14.5	0.00e+00	0	28	0	1133510656	72	4373
2026-01-05 09:47:01.24	333.95	24.92	-52.9	-54.7	14.5	0.00e+00	0	27	0	1135607808	72	4332
2026-01-05 09:47:02.23	333.96	24.77	-52.8	-54.6	14.6	0.00e+00	0	28	0	1137704960	72	4274
2026-01-05 09:47:03.22	333.97	24.61	-52.7	-54.4	14.7	0.00e+00	0	27	0	1139802112	72	4183
2026-01-05 09:47:04.21	333.99	24.46	-52.5	-54.2	14.6	0.00e+00	0	27	0	1140850688	71	4325
2026-01-05 09:47:05.20	334.00	24.30	-52.3	-54.0	14.7	0.00e+00	0	27	0	1142947840	71	4202
2026-01-05 09:47:06.19	334.01	24.15	-52.2	-53.8	14.6	0.00e+00	0	27	0	1145044992	70	4390
2026-01-05 09:47:07.18	334.02	24.00	-52.1	-53.7	14.7	0.00e+00	0	27	0	1147142144	70	4316
2026-01-05 09:47:08.18	334.03	23.85	-51.9	-53.5	14.8	0.00e+00	0	28	0	1148190720	70	4200
2026-01-05 09:47:09.17	334.04	23.70	-51.9	-53.4	14.8	0.00e+00	0	28	0	1150287872	70	4188
2026-01-05 09:47:10.17	334.05	23.55	-51.8	-53.4	14.8	0.00e+00	0	27	0	1152385024	70	4157
2026-01-05 09:47:11.16	334.07	23.40	-51.8	-53.4	14.8	0.00e+00	0	27	0	1154482176	70	4171
2026-01-05 09:47:12.15	334.08	23.25	-51.7	-53.2	14.9	0.00e+00	0	28	0	1156579328	70	4093
2026-01-05 09:47:13.15	334.09	23.11	-51.6	-53.1	14.8	0.00e+00	0	27	0	1157627904	69	4279
2026-01-05 09:47:14.14	334.10	22.96	-51.5	-53.0	14.9	0.00e+00	0	27	0	1159725056	69	4216
2026-01-05 09:47:15.13	334.11	22.82	-51.5	-53.0	14.8	0.00e+00	0	27	0	1161822208	69	4242
2026-01-05 09:47:16.12	334.12	22.67	-51.5	-53.1	14.8	0.00e+00	0	27	0	1163919360	69	4248
2026-01-05 09:47:17.11	334.13	22.53	-51.5	-53.0	14.9	0.00e+00	0	27	0	1164967936	69	4213
2026-01-05 09:47:18.11	334.14	22.39	-51.6	-53.1	14.8	0.00e+00	0	27	0	1167065088	69	4266
2026-01-05 09:47:19.10	334.15	22.24	-51.6	-53.1	14.8	0.00e+00	0	27	0	1169162240	69	4268
2026-01-05 09:47:20.09	334.16	22.10	-51.6	-53.1	14.8	0.00e+00	0	28	0	1171259392	69	4288
2026-01-05 09:47:21.09	334.17	21.96	-51.6	-53.2	14.8	0.00e+00	0	28	0	1173356544	69	4305
2026-01-05 09:47:22.08	334.18	21.82	-51.7	-53.3	14.7	0.00e+00	0	27	0	1174405120	69	4349
2026-01-05 09:47:23.07	334.20	21.69	-51.6	-53.2	14.8	0.00e+00	0	27	0	1176502272	69	4327
2026-01-05 09:47:24.05	334.21	21.55	-51.7	-53.3	14.7	0.00e+00	0	28	0	1178599424	69	4349
2026-01-05 09:47:25.04	334.22	21.41	-51.9	-53.5	14.7	0.00e+00	0	27	0	1180696576	69	4464
2026-01-05 09:47:26.02	334.23	21.28	-51.9	-53.5	14.7	0.00e+00	0	27	0	1181745152	69	4462
2026-01-05 09:47:27.03	334.24	21.14	-51.9	-53.6	14.6	0.00e+00	0	27	0	1183842304	69	4506
2026-01-05 09:47:28.03	334.25	21.00	-51.9	-53.6	14.6	0.00e+00	0	27	0	1185939456	69	4516
2026-01-05 09:47:29.02	334.26	20.87	-52.0	-53.7	14.6	0.00e+00	0	27	0	1188036608	69	4546
2026-01-05 09:47:30.01	334.27	20.74	-52.2	-53.8	14.5	0.00e+00	0	27	0	1190133760	69	4648
2026-01-05 09:47:31.00	334.28	20.61	-52.1	-53.8	14.5	0.00e+00	0	27	0	1191182336	69	4643
2026-01-05 09:47:31.99	334.29	20.47	-52.2	-53.9	14.5	0.00e+00	0	27	0	1193279488	69	4665
2026-01-05 09:47:32.98	334.30	20.34	-52.2	-53.9	14.5	0.00e+00	0	27	0	1195376640	69	4670
2026-01-05 09:47:33.98	334.31	20.21	-52.1	-53.8	14.5	0.00e+00	0	27	0	1197473792	69	4621
2026-01-05 09:47:34.97	334.32	20.08	-52.3	-54.0	14.4	0.00e+00	0	27	0	1198522368	69	4754
2026-01-05 09:47:35.96	334.33	19.95	-52.2	-53.9	14.5	0.00e+00	0	28	0	1200619520	69	4696
2026-01-05 09:47:36.96	334.34	19.82	-52.2	-54.0	14.5	0.00e+00	0	27	0	1202716672	69	4713
2026-01-05 09:47:37.95	334.35	19.70	-52.3	-54.0	14.4	0.00e+00	0	27	0	1204813824	69	4750
2026-01-05 09:47:38.94	334.36	19.57	-52.2	-54.0	14.4	0.00e+00	0	27	0	1205862400	69	4712
2026-01-05 09:47:39.94	334.37	19.44	-52.2	-54.0	14.5	0.00e+00	0	27	0	1207959552	69	4711
2026-01-05 09:47:40.93	334.37	19.32	-52.4	-54.1	14.4	0.00e+00	0	27	0	1210056704	69	4791
2026-01-05 09:47:41.93	334.38	19.19	-52.5	-54.2	14.5	0.00e+00	0	27	0	1212153856	70	4593
2026-01-05 09:47:42.92	334.39	19.06	-52.5	-54.3	14.4	0.00e+00	0	27	0	1214251008	70	4625
2026-01-05 09:47:43.91	334.40	18.94	-52.5	-54.3	14.4	0.00e+00	0	28	0	1215299584	70	4614
2026-01-05 09:47:44.90	334.41	18.82	-52.5	-54.3	14.5	0.00e+00	0	27	0	1217396736	70	4599
2026-01-05 09:47:45.90	334.42	18.69	-52.5	-54.3	14.5	0.00e+00	0	27	0	1219493888	70	4599
2026-01-05 09:47:46.90	334.43	18.57	-52.7	-54.6	14.3	0.00e+00	0	28	0	1221591040	70	4764
2026-01-05 09:47:47.89	334.44	18.45	-52.8	-54.7	14.3	0.00e+00	0	27	0	1222639616	70	4821
2026-01-05 09:47:48.88	334.45	18.33	-52.7	-54.6	14.3	0.00e+00	0	27	0	1224736768	70	4763
2026-01-05 09:47:49.87	334.46	18.21	-52.7	-54.5	14.3	0.00e+00	0	28	0	1226833920	70	4732
2026-01-05 09:47:50.86	334.47	18.09	-52.6	-54.5	14.3	0.00e+00	0	27	0	1228931072	70	4720
