passes_logs/2026/01/05/R3.2S_Murmansk/R3.2S_Murmansk__20260105_111746_NOAA_20_JPSS-1_rec.log

#Pass ID: 20260105_111746_NOAA 20 (JPSS-1)
#Satellite: NOAA 20 (JPSS-1)
#Configuration: NOAA 20
#almurnet v.1.7.20251203
#Start time: 2026-01-05 11:17:48

#Version: 2.2.20231116
#Station: R3.2S_Murmansk
#Location: 33.079688 lon 68.888172 lat
#TLE: 1 43013U 17073A   26004.47528369  .00000132  00000+0  83671-4 0  9999
#TLE: 2 43013  98.7626 305.5264 0001854  54.5883 305.5466 14.19533142421242

#Time	Az	El	Level	Level2	SNR	BER	BlckErr	Temp	State	Recorded	gain1	gain2
2026-01-05 11:17:48.24	195.95	2.11	-58.3	-74.3	3.8	1.49e+00	0	25	0	0	81	24441
2026-01-05 11:17:49.23	196.00	2.17	-58.3	-74.3	3.8	1.49e+00	0	25	104	0	81	24540
2026-01-05 11:17:50.22	196.06	2.23	-58.3	-74.3	3.8	1.49e+00	0	25	104	0	81	24434
2026-01-05 11:17:51.20	196.11	2.29	-58.3	-74.3	3.8	1.49e+00	0	25	104	0	81	24550
2026-01-05 11:17:52.18	196.16	2.35	-58.3	-74.3	3.8	1.49e+00	0	25	104	0	81	24637
2026-01-05 11:17:53.16	196.22	2.41	-58.3	-74.3	3.8	1.49e+00	0	25	104	0	81	24520
2026-01-05 11:17:54.15	196.27	2.47	-58.3	-74.3	3.8	1.49e+00	0	25	104	0	81	24691
2026-01-05 11:17:55.14	196.32	2.53	-58.3	-74.3	3.8	1.49e+00	0	25	104	0	81	24667
2026-01-05 11:17:56.13	196.38	2.59	-58.3	-74.3	3.8	1.49e+00	0	25	104	0	81	24635
2026-01-05 11:17:57.12	196.43	2.65	-58.3	-74.3	3.8	1.49e+00	0	25	104	0	81	24565
2026-01-05 11:17:58.11	196.49	2.71	-58.3	-74.3	3.8	1.49e+00	0	25	104	0	81	24525
2026-01-05 11:17:59.10	196.54	2.77	-58.3	-74.2	3.8	1.49e+00	0	25	104	0	81	24409
2026-01-05 11:18:00.09	196.60	2.83	-58.3	-74.2	3.8	1.49e+00	0	25	104	0	81	24397
2026-01-05 11:18:01.08	196.65	2.89	-58.3	-74.2	3.8	1.49e+00	0	25	104	0	81	24278
2026-01-05 11:18:02.06	196.71	2.95	-58.3	-74.1	3.9	1.49e+00	0	25	104	0	81	24055
2026-01-05 11:18:03.04	196.76	3.01	-58.3	-74.2	3.8	1.49e+00	0	25	104	0	81	24203
2026-01-05 11:18:04.03	196.82	3.07	-58.3	-74.2	3.8	1.49e+00	0	25	104	0	81	24150
2026-01-05 11:18:05.02	196.88	3.13	-58.3	-74.2	3.8	1.49e+00	0	25	104	0	81	24185
2026-01-05 11:18:06.00	196.93	3.19	-58.3	-74.2	3.8	1.49e+00	0	26	104	0	81	24244
2026-01-05 11:18:06.99	196.99	3.25	-58.3	-74.2	3.8	1.49e+00	0	25	104	0	81	24326
2026-01-05 11:18:07.98	197.04	3.31	-58.3	-74.2	3.8	1.49e+00	0	26	104	0	81	24275
2026-01-05 11:18:08.97	197.10	3.37	-58.3	-74.2	3.8	1.49e+00	0	26	104	0	81	24216
2026-01-05 11:18:09.95	197.16	3.43	-58.2	-74.1	3.8	1.49e+00	0	26	104	0	81	24101
2026-01-05 11:18:10.94	197.22	3.49	-58.3	-74.0	3.8	1.49e+00	0	26	104	0	81	23826
2026-01-05 11:18:11.93	197.27	3.55	-58.3	-74.0	3.8	1.49e+00	0	26	104	0	81	23793
2026-01-05 11:18:12.92	197.33	3.62	-58.3	-74.0	3.8	1.49e+00	0	25	104	0	81	23720
2026-01-05 11:18:13.90	197.39	3.68	-58.3	-74.1	3.8	1.49e+00	0	25	104	0	81	24013
2026-01-05 11:18:14.89	197.45	3.74	-58.3	-74.2	3.8	1.49e+00	0	26	104	0	81	24212
2026-01-05 11:18:15.88	197.51	3.80	-58.3	-74.3	3.8	1.49e+00	0	26	104	0	81	24547
2026-01-05 11:18:16.87	197.57	3.86	-58.3	-74.3	3.8	1.49e+00	0	26	104	0	81	24578
2026-01-05 11:18:17.85	197.62	3.92	-58.3	-74.2	3.8	1.49e+00	0	26	104	0	81	24349
2026-01-05 11:18:18.85	197.68	3.99	-58.3	-74.0	3.8	1.49e+00	0	26	104	0	81	23636
2026-01-05 11:18:19.83	197.74	4.05	-58.3	-73.6	3.8	1.49e+00	0	26	104	0	81	22630
2026-01-05 11:18:20.83	197.80	4.11	-58.3	-73.1	3.8	1.49e+00	0	26	104	0	81	21272
2026-01-05 11:18:21.82	197.86	4.17	-58.3	-72.8	3.8	1.49e+00	0	26	104	0	81	20687
2026-01-05 11:18:22.81	197.92	4.24	-58.2	-72.4	3.8	1.49e+00	0	26	104	0	81	19685
2026-01-05 11:18:23.80	197.98	4.30	-58.2	-72.3	3.8	1.49e+00	0	26	104	0	81	19451
2026-01-05 11:18:24.80	198.05	4.36	-58.2	-72.4	3.8	1.49e+00	0	26	104	0	81	19722
2026-01-05 11:18:25.79	198.11	4.43	-58.2	-72.4	3.8	1.49e+00	0	26	104	0	81	19809
2026-01-05 11:18:26.77	198.17	4.49	-58.2	-72.5	3.8	1.49e+00	0	26	104	0	81	19913
2026-01-05 11:18:27.76	198.23	4.55	-58.2	-72.5	3.8	1.49e+00	0	26	104	0	81	20005
2026-01-05 11:18:28.76	198.29	4.62	-58.2	-71.9	3.9	1.48e+00	0	26	104	0	81	18581
2026-01-05 11:18:29.74	198.35	4.68	-58.2	-71.2	4.1	1.49e+00	0	26	0	0	81	17262
2026-01-05 11:18:30.73	198.42	4.74	-58.1	-70.2	4.4	1.39e+00	45	26	0	0	81	15372
2026-01-05 11:18:31.72	198.48	4.81	-58.1	-69.5	4.6	1.02e+00	0	26	0	1048576	81	14179
2026-01-05 11:18:32.71	198.54	4.87	-58.0	-68.8	4.9	7.68e-01	0	26	0	3145728	81	13034
2026-01-05 11:18:33.70	198.60	4.94	-58.0	-68.4	5.1	6.67e-01	0	26	0	5242880	81	12489
2026-01-05 11:18:34.69	198.67	5.00	-58.0	-68.2	5.2	5.37e-01	0	26	0	7340032	81	12134
2026-01-05 11:18:35.67	198.73	5.06	-58.0	-67.8	5.5	4.91e-01	0	26	0	8388608	81	11663
2026-01-05 11:18:36.66	198.79	5.13	-58.2	-70.3	4.4	5.67e-01	63	26	0	10485760	81	15434
2026-01-05 11:18:37.65	198.86	5.19	-58.0	-68.8	5.0	1.22e+00	0	26	0	11534336	81	12978
2026-01-05 11:18:38.64	198.92	5.26	-58.2	-73.9	3.8	1.33e+00	0	26	104	12582912	81	23371
2026-01-05 11:18:39.63	198.99	5.32	-57.3	-64.1	4.9	1.49e+00	0	26	104	12582912	81	7618
2026-01-05 11:18:40.63	199.05	5.39	-55.8	-59.6	11.9	6.80e-06	0	26	0	13631488	78	5391
2026-01-05 11:18:41.62	199.12	5.45	-55.5	-59.1	12.2	6.10e-06	0	26	0	14680064	77	5347
2026-01-05 11:18:42.62	199.19	5.52	-55.4	-58.8	12.4	0.00e+00	0	26	0	16777216	77	5175
2026-01-05 11:18:43.61	199.25	5.59	-55.3	-58.7	12.5	1.50e-06	0	26	0	18874368	77	5124
2026-01-05 11:18:44.60	199.32	5.65	-55.2	-58.6	12.5	0.00e+00	0	26	0	20971520	76	5344
2026-01-05 11:18:45.59	199.38	5.72	-55.2	-58.5	12.6	0.00e+00	0	26	0	22020096	76	5292
2026-01-05 11:18:46.58	199.45	5.78	-55.1	-58.4	12.6	0.00e+00	0	26	0	24117248	76	5232
2026-01-05 11:18:47.58	199.52	5.85	-55.1	-58.2	12.7	0.00e+00	0	26	0	26214400	76	5155
2026-01-05 11:18:48.57	199.58	5.92	-55.0	-58.2	12.7	0.00e+00	0	26	0	28311552	76	5121
2026-01-05 11:18:49.56	199.65	5.98	-55.0	-58.1	12.8	0.00e+00	0	26	0	30408704	76	5056
2026-01-05 11:18:50.55	199.72	6.05	-55.0	-58.1	12.9	0.00e+00	0	26	0	31457280	76	5044
2026-01-05 11:18:51.53	199.79	6.11	-55.0	-58.0	12.9	0.00e+00	0	26	0	33554432	76	5032
2026-01-05 11:18:52.52	199.86	6.18	-54.9	-57.9	12.9	0.00e+00	0	26	0	35651584	76	4969
2026-01-05 11:18:53.51	199.92	6.25	-54.9	-57.9	13.0	0.00e+00	0	26	0	37748736	76	4948
2026-01-05 11:18:54.50	199.99	6.31	-54.9	-57.9	13.0	0.00e+00	0	26	0	38797312	76	4965
2026-01-05 11:18:55.49	200.06	6.38	-54.9	-57.9	13.0	0.00e+00	0	26	0	40894464	76	4936
2026-01-05 11:18:56.48	200.13	6.45	-54.9	-57.9	12.8	0.00e+00	0	26	0	42991616	75	5265
2026-01-05 11:18:57.47	200.20	6.52	-54.8	-57.8	12.9	0.00e+00	0	26	0	45088768	75	5179
2026-01-05 11:18:58.47	200.27	6.58	-54.8	-57.8	12.9	0.00e+00	0	26	0	46137344	75	5196
2026-01-05 11:18:59.46	200.34	6.65	-54.7	-57.6	13.0	0.00e+00	0	26	0	48234496	75	5064
2026-01-05 11:19:00.45	200.41	6.72	-54.7	-57.7	13.0	0.00e+00	0	27	0	50331648	75	5132
2026-01-05 11:19:01.43	200.48	6.79	-54.8	-57.7	13.0	0.00e+00	0	26	0	52428800	75	5136
2026-01-05 11:19:02.43	200.56	6.86	-54.6	-57.5	13.1	0.00e+00	0	26	0	54525952	75	5019
2026-01-05 11:19:03.42	200.63	6.92	-58.2	-70.6	4.6	5.79e-01	22	26	0	55574528	81	16065
2026-01-05 11:19:04.42	200.70	6.99	-58.1	-70.3	4.3	1.24e+00	72	27	0	56623104	81	15460
2026-01-05 11:19:05.41	200.77	7.06	-58.1	-69.7	4.4	1.14e+00	27	27	0	58720256	81	14504
2026-01-05 11:19:06.40	200.85	7.13	-58.1	-70.0	4.4	1.20e+00	54	27	0	59768832	81	14969
2026-01-05 11:19:07.39	200.92	7.20	-58.1	-69.9	4.5	1.18e+00	4	27	0	61865984	81	14724
2026-01-05 11:19:08.39	200.99	7.27	-58.2	-70.4	4.3	1.13e+00	0	27	0	63963136	81	15753
2026-01-05 11:19:09.38	201.07	7.34	-58.3	-72.3	3.8	1.48e+00	0	26	104	63963136	81	19510
2026-01-05 11:19:10.37	201.14	7.41	-58.3	-74.0	3.8	1.49e+00	0	27	104	63963136	81	23786
2026-01-05 11:19:11.37	201.22	7.48	-58.4	-72.5	3.9	1.49e+00	0	27	104	63963136	81	20046
2026-01-05 11:19:12.38	201.29	7.55	-58.3	-72.8	3.8	1.49e+00	0	27	104	63963136	81	20725
2026-01-05 11:19:13.38	201.37	7.62	-58.3	-72.2	3.8	1.49e+00	0	27	104	63963136	81	19345
2026-01-05 11:19:14.38	201.44	7.69	-58.3	-72.0	3.9	1.49e+00	0	27	104	63963136	81	18765
2026-01-05 11:19:15.37	201.52	7.76	-58.3	-71.7	4.0	1.47e+00	0	26	104	63963136	81	18156
2026-01-05 11:19:16.36	201.60	7.83	-58.3	-71.6	3.9	1.47e+00	0	27	104	63963136	81	18024
2026-01-05 11:19:17.35	201.67	7.90	-58.4	-72.3	3.8	1.46e+00	0	27	104	63963136	81	19464
2026-01-05 11:19:18.33	201.75	7.97	-58.4	-74.0	3.8	1.49e+00	0	27	104	63963136	81	23816
2026-01-05 11:19:19.33	201.83	8.04	-58.5	-72.5	3.8	1.49e+00	0	27	104	63963136	82	18903
2026-01-05 11:19:20.32	201.90	8.11	-58.4	-72.6	3.8	1.49e+00	0	27	104	63963136	82	19025
2026-01-05 11:19:21.31	201.98	8.18	-58.4	-71.8	4.0	1.49e+00	0	27	0	63963136	82	17417
2026-01-05 11:19:22.30	202.06	8.25	-58.4	-71.8	3.9	1.47e+00	0	27	104	63963136	82	17456
2026-01-05 11:19:23.29	202.14	8.33	-58.4	-71.4	4.1	1.44e+00	0	26	0	63963136	82	16564
2026-01-05 11:19:24.29	202.22	8.40	-58.4	-71.2	4.1	1.41e+00	0	27	0	63963136	82	16285
2026-01-05 11:19:25.29	202.30	8.47	-58.4	-71.2	4.1	1.42e+00	0	27	0	63963136	82	16189
2026-01-05 11:19:26.29	202.38	8.54	-58.4	-71.0	4.2	1.40e+00	0	27	0	63963136	82	15924
2026-01-05 11:19:27.29	202.46	8.62	-58.4	-70.6	4.3	1.31e+00	21	27	0	63963136	82	15156
2026-01-05 11:19:28.28	202.54	8.69	-58.5	-71.6	4.1	1.43e+00	0	27	0	63963136	82	16973
2026-01-05 11:19:29.26	202.62	8.76	-58.5	-74.1	3.8	1.49e+00	0	27	104	63963136	82	22731
2026-01-05 11:19:30.25	202.70	8.83	-58.6	-72.5	3.8	1.49e+00	0	27	104	63963136	82	18928
2026-01-05 11:19:31.23	202.78	8.90	-58.5	-72.5	3.8	1.49e+00	0	27	104	63963136	82	18898
2026-01-05 11:19:32.23	202.87	8.98	-58.5	-72.0	3.9	1.47e+00	0	27	104	63963136	82	17847
2026-01-05 11:19:33.22	202.95	9.05	-58.5	-72.0	4.0	1.47e+00	0	27	104	63963136	82	17685
2026-01-05 11:19:34.21	203.03	9.12	-58.5	-71.3	4.2	1.44e+00	0	27	0	63963136	82	16315
2026-01-05 11:19:35.20	203.11	9.20	-58.4	-70.6	4.3	1.37e+00	51	27	0	63963136	82	15196
2026-01-05 11:19:36.19	203.20	9.27	-58.4	-70.0	4.5	1.11e+00	0	27	0	65011712	82	14156
2026-01-05 11:19:37.19	203.28	9.34	-58.4	-69.6	4.7	8.86e-01	0	27	0	67108864	82	13439
2026-01-05 11:19:38.18	203.37	9.42	-58.4	-69.2	4.9	7.73e-01	0	27	0	69206016	82	12952
2026-01-05 11:19:39.17	203.45	9.49	-58.4	-68.8	5.2	6.20e-01	0	27	0	71303168	82	12259
2026-01-05 11:19:40.17	203.54	9.57	-58.6	-71.5	4.1	1.33e+00	0	27	0	71303168	82	16713
2026-01-05 11:19:41.16	203.62	9.64	-58.6	-74.0	3.8	1.49e+00	0	27	104	71303168	82	22319
2026-01-05 11:19:42.15	203.71	9.71	-58.7	-73.7	3.8	1.49e+00	0	27	104	71303168	82	21721
2026-01-05 11:19:43.15	203.80	9.79	-58.5	-71.1	4.2	1.44e+00	0	27	0	71303168	82	16117
2026-01-05 11:19:44.14	203.88	9.86	-58.5	-70.8	4.3	1.36e+00	0	27	0	71303168	82	15508
2026-01-05 11:19:45.13	203.97	9.94	-58.5	-70.1	4.5	1.07e+00	1	27	0	72351744	82	14335
2026-01-05 11:19:46.12	204.06	10.01	-58.5	-70.0	4.6	1.14e+00	0	27	0	73400320	82	14163
2026-01-05 11:19:47.11	204.15	10.09	-58.4	-69.3	4.9	8.62e-01	0	27	0	75497472	82	13030
2026-01-05 11:19:48.11	204.24	10.17	-58.3	-68.7	5.2	6.90e-01	0	27	0	77594624	81	12854
2026-01-05 11:19:49.11	204.33	10.24	-58.3	-68.1	5.5	4.90e-01	0	27	0	79691776	81	12077
2026-01-05 11:19:50.10	204.42	10.32	-58.3	-67.7	5.8	4.38e-01	0	27	0	81788928	81	11515
2026-01-05 11:19:51.10	204.51	10.40	-58.6	-71.4	4.2	9.46e-01	0	27	0	82837504	82	16507
2026-01-05 11:19:52.10	204.60	10.47	-58.7	-74.0	3.8	1.49e+00	0	27	104	82837504	82	22321
2026-01-05 11:19:53.09	204.69	10.55	-58.7	-72.4	4.0	1.49e+00	0	27	104	82837504	82	18563
2026-01-05 11:19:54.09	204.78	10.63	-58.7	-71.7	4.1	1.44e+00	0	27	0	82837504	82	17280
2026-01-05 11:19:55.08	204.87	10.70	-58.6	-71.0	4.2	1.41e+00	0	27	0	82837504	82	15880
2026-01-05 11:19:56.08	204.96	10.78	-58.6	-70.3	4.5	1.25e+00	16	27	0	82837504	82	14645
2026-01-05 11:19:57.07	205.06	10.86	-58.5	-69.7	4.7	9.19e-01	0	27	0	84934656	82	13683
2026-01-05 11:19:58.07	205.15	10.93	-58.5	-69.1	5.0	7.42e-01	0	27	0	87031808	82	12719
2026-01-05 11:19:59.05	205.24	11.01	-58.4	-68.8	5.2	5.92e-01	0	27	0	89128960	82	12235
2026-01-05 11:20:00.05	205.34	11.09	-58.4	-68.4	5.4	5.10e-01	0	27	0	90177536	82	11785
2026-01-05 11:20:01.04	205.43	11.17	-58.5	-68.9	5.1	5.48e-01	0	27	0	92274688	82	12468
2026-01-05 11:20:02.03	205.53	11.25	-58.7	-70.9	4.3	8.53e-01	0	27	0	94371840	82	15739
2026-01-05 11:20:03.03	205.63	11.32	-58.8	-74.0	3.8	1.49e+00	0	27	104	94371840	82	22400
2026-01-05 11:20:04.02	205.72	11.40	-58.8	-72.8	3.8	1.46e+00	0	27	104	94371840	82	19607
2026-01-05 11:20:05.02	205.82	11.48	-58.7	-71.3	4.2	1.35e+00	0	27	0	94371840	82	16357
2026-01-05 11:20:06.02	205.92	11.56	-58.6	-70.6	4.4	1.37e+00	63	27	0	95420416	82	15102
2026-01-05 11:20:07.01	206.01	11.64	-58.6	-69.9	4.6	1.06e+00	0	27	0	96468992	82	14042
2026-01-05 11:20:08.01	206.11	11.72	-58.5	-69.4	4.9	8.18e-01	0	27	0	98566144	82	13180
2026-01-05 11:20:09.00	206.21	11.80	-58.5	-68.8	5.1	6.54e-01	0	27	0	100663296	82	12372
2026-01-05 11:20:10.00	206.31	11.88	-58.5	-68.4	5.4	4.94e-01	0	27	0	102760448	82	11722
2026-01-05 11:20:10.99	206.41	11.96	-58.5	-68.1	5.6	4.35e-01	0	27	0	103809024	82	11380
2026-01-05 11:20:11.98	206.51	12.04	-58.6	-68.9	5.2	4.88e-01	0	27	0	105906176	82	12495
2026-01-05 11:20:12.99	206.61	12.12	-58.7	-71.1	4.3	7.81e-01	0	27	0	106954752	82	15969
2026-01-05 11:20:13.97	206.71	12.20	-58.8	-74.0	3.8	1.49e+00	0	27	104	108003328	82	22370
2026-01-05 11:20:14.96	206.82	12.28	-58.9	-72.4	4.0	1.46e+00	0	27	0	108003328	82	18730
2026-01-05 11:20:15.97	206.92	12.36	-58.7	-71.1	4.3	1.36e+00	17	27	0	108003328	82	15988
2026-01-05 11:20:16.96	207.02	12.44	-58.7	-70.4	4.5	1.06e+00	1	27	0	109051904	82	14720
2026-01-05 11:20:17.96	207.13	12.52	-58.7	-70.5	4.5	1.10e+00	5	27	0	111149056	82	14901
2026-01-05 11:20:18.95	207.23	12.61	-58.7	-70.4	4.5	1.07e+00	1	27	0	113246208	82	14800
2026-01-05 11:20:19.95	207.34	12.69	-58.7	-70.5	4.4	1.08e+00	34	27	0	115343360	82	14966
2026-01-05 11:20:20.94	207.44	12.77	-58.7	-70.1	4.6	9.63e-01	0	27	0	116391936	82	14285
2026-01-05 11:20:21.94	207.55	12.85	-58.6	-69.4	4.9	7.59e-01	0	27	0	118489088	82	13206
2026-01-05 11:20:22.94	207.65	12.93	-58.8	-70.5	4.5	7.85e-01	5	27	0	120586240	82	14925
2026-01-05 11:20:23.93	207.76	13.02	-58.8	-71.1	4.3	1.13e+00	0	27	0	121634816	82	16086
2026-01-05 11:20:24.92	207.87	13.10	-58.9	-74.2	3.8	1.48e+00	0	27	104	121634816	83	21631
2026-01-05 11:20:25.91	207.98	13.18	-58.9	-72.4	4.0	1.48e+00	0	27	104	121634816	83	17593
2026-01-05 11:20:26.91	208.09	13.26	-58.8	-70.7	4.4	1.42e+00	41	27	0	121634816	83	14495
2026-01-05 11:20:27.91	208.20	13.35	-58.8	-70.4	4.5	1.06e+00	2	27	0	123731968	83	14003
2026-01-05 11:20:28.90	208.30	13.43	-58.7	-69.9	4.7	9.33e-01	0	27	0	125829120	83	13216
2026-01-05 11:20:29.90	208.42	13.51	-58.7	-70.1	4.6	8.77e-01	0	27	0	126877696	83	13481
2026-01-05 11:20:30.88	208.53	13.60	-58.7	-70.1	4.6	9.00e-01	0	27	0	128974848	83	13460
2026-01-05 11:20:31.88	208.64	13.68	-58.7	-69.4	5.0	7.45e-01	0	27	0	131072000	83	12400
2026-01-05 11:20:32.87	208.75	13.77	-58.6	-68.7	5.3	5.58e-01	0	27	0	133169152	83	11524
2026-01-05 11:20:33.87	208.86	13.85	-58.7	-69.4	5.0	5.15e-01	0	27	0	135266304	83	12383
2026-01-05 11:20:34.86	208.98	13.93	-58.9	-71.1	4.3	6.88e-01	13	27	0	136314880	83	15224
2026-01-05 11:20:35.85	209.09	14.02	-59.0	-74.0	3.8	1.45e+00	0	27	104	137363456	83	21181
2026-01-05 11:20:36.84	209.20	14.10	-59.0	-72.4	4.0	1.49e+00	0	27	104	137363456	83	17596
2026-01-05 11:20:37.83	209.32	14.19	-58.8	-70.3	4.6	1.45e+00	0	27	0	137363456	83	13748
2026-01-05 11:20:38.82	209.44	14.27	-58.8	-70.3	4.6	9.58e-01	0	27	0	139460608	83	13836
2026-01-05 11:20:39.82	209.55	14.36	-58.8	-70.2	4.6	9.54e-01	0	27	0	141557760	83	13678
2026-01-05 11:20:40.81	209.67	14.44	-58.8	-69.7	4.8	8.54e-01	0	27	0	142606336	83	12933
2026-01-05 11:20:41.80	209.79	14.53	-58.7	-69.2	5.1	6.90e-01	0	27	0	144703488	83	12100
2026-01-05 11:20:42.80	209.91	14.62	-58.6	-68.6	5.4	4.98e-01	0	27	0	146800640	83	11334
2026-01-05 11:20:43.80	210.03	14.70	-58.6	-68.0	5.8	3.91e-01	0	27	0	148897792	83	10640
2026-01-05 11:20:44.80	210.15	14.79	-58.4	-66.8	6.6	2.96e-01	0	27	0	150994944	83	9178
2026-01-05 11:20:45.79	210.27	14.88	-58.9	-70.8	4.4	6.64e-01	29	27	0	152043520	83	14688
2026-01-05 11:20:46.79	210.39	14.96	-59.1	-74.2	3.8	1.43e+00	0	27	104	153092096	83	21568
2026-01-05 11:20:47.78	210.51	15.05	-59.0	-71.9	4.2	1.49e+00	0	27	104	153092096	83	16554
2026-01-05 11:20:48.78	210.63	15.14	-58.9	-70.6	4.5	1.49e+00	2	27	104	153092096	83	14308
2026-01-05 11:20:49.78	210.76	15.22	-58.9	-70.7	4.5	1.13e+00	14	27	0	154140672	83	14389
2026-01-05 11:20:50.77	210.88	15.31	-58.8	-70.5	4.5	1.20e+00	0	27	0	156237824	83	14110
2026-01-05 11:20:51.77	211.01	15.40	-58.8	-70.2	4.6	1.03e+00	0	27	0	158334976	83	13663
2026-01-05 11:20:52.77	211.13	15.49	-58.8	-70.0	4.7	8.04e-01	0	27	0	159383552	83	13384
2026-01-05 11:20:53.76	211.26	15.58	-58.7	-69.2	5.1	6.90e-01	0	27	0	161480704	83	12222
2026-01-05 11:20:54.76	211.39	15.67	-58.7	-68.5	5.5	4.92e-01	0	27	0	163577856	83	11166
2026-01-05 11:20:55.75	211.52	15.75	-58.7	-68.4	5.5	3.80e-01	0	27	0	165675008	83	11131
2026-01-05 11:20:56.75	211.64	15.84	-58.9	-70.8	4.4	7.64e-01	31	27	0	166723584	83	14700
2026-01-05 11:20:57.74	211.77	15.93	-59.1	-74.5	3.8	1.42e+00	0	27	104	167772160	83	22263
2026-01-05 11:20:58.74	211.90	16.02	-59.1	-73.8	3.8	1.49e+00	0	27	104	167772160	83	20612
2026-01-05 11:20:59.73	212.03	16.11	-58.9	-69.8	4.8	1.49e+00	0	27	104	167772160	83	13086
2026-01-05 11:21:00.72	212.17	16.20	-58.8	-69.5	5.0	6.68e-01	0	27	0	168820736	83	12556
2026-01-05 11:21:01.72	212.30	16.29	-58.8	-69.5	5.0	6.59e-01	0	27	0	170917888	83	12537
2026-01-05 11:21:02.70	212.43	16.38	-58.8	-69.1	5.1	5.78e-01	0	27	0	173015040	83	12076
2026-01-05 11:21:03.70	212.56	16.47	-58.7	-68.9	5.3	4.94e-01	0	27	0	175112192	83	11801
2026-01-05 11:21:04.69	212.70	16.56	-58.7	-68.5	5.5	4.27e-01	0	27	0	176160768	83	11265
2026-01-05 11:21:05.68	212.83	16.65	-58.7	-68.2	5.7	4.02e-01	0	27	0	178257920	83	10835
2026-01-05 11:21:06.67	212.97	16.74	-58.8	-68.7	5.4	3.73e-01	0	27	0	180355072	83	11477
2026-01-05 11:21:07.66	213.10	16.83	-59.0	-70.8	4.5	7.28e-01	11	27	0	182452224	83	14589
2026-01-05 11:21:08.66	213.24	16.92	-59.2	-74.6	3.8	1.41e+00	0	27	104	182452224	83	22682
2026-01-05 11:21:09.65	213.38	17.01	-59.2	-72.6	4.0	1.49e+00	0	27	104	182452224	83	17960
2026-01-05 11:21:10.64	213.52	17.10	-59.0	-70.2	4.6	1.49e+00	0	27	104	182452224	83	13650
2026-01-05 11:21:11.63	213.66	17.19	-58.9	-69.3	5.1	6.05e-01	0	27	0	183500800	83	12370
2026-01-05 11:21:12.62	213.80	17.28	-58.9	-69.4	5.1	5.96e-01	0	27	0	185597952	83	12389
2026-01-05 11:21:13.61	213.94	17.38	-58.8	-68.5	5.5	5.02e-01	0	27	0	187695104	83	11262
2026-01-05 11:21:14.60	214.08	17.47	-58.7	-68.0	5.9	3.71e-01	0	27	0	189792256	83	10549
2026-01-05 11:21:15.60	214.23	17.56	-58.6	-67.3	6.3	2.27e-01	0	27	0	190840832	83	9812
2026-01-05 11:21:16.59	214.37	17.65	-58.6	-67.3	6.3	2.19e-01	0	27	0	192937984	83	9806
2026-01-05 11:21:17.59	214.52	17.74	-58.6	-67.2	6.4	1.91e-01	0	27	0	195035136	83	9656
2026-01-05 11:21:18.58	214.66	17.84	-58.9	-68.8	5.5	2.58e-01	0	27	0	197132288	83	11671
2026-01-05 11:21:19.58	214.81	17.93	-59.2	-74.0	3.8	1.33e+00	0	27	104	198180864	83	21146
2026-01-05 11:21:20.56	214.95	18.02	-59.1	-72.1	3.9	1.49e+00	0	27	104	198180864	83	16923
2026-01-05 11:21:21.56	215.10	18.12	-59.1	-70.8	4.5	1.49e+00	30	27	104	198180864	83	14688
2026-01-05 11:21:22.54	215.25	18.21	-58.9	-69.2	5.2	5.71e-01	0	27	0	199229440	83	12162
2026-01-05 11:21:23.54	215.40	18.30	-58.9	-69.2	5.2	5.83e-01	0	27	0	201326592	83	12123
2026-01-05 11:21:24.54	215.55	18.40	-58.9	-68.8	5.4	5.30e-01	0	27	0	202375168	83	11632
2026-01-05 11:21:25.53	215.71	18.49	-58.8	-68.0	5.9	4.01e-01	0	27	0	204472320	83	10601
2026-01-05 11:21:26.52	215.86	18.58	-58.7	-67.4	6.3	2.34e-01	0	27	0	206569472	83	9896
2026-01-05 11:21:27.52	216.01	18.68	-58.6	-67.0	6.6	1.71e-01	0	27	0	208666624	83	9417
2026-01-05 11:21:28.51	216.17	18.77	-58.5	-66.3	7.2	1.31e-01	0	27	0	210763776	83	8741
2026-01-05 11:21:29.51	216.32	18.87	-58.6	-66.8	6.9	6.20e-02	0	27	0	211812352	83	9279
2026-01-05 11:21:30.50	216.48	18.96	-59.2	-72.8	4.0	1.14e+00	0	27	0	213909504	83	18489
2026-01-05 11:21:31.50	216.64	19.06	-59.1	-72.1	3.9	1.49e+00	0	27	104	213909504	83	16954
2026-01-05 11:21:32.50	216.80	19.15	-59.1	-70.6	4.6	1.49e+00	0	27	104	213909504	83	14244
2026-01-05 11:21:33.48	216.96	19.25	-58.9	-68.8	5.4	4.67e-01	0	27	0	214958080	83	11617
2026-01-05 11:21:34.47	217.12	19.34	-58.8	-68.6	5.6	4.33e-01	0	27	0	217055232	83	11294
2026-01-05 11:21:35.46	217.28	19.44	-58.8	-68.4	5.7	4.20e-01	0	27	0	218103808	83	11030
2026-01-05 11:21:36.45	217.44	19.53	-58.7	-67.4	6.2	3.08e-01	0	27	0	220200960	83	9930
2026-01-05 11:21:37.44	217.60	19.63	-58.6	-66.8	6.8	1.56e-01	0	27	0	222298112	83	9202
2026-01-05 11:21:38.43	217.77	19.72	-58.5	-66.3	7.2	1.13e-01	0	27	0	224395264	83	8718
2026-01-05 11:21:39.43	217.93	19.82	-58.5	-66.2	7.3	8.35e-02	0	27	0	225443840	83	8632
2026-01-05 11:21:40.42	218.10	19.92	-58.6	-66.8	6.8	8.86e-02	0	27	0	227540992	83	9254
2026-01-05 11:21:41.40	218.26	20.01	-59.1	-71.4	4.3	9.51e-01	74	27	0	229638144	83	15685
2026-01-05 11:21:42.39	218.43	20.11	-59.2	-73.2	3.9	1.49e+00	0	27	104	229638144	83	19343
2026-01-05 11:21:43.39	218.60	20.20	-59.1	-70.8	4.5	1.49e+00	11	27	104	229638144	83	14596
2026-01-05 11:21:44.39	218.77	20.30	-58.8	-68.2	5.8	3.37e-01	0	27	0	230686720	83	10791
2026-01-05 11:21:45.38	218.95	20.40	-58.8	-68.2	5.9	3.33e-01	0	27	0	232783872	83	10793
2026-01-05 11:21:46.36	219.12	20.49	-58.8	-68.1	5.9	2.95e-01	0	27	0	234881024	83	10699
2026-01-05 11:21:47.35	219.29	20.59	-58.6	-67.0	6.6	2.47e-01	0	27	0	236978176	83	9461
2026-01-05 11:21:48.34	219.46	20.69	-58.5	-66.2	7.3	1.05e-01	0	27	0	238026752	83	8615
2026-01-05 11:21:49.33	219.64	20.78	-58.4	-65.6	7.8	5.89e-02	0	27	0	240123904	83	8078
2026-01-05 11:21:50.33	219.82	20.88	-58.3	-65.2	8.2	3.86e-02	0	27	0	242221056	83	7632
2026-01-05 11:21:51.32	219.99	20.98	-58.4	-65.4	8.1	2.94e-02	0	27	0	244318208	83	7827
2026-01-05 11:21:52.30	220.17	21.07	-58.3	-65.1	8.3	3.02e-02	0	27	0	245366784	83	7559
2026-01-05 11:21:53.29	220.35	21.17	-58.2	-64.7	8.6	1.98e-02	0	27	0	247463936	83	7253
2026-01-05 11:21:54.29	220.53	21.27	-58.2	-64.6	8.7	1.55e-02	0	27	0	249561088	83	7192
2026-01-05 11:21:55.28	220.71	21.37	-58.1	-64.5	8.8	1.28e-02	0	27	0	251658240	82	7466
2026-01-05 11:21:56.27	220.90	21.46	-58.1	-64.3	8.9	1.15e-02	0	27	0	253755392	82	7357
2026-01-05 11:21:57.27	221.08	21.56	-58.1	-64.3	8.9	1.06e-02	0	27	0	254803968	82	7356
2026-01-05 11:21:58.26	221.27	21.66	-58.1	-64.2	9.1	9.80e-03	0	27	0	256901120	82	7205
2026-01-05 11:21:59.25	221.45	21.76	-58.1	-64.1	9.1	7.46e-03	0	27	0	258998272	82	7143
2026-01-05 11:22:00.24	221.64	21.86	-58.0	-64.0	9.2	7.00e-03	0	27	0	261095424	82	7075
2026-01-05 11:22:01.23	221.83	21.96	-58.0	-63.9	9.4	6.31e-03	0	27	0	262144000	82	6964
2026-01-05 11:22:02.22	222.02	22.05	-58.0	-63.7	9.5	5.65e-03	0	27	0	264241152	82	6868
2026-01-05 11:22:03.22	222.21	22.15	-58.0	-63.8	9.5	4.54e-03	0	27	0	266338304	82	6884
2026-01-05 11:22:04.22	222.41	22.25	-58.0	-63.7	9.5	4.26e-03	0	27	0	268435456	82	6818
2026-01-05 11:22:05.21	222.60	22.35	-57.8	-63.3	9.9	3.63e-03	0	27	0	270532608	82	6545
2026-01-05 11:22:06.21	222.80	22.45	-57.6	-62.6	10.4	1.08e-03	0	27	0	271581184	81	6350
2026-01-05 11:22:07.20	222.99	22.55	-57.1	-61.4	11.3	1.85e-04	0	27	0	273678336	80	5856
2026-01-05 11:22:08.19	223.19	22.65	-56.4	-59.9	12.3	7.60e-06	0	27	0	275775488	79	5267
2026-01-05 11:22:09.19	223.39	22.74	-55.6	-58.6	13.0	0.00e+00	0	27	0	277872640	77	5054
2026-01-05 11:22:10.18	223.59	22.84	-54.7	-57.2	13.7	0.00e+00	0	27	0	278921216	76	4553
2026-01-05 11:22:11.17	223.79	22.94	-53.8	-55.9	14.1	0.00e+00	0	27	0	281018368	74	4402
2026-01-05 11:22:12.16	223.99	23.04	-52.9	-54.8	14.4	0.00e+00	0	27	0	283115520	72	4363
2026-01-05 11:22:13.16	224.20	23.14	-52.2	-53.9	14.7	0.00e+00	0	27	0	285212672	71	4183
2026-01-05 11:22:14.16	224.40	23.24	-51.7	-53.3	14.9	0.00e+00	0	27	0	287309824	70	4116
2026-01-05 11:22:15.15	224.61	23.34	-51.2	-52.8	14.9	0.00e+00	0	27	0	288358400	69	4100
2026-01-05 11:22:16.15	224.82	23.44	-51.1	-52.6	14.9	0.00e+00	0	27	0	290455552	68	4260
2026-01-05 11:22:17.14	225.02	23.54	-51.0	-52.4	14.9	0.00e+00	0	27	0	292552704	68	4190
2026-01-05 11:22:18.13	225.23	23.63	-50.3	-51.7	15.0	0.00e+00	0	27	0	294649856	67	4088
2026-01-05 11:22:19.11	225.44	23.73	-50.1	-51.5	15.0	0.00e+00	0	27	0	295698432	66	4230
2026-01-05 11:22:20.11	225.66	23.83	-50.3	-51.7	14.9	0.00e+00	0	27	0	297795584	66	4321
2026-01-05 11:22:21.10	225.87	23.93	-50.3	-51.7	14.9	0.00e+00	0	27	0	299892736	66	4327
2026-01-05 11:22:22.09	226.08	24.03	-50.4	-51.8	14.9	0.00e+00	0	27	0	301989888	66	4375
2026-01-05 11:22:23.08	226.30	24.13	-50.6	-52.1	14.8	0.00e+00	0	27	0	303038464	66	4501
2026-01-05 11:22:24.08	226.52	24.23	-50.6	-52.0	14.8	0.00e+00	0	27	0	305135616	66	4483
2026-01-05 11:22:25.08	226.74	24.32	-50.7	-52.1	14.8	0.00e+00	0	27	0	307232768	66	4543
2026-01-05 11:22:26.08	226.96	24.42	-50.7	-52.2	14.8	0.00e+00	0	27	0	309329920	66	4548
2026-01-05 11:22:27.07	227.18	24.52	-50.7	-52.1	14.8	0.00e+00	0	27	0	311427072	66	4536
2026-01-05 11:22:28.07	227.41	24.62	-50.7	-52.1	14.8	0.00e+00	0	27	0	312475648	66	4531
2026-01-05 11:22:29.06	227.63	24.72	-50.7	-52.2	14.8	0.00e+00	0	27	0	314572800	66	4558
2026-01-05 11:22:30.06	227.86	24.82	-50.7	-52.1	14.8	0.00e+00	0	27	0	316669952	66	4528
2026-01-05 11:22:31.05	228.09	24.92	-50.8	-52.3	14.7	0.00e+00	0	27	0	318767104	66	4633
2026-01-05 11:22:32.04	228.32	25.01	-51.1	-52.6	14.8	0.00e+00	0	27	0	319815680	67	4519
2026-01-05 11:22:33.03	228.55	25.11	-51.1	-52.7	14.7	0.00e+00	0	27	0	321912832	67	4557
2026-01-05 11:22:34.02	228.78	25.21	-51.2	-52.7	14.7	0.00e+00	0	27	0	324009984	67	4594
2026-01-05 11:22:35.02	229.01	25.31	-51.2	-52.8	14.7	0.00e+00	0	27	0	326107136	67	4616
2026-01-05 11:22:36.01	229.24	25.40	-51.3	-52.8	14.7	0.00e+00	0	27	0	328204288	67	4641
2026-01-05 11:22:37.00	229.48	25.50	-51.2	-52.8	14.7	0.00e+00	0	27	0	329252864	67	4624
2026-01-05 11:22:37.99	229.72	25.60	-51.4	-53.0	14.6	0.00e+00	0	27	0	331350016	67	4712
2026-01-05 11:22:38.99	229.96	25.69	-51.6	-53.2	14.7	0.00e+00	0	27	0	333447168	68	4566
2026-01-05 11:22:39.97	230.19	25.79	-51.7	-53.3	14.6	0.00e+00	0	27	0	335544320	68	4638
2026-01-05 11:22:40.97	230.44	25.89	-51.9	-53.6	14.6	0.00e+00	0	27	0	336592896	69	4495
2026-01-05 11:22:41.95	230.68	25.98	-52.0	-53.7	14.6	0.00e+00	0	27	0	338690048	69	4583
2026-01-05 11:22:42.94	230.92	26.08	-52.0	-53.7	14.5	0.00e+00	0	27	0	340787200	69	4581
2026-01-05 11:22:43.94	231.17	26.18	-52.1	-53.8	14.5	0.00e+00	0	27	0	342884352	69	4618
2026-01-05 11:22:44.93	231.41	26.27	-52.1	-53.8	14.5	0.00e+00	0	27	0	344981504	69	4624
2026-01-05 11:22:45.92	231.66	26.37	-52.1	-53.8	14.6	0.00e+00	0	27	0	346030080	69	4646
2026-01-05 11:22:46.91	231.91	26.46	-52.3	-54.0	14.4	0.00e+00	0	27	0	348127232	69	4753
2026-01-05 11:22:47.90	232.16	26.56	-52.5	-54.2	14.5	0.00e+00	0	27	0	350224384	70	4589
2026-01-05 11:22:48.90	232.42	26.65	-52.6	-54.4	14.4	0.00e+00	0	27	0	352321536	70	4662
2026-01-05 11:22:49.89	232.67	26.75	-52.7	-54.5	14.3	0.00e+00	0	27	0	353370112	70	4731
2026-01-05 11:22:50.88	232.93	26.84	-52.9	-54.7	14.3	0.00e+00	0	27	0	355467264	70	4865
2026-01-05 11:22:51.87	233.18	26.93	-53.1	-55.0	14.2	0.00e+00	0	27	0	357564416	71	4743
2026-01-05 11:22:52.86	233.44	27.03	-53.1	-55.0	14.3	0.00e+00	0	27	0	359661568	71	4731
2026-01-05 11:22:53.84	233.70	27.12	-53.0	-54.9	14.3	0.00e+00	0	27	0	361758720	71	4686
2026-01-05 11:22:54.84	233.96	27.21	-53.0	-54.9	14.3	0.00e+00	0	27	0	362807296	71	4702
2026-01-05 11:22:55.82	234.22	27.31	-52.9	-54.8	14.3	0.00e+00	0	27	0	364904448	71	4638
2026-01-05 11:22:56.81	234.49	27.40	-52.9	-54.7	14.4	0.00e+00	0	27	0	367001600	71	4572
2026-01-05 11:22:57.80	234.75	27.49	-52.8	-54.6	14.4	0.00e+00	0	27	0	369098752	71	4512
2026-01-05 11:22:58.80	235.02	27.58	-52.8	-54.6	14.4	0.00e+00	0	27	0	370147328	71	4536
2026-01-05 11:22:59.79	235.29	27.67	-52.8	-54.7	14.4	0.00e+00	0	27	0	372244480	71	4562
2026-01-05 11:23:00.79	235.56	27.77	-52.9	-54.8	14.3	0.00e+00	0	27	0	374341632	71	4621
2026-01-05 11:23:01.78	235.84	27.86	-53.1	-55.0	14.2	0.00e+00	0	27	0	376438784	71	4727
2026-01-05 11:23:02.77	236.11	27.95	-53.4	-55.3	14.1	0.00e+00	0	27	0	377487360	71	4918
2026-01-05 11:23:03.77	236.39	28.04	-53.6	-55.7	14.1	0.00e+00	0	27	0	379584512	72	4836
2026-01-05 11:23:04.77	236.67	28.13	-54.0	-56.1	14.0	0.00e+00	0	27	0	381681664	73	4798
2026-01-05 11:23:05.76	236.94	28.22	-54.1	-56.4	13.8	0.00e+00	0	27	0	383778816	73	4939
2026-01-05 11:23:06.75	237.22	28.31	-54.3	-56.6	13.7	0.00e+00	0	27	0	385875968	73	5092
2026-01-05 11:23:07.74	237.50	28.39	-54.3	-56.6	13.7	0.00e+00	0	27	0	386924544	73	5089
2026-01-05 11:23:08.73	237.79	28.48	-54.3	-56.6	13.7	0.00e+00	0	27	0	389021696	73	5084
2026-01-05 11:23:09.73	238.07	28.57	-54.6	-56.9	13.7	0.00e+00	0	27	0	391118848	74	4982
2026-01-05 11:23:10.72	238.36	28.66	-54.7	-57.2	13.5	0.00e+00	0	27	0	393216000	74	5138
2026-01-05 11:23:11.71	238.64	28.74	-55.0	-57.6	13.4	0.00e+00	0	27	0	394264576	75	5054
2026-01-05 11:23:12.70	238.93	28.83	-55.2	-57.9	13.2	0.00e+00	0	27	0	396361728	75	5260
2026-01-05 11:23:13.70	239.23	28.91	-55.4	-58.2	13.1	0.00e+00	0	27	0	398458880	75	5427
2026-01-05 11:23:14.68	239.51	29.00	-55.6	-58.5	13.0	0.00e+00	0	27	0	400556032	76	5303
2026-01-05 11:23:15.67	239.81	29.08	-55.5	-58.4	13.1	0.00e+00	0	27	0	402653184	76	5237
2026-01-05 11:23:16.66	240.10	29.17	-55.5	-58.4	13.1	0.00e+00	0	27	0	403701760	76	5227
2026-01-05 11:23:17.65	240.40	29.25	-55.5	-58.3	13.1	0.00e+00	0	27	0	405798912	76	5214
2026-01-05 11:23:18.65	240.70	29.33	-55.4	-58.2	13.2	0.00e+00	0	27	0	407896064	76	5140
2026-01-05 11:23:19.65	241.00	29.41	-55.3	-58.0	13.3	0.00e+00	0	27	0	409993216	76	5026
2026-01-05 11:23:20.63	241.30	29.49	-55.3	-58.0	13.3	0.00e+00	0	27	0	411041792	76	5008
2026-01-05 11:23:21.62	241.60	29.58	-55.4	-58.2	13.2	0.00e+00	0	27	0	413138944	76	5120
2026-01-05 11:23:22.61	241.90	29.66	-55.5	-58.3	13.1	0.00e+00	0	27	0	415236096	76	5160
2026-01-05 11:23:23.61	242.21	29.74	-55.6	-58.4	13.1	0.00e+00	0	27	0	417333248	76	5252
2026-01-05 11:23:24.60	242.52	29.81	-55.7	-58.6	13.0	0.00e+00	0	27	0	419430400	76	5348
2026-01-05 11:23:25.60	242.83	29.89	-55.7	-58.6	13.0	0.00e+00	0	27	0	420478976	76	5391
2026-01-05 11:23:26.60	243.14	29.97	-55.6	-58.5	13.1	0.00e+00	0	27	0	422576128	76	5286
2026-01-05 11:23:27.59	243.45	30.05	-55.3	-57.9	13.4	0.00e+00	0	27	0	424673280	76	4980
2026-01-05 11:23:28.59	243.76	30.12	-55.0	-57.6	13.6	0.00e+00	0	27	0	426770432	76	4764
2026-01-05 11:23:29.58	244.08	30.20	-54.8	-57.2	13.8	0.00e+00	0	27	0	427819008	76	4561
2026-01-05 11:23:30.57	244.39	30.27	-54.4	-56.7	13.9	0.00e+00	0	27	0	429916160	75	4579
2026-01-05 11:23:31.56	244.71	30.35	-54.3	-56.5	14.0	0.00e+00	0	27	0	432013312	75	4472
2026-01-05 11:23:32.55	245.03	30.42	-54.3	-56.6	14.0	0.00e+00	0	27	0	434110464	75	4512
2026-01-05 11:23:33.55	245.35	30.49	-54.2	-56.3	14.0	0.00e+00	0	27	0	436207616	74	4646
2026-01-05 11:23:34.54	245.67	30.56	-54.3	-56.6	13.9	0.00e+00	0	27	0	437256192	74	4787
2026-01-05 11:23:35.54	245.99	30.64	-54.3	-56.5	13.9	0.00e+00	0	27	0	439353344	74	4731
2026-01-05 11:23:36.53	246.32	30.71	-54.4	-56.6	13.9	0.00e+00	0	27	0	441450496	74	4798
2026-01-05 11:23:37.51	246.64	30.77	-54.4	-56.7	13.8	0.00e+00	0	27	0	443547648	74	4820
2026-01-05 11:23:38.51	246.97	30.84	-54.3	-56.6	13.9	0.00e+00	0	27	0	444596224	74	4788
2026-01-05 11:23:39.50	247.30	30.91	-54.3	-56.5	13.9	0.00e+00	0	27	0	446693376	74	4729
2026-01-05 11:23:40.49	247.63	30.98	-54.1	-56.3	14.0	0.00e+00	0	27	0	448790528	74	4628
2026-01-05 11:23:41.48	247.96	31.04	-53.9	-55.9	14.2	0.00e+00	0	27	0	450887680	74	4432
2026-01-05 11:23:42.47	248.29	31.11	-53.9	-56.0	14.2	0.00e+00	0	27	0	451936256	74	4459
2026-01-05 11:23:43.46	248.62	31.17	-53.9	-56.0	14.2	0.00e+00	0	27	0	454033408	74	4469
2026-01-05 11:23:44.45	248.95	31.23	-54.2	-56.4	14.0	0.00e+00	0	27	0	456130560	74	4673
2026-01-05 11:23:45.45	249.29	31.30	-54.6	-57.0	13.7	0.00e+00	0	27	0	458227712	74	5031
2026-01-05 11:23:46.45	249.63	31.36	-55.1	-57.8	13.3	0.00e+00	0	27	0	460324864	75	5172
2026-01-05 11:23:47.44	249.97	31.42	-55.3	-58.1	13.2	0.00e+00	0	27	0	461373440	75	5372
2026-01-05 11:23:48.43	250.31	31.48	-55.4	-58.1	13.1	0.00e+00	0	27	0	463470592	75	5370
2026-01-05 11:23:49.43	250.65	31.54	-55.3	-58.0	13.2	0.00e+00	0	27	0	465567744	75	5310
2026-01-05 11:23:50.42	250.99	31.59	-55.3	-58.0	13.2	0.00e+00	0	27	0	467664896	75	5290
2026-01-05 11:23:51.41	251.33	31.65	-55.1	-57.8	13.3	0.00e+00	0	27	0	468713472	75	5165
2026-01-05 11:23:52.40	251.68	31.70	-54.8	-57.3	13.6	0.00e+00	0	27	0	470810624	75	4884
2026-01-05 11:23:53.39	252.02	31.76	-54.6	-57.0	13.8	0.00e+00	0	27	0	472907776	75	4739
2026-01-05 11:23:54.39	252.37	31.81	-54.7	-57.1	13.7	0.00e+00	0	27	0	475004928	75	4780
2026-01-05 11:23:55.40	252.73	31.86	-54.7	-57.1	13.7	0.00e+00	0	27	0	477102080	75	4788
2026-01-05 11:23:56.39	253.07	31.92	-54.6	-56.9	13.8	0.00e+00	0	27	0	478150656	75	4665
2026-01-05 11:23:57.38	253.42	31.97	-54.5	-56.8	13.9	0.00e+00	0	27	0	480247808	75	4638
2026-01-05 11:23:58.38	253.78	32.01	-54.6	-57.0	13.8	0.00e+00	0	27	0	482344960	75	4713
2026-01-05 11:23:59.38	254.13	32.06	-54.7	-57.1	13.7	0.00e+00	0	27	0	484442112	75	4790
2026-01-05 11:24:00.36	254.48	32.11	-54.7	-57.1	13.7	0.00e+00	0	27	0	485490688	75	4814
2026-01-05 11:24:01.35	254.83	32.15	-54.6	-56.9	13.8	0.00e+00	0	27	0	487587840	75	4674
2026-01-05 11:24:02.34	255.19	32.20	-54.4	-56.7	13.9	0.00e+00	0	27	0	489684992	75	4584
2026-01-05 11:24:03.33	255.54	32.24	-54.4	-56.7	13.9	0.00e+00	0	27	0	491782144	75	4572
2026-01-05 11:24:04.33	255.90	32.28	-54.4	-56.7	13.9	0.00e+00	0	27	0	493879296	75	4586
2026-01-05 11:24:05.33	256.26	32.33	-54.6	-56.9	13.8	0.00e+00	0	27	0	494927872	75	4694
2026-01-05 11:24:06.32	256.62	32.37	-54.6	-57.0	13.8	0.00e+00	0	27	0	497025024	75	4723
2026-01-05 11:24:07.32	256.98	32.41	-54.8	-57.2	13.6	0.00e+00	0	27	0	499122176	75	4840
2026-01-05 11:24:08.31	257.34	32.44	-54.9	-57.3	13.6	0.00e+00	0	27	0	501219328	75	4909
2026-01-05 11:24:09.30	257.70	32.48	-54.8	-57.2	13.7	0.00e+00	0	27	0	502267904	75	4817
2026-01-05 11:24:10.30	258.07	32.51	-54.8	-57.2	13.7	0.00e+00	0	27	0	504365056	75	4825
2026-01-05 11:24:11.29	258.43	32.55	-54.6	-57.0	13.8	0.00e+00	0	27	0	506462208	75	4714
2026-01-05 11:24:12.28	258.79	32.58	-54.4	-56.6	14.0	0.00e+00	0	27	0	508559360	75	4541
2026-01-05 11:24:13.27	259.15	32.61	-54.3	-56.5	14.0	0.00e+00	0	27	0	510656512	75	4475
2026-01-05 11:24:14.27	259.52	32.64	-54.2	-56.4	14.0	0.00e+00	0	27	0	511705088	74	4660
2026-01-05 11:24:15.26	259.89	32.67	-54.2	-56.4	14.0	0.00e+00	0	27	0	513802240	74	4696
2026-01-05 11:24:16.25	260.25	32.70	-54.4	-56.6	13.9	0.00e+00	0	27	0	515899392	74	4789
2026-01-05 11:24:17.24	260.62	32.73	-54.4	-56.6	13.9	0.00e+00	0	27	0	517996544	74	4791
2026-01-05 11:24:18.23	260.98	32.75	-54.5	-56.8	13.7	0.00e+00	0	27	0	519045120	74	4920
2026-01-05 11:24:19.23	261.35	32.78	-54.6	-57.0	13.7	0.00e+00	0	27	0	521142272	74	5024
2026-01-05 11:24:20.21	261.72	32.80	-54.6	-57.0	13.7	0.00e+00	0	27	0	523239424	74	4989
2026-01-05 11:24:21.21	262.09	32.82	-54.7	-57.0	13.6	0.00e+00	0	27	0	525336576	74	5027
2026-01-05 11:24:22.20	262.46	32.84	-54.6	-56.9	13.7	0.00e+00	0	27	0	527433728	74	4972
2026-01-05 11:24:23.19	262.82	32.86	-54.5	-56.8	13.7	0.00e+00	0	27	0	528482304	74	4921
2026-01-05 11:24:24.18	263.19	32.88	-54.8	-57.2	13.6	0.00e+00	0	27	0	530579456	74	5140
2026-01-05 11:24:25.18	263.57	32.89	-55.0	-57.5	13.5	0.00e+00	0	27	0	532676608	75	4998
2026-01-05 11:24:26.17	263.94	32.91	-55.1	-57.7	13.4	0.00e+00	0	27	0	534773760	75	5126
2026-01-05 11:24:27.16	264.31	32.92	-55.1	-57.6	13.4	0.00e+00	0	27	0	535822336	75	5095
2026-01-05 11:24:28.14	264.67	32.93	-55.0	-57.6	13.5	0.00e+00	0	27	0	537919488	75	5043
2026-01-05 11:24:29.13	265.04	32.95	-55.0	-57.5	13.5	0.00e+00	0	27	0	540016640	75	5027
2026-01-05 11:24:30.12	265.41	32.96	-54.9	-57.3	13.6	0.00e+00	0	27	0	542113792	75	4899
2026-01-05 11:24:31.12	265.79	32.96	-54.6	-56.9	13.8	0.00e+00	0	27	0	543162368	75	4690
2026-01-05 11:24:32.12	266.16	32.97	-54.3	-56.5	14.1	0.00e+00	0	27	0	545259520	75	4451
2026-01-05 11:24:33.11	266.54	32.98	-54.4	-56.6	14.0	0.00e+00	0	27	0	547356672	75	4532
2026-01-05 11:24:34.11	266.91	32.98	-54.3	-56.5	14.0	0.00e+00	0	27	0	549453824	75	4480
2026-01-05 11:24:35.10	267.28	32.99	-54.5	-56.7	13.9	0.00e+00	0	27	0	551550976	75	4575
2026-01-05 11:24:36.10	267.66	32.99	-54.5	-56.9	13.9	0.00e+00	0	27	0	552599552	75	4652
2026-01-05 11:24:37.09	268.03	32.99	-54.5	-56.8	13.9	0.00e+00	0	27	0	554696704	75	4647
2026-01-05 11:24:38.08	268.40	32.99	-54.4	-56.6	14.0	0.00e+00	0	27	0	556793856	75	4537
2026-01-05 11:24:39.07	268.77	32.99	-54.4	-56.6	14.0	0.00e+00	0	27	0	558891008	75	4514
2026-01-05 11:24:40.07	269.15	32.98	-54.2	-56.4	14.1	0.00e+00	0	27	0	559939584	75	4420
2026-01-05 11:24:41.07	269.52	32.98	-54.2	-56.4	14.1	0.00e+00	0	27	0	562036736	75	4406
2026-01-05 11:24:42.06	269.89	32.97	-54.1	-56.3	14.1	0.00e+00	0	27	0	564133888	74	4601
2026-01-05 11:24:43.05	270.27	32.96	-54.3	-56.4	14.0	0.00e+00	0	27	0	566231040	74	4695
2026-01-05 11:24:44.05	270.64	32.96	-54.7	-57.1	13.7	0.00e+00	0	27	0	568328192	74	5044
2026-01-05 11:24:45.04	271.01	32.95	-55.0	-57.4	13.6	0.00e+00	0	27	0	569376768	75	4964
2026-01-05 11:24:46.03	271.38	32.93	-55.0	-57.5	13.5	0.00e+00	0	27	0	571473920	75	4989
2026-01-05 11:24:47.02	271.75	32.92	-54.7	-57.1	13.7	0.00e+00	0	27	0	573571072	75	4787
2026-01-05 11:24:48.01	272.12	32.91	-54.5	-56.8	13.9	0.00e+00	0	27	0	575668224	75	4624
2026-01-05 11:24:49.00	272.49	32.89	-54.5	-56.8	13.9	0.00e+00	0	27	0	576716800	75	4611
2026-01-05 11:24:49.99	272.86	32.88	-54.3	-56.4	14.1	0.00e+00	0	27	0	578813952	75	4438
2026-01-05 11:24:50.99	273.23	32.86	-53.9	-56.0	14.2	0.00e+00	0	27	0	580911104	74	4476
2026-01-05 11:24:51.98	273.60	32.84	-53.7	-55.7	14.3	0.00e+00	0	27	0	583008256	73	4546
2026-01-05 11:24:52.98	273.97	32.82	-53.7	-55.7	14.2	0.00e+00	0	27	0	585105408	73	4568
2026-01-05 11:24:53.98	274.34	32.80	-54.0	-56.1	14.1	0.00e+00	0	27	0	586153984	73	4796
2026-01-05 11:24:54.97	274.71	32.78	-54.3	-56.6	13.8	0.00e+00	0	27	0	588251136	73	5053
2026-01-05 11:24:55.97	275.08	32.75	-54.7	-57.1	13.6	0.00e+00	0	27	0	590348288	74	5085
2026-01-05 11:24:56.97	275.45	32.73	-54.9	-57.3	13.6	0.00e+00	0	27	0	592445440	74	5191
2026-01-05 11:24:57.96	275.82	32.70	-54.9	-57.4	13.6	0.00e+00	0	27	0	593494016	75	4973
2026-01-05 11:24:58.95	276.18	32.67	-55.0	-57.5	13.5	0.00e+00	0	27	0	595591168	75	5013
2026-01-05 11:24:59.94	276.54	32.64	-55.2	-57.8	13.4	0.00e+00	0	27	0	597688320	75	5183
2026-01-05 11:25:00.93	276.91	32.61	-55.1	-57.7	13.5	0.00e+00	0	27	0	599785472	75	5117
2026-01-05 11:25:01.93	277.27	32.58	-55.0	-57.5	13.5	0.00e+00	0	27	0	601882624	75	5027
2026-01-05 11:25:02.92	277.64	32.55	-54.9	-57.4	13.6	0.00e+00	0	27	0	602931200	75	4952
2026-01-05 11:25:03.91	278.00	32.51	-55.0	-57.5	13.5	0.00e+00	0	27	0	605028352	75	5025
2026-01-05 11:25:04.91	278.36	32.48	-55.1	-57.7	13.4	0.00e+00	0	27	0	607125504	75	5125
2026-01-05 11:25:05.90	278.72	32.44	-55.2	-57.8	13.4	0.00e+00	0	27	0	609222656	75	5174
2026-01-05 11:25:06.90	279.08	32.40	-55.2	-57.8	13.3	0.00e+00	0	27	0	610271232	75	5199
2026-01-05 11:25:07.89	279.44	32.37	-55.2	-57.8	13.4	0.00e+00	0	27	0	612368384	75	5164
2026-01-05 11:25:08.88	279.80	32.33	-55.3	-57.9	13.4	0.00e+00	0	27	0	614465536	75	5250
2026-01-05 11:25:09.89	280.16	32.28	-55.4	-58.0	13.2	0.00e+00	0	27	0	616562688	75	5327
2026-01-05 11:25:10.88	280.52	32.24	-55.4	-58.1	13.3	0.00e+00	0	27	0	618659840	76	5053
2026-01-05 11:25:11.87	280.87	32.20	-55.5	-58.1	13.3	0.00e+00	0	27	0	619708416	76	5096
2026-01-05 11:25:12.87	281.23	32.15	-55.7	-58.5	13.1	0.00e+00	0	27	0	621805568	76	5286
2026-01-05 11:25:13.87	281.59	32.11	-55.6	-58.4	13.2	0.00e+00	0	27	0	623902720	76	5270
2026-01-05 11:25:14.86	281.94	32.06	-55.8	-58.6	13.1	0.00e+00	0	27	0	625999872	76	5391
2026-01-05 11:25:15.85	282.29	32.01	-55.8	-58.7	13.0	0.00e+00	0	27	0	627048448	76	5457
2026-01-05 11:25:16.85	282.64	31.97	-55.9	-58.8	13.0	0.00e+00	0	27	0	629145600	77	5211
2026-01-05 11:25:17.84	282.99	31.92	-55.9	-58.7	13.1	0.00e+00	0	27	0	631242752	77	5158
2026-01-05 11:25:18.83	283.34	31.86	-55.8	-58.6	13.1	0.00e+00	0	27	0	633339904	77	5100
2026-01-05 11:25:19.83	283.69	31.81	-55.8	-58.6	13.1	0.00e+00	0	27	0	635437056	77	5058
2026-01-05 11:25:20.82	284.03	31.76	-55.4	-58.0	13.5	0.00e+00	0	27	0	636485632	77	4718
2026-01-05 11:25:21.81	284.38	31.71	-55.1	-57.6	13.6	0.00e+00	0	27	0	638582784	76	4779
2026-01-05 11:25:22.80	284.72	31.65	-54.9	-57.3	13.8	0.00e+00	0	27	0	640679936	76	4608
2026-01-05 11:25:23.80	285.06	31.59	-54.5	-56.7	14.0	0.00e+00	0	27	0	642777088	75	4561
2026-01-05 11:25:24.79	285.40	31.54	-54.2	-56.3	14.1	0.00e+00	0	27	0	643825664	75	4386
2026-01-05 11:25:25.78	285.74	31.48	-54.1	-56.2	14.1	0.00e+00	0	27	0	645922816	74	4575
2026-01-05 11:25:26.78	286.09	31.42	-54.2	-56.3	14.0	0.00e+00	0	27	0	648019968	74	4640
2026-01-05 11:25:27.78	286.43	31.36	-54.4	-56.6	13.9	0.00e+00	0	27	0	650117120	74	4764
2026-01-05 11:25:28.78	286.76	31.30	-54.5	-56.8	13.8	0.00e+00	0	27	0	652214272	74	4905
2026-01-05 11:25:29.77	287.10	31.24	-54.6	-56.9	13.7	0.00e+00	0	27	0	653262848	74	4965
2026-01-05 11:25:30.77	287.44	31.17	-54.8	-57.1	13.6	0.00e+00	0	27	0	655360000	74	5090
2026-01-05 11:25:31.76	287.77	31.11	-54.6	-57.0	13.7	0.00e+00	0	27	0	657457152	74	5002
2026-01-05 11:25:32.76	288.10	31.04	-54.7	-57.0	13.7	0.00e+00	0	27	0	659554304	74	5011
2026-01-05 11:25:33.75	288.43	30.98	-54.7	-57.1	13.6	0.00e+00	0	27	0	660602880	74	5086
2026-01-05 11:25:34.75	288.76	30.91	-54.6	-56.9	13.8	0.00e+00	0	27	0	662700032	74	4951
2026-01-05 11:25:35.74	289.09	30.84	-54.5	-56.8	13.8	0.00e+00	0	27	0	664797184	74	4916
2026-01-05 11:25:36.74	289.42	30.78	-54.4	-56.7	13.9	0.00e+00	0	27	0	666894336	74	4824
2026-01-05 11:25:37.74	289.74	30.71	-54.4	-56.6	13.9	0.00e+00	0	27	0	668991488	74	4768
2026-01-05 11:25:38.73	290.07	30.64	-54.3	-56.4	14.0	0.00e+00	0	27	0	670040064	74	4705
2026-01-05 11:25:39.73	290.39	30.57	-54.3	-56.4	14.0	0.00e+00	0	27	0	672137216	74	4705
2026-01-05 11:25:40.73	290.71	30.49	-54.1	-56.2	14.1	0.00e+00	0	27	0	674234368	74	4583
2026-01-05 11:25:41.72	291.03	30.42	-54.1	-56.2	14.1	0.00e+00	0	27	0	676331520	74	4573
2026-01-05 11:25:42.71	291.35	30.35	-54.2	-56.4	14.0	0.00e+00	0	27	0	677380096	74	4683
2026-01-05 11:25:43.71	291.67	30.28	-54.6	-56.9	13.8	0.00e+00	0	27	0	679477248	74	4938
2026-01-05 11:25:44.70	291.98	30.20	-55.0	-57.4	13.6	0.00e+00	0	27	0	681574400	75	4981
2026-01-05 11:25:45.68	292.29	30.13	-55.2	-57.7	13.4	0.00e+00	0	27	0	683671552	75	5155
2026-01-05 11:25:46.68	292.60	30.05	-55.4	-58.1	13.2	0.00e+00	0	27	0	685768704	75	5377
2026-01-05 11:25:47.67	292.91	29.97	-55.3	-58.0	13.2	0.00e+00	0	27	0	686817280	75	5304
2026-01-05 11:25:48.66	293.22	29.90	-55.0	-57.5	13.6	0.00e+00	0	27	0	688914432	75	4995
2026-01-05 11:25:49.66	293.53	29.82	-54.7	-57.0	13.8	0.00e+00	0	27	0	691011584	75	4746
2026-01-05 11:25:50.64	293.84	29.74	-54.5	-56.8	13.9	0.00e+00	0	27	0	693108736	75	4637
2026-01-05 11:25:51.63	294.14	29.66	-54.6	-56.9	13.9	0.00e+00	0	27	0	694157312	75	4684
2026-01-05 11:25:52.63	294.44	29.58	-54.4	-56.5	14.1	0.00e+00	0	27	0	696254464	75	4491
2026-01-05 11:25:53.62	294.75	29.50	-54.3	-56.5	14.1	0.00e+00	0	27	0	698351616	75	4455
2026-01-05 11:25:54.62	295.05	29.42	-54.4	-56.5	14.0	0.00e+00	0	27	0	700448768	75	4482
2026-01-05 11:25:55.61	295.35	29.34	-54.5	-56.8	13.9	0.00e+00	0	27	0	702545920	75	4611
2026-01-05 11:25:56.60	295.64	29.26	-54.6	-57.0	13.8	0.00e+00	0	27	0	703594496	75	4718
2026-01-05 11:25:57.60	295.94	29.17	-54.8	-57.2	13.7	0.00e+00	0	27	0	705691648	75	4819
2026-01-05 11:25:58.60	296.24	29.09	-54.9	-57.3	13.6	0.00e+00	0	27	0	707788800	75	4926
2026-01-05 11:25:59.59	296.53	29.01	-54.9	-57.3	13.7	0.00e+00	0	27	0	709885952	75	4917
2026-01-05 11:26:00.57	296.82	28.92	-54.9	-57.4	13.6	0.00e+00	0	27	0	710934528	75	4948
2026-01-05 11:26:01.58	297.11	28.84	-55.0	-57.5	13.5	0.00e+00	0	27	0	713031680	75	5028
2026-01-05 11:26:02.56	297.40	28.75	-55.1	-57.7	13.4	0.00e+00	0	27	0	715128832	75	5119
2026-01-05 11:26:03.55	297.68	28.66	-55.1	-57.6	13.5	0.00e+00	0	27	0	717225984	75	5092
2026-01-05 11:26:04.55	297.97	28.58	-54.9	-57.4	13.6	0.00e+00	0	27	0	719323136	75	4960
2026-01-05 11:26:05.54	298.25	28.49	-54.9	-57.3	13.7	0.00e+00	0	27	0	720371712	75	4886
2026-01-05 11:26:06.53	298.53	28.40	-54.7	-57.1	13.8	0.00e+00	0	27	0	722468864	75	4788
2026-01-05 11:26:07.52	298.81	28.32	-54.5	-56.8	13.9	0.00e+00	0	27	0	724566016	75	4629
2026-01-05 11:26:08.51	299.09	28.23	-54.3	-56.5	14.1	0.00e+00	0	27	0	726663168	75	4486
2026-01-05 11:26:09.50	299.37	28.14	-54.0	-56.0	14.2	0.00e+00	0	27	0	727711744	74	4486
2026-01-05 11:26:10.49	299.64	28.05	-53.8	-55.8	14.3	0.00e+00	0	27	0	729808896	74	4375
2026-01-05 11:26:11.48	299.92	27.96	-53.6	-55.6	14.2	0.00e+00	0	27	0	731906048	73	4501
2026-01-05 11:26:12.47	300.19	27.87	-53.3	-55.2	14.5	0.00e+00	0	27	0	734003200	73	4299
2026-01-05 11:26:13.47	300.46	27.78	-53.2	-55.0	14.5	0.00e+00	0	27	0	735051776	72	4464
2026-01-05 11:26:14.46	300.73	27.69	-53.2	-55.1	14.4	0.00e+00	0	27	0	737148928	72	4505
2026-01-05 11:26:15.46	301.00	27.60	-53.2	-55.1	14.4	0.00e+00	0	27	0	739246080	72	4497
2026-01-05 11:26:16.45	301.27	27.51	-53.4	-55.3	14.3	0.00e+00	0	27	0	741343232	72	4615
2026-01-05 11:26:17.44	301.53	27.42	-53.6	-55.6	14.2	0.00e+00	0	27	0	743440384	72	4761
2026-01-05 11:26:18.43	301.80	27.32	-53.8	-55.8	14.1	0.00e+00	0	27	0	744488960	72	4917
2026-01-05 11:26:19.43	302.06	27.23	-53.9	-56.0	14.1	0.00e+00	0	27	0	746586112	73	4747
2026-01-05 11:26:20.42	302.32	27.14	-54.2	-56.4	13.9	0.00e+00	0	27	0	748683264	73	4951
2026-01-05 11:26:21.41	302.58	27.05	-54.4	-56.6	13.8	0.00e+00	0	27	0	750780416	73	5079
2026-01-05 11:26:22.40	302.84	26.95	-54.5	-56.8	13.8	0.00e+00	0	27	0	751828992	74	4906
2026-01-05 11:26:23.39	303.09	26.86	-54.4	-56.7	13.8	0.00e+00	0	27	0	753926144	74	4826
2026-01-05 11:26:24.39	303.35	26.76	-54.1	-56.2	14.1	0.00e+00	0	27	0	756023296	74	4559
2026-01-05 11:26:25.38	303.60	26.67	-53.5	-55.4	14.4	0.00e+00	0	27	0	758120448	73	4412
2026-01-05 11:26:26.37	303.86	26.58	-52.9	-54.7	14.6	0.00e+00	0	27	0	760217600	72	4307
2026-01-05 11:26:27.37	304.11	26.48	-52.9	-54.7	14.5	0.00e+00	0	27	0	761266176	72	4315
2026-01-05 11:26:28.36	304.36	26.39	-53.0	-54.8	14.5	0.00e+00	0	27	0	763363328	72	4388
2026-01-05 11:26:29.35	304.60	26.29	-53.3	-55.1	14.4	0.00e+00	0	27	0	765460480	72	4544
2026-01-05 11:26:30.35	304.85	26.20	-53.5	-55.4	14.2	0.00e+00	0	27	0	767557632	72	4682
2026-01-05 11:26:31.34	305.10	26.10	-53.4	-55.4	14.2	0.00e+00	0	27	0	768606208	72	4660
2026-01-05 11:26:32.33	305.34	26.00	-53.1	-55.0	14.4	0.00e+00	0	27	0	770703360	72	4468
2026-01-05 11:26:33.33	305.58	25.91	-53.0	-54.8	14.5	0.00e+00	0	27	0	772800512	72	4378
2026-01-05 11:26:34.31	305.82	25.81	-53.0	-54.8	14.5	0.00e+00	0	27	0	774897664	72	4352
2026-01-05 11:26:35.31	306.06	25.72	-53.0	-54.8	14.5	0.00e+00	0	27	0	776994816	72	4382
2026-01-05 11:26:36.30	306.30	25.62	-53.6	-55.6	14.2	0.00e+00	0	27	0	778043392	72	4772
2026-01-05 11:26:37.29	306.53	25.52	-54.4	-56.6	13.8	0.00e+00	0	27	0	780140544	73	5097
2026-01-05 11:26:38.28	306.77	25.43	-55.0	-57.5	13.5	0.00e+00	0	27	0	782237696	75	5012
2026-01-05 11:26:39.27	307.00	25.33	-55.2	-57.9	13.3	0.00e+00	0	27	0	784334848	75	5229
2026-01-05 11:26:40.27	307.24	25.23	-55.1	-57.7	13.4	0.00e+00	0	27	0	785383424	75	5140
2026-01-05 11:26:41.26	307.47	25.14	-54.4	-56.6	14.0	0.00e+00	0	27	0	787480576	75	4520
2026-01-05 11:26:42.25	307.69	25.04	-53.8	-55.8	14.3	0.00e+00	0	27	0	789577728	74	4354
2026-01-05 11:26:43.24	307.92	24.94	-53.4	-55.3	14.4	0.00e+00	0	27	0	791674880	73	4341
2026-01-05 11:26:44.23	308.15	24.84	-53.4	-55.3	14.4	0.00e+00	0	27	0	792723456	73	4357
2026-01-05 11:26:45.22	308.37	24.75	-53.6	-55.6	14.2	0.00e+00	0	27	0	794820608	73	4534
2026-01-05 11:26:46.21	308.60	24.65	-54.0	-56.2	14.0	0.00e+00	0	27	0	796917760	73	4836
2026-01-05 11:26:47.20	308.82	24.55	-54.0	-56.2	14.0	0.00e+00	0	27	0	799014912	73	4816
2026-01-05 11:26:48.19	309.04	24.46	-53.5	-55.5	14.2	0.00e+00	0	27	0	801112064	73	4476
2026-01-05 11:26:49.19	309.26	24.36	-53.2	-55.1	14.5	0.00e+00	0	27	0	802160640	73	4252
2026-01-05 11:26:50.18	309.48	24.26	-52.5	-54.2	14.6	0.00e+00	0	27	0	804257792	71	4308
2026-01-05 11:26:51.17	309.69	24.16	-52.4	-54.1	14.7	0.00e+00	0	27	0	806354944	71	4270
2026-01-05 11:26:52.16	309.91	24.06	-52.4	-54.1	14.7	0.00e+00	0	27	0	808452096	71	4284
2026-01-05 11:26:53.15	310.12	23.97	-52.9	-54.7	14.5	0.00e+00	0	27	0	809500672	71	4551
2026-01-05 11:26:54.14	310.34	23.87	-53.4	-55.3	14.2	0.00e+00	0	27	0	811597824	71	4916
2026-01-05 11:26:55.12	310.55	23.77	-53.6	-55.6	14.2	0.00e+00	0	27	0	813694976	72	4800
2026-01-05 11:26:56.12	310.76	23.67	-53.5	-55.5	14.2	0.00e+00	0	27	0	815792128	72	4735
2026-01-05 11:26:57.11	310.97	23.57	-53.3	-55.2	14.3	0.00e+00	0	27	0	817889280	72	4548
2026-01-05 11:26:58.11	311.18	23.48	-53.1	-55.0	14.4	0.00e+00	0	27	0	818937856	72	4460
2026-01-05 11:26:59.10	311.38	23.38	-53.0	-54.8	14.5	0.00e+00	0	27	0	821035008	72	4380
2026-01-05 11:27:00.09	311.59	23.28	-52.7	-54.5	14.6	0.00e+00	0	27	0	823132160	72	4209
2026-01-05 11:27:01.07	311.79	23.18	-53.0	-54.8	14.5	0.00e+00	0	27	0	825229312	72	4388
2026-01-05 11:27:02.07	311.99	23.08	-53.4	-55.4	14.2	0.00e+00	0	27	0	826277888	72	4673
2026-01-05 11:27:03.06	312.19	22.99	-53.8	-55.9	14.0	0.00e+00	0	27	0	828375040	72	4943
2026-01-05 11:27:04.07	312.40	22.89	-53.8	-55.9	14.0	0.00e+00	0	27	0	830472192	72	4960
2026-01-05 11:27:05.06	312.60	22.79	-53.5	-55.5	14.2	0.00e+00	0	27	0	832569344	72	4708
2026-01-05 11:27:06.06	312.80	22.69	-53.2	-55.1	14.3	0.00e+00	0	27	0	834666496	72	4500
2026-01-05 11:27:07.05	312.99	22.59	-53.0	-54.8	14.5	0.00e+00	0	27	0	835715072	72	4380
2026-01-05 11:27:08.05	313.19	22.49	-52.9	-54.7	14.6	0.00e+00	0	27	0	837812224	72	4293
2026-01-05 11:27:09.05	313.39	22.39	-52.5	-54.2	14.6	0.00e+00	0	27	0	839909376	71	4295
2026-01-05 11:27:10.04	313.58	22.30	-52.4	-54.1	14.6	0.00e+00	0	27	0	842006528	71	4270
2026-01-05 11:27:11.03	313.77	22.20	-52.5	-54.3	14.6	0.00e+00	0	27	0	843055104	71	4343
2026-01-05 11:27:12.02	313.96	22.10	-52.6	-54.4	14.5	0.00e+00	0	27	0	845152256	71	4425
2026-01-05 11:27:13.01	314.15	22.00	-52.7	-54.4	14.5	0.00e+00	0	27	0	847249408	71	4431
2026-01-05 11:27:14.00	314.34	21.91	-52.5	-54.2	14.6	0.00e+00	0	27	0	849346560	71	4309
2026-01-05 11:27:14.98	314.52	21.81	-52.4	-54.1	14.7	0.00e+00	0	27	0	850395136	71	4249
2026-01-05 11:27:15.98	314.71	21.71	-52.1	-53.8	14.7	0.00e+00	0	27	0	852492288	70	4363
2026-01-05 11:27:16.97	314.90	21.62	-52.1	-53.7	14.7	0.00e+00	0	27	0	854589440	70	4317
2026-01-05 11:27:17.96	315.08	21.52	-52.1	-53.8	14.7	0.00e+00	0	27	0	856686592	70	4342
2026-01-05 11:27:18.96	315.26	21.42	-52.4	-54.1	14.6	0.00e+00	0	27	0	858783744	70	4496
2026-01-05 11:27:19.95	315.45	21.32	-52.5	-54.3	14.5	0.00e+00	0	27	0	859832320	70	4610
2026-01-05 11:27:20.95	315.63	21.23	-52.6	-54.4	14.4	0.00e+00	0	27	0	861929472	70	4688
2026-01-05 11:27:21.94	315.81	21.13	-52.7	-54.5	14.4	0.00e+00	0	27	0	864026624	70	4729
2026-01-05 11:27:22.94	315.99	21.03	-52.6	-54.3	14.5	0.00e+00	0	27	0	866123776	70	4651
2026-01-05 11:27:23.93	316.16	20.94	-52.4	-54.1	14.5	0.00e+00	0	27	0	867172352	70	4528
2026-01-05 11:27:24.93	316.34	20.84	-52.3	-54.0	14.6	0.00e+00	0	27	0	869269504	70	4454
2026-01-05 11:27:25.91	316.51	20.74	-52.4	-54.1	14.6	0.00e+00	0	27	0	871366656	70	4513
2026-01-05 11:27:26.91	316.69	20.65	-52.1	-53.7	14.7	0.00e+00	0	27	0	873463808	70	4337
2026-01-05 11:27:27.90	316.86	20.55	-51.8	-53.4	14.8	0.00e+00	0	27	0	875560960	70	4160
2026-01-05 11:27:28.89	317.03	20.45	-51.9	-53.5	14.8	0.00e+00	0	27	0	876609536	70	4241
2026-01-05 11:27:29.87	317.20	20.36	-51.8	-53.3	14.8	0.00e+00	0	27	0	878706688	70	4145
2026-01-05 11:27:30.86	317.37	20.26	-51.7	-53.2	14.9	0.00e+00	0	27	0	880803840	70	4093
2026-01-05 11:27:31.85	317.54	20.17	-51.7	-53.3	14.7	0.00e+00	0	27	0	882900992	69	4376
2026-01-05 11:27:32.84	317.71	20.07	-51.6	-53.2	14.8	0.00e+00	0	27	0	883949568	69	4296
2026-01-05 11:27:33.83	317.87	19.98	-51.6	-53.1	14.8	0.00e+00	0	27	0	886046720	69	4273
2026-01-05 11:27:34.82	318.04	19.88	-51.6	-53.1	14.8	0.00e+00	0	27	0	888143872	69	4287
2026-01-05 11:27:35.82	318.21	19.79	-51.5	-53.0	14.9	0.00e+00	0	27	0	890241024	69	4228
2026-01-05 11:27:36.81	318.37	19.69	-51.4	-53.0	14.9	0.00e+00	0	27	0	892338176	69	4195
2026-01-05 11:27:37.80	318.53	19.60	-51.5	-53.1	14.8	0.00e+00	0	27	0	893386752	69	4251
2026-01-05 11:27:38.79	318.69	19.50	-51.5	-53.0	14.8	0.00e+00	0	27	0	895483904	69	4236
2026-01-05 11:27:39.79	318.86	19.41	-51.4	-52.9	14.9	0.00e+00	0	27	0	897581056	69	4193
2026-01-05 11:27:40.79	319.02	19.31	-51.6	-53.1	14.8	0.00e+00	0	27	0	899678208	69	4278
2026-01-05 11:27:41.78	319.18	19.22	-51.7	-53.3	14.8	0.00e+00	0	27	0	900726784	69	4355
2026-01-05 11:27:42.78	319.34	19.12	-51.8	-53.4	14.7	0.00e+00	0	27	0	902823936	69	4412
2026-01-05 11:27:43.77	319.49	19.03	-51.9	-53.5	14.6	0.00e+00	0	27	0	904921088	69	4486
2026-01-05 11:27:44.75	319.65	18.94	-51.9	-53.5	14.7	0.00e+00	0	27	0	907018240	69	4475
2026-01-05 11:27:45.75	319.80	18.84	-52.0	-53.6	14.6	0.00e+00	0	27	0	909115392	69	4529
2026-01-05 11:27:46.74	319.96	18.75	-52.0	-53.6	14.6	0.00e+00	0	27	0	910163968	69	4541
2026-01-05 11:27:47.73	320.11	18.65	-52.0	-53.7	14.6	0.00e+00	0	27	0	912261120	69	4555
2026-01-05 11:27:48.72	320.26	18.56	-52.0	-53.7	14.6	0.00e+00	0	27	0	914358272	69	4562
2026-01-05 11:27:49.71	320.41	18.47	-51.8	-53.4	14.7	0.00e+00	0	27	0	916455424	69	4415
2026-01-05 11:27:50.70	320.56	18.38	-51.6	-53.2	14.8	0.00e+00	0	27	0	917504000	69	4309
2026-01-05 11:27:51.70	320.72	18.28	-51.6	-53.2	14.8	0.00e+00	0	27	0	919601152	69	4311
2026-01-05 11:27:52.68	320.86	18.19	-51.7	-53.2	14.7	0.00e+00	0	27	0	921698304	69	4340
2026-01-05 11:27:53.67	321.01	18.10	-51.6	-53.2	14.8	0.00e+00	0	27	0	923795456	69	4323
2026-01-05 11:27:54.66	321.16	18.01	-51.6	-53.2	14.8	0.00e+00	0	27	0	924844032	69	4331
2026-01-05 11:27:55.65	321.30	17.91	-51.7	-53.3	14.7	0.00e+00	0	27	0	926941184	69	4345
2026-01-05 11:27:56.65	321.45	17.82	-51.8	-53.4	14.7	0.00e+00	0	27	0	929038336	69	4424
2026-01-05 11:27:57.64	321.59	17.73	-51.9	-53.6	14.6	0.00e+00	0	27	0	931135488	69	4503
2026-01-05 11:27:58.62	321.74	17.64	-52.0	-53.7	14.6	0.00e+00	0	27	0	932184064	69	4550
2026-01-05 11:27:59.62	321.88	17.55	-52.1	-53.8	14.5	0.00e+00	0	27	0	934281216	69	4602
2026-01-05 11:28:00.61	322.02	17.46	-52.2	-53.9	14.5	0.00e+00	0	27	0	936378368	69	4694
2026-01-05 11:28:01.61	322.16	17.36	-52.2	-53.9	14.5	0.00e+00	0	27	0	938475520	69	4670
2026-01-05 11:28:02.61	322.31	17.27	-52.1	-53.9	14.5	0.00e+00	0	27	0	940572672	69	4657
2026-01-05 11:28:03.60	322.45	17.18	-52.2	-53.9	14.5	0.00e+00	0	27	0	941621248	69	4687
2026-01-05 11:28:04.60	322.59	17.09	-52.1	-53.8	14.5	0.00e+00	0	27	0	943718400	69	4636
2026-01-05 11:28:05.59	322.72	17.00	-52.0	-53.7	14.6	0.00e+00	0	27	0	945815552	69	4575
2026-01-05 11:28:06.59	322.86	16.91	-52.1	-53.8	14.5	0.00e+00	0	27	0	947912704	69	4648
2026-01-05 11:28:07.58	323.00	16.82	-52.2	-53.9	14.5	0.00e+00	0	27	0	948961280	69	4693
2026-01-05 11:28:08.58	323.13	16.73	-52.3	-54.0	14.4	0.00e+00	0	27	0	951058432	69	4749
2026-01-05 11:28:09.57	323.27	16.64	-52.3	-54.1	14.4	0.00e+00	0	27	0	953155584	69	4791
2026-01-05 11:28:10.57	323.40	16.55	-52.4	-54.2	14.4	0.00e+00	0	27	0	955252736	69	4840
2026-01-05 11:28:11.56	323.54	16.46	-52.5	-54.4	14.4	0.00e+00	0	27	0	957349888	70	4652
2026-01-05 11:28:12.55	323.67	16.37	-52.4	-54.2	14.4	0.00e+00	0	27	0	958398464	70	4583
2026-01-05 11:28:13.55	323.80	16.28	-52.5	-54.3	14.4	0.00e+00	0	27	0	960495616	70	4613
2026-01-05 11:28:14.55	323.93	16.19	-52.5	-54.3	14.4	0.00e+00	0	27	0	962592768	70	4602
2026-01-05 11:28:15.55	324.07	16.10	-52.5	-54.3	14.4	0.00e+00	0	27	0	964689920	70	4638
2026-01-05 11:28:16.54	324.20	16.02	-52.6	-54.5	14.3	0.00e+00	0	27	0	966787072	70	4728
2026-01-05 11:28:17.54	324.33	15.93	-52.6	-54.4	14.4	0.00e+00	0	27	0	967835648	70	4689
2026-01-05 11:28:18.52	324.45	15.84	-52.6	-54.4	14.4	0.00e+00	0	27	0	969932800	70	4704
2026-01-05 11:28:19.51	324.58	15.75	-52.7	-54.6	14.3	0.00e+00	0	27	0	972029952	70	4773
2026-01-05 11:28:20.50	324.71	15.66	-52.8	-54.7	14.2	0.00e+00	0	27	0	974127104	70	4851
2026-01-05 11:28:21.50	324.83	15.58	-52.9	-54.8	14.2	0.00e+00	0	27	0	975175680	70	4886
2026-01-05 11:28:22.49	324.96	15.49	-53.0	-54.9	14.3	0.00e+00	0	27	0	977272832	71	4693
2026-01-05 11:28:23.48	325.08	15.40	-53.1	-55.0	14.2	0.00e+00	0	27	0	979369984	71	4752
2026-01-05 11:28:24.47	325.21	15.32	-53.2	-55.2	14.1	0.00e+00	0	27	0	981467136	71	4865
2026-01-05 11:28:25.47	325.33	15.23	-53.3	-55.4	14.0	0.00e+00	0	27	0	982515712	71	4969
2026-01-05 11:28:26.46	325.45	15.14	-53.2	-55.3	14.1	0.00e+00	0	27	0	984612864	71	4889
2026-01-05 11:28:27.46	325.57	15.06	-53.4	-55.5	14.0	0.00e+00	0	27	0	986710016	71	5005
2026-01-05 11:28:28.45	325.70	14.97	-53.4	-55.5	14.1	0.00e+00	0	27	0	988807168	72	4743
2026-01-05 11:28:29.44	325.82	14.88	-53.4	-55.5	14.1	0.00e+00	0	27	0	990904320	72	4711
2026-01-05 11:28:30.43	325.94	14.80	-53.6	-55.7	14.0	0.00e+00	0	27	0	991952896	72	4854
2026-01-05 11:28:31.43	326.06	14.71	-53.5	-55.6	14.0	0.00e+00	0	27	0	994050048	72	4806
2026-01-05 11:28:32.42	326.17	14.63	-53.5	-55.7	14.0	0.00e+00	0	27	0	996147200	72	4830
2026-01-05 11:28:33.42	326.29	14.54	-53.6	-55.7	14.0	0.00e+00	0	27	0	998244352	72	4853
2026-01-05 11:28:34.41	326.41	14.46	-53.3	-55.4	14.1	0.00e+00	0	27	0	999292928	72	4668
2026-01-05 11:28:35.40	326.53	14.37	-53.3	-55.4	14.1	0.00e+00	0	27	0	1001390080	72	4692
2026-01-05 11:28:36.40	326.64	14.29	-53.1	-55.1	14.2	0.00e+00	0	27	0	1003487232	72	4525
2026-01-05 11:28:37.39	326.76	14.20	-53.0	-55.0	14.3	0.00e+00	0	27	0	1005584384	72	4463
2026-01-05 11:28:38.38	326.87	14.12	-53.1	-55.1	14.2	0.00e+00	0	27	0	1007681536	72	4515
2026-01-05 11:28:39.37	326.99	14.04	-53.0	-55.0	14.3	0.00e+00	0	27	0	1008730112	72	4459
2026-01-05 11:28:40.36	327.10	13.95	-52.8	-54.7	14.4	0.00e+00	0	27	0	1010827264	72	4337
2026-01-05 11:28:41.35	327.21	13.87	-52.9	-54.8	14.4	0.00e+00	0	27	0	1012924416	72	4370
2026-01-05 11:28:42.35	327.33	13.78	-52.8	-54.7	14.4	0.00e+00	0	27	0	1015021568	72	4327
2026-01-05 11:28:43.34	327.44	13.70	-52.9	-54.8	14.4	0.00e+00	0	27	0	1017118720	72	4359
2026-01-05 11:28:44.33	327.55	13.62	-52.9	-54.9	14.3	0.00e+00	0	27	0	1018167296	72	4403
2026-01-05 11:28:45.32	327.66	13.54	-53.0	-55.0	14.3	0.00e+00	0	27	0	1020264448	72	4453
2026-01-05 11:28:46.31	327.77	13.45	-53.2	-55.3	14.1	0.00e+00	0	27	0	1022361600	72	4605
2026-01-05 11:28:47.29	327.88	13.37	-53.2	-55.3	14.1	0.00e+00	0	27	0	1024458752	72	4634
2026-01-05 11:28:48.29	327.98	13.29	-53.3	-55.4	14.1	0.00e+00	0	27	0	1025507328	72	4669
2026-01-05 11:28:49.28	328.09	13.21	-53.4	-55.5	14.0	0.00e+00	0	27	0	1027604480	72	4757
2026-01-05 11:28:50.27	328.20	13.13	-53.4	-55.5	14.0	0.00e+00	0	27	0	1029701632	72	4749
2026-01-05 11:28:51.26	328.31	13.04	-53.4	-55.5	14.0	0.00e+00	0	27	0	1031798784	72	4729
2026-01-05 11:28:52.26	328.41	12.96	-53.3	-55.4	14.1	0.00e+00	0	27	0	1032847360	72	4677
2026-01-05 11:28:53.25	328.52	12.88	-53.3	-55.4	14.1	0.00e+00	0	27	0	1034944512	72	4675
2026-01-05 11:28:54.24	328.62	12.80	-53.3	-55.4	14.1	0.00e+00	0	27	0	1037041664	72	4663
2026-01-05 11:28:55.23	328.73	12.72	-52.9	-54.9	14.3	0.00e+00	0	27	0	1039138816	72	4415
2026-01-05 11:28:56.23	328.83	12.64	-52.8	-54.8	14.4	0.00e+00	0	27	0	1040187392	71	4609
2026-01-05 11:28:57.22	328.94	12.56	-52.8	-54.8	14.2	0.00e+00	0	27	0	1042284544	71	4601
2026-01-05 11:28:58.21	329.04	12.48	-52.6	-54.5	14.4	0.00e+00	0	27	0	1044381696	71	4461
2026-01-05 11:28:59.20	329.14	12.40	-52.6	-54.4	14.4	0.00e+00	0	27	0	1046478848	71	4434
2026-01-05 11:29:00.18	329.24	12.32	-52.6	-54.5	14.4	0.00e+00	0	27	0	1048576000	71	4460
2026-01-05 11:29:01.15	329.34	12.24	-52.6	-54.4	14.4	0.00e+00	0	27	0	1049624576	71	4436
2026-01-05 11:29:02.14	329.44	12.16	-52.6	-54.5	14.4	0.00e+00	0	27	0	1051721728	71	4473
2026-01-05 11:29:03.13	329.54	12.08	-52.6	-54.5	14.3	0.00e+00	0	27	0	1053818880	71	4481
2026-01-05 11:29:04.13	329.64	12.00	-52.8	-54.7	14.2	0.00e+00	0	27	0	1055916032	71	4589
2026-01-05 11:29:05.12	329.74	11.92	-52.9	-54.9	14.2	0.00e+00	0	27	0	1056964608	71	4693
2026-01-05 11:29:06.10	329.84	11.84	-53.0	-55.1	14.1	0.00e+00	0	27	0	1059061760	71	4778
2026-01-05 11:29:07.10	329.94	11.76	-53.1	-55.1	14.1	0.00e+00	0	27	0	1061158912	71	4814
2026-01-05 11:29:08.10	330.04	11.69	-53.1	-55.2	14.0	0.00e+00	0	27	0	1063256064	71	4835
2026-01-05 11:29:09.09	330.14	11.61	-53.2	-55.3	14.0	0.00e+00	0	27	0	1065353216	71	4880
2026-01-05 11:29:10.09	330.23	11.53	-53.2	-55.3	14.0	0.00e+00	0	27	0	1066401792	71	4916
