passes_logs/2026/01/05/R3.2S_Murmansk/R3.2S_Murmansk__20260105_225922_SUOMI_NPP_rec.log

#Pass ID: 20260105_225922_SUOMI NPP
#Satellite: SUOMI NPP
#Configuration: NPP
#almurnet v.1.7.20251203
#Start time: 2026-01-05 22:59:24

#Version: 2.2.20231116
#Station: R3.2S_Murmansk
#Location: 33.079688 lon 68.888172 lat
#TLE: 1 37849U 11061A   26004.95404768  .00000136  00000+0  85334-4 0  9991
#TLE: 2 37849  98.7801 307.0898 0002575  80.6707 279.4760 14.19522289735281

#Time	Az	El	Level	Level2	SNR	BER	BlckErr	Temp	State	Recorded	gain1	gain2
2026-01-05 22:59:24.34	19.79	2.10	-58.2	-74.1	3.8	1.49e+00	0	24	0	0	82	22746
2026-01-05 22:59:25.34	19.85	2.16	-58.1	-74.0	3.8	1.49e+00	0	24	104	0	81	23802
2026-01-05 22:59:26.33	19.90	2.22	-58.1	-74.0	3.8	1.49e+00	0	24	104	0	81	23765
2026-01-05 22:59:27.33	19.95	2.28	-58.1	-74.0	3.8	1.49e+00	0	24	104	0	81	23665
2026-01-05 22:59:28.33	20.01	2.33	-58.1	-73.9	3.8	1.49e+00	0	24	104	0	81	23512
2026-01-05 22:59:29.33	20.06	2.39	-58.1	-73.9	3.8	1.49e+00	0	24	104	0	81	23386
2026-01-05 22:59:30.32	20.12	2.45	-58.1	-73.9	3.8	1.49e+00	0	25	104	0	81	23323
2026-01-05 22:59:31.32	20.17	2.51	-58.1	-73.8	3.8	1.49e+00	0	24	104	0	81	23118
2026-01-05 22:59:32.32	20.23	2.57	-58.1	-73.6	3.8	1.49e+00	0	25	104	0	81	22677
2026-01-05 22:59:33.32	20.28	2.63	-58.1	-73.5	3.8	1.49e+00	0	25	104	0	81	22328
2026-01-05 22:59:34.32	20.34	2.69	-58.1	-73.3	3.8	1.49e+00	0	25	104	0	81	21931
2026-01-05 22:59:35.32	20.40	2.75	-58.1	-73.2	3.8	1.49e+00	0	25	104	0	81	21597
2026-01-05 22:59:36.31	20.45	2.81	-58.1	-73.1	3.8	1.49e+00	0	25	104	0	81	21320
2026-01-05 22:59:37.31	20.51	2.87	-58.1	-73.0	3.8	1.49e+00	0	25	104	0	81	21242
2026-01-05 22:59:38.30	20.56	2.93	-58.1	-72.9	3.8	1.49e+00	0	25	104	0	81	20880
2026-01-05 22:59:39.30	20.62	2.99	-58.1	-73.0	3.8	1.49e+00	0	25	104	0	81	21025
2026-01-05 22:59:40.29	20.68	3.05	-58.1	-72.8	3.8	1.49e+00	0	25	104	0	81	20607
2026-01-05 22:59:41.29	20.73	3.11	-58.1	-72.9	3.8	1.49e+00	0	25	104	0	81	20839
2026-01-05 22:59:42.29	20.79	3.17	-58.1	-72.4	3.8	1.49e+00	0	25	104	0	81	19752
2026-01-05 22:59:43.28	20.85	3.23	-58.0	-72.2	3.9	1.49e+00	0	25	104	0	81	19249
2026-01-05 22:59:44.27	20.91	3.29	-58.0	-71.3	4.0	1.48e+00	0	25	0	0	81	17478
2026-01-05 22:59:45.26	20.96	3.35	-57.9	-70.4	4.2	1.41e+00	0	25	0	0	81	15758
2026-01-05 22:59:46.26	21.02	3.41	-57.9	-69.9	4.4	1.33e+00	82	25	0	0	81	14797
2026-01-05 22:59:47.25	21.08	3.48	-57.9	-69.4	4.6	1.01e+00	0	25	0	2097152	81	14019
2026-01-05 22:59:48.24	21.14	3.54	-57.8	-68.7	4.8	7.36e-01	0	25	0	4194304	81	12942
2026-01-05 22:59:49.23	21.20	3.60	-57.8	-68.6	4.9	8.10e-01	0	25	0	6291456	81	12731
2026-01-05 22:59:50.23	21.25	3.66	-57.8	-68.4	5.0	6.75e-01	0	25	0	7340032	81	12429
2026-01-05 22:59:51.22	21.31	3.72	-57.7	-68.2	5.1	6.46e-01	0	25	0	9437184	81	12113
2026-01-05 22:59:52.22	21.37	3.78	-57.7	-68.2	5.1	5.96e-01	0	25	0	11534336	81	12096
2026-01-05 22:59:53.21	21.43	3.84	-57.7	-67.6	5.4	5.33e-01	0	25	0	13631488	81	11385
2026-01-05 22:59:54.21	21.49	3.90	-57.6	-67.0	5.8	3.36e-01	0	25	0	14680064	81	10546
2026-01-05 22:59:55.21	21.55	3.97	-57.4	-65.8	6.6	1.90e-01	0	25	0	16777216	81	9276
2026-01-05 22:59:56.20	21.61	4.03	-57.2	-64.9	7.4	1.14e-01	0	25	0	18874368	81	8273
2026-01-05 22:59:57.20	21.67	4.09	-56.8	-63.4	8.7	4.39e-02	0	25	0	20971520	80	7418
2026-01-05 22:59:58.20	21.73	4.15	-56.5	-62.1	9.7	4.23e-03	0	25	0	23068672	79	6778
2026-01-05 22:59:59.20	21.80	4.22	-56.1	-61.3	10.5	1.00e-03	0	25	0	24117248	78	6495
2026-01-05 23:00:00.18	21.86	4.28	-55.5	-60.0	11.4	3.04e-04	0	25	0	26214400	77	5933
2026-01-05 23:00:01.18	21.92	4.34	-55.4	-59.6	11.7	2.97e-05	0	25	0	28311552	77	5684
2026-01-05 23:00:02.17	21.98	4.40	-55.1	-59.1	11.9	1.37e-05	0	25	0	30408704	76	5705
2026-01-05 23:00:03.16	22.04	4.47	-55.0	-58.9	12.1	7.00e-07	0	25	0	31457280	76	5551
2026-01-05 23:00:04.16	22.10	4.53	-55.0	-58.9	12.1	7.00e-07	0	25	0	33554432	76	5546
2026-01-05 23:00:05.16	22.17	4.59	-55.0	-58.8	12.2	7.00e-07	0	25	0	35651584	76	5500
2026-01-05 23:00:06.16	22.23	4.66	-55.3	-59.4	11.7	3.00e-06	0	25	0	37748736	76	5870
2026-01-05 23:00:07.14	22.29	4.72	-55.4	-59.7	11.5	1.29e-05	0	25	0	39845888	76	6067
2026-01-05 23:00:08.13	22.35	4.78	-55.7	-60.2	11.1	4.19e-05	0	25	0	40894464	76	6435
2026-01-05 23:00:09.13	22.42	4.85	-56.1	-61.3	10.3	5.54e-04	0	26	0	42991616	77	6898
2026-01-05 23:00:10.13	22.48	4.91	-56.5	-62.3	9.5	2.67e-03	0	25	0	45088768	78	7371
2026-01-05 23:00:11.12	22.55	4.97	-56.9	-63.6	8.5	1.20e-02	0	25	0	47185920	78	8465
2026-01-05 23:00:12.12	22.61	5.04	-57.1	-64.5	7.8	2.49e-02	0	26	0	48234496	79	8867
2026-01-05 23:00:13.11	22.67	5.10	-56.7	-62.4	9.5	5.63e-03	0	26	0	50331648	79	7029
2026-01-05 23:00:14.11	22.74	5.17	-57.5	-66.5	6.1	8.35e-02	0	26	0	52428800	80	10540
2026-01-05 23:00:15.11	22.80	5.23	-58.1	-70.2	4.3	9.41e-02	14	25	0	54525952	81	15334
2026-01-05 23:00:16.11	22.87	5.30	-55.3	-59.2	12.0	6.56e-05	0	26	0	55574528	77	5409
2026-01-05 23:00:17.11	22.94	5.36	-57.8	-68.7	4.8	3.09e-01	0	26	0	57671680	80	13578
2026-01-05 23:00:18.11	23.00	5.43	-55.1	-58.8	12.2	5.70e-02	0	25	0	59768832	76	5481
2026-01-05 23:00:19.10	23.07	5.49	-54.9	-58.5	12.4	7.00e-07	0	25	0	61865984	76	5307
2026-01-05 23:00:20.10	23.13	5.56	-54.9	-58.4	12.5	0.00e+00	0	25	0	62914560	76	5226
2026-01-05 23:00:21.10	23.20	5.62	-54.7	-58.1	12.6	0.00e+00	0	25	0	65011712	76	5093
2026-01-05 23:00:22.10	23.27	5.69	-54.6	-58.0	12.6	0.00e+00	0	26	0	67108864	75	5312
2026-01-05 23:00:23.09	23.34	5.75	-54.7	-58.1	12.6	0.00e+00	0	25	0	69206016	75	5357
2026-01-05 23:00:24.08	23.40	5.82	-54.6	-57.9	12.7	0.00e+00	0	25	0	71303168	75	5257
2026-01-05 23:00:25.07	23.47	5.88	-54.3	-57.5	13.0	0.00e+00	0	26	0	72351744	75	5033
2026-01-05 23:00:26.07	23.54	5.95	-54.2	-57.4	13.0	0.00e+00	0	26	0	74448896	75	4941
2026-01-05 23:00:27.06	23.61	6.01	-54.3	-57.5	12.9	0.00e+00	0	26	0	76546048	75	5032
2026-01-05 23:00:28.07	23.68	6.08	-54.3	-57.4	13.0	0.00e+00	0	26	0	78643200	75	4970
2026-01-05 23:00:29.06	23.74	6.15	-54.2	-57.4	12.9	7.00e-07	0	26	0	79691776	74	5219
2026-01-05 23:00:30.05	23.81	6.21	-54.1	-57.2	13.0	0.00e+00	0	26	0	81788928	74	5120
2026-01-05 23:00:31.06	23.88	6.28	-54.1	-57.1	13.1	0.00e+00	0	25	0	83886080	74	5050
2026-01-05 23:00:32.06	23.95	6.35	-54.2	-57.2	13.0	0.00e+00	0	26	0	85983232	74	5147
2026-01-05 23:00:33.05	24.02	6.41	-54.1	-57.2	13.0	0.00e+00	0	26	0	88080384	74	5127
2026-01-05 23:00:34.05	24.09	6.48	-54.1	-57.1	13.1	0.00e+00	0	26	0	89128960	74	5056
2026-01-05 23:00:35.04	24.17	6.55	-54.0	-57.0	13.2	0.00e+00	0	26	0	91226112	74	5032
2026-01-05 23:00:36.03	24.24	6.62	-53.9	-56.8	13.3	0.00e+00	0	26	0	93323264	74	4898
2026-01-05 23:00:37.03	24.31	6.68	-53.9	-56.8	13.3	0.00e+00	0	26	0	95420416	74	4923
2026-01-05 23:00:38.03	24.38	6.75	-54.0	-57.1	13.1	0.00e+00	0	26	0	96468992	74	5042
2026-01-05 23:00:39.03	24.45	6.82	-54.0	-57.0	13.2	0.00e+00	0	26	0	98566144	74	5041
2026-01-05 23:00:40.02	24.52	6.89	-54.0	-57.0	13.2	0.00e+00	0	26	0	100663296	74	4996
2026-01-05 23:00:41.01	24.60	6.95	-53.9	-56.8	13.3	0.00e+00	0	26	0	102760448	74	4888
2026-01-05 23:00:42.00	24.67	7.02	-53.8	-56.6	13.4	0.00e+00	0	26	0	104857600	74	4795
2026-01-05 23:00:43.00	24.74	7.09	-53.8	-56.6	13.4	0.00e+00	0	26	0	105906176	73	5078
2026-01-05 23:00:44.00	24.82	7.16	-53.9	-56.8	13.2	0.00e+00	0	26	0	108003328	73	5204
2026-01-05 23:00:44.99	24.89	7.23	-53.7	-56.6	13.3	0.00e+00	0	26	0	110100480	73	5059
2026-01-05 23:00:45.99	24.96	7.30	-53.7	-56.6	13.4	0.00e+00	0	26	0	112197632	73	5046
2026-01-05 23:00:46.98	25.04	7.36	-53.8	-56.6	13.4	0.00e+00	0	26	0	114294784	73	5058
2026-01-05 23:00:47.98	25.11	7.43	-53.5	-56.2	13.5	0.00e+00	0	26	0	115343360	73	4861
2026-01-05 23:00:48.97	25.19	7.50	-53.6	-56.4	13.4	0.00e+00	0	26	0	117440512	73	4949
2026-01-05 23:00:49.97	25.26	7.57	-53.4	-56.1	13.6	0.00e+00	0	26	0	119537664	73	4779
2026-01-05 23:00:50.96	25.34	7.64	-53.4	-56.0	13.7	0.00e+00	0	26	0	121634816	73	4739
2026-01-05 23:00:51.94	25.41	7.71	-53.4	-56.0	13.7	0.00e+00	0	26	0	122683392	73	4711
2026-01-05 23:00:52.94	25.49	7.78	-53.4	-55.9	13.7	0.00e+00	0	26	0	124780544	73	4695
2026-01-05 23:00:53.93	25.57	7.85	-53.3	-55.9	13.8	0.00e+00	0	26	0	126877696	73	4661
2026-01-05 23:00:54.93	25.64	7.92	-53.3	-55.8	13.8	0.00e+00	0	26	0	128974848	73	4610
2026-01-05 23:00:55.92	25.72	7.99	-53.1	-55.6	13.8	0.00e+00	0	26	0	131072000	72	4761
2026-01-05 23:00:56.90	25.80	8.06	-53.2	-55.6	13.8	0.00e+00	0	26	0	132120576	72	4803
2026-01-05 23:00:57.90	25.88	8.13	-53.3	-55.8	13.7	0.00e+00	0	26	0	134217728	72	4907
2026-01-05 23:00:58.89	25.96	8.20	-53.2	-55.7	13.8	0.00e+00	0	26	0	136314880	72	4853
2026-01-05 23:00:59.89	26.03	8.27	-53.1	-55.5	13.9	0.00e+00	0	26	0	138412032	72	4725
2026-01-05 23:01:00.88	26.11	8.34	-53.2	-55.6	13.8	0.00e+00	0	26	0	139460608	72	4810
2026-01-05 23:01:01.88	26.19	8.41	-53.0	-55.4	13.9	0.00e+00	0	26	0	141557760	72	4704
2026-01-05 23:01:02.87	26.27	8.48	-53.0	-55.4	13.9	0.00e+00	0	26	0	143654912	72	4676
2026-01-05 23:01:03.87	26.35	8.56	-53.0	-55.4	13.9	0.00e+00	0	26	0	145752064	72	4682
2026-01-05 23:01:04.86	26.43	8.63	-52.8	-55.2	14.1	0.00e+00	0	26	0	147849216	72	4549
2026-01-05 23:01:05.85	26.52	8.70	-52.9	-55.2	14.0	0.00e+00	0	26	0	148897792	72	4564
2026-01-05 23:01:06.84	26.60	8.77	-52.9	-55.2	14.0	0.00e+00	0	26	0	150994944	72	4579
2026-01-05 23:01:07.84	26.68	8.84	-52.8	-55.1	14.1	0.00e+00	0	26	0	153092096	72	4522
2026-01-05 23:01:08.84	26.76	8.91	-52.8	-55.2	14.0	0.00e+00	0	26	0	155189248	72	4546
2026-01-05 23:01:09.84	26.84	8.99	-52.8	-55.1	14.0	0.00e+00	0	26	0	156237824	72	4532
2026-01-05 23:01:10.83	26.93	9.06	-52.7	-54.9	14.0	0.00e+00	0	26	0	158334976	71	4683
2026-01-05 23:01:11.83	27.01	9.13	-52.7	-54.9	14.0	0.00e+00	0	26	0	160432128	71	4682
2026-01-05 23:01:12.83	27.09	9.21	-52.5	-54.7	14.2	0.00e+00	0	26	0	162529280	71	4573
2026-01-05 23:01:13.83	27.18	9.28	-52.5	-54.7	14.2	0.00e+00	0	26	0	164626432	71	4577
2026-01-05 23:01:14.82	27.26	9.35	-52.4	-54.5	14.3	0.00e+00	0	26	0	165675008	71	4474
2026-01-05 23:01:15.81	27.35	9.42	-52.6	-54.8	14.1	0.00e+00	0	26	0	167772160	71	4645
2026-01-05 23:01:16.81	27.43	9.50	-52.5	-54.7	14.1	0.00e+00	0	26	0	169869312	71	4593
2026-01-05 23:01:17.79	27.52	9.57	-52.4	-54.6	14.2	0.00e+00	0	26	0	171966464	71	4525
2026-01-05 23:01:18.79	27.61	9.65	-52.4	-54.5	14.3	0.00e+00	0	26	0	173015040	71	4480
2026-01-05 23:01:19.79	27.69	9.72	-52.4	-54.6	14.2	0.00e+00	0	26	0	175112192	71	4523
2026-01-05 23:01:20.78	27.78	9.79	-52.4	-54.6	14.2	0.00e+00	0	26	0	177209344	71	4512
2026-01-05 23:01:21.78	27.87	9.87	-52.7	-54.9	14.1	0.00e+00	0	26	0	179306496	71	4671
2026-01-05 23:01:22.77	27.95	9.94	-52.6	-54.8	14.1	0.00e+00	0	26	0	181403648	71	4617
2026-01-05 23:01:23.77	28.04	10.02	-52.8	-55.2	14.0	0.00e+00	0	26	0	182452224	71	4818
2026-01-05 23:01:24.76	28.13	10.09	-52.6	-54.9	14.1	0.00e+00	0	26	0	184549376	71	4662
2026-01-05 23:01:25.76	28.22	10.17	-52.7	-55.0	14.0	0.00e+00	0	26	0	186646528	71	4749
2026-01-05 23:01:26.75	28.31	10.24	-52.8	-55.1	14.0	0.00e+00	0	26	0	188743680	71	4772
2026-01-05 23:01:27.74	28.40	10.32	-52.6	-54.8	14.1	0.00e+00	0	26	0	189792256	71	4651
2026-01-05 23:01:28.73	28.49	10.39	-52.7	-55.0	14.0	0.00e+00	0	26	0	191889408	71	4759
2026-01-05 23:01:29.74	28.58	10.47	-52.8	-55.2	14.0	0.00e+00	0	26	0	193986560	71	4830
2026-01-05 23:01:30.73	28.67	10.54	-52.7	-55.0	14.1	0.00e+00	0	26	0	196083712	71	4706
2026-01-05 23:01:31.73	28.77	10.62	-52.7	-54.9	14.1	0.00e+00	0	26	0	198180864	71	4703
2026-01-05 23:01:32.73	28.86	10.70	-52.6	-54.8	14.1	0.00e+00	0	26	0	199229440	71	4638
2026-01-05 23:01:33.72	28.95	10.77	-52.7	-55.0	14.0	0.00e+00	0	26	0	201326592	71	4738
2026-01-05 23:01:34.72	29.04	10.85	-52.5	-54.7	14.2	0.00e+00	0	26	0	203423744	71	4584
2026-01-05 23:01:35.71	29.14	10.93	-52.4	-54.6	14.3	0.00e+00	0	26	0	205520896	71	4508
2026-01-05 23:01:36.71	29.23	11.00	-52.3	-54.4	14.3	0.00e+00	0	26	0	206569472	71	4430
2026-01-05 23:01:37.70	29.33	11.08	-52.3	-54.4	14.4	0.00e+00	0	26	0	208666624	71	4421
2026-01-05 23:01:38.69	29.42	11.16	-52.2	-54.3	14.3	0.00e+00	0	26	0	210763776	70	4620
2026-01-05 23:01:39.69	29.52	11.24	-52.2	-54.3	14.2	0.00e+00	0	26	0	212860928	70	4641
2026-01-05 23:01:40.69	29.61	11.31	-52.1	-54.2	14.3	0.00e+00	0	26	0	214958080	70	4575
2026-01-05 23:01:41.67	29.71	11.39	-52.0	-54.1	14.4	0.00e+00	0	26	0	216006656	70	4517
2026-01-05 23:01:42.66	29.81	11.47	-52.1	-54.2	14.3	0.00e+00	0	26	0	218103808	70	4546
2026-01-05 23:01:43.65	29.90	11.55	-52.0	-54.0	14.4	0.00e+00	0	26	0	220200960	70	4476
2026-01-05 23:01:44.65	30.00	11.62	-52.0	-54.0	14.4	0.00e+00	0	26	0	222298112	70	4486
2026-01-05 23:01:45.63	30.10	11.70	-52.0	-54.1	14.4	0.00e+00	0	26	0	223346688	70	4512
2026-01-05 23:01:46.63	30.20	11.78	-52.0	-54.0	14.4	0.00e+00	0	26	0	225443840	70	4485
2026-01-05 23:01:47.63	30.30	11.86	-52.1	-54.2	14.3	0.00e+00	0	26	0	227540992	70	4551
2026-01-05 23:01:48.62	30.40	11.94	-52.0	-54.0	14.4	0.00e+00	0	26	0	229638144	70	4463
2026-01-05 23:01:49.62	30.50	12.02	-51.9	-53.9	14.5	0.00e+00	0	26	0	231735296	70	4420
2026-01-05 23:01:50.61	30.60	12.10	-52.1	-54.2	14.3	0.00e+00	0	26	0	232783872	70	4585
2026-01-05 23:01:51.60	30.70	12.18	-52.2	-54.3	14.3	0.00e+00	0	26	0	234881024	70	4612
2026-01-05 23:01:52.60	30.80	12.26	-52.1	-54.2	14.3	0.00e+00	0	26	0	236978176	70	4562
2026-01-05 23:01:53.59	30.90	12.34	-52.2	-54.4	14.2	0.00e+00	0	26	0	239075328	70	4664
2026-01-05 23:01:54.58	31.01	12.42	-52.1	-54.3	14.3	0.00e+00	0	26	0	240123904	70	4604
2026-01-05 23:01:55.58	31.11	12.50	-52.1	-54.3	14.2	0.00e+00	0	26	0	242221056	70	4604
2026-01-05 23:01:56.57	31.21	12.58	-52.3	-54.4	14.2	0.00e+00	0	26	0	244318208	70	4686
2026-01-05 23:01:57.57	31.32	12.66	-52.3	-54.5	14.2	0.00e+00	0	26	0	246415360	70	4721
2026-01-05 23:01:58.57	31.43	12.74	-52.3	-54.5	14.2	0.00e+00	0	26	0	248512512	70	4708
2026-01-05 23:01:59.57	31.53	12.82	-52.3	-54.4	14.2	0.00e+00	0	26	0	249561088	70	4701
2026-01-05 23:02:00.57	31.64	12.90	-52.4	-54.6	14.1	0.00e+00	0	26	0	251658240	70	4798
2026-01-05 23:02:01.56	31.75	12.98	-52.4	-54.6	14.2	0.00e+00	0	26	0	253755392	70	4766
2026-01-05 23:02:02.56	31.85	13.07	-52.3	-54.5	14.2	0.00e+00	0	26	0	255852544	70	4757
2026-01-05 23:02:03.54	31.96	13.15	-52.3	-54.5	14.2	0.00e+00	0	26	0	256901120	70	4750
2026-01-05 23:02:04.53	32.07	13.23	-52.3	-54.5	14.2	0.00e+00	0	26	0	258998272	70	4739
2026-01-05 23:02:05.52	32.18	13.31	-52.2	-54.3	14.3	0.00e+00	0	26	0	261095424	70	4641
2026-01-05 23:02:06.52	32.29	13.39	-52.2	-54.4	14.3	0.00e+00	0	26	0	263192576	70	4655
2026-01-05 23:02:07.51	32.40	13.48	-52.1	-54.2	14.3	0.00e+00	0	26	0	265289728	70	4578
2026-01-05 23:02:08.50	32.51	13.56	-52.1	-54.1	14.4	0.00e+00	0	26	0	266338304	70	4527
2026-01-05 23:02:09.49	32.62	13.64	-52.2	-54.2	14.3	0.00e+00	0	26	0	268435456	70	4596
2026-01-05 23:02:10.49	32.73	13.72	-51.9	-53.9	14.5	0.00e+00	0	26	0	270532608	70	4413
2026-01-05 23:02:11.48	32.84	13.81	-52.0	-54.1	14.4	0.00e+00	0	26	0	272629760	70	4503
2026-01-05 23:02:12.47	32.96	13.89	-52.0	-54.0	14.4	0.00e+00	0	26	0	273678336	70	4484
2026-01-05 23:02:13.47	33.07	13.97	-51.9	-54.0	14.4	0.00e+00	0	26	0	275775488	70	4445
2026-01-05 23:02:14.47	33.19	14.06	-52.1	-54.2	14.3	0.00e+00	0	26	0	277872640	70	4588
2026-01-05 23:02:15.47	33.30	14.14	-52.2	-54.3	14.3	0.00e+00	0	26	0	279969792	70	4646
2026-01-05 23:02:16.48	33.42	14.23	-52.3	-54.5	14.2	0.00e+00	0	26	0	282066944	70	4711
2026-01-05 23:02:17.48	33.54	14.31	-52.5	-54.7	14.1	0.00e+00	0	26	0	283115520	70	4841
2026-01-05 23:02:18.47	33.65	14.40	-52.4	-54.7	14.1	0.00e+00	0	26	0	285212672	70	4819
2026-01-05 23:02:19.47	33.77	14.48	-52.6	-54.9	14.0	0.00e+00	0	26	0	287309824	70	4943
2026-01-05 23:02:20.48	33.89	14.57	-52.6	-54.9	14.0	0.00e+00	0	26	0	289406976	70	4954
2026-01-05 23:02:21.47	34.01	14.65	-52.7	-55.1	14.0	0.00e+00	0	26	0	290455552	70	5042
2026-01-05 23:02:22.47	34.13	14.74	-52.7	-55.0	14.0	0.00e+00	0	26	0	292552704	70	5014
2026-01-05 23:02:23.47	34.25	14.83	-52.6	-55.0	14.0	0.00e+00	0	26	0	294649856	70	5000
2026-01-05 23:02:24.47	34.37	14.91	-52.7	-55.0	14.0	0.00e+00	0	26	0	296747008	70	5019
2026-01-05 23:02:25.47	34.50	15.00	-52.7	-55.0	14.0	0.00e+00	0	26	0	298844160	70	5035
2026-01-05 23:02:26.46	34.62	15.08	-52.5	-54.8	14.0	0.00e+00	0	26	0	299892736	70	4899
2026-01-05 23:02:27.46	34.74	15.17	-52.5	-54.8	14.1	0.00e+00	0	26	0	301989888	70	4874
2026-01-05 23:02:28.46	34.87	15.26	-52.6	-54.9	14.0	0.00e+00	0	26	0	304087040	70	4930
2026-01-05 23:02:29.45	34.99	15.34	-52.3	-54.5	14.2	0.00e+00	0	26	0	306184192	70	4755
2026-01-05 23:02:30.44	35.12	15.43	-52.6	-54.9	14.0	0.00e+00	0	26	0	308281344	70	4940
2026-01-05 23:02:31.43	35.24	15.52	-52.5	-54.8	14.0	0.00e+00	0	26	0	309329920	70	4917
2026-01-05 23:02:32.43	35.37	15.60	-52.6	-54.9	14.0	0.00e+00	0	26	0	311427072	70	4953
2026-01-05 23:02:33.42	35.50	15.69	-52.7	-55.1	13.9	0.00e+00	0	26	0	313524224	70	5062
2026-01-05 23:02:34.41	35.62	15.78	-52.8	-55.2	13.9	0.00e+00	0	26	0	315621376	70	5135
2026-01-05 23:02:35.41	35.75	15.87	-52.8	-55.3	13.9	0.00e+00	0	26	0	316669952	70	5177
2026-01-05 23:02:36.41	35.88	15.96	-52.7	-55.1	13.9	0.00e+00	0	26	0	318767104	70	5085
2026-01-05 23:02:37.40	36.01	16.04	-53.0	-55.5	13.9	0.00e+00	0	26	0	320864256	71	5006
2026-01-05 23:02:38.40	36.14	16.13	-52.9	-55.3	14.0	0.00e+00	0	26	0	322961408	71	4889
2026-01-05 23:02:39.40	36.28	16.22	-52.8	-55.2	14.0	0.00e+00	0	26	0	325058560	71	4843
2026-01-05 23:02:40.40	36.41	16.31	-53.0	-55.4	13.9	0.00e+00	0	26	0	326107136	71	4971
2026-01-05 23:02:41.38	36.54	16.40	-52.9	-55.3	14.0	0.00e+00	0	26	0	328204288	71	4883
2026-01-05 23:02:42.38	36.68	16.49	-53.0	-55.4	13.9	0.00e+00	0	26	0	330301440	71	4967
2026-01-05 23:02:43.38	36.81	16.58	-52.8	-55.2	14.0	0.00e+00	0	26	0	332398592	71	4816
2026-01-05 23:02:44.37	36.95	16.67	-52.8	-55.1	14.1	0.00e+00	0	26	0	333447168	71	4802
2026-01-05 23:02:45.37	37.08	16.76	-52.8	-55.1	14.1	0.00e+00	0	26	0	335544320	71	4762
2026-01-05 23:02:46.38	37.22	16.85	-52.7	-54.9	14.2	0.00e+00	0	26	0	337641472	71	4700
2026-01-05 23:02:47.38	37.36	16.94	-52.6	-54.8	14.2	0.00e+00	0	26	0	339738624	71	4607
2026-01-05 23:02:48.38	37.50	17.03	-52.5	-54.7	14.3	0.00e+00	0	26	0	341835776	71	4550
2026-01-05 23:02:49.38	37.64	17.12	-52.3	-54.4	14.4	0.00e+00	0	26	0	342884352	71	4437
2026-01-05 23:02:50.38	37.78	17.21	-52.5	-54.6	14.3	0.00e+00	0	26	0	344981504	71	4535
2026-01-05 23:02:51.38	37.92	17.30	-52.2	-54.3	14.5	0.00e+00	0	26	0	347078656	71	4367
2026-01-05 23:02:52.37	38.07	17.39	-52.1	-54.2	14.5	0.00e+00	0	26	0	349175808	71	4306
2026-01-05 23:02:53.36	38.21	17.48	-52.1	-54.1	14.4	0.00e+00	0	26	0	351272960	70	4541
2026-01-05 23:02:54.35	38.35	17.57	-51.9	-53.9	14.5	0.00e+00	0	26	0	352321536	70	4428
2026-01-05 23:02:55.36	38.50	17.67	-52.0	-54.0	14.4	0.00e+00	0	26	0	354418688	70	4488
2026-01-05 23:02:56.35	38.64	17.76	-52.0	-54.0	14.5	0.00e+00	0	26	0	356515840	70	4443
2026-01-05 23:02:57.35	38.79	17.85	-51.8	-53.8	14.6	0.00e+00	0	26	0	358612992	70	4367
2026-01-05 23:02:58.35	38.94	17.94	-51.8	-53.7	14.6	0.00e+00	0	26	0	359661568	70	4329
2026-01-05 23:02:59.35	39.09	18.04	-52.0	-53.9	14.5	0.00e+00	0	26	0	361758720	70	4438
2026-01-05 23:03:00.35	39.24	18.13	-51.8	-53.8	14.6	0.00e+00	0	26	0	363855872	70	4344
2026-01-05 23:03:01.34	39.38	18.22	-51.8	-53.7	14.6	0.00e+00	0	26	0	365953024	70	4328
2026-01-05 23:03:02.34	39.54	18.31	-51.8	-53.8	14.6	0.00e+00	0	26	0	368050176	70	4350
2026-01-05 23:03:03.34	39.69	18.41	-51.8	-53.7	14.6	0.00e+00	0	26	0	369098752	70	4337
2026-01-05 23:03:04.34	39.84	18.50	-51.8	-53.7	14.6	0.00e+00	0	26	0	371195904	70	4336
2026-01-05 23:03:05.35	40.00	18.60	-51.8	-53.8	14.6	0.00e+00	0	26	0	373293056	70	4372
2026-01-05 23:03:06.35	40.15	18.69	-52.1	-54.1	14.4	0.00e+00	0	26	0	375390208	70	4530
2026-01-05 23:03:07.35	40.31	18.78	-52.0	-54.0	14.5	0.00e+00	0	26	0	377487360	70	4451
2026-01-05 23:03:08.35	40.47	18.88	-52.0	-54.0	14.4	0.00e+00	0	26	0	378535936	70	4468
2026-01-05 23:03:09.35	40.62	18.97	-51.9	-53.9	14.5	0.00e+00	0	26	0	380633088	70	4413
2026-01-05 23:03:10.35	40.78	19.07	-52.0	-54.0	14.5	0.00e+00	0	26	0	382730240	70	4477
2026-01-05 23:03:11.34	40.94	19.16	-51.9	-54.0	14.6	0.00e+00	0	26	0	384827392	70	4455
2026-01-05 23:03:12.34	41.10	19.25	-51.7	-53.8	14.6	0.00e+00	0	26	0	385875968	70	4351
2026-01-05 23:03:13.33	41.26	19.35	-51.7	-53.8	14.7	0.00e+00	0	26	0	387973120	70	4350
2026-01-05 23:03:14.32	41.42	19.44	-51.7	-53.8	14.5	0.00e+00	0	26	0	390070272	69	4618
2026-01-05 23:03:15.32	41.59	19.54	-51.6	-53.7	14.5	0.00e+00	0	26	0	392167424	69	4562
2026-01-05 23:03:16.33	41.75	19.63	-51.8	-53.7	14.5	0.00e+00	0	26	0	394264576	69	4587
2026-01-05 23:03:17.32	41.92	19.73	-51.7	-53.6	14.5	0.00e+00	0	26	0	395313152	69	4510
2026-01-05 23:03:18.32	42.08	19.82	-51.8	-53.7	14.5	0.00e+00	0	26	0	397410304	69	4593
2026-01-05 23:03:19.32	42.25	19.92	-51.7	-53.6	14.5	0.00e+00	0	26	0	399507456	69	4544
2026-01-05 23:03:20.32	42.42	20.01	-51.7	-53.6	14.5	0.00e+00	0	26	0	401604608	69	4511
2026-01-05 23:03:21.32	42.59	20.11	-51.7	-53.6	14.5	0.00e+00	0	26	0	403701760	69	4544
2026-01-05 23:03:22.32	42.76	20.21	-51.6	-53.5	14.6	0.00e+00	0	26	0	404750336	69	4469
2026-01-05 23:03:23.32	42.93	20.30	-51.5	-53.3	14.6	0.00e+00	0	26	0	406847488	69	4379
2026-01-05 23:03:24.32	43.10	20.40	-51.6	-53.5	14.6	0.00e+00	0	26	0	408944640	69	4468
2026-01-05 23:03:25.32	43.28	20.50	-51.6	-53.5	14.6	0.00e+00	0	26	0	411041792	69	4456
2026-01-05 23:03:26.32	43.45	20.59	-51.5	-53.3	14.7	0.00e+00	0	26	0	412090368	69	4390
2026-01-05 23:03:27.31	43.63	20.69	-51.5	-53.3	14.6	0.00e+00	0	26	0	414187520	69	4389
2026-01-05 23:03:28.30	43.80	20.78	-51.6	-53.4	14.6	0.00e+00	0	26	0	416284672	69	4427
2026-01-05 23:03:29.31	43.98	20.88	-51.3	-53.1	14.8	0.00e+00	0	26	0	418381824	69	4278
2026-01-05 23:03:30.30	44.16	20.98	-51.3	-53.1	14.8	0.00e+00	0	26	0	420478976	69	4264
2026-01-05 23:03:31.29	44.34	21.07	-51.3	-53.1	14.8	0.00e+00	0	26	0	421527552	69	4247
2026-01-05 23:03:32.28	44.52	21.17	-51.2	-52.9	14.7	0.00e+00	0	26	0	423624704	68	4422
2026-01-05 23:03:33.28	44.70	21.27	-51.3	-53.1	14.6	0.00e+00	0	26	0	425721856	68	4508
2026-01-05 23:03:34.28	44.88	21.36	-51.1	-52.9	14.7	0.00e+00	0	26	0	427819008	68	4415
2026-01-05 23:03:35.28	45.07	21.46	-51.2	-52.9	14.7	0.00e+00	0	26	0	428867584	68	4430
2026-01-05 23:03:36.28	45.26	21.56	-51.1	-52.8	14.7	0.00e+00	0	26	0	430964736	68	4366
2026-01-05 23:03:37.28	45.44	21.66	-51.0	-52.7	14.8	0.00e+00	0	26	0	433061888	68	4340
2026-01-05 23:03:38.27	45.63	21.75	-51.0	-52.7	14.8	0.00e+00	0	26	0	435159040	68	4306
2026-01-05 23:03:39.27	45.82	21.85	-50.8	-52.5	14.9	0.00e+00	0	26	0	437256192	68	4207
2026-01-05 23:03:40.27	46.01	21.95	-50.4	-52.1	14.9	0.00e+00	0	26	0	438304768	67	4247
2026-01-05 23:03:41.27	46.20	22.05	-50.4	-52.0	14.9	0.00e+00	0	26	0	440401920	67	4223
2026-01-05 23:03:42.27	46.39	22.14	-50.4	-52.1	14.9	0.00e+00	0	26	0	442499072	67	4248
2026-01-05 23:03:43.27	46.59	22.24	-50.4	-52.0	14.9	0.00e+00	0	26	0	444596224	67	4218
2026-01-05 23:03:44.28	46.78	22.34	-50.6	-52.2	14.8	0.00e+00	0	26	0	446693376	67	4336
2026-01-05 23:03:45.28	46.98	22.44	-50.5	-52.2	14.8	0.00e+00	0	26	0	447741952	67	4318
2026-01-05 23:03:46.28	47.18	22.54	-50.6	-52.3	14.8	0.00e+00	0	26	0	449839104	67	4377
2026-01-05 23:03:47.29	47.38	22.64	-50.8	-52.5	14.7	0.00e+00	0	26	0	451936256	67	4459
2026-01-05 23:03:48.29	47.58	22.73	-50.9	-52.6	14.6	0.00e+00	0	26	0	454033408	67	4542
2026-01-05 23:03:49.29	47.78	22.83	-50.9	-52.7	14.7	0.00e+00	0	26	0	456130560	67	4547
2026-01-05 23:03:50.29	47.98	22.93	-51.0	-52.8	14.6	0.00e+00	0	26	0	457179136	67	4631
2026-01-05 23:03:51.29	48.19	23.03	-51.3	-53.1	14.5	0.00e+00	0	26	0	459276288	67	4811
2026-01-05 23:03:52.30	48.40	23.13	-51.4	-53.3	14.4	0.00e+00	0	26	0	461373440	67	4873
2026-01-05 23:03:53.29	48.60	23.23	-51.6	-53.6	14.4	0.00e+00	0	26	0	463470592	68	4787
2026-01-05 23:03:54.29	48.81	23.32	-51.6	-53.5	14.4	0.00e+00	0	26	0	465567744	68	4747
2026-01-05 23:03:55.30	49.02	23.42	-51.5	-53.4	14.5	0.00e+00	0	26	0	466616320	68	4661
2026-01-05 23:03:56.30	49.23	23.52	-51.4	-53.3	14.5	0.00e+00	0	26	0	468713472	68	4612
2026-01-05 23:03:57.29	49.44	23.62	-51.2	-53.1	14.6	0.00e+00	0	26	0	470810624	68	4496
2026-01-05 23:03:58.30	49.65	23.72	-51.3	-53.1	14.6	0.00e+00	0	26	0	472907776	68	4545
2026-01-05 23:03:59.30	49.87	23.82	-51.4	-53.2	14.6	0.00e+00	0	26	0	473956352	68	4579
2026-01-05 23:04:00.29	50.08	23.91	-51.7	-53.5	14.5	0.00e+00	0	26	0	476053504	68	4748
2026-01-05 23:04:01.29	50.30	24.01	-51.5	-53.4	14.5	0.00e+00	0	26	0	478150656	68	4662
2026-01-05 23:04:02.28	50.51	24.11	-51.4	-53.2	14.6	0.00e+00	0	26	0	480247808	68	4588
2026-01-05 23:04:03.27	50.73	24.20	-51.4	-53.3	14.6	0.00e+00	0	26	0	482344960	68	4607
2026-01-05 23:04:04.26	50.95	24.30	-51.5	-53.4	14.5	0.00e+00	0	26	0	483393536	68	4663
2026-01-05 23:04:05.26	51.17	24.40	-51.5	-53.4	14.5	0.00e+00	0	26	0	485490688	68	4672
2026-01-05 23:04:06.25	51.39	24.50	-51.4	-53.3	14.5	0.00e+00	0	26	0	487587840	68	4613
2026-01-05 23:04:07.25	51.62	24.59	-51.5	-53.3	14.5	0.00e+00	0	26	0	489684992	68	4648
2026-01-05 23:04:08.25	51.84	24.69	-51.5	-53.3	14.5	0.00e+00	0	26	0	490733568	68	4651
2026-01-05 23:04:09.25	52.07	24.79	-51.3	-53.1	14.6	0.00e+00	0	26	0	492830720	68	4543
2026-01-05 23:04:10.25	52.30	24.89	-51.2	-53.0	14.6	0.00e+00	0	26	0	494927872	68	4486
2026-01-05 23:04:11.24	52.53	24.98	-51.2	-53.0	14.7	0.00e+00	0	26	0	497025024	68	4477
2026-01-05 23:04:12.24	52.76	25.08	-51.1	-52.8	14.7	0.00e+00	0	26	0	499122176	68	4369
2026-01-05 23:04:13.24	52.99	25.18	-51.0	-52.8	14.7	0.00e+00	0	26	0	500170752	68	4359
2026-01-05 23:04:14.24	53.23	25.27	-51.0	-52.7	14.7	0.00e+00	0	26	0	502267904	68	4330
2026-01-05 23:04:15.25	53.47	25.37	-51.1	-52.9	14.7	0.00e+00	0	26	0	504365056	68	4422
2026-01-05 23:04:16.25	53.70	25.47	-51.2	-52.9	14.7	0.00e+00	0	27	0	506462208	68	4425
2026-01-05 23:04:17.25	53.94	25.56	-51.2	-53.0	14.7	0.00e+00	0	26	0	508559360	68	4459
2026-01-05 23:04:18.25	54.18	25.66	-51.4	-53.2	14.6	0.00e+00	0	26	0	509607936	68	4561
2026-01-05 23:04:19.25	54.42	25.76	-51.7	-53.6	14.4	0.00e+00	0	26	0	511705088	68	4791
2026-01-05 23:04:20.25	54.67	25.85	-52.1	-54.1	14.4	0.00e+00	0	26	0	513802240	69	4765
2026-01-05 23:04:21.26	54.91	25.95	-52.1	-54.2	14.3	0.00e+00	0	26	0	515899392	69	4819
2026-01-05 23:04:22.26	55.16	26.04	-52.4	-54.5	14.2	0.00e+00	0	26	0	516947968	70	4752
2026-01-05 23:04:23.25	55.40	26.14	-52.3	-54.4	14.3	0.00e+00	0	26	0	519045120	70	4670
2026-01-05 23:04:24.26	55.66	26.23	-52.4	-54.6	14.2	0.00e+00	0	26	0	521142272	70	4765
2026-01-05 23:04:25.26	55.91	26.33	-52.0	-54.0	14.5	0.00e+00	0	26	0	523239424	70	4481
2026-01-05 23:04:26.26	56.16	26.42	-51.9	-53.8	14.6	0.00e+00	0	26	0	525336576	70	4372
2026-01-05 23:04:27.26	56.41	26.52	-51.9	-53.8	14.6	0.00e+00	0	26	0	526385152	70	4363
2026-01-05 23:04:28.26	56.67	26.61	-51.9	-53.8	14.5	0.00e+00	0	26	0	528482304	70	4389
2026-01-05 23:04:29.26	56.92	26.71	-51.9	-53.8	14.6	0.00e+00	0	26	0	530579456	70	4370
2026-01-05 23:04:30.26	57.18	26.80	-51.8	-53.8	14.6	0.00e+00	0	26	0	532676608	70	4341
2026-01-05 23:04:31.27	57.44	26.89	-51.8	-53.7	14.6	0.00e+00	0	26	0	534773760	70	4314
2026-01-05 23:04:32.27	57.70	26.99	-52.0	-54.0	14.5	0.00e+00	0	26	0	535822336	70	4466
2026-01-05 23:04:33.27	57.96	27.08	-52.1	-54.1	14.5	0.00e+00	0	26	0	537919488	70	4518
2026-01-05 23:04:34.27	58.23	27.17	-52.2	-54.2	14.4	0.00e+00	0	26	0	540016640	70	4549
2026-01-05 23:04:35.26	58.49	27.26	-52.4	-54.5	14.3	0.00e+00	0	26	0	542113792	70	4732
2026-01-05 23:04:36.27	58.76	27.36	-52.4	-54.5	14.2	0.00e+00	0	26	0	544210944	70	4752
2026-01-05 23:04:37.28	59.03	27.45	-52.5	-54.6	14.3	0.00e+00	0	26	0	545259520	70	4779
2026-01-05 23:04:38.28	59.30	27.54	-52.4	-54.5	14.3	0.00e+00	0	26	0	547356672	70	4706
2026-01-05 23:04:39.28	59.57	27.63	-52.4	-54.4	14.3	0.00e+00	0	26	0	549453824	70	4679
2026-01-05 23:04:40.29	59.85	27.72	-52.3	-54.4	14.3	0.00e+00	0	26	0	551550976	70	4660
2026-01-05 23:04:41.28	60.12	27.81	-52.4	-54.5	14.3	0.00e+00	0	26	0	552599552	70	4742
2026-01-05 23:04:42.28	60.40	27.90	-52.5	-54.6	14.2	0.00e+00	0	26	0	554696704	70	4801
2026-01-05 23:04:43.29	60.68	27.99	-52.4	-54.5	14.3	0.00e+00	0	26	0	556793856	70	4736
2026-01-05 23:04:44.30	60.96	28.08	-52.5	-54.6	14.2	0.00e+00	0	26	0	558891008	70	4808
2026-01-05 23:04:45.31	61.24	28.17	-52.5	-54.6	14.2	0.00e+00	0	26	0	560988160	70	4787
2026-01-05 23:04:46.31	61.52	28.26	-52.5	-54.6	14.2	0.00e+00	0	26	0	562036736	70	4762
2026-01-05 23:04:47.31	61.81	28.34	-52.3	-54.3	14.4	0.00e+00	0	27	0	564133888	70	4634
2026-01-05 23:04:48.30	62.09	28.43	-52.5	-54.5	14.3	0.00e+00	0	26	0	566231040	70	4734
2026-01-05 23:04:49.30	62.37	28.52	-52.5	-54.6	14.2	0.00e+00	0	27	0	568328192	70	4780
2026-01-05 23:04:50.30	62.66	28.60	-52.3	-54.3	14.4	0.00e+00	0	26	0	570425344	70	4624
2026-01-05 23:04:51.30	62.95	28.69	-52.1	-54.0	14.5	0.00e+00	0	27	0	571473920	70	4469
2026-01-05 23:04:52.30	63.24	28.77	-52.4	-54.4	14.3	0.00e+00	0	26	0	573571072	70	4690
2026-01-05 23:04:53.30	63.54	28.86	-52.4	-54.4	14.3	0.00e+00	0	26	0	575668224	70	4692
2026-01-05 23:04:54.30	63.83	28.94	-52.7	-54.8	14.1	0.00e+00	0	26	0	577765376	70	4875
2026-01-05 23:04:55.30	64.12	29.02	-52.6	-54.7	14.2	0.00e+00	0	26	0	579862528	70	4866
2026-01-05 23:04:56.30	64.42	29.11	-52.6	-54.7	14.2	0.00e+00	0	26	0	580911104	70	4850
2026-01-05 23:04:57.30	64.72	29.19	-52.8	-54.9	14.1	0.00e+00	0	26	0	583008256	70	4937
2026-01-05 23:04:58.30	65.02	29.27	-52.7	-54.7	14.2	0.00e+00	0	26	0	585105408	70	4866
2026-01-05 23:04:59.30	65.32	29.35	-52.8	-54.9	14.1	0.00e+00	0	26	0	587202560	70	4946
2026-01-05 23:05:00.31	65.63	29.43	-53.0	-55.1	14.1	0.00e+00	0	26	0	589299712	71	4808
2026-01-05 23:05:01.31	65.93	29.51	-53.3	-55.6	13.9	0.00e+00	0	26	0	590348288	71	5046
2026-01-05 23:05:02.31	66.24	29.59	-53.4	-55.7	14.0	0.00e+00	0	26	0	592445440	72	4863
2026-01-05 23:05:03.32	66.55	29.67	-53.0	-55.2	14.3	0.00e+00	0	27	0	594542592	72	4565
2026-01-05 23:05:04.31	66.86	29.75	-53.3	-55.5	14.1	0.00e+00	0	26	0	596639744	72	4752
2026-01-05 23:05:05.32	67.17	29.82	-53.3	-55.5	14.0	0.00e+00	0	26	0	597688320	72	4747
2026-01-05 23:05:06.32	67.48	29.90	-53.7	-56.0	13.8	0.00e+00	0	26	0	599785472	72	5029
2026-01-05 23:05:07.32	67.79	29.97	-53.8	-56.3	13.7	0.00e+00	0	26	0	601882624	72	5202
2026-01-05 23:05:08.32	68.11	30.05	-53.7	-56.1	13.8	0.00e+00	0	26	0	603979776	73	4809
2026-01-05 23:05:09.33	68.43	30.12	-53.6	-55.9	14.0	0.00e+00	0	26	0	606076928	73	4702
2026-01-05 23:05:10.33	68.75	30.20	-53.2	-55.4	14.1	0.00e+00	0	26	0	607125504	72	4671
2026-01-05 23:05:11.33	69.07	30.27	-52.8	-54.9	14.4	0.00e+00	0	27	0	609222656	72	4400
2026-01-05 23:05:12.34	69.39	30.34	-53.4	-55.6	14.0	0.00e+00	0	26	0	611319808	72	4788
2026-01-05 23:05:13.34	69.71	30.41	-53.6	-55.9	13.8	0.00e+00	0	26	0	613416960	72	4972
2026-01-05 23:05:14.35	70.04	30.48	-53.9	-56.4	13.7	0.00e+00	0	26	0	615514112	73	4957
2026-01-05 23:05:15.35	70.36	30.55	-54.0	-56.6	13.6	0.00e+00	0	26	0	616562688	73	5059
2026-01-05 23:05:16.35	70.69	30.62	-54.2	-56.9	13.4	0.00e+00	0	26	0	618659840	73	5254
2026-01-05 23:05:17.36	71.02	30.69	-54.5	-57.4	13.3	0.00e+00	0	26	0	620756992	74	5224
2026-01-05 23:05:18.37	71.35	30.76	-54.7	-57.6	13.2	0.00e+00	0	26	0	622854144	74	5353
2026-01-05 23:05:19.37	71.68	30.82	-54.6	-57.6	13.2	0.00e+00	0	26	0	624951296	74	5349
2026-01-05 23:05:20.37	72.01	30.89	-54.6	-57.6	13.2	0.00e+00	0	26	0	625999872	74	5357
2026-01-05 23:05:21.38	72.35	30.95	-54.2	-56.9	13.5	0.00e+00	0	26	0	628097024	74	4940
2026-01-05 23:05:22.38	72.68	31.02	-53.9	-56.5	13.8	0.00e+00	0	26	0	630194176	74	4707
2026-01-05 23:05:23.39	73.02	31.08	-54.1	-56.8	13.6	0.00e+00	0	26	0	632291328	74	4908
2026-01-05 23:05:24.39	73.36	31.14	-54.1	-56.8	13.6	0.00e+00	0	26	0	634388480	74	4880
2026-01-05 23:05:25.39	73.70	31.20	-54.5	-57.4	13.2	0.00e+00	0	27	0	635437056	74	5255
2026-01-05 23:05:26.40	74.04	31.26	-54.3	-57.2	13.4	0.00e+00	0	27	0	637534208	74	5121
2026-01-05 23:05:27.41	74.38	31.32	-54.0	-56.7	13.7	0.00e+00	0	26	0	639631360	74	4835
2026-01-05 23:05:28.41	74.72	31.38	-53.6	-56.2	13.8	0.00e+00	0	26	0	641728512	73	4825
2026-01-05 23:05:29.41	75.07	31.44	-53.7	-56.3	13.7	0.00e+00	0	26	0	643825664	73	4882
2026-01-05 23:05:30.41	75.41	31.49	-53.5	-55.9	14.0	0.00e+00	0	26	0	644874240	73	4694
2026-01-05 23:05:31.41	75.76	31.55	-53.4	-55.8	14.0	0.00e+00	0	26	0	646971392	73	4645
2026-01-05 23:05:32.41	76.10	31.60	-53.2	-55.5	14.0	0.00e+00	0	26	0	649068544	72	4738
2026-01-05 23:05:33.41	76.45	31.65	-52.9	-55.1	14.2	0.00e+00	0	26	0	651165696	72	4539
2026-01-05 23:05:34.41	76.80	31.70	-53.0	-55.2	14.2	0.00e+00	0	26	0	653262848	72	4557
2026-01-05 23:05:35.41	77.15	31.75	-53.3	-55.6	14.1	0.00e+00	0	27	0	654311424	72	4762
2026-01-05 23:05:36.42	77.50	31.80	-53.7	-56.3	13.7	0.00e+00	0	26	0	656408576	72	5187
2026-01-05 23:05:37.42	77.85	31.85	-54.1	-56.9	13.5	0.00e+00	0	26	0	658505728	73	5253
2026-01-05 23:05:38.42	78.21	31.90	-54.0	-56.8	13.5	0.00e+00	0	26	0	660602880	73	5179
2026-01-05 23:05:39.43	78.56	31.95	-53.9	-56.6	13.6	0.00e+00	0	26	0	661651456	73	5077
2026-01-05 23:05:40.43	78.92	31.99	-54.0	-56.7	13.6	0.00e+00	0	26	0	663748608	73	5139
2026-01-05 23:05:41.43	79.28	32.03	-53.8	-56.5	13.7	0.00e+00	0	27	0	665845760	73	4998
2026-01-05 23:05:42.43	79.63	32.08	-53.5	-55.9	14.0	0.00e+00	0	26	0	667942912	73	4689
2026-01-05 23:05:43.44	79.99	32.12	-53.3	-55.6	14.2	0.00e+00	0	26	0	670040064	73	4502
2026-01-05 23:05:44.44	80.35	32.16	-53.0	-55.2	14.2	0.00e+00	0	26	0	671088640	72	4565
2026-01-05 23:05:45.44	80.71	32.20	-53.3	-55.6	14.0	0.00e+00	0	26	0	673185792	72	4808
2026-01-05 23:05:46.45	81.07	32.24	-53.4	-55.8	13.9	0.00e+00	0	27	0	675282944	72	4887
2026-01-05 23:05:47.44	81.43	32.27	-53.6	-56.2	13.7	0.00e+00	0	26	0	677380096	72	5106
2026-01-05 23:05:48.45	81.80	32.31	-54.0	-56.7	13.6	0.00e+00	0	26	0	679477248	73	5137
2026-01-05 23:05:49.44	82.16	32.34	-54.0	-56.7	13.5	0.00e+00	0	26	0	680525824	73	5123
2026-01-05 23:05:50.44	82.52	32.38	-53.9	-56.5	13.6	0.00e+00	0	26	0	682622976	73	5040
2026-01-05 23:05:51.44	82.88	32.41	-53.6	-56.2	13.8	0.00e+00	0	26	0	684720128	73	4817
2026-01-05 23:05:52.44	83.25	32.44	-53.3	-55.7	14.1	0.00e+00	0	26	0	686817280	73	4570
2026-01-05 23:05:53.43	83.61	32.47	-53.1	-55.4	14.1	0.00e+00	0	26	0	687865856	72	4671
2026-01-05 23:05:54.43	83.98	32.50	-52.9	-55.2	14.2	0.00e+00	0	26	0	689963008	72	4557
2026-01-05 23:05:55.41	84.34	32.52	-52.8	-55.0	14.3	0.00e+00	0	26	0	692060160	72	4442
2026-01-05 23:05:56.41	84.70	32.55	-53.0	-55.3	14.1	0.00e+00	0	26	0	694157312	72	4632
2026-01-05 23:05:57.41	85.07	32.57	-53.1	-55.5	14.0	0.00e+00	0	26	0	696254464	72	4741
2026-01-05 23:05:58.41	85.44	32.60	-53.2	-55.6	14.0	0.00e+00	0	26	0	697303040	72	4775
2026-01-05 23:05:59.41	85.81	32.62	-53.4	-55.9	13.8	0.00e+00	0	26	0	699400192	72	4972
2026-01-05 23:06:00.40	86.17	32.64	-53.4	-55.9	13.8	0.00e+00	0	26	0	701497344	72	4965
2026-01-05 23:06:01.41	86.55	32.66	-53.2	-55.7	14.0	0.00e+00	0	26	0	703594496	72	4833
2026-01-05 23:06:02.41	86.92	32.68	-53.2	-55.7	13.9	0.00e+00	0	26	0	705691648	72	4837
2026-01-05 23:06:03.41	87.29	32.69	-53.3	-55.8	13.9	0.00e+00	0	27	0	706740224	72	4879
2026-01-05 23:06:04.40	87.66	32.71	-53.5	-56.0	13.8	0.00e+00	0	26	0	708837376	72	5041
2026-01-05 23:06:05.40	88.03	32.72	-53.6	-56.2	13.7	0.00e+00	0	26	0	710934528	72	5107
2026-01-05 23:06:06.39	88.40	32.74	-53.2	-55.7	14.0	0.00e+00	0	27	0	713031680	72	4821
2026-01-05 23:06:07.39	88.77	32.75	-53.3	-55.8	13.9	0.00e+00	0	26	0	715128832	72	4900
2026-01-05 23:06:08.38	89.14	32.76	-53.3	-55.8	13.9	0.00e+00	0	26	0	716177408	72	4913
2026-01-05 23:06:09.38	89.51	32.77	-53.3	-55.8	13.9	0.00e+00	0	26	0	718274560	72	4922
2026-01-05 23:06:10.37	89.88	32.78	-53.5	-56.0	13.8	0.00e+00	0	27	0	720371712	72	5015
2026-01-05 23:06:11.37	90.25	32.78	-53.4	-55.9	13.8	0.00e+00	0	27	0	722468864	72	4958
2026-01-05 23:06:12.37	90.62	32.79	-53.6	-56.2	13.7	0.00e+00	0	27	0	723517440	72	5115
2026-01-05 23:06:13.37	91.00	32.79	-53.6	-56.2	13.7	0.00e+00	0	26	0	725614592	72	5159
2026-01-05 23:06:14.37	91.37	32.79	-53.7	-56.4	13.6	0.00e+00	0	27	0	727711744	72	5233
2026-01-05 23:06:15.37	91.74	32.79	-54.0	-56.8	13.5	0.00e+00	0	26	0	729808896	73	5179
2026-01-05 23:06:16.36	92.11	32.79	-53.7	-56.4	13.7	0.00e+00	0	26	0	731906048	73	4930
2026-01-05 23:06:17.36	92.49	32.79	-53.6	-56.1	13.9	0.00e+00	0	26	0	732954624	73	4801
2026-01-05 23:06:18.36	92.86	32.79	-53.7	-56.3	13.7	0.00e+00	0	26	0	735051776	73	4872
2026-01-05 23:06:19.36	93.23	32.79	-53.5	-56.1	13.9	0.00e+00	0	26	0	737148928	73	4773
2026-01-05 23:06:20.36	93.61	32.78	-53.4	-55.8	14.0	0.00e+00	0	26	0	739246080	73	4603
2026-01-05 23:06:21.36	93.98	32.77	-52.9	-55.1	14.3	0.00e+00	0	26	0	740294656	72	4511
2026-01-05 23:06:22.36	94.35	32.77	-52.4	-54.3	14.5	0.00e+00	0	27	0	742391808	71	4389
2026-01-05 23:06:23.36	94.72	32.76	-51.8	-53.7	14.6	0.00e+00	0	26	0	744488960	70	4300
2026-01-05 23:06:24.36	95.10	32.75	-51.7	-53.5	14.6	0.00e+00	0	26	0	746586112	69	4458
2026-01-05 23:06:25.36	95.47	32.73	-52.2	-54.1	14.4	0.00e+00	0	26	0	748683264	69	4774
2026-01-05 23:06:26.36	95.84	32.72	-52.9	-55.0	14.1	0.00e+00	0	27	0	749731840	70	5020
2026-01-05 23:06:27.36	96.21	32.71	-53.3	-55.6	13.9	0.00e+00	0	26	0	751828992	71	5056
2026-01-05 23:06:28.36	96.58	32.69	-53.5	-55.8	13.9	0.00e+00	0	27	0	753926144	72	4925
2026-01-05 23:06:29.35	96.95	32.67	-53.3	-55.7	14.0	0.00e+00	0	26	0	756023296	72	4820
2026-01-05 23:06:30.35	97.32	32.65	-53.3	-55.7	14.0	0.00e+00	0	26	0	758120448	72	4832
2026-01-05 23:06:31.36	97.69	32.63	-53.6	-56.1	13.8	0.00e+00	0	27	0	759169024	72	5052
2026-01-05 23:06:32.36	98.06	32.61	-53.6	-56.2	13.7	0.00e+00	0	27	0	761266176	72	5122
2026-01-05 23:06:33.35	98.43	32.59	-53.3	-55.7	14.0	0.00e+00	0	26	0	763363328	72	4817
2026-01-05 23:06:34.35	98.80	32.57	-53.0	-55.3	14.2	0.00e+00	0	27	0	765460480	72	4599
2026-01-05 23:06:35.35	99.17	32.54	-52.8	-55.0	14.3	0.00e+00	0	27	0	766509056	72	4470
2026-01-05 23:06:36.35	99.53	32.52	-53.0	-55.3	14.2	0.00e+00	0	27	0	768606208	72	4612
2026-01-05 23:06:37.34	99.90	32.49	-53.2	-55.6	14.0	0.00e+00	0	26	0	770703360	72	4799
2026-01-05 23:06:38.34	100.26	32.46	-53.4	-55.9	13.9	0.00e+00	0	26	0	772800512	72	4946
2026-01-05 23:06:39.34	100.63	32.43	-53.4	-55.9	13.8	0.00e+00	0	27	0	774897664	72	4975
2026-01-05 23:06:40.34	100.99	32.40	-52.9	-55.3	14.2	0.00e+00	0	26	0	775946240	72	4599
2026-01-05 23:06:41.34	101.36	32.37	-53.1	-55.4	14.1	0.00e+00	0	26	0	778043392	72	4672
2026-01-05 23:06:42.34	101.72	32.33	-53.2	-55.6	14.0	0.00e+00	0	26	0	780140544	72	4762
2026-01-05 23:06:43.34	102.08	32.30	-53.2	-55.6	14.0	0.00e+00	0	26	0	782237696	72	4801
2026-01-05 23:06:44.34	102.45	32.26	-53.2	-55.5	14.0	0.00e+00	0	26	0	784334848	72	4742
2026-01-05 23:06:45.34	102.81	32.23	-52.8	-55.0	14.3	0.00e+00	0	27	0	785383424	72	4463
2026-01-05 23:06:46.34	103.17	32.19	-52.4	-54.5	14.4	0.00e+00	0	26	0	787480576	71	4450
2026-01-05 23:06:47.34	103.53	32.15	-52.4	-54.4	14.4	0.00e+00	0	26	0	789577728	71	4413
2026-01-05 23:06:48.34	103.89	32.11	-53.0	-55.3	14.1	0.00e+00	0	26	0	791674880	71	4887
2026-01-05 23:06:49.34	104.24	32.07	-54.0	-56.7	13.6	0.00e+00	0	26	0	793772032	73	5156
2026-01-05 23:06:50.34	104.60	32.02	-54.4	-57.4	13.3	0.00e+00	0	26	0	794820608	74	5230
2026-01-05 23:06:51.34	104.96	31.98	-54.3	-57.0	13.5	0.00e+00	0	27	0	796917760	74	5041
2026-01-05 23:06:52.34	105.31	31.93	-53.5	-55.9	13.9	0.00e+00	0	26	0	799014912	73	4672
2026-01-05 23:06:53.33	105.66	31.89	-53.2	-55.4	14.1	0.00e+00	0	26	0	801112064	72	4682
2026-01-05 23:06:54.33	106.02	31.84	-53.0	-55.2	14.2	0.00e+00	0	26	0	802160640	72	4555
2026-01-05 23:06:55.33	106.37	31.79	-53.0	-55.2	14.2	0.00e+00	0	27	0	804257792	72	4593
2026-01-05 23:06:56.33	106.72	31.74	-53.1	-55.3	14.2	0.00e+00	0	26	0	806354944	72	4612
2026-01-05 23:06:57.33	107.07	31.69	-52.8	-54.8	14.4	0.00e+00	0	27	0	808452096	72	4381
2026-01-05 23:06:58.32	107.41	31.64	-52.6	-54.6	14.4	0.00e+00	0	27	0	810549248	71	4513
2026-01-05 23:06:59.32	107.76	31.59	-52.5	-54.5	14.4	0.00e+00	0	27	0	811597824	71	4444
2026-01-05 23:07:00.30	108.10	31.53	-52.2	-54.0	14.5	0.00e+00	0	27	0	813694976	70	4466
2026-01-05 23:07:01.30	108.45	31.48	-52.4	-54.3	14.4	0.00e+00	0	26	0	815792128	70	4626
2026-01-05 23:07:02.30	108.79	31.42	-52.6	-54.6	14.3	0.00e+00	0	26	0	817889280	70	4772
2026-01-05 23:07:03.29	109.13	31.37	-52.6	-54.6	14.2	0.00e+00	0	27	0	818937856	70	4778
2026-01-05 23:07:04.28	109.47	31.31	-52.4	-54.3	14.4	0.00e+00	0	27	0	821035008	70	4600
2026-01-05 23:07:05.28	109.81	31.25	-52.2	-54.1	14.5	0.00e+00	0	26	0	823132160	70	4512
2026-01-05 23:07:06.27	110.15	31.19	-52.4	-54.3	14.3	0.00e+00	0	26	0	825229312	70	4651
2026-01-05 23:07:07.27	110.48	31.13	-52.5	-54.4	14.3	0.00e+00	0	26	0	827326464	70	4696
2026-01-05 23:07:08.26	110.82	31.07	-52.9	-55.0	14.1	0.00e+00	0	26	0	828375040	70	5010
2026-01-05 23:07:09.26	111.15	31.01	-52.8	-54.8	14.3	0.00e+00	0	26	0	830472192	71	4635
2026-01-05 23:07:10.25	111.49	30.94	-52.4	-54.2	14.5	0.00e+00	0	27	0	832569344	71	4338
2026-01-05 23:07:11.24	111.82	30.88	-52.0	-53.7	14.6	0.00e+00	0	27	0	834666496	70	4334
2026-01-05 23:07:12.24	112.15	30.82	-52.0	-53.7	14.6	0.00e+00	0	26	0	835715072	70	4321
2026-01-05 23:07:13.24	112.48	30.75	-52.2	-54.0	14.5	0.00e+00	0	26	0	837812224	70	4489
2026-01-05 23:07:14.23	112.80	30.68	-52.5	-54.4	14.3	0.00e+00	0	26	0	839909376	70	4686
2026-01-05 23:07:15.22	113.13	30.62	-52.8	-54.9	14.2	0.00e+00	0	26	0	842006528	71	4686
2026-01-05 23:07:16.21	113.45	30.55	-52.7	-54.8	14.3	0.00e+00	0	26	0	844103680	71	4607
2026-01-05 23:07:17.22	113.78	30.48	-52.5	-54.5	14.4	0.00e+00	0	26	0	845152256	71	4454
2026-01-05 23:07:18.22	114.11	30.41	-52.2	-54.0	14.5	0.00e+00	0	27	0	847249408	70	4473
2026-01-05 23:07:19.22	114.43	30.34	-52.0	-53.7	14.6	0.00e+00	0	26	0	849346560	70	4340
2026-01-05 23:07:20.22	114.75	30.26	-52.2	-54.1	14.4	0.00e+00	0	26	0	851443712	70	4541
2026-01-05 23:07:21.22	115.07	30.19	-52.7	-54.7	14.2	0.00e+00	0	26	0	852492288	70	4864
2026-01-05 23:07:22.23	115.39	30.12	-53.1	-55.3	14.1	0.00e+00	0	26	0	854589440	71	4876
2026-01-05 23:07:23.22	115.70	30.04	-53.2	-55.4	14.0	0.00e+00	0	26	0	856686592	71	4963
2026-01-05 23:07:24.22	116.02	29.97	-52.8	-54.9	14.2	0.00e+00	0	26	0	858783744	71	4659
2026-01-05 23:07:25.22	116.33	29.89	-52.3	-54.2	14.5	0.00e+00	0	27	0	860880896	71	4332
2026-01-05 23:07:26.21	116.64	29.82	-52.1	-54.0	14.5	0.00e+00	0	27	0	861929472	70	4451
2026-01-05 23:07:27.21	116.95	29.74	-52.2	-54.1	14.4	0.00e+00	0	26	0	864026624	70	4545
2026-01-05 23:07:28.21	117.26	29.66	-52.6	-54.7	14.2	0.00e+00	0	27	0	866123776	70	4822
2026-01-05 23:07:29.20	117.57	29.58	-53.1	-55.3	14.0	0.00e+00	0	27	0	868220928	71	4894
2026-01-05 23:07:30.20	117.88	29.50	-53.5	-56.0	13.9	0.00e+00	0	27	0	870318080	72	5012
2026-01-05 23:07:31.20	118.18	29.42	-53.1	-55.4	14.1	0.00e+00	0	27	0	871366656	72	4663
2026-01-05 23:07:32.20	118.49	29.34	-53.1	-55.4	14.1	0.00e+00	0	26	0	873463808	72	4655
2026-01-05 23:07:33.20	118.79	29.26	-52.8	-54.9	14.2	0.00e+00	0	26	0	875560960	71	4690
2026-01-05 23:07:34.19	119.09	29.18	-52.7	-54.8	14.2	0.00e+00	0	27	0	877658112	71	4643
2026-01-05 23:07:35.19	119.38	29.10	-53.2	-55.5	13.9	0.00e+00	0	27	0	879755264	71	5019
2026-01-05 23:07:36.19	119.68	29.02	-53.5	-56.0	13.8	0.00e+00	0	26	0	880803840	72	5015
2026-01-05 23:07:37.19	119.98	28.93	-53.7	-56.4	13.6	0.00e+00	0	26	0	882900992	72	5223
2026-01-05 23:07:38.19	120.27	28.85	-53.4	-55.9	13.8	0.00e+00	0	26	0	884998144	72	4977
2026-01-05 23:07:39.17	120.56	28.77	-53.0	-55.3	14.1	0.00e+00	0	27	0	887095296	72	4626
2026-01-05 23:07:40.16	120.85	28.68	-52.8	-55.0	14.3	0.00e+00	0	26	0	888143872	72	4469
2026-01-05 23:07:41.16	121.14	28.60	-52.9	-55.2	14.2	0.00e+00	0	26	0	890241024	72	4559
2026-01-05 23:07:42.15	121.43	28.51	-53.1	-55.4	14.1	0.00e+00	0	26	0	892338176	72	4673
2026-01-05 23:07:43.15	121.71	28.42	-52.8	-54.9	14.3	0.00e+00	0	26	0	894435328	72	4440
2026-01-05 23:07:44.14	122.00	28.34	-52.8	-55.0	14.3	0.00e+00	0	26	0	896532480	72	4474
2026-01-05 23:07:45.14	122.28	28.25	-52.6	-54.7	14.3	0.00e+00	0	27	0	897581056	71	4595
2026-01-05 23:07:46.15	122.57	28.16	-52.6	-54.7	14.2	0.00e+00	0	26	0	899678208	71	4597
2026-01-05 23:07:47.15	122.85	28.07	-52.8	-55.0	14.1	0.00e+00	0	27	0	901775360	71	4745
2026-01-05 23:07:48.15	123.13	27.98	-53.6	-56.1	13.8	0.00e+00	0	26	0	903872512	72	5081
2026-01-05 23:07:49.14	123.40	27.89	-54.0	-56.9	13.4	0.00e+00	0	27	0	904921088	73	5235
2026-01-05 23:07:50.14	123.68	27.80	-54.4	-57.5	13.2	0.00e+00	0	26	0	907018240	74	5319
2026-01-05 23:07:51.14	123.95	27.71	-54.5	-57.7	13.0	0.00e+00	0	26	0	909115392	74	5416
2026-01-05 23:07:52.13	124.23	27.62	-54.0	-56.8	13.5	0.00e+00	0	26	0	911212544	74	4908
2026-01-05 23:07:53.12	124.49	27.53	-53.7	-56.4	13.8	0.00e+00	0	27	0	913309696	74	4691
2026-01-05 23:07:54.13	124.77	27.44	-53.4	-55.9	13.9	0.00e+00	0	26	0	914358272	73	4691
2026-01-05 23:07:55.12	125.03	27.35	-53.3	-55.8	14.0	0.00e+00	0	27	0	916455424	73	4632
2026-01-05 23:07:56.11	125.30	27.26	-53.8	-56.5	13.6	0.00e+00	0	26	0	918552576	73	5033
2026-01-05 23:07:57.12	125.57	27.17	-54.5	-57.6	13.1	0.00e+00	0	26	0	920649728	74	5376
2026-01-05 23:07:58.11	125.83	27.07	-54.9	-58.4	12.7	0.00e+00	0	26	0	921698304	75	5533
2026-01-05 23:07:59.10	126.09	26.98	-54.4	-57.5	13.2	0.00e+00	0	27	0	923795456	75	5004
2026-01-05 23:08:00.09	126.35	26.89	-54.1	-57.0	13.5	0.00e+00	0	27	0	925892608	74	4995
2026-01-05 23:08:01.09	126.61	26.80	-53.5	-56.1	13.8	0.00e+00	0	26	0	927989760	73	4793
2026-01-05 23:08:02.09	126.87	26.70	-53.3	-55.7	14.0	0.00e+00	0	26	0	930086912	73	4561
2026-01-05 23:08:03.08	127.12	26.61	-53.7	-56.4	13.6	0.00e+00	0	26	0	931135488	73	4969
2026-01-05 23:08:04.08	127.38	26.51	-53.9	-56.7	13.5	0.00e+00	0	27	0	933232640	73	5118
2026-01-05 23:08:05.08	127.63	26.42	-54.3	-57.3	13.2	0.00e+00	0	27	0	935329792	73	5472
2026-01-05 23:08:06.07	127.88	26.33	-54.2	-57.2	13.2	0.00e+00	0	27	0	937426944	73	5420
2026-01-05 23:08:07.07	128.13	26.23	-54.1	-57.0	13.3	0.00e+00	0	26	0	938475520	73	5310
2026-01-05 23:08:08.07	128.38	26.13	-53.8	-56.5	13.6	0.00e+00	0	26	0	940572672	73	5011
2026-01-05 23:08:09.06	128.63	26.04	-53.6	-56.3	13.8	0.00e+00	0	27	0	942669824	73	4882
2026-01-05 23:08:10.05	128.87	25.94	-53.9	-56.7	13.5	0.00e+00	0	27	0	944766976	73	5120
2026-01-05 23:08:11.04	129.12	25.85	-54.9	-58.0	13.0	0.00e+00	0	26	0	946864128	74	5619
2026-01-05 23:08:12.04	129.36	25.75	-55.3	-59.3	12.2	0.00e+00	0	27	0	947912704	75	6177
2026-01-05 23:08:13.04	129.60	25.66	-55.8	-60.2	11.6	2.20e-06	0	26	0	950009856	76	6487
2026-01-05 23:08:14.03	129.84	25.56	-55.3	-59.2	12.3	0.00e+00	0	27	0	952107008	76	5738
2026-01-05 23:08:15.04	130.08	25.46	-54.9	-58.2	13.0	0.00e+00	0	26	0	954204160	76	5123
2026-01-05 23:08:16.04	130.32	25.37	-54.0	-56.8	13.5	0.00e+00	0	27	0	956301312	74	4909
2026-01-05 23:08:17.04	130.56	25.27	-53.7	-56.2	13.9	0.00e+00	0	26	0	957349888	74	4583
2026-01-05 23:08:18.03	130.79	25.17	-53.7	-56.3	13.7	0.00e+00	0	26	0	959447040	73	4911
2026-01-05 23:08:19.03	131.03	25.07	-54.2	-57.1	13.3	0.00e+00	0	26	0	961544192	73	5367
2026-01-05 23:08:20.02	131.26	24.98	-54.6	-57.7	12.9	0.00e+00	0	27	0	963641344	74	5460
2026-01-05 23:08:21.02	131.49	24.88	-54.6	-57.9	12.9	0.00e+00	0	27	0	964689920	74	5568
2026-01-05 23:08:22.02	131.72	24.78	-54.2	-57.1	13.3	0.00e+00	0	27	0	966787072	74	5100
2026-01-05 23:08:23.01	131.94	24.69	-53.3	-55.8	13.9	0.00e+00	0	27	0	968884224	73	4619
2026-01-05 23:08:24.01	132.17	24.59	-52.8	-55.0	14.2	0.00e+00	0	27	0	970981376	72	4476
2026-01-05 23:08:25.01	132.40	24.49	-52.6	-54.7	14.2	0.00e+00	0	26	0	973078528	71	4590
2026-01-05 23:08:26.01	132.62	24.39	-52.9	-55.2	14.0	0.00e+00	0	27	0	974127104	71	4831
2026-01-05 23:08:27.01	132.84	24.29	-53.3	-55.8	13.8	0.00e+00	0	26	0	976224256	72	4925
2026-01-05 23:08:28.01	133.07	24.19	-53.8	-56.6	13.4	0.00e+00	0	26	0	978321408	72	5358
2026-01-05 23:08:29.02	133.29	24.10	-53.8	-56.6	13.4	0.00e+00	0	27	0	980418560	72	5387
2026-01-05 23:08:30.00	133.50	24.00	-53.7	-56.4	13.7	0.00e+00	0	27	0	981467136	73	4930
2026-01-05 23:08:31.01	133.72	23.90	-52.7	-55.2	14.1	0.00e+00	0	26	0	983564288	72	4586
2026-01-05 23:08:32.01	133.94	23.80	-52.9	-55.1	14.2	0.00e+00	0	26	0	985661440	72	4509
2026-01-05 23:08:33.01	134.15	23.70	-52.9	-55.1	14.2	0.00e+00	0	26	0	987758592	72	4522
2026-01-05 23:08:34.01	134.37	23.60	-53.1	-55.4	14.0	0.00e+00	0	27	0	989855744	72	4672
2026-01-05 23:08:35.00	134.58	23.51	-53.6	-56.2	13.7	0.00e+00	0	26	0	990904320	72	5103
2026-01-05 23:08:36.01	134.79	23.41	-54.3	-57.3	13.2	0.00e+00	0	27	0	993001472	73	5481
2026-01-05 23:08:37.00	135.00	23.31	-54.8	-58.1	12.8	0.00e+00	0	26	0	995098624	74	5663
2026-01-05 23:08:38.01	135.21	23.21	-54.6	-57.7	13.0	0.00e+00	0	27	0	997195776	74	5423
2026-01-05 23:08:39.00	135.41	23.11	-54.4	-57.3	13.2	0.00e+00	0	27	0	999292928	74	5176
2026-01-05 23:08:40.01	135.62	23.01	-53.8	-56.4	13.8	0.00e+00	0	27	0	1000341504	74	4659
2026-01-05 23:08:41.01	135.83	22.91	-53.6	-56.0	13.8	0.00e+00	0	27	0	1002438656	73	4742
2026-01-05 23:08:42.01	136.03	22.81	-53.2	-55.5	14.1	0.00e+00	0	27	0	1004535808	73	4484
2026-01-05 23:08:43.01	136.23	22.71	-53.1	-55.5	14.0	0.00e+00	0	27	0	1006632960	72	4718
2026-01-05 23:08:44.01	136.43	22.62	-52.8	-55.1	14.2	0.00e+00	0	27	0	1008730112	72	4495
2026-01-05 23:08:45.02	136.63	22.52	-52.7	-54.9	14.3	0.00e+00	0	26	0	1009778688	72	4408
2026-01-05 23:08:46.01	136.83	22.42	-52.1	-54.1	14.4	0.00e+00	0	26	0	1011875840	70	4524
2026-01-05 23:08:47.01	137.03	22.32	-51.6	-53.5	14.6	0.00e+00	0	27	0	1013972992	69	4469
2026-01-05 23:08:48.01	137.22	22.22	-51.4	-53.2	14.7	0.00e+00	0	26	0	1016070144	69	4315
2026-01-05 23:08:49.01	137.42	22.12	-51.4	-53.2	14.7	0.00e+00	0	27	0	1017118720	69	4310
2026-01-05 23:08:50.01	137.61	22.02	-51.1	-52.8	14.7	0.00e+00	0	26	0	1019215872	68	4376
2026-01-05 23:08:51.02	137.81	21.93	-51.4	-53.2	14.5	0.00e+00	0	26	0	1021313024	68	4567
2026-01-05 23:08:52.02	138.00	21.83	-51.6	-53.4	14.5	0.00e+00	0	26	0	1023410176	68	4687
2026-01-05 23:08:53.03	138.19	21.73	-52.2	-54.3	14.2	0.00e+00	0	27	0	1025507328	69	4876
2026-01-05 23:08:54.03	138.38	21.63	-52.6	-54.8	14.1	0.00e+00	0	26	0	1026555904	70	4896
2026-01-05 23:08:55.03	138.57	21.53	-53.1	-55.4	14.0	0.00e+00	0	27	0	1028653056	71	4955
2026-01-05 23:08:56.03	138.75	21.43	-53.3	-55.7	13.8	0.00e+00	0	26	0	1030750208	71	5112
2026-01-05 23:08:57.02	138.94	21.34	-53.3	-55.7	13.8	0.00e+00	0	26	0	1032847360	71	5113
2026-01-05 23:08:58.02	139.12	21.24	-53.0	-55.3	14.0	0.00e+00	0	27	0	1034944512	71	4893
2026-01-05 23:08:59.02	139.30	21.14	-52.7	-54.8	14.2	0.00e+00	0	27	0	1035993088	71	4646
2026-01-05 23:09:00.02	139.49	21.04	-52.6	-54.7	14.2	0.00e+00	0	27	0	1038090240	71	4557
2026-01-05 23:09:01.02	139.67	20.95	-52.3	-54.3	14.4	0.00e+00	0	26	0	1040187392	71	4380
2026-01-05 23:09:02.02	139.85	20.85	-52.3	-54.2	14.5	0.00e+00	0	27	0	1042284544	71	4332
2026-01-05 23:09:03.02	140.03	20.75	-52.0	-53.9	14.5	0.00e+00	0	26	0	1044381696	70	4395
2026-01-05 23:09:04.02	140.20	20.65	-52.0	-54.0	14.5	0.00e+00	0	27	0	1045430272	70	4452
2026-01-05 23:09:05.01	140.38	20.56	-52.1	-54.1	14.4	0.00e+00	0	26	0	1047527424	70	4528
2026-01-05 23:09:06.00	140.55	20.46	-52.0	-53.9	14.5	0.00e+00	0	27	0	1049624576	70	4400
2026-01-05 23:09:06.99	140.72	20.36	-51.8	-53.7	14.6	0.00e+00	0	27	0	1051721728	70	4329
2026-01-05 23:09:07.99	140.90	20.27	-52.0	-53.9	14.5	0.00e+00	0	26	0	1052770304	70	4408
2026-01-05 23:09:08.98	141.07	20.17	-51.9	-53.8	14.5	0.00e+00	0	26	0	1054867456	70	4368
2026-01-05 23:09:09.98	141.24	20.08	-51.8	-53.7	14.6	0.00e+00	0	26	0	1056964608	70	4326
2026-01-05 23:09:10.98	141.41	19.98	-51.8	-53.7	14.6	0.00e+00	0	27	0	1059061760	70	4302
2026-01-05 23:09:11.98	141.58	19.88	-51.7	-53.5	14.5	0.00e+00	0	27	0	1061158912	69	4478
2026-01-05 23:09:12.99	141.75	19.79	-51.6	-53.5	14.6	0.00e+00	0	27	0	1062207488	69	4457
2026-01-05 23:09:13.98	141.91	19.69	-51.6	-53.5	14.6	0.00e+00	0	26	0	1064304640	69	4449
2026-01-05 23:09:14.97	142.08	19.60	-51.6	-53.5	14.5	0.00e+00	0	27	0	1066401792	69	4471
2026-01-05 23:09:15.96	142.24	19.50	-51.7	-53.6	14.5	0.00e+00	0	27	0	1068498944	69	4544
2026-01-05 23:09:16.96	142.41	19.40	-51.8	-53.8	14.4	0.00e+00	0	27	0	1069547520	69	4611
2026-01-05 23:09:17.95	142.57	19.31	-51.7	-53.6	14.5	0.00e+00	0	26	0	1071644672	69	4509
2026-01-05 23:09:18.95	142.73	19.21	-51.9	-53.9	14.3	0.00e+00	0	27	0	1073741824	69	4700
2026-01-05 23:09:19.95	142.89	19.12	-51.9	-53.9	14.3	0.00e+00	0	27	0	1075838976	69	4677
2026-01-05 23:09:20.95	143.05	19.02	-51.9	-54.0	14.3	0.00e+00	0	27	0	1077936128	69	4714
2026-01-05 23:09:21.94	143.21	18.93	-51.7	-53.7	14.4	0.00e+00	0	27	0	1078984704	69	4560
2026-01-05 23:09:22.94	143.37	18.84	-51.5	-53.4	14.6	0.00e+00	0	26	0	1081081856	69	4406
2026-01-05 23:09:23.94	143.52	18.74	-51.3	-53.2	14.7	0.00e+00	0	26	0	1083179008	69	4303
2026-01-05 23:09:24.94	143.68	18.65	-51.2	-53.0	14.8	0.00e+00	0	26	0	1085276160	69	4204
2026-01-05 23:09:25.94	143.84	18.55	-50.9	-52.6	14.8	0.00e+00	0	26	0	1087373312	68	4271
2026-01-05 23:09:26.94	143.99	18.46	-50.9	-52.6	14.8	0.00e+00	0	27	0	1088421888	68	4246
2026-01-05 23:09:27.93	144.14	18.37	-50.7	-52.4	14.8	0.00e+00	0	27	0	1090519040	68	4177
2026-01-05 23:09:28.93	144.29	18.27	-50.9	-52.6	14.8	0.00e+00	0	27	0	1092616192	68	4274
2026-01-05 23:09:29.93	144.45	18.18	-51.1	-52.9	14.6	0.00e+00	0	27	0	1094713344	68	4427
2026-01-05 23:09:30.92	144.60	18.08	-51.2	-53.0	14.6	0.00e+00	0	27	0	1095761920	68	4469
2026-01-05 23:09:31.92	144.75	17.99	-51.3	-53.2	14.5	0.00e+00	0	27	0	1097859072	68	4569
2026-01-05 23:09:32.93	144.90	17.90	-51.4	-53.3	14.5	0.00e+00	0	27	0	1099956224	68	4625
2026-01-05 23:09:33.93	145.04	17.80	-51.3	-53.2	14.5	0.00e+00	0	27	0	1102053376	68	4566
2026-01-05 23:09:34.93	145.19	17.71	-51.5	-53.4	14.5	0.00e+00	0	26	0	1104150528	68	4667
2026-01-05 23:09:35.93	145.34	17.62	-51.3	-53.2	14.5	0.00e+00	0	27	0	1105199104	68	4568
2026-01-05 23:09:36.93	145.48	17.53	-51.4	-53.3	14.5	0.00e+00	0	26	0	1107296256	68	4620
2026-01-05 23:09:37.93	145.63	17.43	-51.7	-53.6	14.4	0.00e+00	0	27	0	1109393408	68	4786
2026-01-05 23:09:38.92	145.77	17.34	-51.7	-53.6	14.4	0.00e+00	0	27	0	1111490560	68	4766
2026-01-05 23:09:39.92	145.91	17.25	-51.8	-53.8	14.3	0.00e+00	0	27	0	1112539136	68	4897
2026-01-05 23:09:40.92	146.06	17.16	-52.0	-54.0	14.3	0.00e+00	0	27	0	1114636288	69	4757
2026-01-05 23:09:41.92	146.20	17.07	-52.1	-54.2	14.2	0.00e+00	0	26	0	1116733440	69	4827
2026-01-05 23:09:42.92	146.34	16.98	-52.5	-54.7	14.1	0.00e+00	0	26	0	1118830592	70	4818
2026-01-05 23:09:43.91	146.48	16.89	-52.7	-54.9	14.0	0.00e+00	0	26	0	1120927744	70	4982
2026-01-05 23:09:44.91	146.62	16.79	-52.9	-55.3	13.9	0.00e+00	0	26	0	1121976320	71	4890
2026-01-05 23:09:45.91	146.75	16.70	-53.1	-55.6	13.8	0.00e+00	0	27	0	1124073472	71	5053
2026-01-05 23:09:46.91	146.89	16.61	-53.0	-55.4	13.9	0.00e+00	0	27	0	1126170624	71	4940
2026-01-05 23:09:47.91	147.03	16.52	-53.1	-55.7	13.8	0.00e+00	0	27	0	1128267776	71	5105
2026-01-05 23:09:48.90	147.16	16.43	-53.3	-55.8	13.6	0.00e+00	0	27	0	1130364928	71	5210
2026-01-05 23:09:49.90	147.30	16.34	-53.1	-55.6	13.8	0.00e+00	0	27	0	1131413504	71	5087
2026-01-05 23:09:50.91	147.43	16.25	-53.2	-55.7	13.7	0.00e+00	0	26	0	1133510656	71	5127
2026-01-05 23:09:51.89	147.56	16.16	-53.0	-55.5	13.8	0.00e+00	0	26	0	1135607808	71	4996
2026-01-05 23:09:52.89	147.70	16.07	-52.7	-55.0	14.0	0.00e+00	0	27	0	1137704960	71	4754
2026-01-05 23:09:53.90	147.83	15.98	-52.6	-54.9	14.1	0.00e+00	0	27	0	1139802112	71	4673
2026-01-05 23:09:54.89	147.96	15.90	-52.4	-54.6	14.2	0.00e+00	0	26	0	1140850688	71	4518
2026-01-05 23:09:55.89	148.09	15.81	-52.5	-54.7	14.2	0.00e+00	0	27	0	1142947840	71	4587
2026-01-05 23:09:56.89	148.22	15.72	-52.4	-54.6	14.3	0.00e+00	0	27	0	1145044992	71	4513
2026-01-05 23:09:57.89	148.35	15.63	-52.4	-54.6	14.2	0.00e+00	0	27	0	1147142144	71	4537
2026-01-05 23:09:58.89	148.48	15.54	-52.5	-54.7	14.2	0.00e+00	0	26	0	1148190720	71	4575
2026-01-05 23:09:59.89	148.60	15.45	-52.5	-54.9	14.2	0.00e+00	0	27	0	1150287872	71	4670
2026-01-05 23:10:00.88	148.73	15.37	-52.9	-55.0	14.1	0.00e+00	0	27	0	1152385024	71	4724
2026-01-05 23:10:01.87	148.85	15.28	-53.1	-55.2	14.0	0.00e+00	0	27	0	1154482176	71	4840
2026-01-05 23:10:02.86	148.98	15.19	-53.1	-55.1	14.0	0.00e+00	0	27	0	1156579328	71	4807
2026-01-05 23:10:03.86	149.10	15.10	-53.3	-55.5	13.9	0.00e+00	0	27	0	1157627904	71	4984
2026-01-05 23:10:04.86	149.23	15.02	-53.2	-55.4	13.9	0.00e+00	0	26	0	1159725056	71	4951
2026-01-05 23:10:05.86	149.35	14.93	-53.1	-55.3	14.0	0.00e+00	0	26	0	1161822208	71	4883
2026-01-05 23:10:06.86	149.47	14.84	-53.1	-55.2	14.0	0.00e+00	0	27	0	1163919360	71	4831
2026-01-05 23:10:07.85	149.59	14.76	-52.8	-54.8	14.2	0.00e+00	0	27	0	1164967936	71	4621
2026-01-05 23:10:08.85	149.71	14.67	-52.6	-54.6	14.3	0.00e+00	0	27	0	1167065088	71	4498
2026-01-05 23:10:09.85	149.83	14.58	-52.5	-54.4	14.4	0.00e+00	0	26	0	1169162240	71	4413
2026-01-05 23:10:10.85	149.95	14.50	-52.2	-54.1	14.5	0.00e+00	0	27	0	1171259392	71	4259
2026-01-05 23:10:11.85	150.07	14.41	-52.3	-54.1	14.5	0.00e+00	0	27	0	1173356544	71	4267
2026-01-05 23:10:12.85	150.19	14.33	-52.1	-53.9	14.4	0.00e+00	0	27	0	1174405120	70	4439
2026-01-05 23:10:13.85	150.31	14.24	-52.1	-53.9	14.5	0.00e+00	0	27	0	1176502272	70	4437
2026-01-05 23:10:14.84	150.42	14.16	-52.3	-54.1	14.4	0.00e+00	0	27	0	1178599424	70	4521
2026-01-05 23:10:15.84	150.54	14.07	-52.3	-54.2	14.3	0.00e+00	0	27	0	1180696576	70	4575
2026-01-05 23:10:16.84	150.66	13.99	-52.5	-54.4	14.2	0.00e+00	0	27	0	1182793728	70	4694
2026-01-05 23:10:17.83	150.77	13.90	-52.6	-54.6	14.1	0.00e+00	0	27	0	1183842304	70	4791
2026-01-05 23:10:18.83	150.89	13.82	-52.8	-54.8	14.1	0.00e+00	0	27	0	1185939456	70	4894
2026-01-05 23:10:19.83	151.00	13.73	-52.8	-54.9	14.0	0.00e+00	0	27	0	1188036608	70	4946
2026-01-05 23:10:20.83	151.11	13.65	-52.8	-54.9	14.0	0.00e+00	0	26	0	1190133760	70	4957
2026-01-05 23:10:21.83	151.23	13.56	-52.9	-54.9	14.1	0.00e+00	0	26	0	1191182336	71	4700
2026-01-05 23:10:22.86	151.34	13.48	-52.9	-55.1	14.1	0.00e+00	0	27	0	1193279488	71	4760
2026-01-05 23:10:23.83	151.45	13.40	-52.8	-54.9	14.1	0.00e+00	0	27	0	1195376640	71	4663
2026-01-05 23:10:24.82	151.56	13.31	-52.7	-54.7	14.2	0.00e+00	0	27	0	1197473792	71	4557
2026-01-05 23:10:25.81	151.67	13.23	-52.7	-54.7	14.2	0.00e+00	0	27	0	1198522368	71	4591
2026-01-05 23:10:26.82	151.78	13.15	-52.6	-54.6	14.2	0.00e+00	0	27	0	1200619520	71	4507
2026-01-05 23:10:27.81	151.89	13.07	-52.5	-54.4	14.3	0.00e+00	0	27	0	1202716672	71	4417
2026-01-05 23:10:28.81	152.00	12.98	-52.3	-54.2	14.4	0.00e+00	0	27	0	1204813824	71	4307
2026-01-05 23:10:29.81	152.10	12.90	-52.2	-54.1	14.5	0.00e+00	0	27	0	1206910976	71	4254
2026-01-05 23:10:30.81	152.21	12.82	-52.5	-54.4	14.4	0.00e+00	0	27	0	1207959552	71	4403
2026-01-05 23:10:31.80	152.32	12.74	-52.5	-54.5	14.3	0.00e+00	0	27	0	1210056704	71	4449
2026-01-05 23:10:32.80	152.42	12.65	-52.6	-54.5	14.3	0.00e+00	0	26	0	1212153856	71	4477
2026-01-05 23:10:33.80	152.53	12.57	-52.6	-54.5	14.3	0.00e+00	0	26	0	1214251008	71	4480
2026-01-05 23:10:34.80	152.63	12.49	-52.6	-54.6	14.2	0.00e+00	0	27	0	1216348160	71	4538
2026-01-05 23:10:35.80	152.74	12.41	-52.8	-54.8	14.1	0.00e+00	0	26	0	1217396736	71	4608
2026-01-05 23:10:36.81	152.84	12.33	-52.9	-54.9	14.0	0.00e+00	0	27	0	1219493888	71	4703
2026-01-05 23:10:37.81	152.95	12.25	-53.0	-55.1	14.0	0.00e+00	0	27	0	1221591040	71	4781
2026-01-05 23:10:38.80	153.05	12.17	-53.1	-55.3	13.9	0.00e+00	0	27	0	1223688192	71	4872
2026-01-05 23:10:39.80	153.15	12.09	-53.1	-55.3	13.9	0.00e+00	0	27	0	1224736768	71	4886
2026-01-05 23:10:40.79	153.25	12.01	-53.2	-55.3	13.9	0.00e+00	0	26	0	1226833920	71	4926
2026-01-05 23:10:41.78	153.35	11.93	-53.2	-55.4	13.8	0.00e+00	0	27	0	1228931072	71	4970
2026-01-05 23:10:42.78	153.45	11.85	-53.0	-55.1	14.0	0.00e+00	0	27	0	1231028224	71	4812
2026-01-05 23:10:43.77	153.55	11.77	-52.9	-55.0	14.0	0.00e+00	0	26	0	1233125376	71	4753
2026-01-05 23:10:44.77	153.65	11.69	-52.9	-55.1	14.0	0.00e+00	0	27	0	1234173952	71	4762
2026-01-05 23:10:45.77	153.75	11.61	-52.9	-55.0	14.0	0.00e+00	0	26	0	1236271104	71	4735
2026-01-05 23:10:46.77	153.85	11.53	-52.9	-55.0	14.0	0.00e+00	0	27	0	1238368256	71	4709
2026-01-05 23:10:47.77	153.95	11.45	-52.9	-55.0	14.0	0.00e+00	0	27	0	1240465408	71	4712
2026-01-05 23:10:48.77	154.05	11.37	-52.9	-55.0	14.0	0.00e+00	0	27	0	1242562560	71	4755
2026-01-05 23:10:49.78	154.15	11.29	-52.8	-54.9	14.1	0.00e+00	0	26	0	1243611136	71	4676
2026-01-05 23:10:50.78	154.24	11.21	-52.8	-54.8	14.1	0.00e+00	0	27	0	1245708288	71	4644
2026-01-05 23:10:51.77	154.34	11.14	-52.8	-54.8	14.1	0.00e+00	0	27	0	1247805440	71	4638
2026-01-05 23:10:52.76	154.43	11.06	-52.7	-54.8	14.2	0.00e+00	0	27	0	1249902592	71	4611
