passes_logs/2026/01/05/R3.2S_Murmansk/R3.2S_Murmansk__20260105_061758_NOAA_20_JPSS-1_rec.log

#Pass ID: 20260105_061758_NOAA 20 (JPSS-1)
#Satellite: NOAA 20 (JPSS-1)
#Configuration: NOAA 20
#almurnet v.1.7.20251203
#Start time: 2026-01-05 06:18:00

#Version: 2.2.20231116
#Station: R3.2S_Murmansk
#Location: 33.079688 lon 68.888172 lat
#TLE: 1 43013U 17073A   26004.47528369  .00000132  00000+0  83671-4 0  9999
#TLE: 2 43013  98.7626 305.5264 0001854  54.5883 305.5466 14.19533142421242

#Time	Az	El	Level	Level2	SNR	BER	BlckErr	Temp	State	Recorded	gain1	gain2
2026-01-05 06:18:00.24	81.21	2.09	-58.1	-74.1	3.8	1.49e+00	0	25	0	0	82	22647
2026-01-05 06:18:01.23	81.16	2.14	-58.1	-74.1	3.8	1.49e+00	0	25	104	0	81	23923
2026-01-05 06:18:02.23	81.10	2.20	-58.1	-74.1	3.8	1.49e+00	0	26	104	0	81	23960
2026-01-05 06:18:03.23	81.04	2.26	-58.1	-74.1	3.8	1.49e+00	0	26	104	0	81	23913
2026-01-05 06:18:04.23	80.98	2.32	-58.1	-74.1	3.8	1.49e+00	0	25	104	0	81	23933
2026-01-05 06:18:05.23	80.92	2.38	-58.1	-74.1	3.8	1.49e+00	0	26	104	0	81	23952
2026-01-05 06:18:06.23	80.86	2.44	-58.1	-74.1	3.8	1.49e+00	0	26	104	0	81	23883
2026-01-05 06:18:07.22	80.80	2.49	-58.1	-74.0	3.8	1.49e+00	0	26	104	0	81	23829
2026-01-05 06:18:08.22	80.74	2.55	-58.1	-74.0	3.8	1.49e+00	0	26	104	0	81	23797
2026-01-05 06:18:09.22	80.67	2.61	-58.1	-74.0	3.8	1.49e+00	0	26	104	0	81	23790
2026-01-05 06:18:10.22	80.61	2.67	-58.1	-74.1	3.8	1.49e+00	0	26	104	0	81	23872
2026-01-05 06:18:11.22	80.55	2.73	-58.1	-74.0	3.8	1.49e+00	0	26	104	0	81	23844
2026-01-05 06:18:12.21	80.49	2.79	-58.1	-74.0	3.8	1.49e+00	0	26	104	0	81	23800
2026-01-05 06:18:13.20	80.43	2.85	-58.1	-74.0	3.8	1.49e+00	0	26	104	0	81	23844
2026-01-05 06:18:14.19	80.37	2.90	-58.1	-74.0	3.8	1.49e+00	0	26	104	0	81	23835
2026-01-05 06:18:15.19	80.30	2.96	-58.1	-74.1	3.8	1.49e+00	0	26	104	0	81	23925
2026-01-05 06:18:16.19	80.24	3.02	-58.1	-74.1	3.8	1.49e+00	0	26	104	0	81	23937
2026-01-05 06:18:17.19	80.18	3.08	-58.1	-74.1	3.8	1.49e+00	0	26	104	0	81	23963
2026-01-05 06:18:18.19	80.11	3.14	-58.1	-74.1	3.8	1.49e+00	0	26	104	0	81	23935
2026-01-05 06:18:19.19	80.05	3.20	-58.1	-74.1	3.8	1.49e+00	0	26	104	0	81	23859
2026-01-05 06:18:20.18	79.99	3.26	-58.1	-74.1	3.8	1.49e+00	0	26	104	0	81	23878
2026-01-05 06:18:21.19	79.92	3.32	-58.1	-74.0	3.8	1.49e+00	0	26	104	0	81	23781
2026-01-05 06:18:22.19	79.86	3.38	-58.1	-74.0	3.8	1.49e+00	0	26	104	0	81	23771
2026-01-05 06:18:23.19	79.79	3.44	-58.1	-74.1	3.8	1.49e+00	0	26	104	0	81	23857
2026-01-05 06:18:24.18	79.73	3.50	-58.1	-74.0	3.8	1.49e+00	0	26	104	0	81	23813
2026-01-05 06:18:25.18	79.66	3.56	-58.1	-74.1	3.8	1.49e+00	0	26	104	0	81	23907
2026-01-05 06:18:26.18	79.60	3.62	-58.1	-74.1	3.8	1.49e+00	0	26	104	0	81	23911
2026-01-05 06:18:27.19	79.53	3.68	-58.1	-74.1	3.8	1.49e+00	0	26	104	0	81	23862
2026-01-05 06:18:28.19	79.46	3.74	-58.1	-74.0	3.8	1.49e+00	0	26	104	0	81	23738
2026-01-05 06:18:29.19	79.40	3.80	-58.1	-74.0	3.8	1.49e+00	0	26	104	0	81	23657
2026-01-05 06:18:30.18	79.33	3.86	-58.1	-74.0	3.8	1.49e+00	0	26	104	0	81	23694
2026-01-05 06:18:31.18	79.26	3.93	-58.1	-74.0	3.8	1.49e+00	0	26	104	0	81	23628
2026-01-05 06:18:32.19	79.20	3.99	-58.1	-74.0	3.8	1.49e+00	0	26	104	0	81	23758
2026-01-05 06:18:33.19	79.13	4.05	-58.1	-74.1	3.8	1.49e+00	0	26	104	0	81	23887
2026-01-05 06:18:34.18	79.06	4.11	-58.1	-74.0	3.8	1.49e+00	0	26	104	0	81	23826
2026-01-05 06:18:35.18	78.99	4.17	-58.1	-74.0	3.8	1.49e+00	0	26	104	0	81	23607
2026-01-05 06:18:36.20	78.92	4.23	-58.1	-73.7	3.8	1.49e+00	0	26	104	0	81	22955
2026-01-05 06:18:37.19	78.85	4.29	-58.0	-73.3	3.8	1.49e+00	0	26	104	0	81	21995
2026-01-05 06:18:38.19	78.79	4.35	-58.0	-72.9	3.8	1.49e+00	0	26	104	0	81	20859
2026-01-05 06:18:39.19	78.72	4.42	-58.0	-72.3	3.8	1.49e+00	0	26	104	0	81	19463
2026-01-05 06:18:40.20	78.65	4.48	-58.0	-71.6	3.8	1.49e+00	0	26	104	0	81	18090
2026-01-05 06:18:41.20	78.58	4.54	-57.9	-71.1	3.9	1.47e+00	0	27	104	0	81	16925
2026-01-05 06:18:42.20	78.50	4.60	-57.9	-70.0	4.3	1.38e+00	92	27	0	0	81	15020
2026-01-05 06:18:43.20	78.43	4.66	-57.8	-69.2	4.6	1.14e+00	0	27	0	2097152	81	13570
2026-01-05 06:18:44.20	78.36	4.73	-57.7	-68.1	5.1	6.96e-01	0	27	0	3145728	81	12044
2026-01-05 06:18:45.20	78.29	4.79	-57.6	-67.0	5.8	4.20e-01	0	26	0	5242880	81	10558
2026-01-05 06:18:46.20	78.22	4.85	-57.5	-66.2	6.3	2.77e-01	0	27	0	7340032	81	9637
2026-01-05 06:18:47.19	78.15	4.91	-57.4	-65.5	6.9	1.41e-01	0	27	0	9437184	81	8896
2026-01-05 06:18:48.20	78.08	4.98	-57.2	-64.8	7.5	8.36e-02	0	27	0	10485760	81	8218
2026-01-05 06:18:49.20	78.00	5.04	-57.1	-64.2	7.9	6.10e-02	0	26	0	12582912	80	8090
2026-01-05 06:18:50.20	77.93	5.10	-56.8	-62.5	9.5	6.88e-03	0	26	0	14680064	80	6686
2026-01-05 06:18:51.19	77.86	5.16	-55.9	-60.1	11.4	8.16e-05	0	27	0	16777216	78	5707
2026-01-05 06:18:52.18	77.78	5.23	-57.8	-69.3	4.5	6.14e-01	27	27	0	17825792	80	14622
2026-01-05 06:18:53.18	77.71	5.29	-57.9	-67.0	5.8	2.02e-01	0	27	0	19922944	81	10618
2026-01-05 06:18:54.17	77.64	5.35	-55.5	-59.4	11.8	2.20e-06	0	27	0	22020096	77	5584
2026-01-05 06:18:55.16	77.56	5.41	-55.3	-58.9	12.1	2.20e-06	0	27	0	24117248	77	5256
2026-01-05 06:18:56.17	77.49	5.48	-55.0	-58.5	12.3	1.50e-06	0	27	0	25165824	76	5296
2026-01-05 06:18:57.16	77.41	5.54	-54.7	-57.8	12.8	0.00e+00	0	27	0	27262976	76	4922
2026-01-05 06:18:58.16	77.34	5.61	-54.6	-57.6	12.8	0.00e+00	0	27	0	29360128	75	5095
2026-01-05 06:18:59.16	77.26	5.67	-54.5	-57.5	12.9	0.00e+00	0	27	0	31457280	75	5009
2026-01-05 06:19:00.16	77.18	5.73	-54.5	-57.5	12.9	0.00e+00	0	27	0	33554432	75	4993
2026-01-05 06:19:01.16	77.11	5.80	-54.5	-57.6	12.9	0.00e+00	0	27	0	34603008	75	5043
2026-01-05 06:19:02.15	77.03	5.86	-54.5	-57.5	12.9	0.00e+00	0	27	0	36700160	75	5021
2026-01-05 06:19:03.15	76.95	5.92	-54.4	-57.4	13.0	0.00e+00	0	27	0	38797312	75	4948
2026-01-05 06:19:04.15	76.88	5.99	-54.5	-57.5	13.0	0.00e+00	0	27	0	40894464	75	5001
2026-01-05 06:19:05.14	76.80	6.05	-54.4	-57.4	13.0	0.00e+00	0	27	0	41943040	75	4943
2026-01-05 06:19:06.14	76.72	6.12	-54.4	-57.4	13.0	0.00e+00	0	27	0	44040192	75	4951
2026-01-05 06:19:07.12	76.64	6.18	-54.4	-57.3	13.1	0.00e+00	0	27	0	46137344	75	4898
2026-01-05 06:19:08.11	76.56	6.24	-54.4	-57.3	13.1	0.00e+00	0	27	0	48234496	75	4919
2026-01-05 06:19:09.11	76.48	6.31	-54.4	-57.4	13.0	0.00e+00	0	27	0	50331648	75	4948
2026-01-05 06:19:10.10	76.41	6.37	-54.5	-57.5	13.0	0.00e+00	0	27	0	51380224	75	5008
2026-01-05 06:19:11.10	76.33	6.44	-54.4	-57.2	13.1	0.00e+00	0	27	0	53477376	75	4865
2026-01-05 06:19:12.09	76.25	6.50	-54.4	-57.3	13.1	0.00e+00	0	27	0	55574528	75	4902
2026-01-05 06:19:13.09	76.16	6.57	-54.4	-57.3	13.1	0.00e+00	0	27	0	57671680	75	4900
2026-01-05 06:19:14.07	76.08	6.63	-54.4	-57.2	13.2	0.00e+00	0	27	0	58720256	75	4856
2026-01-05 06:19:15.07	76.00	6.70	-54.4	-57.3	13.1	0.00e+00	0	27	0	60817408	75	4897
2026-01-05 06:19:16.07	75.92	6.76	-54.4	-57.2	13.2	0.00e+00	0	27	0	62914560	75	4855
2026-01-05 06:19:17.07	75.84	6.83	-54.4	-57.2	13.2	0.00e+00	0	27	0	65011712	75	4855
2026-01-05 06:19:18.07	75.75	6.89	-54.4	-57.2	13.2	0.00e+00	0	27	0	67108864	75	4856
2026-01-05 06:19:19.07	75.67	6.96	-54.4	-57.2	13.2	0.00e+00	0	27	0	68157440	75	4835
2026-01-05 06:19:20.07	75.59	7.03	-54.4	-57.3	13.1	0.00e+00	0	27	0	70254592	75	4894
2026-01-05 06:19:21.06	75.50	7.09	-54.4	-57.2	13.2	0.00e+00	0	27	0	72351744	75	4854
2026-01-05 06:19:22.07	75.42	7.16	-54.4	-57.3	13.2	0.00e+00	0	27	0	74448896	75	4891
2026-01-05 06:19:23.06	75.33	7.22	-54.4	-57.3	13.2	0.00e+00	0	27	0	76546048	75	4898
2026-01-05 06:19:24.05	75.25	7.29	-54.4	-57.3	13.1	0.00e+00	0	27	0	77594624	75	4898
2026-01-05 06:19:25.04	75.17	7.36	-54.4	-57.3	13.2	0.00e+00	0	27	0	79691776	75	4875
2026-01-05 06:19:26.04	75.08	7.42	-54.4	-57.3	13.2	0.00e+00	0	27	0	81788928	75	4890
2026-01-05 06:19:27.04	74.99	7.49	-54.5	-57.4	13.1	0.00e+00	0	27	0	83886080	75	4927
2026-01-05 06:19:28.04	74.91	7.56	-54.5	-57.3	13.2	0.00e+00	0	27	0	84934656	75	4900
2026-01-05 06:19:29.03	74.82	7.62	-54.4	-57.2	13.2	0.00e+00	0	27	0	87031808	75	4847
2026-01-05 06:19:30.03	74.73	7.69	-54.4	-57.2	13.2	0.00e+00	0	27	0	89128960	75	4859
2026-01-05 06:19:31.03	74.64	7.76	-54.4	-57.2	13.2	0.00e+00	0	27	0	91226112	75	4852
2026-01-05 06:19:32.04	74.55	7.82	-54.4	-57.1	13.3	0.00e+00	0	27	0	93323264	75	4811
2026-01-05 06:19:33.04	74.46	7.89	-54.3	-57.0	13.4	0.00e+00	0	27	0	94371840	75	4726
2026-01-05 06:19:34.04	74.37	7.96	-54.3	-57.0	13.3	0.00e+00	0	27	0	96468992	75	4743
2026-01-05 06:19:35.04	74.28	8.03	-54.2	-56.9	13.4	0.00e+00	0	27	0	98566144	75	4671
2026-01-05 06:19:36.04	74.19	8.09	-54.3	-57.0	13.4	0.00e+00	0	27	0	100663296	75	4719
2026-01-05 06:19:37.04	74.10	8.16	-54.3	-57.0	13.4	0.00e+00	0	27	0	101711872	75	4720
2026-01-05 06:19:38.03	74.01	8.23	-54.2	-56.9	13.4	0.00e+00	0	27	0	103809024	75	4685
2026-01-05 06:19:39.03	73.92	8.30	-54.2	-56.9	13.4	0.00e+00	0	27	0	105906176	75	4699
2026-01-05 06:19:40.03	73.83	8.37	-54.2	-56.8	13.5	0.00e+00	0	27	0	108003328	75	4636
2026-01-05 06:19:41.02	73.74	8.43	-54.2	-56.9	13.4	0.00e+00	0	27	0	110100480	75	4671
2026-01-05 06:19:42.02	73.64	8.50	-54.2	-56.9	13.4	0.00e+00	0	27	0	111149056	74	4944
2026-01-05 06:19:43.01	73.55	8.57	-54.2	-56.9	13.3	0.00e+00	0	27	0	113246208	74	4945
2026-01-05 06:19:44.01	73.46	8.64	-54.3	-57.0	13.3	0.00e+00	0	27	0	115343360	74	5009
2026-01-05 06:19:45.01	73.36	8.71	-54.2	-56.9	13.3	0.00e+00	0	27	0	117440512	74	4970
2026-01-05 06:19:46.01	73.27	8.78	-54.3	-57.1	13.2	0.00e+00	0	27	0	119537664	74	5060
2026-01-05 06:19:47.01	73.17	8.85	-54.3	-57.0	13.3	0.00e+00	0	27	0	120586240	74	5026
2026-01-05 06:19:48.00	73.08	8.91	-54.4	-57.1	13.3	0.00e+00	0	27	0	122683392	74	5062
2026-01-05 06:19:49.00	72.98	8.98	-54.2	-56.9	13.4	0.00e+00	0	27	0	124780544	74	4938
2026-01-05 06:19:50.00	72.89	9.05	-54.2	-56.8	13.4	0.00e+00	0	27	0	126877696	74	4886
2026-01-05 06:19:50.99	72.79	9.12	-54.2	-56.8	13.4	0.00e+00	0	27	0	127926272	74	4896
2026-01-05 06:19:52.00	72.69	9.19	-54.2	-56.8	13.4	0.00e+00	0	27	0	130023424	74	4902
2026-01-05 06:19:53.00	72.59	9.26	-54.2	-56.9	13.4	0.00e+00	0	27	0	132120576	74	4948
2026-01-05 06:19:54.00	72.49	9.33	-54.2	-56.9	13.4	0.00e+00	0	27	0	134217728	74	4931
2026-01-05 06:19:55.00	72.40	9.40	-54.3	-56.9	13.3	0.00e+00	0	27	0	136314880	74	4967
2026-01-05 06:19:55.99	72.30	9.47	-54.2	-56.9	13.4	0.00e+00	0	27	0	137363456	74	4949
2026-01-05 06:19:56.99	72.20	9.54	-54.3	-56.9	13.4	0.00e+00	0	27	0	139460608	74	4978
2026-01-05 06:19:57.98	72.10	9.61	-54.3	-57.0	13.3	0.00e+00	0	27	0	141557760	74	5004
2026-01-05 06:19:58.98	72.00	9.68	-54.2	-56.8	13.4	0.00e+00	0	27	0	143654912	74	4891
2026-01-05 06:19:59.99	71.89	9.75	-54.2	-56.9	13.4	0.00e+00	0	27	0	145752064	74	4937
2026-01-05 06:20:00.99	71.79	9.82	-54.1	-56.8	13.5	0.00e+00	0	27	0	146800640	74	4871
2026-01-05 06:20:01.99	71.69	9.89	-54.0	-56.6	13.6	0.00e+00	0	27	0	148897792	74	4778
2026-01-05 06:20:02.99	71.59	9.96	-53.9	-56.7	13.6	0.00e+00	0	27	0	150994944	74	4837
2026-01-05 06:20:03.98	71.48	10.03	-53.4	-56.6	13.6	0.00e+00	0	27	0	153092096	73	5042
2026-01-05 06:20:04.98	71.38	10.10	-53.1	-56.5	13.6	0.00e+00	0	27	0	154140672	72	5325
2026-01-05 06:20:05.97	71.28	10.17	-53.4	-56.5	13.5	0.00e+00	0	27	0	156237824	72	5334
2026-01-05 06:20:06.97	71.17	10.25	-53.8	-56.4	13.5	0.00e+00	0	27	0	158334976	72	5276
2026-01-05 06:20:07.96	71.07	10.32	-53.9	-56.3	13.5	0.00e+00	0	27	0	160432128	72	5206
2026-01-05 06:20:08.96	70.96	10.39	-53.8	-56.3	13.5	0.00e+00	0	27	0	162529280	72	5196
2026-01-05 06:20:09.96	70.85	10.46	-53.8	-56.3	13.5	0.00e+00	0	27	0	163577856	72	5192
2026-01-05 06:20:10.95	70.75	10.53	-53.7	-56.1	13.6	0.00e+00	0	27	0	165675008	72	5077
2026-01-05 06:20:11.95	70.64	10.60	-53.7	-56.1	13.6	0.00e+00	0	27	0	167772160	72	5084
2026-01-05 06:20:12.94	70.53	10.67	-53.8	-56.2	13.6	0.00e+00	0	27	0	169869312	72	5102
2026-01-05 06:20:13.93	70.42	10.74	-53.8	-56.2	13.6	0.00e+00	0	27	0	170917888	72	5124
2026-01-05 06:20:14.93	70.31	10.82	-53.8	-56.1	13.6	0.00e+00	0	27	0	173015040	72	5091
2026-01-05 06:20:15.93	70.20	10.89	-53.8	-56.1	13.6	0.00e+00	0	27	0	175112192	72	5090
2026-01-05 06:20:16.92	70.09	10.96	-53.8	-56.1	13.6	0.00e+00	0	27	0	177209344	72	5099
2026-01-05 06:20:17.91	69.98	11.03	-53.7	-56.1	13.6	0.00e+00	0	27	0	179306496	72	5073
2026-01-05 06:20:18.91	69.87	11.10	-53.8	-56.2	13.6	0.00e+00	0	27	0	180355072	72	5112
2026-01-05 06:20:19.91	69.76	11.18	-53.7	-56.1	13.6	0.00e+00	0	27	0	182452224	72	5093
2026-01-05 06:20:20.91	69.65	11.25	-53.7	-56.1	13.7	0.00e+00	0	27	0	184549376	72	5075
2026-01-05 06:20:21.90	69.53	11.32	-53.8	-56.2	13.6	0.00e+00	0	27	0	186646528	72	5122
2026-01-05 06:20:22.89	69.42	11.39	-53.8	-56.2	13.6	0.00e+00	0	27	0	187695104	72	5152
2026-01-05 06:20:23.89	69.31	11.47	-53.9	-56.3	13.6	0.00e+00	0	27	0	189792256	72	5176
2026-01-05 06:20:24.88	69.19	11.54	-53.9	-56.3	13.5	0.00e+00	0	27	0	191889408	72	5197
2026-01-05 06:20:25.88	69.08	11.61	-53.8	-56.2	13.6	0.00e+00	0	27	0	193986560	72	5148
2026-01-05 06:20:26.86	68.96	11.68	-53.8	-56.2	13.6	0.00e+00	0	27	0	196083712	72	5127
2026-01-05 06:20:27.87	68.85	11.76	-53.9	-56.3	13.7	0.00e+00	0	27	0	197132288	73	4889
2026-01-05 06:20:28.87	68.73	11.83	-53.9	-56.3	13.6	0.00e+00	0	27	0	199229440	73	4912
2026-01-05 06:20:29.86	68.61	11.90	-53.8	-56.1	13.7	0.00e+00	0	27	0	201326592	73	4807
2026-01-05 06:20:30.85	68.49	11.98	-53.8	-56.1	13.7	0.00e+00	0	27	0	203423744	73	4808
2026-01-05 06:20:31.85	68.37	12.05	-53.8	-56.1	13.8	0.00e+00	0	27	0	205520896	73	4804
2026-01-05 06:20:32.85	68.25	12.12	-53.8	-56.2	13.7	0.00e+00	0	27	0	206569472	73	4815
2026-01-05 06:20:33.85	68.13	12.20	-53.7	-56.1	13.8	0.00e+00	0	27	0	208666624	73	4760
2026-01-05 06:20:34.85	68.01	12.27	-53.6	-55.9	13.9	0.00e+00	0	27	0	210763776	73	4688
2026-01-05 06:20:35.84	67.89	12.35	-53.7	-56.0	13.8	0.00e+00	0	27	0	212860928	73	4749
2026-01-05 06:20:36.84	67.77	12.42	-53.6	-55.9	13.9	0.00e+00	0	27	0	213909504	73	4678
2026-01-05 06:20:37.84	67.65	12.50	-53.5	-55.8	13.9	0.00e+00	0	27	0	216006656	73	4619
2026-01-05 06:20:38.83	67.52	12.57	-53.6	-55.8	13.9	0.00e+00	0	27	0	218103808	73	4629
2026-01-05 06:20:39.83	67.40	12.64	-53.6	-55.9	13.9	0.00e+00	0	27	0	220200960	73	4673
2026-01-05 06:20:40.83	67.27	12.72	-53.5	-55.8	14.0	0.00e+00	0	27	0	222298112	73	4599
2026-01-05 06:20:41.83	67.15	12.79	-53.5	-55.8	13.9	0.00e+00	0	27	0	223346688	73	4610
2026-01-05 06:20:42.83	67.02	12.87	-53.6	-55.8	14.0	0.00e+00	0	27	0	225443840	73	4615
2026-01-05 06:20:43.83	66.90	12.94	-53.6	-55.8	13.9	0.00e+00	0	27	0	227540992	73	4629
2026-01-05 06:20:44.83	66.77	13.02	-53.6	-55.8	13.9	0.00e+00	0	27	0	229638144	73	4651
2026-01-05 06:20:45.83	66.64	13.09	-53.5	-55.7	13.9	0.00e+00	0	27	0	231735296	73	4592
2026-01-05 06:20:46.82	66.51	13.17	-53.5	-55.8	14.0	0.00e+00	0	27	0	232783872	73	4615
2026-01-05 06:20:47.82	66.38	13.24	-53.5	-55.7	14.0	0.00e+00	0	27	0	234881024	73	4572
2026-01-05 06:20:48.82	66.25	13.32	-53.4	-55.5	14.1	0.00e+00	0	27	0	236978176	73	4493
2026-01-05 06:20:49.83	66.12	13.39	-53.4	-55.5	14.1	0.00e+00	0	27	0	239075328	73	4485
2026-01-05 06:20:50.83	65.99	13.47	-53.4	-55.6	14.0	0.00e+00	0	27	0	240123904	73	4542
2026-01-05 06:20:51.83	65.86	13.55	-53.4	-55.5	14.1	0.00e+00	0	27	0	242221056	73	4477
2026-01-05 06:20:52.83	65.72	13.62	-53.3	-55.4	14.1	0.00e+00	0	27	0	244318208	73	4435
2026-01-05 06:20:53.83	65.59	13.70	-53.4	-55.6	14.0	0.00e+00	0	27	0	246415360	73	4510
2026-01-05 06:20:54.83	65.45	13.77	-53.2	-55.3	14.2	0.00e+00	0	27	0	248512512	73	4376
2026-01-05 06:20:55.83	65.32	13.85	-53.3	-55.3	14.2	0.00e+00	0	27	0	249561088	73	4389
2026-01-05 06:20:56.83	65.18	13.92	-53.3	-55.4	14.2	0.00e+00	0	27	0	251658240	73	4415
2026-01-05 06:20:57.83	65.05	14.00	-53.3	-55.5	14.1	0.00e+00	0	27	0	253755392	73	4446
2026-01-05 06:20:58.83	64.91	14.08	-53.3	-55.5	14.1	0.00e+00	0	27	0	255852544	73	4455
2026-01-05 06:20:59.83	64.77	14.15	-53.3	-55.5	14.1	0.00e+00	0	27	0	257949696	73	4456
2026-01-05 06:21:00.83	64.63	14.23	-53.4	-55.5	14.1	0.00e+00	0	27	0	258998272	73	4485
2026-01-05 06:21:01.83	64.49	14.31	-53.5	-55.7	14.0	0.00e+00	0	27	0	261095424	73	4549
2026-01-05 06:21:02.82	64.35	14.38	-53.4	-55.5	14.1	0.00e+00	0	27	0	263192576	73	4463
2026-01-05 06:21:03.82	64.21	14.46	-53.3	-55.4	14.2	0.00e+00	0	27	0	265289728	73	4398
2026-01-05 06:21:04.82	64.07	14.53	-53.3	-55.4	14.1	0.00e+00	0	27	0	266338304	73	4433
2026-01-05 06:21:05.82	63.93	14.61	-53.3	-55.4	14.2	0.00e+00	0	27	0	268435456	73	4408
2026-01-05 06:21:06.81	63.79	14.69	-53.2	-55.3	14.2	0.00e+00	0	27	0	270532608	73	4366
2026-01-05 06:21:07.81	63.64	14.76	-53.1	-55.2	14.1	0.00e+00	0	27	0	272629760	72	4565
2026-01-05 06:21:08.81	63.50	14.84	-53.1	-55.2	14.2	0.00e+00	0	27	0	274726912	72	4549
2026-01-05 06:21:09.81	63.35	14.92	-53.1	-55.1	14.2	0.00e+00	0	27	0	275775488	72	4535
2026-01-05 06:21:10.81	63.21	14.99	-53.1	-55.1	14.2	0.00e+00	0	27	0	277872640	72	4534
2026-01-05 06:21:11.81	63.06	15.07	-53.1	-55.1	14.2	0.00e+00	0	27	0	279969792	72	4535
2026-01-05 06:21:12.80	62.91	15.15	-53.0	-55.0	14.2	0.00e+00	0	27	0	282066944	72	4479
2026-01-05 06:21:13.80	62.77	15.22	-52.9	-54.9	14.3	0.00e+00	0	27	0	284164096	72	4428
2026-01-05 06:21:14.79	62.62	15.30	-52.9	-54.8	14.3	0.00e+00	0	27	0	285212672	72	4390
2026-01-05 06:21:15.79	62.47	15.38	-52.9	-54.9	14.3	0.00e+00	0	27	0	287309824	72	4422
2026-01-05 06:21:16.79	62.32	15.46	-52.9	-54.8	14.3	0.00e+00	0	27	0	289406976	72	4374
2026-01-05 06:21:17.78	62.17	15.53	-52.9	-54.9	14.3	0.00e+00	0	27	0	291504128	72	4399
2026-01-05 06:21:18.79	62.01	15.61	-53.0	-55.0	14.3	0.00e+00	0	27	0	292552704	72	4464
2026-01-05 06:21:19.78	61.86	15.69	-53.0	-55.0	14.3	0.00e+00	0	27	0	294649856	72	4452
2026-01-05 06:21:20.78	61.71	15.76	-53.0	-55.0	14.3	0.00e+00	0	27	0	296747008	72	4479
2026-01-05 06:21:21.77	61.55	15.84	-53.1	-55.1	14.2	0.00e+00	0	27	0	298844160	72	4527
2026-01-05 06:21:22.77	61.40	15.92	-53.1	-55.2	14.2	0.00e+00	0	27	0	300941312	72	4562
2026-01-05 06:21:23.78	61.24	16.00	-53.2	-55.2	14.1	0.00e+00	0	27	0	301989888	72	4591
2026-01-05 06:21:24.78	61.08	16.07	-53.2	-55.3	14.1	0.00e+00	0	27	0	304087040	72	4609
2026-01-05 06:21:25.77	60.93	16.15	-53.1	-55.2	14.2	0.00e+00	0	27	0	306184192	72	4568
2026-01-05 06:21:26.77	60.77	16.23	-53.2	-55.3	14.1	0.00e+00	0	27	0	308281344	72	4601
2026-01-05 06:21:27.76	60.61	16.30	-53.2	-55.2	14.1	0.00e+00	0	27	0	310378496	72	4594
2026-01-05 06:21:28.76	60.45	16.38	-53.3	-55.4	14.1	0.00e+00	0	27	0	311427072	72	4659
2026-01-05 06:21:29.75	60.29	16.46	-53.2	-55.3	14.1	0.00e+00	0	27	0	313524224	72	4611
2026-01-05 06:21:30.75	60.13	16.54	-53.3	-55.4	14.1	0.00e+00	0	27	0	315621376	72	4660
2026-01-05 06:21:31.75	59.96	16.61	-53.2	-55.2	14.2	0.00e+00	0	27	0	317718528	72	4574
2026-01-05 06:21:32.75	59.80	16.69	-53.2	-55.3	14.1	0.00e+00	0	27	0	318767104	72	4616
2026-01-05 06:21:33.74	59.63	16.77	-53.2	-55.2	14.2	0.00e+00	0	27	0	320864256	72	4589
2026-01-05 06:21:34.75	59.47	16.85	-53.2	-55.3	14.1	0.00e+00	0	27	0	322961408	72	4618
2026-01-05 06:21:35.75	59.30	16.92	-53.3	-55.4	14.1	0.00e+00	0	27	0	325058560	72	4674
2026-01-05 06:21:36.75	59.13	17.00	-53.3	-55.4	14.1	0.00e+00	0	27	0	327155712	72	4652
2026-01-05 06:21:37.75	58.96	17.08	-53.3	-55.4	14.0	0.00e+00	0	27	0	328204288	72	4705
2026-01-05 06:21:38.75	58.80	17.16	-53.2	-55.3	14.1	0.00e+00	0	28	0	330301440	72	4618
2026-01-05 06:21:39.74	58.63	17.23	-53.2	-55.2	14.2	0.00e+00	0	27	0	332398592	72	4595
2026-01-05 06:21:40.74	58.46	17.31	-53.2	-55.3	14.2	0.00e+00	0	27	0	334495744	72	4602
2026-01-05 06:21:41.74	58.28	17.39	-53.3	-55.3	14.1	0.00e+00	0	27	0	335544320	72	4637
2026-01-05 06:21:42.73	58.11	17.46	-53.2	-55.2	14.1	0.00e+00	0	27	0	337641472	72	4591
2026-01-05 06:21:43.74	57.94	17.54	-53.3	-55.3	14.1	0.00e+00	0	27	0	339738624	72	4640
2026-01-05 06:21:44.73	57.76	17.62	-53.2	-55.3	14.1	0.00e+00	0	27	0	341835776	72	4628
2026-01-05 06:21:45.73	57.59	17.70	-53.2	-55.3	14.1	0.00e+00	0	27	0	343932928	72	4612
2026-01-05 06:21:46.73	57.41	17.77	-53.4	-55.5	14.1	0.00e+00	0	27	0	344981504	72	4708
2026-01-05 06:21:47.74	57.23	17.85	-53.4	-55.5	14.0	0.00e+00	0	27	0	347078656	72	4743
2026-01-05 06:21:48.75	57.05	17.93	-53.5	-55.7	13.9	0.00e+00	0	27	0	349175808	72	4851
2026-01-05 06:21:49.74	56.88	18.01	-53.5	-55.7	13.9	0.00e+00	0	27	0	351272960	72	4847
2026-01-05 06:21:50.74	56.70	18.08	-53.6	-55.7	13.9	0.00e+00	0	28	0	353370112	72	4868
2026-01-05 06:21:51.75	56.51	18.16	-53.5	-55.6	14.0	0.00e+00	0	27	0	354418688	72	4802
2026-01-05 06:21:52.74	56.33	18.24	-53.5	-55.7	13.9	0.00e+00	0	27	0	356515840	72	4850
2026-01-05 06:21:53.74	56.15	18.31	-53.5	-55.6	14.0	0.00e+00	0	27	0	358612992	72	4790
2026-01-05 06:21:54.74	55.97	18.39	-53.4	-55.5	14.0	0.00e+00	0	27	0	360710144	72	4730
2026-01-05 06:21:55.74	55.78	18.47	-53.4	-55.5	14.0	0.00e+00	0	27	0	362807296	72	4752
2026-01-05 06:21:56.73	55.60	18.54	-53.3	-55.4	14.1	0.00e+00	0	27	0	363855872	72	4693
2026-01-05 06:21:57.72	55.41	18.62	-53.2	-55.3	14.2	0.00e+00	0	27	0	365953024	72	4621
2026-01-05 06:21:58.72	55.22	18.70	-53.2	-55.2	14.1	0.00e+00	0	27	0	368050176	72	4588
2026-01-05 06:21:59.72	55.04	18.77	-53.1	-55.1	14.2	0.00e+00	0	27	0	370147328	72	4521
2026-01-05 06:22:00.72	54.85	18.85	-53.2	-55.2	14.2	0.00e+00	0	27	0	371195904	72	4593
2026-01-05 06:22:01.72	54.66	18.93	-53.1	-55.1	14.2	0.00e+00	0	27	0	373293056	72	4530
2026-01-05 06:22:02.72	54.46	19.00	-53.1	-55.1	14.2	0.00e+00	0	27	0	375390208	72	4496
2026-01-05 06:22:03.72	54.27	19.08	-53.1	-55.0	14.2	0.00e+00	0	27	0	377487360	72	4486
2026-01-05 06:22:04.72	54.08	19.15	-53.1	-55.0	14.3	0.00e+00	0	27	0	379584512	72	4492
2026-01-05 06:22:05.71	53.89	19.23	-53.0	-55.0	14.3	0.00e+00	0	27	0	380633088	72	4467
2026-01-05 06:22:06.71	53.69	19.31	-52.9	-54.8	14.4	0.00e+00	0	27	0	382730240	72	4380
2026-01-05 06:22:07.71	53.49	19.38	-52.9	-54.9	14.3	0.00e+00	0	27	0	384827392	72	4400
2026-01-05 06:22:08.70	53.30	19.46	-53.0	-55.0	14.3	0.00e+00	0	27	0	386924544	72	4448
2026-01-05 06:22:09.70	53.10	19.53	-52.9	-54.8	14.4	0.00e+00	0	27	0	389021696	72	4371
2026-01-05 06:22:10.70	52.90	19.61	-52.9	-54.8	14.4	0.00e+00	0	27	0	390070272	72	4390
2026-01-05 06:22:11.70	52.70	19.68	-52.8	-54.7	14.4	0.00e+00	0	27	0	392167424	72	4298
2026-01-05 06:22:12.69	52.50	19.76	-52.8	-54.7	14.4	0.00e+00	0	27	0	394264576	72	4301
2026-01-05 06:22:13.69	52.30	19.83	-52.7	-54.6	14.4	0.00e+00	0	27	0	396361728	71	4508
2026-01-05 06:22:14.68	52.10	19.90	-52.6	-54.4	14.5	0.00e+00	0	27	0	397410304	71	4419
2026-01-05 06:22:15.69	51.89	19.98	-52.5	-54.3	14.5	0.00e+00	0	27	0	399507456	71	4359
2026-01-05 06:22:16.67	51.69	20.05	-52.5	-54.4	14.4	0.00e+00	0	28	0	401604608	71	4407
2026-01-05 06:22:17.65	51.49	20.13	-52.3	-54.1	14.6	0.00e+00	0	27	0	403701760	71	4261
2026-01-05 06:22:18.65	51.28	20.20	-52.1	-53.8	14.6	0.00e+00	0	27	0	405798912	70	4353
2026-01-05 06:22:19.64	51.07	20.27	-52.0	-53.8	14.6	0.00e+00	0	27	0	406847488	70	4343
2026-01-05 06:22:20.64	50.86	20.35	-51.9	-53.6	14.6	0.00e+00	0	27	0	408944640	70	4277
2026-01-05 06:22:21.64	50.65	20.42	-52.0	-53.7	14.6	0.00e+00	0	28	0	411041792	70	4295
2026-01-05 06:22:22.64	50.44	20.49	-51.9	-53.5	14.7	0.00e+00	0	27	0	413138944	70	4240
2026-01-05 06:22:23.64	50.23	20.57	-51.7	-53.4	14.7	0.00e+00	0	27	0	414187520	70	4160
2026-01-05 06:22:24.63	50.02	20.64	-51.5	-53.2	14.7	0.00e+00	0	28	0	416284672	69	4293
2026-01-05 06:22:25.63	49.80	20.71	-51.4	-53.0	14.8	0.00e+00	0	27	0	418381824	69	4212
2026-01-05 06:22:26.62	49.59	20.78	-51.4	-52.9	14.8	0.00e+00	0	28	0	420478976	69	4185
2026-01-05 06:22:27.62	49.37	20.85	-51.4	-53.0	14.8	0.00e+00	0	27	0	422576128	69	4198
2026-01-05 06:22:28.62	49.16	20.93	-51.3	-52.9	14.8	0.00e+00	0	28	0	423624704	69	4180
2026-01-05 06:22:29.62	48.94	21.00	-51.5	-53.0	14.8	0.00e+00	0	28	0	425721856	69	4234
2026-01-05 06:22:30.63	48.72	21.07	-51.5	-53.1	14.8	0.00e+00	0	27	0	427819008	69	4288
2026-01-05 06:22:31.62	48.50	21.14	-51.5	-53.1	14.8	0.00e+00	0	27	0	429916160	69	4258
2026-01-05 06:22:32.62	48.28	21.21	-51.4	-53.0	14.8	0.00e+00	0	27	0	430964736	69	4213
2026-01-05 06:22:33.62	48.05	21.28	-51.5	-53.2	14.8	0.00e+00	0	27	0	433061888	69	4292
2026-01-05 06:22:34.63	47.83	21.35	-51.4	-53.0	14.8	0.00e+00	0	27	0	435159040	69	4216
2026-01-05 06:22:35.64	47.60	21.42	-51.3	-52.8	14.9	0.00e+00	0	27	0	437256192	69	4130
2026-01-05 06:22:36.63	47.38	21.49	-51.3	-52.8	14.8	0.00e+00	0	27	0	439353344	69	4136
2026-01-05 06:22:37.63	47.15	21.56	-51.2	-52.8	14.9	0.00e+00	0	27	0	440401920	69	4111
2026-01-05 06:22:38.63	46.92	21.63	-51.3	-52.9	14.9	0.00e+00	0	27	0	442499072	69	4156
2026-01-05 06:22:39.64	46.69	21.70	-51.2	-52.8	14.9	0.00e+00	0	27	0	444596224	69	4111
2026-01-05 06:22:40.64	46.46	21.77	-51.2	-52.8	14.8	0.00e+00	0	27	0	446693376	68	4357
2026-01-05 06:22:41.64	46.23	21.84	-51.2	-52.8	14.8	0.00e+00	0	27	0	448790528	68	4341
2026-01-05 06:22:42.64	46.00	21.91	-51.1	-52.7	14.8	0.00e+00	0	27	0	449839104	68	4293
2026-01-05 06:22:43.64	45.77	21.98	-51.2	-52.7	14.8	0.00e+00	0	27	0	451936256	68	4335
2026-01-05 06:22:44.64	45.53	22.04	-51.0	-52.6	14.8	0.00e+00	0	27	0	454033408	68	4243
2026-01-05 06:22:45.64	45.30	22.11	-51.1	-52.7	14.8	0.00e+00	0	27	0	456130560	68	4307
2026-01-05 06:22:46.64	45.06	22.18	-51.1	-52.7	14.8	0.00e+00	0	27	0	458227712	68	4300
2026-01-05 06:22:47.63	44.83	22.24	-51.1	-52.6	14.9	0.00e+00	0	27	0	459276288	68	4263
2026-01-05 06:22:48.63	44.59	22.31	-51.2	-52.8	14.8	0.00e+00	0	28	0	461373440	68	4350
2026-01-05 06:22:49.63	44.35	22.37	-51.3	-52.8	14.8	0.00e+00	0	27	0	463470592	68	4391
2026-01-05 06:22:50.63	44.11	22.44	-51.4	-52.9	14.7	0.00e+00	0	28	0	465567744	68	4435
2026-01-05 06:22:51.63	43.87	22.50	-51.4	-52.9	14.7	0.00e+00	0	28	0	466616320	68	4436
2026-01-05 06:22:52.62	43.63	22.57	-51.4	-53.0	14.7	0.00e+00	0	27	0	468713472	68	4447
2026-01-05 06:22:53.62	43.39	22.63	-51.5	-53.1	14.7	0.00e+00	0	27	0	470810624	68	4520
2026-01-05 06:22:54.62	43.14	22.70	-51.5	-53.1	14.6	0.00e+00	0	27	0	472907776	68	4529
2026-01-05 06:22:55.62	42.90	22.76	-51.5	-53.1	14.6	0.00e+00	0	27	0	475004928	68	4528
2026-01-05 06:22:56.62	42.65	22.82	-51.6	-53.2	14.6	0.00e+00	0	27	0	476053504	68	4562
2026-01-05 06:22:57.62	42.40	22.89	-51.5	-53.1	14.7	0.00e+00	0	27	0	478150656	68	4496
2026-01-05 06:22:58.61	42.16	22.95	-51.4	-53.0	14.7	0.00e+00	0	27	0	480247808	68	4453
2026-01-05 06:22:59.61	41.91	23.01	-51.5	-53.0	14.7	0.00e+00	0	27	0	482344960	68	4491
2026-01-05 06:23:00.61	41.66	23.07	-51.5	-53.2	14.6	0.00e+00	0	27	0	484442112	68	4547
2026-01-05 06:23:01.61	41.41	23.13	-51.5	-53.2	14.6	0.00e+00	0	27	0	485490688	68	4547
2026-01-05 06:23:02.60	41.16	23.19	-51.5	-53.1	14.6	0.00e+00	0	27	0	487587840	68	4509
2026-01-05 06:23:03.60	40.90	23.25	-51.5	-53.1	14.6	0.00e+00	0	28	0	489684992	68	4522
2026-01-05 06:23:04.60	40.65	23.31	-51.5	-53.1	14.7	0.00e+00	0	27	0	491782144	68	4519
2026-01-05 06:23:05.60	40.40	23.37	-51.2	-52.8	14.8	0.00e+00	0	27	0	493879296	68	4359
2026-01-05 06:23:06.60	40.14	23.43	-51.3	-52.9	14.7	0.00e+00	0	27	0	494927872	68	4400
2026-01-05 06:23:07.60	39.88	23.48	-51.3	-52.8	14.7	0.00e+00	0	27	0	497025024	68	4381
2026-01-05 06:23:08.60	39.62	23.54	-51.3	-52.8	14.8	0.00e+00	0	27	0	499122176	68	4377
2026-01-05 06:23:09.59	39.37	23.60	-51.3	-52.9	14.7	0.00e+00	0	27	0	501219328	68	4414
2026-01-05 06:23:10.59	39.11	23.65	-51.2	-52.8	14.8	0.00e+00	0	27	0	502267904	68	4354
2026-01-05 06:23:11.58	38.85	23.71	-51.2	-52.7	14.8	0.00e+00	0	27	0	504365056	68	4328
2026-01-05 06:23:12.58	38.59	23.77	-51.2	-52.7	14.8	0.00e+00	0	27	0	506462208	68	4324
2026-01-05 06:23:13.58	38.33	23.82	-51.2	-52.7	14.8	0.00e+00	0	27	0	508559360	68	4328
2026-01-05 06:23:14.58	38.06	23.87	-51.2	-52.7	14.8	0.00e+00	0	27	0	510656512	68	4324
2026-01-05 06:23:15.57	37.80	23.93	-51.1	-52.7	14.8	0.00e+00	0	27	0	511705088	68	4300
2026-01-05 06:23:16.57	37.54	23.98	-51.0	-52.5	14.9	0.00e+00	0	28	0	513802240	68	4226
2026-01-05 06:23:17.56	37.27	24.03	-50.9	-52.4	14.9	0.00e+00	0	27	0	515899392	68	4172
2026-01-05 06:23:18.56	37.01	24.09	-51.0	-52.5	14.9	0.00e+00	0	27	0	517996544	68	4215
2026-01-05 06:23:19.56	36.74	24.14	-51.0	-52.5	14.9	0.00e+00	0	27	0	519045120	68	4219
2026-01-05 06:23:20.55	36.47	24.19	-50.9	-52.4	14.9	0.00e+00	0	27	0	521142272	68	4178
2026-01-05 06:23:21.55	36.20	24.24	-50.8	-52.3	15.0	0.00e+00	0	27	0	523239424	68	4129
2026-01-05 06:23:22.54	35.93	24.29	-50.9	-52.3	15.0	0.00e+00	0	27	0	525336576	68	4133
2026-01-05 06:23:23.54	35.66	24.34	-50.9	-52.3	15.0	0.00e+00	0	27	0	527433728	68	4137
2026-01-05 06:23:24.55	35.39	24.38	-51.1	-52.6	14.9	0.00e+00	0	27	0	528482304	68	4261
2026-01-05 06:23:25.54	35.12	24.43	-51.2	-52.7	14.8	0.00e+00	0	27	0	530579456	68	4313
2026-01-05 06:23:26.54	34.84	24.48	-51.3	-52.8	14.8	0.00e+00	0	27	0	532676608	68	4379
2026-01-05 06:23:27.54	34.57	24.53	-51.4	-52.9	14.7	0.00e+00	0	27	0	534773760	68	4425
2026-01-05 06:23:28.54	34.29	24.57	-51.4	-53.0	14.7	0.00e+00	0	27	0	535822336	68	4445
2026-01-05 06:23:29.53	34.02	24.62	-51.5	-53.1	14.7	0.00e+00	0	27	0	537919488	68	4513
2026-01-05 06:23:30.53	33.74	24.66	-51.5	-53.0	14.7	0.00e+00	0	27	0	540016640	68	4490
2026-01-05 06:23:31.53	33.46	24.71	-51.5	-53.1	14.7	0.00e+00	0	27	0	542113792	68	4544
2026-01-05 06:23:32.53	33.19	24.75	-51.5	-53.0	14.7	0.00e+00	0	27	0	544210944	68	4488
2026-01-05 06:23:33.52	32.91	24.79	-51.5	-53.1	14.7	0.00e+00	0	27	0	545259520	68	4499
2026-01-05 06:23:34.52	32.63	24.83	-51.4	-52.9	14.7	0.00e+00	0	27	0	547356672	68	4441
2026-01-05 06:23:35.53	32.34	24.88	-51.5	-53.1	14.6	0.00e+00	0	28	0	549453824	68	4532
2026-01-05 06:23:36.53	32.06	24.92	-51.7	-53.3	14.6	0.00e+00	0	27	0	551550976	68	4642
2026-01-05 06:23:37.52	31.78	24.96	-51.9	-53.6	14.6	0.00e+00	0	27	0	553648128	69	4527
2026-01-05 06:23:38.53	31.50	25.00	-52.0	-53.7	14.6	0.00e+00	0	27	0	554696704	69	4564
2026-01-05 06:23:39.53	31.21	25.03	-52.1	-53.8	14.5	0.00e+00	0	27	0	556793856	69	4602
2026-01-05 06:23:40.54	30.93	25.07	-52.1	-53.7	14.5	0.00e+00	0	27	0	558891008	69	4594
2026-01-05 06:23:41.54	30.64	25.11	-52.1	-53.8	14.5	0.00e+00	0	27	0	560988160	69	4625
2026-01-05 06:23:42.53	30.36	25.15	-52.3	-54.0	14.4	0.00e+00	0	27	0	562036736	69	4747
2026-01-05 06:23:43.53	30.07	25.18	-52.5	-54.3	14.4	0.00e+00	0	27	0	564133888	70	4614
2026-01-05 06:23:44.53	29.78	25.22	-52.5	-54.3	14.4	0.00e+00	0	27	0	566231040	70	4638
2026-01-05 06:23:45.53	29.50	25.25	-52.5	-54.2	14.4	0.00e+00	0	27	0	568328192	70	4597
2026-01-05 06:23:46.53	29.21	25.28	-52.5	-54.2	14.4	0.00e+00	0	27	0	570425344	70	4594
2026-01-05 06:23:47.52	28.92	25.32	-52.5	-54.3	14.4	0.00e+00	0	27	0	571473920	70	4636
2026-01-05 06:23:48.52	28.63	25.35	-52.7	-54.5	14.3	0.00e+00	0	27	0	573571072	70	4757
2026-01-05 06:23:49.51	28.34	25.38	-52.9	-54.8	14.2	0.00e+00	0	27	0	575668224	70	4876
2026-01-05 06:23:50.51	28.05	25.41	-52.8	-54.7	14.3	0.00e+00	0	27	0	577765376	70	4817
2026-01-05 06:23:51.51	27.76	25.44	-52.7	-54.5	14.3	0.00e+00	0	27	0	579862528	70	4724
2026-01-05 06:23:52.51	27.47	25.47	-52.7	-54.5	14.3	0.00e+00	0	27	0	580911104	70	4727
2026-01-05 06:23:53.51	27.18	25.50	-52.7	-54.6	14.3	0.00e+00	0	27	0	583008256	70	4766
2026-01-05 06:23:54.50	26.89	25.52	-52.8	-54.7	14.3	0.00e+00	0	27	0	585105408	70	4822
2026-01-05 06:23:55.50	26.59	25.55	-52.8	-54.7	14.3	0.00e+00	0	27	0	587202560	70	4832
2026-01-05 06:23:56.50	26.30	25.57	-52.9	-54.7	14.3	0.00e+00	0	27	0	589299712	70	4867
2026-01-05 06:23:57.51	26.00	25.60	-52.9	-54.8	14.3	0.00e+00	0	28	0	590348288	70	4889
2026-01-05 06:23:58.50	25.71	25.62	-52.8	-54.6	14.3	0.00e+00	0	27	0	592445440	70	4806
2026-01-05 06:23:59.50	25.42	25.65	-52.8	-54.7	14.2	0.00e+00	0	27	0	594542592	70	4861
2026-01-05 06:24:00.51	25.12	25.67	-53.1	-55.0	14.3	0.00e+00	0	27	0	596639744	71	4734
2026-01-05 06:24:01.51	24.82	25.69	-53.1	-55.1	14.2	0.00e+00	0	28	0	597688320	71	4777
2026-01-05 06:24:02.51	24.53	25.71	-53.1	-55.1	14.2	0.00e+00	0	28	0	599785472	71	4769
2026-01-05 06:24:03.51	24.23	25.73	-53.1	-55.1	14.2	0.00e+00	0	27	0	601882624	71	4768
2026-01-05 06:24:04.51	23.93	25.75	-53.1	-55.1	14.2	0.00e+00	0	27	0	603979776	71	4760
2026-01-05 06:24:05.50	23.64	25.77	-53.0	-54.9	14.3	0.00e+00	0	27	0	606076928	71	4699
2026-01-05 06:24:06.51	23.34	25.79	-53.1	-55.1	14.2	0.00e+00	0	27	0	607125504	71	4764
2026-01-05 06:24:07.50	23.04	25.80	-53.1	-55.0	14.2	0.00e+00	0	27	0	609222656	71	4723
2026-01-05 06:24:08.50	22.74	25.82	-53.1	-55.0	14.2	0.00e+00	0	27	0	611319808	71	4750
2026-01-05 06:24:09.50	22.44	25.83	-53.0	-54.9	14.3	0.00e+00	0	27	0	613416960	71	4698
2026-01-05 06:24:10.50	22.14	25.85	-52.9	-54.8	14.3	0.00e+00	0	27	0	615514112	71	4626
2026-01-05 06:24:11.50	21.84	25.86	-53.1	-55.0	14.2	0.00e+00	0	27	0	616562688	71	4719
2026-01-05 06:24:12.50	21.54	25.87	-53.2	-55.1	14.2	0.00e+00	0	27	0	618659840	71	4812
2026-01-05 06:24:13.49	21.25	25.88	-53.4	-55.4	14.1	0.00e+00	0	27	0	620756992	71	4972
2026-01-05 06:24:14.49	20.95	25.90	-53.4	-55.4	14.2	0.00e+00	0	27	0	622854144	72	4664
2026-01-05 06:24:15.49	20.65	25.90	-53.3	-55.2	14.3	0.00e+00	0	28	0	623902720	72	4582
2026-01-05 06:24:16.49	20.35	25.91	-53.1	-55.1	14.3	0.00e+00	0	27	0	625999872	72	4505
2026-01-05 06:24:17.48	20.05	25.92	-53.1	-55.0	14.3	0.00e+00	0	27	0	628097024	72	4458
2026-01-05 06:24:18.47	19.75	25.93	-53.0	-54.8	14.4	0.00e+00	0	27	0	630194176	72	4384
2026-01-05 06:24:19.48	19.45	25.94	-53.0	-54.9	14.5	0.00e+00	0	27	0	632291328	72	4399
2026-01-05 06:24:20.48	19.15	25.94	-53.0	-54.9	14.4	0.00e+00	0	27	0	633339904	72	4393
2026-01-05 06:24:21.47	18.85	25.95	-52.8	-54.6	14.5	0.00e+00	0	27	0	635437056	72	4266
2026-01-05 06:24:22.47	18.55	25.95	-52.7	-54.5	14.5	0.00e+00	0	27	0	637534208	71	4463
2026-01-05 06:24:23.47	18.25	25.95	-52.7	-54.5	14.4	0.00e+00	0	27	0	639631360	71	4458
2026-01-05 06:24:24.47	17.95	25.95	-52.7	-54.6	14.4	0.00e+00	0	28	0	640679936	71	4502
2026-01-05 06:24:25.47	17.64	25.96	-52.6	-54.4	14.5	0.00e+00	0	27	0	642777088	71	4422
2026-01-05 06:24:26.47	17.34	25.96	-52.6	-54.4	14.5	0.00e+00	0	27	0	644874240	71	4392
2026-01-05 06:24:27.47	17.04	25.95	-52.5	-54.2	14.6	0.00e+00	0	27	0	646971392	71	4328
2026-01-05 06:24:28.47	16.74	25.95	-52.5	-54.2	14.6	0.00e+00	0	28	0	649068544	71	4335
2026-01-05 06:24:29.47	16.44	25.95	-52.2	-53.9	14.7	0.00e+00	0	27	0	650117120	71	4160
2026-01-05 06:24:30.47	16.14	25.95	-52.0	-53.7	14.7	0.00e+00	0	28	0	652214272	70	4303
2026-01-05 06:24:31.47	15.84	25.94	-52.0	-53.7	14.7	0.00e+00	0	28	0	654311424	70	4305
2026-01-05 06:24:32.47	15.54	25.94	-52.0	-53.6	14.7	0.00e+00	0	27	0	656408576	70	4277
2026-01-05 06:24:33.48	15.23	25.93	-51.9	-53.5	14.8	0.00e+00	0	27	0	658505728	70	4237
2026-01-05 06:24:34.49	14.93	25.93	-51.9	-53.5	14.8	0.00e+00	0	27	0	659554304	70	4203
2026-01-05 06:24:35.49	14.63	25.92	-51.8	-53.5	14.8	0.00e+00	0	28	0	661651456	70	4205
2026-01-05 06:24:36.49	14.33	25.91	-51.9	-53.5	14.8	0.00e+00	0	28	0	663748608	70	4211
2026-01-05 06:24:37.49	14.03	25.90	-51.8	-53.4	14.8	0.00e+00	0	28	0	665845760	70	4163
2026-01-05 06:24:38.49	13.73	25.89	-51.6	-53.2	14.8	0.00e+00	0	28	0	667942912	69	4318
2026-01-05 06:24:39.49	13.43	25.88	-51.6	-53.3	14.8	0.00e+00	0	28	0	668991488	69	4341
2026-01-05 06:24:40.49	13.13	25.87	-51.6	-53.1	14.8	0.00e+00	0	28	0	671088640	69	4279
2026-01-05 06:24:41.49	12.83	25.85	-51.4	-52.9	14.9	0.00e+00	0	28	0	673185792	69	4193
2026-01-05 06:24:42.49	12.53	25.84	-51.5	-53.0	14.9	0.00e+00	0	27	0	675282944	69	4220
2026-01-05 06:24:43.48	12.23	25.83	-51.3	-52.9	14.9	0.00e+00	0	27	0	676331520	69	4148
2026-01-05 06:24:44.48	11.93	25.81	-51.2	-52.7	14.8	0.00e+00	0	27	0	678428672	68	4303
2026-01-05 06:24:45.48	11.64	25.80	-51.2	-52.8	14.8	0.00e+00	0	27	0	680525824	68	4347
2026-01-05 06:24:46.48	11.34	25.78	-51.0	-52.5	14.9	0.00e+00	0	27	0	682622976	68	4216
2026-01-05 06:24:47.47	11.04	25.76	-51.0	-52.5	14.9	0.00e+00	0	27	0	684720128	68	4228
2026-01-05 06:24:48.47	10.75	25.74	-51.0	-52.5	14.9	0.00e+00	0	27	0	685768704	68	4196
2026-01-05 06:24:49.47	10.45	25.72	-51.0	-52.5	14.9	0.00e+00	0	27	0	687865856	68	4214
2026-01-05 06:24:50.46	10.15	25.70	-51.0	-52.5	14.9	0.00e+00	0	27	0	689963008	68	4228
2026-01-05 06:24:51.46	9.86	25.68	-51.1	-52.5	14.9	0.00e+00	0	27	0	692060160	68	4240
2026-01-05 06:24:52.46	9.56	25.66	-51.1	-52.7	14.8	0.00e+00	0	27	0	694157312	68	4298
2026-01-05 06:24:53.46	9.27	25.64	-51.0	-52.5	14.9	0.00e+00	0	28	0	695205888	68	4238
2026-01-05 06:24:54.46	8.97	25.61	-51.0	-52.4	14.9	0.00e+00	0	27	0	697303040	68	4185
2026-01-05 06:24:55.44	8.68	25.59	-50.9	-52.4	15.0	0.00e+00	0	27	0	699400192	68	4156
2026-01-05 06:24:56.44	8.39	25.56	-50.9	-52.3	15.0	0.00e+00	0	27	0	701497344	68	4145
2026-01-05 06:24:57.43	8.10	25.54	-50.9	-52.4	15.0	0.00e+00	0	27	0	702545920	68	4147
2026-01-05 06:24:58.43	7.81	25.51	-51.0	-52.5	14.9	0.00e+00	0	27	0	704643072	68	4230
2026-01-05 06:24:59.43	7.51	25.48	-51.1	-52.6	14.8	0.00e+00	0	27	0	706740224	68	4284
2026-01-05 06:25:00.42	7.22	25.46	-51.3	-52.8	14.8	0.00e+00	0	28	0	708837376	68	4373
2026-01-05 06:25:01.42	6.93	25.43	-51.4	-53.0	14.7	0.00e+00	0	27	0	710934528	68	4453
2026-01-05 06:25:02.43	6.64	25.40	-51.4	-53.0	14.7	0.00e+00	0	27	0	711983104	68	4446
2026-01-05 06:25:03.43	6.35	25.37	-51.4	-52.9	14.7	0.00e+00	0	28	0	714080256	68	4440
2026-01-05 06:25:04.43	6.06	25.33	-51.3	-52.9	14.7	0.00e+00	0	27	0	716177408	68	4420
2026-01-05 06:25:05.43	5.77	25.30	-51.3	-52.8	14.8	0.00e+00	0	27	0	718274560	68	4383
2026-01-05 06:25:06.44	5.48	25.27	-51.3	-52.8	14.8	0.00e+00	0	27	0	720371712	68	4354
2026-01-05 06:25:07.44	5.19	25.23	-51.4	-52.9	14.7	0.00e+00	0	27	0	721420288	68	4424
2026-01-05 06:25:08.43	4.91	25.20	-51.5	-53.1	14.7	0.00e+00	0	27	0	723517440	68	4496
2026-01-05 06:25:09.43	4.62	25.16	-51.6	-53.2	14.7	0.00e+00	0	27	0	725614592	68	4558
2026-01-05 06:25:10.43	4.33	25.13	-51.7	-53.3	14.6	0.00e+00	0	27	0	727711744	68	4630
2026-01-05 06:25:11.43	4.05	25.09	-51.7	-53.3	14.6	0.00e+00	0	27	0	728760320	68	4614
2026-01-05 06:25:12.43	3.76	25.05	-51.8	-53.4	14.6	0.00e+00	0	27	0	730857472	68	4671
2026-01-05 06:25:13.42	3.48	25.02	-51.9	-53.6	14.5	0.00e+00	0	27	0	732954624	68	4761
2026-01-05 06:25:14.42	3.20	24.98	-52.1	-53.7	14.5	0.00e+00	0	28	0	735051776	69	4589
2026-01-05 06:25:15.41	2.92	24.94	-51.9	-53.5	14.7	0.00e+00	0	28	0	737148928	69	4452
2026-01-05 06:25:16.41	2.64	24.90	-51.7	-53.3	14.7	0.00e+00	0	27	0	738197504	69	4367
2026-01-05 06:25:17.40	2.36	24.86	-51.9	-53.5	14.6	0.00e+00	0	27	0	740294656	69	4460
2026-01-05 06:25:18.39	2.08	24.82	-51.9	-53.6	14.6	0.00e+00	0	27	0	742391808	69	4512
2026-01-05 06:25:19.39	1.80	24.77	-52.0	-53.7	14.6	0.00e+00	0	27	0	744488960	69	4582
2026-01-05 06:25:20.39	1.52	24.73	-52.2	-53.9	14.5	0.00e+00	0	27	0	745537536	69	4692
2026-01-05 06:25:21.38	1.25	24.69	-52.4	-54.1	14.4	0.00e+00	0	27	0	747634688	69	4806
2026-01-05 06:25:22.38	0.97	24.64	-52.5	-54.2	14.4	0.00e+00	0	27	0	749731840	70	4595
2026-01-05 06:25:23.38	0.69	24.60	-52.6	-54.3	14.4	0.00e+00	0	27	0	751828992	70	4650
2026-01-05 06:25:24.36	0.42	24.55	-52.6	-54.5	14.4	0.00e+00	0	27	0	753926144	70	4707
2026-01-05 06:25:25.37	0.14	24.51	-52.6	-54.4	14.4	0.00e+00	0	28	0	754974720	70	4698
2026-01-05 06:25:26.36	359.87	24.46	-52.6	-54.4	14.4	0.00e+00	0	28	0	757071872	70	4700
2026-01-05 06:25:27.36	359.60	24.41	-52.6	-54.3	14.4	0.00e+00	0	27	0	759169024	70	4648
2026-01-05 06:25:28.35	359.33	24.37	-52.6	-54.4	14.4	0.00e+00	0	27	0	761266176	70	4676
2026-01-05 06:25:29.35	359.06	24.32	-52.7	-54.5	14.3	0.00e+00	0	28	0	763363328	70	4757
2026-01-05 06:25:30.35	358.79	24.27	-52.7	-54.5	14.3	0.00e+00	0	28	0	764411904	70	4751
2026-01-05 06:25:31.34	358.52	24.22	-52.7	-54.5	14.3	0.00e+00	0	28	0	766509056	70	4752
2026-01-05 06:25:32.34	358.25	24.17	-52.8	-54.6	14.3	0.00e+00	0	27	0	768606208	70	4801
2026-01-05 06:25:33.33	357.99	24.12	-52.8	-54.7	14.3	0.00e+00	0	27	0	770703360	70	4820
2026-01-05 06:25:34.33	357.72	24.07	-52.9	-54.8	14.3	0.00e+00	0	27	0	771751936	70	4894
2026-01-05 06:25:35.32	357.45	24.01	-53.1	-55.0	14.2	0.00e+00	0	28	0	773849088	71	4755
2026-01-05 06:25:36.33	357.19	23.96	-53.1	-55.0	14.2	0.00e+00	0	28	0	775946240	71	4749
2026-01-05 06:25:37.32	356.92	23.91	-53.1	-55.0	14.2	0.00e+00	0	28	0	778043392	71	4734
2026-01-05 06:25:38.33	356.66	23.85	-52.9	-54.8	14.3	0.00e+00	0	28	0	780140544	71	4633
2026-01-05 06:25:39.32	356.40	23.80	-53.0	-54.8	14.3	0.00e+00	0	28	0	781189120	71	4651
2026-01-05 06:25:40.32	356.14	23.74	-52.8	-54.6	14.4	0.00e+00	0	28	0	783286272	71	4530
2026-01-05 06:25:41.32	355.88	23.69	-52.7	-54.5	14.4	0.00e+00	0	28	0	785383424	71	4488
2026-01-05 06:25:42.33	355.61	23.63	-52.7	-54.5	14.4	0.00e+00	0	28	0	787480576	71	4478
2026-01-05 06:25:43.33	355.35	23.58	-52.7	-54.5	14.5	0.00e+00	0	27	0	788529152	71	4472
2026-01-05 06:25:44.33	355.10	23.52	-52.7	-54.5	14.4	0.00e+00	0	27	0	790626304	71	4490
2026-01-05 06:25:45.33	354.84	23.46	-52.8	-54.7	14.4	0.00e+00	0	27	0	792723456	71	4555
2026-01-05 06:25:46.32	354.58	23.40	-53.0	-54.8	14.3	0.00e+00	0	28	0	794820608	71	4644
2026-01-05 06:25:47.32	354.33	23.35	-53.0	-54.9	14.3	0.00e+00	0	28	0	796917760	71	4703
2026-01-05 06:25:48.32	354.07	23.29	-53.2	-55.2	14.1	0.00e+00	0	28	0	797966336	71	4826
2026-01-05 06:25:49.31	353.82	23.23	-53.2	-55.1	14.2	0.00e+00	0	28	0	800063488	71	4795
2026-01-05 06:25:50.32	353.57	23.17	-53.1	-55.0	14.2	0.00e+00	0	27	0	802160640	71	4758
2026-01-05 06:25:51.32	353.32	23.11	-53.0	-54.9	14.3	0.00e+00	0	28	0	804257792	71	4679
2026-01-05 06:25:52.31	353.07	23.05	-53.0	-54.9	14.3	0.00e+00	0	27	0	806354944	71	4662
2026-01-05 06:25:53.31	352.82	22.98	-52.8	-54.6	14.4	0.00e+00	0	28	0	807403520	71	4545
2026-01-05 06:25:54.31	352.57	22.92	-52.9	-54.8	14.3	0.00e+00	0	27	0	809500672	71	4625
2026-01-05 06:25:55.31	352.33	22.86	-53.0	-54.9	14.3	0.00e+00	0	28	0	811597824	71	4653
2026-01-05 06:25:56.31	352.08	22.80	-53.0	-54.9	14.3	0.00e+00	0	27	0	813694976	71	4705
2026-01-05 06:25:57.30	351.84	22.74	-52.9	-54.8	14.3	0.00e+00	0	28	0	815792128	71	4634
2026-01-05 06:25:58.30	351.59	22.67	-52.8	-54.6	14.4	0.00e+00	0	27	0	816840704	71	4545
2026-01-05 06:25:59.29	351.35	22.61	-52.7	-54.5	14.4	0.00e+00	0	27	0	818937856	71	4482
2026-01-05 06:26:00.29	351.11	22.54	-52.6	-54.4	14.5	0.00e+00	0	28	0	821035008	71	4438
2026-01-05 06:26:01.30	350.86	22.48	-52.6	-54.4	14.5	0.00e+00	0	27	0	823132160	71	4403
2026-01-05 06:26:02.29	350.63	22.42	-52.6	-54.4	14.5	0.00e+00	0	27	0	824180736	71	4393
2026-01-05 06:26:03.29	350.39	22.35	-52.5	-54.2	14.6	0.00e+00	0	28	0	826277888	71	4332
2026-01-05 06:26:04.29	350.15	22.28	-52.5	-54.2	14.6	0.00e+00	0	28	0	828375040	71	4332
2026-01-05 06:26:05.29	349.91	22.22	-52.3	-54.1	14.6	0.00e+00	0	27	0	830472192	71	4256
2026-01-05 06:26:06.28	349.68	22.15	-52.3	-54.0	14.7	0.00e+00	0	28	0	832569344	71	4225
2026-01-05 06:26:07.28	349.44	22.09	-52.2	-54.0	14.7	0.00e+00	0	27	0	833617920	71	4196
2026-01-05 06:26:08.28	349.21	22.02	-52.1	-53.8	14.6	0.00e+00	0	28	0	835715072	70	4366
2026-01-05 06:26:09.28	348.97	21.95	-52.0	-53.7	14.7	0.00e+00	0	27	0	837812224	70	4317
2026-01-05 06:26:10.28	348.74	21.88	-52.1	-53.7	14.6	0.00e+00	0	27	0	839909376	70	4333
2026-01-05 06:26:11.28	348.51	21.81	-52.0	-53.6	14.7	0.00e+00	0	27	0	840957952	70	4281
2026-01-05 06:26:12.28	348.28	21.75	-51.9	-53.6	14.7	0.00e+00	0	27	0	843055104	70	4257
2026-01-05 06:26:13.28	348.05	21.68	-52.0	-53.6	14.7	0.00e+00	0	28	0	845152256	70	4284
2026-01-05 06:26:14.27	347.83	21.61	-52.0	-53.6	14.7	0.00e+00	0	28	0	847249408	70	4282
2026-01-05 06:26:15.26	347.60	21.54	-52.0	-53.7	14.7	0.00e+00	0	28	0	849346560	70	4312
2026-01-05 06:26:16.26	347.38	21.47	-51.9	-53.5	14.7	0.00e+00	0	28	0	850395136	70	4239
2026-01-05 06:26:17.26	347.15	21.40	-51.9	-53.5	14.8	0.00e+00	0	28	0	852492288	70	4213
2026-01-05 06:26:18.25	346.93	21.33	-51.9	-53.5	14.7	0.00e+00	0	28	0	854589440	70	4233
2026-01-05 06:26:19.24	346.71	21.26	-51.8	-53.5	14.8	0.00e+00	0	28	0	856686592	70	4199
2026-01-05 06:26:20.24	346.49	21.19	-51.9	-53.6	14.7	0.00e+00	0	27	0	857735168	70	4251
2026-01-05 06:26:21.24	346.27	21.12	-51.9	-53.5	14.7	0.00e+00	0	28	0	859832320	70	4222
2026-01-05 06:26:22.23	346.05	21.05	-51.9	-53.5	14.7	0.00e+00	0	27	0	861929472	70	4231
2026-01-05 06:26:23.23	345.83	20.98	-51.9	-53.6	14.7	0.00e+00	0	28	0	864026624	70	4264
2026-01-05 06:26:24.23	345.61	20.91	-51.9	-53.5	14.7	0.00e+00	0	28	0	866123776	70	4221
2026-01-05 06:26:25.23	345.39	20.83	-52.0	-53.6	14.7	0.00e+00	0	27	0	867172352	70	4283
2026-01-05 06:26:26.22	345.18	20.76	-52.0	-53.7	14.7	0.00e+00	0	28	0	869269504	70	4297
2026-01-05 06:26:27.21	344.97	20.69	-52.0	-53.6	14.7	0.00e+00	0	27	0	871366656	70	4281
2026-01-05 06:26:28.20	344.76	20.62	-52.0	-53.7	14.7	0.00e+00	0	27	0	873463808	70	4300
2026-01-05 06:26:29.20	344.54	20.55	-52.1	-53.8	14.6	0.00e+00	0	27	0	875560960	70	4350
2026-01-05 06:26:30.20	344.33	20.47	-52.1	-53.7	14.7	0.00e+00	0	27	0	876609536	70	4334
2026-01-05 06:26:31.20	344.12	20.40	-52.1	-53.8	14.6	0.00e+00	0	27	0	878706688	70	4375
2026-01-05 06:26:32.20	343.91	20.33	-52.1	-53.7	14.7	0.00e+00	0	27	0	880803840	70	4330
2026-01-05 06:26:33.20	343.70	20.25	-51.9	-53.5	14.7	0.00e+00	0	27	0	882900992	70	4225
2026-01-05 06:26:34.20	343.50	20.18	-51.8	-53.5	14.8	0.00e+00	0	28	0	884998144	70	4204
2026-01-05 06:26:35.19	343.29	20.11	-51.8	-53.4	14.8	0.00e+00	0	28	0	886046720	70	4163
2026-01-05 06:26:36.18	343.09	20.03	-51.7	-53.3	14.8	0.00e+00	0	27	0	888143872	70	4120
2026-01-05 06:26:37.17	342.88	19.96	-51.7	-53.3	14.8	0.00e+00	0	28	0	890241024	70	4114
2026-01-05 06:26:38.18	342.68	19.88	-51.5	-53.1	14.8	0.00e+00	0	27	0	892338176	69	4263
2026-01-05 06:26:39.18	342.48	19.81	-51.5	-53.1	14.8	0.00e+00	0	27	0	893386752	69	4245
2026-01-05 06:26:40.17	342.28	19.74	-51.5	-53.1	14.8	0.00e+00	0	28	0	895483904	69	4259
2026-01-05 06:26:41.17	342.08	19.66	-51.6	-53.2	14.8	0.00e+00	0	28	0	897581056	69	4295
2026-01-05 06:26:42.18	341.87	19.59	-51.6	-53.1	14.8	0.00e+00	0	28	0	899678208	69	4291
2026-01-05 06:26:43.17	341.68	19.51	-51.5	-53.0	14.8	0.00e+00	0	27	0	901775360	69	4242
2026-01-05 06:26:44.17	341.48	19.44	-51.4	-53.0	14.8	0.00e+00	0	28	0	902823936	69	4211
2026-01-05 06:26:45.17	341.28	19.36	-51.3	-52.9	14.9	0.00e+00	0	27	0	904921088	69	4160
2026-01-05 06:26:46.17	341.09	19.28	-51.3	-52.8	14.9	0.00e+00	0	28	0	907018240	69	4131
2026-01-05 06:26:47.17	340.89	19.21	-51.2	-52.8	14.9	2.20e-06	0	27	0	909115392	69	4105
2026-01-05 06:26:48.17	340.70	19.13	-51.2	-52.7	14.9	0.00e+00	0	28	0	910163968	69	4097
2026-01-05 06:26:49.17	340.51	19.06	-51.2	-52.7	14.9	2.20e-06	0	27	0	912261120	69	4079
2026-01-05 06:26:50.17	340.31	18.98	-51.1	-52.6	14.9	0.00e+00	0	28	0	914358272	68	4274
2026-01-05 06:26:51.16	340.13	18.91	-51.1	-52.6	14.8	0.00e+00	0	27	0	916455424	68	4265
2026-01-05 06:26:52.16	339.94	18.83	-50.9	-52.4	14.9	0.00e+00	0	28	0	918552576	68	4160
2026-01-05 06:26:53.16	339.75	18.75	-51.0	-52.5	14.9	0.00e+00	0	28	0	919601152	68	4230
2026-01-05 06:26:54.16	339.56	18.68	-51.0	-52.5	14.9	0.00e+00	0	28	0	921698304	68	4195
2026-01-05 06:26:55.15	339.37	18.60	-51.1	-52.6	14.9	0.00e+00	0	27	0	923795456	68	4260
2026-01-05 06:26:56.15	339.19	18.52	-51.0	-52.5	14.9	0.00e+00	0	28	0	925892608	68	4203
2026-01-05 06:26:57.16	339.00	18.45	-50.9	-52.4	14.9	0.00e+00	0	27	0	927989760	68	4178
2026-01-05 06:26:58.15	338.82	18.37	-51.0	-52.5	14.9	0.00e+00	0	27	0	929038336	68	4209
2026-01-05 06:26:59.14	338.64	18.29	-51.0	-52.5	14.9	0.00e+00	0	28	0	931135488	68	4236
2026-01-05 06:27:00.14	338.45	18.22	-51.0	-52.5	14.9	0.00e+00	0	27	0	933232640	68	4230
2026-01-05 06:27:01.12	338.28	18.14	-50.9	-52.4	14.9	0.00e+00	0	28	0	935329792	68	4172
2026-01-05 06:27:02.13	338.09	18.06	-50.9	-52.4	14.9	0.00e+00	0	28	0	936378368	68	4182
2026-01-05 06:27:03.13	337.92	17.99	-50.9	-52.3	14.9	0.00e+00	0	28	0	938475520	68	4140
2026-01-05 06:27:04.13	337.74	17.91	-50.8	-52.3	15.0	0.00e+00	0	28	0	940572672	68	4117
2026-01-05 06:27:05.13	337.56	17.83	-50.8	-52.3	15.0	0.00e+00	0	27	0	942669824	68	4120
2026-01-05 06:27:06.13	337.38	17.76	-50.8	-52.3	15.0	0.00e+00	0	28	0	944766976	68	4112
2026-01-05 06:27:07.13	337.21	17.68	-50.9	-52.3	14.9	4.50e-06	0	27	0	945815552	68	4145
2026-01-05 06:27:08.12	337.03	17.60	-50.9	-52.3	14.9	0.00e+00	0	27	0	947912704	68	4145
2026-01-05 06:27:09.12	336.86	17.53	-51.0	-52.5	14.9	0.00e+00	0	27	0	950009856	68	4199
2026-01-05 06:27:10.12	336.69	17.45	-51.0	-52.5	14.9	0.00e+00	0	28	0	952107008	68	4231
2026-01-05 06:27:11.11	336.52	17.37	-51.1	-52.6	14.8	0.00e+00	0	28	0	953155584	68	4280
2026-01-05 06:27:12.11	336.34	17.29	-51.1	-52.7	14.8	0.00e+00	0	28	0	955252736	68	4298
2026-01-05 06:27:13.10	336.18	17.22	-51.1	-52.6	14.8	0.00e+00	0	28	0	957349888	68	4280
2026-01-05 06:27:14.10	336.01	17.14	-51.1	-52.6	14.8	0.00e+00	0	27	0	959447040	68	4281
2026-01-05 06:27:15.09	335.84	17.06	-51.1	-52.6	14.8	1.50e-06	0	27	0	961544192	68	4273
2026-01-05 06:27:16.08	335.67	16.99	-51.1	-52.6	14.8	0.00e+00	0	28	0	962592768	68	4277
2026-01-05 06:27:17.08	335.51	16.91	-51.1	-52.7	14.8	0.00e+00	0	28	0	964689920	68	4308
2026-01-05 06:27:18.08	335.34	16.83	-51.2	-52.7	14.8	0.00e+00	0	27	0	966787072	68	4316
2026-01-05 06:27:19.08	335.17	16.75	-51.3	-52.8	14.8	0.00e+00	0	28	0	968884224	68	4375
2026-01-05 06:27:20.08	335.01	16.68	-51.3	-52.9	14.7	0.00e+00	0	28	0	969932800	68	4395
2026-01-05 06:27:21.07	334.85	16.60	-51.3	-52.9	14.8	0.00e+00	0	28	0	972029952	68	4400
2026-01-05 06:27:22.06	334.69	16.52	-51.4	-53.0	14.7	0.00e+00	0	27	0	974127104	68	4459
2026-01-05 06:27:23.06	334.53	16.45	-51.3	-52.8	14.8	0.00e+00	0	28	0	976224256	68	4384
2026-01-05 06:27:24.05	334.37	16.37	-51.3	-52.8	14.7	0.00e+00	0	28	0	978321408	68	4380
2026-01-05 06:27:25.04	334.21	16.29	-51.3	-52.9	14.7	0.00e+00	0	27	0	979369984	68	4418
2026-01-05 06:27:26.04	334.05	16.22	-51.3	-52.9	14.7	0.00e+00	0	27	0	981467136	68	4425
2026-01-05 06:27:27.04	333.89	16.14	-51.5	-53.1	14.6	0.00e+00	0	27	0	983564288	68	4533
2026-01-05 06:27:28.03	333.73	16.06	-51.6	-53.3	14.6	0.00e+00	0	27	0	985661440	68	4609
2026-01-05 06:27:29.03	333.58	15.98	-51.7	-53.3	14.6	0.00e+00	0	27	0	986710016	68	4647
2026-01-05 06:27:30.02	333.42	15.91	-51.8	-53.4	14.5	0.00e+00	0	28	0	988807168	68	4703
2026-01-05 06:27:31.01	333.27	15.83	-51.9	-53.6	14.6	0.00e+00	0	28	0	990904320	69	4525
2026-01-05 06:27:32.02	333.11	15.75	-51.9	-53.6	14.5	0.00e+00	0	27	0	993001472	69	4539
2026-01-05 06:27:33.01	332.96	15.68	-52.0	-53.7	14.5	0.00e+00	0	28	0	995098624	69	4590
2026-01-05 06:27:34.00	332.81	15.60	-52.1	-53.8	14.5	0.00e+00	0	28	0	996147200	69	4631
2026-01-05 06:27:35.00	332.66	15.52	-52.1	-53.9	14.5	3.80e-06	0	28	0	998244352	69	4659
2026-01-05 06:27:36.00	332.51	15.45	-52.0	-53.7	14.5	0.00e+00	0	28	0	1000341504	69	4595
2026-01-05 06:27:37.01	332.36	15.37	-52.1	-53.8	14.5	0.00e+00	0	28	0	1002438656	69	4623
2026-01-05 06:27:38.01	332.21	15.29	-52.1	-53.8	14.5	0.00e+00	0	27	0	1004535808	69	4651
2026-01-05 06:27:39.01	332.06	15.21	-52.0	-53.7	14.5	0.00e+00	0	28	0	1005584384	69	4589
2026-01-05 06:27:40.01	331.91	15.14	-52.1	-53.8	14.5	0.00e+00	0	28	0	1007681536	69	4618
2026-01-05 06:27:41.02	331.76	15.06	-52.1	-53.8	14.5	0.00e+00	0	28	0	1009778688	69	4638
2026-01-05 06:27:42.01	331.62	14.98	-52.2	-53.9	14.4	0.00e+00	0	28	0	1011875840	69	4702
2026-01-05 06:27:43.01	331.47	14.91	-52.1	-53.9	14.4	4.50e-06	0	27	0	1013972992	69	4661
2026-01-05 06:27:44.00	331.33	14.83	-52.1	-53.9	14.5	0.00e+00	0	27	0	1015021568	69	4666
2026-01-05 06:27:44.99	331.18	14.76	-52.2	-54.0	14.4	7.00e-07	0	27	0	1017118720	69	4719
2026-01-05 06:27:45.99	331.04	14.68	-52.2	-53.9	14.4	0.00e+00	0	27	0	1019215872	69	4691
2026-01-05 06:27:46.98	330.90	14.60	-52.2	-54.0	14.4	7.00e-07	0	27	0	1021313024	69	4727
2026-01-05 06:27:47.97	330.76	14.53	-52.2	-54.0	14.4	0.00e+00	0	27	0	1022361600	69	4754
2026-01-05 06:27:48.97	330.62	14.45	-52.2	-54.0	14.4	0.00e+00	0	27	0	1024458752	69	4742
2026-01-05 06:27:49.96	330.48	14.38	-52.2	-54.0	14.4	0.00e+00	0	27	0	1026555904	69	4740
2026-01-05 06:27:50.96	330.34	14.30	-52.3	-54.1	14.4	0.00e+00	0	27	0	1028653056	69	4763
2026-01-05 06:27:51.96	330.20	14.22	-52.3	-54.1	14.4	0.00e+00	0	28	0	1030750208	69	4781
2026-01-05 06:27:52.97	330.06	14.15	-52.3	-54.1	14.4	7.00e-07	0	28	0	1031798784	69	4771
2026-01-05 06:27:53.96	329.92	14.07	-52.3	-54.1	14.4	0.00e+00	0	28	0	1033895936	69	4782
2026-01-05 06:27:54.96	329.79	13.99	-52.4	-54.2	14.4	0.00e+00	0	28	0	1035993088	70	4575
2026-01-05 06:27:55.96	329.65	13.92	-52.4	-54.2	14.4	0.00e+00	0	28	0	1038090240	70	4594
2026-01-05 06:27:56.96	329.52	13.84	-52.5	-54.3	14.4	0.00e+00	0	27	0	1039138816	70	4638
2026-01-05 06:27:57.96	329.38	13.77	-52.5	-54.3	14.3	0.00e+00	0	28	0	1041235968	70	4650
2026-01-05 06:27:58.96	329.25	13.69	-52.5	-54.4	14.3	0.00e+00	0	27	0	1043333120	70	4658
2026-01-05 06:27:59.95	329.12	13.62	-52.5	-54.4	14.3	0.00e+00	0	28	0	1045430272	70	4668
2026-01-05 06:28:00.95	328.98	13.54	-52.5	-54.4	14.3	6.80e-06	0	27	0	1047527424	70	4659
2026-01-05 06:28:01.95	328.85	13.47	-52.5	-54.3	14.4	0.00e+00	0	27	0	1048576000	70	4637
2026-01-05 06:28:02.94	328.72	13.39	-52.6	-54.4	14.3	0.00e+00	0	27	0	1050673152	70	4691
2026-01-05 06:28:03.94	328.59	13.32	-52.5	-54.4	14.3	0.00e+00	0	28	0	1052770304	70	4681
2026-01-05 06:28:04.94	328.46	13.24	-52.6	-54.5	14.3	0.00e+00	0	28	0	1054867456	70	4712
2026-01-05 06:28:05.93	328.33	13.17	-52.6	-54.5	14.3	0.00e+00	0	28	0	1055916032	70	4719
2026-01-05 06:28:06.94	328.20	13.09	-52.8	-54.7	14.2	0.00e+00	0	28	0	1058013184	70	4844
2026-01-05 06:28:07.94	328.08	13.02	-52.8	-54.8	14.2	0.00e+00	0	28	0	1060110336	70	4871
2026-01-05 06:28:08.94	327.95	12.94	-52.8	-54.7	14.1	0.00e+00	0	27	0	1062207488	70	4858
2026-01-05 06:28:09.94	327.82	12.87	-52.8	-54.8	14.1	0.00e+00	0	28	0	1064304640	70	4898
2026-01-05 06:28:10.94	327.70	12.79	-52.7	-54.7	14.2	4.50e-06	0	28	0	1065353216	70	4840
2026-01-05 06:28:11.93	327.57	12.72	-52.8	-54.8	14.2	0.00e+00	0	28	0	1067450368	70	4899
2026-01-05 06:28:12.93	327.45	12.64	-52.8	-54.8	14.2	0.00e+00	0	27	0	1069547520	70	4881
2026-01-05 06:28:13.92	327.33	12.57	-52.9	-54.8	14.1	0.00e+00	0	27	0	1071644672	70	4916
2026-01-05 06:28:14.92	327.20	12.49	-52.7	-54.7	14.2	0.00e+00	0	28	0	1073741824	70	4838
2026-01-05 06:28:15.91	327.08	12.42	-52.8	-54.7	14.2	0.00e+00	0	27	0	1074790400	70	4860
2026-01-05 06:28:16.91	326.96	12.35	-52.8	-54.7	14.1	0.00e+00	0	28	0	1076887552	70	4866
2026-01-05 06:28:17.91	326.84	12.27	-52.8	-54.7	14.2	0.00e+00	0	28	0	1078984704	70	4863
2026-01-05 06:28:18.90	326.72	12.20	-52.8	-54.7	14.2	1.14e-05	0	27	0	1081081856	70	4860
2026-01-05 06:28:19.89	326.60	12.13	-52.8	-54.8	14.1	0.00e+00	0	27	0	1082130432	70	4918
2026-01-05 06:28:20.89	326.48	12.05	-52.9	-55.0	14.2	0.00e+00	0	27	0	1084227584	71	4706
2026-01-05 06:28:21.89	326.36	11.98	-53.0	-55.1	14.1	0.00e+00	0	27	0	1086324736	71	4764
2026-01-05 06:28:22.88	326.24	11.91	-53.0	-55.0	14.1	0.00e+00	0	28	0	1088421888	71	4742
2026-01-05 06:28:23.87	326.13	11.83	-53.1	-55.1	14.1	0.00e+00	0	28	0	1090519040	71	4786
2026-01-05 06:28:24.86	326.01	11.76	-53.1	-55.1	14.1	0.00e+00	0	28	0	1091567616	71	4805
2026-01-05 06:28:25.87	325.89	11.69	-53.2	-55.3	14.0	0.00e+00	0	27	0	1093664768	71	4903
2026-01-05 06:28:26.87	325.78	11.61	-53.2	-55.4	14.0	0.00e+00	0	28	0	1095761920	71	4931
2026-01-05 06:28:27.87	325.66	11.54	-53.2	-55.3	14.0	0.00e+00	0	27	0	1097859072	71	4926
2026-01-05 06:28:28.88	325.55	11.47	-53.3	-55.5	13.9	0.00e+00	0	28	0	1099956224	71	4986
2026-01-05 06:28:29.87	325.43	11.39	-53.3	-55.5	13.9	0.00e+00	0	28	0	1101004800	71	5007
2026-01-05 06:28:30.87	325.32	11.32	-53.3	-55.5	13.9	0.00e+00	0	27	0	1103101952	71	5016
2026-01-05 06:28:31.87	325.21	11.25	-53.4	-55.6	13.8	0.00e+00	0	28	0	1105199104	71	5072
2026-01-05 06:28:32.87	325.09	11.18	-53.5	-55.7	13.9	0.00e+00	0	28	0	1107296256	72	4836
2026-01-05 06:28:33.86	324.98	11.10	-53.5	-55.8	13.9	0.00e+00	0	28	0	1108344832	72	4872
2026-01-05 06:28:34.86	324.87	11.03	-53.5	-55.8	13.8	0.00e+00	0	27	0	1110441984	72	4881
2026-01-05 06:28:35.86	324.76	10.96	-53.5	-55.8	13.9	0.00e+00	0	28	0	1112539136	72	4874
2026-01-05 06:28:36.85	324.65	10.89	-53.6	-55.8	13.8	0.00e+00	0	28	0	1114636288	72	4923
2026-01-05 06:28:37.84	324.54	10.82	-53.7	-56.0	13.7	0.00e+00	0	28	0	1116733440	72	5013
2026-01-05 06:28:38.84	324.43	10.75	-53.7	-55.9	13.8	0.00e+00	0	28	0	1117782016	72	4981
2026-01-05 06:28:39.84	324.33	10.67	-53.7	-56.1	13.7	0.00e+00	0	28	0	1119879168	72	5045
2026-01-05 06:28:40.83	324.22	10.60	-53.7	-56.0	13.8	0.00e+00	0	28	0	1121976320	72	4989
2026-01-05 06:28:41.82	324.11	10.53	-53.7	-56.0	13.7	0.00e+00	0	28	0	1124073472	72	5004
2026-01-05 06:28:42.81	324.01	10.46	-53.8	-56.1	13.7	0.00e+00	0	28	0	1125122048	72	5062
2026-01-05 06:28:43.81	323.90	10.39	-53.7	-56.0	13.7	0.00e+00	0	28	0	1127219200	72	5036
2026-01-05 06:28:44.81	323.80	10.32	-53.7	-56.0	13.7	0.00e+00	0	27	0	1129316352	72	5041
2026-01-05 06:28:45.80	323.69	10.25	-53.7	-56.0	13.7	0.00e+00	0	27	0	1131413504	72	5021
2026-01-05 06:28:46.79	323.59	10.18	-53.7	-56.1	13.7	0.00e+00	0	27	0	1133510656	72	5056
2026-01-05 06:28:47.79	323.48	10.11	-53.8	-56.1	13.7	0.00e+00	0	28	0	1134559232	72	5069
2026-01-05 06:28:48.79	323.38	10.04	-53.8	-56.1	13.7	0.00e+00	0	27	0	1136656384	72	5075
2026-01-05 06:28:49.78	323.28	9.97	-53.8	-56.1	13.6	0.00e+00	0	27	0	1138753536	72	5098
2026-01-05 06:28:50.78	323.17	9.90	-53.7	-56.0	13.7	0.00e+00	0	28	0	1140850688	72	4998
2026-01-05 06:28:51.78	323.07	9.82	-53.6	-55.9	13.7	0.00e+00	0	28	0	1141899264	72	4974
2026-01-05 06:28:52.78	322.97	9.75	-53.7	-56.0	13.7	0.00e+00	0	28	0	1143996416	72	5004
2026-01-05 06:28:53.78	322.87	9.68	-53.6	-56.0	13.7	0.00e+00	0	28	0	1146093568	72	4985
2026-01-05 06:28:54.78	322.77	9.61	-53.7	-56.1	13.7	0.00e+00	0	28	0	1148190720	72	5053
2026-01-05 06:28:55.78	322.67	9.54	-53.7	-56.1	13.6	0.00e+00	0	27	0	1150287872	72	5068
2026-01-05 06:28:56.77	322.57	9.47	-53.7	-56.0	13.7	0.00e+00	0	28	0	1151336448	72	5041
2026-01-05 06:28:57.77	322.47	9.40	-53.7	-56.0	13.7	0.00e+00	0	28	0	1153433600	72	5040
2026-01-05 06:28:58.77	322.37	9.33	-53.7	-56.0	13.7	0.00e+00	0	28	0	1155530752	72	5020
2026-01-05 06:28:59.76	322.27	9.27	-53.7	-56.0	13.7	0.00e+00	0	27	0	1157627904	72	5039
2026-01-05 06:29:00.76	322.18	9.20	-53.7	-56.0	13.7	0.00e+00	0	28	0	1159725056	72	5019
2026-01-05 06:29:01.76	322.08	9.13	-53.8	-56.1	13.6	0.00e+00	0	28	0	1160773632	72	5092
2026-01-05 06:29:02.76	321.98	9.06	-53.7	-56.1	13.6	0.00e+00	0	28	0	1162870784	72	5055
2026-01-05 06:29:03.74	321.89	8.99	-53.8	-56.2	13.6	0.00e+00	0	28	0	1164967936	72	5138
2026-01-05 06:29:04.74	321.79	8.92	-53.8	-56.3	13.5	0.00e+00	0	28	0	1167065088	72	5160
2026-01-05 06:29:05.74	321.70	8.85	-53.8	-56.3	13.5	0.00e+00	0	28	0	1168113664	72	5175
2026-01-05 06:29:06.74	321.60	8.78	-54.0	-56.4	13.5	0.00e+00	0	27	0	1170210816	73	4979
2026-01-05 06:29:07.74	321.51	8.71	-54.0	-56.4	13.5	0.00e+00	0	28	0	1172307968	73	4979
2026-01-05 06:29:08.74	321.41	8.65	-54.1	-56.6	13.5	0.00e+00	0	28	0	1174405120	73	5060
2026-01-05 06:29:09.74	321.32	8.58	-54.0	-56.5	13.5	0.00e+00	0	28	0	1176502272	73	5002
2026-01-05 06:29:10.74	321.23	8.51	-54.1	-56.6	13.4	0.00e+00	0	28	0	1177550848	73	5084
2026-01-05 06:29:11.73	321.14	8.44	-54.0	-56.6	13.5	0.00e+00	0	28	0	1179648000	73	5053
2026-01-05 06:29:12.73	321.04	8.37	-54.1	-56.7	13.4	0.00e+00	0	28	0	1181745152	73	5127
2026-01-05 06:29:13.73	320.95	8.30	-54.1	-56.7	13.3	0.00e+00	0	28	0	1183842304	73	5109
2026-01-05 06:29:14.72	320.86	8.24	-54.1	-56.8	13.2	0.00e+00	0	27	0	1185939456	73	5168
2026-01-05 06:29:15.72	320.77	8.17	-54.2	-56.9	13.2	0.00e+00	0	28	0	1186988032	73	5255
2026-01-05 06:29:16.70	320.68	8.10	-54.2	-56.9	13.3	0.00e+00	0	28	0	1189085184	73	5225
2026-01-05 06:29:17.70	320.59	8.04	-54.2	-56.9	13.3	0.00e+00	0	28	0	1191182336	73	5242
2026-01-05 06:29:18.70	320.50	7.97	-54.3	-57.0	13.2	0.00e+00	0	28	0	1193279488	73	5285
2026-01-05 06:29:19.70	320.41	7.90	-54.3	-57.0	13.2	0.00e+00	0	28	0	1194328064	73	5284
2026-01-05 06:29:20.70	320.33	7.83	-54.3	-57.1	13.2	0.00e+00	0	28	0	1196425216	73	5356
2026-01-05 06:29:21.69	320.24	7.77	-54.4	-57.1	13.1	0.00e+00	0	28	0	1198522368	73	5380
2026-01-05 06:29:22.69	320.15	7.70	-54.4	-57.2	13.1	0.00e+00	0	28	0	1200619520	73	5413
2026-01-05 06:29:23.68	320.06	7.63	-54.4	-57.2	13.1	0.00e+00	0	28	0	1202716672	73	5429
2026-01-05 06:29:24.67	319.98	7.57	-54.6	-57.4	13.0	0.00e+00	0	27	0	1203765248	74	5270
2026-01-05 06:29:25.67	319.89	7.50	-54.6	-57.5	13.0	0.00e+00	0	28	0	1205862400	74	5283
2026-01-05 06:29:26.67	319.80	7.43	-54.5	-57.3	13.1	0.00e+00	0	28	0	1207959552	74	5202
2026-01-05 06:29:27.67	319.72	7.37	-54.5	-57.3	13.1	0.00e+00	0	28	0	1210056704	74	5194
2026-01-05 06:29:28.66	319.63	7.30	-54.5	-57.4	13.0	0.00e+00	0	27	0	1211105280	74	5249
2026-01-05 06:29:29.65	319.55	7.24	-54.6	-57.5	13.0	0.00e+00	0	27	0	1213202432	74	5284
2026-01-05 06:29:30.64	319.47	7.17	-54.5	-57.4	13.0	0.00e+00	0	28	0	1215299584	74	5269
2026-01-05 06:29:31.64	319.38	7.10	-54.5	-57.4	13.0	0.00e+00	0	27	0	1217396736	74	5246
