passes_logs/2026/01/05/R3.2S_Murmansk/R3.2S_Murmansk__20260105_073622_SUOMI_NPP_rec.log

#Pass ID: 20260105_073622_SUOMI NPP
#Satellite: SUOMI NPP
#Configuration: NPP
#almurnet v.1.7.20251203
#Start time: 2026-01-05 07:36:21

#Version: 2.2.20231116
#Station: R3.2S_Murmansk
#Location: 33.079688 lon 68.888172 lat
#TLE: 1 37849U 11061A   26003.96724563  .00000164  00000+0  98899-4 0  9990
#TLE: 2 37849  98.7800 306.1116 0002573  82.3190 277.8279 14.19522066735141

#Time	Az	El	Level	Level2	SNR	BER	BlckErr	Temp	State	Recorded	gain1	gain2
2026-01-05 07:36:21.63	106.23	1.96	-58.3	-74.2	3.8	1.49e+00	0	25	0	0	83	21669
2026-01-05 07:36:22.63	106.19	2.03	-58.2	-74.0	3.8	1.49e+00	0	26	104	0	81	23703
2026-01-05 07:36:23.64	106.15	2.09	-58.2	-73.9	3.8	1.49e+00	0	25	104	0	81	23517
2026-01-05 07:36:24.64	106.10	2.15	-58.2	-74.0	3.8	1.49e+00	0	25	104	0	81	23725
2026-01-05 07:36:25.64	106.06	2.21	-58.2	-74.1	3.8	1.49e+00	0	25	104	0	81	23922
2026-01-05 07:36:26.64	106.02	2.27	-58.2	-74.1	3.8	1.49e+00	0	26	104	0	81	24046
2026-01-05 07:36:27.57	105.98	2.33	-58.2	-74.2	3.8	1.49e+00	0	26	104	0	81	24184
2026-01-05 07:36:28.57	105.93	2.39	-58.2	-74.2	3.8	1.49e+00	0	26	104	0	81	24209
2026-01-05 07:36:29.57	105.89	2.45	-58.2	-74.1	3.8	1.49e+00	0	26	104	0	81	24095
2026-01-05 07:36:30.57	105.85	2.51	-58.2	-74.1	3.8	1.49e+00	0	26	104	0	81	24045
2026-01-05 07:36:31.57	105.80	2.58	-58.2	-74.1	3.8	1.49e+00	0	26	104	0	81	24117
2026-01-05 07:36:32.58	105.76	2.64	-58.2	-74.2	3.8	1.49e+00	0	26	104	0	81	24170
2026-01-05 07:36:33.59	105.71	2.70	-58.2	-74.1	3.8	1.49e+00	0	26	104	0	81	24093
2026-01-05 07:36:34.59	105.67	2.76	-58.2	-74.1	3.8	1.49e+00	0	26	104	0	81	24063
2026-01-05 07:36:35.59	105.63	2.83	-58.2	-74.1	3.8	1.49e+00	0	26	104	0	81	24033
2026-01-05 07:36:36.60	105.58	2.89	-58.2	-74.1	3.8	1.49e+00	0	26	104	0	81	24054
2026-01-05 07:36:37.60	105.53	2.95	-58.2	-74.1	3.8	1.49e+00	0	26	104	0	81	23984
2026-01-05 07:36:38.61	105.49	3.02	-58.2	-74.1	3.8	1.49e+00	0	26	104	0	81	24084
2026-01-05 07:36:39.61	105.44	3.08	-58.2	-74.2	3.8	1.49e+00	0	26	104	0	81	24169
2026-01-05 07:36:40.62	105.40	3.14	-58.2	-74.1	3.8	1.49e+00	0	26	104	0	81	24114
2026-01-05 07:36:41.62	105.35	3.21	-58.2	-74.1	3.8	1.49e+00	0	26	104	0	81	24088
2026-01-05 07:36:42.62	105.31	3.27	-58.2	-74.1	3.8	1.49e+00	0	26	104	0	81	23966
2026-01-05 07:36:43.63	105.26	3.33	-58.2	-74.0	3.8	1.49e+00	0	26	104	0	81	23807
2026-01-05 07:36:44.63	105.21	3.40	-58.2	-73.9	3.8	1.49e+00	0	26	104	0	81	23554
2026-01-05 07:36:45.63	105.17	3.46	-58.2	-73.8	3.8	1.49e+00	0	26	104	0	81	23240
2026-01-05 07:36:46.63	105.12	3.53	-58.2	-73.7	3.8	1.49e+00	0	26	104	0	81	23011
2026-01-05 07:36:47.63	105.07	3.59	-58.2	-73.7	3.8	1.49e+00	0	26	104	0	81	22995
2026-01-05 07:36:48.63	105.02	3.65	-58.2	-73.8	3.8	1.49e+00	0	26	104	0	81	23146
2026-01-05 07:36:49.63	104.98	3.72	-58.2	-73.9	3.8	1.49e+00	0	26	104	0	81	23318
2026-01-05 07:36:50.63	104.93	3.78	-58.2	-74.0	3.8	1.49e+00	0	26	104	0	81	23660
2026-01-05 07:36:51.63	104.88	3.85	-58.2	-74.1	3.8	1.49e+00	0	26	104	0	81	24092
2026-01-05 07:36:52.63	104.83	3.91	-58.2	-74.2	3.8	1.49e+00	0	26	104	0	81	24194
2026-01-05 07:36:53.64	104.78	3.98	-58.2	-74.1	3.8	1.49e+00	0	26	104	0	81	24013
2026-01-05 07:36:54.64	104.73	4.04	-58.2	-73.7	3.8	1.49e+00	0	26	104	0	81	22958
2026-01-05 07:36:55.65	104.68	4.11	-58.2	-73.2	3.8	1.49e+00	0	26	104	0	81	21677
2026-01-05 07:36:56.65	104.64	4.17	-58.1	-72.4	3.8	1.49e+00	0	26	104	0	81	19804
2026-01-05 07:36:57.65	104.59	4.24	-58.1	-71.7	3.9	1.48e+00	0	26	104	0	81	18164
2026-01-05 07:36:58.66	104.54	4.31	-58.0	-70.5	4.2	1.43e+00	0	26	0	0	81	15896
2026-01-05 07:36:59.66	104.49	4.37	-58.0	-69.7	4.5	1.34e+00	17	26	0	0	81	14519
2026-01-05 07:37:00.67	104.43	4.44	-57.9	-68.8	4.8	8.23e-01	0	26	0	2097152	81	12979
2026-01-05 07:37:01.68	104.38	4.50	-57.9	-68.4	5.0	7.18e-01	0	26	0	4194304	81	12424
2026-01-05 07:37:02.68	104.33	4.57	-57.8	-67.5	5.5	5.47e-01	0	26	0	6291456	81	11227
2026-01-05 07:37:03.68	104.28	4.64	-57.7	-66.7	6.0	3.00e-01	0	26	0	7340032	81	10291
2026-01-05 07:37:04.68	104.23	4.70	-57.6	-66.4	6.2	2.53e-01	0	26	0	9437184	81	9834
2026-01-05 07:37:05.68	104.18	4.77	-57.5	-65.5	6.9	1.51e-01	0	26	0	11534336	81	8941
2026-01-05 07:37:06.67	104.13	4.84	-57.4	-65.0	7.3	1.01e-01	0	26	0	13631488	81	8445
2026-01-05 07:37:07.66	104.08	4.90	-57.3	-64.8	7.5	6.62e-02	0	27	0	15728640	81	8181
2026-01-05 07:37:08.66	104.02	4.97	-57.3	-64.8	7.5	7.35e-02	0	26	0	16777216	81	8188
2026-01-05 07:37:09.65	103.97	5.04	-57.3	-64.8	7.5	5.71e-02	0	27	0	18874368	81	8228
2026-01-05 07:37:10.64	103.92	5.10	-57.1	-63.4	8.7	2.87e-02	0	27	0	20971520	80	7439
2026-01-05 07:37:11.63	103.87	5.17	-56.3	-60.9	10.9	3.08e-03	0	27	0	23068672	79	5901
2026-01-05 07:37:12.63	103.82	5.24	-58.1	-68.5	5.2	9.47e-04	0	26	0	24117248	81	12539
2026-01-05 07:37:13.63	103.76	5.30	-57.8	-65.3	7.6	1.14e+00	0	26	0	26214400	81	8741
2026-01-05 07:37:14.62	103.71	5.37	-55.6	-59.3	12.0	1.87e-02	0	27	0	28311552	77	5489
2026-01-05 07:37:15.61	103.66	5.44	-55.9	-59.9	11.5	4.42e-05	0	27	0	29360128	77	5904
2026-01-05 07:37:16.60	103.60	5.51	-55.5	-59.1	12.0	6.10e-06	0	27	0	31457280	77	5386
2026-01-05 07:37:17.59	103.55	5.57	-55.5	-59.2	12.0	0.00e+00	0	27	0	33554432	77	5459
2026-01-05 07:37:18.58	103.49	5.64	-55.1	-58.3	12.5	0.00e+00	0	27	0	35651584	76	5207
2026-01-05 07:37:19.59	103.44	5.71	-55.0	-58.3	12.5	0.00e+00	0	27	0	36700160	76	5215
2026-01-05 07:37:20.57	103.38	5.78	-54.7	-57.8	12.9	0.00e+00	0	27	0	38797312	76	4879
2026-01-05 07:37:21.57	103.33	5.85	-54.9	-58.1	12.6	0.00e+00	0	27	0	40894464	76	5050
2026-01-05 07:37:22.56	103.27	5.92	-54.7	-57.8	12.9	0.00e+00	0	27	0	42991616	76	4902
2026-01-05 07:37:23.55	103.22	5.98	-54.6	-57.7	12.7	0.00e+00	0	27	0	44040192	75	5159
2026-01-05 07:37:24.55	103.16	6.05	-54.7	-57.9	12.7	0.00e+00	0	27	0	46137344	75	5221
2026-01-05 07:37:25.54	103.10	6.12	-54.7	-57.8	12.7	0.00e+00	0	26	0	48234496	75	5211
2026-01-05 07:37:26.54	103.05	6.19	-54.6	-57.6	12.8	0.00e+00	0	27	0	50331648	75	5095
2026-01-05 07:37:27.54	102.99	6.26	-54.7	-57.8	12.7	0.00e+00	0	27	0	52428800	75	5188
2026-01-05 07:37:28.54	102.93	6.33	-54.7	-57.9	12.6	0.00e+00	0	27	0	53477376	75	5223
2026-01-05 07:37:29.53	102.87	6.40	-54.6	-57.7	12.7	0.00e+00	0	27	0	55574528	75	5157
2026-01-05 07:37:30.53	102.82	6.47	-54.4	-57.3	13.0	0.00e+00	0	27	0	57671680	75	4913
2026-01-05 07:37:31.51	102.76	6.54	-54.5	-57.4	12.9	0.00e+00	0	27	0	59768832	75	4981
2026-01-05 07:37:32.50	102.70	6.61	-54.2	-56.9	13.2	0.00e+00	0	27	0	60817408	74	4958
2026-01-05 07:37:33.50	102.64	6.68	-54.0	-56.6	13.4	0.00e+00	0	27	0	62914560	74	4799
2026-01-05 07:37:34.49	102.58	6.75	-54.0	-56.7	13.3	0.00e+00	0	27	0	65011712	74	4815
2026-01-05 07:37:35.49	102.52	6.82	-54.1	-56.8	13.3	0.00e+00	0	27	0	67108864	74	4875
2026-01-05 07:37:36.48	102.46	6.89	-54.0	-56.6	13.3	0.00e+00	0	27	0	69206016	74	4800
2026-01-05 07:37:37.46	102.41	6.96	-54.0	-56.7	13.3	0.00e+00	0	27	0	70254592	74	4843
2026-01-05 07:37:38.46	102.34	7.04	-53.9	-56.5	13.4	0.00e+00	0	27	0	72351744	74	4720
2026-01-05 07:37:39.46	102.28	7.11	-54.0	-56.6	13.4	0.00e+00	0	27	0	74448896	74	4793
2026-01-05 07:37:40.45	102.22	7.18	-53.9	-56.6	13.3	0.00e+00	0	27	0	76546048	74	4772
2026-01-05 07:37:41.44	102.16	7.25	-54.1	-56.8	13.3	0.00e+00	0	27	0	77594624	74	4875
2026-01-05 07:37:42.44	102.10	7.32	-54.0	-56.7	13.3	0.00e+00	0	27	0	79691776	74	4850
2026-01-05 07:37:43.44	102.04	7.39	-54.0	-56.7	13.3	0.00e+00	0	27	0	81788928	74	4851
2026-01-05 07:37:44.43	101.98	7.47	-54.0	-56.7	13.3	0.00e+00	0	27	0	83886080	74	4825
2026-01-05 07:37:45.43	101.91	7.54	-53.9	-56.5	13.4	0.00e+00	0	27	0	85983232	74	4730
2026-01-05 07:37:46.41	101.85	7.61	-53.6	-56.0	13.6	0.00e+00	0	27	0	87031808	73	4756
2026-01-05 07:37:47.41	101.79	7.68	-53.8	-56.3	13.4	0.00e+00	0	27	0	89128960	73	4923
2026-01-05 07:37:48.40	101.72	7.76	-53.8	-56.3	13.4	0.00e+00	0	27	0	91226112	73	4895
2026-01-05 07:37:49.40	101.66	7.83	-53.7	-56.2	13.5	0.00e+00	0	27	0	93323264	73	4860
2026-01-05 07:37:50.39	101.60	7.90	-53.6	-56.0	13.6	0.00e+00	0	27	0	94371840	73	4749
2026-01-05 07:37:51.39	101.53	7.98	-53.5	-56.0	13.6	0.00e+00	0	27	0	96468992	73	4743
2026-01-05 07:37:52.38	101.47	8.05	-53.5	-56.3	13.4	0.00e+00	0	27	0	98566144	72	5171
2026-01-05 07:37:53.38	101.40	8.12	-53.4	-56.1	13.4	0.00e+00	0	27	0	100663296	72	5079
2026-01-05 07:37:54.37	101.34	8.20	-53.3	-56.0	13.5	0.00e+00	0	27	0	102760448	72	4984
2026-01-05 07:37:55.36	101.27	8.27	-53.5	-56.2	13.4	0.00e+00	0	27	0	103809024	72	5147
2026-01-05 07:37:56.36	101.20	8.35	-53.7	-56.6	13.2	0.00e+00	0	27	0	105906176	72	5347
2026-01-05 07:37:57.36	101.14	8.42	-53.5	-56.3	13.3	0.00e+00	0	27	0	108003328	72	5216
2026-01-05 07:37:58.36	101.07	8.50	-53.5	-56.3	13.3	0.00e+00	0	27	0	110100480	72	5203
2026-01-05 07:37:59.36	101.00	8.57	-53.5	-56.3	13.3	0.00e+00	0	27	0	112197632	72	5205
2026-01-05 07:38:00.37	100.93	8.65	-53.4	-56.2	13.4	0.00e+00	0	27	0	113246208	72	5118
2026-01-05 07:38:01.36	100.87	8.72	-53.4	-56.1	13.4	0.00e+00	0	27	0	115343360	72	5098
2026-01-05 07:38:02.36	100.80	8.80	-53.2	-55.8	13.6	0.00e+00	0	27	0	117440512	72	4916
2026-01-05 07:38:03.36	100.73	8.88	-53.2	-55.9	13.5	0.00e+00	0	27	0	119537664	72	4971
2026-01-05 07:38:04.36	100.66	8.95	-53.3	-56.1	13.4	0.00e+00	0	27	0	120586240	72	5067
2026-01-05 07:38:05.36	100.59	9.03	-53.5	-56.3	13.4	0.00e+00	0	27	0	122683392	72	5188
2026-01-05 07:38:06.36	100.52	9.11	-53.4	-56.2	13.4	0.00e+00	0	27	0	124780544	72	5128
2026-01-05 07:38:07.36	100.45	9.18	-53.5	-56.4	13.3	0.00e+00	0	27	0	126877696	72	5220
2026-01-05 07:38:08.35	100.38	9.26	-53.4	-56.3	13.4	0.00e+00	0	27	0	128974848	72	5178
2026-01-05 07:38:09.34	100.31	9.33	-53.6	-56.6	13.2	0.00e+00	0	27	0	130023424	72	5376
2026-01-05 07:38:10.34	100.23	9.41	-53.2	-55.9	13.6	0.00e+00	0	27	0	132120576	72	4958
2026-01-05 07:38:11.34	100.16	9.49	-53.5	-56.3	13.4	0.00e+00	0	27	0	134217728	72	5211
2026-01-05 07:38:12.34	100.09	9.57	-53.4	-56.4	13.3	0.00e+00	0	27	0	136314880	72	5228
2026-01-05 07:38:13.34	100.02	9.65	-53.4	-56.3	13.4	0.00e+00	0	27	0	137363456	72	5188
2026-01-05 07:38:14.34	99.94	9.72	-53.2	-55.9	13.6	0.00e+00	0	27	0	139460608	72	4969
2026-01-05 07:38:15.33	99.87	9.80	-53.2	-55.9	13.6	0.00e+00	0	27	0	141557760	72	4946
2026-01-05 07:38:16.33	99.80	9.88	-53.3	-56.0	13.5	0.00e+00	0	27	0	143654912	72	5030
2026-01-05 07:38:17.33	99.72	9.96	-53.2	-55.9	13.6	0.00e+00	0	27	0	145752064	72	4971
2026-01-05 07:38:18.33	99.65	10.04	-53.1	-55.8	13.7	0.00e+00	0	27	0	146800640	72	4883
2026-01-05 07:38:19.32	99.57	10.12	-53.4	-56.2	13.4	0.00e+00	0	27	0	148897792	72	5134
2026-01-05 07:38:20.32	99.49	10.20	-53.2	-55.9	13.6	0.00e+00	0	27	0	150994944	72	4940
2026-01-05 07:38:21.32	99.42	10.28	-53.2	-55.8	13.7	0.00e+00	0	27	0	153092096	72	4925
2026-01-05 07:38:22.32	99.34	10.36	-53.1	-55.8	13.7	0.00e+00	0	27	0	155189248	72	4916
2026-01-05 07:38:23.32	99.26	10.44	-53.1	-55.8	13.7	0.00e+00	0	27	0	156237824	72	4901
2026-01-05 07:38:24.32	99.19	10.52	-53.1	-55.7	13.7	0.00e+00	0	27	0	158334976	72	4834
2026-01-05 07:38:25.32	99.11	10.60	-53.2	-55.9	13.6	0.00e+00	0	27	0	160432128	72	4957
2026-01-05 07:38:26.32	99.03	10.68	-53.0	-55.5	13.8	0.00e+00	0	27	0	162529280	72	4734
2026-01-05 07:38:27.31	98.95	10.76	-53.0	-55.5	13.8	0.00e+00	0	27	0	164626432	72	4755
2026-01-05 07:38:28.32	98.87	10.84	-52.7	-55.1	14.0	0.00e+00	0	27	0	165675008	72	4540
2026-01-05 07:38:29.31	98.79	10.92	-52.7	-55.2	13.9	0.00e+00	0	27	0	167772160	71	4825
2026-01-05 07:38:30.32	98.71	11.00	-52.7	-55.1	13.9	0.00e+00	0	27	0	169869312	71	4806
2026-01-05 07:38:31.32	98.63	11.08	-52.6	-55.0	14.0	0.00e+00	0	27	0	171966464	71	4738
2026-01-05 07:38:32.32	98.55	11.17	-52.7	-55.0	14.0	0.00e+00	0	27	0	173015040	71	4752
2026-01-05 07:38:33.31	98.47	11.25	-52.6	-55.0	14.0	0.00e+00	0	27	0	175112192	71	4713
2026-01-05 07:38:34.31	98.38	11.33	-52.4	-54.7	14.1	0.00e+00	0	27	0	177209344	71	4584
2026-01-05 07:38:35.31	98.30	11.41	-52.6	-54.9	14.0	0.00e+00	0	27	0	179306496	71	4698
2026-01-05 07:38:36.31	98.22	11.50	-52.6	-55.0	14.0	0.00e+00	0	27	0	181403648	71	4716
2026-01-05 07:38:37.31	98.13	11.58	-52.6	-54.9	14.0	0.00e+00	0	27	0	182452224	71	4702
2026-01-05 07:38:38.31	98.05	11.66	-52.6	-55.0	14.0	0.00e+00	0	27	0	184549376	71	4749
2026-01-05 07:38:39.31	97.97	11.75	-52.6	-55.0	14.0	0.00e+00	0	27	0	186646528	71	4744
2026-01-05 07:38:40.31	97.88	11.83	-52.7	-55.1	13.9	0.00e+00	0	27	0	188743680	71	4807
2026-01-05 07:38:41.31	97.79	11.91	-52.7	-55.1	14.0	0.00e+00	0	27	0	190840832	71	4765
2026-01-05 07:38:42.31	97.71	12.00	-52.6	-54.9	14.1	0.00e+00	0	27	0	191889408	71	4670
2026-01-05 07:38:43.31	97.62	12.08	-52.6	-55.0	14.0	0.00e+00	0	27	0	193986560	71	4726
2026-01-05 07:38:44.32	97.53	12.17	-52.6	-54.9	14.1	0.00e+00	0	27	0	196083712	71	4659
2026-01-05 07:38:45.31	97.45	12.25	-52.5	-54.8	14.1	0.00e+00	0	27	0	198180864	71	4611
2026-01-05 07:38:46.31	97.36	12.34	-52.7	-55.0	14.0	0.00e+00	0	27	0	199229440	71	4746
2026-01-05 07:38:47.31	97.27	12.42	-52.8	-55.2	14.0	0.00e+00	0	27	0	201326592	71	4844
2026-01-05 07:38:48.32	97.18	12.51	-52.8	-55.2	13.9	0.00e+00	0	27	0	203423744	71	4831
2026-01-05 07:38:49.32	97.09	12.59	-52.7	-55.1	14.0	0.00e+00	0	27	0	205520896	71	4781
2026-01-05 07:38:50.31	97.00	12.68	-53.0	-55.4	13.8	0.00e+00	0	27	0	207618048	71	4976
2026-01-05 07:38:51.31	96.91	12.76	-52.9	-55.3	13.9	0.00e+00	0	27	0	208666624	71	4885
2026-01-05 07:38:52.31	96.82	12.85	-52.8	-55.1	14.0	0.00e+00	0	27	0	210763776	71	4811
2026-01-05 07:38:53.31	96.72	12.94	-52.8	-55.1	13.9	0.00e+00	0	27	0	212860928	71	4792
2026-01-05 07:38:54.30	96.63	13.02	-52.8	-55.2	13.9	0.00e+00	0	27	0	214958080	71	4863
2026-01-05 07:38:55.30	96.54	13.11	-52.7	-55.0	14.0	0.00e+00	0	27	0	216006656	71	4731
2026-01-05 07:38:56.30	96.45	13.20	-52.7	-55.0	14.0	0.00e+00	0	27	0	218103808	71	4728
2026-01-05 07:38:57.30	96.35	13.29	-52.7	-55.0	14.0	0.00e+00	0	27	0	220200960	71	4752
2026-01-05 07:38:58.30	96.26	13.37	-52.6	-54.9	14.1	0.00e+00	0	27	0	222298112	71	4687
2026-01-05 07:38:59.30	96.16	13.46	-52.5	-54.8	14.1	0.00e+00	0	27	0	224395264	71	4619
2026-01-05 07:39:00.31	96.06	13.55	-52.5	-54.8	14.1	0.00e+00	0	27	0	225443840	71	4642
2026-01-05 07:39:01.31	95.97	13.64	-52.7	-55.0	14.0	0.00e+00	0	27	0	227540992	71	4723
2026-01-05 07:39:02.30	95.87	13.73	-52.7	-55.1	14.0	0.00e+00	0	27	0	229638144	71	4789
2026-01-05 07:39:03.30	95.77	13.82	-52.9	-55.3	13.9	0.00e+00	0	27	0	231735296	71	4875
2026-01-05 07:39:04.30	95.67	13.91	-52.7	-55.1	14.0	0.00e+00	0	27	0	233832448	71	4768
2026-01-05 07:39:05.31	95.57	14.00	-52.7	-55.0	14.0	0.00e+00	0	27	0	234881024	71	4722
2026-01-05 07:39:06.31	95.47	14.09	-52.8	-55.2	14.0	0.00e+00	0	27	0	236978176	71	4816
2026-01-05 07:39:07.31	95.37	14.18	-52.7	-55.0	14.0	0.00e+00	0	27	0	239075328	71	4729
2026-01-05 07:39:08.32	95.27	14.27	-52.6	-54.9	14.1	0.00e+00	0	27	0	241172480	71	4680
2026-01-05 07:39:09.31	95.17	14.36	-52.5	-54.7	14.1	0.00e+00	0	27	0	243269632	71	4580
2026-01-05 07:39:10.31	95.07	14.45	-52.6	-54.9	14.1	0.00e+00	0	27	0	244318208	71	4666
2026-01-05 07:39:11.31	94.96	14.54	-52.7	-55.0	14.0	0.00e+00	0	27	0	246415360	71	4745
2026-01-05 07:39:12.31	94.86	14.63	-52.6	-54.8	14.1	0.00e+00	0	27	0	248512512	71	4645
2026-01-05 07:39:13.31	94.76	14.72	-52.5	-54.7	14.2	0.00e+00	0	27	0	250609664	71	4546
2026-01-05 07:39:14.31	94.65	14.81	-52.6	-54.7	14.2	0.00e+00	0	27	0	252706816	71	4592
2026-01-05 07:39:15.31	94.55	14.90	-52.5	-54.6	14.2	0.00e+00	0	27	0	253755392	71	4528
2026-01-05 07:39:16.31	94.44	15.00	-52.5	-54.7	14.2	0.00e+00	0	27	0	255852544	71	4552
2026-01-05 07:39:17.32	94.33	15.09	-52.4	-54.4	14.3	0.00e+00	0	27	0	257949696	71	4438
2026-01-05 07:39:18.32	94.22	15.18	-52.5	-54.5	14.3	0.00e+00	0	27	0	260046848	71	4491
2026-01-05 07:39:19.32	94.11	15.28	-52.2	-54.2	14.3	0.00e+00	0	27	0	262144000	70	4554
2026-01-05 07:39:20.32	94.01	15.37	-52.1	-54.0	14.3	0.00e+00	0	27	0	263192576	70	4490
2026-01-05 07:39:21.32	93.90	15.46	-51.9	-53.9	14.4	0.00e+00	0	27	0	265289728	70	4400
2026-01-05 07:39:22.32	93.79	15.56	-52.0	-54.0	14.4	0.00e+00	0	27	0	267386880	70	4468
2026-01-05 07:39:23.32	93.67	15.65	-51.9	-53.8	14.5	0.00e+00	0	27	0	269484032	70	4357
2026-01-05 07:39:24.33	93.56	15.75	-51.9	-53.8	14.5	0.00e+00	0	27	0	270532608	70	4377
2026-01-05 07:39:25.33	93.45	15.84	-51.9	-53.7	14.5	0.00e+00	0	27	0	272629760	70	4326
2026-01-05 07:39:26.33	93.33	15.93	-51.9	-53.8	14.4	0.00e+00	0	27	0	274726912	70	4378
2026-01-05 07:39:27.33	93.22	16.03	-52.0	-53.9	14.4	0.00e+00	0	27	0	276824064	70	4410
2026-01-05 07:39:28.33	93.11	16.13	-52.2	-54.1	14.3	0.00e+00	0	27	0	278921216	70	4539
2026-01-05 07:39:29.32	92.99	16.22	-52.3	-54.4	14.2	0.00e+00	0	27	0	279969792	70	4655
2026-01-05 07:39:30.33	92.87	16.32	-52.5	-54.6	14.1	0.00e+00	0	27	0	282066944	70	4761
2026-01-05 07:39:31.33	92.76	16.41	-52.4	-54.4	14.2	0.00e+00	0	27	0	284164096	70	4687
2026-01-05 07:39:32.33	92.64	16.51	-52.3	-54.3	14.2	0.00e+00	0	27	0	286261248	70	4636
2026-01-05 07:39:33.33	92.52	16.61	-52.1	-54.1	14.4	0.00e+00	0	27	0	288358400	70	4513
2026-01-05 07:39:34.34	92.40	16.70	-52.2	-54.3	14.3	0.00e+00	0	27	0	289406976	70	4631
2026-01-05 07:39:35.34	92.28	16.80	-52.2	-54.3	14.2	0.00e+00	0	27	0	291504128	70	4637
2026-01-05 07:39:36.33	92.16	16.90	-52.4	-54.6	14.1	0.00e+00	0	27	0	293601280	70	4769
2026-01-05 07:39:37.33	92.04	16.99	-52.4	-54.6	14.1	0.00e+00	0	27	0	295698432	70	4788
2026-01-05 07:39:38.33	91.91	17.09	-52.5	-54.7	14.1	0.00e+00	0	27	0	296747008	70	4843
2026-01-05 07:39:39.33	91.79	17.19	-52.6	-54.8	14.1	0.00e+00	0	27	0	298844160	70	4886
2026-01-05 07:39:40.34	91.67	17.29	-52.4	-54.5	14.2	0.00e+00	0	27	0	300941312	70	4756
2026-01-05 07:39:41.34	91.54	17.39	-52.2	-54.2	14.3	0.00e+00	0	27	0	303038464	70	4597
2026-01-05 07:39:42.34	91.41	17.49	-52.1	-54.1	14.4	0.00e+00	0	27	0	305135616	70	4531
2026-01-05 07:39:43.34	91.29	17.58	-52.1	-54.1	14.4	0.00e+00	0	27	0	306184192	70	4533
2026-01-05 07:39:44.35	91.16	17.69	-52.1	-54.1	14.4	0.00e+00	0	27	0	308281344	70	4501
2026-01-05 07:39:45.35	91.03	17.78	-52.0	-54.0	14.4	0.00e+00	0	27	0	310378496	70	4483
2026-01-05 07:39:46.35	90.90	17.88	-52.3	-54.5	14.2	0.00e+00	0	27	0	312475648	70	4717
2026-01-05 07:39:47.35	90.77	17.98	-52.4	-54.5	14.2	0.00e+00	0	27	0	314572800	70	4726
2026-01-05 07:39:48.35	90.64	18.08	-52.3	-54.4	14.3	0.00e+00	0	27	0	315621376	70	4668
2026-01-05 07:39:49.36	90.51	18.19	-52.4	-54.6	14.2	0.00e+00	0	27	0	317718528	70	4764
2026-01-05 07:39:50.35	90.37	18.29	-52.4	-54.6	14.2	0.00e+00	0	27	0	319815680	70	4778
2026-01-05 07:39:51.36	90.24	18.39	-52.4	-54.6	14.1	0.00e+00	0	27	0	321912832	70	4767
2026-01-05 07:39:52.36	90.10	18.49	-52.5	-54.6	14.1	0.00e+00	0	27	0	324009984	70	4803
2026-01-05 07:39:53.37	89.97	18.59	-52.5	-54.7	14.1	0.00e+00	0	27	0	325058560	70	4827
2026-01-05 07:39:54.37	89.83	18.69	-52.7	-55.0	14.0	0.00e+00	0	27	0	327155712	70	5003
2026-01-05 07:39:55.37	89.69	18.80	-52.7	-55.0	14.0	0.00e+00	0	27	0	329252864	70	4985
2026-01-05 07:39:56.37	89.55	18.90	-52.8	-55.0	14.0	0.00e+00	0	27	0	331350016	70	5030
2026-01-05 07:39:57.37	89.41	19.00	-53.0	-55.4	13.9	0.00e+00	0	27	0	333447168	71	4935
2026-01-05 07:39:58.37	89.27	19.10	-53.2	-55.6	13.8	0.00e+00	0	27	0	334495744	71	5069
2026-01-05 07:39:59.37	89.13	19.21	-52.9	-55.1	14.0	0.00e+00	0	28	0	336592896	71	4781
2026-01-05 07:40:00.38	88.99	19.31	-52.9	-55.1	14.1	0.00e+00	0	27	0	338690048	71	4772
2026-01-05 07:40:01.37	88.85	19.41	-52.9	-55.1	14.1	0.00e+00	0	27	0	340787200	71	4772
2026-01-05 07:40:02.38	88.70	19.52	-52.9	-55.2	14.0	0.00e+00	0	27	0	341835776	71	4825
2026-01-05 07:40:03.38	88.56	19.62	-52.8	-55.0	14.1	0.00e+00	0	27	0	343932928	71	4743
2026-01-05 07:40:04.38	88.41	19.73	-52.9	-55.2	14.0	0.00e+00	0	27	0	346030080	71	4824
2026-01-05 07:40:05.38	88.26	19.83	-53.0	-55.3	14.0	0.00e+00	0	27	0	348127232	71	4906
2026-01-05 07:40:06.38	88.11	19.94	-53.0	-55.3	14.0	0.00e+00	0	27	0	350224384	71	4887
2026-01-05 07:40:07.39	87.96	20.04	-52.9	-55.1	14.0	0.00e+00	0	27	0	351272960	71	4767
2026-01-05 07:40:08.39	87.81	20.15	-52.9	-55.1	14.0	0.00e+00	0	27	0	353370112	71	4770
2026-01-05 07:40:09.39	87.66	20.25	-52.8	-55.0	14.1	0.00e+00	0	27	0	355467264	71	4723
2026-01-05 07:40:10.39	87.51	20.36	-53.1	-55.4	13.9	0.00e+00	0	27	0	357564416	71	4953
2026-01-05 07:40:11.39	87.35	20.46	-52.7	-54.9	14.1	0.00e+00	0	27	0	359661568	71	4673
2026-01-05 07:40:12.39	87.20	20.57	-52.6	-54.8	14.2	0.00e+00	0	27	0	360710144	71	4611
2026-01-05 07:40:13.39	87.04	20.68	-52.7	-54.9	14.1	0.00e+00	0	28	0	362807296	71	4671
2026-01-05 07:40:14.39	86.89	20.78	-52.6	-54.7	14.2	0.00e+00	0	27	0	364904448	71	4595
2026-01-05 07:40:15.38	86.73	20.89	-52.6	-54.8	14.2	0.00e+00	0	27	0	367001600	71	4627
2026-01-05 07:40:16.39	86.57	21.00	-52.6	-54.8	14.2	0.00e+00	0	27	0	369098752	71	4633
2026-01-05 07:40:17.39	86.41	21.10	-52.4	-54.4	14.4	0.00e+00	0	27	0	370147328	71	4440
2026-01-05 07:40:18.39	86.25	21.21	-52.5	-54.7	14.2	0.00e+00	0	27	0	372244480	71	4590
2026-01-05 07:40:19.39	86.08	21.32	-52.3	-54.4	14.4	0.00e+00	0	27	0	374341632	71	4423
2026-01-05 07:40:20.40	85.92	21.43	-52.4	-54.5	14.4	0.00e+00	0	27	0	376438784	71	4450
2026-01-05 07:40:21.40	85.75	21.53	-52.1	-54.1	14.4	0.00e+00	0	27	0	377487360	70	4516
2026-01-05 07:40:22.40	85.59	21.64	-52.3	-54.3	14.3	0.00e+00	0	27	0	379584512	70	4644
2026-01-05 07:40:23.39	85.42	21.75	-52.2	-54.2	14.3	0.00e+00	0	27	0	381681664	70	4572
2026-01-05 07:40:24.40	85.25	21.86	-52.1	-54.2	14.4	0.00e+00	0	27	0	383778816	70	4551
2026-01-05 07:40:25.40	85.08	21.97	-52.2	-54.2	14.4	0.00e+00	0	27	0	385875968	70	4555
2026-01-05 07:40:26.40	84.91	22.08	-52.5	-54.6	14.2	0.00e+00	0	27	0	386924544	70	4780
2026-01-05 07:40:27.40	84.74	22.19	-52.3	-54.3	14.3	0.00e+00	0	27	0	389021696	70	4642
2026-01-05 07:40:28.40	84.57	22.30	-52.5	-54.5	14.2	0.00e+00	0	27	0	391118848	70	4745
2026-01-05 07:40:29.40	84.39	22.41	-52.4	-54.4	14.2	0.00e+00	0	27	0	393216000	70	4688
2026-01-05 07:40:30.41	84.21	22.52	-52.6	-54.7	14.1	0.00e+00	0	27	0	395313152	70	4858
2026-01-05 07:40:31.40	84.04	22.62	-52.7	-54.9	14.1	0.00e+00	0	27	0	396361728	70	4945
2026-01-05 07:40:32.40	83.86	22.73	-52.7	-54.8	14.2	0.00e+00	0	28	0	398458880	71	4623
2026-01-05 07:40:33.40	83.68	22.85	-52.8	-55.0	14.1	0.00e+00	0	27	0	400556032	71	4752
2026-01-05 07:40:34.41	83.50	22.96	-53.2	-55.5	13.9	0.00e+00	0	27	0	402653184	71	4997
2026-01-05 07:40:35.41	83.31	23.07	-52.9	-55.1	14.1	0.00e+00	0	27	0	403701760	71	4767
2026-01-05 07:40:36.40	83.13	23.18	-53.0	-55.2	14.0	0.00e+00	0	27	0	405798912	71	4833
2026-01-05 07:40:37.41	82.95	23.29	-53.1	-55.3	14.0	0.00e+00	0	27	0	407896064	71	4919
2026-01-05 07:40:38.41	82.76	23.40	-53.2	-55.6	13.8	0.00e+00	0	27	0	409993216	71	5095
2026-01-05 07:40:39.42	82.57	23.51	-53.4	-55.9	13.8	0.00e+00	0	27	0	412090368	72	4968
2026-01-05 07:40:40.42	82.38	23.62	-53.8	-56.5	13.6	0.00e+00	0	27	0	414187520	73	5004
2026-01-05 07:40:41.42	82.19	23.73	-53.7	-56.5	13.6	0.00e+00	0	27	0	415236096	73	5002
2026-01-05 07:40:42.42	82.00	23.85	-53.8	-56.6	13.6	0.00e+00	0	27	0	417333248	73	5068
2026-01-05 07:40:43.42	81.81	23.96	-53.6	-56.4	13.7	0.00e+00	0	27	0	419430400	73	4928
2026-01-05 07:40:44.42	81.61	24.07	-53.6	-56.3	13.8	0.00e+00	0	27	0	421527552	73	4882
2026-01-05 07:40:45.42	81.42	24.18	-53.8	-56.6	13.6	0.00e+00	0	27	0	422576128	73	5068
2026-01-05 07:40:46.41	81.22	24.29	-53.6	-56.3	13.7	0.00e+00	0	27	0	424673280	73	4909
2026-01-05 07:40:47.41	81.02	24.40	-53.3	-55.8	13.9	0.00e+00	0	27	0	426770432	73	4625
2026-01-05 07:40:48.41	80.82	24.52	-53.2	-55.7	13.9	0.00e+00	0	27	0	428867584	72	4823
2026-01-05 07:40:49.41	80.62	24.63	-52.9	-55.3	14.1	0.00e+00	0	27	0	430964736	72	4635
2026-01-05 07:40:50.41	80.42	24.74	-52.9	-55.3	14.1	0.00e+00	0	27	0	432013312	72	4628
2026-01-05 07:40:51.41	80.21	24.85	-53.0	-55.4	14.0	0.00e+00	0	27	0	434110464	72	4697
2026-01-05 07:40:52.41	80.01	24.97	-53.1	-55.5	14.0	0.00e+00	0	27	0	436207616	72	4743
2026-01-05 07:40:53.41	79.80	25.08	-53.3	-55.8	13.9	0.00e+00	0	27	0	438304768	72	4896
2026-01-05 07:40:54.41	79.59	25.19	-53.2	-55.7	13.9	0.00e+00	0	27	0	440401920	72	4827
2026-01-05 07:40:55.42	79.38	25.31	-53.0	-55.3	14.1	0.00e+00	0	27	0	441450496	72	4625
2026-01-05 07:40:56.41	79.17	25.42	-52.9	-55.2	14.2	0.00e+00	0	27	0	443547648	72	4554
2026-01-05 07:40:57.41	78.95	25.53	-53.3	-55.7	13.9	0.00e+00	0	27	0	445644800	72	4870
2026-01-05 07:40:58.41	78.74	25.64	-53.5	-56.0	13.8	0.00e+00	0	27	0	447741952	72	5004
2026-01-05 07:40:59.41	78.52	25.76	-53.4	-55.9	13.8	0.00e+00	0	27	0	448790528	72	4944
2026-01-05 07:41:00.41	78.30	25.87	-53.4	-56.0	13.8	0.00e+00	0	27	0	450887680	72	4984
2026-01-05 07:41:01.41	78.08	25.98	-53.2	-55.6	14.0	0.00e+00	0	27	0	452984832	72	4802
2026-01-05 07:41:02.41	77.86	26.09	-53.4	-55.8	13.9	0.00e+00	0	27	0	455081984	72	4889
2026-01-05 07:41:03.40	77.64	26.21	-53.3	-55.7	13.9	0.00e+00	0	27	0	457179136	72	4836
2026-01-05 07:41:04.40	77.42	26.32	-53.1	-55.5	14.0	0.00e+00	0	27	0	458227712	72	4708
2026-01-05 07:41:05.40	77.19	26.43	-53.3	-55.6	14.0	0.00e+00	0	27	0	460324864	72	4805
2026-01-05 07:41:06.40	76.96	26.55	-52.9	-55.2	14.2	0.00e+00	0	27	0	462422016	72	4570
2026-01-05 07:41:07.38	76.74	26.66	-53.1	-55.4	14.1	0.00e+00	0	27	0	464519168	72	4663
2026-01-05 07:41:08.38	76.50	26.77	-53.1	-55.4	14.0	0.00e+00	0	27	0	465567744	72	4689
2026-01-05 07:41:09.36	76.28	26.88	-53.1	-55.4	14.1	0.00e+00	0	27	0	467664896	72	4685
2026-01-05 07:41:10.35	76.04	26.99	-52.9	-55.2	14.2	0.00e+00	0	28	0	469762048	72	4565
2026-01-05 07:41:11.34	75.81	27.10	-52.7	-54.9	14.2	0.00e+00	0	27	0	471859200	72	4405
2026-01-05 07:41:12.33	75.58	27.21	-52.7	-54.9	14.2	0.00e+00	0	27	0	473956352	71	4675
2026-01-05 07:41:13.32	75.34	27.33	-52.6	-54.8	14.2	0.00e+00	0	27	0	475004928	71	4615
2026-01-05 07:41:14.31	75.10	27.44	-52.7	-54.9	14.2	0.00e+00	0	27	0	477102080	71	4658
2026-01-05 07:41:15.31	74.86	27.55	-52.9	-55.1	14.1	0.00e+00	0	27	0	479199232	71	4802
2026-01-05 07:41:16.30	74.61	27.66	-53.1	-55.3	14.0	0.00e+00	0	27	0	481296384	71	4916
2026-01-05 07:41:17.30	74.37	27.77	-53.7	-56.2	13.7	0.00e+00	0	27	0	482344960	72	5121
2026-01-05 07:41:18.29	74.12	27.88	-53.8	-56.4	13.7	0.00e+00	0	27	0	484442112	72	5221
2026-01-05 07:41:19.28	73.88	27.99	-54.0	-56.6	13.5	0.00e+00	0	27	0	486539264	73	5055
2026-01-05 07:41:20.28	73.62	28.10	-54.0	-56.7	13.5	0.00e+00	0	27	0	488636416	73	5155
2026-01-05 07:41:21.27	73.37	28.21	-53.8	-56.3	13.8	0.00e+00	0	27	0	490733568	73	4895
2026-01-05 07:41:22.27	73.12	28.33	-53.4	-55.8	14.0	0.00e+00	0	27	0	491782144	73	4606
2026-01-05 07:41:23.27	72.86	28.44	-52.9	-55.0	14.3	0.00e+00	0	27	0	493879296	72	4444
2026-01-05 07:41:24.26	72.60	28.55	-52.6	-54.6	14.3	0.00e+00	0	27	0	495976448	71	4504
2026-01-05 07:41:25.26	72.34	28.66	-52.3	-54.2	14.5	0.00e+00	0	27	0	498073600	71	4303
2026-01-05 07:41:26.25	72.08	28.77	-52.4	-54.3	14.4	0.00e+00	0	28	0	499122176	71	4391
2026-01-05 07:41:27.24	71.82	28.88	-52.5	-54.6	14.3	0.00e+00	0	27	0	501219328	71	4520
2026-01-05 07:41:28.23	71.56	28.98	-52.6	-54.7	14.3	0.00e+00	0	27	0	503316480	71	4592
2026-01-05 07:41:29.23	71.29	29.09	-52.9	-55.2	14.1	0.00e+00	0	27	0	505413632	71	4854
2026-01-05 07:41:30.22	71.03	29.20	-52.7	-55.0	14.2	0.00e+00	0	27	0	507510784	71	4740
2026-01-05 07:41:31.21	70.76	29.31	-52.9	-55.4	14.0	0.00e+00	0	27	0	508559360	71	4932
2026-01-05 07:41:32.22	70.48	29.42	-53.0	-55.4	13.9	0.00e+00	0	27	0	510656512	71	4931
2026-01-05 07:41:33.21	70.21	29.53	-52.6	-54.7	14.2	0.00e+00	0	27	0	512753664	71	4598
2026-01-05 07:41:34.20	69.93	29.63	-53.0	-55.4	13.9	0.00e+00	0	28	0	514850816	71	4966
2026-01-05 07:41:35.20	69.66	29.74	-53.4	-56.0	13.6	0.00e+00	0	27	0	515899392	72	5028
2026-01-05 07:41:36.19	69.38	29.85	-53.9	-56.8	13.3	0.00e+00	0	28	0	517996544	72	5507
2026-01-05 07:41:37.19	69.10	29.95	-54.2	-57.3	13.2	0.00e+00	0	27	0	520093696	73	5483
2026-01-05 07:41:38.18	68.81	30.06	-54.4	-57.7	13.0	0.00e+00	0	27	0	522190848	74	5463
2026-01-05 07:41:39.17	68.53	30.16	-54.4	-57.7	13.0	0.00e+00	0	27	0	524288000	74	5444
2026-01-05 07:41:40.16	68.25	30.27	-54.2	-57.3	13.3	0.00e+00	0	27	0	525336576	74	5193
2026-01-05 07:41:41.16	67.96	30.37	-54.2	-57.2	13.3	0.00e+00	0	27	0	527433728	74	5150
2026-01-05 07:41:42.16	67.66	30.48	-53.7	-56.5	13.6	0.00e+00	0	27	0	529530880	73	4984
2026-01-05 07:41:43.16	67.37	30.58	-53.4	-55.9	13.9	0.00e+00	0	27	0	531628032	73	4696
2026-01-05 07:41:44.15	67.08	30.69	-53.4	-55.8	13.9	0.00e+00	0	28	0	532676608	73	4644
2026-01-05 07:41:45.15	66.78	30.79	-53.7	-56.3	13.6	0.00e+00	0	27	0	534773760	73	4914
2026-01-05 07:41:46.14	66.48	30.89	-54.1	-57.0	13.3	0.00e+00	0	27	0	536870912	73	5337
2026-01-05 07:41:47.14	66.18	30.99	-54.7	-58.1	12.7	0.00e+00	0	27	0	538968064	74	5695
2026-01-05 07:41:48.13	65.88	31.09	-54.7	-58.1	12.8	0.00e+00	0	27	0	541065216	74	5721
2026-01-05 07:41:49.13	65.58	31.20	-54.5	-57.7	13.0	0.00e+00	0	27	0	542113792	74	5463
2026-01-05 07:41:50.13	65.27	31.30	-54.7	-58.2	12.7	0.00e+00	0	27	0	544210944	74	5780
2026-01-05 07:41:51.13	64.96	31.40	-55.0	-58.7	12.5	0.00e+00	0	27	0	546308096	75	5772
2026-01-05 07:41:52.13	64.65	31.50	-55.4	-59.5	12.0	0.00e+00	0	27	0	548405248	75	6342
2026-01-05 07:41:53.13	64.34	31.59	-55.6	-59.9	11.8	0.00e+00	0	27	0	550502400	76	6257
2026-01-05 07:41:54.13	64.02	31.69	-55.7	-60.2	11.6	3.80e-06	0	27	0	551550976	76	6458
2026-01-05 07:41:55.13	63.70	31.79	-55.5	-59.8	11.9	3.00e-06	0	27	0	553648128	76	6142
2026-01-05 07:41:56.12	63.39	31.89	-55.6	-60.1	11.6	9.10e-06	0	28	0	555745280	76	6418
2026-01-05 07:41:57.11	63.07	31.98	-56.0	-61.1	11.0	2.82e-05	0	27	0	557842432	77	6737
2026-01-05 07:41:58.11	62.75	32.08	-56.0	-60.8	11.3	1.83e-05	0	28	0	558891008	77	6544
2026-01-05 07:41:59.10	62.43	32.17	-55.6	-60.1	11.7	4.50e-06	0	27	0	560988160	77	6027
2026-01-05 07:42:00.10	62.10	32.26	-55.1	-59.0	12.4	0.00e+00	0	27	0	563085312	76	5626
2026-01-05 07:42:01.10	61.77	32.36	-54.7	-58.2	12.9	7.00e-07	0	27	0	565182464	76	5159
2026-01-05 07:42:02.10	61.44	32.45	-54.4	-57.8	13.0	0.00e+00	0	27	0	567279616	75	5187
2026-01-05 07:42:03.10	61.11	32.54	-54.5	-58.0	12.9	0.00e+00	0	27	0	568328192	75	5308
2026-01-05 07:42:04.10	60.78	32.63	-54.3	-57.6	13.2	0.00e+00	0	27	0	570425344	75	5049
2026-01-05 07:42:05.09	60.44	32.72	-54.2	-57.2	13.3	0.00e+00	0	27	0	572522496	74	5156
2026-01-05 07:42:06.09	60.11	32.81	-54.2	-57.3	13.3	0.00e+00	0	27	0	574619648	74	5185
2026-01-05 07:42:07.09	59.77	32.90	-54.6	-57.9	13.0	0.00e+00	0	27	0	575668224	74	5588
2026-01-05 07:42:08.09	59.43	32.99	-54.4	-57.8	13.1	0.00e+00	0	27	0	577765376	75	5163
2026-01-05 07:42:09.09	59.08	33.07	-54.6	-57.9	13.0	0.00e+00	0	27	0	579862528	75	5272
2026-01-05 07:42:10.09	58.74	33.16	-54.4	-57.6	13.1	0.00e+00	0	27	0	581959680	75	5067
2026-01-05 07:42:11.08	58.39	33.24	-54.3	-57.5	13.3	0.00e+00	0	27	0	584056832	75	5014
2026-01-05 07:42:12.07	58.05	33.32	-54.5	-57.9	12.9	0.00e+00	0	28	0	585105408	75	5273
2026-01-05 07:42:13.07	57.70	33.41	-54.6	-58.1	12.8	0.00e+00	0	27	0	587202560	75	5392
2026-01-05 07:42:14.07	57.35	33.49	-54.7	-58.6	12.5	0.00e+00	0	27	0	589299712	75	5700
2026-01-05 07:42:15.05	57.00	33.57	-54.8	-59.1	12.2	0.00e+00	0	27	0	591396864	75	6016
2026-01-05 07:42:16.04	56.65	33.65	-54.9	-59.3	12.0	0.00e+00	0	27	0	592445440	75	6170
2026-01-05 07:42:17.04	56.29	33.72	-54.5	-58.4	12.6	0.00e+00	0	28	0	594542592	75	5555
2026-01-05 07:42:18.03	55.94	33.80	-54.2	-57.7	13.0	0.00e+00	0	27	0	596639744	74	5443
2026-01-05 07:42:19.01	55.58	33.88	-54.1	-57.5	13.1	0.00e+00	0	27	0	598736896	74	5322
2026-01-05 07:42:20.01	55.22	33.95	-54.4	-58.0	12.8	0.00e+00	0	27	0	600834048	74	5595
2026-01-05 07:42:21.00	54.86	34.02	-54.3	-57.8	12.9	0.00e+00	0	27	0	601882624	74	5504
2026-01-05 07:42:21.99	54.50	34.10	-54.2	-57.6	13.0	0.00e+00	0	27	0	603979776	74	5389
2026-01-05 07:42:22.98	54.13	34.17	-54.0	-57.1	13.3	0.00e+00	0	27	0	606076928	74	5089
2026-01-05 07:42:23.98	53.77	34.24	-53.6	-56.4	13.6	0.00e+00	0	27	0	608174080	73	4976
2026-01-05 07:42:24.96	53.40	34.31	-53.0	-55.6	14.0	0.00e+00	0	27	0	609222656	72	4763
2026-01-05 07:42:25.96	53.03	34.37	-52.4	-54.6	14.3	0.00e+00	0	27	0	611319808	71	4529
2026-01-05 07:42:26.95	52.66	34.44	-51.9	-53.9	14.5	0.00e+00	0	27	0	613416960	70	4429
2026-01-05 07:42:27.93	52.29	34.51	-51.6	-53.6	14.5	0.00e+00	0	28	0	615514112	69	4526
2026-01-05 07:42:28.93	51.92	34.57	-51.7	-53.8	14.4	0.00e+00	0	27	0	617611264	69	4606
2026-01-05 07:42:29.91	51.55	34.63	-51.5	-53.5	14.5	0.00e+00	0	27	0	618659840	69	4442
2026-01-05 07:42:30.90	51.17	34.69	-51.6	-53.7	14.5	0.00e+00	0	27	0	620756992	69	4558
2026-01-05 07:42:31.90	50.79	34.75	-51.6	-53.6	14.5	0.00e+00	0	27	0	622854144	69	4519
2026-01-05 07:42:32.89	50.41	34.81	-51.5	-53.5	14.6	0.00e+00	0	27	0	624951296	69	4451
2026-01-05 07:42:33.88	50.03	34.87	-51.7	-53.8	14.4	0.00e+00	0	27	0	625999872	69	4618
2026-01-05 07:42:34.88	49.65	34.93	-52.3	-54.5	14.2	0.00e+00	0	27	0	628097024	69	5024
2026-01-05 07:42:35.88	49.26	34.98	-52.7	-55.1	14.0	0.00e+00	0	27	0	630194176	70	5049
2026-01-05 07:42:36.87	48.88	35.03	-52.7	-55.0	14.0	0.00e+00	0	27	0	632291328	70	5041
2026-01-05 07:42:37.87	48.49	35.09	-52.7	-55.0	14.0	0.00e+00	0	27	0	634388480	70	5012
2026-01-05 07:42:38.86	48.10	35.14	-52.4	-54.6	14.2	0.00e+00	0	27	0	635437056	70	4794
2026-01-05 07:42:39.85	47.71	35.19	-52.4	-54.5	14.3	0.00e+00	0	27	0	637534208	70	4758
2026-01-05 07:42:40.84	47.33	35.23	-52.2	-54.3	14.4	0.00e+00	0	27	0	639631360	70	4611
2026-01-05 07:42:41.83	46.94	35.28	-51.8	-53.9	14.5	0.00e+00	0	27	0	641728512	70	4398
2026-01-05 07:42:42.82	46.55	35.33	-51.9	-54.0	14.5	0.00e+00	0	27	0	642777088	70	4442
2026-01-05 07:42:43.82	46.15	35.37	-51.8	-53.8	14.5	0.00e+00	0	28	0	644874240	70	4361
2026-01-05 07:42:44.81	45.76	35.41	-51.4	-53.3	14.6	0.00e+00	0	27	0	646971392	69	4374
2026-01-05 07:42:45.81	45.36	35.45	-51.7	-53.6	14.5	0.00e+00	0	27	0	649068544	69	4541
2026-01-05 07:42:46.80	44.96	35.49	-51.7	-53.7	14.4	0.00e+00	0	27	0	650117120	69	4582
2026-01-05 07:42:47.79	44.57	35.53	-52.1	-54.2	14.3	0.00e+00	0	27	0	652214272	69	4832
2026-01-05 07:42:48.78	44.17	35.56	-52.2	-54.3	14.2	0.00e+00	0	28	0	654311424	69	4916
2026-01-05 07:42:49.77	43.77	35.60	-52.0	-54.1	14.3	0.00e+00	0	27	0	656408576	69	4782
2026-01-05 07:42:50.76	43.38	35.63	-51.5	-53.3	14.6	0.00e+00	0	27	0	658505728	69	4359
2026-01-05 07:42:51.75	42.98	35.66	-50.9	-52.6	14.8	0.00e+00	0	27	0	659554304	68	4249
2026-01-05 07:42:52.73	42.58	35.69	-50.7	-52.3	14.8	0.00e+00	0	27	0	661651456	68	4116
2026-01-05 07:42:53.72	42.18	35.72	-51.3	-53.1	14.6	0.00e+00	0	27	0	663748608	68	4511
2026-01-05 07:42:54.72	41.78	35.75	-52.3	-54.5	14.2	0.00e+00	0	27	0	665845760	69	5001
2026-01-05 07:42:55.71	41.37	35.77	-52.9	-55.3	14.1	0.00e+00	0	27	0	666894336	71	4877
2026-01-05 07:42:56.70	40.97	35.79	-52.9	-55.2	14.1	0.00e+00	0	27	0	668991488	71	4838
2026-01-05 07:42:57.70	40.56	35.82	-53.0	-55.3	14.0	0.00e+00	0	27	0	671088640	71	4907
2026-01-05 07:42:58.69	40.16	35.84	-53.1	-55.4	13.9	0.00e+00	0	27	0	673185792	71	4959
2026-01-05 07:42:59.69	39.75	35.85	-53.1	-55.5	14.0	0.00e+00	0	27	0	675282944	71	4995
2026-01-05 07:43:00.69	39.34	35.87	-53.0	-55.2	14.0	0.00e+00	0	27	0	676331520	71	4858
2026-01-05 07:43:01.69	38.94	35.89	-52.8	-54.9	14.2	0.00e+00	0	27	0	678428672	71	4654
2026-01-05 07:43:02.68	38.53	35.90	-52.9	-54.9	14.2	0.00e+00	0	27	0	680525824	71	4688
2026-01-05 07:43:03.68	38.12	35.91	-52.8	-54.9	14.2	0.00e+00	0	27	0	682622976	71	4653
2026-01-05 07:43:04.67	37.72	35.92	-52.6	-54.6	14.3	0.00e+00	0	27	0	683671552	71	4516
2026-01-05 07:43:05.66	37.31	35.93	-52.9	-55.0	14.2	0.00e+00	0	27	0	685768704	71	4747
2026-01-05 07:43:06.66	36.90	35.94	-52.8	-55.0	14.2	0.00e+00	0	27	0	687865856	71	4709
2026-01-05 07:43:07.65	36.49	35.94	-52.6	-54.7	14.3	0.00e+00	0	27	0	689963008	71	4556
2026-01-05 07:43:08.65	36.08	35.95	-52.4	-54.4	14.5	0.00e+00	0	27	0	692060160	71	4410
2026-01-05 07:43:09.64	35.68	35.95	-52.1	-54.0	14.5	0.00e+00	0	27	0	693108736	70	4465
2026-01-05 07:43:10.64	35.27	35.95	-52.5	-54.5	14.3	0.00e+00	0	27	0	695205888	70	4745
2026-01-05 07:43:11.63	34.86	35.95	-52.9	-55.2	14.1	0.00e+00	0	27	0	697303040	71	4830
2026-01-05 07:43:12.62	34.45	35.95	-53.3	-55.6	13.9	0.00e+00	0	27	0	699400192	71	5090
2026-01-05 07:43:13.62	34.04	35.94	-53.1	-55.3	14.1	0.00e+00	0	27	0	700448768	72	4642
2026-01-05 07:43:14.62	33.63	35.93	-53.2	-55.5	14.0	0.00e+00	0	28	0	702545920	72	4730
2026-01-05 07:43:15.61	33.23	35.93	-53.5	-56.0	13.8	0.00e+00	0	27	0	704643072	72	4994
2026-01-05 07:43:16.60	32.82	35.92	-53.7	-56.4	13.5	0.00e+00	0	28	0	706740224	72	5255
2026-01-05 07:43:17.59	32.42	35.91	-53.6	-56.4	13.6	0.00e+00	0	27	0	708837376	72	5246
2026-01-05 07:43:18.59	32.01	35.89	-53.1	-55.6	14.0	0.00e+00	0	27	0	709885952	72	4793
2026-01-05 07:43:19.59	31.60	35.88	-52.8	-55.2	14.2	0.00e+00	0	27	0	711983104	72	4555
2026-01-05 07:43:20.58	31.19	35.86	-52.6	-54.9	14.2	0.00e+00	0	27	0	714080256	71	4689
2026-01-05 07:43:21.57	30.79	35.84	-52.9	-55.4	14.0	0.00e+00	0	27	0	716177408	71	4933
2026-01-05 07:43:22.57	30.38	35.82	-53.4	-56.1	13.7	0.00e+00	0	27	0	717225984	71	5351
2026-01-05 07:43:23.57	29.97	35.80	-53.8	-56.9	13.3	0.00e+00	0	27	0	719323136	72	5564
2026-01-05 07:43:24.56	29.57	35.78	-54.0	-57.2	13.3	0.00e+00	0	27	0	721420288	73	5414
2026-01-05 07:43:25.56	29.17	35.76	-53.9	-57.1	13.3	0.00e+00	0	27	0	723517440	73	5344
2026-01-05 07:43:26.55	28.76	35.73	-53.6	-56.6	13.6	0.00e+00	0	27	0	725614592	73	5049
2026-01-05 07:43:27.54	28.36	35.70	-53.2	-55.9	13.9	0.00e+00	0	27	0	726663168	73	4661
2026-01-05 07:43:28.53	27.96	35.67	-52.9	-55.3	14.0	0.00e+00	0	27	0	728760320	72	4647
2026-01-05 07:43:29.53	27.56	35.64	-52.8	-55.3	14.1	0.00e+00	0	27	0	730857472	72	4624
2026-01-05 07:43:30.53	27.16	35.61	-53.0	-55.7	13.9	0.00e+00	0	27	0	732954624	72	4815
2026-01-05 07:43:31.52	26.76	35.58	-53.1	-55.8	13.9	0.00e+00	0	28	0	734003200	72	4901
2026-01-05 07:43:32.51	26.36	35.54	-53.4	-56.2	13.6	0.00e+00	0	28	0	736100352	72	5153
2026-01-05 07:43:33.50	25.97	35.51	-53.8	-56.7	13.4	0.00e+00	0	27	0	738197504	72	5463
2026-01-05 07:43:34.50	25.57	35.47	-54.0	-57.0	13.4	0.00e+00	0	27	0	740294656	73	5294
2026-01-05 07:43:35.49	25.18	35.43	-54.2	-57.4	13.2	0.00e+00	0	27	0	742391808	73	5536
2026-01-05 07:43:36.49	24.78	35.39	-53.7	-56.6	13.5	0.00e+00	0	27	0	743440384	73	5042
2026-01-05 07:43:37.49	24.38	35.34	-53.5	-56.3	13.7	0.00e+00	0	27	0	745537536	73	4902
2026-01-05 07:43:38.49	23.99	35.30	-53.3	-56.0	13.8	0.00e+00	0	28	0	747634688	73	4713
2026-01-05 07:43:39.49	23.59	35.25	-53.3	-56.1	13.8	0.00e+00	0	28	0	749731840	73	4773
2026-01-05 07:43:40.48	23.21	35.21	-52.9	-55.5	14.0	0.00e+00	0	27	0	750780416	72	4730
2026-01-05 07:43:41.48	22.81	35.16	-52.5	-54.9	14.2	0.00e+00	0	27	0	752877568	71	4666
2026-01-05 07:43:42.47	22.43	35.11	-52.7	-55.1	14.1	0.00e+00	0	27	0	754974720	71	4803
2026-01-05 07:43:43.47	22.04	35.05	-53.2	-56.0	13.7	0.00e+00	0	28	0	757071872	71	5322
2026-01-05 07:43:44.47	21.65	35.00	-53.2	-56.0	13.7	0.00e+00	0	27	0	759169024	71	5335
2026-01-05 07:43:45.46	21.27	34.95	-53.2	-55.9	13.8	0.00e+00	0	27	0	760217600	72	4979
2026-01-05 07:43:46.46	20.88	34.89	-53.1	-55.8	13.9	0.00e+00	0	27	0	762314752	72	4871
2026-01-05 07:43:47.45	20.50	34.83	-53.2	-56.0	13.8	0.00e+00	0	27	0	764411904	72	5011
2026-01-05 07:43:48.45	20.12	34.78	-52.9	-55.5	13.9	0.00e+00	0	27	0	766509056	72	4742
2026-01-05 07:43:49.44	19.74	34.72	-52.1	-54.3	14.3	0.00e+00	0	27	0	767557632	70	4651
2026-01-05 07:43:50.44	19.36	34.65	-52.0	-54.1	14.4	0.00e+00	0	27	0	769654784	70	4542
2026-01-05 07:43:51.43	18.99	34.59	-52.2	-54.5	14.2	0.00e+00	0	27	0	771751936	70	4713
2026-01-05 07:43:52.42	18.62	34.53	-52.9	-55.5	13.8	0.00e+00	0	27	0	773849088	71	5013
2026-01-05 07:43:53.41	18.25	34.46	-53.7	-56.8	13.3	0.00e+00	0	27	0	775946240	72	5478
2026-01-05 07:43:54.41	17.87	34.40	-53.9	-57.1	13.2	0.00e+00	0	27	0	776994816	73	5386
2026-01-05 07:43:55.40	17.50	34.33	-53.9	-57.2	13.2	0.00e+00	0	27	0	779091968	73	5423
2026-01-05 07:43:56.39	17.14	34.26	-53.3	-56.1	13.8	0.00e+00	0	27	0	781189120	73	4771
2026-01-05 07:43:57.39	16.77	34.19	-52.7	-55.0	14.3	0.00e+00	0	27	0	783286272	72	4453
2026-01-05 07:43:58.39	16.40	34.12	-52.1	-54.1	14.4	0.00e+00	0	27	0	784334848	70	4533
2026-01-05 07:43:59.38	16.04	34.05	-51.9	-53.9	14.4	0.00e+00	0	27	0	786432000	70	4424
2026-01-05 07:44:00.38	15.67	33.98	-52.6	-54.9	14.1	0.00e+00	0	27	0	788529152	70	4934
2026-01-05 07:44:01.37	15.32	33.90	-53.1	-55.7	13.9	0.00e+00	0	27	0	790626304	71	5117
2026-01-05 07:44:02.37	14.96	33.83	-53.7	-56.5	13.5	0.00e+00	0	27	0	792723456	72	5298
2026-01-05 07:44:03.37	14.60	33.75	-53.8	-56.7	13.4	0.00e+00	0	27	0	793772032	72	5456
2026-01-05 07:44:04.36	14.24	33.67	-54.3	-57.7	13.0	0.00e+00	0	27	0	795869184	73	5723
2026-01-05 07:44:05.35	13.89	33.59	-54.1	-57.2	13.2	0.00e+00	0	27	0	797966336	73	5448
2026-01-05 07:44:06.34	13.54	33.51	-54.0	-57.0	13.3	0.00e+00	0	27	0	800063488	73	5328
2026-01-05 07:44:07.34	13.19	33.43	-54.1	-57.2	13.3	0.00e+00	0	27	0	801112064	73	5415
2026-01-05 07:44:08.33	12.84	33.35	-54.1	-57.2	13.3	0.00e+00	0	27	0	803209216	73	5439
2026-01-05 07:44:09.33	12.49	33.27	-54.3	-57.5	13.1	0.00e+00	0	27	0	805306368	73	5600
2026-01-05 07:44:10.33	12.15	33.18	-54.4	-57.7	13.1	0.00e+00	0	27	0	807403520	74	5431
2026-01-05 07:44:11.33	11.80	33.10	-54.0	-57.0	13.5	0.00e+00	0	27	0	809500672	74	5018
2026-01-05 07:44:12.32	11.46	33.01	-54.3	-57.6	13.1	0.00e+00	0	27	0	810549248	74	5358
2026-01-05 07:44:13.32	11.12	32.93	-54.4	-57.7	13.0	0.00e+00	0	27	0	812646400	74	5434
2026-01-05 07:44:14.31	10.78	32.84	-54.3	-57.6	13.0	0.00e+00	0	27	0	814743552	74	5402
2026-01-05 07:44:15.31	10.45	32.75	-53.8	-56.9	13.4	0.00e+00	0	27	0	816840704	74	4964
2026-01-05 07:44:16.30	10.11	32.66	-53.5	-56.3	13.7	0.00e+00	0	27	0	817889280	73	4893
2026-01-05 07:44:17.30	9.78	32.57	-53.6	-56.5	13.7	0.00e+00	0	27	0	819986432	73	4984
2026-01-05 07:44:18.31	9.44	32.48	-53.6	-56.5	13.6	0.00e+00	0	28	0	822083584	73	4994
2026-01-05 07:44:19.30	9.12	32.39	-53.4	-56.0	13.8	0.00e+00	0	27	0	824180736	73	4755
2026-01-05 07:44:20.30	8.79	32.30	-53.2	-55.6	14.1	0.00e+00	0	27	0	826277888	73	4515
2026-01-05 07:44:21.30	8.46	32.20	-52.9	-55.1	14.2	0.00e+00	0	27	0	827326464	72	4544
2026-01-05 07:44:22.31	8.14	32.11	-52.8	-55.1	14.1	0.00e+00	0	27	0	829423616	71	4761
2026-01-05 07:44:23.31	7.81	32.01	-53.2	-55.7	13.8	0.00e+00	0	28	0	831520768	71	5152
2026-01-05 07:44:24.31	7.49	31.92	-53.8	-56.6	13.5	0.00e+00	0	27	0	833617920	72	5392
2026-01-05 07:44:25.30	7.18	31.82	-54.6	-57.9	13.0	0.00e+00	0	27	0	835715072	74	5547
2026-01-05 07:44:26.30	6.86	31.73	-54.3	-57.4	13.2	0.00e+00	0	27	0	836763648	74	5240
2026-01-05 07:44:27.29	6.55	31.63	-54.0	-56.8	13.5	0.00e+00	0	28	0	838860800	74	4921
2026-01-05 07:44:28.29	6.24	31.53	-53.2	-55.7	14.0	0.00e+00	0	27	0	840957952	73	4559
2026-01-05 07:44:29.29	5.92	31.43	-52.8	-55.0	14.2	0.00e+00	0	27	0	843055104	72	4467
2026-01-05 07:44:30.28	5.62	31.33	-52.3	-54.4	14.4	0.00e+00	0	27	0	845152256	71	4427
2026-01-05 07:44:31.29	5.31	31.23	-52.7	-55.0	14.2	0.00e+00	0	28	0	846200832	71	4712
2026-01-05 07:44:32.28	5.01	31.13	-53.5	-56.0	13.8	0.00e+00	0	28	0	848297984	72	5013
2026-01-05 07:44:33.28	4.70	31.03	-54.3	-57.2	13.3	0.00e+00	0	27	0	850395136	73	5444
2026-01-05 07:44:34.27	4.40	30.93	-54.3	-57.2	13.4	0.00e+00	0	27	0	852492288	74	5129
2026-01-05 07:44:35.27	4.10	30.83	-54.3	-57.2	13.3	0.00e+00	0	27	0	853540864	74	5148
2026-01-05 07:44:36.27	3.81	30.72	-54.1	-56.9	13.5	0.00e+00	0	27	0	855638016	74	4971
2026-01-05 07:44:37.26	3.51	30.62	-54.2	-57.2	13.4	0.00e+00	0	28	0	857735168	74	5106
2026-01-05 07:44:38.26	3.22	30.52	-54.2	-57.0	13.5	0.00e+00	0	27	0	859832320	74	5006
2026-01-05 07:44:39.26	2.93	30.41	-54.2	-57.1	13.5	0.00e+00	0	27	0	861929472	74	5048
2026-01-05 07:44:40.26	2.64	30.31	-54.1	-56.8	13.6	0.00e+00	0	27	0	862978048	74	4915
2026-01-05 07:44:41.25	2.35	30.20	-54.2	-57.1	13.5	0.00e+00	0	27	0	865075200	74	5060
2026-01-05 07:44:42.25	2.07	30.10	-54.0	-56.7	13.6	0.00e+00	0	27	0	867172352	74	4849
2026-01-05 07:44:43.25	1.78	29.99	-54.5	-57.6	13.2	0.00e+00	0	27	0	869269504	74	5358
2026-01-05 07:44:44.25	1.50	29.88	-54.8	-58.1	12.9	0.00e+00	0	27	0	870318080	74	5675
2026-01-05 07:44:45.25	1.22	29.78	-55.0	-58.2	12.9	0.00e+00	0	27	0	872415232	75	5454
2026-01-05 07:44:46.25	0.94	29.67	-54.3	-57.0	13.6	0.00e+00	0	27	0	874512384	75	4758
2026-01-05 07:44:47.25	0.66	29.56	-53.9	-56.5	13.8	0.00e+00	0	27	0	876609536	74	4747
2026-01-05 07:44:48.25	0.39	29.45	-54.1	-56.8	13.7	0.00e+00	0	27	0	878706688	74	4872
2026-01-05 07:44:49.25	0.12	29.35	-54.3	-57.0	13.5	0.00e+00	0	27	0	879755264	74	5010
2026-01-05 07:44:50.25	359.84	29.24	-54.1	-56.8	13.6	0.00e+00	0	28	0	881852416	74	4922
2026-01-05 07:44:51.25	359.57	29.13	-54.2	-56.9	13.6	0.00e+00	0	28	0	883949568	74	4946
2026-01-05 07:44:52.26	359.30	29.02	-54.1	-56.7	13.6	0.00e+00	0	27	0	886046720	74	4866
2026-01-05 07:44:53.26	359.04	28.91	-54.0	-56.5	13.8	0.00e+00	0	27	0	888143872	74	4732
2026-01-05 07:44:54.25	358.78	28.80	-54.0	-56.6	13.8	0.00e+00	0	27	0	889192448	74	4766
2026-01-05 07:44:55.25	358.52	28.69	-53.6	-56.0	13.8	0.00e+00	0	27	0	891289600	73	4754
2026-01-05 07:44:56.25	358.26	28.58	-53.4	-55.7	14.1	0.00e+00	0	27	0	893386752	73	4549
2026-01-05 07:44:57.24	358.00	28.47	-52.7	-54.7	14.3	0.00e+00	0	27	0	895483904	72	4333
2026-01-05 07:44:58.24	357.74	28.36	-52.3	-54.3	14.5	0.00e+00	0	27	0	896532480	71	4346
2026-01-05 07:44:59.24	357.49	28.25	-52.0	-53.9	14.6	0.00e+00	0	27	0	898629632	70	4414
2026-01-05 07:45:00.24	357.23	28.14	-52.4	-54.3	14.4	0.00e+00	0	27	0	900726784	70	4625
2026-01-05 07:45:01.24	356.98	28.03	-52.5	-54.5	14.3	0.00e+00	0	28	0	902823936	70	4721
2026-01-05 07:45:02.25	356.73	27.91	-53.0	-55.1	14.1	0.00e+00	0	27	0	904921088	71	4799
2026-01-05 07:45:03.25	356.48	27.80	-53.2	-55.4	14.0	0.00e+00	0	28	0	905969664	71	4974
2026-01-05 07:45:04.25	356.24	27.69	-53.3	-55.6	14.0	0.00e+00	0	27	0	908066816	72	4775
2026-01-05 07:45:05.25	355.99	27.58	-53.4	-55.7	14.0	0.00e+00	0	27	0	910163968	72	4825
2026-01-05 07:45:06.25	355.75	27.47	-53.1	-55.2	14.2	0.00e+00	0	27	0	912261120	72	4578
2026-01-05 07:45:07.25	355.51	27.36	-52.7	-54.7	14.4	0.00e+00	0	27	0	914358272	72	4329
2026-01-05 07:45:08.25	355.27	27.24	-52.3	-54.3	14.5	0.00e+00	0	27	0	915406848	71	4352
2026-01-05 07:45:09.25	355.03	27.13	-52.1	-53.9	14.5	0.00e+00	0	27	0	917504000	70	4429
2026-01-05 07:45:10.25	354.80	27.02	-52.0	-53.9	14.5	0.00e+00	0	27	0	919601152	70	4403
2026-01-05 07:45:11.25	354.56	26.91	-52.4	-54.4	14.3	0.00e+00	0	28	0	921698304	70	4674
2026-01-05 07:45:12.25	354.33	26.79	-52.7	-54.8	14.2	0.00e+00	0	27	0	923795456	70	4911
2026-01-05 07:45:13.25	354.10	26.68	-53.2	-55.6	13.9	0.00e+00	0	27	0	924844032	71	5049
2026-01-05 07:45:14.25	353.87	26.57	-52.9	-55.0	14.2	0.00e+00	0	27	0	926941184	71	4741
2026-01-05 07:45:15.25	353.64	26.46	-52.8	-54.9	14.3	0.00e+00	0	27	0	929038336	71	4680
2026-01-05 07:45:16.24	353.42	26.34	-52.5	-54.5	14.4	0.00e+00	0	27	0	931135488	71	4460
2026-01-05 07:45:17.24	353.20	26.23	-52.4	-54.3	14.5	0.00e+00	0	27	0	932184064	71	4389
2026-01-05 07:45:18.25	352.97	26.12	-52.0	-53.8	14.6	0.00e+00	0	27	0	934281216	70	4364
2026-01-05 07:45:19.24	352.75	26.01	-51.9	-53.8	14.6	0.00e+00	0	27	0	936378368	70	4357
2026-01-05 07:45:20.24	352.53	25.89	-52.0	-53.9	14.5	0.00e+00	0	28	0	938475520	70	4435
2026-01-05 07:45:21.25	352.31	25.78	-52.2	-54.1	14.4	0.00e+00	0	27	0	940572672	70	4538
2026-01-05 07:45:22.24	352.10	25.67	-52.1	-54.0	14.5	0.00e+00	0	27	0	941621248	70	4476
2026-01-05 07:45:23.24	351.88	25.56	-52.1	-54.0	14.5	0.00e+00	0	27	0	943718400	70	4443
2026-01-05 07:45:24.25	351.67	25.44	-52.2	-54.1	14.4	0.00e+00	0	27	0	945815552	70	4535
2026-01-05 07:45:25.25	351.46	25.33	-52.0	-53.8	14.6	0.00e+00	0	28	0	947912704	70	4391
2026-01-05 07:45:26.25	351.25	25.22	-52.3	-54.2	14.4	0.00e+00	0	27	0	950009856	70	4582
2026-01-05 07:45:27.25	351.04	25.10	-52.3	-54.2	14.4	0.00e+00	0	27	0	951058432	70	4580
2026-01-05 07:45:28.25	350.83	24.99	-52.0	-53.9	14.5	0.00e+00	0	27	0	953155584	70	4401
2026-01-05 07:45:29.25	350.63	24.88	-52.0	-53.8	14.6	0.00e+00	0	27	0	955252736	70	4368
2026-01-05 07:45:30.25	350.42	24.77	-52.0	-53.8	14.5	0.00e+00	0	27	0	957349888	70	4384
2026-01-05 07:45:31.25	350.22	24.66	-51.9	-53.7	14.6	0.00e+00	0	27	0	959447040	70	4334
2026-01-05 07:45:32.25	350.02	24.54	-51.9	-53.7	14.6	0.00e+00	0	27	0	960495616	70	4308
2026-01-05 07:45:33.25	349.82	24.43	-51.8	-53.6	14.5	0.00e+00	0	28	0	962592768	69	4533
2026-01-05 07:45:34.24	349.62	24.32	-52.0	-53.8	14.4	0.00e+00	0	27	0	964689920	69	4645
2026-01-05 07:45:35.25	349.42	24.21	-52.1	-54.0	14.4	0.00e+00	0	27	0	966787072	69	4707
2026-01-05 07:45:36.26	349.22	24.10	-52.0	-53.9	14.4	0.00e+00	0	27	0	967835648	69	4681
2026-01-05 07:45:37.25	349.03	23.99	-52.0	-53.9	14.4	0.00e+00	0	28	0	969932800	69	4680
2026-01-05 07:45:38.25	348.84	23.87	-51.9	-53.8	14.5	0.00e+00	0	28	0	972029952	69	4621
2026-01-05 07:45:39.25	348.65	23.76	-51.9	-53.7	14.5	0.00e+00	0	28	0	974127104	69	4591
2026-01-05 07:45:40.25	348.46	23.65	-52.1	-53.9	14.4	0.00e+00	0	27	0	976224256	69	4699
2026-01-05 07:45:41.25	348.27	23.54	-52.6	-54.6	14.2	0.00e+00	0	28	0	977272832	70	4783
2026-01-05 07:45:42.24	348.08	23.43	-52.5	-54.6	14.3	0.00e+00	0	27	0	979369984	70	4768
2026-01-05 07:45:43.25	347.90	23.32	-52.5	-54.5	14.3	0.00e+00	0	28	0	981467136	70	4715
2026-01-05 07:45:44.25	347.71	23.21	-52.6	-54.6	14.2	0.00e+00	0	27	0	983564288	70	4801
2026-01-05 07:45:45.26	347.53	23.10	-52.5	-54.5	14.3	0.00e+00	0	27	0	985661440	70	4739
2026-01-05 07:45:46.26	347.35	22.99	-52.3	-54.2	14.4	0.00e+00	0	28	0	986710016	70	4562
2026-01-05 07:45:47.26	347.17	22.88	-52.3	-54.2	14.4	0.00e+00	0	27	0	988807168	70	4554
2026-01-05 07:45:48.27	346.98	22.76	-52.0	-53.8	14.6	0.00e+00	0	28	0	990904320	70	4354
2026-01-05 07:45:49.27	346.81	22.66	-51.9	-53.7	14.6	0.00e+00	0	27	0	993001472	70	4306
2026-01-05 07:45:50.27	346.63	22.55	-52.1	-54.0	14.5	0.00e+00	0	27	0	995098624	70	4459
2026-01-05 07:45:51.27	346.45	22.44	-52.0	-53.9	14.5	0.00e+00	0	27	0	996147200	70	4412
2026-01-05 07:45:52.27	346.28	22.33	-52.3	-54.2	14.4	0.00e+00	0	27	0	998244352	70	4577
2026-01-05 07:45:53.27	346.11	22.22	-52.4	-54.4	14.3	0.00e+00	0	27	0	1000341504	70	4654
2026-01-05 07:45:54.26	345.94	22.11	-52.6	-54.6	14.2	0.00e+00	0	28	0	1002438656	70	4770
2026-01-05 07:45:55.26	345.77	22.00	-52.7	-54.7	14.2	0.00e+00	0	27	0	1004535808	70	4862
2026-01-05 07:45:56.26	345.60	21.89	-52.8	-54.9	14.1	0.00e+00	0	27	0	1005584384	70	4967
2026-01-05 07:45:57.26	345.43	21.78	-52.9	-55.1	14.1	0.00e+00	0	28	0	1007681536	71	4785
2026-01-05 07:45:58.26	345.26	21.68	-53.2	-55.5	13.9	0.00e+00	0	27	0	1009778688	71	4999
2026-01-05 07:45:59.26	345.10	21.57	-53.4	-55.7	13.8	0.00e+00	0	28	0	1011875840	71	5155
2026-01-05 07:46:00.26	344.93	21.46	-53.3	-55.7	13.9	0.00e+00	0	27	0	1012924416	71	5104
2026-01-05 07:46:01.26	344.77	21.35	-53.4	-55.8	13.9	0.00e+00	0	28	0	1015021568	72	4905
2026-01-05 07:46:02.26	344.61	21.25	-53.0	-55.1	14.2	0.00e+00	0	28	0	1017118720	72	4531
2026-01-05 07:46:03.26	344.44	21.14	-52.8	-55.0	14.3	0.00e+00	0	27	0	1019215872	72	4449
2026-01-05 07:46:04.26	344.28	21.03	-52.3	-54.2	14.5	0.00e+00	0	27	0	1021313024	71	4337
2026-01-05 07:46:05.26	344.13	20.93	-52.1	-54.0	14.5	0.00e+00	0	27	0	1022361600	70	4460
2026-01-05 07:46:06.27	343.97	20.82	-51.8	-53.7	14.6	0.00e+00	0	27	0	1024458752	70	4299
2026-01-05 07:46:07.27	343.81	20.71	-51.9	-53.7	14.6	0.00e+00	0	27	0	1026555904	70	4313
2026-01-05 07:46:08.27	343.65	20.61	-52.1	-53.9	14.5	0.00e+00	0	27	0	1028653056	70	4434
2026-01-05 07:46:09.27	343.50	20.50	-52.2	-54.1	14.4	0.00e+00	0	27	0	1030750208	70	4528
2026-01-05 07:46:10.28	343.35	20.39	-52.5	-54.6	14.2	0.00e+00	0	27	0	1031798784	70	4760
2026-01-05 07:46:11.28	343.19	20.29	-52.6	-54.7	14.2	0.00e+00	0	27	0	1033895936	70	4816
2026-01-05 07:46:12.28	343.04	20.18	-52.7	-54.8	14.1	0.00e+00	0	28	0	1035993088	70	4880
2026-01-05 07:46:13.27	342.89	20.08	-52.4	-54.3	14.3	0.00e+00	0	27	0	1038090240	70	4628
2026-01-05 07:46:14.28	342.74	19.97	-52.3	-54.2	14.4	0.00e+00	0	27	0	1039138816	70	4574
2026-01-05 07:46:15.28	342.59	19.87	-52.4	-54.3	14.3	0.00e+00	0	27	0	1041235968	70	4616
2026-01-05 07:46:16.28	342.45	19.76	-51.9	-53.7	14.6	0.00e+00	0	27	0	1043333120	70	4327
2026-01-05 07:46:17.26	342.30	19.66	-51.7	-53.5	14.7	0.00e+00	0	27	0	1045430272	70	4224
2026-01-05 07:46:18.26	342.16	19.56	-51.7	-53.5	14.6	0.00e+00	0	28	0	1047527424	69	4466
2026-01-05 07:46:19.26	342.02	19.45	-51.7	-53.5	14.6	0.00e+00	0	27	0	1048576000	69	4485
2026-01-05 07:46:20.25	341.87	19.35	-51.8	-53.6	14.5	0.00e+00	0	27	0	1050673152	69	4533
2026-01-05 07:46:21.25	341.73	19.25	-52.1	-54.1	14.3	0.00e+00	0	27	0	1052770304	69	4760
2026-01-05 07:46:22.25	341.59	19.15	-52.4	-54.4	14.2	0.00e+00	0	27	0	1054867456	69	4929
2026-01-05 07:46:23.26	341.45	19.04	-52.8	-54.9	14.1	0.00e+00	0	27	0	1055916032	70	4957
2026-01-05 07:46:24.26	341.31	18.94	-53.1	-55.3	14.0	0.00e+00	0	28	0	1058013184	71	4903
2026-01-05 07:46:25.25	341.17	18.84	-53.7	-56.1	13.7	0.00e+00	0	27	0	1060110336	72	5088
2026-01-05 07:46:26.25	341.04	18.74	-54.1	-56.8	13.5	0.00e+00	0	28	0	1062207488	73	5166
2026-01-05 07:46:27.25	340.90	18.64	-54.5	-57.4	13.2	0.00e+00	0	27	0	1064304640	74	5274
2026-01-05 07:46:28.25	340.76	18.54	-54.9	-58.0	12.9	0.00e+00	0	27	0	1065353216	74	5630
2026-01-05 07:46:29.25	340.63	18.43	-54.6	-57.6	13.1	0.00e+00	0	28	0	1067450368	74	5392
2026-01-05 07:46:30.25	340.50	18.33	-54.7	-57.8	13.0	0.00e+00	0	27	0	1069547520	74	5504
2026-01-05 07:46:31.25	340.36	18.23	-54.4	-57.3	13.3	0.00e+00	0	28	0	1071644672	74	5176
2026-01-05 07:46:32.25	340.23	18.13	-54.1	-56.8	13.6	0.00e+00	0	27	0	1073741824	74	4902
2026-01-05 07:46:33.25	340.10	18.03	-53.6	-56.0	13.8	0.00e+00	0	27	0	1074790400	73	4751
2026-01-05 07:46:34.26	339.97	17.93	-53.5	-55.9	13.9	0.00e+00	0	28	0	1076887552	73	4692
2026-01-05 07:46:35.26	339.84	17.83	-52.9	-55.1	14.2	0.00e+00	0	28	0	1078984704	72	4503
2026-01-05 07:46:36.27	339.71	17.73	-52.6	-54.6	14.3	0.00e+00	0	27	0	1081081856	71	4545
2026-01-05 07:46:37.26	339.59	17.63	-52.6	-54.7	14.3	0.00e+00	0	28	0	1083179008	71	4561
2026-01-05 07:46:38.26	339.46	17.53	-52.6	-54.6	14.3	0.00e+00	0	28	0	1084227584	71	4545
2026-01-05 07:46:39.27	339.33	17.44	-52.7	-54.8	14.2	0.00e+00	0	27	0	1086324736	71	4619
2026-01-05 07:46:40.27	339.21	17.34	-52.8	-55.0	14.2	0.00e+00	0	28	0	1088421888	71	4718
2026-01-05 07:46:41.27	339.08	17.24	-53.1	-55.4	14.0	0.00e+00	0	27	0	1090519040	71	4930
2026-01-05 07:46:42.27	338.96	17.14	-53.3	-55.6	13.8	0.00e+00	0	27	0	1092616192	71	5077
2026-01-05 07:46:43.27	338.84	17.04	-53.4	-55.8	13.8	0.00e+00	0	28	0	1093664768	72	4916
2026-01-05 07:46:44.27	338.72	16.95	-53.5	-55.9	13.8	0.00e+00	0	28	0	1095761920	72	4969
2026-01-05 07:46:45.27	338.60	16.85	-53.2	-55.5	14.0	0.00e+00	0	27	0	1097859072	72	4730
2026-01-05 07:46:46.28	338.47	16.75	-53.0	-55.2	14.1	0.00e+00	0	27	0	1099956224	72	4593
2026-01-05 07:46:47.27	338.36	16.66	-52.8	-54.9	14.3	0.00e+00	0	27	0	1101004800	72	4431
2026-01-05 07:46:48.27	338.24	16.56	-52.8	-55.0	14.2	0.00e+00	0	28	0	1103101952	72	4451
2026-01-05 07:46:49.27	338.12	16.46	-52.6	-54.6	14.3	0.00e+00	0	27	0	1105199104	71	4526
2026-01-05 07:46:50.27	338.00	16.37	-52.5	-54.5	14.3	0.00e+00	0	28	0	1107296256	71	4491
2026-01-05 07:46:51.27	337.89	16.27	-52.2	-54.2	14.5	0.00e+00	0	27	0	1109393408	71	4319
2026-01-05 07:46:52.26	337.77	16.18	-52.2	-54.2	14.3	0.00e+00	0	28	0	1110441984	70	4574
2026-01-05 07:46:53.26	337.66	16.08	-52.4	-54.5	14.2	0.00e+00	0	27	0	1112539136	70	4715
2026-01-05 07:46:54.26	337.55	15.99	-52.5	-54.6	14.2	0.00e+00	0	27	0	1114636288	70	4769
2026-01-05 07:46:55.27	337.43	15.89	-52.6	-54.7	14.1	0.00e+00	0	27	0	1116733440	70	4825
2026-01-05 07:46:56.27	337.32	15.80	-52.7	-54.8	14.1	0.00e+00	0	27	0	1118830592	70	4922
2026-01-05 07:46:57.26	337.21	15.71	-52.7	-54.8	14.0	0.00e+00	0	28	0	1119879168	70	4925
2026-01-05 07:46:58.27	337.10	15.61	-52.7	-54.9	14.0	0.00e+00	0	28	0	1121976320	70	4932
2026-01-05 07:46:59.26	336.99	15.52	-52.8	-55.0	14.0	0.00e+00	0	28	0	1124073472	70	5011
2026-01-05 07:47:00.27	336.88	15.42	-52.8	-55.0	14.0	0.00e+00	0	27	0	1126170624	70	5006
2026-01-05 07:47:01.26	336.77	15.33	-52.8	-54.9	14.0	0.00e+00	0	28	0	1128267776	70	4970
2026-01-05 07:47:02.26	336.66	15.24	-52.8	-55.0	14.1	0.00e+00	0	28	0	1129316352	71	4714
2026-01-05 07:47:03.26	336.55	15.15	-52.9	-55.0	14.1	0.00e+00	0	28	0	1131413504	71	4755
2026-01-05 07:47:04.27	336.45	15.05	-53.0	-55.1	14.0	0.00e+00	0	28	0	1133510656	71	4812
2026-01-05 07:47:05.27	336.34	14.96	-53.0	-55.3	14.0	0.00e+00	0	28	0	1135607808	71	4872
2026-01-05 07:47:06.27	336.23	14.87	-53.0	-55.2	14.0	0.00e+00	0	27	0	1136656384	71	4866
2026-01-05 07:47:07.27	336.13	14.78	-53.1	-55.4	13.9	0.00e+00	0	28	0	1138753536	71	4934
2026-01-05 07:47:08.27	336.03	14.69	-53.1	-55.4	13.9	0.00e+00	0	28	0	1140850688	71	4934
2026-01-05 07:47:09.27	335.92	14.60	-53.1	-55.4	13.9	0.00e+00	0	27	0	1142947840	71	4947
2026-01-05 07:47:10.28	335.82	14.50	-53.0	-55.2	14.0	0.00e+00	0	28	0	1145044992	71	4847
2026-01-05 07:47:11.29	335.72	14.41	-52.9	-55.0	14.1	0.00e+00	0	28	0	1146093568	71	4738
2026-01-05 07:47:12.29	335.61	14.32	-52.8	-54.8	14.2	0.00e+00	0	27	0	1148190720	71	4644
2026-01-05 07:47:13.29	335.51	14.23	-52.8	-54.9	14.2	0.00e+00	0	27	0	1150287872	71	4654
2026-01-05 07:47:14.29	335.41	14.14	-52.8	-54.9	14.1	0.00e+00	0	28	0	1152385024	71	4659
2026-01-05 07:47:15.29	335.31	14.05	-52.8	-54.9	14.1	0.00e+00	0	28	0	1154482176	71	4654
2026-01-05 07:47:16.30	335.21	13.96	-52.9	-55.1	14.0	0.00e+00	0	27	0	1155530752	71	4786
2026-01-05 07:47:17.30	335.12	13.87	-53.2	-55.5	13.9	0.00e+00	0	27	0	1157627904	71	5000
2026-01-05 07:47:18.30	335.02	13.78	-53.4	-55.8	13.7	0.00e+00	0	27	0	1159725056	71	5180
2026-01-05 07:47:19.30	334.92	13.70	-53.7	-56.2	13.6	0.00e+00	0	28	0	1161822208	72	5122
2026-01-05 07:47:20.30	334.83	13.61	-54.0	-56.6	13.5	0.00e+00	0	27	0	1162870784	73	5073
2026-01-05 07:47:21.30	334.73	13.52	-54.2	-57.0	13.3	0.00e+00	0	28	0	1164967936	73	5326
2026-01-05 07:47:22.30	334.63	13.43	-54.4	-57.3	13.2	0.00e+00	0	28	0	1167065088	74	5204
2026-01-05 07:47:23.31	334.54	13.34	-54.7	-57.9	12.9	0.00e+00	0	28	0	1169162240	74	5532
2026-01-05 07:47:24.31	334.44	13.25	-54.7	-57.9	12.9	0.00e+00	0	27	0	1171259392	74	5575
2026-01-05 07:47:25.31	334.35	13.17	-54.7	-57.9	12.9	0.00e+00	0	28	0	1173356544	74	5547
2026-01-05 07:47:26.31	334.26	13.08	-54.7	-57.8	12.9	0.00e+00	0	27	0	1174405120	74	5516
2026-01-05 07:47:27.31	334.17	12.99	-54.6	-57.6	13.1	0.00e+00	0	27	0	1176502272	74	5375
2026-01-05 07:47:28.32	334.07	12.91	-54.4	-57.4	13.1	0.00e+00	0	27	0	1178599424	74	5243
2026-01-05 07:47:29.32	333.98	12.82	-54.2	-57.0	13.3	0.00e+00	0	27	0	1180696576	74	5032
2026-01-05 07:47:30.32	333.89	12.73	-53.8	-56.4	13.7	0.00e+00	0	27	0	1181745152	74	4696
2026-01-05 07:47:31.33	333.80	12.65	-53.7	-56.3	13.8	0.00e+00	0	28	0	1183842304	74	4599
2026-01-05 07:47:32.33	333.71	12.56	-53.7	-56.2	13.8	0.00e+00	0	28	0	1185939456	74	4573
2026-01-05 07:47:33.33	333.62	12.48	-53.3	-55.6	13.9	0.00e+00	0	28	0	1188036608	73	4542
2026-01-05 07:47:34.33	333.53	12.39	-53.1	-55.4	14.0	0.00e+00	0	27	0	1190133760	72	4705
2026-01-05 07:47:35.33	333.44	12.31	-53.0	-55.3	13.9	0.00e+00	0	28	0	1191182336	72	4636
2026-01-05 07:47:36.33	333.36	12.22	-53.0	-55.2	13.9	0.00e+00	0	28	0	1193279488	72	4575
2026-01-05 07:47:37.33	333.27	12.14	-52.9	-55.1	14.0	0.00e+00	0	27	0	1195376640	72	4541
2026-01-05 07:47:38.34	333.18	12.05	-52.8	-55.0	14.1	0.00e+00	0	27	0	1197473792	72	4448
2026-01-05 07:47:39.34	333.10	11.97	-52.7	-54.9	14.2	0.00e+00	0	27	0	1199570944	72	4408
2026-01-05 07:47:40.34	333.01	11.88	-52.7	-54.8	14.1	0.00e+00	0	28	0	1200619520	71	4645
2026-01-05 07:47:41.34	332.93	11.80	-52.6	-54.8	14.1	0.00e+00	0	27	0	1202716672	71	4626
2026-01-05 07:47:42.34	332.84	11.72	-52.8	-54.9	14.1	0.00e+00	0	27	0	1204813824	71	4703
2026-01-05 07:47:43.35	332.76	11.63	-52.8	-55.0	14.0	0.00e+00	0	27	0	1206910976	71	4708
2026-01-05 07:47:44.35	332.67	11.55	-52.9	-55.1	14.0	0.00e+00	0	27	0	1207959552	71	4801
2026-01-05 07:47:45.35	332.59	11.47	-52.9	-55.2	13.9	0.00e+00	0	27	0	1210056704	71	4821
2026-01-05 07:47:46.35	332.51	11.38	-52.9	-55.1	14.0	0.00e+00	0	28	0	1212153856	71	4808
2026-01-05 07:47:47.35	332.43	11.30	-52.8	-55.1	14.0	0.00e+00	0	27	0	1214251008	71	4776
2026-01-05 07:47:48.36	332.35	11.22	-52.9	-55.1	14.0	0.00e+00	0	27	0	1216348160	71	4806
2026-01-05 07:47:49.36	332.26	11.14	-52.9	-55.2	13.9	0.00e+00	0	28	0	1218445312	71	4839
2026-01-05 07:47:50.36	332.18	11.06	-53.0	-55.3	13.9	0.00e+00	0	27	0	1219493888	71	4872
2026-01-05 07:47:51.36	332.10	10.97	-53.0	-55.3	13.9	0.00e+00	0	27	0	1221591040	71	4884
