passes_logs/2026/01/05/R3.2S_Murmansk/R3.2S_Murmansk__20260105_072008_AQUA_rec.log

#Pass ID: 20260105_072008_AQUA
#Satellite: AQUA
#Configuration: AQUA
#almurnet v.1.7.20251203
#Start time: 2026-01-05 07:20:40

#Version: 2.2.20231116
#Station: R3.2S_Murmansk
#Location: 33.079688 lon 68.888172 lat
#TLE: 1 27424U 02022A   26003.93831470  .00001925  00000+0  39553-3 0  9995
#TLE: 2 27424  98.4067 330.1809 0002003  92.1713 343.8415 14.61796291259276

#Time	Az	El	Level	Level2	SNR	BER	BlckErr	Temp	State	Recorded	gain1	gain2
2026-01-05 07:20:40.49	63.10	3.87	-60.9	-74.7	3.8	1.49e+00	0	27	0	0	87	18302
2026-01-05 07:20:41.49	63.01	3.93	-60.4	-79.8	3.8	7.46e-01	0	28	104	0	88	35941
2026-01-05 07:20:42.49	62.91	3.99	-60.4	-79.8	3.8	7.48e-01	0	27	104	0	88	35978
2026-01-05 07:20:43.47	62.82	4.04	-60.4	-79.8	3.8	7.45e-01	0	28	104	0	88	35742
2026-01-05 07:20:44.46	62.73	4.10	-60.3	-79.7	3.8	7.45e-01	0	28	104	0	88	35406
2026-01-05 07:20:45.45	62.64	4.16	-60.2	-79.6	3.9	7.46e-01	0	28	104	0	88	35171
2026-01-05 07:20:46.44	62.54	4.22	-60.2	-79.6	3.8	7.45e-01	0	28	104	0	88	34939
2026-01-05 07:20:47.43	62.45	4.28	-60.1	-79.5	3.8	7.48e-01	0	28	104	0	88	34635
2026-01-05 07:20:48.42	62.36	4.34	-60.0	-79.4	3.8	7.46e-01	0	27	104	0	88	34260
2026-01-05 07:20:49.41	62.26	4.40	-59.9	-79.3	3.8	7.49e-01	0	28	104	0	88	33833
2026-01-05 07:20:50.40	62.17	4.46	-59.9	-79.3	3.8	7.46e-01	0	28	104	0	88	33740
2026-01-05 07:20:51.38	62.07	4.51	-59.8	-79.2	3.8	7.45e-01	0	27	104	0	88	33609
2026-01-05 07:20:52.37	61.98	4.57	-59.8	-79.2	3.8	7.45e-01	0	28	104	0	88	33362
2026-01-05 07:20:53.35	61.88	4.63	-59.7	-79.1	3.8	7.46e-01	0	28	104	0	88	33118
2026-01-05 07:20:54.33	61.78	4.69	-59.6	-78.9	3.8	7.45e-01	0	28	104	0	88	32529
2026-01-05 07:20:55.32	61.69	4.75	-59.4	-78.8	3.8	7.46e-01	0	27	104	0	88	32020
2026-01-05 07:20:56.31	61.59	4.81	-59.2	-78.6	3.8	7.45e-01	0	28	104	0	87	33016
2026-01-05 07:20:57.30	61.49	4.87	-58.9	-78.3	3.8	7.48e-01	0	28	104	0	87	31818
2026-01-05 07:20:58.29	61.39	4.93	-58.6	-77.9	3.8	7.45e-01	0	28	104	0	86	32513
2026-01-05 07:20:59.27	61.29	4.99	-58.5	-77.9	3.8	7.48e-01	0	28	104	0	86	32373
2026-01-05 07:21:00.26	61.20	5.05	-58.5	-77.9	3.8	7.47e-01	0	28	104	0	86	32305
2026-01-05 07:21:01.24	61.10	5.11	-58.5	-77.9	3.8	7.42e-01	0	28	104	0	86	32270
2026-01-05 07:21:02.23	61.00	5.17	-58.5	-77.9	3.8	7.48e-01	0	28	104	0	86	32277
2026-01-05 07:21:03.22	60.89	5.23	-58.5	-77.9	3.8	7.44e-01	0	28	104	0	86	32276
2026-01-05 07:21:04.22	60.79	5.29	-58.5	-77.8	3.8	7.47e-01	0	28	104	0	86	32153
2026-01-05 07:21:05.21	60.69	5.35	-58.5	-77.7	3.8	7.48e-01	0	28	104	0	86	31730
2026-01-05 07:21:06.20	60.59	5.41	-58.5	-77.5	3.8	7.44e-01	0	28	104	0	86	31039
2026-01-05 07:21:07.19	60.49	5.47	-58.5	-77.4	3.8	7.43e-01	0	28	104	0	86	30522
2026-01-05 07:21:08.17	60.38	5.53	-58.5	-77.2	3.8	7.46e-01	0	27	104	0	86	30002
2026-01-05 07:21:09.16	60.28	5.59	-58.4	-77.2	3.8	7.47e-01	0	28	104	0	86	29970
2026-01-05 07:21:10.14	60.18	5.65	-58.5	-77.3	3.8	7.44e-01	0	28	104	0	86	30309
2026-01-05 07:21:11.12	60.07	5.71	-58.4	-77.3	3.8	7.44e-01	0	27	104	0	86	30363
2026-01-05 07:21:12.10	59.97	5.77	-58.4	-77.3	3.8	7.43e-01	0	28	104	0	86	30231
2026-01-05 07:21:13.09	59.86	5.83	-58.4	-77.4	3.8	7.47e-01	0	27	104	0	86	30441
2026-01-05 07:21:14.07	59.76	5.89	-58.4	-77.6	3.8	7.46e-01	0	28	104	0	86	31138
2026-01-05 07:21:15.06	59.65	5.95	-58.4	-77.7	3.8	7.47e-01	0	28	104	0	86	31527
2026-01-05 07:21:16.05	59.54	6.02	-58.4	-77.6	3.8	7.49e-01	0	28	104	0	86	31346
2026-01-05 07:21:17.05	59.43	6.08	-58.4	-77.6	3.8	7.44e-01	0	27	104	0	86	31177
2026-01-05 07:21:18.05	59.33	6.14	-58.4	-77.5	3.8	7.45e-01	0	27	104	0	86	31069
2026-01-05 07:21:19.04	59.22	6.20	-58.4	-77.6	3.8	7.45e-01	0	28	104	0	86	31216
2026-01-05 07:21:20.03	59.11	6.26	-58.4	-77.7	3.8	7.49e-01	0	28	104	0	86	31489
2026-01-05 07:21:21.01	59.00	6.32	-58.4	-77.3	3.8	7.43e-01	0	28	104	0	86	30208
2026-01-05 07:21:22.02	58.89	6.39	-58.4	-76.4	3.9	7.42e-01	0	28	104	0	86	27354
2026-01-05 07:21:23.01	58.78	6.45	-58.4	-75.1	4.0	7.43e-01	0	27	104	0	86	23430
2026-01-05 07:21:24.00	58.66	6.51	-58.3	-75.5	4.0	7.46e-01	0	28	104	0	85	25877
2026-01-05 07:21:24.99	58.55	6.57	-58.3	-76.3	3.8	7.46e-01	0	28	104	0	85	28352
2026-01-05 07:21:25.99	58.44	6.63	-58.4	-77.5	3.8	7.46e-01	0	28	104	0	85	32668
2026-01-05 07:21:26.98	58.33	6.69	-58.4	-77.3	3.8	7.48e-01	0	28	104	0	85	32111
2026-01-05 07:21:27.97	58.21	6.76	-58.3	-73.9	4.3	7.34e-01	0	28	104	0	85	21627
2026-01-05 07:21:28.96	58.10	6.82	-58.1	-70.3	6.0	6.84e-01	91	28	0	0	85	14267
2026-01-05 07:21:29.96	57.98	6.88	-57.8	-67.4	8.3	6.35e-01	1	28	0	2097152	84	10823
2026-01-05 07:21:30.95	57.87	6.94	-57.5	-65.2	10.2	6.15e-01	0	28	0	3670016	84	8385
2026-01-05 07:21:31.94	57.75	7.01	-56.8	-63.1	11.6	6.06e-01	0	28	0	5767168	82	7399
2026-01-05 07:21:32.93	57.64	7.07	-56.2	-61.3	12.7	6.06e-01	0	28	0	7340032	81	6388
2026-01-05 07:21:33.91	57.52	7.13	-55.6	-59.9	13.5	6.03e-01	0	28	0	9437184	80	5742
2026-01-05 07:21:34.90	57.40	7.19	-55.1	-58.9	13.8	6.03e-01	0	28	0	11534336	79	5457
2026-01-05 07:21:35.89	57.28	7.25	-56.0	-60.6	13.0	6.03e-01	0	28	0	13107200	79	6622
2026-01-05 07:21:36.88	57.17	7.32	-53.7	-56.4	14.6	6.04e-01	0	28	0	15204352	76	4863
2026-01-05 07:21:37.87	57.05	7.38	-57.1	-64.7	10.7	6.11e-01	0	28	0	16777216	81	9397
2026-01-05 07:21:38.87	56.93	7.44	-57.4	-65.1	10.5	6.12e-01	0	28	0	18874368	82	9345
2026-01-05 07:21:39.85	56.81	7.50	-51.4	-53.4	15.3	6.03e-01	0	28	0	20447232	72	4313
2026-01-05 07:21:40.83	56.69	7.57	-51.2	-53.2	15.2	6.02e-01	0	28	0	22544384	71	4484
2026-01-05 07:21:41.82	56.57	7.63	-51.5	-53.6	15.1	6.05e-01	0	28	0	24117248	71	4655
2026-01-05 07:21:42.82	56.44	7.69	-51.0	-53.0	15.2	6.05e-01	0	28	0	26214400	71	4356
2026-01-05 07:21:43.81	56.32	7.76	-50.7	-52.6	15.3	6.03e-01	0	28	0	27787264	70	4393
2026-01-05 07:21:44.80	56.20	7.82	-50.6	-52.5	15.3	6.03e-01	0	27	0	29884416	70	4368
2026-01-05 07:21:45.79	56.07	7.88	-50.7	-52.6	15.3	6.01e-01	0	28	0	31457280	70	4405
2026-01-05 07:21:46.78	55.95	7.94	-50.6	-52.5	15.3	6.03e-01	0	27	0	33554432	70	4346
2026-01-05 07:21:47.77	55.82	8.01	-50.6	-52.4	15.3	6.04e-01	0	28	0	35651584	70	4321
2026-01-05 07:21:48.76	55.70	8.07	-51.1	-62.7	3.8	7.45e-01	0	28	104	36175872	70	14085
2026-01-05 07:21:49.75	55.57	8.13	-51.0	-62.6	3.8	7.46e-01	0	28	104	36175872	70	14009
2026-01-05 07:21:50.75	55.45	8.20	-51.0	-62.5	3.9	7.44e-01	0	28	104	36175872	70	13849
2026-01-05 07:21:51.74	55.32	8.26	-52.5	-64.5	3.9	7.51e-01	0	28	104	36175872	72	15415
2026-01-05 07:21:52.73	55.19	8.32	-56.5	-70.7	3.8	7.46e-01	0	28	104	36175872	80	19937
2026-01-05 07:21:53.73	55.06	8.39	-56.8	-71.4	3.8	7.51e-01	0	28	104	36175872	81	20523
2026-01-05 07:21:54.72	54.93	8.45	-51.5	-63.2	3.8	7.48e-01	0	28	104	36175872	72	13312
2026-01-05 07:21:55.71	54.80	8.52	-51.3	-62.9	3.8	7.47e-01	0	27	104	36175872	71	13646
2026-01-05 07:21:56.71	54.67	8.58	-51.4	-62.8	4.0	7.44e-01	0	28	104	36175872	71	13566
2026-01-05 07:21:57.70	54.54	8.64	-51.4	-63.1	3.8	7.46e-01	0	28	104	36175872	71	13936
2026-01-05 07:21:58.70	54.41	8.71	-51.0	-62.5	3.8	7.46e-01	0	28	104	36175872	71	13095
2026-01-05 07:21:59.70	54.27	8.77	-53.8	-66.1	4.0	7.51e-01	0	28	104	36175872	75	15611
2026-01-05 07:22:00.68	54.14	8.83	-55.9	-69.5	3.7	7.46e-01	0	28	104	36175872	79	18429
2026-01-05 07:22:01.68	54.01	8.90	-53.6	-65.6	4.2	7.27e-01	0	28	104	36175872	76	13896
2026-01-05 07:22:02.67	53.87	8.96	-56.2	-70.4	3.8	7.46e-01	0	28	104	36175872	80	19249
2026-01-05 07:22:03.66	53.74	9.03	-52.9	-64.9	3.8	7.45e-01	0	28	104	36175872	75	13674
2026-01-05 07:22:04.66	53.60	9.09	-51.8	-63.5	3.8	7.45e-01	0	28	104	36175872	72	13742
2026-01-05 07:22:05.65	53.46	9.16	-51.7	-63.3	3.8	7.46e-01	0	28	104	36175872	72	13568
2026-01-05 07:22:06.64	53.33	9.22	-55.9	-69.4	3.8	7.44e-01	0	28	104	36175872	79	18300
2026-01-05 07:22:07.63	53.19	9.28	-54.5	-67.2	3.8	7.47e-01	0	28	104	36175872	78	15023
2026-01-05 07:22:08.64	53.05	9.35	-55.9	-69.3	3.8	7.44e-01	0	28	104	36175872	79	17966
2026-01-05 07:22:09.63	52.91	9.41	-56.3	-70.0	3.8	7.49e-01	0	28	104	36175872	81	17420
2026-01-05 07:22:10.61	52.77	9.48	-52.0	-63.8	3.8	7.48e-01	0	28	104	36175872	73	13468
2026-01-05 07:22:11.60	52.63	9.54	-51.1	-62.6	3.8	7.45e-01	0	28	104	36175872	71	13150
2026-01-05 07:22:12.59	52.49	9.60	-50.9	-62.4	3.8	7.47e-01	0	28	104	36175872	71	12948
2026-01-05 07:22:13.57	52.35	9.67	-50.6	-62.0	3.8	7.49e-01	0	28	104	36175872	70	13099
2026-01-05 07:22:14.57	52.20	9.73	-50.7	-62.2	3.8	7.46e-01	0	28	104	36175872	70	13349
2026-01-05 07:22:15.55	52.06	9.80	-52.2	-63.9	3.9	7.50e-01	0	28	104	36175872	71	15252
2026-01-05 07:22:16.54	51.92	9.86	-55.0	-67.8	3.8	7.46e-01	0	28	104	36175872	77	16925
2026-01-05 07:22:17.53	51.77	9.92	-55.9	-69.4	3.9	7.45e-01	0	28	104	36175872	81	16206
2026-01-05 07:22:18.51	51.63	9.99	-52.9	-64.9	3.9	7.45e-01	0	28	104	36175872	75	13691
2026-01-05 07:22:19.49	51.49	10.05	-51.3	-62.9	3.8	7.45e-01	0	28	104	36175872	71	13639
2026-01-05 07:22:20.47	51.34	10.11	-51.3	-62.9	3.8	7.46e-01	0	28	104	36175872	71	13654
2026-01-05 07:22:21.46	51.19	10.18	-50.9	-62.4	3.8	7.42e-01	0	28	104	36175872	71	12953
2026-01-05 07:22:22.44	51.05	10.24	-51.4	-63.0	3.8	7.48e-01	0	28	104	36175872	70	14559
2026-01-05 07:22:23.42	50.90	10.31	-52.5	-64.4	3.8	7.46e-01	0	28	104	36175872	72	15323
2026-01-05 07:22:24.40	50.75	10.37	-53.6	-65.8	3.8	7.50e-01	0	28	104	36175872	74	16093
2026-01-05 07:22:25.39	50.60	10.43	-56.2	-70.1	3.9	7.45e-01	0	28	104	36175872	81	17674
2026-01-05 07:22:26.38	50.45	10.50	-55.8	-69.0	3.9	7.46e-01	0	28	104	36175872	80	16349
2026-01-05 07:22:27.36	50.30	10.56	-50.8	-62.2	3.8	7.45e-01	0	28	104	36175872	70	13319
2026-01-05 07:22:28.36	50.15	10.63	-50.7	-62.1	3.8	7.47e-01	0	28	104	36175872	70	13211
2026-01-05 07:22:29.35	50.00	10.69	-50.3	-61.8	3.8	7.44e-01	0	28	104	36175872	69	13430
2026-01-05 07:22:30.35	49.84	10.76	-50.5	-61.9	3.8	7.46e-01	0	28	104	36175872	69	13638
2026-01-05 07:22:31.34	49.69	10.82	-51.3	-63.0	3.9	7.46e-01	0	27	104	36175872	70	14556
2026-01-05 07:22:32.33	49.53	10.89	-53.9	-66.2	3.8	7.47e-01	0	28	104	36175872	76	14962
2026-01-05 07:22:33.31	49.38	10.95	-56.0	-69.7	3.9	7.44e-01	0	28	104	36175872	81	16738
2026-01-05 07:22:34.30	49.22	11.01	-51.5	-63.1	3.8	7.44e-01	0	28	104	36175872	71	13958
2026-01-05 07:22:35.29	49.06	11.08	-56.5	-70.8	3.9	7.44e-01	0	28	104	36175872	82	18025
2026-01-05 07:22:36.29	48.90	11.14	-51.3	-62.8	3.8	7.45e-01	0	28	104	36175872	71	13538
2026-01-05 07:22:37.27	48.74	11.21	-50.8	-62.3	3.9	7.47e-01	0	28	104	36175872	70	13524
2026-01-05 07:22:38.26	48.58	11.27	-51.1	-62.7	3.8	7.46e-01	0	27	104	36175872	70	14051
2026-01-05 07:22:39.24	48.43	11.33	-57.3	-72.7	3.9	7.46e-01	0	28	104	36175872	83	21147
2026-01-05 07:22:40.23	48.26	11.40	-52.7	-64.6	3.8	7.42e-01	0	28	104	36175872	74	14029
2026-01-05 07:22:41.22	48.10	11.46	-56.9	-71.6	3.9	7.46e-01	0	28	104	36175872	82	19768
2026-01-05 07:22:42.22	47.94	11.53	-56.9	-71.8	3.9	7.43e-01	0	28	104	36175872	82	20166
2026-01-05 07:22:43.20	47.78	11.59	-51.0	-62.5	3.8	7.48e-01	0	28	104	36175872	70	13868
2026-01-05 07:22:44.18	47.61	11.65	-50.9	-62.5	3.8	7.41e-01	0	28	104	36175872	70	13795
2026-01-05 07:22:45.16	47.45	11.72	-51.1	-62.5	3.8	7.45e-01	0	28	104	36175872	70	13782
2026-01-05 07:22:46.15	47.28	11.78	-50.9	-62.4	3.8	7.46e-01	0	28	104	36175872	70	13631
2026-01-05 07:22:47.13	47.12	11.84	-51.2	-62.7	3.8	7.45e-01	0	28	104	36175872	70	14069
2026-01-05 07:22:48.11	46.95	11.91	-53.8	-66.1	3.8	7.47e-01	0	28	104	36175872	75	15753
2026-01-05 07:22:49.09	46.79	11.97	-56.7	-71.1	3.8	7.48e-01	0	28	104	36175872	81	19719
2026-01-05 07:22:50.07	46.62	12.03	-51.3	-62.5	3.9	7.49e-01	0	28	104	36175872	71	13037
2026-01-05 07:22:51.06	46.45	12.10	-57.2	-72.6	3.8	7.44e-01	0	28	104	36175872	82	22069
2026-01-05 07:22:52.05	46.28	12.16	-51.3	-62.9	3.8	7.43e-01	0	28	104	36175872	71	13647
2026-01-05 07:22:53.02	46.11	12.22	-51.4	-63.0	3.8	7.47e-01	0	28	104	36175872	71	13818
2026-01-05 07:22:54.01	45.94	12.29	-51.3	-62.9	3.8	7.46e-01	0	27	104	36175872	71	13647
2026-01-05 07:22:54.99	45.77	12.35	-50.7	-62.2	3.8	7.44e-01	0	28	104	36175872	70	13370
2026-01-05 07:22:55.98	45.59	12.41	-50.4	-61.8	3.8	7.46e-01	0	28	104	36175872	70	12800
2026-01-05 07:22:56.98	45.42	12.48	-50.5	-61.9	3.8	7.44e-01	0	28	104	36175872	70	12945
2026-01-05 07:22:57.98	45.24	12.54	-50.4	-61.8	3.8	7.47e-01	0	28	104	36175872	69	13456
2026-01-05 07:22:58.96	45.06	12.60	-50.2	-61.6	3.8	7.46e-01	0	28	104	36175872	69	13233
2026-01-05 07:22:59.94	44.89	12.67	-50.3	-61.7	3.9	7.45e-01	0	28	104	36175872	69	13377
2026-01-05 07:23:00.93	44.71	12.73	-50.3	-61.8	3.8	7.45e-01	0	28	104	36175872	69	13430
2026-01-05 07:23:01.92	44.53	12.79	-50.4	-61.8	3.9	7.46e-01	0	28	104	36175872	69	13498
2026-01-05 07:23:02.91	44.35	12.86	-50.3	-61.6	3.8	7.49e-01	0	28	104	36175872	69	13256
2026-01-05 07:23:03.91	44.17	12.92	-50.0	-61.4	3.9	7.47e-01	0	28	104	36175872	69	12950
2026-01-05 07:23:04.90	43.99	12.98	-50.0	-61.4	3.9	7.43e-01	0	28	104	36175872	69	12928
2026-01-05 07:23:05.90	43.80	13.05	-50.1	-61.4	3.8	7.46e-01	0	28	104	36175872	69	12908
2026-01-05 07:23:06.90	43.62	13.11	-50.0	-61.3	3.9	7.45e-01	0	28	104	36175872	69	12788
2026-01-05 07:23:07.88	43.44	13.17	-50.1	-61.4	3.8	7.45e-01	0	28	104	36175872	69	12917
2026-01-05 07:23:08.87	43.25	13.23	-50.1	-61.5	3.8	7.43e-01	0	28	104	36175872	69	13051
2026-01-05 07:23:09.86	43.07	13.30	-50.1	-61.5	3.9	7.47e-01	0	28	104	36175872	69	13088
2026-01-05 07:23:10.84	42.88	13.36	-50.0	-61.4	3.8	7.45e-01	0	28	104	36175872	69	12947
2026-01-05 07:23:11.83	42.69	13.42	-50.0	-61.4	3.8	7.45e-01	0	28	104	36175872	69	12943
2026-01-05 07:23:12.82	42.51	13.48	-50.1	-61.4	3.8	7.45e-01	0	27	104	36175872	69	12959
2026-01-05 07:23:13.82	42.31	13.54	-50.1	-61.4	3.8	7.45e-01	0	28	104	36175872	69	12903
2026-01-05 07:23:14.81	42.12	13.61	-49.9	-61.3	3.9	7.46e-01	0	27	104	36175872	69	12733
2026-01-05 07:23:15.80	41.93	13.67	-50.0	-61.3	3.8	7.44e-01	0	28	104	36175872	69	12796
2026-01-05 07:23:16.80	41.74	13.73	-50.0	-61.3	3.9	7.45e-01	0	28	104	36175872	69	12770
2026-01-05 07:23:17.79	41.55	13.79	-50.0	-61.4	3.8	7.45e-01	0	27	104	36175872	69	12829
2026-01-05 07:23:18.78	41.35	13.85	-50.0	-61.4	3.8	7.49e-01	0	28	104	36175872	69	12897
2026-01-05 07:23:19.77	41.16	13.91	-49.9	-61.3	3.9	7.46e-01	0	27	104	36175872	69	12697
2026-01-05 07:23:20.76	40.96	13.97	-50.0	-61.4	3.8	7.44e-01	0	28	104	36175872	69	12872
2026-01-05 07:23:21.75	40.77	14.04	-50.0	-61.4	3.8	7.42e-01	0	27	104	36175872	69	12841
2026-01-05 07:23:22.73	40.57	14.10	-50.0	-61.5	3.9	7.45e-01	0	28	104	36175872	69	12961
2026-01-05 07:23:23.72	40.38	14.16	-50.1	-61.6	3.8	7.45e-01	0	28	104	36175872	69	13130
2026-01-05 07:23:24.71	40.18	14.22	-52.3	-64.1	3.8	7.46e-01	0	28	104	36175872	72	14719
2026-01-05 07:23:25.70	39.98	14.28	-56.2	-70.0	3.8	7.48e-01	0	28	104	36175872	80	18336
2026-01-05 07:23:26.69	39.78	14.34	-53.4	-65.6	3.9	7.44e-01	0	28	104	36175872	76	13916
2026-01-05 07:23:27.68	39.58	14.40	-55.5	-68.5	3.8	7.44e-01	0	28	104	36175872	78	17290
2026-01-05 07:23:28.68	39.37	14.46	-52.4	-64.1	3.8	7.44e-01	0	28	104	36175872	74	13207
2026-01-05 07:23:29.67	39.17	14.52	-51.0	-62.4	3.8	7.47e-01	0	27	104	36175872	71	12932
2026-01-05 07:23:30.66	38.96	14.57	-50.5	-62.0	3.8	7.48e-01	0	27	104	36175872	70	12988
2026-01-05 07:23:31.65	38.76	14.63	-53.1	-65.0	3.8	7.45e-01	0	28	104	36175872	73	15461
2026-01-05 07:23:32.65	38.55	14.69	-51.0	-62.4	3.8	7.44e-01	0	27	104	36175872	69	14474
2026-01-05 07:23:33.64	38.35	14.75	-55.4	-68.3	3.8	7.49e-01	0	28	104	36175872	78	16968
2026-01-05 07:23:34.63	38.14	14.81	-52.5	-64.4	3.9	7.47e-01	0	28	104	36175872	74	13670
2026-01-05 07:23:35.61	37.93	14.87	-55.0	-67.5	3.8	7.45e-01	0	28	104	36175872	77	16469
2026-01-05 07:23:36.61	37.72	14.93	-51.7	-63.2	3.9	7.48e-01	0	28	104	36175872	72	13393
2026-01-05 07:23:37.60	37.51	14.98	-50.5	-61.8	3.9	7.47e-01	0	28	104	36175872	70	12802
2026-01-05 07:23:38.59	37.30	15.04	-50.1	-61.4	3.8	7.45e-01	0	28	104	36175872	69	12942
2026-01-05 07:23:39.58	37.09	15.10	-49.9	-61.3	3.9	7.46e-01	0	28	104	36175872	69	12732
2026-01-05 07:23:40.57	36.87	15.16	-50.0	-61.3	3.9	7.44e-01	0	28	104	36175872	69	12741
2026-01-05 07:23:41.57	36.66	15.21	-49.9	-61.4	3.9	7.44e-01	0	28	104	36175872	69	12858
2026-01-05 07:23:42.56	36.44	15.27	-50.0	-61.4	3.8	7.46e-01	0	28	104	36175872	69	12824
2026-01-05 07:23:43.54	36.23	15.33	-50.1	-61.4	3.9	7.43e-01	0	27	104	36175872	69	12911
2026-01-05 07:23:44.53	36.02	15.38	-49.9	-61.2	3.9	7.46e-01	0	28	104	36175872	68	13311
2026-01-05 07:23:45.52	35.80	15.44	-49.9	-61.2	3.8	7.49e-01	0	28	104	36175872	68	13344
2026-01-05 07:23:46.51	35.58	15.50	-49.9	-61.2	3.9	7.45e-01	0	27	104	36175872	68	13385
2026-01-05 07:23:47.51	35.36	15.55	-50.9	-62.5	3.8	7.48e-01	0	28	104	36175872	69	14550
2026-01-05 07:23:48.50	35.14	15.61	-54.4	-66.8	3.8	7.45e-01	0	28	104	36175872	76	16088
2026-01-05 07:23:49.49	34.92	15.66	-54.7	-67.2	3.9	7.47e-01	0	28	104	36175872	78	14990
2026-01-05 07:23:50.47	34.70	15.72	-52.3	-64.2	3.8	7.42e-01	0	28	104	36175872	72	14900
2026-01-05 07:23:51.47	34.47	15.77	-54.0	-66.2	3.9	7.45e-01	0	27	104	36175872	77	14131
2026-01-05 07:23:52.46	34.25	15.82	-50.4	-61.9	3.9	7.45e-01	0	28	104	36175872	70	12849
2026-01-05 07:23:53.45	34.03	15.88	-50.1	-61.5	3.9	7.47e-01	0	28	104	36175872	69	12960
2026-01-05 07:23:54.43	33.80	15.93	-49.9	-61.2	3.9	7.46e-01	0	28	104	36175872	68	13401
2026-01-05 07:23:55.42	33.58	15.98	-49.9	-61.2	3.9	7.48e-01	0	28	104	36175872	68	13397
2026-01-05 07:23:56.41	33.35	16.04	-49.9	-61.2	3.9	7.43e-01	0	28	104	36175872	68	13334
2026-01-05 07:23:57.39	33.13	16.09	-51.2	-62.6	3.8	7.49e-01	0	28	104	36175872	69	14731
2026-01-05 07:23:58.38	32.90	16.14	-53.3	-65.4	3.9	7.44e-01	0	28	104	36175872	76	13666
2026-01-05 07:23:59.37	32.67	16.19	-53.0	-65.0	3.8	7.48e-01	0	28	104	36175872	73	15413
2026-01-05 07:24:00.35	32.44	16.24	-55.6	-68.8	3.9	7.46e-01	0	28	104	36175872	80	16025
2026-01-05 07:24:01.34	32.21	16.30	-50.3	-61.5	3.9	7.42e-01	0	28	104	36175872	69	13091
2026-01-05 07:24:02.33	31.98	16.35	-56.0	-69.5	3.9	7.46e-01	0	28	104	36175872	81	16365
2026-01-05 07:24:03.32	31.75	16.40	-50.1	-61.5	3.8	7.44e-01	0	27	104	36175872	69	13040
2026-01-05 07:24:04.31	31.51	16.45	-50.1	-61.4	3.8	7.49e-01	0	28	104	36175872	69	12908
2026-01-05 07:24:05.29	31.28	16.50	-50.1	-61.4	3.8	7.47e-01	0	28	104	36175872	69	12863
2026-01-05 07:24:06.27	31.05	16.55	-50.1	-61.4	3.9	7.46e-01	0	27	104	36175872	69	12865
2026-01-05 07:24:07.26	30.81	16.60	-50.0	-61.3	3.8	7.42e-01	0	27	104	36175872	69	12799
2026-01-05 07:24:08.24	30.58	16.64	-50.0	-61.4	3.8	7.49e-01	0	28	104	36175872	69	12854
2026-01-05 07:24:09.23	30.34	16.69	-55.4	-68.5	3.9	7.40e-01	0	28	104	36175872	80	15558
2026-01-05 07:24:10.21	30.10	16.74	-52.6	-64.4	3.9	7.44e-01	0	28	104	36175872	73	14428
2026-01-05 07:24:11.20	29.87	16.79	-56.7	-70.8	3.9	7.43e-01	0	28	104	36175872	82	17915
2026-01-05 07:24:12.18	29.63	16.84	-50.1	-61.4	3.8	7.48e-01	0	28	104	36175872	69	12942
2026-01-05 07:24:13.17	29.39	16.88	-56.8	-71.0	3.9	7.45e-01	0	28	104	36175872	82	18462
2026-01-05 07:24:14.15	29.15	16.93	-50.2	-61.6	3.8	7.46e-01	0	28	104	36175872	69	13193
2026-01-05 07:24:15.14	28.91	16.97	-50.0	-61.3	3.9	7.45e-01	0	28	104	36175872	69	12765
2026-01-05 07:24:16.13	28.66	17.02	-50.1	-61.4	3.8	7.48e-01	0	28	104	36175872	69	12881
2026-01-05 07:24:17.12	28.42	17.07	-50.1	-61.4	3.9	7.47e-01	0	28	104	36175872	69	12857
2026-01-05 07:24:18.12	28.17	17.11	-50.1	-61.4	3.8	7.44e-01	0	27	104	36175872	69	12853
2026-01-05 07:24:19.11	27.93	17.16	-50.0	-61.3	3.8	7.43e-01	0	28	104	36175872	69	12802
2026-01-05 07:24:20.09	27.68	17.20	-57.3	-72.2	3.8	7.46e-01	0	28	104	36175872	82	21179
2026-01-05 07:24:21.08	27.43	17.24	-52.6	-64.4	3.8	7.45e-01	0	28	104	36175872	73	14537
2026-01-05 07:24:22.06	27.19	17.29	-57.2	-72.0	3.8	7.43e-01	0	28	104	36175872	82	20690
2026-01-05 07:24:23.05	26.94	17.33	-50.4	-61.7	3.9	7.46e-01	0	27	104	36175872	70	12658
2026-01-05 07:24:24.04	26.69	17.37	-57.1	-71.7	3.8	7.44e-01	0	28	104	36175872	81	21244
2026-01-05 07:24:25.02	26.44	17.41	-50.3	-61.6	3.9	7.50e-01	0	28	104	36175872	69	13194
2026-01-05 07:24:26.00	26.20	17.45	-50.2	-61.5	3.9	7.50e-01	0	28	104	36175872	69	13096
2026-01-05 07:24:26.98	25.95	17.49	-50.1	-61.5	3.9	7.44e-01	0	28	104	36175872	69	12981
2026-01-05 07:24:27.97	25.69	17.53	-50.2	-61.6	3.9	7.47e-01	0	28	104	36175872	69	13221
2026-01-05 07:24:28.97	25.44	17.57	-50.1	-61.4	3.9	7.46e-01	0	28	104	36175872	69	12917
2026-01-05 07:24:29.97	25.18	17.61	-50.0	-61.4	3.9	7.44e-01	0	28	104	36175872	69	12837
2026-01-05 07:24:30.97	24.92	17.65	-50.1	-61.5	3.9	7.48e-01	0	28	104	36175872	69	13011
2026-01-05 07:24:31.96	24.67	17.69	-50.2	-61.6	3.8	7.45e-01	0	28	104	36175872	69	13152
2026-01-05 07:24:32.96	24.41	17.73	-52.4	-64.2	3.8	7.48e-01	0	28	104	36175872	72	14920
2026-01-05 07:24:33.96	24.15	17.77	-57.4	-72.3	3.8	7.49e-01	0	28	104	36175872	82	21438
2026-01-05 07:24:34.95	23.89	17.81	-50.7	-62.2	3.9	7.43e-01	0	28	104	36175872	70	13271
2026-01-05 07:24:35.95	23.63	17.84	-57.0	-71.4	3.8	7.47e-01	0	28	104	36175872	81	20488
2026-01-05 07:24:36.95	23.37	17.88	-50.3	-61.6	3.9	7.48e-01	0	28	104	36175872	69	13188
2026-01-05 07:24:37.95	23.11	17.92	-50.1	-61.5	3.8	7.42e-01	0	28	104	36175872	69	12972
2026-01-05 07:24:38.94	22.85	17.95	-50.2	-61.6	3.8	7.48e-01	0	28	104	36175872	69	13174
2026-01-05 07:24:39.94	22.59	17.99	-55.6	-68.6	3.8	7.46e-01	0	28	104	36175872	78	17597
2026-01-05 07:24:40.94	22.32	18.02	-52.6	-64.3	3.9	7.47e-01	0	28	104	36175872	74	13548
2026-01-05 07:24:41.94	22.06	18.05	-57.4	-72.3	3.8	7.46e-01	0	28	104	36175872	82	21473
2026-01-05 07:24:42.94	21.80	18.09	-50.9	-62.4	3.9	7.43e-01	0	27	104	36175872	71	12955
2026-01-05 07:24:43.94	21.53	18.12	-56.8	-70.9	3.8	7.45e-01	0	28	104	36175872	81	19241
2026-01-05 07:24:44.94	21.26	18.15	-50.9	-62.4	3.9	7.45e-01	0	28	104	36175872	71	12904
2026-01-05 07:24:45.93	21.00	18.18	-50.8	-62.2	3.8	7.45e-01	0	28	104	36175872	70	13347
2026-01-05 07:24:46.93	20.73	18.21	-50.8	-62.3	3.9	7.49e-01	0	28	104	36175872	70	13505
2026-01-05 07:24:47.92	20.47	18.24	-54.5	-66.9	3.8	7.46e-01	0	28	104	36175872	76	16185
2026-01-05 07:24:48.92	20.20	18.27	-52.0	-63.7	3.9	7.45e-01	0	27	104	36175872	71	14973
2026-01-05 07:24:49.92	19.93	18.30	-57.4	-72.3	3.8	7.47e-01	0	28	104	36175872	82	21441
2026-01-05 07:24:50.91	19.66	18.33	-50.9	-62.3	3.9	7.47e-01	0	28	104	36175872	71	12770
2026-01-05 07:24:51.90	19.39	18.36	-56.9	-71.1	3.8	7.48e-01	0	28	104	36175872	81	19734
2026-01-05 07:24:52.90	19.12	18.39	-50.6	-62.1	3.8	7.41e-01	0	28	104	36175872	70	13190
2026-01-05 07:24:53.90	18.85	18.41	-50.4	-61.7	3.8	7.45e-01	0	28	104	36175872	69	13308
2026-01-05 07:24:54.90	18.58	18.44	-50.2	-61.5	3.9	7.47e-01	0	28	104	36175872	69	13028
2026-01-05 07:24:55.90	18.31	18.46	-55.3	-68.1	3.8	7.45e-01	0	28	104	36175872	78	16633
2026-01-05 07:24:56.89	18.04	18.49	-51.8	-63.5	3.8	7.47e-01	0	28	104	36175872	71	14601
2026-01-05 07:24:57.89	17.77	18.51	-57.5	-72.6	3.8	7.47e-01	0	27	104	36175872	82	22008
2026-01-05 07:24:58.89	17.49	18.54	-51.2	-62.7	3.8	7.45e-01	0	27	104	36175872	71	13300
2026-01-05 07:24:59.89	17.22	18.56	-56.7	-70.7	3.8	7.48e-01	0	28	104	36175872	81	18805
2026-01-05 07:25:00.88	16.95	18.58	-51.1	-62.6	3.8	7.43e-01	0	28	104	36175872	71	13206
2026-01-05 07:25:01.87	16.67	18.60	-50.8	-62.2	3.8	7.42e-01	0	28	104	36175872	70	13310
2026-01-05 07:25:02.87	16.40	18.62	-50.5	-61.9	3.8	7.43e-01	0	28	104	36175872	70	12940
2026-01-05 07:25:03.86	16.13	18.65	-54.7	-67.3	3.8	7.49e-01	0	27	104	36175872	77	16022
2026-01-05 07:25:04.85	15.85	18.66	-51.8	-63.4	3.8	7.45e-01	0	28	104	36175872	71	14436
2026-01-05 07:25:05.85	15.58	18.68	-57.4	-72.4	3.8	7.46e-01	0	28	104	36175872	82	21513
2026-01-05 07:25:06.85	15.30	18.70	-51.4	-62.9	3.9	7.45e-01	0	28	104	36175872	72	12871
2026-01-05 07:25:07.84	15.02	18.72	-56.5	-70.1	3.8	7.47e-01	0	28	104	36175872	80	18687
2026-01-05 07:25:08.84	14.75	18.74	-50.6	-62.0	3.8	7.46e-01	0	28	104	36175872	70	13109
2026-01-05 07:25:09.84	14.47	18.75	-50.4	-61.7	3.9	7.42e-01	0	28	104	36175872	70	12592
2026-01-05 07:25:10.84	14.19	18.77	-50.2	-61.6	3.8	7.45e-01	0	27	104	36175872	69	13134
2026-01-05 07:25:11.83	13.91	18.79	-55.9	-69.1	3.8	7.44e-01	0	28	104	36175872	79	17494
2026-01-05 07:25:12.83	13.64	18.80	-51.6	-63.0	3.8	7.43e-01	0	27	104	36175872	70	14675
2026-01-05 07:25:13.82	13.36	18.81	-57.4	-72.3	3.9	7.45e-01	0	28	104	36175872	82	21438
2026-01-05 07:25:14.82	13.08	18.83	-51.6	-63.2	3.9	7.47e-01	0	28	104	36175872	72	13343
2026-01-05 07:25:15.81	12.80	18.84	-56.4	-70.0	3.8	7.45e-01	0	28	104	36175872	80	18457
2026-01-05 07:25:16.80	12.53	18.85	-51.2	-62.7	3.9	7.45e-01	0	28	104	36175872	71	13312
2026-01-05 07:25:17.80	12.25	18.86	-50.9	-62.3	3.9	7.43e-01	0	28	104	36175872	70	13512
2026-01-05 07:25:18.80	11.97	18.88	-50.8	-62.3	3.9	7.45e-01	0	28	104	36175872	70	13450
2026-01-05 07:25:19.79	11.69	18.88	-53.5	-65.5	3.8	7.43e-01	0	27	104	36175872	74	15527
2026-01-05 07:25:20.78	11.41	18.89	-51.4	-62.9	3.8	7.46e-01	0	27	104	36175872	70	14492
2026-01-05 07:25:21.78	11.13	18.90	-57.3	-72.1	3.8	7.46e-01	0	27	104	36175872	82	20870
2026-01-05 07:25:22.77	10.85	18.91	-51.8	-63.2	3.8	7.45e-01	0	28	104	36175872	72	13271
2026-01-05 07:25:23.76	10.57	18.92	-56.2	-69.8	3.8	7.45e-01	0	28	104	36175872	80	18038
2026-01-05 07:25:24.76	10.29	18.92	-51.5	-62.9	3.8	7.43e-01	0	28	104	36175872	72	12927
2026-01-05 07:25:25.76	10.01	18.93	-50.7	-62.1	3.8	7.49e-01	0	28	104	36175872	70	13156
2026-01-05 07:25:26.77	9.73	18.94	-50.4	-61.8	3.9	7.47e-01	0	28	104	36175872	70	12727
2026-01-05 07:25:27.76	9.45	18.94	-53.5	-65.6	3.8	7.42e-01	0	27	104	36175872	74	15687
2026-01-05 07:25:28.76	9.17	18.94	-51.4	-62.9	3.8	7.46e-01	0	28	104	36175872	70	14459
2026-01-05 07:25:29.76	8.88	18.95	-57.3	-72.0	3.8	7.49e-01	0	28	104	36175872	82	20633
2026-01-05 07:25:30.76	8.60	18.95	-52.0	-63.7	3.9	7.44e-01	0	28	104	36175872	73	13279
2026-01-05 07:25:31.76	8.32	18.95	-56.1	-69.3	3.8	7.47e-01	0	28	104	36175872	79	18043
2026-01-05 07:25:32.75	8.04	18.95	-51.3	-62.5	3.9	7.42e-01	0	28	104	36175872	71	13090
2026-01-05 07:25:33.75	7.76	18.95	-50.8	-62.3	3.8	7.45e-01	0	27	104	36175872	70	13509
2026-01-05 07:25:34.75	7.48	18.95	-50.8	-62.3	3.9	7.47e-01	0	28	104	36175872	70	13423
2026-01-05 07:25:35.75	7.20	18.95	-52.4	-64.3	3.8	7.46e-01	0	28	104	36175872	72	15074
2026-01-05 07:25:36.75	6.91	18.95	-51.3	-62.8	3.8	7.45e-01	0	28	104	36175872	70	14365
2026-01-05 07:25:37.75	6.63	18.95	-57.3	-72.1	3.7	7.47e-01	0	28	104	36175872	82	20871
2026-01-05 07:25:38.74	6.35	18.95	-52.1	-63.7	3.8	7.47e-01	0	28	104	36175872	73	13405
2026-01-05 07:25:39.74	6.07	18.94	-55.7	-68.9	3.8	7.48e-01	0	28	104	36175872	79	17128
2026-01-05 07:25:40.74	5.79	18.94	-51.6	-63.1	3.9	7.42e-01	0	28	104	36175872	72	13242
2026-01-05 07:25:41.74	5.51	18.93	-50.8	-62.2	3.9	7.46e-01	0	28	104	36175872	70	13270
2026-01-05 07:25:42.73	5.23	18.93	-50.7	-62.3	3.8	7.49e-01	0	28	104	36175872	70	13440
2026-01-05 07:25:43.72	4.95	18.92	-54.8	-67.4	3.9	7.43e-01	0	28	104	36175872	77	16289
2026-01-05 07:25:44.72	4.67	18.91	-51.1	-62.5	3.8	7.47e-01	0	28	104	36175872	70	13774
2026-01-05 07:25:45.71	4.39	18.91	-57.2	-71.9	3.8	7.48e-01	0	28	104	36175872	82	20516
2026-01-05 07:25:46.70	4.11	18.90	-52.3	-63.7	3.8	7.45e-01	0	28	104	36175872	73	13338
2026-01-05 07:25:47.71	3.83	18.89	-55.7	-69.0	3.8	7.46e-01	0	28	104	36175872	79	17388
2026-01-05 07:25:48.70	3.55	18.88	-51.6	-63.2	3.9	7.48e-01	0	27	104	36175872	72	13268
2026-01-05 07:25:49.69	3.27	18.87	-50.9	-62.4	3.8	7.43e-01	0	28	104	36175872	70	13650
2026-01-05 07:25:50.68	3.00	18.86	-50.8	-62.1	3.9	7.45e-01	0	27	104	36175872	70	13252
2026-01-05 07:25:51.69	2.71	18.85	-55.3	-68.1	3.8	7.48e-01	0	28	104	36175872	78	16618
2026-01-05 07:25:52.68	2.44	18.83	-50.9	-62.3	3.8	7.46e-01	0	28	104	36175872	70	13551
2026-01-05 07:25:53.67	2.16	18.82	-56.9	-71.0	3.8	7.46e-01	0	28	104	36175872	81	19590
2026-01-05 07:25:54.67	1.88	18.81	-52.9	-64.8	3.9	7.45e-01	0	28	104	36175872	75	13509
2026-01-05 07:25:55.66	1.60	18.79	-55.1	-67.6	3.8	7.49e-01	0	28	104	36175872	77	16645
2026-01-05 07:25:56.65	1.33	18.78	-51.3	-63.0	3.8	7.45e-01	0	28	104	36175872	72	13028
2026-01-05 07:25:57.63	1.06	18.76	-50.8	-62.2	3.8	7.50e-01	0	28	104	36175872	70	13383
2026-01-05 07:25:58.63	0.78	18.75	-50.7	-62.0	3.8	7.45e-01	0	27	104	36175872	70	13091
2026-01-05 07:25:59.63	0.50	18.73	-54.2	-66.2	3.8	7.45e-01	0	28	104	36175872	75	15894
2026-01-05 07:26:00.63	0.22	18.71	-50.8	-62.2	3.8	7.44e-01	0	27	104	36175872	70	13344
2026-01-05 07:26:01.62	359.95	18.69	-56.6	-70.4	3.8	7.52e-01	0	28	104	36175872	80	19351
2026-01-05 07:26:02.62	359.67	18.67	-53.1	-65.0	3.9	7.43e-01	0	28	104	36175872	75	13784
2026-01-05 07:26:03.61	359.40	18.65	-54.4	-66.8	3.8	7.45e-01	0	28	104	36175872	76	15965
2026-01-05 07:26:04.59	359.13	18.63	-52.5	-64.3	3.9	7.46e-01	0	28	104	36175872	74	13442
2026-01-05 07:26:05.59	358.85	18.61	-50.8	-62.2	3.9	7.42e-01	0	28	104	36175872	70	13340
2026-01-05 07:26:06.59	358.58	18.59	-50.8	-62.2	3.9	7.48e-01	0	27	104	36175872	70	13369
2026-01-05 07:26:07.58	358.31	18.57	-51.5	-63.0	3.8	7.47e-01	0	28	104	36175872	70	14577
2026-01-05 07:26:08.58	358.03	18.55	-50.7	-62.0	3.9	7.44e-01	0	28	104	36175872	70	13092
2026-01-05 07:26:09.57	357.76	18.52	-56.2	-69.9	3.8	7.50e-01	0	28	104	36175872	80	18140
2026-01-05 07:26:10.57	357.49	18.50	-54.1	-66.4	3.9	7.44e-01	0	28	104	36175872	77	14471
2026-01-05 07:26:11.57	357.21	18.48	-53.6	-65.5	3.8	7.47e-01	0	27	104	36175872	74	15561
2026-01-05 07:26:12.56	356.94	18.45	-52.4	-64.2	3.9	7.43e-01	0	28	104	36175872	74	13288
2026-01-05 07:26:13.56	356.67	18.42	-50.7	-62.0	3.9	7.38e-01	0	28	104	36175872	70	13024
2026-01-05 07:26:14.56	356.40	18.40	-50.6	-61.9	3.9	7.43e-01	0	28	104	36175872	70	12939
2026-01-05 07:26:15.56	356.13	18.37	-52.6	-64.4	3.9	7.49e-01	0	28	104	36175872	72	15284
2026-01-05 07:26:16.56	355.86	18.34	-50.7	-62.2	3.8	7.48e-01	0	28	104	36175872	70	13385
2026-01-05 07:26:17.55	355.59	18.32	-56.3	-69.8	3.8	7.48e-01	0	28	104	36175872	80	18070
2026-01-05 07:26:18.55	355.32	18.29	-54.0	-66.2	3.9	7.49e-01	0	28	104	36175872	77	14132
2026-01-05 07:26:19.55	355.06	18.26	-53.5	-65.4	3.9	7.45e-01	0	28	104	36175872	74	15353
2026-01-05 07:26:20.55	354.79	18.23	-52.4	-64.1	3.9	7.43e-01	0	27	104	36175872	74	13205
2026-01-05 07:26:21.55	354.52	18.20	-50.7	-62.1	3.9	7.42e-01	0	28	104	36175872	70	13198
2026-01-05 07:26:22.54	354.26	18.17	-50.6	-62.0	3.9	7.46e-01	0	28	104	36175872	70	12987
2026-01-05 07:26:23.54	353.99	18.13	-52.4	-64.2	3.9	7.48e-01	0	28	104	36175872	72	14942
2026-01-05 07:26:24.54	353.72	18.10	-51.0	-62.6	3.9	7.45e-01	0	28	104	36175872	71	13111
2026-01-05 07:26:25.54	353.46	18.07	-55.6	-68.5	3.8	7.47e-01	0	28	104	36175872	78	17286
2026-01-05 07:26:26.53	353.20	18.04	-54.7	-67.1	3.9	7.43e-01	0	28	104	36175872	78	14810
2026-01-05 07:26:27.53	352.93	18.00	-52.5	-64.1	3.8	7.44e-01	0	28	104	36175872	72	14851
2026-01-05 07:26:28.51	352.67	17.97	-52.8	-64.3	3.9	7.44e-01	0	28	104	36175872	74	13492
2026-01-05 07:26:29.51	352.41	17.93	-50.8	-62.2	3.9	7.43e-01	0	28	104	36175872	70	13308
2026-01-05 07:26:30.51	352.15	17.90	-50.7	-62.1	3.9	7.46e-01	0	28	104	36175872	70	13192
2026-01-05 07:26:31.50	351.89	17.86	-51.4	-63.2	3.8	7.44e-01	0	28	104	36175872	70	14953
2026-01-05 07:26:32.51	351.63	17.82	-50.6	-61.9	3.8	7.46e-01	0	28	104	36175872	70	12862
2026-01-05 07:26:33.50	351.37	17.79	-55.6	-68.4	3.8	7.44e-01	0	28	104	36175872	78	17084
2026-01-05 07:26:34.50	351.11	17.75	-54.8	-67.2	3.9	7.45e-01	0	28	104	36175872	78	14918
2026-01-05 07:26:35.50	350.85	17.71	-52.6	-64.2	3.8	7.44e-01	0	27	104	36175872	72	14918
2026-01-05 07:26:36.49	350.60	17.67	-53.5	-65.5	3.9	7.46e-01	0	28	104	36175872	76	13847
2026-01-05 07:26:37.48	350.34	17.63	-50.9	-62.6	3.9	7.41e-01	0	28	104	36175872	70	13942
2026-01-05 07:26:38.47	350.09	17.59	-51.1	-62.4	3.9	7.45e-01	0	28	104	36175872	70	13658
2026-01-05 07:26:39.48	349.83	17.55	-53.0	-64.8	3.9	7.48e-01	0	27	104	36175872	73	15219
2026-01-05 07:26:40.47	349.58	17.51	-52.0	-63.9	3.9	7.45e-01	0	28	104	36175872	73	13646
2026-01-05 07:26:41.47	349.32	17.47	-54.9	-67.3	3.9	7.47e-01	0	28	104	36175872	77	16020
2026-01-05 07:26:42.47	349.07	17.43	-55.5	-68.7	3.9	7.45e-01	0	28	104	36175872	80	15868
2026-01-05 07:26:43.46	348.82	17.39	-51.9	-63.6	3.8	7.44e-01	0	28	104	36175872	71	14827
2026-01-05 07:26:44.46	348.57	17.35	-53.4	-65.0	3.8	7.43e-01	0	28	104	36175872	76	12982
2026-01-05 07:26:45.46	348.31	17.30	-50.8	-62.6	3.8	7.48e-01	0	27	104	36175872	70	13998
2026-01-05 07:26:46.45	348.07	17.26	-51.0	-62.7	3.9	7.44e-01	0	28	104	36175872	70	14126
2026-01-05 07:26:47.44	347.82	17.22	-51.4	-62.4	3.8	7.45e-01	0	28	104	36175872	70	13667
2026-01-05 07:26:48.43	347.57	17.17	-51.7	-63.6	3.9	7.44e-01	0	28	104	36175872	72	14042
2026-01-05 07:26:49.43	347.32	17.13	-54.0	-66.1	3.8	7.44e-01	0	28	104	36175872	75	15639
2026-01-05 07:26:50.42	347.08	17.08	-55.9	-68.9	3.9	7.42e-01	0	28	104	36175872	81	15248
2026-01-05 07:26:51.41	346.84	17.04	-51.0	-63.0	3.9	7.47e-01	0	28	104	36175872	70	14665
2026-01-05 07:26:52.40	346.59	16.99	-53.9	-66.1	3.8	7.46e-01	0	28	104	36175872	77	13994
2026-01-05 07:26:53.40	346.35	16.95	-50.4	-61.4	3.9	7.47e-01	0	27	104	36175872	70	12222
2026-01-05 07:26:54.40	346.10	16.90	-50.4	-62.6	3.8	7.45e-01	0	28	104	36175872	69	14791
2026-01-05 07:26:55.39	345.86	16.85	-51.4	-62.3	3.8	7.46e-01	0	28	104	36175872	70	13495
2026-01-05 07:26:56.39	345.62	16.81	-52.6	-64.6	3.9	7.48e-01	0	28	104	36175872	74	13899
2026-01-05 07:26:57.38	345.38	16.76	-53.3	-65.7	3.8	7.46e-01	0	28	104	36175872	74	15943
2026-01-05 07:26:58.38	345.14	16.71	-56.4	-69.6	3.9	7.40e-01	0	28	104	36175872	82	15693
2026-01-05 07:26:59.37	344.90	16.66	-50.6	-62.5	3.9	7.44e-01	0	28	104	36175872	70	13836
2026-01-05 07:27:00.35	344.67	16.61	-54.5	-66.9	3.9	7.47e-01	0	28	104	36175872	78	14496
2026-01-05 07:27:01.32	344.44	16.56	-50.5	-61.7	3.9	7.45e-01	0	28	104	36175872	70	12589
2026-01-05 07:27:02.32	344.20	16.51	-50.5	-62.4	3.9	7.46e-01	0	27	104	36175872	70	13647
2026-01-05 07:27:03.31	343.96	16.46	-51.4	-62.5	3.8	7.45e-01	0	28	104	36175872	70	13775
2026-01-05 07:27:04.31	343.73	16.41	-53.5	-65.6	3.9	7.48e-01	0	28	104	36175872	76	13963
2026-01-05 07:27:05.31	343.49	16.36	-52.7	-65.0	3.8	7.45e-01	0	28	104	36175872	73	15493
2026-01-05 07:27:06.31	343.26	16.31	-56.8	-70.5	3.9	7.44e-01	0	28	104	36175872	82	17315
2026-01-05 07:27:07.31	343.02	16.26	-50.4	-61.8	3.9	7.44e-01	0	28	104	36175872	70	12785
2026-01-05 07:27:08.30	342.79	16.21	-54.9	-67.6	3.9	7.45e-01	0	28	104	36175872	79	14865
2026-01-05 07:27:09.30	342.56	16.16	-50.6	-62.0	3.8	7.47e-01	0	28	104	36175872	70	13068
2026-01-05 07:27:10.30	342.33	16.10	-50.5	-61.7	3.8	7.48e-01	0	28	104	36175872	70	12520
2026-01-05 07:27:11.30	342.10	16.05	-51.0	-62.8	3.8	7.47e-01	0	28	104	36175872	70	14296
2026-01-05 07:27:12.29	341.88	16.00	-53.0	-64.9	3.9	7.45e-01	0	28	104	36175872	75	13593
2026-01-05 07:27:13.29	341.65	15.94	-52.2	-63.9	3.9	7.48e-01	0	28	104	36175872	72	14384
2026-01-05 07:27:14.29	341.42	15.89	-57.1	-72.1	3.8	7.46e-01	0	28	104	36175872	83	19645
2026-01-05 07:27:15.28	341.20	15.84	-50.4	-61.5	3.9	7.44e-01	0	28	104	36175872	70	12368
2026-01-05 07:27:16.28	340.97	15.78	-55.3	-68.1	3.9	7.45e-01	0	28	104	36175872	79	15582
2026-01-05 07:27:17.28	340.75	15.73	-50.8	-62.1	3.9	7.50e-01	0	28	104	36175872	70	13217
2026-01-05 07:27:18.28	340.52	15.67	-50.8	-62.3	3.9	7.45e-01	0	28	104	36175872	70	13539
2026-01-05 07:27:19.28	340.30	15.62	-50.7	-62.0	3.9	7.44e-01	0	28	104	36175872	70	13090
2026-01-05 07:27:20.27	340.08	15.56	-52.6	-64.5	3.9	7.46e-01	0	27	104	36175872	74	13867
2026-01-05 07:27:21.27	339.86	15.51	-52.3	-64.1	3.9	7.48e-01	0	28	104	36175872	72	14763
2026-01-05 07:27:22.27	339.64	15.45	-57.0	-71.6	3.9	7.44e-01	0	28	104	36175872	83	18603
2026-01-05 07:27:23.27	339.42	15.39	-50.6	-62.4	3.8	7.43e-01	0	28	104	36175872	70	13609
2026-01-05 07:27:24.27	339.20	15.34	-55.2	-67.5	3.9	7.47e-01	0	28	104	36175872	79	14562
2026-01-05 07:27:25.25	338.99	15.28	-50.5	-62.5	3.8	7.47e-01	0	28	104	36175872	70	13742
2026-01-05 07:27:26.25	338.77	15.22	-50.3	-61.5	3.8	7.48e-01	0	28	104	36175872	69	13021
2026-01-05 07:27:27.24	338.56	15.17	-50.6	-61.8	3.9	7.44e-01	0	27	104	36175872	69	13478
2026-01-05 07:27:28.23	338.34	15.11	-53.6	-65.9	3.9	7.43e-01	0	28	104	36175872	75	15381
2026-01-05 07:27:29.23	338.13	15.05	-51.8	-63.1	3.8	7.46e-01	0	28	104	36175872	71	13950
2026-01-05 07:27:30.23	337.92	14.99	-57.2	-72.2	3.9	7.48e-01	0	28	104	36175872	83	20014
2026-01-05 07:27:31.23	337.70	14.93	-50.9	-62.5	3.8	7.46e-01	0	28	104	36175872	71	13040
2026-01-05 07:27:32.23	337.49	14.88	-55.6	-68.3	3.9	7.48e-01	0	28	104	36175872	80	15078
2026-01-05 07:27:33.23	337.28	14.82	-50.6	-62.7	3.8	7.48e-01	0	28	104	36175872	70	14200
2026-01-05 07:27:34.23	337.07	14.76	-50.6	-61.4	3.9	7.49e-01	0	28	104	36175872	70	12123
2026-01-05 07:27:35.23	336.87	14.70	-50.6	-62.6	3.9	7.49e-01	0	28	104	36175872	70	13944
2026-01-05 07:27:36.22	336.66	14.64	-52.7	-64.3	3.9	7.44e-01	0	28	104	36175872	73	14281
2026-01-05 07:27:37.22	336.45	14.58	-51.9	-63.6	3.8	7.47e-01	0	28	104	36175872	71	14782
2026-01-05 07:27:38.23	336.25	14.52	-57.2	-72.2	3.9	7.49e-01	0	28	104	36175872	82	21242
2026-01-05 07:27:39.23	336.04	14.46	-50.8	-61.6	3.8	7.47e-01	0	28	104	36175872	70	12430
2026-01-05 07:27:40.23	335.84	14.40	-55.6	-69.2	3.9	7.43e-01	0	28	104	36175872	80	16865
2026-01-05 07:27:41.23	335.63	14.34	-50.7	-61.7	3.8	7.50e-01	0	28	104	36175872	70	12641
2026-01-05 07:27:42.23	335.43	14.28	-50.7	-62.6	3.9	7.44e-01	0	28	104	36175872	70	14016
2026-01-05 07:27:43.22	335.23	14.22	-51.0	-62.2	3.8	7.45e-01	0	28	104	36175872	70	13277
2026-01-05 07:27:44.23	335.03	14.16	-55.0	-68.0	3.9	7.44e-01	0	28	104	36175872	79	15560
2026-01-05 07:27:45.22	334.83	14.10	-52.1	-63.7	3.8	7.46e-01	0	27	104	36175872	71	14893
2026-01-05 07:27:46.22	334.63	14.04	-57.3	-72.2	3.9	7.45e-01	0	28	104	36175872	83	19855
2026-01-05 07:27:47.22	334.43	13.97	-50.9	-62.7	3.8	7.46e-01	0	28	104	36175872	71	13295
2026-01-05 07:27:48.22	334.24	13.91	-55.5	-68.1	3.9	7.47e-01	0	28	104	36175872	80	14804
2026-01-05 07:27:49.22	334.04	13.85	-50.8	-63.1	3.9	7.45e-01	0	28	104	36175872	70	14751
2026-01-05 07:27:50.23	333.84	13.79	-50.5	-61.3	3.8	7.45e-01	0	28	104	36175872	70	12046
2026-01-05 07:27:51.22	333.65	13.73	-50.5	-62.5	3.8	7.44e-01	0	28	104	36175872	70	13816
2026-01-05 07:27:52.22	333.46	13.66	-53.3	-65.1	3.8	7.45e-01	0	28	104	36175872	76	13114
2026-01-05 07:27:53.22	333.27	13.60	-52.1	-63.9	3.9	7.45e-01	0	28	104	36175872	71	15380
2026-01-05 07:27:54.22	333.07	13.54	-57.3	-72.1	3.9	7.45e-01	0	28	104	36175872	83	19771
2026-01-05 07:27:55.22	332.88	13.48	-51.0	-62.3	3.8	7.43e-01	0	28	104	36175872	71	12810
2026-01-05 07:27:56.22	332.69	13.41	-55.5	-68.7	3.9	7.43e-01	0	28	104	36175872	80	15814
2026-01-05 07:27:57.22	332.50	13.35	-50.9	-62.4	3.8	7.44e-01	0	28	104	36175872	71	12812
2026-01-05 07:27:58.22	332.32	13.29	-50.6	-62.0	3.8	7.46e-01	0	28	104	36175872	70	12977
2026-01-05 07:27:59.21	332.13	13.23	-50.7	-62.2	3.9	7.48e-01	0	28	104	36175872	70	13305
2026-01-05 07:28:00.22	331.94	13.16	-54.1	-66.3	3.8	7.46e-01	0	28	104	36175872	77	14268
2026-01-05 07:28:01.21	331.76	13.10	-52.3	-64.2	3.8	7.46e-01	0	28	104	36175872	72	14942
2026-01-05 07:28:02.21	331.57	13.04	-57.3	-72.2	3.9	7.46e-01	0	28	104	36175872	83	19948
2026-01-05 07:28:03.21	331.39	12.97	-51.1	-62.6	3.8	7.49e-01	0	27	104	36175872	71	13197
2026-01-05 07:28:04.20	331.21	12.91	-55.5	-68.6	3.9	7.43e-01	0	28	104	36175872	80	15660
2026-01-05 07:28:05.21	331.03	12.85	-50.9	-62.4	3.8	7.46e-01	0	27	104	36175872	71	12849
2026-01-05 07:28:06.21	330.84	12.78	-51.0	-62.3	3.8	7.45e-01	0	28	104	36175872	71	12722
2026-01-05 07:28:07.20	330.67	12.72	-50.8	-62.6	3.8	7.44e-01	0	28	104	36175872	70	14013
2026-01-05 07:28:08.20	330.49	12.66	-52.7	-64.5	3.8	7.44e-01	0	27	104	36175872	73	14694
2026-01-05 07:28:09.20	330.31	12.59	-52.3	-64.1	3.8	7.48e-01	0	27	104	36175872	72	14792
2026-01-05 07:28:10.20	330.13	12.53	-57.2	-72.2	3.9	7.43e-01	0	28	104	36175872	82	21155
2026-01-05 07:28:11.19	329.95	12.47	-51.4	-62.7	3.8	7.45e-01	0	28	104	36175872	72	12620
2026-01-05 07:28:12.18	329.78	12.40	-55.8	-69.3	3.9	7.48e-01	0	28	104	36175872	80	16950
2026-01-05 07:28:13.18	329.60	12.34	-51.1	-62.5	3.9	7.44e-01	0	28	104	36175872	71	12999
2026-01-05 07:28:14.17	329.43	12.27	-50.9	-62.4	3.8	7.47e-01	0	28	104	36175872	71	12853
2026-01-05 07:28:15.16	329.26	12.21	-50.8	-62.7	3.8	7.44e-01	0	28	104	36175872	70	14167
2026-01-05 07:28:16.16	329.09	12.15	-54.2	-57.9	4.9	7.06e-01	0	28	104	36175872	77	5425
2026-01-05 07:28:17.15	328.92	12.08	-51.7	-53.8	14.9	6.00e-01	0	28	0	36700160	71	4795
2026-01-05 07:28:18.15	328.74	12.02	-57.2	-63.6	11.1	6.06e-01	0	28	0	38797312	82	7856
2026-01-05 07:28:19.14	328.58	11.96	-51.0	-52.9	15.3	6.00e-01	0	28	0	40370176	71	4325
2026-01-05 07:28:20.14	328.41	11.89	-55.9	-60.3	13.2	6.02e-01	0	28	0	42467328	80	6012
2026-01-05 07:28:21.14	328.24	11.83	-50.8	-52.6	15.3	6.00e-01	0	28	0	44040192	70	4437
2026-01-05 07:28:22.14	328.07	11.76	-50.5	-52.4	15.4	5.99e-01	0	28	0	46137344	70	4292
2026-01-05 07:28:23.14	327.90	11.70	-50.6	-52.4	15.3	6.01e-01	0	28	0	48234496	70	4327
2026-01-05 07:28:24.13	327.74	11.63	-50.5	-52.3	15.4	6.02e-01	0	27	0	49807360	70	4250
2026-01-05 07:28:25.13	327.57	11.57	-50.3	-52.1	15.4	6.01e-01	0	27	0	51904512	69	4427
2026-01-05 07:28:26.13	327.41	11.50	-50.1	-51.8	15.4	6.00e-01	0	28	0	53477376	69	4281
2026-01-05 07:28:27.12	327.24	11.44	-50.2	-51.9	15.4	6.02e-01	0	28	0	55574528	69	4334
2026-01-05 07:28:28.12	327.08	11.37	-50.4	-52.3	15.2	6.02e-01	0	28	0	57147392	69	4499
2026-01-05 07:28:29.12	326.92	11.31	-50.0	-51.7	15.4	6.02e-01	0	28	0	59244544	69	4195
2026-01-05 07:28:30.12	326.76	11.24	-50.3	-52.1	15.3	6.01e-01	0	27	0	61341696	69	4395
2026-01-05 07:28:31.11	326.60	11.18	-50.6	-52.4	15.2	6.01e-01	0	28	0	62914560	69	4592
2026-01-05 07:28:32.10	326.44	11.12	-50.4	-52.1	15.3	6.02e-01	0	27	0	65011712	69	4440
2026-01-05 07:28:33.10	326.28	11.05	-50.3	-52.1	15.3	5.99e-01	0	28	0	66584576	69	4427
2026-01-05 07:28:34.09	326.12	10.99	-50.7	-52.6	15.2	6.02e-01	0	28	0	68681728	69	4658
2026-01-05 07:28:35.09	325.96	10.92	-50.1	-51.9	15.3	6.00e-01	0	27	0	70254592	69	4302
2026-01-05 07:28:36.09	325.81	10.86	-49.9	-51.6	15.4	6.00e-01	0	28	0	72351744	69	4187
2026-01-05 07:28:37.08	325.65	10.79	-50.5	-52.4	15.2	6.01e-01	0	28	0	73924608	69	4581
2026-01-05 07:28:38.08	325.50	10.73	-50.3	-52.1	15.3	5.99e-01	0	27	0	76021760	69	4429
2026-01-05 07:28:39.08	325.34	10.66	-50.2	-52.0	15.3	6.01e-01	0	27	0	78118912	69	4352
2026-01-05 07:28:40.08	325.19	10.60	-50.7	-52.6	15.2	6.02e-01	0	28	0	79691776	69	4673
2026-01-05 07:28:41.08	325.04	10.53	-50.6	-52.5	15.2	6.03e-01	0	27	0	81788928	69	4628
2026-01-05 07:28:42.08	324.88	10.47	-50.4	-52.2	15.3	6.01e-01	0	28	0	83361792	69	4464
2026-01-05 07:28:43.08	324.73	10.40	-50.8	-52.7	15.1	6.00e-01	0	27	0	85458944	69	4727
2026-01-05 07:28:44.07	324.58	10.34	-50.6	-52.5	15.2	5.99e-01	0	28	0	87031808	69	4616
2026-01-05 07:28:45.07	324.43	10.27	-50.1	-51.9	15.4	5.99e-01	0	28	0	89128960	69	4303
2026-01-05 07:28:46.07	324.28	10.21	-50.4	-52.2	15.3	6.02e-01	0	27	0	91226112	69	4469
2026-01-05 07:28:47.06	324.13	10.15	-50.7	-52.7	15.1	6.00e-01	0	27	0	92798976	69	4708
2026-01-05 07:28:48.07	323.98	10.08	-50.4	-52.2	15.2	6.00e-01	0	28	0	94896128	69	4484
2026-01-05 07:28:49.05	323.84	10.02	-50.3	-52.0	15.3	6.02e-01	0	28	0	96468992	69	4370
2026-01-05 07:28:50.05	323.69	9.95	-50.8	-52.8	15.1	6.03e-01	0	28	0	98566144	69	4791
2026-01-05 07:28:51.05	323.55	9.89	-50.7	-52.6	15.1	6.01e-01	0	27	0	100139008	69	4677
2026-01-05 07:28:52.04	323.40	9.82	-50.4	-52.2	15.3	6.00e-01	0	27	0	102236160	69	4450
2026-01-05 07:28:53.03	323.26	9.76	-50.6	-52.5	15.2	5.98e-01	0	27	0	103809024	69	4602
2026-01-05 07:28:54.03	323.12	9.69	-51.1	-53.1	15.0	6.01e-01	0	27	0	105906176	69	4951
2026-01-05 07:28:55.02	322.97	9.63	-50.7	-52.5	15.3	5.98e-01	0	28	0	108003328	70	4376
2026-01-05 07:28:56.02	322.83	9.56	-50.4	-52.2	15.4	6.01e-01	0	27	0	109576192	70	4214
2026-01-05 07:28:57.02	322.69	9.50	-50.8	-52.8	15.2	6.01e-01	0	28	0	111673344	70	4500
2026-01-05 07:28:58.01	322.55	9.44	-50.9	-52.9	15.2	6.01e-01	0	27	0	113246208	70	4564
2026-01-05 07:28:59.00	322.41	9.37	-50.2	-51.9	15.3	6.01e-01	0	28	0	115343360	69	4329
2026-01-05 07:28:59.98	322.28	9.31	-50.3	-52.0	15.3	6.02e-01	0	27	0	116916224	69	4372
2026-01-05 07:29:00.98	322.14	9.24	-50.9	-52.9	15.1	6.01e-01	0	28	0	119013376	69	4860
2026-01-05 07:29:01.97	322.00	9.18	-51.0	-53.0	15.0	6.01e-01	0	27	0	120586240	69	4888
2026-01-05 07:29:02.96	321.86	9.12	-50.5	-52.3	15.2	6.02e-01	0	27	0	122683392	69	4519
2026-01-05 07:29:03.95	321.73	9.05	-50.6	-52.5	15.2	5.99e-01	0	27	0	124780544	69	4623
2026-01-05 07:29:04.95	321.59	8.99	-51.2	-53.3	15.1	6.00e-01	0	28	0	126353408	70	4789
2026-01-05 07:29:05.95	321.45	8.92	-50.9	-52.9	15.1	6.00e-01	0	28	0	128450560	70	4574
2026-01-05 07:29:06.95	321.32	8.86	-50.3	-52.1	15.3	6.03e-01	0	27	0	130023424	69	4392
2026-01-05 07:29:07.95	321.19	8.80	-50.4	-52.2	15.2	6.01e-01	0	27	0	132120576	69	4471
2026-01-05 07:29:08.94	321.05	8.73	-50.8	-52.7	15.1	6.03e-01	0	28	0	134217728	69	4757
2026-01-05 07:29:09.94	320.92	8.67	-51.0	-53.0	15.0	6.00e-01	0	27	0	135790592	69	4885
2026-01-05 07:29:10.94	320.79	8.60	-50.8	-52.7	15.1	6.01e-01	0	27	0	137363456	69	4747
2026-01-05 07:29:11.94	320.66	8.54	-50.8	-52.6	15.1	6.01e-01	0	27	0	139460608	69	4699
2026-01-05 07:29:12.93	320.53	8.48	-51.0	-52.9	15.0	6.04e-01	0	28	0	141557760	69	4864
2026-01-05 07:29:13.93	320.40	8.41	-51.1	-53.2	15.1	6.02e-01	0	27	0	143130624	70	4712
2026-01-05 07:29:14.93	320.27	8.35	-51.1	-53.1	15.1	6.01e-01	0	27	0	145227776	70	4667
2026-01-05 07:29:15.93	320.14	8.28	-51.0	-52.9	15.2	6.01e-01	0	27	0	146800640	70	4559
2026-01-05 07:29:16.92	320.01	8.22	-51.0	-52.9	15.2	6.03e-01	0	27	0	148897792	70	4571
2026-01-05 07:29:17.92	319.88	8.16	-51.1	-53.2	15.1	5.99e-01	0	28	0	150994944	70	4715
2026-01-05 07:29:18.92	319.75	8.09	-51.4	-53.5	15.0	6.01e-01	0	27	0	152567808	70	4921
2026-01-05 07:29:19.91	319.63	8.03	-51.0	-53.0	15.1	6.00e-01	0	27	0	154664960	70	4600
2026-01-05 07:29:20.91	319.50	7.97	-50.8	-52.7	15.2	6.01e-01	0	28	0	156237824	70	4484
2026-01-05 07:29:21.91	319.38	7.90	-50.8	-52.7	15.2	6.04e-01	0	28	0	158334976	70	4453
2026-01-05 07:29:22.91	319.25	7.84	-51.0	-53.0	15.1	6.01e-01	0	27	0	159907840	70	4635
2026-01-05 07:29:23.90	319.13	7.78	-51.3	-53.4	15.0	5.99e-01	0	27	0	162004992	70	4820
2026-01-05 07:29:24.89	319.01	7.71	-51.0	-53.1	15.1	6.02e-01	0	28	0	163577856	70	4653
2026-01-05 07:29:25.89	318.88	7.65	-50.8	-52.7	15.2	6.02e-01	0	27	0	165675008	70	4493
2026-01-05 07:29:26.88	318.76	7.59	-50.7	-52.6	15.3	6.00e-01	0	28	0	167772160	70	4413
2026-01-05 07:29:27.87	318.64	7.52	-50.8	-52.8	15.2	6.02e-01	0	28	0	169345024	70	4516
2026-01-05 07:29:28.87	318.52	7.46	-51.0	-53.1	15.1	6.00e-01	0	27	0	171442176	70	4656
2026-01-05 07:29:29.86	318.40	7.40	-51.1	-53.1	15.1	6.01e-01	0	28	0	173015040	70	4677
2026-01-05 07:29:30.85	318.28	7.34	-51.1	-53.1	15.1	5.99e-01	0	27	0	175112192	70	4691
2026-01-05 07:29:31.85	318.16	7.27	-51.0	-53.0	15.1	5.99e-01	0	28	0	176685056	70	4639
2026-01-05 07:29:32.84	318.04	7.21	-51.0	-53.0	15.1	6.00e-01	0	27	0	178782208	70	4612
2026-01-05 07:29:33.85	317.92	7.15	-51.2	-53.3	15.1	6.01e-01	0	27	0	180879360	70	4767
2026-01-05 07:29:34.85	317.81	7.08	-51.3	-53.5	15.0	6.01e-01	0	27	0	182452224	70	4875
2026-01-05 07:29:35.84	317.69	7.02	-51.4	-53.5	14.9	6.02e-01	0	28	0	184549376	70	4922
2026-01-05 07:29:36.83	317.57	6.96	-51.2	-53.2	15.0	6.01e-01	0	27	0	186122240	70	4743
2026-01-05 07:29:37.83	317.46	6.90	-51.2	-53.2	15.1	6.03e-01	0	27	0	188219392	70	4745
2026-01-05 07:29:38.83	317.34	6.83	-51.0	-53.0	15.1	6.02e-01	0	27	0	189792256	70	4618
2026-01-05 07:29:39.82	317.23	6.77	-51.0	-53.0	15.1	6.01e-01	0	27	0	191889408	70	4649
2026-01-05 07:29:40.81	317.11	6.71	-51.0	-53.1	15.1	6.00e-01	0	28	0	193462272	70	4667
2026-01-05 07:29:41.81	317.00	6.65	-51.1	-53.1	15.1	6.00e-01	0	28	0	195559424	70	4687
2026-01-05 07:29:42.80	316.89	6.59	-51.1	-53.2	15.1	6.03e-01	0	28	0	197656576	70	4726
2026-01-05 07:29:43.79	316.78	6.52	-51.1	-53.1	15.1	6.02e-01	0	28	0	199229440	70	4694
2026-01-05 07:29:44.78	316.66	6.46	-51.1	-53.2	15.1	5.99e-01	0	27	0	201326592	70	4716
2026-01-05 07:29:45.77	316.55	6.40	-51.2	-53.2	15.1	6.02e-01	0	27	0	202899456	70	4759
2026-01-05 07:29:46.77	316.44	6.34	-51.3	-53.5	15.0	6.03e-01	0	27	0	204996608	70	4902
2026-01-05 07:29:47.76	316.33	6.28	-51.4	-53.6	15.0	6.01e-01	0	28	0	206569472	70	4933
2026-01-05 07:29:48.76	316.22	6.22	-51.3	-53.4	15.0	5.99e-01	0	27	0	208666624	70	4857
2026-01-05 07:29:49.76	316.11	6.15	-51.2	-53.3	15.0	6.01e-01	0	27	0	210239488	70	4770
2026-01-05 07:29:50.75	316.00	6.09	-51.1	-53.2	15.1	6.02e-01	0	27	0	212336640	70	4707
2026-01-05 07:29:51.74	315.90	6.03	-51.1	-53.2	15.1	6.02e-01	0	27	0	214433792	70	4706
2026-01-05 07:29:52.73	315.79	5.97	-51.2	-53.3	15.0	5.99e-01	0	27	0	216006656	70	4781
2026-01-05 07:29:53.73	315.68	5.91	-51.3	-53.4	15.0	6.01e-01	0	28	0	218103808	70	4844
2026-01-05 07:29:54.73	315.57	5.85	-51.4	-53.6	15.0	5.99e-01	0	27	0	219676672	70	4974
2026-01-05 07:29:55.73	315.47	5.79	-51.5	-53.7	14.9	6.01e-01	0	27	0	221773824	70	4991
2026-01-05 07:29:56.73	315.36	5.72	-51.3	-53.5	15.0	6.00e-01	0	27	0	223346688	70	4890
2026-01-05 07:29:57.73	315.26	5.66	-51.2	-53.4	15.0	6.03e-01	0	27	0	225443840	70	4820
2026-01-05 07:29:58.73	315.15	5.60	-51.1	-53.2	15.1	6.00e-01	0	27	0	227016704	70	4709
2026-01-05 07:29:59.73	315.05	5.54	-51.2	-53.3	15.0	6.02e-01	0	27	0	229113856	70	4801
2026-01-05 07:30:00.73	314.94	5.48	-51.2	-53.4	15.0	6.01e-01	0	27	0	231211008	70	4827
2026-01-05 07:30:01.72	314.84	5.42	-51.5	-53.7	14.9	6.00e-01	0	27	0	232783872	70	5011
2026-01-05 07:30:02.72	314.74	5.36	-51.5	-53.8	14.9	6.01e-01	0	28	0	234881024	70	5045
2026-01-05 07:30:03.72	314.63	5.30	-51.6	-53.8	14.8	6.03e-01	0	27	0	236453888	70	5082
2026-01-05 07:30:04.71	314.53	5.24	-51.5	-53.8	14.9	6.00e-01	0	27	0	238551040	70	5058
2026-01-05 07:30:05.69	314.43	5.18	-51.6	-53.9	14.9	6.02e-01	0	27	0	240123904	71	4840
2026-01-05 07:30:06.69	314.33	5.12	-51.5	-53.7	15.0	6.02e-01	0	27	0	242221056	71	4744
2026-01-05 07:30:07.69	314.23	5.06	-51.5	-53.7	15.0	5.99e-01	0	27	0	243793920	71	4724
2026-01-05 07:30:08.69	314.13	5.00	-55.3	-59.8	13.7	6.02e-01	0	27	0	245891072	78	6396
2026-01-05 07:30:09.70	314.03	4.93	-58.5	-77.1	3.9	7.47e-01	0	28	104	246415360	84	33219
2026-01-05 07:30:10.70	313.93	4.87	-58.9	-78.1	3.8	7.46e-01	0	27	104	246415360	85	35082
2026-01-05 07:30:11.70	313.83	4.81	-59.2	-78.6	3.9	7.48e-01	0	28	104	246415360	86	34936
2026-01-05 07:30:12.70	313.73	4.75	-59.5	-78.9	3.8	7.47e-01	0	28	104	246415360	86	36173
2026-01-05 07:30:13.69	313.64	4.69	-59.7	-79.1	3.8	7.45e-01	0	28	104	246415360	87	34913
2026-01-05 07:30:14.69	313.54	4.63	-59.8	-79.2	3.8	7.44e-01	0	28	104	246415360	87	35552
2026-01-05 07:30:15.69	313.44	4.57	-60.0	-79.4	3.8	7.47e-01	0	28	104	246415360	87	36208
2026-01-05 07:30:16.69	313.34	4.51	-60.1	-79.5	3.8	7.46e-01	0	28	104	246415360	87	36730
2026-01-05 07:30:17.69	313.25	4.45	-60.3	-79.6	3.8	7.48e-01	0	27	104	246415360	88	35168
2026-01-05 07:30:18.69	313.15	4.39	-60.4	-79.7	3.8	7.45e-01	0	28	104	246415360	88	35529
2026-01-05 07:30:19.70	313.06	4.33	-60.4	-79.8	3.8	7.44e-01	0	28	104	246415360	88	35948
2026-01-05 07:30:20.70	312.96	4.27	-60.5	-79.9	3.8	7.46e-01	0	28	104	246415360	88	36351
2026-01-05 07:30:21.71	312.86	4.21	-60.6	-80.0	3.8	7.45e-01	0	28	104	246415360	88	36584
2026-01-05 07:30:22.72	312.77	4.15	-60.6	-80.0	3.8	7.44e-01	0	28	104	246415360	88	36746
2026-01-05 07:30:23.71	312.68	4.10	-60.7	-80.1	3.8	7.47e-01	0	27	104	246415360	89	34887
2026-01-05 07:30:24.72	312.58	4.04	-60.7	-80.1	3.8	7.45e-01	0	28	104	246415360	89	34935
2026-01-05 07:30:25.71	312.49	3.98	-60.7	-80.1	3.8	7.44e-01	0	27	104	246415360	89	35150
2026-01-05 07:30:26.72	312.40	3.92	-60.7	-80.1	3.8	7.49e-01	0	28	104	246415360	89	35230
2026-01-05 07:30:27.72	312.31	3.86	-60.7	-80.1	3.8	7.45e-01	0	28	104	246415360	89	35139
2026-01-05 07:30:28.72	312.21	3.80	-60.7	-80.1	3.8	7.49e-01	0	28	104	246415360	89	35071
2026-01-05 07:30:29.72	312.12	3.74	-60.7	-80.1	3.8	7.47e-01	0	28	104	246415360	89	34902
2026-01-05 07:30:30.73	312.03	3.68	-60.7	-80.1	3.8	7.49e-01	0	28	104	246415360	89	34933
2026-01-05 07:30:31.73	311.94	3.62	-60.6	-80.0	3.8	7.47e-01	0	27	104	246415360	89	34795
2026-01-05 07:30:32.73	311.85	3.56	-60.6	-80.0	3.8	7.43e-01	0	28	104	246415360	89	34707
2026-01-05 07:30:33.74	311.76	3.50	-60.6	-80.0	3.8	7.48e-01	0	28	104	246415360	89	34613
2026-01-05 07:30:34.73	311.67	3.45	-60.6	-80.0	3.8	7.47e-01	0	28	104	246415360	89	34565
2026-01-05 07:30:35.74	311.58	3.39	-60.6	-80.0	3.8	7.44e-01	0	28	104	246415360	89	34569
2026-01-05 07:30:36.73	311.50	3.33	-60.5	-79.9	3.8	7.44e-01	0	28	104	246415360	89	34429
2026-01-05 07:30:37.74	311.41	3.27	-60.5	-79.9	3.8	7.47e-01	0	28	104	246415360	89	34422
2026-01-05 07:30:38.75	311.32	3.21	-60.5	-79.9	3.8	7.46e-01	0	28	104	246415360	89	34363
2026-01-05 07:30:39.75	311.23	3.15	-60.5	-79.9	3.8	7.51e-01	0	28	104	246415360	89	34232
2026-01-05 07:30:40.75	311.15	3.10	-60.5	-79.9	3.8	7.47e-01	0	28	104	246415360	89	34239
2026-01-05 07:30:41.76	311.06	3.04	-60.5	-79.9	3.8	7.44e-01	0	28	104	246415360	89	34226
2026-01-05 07:30:42.76	310.97	2.98	-60.5	-79.9	3.8	7.48e-01	0	28	104	246415360	89	34115
2026-01-05 07:30:43.76	310.89	2.92	-60.5	-79.9	3.8	7.47e-01	0	28	104	246415360	89	34167
2026-01-05 07:30:44.76	310.80	2.86	-60.5	-79.9	3.8	7.49e-01	0	28	104	246415360	89	34109
2026-01-05 07:30:45.77	310.72	2.81	-60.5	-79.9	3.8	7.46e-01	0	28	104	246415360	89	34140
2026-01-05 07:30:46.77	310.63	2.75	-60.5	-79.9	3.8	7.45e-01	0	28	104	246415360	89	34169
2026-01-05 07:30:47.77	310.55	2.69	-60.5	-79.9	3.8	7.44e-01	0	28	104	246415360	89	34142
2026-01-05 07:30:48.77	310.46	2.63	-60.5	-79.8	3.8	7.48e-01	0	28	104	246415360	89	34028
2026-01-05 07:30:49.77	310.38	2.58	-60.4	-79.8	3.8	7.48e-01	0	28	104	246415360	89	34077
2026-01-05 07:30:50.77	310.30	2.52	-60.4	-79.8	3.8	7.46e-01	0	28	104	246415360	89	34004
2026-01-05 07:30:51.77	310.22	2.46	-60.4	-79.8	3.9	7.48e-01	0	28	104	246415360	89	34028
2026-01-05 07:30:52.77	310.13	2.40	-60.4	-79.8	3.8	7.46e-01	0	28	104	246415360	89	33976
2026-01-05 07:30:53.77	310.05	2.35	-60.4	-79.8	3.8	7.46e-01	0	28	104	246415360	89	33935
2026-01-05 07:30:54.78	309.97	2.29	-60.4	-79.8	3.8	7.49e-01	0	28	104	246415360	89	33913
2026-01-05 07:30:55.77	309.89	2.23	-60.4	-79.8	3.8	7.46e-01	0	28	104	246415360	89	33884
2026-01-05 07:30:56.78	309.81	2.18	-60.4	-79.8	3.8	7.45e-01	0	28	104	246415360	89	33827
2026-01-05 07:30:57.78	309.73	2.12	-60.4	-79.8	3.8	7.49e-01	0	28	104	246415360	89	33733
2026-01-05 07:30:58.78	309.65	2.06	-60.4	-79.8	3.8	7.47e-01	0	28	104	246415360	89	33733
2026-01-05 07:30:59.77	309.57	2.01	-60.4	-79.8	3.8	7.41e-01	0	28	104	246415360	89	33821
2026-01-05 07:31:00.77	309.49	1.95	-60.4	-79.8	3.8	7.43e-01	0	28	104	246415360	89	33751

#Closed at: 2026-01-05 07:31:01
#Recorded file [246 MB]: D:/lorett/data/31004_260105_102040.dat