passes_logs/2026/01/05/R3.2S_Murmansk/R3.2S_Murmansk__20260105_025936_NOAA_20_JPSS-1_rec.log

#Pass ID: 20260105_025936_NOAA 20 (JPSS-1)
#Satellite: NOAA 20 (JPSS-1)
#Configuration: NOAA 20
#almurnet v.1.7.20251203
#Start time: 2026-01-05 02:59:37

#Version: 2.2.20231116
#Station: R3.2S_Murmansk
#Location: 33.079688 lon 68.888172 lat
#TLE: 1 43013U 17073A   26004.47528369  .00000132  00000+0  83671-4 0  9999
#TLE: 2 43013  98.7626 305.5264 0001854  54.5883 305.5466 14.19533142421242

#Time	Az	El	Level	Level2	SNR	BER	BlckErr	Temp	State	Recorded	gain1	gain2
2026-01-05 02:59:37.56	37.54	2.09	-58.2	-74.2	3.8	1.49e+00	0	26	0	0	83	21587
2026-01-05 02:59:38.57	37.49	2.15	-58.2	-74.1	3.8	1.49e+00	0	26	104	0	81	24098
2026-01-05 02:59:39.57	37.44	2.21	-58.2	-74.1	3.8	1.49e+00	0	26	104	0	81	24064
2026-01-05 02:59:40.56	37.40	2.27	-58.2	-74.1	3.8	1.49e+00	0	26	104	0	81	24091
2026-01-05 02:59:41.56	37.35	2.33	-58.2	-74.1	3.8	1.49e+00	0	26	104	0	81	24111
2026-01-05 02:59:42.56	37.30	2.39	-58.2	-74.1	3.8	1.49e+00	0	26	104	0	81	24118
2026-01-05 02:59:43.57	37.25	2.45	-58.2	-74.1	3.8	1.49e+00	0	26	104	0	81	24087
2026-01-05 02:59:44.57	37.20	2.51	-58.1	-74.1	3.8	1.49e+00	0	26	104	0	81	24073
2026-01-05 02:59:45.57	37.16	2.57	-58.2	-74.1	3.8	1.49e+00	0	26	104	0	81	24094
2026-01-05 02:59:46.56	37.11	2.63	-58.2	-74.1	3.8	1.49e+00	0	26	104	0	81	24084
2026-01-05 02:59:47.56	37.06	2.69	-58.2	-74.1	3.8	1.49e+00	0	26	104	0	81	24090
2026-01-05 02:59:48.56	37.01	2.75	-58.2	-74.1	3.8	1.49e+00	0	26	104	0	81	24039
2026-01-05 02:59:49.56	36.96	2.82	-58.1	-74.1	3.8	1.49e+00	0	26	104	0	81	23869
2026-01-05 02:59:50.56	36.91	2.88	-58.1	-74.1	3.8	1.49e+00	0	26	104	0	81	23924
2026-01-05 02:59:51.56	36.86	2.94	-58.2	-74.1	3.8	1.49e+00	0	26	104	0	81	23897
2026-01-05 02:59:52.56	36.81	3.00	-58.1	-74.0	3.8	1.49e+00	0	26	104	0	81	23791
2026-01-05 02:59:53.56	36.76	3.06	-58.2	-74.0	3.8	1.49e+00	0	26	104	0	81	23706
2026-01-05 02:59:54.57	36.71	3.13	-58.1	-74.0	3.8	1.49e+00	0	26	104	0	81	23814
2026-01-05 02:59:55.57	36.66	3.19	-58.1	-74.1	3.8	1.49e+00	0	26	104	0	81	23906
2026-01-05 02:59:56.57	36.61	3.25	-58.2	-74.1	3.8	1.49e+00	0	26	104	0	81	23931
2026-01-05 02:59:57.57	36.56	3.31	-58.2	-74.1	3.8	1.49e+00	0	26	104	0	81	23992
2026-01-05 02:59:58.57	36.51	3.38	-58.2	-74.1	3.8	1.49e+00	0	26	104	0	81	24012
2026-01-05 02:59:59.57	36.45	3.44	-58.1	-74.1	3.8	1.49e+00	0	26	104	0	81	24078
2026-01-05 03:00:00.57	36.40	3.50	-58.1	-74.1	3.8	1.49e+00	0	26	104	0	81	24020
2026-01-05 03:00:01.56	36.35	3.56	-58.1	-74.1	3.8	1.49e+00	0	26	104	0	81	24092
2026-01-05 03:00:02.56	36.30	3.63	-58.1	-74.1	3.8	1.49e+00	0	26	104	0	81	23957
2026-01-05 03:00:03.55	36.25	3.69	-58.1	-74.1	3.8	1.49e+00	0	26	104	0	81	23951
2026-01-05 03:00:04.55	36.19	3.75	-58.1	-74.0	3.8	1.49e+00	0	26	104	0	81	23827
2026-01-05 03:00:05.53	36.14	3.81	-58.1	-74.0	3.8	1.49e+00	0	26	104	0	81	23683
2026-01-05 03:00:06.53	36.09	3.88	-58.1	-73.9	3.8	1.49e+00	0	27	104	0	81	23421
2026-01-05 03:00:07.53	36.03	3.94	-58.1	-73.7	3.8	1.49e+00	0	26	104	0	81	22869
2026-01-05 03:00:08.52	35.98	4.00	-58.1	-73.4	3.8	1.49e+00	0	27	104	0	81	22252
2026-01-05 03:00:09.52	35.93	4.07	-58.1	-73.2	3.8	1.49e+00	0	26	104	0	81	21523
2026-01-05 03:00:10.51	35.87	4.13	-58.1	-73.0	3.8	1.49e+00	0	27	104	0	81	21060
2026-01-05 03:00:11.51	35.82	4.20	-58.1	-72.8	3.8	1.49e+00	0	27	104	0	81	20618
2026-01-05 03:00:12.51	35.76	4.26	-58.1	-72.8	3.8	1.49e+00	0	26	104	0	81	20574
2026-01-05 03:00:13.51	35.71	4.32	-58.1	-72.6	3.8	1.49e+00	0	27	104	0	81	20197
2026-01-05 03:00:14.51	35.65	4.39	-58.1	-72.5	3.8	1.49e+00	0	27	104	0	81	19848
2026-01-05 03:00:15.51	35.60	4.45	-58.1	-72.0	3.9	1.49e+00	0	26	104	0	81	18827
2026-01-05 03:00:16.50	35.54	4.52	-58.0	-71.2	4.1	1.48e+00	0	27	104	0	81	17156
2026-01-05 03:00:17.49	35.49	4.58	-57.9	-69.8	4.4	1.31e+00	59	27	0	0	81	14602
2026-01-05 03:00:18.48	35.43	4.65	-57.8	-68.4	5.0	8.15e-01	0	27	0	2097152	81	12505
2026-01-05 03:00:19.48	35.38	4.71	-57.7	-66.9	5.9	4.43e-01	0	27	0	3145728	81	10492
2026-01-05 03:00:20.47	35.32	4.77	-57.5	-65.8	6.6	2.57e-01	0	27	0	5242880	81	9181
2026-01-05 03:00:21.47	35.26	4.84	-57.3	-64.8	7.5	9.01e-02	0	27	0	7340032	81	8195
2026-01-05 03:00:22.46	35.21	4.91	-57.1	-63.9	8.2	4.06e-02	0	27	0	9437184	80	7816
2026-01-05 03:00:23.46	35.15	4.97	-57.0	-63.5	8.6	1.98e-02	0	27	0	11534336	80	7482
2026-01-05 03:00:24.47	35.09	5.04	-56.6	-61.9	9.9	8.16e-03	0	27	0	12582912	79	6637
2026-01-05 03:00:25.47	35.03	5.10	-56.1	-60.4	11.1	1.84e-03	0	27	0	14680064	78	5917
2026-01-05 03:00:26.46	34.97	5.17	-56.4	-61.4	10.4	7.00e-07	0	27	0	16777216	77	7028
2026-01-05 03:00:27.46	34.91	5.23	-57.5	-65.6	6.7	4.81e-01	0	27	0	18874368	80	9603
2026-01-05 03:00:28.44	34.86	5.30	-56.0	-60.1	11.2	2.39e-01	0	27	0	19922944	78	5677
2026-01-05 03:00:29.44	34.80	5.37	-55.2	-58.7	12.2	3.80e-06	0	27	0	22020096	76	5424
2026-01-05 03:00:30.45	34.74	5.43	-55.0	-58.3	12.5	0.00e+00	0	27	0	24117248	76	5191
2026-01-05 03:00:31.45	34.68	5.50	-54.4	-57.4	13.0	0.00e+00	0	27	0	26214400	75	4958
2026-01-05 03:00:32.45	34.62	5.57	-54.4	-57.3	13.1	0.00e+00	0	27	0	28311552	75	4914
2026-01-05 03:00:33.44	34.56	5.63	-54.4	-57.4	13.0	0.00e+00	0	27	0	29360128	75	4945
2026-01-05 03:00:34.45	34.50	5.70	-54.4	-57.4	13.0	0.00e+00	0	27	0	31457280	75	4942
2026-01-05 03:00:35.45	34.43	5.77	-54.3	-57.1	13.2	0.00e+00	0	27	0	33554432	75	4797
2026-01-05 03:00:36.45	34.37	5.84	-54.3	-57.1	13.2	0.00e+00	0	27	0	35651584	75	4806
2026-01-05 03:00:37.46	34.31	5.90	-54.3	-57.1	13.2	0.00e+00	0	27	0	37748736	75	4808
2026-01-05 03:00:38.45	34.25	5.97	-54.3	-57.1	13.3	0.00e+00	0	27	0	38797312	75	4771
2026-01-05 03:00:39.45	34.19	6.04	-54.3	-57.1	13.2	0.00e+00	0	27	0	40894464	75	4776
2026-01-05 03:00:40.45	34.12	6.11	-54.3	-57.0	13.3	0.00e+00	0	27	0	42991616	75	4745
2026-01-05 03:00:41.45	34.06	6.17	-54.3	-57.0	13.3	0.00e+00	0	27	0	45088768	75	4759
2026-01-05 03:00:42.44	34.00	6.24	-54.1	-56.8	13.3	0.00e+00	0	27	0	46137344	74	4912
2026-01-05 03:00:43.44	33.93	6.31	-54.2	-57.0	13.2	0.00e+00	0	27	0	48234496	74	4993
2026-01-05 03:00:44.44	33.87	6.38	-54.2	-57.0	13.3	0.00e+00	0	27	0	50331648	74	5007
2026-01-05 03:00:45.43	33.81	6.45	-54.2	-56.9	13.3	0.00e+00	0	27	0	52428800	74	4951
2026-01-05 03:00:46.44	33.74	6.52	-54.1	-56.8	13.3	0.00e+00	0	27	0	54525952	74	4913
2026-01-05 03:00:47.43	33.68	6.59	-54.1	-56.8	13.3	0.00e+00	0	27	0	55574528	74	4905
2026-01-05 03:00:48.43	33.61	6.65	-54.2	-56.9	13.3	0.00e+00	0	27	0	57671680	74	4956
2026-01-05 03:00:49.43	33.55	6.72	-54.1	-56.7	13.4	0.00e+00	0	27	0	59768832	74	4863
2026-01-05 03:00:50.43	33.48	6.79	-54.1	-56.7	13.5	0.00e+00	0	27	0	61865984	74	4826
2026-01-05 03:00:51.44	33.41	6.86	-54.1	-56.7	13.4	0.00e+00	0	27	0	63963136	74	4869
2026-01-05 03:00:52.44	33.35	6.93	-54.1	-56.8	13.4	0.00e+00	0	27	0	65011712	74	4881
2026-01-05 03:00:53.44	33.28	7.00	-54.1	-56.6	13.5	0.00e+00	0	27	0	67108864	74	4810
2026-01-05 03:00:54.44	33.21	7.07	-54.1	-56.7	13.5	0.00e+00	0	27	0	69206016	74	4821
2026-01-05 03:00:55.44	33.15	7.14	-54.2	-56.8	13.4	0.00e+00	0	27	0	71303168	74	4924
2026-01-05 03:00:56.44	33.08	7.21	-54.1	-56.6	13.5	0.00e+00	0	27	0	73400320	74	4791
2026-01-05 03:00:57.45	33.01	7.28	-54.1	-56.7	13.4	0.00e+00	0	27	0	74448896	74	4869
2026-01-05 03:00:58.45	32.94	7.36	-54.2	-56.8	13.4	0.00e+00	0	27	0	76546048	74	4876
2026-01-05 03:00:59.45	32.87	7.43	-54.2	-56.8	13.4	0.00e+00	0	27	0	78643200	74	4901
2026-01-05 03:01:00.45	32.80	7.50	-54.1	-56.7	13.4	0.00e+00	0	27	0	80740352	74	4870
2026-01-05 03:01:01.45	32.73	7.57	-54.1	-56.7	13.5	0.00e+00	0	27	0	81788928	74	4832
2026-01-05 03:01:02.45	32.66	7.64	-54.0	-56.6	13.5	0.00e+00	0	27	0	83886080	74	4766
2026-01-05 03:01:03.44	32.59	7.71	-54.1	-56.7	13.5	0.00e+00	0	27	0	85983232	74	4819
2026-01-05 03:01:04.45	32.52	7.78	-54.1	-56.6	13.5	0.00e+00	0	27	0	88080384	74	4807
2026-01-05 03:01:05.45	32.45	7.85	-54.1	-56.7	13.5	0.00e+00	0	27	0	90177536	74	4840
2026-01-05 03:01:06.44	32.38	7.93	-54.0	-56.6	13.6	0.00e+00	0	27	0	91226112	74	4767
2026-01-05 03:01:07.45	32.31	8.00	-54.2	-56.7	13.5	0.00e+00	0	27	0	93323264	74	4863
2026-01-05 03:01:08.44	32.24	8.07	-54.1	-56.7	13.5	0.00e+00	0	27	0	95420416	74	4829
2026-01-05 03:01:09.44	32.16	8.14	-54.2	-56.8	13.5	0.00e+00	0	27	0	97517568	74	4874
2026-01-05 03:01:10.44	32.09	8.21	-54.2	-56.7	13.5	0.00e+00	0	27	0	99614720	74	4862
2026-01-05 03:01:11.44	32.02	8.29	-54.2	-56.8	13.4	0.00e+00	0	27	0	100663296	74	4904
2026-01-05 03:01:12.44	31.94	8.36	-54.2	-56.7	13.5	0.00e+00	0	27	0	102760448	74	4848
2026-01-05 03:01:13.44	31.87	8.43	-54.1	-56.7	13.5	0.00e+00	0	27	0	104857600	74	4835
2026-01-05 03:01:14.44	31.79	8.51	-54.1	-56.7	13.5	0.00e+00	0	27	0	106954752	74	4819
2026-01-05 03:01:15.44	31.72	8.58	-54.1	-56.6	13.5	0.00e+00	0	27	0	108003328	74	4803
2026-01-05 03:01:16.44	31.64	8.65	-54.1	-56.6	13.5	0.00e+00	0	27	0	110100480	74	4803
2026-01-05 03:01:17.43	31.57	8.73	-54.0	-56.5	13.6	0.00e+00	0	27	0	112197632	74	4745
2026-01-05 03:01:18.43	31.49	8.80	-54.1	-56.6	13.6	0.00e+00	0	27	0	114294784	74	4762
2026-01-05 03:01:19.42	31.42	8.87	-54.1	-56.6	13.6	0.00e+00	0	27	0	116391936	74	4765
2026-01-05 03:01:20.42	31.34	8.95	-54.1	-56.6	13.6	0.00e+00	0	27	0	117440512	74	4787
2026-01-05 03:01:21.41	31.26	9.02	-54.1	-56.6	13.6	0.00e+00	0	27	0	119537664	74	4762
2026-01-05 03:01:22.41	31.19	9.10	-54.1	-56.6	13.6	0.00e+00	0	27	0	121634816	74	4786
2026-01-05 03:01:23.39	31.11	9.17	-54.2	-56.7	13.5	0.00e+00	0	27	0	123731968	74	4870
2026-01-05 03:01:24.38	31.03	9.24	-54.2	-56.7	13.6	0.00e+00	0	27	0	124780544	74	4849
2026-01-05 03:01:25.38	30.95	9.32	-54.1	-56.7	13.6	0.00e+00	0	27	0	126877696	74	4825
2026-01-05 03:01:26.38	30.87	9.39	-54.2	-56.7	13.6	0.00e+00	0	27	0	128974848	74	4831
2026-01-05 03:01:27.39	30.79	9.47	-54.1	-56.5	13.6	0.00e+00	0	27	0	131072000	74	4752
2026-01-05 03:01:28.39	30.71	9.55	-54.0	-56.4	13.7	0.00e+00	0	27	0	133169152	74	4678
2026-01-05 03:01:29.39	30.63	9.62	-54.0	-56.5	13.7	0.00e+00	0	27	0	134217728	74	4706
2026-01-05 03:01:30.38	30.55	9.70	-54.0	-56.4	13.7	0.00e+00	0	27	0	136314880	74	4676
2026-01-05 03:01:31.39	30.47	9.77	-53.8	-56.2	13.8	0.00e+00	0	27	0	138412032	74	4556
2026-01-05 03:01:32.38	30.39	9.85	-53.8	-56.1	13.9	0.00e+00	0	27	0	140509184	74	4523
2026-01-05 03:01:33.38	30.30	9.92	-53.8	-56.1	13.8	0.00e+00	0	27	0	142606336	74	4529
2026-01-05 03:01:34.39	30.22	10.00	-53.8	-56.0	13.9	0.00e+00	0	27	0	143654912	74	4490
2026-01-05 03:01:35.38	30.14	10.08	-53.7	-56.0	13.9	0.00e+00	0	27	0	145752064	74	4455
2026-01-05 03:01:36.38	30.05	10.16	-53.8	-56.1	13.9	0.00e+00	0	27	0	147849216	74	4518
2026-01-05 03:01:37.39	29.97	10.23	-53.7	-55.9	13.8	0.00e+00	0	27	0	149946368	73	4701
2026-01-05 03:01:38.38	29.89	10.31	-53.6	-55.8	13.9	0.00e+00	0	27	0	152043520	73	4646
2026-01-05 03:01:39.37	29.80	10.39	-53.5	-55.7	13.9	0.00e+00	0	27	0	153092096	73	4591
2026-01-05 03:01:40.37	29.72	10.46	-53.6	-55.8	13.9	0.00e+00	0	27	0	155189248	73	4634
2026-01-05 03:01:41.37	29.63	10.54	-53.6	-55.8	13.9	0.00e+00	0	27	0	157286400	73	4619
2026-01-05 03:01:42.36	29.54	10.62	-53.4	-55.6	14.0	0.00e+00	0	27	0	159383552	73	4526
2026-01-05 03:01:43.37	29.46	10.70	-53.5	-55.7	14.0	0.00e+00	0	27	0	160432128	73	4549
2026-01-05 03:01:44.37	29.37	10.78	-53.4	-55.6	14.0	0.00e+00	0	27	0	162529280	73	4516
2026-01-05 03:01:45.37	29.28	10.86	-53.4	-55.5	14.1	0.00e+00	0	27	0	164626432	73	4487
2026-01-05 03:01:46.37	29.19	10.93	-53.3	-55.5	14.1	0.00e+00	0	27	0	166723584	73	4473
2026-01-05 03:01:47.37	29.10	11.01	-53.3	-55.5	14.1	0.00e+00	0	27	0	168820736	73	4473
2026-01-05 03:01:48.37	29.01	11.09	-53.3	-55.5	14.1	0.00e+00	0	27	0	169869312	73	4487
2026-01-05 03:01:49.37	28.92	11.17	-53.4	-55.6	14.0	0.00e+00	0	27	0	171966464	73	4532
2026-01-05 03:01:50.37	28.83	11.25	-53.2	-55.3	14.2	0.00e+00	0	27	0	174063616	73	4377
2026-01-05 03:01:51.36	28.74	11.33	-53.3	-55.4	14.2	0.00e+00	0	27	0	176160768	73	4404
2026-01-05 03:01:52.36	28.65	11.41	-53.3	-55.4	14.1	0.00e+00	0	27	0	178257920	73	4420
2026-01-05 03:01:53.36	28.56	11.49	-53.2	-55.3	14.2	0.00e+00	0	27	0	179306496	73	4377
2026-01-05 03:01:54.37	28.46	11.57	-53.3	-55.4	14.2	0.00e+00	0	27	0	181403648	73	4394
2026-01-05 03:01:55.37	28.37	11.65	-53.2	-55.3	14.2	0.00e+00	0	27	0	183500800	73	4383
2026-01-05 03:01:56.37	28.28	11.73	-53.3	-55.4	14.2	0.00e+00	0	27	0	185597952	73	4417
2026-01-05 03:01:57.36	28.18	11.81	-53.3	-55.3	14.2	0.00e+00	0	28	0	187695104	73	4387
2026-01-05 03:01:58.36	28.09	11.89	-53.3	-55.3	14.2	0.00e+00	0	27	0	188743680	73	4384
2026-01-05 03:01:59.36	27.99	11.97	-53.3	-55.4	14.2	0.00e+00	0	27	0	190840832	73	4407
2026-01-05 03:02:00.37	27.90	12.06	-53.4	-55.5	14.1	0.00e+00	0	27	0	192937984	73	4477
2026-01-05 03:02:01.37	27.80	12.14	-53.4	-55.5	14.1	0.00e+00	0	27	0	195035136	73	4452
2026-01-05 03:02:02.37	27.70	12.22	-53.4	-55.5	14.1	0.00e+00	0	27	0	196083712	73	4462
2026-01-05 03:02:03.37	27.60	12.30	-53.3	-55.5	14.1	0.00e+00	0	27	0	198180864	73	4449
2026-01-05 03:02:04.37	27.51	12.38	-53.3	-55.5	14.1	0.00e+00	0	27	0	200278016	73	4445
2026-01-05 03:02:05.37	27.41	12.47	-53.4	-55.5	14.1	0.00e+00	0	27	0	202375168	73	4482
2026-01-05 03:02:06.37	27.31	12.55	-53.3	-55.4	14.2	0.00e+00	0	27	0	204472320	73	4422
2026-01-05 03:02:07.36	27.21	12.63	-53.3	-55.5	14.1	0.00e+00	0	27	0	205520896	73	4444
2026-01-05 03:02:08.36	27.11	12.71	-53.3	-55.4	14.1	0.00e+00	0	27	0	207618048	73	4436
2026-01-05 03:02:09.35	27.01	12.79	-53.2	-55.3	14.2	0.00e+00	0	27	0	209715200	73	4372
2026-01-05 03:02:10.36	26.91	12.88	-53.3	-55.4	14.2	0.00e+00	0	27	0	211812352	73	4406
2026-01-05 03:02:11.36	26.80	12.96	-53.1	-55.2	14.2	0.00e+00	0	28	0	212860928	72	4562
2026-01-05 03:02:12.36	26.70	13.05	-53.2	-55.2	14.2	0.00e+00	0	28	0	214958080	72	4584
2026-01-05 03:02:13.36	26.60	13.13	-53.3	-55.3	14.1	0.00e+00	0	27	0	217055232	72	4636
2026-01-05 03:02:14.35	26.49	13.21	-53.2	-55.3	14.1	0.00e+00	0	27	0	219152384	72	4616
2026-01-05 03:02:15.35	26.39	13.30	-53.1	-55.1	14.2	0.00e+00	0	28	0	221249536	72	4514
2026-01-05 03:02:16.34	26.29	13.38	-53.1	-55.1	14.2	0.00e+00	0	28	0	222298112	72	4545
2026-01-05 03:02:17.34	26.18	13.47	-53.0	-55.0	14.3	0.00e+00	0	27	0	224395264	72	4448
2026-01-05 03:02:18.33	26.07	13.55	-53.0	-55.0	14.3	0.00e+00	0	27	0	226492416	72	4457
2026-01-05 03:02:19.32	25.97	13.63	-53.0	-54.9	14.3	0.00e+00	0	27	0	228589568	72	4420
2026-01-05 03:02:20.32	25.86	13.72	-53.0	-54.9	14.3	0.00e+00	0	27	0	230686720	72	4434
2026-01-05 03:02:21.32	25.75	13.80	-53.0	-55.0	14.3	0.00e+00	0	28	0	231735296	72	4444
2026-01-05 03:02:22.32	25.64	13.89	-53.0	-55.0	14.3	0.00e+00	0	27	0	233832448	72	4448
2026-01-05 03:02:23.32	25.53	13.98	-53.0	-55.0	14.3	0.00e+00	0	28	0	235929600	72	4444
2026-01-05 03:02:24.31	25.42	14.06	-53.0	-55.0	14.3	0.00e+00	0	28	0	238026752	72	4462
2026-01-05 03:02:25.31	25.31	14.15	-53.0	-55.0	14.3	0.00e+00	0	27	0	239075328	72	4450
2026-01-05 03:02:26.31	25.20	14.23	-53.1	-55.1	14.3	0.00e+00	0	27	0	241172480	72	4503
2026-01-05 03:02:27.30	25.09	14.32	-53.0	-55.0	14.3	0.00e+00	0	27	0	243269632	72	4480
2026-01-05 03:02:28.31	24.98	14.41	-53.2	-55.2	14.2	0.00e+00	0	27	0	245366784	72	4568
2026-01-05 03:02:29.30	24.86	14.49	-53.0	-55.0	14.3	0.00e+00	0	27	0	247463936	72	4476
2026-01-05 03:02:30.30	24.75	14.58	-53.0	-55.0	14.3	0.00e+00	0	28	0	248512512	72	4467
2026-01-05 03:02:31.29	24.63	14.67	-53.1	-55.0	14.3	0.00e+00	0	28	0	250609664	72	4493
2026-01-05 03:02:32.29	24.52	14.75	-53.2	-55.2	14.2	0.00e+00	0	27	0	252706816	72	4564
2026-01-05 03:02:33.28	24.40	14.84	-53.1	-55.1	14.2	0.00e+00	0	27	0	254803968	72	4535
2026-01-05 03:02:34.27	24.29	14.93	-53.2	-55.2	14.2	0.00e+00	0	27	0	255852544	72	4584
2026-01-05 03:02:35.27	24.17	15.02	-53.2	-55.3	14.2	0.00e+00	0	28	0	257949696	72	4610
2026-01-05 03:02:36.27	24.05	15.10	-53.3	-55.4	14.1	0.00e+00	0	28	0	260046848	72	4654
2026-01-05 03:02:37.27	23.93	15.19	-53.3	-55.4	14.1	0.00e+00	0	27	0	262144000	72	4672
2026-01-05 03:02:38.28	23.81	15.28	-53.4	-55.4	14.1	0.00e+00	0	28	0	264241152	72	4697
2026-01-05 03:02:39.28	23.69	15.37	-53.5	-55.6	14.0	0.00e+00	0	28	0	265289728	72	4774
2026-01-05 03:02:40.27	23.57	15.46	-53.5	-55.6	14.0	0.00e+00	0	27	0	267386880	72	4774
2026-01-05 03:02:41.28	23.44	15.55	-53.5	-55.7	14.0	0.00e+00	0	28	0	269484032	72	4817
2026-01-05 03:02:42.27	23.32	15.64	-53.4	-55.5	14.0	0.00e+00	0	28	0	271581184	72	4756
2026-01-05 03:02:43.27	23.20	15.73	-53.4	-55.5	14.1	0.00e+00	0	27	0	273678336	72	4725
2026-01-05 03:02:44.26	23.08	15.82	-53.3	-55.4	14.1	0.00e+00	0	28	0	274726912	72	4670
2026-01-05 03:02:45.25	22.95	15.91	-53.4	-55.5	14.1	0.00e+00	0	28	0	276824064	72	4750
2026-01-05 03:02:46.25	22.83	16.00	-53.4	-55.4	14.1	0.00e+00	0	27	0	278921216	72	4685
2026-01-05 03:02:47.25	22.70	16.09	-53.3	-55.4	14.1	0.00e+00	0	27	0	281018368	72	4678
2026-01-05 03:02:48.25	22.57	16.18	-53.3	-55.4	14.1	0.00e+00	0	28	0	282066944	72	4676
2026-01-05 03:02:49.26	22.44	16.27	-53.3	-55.3	14.2	0.00e+00	0	28	0	284164096	72	4632
2026-01-05 03:02:50.26	22.31	16.36	-53.4	-55.5	14.1	0.00e+00	0	28	0	286261248	72	4735
2026-01-05 03:02:51.26	22.18	16.45	-53.3	-55.3	14.1	0.00e+00	0	28	0	288358400	72	4636
2026-01-05 03:02:52.26	22.05	16.54	-53.3	-55.4	14.1	0.00e+00	0	28	0	290455552	72	4665
2026-01-05 03:02:53.25	21.92	16.63	-53.4	-55.4	14.1	0.00e+00	0	28	0	291504128	72	4675
2026-01-05 03:02:54.25	21.79	16.72	-53.4	-55.5	14.1	0.00e+00	0	28	0	293601280	72	4734
2026-01-05 03:02:55.24	21.66	16.81	-53.4	-55.5	14.1	0.00e+00	0	28	0	295698432	72	4729
2026-01-05 03:02:56.23	21.52	16.91	-53.4	-55.5	14.1	0.00e+00	0	28	0	297795584	72	4742
2026-01-05 03:02:57.23	21.39	17.00	-53.5	-55.6	14.0	0.00e+00	0	28	0	299892736	72	4814
2026-01-05 03:02:58.23	21.25	17.09	-53.5	-55.6	14.0	0.00e+00	0	27	0	300941312	72	4801
2026-01-05 03:02:59.23	21.11	17.18	-53.6	-55.7	14.0	0.00e+00	0	28	0	303038464	72	4869
2026-01-05 03:03:00.22	20.98	17.28	-53.5	-55.7	14.0	0.00e+00	0	28	0	305135616	72	4815
2026-01-05 03:03:01.22	20.84	17.37	-53.5	-55.6	14.0	0.00e+00	0	28	0	307232768	72	4801
2026-01-05 03:03:02.23	20.70	17.46	-53.5	-55.5	14.1	0.00e+00	0	28	0	308281344	72	4756
2026-01-05 03:03:03.23	20.56	17.56	-53.5	-55.6	14.1	0.00e+00	0	28	0	310378496	72	4765
2026-01-05 03:03:04.23	20.42	17.65	-53.4	-55.5	14.1	0.00e+00	0	28	0	312475648	72	4710
2026-01-05 03:03:05.22	20.28	17.74	-53.5	-55.6	14.1	0.00e+00	0	28	0	314572800	72	4763
2026-01-05 03:03:06.22	20.13	17.84	-53.4	-55.4	14.1	0.00e+00	0	28	0	316669952	72	4701
2026-01-05 03:03:07.22	19.99	17.93	-53.3	-55.3	14.2	0.00e+00	0	28	0	317718528	72	4613
2026-01-05 03:03:08.23	19.84	18.02	-53.2	-55.2	14.2	0.00e+00	0	28	0	319815680	72	4578
2026-01-05 03:03:09.23	19.70	18.12	-53.2	-55.1	14.3	0.00e+00	0	28	0	321912832	72	4535
2026-01-05 03:03:10.23	19.55	18.21	-53.3	-55.3	14.2	0.00e+00	0	28	0	324009984	72	4607
2026-01-05 03:03:11.22	19.41	18.31	-53.2	-55.1	14.2	0.00e+00	0	27	0	326107136	72	4540
2026-01-05 03:03:12.21	19.26	18.40	-53.2	-55.2	14.3	0.00e+00	0	28	0	327155712	72	4558
2026-01-05 03:03:13.21	19.11	18.50	-53.2	-55.2	14.3	0.00e+00	0	28	0	329252864	72	4552
2026-01-05 03:03:14.21	18.96	18.59	-53.2	-55.1	14.3	0.00e+00	0	28	0	331350016	72	4543
2026-01-05 03:03:15.20	18.81	18.69	-53.1	-55.1	14.3	0.00e+00	0	27	0	333447168	72	4518
2026-01-05 03:03:16.20	18.66	18.78	-53.1	-55.1	14.3	0.00e+00	0	28	0	334495744	72	4501
2026-01-05 03:03:17.20	18.50	18.88	-53.0	-54.9	14.3	0.00e+00	0	28	0	336592896	72	4441
2026-01-05 03:03:18.20	18.35	18.97	-53.1	-55.0	14.3	0.00e+00	0	28	0	338690048	72	4466
2026-01-05 03:03:19.20	18.19	19.07	-53.0	-54.9	14.4	0.00e+00	0	28	0	340787200	72	4433
2026-01-05 03:03:20.19	18.04	19.16	-53.0	-54.9	14.4	0.00e+00	0	28	0	342884352	72	4393
2026-01-05 03:03:21.19	17.88	19.26	-52.9	-54.7	14.5	0.00e+00	0	28	0	343932928	72	4331
2026-01-05 03:03:22.18	17.72	19.36	-52.9	-54.7	14.5	0.00e+00	0	28	0	346030080	72	4330
2026-01-05 03:03:23.18	17.57	19.45	-52.9	-54.8	14.4	0.00e+00	0	28	0	348127232	72	4363
2026-01-05 03:03:24.18	17.40	19.55	-52.9	-54.8	14.4	0.00e+00	0	28	0	350224384	72	4362
2026-01-05 03:03:25.18	17.24	19.64	-52.9	-54.8	14.4	0.00e+00	0	28	0	352321536	72	4344
2026-01-05 03:03:26.17	17.08	19.74	-52.9	-54.8	14.4	0.00e+00	0	27	0	353370112	72	4366
2026-01-05 03:03:27.17	16.92	19.84	-52.9	-54.8	14.4	0.00e+00	0	28	0	355467264	72	4385
2026-01-05 03:03:28.17	16.75	19.94	-53.0	-54.8	14.4	0.00e+00	0	28	0	357564416	72	4385
2026-01-05 03:03:29.17	16.59	20.03	-52.8	-54.7	14.5	0.00e+00	0	28	0	359661568	72	4308
2026-01-05 03:03:30.17	16.42	20.13	-52.9	-54.7	14.4	0.00e+00	0	28	0	360710144	72	4321
2026-01-05 03:03:31.17	16.25	20.23	-52.8	-54.6	14.5	0.00e+00	0	28	0	362807296	72	4257
2026-01-05 03:03:32.18	16.08	20.33	-52.8	-54.6	14.5	0.00e+00	0	28	0	364904448	72	4286
2026-01-05 03:03:33.18	15.91	20.42	-52.8	-54.6	14.6	0.00e+00	0	28	0	367001600	72	4263
2026-01-05 03:03:34.19	15.74	20.52	-52.7	-54.5	14.6	0.00e+00	0	28	0	369098752	72	4226
2026-01-05 03:03:35.20	15.57	20.62	-52.7	-54.5	14.6	0.00e+00	0	28	0	370147328	72	4224
2026-01-05 03:03:36.20	15.39	20.72	-52.7	-54.5	14.6	0.00e+00	0	28	0	372244480	72	4229
2026-01-05 03:03:37.20	15.22	20.82	-52.7	-54.5	14.6	0.00e+00	0	28	0	374341632	72	4223
2026-01-05 03:03:38.20	15.04	20.92	-52.7	-54.5	14.6	0.00e+00	0	28	0	376438784	72	4235
2026-01-05 03:03:39.20	14.87	21.01	-52.8	-54.6	14.5	0.00e+00	0	28	0	378535936	72	4272
2026-01-05 03:03:40.19	14.69	21.11	-52.8	-54.6	14.5	0.00e+00	0	28	0	379584512	72	4262
2026-01-05 03:03:41.20	14.51	21.21	-52.8	-54.6	14.6	0.00e+00	0	28	0	381681664	72	4275
2026-01-05 03:03:42.19	14.33	21.31	-52.8	-54.7	14.5	0.00e+00	0	28	0	383778816	72	4303
2026-01-05 03:03:43.20	14.15	21.41	-52.9	-54.8	14.4	0.00e+00	0	28	0	385875968	72	4352
2026-01-05 03:03:44.20	13.97	21.51	-53.0	-54.9	14.4	0.00e+00	0	28	0	386924544	72	4420
2026-01-05 03:03:45.20	13.78	21.61	-53.0	-54.9	14.4	0.00e+00	0	28	0	389021696	72	4401
2026-01-05 03:03:46.19	13.60	21.70	-53.0	-54.9	14.4	0.00e+00	0	28	0	391118848	72	4393
2026-01-05 03:03:47.19	13.41	21.80	-53.1	-55.0	14.4	0.00e+00	0	28	0	393216000	72	4458
2026-01-05 03:03:48.18	13.23	21.90	-53.0	-54.9	14.4	0.00e+00	0	28	0	395313152	72	4420
2026-01-05 03:03:49.16	13.04	22.00	-53.1	-55.0	14.4	0.00e+00	0	28	0	396361728	72	4468
2026-01-05 03:03:50.16	12.85	22.10	-53.1	-55.1	14.4	0.00e+00	0	28	0	398458880	72	4494
2026-01-05 03:03:51.17	12.66	22.20	-53.2	-55.1	14.3	0.00e+00	0	28	0	400556032	72	4544
2026-01-05 03:03:52.18	12.47	22.30	-53.2	-55.1	14.3	0.00e+00	0	28	0	402653184	72	4522
2026-01-05 03:03:53.16	12.28	22.40	-53.3	-55.3	14.2	0.00e+00	0	28	0	404750336	72	4631
2026-01-05 03:03:54.16	12.08	22.49	-53.3	-55.3	14.2	0.00e+00	0	28	0	405798912	72	4624
2026-01-05 03:03:55.16	11.89	22.59	-53.5	-55.5	14.1	0.00e+00	0	28	0	407896064	72	4722
2026-01-05 03:03:56.16	11.69	22.69	-53.4	-55.4	14.2	0.00e+00	0	28	0	409993216	72	4685
2026-01-05 03:03:57.16	11.49	22.79	-53.5	-55.5	14.2	0.00e+00	0	28	0	412090368	72	4711
2026-01-05 03:03:58.16	11.29	22.89	-53.5	-55.5	14.1	0.00e+00	0	28	0	413138944	72	4732
2026-01-05 03:03:59.16	11.09	22.99	-53.4	-55.4	14.2	0.00e+00	0	28	0	415236096	72	4700
2026-01-05 03:04:00.16	10.89	23.09	-53.3	-55.3	14.2	0.00e+00	0	28	0	417333248	72	4629
2026-01-05 03:04:01.16	10.68	23.19	-53.4	-55.3	14.2	0.00e+00	0	28	0	419430400	72	4632
2026-01-05 03:04:02.16	10.48	23.29	-53.3	-55.3	14.2	0.00e+00	0	28	0	421527552	72	4615
2026-01-05 03:04:03.16	10.27	23.39	-53.3	-55.3	14.3	0.00e+00	0	28	0	422576128	72	4602
2026-01-05 03:04:04.16	10.06	23.49	-53.2	-55.2	14.3	0.00e+00	0	28	0	424673280	72	4552
2026-01-05 03:04:05.15	9.86	23.59	-53.3	-55.2	14.3	0.00e+00	0	28	0	426770432	72	4593
2026-01-05 03:04:06.15	9.65	23.68	-53.2	-55.2	14.3	0.00e+00	0	28	0	428867584	72	4560
2026-01-05 03:04:07.15	9.43	23.78	-53.3	-55.2	14.3	0.00e+00	0	28	0	430964736	72	4570
2026-01-05 03:04:08.14	9.22	23.88	-53.1	-55.0	14.4	0.00e+00	0	28	0	432013312	72	4492
2026-01-05 03:04:09.13	9.01	23.98	-53.1	-55.0	14.4	0.00e+00	0	28	0	434110464	72	4470
2026-01-05 03:04:10.13	8.79	24.08	-53.1	-55.0	14.3	0.00e+00	0	28	0	436207616	72	4483
2026-01-05 03:04:11.13	8.58	24.18	-53.1	-55.0	14.4	0.00e+00	0	28	0	438304768	72	4460
2026-01-05 03:04:12.12	8.36	24.28	-53.1	-54.9	14.4	0.00e+00	0	28	0	439353344	72	4420
2026-01-05 03:04:13.11	8.14	24.37	-53.1	-54.9	14.4	0.00e+00	0	28	0	441450496	72	4427
2026-01-05 03:04:14.10	7.92	24.47	-52.9	-54.8	14.5	0.00e+00	0	28	0	443547648	72	4342
2026-01-05 03:04:15.10	7.70	24.57	-52.9	-54.7	14.5	0.00e+00	0	28	0	445644800	72	4312
2026-01-05 03:04:16.10	7.48	24.67	-52.9	-54.7	14.5	0.00e+00	0	28	0	447741952	72	4322
2026-01-05 03:04:17.10	7.25	24.77	-52.8	-54.5	14.6	0.00e+00	0	28	0	448790528	72	4240
2026-01-05 03:04:18.09	7.03	24.86	-52.6	-54.4	14.5	0.00e+00	0	28	0	450887680	71	4416
2026-01-05 03:04:19.08	6.80	24.96	-52.6	-54.4	14.5	0.00e+00	0	28	0	452984832	71	4393
2026-01-05 03:04:20.09	6.57	25.06	-52.5	-54.3	14.6	0.00e+00	0	27	0	455081984	71	4351
2026-01-05 03:04:21.08	6.34	25.16	-52.6	-54.4	14.6	0.00e+00	0	28	0	456130560	71	4412
2026-01-05 03:04:22.08	6.11	25.25	-52.6	-54.4	14.5	0.00e+00	0	28	0	458227712	71	4401
2026-01-05 03:04:23.08	5.87	25.35	-52.7	-54.5	14.5	0.00e+00	0	28	0	460324864	71	4466
2026-01-05 03:04:24.07	5.64	25.45	-52.7	-54.5	14.5	0.00e+00	0	28	0	462422016	71	4482
2026-01-05 03:04:25.07	5.40	25.55	-52.6	-54.4	14.5	0.00e+00	0	28	0	464519168	71	4416
2026-01-05 03:04:26.07	5.16	25.64	-52.7	-54.4	14.5	0.00e+00	0	28	0	465567744	71	4434
2026-01-05 03:04:27.07	4.92	25.74	-52.6	-54.3	14.6	0.00e+00	0	28	0	467664896	71	4368
2026-01-05 03:04:28.07	4.68	25.84	-52.6	-54.4	14.6	0.00e+00	0	28	0	469762048	71	4414
2026-01-05 03:04:29.07	4.44	25.93	-52.6	-54.3	14.6	0.00e+00	0	28	0	471859200	71	4365
2026-01-05 03:04:30.07	4.19	26.03	-52.5	-54.3	14.6	0.00e+00	0	28	0	473956352	71	4352
2026-01-05 03:04:31.07	3.95	26.12	-52.5	-54.3	14.6	0.00e+00	0	28	0	475004928	71	4343
2026-01-05 03:04:32.07	3.70	26.22	-52.6	-54.3	14.6	0.00e+00	0	28	0	477102080	71	4383
2026-01-05 03:04:33.06	3.45	26.31	-52.7	-54.5	14.5	0.00e+00	0	28	0	479199232	71	4480
2026-01-05 03:04:34.06	3.20	26.41	-52.8	-54.6	14.5	0.00e+00	0	28	0	481296384	71	4518
2026-01-05 03:04:35.06	2.95	26.50	-52.7	-54.5	14.5	0.00e+00	0	28	0	482344960	71	4442
2026-01-05 03:04:36.06	2.70	26.60	-52.6	-54.3	14.6	0.00e+00	0	28	0	484442112	71	4388
2026-01-05 03:04:37.07	2.44	26.69	-52.6	-54.3	14.6	0.00e+00	0	28	0	486539264	71	4370
2026-01-05 03:04:38.07	2.18	26.79	-52.6	-54.4	14.6	0.00e+00	0	28	0	488636416	71	4409
2026-01-05 03:04:39.09	1.92	26.88	-52.9	-54.7	14.4	0.00e+00	0	28	0	490733568	71	4564
2026-01-05 03:04:40.09	1.66	26.98	-53.0	-54.8	14.4	0.00e+00	0	28	0	491782144	71	4631
2026-01-05 03:04:41.09	1.40	27.07	-53.0	-54.9	14.4	0.00e+00	0	28	0	493879296	71	4669
2026-01-05 03:04:42.09	1.13	27.16	-53.1	-55.0	14.3	0.00e+00	0	28	0	495976448	71	4726
2026-01-05 03:04:43.09	0.87	27.25	-53.3	-55.2	14.2	0.00e+00	0	28	0	498073600	71	4852
2026-01-05 03:04:44.08	0.61	27.34	-53.5	-55.4	14.2	0.00e+00	0	28	0	500170752	72	4701
2026-01-05 03:04:45.08	0.34	27.44	-53.6	-55.6	14.2	0.00e+00	0	28	0	501219328	72	4764
2026-01-05 03:04:46.07	0.07	27.53	-53.8	-55.8	14.0	0.00e+00	0	28	0	503316480	72	4911
2026-01-05 03:04:47.07	359.80	27.62	-53.8	-55.8	14.0	0.00e+00	0	28	0	505413632	72	4925
2026-01-05 03:04:48.07	359.53	27.71	-53.8	-55.8	14.0	0.00e+00	0	28	0	507510784	72	4926
2026-01-05 03:04:49.06	359.26	27.80	-53.8	-55.9	14.0	0.00e+00	0	28	0	508559360	72	4938
2026-01-05 03:04:50.06	358.98	27.88	-53.8	-55.9	14.0	0.00e+00	0	28	0	510656512	72	4932
2026-01-05 03:04:51.06	358.71	27.97	-53.9	-55.9	14.0	0.00e+00	0	28	0	512753664	72	4972
2026-01-05 03:04:52.06	358.43	28.06	-54.1	-56.2	14.0	0.00e+00	0	28	0	514850816	73	4839
2026-01-05 03:04:53.06	358.15	28.15	-54.2	-56.5	13.8	0.00e+00	0	28	0	516947968	73	4986
2026-01-05 03:04:54.06	357.87	28.24	-54.3	-56.5	13.8	0.00e+00	0	28	0	517996544	73	5020
2026-01-05 03:04:55.06	357.58	28.32	-54.5	-56.8	13.8	0.00e+00	0	28	0	520093696	74	4880
2026-01-05 03:04:56.05	357.30	28.41	-54.6	-56.9	13.7	0.00e+00	0	28	0	522190848	74	4963
2026-01-05 03:04:57.05	357.01	28.50	-54.7	-57.0	13.7	0.00e+00	0	28	0	524288000	74	5027
2026-01-05 03:04:58.05	356.73	28.58	-54.7	-57.0	13.7	0.00e+00	0	28	0	526385152	74	5038
2026-01-05 03:04:59.05	356.44	28.67	-54.8	-57.2	13.6	0.00e+00	0	28	0	527433728	74	5119
2026-01-05 03:05:00.05	356.15	28.75	-54.8	-57.1	13.6	0.00e+00	0	28	0	529530880	74	5098
2026-01-05 03:05:01.05	355.85	28.83	-54.7	-57.1	13.6	0.00e+00	0	28	0	531628032	74	5085
2026-01-05 03:05:02.05	355.56	28.92	-54.9	-57.4	13.5	0.00e+00	0	28	0	533725184	74	5224
2026-01-05 03:05:03.06	355.26	29.00	-55.0	-57.5	13.5	0.00e+00	0	28	0	534773760	75	4995
2026-01-05 03:05:04.05	354.97	29.08	-55.1	-57.7	13.4	0.00e+00	0	28	0	536870912	75	5131
2026-01-05 03:05:05.05	354.67	29.16	-55.3	-57.9	13.3	0.00e+00	0	28	0	538968064	75	5276
2026-01-05 03:05:06.05	354.37	29.24	-55.2	-57.9	13.3	0.00e+00	0	28	0	541065216	75	5229
2026-01-05 03:05:07.05	354.07	29.32	-55.1	-57.6	13.5	0.00e+00	0	28	0	543162368	75	5088
2026-01-05 03:05:08.05	353.77	29.40	-55.1	-57.6	13.5	0.00e+00	0	28	0	544210944	75	5064
2026-01-05 03:05:09.05	353.46	29.48	-55.0	-57.5	13.5	0.00e+00	0	28	0	546308096	75	5014
2026-01-05 03:05:10.05	353.16	29.56	-54.7	-57.1	13.7	0.00e+00	0	28	0	548405248	75	4792
2026-01-05 03:05:11.05	352.85	29.64	-54.7	-57.1	13.7	0.00e+00	0	28	0	550502400	75	4787
2026-01-05 03:05:12.05	352.54	29.71	-54.7	-57.1	13.8	0.00e+00	0	28	0	552599552	75	4778
2026-01-05 03:05:13.05	352.23	29.79	-54.7	-57.0	13.8	0.00e+00	0	28	0	553648128	75	4752
2026-01-05 03:05:14.04	351.92	29.86	-54.7	-57.0	13.8	0.00e+00	0	28	0	555745280	75	4745
2026-01-05 03:05:15.05	351.60	29.94	-54.7	-57.1	13.7	0.00e+00	0	28	0	557842432	75	4776
2026-01-05 03:05:16.05	351.29	30.01	-54.6	-56.9	13.8	0.00e+00	0	28	0	559939584	75	4686
2026-01-05 03:05:17.05	350.97	30.08	-54.5	-56.8	13.9	0.00e+00	0	28	0	562036736	75	4621
2026-01-05 03:05:18.04	350.66	30.15	-54.5	-56.7	14.0	0.00e+00	0	28	0	563085312	75	4570
2026-01-05 03:05:19.04	350.34	30.22	-54.4	-56.6	14.0	0.00e+00	0	28	0	565182464	75	4515
2026-01-05 03:05:20.04	350.02	30.29	-54.3	-56.5	14.0	0.00e+00	0	28	0	567279616	75	4461
2026-01-05 03:05:21.04	349.70	30.36	-54.2	-56.3	14.2	0.00e+00	0	28	0	569376768	75	4385
2026-01-05 03:05:22.04	349.37	30.43	-54.3	-56.5	14.1	0.00e+00	0	28	0	570425344	75	4462
2026-01-05 03:05:23.04	349.05	30.50	-54.2	-56.3	14.2	0.00e+00	0	28	0	572522496	75	4368
2026-01-05 03:05:24.04	348.72	30.57	-54.2	-56.3	14.1	0.00e+00	0	28	0	574619648	74	4644
2026-01-05 03:05:25.04	348.39	30.63	-54.2	-56.3	14.0	0.00e+00	0	28	0	576716800	74	4626
2026-01-05 03:05:26.04	348.07	30.70	-54.1	-56.2	14.1	0.00e+00	0	28	0	578813952	74	4597
2026-01-05 03:05:27.04	347.74	30.76	-54.1	-56.3	14.1	0.00e+00	0	28	0	579862528	74	4599
2026-01-05 03:05:28.03	347.41	30.82	-54.2	-56.3	14.1	0.00e+00	0	28	0	581959680	74	4611
2026-01-05 03:05:29.03	347.08	30.89	-54.4	-56.6	13.9	0.00e+00	0	28	0	584056832	74	4780
2026-01-05 03:05:30.03	346.74	30.95	-54.5	-56.7	13.9	0.00e+00	0	28	0	586153984	74	4839
2026-01-05 03:05:31.02	346.41	31.01	-54.5	-56.7	13.9	0.00e+00	0	28	0	587202560	74	4844
2026-01-05 03:05:32.02	346.07	31.06	-54.3	-56.5	14.0	0.00e+00	0	28	0	589299712	74	4731
2026-01-05 03:05:33.02	345.74	31.12	-54.4	-56.5	13.9	0.00e+00	0	28	0	591396864	74	4757
2026-01-05 03:05:34.01	345.40	31.18	-54.4	-56.6	13.9	0.00e+00	0	28	0	593494016	74	4804
2026-01-05 03:05:35.00	345.06	31.23	-54.6	-56.9	13.8	0.00e+00	0	28	0	595591168	74	4959
2026-01-05 03:05:36.01	344.72	31.29	-54.7	-57.0	13.7	0.00e+00	0	28	0	596639744	74	5011
2026-01-05 03:05:37.01	344.38	31.34	-54.7	-56.9	13.7	0.00e+00	0	28	0	598736896	74	4978
2026-01-05 03:05:38.00	344.04	31.40	-54.7	-57.0	13.7	0.00e+00	0	28	0	600834048	74	4985
2026-01-05 03:05:39.00	343.69	31.45	-54.7	-57.0	13.8	0.00e+00	0	28	0	602931200	74	5021
2026-01-05 03:05:39.99	343.35	31.50	-54.7	-57.0	13.8	0.00e+00	0	28	0	605028352	74	5028
2026-01-05 03:05:40.99	343.00	31.55	-54.8	-57.2	13.7	0.00e+00	0	28	0	606076928	74	5118
2026-01-05 03:05:41.99	342.65	31.60	-54.6	-56.9	13.8	0.00e+00	0	28	0	608174080	74	4958
2026-01-05 03:05:42.99	342.31	31.64	-54.7	-57.0	13.8	0.00e+00	0	28	0	610271232	74	4991
2026-01-05 03:05:44.00	341.95	31.69	-54.6	-56.8	13.8	0.00e+00	0	28	0	612368384	74	4901
2026-01-05 03:05:45.00	341.60	31.74	-54.6	-56.8	13.8	0.00e+00	0	28	0	613416960	74	4901
2026-01-05 03:05:46.00	341.25	31.78	-54.3	-56.4	14.0	0.00e+00	0	28	0	615514112	74	4667
2026-01-05 03:05:47.00	340.90	31.82	-54.1	-56.2	14.1	0.00e+00	0	28	0	617611264	74	4570
2026-01-05 03:05:48.00	340.54	31.87	-54.4	-56.5	14.0	0.00e+00	0	28	0	619708416	74	4751
2026-01-05 03:05:49.00	340.19	31.91	-54.4	-56.6	13.9	0.00e+00	0	28	0	621805568	74	4794
2026-01-05 03:05:50.00	339.83	31.95	-54.5	-56.7	13.9	0.00e+00	0	28	0	622854144	74	4866
2026-01-05 03:05:50.99	339.48	31.98	-54.4	-56.6	13.9	0.00e+00	0	28	0	624951296	74	4809
2026-01-05 03:05:51.99	339.12	32.02	-54.4	-56.5	14.0	0.00e+00	0	28	0	627048448	74	4740
2026-01-05 03:05:52.99	338.76	32.06	-54.0	-56.0	14.3	0.00e+00	0	28	0	629145600	74	4455
2026-01-05 03:05:53.99	338.41	32.09	-53.6	-55.5	14.3	0.00e+00	0	28	0	631242752	73	4464
2026-01-05 03:05:54.99	338.05	32.12	-53.6	-55.5	14.3	0.00e+00	0	28	0	632291328	73	4475
2026-01-05 03:05:55.99	337.69	32.15	-53.5	-55.4	14.4	0.00e+00	0	28	0	634388480	73	4423
2026-01-05 03:05:56.99	337.32	32.19	-53.6	-55.5	14.4	0.00e+00	0	28	0	636485632	73	4466
2026-01-05 03:05:57.98	336.97	32.21	-53.7	-55.6	14.3	0.00e+00	0	28	0	638582784	73	4537
2026-01-05 03:05:58.98	336.60	32.24	-53.6	-55.6	14.3	0.00e+00	0	28	0	640679936	73	4501
2026-01-05 03:05:59.98	336.24	32.27	-53.8	-55.7	14.2	0.00e+00	0	28	0	641728512	73	4596
2026-01-05 03:06:00.98	335.88	32.30	-54.0	-56.0	14.1	0.00e+00	0	28	0	643825664	73	4724
2026-01-05 03:06:01.99	335.51	32.32	-54.1	-56.1	14.1	0.00e+00	0	28	0	645922816	73	4796
2026-01-05 03:06:02.99	335.14	32.34	-54.2	-56.3	14.0	0.00e+00	0	28	0	648019968	73	4896
2026-01-05 03:06:03.99	334.78	32.36	-54.2	-56.3	14.0	0.00e+00	0	28	0	649068544	73	4906
2026-01-05 03:06:05.00	334.41	32.39	-54.3	-56.4	14.0	0.00e+00	0	28	0	651165696	73	4937
2026-01-05 03:06:05.99	334.05	32.40	-54.4	-56.5	13.9	0.00e+00	0	28	0	653262848	73	5016
2026-01-05 03:06:06.99	333.68	32.42	-54.5	-56.8	13.9	0.00e+00	0	28	0	655360000	74	4876
2026-01-05 03:06:07.99	333.31	32.44	-54.6	-56.8	13.8	0.00e+00	0	28	0	657457152	74	4905
2026-01-05 03:06:08.99	332.95	32.45	-54.6	-56.8	13.8	0.00e+00	0	28	0	658505728	74	4925
2026-01-05 03:06:09.98	332.58	32.47	-54.7	-56.9	13.8	0.00e+00	0	28	0	660602880	74	4963
2026-01-05 03:06:10.99	332.21	32.48	-54.7	-57.1	13.8	0.00e+00	0	28	0	662700032	74	5043
2026-01-05 03:06:11.99	331.84	32.49	-54.7	-57.0	13.8	0.00e+00	0	28	0	664797184	74	5004
2026-01-05 03:06:12.99	331.47	32.50	-54.7	-57.0	13.8	0.00e+00	0	28	0	666894336	74	4988
2026-01-05 03:06:13.99	331.11	32.51	-54.8	-57.1	13.8	0.00e+00	0	28	0	667942912	74	5059
2026-01-05 03:06:14.99	330.74	32.52	-54.8	-57.1	13.7	0.00e+00	0	28	0	670040064	74	5092
2026-01-05 03:06:15.99	330.37	32.52	-54.7	-57.0	13.8	0.00e+00	0	28	0	672137216	74	5000
2026-01-05 03:06:16.98	330.00	32.53	-54.7	-57.0	13.8	0.00e+00	0	28	0	674234368	74	5007
2026-01-05 03:06:17.98	329.63	32.53	-54.7	-56.9	13.8	0.00e+00	0	28	0	675282944	74	4975
2026-01-05 03:06:18.97	329.27	32.53	-54.8	-57.0	13.8	0.00e+00	0	28	0	677380096	74	5036
2026-01-05 03:06:19.96	328.90	32.53	-54.9	-57.2	13.7	0.00e+00	0	28	0	679477248	75	4868
2026-01-05 03:06:20.96	328.53	32.53	-54.9	-57.3	13.7	0.00e+00	0	28	0	681574400	75	4903
2026-01-05 03:06:21.96	328.16	32.53	-54.9	-57.2	13.7	0.00e+00	0	28	0	683671552	75	4861
2026-01-05 03:06:22.96	327.79	32.53	-54.8	-57.1	13.8	0.00e+00	0	28	0	684720128	75	4810
2026-01-05 03:06:23.95	327.43	32.52	-54.6	-56.8	13.9	0.00e+00	0	28	0	686817280	75	4651
2026-01-05 03:06:24.94	327.06	32.51	-54.6	-56.8	14.0	0.00e+00	0	28	0	688914432	75	4621
2026-01-05 03:06:25.93	326.70	32.51	-54.4	-56.5	14.1	0.00e+00	0	28	0	691011584	75	4457
2026-01-05 03:06:26.93	326.33	32.50	-54.2	-56.3	14.2	0.00e+00	0	28	0	693108736	75	4360
2026-01-05 03:06:27.93	325.96	32.49	-54.1	-56.1	14.2	0.00e+00	0	28	0	694157312	74	4506
2026-01-05 03:06:28.92	325.60	32.48	-54.2	-56.3	14.1	0.00e+00	0	27	0	696254464	74	4614
2026-01-05 03:06:29.92	325.23	32.46	-54.2	-56.3	14.1	0.00e+00	0	28	0	698351616	74	4636
2026-01-05 03:06:30.92	324.86	32.45	-54.6	-56.8	13.9	0.00e+00	0	28	0	700448768	74	4898
2026-01-05 03:06:31.92	324.49	32.43	-54.7	-57.0	13.8	0.00e+00	0	28	0	701497344	74	4995
2026-01-05 03:06:32.92	324.13	32.42	-54.9	-57.3	13.7	0.00e+00	0	28	0	703594496	75	4903
2026-01-05 03:06:33.91	323.76	32.40	-54.9	-57.3	13.7	0.00e+00	0	28	0	705691648	75	4902
2026-01-05 03:06:34.91	323.40	32.38	-54.9	-57.3	13.7	0.00e+00	0	28	0	707788800	75	4911
2026-01-05 03:06:35.91	323.03	32.36	-54.8	-57.1	13.8	0.00e+00	0	28	0	709885952	75	4775
2026-01-05 03:06:36.91	322.67	32.33	-54.6	-56.8	14.0	0.00e+00	0	28	0	710934528	75	4631
2026-01-05 03:06:37.91	322.30	32.31	-54.6	-56.8	14.0	0.00e+00	0	28	0	713031680	75	4623
2026-01-05 03:06:38.92	321.93	32.29	-54.7	-56.9	13.9	0.00e+00	0	28	0	715128832	75	4682
2026-01-05 03:06:39.92	321.57	32.26	-54.7	-57.0	13.9	0.00e+00	0	28	0	717225984	75	4709
2026-01-05 03:06:40.91	321.21	32.23	-54.7	-57.0	13.8	0.00e+00	0	28	0	718274560	75	4738
2026-01-05 03:06:41.91	320.85	32.20	-54.8	-57.1	13.8	0.00e+00	0	28	0	720371712	75	4784
2026-01-05 03:06:42.91	320.49	32.17	-54.8	-57.2	13.8	0.00e+00	0	28	0	722468864	75	4821
2026-01-05 03:06:43.91	320.13	32.14	-54.8	-57.1	13.8	0.00e+00	0	28	0	724566016	75	4776
2026-01-05 03:06:44.91	319.77	32.11	-54.7	-56.9	13.9	0.00e+00	0	28	0	726663168	75	4666
2026-01-05 03:06:45.91	319.41	32.08	-54.5	-56.7	14.0	0.00e+00	0	28	0	727711744	75	4571
2026-01-05 03:06:46.91	319.05	32.04	-54.4	-56.5	14.1	0.00e+00	0	28	0	729808896	75	4470
2026-01-05 03:06:47.92	318.69	32.01	-54.3	-56.4	14.2	0.00e+00	0	28	0	731906048	75	4434
2026-01-05 03:06:48.92	318.33	31.97	-54.4	-56.5	14.1	0.00e+00	0	28	0	734003200	75	4477
2026-01-05 03:06:49.92	317.97	31.93	-54.5	-56.7	14.0	0.00e+00	0	28	0	736100352	75	4552
2026-01-05 03:06:50.91	317.62	31.89	-54.6	-56.9	13.9	0.00e+00	0	28	0	737148928	75	4656
2026-01-05 03:06:51.91	317.27	31.85	-54.7	-57.0	13.8	0.00e+00	0	28	0	739246080	75	4728
2026-01-05 03:06:52.92	316.91	31.81	-54.8	-57.1	13.8	0.00e+00	0	28	0	741343232	75	4793
2026-01-05 03:06:53.92	316.56	31.76	-54.9	-57.2	13.8	0.00e+00	0	28	0	743440384	75	4854
2026-01-05 03:06:54.92	316.20	31.72	-54.7	-57.0	13.9	0.00e+00	0	28	0	744488960	75	4726
2026-01-05 03:06:55.91	315.86	31.67	-54.7	-56.9	13.9	0.00e+00	0	28	0	746586112	75	4697
2026-01-05 03:06:56.92	315.50	31.63	-54.7	-56.9	13.9	0.00e+00	0	28	0	748683264	75	4694
2026-01-05 03:06:57.91	315.16	31.58	-54.7	-56.9	13.9	0.00e+00	0	28	0	750780416	75	4672
2026-01-05 03:06:58.92	314.81	31.53	-54.7	-56.9	14.0	0.00e+00	0	28	0	752877568	75	4675
2026-01-05 03:06:59.92	314.46	31.48	-54.7	-57.0	13.9	0.00e+00	0	28	0	753926144	75	4729
2026-01-05 03:07:00.92	314.11	31.43	-54.9	-57.2	13.8	0.00e+00	0	28	0	756023296	75	4854
2026-01-05 03:07:01.92	313.77	31.38	-55.1	-57.5	13.6	0.00e+00	0	28	0	758120448	75	5039
2026-01-05 03:07:02.92	313.43	31.32	-55.2	-57.6	13.6	0.00e+00	0	28	0	760217600	75	5065
2026-01-05 03:07:03.92	313.08	31.27	-55.2	-57.7	13.5	0.00e+00	0	28	0	762314752	75	5122
2026-01-05 03:07:04.92	312.74	31.21	-55.1	-57.5	13.6	0.00e+00	0	28	0	763363328	75	5040
2026-01-05 03:07:05.92	312.40	31.16	-55.0	-57.4	13.7	0.00e+00	0	28	0	765460480	75	4932
2026-01-05 03:07:06.92	312.07	31.10	-55.0	-57.3	13.7	0.00e+00	0	28	0	767557632	75	4902
2026-01-05 03:07:07.92	311.73	31.04	-54.8	-57.0	13.9	0.00e+00	0	28	0	769654784	75	4744
2026-01-05 03:07:08.92	311.39	30.98	-54.7	-56.9	13.9	0.00e+00	0	28	0	771751936	75	4690
2026-01-05 03:07:09.92	311.06	30.92	-54.7	-56.9	13.9	0.00e+00	0	28	0	772800512	75	4702
2026-01-05 03:07:10.92	310.72	30.86	-54.9	-57.2	13.8	0.00e+00	0	28	0	774897664	75	4858
2026-01-05 03:07:11.91	310.39	30.80	-55.1	-57.6	13.6	0.00e+00	0	28	0	776994816	75	5044
2026-01-05 03:07:12.91	310.06	30.73	-55.3	-57.8	13.5	0.00e+00	0	28	0	779091968	75	5194
2026-01-05 03:07:13.90	309.74	30.67	-55.3	-57.8	13.5	0.00e+00	0	28	0	780140544	75	5209
2026-01-05 03:07:14.90	309.41	30.60	-55.3	-57.8	13.5	0.00e+00	0	28	0	782237696	75	5180
2026-01-05 03:07:15.90	309.08	30.54	-55.2	-57.7	13.5	0.00e+00	0	28	0	784334848	75	5126
2026-01-05 03:07:16.89	308.76	30.47	-55.0	-57.4	13.7	0.00e+00	0	28	0	786432000	75	4972
2026-01-05 03:07:17.88	308.44	30.40	-54.9	-57.3	13.7	0.00e+00	0	28	0	788529152	75	4883
2026-01-05 03:07:18.88	308.11	30.34	-54.9	-57.3	13.8	0.00e+00	0	28	0	789577728	75	4874
2026-01-05 03:07:19.88	307.79	30.27	-55.1	-57.4	13.7	0.00e+00	0	28	0	791674880	75	4977
2026-01-05 03:07:20.88	307.47	30.20	-55.2	-57.7	13.6	0.00e+00	0	28	0	793772032	75	5147
2026-01-05 03:07:21.88	307.15	30.12	-55.2	-57.6	13.6	0.00e+00	0	28	0	795869184	75	5093
2026-01-05 03:07:22.87	306.84	30.05	-55.1	-57.5	13.6	0.00e+00	0	28	0	796917760	75	5036
2026-01-05 03:07:23.87	306.52	29.98	-54.9	-57.3	13.7	0.00e+00	0	28	0	799014912	75	4883
2026-01-05 03:07:24.87	306.21	29.91	-55.0	-57.3	13.7	0.00e+00	0	28	0	801112064	75	4926
2026-01-05 03:07:25.87	305.89	29.83	-55.0	-57.3	13.7	0.00e+00	0	28	0	803209216	75	4900
2026-01-05 03:07:26.86	305.59	29.76	-54.9	-57.2	13.8	0.00e+00	0	28	0	805306368	75	4839
2026-01-05 03:07:27.86	305.28	29.68	-55.0	-57.3	13.7	0.00e+00	0	28	0	806354944	75	4920
2026-01-05 03:07:28.86	304.97	29.60	-54.8	-57.1	13.8	0.00e+00	0	28	0	808452096	75	4794
2026-01-05 03:07:29.86	304.66	29.53	-54.9	-57.2	13.8	0.00e+00	0	28	0	810549248	75	4819
2026-01-05 03:07:30.85	304.36	29.45	-54.7	-56.9	14.0	0.00e+00	0	28	0	812646400	75	4685
2026-01-05 03:07:31.84	304.06	29.37	-54.7	-56.9	14.0	0.00e+00	0	28	0	814743552	75	4656
2026-01-05 03:07:32.85	303.75	29.29	-54.6	-56.8	14.0	0.00e+00	0	28	0	815792128	75	4650
2026-01-05 03:07:33.85	303.45	29.21	-54.7	-56.8	14.0	0.00e+00	0	28	0	817889280	75	4649
2026-01-05 03:07:34.85	303.15	29.13	-54.6	-56.8	14.0	0.00e+00	0	28	0	819986432	75	4601
2026-01-05 03:07:35.85	302.85	29.05	-54.6	-56.8	14.0	0.00e+00	0	28	0	822083584	75	4651
2026-01-05 03:07:36.85	302.55	28.97	-54.6	-56.7	14.0	0.00e+00	0	28	0	823132160	75	4589
2026-01-05 03:07:37.84	302.26	28.88	-54.6	-56.8	14.0	0.00e+00	0	28	0	825229312	75	4635
2026-01-05 03:07:38.84	301.97	28.80	-54.3	-56.3	14.2	0.00e+00	0	28	0	827326464	75	4375
2026-01-05 03:07:39.84	301.68	28.72	-54.3	-56.3	14.2	0.00e+00	0	28	0	829423616	75	4360
2026-01-05 03:07:40.84	301.39	28.63	-54.3	-56.3	14.2	0.00e+00	0	28	0	831520768	75	4364
2026-01-05 03:07:41.84	301.10	28.55	-54.5	-56.6	14.1	0.00e+00	0	28	0	832569344	75	4544
2026-01-05 03:07:42.85	300.81	28.46	-54.4	-56.6	14.1	0.00e+00	0	28	0	834666496	75	4497
2026-01-05 03:07:43.86	300.52	28.37	-54.4	-56.6	14.1	0.00e+00	0	28	0	836763648	75	4502
2026-01-05 03:07:44.86	300.23	28.29	-54.5	-56.7	14.0	0.00e+00	0	28	0	838860800	75	4570
2026-01-05 03:07:45.86	299.95	28.20	-54.6	-56.8	14.0	0.00e+00	0	28	0	840957952	75	4618
2026-01-05 03:07:46.85	299.67	28.11	-54.5	-56.7	14.1	0.00e+00	0	28	0	842006528	75	4549
2026-01-05 03:07:47.85	299.39	28.02	-54.4	-56.5	14.1	0.00e+00	0	28	0	844103680	75	4468
2026-01-05 03:07:48.84	299.12	27.94	-54.4	-56.6	14.1	0.00e+00	0	28	0	846200832	75	4504
2026-01-05 03:07:49.84	298.84	27.85	-54.3	-56.4	14.2	0.00e+00	0	28	0	848297984	75	4411
2026-01-05 03:07:50.84	298.56	27.76	-54.2	-56.3	14.2	0.00e+00	0	28	0	850395136	75	4365
2026-01-05 03:07:51.83	298.29	27.67	-54.1	-56.2	14.2	0.00e+00	0	28	0	851443712	74	4546
2026-01-05 03:07:52.83	298.02	27.58	-54.0	-56.0	14.3	0.00e+00	0	28	0	853540864	74	4471
2026-01-05 03:07:53.83	297.75	27.49	-53.9	-55.8	14.4	0.00e+00	0	28	0	855638016	74	4367
2026-01-05 03:07:54.82	297.48	27.40	-53.9	-55.8	14.4	0.00e+00	0	28	0	857735168	74	4365
2026-01-05 03:07:55.82	297.22	27.30	-53.9	-55.9	14.3	0.00e+00	0	28	0	858783744	74	4399
2026-01-05 03:07:56.81	296.95	27.21	-54.0	-56.0	14.3	0.00e+00	0	28	0	860880896	74	4464
2026-01-05 03:07:57.81	296.69	27.12	-53.9	-55.8	14.3	0.00e+00	0	28	0	862978048	74	4387
2026-01-05 03:07:58.81	296.43	27.03	-53.8	-55.7	14.4	0.00e+00	0	28	0	865075200	74	4320
2026-01-05 03:07:59.82	296.16	26.93	-53.6	-55.5	14.4	0.00e+00	0	28	0	867172352	73	4459
2026-01-05 03:08:00.82	295.90	26.84	-53.6	-55.5	14.4	0.00e+00	0	28	0	868220928	73	4493
2026-01-05 03:08:01.83	295.64	26.75	-53.6	-55.5	14.4	0.00e+00	0	28	0	870318080	73	4452
2026-01-05 03:08:02.82	295.39	26.65	-53.7	-55.6	14.3	0.00e+00	0	28	0	872415232	73	4499
2026-01-05 03:08:03.83	295.13	26.56	-53.6	-55.6	14.3	0.00e+00	0	28	0	874512384	73	4494
2026-01-05 03:08:04.83	294.88	26.46	-53.6	-55.5	14.4	0.00e+00	0	28	0	876609536	73	4477
2026-01-05 03:08:05.84	294.62	26.37	-53.6	-55.5	14.4	0.00e+00	0	28	0	877658112	73	4478
2026-01-05 03:08:06.83	294.37	26.27	-53.5	-55.3	14.5	0.00e+00	0	28	0	879755264	73	4377
2026-01-05 03:08:07.83	294.13	26.18	-53.2	-55.0	14.6	0.00e+00	0	28	0	881852416	73	4233
2026-01-05 03:08:08.83	293.88	26.08	-53.1	-54.9	14.5	0.00e+00	0	28	0	883949568	72	4404
2026-01-05 03:08:09.84	293.63	25.98	-52.9	-54.6	14.6	0.00e+00	0	28	0	886046720	72	4278
2026-01-05 03:08:10.84	293.39	25.89	-52.7	-54.4	14.7	0.00e+00	0	28	0	887095296	72	4158
2026-01-05 03:08:11.84	293.14	25.79	-52.7	-54.3	14.7	0.00e+00	0	28	0	889192448	71	4384
2026-01-05 03:08:12.85	292.90	25.69	-52.6	-54.3	14.7	0.00e+00	0	28	0	891289600	71	4372
2026-01-05 03:08:13.85	292.66	25.60	-52.5	-54.1	14.7	0.00e+00	0	28	0	893386752	71	4273
2026-01-05 03:08:14.85	292.42	25.50	-52.4	-54.0	14.8	0.00e+00	0	28	0	894435328	71	4206
2026-01-05 03:08:15.85	292.18	25.40	-52.3	-53.9	14.8	0.00e+00	0	28	0	896532480	71	4189
2026-01-05 03:08:16.86	291.94	25.30	-52.1	-53.7	14.8	0.00e+00	0	28	0	898629632	70	4300
2026-01-05 03:08:17.84	291.72	25.21	-51.9	-53.5	14.9	0.00e+00	0	28	0	900726784	70	4206
2026-01-05 03:08:18.84	291.48	25.11	-52.1	-53.6	14.8	0.00e+00	0	28	0	902823936	70	4282
2026-01-05 03:08:19.84	291.25	25.01	-51.9	-53.5	14.9	0.00e+00	0	28	0	903872512	70	4206
2026-01-05 03:08:20.83	291.02	24.91	-51.9	-53.5	14.8	0.00e+00	0	28	0	905969664	70	4204
2026-01-05 03:08:21.82	290.80	24.82	-51.9	-53.4	14.9	0.00e+00	0	28	0	908066816	70	4175
2026-01-05 03:08:22.82	290.57	24.72	-51.9	-53.4	14.9	0.00e+00	0	28	0	910163968	70	4173
2026-01-05 03:08:23.82	290.35	24.62	-51.9	-53.4	14.9	0.00e+00	0	28	0	911212544	70	4179
2026-01-05 03:08:24.82	290.12	24.52	-51.9	-53.4	14.9	0.00e+00	0	28	0	913309696	70	4186
2026-01-05 03:08:25.81	289.90	24.42	-51.5	-53.0	14.9	0.00e+00	0	28	0	915406848	69	4220
2026-01-05 03:08:26.80	289.68	24.33	-51.4	-52.9	14.9	0.00e+00	0	28	0	917504000	69	4180
2026-01-05 03:08:27.80	289.46	24.23	-51.5	-53.0	14.9	0.00e+00	0	28	0	919601152	69	4210
2026-01-05 03:08:28.79	289.25	24.13	-51.5	-53.0	14.9	0.00e+00	0	28	0	920649728	69	4205
2026-01-05 03:08:29.79	289.03	24.03	-51.4	-52.8	15.0	0.00e+00	0	28	0	922746880	69	4137
2026-01-05 03:08:30.79	288.81	23.93	-51.4	-52.9	14.9	0.00e+00	0	28	0	924844032	69	4183
2026-01-05 03:08:31.80	288.60	23.83	-51.5	-53.0	14.9	0.00e+00	0	28	0	926941184	69	4197
2026-01-05 03:08:32.80	288.38	23.73	-51.6	-53.1	14.9	0.00e+00	0	28	0	929038336	69	4254
2026-01-05 03:08:33.80	288.17	23.63	-51.4	-52.8	15.0	0.00e+00	0	28	0	930086912	69	4141
2026-01-05 03:08:34.80	287.96	23.53	-51.1	-52.6	14.9	0.00e+00	0	28	0	932184064	68	4256
2026-01-05 03:08:35.81	287.75	23.43	-51.1	-52.6	14.9	0.00e+00	0	28	0	934281216	68	4251
2026-01-05 03:08:36.80	287.55	23.33	-51.0	-52.4	15.0	0.00e+00	0	28	0	936378368	68	4186
2026-01-05 03:08:37.80	287.34	23.23	-50.9	-52.3	15.0	0.00e+00	0	28	0	937426944	68	4137
2026-01-05 03:08:38.80	287.13	23.13	-51.0	-52.4	15.0	0.00e+00	0	28	0	939524096	68	4159
2026-01-05 03:08:39.80	286.93	23.04	-51.0	-52.4	15.0	0.00e+00	0	28	0	941621248	68	4193
2026-01-05 03:08:40.80	286.73	22.94	-51.0	-52.4	15.0	0.00e+00	0	28	0	943718400	68	4162
2026-01-05 03:08:41.80	286.53	22.84	-51.1	-52.5	14.9	0.00e+00	0	28	0	945815552	68	4236
2026-01-05 03:08:42.80	286.33	22.74	-51.1	-52.6	14.9	0.00e+00	0	28	0	946864128	68	4262
2026-01-05 03:08:43.80	286.13	22.64	-51.1	-52.6	14.9	0.00e+00	0	28	0	948961280	68	4259
2026-01-05 03:08:44.80	285.93	22.54	-51.2	-52.6	14.9	0.00e+00	0	28	0	951058432	68	4285
2026-01-05 03:08:45.80	285.74	22.44	-51.2	-52.6	14.9	0.00e+00	0	28	0	953155584	68	4283
2026-01-05 03:08:46.80	285.54	22.34	-51.2	-52.7	14.9	0.00e+00	0	28	0	955252736	68	4315
2026-01-05 03:08:47.80	285.35	22.24	-51.3	-52.8	14.9	0.00e+00	0	28	0	956301312	68	4343
2026-01-05 03:08:48.80	285.16	22.14	-51.4	-52.9	14.8	0.00e+00	0	28	0	958398464	68	4438
2026-01-05 03:08:49.80	284.96	22.04	-51.5	-53.0	14.8	0.00e+00	0	28	0	960495616	68	4478
2026-01-05 03:08:50.80	284.78	21.94	-51.6	-53.2	14.8	0.00e+00	0	28	0	962592768	68	4557
2026-01-05 03:08:51.79	284.59	21.84	-51.6	-53.2	14.7	0.00e+00	0	28	0	964689920	68	4550
2026-01-05 03:08:52.80	284.40	21.74	-51.7	-53.3	14.7	0.00e+00	0	28	0	965738496	68	4606
2026-01-05 03:08:53.80	284.21	21.64	-51.7	-53.2	14.7	0.00e+00	0	28	0	967835648	68	4577
2026-01-05 03:08:54.80	284.03	21.54	-51.6	-53.2	14.7	0.00e+00	0	28	0	969932800	68	4546
2026-01-05 03:08:55.80	283.85	21.45	-51.6	-53.1	14.8	0.00e+00	0	28	0	972029952	68	4525
2026-01-05 03:08:56.79	283.66	21.35	-51.5	-53.1	14.8	0.00e+00	0	28	0	973078528	68	4500
2026-01-05 03:08:57.79	283.48	21.25	-51.5	-53.0	14.8	0.00e+00	0	28	0	975175680	68	4471
2026-01-05 03:08:58.79	283.30	21.15	-51.5	-53.1	14.8	0.00e+00	0	28	0	977272832	68	4504
2026-01-05 03:08:59.79	283.12	21.05	-51.8	-53.4	14.7	0.00e+00	0	28	0	979369984	68	4656
2026-01-05 03:09:00.79	282.95	20.95	-51.8	-53.3	14.7	0.00e+00	0	28	0	981467136	68	4639
2026-01-05 03:09:01.79	282.77	20.85	-51.9	-53.5	14.7	0.00e+00	0	28	0	982515712	69	4487
2026-01-05 03:09:02.78	282.60	20.76	-52.0	-53.6	14.7	0.00e+00	0	28	0	984612864	69	4532
2026-01-05 03:09:03.77	282.42	20.66	-52.2	-53.8	14.6	0.00e+00	0	28	0	986710016	69	4632
2026-01-05 03:09:04.78	282.25	20.56	-52.2	-53.9	14.6	0.00e+00	0	28	0	988807168	69	4656
2026-01-05 03:09:05.78	282.08	20.46	-52.3	-53.9	14.6	0.00e+00	0	28	0	989855744	69	4688
2026-01-05 03:09:06.78	281.91	20.36	-52.2	-53.8	14.6	0.00e+00	0	28	0	991952896	69	4651
2026-01-05 03:09:07.77	281.74	20.27	-52.1	-53.7	14.6	0.00e+00	0	28	0	994050048	69	4595
2026-01-05 03:09:08.78	281.57	20.17	-52.2	-53.8	14.6	0.00e+00	0	28	0	996147200	69	4641
2026-01-05 03:09:09.77	281.40	20.07	-52.1	-53.8	14.6	0.00e+00	0	28	0	998244352	69	4616
2026-01-05 03:09:10.78	281.23	19.97	-52.3	-54.0	14.5	0.00e+00	0	28	0	999292928	69	4736
2026-01-05 03:09:11.78	281.07	19.88	-52.3	-54.0	14.5	0.00e+00	0	28	0	1001390080	69	4749
2026-01-05 03:09:12.78	280.90	19.78	-52.5	-54.2	14.6	0.00e+00	0	28	0	1003487232	70	4558
2026-01-05 03:09:13.78	280.74	19.68	-52.5	-54.2	14.5	0.00e+00	0	28	0	1005584384	70	4578
2026-01-05 03:09:14.78	280.58	19.59	-52.5	-54.2	14.5	0.00e+00	0	28	0	1007681536	70	4584
2026-01-05 03:09:15.78	280.42	19.49	-52.4	-54.1	14.6	0.00e+00	0	28	0	1008730112	70	4512
2026-01-05 03:09:16.78	280.26	19.39	-52.5	-54.2	14.6	0.00e+00	0	28	0	1010827264	70	4555
2026-01-05 03:09:17.78	280.10	19.29	-52.5	-54.2	14.5	0.00e+00	0	28	0	1012924416	70	4575
2026-01-05 03:09:18.78	279.94	19.20	-52.6	-54.3	14.5	0.00e+00	0	28	0	1015021568	70	4632
2026-01-05 03:09:19.78	279.78	19.10	-52.7	-54.4	14.5	0.00e+00	0	28	0	1016070144	70	4702
2026-01-05 03:09:20.77	279.63	19.01	-52.5	-54.2	14.5	0.00e+00	0	28	0	1018167296	70	4594
2026-01-05 03:09:21.77	279.47	18.91	-52.7	-54.5	14.4	0.00e+00	0	28	0	1020264448	70	4733
2026-01-05 03:09:22.77	279.32	18.82	-52.6	-54.3	14.5	0.00e+00	0	28	0	1022361600	70	4641
2026-01-05 03:09:23.77	279.16	18.72	-52.8	-54.5	14.4	0.00e+00	0	28	0	1024458752	70	4758
2026-01-05 03:09:24.77	279.01	18.62	-52.8	-54.6	14.4	0.00e+00	0	28	0	1025507328	70	4802
2026-01-05 03:09:25.76	278.86	18.53	-52.7	-54.5	14.4	0.00e+00	0	28	0	1027604480	70	4724
2026-01-05 03:09:26.76	278.71	18.43	-52.7	-54.5	14.4	0.00e+00	0	28	0	1029701632	70	4741
2026-01-05 03:09:27.76	278.56	18.34	-52.7	-54.5	14.5	0.00e+00	0	28	0	1031798784	70	4708
2026-01-05 03:09:28.75	278.41	18.25	-52.8	-54.6	14.4	0.00e+00	0	28	0	1033895936	70	4782
2026-01-05 03:09:29.75	278.27	18.15	-52.8	-54.6	14.4	0.00e+00	0	28	0	1034944512	70	4801
2026-01-05 03:09:30.75	278.12	18.06	-52.9	-54.7	14.4	0.00e+00	0	28	0	1037041664	70	4846
2026-01-05 03:09:31.75	277.97	17.96	-52.9	-54.7	14.4	0.00e+00	0	28	0	1039138816	71	4594
2026-01-05 03:09:32.75	277.83	17.87	-53.1	-54.9	14.4	0.00e+00	0	27	0	1041235968	71	4691
2026-01-05 03:09:33.75	277.69	17.77	-53.2	-55.1	14.3	0.00e+00	0	28	0	1043333120	71	4788
2026-01-05 03:09:34.75	277.54	17.68	-53.3	-55.3	14.2	0.00e+00	0	28	0	1044381696	71	4874
2026-01-05 03:09:35.75	277.40	17.59	-53.3	-55.3	14.2	0.00e+00	0	28	0	1046478848	71	4899
2026-01-05 03:09:36.74	277.26	17.49	-53.3	-55.3	14.2	0.00e+00	0	28	0	1048576000	71	4900
2026-01-05 03:09:37.74	277.12	17.40	-53.3	-55.2	14.3	0.00e+00	0	28	0	1050673152	72	4590
2026-01-05 03:09:38.75	276.98	17.31	-53.2	-55.1	14.3	0.00e+00	0	28	0	1051721728	72	4524
2026-01-05 03:09:39.75	276.84	17.21	-53.2	-55.1	14.4	0.00e+00	0	28	0	1053818880	72	4523
2026-01-05 03:09:40.75	276.70	17.12	-53.1	-55.0	14.4	0.00e+00	0	28	0	1055916032	72	4480
2026-01-05 03:09:41.75	276.57	17.03	-53.2	-55.1	14.4	0.00e+00	0	28	0	1058013184	72	4540
2026-01-05 03:09:42.75	276.43	16.93	-53.1	-55.0	14.4	0.00e+00	0	28	0	1060110336	72	4489
2026-01-05 03:09:43.75	276.30	16.84	-53.3	-55.2	14.3	0.00e+00	0	28	0	1061158912	72	4573
2026-01-05 03:09:44.76	276.16	16.75	-53.4	-55.4	14.2	0.00e+00	0	28	0	1063256064	72	4684
2026-01-05 03:09:45.76	276.03	16.66	-53.5	-55.6	14.2	0.00e+00	0	28	0	1065353216	72	4761
2026-01-05 03:09:46.76	275.89	16.57	-53.7	-55.8	14.1	0.00e+00	0	28	0	1067450368	72	4884
2026-01-05 03:09:47.76	275.76	16.47	-53.8	-55.8	14.0	0.00e+00	0	28	0	1069547520	72	4916
2026-01-05 03:09:48.76	275.63	16.38	-53.7	-55.8	14.0	0.00e+00	0	28	0	1070596096	72	4910
2026-01-05 03:09:49.76	275.50	16.29	-53.7	-55.7	14.1	0.00e+00	0	28	0	1072693248	72	4859
2026-01-05 03:09:50.75	275.37	16.20	-53.6	-55.6	14.1	0.00e+00	0	28	0	1074790400	72	4809
2026-01-05 03:09:51.76	275.24	16.11	-53.5	-55.6	14.1	0.00e+00	0	28	0	1076887552	72	4760
2026-01-05 03:09:52.76	275.12	16.02	-53.4	-55.3	14.2	0.00e+00	0	28	0	1077936128	72	4644
2026-01-05 03:09:53.75	274.99	15.93	-53.4	-55.4	14.2	0.00e+00	0	28	0	1080033280	72	4659
2026-01-05 03:09:54.76	274.86	15.84	-53.3	-55.3	14.3	0.00e+00	0	28	0	1082130432	72	4621
2026-01-05 03:09:55.77	274.74	15.75	-53.4	-55.4	14.2	0.00e+00	0	28	0	1084227584	72	4686
2026-01-05 03:09:56.77	274.61	15.66	-53.5	-55.5	14.2	0.00e+00	0	28	0	1086324736	72	4731
2026-01-05 03:09:57.77	274.49	15.57	-53.7	-55.7	14.1	0.00e+00	0	28	0	1087373312	72	4864
2026-01-05 03:09:58.76	274.37	15.48	-53.7	-55.8	14.0	0.00e+00	0	28	0	1089470464	72	4885
2026-01-05 03:09:59.76	274.24	15.39	-53.8	-55.9	14.0	0.00e+00	0	28	0	1091567616	72	4978
2026-01-05 03:10:00.75	274.12	15.30	-53.9	-56.0	13.9	0.00e+00	0	28	0	1093664768	72	5020
2026-01-05 03:10:01.75	274.00	15.21	-53.9	-56.0	14.0	0.00e+00	0	28	0	1095761920	73	4753
2026-01-05 03:10:02.75	273.88	15.12	-54.0	-56.2	13.9	0.00e+00	0	28	0	1096810496	73	4845
2026-01-05 03:10:03.75	273.76	15.04	-54.0	-56.1	14.0	0.00e+00	0	28	0	1098907648	73	4806
2026-01-05 03:10:04.75	273.64	14.95	-53.9	-56.0	14.0	0.00e+00	0	28	0	1101004800	73	4749
2026-01-05 03:10:05.75	273.53	14.86	-53.9	-56.0	14.0	0.00e+00	0	28	0	1103101952	73	4725
2026-01-05 03:10:06.75	273.41	14.77	-53.9	-56.0	14.0	0.00e+00	0	28	0	1105199104	73	4728
2026-01-05 03:10:07.75	273.29	14.68	-53.8	-55.8	14.1	0.00e+00	0	28	0	1106247680	73	4648
2026-01-05 03:10:08.76	273.17	14.59	-53.6	-55.6	14.2	0.00e+00	0	28	0	1108344832	73	4501
2026-01-05 03:10:09.76	273.06	14.51	-53.4	-55.4	14.3	0.00e+00	0	28	0	1110441984	73	4428
2026-01-05 03:10:10.75	272.95	14.42	-53.5	-55.4	14.3	0.00e+00	0	28	0	1112539136	73	4440
2026-01-05 03:10:11.76	272.83	14.33	-53.5	-55.5	14.3	0.00e+00	0	28	0	1113587712	73	4463
2026-01-05 03:10:12.75	272.72	14.25	-53.6	-55.6	14.2	0.00e+00	0	28	0	1115684864	73	4518
2026-01-05 03:10:13.75	272.61	14.16	-53.7	-55.7	14.2	0.00e+00	0	28	0	1117782016	73	4581
2026-01-05 03:10:14.75	272.50	14.07	-53.7	-55.8	14.1	0.00e+00	0	28	0	1119879168	73	4600
2026-01-05 03:10:15.75	272.38	13.99	-53.7	-55.8	14.1	0.00e+00	0	28	0	1121976320	73	4628
2026-01-05 03:10:16.75	272.27	13.90	-53.8	-55.9	14.1	0.00e+00	0	28	0	1123024896	73	4664
2026-01-05 03:10:17.75	272.16	13.82	-53.8	-56.0	14.0	0.00e+00	0	28	0	1125122048	73	4708
2026-01-05 03:10:18.75	272.05	13.73	-53.8	-55.9	14.1	0.00e+00	0	28	0	1127219200	73	4664
2026-01-05 03:10:19.75	271.95	13.65	-53.8	-55.9	14.0	0.00e+00	0	28	0	1129316352	73	4685
2026-01-05 03:10:20.75	271.84	13.56	-53.8	-55.9	14.1	0.00e+00	0	28	0	1131413504	73	4666
2026-01-05 03:10:21.74	271.73	13.48	-53.7	-55.8	14.1	0.00e+00	0	28	0	1132462080	73	4603
2026-01-05 03:10:22.74	271.63	13.39	-53.7	-55.8	14.1	0.00e+00	0	28	0	1134559232	73	4645
2026-01-05 03:10:23.74	271.52	13.31	-53.7	-55.8	14.1	0.00e+00	0	28	0	1136656384	73	4618
2026-01-05 03:10:24.74	271.41	13.22	-53.8	-55.9	14.0	0.00e+00	0	28	0	1138753536	73	4675
2026-01-05 03:10:25.74	271.31	13.14	-53.8	-56.0	14.0	0.00e+00	0	28	0	1140850688	73	4708
2026-01-05 03:10:26.72	271.21	13.06	-53.8	-55.9	14.0	0.00e+00	0	28	0	1141899264	73	4672
2026-01-05 03:10:27.72	271.10	12.97	-53.8	-56.0	14.0	0.00e+00	0	28	0	1143996416	73	4724
2026-01-05 03:10:28.71	271.00	12.89	-53.9	-56.1	14.0	0.00e+00	0	28	0	1146093568	73	4773
2026-01-05 03:10:29.71	270.90	12.81	-53.9	-56.1	13.8	0.00e+00	0	28	0	1148190720	73	4801
2026-01-05 03:10:30.72	270.80	12.72	-53.9	-56.1	13.9	0.00e+00	0	28	0	1149239296	73	4807
2026-01-05 03:10:31.72	270.70	12.64	-53.9	-56.1	13.9	0.00e+00	0	28	0	1151336448	73	4813
2026-01-05 03:10:32.72	270.60	12.55	-54.0	-56.2	13.9	0.00e+00	0	28	0	1153433600	73	4868
2026-01-05 03:10:33.72	270.50	12.47	-54.0	-56.2	13.9	0.00e+00	0	28	0	1155530752	73	4835
2026-01-05 03:10:34.71	270.40	12.39	-53.9	-56.1	13.9	0.00e+00	0	28	0	1157627904	73	4813
2026-01-05 03:10:35.70	270.30	12.31	-54.0	-56.2	13.9	0.00e+00	0	28	0	1158676480	73	4851
2026-01-05 03:10:36.70	270.20	12.23	-54.0	-56.2	13.8	0.00e+00	0	28	0	1160773632	73	4847
2026-01-05 03:10:37.70	270.10	12.14	-53.9	-56.2	13.9	0.00e+00	0	28	0	1162870784	73	4827
2026-01-05 03:10:38.70	270.01	12.06	-53.9	-56.2	13.9	0.00e+00	0	28	0	1164967936	73	4819
2026-01-05 03:10:39.70	269.91	11.98	-54.1	-56.3	13.8	0.00e+00	0	28	0	1166016512	73	4909
2026-01-05 03:10:40.70	269.81	11.90	-54.1	-56.4	13.8	0.00e+00	0	28	0	1168113664	73	4944
2026-01-05 03:10:41.70	269.72	11.82	-54.1	-56.3	13.8	0.00e+00	0	28	0	1170210816	73	4923
2026-01-05 03:10:42.70	269.62	11.74	-54.2	-56.6	13.7	0.00e+00	0	28	0	1172307968	73	5061
2026-01-05 03:10:43.70	269.53	11.66	-54.2	-56.5	13.7	0.00e+00	0	28	0	1174405120	73	5008
2026-01-05 03:10:44.69	269.44	11.58	-54.2	-56.6	13.7	0.00e+00	0	28	0	1175453696	73	5056
2026-01-05 03:10:45.70	269.34	11.50	-54.2	-56.5	13.7	0.00e+00	0	28	0	1177550848	73	5027
2026-01-05 03:10:46.69	269.25	11.42	-54.2	-56.5	13.7	0.00e+00	0	28	0	1179648000	73	5041
2026-01-05 03:10:47.70	269.16	11.34	-54.2	-56.5	13.7	0.00e+00	0	28	0	1181745152	73	5016
2026-01-05 03:10:48.69	269.07	11.26	-54.1	-56.5	13.7	0.00e+00	0	28	0	1183842304	73	5001
2026-01-05 03:10:49.70	268.97	11.18	-54.1	-56.4	13.7	0.00e+00	0	28	0	1184890880	73	4978
2026-01-05 03:10:50.70	268.88	11.10	-54.0	-56.3	13.8	0.00e+00	0	28	0	1186988032	73	4906
2026-01-05 03:10:51.69	268.79	11.02	-54.0	-56.4	13.7	0.00e+00	0	28	0	1189085184	73	4936
2026-01-05 03:10:52.69	268.70	10.94	-54.2	-56.6	13.6	0.00e+00	0	28	0	1191182336	73	5048
2026-01-05 03:10:53.69	268.61	10.86	-54.4	-56.9	13.4	0.00e+00	0	28	0	1192230912	73	5238
2026-01-05 03:10:54.68	268.53	10.78	-54.5	-57.1	13.4	0.00e+00	0	28	0	1194328064	74	5084
2026-01-05 03:10:55.69	268.44	10.70	-54.6	-57.3	13.3	0.00e+00	0	28	0	1196425216	74	5176
2026-01-05 03:10:56.68	268.35	10.63	-54.7	-57.5	13.1	0.00e+00	0	28	0	1198522368	74	5305
2026-01-05 03:10:57.68	268.26	10.55	-54.8	-57.7	13.0	0.00e+00	0	28	0	1200619520	74	5420
2026-01-05 03:10:58.67	268.18	10.47	-54.9	-57.9	13.0	0.00e+00	0	28	0	1201668096	75	5221
2026-01-05 03:10:59.68	268.09	10.39	-55.0	-57.9	12.9	0.00e+00	0	28	0	1203765248	75	5250
2026-01-05 03:11:00.68	268.00	10.31	-55.1	-58.1	12.8	0.00e+00	0	28	0	1205862400	75	5369
2026-01-05 03:11:01.68	267.92	10.24	-55.1	-58.2	12.8	0.00e+00	0	28	0	1207959552	75	5418
2026-01-05 03:11:02.68	267.83	10.16	-55.1	-58.2	12.8	0.00e+00	0	28	0	1209008128	75	5405
2026-01-05 03:11:03.68	267.75	10.08	-55.2	-58.3	12.7	0.00e+00	0	28	0	1211105280	75	5522
2026-01-05 03:11:04.68	267.66	10.00	-55.2	-58.4	12.6	0.00e+00	0	28	0	1213202432	75	5559
2026-01-05 03:11:05.68	267.58	9.93	-55.2	-58.4	12.6	0.00e+00	0	28	0	1215299584	75	5579
2026-01-05 03:11:06.68	267.50	9.85	-55.4	-58.7	12.4	0.00e+00	0	28	0	1217396736	75	5731
