passes_logs/2026/01/05/R3.2S_Murmansk/R3.2S_Murmansk__20260105_055736_SUOMI_NPP_rec.log

#Pass ID: 20260105_055736_SUOMI NPP
#Satellite: SUOMI NPP
#Configuration: NPP
#almurnet v.1.7.20251203
#Start time: 2026-01-05 05:57:38

#Version: 2.2.20231116
#Station: R3.2S_Murmansk
#Location: 33.079688 lon 68.888172 lat
#TLE: 1 37849U 11061A   26003.96724563  .00000164  00000+0  98899-4 0  9990
#TLE: 2 37849  98.7800 306.1116 0002573  82.3190 277.8279 14.19522066735141

#Time	Az	El	Level	Level2	SNR	BER	BlckErr	Temp	State	Recorded	gain1	gain2
2026-01-05 05:57:38.26	73.79	2.12	-58.1	-74.1	3.8	1.49e+00	0	26	0	0	82	22709
2026-01-05 05:57:39.26	73.72	2.18	-58.1	-74.1	3.8	1.49e+00	0	26	104	0	81	23945
2026-01-05 05:57:40.25	73.66	2.23	-58.1	-74.1	3.8	1.49e+00	0	26	104	0	81	23974
2026-01-05 05:57:41.25	73.60	2.29	-58.1	-74.1	3.8	1.49e+00	0	26	104	0	81	23934
2026-01-05 05:57:42.24	73.54	2.35	-58.1	-74.1	3.8	1.49e+00	0	26	104	0	81	23928
2026-01-05 05:57:43.22	73.47	2.40	-58.1	-74.1	3.8	1.49e+00	0	26	104	0	81	23981
2026-01-05 05:57:44.22	73.41	2.46	-58.1	-74.1	3.8	1.49e+00	0	26	104	0	81	23940
2026-01-05 05:57:45.21	73.35	2.52	-58.1	-74.1	3.8	1.49e+00	0	26	104	0	81	23899
2026-01-05 05:57:46.21	73.28	2.58	-58.1	-74.1	3.8	1.49e+00	0	26	104	0	81	23922
2026-01-05 05:57:47.20	73.22	2.63	-58.1	-74.1	3.8	1.49e+00	0	26	104	0	81	23878
2026-01-05 05:57:48.19	73.16	2.69	-58.1	-74.0	3.8	1.49e+00	0	26	104	0	81	23733
2026-01-05 05:57:49.18	73.09	2.75	-58.1	-74.0	3.8	1.49e+00	0	26	104	0	81	23836
2026-01-05 05:57:50.17	73.03	2.81	-58.1	-74.0	3.8	1.49e+00	0	26	104	0	81	23782
2026-01-05 05:57:51.16	72.96	2.86	-58.1	-74.0	3.8	1.49e+00	0	26	104	0	81	23772
2026-01-05 05:57:52.15	72.90	2.92	-58.1	-74.0	3.8	1.49e+00	0	26	104	0	81	23770
2026-01-05 05:57:53.14	72.83	2.98	-58.1	-74.0	3.8	1.49e+00	0	26	104	0	81	23720
2026-01-05 05:57:54.13	72.77	3.04	-58.1	-74.0	3.8	1.49e+00	0	27	104	0	81	23801
2026-01-05 05:57:55.13	72.70	3.10	-58.1	-74.0	3.8	1.49e+00	0	26	104	0	81	23761
2026-01-05 05:57:56.12	72.63	3.16	-58.1	-74.0	3.8	1.49e+00	0	27	104	0	81	23808
2026-01-05 05:57:57.11	72.57	3.21	-58.1	-74.1	3.8	1.49e+00	0	26	104	0	81	23857
2026-01-05 05:57:58.10	72.50	3.27	-58.1	-74.1	3.8	1.49e+00	0	26	104	0	81	23872
2026-01-05 05:57:59.10	72.43	3.33	-58.1	-74.1	3.8	1.49e+00	0	27	104	0	81	23874
2026-01-05 05:58:00.08	72.37	3.39	-58.1	-74.1	3.8	1.49e+00	0	27	104	0	81	23862
2026-01-05 05:58:01.08	72.30	3.45	-58.1	-74.1	3.8	1.49e+00	0	27	104	0	81	23929
2026-01-05 05:58:02.07	72.23	3.51	-58.1	-74.0	3.8	1.49e+00	0	27	104	0	81	23849
2026-01-05 05:58:03.05	72.16	3.57	-58.1	-74.0	3.8	1.49e+00	0	26	104	0	81	23822
2026-01-05 05:58:04.05	72.09	3.63	-58.1	-74.0	3.8	1.49e+00	0	27	104	0	81	23743
2026-01-05 05:58:05.05	72.03	3.68	-58.1	-74.0	3.8	1.49e+00	0	26	104	0	81	23780
2026-01-05 05:58:06.05	71.96	3.74	-58.1	-74.0	3.8	1.49e+00	0	27	104	0	81	23824
2026-01-05 05:58:07.05	71.89	3.80	-58.1	-74.0	3.8	1.49e+00	0	27	104	0	81	23833
2026-01-05 05:58:08.05	71.82	3.86	-58.1	-74.0	3.8	1.49e+00	0	27	104	0	81	23808
2026-01-05 05:58:09.05	71.74	3.92	-58.1	-74.0	3.8	1.49e+00	0	27	104	0	81	23714
2026-01-05 05:58:10.05	71.67	3.98	-58.1	-73.9	3.8	1.49e+00	0	27	104	0	81	23552
2026-01-05 05:58:11.05	71.60	4.04	-58.1	-73.9	3.8	1.49e+00	0	27	104	0	81	23425
2026-01-05 05:58:12.05	71.53	4.10	-58.1	-73.8	3.8	1.49e+00	0	27	104	0	81	23137
2026-01-05 05:58:13.05	71.46	4.16	-58.0	-73.8	3.8	1.49e+00	0	27	104	0	81	23066
2026-01-05 05:58:14.05	71.39	4.23	-58.0	-73.7	3.8	1.49e+00	0	27	104	0	81	23041
2026-01-05 05:58:15.05	71.32	4.29	-58.0	-73.9	3.8	1.49e+00	0	27	104	0	81	23461
2026-01-05 05:58:16.05	71.24	4.35	-58.1	-74.0	3.8	1.49e+00	0	27	104	0	81	23664
2026-01-05 05:58:17.05	71.17	4.41	-58.1	-74.0	3.8	1.49e+00	0	27	104	0	81	23717
2026-01-05 05:58:18.05	71.10	4.47	-58.1	-73.9	3.8	1.49e+00	0	27	104	0	81	23540
2026-01-05 05:58:19.06	71.02	4.53	-58.0	-73.7	3.8	1.49e+00	0	27	104	0	81	22797
2026-01-05 05:58:20.05	70.95	4.59	-58.0	-73.1	3.8	1.49e+00	0	27	104	0	81	21462
2026-01-05 05:58:21.05	70.87	4.65	-58.0	-72.4	3.8	1.49e+00	0	27	104	0	81	19826
2026-01-05 05:58:22.05	70.80	4.71	-58.0	-71.8	3.8	1.49e+00	0	27	104	0	81	18351
2026-01-05 05:58:23.05	70.72	4.77	-57.9	-70.9	4.1	1.46e+00	0	27	0	0	81	16600
2026-01-05 05:58:24.05	70.65	4.83	-57.9	-70.2	4.3	1.37e+00	0	27	0	0	81	15328
2026-01-05 05:58:25.05	70.57	4.90	-57.8	-69.2	4.6	1.22e+00	0	27	0	1048576	81	13672
2026-01-05 05:58:26.05	70.50	4.96	-57.7	-68.5	4.9	7.49e-01	0	27	0	3145728	81	12559
2026-01-05 05:58:27.04	70.42	5.02	-57.6	-68.1	5.1	6.21e-01	0	27	0	4194304	81	11974
2026-01-05 05:58:28.04	70.35	5.08	-57.7	-67.0	5.9	3.33e-01	0	27	0	6291456	81	10576
2026-01-05 05:58:29.04	70.27	5.14	-58.0	-71.1	4.1	7.50e-01	0	27	0	7340032	81	16994
2026-01-05 05:58:30.04	70.19	5.20	-57.6	-67.9	5.2	5.07e-01	0	27	0	9437184	81	11785
2026-01-05 05:58:31.04	70.11	5.27	-56.4	-62.1	9.7	4.18e-02	0	27	0	11534336	79	6728
2026-01-05 05:58:32.04	70.04	5.33	-58.0	-73.7	3.8	5.45e-01	0	27	104	12582912	81	22928
2026-01-05 05:58:33.05	69.96	5.39	-56.6	-62.5	9.4	5.87e-02	0	27	0	12582912	79	7085
2026-01-05 05:58:34.05	69.88	5.45	-56.5	-62.2	9.8	4.78e-03	0	27	0	14680064	79	6823
2026-01-05 05:58:35.05	69.80	5.52	-56.5	-62.2	9.7	1.67e-03	0	27	0	16777216	79	6865
2026-01-05 05:58:36.04	69.72	5.58	-56.1	-61.3	10.4	1.42e-03	0	27	0	17825792	78	6502
2026-01-05 05:58:37.04	69.64	5.64	-55.8	-60.5	11.0	2.10e-04	0	27	0	19922944	78	5941
2026-01-05 05:58:38.03	69.56	5.70	-55.7	-60.1	11.3	8.16e-05	0	27	0	22020096	78	5711
2026-01-05 05:58:39.03	69.48	5.76	-55.4	-59.5	11.7	1.52e-05	0	27	0	24117248	77	5613
2026-01-05 05:58:40.02	69.40	5.83	-55.2	-59.2	11.9	3.00e-06	0	27	0	26214400	77	5425
2026-01-05 05:58:41.02	69.32	5.89	-54.5	-58.0	12.6	0.00e+00	0	27	0	27262976	75	5310
2026-01-05 05:58:42.02	69.24	5.95	-54.5	-58.0	12.5	0.00e+00	0	27	0	29360128	75	5288
2026-01-05 05:58:43.01	69.16	6.02	-54.5	-57.9	12.6	0.00e+00	0	27	0	31457280	75	5259
2026-01-05 05:58:44.01	69.08	6.08	-54.3	-57.6	12.9	0.00e+00	0	27	0	33554432	75	5066
2026-01-05 05:58:45.01	68.99	6.14	-54.3	-57.5	12.8	0.00e+00	0	27	0	34603008	75	5038
2026-01-05 05:58:46.01	68.91	6.21	-54.4	-57.8	12.7	0.00e+00	0	27	0	36700160	75	5173
2026-01-05 05:58:47.01	68.83	6.27	-54.4	-57.7	12.8	0.00e+00	0	27	0	38797312	75	5151
2026-01-05 05:58:48.01	68.74	6.33	-54.3	-57.6	12.8	0.00e+00	0	27	0	40894464	75	5087
2026-01-05 05:58:49.01	68.66	6.40	-54.2	-57.3	12.9	0.00e+00	0	27	0	42991616	74	5208
2026-01-05 05:58:50.00	68.58	6.46	-54.2	-57.3	12.9	0.00e+00	0	27	0	44040192	74	5195
2026-01-05 05:58:50.99	68.49	6.52	-54.1	-57.1	13.1	0.00e+00	0	27	0	46137344	74	5079
2026-01-05 05:58:51.99	68.41	6.59	-54.1	-57.2	13.1	0.00e+00	0	27	0	48234496	74	5114
2026-01-05 05:58:52.99	68.32	6.65	-54.1	-57.1	13.1	0.00e+00	0	27	0	50331648	74	5097
2026-01-05 05:58:53.98	68.23	6.71	-54.1	-57.1	13.1	0.00e+00	0	27	0	52428800	74	5095
2026-01-05 05:58:54.98	68.15	6.78	-53.9	-56.8	13.2	0.00e+00	0	27	0	53477376	74	4902
2026-01-05 05:58:55.98	68.06	6.84	-54.0	-57.1	13.1	0.00e+00	0	27	0	55574528	74	5091
2026-01-05 05:58:56.97	67.98	6.91	-53.9	-56.9	13.2	0.00e+00	0	27	0	57671680	74	4934
2026-01-05 05:58:57.98	67.89	6.97	-54.1	-57.2	13.0	0.00e+00	0	27	0	59768832	74	5107
2026-01-05 05:58:58.97	67.80	7.04	-54.2	-57.4	12.9	0.00e+00	0	27	0	61865984	74	5241
2026-01-05 05:58:59.97	67.71	7.10	-54.3	-57.6	12.7	0.00e+00	0	27	0	62914560	74	5359
2026-01-05 05:59:00.97	67.62	7.17	-54.3	-57.6	12.8	0.00e+00	0	27	0	65011712	74	5389
2026-01-05 05:59:01.97	67.53	7.23	-54.3	-57.5	12.8	0.00e+00	0	27	0	67108864	74	5337
2026-01-05 05:59:02.97	67.44	7.30	-54.2	-57.5	12.8	0.00e+00	0	27	0	69206016	74	5320
2026-01-05 05:59:03.97	67.35	7.36	-54.3	-57.6	12.8	0.00e+00	0	27	0	70254592	74	5355
2026-01-05 05:59:04.97	67.26	7.43	-54.2	-57.5	12.9	0.00e+00	0	27	0	72351744	74	5282
2026-01-05 05:59:05.97	67.17	7.49	-54.1	-57.4	12.9	0.00e+00	0	27	0	74448896	74	5231
2026-01-05 05:59:06.97	67.08	7.56	-54.1	-57.3	13.0	0.00e+00	0	27	0	76546048	74	5196
2026-01-05 05:59:07.96	66.99	7.62	-54.1	-57.2	13.0	0.00e+00	0	27	0	78643200	74	5158
2026-01-05 05:59:08.96	66.90	7.69	-54.1	-57.3	13.0	0.00e+00	0	27	0	79691776	74	5170
2026-01-05 05:59:09.96	66.80	7.75	-54.2	-57.4	12.9	0.00e+00	0	27	0	81788928	74	5274
2026-01-05 05:59:10.96	66.71	7.82	-54.1	-57.3	13.0	0.00e+00	0	27	0	83886080	74	5207
2026-01-05 05:59:11.95	66.62	7.89	-54.1	-57.4	12.9	0.00e+00	0	27	0	85983232	74	5272
2026-01-05 05:59:12.94	66.53	7.95	-54.0	-57.2	13.0	0.00e+00	0	27	0	87031808	74	5145
2026-01-05 05:59:13.94	66.43	8.02	-54.1	-57.3	13.0	0.00e+00	0	27	0	89128960	74	5191
2026-01-05 05:59:14.94	66.34	8.08	-54.0	-57.2	13.1	0.00e+00	0	27	0	91226112	74	5155
2026-01-05 05:59:15.94	66.24	8.15	-53.9	-57.0	13.2	0.00e+00	0	27	0	93323264	74	5029
2026-01-05 05:59:16.93	66.15	8.21	-54.0	-57.1	13.1	0.00e+00	0	27	0	95420416	74	5058
2026-01-05 05:59:17.93	66.05	8.28	-53.8	-56.8	13.3	0.00e+00	0	27	0	96468992	74	4900
2026-01-05 05:59:18.93	65.95	8.35	-53.5	-56.4	13.4	0.00e+00	0	27	0	98566144	73	4931
2026-01-05 05:59:19.93	65.86	8.41	-53.5	-56.4	13.5	0.00e+00	0	27	0	100663296	73	4932
2026-01-05 05:59:20.93	65.76	8.48	-53.4	-56.3	13.5	0.00e+00	0	27	0	102760448	73	4896
2026-01-05 05:59:21.93	65.66	8.55	-53.6	-56.5	13.4	0.00e+00	0	27	0	104857600	73	4994
2026-01-05 05:59:22.92	65.56	8.61	-53.5	-56.5	13.5	0.00e+00	0	27	0	105906176	73	4986
2026-01-05 05:59:23.92	65.46	8.68	-53.5	-56.4	13.5	0.00e+00	0	27	0	108003328	73	4931
2026-01-05 05:59:24.92	65.36	8.75	-53.5	-56.4	13.4	0.00e+00	0	27	0	110100480	73	4968
2026-01-05 05:59:25.91	65.27	8.82	-53.4	-56.2	13.5	0.00e+00	0	27	0	112197632	73	4866
2026-01-05 05:59:26.92	65.16	8.88	-53.4	-56.2	13.5	0.00e+00	0	27	0	113246208	73	4857
2026-01-05 05:59:27.92	65.06	8.95	-53.5	-56.4	13.5	0.00e+00	0	27	0	115343360	73	4980
2026-01-05 05:59:28.91	64.96	9.02	-53.5	-56.4	13.5	0.00e+00	0	27	0	117440512	73	4927
2026-01-05 05:59:29.91	64.86	9.09	-53.4	-56.2	13.6	0.00e+00	0	27	0	119537664	73	4849
2026-01-05 05:59:30.91	64.76	9.15	-53.4	-56.2	13.5	0.00e+00	0	27	0	121634816	73	4862
2026-01-05 05:59:31.91	64.66	9.22	-53.4	-56.2	13.6	0.00e+00	0	27	0	122683392	73	4826
2026-01-05 05:59:32.91	64.55	9.29	-53.5	-56.3	13.6	0.00e+00	0	27	0	124780544	73	4897
2026-01-05 05:59:33.91	64.45	9.36	-53.4	-56.1	13.7	0.00e+00	0	27	0	126877696	73	4796
2026-01-05 05:59:34.91	64.35	9.43	-53.4	-56.2	13.6	0.00e+00	0	27	0	128974848	73	4823
2026-01-05 05:59:35.90	64.24	9.49	-53.4	-56.2	13.6	0.00e+00	0	27	0	130023424	73	4836
2026-01-05 05:59:36.90	64.14	9.56	-53.4	-56.1	13.6	0.00e+00	0	27	0	132120576	73	4804
2026-01-05 05:59:37.90	64.03	9.63	-53.4	-56.1	13.7	0.00e+00	0	27	0	134217728	73	4779
2026-01-05 05:59:38.90	63.92	9.70	-53.6	-56.4	13.5	0.00e+00	0	27	0	136314880	73	4947
2026-01-05 05:59:39.90	63.82	9.77	-53.5	-56.2	13.6	0.00e+00	0	27	0	138412032	73	4860
2026-01-05 05:59:40.89	63.71	9.84	-53.6	-56.4	13.5	0.00e+00	0	27	0	139460608	73	4930
2026-01-05 05:59:41.89	63.60	9.90	-53.5	-56.3	13.6	0.00e+00	0	27	0	141557760	73	4879
2026-01-05 05:59:42.89	63.49	9.97	-53.5	-56.2	13.6	0.00e+00	0	27	0	143654912	73	4834
2026-01-05 05:59:43.88	63.39	10.04	-53.5	-56.2	13.6	0.00e+00	0	27	0	145752064	73	4832
2026-01-05 05:59:44.87	63.28	10.11	-53.5	-56.2	13.6	0.00e+00	0	27	0	147849216	73	4861
2026-01-05 05:59:45.88	63.17	10.18	-53.6	-56.3	13.5	0.00e+00	0	27	0	148897792	73	4917
2026-01-05 05:59:46.87	63.06	10.25	-53.6	-56.4	13.5	0.00e+00	0	27	0	150994944	73	4927
2026-01-05 05:59:47.87	62.95	10.32	-53.5	-56.2	13.6	0.00e+00	0	27	0	153092096	73	4868
2026-01-05 05:59:48.87	62.84	10.39	-53.8	-56.6	13.5	0.00e+00	0	27	0	155189248	73	5080
2026-01-05 05:59:49.87	62.72	10.46	-53.6	-56.4	13.5	0.00e+00	0	28	0	157286400	73	4964
2026-01-05 05:59:50.87	62.61	10.53	-53.7	-56.5	13.4	0.00e+00	0	27	0	158334976	73	5035
2026-01-05 05:59:51.86	62.50	10.60	-53.8	-56.6	13.4	0.00e+00	0	27	0	160432128	73	5086
2026-01-05 05:59:52.86	62.38	10.67	-53.6	-56.4	13.5	0.00e+00	0	27	0	162529280	73	4946
2026-01-05 05:59:53.85	62.27	10.73	-53.6	-56.4	13.6	0.00e+00	0	27	0	164626432	73	4930
2026-01-05 05:59:54.84	62.16	10.80	-53.6	-56.3	13.6	0.00e+00	0	27	0	165675008	73	4884
2026-01-05 05:59:55.84	62.04	10.87	-53.6	-56.4	13.5	0.00e+00	0	27	0	167772160	73	4933
2026-01-05 05:59:56.83	61.93	10.94	-53.6	-56.4	13.6	0.00e+00	0	27	0	169869312	73	4958
2026-01-05 05:59:57.84	61.81	11.01	-53.7	-56.5	13.5	0.00e+00	0	27	0	171966464	73	5012
2026-01-05 05:59:58.83	61.69	11.08	-53.7	-56.5	13.5	0.00e+00	0	27	0	174063616	73	4989
2026-01-05 05:59:59.83	61.58	11.15	-53.7	-56.5	13.5	0.00e+00	0	27	0	175112192	73	5034
2026-01-05 06:00:00.82	61.46	11.22	-53.6	-56.4	13.5	0.00e+00	0	27	0	177209344	73	4970
2026-01-05 06:00:01.83	61.34	11.30	-53.6	-56.3	13.6	0.00e+00	0	27	0	179306496	73	4911
2026-01-05 06:00:02.82	61.22	11.36	-53.6	-56.3	13.6	0.00e+00	0	27	0	181403648	73	4893
2026-01-05 06:00:03.83	61.10	11.44	-53.5	-56.3	13.6	0.00e+00	0	27	0	182452224	73	4871
2026-01-05 06:00:04.83	60.98	11.51	-53.5	-56.2	13.7	0.00e+00	0	27	0	184549376	73	4827
2026-01-05 06:00:05.83	60.86	11.58	-53.4	-56.0	13.8	0.00e+00	0	27	0	186646528	73	4710
2026-01-05 06:00:06.82	60.74	11.65	-53.5	-56.2	13.6	0.00e+00	0	27	0	188743680	73	4820
2026-01-05 06:00:07.82	60.61	11.72	-53.3	-56.0	13.8	0.00e+00	0	27	0	190840832	73	4708
2026-01-05 06:00:08.82	60.49	11.79	-53.2	-55.7	13.9	0.00e+00	0	27	0	191889408	73	4589
2026-01-05 06:00:09.81	60.37	11.86	-53.1	-55.7	13.8	0.00e+00	0	27	0	193986560	72	4815
2026-01-05 06:00:10.81	60.24	11.93	-53.0	-55.5	14.0	0.00e+00	0	27	0	196083712	72	4723
2026-01-05 06:00:11.81	60.12	12.00	-52.8	-55.2	14.0	0.00e+00	0	27	0	198180864	72	4584
2026-01-05 06:00:12.80	59.99	12.07	-52.9	-55.3	14.0	0.00e+00	0	27	0	199229440	72	4610
2026-01-05 06:00:13.80	59.87	12.15	-52.9	-55.3	14.0	0.00e+00	0	27	0	201326592	72	4624
2026-01-05 06:00:14.79	59.74	12.22	-52.9	-55.3	14.0	0.00e+00	0	27	0	203423744	72	4620
2026-01-05 06:00:15.79	59.62	12.29	-52.8	-55.2	14.0	0.00e+00	0	27	0	205520896	71	4852
2026-01-05 06:00:16.78	59.49	12.36	-52.8	-55.2	14.0	0.00e+00	0	27	0	207618048	71	4826
2026-01-05 06:00:17.77	59.36	12.43	-52.8	-55.2	14.0	0.00e+00	0	27	0	208666624	71	4818
2026-01-05 06:00:18.76	59.23	12.50	-52.8	-55.2	14.0	0.00e+00	0	27	0	210763776	71	4850
2026-01-05 06:00:19.76	59.10	12.57	-52.9	-55.3	13.9	0.00e+00	0	27	0	212860928	71	4888
2026-01-05 06:00:20.76	58.97	12.64	-52.8	-55.3	14.0	0.00e+00	0	27	0	214958080	71	4877
2026-01-05 06:00:21.76	58.84	12.72	-53.0	-55.4	13.9	0.00e+00	0	27	0	217055232	71	4938
2026-01-05 06:00:22.76	58.71	12.79	-52.8	-55.1	14.0	0.00e+00	0	27	0	218103808	71	4807
2026-01-05 06:00:23.76	58.58	12.86	-52.8	-55.2	14.0	0.00e+00	0	27	0	220200960	71	4824
2026-01-05 06:00:24.76	58.44	12.93	-52.8	-55.1	14.0	0.00e+00	0	27	0	222298112	71	4800
2026-01-05 06:00:25.77	58.31	13.01	-52.8	-55.2	14.0	0.00e+00	0	28	0	224395264	71	4848
2026-01-05 06:00:26.76	58.18	13.08	-52.7	-55.0	14.1	0.00e+00	0	27	0	226492416	71	4720
2026-01-05 06:00:27.76	58.04	13.15	-52.6	-54.9	14.1	0.00e+00	0	27	0	227540992	71	4683
2026-01-05 06:00:28.76	57.90	13.22	-52.7	-55.0	14.1	0.00e+00	0	27	0	229638144	71	4755
2026-01-05 06:00:29.76	57.77	13.29	-52.6	-54.9	14.1	0.00e+00	0	27	0	231735296	71	4699
2026-01-05 06:00:30.76	57.63	13.37	-52.6	-54.9	14.1	0.00e+00	0	27	0	233832448	71	4662
2026-01-05 06:00:31.75	57.49	13.44	-52.7	-55.0	14.0	0.00e+00	0	27	0	234881024	71	4754
2026-01-05 06:00:32.75	57.35	13.51	-52.7	-55.0	14.1	0.00e+00	0	27	0	236978176	71	4717
2026-01-05 06:00:33.75	57.22	13.58	-52.6	-54.9	14.1	0.00e+00	0	28	0	239075328	71	4682
2026-01-05 06:00:34.75	57.08	13.66	-52.6	-54.9	14.1	0.00e+00	0	27	0	241172480	71	4672
2026-01-05 06:00:35.74	56.94	13.73	-52.6	-55.0	14.1	0.00e+00	0	27	0	243269632	71	4717
2026-01-05 06:00:36.73	56.80	13.80	-52.8	-55.2	14.0	0.00e+00	0	27	0	244318208	71	4849
2026-01-05 06:00:37.73	56.65	13.87	-52.5	-54.9	14.1	0.00e+00	0	27	0	246415360	71	4669
2026-01-05 06:00:38.73	56.51	13.95	-52.5	-54.9	14.1	0.00e+00	0	28	0	248512512	71	4673
2026-01-05 06:00:39.73	56.37	14.02	-52.6	-54.9	14.1	0.00e+00	0	27	0	250609664	71	4687
2026-01-05 06:00:40.73	56.22	14.09	-52.5	-54.8	14.1	0.00e+00	0	27	0	251658240	71	4631
2026-01-05 06:00:41.72	56.08	14.16	-52.5	-54.9	14.1	0.00e+00	0	27	0	253755392	71	4697
2026-01-05 06:00:42.72	55.93	14.24	-52.6	-55.0	14.1	0.00e+00	0	27	0	255852544	71	4714
2026-01-05 06:00:43.71	55.79	14.31	-52.6	-55.1	14.0	0.00e+00	0	27	0	257949696	71	4799
2026-01-05 06:00:44.70	55.64	14.38	-52.6	-55.0	14.1	0.00e+00	0	27	0	260046848	71	4740
2026-01-05 06:00:45.69	55.50	14.45	-52.5	-55.0	14.1	0.00e+00	0	27	0	261095424	71	4708
2026-01-05 06:00:46.68	55.35	14.53	-52.7	-55.3	13.9	0.00e+00	0	27	0	263192576	71	4880
2026-01-05 06:00:47.69	55.20	14.60	-52.9	-55.6	13.8	0.00e+00	0	27	0	265289728	71	5048
2026-01-05 06:00:48.68	55.05	14.67	-53.0	-55.7	13.8	0.00e+00	0	27	0	267386880	71	5142
2026-01-05 06:00:49.67	54.90	14.74	-53.0	-55.7	13.7	0.00e+00	0	28	0	268435456	71	5147
2026-01-05 06:00:50.67	54.75	14.82	-53.1	-55.8	13.7	0.00e+00	0	27	0	270532608	71	5195
2026-01-05 06:00:51.66	54.60	14.89	-53.0	-55.8	13.7	0.00e+00	0	27	0	272629760	71	5173
2026-01-05 06:00:52.66	54.44	14.96	-53.0	-55.7	13.7	0.00e+00	0	27	0	274726912	71	5144
2026-01-05 06:00:53.65	54.29	15.04	-52.9	-55.6	13.8	0.00e+00	0	28	0	276824064	71	5050
2026-01-05 06:00:54.65	54.14	15.11	-52.9	-55.5	13.8	0.00e+00	0	28	0	277872640	71	5030
2026-01-05 06:00:55.65	53.98	15.18	-52.9	-55.6	13.8	0.00e+00	0	28	0	279969792	71	5053
2026-01-05 06:00:56.66	53.82	15.26	-52.9	-55.4	13.9	0.00e+00	0	27	0	282066944	71	4961
2026-01-05 06:00:57.65	53.67	15.33	-52.9	-55.5	13.9	0.00e+00	0	28	0	284164096	71	5005
2026-01-05 06:00:58.65	53.51	15.40	-52.9	-55.5	13.9	0.00e+00	0	27	0	285212672	71	4988
2026-01-05 06:00:59.64	53.35	15.47	-52.9	-55.4	13.9	0.00e+00	0	27	0	287309824	71	4959
2026-01-05 06:01:00.64	53.19	15.55	-52.9	-55.5	13.9	0.00e+00	0	27	0	289406976	71	4986
2026-01-05 06:01:01.64	53.03	15.62	-53.0	-55.6	13.8	0.00e+00	0	28	0	291504128	71	5076
2026-01-05 06:01:02.64	52.87	15.69	-53.1	-55.7	13.8	0.00e+00	0	28	0	293601280	71	5136
2026-01-05 06:01:03.63	52.71	15.77	-53.3	-56.1	13.6	0.00e+00	0	28	0	294649856	72	5069
2026-01-05 06:01:04.63	52.55	15.84	-53.4	-56.2	13.6	0.00e+00	0	28	0	296747008	72	5130
2026-01-05 06:01:05.62	52.39	15.91	-53.3	-56.1	13.6	0.00e+00	0	27	0	298844160	72	5081
2026-01-05 06:01:06.61	52.22	15.98	-53.3	-56.1	13.7	0.00e+00	0	27	0	300941312	72	5063
2026-01-05 06:01:07.61	52.06	16.06	-53.1	-55.8	13.8	0.00e+00	0	27	0	301989888	72	4916
2026-01-05 06:01:08.61	51.89	16.13	-53.1	-55.7	13.9	0.00e+00	0	28	0	304087040	72	4863
2026-01-05 06:01:09.61	51.73	16.20	-53.2	-55.9	13.8	0.00e+00	0	28	0	306184192	72	4963
2026-01-05 06:01:10.61	51.56	16.28	-53.1	-55.8	13.8	0.00e+00	0	28	0	308281344	72	4900
2026-01-05 06:01:11.60	51.39	16.35	-53.0	-55.6	13.9	0.00e+00	0	28	0	310378496	72	4785
2026-01-05 06:01:12.60	51.22	16.42	-52.8	-55.4	14.0	0.00e+00	0	27	0	311427072	72	4653
2026-01-05 06:01:13.60	51.05	16.50	-52.8	-55.3	14.0	0.00e+00	0	28	0	313524224	72	4634
2026-01-05 06:01:14.59	50.88	16.57	-52.8	-55.3	14.0	0.00e+00	0	28	0	315621376	72	4646
2026-01-05 06:01:15.60	50.71	16.64	-52.9	-55.4	14.0	0.00e+00	0	28	0	317718528	72	4688
2026-01-05 06:01:16.59	50.54	16.71	-52.9	-55.5	14.0	0.00e+00	0	27	0	319815680	72	4724
2026-01-05 06:01:17.59	50.37	16.79	-52.8	-55.4	14.0	0.00e+00	0	28	0	320864256	72	4681
2026-01-05 06:01:18.60	50.19	16.86	-52.9	-55.5	14.0	0.00e+00	0	28	0	322961408	72	4742
2026-01-05 06:01:19.59	50.02	16.93	-52.7	-55.2	14.1	0.00e+00	0	28	0	325058560	72	4596
2026-01-05 06:01:20.59	49.84	17.00	-52.9	-55.5	14.0	0.00e+00	0	28	0	327155712	72	4724
2026-01-05 06:01:21.59	49.66	17.08	-53.0	-55.5	13.9	0.00e+00	0	28	0	329252864	72	4742
2026-01-05 06:01:22.58	49.49	17.15	-53.1	-55.8	13.8	0.00e+00	0	27	0	330301440	72	4893
2026-01-05 06:01:23.58	49.31	17.22	-53.0	-55.6	13.9	0.00e+00	0	28	0	332398592	72	4792
2026-01-05 06:01:24.58	49.13	17.29	-53.0	-55.6	14.0	0.00e+00	0	27	0	334495744	72	4771
2026-01-05 06:01:25.58	48.95	17.36	-52.8	-55.3	14.1	0.00e+00	0	27	0	336592896	72	4619
2026-01-05 06:01:26.57	48.77	17.44	-52.6	-55.1	14.1	0.00e+00	0	28	0	337641472	71	4777
2026-01-05 06:01:27.57	48.59	17.51	-52.6	-55.0	14.1	0.00e+00	0	27	0	339738624	71	4729
2026-01-05 06:01:28.57	48.41	17.58	-52.9	-55.3	13.9	0.00e+00	0	27	0	341835776	71	4897
2026-01-05 06:01:29.56	48.22	17.65	-53.0	-55.4	13.8	0.00e+00	0	27	0	343932928	71	4976
2026-01-05 06:01:30.56	48.04	17.72	-53.2	-55.8	13.7	0.00e+00	0	28	0	346030080	71	5178
2026-01-05 06:01:31.56	47.85	17.79	-53.3	-55.9	13.6	0.00e+00	0	27	0	347078656	71	5272
2026-01-05 06:01:32.56	47.67	17.87	-53.2	-55.8	13.6	0.00e+00	0	28	0	349175808	71	5203
2026-01-05 06:01:33.55	47.48	17.94	-53.2	-55.8	13.7	0.00e+00	0	28	0	351272960	71	5211
2026-01-05 06:01:34.55	47.29	18.01	-53.0	-55.6	13.8	0.00e+00	0	28	0	353370112	71	5057
2026-01-05 06:01:35.56	47.10	18.08	-53.0	-55.5	13.8	0.00e+00	0	27	0	354418688	71	5007
2026-01-05 06:01:36.56	46.91	18.15	-52.9	-55.4	13.9	0.00e+00	0	28	0	356515840	71	4941
2026-01-05 06:01:37.56	46.72	18.22	-52.8	-55.1	14.0	0.00e+00	0	28	0	358612992	71	4812
2026-01-05 06:01:38.56	46.53	18.29	-52.8	-55.2	14.0	0.00e+00	0	28	0	360710144	71	4829
2026-01-05 06:01:39.55	46.34	18.36	-52.7	-55.0	14.1	0.00e+00	0	27	0	362807296	71	4735
2026-01-05 06:01:40.55	46.15	18.43	-52.6	-54.9	14.1	0.00e+00	0	27	0	363855872	71	4656
2026-01-05 06:01:41.55	45.95	18.50	-52.5	-54.7	14.2	0.00e+00	0	28	0	365953024	71	4563
2026-01-05 06:01:42.55	45.75	18.57	-52.4	-54.6	14.2	0.00e+00	0	27	0	368050176	71	4522
2026-01-05 06:01:43.54	45.56	18.64	-52.6	-54.9	14.1	0.00e+00	0	27	0	370147328	71	4670
2026-01-05 06:01:44.54	45.36	18.71	-52.6	-55.0	14.1	0.00e+00	0	28	0	372244480	71	4740
2026-01-05 06:01:45.53	45.17	18.78	-52.6	-55.0	14.1	0.00e+00	0	27	0	373293056	71	4732
2026-01-05 06:01:46.53	44.97	18.85	-52.4	-54.7	14.2	0.00e+00	0	27	0	375390208	71	4583
2026-01-05 06:01:47.52	44.77	18.92	-52.4	-54.7	14.2	0.00e+00	0	27	0	377487360	71	4585
2026-01-05 06:01:48.52	44.57	18.99	-52.1	-54.4	14.3	0.00e+00	0	28	0	379584512	70	4703
2026-01-05 06:01:49.52	44.37	19.06	-52.0	-54.2	14.3	0.00e+00	0	28	0	380633088	70	4569
2026-01-05 06:01:50.52	44.16	19.13	-52.1	-54.4	14.2	0.00e+00	0	27	0	382730240	70	4665
2026-01-05 06:01:51.52	43.96	19.20	-52.0	-54.2	14.3	0.00e+00	0	28	0	384827392	70	4571
2026-01-05 06:01:52.51	43.76	19.26	-51.9	-54.1	14.4	0.00e+00	0	28	0	386924544	70	4518
2026-01-05 06:01:53.51	43.55	19.33	-51.5	-53.6	14.5	0.00e+00	0	27	0	389021696	69	4515
2026-01-05 06:01:54.51	43.35	19.40	-51.3	-53.2	14.6	0.00e+00	0	28	0	390070272	69	4327
2026-01-05 06:01:55.50	43.14	19.47	-51.4	-53.3	14.6	0.00e+00	0	27	0	392167424	69	4387
2026-01-05 06:01:56.50	42.93	19.54	-51.5	-53.5	14.5	0.00e+00	0	27	0	394264576	69	4470
2026-01-05 06:01:57.49	42.72	19.60	-51.6	-53.7	14.3	0.00e+00	0	27	0	396361728	69	4557
2026-01-05 06:01:58.49	42.51	19.67	-51.5	-53.6	14.5	0.00e+00	0	27	0	397410304	69	4517
2026-01-05 06:01:59.48	42.30	19.74	-51.6	-53.8	14.4	0.00e+00	0	28	0	399507456	69	4599
2026-01-05 06:02:00.48	42.09	19.80	-51.5	-53.6	14.4	0.00e+00	0	27	0	401604608	69	4495
2026-01-05 06:02:01.47	41.88	19.87	-51.5	-53.5	14.5	0.00e+00	0	27	0	403701760	69	4442
2026-01-05 06:02:02.47	41.67	19.94	-51.5	-53.5	14.5	0.00e+00	0	28	0	405798912	69	4486
2026-01-05 06:02:03.48	41.45	20.00	-51.4	-53.4	14.5	0.00e+00	0	27	0	406847488	69	4419
2026-01-05 06:02:04.48	41.23	20.07	-51.4	-53.3	14.5	0.00e+00	0	27	0	408944640	69	4391
2026-01-05 06:02:05.48	41.02	20.13	-51.4	-53.4	14.5	0.00e+00	0	28	0	411041792	69	4440
2026-01-05 06:02:06.48	40.80	20.20	-51.5	-53.5	14.5	0.00e+00	0	27	0	413138944	69	4443
2026-01-05 06:02:07.48	40.58	20.26	-51.4	-53.5	14.5	0.00e+00	0	27	0	415236096	69	4446
2026-01-05 06:02:08.49	40.36	20.33	-51.4	-53.4	14.5	0.00e+00	0	27	0	416284672	69	4426
2026-01-05 06:02:09.49	40.14	20.39	-51.7	-53.8	14.4	0.00e+00	0	28	0	418381824	69	4624
2026-01-05 06:02:10.49	39.92	20.46	-51.7	-53.8	14.4	0.00e+00	0	27	0	420478976	69	4648
2026-01-05 06:02:11.49	39.70	20.52	-51.7	-53.8	14.4	0.00e+00	0	28	0	422576128	69	4643
2026-01-05 06:02:12.48	39.47	20.59	-51.4	-53.4	14.5	0.00e+00	0	28	0	424673280	69	4406
2026-01-05 06:02:13.49	39.25	20.65	-51.1	-53.1	14.6	0.00e+00	0	28	0	425721856	68	4495
2026-01-05 06:02:14.49	39.02	20.71	-51.2	-53.2	14.5	0.00e+00	0	28	0	427819008	68	4569
2026-01-05 06:02:15.48	38.80	20.77	-51.2	-53.1	14.5	0.00e+00	0	28	0	429916160	68	4535
2026-01-05 06:02:16.48	38.57	20.84	-51.1	-53.1	14.5	0.00e+00	0	28	0	432013312	68	4509
2026-01-05 06:02:17.48	38.34	20.90	-51.0	-52.8	14.7	0.00e+00	0	27	0	433061888	68	4377
2026-01-05 06:02:18.47	38.12	20.96	-50.9	-52.8	14.7	0.00e+00	0	28	0	435159040	68	4342
2026-01-05 06:02:19.47	37.89	21.02	-50.5	-52.3	14.7	0.00e+00	0	28	0	437256192	67	4360
2026-01-05 06:02:20.46	37.66	21.08	-50.6	-52.4	14.7	0.00e+00	0	27	0	439353344	67	4398
2026-01-05 06:02:21.46	37.43	21.14	-50.8	-52.6	14.6	0.00e+00	0	28	0	441450496	67	4518
2026-01-05 06:02:22.46	37.19	21.20	-50.7	-52.5	14.6	0.00e+00	0	28	0	442499072	67	4485
2026-01-05 06:02:23.45	36.96	21.26	-50.8	-52.6	14.6	0.00e+00	0	27	0	444596224	67	4519
2026-01-05 06:02:24.46	36.73	21.32	-50.6	-52.4	14.7	0.00e+00	0	28	0	446693376	67	4404
2026-01-05 06:02:25.45	36.49	21.38	-50.7	-52.5	14.7	0.00e+00	0	28	0	448790528	67	4463
2026-01-05 06:02:26.45	36.26	21.44	-50.8	-52.5	14.6	0.00e+00	0	28	0	449839104	67	4492
2026-01-05 06:02:27.45	36.02	21.50	-50.9	-52.6	14.6	0.00e+00	0	27	0	451936256	67	4542
2026-01-05 06:02:28.45	35.78	21.56	-50.9	-52.7	14.6	0.00e+00	0	27	0	454033408	67	4563
2026-01-05 06:02:29.45	35.54	21.61	-50.8	-52.6	14.6	0.00e+00	0	27	0	456130560	67	4496
2026-01-05 06:02:30.45	35.30	21.67	-50.7	-52.5	14.7	0.00e+00	0	28	0	458227712	67	4460
2026-01-05 06:02:31.45	35.06	21.73	-50.7	-52.5	14.7	0.00e+00	0	27	0	459276288	67	4455
2026-01-05 06:02:32.45	34.82	21.78	-50.8	-52.5	14.7	0.00e+00	0	28	0	461373440	67	4484
2026-01-05 06:02:33.45	34.58	21.84	-51.1	-52.9	14.5	0.00e+00	0	28	0	463470592	67	4674
2026-01-05 06:02:34.44	34.34	21.90	-51.1	-53.0	14.4	0.00e+00	0	27	0	465567744	67	4731
2026-01-05 06:02:35.43	34.09	21.95	-50.9	-52.6	14.6	0.00e+00	0	28	0	467664896	67	4542
2026-01-05 06:02:36.43	33.85	22.01	-50.6	-52.4	14.7	0.00e+00	0	28	0	468713472	67	4405
2026-01-05 06:02:37.43	33.60	22.06	-50.5	-52.2	14.8	0.00e+00	0	28	0	470810624	67	4333
2026-01-05 06:02:38.43	33.36	22.11	-50.6	-52.3	14.8	0.00e+00	0	28	0	472907776	67	4346
2026-01-05 06:02:39.43	33.11	22.17	-50.7	-52.4	14.7	0.00e+00	0	27	0	475004928	67	4438
2026-01-05 06:02:40.42	32.86	22.22	-51.0	-52.7	14.6	0.00e+00	0	28	0	476053504	67	4593
2026-01-05 06:02:41.42	32.61	22.27	-50.8	-52.6	14.7	0.00e+00	0	28	0	478150656	67	4503
2026-01-05 06:02:42.42	32.36	22.32	-50.8	-52.5	14.7	0.00e+00	0	28	0	480247808	67	4472
2026-01-05 06:02:43.42	32.11	22.37	-50.6	-52.3	14.7	0.00e+00	0	28	0	482344960	67	4354
2026-01-05 06:02:44.41	31.86	22.43	-50.7	-52.4	14.7	0.00e+00	0	28	0	484442112	67	4418
2026-01-05 06:02:45.41	31.61	22.48	-50.8	-52.5	14.6	0.00e+00	0	27	0	485490688	67	4481
2026-01-05 06:02:46.41	31.36	22.53	-50.8	-52.5	14.7	0.00e+00	0	27	0	487587840	67	4467
2026-01-05 06:02:47.41	31.10	22.58	-50.7	-52.4	14.8	0.00e+00	0	28	0	489684992	67	4401
2026-01-05 06:02:48.41	30.85	22.62	-50.7	-52.3	14.7	0.00e+00	0	27	0	491782144	67	4376
2026-01-05 06:02:49.41	30.59	22.67	-50.8	-52.5	14.7	0.00e+00	0	28	0	493879296	67	4484
2026-01-05 06:02:50.41	30.33	22.72	-51.0	-52.8	14.6	0.00e+00	0	28	0	494927872	67	4634
2026-01-05 06:02:51.41	30.08	22.77	-51.0	-52.7	14.6	0.00e+00	0	27	0	497025024	67	4570
2026-01-05 06:02:52.41	29.82	22.81	-50.9	-52.6	14.7	0.00e+00	0	28	0	499122176	67	4535
2026-01-05 06:02:53.41	29.56	22.86	-50.9	-52.6	14.6	0.00e+00	0	28	0	501219328	67	4520
2026-01-05 06:02:54.41	29.30	22.91	-50.8	-52.5	14.7	0.00e+00	0	27	0	502267904	67	4460
2026-01-05 06:02:55.41	29.04	22.95	-50.8	-52.5	14.6	0.00e+00	0	28	0	504365056	67	4491
2026-01-05 06:02:56.41	28.78	23.00	-51.0	-52.7	14.6	0.00e+00	0	28	0	506462208	67	4583
2026-01-05 06:02:57.41	28.51	23.04	-50.9	-52.6	14.6	0.00e+00	0	28	0	508559360	67	4540
2026-01-05 06:02:58.41	28.25	23.08	-50.8	-52.4	14.7	0.00e+00	0	28	0	510656512	67	4438
2026-01-05 06:02:59.40	27.99	23.13	-50.7	-52.4	14.7	0.00e+00	0	28	0	511705088	67	4396
2026-01-05 06:03:00.40	27.73	23.17	-50.5	-52.1	14.8	0.00e+00	0	27	0	513802240	67	4273
2026-01-05 06:03:01.41	27.46	23.21	-50.2	-51.8	14.8	0.00e+00	0	27	0	515899392	66	4361
2026-01-05 06:03:02.41	27.19	23.25	-50.3	-51.8	14.8	0.00e+00	0	28	0	517996544	66	4369
2026-01-05 06:03:03.41	26.93	23.29	-50.4	-52.0	14.7	0.00e+00	0	28	0	520093696	66	4474
2026-01-05 06:03:04.42	26.66	23.33	-50.7	-52.4	14.6	0.00e+00	0	27	0	521142272	66	4678
2026-01-05 06:03:05.41	26.39	23.37	-51.0	-52.7	14.6	0.00e+00	0	28	0	523239424	67	4577
2026-01-05 06:03:06.42	26.12	23.41	-51.0	-52.7	14.6	0.00e+00	0	27	0	525336576	67	4582
2026-01-05 06:03:07.42	25.85	23.45	-51.0	-52.7	14.6	0.00e+00	0	28	0	527433728	67	4565
2026-01-05 06:03:08.41	25.58	23.49	-51.2	-53.0	14.5	0.00e+00	0	27	0	528482304	67	4710
2026-01-05 06:03:09.40	25.31	23.52	-51.8	-53.6	14.3	0.00e+00	0	27	0	530579456	68	4810
2026-01-05 06:03:10.39	25.05	23.56	-52.3	-54.4	14.2	0.00e+00	0	28	0	532676608	69	4978
2026-01-05 06:03:11.39	24.77	23.59	-52.6	-54.8	14.1	0.00e+00	0	27	0	534773760	70	4905
2026-01-05 06:03:12.38	24.50	23.63	-52.9	-55.2	14.0	0.00e+00	0	27	0	536870912	71	4825
2026-01-05 06:03:13.39	24.23	23.66	-52.7	-54.9	14.2	0.00e+00	0	27	0	537919488	71	4693
2026-01-05 06:03:14.38	23.96	23.70	-52.8	-55.0	14.1	0.00e+00	0	28	0	540016640	71	4732
2026-01-05 06:03:15.38	23.68	23.73	-52.7	-54.9	14.1	0.00e+00	0	28	0	542113792	71	4673
2026-01-05 06:03:16.38	23.41	23.76	-52.6	-54.9	14.2	0.00e+00	0	28	0	544210944	71	4659
2026-01-05 06:03:17.37	23.14	23.79	-52.4	-54.5	14.3	0.00e+00	0	28	0	546308096	71	4455
2026-01-05 06:03:18.37	22.86	23.82	-52.1	-54.1	14.4	0.00e+00	0	28	0	547356672	70	4530
2026-01-05 06:03:19.37	22.58	23.85	-52.1	-54.1	14.4	0.00e+00	0	28	0	549453824	70	4537
2026-01-05 06:03:20.36	22.31	23.88	-51.9	-53.9	14.5	0.00e+00	0	28	0	551550976	70	4428
2026-01-05 06:03:21.35	22.03	23.91	-52.0	-54.1	14.5	0.00e+00	0	28	0	553648128	70	4502
2026-01-05 06:03:22.34	21.76	23.94	-52.1	-54.1	14.4	0.00e+00	0	28	0	554696704	70	4543
2026-01-05 06:03:23.34	21.48	23.97	-52.1	-54.2	14.4	0.00e+00	0	27	0	556793856	70	4568
2026-01-05 06:03:24.34	21.20	23.99	-52.1	-54.2	14.4	0.00e+00	0	27	0	558891008	70	4552
2026-01-05 06:03:25.34	20.92	24.02	-52.1	-54.1	14.4	0.00e+00	0	28	0	560988160	70	4507
2026-01-05 06:03:26.33	20.65	24.04	-52.0	-54.0	14.4	0.00e+00	0	28	0	563085312	70	4452
2026-01-05 06:03:27.34	20.36	24.07	-52.0	-54.0	14.4	0.00e+00	0	28	0	564133888	70	4483
2026-01-05 06:03:28.33	20.08	24.09	-52.3	-54.5	14.2	0.00e+00	0	28	0	566231040	70	4731
2026-01-05 06:03:29.33	19.80	24.12	-52.6	-54.8	14.1	0.00e+00	0	28	0	568328192	70	4924
2026-01-05 06:03:30.33	19.52	24.14	-52.7	-55.0	14.0	0.00e+00	0	28	0	570425344	70	5035
2026-01-05 06:03:31.33	19.24	24.16	-52.6	-54.9	14.1	0.00e+00	0	27	0	572522496	70	4966
2026-01-05 06:03:32.33	18.96	24.18	-55.2	-58.3	13.0	0.00e+00	0	28	0	573571072	76	5206
2026-01-05 06:03:33.33	18.67	24.20	-55.1	-58.3	13.0	7.00e-07	0	28	0	575668224	76	5169
2026-01-05 06:03:34.33	18.39	24.22	-55.4	-58.7	12.7	0.00e+00	0	28	0	577765376	76	5423
2026-01-05 06:03:35.33	18.11	24.24	-55.1	-58.2	13.0	0.00e+00	0	28	0	579862528	76	5144
2026-01-05 06:03:36.32	17.83	24.26	-55.2	-58.4	12.8	0.00e+00	0	28	0	580911104	76	5262
2026-01-05 06:03:37.32	17.54	24.27	-54.5	-57.5	13.2	0.00e+00	0	28	0	583008256	75	5009
2026-01-05 06:03:38.32	17.26	24.29	-53.8	-56.5	13.7	0.00e+00	0	27	0	585105408	74	4742
2026-01-05 06:03:39.32	16.97	24.31	-53.5	-56.0	13.9	0.00e+00	0	28	0	587202560	73	4727
2026-01-05 06:03:40.31	16.69	24.32	-53.1	-55.5	14.0	0.00e+00	0	28	0	589299712	72	4713
2026-01-05 06:03:41.31	16.41	24.34	-52.8	-55.1	14.2	0.00e+00	0	27	0	590348288	72	4515
2026-01-05 06:03:42.31	16.12	24.35	-52.9	-55.2	14.2	0.00e+00	0	28	0	592445440	72	4568
2026-01-05 06:03:43.31	15.83	24.36	-53.1	-55.6	14.0	0.00e+00	0	28	0	594542592	72	4767
2026-01-05 06:03:44.30	15.55	24.37	-53.2	-55.7	13.9	0.00e+00	0	28	0	596639744	72	4868
2026-01-05 06:03:45.31	15.26	24.38	-53.2	-55.7	13.8	0.00e+00	0	28	0	597688320	72	4866
2026-01-05 06:03:46.31	14.98	24.39	-53.1	-55.5	14.0	0.00e+00	0	28	0	599785472	72	4758
2026-01-05 06:03:47.30	14.69	24.40	-53.1	-55.7	13.9	0.00e+00	0	28	0	601882624	72	4817
2026-01-05 06:03:48.30	14.41	24.41	-53.1	-55.6	13.9	0.00e+00	0	27	0	603979776	72	4810
2026-01-05 06:03:49.29	14.12	24.42	-53.0	-55.4	14.0	0.00e+00	0	28	0	606076928	72	4688
2026-01-05 06:03:50.29	13.83	24.43	-52.8	-55.2	14.1	0.00e+00	0	27	0	607125504	72	4546
2026-01-05 06:03:51.29	13.55	24.43	-52.5	-54.7	14.2	0.00e+00	0	28	0	609222656	71	4571
2026-01-05 06:03:52.29	13.26	24.44	-52.1	-54.3	14.4	0.00e+00	0	28	0	611319808	70	4608
2026-01-05 06:03:53.28	12.98	24.44	-51.9	-54.0	14.4	0.00e+00	0	27	0	613416960	70	4460
2026-01-05 06:03:54.29	12.69	24.45	-51.9	-54.0	14.4	0.00e+00	0	28	0	615514112	70	4446
2026-01-05 06:03:55.29	12.40	24.45	-51.9	-53.9	14.4	0.00e+00	0	28	0	616562688	70	4426
2026-01-05 06:03:56.28	12.11	24.45	-52.1	-54.2	14.3	0.00e+00	0	27	0	618659840	70	4577
2026-01-05 06:03:57.28	11.83	24.46	-52.5	-54.8	14.1	0.00e+00	0	28	0	620756992	70	4891
2026-01-05 06:03:58.28	11.54	24.46	-52.6	-55.0	14.0	0.00e+00	0	28	0	622854144	70	4996
2026-01-05 06:03:59.27	11.25	24.46	-52.7	-55.1	13.9	0.00e+00	0	28	0	623902720	70	5074
2026-01-05 06:04:00.26	10.97	24.46	-52.4	-54.7	14.1	0.00e+00	0	28	0	625999872	70	4869
2026-01-05 06:04:01.26	10.68	24.46	-52.3	-54.6	14.1	0.00e+00	0	28	0	628097024	70	4795
2026-01-05 06:04:02.26	10.39	24.45	-52.4	-54.7	14.1	0.00e+00	0	28	0	630194176	70	4844
2026-01-05 06:04:03.25	10.11	24.45	-52.2	-54.5	14.2	0.00e+00	0	28	0	632291328	70	4708
2026-01-05 06:04:04.24	9.82	24.45	-52.3	-54.5	14.2	0.00e+00	0	28	0	633339904	70	4726
2026-01-05 06:04:05.24	9.54	24.44	-52.2	-54.3	14.3	0.00e+00	0	28	0	635437056	70	4629
2026-01-05 06:04:06.23	9.25	24.44	-52.1	-54.2	14.4	0.00e+00	0	28	0	637534208	70	4551
2026-01-05 06:04:07.23	8.97	24.43	-51.8	-53.8	14.5	0.00e+00	0	28	0	639631360	70	4374
2026-01-05 06:04:08.23	8.68	24.42	-51.6	-53.5	14.5	0.00e+00	0	28	0	640679936	69	4485
2026-01-05 06:04:09.24	8.39	24.42	-51.4	-53.3	14.6	0.00e+00	0	28	0	642777088	69	4388
2026-01-05 06:04:10.24	8.10	24.41	-51.6	-53.6	14.5	0.00e+00	0	28	0	644874240	69	4494
2026-01-05 06:04:11.24	7.82	24.40	-51.6	-53.5	14.5	0.00e+00	0	28	0	646971392	69	4482
2026-01-05 06:04:12.24	7.53	24.39	-51.7	-53.6	14.5	0.00e+00	0	28	0	649068544	69	4538
2026-01-05 06:04:13.24	7.24	24.38	-51.6	-53.6	14.5	0.00e+00	0	28	0	650117120	69	4502
2026-01-05 06:04:14.24	6.96	24.37	-51.7	-53.6	14.5	0.00e+00	0	28	0	652214272	69	4512
2026-01-05 06:04:15.23	6.67	24.35	-51.8	-53.7	14.5	0.00e+00	0	28	0	654311424	69	4585
2026-01-05 06:04:16.23	6.39	24.34	-51.8	-53.7	14.5	0.00e+00	0	28	0	656408576	69	4598
2026-01-05 06:04:17.23	6.10	24.33	-51.7	-53.7	14.5	0.00e+00	0	28	0	658505728	69	4554
2026-01-05 06:04:18.23	5.82	24.31	-51.3	-53.1	14.6	0.00e+00	0	28	0	659554304	69	4289
2026-01-05 06:04:19.22	5.54	24.30	-51.2	-53.0	14.8	0.00e+00	0	28	0	661651456	69	4219
2026-01-05 06:04:20.23	5.25	24.28	-51.0	-52.7	14.8	0.00e+00	0	28	0	663748608	68	4303
2026-01-05 06:04:21.22	4.97	24.26	-51.1	-52.8	14.7	0.00e+00	0	28	0	665845760	68	4385
2026-01-05 06:04:22.22	4.68	24.25	-51.3	-53.1	14.6	0.00e+00	0	28	0	667942912	68	4501
2026-01-05 06:04:23.22	4.40	24.23	-51.4	-53.2	14.6	0.00e+00	0	28	0	668991488	68	4568
2026-01-05 06:04:24.22	4.12	24.21	-51.2	-52.9	14.7	0.00e+00	0	28	0	671088640	68	4418
2026-01-05 06:04:25.21	3.84	24.19	-51.1	-52.7	14.7	0.00e+00	0	28	0	673185792	68	4335
2026-01-05 06:04:26.21	3.55	24.17	-50.9	-52.5	14.8	0.00e+00	0	28	0	675282944	68	4224
2026-01-05 06:04:27.21	3.27	24.15	-50.6	-52.1	14.8	0.00e+00	0	27	0	676331520	67	4285
2026-01-05 06:04:28.21	2.99	24.12	-50.5	-52.1	14.8	0.00e+00	0	27	0	678428672	67	4272
2026-01-05 06:04:29.20	2.71	24.10	-50.7	-52.3	14.7	0.00e+00	0	28	0	680525824	67	4386
2026-01-05 06:04:30.20	2.43	24.08	-50.8	-52.4	14.7	0.00e+00	0	28	0	682622976	67	4412
2026-01-05 06:04:31.19	2.15	24.05	-50.7	-52.3	14.8	0.00e+00	0	28	0	684720128	67	4344
2026-01-05 06:04:32.19	1.87	24.03	-50.9	-52.5	14.6	0.00e+00	0	28	0	685768704	67	4471
2026-01-05 06:04:33.19	1.59	24.00	-50.8	-52.4	14.7	0.00e+00	0	28	0	687865856	67	4404
2026-01-05 06:04:34.18	1.32	23.98	-50.9	-52.5	14.7	0.00e+00	0	28	0	689963008	67	4465
2026-01-05 06:04:35.18	1.04	23.95	-50.9	-52.5	14.7	0.00e+00	0	28	0	692060160	67	4492
2026-01-05 06:04:36.17	0.76	23.92	-50.9	-52.5	14.7	0.00e+00	0	28	0	693108736	67	4493
2026-01-05 06:04:37.17	0.49	23.89	-50.8	-52.4	14.7	0.00e+00	0	28	0	695205888	67	4421
2026-01-05 06:04:38.16	0.21	23.87	-51.0	-52.6	14.6	0.00e+00	0	28	0	697303040	67	4543
2026-01-05 06:04:39.16	359.94	23.84	-51.0	-52.7	14.6	0.00e+00	0	28	0	699400192	67	4560
2026-01-05 06:04:40.16	359.66	23.81	-51.1	-52.7	14.6	0.00e+00	0	28	0	701497344	67	4589
2026-01-05 06:04:41.16	359.38	23.77	-51.0	-52.7	14.6	0.00e+00	0	28	0	702545920	67	4554
2026-01-05 06:04:42.15	359.11	23.74	-51.0	-52.6	14.6	0.00e+00	0	28	0	704643072	67	4529
2026-01-05 06:04:43.15	358.84	23.71	-51.0	-52.6	14.7	0.00e+00	0	28	0	706740224	67	4542
2026-01-05 06:04:44.15	358.56	23.68	-51.1	-52.8	14.6	0.00e+00	0	27	0	708837376	67	4631
2026-01-05 06:04:45.15	358.29	23.64	-51.3	-53.0	14.5	0.00e+00	0	28	0	709885952	67	4752
2026-01-05 06:04:46.15	358.02	23.61	-51.6	-53.3	14.5	0.00e+00	0	28	0	711983104	68	4627
2026-01-05 06:04:47.14	357.75	23.57	-51.5	-53.2	14.6	0.00e+00	0	28	0	714080256	68	4574
2026-01-05 06:04:48.14	357.48	23.54	-51.2	-52.9	14.7	0.00e+00	0	28	0	716177408	68	4404
2026-01-05 06:04:49.13	357.21	23.50	-51.2	-52.8	14.7	0.00e+00	0	28	0	718274560	68	4374
2026-01-05 06:04:50.12	356.94	23.46	-51.2	-52.8	14.7	0.00e+00	0	27	0	719323136	68	4388
2026-01-05 06:04:51.12	356.67	23.43	-51.2	-52.9	14.7	0.00e+00	0	28	0	721420288	68	4420
2026-01-05 06:04:52.11	356.41	23.39	-51.5	-53.2	14.5	0.00e+00	0	27	0	723517440	68	4588
2026-01-05 06:04:53.10	356.14	23.35	-51.7	-53.5	14.5	0.00e+00	0	28	0	725614592	68	4726
2026-01-05 06:04:54.10	355.87	23.31	-51.8	-53.6	14.4	0.00e+00	0	28	0	726663168	68	4785
2026-01-05 06:04:55.09	355.61	23.27	-51.9	-53.8	14.4	0.00e+00	0	28	0	728760320	68	4893
2026-01-05 06:04:56.08	355.35	23.23	-52.0	-53.9	14.4	0.00e+00	0	28	0	730857472	69	4704
2026-01-05 06:04:57.07	355.08	23.19	-52.0	-54.0	14.4	0.00e+00	0	28	0	732954624	69	4727
2026-01-05 06:04:58.07	354.82	23.15	-51.8	-53.6	14.5	0.00e+00	0	28	0	735051776	69	4544
2026-01-05 06:04:59.06	354.56	23.10	-51.9	-53.8	14.4	0.00e+00	0	28	0	736100352	69	4649
2026-01-05 06:05:00.06	354.29	23.06	-52.1	-54.1	14.3	0.00e+00	0	28	0	738197504	69	4799
2026-01-05 06:05:01.05	354.03	23.02	-52.3	-54.4	14.2	0.00e+00	0	28	0	740294656	69	4956
2026-01-05 06:05:02.04	353.78	22.97	-52.5	-54.7	14.2	0.00e+00	0	28	0	742391808	70	4853
2026-01-05 06:05:03.04	353.51	22.93	-52.6	-54.8	14.1	0.00e+00	0	28	0	743440384	70	4895
2026-01-05 06:05:04.05	353.25	22.88	-52.6	-54.8	14.1	0.00e+00	0	28	0	745537536	70	4883
2026-01-05 06:05:05.05	352.99	22.84	-52.5	-54.6	14.1	0.00e+00	0	28	0	747634688	70	4791
2026-01-05 06:05:06.04	352.74	22.79	-52.4	-54.5	14.2	0.00e+00	0	28	0	749731840	70	4718
2026-01-05 06:05:07.04	352.48	22.74	-52.3	-54.4	14.3	0.00e+00	0	28	0	751828992	70	4693
2026-01-05 06:05:08.04	352.22	22.70	-52.2	-54.3	14.3	0.00e+00	0	28	0	752877568	70	4627
2026-01-05 06:05:09.04	351.96	22.65	-52.5	-54.7	14.2	0.00e+00	0	28	0	754974720	70	4833
2026-01-05 06:05:10.04	351.71	22.60	-52.5	-54.7	14.1	0.00e+00	0	28	0	757071872	70	4860
2026-01-05 06:05:11.04	351.45	22.55	-52.6	-54.9	14.1	0.00e+00	0	27	0	759169024	70	4958
2026-01-05 06:05:12.04	351.20	22.50	-52.7	-55.0	14.0	0.00e+00	0	28	0	761266176	70	5017
2026-01-05 06:05:13.03	350.95	22.45	-52.7	-55.0	14.0	0.00e+00	0	28	0	762314752	70	4990
2026-01-05 06:05:14.03	350.70	22.40	-52.5	-54.7	14.1	0.00e+00	0	28	0	764411904	70	4860
2026-01-05 06:05:15.03	350.45	22.35	-52.1	-54.2	14.3	0.00e+00	0	28	0	766509056	70	4587
2026-01-05 06:05:16.03	350.20	22.30	-52.1	-54.2	14.4	0.00e+00	0	28	0	768606208	70	4572
2026-01-05 06:05:17.02	349.95	22.25	-52.1	-54.2	14.3	0.00e+00	0	28	0	770703360	70	4591
2026-01-05 06:05:18.02	349.70	22.19	-52.4	-54.5	14.2	0.00e+00	0	28	0	771751936	70	4751
2026-01-05 06:05:19.02	349.45	22.14	-52.3	-54.5	14.3	0.00e+00	0	28	0	773849088	70	4732
2026-01-05 06:05:20.03	349.20	22.09	-52.5	-54.7	14.1	0.00e+00	0	28	0	775946240	70	4866
2026-01-05 06:05:21.01	348.96	22.03	-52.3	-54.5	14.3	0.00e+00	0	27	0	778043392	70	4729
2026-01-05 06:05:22.01	348.72	21.98	-52.5	-54.7	14.2	0.00e+00	0	27	0	779091968	70	4824
2026-01-05 06:05:23.01	348.47	21.92	-52.7	-54.9	14.1	0.00e+00	0	27	0	781189120	70	4976
2026-01-05 06:05:24.00	348.23	21.87	-53.0	-55.4	14.0	0.00e+00	0	28	0	783286272	71	4938
2026-01-05 06:05:25.00	347.99	21.81	-53.0	-55.4	14.0	0.00e+00	0	28	0	785383424	71	4952
2026-01-05 06:05:26.00	347.75	21.76	-53.1	-55.6	13.8	0.00e+00	0	27	0	787480576	71	5100
2026-01-05 06:05:27.00	347.50	21.70	-53.1	-55.5	13.9	0.00e+00	0	28	0	788529152	71	5036
2026-01-05 06:05:28.00	347.26	21.64	-53.0	-55.4	14.0	0.00e+00	0	28	0	790626304	71	4954
2026-01-05 06:05:28.99	347.03	21.59	-52.5	-54.7	14.2	0.00e+00	0	28	0	792723456	71	4588
2026-01-05 06:05:29.99	346.79	21.53	-52.4	-54.6	14.3	0.00e+00	0	28	0	794820608	71	4513
2026-01-05 06:05:30.99	346.55	21.47	-52.5	-54.7	14.2	0.00e+00	0	28	0	795869184	71	4563
2026-01-05 06:05:31.98	346.32	21.41	-52.7	-55.0	14.1	0.00e+00	0	28	0	797966336	71	4757
2026-01-05 06:05:32.98	346.08	21.35	-53.0	-55.5	13.9	0.00e+00	0	28	0	800063488	71	5008
2026-01-05 06:05:33.97	345.85	21.29	-53.4	-56.1	13.6	0.00e+00	0	28	0	802160640	71	5393
2026-01-05 06:05:34.97	345.62	21.23	-53.6	-56.6	13.4	0.00e+00	0	28	0	804257792	72	5369
2026-01-05 06:05:35.97	345.38	21.17	-53.7	-56.7	13.4	0.00e+00	0	28	0	805306368	72	5440
2026-01-05 06:05:36.96	345.15	21.11	-53.8	-56.8	13.3	0.00e+00	0	28	0	807403520	72	5525
2026-01-05 06:05:37.96	344.92	21.05	-53.5	-56.4	13.5	0.00e+00	0	28	0	809500672	72	5254
2026-01-05 06:05:38.95	344.69	20.99	-53.1	-55.7	13.9	0.00e+00	0	28	0	811597824	72	4835
2026-01-05 06:05:39.94	344.47	20.93	-52.7	-55.1	14.2	0.00e+00	0	28	0	812646400	72	4513
2026-01-05 06:05:40.93	344.24	20.87	-52.7	-55.0	14.1	0.00e+00	0	28	0	814743552	71	4747
2026-01-05 06:05:41.92	344.02	20.81	-52.3	-54.6	14.3	0.00e+00	0	28	0	816840704	71	4496
2026-01-05 06:05:42.91	343.79	20.75	-52.4	-54.6	14.3	0.00e+00	0	28	0	818937856	71	4516
2026-01-05 06:05:43.90	343.57	20.68	-52.2	-54.4	14.3	0.00e+00	0	28	0	821035008	70	4673
2026-01-05 06:05:44.90	343.34	20.62	-52.2	-54.3	14.3	0.00e+00	0	28	0	822083584	70	4649
2026-01-05 06:05:45.89	343.12	20.56	-52.2	-54.3	14.3	0.00e+00	0	28	0	824180736	70	4648
2026-01-05 06:05:46.89	342.90	20.50	-51.8	-53.8	14.5	0.00e+00	0	28	0	826277888	70	4378
2026-01-05 06:05:47.88	342.68	20.43	-51.8	-53.9	14.5	0.00e+00	0	28	0	828375040	70	4427
2026-01-05 06:05:48.88	342.46	20.37	-51.7	-53.6	14.6	0.00e+00	0	28	0	829423616	70	4281
2026-01-05 06:05:49.87	342.24	20.30	-51.6	-53.6	14.5	0.00e+00	0	28	0	831520768	69	4498
2026-01-05 06:05:50.87	342.02	20.24	-51.5	-53.4	14.6	0.00e+00	0	27	0	833617920	69	4400
2026-01-05 06:05:51.87	341.80	20.17	-51.3	-53.1	14.6	0.00e+00	0	28	0	835715072	68	4528
2026-01-05 06:05:52.86	341.59	20.11	-51.1	-52.9	14.7	0.00e+00	0	28	0	837812224	68	4399
2026-01-05 06:05:53.86	341.37	20.04	-50.8	-52.6	14.8	0.00e+00	0	28	0	838860800	68	4249
2026-01-05 06:05:54.86	341.16	19.98	-50.8	-52.5	14.8	0.00e+00	0	28	0	840957952	68	4227
2026-01-05 06:05:55.84	340.95	19.91	-50.4	-52.1	14.8	0.00e+00	0	28	0	843055104	67	4272
2026-01-05 06:05:56.84	340.73	19.85	-50.4	-52.1	14.7	0.00e+00	0	27	0	845152256	67	4279
2026-01-05 06:05:57.84	340.52	19.78	-50.7	-52.4	14.7	0.00e+00	0	28	0	846200832	67	4440
2026-01-05 06:05:58.83	340.31	19.71	-51.1	-53.0	14.3	0.00e+00	0	28	0	848297984	67	4741
2026-01-05 06:05:59.83	340.10	19.65	-51.3	-53.3	14.4	0.00e+00	0	28	0	850395136	67	4874
2026-01-05 06:06:00.83	339.89	19.58	-51.8	-54.0	14.2	0.00e+00	0	28	0	852492288	68	4990
2026-01-05 06:06:01.83	339.68	19.51	-52.1	-54.4	14.1	0.00e+00	0	28	0	854589440	69	4944
2026-01-05 06:06:02.82	339.48	19.44	-52.4	-54.7	14.1	0.00e+00	0	28	0	855638016	70	4861
2026-01-05 06:06:03.83	339.27	19.38	-52.5	-54.8	14.0	0.00e+00	0	28	0	857735168	70	4913
2026-01-05 06:06:04.82	339.07	19.31	-52.6	-55.1	14.0	0.00e+00	0	28	0	859832320	70	5045
2026-01-05 06:06:05.84	338.86	19.24	-52.5	-54.9	14.0	0.00e+00	0	28	0	861929472	70	4982
2026-01-05 06:06:06.83	338.65	19.17	-52.4	-54.8	14.1	0.00e+00	0	28	0	864026624	70	4907
2026-01-05 06:06:07.83	338.45	19.10	-52.2	-54.5	14.2	0.00e+00	0	28	0	865075200	70	4706
2026-01-05 06:06:08.83	338.25	19.03	-52.1	-54.3	14.3	0.00e+00	0	28	0	867172352	70	4624
2026-01-05 06:06:09.84	338.05	18.96	-52.1	-54.3	14.3	0.00e+00	0	28	0	869269504	70	4642
2026-01-05 06:06:10.83	337.85	18.89	-51.9	-54.0	14.4	0.00e+00	0	28	0	871366656	70	4483
2026-01-05 06:06:11.83	337.65	18.82	-51.7	-53.8	14.5	0.00e+00	0	28	0	873463808	70	4375
2026-01-05 06:06:12.83	337.45	18.76	-51.5	-53.5	14.5	0.00e+00	0	28	0	874512384	69	4482
2026-01-05 06:06:13.83	337.25	18.69	-51.3	-53.3	14.6	0.00e+00	0	28	0	876609536	69	4358
2026-01-05 06:06:14.83	337.05	18.62	-51.2	-53.1	14.7	0.00e+00	0	28	0	878706688	69	4265
2026-01-05 06:06:15.83	336.86	18.55	-51.0	-52.9	14.7	0.00e+00	0	27	0	880803840	68	4400
2026-01-05 06:06:16.83	336.66	18.48	-51.0	-52.9	14.7	0.00e+00	0	28	0	881852416	68	4403
2026-01-05 06:06:17.84	336.47	18.40	-51.2	-53.1	14.6	0.00e+00	0	28	0	883949568	68	4534
2026-01-05 06:06:18.83	336.28	18.33	-51.5	-53.5	14.4	0.00e+00	0	28	0	886046720	68	4735
2026-01-05 06:06:19.84	336.08	18.26	-51.7	-53.7	14.3	0.00e+00	0	28	0	888143872	68	4862
2026-01-05 06:06:20.84	335.89	18.19	-51.8	-53.9	14.3	0.00e+00	0	27	0	890241024	68	4942
2026-01-05 06:06:21.84	335.70	18.12	-51.8	-53.9	14.3	0.00e+00	0	28	0	891289600	68	4929
2026-01-05 06:06:22.83	335.51	18.05	-51.7	-53.8	14.3	0.00e+00	0	27	0	893386752	68	4891
2026-01-05 06:06:23.83	335.32	17.98	-51.8	-53.8	14.3	0.00e+00	0	28	0	895483904	68	4906
2026-01-05 06:06:24.83	335.14	17.91	-51.8	-53.8	14.3	0.00e+00	0	28	0	897581056	68	4921
2026-01-05 06:06:25.82	334.95	17.84	-51.9	-54.0	14.3	0.00e+00	0	27	0	898629632	69	4720
2026-01-05 06:06:26.82	334.77	17.77	-52.0	-54.1	14.3	0.00e+00	0	28	0	900726784	69	4812
2026-01-05 06:06:27.81	334.58	17.70	-52.3	-54.5	14.1	0.00e+00	0	28	0	902823936	69	5029
2026-01-05 06:06:28.80	334.40	17.62	-52.2	-54.4	14.2	0.00e+00	0	28	0	904921088	69	4943
2026-01-05 06:06:29.80	334.22	17.55	-52.1	-54.3	14.2	2.20e-06	0	28	0	907018240	69	4886
2026-01-05 06:06:30.80	334.04	17.48	-52.1	-54.3	14.2	0.00e+00	0	28	0	908066816	69	4892
2026-01-05 06:06:31.80	333.85	17.41	-52.0	-54.1	14.3	5.30e-06	0	28	0	910163968	69	4772
2026-01-05 06:06:32.79	333.68	17.34	-51.9	-54.0	14.4	0.00e+00	0	28	0	912261120	69	4711
2026-01-05 06:06:33.79	333.50	17.27	-51.9	-53.9	14.4	1.50e-06	0	28	0	914358272	69	4686
2026-01-05 06:06:34.78	333.32	17.19	-51.8	-53.8	14.4	4.50e-06	0	27	0	916455424	69	4611
2026-01-05 06:06:35.79	333.14	17.12	-51.8	-53.8	14.4	0.00e+00	0	28	0	917504000	69	4608
2026-01-05 06:06:36.78	332.96	17.05	-51.7	-53.6	14.5	7.00e-07	0	28	0	919601152	69	4533
2026-01-05 06:06:37.78	332.79	16.98	-51.5	-53.4	14.6	0.00e+00	0	28	0	921698304	69	4403
2026-01-05 06:06:38.78	332.61	16.90	-51.4	-53.3	14.6	0.00e+00	0	28	0	923795456	69	4344
2026-01-05 06:06:39.78	332.44	16.83	-51.5	-53.4	14.6	0.00e+00	0	28	0	924844032	69	4397
2026-01-05 06:06:40.78	332.26	16.76	-51.8	-53.7	14.5	0.00e+00	0	28	0	926941184	69	4587
2026-01-05 06:06:41.77	332.09	16.69	-52.0	-54.1	14.3	0.00e+00	0	28	0	929038336	69	4761
2026-01-05 06:06:42.76	331.92	16.61	-52.1	-54.1	14.3	0.00e+00	0	28	0	931135488	69	4813
2026-01-05 06:06:43.75	331.75	16.54	-52.0	-54.0	14.3	0.00e+00	0	27	0	933232640	69	4736
2026-01-05 06:06:44.75	331.58	16.47	-51.7	-53.6	14.5	0.00e+00	0	27	0	934281216	69	4537
2026-01-05 06:06:45.75	331.41	16.40	-51.6	-53.5	14.5	0.00e+00	0	28	0	936378368	69	4464
2026-01-05 06:06:46.74	331.25	16.33	-51.4	-53.2	14.7	0.00e+00	0	28	0	938475520	69	4303
2026-01-05 06:06:47.74	331.08	16.25	-51.1	-52.8	14.7	0.00e+00	0	27	0	940572672	68	4354
2026-01-05 06:06:48.73	330.91	16.18	-51.0	-52.6	14.8	0.00e+00	0	28	0	941621248	68	4289
2026-01-05 06:06:49.72	330.75	16.11	-51.0	-52.7	14.7	0.00e+00	0	27	0	943718400	68	4319
2026-01-05 06:06:50.70	330.59	16.04	-51.0	-52.7	14.7	0.00e+00	0	28	0	945815552	68	4315
2026-01-05 06:06:51.69	330.42	15.96	-51.1	-52.8	14.7	0.00e+00	0	28	0	947912704	68	4375
2026-01-05 06:06:52.69	330.26	15.89	-51.3	-53.0	14.6	0.00e+00	0	27	0	950009856	68	4479
2026-01-05 06:06:53.68	330.10	15.82	-51.3	-53.1	14.6	0.00e+00	0	27	0	951058432	68	4513
2026-01-05 06:06:54.68	329.94	15.75	-51.4	-53.2	14.5	0.00e+00	0	27	0	953155584	68	4554
2026-01-05 06:06:55.68	329.78	15.67	-51.4	-53.2	14.5	0.00e+00	0	28	0	955252736	68	4578
2026-01-05 06:06:56.67	329.62	15.60	-51.5	-53.4	14.5	0.00e+00	0	28	0	957349888	68	4665
2026-01-05 06:06:57.66	329.46	15.53	-51.6	-53.5	14.4	0.00e+00	0	28	0	958398464	68	4720
2026-01-05 06:06:58.67	329.30	15.45	-51.7	-53.6	14.4	0.00e+00	0	27	0	960495616	68	4786
2026-01-05 06:06:59.66	329.14	15.38	-51.5	-53.4	14.5	0.00e+00	0	28	0	962592768	68	4658
2026-01-05 06:07:00.65	328.99	15.31	-51.5	-53.4	14.5	1.50e-06	0	27	0	964689920	68	4655
2026-01-05 06:07:01.66	328.83	15.23	-51.3	-53.0	14.6	0.00e+00	0	28	0	966787072	68	4468
2026-01-05 06:07:02.65	328.67	15.16	-51.0	-52.7	14.7	0.00e+00	0	28	0	967835648	68	4296
2026-01-05 06:07:03.65	328.52	15.09	-51.0	-52.7	14.7	0.00e+00	0	27	0	969932800	68	4303
2026-01-05 06:07:04.64	328.36	15.02	-50.9	-52.5	14.8	0.00e+00	0	28	0	972029952	68	4225
2026-01-05 06:07:05.64	328.21	14.94	-51.0	-52.6	14.7	0.00e+00	0	28	0	974127104	68	4287
2026-01-05 06:07:06.64	328.06	14.87	-51.1	-52.8	14.7	1.50e-06	0	28	0	975175680	68	4377
2026-01-05 06:07:07.64	327.91	14.80	-51.5	-53.4	14.5	0.00e+00	0	27	0	977272832	68	4655
2026-01-05 06:07:08.63	327.76	14.73	-51.9	-53.8	14.3	1.22e-05	0	28	0	979369984	68	4912
2026-01-05 06:07:09.63	327.61	14.65	-52.0	-53.9	14.3	0.00e+00	0	28	0	981467136	69	4685
2026-01-05 06:07:10.63	327.46	14.58	-52.2	-54.2	14.2	0.00e+00	0	28	0	983564288	69	4856
2026-01-05 06:07:11.62	327.31	14.51	-52.2	-54.2	14.2	6.80e-06	0	28	0	984612864	69	4841
2026-01-05 06:07:12.62	327.16	14.43	-52.1	-54.1	14.2	0.00e+00	0	28	0	986710016	69	4808
2026-01-05 06:07:13.62	327.01	14.36	-52.2	-54.2	14.2	0.00e+00	0	28	0	988807168	69	4825
2026-01-05 06:07:14.63	326.87	14.29	-52.0	-53.9	14.3	0.00e+00	0	28	0	990904320	69	4696
2026-01-05 06:07:15.63	326.72	14.21	-51.8	-53.7	14.4	7.00e-07	0	28	0	993001472	69	4574
2026-01-05 06:07:16.64	326.57	14.14	-51.7	-53.5	14.5	0.00e+00	0	28	0	994050048	69	4489
2026-01-05 06:07:17.64	326.43	14.07	-51.7	-53.6	14.5	0.00e+00	0	28	0	996147200	69	4503
2026-01-05 06:07:18.64	326.28	13.99	-51.6	-53.5	14.5	0.00e+00	0	27	0	998244352	69	4446
2026-01-05 06:07:19.64	326.14	13.92	-51.6	-53.5	14.5	0.00e+00	0	28	0	1000341504	69	4462
2026-01-05 06:07:20.64	326.00	13.85	-51.3	-53.0	14.7	0.00e+00	0	27	0	1002438656	69	4219
2026-01-05 06:07:21.64	325.86	13.78	-51.2	-53.0	14.7	0.00e+00	0	27	0	1003487232	69	4198
2026-01-05 06:07:22.64	325.72	13.70	-51.1	-52.8	14.7	0.00e+00	0	27	0	1005584384	68	4381
2026-01-05 06:07:23.64	325.58	13.63	-51.2	-53.0	14.6	0.00e+00	0	28	0	1007681536	68	4450
2026-01-05 06:07:24.64	325.44	13.56	-51.3	-53.1	14.6	0.00e+00	0	28	0	1009778688	68	4505
2026-01-05 06:07:25.63	325.30	13.49	-51.6	-53.4	14.4	0.00e+00	0	28	0	1010827264	68	4675
2026-01-05 06:07:26.63	325.16	13.41	-51.8	-53.7	14.4	0.00e+00	0	28	0	1012924416	68	4825
2026-01-05 06:07:27.63	325.02	13.34	-51.9	-53.9	14.4	0.00e+00	0	28	0	1015021568	69	4668
2026-01-05 06:07:28.62	324.89	13.27	-52.4	-54.4	14.1	0.00e+00	0	28	0	1017118720	69	4975
2026-01-05 06:07:29.62	324.75	13.20	-52.6	-54.7	14.1	0.00e+00	0	28	0	1019215872	70	4856
2026-01-05 06:07:30.62	324.62	13.13	-52.8	-55.0	14.0	0.00e+00	0	28	0	1020264448	70	5026
2026-01-05 06:07:31.62	324.48	13.05	-52.7	-54.9	14.1	0.00e+00	0	28	0	1022361600	71	4665
2026-01-05 06:07:32.62	324.35	12.98	-52.6	-54.7	14.2	0.00e+00	0	28	0	1024458752	71	4591
2026-01-05 06:07:33.61	324.22	12.91	-52.5	-54.6	14.3	0.00e+00	0	28	0	1026555904	71	4519
2026-01-05 06:07:34.61	324.08	12.84	-52.2	-54.2	14.4	0.00e+00	0	28	0	1027604480	71	4298
2026-01-05 06:07:35.61	323.95	12.77	-52.1	-54.0	14.4	0.00e+00	0	28	0	1029701632	70	4465
2026-01-05 06:07:36.60	323.82	12.69	-51.9	-53.8	14.5	0.00e+00	0	28	0	1031798784	70	4350
2026-01-05 06:07:37.60	323.69	12.62	-51.7	-53.5	14.5	0.00e+00	0	28	0	1033895936	69	4478
2026-01-05 06:07:38.59	323.56	12.55	-51.6	-53.4	14.5	0.00e+00	0	28	0	1035993088	69	4404
2026-01-05 06:07:39.59	323.43	12.48	-51.6	-53.4	14.5	0.00e+00	0	28	0	1037041664	69	4433
2026-01-05 06:07:40.59	323.30	12.41	-51.8	-53.7	14.4	0.00e+00	0	28	0	1039138816	69	4564
2026-01-05 06:07:41.59	323.17	12.34	-51.7	-53.5	14.5	0.00e+00	0	27	0	1041235968	69	4492
2026-01-05 06:07:42.58	323.05	12.27	-51.8	-53.7	14.4	0.00e+00	0	28	0	1043333120	69	4565
2026-01-05 06:07:43.58	322.92	12.19	-51.7	-53.6	14.4	0.00e+00	0	27	0	1045430272	69	4531
2026-01-05 06:07:44.57	322.80	12.12	-51.7	-53.6	14.4	0.00e+00	0	28	0	1046478848	69	4514
2026-01-05 06:07:45.58	322.67	12.05	-51.8	-53.7	14.4	0.00e+00	0	28	0	1048576000	69	4553
2026-01-05 06:07:46.57	322.54	11.98	-51.8	-53.7	14.4	0.00e+00	0	28	0	1050673152	69	4554
2026-01-05 06:07:47.57	322.42	11.91	-51.7	-53.6	14.4	0.00e+00	0	28	0	1052770304	69	4517
2026-01-05 06:07:48.56	322.30	11.84	-51.8	-53.7	14.4	0.00e+00	0	28	0	1053818880	69	4555
2026-01-05 06:07:49.55	322.18	11.77	-52.0	-54.0	14.3	0.00e+00	0	27	0	1055916032	69	4730
2026-01-05 06:07:50.56	322.05	11.70	-52.1	-54.1	14.2	0.00e+00	0	28	0	1058013184	69	4784
2026-01-05 06:07:51.55	321.93	11.63	-52.3	-54.3	14.1	0.00e+00	0	28	0	1060110336	69	4905
2026-01-05 06:07:52.56	321.81	11.56	-52.4	-54.5	14.1	0.00e+00	0	28	0	1062207488	69	5017
2026-01-05 06:07:53.55	321.69	11.49	-52.6	-54.7	14.1	0.00e+00	0	28	0	1063256064	70	4851
2026-01-05 06:07:54.55	321.57	11.41	-52.6	-54.8	14.0	0.00e+00	0	28	0	1065353216	70	4899
2026-01-05 06:07:55.54	321.45	11.34	-52.6	-54.8	14.0	0.00e+00	0	28	0	1067450368	70	4920
2026-01-05 06:07:56.53	321.33	11.28	-52.8	-55.0	13.9	0.00e+00	0	28	0	1069547520	70	5021
2026-01-05 06:07:57.53	321.21	11.20	-52.7	-54.9	14.0	0.00e+00	0	28	0	1071644672	70	4949
2026-01-05 06:07:58.52	321.10	11.13	-52.7	-54.9	14.0	0.00e+00	0	28	0	1072693248	70	4980
2026-01-05 06:07:59.51	320.98	11.07	-52.7	-55.0	13.9	0.00e+00	0	28	0	1074790400	70	4996
2026-01-05 06:08:00.50	320.87	11.00	-52.7	-55.0	13.9	0.00e+00	0	27	0	1076887552	70	4999
2026-01-05 06:08:01.50	320.75	10.93	-52.7	-55.0	13.9	0.00e+00	0	28	0	1078984704	70	5012
2026-01-05 06:08:02.50	320.63	10.86	-52.8	-55.1	13.9	0.00e+00	0	27	0	1080033280	70	5083
2026-01-05 06:08:03.51	320.52	10.79	-52.9	-55.3	13.9	0.00e+00	0	28	0	1082130432	71	4883
2026-01-05 06:08:04.49	320.41	10.72	-53.0	-55.4	13.8	0.00e+00	0	28	0	1084227584	71	4949
2026-01-05 06:08:05.48	320.29	10.65	-53.3	-55.8	13.7	0.00e+00	0	28	0	1086324736	71	5163
2026-01-05 06:08:06.48	320.18	10.58	-53.2	-55.6	13.7	0.00e+00	0	28	0	1088421888	71	5081
2026-01-05 06:08:07.48	320.07	10.51	-53.3	-55.8	13.7	0.00e+00	0	28	0	1089470464	71	5175
2026-01-05 06:08:08.47	319.96	10.44	-53.2	-55.6	13.7	0.00e+00	0	27	0	1091567616	71	5089
2026-01-05 06:08:09.47	319.84	10.37	-53.2	-55.6	13.7	0.00e+00	0	28	0	1093664768	71	5051
2026-01-05 06:08:10.47	319.73	10.30	-53.0	-55.3	13.9	0.00e+00	0	28	0	1095761920	71	4910
2026-01-05 06:08:11.47	319.62	10.23	-52.9	-55.2	14.0	0.00e+00	0	28	0	1096810496	71	4822
2026-01-05 06:08:12.46	319.51	10.16	-52.7	-54.9	14.1	0.00e+00	0	28	0	1098907648	71	4678
2026-01-05 06:08:13.46	319.40	10.09	-52.6	-54.7	14.2	0.00e+00	0	27	0	1101004800	71	4580
2026-01-05 06:08:14.45	319.30	10.03	-52.6	-54.7	14.1	0.00e+00	0	28	0	1103101952	71	4589
2026-01-05 06:08:15.45	319.19	9.96	-52.6	-54.7	14.2	0.00e+00	0	28	0	1104150528	71	4550
2026-01-05 06:08:16.45	319.08	9.89	-52.5	-54.6	14.2	0.00e+00	0	28	0	1106247680	71	4532
2026-01-05 06:08:17.45	318.97	9.82	-52.6	-54.7	14.2	0.00e+00	0	28	0	1108344832	71	4592
2026-01-05 06:08:18.45	318.86	9.75	-52.5	-54.6	14.2	0.00e+00	0	28	0	1110441984	71	4509
2026-01-05 06:08:19.45	318.76	9.68	-52.7	-54.8	14.1	0.00e+00	0	28	0	1112539136	71	4628
2026-01-05 06:08:20.43	318.65	9.61	-52.8	-54.9	14.0	0.00e+00	0	28	0	1113587712	71	4697
2026-01-05 06:08:21.43	318.55	9.55	-52.8	-55.0	14.0	0.00e+00	0	28	0	1115684864	71	4751
2026-01-05 06:08:22.43	318.44	9.48	-52.9	-55.2	13.9	0.00e+00	0	28	0	1117782016	71	4839
2026-01-05 06:08:23.42	318.34	9.41	-53.0	-55.3	13.9	0.00e+00	0	28	0	1119879168	71	4912
2026-01-05 06:08:24.42	318.24	9.34	-53.1	-55.4	13.8	0.00e+00	0	28	0	1121976320	71	4958
2026-01-05 06:08:25.42	318.13	9.27	-53.1	-55.4	13.8	0.00e+00	0	28	0	1123024896	71	4965
2026-01-05 06:08:26.41	318.03	9.21	-53.2	-55.6	13.7	0.00e+00	0	28	0	1125122048	71	5054
2026-01-05 06:08:27.41	317.93	9.14	-53.1	-55.5	13.8	0.00e+00	0	28	0	1127219200	71	5007
2026-01-05 06:08:28.40	317.83	9.07	-53.2	-55.5	13.8	0.00e+00	0	28	0	1129316352	71	5021
2026-01-05 06:08:29.40	317.73	9.01	-53.1	-55.5	13.8	0.00e+00	0	28	0	1130364928	71	4993
2026-01-05 06:08:30.40	317.63	8.94	-53.1	-55.5	13.7	0.00e+00	0	28	0	1132462080	71	5009
2026-01-05 06:08:31.39	317.53	8.87	-53.1	-55.4	13.8	0.00e+00	0	28	0	1134559232	71	4953
2026-01-05 06:08:32.39	317.43	8.80	-53.0	-55.4	13.9	0.00e+00	0	28	0	1136656384	71	4929
2026-01-05 06:08:33.39	317.33	8.74	-52.8	-55.0	14.0	0.00e+00	0	28	0	1138753536	71	4749
2026-01-05 06:08:34.39	317.23	8.67	-52.7	-54.9	14.0	0.00e+00	0	28	0	1139802112	71	4700
2026-01-05 06:08:35.38	317.13	8.60	-52.9	-55.1	13.9	0.00e+00	0	28	0	1141899264	71	4801
2026-01-05 06:08:36.39	317.03	8.54	-52.9	-55.2	13.9	0.00e+00	0	27	0	1143996416	71	4869
2026-01-05 06:08:37.39	316.93	8.47	-52.9	-55.2	13.9	0.00e+00	0	28	0	1146093568	71	4815
2026-01-05 06:08:38.39	316.84	8.40	-53.0	-55.3	13.8	0.00e+00	0	28	0	1148190720	71	4889
2026-01-05 06:08:39.39	316.74	8.34	-53.1	-55.5	13.8	0.00e+00	0	28	0	1149239296	71	4993
2026-01-05 06:08:40.39	316.64	8.27	-53.1	-55.5	13.7	0.00e+00	0	28	0	1151336448	71	5020
2026-01-05 06:08:41.39	316.55	8.20	-53.3	-55.8	13.6	0.00e+00	0	28	0	1153433600	71	5203
2026-01-05 06:08:42.38	316.45	8.14	-53.4	-55.9	13.5	0.00e+00	0	28	0	1155530752	71	5264
2026-01-05 06:08:43.38	316.36	8.07	-53.7	-56.3	13.4	0.00e+00	0	27	0	1156579328	72	5201
2026-01-05 06:08:44.38	316.26	8.00	-53.7	-56.4	13.3	0.00e+00	0	28	0	1158676480	72	5268
2026-01-05 06:08:45.38	316.17	7.94	-53.9	-56.8	13.2	0.00e+00	0	28	0	1160773632	72	5465
2026-01-05 06:08:46.38	316.08	7.87	-53.8	-56.5	13.3	0.00e+00	0	28	0	1162870784	73	5038
2026-01-05 06:08:47.37	315.98	7.81	-53.9	-56.7	13.2	0.00e+00	0	28	0	1164967936	73	5145
2026-01-05 06:08:48.37	315.89	7.74	-54.1	-57.1	13.1	0.00e+00	0	28	0	1166016512	73	5370
2026-01-05 06:08:49.36	315.80	7.68	-54.1	-57.0	13.1	0.00e+00	0	28	0	1168113664	73	5314
2026-01-05 06:08:50.36	315.71	7.61	-54.2	-57.1	13.0	0.00e+00	0	28	0	1170210816	73	5380
2026-01-05 06:08:51.36	315.62	7.54	-54.2	-57.3	13.0	0.00e+00	0	28	0	1172307968	73	5479
2026-01-05 06:08:52.36	315.52	7.48	-54.3	-57.4	12.8	0.00e+00	0	28	0	1173356544	73	5586
2026-01-05 06:08:53.35	315.44	7.41	-54.3	-57.4	12.8	0.00e+00	0	28	0	1175453696	73	5585
2026-01-05 06:08:54.34	315.35	7.35	-54.4	-57.5	12.8	0.00e+00	0	28	0	1177550848	73	5621
2026-01-05 06:08:55.34	315.26	7.29	-54.5	-57.6	12.8	0.00e+00	0	28	0	1179648000	74	5398
2026-01-05 06:08:56.34	315.17	7.22	-54.4	-57.5	12.9	0.00e+00	0	28	0	1181745152	74	5307
2026-01-05 06:08:57.33	315.08	7.16	-54.4	-57.5	12.9	0.00e+00	0	28	0	1182793728	74	5281
2026-01-05 06:08:58.33	314.99	7.09	-54.4	-57.4	12.9	0.00e+00	0	28	0	1184890880	74	5264
2026-01-05 06:08:59.32	314.90	7.03	-54.3	-57.4	12.9	0.00e+00	0	28	0	1186988032	74	5247
2026-01-05 06:09:00.32	314.82	6.96	-54.4	-57.5	12.9	0.00e+00	0	28	0	1189085184	74	5312
2026-01-05 06:09:01.32	314.73	6.90	-54.3	-57.3	13.0	0.00e+00	0	28	0	1190133760	74	5217
2026-01-05 06:09:02.32	314.64	6.83	-54.3	-57.4	12.9	0.00e+00	0	28	0	1192230912	74	5252
2026-01-05 06:09:03.32	314.55	6.77	-54.4	-57.6	12.9	0.00e+00	0	28	0	1194328064	74	5341
2026-01-05 06:09:04.32	314.47	6.70	-54.5	-57.6	12.8	7.00e-07	0	28	0	1196425216	74	5391
2026-01-05 06:09:05.31	314.38	6.64	-54.4	-57.5	12.9	0.00e+00	0	28	0	1198522368	74	5286
2026-01-05 06:09:06.31	314.30	6.58	-54.5	-57.7	12.7	0.00e+00	0	28	0	1199570944	74	5446
2026-01-05 06:09:07.30	314.21	6.51	-54.6	-57.9	12.6	0.00e+00	0	28	0	1201668096	74	5565
2026-01-05 06:09:08.30	314.13	6.45	-54.5	-57.8	12.7	0.00e+00	0	28	0	1203765248	74	5471
2026-01-05 06:09:09.30	314.05	6.39	-54.6	-57.8	12.6	0.00e+00	0	28	0	1205862400	74	5513
