passes_logs/2026/01/05/R3.2S_Murmansk/R3.2S_Murmansk__20260105_123925_SUOMI_NPP_rec.log

#Pass ID: 20260105_123925_SUOMI NPP
#Satellite: SUOMI NPP
#Configuration: NPP
#almurnet v.1.7.20251203
#Start time: 2026-01-05 12:39:27

#Version: 2.2.20231116
#Station: R3.2S_Murmansk
#Location: 33.079688 lon 68.888172 lat
#TLE: 1 37849U 11061A   26003.96724563  .00000164  00000+0  98899-4 0  9990
#TLE: 2 37849  98.7800 306.1116 0002573  82.3190 277.8279 14.19522066735141

#Time	Az	El	Level	Level2	SNR	BER	BlckErr	Temp	State	Recorded	gain1	gain2
2026-01-05 12:39:27.05	230.88	2.07	-58.5	-74.5	3.8	1.49e+00	0	25	0	0	83	22367
2026-01-05 12:39:28.04	230.97	2.12	-58.5	-74.5	3.8	1.49e+00	0	25	104	0	82	23590
2026-01-05 12:39:29.04	231.06	2.17	-58.5	-74.5	3.8	1.49e+00	0	25	104	0	82	23657
2026-01-05 12:39:30.04	231.15	2.22	-58.3	-74.5	3.8	1.49e+00	0	25	104	0	82	23692
2026-01-05 12:39:31.04	231.24	2.26	-58.5	-74.5	3.8	1.49e+00	0	25	104	0	82	23623
2026-01-05 12:39:32.04	231.33	2.31	-58.5	-74.5	3.8	1.49e+00	0	25	104	0	82	23646
2026-01-05 12:39:33.05	231.42	2.36	-58.5	-74.5	3.8	1.49e+00	0	25	104	0	82	23667
2026-01-05 12:39:34.05	231.51	2.41	-58.5	-74.5	3.8	1.49e+00	0	25	104	0	82	23667
2026-01-05 12:39:35.05	231.60	2.46	-58.5	-74.5	3.8	1.49e+00	0	25	104	0	82	23632
2026-01-05 12:39:36.04	231.69	2.51	-58.5	-74.5	3.8	1.49e+00	0	25	104	0	82	23624
2026-01-05 12:39:37.04	231.78	2.56	-58.5	-74.5	3.8	1.49e+00	0	25	104	0	82	23648
2026-01-05 12:39:38.04	231.88	2.61	-58.5	-74.5	3.8	1.49e+00	0	25	104	0	82	23594
2026-01-05 12:39:39.04	231.97	2.66	-58.5	-74.4	3.8	1.49e+00	0	25	104	0	82	23491
2026-01-05 12:39:40.03	232.06	2.71	-58.5	-74.4	3.8	1.49e+00	0	25	104	0	82	23477
2026-01-05 12:39:41.03	232.15	2.76	-58.5	-74.4	3.8	1.49e+00	0	25	104	0	82	23427
2026-01-05 12:39:42.02	232.24	2.81	-58.5	-74.4	3.8	1.49e+00	0	25	104	0	82	23466
2026-01-05 12:39:43.02	232.34	2.86	-58.5	-74.4	3.8	1.49e+00	0	25	104	0	82	23469
2026-01-05 12:39:44.02	232.43	2.91	-58.5	-74.5	3.8	1.49e+00	0	25	104	0	82	23620
2026-01-05 12:39:45.02	232.52	2.96	-58.5	-74.5	3.8	1.49e+00	0	25	104	0	82	23584
2026-01-05 12:39:46.02	232.62	3.01	-58.5	-74.5	3.8	1.49e+00	0	25	104	0	82	23646
2026-01-05 12:39:47.01	232.71	3.06	-58.5	-74.5	3.8	1.49e+00	0	25	104	0	82	23609
2026-01-05 12:39:48.00	232.81	3.10	-58.5	-74.5	3.8	1.49e+00	0	25	104	0	82	23627
2026-01-05 12:39:49.01	232.90	3.15	-58.5	-74.5	3.8	1.49e+00	0	26	104	0	82	23704
2026-01-05 12:39:50.00	233.00	3.20	-58.5	-74.5	3.8	1.49e+00	0	26	104	0	82	23713
2026-01-05 12:39:51.00	233.09	3.25	-58.5	-74.5	3.8	1.49e+00	0	25	104	0	82	23626
2026-01-05 12:39:52.00	233.19	3.30	-58.5	-74.4	3.8	1.49e+00	0	25	104	0	82	23496
2026-01-05 12:39:53.00	233.29	3.35	-58.5	-74.4	3.8	1.49e+00	0	26	104	0	82	23333
2026-01-05 12:39:54.00	233.38	3.40	-58.5	-74.3	3.8	1.49e+00	0	26	104	0	82	23065
2026-01-05 12:39:55.00	233.48	3.45	-58.5	-74.3	3.8	1.49e+00	0	26	104	0	82	23271
2026-01-05 12:39:56.00	233.58	3.50	-58.5	-74.3	3.8	1.49e+00	0	26	104	0	82	23275
2026-01-05 12:39:57.00	233.67	3.55	-58.5	-74.4	3.8	1.49e+00	0	26	104	0	82	23487
2026-01-05 12:39:58.01	233.77	3.60	-58.5	-74.5	3.8	1.49e+00	0	26	104	0	82	23622
2026-01-05 12:39:59.01	233.87	3.65	-58.5	-74.5	3.8	1.49e+00	0	26	104	0	82	23646
2026-01-05 12:40:00.01	233.97	3.70	-58.5	-74.5	3.8	1.49e+00	0	25	104	0	82	23697
2026-01-05 12:40:01.01	234.07	3.75	-58.5	-74.5	3.8	1.49e+00	0	26	104	0	82	23613
2026-01-05 12:40:02.02	234.17	3.80	-58.5	-74.4	3.8	1.49e+00	0	26	104	0	82	23507
2026-01-05 12:40:03.02	234.27	3.85	-58.5	-74.3	3.8	1.49e+00	0	26	104	0	82	23202
2026-01-05 12:40:04.03	234.37	3.91	-58.5	-74.2	3.8	1.49e+00	0	26	104	0	82	22923
2026-01-05 12:40:05.02	234.47	3.95	-58.5	-74.1	3.8	1.49e+00	0	26	104	0	82	22629
2026-01-05 12:40:06.02	234.57	4.01	-58.5	-74.1	3.8	1.49e+00	0	26	104	0	82	22693
2026-01-05 12:40:07.02	234.67	4.06	-58.5	-74.1	3.8	1.49e+00	0	26	104	0	82	22775
2026-01-05 12:40:08.02	234.77	4.11	-58.5	-74.2	3.8	1.49e+00	0	26	104	0	82	22873
2026-01-05 12:40:09.01	234.87	4.16	-58.5	-74.1	3.8	1.49e+00	0	26	104	0	82	22709
2026-01-05 12:40:10.01	234.97	4.21	-58.5	-74.1	3.8	1.49e+00	0	26	104	0	82	22637
2026-01-05 12:40:11.00	235.08	4.26	-58.5	-74.0	3.8	1.49e+00	0	26	104	0	82	22361
2026-01-05 12:40:12.01	235.18	4.31	-58.5	-73.9	3.8	1.49e+00	0	26	104	0	82	22184
2026-01-05 12:40:13.01	235.28	4.36	-58.5	-74.0	3.8	1.49e+00	0	26	104	0	82	22430
2026-01-05 12:40:14.01	235.38	4.41	-58.5	-74.3	3.8	1.49e+00	0	26	104	0	82	23070
2026-01-05 12:40:15.02	235.49	4.46	-58.5	-74.4	3.8	1.49e+00	0	26	104	0	82	23504
2026-01-05 12:40:16.01	235.59	4.51	-58.5	-74.3	3.8	1.49e+00	0	26	104	0	82	23283
2026-01-05 12:40:17.01	235.70	4.56	-58.4	-73.8	3.8	1.49e+00	0	26	104	0	82	21768
2026-01-05 12:40:18.01	235.80	4.61	-58.4	-72.9	3.8	1.49e+00	0	26	104	0	82	19746
2026-01-05 12:40:19.00	235.91	4.66	-58.4	-72.1	3.8	1.49e+00	0	26	104	0	82	17999
2026-01-05 12:40:19.99	236.01	4.71	-58.4	-71.8	3.9	1.47e+00	0	26	104	0	82	17321
2026-01-05 12:40:20.99	236.12	4.76	-58.3	-71.3	4.1	1.43e+00	0	26	0	0	82	16404
2026-01-05 12:40:21.99	236.22	4.81	-58.3	-70.7	4.3	1.40e+00	0	26	0	0	82	15240
2026-01-05 12:40:22.99	236.33	4.86	-58.2	-69.4	4.7	1.15e+00	0	26	0	1048576	82	13167
2026-01-05 12:40:24.00	236.44	4.91	-58.0	-67.0	6.0	3.66e-01	0	26	0	3145728	82	10033
2026-01-05 12:40:25.00	236.54	4.96	-57.5	-64.7	7.7	1.09e-01	0	26	0	5242880	81	8175
2026-01-05 12:40:26.01	236.65	5.01	-57.0	-62.8	9.4	1.97e-02	0	26	0	6291456	80	6912
2026-01-05 12:40:27.00	236.76	5.06	-56.5	-61.4	10.6	2.72e-03	0	26	0	8388608	79	6211
2026-01-05 12:40:27.99	236.86	5.11	-58.4	-74.2	3.8	1.26e+00	0	26	104	9437184	81	24194
2026-01-05 12:40:28.99	236.97	5.16	-56.0	-59.9	11.7	1.66e-01	0	26	0	9437184	78	5559
2026-01-05 12:40:30.00	237.08	5.21	-57.7	-65.0	7.5	3.27e-03	0	26	0	11534336	80	8959
2026-01-05 12:40:30.99	237.19	5.26	-54.0	-56.5	13.5	6.75e-03	0	26	0	13631488	74	4742
2026-01-05 12:40:32.00	237.30	5.32	-53.8	-56.3	13.6	0.00e+00	0	26	0	14680064	74	4629
2026-01-05 12:40:33.00	237.41	5.37	-53.6	-56.0	13.6	0.00e+00	0	26	0	16777216	73	4728
2026-01-05 12:40:34.01	237.52	5.42	-53.7	-56.3	13.5	0.00e+00	0	26	0	18874368	73	4876
2026-01-05 12:40:35.01	237.63	5.47	-53.7	-56.1	13.6	0.00e+00	0	26	0	20971520	73	4803
2026-01-05 12:40:36.01	237.74	5.52	-53.7	-56.1	13.6	0.00e+00	0	26	0	23068672	73	4804
2026-01-05 12:40:37.01	237.86	5.57	-53.6	-56.0	13.7	0.00e+00	0	26	0	24117248	73	4728
2026-01-05 12:40:38.01	237.97	5.62	-53.7	-56.2	13.6	0.00e+00	0	26	0	26214400	73	4861
2026-01-05 12:40:39.01	238.08	5.67	-53.6	-56.1	13.6	0.00e+00	0	26	0	28311552	73	4776
2026-01-05 12:40:40.01	238.19	5.72	-53.7	-56.1	13.6	0.00e+00	0	26	0	30408704	73	4794
2026-01-05 12:40:41.01	238.31	5.77	-53.8	-56.3	13.5	0.00e+00	0	26	0	32505856	73	4924
2026-01-05 12:40:42.00	238.42	5.82	-53.9	-56.5	13.4	0.00e+00	0	26	0	33554432	73	4995
2026-01-05 12:40:43.00	238.53	5.87	-54.0	-56.6	13.4	0.00e+00	0	26	0	35651584	73	5048
2026-01-05 12:40:44.00	238.65	5.92	-53.8	-56.4	13.5	0.00e+00	0	26	0	37748736	73	4931
2026-01-05 12:40:45.00	238.76	5.97	-53.9	-56.4	13.5	0.00e+00	0	26	0	39845888	73	4961
2026-01-05 12:40:46.00	238.87	6.03	-53.8	-56.4	13.5	0.00e+00	0	26	0	41943040	73	4928
2026-01-05 12:40:47.00	238.99	6.08	-53.8	-56.2	13.6	0.00e+00	0	26	0	42991616	73	4859
2026-01-05 12:40:48.00	239.11	6.13	-53.7	-56.4	13.4	0.00e+00	0	26	0	45088768	73	4981
2026-01-05 12:40:49.00	239.22	6.18	-53.9	-56.4	13.5	0.00e+00	0	26	0	47185920	73	4964
2026-01-05 12:40:50.00	239.34	6.23	-53.9	-56.5	13.4	0.00e+00	0	26	0	49283072	73	4990
2026-01-05 12:40:50.99	239.45	6.28	-53.8	-56.3	13.5	0.00e+00	0	26	0	50331648	73	4882
2026-01-05 12:40:51.99	239.57	6.33	-53.9	-56.5	13.4	0.00e+00	0	26	0	52428800	73	5010
2026-01-05 12:40:52.99	239.69	6.38	-53.8	-56.3	13.5	0.00e+00	0	26	0	54525952	73	4919
2026-01-05 12:40:53.99	239.81	6.43	-53.6	-56.0	13.7	0.00e+00	0	26	0	56623104	73	4746
2026-01-05 12:40:55.00	239.92	6.48	-53.8	-56.3	13.5	0.00e+00	0	26	0	58720256	73	4910
2026-01-05 12:40:55.99	240.04	6.53	-53.8	-56.2	13.6	0.00e+00	0	26	0	59768832	73	4856
2026-01-05 12:40:56.99	240.16	6.58	-53.7	-56.2	13.6	0.00e+00	0	26	0	61865984	73	4830
2026-01-05 12:40:58.00	240.28	6.63	-53.8	-56.3	13.6	0.00e+00	0	26	0	63963136	73	4876
2026-01-05 12:40:59.00	240.40	6.68	-53.7	-56.1	13.7	0.00e+00	0	26	0	66060288	73	4785
2026-01-05 12:41:00.01	240.52	6.74	-53.6	-56.0	13.7	0.00e+00	0	26	0	68157440	73	4755
2026-01-05 12:41:01.01	240.64	6.79	-53.6	-56.0	13.7	0.00e+00	0	26	0	69206016	73	4710
2026-01-05 12:41:02.01	240.77	6.84	-53.7	-56.1	13.7	0.00e+00	0	26	0	71303168	73	4766
2026-01-05 12:41:03.01	240.89	6.89	-53.6	-56.0	13.7	0.00e+00	0	26	0	73400320	73	4727
2026-01-05 12:41:04.01	241.01	6.94	-53.6	-56.0	13.7	0.00e+00	0	26	0	75497472	73	4735
2026-01-05 12:41:05.00	241.13	6.99	-53.6	-55.9	13.7	0.00e+00	0	26	0	76546048	73	4688
2026-01-05 12:41:06.00	241.25	7.04	-53.5	-55.9	13.7	0.00e+00	0	26	0	78643200	73	4664
2026-01-05 12:41:06.99	241.37	7.09	-53.3	-55.6	13.9	0.00e+00	0	26	0	80740352	73	4526
2026-01-05 12:41:08.00	241.50	7.14	-53.5	-55.8	13.8	0.00e+00	0	27	0	82837504	73	4619
2026-01-05 12:41:09.00	241.62	7.19	-53.4	-55.7	13.9	0.00e+00	0	27	0	84934656	73	4566
2026-01-05 12:41:10.00	241.75	7.24	-53.4	-55.6	13.9	0.00e+00	0	26	0	85983232	73	4523
2026-01-05 12:41:11.00	241.87	7.29	-53.4	-55.7	13.9	0.00e+00	0	27	0	88080384	73	4577
2026-01-05 12:41:12.00	242.00	7.34	-53.1	-55.2	14.0	0.00e+00	0	26	0	90177536	72	4588
2026-01-05 12:41:12.99	242.12	7.39	-53.0	-55.1	14.1	0.00e+00	0	26	0	92274688	72	4523
2026-01-05 12:41:13.99	242.25	7.44	-53.0	-55.1	14.1	0.00e+00	0	27	0	93323264	72	4537
2026-01-05 12:41:14.99	242.37	7.50	-53.0	-55.1	14.1	0.00e+00	0	27	0	95420416	72	4534
2026-01-05 12:41:15.98	242.50	7.55	-53.0	-55.2	14.1	0.00e+00	0	27	0	97517568	72	4547
2026-01-05 12:41:16.98	242.63	7.60	-53.1	-55.2	14.0	0.00e+00	0	27	0	99614720	72	4596
2026-01-05 12:41:17.97	242.75	7.65	-53.2	-55.4	13.9	0.00e+00	0	27	0	101711872	72	4705
2026-01-05 12:41:18.97	242.88	7.70	-53.3	-55.6	13.8	0.00e+00	0	26	0	102760448	72	4774
2026-01-05 12:41:19.97	243.01	7.75	-53.3	-55.5	13.9	0.00e+00	0	26	0	104857600	72	4739
2026-01-05 12:41:20.97	243.14	7.80	-53.4	-55.6	13.8	0.00e+00	0	26	0	106954752	72	4813
2026-01-05 12:41:21.97	243.27	7.85	-53.3	-55.6	13.9	0.00e+00	0	27	0	109051904	72	4776
2026-01-05 12:41:22.97	243.40	7.90	-53.4	-55.7	13.8	0.00e+00	0	27	0	111149056	72	4825
2026-01-05 12:41:23.97	243.53	7.95	-53.3	-55.6	13.9	0.00e+00	0	26	0	112197632	72	4761
2026-01-05 12:41:24.98	243.66	8.00	-53.3	-55.5	13.9	0.00e+00	0	26	0	114294784	72	4712
2026-01-05 12:41:25.97	243.79	8.05	-53.2	-55.4	13.9	0.00e+00	0	26	0	116391936	72	4677
2026-01-05 12:41:26.97	243.92	8.10	-53.2	-55.3	14.0	0.00e+00	0	26	0	118489088	72	4649
2026-01-05 12:41:27.97	244.05	8.15	-53.3	-55.5	13.9	0.00e+00	0	26	0	120586240	72	4713
2026-01-05 12:41:28.97	244.19	8.20	-53.3	-55.6	13.9	0.00e+00	0	26	0	121634816	72	4766
2026-01-05 12:41:29.97	244.32	8.25	-53.3	-55.5	13.9	0.00e+00	0	27	0	123731968	72	4710
2026-01-05 12:41:30.96	244.45	8.30	-53.3	-55.5	13.9	0.00e+00	0	27	0	125829120	72	4734
2026-01-05 12:41:31.97	244.59	8.35	-53.3	-55.5	13.9	0.00e+00	0	26	0	127926272	72	4714
2026-01-05 12:41:32.97	244.72	8.40	-53.4	-55.7	13.8	0.00e+00	0	27	0	128974848	72	4818
2026-01-05 12:41:33.96	244.85	8.45	-53.5	-55.9	13.7	0.00e+00	0	27	0	131072000	72	4927
2026-01-05 12:41:34.95	244.99	8.50	-53.4	-55.7	13.8	0.00e+00	0	26	0	133169152	72	4832
2026-01-05 12:41:35.96	245.12	8.55	-53.3	-55.5	13.9	0.00e+00	0	26	0	135266304	72	4758
2026-01-05 12:41:36.95	245.26	8.60	-53.4	-55.7	13.8	0.00e+00	0	27	0	137363456	72	4845
2026-01-05 12:41:37.95	245.40	8.65	-53.5	-55.7	13.8	0.00e+00	0	27	0	138412032	72	4863
2026-01-05 12:41:38.95	245.53	8.70	-53.5	-55.8	13.8	0.00e+00	0	27	0	140509184	72	4916
2026-01-05 12:41:39.94	245.67	8.75	-53.5	-55.8	13.8	0.00e+00	0	27	0	142606336	72	4889
2026-01-05 12:41:40.94	245.81	8.80	-53.5	-55.8	13.8	0.00e+00	0	27	0	144703488	72	4881
2026-01-05 12:41:41.94	245.94	8.85	-53.4	-55.6	13.9	0.00e+00	0	27	0	145752064	72	4777
2026-01-05 12:41:42.93	246.08	8.90	-53.5	-55.7	13.8	0.00e+00	0	26	0	147849216	72	4856
2026-01-05 12:41:43.93	246.22	8.95	-53.5	-55.7	13.8	0.00e+00	0	26	0	149946368	72	4867
2026-01-05 12:41:44.93	246.36	9.00	-53.3	-55.5	13.9	0.00e+00	0	26	0	152043520	72	4711
2026-01-05 12:41:45.93	246.50	9.05	-53.2	-55.4	14.0	0.00e+00	0	27	0	154140672	72	4675
2026-01-05 12:41:46.92	246.64	9.10	-53.1	-55.2	14.1	0.00e+00	0	27	0	155189248	72	4595
2026-01-05 12:41:47.92	246.78	9.15	-53.1	-55.2	14.1	0.00e+00	0	27	0	157286400	72	4581
2026-01-05 12:41:48.91	246.92	9.19	-53.1	-55.2	14.1	0.00e+00	0	27	0	159383552	72	4554
2026-01-05 12:41:49.91	247.06	9.24	-53.1	-55.2	14.1	0.00e+00	0	27	0	161480704	72	4557
2026-01-05 12:41:50.90	247.20	9.29	-52.9	-55.0	14.2	0.00e+00	0	27	0	163577856	72	4457
2026-01-05 12:41:51.90	247.35	9.34	-52.9	-54.9	14.2	0.00e+00	0	27	0	164626432	72	4406
2026-01-05 12:41:52.90	247.49	9.39	-52.8	-54.8	14.3	0.00e+00	0	27	0	166723584	72	4374
2026-01-05 12:41:53.90	247.63	9.44	-52.7	-54.6	14.3	0.00e+00	0	27	0	168820736	71	4524
2026-01-05 12:41:54.90	247.78	9.49	-52.7	-54.7	14.2	0.00e+00	0	27	0	170917888	71	4568
2026-01-05 12:41:55.89	247.92	9.54	-52.7	-54.7	14.2	0.00e+00	0	27	0	171966464	71	4596
2026-01-05 12:41:56.89	248.07	9.59	-52.6	-54.5	14.3	0.00e+00	0	27	0	174063616	71	4475
2026-01-05 12:41:57.88	248.21	9.64	-52.6	-54.6	14.2	0.00e+00	0	27	0	176160768	71	4513
2026-01-05 12:41:58.87	248.36	9.68	-52.4	-54.3	14.4	0.00e+00	0	27	0	178257920	71	4373
2026-01-05 12:41:59.87	248.50	9.73	-52.2	-54.1	14.5	0.00e+00	0	27	0	180355072	71	4256
2026-01-05 12:42:00.87	248.65	9.78	-52.1	-53.9	14.4	0.00e+00	0	27	0	181403648	70	4412
2026-01-05 12:42:01.87	248.80	9.83	-52.0	-53.8	14.5	0.00e+00	0	27	0	183500800	70	4388
2026-01-05 12:42:02.87	248.94	9.88	-52.0	-53.8	14.5	0.00e+00	0	27	0	185597952	70	4345
2026-01-05 12:42:03.86	249.09	9.93	-51.8	-53.6	14.6	0.00e+00	0	27	0	187695104	70	4268
2026-01-05 12:42:04.86	249.24	9.98	-51.9	-53.7	14.6	0.00e+00	0	26	0	189792256	70	4298
2026-01-05 12:42:05.86	249.39	10.02	-52.0	-53.8	14.5	0.00e+00	0	27	0	190840832	70	4341
2026-01-05 12:42:06.86	249.54	10.07	-52.1	-54.0	14.4	0.00e+00	0	27	0	192937984	70	4446
2026-01-05 12:42:07.86	249.69	10.12	-52.1	-54.0	14.4	0.00e+00	0	27	0	195035136	70	4443
2026-01-05 12:42:08.86	249.84	10.17	-52.3	-54.2	14.3	0.00e+00	0	27	0	197132288	70	4579
2026-01-05 12:42:09.85	249.99	10.22	-52.3	-54.2	14.3	0.00e+00	0	26	0	198180864	70	4592
2026-01-05 12:42:10.84	250.14	10.26	-52.4	-54.3	14.3	0.00e+00	0	27	0	200278016	70	4615
2026-01-05 12:42:11.84	250.29	10.31	-52.4	-54.3	14.3	0.00e+00	0	27	0	202375168	70	4608
2026-01-05 12:42:12.84	250.45	10.36	-52.4	-54.3	14.3	0.00e+00	0	27	0	204472320	70	4625
2026-01-05 12:42:13.84	250.60	10.41	-52.3	-54.2	14.3	0.00e+00	0	27	0	206569472	70	4587
2026-01-05 12:42:14.83	250.75	10.45	-52.3	-54.1	14.3	0.00e+00	0	27	0	207618048	70	4539
2026-01-05 12:42:15.84	250.91	10.50	-52.3	-54.2	14.3	0.00e+00	0	27	0	209715200	70	4588
2026-01-05 12:42:16.83	251.06	10.55	-52.2	-54.1	14.4	0.00e+00	0	27	0	211812352	70	4523
2026-01-05 12:42:17.83	251.22	10.60	-52.2	-54.0	14.4	0.00e+00	0	27	0	213909504	70	4479
2026-01-05 12:42:18.83	251.37	10.64	-52.2	-54.0	14.4	0.00e+00	0	27	0	214958080	70	4493
2026-01-05 12:42:19.83	251.53	10.69	-52.3	-54.1	14.4	0.00e+00	0	27	0	217055232	70	4530
2026-01-05 12:42:20.82	251.68	10.74	-52.2	-54.1	14.4	0.00e+00	0	27	0	219152384	70	4513
2026-01-05 12:42:21.83	251.84	10.79	-52.4	-54.2	14.3	0.00e+00	0	27	0	221249536	70	4589
2026-01-05 12:42:22.82	252.00	10.83	-52.4	-54.3	14.3	0.00e+00	0	27	0	223346688	70	4603
2026-01-05 12:42:23.82	252.16	10.88	-52.4	-54.3	14.3	0.00e+00	0	27	0	224395264	70	4647
2026-01-05 12:42:24.82	252.31	10.93	-52.6	-54.5	14.2	0.00e+00	0	27	0	226492416	70	4745
2026-01-05 12:42:25.82	252.47	10.97	-52.5	-54.4	14.2	0.00e+00	0	27	0	228589568	70	4691
2026-01-05 12:42:26.82	252.63	11.02	-52.4	-54.3	14.3	0.00e+00	0	27	0	230686720	70	4642
2026-01-05 12:42:27.82	252.79	11.06	-52.5	-54.4	14.2	0.00e+00	0	27	0	232783872	70	4668
2026-01-05 12:42:28.82	252.95	11.11	-52.5	-54.4	14.3	0.00e+00	0	27	0	233832448	70	4678
2026-01-05 12:42:29.81	253.11	11.16	-52.4	-54.3	14.3	0.00e+00	0	27	0	235929600	70	4611
2026-01-05 12:42:30.81	253.27	11.20	-52.4	-54.4	14.3	0.00e+00	0	27	0	238026752	70	4655
2026-01-05 12:42:31.80	253.43	11.25	-52.4	-54.4	14.2	0.00e+00	0	27	0	240123904	70	4658
2026-01-05 12:42:32.80	253.60	11.29	-52.5	-54.4	14.2	0.00e+00	0	27	0	241172480	70	4689
2026-01-05 12:42:33.80	253.76	11.34	-52.7	-54.6	14.2	0.00e+00	0	27	0	243269632	70	4814
2026-01-05 12:42:34.80	253.92	11.39	-52.5	-54.5	14.2	0.00e+00	0	27	0	245366784	70	4721
2026-01-05 12:42:35.79	254.09	11.43	-52.5	-54.4	14.2	0.00e+00	0	27	0	247463936	70	4697
2026-01-05 12:42:36.79	254.25	11.48	-52.4	-54.3	14.3	0.00e+00	0	27	0	249561088	70	4631
2026-01-05 12:42:37.79	254.41	11.52	-52.3	-54.1	14.4	0.00e+00	0	27	0	250609664	70	4533
2026-01-05 12:42:38.79	254.58	11.57	-52.1	-53.9	14.5	0.00e+00	0	27	0	252706816	70	4432
2026-01-05 12:42:39.79	254.75	11.61	-52.3	-54.1	14.4	0.00e+00	0	27	0	254803968	70	4514
2026-01-05 12:42:40.79	254.91	11.66	-52.3	-54.1	14.4	0.00e+00	0	27	0	256901120	70	4535
2026-01-05 12:42:41.79	255.08	11.70	-52.4	-54.2	14.3	0.00e+00	0	27	0	257949696	70	4593
2026-01-05 12:42:42.78	255.24	11.74	-52.5	-54.4	14.3	0.00e+00	0	27	0	260046848	70	4690
2026-01-05 12:42:43.78	255.41	11.79	-52.8	-54.8	14.1	0.00e+00	0	27	0	262144000	70	4889
2026-01-05 12:42:44.78	255.58	11.83	-52.8	-54.7	14.1	0.00e+00	0	27	0	264241152	70	4864
2026-01-05 12:42:45.77	255.75	11.88	-52.8	-54.8	14.1	0.00e+00	0	27	0	266338304	70	4895
2026-01-05 12:42:46.77	255.92	11.92	-52.8	-54.8	14.1	0.00e+00	0	27	0	267386880	70	4871
2026-01-05 12:42:47.77	256.09	11.96	-52.7	-54.6	14.1	0.00e+00	0	27	0	269484032	70	4805
2026-01-05 12:42:48.75	256.25	12.01	-52.6	-54.5	14.2	0.00e+00	0	27	0	271581184	70	4745
2026-01-05 12:42:49.75	256.42	12.05	-52.6	-54.6	14.2	0.00e+00	0	27	0	273678336	70	4777
2026-01-05 12:42:50.74	256.59	12.09	-52.7	-54.7	14.1	0.00e+00	0	26	0	274726912	70	4841
2026-01-05 12:42:51.74	256.77	12.14	-52.7	-54.7	14.1	0.00e+00	0	27	0	276824064	70	4846
2026-01-05 12:42:52.73	256.94	12.18	-52.7	-54.7	14.1	0.00e+00	0	27	0	278921216	70	4818
2026-01-05 12:42:53.73	257.11	12.22	-52.7	-54.6	14.2	0.00e+00	0	27	0	281018368	70	4805
2026-01-05 12:42:54.73	257.28	12.27	-52.7	-54.7	14.2	0.00e+00	0	27	0	283115520	70	4845
2026-01-05 12:42:55.73	257.46	12.31	-52.9	-54.9	14.0	0.00e+00	0	27	0	284164096	70	4948
2026-01-05 12:42:56.72	257.63	12.35	-53.0	-55.0	14.1	0.00e+00	0	27	0	286261248	71	4737
2026-01-05 12:42:57.72	257.80	12.39	-52.9	-55.0	14.2	0.00e+00	0	27	0	288358400	71	4710
2026-01-05 12:42:58.71	257.98	12.43	-52.8	-54.8	14.2	0.00e+00	0	27	0	290455552	71	4617
2026-01-05 12:42:59.70	258.15	12.48	-52.8	-54.8	14.2	0.00e+00	0	27	0	292552704	71	4636
2026-01-05 12:43:00.70	258.33	12.52	-52.9	-54.9	14.2	0.00e+00	0	27	0	293601280	71	4676
2026-01-05 12:43:01.68	258.50	12.56	-52.8	-54.7	14.2	0.00e+00	0	27	0	295698432	71	4572
2026-01-05 12:43:02.68	258.68	12.60	-52.8	-54.7	14.3	0.00e+00	0	27	0	297795584	71	4590
2026-01-05 12:43:03.68	258.85	12.64	-52.9	-54.9	14.2	0.00e+00	0	27	0	299892736	71	4658
2026-01-05 12:43:04.70	259.04	12.68	-52.8	-54.8	14.2	0.00e+00	0	27	0	301989888	71	4641
2026-01-05 12:43:05.70	259.21	12.72	-52.9	-54.9	14.2	0.00e+00	0	27	0	303038464	71	4671
2026-01-05 12:43:06.70	259.39	12.76	-52.9	-55.0	14.1	0.00e+00	0	27	0	305135616	71	4706
2026-01-05 12:43:07.70	259.57	12.81	-52.9	-54.9	14.1	0.00e+00	0	27	0	307232768	71	4705
2026-01-05 12:43:08.70	259.75	12.85	-52.9	-54.9	14.1	0.00e+00	0	27	0	309329920	71	4696
2026-01-05 12:43:09.70	259.93	12.89	-53.1	-55.1	14.1	0.00e+00	0	27	0	310378496	71	4810
2026-01-05 12:43:10.70	260.11	12.93	-53.2	-55.3	14.0	0.00e+00	0	27	0	312475648	71	4897
2026-01-05 12:43:11.71	260.30	12.97	-53.3	-55.5	13.9	0.00e+00	0	27	0	314572800	71	5009
2026-01-05 12:43:12.71	260.48	13.01	-53.3	-55.4	13.9	0.00e+00	0	27	0	316669952	71	4978
2026-01-05 12:43:13.72	260.66	13.04	-53.3	-55.5	13.9	0.00e+00	0	27	0	318767104	71	4998
2026-01-05 12:43:14.73	260.85	13.08	-53.5	-55.7	13.9	0.00e+00	0	27	0	319815680	72	4826
2026-01-05 12:43:15.72	261.03	13.12	-53.5	-55.7	13.9	0.00e+00	0	27	0	321912832	72	4815
2026-01-05 12:43:16.72	261.21	13.16	-53.4	-55.5	14.0	0.00e+00	0	27	0	324009984	72	4747
2026-01-05 12:43:17.73	261.40	13.20	-53.4	-55.6	13.9	0.00e+00	0	27	0	326107136	72	4780
2026-01-05 12:43:18.73	261.58	13.24	-53.5	-55.7	13.9	0.00e+00	0	27	0	328204288	72	4824
2026-01-05 12:43:19.73	261.77	13.28	-53.5	-55.7	13.9	0.00e+00	0	27	0	329252864	72	4861
2026-01-05 12:43:20.73	261.95	13.32	-53.6	-55.8	13.8	0.00e+00	0	27	0	331350016	72	4910
2026-01-05 12:43:21.72	262.14	13.35	-53.7	-56.0	13.7	0.00e+00	0	27	0	333447168	72	5009
2026-01-05 12:43:22.72	262.32	13.39	-54.0	-56.3	13.7	0.00e+00	0	27	0	335544320	73	4916
2026-01-05 12:43:23.72	262.51	13.43	-53.9	-56.2	13.7	0.00e+00	0	27	0	336592896	73	4853
2026-01-05 12:43:24.72	262.70	13.46	-53.9	-56.3	13.7	0.00e+00	0	27	0	338690048	73	4876
2026-01-05 12:43:25.73	262.89	13.50	-54.0	-56.3	13.7	0.00e+00	0	27	0	340787200	73	4905
2026-01-05 12:43:26.73	263.08	13.54	-53.8	-56.1	13.8	0.00e+00	0	27	0	342884352	73	4798
2026-01-05 12:43:27.72	263.26	13.57	-54.0	-56.3	13.7	0.00e+00	0	27	0	344981504	73	4905
2026-01-05 12:43:28.72	263.45	13.61	-53.8	-56.1	13.8	0.00e+00	0	27	0	346030080	73	4799
2026-01-05 12:43:29.71	263.64	13.65	-54.0	-56.4	13.6	0.00e+00	0	27	0	348127232	73	4953
2026-01-05 12:43:30.71	263.83	13.68	-54.2	-56.6	13.5	0.00e+00	0	27	0	350224384	73	5087
2026-01-05 12:43:31.72	264.02	13.72	-54.2	-56.7	13.5	0.00e+00	0	27	0	352321536	73	5108
2026-01-05 12:43:32.72	264.21	13.75	-54.2	-56.6	13.5	0.00e+00	0	27	0	354418688	73	5059
2026-01-05 12:43:33.71	264.40	13.79	-54.2	-56.6	13.6	0.00e+00	0	27	0	355467264	73	5060
2026-01-05 12:43:34.71	264.59	13.82	-54.1	-56.5	13.6	0.00e+00	0	27	0	357564416	73	4995
2026-01-05 12:43:35.71	264.79	13.86	-54.0	-56.3	13.7	0.00e+00	0	27	0	359661568	73	4888
2026-01-05 12:43:36.71	264.98	13.89	-53.8	-56.0	13.8	0.00e+00	0	27	0	361758720	73	4749
2026-01-05 12:43:37.71	265.17	13.92	-53.7	-56.0	13.9	0.00e+00	0	27	0	363855872	73	4710
2026-01-05 12:43:38.72	265.37	13.96	-53.9	-56.2	13.7	0.00e+00	0	27	0	364904448	73	4817
2026-01-05 12:43:39.72	265.56	13.99	-53.9	-56.3	13.7	0.00e+00	0	27	0	367001600	73	4875
2026-01-05 12:43:40.71	265.75	14.02	-53.9	-56.2	13.7	0.00e+00	0	27	0	369098752	73	4866
2026-01-05 12:43:41.71	265.95	14.06	-54.3	-56.8	13.5	0.00e+00	0	27	0	371195904	73	5191
2026-01-05 12:43:42.71	266.14	14.09	-54.1	-56.5	13.6	0.00e+00	0	27	0	372244480	73	5036
2026-01-05 12:43:43.71	266.34	14.12	-54.2	-56.6	13.5	0.00e+00	0	27	0	374341632	73	5097
2026-01-05 12:43:44.70	266.53	14.15	-53.9	-56.3	13.7	0.00e+00	0	27	0	376438784	73	4882
2026-01-05 12:43:45.70	266.73	14.19	-54.0	-56.4	13.7	0.00e+00	0	27	0	378535936	73	4960
2026-01-05 12:43:46.70	266.93	14.22	-54.0	-56.3	13.7	0.00e+00	0	27	0	380633088	73	4903
2026-01-05 12:43:47.70	267.12	14.25	-54.0	-56.3	13.7	0.00e+00	0	27	0	381681664	73	4894
2026-01-05 12:43:48.71	267.32	14.28	-53.6	-55.8	13.9	0.00e+00	0	27	0	383778816	73	4649
2026-01-05 12:43:49.70	267.52	14.31	-53.5	-55.6	14.1	0.00e+00	0	27	0	385875968	73	4511
2026-01-05 12:43:50.70	267.72	14.34	-53.5	-55.6	14.1	0.00e+00	0	27	0	387973120	73	4529
2026-01-05 12:43:51.70	267.92	14.37	-53.2	-55.3	14.2	0.00e+00	0	27	0	390070272	73	4362
2026-01-05 12:43:52.70	268.12	14.40	-53.1	-55.1	14.2	0.00e+00	0	27	0	391118848	72	4504
2026-01-05 12:43:53.71	268.32	14.43	-52.9	-54.8	14.3	0.00e+00	0	27	0	393216000	72	4367
2026-01-05 12:43:54.71	268.52	14.46	-52.7	-54.6	14.3	0.00e+00	0	27	0	395313152	71	4496
2026-01-05 12:43:55.71	268.72	14.49	-52.6	-54.4	14.4	0.00e+00	0	27	0	397410304	71	4424
2026-01-05 12:43:56.71	268.92	14.52	-52.5	-54.3	14.4	0.00e+00	0	27	0	399507456	71	4373
2026-01-05 12:43:57.71	269.12	14.55	-52.4	-54.2	14.4	0.00e+00	0	27	0	400556032	71	4340
2026-01-05 12:43:58.71	269.32	14.58	-52.4	-54.2	14.5	0.00e+00	0	27	0	402653184	71	4334
2026-01-05 12:43:59.72	269.52	14.60	-52.5	-54.4	14.4	0.00e+00	0	27	0	404750336	71	4413
2026-01-05 12:44:00.73	269.73	14.63	-52.4	-54.2	14.5	0.00e+00	0	27	0	406847488	71	4307
2026-01-05 12:44:01.73	269.93	14.66	-52.5	-54.3	14.4	0.00e+00	0	27	0	407896064	71	4384
2026-01-05 12:44:02.73	270.13	14.69	-52.3	-54.1	14.5	0.00e+00	0	27	0	409993216	71	4290
2026-01-05 12:44:03.73	270.34	14.71	-52.5	-54.4	14.4	0.00e+00	0	27	0	412090368	71	4392
2026-01-05 12:44:04.73	270.54	14.74	-52.7	-54.5	14.4	0.00e+00	0	27	0	414187520	71	4491
2026-01-05 12:44:05.73	270.74	14.77	-52.7	-54.6	14.3	0.00e+00	0	27	0	416284672	71	4497
2026-01-05 12:44:06.74	270.95	14.79	-52.7	-54.6	14.3	0.00e+00	0	27	0	417333248	71	4513
2026-01-05 12:44:07.73	271.15	14.82	-52.6	-54.5	14.4	0.00e+00	0	27	0	419430400	71	4476
2026-01-05 12:44:08.74	271.36	14.84	-52.7	-54.5	14.3	0.00e+00	0	27	0	421527552	71	4487
2026-01-05 12:44:09.75	271.57	14.87	-52.5	-54.4	14.4	0.00e+00	0	27	0	423624704	71	4404
2026-01-05 12:44:10.75	271.77	14.89	-52.6	-54.4	14.4	0.00e+00	0	27	0	425721856	71	4413
2026-01-05 12:44:11.76	271.98	14.92	-52.4	-54.2	14.5	0.00e+00	0	27	0	426770432	71	4304
2026-01-05 12:44:12.76	272.19	14.94	-52.5	-54.4	14.4	0.00e+00	0	27	0	428867584	71	4396
2026-01-05 12:44:13.76	272.39	14.96	-52.6	-54.5	14.4	0.00e+00	0	27	0	430964736	71	4478
2026-01-05 12:44:14.76	272.60	14.99	-53.0	-55.0	14.1	0.00e+00	0	27	0	433061888	71	4736
2026-01-05 12:44:15.77	272.81	15.01	-53.0	-55.0	14.2	0.00e+00	0	27	0	435159040	71	4722
2026-01-05 12:44:16.77	273.02	15.03	-53.0	-55.0	14.1	0.00e+00	0	27	0	436207616	71	4753
2026-01-05 12:44:17.77	273.23	15.06	-52.8	-54.8	14.2	0.00e+00	0	27	0	438304768	71	4615
2026-01-05 12:44:18.78	273.44	15.08	-52.9	-54.8	14.2	0.00e+00	0	27	0	440401920	71	4634
2026-01-05 12:44:19.78	273.64	15.10	-52.7	-54.6	14.3	0.00e+00	0	27	0	442499072	71	4515
2026-01-05 12:44:20.78	273.85	15.12	-52.6	-54.5	14.4	0.00e+00	0	27	0	444596224	71	4443
2026-01-05 12:44:21.78	274.06	15.14	-52.7	-54.6	14.3	0.00e+00	0	27	0	445644800	71	4537
2026-01-05 12:44:22.79	274.27	15.16	-52.8	-54.7	14.3	0.00e+00	0	27	0	447741952	71	4592
2026-01-05 12:44:23.79	274.48	15.18	-53.0	-55.0	14.2	0.00e+00	0	27	0	449839104	71	4725
2026-01-05 12:44:24.79	274.69	15.20	-53.2	-55.3	14.0	0.00e+00	0	27	0	451936256	71	4877
2026-01-05 12:44:25.79	274.90	15.22	-53.1	-55.1	14.1	0.00e+00	0	27	0	452984832	71	4812
2026-01-05 12:44:26.78	275.11	15.24	-53.3	-55.4	14.0	0.00e+00	0	27	0	455081984	71	4931
2026-01-05 12:44:27.78	275.32	15.26	-53.1	-55.0	14.1	0.00e+00	0	27	0	457179136	71	4752
2026-01-05 12:44:28.78	275.53	15.28	-53.1	-55.1	14.1	0.00e+00	0	27	0	459276288	71	4813
2026-01-05 12:44:29.78	275.74	15.30	-53.3	-55.3	14.0	0.00e+00	0	27	0	461373440	71	4917
2026-01-05 12:44:30.79	275.96	15.32	-53.5	-55.7	13.9	0.00e+00	0	27	0	462422016	72	4829
2026-01-05 12:44:31.79	276.17	15.33	-53.8	-56.1	13.7	0.00e+00	0	27	0	464519168	72	5077
2026-01-05 12:44:32.78	276.38	15.35	-54.3	-56.7	13.6	0.00e+00	0	27	0	466616320	73	5153
2026-01-05 12:44:33.78	276.59	15.37	-54.2	-56.6	13.6	0.00e+00	0	27	0	468713472	73	5065
2026-01-05 12:44:34.79	276.81	15.38	-54.0	-56.3	13.7	0.00e+00	0	27	0	470810624	73	4890
2026-01-05 12:44:35.79	277.02	15.40	-53.6	-55.7	14.1	0.00e+00	0	27	0	471859200	73	4562
2026-01-05 12:44:36.78	277.23	15.41	-53.2	-55.2	14.2	0.00e+00	0	27	0	473956352	72	4560
2026-01-05 12:44:37.78	277.44	15.43	-53.0	-54.9	14.3	0.00e+00	0	27	0	476053504	72	4410
2026-01-05 12:44:38.77	277.65	15.45	-52.7	-54.6	14.5	0.00e+00	0	27	0	478150656	72	4271
2026-01-05 12:44:39.76	277.86	15.46	-52.7	-54.6	14.5	0.00e+00	0	27	0	479199232	72	4256
2026-01-05 12:44:40.76	278.08	15.47	-53.0	-54.9	14.3	0.00e+00	0	27	0	481296384	72	4432
2026-01-05 12:44:41.75	278.29	15.49	-53.2	-55.2	14.2	0.00e+00	0	27	0	483393536	72	4577
2026-01-05 12:44:42.74	278.50	15.50	-53.4	-55.5	14.0	0.00e+00	0	27	0	485490688	72	4722
2026-01-05 12:44:43.74	278.72	15.51	-53.4	-55.5	14.0	0.00e+00	0	27	0	487587840	72	4741
2026-01-05 12:44:44.74	278.93	15.53	-53.3	-55.3	14.1	0.00e+00	0	27	0	488636416	72	4630
2026-01-05 12:44:45.73	279.14	15.54	-52.9	-54.8	14.4	0.00e+00	0	27	0	490733568	72	4352
2026-01-05 12:44:46.73	279.36	15.55	-52.7	-54.5	14.4	0.00e+00	0	27	0	492830720	71	4474
2026-01-05 12:44:47.72	279.57	15.56	-52.5	-54.3	14.5	0.00e+00	0	27	0	494927872	71	4363
2026-01-05 12:44:48.71	279.78	15.57	-52.5	-54.3	14.4	0.00e+00	0	27	0	495976448	71	4374
2026-01-05 12:44:49.71	280.00	15.59	-52.5	-54.3	14.4	0.00e+00	0	27	0	498073600	71	4384
2026-01-05 12:44:50.71	280.21	15.60	-52.7	-54.6	14.3	0.00e+00	0	27	0	500170752	71	4518
2026-01-05 12:44:51.70	280.43	15.61	-52.8	-54.7	14.3	0.00e+00	0	27	0	502267904	71	4568
2026-01-05 12:44:52.69	280.64	15.62	-52.7	-54.5	14.4	0.00e+00	0	27	0	504365056	71	4493
2026-01-05 12:44:53.69	280.85	15.63	-52.6	-54.4	14.4	0.00e+00	0	27	0	505413632	71	4400
2026-01-05 12:44:54.69	281.07	15.63	-52.6	-54.4	14.4	0.00e+00	0	27	0	507510784	71	4441
2026-01-05 12:44:55.68	281.28	15.64	-52.6	-54.4	14.4	0.00e+00	0	27	0	509607936	71	4431
2026-01-05 12:44:56.67	281.50	15.65	-52.8	-54.7	14.3	0.00e+00	0	27	0	511705088	71	4557
2026-01-05 12:44:57.67	281.71	15.66	-52.9	-54.8	14.2	0.00e+00	0	27	0	512753664	71	4643
2026-01-05 12:44:58.67	281.93	15.67	-53.3	-55.3	14.0	0.00e+00	0	27	0	514850816	71	4906
2026-01-05 12:44:59.66	282.14	15.67	-53.4	-55.5	14.1	0.00e+00	0	27	0	516947968	72	4708
2026-01-05 12:45:00.65	282.36	15.68	-53.4	-55.5	14.1	0.00e+00	0	27	0	519045120	72	4721
2026-01-05 12:45:01.66	282.58	15.69	-53.3	-55.3	14.2	0.00e+00	0	27	0	521142272	72	4601
2026-01-05 12:45:02.66	282.79	15.69	-53.2	-55.1	14.2	0.00e+00	0	27	0	522190848	72	4533
2026-01-05 12:45:03.66	283.01	15.70	-53.0	-54.9	14.3	0.00e+00	0	27	0	524288000	72	4420
2026-01-05 12:45:04.64	283.22	15.70	-53.2	-55.2	14.2	0.00e+00	0	27	0	526385152	72	4579
2026-01-05 12:45:05.64	283.44	15.71	-53.4	-55.5	14.1	0.00e+00	0	27	0	528482304	72	4718
2026-01-05 12:45:06.64	283.66	15.71	-53.7	-55.8	13.9	0.00e+00	0	27	0	529530880	72	4924
2026-01-05 12:45:07.64	283.87	15.72	-53.8	-56.0	13.8	0.00e+00	0	27	0	531628032	72	5038
2026-01-05 12:45:08.64	284.09	15.72	-53.8	-56.0	13.8	0.00e+00	0	27	0	533725184	72	5010
2026-01-05 12:45:09.63	284.31	15.73	-53.9	-56.1	13.9	0.00e+00	0	27	0	535822336	73	4791
2026-01-05 12:45:10.62	284.52	15.73	-53.6	-55.8	14.0	0.00e+00	0	27	0	537919488	73	4607
2026-01-05 12:45:11.62	284.74	15.73	-53.5	-55.6	14.1	0.00e+00	0	27	0	538968064	73	4517
2026-01-05 12:45:12.62	284.96	15.73	-53.5	-55.5	14.2	0.00e+00	0	27	0	541065216	73	4469
2026-01-05 12:45:13.62	285.17	15.74	-53.4	-55.5	14.2	0.00e+00	0	27	0	543162368	73	4461
2026-01-05 12:45:14.62	285.39	15.74	-53.5	-55.6	14.1	0.00e+00	0	27	0	545259520	73	4520
2026-01-05 12:45:15.62	285.61	15.74	-53.5	-55.6	14.1	0.00e+00	0	27	0	547356672	73	4511
2026-01-05 12:45:16.62	285.82	15.74	-53.5	-55.6	14.1	0.00e+00	0	27	0	548405248	73	4495
2026-01-05 12:45:17.61	286.04	15.74	-53.5	-55.5	14.2	0.00e+00	0	27	0	550502400	73	4465
2026-01-05 12:45:18.61	286.26	15.74	-53.2	-55.2	14.3	0.00e+00	0	27	0	552599552	73	4322
2026-01-05 12:45:19.61	286.47	15.74	-53.2	-55.1	14.2	0.00e+00	0	27	0	554696704	72	4527
2026-01-05 12:45:20.60	286.69	15.74	-53.3	-55.3	14.2	0.00e+00	0	27	0	556793856	72	4628
2026-01-05 12:45:21.60	286.91	15.74	-53.4	-55.4	14.1	0.00e+00	0	27	0	557842432	72	4696
2026-01-05 12:45:22.60	287.12	15.73	-53.4	-55.4	14.1	0.00e+00	0	27	0	559939584	72	4681
2026-01-05 12:45:23.60	287.34	15.73	-53.4	-55.4	14.1	0.00e+00	0	27	0	562036736	72	4677
2026-01-05 12:45:24.59	287.55	15.73	-53.2	-55.2	14.2	0.00e+00	0	27	0	564133888	72	4568
2026-01-05 12:45:25.60	287.77	15.73	-53.0	-54.9	14.3	0.00e+00	0	27	0	565182464	72	4433
2026-01-05 12:45:26.60	287.99	15.72	-52.8	-54.6	14.5	0.00e+00	0	27	0	567279616	72	4265
2026-01-05 12:45:27.59	288.21	15.72	-52.6	-54.3	14.4	0.00e+00	0	27	0	569376768	71	4375
2026-01-05 12:45:28.58	288.42	15.72	-52.6	-54.4	14.4	0.00e+00	0	27	0	571473920	71	4392
2026-01-05 12:45:29.58	288.64	15.71	-52.7	-54.6	14.4	0.00e+00	0	27	0	573571072	71	4507
2026-01-05 12:45:30.58	288.85	15.71	-53.0	-54.9	14.3	0.00e+00	0	27	0	574619648	71	4679
2026-01-05 12:45:31.58	289.07	15.70	-53.1	-55.1	14.2	0.00e+00	0	27	0	576716800	71	4774
2026-01-05 12:45:32.57	289.29	15.70	-53.1	-55.1	14.1	0.00e+00	0	27	0	578813952	71	4793
2026-01-05 12:45:33.57	289.50	15.69	-53.0	-54.9	14.2	0.00e+00	0	27	0	580911104	71	4681
2026-01-05 12:45:34.57	289.72	15.69	-52.9	-54.7	14.3	0.00e+00	0	27	0	581959680	71	4591
2026-01-05 12:45:35.57	289.94	15.68	-52.7	-54.6	14.4	0.00e+00	0	27	0	584056832	71	4507
2026-01-05 12:45:36.57	290.15	15.67	-52.6	-54.4	14.5	0.00e+00	0	27	0	586153984	71	4414
2026-01-05 12:45:37.57	290.37	15.67	-52.8	-54.7	14.3	0.00e+00	0	27	0	588251136	71	4552
2026-01-05 12:45:38.57	290.58	15.66	-52.9	-54.9	14.3	0.00e+00	0	27	0	590348288	71	4652
2026-01-05 12:45:39.57	290.80	15.65	-53.0	-54.9	14.2	0.00e+00	0	27	0	591396864	71	4690
2026-01-05 12:45:40.57	291.02	15.64	-53.1	-55.0	14.2	0.00e+00	0	27	0	593494016	71	4736
2026-01-05 12:45:41.57	291.23	15.63	-52.9	-54.8	14.3	0.00e+00	0	27	0	595591168	71	4633
2026-01-05 12:45:42.56	291.44	15.62	-52.7	-54.5	14.4	0.00e+00	0	27	0	597688320	71	4478
2026-01-05 12:45:43.56	291.66	15.61	-52.6	-54.4	14.5	0.00e+00	0	27	0	599785472	71	4430
2026-01-05 12:45:44.56	291.88	15.60	-52.4	-54.2	14.5	0.00e+00	0	27	0	600834048	71	4321
2026-01-05 12:45:45.57	292.09	15.59	-52.2	-53.9	14.6	0.00e+00	0	27	0	602931200	70	4398
2026-01-05 12:45:46.57	292.31	15.58	-52.2	-54.0	14.5	0.00e+00	0	27	0	605028352	70	4451
2026-01-05 12:45:47.57	292.52	15.57	-52.2	-54.0	14.5	0.00e+00	0	27	0	607125504	70	4442
2026-01-05 12:45:48.56	292.73	15.56	-52.5	-54.2	14.4	0.00e+00	0	27	0	609222656	70	4594
2026-01-05 12:45:49.56	292.95	15.55	-52.7	-54.5	14.3	0.00e+00	0	27	0	610271232	70	4725
2026-01-05 12:45:50.55	293.16	15.54	-52.9	-54.8	14.2	0.00e+00	0	27	0	612368384	70	4887
2026-01-05 12:45:51.56	293.38	15.52	-52.9	-54.8	14.3	0.00e+00	0	27	0	614465536	71	4650
2026-01-05 12:45:52.55	293.59	15.51	-53.0	-54.9	14.2	0.00e+00	0	27	0	616562688	71	4687
2026-01-05 12:45:53.55	293.80	15.50	-53.0	-54.9	14.2	0.00e+00	0	27	0	617611264	71	4695
2026-01-05 12:45:54.54	294.02	15.48	-52.9	-54.8	14.3	0.00e+00	0	27	0	619708416	71	4642
2026-01-05 12:45:55.54	294.23	15.47	-52.6	-54.4	14.4	0.00e+00	0	27	0	621805568	71	4421
2026-01-05 12:45:56.55	294.44	15.46	-52.4	-54.2	14.5	0.00e+00	0	27	0	623902720	71	4311
2026-01-05 12:45:57.54	294.65	15.44	-52.4	-54.1	14.6	0.00e+00	0	27	0	625999872	71	4264
2026-01-05 12:45:58.54	294.87	15.43	-52.4	-54.1	14.5	0.00e+00	0	27	0	627048448	71	4269
2026-01-05 12:45:59.53	295.08	15.41	-52.5	-54.3	14.4	0.00e+00	0	27	0	629145600	71	4371
2026-01-05 12:46:00.54	295.29	15.39	-52.5	-54.3	14.4	0.00e+00	0	27	0	631242752	71	4391
2026-01-05 12:46:01.53	295.50	15.38	-52.6	-54.5	14.4	0.00e+00	0	27	0	633339904	71	4459
2026-01-05 12:46:02.54	295.72	15.36	-52.8	-54.6	14.3	0.00e+00	0	27	0	634388480	71	4545
2026-01-05 12:46:03.55	295.93	15.34	-52.9	-54.8	14.2	0.00e+00	0	27	0	636485632	71	4615
2026-01-05 12:46:04.55	296.14	15.33	-52.9	-54.9	14.2	0.00e+00	0	27	0	638582784	71	4661
2026-01-05 12:46:05.55	296.35	15.31	-52.9	-54.9	14.2	0.00e+00	0	27	0	640679936	71	4656
2026-01-05 12:46:06.55	296.56	15.29	-53.1	-55.0	14.1	0.00e+00	0	27	0	642777088	71	4745
2026-01-05 12:46:07.55	296.77	15.27	-52.9	-54.9	14.2	0.00e+00	0	27	0	643825664	71	4652
2026-01-05 12:46:08.55	296.99	15.25	-53.1	-55.1	14.2	0.00e+00	0	27	0	645922816	71	4794
2026-01-05 12:46:09.55	297.20	15.24	-52.9	-54.8	14.3	0.00e+00	0	27	0	648019968	71	4627
2026-01-05 12:46:10.55	297.41	15.22	-52.7	-54.5	14.4	0.00e+00	0	27	0	650117120	71	4486
2026-01-05 12:46:11.54	297.61	15.20	-52.7	-54.6	14.4	0.00e+00	0	27	0	652214272	71	4498
2026-01-05 12:46:12.54	297.82	15.18	-52.5	-54.3	14.5	0.00e+00	0	27	0	653262848	71	4358
2026-01-05 12:46:13.54	298.03	15.16	-52.5	-54.3	14.5	0.00e+00	0	27	0	655360000	71	4370
2026-01-05 12:46:14.54	298.24	15.14	-52.4	-54.2	14.5	0.00e+00	0	27	0	657457152	71	4296
2026-01-05 12:46:15.55	298.45	15.11	-52.0	-53.7	14.6	0.00e+00	0	27	0	659554304	70	4305
2026-01-05 12:46:16.55	298.66	15.09	-51.7	-53.3	14.7	0.00e+00	0	27	0	661651456	70	4145
2026-01-05 12:46:17.55	298.87	15.07	-51.6	-53.2	14.7	0.00e+00	0	27	0	662700032	69	4329
2026-01-05 12:46:18.56	299.08	15.05	-51.7	-53.3	14.6	0.00e+00	0	27	0	664797184	69	4386
2026-01-05 12:46:19.56	299.28	15.03	-51.6	-53.3	14.6	0.00e+00	0	27	0	666894336	69	4349
2026-01-05 12:46:20.56	299.49	15.00	-51.7	-53.3	14.6	0.00e+00	0	27	0	668991488	69	4356
2026-01-05 12:46:21.56	299.70	14.98	-51.7	-53.4	14.6	0.00e+00	0	27	0	671088640	69	4403
2026-01-05 12:46:22.56	299.90	14.96	-51.8	-53.4	14.6	0.00e+00	0	27	0	672137216	69	4439
2026-01-05 12:46:23.56	300.11	14.93	-51.5	-53.1	14.7	0.00e+00	0	27	0	674234368	69	4247
2026-01-05 12:46:24.56	300.32	14.91	-51.6	-53.2	14.7	0.00e+00	0	27	0	676331520	69	4299
2026-01-05 12:46:25.56	300.52	14.89	-51.5	-53.1	14.7	0.00e+00	0	27	0	678428672	69	4271
2026-01-05 12:46:26.57	300.73	14.86	-51.5	-53.1	14.7	0.00e+00	0	27	0	679477248	69	4256
2026-01-05 12:46:27.57	300.93	14.84	-51.7	-53.4	14.6	0.00e+00	0	27	0	681574400	69	4397
2026-01-05 12:46:28.56	301.14	14.81	-52.0	-53.7	14.5	0.00e+00	0	27	0	683671552	69	4587
2026-01-05 12:46:29.56	301.34	14.79	-52.2	-53.9	14.4	0.00e+00	0	27	0	685768704	69	4686
2026-01-05 12:46:30.57	301.55	14.76	-52.2	-54.0	14.4	0.00e+00	0	27	0	687865856	69	4714
2026-01-05 12:46:31.56	301.75	14.73	-52.2	-54.0	14.4	0.00e+00	0	27	0	688914432	69	4737
2026-01-05 12:46:32.55	301.95	14.71	-52.2	-53.9	14.4	0.00e+00	0	27	0	691011584	69	4697
2026-01-05 12:46:33.55	302.15	14.68	-52.1	-53.9	14.4	0.00e+00	0	27	0	693108736	69	4669
2026-01-05 12:46:34.54	302.35	14.65	-52.2	-53.9	14.4	0.00e+00	0	27	0	695205888	69	4692
2026-01-05 12:46:35.54	302.55	14.63	-52.2	-54.0	14.4	0.00e+00	0	27	0	696254464	69	4716
2026-01-05 12:46:36.54	302.75	14.60	-52.2	-53.9	14.4	0.00e+00	0	27	0	698351616	69	4684
2026-01-05 12:46:37.53	302.95	14.57	-52.4	-54.2	14.3	0.00e+00	0	27	0	700448768	69	4826
2026-01-05 12:46:38.52	303.15	14.54	-52.3	-54.1	14.3	0.00e+00	0	27	0	702545920	69	4796
2026-01-05 12:46:39.52	303.35	14.52	-52.3	-54.0	14.3	0.00e+00	0	27	0	704643072	69	4754
2026-01-05 12:46:40.52	303.55	14.49	-52.0	-53.8	14.4	0.00e+00	0	27	0	705691648	69	4603
2026-01-05 12:46:41.51	303.75	14.46	-51.9	-53.6	14.5	0.00e+00	0	27	0	707788800	69	4521
2026-01-05 12:46:42.51	303.95	14.43	-51.8	-53.5	14.6	0.00e+00	0	27	0	709885952	69	4454
2026-01-05 12:46:43.50	304.15	14.40	-51.6	-53.2	14.7	0.00e+00	0	27	0	711983104	69	4294
2026-01-05 12:46:44.49	304.34	14.37	-51.5	-53.1	14.7	0.00e+00	0	27	0	713031680	69	4260
2026-01-05 12:46:45.48	304.54	14.34	-51.3	-52.9	14.8	0.00e+00	0	27	0	715128832	69	4160
2026-01-05 12:46:46.48	304.74	14.31	-51.4	-53.0	14.7	0.00e+00	0	27	0	717225984	69	4216
2026-01-05 12:46:47.47	304.93	14.28	-51.3	-52.9	14.8	0.00e+00	0	27	0	719323136	69	4166
2026-01-05 12:46:48.46	305.13	14.25	-51.2	-52.8	14.7	0.00e+00	0	27	0	721420288	68	4349
2026-01-05 12:46:49.46	305.32	14.22	-51.2	-52.8	14.7	0.00e+00	0	27	0	722468864	68	4345
2026-01-05 12:46:50.45	305.52	14.19	-51.3	-52.9	14.6	0.00e+00	0	27	0	724566016	68	4425
2026-01-05 12:46:51.45	305.71	14.15	-51.4	-53.0	14.6	0.00e+00	0	27	0	726663168	68	4491
2026-01-05 12:46:52.44	305.91	14.12	-51.6	-53.2	14.6	0.00e+00	0	27	0	728760320	68	4564
2026-01-05 12:46:53.43	306.10	14.09	-51.5	-53.2	14.6	0.00e+00	0	27	0	729808896	68	4559
2026-01-05 12:46:54.42	306.29	14.06	-51.5	-53.2	14.6	0.00e+00	0	27	0	731906048	68	4562
2026-01-05 12:46:55.41	306.49	14.03	-51.5	-53.1	14.6	0.00e+00	0	27	0	734003200	68	4533
2026-01-05 12:46:56.41	306.68	13.99	-51.6	-53.3	14.5	0.00e+00	0	27	0	736100352	68	4616
2026-01-05 12:46:57.40	306.87	13.96	-51.6	-53.2	14.5	0.00e+00	0	27	0	738197504	68	4581
2026-01-05 12:46:58.40	307.06	13.93	-51.6	-53.3	14.5	0.00e+00	0	27	0	739246080	68	4604
2026-01-05 12:46:59.39	307.25	13.89	-51.7	-53.4	14.5	0.00e+00	0	27	0	741343232	68	4683
2026-01-05 12:47:00.39	307.45	13.86	-51.9	-53.6	14.4	0.00e+00	0	27	0	743440384	68	4781
2026-01-05 12:47:01.39	307.64	13.82	-52.1	-53.8	14.4	0.00e+00	0	27	0	745537536	69	4628
2026-01-05 12:47:02.39	307.83	13.79	-51.9	-53.6	14.5	0.00e+00	0	27	0	746586112	69	4506
2026-01-05 12:47:03.38	308.02	13.76	-51.8	-53.5	14.6	0.00e+00	0	27	0	748683264	69	4459
2026-01-05 12:47:04.38	308.21	13.72	-51.7	-53.3	14.6	0.00e+00	0	27	0	750780416	69	4365
2026-01-05 12:47:05.38	308.40	13.69	-51.7	-53.4	14.6	0.00e+00	0	27	0	752877568	69	4394
2026-01-05 12:47:06.38	308.59	13.65	-51.7	-53.4	14.6	0.00e+00	0	27	0	754974720	69	4396
2026-01-05 12:47:07.39	308.78	13.61	-51.8	-53.5	14.5	0.00e+00	0	27	0	756023296	69	4464
2026-01-05 12:47:08.38	308.96	13.58	-51.8	-53.5	14.6	0.00e+00	0	27	0	758120448	69	4473
2026-01-05 12:47:09.38	309.15	13.54	-52.0	-53.7	14.5	0.00e+00	0	27	0	760217600	69	4572
2026-01-05 12:47:10.38	309.34	13.51	-51.8	-53.5	14.5	0.00e+00	0	27	0	762314752	69	4475
2026-01-05 12:47:11.39	309.53	13.47	-51.8	-53.5	14.5	0.00e+00	0	27	0	764411904	69	4471
2026-01-05 12:47:12.39	309.72	13.43	-52.0	-53.7	14.4	0.00e+00	0	27	0	765460480	69	4570
2026-01-05 12:47:13.39	309.90	13.39	-51.9	-53.6	14.5	0.00e+00	0	27	0	767557632	69	4517
2026-01-05 12:47:14.39	310.09	13.36	-51.9	-53.5	14.5	0.00e+00	0	27	0	769654784	69	4491
2026-01-05 12:47:15.38	310.27	13.32	-51.8	-53.5	14.6	0.00e+00	0	27	0	771751936	69	4456
2026-01-05 12:47:16.38	310.46	13.28	-52.1	-53.8	14.4	0.00e+00	0	27	0	773849088	69	4624
2026-01-05 12:47:17.38	310.64	13.24	-52.0	-53.7	14.4	0.00e+00	0	27	0	774897664	69	4594
2026-01-05 12:47:18.38	310.83	13.21	-52.1	-53.9	14.4	0.00e+00	0	27	0	776994816	69	4689
2026-01-05 12:47:19.38	311.01	13.17	-52.2	-54.0	14.3	0.00e+00	0	27	0	779091968	69	4716
2026-01-05 12:47:20.38	311.19	13.13	-52.3	-54.1	14.3	0.00e+00	0	27	0	781189120	69	4811
2026-01-05 12:47:21.38	311.37	13.09	-52.4	-54.2	14.4	0.00e+00	0	27	0	782237696	70	4552
2026-01-05 12:47:22.38	311.56	13.05	-52.4	-54.3	14.3	0.00e+00	0	27	0	784334848	70	4609
2026-01-05 12:47:23.39	311.74	13.01	-52.5	-54.4	14.3	0.00e+00	0	27	0	786432000	70	4672
2026-01-05 12:47:24.40	311.92	12.97	-52.6	-54.6	14.2	0.00e+00	0	27	0	788529152	70	4764
2026-01-05 12:47:25.40	312.10	12.93	-52.7	-54.7	14.1	0.00e+00	0	27	0	790626304	70	4817
2026-01-05 12:47:26.40	312.28	12.89	-52.7	-54.6	14.2	0.00e+00	0	27	0	791674880	70	4767
2026-01-05 12:47:27.40	312.46	12.85	-52.7	-54.7	14.2	0.00e+00	0	27	0	793772032	70	4815
2026-01-05 12:47:28.40	312.64	12.81	-52.7	-54.7	14.2	0.00e+00	0	27	0	795869184	70	4818
2026-01-05 12:47:29.40	312.82	12.77	-52.8	-54.7	14.1	0.00e+00	0	27	0	797966336	70	4852
2026-01-05 12:47:30.41	313.00	12.73	-53.0	-55.1	14.1	0.00e+00	0	27	0	800063488	71	4766
2026-01-05 12:47:31.40	313.18	12.69	-53.3	-55.4	14.0	0.00e+00	0	27	0	801112064	71	4952
2026-01-05 12:47:32.40	313.35	12.65	-53.3	-55.4	13.9	0.00e+00	0	27	0	803209216	71	4939
2026-01-05 12:47:33.40	313.53	12.61	-53.3	-55.4	14.0	0.00e+00	0	27	0	805306368	72	4688
2026-01-05 12:47:34.40	313.71	12.57	-53.3	-55.5	14.0	0.00e+00	0	27	0	807403520	72	4716
2026-01-05 12:47:35.39	313.88	12.53	-53.4	-55.5	14.0	0.00e+00	0	27	0	808452096	72	4744
2026-01-05 12:47:36.40	314.06	12.49	-53.3	-55.4	14.0	0.00e+00	0	27	0	810549248	72	4682
2026-01-05 12:47:37.40	314.23	12.44	-53.3	-55.4	14.0	0.00e+00	0	27	0	812646400	72	4694
2026-01-05 12:47:38.40	314.41	12.40	-53.4	-55.5	14.0	0.00e+00	0	27	0	814743552	72	4731
2026-01-05 12:47:39.40	314.58	12.36	-53.6	-55.8	13.8	0.00e+00	0	27	0	816840704	72	4900
2026-01-05 12:47:40.40	314.76	12.32	-53.6	-55.9	13.8	0.00e+00	0	27	0	818937856	72	4943
2026-01-05 12:47:41.40	314.93	12.28	-53.8	-56.1	13.7	0.00e+00	0	27	0	819986432	72	5047
2026-01-05 12:47:42.41	315.10	12.23	-53.7	-55.9	13.7	0.00e+00	0	27	0	822083584	72	4964
2026-01-05 12:47:43.41	315.28	12.19	-53.7	-56.0	13.8	0.00e+00	0	27	0	824180736	72	4990
2026-01-05 12:47:44.41	315.45	12.15	-53.3	-55.4	14.0	0.00e+00	0	27	0	826277888	72	4694
2026-01-05 12:47:45.41	315.62	12.10	-53.2	-55.2	14.1	0.00e+00	0	27	0	827326464	72	4578
2026-01-05 12:47:46.41	315.79	12.06	-53.0	-55.0	14.2	0.00e+00	0	27	0	829423616	72	4454
2026-01-05 12:47:47.41	315.96	12.02	-52.9	-54.9	14.1	0.00e+00	0	27	0	831520768	71	4661
2026-01-05 12:47:48.41	316.13	11.97	-52.9	-54.9	14.1	0.00e+00	0	27	0	833617920	71	4675
2026-01-05 12:47:49.40	316.30	11.93	-53.0	-55.0	14.0	0.00e+00	0	27	0	835715072	71	4752
2026-01-05 12:47:50.39	316.46	11.89	-53.3	-55.4	13.9	0.00e+00	0	27	0	836763648	71	4929
2026-01-05 12:47:51.39	316.63	11.84	-53.5	-55.6	13.9	0.00e+00	0	27	0	838860800	72	4801
2026-01-05 12:47:52.39	316.80	11.80	-53.6	-55.9	13.8	0.00e+00	0	27	0	840957952	72	4934
2026-01-05 12:47:53.39	316.97	11.76	-53.8	-56.1	13.7	0.00e+00	0	27	0	843055104	72	5049
2026-01-05 12:47:54.38	317.13	11.71	-54.1	-56.5	13.5	0.00e+00	0	27	0	844103680	73	5003
2026-01-05 12:47:55.39	317.30	11.67	-54.0	-56.4	13.6	0.00e+00	0	27	0	846200832	73	4956
2026-01-05 12:47:56.39	317.46	11.62	-54.1	-56.5	13.5	0.00e+00	0	27	0	848297984	73	5019
2026-01-05 12:47:57.39	317.63	11.58	-54.2	-56.7	13.5	0.00e+00	0	27	0	850395136	73	5107
2026-01-05 12:47:58.38	317.79	11.53	-54.2	-56.7	13.5	0.00e+00	0	27	0	852492288	73	5109
2026-01-05 12:47:59.38	317.96	11.49	-54.2	-56.7	13.4	0.00e+00	0	27	0	853540864	73	5153
2026-01-05 12:48:00.38	318.12	11.44	-54.1	-56.6	13.5	0.00e+00	0	27	0	855638016	73	5057
2026-01-05 12:48:01.37	318.28	11.40	-54.0	-56.5	13.6	0.00e+00	0	27	0	857735168	73	4996
2026-01-05 12:48:02.37	318.45	11.35	-54.0	-56.4	13.6	0.00e+00	0	27	0	859832320	73	4950
2026-01-05 12:48:03.37	318.61	11.31	-53.6	-55.8	13.9	0.00e+00	0	27	0	861929472	73	4609
2026-01-05 12:48:04.37	318.77	11.26	-53.6	-55.8	13.9	0.00e+00	0	27	0	862978048	73	4606
2026-01-05 12:48:05.37	318.93	11.22	-53.5	-55.7	13.9	0.00e+00	0	27	0	865075200	73	4587
2026-01-05 12:48:06.37	319.09	11.17	-53.4	-55.6	14.0	0.00e+00	0	27	0	867172352	73	4508
2026-01-05 12:48:07.36	319.25	11.13	-53.5	-55.7	13.9	0.00e+00	0	27	0	869269504	73	4581
2026-01-05 12:48:08.36	319.41	11.08	-53.5	-55.8	13.9	0.00e+00	0	27	0	870318080	73	4602
2026-01-05 12:48:09.36	319.57	11.03	-53.6	-55.9	13.8	0.00e+00	0	27	0	872415232	73	4675
2026-01-05 12:48:10.36	319.73	10.99	-53.7	-56.0	13.8	0.00e+00	0	27	0	874512384	73	4729
2026-01-05 12:48:11.35	319.89	10.94	-53.6	-55.8	13.9	0.00e+00	0	27	0	876609536	73	4628
2026-01-05 12:48:12.35	320.04	10.90	-53.7	-56.0	13.8	0.00e+00	0	27	0	878706688	73	4740
2026-01-05 12:48:13.34	320.20	10.85	-53.6	-55.8	13.8	0.00e+00	0	27	0	879755264	73	4627
2026-01-05 12:48:14.34	320.36	10.80	-53.5	-55.7	13.9	0.00e+00	0	27	0	881852416	73	4579
2026-01-05 12:48:15.33	320.51	10.76	-53.4	-55.5	14.0	0.00e+00	0	27	0	883949568	73	4488
2026-01-05 12:48:16.33	320.67	10.71	-53.2	-55.3	14.2	0.00e+00	0	27	0	886046720	73	4348
2026-01-05 12:48:17.32	320.82	10.66	-53.2	-55.2	14.0	0.00e+00	0	27	0	887095296	72	4594
2026-01-05 12:48:18.32	320.98	10.62	-53.1	-55.1	14.1	0.00e+00	0	27	0	889192448	72	4540
2026-01-05 12:48:19.32	321.13	10.57	-53.2	-55.3	14.0	0.00e+00	0	27	0	891289600	72	4619
2026-01-05 12:48:20.32	321.29	10.52	-53.3	-55.4	14.0	0.00e+00	0	27	0	893386752	72	4676
2026-01-05 12:48:21.32	321.44	10.48	-53.4	-55.7	13.8	0.00e+00	0	27	0	895483904	72	4822
2026-01-05 12:48:22.31	321.59	10.43	-53.6	-55.9	13.7	0.00e+00	0	27	0	896532480	72	4946
2026-01-05 12:48:23.30	321.74	10.38	-53.8	-56.2	13.5	0.00e+00	0	27	0	898629632	72	5125
2026-01-05 12:48:24.29	321.89	10.33	-53.9	-56.3	13.5	0.00e+00	0	27	0	900726784	72	5206
2026-01-05 12:48:25.29	322.04	10.29	-53.9	-56.3	13.6	0.00e+00	0	27	0	902823936	73	4891
2026-01-05 12:48:26.29	322.20	10.24	-53.8	-56.2	13.6	0.00e+00	0	27	0	903872512	73	4852
2026-01-05 12:48:27.29	322.35	10.19	-54.0	-56.5	13.5	0.00e+00	0	27	0	905969664	73	5015
2026-01-05 12:48:28.29	322.50	10.14	-53.9	-56.3	13.6	0.00e+00	0	27	0	908066816	73	4901
2026-01-05 12:48:29.28	322.64	10.10	-53.9	-56.3	13.6	0.00e+00	0	27	0	910163968	73	4922
2026-01-05 12:48:30.28	322.79	10.05	-53.8	-56.2	13.7	0.00e+00	0	27	0	912261120	73	4818
2026-01-05 12:48:31.29	322.94	10.00	-53.6	-55.8	13.8	0.00e+00	0	27	0	913309696	73	4645
2026-01-05 12:48:32.28	323.09	9.95	-53.7	-56.0	13.7	0.00e+00	0	27	0	915406848	73	4726
2026-01-05 12:48:33.28	323.24	9.90	-53.4	-55.6	14.0	0.00e+00	0	27	0	917504000	73	4498
2026-01-05 12:48:34.28	323.39	9.86	-53.2	-55.4	14.1	0.00e+00	0	27	0	919601152	73	4409
2026-01-05 12:48:35.28	323.53	9.81	-53.3	-55.5	13.9	0.00e+00	0	27	0	921698304	72	4742
2026-01-05 12:48:36.28	323.68	9.76	-53.0	-55.1	14.1	0.00e+00	0	27	0	922746880	72	4502
2026-01-05 12:48:37.28	323.83	9.71	-53.0	-55.1	14.1	0.00e+00	0	27	0	924844032	72	4516
2026-01-05 12:48:38.27	323.97	9.66	-52.9	-54.9	14.1	0.00e+00	0	27	0	926941184	72	4440
2026-01-05 12:48:39.27	324.12	9.61	-52.8	-54.8	14.2	0.00e+00	0	27	0	929038336	72	4380
2026-01-05 12:48:40.26	324.26	9.57	-53.1	-55.2	14.1	0.00e+00	0	27	0	931135488	72	4552
2026-01-05 12:48:41.26	324.40	9.52	-52.8	-54.9	14.2	0.00e+00	0	27	0	932184064	72	4403
2026-01-05 12:48:42.26	324.55	9.47	-52.8	-54.8	14.1	0.00e+00	0	27	0	934281216	71	4613
2026-01-05 12:48:43.26	324.69	9.42	-52.9	-54.9	14.1	0.00e+00	0	27	0	936378368	71	4688
2026-01-05 12:48:44.26	324.83	9.37	-52.9	-54.9	14.1	0.00e+00	0	27	0	938475520	71	4692
2026-01-05 12:48:45.26	324.97	9.32	-53.0	-55.1	14.0	0.00e+00	0	27	0	939524096	71	4761
2026-01-05 12:48:46.26	325.12	9.27	-53.1	-55.2	13.9	0.00e+00	0	27	0	941621248	71	4846
2026-01-05 12:48:47.24	325.26	9.22	-53.0	-55.2	14.0	0.00e+00	0	27	0	943718400	71	4828
2026-01-05 12:48:48.24	325.40	9.18	-53.0	-55.1	14.0	0.00e+00	0	27	0	945815552	71	4796
2026-01-05 12:48:49.23	325.54	9.13	-53.1	-55.3	13.9	0.00e+00	0	27	0	947912704	71	4875
2026-01-05 12:48:50.23	325.68	9.08	-53.1	-55.2	13.9	0.00e+00	0	27	0	948961280	71	4841
2026-01-05 12:48:51.23	325.82	9.03	-52.8	-54.9	14.1	0.00e+00	0	27	0	951058432	71	4652
2026-01-05 12:48:52.23	325.95	8.98	-52.9	-55.0	14.0	0.00e+00	0	27	0	953155584	71	4710
2026-01-05 12:48:53.22	326.09	8.93	-52.9	-54.9	14.0	0.00e+00	0	27	0	955252736	71	4697
2026-01-05 12:48:54.22	326.23	8.88	-52.8	-54.8	14.1	0.00e+00	0	27	0	956301312	71	4642
2026-01-05 12:48:55.22	326.37	8.83	-52.8	-54.9	14.1	0.00e+00	0	27	0	958398464	71	4661
2026-01-05 12:48:56.22	326.51	8.78	-52.8	-54.8	14.1	0.00e+00	0	27	0	960495616	71	4648
2026-01-05 12:48:57.21	326.64	8.73	-52.9	-55.1	14.0	0.00e+00	0	27	0	962592768	71	4764
2026-01-05 12:48:58.21	326.78	8.68	-53.1	-55.2	13.9	0.00e+00	0	27	0	964689920	71	4850
2026-01-05 12:48:59.20	326.91	8.63	-52.9	-55.0	14.0	0.00e+00	0	27	0	965738496	71	4758
2026-01-05 12:49:00.20	327.05	8.59	-53.0	-55.2	13.9	0.00e+00	0	27	0	967835648	71	4833
2026-01-05 12:49:01.20	327.18	8.54	-53.0	-55.2	13.9	0.00e+00	0	27	0	969932800	71	4829
2026-01-05 12:49:02.20	327.32	8.49	-53.0	-55.2	13.9	0.00e+00	0	27	0	972029952	71	4850
2026-01-05 12:49:03.19	327.45	8.44	-53.0	-55.1	13.9	0.00e+00	0	27	0	973078528	71	4789
2026-01-05 12:49:04.19	327.58	8.39	-52.9	-55.1	14.0	0.00e+00	0	27	0	975175680	71	4770
2026-01-05 12:49:05.19	327.72	8.34	-53.0	-55.2	13.9	0.00e+00	0	27	0	977272832	71	4848
2026-01-05 12:49:06.18	327.85	8.29	-52.8	-54.8	14.1	0.00e+00	0	27	0	979369984	71	4636
2026-01-05 12:49:07.18	327.98	8.24	-52.7	-54.7	14.1	0.00e+00	0	27	0	981467136	71	4595
2026-01-05 12:49:08.18	328.11	8.19	-52.8	-54.9	14.0	0.00e+00	0	27	0	982515712	71	4689
2026-01-05 12:49:09.18	328.25	8.14	-52.8	-54.9	14.0	0.00e+00	0	27	0	984612864	71	4689
2026-01-05 12:49:10.17	328.38	8.09	-52.8	-54.9	14.0	0.00e+00	0	27	0	986710016	71	4689
2026-01-05 12:49:11.16	328.50	8.04	-52.8	-54.9	14.0	0.00e+00	0	27	0	988807168	71	4705
2026-01-05 12:49:12.15	328.63	7.99	-52.9	-55.0	13.9	0.00e+00	0	27	0	990904320	71	4718
2026-01-05 12:49:13.15	328.76	7.94	-53.0	-55.2	13.9	0.00e+00	0	27	0	991952896	71	4828
2026-01-05 12:49:14.15	328.89	7.89	-53.1	-55.3	13.8	0.00e+00	0	27	0	994050048	71	4923
2026-01-05 12:49:15.15	329.02	7.84	-53.1	-55.3	13.8	0.00e+00	0	27	0	996147200	71	4874
2026-01-05 12:49:16.16	329.15	7.79	-53.1	-55.4	13.8	0.00e+00	0	27	0	998244352	71	4947
2026-01-05 12:49:17.15	329.28	7.74	-53.2	-55.4	13.7	0.00e+00	0	27	0	1000341504	71	4982
2026-01-05 12:49:18.14	329.41	7.69	-53.1	-55.3	13.7	0.00e+00	0	27	0	1001390080	71	4912
2026-01-05 12:49:19.15	329.53	7.64	-53.2	-55.4	13.7	0.00e+00	0	27	0	1003487232	71	4960
2026-01-05 12:49:20.14	329.66	7.59	-53.3	-55.5	13.6	0.00e+00	0	27	0	1005584384	71	5040
2026-01-05 12:49:21.13	329.79	7.54	-53.1	-55.3	13.8	0.00e+00	0	27	0	1007681536	71	4895
2026-01-05 12:49:22.13	329.91	7.49	-53.1	-55.3	13.9	0.00e+00	0	27	0	1008730112	71	4901
2026-01-05 12:49:23.13	330.04	7.44	-53.1	-55.4	13.8	0.00e+00	0	27	0	1010827264	71	4933
2026-01-05 12:49:24.12	330.16	7.39	-53.2	-55.4	13.7	0.00e+00	0	27	0	1012924416	71	4961
2026-01-05 12:49:25.13	330.29	7.34	-53.2	-55.5	13.7	0.00e+00	0	27	0	1015021568	71	4991
2026-01-05 12:49:26.13	330.41	7.29	-53.1	-55.4	13.8	0.00e+00	0	27	0	1017118720	71	4951
2026-01-05 12:49:27.13	330.54	7.24	-53.3	-55.6	13.7	0.00e+00	0	27	0	1018167296	71	5055
2026-01-05 12:49:28.13	330.66	7.19	-53.3	-55.6	13.6	0.00e+00	0	27	0	1020264448	71	5074
2026-01-05 12:49:29.13	330.78	7.14	-53.4	-55.7	13.6	0.00e+00	0	27	0	1022361600	71	5143
2026-01-05 12:49:30.13	330.91	7.09	-53.3	-55.7	13.6	0.00e+00	0	27	0	1024458752	71	5124
2026-01-05 12:49:31.12	331.03	7.04	-53.3	-55.7	13.6	0.00e+00	0	27	0	1025507328	71	5117
2026-01-05 12:49:32.12	331.15	6.99	-53.3	-55.7	13.6	0.00e+00	0	27	0	1027604480	71	5114
2026-01-05 12:49:33.12	331.27	6.94	-53.3	-55.6	13.7	0.00e+00	0	27	0	1029701632	71	5064
2026-01-05 12:49:34.12	331.39	6.89	-53.2	-55.5	13.7	0.00e+00	0	27	0	1031798784	71	5022
2026-01-05 12:49:35.12	331.51	6.84	-53.2	-55.4	13.7	0.00e+00	0	27	0	1033895936	71	4975
2026-01-05 12:49:36.11	331.63	6.79	-53.1	-55.4	13.8	0.00e+00	0	27	0	1034944512	71	4929
2026-01-05 12:49:37.11	331.75	6.74	-53.1	-55.3	13.8	0.00e+00	0	27	0	1037041664	71	4900
2026-01-05 12:49:38.12	331.87	6.69	-53.1	-55.3	13.8	0.00e+00	0	27	0	1039138816	71	4883
2026-01-05 12:49:39.12	331.99	6.64	-53.0	-55.3	13.8	0.00e+00	0	27	0	1041235968	71	4875
2026-01-05 12:49:40.12	332.11	6.59	-53.1	-55.4	13.7	0.00e+00	0	27	0	1043333120	71	4936
2026-01-05 12:49:41.12	332.23	6.54	-53.1	-55.3	13.7	0.00e+00	0	27	0	1044381696	71	4924
2026-01-05 12:49:42.12	332.35	6.49	-53.1	-55.4	13.7	0.00e+00	0	27	0	1046478848	71	4947
2026-01-05 12:49:43.12	332.47	6.43	-53.1	-55.4	13.7	0.00e+00	0	27	0	1048576000	71	4958
2026-01-05 12:49:44.13	332.58	6.38	-53.2	-55.5	13.7	0.00e+00	0	27	0	1050673152	71	5028
2026-01-05 12:49:45.12	332.70	6.33	-53.3	-55.7	13.6	0.00e+00	0	27	0	1051721728	71	5116
2026-01-05 12:49:46.12	332.82	6.28	-53.2	-55.5	13.6	0.00e+00	0	27	0	1053818880	71	5039
2026-01-05 12:49:47.12	332.93	6.23	-53.2	-55.6	13.6	0.00e+00	0	27	0	1055916032	71	5057
2026-01-05 12:49:48.11	333.05	6.18	-52.8	-55.3	13.8	0.00e+00	0	27	0	1058013184	71	4884
2026-01-05 12:49:49.11	333.16	6.13	-53.2	-55.5	13.6	0.00e+00	0	27	0	1060110336	71	5034
2026-01-05 12:49:50.10	333.28	6.08	-53.4	-55.8	13.5	0.00e+00	0	27	0	1061158912	71	5165
2026-01-05 12:49:51.11	333.39	6.03	-53.3	-55.7	13.6	0.00e+00	0	27	0	1063256064	71	5129
2026-01-05 12:49:52.11	333.51	5.98	-53.5	-56.0	13.5	0.00e+00	0	27	0	1065353216	72	4997
2026-01-05 12:49:53.11	333.62	5.93	-53.6	-56.1	13.4	0.00e+00	0	27	0	1067450368	72	5055
2026-01-05 12:49:54.11	333.73	5.88	-53.6	-56.2	13.4	0.00e+00	0	27	0	1069547520	72	5111
2026-01-05 12:49:55.10	333.85	5.83	-53.7	-56.4	13.3	0.00e+00	0	27	0	1070596096	72	5229
2026-01-05 12:49:56.09	333.96	5.78	-53.7	-56.3	13.3	0.00e+00	0	27	0	1072693248	72	5191
2026-01-05 12:49:57.10	334.07	5.73	-53.8	-56.4	13.2	0.00e+00	0	27	0	1074790400	72	5272
2026-01-05 12:49:58.11	334.18	5.68	-54.1	-56.9	13.0	0.00e+00	0	27	0	1076887552	73	5248
2026-01-05 12:49:59.10	334.29	5.63	-54.0	-56.7	13.1	0.00e+00	0	27	0	1078984704	73	5137
2026-01-05 12:50:00.10	334.41	5.58	-54.1	-57.0	12.9	0.00e+00	0	27	0	1080033280	73	5326
2026-01-05 12:50:01.10	334.52	5.53	-54.1	-57.0	12.9	0.00e+00	0	27	0	1082130432	73	5340
2026-01-05 12:50:02.10	334.63	5.48	-54.0	-56.9	13.0	0.00e+00	0	27	0	1084227584	73	5227
2026-01-05 12:50:03.10	334.74	5.43	-54.1	-57.0	12.9	0.00e+00	0	27	0	1086324736	73	5290
2026-01-05 12:50:04.10	334.85	5.38	-53.9	-56.8	13.0	0.00e+00	0	27	0	1087373312	73	5161
2026-01-05 12:50:05.10	334.96	5.33	-54.0	-56.8	13.0	0.00e+00	0	27	0	1089470464	73	5184
2026-01-05 12:50:06.09	335.06	5.28	-54.0	-56.8	13.0	0.00e+00	0	27	0	1091567616	73	5207
2026-01-05 12:50:07.09	335.17	5.23	-53.9	-56.8	13.0	0.00e+00	0	27	0	1093664768	73	5166
2026-01-05 12:50:08.09	335.28	5.18	-53.9	-56.7	13.0	0.00e+00	0	27	0	1095761920	73	5156
2026-01-05 12:50:09.08	335.39	5.13	-54.1	-57.1	12.8	0.00e+00	0	27	0	1096810496	73	5354
2026-01-05 12:50:10.09	335.50	5.08	-54.1	-57.0	12.9	0.00e+00	0	27	0	1098907648	73	5312
2026-01-05 12:50:11.08	335.60	5.03	-54.3	-57.3	12.7	0.00e+00	0	27	0	1101004800	73	5527
2026-01-05 12:50:12.08	335.71	4.98	-58.5	-72.3	4.0	5.41e-05	0	27	0	1103101952	82	18416
2026-01-05 12:50:13.08	335.82	4.93	-59.2	-75.2	3.8	1.49e+00	0	27	104	1103101952	83	24222
2026-01-05 12:50:14.08	335.92	4.88	-59.8	-75.8	3.8	1.49e+00	0	27	104	1103101952	84	24609
2026-01-05 12:50:15.08	336.03	4.83	-60.1	-76.1	3.8	1.49e+00	0	27	104	1103101952	85	23996
2026-01-05 12:50:16.08	336.13	4.78	-60.3	-76.3	3.8	1.49e+00	0	27	104	1103101952	85	24561
2026-01-05 12:50:17.08	336.24	4.73	-60.5	-76.5	3.8	1.49e+00	0	27	104	1103101952	86	23767
2026-01-05 12:50:18.09	336.35	4.68	-60.6	-76.6	3.8	1.49e+00	0	27	104	1103101952	86	24082
2026-01-05 12:50:19.09	336.45	4.63	-60.7	-76.7	3.8	1.49e+00	0	27	104	1103101952	86	24403
2026-01-05 12:50:20.09	336.55	4.58	-60.8	-76.8	3.8	1.49e+00	0	27	104	1103101952	86	24674
2026-01-05 12:50:21.09	336.66	4.53	-60.9	-76.9	3.8	1.49e+00	0	27	104	1103101952	86	24806
2026-01-05 12:50:22.09	336.76	4.48	-60.9	-76.9	3.8	1.49e+00	0	27	104	1103101952	86	24967
2026-01-05 12:50:23.10	336.87	4.43	-60.9	-77.0	3.8	1.49e+00	0	27	104	1103101952	87	23692
2026-01-05 12:50:24.09	336.97	4.38	-61.0	-77.0	3.8	1.49e+00	0	27	104	1103101952	87	23748
2026-01-05 12:50:25.09	337.07	4.33	-61.0	-77.0	3.8	1.49e+00	0	27	104	1103101952	87	23776
2026-01-05 12:50:26.10	337.17	4.28	-61.0	-77.0	3.8	1.49e+00	0	27	104	1103101952	87	23836
2026-01-05 12:50:27.09	337.27	4.23	-61.0	-77.0	3.8	1.49e+00	0	27	104	1103101952	87	23780
2026-01-05 12:50:28.09	337.38	4.18	-61.0	-77.1	3.8	1.49e+00	0	27	104	1103101952	87	23873
2026-01-05 12:50:29.09	337.48	4.13	-61.0	-77.1	3.8	1.49e+00	0	27	104	1103101952	87	23974
2026-01-05 12:50:30.08	337.58	4.08	-61.1	-77.1	3.8	1.49e+00	0	27	104	1103101952	87	24007
2026-01-05 12:50:31.09	337.68	4.03	-61.1	-77.1	3.8	1.49e+00	0	27	104	1103101952	87	24060
2026-01-05 12:50:32.09	337.78	3.98	-61.1	-77.1	3.8	1.49e+00	0	27	104	1103101952	87	24051
2026-01-05 12:50:33.09	337.88	3.93	-61.1	-77.1	3.8	1.49e+00	0	27	104	1103101952	87	24063
2026-01-05 12:50:34.09	337.98	3.88	-61.0	-77.1	3.8	1.49e+00	0	27	104	1103101952	87	23928
2026-01-05 12:50:35.09	338.08	3.83	-61.0	-77.0	3.8	1.49e+00	0	27	104	1103101952	87	23849
2026-01-05 12:50:36.10	338.18	3.78	-61.0	-77.0	3.8	1.49e+00	0	27	104	1103101952	87	23758
2026-01-05 12:50:37.10	338.28	3.73	-60.9	-77.0	3.8	1.49e+00	0	27	104	1103101952	87	23710
2026-01-05 12:50:38.10	338.38	3.68	-60.9	-77.0	3.8	1.49e+00	0	27	104	1103101952	87	23689
2026-01-05 12:50:39.10	338.47	3.63	-60.9	-77.0	3.8	1.49e+00	0	27	104	1103101952	87	23695
2026-01-05 12:50:40.10	338.57	3.58	-60.9	-77.0	3.8	1.49e+00	0	27	104	1103101952	87	23614
2026-01-05 12:50:41.10	338.67	3.53	-60.9	-77.0	3.8	1.49e+00	0	27	104	1103101952	87	23603
2026-01-05 12:50:42.11	338.77	3.48	-60.9	-76.9	3.8	1.49e+00	0	27	104	1103101952	87	23574
2026-01-05 12:50:43.11	338.86	3.43	-60.9	-76.9	3.8	1.49e+00	0	27	104	1103101952	87	23572
2026-01-05 12:50:44.11	338.96	3.38	-60.9	-76.9	3.8	1.49e+00	0	27	104	1103101952	87	23482
2026-01-05 12:50:45.11	339.06	3.33	-60.9	-76.9	3.8	1.49e+00	0	27	104	1103101952	87	23508
2026-01-05 12:50:46.10	339.15	3.29	-60.8	-76.9	3.8	1.49e+00	0	27	104	1103101952	87	23468
2026-01-05 12:50:47.10	339.25	3.24	-60.8	-76.9	3.8	1.49e+00	0	27	104	1103101952	87	23381
2026-01-05 12:50:48.10	339.34	3.19	-60.8	-76.9	3.8	1.49e+00	0	27	104	1103101952	87	23444
2026-01-05 12:50:49.10	339.44	3.14	-60.8	-76.9	3.8	1.49e+00	0	27	104	1103101952	87	23377
2026-01-05 12:50:50.10	339.53	3.09	-60.8	-76.9	3.8	1.49e+00	0	27	104	1103101952	87	23427
2026-01-05 12:50:51.10	339.63	3.04	-60.8	-76.9	3.8	1.49e+00	0	27	104	1103101952	87	23327
2026-01-05 12:50:52.10	339.72	2.99	-60.8	-76.8	3.8	1.49e+00	0	27	104	1103101952	87	23308
2026-01-05 12:50:53.10	339.81	2.94	-60.8	-76.8	3.8	1.49e+00	0	27	104	1103101952	87	23293
2026-01-05 12:50:54.10	339.91	2.89	-60.8	-76.8	3.8	1.49e+00	0	27	104	1103101952	87	23295
2026-01-05 12:50:55.09	340.00	2.84	-60.8	-76.8	3.8	1.49e+00	0	27	104	1103101952	87	23299
