passes_logs/2026/01/05/R3.2S_Murmansk/R3.2S_Murmansk__20260105_054350_AQUA_rec.log

#Pass ID: 20260105_054350_AQUA
#Satellite: AQUA
#Configuration: AQUA
#almurnet v.1.7.20251203
#Start time: 2026-01-05 05:43:52

#Version: 2.2.20231116
#Station: R3.2S_Murmansk
#Location: 33.079688 lon 68.888172 lat
#TLE: 1 27424U 02022A   26003.93831470  .00001925  00000+0  39553-3 0  9995
#TLE: 2 27424  98.4067 330.1809 0002003  92.1713 343.8415 14.61796291259276

#Time	Az	El	Level	Level2	SNR	BER	BlckErr	Temp	State	Recorded	gain1	gain2
2026-01-05 05:43:52.16	43.72	2.11	-57.8	-77.2	3.8	7.46e-01	0	25	0	0	84	33378
2026-01-05 05:43:53.14	43.65	2.17	-57.6	-77.0	3.8	7.47e-01	0	25	104	0	82	36540
2026-01-05 05:43:54.13	43.57	2.22	-57.6	-76.9	3.8	7.48e-01	0	25	104	0	82	36498
2026-01-05 05:43:55.12	43.50	2.28	-57.5	-76.9	3.8	7.46e-01	0	25	104	0	82	36450
2026-01-05 05:43:56.11	43.42	2.34	-57.6	-77.0	3.8	7.46e-01	0	25	104	0	82	36535
2026-01-05 05:43:57.10	43.34	2.40	-57.6	-76.9	3.8	7.45e-01	0	25	104	0	82	36494
2026-01-05 05:43:58.09	43.27	2.45	-57.6	-77.0	3.8	7.43e-01	0	25	104	0	82	36630
2026-01-05 05:43:59.08	43.19	2.51	-57.6	-76.9	3.8	7.48e-01	0	25	104	0	82	36519
2026-01-05 05:44:00.07	43.11	2.57	-57.6	-77.0	3.8	7.49e-01	0	25	104	0	82	36564
2026-01-05 05:44:01.06	43.03	2.63	-57.6	-76.9	3.8	7.47e-01	0	26	104	0	82	36496
2026-01-05 05:44:02.06	42.96	2.69	-57.6	-76.9	3.8	7.47e-01	0	26	104	0	82	36458
2026-01-05 05:44:03.05	42.88	2.74	-57.6	-76.9	3.8	7.44e-01	0	26	104	0	82	36409
2026-01-05 05:44:04.03	42.80	2.80	-57.6	-76.9	3.8	7.48e-01	0	25	104	0	82	36421
2026-01-05 05:44:05.02	42.72	2.86	-57.6	-76.9	3.8	7.45e-01	0	26	104	0	82	36151
2026-01-05 05:44:06.01	42.64	2.92	-57.6	-76.8	3.8	7.42e-01	0	26	104	0	82	35872
2026-01-05 05:44:07.00	42.56	2.98	-57.6	-76.7	3.8	7.46e-01	0	25	104	0	82	35661
2026-01-05 05:44:07.99	42.48	3.04	-57.6	-76.7	3.8	7.48e-01	0	26	104	0	82	35450
2026-01-05 05:44:08.99	42.40	3.09	-57.6	-76.7	3.8	7.46e-01	0	26	104	0	82	35414
2026-01-05 05:44:09.98	42.32	3.15	-57.6	-76.7	3.8	7.48e-01	0	26	104	0	82	35388
2026-01-05 05:44:10.97	42.24	3.21	-57.6	-76.7	3.8	7.45e-01	0	26	104	0	82	35471
2026-01-05 05:44:11.97	42.15	3.27	-57.6	-76.9	3.9	7.49e-01	0	26	104	0	82	36298
2026-01-05 05:44:12.96	42.07	3.33	-57.6	-76.9	3.8	7.46e-01	0	26	104	0	82	36323
2026-01-05 05:44:13.94	41.99	3.39	-57.6	-76.9	3.8	7.50e-01	0	26	104	0	82	36284
2026-01-05 05:44:14.94	41.91	3.45	-57.6	-76.9	3.8	7.45e-01	0	26	104	0	82	36392
2026-01-05 05:44:15.93	41.82	3.51	-57.6	-76.9	3.8	7.49e-01	0	26	104	0	82	36516
2026-01-05 05:44:16.93	41.74	3.57	-57.6	-77.0	3.8	7.46e-01	0	26	104	0	82	36563
2026-01-05 05:44:17.91	41.65	3.63	-57.6	-77.0	3.8	7.47e-01	0	26	104	0	82	36555
2026-01-05 05:44:18.89	41.57	3.69	-57.6	-76.9	3.8	7.47e-01	0	26	104	0	82	36437
2026-01-05 05:44:19.88	41.49	3.75	-57.6	-77.0	3.8	7.43e-01	0	26	104	0	82	36528
2026-01-05 05:44:20.87	41.40	3.81	-57.6	-76.9	3.8	7.45e-01	0	26	104	0	82	36416
2026-01-05 05:44:21.86	41.31	3.86	-57.6	-76.9	3.8	7.52e-01	0	26	104	0	82	36508
2026-01-05 05:44:22.84	41.23	3.92	-57.6	-76.9	3.8	7.47e-01	0	26	104	0	82	36451
2026-01-05 05:44:23.84	41.14	3.98	-57.6	-76.9	3.8	7.45e-01	0	26	104	0	82	36472
2026-01-05 05:44:24.82	41.06	4.04	-57.5	-76.9	3.8	7.52e-01	0	26	104	0	82	36445
2026-01-05 05:44:25.81	40.97	4.10	-57.6	-76.9	3.8	7.46e-01	0	26	104	0	82	36209
2026-01-05 05:44:26.81	40.88	4.16	-57.5	-76.8	3.8	7.45e-01	0	26	104	0	82	36004
2026-01-05 05:44:27.80	40.79	4.23	-57.5	-76.8	3.8	7.43e-01	0	26	104	0	82	35943
2026-01-05 05:44:28.79	40.70	4.29	-57.6	-76.9	3.8	7.48e-01	0	26	104	0	82	36111
2026-01-05 05:44:29.79	40.61	4.35	-57.6	-76.9	3.8	7.49e-01	0	26	104	0	82	36474
2026-01-05 05:44:30.77	40.52	4.41	-57.6	-77.0	3.8	7.45e-01	0	26	104	0	82	36563
2026-01-05 05:44:31.76	40.43	4.47	-57.6	-76.9	3.8	7.48e-01	0	26	104	0	82	36206
2026-01-05 05:44:32.76	40.34	4.53	-57.5	-76.6	3.8	7.45e-01	0	26	104	0	82	35075
2026-01-05 05:44:33.75	40.25	4.59	-57.5	-76.1	3.8	7.49e-01	0	26	104	0	82	33278
2026-01-05 05:44:34.74	40.16	4.65	-57.4	-75.5	3.8	7.45e-01	0	26	104	0	82	31072
2026-01-05 05:44:35.72	40.07	4.71	-57.2	-74.7	3.8	7.45e-01	0	26	104	0	82	28084
2026-01-05 05:44:36.72	39.98	4.77	-57.0	-73.7	3.8	7.43e-01	0	26	104	0	82	25132
2026-01-05 05:44:37.71	39.89	4.83	-56.7	-72.6	3.9	7.42e-01	0	26	104	0	82	22116
2026-01-05 05:44:38.71	39.79	4.90	-56.3	-71.3	3.8	7.46e-01	0	26	104	0	81	20300
2026-01-05 05:44:39.70	39.70	4.96	-55.9	-70.3	3.8	7.45e-01	0	26	104	0	81	17955
2026-01-05 05:44:40.70	39.60	5.02	-55.5	-69.3	3.8	7.45e-01	0	26	104	0	80	17060
2026-01-05 05:44:41.69	39.51	5.08	-56.8	-72.5	3.8	7.47e-01	0	26	104	0	81	23060
2026-01-05 05:44:42.68	39.41	5.14	-57.1	-73.6	3.8	7.45e-01	0	26	104	0	82	24728
2026-01-05 05:44:43.66	39.32	5.20	-55.1	-68.6	3.9	7.47e-01	0	26	104	0	79	16556
2026-01-05 05:44:44.65	39.22	5.27	-52.4	-64.5	3.8	7.43e-01	0	26	104	0	74	13771
2026-01-05 05:44:45.64	39.13	5.33	-56.0	-70.5	3.8	7.45e-01	0	26	104	0	79	20569
2026-01-05 05:44:46.64	39.03	5.39	-53.3	-66.1	3.9	7.41e-01	0	26	104	0	76	14788
2026-01-05 05:44:47.63	38.93	5.45	-51.7	-63.6	3.8	7.43e-01	0	26	104	0	72	13892
2026-01-05 05:44:48.62	38.84	5.51	-51.8	-63.6	3.8	7.48e-01	0	26	104	0	72	14030
2026-01-05 05:44:49.60	38.74	5.58	-54.6	-67.5	3.8	7.48e-01	0	26	104	0	76	17317
2026-01-05 05:44:50.59	38.64	5.64	-54.8	-67.7	3.9	7.45e-01	0	27	104	0	78	15807
2026-01-05 05:44:51.57	38.54	5.70	-55.7	-69.8	3.8	7.47e-01	0	26	104	0	79	19153
2026-01-05 05:44:52.56	38.44	5.76	-56.4	-71.3	3.8	7.44e-01	0	27	104	0	81	20200
2026-01-05 05:44:53.56	38.34	5.83	-53.3	-65.7	3.9	7.43e-01	0	26	104	0	76	14165
2026-01-05 05:44:54.55	38.24	5.89	-51.8	-63.7	3.8	7.41e-01	0	26	104	0	72	14085
2026-01-05 05:44:55.53	38.14	5.95	-51.8	-63.7	3.8	7.48e-01	0	26	104	0	72	14052
2026-01-05 05:44:56.52	38.04	6.01	-51.5	-63.3	3.8	7.44e-01	0	26	104	0	72	13532
2026-01-05 05:44:57.51	37.94	6.08	-51.2	-62.8	3.9	7.46e-01	0	27	104	0	71	13550
2026-01-05 05:44:58.51	37.84	6.14	-52.4	-64.4	3.8	7.46e-01	0	27	104	0	72	15306
2026-01-05 05:44:59.50	37.73	6.20	-55.0	-68.2	3.8	7.44e-01	0	26	104	0	77	17750
2026-01-05 05:45:00.49	37.63	6.27	-55.8	-70.0	3.9	7.44e-01	0	27	104	0	81	17455
2026-01-05 05:45:01.49	37.53	6.33	-54.7	-67.3	3.8	7.45e-01	0	26	104	0	76	16989
2026-01-05 05:45:02.49	37.42	6.39	-55.1	-68.5	3.9	7.47e-01	0	27	104	0	79	16489
2026-01-05 05:45:03.49	37.31	6.46	-52.4	-64.4	3.8	7.49e-01	0	27	104	0	73	14499
2026-01-05 05:45:04.48	37.21	6.52	-52.0	-63.9	3.9	7.47e-01	0	26	104	0	73	13694
2026-01-05 05:45:05.47	37.10	6.59	-54.5	-67.3	3.8	7.44e-01	0	26	104	0	76	17018
2026-01-05 05:45:06.46	37.00	6.65	-56.6	-71.8	4.0	7.44e-01	0	26	104	0	82	20248
2026-01-05 05:45:07.45	36.89	6.71	-54.4	-67.2	3.8	7.47e-01	0	27	104	0	76	16781
2026-01-05 05:45:08.44	36.78	6.78	-56.1	-70.6	3.9	7.46e-01	0	27	104	0	81	18631
2026-01-05 05:45:09.44	36.67	6.84	-55.5	-69.2	3.9	7.48e-01	0	27	104	0	80	16881
2026-01-05 05:45:10.43	36.57	6.91	-51.3	-62.9	3.8	7.45e-01	0	27	104	0	71	13672
2026-01-05 05:45:11.43	36.46	6.97	-51.4	-63.1	3.8	7.48e-01	0	27	104	0	71	14008
2026-01-05 05:45:12.42	36.35	7.03	-51.0	-62.7	3.8	7.46e-01	0	27	104	0	71	13278
2026-01-05 05:45:13.41	36.24	7.10	-50.9	-62.5	3.8	7.46e-01	0	27	104	0	70	13847
2026-01-05 05:45:14.39	36.13	7.16	-51.6	-63.3	3.8	7.43e-01	0	27	104	0	70	15122
2026-01-05 05:45:15.37	36.02	7.23	-53.9	-66.5	3.8	7.45e-01	0	27	104	0	75	16422
2026-01-05 05:45:16.36	35.90	7.29	-56.2	-70.7	3.9	7.46e-01	0	27	104	0	81	18930
2026-01-05 05:45:17.35	35.79	7.36	-56.8	-72.0	3.9	7.40e-01	0	27	104	0	82	20571
2026-01-05 05:45:18.34	35.68	7.42	-51.2	-62.9	3.8	7.48e-01	0	27	104	0	71	13573
2026-01-05 05:45:19.33	35.57	7.49	-51.2	-62.8	3.8	7.44e-01	0	27	104	0	71	13497
2026-01-05 05:45:20.32	35.45	7.55	-51.1	-62.7	3.9	7.48e-01	0	27	104	0	71	13363
2026-01-05 05:45:21.31	35.34	7.62	-50.9	-62.5	3.8	7.45e-01	0	27	104	0	70	13732
2026-01-05 05:45:22.30	35.22	7.68	-51.0	-62.6	3.8	7.46e-01	0	27	104	0	70	14032
2026-01-05 05:45:23.29	35.11	7.75	-54.3	-67.0	3.8	7.45e-01	0	27	104	0	76	16449
2026-01-05 05:45:24.28	34.99	7.81	-56.7	-71.9	3.9	7.46e-01	0	27	104	0	81	21723
2026-01-05 05:45:25.27	34.87	7.88	-52.2	-64.0	3.8	7.48e-01	0	27	104	0	73	13860
2026-01-05 05:45:26.27	34.75	7.94	-56.3	-71.0	3.9	7.43e-01	0	27	104	0	81	19412
2026-01-05 05:45:27.26	34.64	8.01	-52.3	-64.1	3.9	7.46e-01	0	27	104	0	73	14037
2026-01-05 05:45:28.25	34.52	8.07	-51.9	-63.8	3.8	7.44e-01	0	27	104	0	73	13425
2026-01-05 05:45:29.25	34.40	8.14	-52.0	-63.7	3.8	7.47e-01	0	27	104	0	72	14146
2026-01-05 05:45:30.24	34.28	8.21	-57.6	-74.9	3.9	7.42e-01	0	27	104	0	83	27352
2026-01-05 05:45:31.23	34.16	8.27	-53.9	-66.3	3.8	7.44e-01	0	27	104	0	77	14329
2026-01-05 05:45:32.23	34.03	8.34	-56.7	-72.0	3.9	7.45e-01	0	27	104	0	81	21854
2026-01-05 05:45:33.22	33.91	8.40	-57.3	-73.8	3.9	7.47e-01	0	27	104	0	83	24031
2026-01-05 05:45:34.22	33.79	8.47	-51.6	-63.4	3.8	7.45e-01	0	27	104	0	72	13621
2026-01-05 05:45:35.21	33.67	8.54	-51.6	-63.3	3.8	7.47e-01	0	27	104	0	72	13453
2026-01-05 05:45:36.20	33.54	8.60	-51.7	-63.4	3.8	7.46e-01	0	26	104	0	72	13709
2026-01-05 05:45:37.19	33.42	8.67	-51.4	-63.1	3.8	7.46e-01	0	27	104	0	72	13251
2026-01-05 05:45:38.19	33.29	8.74	-51.3	-63.0	3.8	7.46e-01	0	27	104	0	71	13757
2026-01-05 05:45:39.18	33.17	8.80	-54.0	-66.5	3.8	7.46e-01	0	27	104	0	75	16503
2026-01-05 05:45:40.17	33.04	8.87	-56.9	-72.4	3.9	7.46e-01	0	27	104	0	81	22846
2026-01-05 05:45:41.16	32.91	8.94	-52.1	-63.9	3.9	7.45e-01	0	27	104	0	73	13632
2026-01-05 05:45:42.15	32.79	9.00	-56.6	-71.6	3.9	7.46e-01	0	27	104	0	81	20832
2026-01-05 05:45:43.13	32.66	9.07	-52.0	-63.9	3.8	7.46e-01	0	27	104	0	73	13625
2026-01-05 05:45:44.13	32.53	9.14	-51.8	-63.6	3.8	7.43e-01	0	27	104	0	72	13886
2026-01-05 05:45:45.13	32.40	9.20	-51.1	-62.8	3.9	7.48e-01	0	27	104	0	71	13447
2026-01-05 05:45:46.12	32.27	9.27	-57.0	-72.4	3.8	7.44e-01	0	27	104	0	82	21674
2026-01-05 05:45:47.10	32.14	9.34	-54.1	-66.6	3.8	7.45e-01	0	27	104	0	77	14771
2026-01-05 05:45:48.10	32.01	9.40	-56.9	-72.3	3.8	7.44e-01	0	27	104	0	81	22751
2026-01-05 05:45:49.09	31.88	9.47	-57.7	-75.0	3.8	7.47e-01	0	27	104	0	83	27615
2026-01-05 05:45:50.09	31.74	9.54	-51.0	-62.6	3.8	7.44e-01	0	27	104	0	71	13163
2026-01-05 05:45:51.07	31.61	9.61	-51.0	-62.6	3.8	7.47e-01	0	27	104	0	71	13170
2026-01-05 05:45:52.06	31.48	9.67	-51.1	-62.7	3.9	7.45e-01	0	27	104	0	71	13326
2026-01-05 05:45:53.04	31.34	9.74	-50.7	-62.2	3.9	7.42e-01	0	27	104	0	70	13339
2026-01-05 05:45:54.04	31.21	9.81	-50.4	-61.9	3.8	7.43e-01	0	27	104	0	70	12834
2026-01-05 05:45:55.04	31.07	9.88	-53.7	-66.1	3.8	7.43e-01	0	27	104	0	75	15640
2026-01-05 05:45:56.02	30.93	9.94	-57.2	-72.9	3.9	7.48e-01	0	27	104	0	82	22859
2026-01-05 05:45:57.01	30.79	10.01	-50.6	-62.1	3.8	7.45e-01	0	27	104	0	70	13201
2026-01-05 05:45:58.00	30.66	10.08	-56.9	-72.3	3.8	7.44e-01	0	27	104	0	81	22643
2026-01-05 05:45:58.99	30.52	10.14	-50.6	-62.2	3.8	7.46e-01	0	27	104	0	70	13265
2026-01-05 05:45:59.98	30.38	10.21	-50.4	-61.8	3.8	7.46e-01	0	27	104	0	70	12796
2026-01-05 05:46:00.96	30.24	10.28	-50.3	-61.7	3.8	7.44e-01	0	27	104	0	69	13357
2026-01-05 05:46:01.96	30.10	10.35	-56.5	-70.8	3.8	7.44e-01	0	27	104	0	80	20136
2026-01-05 05:46:02.95	29.95	10.42	-53.3	-65.5	3.8	7.43e-01	0	27	104	0	74	15485
2026-01-05 05:46:03.95	29.81	10.48	-57.3	-72.8	3.8	7.45e-01	0	27	104	0	82	22687
2026-01-05 05:46:04.94	29.67	10.55	-50.6	-62.1	3.8	7.45e-01	0	27	104	0	70	13240
2026-01-05 05:46:05.93	29.52	10.62	-56.9	-71.8	3.9	7.48e-01	0	27	104	0	81	21481
2026-01-05 05:46:06.92	29.38	10.69	-50.9	-62.5	3.9	7.41e-01	0	27	104	0	71	13020
2026-01-05 05:46:07.90	29.23	10.76	-50.7	-62.2	3.8	7.44e-01	0	27	104	0	70	13341
2026-01-05 05:46:08.89	29.09	10.82	-50.7	-62.3	3.8	7.44e-01	0	27	104	0	70	13435
2026-01-05 05:46:09.89	28.94	10.89	-52.4	-64.3	3.9	7.46e-01	0	27	104	0	72	15093
2026-01-05 05:46:10.89	28.79	10.96	-52.9	-64.9	3.8	7.47e-01	0	27	104	0	73	15290
2026-01-05 05:46:11.88	28.64	11.03	-57.1	-72.3	3.8	7.44e-01	0	27	104	0	81	22776
2026-01-05 05:46:12.87	28.49	11.10	-51.1	-62.7	3.9	7.46e-01	0	27	104	0	71	13412
2026-01-05 05:46:13.86	28.34	11.17	-56.5	-71.0	3.9	7.44e-01	0	27	104	0	80	20549
2026-01-05 05:46:14.86	28.19	11.24	-51.0	-62.5	3.8	7.43e-01	0	27	104	0	71	13079
2026-01-05 05:46:15.84	28.04	11.30	-50.5	-61.9	3.9	7.44e-01	0	27	104	0	70	12914
2026-01-05 05:46:16.83	27.89	11.37	-50.0	-61.4	3.9	7.47e-01	0	27	104	0	69	12874
2026-01-05 05:46:17.83	27.73	11.44	-55.9	-69.6	3.8	7.47e-01	0	27	104	0	79	18541
2026-01-05 05:46:18.82	27.58	11.51	-54.4	-67.1	3.9	7.43e-01	0	27	104	0	77	15590
2026-01-05 05:46:19.81	27.43	11.58	-56.5	-70.7	3.8	7.51e-01	0	27	104	0	80	19974
2026-01-05 05:46:20.80	27.27	11.65	-57.4	-72.9	3.8	7.47e-01	0	27	104	0	82	23016
2026-01-05 05:46:21.79	27.11	11.71	-51.5	-63.2	3.8	7.45e-01	0	27	104	0	72	13269
2026-01-05 05:46:22.78	26.96	11.78	-51.3	-62.9	3.9	7.43e-01	0	27	104	0	71	13691
2026-01-05 05:46:23.77	26.80	11.85	-51.3	-63.0	3.9	7.46e-01	0	27	104	0	71	13771
2026-01-05 05:46:24.75	26.64	11.92	-50.7	-62.2	3.9	7.44e-01	0	27	104	0	70	13314
2026-01-05 05:46:25.75	26.48	11.99	-50.3	-61.7	3.8	7.43e-01	0	27	104	0	69	13300
2026-01-05 05:46:26.74	26.32	12.06	-52.2	-64.1	3.8	7.44e-01	0	27	104	0	72	14873
2026-01-05 05:46:27.73	26.16	12.12	-56.6	-70.9	3.9	7.46e-01	0	27	104	0	80	20537
2026-01-05 05:46:28.72	26.00	12.19	-51.8	-63.3	3.9	7.43e-01	0	27	104	0	72	13468
2026-01-05 05:46:29.72	25.83	12.26	-55.7	-69.3	3.9	7.49e-01	0	27	104	0	79	18093
2026-01-05 05:46:30.71	25.67	12.33	-51.7	-63.3	3.9	7.48e-01	0	27	104	0	72	13541
2026-01-05 05:46:31.71	25.50	12.40	-51.0	-62.5	3.9	7.49e-01	0	27	104	0	70	13814
2026-01-05 05:46:32.70	25.34	12.47	-50.7	-62.2	3.9	7.42e-01	0	27	104	0	70	13332
2026-01-05 05:46:33.69	25.17	12.54	-54.0	-66.4	3.8	7.46e-01	0	27	104	0	75	16144
2026-01-05 05:46:34.69	25.00	12.61	-54.5	-67.0	3.9	7.44e-01	0	27	104	0	77	15449
2026-01-05 05:46:35.68	24.83	12.67	-55.7	-69.1	3.8	7.45e-01	0	27	104	0	79	17659
2026-01-05 05:46:36.67	24.67	12.74	-57.0	-71.8	3.8	7.45e-01	0	27	104	0	81	21297
2026-01-05 05:46:37.66	24.50	12.81	-51.8	-63.2	3.9	7.44e-01	0	27	104	0	72	13333
2026-01-05 05:46:38.66	24.32	12.88	-51.2	-62.8	3.9	7.47e-01	0	27	104	0	71	13419
2026-01-05 05:46:39.66	24.15	12.95	-51.3	-63.0	3.9	7.45e-01	0	27	104	0	71	13747
2026-01-05 05:46:40.65	23.98	13.02	-50.6	-62.1	3.8	7.44e-01	0	27	104	0	70	13197
2026-01-05 05:46:41.64	23.81	13.08	-50.2	-61.7	3.9	7.45e-01	0	27	104	0	69	13273
2026-01-05 05:46:42.64	23.63	13.15	-51.7	-63.7	3.9	7.46e-01	0	27	104	0	71	14931
2026-01-05 05:46:43.64	23.45	13.22	-56.0	-69.5	3.8	7.45e-01	0	27	104	0	79	18416
2026-01-05 05:46:44.63	23.28	13.29	-52.9	-64.9	3.9	7.46e-01	0	27	104	0	75	13726
2026-01-05 05:46:45.62	23.10	13.36	-54.8	-67.5	3.8	7.46e-01	0	27	104	0	77	16423
2026-01-05 05:46:46.62	22.92	13.43	-52.2	-63.8	3.9	7.49e-01	0	27	104	0	73	13546
2026-01-05 05:46:47.60	22.74	13.49	-50.6	-62.1	3.9	7.46e-01	0	27	104	0	70	13238
2026-01-05 05:46:48.60	22.56	13.56	-50.2	-61.6	3.9	7.42e-01	0	27	104	0	69	13200
2026-01-05 05:46:49.58	22.39	13.63	-51.5	-63.0	3.8	7.45e-01	0	27	104	0	70	14657
2026-01-05 05:46:50.58	22.20	13.70	-50.1	-61.5	3.9	7.49e-01	0	27	104	0	69	13063
2026-01-05 05:46:51.58	22.02	13.77	-55.4	-68.4	3.8	7.51e-01	0	27	104	0	78	17255
2026-01-05 05:46:52.57	21.84	13.84	-52.9	-64.9	3.9	7.45e-01	0	27	104	0	75	13725
2026-01-05 05:46:53.57	21.65	13.90	-54.0	-66.2	3.8	7.44e-01	0	27	104	0	75	15928
2026-01-05 05:46:54.57	21.46	13.97	-52.2	-63.8	3.9	7.44e-01	0	27	104	0	73	13553
2026-01-05 05:46:55.57	21.28	14.04	-50.0	-61.4	3.9	7.41e-01	0	27	104	0	69	12838
2026-01-05 05:46:56.57	21.09	14.11	-49.8	-61.2	3.8	7.44e-01	0	27	104	0	68	13264
2026-01-05 05:46:57.56	20.90	14.18	-53.3	-65.5	3.8	7.45e-01	0	27	104	0	74	15560
2026-01-05 05:46:58.55	20.71	14.24	-50.1	-61.5	3.8	7.46e-01	0	27	104	0	69	13061
2026-01-05 05:46:59.55	20.52	14.31	-54.9	-67.6	3.9	7.48e-01	0	27	104	0	77	16545
2026-01-05 05:47:00.54	20.33	14.38	-53.9	-66.3	3.9	7.45e-01	0	27	104	0	77	14224
2026-01-05 05:47:01.54	20.14	14.44	-53.2	-65.1	3.8	7.46e-01	0	27	104	0	73	15677
2026-01-05 05:47:02.53	19.94	14.51	-52.9	-64.9	3.8	7.46e-01	0	27	104	0	75	13716
2026-01-05 05:47:03.52	19.75	14.58	-50.2	-61.5	3.9	7.46e-01	0	27	104	0	69	13061
2026-01-05 05:47:04.51	19.56	14.64	-50.1	-61.5	3.8	7.45e-01	0	27	104	0	69	12963
2026-01-05 05:47:05.51	19.36	14.71	-52.4	-64.2	3.9	7.47e-01	0	27	104	0	72	14990
2026-01-05 05:47:06.50	19.16	14.78	-50.3	-61.5	3.9	7.45e-01	0	27	104	0	69	13029
2026-01-05 05:47:07.51	18.96	14.85	-54.9	-67.5	3.8	7.45e-01	0	27	104	0	77	16392
2026-01-05 05:47:08.49	18.77	14.91	-54.6	-67.1	3.9	7.39e-01	0	27	104	0	78	14825
2026-01-05 05:47:09.49	18.57	14.98	-52.1	-63.7	3.8	7.44e-01	0	27	104	0	71	14884
2026-01-05 05:47:10.48	18.37	15.04	-53.7	-65.7	3.9	7.44e-01	0	27	104	0	76	14090
2026-01-05 05:47:11.48	18.16	15.11	-50.1	-61.5	3.9	7.52e-01	0	27	104	0	69	13064
2026-01-05 05:47:12.47	17.96	15.18	-50.0	-61.4	3.8	7.49e-01	0	27	104	0	69	12875
2026-01-05 05:47:13.46	17.76	15.24	-50.2	-61.6	3.9	7.44e-01	0	27	104	0	68	13949
2026-01-05 05:47:14.45	17.56	15.31	-50.0	-61.4	3.9	7.43e-01	0	27	104	0	69	12910
2026-01-05 05:47:15.44	17.35	15.37	-53.6	-65.6	3.8	7.47e-01	0	27	104	0	74	15751
2026-01-05 05:47:16.42	17.15	15.44	-55.5	-68.6	3.9	7.44e-01	0	27	104	0	80	15734
2026-01-05 05:47:17.42	16.94	15.50	-51.7	-63.1	3.8	7.44e-01	0	27	104	0	70	14763
2026-01-05 05:47:18.40	16.73	15.56	-54.8	-67.5	3.9	7.46e-01	0	27	104	0	79	14586
2026-01-05 05:47:19.40	16.52	15.63	-50.1	-61.4	3.9	7.44e-01	0	27	104	0	69	12898
2026-01-05 05:47:20.40	16.31	15.69	-49.9	-61.3	3.9	7.48e-01	0	27	104	0	69	12692
2026-01-05 05:47:21.38	16.10	15.76	-51.1	-62.6	3.8	7.45e-01	0	27	104	0	69	14726
2026-01-05 05:47:22.37	15.89	15.82	-55.2	-68.1	3.9	7.47e-01	0	27	104	0	79	15581
2026-01-05 05:47:23.36	15.68	15.89	-52.9	-64.7	3.8	7.48e-01	0	27	104	0	73	15004
2026-01-05 05:47:24.36	15.46	15.95	-56.4	-70.3	3.9	7.43e-01	0	27	104	0	82	17077
2026-01-05 05:47:25.36	15.25	16.01	-51.0	-62.5	3.8	7.47e-01	0	27	104	0	70	13739
2026-01-05 05:47:26.36	15.03	16.08	-54.6	-67.2	3.9	7.47e-01	0	27	104	0	78	15006
2026-01-05 05:47:27.35	14.81	16.14	-50.7	-62.2	3.9	7.43e-01	0	27	104	0	70	13326
2026-01-05 05:47:28.35	14.59	16.20	-50.4	-61.8	3.9	7.46e-01	0	27	104	0	70	12690
2026-01-05 05:47:29.34	14.38	16.27	-50.2	-61.5	3.8	7.42e-01	0	27	104	0	69	13034
2026-01-05 05:47:30.33	14.16	16.33	-51.6	-63.2	3.9	7.47e-01	0	27	104	0	72	13341
2026-01-05 05:47:31.33	13.93	16.39	-52.5	-64.3	3.9	7.45e-01	0	27	104	0	72	15086
2026-01-05 05:47:32.33	13.71	16.45	-56.7	-70.8	3.9	7.43e-01	0	27	104	0	82	18079
2026-01-05 05:47:33.33	13.49	16.51	-50.3	-61.6	3.8	7.44e-01	0	27	104	0	69	13178
2026-01-05 05:47:34.32	13.26	16.58	-55.1	-67.9	3.9	7.43e-01	0	27	104	0	79	15382
2026-01-05 05:47:35.32	13.04	16.64	-50.2	-61.6	3.8	7.45e-01	0	27	104	0	69	13127
2026-01-05 05:47:36.32	12.81	16.70	-50.0	-61.3	3.9	7.44e-01	0	27	104	0	69	12776
2026-01-05 05:47:37.31	12.58	16.76	-50.7	-62.2	3.9	7.46e-01	0	27	104	0	69	14145
2026-01-05 05:47:38.31	12.35	16.82	-53.4	-65.4	3.9	7.44e-01	0	27	104	0	76	13720
2026-01-05 05:47:39.30	12.13	16.88	-52.4	-64.1	3.9	7.44e-01	0	27	104	0	72	14803
2026-01-05 05:47:40.31	11.89	16.94	-56.7	-70.8	3.9	7.46e-01	0	27	104	0	82	18066
2026-01-05 05:47:41.30	11.66	17.00	-50.1	-61.4	3.8	7.47e-01	0	27	104	0	69	12902
2026-01-05 05:47:42.30	11.43	17.06	-55.1	-67.9	3.9	7.42e-01	0	27	104	0	79	15389
2026-01-05 05:47:43.31	11.19	17.12	-50.3	-61.8	3.9	7.44e-01	0	27	104	0	69	13441
2026-01-05 05:47:44.30	10.96	17.18	-50.1	-61.5	3.8	7.49e-01	0	27	104	0	69	13011
2026-01-05 05:47:45.30	10.72	17.24	-50.0	-61.3	3.9	7.42e-01	0	27	104	0	69	12723
2026-01-05 05:47:46.30	10.49	17.29	-53.6	-65.7	3.9	7.45e-01	0	27	104	0	76	14139
2026-01-05 05:47:47.29	10.25	17.35	-52.3	-64.0	3.8	7.45e-01	0	27	104	0	72	14552
2026-01-05 05:47:48.30	10.01	17.41	-57.1	-71.7	3.9	7.46e-01	0	27	104	0	83	18899
2026-01-05 05:47:49.30	9.77	17.47	-50.1	-61.4	3.9	7.47e-01	0	27	104	0	69	12951
2026-01-05 05:47:50.30	9.53	17.52	-55.5	-68.6	3.9	7.45e-01	0	27	104	0	80	15645
2026-01-05 05:47:51.30	9.28	17.58	-50.3	-61.7	3.9	7.48e-01	0	27	104	0	69	13280
2026-01-05 05:47:52.30	9.04	17.64	-50.3	-61.7	3.9	7.45e-01	0	27	104	0	69	13386
2026-01-05 05:47:53.29	8.80	17.69	-50.7	-62.1	3.9	7.47e-01	0	27	104	0	69	14030
2026-01-05 05:47:54.28	8.56	17.75	-54.7	-67.2	3.9	7.42e-01	0	27	104	0	78	14908
2026-01-05 05:47:55.28	8.31	17.80	-52.3	-63.9	3.8	7.46e-01	0	27	104	0	72	14507
2026-01-05 05:47:56.28	8.06	17.86	-57.2	-71.8	3.9	7.45e-01	0	27	104	0	83	18981
2026-01-05 05:47:57.28	7.82	17.91	-50.2	-61.5	3.9	7.46e-01	0	27	104	0	69	13057
2026-01-05 05:47:58.28	7.57	17.96	-55.4	-68.4	3.9	7.45e-01	0	27	104	0	80	15254
2026-01-05 05:47:59.27	7.32	18.02	-50.5	-62.0	3.9	7.43e-01	0	27	104	0	70	12972
2026-01-05 05:48:00.27	7.07	18.07	-50.3	-61.7	3.8	7.46e-01	0	27	104	0	69	13370
2026-01-05 05:48:01.27	6.82	18.12	-50.1	-61.4	3.8	7.44e-01	0	27	104	0	69	12937
2026-01-05 05:48:02.27	6.56	18.18	-54.9	-67.5	3.9	7.46e-01	0	27	104	0	78	15563
2026-01-05 05:48:03.26	6.31	18.23	-52.3	-64.0	3.8	7.46e-01	0	27	104	0	73	13766
2026-01-05 05:48:04.25	6.06	18.28	-57.1	-71.7	3.9	7.47e-01	0	27	104	0	83	18845
2026-01-05 05:48:05.26	5.80	18.33	-50.0	-61.3	3.9	7.46e-01	0	27	104	0	69	12767
2026-01-05 05:48:06.26	5.55	18.38	-55.5	-68.5	3.9	7.41e-01	0	27	104	0	80	15547
2026-01-05 05:48:07.26	5.29	18.43	-50.1	-61.5	3.9	7.45e-01	0	27	104	0	69	12963
2026-01-05 05:48:08.26	5.03	18.48	-50.0	-61.3	3.9	7.45e-01	0	27	104	0	69	12786
2026-01-05 05:48:09.25	4.78	18.53	-50.2	-61.5	3.9	7.42e-01	0	27	104	0	69	13054
2026-01-05 05:48:10.24	4.52	18.58	-54.9	-67.6	3.9	7.44e-01	0	27	104	0	79	14869
2026-01-05 05:48:11.24	4.26	18.62	-52.2	-64.1	3.8	7.44e-01	0	27	104	0	72	14717
2026-01-05 05:48:12.23	4.00	18.67	-57.5	-72.6	3.9	7.47e-01	0	27	104	0	83	20972
2026-01-05 05:48:13.23	3.74	18.72	-49.9	-61.2	3.9	7.44e-01	0	27	104	0	69	12664
2026-01-05 05:48:14.22	3.48	18.76	-55.8	-69.0	3.9	7.46e-01	0	27	104	0	80	16400
2026-01-05 05:48:15.22	3.21	18.81	-50.3	-61.7	3.9	7.47e-01	0	27	104	0	69	13268
2026-01-05 05:48:16.21	2.95	18.86	-50.1	-61.4	3.9	7.42e-01	0	27	104	0	69	12904
2026-01-05 05:48:17.21	2.68	18.90	-50.0	-61.4	3.8	7.46e-01	0	27	104	0	69	12860
2026-01-05 05:48:18.21	2.42	18.95	-53.1	-65.0	3.9	7.48e-01	0	27	104	0	75	13858
2026-01-05 05:48:19.20	2.15	18.99	-52.1	-63.7	3.9	7.44e-01	0	27	104	0	71	14946
2026-01-05 05:48:20.19	1.89	19.03	-57.7	-73.3	3.9	7.45e-01	0	27	104	0	83	22532
2026-01-05 05:48:21.18	1.62	19.07	-50.6	-62.0	3.9	7.45e-01	0	27	104	0	70	13009
2026-01-05 05:48:22.16	1.35	19.12	-56.0	-69.4	3.9	7.44e-01	0	27	104	0	80	17100
2026-01-05 05:48:23.15	1.09	19.16	-50.5	-61.9	3.9	7.43e-01	0	27	104	0	70	12880
2026-01-05 05:48:24.13	0.82	19.20	-50.4	-61.8	3.9	7.42e-01	0	27	104	0	70	12719
2026-01-05 05:48:25.13	0.55	19.24	-50.4	-61.8	3.9	7.44e-01	0	27	104	0	69	13549
2026-01-05 05:48:26.11	0.28	19.28	-55.4	-68.3	3.8	7.47e-01	0	27	104	0	78	16958
2026-01-05 05:48:27.10	0.01	19.32	-52.1	-63.8	3.9	7.45e-01	0	27	104	0	73	13433
2026-01-05 05:48:28.10	359.73	19.36	-57.9	-74.0	3.8	7.44e-01	0	27	104	0	83	24511
2026-01-05 05:48:29.09	359.46	19.39	-50.6	-62.0	3.8	7.46e-01	0	27	104	0	70	13090
2026-01-05 05:48:30.09	359.19	19.43	-56.4	-70.1	3.8	7.44e-01	0	27	104	0	80	18590
2026-01-05 05:48:31.08	358.91	19.47	-50.3	-61.6	3.9	7.47e-01	0	27	104	0	69	13222
2026-01-05 05:48:32.08	358.63	19.51	-50.2	-61.5	3.9	7.46e-01	0	27	104	0	69	13108
2026-01-05 05:48:33.08	358.36	19.54	-50.2	-61.5	3.9	7.45e-01	0	27	104	0	69	13054
2026-01-05 05:48:34.07	358.08	19.58	-54.6	-67.1	3.9	7.46e-01	0	27	104	0	77	15651
2026-01-05 05:48:35.07	357.80	19.61	-51.9	-63.6	3.9	7.45e-01	0	27	104	0	71	14749
2026-01-05 05:48:36.07	357.52	19.65	-57.9	-73.9	3.8	7.46e-01	0	27	104	0	83	24272
2026-01-05 05:48:37.06	357.24	19.68	-50.9	-62.3	3.9	7.46e-01	0	27	104	0	71	12796
2026-01-05 05:48:38.06	356.96	19.71	-56.4	-70.1	3.8	7.45e-01	0	27	104	0	80	18635
2026-01-05 05:48:39.06	356.68	19.74	-50.7	-62.0	3.9	7.46e-01	0	27	104	0	70	13067
2026-01-05 05:48:40.05	356.40	19.78	-49.8	-61.3	3.8	7.44e-01	0	27	104	0	69	12670
2026-01-05 05:48:41.04	356.12	19.81	-50.4	-61.8	3.9	7.46e-01	0	27	104	0	69	13460
2026-01-05 05:48:42.04	355.83	19.84	-56.9	-71.3	3.8	7.44e-01	0	27	104	0	81	20114
2026-01-05 05:48:43.03	355.55	19.87	-52.0	-63.6	3.8	7.44e-01	0	27	104	0	71	14845
2026-01-05 05:48:44.03	355.27	19.89	-58.0	-74.4	3.8	7.44e-01	0	27	104	0	83	25632
2026-01-05 05:48:45.02	354.98	19.92	-50.9	-62.3	3.8	7.43e-01	0	27	104	0	71	12750
2026-01-05 05:48:46.02	354.70	19.95	-56.5	-70.3	3.8	7.45e-01	0	27	104	0	80	19106
2026-01-05 05:48:47.02	354.41	19.98	-50.4	-61.8	3.8	7.43e-01	0	27	104	0	70	12683
2026-01-05 05:48:48.01	354.13	20.00	-50.3	-61.7	3.9	7.42e-01	0	27	104	0	69	13308
2026-01-05 05:48:49.01	353.84	20.03	-50.3	-61.6	3.8	7.47e-01	0	27	104	0	69	13240
2026-01-05 05:48:50.00	353.55	20.05	-55.5	-68.4	3.8	7.45e-01	0	27	104	0	78	17179
2026-01-05 05:48:51.00	353.26	20.08	-51.9	-63.5	3.8	7.48e-01	0	27	104	0	71	14704
2026-01-05 05:48:52.00	352.97	20.10	-58.1	-74.5	3.8	7.47e-01	0	27	104	0	83	26042
2026-01-05 05:48:53.00	352.68	20.12	-51.5	-63.1	3.9	7.45e-01	0	27	104	0	72	13222
2026-01-05 05:48:54.00	352.39	20.14	-56.6	-70.4	3.8	7.47e-01	0	27	104	0	80	19168
2026-01-05 05:48:54.99	352.11	20.17	-51.1	-62.5	3.9	7.44e-01	0	27	104	0	71	13101
2026-01-05 05:48:55.99	351.81	20.19	-50.8	-62.2	3.9	7.46e-01	0	27	104	0	70	13385
2026-01-05 05:48:56.98	351.53	20.21	-50.6	-62.0	3.9	7.47e-01	0	27	104	0	70	13028
2026-01-05 05:48:57.97	351.24	20.22	-52.5	-64.4	3.8	7.46e-01	0	27	104	0	72	15230
2026-01-05 05:48:58.97	350.94	20.24	-52.0	-63.6	3.8	7.45e-01	0	27	104	0	71	14825
2026-01-05 05:48:59.96	350.66	20.26	-58.1	-74.4	3.8	7.43e-01	0	27	104	0	83	25636
2026-01-05 05:49:00.96	350.36	20.28	-51.4	-62.9	3.8	7.45e-01	0	27	104	0	72	12848
2026-01-05 05:49:01.94	350.07	20.29	-56.5	-70.2	3.8	7.47e-01	0	27	104	0	80	18831
2026-01-05 05:49:02.94	349.78	20.31	-51.0	-62.5	3.8	7.42e-01	0	27	104	0	71	12979
2026-01-05 05:49:03.93	349.49	20.32	-50.8	-62.3	3.9	7.46e-01	0	27	104	0	70	13461
2026-01-05 05:49:04.93	349.20	20.34	-50.5	-61.9	3.8	7.50e-01	0	27	104	0	70	12923
2026-01-05 05:49:05.92	348.90	20.35	-56.6	-70.3	3.8	7.47e-01	0	27	104	0	80	19153
2026-01-05 05:49:06.91	348.61	20.36	-51.9	-63.4	3.9	7.48e-01	0	27	104	0	71	14535
2026-01-05 05:49:07.91	348.32	20.37	-58.4	-74.9	3.9	7.51e-01	0	27	104	0	84	25597
2026-01-05 05:49:08.90	348.02	20.38	-51.5	-63.0	3.9	7.47e-01	0	27	104	0	72	13022
2026-01-05 05:49:09.89	347.73	20.39	-56.4	-69.9	3.8	7.46e-01	0	27	104	0	80	18107
2026-01-05 05:49:10.88	347.44	20.40	-50.7	-62.1	3.9	7.46e-01	0	27	104	0	70	13250
2026-01-05 05:49:11.87	347.15	20.41	-50.5	-62.0	3.8	7.42e-01	0	27	104	0	70	13002
2026-01-05 05:49:12.86	346.85	20.42	-50.4	-61.8	3.9	7.45e-01	0	27	104	0	70	12778
2026-01-05 05:49:13.85	346.56	20.43	-55.2	-68.0	3.8	7.46e-01	0	27	104	0	78	16325
2026-01-05 05:49:14.84	346.27	20.43	-51.6	-63.0	3.8	7.44e-01	0	27	104	0	70	14703
2026-01-05 05:49:15.84	345.97	20.44	-58.3	-74.8	3.8	7.43e-01	0	27	104	0	84	25470
2026-01-05 05:49:16.82	345.68	20.44	-51.7	-63.2	3.9	7.48e-01	0	27	104	0	72	13382
2026-01-05 05:49:17.81	345.39	20.45	-56.3	-69.8	3.8	7.44e-01	0	27	104	0	80	17903
2026-01-05 05:49:18.79	345.10	20.45	-51.0	-62.4	3.9	7.44e-01	0	27	104	0	71	12868
2026-01-05 05:49:19.79	344.80	20.45	-50.8	-62.1	3.8	7.44e-01	0	27	104	0	70	13209
2026-01-05 05:49:20.79	344.50	20.45	-50.6	-62.0	3.8	7.47e-01	0	27	104	0	70	12997
2026-01-05 05:49:21.78	344.21	20.45	-56.5	-70.1	3.8	7.47e-01	0	27	104	0	80	18717
2026-01-05 05:49:22.76	343.92	20.46	-51.5	-63.0	3.8	7.47e-01	0	27	104	0	71	13859
2026-01-05 05:49:23.75	343.62	20.45	-58.0	-73.8	3.8	7.45e-01	0	27	104	0	83	23889
2026-01-05 05:49:24.74	343.33	20.45	-52.1	-63.8	3.8	7.44e-01	0	27	104	0	73	13447
2026-01-05 05:49:25.73	343.04	20.45	-55.7	-68.8	3.8	7.49e-01	0	27	104	0	79	17063
2026-01-05 05:49:26.72	342.74	20.45	-51.5	-63.1	3.9	7.47e-01	0	27	104	0	72	13196
2026-01-05 05:49:27.70	342.45	20.44	-50.8	-62.3	3.8	7.45e-01	0	27	104	0	70	13521
2026-01-05 05:49:28.70	342.15	20.44	-50.7	-62.1	3.9	7.46e-01	0	27	104	0	70	13183
2026-01-05 05:49:29.68	341.86	20.43	-53.1	-64.9	3.8	7.46e-01	0	27	104	0	73	15318
2026-01-05 05:49:30.67	341.57	20.43	-51.3	-62.7	3.8	7.47e-01	0	27	104	0	71	13349
2026-01-05 05:49:31.65	341.28	20.42	-57.9	-73.4	3.8	7.51e-01	0	27	104	0	83	22856
2026-01-05 05:49:32.65	340.98	20.41	-53.0	-65.0	3.9	7.46e-01	0	27	104	0	75	13776
2026-01-05 05:49:33.64	340.69	20.41	-55.2	-67.4	3.8	7.44e-01	0	27	104	0	77	16146
2026-01-05 05:49:34.64	340.40	20.40	-52.0	-63.6	3.9	7.44e-01	0	27	104	0	73	13157
2026-01-05 05:49:35.63	340.10	20.39	-50.8	-62.3	3.9	7.42e-01	0	27	104	0	70	13525
2026-01-05 05:49:36.63	339.81	20.38	-50.9	-62.2	3.9	7.44e-01	0	27	104	0	70	13414
2026-01-05 05:49:37.62	339.51	20.37	-53.0	-64.8	3.8	7.50e-01	0	27	104	0	73	15089
2026-01-05 05:49:38.61	339.22	20.35	-51.3	-62.7	3.8	7.49e-01	0	27	104	0	71	13335
2026-01-05 05:49:39.61	338.93	20.34	-57.7	-73.0	3.8	7.45e-01	0	27	104	0	83	21972
2026-01-05 05:49:40.60	338.64	20.33	-53.0	-64.9	3.9	7.49e-01	0	27	104	0	75	13577
2026-01-05 05:49:41.60	338.34	20.31	-54.1	-66.2	3.8	7.46e-01	0	27	104	0	75	15773
2026-01-05 05:49:42.59	338.05	20.30	-51.7	-63.1	3.9	7.44e-01	0	27	104	0	72	13189
2026-01-05 05:49:43.57	337.76	20.28	-50.7	-62.2	3.9	7.47e-01	0	28	104	0	70	13310
2026-01-05 05:49:44.57	337.47	20.27	-50.6	-62.0	3.8	7.45e-01	0	27	104	0	70	13007
2026-01-05 05:49:45.56	337.18	20.25	-54.0	-66.1	3.9	7.45e-01	0	27	104	0	75	15638
2026-01-05 05:49:46.55	336.89	20.23	-51.2	-62.6	3.8	7.47e-01	0	27	104	0	71	13250
2026-01-05 05:49:47.54	336.60	20.21	-56.8	-70.6	3.8	7.45e-01	0	27	104	0	81	18723
2026-01-05 05:49:48.53	336.31	20.19	-54.7	-67.0	3.9	7.45e-01	0	27	104	0	78	14565
2026-01-05 05:49:49.51	336.03	20.17	-53.4	-65.5	3.8	7.46e-01	0	27	104	0	74	15414
2026-01-05 05:49:50.50	335.74	20.15	-52.9	-64.7	3.8	7.46e-01	0	27	104	0	75	13412
2026-01-05 05:49:51.49	335.45	20.13	-50.7	-62.1	3.9	7.46e-01	0	27	104	0	70	13221
2026-01-05 05:49:52.47	335.17	20.11	-50.7	-62.1	3.8	7.44e-01	0	27	104	0	70	13222
2026-01-05 05:49:53.47	334.88	20.09	-53.7	-65.6	3.8	7.47e-01	0	27	104	0	74	15683
2026-01-05 05:49:54.45	334.59	20.06	-52.4	-64.1	3.9	7.46e-01	0	27	104	0	74	13234
2026-01-05 05:49:55.44	334.31	20.04	-55.2	-67.6	3.8	7.44e-01	0	27	104	0	77	16678
2026-01-05 05:49:56.43	334.02	20.01	-56.4	-70.2	3.9	7.46e-01	0	27	104	0	82	16777
2026-01-05 05:49:57.42	333.74	19.99	-51.6	-62.9	3.8	7.44e-01	0	27	104	0	70	14498
2026-01-05 05:49:58.40	333.46	19.96	-54.4	-66.8	3.9	7.48e-01	0	27	104	0	78	14266
2026-01-05 05:49:59.39	333.17	19.94	-50.8	-62.4	3.8	7.46e-01	0	27	104	0	70	13601
2026-01-05 05:50:00.38	332.89	19.91	-51.0	-62.3	3.8	7.45e-01	0	27	104	0	70	13522
2026-01-05 05:50:01.38	332.60	19.88	-51.7	-63.4	3.8	7.45e-01	0	27	104	0	71	14481
2026-01-05 05:50:02.37	332.32	19.85	-52.4	-64.3	3.9	7.47e-01	0	27	104	0	74	13543
2026-01-05 05:50:03.38	332.03	19.82	-54.4	-66.5	3.8	7.46e-01	0	27	104	0	76	15569
2026-01-05 05:50:04.37	331.75	19.79	-56.8	-71.3	3.9	7.42e-01	0	27	104	0	83	18016
2026-01-05 05:50:05.36	331.47	19.76	-51.1	-62.8	3.8	7.46e-01	0	27	104	0	70	14364
2026-01-05 05:50:06.35	331.19	19.73	-54.3	-66.0	3.8	7.46e-01	0	27	104	0	77	13832
2026-01-05 05:50:07.35	330.91	19.69	-50.7	-61.8	3.9	7.43e-01	0	27	104	0	70	12769
2026-01-05 05:50:08.34	330.63	19.66	-50.8	-62.6	3.8	7.43e-01	0	27	104	0	70	13922
2026-01-05 05:50:09.33	330.35	19.63	-50.8	-62.4	3.8	7.47e-01	0	27	104	0	70	13636
2026-01-05 05:50:10.32	330.08	19.59	-52.2	-63.5	3.8	7.43e-01	0	27	104	0	73	12979
2026-01-05 05:50:11.31	329.80	19.56	-53.6	-65.6	3.8	7.41e-01	0	27	104	0	74	15709
2026-01-05 05:50:12.30	329.52	19.52	-58.0	-73.6	3.8	7.44e-01	0	27	104	0	84	22068
2026-01-05 05:50:13.29	329.25	19.49	-50.7	-61.9	3.9	7.44e-01	0	27	104	0	70	12825
2026-01-05 05:50:14.28	328.97	19.45	-55.4	-68.4	3.8	7.42e-01	0	27	104	0	80	15304
2026-01-05 05:50:15.27	328.70	19.41	-50.7	-61.8	3.8	7.43e-01	0	27	104	0	70	12709
2026-01-05 05:50:16.25	328.43	19.38	-50.6	-62.1	3.8	7.47e-01	0	27	104	0	70	13188
2026-01-05 05:50:17.24	328.16	19.34	-50.7	-62.4	3.8	7.44e-01	0	27	104	0	70	13592
2026-01-05 05:50:18.23	327.89	19.30	-53.8	-65.0	3.9	7.47e-01	0	27	104	0	76	12975
2026-01-05 05:50:19.22	327.62	19.26	-52.6	-64.6	3.9	7.45e-01	0	27	104	0	72	15630
2026-01-05 05:50:20.21	327.35	19.22	-58.2	-74.3	3.9	7.43e-01	0	27	104	0	84	23883
2026-01-05 05:50:21.20	327.08	19.18	-50.9	-62.0	3.9	7.45e-01	0	27	104	0	71	12269
2026-01-05 05:50:22.19	326.81	19.14	-56.1	-70.0	3.9	7.42e-01	0	27	104	0	81	17378
2026-01-05 05:50:23.18	326.54	19.10	-51.0	-61.7	3.8	7.46e-01	0	27	104	0	71	11905
2026-01-05 05:50:24.16	326.27	19.06	-51.0	-62.7	3.9	7.45e-01	0	27	104	0	71	13379
2026-01-05 05:50:25.15	326.01	19.01	-51.1	-63.3	3.8	7.46e-01	0	27	104	0	71	14277
2026-01-05 05:50:26.13	325.75	18.97	-56.1	-68.6	3.9	7.45e-01	0	27	104	0	81	14863
2026-01-05 05:50:27.12	325.48	18.93	-52.2	-63.8	3.9	7.43e-01	0	27	104	0	72	14321
2026-01-05 05:50:28.11	325.22	18.88	-58.4	-74.9	3.8	7.48e-01	0	27	104	0	84	25644
2026-01-05 05:50:29.10	324.95	18.84	-51.2	-62.9	3.9	7.47e-01	0	27	104	0	71	13647
2026-01-05 05:50:30.09	324.69	18.79	-56.4	-69.8	3.8	7.44e-01	0	27	104	0	81	16977
2026-01-05 05:50:31.08	324.43	18.74	-51.0	-61.8	3.8	7.45e-01	0	27	104	0	71	12051
2026-01-05 05:50:32.07	324.17	18.70	-51.1	-63.5	3.8	7.44e-01	0	27	104	0	71	14676
2026-01-05 05:50:33.06	323.91	18.65	-51.0	-62.5	3.8	7.47e-01	0	27	104	0	71	12984
2026-01-05 05:50:34.05	323.65	18.60	-54.7	-66.7	3.9	7.43e-01	0	27	104	0	77	15042
2026-01-05 05:50:35.04	323.39	18.56	-52.1	-63.6	3.8	7.42e-01	0	27	104	0	73	13180
2026-01-05 05:50:36.03	323.13	18.51	-58.4	-74.8	3.8	7.44e-01	0	27	104	0	84	25490
2026-01-05 05:50:37.01	322.88	18.46	-51.1	-63.2	3.8	7.45e-01	0	27	104	0	71	14116
2026-01-05 05:50:38.00	322.63	18.41	-56.7	-70.0	3.8	7.44e-01	0	27	104	0	81	17314
2026-01-05 05:50:38.98	322.37	18.36	-51.0	-62.8	3.8	7.48e-01	0	27	104	0	71	13489
2026-01-05 05:50:39.98	322.12	18.31	-51.2	-62.8	3.8	7.43e-01	0	27	104	0	71	13498
2026-01-05 05:50:40.97	321.86	18.26	-50.4	-52.1	5.2	7.07e-01	0	27	104	0	70	4182
2026-01-05 05:50:41.97	321.61	18.21	-50.6	-52.3	15.2	6.04e-01	0	27	0	1048576	69	4525
2026-01-05 05:50:42.96	321.36	18.16	-50.8	-52.7	15.1	6.06e-01	0	27	0	3145728	69	4731
2026-01-05 05:50:43.95	321.11	18.11	-50.2	-51.9	15.3	6.04e-01	0	27	0	4718592	68	4562
2026-01-05 05:50:44.94	320.86	18.05	-50.0	-51.7	15.4	6.05e-01	0	27	0	6815744	69	4207
2026-01-05 05:50:45.93	320.61	18.00	-50.4	-52.1	15.2	6.03e-01	0	27	0	8388608	68	4691
2026-01-05 05:50:46.93	320.36	17.95	-50.0	-51.7	15.3	6.05e-01	0	27	0	10485760	68	4443
2026-01-05 05:50:47.92	320.12	17.89	-50.2	-51.9	15.3	6.02e-01	0	27	0	12058624	68	4560
2026-01-05 05:50:48.91	319.87	17.84	-49.6	-51.2	15.5	6.03e-01	0	27	0	14155776	68	4201
2026-01-05 05:50:49.89	319.63	17.79	-50.1	-51.8	15.3	6.06e-01	0	27	0	15728640	68	4503
2026-01-05 05:50:50.89	319.38	17.73	-49.8	-51.4	15.4	6.04e-01	0	27	0	17825792	68	4328
2026-01-05 05:50:51.87	319.14	17.68	-50.0	-51.7	15.3	6.02e-01	0	27	0	19922944	68	4444
2026-01-05 05:50:52.87	318.90	17.62	-49.7	-51.4	15.4	6.03e-01	0	27	0	21495808	68	4304
2026-01-05 05:50:53.86	318.66	17.56	-50.1	-51.8	15.3	6.04e-01	0	27	0	23592960	68	4517
2026-01-05 05:50:54.86	318.41	17.51	-49.9	-51.5	15.4	6.03e-01	0	27	0	25165824	68	4359
2026-01-05 05:50:55.86	318.17	17.45	-50.5	-52.2	15.2	6.02e-01	0	27	0	27262976	68	4757
2026-01-05 05:50:56.85	317.94	17.39	-49.6	-51.1	15.5	6.04e-01	0	27	0	28835840	68	4190
2026-01-05 05:50:57.84	317.70	17.34	-50.1	-51.8	15.3	6.04e-01	0	27	0	30932992	68	4545
2026-01-05 05:50:58.83	317.46	17.28	-49.6	-51.2	15.5	6.03e-01	0	27	0	32505856	68	4212
2026-01-05 05:50:59.83	317.23	17.22	-50.0	-51.6	15.3	6.04e-01	0	27	0	34603008	68	4438
2026-01-05 05:51:00.82	316.99	17.16	-50.1	-51.8	15.3	6.03e-01	0	27	0	36700160	68	4523
2026-01-05 05:51:01.81	316.76	17.10	-49.6	-51.2	15.4	6.03e-01	0	27	0	38273024	68	4226
2026-01-05 05:51:02.79	316.53	17.05	-49.9	-51.6	15.3	6.03e-01	0	27	0	40370176	68	4426
2026-01-05 05:51:03.78	316.30	16.99	-49.8	-51.5	15.4	6.04e-01	0	27	0	41943040	68	4344
2026-01-05 05:51:04.77	316.07	16.93	-50.3	-52.1	15.2	6.04e-01	0	27	0	44040192	68	4660
2026-01-05 05:51:05.76	315.84	16.87	-49.5	-51.1	15.5	6.04e-01	0	27	0	45613056	68	4176
2026-01-05 05:51:06.75	315.61	16.81	-50.3	-52.1	15.2	6.02e-01	0	27	0	47710208	68	4663
2026-01-05 05:51:07.74	315.38	16.75	-49.6	-51.2	15.5	6.03e-01	0	27	0	49283072	68	4211
2026-01-05 05:51:08.73	315.16	16.69	-50.2	-52.0	15.3	6.04e-01	0	27	0	51380224	69	4350
2026-01-05 05:51:09.72	314.93	16.63	-49.6	-51.2	15.3	6.05e-01	0	27	0	52953088	67	4469
2026-01-05 05:51:10.72	314.71	16.56	-49.8	-51.5	15.3	6.04e-01	0	27	0	55050240	68	4377
2026-01-05 05:51:11.71	314.48	16.50	-49.5	-51.1	15.3	6.05e-01	0	27	0	57147392	67	4429
2026-01-05 05:51:12.69	314.26	16.44	-49.9	-51.5	15.3	6.03e-01	0	27	0	58720256	68	4381
2026-01-05 05:51:13.69	314.04	16.38	-49.8	-51.4	15.3	6.04e-01	0	27	0	60817408	67	4589
2026-01-05 05:51:14.68	313.82	16.32	-50.1	-51.7	15.3	6.03e-01	0	27	0	62390272	68	4491
2026-01-05 05:51:15.66	313.60	16.26	-50.4	-52.1	15.2	6.04e-01	0	27	0	64487424	68	4684
2026-01-05 05:51:16.65	313.38	16.19	-50.1	-51.9	15.2	6.05e-01	0	27	0	66060288	68	4556
2026-01-05 05:51:17.64	313.16	16.13	-50.1	-51.8	15.3	6.03e-01	0	27	0	68157440	68	4496
2026-01-05 05:51:18.63	312.95	16.07	-49.9	-51.6	15.3	6.04e-01	0	27	0	69730304	68	4414
2026-01-05 05:51:19.62	312.73	16.01	-49.9	-51.6	15.3	6.02e-01	0	27	0	71827456	68	4419
2026-01-05 05:51:20.61	312.52	15.94	-50.0	-51.7	15.3	6.05e-01	0	27	0	73400320	68	4448
2026-01-05 05:51:21.61	312.30	15.88	-50.1	-51.8	15.3	6.03e-01	0	27	0	75497472	68	4531
2026-01-05 05:51:22.59	312.09	15.81	-50.4	-52.2	15.2	6.04e-01	0	27	0	77070336	68	4720
2026-01-05 05:51:23.59	311.88	15.75	-50.3	-52.0	15.2	6.04e-01	0	27	0	79167488	68	4610
2026-01-05 05:51:24.59	311.67	15.69	-50.7	-52.6	15.2	6.04e-01	0	27	0	80740352	69	4682
2026-01-05 05:51:25.58	311.46	15.62	-50.2	-51.8	15.4	6.04e-01	0	27	0	82837504	69	4288
2026-01-05 05:51:26.57	311.25	15.56	-50.8	-52.6	15.1	6.03e-01	0	27	0	84934656	69	4690
2026-01-05 05:51:27.56	311.04	15.49	-50.3	-52.0	15.3	6.04e-01	0	27	0	86507520	69	4378
2026-01-05 05:51:28.55	310.83	15.43	-50.6	-52.4	15.3	6.04e-01	0	27	0	88604672	69	4549
2026-01-05 05:51:29.54	310.63	15.36	-50.5	-52.3	15.2	6.04e-01	0	27	0	90177536	69	4522
2026-01-05 05:51:30.53	310.42	15.30	-50.3	-52.1	15.3	6.03e-01	0	27	0	92274688	69	4404
2026-01-05 05:51:31.52	310.22	15.23	-50.3	-52.0	15.3	6.03e-01	0	27	0	93847552	69	4363
2026-01-05 05:51:32.52	310.01	15.17	-50.0	-51.7	15.4	6.06e-01	0	27	0	95944704	69	4202
2026-01-05 05:51:33.51	309.81	15.10	-49.9	-51.6	15.5	6.02e-01	0	27	0	98041856	69	4173
2026-01-05 05:51:34.49	309.61	15.03	-50.0	-51.7	15.4	6.02e-01	0	27	0	99614720	69	4229
2026-01-05 05:51:35.49	309.41	14.97	-50.0	-51.7	15.4	6.04e-01	0	27	0	101187584	69	4223
2026-01-05 05:51:36.47	309.21	14.90	-50.0	-51.7	15.4	6.03e-01	0	27	0	103284736	69	4220
2026-01-05 05:51:37.46	309.02	14.84	-50.0	-51.7	15.4	6.04e-01	0	27	0	105381888	69	4204
2026-01-05 05:51:38.45	308.82	14.77	-49.6	-51.2	15.4	6.04e-01	0	27	0	106954752	68	4221
2026-01-05 05:51:39.44	308.62	14.70	-49.9	-51.6	15.3	6.05e-01	0	27	0	109051904	68	4417
2026-01-05 05:51:40.43	308.43	14.64	-50.0	-51.7	15.3	6.03e-01	0	27	0	110624768	68	4467
2026-01-05 05:51:41.41	308.23	14.57	-49.7	-51.3	15.4	6.06e-01	0	27	0	112721920	68	4271
2026-01-05 05:51:42.40	308.04	14.50	-50.2	-51.9	15.2	6.04e-01	0	27	0	114294784	68	4593
2026-01-05 05:51:43.39	307.85	14.44	-50.2	-51.9	15.2	6.02e-01	0	27	0	116391936	68	4582
2026-01-05 05:51:44.39	307.66	14.37	-49.3	-50.9	15.4	6.03e-01	0	27	0	117964800	67	4298
2026-01-05 05:51:45.38	307.46	14.30	-50.0	-51.7	15.2	6.02e-01	0	27	0	120061952	67	4728
2026-01-05 05:51:46.38	307.27	14.23	-49.9	-51.6	15.2	6.03e-01	0	27	0	121634816	67	4684
2026-01-05 05:51:47.37	307.08	14.17	-50.0	-51.6	15.2	6.05e-01	0	27	0	123731968	67	4705
2026-01-05 05:51:48.36	306.90	14.10	-49.9	-51.6	15.2	6.05e-01	0	27	0	125829120	67	4672
2026-01-05 05:51:49.35	306.71	14.03	-49.9	-51.7	15.2	6.05e-01	0	27	0	127401984	67	4710
2026-01-05 05:51:50.34	306.52	13.96	-49.9	-51.6	15.2	6.03e-01	0	27	0	129499136	67	4699
2026-01-05 05:51:51.33	306.34	13.90	-50.0	-51.7	15.2	6.04e-01	0	27	0	131072000	67	4740
2026-01-05 05:51:52.33	306.15	13.83	-49.9	-51.7	15.2	6.02e-01	0	27	0	133169152	67	4712
2026-01-05 05:51:53.31	305.97	13.76	-49.9	-51.6	15.2	6.02e-01	0	27	0	134742016	67	4693
2026-01-05 05:51:54.30	305.79	13.69	-50.0	-51.7	15.2	6.03e-01	0	27	0	136839168	67	4730
2026-01-05 05:51:55.29	305.61	13.63	-50.0	-51.7	15.2	6.03e-01	0	27	0	138412032	67	4725
2026-01-05 05:51:56.28	305.43	13.56	-49.8	-51.4	15.3	6.04e-01	0	27	0	140509184	67	4585
2026-01-05 05:51:57.27	305.25	13.49	-50.0	-51.7	15.2	6.04e-01	0	27	0	142082048	67	4717
2026-01-05 05:51:58.25	305.07	13.42	-50.5	-52.3	15.2	6.04e-01	0	27	0	144179200	68	4806
2026-01-05 05:51:59.24	304.89	13.35	-50.1	-51.8	15.3	6.04e-01	0	27	0	145752064	68	4513
2026-01-05 05:52:00.23	304.72	13.29	-49.9	-51.5	15.3	6.05e-01	0	27	0	147849216	68	4384
2026-01-05 05:52:01.22	304.54	13.22	-50.1	-51.9	15.3	6.02e-01	0	27	0	149946368	68	4555
2026-01-05 05:52:02.21	304.37	13.15	-50.4	-52.3	15.2	6.05e-01	0	27	0	151519232	68	4764
2026-01-05 05:52:03.21	304.19	13.08	-50.1	-51.8	15.3	6.02e-01	0	27	0	153616384	68	4537
2026-01-05 05:52:04.19	304.02	13.01	-50.0	-51.7	15.3	6.03e-01	0	27	0	155189248	68	4460
2026-01-05 05:52:05.19	303.84	12.94	-50.3	-52.1	15.2	6.03e-01	0	27	0	157286400	68	4677
2026-01-05 05:52:06.18	303.67	12.88	-50.0	-51.6	15.3	6.05e-01	0	27	0	158859264	68	4434
2026-01-05 05:52:07.17	303.50	12.81	-49.7	-51.4	15.4	6.03e-01	0	27	0	160956416	68	4296
2026-01-05 05:52:08.16	303.33	12.74	-50.0	-51.7	15.3	6.04e-01	0	27	0	162529280	68	4460
2026-01-05 05:52:09.15	303.16	12.67	-50.2	-51.9	15.2	6.03e-01	0	27	0	164626432	68	4592
2026-01-05 05:52:10.15	302.99	12.60	-50.1	-51.8	15.3	6.02e-01	0	27	0	166199296	68	4529
2026-01-05 05:52:11.15	302.82	12.53	-50.1	-51.8	15.2	6.03e-01	0	27	0	168296448	68	4531
2026-01-05 05:52:12.14	302.66	12.46	-50.2	-51.9	15.2	6.05e-01	0	27	0	170393600	68	4575
2026-01-05 05:52:13.13	302.49	12.40	-50.3	-52.1	15.2	6.04e-01	0	27	0	171966464	68	4682
2026-01-05 05:52:14.12	302.33	12.33	-50.2	-52.0	15.2	6.04e-01	0	27	0	174063616	68	4622
2026-01-05 05:52:15.11	302.16	12.26	-50.1	-51.8	15.3	6.04e-01	0	27	0	175636480	68	4509
2026-01-05 05:52:16.09	302.00	12.19	-50.2	-51.9	15.3	6.03e-01	0	27	0	177733632	68	4578
2026-01-05 05:52:17.07	301.84	12.12	-50.3	-52.1	15.2	6.03e-01	0	27	0	179306496	68	4657
2026-01-05 05:52:18.06	301.68	12.05	-50.3	-52.1	15.2	6.05e-01	0	27	0	181403648	68	4666
2026-01-05 05:52:19.06	301.52	11.99	-50.1	-51.9	15.2	6.04e-01	0	27	0	182976512	68	4550
2026-01-05 05:52:20.04	301.36	11.92	-50.2	-52.0	15.2	6.04e-01	0	27	0	185073664	68	4608
2026-01-05 05:52:21.03	301.20	11.85	-50.6	-52.4	15.1	6.04e-01	0	27	0	186646528	68	4847
2026-01-05 05:52:22.03	301.04	11.78	-50.6	-52.5	15.2	6.03e-01	0	27	0	188743680	69	4610
2026-01-05 05:52:23.02	300.88	11.71	-50.5	-52.2	15.3	6.05e-01	0	27	0	190840832	69	4490
2026-01-05 05:52:24.01	300.72	11.64	-50.4	-52.1	15.3	6.04e-01	0	27	0	192413696	69	4425
2026-01-05 05:52:25.00	300.57	11.57	-50.3	-52.0	15.3	6.05e-01	0	27	0	194510848	69	4374
2026-01-05 05:52:26.00	300.41	11.50	-50.6	-52.5	15.2	6.05e-01	0	27	0	196083712	69	4614
2026-01-05 05:52:26.99	300.26	11.44	-50.4	-52.2	15.3	6.02e-01	0	27	0	198180864	69	4453
2026-01-05 05:52:27.98	300.10	11.37	-50.1	-51.8	15.4	6.03e-01	0	27	0	199753728	69	4291
2026-01-05 05:52:28.98	299.95	11.30	-50.1	-51.8	15.4	6.04e-01	0	27	0	201850880	69	4286
2026-01-05 05:52:29.97	299.80	11.23	-50.4	-52.2	15.3	6.03e-01	0	27	0	203423744	69	4481
2026-01-05 05:52:30.97	299.65	11.16	-50.7	-52.5	15.2	6.03e-01	0	27	0	205520896	69	4627
2026-01-05 05:52:31.96	299.50	11.09	-50.6	-52.4	15.2	6.04e-01	0	27	0	207618048	69	4585
2026-01-05 05:52:32.95	299.35	11.02	-50.4	-52.2	15.3	6.04e-01	0	27	0	209190912	69	4474
2026-01-05 05:52:33.94	299.20	10.96	-50.1	-51.8	15.4	6.02e-01	0	27	0	211288064	69	4268
2026-01-05 05:52:34.93	299.05	10.89	-50.4	-52.1	15.3	6.03e-01	0	27	0	212860928	69	4419
2026-01-05 05:52:35.92	298.90	10.82	-50.6	-52.5	15.2	6.03e-01	0	27	0	214958080	69	4618
2026-01-05 05:52:36.91	298.76	10.75	-50.8	-52.7	15.1	6.04e-01	0	27	0	216530944	69	4743
2026-01-05 05:52:37.90	298.61	10.68	-50.6	-52.5	15.2	6.04e-01	0	27	0	218628096	69	4623
2026-01-05 05:52:38.88	298.47	10.62	-50.5	-52.3	15.3	6.03e-01	0	27	0	220200960	69	4494
2026-01-05 05:52:39.86	298.32	10.55	-50.4	-52.1	15.3	6.01e-01	0	27	0	222298112	69	4423
2026-01-05 05:52:40.84	298.18	10.48	-50.4	-52.1	15.3	6.04e-01	0	27	0	223870976	69	4437
2026-01-05 05:52:41.83	298.04	10.41	-50.6	-52.4	15.2	6.05e-01	0	27	0	225968128	69	4581
2026-01-05 05:52:42.83	297.89	10.35	-50.8	-52.7	15.1	6.05e-01	0	27	0	227540992	69	4742
2026-01-05 05:52:43.82	297.75	10.28	-50.7	-52.6	15.1	6.04e-01	0	27	0	229638144	69	4691
2026-01-05 05:52:44.81	297.61	10.21	-50.5	-52.3	15.2	6.05e-01	0	27	0	231211008	69	4503
2026-01-05 05:52:45.80	297.47	10.14	-50.6	-52.3	15.2	6.03e-01	0	27	0	233308160	69	4534
2026-01-05 05:52:46.79	297.33	10.07	-50.6	-52.4	15.2	6.03e-01	0	27	0	234881024	69	4579
2026-01-05 05:52:47.79	297.19	10.01	-50.8	-52.6	15.2	6.04e-01	0	27	0	236978176	69	4695
2026-01-05 05:52:48.79	297.05	9.94	-50.9	-52.8	15.1	6.04e-01	0	27	0	239075328	69	4785
2026-01-05 05:52:49.77	296.92	9.87	-50.9	-52.8	15.1	6.04e-01	0	27	0	240648192	69	4799
2026-01-05 05:52:50.77	296.78	9.80	-50.7	-52.6	15.2	6.05e-01	0	27	0	242745344	69	4666
2026-01-05 05:52:51.77	296.64	9.73	-50.7	-52.6	15.2	6.04e-01	0	27	0	244318208	69	4680
2026-01-05 05:52:52.75	296.51	9.67	-50.6	-52.4	15.2	6.05e-01	0	27	0	246415360	69	4596
2026-01-05 05:52:53.75	296.37	9.60	-50.5	-52.3	15.2	6.05e-01	0	27	0	247988224	69	4516
2026-01-05 05:52:54.74	296.24	9.53	-50.7	-52.5	15.2	6.02e-01	0	27	0	250085376	69	4638
2026-01-05 05:52:55.74	296.11	9.46	-50.9	-52.8	15.1	6.03e-01	0	27	0	251658240	69	4787
2026-01-05 05:52:56.72	295.97	9.40	-50.9	-52.9	15.1	6.04e-01	0	27	0	253755392	69	4818
2026-01-05 05:52:57.72	295.84	9.33	-50.9	-52.8	15.1	6.04e-01	0	27	0	255852544	69	4805
2026-01-05 05:52:58.71	295.71	9.26	-50.9	-52.8	15.1	6.04e-01	0	27	0	257425408	69	4799
2026-01-05 05:52:59.71	295.58	9.20	-50.7	-52.6	15.2	6.04e-01	0	27	0	259522560	69	4673
2026-01-05 05:53:00.71	295.45	9.13	-50.5	-52.3	15.2	6.03e-01	0	27	0	261095424	69	4535
2026-01-05 05:53:01.70	295.32	9.06	-50.5	-52.3	15.2	6.04e-01	0	27	0	263192576	69	4530
2026-01-05 05:53:02.68	295.19	9.00	-50.7	-52.5	15.2	6.03e-01	0	27	0	264765440	69	4650
2026-01-05 05:53:03.68	295.06	8.93	-50.8	-52.7	15.1	6.04e-01	0	27	0	266862592	69	4753
2026-01-05 05:53:04.67	294.94	8.86	-50.9	-52.8	15.1	6.04e-01	0	27	0	268435456	69	4797
2026-01-05 05:53:05.66	294.81	8.79	-51.0	-52.9	15.1	6.05e-01	0	27	0	270532608	69	4855
2026-01-05 05:53:06.66	294.68	8.73	-51.0	-52.9	15.1	6.04e-01	0	27	0	272629760	69	4841
2026-01-05 05:53:07.65	294.56	8.66	-51.0	-53.0	15.1	6.04e-01	0	27	0	274202624	69	4893
2026-01-05 05:53:08.65	294.43	8.59	-51.0	-52.9	15.2	6.05e-01	0	27	0	276299776	70	4596
2026-01-05 05:53:09.64	294.31	8.53	-50.9	-52.7	15.2	6.02e-01	0	27	0	277872640	70	4484
2026-01-05 05:53:10.64	294.18	8.46	-50.9	-52.7	15.2	6.02e-01	0	27	0	279969792	70	4489
2026-01-05 05:53:11.63	294.06	8.39	-50.8	-52.7	15.2	6.05e-01	0	27	0	281542656	70	4468
2026-01-05 05:53:12.63	293.94	8.33	-50.8	-52.7	15.2	6.02e-01	0	27	0	283639808	70	4459
2026-01-05 05:53:13.61	293.82	8.26	-51.0	-52.9	15.2	6.05e-01	0	27	0	285212672	70	4567
2026-01-05 05:53:14.60	293.70	8.20	-51.2	-53.1	15.1	6.03e-01	0	27	0	287309824	70	4695
2026-01-05 05:53:15.60	293.58	8.13	-51.1	-53.1	15.1	6.02e-01	0	27	0	289406976	70	4670
2026-01-05 05:53:16.60	293.45	8.06	-51.2	-53.1	15.1	6.03e-01	0	27	0	290979840	70	4696
2026-01-05 05:53:17.59	293.34	8.00	-51.2	-53.1	15.1	6.01e-01	0	27	0	293076992	70	4704
2026-01-05 05:53:18.58	293.22	7.93	-51.2	-53.1	15.1	6.03e-01	0	27	0	294649856	70	4692
2026-01-05 05:53:19.57	293.10	7.87	-51.1	-53.0	15.2	6.04e-01	0	27	0	296747008	70	4644
2026-01-05 05:53:20.57	292.98	7.80	-51.1	-53.0	15.1	6.03e-01	0	27	0	298319872	70	4645
2026-01-05 05:53:21.56	292.86	7.74	-51.1	-53.0	15.1	6.04e-01	0	27	0	300417024	70	4634
2026-01-05 05:53:22.56	292.75	7.67	-50.9	-52.8	15.2	6.04e-01	0	27	0	301989888	70	4538
2026-01-05 05:53:23.55	292.63	7.61	-51.1	-53.0	15.1	6.01e-01	0	27	0	304087040	70	4634
2026-01-05 05:53:24.55	292.52	7.54	-51.1	-53.1	15.1	6.03e-01	0	27	0	306184192	70	4660
2026-01-05 05:53:25.55	292.40	7.47	-51.1	-53.1	15.1	6.02e-01	0	27	0	307757056	70	4670
2026-01-05 05:53:26.55	292.29	7.41	-51.3	-53.3	15.1	6.03e-01	0	27	0	309854208	70	4799
2026-01-05 05:53:27.54	292.17	7.34	-51.4	-53.5	15.0	6.05e-01	0	27	0	311427072	70	4882
2026-01-05 05:53:28.54	292.06	7.28	-51.5	-53.6	15.0	6.02e-01	0	27	0	313524224	70	4938
2026-01-05 05:53:29.53	291.95	7.21	-51.6	-53.7	15.0	6.01e-01	0	28	0	315097088	70	5006
2026-01-05 05:53:30.52	291.83	7.15	-51.6	-53.7	15.0	6.05e-01	0	27	0	317194240	70	5006
2026-01-05 05:53:31.52	291.72	7.08	-51.4	-53.5	15.0	6.04e-01	0	27	0	318767104	70	4887
2026-01-05 05:53:32.51	291.61	7.02	-51.5	-53.5	15.0	6.03e-01	0	27	0	320864256	70	4919
2026-01-05 05:53:33.51	291.50	6.95	-51.5	-53.6	15.0	6.00e-01	0	27	0	322961408	70	4941
2026-01-05 05:53:34.50	291.39	6.89	-51.4	-53.4	15.0	6.03e-01	0	27	0	324534272	70	4853
2026-01-05 05:53:35.49	291.28	6.83	-51.3	-53.3	15.1	6.03e-01	0	27	0	326631424	70	4788
2026-01-05 05:53:36.49	291.17	6.76	-51.2	-53.2	15.1	6.05e-01	0	27	0	328204288	70	4745
2026-01-05 05:53:37.48	291.07	6.70	-51.3	-53.3	15.0	6.03e-01	0	27	0	330301440	70	4801
2026-01-05 05:53:38.48	290.96	6.63	-51.4	-53.5	15.0	6.05e-01	0	27	0	331874304	70	4882
2026-01-05 05:53:39.47	290.85	6.57	-51.5	-53.6	15.0	6.05e-01	0	27	0	333971456	70	4941
2026-01-05 05:53:40.47	290.74	6.50	-51.3	-53.4	15.0	6.03e-01	0	27	0	336068608	70	4820
2026-01-05 05:53:41.46	290.64	6.44	-51.5	-53.6	15.0	6.05e-01	0	27	0	337641472	70	4952
2026-01-05 05:53:42.45	290.53	6.38	-51.5	-53.6	15.0	6.04e-01	0	27	0	339738624	70	4941
2026-01-05 05:53:43.45	290.43	6.31	-51.5	-53.6	14.9	6.03e-01	0	27	0	341311488	70	4971
2026-01-05 05:53:44.45	290.32	6.25	-51.6	-53.7	14.9	6.03e-01	0	27	0	343408640	70	5037
2026-01-05 05:53:45.45	290.22	6.18	-51.6	-53.7	14.9	6.05e-01	0	27	0	344981504	70	5022
2026-01-05 05:53:46.45	290.11	6.12	-51.7	-53.9	15.0	6.05e-01	0	27	0	347078656	71	4828
2026-01-05 05:53:47.45	290.01	6.06	-51.6	-53.7	15.0	6.05e-01	0	27	0	348651520	71	4741
2026-01-05 05:53:48.44	289.91	5.99	-51.6	-53.8	15.0	6.03e-01	0	27	0	350748672	71	4784
2026-01-05 05:53:49.44	289.81	5.93	-51.5	-53.7	15.0	6.02e-01	0	27	0	352845824	71	4718
2026-01-05 05:53:50.44	289.70	5.87	-51.5	-53.7	15.1	6.04e-01	0	27	0	354418688	71	4711
2026-01-05 05:53:51.44	289.60	5.80	-51.7	-53.8	15.0	6.05e-01	0	27	0	356515840	71	4800
2026-01-05 05:53:52.43	289.50	5.74	-51.8	-54.0	15.0	6.05e-01	0	27	0	358088704	71	4879
2026-01-05 05:53:53.43	289.40	5.68	-51.8	-54.1	14.9	6.03e-01	0	27	0	360185856	71	4945
2026-01-05 05:53:54.42	289.30	5.62	-51.8	-54.1	14.9	6.03e-01	0	27	0	361758720	71	4974
2026-01-05 05:53:55.42	289.20	5.55	-51.9	-54.2	14.9	6.04e-01	0	27	0	363855872	71	5031
2026-01-05 05:53:56.41	289.11	5.49	-51.9	-54.2	14.9	6.04e-01	0	27	0	365953024	71	4984
2026-01-05 05:53:57.41	289.01	5.43	-51.9	-54.2	14.9	6.04e-01	0	27	0	367525888	71	5032
2026-01-05 05:53:58.41	288.91	5.36	-51.9	-54.2	14.9	6.04e-01	0	27	0	369623040	71	5013
2026-01-05 05:53:59.41	288.81	5.30	-51.9	-54.3	14.9	6.04e-01	0	28	0	371195904	71	5055
2026-01-05 05:54:00.41	288.71	5.24	-51.9	-54.2	14.9	6.04e-01	0	27	0	373293056	71	5006
2026-01-05 05:54:01.41	288.62	5.18	-52.0	-54.3	14.8	6.02e-01	0	27	0	374865920	71	5094
2026-01-05 05:54:02.40	288.52	5.12	-51.9	-54.1	14.9	6.02e-01	0	27	0	376963072	71	4979
2026-01-05 05:54:03.40	288.43	5.05	-51.9	-54.2	14.9	6.06e-01	0	27	0	378535936	71	5016
2026-01-05 05:54:04.39	288.33	4.99	-51.9	-54.2	14.9	6.06e-01	0	27	0	380633088	71	5036
2026-01-05 05:54:05.38	288.24	4.93	-56.2	-77.4	3.8	7.48e-01	0	27	104	381681664	80	43008
2026-01-05 05:54:06.37	288.14	4.87	-58.9	-78.3	3.8	7.45e-01	0	27	104	381681664	85	35982
2026-01-05 05:54:07.36	288.05	4.81	-59.2	-78.5	3.8	7.45e-01	0	27	104	381681664	86	34778
2026-01-05 05:54:08.35	287.96	4.75	-59.4	-78.8	3.8	7.47e-01	0	27	104	381681664	86	35955
2026-01-05 05:54:09.34	287.87	4.68	-59.6	-79.0	3.8	7.47e-01	0	27	104	381681664	86	36561
2026-01-05 05:54:10.33	287.77	4.62	-59.7	-79.1	3.8	7.48e-01	0	27	104	381681664	87	35175
2026-01-05 05:54:11.33	287.68	4.56	-59.8	-79.2	3.8	7.45e-01	0	27	104	381681664	87	35464
2026-01-05 05:54:12.32	287.59	4.50	-59.9	-79.3	3.8	7.50e-01	0	27	104	381681664	87	35791
2026-01-05 05:54:13.32	287.50	4.44	-60.0	-79.3	3.8	7.45e-01	0	27	104	381681664	87	36091
2026-01-05 05:54:14.31	287.41	4.38	-60.1	-79.4	3.8	7.46e-01	0	27	104	381681664	87	36453
2026-01-05 05:54:15.29	287.32	4.32	-60.2	-79.5	3.8	7.47e-01	0	27	104	381681664	88	34804
2026-01-05 05:54:16.28	287.23	4.26	-60.2	-79.6	3.8	7.48e-01	0	27	104	381681664	88	35209
2026-01-05 05:54:17.28	287.14	4.20	-60.3	-79.7	3.8	7.42e-01	0	27	104	381681664	88	35337
2026-01-05 05:54:18.28	287.05	4.14	-60.3	-79.7	3.8	7.47e-01	0	27	104	381681664	88	35582
2026-01-05 05:54:19.28	286.96	4.08	-60.4	-79.8	3.8	7.48e-01	0	27	104	381681664	88	35711
2026-01-05 05:54:20.27	286.88	4.02	-60.4	-79.8	3.8	7.45e-01	0	27	104	381681664	88	35835
2026-01-05 05:54:21.27	286.79	3.96	-60.4	-79.8	3.8	7.44e-01	0	28	104	381681664	88	35980
2026-01-05 05:54:22.26	286.70	3.90	-60.5	-79.8	3.8	7.48e-01	0	27	104	381681664	88	36020
2026-01-05 05:54:23.26	286.62	3.83	-60.5	-79.9	3.8	7.45e-01	0	28	104	381681664	88	36132
2026-01-05 05:54:24.26	286.53	3.77	-60.5	-79.9	3.8	7.49e-01	0	27	104	381681664	88	36318
2026-01-05 05:54:25.25	286.44	3.71	-60.5	-79.9	3.8	7.43e-01	0	28	104	381681664	88	36389
2026-01-05 05:54:26.25	286.36	3.65	-60.5	-79.9	3.8	7.47e-01	0	28	104	381681664	88	36313
2026-01-05 05:54:27.24	286.27	3.59	-60.5	-79.9	3.8	7.44e-01	0	27	104	381681664	88	36329
2026-01-05 05:54:28.23	286.19	3.54	-60.5	-79.9	3.8	7.45e-01	0	27	104	381681664	88	36307
2026-01-05 05:54:29.23	286.10	3.48	-60.5	-79.9	3.8	7.42e-01	0	28	104	381681664	88	36340
2026-01-05 05:54:30.22	286.02	3.42	-60.5	-79.9	3.8	7.47e-01	0	27	104	381681664	88	36356
2026-01-05 05:54:31.22	285.94	3.36	-60.5	-79.9	3.8	7.51e-01	0	28	104	381681664	88	36257
2026-01-05 05:54:32.21	285.85	3.30	-60.5	-79.9	3.8	7.46e-01	0	28	104	381681664	88	36211
2026-01-05 05:54:33.20	285.77	3.24	-60.5	-79.9	3.8	7.47e-01	0	28	104	381681664	88	36121
2026-01-05 05:54:34.19	285.69	3.18	-60.4	-79.8	3.8	7.48e-01	0	28	104	381681664	88	36032
2026-01-05 05:54:35.17	285.61	3.12	-60.4	-79.8	3.8	7.44e-01	0	28	104	381681664	88	35779
2026-01-05 05:54:36.16	285.53	3.06	-60.4	-79.7	3.8	7.44e-01	0	28	104	381681664	88	35653
2026-01-05 05:54:37.14	285.45	3.00	-60.3	-79.7	3.8	7.46e-01	0	27	104	381681664	88	35636
2026-01-05 05:54:38.12	285.37	2.95	-60.3	-79.7	3.8	7.45e-01	0	27	104	381681664	88	35594
2026-01-05 05:54:39.11	285.29	2.89	-60.3	-79.7	3.8	7.46e-01	0	27	104	381681664	88	35469
2026-01-05 05:54:40.11	285.21	2.83	-60.3	-79.7	3.8	7.44e-01	0	27	104	381681664	88	35543
2026-01-05 05:54:41.10	285.13	2.77	-60.3	-79.7	3.8	7.47e-01	0	27	104	381681664	88	35366
2026-01-05 05:54:42.10	285.05	2.71	-60.3	-79.7	3.8	7.50e-01	0	27	104	381681664	88	35302
2026-01-05 05:54:43.09	284.97	2.65	-60.3	-79.7	3.8	7.47e-01	0	28	104	381681664	88	35335
2026-01-05 05:54:44.09	284.89	2.60	-60.3	-79.7	3.8	7.47e-01	0	27	104	381681664	88	35319
2026-01-05 05:54:45.08	284.81	2.54	-60.2	-79.6	3.8	7.47e-01	0	28	104	381681664	88	35212
2026-01-05 05:54:46.07	284.73	2.48	-60.2	-79.6	3.8	7.46e-01	0	27	104	381681664	88	35182
2026-01-05 05:54:47.06	284.66	2.42	-60.2	-79.6	3.8	7.45e-01	0	28	104	381681664	88	35240
2026-01-05 05:54:48.05	284.58	2.36	-60.2	-79.6	3.8	7.47e-01	0	27	104	381681664	88	35151
2026-01-05 05:54:49.05	284.50	2.31	-60.2	-79.6	3.8	7.42e-01	0	28	104	381681664	88	35096
2026-01-05 05:54:50.05	284.42	2.25	-60.2	-79.6	3.8	7.48e-01	0	27	104	381681664	88	35074
2026-01-05 05:54:51.05	284.35	2.19	-60.2	-79.6	3.8	7.45e-01	0	28	104	381681664	88	35043
2026-01-05 05:54:52.04	284.27	2.13	-60.2	-79.6	3.8	7.43e-01	0	27	104	381681664	88	35103
2026-01-05 05:54:53.04	284.20	2.07	-60.2	-79.6	3.8	7.48e-01	0	27	104	381681664	88	35088
2026-01-05 05:54:54.03	284.12	2.02	-60.2	-79.6	3.8	7.45e-01	0	27	104	381681664	88	34994
2026-01-05 05:54:55.02	284.05	1.96	-60.2	-79.6	3.8	7.44e-01	0	28	104	381681664	88	34905
2026-01-05 05:54:56.01	283.97	1.90	-60.2	-79.6	3.8	7.45e-01	0	28	104	381681664	88	34916

#Closed at: 2026-01-05 05:54:57
#Recorded file [381 MB]: D:/lorett/data/31004_260105_084351.dat