passes_logs/2026/01/05/R3.2S_Murmansk/R3.2S_Murmansk__20260105_005842_SUOMI_NPP_rec.log

#Pass ID: 20260105_005842_SUOMI NPP
#Satellite: SUOMI NPP
#Configuration: NPP
#almurnet v.1.7.20251203
#Start time: 2026-01-05 00:58:44

#Version: 2.2.20231116
#Station: R3.2S_Murmansk
#Location: 33.079688 lon 68.888172 lat
#TLE: 1 37849U 11061A   26003.96724563  .00000164  00000+0  98899-4 0  9990
#TLE: 2 37849  98.7800 306.1116 0002573  82.3190 277.8279 14.19522066735141

#Time	Az	El	Level	Level2	SNR	BER	BlckErr	Temp	State	Recorded	gain1	gain2
2026-01-05 00:58:44.95	25.41	2.15	-58.2	-74.2	3.8	1.49e+00	0	26	0	0	83	21699
2026-01-05 00:58:45.94	25.41	2.22	-58.2	-74.2	3.8	1.49e+00	0	26	104	0	81	24278
2026-01-05 00:58:46.94	25.41	2.28	-58.2	-74.2	3.8	1.49e+00	0	26	104	0	81	24232
2026-01-05 00:58:47.93	25.40	2.34	-58.2	-74.2	3.8	1.49e+00	0	26	104	0	81	24270
2026-01-05 00:58:48.93	25.40	2.41	-58.2	-74.2	3.8	1.49e+00	0	26	104	0	81	24205
2026-01-05 00:58:49.93	25.40	2.47	-58.2	-74.2	3.8	1.49e+00	0	26	104	0	81	24188
2026-01-05 00:58:50.94	25.40	2.54	-58.2	-74.2	3.8	1.49e+00	0	26	104	0	81	24264
2026-01-05 00:58:51.94	25.39	2.60	-58.2	-74.2	3.8	1.49e+00	0	26	104	0	81	24155
2026-01-05 00:58:52.94	25.39	2.67	-58.2	-74.2	3.8	1.49e+00	0	26	104	0	81	24205
2026-01-05 00:58:53.94	25.39	2.74	-58.2	-74.2	3.8	1.49e+00	0	26	104	0	81	24145
2026-01-05 00:58:54.94	25.39	2.80	-58.2	-74.2	3.8	1.49e+00	0	26	104	0	81	24132
2026-01-05 00:58:55.93	25.38	2.87	-58.2	-74.1	3.8	1.49e+00	0	26	104	0	81	24089
2026-01-05 00:58:56.92	25.38	2.93	-58.2	-74.1	3.8	1.49e+00	0	26	104	0	81	23951
2026-01-05 00:58:57.93	25.38	3.00	-58.2	-74.0	3.8	1.49e+00	0	26	104	0	81	23791
2026-01-05 00:58:58.93	25.38	3.06	-58.2	-73.9	3.8	1.49e+00	0	26	104	0	81	23546
2026-01-05 00:58:59.93	25.38	3.13	-58.2	-73.9	3.8	1.49e+00	0	26	104	0	81	23376
2026-01-05 00:59:00.92	25.37	3.20	-58.2	-73.8	3.8	1.49e+00	0	26	104	0	81	23090
2026-01-05 00:59:01.92	25.37	3.26	-58.2	-73.7	3.8	1.49e+00	0	26	104	0	81	23023
2026-01-05 00:59:02.93	25.37	3.33	-58.2	-73.7	3.8	1.49e+00	0	26	104	0	81	22845
2026-01-05 00:59:03.92	25.37	3.40	-58.2	-73.8	3.8	1.49e+00	0	26	104	0	81	23092
2026-01-05 00:59:04.91	25.36	3.46	-58.2	-73.8	3.8	1.49e+00	0	26	104	0	81	23172
2026-01-05 00:59:05.91	25.36	3.53	-58.2	-73.8	3.8	1.49e+00	0	26	104	0	81	23106
2026-01-05 00:59:06.91	25.36	3.60	-58.2	-73.8	3.8	1.49e+00	0	26	104	0	81	23152
2026-01-05 00:59:07.91	25.35	3.67	-58.2	-73.8	3.8	1.49e+00	0	26	104	0	81	23268
2026-01-05 00:59:08.91	25.35	3.73	-58.2	-73.9	3.8	1.49e+00	0	26	104	0	81	23356
2026-01-05 00:59:09.91	25.35	3.80	-58.2	-73.9	3.8	1.49e+00	0	27	104	0	81	23559
2026-01-05 00:59:10.91	25.35	3.87	-58.2	-74.0	3.9	1.49e+00	0	26	104	0	81	23787
2026-01-05 00:59:11.90	25.34	3.94	-58.2	-74.0	3.8	1.49e+00	0	26	104	0	81	23824
2026-01-05 00:59:12.91	25.34	4.01	-58.2	-73.9	3.8	1.49e+00	0	26	104	0	81	23455
2026-01-05 00:59:13.91	25.34	4.08	-58.2	-73.6	3.8	1.49e+00	0	26	104	0	81	22688
2026-01-05 00:59:14.90	25.33	4.14	-58.1	-73.2	3.8	1.49e+00	0	26	104	0	81	21587
2026-01-05 00:59:15.90	25.33	4.21	-58.1	-72.7	3.8	1.49e+00	0	27	104	0	81	20457
2026-01-05 00:59:16.90	25.33	4.28	-58.1	-72.2	3.8	1.49e+00	0	26	104	0	81	19276
2026-01-05 00:59:17.90	25.33	4.35	-58.1	-71.6	4.0	1.48e+00	0	27	104	0	81	17951
2026-01-05 00:59:18.90	25.32	4.42	-58.0	-71.1	4.1	1.46e+00	0	27	0	0	81	16964
2026-01-05 00:59:19.90	25.32	4.49	-58.0	-70.7	4.2	1.43e+00	0	27	0	0	81	16155
2026-01-05 00:59:20.90	25.32	4.56	-57.9	-69.9	4.4	1.31e+00	84	27	0	0	81	14836
2026-01-05 00:59:21.89	25.31	4.63	-57.9	-69.2	4.7	9.48e-01	0	27	0	2097152	81	13634
2026-01-05 00:59:22.89	25.31	4.70	-57.8	-69.0	4.7	8.47e-01	0	27	0	3145728	81	13305
2026-01-05 00:59:23.88	25.31	4.77	-57.8	-69.0	4.8	8.28e-01	0	27	0	5242880	81	13286
2026-01-05 00:59:24.89	25.30	4.84	-57.8	-68.7	4.8	7.85e-01	0	27	0	7340032	81	12943
2026-01-05 00:59:25.89	25.30	4.91	-57.8	-68.6	4.9	7.25e-01	0	27	0	9437184	81	12800
2026-01-05 00:59:26.89	25.30	4.98	-57.8	-68.6	4.9	6.88e-01	0	27	0	11534336	81	12700
2026-01-05 00:59:27.89	25.29	5.05	-57.8	-68.6	4.9	6.62e-01	0	27	0	12582912	81	12699
2026-01-05 00:59:28.90	25.29	5.13	-58.3	-71.9	3.9	1.11e+00	0	27	104	14680064	81	18559
2026-01-05 00:59:29.90	25.29	5.20	-57.3	-65.1	7.3	7.57e-01	0	27	0	14680064	81	8515
2026-01-05 00:59:30.90	25.28	5.27	-58.2	-72.6	3.8	2.57e-01	0	27	104	16777216	81	20087
2026-01-05 00:59:31.90	25.28	5.34	-57.1	-63.6	8.6	6.84e-01	0	27	0	16777216	80	7570
2026-01-05 00:59:32.89	25.27	5.41	-57.9	-70.3	4.3	1.53e-01	67	27	0	17825792	80	16475
2026-01-05 00:59:33.89	25.27	5.49	-56.8	-62.8	9.3	7.04e-01	0	27	0	19922944	80	6920
2026-01-05 00:59:34.90	25.27	5.56	-56.7	-62.6	9.5	5.11e-03	0	27	0	20971520	80	6743
2026-01-05 00:59:35.90	25.26	5.63	-56.4	-61.8	10.1	2.23e-03	0	27	0	23068672	79	6567
2026-01-05 00:59:36.89	25.26	5.70	-56.1	-61.1	10.7	6.59e-04	0	27	0	25165824	78	6390
2026-01-05 00:59:37.89	25.26	5.78	-55.9	-60.6	11.1	2.59e-04	0	27	0	27262976	78	6026
2026-01-05 00:59:38.89	25.25	5.85	-55.9	-60.5	11.2	8.08e-05	0	27	0	29360128	78	5933
2026-01-05 00:59:39.89	25.25	5.92	-55.5	-59.8	11.6	3.28e-05	0	27	0	30408704	77	5825
2026-01-05 00:59:40.89	25.24	6.00	-55.4	-59.5	11.8	1.44e-05	0	27	0	32505856	77	5637
2026-01-05 00:59:41.89	25.24	6.07	-55.5	-59.8	11.7	9.10e-06	0	27	0	34603008	77	5794
2026-01-05 00:59:42.88	25.24	6.15	-55.4	-59.5	11.9	1.50e-06	0	27	0	36700160	77	5612
2026-01-05 00:59:43.87	25.23	6.22	-55.4	-59.5	11.9	4.50e-06	0	27	0	37748736	77	5604
2026-01-05 00:59:44.88	25.23	6.29	-55.4	-59.5	11.9	7.00e-07	0	27	0	39845888	77	5618
2026-01-05 00:59:45.88	25.22	6.37	-55.1	-59.0	12.2	7.00e-07	0	27	0	41943040	76	5618
2026-01-05 00:59:46.89	25.22	6.44	-55.2	-59.2	12.1	0.00e+00	0	27	0	44040192	76	5731
2026-01-05 00:59:47.89	25.21	6.52	-55.1	-58.9	12.3	0.00e+00	0	27	0	46137344	76	5540
2026-01-05 00:59:48.89	25.21	6.60	-55.0	-58.8	12.3	2.20e-06	0	27	0	48234496	76	5477
2026-01-05 00:59:49.89	25.21	6.67	-55.1	-58.9	12.3	7.00e-07	0	27	0	49283072	76	5563
2026-01-05 00:59:50.90	25.20	6.75	-55.0	-58.8	12.3	7.00e-07	0	27	0	51380224	76	5498
2026-01-05 00:59:51.89	25.20	6.82	-55.0	-58.8	12.3	0.00e+00	0	27	0	53477376	76	5483
2026-01-05 00:59:52.89	25.19	6.90	-55.0	-58.7	12.4	0.00e+00	0	27	0	55574528	76	5440
2026-01-05 00:59:53.89	25.19	6.98	-55.0	-58.7	12.4	0.00e+00	0	27	0	56623104	76	5450
2026-01-05 00:59:54.89	25.18	7.05	-55.0	-58.7	12.4	0.00e+00	0	27	0	58720256	76	5464
2026-01-05 00:59:55.89	25.18	7.13	-55.0	-58.7	12.4	7.00e-07	0	27	0	60817408	76	5415
2026-01-05 00:59:56.89	25.17	7.21	-54.8	-58.4	12.6	0.00e+00	0	27	0	62914560	76	5249
2026-01-05 00:59:57.88	25.17	7.28	-54.9	-58.5	12.5	7.00e-07	0	27	0	65011712	76	5336
2026-01-05 00:59:58.88	25.16	7.36	-54.9	-58.6	12.5	0.00e+00	0	27	0	66060288	76	5356
2026-01-05 00:59:59.88	25.16	7.44	-54.9	-58.5	12.6	7.00e-07	0	27	0	68157440	76	5322
2026-01-05 01:00:00.88	25.16	7.52	-54.8	-58.4	12.6	0.00e+00	0	27	0	70254592	76	5223
2026-01-05 01:00:01.87	25.15	7.60	-54.9	-58.5	12.6	0.00e+00	0	27	0	72351744	76	5333
2026-01-05 01:00:02.87	25.15	7.68	-54.8	-58.4	12.6	0.00e+00	0	27	0	73400320	76	5247
2026-01-05 01:00:03.88	25.14	7.76	-55.0	-58.6	12.5	0.00e+00	0	27	0	75497472	76	5356
2026-01-05 01:00:04.88	25.14	7.83	-54.9	-58.5	12.5	0.00e+00	0	27	0	77594624	76	5333
2026-01-05 01:00:05.87	25.13	7.91	-54.9	-58.5	12.6	0.00e+00	0	27	0	79691776	76	5335
2026-01-05 01:00:06.86	25.12	7.99	-54.8	-58.2	12.7	0.00e+00	0	27	0	81788928	76	5145
2026-01-05 01:00:07.85	25.12	8.07	-54.7	-58.2	12.8	7.00e-07	0	27	0	82837504	76	5117
2026-01-05 01:00:08.85	25.11	8.15	-54.6	-57.9	12.8	0.00e+00	0	27	0	84934656	75	5274
2026-01-05 01:00:09.85	25.11	8.23	-54.6	-58.0	12.8	0.00e+00	0	27	0	87031808	75	5304
2026-01-05 01:00:10.85	25.10	8.31	-54.5	-57.9	12.8	0.00e+00	0	27	0	89128960	75	5272
2026-01-05 01:00:11.84	25.10	8.39	-54.5	-57.9	12.9	0.00e+00	0	27	0	91226112	75	5246
2026-01-05 01:00:12.83	25.09	8.47	-54.5	-57.8	12.9	0.00e+00	0	27	0	92274688	75	5218
2026-01-05 01:00:13.84	25.09	8.56	-54.5	-57.8	13.0	0.00e+00	0	27	0	94371840	75	5191
2026-01-05 01:00:14.84	25.08	8.64	-54.6	-57.9	12.9	0.00e+00	0	27	0	96468992	75	5274
2026-01-05 01:00:15.84	25.08	8.72	-54.5	-57.9	12.9	0.00e+00	0	27	0	98566144	75	5224
2026-01-05 01:00:16.84	25.07	8.80	-54.5	-57.9	12.9	0.00e+00	0	27	0	99614720	75	5243
2026-01-05 01:00:17.84	25.06	8.88	-54.5	-57.8	12.9	0.00e+00	0	27	0	101711872	75	5187
2026-01-05 01:00:18.84	25.06	8.97	-54.5	-57.9	12.9	0.00e+00	0	27	0	103809024	75	5236
2026-01-05 01:00:19.83	25.05	9.05	-54.5	-57.7	12.9	0.00e+00	0	27	0	105906176	75	5142
2026-01-05 01:00:20.83	25.05	9.13	-54.4	-57.6	13.0	0.00e+00	0	27	0	108003328	75	5050
2026-01-05 01:00:21.83	25.04	9.22	-54.4	-57.6	13.0	0.00e+00	0	27	0	109051904	75	5080
2026-01-05 01:00:22.84	25.03	9.30	-54.5	-57.7	13.0	0.00e+00	0	27	0	111149056	75	5102
2026-01-05 01:00:23.83	25.03	9.39	-54.4	-57.6	13.0	0.00e+00	0	27	0	113246208	75	5097
2026-01-05 01:00:24.84	25.02	9.47	-54.4	-57.5	13.1	0.00e+00	0	27	0	115343360	75	5019
2026-01-05 01:00:25.84	25.02	9.56	-54.3	-57.5	13.1	0.00e+00	0	27	0	116391936	75	4989
2026-01-05 01:00:26.84	25.01	9.64	-54.3	-57.4	13.1	0.00e+00	0	27	0	118489088	75	4928
2026-01-05 01:00:27.83	25.00	9.73	-54.3	-57.3	13.2	0.00e+00	0	27	0	120586240	75	4916
2026-01-05 01:00:28.83	25.00	9.81	-54.2	-57.2	13.2	0.00e+00	0	27	0	122683392	74	5147
2026-01-05 01:00:29.83	24.99	9.90	-54.1	-57.1	13.2	0.00e+00	0	27	0	124780544	74	5068
2026-01-05 01:00:30.83	24.98	9.98	-54.1	-57.1	13.2	0.00e+00	0	27	0	125829120	74	5084
2026-01-05 01:00:31.83	24.98	10.07	-54.2	-57.2	13.2	0.00e+00	0	27	0	127926272	74	5123
2026-01-05 01:00:32.82	24.97	10.16	-54.1	-57.0	13.3	0.00e+00	0	27	0	130023424	74	5032
2026-01-05 01:00:33.83	24.96	10.24	-54.1	-57.0	13.3	0.00e+00	0	27	0	132120576	74	5036
2026-01-05 01:00:34.83	24.96	10.33	-54.1	-57.1	13.2	0.00e+00	0	27	0	134217728	74	5073
2026-01-05 01:00:35.83	24.95	10.42	-54.1	-57.0	13.3	0.00e+00	0	27	0	135266304	74	4990
2026-01-05 01:00:36.82	24.94	10.51	-54.0	-56.9	13.4	0.00e+00	0	27	0	137363456	74	4966
2026-01-05 01:00:37.82	24.94	10.60	-54.0	-56.8	13.4	0.00e+00	0	27	0	139460608	74	4918
2026-01-05 01:00:38.81	24.93	10.68	-53.9	-56.7	13.5	0.00e+00	0	28	0	141557760	74	4844
2026-01-05 01:00:39.81	24.92	10.77	-54.0	-56.8	13.4	0.00e+00	0	27	0	143654912	74	4922
2026-01-05 01:00:40.81	24.91	10.86	-53.8	-56.5	13.5	0.00e+00	0	27	0	144703488	74	4757
2026-01-05 01:00:41.81	24.91	10.95	-53.8	-56.5	13.6	0.00e+00	0	27	0	146800640	74	4753
2026-01-05 01:00:42.81	24.90	11.04	-53.8	-56.6	13.6	0.00e+00	0	27	0	148897792	74	4775
2026-01-05 01:00:43.80	24.89	11.13	-53.9	-56.6	13.5	0.00e+00	0	27	0	150994944	74	4791
2026-01-05 01:00:44.80	24.88	11.22	-53.8	-56.6	13.6	0.00e+00	0	28	0	152043520	74	4764
2026-01-05 01:00:45.80	24.88	11.31	-53.9	-56.6	13.5	0.00e+00	0	27	0	154140672	74	4809
2026-01-05 01:00:46.79	24.87	11.40	-53.8	-56.5	13.6	0.00e+00	0	27	0	156237824	74	4735
2026-01-05 01:00:47.79	24.86	11.50	-53.9	-56.6	13.6	0.00e+00	0	27	0	158334976	74	4775
2026-01-05 01:00:48.79	24.85	11.59	-53.8	-56.6	13.6	0.00e+00	0	27	0	160432128	74	4763
2026-01-05 01:00:49.79	24.85	11.68	-53.9	-56.6	13.6	0.00e+00	0	28	0	161480704	74	4763
2026-01-05 01:00:50.79	24.84	11.77	-53.7	-56.4	13.5	0.00e+00	0	28	0	163577856	73	4950
2026-01-05 01:00:51.78	24.83	11.87	-53.7	-56.4	13.6	0.00e+00	0	27	0	165675008	73	4963
2026-01-05 01:00:52.78	24.82	11.96	-53.6	-56.2	13.7	0.00e+00	0	27	0	167772160	73	4853
2026-01-05 01:00:53.78	24.81	12.05	-53.7	-56.3	13.6	0.00e+00	0	28	0	168820736	73	4921
2026-01-05 01:00:54.77	24.81	12.15	-53.6	-56.3	13.6	0.00e+00	0	27	0	170917888	73	4872
2026-01-05 01:00:55.77	24.80	12.24	-53.6	-56.3	13.7	0.00e+00	0	27	0	173015040	73	4873
2026-01-05 01:00:56.78	24.79	12.34	-53.5	-56.0	13.8	0.00e+00	0	28	0	175112192	73	4711
2026-01-05 01:00:57.78	24.78	12.43	-53.4	-55.9	13.8	0.00e+00	0	27	0	177209344	73	4682
2026-01-05 01:00:58.77	24.77	12.53	-53.5	-56.1	13.7	0.00e+00	0	28	0	178257920	73	4787
2026-01-05 01:00:59.78	24.76	12.62	-53.4	-55.8	13.9	0.00e+00	0	27	0	180355072	73	4632
2026-01-05 01:01:00.77	24.75	12.72	-53.3	-55.8	13.9	0.00e+00	0	28	0	182452224	73	4609
2026-01-05 01:01:01.77	24.75	12.82	-53.3	-55.7	13.9	0.00e+00	0	27	0	184549376	73	4557
2026-01-05 01:01:02.78	24.74	12.91	-53.3	-55.8	13.9	0.00e+00	0	27	0	186646528	73	4610
2026-01-05 01:01:03.77	24.73	13.01	-53.2	-55.6	13.9	0.00e+00	0	27	0	187695104	72	4783
2026-01-05 01:01:04.78	24.72	13.11	-53.2	-55.6	13.9	0.00e+00	0	28	0	189792256	72	4783
2026-01-05 01:01:05.78	24.71	13.21	-53.2	-55.6	13.9	0.00e+00	0	27	0	191889408	72	4781
2026-01-05 01:01:06.78	24.70	13.31	-53.2	-55.6	13.9	0.00e+00	0	27	0	193986560	72	4770
2026-01-05 01:01:07.78	24.69	13.41	-53.2	-55.5	13.9	0.00e+00	0	27	0	196083712	72	4747
2026-01-05 01:01:08.77	24.68	13.51	-53.1	-55.5	14.0	0.00e+00	0	27	0	197132288	72	4722
2026-01-05 01:01:09.76	24.67	13.60	-53.1	-55.4	14.0	0.00e+00	0	27	0	199229440	72	4671
2026-01-05 01:01:10.76	24.66	13.70	-53.1	-55.4	14.0	0.00e+00	0	28	0	201326592	72	4675
2026-01-05 01:01:11.76	24.65	13.81	-53.0	-55.3	14.0	0.00e+00	0	27	0	203423744	72	4651
2026-01-05 01:01:12.75	24.64	13.91	-53.1	-55.4	14.0	0.00e+00	0	28	0	204472320	72	4677
2026-01-05 01:01:13.75	24.63	14.01	-53.0	-55.2	14.1	0.00e+00	0	28	0	206569472	72	4595
2026-01-05 01:01:14.75	24.62	14.11	-52.9	-55.2	14.1	0.00e+00	0	28	0	208666624	72	4577
2026-01-05 01:01:15.75	24.61	14.21	-52.9	-55.1	14.1	0.00e+00	0	28	0	210763776	72	4539
2026-01-05 01:01:16.75	24.60	14.32	-52.7	-54.9	14.2	0.00e+00	0	28	0	212860928	72	4429
2026-01-05 01:01:17.74	24.59	14.42	-52.8	-55.0	14.2	0.00e+00	0	28	0	213909504	72	4492
2026-01-05 01:01:18.75	24.58	14.52	-52.8	-55.1	14.1	0.00e+00	0	28	0	216006656	72	4518
2026-01-05 01:01:19.75	24.57	14.63	-52.9	-55.1	14.1	0.00e+00	0	27	0	218103808	72	4535
2026-01-05 01:01:20.76	24.56	14.73	-52.7	-54.9	14.2	0.00e+00	0	28	0	220200960	72	4439
2026-01-05 01:01:21.75	24.55	14.84	-52.7	-54.9	14.1	0.00e+00	0	28	0	222298112	71	4690
2026-01-05 01:01:22.74	24.54	14.94	-52.7	-55.0	14.1	0.00e+00	0	27	0	223346688	71	4716
2026-01-05 01:01:23.75	24.53	15.05	-52.7	-54.9	14.1	0.00e+00	0	27	0	225443840	71	4675
2026-01-05 01:01:24.74	24.52	15.15	-52.4	-54.6	14.3	0.00e+00	0	28	0	227540992	71	4518
2026-01-05 01:01:25.74	24.50	15.26	-52.4	-54.6	14.3	0.00e+00	0	27	0	229638144	71	4522
2026-01-05 01:01:26.74	24.49	15.37	-52.4	-54.6	14.3	0.00e+00	0	27	0	230686720	71	4511
2026-01-05 01:01:27.74	24.48	15.48	-52.5	-54.7	14.2	0.00e+00	0	27	0	232783872	71	4573
2026-01-05 01:01:28.74	24.47	15.59	-52.4	-54.5	14.3	0.00e+00	0	28	0	234881024	71	4479
2026-01-05 01:01:29.74	24.46	15.69	-52.3	-54.5	14.3	0.00e+00	0	28	0	236978176	71	4473
2026-01-05 01:01:30.74	24.45	15.80	-52.3	-54.5	14.3	0.00e+00	0	28	0	239075328	71	4449
2026-01-05 01:01:31.74	24.43	15.91	-52.3	-54.5	14.3	0.00e+00	0	28	0	240123904	71	4482
2026-01-05 01:01:32.74	24.42	16.02	-52.3	-54.5	14.3	0.00e+00	0	28	0	242221056	71	4459
2026-01-05 01:01:33.73	24.41	16.13	-52.3	-54.5	14.3	0.00e+00	0	28	0	244318208	71	4477
2026-01-05 01:01:34.73	24.40	16.25	-52.2	-54.4	14.4	0.00e+00	0	28	0	246415360	71	4413
2026-01-05 01:01:35.74	24.39	16.36	-52.2	-54.3	14.3	0.00e+00	0	28	0	247463936	70	4647
2026-01-05 01:01:36.74	24.37	16.47	-52.2	-54.3	14.3	0.00e+00	0	28	0	249561088	70	4631
2026-01-05 01:01:37.74	24.36	16.58	-52.2	-54.3	14.3	0.00e+00	0	28	0	251658240	70	4628
2026-01-05 01:01:38.74	24.35	16.70	-52.2	-54.4	14.3	0.00e+00	0	28	0	253755392	70	4655
2026-01-05 01:01:39.74	24.33	16.81	-52.2	-54.4	14.2	0.00e+00	0	28	0	255852544	70	4689
2026-01-05 01:01:40.74	24.32	16.93	-52.2	-54.3	14.3	0.00e+00	0	28	0	257949696	70	4648
2026-01-05 01:01:41.74	24.31	17.04	-52.2	-54.4	14.3	0.00e+00	0	28	0	258998272	70	4655
2026-01-05 01:01:42.74	24.30	17.16	-52.2	-54.4	14.3	0.00e+00	0	28	0	261095424	70	4671
2026-01-05 01:01:43.74	24.28	17.27	-52.2	-54.3	14.3	0.00e+00	0	28	0	263192576	70	4650
2026-01-05 01:01:44.74	24.27	17.39	-52.3	-54.5	14.2	0.00e+00	0	27	0	265289728	70	4709
2026-01-05 01:01:45.74	24.25	17.51	-52.2	-54.4	14.3	0.00e+00	0	27	0	266338304	70	4699
2026-01-05 01:01:46.74	24.24	17.63	-52.3	-54.5	14.2	0.00e+00	0	28	0	268435456	70	4723
2026-01-05 01:01:47.74	24.23	17.74	-52.3	-54.5	14.2	0.00e+00	0	28	0	270532608	70	4735
2026-01-05 01:01:48.74	24.21	17.86	-52.2	-54.4	14.3	0.00e+00	0	28	0	272629760	70	4663
2026-01-05 01:01:49.74	24.20	17.98	-52.2	-54.4	14.3	0.00e+00	0	28	0	274726912	70	4670
2026-01-05 01:01:50.74	24.18	18.10	-52.3	-54.5	14.3	0.00e+00	0	28	0	275775488	70	4706
2026-01-05 01:01:51.74	24.17	18.22	-52.1	-54.3	14.3	0.00e+00	0	28	0	277872640	70	4609
2026-01-05 01:01:52.73	24.15	18.34	-52.2	-54.3	14.3	0.00e+00	0	28	0	279969792	70	4642
2026-01-05 01:01:53.74	24.14	18.47	-52.1	-54.2	14.4	0.00e+00	0	28	0	282066944	70	4587
2026-01-05 01:01:54.74	24.12	18.59	-52.0	-54.0	14.4	0.00e+00	0	28	0	283115520	70	4478
2026-01-05 01:01:55.74	24.11	18.71	-52.0	-54.2	14.4	0.00e+00	0	28	0	285212672	70	4548
2026-01-05 01:01:56.74	24.09	18.84	-52.1	-54.2	14.3	0.00e+00	0	28	0	287309824	70	4570
2026-01-05 01:01:57.74	24.08	18.96	-52.0	-54.0	14.4	0.00e+00	0	28	0	289406976	70	4476
2026-01-05 01:01:58.73	24.06	19.08	-52.0	-54.1	14.4	0.00e+00	0	28	0	291504128	70	4534
2026-01-05 01:01:59.74	24.05	19.21	-52.1	-54.3	14.3	0.00e+00	0	28	0	292552704	70	4600
2026-01-05 01:02:00.74	24.03	19.34	-52.2	-54.4	14.3	0.00e+00	0	28	0	294649856	70	4675
2026-01-05 01:02:01.73	24.02	19.46	-52.2	-54.3	14.3	0.00e+00	0	28	0	296747008	70	4642
2026-01-05 01:02:02.73	24.00	19.59	-52.1	-54.2	14.4	0.00e+00	0	28	0	298844160	70	4582
2026-01-05 01:02:03.73	23.98	19.72	-52.2	-54.3	14.3	0.00e+00	0	28	0	300941312	70	4645
2026-01-05 01:02:04.73	23.97	19.85	-52.2	-54.4	14.3	0.00e+00	0	28	0	301989888	70	4655
2026-01-05 01:02:05.72	23.95	19.98	-52.2	-54.5	14.2	0.00e+00	0	28	0	304087040	70	4715
2026-01-05 01:02:06.72	23.93	20.11	-52.3	-54.6	14.2	0.00e+00	0	28	0	306184192	70	4778
2026-01-05 01:02:07.72	23.91	20.24	-52.3	-54.5	14.2	0.00e+00	0	28	0	308281344	70	4758
2026-01-05 01:02:08.72	23.90	20.37	-52.4	-54.7	14.1	0.00e+00	0	28	0	309329920	70	4846
2026-01-05 01:02:09.72	23.88	20.50	-52.4	-54.7	14.1	0.00e+00	0	28	0	311427072	70	4837
2026-01-05 01:02:10.71	23.86	20.63	-52.4	-54.7	14.1	0.00e+00	0	28	0	313524224	70	4844
2026-01-05 01:02:11.70	23.84	20.77	-52.3	-54.7	14.2	0.00e+00	0	28	0	315621376	70	4820
2026-01-05 01:02:12.70	23.83	20.90	-52.3	-54.6	14.2	0.00e+00	0	28	0	317718528	70	4813
2026-01-05 01:02:13.70	23.81	21.04	-52.3	-54.6	14.2	0.00e+00	0	28	0	318767104	70	4785
2026-01-05 01:02:14.70	23.79	21.17	-52.4	-54.7	14.1	0.00e+00	0	28	0	320864256	70	4841
2026-01-05 01:02:15.70	23.77	21.31	-52.2	-54.5	14.3	0.00e+00	0	28	0	322961408	70	4716
2026-01-05 01:02:16.69	23.75	21.44	-52.2	-54.5	14.2	0.00e+00	0	28	0	325058560	70	4728
2026-01-05 01:02:17.68	23.73	21.58	-52.3	-54.5	14.2	0.00e+00	0	28	0	327155712	70	4742
2026-01-05 01:02:18.68	23.71	21.72	-52.2	-54.5	14.3	0.00e+00	0	28	0	328204288	70	4707
2026-01-05 01:02:19.68	23.69	21.86	-52.4	-54.7	14.2	0.00e+00	0	28	0	330301440	70	4836
2026-01-05 01:02:20.68	23.67	22.00	-52.4	-54.6	14.2	0.00e+00	0	27	0	332398592	70	4795
2026-01-05 01:02:21.68	23.65	22.14	-52.4	-54.7	14.1	0.00e+00	0	28	0	334495744	70	4841
2026-01-05 01:02:22.67	23.63	22.28	-52.5	-54.8	14.1	0.00e+00	0	28	0	335544320	70	4918
2026-01-05 01:02:23.67	23.61	22.42	-52.5	-54.7	14.2	0.00e+00	0	28	0	337641472	70	4852
2026-01-05 01:02:24.67	23.59	22.57	-52.5	-54.7	14.2	0.00e+00	0	28	0	339738624	70	4848
2026-01-05 01:02:25.66	23.57	22.71	-52.5	-54.7	14.2	0.00e+00	0	28	0	341835776	70	4868
2026-01-05 01:02:26.66	23.55	22.86	-52.6	-54.9	14.1	0.00e+00	0	28	0	343932928	70	4962
2026-01-05 01:02:27.65	23.53	23.00	-52.5	-54.6	14.2	0.00e+00	0	28	0	344981504	70	4796
2026-01-05 01:02:28.65	23.51	23.15	-52.5	-54.6	14.2	0.00e+00	0	28	0	347078656	70	4814
2026-01-05 01:02:29.64	23.49	23.29	-52.5	-54.7	14.2	0.00e+00	0	28	0	349175808	70	4831
2026-01-05 01:02:30.65	23.47	23.44	-52.6	-54.8	14.1	0.00e+00	0	28	0	351272960	70	4895
2026-01-05 01:02:31.65	23.44	23.59	-52.2	-54.3	14.4	0.00e+00	0	28	0	353370112	70	4611
2026-01-05 01:02:32.64	23.42	23.74	-52.3	-54.3	14.3	0.00e+00	0	28	0	354418688	70	4630
2026-01-05 01:02:33.64	23.40	23.89	-52.2	-54.2	14.4	0.00e+00	0	28	0	356515840	70	4584
2026-01-05 01:02:34.64	23.37	24.04	-52.1	-54.1	14.4	0.00e+00	0	28	0	358612992	70	4504
2026-01-05 01:02:35.64	23.35	24.20	-52.2	-54.2	14.4	0.00e+00	0	28	0	360710144	70	4560
2026-01-05 01:02:36.64	23.33	24.35	-52.2	-54.2	14.4	0.00e+00	0	28	0	361758720	70	4580
2026-01-05 01:02:37.64	23.30	24.51	-52.3	-54.3	14.3	0.00e+00	0	28	0	363855872	70	4630
2026-01-05 01:02:38.64	23.28	24.66	-52.4	-54.4	14.3	0.00e+00	0	28	0	365953024	70	4677
2026-01-05 01:02:39.64	23.26	24.82	-52.2	-54.2	14.4	0.00e+00	0	28	0	368050176	70	4569
2026-01-05 01:02:40.64	23.23	24.98	-52.1	-54.0	14.5	0.00e+00	0	28	0	370147328	70	4486
2026-01-05 01:02:41.64	23.21	25.13	-52.2	-54.2	14.4	0.00e+00	0	28	0	371195904	70	4560
2026-01-05 01:02:42.63	23.18	25.29	-52.2	-54.1	14.4	0.00e+00	0	28	0	373293056	70	4529
2026-01-05 01:02:43.63	23.15	25.45	-51.9	-53.8	14.6	0.00e+00	0	28	0	375390208	70	4355
2026-01-05 01:02:44.63	23.13	25.61	-52.0	-53.9	14.6	0.00e+00	0	28	0	377487360	70	4393
2026-01-05 01:02:45.62	23.10	25.77	-51.9	-53.7	14.6	0.00e+00	0	28	0	378535936	70	4338
2026-01-05 01:02:46.61	23.08	25.93	-51.9	-53.7	14.6	0.00e+00	0	28	0	380633088	70	4320
2026-01-05 01:02:47.61	23.05	26.10	-52.0	-53.8	14.6	0.00e+00	0	28	0	382730240	70	4376
2026-01-05 01:02:48.60	23.02	26.26	-51.9	-53.8	14.6	0.00e+00	0	28	0	384827392	70	4349
2026-01-05 01:02:49.61	23.00	26.43	-51.9	-53.7	14.6	0.00e+00	0	28	0	386924544	70	4321
2026-01-05 01:02:50.61	22.97	26.60	-51.9	-53.6	14.6	0.00e+00	0	28	0	387973120	70	4286
2026-01-05 01:02:51.61	22.94	26.77	-52.3	-54.2	14.4	0.00e+00	0	28	0	390070272	70	4557
2026-01-05 01:02:52.60	22.91	26.93	-52.4	-54.3	14.4	0.00e+00	0	28	0	392167424	70	4637
2026-01-05 01:02:53.60	22.88	27.10	-52.6	-54.6	14.3	0.00e+00	0	28	0	394264576	70	4812
2026-01-05 01:02:54.60	22.85	27.27	-52.8	-54.8	14.2	0.00e+00	0	28	0	396361728	70	4914
2026-01-05 01:02:55.60	22.82	27.45	-52.8	-54.9	14.2	0.00e+00	0	28	0	397410304	71	4684
2026-01-05 01:02:56.60	22.79	27.62	-52.9	-55.1	14.2	0.00e+00	0	28	0	399507456	71	4763
2026-01-05 01:02:57.60	22.76	27.80	-53.1	-55.3	14.1	0.00e+00	0	28	0	401604608	71	4893
2026-01-05 01:02:58.60	22.73	27.97	-52.5	-54.5	14.4	0.00e+00	0	28	0	403701760	71	4484
2026-01-05 01:02:59.60	22.70	28.15	-52.8	-55.0	14.2	0.00e+00	0	28	0	405798912	71	4723
2026-01-05 01:03:00.60	22.67	28.33	-52.8	-55.0	14.2	0.00e+00	0	28	0	406847488	71	4711
2026-01-05 01:03:01.60	22.64	28.50	-52.6	-54.7	14.3	0.00e+00	0	28	0	408944640	71	4597
2026-01-05 01:03:02.60	22.61	28.68	-52.6	-54.7	14.3	0.00e+00	0	28	0	411041792	71	4556
2026-01-05 01:03:03.60	22.57	28.87	-52.6	-54.7	14.3	0.00e+00	0	28	0	413138944	71	4556
2026-01-05 01:03:04.59	22.54	29.05	-52.7	-54.9	14.2	0.00e+00	0	28	0	414187520	71	4661
2026-01-05 01:03:05.59	22.51	29.23	-52.9	-55.1	14.2	0.00e+00	0	28	0	416284672	71	4785
2026-01-05 01:03:06.58	22.47	29.41	-52.7	-54.9	14.3	0.00e+00	0	28	0	418381824	71	4655
2026-01-05 01:03:07.58	22.44	29.60	-53.3	-55.7	13.9	0.00e+00	0	28	0	420478976	71	5110
2026-01-05 01:03:08.58	22.40	29.79	-53.4	-55.8	14.0	0.00e+00	0	28	0	422576128	72	4880
2026-01-05 01:03:09.58	22.37	29.98	-53.5	-55.8	14.0	0.00e+00	0	28	0	423624704	72	4887
2026-01-05 01:03:10.57	22.33	30.16	-53.6	-56.0	13.9	0.00e+00	0	28	0	425721856	72	4986
2026-01-05 01:03:11.57	22.30	30.35	-53.6	-56.0	13.9	0.00e+00	0	28	0	427819008	72	4987
2026-01-05 01:03:12.56	22.26	30.55	-53.5	-55.7	14.0	0.00e+00	0	28	0	429916160	72	4839
2026-01-05 01:03:13.56	22.22	30.74	-53.7	-56.0	13.9	0.00e+00	0	28	0	430964736	72	5009
2026-01-05 01:03:14.56	22.19	30.93	-53.5	-55.7	14.0	0.00e+00	0	28	0	433061888	72	4854
2026-01-05 01:03:15.55	22.15	31.13	-54.0	-56.4	13.8	0.00e+00	0	28	0	435159040	73	4928
2026-01-05 01:03:16.55	22.11	31.33	-54.4	-56.9	13.6	0.00e+00	0	28	0	437256192	73	5270
2026-01-05 01:03:17.53	22.07	31.52	-54.2	-56.7	13.8	0.00e+00	0	28	0	439353344	74	4824
2026-01-05 01:03:18.53	22.03	31.72	-54.7	-57.5	13.3	0.00e+00	0	28	0	440401920	74	5321
2026-01-05 01:03:19.52	21.99	31.92	-55.2	-58.2	13.0	0.00e+00	0	28	0	442499072	75	5432
2026-01-05 01:03:20.52	21.95	32.12	-55.4	-58.5	12.9	0.00e+00	0	28	0	444596224	76	5330
2026-01-05 01:03:21.51	21.91	32.32	-55.5	-58.7	12.8	0.00e+00	0	28	0	446693376	76	5443
2026-01-05 01:03:22.50	21.87	32.53	-55.3	-58.5	13.0	0.00e+00	0	28	0	447741952	76	5298
2026-01-05 01:03:23.49	21.83	32.73	-55.5	-58.8	12.7	0.00e+00	0	28	0	449839104	76	5514
2026-01-05 01:03:24.49	21.78	32.94	-55.3	-58.5	13.0	0.00e+00	0	28	0	451936256	76	5296
2026-01-05 01:03:25.49	21.74	33.15	-55.0	-57.9	13.3	0.00e+00	0	28	0	454033408	76	4972
2026-01-05 01:03:26.49	21.69	33.36	-55.1	-58.2	13.1	0.00e+00	0	28	0	456130560	76	5117
2026-01-05 01:03:27.49	21.65	33.57	-55.1	-58.1	13.1	0.00e+00	0	28	0	457179136	76	5072
2026-01-05 01:03:28.49	21.60	33.79	-55.2	-58.4	13.0	0.00e+00	0	28	0	459276288	76	5238
2026-01-05 01:03:29.49	21.56	34.00	-55.0	-58.0	13.2	0.00e+00	0	28	0	461373440	76	5016
2026-01-05 01:03:30.48	21.51	34.22	-55.0	-58.0	13.3	0.00e+00	0	28	0	463470592	76	5007
2026-01-05 01:03:31.48	21.46	34.44	-54.8	-57.8	13.2	0.00e+00	0	28	0	464519168	75	5189
2026-01-05 01:03:32.47	21.42	34.66	-54.4	-57.1	13.6	0.00e+00	0	28	0	466616320	75	4787
2026-01-05 01:03:33.47	21.37	34.88	-53.5	-55.8	14.1	0.00e+00	0	28	0	468713472	73	4610
2026-01-05 01:03:34.47	21.32	35.10	-53.4	-55.6	14.1	0.00e+00	0	28	0	470810624	73	4523
2026-01-05 01:03:35.47	21.27	35.33	-52.8	-54.9	14.3	0.00e+00	0	28	0	472907776	72	4413
2026-01-05 01:03:36.48	21.21	35.55	-52.5	-54.5	14.4	0.00e+00	0	28	0	473956352	71	4490
2026-01-05 01:03:37.48	21.16	35.78	-52.3	-54.3	14.5	0.00e+00	0	28	0	476053504	71	4370
2026-01-05 01:03:38.48	21.11	36.01	-52.3	-54.2	14.6	0.00e+00	0	28	0	478150656	71	4301
2026-01-05 01:03:39.49	21.06	36.25	-52.1	-54.0	14.5	0.00e+00	0	28	0	480247808	70	4485
2026-01-05 01:03:40.49	21.00	36.48	-52.0	-53.9	14.6	0.00e+00	0	28	0	482344960	70	4408
2026-01-05 01:03:41.49	20.95	36.71	-51.8	-53.5	14.6	0.00e+00	0	28	0	483393536	69	4493
2026-01-05 01:03:42.49	20.89	36.95	-51.6	-53.3	14.7	0.00e+00	0	28	0	485490688	69	4390
2026-01-05 01:03:43.49	20.83	37.19	-51.2	-52.9	14.7	0.00e+00	0	28	0	487587840	68	4419
2026-01-05 01:03:44.49	20.77	37.43	-50.8	-52.4	14.9	0.00e+00	0	28	0	489684992	68	4186
2026-01-05 01:03:45.50	20.71	37.67	-50.9	-52.6	14.9	0.00e+00	0	28	0	491782144	68	4249
2026-01-05 01:03:46.50	20.65	37.91	-51.2	-52.9	14.8	0.00e+00	0	28	0	492830720	68	4398
2026-01-05 01:03:47.50	20.59	38.16	-51.0	-52.7	14.8	0.00e+00	0	28	0	494927872	68	4293
2026-01-05 01:03:48.49	20.53	38.40	-51.4	-53.2	14.6	0.00e+00	0	28	0	497025024	68	4559
2026-01-05 01:03:49.49	20.47	38.65	-52.0	-53.9	14.5	0.00e+00	0	28	0	499122176	69	4691
2026-01-05 01:03:50.50	20.41	38.90	-51.9	-53.8	14.5	0.00e+00	0	28	0	501219328	69	4630
2026-01-05 01:03:51.49	20.34	39.15	-51.8	-53.8	14.6	0.00e+00	0	28	0	502267904	69	4599
2026-01-05 01:03:52.49	20.28	39.41	-51.7	-53.6	14.6	0.00e+00	0	28	0	504365056	69	4514
2026-01-05 01:03:53.49	20.21	39.66	-51.7	-53.6	14.6	0.00e+00	0	28	0	506462208	69	4507
2026-01-05 01:03:54.50	20.14	39.92	-51.9	-53.9	14.5	0.00e+00	0	28	0	508559360	69	4682
2026-01-05 01:03:55.50	20.07	40.18	-51.8	-53.8	14.5	0.00e+00	0	28	0	509607936	69	4620
2026-01-05 01:03:56.50	20.00	40.44	-52.2	-54.3	14.3	0.00e+00	0	28	0	511705088	69	4893
2026-01-05 01:03:57.51	19.93	40.71	-52.3	-54.6	14.2	0.00e+00	0	28	0	513802240	69	5061
2026-01-05 01:03:58.51	19.85	40.97	-52.5	-54.8	14.2	0.00e+00	0	28	0	515899392	70	4908
2026-01-05 01:03:59.51	19.78	41.24	-52.6	-54.9	14.1	0.00e+00	0	28	0	517996544	70	4957
2026-01-05 01:04:00.51	19.70	41.51	-52.7	-55.1	14.1	0.00e+00	0	28	0	519045120	70	5062
2026-01-05 01:04:01.50	19.63	41.77	-53.0	-55.6	14.0	0.00e+00	0	28	0	521142272	71	5056
2026-01-05 01:04:02.51	19.55	42.05	-52.8	-55.2	14.1	0.00e+00	0	28	0	523239424	71	4854
2026-01-05 01:04:03.50	19.47	42.32	-53.0	-55.5	14.0	0.00e+00	0	28	0	525336576	71	5012
2026-01-05 01:04:04.51	19.39	42.60	-52.9	-55.4	14.0	0.00e+00	0	28	0	527433728	71	4948
2026-01-05 01:04:05.51	19.31	42.88	-52.8	-55.1	14.2	0.00e+00	0	28	0	528482304	71	4806
2026-01-05 01:04:06.52	19.22	43.16	-52.9	-55.3	14.1	0.00e+00	0	28	0	530579456	71	4915
2026-01-05 01:04:07.51	19.14	43.44	-54.4	-57.2	13.5	0.00e+00	0	28	0	532676608	73	5461
2026-01-05 01:04:08.52	19.05	43.73	-53.7	-56.3	13.8	0.00e+00	0	28	0	534773760	73	4923
2026-01-05 01:04:09.50	18.96	44.01	-53.6	-56.3	13.9	0.00e+00	0	28	0	536870912	73	4882
2026-01-05 01:04:10.50	18.87	44.30	-53.7	-56.3	13.8	0.00e+00	0	28	0	537919488	73	4913
2026-01-05 01:04:11.50	18.78	44.59	-53.6	-56.1	13.9	0.00e+00	0	28	0	540016640	73	4793
2026-01-05 01:04:12.49	18.68	44.88	-53.0	-55.2	14.3	0.00e+00	0	28	0	542113792	72	4582
2026-01-05 01:04:13.49	18.59	45.17	-52.7	-54.9	14.3	0.00e+00	0	28	0	544210944	71	4684
2026-01-05 01:04:14.49	18.49	45.47	-52.4	-54.4	14.5	0.00e+00	0	28	0	545259520	71	4429
2026-01-05 01:04:15.49	18.39	45.77	-52.4	-54.5	14.4	0.00e+00	0	28	0	547356672	71	4478
2026-01-05 01:04:16.49	18.29	46.07	-53.0	-55.3	14.1	0.00e+00	0	28	0	549453824	71	4920
2026-01-05 01:04:17.49	18.19	46.37	-53.5	-56.2	13.8	0.00e+00	0	28	0	551550976	72	5145
2026-01-05 01:04:18.48	18.08	46.68	-53.7	-56.6	13.6	0.00e+00	0	28	0	553648128	72	5349
2026-01-05 01:04:19.47	17.97	46.98	-53.7	-56.7	13.4	0.00e+00	0	28	0	554696704	72	5451
2026-01-05 01:04:20.47	17.86	47.29	-53.7	-56.8	13.4	0.00e+00	0	28	0	556793856	72	5487
2026-01-05 01:04:21.46	17.75	47.60	-53.5	-56.5	13.6	0.00e+00	0	28	0	558891008	72	5300
2026-01-05 01:04:22.45	17.64	47.91	-53.5	-56.4	13.6	0.00e+00	0	28	0	560988160	72	5239
2026-01-05 01:04:23.44	17.52	48.22	-53.7	-56.5	13.6	0.00e+00	0	28	0	562036736	72	5298
2026-01-05 01:04:24.45	17.40	48.54	-54.1	-57.1	13.5	0.00e+00	0	28	0	564133888	74	5065
2026-01-05 01:04:25.44	17.28	48.86	-54.2	-57.3	13.3	0.00e+00	0	28	0	566231040	74	5214
2026-01-05 01:04:26.44	17.15	49.18	-54.2	-57.4	13.4	0.00e+00	0	28	0	568328192	74	5256
2026-01-05 01:04:27.43	17.03	49.51	-53.5	-56.4	13.7	0.00e+00	0	28	0	570425344	73	4950
2026-01-05 01:04:28.43	16.90	49.83	-53.1	-55.7	14.0	0.00e+00	0	28	0	571473920	72	4856
2026-01-05 01:04:29.42	16.77	50.16	-52.3	-54.6	14.4	0.00e+00	0	28	0	573571072	71	4505
2026-01-05 01:04:30.42	16.63	50.49	-52.3	-54.6	14.4	0.00e+00	0	28	0	575668224	71	4534
2026-01-05 01:04:31.42	16.49	50.82	-52.2	-54.5	14.4	0.00e+00	0	28	0	577765376	71	4480
2026-01-05 01:04:32.42	16.35	51.16	-52.2	-54.5	14.4	0.00e+00	0	28	0	578813952	70	4711
2026-01-05 01:04:33.41	16.20	51.50	-52.2	-54.3	14.4	0.00e+00	0	28	0	580911104	70	4642
2026-01-05 01:04:34.41	16.05	51.84	-51.6	-53.5	14.7	0.00e+00	0	28	0	583008256	69	4471
2026-01-05 01:04:35.41	15.90	52.18	-51.2	-53.0	14.7	0.00e+00	0	28	0	585105408	68	4483
2026-01-05 01:04:36.41	15.74	52.52	-51.4	-53.2	14.6	0.00e+00	0	28	0	587202560	68	4576
2026-01-05 01:04:37.40	15.58	52.87	-52.0	-54.1	14.4	0.00e+00	0	28	0	588251136	69	4794
2026-01-05 01:04:38.40	15.42	53.22	-52.3	-54.5	14.2	0.00e+00	0	28	0	590348288	69	5036
2026-01-05 01:04:39.40	15.25	53.57	-52.2	-54.4	14.2	0.00e+00	0	28	0	592445440	69	4981
2026-01-05 01:04:40.40	15.08	53.92	-52.1	-54.2	14.4	0.00e+00	0	28	0	594542592	70	4577
2026-01-05 01:04:41.40	14.90	54.28	-51.7	-53.7	14.6	0.00e+00	0	28	0	596639744	69	4574
2026-01-05 01:04:42.40	14.72	54.63	-51.7	-53.7	14.6	0.00e+00	0	28	0	597688320	69	4549
2026-01-05 01:04:43.40	14.53	54.99	-52.0	-54.0	14.5	0.00e+00	0	28	0	599785472	69	4712
2026-01-05 01:04:44.40	14.34	55.36	-52.1	-54.1	14.5	0.00e+00	0	28	0	601882624	69	4770
2026-01-05 01:04:45.40	14.14	55.72	-52.0	-53.9	14.5	0.00e+00	0	28	0	603979776	69	4662
2026-01-05 01:04:46.41	13.94	56.09	-51.8	-53.6	14.6	0.00e+00	0	28	0	605028352	69	4520
2026-01-05 01:04:47.41	13.73	56.46	-52.1	-54.0	14.5	0.00e+00	0	28	0	607125504	69	4726
2026-01-05 01:04:48.41	13.52	56.83	-52.4	-54.3	14.5	0.00e+00	0	28	0	609222656	70	4625
2026-01-05 01:04:49.41	13.30	57.20	-52.7	-54.6	14.4	0.00e+00	0	28	0	611319808	71	4531
2026-01-05 01:04:50.41	13.07	57.58	-52.6	-54.4	14.5	0.00e+00	0	28	0	613416960	71	4432
2026-01-05 01:04:51.42	12.84	57.96	-52.5	-54.3	14.6	0.00e+00	0	28	0	615514112	71	4381
2026-01-05 01:04:52.42	12.60	58.34	-53.0	-55.0	14.3	0.00e+00	0	28	0	616562688	71	4707
2026-01-05 01:04:53.42	12.35	58.72	-54.2	-56.8	13.7	0.00e+00	0	28	0	618659840	73	5194
2026-01-05 01:04:54.41	12.10	59.10	-54.1	-56.8	13.6	0.00e+00	0	28	0	620756992	73	5178
2026-01-05 01:04:55.41	11.84	59.48	-53.2	-55.5	14.2	0.00e+00	0	28	0	622854144	73	4454
2026-01-05 01:04:56.41	11.58	59.87	-52.1	-54.0	14.5	0.00e+00	0	28	0	623902720	70	4450
2026-01-05 01:04:57.42	11.30	60.26	-51.8	-53.7	14.7	0.00e+00	0	28	0	625999872	70	4307
2026-01-05 01:04:58.42	11.01	60.65	-52.5	-54.6	14.3	0.00e+00	0	28	0	628097024	70	4799
2026-01-05 01:04:59.42	10.72	61.04	-53.1	-55.6	14.1	0.00e+00	0	28	0	630194176	71	5044
2026-01-05 01:05:00.42	10.41	61.43	-52.6	-54.9	14.3	0.00e+00	0	28	0	632291328	71	4681
2026-01-05 01:05:01.43	10.09	61.83	-52.1	-54.2	14.5	0.00e+00	0	28	0	633339904	70	4552
2026-01-05 01:05:02.44	9.77	62.23	-51.8	-53.6	14.7	0.00e+00	0	28	0	635437056	70	4270
2026-01-05 01:05:03.43	9.43	62.63	-51.2	-52.8	14.8	0.00e+00	0	28	0	637534208	68	4386
2026-01-05 01:05:04.43	9.09	63.03	-50.7	-52.3	15.0	0.00e+00	0	28	0	639631360	68	4116
2026-01-05 01:05:05.43	8.73	63.43	-50.6	-52.1	14.9	0.00e+00	0	28	0	641728512	67	4286
2026-01-05 01:05:06.43	8.36	63.83	-50.7	-52.3	14.9	0.00e+00	0	28	0	642777088	67	4367
2026-01-05 01:05:07.44	7.97	64.24	-51.1	-52.8	14.7	0.00e+00	0	28	0	644874240	67	4606
2026-01-05 01:05:08.44	7.57	64.64	-50.7	-52.4	14.8	0.00e+00	0	28	0	646971392	67	4420
2026-01-05 01:05:09.44	7.16	65.05	-50.7	-52.3	14.9	0.00e+00	0	28	0	649068544	67	4373
2026-01-05 01:05:10.45	6.72	65.46	-51.2	-53.1	14.6	0.00e+00	0	28	0	650117120	67	4777
2026-01-05 01:05:11.45	6.28	65.86	-52.6	-54.8	14.3	0.00e+00	0	28	0	652214272	70	4899
2026-01-05 01:05:12.45	5.82	66.27	-53.0	-55.3	14.3	0.00e+00	0	28	0	654311424	71	4889
2026-01-05 01:05:13.44	5.34	66.68	-53.1	-55.3	14.2	0.00e+00	0	28	0	656408576	71	4913
2026-01-05 01:05:14.44	4.84	67.09	-52.8	-54.8	14.5	0.00e+00	0	28	0	658505728	71	4621
2026-01-05 01:05:15.44	4.33	67.50	-53.2	-55.4	14.2	0.00e+00	0	28	0	659554304	71	4935
2026-01-05 01:05:16.43	3.79	67.90	-53.2	-55.3	14.2	0.00e+00	0	28	0	661651456	71	4884
2026-01-05 01:05:17.43	3.23	68.31	-53.1	-55.2	14.3	0.00e+00	0	28	0	663748608	72	4587
2026-01-05 01:05:18.43	2.64	68.72	-53.1	-55.4	14.2	0.00e+00	0	28	0	665845760	72	4678
2026-01-05 01:05:19.43	2.03	69.13	-53.2	-55.4	14.2	0.00e+00	0	28	0	667942912	72	4692
2026-01-05 01:05:20.43	1.40	69.54	-52.9	-55.0	14.3	0.00e+00	0	28	0	668991488	71	4754
2026-01-05 01:05:21.41	0.75	69.94	-53.1	-55.2	14.2	0.00e+00	0	28	0	671088640	71	4841
2026-01-05 01:05:22.41	0.05	70.34	-52.6	-54.5	14.5	0.00e+00	0	28	0	673185792	71	4486
2026-01-05 01:05:23.41	359.33	70.75	-51.9	-53.6	14.8	0.00e+00	0	28	0	675282944	70	4272
2026-01-05 01:05:24.41	358.57	71.15	-51.7	-53.4	14.8	0.00e+00	0	28	0	676331520	70	4173
2026-01-05 01:05:25.40	357.78	71.55	-52.2	-54.1	14.6	0.00e+00	0	28	0	678428672	70	4498
2026-01-05 01:05:26.40	356.95	71.95	-51.5	-53.1	14.9	0.00e+00	0	28	0	680525824	69	4251
2026-01-05 01:05:27.40	356.08	72.35	-51.0	-52.5	14.9	0.00e+00	0	28	0	682622976	68	4234
2026-01-05 01:05:28.41	355.15	72.75	-51.5	-53.1	14.7	0.00e+00	0	28	0	684720128	68	4544
2026-01-05 01:05:29.41	354.19	73.14	-51.9	-53.6	14.7	0.00e+00	0	28	0	685768704	69	4514
2026-01-05 01:05:30.40	353.19	73.53	-52.0	-53.7	14.7	0.00e+00	0	28	0	687865856	69	4591
2026-01-05 01:05:31.39	352.14	73.91	-52.4	-54.2	14.4	0.00e+00	0	28	0	689963008	69	4866
2026-01-05 01:05:32.39	351.03	74.29	-53.9	-56.4	13.9	0.00e+00	0	28	0	692060160	72	5229
2026-01-05 01:05:33.40	349.85	74.67	-54.8	-57.5	13.5	0.00e+00	0	28	0	694157312	74	5332
2026-01-05 01:05:34.40	348.62	75.04	-53.9	-56.1	14.3	0.00e+00	0	28	0	695205888	74	4495
2026-01-05 01:05:35.40	347.32	75.41	-54.9	-57.5	13.5	0.00e+00	0	28	0	697303040	74	5302
2026-01-05 01:05:36.41	345.94	75.77	-55.3	-58.2	13.4	0.00e+00	0	28	0	699400192	76	5101
2026-01-05 01:05:37.41	344.50	76.12	-54.4	-56.7	14.0	0.00e+00	0	28	0	701497344	75	4572
2026-01-05 01:05:38.41	342.99	76.46	-54.2	-56.4	14.0	0.00e+00	0	28	0	702545920	74	4705
2026-01-05 01:05:39.41	341.39	76.80	-55.7	-58.7	13.0	0.00e+00	0	28	0	704643072	76	5454
2026-01-05 01:05:40.41	339.71	77.12	-55.0	-57.6	13.7	0.00e+00	0	28	0	706740224	76	4763
2026-01-05 01:05:41.42	337.92	77.44	-54.3	-56.4	14.1	0.00e+00	0	28	0	708837376	75	4439
2026-01-05 01:05:42.42	336.06	77.74	-53.9	-56.0	14.2	0.00e+00	0	28	0	710934528	74	4465
2026-01-05 01:05:43.43	334.09	78.03	-53.5	-55.4	14.4	0.00e+00	0	28	0	713031680	73	4405
2026-01-05 01:05:44.42	332.06	78.30	-53.9	-56.0	14.1	0.00e+00	0	28	0	714080256	73	4745
2026-01-05 01:05:45.43	329.89	78.56	-53.7	-55.8	14.2	0.00e+00	0	28	0	716177408	73	4622
2026-01-05 01:05:46.43	327.64	78.81	-54.0	-56.2	14.1	0.00e+00	0	28	0	718274560	73	4857
2026-01-05 01:05:47.43	325.29	79.03	-55.2	-57.9	13.5	0.00e+00	0	28	0	720371712	75	5242
2026-01-05 01:05:48.43	322.84	79.24	-56.0	-59.2	13.1	0.00e+00	0	28	0	721420288	77	5410
2026-01-05 01:05:49.42	320.33	79.43	-56.7	-60.5	12.2	0.00e+00	0	28	0	723517440	78	5991
2026-01-05 01:05:50.42	317.70	79.60	-56.8	-60.6	12.1	0.00e+00	0	28	0	725614592	79	5699
2026-01-05 01:05:51.42	315.00	79.74	-56.8	-60.6	12.1	1.50e-06	0	28	0	727711744	79	5666
2026-01-05 01:05:52.42	312.21	79.86	-57.4	-61.8	11.3	3.80e-06	0	28	0	729808896	79	6554
2026-01-05 01:05:53.43	309.34	79.96	-58.0	-63.6	10.1	1.03e-03	0	28	0	730857472	81	7124
2026-01-05 01:05:54.43	306.45	80.03	-57.7	-62.8	10.4	2.51e-03	0	28	0	732954624	81	6545
2026-01-05 01:05:55.42	303.55	80.08	-56.3	-59.6	12.7	0.00e+00	0	28	0	735051776	79	5082
2026-01-05 01:05:56.43	300.57	80.10	-56.9	-60.6	12.3	0.00e+00	0	28	0	737148928	79	5688
2026-01-05 01:05:57.42	297.64	80.10	-57.9	-62.9	10.5	3.00e-06	0	28	0	739246080	80	7027
2026-01-05 01:05:58.42	294.70	80.07	-57.6	-62.3	11.3	1.56e-04	0	28	0	740294656	80	6516
2026-01-05 01:05:59.42	291.78	80.01	-56.4	-59.8	12.6	0.00e+00	0	28	0	742391808	79	5187
2026-01-05 01:06:00.42	288.90	79.93	-55.2	-58.0	13.5	0.00e+00	0	28	0	744488960	76	4998
2026-01-05 01:06:01.43	286.05	79.83	-54.8	-57.5	13.6	0.00e+00	0	28	0	746586112	75	5016
2026-01-05 01:06:02.42	283.32	79.70	-55.1	-58.0	13.5	0.00e+00	0	28	0	747634688	75	5281
2026-01-05 01:06:03.42	280.63	79.55	-54.7	-57.3	13.7	0.00e+00	0	28	0	749731840	75	4915
2026-01-05 01:06:04.42	278.03	79.37	-55.0	-57.7	13.6	0.00e+00	0	28	0	751828992	75	5153
2026-01-05 01:06:05.42	275.52	79.18	-55.3	-58.2	13.4	0.00e+00	0	28	0	753926144	76	5117
2026-01-05 01:06:06.42	273.11	78.96	-53.9	-56.1	14.2	0.00e+00	0	28	0	756023296	74	4520
2026-01-05 01:06:07.42	270.79	78.73	-53.9	-56.2	14.1	0.00e+00	0	28	0	757071872	73	4815
2026-01-05 01:06:08.41	268.59	78.49	-55.4	-58.3	13.4	0.00e+00	0	28	0	759169024	76	5198
2026-01-05 01:06:09.41	266.47	78.22	-54.7	-57.1	14.0	0.00e+00	0	28	0	761266176	76	4520
2026-01-05 01:06:10.41	264.45	77.94	-55.2	-57.8	13.4	0.00e+00	0	28	0	763363328	75	5212
2026-01-05 01:06:11.42	262.50	77.65	-55.9	-59.0	12.9	0.00e+00	0	28	0	764411904	77	5340
2026-01-05 01:06:12.41	260.69	77.34	-56.1	-59.6	12.6	7.00e-07	0	28	0	766509056	77	5660
2026-01-05 01:06:13.41	258.95	77.03	-56.8	-61.1	11.5	1.50e-06	0	28	0	768606208	78	6408
2026-01-05 01:06:14.40	257.31	76.70	-57.5	-62.9	10.4	1.81e-04	0	28	0	770703360	80	7010
2026-01-05 01:06:15.40	255.73	76.37	-57.7	-63.5	10.2	3.35e-03	0	28	0	772800512	81	7079
2026-01-05 01:06:16.40	254.24	76.02	-56.8	-60.6	12.1	5.30e-06	0	28	0	773849088	80	5377
2026-01-05 01:06:17.39	252.83	75.67	-55.5	-58.1	13.5	0.00e+00	0	28	0	775946240	77	4766
2026-01-05 01:06:18.39	251.49	75.31	-54.7	-57.0	13.8	0.00e+00	0	28	0	778043392	74	5031
2026-01-05 01:06:19.39	250.21	74.94	-54.0	-55.9	14.3	0.00e+00	0	28	0	780140544	74	4441
2026-01-05 01:06:20.38	249.00	74.58	-53.2	-55.0	14.5	0.00e+00	0	28	0	782237696	72	4464
2026-01-05 01:06:21.37	247.86	74.20	-52.8	-54.6	14.6	0.00e+00	0	28	0	783286272	71	4515
2026-01-05 01:06:22.37	246.76	73.82	-53.3	-55.1	14.3	0.00e+00	0	28	0	785383424	71	4810
2026-01-05 01:06:23.37	245.71	73.43	-52.4	-54.1	14.7	0.00e+00	0	28	0	787480576	71	4250
2026-01-05 01:06:24.36	244.72	73.04	-51.4	-52.8	15.0	0.00e+00	0	28	0	789577728	69	4136
2026-01-05 01:06:25.36	243.77	72.65	-51.4	-52.8	14.9	0.00e+00	0	28	0	790626304	68	4366
2026-01-05 01:06:26.36	242.87	72.25	-52.4	-54.1	14.6	0.00e+00	0	28	0	792723456	69	4770
2026-01-05 01:06:27.35	242.01	71.86	-52.9	-54.8	14.5	0.00e+00	0	28	0	794820608	71	4612
2026-01-05 01:06:28.34	241.20	71.46	-52.9	-54.7	14.5	0.00e+00	0	28	0	796917760	71	4572
2026-01-05 01:06:29.34	240.41	71.06	-52.0	-53.7	14.8	0.00e+00	0	28	0	799014912	70	4298
2026-01-05 01:06:30.34	239.66	70.65	-51.2	-52.7	14.9	0.00e+00	0	28	0	800063488	68	4332
2026-01-05 01:06:31.34	238.94	70.25	-52.2	-54.0	14.6	0.00e+00	0	28	0	802160640	69	4759
2026-01-05 01:06:32.34	238.25	69.84	-53.0	-55.1	14.3	0.00e+00	0	28	0	804257792	71	4778
2026-01-05 01:06:33.33	237.60	69.43	-52.4	-54.2	14.7	0.00e+00	0	28	0	806354944	71	4338
2026-01-05 01:06:34.33	236.97	69.02	-52.1	-53.9	14.7	0.00e+00	0	28	0	808452096	70	4429
2026-01-05 01:06:35.33	236.36	68.61	-53.2	-55.4	14.2	0.00e+00	0	28	0	809500672	71	4973
2026-01-05 01:06:36.33	235.78	68.20	-53.6	-56.2	13.9	0.00e+00	0	28	0	811597824	72	5110
2026-01-05 01:06:37.33	235.23	67.79	-53.7	-56.4	13.9	0.00e+00	0	28	0	813694976	73	4937
2026-01-05 01:06:38.33	234.69	67.38	-52.5	-54.6	14.5	0.00e+00	0	28	0	815792128	71	4533
2026-01-05 01:06:39.33	234.18	66.97	-51.5	-53.3	14.8	0.00e+00	0	28	0	816840704	69	4358
2026-01-05 01:06:40.33	233.68	66.56	-51.7	-53.5	14.7	0.00e+00	0	28	0	818937856	69	4464
2026-01-05 01:06:41.33	233.21	66.16	-52.0	-53.9	14.6	0.00e+00	0	28	0	821035008	69	4675
2026-01-05 01:06:42.34	232.75	65.74	-53.2	-55.4	14.2	0.00e+00	0	28	0	823132160	71	4951
2026-01-05 01:06:43.33	232.31	65.34	-52.8	-54.8	14.4	0.00e+00	0	28	0	825229312	71	4611
2026-01-05 01:06:44.32	231.89	64.94	-53.3	-55.5	14.2	0.00e+00	0	28	0	826277888	71	5039
2026-01-05 01:06:45.31	231.48	64.53	-53.4	-55.7	14.0	0.00e+00	0	28	0	828375040	72	4820
2026-01-05 01:06:46.31	231.09	64.13	-52.7	-54.6	14.5	0.00e+00	0	28	0	830472192	71	4541
2026-01-05 01:06:47.32	230.70	63.72	-53.9	-56.4	13.8	0.00e+00	0	28	0	832569344	72	5239
2026-01-05 01:06:48.32	230.33	63.32	-55.7	-59.4	12.7	0.00e+00	0	28	0	833617920	76	5916
2026-01-05 01:06:49.32	229.98	62.92	-54.9	-58.0	13.4	0.00e+00	0	28	0	835715072	76	5028
2026-01-05 01:06:50.32	229.63	62.52	-54.7	-57.7	13.5	0.00e+00	0	28	0	837812224	75	5114
2026-01-05 01:06:51.32	229.30	62.12	-56.1	-60.3	12.1	0.00e+00	0	28	0	839909376	77	6158
2026-01-05 01:06:52.32	228.98	61.72	-54.4	-57.1	13.8	0.00e+00	0	28	0	842006528	75	4794
2026-01-05 01:06:53.32	228.67	61.33	-53.1	-55.2	14.3	0.00e+00	0	28	0	843055104	72	4562
2026-01-05 01:06:54.32	228.36	60.93	-52.5	-54.4	14.6	0.00e+00	0	28	0	845152256	71	4414
2026-01-05 01:06:55.32	228.07	60.54	-51.5	-53.3	14.8	0.00e+00	0	28	0	847249408	69	4341
2026-01-05 01:06:56.32	227.79	60.15	-51.1	-52.7	14.9	0.00e+00	0	28	0	849346560	68	4297
2026-01-05 01:06:57.32	227.51	59.76	-51.4	-53.1	14.7	0.00e+00	0	28	0	851443712	68	4513
2026-01-05 01:06:58.32	227.24	59.38	-51.0	-52.5	14.9	0.00e+00	0	28	0	852492288	68	4227
2026-01-05 01:06:59.31	226.99	59.00	-51.3	-52.9	14.6	0.00e+00	0	28	0	854589440	68	4408
2026-01-05 01:07:00.31	226.74	58.61	-51.9	-53.6	14.7	0.00e+00	0	28	0	856686592	69	4513
2026-01-05 01:07:01.30	226.49	58.23	-52.4	-54.2	14.5	0.00e+00	0	28	0	858783744	70	4591
2026-01-05 01:07:02.29	226.26	57.86	-51.6	-53.3	14.8	0.00e+00	0	28	0	859832320	69	4361
2026-01-05 01:07:03.30	226.03	57.48	-51.5	-53.0	14.9	0.00e+00	0	28	0	861929472	69	4240
2026-01-05 01:07:04.29	225.80	57.11	-51.3	-52.9	14.8	0.00e+00	0	28	0	864026624	68	4412
2026-01-05 01:07:05.29	225.59	56.73	-52.6	-54.6	14.4	0.00e+00	0	28	0	866123776	70	4803
2026-01-05 01:07:06.28	225.38	56.37	-53.3	-55.6	14.1	0.00e+00	0	28	0	868220928	72	4788
2026-01-05 01:07:07.28	225.17	56.00	-53.4	-55.7	14.0	0.00e+00	0	28	0	869269504	72	4863
2026-01-05 01:07:08.29	224.97	55.63	-53.8	-56.4	13.7	0.00e+00	0	28	0	871366656	72	5256
2026-01-05 01:07:09.29	224.77	55.26	-53.5	-56.4	13.7	0.00e+00	0	28	0	873463808	73	4977
2026-01-05 01:07:10.28	224.58	54.90	-53.0	-55.4	14.2	0.00e+00	0	28	0	875560960	72	4669
2026-01-05 01:07:11.28	224.39	54.54	-52.6	-54.8	14.4	0.00e+00	0	28	0	877658112	71	4605
2026-01-05 01:07:12.28	224.21	54.18	-52.9	-55.2	14.3	0.00e+00	0	28	0	878706688	71	4830
2026-01-05 01:07:13.28	224.04	53.83	-52.4	-54.5	14.6	0.00e+00	0	28	0	880803840	71	4452
2026-01-05 01:07:14.28	223.86	53.47	-52.0	-53.9	14.7	0.00e+00	0	28	0	882900992	70	4412
2026-01-05 01:07:15.28	223.70	53.12	-52.4	-54.4	14.5	0.00e+00	0	28	0	884998144	70	4681
2026-01-05 01:07:16.28	223.53	52.77	-52.4	-54.5	14.4	0.00e+00	0	28	0	887095296	70	4729
2026-01-05 01:07:17.28	223.37	52.43	-52.0	-53.8	14.7	0.00e+00	0	28	0	888143872	70	4379
2026-01-05 01:07:18.28	223.21	52.08	-51.7	-53.6	14.7	0.00e+00	0	28	0	890241024	69	4502
2026-01-05 01:07:19.27	223.06	51.74	-52.0	-53.9	14.5	0.00e+00	0	28	0	892338176	69	4700
2026-01-05 01:07:20.26	222.92	51.40	-53.1	-55.4	14.1	0.00e+00	0	28	0	894435328	71	4965
2026-01-05 01:07:21.25	222.77	51.07	-52.9	-55.2	14.2	0.00e+00	0	28	0	895483904	71	4828
2026-01-05 01:07:22.24	222.63	50.74	-52.6	-54.8	14.4	0.00e+00	0	28	0	897581056	71	4603
2026-01-05 01:07:23.22	222.49	50.41	-53.2	-55.5	14.1	0.00e+00	0	28	0	899678208	71	5009
2026-01-05 01:07:24.22	222.36	50.08	-54.0	-56.7	13.7	0.00e+00	0	28	0	901775360	73	5133
2026-01-05 01:07:25.21	222.22	49.75	-54.1	-57.0	13.6	0.00e+00	0	28	0	902823936	74	5012
2026-01-05 01:07:26.21	222.09	49.42	-54.0	-56.7	13.8	0.00e+00	0	28	0	904921088	74	4821
2026-01-05 01:07:27.21	221.97	49.10	-53.6	-56.0	14.1	0.00e+00	0	28	0	907018240	73	4727
2026-01-05 01:07:28.21	221.84	48.77	-54.2	-56.9	13.6	0.00e+00	0	28	0	909115392	73	5238
2026-01-05 01:07:29.21	221.72	48.45	-54.2	-56.9	13.6	0.00e+00	0	28	0	911212544	73	5221
2026-01-05 01:07:30.21	221.60	48.13	-55.4	-58.7	12.8	0.00e+00	0	28	0	912261120	76	5420
2026-01-05 01:07:31.20	221.48	47.82	-55.7	-59.3	12.6	0.00e+00	0	28	0	914358272	76	5816
2026-01-05 01:07:32.20	221.37	47.51	-55.3	-58.5	12.9	0.00e+00	0	28	0	916455424	76	5304
2026-01-05 01:07:33.19	221.26	47.20	-54.4	-57.0	13.7	0.00e+00	0	28	0	918552576	75	4711
2026-01-05 01:07:34.19	221.15	46.89	-54.6	-57.3	13.6	0.00e+00	0	28	0	920649728	75	4914
2026-01-05 01:07:35.19	221.04	46.58	-54.4	-57.0	13.7	0.00e+00	0	28	0	921698304	75	4740
2026-01-05 01:07:36.19	220.93	46.27	-54.8	-57.6	13.4	0.00e+00	0	28	0	923795456	74	5372
2026-01-05 01:07:37.19	220.83	45.97	-53.4	-55.7	14.2	0.00e+00	0	28	0	925892608	73	4555
2026-01-05 01:07:38.18	220.73	45.67	-53.3	-55.5	14.3	0.00e+00	0	28	0	927989760	72	4738
2026-01-05 01:07:39.18	220.63	45.37	-53.4	-55.6	14.1	0.00e+00	0	28	0	929038336	72	4814
2026-01-05 01:07:40.17	220.53	45.08	-53.6	-55.9	14.0	0.00e+00	0	28	0	931135488	72	4946
2026-01-05 01:07:41.18	220.44	44.78	-53.6	-56.0	13.9	0.00e+00	0	28	0	933232640	72	5014
2026-01-05 01:07:42.17	220.34	44.49	-54.0	-56.6	13.8	0.00e+00	0	28	0	935329792	73	5047
2026-01-05 01:07:43.18	220.25	44.20	-54.4	-57.1	13.5	0.00e+00	0	28	0	937426944	73	5372
2026-01-05 01:07:44.18	220.16	43.91	-54.3	-57.1	13.6	0.00e+00	0	28	0	938475520	74	5051
2026-01-05 01:07:45.18	220.07	43.62	-54.5	-57.4	13.4	0.00e+00	0	28	0	940572672	74	5277
2026-01-05 01:07:46.17	219.98	43.34	-54.3	-57.1	13.4	0.00e+00	0	28	0	942669824	74	5061
2026-01-05 01:07:47.17	219.90	43.06	-55.3	-58.7	12.9	0.00e+00	0	28	0	944766976	75	5770
2026-01-05 01:07:48.17	219.81	42.77	-55.8	-59.6	12.5	0.00e+00	0	28	0	945815552	76	6034
2026-01-05 01:07:49.17	219.73	42.50	-57.1	-62.8	10.5	5.18e-05	0	28	0	947912704	79	7315
2026-01-05 01:07:50.17	219.65	42.22	-56.4	-60.7	11.8	2.08e-04	0	28	0	950009856	79	5768
2026-01-05 01:07:51.17	219.57	41.94	-55.1	-58.1	13.3	0.00e+00	0	28	0	952107008	76	5065
2026-01-05 01:07:52.17	219.49	41.67	-53.8	-56.2	14.1	0.00e+00	0	28	0	954204160	74	4551
2026-01-05 01:07:53.17	219.42	41.40	-54.0	-56.5	13.8	0.00e+00	0	28	0	956301312	73	5023
2026-01-05 01:07:54.17	219.34	41.13	-54.1	-56.7	13.5	0.00e+00	0	28	0	957349888	74	4855
2026-01-05 01:07:55.18	219.26	40.86	-54.3	-57.0	13.8	0.00e+00	0	28	0	959447040	74	4994
2026-01-05 01:07:56.17	219.19	40.60	-54.3	-57.0	13.7	0.00e+00	0	28	0	961544192	74	5023
2026-01-05 01:07:57.16	219.12	40.34	-54.4	-57.1	13.6	0.00e+00	0	28	0	963641344	74	5100
2026-01-05 01:07:58.16	219.05	40.08	-54.4	-57.3	13.5	0.00e+00	0	28	0	964689920	74	5180
2026-01-05 01:07:59.16	218.98	39.82	-54.6	-57.7	13.3	0.00e+00	0	28	0	966787072	74	5446
2026-01-05 01:08:00.15	218.91	39.56	-55.2	-58.8	12.7	0.00e+00	0	28	0	968884224	75	5836
2026-01-05 01:08:01.16	218.85	39.30	-55.1	-58.4	13.0	0.00e+00	0	28	0	970981376	76	5278
2026-01-05 01:08:02.16	218.78	39.05	-54.3	-57.2	13.7	0.00e+00	0	28	0	973078528	75	4829
2026-01-05 01:08:03.16	218.71	38.80	-53.3	-55.6	14.2	0.00e+00	0	28	0	974127104	73	4513
2026-01-05 01:08:04.16	218.65	38.55	-52.6	-54.7	14.4	0.00e+00	0	28	0	976224256	71	4572
2026-01-05 01:08:05.16	218.59	38.30	-52.0	-53.9	14.6	0.00e+00	0	28	0	978321408	70	4428
2026-01-05 01:08:06.16	218.53	38.05	-52.7	-54.7	14.3	0.00e+00	0	28	0	980418560	70	4862
2026-01-05 01:08:07.16	218.47	37.81	-53.3	-55.6	14.0	0.00e+00	0	28	0	981467136	71	5060
2026-01-05 01:08:08.17	218.40	37.56	-53.5	-55.9	14.0	0.00e+00	0	28	0	983564288	72	4956
2026-01-05 01:08:09.17	218.35	37.32	-54.2	-56.9	13.5	0.00e+00	0	28	0	985661440	73	5276
2026-01-05 01:08:10.17	218.29	37.08	-54.4	-57.3	13.5	0.00e+00	0	28	0	987758592	73	5475
2026-01-05 01:08:11.17	218.23	36.84	-54.4	-57.2	13.4	0.00e+00	0	28	0	989855744	74	5155
2026-01-05 01:08:12.18	218.17	36.60	-54.3	-57.1	13.5	0.00e+00	0	28	0	990904320	74	5074
2026-01-05 01:08:13.18	218.12	36.37	-54.6	-57.6	13.3	0.00e+00	0	28	0	993001472	74	5355
2026-01-05 01:08:14.18	218.06	36.14	-54.5	-57.3	13.4	0.00e+00	0	28	0	995098624	74	5215
2026-01-05 01:08:15.18	218.01	35.90	-54.8	-57.9	13.2	0.00e+00	0	28	0	997195776	74	5540
2026-01-05 01:08:16.18	217.96	35.67	-55.2	-58.6	12.8	0.00e+00	0	28	0	999292928	75	5697
2026-01-05 01:08:17.17	217.90	35.45	-55.4	-59.0	12.6	0.00e+00	0	28	0	1000341504	75	5943
2026-01-05 01:08:18.15	217.85	35.23	-55.4	-58.8	12.9	0.00e+00	0	28	0	1002438656	76	5517
2026-01-05 01:08:19.15	217.80	35.00	-54.3	-57.1	13.6	0.00e+00	0	28	0	1004535808	75	4800
2026-01-05 01:08:20.14	217.75	34.78	-54.1	-56.8	13.7	0.00e+00	0	28	0	1006632960	74	4903
2026-01-05 01:08:21.14	217.70	34.56	-53.6	-56.0	14.0	0.00e+00	0	28	0	1007681536	73	4734
2026-01-05 01:08:22.14	217.66	34.34	-53.5	-55.9	14.1	0.00e+00	0	28	0	1009778688	73	4657
2026-01-05 01:08:23.15	217.61	34.12	-53.5	-55.8	14.1	0.00e+00	0	28	0	1011875840	73	4614
2026-01-05 01:08:24.15	217.56	33.90	-53.5	-55.8	14.1	0.00e+00	0	28	0	1013972992	73	4609
2026-01-05 01:08:25.14	217.51	33.69	-53.6	-55.9	14.1	0.00e+00	0	28	0	1016070144	73	4687
2026-01-05 01:08:26.13	217.47	33.47	-53.8	-56.2	13.9	0.00e+00	0	28	0	1017118720	73	4861
2026-01-05 01:08:27.13	217.42	33.26	-54.0	-56.4	13.9	0.00e+00	0	28	0	1019215872	73	4947
2026-01-05 01:08:28.12	217.38	33.05	-54.0	-56.4	13.9	0.00e+00	0	28	0	1021313024	73	4969
2026-01-05 01:08:29.12	217.34	32.84	-54.1	-56.5	13.8	0.00e+00	0	28	0	1023410176	73	5036
2026-01-05 01:08:30.11	217.29	32.63	-53.9	-56.2	14.0	0.00e+00	0	28	0	1024458752	73	4866
2026-01-05 01:08:31.12	217.25	32.42	-54.0	-56.4	13.8	0.00e+00	0	28	0	1026555904	73	4966
2026-01-05 01:08:32.12	217.21	32.22	-54.5	-57.1	13.6	0.00e+00	0	28	0	1028653056	74	5084
2026-01-05 01:08:33.12	217.17	32.01	-54.5	-57.1	13.6	0.00e+00	0	28	0	1030750208	74	5064
2026-01-05 01:08:34.12	217.12	31.81	-54.4	-57.0	13.7	0.00e+00	0	28	0	1032847360	74	5001
2026-01-05 01:08:35.11	217.08	31.61	-54.4	-56.9	13.7	0.00e+00	0	28	0	1033895936	74	4959
2026-01-05 01:08:36.10	217.05	31.41	-54.4	-57.0	13.7	0.00e+00	0	28	0	1035993088	74	4995
2026-01-05 01:08:37.08	217.01	31.22	-54.5	-57.0	13.6	0.00e+00	0	28	0	1038090240	74	5031
2026-01-05 01:08:38.09	216.97	31.02	-54.6	-57.3	13.5	0.00e+00	0	28	0	1040187392	74	5197
2026-01-05 01:08:39.09	216.93	30.82	-54.4	-57.0	13.7	0.00e+00	0	28	0	1042284544	74	4990
2026-01-05 01:08:40.09	216.89	30.63	-54.4	-56.9	13.8	0.00e+00	0	28	0	1043333120	75	4694
2026-01-05 01:08:41.09	216.85	30.43	-54.4	-57.0	13.7	0.00e+00	0	28	0	1045430272	75	4737
2026-01-05 01:08:42.09	216.82	30.24	-54.3	-56.8	13.8	0.00e+00	0	28	0	1047527424	75	4643
2026-01-05 01:08:43.10	216.78	30.05	-54.4	-57.0	13.7	0.00e+00	0	28	0	1049624576	75	4755
2026-01-05 01:08:44.10	216.74	29.86	-54.5	-57.2	13.6	0.00e+00	0	28	0	1051721728	75	4834
2026-01-05 01:08:45.09	216.71	29.67	-54.4	-57.0	13.7	0.00e+00	0	28	0	1052770304	75	4734
2026-01-05 01:08:46.09	216.67	29.48	-54.2	-56.7	13.7	0.00e+00	0	28	0	1054867456	74	4868
2026-01-05 01:08:47.08	216.64	29.30	-54.4	-57.0	13.6	0.00e+00	0	28	0	1056964608	74	5007
2026-01-05 01:08:48.08	216.61	29.11	-53.9	-56.3	13.9	0.00e+00	0	28	0	1059061760	74	4627
2026-01-05 01:08:49.08	216.57	28.93	-53.6	-55.8	14.0	0.00e+00	0	28	0	1060110336	73	4621
2026-01-05 01:08:50.09	216.54	28.75	-53.3	-55.4	14.2	0.00e+00	0	28	0	1062207488	73	4404
2026-01-05 01:08:51.09	216.50	28.56	-52.9	-54.9	14.3	0.00e+00	0	28	0	1064304640	72	4427
2026-01-05 01:08:52.08	216.47	28.38	-52.9	-54.9	14.4	0.00e+00	0	28	0	1066401792	72	4421
2026-01-05 01:08:53.08	216.44	28.21	-52.7	-54.7	14.5	0.00e+00	0	28	0	1068498944	72	4303
2026-01-05 01:08:54.08	216.41	28.03	-52.8	-54.8	14.5	0.00e+00	0	28	0	1069547520	72	4341
2026-01-05 01:08:55.08	216.38	27.85	-53.0	-55.1	14.3	0.00e+00	0	28	0	1071644672	72	4499
2026-01-05 01:08:56.08	216.35	27.67	-53.2	-55.3	14.2	0.00e+00	0	28	0	1073741824	72	4636
2026-01-05 01:08:57.08	216.32	27.50	-53.2	-55.3	14.2	0.00e+00	0	28	0	1075838976	72	4647
2026-01-05 01:08:58.07	216.29	27.33	-53.4	-55.5	14.1	0.00e+00	0	28	0	1077936128	72	4733
2026-01-05 01:08:59.08	216.26	27.15	-53.5	-55.6	14.1	0.00e+00	0	28	0	1078984704	72	4813
2026-01-05 01:09:00.08	216.23	26.98	-53.1	-55.2	14.3	0.00e+00	0	28	0	1081081856	72	4557
2026-01-05 01:09:01.07	216.20	26.81	-52.9	-54.9	14.4	0.00e+00	0	28	0	1083179008	72	4422
2026-01-05 01:09:02.07	216.17	26.64	-52.8	-54.7	14.5	0.00e+00	0	28	0	1085276160	72	4339
2026-01-05 01:09:03.08	216.14	26.47	-52.6	-54.6	14.4	0.00e+00	0	28	0	1086324736	71	4505
2026-01-05 01:09:04.08	216.11	26.31	-52.4	-54.3	14.5	0.00e+00	0	28	0	1088421888	71	4349
2026-01-05 01:09:05.07	216.08	26.14	-52.5	-54.5	14.5	0.00e+00	0	28	0	1090519040	71	4466
2026-01-05 01:09:06.07	216.06	25.98	-52.4	-54.3	14.6	0.00e+00	0	28	0	1092616192	71	4349
2026-01-05 01:09:07.07	216.03	25.81	-52.3	-54.2	14.6	0.00e+00	0	28	0	1094713344	71	4293
2026-01-05 01:09:08.07	216.00	25.65	-52.2	-54.1	14.5	0.00e+00	0	28	0	1095761920	70	4502
2026-01-05 01:09:09.07	215.98	25.49	-52.4	-54.3	14.4	0.00e+00	0	28	0	1097859072	70	4604
2026-01-05 01:09:10.07	215.95	25.33	-52.4	-54.3	14.4	0.00e+00	0	28	0	1099956224	70	4609
2026-01-05 01:09:11.08	215.92	25.16	-52.5	-54.5	14.4	0.00e+00	0	28	0	1102053376	70	4717
2026-01-05 01:09:12.08	215.90	25.00	-52.5	-54.4	14.4	0.00e+00	0	28	0	1104150528	70	4703
2026-01-05 01:09:13.08	215.87	24.85	-52.5	-54.4	14.4	0.00e+00	0	28	0	1105199104	70	4689
2026-01-05 01:09:14.08	215.85	24.69	-52.6	-54.6	14.3	0.00e+00	0	28	0	1107296256	70	4790
2026-01-05 01:09:15.09	215.82	24.53	-52.7	-54.8	14.2	0.00e+00	0	28	0	1109393408	70	4874
2026-01-05 01:09:16.09	215.80	24.37	-52.7	-54.8	14.2	0.00e+00	0	28	0	1111490560	70	4877
2026-01-05 01:09:17.10	215.77	24.22	-52.9	-55.0	14.2	0.00e+00	0	28	0	1113587712	71	4747
2026-01-05 01:09:18.10	215.75	24.06	-53.1	-55.0	14.3	0.00e+00	0	28	0	1114636288	71	4742
2026-01-05 01:09:19.10	215.73	23.91	-53.3	-55.2	14.3	0.00e+00	0	28	0	1116733440	72	4569
2026-01-05 01:09:20.09	215.70	23.76	-53.8	-55.9	14.0	0.00e+00	0	28	0	1118830592	72	4970
2026-01-05 01:09:21.09	215.68	23.61	-53.9	-56.0	14.0	0.00e+00	0	28	0	1120927744	73	4737
2026-01-05 01:09:22.09	215.66	23.46	-54.2	-56.4	13.8	0.00e+00	0	28	0	1121976320	73	4958
2026-01-05 01:09:23.09	215.63	23.31	-54.4	-56.6	13.8	0.00e+00	0	28	0	1124073472	74	4811
2026-01-05 01:09:24.08	215.61	23.16	-54.2	-56.5	13.9	0.00e+00	0	28	0	1126170624	74	4727
2026-01-05 01:09:25.08	215.59	23.02	-54.4	-56.7	13.8	0.00e+00	0	28	0	1128267776	74	4818
2026-01-05 01:09:26.07	215.57	22.87	-54.1	-56.3	14.0	0.00e+00	0	28	0	1130364928	74	4623
2026-01-05 01:09:27.06	215.55	22.73	-54.1	-56.3	14.0	0.00e+00	0	28	0	1131413504	74	4600
2026-01-05 01:09:28.05	215.53	22.58	-54.0	-56.1	14.1	0.00e+00	0	28	0	1133510656	74	4506
2026-01-05 01:09:29.05	215.50	22.44	-53.9	-56.0	14.1	0.00e+00	0	28	0	1135607808	74	4466
2026-01-05 01:09:30.05	215.48	22.29	-53.4	-55.4	14.3	0.00e+00	0	28	0	1137704960	73	4396
2026-01-05 01:09:31.05	215.46	22.15	-52.9	-54.7	14.5	0.00e+00	0	28	0	1138753536	72	4293
2026-01-05 01:09:32.04	215.44	22.01	-52.8	-54.5	14.5	0.00e+00	0	28	0	1140850688	72	4233
2026-01-05 01:09:33.03	215.42	21.87	-52.6	-54.3	14.5	0.00e+00	0	28	0	1142947840	71	4385
2026-01-05 01:09:34.03	215.40	21.73	-52.4	-54.1	14.6	0.00e+00	0	28	0	1145044992	71	4263
2026-01-05 01:09:35.03	215.38	21.59	-52.6	-54.3	14.6	0.00e+00	0	28	0	1147142144	71	4372
2026-01-05 01:09:36.02	215.36	21.45	-52.2	-53.8	14.7	0.00e+00	0	28	0	1148190720	71	4132
2026-01-05 01:09:37.01	215.34	21.32	-52.3	-53.9	14.6	0.00e+00	0	28	0	1150287872	70	4429
2026-01-05 01:09:38.01	215.32	21.18	-52.5	-54.2	14.4	0.00e+00	0	28	0	1152385024	70	4593
2026-01-05 01:09:39.02	215.31	21.04	-52.4	-54.1	14.5	0.00e+00	0	28	0	1154482176	70	4527
2026-01-05 01:09:40.01	215.29	20.91	-52.6	-54.4	14.4	0.00e+00	0	28	0	1155530752	70	4677
2026-01-05 01:09:41.01	215.27	20.77	-52.6	-54.3	14.4	0.00e+00	0	28	0	1157627904	70	4635
2026-01-05 01:09:42.01	215.25	20.64	-52.5	-54.3	14.4	0.00e+00	0	28	0	1159725056	70	4607
2026-01-05 01:09:43.01	215.23	20.50	-52.5	-54.3	14.4	0.00e+00	0	28	0	1161822208	70	4613
2026-01-05 01:09:44.01	215.21	20.37	-52.7	-54.5	14.4	0.00e+00	0	28	0	1163919360	70	4745
2026-01-05 01:09:45.02	215.19	20.23	-52.5	-54.3	14.4	0.00e+00	0	28	0	1164967936	70	4602
2026-01-05 01:09:46.02	215.18	20.10	-52.6	-54.3	14.4	0.00e+00	0	28	0	1167065088	70	4626
2026-01-05 01:09:47.02	215.16	19.97	-52.5	-54.3	14.5	0.00e+00	0	28	0	1169162240	70	4600
2026-01-05 01:09:48.02	215.14	19.84	-52.1	-53.7	14.6	0.00e+00	0	28	0	1171259392	70	4326
2026-01-05 01:09:49.02	215.12	19.71	-52.1	-53.8	14.6	0.00e+00	0	28	0	1173356544	70	4364
2026-01-05 01:09:50.02	215.11	19.58	-52.2	-53.9	14.6	0.00e+00	0	28	0	1174405120	70	4402
2026-01-05 01:09:51.02	215.09	19.45	-52.0	-53.7	14.7	0.00e+00	0	28	0	1176502272	70	4296
2026-01-05 01:09:52.02	215.07	19.33	-52.3	-53.9	14.6	0.00e+00	0	28	0	1178599424	70	4434
2026-01-05 01:09:53.02	215.06	19.20	-52.1	-53.8	14.6	0.00e+00	0	28	0	1180696576	70	4353
2026-01-05 01:09:54.02	215.04	19.07	-52.1	-53.7	14.7	0.00e+00	0	28	0	1182793728	70	4316
2026-01-05 01:09:55.02	215.02	18.95	-52.3	-54.0	14.6	0.00e+00	0	28	0	1183842304	70	4449
2026-01-05 01:09:56.02	215.01	18.82	-52.4	-54.1	14.5	0.00e+00	0	28	0	1185939456	70	4507
2026-01-05 01:09:57.02	214.99	18.70	-52.6	-54.4	14.4	0.00e+00	0	28	0	1188036608	70	4655
2026-01-05 01:09:58.01	214.98	18.58	-53.0	-54.8	14.3	0.00e+00	0	28	0	1190133760	71	4632
2026-01-05 01:09:59.01	214.96	18.45	-53.1	-55.1	14.2	0.00e+00	0	28	0	1191182336	71	4766
2026-01-05 01:10:00.01	214.95	18.33	-53.5	-55.5	14.1	0.00e+00	0	28	0	1193279488	72	4749
2026-01-05 01:10:01.01	214.93	18.21	-53.5	-55.6	14.1	0.00e+00	0	28	0	1195376640	72	4766
2026-01-05 01:10:02.00	214.92	18.09	-53.7	-55.8	14.0	0.00e+00	0	28	0	1197473792	72	4876
2026-01-05 01:10:03.00	214.90	17.97	-54.3	-56.6	13.7	0.00e+00	0	28	0	1199570944	73	5061
2026-01-05 01:10:04.00	214.89	17.85	-54.5	-56.8	13.6	0.00e+00	0	28	0	1200619520	74	4918
2026-01-05 01:10:04.99	214.87	17.73	-54.4	-56.8	13.7	0.00e+00	0	28	0	1202716672	74	4886
2026-01-05 01:10:05.99	214.86	17.61	-54.7	-57.2	13.5	0.00e+00	0	28	0	1204813824	74	5114
2026-01-05 01:10:06.99	214.84	17.49	-55.0	-57.7	13.3	0.00e+00	0	28	0	1206910976	75	5110
2026-01-05 01:10:07.99	214.83	17.37	-54.8	-57.3	13.5	0.00e+00	0	28	0	1209008128	75	4918
2026-01-05 01:10:08.98	214.81	17.26	-55.0	-57.7	13.3	0.00e+00	0	28	0	1210056704	75	5129
2026-01-05 01:10:09.98	214.80	17.14	-55.0	-57.7	13.3	0.00e+00	0	28	0	1212153856	75	5116
2026-01-05 01:10:10.98	214.79	17.02	-54.9	-57.4	13.4	0.00e+00	0	28	0	1214251008	75	4964
2026-01-05 01:10:11.97	214.77	16.91	-54.9	-57.5	13.4	0.00e+00	0	28	0	1216348160	75	5010
2026-01-05 01:10:12.97	214.76	16.79	-54.9	-57.4	13.4	0.00e+00	0	28	0	1217396736	75	4968
2026-01-05 01:10:13.97	214.75	16.68	-54.9	-57.4	13.4	0.00e+00	0	28	0	1219493888	75	4977
2026-01-05 01:10:14.97	214.73	16.56	-54.9	-57.5	13.3	0.00e+00	0	28	0	1221591040	75	5038
