passes_logs/2026/01/02/R3.2S_Murmansk/R3.2S_Murmansk__20260102_203326_TY-42_rec.log

#Pass ID: 20260102_203326_TY-42
#Satellite: TY-42
#Configuration: TY-42_900M
#almurnet v.1.7.20251203
#Start time: 2026-01-02 20:33:25

#Version: 2.2.20231116
#Station: R3.2S_Murmansk
#Location: 33.079688 lon 68.888172 lat
#TLE: 1 64048U 25103A   26002.65606482  .00008006  00000-0  38191-3 0 09999
#TLE: 2 64048 097.4112 078.3067 0001725 093.9416 300.3943 15.19152735 34947

#Time	Az	El	Level	Level2	SNR	BER	BlckErr	Temp	State	Recorded	gain1	gain2
2026-01-02 20:33:25.56	206.96	1.86	-59.8	-62.6	6.2	0.00e+00	0	36	0	0	86	19728
2026-01-02 20:33:26.56	207.04	1.93	-59.8	-62.6	6.2	0.00e+00	0	36	104	0	86	19833
2026-01-02 20:33:27.56	207.13	1.99	-59.8	-62.6	6.2	0.00e+00	0	36	104	0	86	19825
2026-01-02 20:33:28.55	207.22	2.05	-59.8	-62.6	6.2	0.00e+00	0	36	104	0	86	19842
2026-01-02 20:33:29.55	207.31	2.11	-59.8	-62.6	6.2	0.00e+00	0	36	104	0	86	19794
2026-01-02 20:33:30.55	207.39	2.17	-59.8	-62.6	6.2	0.00e+00	0	36	104	0	86	19864
2026-01-02 20:33:31.55	207.48	2.23	-59.8	-62.6	6.2	0.00e+00	0	36	104	0	86	19752
2026-01-02 20:33:32.56	207.57	2.30	-59.8	-62.6	6.2	0.00e+00	0	36	104	0	86	19799
2026-01-02 20:33:33.56	207.66	2.36	-59.8	-62.6	6.2	0.00e+00	0	36	104	0	86	19843
2026-01-02 20:33:34.56	207.75	2.42	-59.8	-62.6	6.2	0.00e+00	0	36	104	0	86	19858
2026-01-02 20:33:35.55	207.84	2.48	-59.8	-62.6	6.2	0.00e+00	0	36	104	0	86	19883
2026-01-02 20:33:36.56	207.94	2.55	-59.8	-62.6	6.2	0.00e+00	0	36	104	0	86	19857
2026-01-02 20:33:37.55	208.03	2.61	-59.8	-62.6	6.2	0.00e+00	0	36	104	0	86	19811
2026-01-02 20:33:38.56	208.12	2.67	-59.8	-62.6	6.2	0.00e+00	0	36	104	0	86	19853
2026-01-02 20:33:39.55	208.21	2.73	-59.8	-62.6	6.2	0.00e+00	0	36	104	0	86	19850
2026-01-02 20:33:40.55	208.31	2.80	-59.8	-62.6	6.2	0.00e+00	0	37	104	0	86	19886
2026-01-02 20:33:41.56	208.40	2.86	-59.8	-62.6	6.2	0.00e+00	0	36	104	0	86	19811
2026-01-02 20:33:42.55	208.49	2.92	-59.8	-62.6	6.2	0.00e+00	0	37	104	0	86	19891
2026-01-02 20:33:43.55	208.59	2.99	-59.8	-62.6	6.2	0.00e+00	0	37	104	0	86	19884
2026-01-02 20:33:44.55	208.69	3.05	-59.8	-62.6	6.2	0.00e+00	0	37	104	0	86	19921
2026-01-02 20:33:45.55	208.78	3.11	-59.8	-62.6	6.2	0.00e+00	0	37	104	0	86	19897
2026-01-02 20:33:46.55	208.88	3.18	-59.8	-62.7	6.2	0.00e+00	0	37	104	0	86	19950
2026-01-02 20:33:47.56	208.98	3.24	-59.8	-62.6	6.2	0.00e+00	0	37	104	0	86	19801
2026-01-02 20:33:48.56	209.07	3.31	-59.8	-62.6	6.2	0.00e+00	0	37	104	0	86	19914
2026-01-02 20:33:49.55	209.17	3.37	-59.8	-62.6	6.2	0.00e+00	0	37	104	0	86	19911
2026-01-02 20:33:50.55	209.27	3.44	-59.8	-62.6	6.2	0.00e+00	0	37	104	0	86	19887
2026-01-02 20:33:51.55	209.37	3.50	-59.8	-62.6	6.2	0.00e+00	0	37	104	0	86	19899
2026-01-02 20:33:52.55	209.47	3.57	-59.9	-62.7	6.2	0.00e+00	0	37	104	0	86	19951
2026-01-02 20:33:53.55	209.57	3.63	-59.9	-62.6	6.2	0.00e+00	0	37	104	0	86	19911
2026-01-02 20:33:54.56	209.67	3.70	-59.9	-62.6	6.2	0.00e+00	0	37	104	0	86	19922
2026-01-02 20:33:55.56	209.77	3.76	-59.9	-62.6	6.2	0.00e+00	0	37	104	0	86	19924
2026-01-02 20:33:56.56	209.87	3.83	-59.9	-62.6	6.2	0.00e+00	0	37	104	0	86	19896
2026-01-02 20:33:57.56	209.97	3.89	-59.9	-62.7	6.2	0.00e+00	0	38	104	0	86	19985
2026-01-02 20:33:58.56	210.08	3.96	-59.9	-62.7	6.2	0.00e+00	0	38	104	0	86	19948
2026-01-02 20:33:59.57	210.18	4.02	-59.9	-62.7	6.2	0.00e+00	0	37	104	0	86	19971
2026-01-02 20:34:00.56	210.28	4.09	-59.9	-62.7	6.2	0.00e+00	0	37	104	0	86	19982
2026-01-02 20:34:01.56	210.39	4.16	-59.9	-62.7	6.2	0.00e+00	0	37	104	0	86	19939
2026-01-02 20:34:02.55	210.49	4.22	-59.9	-62.7	6.2	0.00e+00	0	38	104	0	86	19983
2026-01-02 20:34:03.56	210.60	4.29	-59.9	-62.6	6.2	0.00e+00	0	38	104	0	86	19908
2026-01-02 20:34:04.55	210.70	4.35	-59.9	-62.7	6.2	0.00e+00	0	37	104	0	86	19986
2026-01-02 20:34:05.55	210.81	4.42	-59.9	-62.7	6.2	0.00e+00	0	37	104	0	86	19983
2026-01-02 20:34:06.55	210.92	4.49	-59.9	-62.6	6.2	0.00e+00	0	38	104	0	86	19898
2026-01-02 20:34:07.55	211.03	4.56	-59.9	-62.6	6.2	0.00e+00	0	38	104	0	86	19932
2026-01-02 20:34:08.55	211.13	4.62	-59.9	-62.7	6.2	0.00e+00	0	38	104	0	86	20003
2026-01-02 20:34:09.54	211.24	4.69	-59.9	-62.6	6.2	0.00e+00	0	38	104	0	86	19933
2026-01-02 20:34:10.54	211.35	4.76	-59.9	-62.7	6.2	0.00e+00	0	38	104	0	86	19969
2026-01-02 20:34:11.54	211.46	4.82	-59.9	-62.7	6.2	0.00e+00	0	38	104	0	86	20029
2026-01-02 20:34:12.54	211.57	4.89	-59.9	-62.7	6.2	0.00e+00	0	38	104	0	86	20001
2026-01-02 20:34:13.55	211.69	4.96	-59.9	-62.7	6.2	0.00e+00	0	38	104	0	86	19997
2026-01-02 20:34:14.55	211.80	5.03	-59.9	-62.6	6.2	0.00e+00	0	38	104	0	86	19919
2026-01-02 20:34:15.55	211.91	5.10	-59.9	-62.7	6.2	0.00e+00	0	38	104	0	86	20025
2026-01-02 20:34:16.54	212.02	5.16	-60.0	-62.7	6.2	0.00e+00	0	38	104	0	86	20154
2026-01-02 20:34:17.54	212.14	5.23	-59.9	-62.7	6.2	0.00e+00	0	38	104	0	86	20120
2026-01-02 20:34:18.54	212.25	5.30	-59.9	-62.7	6.2	0.00e+00	0	38	104	0	86	19993
2026-01-02 20:34:19.54	212.37	5.37	-52.8	-53.1	8.8	0.00e+00	0	38	104	0	73	13966
2026-01-02 20:34:20.54	212.48	5.44	-47.2	-47.1	11.9	4.11e-02	0	39	0	75497472	61	14110
2026-01-02 20:34:21.54	212.60	5.51	-47.2	-47.1	11.9	4.11e-02	0	39	0	184549376	61	14111
2026-01-02 20:34:22.53	212.72	5.58	-46.4	-46.3	12.3	5.96e-02	0	39	0	301989888	60	13509
2026-01-02 20:34:23.53	212.84	5.65	-46.2	-46.0	12.4	5.96e-02	0	39	0	411041792	59	13936
2026-01-02 20:34:24.53	212.95	5.72	-45.6	-45.5	12.6	5.96e-02	0	39	0	520093696	58	13850
2026-01-02 20:34:25.53	213.07	5.79	-45.1	-45.0	12.8	3.37e-02	0	39	0	637534208	57	13816
2026-01-02 20:34:26.52	213.19	5.86	-44.9	-44.8	12.8	3.37e-02	0	39	0	746586112	57	13549
2026-01-02 20:34:27.50	213.31	5.93	-44.9	-44.8	12.8	3.37e-02	0	39	0	855638016	56	14287
2026-01-02 20:34:28.50	213.43	6.00	-45.0	-44.8	12.8	3.37e-02	0	40	0	964689920	56	14432
2026-01-02 20:34:29.50	213.56	6.07	-44.8	-44.6	12.9	1.67e-02	0	39	0	1082130432	56	14057
2026-01-02 20:34:30.49	213.68	6.14	-44.9	-44.8	12.9	1.67e-02	0	40	0	1191182336	56	14294
2026-01-02 20:34:31.48	213.80	6.21	-44.7	-44.6	12.9	1.67e-02	0	40	0	1308622848	56	13979
2026-01-02 20:34:32.48	213.92	6.28	-44.6	-44.4	13.0	1.53e-02	0	40	0	1417674752	56	13786
2026-01-02 20:34:33.47	214.05	6.35	-44.6	-44.4	13.0	1.53e-02	0	40	0	1526726656	56	13684
2026-01-02 20:34:34.47	214.17	6.42	-44.6	-44.5	13.0	1.53e-02	0	40	0	1644167168	56	13809
2026-01-02 20:34:35.48	214.30	6.49	-44.5	-44.3	13.0	1.34e-02	0	40	0	1753219072	56	13592
2026-01-02 20:34:36.48	214.43	6.56	-44.5	-44.4	13.0	1.34e-02	0	40	0	1870659584	56	13637
2026-01-02 20:34:37.49	214.56	6.64	-44.5	-44.3	13.0	1.34e-02	0	40	0	1979711488	56	13589
2026-01-02 20:34:38.48	214.69	6.71	-44.4	-44.3	13.0	1.34e-02	0	40	0	2088763392	56	13480
2026-01-02 20:34:39.48	214.82	6.78	-44.3	-44.2	13.0	1.11e-02	0	40	0	2206203904	55	14118
2026-01-02 20:34:40.48	214.95	6.85	-44.3	-44.2	13.0	1.11e-02	0	40	0	2315255808	55	14175
2026-01-02 20:34:41.47	215.08	6.92	-44.3	-44.1	13.1	1.11e-02	0	40	0	2432696320	55	14054
2026-01-02 20:34:42.48	215.21	7.00	-44.3	-44.1	13.1	1.11e-02	0	40	0	2541748224	55	14049
2026-01-02 20:34:43.47	215.34	7.07	-44.3	-44.1	13.1	9.72e-03	0	40	0	2659188736	55	14040
2026-01-02 20:34:44.47	215.48	7.14	-44.2	-44.1	13.1	9.72e-03	0	40	0	2768240640	55	13961
2026-01-02 20:34:45.45	215.61	7.21	-44.3	-44.2	13.1	8.00e-03	0	40	0	2877292544	55	14124
2026-01-02 20:34:46.44	215.74	7.29	-44.3	-44.1	13.1	8.00e-03	0	40	0	2986344448	55	13998
2026-01-02 20:34:47.44	215.88	7.36	-44.3	-44.1	13.1	8.00e-03	0	41	0	3103784960	55	14017
2026-01-02 20:34:48.44	216.02	7.43	-44.3	-44.1	13.1	7.64e-03	0	41	0	3212836864	55	14109
2026-01-02 20:34:49.43	216.15	7.51	-44.4	-44.2	13.1	7.64e-03	0	41	0	3321888768	55	14221
2026-01-02 20:34:50.42	216.29	7.58	-44.3	-44.2	13.1	7.64e-03	0	41	0	3439329280	55	14144
2026-01-02 20:34:51.42	216.43	7.65	-44.2	-44.0	13.2	7.22e-03	0	41	0	3548381184	55	13876
2026-01-02 20:34:52.41	216.57	7.73	-44.2	-44.0	13.2	7.22e-03	0	41	0	3665821696	55	13938
2026-01-02 20:34:53.41	216.71	7.80	-44.3	-44.2	13.1	7.22e-03	0	41	0	3774873600	55	14155
2026-01-02 20:34:54.42	216.85	7.88	-44.1	-44.0	13.2	5.92e-03	0	41	0	3883925504	55	13807
2026-01-02 20:34:55.41	216.99	7.95	-44.3	-44.1	13.2	5.92e-03	0	41	0	4001366016	55	14010
2026-01-02 20:34:56.40	217.14	8.02	-44.1	-44.0	13.2	5.88e-03	0	41	0	4110417920	55	13797
2026-01-02 20:34:57.40	217.28	8.10	-44.2	-44.0	13.2	5.88e-03	0	41	0	4219469824	55	13839
2026-01-02 20:34:58.40	217.43	8.17	-44.2	-44.0	13.2	5.32e-03	0	41	0	4328521728	55	13853
2026-01-02 20:34:59.40	217.57	8.25	-44.1	-43.9	13.2	5.32e-03	0	41	0	4445962240	55	13669
2026-01-02 20:35:00.40	217.72	8.32	-44.0	-43.8	13.3	5.32e-03	0	41	0	4555014144	55	13533
2026-01-02 20:35:01.39	217.87	8.40	-44.0	-43.8	13.3	5.08e-03	0	41	0	4672454656	55	13564
2026-01-02 20:35:02.40	218.02	8.48	-44.0	-43.8	13.3	5.08e-03	0	41	0	4781506560	55	13610
2026-01-02 20:35:03.39	218.17	8.55	-43.9	-43.7	13.3	5.08e-03	0	41	0	4890558464	55	13421
2026-01-02 20:35:04.37	218.31	8.63	-43.8	-43.6	13.3	4.63e-03	0	41	0	5007998976	54	14088
2026-01-02 20:35:05.36	218.46	8.70	-43.7	-43.5	13.4	4.63e-03	0	41	0	5117050880	54	13915
2026-01-02 20:35:06.35	218.62	8.78	-43.7	-43.5	13.4	4.63e-03	0	41	0	5226102784	54	13849
2026-01-02 20:35:07.35	218.77	8.85	-43.8	-43.6	13.4	4.63e-03	0	41	0	5335154688	54	14013
2026-01-02 20:35:08.34	218.92	8.93	-43.8	-43.6	13.4	3.94e-03	0	41	0	5452595200	54	14034
2026-01-02 20:35:09.34	219.08	9.01	-43.8	-43.7	13.3	3.94e-03	0	41	0	5561647104	54	14166
2026-01-02 20:35:10.34	219.24	9.08	-43.6	-43.5	13.4	3.94e-03	0	41	0	5679087616	54	13794
2026-01-02 20:35:11.33	219.39	9.16	-43.7	-43.5	13.4	3.57e-03	0	41	0	5788139520	54	13900
2026-01-02 20:35:12.33	219.55	9.24	-43.5	-43.3	13.5	3.57e-03	0	41	0	5897191424	54	13595
2026-01-02 20:35:13.33	219.71	9.32	-43.5	-43.3	13.5	2.68e-03	0	41	0	6014631936	54	13579
2026-01-02 20:35:14.32	219.87	9.39	-43.4	-43.2	13.5	2.68e-03	0	41	0	6123683840	54	13475
2026-01-02 20:35:15.32	220.03	9.47	-43.3	-43.2	13.5	2.68e-03	0	41	0	6241124352	53	14118
2026-01-02 20:35:16.32	220.19	9.55	-43.1	-43.0	13.6	2.25e-03	0	41	0	6350176256	53	13801
2026-01-02 20:35:17.32	220.36	9.63	-43.1	-42.9	13.6	2.25e-03	0	41	0	6467616768	53	13777
2026-01-02 20:35:18.32	220.52	9.71	-43.1	-42.9	13.6	2.04e-03	0	42	0	6576668672	53	13695
2026-01-02 20:35:19.32	220.69	9.78	-43.1	-42.9	13.6	2.04e-03	0	42	0	6685720576	53	13678
2026-01-02 20:35:20.31	220.85	9.86	-43.1	-42.9	13.6	2.04e-03	0	42	0	6803161088	53	13730
2026-01-02 20:35:21.31	221.02	9.94	-42.9	-42.8	13.7	1.75e-03	0	42	0	6912212992	53	13500
2026-01-02 20:35:22.30	221.19	10.02	-42.9	-42.7	13.6	1.75e-03	0	42	0	7021264896	52	14162
2026-01-02 20:35:23.30	221.36	10.10	-42.9	-42.7	13.7	1.75e-03	0	42	0	7130316800	52	14211
2026-01-02 20:35:24.29	221.53	10.18	-42.9	-42.7	13.6	1.75e-03	0	42	0	7247757312	52	14233
2026-01-02 20:35:25.29	221.70	10.26	-42.8	-42.6	13.7	1.56e-03	0	42	0	7356809216	52	14027
2026-01-02 20:35:26.28	221.87	10.33	-42.7	-42.6	13.7	1.56e-03	0	42	0	7474249728	52	13984
2026-01-02 20:35:27.29	222.05	10.41	-42.8	-42.6	13.7	1.53e-03	0	42	0	7583301632	52	14004
2026-01-02 20:35:28.28	222.22	10.49	-42.7	-42.6	13.7	1.53e-03	0	42	0	7692353536	52	13985
2026-01-02 20:35:29.27	222.40	10.57	-42.7	-42.5	13.7	1.53e-03	0	42	0	7809794048	52	13832
2026-01-02 20:35:30.27	222.58	10.65	-42.8	-42.6	13.7	1.50e-03	0	42	0	7918845952	52	14018
2026-01-02 20:35:31.26	222.75	10.73	-42.6	-42.4	13.8	1.50e-03	0	42	0	8036286464	52	13722
2026-01-02 20:35:32.26	222.93	10.81	-42.5	-42.3	13.8	1.50e-03	0	42	0	8145338368	52	13581
2026-01-02 20:35:33.26	223.12	10.89	-42.5	-42.3	13.8	1.25e-03	0	42	0	8254390272	52	13580
2026-01-02 20:35:34.25	223.30	10.97	-42.5	-42.3	13.8	1.25e-03	0	42	0	8363442176	52	13568
2026-01-02 20:35:35.25	223.48	11.05	-42.5	-42.3	13.8	1.25e-03	0	42	0	8480882688	52	13583
2026-01-02 20:35:36.24	223.66	11.13	-42.4	-42.2	13.8	9.11e-04	0	42	0	8589934592	52	13409
2026-01-02 20:35:37.23	223.85	11.21	-42.4	-42.2	13.9	9.11e-04	0	42	0	8698986496	51	14211
2026-01-02 20:35:38.23	224.04	11.29	-42.4	-42.2	13.8	8.20e-04	0	42	0	8816427008	51	14251
2026-01-02 20:35:39.23	224.22	11.38	-42.3	-42.1	13.9	8.20e-04	0	42	0	8925478912	51	14053
2026-01-02 20:35:40.23	224.41	11.46	-42.3	-42.1	13.9	8.20e-04	0	42	0	9042919424	51	14028
2026-01-02 20:35:41.22	224.60	11.54	-42.2	-42.0	13.9	7.15e-04	0	42	0	9151971328	51	13859
2026-01-02 20:35:42.21	224.79	11.62	-42.1	-41.9	13.9	7.15e-04	0	42	0	9261023232	51	13790
2026-01-02 20:35:43.21	224.99	11.70	-42.1	-41.9	14.0	7.15e-04	0	42	0	9378463744	51	13657
2026-01-02 20:35:44.21	225.18	11.78	-42.0	-41.9	14.0	5.29e-04	0	42	0	9487515648	51	13641
2026-01-02 20:35:45.21	225.38	11.86	-42.0	-41.8	14.0	5.29e-04	0	42	0	9604956160	51	13608
2026-01-02 20:35:46.20	225.57	11.94	-42.0	-41.8	14.0	5.29e-04	0	42	0	9705619456	51	13511
2026-01-02 20:35:47.19	225.77	12.02	-42.1	-41.9	14.0	4.39e-04	0	42	0	9823059968	51	13656
2026-01-02 20:35:48.19	225.97	12.11	-41.9	-41.7	14.0	4.39e-04	0	42	0	9932111872	51	13443
2026-01-02 20:35:49.18	226.17	12.19	-41.9	-41.7	14.0	3.67e-04	0	42	0	10049552384	50	14148
2026-01-02 20:35:50.17	226.37	12.27	-41.9	-41.7	14.0	3.67e-04	0	42	0	10158604288	50	14186
2026-01-02 20:35:51.16	226.57	12.35	-41.9	-41.7	14.0	3.67e-04	0	42	0	10267656192	50	14153
2026-01-02 20:35:52.16	226.78	12.43	-41.9	-41.7	14.0	2.62e-04	0	42	0	10385096704	50	14208
2026-01-02 20:35:53.15	226.98	12.51	-41.8	-41.6	14.0	2.62e-04	0	42	0	10494148608	50	13967
2026-01-02 20:35:54.14	227.19	12.60	-41.8	-41.6	14.0	3.86e-04	0	42	0	10603200512	50	14034
2026-01-02 20:35:55.13	227.40	12.68	-41.8	-41.6	14.0	3.86e-04	0	42	0	10712252416	50	14069
2026-01-02 20:35:56.13	227.61	12.76	-41.7	-41.5	14.0	3.86e-04	0	42	0	10829692928	50	13875
2026-01-02 20:35:57.12	227.82	12.84	-41.7	-41.5	14.0	2.76e-04	0	42	0	10938744832	50	13813
2026-01-02 20:35:58.11	228.03	12.92	-41.6	-41.4	14.1	2.76e-04	0	42	0	11056185344	50	13685
2026-01-02 20:35:59.11	228.24	13.01	-41.7	-41.5	14.1	2.76e-04	0	42	0	11165237248	50	13826
2026-01-02 20:36:00.11	228.46	13.09	-41.7	-41.5	14.1	2.29e-04	0	42	0	11282677760	50	13931
2026-01-02 20:36:01.11	228.68	13.17	-41.6	-41.4	14.1	2.29e-04	0	42	0	11391729664	50	13713
2026-01-02 20:36:02.11	228.90	13.26	-41.4	-41.2	14.1	2.29e-04	0	42	0	11500781568	50	13469
2026-01-02 20:36:03.11	229.12	13.34	-41.5	-41.3	14.1	2.29e-04	0	42	0	11618222080	50	13506
2026-01-02 20:36:04.10	229.34	13.42	-41.4	-41.2	14.1	2.96e-04	0	42	0	11718885376	50	13388
2026-01-02 20:36:05.10	229.56	13.50	-41.4	-41.2	14.2	2.96e-04	0	42	0	11836325888	50	13449
2026-01-02 20:36:06.10	229.78	13.59	-41.4	-41.2	14.2	2.29e-04	0	42	0	11945377792	50	13379
2026-01-02 20:36:07.09	230.01	13.67	-41.2	-41.0	14.2	2.29e-04	0	42	0	12062818304	49	13908
2026-01-02 20:36:08.09	230.24	13.75	-41.2	-41.0	14.2	2.29e-04	0	42	0	12171870208	49	13909
2026-01-02 20:36:09.08	230.46	13.83	-41.2	-41.1	14.2	2.10e-04	0	42	0	12289310720	49	13951
2026-01-02 20:36:10.07	230.69	13.92	-41.2	-41.0	14.2	2.10e-04	0	42	0	12398362624	49	13845
2026-01-02 20:36:11.07	230.92	14.00	-41.2	-41.0	14.2	1.86e-04	0	42	0	12507414528	49	13893
2026-01-02 20:36:12.07	231.16	14.08	-41.1	-41.0	14.2	1.86e-04	0	42	0	12624855040	49	13795
2026-01-02 20:36:13.07	231.39	14.16	-41.1	-40.9	14.2	1.86e-04	0	42	0	12733906944	49	13681
2026-01-02 20:36:14.07	231.63	14.25	-41.1	-40.9	14.2	2.00e-04	0	42	0	12851347456	49	13784
2026-01-02 20:36:15.06	231.87	14.33	-41.1	-40.9	14.2	2.00e-04	0	43	0	12960399360	49	13675
2026-01-02 20:36:16.07	232.11	14.41	-41.0	-40.8	14.3	2.00e-04	0	42	0	13069451264	49	13496
2026-01-02 20:36:17.06	232.35	14.49	-41.0	-40.8	14.2	1.62e-04	0	43	0	13186891776	49	13621
2026-01-02 20:36:18.06	232.59	14.58	-41.0	-40.9	14.2	1.62e-04	0	42	0	13295943680	49	13646
2026-01-02 20:36:19.05	232.83	14.66	-40.9	-40.7	14.2	1.62e-04	0	42	0	13404995584	49	13446
2026-01-02 20:36:20.04	233.08	14.74	-40.9	-40.7	14.2	1.52e-04	0	42	0	13514047488	49	13467
2026-01-02 20:36:21.03	233.32	14.82	-40.9	-40.7	14.2	1.52e-04	0	42	0	13631488000	49	13411
2026-01-02 20:36:22.03	233.57	14.90	-41.0	-40.8	14.2	1.48e-04	0	42	0	13740539904	49	13619
2026-01-02 20:36:23.02	233.82	14.99	-40.9	-40.7	14.2	1.48e-04	0	42	0	13857980416	49	13386
2026-01-02 20:36:24.01	234.07	15.07	-40.9	-40.7	14.2	1.52e-04	0	43	0	13967032320	48	14202
2026-01-02 20:36:25.01	234.32	15.15	-40.9	-40.7	14.2	1.52e-04	0	42	0	14076084224	48	14143
2026-01-02 20:36:26.00	234.57	15.23	-41.0	-40.8	14.2	1.52e-04	0	43	0	14185136128	48	14334
2026-01-02 20:36:27.00	234.83	15.31	-40.8	-40.6	14.2	1.52e-04	0	42	0	14302576640	48	14103
2026-01-02 20:36:27.99	235.09	15.39	-40.9	-40.7	14.2	1.29e-04	0	42	0	14411628544	48	14259
2026-01-02 20:36:28.98	235.35	15.47	-40.8	-40.6	14.2	1.29e-04	0	43	0	14520680448	48	14106
2026-01-02 20:36:29.98	235.61	15.56	-40.7	-40.5	14.2	1.29e-04	0	43	0	14638120960	48	13899
2026-01-02 20:36:30.98	235.87	15.64	-40.7	-40.5	14.2	9.05e-05	0	43	0	14747172864	48	13929
2026-01-02 20:36:31.98	236.14	15.72	-40.7	-40.5	14.3	9.05e-05	0	42	0	14864613376	48	13880
2026-01-02 20:36:32.98	236.40	15.80	-40.7	-40.5	14.3	1.19e-04	0	42	0	14973665280	48	13938
2026-01-02 20:36:33.97	236.67	15.88	-40.7	-40.5	14.3	1.19e-04	0	43	0	15082717184	48	13920
2026-01-02 20:36:34.97	236.94	15.96	-40.6	-40.4	14.3	1.19e-04	0	43	0	15200157696	48	13772
2026-01-02 20:36:35.97	237.21	16.04	-40.5	-40.4	14.3	1.19e-04	0	42	0	15309209600	48	13646
2026-01-02 20:36:36.97	237.49	16.12	-40.5	-40.3	14.3	1.19e-04	0	42	0	15426650112	48	13580
2026-01-02 20:36:37.96	237.76	16.20	-40.5	-40.3	14.3	1.19e-04	0	42	0	15535702016	48	13624
2026-01-02 20:36:38.96	238.03	16.28	-40.5	-40.3	14.3	7.15e-05	0	43	0	15653142528	48	13550
2026-01-02 20:36:39.96	238.31	16.36	-40.5	-40.3	14.3	7.15e-05	0	42	0	15762194432	48	13588
2026-01-02 20:36:40.97	238.60	16.44	-40.5	-40.3	14.3	7.62e-05	0	43	0	15871246336	48	13527
2026-01-02 20:36:41.96	238.88	16.52	-40.5	-40.2	14.3	7.62e-05	0	43	0	15988686848	48	13475
2026-01-02 20:36:42.96	239.16	16.60	-40.5	-40.3	14.3	7.62e-05	0	43	0	16097738752	48	13528
2026-01-02 20:36:43.96	239.44	16.67	-40.4	-40.2	14.3	1.14e-04	0	43	0	16215179264	48	13459
2026-01-02 20:36:44.96	239.73	16.75	-40.4	-40.2	14.3	1.14e-04	0	43	0	16324231168	48	13437
2026-01-02 20:36:45.95	240.02	16.83	-40.4	-40.2	14.3	9.53e-05	0	43	0	16433283072	48	13391
2026-01-02 20:36:46.94	240.30	16.91	-40.4	-40.2	14.3	9.53e-05	0	43	0	16542334976	48	13462
2026-01-02 20:36:47.93	240.59	16.98	-39.6	-39.4	14.2	9.53e-05	0	43	0	16659775488	46	13715
2026-01-02 20:36:48.93	240.89	17.06	-39.5	-39.3	14.2	9.53e-05	0	43	0	16768827392	46	13599
2026-01-02 20:36:49.93	241.18	17.14	-39.5	-39.3	14.2	1.67e-04	0	43	0	16877879296	46	13601
2026-01-02 20:36:50.93	241.48	17.21	-39.5	-39.3	14.2	1.67e-04	0	43	0	16995319808	46	13565
2026-01-02 20:36:51.92	241.78	17.29	-39.5	-39.3	14.2	1.67e-04	0	43	0	17104371712	46	13608
2026-01-02 20:36:52.91	242.07	17.36	-39.4	-39.2	14.2	1.72e-04	0	43	0	17221812224	46	13404
2026-01-02 20:36:53.91	242.38	17.44	-39.3	-39.2	14.2	1.72e-04	0	43	0	17330864128	45	14126
2026-01-02 20:36:54.90	242.68	17.51	-39.5	-39.3	14.2	1.72e-04	0	43	0	17439916032	45	14286
2026-01-02 20:36:55.90	242.98	17.59	-39.4	-39.2	14.2	1.72e-04	0	43	0	17548967936	45	14212
2026-01-02 20:36:56.89	243.29	17.66	-39.3	-39.1	14.2	2.14e-04	0	43	0	17666408448	45	14015
2026-01-02 20:36:57.88	243.59	17.73	-39.3	-39.1	14.3	2.14e-04	0	43	0	17775460352	45	14064
2026-01-02 20:36:58.87	243.90	17.80	-39.3	-39.1	14.2	1.67e-04	0	43	0	17884512256	45	14034
2026-01-02 20:36:59.86	244.21	17.88	-39.3	-39.1	14.2	1.67e-04	0	43	0	18001952768	45	14049
2026-01-02 20:37:00.85	244.52	17.95	-39.2	-39.0	14.2	1.67e-04	0	43	0	18111004672	45	13860
2026-01-02 20:37:01.84	244.83	18.02	-39.2	-39.0	14.3	1.67e-04	0	43	0	18220056576	45	13824
2026-01-02 20:37:02.83	245.15	18.09	-39.1	-38.9	14.3	1.10e-04	0	43	0	18329108480	45	13755
2026-01-02 20:37:03.83	245.47	18.16	-39.1	-38.9	14.3	1.10e-04	0	43	0	18446548992	45	13750
2026-01-02 20:37:04.82	245.78	18.23	-39.1	-38.9	14.3	1.14e-04	0	43	0	18555600896	45	13743
2026-01-02 20:37:05.82	246.11	18.30	-39.1	-38.9	14.3	1.14e-04	0	43	0	18673041408	45	13694
2026-01-02 20:37:06.81	246.43	18.37	-39.0	-38.8	14.3	7.62e-05	0	43	0	18782093312	45	13558
2026-01-02 20:37:07.80	246.75	18.44	-39.0	-38.8	14.3	7.62e-05	0	43	0	18891145216	45	13586
2026-01-02 20:37:08.80	247.08	18.50	-38.9	-38.7	14.4	7.62e-05	0	43	0	19000197120	45	13387
2026-01-02 20:37:09.80	247.41	18.57	-38.7	-38.5	14.3	7.62e-05	0	43	0	19117637632	44	13904
2026-01-02 20:37:10.79	247.73	18.64	-38.6	-38.4	14.4	3.81e-05	0	43	0	19226689536	44	13694
2026-01-02 20:37:11.80	248.07	18.70	-38.6	-38.4	14.4	3.81e-05	0	43	0	19335741440	44	13695
2026-01-02 20:37:12.80	248.40	18.77	-38.6	-38.4	14.4	3.81e-05	0	42	0	19453181952	44	13745
2026-01-02 20:37:13.79	248.74	18.83	-38.6	-38.4	14.4	3.81e-05	0	43	0	19562233856	44	13669
2026-01-02 20:37:14.79	249.07	18.90	-38.6	-38.4	14.4	5.72e-05	0	43	0	19679674368	44	13714
2026-01-02 20:37:15.78	249.41	18.96	-38.6	-38.4	14.4	5.72e-05	0	43	0	19788726272	44	13730
2026-01-02 20:37:16.78	249.75	19.02	-38.6	-38.4	14.4	3.81e-05	0	43	0	19897778176	44	13663
2026-01-02 20:37:17.77	250.09	19.08	-38.5	-38.3	14.4	3.81e-05	0	43	0	20015218688	44	13553
2026-01-02 20:37:18.76	250.43	19.14	-38.5	-38.3	14.4	3.81e-05	0	43	0	20124270592	44	13584
2026-01-02 20:37:19.75	250.77	19.20	-38.5	-38.3	14.4	7.15e-05	0	43	0	20233322496	44	13593
2026-01-02 20:37:20.74	251.11	19.26	-38.5	-38.3	14.4	7.15e-05	0	43	0	20342374400	44	13548
2026-01-02 20:37:21.74	251.46	19.32	-38.6	-38.3	14.4	7.15e-05	0	43	0	20459814912	44	13619
2026-01-02 20:37:22.74	251.81	19.38	-38.4	-38.2	14.4	2.86e-05	0	43	0	20568866816	44	13462
2026-01-02 20:37:23.73	252.16	19.44	-38.4	-38.2	14.4	2.86e-05	0	43	0	20686307328	44	13467
2026-01-02 20:37:24.72	252.50	19.49	-38.5	-38.2	14.4	2.86e-05	0	43	0	20795359232	44	13476
2026-01-02 20:37:25.72	252.86	19.55	-38.5	-38.3	14.4	5.24e-05	0	43	0	20904411136	44	13483
2026-01-02 20:37:26.72	253.21	19.61	-38.4	-38.2	14.4	5.24e-05	0	43	0	21021851648	44	13436
2026-01-02 20:37:27.70	253.56	19.66	-38.4	-38.2	14.4	5.24e-05	0	43	0	21130903552	44	13420
2026-01-02 20:37:28.70	253.92	19.71	-38.4	-38.2	14.5	6.19e-05	0	42	0	21248344064	44	13334
2026-01-02 20:37:29.70	254.28	19.77	-38.4	-38.2	14.4	6.19e-05	0	43	0	21349007360	43	14267
2026-01-02 20:37:30.70	254.64	19.82	-38.5	-38.3	14.4	2.38e-05	0	43	0	21466447872	43	14373
2026-01-02 20:37:31.70	255.00	19.87	-38.4	-38.3	14.4	2.38e-05	0	43	0	21575499776	43	14280
2026-01-02 20:37:32.70	255.37	19.92	-38.4	-38.2	14.4	2.38e-05	0	43	0	21692940288	43	14197
2026-01-02 20:37:33.69	255.73	19.97	-38.3	-38.1	14.4	3.33e-05	0	43	0	21801992192	43	14055
2026-01-02 20:37:34.68	256.09	20.01	-38.3	-38.1	14.4	3.33e-05	0	43	0	21919432704	43	14057
2026-01-02 20:37:35.68	256.46	20.06	-38.3	-38.1	14.4	3.33e-05	0	42	0	22028484608	43	14066
2026-01-02 20:37:36.68	256.83	20.11	-38.4	-38.2	14.4	3.33e-05	0	43	0	22137536512	43	14233
2026-01-02 20:37:37.67	257.19	20.15	-38.4	-38.2	14.4	4.29e-05	0	43	0	22254977024	43	14234
2026-01-02 20:37:38.66	257.56	20.20	-38.4	-38.2	14.4	4.29e-05	0	43	0	22364028928	43	14151
2026-01-02 20:37:39.67	257.93	20.24	-38.4	-38.1	14.4	4.76e-05	0	43	0	22481469440	43	14103
2026-01-02 20:37:40.66	258.30	20.28	-38.4	-38.1	14.4	4.76e-05	0	43	0	22590521344	43	14106
2026-01-02 20:37:41.66	258.68	20.32	-38.4	-38.2	14.4	4.76e-05	0	43	0	22699573248	43	14135
2026-01-02 20:37:42.65	259.05	20.36	-38.4	-38.2	14.4	2.38e-05	0	43	0	22817013760	43	14251
2026-01-02 20:37:43.65	259.43	20.40	-38.4	-38.2	14.4	2.38e-05	0	43	0	22926065664	43	14123
2026-01-02 20:37:44.65	259.80	20.44	-38.4	-38.2	14.4	2.38e-05	0	43	0	23035117568	43	14134
2026-01-02 20:37:45.65	260.18	20.48	-38.3	-38.1	14.4	2.38e-05	0	43	0	23144169472	43	14081
2026-01-02 20:37:46.64	260.56	20.51	-38.4	-38.2	14.4	2.38e-05	0	43	0	23261609984	43	14118
2026-01-02 20:37:47.64	260.94	20.55	-38.3	-38.1	14.4	2.38e-05	0	43	0	23370661888	43	14004
2026-01-02 20:37:48.65	261.32	20.58	-38.4	-38.2	14.4	4.76e-05	0	43	0	23479713792	43	14147
2026-01-02 20:37:49.64	261.70	20.62	-38.3	-38.1	14.4	4.76e-05	0	43	0	23597154304	43	14068
2026-01-02 20:37:50.63	262.08	20.65	-38.4	-38.2	14.4	4.76e-05	0	43	0	23706206208	43	14218
2026-01-02 20:37:51.62	262.46	20.68	-38.4	-38.2	14.4	6.19e-05	0	43	0	23823646720	43	14206
2026-01-02 20:37:52.62	262.85	20.71	-38.3	-38.1	14.4	6.19e-05	0	43	0	23932698624	43	14067
2026-01-02 20:37:53.62	263.23	20.74	-38.3	-38.0	14.3	6.19e-05	0	43	0	24050139136	43	13941
2026-01-02 20:37:54.62	263.62	20.76	-38.3	-38.1	14.4	1.43e-05	0	43	0	24159191040	43	14014
2026-01-02 20:37:55.62	264.01	20.79	-38.3	-38.1	14.4	1.43e-05	0	43	0	24268242944	43	14084
2026-01-02 20:37:56.61	264.39	20.81	-38.4	-38.1	14.4	1.43e-05	0	43	0	24385683456	43	14092
2026-01-02 20:37:57.60	264.78	20.84	-38.3	-38.1	14.4	1.43e-05	0	43	0	24494735360	43	14015
2026-01-02 20:37:58.60	265.17	20.86	-38.3	-38.1	14.4	1.43e-05	0	43	0	24603787264	43	14069
2026-01-02 20:37:59.60	265.56	20.88	-38.3	-38.1	14.3	6.19e-05	0	43	0	24712839168	43	14095
2026-01-02 20:38:00.59	265.94	20.90	-38.3	-38.1	14.4	6.19e-05	0	43	0	24830279680	43	14055
2026-01-02 20:38:01.59	266.33	20.92	-38.4	-38.2	14.3	9.05e-05	0	43	0	24939331584	43	14166
2026-01-02 20:38:02.58	266.72	20.94	-38.4	-38.2	14.3	9.05e-05	0	43	0	25056772096	43	14206
2026-01-02 20:38:03.59	267.12	20.96	-38.3	-38.0	14.3	9.05e-05	0	43	0	25165824000	43	13934
2026-01-02 20:38:04.59	267.51	20.97	-38.4	-38.2	14.3	1.38e-04	0	43	0	25283264512	43	14183
2026-01-02 20:38:05.59	267.90	20.99	-38.3	-38.1	14.4	1.38e-04	0	43	0	25392316416	43	13998
2026-01-02 20:38:06.59	268.30	21.00	-38.2	-38.0	14.4	1.38e-04	0	43	0	25501368320	43	13890
2026-01-02 20:38:07.59	268.69	21.01	-38.4	-38.2	14.3	1.24e-04	0	43	0	25618808832	43	14133
2026-01-02 20:38:08.58	269.08	21.02	-38.4	-38.2	14.3	1.24e-04	0	43	0	25727860736	43	14246
2026-01-02 20:38:09.58	269.47	21.03	-38.3	-38.1	14.4	1.14e-04	0	43	0	25845301248	43	14025
2026-01-02 20:38:10.58	269.87	21.04	-38.4	-38.2	14.3	1.14e-04	0	43	0	25954353152	43	14113
2026-01-02 20:38:11.58	270.26	21.05	-38.3	-38.1	14.3	1.14e-04	0	43	0	26063405056	43	14049
2026-01-02 20:38:12.58	270.66	21.05	-38.4	-38.1	14.3	1.43e-04	0	43	0	26180845568	43	14109
2026-01-02 20:38:13.58	271.05	21.06	-38.3	-38.1	14.3	1.43e-04	0	43	0	26289897472	43	14062
2026-01-02 20:38:14.58	271.45	21.06	-38.4	-38.2	14.3	1.43e-04	0	43	0	26407337984	43	14149
2026-01-02 20:38:15.56	271.83	21.06	-38.4	-38.2	14.3	9.53e-05	0	43	0	26516389888	43	14117
2026-01-02 20:38:16.56	272.23	21.06	-38.4	-38.2	14.3	9.53e-05	0	43	0	26625441792	43	14195
2026-01-02 20:38:17.55	272.62	21.06	-38.5	-38.3	14.3	9.53e-05	0	43	0	26742882304	43	14297
2026-01-02 20:38:18.56	273.02	21.06	-38.5	-38.3	14.3	1.19e-04	0	43	0	26851934208	43	14275
2026-01-02 20:38:19.55	273.41	21.06	-38.5	-38.3	14.3	1.19e-04	0	43	0	26960986112	43	14367
2026-01-02 20:38:20.55	273.81	21.05	-38.6	-38.4	14.3	1.19e-04	0	43	0	27070038016	43	14599
2026-01-02 20:38:21.54	274.20	21.05	-38.5	-38.3	14.3	1.19e-04	0	43	0	27187478528	43	14370
2026-01-02 20:38:22.54	274.59	21.04	-38.5	-38.3	14.3	1.19e-04	0	43	0	27296530432	43	14275
2026-01-02 20:38:23.55	274.99	21.03	-38.5	-38.3	14.3	1.43e-04	0	43	0	27413970944	43	14321
2026-01-02 20:38:24.55	275.38	21.02	-38.5	-38.3	14.3	1.43e-04	0	43	0	27523022848	43	14306
2026-01-02 20:38:25.54	275.77	21.01	-38.5	-38.4	14.4	1.43e-04	0	43	0	27632074752	43	14443
2026-01-02 20:38:26.54	276.17	21.00	-38.6	-38.4	14.3	1.52e-04	0	43	0	27749515264	43	14509
2026-01-02 20:38:27.53	276.56	20.99	-38.6	-38.3	14.3	1.52e-04	0	43	0	27858567168	43	14439
2026-01-02 20:38:28.53	276.95	20.97	-38.6	-38.3	14.3	1.52e-04	0	43	0	27976007680	43	14417
2026-01-02 20:38:29.52	277.34	20.96	-38.6	-38.4	14.3	1.43e-04	0	43	0	28085059584	43	14566
2026-01-02 20:38:30.52	277.73	20.94	-38.7	-38.5	14.3	1.43e-04	0	43	0	28202500096	43	14704
2026-01-02 20:38:31.51	278.12	20.92	-38.8	-38.6	14.2	1.43e-04	0	43	0	28311552000	43	14882
2026-01-02 20:38:32.51	278.51	20.91	-38.7	-38.5	14.2	1.67e-04	0	43	0	28420603904	43	14710
2026-01-02 20:38:33.52	278.90	20.89	-38.7	-38.5	14.2	1.67e-04	0	43	0	28538044416	43	14616
2026-01-02 20:38:34.51	279.29	20.86	-38.7	-38.5	14.2	1.67e-04	0	43	0	28647096320	43	14730
2026-01-02 20:38:35.51	279.68	20.84	-38.8	-38.6	14.2	2.00e-04	0	43	0	28764536832	43	14847
2026-01-02 20:38:36.51	280.06	20.82	-38.8	-38.6	14.2	2.00e-04	0	43	0	28873588736	43	14895
2026-01-02 20:38:37.51	280.45	20.79	-38.8	-38.6	14.2	3.58e-04	0	43	0	28982640640	43	14810
2026-01-02 20:38:38.51	280.84	20.77	-38.7	-38.5	14.2	3.58e-04	0	43	0	29100081152	43	14648
2026-01-02 20:38:39.50	281.22	20.74	-38.7	-38.5	14.2	3.58e-04	0	43	0	29209133056	43	14717
2026-01-02 20:38:40.50	281.61	20.71	-38.7	-38.5	14.2	1.62e-04	0	43	0	29326573568	43	14668
2026-01-02 20:38:41.50	281.99	20.68	-38.8	-38.6	14.2	1.62e-04	0	43	0	29427236864	43	14819
2026-01-02 20:38:42.50	282.37	20.65	-38.8	-38.6	14.2	1.62e-04	0	43	0	29544677376	43	14910
2026-01-02 20:38:43.50	282.76	20.62	-38.7	-38.5	14.3	1.38e-04	0	43	0	29653729280	43	14698
2026-01-02 20:38:44.50	283.14	20.59	-38.7	-38.5	14.3	1.38e-04	0	43	0	29771169792	43	14731
2026-01-02 20:38:45.50	283.52	20.56	-38.9	-38.7	14.2	7.15e-05	0	43	0	29880221696	43	14950
2026-01-02 20:38:46.50	283.90	20.52	-38.8	-38.6	14.3	7.15e-05	0	43	0	29989273600	43	14883
2026-01-02 20:38:47.50	284.28	20.48	-38.8	-38.6	14.2	7.15e-05	0	43	0	30106714112	43	14881
2026-01-02 20:38:48.49	284.65	20.45	-38.7	-38.5	14.3	1.00e-04	0	43	0	30215766016	43	14730
2026-01-02 20:38:49.49	285.03	20.41	-38.7	-38.5	14.3	1.00e-04	0	43	0	30333206528	43	14730
2026-01-02 20:38:50.49	285.41	20.37	-38.8	-38.6	14.3	1.00e-04	0	43	0	30442258432	43	14911
2026-01-02 20:38:51.50	285.78	20.33	-38.8	-38.6	14.3	1.05e-04	0	43	0	30551310336	43	14869
2026-01-02 20:38:52.49	286.15	20.29	-39.0	-38.8	14.3	1.05e-04	0	43	0	30668750848	43	15147
2026-01-02 20:38:53.49	286.53	20.25	-39.0	-38.8	14.3	1.05e-04	0	43	0	30777802752	43	15121
2026-01-02 20:38:54.48	286.89	20.21	-39.0	-38.8	14.3	8.10e-05	0	43	0	30895243264	43	15135
2026-01-02 20:38:55.48	287.26	20.16	-39.1	-38.9	14.3	1.05e-04	0	43	0	31004295168	44	14495
2026-01-02 20:38:56.46	287.63	20.12	-39.0	-38.8	14.3	1.05e-04	0	43	0	31121735680	44	14401
2026-01-02 20:38:57.46	287.99	20.07	-39.0	-38.8	14.3	1.05e-04	0	43	0	31230787584	44	14346
2026-01-02 20:38:58.46	288.36	20.02	-39.1	-38.9	14.3	1.05e-04	0	43	0	31339839488	44	14441
2026-01-02 20:38:59.45	288.72	19.98	-39.1	-38.8	14.3	9.53e-05	0	43	0	31448891392	44	14427
2026-01-02 20:39:00.45	289.09	19.93	-39.1	-38.9	14.3	9.53e-05	0	43	0	31566331904	44	14572
2026-01-02 20:39:01.45	289.45	19.88	-39.1	-38.9	14.3	9.53e-05	0	43	0	31675383808	44	14461
2026-01-02 20:39:02.44	289.81	19.83	-39.1	-38.8	14.3	8.10e-05	0	43	0	31784435712	44	14435
2026-01-02 20:39:03.43	290.16	19.78	-39.1	-38.9	14.3	8.10e-05	0	43	0	31901876224	44	14586
2026-01-02 20:39:04.44	290.52	19.72	-39.1	-38.9	14.3	8.10e-05	0	43	0	32010928128	44	14511
2026-01-02 20:39:05.44	290.88	19.67	-39.0	-38.8	14.4	9.05e-05	0	43	0	32128368640	44	14370
2026-01-02 20:39:06.44	291.24	19.62	-39.1	-38.9	14.4	9.05e-05	0	43	0	32237420544	44	14458
2026-01-02 20:39:07.44	291.59	19.56	-39.1	-38.9	14.4	9.05e-05	0	43	0	32346472448	44	14457
2026-01-02 20:39:08.43	291.94	19.51	-39.2	-39.0	14.4	6.67e-05	0	43	0	32463912960	44	14639
2026-01-02 20:39:09.42	292.29	19.45	-39.1	-38.9	14.4	6.67e-05	0	43	0	32572964864	44	14519
2026-01-02 20:39:10.42	292.64	19.39	-39.1	-38.9	14.4	6.67e-05	0	43	0	32690405376	44	14488
2026-01-02 20:39:11.42	292.99	19.34	-39.1	-38.9	14.4	5.72e-05	0	43	0	32799457280	44	14472
2026-01-02 20:39:12.42	293.33	19.28	-39.2	-38.9	14.4	5.72e-05	0	43	0	32908509184	44	14602
2026-01-02 20:39:13.42	293.68	19.22	-39.2	-38.9	14.4	5.72e-05	0	43	0	33025949696	44	14596
2026-01-02 20:39:14.41	294.02	19.16	-39.3	-39.1	14.4	4.76e-05	0	43	0	33135001600	44	14791
2026-01-02 20:39:15.41	294.36	19.10	-39.2	-39.0	14.4	4.76e-05	0	43	0	33252442112	44	14680
2026-01-02 20:39:16.41	294.70	19.03	-39.3	-39.1	14.4	7.15e-05	0	43	0	33361494016	44	14854
2026-01-02 20:39:17.41	295.04	18.97	-39.3	-39.1	14.4	7.15e-05	0	43	0	33470545920	44	14859
2026-01-02 20:39:18.40	295.38	18.91	-39.4	-39.2	14.4	7.15e-05	0	43	0	33587986432	44	14970
2026-01-02 20:39:19.41	295.72	18.85	-39.4	-39.1	14.4	6.19e-05	0	43	0	33697038336	44	14910
2026-01-02 20:39:20.40	296.05	18.78	-39.4	-39.2	14.4	6.19e-05	0	43	0	33806090240	44	14952
2026-01-02 20:39:21.40	296.38	18.72	-39.4	-39.2	14.4	6.19e-05	0	43	0	33915142144	44	15041
2026-01-02 20:39:22.40	296.71	18.65	-39.5	-39.2	14.4	1.00e-04	0	43	0	34032582656	44	15099
2026-01-02 20:39:23.39	297.04	18.59	-39.4	-39.2	14.4	1.00e-04	0	43	0	34141634560	44	15066
2026-01-02 20:39:24.39	297.37	18.52	-39.5	-39.3	14.4	1.00e-04	0	43	0	34259075072	44	15142
2026-01-02 20:39:25.39	297.69	18.45	-39.4	-39.2	14.4	9.53e-05	0	43	0	34368126976	44	15036
2026-01-02 20:39:26.39	298.02	18.38	-39.4	-39.2	14.4	9.53e-05	0	43	0	34485567488	44	15056
2026-01-02 20:39:27.39	298.34	18.31	-39.4	-39.2	14.4	9.53e-05	0	43	0	34594619392	44	15093
2026-01-02 20:39:28.40	298.66	18.24	-39.4	-39.2	14.4	5.24e-05	0	43	0	34703671296	44	15092
2026-01-02 20:39:29.39	298.98	18.18	-39.5	-39.3	14.4	5.24e-05	0	43	0	34821111808	44	15124
2026-01-02 20:39:30.39	299.30	18.11	-39.5	-39.3	14.4	7.62e-05	0	43	0	34930163712	44	15266
2026-01-02 20:39:31.39	299.62	18.03	-39.5	-39.3	14.5	7.62e-05	0	43	0	35047604224	44	15208
2026-01-02 20:39:32.39	299.93	17.96	-39.6	-39.4	14.5	7.62e-05	0	43	0	35156656128	45	14485
2026-01-02 20:39:33.37	300.24	17.89	-39.5	-39.3	14.5	6.67e-05	0	43	0	35265708032	45	14427
2026-01-02 20:39:34.37	300.55	17.82	-39.5	-39.3	14.5	6.67e-05	0	43	0	35383148544	45	14407
2026-01-02 20:39:35.38	300.86	17.75	-39.7	-39.5	14.5	6.67e-05	0	43	0	35492200448	45	14660
2026-01-02 20:39:36.37	301.17	17.68	-39.6	-39.4	14.5	7.15e-05	0	43	0	35609640960	45	14545
2026-01-02 20:39:37.37	301.47	17.60	-39.6	-39.4	14.5	7.15e-05	0	43	0	35718692864	45	14546
2026-01-02 20:39:38.37	301.78	17.53	-39.8	-39.5	14.5	7.15e-05	0	43	0	35827744768	45	14750
2026-01-02 20:39:39.37	302.08	17.45	-39.7	-39.5	14.4	7.62e-05	0	43	0	35945185280	45	14756
2026-01-02 20:39:40.37	302.38	17.38	-39.7	-39.5	14.4	7.62e-05	0	43	0	36054237184	45	14739
2026-01-02 20:39:41.36	302.68	17.31	-39.8	-39.6	14.4	1.05e-04	0	43	0	36171677696	45	14816
2026-01-02 20:39:42.36	302.97	17.23	-39.9	-39.7	14.4	1.05e-04	0	43	0	36280729600	45	14988
2026-01-02 20:39:43.36	303.27	17.15	-39.9	-39.7	14.4	1.19e-04	0	43	0	36389781504	45	15035
2026-01-02 20:39:44.35	303.56	17.08	-39.9	-39.7	14.4	1.19e-04	0	43	0	36498833408	45	15060
2026-01-02 20:39:45.35	303.85	17.00	-39.9	-39.7	14.4	1.19e-04	0	43	0	36616273920	45	15010
2026-01-02 20:39:46.34	304.14	16.93	-39.9	-39.7	14.4	1.67e-04	0	43	0	36725325824	45	15089
2026-01-02 20:39:47.34	304.43	16.85	-39.9	-39.6	14.5	1.67e-04	0	43	0	36834377728	45	14927
2026-01-02 20:39:48.34	304.72	16.77	-39.8	-39.6	14.5	1.67e-04	0	43	0	36951818240	45	14848
2026-01-02 20:39:49.33	305.00	16.69	-39.9	-39.7	14.5	8.10e-05	0	43	0	37060870144	45	14969
2026-01-02 20:39:50.32	305.28	16.62	-39.8	-39.6	14.5	8.10e-05	0	43	0	37178310656	45	14847
2026-01-02 20:39:51.32	305.57	16.54	-40.0	-39.8	14.4	7.62e-05	0	43	0	37287362560	45	15130
2026-01-02 20:39:52.31	305.84	16.46	-39.9	-39.7	14.5	7.62e-05	0	43	0	37404803072	45	15097
2026-01-02 20:39:53.31	306.12	16.38	-39.9	-39.7	14.4	7.62e-05	0	43	0	37513854976	45	15037
2026-01-02 20:39:54.30	306.40	16.30	-40.1	-39.9	14.4	1.76e-04	0	43	0	37622906880	45	15299
2026-01-02 20:39:55.30	306.67	16.23	-40.0	-39.8	14.4	1.76e-04	0	43	0	37731958784	45	15219
2026-01-02 20:39:56.30	306.95	16.15	-40.0	-39.8	14.4	1.76e-04	0	43	0	37841010688	45	15263
2026-01-02 20:39:57.29	307.22	16.07	-40.1	-39.8	14.4	1.00e-04	0	43	0	37958451200	45	15295
2026-01-02 20:39:58.29	307.49	15.99	-40.2	-40.0	14.4	1.00e-04	0	43	0	38067503104	46	14625
2026-01-02 20:39:59.29	307.76	15.91	-40.2	-39.9	14.4	1.00e-04	0	43	0	38184943616	46	14606
2026-01-02 20:40:00.29	308.03	15.83	-40.2	-40.0	14.4	1.33e-04	0	43	0	38293995520	46	14693
2026-01-02 20:40:01.29	308.29	15.75	-40.2	-40.0	14.4	1.33e-04	0	43	0	38411436032	46	14709
2026-01-02 20:40:02.29	308.56	15.67	-40.3	-40.1	14.4	1.33e-04	0	43	0	38520487936	46	14811
2026-01-02 20:40:03.29	308.82	15.58	-40.3	-40.1	14.4	1.19e-04	0	43	0	38629539840	46	14850
2026-01-02 20:40:04.28	309.08	15.50	-40.4	-40.1	14.4	1.19e-04	0	43	0	38746980352	46	14939
2026-01-02 20:40:05.28	309.34	15.42	-40.4	-40.2	14.4	1.86e-04	0	43	0	38856032256	46	14974
2026-01-02 20:40:06.28	309.59	15.34	-40.5	-40.2	14.4	1.86e-04	0	43	0	38973472768	46	15116
2026-01-02 20:40:07.28	309.85	15.26	-40.4	-40.3	14.4	1.86e-04	0	43	0	39082524672	46	15131
2026-01-02 20:40:08.27	310.10	15.18	-40.4	-40.2	14.4	1.86e-04	0	43	0	39191576576	46	15099
2026-01-02 20:40:09.26	310.35	15.10	-40.4	-40.2	14.4	1.72e-04	0	43	0	39309017088	46	15096
2026-01-02 20:40:10.26	310.60	15.02	-40.5	-40.3	14.3	1.72e-04	0	43	0	39418068992	46	15206
2026-01-02 20:40:11.27	310.85	14.94	-40.5	-40.3	14.3	2.48e-04	0	43	0	39535509504	46	15249
2026-01-02 20:40:12.27	311.10	14.85	-40.5	-40.3	14.4	2.48e-04	0	43	0	39644561408	46	15215
2026-01-02 20:40:13.26	311.35	14.77	-40.6	-40.4	14.3	2.48e-04	0	43	0	39753613312	46	15313
2026-01-02 20:40:14.27	311.59	14.69	-40.5	-40.3	14.3	2.48e-04	0	43	0	39871053824	46	15206
2026-01-02 20:40:15.26	311.84	14.61	-40.6	-40.4	14.4	2.72e-04	0	43	0	39980105728	47	14551
2026-01-02 20:40:16.26	312.08	14.53	-40.7	-40.5	14.4	2.72e-04	0	43	0	40097546240	47	14608
2026-01-02 20:40:17.25	312.32	14.45	-40.6	-40.4	14.4	2.72e-04	0	43	0	40198209536	47	14506
2026-01-02 20:40:18.25	312.55	14.36	-40.5	-40.3	14.4	2.57e-04	0	43	0	40315650048	47	14404
2026-01-02 20:40:19.25	312.79	14.28	-40.6	-40.4	14.4	2.57e-04	0	43	0	40424701952	47	14474
2026-01-02 20:40:20.24	313.02	14.20	-40.6	-40.4	14.3	2.72e-04	0	43	0	40542142464	47	14534
2026-01-02 20:40:21.24	313.26	14.12	-40.6	-40.4	14.4	2.72e-04	0	43	0	40651194368	47	14504
2026-01-02 20:40:22.24	313.49	14.03	-40.6	-40.4	14.4	2.72e-04	0	43	0	40768634880	47	14534
2026-01-02 20:40:23.24	313.72	13.95	-40.6	-40.4	14.3	2.81e-04	0	43	0	40877686784	47	14547
2026-01-02 20:40:24.24	313.95	13.87	-40.7	-40.5	14.3	2.81e-04	0	43	0	40986738688	47	14687
2026-01-02 20:40:25.24	314.18	13.79	-40.7	-40.5	14.3	2.81e-04	0	43	0	41104179200	47	14706
2026-01-02 20:40:26.24	314.41	13.71	-40.7	-40.5	14.3	3.77e-04	0	43	0	41213231104	47	14717
2026-01-02 20:40:27.25	314.64	13.62	-40.8	-40.6	14.3	3.77e-04	0	43	0	41330671616	47	14815
2026-01-02 20:40:28.25	314.86	13.54	-40.9	-40.7	14.3	3.77e-04	0	43	0	41439723520	47	14978
2026-01-02 20:40:29.25	315.08	13.46	-40.9	-40.7	14.3	6.10e-04	0	43	0	41548775424	47	15004
2026-01-02 20:40:30.26	315.30	13.37	-40.8	-40.6	14.2	6.10e-04	0	43	0	41666215936	47	14946
2026-01-02 20:40:31.25	315.52	13.29	-40.9	-40.7	14.2	6.10e-04	0	43	0	41775267840	47	14962
2026-01-02 20:40:32.24	315.74	13.21	-40.9	-40.7	14.2	6.10e-04	0	43	0	41892708352	47	15101
2026-01-02 20:40:33.24	315.95	13.13	-40.9	-40.7	14.2	4.43e-04	0	43	0	42001760256	47	15090
2026-01-02 20:40:34.24	316.17	13.05	-41.1	-40.9	14.2	4.43e-04	0	43	0	42110812160	47	15334
2026-01-02 20:40:35.24	316.38	12.96	-41.0	-40.8	14.2	4.24e-04	0	43	0	42228252672	47	15264
2026-01-02 20:40:36.24	316.60	12.88	-41.8	-41.6	14.4	4.24e-04	0	43	0	42337304576	49	14864
2026-01-02 20:40:37.25	316.81	12.80	-41.8	-41.6	14.3	4.24e-04	0	43	0	42454745088	49	14882
2026-01-02 20:40:38.25	317.02	12.72	-41.9	-41.7	14.3	3.10e-04	0	43	0	42563796992	49	15010
2026-01-02 20:40:39.25	317.23	12.64	-41.9	-41.7	14.3	3.10e-04	0	43	0	42672848896	49	15036
2026-01-02 20:40:40.23	317.43	12.56	-42.0	-41.8	14.3	2.29e-04	0	43	0	42790289408	49	15169
2026-01-02 20:40:41.24	317.64	12.47	-42.0	-41.8	14.3	2.29e-04	0	43	0	42899341312	49	15244
2026-01-02 20:40:42.24	317.84	12.39	-42.0	-41.8	14.3	2.29e-04	0	43	0	43016781824	50	14408
2026-01-02 20:40:43.24	318.05	12.31	-42.0	-41.8	14.3	2.62e-04	0	43	0	43125833728	50	14389
2026-01-02 20:40:44.24	318.25	12.23	-42.0	-41.8	14.3	2.62e-04	0	43	0	43243274240	50	14367
2026-01-02 20:40:45.24	318.45	12.15	-42.1	-41.9	14.3	2.62e-04	0	43	0	43352326144	50	14445
2026-01-02 20:40:46.24	318.65	12.06	-42.2	-42.0	14.2	3.67e-04	0	43	0	43461378048	50	14644
2026-01-02 20:40:47.25	318.85	11.98	-42.1	-41.9	14.3	3.67e-04	0	43	0	43578818560	50	14547
2026-01-02 20:40:48.25	319.04	11.90	-42.2	-42.0	14.2	3.67e-04	0	43	0	43687870464	50	14712
2026-01-02 20:40:49.23	319.23	11.82	-42.2	-42.0	14.2	2.72e-04	0	43	0	43805310976	50	14679
2026-01-02 20:40:50.23	319.43	11.74	-42.2	-42.0	14.2	2.72e-04	0	43	0	43914362880	50	14759
2026-01-02 20:40:51.23	319.62	11.66	-42.2	-42.0	14.2	2.72e-04	0	44	0	44023414784	50	14687
2026-01-02 20:40:52.22	319.81	11.58	-42.2	-42.0	14.2	4.48e-04	0	43	0	44140855296	50	14683
2026-01-02 20:40:53.22	320.00	11.50	-42.3	-42.1	14.2	4.48e-04	0	43	0	44249907200	50	14811
2026-01-02 20:40:54.21	320.19	11.42	-42.3	-42.1	14.1	4.77e-04	0	43	0	44367347712	50	14872
2026-01-02 20:40:55.21	320.38	11.34	-42.5	-42.2	14.1	4.77e-04	0	43	0	44476399616	50	15119
2026-01-02 20:40:56.21	320.56	11.26	-42.4	-42.3	14.1	4.77e-04	0	43	0	44585451520	50	15133
2026-01-02 20:40:57.21	320.75	11.18	-42.3	-42.1	14.1	4.62e-04	0	43	0	44702892032	50	14930
2026-01-02 20:40:58.20	320.93	11.10	-42.5	-42.3	14.1	4.62e-04	0	43	0	44811943936	50	15177
2026-01-02 20:40:59.20	321.11	11.02	-42.6	-42.4	14.1	4.62e-04	0	43	0	44920995840	51	14503
2026-01-02 20:41:00.19	321.29	10.94	-42.4	-42.2	14.1	7.10e-04	0	43	0	45030047744	51	14250
2026-01-02 20:41:01.19	321.47	10.86	-42.5	-42.2	14.1	7.10e-04	0	43	0	45147488256	51	14273
2026-01-02 20:41:02.19	321.65	10.78	-42.5	-42.3	14.1	7.10e-04	0	43	0	45256540160	51	14433
2026-01-02 20:41:03.18	321.83	10.70	-42.6	-42.4	14.1	6.44e-04	0	43	0	45373980672	51	14558
2026-01-02 20:41:04.18	322.01	10.62	-42.7	-42.5	14.0	6.44e-04	0	43	0	45483032576	51	14653
2026-01-02 20:41:05.18	322.18	10.54	-42.7	-42.5	14.0	8.06e-04	0	43	0	45592084480	51	14761
2026-01-02 20:41:06.18	322.36	10.46	-42.6	-42.4	14.1	8.06e-04	0	43	0	45709524992	51	14506
2026-01-02 20:41:07.18	322.53	10.38	-42.7	-42.5	14.0	8.06e-04	0	43	0	45818576896	51	14639
2026-01-02 20:41:08.18	322.71	10.31	-42.8	-42.6	14.0	7.77e-04	0	43	0	45936017408	51	14817
2026-01-02 20:41:09.17	322.88	10.23	-42.7	-42.5	14.0	7.77e-04	0	43	0	46045069312	51	14728
2026-01-02 20:41:10.17	323.05	10.15	-42.7	-42.5	14.0	7.77e-04	0	43	0	46162509824	51	14674
2026-01-02 20:41:11.16	323.21	10.07	-42.7	-42.5	14.0	9.11e-04	0	43	0	46271561728	51	14755
2026-01-02 20:41:12.15	323.38	9.99	-42.7	-42.5	14.0	9.11e-04	0	43	0	46380613632	51	14734
2026-01-02 20:41:13.15	323.55	9.92	-42.8	-42.6	14.0	9.11e-04	0	43	0	46489665536	51	14804
2026-01-02 20:41:14.14	323.71	9.84	-42.7	-42.5	14.0	9.25e-04	0	43	0	46607106048	51	14700
2026-01-02 20:41:15.13	323.88	9.76	-42.9	-42.7	13.9	9.25e-04	0	43	0	46716157952	51	15058
2026-01-02 20:41:16.14	324.04	9.68	-42.8	-42.6	14.0	9.25e-04	0	44	0	46825209856	51	14799
2026-01-02 20:41:17.14	324.21	9.60	-42.8	-42.6	14.0	1.03e-03	0	43	0	46942650368	51	14879
2026-01-02 20:41:18.13	324.37	9.53	-42.8	-42.6	14.0	1.03e-03	0	43	0	47051702272	51	14905
2026-01-02 20:41:19.12	324.53	9.45	-43.0	-42.8	13.9	1.03e-03	0	44	0	47169142784	51	15147
2026-01-02 20:41:20.12	324.69	9.37	-42.8	-42.6	13.9	1.38e-03	0	43	0	47278194688	51	14857
2026-01-02 20:41:21.12	324.85	9.30	-42.9	-42.7	13.9	1.38e-03	0	44	0	47387246592	51	15016
2026-01-02 20:41:22.12	325.00	9.22	-42.9	-42.7	13.9	1.38e-03	0	43	0	47504687104	51	15021
2026-01-02 20:41:23.11	325.16	9.14	-42.9	-42.7	13.9	1.17e-03	0	43	0	47613739008	51	14962
2026-01-02 20:41:24.11	325.32	9.07	-42.9	-42.7	13.9	1.17e-03	0	44	0	47731179520	51	14992
2026-01-02 20:41:25.11	325.47	8.99	-42.9	-42.7	13.9	1.28e-03	0	43	0	47840231424	51	14954
2026-01-02 20:41:26.11	325.63	8.92	-42.8	-42.7	13.9	1.28e-03	0	43	0	47949283328	51	14956
2026-01-02 20:41:27.11	325.78	8.84	-42.9	-42.7	13.9	1.28e-03	0	44	0	48066723840	51	15058
2026-01-02 20:41:28.11	325.93	8.76	-42.8	-42.7	13.9	1.28e-03	0	44	0	48175775744	51	14959
2026-01-02 20:41:29.10	326.08	8.69	-42.9	-42.7	13.9	1.28e-03	0	43	0	48284827648	51	15102
2026-01-02 20:41:30.10	326.23	8.61	-43.0	-42.8	13.8	1.28e-03	0	43	0	48393879552	51	15218
2026-01-02 20:41:31.09	326.38	8.54	-42.9	-42.7	13.9	1.64e-03	0	43	0	48511320064	52	14263
2026-01-02 20:41:32.09	326.53	8.46	-42.8	-42.6	13.9	1.64e-03	0	43	0	48620371968	52	14108
2026-01-02 20:41:33.08	326.68	8.39	-42.8	-42.6	13.9	1.64e-03	0	43	0	48737812480	52	14023
2026-01-02 20:41:34.08	326.82	8.31	-42.8	-42.6	13.9	1.50e-03	0	44	0	48846864384	52	14029
2026-01-02 20:41:35.08	326.97	8.24	-42.8	-42.6	13.9	1.50e-03	0	44	0	48955916288	52	14034
2026-01-02 20:41:36.07	327.11	8.16	-42.7	-42.5	13.9	1.50e-03	0	43	0	49073356800	52	13939
2026-01-02 20:41:37.06	327.25	8.09	-42.7	-42.5	13.9	1.50e-03	0	43	0	49182408704	52	13875
2026-01-02 20:41:38.06	327.40	8.02	-42.8	-42.6	13.9	1.32e-03	0	43	0	49299849216	52	13971
2026-01-02 20:41:39.06	327.54	7.94	-42.7	-42.5	13.9	1.32e-03	0	43	0	49408901120	52	13886
2026-01-02 20:41:40.05	327.68	7.87	-42.7	-42.6	13.9	1.32e-03	0	43	0	49517953024	52	13962
2026-01-02 20:41:41.05	327.82	7.79	-42.7	-42.5	13.9	1.42e-03	0	43	0	49627004928	52	13920
2026-01-02 20:41:42.04	327.96	7.72	-42.8	-42.6	13.9	1.42e-03	0	43	0	49744445440	52	14034
2026-01-02 20:41:43.03	328.10	7.65	-42.9	-42.7	13.8	1.62e-03	0	43	0	49853497344	52	14157
2026-01-02 20:41:44.03	328.24	7.58	-42.8	-42.6	13.9	1.62e-03	0	44	0	49962549248	52	13978
2026-01-02 20:41:45.03	328.37	7.50	-42.7	-42.5	13.9	1.62e-03	0	43	0	50079989760	52	13904
2026-01-02 20:41:46.02	328.51	7.43	-42.7	-42.5	13.9	1.63e-03	0	43	0	50189041664	52	13943
2026-01-02 20:41:47.01	328.64	7.36	-42.8	-42.6	13.9	1.63e-03	0	43	0	50306482176	52	14056
2026-01-02 20:41:48.01	328.78	7.29	-42.9	-42.7	13.8	1.79e-03	0	43	0	50415534080	52	14113
2026-01-02 20:41:49.00	328.91	7.21	-42.9	-42.7	13.9	1.79e-03	0	44	0	50524585984	52	14184
2026-01-02 20:41:49.99	329.04	7.14	-42.9	-42.7	13.9	1.79e-03	0	44	0	50633637888	52	14214
2026-01-02 20:41:50.99	329.18	7.07	-43.0	-42.8	13.9	3.52e-03	0	43	0	50751078400	52	14409
2026-01-02 20:41:51.99	329.31	7.00	-42.9	-42.7	13.9	3.52e-03	0	43	0	50860130304	52	14214
2026-01-02 20:41:52.98	329.44	6.93	-43.1	-42.9	13.9	3.85e-03	0	44	0	50977570816	52	14513
2026-01-02 20:41:53.96	329.56	6.86	-43.1	-42.9	13.8	3.85e-03	0	44	0	51086622720	52	14600
2026-01-02 20:41:54.96	329.69	6.78	-43.1	-42.9	13.8	3.85e-03	0	44	0	51195674624	52	14600
2026-01-02 20:41:55.95	329.82	6.71	-43.3	-43.1	13.8	4.20e-03	0	44	0	51304726528	52	14848
2026-01-02 20:41:56.94	329.95	6.64	-43.2	-43.0	13.8	4.20e-03	0	44	0	51413778432	52	14706
2026-01-02 20:41:57.93	330.07	6.57	-60.4	-63.2	6.2	4.20e-03	0	43	104	51464110080	86	21165
2026-01-02 20:41:58.92	330.20	6.50	-60.4	-63.2	6.2	4.20e-03	0	43	104	51464110080	86	21155
2026-01-02 20:41:59.93	330.33	6.43	-60.4	-63.1	6.2	4.20e-03	0	43	104	51464110080	86	21040
2026-01-02 20:42:00.92	330.45	6.36	-60.4	-63.1	6.2	4.20e-03	0	43	104	51464110080	86	21103
2026-01-02 20:42:01.92	330.57	6.29	-60.3	-63.1	6.2	4.20e-03	0	43	104	51464110080	86	20921
2026-01-02 20:42:02.91	330.70	6.22	-60.3	-63.1	6.2	4.20e-03	0	42	104	51464110080	86	20970
2026-01-02 20:42:03.90	330.82	6.15	-60.4	-63.1	6.2	2.63e-03	0	42	104	51464110080	86	21070
2026-01-02 20:42:04.90	330.94	6.08	-60.2	-63.0	6.2	2.63e-03	0	43	104	51464110080	86	20801
2026-01-02 20:42:05.90	331.06	6.01	-60.4	-63.2	6.2	2.63e-03	0	43	104	51464110080	86	21133
2026-01-02 20:42:06.90	331.18	5.94	-60.3	-63.0	6.2	2.63e-03	0	42	104	51464110080	86	20732
2026-01-02 20:42:07.91	331.30	5.87	-60.3	-63.1	6.2	2.63e-03	0	42	104	51464110080	86	20897
2026-01-02 20:42:08.90	331.42	5.80	-60.2	-62.9	6.2	2.63e-03	0	42	104	51464110080	86	20616
2026-01-02 20:42:09.90	331.54	5.73	-60.3	-63.1	6.2	2.63e-03	0	42	104	51464110080	86	20992
2026-01-02 20:42:10.89	331.66	5.66	-60.2	-62.9	6.2	2.63e-03	0	42	104	51464110080	86	20594
2026-01-02 20:42:11.89	331.78	5.60	-60.2	-63.0	6.2	2.63e-03	0	42	104	51464110080	86	20755
2026-01-02 20:42:12.87	331.89	5.53	-60.1	-62.9	6.2	2.63e-03	0	42	104	51464110080	86	20447
2026-01-02 20:42:13.86	332.00	5.46	-60.3	-63.0	6.2	2.63e-03	0	42	104	51464110080	86	20793
2026-01-02 20:42:14.86	332.12	5.39	-60.1	-62.9	6.2	2.63e-03	0	42	104	51464110080	86	20471
2026-01-02 20:42:15.86	332.23	5.32	-60.1	-62.9	6.2	2.63e-03	0	42	104	51464110080	86	20570
2026-01-02 20:42:16.85	332.35	5.26	-60.0	-62.8	6.2	0.00e+00	0	42	104	51464110080	86	20241
2026-01-02 20:42:17.85	332.46	5.19	-60.2	-63.0	6.2	0.00e+00	0	42	104	51464110080	86	20687
2026-01-02 20:42:18.85	332.57	5.12	-60.0	-62.8	6.2	0.00e+00	0	42	104	51464110080	86	20274
2026-01-02 20:42:19.84	332.69	5.05	-60.1	-62.9	6.2	0.00e+00	0	42	104	51464110080	86	20448
2026-01-02 20:42:20.84	332.80	4.99	-60.3	-63.0	6.2	0.00e+00	0	42	104	51464110080	86	20839
2026-01-02 20:42:21.84	332.91	4.92	-60.8	-63.6	6.2	0.00e+00	0	42	104	51464110080	87	20897
2026-01-02 20:42:22.84	333.02	4.85	-61.1	-63.9	6.2	0.00e+00	0	42	104	51464110080	88	20518
2026-01-02 20:42:23.84	333.13	4.78	-61.4	-64.2	6.2	0.00e+00	0	42	104	51464110080	88	21141
2026-01-02 20:42:24.84	333.24	4.72	-61.6	-64.3	6.2	0.00e+00	0	42	104	51464110080	89	20388
2026-01-02 20:42:25.83	333.34	4.65	-61.7	-64.5	6.2	0.00e+00	0	42	104	51464110080	89	20746
2026-01-02 20:42:26.84	333.45	4.58	-61.9	-64.6	6.2	0.00e+00	0	42	104	51464110080	89	21096
2026-01-02 20:42:27.85	333.56	4.52	-62.0	-64.7	6.2	0.00e+00	0	42	104	51464110080	89	21353
2026-01-02 20:42:28.85	333.67	4.45	-62.0	-64.8	6.2	0.00e+00	0	42	104	51464110080	89	21506
2026-01-02 20:42:29.84	333.77	4.38	-62.1	-64.9	6.2	0.00e+00	0	42	104	51464110080	90	20549
2026-01-02 20:42:30.85	333.88	4.32	-62.2	-64.9	6.2	0.00e+00	0	42	104	51464110080	90	20621
2026-01-02 20:42:31.84	333.99	4.25	-62.2	-64.9	6.2	0.00e+00	0	42	104	51464110080	90	20620
2026-01-02 20:42:32.84	334.09	4.19	-62.2	-65.0	6.2	0.00e+00	0	42	104	51464110080	90	20743
2026-01-02 20:42:33.84	334.19	4.12	-62.3	-65.1	6.2	0.00e+00	0	42	104	51464110080	90	20883
2026-01-02 20:42:34.83	334.30	4.06	-62.3	-65.0	6.2	0.00e+00	0	42	104	51464110080	90	20832
2026-01-02 20:42:35.83	334.40	3.99	-62.3	-65.1	6.2	0.00e+00	0	42	104	51464110080	90	20881
2026-01-02 20:42:36.83	334.50	3.93	-62.3	-65.1	6.2	0.00e+00	0	42	104	51464110080	90	20887
2026-01-02 20:42:37.82	334.60	3.86	-62.3	-65.0	6.2	0.00e+00	0	41	104	51464110080	90	20788
2026-01-02 20:42:38.82	334.70	3.80	-62.3	-65.0	6.2	0.00e+00	0	41	104	51464110080	90	20860
2026-01-02 20:42:39.81	334.80	3.73	-62.3	-65.0	6.2	0.00e+00	0	42	104	51464110080	90	20823
2026-01-02 20:42:40.81	334.90	3.67	-62.3	-65.0	6.2	0.00e+00	0	42	104	51464110080	90	20835
2026-01-02 20:42:41.81	335.00	3.60	-62.3	-65.0	6.2	0.00e+00	0	42	104	51464110080	90	20829
2026-01-02 20:42:42.80	335.10	3.54	-62.2	-65.0	6.2	0.00e+00	0	42	104	51464110080	90	20743
2026-01-02 20:42:43.80	335.20	3.48	-62.2	-64.9	6.2	0.00e+00	0	42	104	51464110080	90	20623
2026-01-02 20:42:44.80	335.30	3.41	-62.2	-64.9	6.2	0.00e+00	0	41	104	51464110080	90	20545
2026-01-02 20:42:45.80	335.39	3.35	-62.2	-64.9	6.2	0.00e+00	0	41	104	51464110080	90	20576
2026-01-02 20:42:46.80	335.49	3.28	-62.1	-64.9	6.2	0.00e+00	0	41	104	51464110080	90	20533
2026-01-02 20:42:47.79	335.59	3.22	-62.1	-64.9	6.2	0.00e+00	0	41	104	51464110080	90	20457
2026-01-02 20:42:48.79	335.68	3.16	-62.1	-64.9	6.2	0.00e+00	0	41	104	51464110080	90	20477
2026-01-02 20:42:49.79	335.78	3.09	-62.1	-64.9	6.2	0.00e+00	0	41	104	51464110080	90	20432
2026-01-02 20:42:50.79	335.87	3.03	-62.1	-64.8	6.2	0.00e+00	0	41	104	51464110080	90	20349
2026-01-02 20:42:51.79	335.97	2.97	-62.1	-64.8	6.2	0.00e+00	0	41	104	51464110080	90	20385
2026-01-02 20:42:52.78	336.06	2.91	-62.1	-64.8	6.2	0.00e+00	0	41	104	51464110080	90	20331
2026-01-02 20:42:53.78	336.16	2.84	-62.1	-64.8	6.2	0.00e+00	0	41	104	51464110080	90	20316
2026-01-02 20:42:54.77	336.25	2.78	-62.0	-64.8	6.2	0.00e+00	0	41	104	51464110080	90	20278
2026-01-02 20:42:55.77	336.34	2.72	-62.0	-64.8	6.2	0.00e+00	0	41	104	51464110080	90	20308
2026-01-02 20:42:56.78	336.43	2.66	-62.0	-64.8	6.2	0.00e+00	0	41	104	51464110080	90	20268
2026-01-02 20:42:57.78	336.52	2.59	-62.0	-64.8	6.2	0.00e+00	0	41	104	51464110080	90	20287
2026-01-02 20:42:58.77	336.62	2.53	-62.0	-64.8	6.2	0.00e+00	0	41	104	51464110080	90	20201
2026-01-02 20:42:59.77	336.71	2.47	-62.0	-64.8	6.2	0.00e+00	0	41	104	51464110080	90	20177
2026-01-02 20:43:00.77	336.80	2.41	-62.0	-64.7	6.2	0.00e+00	0	41	104	51464110080	90	20160
2026-01-02 20:43:01.77	336.89	2.35	-62.0	-64.8	6.2	0.00e+00	0	41	104	51464110080	90	20270
2026-01-02 20:43:02.78	336.98	2.28	-62.0	-64.7	6.2	0.00e+00	0	41	104	51464110080	90	20145
2026-01-02 20:43:03.78	337.07	2.22	-62.0	-64.8	6.2	0.00e+00	0	41	104	51464110080	90	20165
2026-01-02 20:43:04.78	337.15	2.16	-62.0	-64.7	6.2	0.00e+00	0	41	104	51464110080	90	20108
2026-01-02 20:43:05.77	337.24	2.10	-62.0	-64.7	6.2	0.00e+00	0	41	104	51464110080	90	20125

#Closed at: 2026-01-02 20:43:06
#Recorded file [51464 MB]: D:/lorett/data/31004_260102_233325.dat