passes_logs/2026/01/02/R3.2S_Murmansk/R3.2S_Murmansk__20260102_111323_FENGYUN_3D_rec.log

#Pass ID: 20260102_111323_FENGYUN 3D
#Satellite: FENGYUN 3D
#Configuration: FENGYUN 3D
#almurnet v.1.7.20251203
#Start time: 2026-01-02 11:13:24

#Version: 2.2.20231116
#Station: R3.2S_Murmansk
#Location: 33.079688 lon 68.888172 lat
#TLE: 1 43010U 17072A   26001.19005061  .00000535  00000+0  27473-3 0  9994
#TLE: 2 43010  98.9910 332.7942 0001852 133.6060 226.5269 14.19691635421296

#Time	Az	El	Level	Level2	SNR	BER	BlckErr	Temp	State	Recorded	gain1	gain2
2026-01-02 11:13:24.87	144.05	2.11	-59.8	-72.3	3.8	8.45e-01	0	30	0	0	86	14613
2026-01-02 11:13:25.87	144.05	2.18	-59.8	-72.3	3.8	8.45e-01	0	30	104	0	84	16434
2026-01-02 11:13:26.86	144.05	2.24	-59.8	-72.3	3.8	8.46e-01	0	30	104	0	84	16424
2026-01-02 11:13:27.85	144.04	2.31	-59.8	-72.3	3.8	8.47e-01	0	30	104	0	84	16393
2026-01-02 11:13:28.85	144.04	2.37	-59.8	-72.3	3.8	8.45e-01	0	30	104	0	84	16382
2026-01-02 11:13:29.84	144.03	2.44	-59.8	-72.2	3.8	8.45e-01	0	30	104	0	84	16283
2026-01-02 11:13:30.83	144.03	2.50	-59.8	-72.3	3.8	8.46e-01	0	31	104	0	84	16336
2026-01-02 11:13:31.83	144.02	2.57	-59.8	-72.2	3.8	8.45e-01	0	30	104	0	84	16278
2026-01-02 11:13:32.81	144.02	2.63	-59.8	-72.2	3.8	8.47e-01	0	31	104	0	84	16215
2026-01-02 11:13:33.80	144.01	2.70	-59.8	-72.2	3.8	8.46e-01	0	30	104	0	84	16210
2026-01-02 11:13:34.79	144.01	2.76	-59.8	-72.2	3.8	8.45e-01	0	31	104	0	84	16130
2026-01-02 11:13:35.78	144.00	2.83	-59.8	-72.1	3.8	8.46e-01	0	31	104	0	84	16098
2026-01-02 11:13:36.78	144.00	2.89	-59.8	-72.1	3.8	8.48e-01	0	31	104	0	84	16043
2026-01-02 11:13:37.77	143.99	2.96	-59.8	-72.1	3.8	8.45e-01	0	31	104	0	84	15950
2026-01-02 11:13:38.76	143.99	3.02	-59.8	-72.0	3.8	8.45e-01	0	31	104	0	84	15877
2026-01-02 11:13:39.75	143.98	3.09	-59.8	-72.0	3.8	8.46e-01	0	31	104	0	84	15822
2026-01-02 11:13:40.74	143.97	3.16	-59.7	-72.0	3.8	8.45e-01	0	31	104	0	84	15762
2026-01-02 11:13:41.73	143.97	3.22	-59.7	-71.8	3.8	8.46e-01	0	31	104	0	84	15460
2026-01-02 11:13:42.72	143.96	3.29	-59.7	-71.4	3.8	8.45e-01	0	31	104	0	84	14878
2026-01-02 11:13:43.71	143.96	3.36	-59.6	-70.6	3.8	8.46e-01	0	31	104	0	84	13417
2026-01-02 11:13:44.71	143.95	3.42	-59.5	-69.5	3.9	8.43e-01	0	31	104	0	84	11923
2026-01-02 11:13:45.69	143.95	3.49	-59.3	-67.8	4.5	8.30e-01	0	31	0	0	84	9814
2026-01-02 11:13:46.68	143.94	3.56	-59.1	-66.6	5.0	7.95e-01	0	31	0	0	84	8469
2026-01-02 11:13:47.68	143.94	3.62	-58.8	-65.1	5.9	4.55e-01	0	31	0	1048576	84	7203
2026-01-02 11:13:48.68	143.93	3.69	-58.4	-64.2	6.4	2.59e-01	0	31	0	7340032	83	6836
2026-01-02 11:13:49.67	143.92	3.76	-58.1	-63.2	7.3	1.29e-01	0	31	0	12582912	82	6460
2026-01-02 11:13:50.67	143.92	3.83	-57.9	-62.5	7.9	7.91e-02	0	31	0	17825792	82	5948
2026-01-02 11:13:51.66	143.91	3.90	-57.7	-62.0	8.3	4.26e-02	0	31	0	24117248	82	5619
2026-01-02 11:13:52.66	143.91	3.97	-57.3	-61.2	9.0	1.67e-02	0	31	0	29360128	81	5438
2026-01-02 11:13:53.65	143.90	4.03	-56.9	-60.3	9.8	8.41e-03	0	31	0	34603008	80	5211
2026-01-02 11:13:54.65	143.90	4.10	-56.4	-59.5	10.5	1.36e-03	0	31	0	40894464	79	4992
2026-01-02 11:13:55.65	143.89	4.17	-55.7	-58.3	11.5	1.77e-04	0	31	0	46137344	78	4606
2026-01-02 11:13:56.65	143.88	4.24	-55.3	-57.5	12.0	2.63e-05	0	31	0	51380224	77	4491
2026-01-02 11:13:57.64	143.88	4.31	-54.8	-56.9	12.5	4.50e-06	0	31	0	57671680	76	4402
2026-01-02 11:13:58.63	143.87	4.38	-54.4	-56.3	12.8	1.10e-06	0	31	0	62914560	75	4359
2026-01-02 11:13:59.63	143.87	4.45	-53.8	-55.4	13.4	0.00e+00	0	31	0	68157440	74	4193
2026-01-02 11:14:00.62	143.86	4.52	-53.5	-55.1	13.6	0.00e+00	0	31	0	74448896	73	4259
2026-01-02 11:14:01.62	143.85	4.59	-53.1	-54.6	13.8	0.00e+00	0	31	0	79691776	72	4278
2026-01-02 11:14:02.62	143.85	4.66	-53.0	-54.5	13.9	0.00e+00	0	31	0	85983232	72	4230
2026-01-02 11:14:03.62	143.84	4.73	-53.1	-54.6	13.9	0.00e+00	0	31	0	91226112	72	4273
2026-01-02 11:14:04.62	143.83	4.80	-53.1	-54.6	13.9	0.00e+00	0	31	0	96468992	72	4268
2026-01-02 11:14:05.61	143.83	4.87	-53.1	-54.6	13.8	0.00e+00	0	31	0	101711872	72	4278
2026-01-02 11:14:06.61	143.82	4.94	-53.4	-55.0	13.6	0.00e+00	0	31	0	108003328	72	4487
2026-01-02 11:14:07.61	143.82	5.01	-53.8	-55.5	13.3	0.00e+00	0	31	0	113246208	72	4737
2026-01-02 11:14:08.61	143.81	5.09	-54.6	-56.6	12.6	0.00e+00	0	31	0	118489088	74	4777
2026-01-02 11:14:09.60	143.80	5.16	-57.1	-60.6	9.7	1.65e-04	0	31	0	124780544	79	5699
2026-01-02 11:14:10.60	143.80	5.23	-53.0	-54.4	13.9	4.60e-02	0	31	0	130023424	72	4190
2026-01-02 11:14:11.59	143.79	5.30	-51.5	-52.6	14.9	0.00e+00	0	31	0	136314880	69	4038
2026-01-02 11:14:12.58	143.78	5.37	-53.7	-55.4	13.5	0.00e+00	0	31	0	141557760	72	4677
2026-01-02 11:14:13.58	143.78	5.45	-52.8	-54.2	14.1	1.07e-03	0	31	0	146800640	72	4081
2026-01-02 11:14:14.57	143.77	5.52	-51.3	-52.5	14.9	0.00e+00	0	31	0	153092096	68	4197
2026-01-02 11:14:15.57	143.76	5.59	-51.3	-52.4	14.9	0.00e+00	0	31	0	158334976	68	4175
2026-01-02 11:14:16.57	143.75	5.66	-51.2	-52.4	15.0	0.00e+00	0	31	0	163577856	68	4160
2026-01-02 11:14:17.56	143.75	5.74	-51.2	-52.3	15.0	0.00e+00	0	31	0	168820736	68	4137
2026-01-02 11:14:18.56	143.74	5.81	-51.2	-52.3	15.0	0.00e+00	0	31	0	175112192	68	4124
2026-01-02 11:14:19.56	143.73	5.88	-51.2	-52.3	15.0	0.00e+00	0	31	0	180355072	68	4136
2026-01-02 11:14:20.55	143.73	5.96	-51.2	-52.3	15.0	0.00e+00	0	31	0	186646528	68	4115
2026-01-02 11:14:21.53	143.72	6.03	-51.1	-52.2	15.1	0.00e+00	0	31	0	191889408	68	4078
2026-01-02 11:14:22.53	143.71	6.11	-51.2	-52.3	15.0	0.00e+00	0	31	0	197132288	68	4129
2026-01-02 11:14:23.53	143.70	6.18	-51.1	-52.3	15.1	0.00e+00	0	31	0	203423744	68	4102
2026-01-02 11:14:24.52	143.70	6.25	-51.3	-52.4	15.0	0.00e+00	0	31	0	208666624	68	4191
2026-01-02 11:14:25.52	143.69	6.33	-51.2	-52.3	15.1	0.00e+00	0	31	0	213909504	68	4113
2026-01-02 11:14:26.51	143.68	6.40	-51.0	-52.0	15.2	0.00e+00	0	31	0	219152384	68	3999
2026-01-02 11:14:27.51	143.68	6.48	-51.0	-52.1	15.2	0.00e+00	0	31	0	225443840	68	4022
2026-01-02 11:14:28.50	143.67	6.55	-51.1	-52.2	15.1	0.00e+00	0	31	0	230686720	68	4076
2026-01-02 11:14:29.49	143.66	6.63	-51.0	-52.1	15.2	0.00e+00	0	31	0	236978176	68	4040
2026-01-02 11:14:30.49	143.65	6.71	-51.0	-52.0	15.2	0.00e+00	0	31	0	242221056	68	4002
2026-01-02 11:14:31.49	143.64	6.78	-50.9	-51.9	15.3	0.00e+00	0	31	0	247463936	68	3950
2026-01-02 11:14:32.48	143.64	6.86	-51.0	-52.0	15.2	0.00e+00	0	31	0	253755392	68	4003
2026-01-02 11:14:33.47	143.63	6.94	-50.8	-51.9	15.3	0.00e+00	0	31	0	258998272	68	3935
2026-01-02 11:14:34.47	143.62	7.01	-50.8	-51.8	15.3	0.00e+00	0	31	0	264241152	68	3910
2026-01-02 11:14:35.47	143.61	7.09	-50.8	-51.8	15.3	0.00e+00	0	31	0	269484032	68	3909
2026-01-02 11:14:36.47	143.60	7.17	-50.8	-51.8	15.3	0.00e+00	0	31	0	275775488	68	3893
2026-01-02 11:14:37.46	143.60	7.24	-50.8	-51.8	15.3	0.00e+00	0	31	0	281018368	68	3909
2026-01-02 11:14:38.45	143.59	7.32	-50.7	-51.8	15.4	0.00e+00	0	31	0	287309824	68	3894
2026-01-02 11:14:39.44	143.58	7.40	-50.7	-51.8	15.4	0.00e+00	0	31	0	292552704	68	3883
2026-01-02 11:14:40.43	143.57	7.48	-50.8	-51.8	15.4	0.00e+00	0	31	0	297795584	68	3895
2026-01-02 11:14:41.43	143.56	7.56	-50.5	-51.6	15.4	0.00e+00	0	31	0	304087040	67	4011
2026-01-02 11:14:42.42	143.56	7.63	-50.6	-51.6	15.3	0.00e+00	0	31	0	309329920	67	4022
2026-01-02 11:14:43.41	143.55	7.71	-50.5	-51.5	15.4	0.00e+00	0	31	0	314572800	67	3989
2026-01-02 11:14:44.40	143.54	7.79	-50.4	-51.4	15.5	0.00e+00	0	31	0	319815680	67	3917
2026-01-02 11:14:45.39	143.53	7.87	-50.5	-51.5	15.4	0.00e+00	0	31	0	326107136	67	3966
2026-01-02 11:14:46.39	143.52	7.95	-50.3	-51.3	15.5	0.00e+00	0	31	0	331350016	67	3909
2026-01-02 11:14:47.38	143.51	8.03	-50.3	-51.3	15.5	0.00e+00	0	31	0	337641472	67	3905
2026-01-02 11:14:48.38	143.50	8.11	-50.4	-51.4	15.5	0.00e+00	0	31	0	342884352	67	3949
2026-01-02 11:14:49.37	143.50	8.19	-50.3	-51.3	15.5	0.00e+00	0	31	0	348127232	67	3893
2026-01-02 11:14:50.35	143.49	8.27	-50.2	-51.2	15.6	0.00e+00	0	31	0	353370112	67	3847
2026-01-02 11:14:51.33	143.48	8.35	-50.2	-51.2	15.5	0.00e+00	0	31	0	359661568	66	4052
2026-01-02 11:14:52.33	143.47	8.43	-50.2	-51.2	15.5	0.00e+00	0	31	0	364904448	66	4069
2026-01-02 11:14:53.32	143.46	8.51	-50.3	-51.3	15.5	0.00e+00	0	31	0	370147328	66	4103
2026-01-02 11:14:54.31	143.45	8.59	-50.2	-51.1	15.5	0.00e+00	0	31	0	376438784	66	4045
2026-01-02 11:14:55.30	143.44	8.68	-50.1	-51.1	15.6	0.00e+00	0	31	0	381681664	66	4019
2026-01-02 11:14:56.30	143.43	8.76	-50.2	-51.2	15.5	0.00e+00	0	31	0	386924544	66	4082
2026-01-02 11:14:57.29	143.42	8.84	-50.2	-51.1	15.6	0.00e+00	0	31	0	393216000	66	4040
2026-01-02 11:14:58.28	143.41	8.92	-50.2	-51.1	15.6	0.00e+00	0	31	0	398458880	66	4043
2026-01-02 11:14:59.28	143.40	9.01	-50.0	-50.9	15.6	0.00e+00	0	31	0	403701760	66	3943
2026-01-02 11:15:00.27	143.39	9.09	-50.0	-50.9	15.7	0.00e+00	0	31	0	409993216	66	3945
2026-01-02 11:15:01.27	143.38	9.17	-50.0	-51.0	15.6	0.00e+00	0	31	0	415236096	66	3981
2026-01-02 11:15:02.26	143.37	9.26	-50.0	-50.9	15.6	0.00e+00	0	31	0	420478976	66	3958
2026-01-02 11:15:03.25	143.36	9.34	-49.9	-50.9	15.7	0.00e+00	0	31	0	426770432	66	3916
2026-01-02 11:15:04.24	143.35	9.42	-49.9	-50.8	15.7	0.00e+00	0	31	0	432013312	66	3903
2026-01-02 11:15:05.23	143.34	9.51	-50.0	-50.9	15.7	0.00e+00	0	31	0	437256192	66	3951
2026-01-02 11:15:06.23	143.33	9.59	-50.1	-51.0	15.6	0.00e+00	0	31	0	443547648	66	3986
2026-01-02 11:15:07.23	143.32	9.68	-50.1	-51.1	15.6	0.00e+00	0	31	0	448790528	66	4022
2026-01-02 11:15:08.22	143.31	9.76	-50.0	-50.9	15.7	0.00e+00	0	31	0	454033408	66	3933
2026-01-02 11:15:09.21	143.30	9.85	-50.0	-50.9	15.7	0.00e+00	0	31	0	460324864	66	3941
2026-01-02 11:15:10.20	143.29	9.94	-49.9	-50.8	15.7	0.00e+00	0	31	0	465567744	66	3901
2026-01-02 11:15:11.19	143.28	10.02	-49.8	-50.7	15.8	0.00e+00	0	31	0	470810624	66	3867
2026-01-02 11:15:12.18	143.27	10.11	-49.7	-50.6	15.8	0.00e+00	0	31	0	477102080	65	4024
2026-01-02 11:15:13.17	143.26	10.20	-49.7	-50.6	15.7	0.00e+00	0	31	0	482344960	65	4049
2026-01-02 11:15:14.17	143.25	10.28	-49.6	-50.5	15.8	0.00e+00	0	31	0	487587840	65	3997
2026-01-02 11:15:15.15	143.24	10.37	-49.6	-50.6	15.8	0.00e+00	0	31	0	492830720	65	4006
2026-01-02 11:15:16.14	143.23	10.46	-49.6	-50.5	15.8	0.00e+00	0	31	0	499122176	65	3993
2026-01-02 11:15:17.15	143.22	10.55	-49.6	-50.5	15.8	0.00e+00	0	31	0	504365056	65	3998
2026-01-02 11:15:18.15	143.21	10.64	-49.6	-50.5	15.8	0.00e+00	0	31	0	510656512	65	3994
2026-01-02 11:15:19.13	143.20	10.72	-49.6	-50.5	15.8	0.00e+00	0	31	0	515899392	65	4001
2026-01-02 11:15:20.13	143.19	10.81	-49.6	-50.5	15.8	0.00e+00	0	31	0	521142272	65	3993
2026-01-02 11:15:21.12	143.17	10.90	-49.6	-50.5	15.8	0.00e+00	0	31	0	527433728	65	3987
2026-01-02 11:15:22.11	143.16	10.99	-49.6	-50.5	15.8	0.00e+00	0	31	0	532676608	65	3992
2026-01-02 11:15:23.11	143.15	11.08	-49.5	-50.4	15.9	0.00e+00	0	31	0	537919488	65	3928
2026-01-02 11:15:24.10	143.14	11.17	-49.6	-50.5	15.8	0.00e+00	0	31	0	543162368	65	3970
2026-01-02 11:15:25.10	143.13	11.26	-49.5	-50.4	15.8	0.00e+00	0	31	0	549453824	65	3942
2026-01-02 11:15:26.09	143.12	11.36	-49.5	-50.4	15.8	0.00e+00	0	31	0	554696704	65	3950
2026-01-02 11:15:27.08	143.10	11.45	-49.5	-50.4	15.9	0.00e+00	0	31	0	560988160	65	3929
2026-01-02 11:15:28.08	143.09	11.54	-49.5	-50.4	15.9	0.00e+00	0	31	0	566231040	65	3924
2026-01-02 11:15:29.07	143.08	11.63	-49.5	-50.4	15.9	0.00e+00	0	31	0	571473920	65	3940
2026-01-02 11:15:30.07	143.07	11.72	-49.4	-50.3	15.9	0.00e+00	0	31	0	577765376	65	3885
2026-01-02 11:15:31.06	143.06	11.82	-49.4	-50.4	15.9	0.00e+00	0	31	0	583008256	65	3916
2026-01-02 11:15:32.05	143.04	11.91	-49.5	-50.4	15.9	0.00e+00	0	31	0	588251136	65	3926
2026-01-02 11:15:33.05	143.03	12.00	-49.4	-50.3	15.9	0.00e+00	0	31	0	593494016	65	3889
2026-01-02 11:15:34.04	143.02	12.10	-49.4	-50.3	15.9	0.00e+00	0	31	0	599785472	65	3874
2026-01-02 11:15:35.04	143.01	12.19	-49.4	-50.3	15.9	0.00e+00	0	31	0	605028352	65	3897
2026-01-02 11:15:36.02	142.99	12.29	-49.4	-50.3	15.9	0.00e+00	0	32	0	611319808	65	3910
2026-01-02 11:15:37.01	142.98	12.38	-49.4	-50.3	15.9	0.00e+00	0	31	0	616562688	65	3876
2026-01-02 11:15:38.00	142.97	12.48	-49.4	-50.3	15.9	0.00e+00	0	31	0	621805568	65	3876
2026-01-02 11:15:39.00	142.95	12.57	-49.3	-50.2	15.9	0.00e+00	0	31	0	627048448	65	3859
2026-01-02 11:15:39.99	142.94	12.67	-49.4	-50.3	15.9	0.00e+00	0	31	0	633339904	65	3869
2026-01-02 11:15:40.97	142.93	12.76	-49.3	-50.2	15.9	0.00e+00	0	31	0	638582784	65	3832
2026-01-02 11:15:41.97	142.91	12.86	-49.3	-50.2	15.9	0.00e+00	0	31	0	643825664	65	3860
2026-01-02 11:15:42.96	142.90	12.96	-49.4	-50.3	15.9	0.00e+00	0	31	0	650117120	65	3870
2026-01-02 11:15:43.95	142.89	13.05	-49.3	-50.2	16.0	0.00e+00	0	31	0	655360000	65	3828
2026-01-02 11:15:44.95	142.87	13.15	-49.3	-50.2	16.0	0.00e+00	0	31	0	660602880	65	3829
2026-01-02 11:15:45.94	142.86	13.25	-49.2	-50.1	16.0	0.00e+00	0	31	0	666894336	65	3796
2026-01-02 11:15:46.94	142.85	13.35	-49.3	-50.2	16.0	0.00e+00	0	32	0	672137216	65	3826
2026-01-02 11:15:47.93	142.83	13.45	-49.2	-50.1	16.0	0.00e+00	0	31	0	677380096	65	3819
2026-01-02 11:15:48.92	142.82	13.55	-49.2	-50.1	16.0	0.00e+00	0	31	0	683671552	65	3801
2026-01-02 11:15:49.91	142.80	13.65	-49.2	-50.1	16.0	0.00e+00	0	31	0	688914432	65	3793
2026-01-02 11:15:50.90	142.79	13.75	-49.2	-50.1	16.0	0.00e+00	0	31	0	694157312	65	3810
2026-01-02 11:15:51.90	142.77	13.85	-49.2	-50.1	16.0	0.00e+00	0	31	0	700448768	65	3805
2026-01-02 11:15:52.89	142.76	13.95	-49.2	-50.1	16.0	0.00e+00	0	31	0	705691648	65	3806
2026-01-02 11:15:53.89	142.74	14.05	-49.2	-50.1	16.0	0.00e+00	0	31	0	710934528	65	3808
2026-01-02 11:15:54.88	142.73	14.16	-49.1	-50.0	16.0	0.00e+00	0	31	0	717225984	64	3991
2026-01-02 11:15:55.87	142.71	14.26	-49.1	-50.0	16.0	0.00e+00	0	31	0	722468864	64	3969
2026-01-02 11:15:56.86	142.70	14.36	-49.1	-50.0	16.0	0.00e+00	0	31	0	727711744	64	3959
2026-01-02 11:15:57.85	142.68	14.46	-49.0	-49.9	16.0	0.00e+00	0	31	0	734003200	64	3947
2026-01-02 11:15:58.84	142.67	14.57	-49.0	-49.9	16.0	0.00e+00	0	32	0	739246080	64	3932
2026-01-02 11:15:59.83	142.65	14.67	-49.0	-49.9	16.0	0.00e+00	0	31	0	744488960	64	3941
2026-01-02 11:16:00.83	142.64	14.78	-49.0	-49.9	16.1	0.00e+00	0	31	0	750780416	64	3918
2026-01-02 11:16:01.83	142.62	14.88	-49.1	-49.9	16.0	0.00e+00	0	31	0	756023296	64	3951
2026-01-02 11:16:02.81	142.61	14.99	-49.0	-49.8	16.1	0.00e+00	0	32	0	761266176	64	3898
2026-01-02 11:16:03.81	142.59	15.09	-49.0	-49.9	16.0	0.00e+00	0	31	0	766509056	64	3915
2026-01-02 11:16:04.81	142.57	15.20	-48.8	-49.7	16.1	0.00e+00	0	31	0	772800512	64	3840
2026-01-02 11:16:05.80	142.56	15.31	-48.8	-49.6	16.2	0.00e+00	0	32	0	778043392	64	3804
2026-01-02 11:16:06.79	142.54	15.41	-48.7	-49.5	16.1	0.00e+00	0	31	0	784334848	63	3983
2026-01-02 11:16:07.78	142.52	15.52	-48.7	-49.6	16.1	0.00e+00	0	31	0	789577728	63	4006
2026-01-02 11:16:08.77	142.51	15.63	-48.6	-49.5	16.2	0.00e+00	0	31	0	794820608	63	3960
2026-01-02 11:16:09.77	142.49	15.74	-48.5	-49.4	16.2	0.00e+00	0	31	0	801112064	63	3919
2026-01-02 11:16:10.76	142.47	15.85	-48.6	-49.5	16.2	0.00e+00	0	31	0	806354944	63	3966
2026-01-02 11:16:11.75	142.46	15.96	-48.5	-49.3	16.2	0.00e+00	0	32	0	811597824	63	3901
2026-01-02 11:16:12.74	142.44	16.07	-48.6	-49.4	16.2	0.00e+00	0	31	0	816840704	63	3922
2026-01-02 11:16:13.74	142.42	16.18	-48.5	-49.3	16.2	0.00e+00	0	32	0	823132160	63	3899
2026-01-02 11:16:14.73	142.40	16.29	-48.4	-49.2	16.2	0.00e+00	0	32	0	828375040	63	3867
2026-01-02 11:16:15.73	142.39	16.40	-48.3	-49.1	16.3	0.00e+00	0	32	0	834666496	63	3796
2026-01-02 11:16:16.73	142.37	16.52	-48.3	-49.1	16.3	0.00e+00	0	31	0	839909376	63	3816
2026-01-02 11:16:17.72	142.35	16.63	-48.2	-49.0	16.3	0.00e+00	0	32	0	845152256	63	3771
2026-01-02 11:16:18.71	142.33	16.74	-48.2	-48.9	16.3	0.00e+00	0	32	0	850395136	62	3957
2026-01-02 11:16:19.71	142.31	16.86	-48.2	-49.0	16.3	0.00e+00	0	32	0	856686592	62	3966
2026-01-02 11:16:20.70	142.29	16.97	-48.1	-48.9	16.3	0.00e+00	0	32	0	861929472	62	3954
2026-01-02 11:16:21.70	142.27	17.09	-48.1	-48.9	16.3	0.00e+00	0	32	0	867172352	62	3923
2026-01-02 11:16:22.69	142.26	17.20	-48.2	-48.9	16.3	0.00e+00	0	31	0	873463808	62	3951
2026-01-02 11:16:23.68	142.24	17.32	-48.1	-48.9	16.3	0.00e+00	0	32	0	878706688	62	3938
2026-01-02 11:16:24.68	142.22	17.44	-48.1	-48.9	16.3	0.00e+00	0	31	0	884998144	62	3923
2026-01-02 11:16:25.68	142.20	17.55	-48.1	-48.8	16.3	0.00e+00	0	31	0	890241024	62	3913
2026-01-02 11:16:26.67	142.18	17.67	-48.0	-48.8	16.3	0.00e+00	0	31	0	895483904	62	3880
2026-01-02 11:16:27.66	142.16	17.79	-48.0	-48.8	16.3	0.00e+00	0	31	0	900726784	62	3889
2026-01-02 11:16:28.66	142.14	17.91	-48.0	-48.8	16.3	0.00e+00	0	32	0	907018240	62	3881
2026-01-02 11:16:29.66	142.12	18.03	-48.0	-48.8	16.3	0.00e+00	0	31	0	912261120	62	3889
2026-01-02 11:16:30.65	142.10	18.15	-48.0	-48.8	16.3	0.00e+00	0	32	0	917504000	62	3874
2026-01-02 11:16:31.64	142.08	18.27	-47.9	-48.7	16.4	0.00e+00	0	32	0	923795456	62	3844
2026-01-02 11:16:32.63	142.05	18.39	-48.1	-48.9	16.3	0.00e+00	0	31	0	929038336	62	3933
2026-01-02 11:16:33.63	142.03	18.51	-47.9	-48.6	16.4	0.00e+00	0	31	0	935329792	62	3818
2026-01-02 11:16:34.62	142.01	18.64	-47.9	-48.6	16.3	0.00e+00	0	32	0	940572672	62	3817
2026-01-02 11:16:35.62	141.99	18.76	-47.8	-48.6	16.4	0.00e+00	0	31	0	945815552	62	3791
2026-01-02 11:16:36.61	141.97	18.88	-47.9	-48.7	16.4	0.00e+00	0	32	0	951058432	62	3827
2026-01-02 11:16:37.60	141.95	19.01	-47.9	-48.6	16.4	0.00e+00	0	32	0	957349888	62	3818
2026-01-02 11:16:38.59	141.93	19.13	-47.8	-48.6	16.4	0.00e+00	0	32	0	962592768	62	3781
2026-01-02 11:16:39.58	141.90	19.26	-47.7	-48.5	16.4	0.00e+00	0	32	0	967835648	62	3763
2026-01-02 11:16:40.57	141.88	19.38	-47.8	-48.6	16.4	0.00e+00	0	32	0	974127104	62	3800
2026-01-02 11:16:41.56	141.86	19.51	-47.8	-48.6	16.4	0.00e+00	0	32	0	979369984	62	3807
2026-01-02 11:16:42.55	141.84	19.64	-47.8	-48.6	16.4	0.00e+00	0	32	0	984612864	62	3786
2026-01-02 11:16:43.54	141.81	19.76	-47.7	-48.5	16.4	0.00e+00	0	32	0	990904320	62	3740
2026-01-02 11:16:44.53	141.79	19.89	-47.7	-48.5	16.4	0.00e+00	0	31	0	996147200	62	3749
2026-01-02 11:16:45.53	141.77	20.02	-47.8	-48.6	16.4	0.00e+00	0	31	0	1001390080	62	3794
2026-01-02 11:16:46.52	141.74	20.15	-47.7	-48.5	16.4	0.00e+00	0	32	0	1007681536	62	3758
2026-01-02 11:16:47.51	141.72	20.28	-47.6	-48.4	16.4	0.00e+00	0	31	0	1012924416	61	3929
2026-01-02 11:16:48.50	141.69	20.41	-47.7	-48.4	16.3	0.00e+00	0	31	0	1018167296	61	3947
2026-01-02 11:16:49.49	141.67	20.55	-47.7	-48.4	16.3	0.00e+00	0	31	0	1024458752	61	3948
2026-01-02 11:16:50.48	141.64	20.68	-47.6	-48.3	16.4	0.00e+00	0	31	0	1029701632	61	3898
2026-01-02 11:16:51.47	141.62	20.81	-47.6	-48.4	16.4	0.00e+00	0	31	0	1034944512	61	3918
2026-01-02 11:16:52.46	141.59	20.95	-47.4	-48.2	16.4	0.00e+00	0	32	0	1040187392	61	3846
2026-01-02 11:16:53.45	141.57	21.08	-47.5	-48.2	16.4	0.00e+00	0	32	0	1046478848	61	3845
2026-01-02 11:16:54.44	141.54	21.21	-47.3	-48.1	16.5	0.00e+00	0	32	0	1051721728	61	3795
2026-01-02 11:16:55.44	141.52	21.35	-47.3	-48.1	16.5	0.00e+00	0	32	0	1058013184	61	3781
2026-01-02 11:16:56.42	141.49	21.49	-47.2	-47.9	16.5	0.00e+00	0	32	0	1063256064	61	3737
2026-01-02 11:16:57.41	141.46	21.62	-47.1	-47.8	16.5	0.00e+00	0	32	0	1068498944	60	3894
2026-01-02 11:16:58.40	141.44	21.76	-47.1	-47.8	16.5	0.00e+00	0	32	0	1073741824	60	3888
2026-01-02 11:16:59.40	141.41	21.90	-47.1	-47.8	16.5	0.00e+00	0	32	0	1080033280	60	3904
2026-01-02 11:17:00.39	141.38	22.04	-46.9	-47.6	16.5	0.00e+00	0	32	0	1085276160	60	3816
2026-01-02 11:17:01.38	141.36	22.18	-46.9	-47.6	16.5	0.00e+00	0	32	0	1090519040	60	3824
2026-01-02 11:17:02.37	141.33	22.32	-47.0	-47.7	16.5	0.00e+00	0	31	0	1096810496	60	3846
2026-01-02 11:17:03.38	141.30	22.47	-46.9	-47.6	16.6	0.00e+00	0	31	0	1102053376	60	3809
2026-01-02 11:17:04.37	141.27	22.61	-46.9	-47.6	16.5	0.00e+00	0	32	0	1108344832	60	3806
2026-01-02 11:17:05.37	141.24	22.76	-46.9	-47.6	16.6	0.00e+00	0	31	0	1113587712	60	3802
2026-01-02 11:17:06.36	141.21	22.90	-46.9	-47.6	16.6	0.00e+00	0	31	0	1118830592	60	3815
2026-01-02 11:17:07.36	141.18	23.05	-46.9	-47.6	16.6	0.00e+00	0	31	0	1124073472	60	3790
2026-01-02 11:17:08.36	141.15	23.20	-46.9	-47.6	16.5	0.00e+00	0	32	0	1130364928	60	3817
2026-01-02 11:17:09.36	141.12	23.34	-46.9	-47.6	16.5	0.00e+00	0	32	0	1135607808	60	3816
2026-01-02 11:17:10.34	141.09	23.49	-46.9	-47.6	16.5	0.00e+00	0	32	0	1140850688	60	3808
2026-01-02 11:17:11.33	141.06	23.64	-47.0	-47.7	16.6	0.00e+00	0	32	0	1147142144	60	3843
2026-01-02 11:17:12.33	141.03	23.79	-47.0	-47.7	16.5	0.00e+00	0	32	0	1152385024	60	3847
2026-01-02 11:17:13.32	141.00	23.94	-47.0	-47.7	16.5	0.00e+00	0	32	0	1158676480	60	3854
2026-01-02 11:17:14.31	140.97	24.09	-47.1	-47.8	16.5	0.00e+00	0	32	0	1163919360	60	3885
2026-01-02 11:17:15.30	140.94	24.24	-47.2	-47.9	16.5	0.00e+00	0	32	0	1169162240	60	3946
2026-01-02 11:17:16.29	140.90	24.40	-47.1	-47.9	16.5	0.00e+00	0	32	0	1174405120	60	3929
2026-01-02 11:17:17.29	140.87	24.55	-47.2	-48.0	16.5	0.00e+00	0	32	0	1180696576	60	3959
2026-01-02 11:17:18.28	140.84	24.71	-47.2	-47.9	16.5	0.00e+00	0	32	0	1185939456	60	3938
2026-01-02 11:17:19.28	140.81	24.86	-47.2	-47.9	16.5	0.00e+00	0	31	0	1191182336	60	3953
2026-01-02 11:17:20.27	140.77	25.02	-47.2	-47.9	16.5	0.00e+00	0	31	0	1197473792	60	3954
2026-01-02 11:17:21.26	140.74	25.18	-47.2	-48.0	16.5	0.00e+00	0	32	0	1202716672	60	3959
2026-01-02 11:17:22.26	140.70	25.34	-47.1	-47.8	16.5	0.00e+00	0	32	0	1207959552	60	3885
2026-01-02 11:17:23.25	140.67	25.50	-47.1	-47.8	16.5	0.00e+00	0	31	0	1214251008	60	3912
2026-01-02 11:17:24.24	140.63	25.66	-47.1	-47.8	16.5	0.00e+00	0	31	0	1219493888	60	3883
2026-01-02 11:17:25.24	140.60	25.82	-47.1	-47.8	16.5	0.00e+00	0	32	0	1224736768	60	3880
2026-01-02 11:17:26.23	140.56	25.98	-46.9	-47.6	16.5	0.00e+00	0	32	0	1231028224	60	3821
2026-01-02 11:17:27.22	140.52	26.14	-46.8	-47.5	16.6	0.00e+00	0	32	0	1236271104	60	3757
2026-01-02 11:17:28.22	140.49	26.31	-46.7	-47.4	16.6	0.00e+00	0	32	0	1241513984	60	3728
2026-01-02 11:17:29.21	140.45	26.47	-46.7	-47.4	16.6	0.00e+00	0	32	0	1247805440	60	3734
2026-01-02 11:17:30.21	140.41	26.64	-46.8	-47.5	16.6	0.00e+00	0	32	0	1253048320	60	3770
2026-01-02 11:17:31.20	140.37	26.81	-46.8	-47.5	16.6	0.00e+00	0	32	0	1258291200	60	3773
2026-01-02 11:17:32.20	140.34	26.98	-46.7	-47.4	16.6	0.00e+00	0	32	0	1264582656	60	3726
2026-01-02 11:17:33.19	140.30	27.15	-46.7	-47.4	16.6	0.00e+00	0	32	0	1269825536	60	3724
2026-01-02 11:17:34.20	140.26	27.32	-46.7	-47.4	16.7	0.00e+00	0	32	0	1275068416	60	3724
2026-01-02 11:17:35.19	140.22	27.49	-46.7	-47.4	16.7	0.00e+00	0	32	0	1281359872	60	3719
2026-01-02 11:17:36.19	140.18	27.67	-47.0	-47.8	16.5	0.00e+00	0	32	0	1286602752	59	4099
2026-01-02 11:17:37.18	140.13	27.84	-47.0	-47.8	16.5	0.00e+00	0	32	0	1291845632	59	4112
2026-01-02 11:17:38.17	140.09	28.02	-47.1	-47.8	16.5	0.00e+00	0	32	0	1298137088	59	4134
2026-01-02 11:17:39.16	140.05	28.19	-47.0	-47.8	16.5	0.00e+00	0	32	0	1303379968	59	4105
2026-01-02 11:17:40.15	140.01	28.37	-47.0	-47.7	16.5	0.00e+00	0	32	0	1308622848	59	4081
2026-01-02 11:17:41.15	139.97	28.55	-46.9	-47.7	16.5	0.00e+00	0	32	0	1314914304	59	4065
2026-01-02 11:17:42.14	139.92	28.73	-47.0	-47.7	16.5	0.00e+00	0	32	0	1320157184	59	4098
2026-01-02 11:17:43.13	139.88	28.91	-47.0	-47.7	16.5	0.00e+00	0	32	0	1325400064	59	4073
2026-01-02 11:17:44.13	139.83	29.09	-46.9	-47.6	16.5	0.00e+00	0	32	0	1331691520	59	4034
2026-01-02 11:17:45.13	139.79	29.27	-46.9	-47.6	16.5	0.00e+00	0	32	0	1336934400	59	4046
2026-01-02 11:17:46.13	139.74	29.46	-46.8	-47.5	16.6	0.00e+00	0	32	0	1342177280	59	3982
2026-01-02 11:17:47.12	139.70	29.64	-46.8	-47.6	16.5	0.00e+00	0	32	0	1348468736	59	4009
2026-01-02 11:17:48.11	139.65	29.83	-46.8	-47.5	16.6	0.00e+00	0	32	0	1353711616	59	3981
2026-01-02 11:17:49.11	139.60	30.02	-46.8	-47.6	16.5	0.00e+00	0	32	0	1358954496	59	4025
2026-01-02 11:17:50.10	139.55	30.21	-46.9	-47.6	16.5	0.00e+00	0	32	0	1365245952	59	4037
2026-01-02 11:17:51.09	139.51	30.40	-46.8	-47.6	16.5	0.00e+00	0	32	0	1370488832	59	4031
2026-01-02 11:17:52.09	139.46	30.59	-46.7	-47.5	16.5	0.00e+00	0	32	0	1375731712	59	3964
2026-01-02 11:17:53.07	139.41	30.78	-46.7	-47.5	16.5	0.00e+00	0	32	0	1382023168	59	3976
2026-01-02 11:17:54.07	139.36	30.97	-46.6	-47.4	16.6	0.00e+00	0	32	0	1387266048	59	3928
2026-01-02 11:17:55.06	139.31	31.17	-46.7	-47.4	16.6	0.00e+00	0	32	0	1392508928	59	3957
2026-01-02 11:17:56.05	139.25	31.36	-46.6	-47.3	16.6	0.00e+00	0	32	0	1398800384	59	3883
2026-01-02 11:17:57.04	139.20	31.56	-46.5	-47.2	16.6	0.00e+00	0	32	0	1404043264	59	3865
2026-01-02 11:17:58.04	139.15	31.76	-46.4	-47.1	16.7	0.00e+00	0	32	0	1409286144	59	3816
2026-01-02 11:17:59.03	139.10	31.96	-46.3	-47.1	16.7	0.00e+00	0	32	0	1415577600	59	3788
2026-01-02 11:18:00.04	139.04	32.17	-46.3	-47.0	16.7	0.00e+00	0	32	0	1420820480	59	3762
2026-01-02 11:18:01.03	138.98	32.37	-46.4	-47.1	16.7	0.00e+00	0	32	0	1426063360	59	3794
2026-01-02 11:18:02.02	138.93	32.57	-46.4	-47.1	16.7	0.00e+00	0	32	0	1432354816	59	3796
2026-01-02 11:18:03.02	138.87	32.78	-46.4	-47.1	16.7	0.00e+00	0	32	0	1437597696	59	3808
2026-01-02 11:18:04.01	138.81	32.99	-46.4	-47.1	16.6	0.00e+00	0	32	0	1442840576	59	3820
2026-01-02 11:18:05.01	138.76	33.20	-46.4	-47.1	16.6	0.00e+00	0	32	0	1449132032	59	3823
2026-01-02 11:18:06.01	138.70	33.41	-46.5	-47.2	16.6	0.00e+00	0	32	0	1454374912	59	3861
2026-01-02 11:18:07.01	138.64	33.62	-46.5	-47.2	16.6	0.00e+00	0	32	0	1459617792	59	3865
2026-01-02 11:18:08.00	138.58	33.83	-46.5	-47.2	16.6	0.00e+00	0	32	0	1465909248	59	3856
2026-01-02 11:18:08.99	138.51	34.05	-46.4	-47.1	16.7	0.00e+00	0	32	0	1471152128	59	3808
2026-01-02 11:18:09.98	138.45	34.26	-46.3	-47.0	16.7	0.00e+00	0	32	0	1476395008	59	3753
2026-01-02 11:18:10.98	138.39	34.48	-46.1	-46.8	16.7	0.00e+00	0	32	0	1482686464	58	3897
2026-01-02 11:18:11.97	138.32	34.70	-46.1	-46.8	16.7	0.00e+00	0	32	0	1487929344	58	3886
2026-01-02 11:18:12.96	138.26	34.92	-46.1	-46.8	16.7	0.00e+00	0	32	0	1493172224	58	3892
2026-01-02 11:18:13.95	138.19	35.14	-46.2	-46.8	16.7	0.00e+00	0	32	0	1499463680	58	3905
2026-01-02 11:18:14.94	138.13	35.36	-46.1	-46.7	16.7	0.00e+00	0	32	0	1504706560	58	3857
2026-01-02 11:18:15.94	138.06	35.59	-46.2	-46.8	16.7	0.00e+00	0	32	0	1509949440	58	3906
2026-01-02 11:18:16.93	137.99	35.81	-46.3	-46.9	16.7	0.00e+00	0	32	0	1516240896	58	3957
2026-01-02 11:18:17.92	137.92	36.04	-46.4	-46.9	16.8	0.00e+00	0	32	0	1521483776	58	3950
2026-01-02 11:18:18.92	137.85	36.27	-46.5	-47.0	16.8	0.00e+00	0	32	0	1526726656	58	3987
2026-01-02 11:18:19.91	137.78	36.50	-46.5	-47.0	16.8	0.00e+00	0	32	0	1533018112	58	3997
2026-01-02 11:18:20.91	137.70	36.73	-46.4	-46.9	16.8	0.00e+00	0	32	0	1538260992	58	3947
2026-01-02 11:18:21.91	137.63	36.97	-46.4	-46.9	16.8	0.00e+00	0	32	0	1543503872	58	3958
2026-01-02 11:18:22.90	137.55	37.20	-46.5	-47.1	16.8	0.00e+00	0	32	0	1549795328	58	4026
2026-01-02 11:18:23.90	137.48	37.44	-46.6	-47.1	16.7	0.00e+00	0	32	0	1555038208	58	4040
2026-01-02 11:18:24.89	137.40	37.68	-46.5	-47.1	16.7	0.00e+00	0	32	0	1560281088	58	4030
2026-01-02 11:18:25.88	137.32	37.92	-46.6	-47.1	16.7	0.00e+00	0	32	0	1566572544	58	4029
2026-01-02 11:18:26.87	137.24	38.16	-46.6	-47.2	16.7	0.00e+00	0	32	0	1571815424	58	4061
2026-01-02 11:18:27.87	137.16	38.41	-46.7	-47.3	16.7	0.00e+00	0	32	0	1577058304	58	4112
2026-01-02 11:18:28.86	137.07	38.65	-46.8	-47.4	16.6	0.00e+00	0	32	0	1583349760	58	4171
2026-01-02 11:18:29.84	136.99	38.90	-47.0	-47.6	16.7	0.00e+00	0	32	0	1588592640	59	4006
2026-01-02 11:18:30.84	136.91	39.15	-47.1	-47.6	16.7	0.00e+00	0	32	0	1593835520	59	4045
2026-01-02 11:18:31.83	136.82	39.40	-47.0	-47.6	16.7	0.00e+00	0	32	0	1600126976	59	4024
2026-01-02 11:18:32.83	136.73	39.65	-47.0	-47.6	16.7	0.00e+00	0	32	0	1605369856	59	4005
2026-01-02 11:18:33.82	136.64	39.91	-46.8	-47.4	16.7	0.00e+00	0	32	0	1610612736	59	3941
2026-01-02 11:18:34.80	136.55	40.16	-46.9	-47.5	16.7	0.00e+00	0	32	0	1615855616	59	3962
2026-01-02 11:18:35.79	136.46	40.42	-46.9	-47.5	16.7	0.00e+00	0	32	0	1622147072	59	3983
2026-01-02 11:18:36.78	136.37	40.67	-47.0	-47.6	16.7	0.00e+00	0	32	0	1627389952	59	4017
2026-01-02 11:18:37.78	136.27	40.94	-47.1	-47.7	16.7	0.00e+00	0	32	0	1633681408	59	4063
2026-01-02 11:18:38.78	136.17	41.20	-47.2	-47.8	16.6	0.00e+00	0	32	0	1638924288	59	4103
2026-01-02 11:18:39.77	136.07	41.47	-47.2	-47.8	16.6	0.00e+00	0	32	0	1644167168	59	4107
2026-01-02 11:18:40.77	135.97	41.74	-47.2	-47.8	16.6	0.00e+00	0	32	0	1649410048	59	4120
2026-01-02 11:18:41.76	135.87	42.00	-47.3	-47.9	16.6	0.00e+00	0	32	0	1655701504	59	4149
2026-01-02 11:18:42.76	135.76	42.28	-47.2	-47.9	16.6	0.00e+00	0	32	0	1660944384	59	4147
2026-01-02 11:18:43.76	135.66	42.55	-47.2	-47.8	16.6	0.00e+00	0	32	0	1666187264	59	4126
2026-01-02 11:18:44.75	135.55	42.82	-47.1	-47.7	16.7	0.00e+00	0	32	0	1672478720	59	4087
2026-01-02 11:18:45.75	135.44	43.10	-46.9	-47.5	16.7	0.00e+00	0	32	0	1677721600	59	3975
2026-01-02 11:18:46.75	135.33	43.38	-46.9	-47.5	16.7	0.00e+00	0	32	0	1684013056	59	3966
2026-01-02 11:18:47.74	135.21	43.66	-47.0	-47.6	16.7	0.00e+00	0	32	0	1689255936	59	4008
2026-01-02 11:18:48.74	135.10	43.94	-47.0	-47.6	16.7	0.00e+00	0	32	0	1694498816	59	4042
2026-01-02 11:18:49.74	134.98	44.23	-47.0	-47.6	16.7	0.00e+00	0	32	0	1700790272	59	4032
2026-01-02 11:18:50.73	134.86	44.52	-46.8	-47.3	16.8	0.00e+00	0	32	0	1706033152	59	3902
2026-01-02 11:18:51.73	134.73	44.81	-46.7	-47.2	16.8	0.00e+00	0	32	0	1711276032	59	3866
2026-01-02 11:18:52.71	134.61	45.09	-46.8	-47.4	16.7	0.00e+00	0	32	0	1716518912	59	3936
2026-01-02 11:18:53.71	134.48	45.39	-47.1	-47.7	16.7	0.00e+00	0	32	0	1722810368	59	4064
2026-01-02 11:18:54.70	134.35	45.68	-47.3	-47.9	16.6	0.00e+00	0	32	0	1728053248	59	4188
2026-01-02 11:18:55.69	134.22	45.97	-47.2	-47.8	16.7	0.00e+00	0	32	0	1734344704	60	3878
2026-01-02 11:18:56.68	134.09	46.27	-47.1	-47.7	16.7	0.00e+00	0	32	0	1739587584	60	3836
2026-01-02 11:18:57.68	133.95	46.57	-46.8	-47.4	16.8	0.00e+00	0	32	0	1744830464	60	3722
2026-01-02 11:18:58.68	133.81	46.87	-46.9	-47.5	16.7	0.00e+00	0	32	0	1751121920	59	3987
2026-01-02 11:18:59.68	133.67	47.18	-46.8	-47.4	16.7	0.00e+00	0	32	0	1756364800	59	3923
2026-01-02 11:19:00.68	133.52	47.49	-46.9	-47.5	16.7	0.00e+00	0	32	0	1761607680	59	3974
2026-01-02 11:19:01.68	133.37	47.80	-47.2	-47.8	16.6	0.00e+00	0	32	0	1767899136	59	4136
2026-01-02 11:19:02.67	133.22	48.11	-47.4	-48.0	16.6	0.00e+00	0	32	0	1773142016	59	4199
2026-01-02 11:19:03.66	133.06	48.42	-47.0	-47.6	16.7	0.00e+00	0	32	0	1778384896	60	3813
2026-01-02 11:19:04.66	132.90	48.73	-47.0	-47.6	16.7	0.00e+00	0	32	0	1784676352	60	3802
2026-01-02 11:19:05.65	132.74	49.05	-47.1	-47.6	16.7	0.00e+00	0	32	0	1789919232	60	3810
2026-01-02 11:19:06.65	132.58	49.37	-47.2	-47.8	16.7	0.00e+00	0	32	0	1795162112	60	3886
2026-01-02 11:19:07.64	132.41	49.69	-47.4	-48.0	16.6	0.00e+00	0	32	0	1801453568	60	3968
2026-01-02 11:19:08.64	132.24	50.01	-47.3	-47.9	16.6	0.00e+00	0	32	0	1806696448	60	3943
2026-01-02 11:19:09.63	132.06	50.33	-47.3	-47.9	16.6	0.00e+00	0	32	0	1811939328	60	3936
2026-01-02 11:19:10.63	131.88	50.66	-47.4	-48.0	16.6	0.00e+00	0	32	0	1818230784	60	3962
2026-01-02 11:19:11.62	131.70	50.99	-47.6	-48.2	16.6	0.00e+00	0	32	0	1823473664	60	4070
2026-01-02 11:19:12.61	131.51	51.32	-47.6	-48.1	16.6	0.00e+00	0	32	0	1828716544	60	4043
2026-01-02 11:19:13.61	131.31	51.65	-47.6	-48.2	16.6	0.00e+00	0	32	0	1835008000	60	4083
2026-01-02 11:19:14.60	131.12	51.98	-47.7	-48.3	16.5	0.00e+00	0	32	0	1840250880	60	4133
2026-01-02 11:19:15.60	130.92	52.32	-47.8	-48.4	16.5	0.00e+00	0	32	0	1845493760	60	4177
2026-01-02 11:19:16.59	130.71	52.66	-47.8	-48.4	16.5	0.00e+00	0	32	0	1851785216	60	4185
2026-01-02 11:19:17.58	130.50	52.99	-47.9	-48.6	16.6	0.00e+00	0	32	0	1857028096	61	4005
2026-01-02 11:19:18.56	130.29	53.33	-47.8	-48.4	16.6	0.00e+00	0	32	0	1862270976	61	3940
2026-01-02 11:19:19.55	130.07	53.67	-47.8	-48.3	16.6	0.00e+00	0	32	0	1868562432	61	3901
2026-01-02 11:19:20.54	129.84	54.02	-47.8	-48.4	16.6	0.00e+00	0	32	0	1873805312	61	3919
2026-01-02 11:19:21.54	129.61	54.37	-47.7	-48.3	16.6	0.00e+00	0	32	0	1879048192	61	3878
2026-01-02 11:19:22.54	129.37	54.72	-47.8	-48.4	16.6	0.00e+00	0	31	0	1885339648	61	3915
2026-01-02 11:19:23.53	129.13	55.07	-47.7	-48.2	16.6	0.00e+00	0	32	0	1890582528	61	3867
2026-01-02 11:19:24.53	128.87	55.42	-47.7	-48.3	16.6	0.00e+00	0	32	0	1895825408	61	3882
2026-01-02 11:19:25.51	128.62	55.77	-47.7	-48.3	16.6	0.00e+00	0	32	0	1901068288	61	3898
2026-01-02 11:19:26.50	128.36	56.12	-47.6	-48.2	16.7	0.00e+00	0	32	0	1907359744	61	3852
2026-01-02 11:19:27.50	128.09	56.48	-47.6	-48.2	16.6	0.00e+00	0	32	0	1912602624	61	3844
2026-01-02 11:19:28.49	127.81	56.84	-47.3	-47.9	16.8	0.00e+00	0	32	0	1918894080	61	3723
2026-01-02 11:19:29.49	127.52	57.21	-47.0	-47.5	16.8	0.00e+00	0	32	0	1924136960	60	3773
2026-01-02 11:19:30.48	127.23	57.57	-47.0	-47.5	16.8	0.00e+00	0	32	0	1929379840	60	3764
2026-01-02 11:19:31.47	126.93	57.93	-47.2	-47.8	16.7	0.00e+00	0	32	0	1935671296	60	3877
2026-01-02 11:19:32.46	126.63	58.29	-47.3	-47.9	16.7	0.00e+00	0	32	0	1940914176	60	3951
2026-01-02 11:19:33.46	126.31	58.66	-47.1	-47.7	16.7	0.00e+00	0	32	0	1946157056	60	3858
2026-01-02 11:19:34.47	125.97	59.04	-46.9	-47.5	16.8	0.00e+00	0	32	0	1951399936	60	3758
2026-01-02 11:19:35.47	125.64	59.41	-47.1	-47.7	16.7	0.00e+00	0	32	0	1957691392	60	3850
2026-01-02 11:19:36.46	125.29	59.78	-46.9	-47.5	16.8	0.00e+00	0	32	0	1962934272	60	3765
2026-01-02 11:19:37.45	124.94	60.15	-47.0	-47.6	16.7	0.00e+00	0	32	0	1969225728	59	4018
2026-01-02 11:19:38.45	124.57	60.53	-47.1	-47.7	16.6	0.00e+00	0	32	0	1974468608	59	4052
2026-01-02 11:19:39.45	124.19	60.90	-47.2	-47.8	16.7	0.00e+00	0	32	0	1979711488	60	3869
2026-01-02 11:19:40.44	123.80	61.28	-47.2	-47.8	16.7	0.00e+00	0	32	0	1986002944	60	3893
2026-01-02 11:19:41.42	123.40	61.65	-47.0	-47.6	16.8	0.00e+00	0	32	0	1991245824	60	3799
2026-01-02 11:19:42.41	122.99	62.02	-47.1	-47.7	16.7	0.00e+00	0	32	0	1996488704	60	3832
2026-01-02 11:19:43.41	122.56	62.40	-47.0	-47.5	16.8	0.00e+00	0	32	0	2001731584	60	3765
2026-01-02 11:19:44.40	122.12	62.78	-46.7	-47.2	16.9	0.00e+00	0	32	0	2008023040	60	3639
2026-01-02 11:19:45.39	121.67	63.16	-46.9	-47.5	16.7	0.00e+00	0	32	0	2013265920	59	3968
2026-01-02 11:19:46.38	121.20	63.54	-46.9	-47.5	16.7	0.00e+00	0	32	0	2019557376	59	3982
2026-01-02 11:19:47.38	120.72	63.92	-46.9	-47.5	16.7	0.00e+00	0	32	0	2024800256	59	3991
2026-01-02 11:19:48.36	120.22	64.29	-46.7	-47.3	16.8	0.00e+00	0	32	0	2030043136	59	3881
2026-01-02 11:19:49.35	119.71	64.67	-46.4	-46.9	16.9	0.00e+00	0	32	0	2035286016	59	3714
2026-01-02 11:19:50.34	119.17	65.05	-46.6	-47.2	16.8	0.00e+00	0	32	0	2041577472	59	3832
2026-01-02 11:19:51.33	118.62	65.43	-46.7	-47.2	16.8	0.00e+00	0	32	0	2046820352	59	3860
2026-01-02 11:19:52.33	118.04	65.81	-46.5	-47.0	16.9	0.00e+00	0	32	0	2052063232	59	3767
2026-01-02 11:19:53.32	117.45	66.19	-46.5	-47.1	16.9	0.00e+00	0	32	0	2058354688	59	3787
2026-01-02 11:19:54.30	116.85	66.56	-46.4	-46.9	16.9	0.00e+00	0	32	0	2063597568	59	3729
2026-01-02 11:19:55.29	116.21	66.94	-46.6	-47.2	16.9	0.00e+00	0	32	0	2068840448	59	3825
2026-01-02 11:19:56.28	115.55	67.32	-46.2	-46.8	17.0	0.00e+00	0	32	0	2075131904	59	3661
2026-01-02 11:19:57.28	114.86	67.69	-45.9	-46.4	17.0	0.00e+00	0	32	0	2080374784	58	3698
2026-01-02 11:19:58.27	114.16	68.07	-45.9	-46.4	17.0	0.00e+00	0	32	0	2085617664	58	3715
2026-01-02 11:19:59.26	113.42	68.44	-46.0	-46.5	16.9	0.00e+00	0	32	0	2090860544	58	3773
2026-01-02 11:20:00.26	112.65	68.81	-45.8	-46.3	17.0	0.00e+00	0	32	0	2097152000	58	3687
2026-01-02 11:20:01.26	111.85	69.18	-45.8	-46.4	17.0	0.00e+00	0	32	0	2102394880	58	3698
2026-01-02 11:20:02.25	111.03	69.55	-45.9	-46.4	17.0	0.00e+00	0	32	0	2108686336	58	3724
2026-01-02 11:20:03.24	110.17	69.91	-46.0	-46.6	17.0	0.00e+00	0	32	0	2113929216	58	3782
2026-01-02 11:20:04.24	109.28	70.27	-46.1	-46.6	16.9	0.00e+00	0	32	0	2119172096	58	3823
2026-01-02 11:20:05.23	108.35	70.63	-46.3	-46.8	16.8	0.00e+00	0	32	0	2125463552	58	3901
2026-01-02 11:20:06.23	107.38	70.98	-46.2	-46.7	16.9	0.00e+00	0	32	0	2130706432	58	3846
2026-01-02 11:20:07.23	106.37	71.33	-46.3	-46.8	16.8	0.00e+00	0	32	0	2135949312	58	3896
2026-01-02 11:20:08.22	105.33	71.68	-46.4	-47.0	16.8	0.00e+00	0	32	0	2142240768	58	3988
2026-01-02 11:20:09.22	104.24	72.02	-46.2	-46.7	16.9	0.00e+00	0	32	0	2147483648	58	3846
2026-01-02 11:20:10.21	103.11	72.35	-46.3	-46.8	16.9	0.00e+00	0	32	0	2152726528	58	3887
2026-01-02 11:20:11.21	101.93	72.68	-46.5	-47.1	16.8	0.00e+00	0	32	0	2159017984	58	4035
2026-01-02 11:20:12.20	100.71	73.00	-46.4	-47.0	16.8	0.00e+00	0	32	0	2164260864	58	3960
2026-01-02 11:20:13.20	99.42	73.32	-46.3	-46.8	16.9	0.00e+00	0	32	0	2169503744	58	3888
2026-01-02 11:20:14.20	98.09	73.63	-46.1	-46.7	16.9	0.00e+00	0	32	0	2175795200	58	3830
2026-01-02 11:20:15.19	96.72	73.93	-46.2	-46.7	16.9	0.00e+00	0	32	0	2181038080	58	3865
2026-01-02 11:20:16.19	95.28	74.22	-45.8	-46.3	17.0	0.00e+00	0	32	0	2186280960	58	3675
2026-01-02 11:20:17.18	93.80	74.50	-45.6	-46.1	17.0	0.00e+00	0	32	0	2192572416	57	3803
2026-01-02 11:20:18.17	92.26	74.77	-45.7	-46.2	16.9	0.00e+00	0	32	0	2197815296	57	3840
2026-01-02 11:20:19.17	90.65	75.04	-45.4	-45.9	17.0	0.00e+00	0	32	0	2204106752	57	3734
2026-01-02 11:20:20.15	89.01	75.28	-45.3	-45.8	17.1	0.00e+00	0	32	0	2209349632	57	3684
2026-01-02 11:20:21.16	87.27	75.53	-45.3	-45.8	17.0	0.00e+00	0	32	0	2214592512	57	3684
2026-01-02 11:20:22.16	85.48	75.75	-45.3	-45.8	17.0	0.00e+00	0	32	0	2219835392	57	3683
2026-01-02 11:20:23.16	83.64	75.97	-45.0	-45.5	17.0	0.00e+00	0	32	0	2226126848	56	3771
2026-01-02 11:20:24.15	81.75	76.16	-45.0	-45.5	17.0	0.00e+00	0	32	0	2231369728	56	3764
2026-01-02 11:20:25.15	79.80	76.35	-45.0	-45.5	17.0	0.00e+00	0	32	0	2236612608	56	3775
2026-01-02 11:20:26.14	77.81	76.52	-44.9	-45.4	17.0	0.00e+00	0	32	0	2242904064	56	3728
2026-01-02 11:20:27.14	75.75	76.67	-45.1	-45.6	17.0	0.00e+00	0	32	0	2248146944	56	3789
2026-01-02 11:20:28.13	73.66	76.80	-44.8	-45.4	17.1	0.00e+00	0	32	0	2254438400	56	3695
2026-01-02 11:20:29.13	71.51	76.92	-44.8	-45.3	17.1	0.00e+00	0	31	0	2259681280	56	3667
2026-01-02 11:20:30.12	69.35	77.02	-44.8	-45.3	17.1	0.00e+00	0	32	0	2264924160	56	3688
2026-01-02 11:20:31.12	67.14	77.10	-45.1	-45.6	17.0	0.00e+00	0	32	0	2271215616	56	3806
2026-01-02 11:20:32.12	64.89	77.16	-45.1	-45.7	16.9	0.00e+00	0	32	0	2276458496	56	3834
2026-01-02 11:20:33.11	62.66	77.21	-44.8	-45.3	17.1	0.00e+00	0	32	0	2281701376	56	3694
2026-01-02 11:20:34.11	60.38	77.23	-44.9	-45.4	17.1	0.00e+00	0	32	0	2286944256	56	3728
2026-01-02 11:20:35.10	58.13	77.23	-45.0	-45.5	17.0	0.00e+00	0	32	0	2293235712	56	3777
2026-01-02 11:20:36.10	55.85	77.22	-44.7	-45.2	17.1	0.00e+00	0	32	0	2298478592	56	3642
2026-01-02 11:20:37.09	53.61	77.19	-44.7	-45.2	17.0	0.00e+00	0	32	0	2304770048	55	3856
2026-01-02 11:20:38.09	51.36	77.13	-44.7	-45.2	17.0	0.00e+00	0	32	0	2310012928	55	3833
2026-01-02 11:20:39.08	49.15	77.06	-44.6	-45.1	17.0	0.00e+00	0	32	0	2315255808	55	3818
2026-01-02 11:20:40.08	46.95	76.97	-44.7	-45.2	17.0	0.00e+00	0	32	0	2321547264	55	3832
2026-01-02 11:20:41.07	44.81	76.86	-44.8	-45.4	16.9	0.00e+00	0	32	0	2326790144	55	3923
2026-01-02 11:20:42.07	42.68	76.73	-44.7	-45.2	17.0	0.00e+00	0	32	0	2332033024	55	3864
2026-01-02 11:20:43.06	40.62	76.59	-44.7	-45.3	17.0	0.00e+00	0	32	0	2337275904	55	3878
2026-01-02 11:20:44.06	38.59	76.42	-45.1	-45.6	16.8	0.00e+00	0	32	0	2343567360	55	4028
2026-01-02 11:20:45.04	36.65	76.25	-44.7	-45.2	17.0	0.00e+00	0	31	0	2348810240	55	3843
2026-01-02 11:20:46.04	34.72	76.06	-44.7	-45.2	17.0	0.00e+00	0	32	0	2355101696	55	3841
2026-01-02 11:20:47.03	32.87	75.85	-44.8	-45.4	16.9	0.00e+00	0	32	0	2360344576	55	3920
2026-01-02 11:20:48.02	31.08	75.63	-44.8	-45.3	16.9	0.00e+00	0	32	0	2365587456	55	3904
2026-01-02 11:20:49.02	29.32	75.40	-45.0	-45.5	16.9	0.00e+00	0	32	0	2371878912	55	3966
2026-01-02 11:20:50.02	27.63	75.15	-44.9	-45.4	16.9	0.00e+00	0	32	0	2377121792	55	3948
2026-01-02 11:20:51.01	26.01	74.90	-44.9	-45.5	16.9	0.00e+00	0	32	0	2382364672	55	3961
2026-01-02 11:20:52.00	24.44	74.63	-45.0	-45.5	16.9	0.00e+00	0	32	0	2387607552	55	3995
2026-01-02 11:20:53.00	22.92	74.35	-45.1	-45.5	16.8	0.00e+00	0	32	0	2393899008	55	4004
2026-01-02 11:20:53.99	21.47	74.07	-45.2	-45.7	16.8	0.00e+00	0	32	0	2399141888	55	4081
2026-01-02 11:20:54.98	20.07	73.77	-45.7	-46.3	16.8	0.00e+00	0	32	0	2405433344	56	4116
2026-01-02 11:20:55.96	18.74	73.47	-45.8	-46.3	16.8	0.00e+00	0	32	0	2410676224	56	4135
2026-01-02 11:20:56.96	17.44	73.16	-45.7	-46.2	16.8	0.00e+00	0	31	0	2415919104	56	4086
2026-01-02 11:20:57.95	16.19	72.84	-45.7	-46.3	16.8	0.00e+00	0	32	0	2421161984	56	4104
2026-01-02 11:20:58.94	15.00	72.52	-46.0	-46.5	16.8	0.00e+00	0	32	0	2427453440	57	4000
2026-01-02 11:20:59.93	13.85	72.19	-46.1	-46.6	16.8	0.00e+00	0	32	0	2432696320	57	4035
2026-01-02 11:21:00.93	12.73	71.85	-46.1	-46.6	16.8	0.00e+00	0	31	0	2437939200	57	4048
2026-01-02 11:21:01.92	11.67	71.51	-46.2	-46.7	16.8	0.00e+00	0	32	0	2444230656	57	4084
2026-01-02 11:21:02.91	10.65	71.17	-46.1	-46.7	16.8	0.00e+00	0	31	0	2449473536	57	4072
2026-01-02 11:21:03.91	9.66	70.81	-46.1	-46.6	16.8	0.00e+00	0	32	0	2454716416	57	4030
2026-01-02 11:21:04.90	8.72	70.46	-46.1	-46.6	16.8	0.00e+00	0	32	0	2461007872	57	4019
2026-01-02 11:21:05.89	7.81	70.10	-46.2	-46.7	16.7	0.00e+00	0	32	0	2466250752	57	4091
2026-01-02 11:21:06.88	6.94	69.74	-46.4	-47.0	16.7	0.00e+00	0	32	0	2471493632	57	4196
2026-01-02 11:21:07.87	6.10	69.38	-46.0	-46.5	16.8	0.00e+00	0	32	0	2477785088	57	3998
2026-01-02 11:21:08.86	5.29	69.02	-46.0	-46.5	16.8	0.00e+00	0	32	0	2483027968	57	3976
2026-01-02 11:21:09.86	4.51	68.64	-46.2	-46.8	16.8	0.00e+00	0	32	0	2488270848	57	4112
2026-01-02 11:21:10.85	3.76	68.27	-46.5	-47.1	16.7	0.00e+00	0	32	0	2494562304	58	4029
2026-01-02 11:21:11.85	3.03	67.90	-46.6	-47.1	16.7	0.00e+00	0	32	0	2499805184	58	4044
2026-01-02 11:21:12.84	2.34	67.53	-46.5	-47.1	16.8	0.00e+00	0	32	0	2505048064	58	4014
2026-01-02 11:21:13.84	1.66	67.15	-46.8	-47.4	16.7	0.00e+00	0	32	0	2511339520	58	4177
2026-01-02 11:21:14.83	1.01	66.77	-46.8	-47.4	16.8	0.00e+00	0	32	0	2516582400	59	3944
2026-01-02 11:21:15.83	0.38	66.39	-46.2	-46.7	17.0	0.00e+00	0	32	0	2521825280	59	3649
2026-01-02 11:21:16.83	359.77	66.01	-46.1	-46.6	16.9	0.00e+00	0	32	0	2528116736	58	3795
2026-01-02 11:21:17.82	359.19	65.63	-46.6	-47.2	16.7	0.00e+00	0	32	0	2533359616	58	4073
2026-01-02 11:21:18.81	358.63	65.26	-46.6	-47.2	16.7	0.00e+00	0	32	0	2538602496	58	4063
2026-01-02 11:21:19.80	358.09	64.88	-46.6	-47.1	16.7	0.00e+00	0	32	0	2544893952	58	4038
2026-01-02 11:21:20.80	357.56	64.50	-46.6	-47.1	16.8	0.00e+00	0	32	0	2550136832	58	4028
2026-01-02 11:21:21.78	357.06	64.12	-46.3	-46.9	16.8	0.00e+00	0	32	0	2555379712	58	3916
2026-01-02 11:21:22.77	356.57	63.74	-46.4	-46.9	16.8	0.00e+00	0	32	0	2561671168	58	3936
2026-01-02 11:21:23.76	356.09	63.37	-46.6	-47.2	16.7	0.00e+00	0	32	0	2566914048	58	4073
2026-01-02 11:21:24.75	355.63	62.99	-46.7	-47.3	16.7	0.00e+00	0	32	0	2572156928	58	4111
2026-01-02 11:21:25.74	355.19	62.61	-46.8	-47.4	16.7	0.00e+00	0	32	0	2578448384	58	4147
2026-01-02 11:21:26.73	354.76	62.23	-46.8	-47.3	16.7	0.00e+00	0	32	0	2583691264	58	4122
2026-01-02 11:21:27.73	354.33	61.86	-46.6	-47.2	16.7	0.00e+00	0	32	0	2588934144	58	4059
2026-01-02 11:21:28.72	353.93	61.48	-46.5	-47.1	16.8	0.00e+00	0	32	0	2595225600	58	4028
2026-01-02 11:21:29.72	353.53	61.10	-46.6	-47.2	16.7	0.00e+00	0	32	0	2600468480	58	4061
2026-01-02 11:21:30.71	353.15	60.73	-46.8	-47.4	16.7	0.00e+00	0	32	0	2605711360	58	4156
2026-01-02 11:21:31.70	352.78	60.36	-47.1	-47.7	16.7	0.00e+00	0	32	0	2610954240	59	4055
2026-01-02 11:21:32.69	352.42	59.99	-47.2	-47.8	16.7	0.00e+00	0	32	0	2617245696	59	4102
2026-01-02 11:21:33.68	352.07	59.62	-47.3	-47.8	16.7	0.00e+00	0	32	0	2622488576	59	4137
2026-01-02 11:21:34.68	351.73	59.25	-47.1	-47.7	16.8	0.00e+00	0	32	0	2628780032	60	3843
2026-01-02 11:21:35.68	351.39	58.88	-47.2	-47.8	16.7	0.00e+00	0	32	0	2634022912	60	3874
2026-01-02 11:21:36.67	351.07	58.51	-47.3	-47.8	16.7	0.00e+00	0	32	0	2639265792	60	3911
2026-01-02 11:21:37.65	350.76	58.15	-47.2	-47.7	16.8	0.00e+00	0	32	0	2644508672	60	3858
2026-01-02 11:21:38.64	350.46	57.79	-47.2	-47.8	16.7	0.00e+00	0	32	0	2650800128	60	3870
2026-01-02 11:21:39.64	350.16	57.42	-47.3	-47.8	16.7	0.00e+00	0	32	0	2656043008	60	3912
2026-01-02 11:21:40.64	349.87	57.06	-47.3	-47.9	16.7	0.00e+00	0	32	0	2661285888	60	3926
2026-01-02 11:21:41.63	349.59	56.70	-47.6	-48.1	16.6	0.00e+00	0	32	0	2667577344	60	4051
2026-01-02 11:21:42.62	349.32	56.34	-48.2	-48.8	16.5	0.00e+00	0	32	0	2672820224	61	4111
2026-01-02 11:21:43.61	349.05	55.99	-48.2	-48.8	16.5	0.00e+00	0	32	0	2678063104	61	4114
2026-01-02 11:21:44.61	348.79	55.63	-48.0	-48.6	16.6	0.00e+00	0	32	0	2684354560	61	4026
2026-01-02 11:21:45.60	348.54	55.28	-47.9	-48.4	16.6	0.00e+00	0	32	0	2689597440	61	3952
2026-01-02 11:21:46.59	348.29	54.93	-47.9	-48.6	16.6	0.00e+00	0	32	0	2694840320	61	4009
2026-01-02 11:21:47.58	348.05	54.58	-47.9	-48.5	16.6	0.00e+00	0	32	0	2701131776	61	4000
2026-01-02 11:21:48.57	347.82	54.24	-47.7	-48.3	16.7	0.00e+00	0	32	0	2706374656	61	3888
2026-01-02 11:21:49.58	347.59	53.89	-47.4	-47.9	16.8	0.00e+00	0	32	0	2711617536	61	3731
2026-01-02 11:21:50.57	347.36	53.54	-47.3	-47.8	16.8	0.00e+00	0	32	0	2717908992	61	3678
2026-01-02 11:21:51.56	347.15	53.20	-47.3	-47.9	16.8	0.00e+00	0	32	0	2723151872	61	3697
2026-01-02 11:21:52.55	346.93	52.87	-47.4	-48.0	16.8	0.00e+00	0	32	0	2728394752	61	3748
2026-01-02 11:21:53.54	346.73	52.53	-47.4	-48.0	16.8	0.00e+00	0	32	0	2734686208	61	3751
2026-01-02 11:21:54.54	346.52	52.19	-47.4	-47.9	16.8	0.00e+00	0	32	0	2739929088	61	3721
2026-01-02 11:21:55.53	346.32	51.86	-47.4	-47.9	16.8	0.00e+00	0	32	0	2745171968	61	3734
2026-01-02 11:21:56.53	346.13	51.52	-47.2	-47.8	16.8	0.00e+00	0	31	0	2751463424	61	3670
2026-01-02 11:21:57.52	345.94	51.20	-47.3	-47.9	16.8	0.00e+00	0	32	0	2756706304	61	3696
2026-01-02 11:21:58.51	345.75	50.87	-47.4	-47.9	16.8	0.00e+00	0	32	0	2761949184	61	3719
2026-01-02 11:21:59.50	345.57	50.54	-47.1	-47.7	16.8	0.00e+00	0	32	0	2768240640	60	3826
2026-01-02 11:22:00.50	345.39	50.22	-47.0	-47.5	16.8	0.00e+00	0	32	0	2773483520	60	3768
2026-01-02 11:22:01.49	345.22	49.90	-46.8	-47.4	16.9	0.00e+00	0	32	0	2778726400	60	3711
2026-01-02 11:22:02.49	345.05	49.57	-46.7	-47.3	16.9	0.00e+00	0	32	0	2785017856	60	3659
2026-01-02 11:22:03.48	344.88	49.26	-46.8	-47.3	16.9	0.00e+00	0	32	0	2790260736	60	3667
2026-01-02 11:22:04.48	344.72	48.94	-47.1	-47.7	16.7	0.00e+00	0	32	0	2795503616	59	4060
2026-01-02 11:22:05.47	344.56	48.63	-47.1	-47.7	16.7	0.00e+00	0	32	0	2801795072	59	4079
2026-01-02 11:22:06.46	344.40	48.31	-47.3	-47.9	16.6	0.00e+00	0	32	0	2807037952	59	4174
2026-01-02 11:22:07.46	344.25	48.00	-47.2	-47.8	16.7	0.00e+00	0	32	0	2812280832	59	4121
2026-01-02 11:22:08.45	344.10	47.70	-47.1	-47.7	16.7	0.00e+00	0	32	0	2818572288	59	4071
2026-01-02 11:22:09.44	343.95	47.39	-47.2	-47.7	16.7	0.00e+00	0	32	0	2823815168	59	4086
2026-01-02 11:22:10.44	343.81	47.08	-47.2	-47.8	16.7	0.00e+00	0	32	0	2829058048	59	4106
2026-01-02 11:22:11.44	343.66	46.78	-47.1	-47.7	16.7	0.00e+00	0	32	0	2835349504	59	4055
2026-01-02 11:22:12.42	343.53	46.48	-47.2	-47.7	16.7	0.00e+00	0	32	0	2840592384	59	4095
2026-01-02 11:22:13.41	343.39	46.19	-47.3	-47.9	16.7	0.00e+00	0	32	0	2845835264	59	4151
2026-01-02 11:22:14.41	343.26	45.89	-47.2	-47.8	16.7	0.00e+00	0	32	0	2851078144	59	4101
2026-01-02 11:22:15.40	343.13	45.60	-47.1	-47.6	16.7	0.00e+00	0	32	0	2857369600	59	4039
2026-01-02 11:22:16.39	343.00	45.30	-47.0	-47.5	16.7	0.00e+00	0	32	0	2862612480	59	3999
2026-01-02 11:22:17.38	342.87	45.01	-46.9	-47.4	16.8	0.00e+00	0	32	0	2868903936	59	3945
2026-01-02 11:22:18.38	342.75	44.72	-46.9	-47.4	16.8	0.00e+00	0	32	0	2874146816	59	3946
2026-01-02 11:22:19.37	342.63	44.44	-46.8	-47.4	16.8	0.00e+00	0	32	0	2879389696	59	3923
2026-01-02 11:22:20.36	342.51	44.16	-46.8	-47.4	16.8	0.00e+00	0	32	0	2884632576	59	3925
2026-01-02 11:22:21.35	342.39	43.87	-46.9	-47.4	16.8	0.00e+00	0	32	0	2890924032	59	3943
2026-01-02 11:22:22.34	342.28	43.59	-46.8	-47.3	16.8	0.00e+00	0	32	0	2896166912	59	3911
2026-01-02 11:22:23.34	342.17	43.31	-46.8	-47.3	16.8	0.00e+00	0	32	0	2901409792	59	3906
2026-01-02 11:22:24.34	342.06	43.04	-46.8	-47.3	16.8	0.00e+00	0	32	0	2907701248	59	3913
2026-01-02 11:22:25.33	341.95	42.76	-46.8	-47.3	16.8	0.00e+00	0	32	0	2912944128	59	3906
2026-01-02 11:22:26.32	341.84	42.49	-46.8	-47.4	16.8	0.00e+00	0	32	0	2919235584	59	3929
2026-01-02 11:22:27.31	341.74	42.22	-46.9	-47.4	16.7	0.00e+00	0	32	0	2924478464	59	3949
2026-01-02 11:22:28.31	341.63	41.95	-46.9	-47.4	16.8	0.00e+00	0	31	0	2929721344	59	3957
2026-01-02 11:22:29.31	341.53	41.68	-46.7	-47.2	16.8	0.00e+00	0	32	0	2934964224	59	3858
2026-01-02 11:22:30.30	341.43	41.41	-46.7	-47.2	16.9	0.00e+00	0	32	0	2941255680	59	3859
2026-01-02 11:22:31.29	341.33	41.15	-46.5	-47.1	16.9	0.00e+00	0	32	0	2946498560	59	3784
2026-01-02 11:22:32.29	341.24	40.89	-46.5	-47.1	16.9	0.00e+00	0	32	0	2952790016	59	3782
2026-01-02 11:22:33.28	341.14	40.63	-46.2	-46.7	17.0	0.00e+00	0	32	0	2958032896	59	3641
2026-01-02 11:22:34.28	341.05	40.37	-46.2	-46.7	16.9	0.00e+00	0	32	0	2963275776	58	3866
2026-01-02 11:22:35.27	340.96	40.11	-46.1	-46.7	16.9	0.00e+00	0	32	0	2969567232	58	3827
2026-01-02 11:22:36.27	340.86	39.86	-46.0	-46.5	16.9	0.00e+00	0	32	0	2974810112	58	3760
2026-01-02 11:22:37.26	340.78	39.60	-46.1	-46.6	16.9	0.00e+00	0	32	0	2980052992	58	3795
2026-01-02 11:22:38.25	340.69	39.35	-46.1	-46.7	16.9	0.00e+00	0	32	0	2985295872	58	3838
2026-01-02 11:22:39.25	340.60	39.10	-46.2	-46.7	16.9	0.00e+00	0	32	0	2991587328	58	3851
2026-01-02 11:22:40.24	340.52	38.85	-46.2	-46.7	16.8	0.00e+00	0	32	0	2996830208	58	3858
2026-01-02 11:22:41.23	340.44	38.61	-46.2	-46.8	16.9	0.00e+00	0	32	0	3003121664	58	3875
2026-01-02 11:22:42.22	340.35	38.37	-46.3	-46.8	16.8	0.00e+00	0	32	0	3008364544	58	3891
2026-01-02 11:22:43.22	340.27	38.12	-46.4	-46.9	16.8	0.00e+00	0	32	0	3013607424	58	3956
2026-01-02 11:22:44.21	340.19	37.88	-46.4	-46.9	16.9	0.00e+00	0	32	0	3018850304	58	3955
2026-01-02 11:22:45.20	340.12	37.64	-46.3	-46.9	16.8	0.00e+00	0	32	0	3025141760	58	3939
2026-01-02 11:22:46.19	340.04	37.41	-46.4	-46.9	16.8	0.00e+00	0	32	0	3030384640	58	3943
2026-01-02 11:22:47.18	339.96	37.17	-46.4	-47.0	16.8	0.00e+00	0	32	0	3035627520	58	3972
2026-01-02 11:22:48.18	339.89	36.93	-46.4	-46.9	16.8	0.00e+00	0	32	0	3041918976	58	3935
2026-01-02 11:22:49.18	339.81	36.70	-46.3	-46.9	16.8	0.00e+00	0	32	0	3047161856	58	3917
2026-01-02 11:22:50.18	339.74	36.47	-46.3	-46.8	16.8	0.00e+00	0	32	0	3053453312	58	3902
2026-01-02 11:22:51.16	339.67	36.24	-46.3	-46.8	16.8	0.00e+00	0	32	0	3058696192	58	3909
2026-01-02 11:22:52.16	339.60	36.01	-46.4	-47.0	16.8	0.00e+00	0	32	0	3063939072	58	3961
2026-01-02 11:22:53.15	339.53	35.78	-46.4	-47.0	16.8	0.00e+00	0	32	0	3069181952	58	3973
2026-01-02 11:22:54.14	339.46	35.56	-46.5	-47.0	16.8	0.00e+00	0	32	0	3075473408	58	3997
2026-01-02 11:22:55.13	339.40	35.34	-46.5	-47.1	16.8	0.00e+00	0	32	0	3080716288	58	4019
2026-01-02 11:22:56.13	339.33	35.11	-46.6	-47.2	16.7	0.00e+00	0	32	0	3085959168	58	4070
2026-01-02 11:22:57.12	339.26	34.89	-46.7	-47.2	16.7	0.00e+00	0	32	0	3092250624	58	4088
2026-01-02 11:22:58.11	339.20	34.68	-46.7	-47.3	16.7	0.00e+00	0	32	0	3097493504	58	4104
2026-01-02 11:22:59.10	339.14	34.46	-46.7	-47.2	16.7	0.00e+00	0	32	0	3102736384	58	4098
2026-01-02 11:23:00.09	339.07	34.24	-46.7	-47.3	16.7	0.00e+00	0	32	0	3109027840	58	4108
2026-01-02 11:23:01.08	339.01	34.03	-46.8	-47.4	16.7	0.00e+00	0	32	0	3114270720	58	4149
2026-01-02 11:23:02.08	338.95	33.82	-46.8	-47.3	16.7	0.00e+00	0	32	0	3119513600	58	4136
2026-01-02 11:23:03.07	338.89	33.60	-46.7	-47.3	16.7	0.00e+00	0	32	0	3125805056	58	4112
2026-01-02 11:23:04.07	338.83	33.39	-46.8	-47.3	16.7	0.00e+00	0	32	0	3131047936	58	4137
2026-01-02 11:23:05.06	338.77	33.18	-46.7	-47.3	16.7	0.00e+00	0	32	0	3136290816	58	4106
2026-01-02 11:23:05.75	338.73	33.04	-46.7	-47.3	16.7	0.00e+00	0	32	0	3142582272	58	4125
2026-01-02 11:23:07.16	338.65	32.75	-46.8	-47.4	16.7	0.00e+00	0	32	0	3149922304	58	4150
2026-01-02 11:23:07.87	338.61	32.60	-46.8	-47.4	16.7	0.00e+00	0	32	0	3154116608	58	4176
2026-01-02 11:23:09.15	338.54	32.34	-46.8	-47.4	16.7	0.00e+00	0	32	0	3161456640	58	4155
2026-01-02 11:23:09.88	338.50	32.19	-46.8	-47.4	16.6	0.00e+00	0	32	0	3165650944	58	4174
2026-01-02 11:23:11.16	338.43	31.93	-46.9	-47.4	16.8	0.00e+00	0	32	0	3172990976	59	3953
2026-01-02 11:23:11.90	338.39	31.78	-46.9	-47.5	16.7	0.00e+00	0	32	0	3177185280	59	3973
2026-01-02 11:23:13.18	338.32	31.53	-46.9	-47.5	16.7	0.00e+00	0	32	0	3184525312	59	3979
2026-01-02 11:23:13.92	338.28	31.38	-47.0	-47.6	16.7	0.00e+00	0	32	0	3187671040	59	4007
2026-01-02 11:23:15.20	338.22	31.13	-46.9	-47.5	16.7	0.00e+00	0	32	0	3195011072	59	3980
2026-01-02 11:23:15.93	338.18	30.99	-46.9	-47.5	16.7	0.00e+00	0	32	0	3199205376	59	3971
2026-01-02 11:23:17.21	338.12	30.74	-46.8	-47.3	16.8	0.00e+00	0	32	0	3206545408	59	3908
2026-01-02 11:23:17.96	338.08	30.59	-46.8	-47.3	16.8	0.00e+00	0	32	0	3210739712	59	3899
2026-01-02 11:23:19.24	338.02	30.35	-46.8	-47.3	16.8	0.00e+00	0	32	0	3218079744	59	3901
2026-01-02 11:23:19.99	337.98	30.21	-46.7	-47.3	16.8	0.00e+00	0	32	0	3222274048	59	3880
2026-01-02 11:23:21.27	337.92	29.96	-46.8	-47.4	16.8	0.00e+00	0	32	0	3229614080	59	3915
2026-01-02 11:23:22.03	337.88	29.82	-46.7	-47.2	16.8	0.00e+00	0	32	0	3233808384	59	3852
2026-01-02 11:23:23.30	337.83	29.58	-46.6	-47.1	16.8	0.00e+00	0	32	0	3241148416	59	3821
2026-01-02 11:23:24.02	337.79	29.45	-46.6	-47.2	16.8	0.00e+00	0	32	0	3245342720	59	3833
2026-01-02 11:23:25.30	337.73	29.21	-46.6	-47.1	16.8	0.00e+00	0	32	0	3251634176	59	3816
2026-01-02 11:23:26.04	337.70	29.08	-46.6	-47.2	16.8	0.00e+00	0	32	0	3255828480	59	3833
2026-01-02 11:23:27.32	337.65	28.85	-46.8	-47.3	16.8	0.00e+00	0	32	0	3263168512	59	3904
2026-01-02 11:23:28.05	337.61	28.71	-46.8	-47.3	16.8	0.00e+00	0	32	0	3267362816	59	3905
2026-01-02 11:23:29.32	337.56	28.49	-46.8	-47.4	16.8	0.00e+00	0	32	0	3274702848	59	3918
2026-01-02 11:23:30.06	337.53	28.35	-46.9	-47.5	16.7	0.00e+00	0	32	0	3278897152	59	3967
2026-01-02 11:23:31.33	337.47	28.13	-47.0	-47.5	16.7	0.00e+00	0	32	0	3286237184	59	3999
2026-01-02 11:23:32.06	337.44	28.00	-46.9	-47.5	16.7	0.00e+00	0	32	0	3290431488	59	3972
2026-01-02 11:23:33.35	337.39	27.77	-47.0	-47.6	16.7	0.00e+00	0	32	0	3297771520	59	4040
2026-01-02 11:23:34.07	337.36	27.65	-47.0	-47.6	16.7	0.00e+00	0	32	0	3301965824	59	4025
2026-01-02 11:23:35.34	337.31	27.43	-47.0	-47.6	16.7	0.00e+00	0	32	0	3308257280	59	4009
2026-01-02 11:23:36.11	337.28	27.30	-46.9	-47.5	16.7	0.00e+00	0	32	0	3312451584	59	3977
2026-01-02 11:23:37.39	337.23	27.08	-46.9	-47.4	16.8	0.00e+00	0	32	0	3319791616	59	3958
2026-01-02 11:23:38.16	337.20	26.95	-46.9	-47.5	16.7	0.00e+00	0	32	0	3323985920	59	3963
2026-01-02 11:23:39.44	337.15	26.73	-46.8	-47.4	16.8	0.00e+00	0	32	0	3331325952	59	3942
2026-01-02 11:23:40.15	337.12	26.61	-46.9	-47.4	16.7	0.00e+00	0	32	0	3335520256	59	3942
2026-01-02 11:23:41.50	337.07	26.39	-46.9	-47.4	16.7	0.00e+00	0	32	0	3342860288	59	3952
2026-01-02 11:23:42.21	337.05	26.27	-46.9	-47.4	16.7	0.00e+00	0	32	0	3347054592	59	3953
2026-01-02 11:23:43.52	337.00	26.06	-46.9	-47.5	16.7	0.00e+00	0	31	0	3354394624	59	3971
2026-01-02 11:23:44.23	336.97	25.94	-46.9	-47.5	16.7	0.00e+00	0	32	0	3358588928	59	3962
2026-01-02 11:23:45.54	336.93	25.73	-46.9	-47.5	16.7	0.00e+00	0	32	0	3365928960	59	3979
2026-01-02 11:23:46.24	336.90	25.61	-47.0	-47.5	16.7	0.00e+00	0	32	0	3370123264	59	4002
2026-01-02 11:23:47.54	336.86	25.40	-47.0	-47.6	16.7	0.00e+00	0	32	0	3377463296	59	4009
2026-01-02 11:23:48.26	336.83	25.29	-47.0	-47.5	16.7	0.00e+00	0	32	0	3381657600	59	3996
2026-01-02 11:23:49.54	336.79	25.09	-47.0	-47.6	16.7	0.00e+00	0	32	0	3388997632	59	4024
2026-01-02 11:23:50.27	336.77	24.97	-47.1	-47.6	16.7	0.00e+00	0	32	0	3392143360	59	4048
2026-01-02 11:23:51.55	336.72	24.77	-47.1	-47.6	16.7	0.00e+00	0	32	0	3399483392	59	4038
2026-01-02 11:23:52.30	336.70	24.65	-47.1	-47.6	16.7	0.00e+00	0	32	0	3403677696	59	4047
2026-01-02 11:23:53.57	336.66	24.46	-47.1	-47.7	16.7	0.00e+00	0	32	0	3411017728	59	4058
2026-01-02 11:23:54.31	336.63	24.34	-47.2	-47.8	16.6	0.00e+00	0	32	0	3415212032	59	4106
2026-01-02 11:23:55.59	336.59	24.15	-47.2	-47.8	16.6	0.00e+00	0	32	0	3422552064	59	4110
2026-01-02 11:23:56.31	336.57	24.04	-47.2	-47.8	16.6	0.00e+00	0	32	0	3426746368	59	4144
2026-01-02 11:23:57.59	336.53	23.84	-47.3	-47.8	16.6	0.00e+00	0	32	0	3434086400	59	4144
2026-01-02 11:23:58.36	336.51	23.73	-47.2	-47.8	16.6	0.00e+00	0	32	0	3438280704	59	4142
2026-01-02 11:23:59.64	336.47	23.54	-47.3	-47.9	16.6	0.00e+00	0	32	0	3445620736	59	4178
2026-01-02 11:24:00.39	336.44	23.43	-47.3	-47.9	16.6	0.00e+00	0	32	0	3449815040	59	4155
2026-01-02 11:24:01.68	336.41	23.23	-47.3	-47.9	16.6	0.00e+00	0	32	0	3457155072	59	4153
2026-01-02 11:24:02.43	336.38	23.12	-47.2	-47.8	16.6	0.00e+00	0	32	0	3461349376	59	4138
2026-01-02 11:24:03.72	336.35	22.94	-47.2	-47.8	16.6	0.00e+00	0	32	0	3467640832	59	4114
2026-01-02 11:24:04.44	336.33	22.83	-47.3	-47.8	16.6	0.00e+00	0	32	0	3471835136	59	4145
2026-01-02 11:24:05.71	336.29	22.65	-47.3	-47.8	16.6	0.00e+00	0	32	0	3479175168	59	4144
2026-01-02 11:24:06.44	336.27	22.54	-47.3	-47.9	16.6	0.00e+00	0	32	0	3483369472	59	4154
2026-01-02 11:24:07.72	336.23	22.36	-47.4	-48.0	16.5	0.00e+00	0	32	0	3490709504	59	4200
2026-01-02 11:24:08.44	336.21	22.26	-47.0	-47.6	16.7	0.00e+00	0	32	0	3494903808	60	3803
2026-01-02 11:24:09.72	336.18	22.08	-47.1	-47.6	16.7	0.00e+00	0	32	0	3502243840	60	3816
2026-01-02 11:24:10.45	336.16	21.97	-47.0	-47.6	16.7	0.00e+00	0	32	0	3506438144	60	3799
2026-01-02 11:24:11.73	336.12	21.79	-47.0	-47.6	16.7	0.00e+00	0	32	0	3513778176	60	3807
2026-01-02 11:24:12.45	336.11	21.69	-47.1	-47.7	16.7	0.00e+00	0	32	0	3516923904	60	3830
2026-01-02 11:24:13.75	336.07	21.51	-47.2	-47.7	16.7	0.00e+00	0	32	0	3524263936	60	3868
2026-01-02 11:24:14.46	336.05	21.42	-47.2	-47.8	16.6	0.00e+00	0	32	0	3528458240	60	3880
2026-01-02 11:24:15.78	336.02	21.24	-47.2	-47.8	16.7	0.00e+00	0	32	0	3535798272	60	3879
2026-01-02 11:24:16.48	336.00	21.14	-47.2	-47.7	16.7	0.00e+00	0	32	0	3539992576	60	3867
2026-01-02 11:24:17.84	335.97	20.96	-47.2	-47.8	16.7	0.00e+00	0	32	0	3547332608	60	3875
2026-01-02 11:24:18.54	335.95	20.86	-47.1	-47.7	16.7	0.00e+00	0	32	0	3551526912	60	3861
2026-01-02 11:24:19.90	335.92	20.68	-47.3	-47.9	16.6	0.00e+00	0	32	0	3558866944	60	3919
2026-01-02 11:24:20.60	335.90	20.59	-47.3	-47.9	16.6	0.00e+00	0	32	0	3563061248	60	3952
2026-01-02 11:24:21.92	335.87	20.41	-47.3	-47.9	16.6	0.00e+00	0	32	0	3570401280	60	3932
2026-01-02 11:24:22.62	335.85	20.32	-47.4	-48.0	16.6	0.00e+00	0	32	0	3574595584	60	3976
2026-01-02 11:24:23.95	335.82	20.15	-47.5	-48.0	16.6	0.00e+00	0	32	0	3581935616	60	4001
2026-01-02 11:24:24.66	335.80	20.05	-47.4	-48.0	16.6	0.00e+00	0	32	0	3586129920	60	3989
2026-01-02 11:24:25.96	335.77	19.89	-47.5	-48.1	16.6	0.00e+00	0	32	0	3593469952	60	4033
2026-01-02 11:24:26.67	335.76	19.79	-47.5	-48.1	16.6	0.00e+00	0	32	0	3597664256	60	4030
2026-01-02 11:24:27.98	335.73	19.63	-47.6	-48.2	16.5	0.00e+00	0	32	0	3605004288	60	4073
2026-01-02 11:24:28.69	335.71	19.53	-47.7	-48.3	16.5	0.00e+00	0	32	0	3609198592	60	4105
2026-01-02 11:24:30.00	335.68	19.37	-47.6	-48.2	16.5	0.00e+00	0	32	0	3615490048	60	4077
2026-01-02 11:24:30.71	335.67	19.28	-47.6	-48.2	16.5	0.00e+00	0	32	0	3619684352	60	4081
2026-01-02 11:24:32.01	335.64	19.12	-47.6	-48.2	16.5	0.00e+00	0	32	0	3627024384	60	4095
2026-01-02 11:24:32.72	335.62	19.03	-47.6	-48.2	16.5	0.00e+00	0	32	0	3631218688	60	4095
2026-01-02 11:24:34.04	335.59	18.86	-47.8	-48.4	16.5	0.00e+00	0	32	0	3638558720	60	4163
2026-01-02 11:24:34.75	335.58	18.77	-47.8	-48.4	16.5	0.00e+00	0	32	0	3642753024	60	4175
2026-01-02 11:24:36.05	335.55	18.61	-47.8	-48.4	16.5	0.00e+00	0	32	0	3650093056	60	4160
2026-01-02 11:24:36.76	335.54	18.53	-47.8	-48.4	16.5	0.00e+00	0	32	0	3654287360	60	4191
2026-01-02 11:24:38.07	335.51	18.37	-47.8	-48.4	16.5	0.00e+00	0	32	0	3661627392	60	4177
2026-01-02 11:24:38.77	335.50	18.28	-47.8	-48.4	16.4	0.00e+00	0	32	0	3665821696	60	4187
2026-01-02 11:24:40.09	335.47	18.12	-47.8	-48.4	16.4	0.00e+00	0	32	0	3673161728	60	4187
2026-01-02 11:24:40.80	335.45	18.04	-47.8	-48.5	16.4	0.00e+00	0	32	0	3676307456	60	4197
2026-01-02 11:24:42.09	335.43	17.88	-47.9	-48.6	16.5	0.00e+00	0	32	0	3683647488	61	4007
2026-01-02 11:24:42.80	335.41	17.80	-48.0	-48.6	16.5	0.00e+00	0	32	0	3687841792	61	4030
