passes_logs/2026/01/02/R3.2S_Murmansk/R3.2S_Murmansk__20260102_235551_SUOMI_NPP_rec.log

#Pass ID: 20260102_235551_SUOMI NPP
#Satellite: SUOMI NPP
#Configuration: NPP
#almurnet v.1.7.20251203
#Start time: 2026-01-02 23:55:52

#Version: 2.2.20231116
#Station: R3.2S_Murmansk
#Location: 33.079688 lon 68.888172 lat
#TLE: 1 37849U 11061A   26001.07732418  .00000182  00000+0  10735-3 0  9990
#TLE: 2 37849  98.7795 303.2470 0002580  87.2016 272.9455 14.19520779734739

#Time	Az	El	Level	Level2	SNR	BER	BlckErr	Temp	State	Recorded	gain1	gain2
2026-01-02 23:55:52.46	21.87	2.05	-59.9	-75.2	3.8	1.49e+00	0	29	0	0	86	20436
2026-01-02 23:55:53.46	21.89	2.11	-59.9	-74.8	3.8	1.49e+00	0	29	104	0	84	21810
2026-01-02 23:55:54.46	21.92	2.17	-59.9	-74.6	3.8	1.49e+00	0	29	104	0	84	21420
2026-01-02 23:55:55.46	21.95	2.24	-59.9	-74.4	3.8	1.49e+00	0	29	104	0	84	20994
2026-01-02 23:55:56.45	21.97	2.30	-59.8	-74.2	3.8	1.49e+00	0	29	104	0	84	20462
2026-01-02 23:55:57.45	22.00	2.36	-59.8	-74.0	3.8	1.49e+00	0	29	104	0	84	19954
2026-01-02 23:55:58.45	22.03	2.43	-59.8	-73.9	3.8	1.49e+00	0	29	104	0	84	19675
2026-01-02 23:55:59.45	22.06	2.49	-59.8	-73.9	3.8	1.49e+00	0	29	104	0	84	19675
2026-01-02 23:56:00.46	22.08	2.55	-59.8	-73.9	3.8	1.49e+00	0	29	104	0	84	19669
2026-01-02 23:56:01.46	22.11	2.62	-59.9	-73.9	3.8	1.49e+00	0	29	104	0	84	19819
2026-01-02 23:56:02.45	22.14	2.68	-59.9	-74.0	3.8	1.49e+00	0	29	104	0	84	19899
2026-01-02 23:56:03.45	22.17	2.75	-59.8	-74.0	3.8	1.49e+00	0	29	104	0	84	19935
2026-01-02 23:56:04.44	22.19	2.81	-59.8	-73.9	3.8	1.49e+00	0	29	104	0	84	19706
2026-01-02 23:56:05.44	22.22	2.87	-59.8	-73.7	3.8	1.49e+00	0	29	104	0	84	19212
2026-01-02 23:56:06.44	22.25	2.94	-59.8	-73.1	3.9	1.49e+00	0	29	104	0	84	18080
2026-01-02 23:56:07.44	22.28	3.00	-59.8	-72.5	4.1	1.48e+00	0	29	0	0	84	16869
2026-01-02 23:56:08.44	22.30	3.07	-59.7	-72.1	4.2	1.44e+00	0	30	0	0	84	15971
2026-01-02 23:56:09.44	22.33	3.13	-59.7	-71.6	4.3	1.37e+00	0	29	0	0	84	15170
2026-01-02 23:56:10.44	22.36	3.20	-59.7	-71.2	4.4	1.33e+00	82	29	0	0	84	14436
2026-01-02 23:56:11.45	22.39	3.26	-59.7	-70.8	4.5	9.79e-01	0	30	0	2097152	84	13811
2026-01-02 23:56:12.45	22.42	3.33	-59.6	-70.4	4.7	8.85e-01	0	29	0	4194304	84	13138
2026-01-02 23:56:13.45	22.45	3.40	-59.6	-70.4	4.7	8.50e-01	0	29	0	6291456	84	13198
2026-01-02 23:56:14.45	22.48	3.46	-59.6	-70.1	4.8	8.00e-01	0	29	0	7340032	84	12731
2026-01-02 23:56:15.46	22.50	3.53	-59.6	-70.2	4.8	7.95e-01	0	30	0	9437184	84	12851
2026-01-02 23:56:16.46	22.53	3.59	-59.6	-70.1	4.8	7.72e-01	0	30	0	11534336	84	12682
2026-01-02 23:56:17.45	22.56	3.66	-59.6	-69.8	5.0	7.13e-01	0	30	0	13631488	84	12373
2026-01-02 23:56:18.45	22.59	3.73	-59.5	-69.0	5.4	5.52e-01	0	30	0	15728640	84	11173
2026-01-02 23:56:19.45	22.62	3.79	-59.4	-68.0	6.0	3.68e-01	0	29	0	16777216	84	9981
2026-01-02 23:56:20.46	22.65	3.86	-59.2	-66.9	6.8	1.99e-01	0	30	0	18874368	84	8834
2026-01-02 23:56:21.45	22.68	3.93	-59.0	-65.8	7.8	6.79e-02	0	30	0	20971520	84	7738
2026-01-02 23:56:22.44	22.71	3.99	-58.4	-64.1	9.1	1.67e-02	0	30	0	23068672	83	6790
2026-01-02 23:56:23.44	22.74	4.06	-58.2	-63.2	9.8	5.47e-03	0	30	0	25165824	83	6126
2026-01-02 23:56:24.44	22.77	4.13	-57.7	-62.1	10.8	1.61e-03	0	30	0	26214400	82	5660
2026-01-02 23:56:25.44	22.80	4.19	-57.4	-61.2	11.4	1.09e-04	0	30	0	28311552	81	5439
2026-01-02 23:56:26.45	22.83	4.26	-57.0	-60.4	12.0	1.52e-05	0	30	0	30408704	80	5241
2026-01-02 23:56:27.45	22.86	4.33	-56.7	-59.9	12.4	2.20e-06	0	30	0	32505856	80	4945
2026-01-02 23:56:28.45	22.89	4.40	-56.6	-59.6	12.6	0.00e+00	0	30	0	33554432	79	5061
2026-01-02 23:56:29.45	22.92	4.47	-56.5	-59.4	12.7	0.00e+00	0	30	0	35651584	79	4978
2026-01-02 23:56:30.45	22.95	4.53	-56.3	-59.0	13.0	7.00e-07	0	30	0	37748736	79	4746
2026-01-02 23:56:31.45	22.98	4.60	-56.2	-58.9	13.0	0.00e+00	0	30	0	39845888	78	4963
2026-01-02 23:56:32.45	23.01	4.67	-56.3	-59.1	12.9	0.00e+00	0	30	0	41943040	78	5049
2026-01-02 23:56:33.44	23.04	4.74	-56.4	-59.3	12.8	0.00e+00	0	30	0	42991616	78	5179
2026-01-02 23:56:34.44	23.07	4.81	-56.6	-59.7	12.5	0.00e+00	0	30	0	45088768	78	5409
2026-01-02 23:56:35.45	23.11	4.88	-56.7	-59.9	12.3	3.00e-06	0	30	0	47185920	78	5566
2026-01-02 23:56:36.45	23.14	4.95	-57.2	-60.8	11.7	4.50e-06	0	30	0	49283072	79	5846
2026-01-02 23:56:37.46	23.17	5.02	-57.4	-61.4	11.3	3.43e-05	0	30	0	51380224	80	5890
2026-01-02 23:56:38.46	23.20	5.09	-57.3	-61.1	11.5	1.55e-04	0	30	0	52428800	80	5711
2026-01-02 23:56:39.46	23.23	5.16	-57.4	-61.2	11.5	2.20e-06	0	30	0	54525952	80	5736
2026-01-02 23:56:40.47	23.27	5.23	-57.7	-61.9	11.0	1.51e-02	0	30	0	56623104	82	5569
2026-01-02 23:56:41.47	23.30	5.30	-57.8	-61.9	10.9	4.31e-02	0	30	0	58720256	82	5540
2026-01-02 23:56:42.47	23.33	5.37	-57.1	-60.7	12.1	0.00e+00	0	30	0	60817408	79	5728
2026-01-02 23:56:43.47	23.36	5.44	-58.1	-63.0	9.8	1.84e-01	0	30	0	61865984	82	6276
2026-01-02 23:56:44.48	23.39	5.51	-56.0	-58.5	13.4	0.00e+00	0	30	0	63963136	78	4721
2026-01-02 23:56:45.47	23.43	5.58	-55.8	-58.1	13.6	0.00e+00	0	30	0	66060288	78	4541
2026-01-02 23:56:46.47	23.46	5.65	-55.9	-58.3	13.5	0.00e+00	0	30	0	68157440	78	4636
2026-01-02 23:56:47.47	23.49	5.72	-55.7	-58.0	13.6	0.00e+00	0	30	0	70254592	77	4739
2026-01-02 23:56:48.47	23.52	5.80	-55.7	-57.9	13.7	0.00e+00	0	30	0	71303168	77	4704
2026-01-02 23:56:49.48	23.56	5.87	-55.7	-58.0	13.6	0.00e+00	0	30	0	73400320	77	4736
2026-01-02 23:56:50.48	23.59	5.94	-55.6	-57.8	13.8	0.00e+00	0	30	0	75497472	77	4614
2026-01-02 23:56:51.49	23.63	6.01	-55.5	-57.7	13.8	0.00e+00	0	30	0	77594624	77	4589
2026-01-02 23:56:52.49	23.66	6.09	-55.5	-57.7	13.8	0.00e+00	0	30	0	78643200	77	4570
2026-01-02 23:56:53.49	23.69	6.16	-55.6	-57.7	13.8	0.00e+00	0	30	0	80740352	77	4593
2026-01-02 23:56:54.49	23.73	6.23	-55.5	-57.7	13.8	0.00e+00	0	30	0	82837504	77	4567
2026-01-02 23:56:55.50	23.76	6.31	-55.4	-57.5	14.0	0.00e+00	0	30	0	84934656	77	4447
2026-01-02 23:56:56.51	23.79	6.38	-55.5	-57.6	13.9	0.00e+00	0	30	0	87031808	77	4531
2026-01-02 23:56:57.50	23.83	6.45	-55.4	-57.5	13.9	0.00e+00	0	30	0	88080384	77	4491
2026-01-02 23:56:58.50	23.86	6.53	-55.4	-57.5	14.0	0.00e+00	0	30	0	90177536	77	4466
2026-01-02 23:56:59.50	23.90	6.60	-55.4	-57.5	14.0	0.00e+00	0	30	0	92274688	77	4491
2026-01-02 23:57:00.50	23.93	6.67	-55.4	-57.4	14.0	0.00e+00	0	30	0	94371840	77	4437
2026-01-02 23:57:01.51	23.97	6.75	-55.4	-57.5	14.0	0.00e+00	0	30	0	96468992	77	4477
2026-01-02 23:57:02.51	24.00	6.82	-55.5	-57.6	13.9	0.00e+00	0	30	0	97517568	77	4520
2026-01-02 23:57:03.50	24.04	6.90	-55.3	-57.4	14.1	0.00e+00	0	30	0	99614720	77	4396
2026-01-02 23:57:04.50	24.07	6.97	-55.5	-57.6	14.0	0.00e+00	0	30	0	101711872	77	4538
2026-01-02 23:57:05.49	24.11	7.04	-55.4	-57.5	14.0	0.00e+00	0	30	0	103809024	77	4456
2026-01-02 23:57:06.49	24.14	7.12	-55.4	-57.4	14.1	0.00e+00	0	30	0	105906176	77	4422
2026-01-02 23:57:07.49	24.18	7.20	-55.4	-57.5	14.0	0.00e+00	0	30	0	106954752	77	4445
2026-01-02 23:57:08.48	24.21	7.27	-55.3	-57.3	14.1	0.00e+00	0	30	0	109051904	77	4390
2026-01-02 23:57:09.48	24.25	7.35	-55.3	-57.2	14.2	0.00e+00	0	30	0	111149056	77	4338
2026-01-02 23:57:10.48	24.29	7.42	-55.5	-57.5	14.0	0.00e+00	0	31	0	113246208	77	4493
2026-01-02 23:57:11.47	24.32	7.50	-55.3	-57.3	14.1	0.00e+00	0	30	0	114294784	77	4382
2026-01-02 23:57:12.47	24.36	7.57	-55.4	-57.4	14.1	0.00e+00	0	30	0	116391936	77	4440
2026-01-02 23:57:13.47	24.40	7.65	-55.3	-57.3	14.1	0.00e+00	0	30	0	118489088	77	4391
2026-01-02 23:57:14.47	24.43	7.73	-55.4	-57.4	14.1	0.00e+00	0	31	0	120586240	77	4425
2026-01-02 23:57:15.47	24.47	7.80	-55.3	-57.3	14.2	0.00e+00	0	30	0	122683392	77	4359
2026-01-02 23:57:16.47	24.51	7.88	-55.3	-57.3	14.1	0.00e+00	0	30	0	123731968	77	4371
2026-01-02 23:57:17.45	24.54	7.96	-55.2	-57.1	14.3	0.00e+00	0	30	0	125829120	76	4502
2026-01-02 23:57:18.45	24.58	8.04	-55.4	-57.5	14.0	0.00e+00	0	30	0	127926272	76	4712
2026-01-02 23:57:19.44	24.62	8.11	-55.4	-57.3	14.1	0.00e+00	0	30	0	130023424	76	4651
2026-01-02 23:57:20.44	24.66	8.19	-55.4	-57.4	14.1	0.00e+00	0	30	0	131072000	76	4673
2026-01-02 23:57:21.44	24.70	8.27	-55.3	-57.3	14.1	0.00e+00	0	30	0	133169152	76	4642
2026-01-02 23:57:22.45	24.73	8.35	-55.2	-57.2	14.2	0.00e+00	0	30	0	135266304	76	4549
2026-01-02 23:57:23.44	24.77	8.43	-55.3	-57.2	14.2	0.00e+00	0	30	0	137363456	76	4572
2026-01-02 23:57:24.43	24.81	8.51	-55.3	-57.3	14.1	0.00e+00	0	30	0	139460608	76	4623
2026-01-02 23:57:25.43	24.85	8.59	-55.2	-57.1	14.2	0.00e+00	0	31	0	140509184	76	4498
2026-01-02 23:57:26.43	24.89	8.67	-55.2	-57.1	14.2	0.00e+00	0	30	0	142606336	76	4545
2026-01-02 23:57:27.42	24.93	8.75	-55.2	-57.1	14.3	0.00e+00	0	30	0	144703488	76	4530
2026-01-02 23:57:28.42	24.97	8.83	-55.2	-57.1	14.3	0.00e+00	0	31	0	146800640	76	4506
2026-01-02 23:57:29.41	25.01	8.90	-55.1	-57.0	14.3	0.00e+00	0	30	0	147849216	76	4476
2026-01-02 23:57:30.40	25.05	8.98	-55.2	-57.1	14.2	0.00e+00	0	31	0	149946368	76	4541
2026-01-02 23:57:31.39	25.09	9.07	-55.1	-57.0	14.3	0.00e+00	0	31	0	152043520	76	4468
2026-01-02 23:57:32.39	25.13	9.15	-55.2	-57.1	14.3	0.00e+00	0	30	0	154140672	76	4513
2026-01-02 23:57:33.38	25.17	9.23	-55.1	-56.9	14.4	0.00e+00	0	31	0	156237824	76	4401
2026-01-02 23:57:34.38	25.21	9.31	-55.1	-56.9	14.4	0.00e+00	0	30	0	157286400	76	4420
2026-01-02 23:57:35.36	25.25	9.39	-55.0	-56.8	14.4	0.00e+00	0	31	0	159383552	76	4381
2026-01-02 23:57:36.36	25.29	9.47	-54.9	-56.7	14.5	0.00e+00	0	31	0	161480704	76	4319
2026-01-02 23:57:37.35	25.33	9.55	-55.0	-56.8	14.5	0.00e+00	0	31	0	163577856	76	4365
2026-01-02 23:57:38.35	25.37	9.64	-55.0	-56.8	14.4	0.00e+00	0	31	0	164626432	76	4356
2026-01-02 23:57:39.33	25.41	9.72	-55.1	-56.9	14.4	0.00e+00	0	31	0	166723584	76	4397
2026-01-02 23:57:40.33	25.45	9.80	-55.0	-56.9	14.4	0.00e+00	0	30	0	168820736	76	4397
2026-01-02 23:57:41.33	25.50	9.88	-55.0	-56.8	14.4	0.00e+00	0	31	0	170917888	76	4359
2026-01-02 23:57:42.33	25.54	9.97	-54.9	-56.6	14.5	0.00e+00	0	31	0	173015040	76	4282
2026-01-02 23:57:43.34	25.58	10.05	-54.9	-56.7	14.5	0.00e+00	0	30	0	174063616	76	4298
2026-01-02 23:57:44.33	25.62	10.14	-54.9	-56.6	14.5	0.00e+00	0	31	0	176160768	76	4278
2026-01-02 23:57:45.33	25.67	10.22	-54.9	-56.6	14.6	0.00e+00	0	31	0	178257920	76	4264
2026-01-02 23:57:46.33	25.71	10.31	-54.9	-56.6	14.6	0.00e+00	0	31	0	180355072	76	4274
2026-01-02 23:57:47.32	25.75	10.39	-55.1	-56.9	14.4	0.00e+00	0	31	0	182452224	76	4408
2026-01-02 23:57:48.32	25.80	10.48	-54.7	-56.3	14.7	0.00e+00	0	31	0	183500800	76	4138
2026-01-02 23:57:49.32	25.84	10.56	-54.7	-56.3	14.6	0.00e+00	0	31	0	185597952	75	4387
2026-01-02 23:57:50.32	25.88	10.65	-54.7	-56.4	14.5	0.00e+00	0	31	0	187695104	75	4413
2026-01-02 23:57:51.32	25.93	10.73	-54.6	-56.3	14.6	0.00e+00	0	31	0	189792256	75	4344
2026-01-02 23:57:52.31	25.97	10.82	-54.7	-56.4	14.5	0.00e+00	0	31	0	190840832	75	4427
2026-01-02 23:57:53.31	26.02	10.91	-54.7	-56.3	14.6	0.00e+00	0	31	0	192937984	75	4377
2026-01-02 23:57:54.31	26.06	10.99	-54.7	-56.4	14.6	0.00e+00	0	31	0	195035136	75	4409
2026-01-02 23:57:55.31	26.11	11.08	-54.5	-56.1	14.7	0.00e+00	0	31	0	197132288	75	4270
2026-01-02 23:57:56.31	26.15	11.17	-54.6	-56.2	14.6	0.00e+00	0	31	0	199229440	75	4326
2026-01-02 23:57:57.30	26.20	11.26	-54.7	-56.3	14.6	0.00e+00	0	31	0	200278016	75	4387
2026-01-02 23:57:58.30	26.24	11.35	-54.5	-56.1	14.8	0.00e+00	0	31	0	202375168	75	4288
2026-01-02 23:57:59.30	26.29	11.43	-54.5	-56.1	14.8	0.00e+00	0	31	0	204472320	75	4258
2026-01-02 23:58:00.30	26.34	11.52	-54.5	-56.1	14.8	0.00e+00	0	31	0	206569472	75	4252
2026-01-02 23:58:01.30	26.38	11.61	-54.4	-56.0	14.8	0.00e+00	0	31	0	207618048	75	4217
2026-01-02 23:58:02.29	26.43	11.70	-54.4	-56.0	14.8	0.00e+00	0	31	0	209715200	75	4207
2026-01-02 23:58:03.29	26.48	11.79	-54.4	-56.0	14.8	0.00e+00	0	31	0	211812352	75	4207
2026-01-02 23:58:04.27	26.52	11.88	-54.4	-55.9	14.9	0.00e+00	0	31	0	213909504	75	4185
2026-01-02 23:58:05.27	26.57	11.97	-54.3	-55.9	14.9	0.00e+00	0	31	0	216006656	75	4162
2026-01-02 23:58:06.26	26.62	12.06	-54.2	-55.7	15.0	0.00e+00	0	31	0	217055232	75	4079
2026-01-02 23:58:07.25	26.67	12.15	-54.3	-55.8	14.9	0.00e+00	0	31	0	219152384	75	4124
2026-01-02 23:58:08.25	26.72	12.24	-54.1	-55.6	14.9	0.00e+00	0	31	0	221249536	74	4276
2026-01-02 23:58:09.24	26.76	12.33	-54.2	-55.7	14.9	0.00e+00	0	31	0	223346688	74	4301
2026-01-02 23:58:10.24	26.81	12.43	-54.1	-55.5	15.0	0.00e+00	0	31	0	224395264	74	4240
2026-01-02 23:58:11.23	26.86	12.52	-54.1	-55.5	15.0	0.00e+00	0	31	0	226492416	74	4226
2026-01-02 23:58:12.23	26.91	12.61	-54.1	-55.5	15.0	0.00e+00	0	31	0	228589568	74	4212
2026-01-02 23:58:13.22	26.96	12.70	-54.0	-55.4	15.0	0.00e+00	0	30	0	230686720	74	4183
2026-01-02 23:58:14.22	27.01	12.80	-54.1	-55.5	14.9	0.00e+00	0	31	0	232783872	74	4238
2026-01-02 23:58:15.21	27.06	12.89	-53.9	-55.3	15.0	0.00e+00	0	31	0	233832448	74	4118
2026-01-02 23:58:16.20	27.11	12.98	-53.9	-55.2	15.1	0.00e+00	0	31	0	235929600	74	4088
2026-01-02 23:58:17.20	27.16	13.08	-53.9	-55.3	15.1	0.00e+00	0	31	0	238026752	74	4101
2026-01-02 23:58:18.20	27.21	13.17	-53.8	-55.2	15.1	0.00e+00	0	31	0	240123904	74	4062
2026-01-02 23:58:19.20	27.27	13.27	-53.9	-55.2	15.1	0.00e+00	0	31	0	242221056	74	4093
2026-01-02 23:58:20.20	27.32	13.36	-53.9	-55.2	15.1	0.00e+00	0	31	0	243269632	74	4096
2026-01-02 23:58:21.19	27.37	13.46	-53.8	-55.2	15.1	0.00e+00	0	31	0	245366784	74	4066
2026-01-02 23:58:22.19	27.42	13.56	-53.9	-55.3	15.1	0.00e+00	0	31	0	247463936	74	4102
2026-01-02 23:58:23.18	27.48	13.65	-53.8	-55.2	15.1	0.00e+00	0	31	0	249561088	74	4060
2026-01-02 23:58:24.18	27.53	13.75	-53.7	-55.1	15.2	0.00e+00	0	31	0	250609664	74	4006
2026-01-02 23:58:25.17	27.58	13.85	-53.8	-55.2	15.2	0.00e+00	0	31	0	252706816	74	4062
2026-01-02 23:58:26.17	27.64	13.94	-53.8	-55.2	15.1	0.00e+00	0	31	0	254803968	74	4079
2026-01-02 23:58:27.16	27.69	14.04	-53.7	-55.1	15.1	0.00e+00	0	31	0	256901120	73	4256
2026-01-02 23:58:28.15	27.74	14.14	-53.9	-55.3	15.0	0.00e+00	0	31	0	258998272	73	4367
2026-01-02 23:58:29.14	27.80	14.24	-53.9	-55.3	15.0	0.00e+00	0	31	0	260046848	73	4345
2026-01-02 23:58:30.14	27.85	14.34	-53.8	-55.2	15.1	0.00e+00	0	31	0	262144000	73	4296
2026-01-02 23:58:31.13	27.91	14.43	-53.8	-55.1	15.1	0.00e+00	0	31	0	264241152	73	4289
2026-01-02 23:58:32.13	27.96	14.53	-53.7	-55.1	15.1	0.00e+00	0	31	0	266338304	73	4252
2026-01-02 23:58:33.13	28.02	14.64	-53.5	-54.8	15.2	0.00e+00	0	31	0	267386880	73	4128
2026-01-02 23:58:34.11	28.08	14.73	-53.7	-55.1	15.1	0.00e+00	0	31	0	269484032	73	4245
2026-01-02 23:58:35.11	28.13	14.84	-53.7	-55.0	15.2	0.00e+00	0	31	0	271581184	73	4220
2026-01-02 23:58:36.10	28.19	14.94	-53.6	-54.9	15.2	0.00e+00	0	31	0	273678336	73	4181
2026-01-02 23:58:37.10	28.25	15.04	-53.6	-54.9	15.2	0.00e+00	0	31	0	275775488	73	4190
2026-01-02 23:58:38.09	28.31	15.14	-53.5	-54.8	15.2	0.00e+00	0	31	0	276824064	73	4116
2026-01-02 23:58:39.09	28.36	15.24	-53.6	-54.9	15.2	0.00e+00	0	31	0	278921216	73	4155
2026-01-02 23:58:40.09	28.42	15.35	-53.5	-54.8	15.3	0.00e+00	0	31	0	281018368	73	4116
2026-01-02 23:58:41.08	28.48	15.45	-53.5	-54.8	15.2	0.00e+00	0	31	0	283115520	73	4132
2026-01-02 23:58:42.08	28.54	15.55	-53.6	-54.9	15.2	0.00e+00	0	31	0	284164096	73	4159
2026-01-02 23:58:43.08	28.60	15.66	-53.4	-54.6	15.3	0.00e+00	0	31	0	286261248	73	4033
2026-01-02 23:58:44.08	28.66	15.76	-53.5	-54.7	15.3	0.00e+00	0	31	0	288358400	73	4084
2026-01-02 23:58:45.08	28.72	15.87	-53.5	-54.8	15.2	0.00e+00	0	31	0	290455552	73	4131
2026-01-02 23:58:46.07	28.78	15.97	-53.5	-54.8	15.2	0.00e+00	0	31	0	292552704	73	4136
2026-01-02 23:58:47.07	28.84	16.08	-53.6	-54.9	15.2	0.00e+00	0	31	0	293601280	73	4173
2026-01-02 23:58:48.07	28.91	16.19	-53.7	-55.0	15.2	0.00e+00	0	31	0	295698432	73	4242
2026-01-02 23:58:49.07	28.97	16.29	-53.6	-54.9	15.2	0.00e+00	0	31	0	297795584	73	4188
2026-01-02 23:58:50.07	29.03	16.40	-53.7	-55.1	15.1	0.00e+00	0	31	0	299892736	73	4249
2026-01-02 23:58:51.06	29.09	16.51	-53.8	-55.2	15.1	0.00e+00	0	31	0	301989888	73	4301
2026-01-02 23:58:52.06	29.16	16.62	-53.9	-55.3	15.1	0.00e+00	0	31	0	303038464	73	4348
2026-01-02 23:58:53.05	29.22	16.73	-53.9	-55.3	15.1	0.00e+00	0	31	0	305135616	73	4370
2026-01-02 23:58:54.05	29.29	16.84	-53.8	-55.2	15.1	0.00e+00	0	31	0	307232768	73	4304
2026-01-02 23:58:55.05	29.35	16.95	-54.0	-55.4	15.0	0.00e+00	0	31	0	309329920	73	4412
2026-01-02 23:58:56.05	29.42	17.06	-53.8	-55.1	15.1	0.00e+00	0	31	0	310378496	73	4288
2026-01-02 23:58:57.05	29.48	17.17	-53.8	-55.2	15.1	0.00e+00	0	31	0	312475648	73	4297
2026-01-02 23:58:58.05	29.55	17.28	-53.7	-55.0	15.1	0.00e+00	0	31	0	314572800	73	4240
2026-01-02 23:58:59.05	29.62	17.39	-53.7	-55.1	15.2	0.00e+00	0	31	0	316669952	73	4255
2026-01-02 23:59:00.05	29.68	17.50	-53.8	-55.2	15.1	0.00e+00	0	31	0	318767104	73	4300
2026-01-02 23:59:01.05	29.75	17.62	-53.5	-54.8	15.3	0.00e+00	0	31	0	319815680	73	4124
2026-01-02 23:59:02.04	29.82	17.73	-53.5	-54.8	15.3	0.00e+00	0	31	0	321912832	73	4120
2026-01-02 23:59:03.04	29.89	17.84	-53.5	-54.8	15.3	0.00e+00	0	31	0	324009984	73	4100
2026-01-02 23:59:04.03	29.95	17.95	-53.5	-54.8	15.3	0.00e+00	0	31	0	326107136	73	4124
2026-01-02 23:59:05.04	30.02	18.07	-53.3	-54.5	15.4	0.00e+00	0	31	0	327155712	73	3980
2026-01-02 23:59:06.04	30.09	18.19	-53.2	-54.4	15.4	0.00e+00	0	31	0	329252864	72	4172
2026-01-02 23:59:07.04	30.17	18.30	-53.1	-54.2	15.5	0.00e+00	0	31	0	331350016	72	4078
2026-01-02 23:59:08.03	30.24	18.42	-53.1	-54.2	15.5	0.00e+00	0	31	0	333447168	72	4077
2026-01-02 23:59:09.04	30.31	18.53	-52.9	-54.1	15.5	0.00e+00	0	31	0	335544320	72	4008
2026-01-02 23:59:10.05	30.38	18.65	-53.0	-54.1	15.5	0.00e+00	0	31	0	336592896	72	4035
2026-01-02 23:59:11.05	30.45	18.77	-52.9	-54.0	15.6	0.00e+00	0	31	0	338690048	72	3983
2026-01-02 23:59:12.05	30.53	18.89	-52.8	-53.9	15.6	0.00e+00	0	31	0	340787200	72	3924
2026-01-02 23:59:13.05	30.60	19.01	-52.8	-53.9	15.5	0.00e+00	0	31	0	342884352	71	4161
2026-01-02 23:59:14.06	30.68	19.13	-52.7	-53.8	15.5	0.00e+00	0	31	0	344981504	71	4115
2026-01-02 23:59:15.06	30.75	19.25	-52.6	-53.7	15.6	0.00e+00	0	31	0	346030080	71	4069
2026-01-02 23:59:16.06	30.83	19.37	-52.7	-53.8	15.5	0.00e+00	0	31	0	348127232	71	4137
2026-01-02 23:59:17.07	30.90	19.49	-52.6	-53.7	15.6	0.00e+00	0	31	0	350224384	71	4069
2026-01-02 23:59:18.08	30.98	19.62	-52.7	-53.8	15.5	0.00e+00	0	31	0	352321536	71	4145
2026-01-02 23:59:19.08	31.06	19.74	-52.8	-53.9	15.5	0.00e+00	0	31	0	354418688	71	4158
2026-01-02 23:59:20.08	31.13	19.86	-52.8	-54.0	15.5	0.00e+00	0	31	0	355467264	71	4197
2026-01-02 23:59:21.08	31.21	19.98	-52.9	-54.0	15.5	0.00e+00	0	31	0	357564416	71	4221
2026-01-02 23:59:22.08	31.29	20.11	-53.0	-54.2	15.4	0.00e+00	0	31	0	359661568	71	4297
2026-01-02 23:59:23.08	31.37	20.23	-53.1	-54.3	15.4	0.00e+00	0	31	0	361758720	71	4385
2026-01-02 23:59:24.08	31.45	20.36	-53.2	-54.4	15.4	0.00e+00	0	31	0	363855872	71	4396
2026-01-02 23:59:25.08	31.53	20.48	-53.2	-54.4	15.3	0.00e+00	0	31	0	364904448	71	4414
2026-01-02 23:59:26.07	31.61	20.61	-53.1	-54.3	15.4	0.00e+00	0	31	0	367001600	71	4384
2026-01-02 23:59:27.08	31.70	20.74	-53.2	-54.5	15.3	0.00e+00	0	31	0	369098752	71	4454
2026-01-02 23:59:28.08	31.78	20.86	-53.3	-54.5	15.3	0.00e+00	0	31	0	371195904	71	4463
2026-01-02 23:59:29.08	31.86	20.99	-53.1	-54.3	15.4	0.00e+00	0	31	0	372244480	71	4366
2026-01-02 23:59:30.08	31.95	21.12	-53.1	-54.3	15.4	0.00e+00	0	31	0	374341632	71	4369
2026-01-02 23:59:31.08	32.03	21.25	-53.2	-54.4	15.4	0.00e+00	0	31	0	376438784	71	4412
2026-01-02 23:59:32.08	32.11	21.38	-53.0	-54.2	15.4	0.00e+00	0	31	0	378535936	71	4299
2026-01-02 23:59:33.08	32.20	21.51	-52.9	-54.1	15.5	0.00e+00	0	31	0	380633088	71	4247
2026-01-02 23:59:34.08	32.29	21.64	-53.1	-54.2	15.4	0.00e+00	0	31	0	381681664	71	4340
2026-01-02 23:59:35.07	32.37	21.77	-53.0	-54.2	15.4	0.00e+00	0	31	0	383778816	71	4293
2026-01-02 23:59:36.08	32.46	21.90	-52.8	-53.9	15.5	0.00e+00	0	31	0	385875968	71	4161
2026-01-02 23:59:37.08	32.55	22.04	-52.9	-54.0	15.5	0.00e+00	0	31	0	387973120	71	4216
2026-01-02 23:59:38.07	32.64	22.17	-52.9	-54.1	15.5	0.00e+00	0	31	0	390070272	71	4261
2026-01-02 23:59:39.08	32.73	22.30	-52.6	-53.7	15.6	0.00e+00	0	31	0	391118848	71	4084
2026-01-02 23:59:40.08	32.82	22.44	-52.9	-54.0	15.5	0.00e+00	0	31	0	393216000	71	4231
2026-01-02 23:59:41.08	32.91	22.57	-52.7	-53.8	15.5	0.00e+00	0	31	0	395313152	71	4134
2026-01-02 23:59:42.08	33.01	22.71	-52.8	-53.9	15.5	0.00e+00	0	31	0	397410304	71	4179
2026-01-02 23:59:43.08	33.10	22.85	-52.6	-53.7	15.6	0.00e+00	0	31	0	399507456	71	4086
2026-01-02 23:59:44.09	33.19	22.99	-52.6	-53.7	15.6	0.00e+00	0	31	0	400556032	71	4066
2026-01-02 23:59:45.09	33.29	23.12	-52.6	-53.7	15.6	0.00e+00	0	31	0	402653184	71	4085
2026-01-02 23:59:46.09	33.38	23.26	-52.4	-53.5	15.7	0.00e+00	0	31	0	404750336	71	3969
2026-01-02 23:59:47.09	33.48	23.40	-52.4	-53.5	15.7	0.00e+00	0	31	0	406847488	71	3980
2026-01-02 23:59:48.09	33.58	23.54	-52.5	-53.5	15.7	0.00e+00	0	31	0	407896064	71	3989
2026-01-02 23:59:49.08	33.68	23.68	-52.4	-53.4	15.7	0.00e+00	0	31	0	409993216	71	3953
2026-01-02 23:59:50.08	33.77	23.82	-52.4	-53.4	15.7	0.00e+00	0	31	0	412090368	71	3930
2026-01-02 23:59:51.09	33.88	23.97	-52.4	-53.5	15.7	0.00e+00	0	31	0	414187520	71	3969
2026-01-02 23:59:52.08	33.98	24.11	-52.5	-53.5	15.7	0.00e+00	0	31	0	416284672	71	3980
2026-01-02 23:59:53.09	34.08	24.25	-52.4	-53.4	15.7	0.00e+00	0	31	0	417333248	71	3929
2026-01-02 23:59:54.09	34.18	24.40	-52.3	-53.3	15.8	0.00e+00	0	31	0	419430400	71	3909
2026-01-02 23:59:55.09	34.28	24.54	-52.3	-53.3	15.7	0.00e+00	0	31	0	421527552	70	4136
2026-01-02 23:59:56.09	34.39	24.69	-52.3	-53.3	15.7	0.00e+00	0	31	0	423624704	70	4121
2026-01-02 23:59:57.09	34.49	24.84	-52.1	-53.1	15.8	0.00e+00	0	31	0	425721856	70	4032
2026-01-02 23:59:58.09	34.60	24.98	-52.0	-53.0	15.8	0.00e+00	0	31	0	426770432	70	3961
2026-01-02 23:59:59.09	34.71	25.13	-52.0	-52.9	15.8	0.00e+00	0	31	0	428867584	70	3957
2026-01-03 00:00:00.09	34.81	25.28	-52.0	-52.9	15.8	0.00e+00	0	31	0	430964736	70	3935
2026-01-03 00:00:01.10	34.92	25.43	-52.0	-53.0	15.8	0.00e+00	0	31	0	433061888	70	3987
2026-01-03 00:00:02.10	35.03	25.58	-52.3	-53.3	15.7	0.00e+00	0	31	0	435159040	70	4111
2026-01-03 00:00:03.10	35.15	25.73	-52.1	-53.0	15.8	0.00e+00	0	31	0	436207616	70	3997
2026-01-03 00:00:04.10	35.26	25.88	-52.4	-53.4	15.7	0.00e+00	0	31	0	438304768	70	4167
2026-01-03 00:00:05.10	35.37	26.04	-52.3	-53.3	15.7	0.00e+00	0	31	0	440401920	70	4138
2026-01-03 00:00:06.11	35.49	26.19	-52.6	-53.7	15.5	0.00e+00	0	31	0	442499072	70	4300
2026-01-03 00:00:07.10	35.60	26.34	-52.6	-53.6	15.6	0.00e+00	0	31	0	443547648	70	4288
2026-01-03 00:00:08.09	35.71	26.50	-52.6	-53.7	15.6	0.00e+00	0	31	0	445644800	70	4294
2026-01-03 00:00:09.08	35.83	26.65	-52.7	-53.8	15.5	0.00e+00	0	31	0	447741952	70	4350
2026-01-03 00:00:10.08	35.95	26.81	-52.7	-53.8	15.5	0.00e+00	0	31	0	449839104	70	4378
2026-01-03 00:00:11.08	36.07	26.96	-52.9	-54.1	15.5	0.00e+00	0	31	0	451936256	71	4256
2026-01-03 00:00:12.07	36.19	27.12	-53.1	-54.2	15.4	0.00e+00	0	31	0	452984832	71	4320
2026-01-03 00:00:13.07	36.31	27.28	-53.2	-54.4	15.4	0.00e+00	0	31	0	455081984	71	4434
2026-01-03 00:00:14.08	36.43	27.44	-53.3	-54.5	15.4	0.00e+00	0	31	0	457179136	72	4205
2026-01-03 00:00:15.08	36.56	27.60	-53.2	-54.4	15.4	0.00e+00	0	31	0	459276288	72	4173
2026-01-03 00:00:16.08	36.68	27.76	-53.5	-54.7	15.4	0.00e+00	0	31	0	461373440	72	4307
2026-01-03 00:00:17.08	36.81	27.92	-53.5	-54.8	15.3	0.00e+00	0	31	0	462422016	72	4345
2026-01-03 00:00:18.08	36.94	28.08	-53.6	-54.8	15.3	0.00e+00	0	31	0	464519168	72	4364
2026-01-03 00:00:19.08	37.07	28.25	-53.4	-54.6	15.4	0.00e+00	0	31	0	466616320	72	4269
2026-01-03 00:00:20.08	37.20	28.41	-53.7	-55.0	15.2	0.00e+00	0	31	0	468713472	72	4454
2026-01-03 00:00:21.09	37.33	28.58	-53.8	-55.1	15.2	0.00e+00	0	31	0	469762048	72	4529
2026-01-03 00:00:22.08	37.46	28.74	-53.6	-54.8	15.3	0.00e+00	0	31	0	471859200	72	4379
2026-01-03 00:00:23.08	37.60	28.91	-54.0	-55.4	15.2	0.00e+00	0	31	0	473956352	73	4400
2026-01-03 00:00:24.08	37.73	29.08	-54.1	-55.4	15.2	0.00e+00	0	31	0	476053504	73	4435
2026-01-03 00:00:25.09	37.87	29.25	-54.4	-55.8	15.0	0.00e+00	0	31	0	478150656	74	4359
2026-01-03 00:00:26.09	38.01	29.42	-54.6	-56.1	14.9	0.00e+00	0	31	0	479199232	74	4496
2026-01-03 00:00:27.09	38.15	29.59	-54.9	-56.5	14.8	0.00e+00	0	31	0	481296384	74	4714
2026-01-03 00:00:28.09	38.29	29.76	-55.2	-56.8	14.7	0.00e+00	0	31	0	483393536	75	4649
2026-01-03 00:00:29.09	38.44	29.93	-55.6	-57.3	14.5	0.00e+00	0	31	0	485490688	76	4647
2026-01-03 00:00:30.10	38.58	30.10	-55.5	-57.2	14.6	0.00e+00	0	31	0	487587840	76	4573
2026-01-03 00:00:31.10	38.73	30.28	-55.5	-57.2	14.5	0.00e+00	0	31	0	488636416	76	4575
2026-01-03 00:00:32.10	38.87	30.45	-55.7	-57.6	14.4	0.00e+00	0	31	0	490733568	76	4778
2026-01-03 00:00:33.10	39.02	30.63	-55.5	-57.2	14.6	0.00e+00	0	31	0	492830720	77	4312
2026-01-03 00:00:34.10	39.17	30.80	-55.5	-57.2	14.5	0.00e+00	0	31	0	494927872	77	4340
2026-01-03 00:00:35.10	39.33	30.98	-56.0	-57.9	14.3	0.00e+00	0	31	0	497025024	77	4653
2026-01-03 00:00:36.10	39.48	31.16	-55.7	-57.5	14.5	0.00e+00	0	31	0	498073600	77	4489
2026-01-03 00:00:37.09	39.63	31.34	-55.8	-57.6	14.4	0.00e+00	0	31	0	500170752	77	4526
2026-01-03 00:00:38.09	39.79	31.52	-55.7	-57.5	14.4	0.00e+00	0	31	0	502267904	77	4478
2026-01-03 00:00:39.08	39.95	31.69	-56.1	-58.1	14.2	0.00e+00	0	31	0	504365056	77	4802
2026-01-03 00:00:40.07	40.11	31.87	-55.9	-57.7	14.3	0.00e+00	0	31	0	505413632	77	4591
2026-01-03 00:00:41.07	40.27	32.06	-56.0	-57.9	14.3	0.00e+00	0	31	0	507510784	77	4677
2026-01-03 00:00:42.07	40.43	32.24	-55.8	-57.7	14.5	0.00e+00	0	31	0	509607936	77	4554
2026-01-03 00:00:43.07	40.60	32.42	-55.4	-57.1	14.7	0.00e+00	0	31	0	511705088	77	4283
2026-01-03 00:00:44.08	40.77	32.61	-55.3	-57.0	14.8	0.00e+00	0	31	0	513802240	77	4215
2026-01-03 00:00:45.07	40.94	32.79	-55.1	-56.7	14.8	0.00e+00	0	31	0	514850816	76	4316
2026-01-03 00:00:46.07	41.11	32.98	-55.3	-57.0	14.7	0.00e+00	0	31	0	516947968	76	4443
2026-01-03 00:00:47.08	41.28	33.17	-55.2	-56.8	14.7	0.00e+00	0	31	0	519045120	76	4382
2026-01-03 00:00:48.07	41.46	33.36	-55.4	-57.1	14.6	0.00e+00	0	31	0	521142272	76	4527
2026-01-03 00:00:49.06	41.63	33.54	-55.4	-57.1	14.7	0.00e+00	0	31	0	523239424	76	4526
2026-01-03 00:00:50.06	41.81	33.73	-55.4	-57.0	14.7	0.00e+00	0	31	0	524288000	76	4492
2026-01-03 00:00:51.06	41.99	33.93	-55.4	-57.0	14.7	0.00e+00	0	31	0	526385152	76	4489
2026-01-03 00:00:52.06	42.18	34.12	-55.0	-56.5	14.9	0.00e+00	0	31	0	528482304	76	4201
2026-01-03 00:00:53.06	42.36	34.31	-55.0	-56.5	14.9	0.00e+00	0	31	0	530579456	76	4236
2026-01-03 00:00:54.06	42.55	34.50	-54.9	-56.3	15.0	0.00e+00	0	31	0	531628032	76	4145
2026-01-03 00:00:55.06	42.74	34.70	-54.6	-56.0	15.1	0.00e+00	0	31	0	533725184	75	4241
2026-01-03 00:00:56.06	42.93	34.89	-54.9	-56.4	14.9	0.00e+00	0	31	0	535822336	75	4404
2026-01-03 00:00:57.06	43.13	35.09	-54.8	-56.3	14.9	0.00e+00	0	31	0	537919488	75	4370
2026-01-03 00:00:58.05	43.32	35.29	-54.8	-56.3	14.9	0.00e+00	0	31	0	540016640	75	4349
2026-01-03 00:00:59.05	43.52	35.48	-54.6	-56.0	15.1	0.00e+00	0	31	0	541065216	75	4195
2026-01-03 00:01:00.06	43.73	35.68	-55.0	-56.5	14.9	0.00e+00	0	31	0	543162368	75	4470
2026-01-03 00:01:01.05	43.93	35.88	-54.9	-56.4	14.9	0.00e+00	0	31	0	545259520	75	4420
2026-01-03 00:01:02.05	44.13	36.08	-54.9	-56.4	14.9	0.00e+00	0	31	0	547356672	75	4439
2026-01-03 00:01:03.05	44.34	36.29	-54.9	-56.5	14.8	0.00e+00	0	31	0	548405248	75	4457
2026-01-03 00:01:04.04	44.55	36.49	-55.0	-56.6	14.8	0.00e+00	0	31	0	550502400	75	4494
2026-01-03 00:01:05.04	44.77	36.69	-55.1	-56.6	14.8	0.00e+00	0	31	0	552599552	75	4542
2026-01-03 00:01:06.04	44.98	36.89	-55.2	-56.9	14.7	0.00e+00	0	31	0	554696704	75	4682
2026-01-03 00:01:07.04	45.20	37.10	-55.6	-57.4	14.5	0.00e+00	0	31	0	556793856	76	4660
2026-01-03 00:01:08.04	45.42	37.30	-55.1	-56.6	14.9	0.00e+00	0	31	0	557842432	76	4281
2026-01-03 00:01:09.04	45.65	37.51	-55.1	-56.7	14.9	0.00e+00	0	31	0	559939584	76	4299
2026-01-03 00:01:10.03	45.87	37.72	-55.2	-56.7	14.8	0.00e+00	0	31	0	562036736	76	4334
2026-01-03 00:01:11.03	46.11	37.92	-55.4	-57.0	14.7	0.00e+00	0	31	0	564133888	76	4485
2026-01-03 00:01:12.03	46.34	38.13	-55.2	-56.8	14.8	0.00e+00	0	31	0	566231040	76	4360
2026-01-03 00:01:13.04	46.58	38.34	-55.3	-57.0	14.7	0.00e+00	0	31	0	567279616	76	4450
2026-01-03 00:01:14.04	46.82	38.56	-55.2	-56.8	14.8	0.00e+00	0	31	0	569376768	76	4347
2026-01-03 00:01:15.04	47.06	38.77	-55.2	-56.8	14.8	0.00e+00	0	31	0	571473920	76	4350
2026-01-03 00:01:16.03	47.30	38.98	-55.1	-56.7	14.8	0.00e+00	0	31	0	573571072	76	4322
2026-01-03 00:01:17.04	47.55	39.19	-55.3	-56.9	14.8	0.00e+00	0	31	0	575668224	76	4433
2026-01-03 00:01:18.04	47.81	39.40	-55.2	-56.8	14.8	0.00e+00	0	31	0	576716800	76	4388
2026-01-03 00:01:19.04	48.06	39.62	-55.1	-56.6	14.9	0.00e+00	0	31	0	578813952	76	4273
2026-01-03 00:01:20.03	48.32	39.83	-55.5	-57.3	14.6	0.00e+00	0	31	0	580911104	76	4614
2026-01-03 00:01:21.03	48.58	40.05	-55.4	-57.2	14.7	0.00e+00	0	31	0	583008256	76	4550
2026-01-03 00:01:22.03	48.84	40.26	-55.5	-57.3	14.6	0.00e+00	0	31	0	584056832	76	4599
2026-01-03 00:01:23.03	49.11	40.48	-54.7	-56.2	15.1	0.00e+00	0	31	0	586153984	76	4077
2026-01-03 00:01:24.04	49.39	40.70	-54.1	-55.4	15.3	0.00e+00	0	31	0	588251136	74	4185
2026-01-03 00:01:25.03	49.66	40.92	-53.7	-54.9	15.4	0.00e+00	0	31	0	590348288	73	4185
2026-01-03 00:01:26.03	49.94	41.14	-53.6	-54.8	15.5	0.00e+00	0	31	0	592445440	73	4120
2026-01-03 00:01:27.03	50.23	41.35	-53.6	-54.8	15.4	0.00e+00	0	31	0	593494016	72	4380
2026-01-03 00:01:28.03	50.51	41.57	-53.5	-54.7	15.4	0.00e+00	0	31	0	595591168	72	4333
2026-01-03 00:01:29.04	50.81	41.80	-54.1	-55.4	15.2	0.00e+00	0	31	0	597688320	73	4404
2026-01-03 00:01:30.03	51.10	42.02	-54.1	-55.4	15.2	0.00e+00	0	31	0	599785472	73	4405
2026-01-03 00:01:31.04	51.40	42.24	-54.3	-55.7	15.2	0.00e+00	0	31	0	601882624	74	4297
2026-01-03 00:01:32.04	51.71	42.46	-54.2	-55.6	15.2	0.00e+00	0	31	0	602931200	74	4256
2026-01-03 00:01:33.04	52.01	42.68	-54.2	-55.5	15.2	0.00e+00	0	31	0	605028352	74	4201
2026-01-03 00:01:34.04	52.32	42.91	-54.4	-55.8	15.2	0.00e+00	0	31	0	607125504	74	4357
2026-01-03 00:01:35.03	52.64	43.13	-54.3	-55.6	15.2	0.00e+00	0	31	0	609222656	74	4246
2026-01-03 00:01:36.03	52.96	43.35	-54.2	-55.5	15.3	0.00e+00	0	31	0	610271232	74	4215
2026-01-03 00:01:37.03	53.28	43.58	-54.3	-55.6	15.2	0.00e+00	0	31	0	612368384	74	4263
2026-01-03 00:01:38.02	53.61	43.80	-54.6	-55.9	15.1	0.00e+00	0	31	0	614465536	74	4441
2026-01-03 00:01:39.01	53.94	44.02	-55.0	-56.5	14.9	0.00e+00	0	31	0	616562688	75	4490
2026-01-03 00:01:40.01	54.28	44.25	-54.9	-56.3	15.0	0.00e+00	0	31	0	618659840	75	4380
2026-01-03 00:01:41.01	54.62	44.47	-54.7	-56.2	15.1	0.00e+00	0	31	0	619708416	75	4296
2026-01-03 00:01:42.01	54.97	44.70	-54.6	-56.0	15.1	0.00e+00	0	31	0	621805568	75	4226
2026-01-03 00:01:43.01	55.32	44.92	-54.3	-55.6	15.3	0.00e+00	0	31	0	623902720	75	4034
2026-01-03 00:01:44.01	55.68	45.15	-54.5	-55.8	15.2	0.00e+00	0	31	0	625999872	75	4122
2026-01-03 00:01:45.01	56.04	45.37	-54.4	-55.8	15.1	0.00e+00	0	31	0	628097024	74	4368
2026-01-03 00:01:46.01	56.41	45.60	-54.9	-56.4	14.9	0.00e+00	0	31	0	629145600	74	4685
2026-01-03 00:01:47.01	56.78	45.82	-55.1	-56.7	14.8	0.00e+00	0	31	0	631242752	75	4569
2026-01-03 00:01:48.01	57.16	46.05	-55.7	-57.4	14.6	0.00e+00	0	31	0	633339904	76	4702
2026-01-03 00:01:49.01	57.55	46.27	-55.7	-57.5	14.6	0.00e+00	0	31	0	635437056	77	4443
2026-01-03 00:01:50.01	57.94	46.50	-56.2	-58.1	14.3	0.00e+00	0	31	0	637534208	77	4771
2026-01-03 00:01:51.01	58.33	46.72	-56.5	-58.6	14.1	0.00e+00	0	31	0	638582784	78	4768
2026-01-03 00:01:52.01	58.73	46.95	-57.0	-59.3	13.7	0.00e+00	0	31	0	640679936	79	4904
2026-01-03 00:01:53.01	59.14	47.17	-57.1	-59.5	13.6	0.00e+00	0	31	0	642777088	79	5036
2026-01-03 00:01:54.01	59.55	47.40	-57.4	-60.1	13.3	0.00e+00	0	31	0	644874240	80	5048
2026-01-03 00:01:55.01	59.97	47.62	-57.3	-59.8	13.5	0.00e+00	0	31	0	645922816	80	4908
2026-01-03 00:01:56.01	60.39	47.84	-57.5	-60.2	13.2	0.00e+00	0	31	0	648019968	80	5156
2026-01-03 00:01:57.01	60.82	48.07	-57.8	-60.7	12.9	0.00e+00	0	31	0	650117120	80	5450
2026-01-03 00:01:58.01	61.26	48.29	-57.3	-59.8	13.4	0.00e+00	0	31	0	652214272	81	4646
2026-01-03 00:01:59.01	61.70	48.51	-56.9	-59.1	13.8	0.00e+00	0	31	0	654311424	80	4527
2026-01-03 00:02:00.01	62.15	48.73	-56.2	-58.0	14.4	0.00e+00	0	31	0	655360000	79	4236
2026-01-03 00:02:01.01	62.61	48.95	-56.2	-58.1	14.4	0.00e+00	0	31	0	657457152	78	4505
2026-01-03 00:02:02.02	63.07	49.17	-56.0	-57.8	14.5	0.00e+00	0	31	0	659554304	78	4383
2026-01-03 00:02:03.02	63.54	49.39	-56.1	-58.0	14.4	0.00e+00	0	31	0	661651456	78	4466
2026-01-03 00:02:04.02	64.02	49.61	-55.9	-57.7	14.5	0.00e+00	0	31	0	663748608	78	4300
2026-01-03 00:02:05.02	64.50	49.82	-55.7	-57.3	14.7	0.00e+00	0	31	0	664797184	77	4379
2026-01-03 00:02:06.02	64.99	50.04	-55.4	-57.0	14.8	0.00e+00	0	31	0	666894336	77	4216
2026-01-03 00:02:07.02	65.49	50.25	-55.7	-57.5	14.6	0.00e+00	0	31	0	668991488	77	4454
2026-01-03 00:02:08.03	65.99	50.47	-55.3	-56.8	14.9	0.00e+00	0	31	0	671088640	77	4145
2026-01-03 00:02:09.02	66.50	50.68	-55.0	-56.5	14.9	0.00e+00	0	31	0	673185792	76	4240
2026-01-03 00:02:10.02	67.01	50.89	-54.9	-56.4	15.1	0.00e+00	0	31	0	674234368	76	4147
2026-01-03 00:02:11.02	67.54	51.10	-55.1	-56.5	15.0	0.00e+00	0	31	0	676331520	76	4241
2026-01-03 00:02:12.02	68.07	51.30	-55.3	-56.9	14.8	0.00e+00	0	31	0	678428672	76	4413
2026-01-03 00:02:13.02	68.61	51.51	-55.2	-56.7	14.8	0.00e+00	0	31	0	680525824	76	4316
2026-01-03 00:02:14.01	69.15	51.71	-54.9	-56.3	15.0	0.00e+00	0	31	0	681574400	76	4134
2026-01-03 00:02:15.02	69.71	51.91	-54.9	-56.3	15.1	0.00e+00	0	31	0	683671552	76	4142
2026-01-03 00:02:16.01	70.26	52.11	-54.3	-55.6	15.3	0.00e+00	0	31	0	685768704	75	4014
2026-01-03 00:02:17.01	70.83	52.31	-53.8	-55.1	15.4	0.00e+00	0	31	0	687865856	74	4015
2026-01-03 00:02:18.02	71.41	52.51	-53.0	-54.1	15.7	0.00e+00	0	31	0	689963008	72	4020
2026-01-03 00:02:19.02	72.00	52.70	-53.0	-54.0	15.7	0.00e+00	0	31	0	691011584	72	3989
2026-01-03 00:02:20.03	72.59	52.89	-53.5	-54.6	15.5	0.00e+00	0	31	0	693108736	72	4290
2026-01-03 00:02:21.02	73.19	53.08	-53.5	-54.7	15.5	0.00e+00	0	31	0	695205888	72	4304
2026-01-03 00:02:22.03	73.80	53.27	-53.2	-54.3	15.6	0.00e+00	0	31	0	697303040	72	4136
2026-01-03 00:02:23.03	74.41	53.45	-53.0	-54.1	15.7	0.00e+00	0	31	0	699400192	72	4011
2026-01-03 00:02:24.03	75.04	53.63	-53.1	-54.1	15.7	0.00e+00	0	31	0	700448768	72	4041
2026-01-03 00:02:25.03	75.67	53.81	-53.8	-55.0	15.3	0.00e+00	0	31	0	702545920	72	4493
2026-01-03 00:02:26.03	76.30	53.99	-53.9	-55.1	15.3	0.00e+00	0	31	0	704643072	73	4286
2026-01-03 00:02:27.04	76.96	54.16	-53.1	-54.2	15.6	0.00e+00	0	31	0	706740224	72	4085
2026-01-03 00:02:28.04	77.61	54.33	-53.1	-54.2	15.7	0.00e+00	0	31	0	707788800	72	4073
2026-01-03 00:02:29.04	78.27	54.50	-53.3	-54.5	15.6	0.00e+00	0	31	0	709885952	72	4194
2026-01-03 00:02:30.04	78.94	54.66	-53.3	-54.4	15.6	0.00e+00	0	31	0	711983104	72	4163
2026-01-03 00:02:31.04	79.61	54.82	-52.7	-53.8	15.8	0.00e+00	0	31	0	714080256	72	3875
2026-01-03 00:02:32.03	80.29	54.98	-52.2	-53.2	15.9	0.00e+00	0	31	0	716177408	71	3835
2026-01-03 00:02:33.03	80.98	55.13	-52.6	-53.7	15.8	0.00e+00	0	31	0	717225984	71	4053
2026-01-03 00:02:34.03	81.68	55.28	-53.0	-54.1	15.6	0.00e+00	0	31	0	719323136	71	4268
2026-01-03 00:02:35.03	82.38	55.42	-53.1	-54.2	15.6	0.00e+00	0	31	0	721420288	71	4292
2026-01-03 00:02:36.02	83.09	55.56	-53.1	-54.2	15.6	0.00e+00	0	31	0	723517440	71	4293
2026-01-03 00:02:37.02	83.81	55.70	-52.9	-54.0	15.7	0.00e+00	0	31	0	725614592	71	4202
2026-01-03 00:02:38.02	84.54	55.83	-52.4	-53.3	15.9	0.00e+00	0	31	0	726663168	71	3898
2026-01-03 00:02:39.02	85.27	55.96	-52.9	-54.0	15.7	0.00e+00	0	31	0	728760320	71	4203
2026-01-03 00:02:40.02	86.01	56.09	-53.7	-54.9	15.4	0.00e+00	0	31	0	730857472	72	4411
2026-01-03 00:02:41.02	86.76	56.21	-54.0	-55.3	15.3	0.00e+00	0	31	0	732954624	73	4386
2026-01-03 00:02:42.02	87.51	56.33	-53.6	-54.8	15.5	0.00e+00	0	31	0	735051776	73	4131
2026-01-03 00:02:43.02	88.27	56.44	-53.8	-55.0	15.4	0.00e+00	0	31	0	736100352	73	4202
2026-01-03 00:02:44.02	89.03	56.54	-54.3	-55.7	15.2	0.00e+00	0	31	0	738197504	74	4297
2026-01-03 00:02:45.01	89.80	56.65	-54.1	-55.4	15.3	0.00e+00	0	31	0	740294656	74	4171
2026-01-03 00:02:46.02	90.58	56.74	-53.3	-54.4	15.6	0.00e+00	0	31	0	742391808	73	3954
2026-01-03 00:02:47.02	91.36	56.84	-53.9	-55.2	15.3	0.00e+00	0	31	0	743440384	73	4309
2026-01-03 00:02:48.02	92.15	56.93	-55.1	-56.6	14.9	0.00e+00	0	31	0	745537536	75	4539
2026-01-03 00:02:49.02	92.94	57.01	-55.1	-56.7	14.9	0.00e+00	0	31	0	747634688	75	4565
2026-01-03 00:02:50.01	93.73	57.09	-55.3	-57.0	14.8	0.00e+00	0	31	0	749731840	75	4720
2026-01-03 00:02:51.00	94.52	57.16	-55.6	-57.3	14.7	0.00e+00	0	31	0	751828992	76	4615
2026-01-03 00:02:52.00	95.33	57.23	-56.7	-58.8	14.0	0.00e+00	0	31	0	752877568	78	4917
2026-01-03 00:02:53.00	96.14	57.29	-56.6	-58.8	14.0	0.00e+00	0	31	0	754974720	79	4610
2026-01-03 00:02:54.00	96.95	57.35	-56.0	-57.8	14.5	0.00e+00	0	31	0	757071872	78	4347
2026-01-03 00:02:55.00	97.76	57.40	-55.8	-57.5	14.6	0.00e+00	0	31	0	759169024	77	4491
2026-01-03 00:02:56.00	98.58	57.44	-56.5	-58.6	14.1	0.00e+00	0	31	0	760217600	78	4794
2026-01-03 00:02:56.99	99.40	57.48	-56.5	-58.6	14.1	0.00e+00	0	31	0	762314752	78	4767
2026-01-03 00:02:57.99	100.22	57.52	-56.2	-58.1	14.4	0.00e+00	0	31	0	764411904	78	4505
2026-01-03 00:02:59.00	101.05	57.55	-55.2	-56.8	14.9	0.00e+00	0	31	0	766509056	76	4356
2026-01-03 00:03:00.00	101.88	57.57	-55.0	-56.4	15.0	0.00e+00	0	31	0	768606208	76	4183
2026-01-03 00:03:01.00	102.71	57.59	-55.3	-56.9	14.9	0.00e+00	0	31	0	769654784	76	4405
2026-01-03 00:03:01.99	103.53	57.61	-55.5	-57.1	14.8	0.00e+00	0	31	0	771751936	76	4525
2026-01-03 00:03:03.00	104.37	57.61	-55.7	-57.3	14.6	0.00e+00	0	31	0	773849088	76	4649
2026-01-03 00:03:04.00	105.20	57.61	-55.4	-57.0	14.8	0.00e+00	0	31	0	775946240	76	4453
2026-01-03 00:03:05.00	106.03	57.61	-54.4	-55.8	15.2	0.00e+00	0	31	0	778043392	75	4110
2026-01-03 00:03:06.00	106.86	57.60	-54.7	-56.1	15.1	0.00e+00	0	31	0	779091968	75	4247
2026-01-03 00:03:06.98	107.67	57.59	-53.6	-54.7	15.5	0.00e+00	0	31	0	781189120	73	4085
2026-01-03 00:03:07.98	108.50	57.57	-52.3	-53.3	15.9	0.00e+00	0	31	0	783286272	71	3878
2026-01-03 00:03:08.98	109.33	57.54	-52.2	-53.1	15.9	0.00e+00	0	31	0	785383424	70	4020
2026-01-03 00:03:09.97	110.15	57.51	-53.1	-54.2	15.6	0.00e+00	0	31	0	786432000	71	4317
2026-01-03 00:03:10.97	110.97	57.47	-53.8	-55.0	15.5	0.00e+00	0	31	0	788529152	73	4208
2026-01-03 00:03:11.97	111.79	57.43	-53.8	-55.1	15.5	0.00e+00	0	31	0	790626304	73	4251
2026-01-03 00:03:12.98	112.62	57.38	-53.4	-54.5	15.6	0.00e+00	0	31	0	792723456	73	3969
2026-01-03 00:03:13.98	113.43	57.33	-53.4	-54.5	15.6	0.00e+00	0	31	0	794820608	73	3995
2026-01-03 00:03:14.98	114.24	57.27	-53.4	-54.5	15.6	0.00e+00	0	31	0	795869184	73	3986
2026-01-03 00:03:15.97	115.04	57.21	-54.1	-55.4	15.3	0.00e+00	0	31	0	797966336	73	4421
2026-01-03 00:03:16.97	115.85	57.14	-55.3	-56.9	14.8	0.00e+00	0	31	0	800063488	75	4676
2026-01-03 00:03:17.96	116.64	57.06	-54.5	-55.8	15.2	0.00e+00	0	31	0	802160640	75	4127
2026-01-03 00:03:18.97	117.44	56.98	-53.6	-54.8	15.5	0.00e+00	0	31	0	804257792	73	4112
2026-01-03 00:03:19.97	118.23	56.90	-53.5	-54.7	15.5	0.00e+00	0	31	0	805306368	72	4324
2026-01-03 00:03:20.97	119.02	56.81	-53.7	-54.9	15.4	0.00e+00	0	31	0	807403520	72	4415
2026-01-03 00:03:21.97	119.80	56.71	-53.8	-55.1	15.4	0.00e+00	0	31	0	809500672	73	4272
2026-01-03 00:03:22.97	120.58	56.62	-54.2	-55.5	15.2	0.00e+00	0	31	0	811597824	73	4491
2026-01-03 00:03:23.98	121.35	56.51	-54.9	-56.4	15.0	0.00e+00	0	31	0	813694976	75	4401
2026-01-03 00:03:24.98	122.12	56.40	-54.9	-56.5	14.9	0.00e+00	0	31	0	814743552	75	4448
2026-01-03 00:03:25.97	122.87	56.29	-54.0	-55.2	15.4	0.00e+00	0	31	0	816840704	74	4075
2026-01-03 00:03:26.96	123.61	56.17	-53.0	-54.0	15.7	0.00e+00	0	31	0	818937856	72	3988
2026-01-03 00:03:27.96	124.36	56.05	-53.0	-54.1	15.7	0.00e+00	0	31	0	821035008	72	4036
2026-01-03 00:03:28.96	125.10	55.92	-53.0	-54.0	15.7	0.00e+00	0	31	0	822083584	72	4002
2026-01-03 00:03:29.96	125.83	55.79	-53.0	-54.1	15.7	0.00e+00	0	31	0	824180736	72	4015
2026-01-03 00:03:30.96	126.55	55.66	-52.7	-53.8	15.8	0.00e+00	0	31	0	826277888	72	3885
2026-01-03 00:03:31.95	127.26	55.52	-52.6	-53.6	15.8	0.00e+00	0	31	0	828375040	71	4011
2026-01-03 00:03:32.96	127.98	55.38	-52.6	-53.6	15.8	0.00e+00	0	31	0	830472192	71	4021
2026-01-03 00:03:33.96	128.69	55.23	-52.2	-53.1	15.8	0.00e+00	0	31	0	831520768	70	4043
2026-01-03 00:03:34.96	129.38	55.08	-51.8	-52.8	16.0	0.00e+00	0	31	0	833617920	70	3869
2026-01-03 00:03:35.96	130.07	54.92	-52.1	-53.1	15.8	0.00e+00	0	31	0	835715072	70	4009
2026-01-03 00:03:36.95	130.75	54.77	-51.9	-52.8	16.0	0.00e+00	0	31	0	837812224	70	3881
2026-01-03 00:03:37.95	131.42	54.61	-52.2	-53.2	15.9	0.00e+00	0	31	0	838860800	70	4067
2026-01-03 00:03:38.96	132.09	54.44	-52.3	-53.2	15.9	0.00e+00	0	31	0	840957952	70	4084
2026-01-03 00:03:39.96	132.75	54.27	-52.4	-53.4	15.8	0.00e+00	0	31	0	843055104	70	4157
2026-01-03 00:03:40.96	133.40	54.10	-52.6	-53.6	15.7	0.00e+00	0	31	0	845152256	70	4264
2026-01-03 00:03:41.96	134.05	53.93	-53.2	-54.3	15.5	0.00e+00	0	31	0	847249408	71	4360
2026-01-03 00:03:42.96	134.68	53.75	-53.1	-54.2	15.6	0.00e+00	0	31	0	848297984	71	4295
2026-01-03 00:03:43.96	135.31	53.57	-51.9	-52.8	16.0	0.00e+00	0	31	0	850395136	70	3893
2026-01-03 00:03:44.95	135.93	53.39	-51.9	-52.8	15.9	0.00e+00	0	31	0	852492288	69	4125
2026-01-03 00:03:45.95	136.54	53.21	-53.5	-54.7	15.5	0.00e+00	0	31	0	854589440	72	4312
2026-01-03 00:03:46.95	137.14	53.02	-55.3	-57.0	14.7	0.00e+00	0	31	0	856686592	75	4754
2026-01-03 00:03:47.96	137.75	52.83	-55.4	-57.1	14.7	0.00e+00	0	31	0	857735168	76	4541
2026-01-03 00:03:48.96	138.34	52.63	-54.4	-55.8	15.2	0.00e+00	0	31	0	859832320	75	4140
2026-01-03 00:03:49.96	138.92	52.44	-54.7	-56.2	15.0	0.00e+00	0	31	0	861929472	75	4319
2026-01-03 00:03:50.96	139.49	52.24	-55.8	-57.5	14.5	0.00e+00	0	31	0	864026624	76	4750
2026-01-03 00:03:51.96	140.06	52.04	-56.0	-57.8	14.5	0.00e+00	0	31	0	866123776	77	4627
2026-01-03 00:03:52.95	140.61	51.84	-55.3	-56.9	14.9	0.00e+00	0	31	0	867172352	77	4172
2026-01-03 00:03:53.96	141.17	51.64	-53.9	-55.1	15.4	0.00e+00	0	31	0	869269504	74	4020
2026-01-03 00:03:54.95	141.71	51.44	-53.6	-54.8	15.5	0.00e+00	0	31	0	871366656	73	4109
2026-01-03 00:03:55.95	142.25	51.23	-54.4	-55.7	15.1	0.00e+00	0	31	0	873463808	73	4592
2026-01-03 00:03:56.94	142.77	51.02	-56.1	-58.0	14.3	0.00e+00	0	31	0	874512384	77	4743
2026-01-03 00:03:57.94	143.30	50.81	-57.7	-60.5	13.0	0.00e+00	0	31	0	876609536	80	5310
2026-01-03 00:03:58.94	143.81	50.60	-58.3	-61.8	12.2	1.50e-06	0	31	0	878706688	81	5790
2026-01-03 00:03:59.93	144.31	50.39	-56.9	-59.1	13.8	0.00e+00	0	31	0	880803840	80	4534
2026-01-03 00:04:00.93	144.82	50.18	-54.5	-55.9	15.2	0.00e+00	0	31	0	882900992	75	4177
2026-01-03 00:04:01.94	145.32	49.96	-54.6	-56.0	15.1	0.00e+00	0	31	0	883949568	75	4218
2026-01-03 00:04:02.93	145.80	49.75	-56.0	-57.9	14.4	0.00e+00	0	31	0	886046720	77	4689
2026-01-03 00:04:03.93	146.28	49.53	-56.0	-57.9	14.3	0.00e+00	0	31	0	888143872	77	4663
2026-01-03 00:04:04.93	146.75	49.31	-54.9	-56.3	15.1	0.00e+00	0	31	0	890241024	76	4135
2026-01-03 00:04:05.93	147.22	49.09	-53.6	-54.7	15.5	0.00e+00	0	31	0	892338176	73	4090
2026-01-03 00:04:06.93	147.68	48.87	-54.4	-55.7	15.2	0.00e+00	0	31	0	893386752	74	4331
2026-01-03 00:04:07.93	148.14	48.65	-56.3	-58.2	14.2	0.00e+00	0	31	0	895483904	77	4858
2026-01-03 00:04:08.93	148.58	48.43	-57.2	-59.7	13.5	0.00e+00	0	31	0	897581056	80	4836
2026-01-03 00:04:09.93	149.03	48.21	-56.9	-59.2	13.9	0.00e+00	0	31	0	899678208	80	4575
2026-01-03 00:04:10.94	149.46	47.98	-56.5	-58.6	14.1	0.00e+00	0	31	0	900726784	79	4504
2026-01-03 00:04:11.93	149.89	47.76	-55.2	-56.8	14.9	0.00e+00	0	31	0	902823936	76	4349
2026-01-03 00:04:12.93	150.31	47.54	-55.0	-56.5	15.0	0.00e+00	0	31	0	904921088	76	4207
2026-01-03 00:04:13.93	150.73	47.31	-54.9	-56.3	15.1	0.00e+00	0	31	0	907018240	76	4126
2026-01-03 00:04:14.92	151.14	47.09	-55.1	-56.6	14.9	0.00e+00	0	31	0	909115392	76	4274
2026-01-03 00:04:15.93	151.55	46.86	-54.8	-56.2	15.1	0.00e+00	0	31	0	910163968	76	4073
2026-01-03 00:04:16.93	151.95	46.64	-55.3	-56.9	14.7	0.00e+00	0	31	0	912261120	75	4671
2026-01-03 00:04:17.93	152.34	46.41	-55.7	-57.4	14.6	0.00e+00	0	31	0	914358272	76	4663
2026-01-03 00:04:18.92	152.73	46.19	-55.6	-57.2	14.6	0.00e+00	0	31	0	916455424	76	4597
2026-01-03 00:04:19.92	153.11	45.96	-54.7	-56.1	15.1	0.00e+00	0	31	0	918552576	76	4020
2026-01-03 00:04:20.92	153.49	45.74	-54.2	-55.5	15.3	0.00e+00	0	31	0	919601152	74	4196
2026-01-03 00:04:21.91	153.86	45.51	-54.2	-55.5	15.2	0.00e+00	0	31	0	921698304	74	4238
2026-01-03 00:04:22.91	154.22	45.29	-54.0	-55.3	15.4	0.00e+00	0	31	0	923795456	74	4113
2026-01-03 00:04:23.91	154.59	45.06	-54.4	-55.8	15.2	0.00e+00	0	31	0	925892608	74	4342
2026-01-03 00:04:24.91	154.94	44.83	-54.2	-55.5	15.3	0.00e+00	0	31	0	926941184	74	4206
2026-01-03 00:04:25.90	155.29	44.61	-54.2	-55.5	15.3	0.00e+00	0	31	0	929038336	74	4238
2026-01-03 00:04:26.91	155.64	44.38	-54.1	-55.3	15.3	0.00e+00	0	31	0	931135488	74	4144
2026-01-03 00:04:27.91	155.98	44.16	-54.7	-56.0	15.1	0.00e+00	0	31	0	933232640	74	4485
2026-01-03 00:04:28.91	156.32	43.93	-55.0	-56.4	15.0	0.00e+00	0	31	0	935329792	75	4421
2026-01-03 00:04:29.91	156.65	43.71	-54.9	-56.4	15.0	0.00e+00	0	31	0	936378368	75	4397
2026-01-03 00:04:30.91	156.98	43.48	-55.9	-57.7	14.5	0.00e+00	0	31	0	938475520	77	4573
2026-01-03 00:04:31.90	157.30	43.26	-57.0	-59.4	13.7	0.00e+00	0	31	0	940572672	79	4940
2026-01-03 00:04:32.90	157.62	43.03	-56.5	-58.5	14.1	0.00e+00	0	31	0	942669824	79	4493
2026-01-03 00:04:33.90	157.94	42.81	-55.3	-56.9	14.8	0.00e+00	0	31	0	944766976	77	4191
2026-01-03 00:04:34.90	158.25	42.59	-55.4	-57.0	14.8	0.00e+00	0	31	0	945815552	76	4468
2026-01-03 00:04:35.90	158.56	42.36	-56.0	-57.9	14.4	0.00e+00	0	31	0	947912704	77	4679
2026-01-03 00:04:36.89	158.86	42.14	-57.3	-59.9	13.4	0.00e+00	0	31	0	950009856	79	5246
2026-01-03 00:04:37.89	159.15	41.92	-58.0	-61.1	12.7	0.00e+00	0	31	0	952107008	81	5346
2026-01-03 00:04:38.88	159.45	41.70	-57.6	-60.4	13.1	0.00e+00	0	31	0	953155584	81	4940
2026-01-03 00:04:39.88	159.74	41.48	-56.8	-59.0	13.8	0.00e+00	0	31	0	955252736	80	4481
2026-01-03 00:04:40.88	160.02	41.26	-55.9	-57.6	14.6	0.00e+00	0	31	0	957349888	78	4281
2026-01-03 00:04:41.87	160.30	41.04	-55.7	-57.4	14.6	0.00e+00	0	31	0	959447040	77	4433
2026-01-03 00:04:42.87	160.58	40.82	-56.1	-58.0	14.3	0.00e+00	0	31	0	961544192	77	4739
2026-01-03 00:04:43.87	160.86	40.60	-56.5	-58.6	14.0	0.00e+00	0	31	0	962592768	78	4779
2026-01-03 00:04:44.87	161.13	40.39	-56.9	-59.2	13.7	0.00e+00	0	31	0	964689920	79	4841
2026-01-03 00:04:45.87	161.40	40.17	-57.0	-59.3	13.6	0.00e+00	0	31	0	966787072	79	4923
2026-01-03 00:04:46.87	161.66	39.95	-56.4	-58.4	14.2	0.00e+00	0	31	0	968884224	79	4441
2026-01-03 00:04:47.88	161.93	39.73	-55.5	-57.3	14.7	0.00e+00	0	31	0	970981376	77	4343
2026-01-03 00:04:48.88	162.19	39.52	-54.4	-55.8	15.2	0.00e+00	0	31	0	972029952	75	4102
2026-01-03 00:04:49.87	162.44	39.30	-54.3	-55.6	15.2	0.00e+00	0	31	0	974127104	74	4264
2026-01-03 00:04:50.88	162.69	39.09	-54.3	-55.6	15.2	0.00e+00	0	31	0	976224256	74	4265
2026-01-03 00:04:51.88	162.94	38.87	-55.5	-57.2	14.7	0.00e+00	0	31	0	978321408	76	4575
2026-01-03 00:04:52.87	163.18	38.66	-56.4	-58.5	14.1	0.00e+00	0	31	0	979369984	77	4991
2026-01-03 00:04:53.87	163.42	38.45	-57.7	-60.6	12.9	0.00e+00	0	31	0	981467136	80	5386
2026-01-03 00:04:54.88	163.67	38.24	-57.9	-61.1	12.6	7.00e-07	0	31	0	983564288	81	5348
2026-01-03 00:04:55.87	163.90	38.03	-57.0	-59.5	13.5	0.00e+00	0	31	0	985661440	80	4716
2026-01-03 00:04:56.88	164.13	37.82	-55.6	-57.3	14.7	0.00e+00	0	31	0	987758592	77	4346
2026-01-03 00:04:57.88	164.36	37.61	-54.9	-56.4	15.0	0.00e+00	0	31	0	988807168	76	4163
2026-01-03 00:04:58.88	164.59	37.40	-54.0	-55.3	15.3	0.00e+00	0	31	0	990904320	74	4101
2026-01-03 00:04:59.87	164.81	37.20	-54.0	-55.2	15.3	0.00e+00	0	31	0	993001472	74	4075
2026-01-03 00:05:00.87	165.03	36.99	-54.4	-55.8	15.1	0.00e+00	0	31	0	995098624	74	4385
2026-01-03 00:05:01.87	165.25	36.79	-54.8	-56.3	15.0	0.00e+00	0	31	0	997195776	75	4363
2026-01-03 00:05:02.87	165.47	36.58	-54.8	-56.3	14.9	0.00e+00	0	31	0	998244352	75	4379
2026-01-03 00:05:03.87	165.68	36.38	-54.3	-55.7	15.2	0.00e+00	0	31	0	1000341504	75	4064
2026-01-03 00:05:04.87	165.89	36.17	-54.5	-55.9	15.2	0.00e+00	0	31	0	1002438656	75	4166
2026-01-03 00:05:05.87	166.10	35.97	-54.4	-55.7	15.2	0.00e+00	0	31	0	1004535808	75	4091
2026-01-03 00:05:06.88	166.31	35.77	-54.5	-56.0	15.1	0.00e+00	0	31	0	1006632960	75	4202
2026-01-03 00:05:07.88	166.51	35.57	-54.2	-55.6	15.2	0.00e+00	0	31	0	1007681536	75	4018
2026-01-03 00:05:08.87	166.71	35.37	-54.5	-55.9	15.1	0.00e+00	0	31	0	1009778688	74	4393
2026-01-03 00:05:09.87	166.91	35.17	-54.4	-55.8	15.1	0.00e+00	0	31	0	1011875840	74	4348
2026-01-03 00:05:10.87	167.11	34.97	-55.1	-56.7	14.8	0.00e+00	0	31	0	1013972992	75	4551
2026-01-03 00:05:11.87	167.30	34.78	-55.6	-57.3	14.6	0.00e+00	0	31	0	1015021568	76	4635
2026-01-03 00:05:12.86	167.49	34.58	-56.4	-58.5	14.0	0.00e+00	0	31	0	1017118720	78	4732
2026-01-03 00:05:13.85	167.68	34.39	-57.4	-60.0	13.2	0.00e+00	0	31	0	1019215872	80	5030
2026-01-03 00:05:14.86	167.87	34.19	-57.5	-60.4	12.9	0.00e+00	0	31	0	1021313024	80	5226
2026-01-03 00:05:15.85	168.05	34.00	-57.7	-60.7	12.8	0.00e+00	0	31	0	1023410176	80	5442
2026-01-03 00:05:16.85	168.23	33.81	-57.1	-59.7	13.3	0.00e+00	0	31	0	1024458752	80	4863
2026-01-03 00:05:17.85	168.42	33.62	-56.4	-58.6	14.1	0.00e+00	0	31	0	1026555904	79	4496
2026-01-03 00:05:18.85	168.59	33.43	-55.9	-57.9	14.4	0.00e+00	0	31	0	1028653056	78	4398
2026-01-03 00:05:19.85	168.77	33.24	-55.0	-56.6	14.9	0.00e+00	0	31	0	1030750208	76	4254
2026-01-03 00:05:20.85	168.95	33.05	-55.1	-56.6	14.8	0.00e+00	0	31	0	1031798784	76	4290
2026-01-03 00:05:21.85	169.12	32.86	-54.8	-56.3	15.0	0.00e+00	0	31	0	1033895936	76	4135
2026-01-03 00:05:22.85	169.29	32.67	-54.7	-56.1	15.0	0.00e+00	0	31	0	1035993088	75	4290
2026-01-03 00:05:23.86	169.46	32.49	-54.7	-56.2	15.0	0.00e+00	0	31	0	1038090240	75	4334
2026-01-03 00:05:24.85	169.63	32.30	-55.2	-56.9	14.7	0.00e+00	0	31	0	1040187392	75	4676
2026-01-03 00:05:25.85	169.79	32.12	-55.2	-56.9	14.7	0.00e+00	0	31	0	1041235968	75	4677
2026-01-03 00:05:26.85	169.95	31.94	-54.8	-56.3	15.0	0.00e+00	0	31	0	1043333120	76	4104
2026-01-03 00:05:27.85	170.12	31.75	-55.0	-56.6	14.9	0.00e+00	0	31	0	1045430272	76	4257
2026-01-03 00:05:28.85	170.28	31.57	-54.8	-56.3	15.0	0.00e+00	0	31	0	1047527424	76	4131
2026-01-03 00:05:29.85	170.43	31.39	-54.3	-55.7	15.2	0.00e+00	0	31	0	1049624576	75	4071
2026-01-03 00:05:30.85	170.59	31.21	-54.9	-56.5	14.8	0.00e+00	0	31	0	1050673152	75	4465
2026-01-03 00:05:31.85	170.75	31.03	-54.7	-56.2	15.0	0.00e+00	0	31	0	1052770304	75	4330
2026-01-03 00:05:32.85	170.90	30.85	-55.2	-56.9	14.7	0.00e+00	0	31	0	1054867456	75	4655
2026-01-03 00:05:33.85	171.05	30.67	-55.9	-57.8	14.4	0.00e+00	0	31	0	1056964608	77	4609
2026-01-03 00:05:34.85	171.20	30.50	-55.6	-57.4	14.5	0.00e+00	0	31	0	1058013184	77	4440
2026-01-03 00:05:35.85	171.35	30.32	-55.8	-57.7	14.4	0.00e+00	0	31	0	1060110336	77	4585
2026-01-03 00:05:36.85	171.50	30.15	-55.5	-57.3	14.6	0.00e+00	0	31	0	1062207488	77	4342
2026-01-03 00:05:37.85	171.64	29.97	-55.1	-56.7	14.8	0.00e+00	0	31	0	1064304640	76	4292
2026-01-03 00:05:38.84	171.78	29.80	-54.8	-56.3	15.0	0.00e+00	0	31	0	1066401792	76	4108
2026-01-03 00:05:39.85	171.93	29.63	-54.5	-55.9	15.1	0.00e+00	0	31	0	1067450368	75	4159
2026-01-03 00:05:40.85	172.07	29.46	-54.0	-55.3	15.2	0.00e+00	0	31	0	1069547520	74	4126
2026-01-03 00:05:41.85	172.21	29.29	-53.4	-54.6	15.5	0.00e+00	0	31	0	1071644672	73	4043
2026-01-03 00:05:42.84	172.35	29.12	-53.6	-54.8	15.4	0.00e+00	0	31	0	1073741824	73	4121
2026-01-03 00:05:43.84	172.48	28.95	-53.3	-54.4	15.6	0.00e+00	0	31	0	1075838976	73	3952
2026-01-03 00:05:44.83	172.62	28.78	-53.7	-54.9	15.4	0.00e+00	0	31	0	1076887552	73	4177
2026-01-03 00:05:45.83	172.75	28.62	-54.1	-55.5	15.1	0.00e+00	0	31	0	1078984704	73	4459
2026-01-03 00:05:46.83	172.88	28.45	-54.4	-55.9	15.1	0.00e+00	0	31	0	1081081856	74	4394
2026-01-03 00:05:47.82	173.01	28.29	-55.1	-56.7	14.8	0.00e+00	0	31	0	1083179008	75	4594
2026-01-03 00:05:48.82	173.14	28.12	-55.6	-57.4	14.5	0.00e+00	0	31	0	1085276160	76	4671
2026-01-03 00:05:49.81	173.27	27.96	-55.6	-57.5	14.5	0.00e+00	0	31	0	1086324736	76	4715
2026-01-03 00:05:50.81	173.40	27.80	-56.1	-58.1	14.1	0.00e+00	0	31	0	1088421888	77	4802
2026-01-03 00:05:51.80	173.52	27.64	-55.9	-57.9	14.3	0.00e+00	0	31	0	1090519040	77	4660
2026-01-03 00:05:52.79	173.65	27.48	-55.7	-57.6	14.4	0.00e+00	0	31	0	1092616192	77	4515
2026-01-03 00:05:53.79	173.77	27.32	-55.4	-57.1	14.7	0.00e+00	0	31	0	1093664768	77	4266
2026-01-03 00:05:54.78	173.89	27.16	-54.8	-56.3	15.0	0.00e+00	0	31	0	1095761920	76	4109
2026-01-03 00:05:55.78	174.01	27.00	-54.7	-56.1	15.0	0.00e+00	0	31	0	1097859072	75	4287
2026-01-03 00:05:56.79	174.13	26.84	-54.5	-56.0	15.1	0.00e+00	0	31	0	1099956224	75	4198
2026-01-03 00:05:57.79	174.25	26.68	-54.2	-55.5	15.2	0.00e+00	0	31	0	1102053376	74	4227
2026-01-03 00:05:58.79	174.37	26.52	-54.1	-55.4	15.2	0.00e+00	0	31	0	1103101952	74	4186
2026-01-03 00:05:59.79	174.49	26.37	-54.3	-55.8	15.1	0.00e+00	0	31	0	1105199104	74	4344
2026-01-03 00:06:00.79	174.60	26.21	-54.4	-55.8	15.0	0.00e+00	0	31	0	1107296256	74	4362
2026-01-03 00:06:01.79	174.72	26.06	-54.4	-55.8	15.0	0.00e+00	0	31	0	1109393408	74	4388
2026-01-03 00:06:02.79	174.83	25.91	-54.8	-56.3	14.8	0.00e+00	0	31	0	1110441984	74	4628
2026-01-03 00:06:03.79	174.95	25.75	-54.7	-56.3	14.9	0.00e+00	0	31	0	1112539136	74	4613
2026-01-03 00:06:04.79	175.06	25.60	-54.6	-56.1	15.0	0.00e+00	0	31	0	1114636288	74	4499
2026-01-03 00:06:05.79	175.17	25.45	-54.6	-56.0	15.0	0.00e+00	0	31	0	1116733440	75	4232
2026-01-03 00:06:06.79	175.28	25.30	-54.4	-55.8	15.1	0.00e+00	0	31	0	1118830592	75	4106
2026-01-03 00:06:07.78	175.38	25.15	-54.3	-55.7	15.2	0.00e+00	0	31	0	1119879168	75	4075
2026-01-03 00:06:08.78	175.49	25.00	-54.1	-55.4	15.2	0.00e+00	0	31	0	1121976320	74	4176
2026-01-03 00:06:09.79	175.60	24.85	-53.8	-55.0	15.3	0.00e+00	0	31	0	1124073472	73	4227
2026-01-03 00:06:10.79	175.71	24.71	-53.8	-55.0	15.3	0.00e+00	0	31	0	1126170624	73	4235
2026-01-03 00:06:11.79	175.81	24.56	-53.5	-54.8	15.4	0.00e+00	0	31	0	1128267776	73	4102
2026-01-03 00:06:12.79	175.91	24.41	-53.5	-54.8	15.4	0.00e+00	0	31	0	1129316352	73	4103
2026-01-03 00:06:13.79	176.02	24.27	-53.7	-54.9	15.3	0.00e+00	0	31	0	1131413504	73	4172
2026-01-03 00:06:14.79	176.12	24.12	-53.5	-54.7	15.4	0.00e+00	0	31	0	1133510656	73	4092
2026-01-03 00:06:15.79	176.22	23.98	-53.5	-54.8	15.4	0.00e+00	0	31	0	1135607808	73	4106
2026-01-03 00:06:16.79	176.32	23.84	-53.4	-54.6	15.4	0.00e+00	0	31	0	1137704960	73	4049
2026-01-03 00:06:17.78	176.42	23.69	-53.5	-54.7	15.4	0.00e+00	0	31	0	1138753536	73	4067
2026-01-03 00:06:18.78	176.52	23.55	-53.5	-54.8	15.4	0.00e+00	0	31	0	1140850688	73	4106
2026-01-03 00:06:19.79	176.62	23.41	-53.5	-54.7	15.5	0.00e+00	0	31	0	1142947840	73	4055
2026-01-03 00:06:20.80	176.71	23.27	-53.5	-54.8	15.4	0.00e+00	0	31	0	1145044992	73	4109
2026-01-03 00:06:21.80	176.81	23.13	-53.8	-55.1	15.2	0.00e+00	0	31	0	1146093568	73	4279
2026-01-03 00:06:22.80	176.90	22.99	-54.1	-55.4	15.1	0.00e+00	0	31	0	1148190720	73	4437
2026-01-03 00:06:23.79	177.00	22.85	-54.1	-55.4	15.2	0.00e+00	0	31	0	1150287872	73	4440
2026-01-03 00:06:24.80	177.09	22.71	-54.1	-55.5	15.1	0.00e+00	0	31	0	1152385024	73	4456
2026-01-03 00:06:25.80	177.18	22.58	-54.4	-55.9	14.9	0.00e+00	0	31	0	1154482176	74	4428
2026-01-03 00:06:26.80	177.28	22.44	-54.2	-55.6	15.1	0.00e+00	0	31	0	1155530752	74	4277
2026-01-03 00:06:27.80	177.37	22.30	-54.2	-55.7	15.1	0.00e+00	0	31	0	1157627904	74	4306
2026-01-03 00:06:28.80	177.46	22.17	-54.3	-55.7	15.1	0.00e+00	0	31	0	1159725056	74	4317
2026-01-03 00:06:29.81	177.55	22.03	-54.1	-55.5	15.1	0.00e+00	0	31	0	1161822208	74	4214
2026-01-03 00:06:30.80	177.64	21.90	-54.1	-55.5	15.2	0.00e+00	0	31	0	1163919360	74	4217
2026-01-03 00:06:31.80	177.73	21.77	-53.7	-55.0	15.2	0.00e+00	0	31	0	1164967936	74	3985
2026-01-03 00:06:32.80	177.81	21.63	-53.6	-54.8	15.4	0.00e+00	0	31	0	1167065088	73	4139
2026-01-03 00:06:33.80	177.90	21.50	-53.5	-54.8	15.4	0.00e+00	0	31	0	1169162240	73	4121
2026-01-03 00:06:34.81	177.99	21.37	-53.3	-54.5	15.5	0.00e+00	0	31	0	1171259392	73	3961
2026-01-03 00:06:35.81	178.07	21.24	-53.1	-54.2	15.5	0.00e+00	0	31	0	1173356544	72	4093
2026-01-03 00:06:36.81	178.16	21.11	-53.1	-54.2	15.5	0.00e+00	0	31	0	1174405120	72	4095
2026-01-03 00:06:37.80	178.24	20.98	-52.7	-53.8	15.7	0.00e+00	0	31	0	1176502272	72	3903
2026-01-03 00:06:38.81	178.32	20.85	-52.7	-53.8	15.7	0.00e+00	0	31	0	1178599424	72	3880
2026-01-03 00:06:39.81	178.41	20.72	-52.3	-53.4	15.7	0.00e+00	0	31	0	1180696576	71	3922
2026-01-03 00:06:40.82	178.49	20.59	-52.4	-53.4	15.8	0.00e+00	0	31	0	1182793728	71	3938
2026-01-03 00:06:41.82	178.57	20.47	-52.2	-53.3	15.8	0.00e+00	0	31	0	1183842304	71	3869
2026-01-03 00:06:42.82	178.65	20.34	-52.1	-53.1	15.8	0.00e+00	0	31	0	1185939456	70	4025
2026-01-03 00:06:43.82	178.73	20.21	-51.9	-52.9	15.8	0.00e+00	0	31	0	1188036608	70	3943
2026-01-03 00:06:44.83	178.81	20.09	-51.8	-52.7	15.9	0.00e+00	0	31	0	1190133760	70	3864
2026-01-03 00:06:45.82	178.89	19.96	-51.7	-52.7	15.8	0.00e+00	0	31	0	1191182336	69	4080
2026-01-03 00:06:46.82	178.97	19.84	-51.9	-52.9	15.8	0.00e+00	0	31	0	1193279488	69	4167
2026-01-03 00:06:47.81	179.05	19.72	-52.0	-52.9	15.7	0.00e+00	0	31	0	1195376640	69	4187
2026-01-03 00:06:48.81	179.12	19.60	-52.1	-53.2	15.7	0.00e+00	0	31	0	1197473792	69	4301
2026-01-03 00:06:49.80	179.20	19.47	-52.5	-53.6	15.6	0.00e+00	0	31	0	1199570944	70	4264
2026-01-03 00:06:50.80	179.28	19.35	-52.4	-53.5	15.6	0.00e+00	0	31	0	1200619520	70	4236
2026-01-03 00:06:51.80	179.35	19.23	-52.7	-53.9	15.5	0.00e+00	0	31	0	1202716672	70	4408
2026-01-03 00:06:52.81	179.43	19.11	-53.0	-54.2	15.5	0.00e+00	0	31	0	1204813824	71	4337
2026-01-03 00:06:53.81	179.50	18.99	-53.2	-54.4	15.4	0.00e+00	0	31	0	1206910976	71	4434
2026-01-03 00:06:54.81	179.57	18.87	-53.3	-54.6	15.3	0.00e+00	0	31	0	1207959552	71	4523
2026-01-03 00:06:55.81	179.65	18.75	-53.4	-54.7	15.3	0.00e+00	0	31	0	1210056704	72	4330
2026-01-03 00:06:56.81	179.72	18.63	-53.7	-55.0	15.2	0.00e+00	0	31	0	1212153856	72	4469
2026-01-03 00:06:57.81	179.79	18.51	-53.9	-55.3	15.2	0.00e+00	0	31	0	1214251008	73	4350
2026-01-03 00:06:58.81	179.86	18.39	-54.0	-55.5	15.1	0.00e+00	0	31	0	1216348160	73	4444
2026-01-03 00:06:59.82	179.94	18.28	-54.2	-55.6	15.0	0.00e+00	0	31	0	1217396736	73	4522
2026-01-03 00:07:00.82	180.01	18.16	-54.1	-55.6	15.0	0.00e+00	0	31	0	1219493888	73	4501
2026-01-03 00:07:01.81	180.08	18.05	-54.2	-55.6	15.0	0.00e+00	0	31	0	1221591040	73	4520
2026-01-03 00:07:02.82	180.15	17.93	-54.2	-55.7	15.0	0.00e+00	0	31	0	1223688192	73	4554
2026-01-03 00:07:03.82	180.22	17.81	-54.2	-55.6	15.0	0.00e+00	0	31	0	1225785344	73	4523
2026-01-03 00:07:04.82	180.28	17.70	-54.4	-56.0	14.9	0.00e+00	0	31	0	1226833920	74	4443
2026-01-03 00:07:05.82	180.35	17.58	-54.3	-55.8	15.0	0.00e+00	0	31	0	1228931072	74	4363
2026-01-03 00:07:06.82	180.42	17.47	-54.5	-56.0	14.9	0.00e+00	0	31	0	1231028224	74	4459
2026-01-03 00:07:07.82	180.49	17.36	-54.5	-56.1	14.9	0.00e+00	0	31	0	1233125376	74	4495
2026-01-03 00:07:08.83	180.55	17.24	-54.4	-55.9	14.9	0.00e+00	0	31	0	1235222528	74	4428
2026-01-03 00:07:09.82	180.62	17.13	-54.4	-55.9	14.9	0.00e+00	0	31	0	1236271104	74	4414
2026-01-03 00:07:10.82	180.69	17.02	-54.3	-55.8	15.0	0.00e+00	0	31	0	1238368256	74	4368
2026-01-03 00:07:11.82	180.75	16.91	-54.4	-55.9	14.9	0.00e+00	0	31	0	1240465408	74	4406
2026-01-03 00:07:12.82	180.82	16.80	-54.4	-55.9	14.9	0.00e+00	0	31	0	1242562560	74	4400
2026-01-03 00:07:13.81	180.88	16.69	-54.4	-55.9	14.9	0.00e+00	0	31	0	1244659712	74	4395
2026-01-03 00:07:14.81	180.94	16.58	-54.4	-55.9	14.9	0.00e+00	0	31	0	1245708288	74	4430
2026-01-03 00:07:15.82	181.01	16.47	-54.2	-55.6	15.0	0.00e+00	0	31	0	1247805440	74	4283
2026-01-03 00:07:16.83	181.07	16.36	-54.1	-55.5	15.1	0.00e+00	0	31	0	1249902592	74	4227
2026-01-03 00:07:17.82	181.13	16.25	-54.3	-55.8	15.0	0.00e+00	0	31	0	1251999744	74	4373
2026-01-03 00:07:18.82	181.20	16.15	-54.0	-55.4	15.1	0.00e+00	0	31	0	1253048320	74	4184
2026-01-03 00:07:19.83	181.26	16.04	-53.9	-55.3	15.2	0.00e+00	0	31	0	1255145472	74	4126
2026-01-03 00:07:20.83	181.32	15.93	-53.8	-55.2	15.2	0.00e+00	0	31	0	1257242624	74	4086
2026-01-03 00:07:21.82	181.38	15.82	-53.6	-55.0	15.2	0.00e+00	0	31	0	1259339776	73	4195
