passes_logs/2026/01/02/R3.2S_Murmansk/R3.2S_Murmansk__20260102_093944_TY-42_rec.log

#Pass ID: 20260102_093944_TY-42
#Satellite: TY-42
#Configuration: TY-42_900M
#almurnet v.1.7.20251203
#Start time: 2026-01-02 09:39:45

#Version: 2.2.20231116
#Station: R3.2S_Murmansk
#Location: 33.079688 lon 68.888172 lat
#TLE: 1 64048U 25103A   26001.16230324  .00008011  00000-0  38191-3 0 09998
#TLE: 2 64048 097.4120 076.8412 0001853 093.7312 056.4064 15.19175193 34719

#Time	Az	El	Level	Level2	SNR	BER	BlckErr	Temp	State	Recorded	gain1	gain2
2026-01-02 09:39:45.05	20.97	2.03	-59.6	-62.4	6.2	0.00e+00	0	37	0	0	86	19366
2026-01-02 09:39:46.04	20.96	2.10	-59.6	-62.4	6.2	0.00e+00	0	37	104	0	86	19329
2026-01-02 09:39:47.04	20.95	2.17	-59.6	-62.4	6.2	0.00e+00	0	37	104	0	86	19404
2026-01-02 09:39:48.03	20.94	2.24	-59.6	-62.4	6.2	0.00e+00	0	37	104	0	86	19385
2026-01-02 09:39:49.03	20.94	2.31	-59.6	-62.4	6.2	0.00e+00	0	37	104	0	86	19285
2026-01-02 09:39:50.03	20.93	2.38	-59.6	-62.4	6.2	0.00e+00	0	37	104	0	86	19324
2026-01-02 09:39:51.02	20.92	2.45	-59.6	-62.4	6.2	0.00e+00	0	37	104	0	86	19278
2026-01-02 09:39:52.02	20.91	2.52	-59.6	-62.4	6.2	0.00e+00	0	37	104	0	86	19296
2026-01-02 09:39:53.01	20.91	2.59	-59.6	-62.3	6.2	0.00e+00	0	37	104	0	86	19249
2026-01-02 09:39:54.01	20.90	2.66	-59.6	-62.4	6.2	0.00e+00	0	37	104	0	86	19307
2026-01-02 09:39:54.99	20.89	2.73	-59.6	-62.4	6.2	0.00e+00	0	37	104	0	86	19352
2026-01-02 09:39:55.99	20.88	2.81	-59.6	-62.4	6.2	0.00e+00	0	37	104	0	86	19366
2026-01-02 09:39:56.99	20.87	2.88	-59.6	-62.4	6.2	0.00e+00	0	37	104	0	86	19375
2026-01-02 09:39:57.98	20.87	2.95	-59.6	-62.4	6.2	0.00e+00	0	37	104	0	86	19353
2026-01-02 09:39:58.98	20.86	3.02	-59.6	-62.4	6.2	0.00e+00	0	37	104	0	86	19394
2026-01-02 09:39:59.97	20.85	3.09	-59.6	-62.4	6.2	0.00e+00	0	37	104	0	86	19380
2026-01-02 09:40:00.97	20.84	3.17	-59.6	-62.4	6.2	0.00e+00	0	37	104	0	86	19408
2026-01-02 09:40:01.97	20.83	3.24	-59.6	-62.4	6.2	0.00e+00	0	38	104	0	86	19393
2026-01-02 09:40:02.96	20.82	3.31	-59.6	-62.4	6.2	0.00e+00	0	38	104	0	86	19323
2026-01-02 09:40:03.95	20.82	3.39	-59.6	-62.4	6.2	0.00e+00	0	38	104	0	86	19296
2026-01-02 09:40:04.95	20.81	3.46	-59.6	-62.4	6.2	0.00e+00	0	38	104	0	86	19389
2026-01-02 09:40:05.95	20.80	3.54	-59.6	-62.4	6.2	0.00e+00	0	38	104	0	86	19354
2026-01-02 09:40:06.94	20.79	3.61	-59.6	-62.4	6.2	0.00e+00	0	38	104	0	86	19405
2026-01-02 09:40:07.93	20.78	3.68	-59.6	-62.4	6.2	0.00e+00	0	38	104	0	86	19414
2026-01-02 09:40:08.93	20.77	3.76	-59.6	-62.4	6.2	0.00e+00	0	38	104	0	86	19398
2026-01-02 09:40:09.93	20.76	3.83	-59.6	-62.4	6.2	0.00e+00	0	38	104	0	86	19353
2026-01-02 09:40:10.92	20.75	3.91	-59.6	-62.4	6.2	0.00e+00	0	38	104	0	86	19394
2026-01-02 09:40:11.91	20.75	3.98	-59.6	-62.4	6.2	0.00e+00	0	38	104	0	86	19419
2026-01-02 09:40:12.91	20.74	4.06	-59.6	-62.4	6.2	0.00e+00	0	38	104	0	86	19378
2026-01-02 09:40:13.91	20.73	4.14	-59.6	-62.4	6.2	0.00e+00	0	38	104	0	86	19409
2026-01-02 09:40:14.90	20.72	4.21	-59.6	-62.4	6.2	0.00e+00	0	38	104	0	86	19383
2026-01-02 09:40:15.90	20.71	4.29	-59.6	-62.4	6.2	0.00e+00	0	38	104	0	86	19380
2026-01-02 09:40:16.89	20.70	4.37	-59.6	-62.4	6.2	0.00e+00	0	38	104	0	86	19377
2026-01-02 09:40:17.88	20.69	4.44	-59.6	-62.4	6.2	0.00e+00	0	38	104	0	86	19400
2026-01-02 09:40:18.88	20.68	4.52	-59.6	-62.4	6.2	0.00e+00	0	38	104	0	86	19394
2026-01-02 09:40:19.87	20.67	4.60	-59.6	-62.4	6.2	0.00e+00	0	38	104	0	86	19404
2026-01-02 09:40:20.87	20.66	4.68	-59.6	-62.4	6.2	0.00e+00	0	38	104	0	86	19400
2026-01-02 09:40:21.85	20.65	4.76	-59.6	-62.4	6.2	0.00e+00	0	38	104	0	86	19353
2026-01-02 09:40:22.85	20.64	4.84	-59.6	-62.4	6.2	0.00e+00	0	38	104	0	86	19385
2026-01-02 09:40:23.84	20.63	4.91	-59.6	-62.4	6.2	0.00e+00	0	38	104	0	86	19346
2026-01-02 09:40:24.83	20.62	4.99	-59.6	-62.4	6.2	0.00e+00	0	39	104	0	86	19333
2026-01-02 09:40:25.83	20.61	5.07	-59.7	-62.5	6.2	0.00e+00	0	39	104	0	86	19597
2026-01-02 09:40:26.82	20.60	5.15	-59.8	-62.6	6.2	0.00e+00	0	39	104	0	86	19796
2026-01-02 09:40:27.81	20.59	5.23	-59.6	-62.4	6.2	0.00e+00	0	39	104	0	86	19336
2026-01-02 09:40:28.81	20.58	5.31	-59.7	-62.5	6.2	0.00e+00	0	39	104	0	86	19592
2026-01-02 09:40:29.80	20.56	5.39	-59.7	-62.5	6.2	0.00e+00	0	38	104	0	86	19503
2026-01-02 09:40:30.79	20.55	5.48	-59.8	-62.6	6.2	0.00e+00	0	39	104	0	86	19863
2026-01-02 09:40:31.77	20.54	5.56	-59.7	-62.4	6.2	0.00e+00	0	39	104	0	86	19455
2026-01-02 09:40:32.76	20.53	5.64	-59.7	-62.5	6.2	0.00e+00	0	39	104	0	86	19633
2026-01-02 09:40:33.76	20.52	5.72	-59.7	-62.5	6.2	0.00e+00	0	39	104	0	86	19574
2026-01-02 09:40:34.75	20.51	5.80	-59.9	-62.7	6.2	0.00e+00	0	39	104	0	86	19959
2026-01-02 09:40:35.75	20.50	5.89	-59.7	-62.5	6.2	0.00e+00	0	39	104	0	86	19499
2026-01-02 09:40:36.75	20.48	5.97	-59.8	-62.5	6.2	0.00e+00	0	39	104	0	86	19689
2026-01-02 09:40:37.74	20.47	6.05	-59.7	-62.5	6.2	0.00e+00	0	39	104	0	86	19593
2026-01-02 09:40:38.74	20.46	6.14	-59.9	-62.7	6.2	0.00e+00	0	39	104	0	86	19970
2026-01-02 09:40:39.73	20.45	6.22	-59.8	-62.5	6.2	0.00e+00	0	39	104	0	86	19636
2026-01-02 09:40:40.72	20.44	6.31	-59.8	-62.6	6.2	0.00e+00	0	39	104	0	86	19756
2026-01-02 09:40:41.71	20.42	6.39	-59.8	-62.5	6.2	0.00e+00	0	39	104	0	86	19698
2026-01-02 09:40:42.71	20.41	6.48	-59.9	-62.7	6.2	0.00e+00	0	39	104	0	86	20074
2026-01-02 09:40:43.71	20.40	6.56	-59.8	-62.6	6.2	0.00e+00	0	39	104	0	86	19759
2026-01-02 09:40:44.70	20.39	6.65	-59.8	-62.6	6.2	0.00e+00	0	39	104	0	86	19797
2026-01-02 09:40:45.70	20.37	6.74	-59.8	-62.6	6.2	0.00e+00	0	39	104	0	86	19855
2026-01-02 09:40:46.69	20.36	6.82	-59.9	-62.7	6.2	0.00e+00	0	39	104	0	86	20130
2026-01-02 09:40:47.69	20.35	6.91	-59.8	-62.6	6.2	0.00e+00	0	39	104	0	86	19930
2026-01-02 09:40:48.68	20.34	7.00	-59.9	-62.6	6.2	0.00e+00	0	39	104	0	86	19873
2026-01-02 09:40:49.67	20.32	7.09	-59.8	-62.6	6.2	0.00e+00	0	39	104	0	86	19900
2026-01-02 09:40:50.67	20.31	7.18	-60.0	-62.8	6.2	0.00e+00	0	39	104	0	86	20173
2026-01-02 09:40:51.66	20.30	7.27	-59.9	-62.7	6.2	0.00e+00	0	39	104	0	86	19972
2026-01-02 09:40:52.66	20.28	7.36	-59.9	-62.7	6.2	0.00e+00	0	39	104	0	86	19966
2026-01-02 09:40:53.66	20.27	7.45	-59.9	-62.7	6.2	0.00e+00	0	39	104	0	86	19976
2026-01-02 09:40:54.65	20.25	7.54	-60.0	-62.8	6.2	0.00e+00	0	39	104	0	86	20211
2026-01-02 09:40:55.64	20.24	7.63	-59.9	-62.7	6.2	0.00e+00	0	40	104	0	86	20072
2026-01-02 09:40:56.64	20.23	7.72	-59.9	-62.7	6.2	0.00e+00	0	39	104	0	86	20066
2026-01-02 09:40:57.64	20.21	7.81	-59.9	-62.7	6.2	0.00e+00	0	39	104	0	86	20115
2026-01-02 09:40:58.63	20.20	7.90	-60.0	-62.8	6.2	0.00e+00	0	39	104	0	86	20286
2026-01-02 09:40:59.63	20.18	8.00	-60.0	-62.8	6.2	0.00e+00	0	39	104	0	86	20197
2026-01-02 09:41:00.62	20.17	8.09	-60.0	-62.7	6.2	0.00e+00	0	39	104	0	86	20142
2026-01-02 09:41:01.61	20.15	8.18	-60.0	-62.7	6.2	0.00e+00	0	39	104	0	86	20109
2026-01-02 09:41:02.61	20.14	8.28	-60.1	-62.9	6.2	0.00e+00	0	39	104	0	86	20460
2026-01-02 09:41:03.60	20.12	8.37	-60.0	-62.8	6.2	0.00e+00	0	40	104	0	86	20238
2026-01-02 09:41:04.59	20.11	8.46	-48.5	-48.4	10.0	0.00e+00	0	40	104	0	64	13738
2026-01-02 09:41:05.59	20.09	8.56	-51.5	-51.7	9.6	4.13e-02	5526	41	0	67108864	68	15957
2026-01-02 09:41:06.59	20.07	8.66	-49.5	-49.5	10.0	0.00e+00	5515	40	104	92274688	66	13894
2026-01-02 09:41:07.59	20.06	8.75	-45.3	-45.1	12.7	0.00e+00	0	41	0	176160768	57	14072
2026-01-02 09:41:08.58	20.04	8.85	-44.5	-44.4	12.9	9.96e-02	0	41	0	293601280	56	13654
2026-01-02 09:41:09.58	20.03	8.95	-44.2	-44.1	13.1	9.96e-02	0	41	0	402653184	55	14012
2026-01-02 09:41:10.57	20.01	9.04	-44.2	-44.0	13.1	1.72e-02	0	41	0	511705088	55	13903
2026-01-02 09:41:11.56	19.99	9.14	-44.2	-44.1	13.1	1.72e-02	0	41	0	629145600	55	14009
2026-01-02 09:41:12.55	19.98	9.24	-44.2	-44.0	13.1	1.72e-02	0	41	0	738197504	55	13886
2026-01-02 09:41:13.54	19.96	9.34	-44.0	-43.8	13.2	1.41e-02	0	41	0	847249408	55	13564
2026-01-02 09:41:14.53	19.94	9.44	-44.1	-43.9	13.2	1.41e-02	0	41	0	956301312	55	13768
2026-01-02 09:41:15.53	19.93	9.54	-44.1	-43.9	13.2	1.22e-02	0	41	0	1073741824	55	13733
2026-01-02 09:41:16.53	19.91	9.64	-43.9	-43.8	13.2	1.22e-02	0	41	0	1182793728	55	13518
2026-01-02 09:41:17.51	19.89	9.74	-43.8	-43.7	13.2	1.22e-02	0	41	0	1291845632	54	14183
2026-01-02 09:41:18.51	19.87	9.84	-43.9	-43.7	13.2	1.17e-02	0	41	0	1409286144	54	14264
2026-01-02 09:41:19.50	19.85	9.95	-43.8	-43.6	13.3	1.17e-02	0	41	0	1518338048	54	14052
2026-01-02 09:41:20.49	19.84	10.05	-43.6	-43.4	13.3	1.17e-02	0	41	0	1627389952	54	13697
2026-01-02 09:41:21.48	19.82	10.15	-43.6	-43.5	13.3	9.67e-03	0	41	0	1744830464	54	13808
2026-01-02 09:41:22.48	19.80	10.26	-43.5	-43.3	13.4	9.67e-03	0	41	0	1853882368	54	13620
2026-01-02 09:41:23.48	19.78	10.36	-43.5	-43.3	13.4	9.67e-03	0	41	0	1962934272	54	13570
2026-01-02 09:41:24.47	19.76	10.47	-43.5	-43.3	13.4	9.67e-03	0	42	0	2080374784	54	13563
2026-01-02 09:41:25.47	19.74	10.57	-43.4	-43.3	13.4	8.07e-03	0	42	0	2189426688	54	13512
2026-01-02 09:41:26.46	19.72	10.68	-43.5	-43.3	13.4	8.07e-03	0	42	0	2306867200	54	13528
2026-01-02 09:41:27.46	19.70	10.79	-43.5	-43.4	13.4	8.07e-03	0	42	0	2415919104	54	13664
2026-01-02 09:41:28.45	19.68	10.89	-43.3	-43.1	13.5	7.24e-03	0	42	0	2524971008	53	14086
2026-01-02 09:41:29.45	19.66	11.00	-43.2	-43.0	13.5	7.24e-03	0	42	0	2642411520	53	13911
2026-01-02 09:41:30.44	19.64	11.11	-43.2	-43.0	13.5	7.24e-03	0	42	0	2751463424	53	13920
2026-01-02 09:41:31.43	19.62	11.22	-43.2	-43.0	13.5	6.24e-03	0	42	0	2860515328	53	13861
2026-01-02 09:41:32.42	19.60	11.33	-43.2	-43.0	13.5	6.24e-03	0	42	0	2969567232	53	13928
2026-01-02 09:41:33.41	19.58	11.44	-43.2	-43.0	13.5	6.24e-03	0	42	0	3087007744	53	13934
2026-01-02 09:41:34.40	19.56	11.55	-43.0	-42.9	13.6	6.35e-03	0	42	0	3196059648	53	13646
2026-01-02 09:41:35.39	19.54	11.66	-42.9	-42.8	13.6	6.35e-03	0	42	0	3305111552	53	13509
2026-01-02 09:41:36.39	19.52	11.78	-43.1	-42.9	13.6	4.98e-03	0	42	0	3414163456	53	13684
2026-01-02 09:41:37.39	19.49	11.89	-42.9	-42.7	13.6	4.98e-03	0	42	0	3531603968	53	13471
2026-01-02 09:41:38.39	19.47	12.01	-42.9	-42.7	13.6	4.98e-03	0	42	0	3640655872	52	14199
2026-01-02 09:41:39.38	19.45	12.12	-42.9	-42.7	13.6	4.17e-03	0	42	0	3758096384	52	14229
2026-01-02 09:41:40.37	19.43	12.24	-42.9	-42.7	13.6	4.17e-03	0	42	0	3867148288	52	14170
2026-01-02 09:41:41.36	19.40	12.35	-42.8	-42.6	13.7	4.17e-03	0	42	0	3976200192	52	14055
2026-01-02 09:41:42.35	19.38	12.47	-42.7	-42.5	13.7	4.26e-03	0	42	0	4093640704	52	13904
2026-01-02 09:41:43.34	19.36	12.59	-42.8	-42.6	13.6	4.26e-03	0	42	0	4202692608	52	13986
2026-01-02 09:41:44.34	19.33	12.71	-44.2	-44.0	13.3	4.26e-03	0	42	0	4311744512	55	13847
2026-01-02 09:41:45.34	19.31	12.83	-55.7	-56.3	7.9	0.00e+00	0	42	104	4362076160	77	16077
2026-01-02 09:41:46.34	19.29	12.95	-55.2	-55.8	8.0	0.00e+00	0	42	104	4362076160	77	15192
2026-01-02 09:41:47.34	19.26	13.07	-55.3	-55.9	7.9	0.00e+00	0	42	104	4362076160	77	15309
2026-01-02 09:41:48.34	19.24	13.19	-54.8	-55.2	8.2	0.00e+00	0	42	104	4362076160	76	15111
2026-01-02 09:41:49.34	19.21	13.32	-53.7	-54.0	8.7	0.00e+00	4295	42	104	4362076160	74	14677
2026-01-02 09:41:50.34	19.19	13.44	-53.3	-53.6	8.8	0.00e+00	0	42	104	4362076160	73	14788
2026-01-02 09:41:51.34	19.16	13.56	-51.8	-51.9	9.8	0.00e+00	5512	43	0	4429185024	70	14573
2026-01-02 09:41:52.32	19.13	13.69	-50.2	-50.2	10.7	3.65e-01	4093	44	0	4538236928	67	14233
2026-01-02 09:41:53.31	19.11	13.81	-48.3	-48.2	11.7	3.65e-01	0	43	0	4655677440	63	14204
2026-01-02 09:41:54.30	19.08	13.94	-46.4	-46.2	12.6	3.65e-01	0	43	0	4764729344	60	13470
2026-01-02 09:41:55.30	19.05	14.07	-45.1	-44.9	13.0	1.63e-01	0	43	0	4882169856	57	13752
2026-01-02 09:41:56.29	19.03	14.20	-43.8	-43.7	13.4	1.63e-01	0	43	0	4982833152	54	14140
2026-01-02 09:41:57.29	19.00	14.33	-42.8	-42.6	13.7	1.48e-02	0	43	0	5100273664	52	14073
2026-01-02 09:41:58.28	18.97	14.46	-42.3	-42.1	13.8	1.48e-02	0	43	0	5209325568	51	14023
2026-01-02 09:41:59.27	18.94	14.59	-42.0	-41.8	13.9	1.48e-02	0	43	0	5326766080	51	13553
2026-01-02 09:42:00.26	18.92	14.72	-42.0	-41.8	13.9	1.48e-02	0	43	0	5435817984	51	13626
2026-01-02 09:42:01.27	18.89	14.85	-42.1	-41.9	13.9	2.26e-03	0	43	0	5553258496	51	13727
2026-01-02 09:42:02.25	18.86	14.98	-41.9	-41.7	14.0	2.26e-03	0	43	0	5662310400	51	13434
2026-01-02 09:42:03.25	18.83	15.12	-41.7	-41.5	14.0	2.26e-03	0	43	0	5771362304	50	13890
2026-01-02 09:42:04.24	18.80	15.26	-41.8	-41.6	14.0	1.35e-03	0	43	0	5880414208	50	13988
2026-01-02 09:42:05.23	18.77	15.39	-41.6	-41.4	14.0	1.35e-03	0	43	0	5997854720	50	13744
2026-01-02 09:42:06.23	18.74	15.53	-41.5	-41.3	14.0	9.35e-04	0	43	0	6106906624	50	13550
2026-01-02 09:42:07.22	18.71	15.67	-41.5	-41.3	14.0	9.35e-04	0	43	0	6215958528	50	13627
2026-01-02 09:42:08.22	18.67	15.81	-41.5	-41.3	14.1	9.35e-04	0	43	0	6333399040	50	13513
2026-01-02 09:42:09.20	18.64	15.95	-41.3	-41.1	14.1	1.03e-03	0	43	0	6442450944	49	14045
2026-01-02 09:42:10.20	18.61	16.09	-41.3	-41.1	14.1	1.03e-03	0	43	0	6559891456	49	14097
2026-01-02 09:42:11.19	18.58	16.23	-41.2	-41.0	14.1	1.03e-03	0	43	0	6660554752	49	13880
2026-01-02 09:42:12.19	18.54	16.38	-41.1	-40.9	14.1	7.39e-04	0	43	0	6777995264	49	13753
2026-01-02 09:42:13.18	18.51	16.52	-41.1	-40.9	14.1	7.39e-04	0	43	0	6887047168	49	13763
2026-01-02 09:42:14.17	18.48	16.67	-41.0	-40.8	14.2	7.39e-04	0	43	0	7004487680	49	13605
2026-01-02 09:42:15.17	18.44	16.82	-41.0	-40.8	14.2	5.48e-04	0	43	0	7113539584	49	13579
2026-01-02 09:42:16.15	18.41	16.96	-41.0	-40.8	14.2	5.48e-04	0	43	0	7222591488	49	13580
2026-01-02 09:42:17.15	18.37	17.11	-41.0	-40.8	14.2	5.48e-04	0	43	0	7340032000	49	13585
2026-01-02 09:42:18.14	18.34	17.26	-40.9	-40.7	14.2	4.58e-04	0	43	0	7440695296	49	13398
2026-01-02 09:42:19.13	18.30	17.41	-40.8	-40.6	14.2	4.58e-04	0	43	0	7558135808	48	14074
2026-01-02 09:42:20.13	18.27	17.57	-40.7	-40.5	14.2	4.58e-04	0	43	0	7667187712	48	13856
2026-01-02 09:42:21.13	18.23	17.72	-40.7	-40.5	14.2	4.62e-04	0	43	0	7784628224	48	13808
2026-01-02 09:42:22.12	18.19	17.88	-40.7	-40.5	14.2	4.62e-04	0	43	0	7893680128	48	13804
2026-01-02 09:42:23.12	18.15	18.04	-40.6	-40.4	14.2	4.62e-04	0	43	0	8011120640	48	13755
2026-01-02 09:42:24.10	18.11	18.19	-40.6	-40.4	14.2	4.62e-04	0	43	0	8120172544	48	13672
2026-01-02 09:42:25.10	18.07	18.35	-40.5	-40.3	14.3	3.48e-04	0	43	0	8229224448	48	13526
2026-01-02 09:42:26.09	18.04	18.51	-40.4	-40.2	14.3	3.48e-04	0	43	0	8338276352	48	13395
2026-01-02 09:42:27.08	18.00	18.67	-39.6	-39.4	14.2	2.34e-04	0	43	0	8455716864	46	13756
2026-01-02 09:42:28.08	17.95	18.84	-39.6	-39.4	14.2	2.34e-04	0	43	0	8564768768	46	13692
2026-01-02 09:42:29.07	17.91	19.00	-39.5	-39.3	14.2	2.34e-04	0	43	0	8673820672	46	13526
2026-01-02 09:42:30.05	17.87	19.17	-39.4	-39.2	14.2	5.43e-04	0	43	0	8791261184	46	13419
2026-01-02 09:42:31.05	17.83	19.33	-39.4	-39.2	14.2	5.43e-04	0	43	0	8900313088	46	13429
2026-01-02 09:42:32.04	17.79	19.50	-39.3	-39.1	14.2	5.43e-04	0	43	0	9009364992	45	14068
2026-01-02 09:42:33.03	17.74	19.67	-39.3	-39.2	14.2	5.01e-04	0	43	0	9118416896	45	14135
2026-01-02 09:42:34.02	17.70	19.84	-39.1	-38.9	14.2	5.01e-04	0	43	0	9235857408	45	13735
2026-01-02 09:42:35.02	17.65	20.02	-39.1	-38.9	14.2	5.01e-04	0	44	0	9344909312	45	13678
2026-01-02 09:42:36.01	17.61	20.19	-39.2	-39.0	14.2	5.01e-04	0	43	0	9462349824	45	13905
2026-01-02 09:42:37.00	17.56	20.37	-39.2	-39.0	14.2	4.10e-04	0	43	0	9571401728	45	13899
2026-01-02 09:42:37.98	17.52	20.54	-39.1	-38.9	14.2	4.10e-04	0	43	0	9680453632	45	13760
2026-01-02 09:42:38.97	17.47	20.72	-38.9	-38.7	14.3	4.00e-04	0	43	0	9789505536	45	13473
2026-01-02 09:42:39.96	17.42	20.90	-38.7	-38.5	14.3	4.00e-04	0	43	0	9906946048	44	13827
2026-01-02 09:42:40.96	17.37	21.08	-38.6	-38.4	14.3	4.00e-04	0	44	0	10015997952	44	13687
2026-01-02 09:42:41.95	17.32	21.27	-38.5	-38.3	14.3	4.00e-04	0	43	0	10125049856	44	13595
2026-01-02 09:42:42.94	17.27	21.45	-38.5	-38.3	14.3	2.86e-04	0	43	0	10234101760	44	13514
2026-01-02 09:42:43.93	17.22	21.64	-38.4	-38.2	14.3	2.86e-04	0	43	0	10351542272	44	13466
2026-01-02 09:42:44.93	17.17	21.83	-38.3	-38.1	14.4	2.86e-04	0	44	0	10460594176	43	14047
2026-01-02 09:42:45.92	17.12	22.02	-38.2	-38.0	14.4	2.86e-04	0	44	0	10569646080	43	13928
2026-01-02 09:42:46.91	17.07	22.21	-38.1	-37.9	14.4	1.76e-04	0	43	0	10687086592	43	13773
2026-01-02 09:42:47.89	17.01	22.40	-38.1	-37.9	14.4	1.76e-04	0	43	0	10787749888	43	13715
2026-01-02 09:42:48.89	16.96	22.60	-38.1	-37.9	14.4	1.19e-04	0	43	0	10905190400	43	13768
2026-01-02 09:42:49.89	16.90	22.80	-38.1	-38.0	14.5	1.19e-04	0	44	0	11014242304	43	13791
2026-01-02 09:42:50.89	16.84	23.00	-37.9	-37.7	14.5	1.19e-04	0	43	0	11131682816	43	13464
2026-01-02 09:42:51.89	16.79	23.20	-37.8	-37.6	14.5	1.00e-04	0	44	0	11240734720	42	13970
2026-01-02 09:42:52.88	16.73	23.41	-37.6	-37.4	14.6	1.00e-04	0	43	0	11358175232	42	13738
2026-01-02 09:42:53.87	16.67	23.61	-37.6	-37.4	14.6	1.00e-04	0	43	0	11467227136	42	13669
2026-01-02 09:42:54.87	16.61	23.82	-37.6	-37.4	14.6	4.76e-05	0	43	0	11576279040	42	13705
2026-01-02 09:42:55.86	16.55	24.03	-37.6	-37.4	14.6	4.76e-05	0	43	0	11693719552	42	13693
2026-01-02 09:42:56.86	16.48	24.24	-37.3	-37.1	14.6	4.76e-05	0	44	0	11802771456	41	14014
2026-01-02 09:42:57.84	16.42	24.45	-37.2	-36.9	14.6	3.81e-05	0	43	0	11911823360	41	13789
2026-01-02 09:42:58.84	16.36	24.67	-37.1	-36.9	14.6	3.81e-05	0	44	0	12020875264	41	13782
2026-01-02 09:42:59.84	16.29	24.89	-37.2	-37.0	14.6	3.81e-05	0	44	0	12138315776	41	13817
2026-01-02 09:43:00.83	16.23	25.11	-36.9	-36.7	14.7	2.86e-05	0	43	0	12247367680	41	13423
2026-01-02 09:43:01.82	16.16	25.33	-36.8	-36.6	14.6	2.86e-05	0	44	0	12364808192	40	14075
2026-01-02 09:43:02.82	16.09	25.56	-36.8	-36.6	14.7	2.86e-05	0	44	0	12473860096	40	14020
2026-01-02 09:43:03.81	16.02	25.78	-36.7	-36.5	14.7	2.38e-05	0	43	0	12582912000	40	13884
2026-01-02 09:43:04.80	15.95	26.01	-36.6	-36.4	14.7	2.38e-05	0	44	0	12700352512	40	13714
2026-01-02 09:43:05.80	15.88	26.25	-36.6	-36.4	14.7	2.38e-05	0	43	0	12809404416	40	13781
2026-01-02 09:43:06.79	15.80	26.48	-36.5	-36.3	14.7	9.50e-06	0	43	0	12918456320	40	13520
2026-01-02 09:43:07.79	15.73	26.72	-36.4	-36.2	14.8	9.50e-06	0	44	0	13027508224	40	13456
2026-01-02 09:43:08.78	15.65	26.96	-36.4	-36.2	14.8	1.43e-05	0	43	0	13144948736	40	13399
2026-01-02 09:43:09.77	15.58	27.20	-36.3	-36.1	14.8	1.43e-05	0	44	0	13254000640	39	14064
2026-01-02 09:43:10.77	15.50	27.44	-36.1	-35.9	14.8	1.43e-05	0	43	0	13371441152	39	13671
2026-01-02 09:43:11.76	15.42	27.69	-36.0	-35.7	14.8	1.43e-05	0	43	0	13480493056	39	13476
2026-01-02 09:43:12.75	15.34	27.94	-35.9	-35.7	14.8	0.00e+00	0	43	0	13589544960	39	13336
2026-01-02 09:43:13.75	15.25	28.19	-35.7	-35.5	14.8	0.00e+00	0	44	0	13706985472	38	13920
2026-01-02 09:43:14.75	15.17	28.44	-35.6	-35.4	14.9	0.00e+00	0	43	0	13816037376	38	13671
2026-01-02 09:43:15.74	15.08	28.70	-35.6	-35.4	14.9	0.00e+00	0	44	0	13925089280	38	13749
2026-01-02 09:43:16.74	14.99	28.96	-35.6	-35.4	14.9	4.70e-06	0	44	0	14034141184	38	13677
2026-01-02 09:43:17.73	14.91	29.22	-35.6	-35.4	14.9	4.70e-06	0	44	0	14151581696	38	13697
2026-01-02 09:43:18.72	14.81	29.49	-35.4	-35.2	14.9	4.70e-06	0	44	0	14260633600	38	13406
2026-01-02 09:43:19.72	14.72	29.76	-35.5	-35.2	14.9	4.70e-06	0	44	0	14378074112	38	13461
2026-01-02 09:43:20.72	14.63	30.03	-35.3	-35.1	14.8	0.00e+00	0	44	0	14487126016	37	14033
2026-01-02 09:43:21.71	14.53	30.31	-35.3	-35.0	14.9	0.00e+00	0	44	0	14596177920	37	13941
2026-01-02 09:43:22.70	14.43	30.58	-35.0	-34.8	14.9	0.00e+00	0	43	0	14713618432	37	13511
2026-01-02 09:43:23.69	14.33	30.86	-34.9	-34.7	14.9	0.00e+00	0	44	0	14822670336	37	13410
2026-01-02 09:43:24.68	14.23	31.15	-35.0	-34.8	14.9	0.00e+00	0	44	0	14931722240	37	13522
2026-01-02 09:43:25.68	14.13	31.44	-34.8	-34.6	14.9	0.00e+00	0	44	0	15040774144	36	13969
2026-01-02 09:43:26.67	14.02	31.72	-34.6	-34.4	15.0	0.00e+00	0	44	0	15158214656	36	13682
2026-01-02 09:43:27.67	13.91	32.02	-34.4	-34.2	15.0	0.00e+00	0	44	0	15267266560	36	13435
2026-01-02 09:43:28.66	13.80	32.32	-31.8	-31.6	14.9	0.00e+00	0	44	0	15384707072	30	14027
2026-01-02 09:43:29.65	13.69	32.62	-31.9	-31.7	14.9	0.00e+00	0	44	0	15493758976	30	14139
2026-01-02 09:43:30.65	13.58	32.92	-31.6	-31.4	14.9	0.00e+00	0	44	0	15602810880	30	13747
2026-01-02 09:43:31.63	13.46	33.22	-31.5	-31.2	15.0	4.70e-06	0	44	0	15711862784	30	13474
2026-01-02 09:43:32.62	13.34	33.53	-31.4	-31.2	15.0	4.70e-06	0	44	0	15829303296	30	13414
2026-01-02 09:43:33.62	13.22	33.85	-31.3	-31.1	15.0	0.00e+00	0	44	0	15938355200	29	14071
2026-01-02 09:43:34.62	13.09	34.17	-31.3	-31.1	15.0	0.00e+00	0	44	0	16047407104	29	14014
2026-01-02 09:43:35.61	12.96	34.49	-31.1	-30.9	15.0	0.00e+00	0	44	0	16164847616	29	13703
2026-01-02 09:43:36.61	12.83	34.82	-31.0	-30.8	15.0	0.00e+00	0	44	0	16273899520	29	13527
2026-01-02 09:43:37.60	12.70	35.15	-30.9	-30.7	15.1	0.00e+00	0	44	0	16391340032	29	13366
2026-01-02 09:43:38.60	12.56	35.48	-30.7	-30.5	15.1	0.00e+00	0	44	0	16500391936	28	13901
2026-01-02 09:43:39.60	12.42	35.82	-30.7	-30.5	15.1	0.00e+00	0	44	0	16617832448	28	13868
2026-01-02 09:43:40.59	12.28	36.16	-30.6	-30.3	15.1	0.00e+00	0	43	0	16718495744	28	13619
2026-01-02 09:43:41.58	12.13	36.50	-30.5	-30.3	15.1	0.00e+00	0	44	0	16835936256	28	13610
2026-01-02 09:43:42.58	11.98	36.85	-30.5	-30.3	15.1	0.00e+00	0	44	0	16944988160	28	13568
2026-01-02 09:43:43.57	11.83	37.21	-30.4	-30.2	15.1	0.00e+00	0	44	0	17054040064	27	14143
2026-01-02 09:43:44.56	11.67	37.56	-30.3	-30.1	15.1	0.00e+00	0	44	0	17171480576	27	13975
2026-01-02 09:43:45.56	11.51	37.93	-30.4	-30.1	15.1	0.00e+00	0	44	0	17280532480	27	14093
2026-01-02 09:43:46.56	11.35	38.29	-30.1	-29.9	15.2	0.00e+00	0	44	0	17397972992	27	13713
2026-01-02 09:43:47.55	11.18	38.66	-30.2	-30.0	15.2	0.00e+00	0	44	0	17507024896	27	13841
2026-01-02 09:43:48.54	11.01	39.03	-30.0	-29.8	15.2	0.00e+00	0	44	0	17616076800	27	13623
2026-01-02 09:43:49.54	10.83	39.42	-29.9	-29.7	15.3	0.00e+00	0	44	0	17725128704	27	13361
2026-01-02 09:43:50.54	10.65	39.80	-29.8	-29.6	15.2	0.00e+00	0	44	0	17842569216	26	14053
2026-01-02 09:43:51.53	10.46	40.19	-29.8	-29.5	15.2	0.00e+00	0	44	0	17951621120	26	13945
2026-01-02 09:43:52.52	10.27	40.58	-29.6	-29.4	15.2	0.00e+00	0	44	0	18069061632	26	13705
2026-01-02 09:43:53.52	10.07	40.98	-29.5	-29.3	15.3	0.00e+00	0	44	0	18178113536	26	13567
2026-01-02 09:43:54.51	9.87	41.38	-29.5	-29.3	15.3	0.00e+00	0	44	0	18287165440	26	13569
2026-01-02 09:43:55.51	9.67	41.79	-29.4	-29.2	15.3	0.00e+00	0	43	0	18404605952	26	13413
2026-01-02 09:43:56.50	9.46	42.20	-29.1	-28.9	15.3	0.00e+00	0	44	0	18513657856	25	13675
2026-01-02 09:43:57.50	9.24	42.61	-29.0	-28.8	15.3	0.00e+00	0	44	0	18631098368	25	13559
2026-01-02 09:43:58.49	9.01	43.03	-28.9	-28.7	15.3	0.00e+00	0	44	0	18731761664	25	13403
2026-01-02 09:43:59.49	8.78	43.46	-28.8	-28.5	15.3	0.00e+00	0	44	0	18849202176	24	13950
2026-01-02 09:44:00.49	8.54	43.89	-28.7	-28.4	15.3	0.00e+00	0	44	0	18958254080	24	13743
2026-01-02 09:44:01.48	8.30	44.33	-28.7	-28.4	15.3	0.00e+00	0	44	0	19075694592	24	13767
2026-01-02 09:44:02.48	8.05	44.77	-28.6	-28.4	15.3	0.00e+00	0	44	0	19184746496	24	13696
2026-01-02 09:44:03.48	7.79	45.22	-28.7	-28.4	15.3	0.00e+00	0	44	0	19293798400	24	13754
2026-01-02 09:44:04.46	7.52	45.66	-28.3	-28.0	15.3	0.00e+00	0	44	0	19411238912	23	13948
2026-01-02 09:44:05.46	7.25	46.12	-28.1	-27.9	15.4	0.00e+00	0	44	0	19520290816	23	13726
2026-01-02 09:44:06.45	6.97	46.58	-28.1	-27.8	15.4	0.00e+00	0	44	0	19629342720	23	13585
2026-01-02 09:44:07.45	6.67	47.04	-28.0	-27.7	15.4	0.00e+00	0	44	0	19746783232	23	13451
2026-01-02 09:44:08.43	6.38	47.51	-27.9	-27.7	15.4	0.00e+00	0	44	0	19855835136	23	13352
2026-01-02 09:44:09.42	6.07	47.98	-27.8	-27.6	15.4	0.00e+00	0	44	0	19964887040	22	13991
2026-01-02 09:44:10.41	5.75	48.46	-27.6	-27.4	15.4	0.00e+00	0	44	0	20082327552	22	13723
2026-01-02 09:44:11.41	5.41	48.94	-27.7	-27.4	15.4	0.00e+00	0	44	0	20191379456	22	13781
2026-01-02 09:44:12.40	5.07	49.43	-27.6	-27.3	15.4	0.00e+00	0	44	0	20300431360	22	13607
2026-01-02 09:44:13.39	4.72	49.92	-27.5	-27.3	15.5	0.00e+00	0	44	0	20409483264	22	13520
2026-01-02 09:44:14.39	4.35	50.43	-27.6	-27.3	15.5	0.00e+00	0	44	0	20526923776	22	13595
2026-01-02 09:44:15.38	3.97	50.93	-27.3	-27.1	15.5	0.00e+00	0	44	0	20635975680	21	14009
2026-01-02 09:44:16.38	3.58	51.44	-27.3	-27.1	15.5	0.00e+00	0	44	0	20745027584	21	13953
2026-01-02 09:44:17.37	3.17	51.95	-27.2	-27.0	15.5	0.00e+00	0	44	0	20862468096	21	13857
2026-01-02 09:44:18.37	2.75	52.47	-27.1	-26.8	15.5	0.00e+00	0	44	0	20971520000	21	13616
2026-01-02 09:44:19.36	2.31	52.99	-27.0	-26.8	15.5	0.00e+00	0	44	0	21088960512	21	13552
2026-01-02 09:44:20.36	1.86	53.52	-27.0	-26.8	15.5	0.00e+00	0	44	0	21198012416	21	13529
2026-01-02 09:44:21.35	1.39	54.05	-27.0	-26.8	15.5	0.00e+00	0	44	0	21307064320	21	13520
2026-01-02 09:44:22.34	0.90	54.58	-26.9	-26.7	15.5	0.00e+00	0	44	0	21416116224	21	13382
2026-01-02 09:44:23.34	0.39	55.12	-27.0	-26.7	15.5	0.00e+00	0	44	0	21533556736	21	13411
2026-01-02 09:44:24.33	359.86	55.67	-26.7	-26.5	15.5	0.00e+00	0	44	0	21642608640	20	13809
2026-01-02 09:44:25.32	359.32	56.21	-26.8	-26.5	15.5	0.00e+00	0	44	0	21751660544	20	13897
2026-01-02 09:44:26.33	358.74	56.77	-26.6	-26.3	15.5	0.00e+00	0	44	0	21869101056	20	13583
2026-01-02 09:44:27.32	358.14	57.32	-26.6	-26.3	15.5	0.00e+00	0	44	0	21978152960	20	13626
2026-01-02 09:44:28.32	357.51	57.88	-26.4	-26.1	15.5	0.00e+00	0	44	0	22095593472	19	14070
2026-01-02 09:44:29.32	356.86	58.44	-26.5	-26.3	15.5	0.00e+00	0	44	0	22204645376	19	14282
2026-01-02 09:44:30.33	356.17	59.01	-26.3	-26.1	15.6	0.00e+00	0	44	0	22313697280	19	13963
2026-01-02 09:44:31.32	355.47	59.57	-26.3	-26.0	15.6	0.00e+00	0	44	0	22431137792	19	13916
2026-01-02 09:44:32.31	354.73	60.13	-26.2	-26.0	15.6	0.00e+00	0	44	0	22540189696	19	13843
2026-01-02 09:44:33.30	353.96	60.69	-26.3	-26.1	15.6	0.00e+00	0	44	0	22657630208	19	13972
2026-01-02 09:44:34.29	353.15	61.25	-26.0	-25.8	15.6	0.00e+00	0	44	0	22758293504	19	13535
2026-01-02 09:44:35.28	352.31	61.81	-26.1	-25.8	15.6	0.00e+00	0	44	0	22875734016	19	13591
2026-01-02 09:44:36.28	351.42	62.38	-26.0	-25.7	15.6	0.00e+00	0	44	0	22984785920	19	13465
2026-01-02 09:44:37.27	350.49	62.94	-25.8	-25.6	15.6	0.00e+00	0	44	0	23102226432	18	14010
2026-01-02 09:44:38.26	349.52	63.50	-25.9	-25.6	15.6	0.00e+00	0	44	0	23211278336	18	14057
2026-01-02 09:44:39.25	348.50	64.06	-25.9	-25.6	15.6	0.00e+00	0	44	0	23320330240	18	14048
2026-01-02 09:44:40.24	347.43	64.61	-25.8	-25.5	15.6	0.00e+00	0	44	0	23429382144	18	13940
2026-01-02 09:44:41.23	346.30	65.16	-25.8	-25.5	15.6	0.00e+00	0	44	0	23546822656	18	13898
2026-01-02 09:44:42.23	345.11	65.71	-25.7	-25.5	15.6	0.00e+00	0	44	0	23655874560	18	13851
2026-01-02 09:44:43.22	343.86	66.25	-25.7	-25.4	15.6	0.00e+00	0	44	0	23764926464	18	13765
2026-01-02 09:44:44.22	342.54	66.79	-25.7	-25.4	15.6	0.00e+00	0	44	0	23882366976	18	13713
2026-01-02 09:44:45.21	341.17	67.32	-25.8	-25.5	15.6	0.00e+00	0	44	0	23991418880	18	13891
2026-01-02 09:44:46.20	339.72	67.83	-25.7	-25.4	15.6	0.00e+00	0	44	0	24108859392	18	13745
2026-01-02 09:44:47.20	338.18	68.34	-25.6	-25.3	15.6	0.00e+00	0	44	0	24217911296	18	13572
2026-01-02 09:44:48.20	336.56	68.84	-25.6	-25.3	15.6	0.00e+00	0	44	0	24335351808	18	13611
2026-01-02 09:44:49.20	334.86	69.32	-25.5	-25.3	15.6	0.00e+00	0	44	0	24444403712	18	13540
2026-01-02 09:44:50.19	333.09	69.79	-25.5	-25.3	15.6	0.00e+00	0	44	0	24553455616	18	13503
2026-01-02 09:44:51.18	331.23	70.24	-25.5	-25.2	15.5	0.00e+00	0	44	0	24662507520	18	13474
2026-01-02 09:44:52.17	329.28	70.67	-25.6	-25.3	15.5	0.00e+00	0	44	0	24771559424	18	13565
2026-01-02 09:44:53.16	327.24	71.08	-25.7	-25.4	15.6	0.00e+00	0	44	0	24888999936	18	13739
2026-01-02 09:44:54.16	325.08	71.47	-25.7	-25.4	15.6	0.00e+00	0	44	0	24998051840	18	13736
2026-01-02 09:44:55.15	322.84	71.83	-25.7	-25.5	15.6	0.00e+00	0	44	0	25115492352	18	13807
2026-01-02 09:44:56.14	320.52	72.17	-25.7	-25.4	15.6	0.00e+00	0	44	0	25216155648	18	13770
2026-01-02 09:44:57.13	318.10	72.48	-25.6	-25.4	15.5	0.00e+00	0	44	0	25333596160	18	13727
2026-01-02 09:44:58.12	315.59	72.76	-25.7	-25.4	15.5	0.00e+00	0	44	0	25442648064	18	13766
2026-01-02 09:44:59.12	312.97	73.01	-25.6	-25.3	15.5	0.00e+00	0	44	0	25560088576	18	13599
2026-01-02 09:45:00.11	310.31	73.22	-25.6	-25.3	15.5	0.00e+00	0	44	0	25669140480	18	13552
2026-01-02 09:45:01.10	307.58	73.40	-25.6	-25.4	15.6	0.00e+00	0	44	0	25786580992	18	13727
2026-01-02 09:45:02.10	304.76	73.55	-25.5	-25.2	15.6	0.00e+00	0	44	0	25895632896	18	13436
2026-01-02 09:45:03.09	301.92	73.65	-25.5	-25.2	15.6	0.00e+00	0	44	0	26004684800	18	13427
2026-01-02 09:45:04.08	299.06	73.72	-25.4	-25.1	15.6	0.00e+00	0	44	0	26113736704	17	14041
2026-01-02 09:45:05.08	296.15	73.75	-25.4	-25.1	15.6	0.00e+00	0	44	0	26222788608	17	14065
2026-01-02 09:45:06.07	293.26	73.73	-25.5	-25.2	15.6	0.00e+00	0	44	0	26340229120	17	14267
2026-01-02 09:45:07.06	290.39	73.68	-25.3	-25.1	15.6	0.00e+00	0	44	0	26449281024	17	14014
2026-01-02 09:45:08.06	287.51	73.59	-25.5	-25.2	15.5	0.00e+00	0	44	0	26566721536	17	14227
2026-01-02 09:45:09.06	284.68	73.46	-25.4	-25.2	15.6	0.00e+00	0	44	0	26675773440	17	14158
2026-01-02 09:45:10.04	281.95	73.29	-25.6	-25.4	15.5	0.00e+00	0	44	0	26784825344	17	14476
2026-01-02 09:45:11.04	279.23	73.09	-25.4	-25.2	15.5	0.00e+00	0	44	0	26893877248	17	14204
2026-01-02 09:45:12.04	276.59	72.85	-25.5	-25.3	15.5	0.00e+00	0	44	0	27011317760	17	14347
2026-01-02 09:45:13.03	274.05	72.58	-25.6	-25.3	15.5	0.00e+00	0	44	0	27120369664	17	14428
2026-01-02 09:45:14.02	271.60	72.28	-25.4	-25.2	15.5	0.00e+00	0	44	0	27237810176	17	14162
2026-01-02 09:45:15.01	269.24	71.95	-25.5	-25.3	15.5	0.00e+00	0	44	0	27346862080	17	14307
2026-01-02 09:45:16.02	266.93	71.59	-25.6	-25.4	15.5	0.00e+00	0	44	0	27455913984	17	14495
2026-01-02 09:45:17.01	264.75	71.21	-25.7	-25.5	15.5	0.00e+00	0	44	0	27573354496	17	14657
2026-01-02 09:45:18.00	262.68	70.81	-25.7	-25.5	15.5	0.00e+00	0	44	0	27682406400	17	14648
2026-01-02 09:45:19.00	260.68	70.38	-25.7	-25.4	15.5	0.00e+00	0	44	0	27799846912	17	14564
2026-01-02 09:45:19.99	258.78	69.93	-25.7	-25.5	15.5	0.00e+00	0	44	0	27900510208	17	14662
2026-01-02 09:45:20.98	256.98	69.47	-25.8	-25.5	15.5	0.00e+00	0	44	0	28017950720	17	14765
2026-01-02 09:45:21.98	255.25	68.99	-25.7	-25.4	15.5	0.00e+00	0	44	0	28127002624	17	14603
2026-01-02 09:45:22.97	253.62	68.50	-25.8	-25.6	15.5	0.00e+00	0	44	0	28244443136	17	14793
2026-01-02 09:45:23.96	252.07	68.00	-25.8	-25.5	15.5	0.00e+00	0	44	0	28353495040	17	14766
2026-01-02 09:45:24.96	250.58	67.48	-25.7	-25.5	15.5	0.00e+00	0	44	0	28462546944	17	14635
2026-01-02 09:45:25.96	249.17	66.96	-25.8	-25.5	15.5	0.00e+00	0	44	0	28579987456	17	14768
2026-01-02 09:45:26.95	247.84	66.43	-25.9	-25.7	15.5	0.00e+00	0	44	0	28689039360	17	15004
2026-01-02 09:45:27.95	246.56	65.88	-25.8	-25.5	15.5	0.00e+00	0	44	0	28806479872	17	14746
2026-01-02 09:45:28.94	245.36	65.34	-25.9	-25.7	15.4	0.00e+00	0	44	0	28907143168	17	15026
2026-01-02 09:45:29.93	244.21	64.79	-25.9	-25.7	15.5	0.00e+00	0	44	0	29024583680	17	14979
2026-01-02 09:45:30.92	243.12	64.23	-25.9	-25.7	15.5	0.00e+00	0	44	0	29133635584	17	14977
2026-01-02 09:45:31.91	242.08	63.68	-26.0	-25.8	15.5	0.00e+00	0	44	0	29251076096	17	15202
2026-01-02 09:45:32.91	241.09	63.11	-26.1	-25.8	15.5	0.00e+00	0	44	0	29360128000	18	14405
2026-01-02 09:45:33.90	240.14	62.55	-26.1	-25.9	15.5	0.00e+00	0	44	0	29469179904	18	14561
2026-01-02 09:45:34.90	239.24	61.98	-26.2	-26.0	15.5	0.00e+00	0	44	0	29586620416	18	14654
2026-01-02 09:45:35.89	238.38	61.42	-26.3	-26.1	15.5	0.00e+00	0	44	0	29695672320	18	14857
2026-01-02 09:45:36.88	237.56	60.85	-26.4	-26.2	15.5	0.00e+00	0	44	0	29804724224	18	14954
2026-01-02 09:45:37.87	236.78	60.29	-26.4	-26.2	15.5	0.00e+00	0	44	0	29913776128	18	14974
2026-01-02 09:45:38.86	236.03	59.73	-26.5	-26.3	15.5	0.00e+00	0	44	0	30031216640	18	15216
2026-01-02 09:45:39.85	235.31	59.17	-26.6	-26.3	15.5	0.00e+00	0	44	0	30140268544	19	14391
2026-01-02 09:45:40.84	234.63	58.61	-26.6	-26.4	15.6	0.00e+00	0	44	0	30249320448	19	14473
2026-01-02 09:45:41.84	233.96	58.04	-26.7	-26.4	15.6	0.00e+00	0	44	0	30358372352	19	14578
2026-01-02 09:45:42.84	233.33	57.48	-26.7	-26.4	15.6	0.00e+00	0	44	0	30475812864	19	14593
2026-01-02 09:45:43.83	232.73	56.93	-26.8	-26.5	15.5	0.00e+00	0	44	0	30584864768	19	14723
2026-01-02 09:45:44.82	232.15	56.38	-26.9	-26.7	15.5	0.00e+00	0	44	0	30702305280	19	15018
2026-01-02 09:45:45.82	231.58	55.83	-26.9	-26.6	15.6	0.00e+00	0	44	0	30811357184	19	14932
2026-01-02 09:45:46.81	231.05	55.29	-27.1	-26.8	15.5	0.00e+00	0	44	0	30920409088	19	15259
2026-01-02 09:45:47.80	230.54	54.75	-26.9	-26.7	15.6	0.00e+00	0	44	0	31037849600	20	14179
2026-01-02 09:45:48.80	230.04	54.21	-27.0	-26.8	15.6	0.00e+00	0	44	0	31146901504	20	14275
2026-01-02 09:45:49.80	229.56	53.67	-27.0	-26.8	15.6	0.00e+00	0	44	0	31264342016	20	14349
2026-01-02 09:45:50.80	229.09	53.14	-27.0	-26.8	15.6	0.00e+00	0	44	0	31373393920	20	14333
2026-01-02 09:45:51.80	228.65	52.61	-27.1	-26.9	15.6	0.00e+00	0	44	0	31482445824	20	14496
2026-01-02 09:45:52.79	228.22	52.09	-27.2	-27.0	15.6	0.00e+00	0	44	0	31591497728	20	14654
2026-01-02 09:45:53.78	227.81	51.58	-27.3	-27.1	15.6	0.00e+00	0	44	0	31708938240	20	14805
2026-01-02 09:45:54.77	227.42	51.07	-27.4	-27.2	15.5	0.00e+00	0	44	0	31817990144	20	14966
2026-01-02 09:45:55.76	227.03	50.56	-27.5	-27.3	15.5	0.00e+00	0	44	0	31927042048	20	15172
2026-01-02 09:45:56.75	226.67	50.06	-27.5	-27.3	15.5	0.00e+00	0	44	0	32044482560	20	15237
2026-01-02 09:45:57.75	226.30	49.56	-27.5	-27.3	15.5	0.00e+00	0	44	0	32153534464	20	15178
2026-01-02 09:45:58.74	225.96	49.07	-27.7	-27.5	15.5	0.00e+00	0	44	0	32262586368	21	14619
2026-01-02 09:45:59.74	225.62	48.58	-29.0	-28.8	15.4	0.00e+00	0	44	0	32371638272	23	15149
2026-01-02 09:46:00.75	225.29	48.09	-29.2	-29.0	15.4	0.00e+00	0	44	0	32489078784	24	14626
2026-01-02 09:46:01.74	224.98	47.61	-27.9	-27.7	15.5	0.00e+00	0	44	0	32598130688	22	14173
2026-01-02 09:46:02.74	224.67	47.14	-28.0	-27.7	15.5	0.00e+00	0	44	0	32715571200	22	14246
2026-01-02 09:46:03.73	224.38	46.67	-28.1	-27.8	15.5	0.00e+00	0	44	0	32824623104	22	14407
2026-01-02 09:46:04.73	224.09	46.21	-28.1	-27.9	15.5	0.00e+00	0	44	0	32933675008	22	14561
2026-01-02 09:46:05.73	223.81	45.75	-28.4	-28.1	15.5	0.00e+00	0	44	0	33051115520	22	14928
2026-01-02 09:46:06.73	223.54	45.29	-28.3	-28.1	15.5	0.00e+00	0	44	0	33160167424	22	14874
2026-01-02 09:46:07.72	223.28	44.85	-28.5	-28.2	15.5	0.00e+00	0	44	0	33277607936	22	15110
2026-01-02 09:46:08.73	223.02	44.40	-28.5	-28.2	15.5	0.00e+00	0	44	0	33386659840	22	15060
2026-01-02 09:46:09.72	222.78	43.96	-28.4	-28.2	15.4	0.00e+00	0	44	0	33495711744	22	15073
2026-01-02 09:46:10.71	222.54	43.53	-28.5	-28.2	15.4	0.00e+00	0	44	0	33613152256	22	15095
2026-01-02 09:46:11.71	222.31	43.10	-28.6	-28.4	15.4	0.00e+00	0	44	0	33722204160	23	14476
2026-01-02 09:46:12.70	222.08	42.68	-28.7	-28.5	15.4	0.00e+00	0	44	0	33839644672	23	14724
2026-01-02 09:46:13.69	221.86	42.26	-28.7	-28.5	15.4	0.00e+00	0	44	0	33940307968	23	14711
2026-01-02 09:46:14.69	221.65	41.84	-28.9	-28.6	15.4	0.00e+00	0	44	0	34057748480	23	14930
2026-01-02 09:46:15.69	221.44	41.43	-29.0	-28.8	15.4	0.00e+00	0	44	0	34166800384	23	15149
2026-01-02 09:46:16.68	221.23	41.03	-29.1	-28.9	15.3	0.00e+00	0	44	0	34284240896	23	15301
2026-01-02 09:46:17.67	221.04	40.63	-29.1	-28.9	15.4	0.00e+00	0	44	0	34393292800	24	14497
2026-01-02 09:46:18.67	220.84	40.24	-29.3	-29.0	15.4	0.00e+00	0	44	0	34510733312	24	14773
2026-01-02 09:46:19.66	220.66	39.85	-29.4	-29.2	15.4	0.00e+00	0	44	0	34619785216	24	14996
2026-01-02 09:46:20.65	220.47	39.46	-29.5	-29.3	15.3	0.00e+00	0	44	0	34728837120	24	15180
2026-01-02 09:46:21.64	220.30	39.08	-29.7	-29.5	15.3	0.00e+00	0	44	0	34837889024	25	14616
2026-01-02 09:46:22.63	220.12	38.71	-29.9	-29.6	15.3	0.00e+00	0	44	0	34946940928	25	14909
2026-01-02 09:46:23.62	219.95	38.34	-29.9	-29.7	15.3	0.00e+00	0	44	0	35064381440	25	14980
2026-01-02 09:46:24.62	219.79	37.97	-30.0	-29.8	15.3	0.00e+00	0	44	0	35173433344	25	15163
2026-01-02 09:46:25.61	219.62	37.60	-30.2	-29.9	15.3	0.00e+00	0	44	0	35290873856	26	14566
2026-01-02 09:46:26.60	219.47	37.25	-30.2	-30.0	15.2	0.00e+00	0	44	0	35399925760	26	14733
2026-01-02 09:46:27.59	219.31	36.89	-30.4	-30.2	15.3	0.00e+00	0	44	0	35508977664	26	14982
2026-01-02 09:46:28.58	219.16	36.54	-30.5	-30.3	15.2	0.00e+00	0	44	0	35618029568	26	15125
2026-01-02 09:46:29.56	219.02	36.20	-30.6	-30.4	15.3	0.00e+00	0	44	0	35735470080	27	14536
2026-01-02 09:46:30.56	218.87	35.86	-30.8	-30.5	15.3	0.00e+00	0	44	0	35844521984	27	14744
2026-01-02 09:46:31.55	218.73	35.52	-30.9	-30.7	15.2	0.00e+00	0	44	0	35961962496	27	15017
2026-01-02 09:46:32.54	218.59	35.18	-31.0	-30.8	15.2	0.00e+00	0	44	0	36062625792	27	15170
2026-01-02 09:46:33.53	218.46	34.85	-31.0	-30.8	15.2	0.00e+00	0	44	0	36180066304	28	14327
2026-01-02 09:46:34.53	218.33	34.52	-31.2	-31.0	15.2	0.00e+00	0	44	0	36289118208	28	14626
2026-01-02 09:46:35.51	218.20	34.20	-31.3	-31.0	15.2	0.00e+00	0	44	0	36398170112	28	14739
2026-01-02 09:46:36.50	218.07	33.89	-31.3	-31.1	15.2	0.00e+00	0	44	0	36515610624	28	14905
2026-01-02 09:46:37.49	217.95	33.57	-31.4	-31.1	15.2	0.00e+00	0	44	0	36624662528	28	14941
2026-01-02 09:46:38.48	217.83	33.26	-31.5	-31.3	15.1	0.00e+00	0	44	0	36733714432	28	15178
2026-01-02 09:46:39.47	217.71	32.95	-31.7	-31.4	15.1	0.00e+00	0	44	0	36842766336	29	14583
2026-01-02 09:46:40.46	217.60	32.65	-31.7	-31.5	15.1	0.00e+00	0	44	0	36960206848	29	14715
2026-01-02 09:46:41.44	217.48	32.35	-31.9	-31.6	15.1	0.00e+00	0	44	0	37069258752	29	14893
2026-01-02 09:46:42.44	217.37	32.05	-32.0	-31.7	15.1	0.00e+00	0	44	0	37178310656	29	15050
2026-01-02 09:46:43.43	217.26	31.75	-32.0	-31.7	15.1	0.00e+00	0	44	0	37287362560	29	15104
2026-01-02 09:46:44.43	217.16	31.46	-32.1	-31.8	15.0	0.00e+00	0	44	0	37404803072	29	15290
2026-01-02 09:46:45.43	217.05	31.17	-32.2	-32.0	15.1	0.00e+00	0	44	0	37513854976	30	14658
2026-01-02 09:46:46.41	216.95	30.88	-32.4	-32.1	15.0	0.00e+00	0	44	0	37631295488	30	14940
2026-01-02 09:46:47.41	216.85	30.60	-32.4	-32.2	15.0	0.00e+00	0	44	0	37740347392	30	15072
2026-01-02 09:46:48.40	216.75	30.32	-32.6	-32.3	15.0	4.70e-06	0	44	0	37849399296	30	15257
2026-01-02 09:46:49.40	216.65	30.04	-32.7	-32.4	15.0	4.70e-06	0	44	0	37966839808	31	14594
2026-01-02 09:46:50.40	216.55	29.77	-32.8	-32.6	15.1	4.70e-06	0	44	0	38075891712	31	14813
2026-01-02 09:46:51.41	216.46	29.49	-32.9	-32.7	15.0	0.00e+00	0	44	0	38193332224	31	15010
2026-01-02 09:46:52.40	216.37	29.23	-33.0	-32.7	15.0	0.00e+00	0	44	0	38302384128	31	15116
2026-01-02 09:46:53.40	216.28	28.96	-33.0	-32.8	15.0	0.00e+00	0	44	0	38419824640	31	15218
2026-01-02 09:46:54.40	216.19	28.70	-33.2	-33.0	15.0	0.00e+00	0	44	0	38528876544	32	14611
2026-01-02 09:46:55.39	216.10	28.44	-33.2	-32.9	15.0	0.00e+00	0	44	0	38637928448	32	14603
2026-01-02 09:46:56.38	216.02	28.18	-33.3	-33.1	15.0	4.70e-06	0	44	0	38746980352	32	14830
2026-01-02 09:46:57.37	215.93	27.93	-33.4	-33.1	15.0	4.70e-06	0	44	0	38864420864	32	14937
2026-01-02 09:46:58.37	215.85	27.68	-33.4	-33.2	15.0	0.00e+00	0	44	0	38973472768	32	15048
2026-01-02 09:46:59.36	215.77	27.43	-33.6	-33.3	14.9	0.00e+00	0	44	0	39082524672	32	15266
2026-01-02 09:47:00.35	215.69	27.19	-33.7	-33.5	14.9	0.00e+00	0	44	0	39199965184	33	14655
2026-01-02 09:47:01.34	215.61	26.94	-33.8	-33.5	14.9	0.00e+00	0	44	0	39300628480	33	14749
2026-01-02 09:47:02.34	215.54	26.70	-33.9	-33.6	14.9	4.70e-06	0	44	0	39418068992	33	14885
2026-01-02 09:47:03.33	215.46	26.47	-34.0	-33.7	14.9	4.70e-06	0	44	0	39527120896	33	15066
2026-01-02 09:47:04.32	215.39	26.23	-34.0	-33.7	14.9	9.50e-06	0	44	0	39644561408	33	15086
2026-01-02 09:47:05.30	215.32	26.00	-34.1	-33.9	14.9	9.50e-06	0	44	0	39753613312	34	14558
2026-01-02 09:47:06.30	215.24	25.77	-34.2	-34.0	14.9	9.50e-06	0	44	0	39871053824	34	14674
2026-01-02 09:47:07.29	215.17	25.54	-34.4	-34.2	14.9	9.50e-06	0	44	0	39971717120	34	15009
2026-01-02 09:47:08.28	215.10	25.32	-34.4	-34.2	14.9	9.50e-06	0	44	0	40089157632	34	15010
2026-01-02 09:47:09.27	215.04	25.09	-34.6	-34.4	14.8	9.50e-06	0	44	0	40198209536	34	15299
2026-01-02 09:47:10.26	214.97	24.87	-34.6	-34.3	14.9	2.86e-05	0	44	0	40315650048	34	15284
2026-01-02 09:47:11.25	214.90	24.65	-34.7	-34.5	14.8	2.86e-05	0	44	0	40424701952	35	14684
2026-01-02 09:47:12.24	214.84	24.44	-34.8	-34.6	14.8	2.86e-05	0	44	0	40533753856	35	14824
2026-01-02 09:47:13.25	214.77	24.22	-35.0	-34.8	14.8	1.43e-05	0	44	0	40651194368	35	15263
2026-01-02 09:47:14.24	214.71	24.01	-37.5	-37.3	14.9	1.43e-05	0	44	0	40751857664	41	14384
2026-01-02 09:47:15.24	214.65	23.79	-37.6	-37.4	14.9	2.38e-05	0	44	0	40869298176	41	14482
2026-01-02 09:47:16.22	214.59	23.59	-37.7	-37.5	14.9	2.38e-05	0	44	0	40978350080	41	14634
2026-01-02 09:47:17.21	214.53	23.38	-37.8	-37.5	14.9	2.38e-05	0	44	0	41095790592	41	14719
2026-01-02 09:47:18.22	214.47	23.17	-37.8	-37.6	14.9	1.90e-05	0	44	0	41204842496	41	14849
2026-01-02 09:47:19.21	214.41	22.97	-37.9	-37.7	14.8	1.90e-05	0	44	0	41322283008	41	15017
2026-01-02 09:47:20.20	214.35	22.77	-38.0	-37.8	14.8	1.90e-05	0	44	0	41431334912	41	15161
2026-01-02 09:47:21.20	214.30	22.57	-38.2	-37.9	14.8	2.86e-05	0	44	0	41540386816	42	14606
2026-01-02 09:47:22.19	214.24	22.37	-38.2	-38.0	14.8	2.86e-05	0	44	0	41649438720	42	14643
2026-01-02 09:47:23.18	214.19	22.18	-38.4	-38.1	14.8	2.86e-05	0	44	0	41766879232	42	14938
2026-01-02 09:47:24.17	214.13	21.98	-38.4	-38.1	14.8	3.33e-05	0	44	0	41875931136	42	14915
2026-01-02 09:47:25.17	214.08	21.79	-38.4	-38.2	14.8	3.33e-05	0	44	0	41984983040	42	15068
2026-01-02 09:47:26.16	214.03	21.60	-38.6	-38.4	14.8	3.33e-05	0	44	0	42102423552	43	14484
2026-01-02 09:47:27.16	213.98	21.41	-38.7	-38.4	14.8	4.29e-05	0	44	0	42211475456	43	14579
2026-01-02 09:47:28.15	213.93	21.23	-38.7	-38.4	14.8	4.29e-05	0	44	0	42328915968	43	14601
2026-01-02 09:47:29.15	213.88	21.04	-38.8	-38.6	14.7	4.29e-05	0	44	0	42437967872	43	14833
2026-01-02 09:47:30.13	213.83	20.86	-38.9	-38.7	14.7	1.00e-04	0	44	0	42547019776	43	15005
2026-01-02 09:47:31.13	213.78	20.68	-39.0	-38.7	14.7	1.00e-04	0	44	0	42656071680	43	15085
2026-01-02 09:47:32.12	213.73	20.50	-39.0	-38.8	14.7	1.00e-04	0	44	0	42773512192	43	15182
2026-01-02 09:47:33.11	213.68	20.32	-39.1	-38.9	14.7	1.57e-04	0	44	0	42882564096	44	14478
2026-01-02 09:47:34.11	213.64	20.14	-39.2	-38.9	14.7	1.57e-04	0	44	0	42991616000	44	14605
2026-01-02 09:47:35.10	213.59	19.97	-39.3	-39.1	14.7	1.57e-04	0	44	0	43109056512	44	14780
2026-01-02 09:47:36.09	213.55	19.79	-39.4	-39.2	14.6	1.57e-04	0	44	0	43209719808	44	14976
2026-01-02 09:47:37.08	213.50	19.62	-39.3	-39.1	14.6	1.81e-04	0	44	0	43327160320	44	14836
2026-01-02 09:47:38.07	213.46	19.45	-39.4	-39.2	14.6	1.81e-04	0	44	0	43436212224	44	15074
2026-01-02 09:47:39.06	213.41	19.28	-39.5	-39.2	14.6	1.57e-04	0	44	0	43553652736	44	15113
2026-01-02 09:47:40.05	213.37	19.11	-39.5	-39.3	14.6	1.57e-04	0	44	0	43662704640	44	15133
2026-01-02 09:47:41.05	213.33	18.95	-39.5	-39.3	14.6	1.57e-04	0	44	0	43780145152	44	15192
2026-01-02 09:47:42.04	213.29	18.78	-39.5	-39.3	14.5	2.29e-04	0	44	0	43880808448	44	15251
2026-01-02 09:47:43.03	213.25	18.62	-39.6	-39.4	14.6	2.29e-04	0	44	0	43998248960	45	14555
2026-01-02 09:47:44.03	213.20	18.45	-39.8	-39.5	14.5	3.34e-04	0	44	0	44107300864	45	14757
2026-01-02 09:47:45.01	213.17	18.29	-39.9	-39.7	14.5	3.34e-04	0	44	0	44224741376	45	14989
2026-01-02 09:47:46.02	213.13	18.13	-40.0	-39.8	14.5	3.34e-04	0	44	0	44333793280	45	15201
2026-01-02 09:47:47.01	213.09	17.97	-61.0	-63.8	6.2	3.43e-04	0	44	104	44367347712	87	21502
2026-01-02 09:47:47.99	213.05	17.82	-61.0	-63.8	6.2	3.43e-04	0	44	104	44367347712	87	21457
2026-01-02 09:47:48.98	213.01	17.66	-61.0	-63.8	6.2	3.43e-04	0	44	104	44367347712	87	21427
2026-01-02 09:47:49.98	212.97	17.51	-61.0	-63.8	6.2	3.43e-04	0	43	104	44367347712	87	21459
2026-01-02 09:47:50.97	212.94	17.35	-61.0	-63.8	6.2	3.43e-04	0	43	104	44367347712	87	21409
2026-01-02 09:47:51.96	212.90	17.20	-61.0	-63.8	6.2	3.43e-04	0	43	104	44367347712	87	21516
2026-01-02 09:47:52.96	212.86	17.05	-61.0	-63.7	6.2	3.43e-04	0	43	104	44367347712	87	21358
2026-01-02 09:47:53.95	212.83	16.90	-61.0	-63.8	6.2	3.43e-04	0	43	104	44367347712	87	21363
2026-01-02 09:47:54.94	212.79	16.75	-60.9	-63.7	6.2	3.43e-04	0	43	104	44367347712	87	21265
2026-01-02 09:47:55.94	212.76	16.60	-60.9	-63.7	6.2	3.43e-04	0	43	104	44367347712	87	21246
2026-01-02 09:47:56.93	212.72	16.46	-60.9	-63.7	6.2	3.43e-04	0	43	104	44367347712	87	21229
2026-01-02 09:47:57.92	212.69	16.31	-60.9	-63.6	6.2	3.43e-04	0	43	104	44367347712	87	21114
2026-01-02 09:47:58.93	212.65	16.16	-60.9	-63.7	6.2	3.43e-04	0	43	104	44367347712	87	21158
2026-01-02 09:47:59.92	212.62	16.02	-60.9	-63.7	6.2	4.29e-05	0	43	104	44367347712	87	21143
2026-01-02 09:48:00.90	212.59	15.88	-60.9	-63.6	6.2	4.29e-05	0	43	104	44367347712	87	21085
2026-01-02 09:48:01.89	212.56	15.74	-60.9	-63.6	6.2	4.29e-05	0	43	104	44367347712	87	21060
2026-01-02 09:48:02.89	212.52	15.60	-60.9	-63.6	6.2	4.29e-05	0	43	104	44367347712	87	21052
2026-01-02 09:48:03.88	212.49	15.46	-60.8	-63.6	6.2	4.29e-05	0	43	104	44367347712	87	21077
2026-01-02 09:48:04.88	212.46	15.32	-60.8	-63.6	6.2	4.29e-05	0	43	104	44367347712	87	20966
2026-01-02 09:48:05.88	212.43	15.18	-60.8	-63.6	6.2	4.29e-05	0	43	104	44367347712	87	20915
2026-01-02 09:48:06.87	212.40	15.05	-60.8	-63.6	6.2	4.29e-05	0	43	104	44367347712	87	20924
2026-01-02 09:48:07.87	212.37	14.91	-60.8	-63.6	6.2	4.29e-05	0	43	104	44367347712	87	20933
2026-01-02 09:48:08.87	212.34	14.77	-60.8	-63.6	6.2	4.29e-05	0	43	104	44367347712	87	20936
2026-01-02 09:48:09.86	212.31	14.64	-60.8	-63.5	6.2	4.29e-05	0	43	104	44367347712	87	20849
2026-01-02 09:48:10.86	212.28	14.51	-60.8	-63.5	6.2	4.29e-05	0	43	104	44367347712	87	20833
2026-01-02 09:48:11.85	212.25	14.38	-60.8	-63.5	6.2	4.29e-05	0	43	104	44367347712	87	20846
2026-01-02 09:48:12.85	212.22	14.25	-60.7	-63.5	6.2	4.29e-05	0	43	104	44367347712	87	20773
2026-01-02 09:48:13.84	212.20	14.12	-60.7	-63.5	6.2	4.29e-05	0	43	104	44367347712	87	20752
2026-01-02 09:48:14.83	212.17	13.99	-60.7	-63.5	6.2	4.29e-05	0	43	104	44367347712	87	20748
2026-01-02 09:48:15.81	212.14	13.86	-60.7	-63.5	6.2	4.29e-05	0	43	104	44367347712	87	20714
2026-01-02 09:48:16.80	212.12	13.73	-60.7	-63.5	6.2	4.29e-05	0	43	104	44367347712	87	20683
2026-01-02 09:48:17.79	212.09	13.61	-60.7	-63.5	6.2	4.29e-05	0	43	104	44367347712	87	20641
2026-01-02 09:48:18.78	212.06	13.48	-60.7	-63.5	6.2	4.29e-05	0	43	104	44367347712	87	20695
2026-01-02 09:48:19.78	212.04	13.36	-60.7	-63.4	6.2	4.29e-05	0	43	104	44367347712	87	20587
2026-01-02 09:48:20.77	212.01	13.24	-60.7	-63.4	6.2	4.29e-05	0	42	104	44367347712	87	20615
2026-01-02 09:48:21.75	211.98	13.11	-60.7	-63.4	6.2	4.29e-05	0	43	104	44367347712	87	20576
2026-01-02 09:48:22.74	211.96	12.99	-60.6	-63.4	6.2	4.29e-05	0	42	104	44367347712	87	20516
2026-01-02 09:48:23.74	211.93	12.87	-60.7	-63.4	6.2	4.29e-05	0	42	104	44367347712	87	20567
2026-01-02 09:48:24.74	211.91	12.75	-60.6	-63.4	6.2	0.00e+00	0	43	104	44367347712	87	20496
2026-01-02 09:48:25.73	211.89	12.63	-60.6	-63.4	6.2	0.00e+00	0	42	104	44367347712	87	20486
2026-01-02 09:48:26.72	211.86	12.51	-60.6	-63.4	6.2	0.00e+00	0	42	104	44367347712	87	20476
2026-01-02 09:48:27.71	211.84	12.39	-60.6	-63.4	6.2	0.00e+00	0	43	104	44367347712	87	20516
2026-01-02 09:48:28.70	211.81	12.27	-60.6	-63.4	6.2	0.00e+00	0	42	104	44367347712	87	20454
2026-01-02 09:48:29.69	211.79	12.16	-60.6	-63.4	6.2	0.00e+00	0	42	104	44367347712	87	20416
2026-01-02 09:48:30.69	211.77	12.04	-60.6	-63.3	6.2	0.00e+00	0	42	104	44367347712	87	20295
2026-01-02 09:48:31.68	211.74	11.93	-60.6	-63.3	6.2	0.00e+00	0	42	104	44367347712	87	20346
2026-01-02 09:48:32.67	211.72	11.81	-60.6	-63.3	6.2	0.00e+00	0	43	104	44367347712	87	20351
2026-01-02 09:48:33.67	211.70	11.70	-60.5	-63.3	6.2	0.00e+00	0	42	104	44367347712	87	20311
2026-01-02 09:48:34.66	211.68	11.58	-60.5	-63.3	6.2	0.00e+00	0	42	104	44367347712	87	20267
2026-01-02 09:48:35.65	211.66	11.47	-60.5	-63.3	6.2	0.00e+00	0	42	104	44367347712	87	20364
2026-01-02 09:48:36.65	211.63	11.36	-60.5	-63.3	6.2	0.00e+00	0	42	104	44367347712	87	20283
2026-01-02 09:48:37.64	211.61	11.25	-60.5	-63.3	6.2	0.00e+00	0	42	104	44367347712	87	20246
2026-01-02 09:48:38.63	211.59	11.14	-60.5	-63.2	6.2	0.00e+00	0	42	104	44367347712	87	20153
2026-01-02 09:48:39.62	211.57	11.03	-60.5	-63.3	6.2	0.00e+00	0	42	104	44367347712	87	20228
2026-01-02 09:48:40.62	211.55	10.92	-60.5	-63.2	6.2	0.00e+00	0	42	104	44367347712	87	20150
2026-01-02 09:48:41.61	211.53	10.81	-60.5	-63.2	6.2	0.00e+00	0	42	104	44367347712	87	20052
2026-01-02 09:48:42.61	211.51	10.70	-60.4	-63.2	6.2	0.00e+00	0	42	104	44367347712	87	20120
2026-01-02 09:48:43.60	211.49	10.59	-60.5	-63.2	6.2	0.00e+00	0	42	104	44367347712	87	20108
2026-01-02 09:48:44.59	211.47	10.49	-60.4	-63.2	6.2	0.00e+00	0	42	104	44367347712	87	20118
2026-01-02 09:48:45.59	211.45	10.38	-60.4	-63.2	6.2	0.00e+00	0	42	104	44367347712	87	20028
2026-01-02 09:48:46.58	211.43	10.27	-60.4	-63.2	6.2	0.00e+00	0	42	104	44367347712	87	19984
2026-01-02 09:48:47.57	211.41	10.17	-60.4	-63.2	6.2	0.00e+00	0	42	104	44367347712	87	20101
2026-01-02 09:48:48.56	211.39	10.07	-60.4	-63.2	6.2	0.00e+00	0	42	104	44367347712	87	20024
2026-01-02 09:48:49.55	211.37	9.96	-60.4	-63.2	6.2	0.00e+00	0	42	104	44367347712	87	19973
2026-01-02 09:48:50.53	211.35	9.86	-60.4	-63.1	6.2	0.00e+00	0	42	104	44367347712	87	19907
2026-01-02 09:48:51.53	211.33	9.76	-60.4	-63.2	6.2	0.00e+00	0	42	104	44367347712	87	19971
2026-01-02 09:48:52.52	211.32	9.65	-60.4	-63.2	6.2	0.00e+00	0	42	104	44367347712	87	19936
2026-01-02 09:48:53.51	211.30	9.55	-60.3	-63.1	6.2	0.00e+00	0	42	104	44367347712	87	19885
2026-01-02 09:48:54.51	211.28	9.45	-60.3	-63.1	6.2	0.00e+00	0	42	104	44367347712	87	19804
2026-01-02 09:48:55.50	211.26	9.35	-60.4	-63.1	6.2	0.00e+00	0	42	104	44367347712	87	19848
2026-01-02 09:48:56.50	211.24	9.25	-60.3	-63.1	6.2	0.00e+00	0	42	104	44367347712	87	19854
2026-01-02 09:48:57.50	211.23	9.15	-60.3	-63.1	6.2	0.00e+00	0	42	104	44367347712	87	19726
2026-01-02 09:48:58.49	211.21	9.05	-60.3	-63.0	6.2	0.00e+00	0	42	104	44367347712	87	19685
2026-01-02 09:48:59.48	211.19	8.95	-60.3	-63.1	6.2	0.00e+00	0	42	104	44367347712	87	19745
2026-01-02 09:49:00.47	211.18	8.86	-60.3	-63.0	6.2	0.00e+00	0	42	104	44367347712	87	19704
2026-01-02 09:49:01.47	211.16	8.76	-60.3	-63.0	6.2	0.00e+00	0	42	104	44367347712	87	19680
2026-01-02 09:49:02.46	211.14	8.66	-60.2	-63.0	6.2	0.00e+00	0	42	104	44367347712	87	19616
2026-01-02 09:49:03.46	211.13	8.56	-60.3	-63.0	6.2	0.00e+00	0	42	104	44367347712	87	19620
2026-01-02 09:49:04.46	211.11	8.47	-60.3	-63.0	6.2	0.00e+00	0	42	104	44367347712	87	19625
2026-01-02 09:49:05.45	211.09	8.37	-60.2	-63.0	6.2	0.00e+00	0	42	104	44367347712	87	19607
2026-01-02 09:49:06.45	211.08	8.28	-60.2	-63.0	6.2	0.00e+00	0	42	104	44367347712	87	19542
2026-01-02 09:49:07.44	211.06	8.18	-60.2	-63.0	6.2	0.00e+00	0	42	104	44367347712	87	19567
2026-01-02 09:49:08.44	211.05	8.09	-60.2	-63.0	6.2	0.00e+00	0	42	104	44367347712	87	19653
2026-01-02 09:49:09.43	211.03	7.99	-60.2	-62.9	6.2	0.00e+00	0	42	104	44367347712	87	19478
2026-01-02 09:49:10.42	211.01	7.90	-60.2	-62.9	6.2	0.00e+00	0	42	104	44367347712	87	19412
2026-01-02 09:49:11.41	211.00	7.81	-60.2	-63.0	6.2	0.00e+00	0	42	104	44367347712	87	19493
2026-01-02 09:49:12.41	210.98	7.72	-60.2	-63.0	6.2	0.00e+00	0	42	104	44367347712	87	19506
2026-01-02 09:49:13.40	210.97	7.62	-60.2	-62.9	6.2	0.00e+00	0	42	104	44367347712	87	19448
2026-01-02 09:49:14.39	210.95	7.53	-60.1	-62.9	6.2	0.00e+00	0	42	104	44367347712	87	19346
2026-01-02 09:49:15.38	210.94	7.44	-60.1	-62.9	6.2	0.00e+00	0	42	104	44367347712	87	19395
2026-01-02 09:49:16.36	210.93	7.35	-60.2	-62.9	6.2	0.00e+00	0	42	104	44367347712	87	19437
2026-01-02 09:49:17.36	210.91	7.26	-60.1	-62.9	6.2	0.00e+00	0	42	104	44367347712	87	19332
2026-01-02 09:49:18.35	210.90	7.17	-60.1	-62.8	6.2	0.00e+00	0	42	104	44367347712	87	19198
2026-01-02 09:49:19.35	210.88	7.08	-60.1	-62.9	6.2	0.00e+00	0	42	104	44367347712	87	19318
2026-01-02 09:49:20.34	210.87	6.99	-60.1	-62.9	6.2	0.00e+00	0	42	104	44367347712	87	19405
2026-01-02 09:49:21.34	210.85	6.90	-60.1	-62.9	6.2	0.00e+00	0	42	104	44367347712	87	19264
2026-01-02 09:49:22.33	210.84	6.82	-60.0	-62.8	6.2	0.00e+00	0	42	104	44367347712	87	19133
2026-01-02 09:49:23.33	210.83	6.73	-60.0	-62.8	6.2	0.00e+00	0	42	104	44367347712	87	19126
2026-01-02 09:49:24.32	210.81	6.64	-60.1	-62.9	6.2	0.00e+00	0	42	104	44367347712	87	19265
2026-01-02 09:49:25.31	210.80	6.56	-60.0	-62.8	6.2	0.00e+00	0	42	104	44367347712	87	19141
2026-01-02 09:49:26.31	210.79	6.47	-60.0	-62.8	6.2	0.00e+00	0	42	104	44367347712	87	19105
2026-01-02 09:49:27.30	210.77	6.38	-60.0	-62.8	6.2	0.00e+00	0	42	104	44367347712	87	19070
2026-01-02 09:49:28.29	210.76	6.30	-60.0	-62.8	6.2	0.00e+00	0	42	104	44367347712	87	19186
2026-01-02 09:49:29.29	210.75	6.21	-60.0	-62.8	6.2	0.00e+00	0	42	104	44367347712	87	19071
2026-01-02 09:49:30.29	210.74	6.12	-60.0	-62.7	6.2	0.00e+00	0	42	104	44367347712	86	20125
2026-01-02 09:49:31.29	210.72	6.04	-60.0	-62.7	6.2	0.00e+00	0	42	104	44367347712	86	20101
2026-01-02 09:49:32.29	210.71	5.95	-60.0	-62.8	6.2	0.00e+00	0	42	104	44367347712	86	20298
2026-01-02 09:49:33.27	210.70	5.87	-60.0	-62.7	6.2	0.00e+00	0	42	104	44367347712	86	20126
2026-01-02 09:49:34.26	210.69	5.79	-59.9	-62.7	6.2	0.00e+00	0	42	104	44367347712	86	20045
2026-01-02 09:49:35.26	210.67	5.70	-59.9	-62.7	6.2	0.00e+00	0	42	104	44367347712	86	19980
2026-01-02 09:49:36.25	210.66	5.62	-60.0	-62.8	6.2	0.00e+00	0	42	104	44367347712	86	20171
2026-01-02 09:49:37.24	210.65	5.54	-59.9	-62.7	6.2	0.00e+00	0	42	104	44367347712	86	19969
2026-01-02 09:49:38.23	210.64	5.46	-59.9	-62.6	6.2	0.00e+00	0	42	104	44367347712	86	19906
2026-01-02 09:49:39.23	210.63	5.38	-59.8	-62.6	6.2	0.00e+00	0	42	104	44367347712	86	19860
2026-01-02 09:49:40.22	210.61	5.29	-59.9	-62.7	6.2	0.00e+00	0	42	104	44367347712	86	20071
2026-01-02 09:49:41.21	210.60	5.21	-59.9	-62.6	6.2	0.00e+00	0	42	104	44367347712	86	19882
2026-01-02 09:49:42.20	210.59	5.13	-59.8	-62.6	6.2	0.00e+00	0	42	104	44367347712	86	19812
2026-01-02 09:49:43.19	210.58	5.05	-59.8	-62.5	6.2	0.00e+00	0	42	104	44367347712	86	19694
2026-01-02 09:49:44.19	210.57	4.97	-60.1	-62.9	6.2	0.00e+00	0	42	104	44367347712	86	20506
2026-01-02 09:49:45.19	210.56	4.89	-61.1	-63.5	6.2	0.00e+00	0	42	104	44367347712	87	20657
2026-01-02 09:49:46.20	210.55	4.81	-60.9	-63.7	6.2	0.00e+00	0	42	104	44367347712	87	21160
2026-01-02 09:49:47.21	210.54	4.73	-61.1	-63.8	6.2	0.00e+00	0	42	104	44367347712	87	21604
2026-01-02 09:49:48.21	210.52	4.65	-61.2	-64.0	6.2	0.00e+00	0	42	104	44367347712	88	20730
2026-01-02 09:49:49.21	210.51	4.57	-61.3	-64.1	6.2	0.00e+00	0	42	104	44367347712	88	20963
2026-01-02 09:49:50.21	210.50	4.49	-61.4	-64.2	6.2	0.00e+00	0	42	104	44367347712	88	21205
2026-01-02 09:49:51.22	210.49	4.41	-61.5	-64.3	6.2	0.00e+00	0	42	104	44367347712	88	21525
2026-01-02 09:49:52.23	210.48	4.33	-61.6	-64.4	6.2	0.00e+00	0	42	104	44367347712	89	20462
2026-01-02 09:49:53.23	210.47	4.26	-61.7	-64.4	6.2	0.00e+00	0	42	104	44367347712	89	20560
2026-01-02 09:49:54.22	210.46	4.18	-61.7	-64.5	6.2	0.00e+00	0	42	104	44367347712	89	20725
2026-01-02 09:49:55.22	210.45	4.10	-61.8	-64.5	6.2	0.00e+00	0	42	104	44367347712	89	20838
2026-01-02 09:49:56.21	210.44	4.03	-61.8	-64.6	6.2	0.00e+00	0	41	104	44367347712	89	20940
2026-01-02 09:49:57.20	210.43	3.95	-61.9	-64.6	6.2	0.00e+00	0	42	104	44367347712	89	21018
2026-01-02 09:49:58.20	210.42	3.87	-61.9	-64.6	6.2	0.00e+00	0	42	104	44367347712	89	21092
2026-01-02 09:49:59.19	210.41	3.80	-61.9	-64.7	6.2	0.00e+00	0	42	104	44367347712	89	21171
2026-01-02 09:50:00.19	210.40	3.72	-62.0	-64.7	6.2	0.00e+00	0	42	104	44367347712	89	21266
2026-01-02 09:50:01.18	210.39	3.65	-62.0	-64.7	6.2	0.00e+00	0	42	104	44367347712	89	21345
2026-01-02 09:50:02.17	210.38	3.57	-62.0	-64.8	6.2	0.00e+00	0	41	104	44367347712	89	21434
2026-01-02 09:50:03.17	210.37	3.50	-62.0	-64.8	6.2	0.00e+00	0	42	104	44367347712	89	21505
2026-01-02 09:50:04.16	210.36	3.42	-62.0	-64.8	6.2	0.00e+00	0	42	104	44367347712	89	21515
2026-01-02 09:50:05.16	210.35	3.35	-62.1	-64.8	6.2	0.00e+00	0	42	104	44367347712	89	21597
2026-01-02 09:50:06.15	210.35	3.27	-62.1	-64.9	6.2	0.00e+00	0	42	104	44367347712	90	20470
2026-01-02 09:50:07.14	210.34	3.20	-62.1	-64.8	6.2	0.00e+00	0	42	104	44367347712	90	20358
2026-01-02 09:50:08.13	210.33	3.13	-62.0	-64.8	6.2	0.00e+00	0	42	104	44367347712	90	20374
2026-01-02 09:50:09.13	210.32	3.05	-62.0	-64.8	6.2	0.00e+00	0	42	104	44367347712	90	20251
2026-01-02 09:50:10.12	210.31	2.98	-62.0	-64.8	6.2	0.00e+00	0	42	104	44367347712	90	20236
2026-01-02 09:50:11.12	210.30	2.91	-62.0	-64.8	6.2	0.00e+00	0	42	104	44367347712	90	20358
2026-01-02 09:50:12.11	210.29	2.84	-62.0	-64.8	6.2	0.00e+00	0	42	104	44367347712	90	20206
2026-01-02 09:50:13.11	210.28	2.76	-62.0	-64.7	6.2	0.00e+00	0	42	104	44367347712	90	20150
2026-01-02 09:50:14.10	210.27	2.69	-62.0	-64.7	6.2	0.00e+00	0	42	104	44367347712	90	20084
2026-01-02 09:50:15.10	210.27	2.62	-62.0	-64.7	6.2	0.00e+00	0	41	104	44367347712	90	20128
2026-01-02 09:50:16.10	210.26	2.55	-61.9	-64.7	6.2	0.00e+00	0	42	104	44367347712	90	20039
2026-01-02 09:50:17.09	210.25	2.48	-61.9	-64.7	6.2	0.00e+00	0	42	104	44367347712	90	19992
2026-01-02 09:50:18.08	210.24	2.41	-61.9	-64.7	6.2	0.00e+00	0	42	104	44367347712	90	19948
2026-01-02 09:50:19.07	210.23	2.34	-61.9	-64.7	6.2	0.00e+00	0	42	104	44367347712	90	19962
2026-01-02 09:50:20.07	210.22	2.27	-61.8	-64.6	6.2	0.00e+00	0	41	104	44367347712	90	19846
2026-01-02 09:50:21.06	210.22	2.20	-61.8	-64.6	6.2	0.00e+00	0	42	104	44367347712	90	19812
2026-01-02 09:50:22.05	210.21	2.13	-61.8	-64.6	6.2	0.00e+00	0	42	104	44367347712	90	19789
2026-01-02 09:50:23.05	210.20	2.06	-61.8	-64.6	6.2	0.00e+00	0	41	104	44367347712	90	19727
2026-01-02 09:50:24.04	210.19	1.99	-61.8	-64.6	6.2	0.00e+00	0	42	104	44367347712	90	19748
2026-01-02 09:50:25.03	210.18	1.92	-61.8	-64.6	6.2	0.00e+00	0	42	104	44367347712	90	19708

#Closed at: 2026-01-02 09:50:25
#Recorded file [44367 MB]: D:/lorett/data/31004_260102_123944.dat