passes_logs/2026/01/02/R3.2S_Murmansk/R3.2S_Murmansk__20260102_002340_KANOPUS-V-IK_rec.log

#Pass ID: 20260102_002340_KANOPUS-V-IK
#Satellite: KANOPUS-V-IK
#Configuration: KANOPUS-V_8128
#almurnet v.1.7.20251203
#Start time: 2026-01-02 00:23:42

#Version: 2.2.20231116
#Station: R3.2S_Murmansk
#Location: 33.079688 lon 68.888172 lat
#TLE: 1 42825U 17042A   26001.21266440  .00005755  00000+0  24506-3 0  9990
#TLE: 2 42825  97.3692 269.9908 0001826  86.2004 273.9442 15.23363314469954

#Time	Az	El	Level	Level2	SNR	BER	BlckErr	Temp	State	Recorded	gain1	gain2
2026-01-02 00:23:42.79	24.44	2.13	-59.0	-69.7	3.8	7.46e-01	0	32	0	0	87	12038
2026-01-02 00:23:43.79	24.36	2.19	-59.0	-69.8	3.8	7.47e-01	0	32	104	0	86	12826
2026-01-02 00:23:44.79	24.27	2.25	-59.0	-69.7	3.8	7.46e-01	0	32	104	0	86	12808
2026-01-02 00:23:45.79	24.19	2.31	-59.0	-69.7	3.8	7.45e-01	0	32	104	0	86	12797
2026-01-02 00:23:46.80	24.11	2.38	-59.0	-69.7	3.8	7.46e-01	0	32	104	0	86	12766
2026-01-02 00:23:47.79	24.02	2.44	-59.0	-69.7	3.8	7.47e-01	0	32	104	0	86	12780
2026-01-02 00:23:48.79	23.94	2.51	-59.0	-69.8	3.8	7.46e-01	0	32	104	0	86	12823
2026-01-02 00:23:49.79	23.85	2.57	-59.0	-69.8	3.8	7.47e-01	0	32	104	0	86	12827
2026-01-02 00:23:50.79	23.77	2.63	-59.0	-69.7	3.8	7.47e-01	0	32	104	0	86	12793
2026-01-02 00:23:51.79	23.68	2.70	-59.0	-69.7	3.8	7.45e-01	0	32	104	0	86	12759
2026-01-02 00:23:52.79	23.59	2.76	-59.0	-69.7	3.8	7.47e-01	0	32	104	0	86	12771
2026-01-02 00:23:53.79	23.50	2.83	-59.0	-69.8	3.8	7.44e-01	0	32	104	0	86	12823
2026-01-02 00:23:54.79	23.42	2.89	-59.0	-69.7	3.8	7.44e-01	0	32	104	0	86	12784
2026-01-02 00:23:55.79	23.33	2.95	-59.0	-69.7	3.8	7.45e-01	0	32	104	0	86	12763
2026-01-02 00:23:56.79	23.24	3.02	-59.0	-69.7	3.8	7.46e-01	0	32	104	0	86	12761
2026-01-02 00:23:57.79	23.15	3.08	-59.0	-69.7	3.8	7.45e-01	0	32	104	0	86	12770
2026-01-02 00:23:58.79	23.06	3.15	-59.0	-69.8	3.8	7.45e-01	0	32	104	0	86	12830
2026-01-02 00:23:59.80	22.97	3.22	-59.0	-69.8	3.8	7.45e-01	0	32	104	0	86	12819
2026-01-02 00:24:00.80	22.87	3.28	-59.0	-69.7	3.8	7.45e-01	0	32	104	0	86	12766
2026-01-02 00:24:01.80	22.78	3.35	-59.0	-69.7	3.8	7.47e-01	0	32	104	0	86	12771
2026-01-02 00:24:02.80	22.69	3.41	-59.0	-69.7	3.8	7.46e-01	0	32	104	0	86	12745
2026-01-02 00:24:03.80	22.60	3.48	-59.0	-69.7	3.8	7.45e-01	0	32	104	0	86	12776
2026-01-02 00:24:04.79	22.50	3.54	-59.0	-69.7	3.8	7.46e-01	0	32	104	0	86	12771
2026-01-02 00:24:05.79	22.41	3.61	-59.0	-69.7	3.8	7.46e-01	0	32	104	0	86	12736
2026-01-02 00:24:06.79	22.32	3.68	-59.0	-69.7	3.8	7.45e-01	0	32	104	0	86	12777
2026-01-02 00:24:07.80	22.22	3.74	-59.0	-69.7	3.8	7.47e-01	0	32	104	0	86	12741
2026-01-02 00:24:08.80	22.12	3.81	-59.0	-69.7	3.8	7.46e-01	0	32	104	0	86	12764
2026-01-02 00:24:09.80	22.03	3.88	-59.0	-69.7	3.8	7.49e-01	0	32	104	0	86	12704
2026-01-02 00:24:10.80	21.93	3.94	-59.0	-69.7	3.8	7.45e-01	0	32	104	0	86	12736
2026-01-02 00:24:11.81	21.83	4.01	-59.0	-69.7	3.8	7.45e-01	0	32	104	0	86	12729
2026-01-02 00:24:12.80	21.73	4.08	-59.0	-69.7	3.8	7.47e-01	0	32	104	0	86	12742
2026-01-02 00:24:13.80	21.64	4.14	-59.0	-69.7	3.8	7.45e-01	0	32	104	0	86	12767
2026-01-02 00:24:14.80	21.54	4.21	-59.0	-69.7	3.8	7.45e-01	0	32	104	0	86	12784
2026-01-02 00:24:15.80	21.44	4.28	-59.0	-69.7	3.8	7.46e-01	0	32	104	0	86	12715
2026-01-02 00:24:16.81	21.33	4.35	-59.0	-69.7	3.8	7.45e-01	0	32	104	0	86	12752
2026-01-02 00:24:17.81	21.23	4.42	-59.0	-69.7	3.8	7.46e-01	0	32	104	0	86	12739
2026-01-02 00:24:18.81	21.13	4.48	-59.0	-69.7	3.8	7.46e-01	0	32	104	0	86	12727
2026-01-02 00:24:19.80	21.03	4.55	-59.0	-69.7	3.8	7.47e-01	0	33	104	0	86	12752
2026-01-02 00:24:20.80	20.93	4.62	-59.0	-69.7	3.8	7.44e-01	0	32	104	0	86	12743
2026-01-02 00:24:21.81	20.82	4.69	-59.0	-69.7	3.8	7.45e-01	0	32	104	0	86	12705
2026-01-02 00:24:22.81	20.72	4.76	-59.0	-69.7	3.8	7.45e-01	0	32	104	0	86	12742
2026-01-02 00:24:23.79	20.61	4.83	-59.0	-69.7	3.8	7.46e-01	0	33	104	0	86	12786
2026-01-02 00:24:24.78	20.51	4.89	-59.0	-69.7	3.8	7.47e-01	0	32	104	0	86	12713
2026-01-02 00:24:25.78	20.40	4.96	-59.0	-69.7	3.8	7.44e-01	0	33	104	0	86	12704
2026-01-02 00:24:26.78	20.30	5.03	-58.9	-69.7	3.8	7.47e-01	0	33	104	0	86	12748
2026-01-02 00:24:27.77	20.19	5.10	-59.0	-69.7	3.8	7.45e-01	0	32	104	0	86	12740
2026-01-02 00:24:28.76	20.08	5.17	-59.1	-69.7	3.8	7.45e-01	0	33	104	0	86	12799
2026-01-02 00:24:29.75	19.97	5.24	-59.0	-69.7	3.8	7.45e-01	0	33	104	0	86	12751
2026-01-02 00:24:30.75	19.86	5.31	-59.1	-69.8	3.8	7.47e-01	0	32	104	0	86	12935
2026-01-02 00:24:31.75	19.75	5.38	-59.0	-69.7	3.8	7.45e-01	0	33	104	0	86	12684
2026-01-02 00:24:32.75	19.64	5.45	-59.1	-69.8	3.8	7.45e-01	0	33	104	0	86	12839
2026-01-02 00:24:33.75	19.53	5.52	-59.0	-69.7	3.8	7.45e-01	0	33	104	0	86	12678
2026-01-02 00:24:34.76	19.42	5.59	-59.1	-69.8	3.8	7.45e-01	0	33	104	0	86	12875
2026-01-02 00:24:35.76	19.30	5.66	-59.0	-69.7	3.8	7.47e-01	0	33	104	0	86	12725
2026-01-02 00:24:36.77	19.19	5.74	-59.1	-69.8	3.8	7.47e-01	0	33	104	0	86	12830
2026-01-02 00:24:37.76	19.07	5.81	-59.0	-69.7	3.8	7.47e-01	0	33	104	0	86	12741
2026-01-02 00:24:38.76	18.96	5.88	-59.1	-69.8	3.8	7.44e-01	0	33	104	0	86	12888
2026-01-02 00:24:39.77	18.84	5.95	-59.0	-69.7	3.8	7.46e-01	0	33	104	0	86	12695
2026-01-02 00:24:40.77	18.72	6.02	-59.1	-69.8	3.8	7.46e-01	0	33	104	0	86	12849
2026-01-02 00:24:41.78	18.60	6.09	-59.0	-69.7	3.8	7.44e-01	0	33	104	0	86	12721
2026-01-02 00:24:42.78	18.49	6.17	-59.1	-69.8	3.8	7.46e-01	0	33	104	0	86	12897
2026-01-02 00:24:43.77	18.37	6.24	-59.1	-69.7	3.8	7.45e-01	0	33	104	0	86	12783
2026-01-02 00:24:44.78	18.25	6.31	-59.1	-69.8	3.8	7.45e-01	0	33	104	0	86	12897
2026-01-02 00:24:45.78	18.13	6.38	-59.1	-69.8	3.8	7.45e-01	0	33	104	0	86	12840
2026-01-02 00:24:46.79	18.00	6.46	-59.2	-69.9	3.8	7.44e-01	0	33	104	0	86	12982
2026-01-02 00:24:47.79	17.88	6.53	-59.1	-69.8	3.8	7.46e-01	0	33	104	0	86	12815
2026-01-02 00:24:48.79	17.76	6.60	-59.1	-69.8	3.8	7.43e-01	0	33	104	0	86	12888
2026-01-02 00:24:49.78	17.63	6.68	-59.1	-69.8	3.8	7.46e-01	0	33	104	0	86	12877
2026-01-02 00:24:50.78	17.51	6.75	-59.2	-69.9	3.8	7.46e-01	0	33	104	0	86	13037
2026-01-02 00:24:51.78	17.38	6.82	-59.1	-69.8	3.8	7.46e-01	0	33	104	0	86	12877
2026-01-02 00:24:52.78	17.26	6.90	-59.1	-69.9	3.8	7.45e-01	0	33	104	0	86	12960
2026-01-02 00:24:53.77	17.13	6.97	-59.1	-69.8	3.8	7.47e-01	0	33	104	0	86	12879
2026-01-02 00:24:54.77	17.00	7.04	-59.2	-69.9	3.8	7.46e-01	0	33	104	0	86	13043
2026-01-02 00:24:55.77	16.87	7.12	-59.1	-69.8	3.8	7.46e-01	0	33	104	0	86	12932
2026-01-02 00:24:56.77	16.74	7.19	-59.2	-69.9	3.8	7.46e-01	0	33	104	0	86	13039
2026-01-02 00:24:57.77	16.61	7.27	-59.1	-69.9	3.8	7.46e-01	0	33	104	0	86	13008
2026-01-02 00:24:58.77	16.48	7.34	-59.3	-70.0	3.8	7.46e-01	0	33	104	0	86	13155
2026-01-02 00:24:59.77	16.35	7.42	-59.2	-69.9	3.8	7.46e-01	0	33	104	0	86	13006
2026-01-02 00:25:00.77	16.22	7.49	-59.2	-69.9	3.8	7.44e-01	0	33	104	0	86	13072
2026-01-02 00:25:01.77	16.08	7.57	-59.2	-69.9	3.8	7.44e-01	0	33	104	0	86	12969
2026-01-02 00:25:02.77	15.95	7.64	-59.3	-70.0	3.8	7.44e-01	0	33	104	0	86	13145
2026-01-02 00:25:03.76	15.81	7.72	-59.2	-69.9	3.8	7.45e-01	0	33	104	0	86	13001
2026-01-02 00:25:04.77	15.67	7.80	-59.2	-69.9	3.8	7.46e-01	0	33	104	0	86	13074
2026-01-02 00:25:05.78	15.53	7.87	-59.2	-69.9	3.8	7.46e-01	0	33	104	0	86	13049
2026-01-02 00:25:06.78	15.39	7.95	-59.3	-70.0	3.8	7.45e-01	0	33	104	0	86	13176
2026-01-02 00:25:07.78	15.25	8.03	-59.2	-69.9	3.8	7.45e-01	0	33	104	0	86	13023
2026-01-02 00:25:08.78	15.11	8.10	-59.3	-70.0	3.8	7.47e-01	0	33	104	0	86	13121
2026-01-02 00:25:09.77	14.97	8.18	-59.2	-70.0	3.8	7.46e-01	0	33	104	0	86	13123
2026-01-02 00:25:10.77	14.83	8.26	-59.3	-70.0	3.8	7.45e-01	0	33	104	0	86	13192
2026-01-02 00:25:11.77	14.69	8.33	-59.2	-69.9	3.8	7.45e-01	0	33	104	0	86	13062
2026-01-02 00:25:12.77	14.54	8.41	-59.3	-70.0	3.8	7.44e-01	0	33	104	0	86	13155
2026-01-02 00:25:13.77	14.40	8.49	-59.2	-69.9	3.8	7.46e-01	0	33	104	0	86	13038
2026-01-02 00:25:14.77	14.25	8.57	-59.4	-70.0	3.8	7.46e-01	0	33	104	0	86	13251
2026-01-02 00:25:15.76	14.10	8.64	-59.3	-70.0	3.8	7.47e-01	0	33	104	0	86	13174
2026-01-02 00:25:16.75	13.96	8.72	-59.3	-70.0	3.8	7.45e-01	0	33	104	0	86	13238
2026-01-02 00:25:17.75	13.81	8.80	-59.3	-70.0	3.8	7.45e-01	0	33	104	0	86	13166
2026-01-02 00:25:18.76	13.66	8.88	-59.4	-70.1	3.8	7.47e-01	0	33	104	0	86	13352
2026-01-02 00:25:19.76	13.50	8.96	-59.3	-70.0	3.8	7.46e-01	0	33	104	0	86	13180
2026-01-02 00:25:20.76	13.35	9.03	-59.3	-70.0	3.8	7.44e-01	0	33	104	0	86	13240
2026-01-02 00:25:21.76	13.20	9.11	-59.3	-70.0	3.8	7.44e-01	0	33	104	0	86	13187
2026-01-02 00:25:22.77	13.04	9.19	-59.4	-70.1	3.8	7.47e-01	0	33	104	0	86	13327
2026-01-02 00:25:23.77	12.88	9.27	-59.3	-70.0	3.8	7.46e-01	0	33	104	0	86	13231
2026-01-02 00:25:24.76	12.73	9.35	-59.4	-70.1	3.8	7.45e-01	0	33	104	0	86	13277
2026-01-02 00:25:25.76	12.57	9.43	-59.3	-70.0	3.8	7.46e-01	0	33	104	0	86	13239
2026-01-02 00:25:26.76	12.41	9.51	-59.4	-70.1	3.8	7.46e-01	0	33	104	0	86	13353
2026-01-02 00:25:27.75	12.25	9.59	-59.4	-70.0	3.8	7.45e-01	0	33	104	0	86	13237
2026-01-02 00:25:28.76	12.09	9.67	-59.4	-70.1	3.8	7.47e-01	0	33	104	0	86	13313
2026-01-02 00:25:29.75	11.93	9.75	-59.4	-70.1	3.8	7.45e-01	0	33	104	0	86	13266
2026-01-02 00:25:30.76	11.76	9.83	-59.5	-70.2	3.8	7.45e-01	0	33	104	0	86	13470
2026-01-02 00:25:31.76	11.60	9.91	-59.4	-70.0	3.8	7.45e-01	0	33	104	0	86	13243
2026-01-02 00:25:32.77	11.43	9.99	-59.4	-70.1	3.8	7.46e-01	0	33	104	0	86	13340
2026-01-02 00:25:33.77	11.27	10.07	-59.4	-70.1	3.8	7.48e-01	0	33	104	0	86	13291
2026-01-02 00:25:34.76	11.10	10.15	-59.5	-70.2	3.8	7.46e-01	0	33	104	0	86	13419
2026-01-02 00:25:35.77	10.93	10.23	-59.4	-70.1	3.8	7.46e-01	0	33	104	0	86	13343
2026-01-02 00:25:36.77	10.76	10.32	-59.4	-70.1	3.8	7.45e-01	0	33	104	0	86	13387
2026-01-02 00:25:37.77	10.58	10.40	-59.4	-70.1	3.8	7.46e-01	0	33	104	0	86	13317
2026-01-02 00:25:38.77	10.41	10.48	-59.5	-70.2	3.8	7.46e-01	0	33	104	0	86	13509
2026-01-02 00:25:39.78	10.24	10.56	-59.4	-70.2	3.8	7.46e-01	0	33	104	0	87	12673
2026-01-02 00:25:40.78	10.06	10.64	-59.4	-70.2	3.8	7.45e-01	0	33	104	0	87	12688
2026-01-02 00:25:41.79	9.88	10.72	-59.4	-70.1	3.8	7.46e-01	0	33	104	0	87	12616
2026-01-02 00:25:42.79	9.70	10.81	-59.5	-70.2	3.8	7.47e-01	0	33	104	0	87	12757
2026-01-02 00:25:43.79	9.53	10.89	-59.5	-70.1	3.8	7.47e-01	0	33	104	0	87	12658
2026-01-02 00:25:44.79	9.34	10.97	-59.5	-70.2	3.8	7.45e-01	0	33	104	0	87	12720
2026-01-02 00:25:45.79	9.16	11.05	-59.4	-70.1	3.8	7.46e-01	0	33	104	0	87	12635
2026-01-02 00:25:46.79	8.98	11.14	-59.5	-70.2	3.8	7.48e-01	0	33	104	0	87	12784
2026-01-02 00:25:47.78	8.80	11.22	-59.5	-70.2	3.8	7.45e-01	0	33	104	0	87	12723
2026-01-02 00:25:48.78	8.61	11.30	-59.5	-70.2	3.8	7.45e-01	0	33	104	0	87	12714
2026-01-02 00:25:49.77	8.43	11.38	-59.5	-70.2	3.8	7.45e-01	0	33	104	0	87	12681
2026-01-02 00:25:50.77	8.24	11.47	-59.6	-70.3	3.8	7.46e-01	0	33	104	0	87	12816
2026-01-02 00:25:51.77	8.05	11.55	-59.5	-70.2	3.8	7.47e-01	0	33	104	0	87	12736
2026-01-02 00:25:52.78	7.86	11.63	-59.5	-70.3	3.8	7.48e-01	0	33	104	0	87	12867
2026-01-02 00:25:53.78	7.66	11.72	-59.5	-70.2	3.8	7.45e-01	0	33	104	0	87	12722
2026-01-02 00:25:54.78	7.47	11.80	-59.6	-70.3	3.8	7.46e-01	0	33	104	0	87	12887
2026-01-02 00:25:55.78	7.28	11.88	-59.5	-70.2	3.8	7.44e-01	0	33	104	0	87	12768
2026-01-02 00:25:56.78	7.08	11.97	-59.6	-70.3	3.8	7.46e-01	0	33	104	0	87	12833
2026-01-02 00:25:57.78	6.88	12.05	-59.5	-70.2	3.8	7.46e-01	0	33	104	0	87	12780
2026-01-02 00:25:58.77	6.68	12.13	-59.6	-70.3	3.8	7.46e-01	0	33	104	0	87	12898
2026-01-02 00:25:59.77	6.48	12.22	-59.6	-70.3	3.8	7.45e-01	0	33	104	0	87	12895
2026-01-02 00:26:00.77	6.28	12.30	-59.6	-70.3	3.8	7.43e-01	0	33	104	0	87	12871
2026-01-02 00:26:01.76	6.08	12.39	-59.6	-70.2	3.8	7.45e-01	0	33	104	0	87	12798
2026-01-02 00:26:02.75	5.88	12.47	-59.6	-70.3	3.8	7.46e-01	0	33	104	0	87	12892
2026-01-02 00:26:03.75	5.67	12.55	-59.6	-70.3	3.8	7.45e-01	0	33	104	0	87	12838
2026-01-02 00:26:04.74	5.47	12.64	-59.6	-70.3	3.8	7.46e-01	0	33	104	0	87	12918
2026-01-02 00:26:05.74	5.26	12.72	-59.6	-70.2	3.8	7.47e-01	0	33	104	0	87	12807
2026-01-02 00:26:06.74	5.05	12.81	-59.7	-70.3	3.8	7.45e-01	0	33	104	0	87	12934
2026-01-02 00:26:07.74	4.83	12.89	-59.6	-70.3	3.8	7.45e-01	0	33	104	0	87	12943
2026-01-02 00:26:08.74	4.62	12.98	-59.6	-70.3	3.8	7.45e-01	0	33	104	0	87	12950
2026-01-02 00:26:09.74	4.41	13.06	-59.6	-70.3	3.8	7.44e-01	0	33	104	0	87	12844
2026-01-02 00:26:10.74	4.19	13.15	-59.7	-70.4	3.8	7.45e-01	0	33	104	0	87	12985
2026-01-02 00:26:11.74	3.97	13.23	-59.6	-70.4	3.8	7.47e-01	0	33	104	0	87	12977
2026-01-02 00:26:12.74	3.75	13.31	-59.7	-70.4	3.8	7.47e-01	0	33	104	0	87	12971
2026-01-02 00:26:13.74	3.53	13.40	-59.6	-70.3	3.8	7.46e-01	0	33	104	0	87	12903
2026-01-02 00:26:14.73	3.31	13.48	-59.7	-70.4	3.8	7.46e-01	0	33	104	0	87	12994
2026-01-02 00:26:15.73	3.09	13.57	-59.7	-70.3	3.8	7.45e-01	0	33	104	0	87	12911
2026-01-02 00:26:16.72	2.86	13.65	-59.7	-70.4	3.8	7.44e-01	0	33	104	0	87	13001
2026-01-02 00:26:17.72	2.63	13.74	-59.6	-70.3	3.8	7.45e-01	0	33	104	0	87	12945
2026-01-02 00:26:18.71	2.41	13.82	-59.7	-70.4	3.8	7.46e-01	0	33	104	0	87	13058
2026-01-02 00:26:19.71	2.18	13.91	-59.7	-70.4	3.8	7.46e-01	0	33	104	0	87	12978
2026-01-02 00:26:20.71	1.95	13.99	-59.7	-70.4	3.8	7.45e-01	0	33	104	0	87	12989
2026-01-02 00:26:21.71	1.71	14.08	-59.7	-70.4	3.8	7.45e-01	0	33	104	0	87	12971
2026-01-02 00:26:22.70	1.48	14.16	-59.7	-70.4	3.8	7.46e-01	0	33	104	0	87	13080
2026-01-02 00:26:23.70	1.24	14.24	-59.7	-70.4	3.8	7.44e-01	0	33	104	0	87	13021
2026-01-02 00:26:24.70	1.00	14.33	-59.7	-70.4	3.8	7.44e-01	0	33	104	0	87	13083
2026-01-02 00:26:25.70	0.76	14.41	-59.7	-70.4	3.8	7.44e-01	0	33	104	0	87	13050
2026-01-02 00:26:26.71	0.52	14.50	-59.8	-70.4	3.8	7.46e-01	0	33	104	0	87	13108
2026-01-02 00:26:27.70	0.28	14.58	-59.8	-70.5	3.8	7.46e-01	0	33	104	0	87	13114
2026-01-02 00:26:28.70	0.03	14.67	-59.8	-70.4	3.8	7.46e-01	0	33	104	0	87	13092
2026-01-02 00:26:29.70	359.78	14.75	-59.7	-70.4	3.8	7.46e-01	0	33	104	0	87	13060
2026-01-02 00:26:30.70	359.54	14.84	-59.8	-70.5	3.8	7.45e-01	0	33	104	0	87	13139
2026-01-02 00:26:31.69	359.29	14.92	-59.8	-70.4	3.8	7.48e-01	0	34	104	0	87	13104
2026-01-02 00:26:32.69	359.03	15.00	-59.8	-70.4	3.8	7.45e-01	0	33	104	0	87	13105
2026-01-02 00:26:33.69	358.78	15.09	-59.8	-70.4	3.8	7.45e-01	0	33	104	0	87	13109
2026-01-02 00:26:34.69	358.53	15.17	-59.8	-70.5	3.8	7.45e-01	0	33	104	0	87	13229
2026-01-02 00:26:35.69	358.27	15.26	-59.8	-70.5	3.8	7.45e-01	0	33	104	0	87	13189
2026-01-02 00:26:36.68	358.01	15.34	-59.8	-70.5	3.8	7.44e-01	0	33	104	0	87	13144
2026-01-02 00:26:37.68	357.75	15.42	-59.8	-70.5	3.8	7.47e-01	0	33	104	0	87	13135
2026-01-02 00:26:38.67	357.49	15.50	-59.8	-70.5	3.8	7.45e-01	0	34	104	0	87	13251
2026-01-02 00:26:39.67	357.23	15.59	-60.0	-70.7	3.8	7.47e-01	0	34	104	0	88	12676
2026-01-02 00:26:40.67	356.96	15.67	-59.9	-70.6	3.8	7.46e-01	0	34	104	0	88	12648
2026-01-02 00:26:41.68	356.69	15.75	-59.9	-70.6	3.8	7.44e-01	0	33	104	0	88	12563
2026-01-02 00:26:42.68	356.42	15.84	-60.0	-70.7	3.8	7.44e-01	0	33	104	0	88	12671
2026-01-02 00:26:43.68	356.15	15.92	-59.9	-70.6	3.8	7.45e-01	0	33	104	0	88	12588
2026-01-02 00:26:44.67	355.88	16.00	-59.9	-70.6	3.8	7.47e-01	0	33	104	0	88	12609
2026-01-02 00:26:45.67	355.60	16.08	-59.9	-70.6	3.8	7.48e-01	0	33	104	0	87	13282
2026-01-02 00:26:46.67	355.33	16.16	-59.9	-70.6	3.8	7.46e-01	0	33	104	0	87	13379
2026-01-02 00:26:47.67	355.05	16.25	-59.9	-70.6	3.8	7.45e-01	0	34	104	0	87	13296
2026-01-02 00:26:48.67	354.77	16.33	-59.9	-70.6	3.8	7.44e-01	0	33	104	0	87	13351
2026-01-02 00:26:49.67	354.49	16.41	-59.9	-70.6	3.8	7.46e-01	0	34	104	0	87	13301
2026-01-02 00:26:50.67	354.20	16.49	-59.9	-70.7	3.8	7.46e-01	0	33	104	0	87	13418
2026-01-02 00:26:51.67	353.92	16.57	-59.9	-70.6	3.8	7.46e-01	0	33	104	0	87	13313
2026-01-02 00:26:52.68	353.62	16.65	-59.9	-70.6	3.8	7.47e-01	0	33	104	0	87	13308
2026-01-02 00:26:53.68	353.34	16.73	-59.9	-70.6	3.8	7.46e-01	0	34	104	0	87	13315
2026-01-02 00:26:54.68	353.04	16.81	-59.9	-70.6	3.8	7.46e-01	0	33	104	0	87	13414
2026-01-02 00:26:55.68	352.75	16.89	-59.9	-70.6	3.8	7.46e-01	0	33	104	0	87	13387
2026-01-02 00:26:56.68	352.46	16.97	-59.9	-70.6	3.8	7.45e-01	0	33	104	0	87	13355
2026-01-02 00:26:57.68	352.16	17.05	-59.9	-70.6	3.8	7.44e-01	0	34	104	0	87	13306
2026-01-02 00:26:58.68	351.86	17.13	-60.0	-70.7	3.8	7.46e-01	0	33	104	0	87	13443
2026-01-02 00:26:59.67	351.56	17.20	-59.9	-70.6	3.8	7.45e-01	0	34	104	0	87	13354
2026-01-02 00:27:00.68	351.26	17.28	-59.9	-70.6	3.8	7.45e-01	0	33	104	0	87	13390
2026-01-02 00:27:01.67	350.96	17.36	-59.9	-70.6	3.8	7.46e-01	0	33	104	0	87	13401
2026-01-02 00:27:02.68	350.65	17.43	-59.9	-70.7	3.8	7.45e-01	0	34	104	0	87	13486
2026-01-02 00:27:03.69	350.34	17.51	-60.0	-70.6	3.8	7.45e-01	0	34	104	0	87	13374
2026-01-02 00:27:04.69	350.03	17.59	-60.0	-70.7	3.8	7.46e-01	0	34	104	0	87	13456
2026-01-02 00:27:05.68	349.72	17.66	-59.9	-70.6	3.8	7.45e-01	0	34	104	0	87	13329
2026-01-02 00:27:06.69	349.40	17.74	-60.0	-70.7	3.8	7.45e-01	0	34	104	0	87	13534
2026-01-02 00:27:07.68	349.09	17.81	-60.0	-70.7	3.8	7.45e-01	0	34	104	0	87	13417
2026-01-02 00:27:08.69	348.77	17.88	-60.0	-70.7	3.8	7.44e-01	0	33	104	0	87	13423
2026-01-02 00:27:09.68	348.45	17.96	-60.0	-70.6	3.8	7.46e-01	0	34	104	0	87	13376
2026-01-02 00:27:10.68	348.13	18.03	-60.0	-70.7	3.8	7.47e-01	0	33	104	0	87	13528
2026-01-02 00:27:11.67	347.81	18.10	-60.0	-70.7	3.8	7.45e-01	0	34	104	0	88	12702
2026-01-02 00:27:12.68	347.49	18.17	-60.0	-70.7	3.8	7.46e-01	0	34	104	0	88	12739
2026-01-02 00:27:13.67	347.16	18.24	-60.0	-70.7	3.8	7.45e-01	0	33	104	0	88	12776
2026-01-02 00:27:14.67	346.84	18.31	-60.0	-70.7	3.8	7.46e-01	0	33	104	0	88	12756
2026-01-02 00:27:15.67	346.51	18.38	-60.0	-70.7	3.8	7.48e-01	0	33	104	0	88	12789
2026-01-02 00:27:16.67	346.18	18.45	-60.0	-70.7	3.8	7.44e-01	0	33	104	0	88	12799
2026-01-02 00:27:17.67	345.84	18.52	-60.0	-70.7	3.8	7.46e-01	0	34	104	0	88	12713
2026-01-02 00:27:18.67	345.51	18.59	-60.1	-70.7	3.8	7.46e-01	0	34	104	0	88	12800
2026-01-02 00:27:19.66	345.17	18.66	-60.0	-70.8	3.8	7.46e-01	0	33	104	0	88	12829
2026-01-02 00:27:20.66	344.84	18.72	-60.0	-70.7	3.8	7.46e-01	0	33	104	0	88	12780
2026-01-02 00:27:21.66	344.50	18.79	-60.0	-70.7	3.8	7.45e-01	0	33	104	0	88	12751
2026-01-02 00:27:22.65	344.16	18.85	-60.1	-70.8	3.8	7.45e-01	0	33	104	0	88	12832
2026-01-02 00:27:23.65	343.81	18.92	-60.1	-70.8	3.8	7.44e-01	0	33	104	0	88	12812
2026-01-02 00:27:24.64	343.47	18.98	-60.1	-70.8	3.8	7.47e-01	0	34	104	0	88	12864
2026-01-02 00:27:25.65	343.12	19.04	-60.0	-70.7	3.8	7.45e-01	0	33	104	0	88	12741
2026-01-02 00:27:26.65	342.77	19.11	-60.1	-70.8	3.8	7.45e-01	0	34	104	0	88	12842
2026-01-02 00:27:27.65	342.42	19.17	-60.1	-70.7	3.8	7.46e-01	0	33	104	0	88	12799
2026-01-02 00:27:28.65	342.07	19.23	-60.1	-70.8	3.8	7.45e-01	0	33	104	0	88	12818
2026-01-02 00:27:29.64	341.72	19.29	-60.1	-70.8	3.8	7.47e-01	0	33	104	0	88	12824
2026-01-02 00:27:30.64	341.37	19.35	-60.1	-70.8	3.8	7.46e-01	0	34	104	0	88	12906
2026-01-02 00:27:31.64	341.01	19.40	-60.1	-70.8	3.8	7.45e-01	0	34	104	0	88	12867
2026-01-02 00:27:32.64	340.65	19.46	-60.1	-70.8	3.8	7.45e-01	0	33	104	0	88	12888
2026-01-02 00:27:33.64	340.29	19.52	-60.1	-70.8	3.8	7.44e-01	0	33	104	0	88	12811
2026-01-02 00:27:34.64	339.93	19.57	-60.1	-70.8	3.8	7.44e-01	0	33	104	0	88	12899
2026-01-02 00:27:35.64	339.57	19.63	-60.1	-70.8	3.8	7.45e-01	0	34	104	0	88	12869
2026-01-02 00:27:36.64	339.21	19.68	-60.1	-70.9	3.8	7.45e-01	0	34	104	0	88	12993
2026-01-02 00:27:37.63	338.84	19.73	-60.1	-70.8	3.8	7.45e-01	0	34	104	0	88	12878
2026-01-02 00:27:38.64	338.47	19.79	-60.2	-70.9	3.8	7.46e-01	0	33	104	0	88	12969
2026-01-02 00:27:39.63	338.11	19.84	-60.2	-70.9	3.8	7.45e-01	0	34	104	0	88	12978
2026-01-02 00:27:40.63	337.74	19.89	-60.1	-70.9	3.8	7.45e-01	0	33	104	0	88	12969
2026-01-02 00:27:41.63	337.37	19.94	-60.1	-70.8	3.8	7.46e-01	0	34	104	0	88	12934
2026-01-02 00:27:42.63	336.99	19.98	-60.2	-70.9	3.8	7.46e-01	0	33	104	0	88	13004
2026-01-02 00:27:43.63	336.62	20.03	-60.2	-70.9	3.8	7.46e-01	0	33	104	0	88	12974
2026-01-02 00:27:44.64	336.24	20.08	-60.2	-70.8	3.8	7.45e-01	0	34	104	0	88	12945
2026-01-02 00:27:45.64	335.86	20.12	-60.1	-70.8	3.8	7.46e-01	0	34	104	0	88	12950
2026-01-02 00:27:46.64	335.49	20.17	-60.2	-70.9	3.8	7.46e-01	0	34	104	0	88	12998
2026-01-02 00:27:47.64	335.11	20.21	-60.2	-70.8	3.8	7.46e-01	0	34	104	0	88	12936
2026-01-02 00:27:48.64	334.73	20.25	-60.2	-70.8	3.8	7.46e-01	0	34	104	0	88	12956
2026-01-02 00:27:49.64	334.35	20.29	-60.2	-70.8	3.8	7.45e-01	0	33	104	0	88	12901
2026-01-02 00:27:50.64	333.96	20.33	-60.2	-70.9	3.8	7.46e-01	0	33	104	0	88	13017
2026-01-02 00:27:51.64	333.58	20.37	-60.2	-70.9	3.8	7.46e-01	0	33	104	0	88	13006
2026-01-02 00:27:52.64	333.19	20.40	-60.2	-70.9	3.8	7.47e-01	0	33	104	0	88	12998
2026-01-02 00:27:53.64	332.81	20.44	-60.2	-70.9	3.8	7.46e-01	0	34	104	0	88	12973
2026-01-02 00:27:54.64	332.42	20.48	-60.2	-70.9	3.8	7.46e-01	0	33	104	0	88	12978
2026-01-02 00:27:55.64	332.03	20.51	-60.2	-70.9	3.8	7.47e-01	0	33	104	0	88	12987
2026-01-02 00:27:56.63	331.65	20.54	-60.2	-70.9	3.8	7.46e-01	0	34	104	0	88	13011
2026-01-02 00:27:57.63	331.26	20.57	-60.2	-70.9	3.8	7.47e-01	0	33	104	0	88	12980
2026-01-02 00:27:58.64	330.86	20.60	-60.2	-70.9	3.8	7.46e-01	0	34	104	0	88	13046
2026-01-02 00:27:59.64	330.47	20.63	-60.2	-70.9	3.8	7.45e-01	0	33	104	0	88	13013
2026-01-02 00:28:00.63	330.08	20.66	-60.2	-70.9	3.8	7.45e-01	0	34	104	0	88	13056
2026-01-02 00:28:01.64	329.69	20.68	-60.2	-70.8	3.8	7.47e-01	0	33	104	0	88	12956
2026-01-02 00:28:02.64	329.29	20.71	-60.2	-70.9	3.8	7.44e-01	0	33	104	0	88	13070
2026-01-02 00:28:03.64	328.90	20.73	-60.2	-70.9	3.8	7.47e-01	0	33	104	0	88	13033
2026-01-02 00:28:04.64	328.50	20.76	-60.2	-70.9	3.8	7.45e-01	0	34	104	0	88	13073
2026-01-02 00:28:05.65	328.10	20.78	-60.2	-70.9	3.8	7.44e-01	0	33	104	0	88	13007
2026-01-02 00:28:06.65	327.71	20.80	-60.3	-70.9	3.8	7.46e-01	0	34	104	0	88	13069
2026-01-02 00:28:07.66	327.30	20.82	-60.2	-70.9	3.8	7.44e-01	0	33	104	0	88	13101
2026-01-02 00:28:08.66	326.91	20.83	-60.2	-70.9	3.8	7.44e-01	0	34	104	0	88	13090
2026-01-02 00:28:09.65	326.51	20.85	-60.2	-70.9	3.8	7.45e-01	0	34	104	0	88	13020
2026-01-02 00:28:10.64	326.12	20.87	-60.3	-71.0	3.8	7.47e-01	0	33	104	0	88	13122
2026-01-02 00:28:11.64	325.72	20.88	-60.2	-70.9	3.8	7.47e-01	0	34	104	0	88	13089
2026-01-02 00:28:12.64	325.32	20.89	-60.2	-70.9	3.8	7.45e-01	0	33	104	0	88	13103
2026-01-02 00:28:13.64	324.92	20.90	-60.2	-70.9	3.8	7.44e-01	0	33	104	0	88	13012
2026-01-02 00:28:14.64	324.52	20.91	-60.3	-70.9	3.8	7.46e-01	0	33	104	0	88	13084
2026-01-02 00:28:15.64	324.12	20.92	-60.3	-70.9	3.8	7.47e-01	0	33	104	0	88	13073
2026-01-02 00:28:16.63	323.72	20.93	-60.3	-71.0	3.8	7.44e-01	0	33	104	0	88	13123
2026-01-02 00:28:17.63	323.32	20.93	-60.2	-70.9	3.8	7.44e-01	0	34	104	0	88	13057
2026-01-02 00:28:18.63	322.92	20.94	-60.3	-71.0	3.8	7.47e-01	0	34	104	0	88	13144
2026-01-02 00:28:19.63	322.52	20.94	-60.2	-71.0	3.8	7.47e-01	0	33	104	0	88	13123
2026-01-02 00:28:20.62	322.12	20.94	-59.0	-70.9	3.8	7.46e-01	0	33	104	0	88	13109
2026-01-02 00:28:21.62	321.72	20.94	-60.2	-70.9	3.8	7.47e-01	0	34	104	0	88	13086
2026-01-02 00:28:22.61	321.32	20.94	-60.3	-71.0	3.8	7.46e-01	0	33	104	0	88	13132
2026-01-02 00:28:23.62	320.91	20.94	-60.3	-70.9	3.9	7.46e-01	0	33	104	0	88	13068
2026-01-02 00:28:24.61	320.52	20.94	-60.2	-70.9	3.8	7.45e-01	0	34	104	0	88	13097
2026-01-02 00:28:25.60	320.12	20.93	-60.2	-70.9	3.8	7.45e-01	0	34	104	0	88	13031
2026-01-02 00:28:26.60	319.72	20.93	-60.3	-70.9	3.8	7.46e-01	0	34	104	0	88	13100
2026-01-02 00:28:27.60	319.32	20.92	-60.3	-70.9	3.8	7.44e-01	0	34	104	0	88	13070
2026-01-02 00:28:28.60	318.92	20.91	-60.2	-71.0	3.8	7.45e-01	0	34	104	0	88	13149
2026-01-02 00:28:29.59	318.52	20.90	-60.2	-70.9	3.8	7.48e-01	0	33	104	0	88	13035
2026-01-02 00:28:30.58	318.13	20.89	-60.3	-71.0	3.8	7.46e-01	0	34	104	0	88	13147
2026-01-02 00:28:31.58	317.73	20.87	-60.3	-71.0	3.8	7.45e-01	0	33	104	0	88	13134
2026-01-02 00:28:32.58	317.33	20.86	-60.2	-70.9	3.8	7.47e-01	0	34	104	0	88	13074
2026-01-02 00:28:33.58	316.93	20.85	-60.2	-70.9	3.8	7.45e-01	0	34	104	0	88	13053
2026-01-02 00:28:34.58	316.53	20.83	-60.3	-71.0	3.8	7.45e-01	0	33	104	0	88	13111
2026-01-02 00:28:35.58	316.13	20.81	-60.3	-71.0	3.8	7.47e-01	0	33	104	0	88	13131
2026-01-02 00:28:36.58	315.73	20.79	-60.2	-71.0	3.8	7.46e-01	0	33	104	0	88	13160
2026-01-02 00:28:37.58	315.34	20.77	-60.2	-70.9	3.8	7.45e-01	0	33	104	0	88	13051
2026-01-02 00:28:38.58	314.94	20.75	-60.3	-71.0	3.8	7.47e-01	0	34	104	0	88	13117
2026-01-02 00:28:39.59	314.54	20.73	-60.3	-71.0	3.8	7.45e-01	0	34	104	0	88	13170
2026-01-02 00:28:40.59	314.15	20.70	-60.3	-71.0	3.8	7.46e-01	0	33	104	0	88	13136
2026-01-02 00:28:41.59	313.75	20.68	-60.2	-71.0	3.8	7.46e-01	0	33	104	0	88	13117
2026-01-02 00:28:42.59	313.36	20.65	-60.3	-71.0	3.8	7.46e-01	0	34	104	0	88	13134
2026-01-02 00:28:43.59	312.97	20.62	-60.3	-71.0	3.8	7.45e-01	0	34	104	0	88	13142
2026-01-02 00:28:44.59	312.57	20.59	-60.3	-70.9	3.8	7.46e-01	0	34	104	0	88	13071
2026-01-02 00:28:45.59	312.18	20.56	-60.2	-71.0	3.8	7.45e-01	0	33	104	0	88	13116
2026-01-02 00:28:46.59	311.79	20.53	-60.3	-71.0	3.8	7.46e-01	0	34	104	0	88	13119
2026-01-02 00:28:47.59	311.41	20.50	-60.3	-71.0	3.8	7.45e-01	0	33	104	0	88	13142
2026-01-02 00:28:48.59	311.02	20.46	-60.3	-70.9	3.8	7.46e-01	0	34	104	0	88	13089
2026-01-02 00:28:49.59	310.63	20.43	-60.2	-70.9	3.8	7.46e-01	0	34	104	0	88	13053
2026-01-02 00:28:50.59	310.24	20.39	-60.3	-71.0	3.8	7.45e-01	0	34	104	0	88	13155
2026-01-02 00:28:51.59	309.86	20.36	-60.3	-71.0	3.8	7.46e-01	0	34	104	0	88	13179
2026-01-02 00:28:52.59	309.47	20.32	-60.3	-71.0	3.8	7.45e-01	0	34	104	0	88	13153
2026-01-02 00:28:53.59	309.09	20.28	-60.2	-70.9	3.8	7.45e-01	0	34	104	0	88	13050
2026-01-02 00:28:54.58	308.71	20.24	-60.3	-71.0	3.8	7.47e-01	0	34	104	0	88	13162
2026-01-02 00:28:55.58	308.33	20.19	-60.3	-70.9	3.8	7.44e-01	0	34	104	0	88	13105
2026-01-02 00:28:56.59	307.95	20.15	-60.3	-70.9	3.8	7.45e-01	0	34	104	0	88	13100
2026-01-02 00:28:57.59	307.57	20.11	-60.2	-70.9	3.8	7.47e-01	0	34	104	0	88	13074
2026-01-02 00:28:58.58	307.20	20.06	-60.3	-71.0	3.8	7.46e-01	0	34	104	0	88	13196
2026-01-02 00:28:59.59	306.82	20.02	-60.3	-71.0	3.8	7.44e-01	0	34	104	0	88	13157
2026-01-02 00:29:00.59	306.45	19.97	-60.3	-71.0	3.8	7.46e-01	0	34	104	0	88	13128
2026-01-02 00:29:01.58	306.08	19.92	-60.3	-70.9	3.8	7.47e-01	0	34	104	0	88	13105
2026-01-02 00:29:02.58	305.71	19.87	-60.3	-71.0	3.8	7.44e-01	0	33	104	0	88	13213
2026-01-02 00:29:03.59	305.33	19.82	-60.3	-71.0	3.8	7.45e-01	0	33	104	0	88	13166
2026-01-02 00:29:04.59	304.96	19.77	-60.3	-71.0	3.8	7.46e-01	0	34	104	0	88	13180
2026-01-02 00:29:05.59	304.60	19.72	-60.3	-71.0	3.8	7.46e-01	0	33	104	0	88	13122
2026-01-02 00:29:06.58	304.23	19.66	-60.3	-71.0	3.8	7.46e-01	0	34	104	0	88	13153
2026-01-02 00:29:07.58	303.87	19.61	-60.3	-71.0	3.8	7.45e-01	0	34	104	0	88	13123
2026-01-02 00:29:08.58	303.51	19.56	-60.3	-71.0	3.8	7.46e-01	0	33	104	0	88	13168
2026-01-02 00:29:09.58	303.14	19.50	-60.3	-71.0	3.8	7.46e-01	0	33	104	0	88	13116
2026-01-02 00:29:10.58	302.78	19.44	-60.3	-71.0	3.8	7.47e-01	0	34	104	0	88	13195
2026-01-02 00:29:11.58	302.43	19.39	-60.3	-71.0	3.8	7.44e-01	0	34	104	0	88	13176
2026-01-02 00:29:12.58	302.07	19.33	-60.2	-71.0	3.8	7.45e-01	0	33	104	0	88	13174
2026-01-02 00:29:13.57	301.72	19.27	-60.3	-71.0	3.8	7.45e-01	0	34	104	0	88	13171
2026-01-02 00:29:14.57	301.36	19.21	-60.3	-71.0	3.8	7.46e-01	0	33	104	0	88	13154
2026-01-02 00:29:15.56	301.02	19.15	-60.3	-71.0	3.8	7.45e-01	0	34	104	0	88	13173
2026-01-02 00:29:16.55	300.67	19.09	-60.3	-71.0	3.8	7.44e-01	0	34	104	0	88	13142
2026-01-02 00:29:17.55	300.32	19.02	-60.3	-71.0	3.8	7.46e-01	0	33	104	0	88	13206
2026-01-02 00:29:18.55	299.97	18.96	-60.3	-71.0	3.8	7.47e-01	0	34	104	0	88	13214
2026-01-02 00:29:19.55	299.63	18.90	-60.3	-71.0	3.8	7.46e-01	0	34	104	0	88	13188
2026-01-02 00:29:20.54	299.29	18.83	-60.3	-71.0	3.8	7.45e-01	0	34	104	0	88	13207
2026-01-02 00:29:21.54	298.95	18.77	-60.3	-71.0	3.8	7.45e-01	0	34	104	0	88	13164
2026-01-02 00:29:22.54	298.61	18.70	-60.3	-71.0	3.8	7.46e-01	0	34	104	0	88	13221
2026-01-02 00:29:23.54	298.27	18.63	-60.3	-71.0	3.8	7.46e-01	0	33	104	0	88	13209
2026-01-02 00:29:24.54	297.93	18.57	-60.3	-71.0	3.8	7.44e-01	0	34	104	0	88	13254
2026-01-02 00:29:25.54	297.60	18.50	-60.4	-71.1	3.8	7.44e-01	0	34	104	0	88	13308
2026-01-02 00:29:26.53	297.27	18.43	-60.4	-71.1	3.8	7.46e-01	0	33	104	0	88	13286
2026-01-02 00:29:27.53	296.93	18.36	-60.3	-71.0	3.8	7.46e-01	0	33	104	0	88	13256
2026-01-02 00:29:28.53	296.60	18.29	-60.3	-71.0	3.8	7.46e-01	0	33	104	0	88	13246
2026-01-02 00:29:29.53	296.28	18.22	-60.4	-71.1	3.8	7.45e-01	0	34	104	0	88	13335
2026-01-02 00:29:30.52	295.95	18.15	-60.4	-71.0	3.8	7.47e-01	0	33	104	0	88	13256
2026-01-02 00:29:31.51	295.63	18.08	-60.4	-71.0	3.8	7.45e-01	0	33	104	0	88	13193
2026-01-02 00:29:32.51	295.31	18.00	-60.4	-71.0	3.8	7.46e-01	0	34	104	0	88	13245
2026-01-02 00:29:33.52	294.98	17.93	-60.4	-71.0	3.8	7.45e-01	0	34	104	0	88	13246
2026-01-02 00:29:34.52	294.67	17.86	-60.4	-71.0	3.8	7.46e-01	0	33	104	0	88	13256
2026-01-02 00:29:35.51	294.35	17.78	-60.3	-71.0	3.8	7.46e-01	0	33	104	0	88	13161
2026-01-02 00:29:36.51	294.04	17.71	-60.3	-71.0	3.8	7.46e-01	0	34	104	0	88	13147
2026-01-02 00:29:37.52	293.72	17.63	-60.3	-71.0	3.8	7.46e-01	0	34	104	0	88	13219
2026-01-02 00:29:38.52	293.41	17.56	-60.3	-71.0	3.8	7.46e-01	0	34	104	0	88	13197
2026-01-02 00:29:39.52	293.10	17.48	-60.3	-71.0	3.8	7.45e-01	0	33	104	0	88	13130
2026-01-02 00:29:40.52	292.79	17.41	-60.3	-71.0	3.8	7.45e-01	0	34	104	0	88	13210
2026-01-02 00:29:41.52	292.48	17.33	-60.3	-71.0	3.8	7.45e-01	0	34	104	0	88	13158
2026-01-02 00:29:42.53	292.18	17.25	-60.3	-71.0	3.8	7.45e-01	0	34	104	0	88	13160
2026-01-02 00:29:43.53	291.87	17.17	-60.3	-71.0	3.8	7.44e-01	0	34	104	0	88	13140
2026-01-02 00:29:44.52	291.58	17.10	-60.3	-71.0	3.8	7.44e-01	0	34	104	0	88	13117
2026-01-02 00:29:45.53	291.27	17.02	-60.3	-71.0	3.8	7.47e-01	0	33	104	0	88	13188
2026-01-02 00:29:46.53	290.98	16.94	-60.3	-71.0	3.8	7.46e-01	0	34	104	0	88	13134
2026-01-02 00:29:47.52	290.68	16.86	-60.3	-70.9	3.8	7.46e-01	0	34	104	0	88	13083
2026-01-02 00:29:48.52	290.39	16.78	-60.3	-71.0	3.8	7.46e-01	0	34	104	0	88	13114
2026-01-02 00:29:49.52	290.10	16.70	-60.3	-70.9	3.8	7.45e-01	0	34	104	0	88	13079
2026-01-02 00:29:50.53	289.81	16.62	-60.2	-70.9	3.8	7.46e-01	0	33	104	0	88	13073
2026-01-02 00:29:51.53	289.52	16.54	-60.2	-70.9	3.8	7.46e-01	0	33	104	0	88	12998
2026-01-02 00:29:52.54	289.23	16.46	-60.2	-70.9	3.8	7.47e-01	0	34	104	0	88	13019
2026-01-02 00:29:53.53	288.95	16.38	-60.2	-70.9	3.8	7.45e-01	0	33	104	0	88	13009
2026-01-02 00:29:54.53	288.66	16.29	-60.2	-70.9	3.8	7.45e-01	0	34	104	0	88	13014
2026-01-02 00:29:55.53	288.38	16.21	-60.2	-70.9	3.8	7.45e-01	0	34	104	0	88	12991
2026-01-02 00:29:56.53	288.10	16.13	-60.2	-70.9	3.8	7.45e-01	0	34	104	0	88	13005
2026-01-02 00:29:57.53	287.83	16.05	-60.2	-70.9	3.8	7.47e-01	0	34	104	0	88	13034
2026-01-02 00:29:58.53	287.55	15.97	-60.2	-70.9	3.8	7.48e-01	0	34	104	0	88	13007
2026-01-02 00:29:59.53	287.28	15.88	-60.2	-70.8	3.8	7.45e-01	0	34	104	0	88	12939
2026-01-02 00:30:00.53	287.01	15.80	-60.2	-70.8	3.8	7.46e-01	0	34	104	0	88	12929
2026-01-02 00:30:01.53	286.74	15.72	-60.2	-70.8	3.8	7.45e-01	0	34	104	0	88	12922
2026-01-02 00:30:02.54	286.47	15.63	-60.1	-70.8	3.8	7.45e-01	0	34	104	0	88	12933
2026-01-02 00:30:03.54	286.20	15.55	-60.1	-70.8	3.8	7.46e-01	0	34	104	0	88	12876
2026-01-02 00:30:04.55	285.93	15.47	-60.1	-70.8	3.8	7.46e-01	0	33	104	0	88	12888
2026-01-02 00:30:05.55	285.67	15.38	-60.2	-70.8	3.8	7.47e-01	0	34	104	0	88	12891
2026-01-02 00:30:06.55	285.41	15.30	-60.1	-70.8	3.8	7.47e-01	0	33	104	0	88	12891
2026-01-02 00:30:07.55	285.15	15.21	-60.1	-70.8	3.8	7.46e-01	0	33	104	0	88	12924
2026-01-02 00:30:08.56	284.89	15.13	-60.1	-70.8	3.8	7.47e-01	0	33	104	0	88	12897
2026-01-02 00:30:09.56	284.63	15.05	-60.1	-70.8	3.8	7.47e-01	0	34	104	0	88	12868
2026-01-02 00:30:10.56	284.38	14.96	-60.1	-70.8	3.8	7.45e-01	0	33	104	0	88	12829
2026-01-02 00:30:11.56	284.13	14.88	-60.1	-70.8	3.8	7.45e-01	0	33	104	0	88	12822
2026-01-02 00:30:12.56	283.88	14.79	-60.1	-70.8	3.8	7.45e-01	0	34	104	0	88	12822
2026-01-02 00:30:13.56	283.63	14.71	-60.1	-70.8	3.8	7.45e-01	0	34	104	0	88	12878
2026-01-02 00:30:14.56	283.38	14.62	-60.1	-70.7	3.8	7.46e-01	0	34	104	0	88	12780
2026-01-02 00:30:15.55	283.14	14.54	-60.1	-70.7	3.8	7.46e-01	0	33	104	0	88	12798
2026-01-02 00:30:16.55	282.89	14.45	-60.1	-70.7	3.8	7.45e-01	0	34	104	0	88	12802
2026-01-02 00:30:17.55	282.65	14.37	-60.1	-70.8	3.8	7.45e-01	0	33	104	0	88	12863
2026-01-02 00:30:18.56	282.41	14.28	-60.0	-70.7	3.8	7.45e-01	0	33	104	0	88	12714
2026-01-02 00:30:19.55	282.17	14.20	-60.0	-70.7	3.8	7.46e-01	0	34	104	0	88	12773
2026-01-02 00:30:20.56	281.93	14.11	-60.0	-70.7	3.8	7.45e-01	0	34	104	0	88	12792
2026-01-02 00:30:21.55	281.70	14.03	-60.0	-70.7	3.8	7.44e-01	0	34	104	0	88	12760
2026-01-02 00:30:22.55	281.46	13.94	-60.0	-70.7	3.8	7.45e-01	0	34	104	0	88	12701
2026-01-02 00:30:23.55	281.23	13.86	-60.0	-70.7	3.8	7.47e-01	0	34	104	0	88	12678
2026-01-02 00:30:24.55	281.00	13.77	-60.0	-70.7	3.8	7.47e-01	0	34	104	0	88	12743
2026-01-02 00:30:25.54	280.77	13.69	-60.0	-70.7	3.8	7.46e-01	0	34	104	0	88	12753
2026-01-02 00:30:26.54	280.55	13.60	-60.0	-70.7	3.8	7.46e-01	0	34	104	0	88	12691
2026-01-02 00:30:27.53	280.32	13.52	-60.0	-70.7	3.8	7.45e-01	0	34	104	0	88	12753
2026-01-02 00:30:28.53	280.10	13.43	-60.0	-70.7	3.8	7.45e-01	0	34	104	0	88	12689
2026-01-02 00:30:29.53	279.87	13.35	-60.0	-70.7	3.8	7.46e-01	0	34	104	0	88	12707
2026-01-02 00:30:30.53	279.65	13.26	-59.9	-70.6	3.8	7.46e-01	0	33	104	0	88	12624
2026-01-02 00:30:31.53	279.43	13.18	-60.0	-70.7	3.8	7.46e-01	0	34	104	0	88	12666
2026-01-02 00:30:32.53	279.21	13.09	-59.9	-70.6	3.8	7.45e-01	0	34	104	0	88	12654
2026-01-02 00:30:33.53	279.00	13.01	-59.9	-70.6	3.8	7.45e-01	0	34	104	0	87	13309
2026-01-02 00:30:34.53	278.78	12.92	-59.9	-70.6	3.8	7.45e-01	0	34	104	0	87	13261
2026-01-02 00:30:35.53	278.57	12.84	-59.9	-70.6	3.8	7.46e-01	0	33	104	0	87	13294
2026-01-02 00:30:36.53	278.36	12.75	-59.9	-70.6	3.8	7.46e-01	0	33	104	0	87	13316
2026-01-02 00:30:37.53	278.15	12.67	-59.9	-70.5	3.8	7.46e-01	0	34	104	0	87	13257
2026-01-02 00:30:38.52	277.94	12.59	-59.9	-70.6	3.8	7.45e-01	0	34	104	0	87	13267
2026-01-02 00:30:39.52	277.73	12.50	-59.9	-70.6	3.8	7.45e-01	0	33	104	0	87	13280
2026-01-02 00:30:40.52	277.52	12.42	-59.9	-70.6	3.8	7.44e-01	0	33	104	0	87	13288
2026-01-02 00:30:41.52	277.32	12.33	-59.9	-70.6	3.8	7.47e-01	0	34	104	0	87	13274
2026-01-02 00:30:42.51	277.12	12.25	-59.8	-70.5	3.8	7.45e-01	0	33	104	0	87	13193
2026-01-02 00:30:43.51	276.91	12.16	-59.8	-70.5	3.8	7.46e-01	0	33	104	0	87	13151
2026-01-02 00:30:44.52	276.71	12.08	-59.8	-70.5	3.8	7.44e-01	0	34	104	0	87	13210
2026-01-02 00:30:45.52	276.51	11.99	-59.8	-70.5	3.8	7.45e-01	0	34	104	0	87	13148
2026-01-02 00:30:46.51	276.32	11.91	-59.8	-70.5	3.8	7.45e-01	0	34	104	0	87	13147
2026-01-02 00:30:47.52	276.12	11.83	-59.8	-70.5	3.8	7.45e-01	0	33	104	0	87	13134
2026-01-02 00:30:48.52	275.92	11.74	-59.8	-70.5	3.8	7.45e-01	0	33	104	0	87	13133
2026-01-02 00:30:49.52	275.73	11.66	-59.8	-70.5	3.8	7.47e-01	0	34	104	0	87	13182
2026-01-02 00:30:50.52	275.54	11.58	-59.8	-70.5	3.8	7.46e-01	0	34	104	0	87	13142
2026-01-02 00:30:51.52	275.35	11.49	-59.8	-70.4	3.8	7.46e-01	0	34	104	0	87	13085
2026-01-02 00:30:52.52	275.16	11.41	-59.7	-70.4	3.8	7.46e-01	0	34	104	0	87	13078
2026-01-02 00:30:53.52	274.97	11.33	-59.7	-70.4	3.8	7.45e-01	0	33	104	0	87	13073
2026-01-02 00:30:54.53	274.78	11.24	-59.7	-70.4	3.8	7.46e-01	0	33	104	0	87	13044
2026-01-02 00:30:55.53	274.59	11.16	-59.7	-70.4	3.8	7.46e-01	0	33	104	0	87	13040
2026-01-02 00:30:56.53	274.41	11.08	-59.7	-70.4	3.8	7.46e-01	0	34	104	0	87	13034
2026-01-02 00:30:57.53	274.23	10.99	-59.7	-70.4	3.8	7.47e-01	0	33	104	0	87	12991
2026-01-02 00:30:58.53	274.04	10.91	-59.7	-70.4	3.8	7.46e-01	0	34	104	0	87	13030
2026-01-02 00:30:59.53	273.86	10.83	-59.7	-70.4	3.8	7.45e-01	0	34	104	0	87	13022
2026-01-02 00:31:00.52	273.69	10.75	-59.7	-70.4	3.8	7.44e-01	0	34	104	0	87	12980
2026-01-02 00:31:01.52	273.51	10.66	-59.7	-70.4	3.8	7.45e-01	0	34	104	0	87	12960
2026-01-02 00:31:02.52	273.33	10.58	-59.7	-70.3	3.8	7.44e-01	0	33	104	0	87	12932
2026-01-02 00:31:03.52	273.15	10.50	-59.6	-70.3	3.8	7.47e-01	0	33	104	0	87	12914
2026-01-02 00:31:04.52	272.98	10.42	-59.6	-70.3	3.8	7.46e-01	0	34	104	0	87	12879
2026-01-02 00:31:05.52	272.81	10.34	-59.6	-70.3	3.8	7.46e-01	0	33	104	0	87	12921
2026-01-02 00:31:06.51	272.64	10.26	-59.6	-70.3	3.8	7.45e-01	0	34	104	0	87	12915
2026-01-02 00:31:07.51	272.47	10.17	-59.6	-70.3	3.8	7.46e-01	0	34	104	0	87	12906
2026-01-02 00:31:08.51	272.30	10.09	-59.6	-70.2	3.8	7.47e-01	0	34	104	0	87	12797
2026-01-02 00:31:09.51	272.13	10.01	-59.6	-70.3	3.8	7.45e-01	0	34	104	0	87	12827
2026-01-02 00:31:10.51	271.96	9.93	-59.6	-70.2	3.8	7.45e-01	0	34	104	0	87	12808
2026-01-02 00:31:11.51	271.79	9.85	-59.5	-70.2	3.8	7.46e-01	0	34	104	0	87	12776
2026-01-02 00:31:12.51	271.63	9.77	-59.5	-70.2	3.8	7.46e-01	0	33	104	0	87	12721
2026-01-02 00:31:13.51	271.46	9.69	-59.5	-70.2	3.8	7.46e-01	0	33	104	0	87	12750
2026-01-02 00:31:14.51	271.30	9.61	-59.5	-70.2	3.8	7.45e-01	0	33	104	0	87	12746
2026-01-02 00:31:15.50	271.14	9.53	-59.5	-70.1	3.8	7.45e-01	0	33	104	0	87	12576
2026-01-02 00:31:16.51	270.98	9.45	-59.3	-69.9	3.8	7.46e-01	0	33	104	0	87	12370
2026-01-02 00:31:17.50	270.82	9.37	-59.4	-70.1	3.8	7.46e-01	0	34	104	0	86	13299
2026-01-02 00:31:18.50	270.66	9.29	-59.4	-70.0	3.8	7.45e-01	0	34	104	0	86	13255
2026-01-02 00:31:19.50	270.51	9.21	-59.1	-69.8	3.8	7.44e-01	0	34	104	0	86	12891
2026-01-02 00:31:20.50	270.35	9.13	-58.7	-69.4	3.8	7.44e-01	0	34	104	0	86	12350
2026-01-02 00:31:21.50	270.20	9.05	-58.9	-69.6	3.8	7.45e-01	0	34	104	0	86	12559
2026-01-02 00:31:22.51	270.04	8.97	-58.3	-69.3	3.8	7.46e-01	0	33	104	0	85	12859
2026-01-02 00:31:23.51	269.89	8.89	-58.2	-68.9	3.8	7.46e-01	0	34	104	0	85	12259
2026-01-02 00:31:24.51	269.73	8.81	-58.1	-68.8	3.8	7.45e-01	0	34	104	0	85	12141
2026-01-02 00:31:25.50	269.58	8.74	-58.0	-68.7	3.8	7.46e-01	0	33	104	0	84	12712
2026-01-02 00:31:26.51	269.43	8.66	-57.9	-68.6	3.8	7.46e-01	0	33	104	0	84	12571
2026-01-02 00:31:27.50	269.29	8.58	-57.8	-68.5	3.8	7.44e-01	0	33	104	0	84	12454
2026-01-02 00:31:28.50	269.14	8.50	-57.7	-68.3	3.8	7.47e-01	0	34	104	0	83	12948
2026-01-02 00:31:29.50	268.99	8.42	-57.7	-68.4	3.8	7.45e-01	0	33	104	0	83	13092
2026-01-02 00:31:30.49	268.85	8.35	-57.6	-68.3	3.8	7.46e-01	0	34	104	0	83	12936
2026-01-02 00:31:31.49	268.70	8.27	-57.6	-68.3	3.8	7.46e-01	0	34	104	0	83	12840
2026-01-02 00:31:32.48	268.56	8.19	-57.7	-68.4	3.8	7.46e-01	0	33	104	0	83	13079
2026-01-02 00:31:33.48	268.42	8.12	-58.1	-68.8	3.8	7.45e-01	0	33	104	0	84	12878
2026-01-02 00:31:34.47	268.28	8.04	-57.9	-68.6	3.8	7.44e-01	0	34	104	0	84	12617
2026-01-02 00:31:35.47	268.13	7.96	-58.0	-68.8	3.8	7.46e-01	0	34	104	0	84	12811
2026-01-02 00:31:36.47	267.99	7.89	-58.1	-68.9	3.8	7.46e-01	0	34	104	0	84	12960
2026-01-02 00:31:37.46	267.86	7.81	-58.4	-69.2	3.8	7.46e-01	0	34	104	0	84	13431
2026-01-02 00:31:38.46	267.72	7.73	-58.4	-69.1	3.8	7.44e-01	0	33	104	0	85	12660
2026-01-02 00:31:39.46	267.58	7.66	-58.6	-69.3	3.8	7.47e-01	0	34	104	0	85	12875
2026-01-02 00:31:40.47	267.44	7.58	-58.9	-69.6	3.8	7.46e-01	0	34	104	0	85	13266
2026-01-02 00:31:41.47	267.31	7.51	-58.8	-69.5	3.8	7.46e-01	0	34	104	0	85	13114
2026-01-02 00:31:42.48	267.17	7.43	-58.7	-69.3	3.8	7.44e-01	0	34	104	0	85	12933
2026-01-02 00:31:43.48	267.04	7.35	-58.9	-69.6	3.8	7.47e-01	0	34	104	0	85	13301
2026-01-02 00:31:44.48	266.90	7.28	-59.1	-69.7	3.8	7.46e-01	0	33	104	0	86	12807
2026-01-02 00:31:45.49	266.77	7.20	-59.0	-69.7	3.8	7.45e-01	0	33	104	0	86	12751
2026-01-02 00:31:46.49	266.64	7.13	-59.0	-69.7	3.8	7.45e-01	0	34	104	0	85	13447
2026-01-02 00:31:47.49	266.51	7.05	-59.1	-69.8	3.8	7.46e-01	0	33	104	0	86	12884
2026-01-02 00:31:48.48	266.38	6.98	-59.1	-69.8	3.8	7.44e-01	0	33	104	0	86	12902
2026-01-02 00:31:49.48	266.25	6.91	-59.1	-69.8	3.8	7.45e-01	0	33	104	0	86	12947
2026-01-02 00:31:50.49	266.12	6.83	-59.2	-69.8	3.8	7.45e-01	0	34	104	0	86	12956
2026-01-02 00:31:51.49	266.00	6.76	-59.1	-69.8	3.8	7.47e-01	0	33	104	0	86	12913
2026-01-02 00:31:52.49	265.87	6.68	-59.2	-69.8	3.8	7.44e-01	0	33	104	0	86	12927
2026-01-02 00:31:53.50	265.75	6.61	-59.2	-69.9	3.8	7.45e-01	0	34	104	0	86	12983
2026-01-02 00:31:54.50	265.62	6.53	-59.2	-69.9	3.8	7.46e-01	0	33	104	0	86	13057
2026-01-02 00:31:55.49	265.50	6.46	-59.2	-69.8	3.8	7.47e-01	0	34	104	0	86	12953
2026-01-02 00:31:56.49	265.38	6.39	-59.1	-69.8	3.8	7.46e-01	0	34	104	0	86	12909
2026-01-02 00:31:57.49	265.25	6.32	-59.2	-69.9	3.8	7.46e-01	0	34	104	0	86	12962
2026-01-02 00:31:58.49	265.13	6.24	-59.2	-69.9	3.8	7.46e-01	0	33	104	0	86	12968
2026-01-02 00:31:59.49	265.01	6.17	-59.1	-69.8	3.8	7.47e-01	0	34	104	0	86	12862
2026-01-02 00:32:00.49	264.89	6.10	-59.1	-69.7	3.8	7.46e-01	0	34	104	0	86	12801
2026-01-02 00:32:01.49	264.77	6.03	-59.1	-69.8	3.8	7.46e-01	0	34	104	0	86	12885
2026-01-02 00:32:02.48	264.66	5.95	-59.1	-69.8	3.8	7.47e-01	0	33	104	0	86	12918
2026-01-02 00:32:03.48	264.54	5.88	-59.1	-69.8	3.8	7.45e-01	0	34	104	0	86	12851
2026-01-02 00:32:04.48	264.42	5.81	-59.0	-69.7	3.8	7.46e-01	0	34	104	0	86	12755
2026-01-02 00:32:05.48	264.31	5.74	-59.0	-69.7	3.8	7.45e-01	0	34	104	0	86	12745
2026-01-02 00:32:06.47	264.19	5.67	-59.1	-69.7	3.8	7.46e-01	0	34	104	0	86	12800
2026-01-02 00:32:07.47	264.08	5.60	-59.0	-69.7	3.8	7.47e-01	0	34	104	0	86	12725
2026-01-02 00:32:08.47	263.96	5.53	-58.9	-69.6	3.8	7.45e-01	0	34	104	0	86	12633
2026-01-02 00:32:09.47	263.85	5.46	-59.0	-69.7	3.8	7.46e-01	0	33	104	0	86	12692
2026-01-02 00:32:10.47	263.74	5.38	-59.0	-69.7	3.8	7.45e-01	0	33	104	0	86	12746
2026-01-02 00:32:11.47	263.63	5.31	-58.9	-69.6	3.8	7.46e-01	0	34	104	0	86	12602
2026-01-02 00:32:12.47	263.52	5.24	-58.9	-69.6	3.8	7.46e-01	0	33	104	0	86	12568
2026-01-02 00:32:13.46	263.41	5.17	-58.9	-69.6	3.8	7.44e-01	0	34	104	0	86	12606
2026-01-02 00:32:14.46	263.30	5.10	-58.1	-69.7	3.8	7.45e-01	0	34	104	0	86	12686
2026-01-02 00:32:15.46	263.19	5.03	-59.0	-69.7	3.8	7.47e-01	0	34	104	0	85	13516
2026-01-02 00:32:16.46	263.08	4.96	-59.5	-70.1	3.8	7.46e-01	0	33	104	0	86	13405
2026-01-02 00:32:17.46	262.97	4.90	-59.8	-70.5	3.8	7.46e-01	0	33	104	0	87	13110
2026-01-02 00:32:18.46	262.87	4.83	-60.0	-70.6	3.8	7.46e-01	0	33	104	0	87	13396
2026-01-02 00:32:19.46	262.76	4.76	-60.2	-70.9	3.8	7.44e-01	0	34	104	0	88	12998
2026-01-02 00:32:20.46	262.65	4.69	-60.4	-71.1	3.8	7.43e-01	0	33	104	0	88	13287
2026-01-02 00:32:21.46	262.55	4.62	-60.5	-71.2	3.8	7.47e-01	0	33	104	0	88	13472
2026-01-02 00:32:22.45	262.45	4.55	-60.6	-71.3	3.8	7.45e-01	0	34	104	0	89	12915
2026-01-02 00:32:23.45	262.34	4.48	-60.8	-71.4	3.8	7.46e-01	0	33	104	0	89	13103
2026-01-02 00:32:24.46	262.24	4.41	-60.9	-71.6	3.8	7.45e-01	0	33	104	0	89	13288
2026-01-02 00:32:25.45	262.14	4.35	-61.0	-71.7	3.8	7.46e-01	0	33	104	0	89	13490
2026-01-02 00:32:26.45	262.04	4.28	-61.1	-71.8	3.8	7.44e-01	0	33	104	0	90	12862
2026-01-02 00:32:27.44	261.94	4.21	-61.2	-71.9	3.8	7.45e-01	0	33	104	0	90	12967
2026-01-02 00:32:28.44	261.84	4.14	-61.3	-71.9	3.8	7.45e-01	0	34	104	0	90	13103
2026-01-02 00:32:29.44	261.74	4.07	-61.3	-72.0	3.8	7.46e-01	0	34	104	0	90	13154
2026-01-02 00:32:30.44	261.64	4.01	-61.4	-72.0	3.8	7.45e-01	0	33	104	0	90	13215
2026-01-02 00:32:31.43	261.54	3.94	-61.4	-72.1	3.8	7.44e-01	0	33	104	0	90	13354
2026-01-02 00:32:32.42	261.44	3.87	-61.5	-72.2	3.8	7.46e-01	0	34	104	0	90	13426
2026-01-02 00:32:33.41	261.35	3.81	-61.5	-72.2	3.8	7.45e-01	0	33	104	0	90	13484
2026-01-02 00:32:34.41	261.25	3.74	-61.5	-72.1	3.8	7.46e-01	0	33	104	0	91	12644
2026-01-02 00:32:35.41	261.15	3.67	-61.5	-72.2	3.8	7.46e-01	0	33	104	0	91	12666
2026-01-02 00:32:36.41	261.06	3.61	-61.5	-72.2	3.8	7.45e-01	0	33	104	0	91	12672
2026-01-02 00:32:37.41	260.96	3.54	-61.4	-72.1	3.8	7.45e-01	0	33	104	0	91	12578
2026-01-02 00:32:38.41	260.87	3.48	-61.4	-72.1	3.8	7.45e-01	0	33	104	0	91	12570
2026-01-02 00:32:39.41	260.77	3.41	-61.4	-72.0	3.8	7.46e-01	0	34	104	0	91	12494
2026-01-02 00:32:40.41	260.68	3.34	-61.3	-72.0	3.8	7.46e-01	0	34	104	0	91	12446
2026-01-02 00:32:41.40	260.59	3.28	-61.3	-72.0	3.8	7.44e-01	0	34	104	0	91	12459
2026-01-02 00:32:42.41	260.49	3.21	-61.3	-71.9	3.8	7.46e-01	0	34	104	0	91	12364
2026-01-02 00:32:43.41	260.40	3.15	-61.3	-71.9	3.8	7.45e-01	0	34	104	0	91	12348
2026-01-02 00:32:44.41	260.31	3.08	-61.3	-71.9	3.8	7.45e-01	0	34	104	0	91	12359
2026-01-02 00:32:45.42	260.22	3.02	-61.2	-71.9	3.8	7.45e-01	0	34	104	0	91	12296
2026-01-02 00:32:46.42	260.13	2.95	-61.2	-71.9	3.8	7.45e-01	0	34	104	0	91	12242
2026-01-02 00:32:47.42	260.04	2.89	-61.2	-71.9	3.8	7.46e-01	0	33	104	0	91	12315
2026-01-02 00:32:48.42	259.95	2.82	-61.2	-71.9	3.8	7.46e-01	0	34	104	0	91	12238
2026-01-02 00:32:49.41	259.86	2.76	-61.2	-71.8	3.8	7.46e-01	0	34	104	0	91	12217
2026-01-02 00:32:50.41	259.77	2.69	-61.2	-71.9	3.8	7.45e-01	0	34	104	0	91	12236
2026-01-02 00:32:51.42	259.69	2.63	-61.2	-71.8	3.8	7.44e-01	0	34	104	0	91	12202
2026-01-02 00:32:52.42	259.60	2.56	-61.2	-71.8	3.8	7.44e-01	0	34	104	0	91	12189
2026-01-02 00:32:53.42	259.51	2.50	-61.1	-71.8	3.8	7.47e-01	0	34	104	0	91	12153
2026-01-02 00:32:54.42	259.43	2.44	-61.1	-71.8	3.8	7.47e-01	0	34	104	0	91	12192
2026-01-02 00:32:55.42	259.34	2.37	-61.1	-71.8	3.8	7.44e-01	0	34	104	0	91	12180
2026-01-02 00:32:56.42	259.26	2.31	-61.1	-71.8	3.8	7.45e-01	0	33	104	0	91	12174
2026-01-02 00:32:57.43	259.17	2.24	-61.1	-71.8	3.8	7.46e-01	0	34	104	0	91	12160
2026-01-02 00:32:58.43	259.09	2.18	-61.1	-71.8	3.8	7.45e-01	0	34	104	0	91	12135
2026-01-02 00:32:59.43	259.00	2.12	-61.1	-71.8	3.8	7.45e-01	0	34	104	0	91	12125
2026-01-02 00:33:00.43	258.92	2.05	-61.1	-71.8	3.8	7.45e-01	0	34	104	0	91	12102
2026-01-02 00:33:01.43	258.84	1.99	-61.1	-71.7	3.8	7.45e-01	0	34	104	0	91	12089

#Closed at: 2026-01-02 00:33:02
#Recorded file [0 MB]: D:/lorett/data/31004_260102_032342.dat