passes_logs/2026/01/02/R3.2S_Murmansk/R3.2S_Murmansk__20260102_133204_AQUA_rec.log

#Pass ID: 20260102_133204_AQUA
#Satellite: AQUA
#Configuration: AQUA
#almurnet v.1.7.20251203
#Start time: 2026-01-02 13:32:06

#Version: 2.2.20231116
#Station: R3.2S_Murmansk
#Location: 33.079688 lon 68.888172 lat
#TLE: 1 27424U 02022A   25365.92641127  .00002078  00000+0  42628-3 0  9999
#TLE: 2 27424  98.4058 327.1196 0001962  94.7781 340.6230 14.61783896258835

#Time	Az	El	Level	Level2	SNR	BER	BlckErr	Temp	State	Recorded	gain1	gain2
2026-01-02 13:32:06.82	212.98	2.11	-59.8	-78.5	3.8	7.48e-01	0	30	0	0	88	31050
2026-01-02 13:32:07.82	213.06	2.17	-59.8	-78.5	3.8	7.48e-01	0	30	104	0	87	32717
2026-01-02 13:32:08.82	213.15	2.23	-59.8	-78.5	3.8	7.45e-01	0	30	104	0	87	32772
2026-01-02 13:32:09.81	213.23	2.28	-59.8	-78.5	3.8	7.50e-01	0	30	104	0	87	32760
2026-01-02 13:32:10.81	213.31	2.34	-59.8	-78.5	3.8	7.45e-01	0	30	104	0	87	32594
2026-01-02 13:32:11.81	213.39	2.40	-59.7	-78.5	3.8	7.43e-01	0	30	104	0	87	32571
2026-01-02 13:32:12.80	213.47	2.45	-59.8	-78.4	3.8	7.44e-01	0	30	104	0	87	32413
2026-01-02 13:32:13.81	213.56	2.51	-59.7	-78.4	3.8	7.47e-01	0	30	104	0	87	32360
2026-01-02 13:32:14.81	213.64	2.57	-59.7	-78.3	3.8	7.48e-01	0	30	104	0	87	31973
2026-01-02 13:32:15.81	213.72	2.63	-59.7	-78.3	3.8	7.45e-01	0	30	104	0	87	32095
2026-01-02 13:32:16.81	213.81	2.69	-59.7	-78.4	3.8	7.47e-01	0	30	104	0	87	32325
2026-01-02 13:32:17.80	213.89	2.74	-59.7	-78.4	3.8	7.44e-01	0	30	104	0	87	32526
2026-01-02 13:32:18.80	213.98	2.80	-59.8	-78.6	3.8	7.46e-01	0	30	104	0	87	33037
2026-01-02 13:32:19.80	214.06	2.86	-59.7	-78.6	3.8	7.44e-01	0	30	104	0	87	33253
2026-01-02 13:32:20.80	214.15	2.92	-59.7	-78.5	3.8	7.45e-01	0	30	104	0	87	32905
2026-01-02 13:32:21.79	214.23	2.97	-59.7	-78.3	3.8	7.45e-01	0	30	104	0	87	32109
2026-01-02 13:32:22.79	214.32	3.03	-59.7	-78.1	3.8	7.46e-01	0	30	104	0	87	31106
2026-01-02 13:32:23.79	214.41	3.09	-59.7	-77.8	3.8	7.43e-01	0	31	104	0	87	30249
2026-01-02 13:32:24.78	214.49	3.15	-59.7	-77.8	3.8	7.42e-01	0	31	104	0	87	30338
2026-01-02 13:32:25.78	214.58	3.21	-59.7	-77.8	3.8	7.43e-01	0	30	104	0	87	30253
2026-01-02 13:32:26.78	214.67	3.27	-59.7	-78.0	3.8	7.46e-01	0	30	104	0	87	31058
2026-01-02 13:32:27.78	214.76	3.32	-59.7	-78.2	3.8	7.48e-01	0	31	104	0	87	31654
2026-01-02 13:32:28.79	214.85	3.38	-59.7	-78.4	3.8	7.45e-01	0	30	104	0	87	32451
2026-01-02 13:32:29.78	214.93	3.44	-59.7	-78.6	3.8	7.43e-01	0	31	104	0	87	32975
2026-01-02 13:32:30.78	215.02	3.50	-59.7	-78.6	3.8	7.42e-01	0	31	104	0	87	33029
2026-01-02 13:32:31.77	215.11	3.56	-59.7	-78.5	3.8	7.49e-01	0	31	104	0	87	32785
2026-01-02 13:32:32.77	215.20	3.62	-59.7	-78.5	3.8	7.42e-01	0	31	104	0	87	32631
2026-01-02 13:32:33.76	215.29	3.68	-59.7	-78.1	3.8	7.44e-01	0	31	104	0	87	31216
2026-01-02 13:32:34.76	215.38	3.74	-59.7	-78.0	3.8	7.45e-01	0	31	104	0	87	30818
2026-01-02 13:32:35.76	215.47	3.79	-59.7	-77.8	3.8	7.45e-01	0	31	104	0	87	30215
2026-01-02 13:32:36.76	215.56	3.85	-59.7	-77.8	3.8	7.44e-01	0	31	104	0	87	30168
2026-01-02 13:32:37.76	215.66	3.91	-59.7	-77.7	3.8	7.44e-01	0	31	104	0	87	29932
2026-01-02 13:32:38.75	215.75	3.97	-59.7	-77.6	3.9	7.48e-01	0	31	104	0	87	29669
2026-01-02 13:32:39.74	215.84	4.03	-59.7	-77.2	3.8	7.46e-01	0	31	104	0	87	28055
2026-01-02 13:32:40.74	215.93	4.09	-59.7	-76.7	3.9	7.45e-01	0	31	104	0	87	26714
2026-01-02 13:32:41.74	216.03	4.15	-59.7	-76.3	3.9	7.45e-01	0	31	104	0	87	25414
2026-01-02 13:32:42.74	216.12	4.21	-59.7	-76.5	4.0	7.46e-01	0	31	104	0	87	25927
2026-01-02 13:32:43.73	216.21	4.27	-59.7	-77.5	3.8	7.46e-01	0	31	104	0	87	29076
2026-01-02 13:32:44.73	216.31	4.33	-59.7	-78.5	3.8	7.48e-01	0	31	104	0	87	32583
2026-01-02 13:32:45.72	216.40	4.39	-59.7	-78.2	3.8	7.44e-01	0	31	104	0	87	31609
2026-01-02 13:32:46.73	216.50	4.45	-59.7	-75.9	3.9	7.42e-01	0	31	104	0	87	24388
2026-01-02 13:32:47.72	216.59	4.51	-59.5	-72.5	5.2	7.00e-01	3	31	0	0	87	16391
2026-01-02 13:32:48.72	216.69	4.57	-59.4	-70.5	6.5	6.69e-01	92	31	0	1048576	87	13085
2026-01-02 13:32:49.71	216.79	4.63	-59.3	-69.1	7.6	6.48e-01	64	31	0	3145728	87	11134
2026-01-02 13:32:50.71	216.88	4.69	-59.2	-68.8	8.0	6.43e-01	10	31	0	5242880	87	10675
2026-01-02 13:32:51.71	216.98	4.75	-59.3	-69.1	7.7	6.43e-01	70	31	0	6815744	87	11057
2026-01-02 13:32:52.71	217.08	4.81	-59.2	-68.8	8.1	6.40e-01	10	31	0	8912896	87	10665
2026-01-02 13:32:53.71	217.18	4.88	-59.2	-68.4	8.2	6.43e-01	9	31	0	10485760	87	10262
2026-01-02 13:32:54.70	217.28	4.94	-58.9	-66.7	9.8	6.18e-01	0	31	0	12582912	87	8431
2026-01-02 13:32:55.70	217.37	5.00	-58.6	-65.1	11.2	6.14e-01	0	31	0	14680064	86	7424
2026-01-02 13:32:56.70	217.47	5.06	-58.1	-63.5	12.4	6.10e-01	0	31	0	16252928	85	6495
2026-01-02 13:32:57.69	217.57	5.12	-59.2	-68.8	8.2	6.41e-01	2	31	0	18350080	86	11314
2026-01-02 13:32:58.70	217.68	5.18	-57.6	-62.2	13.2	6.08e-01	0	31	0	19922944	84	5935
2026-01-02 13:32:59.70	217.78	5.24	-59.6	-75.7	3.7	7.43e-01	0	31	104	21495808	86	25119
2026-01-02 13:33:00.69	217.88	5.30	-56.2	-59.5	14.3	6.07e-01	0	31	0	21495808	81	5207
2026-01-02 13:33:01.69	217.98	5.37	-58.6	-66.3	10.8	6.17e-01	0	31	0	23068672	84	9553
2026-01-02 13:33:02.68	218.08	5.43	-57.5	-62.3	13.3	6.07e-01	0	31	0	25165824	84	6010
2026-01-02 13:33:03.68	218.18	5.49	-59.6	-75.6	3.8	7.44e-01	0	31	104	26738688	87	23328
2026-01-02 13:33:04.68	218.29	5.55	-56.1	-59.1	14.6	6.06e-01	0	31	0	26738688	81	4953
2026-01-02 13:33:05.67	218.39	5.61	-58.8	-65.8	11.1	6.14e-01	0	31	0	28311552	85	8475
2026-01-02 13:33:06.67	218.49	5.67	-57.6	-62.0	13.2	6.07e-01	0	31	0	30408704	84	5833
2026-01-02 13:33:07.65	218.60	5.74	-59.7	-75.8	4.2	7.44e-01	0	31	104	31981568	87	24047
2026-01-02 13:33:08.64	218.70	5.80	-56.5	-59.8	14.1	6.07e-01	0	31	0	31981568	82	5059
2026-01-02 13:33:09.64	218.81	5.86	-58.7	-65.3	11.7	6.12e-01	0	31	0	33554432	85	8028
2026-01-02 13:33:10.63	218.91	5.92	-57.6	-62.0	13.2	6.06e-01	0	31	0	35651584	84	5790
2026-01-02 13:33:11.63	219.02	5.98	-59.6	-75.1	4.4	7.46e-01	0	31	104	37224448	87	22220
2026-01-02 13:33:12.63	219.12	6.05	-56.4	-59.6	14.2	6.06e-01	0	31	0	37224448	82	4936
2026-01-02 13:33:13.63	219.23	6.11	-58.8	-65.4	11.6	6.10e-01	0	31	0	38797312	85	8109
2026-01-02 13:33:14.61	219.34	6.17	-57.7	-62.3	13.0	6.08e-01	0	31	0	40894464	84	6033
2026-01-02 13:33:15.61	219.45	6.23	-59.6	-73.4	5.3	7.13e-01	62	31	0	42467328	87	18255
2026-01-02 13:33:16.60	219.55	6.30	-56.9	-60.6	13.6	6.06e-01	0	31	104	42467328	83	5223
2026-01-02 13:33:17.59	219.66	6.36	-58.4	-64.0	12.8	6.08e-01	0	31	0	44040192	84	7333
2026-01-02 13:33:18.59	219.77	6.42	-57.7	-62.2	13.1	6.05e-01	0	31	0	46137344	84	5986
2026-01-02 13:33:19.59	219.88	6.49	-59.6	-73.3	5.2	7.08e-01	72	31	0	47710208	87	17984
2026-01-02 13:33:20.58	219.99	6.55	-56.8	-60.2	13.6	6.07e-01	0	31	104	47710208	82	5323
2026-01-02 13:33:21.58	220.10	6.61	-58.4	-64.0	12.6	6.08e-01	0	31	0	49283072	84	7332
2026-01-02 13:33:22.58	220.22	6.68	-57.5	-61.7	13.3	6.08e-01	0	31	0	51380224	84	5642
2026-01-02 13:33:23.58	220.33	6.74	-59.6	-72.9	6.0	7.02e-01	86	31	0	52953088	87	17232
2026-01-02 13:33:24.58	220.44	6.80	-56.6	-60.1	13.8	6.08e-01	0	31	104	52953088	82	5231
2026-01-02 13:33:25.58	220.56	6.87	-58.4	-63.9	12.7	6.08e-01	0	31	0	54525952	84	7232
2026-01-02 13:33:26.58	220.67	6.93	-57.6	-61.9	13.3	6.07e-01	0	31	0	56623104	84	5769
2026-01-02 13:33:27.57	220.78	6.99	-59.5	-71.0	7.6	6.72e-01	92	31	0	58195968	86	14562
2026-01-02 13:33:28.58	220.90	7.06	-56.6	-60.0	13.9	6.06e-01	0	31	104	58195968	82	5160
2026-01-02 13:33:29.58	221.01	7.12	-58.3	-63.8	12.9	6.07e-01	0	31	0	59768832	84	7198
2026-01-02 13:33:30.58	221.13	7.19	-57.4	-61.4	13.5	6.06e-01	0	31	0	61865984	84	5455
2026-01-02 13:33:31.57	221.25	7.25	-59.6	-70.8	7.9	6.65e-01	77	31	0	63438848	86	14268
2026-01-02 13:33:32.57	221.36	7.32	-57.4	-61.4	13.0	6.08e-01	0	31	104	63438848	84	5442
2026-01-02 13:33:33.57	221.48	7.38	-57.9	-62.7	13.4	6.08e-01	0	31	0	65011712	83	6655
2026-01-02 13:33:34.57	221.60	7.44	-57.8	-62.3	13.1	6.06e-01	0	31	0	66584576	84	6046
2026-01-02 13:33:35.57	221.72	7.51	-59.6	-70.7	7.5	6.63e-01	79	31	0	68681728	86	14139
2026-01-02 13:33:36.57	221.84	7.57	-57.4	-61.4	13.3	6.09e-01	0	31	104	68681728	84	5413
2026-01-02 13:33:37.57	221.96	7.64	-57.8	-62.4	13.6	6.08e-01	0	31	0	70254592	83	6460
2026-01-02 13:33:38.57	222.08	7.70	-57.6	-61.9	13.4	6.09e-01	0	31	0	71827456	84	5765
2026-01-02 13:33:39.57	222.20	7.77	-59.6	-70.2	8.5	6.53e-01	48	31	0	73924608	86	13383
2026-01-02 13:33:40.56	222.32	7.83	-57.3	-61.1	13.1	6.08e-01	0	31	104	73924608	84	5269
2026-01-02 13:33:41.56	222.44	7.90	-57.8	-62.4	13.6	6.07e-01	0	31	0	75497472	83	6454
2026-01-02 13:33:42.55	222.56	7.96	-57.6	-61.8	13.5	6.03e-01	0	31	0	77070336	84	5671
2026-01-02 13:33:43.55	222.69	8.03	-59.6	-70.2	8.1	6.51e-01	55	31	0	79167488	86	13382
2026-01-02 13:33:44.56	222.81	8.10	-57.0	-60.7	13.3	6.08e-01	0	31	104	79167488	83	5333
2026-01-02 13:33:45.56	222.94	8.16	-57.8	-62.3	13.6	6.09e-01	0	31	0	80740352	83	6390
2026-01-02 13:33:46.56	223.06	8.23	-57.6	-61.7	13.5	6.07e-01	0	31	0	82313216	84	5610
2026-01-02 13:33:47.56	223.19	8.29	-59.6	-70.0	8.3	6.45e-01	38	31	0	84410368	86	13004
2026-01-02 13:33:48.56	223.31	8.36	-57.1	-60.7	13.4	6.07e-01	0	31	104	84410368	83	5331
2026-01-02 13:33:49.56	223.44	8.42	-57.7	-62.2	13.7	6.08e-01	0	31	0	85983232	83	6277
2026-01-02 13:33:50.56	223.57	8.49	-57.4	-61.3	13.6	6.06e-01	0	31	0	87556096	84	5368
2026-01-02 13:33:51.56	223.70	8.56	-59.6	-69.7	8.9	6.39e-01	27	31	0	89653248	86	12553
2026-01-02 13:33:52.56	223.83	8.62	-56.9	-60.4	13.6	6.07e-01	0	31	104	89653248	83	5123
2026-01-02 13:33:53.55	223.95	8.69	-57.7	-62.2	13.7	6.08e-01	0	31	0	91226112	83	6282
2026-01-02 13:33:54.56	224.09	8.75	-57.4	-61.3	13.6	6.05e-01	0	31	0	92798976	84	5401
2026-01-02 13:33:55.55	224.21	8.82	-59.6	-69.9	8.7	6.39e-01	29	31	0	94896128	86	12820
2026-01-02 13:33:56.56	224.35	8.89	-57.1	-60.7	13.4	6.07e-01	0	31	104	94896128	83	5311
2026-01-02 13:33:57.56	224.48	8.95	-57.7	-62.1	13.7	6.09e-01	0	31	0	96468992	83	6243
2026-01-02 13:33:58.55	224.61	9.02	-57.4	-61.2	13.8	6.05e-01	0	31	0	98041856	84	5307
2026-01-02 13:33:59.55	224.74	9.09	-59.6	-69.2	9.1	6.29e-01	6	31	0	100139008	86	11827
2026-01-02 13:34:00.55	224.88	9.15	-56.8	-59.9	13.8	6.08e-01	0	31	104	100139008	82	5130
2026-01-02 13:34:01.55	225.01	9.22	-57.8	-62.2	13.9	6.08e-01	0	31	0	101711872	83	6300
2026-01-02 13:34:02.55	225.15	9.29	-57.4	-61.3	13.9	6.08e-01	0	31	0	103284736	84	5349
2026-01-02 13:34:03.55	225.28	9.35	-59.6	-69.9	8.8	6.45e-01	17	31	0	105381888	87	12110
2026-01-02 13:34:04.54	225.42	9.42	-56.9	-60.3	13.5	6.09e-01	0	31	104	105381888	83	5060
2026-01-02 13:34:05.54	225.55	9.49	-57.7	-62.0	14.0	6.06e-01	0	31	0	106954752	83	6157
2026-01-02 13:34:06.54	225.69	9.55	-57.1	-60.7	14.1	6.06e-01	0	31	0	108527616	83	5316
2026-01-02 13:34:07.54	225.83	9.62	-59.6	-69.0	9.6	6.35e-01	0	31	0	110624768	86	11596
2026-01-02 13:34:08.54	225.97	9.69	-56.7	-59.9	14.2	6.07e-01	0	31	0	110624768	82	5118
2026-01-02 13:34:09.54	226.11	9.76	-57.7	-62.0	13.9	6.07e-01	0	31	0	112721920	83	6175
2026-01-02 13:34:10.54	226.25	9.82	-57.1	-60.7	14.0	6.07e-01	0	31	0	114819072	83	5308
2026-01-02 13:34:11.53	226.39	9.89	-59.6	-69.0	9.8	6.32e-01	0	31	0	116391936	86	11560
2026-01-02 13:34:12.53	226.53	9.96	-56.6	-59.8	14.2	6.08e-01	0	31	0	116391936	82	5069
2026-01-02 13:34:13.53	226.67	10.03	-57.7	-62.0	14.1	6.07e-01	0	31	0	118489088	83	6151
2026-01-02 13:34:14.53	226.82	10.09	-56.9	-60.3	14.3	6.04e-01	0	31	0	120586240	83	5088
2026-01-02 13:34:15.53	226.96	10.16	-59.6	-68.8	9.4	6.31e-01	1	31	0	122159104	86	11372
2026-01-02 13:34:16.53	227.10	10.23	-56.7	-59.9	14.0	6.08e-01	0	31	0	122159104	82	5136
2026-01-02 13:34:17.53	227.25	10.30	-57.6	-61.7	14.1	6.08e-01	0	31	0	124256256	82	6310
2026-01-02 13:34:18.53	227.39	10.36	-56.9	-60.4	14.2	6.07e-01	0	31	0	126353408	83	5108
2026-01-02 13:34:19.52	227.54	10.43	-59.6	-68.4	9.8	6.26e-01	0	31	0	127926272	86	10875
2026-01-02 13:34:20.52	227.69	10.50	-57.4	-61.2	13.6	6.06e-01	0	31	0	127926272	84	5320
2026-01-02 13:34:21.51	227.83	10.57	-57.2	-60.9	14.6	6.06e-01	0	31	0	130023424	82	5777
2026-01-02 13:34:22.51	227.98	10.64	-57.5	-61.3	13.7	6.08e-01	0	31	0	131596288	84	5352
2026-01-02 13:34:23.52	228.13	10.70	-59.2	-66.6	12.1	6.16e-01	0	31	0	133693440	86	8795
2026-01-02 13:34:24.52	228.28	10.77	-57.6	-61.5	12.9	6.10e-01	0	31	0	133693440	84	5513
2026-01-02 13:34:25.52	228.43	10.84	-57.1	-60.5	14.6	6.06e-01	0	31	0	135790592	81	5852
2026-01-02 13:34:26.51	228.58	10.91	-57.1	-60.6	13.9	6.07e-01	0	31	0	137363456	83	5261
2026-01-02 13:34:27.52	228.74	10.98	-59.0	-65.6	12.0	6.10e-01	0	31	0	139460608	85	8342
2026-01-02 13:34:28.52	228.89	11.05	-56.8	-60.4	13.3	6.08e-01	0	31	0	139460608	83	5145
2026-01-02 13:34:29.52	229.04	11.11	-57.2	-61.0	14.6	6.08e-01	0	31	0	141557760	82	5794
2026-01-02 13:34:30.51	229.20	11.18	-57.4	-61.1	13.7	6.04e-01	0	31	0	143130624	84	5255
2026-01-02 13:34:31.52	229.35	11.25	-59.1	-65.9	11.8	6.14e-01	0	31	0	145227776	85	8589
2026-01-02 13:34:32.51	229.51	11.32	-56.8	-60.5	13.2	6.10e-01	0	31	0	145227776	83	5172
2026-01-02 13:34:33.51	229.67	11.39	-57.0	-60.5	14.6	6.08e-01	0	31	0	147324928	81	5831
2026-01-02 13:34:34.51	229.82	11.46	-57.0	-60.5	14.0	6.07e-01	0	31	0	148897792	83	5174
2026-01-02 13:34:35.50	229.98	11.52	-59.0	-65.6	12.3	6.11e-01	0	31	0	150994944	85	8292
2026-01-02 13:34:36.51	230.14	11.59	-57.3	-60.9	13.6	6.07e-01	0	32	0	152043520	84	5134
2026-01-02 13:34:37.51	230.30	11.66	-57.0	-60.4	14.8	6.08e-01	0	31	0	153616384	81	5736
2026-01-02 13:34:38.51	230.46	11.73	-57.0	-60.4	14.1	6.03e-01	0	31	0	155713536	83	5119
2026-01-02 13:34:39.50	230.62	11.80	-59.0	-65.3	12.4	6.08e-01	0	31	0	157810688	85	8070
2026-01-02 13:34:40.49	230.78	11.87	-57.0	-60.4	13.7	6.09e-01	0	31	0	158859264	83	5136
2026-01-02 13:34:41.49	230.95	11.94	-57.0	-60.3	14.8	6.06e-01	0	31	0	160432128	81	5712
2026-01-02 13:34:42.48	231.11	12.00	-56.9	-60.3	14.0	6.06e-01	0	31	0	162529280	83	5071
2026-01-02 13:34:43.48	231.27	12.07	-59.0	-65.3	12.3	6.09e-01	0	31	0	164102144	85	8018
2026-01-02 13:34:44.48	231.44	12.14	-56.9	-60.3	14.1	6.07e-01	0	31	0	165150720	83	5043
2026-01-02 13:34:45.49	231.61	12.21	-57.0	-60.4	14.8	6.08e-01	0	31	0	167247872	81	5733
2026-01-02 13:34:46.48	231.77	12.28	-56.9	-60.2	14.2	6.04e-01	0	31	0	168820736	83	4993
2026-01-02 13:34:47.48	231.94	12.35	-59.0	-65.1	12.6	6.09e-01	0	31	0	170917888	85	7859
2026-01-02 13:34:48.48	232.11	12.42	-56.9	-60.2	13.7	6.07e-01	0	31	0	171966464	83	5040
2026-01-02 13:34:49.48	232.28	12.49	-56.8	-60.1	14.8	6.06e-01	0	31	0	174063616	81	5531
2026-01-02 13:34:50.47	232.45	12.55	-57.6	-61.4	13.6	6.05e-01	0	31	0	175636480	84	5455
2026-01-02 13:34:51.48	232.62	12.62	-59.0	-65.3	12.6	6.11e-01	0	31	0	177733632	85	7992
2026-01-02 13:34:52.48	232.79	12.69	-57.0	-60.4	13.8	6.06e-01	0	31	0	178782208	83	5137
2026-01-02 13:34:53.47	232.96	12.76	-57.1	-60.5	14.8	6.07e-01	0	31	0	180879360	81	5791
2026-01-02 13:34:54.47	233.14	12.83	-57.6	-61.5	13.6	6.04e-01	0	31	0	182452224	84	5501
2026-01-02 13:34:55.47	233.31	12.90	-58.1	-62.8	13.8	6.08e-01	0	31	0	184549376	83	6785
2026-01-02 13:34:56.46	233.48	12.97	-57.9	-62.2	12.5	6.08e-01	0	31	0	185597952	85	5599
2026-01-02 13:34:57.46	233.66	13.03	-56.3	-59.2	15.2	6.08e-01	0	31	0	187695104	80	5282
2026-01-02 13:34:58.45	233.83	13.10	-57.6	-61.3	13.8	6.07e-01	0	31	0	189792256	84	5374
2026-01-02 13:34:59.45	234.01	13.17	-58.1	-62.8	13.8	6.07e-01	0	31	0	191365120	83	6776
2026-01-02 13:35:00.44	234.19	13.24	-57.9	-62.1	12.7	6.07e-01	0	31	0	192937984	85	5585
2026-01-02 13:35:01.44	234.37	13.31	-56.4	-59.2	15.2	6.06e-01	0	31	0	194510848	80	5294
2026-01-02 13:35:02.44	234.55	13.38	-57.5	-61.2	13.8	6.06e-01	0	31	0	196608000	84	5311
2026-01-02 13:35:03.44	234.73	13.45	-58.0	-62.5	14.1	6.06e-01	0	31	0	198705152	83	6568
2026-01-02 13:35:04.44	234.91	13.51	-57.9	-62.1	12.2	6.10e-01	0	31	0	199229440	85	5535
2026-01-02 13:35:05.44	235.10	13.58	-56.4	-59.3	15.1	6.08e-01	0	31	0	201326592	80	5393
2026-01-02 13:35:06.43	235.28	13.65	-57.5	-61.1	13.8	6.07e-01	0	31	0	203423744	84	5246
2026-01-02 13:35:07.43	235.46	13.72	-58.0	-62.4	14.0	6.06e-01	0	31	0	204996608	83	6492
2026-01-02 13:35:08.43	235.65	13.79	-57.3	-61.4	12.8	6.08e-01	0	31	0	206569472	84	5464
2026-01-02 13:35:09.43	235.84	13.86	-56.4	-59.3	15.2	6.05e-01	0	31	0	208142336	80	5351
2026-01-02 13:35:10.42	236.02	13.92	-58.0	-62.4	13.2	6.09e-01	0	31	0	210239488	85	5735
2026-01-02 13:35:11.42	236.21	13.99	-57.2	-60.7	14.8	6.05e-01	0	31	0	211812352	81	5949
2026-01-02 13:35:12.41	236.40	14.06	-58.7	-64.0	11.1	6.11e-01	0	31	0	213385216	86	6554
2026-01-02 13:35:13.42	236.59	14.13	-55.9	-58.4	15.5	6.08e-01	0	32	0	215482368	79	5111
2026-01-02 13:35:14.41	236.78	14.19	-58.0	-62.2	13.1	6.08e-01	0	31	0	217055232	85	5630
2026-01-02 13:35:15.41	236.97	14.26	-57.2	-60.6	14.8	6.06e-01	0	31	0	219152384	81	5909
2026-01-02 13:35:16.41	237.16	14.33	-58.8	-64.2	10.6	6.12e-01	0	31	0	220725248	86	6694
2026-01-02 13:35:17.41	237.36	14.40	-56.0	-58.5	15.5	6.06e-01	0	31	0	222298112	79	5215
2026-01-02 13:35:18.41	237.55	14.47	-57.9	-62.1	13.4	6.07e-01	0	31	0	224395264	85	5550
2026-01-02 13:35:19.40	237.75	14.53	-57.0	-60.4	15.0	6.08e-01	0	31	0	225968128	81	5724
2026-01-02 13:35:20.40	237.94	14.60	-58.6	-63.8	10.9	6.10e-01	0	31	0	227540992	86	6413
2026-01-02 13:35:21.39	238.14	14.67	-56.0	-58.5	15.5	6.04e-01	0	31	0	229638144	79	5188
2026-01-02 13:35:22.39	238.34	14.74	-57.9	-62.0	13.4	6.07e-01	0	31	0	231211008	85	5497
2026-01-02 13:35:23.39	238.54	14.80	-57.0	-60.4	14.9	6.08e-01	0	31	0	233308160	81	5741
2026-01-02 13:35:24.40	238.74	14.87	-58.6	-63.8	11.0	6.11e-01	0	31	0	234881024	86	6414
2026-01-02 13:35:25.39	238.94	14.94	-55.9	-58.4	15.5	6.04e-01	0	31	0	236978176	79	5116
2026-01-02 13:35:26.39	239.14	15.00	-57.9	-61.9	13.6	6.06e-01	0	31	0	238551040	85	5436
2026-01-02 13:35:27.38	239.34	15.07	-57.0	-60.2	15.0	6.08e-01	0	31	0	240648192	81	5648
2026-01-02 13:35:28.38	239.55	15.14	-58.5	-63.6	11.4	6.08e-01	0	31	0	242221056	86	6211
2026-01-02 13:35:29.38	239.75	15.20	-55.9	-58.4	15.5	6.08e-01	0	31	0	243793920	79	5130
2026-01-02 13:35:30.37	239.95	15.27	-58.3	-62.8	13.1	6.08e-01	0	32	0	245891072	85	6049
2026-01-02 13:35:31.37	240.16	15.34	-56.1	-58.8	15.4	6.05e-01	0	31	0	247463936	79	5364
2026-01-02 13:35:32.37	240.37	15.40	-59.2	-66.0	9.3	6.14e-01	0	32	0	249036800	87	7742
2026-01-02 13:35:33.37	240.58	15.47	-55.4	-57.6	15.7	6.06e-01	0	31	0	251133952	78	4978
2026-01-02 13:35:34.36	240.79	15.53	-58.2	-62.7	13.1	6.09e-01	0	31	0	253231104	85	5954
2026-01-02 13:35:35.36	241.00	15.60	-56.1	-58.7	15.5	6.05e-01	0	31	0	254803968	79	5330
2026-01-02 13:35:36.36	241.21	15.66	-59.3	-66.2	9.3	6.16e-01	0	31	0	256376832	88	7542
2026-01-02 13:35:37.36	241.42	15.73	-55.5	-57.8	15.7	6.06e-01	0	31	0	258473984	78	5068
2026-01-02 13:35:38.35	241.63	15.79	-58.2	-62.7	13.2	6.07e-01	0	31	0	260046848	85	5942
2026-01-02 13:35:39.34	241.85	15.86	-56.1	-58.7	15.5	6.05e-01	0	31	0	262144000	79	5333
2026-01-02 13:35:40.34	242.06	15.92	-58.8	-65.8	9.4	6.17e-01	0	32	0	263716864	87	7617
2026-01-02 13:35:41.34	242.28	15.99	-55.5	-57.8	15.7	6.04e-01	0	31	0	265814016	78	5061
2026-01-02 13:35:42.33	242.49	16.05	-58.1	-62.5	13.3	6.08e-01	0	32	0	267911168	85	5803
2026-01-02 13:35:43.33	242.71	16.12	-56.0	-58.6	15.5	6.07e-01	0	31	0	269484032	79	5219
2026-01-02 13:35:44.33	242.93	16.18	-59.2	-65.8	9.3	6.18e-01	0	31	0	271581184	87	7622
2026-01-02 13:35:45.32	243.15	16.25	-55.2	-57.3	15.8	6.05e-01	0	31	0	273154048	78	4798
2026-01-02 13:35:46.32	243.37	16.31	-58.2	-62.5	13.2	6.07e-01	0	32	0	275251200	85	5852
2026-01-02 13:35:47.32	243.59	16.37	-55.5	-57.8	15.7	6.07e-01	0	31	0	276824064	78	5062
2026-01-02 13:35:48.32	243.82	16.44	-59.7	-68.5	7.3	6.35e-01	46	32	0	278921216	88	9719
2026-01-02 13:35:49.32	244.04	16.50	-55.2	-57.4	15.8	6.06e-01	0	31	0	280494080	78	4820
2026-01-02 13:35:50.32	244.27	16.56	-58.4	-63.0	13.0	6.06e-01	0	31	0	282591232	85	6172
2026-01-02 13:35:51.32	244.49	16.63	-55.4	-57.7	15.8	6.07e-01	0	32	0	284688384	78	4987
2026-01-02 13:35:52.32	244.72	16.69	-59.7	-68.1	7.7	6.30e-01	27	32	0	286261248	88	9324
2026-01-02 13:35:53.31	244.95	16.75	-55.2	-57.4	15.9	6.07e-01	0	31	0	288358400	78	4821
2026-01-02 13:35:54.31	245.17	16.81	-58.4	-63.0	13.1	6.08e-01	0	32	0	289931264	85	6191
2026-01-02 13:35:55.31	245.40	16.87	-55.3	-57.5	15.8	6.07e-01	0	32	0	292028416	78	4921
2026-01-02 13:35:56.31	245.64	16.94	-59.7	-68.0	7.9	6.33e-01	20	32	0	293601280	88	9249
2026-01-02 13:35:57.31	245.87	17.00	-55.2	-57.4	15.8	6.06e-01	0	32	0	295698432	78	4845
2026-01-02 13:35:58.30	246.10	17.06	-58.3	-62.9	13.1	6.07e-01	0	32	0	297271296	85	6119
2026-01-02 13:35:59.29	246.33	17.12	-55.4	-57.6	15.8	6.08e-01	0	31	0	299368448	78	4979
2026-01-02 13:36:00.29	246.57	17.18	-59.7	-68.3	7.6	6.37e-01	33	32	0	301465600	88	9531
2026-01-02 13:36:01.29	246.80	17.24	-55.3	-57.4	15.8	6.05e-01	0	32	0	303038464	78	4867
2026-01-02 13:36:02.29	247.04	17.30	-58.2	-62.7	13.3	6.09e-01	0	32	0	305135616	85	5955
2026-01-02 13:36:03.29	247.28	17.36	-55.2	-57.4	15.9	6.05e-01	0	31	0	306708480	78	4864
2026-01-02 13:36:04.29	247.52	17.42	-59.7	-68.2	7.9	6.36e-01	28	32	0	308805632	88	9463
2026-01-02 13:36:05.28	247.75	17.48	-55.4	-57.6	15.7	6.07e-01	0	31	0	310378496	78	4959
2026-01-02 13:36:06.28	247.99	17.53	-58.3	-62.8	13.1	6.07e-01	0	32	0	312475648	85	6024
2026-01-02 13:36:07.28	248.24	17.59	-55.4	-57.6	15.8	6.07e-01	0	31	0	314572800	78	4937
2026-01-02 13:36:08.28	248.48	17.65	-59.7	-68.2	7.6	6.40e-01	30	31	0	316145664	88	9493
2026-01-02 13:36:09.28	248.72	17.71	-55.4	-57.6	15.7	6.06e-01	0	31	0	318242816	78	4972
2026-01-02 13:36:10.27	248.96	17.77	-58.4	-63.1	13.0	6.07e-01	0	31	0	319815680	85	6208
2026-01-02 13:36:11.26	249.21	17.82	-54.6	-56.5	16.0	6.07e-01	0	31	0	321912832	76	4909
2026-01-02 13:36:12.26	249.45	17.88	-60.0	-70.1	6.9	6.55e-01	91	31	0	323485696	88	11729
2026-01-02 13:36:13.25	249.70	17.93	-55.2	-57.3	15.8	6.05e-01	0	31	0	325582848	78	4791
2026-01-02 13:36:14.24	249.95	17.99	-58.4	-63.1	13.1	6.09e-01	0	31	0	327155712	85	6229
2026-01-02 13:36:15.23	250.19	18.05	-54.7	-56.7	16.0	6.07e-01	0	31	0	329252864	77	4723
2026-01-02 13:36:16.23	250.44	18.10	-59.9	-69.9	7.1	6.53e-01	89	32	0	331350016	87	12194
2026-01-02 13:36:17.23	250.69	18.16	-55.1	-57.2	15.8	6.06e-01	0	32	0	332922880	78	4740
2026-01-02 13:36:18.22	250.94	18.21	-58.4	-63.2	13.0	6.08e-01	0	32	0	335020032	85	6318
2026-01-02 13:36:19.22	251.20	18.26	-54.6	-56.5	16.0	6.06e-01	0	31	0	336592896	76	4893
2026-01-02 13:36:20.22	251.45	18.32	-60.0	-70.6	6.9	6.61e-01	90	31	0	338690048	87	13181
2026-01-02 13:36:21.21	251.70	18.37	-55.0	-57.0	15.9	6.07e-01	0	32	0	340262912	78	4651
2026-01-02 13:36:22.20	251.96	18.42	-58.5	-63.3	12.9	6.09e-01	0	31	0	342360064	85	6404
2026-01-02 13:36:23.21	252.22	18.48	-54.3	-56.1	16.1	6.07e-01	0	31	0	343932928	76	4679
2026-01-02 13:36:24.21	252.47	18.53	-60.0	-70.4	7.1	6.56e-01	91	31	0	346030080	87	12834
2026-01-02 13:36:25.21	252.73	18.58	-55.0	-57.0	15.9	6.05e-01	0	32	0	348127232	78	4604
2026-01-02 13:36:26.21	252.99	18.63	-58.5	-63.2	13.0	6.08e-01	0	32	0	349700096	85	6307
2026-01-02 13:36:27.20	253.25	18.68	-54.3	-56.1	16.2	6.08e-01	0	32	0	351797248	76	4675
2026-01-02 13:36:28.20	253.51	18.73	-60.0	-70.4	7.0	6.53e-01	92	31	0	353370112	87	12882
2026-01-02 13:36:29.19	253.77	18.78	-55.0	-57.1	15.9	6.06e-01	0	31	0	355467264	78	4670
2026-01-02 13:36:30.19	254.03	18.83	-58.5	-63.3	13.0	6.05e-01	0	31	0	357040128	85	6367
2026-01-02 13:36:31.19	254.30	18.88	-54.4	-56.2	16.1	6.07e-01	0	32	0	359137280	76	4725
2026-01-02 13:36:32.19	254.56	18.93	-60.0	-70.4	7.0	6.58e-01	92	32	0	361234432	87	12944
2026-01-02 13:36:33.19	254.83	18.98	-55.0	-57.0	15.9	6.05e-01	0	31	0	362807296	78	4639
2026-01-02 13:36:34.19	255.10	19.03	-58.5	-63.2	13.0	6.08e-01	0	31	0	364904448	85	6329
2026-01-02 13:36:35.19	255.36	19.07	-54.2	-56.0	16.2	6.05e-01	0	32	0	366477312	76	4647
2026-01-02 13:36:36.20	255.63	19.12	-60.0	-70.2	7.3	6.53e-01	89	31	0	368574464	87	12547
2026-01-02 13:36:37.20	255.90	19.17	-55.1	-57.2	15.9	6.06e-01	0	32	0	370147328	79	4460
2026-01-02 13:36:38.19	256.17	19.21	-58.5	-63.2	13.0	6.09e-01	0	31	0	372244480	85	6342
2026-01-02 13:36:39.19	256.44	19.26	-54.3	-56.1	16.2	6.06e-01	0	31	0	374341632	76	4691
2026-01-02 13:36:40.19	256.71	19.30	-60.0	-69.9	7.5	6.48e-01	85	32	0	375914496	87	12206
2026-01-02 13:36:41.19	256.99	19.35	-55.1	-57.2	15.9	6.04e-01	0	32	0	378011648	79	4481
2026-01-02 13:36:42.19	257.26	19.39	-58.5	-63.2	13.0	6.06e-01	0	31	0	379584512	85	6315
2026-01-02 13:36:43.18	257.53	19.43	-54.3	-56.1	16.2	6.08e-01	0	32	0	381681664	76	4662
2026-01-02 13:36:44.18	257.80	19.48	-60.0	-69.7	7.6	6.45e-01	64	32	0	383778816	87	11911
2026-01-02 13:36:45.18	258.08	19.52	-55.1	-57.2	15.9	6.07e-01	0	32	0	385351680	78	4725
2026-01-02 13:36:46.18	258.36	19.56	-58.5	-63.2	13.0	6.09e-01	0	31	0	387448832	85	6300
2026-01-02 13:36:47.18	258.63	19.60	-54.3	-56.1	16.1	6.05e-01	0	32	0	389021696	76	4685
2026-01-02 13:36:48.18	258.91	19.64	-60.0	-69.7	7.7	6.46e-01	61	32	0	391118848	87	11931
2026-01-02 13:36:49.17	259.19	19.68	-55.1	-57.2	15.9	6.06e-01	0	32	0	392691712	79	4461
2026-01-02 13:36:50.17	259.47	19.72	-58.6	-63.4	12.9	6.08e-01	0	31	0	394788864	85	6453
2026-01-02 13:36:51.17	259.75	19.76	-54.0	-55.7	16.3	6.06e-01	0	31	0	396361728	76	4461
2026-01-02 13:36:52.17	260.03	19.80	-60.0	-69.8	7.8	6.47e-01	59	31	0	398458880	87	12076
2026-01-02 13:36:53.18	260.31	19.83	-55.2	-57.3	15.9	6.07e-01	0	32	0	400556032	79	4541
2026-01-02 13:36:54.17	260.59	19.87	-58.5	-63.3	13.0	6.07e-01	0	31	0	402128896	85	6420
2026-01-02 13:36:55.17	260.87	19.91	-54.0	-55.8	16.3	6.07e-01	0	31	0	404226048	76	4497
2026-01-02 13:36:56.17	261.16	19.94	-60.0	-69.6	8.0	6.43e-01	19	31	0	405798912	87	11779
2026-01-02 13:36:57.16	261.44	19.98	-55.0	-57.1	15.9	6.07e-01	0	31	0	407896064	79	4396
2026-01-02 13:36:58.16	261.73	20.01	-58.5	-63.3	13.1	6.08e-01	0	31	0	409468928	85	6359
2026-01-02 13:36:59.16	262.01	20.05	-54.2	-56.0	16.2	6.05e-01	0	32	0	411566080	76	4613
2026-01-02 13:37:00.15	262.29	20.08	-60.0	-69.6	8.0	6.45e-01	29	32	0	413663232	87	11815
2026-01-02 13:37:01.15	262.58	20.11	-55.0	-57.0	16.0	6.06e-01	0	32	0	415236096	79	4375
2026-01-02 13:37:02.15	262.87	20.14	-58.5	-63.2	13.1	6.05e-01	0	32	0	417333248	85	6294
2026-01-02 13:37:03.14	263.15	20.17	-54.3	-56.1	16.2	6.06e-01	0	32	0	418906112	76	4666
2026-01-02 13:37:04.14	263.44	20.20	-59.9	-69.3	8.3	6.39e-01	0	32	0	421003264	87	11291
2026-01-02 13:37:05.14	263.73	20.23	-55.0	-57.0	15.9	6.04e-01	0	32	0	422576128	79	4390
2026-01-02 13:37:06.13	264.02	20.26	-58.6	-63.3	13.0	6.07e-01	0	32	0	424673280	85	6381
2026-01-02 13:37:07.13	264.31	20.29	-54.5	-56.4	16.1	6.06e-01	0	32	0	426770432	76	4849
2026-01-02 13:37:08.12	264.60	20.32	-60.0	-69.3	8.3	6.35e-01	0	32	0	428343296	87	11308
2026-01-02 13:37:09.12	264.89	20.35	-55.1	-57.2	15.9	6.01e-01	0	32	0	430440448	79	4454
2026-01-02 13:37:10.12	265.18	20.37	-58.6	-63.4	13.0	6.00e-01	0	32	0	432013312	85	6433
2026-01-02 13:37:11.11	265.47	20.40	-54.2	-56.0	16.2	5.99e-01	0	32	0	434110464	76	4614
2026-01-02 13:37:12.12	265.77	20.43	-59.9	-68.9	8.7	6.31e-01	0	32	0	435683328	87	10837
2026-01-02 13:37:13.11	266.06	20.45	-55.3	-57.4	15.9	6.01e-01	0	32	0	437780480	79	4564
2026-01-02 13:37:14.11	266.35	20.47	-58.7	-63.6	12.8	6.03e-01	0	32	0	439353344	85	6613
2026-01-02 13:37:15.11	266.64	20.50	-54.3	-56.1	16.2	6.01e-01	0	31	0	441450496	77	4436
2026-01-02 13:37:16.12	266.94	20.52	-59.9	-68.9	8.6	6.31e-01	0	32	0	443547648	87	10835
2026-01-02 13:37:17.12	267.24	20.54	-55.2	-57.2	15.9	6.03e-01	0	32	0	445120512	79	4490
2026-01-02 13:37:18.12	267.53	20.56	-58.6	-63.4	13.1	6.01e-01	0	32	0	447217664	85	6429
2026-01-02 13:37:19.11	267.83	20.58	-54.4	-56.2	16.2	5.99e-01	0	32	0	448790528	77	4475
2026-01-02 13:37:20.12	268.13	20.60	-59.9	-68.9	8.7	6.32e-01	0	32	0	450887680	87	10790
2026-01-02 13:37:21.11	268.42	20.62	-55.2	-57.2	15.9	5.98e-01	0	32	0	452460544	79	4486
2026-01-02 13:37:22.11	268.72	20.64	-58.7	-63.5	12.9	6.01e-01	0	31	0	454557696	85	6502
2026-01-02 13:37:23.11	269.01	20.66	-54.6	-56.5	16.1	6.03e-01	0	32	0	456654848	77	4621
2026-01-02 13:37:24.10	269.31	20.67	-59.9	-68.6	8.9	6.27e-01	0	32	0	458227712	87	10428
2026-01-02 13:37:25.10	269.61	20.69	-55.1	-57.1	16.0	6.01e-01	0	32	0	460324864	79	4411
2026-01-02 13:37:26.09	269.90	20.70	-58.7	-63.4	13.0	6.02e-01	0	32	0	461897728	85	6489
2026-01-02 13:37:27.08	270.20	20.72	-54.8	-56.6	16.2	6.04e-01	0	31	0	463994880	78	4441
2026-01-02 13:37:28.08	270.50	20.73	-59.9	-68.6	9.0	6.25e-01	0	32	0	466092032	87	10433
2026-01-02 13:37:29.08	270.80	20.75	-55.1	-57.0	16.0	6.02e-01	0	32	0	467664896	79	4383
2026-01-02 13:37:30.08	271.10	20.76	-58.7	-63.4	13.0	6.01e-01	0	31	0	469762048	85	6485
2026-01-02 13:37:31.08	271.40	20.77	-54.9	-56.8	16.0	6.00e-01	0	32	0	471334912	78	4532
2026-01-02 13:37:32.08	271.70	20.78	-59.9	-68.4	9.0	6.25e-01	0	32	0	473432064	87	10251
2026-01-02 13:37:33.07	271.99	20.79	-55.1	-57.1	16.0	6.04e-01	0	32	0	475004928	79	4410
2026-01-02 13:37:34.07	272.30	20.80	-58.7	-63.4	13.0	5.99e-01	0	32	0	477102080	85	6489
2026-01-02 13:37:35.07	272.60	20.81	-54.9	-56.9	16.1	6.01e-01	0	32	0	478674944	78	4554
2026-01-02 13:37:36.07	272.90	20.82	-59.9	-68.4	9.0	6.26e-01	0	32	0	480772096	87	10260
2026-01-02 13:37:37.06	273.19	20.82	-55.0	-56.9	16.1	6.01e-01	0	32	0	482869248	79	4339
2026-01-02 13:37:38.06	273.50	20.83	-58.8	-63.7	12.8	6.02e-01	0	32	0	484442112	85	6703
2026-01-02 13:37:39.06	273.80	20.84	-55.1	-57.1	16.0	6.03e-01	0	31	0	486539264	78	4668
2026-01-02 13:37:40.06	274.10	20.84	-60.0	-68.4	9.1	6.23e-01	0	32	0	488112128	87	10210
2026-01-02 13:37:41.06	274.40	20.84	-54.9	-56.8	16.1	5.99e-01	0	32	0	490209280	79	4273
2026-01-02 13:37:42.06	274.70	20.85	-58.8	-63.8	12.7	6.02e-01	0	32	0	491782144	85	6732
2026-01-02 13:37:43.05	275.00	20.85	-55.2	-57.2	16.0	6.01e-01	0	31	0	493879296	79	4485
2026-01-02 13:37:44.04	275.30	20.85	-60.0	-68.4	9.1	6.25e-01	0	32	0	495976448	87	10187
2026-01-02 13:37:45.04	275.60	20.85	-54.8	-56.6	16.1	6.02e-01	0	32	0	497549312	78	4420
2026-01-02 13:37:46.04	275.90	20.85	-58.8	-63.6	12.9	6.02e-01	0	32	0	499646464	85	6598
2026-01-02 13:37:47.03	276.20	20.85	-55.7	-57.9	15.8	6.03e-01	0	32	0	501219328	79	4842
2026-01-02 13:37:48.03	276.50	20.85	-60.0	-68.4	9.0	6.24e-01	0	32	0	503316480	87	10284
2026-01-02 13:37:49.03	276.80	20.85	-54.6	-56.3	16.2	6.01e-01	0	31	0	504889344	78	4290
2026-01-02 13:37:50.03	277.10	20.85	-58.8	-63.6	12.9	6.04e-01	0	32	0	506986496	85	6614
2026-01-02 13:37:51.03	277.41	20.84	-55.9	-58.2	15.8	6.01e-01	0	32	0	509083648	80	4744
2026-01-02 13:37:52.03	277.71	20.84	-60.0	-68.4	9.0	6.23e-01	0	32	0	510656512	87	10194
2026-01-02 13:37:53.03	278.01	20.83	-54.5	-56.3	16.2	6.02e-01	0	32	0	512753664	78	4265
2026-01-02 13:37:54.02	278.31	20.83	-58.8	-63.6	12.9	6.00e-01	0	32	0	514326528	85	6584
2026-01-02 13:37:55.03	278.61	20.82	-56.1	-58.5	15.6	6.02e-01	0	32	0	516423680	80	4924
2026-01-02 13:37:56.03	278.91	20.81	-60.0	-68.4	9.0	6.23e-01	0	32	0	517996544	87	10274
2026-01-02 13:37:57.03	279.21	20.81	-54.3	-56.0	16.3	5.98e-01	0	32	0	520093696	77	4362
2026-01-02 13:37:58.02	279.51	20.80	-58.8	-63.5	13.0	6.04e-01	0	31	0	522190848	85	6508
2026-01-02 13:37:59.02	279.81	20.79	-56.4	-59.0	15.6	6.00e-01	0	31	0	523763712	81	4885
2026-01-02 13:38:00.02	280.11	20.78	-60.1	-69.0	8.8	6.27e-01	0	32	0	525860864	88	10385
2026-01-02 13:38:01.03	280.41	20.77	-54.3	-55.9	16.3	6.01e-01	0	31	0	527433728	77	4331
2026-01-02 13:38:02.02	280.71	20.76	-58.9	-63.7	13.1	6.01e-01	0	31	0	529530880	85	6650
2026-01-02 13:38:03.02	281.01	20.74	-56.4	-59.0	15.4	6.00e-01	0	31	0	531103744	82	4638
2026-01-02 13:38:04.02	281.31	20.73	-60.2	-69.1	8.8	6.30e-01	0	31	0	533200896	88	10485
2026-01-02 13:38:05.02	281.61	20.72	-54.1	-55.7	16.3	6.01e-01	0	31	0	534773760	77	4235
2026-01-02 13:38:06.01	281.90	20.70	-58.9	-63.7	13.1	6.03e-01	0	32	0	536870912	85	6651
2026-01-02 13:38:07.00	282.20	20.69	-56.7	-59.5	15.2	6.00e-01	0	32	0	538968064	82	4906
2026-01-02 13:38:07.99	282.49	20.67	-60.2	-69.2	8.7	6.31e-01	0	32	0	540540928	88	10636
2026-01-02 13:38:08.99	282.79	20.65	-53.8	-55.3	16.4	6.00e-01	0	31	0	542638080	76	4277
2026-01-02 13:38:09.98	283.08	20.63	-58.8	-63.4	13.2	6.03e-01	0	32	0	544210944	85	6478
2026-01-02 13:38:10.97	283.38	20.62	-57.2	-60.3	15.0	6.03e-01	0	31	0	546308096	83	5068
2026-01-02 13:38:11.97	283.67	20.60	-60.2	-69.3	8.4	6.34e-01	1	31	0	547880960	88	10746
2026-01-02 13:38:12.97	283.97	20.58	-53.7	-55.2	16.4	6.03e-01	0	31	0	549978112	76	4224
2026-01-02 13:38:13.97	284.26	20.56	-58.8	-63.4	13.1	6.04e-01	0	31	0	551550976	85	6494
2026-01-02 13:38:14.97	284.56	20.54	-57.7	-61.0	14.7	6.01e-01	0	32	0	553648128	84	5178
2026-01-02 13:38:15.96	284.85	20.51	-60.3	-69.4	8.2	6.33e-01	1	32	0	555745280	88	10901
2026-01-02 13:38:16.96	285.15	20.49	-53.4	-54.8	16.5	6.00e-01	0	32	0	557318144	76	4043
2026-01-02 13:38:17.95	285.44	20.47	-58.7	-63.3	13.3	6.01e-01	0	32	0	559415296	85	6369
2026-01-02 13:38:18.95	285.73	20.44	-58.1	-61.8	14.2	6.01e-01	0	32	0	560988160	84	5716
2026-01-02 13:38:19.95	286.02	20.42	-60.3	-69.9	7.9	6.39e-01	22	32	0	563085312	88	11420
2026-01-02 13:38:20.94	286.31	20.39	-53.2	-54.6	16.5	6.01e-01	0	32	0	565182464	75	4161
2026-01-02 13:38:21.94	286.60	20.37	-58.7	-63.1	13.4	6.03e-01	0	32	0	566755328	85	6239
2026-01-02 13:38:22.93	286.89	20.34	-58.4	-62.4	14.0	6.00e-01	0	32	0	568852480	85	5750
2026-01-02 13:38:23.93	287.18	20.31	-60.4	-70.2	7.7	6.44e-01	59	32	0	570425344	88	11845
2026-01-02 13:38:24.93	287.47	20.29	-53.0	-54.3	16.6	6.02e-01	0	32	0	572522496	75	4050
2026-01-02 13:38:25.93	287.76	20.26	-58.6	-62.8	13.6	6.04e-01	0	32	0	574095360	84	6356
2026-01-02 13:38:26.93	288.05	20.23	-58.6	-63.0	13.7	6.03e-01	0	31	0	576192512	85	6140
2026-01-02 13:38:27.93	288.34	20.20	-60.4	-70.2	7.7	6.44e-01	71	32	0	578289664	88	11940
2026-01-02 13:38:28.92	288.63	20.17	-53.0	-54.4	16.6	6.01e-01	0	32	0	579862528	75	4074
2026-01-02 13:38:29.92	288.91	20.14	-58.6	-62.8	13.8	6.02e-01	0	32	0	581959680	84	6348
2026-01-02 13:38:30.92	289.20	20.10	-58.8	-63.2	13.4	6.03e-01	0	32	0	583532544	85	6347
2026-01-02 13:38:31.92	289.49	20.07	-60.4	-70.4	8.2	6.43e-01	40	32	0	585629696	88	12104
2026-01-02 13:38:32.91	289.77	20.04	-52.8	-54.2	16.6	6.03e-01	0	31	0	587202560	74	4210
2026-01-02 13:38:33.91	290.05	20.01	-58.5	-62.6	13.8	6.02e-01	0	31	0	589299712	84	6266
2026-01-02 13:38:34.91	290.34	19.97	-59.1	-64.1	12.9	6.02e-01	0	31	0	590872576	85	7010
2026-01-02 13:38:35.90	290.62	19.94	-60.5	-70.6	7.8	6.49e-01	69	32	0	592969728	88	12496
2026-01-02 13:38:36.90	290.90	19.90	-52.7	-54.0	16.6	6.01e-01	0	32	0	595066880	74	4118
2026-01-02 13:38:37.89	291.18	19.86	-58.5	-62.6	13.9	5.99e-01	0	32	0	596639744	84	6240
2026-01-02 13:38:38.89	291.46	19.83	-59.4	-64.8	12.5	6.01e-01	0	32	0	598736896	86	7162
2026-01-02 13:38:39.88	291.74	19.79	-60.5	-70.9	7.7	6.50e-01	85	32	0	600309760	88	12912
2026-01-02 13:38:40.88	292.02	19.75	-52.4	-53.6	16.7	5.99e-01	0	32	0	602406912	74	3940
2026-01-02 13:38:41.88	292.30	19.71	-58.4	-62.4	14.0	6.00e-01	0	32	0	603979776	84	6085
2026-01-02 13:38:42.87	292.58	19.67	-59.5	-65.3	12.3	6.05e-01	0	32	0	606076928	86	7630
2026-01-02 13:38:43.87	292.85	19.63	-60.5	-70.3	8.0	6.43e-01	31	32	0	607649792	88	12001
2026-01-02 13:38:44.87	293.13	19.59	-52.5	-53.7	16.7	6.01e-01	0	32	0	609746944	74	4000
2026-01-02 13:38:45.87	293.41	19.55	-58.0	-61.6	14.3	6.04e-01	0	32	0	611844096	83	5919
2026-01-02 13:38:46.86	293.68	19.51	-59.6	-65.7	12.1	6.03e-01	0	32	0	613416960	87	7516
2026-01-02 13:38:47.86	293.96	19.47	-60.5	-70.3	8.0	6.42e-01	30	32	0	615514112	88	12084
2026-01-02 13:38:48.86	294.23	19.43	-52.4	-53.7	16.7	6.02e-01	0	31	0	617086976	74	3961
2026-01-02 13:38:49.86	294.50	19.38	-57.9	-61.6	14.3	6.04e-01	0	32	0	619184128	83	5881
2026-01-02 13:38:50.85	294.77	19.34	-59.7	-66.1	11.6	6.06e-01	0	32	0	620756992	87	7869
2026-01-02 13:38:51.85	295.04	19.30	-60.5	-70.3	7.9	6.44e-01	33	32	0	622854144	88	12056
2026-01-02 13:38:52.85	295.31	19.25	-52.3	-53.6	16.7	6.03e-01	0	31	0	624951296	74	3937
2026-01-02 13:38:53.86	295.59	19.21	-57.8	-61.3	14.5	6.01e-01	0	31	0	626524160	83	5685
2026-01-02 13:38:54.85	295.85	19.16	-59.8	-66.4	11.5	6.06e-01	0	31	0	628621312	87	8146
2026-01-02 13:38:55.85	296.12	19.12	-60.5	-70.3	7.9	6.41e-01	46	32	0	630194176	88	12051
2026-01-02 13:38:56.85	296.39	19.07	-52.3	-53.5	16.7	6.02e-01	0	32	0	632291328	73	4141
2026-01-02 13:38:57.85	296.66	19.02	-57.7	-61.0	14.6	6.03e-01	0	32	0	633864192	83	5522
2026-01-02 13:38:58.84	296.92	18.98	-59.9	-66.8	11.2	6.11e-01	0	31	0	635961344	87	8491
2026-01-02 13:38:59.83	297.18	18.93	-60.4	-70.4	7.9	6.43e-01	54	32	0	638058496	88	12156
2026-01-02 13:39:00.83	297.44	18.88	-52.3	-53.5	16.7	5.99e-01	0	32	0	639631360	73	4141
2026-01-02 13:39:01.83	297.71	18.83	-57.5	-60.7	14.7	6.00e-01	0	32	0	641728512	82	5655
2026-01-02 13:39:02.82	297.97	18.78	-59.7	-66.2	11.6	6.07e-01	0	32	0	643301376	87	7924
2026-01-02 13:39:03.82	298.23	18.73	-60.4	-70.0	8.5	6.40e-01	3	32	0	645398528	88	11560
2026-01-02 13:39:04.82	298.49	18.68	-52.6	-53.9	16.6	5.99e-01	0	32	0	646971392	74	4058
2026-01-02 13:39:05.82	298.75	18.63	-57.3	-60.5	14.9	6.01e-01	0	32	0	649068544	82	5470
2026-01-02 13:39:06.81	299.00	18.58	-59.8	-66.5	11.4	6.09e-01	0	32	0	650641408	87	8201
2026-01-02 13:39:07.81	299.26	18.53	-60.4	-70.0	8.3	6.36e-01	5	32	0	652738560	88	11570
2026-01-02 13:39:08.81	299.52	18.48	-52.4	-53.7	16.6	6.04e-01	0	32	0	654835712	74	3983
2026-01-02 13:39:09.81	299.78	18.42	-57.2	-60.2	14.9	6.03e-01	0	31	0	656408576	82	5321
2026-01-02 13:39:10.80	300.03	18.37	-59.9	-66.9	11.1	6.08e-01	0	32	0	658505728	87	8582
2026-01-02 13:39:11.80	300.28	18.32	-60.3	-69.8	8.7	6.37e-01	1	31	0	660078592	88	11331
2026-01-02 13:39:12.79	300.53	18.26	-52.5	-53.8	16.6	6.02e-01	0	32	0	662175744	74	4020
2026-01-02 13:39:13.78	300.78	18.21	-57.0	-60.0	15.1	6.00e-01	0	32	0	664272896	81	5465
2026-01-02 13:39:14.77	301.03	18.16	-59.7	-66.2	11.5	6.07e-01	0	32	0	665845760	87	7948
2026-01-02 13:39:15.77	301.28	18.10	-60.2	-69.2	9.1	6.27e-01	0	32	0	667418624	88	10581
2026-01-02 13:39:16.77	301.53	18.05	-53.0	-54.5	16.5	6.02e-01	0	31	0	669515776	75	4104
2026-01-02 13:39:17.76	301.78	17.99	-56.7	-59.4	15.3	6.01e-01	0	32	0	671612928	81	5113
2026-01-02 13:39:18.75	302.02	17.94	-59.7	-66.2	11.6	6.07e-01	0	32	0	673185792	87	7955
2026-01-02 13:39:19.75	302.27	17.88	-60.2	-69.0	9.2	6.26e-01	0	32	0	675282944	88	10303
2026-01-02 13:39:20.74	302.51	17.82	-53.4	-54.8	16.4	5.99e-01	0	32	0	676855808	76	4041
2026-01-02 13:39:21.74	302.76	17.77	-56.7	-59.4	15.2	6.03e-01	0	31	0	678952960	81	5101
2026-01-02 13:39:22.74	303.00	17.71	-56.9	-59.8	15.0	6.00e-01	0	32	0	681050112	81	5357
2026-01-02 13:39:23.73	303.24	17.65	-57.6	-61.2	14.3	6.03e-01	0	32	0	682622976	83	5623
2026-01-02 13:39:24.73	303.48	17.60	-59.2	-64.7	12.4	6.01e-01	0	32	0	684720128	86	7050
2026-01-02 13:39:25.72	303.72	17.54	-60.1	-69.2	9.0	6.23e-01	0	31	0	686292992	88	10565
2026-01-02 13:39:26.71	303.96	17.48	-60.4	-69.3	10.1	6.19e-01	0	32	0	688390144	88	10746
2026-01-02 13:39:27.71	304.20	17.42	-61.2	-79.3	3.8	7.47e-01	0	32	104	688914432	90	30062
2026-01-02 13:39:28.69	304.43	17.36	-61.3	-80.1	3.8	7.45e-01	0	32	104	688914432	90	33138
2026-01-02 13:39:29.68	304.66	17.30	-61.4	-80.2	3.8	7.47e-01	0	32	104	688914432	90	33692
2026-01-02 13:39:30.66	304.90	17.25	-61.5	-80.4	3.8	7.43e-01	0	32	104	688914432	90	34283
2026-01-02 13:39:31.65	305.13	17.19	-61.6	-80.6	3.8	7.41e-01	0	32	104	688914432	91	33014
2026-01-02 13:39:32.65	305.36	17.13	-61.6	-80.5	3.8	7.45e-01	0	32	104	688914432	91	32752
2026-01-02 13:39:33.63	305.59	17.07	-61.7	-80.6	3.8	7.45e-01	0	32	104	688914432	91	32986
2026-01-02 13:39:34.62	305.82	17.01	-61.7	-80.6	3.8	7.43e-01	0	32	104	688914432	91	33006
2026-01-02 13:39:35.62	306.05	16.95	-61.7	-80.6	3.8	7.46e-01	0	32	104	688914432	91	33125
2026-01-02 13:39:36.62	306.28	16.89	-61.7	-80.6	3.8	7.49e-01	0	32	104	688914432	91	33184
2026-01-02 13:39:37.61	306.51	16.82	-61.8	-80.6	3.8	7.45e-01	0	32	104	688914432	91	33298
2026-01-02 13:39:38.60	306.74	16.76	-61.8	-80.7	3.8	7.44e-01	0	32	104	688914432	91	33330
2026-01-02 13:39:39.60	306.96	16.70	-61.8	-80.6	3.8	7.44e-01	0	32	104	688914432	91	33297
2026-01-02 13:39:40.59	307.19	16.64	-61.8	-80.6	3.8	7.44e-01	0	32	104	688914432	91	33266
2026-01-02 13:39:41.59	307.41	16.58	-61.8	-80.7	3.8	7.49e-01	0	32	104	688914432	91	33421
2026-01-02 13:39:42.58	307.63	16.52	-61.8	-80.7	3.8	7.47e-01	0	32	104	688914432	91	33438
2026-01-02 13:39:43.57	307.86	16.45	-61.8	-80.7	3.8	7.44e-01	0	32	104	688914432	91	33415
2026-01-02 13:39:44.56	308.08	16.39	-61.8	-80.7	3.8	7.43e-01	0	32	104	688914432	91	33449
2026-01-02 13:39:45.56	308.30	16.33	-61.8	-80.7	3.8	7.44e-01	0	32	104	688914432	91	33447
2026-01-02 13:39:46.55	308.52	16.26	-61.8	-80.7	3.8	7.43e-01	0	32	104	688914432	91	33366
2026-01-02 13:39:47.55	308.74	16.20	-61.7	-80.6	3.8	7.46e-01	0	32	104	688914432	91	33257
2026-01-02 13:39:48.54	308.95	16.14	-61.7	-80.6	3.8	7.48e-01	0	32	104	688914432	91	33187
2026-01-02 13:39:49.54	309.17	16.07	-61.7	-80.6	3.8	7.43e-01	0	32	104	688914432	91	32950
2026-01-02 13:39:50.53	309.38	16.01	-61.6	-80.5	3.8	7.45e-01	0	32	104	688914432	91	32832
2026-01-02 13:39:51.54	309.60	15.94	-61.6	-80.5	3.8	7.50e-01	0	32	104	688914432	91	32729
2026-01-02 13:39:52.53	309.81	15.88	-61.6	-80.5	3.8	7.46e-01	0	32	104	688914432	91	32610
2026-01-02 13:39:53.53	310.03	15.82	-61.6	-80.4	3.8	7.48e-01	0	32	104	688914432	91	32533
2026-01-02 13:39:54.53	310.24	15.75	-61.5	-80.4	3.8	7.49e-01	0	32	104	688914432	91	32543
2026-01-02 13:39:55.52	310.45	15.69	-61.5	-80.4	3.8	7.47e-01	0	32	104	688914432	91	32518
2026-01-02 13:39:56.51	310.66	15.62	-61.5	-80.4	3.8	7.46e-01	0	32	104	688914432	91	32450
2026-01-02 13:39:57.50	310.87	15.56	-61.5	-80.4	3.8	7.46e-01	0	32	104	688914432	91	32413
2026-01-02 13:39:58.49	311.08	15.49	-61.5	-80.4	3.8	7.43e-01	0	32	104	688914432	91	32439
2026-01-02 13:39:59.48	311.28	15.43	-61.5	-80.4	3.8	7.47e-01	0	32	104	688914432	91	32519
2026-01-02 13:40:00.47	311.49	15.36	-61.5	-80.4	3.8	7.43e-01	0	32	104	688914432	91	32401
2026-01-02 13:40:01.47	311.69	15.30	-61.5	-80.4	3.8	7.47e-01	0	32	104	688914432	91	32364
2026-01-02 13:40:02.46	311.90	15.23	-61.5	-80.4	3.8	7.45e-01	0	32	104	688914432	91	32362
2026-01-02 13:40:03.46	312.10	15.17	-61.5	-80.4	3.8	7.46e-01	0	32	104	688914432	91	32233
2026-01-02 13:40:04.45	312.30	15.10	-61.5	-80.4	3.8	7.48e-01	0	32	104	688914432	91	32333
2026-01-02 13:40:05.43	312.50	15.03	-61.5	-80.4	3.8	7.47e-01	0	32	104	688914432	91	32276
2026-01-02 13:40:06.43	312.70	14.97	-61.5	-80.4	3.8	7.46e-01	0	32	104	688914432	91	32359
2026-01-02 13:40:07.43	312.90	14.90	-61.6	-80.5	3.8	7.48e-01	0	32	104	688914432	91	32857
2026-01-02 13:40:08.42	313.10	14.84	-61.7	-80.6	3.9	7.42e-01	0	31	104	688914432	91	33167
2026-01-02 13:40:09.42	313.30	14.77	-61.8	-80.7	3.8	7.45e-01	0	32	104	688914432	91	33381
2026-01-02 13:40:10.42	313.50	14.70	-61.8	-80.7	3.8	7.48e-01	0	32	104	688914432	91	33521
2026-01-02 13:40:11.41	313.69	14.64	-61.8	-80.7	3.8	7.50e-01	0	32	104	688914432	91	33513
2026-01-02 13:40:12.40	313.89	14.57	-61.8	-80.7	3.8	7.45e-01	0	32	104	688914432	91	33489
2026-01-02 13:40:13.39	314.08	14.50	-61.8	-80.7	3.8	7.45e-01	0	32	104	688914432	91	33565
2026-01-02 13:40:14.39	314.27	14.43	-61.8	-80.7	3.8	7.45e-01	0	32	104	688914432	91	33537
2026-01-02 13:40:15.38	314.46	14.37	-61.8	-80.7	3.8	7.42e-01	0	32	104	688914432	91	33428
2026-01-02 13:40:16.39	314.66	14.30	-61.8	-80.7	3.8	7.44e-01	0	32	104	688914432	91	33458
2026-01-02 13:40:17.38	314.85	14.23	-61.8	-80.7	3.8	7.48e-01	0	32	104	688914432	91	33404
2026-01-02 13:40:18.38	315.04	14.17	-61.7	-80.6	3.8	7.48e-01	0	32	104	688914432	91	33273
2026-01-02 13:40:19.38	315.23	14.10	-61.7	-80.6	3.8	7.44e-01	0	32	104	688914432	91	33074
2026-01-02 13:40:20.38	315.42	14.03	-61.6	-80.5	3.8	7.46e-01	0	32	104	688914432	91	32848
2026-01-02 13:40:21.38	315.60	13.96	-61.5	-80.4	3.8	7.46e-01	0	32	104	688914432	91	32392
2026-01-02 13:40:22.38	315.79	13.89	-61.4	-80.2	3.8	7.47e-01	0	32	104	688914432	91	31770
2026-01-02 13:40:23.37	315.98	13.83	-61.2	-80.1	3.8	7.47e-01	0	32	104	688914432	91	31198
2026-01-02 13:40:24.36	316.16	13.76	-61.2	-79.9	3.8	7.46e-01	0	32	104	688914432	91	30442
2026-01-02 13:40:25.36	316.34	13.69	-61.1	-79.9	3.8	7.45e-01	0	32	104	688914432	91	30617
2026-01-02 13:40:26.36	316.53	13.62	-61.1	-79.7	3.8	7.47e-01	0	32	104	688914432	91	29801
2026-01-02 13:40:27.35	316.71	13.56	-60.8	-73.2	4.3	7.28e-01	0	32	104	688914432	90	15013
2026-01-02 13:40:28.34	316.89	13.49	-57.3	-60.4	14.9	6.02e-01	0	32	0	689963008	82	5418
2026-01-02 13:40:29.34	317.07	13.42	-58.2	-61.9	14.1	6.00e-01	0	32	0	691535872	84	5732
2026-01-02 13:40:30.33	317.25	13.35	-57.8	-61.1	14.5	6.03e-01	0	32	0	693633024	84	5260
2026-01-02 13:40:31.33	317.43	13.29	-56.7	-59.4	15.3	6.01e-01	0	32	0	695730176	81	5156
2026-01-02 13:40:32.32	317.60	13.22	-59.9	-67.2	10.0	6.15e-01	0	32	0	697303040	88	8420
2026-01-02 13:40:33.31	317.78	13.15	-58.7	-63.2	13.0	6.03e-01	0	32	0	698875904	86	5950
2026-01-02 13:40:34.31	317.95	13.08	-52.0	-53.3	16.8	6.04e-01	0	32	0	700973056	73	4015
2026-01-02 13:40:35.31	318.13	13.01	-51.8	-53.1	16.8	6.03e-01	0	32	0	703070208	72	4147
2026-01-02 13:40:36.31	318.31	12.95	-51.8	-53.0	16.8	6.04e-01	0	32	0	704643072	72	4130
2026-01-02 13:40:37.30	318.48	12.88	-51.8	-53.0	16.8	6.05e-01	0	32	0	706740224	72	4107
2026-01-02 13:40:38.30	318.65	12.81	-51.8	-53.0	16.7	6.01e-01	0	32	0	708313088	72	4127
2026-01-02 13:40:39.29	318.82	12.74	-51.7	-52.8	16.8	6.04e-01	0	32	0	710410240	72	4051
2026-01-02 13:40:40.28	318.99	12.67	-51.8	-53.0	16.7	6.03e-01	0	32	0	712507392	72	4126
2026-01-02 13:40:41.28	319.16	12.61	-51.7	-52.9	16.8	6.02e-01	0	32	0	714080256	72	4093
2026-01-02 13:40:42.28	319.33	12.54	-51.7	-52.9	16.8	6.04e-01	0	32	0	716177408	72	4070
2026-01-02 13:40:43.28	319.50	12.47	-51.7	-52.9	16.8	6.01e-01	0	32	0	717750272	72	4084
2026-01-02 13:40:44.28	319.67	12.40	-51.7	-52.9	16.7	6.04e-01	0	32	0	719847424	72	4073
2026-01-02 13:40:45.28	319.84	12.33	-51.7	-52.9	16.7	6.02e-01	0	32	0	721420288	72	4069
2026-01-02 13:40:46.28	320.00	12.26	-51.7	-52.9	16.7	6.01e-01	0	32	0	723517440	72	4081
2026-01-02 13:40:47.27	320.17	12.20	-51.6	-52.9	16.7	6.04e-01	0	32	0	725090304	72	4066
2026-01-02 13:40:48.26	320.33	12.13	-51.7	-52.9	16.7	6.01e-01	0	31	0	727187456	72	4088
2026-01-02 13:40:49.25	320.49	12.06	-51.6	-52.8	16.8	6.03e-01	0	32	0	729284608	72	4015
2026-01-02 13:40:50.24	320.66	11.99	-51.6	-52.8	16.8	6.01e-01	0	32	0	730857472	72	4021
2026-01-02 13:40:51.24	320.82	11.93	-51.7	-52.9	16.8	6.04e-01	0	31	0	732954624	72	4067
2026-01-02 13:40:52.24	320.98	11.86	-51.7	-52.9	16.7	6.04e-01	0	32	0	734527488	72	4072
2026-01-02 13:40:53.24	321.14	11.79	-51.7	-53.0	16.7	6.00e-01	0	32	0	736624640	72	4110
2026-01-02 13:40:54.23	321.30	11.72	-51.8	-53.1	16.7	6.03e-01	0	32	0	738197504	72	4148
2026-01-02 13:40:55.22	321.46	11.65	-51.8	-53.1	16.7	6.04e-01	0	32	0	740294656	72	4170
2026-01-02 13:40:56.21	321.61	11.59	-51.8	-53.1	16.7	6.01e-01	0	32	0	741867520	72	4168
2026-01-02 13:40:57.21	321.77	11.52	-51.8	-53.1	16.7	6.02e-01	0	32	0	743964672	72	4168
2026-01-02 13:40:58.20	321.93	11.45	-51.8	-53.1	16.7	6.04e-01	0	32	0	746061824	72	4179
2026-01-02 13:40:59.20	322.08	11.38	-51.9	-53.1	16.7	6.01e-01	0	32	0	747634688	72	4181
2026-01-02 13:41:00.20	322.24	11.31	-51.8	-53.1	16.7	6.04e-01	0	32	0	749731840	72	4175
2026-01-02 13:41:01.20	322.40	11.25	-51.8	-53.0	16.7	6.05e-01	0	32	0	751304704	72	4130
2026-01-02 13:41:02.19	322.55	11.18	-51.8	-53.0	16.7	6.04e-01	0	32	0	753401856	72	4129
2026-01-02 13:41:03.19	322.70	11.11	-51.9	-53.2	16.7	6.02e-01	0	32	0	754974720	72	4194
2026-01-02 13:41:04.19	322.85	11.04	-51.8	-53.0	16.7	6.02e-01	0	31	0	757071872	72	4141
2026-01-02 13:41:05.17	323.00	10.98	-51.8	-53.0	16.7	6.02e-01	0	32	0	758644736	72	4133
2026-01-02 13:41:06.17	323.16	10.91	-51.7	-53.0	16.7	6.05e-01	0	31	0	760741888	72	4099
2026-01-02 13:41:07.16	323.30	10.84	-51.7	-53.0	16.7	6.01e-01	0	32	0	762839040	72	4123
2026-01-02 13:41:08.15	323.45	10.78	-51.7	-52.9	16.7	6.04e-01	0	32	0	764411904	72	4092
2026-01-02 13:41:09.15	323.60	10.71	-51.7	-52.9	16.7	6.02e-01	0	32	0	766509056	72	4082
2026-01-02 13:41:10.15	323.75	10.64	-51.8	-53.1	16.6	6.02e-01	0	32	0	768081920	72	4166
2026-01-02 13:41:11.13	323.90	10.57	-51.8	-53.0	16.7	6.03e-01	0	32	0	770179072	72	4138
2026-01-02 13:41:12.13	324.04	10.51	-51.9	-53.2	16.7	6.02e-01	0	31	0	771751936	72	4210
2026-01-02 13:41:13.12	324.19	10.44	-51.9	-53.2	16.7	6.04e-01	0	32	0	773849088	72	4199
2026-01-02 13:41:14.13	324.33	10.37	-51.9	-53.2	16.7	6.03e-01	0	32	0	775946240	72	4201
2026-01-02 13:41:15.13	324.48	10.30	-51.9	-53.2	16.7	6.04e-01	0	32	0	777519104	72	4224
2026-01-02 13:41:16.12	324.62	10.24	-51.9	-53.2	16.6	6.01e-01	0	32	0	779616256	72	4234
2026-01-02 13:41:17.11	324.76	10.17	-51.9	-53.3	16.6	6.02e-01	0	32	0	781189120	72	4244
2026-01-02 13:41:18.10	324.91	10.10	-52.0	-53.3	16.6	6.01e-01	0	32	0	783286272	72	4250
2026-01-02 13:41:19.08	325.04	10.04	-52.0	-53.4	16.6	6.06e-01	0	32	0	784859136	72	4299
2026-01-02 13:41:20.07	325.19	9.97	-52.0	-53.3	16.6	6.05e-01	0	31	0	786956288	72	4269
2026-01-02 13:41:21.07	325.33	9.91	-52.1	-53.4	16.6	6.03e-01	0	32	0	788529152	72	4322
2026-01-02 13:41:22.06	325.46	9.84	-52.0	-53.3	16.6	6.02e-01	0	32	0	790626304	72	4268
2026-01-02 13:41:23.05	325.60	9.77	-51.9	-53.3	16.6	6.02e-01	0	32	0	792199168	72	4247
2026-01-02 13:41:24.04	325.74	9.71	-51.9	-53.2	16.7	6.03e-01	0	32	0	794296320	72	4205
2026-01-02 13:41:25.04	325.88	9.64	-51.8	-53.1	16.6	6.05e-01	0	32	0	796393472	72	4189
2026-01-02 13:41:26.02	326.01	9.57	-51.9	-53.2	16.5	6.05e-01	0	32	0	797966336	72	4211
2026-01-02 13:41:27.00	326.15	9.51	-51.9	-53.2	16.6	6.03e-01	0	32	0	800063488	72	4203
2026-01-02 13:41:28.00	326.28	9.44	-52.0	-53.3	16.6	6.03e-01	0	32	0	801636352	72	4280
2026-01-02 13:41:29.00	326.42	9.38	-51.9	-53.3	16.6	6.02e-01	0	32	0	803733504	72	4250
2026-01-02 13:41:30.00	326.55	9.31	-52.0	-53.3	16.6	6.01e-01	0	31	0	805306368	72	4286
2026-01-02 13:41:31.00	326.69	9.24	-52.0	-53.4	16.6	6.02e-01	0	32	0	807403520	72	4296
2026-01-02 13:41:31.99	326.82	9.18	-52.0	-53.4	16.6	6.01e-01	0	31	0	808976384	72	4300
2026-01-02 13:41:32.99	326.95	9.11	-52.1	-53.4	16.6	6.03e-01	0	32	0	811073536	72	4326
2026-01-02 13:41:33.99	327.09	9.05	-52.0	-53.4	16.6	6.02e-01	0	31	0	813170688	72	4302
2026-01-02 13:41:34.98	327.22	8.98	-52.2	-53.5	16.6	6.02e-01	0	31	0	814743552	72	4380
2026-01-02 13:41:35.98	327.35	8.91	-52.1	-53.5	16.6	6.03e-01	0	31	0	816840704	72	4350
2026-01-02 13:41:36.98	327.48	8.85	-52.3	-53.7	16.5	6.02e-01	0	32	0	818413568	72	4447
2026-01-02 13:41:37.98	327.61	8.78	-52.2	-53.6	16.6	6.05e-01	0	32	0	820510720	72	4404
2026-01-02 13:41:38.98	327.74	8.72	-52.2	-53.6	16.6	6.04e-01	0	32	0	822083584	72	4425
2026-01-02 13:41:39.97	327.87	8.65	-52.3	-53.7	16.5	6.02e-01	0	31	0	824180736	72	4459
2026-01-02 13:41:40.97	327.99	8.59	-52.2	-53.6	16.5	6.01e-01	0	32	0	825753600	72	4434
2026-01-02 13:41:41.96	328.12	8.52	-52.2	-53.6	16.5	6.02e-01	0	32	0	827850752	72	4441
2026-01-02 13:41:42.96	328.25	8.46	-52.3	-53.7	16.5	6.05e-01	0	31	0	829947904	72	4454
2026-01-02 13:41:43.94	328.37	8.39	-52.3	-53.7	16.5	6.03e-01	0	31	0	831520768	72	4468
2026-01-02 13:41:44.94	328.50	8.33	-52.3	-53.8	16.5	6.03e-01	0	32	0	833617920	72	4502
2026-01-02 13:41:45.93	328.62	8.26	-52.4	-53.8	16.5	6.04e-01	0	32	0	835190784	72	4527
2026-01-02 13:41:46.92	328.75	8.20	-52.3	-53.7	16.5	6.04e-01	0	32	0	837287936	72	4482
2026-01-02 13:41:47.91	328.87	8.13	-52.3	-53.8	16.5	6.01e-01	0	32	0	838860800	72	4507
2026-01-02 13:41:48.90	328.99	8.07	-52.3	-53.7	16.5	6.04e-01	0	32	0	840957952	72	4492
2026-01-02 13:41:49.90	329.11	8.00	-52.4	-53.8	16.5	6.02e-01	0	32	0	842530816	72	4514
2026-01-02 13:41:50.90	329.24	7.94	-52.4	-53.8	16.5	6.02e-01	0	32	0	844627968	72	4526
2026-01-02 13:41:51.89	329.36	7.87	-52.3	-53.7	16.5	6.02e-01	0	32	0	846725120	72	4477
2026-01-02 13:41:52.89	329.48	7.81	-52.3	-53.7	16.5	6.05e-01	0	32	0	848297984	72	4469
2026-01-02 13:41:53.88	329.60	7.75	-52.3	-53.7	16.5	6.02e-01	0	31	0	850395136	72	4459
2026-01-02 13:41:54.87	329.72	7.68	-52.3	-53.7	16.5	6.02e-01	0	32	0	851968000	72	4456
2026-01-02 13:41:55.87	329.84	7.62	-52.4	-53.8	16.5	6.02e-01	0	32	0	854065152	72	4535
2026-01-02 13:41:56.86	329.95	7.55	-52.4	-53.8	16.4	6.04e-01	0	32	0	855638016	72	4530
2026-01-02 13:41:57.86	330.07	7.49	-52.4	-53.8	16.5	6.03e-01	0	31	0	857735168	72	4521
2026-01-02 13:41:58.85	330.19	7.43	-52.4	-53.9	16.4	6.04e-01	0	31	0	859308032	72	4565
2026-01-02 13:41:59.85	330.31	7.36	-52.4	-53.9	16.4	6.03e-01	0	32	0	861405184	72	4581
2026-01-02 13:42:00.84	330.42	7.30	-52.4	-53.8	16.4	6.02e-01	0	31	0	863502336	72	4534
2026-01-02 13:42:01.84	330.54	7.23	-52.3	-53.8	16.5	6.05e-01	0	31	0	865075200	72	4503
2026-01-02 13:42:02.84	330.65	7.17	-52.4	-53.9	16.5	6.02e-01	0	32	0	867172352	72	4558
2026-01-02 13:42:03.83	330.77	7.11	-52.4	-53.9	16.5	6.02e-01	0	31	0	868745216	72	4559
2026-01-02 13:42:04.83	330.88	7.04	-52.4	-53.9	16.4	6.03e-01	0	32	0	870842368	72	4593
2026-01-02 13:42:05.84	331.00	6.98	-52.5	-54.0	16.4	6.03e-01	0	32	0	872415232	72	4632
2026-01-02 13:42:06.83	331.11	6.92	-52.6	-54.1	16.4	6.04e-01	0	32	0	874512384	73	4420
2026-01-02 13:42:07.83	331.22	6.85	-52.6	-54.1	16.4	6.02e-01	0	32	0	876609536	73	4413
2026-01-02 13:42:08.81	331.33	6.79	-52.6	-54.2	16.4	6.03e-01	0	32	0	878182400	73	4460
2026-01-02 13:42:09.80	331.45	6.73	-52.6	-54.1	16.4	6.04e-01	0	32	0	880279552	73	4421
2026-01-02 13:42:10.80	331.56	6.67	-52.5	-54.1	16.5	6.02e-01	0	31	0	881852416	73	4399
2026-01-02 13:42:11.79	331.67	6.60	-52.6	-54.1	16.4	6.02e-01	0	32	0	883949568	73	4419
2026-01-02 13:42:12.79	331.78	6.54	-52.7	-54.3	16.4	6.03e-01	0	32	0	885522432	73	4517
2026-01-02 13:42:13.77	331.89	6.48	-52.7	-54.2	16.4	6.03e-01	0	32	0	887619584	73	4474
2026-01-02 13:42:14.77	332.00	6.42	-52.7	-54.3	16.4	6.04e-01	0	32	0	889192448	73	4511
2026-01-02 13:42:15.76	332.10	6.35	-52.7	-54.3	16.4	6.04e-01	0	31	0	891289600	73	4533
2026-01-02 13:42:16.75	332.21	6.29	-52.7	-54.3	16.4	6.03e-01	0	32	0	892862464	73	4522
2026-01-02 13:42:17.75	332.32	6.23	-52.9	-54.5	16.3	6.01e-01	0	32	0	894959616	73	4606
2026-01-02 13:42:18.74	332.43	6.17	-52.9	-54.5	16.3	6.03e-01	0	31	0	897056768	73	4632
2026-01-02 13:42:19.74	332.53	6.11	-52.8	-54.4	16.3	6.01e-01	0	32	0	898629632	73	4594
2026-01-02 13:42:20.73	332.64	6.04	-53.0	-54.6	16.3	6.02e-01	0	32	0	900726784	73	4681
2026-01-02 13:42:21.71	332.74	5.98	-53.0	-54.6	16.3	6.02e-01	0	32	0	902299648	74	4419
2026-01-02 13:42:22.70	332.85	5.92	-52.9	-54.5	16.3	6.02e-01	0	32	0	904396800	74	4391
2026-01-02 13:42:23.69	332.95	5.86	-52.8	-54.4	16.4	6.03e-01	0	32	0	905969664	74	4317
2026-01-02 13:42:24.68	333.06	5.80	-52.7	-54.3	16.4	6.04e-01	0	32	0	908066816	74	4283
2026-01-02 13:42:25.68	333.16	5.74	-52.7	-54.3	16.4	6.01e-01	0	31	0	909639680	74	4257
2026-01-02 13:42:26.67	333.27	5.68	-52.9	-54.5	16.4	6.04e-01	0	32	0	911736832	74	4365
2026-01-02 13:42:27.66	333.37	5.62	-52.8	-54.5	16.3	6.03e-01	0	32	0	913309696	74	4345
2026-01-02 13:42:28.65	333.47	5.55	-52.9	-54.5	16.3	6.03e-01	0	32	0	915406848	74	4375
2026-01-02 13:42:29.64	333.57	5.49	-52.7	-54.3	16.4	6.03e-01	0	32	0	917504000	74	4264
2026-01-02 13:42:30.63	333.67	5.43	-52.8	-54.5	16.4	6.02e-01	0	31	0	919076864	74	4341
2026-01-02 13:42:31.63	333.78	5.37	-52.7	-54.3	16.3	6.02e-01	0	31	0	921174016	74	4289
2026-01-02 13:42:32.63	333.88	5.31	-53.0	-54.6	16.3	6.03e-01	0	31	0	922746880	74	4440
2026-01-02 13:42:33.63	333.98	5.25	-52.9	-54.6	16.3	6.02e-01	0	32	0	924844032	74	4415
2026-01-02 13:42:34.63	334.08	5.19	-52.8	-54.6	16.2	6.03e-01	0	31	0	926416896	74	4396
2026-01-02 13:42:35.63	334.18	5.13	-52.7	-54.4	16.3	6.04e-01	0	32	0	928514048	74	4301
2026-01-02 13:42:36.63	334.28	5.07	-53.1	-55.1	16.0	6.04e-01	0	32	0	930611200	74	4660
2026-01-02 13:42:37.63	334.38	5.01	-56.1	-59.5	14.8	6.02e-01	0	32	0	932184064	79	5823
2026-01-02 13:42:38.63	334.48	4.95	-60.2	-79.1	3.8	7.44e-01	0	32	104	933232640	88	32997
2026-01-02 13:42:39.62	334.57	4.89	-60.7	-79.5	3.8	7.46e-01	0	32	104	933232640	89	32851
2026-01-02 13:42:40.62	334.67	4.83	-61.0	-79.9	3.8	7.47e-01	0	32	104	933232640	89	34247
2026-01-02 13:42:41.62	334.77	4.77	-61.2	-80.2	3.8	7.44e-01	0	32	104	933232640	90	33311
2026-01-02 13:42:42.62	334.87	4.70	-61.4	-80.3	3.8	7.45e-01	0	32	104	933232640	90	34036
2026-01-02 13:42:43.61	334.96	4.65	-61.5	-80.4	3.8	7.47e-01	0	32	104	933232640	90	34464
2026-01-02 13:42:44.61	335.06	4.59	-61.6	-80.5	3.8	7.46e-01	0	32	104	933232640	91	32777
2026-01-02 13:42:45.62	335.16	4.52	-61.7	-80.6	3.8	7.49e-01	0	32	104	933232640	91	33074
2026-01-02 13:42:46.62	335.25	4.46	-61.8	-80.7	3.8	7.48e-01	0	32	104	933232640	91	33480
2026-01-02 13:42:47.61	335.35	4.41	-61.8	-80.7	3.8	7.46e-01	0	31	104	933232640	91	33591
2026-01-02 13:42:48.62	335.44	4.35	-61.9	-80.8	3.8	7.41e-01	0	32	104	933232640	91	33806
2026-01-02 13:42:49.62	335.54	4.29	-61.9	-80.8	3.8	7.46e-01	0	31	104	933232640	91	34017
2026-01-02 13:42:50.62	335.63	4.23	-61.9	-80.9	3.8	7.44e-01	0	32	104	933232640	91	34122
2026-01-02 13:42:51.61	335.72	4.17	-62.0	-80.9	3.8	7.48e-01	0	32	104	933232640	91	34116
2026-01-02 13:42:52.62	335.82	4.11	-62.0	-80.9	3.8	7.44e-01	0	32	104	933232640	91	34204
2026-01-02 13:42:53.61	335.91	4.05	-62.0	-80.9	3.8	7.46e-01	0	32	104	933232640	91	34253
2026-01-02 13:42:54.60	336.00	3.99	-62.0	-80.9	3.8	7.44e-01	0	32	104	933232640	91	34261
2026-01-02 13:42:55.60	336.09	3.93	-62.0	-80.9	3.8	7.49e-01	0	32	104	933232640	91	34341
2026-01-02 13:42:56.61	336.18	3.87	-62.0	-80.9	3.8	7.48e-01	0	32	104	933232640	91	34399
2026-01-02 13:42:57.60	336.27	3.81	-62.0	-80.9	3.8	7.47e-01	0	32	104	933232640	91	34354
2026-01-02 13:42:58.60	336.37	3.75	-62.0	-80.9	3.8	7.46e-01	0	32	104	933232640	91	34274
2026-01-02 13:42:59.60	336.46	3.70	-62.0	-80.9	3.8	7.46e-01	0	31	104	933232640	91	34212
2026-01-02 13:43:00.60	336.55	3.64	-61.9	-80.8	3.8	7.42e-01	0	32	104	933232640	91	34032
2026-01-02 13:43:01.60	336.64	3.58	-61.9	-80.8	3.8	7.47e-01	0	32	104	933232640	91	33964
2026-01-02 13:43:02.59	336.72	3.52	-61.9	-80.8	3.8	7.44e-01	0	32	104	933232640	91	33878
2026-01-02 13:43:03.60	336.81	3.46	-61.9	-80.8	3.8	7.47e-01	0	32	104	933232640	91	33863
2026-01-02 13:43:04.60	336.90	3.40	-61.9	-80.8	3.8	7.47e-01	0	32	104	933232640	91	33740
2026-01-02 13:43:05.59	336.99	3.35	-61.9	-80.8	3.8	7.46e-01	0	32	104	933232640	91	33707
2026-01-02 13:43:06.60	337.08	3.29	-61.9	-80.8	3.8	7.48e-01	0	32	104	933232640	91	33753
2026-01-02 13:43:07.60	337.17	3.23	-61.8	-80.7	3.8	7.48e-01	0	32	104	933232640	91	33616
2026-01-02 13:43:08.61	337.25	3.17	-61.8	-80.7	3.8	7.48e-01	0	32	104	933232640	91	33617
2026-01-02 13:43:09.62	337.34	3.11	-61.8	-80.7	3.8	7.49e-01	0	32	104	933232640	91	33609
2026-01-02 13:43:10.62	337.43	3.05	-61.8	-80.7	3.8	7.46e-01	0	32	104	933232640	91	33641
2026-01-02 13:43:11.62	337.51	3.00	-61.8	-80.7	3.8	7.47e-01	0	32	104	933232640	91	33520
2026-01-02 13:43:12.62	337.60	2.94	-61.8	-80.7	3.8	7.49e-01	0	32	104	933232640	91	33530
2026-01-02 13:43:13.62	337.69	2.88	-61.8	-80.7	3.8	7.43e-01	0	32	104	933232640	91	33505
2026-01-02 13:43:14.62	337.77	2.82	-61.8	-80.7	3.8	7.48e-01	0	32	104	933232640	91	33424
2026-01-02 13:43:15.62	337.86	2.77	-61.8	-80.7	3.8	7.45e-01	0	32	104	933232640	91	33440
2026-01-02 13:43:16.62	337.94	2.71	-61.8	-80.7	3.8	7.44e-01	0	32	104	933232640	91	33331
2026-01-02 13:43:17.62	338.02	2.65	-61.8	-80.6	3.8	7.45e-01	0	32	104	933232640	91	33295
2026-01-02 13:43:18.62	338.11	2.59	-61.8	-80.7	3.8	7.46e-01	0	32	104	933232640	91	33324
2026-01-02 13:43:19.62	338.19	2.54	-61.8	-80.7	3.8	7.48e-01	0	32	104	933232640	91	33327
2026-01-02 13:43:20.61	338.27	2.48	-61.7	-80.6	3.8	7.45e-01	0	32	104	933232640	91	33249
2026-01-02 13:43:21.62	338.36	2.42	-61.7	-80.6	3.8	7.46e-01	0	32	104	933232640	91	33230
2026-01-02 13:43:22.61	338.44	2.37	-61.7	-80.6	3.8	7.45e-01	0	32	104	933232640	91	33208
2026-01-02 13:43:23.61	338.52	2.31	-61.7	-80.6	3.8	7.47e-01	0	32	104	933232640	91	33196
2026-01-02 13:43:24.60	338.60	2.26	-61.7	-80.6	3.8	7.45e-01	0	32	104	933232640	91	33234
2026-01-02 13:43:25.60	338.68	2.20	-61.7	-80.6	3.8	7.48e-01	0	31	104	933232640	91	33129
2026-01-02 13:43:26.59	338.76	2.14	-61.7	-80.6	3.8	7.45e-01	0	32	104	933232640	91	33100
2026-01-02 13:43:27.59	338.84	2.09	-61.7	-80.6	3.8	7.45e-01	0	32	104	933232640	91	33132
2026-01-02 13:43:28.58	338.92	2.03	-61.7	-80.6	3.8	7.46e-01	0	32	104	933232640	91	33121
2026-01-02 13:43:29.58	339.00	1.97	-61.7	-80.6	3.8	7.50e-01	0	32	104	933232640	91	33137

#Closed at: 2026-01-02 13:43:29
#Recorded file [933 MB]: D:/lorett/data/31004_260102_163206.dat