passes_logs/2026/01/02/R3.2S_Murmansk/R3.2S_Murmansk__20260102_003531_NOAA_20_JPSS-1_rec.log

#Pass ID: 20260102_003531_NOAA 20 (JPSS-1)
#Satellite: NOAA 20 (JPSS-1)
#Configuration: NOAA 20
#almurnet v.1.7.20251203
#Start time: 2026-01-02 00:35:32

#Version: 2.2.20231116
#Station: R3.2S_Murmansk
#Location: 33.079688 lon 68.888172 lat
#TLE: 1 43013U 17073A   26001.09198674  .00000169  00000+0  10130-3 0  9995
#TLE: 2 43013  98.7621 302.1793 0001944  59.5293 300.6075 14.19531878420769

#Time	Az	El	Level	Level2	SNR	BER	BlckErr	Temp	State	Recorded	gain1	gain2
2026-01-02 00:35:32.11	24.17	2.03	-59.3	-75.6	3.8	1.49e+00	0	31	0	0	85	22719
2026-01-02 00:35:33.11	24.17	2.10	-59.1	-75.5	3.8	1.49e+00	0	31	104	0	83	25033
2026-01-02 00:35:34.10	24.18	2.16	-59.0	-75.4	3.8	1.49e+00	0	32	104	0	83	24972
2026-01-02 00:35:35.09	24.19	2.22	-58.8	-75.4	3.8	1.49e+00	0	32	104	0	83	24869
2026-01-02 00:35:36.10	24.19	2.29	-58.5	-75.4	3.8	1.49e+00	0	32	104	0	83	24910
2026-01-02 00:35:37.09	24.20	2.35	-58.2	-75.5	3.8	1.49e+00	0	32	104	0	83	24999
2026-01-02 00:35:38.09	24.20	2.42	-57.9	-75.4	3.8	1.49e+00	0	32	104	0	82	26445
2026-01-02 00:35:39.08	24.21	2.48	-57.5	-75.4	3.8	1.49e+00	0	32	104	0	81	27986
2026-01-02 00:35:40.07	24.22	2.54	-57.2	-75.5	3.8	1.49e+00	0	32	104	0	81	28040
2026-01-02 00:35:41.07	24.22	2.61	-57.2	-75.5	3.8	1.49e+00	0	32	104	0	80	29707
2026-01-02 00:35:42.07	24.23	2.67	-57.1	-75.5	3.8	1.49e+00	0	32	104	0	80	29716
2026-01-02 00:35:43.07	24.23	2.74	-57.2	-75.4	3.8	1.49e+00	0	32	104	0	80	29685
2026-01-02 00:35:44.07	24.24	2.80	-57.3	-75.4	3.8	1.49e+00	0	32	104	0	80	29653
2026-01-02 00:35:45.06	24.25	2.87	-57.6	-75.4	3.8	1.49e+00	0	32	104	0	80	29494
2026-01-02 00:35:46.06	24.25	2.94	-57.9	-75.3	3.8	1.49e+00	0	32	104	0	80	29212
2026-01-02 00:35:47.06	24.26	3.00	-58.2	-75.2	3.8	1.49e+00	0	32	104	0	81	27199
2026-01-02 00:35:48.05	24.27	3.07	-58.4	-74.9	3.8	1.49e+00	0	32	104	0	82	24941
2026-01-02 00:35:49.05	24.27	3.13	-58.7	-74.6	3.8	1.49e+00	0	32	104	0	82	24121
2026-01-02 00:35:50.04	24.28	3.20	-58.9	-74.4	3.8	1.49e+00	0	32	104	0	82	23408
2026-01-02 00:35:51.04	24.29	3.27	-58.9	-74.1	3.8	1.49e+00	0	32	104	0	83	21432
2026-01-02 00:35:52.04	24.29	3.33	-59.0	-73.7	3.8	1.49e+00	0	32	104	0	83	20460
2026-01-02 00:35:53.04	24.30	3.40	-59.1	-73.7	3.8	1.49e+00	0	32	104	0	83	20510
2026-01-02 00:35:54.04	24.30	3.47	-59.2	-73.7	3.8	1.49e+00	0	32	104	0	83	20451
2026-01-02 00:35:55.04	24.31	3.53	-59.3	-74.0	3.8	1.49e+00	0	32	104	0	83	21193
2026-01-02 00:35:56.04	24.32	3.60	-59.3	-74.4	3.8	1.49e+00	0	32	104	0	83	22051
2026-01-02 00:35:57.04	24.32	3.67	-59.4	-74.6	3.8	1.49e+00	0	32	104	0	83	22745
2026-01-02 00:35:58.04	24.33	3.74	-59.4	-74.7	3.8	1.49e+00	0	32	104	0	83	22980
2026-01-02 00:35:59.03	24.34	3.80	-59.4	-74.7	3.8	1.49e+00	0	32	104	0	83	22969
2026-01-02 00:36:00.04	24.34	3.87	-59.4	-74.3	3.8	1.49e+00	0	32	104	0	83	21914
2026-01-02 00:36:01.04	24.35	3.94	-59.3	-73.6	3.8	1.49e+00	0	32	104	0	83	20125
2026-01-02 00:36:02.04	24.36	4.01	-59.3	-72.5	3.9	1.48e+00	0	32	104	0	83	17743
2026-01-02 00:36:03.03	24.36	4.08	-59.2	-70.8	4.5	1.31e+00	0	32	0	0	83	14666
2026-01-02 00:36:04.04	24.37	4.15	-59.1	-69.7	5.0	7.97e-01	0	32	0	2097152	83	12890
2026-01-02 00:36:05.03	24.37	4.22	-59.0	-68.7	5.6	4.47e-01	0	32	0	4194304	83	11457
2026-01-02 00:36:06.03	24.38	4.28	-58.8	-67.5	6.4	2.35e-01	0	32	0	6291456	83	10002
2026-01-02 00:36:07.02	24.39	4.35	-58.6	-66.5	7.3	1.49e-01	0	32	0	7340032	83	8929
2026-01-02 00:36:08.03	24.39	4.42	-58.5	-65.9	7.8	7.05e-02	0	32	0	9437184	83	8344
2026-01-02 00:36:09.03	24.40	4.49	-58.3	-65.0	8.6	2.59e-02	0	32	0	11534336	83	7502
2026-01-02 00:36:10.03	24.41	4.56	-58.2	-64.7	8.9	1.69e-02	0	32	0	13631488	83	7220
2026-01-02 00:36:11.02	24.41	4.63	-58.1	-64.2	9.3	1.24e-02	0	32	0	15728640	82	7268
2026-01-02 00:36:12.03	24.42	4.70	-58.0	-64.0	9.5	6.51e-03	0	32	0	16777216	82	7121
2026-01-02 00:36:13.02	24.43	4.77	-58.0	-63.8	9.7	5.80e-03	0	32	0	18874368	82	6939
2026-01-02 00:36:14.02	24.43	4.84	-57.9	-63.7	9.8	5.09e-03	0	32	0	20971520	82	6852
2026-01-02 00:36:15.02	24.44	4.91	-58.0	-63.9	9.6	4.51e-03	0	32	0	23068672	82	7030
2026-01-02 00:36:16.02	24.45	4.98	-58.0	-64.0	9.5	5.74e-03	0	32	0	25165824	82	7098
2026-01-02 00:36:17.02	24.45	5.06	-58.1	-64.2	9.3	8.26e-03	0	32	0	26214400	82	7251
2026-01-02 00:36:18.02	24.46	5.13	-56.2	-59.6	13.1	7.44e-04	0	32	0	28311552	79	5091
2026-01-02 00:36:19.03	24.47	5.20	-56.9	-61.0	12.0	7.60e-06	0	32	0	30408704	79	5990
2026-01-02 00:36:20.03	24.47	5.27	-59.2	-70.4	4.8	1.95e-01	0	32	0	32505856	83	13993
2026-01-02 00:36:21.02	24.48	5.34	-56.6	-60.2	12.8	5.14e-02	0	33	0	33554432	79	5403
2026-01-02 00:36:22.03	24.49	5.42	-58.8	-68.8	5.6	2.06e-04	0	32	0	35651584	82	12314
2026-01-02 00:36:23.03	24.49	5.49	-56.2	-59.3	13.3	4.04e-05	0	32	0	37748736	78	5200
2026-01-02 00:36:24.02	24.50	5.56	-56.1	-59.4	13.3	7.00e-07	0	32	0	39845888	78	5245
2026-01-02 00:36:25.02	24.51	5.63	-56.0	-59.2	13.6	0.00e+00	0	33	0	41943040	78	5111
2026-01-02 00:36:26.02	24.51	5.71	-56.0	-59.1	13.6	0.00e+00	0	32	0	42991616	78	5095
2026-01-02 00:36:27.01	24.52	5.78	-56.2	-59.4	13.4	0.00e+00	0	32	0	45088768	78	5261
2026-01-02 00:36:28.01	24.53	5.85	-55.9	-58.9	13.7	7.00e-07	0	32	0	47185920	78	4952
2026-01-02 00:36:29.00	24.53	5.92	-55.9	-58.9	13.7	0.00e+00	0	33	0	49283072	78	4979
2026-01-02 00:36:30.01	24.54	6.00	-55.9	-58.9	13.8	0.00e+00	0	32	0	50331648	78	4945
2026-01-02 00:36:31.00	24.55	6.07	-55.9	-59.0	13.7	0.00e+00	0	32	0	52428800	78	5004
2026-01-02 00:36:31.99	24.55	6.14	-55.9	-58.9	13.8	0.00e+00	0	33	0	54525952	78	4934
2026-01-02 00:36:32.99	24.56	6.22	-55.8	-58.8	13.9	0.00e+00	0	33	0	56623104	78	4876
2026-01-02 00:36:33.98	24.57	6.29	-55.8	-58.8	13.9	0.00e+00	0	32	0	58720256	78	4876
2026-01-02 00:36:34.98	24.57	6.37	-55.8	-58.8	13.9	0.00e+00	0	33	0	59768832	78	4871
2026-01-02 00:36:35.98	24.58	6.44	-55.8	-58.8	13.9	0.00e+00	0	32	0	61865984	78	4901
2026-01-02 00:36:36.98	24.59	6.52	-55.8	-58.7	13.9	0.00e+00	0	33	0	63963136	78	4863
2026-01-02 00:36:37.98	24.59	6.59	-55.7	-58.5	14.1	0.00e+00	0	32	0	66060288	78	4747
2026-01-02 00:36:38.98	24.60	6.67	-55.8	-58.7	14.0	0.00e+00	0	33	0	68157440	78	4831
2026-01-02 00:36:39.98	24.61	6.74	-55.8	-58.8	13.9	0.00e+00	0	33	0	69206016	78	4879
2026-01-02 00:36:40.97	24.61	6.82	-55.8	-58.7	14.0	0.00e+00	0	32	0	71303168	78	4840
2026-01-02 00:36:41.97	24.62	6.90	-55.9	-58.8	13.9	0.00e+00	0	33	0	73400320	78	4896
2026-01-02 00:36:42.97	24.63	6.97	-55.8	-58.7	14.0	0.00e+00	0	33	0	75497472	78	4827
2026-01-02 00:36:43.97	24.63	7.05	-55.6	-58.4	14.1	0.00e+00	0	33	0	76546048	77	4978
2026-01-02 00:36:44.97	24.64	7.13	-55.6	-58.5	14.1	0.00e+00	0	33	0	78643200	77	4994
2026-01-02 00:36:45.97	24.65	7.20	-55.6	-58.4	14.2	0.00e+00	0	32	0	80740352	77	4966
2026-01-02 00:36:46.96	24.65	7.28	-55.7	-58.4	14.1	0.00e+00	0	32	0	82837504	77	4977
2026-01-02 00:36:47.97	24.66	7.36	-55.5	-58.3	14.3	0.00e+00	0	32	0	84934656	77	4874
2026-01-02 00:36:48.97	24.67	7.44	-55.5	-58.2	14.3	0.00e+00	0	32	0	85983232	77	4831
2026-01-02 00:36:49.97	24.68	7.52	-55.5	-58.2	14.4	0.00e+00	0	33	0	88080384	77	4836
2026-01-02 00:36:50.97	24.68	7.59	-55.6	-58.3	14.2	0.00e+00	0	33	0	90177536	77	4917
2026-01-02 00:36:51.96	24.69	7.67	-55.6	-58.4	14.2	0.00e+00	0	33	0	92274688	77	4927
2026-01-02 00:36:52.96	24.70	7.75	-55.5	-58.1	14.4	0.00e+00	0	33	0	94371840	77	4785
2026-01-02 00:36:53.96	24.70	7.83	-55.4	-58.0	14.4	0.00e+00	0	32	0	95420416	77	4746
2026-01-02 00:36:54.96	24.71	7.91	-55.4	-58.0	14.4	0.00e+00	0	32	0	97517568	77	4750
2026-01-02 00:36:55.96	24.72	7.99	-55.4	-58.0	14.5	0.00e+00	0	33	0	99614720	77	4712
2026-01-02 00:36:56.96	24.72	8.07	-55.3	-57.9	14.5	0.00e+00	0	33	0	101711872	77	4682
2026-01-02 00:36:57.97	24.73	8.15	-55.4	-58.0	14.5	0.00e+00	0	33	0	103809024	77	4744
2026-01-02 00:36:58.97	24.74	8.23	-55.4	-58.0	14.5	0.00e+00	0	33	0	104857600	77	4724
2026-01-02 00:36:59.97	24.75	8.31	-55.4	-58.0	14.4	0.00e+00	0	33	0	106954752	77	4737
2026-01-02 00:37:00.97	24.75	8.39	-55.3	-57.8	14.6	0.00e+00	0	33	0	109051904	77	4641
2026-01-02 00:37:01.97	24.76	8.47	-55.2	-57.7	14.6	0.00e+00	0	32	0	111149056	77	4584
2026-01-02 00:37:02.97	24.77	8.55	-55.2	-57.7	14.6	0.00e+00	0	32	0	112197632	77	4593
2026-01-02 00:37:03.97	24.77	8.64	-55.2	-57.6	14.7	0.00e+00	0	33	0	114294784	76	4814
2026-01-02 00:37:04.97	24.78	8.72	-55.2	-57.7	14.7	0.00e+00	0	32	0	116391936	76	4820
2026-01-02 00:37:05.97	24.79	8.80	-55.3	-57.8	14.6	0.00e+00	0	33	0	118489088	76	4889
2026-01-02 00:37:06.97	24.80	8.88	-55.2	-57.7	14.7	0.00e+00	0	33	0	120586240	76	4843
2026-01-02 00:37:07.97	24.80	8.97	-55.1	-57.6	14.8	0.00e+00	0	33	0	121634816	76	4760
2026-01-02 00:37:08.97	24.81	9.05	-55.1	-57.5	14.8	0.00e+00	0	33	0	123731968	76	4745
2026-01-02 00:37:09.96	24.82	9.13	-55.1	-57.5	14.8	0.00e+00	0	33	0	125829120	76	4732
2026-01-02 00:37:10.96	24.82	9.22	-55.1	-57.5	14.8	0.00e+00	0	33	0	127926272	76	4706
2026-01-02 00:37:11.96	24.83	9.30	-55.1	-57.5	14.8	0.00e+00	0	33	0	128974848	76	4709
2026-01-02 00:37:12.96	24.84	9.38	-55.0	-57.4	14.9	0.00e+00	0	33	0	131072000	76	4670
2026-01-02 00:37:13.96	24.85	9.47	-55.1	-57.5	14.8	0.00e+00	0	32	0	133169152	76	4711
2026-01-02 00:37:14.96	24.85	9.55	-55.1	-57.4	14.8	0.00e+00	0	33	0	135266304	76	4703
2026-01-02 00:37:15.97	24.86	9.64	-55.0	-57.3	14.9	0.00e+00	0	33	0	137363456	76	4643
2026-01-02 00:37:16.97	24.87	9.72	-55.0	-57.3	14.9	0.00e+00	0	32	0	138412032	76	4613
2026-01-02 00:37:17.97	24.88	9.81	-54.9	-57.3	14.9	0.00e+00	0	33	0	140509184	76	4613
2026-01-02 00:37:18.97	24.88	9.90	-55.0	-57.3	14.9	0.00e+00	0	33	0	142606336	76	4650
2026-01-02 00:37:19.97	24.89	9.98	-54.9	-57.2	15.0	0.00e+00	0	33	0	144703488	76	4553
2026-01-02 00:37:20.97	24.90	10.07	-54.9	-57.2	15.0	0.00e+00	0	33	0	146800640	76	4555
2026-01-02 00:37:21.97	24.91	10.16	-54.9	-57.2	15.0	0.00e+00	0	33	0	147849216	76	4577
2026-01-02 00:37:22.97	24.91	10.24	-54.9	-57.2	15.0	0.00e+00	0	33	0	149946368	76	4584
2026-01-02 00:37:23.97	24.92	10.33	-54.8	-57.0	15.1	0.00e+00	0	33	0	152043520	76	4491
2026-01-02 00:37:24.97	24.93	10.42	-54.8	-57.0	15.1	0.00e+00	0	33	0	154140672	76	4483
2026-01-02 00:37:25.97	24.94	10.51	-54.8	-57.0	15.1	0.00e+00	0	33	0	156237824	76	4487
2026-01-02 00:37:26.97	24.94	10.60	-54.7	-56.9	15.1	0.00e+00	0	33	0	157286400	76	4438
2026-01-02 00:37:27.97	24.95	10.68	-54.7	-56.9	15.1	0.00e+00	0	33	0	159383552	76	4422
2026-01-02 00:37:28.97	24.96	10.77	-54.7	-56.9	15.2	0.00e+00	0	33	0	161480704	76	4429
2026-01-02 00:37:29.96	24.97	10.86	-54.6	-56.8	15.2	0.00e+00	0	33	0	163577856	75	4638
2026-01-02 00:37:30.96	24.97	10.95	-54.6	-56.8	15.2	0.00e+00	0	33	0	164626432	75	4617
2026-01-02 00:37:31.95	24.98	11.04	-54.6	-56.7	15.2	0.00e+00	0	33	0	166723584	75	4592
2026-01-02 00:37:32.95	24.99	11.13	-54.5	-56.7	15.2	0.00e+00	0	32	0	168820736	75	4587
2026-01-02 00:37:33.94	25.00	11.22	-54.5	-56.7	15.2	0.00e+00	0	33	0	170917888	75	4585
2026-01-02 00:37:34.94	25.00	11.31	-54.6	-56.8	15.2	0.00e+00	0	33	0	173015040	75	4616
2026-01-02 00:37:35.94	25.01	11.40	-54.5	-56.7	15.3	0.00e+00	0	33	0	174063616	75	4562
2026-01-02 00:37:36.93	25.02	11.49	-54.5	-56.7	15.2	0.00e+00	0	33	0	176160768	75	4578
2026-01-02 00:37:37.93	25.03	11.59	-54.4	-56.5	15.3	0.00e+00	0	33	0	178257920	75	4478
2026-01-02 00:37:38.93	25.03	11.68	-54.4	-56.5	15.3	0.00e+00	0	33	0	180355072	75	4473
2026-01-02 00:37:39.93	25.04	11.77	-54.5	-56.6	15.3	0.00e+00	0	33	0	182452224	75	4517
2026-01-02 00:37:40.93	25.05	11.86	-54.4	-56.6	15.3	0.00e+00	0	33	0	183500800	75	4505
2026-01-02 00:37:41.93	25.06	11.96	-54.3	-56.4	15.4	0.00e+00	0	33	0	185597952	75	4423
2026-01-02 00:37:42.93	25.07	12.05	-54.2	-56.3	15.5	0.00e+00	0	33	0	187695104	75	4359
2026-01-02 00:37:43.93	25.07	12.15	-54.3	-56.3	15.4	0.00e+00	0	33	0	189792256	75	4368
2026-01-02 00:37:44.94	25.08	12.24	-54.3	-56.4	15.4	0.00e+00	0	33	0	190840832	75	4411
2026-01-02 00:37:45.93	25.09	12.34	-54.3	-56.3	15.4	0.00e+00	0	33	0	192937984	75	4370
2026-01-02 00:37:46.93	25.10	12.43	-54.3	-56.4	15.4	0.00e+00	0	33	0	195035136	75	4408
2026-01-02 00:37:47.93	25.11	12.53	-54.2	-56.2	15.5	0.00e+00	0	33	0	197132288	74	4569
2026-01-02 00:37:48.93	25.11	12.62	-54.3	-56.3	15.4	0.00e+00	0	33	0	199229440	74	4636
2026-01-02 00:37:49.93	25.12	12.72	-54.1	-56.2	15.5	0.00e+00	0	33	0	200278016	74	4562
2026-01-02 00:37:50.93	25.13	12.82	-54.2	-56.2	15.5	0.00e+00	0	33	0	202375168	74	4579
2026-01-02 00:37:51.93	25.14	12.91	-54.2	-56.3	15.5	0.00e+00	0	33	0	204472320	74	4599
2026-01-02 00:37:52.94	25.15	13.01	-54.1	-56.1	15.5	0.00e+00	0	33	0	206569472	74	4523
2026-01-02 00:37:53.94	25.15	13.11	-54.1	-56.1	15.5	0.00e+00	0	33	0	208666624	74	4518
2026-01-02 00:37:54.94	25.16	13.21	-54.1	-56.1	15.6	0.00e+00	0	33	0	209715200	74	4538
2026-01-02 00:37:55.94	25.17	13.31	-54.0	-55.9	15.7	0.00e+00	0	33	0	211812352	74	4438
2026-01-02 00:37:56.93	25.18	13.41	-54.0	-55.9	15.6	0.00e+00	0	33	0	213909504	74	4423
2026-01-02 00:37:57.93	25.19	13.50	-54.0	-55.9	15.6	0.00e+00	0	33	0	216006656	74	4438
2026-01-02 00:37:58.94	25.19	13.61	-54.0	-55.9	15.7	0.00e+00	0	33	0	218103808	74	4430
2026-01-02 00:37:59.94	25.20	13.71	-54.1	-56.0	15.6	0.00e+00	0	33	0	219152384	74	4486
2026-01-02 00:38:00.94	25.21	13.81	-54.0	-56.0	15.6	0.00e+00	0	33	0	221249536	74	4470
2026-01-02 00:38:01.93	25.22	13.91	-54.1	-56.0	15.6	0.00e+00	0	33	0	223346688	74	4483
2026-01-02 00:38:02.94	25.23	14.01	-54.0	-55.9	15.7	0.00e+00	0	33	0	225443840	74	4408
2026-01-02 00:38:03.94	25.24	14.11	-53.9	-55.8	15.7	0.00e+00	0	33	0	226492416	74	4390
2026-01-02 00:38:04.93	25.25	14.21	-54.0	-55.9	15.7	0.00e+00	0	33	0	228589568	74	4416
2026-01-02 00:38:05.93	25.25	14.32	-53.9	-55.8	15.7	0.00e+00	0	33	0	230686720	74	4385
2026-01-02 00:38:06.93	25.26	14.42	-53.9	-55.8	15.7	0.00e+00	0	33	0	232783872	74	4389
2026-01-02 00:38:07.93	25.27	14.52	-53.8	-55.7	15.8	0.00e+00	0	33	0	234881024	74	4316
2026-01-02 00:38:08.92	25.28	14.63	-53.9	-55.9	15.7	0.00e+00	0	33	0	235929600	74	4403
2026-01-02 00:38:09.93	25.29	14.73	-53.8	-55.7	15.7	0.00e+00	0	33	0	238026752	74	4331
2026-01-02 00:38:10.93	25.30	14.84	-53.8	-55.7	15.8	0.00e+00	0	33	0	240123904	74	4320
2026-01-02 00:38:11.92	25.30	14.94	-53.8	-55.7	15.8	0.00e+00	0	33	0	242221056	74	4296
2026-01-02 00:38:12.92	25.31	15.05	-53.8	-55.7	15.8	0.00e+00	0	33	0	244318208	74	4339
2026-01-02 00:38:13.92	25.32	15.16	-53.8	-55.7	15.8	0.00e+00	0	33	0	245366784	74	4317
2026-01-02 00:38:14.92	25.33	15.26	-53.8	-55.7	15.8	0.00e+00	0	33	0	247463936	74	4320
2026-01-02 00:38:15.92	25.34	15.37	-53.8	-55.7	15.8	0.00e+00	0	33	0	249561088	74	4324
2026-01-02 00:38:16.91	25.35	15.48	-53.8	-55.7	15.8	0.00e+00	0	33	0	251658240	74	4302
2026-01-02 00:38:17.92	25.36	15.59	-53.7	-55.6	15.8	0.00e+00	0	33	0	252706816	74	4270
2026-01-02 00:38:18.91	25.37	15.70	-53.8	-55.7	15.8	0.00e+00	0	33	0	254803968	74	4304
2026-01-02 00:38:19.91	25.37	15.80	-53.8	-55.6	15.8	0.00e+00	0	33	0	256901120	74	4291
2026-01-02 00:38:20.92	25.38	15.92	-53.7	-55.6	15.9	0.00e+00	0	33	0	258998272	74	4254
2026-01-02 00:38:21.92	25.39	16.03	-53.7	-55.5	15.9	0.00e+00	0	33	0	261095424	73	4472
2026-01-02 00:38:22.92	25.40	16.14	-53.6	-55.5	15.9	0.00e+00	0	33	0	262144000	73	4451
2026-01-02 00:38:23.92	25.41	16.25	-53.7	-55.6	15.8	0.00e+00	0	33	0	264241152	73	4505
2026-01-02 00:38:24.92	25.42	16.36	-53.6	-55.5	15.9	0.00e+00	0	33	0	266338304	73	4460
2026-01-02 00:38:25.92	25.43	16.47	-53.6	-55.4	15.9	0.00e+00	0	33	0	268435456	73	4437
2026-01-02 00:38:26.92	25.44	16.59	-53.7	-55.6	15.8	0.00e+00	0	33	0	270532608	73	4519
2026-01-02 00:38:27.93	25.45	16.70	-53.7	-55.5	15.9	0.00e+00	0	33	0	271581184	73	4460
2026-01-02 00:38:28.93	25.46	16.82	-53.7	-55.5	15.9	0.00e+00	0	33	0	273678336	73	4475
2026-01-02 00:38:29.93	25.47	16.93	-53.7	-55.5	15.9	0.00e+00	0	33	0	275775488	73	4469
2026-01-02 00:38:30.93	25.48	17.05	-53.5	-55.3	16.0	0.00e+00	0	33	0	277872640	73	4352
2026-01-02 00:38:31.93	25.48	17.16	-53.6	-55.4	15.9	0.00e+00	0	33	0	279969792	73	4405
2026-01-02 00:38:32.93	25.49	17.28	-53.6	-55.4	15.9	0.00e+00	0	33	0	281018368	73	4414
2026-01-02 00:38:33.93	25.50	17.39	-53.6	-55.5	15.9	0.00e+00	0	33	0	283115520	73	4446
2026-01-02 00:38:34.93	25.51	17.51	-53.6	-55.5	15.9	0.00e+00	0	33	0	285212672	73	4446
2026-01-02 00:38:35.93	25.52	17.63	-53.6	-55.5	15.9	0.00e+00	0	33	0	287309824	73	4452
2026-01-02 00:38:36.93	25.53	17.75	-53.7	-55.5	15.9	0.00e+00	0	33	0	288358400	73	4468
2026-01-02 00:38:37.93	25.54	17.87	-53.5	-55.3	16.0	0.00e+00	0	33	0	290455552	73	4344
2026-01-02 00:38:38.93	25.55	17.99	-53.4	-55.2	16.0	0.00e+00	0	33	0	292552704	73	4302
2026-01-02 00:38:39.94	25.56	18.11	-53.3	-55.1	16.1	0.00e+00	0	33	0	294649856	73	4258
2026-01-02 00:38:40.93	25.57	18.23	-53.4	-55.2	16.1	0.00e+00	0	33	0	296747008	73	4303
2026-01-02 00:38:41.93	25.58	18.35	-53.5	-55.3	16.0	0.00e+00	0	33	0	297795584	73	4371
2026-01-02 00:38:42.92	25.59	18.47	-53.4	-55.2	16.0	0.00e+00	0	33	0	299892736	73	4299
2026-01-02 00:38:43.93	25.60	18.59	-53.3	-55.1	16.1	0.00e+00	0	33	0	301989888	73	4245
2026-01-02 00:38:44.93	25.61	18.72	-53.3	-55.1	16.1	0.00e+00	0	33	0	304087040	73	4257
2026-01-02 00:38:45.93	25.62	18.84	-53.4	-55.1	16.1	0.00e+00	0	33	0	306184192	73	4259
2026-01-02 00:38:46.92	25.63	18.97	-53.4	-55.1	16.1	0.00e+00	0	33	0	307232768	73	4263
2026-01-02 00:38:47.92	25.64	19.09	-53.4	-55.1	16.1	0.00e+00	0	33	0	309329920	73	4268
2026-01-02 00:38:48.92	25.65	19.22	-53.4	-55.1	16.1	0.00e+00	0	33	0	311427072	73	4275
2026-01-02 00:38:49.91	25.66	19.34	-53.4	-55.2	16.1	0.00e+00	0	33	0	313524224	73	4303
2026-01-02 00:38:50.90	25.67	19.47	-53.3	-55.0	16.1	0.00e+00	0	33	0	314572800	73	4240
2026-01-02 00:38:51.90	25.68	19.59	-53.5	-55.2	16.0	0.00e+00	0	33	0	316669952	73	4331
2026-01-02 00:38:52.90	25.69	19.72	-53.5	-55.2	16.0	0.00e+00	0	33	0	318767104	73	4335
2026-01-02 00:38:53.90	25.70	19.85	-53.4	-55.1	16.1	0.00e+00	0	33	0	320864256	73	4289
2026-01-02 00:38:54.91	25.71	19.98	-53.3	-55.0	16.1	0.00e+00	0	33	0	322961408	73	4240
2026-01-02 00:38:55.90	25.72	20.11	-53.4	-55.2	16.1	0.00e+00	0	33	0	324009984	73	4292
2026-01-02 00:38:56.90	25.73	20.24	-53.5	-55.2	16.1	0.00e+00	0	33	0	326107136	73	4308
2026-01-02 00:38:57.90	25.74	20.38	-53.4	-55.2	16.1	0.00e+00	0	33	0	328204288	73	4297
2026-01-02 00:38:58.90	25.75	20.51	-53.5	-55.3	16.0	0.00e+00	0	33	0	330301440	73	4343
2026-01-02 00:38:59.90	25.76	20.64	-53.5	-55.2	16.0	0.00e+00	0	33	0	331350016	73	4325
2026-01-02 00:39:00.90	25.77	20.78	-53.5	-55.2	16.0	0.00e+00	0	33	0	333447168	73	4339
2026-01-02 00:39:01.90	25.78	20.91	-53.6	-55.3	16.0	0.00e+00	0	33	0	335544320	73	4389
2026-01-02 00:39:02.90	25.79	21.05	-53.5	-55.3	16.0	0.00e+00	0	33	0	337641472	73	4365
2026-01-02 00:39:03.91	25.81	21.18	-53.5	-55.3	16.1	0.00e+00	0	33	0	339738624	73	4342
2026-01-02 00:39:04.91	25.82	21.32	-53.6	-55.3	16.0	0.00e+00	0	33	0	341835776	73	4380
2026-01-02 00:39:05.91	25.83	21.46	-53.6	-55.3	16.0	0.00e+00	0	33	0	342884352	73	4390
2026-01-02 00:39:06.91	25.84	21.60	-53.6	-55.3	16.0	0.00e+00	0	33	0	344981504	73	4383
2026-01-02 00:39:07.91	25.85	21.73	-53.6	-55.4	16.0	0.00e+00	0	33	0	347078656	73	4399
2026-01-02 00:39:08.91	25.86	21.87	-53.6	-55.4	16.0	0.00e+00	0	33	0	349175808	73	4399
2026-01-02 00:39:09.92	25.87	22.02	-53.7	-55.4	16.0	0.00e+00	0	33	0	350224384	73	4438
2026-01-02 00:39:10.92	25.88	22.16	-53.5	-55.3	16.0	0.00e+00	0	33	0	352321536	73	4346
2026-01-02 00:39:11.92	25.89	22.30	-53.6	-55.3	16.0	0.00e+00	0	33	0	354418688	73	4389
2026-01-02 00:39:12.92	25.91	22.44	-53.6	-55.4	16.0	0.00e+00	0	33	0	356515840	73	4407
2026-01-02 00:39:13.92	25.92	22.59	-53.6	-55.3	16.0	0.00e+00	0	33	0	358612992	73	4378
2026-01-02 00:39:14.92	25.93	22.73	-53.7	-55.5	16.0	0.00e+00	0	33	0	359661568	73	4452
2026-01-02 00:39:15.92	25.94	22.88	-53.6	-55.4	16.0	0.00e+00	0	33	0	361758720	73	4430
2026-01-02 00:39:16.92	25.95	23.02	-53.7	-55.5	16.0	0.00e+00	0	33	0	363855872	73	4457
2026-01-02 00:39:17.92	25.96	23.17	-53.7	-55.5	16.0	0.00e+00	0	33	0	365953024	73	4454
2026-01-02 00:39:18.92	25.98	23.32	-53.7	-55.5	16.0	0.00e+00	0	33	0	368050176	73	4483
2026-01-02 00:39:19.91	25.99	23.47	-53.7	-55.4	16.0	0.00e+00	0	33	0	369098752	73	4441
2026-01-02 00:39:20.91	26.00	23.62	-53.8	-55.6	15.9	0.00e+00	0	33	0	371195904	73	4528
2026-01-02 00:39:21.91	26.01	23.77	-53.8	-55.6	15.9	0.00e+00	0	33	0	373293056	73	4529
2026-01-02 00:39:22.90	26.02	23.92	-53.9	-55.7	15.8	0.00e+00	0	33	0	375390208	73	4584
2026-01-02 00:39:23.90	26.04	24.07	-53.9	-55.7	15.9	0.00e+00	0	33	0	376438784	73	4581
2026-01-02 00:39:24.91	26.05	24.22	-53.8	-55.7	15.9	0.00e+00	0	33	0	378535936	73	4555
2026-01-02 00:39:25.91	26.06	24.38	-53.9	-55.7	15.9	0.00e+00	0	33	0	380633088	73	4565
2026-01-02 00:39:26.91	26.07	24.53	-53.9	-55.7	15.9	0.00e+00	0	33	0	382730240	73	4577
2026-01-02 00:39:27.91	26.09	24.69	-54.0	-55.8	15.9	0.00e+00	0	33	0	384827392	73	4620
2026-01-02 00:39:28.91	26.10	24.85	-53.9	-55.7	15.9	0.00e+00	0	33	0	385875968	73	4589
2026-01-02 00:39:29.90	26.11	25.00	-54.0	-55.9	15.8	0.00e+00	0	33	0	387973120	73	4673
2026-01-02 00:39:30.90	26.12	25.16	-54.1	-55.9	15.8	0.00e+00	0	33	0	390070272	73	4689
2026-01-02 00:39:31.90	26.14	25.32	-54.1	-56.0	15.7	0.00e+00	0	33	0	392167424	73	4715
2026-01-02 00:39:32.89	26.15	25.48	-54.2	-56.1	15.7	0.00e+00	0	33	0	394264576	73	4771
2026-01-02 00:39:33.89	26.16	25.64	-54.2	-56.1	15.7	0.00e+00	0	33	0	395313152	73	4767
2026-01-02 00:39:34.89	26.18	25.80	-54.2	-56.1	15.7	0.00e+00	0	33	0	397410304	73	4794
2026-01-02 00:39:35.88	26.19	25.97	-54.3	-56.2	15.7	0.00e+00	0	33	0	399507456	73	4828
2026-01-02 00:39:36.88	26.20	26.13	-54.2	-56.1	15.8	0.00e+00	0	33	0	401604608	73	4763
2026-01-02 00:39:37.88	26.21	26.30	-54.3	-56.3	15.7	0.00e+00	0	33	0	402653184	73	4876
2026-01-02 00:39:38.87	26.23	26.46	-54.4	-56.4	15.6	0.00e+00	0	33	0	404750336	74	4665
2026-01-02 00:39:39.87	26.24	26.63	-54.5	-56.5	15.6	0.00e+00	0	33	0	406847488	74	4727
2026-01-02 00:39:40.87	26.26	26.80	-54.7	-56.7	15.5	0.00e+00	0	33	0	408944640	74	4849
2026-01-02 00:39:41.86	26.27	26.97	-54.7	-56.8	15.5	0.00e+00	0	33	0	411041792	74	4883
2026-01-02 00:39:42.86	26.28	27.14	-54.8	-56.9	15.4	0.00e+00	0	33	0	412090368	74	4927
2026-01-02 00:39:43.86	26.30	27.31	-54.8	-56.9	15.4	0.00e+00	0	33	0	414187520	74	4937
2026-01-02 00:39:44.86	26.31	27.48	-54.7	-56.8	15.5	0.00e+00	0	33	0	416284672	74	4895
2026-01-02 00:39:45.86	26.33	27.66	-54.9	-57.0	15.4	0.00e+00	0	33	0	418381824	74	4985
2026-01-02 00:39:46.86	26.34	27.83	-55.0	-57.1	15.4	0.00e+00	0	33	0	420478976	75	4781
2026-01-02 00:39:47.86	26.35	28.01	-55.0	-57.1	15.3	0.00e+00	0	33	0	421527552	75	4795
2026-01-02 00:39:48.86	26.37	28.19	-55.1	-57.3	15.3	0.00e+00	0	33	0	423624704	75	4883
2026-01-02 00:39:49.86	26.38	28.37	-55.3	-57.5	15.1	0.00e+00	0	33	0	425721856	75	5007
2026-01-02 00:39:50.86	26.40	28.55	-55.3	-57.5	15.1	0.00e+00	0	33	0	427819008	75	4998
2026-01-02 00:39:51.86	26.41	28.73	-55.2	-57.4	15.2	0.00e+00	0	33	0	428867584	75	4979
2026-01-02 00:39:52.86	26.43	28.91	-55.4	-57.6	15.1	0.00e+00	0	33	0	430964736	75	5098
2026-01-02 00:39:53.86	26.44	29.09	-55.4	-57.7	15.1	0.00e+00	0	33	0	433061888	76	4845
2026-01-02 00:39:54.86	26.46	29.28	-55.5	-57.8	15.0	0.00e+00	0	33	0	435159040	76	4876
2026-01-02 00:39:55.85	26.47	29.46	-55.6	-58.0	15.0	0.00e+00	0	33	0	437256192	76	5003
2026-01-02 00:39:56.85	26.49	29.65	-55.6	-57.9	15.0	0.00e+00	0	33	0	438304768	76	4962
2026-01-02 00:39:57.85	26.50	29.84	-55.9	-58.3	14.8	0.00e+00	0	33	0	440401920	76	5168
2026-01-02 00:39:58.85	26.52	30.03	-55.9	-58.3	14.8	0.00e+00	0	33	0	442499072	77	4921
2026-01-02 00:39:59.86	26.54	30.22	-55.9	-58.4	14.8	0.00e+00	0	33	0	444596224	77	4936
2026-01-02 00:40:00.86	26.55	30.41	-55.9	-58.3	14.8	0.00e+00	0	33	0	446693376	77	4925
2026-01-02 00:40:01.86	26.57	30.60	-55.9	-58.3	14.8	0.00e+00	0	33	0	447741952	77	4897
2026-01-02 00:40:02.86	26.59	30.80	-55.9	-58.4	14.8	0.00e+00	0	33	0	449839104	77	4933
2026-01-02 00:40:03.85	26.60	30.99	-56.0	-58.4	14.7	0.00e+00	0	33	0	451936256	77	4983
2026-01-02 00:40:04.85	26.62	31.19	-56.0	-58.5	14.7	0.00e+00	0	33	0	454033408	77	4994
2026-01-02 00:40:05.85	26.63	31.39	-55.9	-58.3	14.8	0.00e+00	0	33	0	455081984	77	4908
2026-01-02 00:40:06.85	26.65	31.59	-56.0	-58.5	14.7	0.00e+00	0	33	0	457179136	77	5002
2026-01-02 00:40:07.86	26.67	31.79	-56.2	-58.7	14.6	0.00e+00	0	33	0	459276288	77	5132
2026-01-02 00:40:08.86	26.69	32.00	-56.2	-58.7	14.6	0.00e+00	0	33	0	461373440	77	5158
2026-01-02 00:40:09.86	26.70	32.20	-56.1	-58.6	14.6	0.00e+00	0	33	0	463470592	77	5099
2026-01-02 00:40:10.86	26.72	32.41	-56.1	-58.5	14.7	0.00e+00	0	33	0	464519168	77	5028
2026-01-02 00:40:11.85	26.74	32.61	-56.0	-58.4	14.8	0.00e+00	0	33	0	466616320	77	4952
2026-01-02 00:40:12.85	26.76	32.82	-56.0	-58.4	14.8	0.00e+00	0	33	0	468713472	77	4930
2026-01-02 00:40:13.85	26.78	33.03	-55.7	-58.0	15.0	0.00e+00	0	33	0	470810624	77	4710
2026-01-02 00:40:14.84	26.79	33.24	-55.8	-58.1	15.0	0.00e+00	0	33	0	472907776	77	4773
2026-01-02 00:40:15.84	26.81	33.45	-55.7	-58.0	15.0	0.00e+00	0	33	0	473956352	77	4755
2026-01-02 00:40:16.84	26.83	33.67	-55.5	-57.7	15.2	0.00e+00	0	33	0	476053504	77	4585
2026-01-02 00:40:17.84	26.85	33.88	-55.5	-57.7	15.2	0.00e+00	0	33	0	478150656	77	4573
2026-01-02 00:40:18.83	26.87	34.10	-55.5	-57.7	15.2	0.00e+00	0	33	0	480247808	77	4576
2026-01-02 00:40:19.83	26.89	34.32	-55.0	-57.1	15.5	0.00e+00	0	33	0	481296384	76	4515
2026-01-02 00:40:20.83	26.91	34.54	-54.9	-56.9	15.6	0.00e+00	0	33	0	483393536	76	4420
2026-01-02 00:40:21.83	26.93	34.76	-54.8	-56.8	15.6	0.00e+00	0	33	0	485490688	76	4370
2026-01-02 00:40:22.82	26.95	34.98	-54.5	-56.4	15.8	0.00e+00	0	33	0	487587840	75	4416
2026-01-02 00:40:23.82	26.97	35.20	-54.5	-56.4	15.8	0.00e+00	0	33	0	489684992	75	4404
2026-01-02 00:40:24.83	26.99	35.43	-54.6	-56.5	15.7	0.00e+00	0	33	0	490733568	75	4482
2026-01-02 00:40:25.82	27.01	35.66	-54.5	-56.4	15.8	0.00e+00	0	33	0	492830720	75	4394
2026-01-02 00:40:26.82	27.03	35.89	-54.1	-55.9	16.0	0.00e+00	0	33	0	494927872	74	4417
2026-01-02 00:40:27.82	27.05	36.12	-53.9	-55.6	16.1	0.00e+00	0	33	0	497025024	74	4264
2026-01-02 00:40:28.82	27.07	36.36	-53.8	-55.5	16.1	0.00e+00	0	33	0	499122176	74	4234
2026-01-02 00:40:29.81	27.09	36.59	-53.9	-55.6	16.1	0.00e+00	0	33	0	500170752	74	4279
2026-01-02 00:40:30.81	27.11	36.83	-53.4	-55.1	16.3	0.00e+00	0	33	0	502267904	73	4257
2026-01-02 00:40:31.81	27.14	37.06	-53.5	-55.1	16.3	0.00e+00	0	33	0	504365056	73	4279
2026-01-02 00:40:32.81	27.16	37.30	-53.1	-54.7	16.4	0.00e+00	0	33	0	506462208	72	4303
2026-01-02 00:40:33.81	27.18	37.55	-52.8	-54.3	16.6	0.00e+00	0	33	0	507510784	72	4118
2026-01-02 00:40:34.81	27.20	37.79	-52.9	-54.4	16.5	0.00e+00	0	33	0	509607936	72	4170
2026-01-02 00:40:35.80	27.23	38.03	-52.6	-54.1	16.5	0.00e+00	0	33	0	511705088	71	4281
2026-01-02 00:40:36.80	27.25	38.28	-52.7	-54.2	16.5	0.00e+00	0	33	0	513802240	71	4324
2026-01-02 00:40:37.80	27.27	38.53	-52.7	-54.3	16.6	0.00e+00	0	33	0	515899392	71	4341
2026-01-02 00:40:38.80	27.30	38.78	-52.8	-54.3	16.5	0.00e+00	0	33	0	516947968	71	4354
2026-01-02 00:40:39.80	27.32	39.03	-52.9	-54.4	16.4	0.00e+00	0	33	0	519045120	71	4439
2026-01-02 00:40:40.79	27.35	39.29	-53.0	-54.5	16.5	0.00e+00	0	33	0	521142272	71	4476
2026-01-02 00:40:41.79	27.37	39.54	-53.1	-54.7	16.4	0.00e+00	0	33	0	523239424	71	4572
2026-01-02 00:40:42.78	27.40	39.80	-53.2	-54.8	16.3	0.00e+00	0	33	0	525336576	71	4610
2026-01-02 00:40:43.77	27.42	40.06	-53.2	-54.8	16.3	0.00e+00	0	33	0	526385152	71	4610
2026-01-02 00:40:44.77	27.45	40.32	-53.1	-54.7	16.4	0.00e+00	0	33	0	528482304	71	4561
2026-01-02 00:40:45.76	27.47	40.58	-53.1	-54.6	16.4	0.00e+00	0	33	0	530579456	71	4541
2026-01-02 00:40:46.76	27.50	40.85	-53.0	-54.6	16.4	0.00e+00	0	33	0	532676608	71	4506
2026-01-02 00:40:47.75	27.53	41.11	-53.0	-54.6	16.4	0.00e+00	0	33	0	533725184	71	4526
2026-01-02 00:40:48.74	27.56	41.38	-53.2	-54.8	16.3	0.00e+00	0	33	0	535822336	71	4638
2026-01-02 00:40:49.74	27.58	41.65	-53.4	-55.0	16.3	0.00e+00	0	33	0	537919488	71	4734
2026-01-02 00:40:50.74	27.61	41.93	-53.8	-55.5	16.1	0.00e+00	0	33	0	540016640	72	4735
2026-01-02 00:40:51.73	27.64	42.20	-53.9	-55.6	16.1	0.00e+00	0	33	0	542113792	73	4530
2026-01-02 00:40:52.72	27.67	42.48	-53.9	-55.7	16.1	0.00e+00	0	33	0	543162368	73	4548
2026-01-02 00:40:53.73	27.70	42.76	-54.0	-55.8	16.0	0.00e+00	0	33	0	545259520	73	4601
2026-01-02 00:40:54.73	27.73	43.04	-54.2	-56.0	15.9	0.00e+00	0	33	0	547356672	73	4725
2026-01-02 00:40:55.73	27.76	43.33	-53.9	-55.6	16.1	0.00e+00	0	33	0	549453824	73	4522
2026-01-02 00:40:56.72	27.79	43.61	-53.6	-55.3	16.2	0.00e+00	0	33	0	550502400	73	4387
2026-01-02 00:40:57.72	27.82	43.90	-53.7	-55.4	16.1	0.00e+00	0	33	0	552599552	73	4426
2026-01-02 00:40:58.72	27.85	44.19	-53.8	-55.5	16.1	0.00e+00	0	33	0	554696704	73	4465
2026-01-02 00:40:59.71	27.89	44.48	-54.0	-55.7	16.0	0.00e+00	0	33	0	556793856	73	4595
2026-01-02 00:41:00.71	27.92	44.78	-54.3	-56.2	15.8	0.00e+00	0	33	0	558891008	73	4836
2026-01-02 00:41:01.71	27.95	45.08	-54.6	-56.6	15.7	0.00e+00	0	33	0	559939584	74	4773
2026-01-02 00:41:02.71	27.99	45.38	-55.1	-57.1	15.5	0.00e+00	0	33	0	562036736	75	4790
2026-01-02 00:41:03.71	28.02	45.68	-55.6	-57.8	15.2	0.00e+00	0	33	0	564133888	76	4887
2026-01-02 00:41:04.71	28.06	45.99	-55.8	-58.1	15.1	0.00e+00	0	33	0	566231040	76	5066
2026-01-02 00:41:05.71	28.09	46.29	-56.0	-58.4	14.9	0.00e+00	0	33	0	568328192	77	4966
2026-01-02 00:41:06.72	28.13	46.61	-56.2	-58.6	14.8	0.00e+00	0	33	0	569376768	77	5094
2026-01-02 00:41:07.73	28.17	46.92	-56.3	-58.8	14.7	0.00e+00	0	33	0	571473920	77	5201
2026-01-02 00:41:08.72	28.20	47.23	-56.1	-58.4	14.9	0.00e+00	0	33	0	573571072	77	4978
2026-01-02 00:41:09.72	28.24	47.55	-55.9	-58.2	15.1	0.00e+00	0	33	0	575668224	77	4816
2026-01-02 00:41:10.72	28.28	47.87	-55.7	-57.9	15.2	0.00e+00	0	33	0	576716800	77	4660
2026-01-02 00:41:11.72	28.32	48.19	-55.7	-58.0	15.2	0.00e+00	0	33	0	578813952	77	4722
2026-01-02 00:41:12.71	28.36	48.51	-55.8	-58.1	15.1	0.00e+00	0	33	0	580911104	77	4781
2026-01-02 00:41:13.71	28.40	48.83	-56.0	-58.3	15.0	0.00e+00	0	33	0	583008256	77	4894
2026-01-02 00:41:14.72	28.45	49.16	-56.0	-58.4	14.9	0.00e+00	0	33	0	585105408	77	4934
2026-01-02 00:41:15.72	28.49	49.50	-56.0	-58.4	14.9	0.00e+00	0	33	0	586153984	77	4944
2026-01-02 00:41:16.71	28.53	49.83	-56.2	-58.6	14.8	0.00e+00	0	33	0	588251136	77	5098
2026-01-02 00:41:17.72	28.58	50.16	-56.2	-58.6	14.8	0.00e+00	0	33	0	590348288	77	5091
2026-01-02 00:41:18.72	28.62	50.50	-55.5	-57.7	15.3	0.00e+00	0	33	0	592445440	77	4572
2026-01-02 00:41:19.71	28.67	50.84	-54.8	-56.7	15.7	0.00e+00	0	33	0	594542592	76	4325
2026-01-02 00:41:20.72	28.72	51.19	-54.4	-56.2	16.0	0.00e+00	0	33	0	595591168	75	4295
2026-01-02 00:41:21.72	28.77	51.53	-54.0	-55.7	16.1	0.00e+00	0	33	0	597688320	74	4305
2026-01-02 00:41:22.72	28.82	51.88	-53.6	-55.3	16.2	0.00e+00	0	33	0	599785472	73	4341
2026-01-02 00:41:23.72	28.87	52.23	-53.2	-54.7	16.5	0.00e+00	0	33	0	601882624	73	4091
2026-01-02 00:41:24.72	28.92	52.58	-52.7	-54.2	16.6	0.00e+00	0	33	0	603979776	72	4053
2026-01-02 00:41:25.72	28.97	52.94	-52.9	-54.4	16.6	0.00e+00	0	33	0	605028352	71	4393
2026-01-02 00:41:26.72	29.03	53.30	-52.5	-54.0	16.7	0.00e+00	0	33	0	607125504	71	4218
2026-01-02 00:41:27.71	29.08	53.65	-52.5	-53.9	16.7	0.00e+00	0	33	0	609222656	71	4189
2026-01-02 00:41:28.71	29.14	54.02	-52.4	-53.9	16.7	0.00e+00	0	33	0	611319808	71	4152
2026-01-02 00:41:29.71	29.20	54.38	-52.4	-53.8	16.8	0.00e+00	0	33	0	612368384	71	4110
2026-01-02 00:41:30.71	29.26	54.75	-52.6	-54.1	16.6	0.00e+00	0	33	0	614465536	71	4273
2026-01-02 00:41:31.71	29.32	55.12	-53.0	-54.5	16.6	0.00e+00	0	33	0	616562688	71	4459
2026-01-02 00:41:32.72	29.38	55.50	-53.2	-54.8	16.4	0.00e+00	0	33	0	618659840	71	4615
2026-01-02 00:41:33.72	29.45	55.88	-53.2	-54.8	16.4	0.00e+00	0	33	0	620756992	71	4621
2026-01-02 00:41:34.71	29.51	56.25	-53.4	-55.0	16.3	0.00e+00	0	33	0	621805568	71	4711
2026-01-02 00:41:35.71	29.58	56.63	-53.4	-55.0	16.4	0.00e+00	0	33	0	623902720	72	4471
2026-01-02 00:41:36.71	29.65	57.02	-53.3	-54.8	16.4	0.00e+00	0	33	0	625999872	72	4388
2026-01-02 00:41:37.70	29.72	57.40	-53.4	-55.0	16.4	0.00e+00	0	33	0	628097024	72	4483
2026-01-02 00:41:38.70	29.79	57.79	-53.6	-55.3	16.1	0.00e+00	0	33	0	629145600	72	4614
2026-01-02 00:41:39.70	29.87	58.18	-53.8	-55.4	16.2	0.00e+00	0	33	0	631242752	72	4694
2026-01-02 00:41:40.69	29.94	58.57	-53.7	-55.3	16.2	0.00e+00	0	33	0	633339904	72	4605
2026-01-02 00:41:41.69	30.02	58.97	-53.5	-55.1	16.3	0.00e+00	0	33	0	635437056	72	4496
2026-01-02 00:41:42.69	30.11	59.37	-53.2	-54.7	16.5	0.00e+00	0	33	0	637534208	72	4326
2026-01-02 00:41:43.68	30.19	59.77	-53.0	-54.6	16.5	0.00e+00	0	33	0	638582784	72	4260
2026-01-02 00:41:44.67	30.27	60.17	-52.9	-54.4	16.6	0.00e+00	0	33	0	640679936	72	4185
2026-01-02 00:41:45.67	30.36	60.57	-52.5	-53.9	16.7	0.00e+00	0	33	0	642777088	71	4191
2026-01-02 00:41:46.66	30.46	60.98	-51.9	-53.3	16.9	0.00e+00	0	33	0	644874240	70	4108
2026-01-02 00:41:47.66	30.55	61.39	-51.7	-53.1	16.9	0.00e+00	0	33	0	646971392	70	4015
2026-01-02 00:41:48.66	30.65	61.81	-51.6	-52.9	16.9	0.00e+00	0	33	0	648019968	69	4161
2026-01-02 00:41:49.66	30.75	62.22	-51.3	-52.6	17.0	0.00e+00	0	33	0	650117120	69	4047
2026-01-02 00:41:50.65	30.85	62.64	-50.8	-52.1	17.1	0.00e+00	0	33	0	652214272	68	4020
2026-01-02 00:41:51.65	30.96	63.06	-50.9	-52.2	17.1	0.00e+00	0	33	0	654311424	68	4076
2026-01-02 00:41:52.65	31.07	63.49	-51.3	-52.6	17.0	0.00e+00	0	33	0	655360000	68	4261
2026-01-02 00:41:53.64	31.19	63.91	-51.9	-53.3	16.8	0.00e+00	0	33	0	657457152	68	4599
2026-01-02 00:41:54.64	31.31	64.34	-52.6	-54.1	16.7	0.00e+00	0	33	0	659554304	70	4521
2026-01-02 00:41:55.64	31.44	64.77	-53.3	-54.9	16.4	0.00e+00	0	33	0	661651456	71	4690
2026-01-02 00:41:56.64	31.56	65.21	-54.1	-55.8	16.1	0.00e+00	0	33	0	663748608	73	4637
2026-01-02 00:41:57.64	31.70	65.64	-54.9	-56.8	15.7	0.00e+00	0	33	0	664797184	74	4911
2026-01-02 00:41:58.64	31.84	66.08	-55.4	-57.4	15.5	0.00e+00	0	33	0	666894336	75	4976
2026-01-02 00:41:59.63	31.98	66.52	-54.9	-56.9	15.7	0.00e+00	0	33	0	668991488	75	4654
2026-01-02 00:42:00.64	32.14	66.97	-54.6	-56.4	15.9	0.00e+00	0	33	0	671088640	75	4429
2026-01-02 00:42:01.64	32.29	67.41	-54.4	-56.2	16.0	0.00e+00	0	33	0	672137216	75	4303
2026-01-02 00:42:02.63	32.46	67.86	-54.4	-56.2	16.0	0.00e+00	0	33	0	674234368	75	4317
2026-01-02 00:42:03.63	32.63	68.31	-54.5	-56.3	16.0	0.00e+00	0	33	0	676331520	75	4379
2026-01-02 00:42:04.63	32.81	68.76	-54.4	-56.1	16.1	0.00e+00	0	33	0	678428672	75	4275
2026-01-02 00:42:05.62	32.99	69.21	-54.4	-56.1	16.1	0.00e+00	0	33	0	680525824	75	4268
2026-01-02 00:42:06.62	33.19	69.67	-54.4	-56.2	16.1	0.00e+00	0	33	0	681574400	75	4304
2026-01-02 00:42:07.61	33.40	70.12	-54.1	-55.8	16.2	0.00e+00	0	33	0	683671552	74	4341
2026-01-02 00:42:08.62	33.61	70.58	-53.9	-55.5	16.3	0.00e+00	0	33	0	685768704	74	4225
2026-01-02 00:42:09.61	33.84	71.04	-54.0	-55.7	16.3	0.00e+00	0	33	0	687865856	74	4312
2026-01-02 00:42:10.62	34.08	71.51	-54.4	-56.2	16.1	0.00e+00	0	33	0	689963008	74	4554
2026-01-02 00:42:11.61	34.33	71.97	-54.7	-56.6	15.9	0.00e+00	0	33	0	691011584	74	4769
2026-01-02 00:42:12.61	34.60	72.44	-54.8	-56.7	15.8	0.00e+00	0	33	0	693108736	74	4836
2026-01-02 00:42:13.62	34.88	72.91	-54.7	-56.5	15.9	0.00e+00	0	33	0	695205888	74	4743
2026-01-02 00:42:14.62	35.18	73.38	-54.9	-56.7	15.8	0.00e+00	0	33	0	697303040	74	4869
2026-01-02 00:42:15.62	35.50	73.86	-55.2	-57.2	15.6	0.00e+00	0	33	0	699400192	75	4841
2026-01-02 00:42:16.62	35.83	74.33	-56.1	-58.3	15.2	0.00e+00	0	33	0	700448768	77	4913
2026-01-02 00:42:17.62	36.19	74.80	-56.3	-58.6	15.0	0.00e+00	0	33	0	702545920	77	5043
2026-01-02 00:42:18.62	36.57	75.28	-56.0	-58.3	15.2	0.00e+00	0	33	0	704643072	77	4874
2026-01-02 00:42:19.61	36.97	75.75	-55.2	-57.2	15.7	0.00e+00	0	33	0	706740224	77	4296
2026-01-02 00:42:20.61	37.41	76.23	-54.4	-56.2	16.1	0.00e+00	0	33	0	707788800	75	4306
2026-01-02 00:42:21.61	37.88	76.71	-53.7	-55.2	16.4	0.00e+00	0	33	0	709885952	73	4328
2026-01-02 00:42:22.61	38.38	77.19	-53.7	-55.2	16.4	0.00e+00	0	33	0	711983104	73	4338
2026-01-02 00:42:23.61	38.92	77.67	-54.0	-55.6	16.3	0.00e+00	0	33	0	714080256	73	4524
2026-01-02 00:42:24.61	39.51	78.15	-54.0	-55.7	16.2	0.00e+00	0	33	0	716177408	73	4580
2026-01-02 00:42:25.61	40.15	78.63	-53.8	-55.4	16.3	0.00e+00	0	33	0	717225984	73	4402
2026-01-02 00:42:26.61	40.85	79.11	-53.4	-54.9	16.5	0.00e+00	0	33	0	719323136	73	4176
2026-01-02 00:42:27.60	41.60	79.59	-53.4	-54.9	16.5	0.00e+00	0	33	0	721420288	73	4175
2026-01-02 00:42:28.60	42.44	80.06	-53.5	-55.1	16.4	0.00e+00	0	33	0	723517440	73	4273
2026-01-02 00:42:29.60	43.36	80.54	-53.5	-55.0	16.5	0.00e+00	0	33	0	724566016	73	4228
2026-01-02 00:42:30.60	44.38	81.02	-53.5	-55.1	16.4	0.00e+00	0	33	0	726663168	73	4259
2026-01-02 00:42:31.60	45.52	81.49	-54.6	-56.4	16.0	0.00e+00	0	33	0	728760320	74	4703
2026-01-02 00:42:32.60	46.79	81.96	-56.6	-59.0	14.9	0.00e+00	0	33	0	730857472	78	5034
2026-01-02 00:42:33.60	48.22	82.43	-57.6	-60.5	13.9	0.00e+00	0	33	0	732954624	80	5333
2026-01-02 00:42:34.59	49.83	82.89	-57.2	-59.8	14.3	0.00e+00	0	33	0	734003200	80	4923
2026-01-02 00:42:35.59	51.67	83.35	-56.6	-59.0	14.8	0.00e+00	0	33	0	736100352	79	4736
2026-01-02 00:42:36.59	53.79	83.80	-55.5	-57.5	15.6	0.00e+00	0	33	0	738197504	77	4447
2026-01-02 00:42:37.58	56.21	84.24	-54.7	-56.5	16.0	0.00e+00	0	33	0	740294656	76	4221
2026-01-02 00:42:38.58	59.05	84.67	-54.3	-56.0	16.1	0.00e+00	0	33	0	742391808	75	4222
2026-01-02 00:42:39.58	62.39	85.09	-53.5	-55.1	16.4	0.00e+00	0	33	0	743440384	73	4257
2026-01-02 00:42:40.58	66.33	85.48	-53.3	-54.8	16.6	0.00e+00	0	33	0	745537536	73	4132
2026-01-02 00:42:41.57	70.96	85.85	-54.0	-55.7	16.2	0.00e+00	0	33	0	747634688	73	4568
2026-01-02 00:42:42.57	76.50	86.19	-54.7	-56.5	15.9	0.00e+00	0	33	0	749731840	74	4707
2026-01-02 00:42:43.57	83.06	86.49	-55.0	-56.9	15.7	0.00e+00	0	33	0	751828992	75	4672
2026-01-02 00:42:44.56	90.62	86.73	-55.7	-57.8	15.4	0.00e+00	0	33	0	752877568	76	4906
2026-01-02 00:42:45.55	99.22	86.91	-55.6	-57.7	15.5	0.00e+00	0	33	0	754974720	76	4827
2026-01-02 00:42:46.55	108.73	87.01	-55.4	-57.4	15.6	0.00e+00	0	33	0	757071872	76	4674
2026-01-02 00:42:47.55	118.60	87.02	-55.0	-56.8	15.9	0.00e+00	0	33	0	759169024	76	4367
2026-01-02 00:42:48.55	128.27	86.95	-54.6	-56.4	16.0	0.00e+00	0	33	0	760217600	75	4395
2026-01-02 00:42:49.55	137.25	86.79	-54.1	-55.8	16.2	0.00e+00	0	33	0	762314752	74	4351
2026-01-02 00:42:50.55	145.23	86.57	-54.6	-56.4	15.9	0.00e+00	0	33	0	764411904	74	4697
2026-01-02 00:42:51.55	152.11	86.28	-55.0	-56.9	15.8	0.00e+00	0	33	0	766509056	75	4682
2026-01-02 00:42:52.55	157.95	85.96	-54.4	-56.1	16.1	0.00e+00	0	33	0	768606208	75	4272
2026-01-02 00:42:53.55	162.87	85.59	-54.3	-56.1	16.1	0.00e+00	0	33	0	769654784	75	4246
2026-01-02 00:42:54.56	167.04	85.20	-54.2	-55.9	16.2	0.00e+00	0	33	0	771751936	75	4160
2026-01-02 00:42:55.56	170.54	84.79	-53.5	-55.1	16.5	0.00e+00	0	33	0	773849088	73	4260
2026-01-02 00:42:56.56	173.51	84.36	-53.3	-54.8	16.5	0.00e+00	0	33	0	775946240	72	4386
2026-01-02 00:42:57.56	176.06	83.92	-54.5	-56.3	16.1	0.00e+00	0	33	0	778043392	74	4607
2026-01-02 00:42:58.56	178.26	83.47	-55.9	-58.0	15.3	0.00e+00	0	33	0	779091968	76	5022
2026-01-02 00:42:59.57	180.19	83.01	-57.1	-59.7	14.5	0.00e+00	0	33	0	781189120	79	5147
2026-01-02 00:43:00.57	181.87	82.55	-57.7	-60.8	13.7	0.00e+00	0	33	0	783286272	80	5490
2026-01-02 00:43:01.57	183.34	82.08	-57.2	-59.9	14.3	0.00e+00	0	33	0	785383424	80	4931
2026-01-02 00:43:02.57	184.65	81.61	-56.6	-59.0	14.9	0.00e+00	0	33	0	786432000	79	4716
2026-01-02 00:43:03.58	185.83	81.13	-55.5	-57.5	15.6	0.00e+00	0	33	0	788529152	77	4485
2026-01-02 00:43:04.57	186.87	80.66	-54.6	-56.3	16.0	0.00e+00	0	33	0	790626304	75	4385
2026-01-02 00:43:05.58	187.82	80.18	-53.8	-55.4	16.4	0.00e+00	0	33	0	792723456	74	4155
2026-01-02 00:43:06.58	188.68	79.70	-53.2	-54.7	16.6	0.00e+00	0	33	0	794820608	72	4297
2026-01-02 00:43:07.59	189.46	79.21	-53.9	-55.5	16.3	0.00e+00	0	33	0	795869184	72	4747
2026-01-02 00:43:08.59	190.18	78.73	-55.4	-57.4	15.6	0.00e+00	0	33	0	797966336	75	4964
2026-01-02 00:43:09.58	190.82	78.26	-55.7	-57.8	15.4	0.00e+00	0	33	0	800063488	76	4888
2026-01-02 00:43:10.58	191.42	77.77	-56.3	-58.6	15.1	0.00e+00	0	33	0	802160640	78	4775
2026-01-02 00:43:11.58	191.97	77.29	-57.7	-60.7	14.0	0.00e+00	0	33	0	804257792	80	5414
2026-01-02 00:43:12.58	192.49	76.81	-57.8	-60.8	13.8	0.00e+00	0	33	0	805306368	81	5197
2026-01-02 00:43:13.58	192.96	76.33	-57.3	-60.1	14.2	0.00e+00	0	33	0	807403520	81	4770
2026-01-02 00:43:14.58	193.41	75.86	-56.6	-59.0	14.9	0.00e+00	0	33	0	809500672	79	4759
2026-01-02 00:43:15.58	193.82	75.38	-56.6	-58.9	14.9	0.00e+00	0	33	0	811597824	79	4705
2026-01-02 00:43:16.58	194.21	74.90	-57.1	-59.7	14.5	0.00e+00	0	33	0	813694976	79	5151
2026-01-02 00:43:17.58	194.57	74.43	-56.6	-59.1	14.8	0.00e+00	0	33	0	814743552	79	4782
2026-01-02 00:43:18.57	194.91	73.96	-54.8	-56.6	16.0	0.00e+00	0	33	0	816840704	76	4279
2026-01-02 00:43:19.57	195.23	73.48	-54.1	-55.8	16.3	0.00e+00	0	33	0	818937856	74	4344
2026-01-02 00:43:20.57	195.53	73.01	-53.9	-55.5	16.4	0.00e+00	0	33	0	821035008	74	4213
2026-01-02 00:43:21.57	195.81	72.54	-53.8	-55.5	16.4	0.00e+00	0	33	0	822083584	74	4199
2026-01-02 00:43:22.58	196.09	72.07	-53.8	-55.4	16.4	0.00e+00	0	33	0	824180736	74	4190
2026-01-02 00:43:23.57	196.34	71.61	-53.4	-54.9	16.5	0.00e+00	0	33	0	826277888	73	4183
2026-01-02 00:43:24.57	196.58	71.14	-53.4	-54.9	16.5	0.00e+00	0	33	0	828375040	73	4165
2026-01-02 00:43:25.56	196.81	70.68	-55.0	-56.9	15.7	0.00e+00	0	33	0	830472192	75	4661
2026-01-02 00:43:26.56	197.03	70.22	-56.4	-58.8	15.0	0.00e+00	0	33	0	831520768	78	4903
2026-01-02 00:43:27.56	197.24	69.76	-56.0	-58.2	15.3	0.00e+00	0	33	0	833617920	78	4568
2026-01-02 00:43:28.56	197.44	69.30	-55.9	-58.0	15.4	0.00e+00	0	33	0	835715072	78	4449
2026-01-02 00:43:29.56	197.62	68.85	-56.5	-58.9	14.9	0.00e+00	0	33	0	837812224	78	4941
2026-01-02 00:43:30.56	197.81	68.39	-58.4	-62.0	13.0	0.00e+00	0	33	0	839909376	81	5951
2026-01-02 00:43:31.56	197.98	67.94	-59.2	-63.5	11.9	2.74e-05	0	33	0	840957952	83	6341
2026-01-02 00:43:32.56	198.15	67.49	-58.3	-61.8	13.0	1.52e-05	0	33	0	843055104	83	5203
2026-01-02 00:43:33.56	198.31	67.05	-56.7	-59.2	14.7	0.00e+00	0	33	0	845152256	80	4546
2026-01-02 00:43:34.57	198.46	66.60	-56.0	-58.2	15.3	0.00e+00	0	33	0	847249408	78	4553
2026-01-02 00:43:35.57	198.61	66.15	-56.1	-58.3	15.3	0.00e+00	0	33	0	848297984	78	4611
2026-01-02 00:43:36.57	198.75	65.71	-56.4	-58.7	14.9	0.00e+00	0	33	0	850395136	78	4825
2026-01-02 00:43:37.57	198.88	65.28	-55.4	-57.4	15.6	0.00e+00	0	33	0	852492288	77	4424
2026-01-02 00:43:38.57	199.01	64.84	-54.0	-55.6	16.3	0.00e+00	0	33	0	854589440	74	4273
2026-01-02 00:43:39.56	199.14	64.41	-53.4	-54.9	16.5	0.00e+00	0	33	0	856686592	73	4186
2026-01-02 00:43:40.56	199.26	63.98	-53.3	-54.8	16.5	0.00e+00	0	33	0	857735168	72	4356
2026-01-02 00:43:41.54	199.37	63.56	-52.6	-54.0	16.7	0.00e+00	0	33	0	859832320	71	4216
2026-01-02 00:43:42.54	199.49	63.14	-52.3	-53.7	16.8	0.00e+00	0	33	0	861929472	71	4087
2026-01-02 00:43:43.54	199.60	62.71	-52.4	-53.8	16.8	0.00e+00	0	33	0	864026624	71	4134
2026-01-02 00:43:44.53	199.70	62.29	-52.1	-53.4	16.9	0.00e+00	0	33	0	865075200	70	4182
2026-01-02 00:43:45.53	199.80	61.88	-51.6	-52.9	17.0	0.00e+00	0	33	0	867172352	69	4185
2026-01-02 00:43:46.53	199.90	61.46	-51.8	-53.1	16.9	0.00e+00	0	33	0	869269504	69	4252
2026-01-02 00:43:47.53	200.00	61.05	-52.8	-54.3	16.6	0.00e+00	0	33	0	871366656	70	4627
2026-01-02 00:43:48.53	200.09	60.64	-54.0	-55.7	16.2	0.00e+00	0	33	0	873463808	73	4552
2026-01-02 00:43:49.52	200.18	60.23	-53.9	-55.6	16.2	0.00e+00	0	33	0	874512384	73	4501
2026-01-02 00:43:50.52	200.27	59.82	-53.9	-55.5	16.3	0.00e+00	0	33	0	876609536	73	4478
2026-01-02 00:43:51.52	200.35	59.42	-54.5	-56.2	16.1	0.00e+00	0	33	0	878706688	74	4569
2026-01-02 00:43:52.52	200.43	59.02	-55.4	-57.4	15.6	0.00e+00	0	33	0	880803840	75	4930
2026-01-02 00:43:53.51	200.51	58.63	-56.1	-58.4	15.2	0.00e+00	0	33	0	882900992	77	4928
2026-01-02 00:43:54.52	200.59	58.23	-56.7	-59.2	14.7	0.00e+00	0	33	0	883949568	78	5149
2026-01-02 00:43:55.51	200.67	57.84	-57.8	-61.0	13.6	0.00e+00	0	33	0	886046720	80	5615
2026-01-02 00:43:56.51	200.74	57.45	-57.9	-61.2	13.4	7.00e-07	0	33	0	888143872	81	5456
2026-01-02 00:43:57.50	200.81	57.06	-56.6	-59.1	14.7	0.00e+00	0	33	0	890241024	79	4766
2026-01-02 00:43:58.50	200.88	56.68	-54.9	-56.7	15.9	0.00e+00	0	33	0	891289600	76	4322
2026-01-02 00:43:59.50	200.95	56.29	-54.4	-56.1	16.1	0.00e+00	0	33	0	893386752	75	4277
2026-01-02 00:44:00.50	201.01	55.91	-54.3	-56.0	16.1	0.00e+00	0	33	0	895483904	75	4225
2026-01-02 00:44:01.50	201.08	55.54	-53.7	-55.3	16.4	0.00e+00	0	33	0	897581056	73	4341
2026-01-02 00:44:02.50	201.14	55.16	-53.5	-55.1	16.4	0.00e+00	0	33	0	899678208	73	4250
2026-01-02 00:44:03.50	201.20	54.79	-53.6	-55.3	16.4	0.00e+00	0	33	0	900726784	73	4341
2026-01-02 00:44:04.50	201.26	54.42	-54.1	-55.8	16.2	0.00e+00	0	33	0	902823936	73	4621
2026-01-02 00:44:05.49	201.32	54.06	-54.3	-56.1	16.0	0.00e+00	0	33	0	904921088	74	4536
2026-01-02 00:44:06.49	201.38	53.69	-53.6	-55.2	16.4	0.00e+00	0	33	0	907018240	73	4332
2026-01-02 00:44:07.49	201.43	53.33	-53.0	-54.5	16.6	0.00e+00	0	33	0	909115392	72	4194
2026-01-02 00:44:08.49	201.49	52.97	-53.0	-54.5	16.6	0.00e+00	0	33	0	910163968	72	4207
2026-01-02 00:44:09.49	201.54	52.61	-53.3	-54.9	16.5	0.00e+00	0	33	0	912261120	72	4399
2026-01-02 00:44:10.49	201.59	52.26	-54.5	-56.3	16.0	0.00e+00	0	33	0	914358272	74	4599
2026-01-02 00:44:11.49	201.64	51.91	-55.2	-57.2	15.6	0.00e+00	0	33	0	916455424	75	4867
2026-01-02 00:44:12.48	201.69	51.56	-55.7	-57.8	15.4	0.00e+00	0	33	0	917504000	76	4882
2026-01-02 00:44:13.49	201.74	51.21	-55.9	-58.1	15.2	0.00e+00	0	33	0	919601152	77	4777
2026-01-02 00:44:14.48	201.79	50.87	-55.9	-58.1	15.2	0.00e+00	0	33	0	921698304	77	4803
2026-01-02 00:44:15.48	201.84	50.53	-55.7	-57.9	15.3	0.00e+00	0	33	0	923795456	77	4659
2026-01-02 00:44:16.48	201.88	50.19	-55.7	-57.8	15.3	0.00e+00	0	33	0	925892608	77	4631
2026-01-02 00:44:17.48	201.93	49.85	-55.8	-58.0	15.3	0.00e+00	0	33	0	926941184	77	4713
2026-01-02 00:44:18.47	201.97	49.52	-56.4	-58.8	14.8	0.00e+00	0	33	0	929038336	77	5174
2026-01-02 00:44:19.47	202.01	49.19	-57.1	-59.8	14.2	0.00e+00	0	33	0	931135488	79	5218
2026-01-02 00:44:20.47	202.06	48.86	-58.4	-62.3	12.7	1.50e-06	0	33	0	933232640	81	6136
2026-01-02 00:44:21.47	202.10	48.53	-59.3	-64.5	10.7	5.31e-04	0	33	0	935329792	83	7064
2026-01-02 00:44:22.48	202.14	48.20	-57.7	-61.0	13.4	5.56e-05	0	33	0	936378368	82	4985
2026-01-02 00:44:23.48	202.18	47.88	-56.1	-58.3	15.1	0.00e+00	0	33	0	938475520	78	4631
2026-01-02 00:44:24.48	202.22	47.56	-55.2	-57.1	15.6	0.00e+00	0	33	0	940572672	76	4544
2026-01-02 00:44:25.48	202.26	47.24	-54.5	-56.3	16.0	0.00e+00	0	33	0	942669824	75	4359
2026-01-02 00:44:26.47	202.29	46.93	-54.4	-56.2	16.0	0.00e+00	0	33	0	944766976	75	4303
2026-01-02 00:44:27.48	202.33	46.61	-54.8	-56.7	15.8	0.00e+00	0	33	0	945815552	75	4579
2026-01-02 00:44:28.48	202.37	46.30	-55.4	-57.4	15.5	0.00e+00	0	33	0	947912704	75	4973
2026-01-02 00:44:29.48	202.40	46.00	-56.0	-58.2	15.1	0.00e+00	0	33	0	950009856	77	4863
2026-01-02 00:44:30.49	202.44	45.69	-55.8	-57.9	15.2	0.00e+00	0	33	0	952107008	77	4700
2026-01-02 00:44:31.48	202.47	45.39	-56.0	-58.3	15.1	0.00e+00	0	33	0	953155584	77	4924
2026-01-02 00:44:32.48	202.51	45.08	-55.6	-57.7	15.4	0.00e+00	0	33	0	955252736	77	4594
2026-01-02 00:44:33.48	202.54	44.79	-54.9	-56.8	15.8	0.00e+00	0	33	0	957349888	76	4370
2026-01-02 00:44:34.47	202.57	44.49	-54.1	-55.9	16.1	0.00e+00	0	33	0	959447040	74	4410
2026-01-02 00:44:35.47	202.61	44.20	-53.5	-55.1	16.4	0.00e+00	0	33	0	961544192	73	4257
2026-01-02 00:44:36.47	202.64	43.90	-52.7	-54.2	16.6	0.00e+00	0	33	0	962592768	72	4061
2026-01-02 00:44:37.47	202.67	43.61	-52.4	-53.8	16.8	0.00e+00	0	33	0	964689920	71	4104
2026-01-02 00:44:38.48	202.70	43.32	-52.6	-54.0	16.7	0.00e+00	0	33	0	966787072	71	4209
2026-01-02 00:44:39.47	202.73	43.04	-53.3	-54.9	16.5	0.00e+00	0	33	0	968884224	71	4687
2026-01-02 00:44:40.47	202.76	42.76	-54.2	-55.9	16.1	0.00e+00	0	33	0	970981376	73	4687
2026-01-02 00:44:41.47	202.79	42.47	-55.1	-57.2	15.6	0.00e+00	0	33	0	972029952	75	4835
2026-01-02 00:44:42.47	202.82	42.19	-56.0	-58.4	15.0	0.00e+00	0	33	0	974127104	77	4950
2026-01-02 00:44:43.47	202.85	41.92	-55.9	-58.2	15.1	0.00e+00	0	33	0	976224256	77	4819
2026-01-02 00:44:44.47	202.88	41.64	-55.7	-57.9	15.2	0.00e+00	0	33	0	978321408	77	4700
2026-01-02 00:44:45.47	202.90	41.37	-55.3	-57.4	15.5	0.00e+00	0	33	0	979369984	77	4397
2026-01-02 00:44:46.47	202.93	41.10	-54.9	-56.9	15.7	0.00e+00	0	33	0	981467136	76	4392
2026-01-02 00:44:47.47	202.96	40.83	-54.5	-56.4	15.9	0.00e+00	0	33	0	983564288	75	4394
2026-01-02 00:44:48.48	202.99	40.56	-54.3	-56.1	16.0	0.00e+00	0	33	0	985661440	75	4263
2026-01-02 00:44:49.47	203.01	40.29	-54.0	-55.7	16.1	0.00e+00	0	33	0	987758592	74	4336
2026-01-02 00:44:50.47	203.04	40.03	-53.9	-55.6	16.2	0.00e+00	0	33	0	988807168	74	4274
2026-01-02 00:44:51.47	203.06	39.77	-54.4	-56.2	16.0	0.00e+00	0	33	0	990904320	74	4553
2026-01-02 00:44:52.47	203.09	39.51	-55.0	-57.0	15.6	0.00e+00	0	33	0	993001472	75	4744
2026-01-02 00:44:53.47	203.11	39.25	-55.9	-58.2	15.1	0.00e+00	0	33	0	995098624	77	4845
2026-01-02 00:44:54.47	203.14	39.00	-56.9	-59.6	14.3	0.00e+00	0	33	0	997195776	78	5389
2026-01-02 00:44:55.47	203.16	38.74	-57.7	-61.0	13.4	0.00e+00	0	33	0	998244352	80	5649
2026-01-02 00:44:56.47	203.19	38.49	-58.3	-62.1	12.6	7.00e-07	0	33	0	1000341504	81	6006
2026-01-02 00:44:57.48	203.21	38.24	-58.5	-62.5	12.4	1.50e-06	0	33	0	1002438656	82	5924
2026-01-02 00:44:58.48	203.23	37.99	-58.4	-62.3	12.5	4.50e-06	0	33	0	1004535808	82	5846
2026-01-02 00:44:59.48	203.25	37.74	-57.9	-61.4	13.1	0.00e+00	0	33	0	1006632960	82	5227
2026-01-02 00:45:00.48	203.28	37.50	-57.5	-60.6	13.6	0.00e+00	0	33	0	1007681536	81	5071
2026-01-02 00:45:01.47	203.30	37.26	-57.2	-60.1	14.0	0.00e+00	0	33	0	1009778688	80	5054
2026-01-02 00:45:02.47	203.32	37.02	-56.6	-59.2	14.5	0.00e+00	0	33	0	1011875840	79	4818
2026-01-02 00:45:03.47	203.34	36.78	-56.0	-58.3	15.0	0.00e+00	0	33	0	1013972992	78	4631
2026-01-02 00:45:04.47	203.37	36.54	-55.9	-58.1	15.2	0.00e+00	0	33	0	1015021568	78	4506
2026-01-02 00:45:05.47	203.39	36.30	-55.9	-58.1	15.1	0.00e+00	0	33	0	1017118720	78	4538
2026-01-02 00:45:06.47	203.41	36.07	-55.9	-58.2	15.1	0.00e+00	0	33	0	1019215872	78	4573
2026-01-02 00:45:07.47	203.43	35.84	-56.0	-58.3	15.1	0.00e+00	0	33	0	1021313024	78	4608
2026-01-02 00:45:08.47	203.45	35.61	-56.2	-58.6	14.9	0.00e+00	0	33	0	1023410176	78	4813
2026-01-02 00:45:09.47	203.47	35.38	-56.6	-59.1	14.5	0.00e+00	0	33	0	1024458752	78	5081
2026-01-02 00:45:10.48	203.49	35.15	-57.1	-59.9	14.1	0.00e+00	0	33	0	1026555904	79	5237
2026-01-02 00:45:11.48	203.51	34.92	-57.7	-61.0	13.3	0.00e+00	0	33	0	1028653056	80	5644
2026-01-02 00:45:12.47	203.53	34.70	-58.3	-62.2	12.5	3.00e-06	0	33	0	1030750208	81	6101
2026-01-02 00:45:13.47	203.55	34.48	-58.8	-63.3	11.6	4.04e-05	0	33	0	1032847360	82	6526
2026-01-02 00:45:14.47	203.57	34.26	-59.1	-64.1	11.0	2.22e-04	0	33	0	1033895936	83	6728
2026-01-02 00:45:15.47	203.59	34.04	-59.1	-64.0	11.0	5.23e-04	0	33	0	1035993088	83	6707
2026-01-02 00:45:16.48	203.61	33.82	-58.9	-63.6	11.3	3.33e-04	0	33	0	1038090240	83	6370
2026-01-02 00:45:17.48	203.62	33.60	-58.6	-62.8	12.0	6.10e-05	0	33	0	1040187392	83	5805
2026-01-02 00:45:18.48	203.64	33.38	-58.1	-61.8	12.8	3.80e-06	0	33	0	1041235968	82	5498
2026-01-02 00:45:19.48	203.66	33.17	-57.7	-61.0	13.3	0.00e+00	0	33	0	1043333120	82	5034
2026-01-02 00:45:20.47	203.68	32.96	-57.5	-60.6	13.7	0.00e+00	0	33	0	1045430272	81	5093
2026-01-02 00:45:21.47	203.70	32.75	-57.0	-59.8	14.2	0.00e+00	0	33	0	1047527424	80	4887
2026-01-02 00:45:22.48	203.71	32.54	-56.7	-59.3	14.4	0.00e+00	0	33	0	1049624576	80	4639
2026-01-02 00:45:23.48	203.73	32.33	-56.4	-59.0	14.6	0.00e+00	0	33	0	1050673152	79	4706
2026-01-02 00:45:24.48	203.75	32.13	-56.3	-58.7	14.8	0.00e+00	0	33	0	1052770304	79	4596
2026-01-02 00:45:25.49	203.77	31.92	-56.2	-58.6	14.8	0.00e+00	0	33	0	1054867456	78	4791
2026-01-02 00:45:26.49	203.78	31.71	-56.2	-58.6	14.8	0.00e+00	0	33	0	1056964608	78	4789
2026-01-02 00:45:27.49	203.80	31.51	-56.2	-58.6	14.8	0.00e+00	0	33	0	1059061760	78	4777
2026-01-02 00:45:28.49	203.82	31.31	-56.1	-58.5	14.8	0.00e+00	0	33	0	1060110336	78	4749
2026-01-02 00:45:29.50	203.83	31.11	-56.4	-59.0	14.6	0.00e+00	0	33	0	1062207488	78	4988
2026-01-02 00:45:30.50	203.85	30.91	-56.8	-59.5	14.3	0.00e+00	0	33	0	1064304640	78	5303
2026-01-02 00:45:31.49	203.87	30.72	-57.1	-60.0	14.0	0.00e+00	0	33	0	1066401792	79	5293
2026-01-02 00:45:32.50	203.88	30.52	-57.3	-60.3	13.8	0.00e+00	0	33	0	1068498944	79	5493
2026-01-02 00:45:33.51	203.90	30.33	-57.4	-60.5	13.6	0.00e+00	0	33	0	1069547520	79	5633
2026-01-02 00:45:34.50	203.91	30.13	-57.5	-60.7	13.5	0.00e+00	0	33	0	1071644672	80	5428
2026-01-02 00:45:35.50	203.93	29.94	-57.5	-60.7	13.5	0.00e+00	0	33	0	1073741824	80	5435
2026-01-02 00:45:36.50	203.95	29.75	-57.4	-60.6	13.6	0.00e+00	0	33	0	1075838976	80	5389
2026-01-02 00:45:37.50	203.96	29.56	-57.2	-60.3	13.8	0.00e+00	0	33	0	1076887552	80	5173
2026-01-02 00:45:38.50	203.98	29.38	-57.0	-60.0	14.0	0.00e+00	0	33	0	1078984704	80	5012
2026-01-02 00:45:39.50	203.99	29.19	-56.9	-59.8	14.0	0.00e+00	0	33	0	1081081856	80	4905
2026-01-02 00:45:40.50	204.01	29.01	-56.9	-59.8	14.1	0.00e+00	0	33	0	1083179008	80	4878
2026-01-02 00:45:41.50	204.02	28.82	-56.9	-59.7	14.1	0.00e+00	0	33	0	1085276160	80	4846
2026-01-02 00:45:42.50	204.04	28.64	-56.4	-59.0	14.5	0.00e+00	0	33	0	1086324736	79	4749
2026-01-02 00:45:43.49	204.05	28.46	-56.1	-58.6	14.8	0.00e+00	0	33	0	1088421888	78	4791
2026-01-02 00:45:44.49	204.06	28.28	-55.8	-58.1	15.0	0.00e+00	0	33	0	1090519040	78	4534
2026-01-02 00:45:45.49	204.08	28.10	-55.5	-57.7	15.2	0.00e+00	0	33	0	1092616192	77	4593
2026-01-02 00:45:46.49	204.09	27.92	-55.4	-57.5	15.3	0.00e+00	0	33	0	1094713344	77	4466
2026-01-02 00:45:47.48	204.11	27.75	-55.2	-57.2	15.4	0.00e+00	0	33	0	1095761920	76	4592
2026-01-02 00:45:48.47	204.12	27.57	-54.9	-56.9	15.6	0.00e+00	0	33	0	1097859072	76	4403
2026-01-02 00:45:49.45	204.13	27.40	-54.8	-56.8	15.7	0.00e+00	0	33	0	1099956224	76	4345
2026-01-02 00:45:50.45	204.15	27.23	-54.5	-56.4	15.8	0.00e+00	0	33	0	1102053376	75	4419
2026-01-02 00:45:51.44	204.16	27.06	-54.5	-56.4	15.8	0.00e+00	0	33	0	1103101952	75	4392
2026-01-02 00:45:52.44	204.18	26.89	-54.5	-56.4	15.8	0.00e+00	0	33	0	1105199104	75	4411
2026-01-02 00:45:53.43	204.19	26.72	-54.5	-56.4	15.8	0.00e+00	0	33	0	1107296256	75	4398
2026-01-02 00:45:54.43	204.20	26.55	-54.3	-56.1	15.9	0.00e+00	0	33	0	1109393408	75	4286
2026-01-02 00:45:55.42	204.21	26.38	-54.3	-56.2	15.9	0.00e+00	0	33	0	1111490560	75	4302
2026-01-02 00:45:56.41	204.23	26.22	-54.2	-56.1	15.9	0.00e+00	0	33	0	1112539136	75	4273
2026-01-02 00:45:57.42	204.24	26.05	-54.3	-56.1	15.9	0.00e+00	0	33	0	1114636288	75	4284
2026-01-02 00:45:58.41	204.25	25.88	-54.3	-56.2	15.9	0.00e+00	0	33	0	1116733440	75	4316
2026-01-02 00:45:59.41	204.27	25.72	-54.3	-56.2	15.9	0.00e+00	0	33	0	1118830592	75	4296
2026-01-02 00:46:00.41	204.28	25.56	-54.2	-56.1	15.9	0.00e+00	0	33	0	1120927744	75	4260
2026-01-02 00:46:01.41	204.29	25.39	-54.3	-56.1	15.9	0.00e+00	0	33	0	1121976320	75	4285
2026-01-02 00:46:02.41	204.30	25.23	-54.2	-56.1	15.9	0.00e+00	0	33	0	1124073472	74	4520
2026-01-02 00:46:03.41	204.32	25.07	-54.2	-56.1	15.9	0.00e+00	0	33	0	1126170624	74	4506
2026-01-02 00:46:04.42	204.33	24.91	-54.2	-56.0	15.9	0.00e+00	0	33	0	1128267776	74	4478
2026-01-02 00:46:05.42	204.34	24.75	-54.3	-56.1	15.8	0.00e+00	0	33	0	1129316352	74	4537
2026-01-02 00:46:06.42	204.35	24.60	-54.2	-56.0	15.9	0.00e+00	0	33	0	1131413504	74	4470
2026-01-02 00:46:07.43	204.37	24.44	-54.0	-55.8	16.0	0.00e+00	0	33	0	1133510656	74	4363
2026-01-02 00:46:08.42	204.38	24.29	-53.8	-55.6	16.1	0.00e+00	0	33	0	1135607808	74	4251
2026-01-02 00:46:09.42	204.39	24.13	-53.8	-55.5	16.2	0.00e+00	0	33	0	1137704960	74	4222
2026-01-02 00:46:10.43	204.40	23.98	-53.6	-55.3	16.1	0.00e+00	0	33	0	1138753536	73	4377
2026-01-02 00:46:11.42	204.41	23.82	-53.3	-55.0	16.3	0.00e+00	0	33	0	1140850688	73	4202
2026-01-02 00:46:12.42	204.43	23.67	-53.3	-55.0	16.3	0.00e+00	0	33	0	1142947840	73	4205
2026-01-02 00:46:13.42	204.44	23.52	-53.3	-54.9	16.3	0.00e+00	0	33	0	1145044992	73	4192
2026-01-02 00:46:14.42	204.45	23.37	-53.2	-54.8	16.4	0.00e+00	0	33	0	1147142144	73	4131
2026-01-02 00:46:15.43	204.46	23.22	-53.1	-54.7	16.4	0.00e+00	0	33	0	1148190720	72	4295
2026-01-02 00:46:16.43	204.47	23.07	-52.9	-54.4	16.4	0.00e+00	0	33	0	1150287872	72	4185
2026-01-02 00:46:17.43	204.48	22.93	-52.8	-54.3	16.5	0.00e+00	0	33	0	1152385024	72	4120
2026-01-02 00:46:18.43	204.49	22.78	-52.8	-54.4	16.4	0.00e+00	0	33	0	1154482176	72	4170
2026-01-02 00:46:19.43	204.51	22.63	-52.8	-54.3	16.5	0.00e+00	0	33	0	1155530752	72	4133
2026-01-02 00:46:20.43	204.52	22.49	-52.8	-54.4	16.4	0.00e+00	0	33	0	1157627904	72	4146
2026-01-02 00:46:21.43	204.53	22.34	-52.9	-54.5	16.4	0.00e+00	0	33	0	1159725056	72	4198
2026-01-02 00:46:22.43	204.54	22.20	-52.9	-54.4	16.4	0.00e+00	0	33	0	1161822208	72	4178
2026-01-02 00:46:23.43	204.55	22.06	-52.9	-54.5	16.4	0.00e+00	0	33	0	1163919360	72	4222
2026-01-02 00:46:24.42	204.56	21.92	-53.0	-54.6	16.4	0.00e+00	0	33	0	1164967936	72	4251
2026-01-02 00:46:25.42	204.57	21.78	-52.9	-54.5	16.4	0.00e+00	0	33	0	1167065088	72	4227
2026-01-02 00:46:26.42	204.58	21.64	-53.0	-54.6	16.4	0.00e+00	0	33	0	1169162240	72	4269
2026-01-02 00:46:27.42	204.59	21.50	-53.1	-54.7	16.3	0.00e+00	0	33	0	1171259392	72	4308
2026-01-02 00:46:28.41	204.60	21.36	-53.0	-54.6	16.4	0.00e+00	0	33	0	1173356544	72	4289
2026-01-02 00:46:29.42	204.61	21.22	-53.1	-54.8	16.3	0.00e+00	0	33	0	1174405120	72	4342
2026-01-02 00:46:30.42	204.62	21.08	-53.2	-54.8	16.3	0.00e+00	0	33	0	1176502272	72	4361
2026-01-02 00:46:31.42	204.63	20.95	-53.2	-54.9	16.2	0.00e+00	0	33	0	1178599424	72	4410
2026-01-02 00:46:32.42	204.65	20.81	-53.3	-55.0	16.2	0.00e+00	0	33	0	1180696576	72	4472
2026-01-02 00:46:33.42	204.66	20.68	-53.4	-55.1	16.2	0.00e+00	0	33	0	1182793728	72	4525
2026-01-02 00:46:34.42	204.67	20.54	-53.4	-55.1	16.2	0.00e+00	0	33	0	1183842304	72	4542
2026-01-02 00:46:35.42	204.68	20.41	-53.4	-55.2	16.1	0.00e+00	0	33	0	1185939456	72	4549
2026-01-02 00:46:36.42	204.69	20.27	-53.5	-55.2	16.1	0.00e+00	0	33	0	1188036608	72	4550
2026-01-02 00:46:37.41	204.70	20.14	-53.5	-55.2	16.1	0.00e+00	0	33	0	1190133760	72	4585
2026-01-02 00:46:38.41	204.71	20.01	-53.6	-55.4	16.1	0.00e+00	0	33	0	1191182336	72	4652
2026-01-02 00:46:39.41	204.72	19.88	-53.6	-55.4	16.1	0.00e+00	0	33	0	1193279488	72	4654
2026-01-02 00:46:40.41	204.73	19.75	-53.7	-55.5	16.0	0.00e+00	0	33	0	1195376640	72	4740
2026-01-02 00:46:41.41	204.74	19.62	-53.7	-55.5	16.0	0.00e+00	0	33	0	1197473792	72	4739
2026-01-02 00:46:42.40	204.75	19.50	-53.7	-55.5	16.0	0.00e+00	0	33	0	1199570944	72	4717
2026-01-02 00:46:43.40	204.76	19.37	-53.8	-55.6	16.0	0.00e+00	0	33	0	1200619520	72	4801
2026-01-02 00:46:44.39	204.76	19.24	-53.7	-55.5	16.0	0.00e+00	0	33	0	1202716672	72	4722
2026-01-02 00:46:45.39	204.77	19.11	-53.7	-55.5	16.0	0.00e+00	0	33	0	1204813824	72	4730
2026-01-02 00:46:46.40	204.78	18.99	-53.8	-55.6	16.0	0.00e+00	0	33	0	1206910976	72	4775
2026-01-02 00:46:47.39	204.79	18.86	-53.7	-55.5	16.0	0.00e+00	0	33	0	1207959552	72	4725
2026-01-02 00:46:48.39	204.80	18.74	-53.8	-55.5	16.0	0.00e+00	0	33	0	1210056704	72	4751
2026-01-02 00:46:49.38	204.81	18.61	-53.9	-55.7	15.9	0.00e+00	0	33	0	1212153856	72	4825
2026-01-02 00:46:50.37	204.82	18.49	-53.7	-55.5	16.0	0.00e+00	0	33	0	1214251008	72	4714
2026-01-02 00:46:51.37	204.83	18.37	-53.8	-55.6	16.0	0.00e+00	0	33	0	1216348160	72	4782
2026-01-02 00:46:52.36	204.84	18.25	-53.7	-55.5	16.0	0.00e+00	0	33	0	1217396736	72	4711
2026-01-02 00:46:53.37	204.85	18.13	-53.7	-55.5	16.0	0.00e+00	0	33	0	1219493888	72	4739
2026-01-02 00:46:54.37	204.86	18.00	-53.7	-55.5	16.0	0.00e+00	0	33	0	1221591040	72	4729
2026-01-02 00:46:55.37	204.87	17.88	-53.7	-55.5	16.0	0.00e+00	0	33	0	1223688192	72	4741
2026-01-02 00:46:56.35	204.88	17.77	-53.7	-55.5	16.0	0.00e+00	0	33	0	1224736768	72	4738
2026-01-02 00:46:57.35	204.89	17.65	-53.8	-55.6	16.0	0.00e+00	0	33	0	1226833920	72	4766
2026-01-02 00:46:58.34	204.90	17.53	-53.8	-55.5	16.0	0.00e+00	0	33	0	1228931072	72	4759
2026-01-02 00:46:59.34	204.90	17.41	-53.9	-55.8	15.8	0.00e+00	0	33	0	1231028224	73	4603
2026-01-02 00:47:00.33	204.91	17.29	-53.8	-55.6	15.9	0.00e+00	0	33	0	1233125376	73	4514
2026-01-02 00:47:01.34	204.92	17.18	-53.9	-55.7	15.9	0.00e+00	0	33	0	1234173952	73	4594
2026-01-02 00:47:02.34	204.93	17.06	-53.9	-55.7	15.9	0.00e+00	0	33	0	1236271104	73	4598
