passes_logs/2026/01/02/R3.2S_Murmansk/R3.2S_Murmansk__20260102_000729_KANOPUS-V_6_rec.log

#Pass ID: 20260102_000729_KANOPUS-V 6
#Satellite: KANOPUS-V 6
#Configuration: KANOPUS-V_8320
#almurnet v.1.7.20251203
#Start time: 2026-01-02 00:07:29

#Version: 2.2.20231116
#Station: R3.2S_Murmansk
#Location: 33.079688 lon 68.888172 lat
#TLE: 1 43877U 18111B   26001.20722580  .00026151  00000+0  76270-3 0  9995
#TLE: 2 43877  97.3771 277.3120 0002522 101.1090 259.0437 15.35332397389843

#Time	Az	El	Level	Level2	SNR	BER	BlckErr	Temp	State	Recorded	gain1	gain2
2026-01-02 00:07:29.13	21.61	2.00	-60.7	-70.4	3.8	7.46e-01	0	31	0	0	86	10493
2026-01-02 00:07:30.13	21.55	2.06	-60.7	-70.4	3.8	7.47e-01	0	31	104	0	86	10491
2026-01-02 00:07:31.13	21.49	2.13	-60.7	-70.4	3.8	7.45e-01	0	31	104	0	86	10480
2026-01-02 00:07:32.13	21.43	2.20	-60.7	-70.4	3.8	7.47e-01	0	31	104	0	86	10490
2026-01-02 00:07:33.12	21.37	2.27	-60.7	-70.4	3.8	7.46e-01	0	31	104	0	86	10506
2026-01-02 00:07:34.12	21.31	2.33	-60.7	-70.4	3.8	7.46e-01	0	31	104	0	86	10486
2026-01-02 00:07:35.11	21.25	2.40	-60.7	-70.4	3.8	7.45e-01	0	31	104	0	86	10428
2026-01-02 00:07:36.11	21.19	2.47	-60.7	-70.4	3.8	7.46e-01	0	31	104	0	86	10468
2026-01-02 00:07:37.11	21.13	2.54	-60.7	-70.4	3.8	7.44e-01	0	31	104	0	86	10441
2026-01-02 00:07:38.12	21.06	2.61	-60.7	-70.4	3.8	7.46e-01	0	31	104	0	84	11780
2026-01-02 00:07:39.11	21.00	2.68	-60.7	-70.4	3.8	7.46e-01	0	31	104	0	84	11762
2026-01-02 00:07:40.12	20.94	2.75	-60.7	-70.4	3.8	7.46e-01	0	31	104	0	84	11796
2026-01-02 00:07:41.12	20.87	2.82	-60.7	-70.4	3.8	7.46e-01	0	31	104	0	84	11746
2026-01-02 00:07:42.12	20.81	2.89	-60.7	-70.4	3.8	7.45e-01	0	31	104	0	84	11740
2026-01-02 00:07:43.12	20.74	2.96	-60.7	-70.4	3.8	7.46e-01	0	32	104	0	84	11700
2026-01-02 00:07:44.12	20.68	3.03	-60.7	-70.4	3.8	7.46e-01	0	31	104	0	84	11751
2026-01-02 00:07:45.11	20.61	3.10	-60.7	-70.4	3.9	7.45e-01	0	32	104	0	84	11764
2026-01-02 00:07:46.12	20.55	3.17	-60.7	-70.4	3.8	7.47e-01	0	32	104	0	84	11715
2026-01-02 00:07:47.11	20.48	3.24	-60.7	-70.4	3.8	7.45e-01	0	32	104	0	84	11749
2026-01-02 00:07:48.11	20.41	3.31	-60.7	-70.4	3.8	7.46e-01	0	32	104	0	84	11737
2026-01-02 00:07:49.11	20.35	3.38	-60.7	-70.4	3.8	7.45e-01	0	32	104	0	84	11727
2026-01-02 00:07:50.11	20.28	3.45	-60.7	-70.4	3.8	7.46e-01	0	32	104	0	84	11725
2026-01-02 00:07:51.11	20.21	3.52	-60.7	-70.4	3.8	7.46e-01	0	32	104	0	84	11757
2026-01-02 00:07:52.10	20.14	3.59	-60.7	-70.4	3.8	7.45e-01	0	32	104	0	84	11709
2026-01-02 00:07:53.10	20.07	3.66	-60.7	-70.4	3.8	7.45e-01	0	32	104	0	84	11719
2026-01-02 00:07:54.09	20.00	3.74	-60.7	-70.4	3.8	7.46e-01	0	32	104	0	84	11742
2026-01-02 00:07:55.09	19.93	3.81	-60.7	-70.4	3.8	7.46e-01	0	32	104	0	84	11737
2026-01-02 00:07:56.08	19.86	3.88	-60.7	-70.4	3.8	7.46e-01	0	32	104	0	84	11768
2026-01-02 00:07:57.07	19.79	3.95	-60.7	-70.4	3.8	7.46e-01	0	32	104	0	84	11721
2026-01-02 00:07:58.07	19.72	4.03	-60.7	-70.4	3.8	7.46e-01	0	32	104	0	84	11740
2026-01-02 00:07:59.06	19.65	4.10	-60.7	-70.4	3.8	7.46e-01	0	32	104	0	84	11765
2026-01-02 00:08:00.06	19.57	4.17	-60.7	-70.4	3.8	7.47e-01	0	32	104	0	84	11724
2026-01-02 00:08:01.06	19.50	4.25	-60.7	-70.4	3.8	7.45e-01	0	32	104	0	84	11713
2026-01-02 00:08:02.06	19.43	4.32	-60.7	-70.4	3.8	7.47e-01	0	32	104	0	84	11728
2026-01-02 00:08:03.07	19.35	4.40	-60.7	-70.4	3.8	7.44e-01	0	32	104	0	84	11745
2026-01-02 00:08:04.07	19.28	4.47	-60.7	-70.4	3.8	7.45e-01	0	32	104	0	84	11762
2026-01-02 00:08:05.06	19.20	4.54	-60.7	-70.4	3.8	7.44e-01	0	32	104	0	84	11727
2026-01-02 00:08:06.05	19.13	4.62	-60.7	-70.4	3.8	7.45e-01	0	32	104	0	84	11735
2026-01-02 00:08:07.05	19.05	4.69	-60.7	-70.4	3.8	7.46e-01	0	32	104	0	84	11721
2026-01-02 00:08:08.04	18.97	4.77	-60.7	-70.4	3.8	7.46e-01	0	32	104	0	84	11710
2026-01-02 00:08:09.04	18.90	4.85	-60.7	-70.4	3.8	7.47e-01	0	32	104	0	84	11744
2026-01-02 00:08:10.04	18.82	4.92	-60.7	-70.4	3.8	7.46e-01	0	32	104	0	84	11691
2026-01-02 00:08:11.05	18.74	5.00	-60.7	-70.3	3.8	7.47e-01	0	32	104	0	84	11673
2026-01-02 00:08:12.05	18.66	5.08	-60.7	-70.4	3.8	7.45e-01	0	32	104	0	84	11733
2026-01-02 00:08:13.05	18.58	5.15	-60.7	-70.4	3.8	7.46e-01	0	32	104	0	84	11734
2026-01-02 00:08:14.05	18.50	5.23	-60.8	-70.6	3.8	7.45e-01	0	32	104	0	84	11979
2026-01-02 00:08:15.05	18.42	5.31	-60.6	-70.4	3.8	7.45e-01	0	32	104	0	84	11694
2026-01-02 00:08:16.06	18.33	5.39	-60.8	-70.5	3.8	7.46e-01	0	32	104	0	84	11927
2026-01-02 00:08:17.06	18.25	5.46	-60.6	-70.3	3.8	7.45e-01	0	32	104	0	84	11681
2026-01-02 00:08:18.06	18.17	5.54	-60.8	-70.5	3.8	7.45e-01	0	32	104	0	84	11924
2026-01-02 00:08:19.06	18.08	5.62	-60.7	-70.4	3.8	7.45e-01	0	32	104	0	84	11703
2026-01-02 00:08:20.06	18.00	5.70	-60.8	-70.5	3.8	7.45e-01	0	32	104	0	84	11893
2026-01-02 00:08:21.06	17.92	5.78	-60.7	-70.4	3.8	7.45e-01	0	32	104	0	84	11767
2026-01-02 00:08:22.06	17.83	5.86	-60.8	-70.5	3.8	7.46e-01	0	32	104	0	84	11953
2026-01-02 00:08:23.06	17.74	5.94	-60.7	-70.4	3.8	7.47e-01	0	32	104	0	84	11785
2026-01-02 00:08:24.06	17.66	6.02	-60.8	-70.6	3.8	7.45e-01	0	32	104	0	84	11986
2026-01-02 00:08:25.05	17.57	6.10	-60.7	-70.4	3.8	7.44e-01	0	32	104	0	84	11812
2026-01-02 00:08:26.06	17.48	6.18	-60.9	-70.6	3.8	7.44e-01	0	32	104	0	84	11992
2026-01-02 00:08:27.05	17.39	6.26	-60.7	-70.4	3.8	7.46e-01	0	33	104	0	84	11759
2026-01-02 00:08:28.04	17.30	6.34	-60.8	-70.6	3.8	7.45e-01	0	32	104	0	84	11965
2026-01-02 00:08:29.04	17.21	6.42	-60.7	-70.5	3.8	7.46e-01	0	32	104	0	84	11822
2026-01-02 00:08:30.05	17.12	6.51	-60.9	-70.7	3.8	7.45e-01	0	32	104	0	84	12130
2026-01-02 00:08:31.04	17.03	6.59	-60.7	-70.5	3.8	7.45e-01	0	32	104	0	84	11902
2026-01-02 00:08:32.04	16.94	6.67	-60.9	-70.6	3.8	7.44e-01	0	33	104	0	84	12008
2026-01-02 00:08:33.03	16.85	6.75	-60.8	-70.5	3.8	7.46e-01	0	32	104	0	84	11859
2026-01-02 00:08:34.03	16.75	6.84	-60.9	-70.6	3.8	7.46e-01	0	32	104	0	84	12093
2026-01-02 00:08:35.04	16.66	6.92	-60.8	-70.5	3.8	7.45e-01	0	33	104	0	85	11249
2026-01-02 00:08:36.04	16.56	7.00	-60.9	-70.6	3.8	7.45e-01	0	32	104	0	85	11376
2026-01-02 00:08:37.04	16.47	7.09	-60.8	-70.5	3.8	7.47e-01	0	33	104	0	85	11277
2026-01-02 00:08:38.04	16.37	7.17	-61.0	-70.7	3.8	7.45e-01	0	33	104	0	85	11462
2026-01-02 00:08:39.04	16.27	7.26	-60.8	-70.5	3.8	7.45e-01	0	32	104	0	85	11280
2026-01-02 00:08:40.04	16.18	7.34	-60.9	-70.6	3.8	7.45e-01	0	33	104	0	85	11415
2026-01-02 00:08:41.03	16.08	7.43	-60.8	-70.6	3.8	7.45e-01	0	32	104	0	85	11364
2026-01-02 00:08:42.03	15.98	7.51	-61.0	-70.7	3.8	7.47e-01	0	33	104	0	85	11461
2026-01-02 00:08:43.04	15.88	7.60	-60.8	-70.6	3.8	7.45e-01	0	33	104	0	85	11301
2026-01-02 00:08:44.04	15.77	7.69	-61.0	-70.7	3.8	7.47e-01	0	32	104	0	85	11468
2026-01-02 00:08:45.04	15.67	7.77	-60.9	-70.6	3.8	7.44e-01	0	33	104	0	85	11315
2026-01-02 00:08:46.04	15.57	7.86	-61.0	-70.7	3.8	7.46e-01	0	33	104	0	85	11518
2026-01-02 00:08:47.03	15.47	7.95	-60.9	-70.6	3.8	7.45e-01	0	33	104	0	85	11361
2026-01-02 00:08:48.02	15.36	8.03	-61.0	-70.7	3.8	7.45e-01	0	33	104	0	85	11482
2026-01-02 00:08:49.03	15.26	8.12	-60.9	-70.6	3.8	7.46e-01	0	33	104	0	85	11358
2026-01-02 00:08:50.03	15.15	8.21	-61.0	-70.7	3.8	7.47e-01	0	33	104	0	85	11534
2026-01-02 00:08:51.02	15.04	8.30	-60.9	-70.6	3.8	7.44e-01	0	33	104	0	85	11382
2026-01-02 00:08:52.02	14.94	8.39	-61.0	-70.7	3.8	7.46e-01	0	33	104	0	85	11535
2026-01-02 00:08:53.03	14.83	8.48	-60.9	-70.7	3.8	7.45e-01	0	33	104	0	85	11457
2026-01-02 00:08:54.02	14.72	8.57	-61.1	-70.8	3.8	7.45e-01	0	33	104	0	85	11584
2026-01-02 00:08:55.02	14.61	8.66	-61.0	-70.7	3.8	7.46e-01	0	33	104	0	85	11502
2026-01-02 00:08:56.02	14.49	8.75	-61.0	-70.8	3.8	7.48e-01	0	33	104	0	85	11588
2026-01-02 00:08:57.02	14.38	8.84	-61.0	-70.7	3.8	7.46e-01	0	33	104	0	85	11482
2026-01-02 00:08:58.02	14.27	8.93	-61.1	-70.8	3.8	7.46e-01	0	33	104	0	85	11634
2026-01-02 00:08:59.02	14.15	9.02	-61.0	-70.7	3.8	7.45e-01	0	33	104	0	85	11496
2026-01-02 00:09:00.01	14.04	9.12	-61.1	-70.7	3.8	7.44e-01	0	33	104	0	85	11548
2026-01-02 00:09:01.01	13.92	9.21	-61.0	-70.7	3.8	7.46e-01	0	33	104	0	85	11506
2026-01-02 00:09:02.00	13.81	9.30	-61.1	-70.8	3.8	7.46e-01	0	33	104	0	85	11644
2026-01-02 00:09:03.00	13.69	9.39	-61.0	-70.7	3.8	7.45e-01	0	33	104	0	85	11524
2026-01-02 00:09:04.00	13.57	9.49	-61.1	-70.8	3.8	7.44e-01	0	33	104	0	85	11654
2026-01-02 00:09:05.00	13.45	9.58	-61.0	-70.7	3.8	7.45e-01	0	33	104	0	85	11546
2026-01-02 00:09:05.99	13.33	9.68	-61.1	-70.9	3.8	7.47e-01	0	33	104	0	85	11718
2026-01-02 00:09:06.99	13.21	9.77	-61.0	-70.8	3.8	7.47e-01	0	33	104	0	85	11582
2026-01-02 00:09:07.99	13.08	9.87	-61.1	-70.9	3.8	7.46e-01	0	33	104	0	85	11687
2026-01-02 00:09:09.00	12.96	9.96	-61.0	-70.8	3.8	7.45e-01	0	33	104	0	85	11569
2026-01-02 00:09:10.00	12.83	10.06	-61.2	-70.9	3.8	7.46e-01	0	33	104	0	85	11724
2026-01-02 00:09:11.00	12.70	10.16	-61.1	-70.8	3.8	7.45e-01	0	33	104	0	85	11608
2026-01-02 00:09:12.00	12.58	10.25	-61.1	-70.9	3.8	7.45e-01	0	33	104	0	85	11688
2026-01-02 00:09:12.99	12.45	10.35	-61.1	-70.8	3.9	7.45e-01	0	33	104	0	85	11626
2026-01-02 00:09:14.00	12.32	10.45	-61.2	-70.9	3.8	7.45e-01	0	33	104	0	85	11806
2026-01-02 00:09:14.99	12.19	10.55	-61.1	-70.9	3.8	7.47e-01	0	33	104	0	85	11692
2026-01-02 00:09:15.99	12.05	10.64	-61.2	-70.9	3.8	7.46e-01	0	33	104	0	85	11722
2026-01-02 00:09:16.98	11.92	10.74	-61.1	-70.8	3.8	7.46e-01	0	33	104	0	85	11646
2026-01-02 00:09:17.98	11.79	10.84	-61.2	-70.9	3.8	7.45e-01	0	33	104	0	85	11781
2026-01-02 00:09:18.99	11.65	10.94	-61.1	-70.9	3.8	7.46e-01	0	33	104	0	85	11690
2026-01-02 00:09:19.99	11.51	11.04	-61.2	-70.9	3.8	7.43e-01	0	33	104	0	85	11772
2026-01-02 00:09:20.99	11.37	11.14	-61.1	-70.9	3.8	7.44e-01	0	33	104	0	85	11688
2026-01-02 00:09:21.99	11.23	11.25	-61.2	-70.9	3.8	7.45e-01	0	33	104	0	85	11813
2026-01-02 00:09:22.98	11.09	11.35	-61.2	-70.9	3.8	7.46e-01	0	33	104	0	85	11762
2026-01-02 00:09:23.98	10.95	11.45	-61.2	-71.0	3.8	7.46e-01	0	33	104	0	85	11866
2026-01-02 00:09:24.98	10.81	11.55	-61.2	-70.9	3.8	7.45e-01	0	33	104	0	85	11723
2026-01-02 00:09:25.97	10.67	11.65	-61.3	-71.0	3.8	7.46e-01	0	33	104	0	85	11876
2026-01-02 00:09:26.97	10.52	11.76	-61.2	-71.0	3.8	7.45e-01	0	33	104	0	85	11820
2026-01-02 00:09:27.97	10.37	11.86	-61.3	-71.0	3.8	7.45e-01	0	33	104	0	85	11891
2026-01-02 00:09:28.97	10.22	11.97	-61.2	-70.9	3.8	7.46e-01	0	33	104	0	85	11775
2026-01-02 00:09:29.96	10.07	12.07	-61.3	-71.0	3.8	7.48e-01	0	33	104	0	85	11934
2026-01-02 00:09:30.96	9.92	12.18	-61.3	-71.0	3.8	7.46e-01	0	33	104	0	85	11851
2026-01-02 00:09:31.96	9.77	12.28	-61.3	-71.1	3.8	7.45e-01	0	33	104	0	85	11966
2026-01-02 00:09:32.96	9.62	12.39	-61.3	-71.0	3.8	7.45e-01	0	33	104	0	85	11825
2026-01-02 00:09:33.96	9.46	12.49	-61.3	-71.1	3.8	7.44e-01	0	33	104	0	85	11965
2026-01-02 00:09:34.96	9.30	12.60	-61.3	-71.0	3.8	7.45e-01	0	33	104	0	85	11914
2026-01-02 00:09:35.96	9.14	12.71	-61.3	-71.1	3.8	7.48e-01	0	33	104	0	85	11965
2026-01-02 00:09:36.96	8.98	12.82	-61.3	-71.0	3.8	7.44e-01	0	33	104	0	85	11886
2026-01-02 00:09:37.95	8.82	12.92	-61.4	-71.1	3.8	7.46e-01	0	33	104	0	85	12033
2026-01-02 00:09:38.95	8.66	13.03	-61.3	-71.0	3.8	7.46e-01	0	33	104	0	85	11910
2026-01-02 00:09:39.95	8.50	13.14	-61.4	-71.1	3.8	7.45e-01	0	33	104	0	85	12002
2026-01-02 00:09:40.94	8.33	13.25	-61.3	-71.0	3.8	7.46e-01	0	33	104	0	85	11939
2026-01-02 00:09:41.93	8.17	13.36	-61.4	-71.1	3.8	7.47e-01	0	33	104	0	85	12034
2026-01-02 00:09:42.93	8.00	13.47	-61.3	-71.1	3.8	7.47e-01	0	33	104	0	85	11968
2026-01-02 00:09:43.93	7.83	13.58	-61.4	-71.1	3.8	7.45e-01	0	33	104	0	85	12028
2026-01-02 00:09:44.93	7.65	13.70	-61.3	-71.0	3.8	7.46e-01	0	33	104	0	85	11955
2026-01-02 00:09:45.93	7.48	13.81	-61.4	-71.1	3.8	7.46e-01	0	33	104	0	85	12069
2026-01-02 00:09:46.94	7.30	13.92	-61.4	-71.1	3.8	7.48e-01	0	33	104	0	85	11997
2026-01-02 00:09:47.94	7.12	14.04	-61.4	-71.1	3.8	7.46e-01	0	33	104	0	85	12063
2026-01-02 00:09:48.94	6.94	14.15	-61.3	-71.1	3.8	7.45e-01	0	33	104	0	85	12033
2026-01-02 00:09:49.94	6.76	14.27	-61.5	-71.2	3.8	7.47e-01	0	33	104	0	86	11497
2026-01-02 00:09:50.93	6.58	14.38	-61.4	-71.2	3.8	7.47e-01	0	33	104	0	86	11430
2026-01-02 00:09:51.93	6.40	14.49	-61.4	-71.2	3.8	7.45e-01	0	33	104	0	86	11426
2026-01-02 00:09:52.93	6.21	14.61	-61.4	-71.1	3.8	7.46e-01	0	33	104	0	86	11345
2026-01-02 00:09:53.93	6.02	14.73	-61.5	-71.2	3.8	7.46e-01	0	33	104	0	86	11536
2026-01-02 00:09:54.92	5.84	14.84	-61.4	-71.2	3.8	7.46e-01	0	33	104	0	86	11423
2026-01-02 00:09:55.91	5.65	14.96	-61.5	-71.2	3.8	7.45e-01	0	33	104	0	86	11509
2026-01-02 00:09:56.91	5.45	15.08	-61.4	-71.1	3.8	7.47e-01	0	33	104	0	86	11363
2026-01-02 00:09:57.90	5.26	15.19	-61.5	-71.2	3.8	7.48e-01	0	33	104	0	86	11539
2026-01-02 00:09:58.90	5.06	15.31	-61.5	-71.2	3.8	7.45e-01	0	33	104	0	86	11488
2026-01-02 00:09:59.90	4.86	15.43	-61.5	-71.2	3.8	7.47e-01	0	33	104	0	86	11521
2026-01-02 00:10:00.89	4.66	15.55	-61.5	-71.2	3.8	7.46e-01	0	33	104	0	86	11460
2026-01-02 00:10:01.89	4.46	15.67	-61.6	-71.3	3.8	7.45e-01	0	33	104	0	86	11557
2026-01-02 00:10:02.88	4.25	15.79	-61.5	-71.3	3.8	7.46e-01	0	33	104	0	86	11552
2026-01-02 00:10:03.88	4.05	15.91	-61.5	-71.2	3.8	7.46e-01	0	33	104	0	86	11544
2026-01-02 00:10:04.88	3.84	16.03	-61.5	-71.2	3.8	7.47e-01	0	33	104	0	86	11527
2026-01-02 00:10:05.88	3.63	16.16	-61.7	-71.4	3.8	7.46e-01	0	33	104	0	86	11746
2026-01-02 00:10:06.87	3.41	16.28	-61.6	-71.3	3.8	7.46e-01	0	33	104	0	86	11681
2026-01-02 00:10:07.87	3.20	16.40	-61.7	-71.4	3.8	7.47e-01	0	33	104	0	86	11745
2026-01-02 00:10:08.87	2.98	16.53	-61.6	-71.3	3.8	7.45e-01	0	33	104	0	86	11655
2026-01-02 00:10:09.86	2.76	16.65	-61.7	-71.4	3.8	7.47e-01	0	33	104	0	86	11751
2026-01-02 00:10:10.86	2.54	16.77	-61.6	-71.3	3.8	7.45e-01	0	33	104	0	86	11676
2026-01-02 00:10:11.86	2.31	16.90	-61.7	-71.4	3.8	7.44e-01	0	33	104	0	86	11769
2026-01-02 00:10:12.86	2.09	17.02	-61.6	-71.3	3.8	7.46e-01	0	33	104	0	86	11662
2026-01-02 00:10:13.87	1.86	17.15	-61.7	-71.4	3.8	7.46e-01	0	33	104	0	86	11798
2026-01-02 00:10:14.87	1.62	17.28	-61.7	-71.4	3.8	7.46e-01	0	33	104	0	86	11715
2026-01-02 00:10:15.87	1.39	17.40	-61.7	-71.4	3.8	7.45e-01	0	33	104	0	86	11728
2026-01-02 00:10:16.86	1.16	17.53	-61.6	-71.3	3.8	7.46e-01	0	33	104	0	86	11665
2026-01-02 00:10:17.87	0.91	17.66	-61.7	-71.5	3.8	7.45e-01	0	33	104	0	86	11831
2026-01-02 00:10:18.86	0.67	17.79	-61.7	-71.4	3.8	7.45e-01	0	33	104	0	86	11744
2026-01-02 00:10:19.86	0.43	17.92	-61.7	-71.4	3.8	7.46e-01	0	33	104	0	86	11768
2026-01-02 00:10:20.85	0.19	18.04	-61.7	-71.4	3.8	7.45e-01	0	33	104	0	86	11728
2026-01-02 00:10:21.86	359.94	18.17	-61.7	-71.5	3.8	7.45e-01	0	33	104	0	86	11831
2026-01-02 00:10:22.85	359.69	18.30	-61.7	-71.4	3.8	7.46e-01	0	33	104	0	86	11736
2026-01-02 00:10:23.85	359.43	18.43	-61.7	-71.4	3.8	7.46e-01	0	33	104	0	86	11776
2026-01-02 00:10:24.84	359.18	18.56	-61.7	-71.4	3.8	7.46e-01	0	33	104	0	86	11756
2026-01-02 00:10:25.84	358.92	18.69	-61.7	-71.5	3.8	7.46e-01	0	33	104	0	86	11867
2026-01-02 00:10:26.84	358.66	18.83	-61.7	-71.4	3.8	7.46e-01	0	33	104	0	86	11770
2026-01-02 00:10:27.84	358.39	18.96	-61.7	-71.5	3.8	7.46e-01	0	33	104	0	86	11842
2026-01-02 00:10:28.83	358.13	19.09	-61.7	-71.4	3.8	7.47e-01	0	33	104	0	86	11750
2026-01-02 00:10:29.83	357.86	19.22	-61.8	-71.5	3.8	7.44e-01	0	33	104	0	86	11867
2026-01-02 00:10:30.84	357.58	19.36	-61.7	-71.4	3.8	7.45e-01	0	34	104	0	86	11811
2026-01-02 00:10:31.84	357.30	19.49	-61.8	-71.5	3.8	7.46e-01	0	33	104	0	86	11841
2026-01-02 00:10:32.84	357.03	19.62	-61.7	-71.4	3.8	7.45e-01	0	33	104	0	86	11801
2026-01-02 00:10:33.83	356.75	19.76	-61.8	-71.5	3.8	7.48e-01	0	33	104	0	86	11931
2026-01-02 00:10:34.83	356.46	19.89	-61.7	-71.5	3.8	7.47e-01	0	33	104	0	86	11823
2026-01-02 00:10:35.83	356.17	20.03	-61.8	-71.5	3.8	7.46e-01	0	33	104	0	86	11900
2026-01-02 00:10:36.83	355.88	20.16	-61.7	-71.4	3.8	7.45e-01	0	33	104	0	86	11799
2026-01-02 00:10:37.84	355.59	20.30	-61.8	-71.5	3.8	7.45e-01	0	33	104	0	86	11934
2026-01-02 00:10:38.84	355.29	20.43	-61.8	-71.5	3.8	7.44e-01	0	33	104	0	86	11819
2026-01-02 00:10:39.84	354.99	20.57	-61.8	-71.5	3.8	7.45e-01	0	33	104	0	86	11890
2026-01-02 00:10:40.84	354.69	20.70	-61.8	-71.5	3.8	7.46e-01	0	33	104	0	86	11836
2026-01-02 00:10:41.84	354.38	20.84	-61.8	-71.6	3.8	7.46e-01	0	33	104	0	86	11969
2026-01-02 00:10:42.84	354.07	20.98	-61.8	-71.5	3.8	7.46e-01	0	33	104	0	86	11882
2026-01-02 00:10:43.85	353.76	21.11	-61.8	-71.6	3.8	7.45e-01	0	33	104	0	86	11965
2026-01-02 00:10:44.86	353.44	21.25	-61.8	-71.5	3.9	7.43e-01	0	33	104	0	86	11914
2026-01-02 00:10:45.86	353.12	21.39	-61.9	-71.6	3.8	7.46e-01	0	33	104	0	86	12008
2026-01-02 00:10:46.86	352.79	21.53	-61.8	-71.6	3.8	7.45e-01	0	33	104	0	86	12013
2026-01-02 00:10:47.86	352.47	21.66	-61.9	-71.6	3.8	7.45e-01	0	33	104	0	86	11966
2026-01-02 00:10:48.86	352.14	21.80	-61.8	-71.6	3.9	7.45e-01	0	33	104	0	86	11976
2026-01-02 00:10:49.86	351.81	21.94	-61.9	-71.6	3.8	7.47e-01	0	33	104	0	86	12046
2026-01-02 00:10:50.86	351.47	22.07	-61.9	-71.6	3.8	7.45e-01	0	33	104	0	86	12026
2026-01-02 00:10:51.86	351.13	22.21	-61.9	-71.6	3.8	7.45e-01	0	33	104	0	86	12050
2026-01-02 00:10:52.86	350.79	22.35	-61.9	-71.6	3.8	7.46e-01	0	33	104	0	86	11974
2026-01-02 00:10:53.86	350.44	22.48	-61.9	-71.7	3.8	7.46e-01	0	33	104	0	87	11429
2026-01-02 00:10:54.86	350.09	22.62	-61.9	-71.6	3.8	7.44e-01	0	34	104	0	87	11369
2026-01-02 00:10:55.85	349.74	22.76	-61.9	-71.6	3.8	7.45e-01	0	33	104	0	87	11395
2026-01-02 00:10:56.84	349.39	22.89	-61.9	-71.6	3.8	7.46e-01	0	33	104	0	87	11363
2026-01-02 00:10:57.83	349.03	23.03	-62.0	-71.7	3.8	7.47e-01	0	33	104	0	87	11434
2026-01-02 00:10:58.83	348.67	23.16	-61.9	-71.6	3.8	7.45e-01	0	33	104	0	87	11401
2026-01-02 00:10:59.82	348.30	23.30	-62.0	-71.7	3.8	7.46e-01	0	33	104	0	87	11444
2026-01-02 00:11:00.81	347.93	23.43	-61.9	-71.6	3.8	7.46e-01	0	33	104	0	87	11390
2026-01-02 00:11:01.80	347.56	23.57	-62.0	-71.7	3.8	7.45e-01	0	33	104	0	87	11448
2026-01-02 00:11:02.80	347.18	23.70	-62.0	-71.7	3.8	7.45e-01	0	33	104	0	87	11466
2026-01-02 00:11:03.80	346.80	23.84	-62.0	-71.7	3.8	7.46e-01	0	33	104	0	87	11498
2026-01-02 00:11:04.79	346.42	23.97	-62.0	-71.7	3.8	7.45e-01	0	33	104	0	87	11508
2026-01-02 00:11:05.79	346.02	24.11	-62.0	-71.7	3.8	7.44e-01	0	33	104	0	87	11540
2026-01-02 00:11:06.79	345.63	24.24	-62.0	-71.7	3.8	7.45e-01	0	33	104	0	87	11479
2026-01-02 00:11:07.79	345.23	24.37	-62.0	-71.8	3.8	7.46e-01	0	33	104	0	87	11570
2026-01-02 00:11:08.78	344.83	24.50	-62.0	-71.7	3.8	7.45e-01	0	33	104	0	87	11514
2026-01-02 00:11:09.78	344.43	24.64	-62.0	-71.8	3.8	7.44e-01	0	33	104	0	87	11593
2026-01-02 00:11:10.78	344.02	24.77	-62.0	-71.7	3.8	7.44e-01	0	33	104	0	87	11490
2026-01-02 00:11:11.78	343.60	24.90	-62.0	-71.7	3.8	7.44e-01	0	33	104	0	87	11528
2026-01-02 00:11:12.78	343.19	25.03	-62.0	-71.7	3.8	7.46e-01	0	33	104	0	87	11533
2026-01-02 00:11:13.78	342.76	25.16	-62.1	-71.8	3.8	7.45e-01	0	33	104	0	87	11580
2026-01-02 00:11:14.78	342.34	25.29	-62.0	-71.8	3.8	7.45e-01	0	33	104	0	87	11558
2026-01-02 00:11:15.77	341.91	25.42	-62.1	-71.8	3.8	7.45e-01	0	33	104	0	87	11630
2026-01-02 00:11:16.78	341.48	25.54	-62.1	-71.8	3.8	7.46e-01	0	33	104	0	87	11585
2026-01-02 00:11:17.77	341.04	25.67	-62.1	-71.8	3.8	7.46e-01	0	33	104	0	87	11645
2026-01-02 00:11:18.77	340.60	25.80	-62.1	-71.8	3.8	7.45e-01	0	33	104	0	87	11597
2026-01-02 00:11:19.77	340.16	25.92	-62.1	-71.8	3.8	7.46e-01	0	33	104	0	87	11654
2026-01-02 00:11:20.76	339.71	26.04	-62.1	-71.8	3.8	7.46e-01	0	33	104	0	87	11569
2026-01-02 00:11:21.76	339.26	26.17	-62.1	-71.9	3.8	7.46e-01	0	33	104	0	87	11689
2026-01-02 00:11:22.76	338.80	26.29	-62.1	-71.8	3.8	7.46e-01	0	33	104	0	87	11665
2026-01-02 00:11:23.75	338.34	26.41	-62.1	-71.8	3.8	7.45e-01	0	33	104	0	87	11680
2026-01-02 00:11:24.74	337.88	26.52	-62.1	-71.8	3.8	7.44e-01	0	33	104	0	87	11651
2026-01-02 00:11:25.74	337.41	26.64	-62.2	-71.9	3.8	7.47e-01	0	34	104	0	87	11770
2026-01-02 00:11:26.74	336.94	26.76	-62.2	-71.9	3.8	7.45e-01	0	33	104	0	87	11743
2026-01-02 00:11:27.74	336.46	26.87	-62.2	-71.9	3.8	7.44e-01	0	33	104	0	87	11779
2026-01-02 00:11:28.74	335.98	26.99	-62.2	-71.9	3.8	7.45e-01	0	33	104	0	87	11705
2026-01-02 00:11:29.74	335.50	27.10	-62.2	-71.9	3.8	7.46e-01	0	33	104	0	87	11779
2026-01-02 00:11:30.73	335.01	27.21	-62.2	-71.9	3.8	7.47e-01	0	33	104	0	87	11770
2026-01-02 00:11:31.73	334.52	27.32	-62.2	-72.0	3.8	7.45e-01	0	33	104	0	87	11831
2026-01-02 00:11:32.73	334.03	27.43	-62.2	-71.9	3.8	7.46e-01	0	33	104	0	87	11765
2026-01-02 00:11:33.73	333.53	27.53	-62.2	-71.9	3.8	7.45e-01	0	33	104	0	87	11790
2026-01-02 00:11:34.73	333.02	27.64	-62.2	-72.0	3.8	7.44e-01	0	33	104	0	87	11823
2026-01-02 00:11:35.72	332.52	27.74	-62.2	-71.9	3.8	7.45e-01	0	33	104	0	87	11816
2026-01-02 00:11:36.72	332.01	27.84	-62.2	-71.9	3.8	7.45e-01	0	33	104	0	87	11789
2026-01-02 00:11:37.72	331.50	27.94	-62.3	-72.0	3.8	7.45e-01	0	33	104	0	87	11863
2026-01-02 00:11:38.73	330.97	28.04	-62.2	-72.0	3.8	7.46e-01	0	33	104	0	87	11892
2026-01-02 00:11:39.73	330.45	28.13	-62.3	-72.0	3.8	7.46e-01	0	33	104	0	87	11865
2026-01-02 00:11:40.74	329.92	28.23	-62.2	-72.0	3.8	7.45e-01	0	33	104	0	87	11824
2026-01-02 00:11:41.73	329.40	28.32	-62.3	-72.0	3.8	7.46e-01	0	33	104	0	87	11875
2026-01-02 00:11:42.74	328.86	28.41	-62.3	-72.0	3.8	7.45e-01	0	33	104	0	87	11854
2026-01-02 00:11:43.74	328.33	28.49	-62.3	-72.0	3.8	7.46e-01	0	33	104	0	87	11880
2026-01-02 00:11:44.74	327.79	28.58	-62.2	-72.0	3.8	7.47e-01	0	33	104	0	87	11844
2026-01-02 00:11:45.74	327.25	28.66	-62.3	-72.0	3.8	7.47e-01	0	33	104	0	87	11935
2026-01-02 00:11:46.73	326.71	28.74	-62.3	-72.0	3.8	7.45e-01	0	33	104	0	87	11889
2026-01-02 00:11:47.74	326.16	28.82	-62.3	-72.1	3.8	7.45e-01	0	33	104	0	87	11967
2026-01-02 00:11:48.73	325.61	28.89	-62.3	-72.0	3.8	7.45e-01	0	33	104	0	87	11854
2026-01-02 00:11:49.73	325.06	28.96	-62.3	-72.1	3.8	7.46e-01	0	33	104	0	87	11997
2026-01-02 00:11:50.72	324.51	29.03	-62.3	-72.1	3.8	7.46e-01	0	33	104	0	87	11984
2026-01-02 00:11:51.72	323.95	29.10	-62.3	-72.1	3.8	7.46e-01	0	33	104	0	87	11967
2026-01-02 00:11:52.71	323.40	29.16	-62.3	-72.0	3.8	7.46e-01	0	33	104	0	87	11906
2026-01-02 00:11:53.71	322.84	29.23	-62.4	-72.1	3.8	7.45e-01	0	33	104	0	87	12012
2026-01-02 00:11:54.71	322.27	29.28	-62.3	-72.1	3.8	7.45e-01	0	33	104	0	87	12000
2026-01-02 00:11:55.71	321.70	29.34	-62.4	-72.1	3.8	7.44e-01	0	33	104	0	87	12002
2026-01-02 00:11:56.70	321.14	29.39	-62.3	-72.1	3.8	7.46e-01	0	33	104	0	87	11958
2026-01-02 00:11:57.70	320.57	29.45	-62.4	-72.1	3.8	7.45e-01	0	33	104	0	87	12040
2026-01-02 00:11:58.70	319.99	29.49	-62.4	-72.1	3.8	7.45e-01	0	33	104	0	87	12027
2026-01-02 00:11:59.70	319.42	29.54	-62.4	-72.1	3.8	7.47e-01	0	33	104	0	87	12023
2026-01-02 00:12:00.69	318.84	29.58	-62.3	-72.1	3.8	7.46e-01	0	33	104	0	87	11975
2026-01-02 00:12:01.68	318.27	29.62	-62.4	-72.1	3.8	7.47e-01	0	33	104	0	87	12039
2026-01-02 00:12:02.67	317.70	29.66	-62.4	-72.1	3.8	7.46e-01	0	33	104	0	87	12030
2026-01-02 00:12:03.66	317.12	29.69	-62.4	-72.1	3.8	7.45e-01	0	33	104	0	87	12017
2026-01-02 00:12:04.66	316.54	29.72	-62.4	-72.1	3.8	7.45e-01	0	33	104	0	87	11980
2026-01-02 00:12:05.65	315.96	29.75	-62.4	-72.1	3.8	7.46e-01	0	33	104	0	87	12064
2026-01-02 00:12:06.65	315.37	29.77	-62.4	-72.1	3.8	7.45e-01	0	33	104	0	87	12082
2026-01-02 00:12:07.64	314.79	29.80	-62.4	-72.2	3.8	7.45e-01	0	33	104	0	88	11432
2026-01-02 00:12:08.64	314.20	29.82	-62.4	-72.1	3.8	7.45e-01	0	33	104	0	88	11387
2026-01-02 00:12:09.63	313.62	29.83	-62.5	-72.2	3.8	7.48e-01	0	33	104	0	88	11443
2026-01-02 00:12:10.63	313.03	29.84	-62.4	-72.2	3.8	7.46e-01	0	33	104	0	88	11460
2026-01-02 00:12:11.62	312.45	29.85	-62.5	-72.2	3.8	7.46e-01	0	33	104	0	88	11462
2026-01-02 00:12:12.63	311.85	29.86	-62.4	-72.1	3.8	7.45e-01	0	33	104	0	88	11396
2026-01-02 00:12:13.63	311.26	29.86	-62.5	-72.2	3.8	7.46e-01	0	33	104	0	88	11467
2026-01-02 00:12:14.63	310.68	29.86	-62.4	-72.2	3.8	7.45e-01	0	33	104	0	88	11466
2026-01-02 00:12:15.64	310.08	29.86	-62.5	-72.2	3.8	7.45e-01	0	33	104	0	88	11455
2026-01-02 00:12:16.64	309.49	29.85	-62.4	-72.1	3.8	7.44e-01	0	33	104	0	88	11391
2026-01-02 00:12:17.64	308.90	29.84	-62.5	-72.2	3.8	7.45e-01	0	33	104	0	88	11489
2026-01-02 00:12:18.64	308.31	29.83	-62.5	-72.2	3.8	7.44e-01	0	33	104	0	88	11469
2026-01-02 00:12:19.65	307.72	29.82	-62.5	-72.2	3.8	7.46e-01	0	33	104	0	88	11507
2026-01-02 00:12:20.65	307.13	29.80	-62.5	-72.2	3.8	7.47e-01	0	33	104	0	88	11441
2026-01-02 00:12:21.65	306.54	29.78	-62.5	-72.2	3.8	7.47e-01	0	33	104	0	88	11507
2026-01-02 00:12:22.65	305.96	29.75	-62.5	-72.2	3.8	7.46e-01	0	33	104	0	88	11483
2026-01-02 00:12:23.65	305.37	29.72	-62.5	-72.2	3.8	7.46e-01	0	33	104	0	88	11539
2026-01-02 00:12:24.66	304.78	29.69	-62.5	-72.2	3.8	7.46e-01	0	33	104	0	88	11500
2026-01-02 00:12:25.66	304.20	29.66	-62.5	-72.3	3.8	7.47e-01	0	33	104	0	88	11567
2026-01-02 00:12:26.66	303.62	29.62	-62.5	-72.3	3.8	7.45e-01	0	33	104	0	88	11555
2026-01-02 00:12:27.66	303.04	29.58	-62.5	-72.3	3.8	7.45e-01	0	33	104	0	88	11570
2026-01-02 00:12:28.66	302.46	29.54	-62.5	-72.3	3.8	7.45e-01	0	33	104	0	88	11573
2026-01-02 00:12:29.65	301.89	29.49	-62.5	-72.3	3.8	7.44e-01	0	33	104	0	88	11573
2026-01-02 00:12:30.65	301.32	29.44	-62.6	-72.3	3.8	7.45e-01	0	33	104	0	88	11596
2026-01-02 00:12:31.65	300.74	29.39	-62.6	-72.3	3.8	7.47e-01	0	34	104	0	88	11624
2026-01-02 00:12:32.64	300.18	29.34	-62.5	-72.2	3.8	7.45e-01	0	33	104	0	88	11541
2026-01-02 00:12:33.64	299.61	29.28	-62.6	-72.3	3.8	7.45e-01	0	33	104	0	88	11619
2026-01-02 00:12:34.63	299.05	29.22	-62.5	-72.3	3.8	7.46e-01	0	33	104	0	88	11588
2026-01-02 00:12:35.63	298.49	29.16	-62.6	-72.3	3.8	7.43e-01	0	33	104	0	88	11634
2026-01-02 00:12:36.62	297.93	29.10	-62.6	-72.3	3.8	7.45e-01	0	33	104	0	88	11578
2026-01-02 00:12:37.62	297.37	29.03	-62.6	-72.3	3.8	7.45e-01	0	33	104	0	88	11609
2026-01-02 00:12:38.62	296.82	28.96	-62.6	-72.3	3.8	7.44e-01	0	33	104	0	88	11642
2026-01-02 00:12:39.63	296.26	28.89	-62.6	-72.3	3.8	7.45e-01	0	33	104	0	88	11608
2026-01-02 00:12:40.63	295.71	28.81	-62.5	-72.3	3.8	7.46e-01	0	33	104	0	88	11564
2026-01-02 00:12:41.63	295.16	28.73	-62.5	-72.3	3.8	7.46e-01	0	33	104	0	88	11565
2026-01-02 00:12:42.63	294.61	28.65	-62.5	-72.3	3.8	7.46e-01	0	33	104	0	88	11580
2026-01-02 00:12:43.64	294.07	28.57	-62.5	-72.2	3.8	7.45e-01	0	33	104	0	88	11503
2026-01-02 00:12:44.64	293.53	28.48	-62.5	-72.2	3.8	7.46e-01	0	34	104	0	88	11521
2026-01-02 00:12:45.64	292.99	28.40	-62.5	-72.2	3.8	7.46e-01	0	33	104	0	88	11519
2026-01-02 00:12:46.64	292.46	28.31	-62.5	-72.2	3.8	7.46e-01	0	33	104	0	88	11485
2026-01-02 00:12:47.64	291.93	28.22	-62.5	-72.2	3.8	7.45e-01	0	33	104	0	88	11528
2026-01-02 00:12:48.64	291.41	28.12	-62.4	-72.1	3.8	7.44e-01	0	33	104	0	88	11413
2026-01-02 00:12:49.64	290.88	28.03	-62.5	-72.2	3.8	7.45e-01	0	33	104	0	88	11487
2026-01-02 00:12:50.64	290.37	27.93	-62.5	-72.2	3.8	7.45e-01	0	33	104	0	88	11457
2026-01-02 00:12:51.63	289.86	27.83	-62.5	-72.2	3.8	7.46e-01	0	33	104	0	88	11476
2026-01-02 00:12:52.64	289.34	27.73	-62.4	-72.1	3.8	7.46e-01	0	33	104	0	88	11410
2026-01-02 00:12:53.63	288.84	27.63	-62.4	-72.2	3.8	7.46e-01	0	33	104	0	88	11441
2026-01-02 00:12:54.63	288.33	27.52	-62.4	-72.1	3.8	7.46e-01	0	33	104	0	88	11361
2026-01-02 00:12:55.64	287.83	27.42	-62.4	-72.1	3.8	7.46e-01	0	33	104	0	88	11377
2026-01-02 00:12:56.64	287.33	27.31	-62.4	-72.2	3.8	7.42e-01	0	33	104	0	88	11418
2026-01-02 00:12:57.64	286.84	27.20	-62.4	-72.1	3.8	7.45e-01	0	33	104	0	88	11376
2026-01-02 00:12:58.64	286.35	27.09	-62.4	-72.1	3.8	7.46e-01	0	33	104	0	88	11365
2026-01-02 00:12:59.64	285.86	26.97	-62.4	-72.1	3.8	7.46e-01	0	34	104	0	88	11338
2026-01-02 00:13:00.64	285.38	26.86	-62.3	-72.0	3.8	7.45e-01	0	33	104	0	88	11275
2026-01-02 00:13:01.64	284.90	26.74	-62.4	-72.1	3.8	7.47e-01	0	33	104	0	88	11347
2026-01-02 00:13:02.63	284.43	26.63	-62.3	-72.1	3.8	7.46e-01	0	34	104	0	88	11335
2026-01-02 00:13:03.63	283.96	26.51	-62.4	-72.1	3.8	7.45e-01	0	33	104	0	88	11340
2026-01-02 00:13:04.64	283.49	26.39	-62.3	-72.1	3.8	7.45e-01	0	33	104	0	88	11326
2026-01-02 00:13:05.63	283.03	26.27	-62.3	-72.1	3.8	7.46e-01	0	33	104	0	88	11291
2026-01-02 00:13:06.63	282.58	26.15	-62.3	-72.1	3.8	7.46e-01	0	34	104	0	88	11316
2026-01-02 00:13:07.63	282.12	26.02	-62.3	-72.0	3.8	7.47e-01	0	33	104	0	88	11278
2026-01-02 00:13:08.63	281.67	25.90	-62.3	-72.0	3.8	7.45e-01	0	34	104	0	88	11277
2026-01-02 00:13:09.63	281.23	25.78	-62.3	-72.0	3.8	7.45e-01	0	33	104	0	88	11267
2026-01-02 00:13:10.63	280.78	25.65	-62.3	-72.0	3.8	7.46e-01	0	33	104	0	88	11249
2026-01-02 00:13:11.63	280.34	25.52	-62.3	-72.0	3.8	7.47e-01	0	33	104	0	88	11272
2026-01-02 00:13:12.64	279.91	25.39	-62.3	-72.0	3.8	7.46e-01	0	33	104	0	88	11285
2026-01-02 00:13:13.64	279.48	25.26	-62.3	-72.0	3.8	7.45e-01	0	33	104	0	88	11216
2026-01-02 00:13:14.64	279.05	25.13	-62.3	-72.0	3.8	7.44e-01	0	34	104	0	88	11190
2026-01-02 00:13:15.64	278.63	25.00	-62.3	-72.0	3.8	7.45e-01	0	34	104	0	88	11246
2026-01-02 00:13:16.63	278.21	24.87	-62.3	-72.0	3.8	7.45e-01	0	33	104	0	88	11195
2026-01-02 00:13:17.64	277.79	24.74	-62.2	-72.0	3.8	7.47e-01	0	33	104	0	88	11170
2026-01-02 00:13:18.64	277.38	24.61	-62.3	-72.0	3.8	7.46e-01	0	33	104	0	88	11227
2026-01-02 00:13:19.65	276.97	24.47	-62.3	-72.0	3.8	7.46e-01	0	34	104	0	88	11207
2026-01-02 00:13:20.65	276.57	24.34	-62.2	-72.0	3.8	7.45e-01	0	33	104	0	88	11187
2026-01-02 00:13:21.64	276.17	24.21	-62.2	-71.9	3.8	7.45e-01	0	34	104	0	88	11109
2026-01-02 00:13:22.64	275.78	24.07	-62.2	-72.0	3.8	7.46e-01	0	33	104	0	88	11166
2026-01-02 00:13:23.64	275.39	23.94	-62.2	-71.9	3.8	7.46e-01	0	34	104	0	88	11128
2026-01-02 00:13:24.63	275.00	23.81	-62.2	-71.9	3.8	7.48e-01	0	34	104	0	88	11120
2026-01-02 00:13:25.63	274.62	23.67	-62.2	-71.9	3.8	7.45e-01	0	33	104	0	88	11093
2026-01-02 00:13:26.63	274.24	23.53	-62.2	-71.9	3.8	7.45e-01	0	34	104	0	88	11091
2026-01-02 00:13:27.63	273.86	23.40	-62.2	-71.9	3.8	7.47e-01	0	33	104	0	88	11124
2026-01-02 00:13:28.62	273.49	23.26	-62.2	-71.9	3.8	7.46e-01	0	33	104	0	88	11132
2026-01-02 00:13:29.62	273.13	23.13	-62.1	-71.8	3.8	7.46e-01	0	33	104	0	88	11014
2026-01-02 00:13:30.62	272.76	22.99	-62.2	-71.9	3.8	7.45e-01	0	34	104	0	88	11121
2026-01-02 00:13:31.61	272.40	22.85	-62.2	-71.9	3.8	7.45e-01	0	33	104	0	88	11122
2026-01-02 00:13:32.61	272.04	22.72	-62.2	-71.9	3.8	7.45e-01	0	33	104	0	88	11101
2026-01-02 00:13:33.61	271.69	22.58	-62.1	-71.8	3.8	7.45e-01	0	33	104	0	88	11026
2026-01-02 00:13:34.61	271.34	22.44	-62.2	-71.9	3.8	7.46e-01	0	34	104	0	88	11128
2026-01-02 00:13:35.61	270.99	22.30	-62.2	-71.9	3.8	7.45e-01	0	33	104	0	88	11091
2026-01-02 00:13:36.61	270.65	22.17	-62.1	-71.9	3.8	7.45e-01	0	33	104	0	88	11031
2026-01-02 00:13:37.61	270.31	22.03	-62.1	-71.8	3.8	7.44e-01	0	33	104	0	88	10979
2026-01-02 00:13:38.61	269.97	21.89	-62.1	-71.9	3.8	7.47e-01	0	33	104	0	88	11035
2026-01-02 00:13:39.61	269.64	21.75	-62.1	-71.9	3.8	7.45e-01	0	33	104	0	88	11060
2026-01-02 00:13:40.62	269.30	21.61	-62.1	-71.8	3.8	7.45e-01	0	33	104	0	88	10955
2026-01-02 00:13:41.61	268.98	21.48	-62.1	-71.8	3.8	7.45e-01	0	33	104	0	88	10968
2026-01-02 00:13:42.61	268.66	21.34	-62.1	-71.9	3.8	7.46e-01	0	33	104	0	88	11037
2026-01-02 00:13:43.61	268.34	21.20	-62.1	-71.8	3.8	7.46e-01	0	33	104	0	88	11000
2026-01-02 00:13:44.62	268.02	21.06	-62.1	-71.8	3.8	7.45e-01	0	33	104	0	88	10962
2026-01-02 00:13:45.61	267.71	20.93	-62.0	-71.8	3.8	7.45e-01	0	33	104	0	88	10924
2026-01-02 00:13:46.61	267.40	20.79	-62.1	-71.8	3.8	7.43e-01	0	33	104	0	88	10947
2026-01-02 00:13:47.61	267.09	20.66	-62.1	-71.8	3.8	7.45e-01	0	33	104	0	88	10956
2026-01-02 00:13:48.61	266.79	20.52	-62.0	-71.7	3.8	7.45e-01	0	33	104	0	88	10900
2026-01-02 00:13:49.61	266.49	20.38	-62.0	-71.7	3.8	7.47e-01	0	34	104	0	88	10865
2026-01-02 00:13:50.61	266.19	20.25	-62.0	-71.8	3.8	7.45e-01	0	33	104	0	88	10904
2026-01-02 00:13:51.61	265.90	20.11	-62.0	-71.8	3.8	7.47e-01	0	34	104	0	88	10964
2026-01-02 00:13:52.60	265.61	19.98	-62.0	-71.7	3.8	7.45e-01	0	33	104	0	88	10858
2026-01-02 00:13:53.59	265.32	19.84	-62.0	-71.7	3.8	7.47e-01	0	33	104	0	88	10845
2026-01-02 00:13:54.60	265.03	19.71	-62.0	-71.7	3.8	7.45e-01	0	33	104	0	88	10859
2026-01-02 00:13:55.59	264.75	19.57	-62.0	-71.7	3.8	7.46e-01	0	33	104	0	88	10886
2026-01-02 00:13:56.59	264.47	19.44	-62.0	-71.7	3.8	7.47e-01	0	34	104	0	88	10860
2026-01-02 00:13:57.59	264.20	19.31	-61.9	-71.6	3.8	7.44e-01	0	33	104	0	88	10770
2026-01-02 00:13:58.59	263.92	19.17	-62.0	-71.7	3.8	7.45e-01	0	33	104	0	88	10808
2026-01-02 00:13:59.59	263.65	19.04	-62.0	-71.7	3.8	7.46e-01	0	33	104	0	88	10807
2026-01-02 00:14:00.58	263.39	18.91	-61.9	-71.6	3.8	7.46e-01	0	33	104	0	88	10778
2026-01-02 00:14:01.58	263.12	18.77	-61.9	-71.7	3.8	7.45e-01	0	33	104	0	88	10783
2026-01-02 00:14:02.58	262.86	18.64	-61.9	-71.7	3.8	7.45e-01	0	34	104	0	88	10790
2026-01-02 00:14:03.58	262.60	18.51	-61.9	-71.6	3.8	7.46e-01	0	33	104	0	88	10758
2026-01-02 00:14:04.57	262.34	18.38	-61.9	-71.7	3.8	7.45e-01	0	33	104	0	88	10795
2026-01-02 00:14:05.58	262.09	18.25	-61.9	-71.6	3.8	7.45e-01	0	33	104	0	88	10726
2026-01-02 00:14:06.58	261.83	18.12	-61.9	-71.6	3.8	7.46e-01	0	34	104	0	88	10750
2026-01-02 00:14:07.57	261.59	17.99	-61.9	-71.6	3.8	7.44e-01	0	33	104	0	88	10707
2026-01-02 00:14:08.57	261.34	17.86	-61.9	-71.6	3.8	7.44e-01	0	33	104	0	88	10685
2026-01-02 00:14:09.57	261.10	17.73	-61.9	-71.6	3.8	7.46e-01	0	33	104	0	88	10685
2026-01-02 00:14:10.56	260.86	17.60	-61.9	-71.6	3.8	7.46e-01	0	33	104	0	88	10704
2026-01-02 00:14:11.56	260.62	17.47	-61.8	-71.6	3.8	7.45e-01	0	33	104	0	88	10662
2026-01-02 00:14:12.56	260.38	17.35	-61.8	-71.6	3.8	7.44e-01	0	33	104	0	88	10677
2026-01-02 00:14:13.56	260.14	17.22	-61.8	-71.5	3.8	7.43e-01	0	33	104	0	88	10635
2026-01-02 00:14:14.55	259.91	17.09	-61.8	-71.5	3.8	7.45e-01	0	33	104	0	88	10651
2026-01-02 00:14:15.55	259.68	16.97	-61.8	-71.6	3.8	7.45e-01	0	33	104	0	88	10664
2026-01-02 00:14:16.55	259.46	16.84	-61.8	-71.5	3.8	7.44e-01	0	33	104	0	88	10578
2026-01-02 00:14:17.55	259.23	16.72	-61.8	-71.5	3.8	7.47e-01	0	33	104	0	88	10619
2026-01-02 00:14:18.55	259.01	16.59	-61.8	-71.5	3.8	7.45e-01	0	33	104	0	88	10583
2026-01-02 00:14:19.55	258.79	16.47	-61.8	-71.5	3.8	7.45e-01	0	34	104	0	88	10565
2026-01-02 00:14:20.55	258.57	16.34	-61.8	-71.5	3.8	7.45e-01	0	33	104	0	88	10551
2026-01-02 00:14:21.56	258.35	16.22	-61.8	-71.5	3.8	7.46e-01	0	33	104	0	88	10564
2026-01-02 00:14:22.56	258.14	16.09	-61.8	-71.5	3.8	7.45e-01	0	33	104	0	88	10568
2026-01-02 00:14:23.56	257.92	15.97	-61.7	-71.5	3.8	7.47e-01	0	33	104	0	88	10565
2026-01-02 00:14:24.56	257.71	15.85	-61.7	-71.5	3.8	7.46e-01	0	33	104	0	88	10554
2026-01-02 00:14:25.55	257.51	15.73	-61.7	-71.4	3.8	7.46e-01	0	33	104	0	88	10514
2026-01-02 00:14:26.56	257.30	15.60	-61.7	-71.4	3.8	7.46e-01	0	34	104	0	88	10515
2026-01-02 00:14:27.56	257.09	15.48	-61.7	-71.4	3.8	7.46e-01	0	34	104	0	88	10510
2026-01-02 00:14:28.55	256.89	15.37	-61.7	-71.4	3.8	7.46e-01	0	33	104	0	88	10472
2026-01-02 00:14:29.55	256.69	15.25	-61.7	-71.4	3.8	7.45e-01	0	34	104	0	88	10509
2026-01-02 00:14:30.55	256.50	15.13	-61.7	-71.4	3.8	7.46e-01	0	34	104	0	87	11073
2026-01-02 00:14:31.55	256.30	15.01	-61.7	-71.4	3.8	7.45e-01	0	33	104	0	87	11090
2026-01-02 00:14:32.55	256.11	14.89	-61.6	-71.3	3.8	7.46e-01	0	33	104	0	87	11021
2026-01-02 00:14:33.55	255.91	14.77	-61.6	-71.3	3.8	7.45e-01	0	33	104	0	87	11027
2026-01-02 00:14:34.56	255.72	14.65	-61.6	-71.3	3.8	7.46e-01	0	34	104	0	87	11018
2026-01-02 00:14:35.55	255.53	14.54	-61.6	-71.4	3.9	7.47e-01	0	33	104	0	87	11052
2026-01-02 00:14:36.55	255.35	14.42	-61.6	-71.3	3.8	7.45e-01	0	34	104	0	87	11020
2026-01-02 00:14:37.54	255.16	14.31	-61.6	-71.3	3.8	7.45e-01	0	33	104	0	87	10963
2026-01-02 00:14:38.54	254.98	14.19	-61.6	-71.3	3.8	7.47e-01	0	33	104	0	87	10999
2026-01-02 00:14:39.53	254.80	14.08	-61.6	-71.3	3.8	7.46e-01	0	33	104	0	87	10966
2026-01-02 00:14:40.53	254.62	13.96	-61.6	-71.3	3.8	7.46e-01	0	34	104	0	87	10974
2026-01-02 00:14:41.53	254.44	13.85	-61.6	-71.3	3.8	7.46e-01	0	33	104	0	87	10988
2026-01-02 00:14:42.53	254.27	13.74	-61.6	-71.3	3.8	7.44e-01	0	34	104	0	87	10966
2026-01-02 00:14:43.53	254.09	13.62	-61.6	-71.3	3.8	7.46e-01	0	34	104	0	87	10964
2026-01-02 00:14:44.53	253.92	13.51	-61.6	-71.3	3.8	7.45e-01	0	33	104	0	87	10929
2026-01-02 00:14:45.53	253.75	13.40	-61.6	-71.3	3.8	7.46e-01	0	33	104	0	87	10930
2026-01-02 00:14:46.53	253.58	13.29	-61.5	-71.3	3.8	7.47e-01	0	33	104	0	87	10925
2026-01-02 00:14:47.52	253.41	13.18	-61.5	-71.2	3.8	7.46e-01	0	34	104	0	87	10890
2026-01-02 00:14:48.52	253.25	13.07	-61.5	-71.3	3.8	7.46e-01	0	34	104	0	87	10907
2026-01-02 00:14:49.53	253.08	12.96	-61.5	-71.2	3.8	7.44e-01	0	33	104	0	87	10854
2026-01-02 00:14:50.52	252.92	12.85	-61.5	-71.2	3.8	7.43e-01	0	33	104	0	87	10838
2026-01-02 00:14:51.53	252.75	12.74	-61.5	-71.2	3.8	7.44e-01	0	34	104	0	87	10837
2026-01-02 00:14:52.53	252.59	12.63	-61.5	-71.2	3.8	7.45e-01	0	34	104	0	87	10850
2026-01-02 00:14:53.53	252.43	12.52	-61.5	-71.2	3.8	7.45e-01	0	34	104	0	87	10862
2026-01-02 00:14:54.54	252.27	12.41	-61.5	-71.2	3.8	7.47e-01	0	33	104	0	87	10807
2026-01-02 00:14:55.54	252.12	12.30	-61.5	-71.2	3.8	7.46e-01	0	33	104	0	87	10842
2026-01-02 00:14:56.53	251.97	12.20	-61.5	-71.2	3.8	7.46e-01	0	34	104	0	87	10821
2026-01-02 00:14:57.53	251.81	12.09	-61.5	-71.2	3.8	7.48e-01	0	34	104	0	87	10858
2026-01-02 00:14:58.53	251.66	11.99	-61.4	-71.2	3.8	7.46e-01	0	34	104	0	87	10789
2026-01-02 00:14:59.53	251.51	11.88	-61.4	-71.1	3.8	7.47e-01	0	33	104	0	87	10767
2026-01-02 00:15:00.53	251.36	11.78	-61.4	-71.2	3.8	7.46e-01	0	33	104	0	87	10789
2026-01-02 00:15:01.52	251.21	11.67	-61.4	-71.1	3.8	7.46e-01	0	33	104	0	87	10775
2026-01-02 00:15:02.52	251.07	11.57	-61.4	-71.1	3.8	7.47e-01	0	34	104	0	87	10725
2026-01-02 00:15:03.51	250.92	11.47	-61.4	-71.1	3.8	7.44e-01	0	34	104	0	87	10749
2026-01-02 00:15:04.51	250.78	11.36	-61.4	-71.2	3.8	7.44e-01	0	34	104	0	87	10782
2026-01-02 00:15:05.50	250.64	11.26	-61.4	-71.2	3.8	7.45e-01	0	33	104	0	87	10787
2026-01-02 00:15:06.50	250.50	11.16	-61.4	-71.1	3.8	7.47e-01	0	34	104	0	87	10742
2026-01-02 00:15:07.49	250.36	11.06	-61.4	-71.1	3.8	7.47e-01	0	33	104	0	87	10733
2026-01-02 00:15:08.48	250.22	10.96	-61.4	-71.1	3.8	7.46e-01	0	33	104	0	87	10722
2026-01-02 00:15:09.47	250.09	10.86	-61.4	-71.1	3.8	7.44e-01	0	34	104	0	87	10718
2026-01-02 00:15:10.46	249.95	10.76	-61.4	-71.1	3.8	7.45e-01	0	33	104	0	87	10675
2026-01-02 00:15:11.47	249.81	10.66	-61.4	-71.1	3.8	7.45e-01	0	34	104	0	87	10703
2026-01-02 00:15:12.46	249.68	10.56	-61.4	-71.1	3.8	7.44e-01	0	33	104	0	87	10702
2026-01-02 00:15:13.46	249.55	10.46	-61.4	-71.1	3.8	7.44e-01	0	33	104	0	87	10701
2026-01-02 00:15:14.45	249.42	10.37	-61.3	-71.1	3.8	7.46e-01	0	33	104	0	87	10657
2026-01-02 00:15:15.45	249.29	10.27	-61.3	-71.0	3.8	7.45e-01	0	34	104	0	87	10596
2026-01-02 00:15:16.45	249.16	10.17	-61.3	-71.0	3.8	7.46e-01	0	34	104	0	87	10636
2026-01-02 00:15:17.45	249.03	10.07	-61.3	-71.0	3.8	7.43e-01	0	34	104	0	87	10625
2026-01-02 00:15:18.45	248.90	9.98	-61.3	-71.0	3.8	7.44e-01	0	34	104	0	87	10595
2026-01-02 00:15:19.45	248.78	9.88	-61.3	-71.0	3.8	7.44e-01	0	34	104	0	87	10590
2026-01-02 00:15:20.44	248.65	9.78	-61.3	-71.0	3.8	7.45e-01	0	33	104	0	87	10646
2026-01-02 00:15:21.45	248.53	9.69	-61.3	-71.0	3.8	7.46e-01	0	33	104	0	87	10581
2026-01-02 00:15:22.44	248.40	9.59	-61.3	-71.0	3.8	7.46e-01	0	33	104	0	87	10562
2026-01-02 00:15:23.44	248.28	9.50	-61.3	-71.0	3.8	7.44e-01	0	34	104	0	87	10558
2026-01-02 00:15:24.44	248.16	9.40	-61.3	-71.0	3.8	7.45e-01	0	33	104	0	87	10572
2026-01-02 00:15:25.43	248.04	9.31	-61.3	-71.0	3.8	7.45e-01	0	33	104	0	87	10602
2026-01-02 00:15:26.43	247.92	9.22	-61.2	-71.0	3.8	7.45e-01	0	34	104	0	87	10546
2026-01-02 00:15:27.43	247.81	9.12	-61.2	-70.9	3.8	7.46e-01	0	33	104	0	87	10510
2026-01-02 00:15:28.43	247.69	9.03	-61.2	-70.9	3.8	7.46e-01	0	34	104	0	87	10525
2026-01-02 00:15:29.43	247.57	8.94	-61.2	-71.0	3.8	7.47e-01	0	34	104	0	87	10570
2026-01-02 00:15:30.43	247.46	8.85	-61.2	-70.9	3.8	7.45e-01	0	33	104	0	87	10482
2026-01-02 00:15:31.42	247.34	8.76	-61.2	-70.9	3.8	7.45e-01	0	33	104	0	86	11079
2026-01-02 00:15:32.42	247.23	8.66	-61.2	-70.9	3.8	7.46e-01	0	34	104	0	86	11067
2026-01-02 00:15:33.42	247.12	8.57	-61.2	-70.9	3.8	7.46e-01	0	33	104	0	86	11136
2026-01-02 00:15:34.41	247.01	8.48	-61.2	-70.9	3.8	7.44e-01	0	34	104	0	86	11077
2026-01-02 00:15:35.40	246.90	8.39	-61.1	-70.8	3.8	7.46e-01	0	34	104	0	86	11005
2026-01-02 00:15:36.41	246.79	8.30	-61.2	-70.9	3.8	7.45e-01	0	34	104	0	86	11060
2026-01-02 00:15:37.41	246.68	8.21	-61.2	-70.9	3.8	7.46e-01	0	34	104	0	86	11071
2026-01-02 00:15:38.41	246.57	8.12	-61.1	-70.8	3.8	7.45e-01	0	34	104	0	86	11010
2026-01-02 00:15:39.40	246.47	8.04	-61.1	-70.8	3.8	7.48e-01	0	34	104	0	86	11008
2026-01-02 00:15:40.40	246.36	7.95	-61.1	-70.9	3.8	7.45e-01	0	33	104	0	86	11036
2026-01-02 00:15:41.40	246.26	7.86	-61.1	-70.9	3.8	7.46e-01	0	33	104	0	86	11034
2026-01-02 00:15:42.40	246.15	7.77	-61.1	-70.8	3.8	7.46e-01	0	34	104	0	86	10984
2026-01-02 00:15:43.39	246.05	7.69	-61.1	-70.8	3.8	7.43e-01	0	34	104	0	86	10942
2026-01-02 00:15:44.39	245.95	7.60	-61.1	-70.8	3.8	7.45e-01	0	33	104	0	86	10970
2026-01-02 00:15:45.39	245.84	7.51	-61.1	-70.8	3.8	7.45e-01	0	34	104	0	86	10980
2026-01-02 00:15:46.40	245.74	7.42	-61.1	-70.8	3.8	7.45e-01	0	34	104	0	86	10965
2026-01-02 00:15:47.40	245.64	7.34	-61.0	-70.7	3.8	7.44e-01	0	34	104	0	86	10860
2026-01-02 00:15:48.40	245.54	7.25	-61.0	-70.7	3.8	7.46e-01	0	34	104	0	86	10874
2026-01-02 00:15:49.41	245.44	7.17	-61.1	-70.8	3.8	7.44e-01	0	33	104	0	86	10928
2026-01-02 00:15:50.40	245.35	7.08	-61.0	-70.7	3.8	7.46e-01	0	33	104	0	86	10867
2026-01-02 00:15:51.40	245.25	7.00	-60.9	-70.6	3.8	7.45e-01	0	34	104	0	86	10769
2026-01-02 00:15:52.39	245.15	6.91	-61.0	-70.7	3.8	7.46e-01	0	34	104	0	86	10795
2026-01-02 00:15:53.39	245.06	6.83	-61.0	-70.7	3.8	7.45e-01	0	33	104	0	86	10842
2026-01-02 00:15:54.39	244.96	6.75	-60.9	-70.6	3.8	7.44e-01	0	34	104	0	86	10746
2026-01-02 00:15:55.39	244.87	6.66	-60.9	-70.6	3.8	7.47e-01	0	33	104	0	86	10682
2026-01-02 00:15:56.38	244.78	6.58	-60.9	-70.6	3.8	7.46e-01	0	34	104	0	86	10765
2026-01-02 00:15:57.39	244.68	6.50	-60.9	-70.6	3.8	7.46e-01	0	34	104	0	86	10776
2026-01-02 00:15:58.39	244.59	6.42	-60.9	-70.6	3.8	7.45e-01	0	34	104	0	86	10719
2026-01-02 00:15:59.39	244.50	6.33	-60.8	-70.5	3.8	7.44e-01	0	33	104	0	86	10601
2026-01-02 00:16:00.38	244.41	6.25	-60.8	-70.6	3.8	7.47e-01	0	33	104	0	86	10680
2026-01-02 00:16:01.38	244.32	6.17	-60.9	-70.6	3.8	7.46e-01	0	33	104	0	86	10717
2026-01-02 00:16:02.38	244.23	6.09	-60.8	-70.5	3.8	7.47e-01	0	33	104	0	86	10618
2026-01-02 00:16:03.37	244.14	6.01	-60.7	-70.5	3.8	7.46e-01	0	34	104	0	86	10545
2026-01-02 00:16:04.36	244.06	5.93	-60.8	-70.5	3.8	7.46e-01	0	34	104	0	86	10585
2026-01-02 00:16:05.36	243.97	5.85	-60.8	-70.5	3.8	7.46e-01	0	33	104	0	86	10621
2026-01-02 00:16:06.36	243.88	5.77	-60.8	-70.5	3.8	7.46e-01	0	34	104	0	86	10584
2026-01-02 00:16:07.36	243.79	5.69	-60.6	-70.4	3.8	7.44e-01	0	34	104	0	85	11039
2026-01-02 00:16:08.35	243.71	5.61	-60.7	-70.4	3.8	7.43e-01	0	34	104	0	85	11122
2026-01-02 00:16:09.35	243.63	5.53	-60.8	-70.5	3.8	7.45e-01	0	34	104	0	85	11199
2026-01-02 00:16:10.34	243.54	5.45	-60.7	-70.4	3.8	7.46e-01	0	34	104	0	85	11140
2026-01-02 00:16:11.33	243.46	5.38	-60.6	-70.3	3.8	7.46e-01	0	33	104	0	85	10960
2026-01-02 00:16:12.33	243.38	5.30	-60.6	-70.3	3.8	7.45e-01	0	34	104	0	85	10983
2026-01-02 00:16:13.33	243.29	5.22	-60.7	-70.4	3.8	7.46e-01	0	33	104	0	85	11132
2026-01-02 00:16:14.33	243.21	5.14	-60.6	-70.4	3.8	7.45e-01	0	33	104	0	85	11032
2026-01-02 00:16:15.32	243.13	5.06	-60.5	-70.2	3.8	7.46e-01	0	34	104	0	85	10800
2026-01-02 00:16:16.32	243.05	4.99	-60.5	-70.2	3.8	7.47e-01	0	34	104	0	85	10889
2026-01-02 00:16:17.33	242.97	4.91	-61.0	-70.7	3.8	7.46e-01	0	34	104	0	85	11512
2026-01-02 00:16:18.32	242.89	4.83	-61.6	-71.3	3.8	7.44e-01	0	34	104	0	86	11567
2026-01-02 00:16:19.32	242.81	4.76	-61.8	-71.6	3.8	7.46e-01	0	34	104	0	86	11975
2026-01-02 00:16:20.32	242.73	4.68	-62.0	-71.8	3.8	7.45e-01	0	33	104	0	87	11569
2026-01-02 00:16:21.32	242.66	4.61	-62.2	-71.9	3.8	7.44e-01	0	34	104	0	87	11742
2026-01-02 00:16:22.32	242.58	4.53	-62.4	-72.1	3.8	7.45e-01	0	34	104	0	87	11990
2026-01-02 00:16:23.31	242.50	4.46	-62.5	-72.2	3.8	7.46e-01	0	34	104	0	88	11484
2026-01-02 00:16:24.31	242.43	4.38	-62.6	-72.3	3.8	7.48e-01	0	34	104	0	88	11666
2026-01-02 00:16:25.32	242.35	4.30	-62.8	-72.5	3.8	7.46e-01	0	33	104	0	88	11844
2026-01-02 00:16:26.32	242.28	4.23	-62.9	-72.6	3.8	7.45e-01	0	34	104	0	88	12015
2026-01-02 00:16:27.31	242.20	4.16	-62.9	-72.6	3.8	7.44e-01	0	34	104	0	88	12085
2026-01-02 00:16:28.31	242.13	4.08	-63.0	-72.7	3.8	7.45e-01	0	34	104	0	89	11483
2026-01-02 00:16:29.31	242.06	4.01	-63.0	-72.8	3.8	7.47e-01	0	34	104	0	89	11559
2026-01-02 00:16:30.31	241.98	3.93	-63.0	-72.8	3.8	7.46e-01	0	34	104	0	89	11572
2026-01-02 00:16:31.31	241.91	3.86	-63.1	-72.8	3.8	7.45e-01	0	34	104	0	89	11604
2026-01-02 00:16:32.31	241.84	3.79	-63.1	-72.8	3.8	7.47e-01	0	34	104	0	89	11594
2026-01-02 00:16:33.31	241.77	3.72	-63.1	-72.8	3.8	7.44e-01	0	33	104	0	89	11634
2026-01-02 00:16:34.31	241.70	3.64	-63.1	-72.8	3.8	7.46e-01	0	33	104	0	89	11641
2026-01-02 00:16:35.32	241.62	3.57	-63.1	-72.8	3.8	7.44e-01	0	34	104	0	89	11630
2026-01-02 00:16:36.32	241.55	3.50	-63.1	-72.9	3.8	7.46e-01	0	34	104	0	89	11720
2026-01-02 00:16:37.32	241.48	3.43	-63.1	-72.9	3.8	7.45e-01	0	34	104	0	89	11722
2026-01-02 00:16:38.32	241.42	3.35	-63.2	-72.9	3.8	7.45e-01	0	33	104	0	89	11727
2026-01-02 00:16:39.32	241.35	3.28	-63.2	-72.9	3.8	7.46e-01	0	34	104	0	89	11694
2026-01-02 00:16:40.32	241.28	3.21	-63.1	-72.8	3.8	7.45e-01	0	34	104	0	89	11673
2026-01-02 00:16:41.32	241.21	3.14	-63.1	-72.8	3.8	7.46e-01	0	34	104	0	89	11612
2026-01-02 00:16:42.32	241.14	3.07	-63.1	-72.8	3.8	7.46e-01	0	34	104	0	89	11603
2026-01-02 00:16:43.32	241.08	3.00	-63.1	-72.8	3.8	7.45e-01	0	34	104	0	89	11593
2026-01-02 00:16:44.32	241.01	2.93	-63.1	-72.8	3.8	7.46e-01	0	34	104	0	89	11619
2026-01-02 00:16:45.32	240.95	2.86	-63.0	-72.8	3.8	7.46e-01	0	34	104	0	89	11563
2026-01-02 00:16:46.32	240.88	2.79	-63.0	-72.7	3.8	7.45e-01	0	34	104	0	89	11543
2026-01-02 00:16:47.32	240.81	2.72	-63.0	-72.8	3.8	7.44e-01	0	34	104	0	89	11605
2026-01-02 00:16:48.32	240.75	2.65	-63.0	-72.7	3.8	7.46e-01	0	34	104	0	89	11492
2026-01-02 00:16:49.32	240.69	2.58	-63.0	-72.7	3.8	7.45e-01	0	34	104	0	89	11469
2026-01-02 00:16:50.32	240.62	2.51	-63.0	-72.7	3.8	7.45e-01	0	34	104	0	89	11450
2026-01-02 00:16:51.32	240.56	2.44	-63.0	-72.7	3.8	7.45e-01	0	34	104	0	89	11474
2026-01-02 00:16:52.32	240.50	2.37	-62.9	-72.7	3.8	7.47e-01	0	33	104	0	89	11437
2026-01-02 00:16:53.32	240.43	2.30	-62.9	-72.6	3.8	7.45e-01	0	34	104	0	89	11413
2026-01-02 00:16:54.31	240.37	2.24	-62.9	-72.6	3.8	7.46e-01	0	34	104	0	89	11411
2026-01-02 00:16:55.32	240.31	2.17	-62.9	-72.7	3.8	7.45e-01	0	34	104	0	89	11451
2026-01-02 00:16:56.31	240.25	2.10	-62.9	-72.6	3.8	7.46e-01	0	33	104	0	89	11417
2026-01-02 00:16:57.31	240.19	2.03	-62.9	-72.7	3.8	7.46e-01	0	33	104	0	89	11448
2026-01-02 00:16:58.31	240.13	1.96	-62.9	-72.6	3.8	7.44e-01	0	33	104	0	89	11408
2026-01-02 00:16:59.30	240.07	1.90	-62.9	-72.6	3.8	7.45e-01	0	34	104	0	89	11379
2026-01-02 00:17:00.30	240.01	1.83	-62.9	-72.7	3.8	7.45e-01	0	33	104	0	89	11418

#Closed at: 2026-01-02 00:17:00
#Recorded file [0 MB]: D:/lorett/data/31004_260102_030728.dat