passes_logs/2026/01/02/R3.2S_Murmansk/R3.2S_Murmansk__20260102_115302_AQUA_rec.log

#Pass ID: 20260102_115302_AQUA
#Satellite: AQUA
#Configuration: AQUA
#almurnet v.1.7.20251203
#Start time: 2026-01-02 11:53:03

#Version: 2.2.20231116
#Station: R3.2S_Murmansk
#Location: 33.079688 lon 68.888172 lat
#TLE: 1 27424U 02022A   25365.92641127  .00002078  00000+0  42628-3 0  9999
#TLE: 2 27424  98.4058 327.1196 0001962  94.7781 340.6230 14.61783896258835

#Time	Az	El	Level	Level2	SNR	BER	BlckErr	Temp	State	Recorded	gain1	gain2
2026-01-02 11:53:03.68	168.34	2.05	-59.5	-78.2	3.8	7.46e-01	0	30	0	0	88	29990
2026-01-02 11:53:04.68	168.36	2.12	-59.4	-77.4	3.8	7.45e-01	0	30	104	0	86	30591
2026-01-02 11:53:05.69	168.39	2.18	-59.4	-77.4	3.8	7.47e-01	0	30	104	0	86	30401
2026-01-02 11:53:06.69	168.41	2.25	-59.4	-77.5	3.8	7.46e-01	0	30	104	0	86	30946
2026-01-02 11:53:07.69	168.43	2.32	-59.4	-77.4	3.8	7.46e-01	0	30	104	0	86	30681
2026-01-02 11:53:08.69	168.46	2.38	-59.5	-77.8	3.8	7.47e-01	0	30	104	0	86	31829
2026-01-02 11:53:09.70	168.48	2.45	-59.5	-78.0	3.8	7.46e-01	0	30	104	0	86	32736
2026-01-02 11:53:10.71	168.50	2.52	-59.5	-78.0	3.8	7.45e-01	0	30	104	0	86	32924
2026-01-02 11:53:11.72	168.53	2.59	-59.5	-78.2	3.8	7.49e-01	0	30	104	0	86	33439
2026-01-02 11:53:12.72	168.55	2.65	-59.4	-78.0	3.8	7.47e-01	0	30	104	0	86	32910
2026-01-02 11:53:13.73	168.58	2.72	-59.4	-77.9	3.8	7.45e-01	0	30	104	0	86	32278
2026-01-02 11:53:14.74	168.60	2.79	-59.4	-77.8	3.8	7.45e-01	0	30	104	0	86	31812
2026-01-02 11:53:15.74	168.63	2.86	-59.4	-77.6	3.8	7.49e-01	0	30	104	0	86	31165
2026-01-02 11:53:16.74	168.65	2.93	-59.4	-77.7	3.9	7.44e-01	0	30	104	0	86	31687
2026-01-02 11:53:17.75	168.68	3.00	-59.5	-78.0	3.8	7.46e-01	0	30	104	0	86	32631
2026-01-02 11:53:18.75	168.70	3.06	-59.5	-78.2	3.8	7.50e-01	0	31	104	0	86	33527
2026-01-02 11:53:19.76	168.73	3.13	-59.5	-78.1	3.8	7.42e-01	0	30	104	0	86	33203
2026-01-02 11:53:20.76	168.75	3.20	-59.4	-77.2	3.8	7.43e-01	0	30	104	0	86	29877
2026-01-02 11:53:21.77	168.78	3.27	-59.4	-75.1	4.0	7.35e-01	0	31	104	0	86	23446
2026-01-02 11:53:22.78	168.80	3.34	-59.3	-72.7	5.0	7.07e-01	0	30	0	0	86	17825
2026-01-02 11:53:23.80	168.83	3.41	-59.2	-71.0	6.0	6.79e-01	65	31	0	524288	86	14601
2026-01-02 11:53:24.80	168.85	3.48	-59.1	-69.3	7.3	6.54e-01	90	30	0	2097152	86	11989
2026-01-02 11:53:25.81	168.88	3.55	-58.9	-67.9	8.5	6.34e-01	0	31	0	4194304	86	10234
2026-01-02 11:53:26.82	168.90	3.62	-58.7	-66.7	9.6	6.26e-01	0	31	0	5767168	86	8956
2026-01-02 11:53:27.82	168.93	3.69	-58.6	-66.0	10.2	6.19e-01	0	31	0	7864320	86	8210
2026-01-02 11:53:28.83	168.96	3.77	-58.4	-65.2	10.9	6.15e-01	0	31	0	9437184	86	7537
2026-01-02 11:53:29.84	168.98	3.84	-58.3	-64.8	11.2	6.13e-01	0	31	0	11534336	85	7610
2026-01-02 11:53:30.85	169.01	3.91	-58.2	-64.5	11.4	6.13e-01	0	31	0	13631488	85	7357
2026-01-02 11:53:31.85	169.04	3.98	-58.1	-64.1	11.8	6.09e-01	0	31	0	15204352	85	7002
2026-01-02 11:53:32.85	169.06	4.05	-58.1	-64.0	11.9	6.12e-01	0	31	0	17301504	85	6893
2026-01-02 11:53:33.86	169.09	4.12	-58.0	-63.8	12.0	6.12e-01	0	31	0	19398656	85	6795
2026-01-02 11:53:34.87	169.12	4.20	-58.0	-63.6	12.1	6.10e-01	0	31	0	20971520	85	6645
2026-01-02 11:53:35.88	169.14	4.27	-57.9	-63.3	12.3	6.09e-01	0	31	0	23068672	84	6801
2026-01-02 11:53:36.88	169.17	4.34	-57.8	-63.1	12.5	6.09e-01	0	31	0	24641536	84	6602
2026-01-02 11:53:37.89	169.20	4.41	-57.7	-62.8	12.7	6.08e-01	0	31	0	26738688	84	6407
2026-01-02 11:53:38.89	169.22	4.49	-57.7	-62.8	12.7	6.10e-01	0	31	0	28311552	84	6383
2026-01-02 11:53:39.90	169.25	4.56	-57.6	-62.6	12.8	6.08e-01	0	31	0	30408704	84	6271
2026-01-02 11:53:40.90	169.28	4.63	-57.7	-62.9	12.6	6.09e-01	0	31	0	32505856	84	6461
2026-01-02 11:53:41.91	169.31	4.71	-57.8	-63.3	12.4	6.09e-01	0	31	0	34078720	84	6727
2026-01-02 11:53:42.91	169.33	4.78	-57.9	-63.5	12.2	6.11e-01	0	31	0	36175872	84	6929
2026-01-02 11:53:43.91	169.36	4.85	-58.1	-64.0	11.9	6.10e-01	0	31	0	38273024	84	7306
2026-01-02 11:53:44.92	169.39	4.93	-58.4	-65.1	11.0	6.15e-01	0	31	0	39845888	84	8339
2026-01-02 11:53:45.92	169.42	5.00	-58.5	-65.9	10.3	6.17e-01	0	31	0	41943040	84	9148
2026-01-02 11:53:46.91	169.45	5.08	-55.4	-58.0	15.3	6.08e-01	0	31	0	43515904	79	4890
2026-01-02 11:53:47.92	169.47	5.15	-57.3	-61.7	13.5	6.06e-01	0	31	0	45613056	82	6318
2026-01-02 11:53:48.93	169.50	5.23	-59.2	-72.2	5.3	7.03e-01	10	31	0	47185920	86	16834
2026-01-02 11:53:49.93	169.53	5.30	-59.4	-75.3	4.0	7.40e-01	0	31	104	47185920	86	23861
2026-01-02 11:53:50.94	169.56	5.38	-53.7	-55.6	15.8	6.07e-01	0	31	0	47185920	76	4408
2026-01-02 11:53:51.94	169.59	5.45	-53.5	-55.4	16.1	6.07e-01	0	31	0	49283072	76	4301
2026-01-02 11:53:52.95	169.62	5.53	-53.1	-54.9	16.2	6.07e-01	0	31	0	51380224	75	4296
2026-01-02 11:53:53.96	169.65	5.61	-53.2	-54.9	16.2	6.08e-01	0	31	0	52953088	75	4311
2026-01-02 11:53:54.95	169.68	5.68	-53.1	-54.8	16.2	6.07e-01	0	31	0	55050240	75	4287
2026-01-02 11:53:55.96	169.71	5.76	-53.0	-54.6	16.3	6.05e-01	0	31	0	56623104	75	4192
2026-01-02 11:53:56.96	169.74	5.84	-53.1	-54.8	16.2	6.06e-01	0	31	0	58720256	75	4250
2026-01-02 11:53:57.97	169.77	5.91	-52.9	-54.5	16.2	6.07e-01	0	31	0	60293120	74	4364
2026-01-02 11:53:58.97	169.80	5.99	-52.9	-54.5	16.3	6.06e-01	0	31	0	62390272	74	4372
2026-01-02 11:53:59.98	169.83	6.07	-52.9	-54.5	16.3	6.05e-01	0	31	0	64487424	74	4384
2026-01-02 11:54:00.98	169.86	6.15	-52.8	-54.4	16.3	6.09e-01	0	31	0	66060288	74	4326
2026-01-02 11:54:01.98	169.89	6.22	-52.9	-54.5	16.3	6.08e-01	0	31	0	68157440	74	4360
2026-01-02 11:54:02.99	169.92	6.30	-52.7	-54.3	16.4	6.06e-01	0	31	0	69730304	74	4260
2026-01-02 11:54:04.00	169.95	6.38	-52.8	-54.4	16.3	6.06e-01	0	31	0	71827456	74	4310
2026-01-02 11:54:05.00	169.98	6.46	-52.8	-54.4	16.3	6.07e-01	0	31	0	73924608	74	4334
2026-01-02 11:54:06.01	170.01	6.54	-52.8	-54.3	16.4	6.08e-01	0	31	0	75497472	74	4285
2026-01-02 11:54:07.02	170.04	6.62	-52.8	-54.4	16.3	6.07e-01	0	31	0	77594624	74	4314
2026-01-02 11:54:08.03	170.08	6.70	-52.7	-54.3	16.4	6.06e-01	0	31	0	79167488	74	4277
2026-01-02 11:54:09.04	170.11	6.78	-52.7	-54.2	16.4	6.04e-01	0	31	0	81264640	74	4241
2026-01-02 11:54:10.05	170.14	6.86	-52.6	-54.2	16.4	6.07e-01	0	31	0	83361792	74	4218
2026-01-02 11:54:11.05	170.17	6.94	-52.6	-54.2	16.4	6.05e-01	0	31	0	84934656	74	4218
2026-01-02 11:54:12.05	170.20	7.02	-52.7	-54.3	16.4	6.06e-01	0	31	0	87031808	74	4243
2026-01-02 11:54:13.05	170.24	7.10	-52.8	-54.3	16.4	6.04e-01	0	31	0	88604672	74	4290
2026-01-02 11:54:14.06	170.27	7.19	-52.6	-54.2	16.4	6.07e-01	0	31	0	90701824	74	4194
2026-01-02 11:54:15.07	170.30	7.27	-52.6	-54.1	16.4	6.07e-01	0	31	0	92798976	74	4185
2026-01-02 11:54:16.06	170.33	7.35	-52.7	-54.2	16.4	6.06e-01	0	31	0	94371840	74	4218
2026-01-02 11:54:17.05	170.37	7.43	-52.6	-54.1	16.4	6.06e-01	0	31	0	96468992	74	4193
2026-01-02 11:54:18.06	170.40	7.51	-52.5	-54.0	16.5	6.06e-01	0	31	0	98041856	74	4128
2026-01-02 11:54:19.07	170.43	7.60	-52.6	-54.1	16.5	6.07e-01	0	31	0	100139008	74	4153
2026-01-02 11:54:20.07	170.47	7.68	-52.5	-54.0	16.5	6.06e-01	0	31	0	101711872	74	4137
2026-01-02 11:54:21.07	170.50	7.76	-52.5	-54.0	16.5	6.07e-01	0	31	0	103809024	74	4103
2026-01-02 11:54:22.08	170.53	7.85	-52.5	-54.0	16.5	6.06e-01	0	31	0	105906176	74	4126
2026-01-02 11:54:23.09	170.57	7.93	-52.5	-54.0	16.5	6.08e-01	0	31	0	107479040	74	4112
2026-01-02 11:54:24.09	170.60	8.02	-52.4	-53.9	16.5	6.07e-01	0	31	0	109576192	74	4067
2026-01-02 11:54:25.09	170.64	8.10	-52.5	-54.0	16.5	6.06e-01	0	31	0	111149056	74	4138
2026-01-02 11:54:26.10	170.67	8.19	-52.4	-53.9	16.5	6.08e-01	0	31	0	113246208	74	4057
2026-01-02 11:54:27.11	170.71	8.27	-52.5	-54.0	16.5	6.05e-01	0	31	0	115343360	74	4115
2026-01-02 11:54:28.12	170.74	8.36	-52.4	-53.8	16.5	6.08e-01	0	31	0	116916224	73	4269
2026-01-02 11:54:29.12	170.78	8.44	-52.3	-53.8	16.5	6.05e-01	0	31	0	119013376	73	4244
2026-01-02 11:54:30.13	170.81	8.53	-52.3	-53.8	16.5	6.04e-01	0	31	0	120586240	73	4247
2026-01-02 11:54:31.13	170.85	8.62	-52.3	-53.7	16.5	6.07e-01	0	31	0	122683392	73	4233
2026-01-02 11:54:32.13	170.89	8.70	-52.3	-53.7	16.5	6.05e-01	0	31	0	124780544	73	4224
2026-01-02 11:54:33.13	170.92	8.79	-52.3	-53.7	16.5	6.06e-01	0	31	0	126353408	73	4230
2026-01-02 11:54:34.13	170.96	8.88	-52.2	-53.7	16.5	6.06e-01	0	31	0	128450560	73	4197
2026-01-02 11:54:35.14	170.99	8.97	-52.2	-53.7	16.5	6.05e-01	0	31	0	130023424	73	4201
2026-01-02 11:54:36.15	171.03	9.06	-52.2	-53.6	16.5	6.06e-01	0	31	0	132120576	73	4181
2026-01-02 11:54:37.15	171.07	9.14	-52.2	-53.6	16.5	6.06e-01	0	31	0	134217728	73	4177
2026-01-02 11:54:38.16	171.11	9.23	-52.2	-53.6	16.5	6.06e-01	0	31	0	135790592	73	4188
2026-01-02 11:54:39.17	171.14	9.32	-52.2	-53.6	16.5	6.07e-01	0	31	0	137887744	73	4153
2026-01-02 11:54:40.16	171.18	9.41	-52.2	-53.6	16.5	6.07e-01	0	31	0	139460608	73	4178
2026-01-02 11:54:41.17	171.22	9.50	-52.2	-53.6	16.5	6.06e-01	0	31	0	141557760	73	4174
2026-01-02 11:54:42.17	171.26	9.59	-52.3	-53.7	16.5	6.06e-01	0	31	0	143130624	73	4219
2026-01-02 11:54:43.17	171.30	9.68	-52.2	-53.6	16.5	6.07e-01	0	31	0	145227776	73	4152
2026-01-02 11:54:44.18	171.33	9.77	-52.1	-53.4	16.6	6.07e-01	0	31	0	147324928	73	4090
2026-01-02 11:54:45.18	171.37	9.87	-52.1	-53.4	16.6	6.06e-01	0	31	0	148897792	73	4098
2026-01-02 11:54:46.18	171.41	9.96	-52.1	-53.5	16.6	6.06e-01	0	31	0	150994944	73	4100
2026-01-02 11:54:47.18	171.45	10.05	-52.1	-53.4	16.6	6.03e-01	0	31	0	152567808	73	4091
2026-01-02 11:54:48.18	171.49	10.14	-52.0	-53.4	16.6	6.07e-01	0	31	0	154664960	73	4060
2026-01-02 11:54:49.18	171.53	10.23	-51.9	-53.3	16.7	6.06e-01	0	31	0	156762112	73	4010
2026-01-02 11:54:50.19	171.57	10.33	-52.0	-53.4	16.6	6.06e-01	0	31	0	158334976	73	4056
2026-01-02 11:54:51.20	171.61	10.42	-52.0	-53.3	16.6	6.08e-01	0	31	0	160432128	73	4040
2026-01-02 11:54:52.21	171.65	10.52	-51.9	-53.2	16.7	6.05e-01	0	31	0	162004992	73	4001
2026-01-02 11:54:53.21	171.69	10.61	-51.9	-53.3	16.6	6.05e-01	0	31	0	164102144	72	4249
2026-01-02 11:54:54.22	171.73	10.71	-51.8	-53.2	16.6	6.07e-01	0	31	0	166199296	72	4208
2026-01-02 11:54:55.22	171.78	10.80	-51.9	-53.2	16.6	6.05e-01	0	31	0	167772160	72	4233
2026-01-02 11:54:56.23	171.82	10.90	-51.8	-53.1	16.6	6.08e-01	0	31	0	169869312	72	4184
2026-01-02 11:54:57.23	171.86	10.99	-51.7	-53.0	16.6	6.05e-01	0	31	0	171442176	72	4143
2026-01-02 11:54:58.24	171.90	11.09	-51.7	-53.0	16.6	6.06e-01	0	31	0	173539328	72	4141
2026-01-02 11:54:59.24	171.94	11.19	-51.7	-53.0	16.7	6.07e-01	0	31	0	175112192	72	4127
2026-01-02 11:55:00.24	171.99	11.28	-51.8	-53.1	16.7	6.09e-01	0	31	0	177209344	72	4149
2026-01-02 11:55:01.25	172.03	11.38	-51.7	-53.0	16.6	6.06e-01	0	31	0	179306496	72	4102
2026-01-02 11:55:02.25	172.07	11.48	-51.7	-53.0	16.7	6.05e-01	0	31	0	180879360	72	4108
2026-01-02 11:55:03.25	172.12	11.58	-51.7	-53.0	16.7	6.07e-01	0	31	0	182976512	72	4125
2026-01-02 11:55:04.26	172.16	11.68	-51.7	-53.0	16.7	6.06e-01	0	31	0	185073664	72	4101
2026-01-02 11:55:05.26	172.20	11.78	-51.7	-53.0	16.7	6.07e-01	0	31	0	186646528	72	4107
2026-01-02 11:55:06.27	172.25	11.88	-51.7	-53.0	16.7	6.07e-01	0	31	0	188743680	72	4125
2026-01-02 11:55:07.28	172.29	11.98	-51.7	-53.0	16.7	6.07e-01	0	31	0	190316544	72	4133
2026-01-02 11:55:08.29	172.34	12.08	-51.8	-53.0	16.6	6.07e-01	0	31	0	192413696	72	4145
2026-01-02 11:55:09.30	172.39	12.18	-51.7	-53.0	16.6	6.07e-01	0	31	0	194510848	72	4112
2026-01-02 11:55:10.31	172.43	12.29	-51.8	-53.1	16.6	6.05e-01	0	31	0	196083712	72	4170
2026-01-02 11:55:11.31	172.48	12.39	-51.8	-53.1	16.6	6.08e-01	0	31	0	198180864	72	4166
2026-01-02 11:55:12.31	172.52	12.49	-51.7	-53.0	16.7	6.07e-01	0	31	0	199753728	72	4140
2026-01-02 11:55:13.32	172.57	12.59	-51.7	-53.0	16.7	6.06e-01	0	31	0	201850880	72	4121
2026-01-02 11:55:14.32	172.62	12.70	-51.7	-53.0	16.7	6.05e-01	0	31	0	203423744	72	4121
2026-01-02 11:55:15.32	172.66	12.80	-51.7	-52.9	16.7	6.08e-01	0	31	0	205520896	72	4082
2026-01-02 11:55:16.32	172.71	12.90	-51.5	-52.8	16.7	6.07e-01	0	31	0	207618048	72	4026
2026-01-02 11:55:17.32	172.76	13.01	-51.6	-52.9	16.7	6.08e-01	0	31	0	209190912	72	4076
2026-01-02 11:55:18.32	172.81	13.11	-51.6	-52.8	16.7	6.04e-01	0	31	0	211288064	72	4048
2026-01-02 11:55:19.32	172.86	13.22	-51.6	-52.8	16.7	6.08e-01	0	31	0	212860928	72	4051
2026-01-02 11:55:20.32	172.90	13.33	-51.6	-52.8	16.7	6.07e-01	0	31	0	214958080	72	4028
2026-01-02 11:55:21.33	172.95	13.43	-51.5	-52.7	16.7	6.06e-01	0	31	0	216530944	72	3999
2026-01-02 11:55:22.33	173.00	13.54	-51.5	-52.7	16.8	6.06e-01	0	31	0	218628096	72	3992
2026-01-02 11:55:23.34	173.05	13.65	-51.5	-52.8	16.8	6.06e-01	0	31	0	220725248	72	4012
2026-01-02 11:55:24.34	173.10	13.76	-51.4	-52.6	16.8	6.06e-01	0	31	0	222298112	72	3956
2026-01-02 11:55:25.34	173.15	13.87	-51.4	-52.6	16.8	6.05e-01	0	31	0	224395264	72	3938
2026-01-02 11:55:26.35	173.21	13.98	-51.5	-52.7	16.8	6.06e-01	0	31	0	226492416	72	3978
2026-01-02 11:55:27.35	173.26	14.09	-51.4	-52.7	16.8	6.06e-01	0	31	0	228065280	72	3965
2026-01-02 11:55:28.36	173.31	14.20	-51.5	-52.8	16.7	6.08e-01	0	31	0	230162432	72	4010
2026-01-02 11:55:29.36	173.36	14.31	-51.5	-52.7	16.8	6.07e-01	0	31	0	231735296	72	3992
2026-01-02 11:55:30.36	173.41	14.42	-51.4	-52.6	16.8	6.06e-01	0	31	0	233832448	72	3958
2026-01-02 11:55:31.37	173.47	14.53	-51.5	-52.7	16.8	6.07e-01	0	31	0	235405312	72	3971
2026-01-02 11:55:32.36	173.52	14.64	-51.5	-52.7	16.7	6.06e-01	0	31	0	237502464	72	3996
2026-01-02 11:55:33.37	173.57	14.76	-51.4	-52.7	16.8	6.07e-01	0	31	0	239599616	72	3966
2026-01-02 11:55:34.38	173.63	14.87	-51.5	-52.8	16.7	6.04e-01	0	31	0	241172480	72	4010
2026-01-02 11:55:35.37	173.68	14.99	-51.5	-52.7	16.8	6.07e-01	0	31	0	243269632	72	3971
2026-01-02 11:55:36.37	173.74	15.10	-51.5	-52.8	16.7	6.06e-01	0	31	0	244842496	72	4012
2026-01-02 11:55:37.37	173.79	15.22	-51.5	-52.7	16.8	6.06e-01	0	31	0	246939648	72	3968
2026-01-02 11:55:38.37	173.85	15.33	-51.5	-52.7	16.8	6.07e-01	0	31	0	248512512	72	3986
2026-01-02 11:55:39.37	173.91	15.45	-51.5	-52.7	16.8	6.05e-01	0	31	0	250609664	72	3974
2026-01-02 11:55:40.37	173.96	15.57	-51.3	-52.5	16.7	6.07e-01	0	31	0	252706816	71	4141
2026-01-02 11:55:41.38	174.02	15.69	-51.3	-52.5	16.7	6.07e-01	0	31	0	254279680	71	4128
2026-01-02 11:55:42.38	174.08	15.80	-51.3	-52.5	16.8	6.07e-01	0	31	0	256376832	71	4102
2026-01-02 11:55:43.38	174.13	15.92	-51.3	-52.5	16.7	6.06e-01	0	31	0	257949696	71	4127
2026-01-02 11:55:44.37	174.19	16.04	-51.4	-52.6	16.7	6.08e-01	0	31	0	260046848	71	4149
2026-01-02 11:55:45.38	174.25	16.16	-51.3	-52.4	16.8	6.05e-01	0	31	0	261619712	71	4096
2026-01-02 11:55:46.37	174.31	16.28	-51.3	-52.5	16.8	6.08e-01	0	31	0	263716864	71	4106
2026-01-02 11:55:47.38	174.37	16.40	-51.4	-52.6	16.7	6.06e-01	0	31	0	265814016	71	4157
2026-01-02 11:55:48.37	174.43	16.53	-51.3	-52.4	16.7	6.07e-01	0	31	0	267386880	71	4097
2026-01-02 11:55:49.36	174.49	16.65	-51.3	-52.4	16.7	6.07e-01	0	31	0	269484032	71	4097
2026-01-02 11:55:50.36	174.55	16.77	-51.2	-52.4	16.8	6.09e-01	0	31	0	271056896	71	4084
2026-01-02 11:55:51.36	174.61	16.89	-51.3	-52.4	16.7	6.03e-01	0	31	0	273154048	71	4094
2026-01-02 11:55:52.36	174.68	17.02	-51.2	-52.4	16.7	6.07e-01	0	31	0	275251200	71	4088
2026-01-02 11:55:53.36	174.74	17.14	-51.3	-52.4	16.8	6.05e-01	0	31	0	276824064	71	4091
2026-01-02 11:55:54.36	174.80	17.27	-51.3	-52.5	16.7	6.06e-01	0	31	0	278921216	71	4120
2026-01-02 11:55:55.36	174.87	17.40	-51.3	-52.5	16.8	6.08e-01	0	31	0	280494080	71	4137
2026-01-02 11:55:56.36	174.93	17.52	-51.3	-52.5	16.7	6.05e-01	0	31	0	282591232	71	4140
2026-01-02 11:55:57.36	175.00	17.65	-51.3	-52.5	16.7	6.06e-01	0	31	0	284164096	71	4118
2026-01-02 11:55:58.36	175.06	17.78	-51.4	-52.6	16.8	6.06e-01	0	31	0	286261248	71	4152
2026-01-02 11:55:59.36	175.13	17.91	-51.4	-52.6	16.8	6.04e-01	0	31	0	288358400	71	4169
2026-01-02 11:56:00.36	175.19	18.04	-51.4	-52.6	16.7	6.07e-01	0	31	0	289931264	71	4170
2026-01-02 11:56:01.37	175.26	18.17	-51.4	-52.6	16.8	6.06e-01	0	31	0	292028416	71	4166
2026-01-02 11:56:02.36	175.33	18.30	-51.4	-52.6	16.8	6.05e-01	0	31	0	293601280	71	4146
2026-01-02 11:56:03.36	175.40	18.44	-51.3	-52.4	16.8	6.07e-01	0	31	0	295698432	71	4094
2026-01-02 11:56:04.36	175.47	18.57	-51.2	-52.4	16.8	6.07e-01	0	31	0	297271296	71	4073
2026-01-02 11:56:05.37	175.54	18.71	-51.3	-52.4	16.8	6.06e-01	0	31	0	299368448	71	4086
2026-01-02 11:56:06.37	175.61	18.84	-51.3	-52.4	16.8	6.07e-01	0	31	0	301465600	71	4086
2026-01-02 11:56:07.36	175.68	18.98	-51.2	-52.4	16.7	6.08e-01	0	31	0	303038464	71	4074
2026-01-02 11:56:08.36	175.75	19.11	-51.3	-52.5	16.8	6.08e-01	0	31	0	305135616	71	4103
2026-01-02 11:56:09.35	175.82	19.25	-51.3	-52.5	16.8	6.07e-01	0	31	0	306708480	71	4126
2026-01-02 11:56:10.35	175.89	19.39	-51.3	-52.5	16.8	6.07e-01	0	31	0	308805632	71	4106
2026-01-02 11:56:11.35	175.97	19.52	-51.3	-52.4	16.8	6.10e-01	0	31	0	310378496	71	4094
2026-01-02 11:56:12.35	176.04	19.66	-51.3	-52.5	16.7	6.07e-01	0	31	0	312475648	71	4099
2026-01-02 11:56:13.34	176.11	19.80	-51.3	-52.5	16.7	6.07e-01	0	31	0	314572800	71	4101
2026-01-02 11:56:14.35	176.19	19.95	-51.3	-52.5	16.8	6.05e-01	0	31	0	316145664	71	4105
2026-01-02 11:56:15.35	176.27	20.09	-51.3	-52.4	16.8	6.08e-01	0	31	0	318242816	71	4076
2026-01-02 11:56:16.35	176.34	20.23	-51.2	-52.4	16.8	6.07e-01	0	31	0	319815680	71	4059
2026-01-02 11:56:17.34	176.42	20.37	-51.3	-52.5	16.8	6.06e-01	0	31	0	321912832	71	4112
2026-01-02 11:56:18.33	176.50	20.52	-51.2	-52.3	16.8	6.07e-01	0	31	0	323485696	71	4039
2026-01-02 11:56:19.33	176.58	20.66	-51.3	-52.5	16.8	6.07e-01	0	31	0	325582848	71	4116
2026-01-02 11:56:20.33	176.66	20.81	-51.3	-52.5	16.8	6.07e-01	0	31	0	327155712	71	4123
2026-01-02 11:56:21.33	176.74	20.95	-51.3	-52.5	16.8	6.07e-01	0	31	0	329252864	71	4123
2026-01-02 11:56:22.33	176.82	21.10	-51.4	-52.6	16.8	6.05e-01	0	31	0	331350016	71	4156
2026-01-02 11:56:23.33	176.90	21.25	-51.5	-52.7	16.7	6.07e-01	0	31	0	332922880	71	4198
2026-01-02 11:56:24.32	176.98	21.40	-51.5	-52.6	16.8	6.06e-01	0	31	0	335020032	71	4190
2026-01-02 11:56:25.31	177.07	21.55	-51.4	-52.6	16.8	6.07e-01	0	31	0	336592896	71	4159
2026-01-02 11:56:26.31	177.15	21.70	-51.4	-52.6	16.8	6.06e-01	0	31	0	338690048	71	4174
2026-01-02 11:56:27.31	177.24	21.85	-51.5	-52.6	16.7	6.06e-01	0	31	0	340787200	71	4189
2026-01-02 11:56:28.31	177.32	22.01	-51.5	-52.7	16.7	6.06e-01	0	31	0	342360064	71	4212
2026-01-02 11:56:29.30	177.41	22.16	-51.5	-52.7	16.7	6.07e-01	0	31	0	344457216	71	4206
2026-01-02 11:56:30.30	177.50	22.32	-51.5	-52.7	16.7	6.07e-01	0	31	0	346030080	71	4237
2026-01-02 11:56:31.30	177.58	22.47	-51.6	-52.8	16.7	6.06e-01	0	31	0	348127232	71	4245
2026-01-02 11:56:32.30	177.67	22.63	-51.7	-52.9	16.7	6.07e-01	0	31	0	349700096	71	4313
2026-01-02 11:56:33.30	177.76	22.79	-51.6	-52.8	16.7	6.07e-01	0	31	0	351797248	71	4285
2026-01-02 11:56:34.29	177.85	22.95	-51.6	-52.8	16.7	6.06e-01	0	31	0	353894400	71	4260
2026-01-02 11:56:35.29	177.95	23.11	-51.6	-52.8	16.7	6.08e-01	0	31	0	355467264	71	4281
2026-01-02 11:56:36.29	178.04	23.27	-51.5	-52.7	16.7	6.07e-01	0	31	0	357564416	71	4229
2026-01-02 11:56:37.28	178.13	23.43	-51.5	-52.6	16.8	6.08e-01	0	31	0	359137280	71	4186
2026-01-02 11:56:38.28	178.23	23.59	-51.5	-52.7	16.7	6.08e-01	0	31	0	361234432	71	4206
2026-01-02 11:56:39.27	178.32	23.76	-51.6	-52.8	16.7	6.05e-01	0	31	0	362807296	71	4243
2026-01-02 11:56:40.26	178.42	23.92	-51.5	-52.7	16.7	6.06e-01	0	31	0	364904448	71	4224
2026-01-02 11:56:41.24	178.52	24.08	-51.5	-52.6	16.8	6.08e-01	0	31	0	366477312	71	4190
2026-01-02 11:56:42.23	178.62	24.25	-51.5	-52.7	16.7	6.07e-01	0	31	0	368574464	71	4233
2026-01-02 11:56:43.21	178.71	24.42	-51.5	-52.7	16.7	6.06e-01	0	31	0	370147328	71	4227
2026-01-02 11:56:44.21	178.82	24.59	-51.5	-52.7	16.7	6.06e-01	0	31	0	372244480	71	4223
2026-01-02 11:56:45.21	178.92	24.76	-51.6	-52.8	16.7	6.07e-01	0	31	0	374341632	71	4246
2026-01-02 11:56:46.20	179.02	24.93	-51.7	-52.9	16.7	6.05e-01	0	31	0	375914496	71	4309
2026-01-02 11:56:47.20	179.13	25.10	-51.7	-52.9	16.7	6.05e-01	0	31	0	378011648	71	4301
2026-01-02 11:56:48.19	179.23	25.27	-51.6	-52.8	16.7	6.07e-01	0	31	0	379584512	71	4275
2026-01-02 11:56:49.18	179.34	25.45	-51.6	-52.8	16.7	6.06e-01	0	31	0	381681664	71	4275
2026-01-02 11:56:50.17	179.44	25.62	-51.6	-52.8	16.7	6.08e-01	0	31	0	383254528	71	4247
2026-01-02 11:56:51.16	179.55	25.80	-51.6	-52.8	16.7	6.06e-01	0	31	0	385351680	71	4284
2026-01-02 11:56:52.15	179.66	25.98	-51.7	-52.9	16.7	6.05e-01	0	31	0	386924544	71	4293
2026-01-02 11:56:53.14	179.77	26.15	-51.8	-53.0	16.7	6.08e-01	0	31	0	389021696	71	4352
2026-01-02 11:56:54.14	179.89	26.34	-51.8	-53.1	16.6	6.05e-01	0	31	0	391118848	71	4398
2026-01-02 11:56:55.13	180.00	26.52	-51.6	-52.8	16.7	6.06e-01	0	31	0	392691712	71	4282
2026-01-02 11:56:56.12	180.12	26.70	-51.6	-52.8	16.7	6.06e-01	0	31	0	394788864	71	4283
2026-01-02 11:56:57.12	180.23	26.88	-51.5	-52.7	16.7	6.06e-01	0	31	0	396361728	71	4226
2026-01-02 11:56:58.11	180.35	27.07	-51.5	-52.7	16.7	6.06e-01	0	31	0	398458880	71	4208
2026-01-02 11:56:59.11	180.47	27.26	-51.6	-52.8	16.7	6.05e-01	0	31	0	400031744	71	4245
2026-01-02 11:57:00.10	180.59	27.44	-51.6	-52.8	16.7	6.06e-01	0	31	0	402128896	71	4277
2026-01-02 11:57:01.09	180.71	27.63	-51.3	-52.5	16.8	6.07e-01	0	31	0	403701760	71	4118
2026-01-02 11:57:02.09	180.84	27.82	-51.2	-52.4	16.8	6.05e-01	0	31	0	405798912	71	4055
2026-01-02 11:57:03.08	180.96	28.01	-51.1	-52.2	16.8	6.08e-01	0	31	0	407371776	71	3986
2026-01-02 11:57:04.07	181.09	28.21	-50.9	-52.0	16.9	6.07e-01	0	31	0	409468928	71	3903
2026-01-02 11:57:05.07	181.22	28.40	-51.1	-52.2	16.8	6.09e-01	0	31	0	411566080	71	3966
2026-01-02 11:57:06.06	181.35	28.60	-51.2	-52.3	16.8	6.05e-01	0	31	0	413138944	71	4045
2026-01-02 11:57:07.06	181.48	28.79	-51.2	-52.3	16.8	6.07e-01	0	31	0	415236096	71	4041
2026-01-02 11:57:08.05	181.61	28.99	-51.2	-52.3	16.8	6.04e-01	0	31	0	416808960	71	4032
2026-01-02 11:57:09.04	181.75	29.19	-51.3	-52.4	16.8	6.08e-01	0	31	0	418906112	71	4096
2026-01-02 11:57:10.04	181.88	29.39	-51.3	-52.4	16.8	6.05e-01	0	31	0	420478976	71	4085
2026-01-02 11:57:11.03	182.02	29.60	-51.3	-52.4	16.8	6.08e-01	0	31	0	422576128	71	4080
2026-01-02 11:57:12.02	182.16	29.80	-51.1	-52.3	16.8	6.06e-01	0	31	0	424148992	71	4015
2026-01-02 11:57:13.02	182.30	30.00	-51.1	-52.2	16.9	6.06e-01	0	31	0	426246144	71	3974
2026-01-02 11:57:14.01	182.44	30.21	-51.1	-52.2	16.9	6.08e-01	0	31	0	428343296	71	3970
2026-01-02 11:57:15.00	182.59	30.42	-51.1	-52.2	16.9	6.06e-01	0	31	0	429916160	71	3996
2026-01-02 11:57:15.99	182.74	30.63	-51.4	-52.5	16.8	6.07e-01	0	31	0	432013312	71	4129
2026-01-02 11:57:16.99	182.89	30.84	-51.1	-52.3	16.8	6.06e-01	0	31	0	433586176	71	4010
2026-01-02 11:57:17.97	183.03	31.05	-51.1	-52.2	16.9	6.07e-01	0	31	0	435683328	71	3982
2026-01-02 11:57:18.96	183.19	31.26	-51.1	-52.2	16.9	6.07e-01	0	31	0	437256192	71	3977
2026-01-02 11:57:19.95	183.34	31.47	-51.1	-52.3	16.8	6.08e-01	0	31	0	439353344	71	4008
2026-01-02 11:57:20.94	183.50	31.69	-51.4	-52.6	16.8	6.06e-01	0	31	0	440926208	71	4166
2026-01-02 11:57:21.94	183.66	31.91	-51.6	-52.7	16.8	6.07e-01	0	31	0	443023360	71	4238
2026-01-02 11:57:22.94	183.82	32.13	-51.4	-52.6	16.8	6.08e-01	0	31	0	445120512	71	4151
2026-01-02 11:57:23.94	183.99	32.35	-51.4	-52.5	16.8	6.07e-01	0	31	0	446693376	71	4122
2026-01-02 11:57:24.93	184.15	32.57	-51.3	-52.5	16.8	6.05e-01	0	31	0	448790528	71	4102
2026-01-02 11:57:25.93	184.32	32.80	-51.5	-52.6	16.8	6.08e-01	0	31	0	450363392	71	4179
2026-01-02 11:57:26.93	184.49	33.03	-51.5	-52.6	16.8	6.10e-01	0	31	0	452460544	71	4193
2026-01-02 11:57:27.92	184.66	33.25	-51.6	-52.7	16.8	6.06e-01	0	31	0	454033408	71	4236
2026-01-02 11:57:28.92	184.84	33.48	-51.7	-52.9	16.7	6.06e-01	0	31	0	456130560	71	4310
2026-01-02 11:57:29.92	185.02	33.72	-51.7	-52.9	16.7	6.07e-01	0	31	0	457703424	71	4321
2026-01-02 11:57:30.90	185.20	33.94	-51.8	-53.0	16.7	6.05e-01	0	31	0	459800576	71	4366
2026-01-02 11:57:31.91	185.38	34.18	-51.9	-53.1	16.7	6.05e-01	0	31	0	461897728	71	4398
2026-01-02 11:57:32.90	185.57	34.42	-51.9	-53.2	16.7	6.04e-01	0	31	0	463470592	71	4460
2026-01-02 11:57:33.91	185.76	34.66	-52.1	-53.3	16.6	6.07e-01	0	31	0	465567744	71	4515
2026-01-02 11:57:34.90	185.95	34.89	-52.2	-53.5	16.6	6.05e-01	0	31	0	467140608	72	4345
2026-01-02 11:57:35.90	186.15	35.13	-52.3	-53.6	16.6	6.06e-01	0	31	0	469237760	72	4421
2026-01-02 11:57:36.89	186.34	35.37	-52.3	-53.6	16.6	6.07e-01	0	31	0	470810624	72	4425
2026-01-02 11:57:37.88	186.54	35.62	-52.4	-53.7	16.6	6.07e-01	0	31	0	472907776	72	4458
2026-01-02 11:57:38.87	186.74	35.86	-52.3	-53.6	16.6	6.07e-01	0	31	0	474480640	72	4406
2026-01-02 11:57:39.86	186.95	36.11	-52.5	-53.8	16.6	6.03e-01	0	31	0	476577792	72	4511
2026-01-02 11:57:40.87	187.16	36.36	-52.7	-54.1	16.6	6.08e-01	0	31	0	478674944	73	4413
2026-01-02 11:57:41.87	187.37	36.61	-52.7	-54.0	16.6	6.07e-01	0	32	0	480247808	73	4383
2026-01-02 11:57:42.87	187.59	36.86	-52.7	-54.0	16.6	6.09e-01	0	31	0	482344960	73	4390
2026-01-02 11:57:43.87	187.81	37.11	-52.8	-54.2	16.6	6.06e-01	0	32	0	483917824	73	4459
2026-01-02 11:57:44.86	188.03	37.37	-53.0	-54.3	16.5	6.04e-01	0	31	0	486014976	73	4544
2026-01-02 11:57:45.85	188.26	37.62	-52.9	-54.3	16.5	6.05e-01	0	31	0	487587840	73	4498
2026-01-02 11:57:46.85	188.49	37.88	-52.9	-54.2	16.5	6.07e-01	0	31	0	489684992	73	4492
2026-01-02 11:57:47.85	188.72	38.14	-53.0	-54.3	16.5	6.08e-01	0	31	0	491782144	73	4538
2026-01-02 11:57:48.84	188.96	38.40	-52.9	-54.3	16.6	6.06e-01	0	31	0	493355008	73	4501
2026-01-02 11:57:49.85	189.20	38.67	-52.9	-54.3	16.5	6.05e-01	0	31	0	495452160	73	4501
2026-01-02 11:57:50.84	189.45	38.93	-52.8	-54.2	16.6	6.08e-01	0	31	0	497025024	73	4456
2026-01-02 11:57:51.84	189.70	39.20	-52.7	-54.1	16.6	6.07e-01	0	31	0	499122176	73	4411
2026-01-02 11:57:52.84	189.95	39.47	-52.8	-54.1	16.6	6.06e-01	0	31	0	500695040	73	4440
2026-01-02 11:57:53.84	190.21	39.74	-52.8	-54.1	16.6	6.08e-01	0	31	0	502792192	73	4419
2026-01-02 11:57:54.85	190.48	40.01	-52.6	-53.9	16.6	6.06e-01	0	31	0	504889344	73	4318
2026-01-02 11:57:55.83	190.74	40.28	-52.3	-53.6	16.7	6.05e-01	0	31	0	506462208	73	4162
2026-01-02 11:57:56.83	191.01	40.55	-52.2	-53.5	16.7	6.06e-01	0	31	0	508559360	73	4126
2026-01-02 11:57:57.82	191.29	40.83	-52.0	-53.3	16.8	6.06e-01	0	31	0	510132224	73	4011
2026-01-02 11:57:58.81	191.57	41.10	-52.1	-53.3	16.8	6.06e-01	0	31	0	512229376	73	4040
2026-01-02 11:57:59.81	191.85	41.38	-52.0	-53.3	16.8	6.08e-01	0	31	0	513802240	73	4009
2026-01-02 11:58:00.80	192.14	41.66	-51.8	-52.9	16.8	6.06e-01	0	32	0	515899392	72	4092
2026-01-02 11:58:01.79	192.43	41.94	-51.7	-52.8	16.8	6.07e-01	0	31	0	517472256	72	4046
2026-01-02 11:58:02.80	192.74	42.23	-51.6	-52.7	16.8	6.05e-01	0	31	0	519569408	72	3985
2026-01-02 11:58:03.80	193.05	42.51	-51.2	-52.3	16.9	6.06e-01	0	32	0	521666560	71	4036
2026-01-02 11:58:04.79	193.35	42.80	-51.3	-52.4	16.9	6.07e-01	0	31	0	523239424	71	4085
2026-01-02 11:58:05.80	193.68	43.09	-51.2	-52.3	16.9	6.07e-01	0	31	0	525336576	71	4045
2026-01-02 11:58:06.80	194.00	43.38	-51.2	-52.3	16.9	6.07e-01	0	31	0	526909440	71	4022
2026-01-02 11:58:07.80	194.33	43.67	-51.2	-52.3	16.8	6.08e-01	0	32	0	529006592	71	4026
2026-01-02 11:58:08.80	194.67	43.96	-51.0	-52.1	16.9	6.05e-01	0	31	0	531103744	71	3919
2026-01-02 11:58:09.81	195.01	44.26	-50.9	-52.0	16.9	6.05e-01	0	31	0	532676608	71	3891
2026-01-02 11:58:10.81	195.36	44.55	-51.0	-52.1	16.9	6.08e-01	0	32	0	534773760	71	3936
2026-01-02 11:58:11.81	195.72	44.85	-50.9	-52.0	16.9	6.06e-01	0	31	0	536346624	71	3885
2026-01-02 11:58:12.82	196.08	45.14	-50.9	-52.0	16.9	6.06e-01	0	31	0	538443776	71	3897
2026-01-02 11:58:13.82	196.45	45.44	-50.9	-52.0	16.9	6.07e-01	0	31	0	540016640	71	3895
2026-01-02 11:58:14.83	196.83	45.74	-51.1	-52.1	16.9	6.08e-01	0	31	0	542113792	71	3955
2026-01-02 11:58:15.83	197.21	46.04	-50.7	-51.7	16.9	6.04e-01	0	31	0	544210944	70	3990
2026-01-02 11:58:16.83	197.60	46.35	-50.9	-52.0	16.9	6.04e-01	0	31	0	545783808	70	4100
2026-01-02 11:58:17.83	198.00	46.65	-51.0	-52.1	16.8	6.07e-01	0	31	0	547880960	70	4149
2026-01-02 11:58:18.83	198.41	46.95	-50.7	-51.8	16.9	6.06e-01	0	32	0	549453824	70	4021
2026-01-02 11:58:19.83	198.82	47.25	-50.9	-52.0	16.8	6.08e-01	0	31	0	551550976	70	4123
2026-01-02 11:58:20.84	199.25	47.56	-50.9	-52.0	16.8	6.05e-01	0	31	0	553123840	70	4124
2026-01-02 11:58:21.85	199.68	47.87	-50.9	-52.0	16.9	6.06e-01	0	31	0	555220992	70	4128
2026-01-02 11:58:22.84	200.12	48.17	-51.0	-52.0	16.9	6.07e-01	0	31	0	557318144	70	4140
2026-01-02 11:58:23.85	200.57	48.48	-50.9	-51.9	16.9	6.07e-01	0	31	0	558891008	70	4087
2026-01-02 11:58:24.85	201.02	48.78	-50.9	-52.0	16.9	6.06e-01	0	31	0	560988160	70	4121
2026-01-02 11:58:25.86	201.49	49.09	-50.9	-52.0	16.9	6.06e-01	0	31	0	562561024	70	4117
2026-01-02 11:58:26.86	201.97	49.40	-50.6	-51.7	16.9	6.07e-01	0	31	0	564658176	70	3959
2026-01-02 11:58:27.87	202.46	49.71	-50.9	-52.0	16.9	6.05e-01	0	31	0	566755328	70	4129
2026-01-02 11:58:28.87	202.95	50.01	-51.0	-52.1	16.9	6.06e-01	0	31	0	568328192	70	4155
2026-01-02 11:58:29.88	203.46	50.32	-51.0	-52.0	16.9	6.05e-01	0	32	0	570425344	70	4141
2026-01-02 11:58:30.88	203.98	50.63	-51.0	-52.1	16.9	6.06e-01	0	31	0	571998208	70	4149
2026-01-02 11:58:31.88	204.51	50.94	-51.1	-52.2	16.9	6.06e-01	0	31	0	574095360	70	4231
2026-01-02 11:58:32.88	205.04	51.24	-50.9	-51.9	16.9	6.06e-01	0	31	0	576192512	70	4079
2026-01-02 11:58:33.88	205.59	51.55	-51.1	-52.2	16.9	6.07e-01	0	31	0	577765376	70	4207
2026-01-02 11:58:34.87	206.14	51.85	-51.3	-52.4	16.8	6.05e-01	0	31	0	579862528	70	4333
2026-01-02 11:58:35.85	206.70	52.14	-51.0	-52.1	16.8	6.03e-01	0	31	0	581435392	70	4169
2026-01-02 11:58:36.84	207.28	52.44	-50.9	-51.9	16.9	6.05e-01	0	32	0	583532544	70	4084
2026-01-02 11:58:37.84	207.87	52.75	-50.8	-51.8	16.9	6.01e-01	0	31	0	585105408	70	4041
2026-01-02 11:58:38.84	208.48	53.05	-50.8	-51.9	16.9	6.06e-01	0	31	0	587202560	70	4056
2026-01-02 11:58:39.83	209.09	53.34	-50.7	-51.8	17.0	6.05e-01	0	31	0	588775424	70	4018
2026-01-02 11:58:40.83	209.72	53.64	-50.7	-51.8	16.9	6.01e-01	0	31	0	590872576	70	4013
2026-01-02 11:58:41.82	210.36	53.93	-51.1	-52.2	16.8	6.02e-01	0	32	0	592969728	70	4224
2026-01-02 11:58:42.82	211.02	54.22	-50.8	-51.8	16.9	6.04e-01	0	31	0	594542592	70	4039
2026-01-02 11:58:43.80	211.67	54.51	-51.0	-52.1	16.8	6.02e-01	0	31	0	596639744	70	4178
2026-01-02 11:58:44.80	212.36	54.80	-51.2	-52.3	16.8	6.03e-01	0	31	0	598212608	70	4262
2026-01-02 11:58:45.79	213.05	55.08	-51.4	-52.5	16.8	6.04e-01	0	31	0	600309760	70	4350
2026-01-02 11:58:46.79	213.76	55.37	-51.6	-52.7	16.8	6.01e-01	0	32	0	601882624	70	4474
2026-01-02 11:58:47.78	214.48	55.65	-51.7	-52.8	16.8	6.05e-01	0	31	0	603979776	71	4275
2026-01-02 11:58:48.77	215.22	55.92	-52.0	-53.2	16.7	6.03e-01	0	31	0	605552640	71	4472
2026-01-02 11:58:49.76	215.97	56.19	-52.1	-53.3	16.7	6.03e-01	0	31	0	607649792	72	4257
2026-01-02 11:58:50.75	216.73	56.46	-52.3	-53.5	16.7	6.04e-01	0	32	0	609746944	72	4378
2026-01-02 11:58:51.74	217.51	56.73	-52.3	-53.5	16.7	6.02e-01	0	31	0	611319808	72	4373
2026-01-02 11:58:52.73	218.30	56.99	-52.7	-54.0	16.6	6.01e-01	0	31	0	613416960	73	4378
2026-01-02 11:58:53.72	219.11	57.25	-52.5	-53.7	16.7	6.03e-01	0	31	0	614989824	73	4229
2026-01-02 11:58:54.72	219.94	57.50	-52.4	-53.6	16.8	6.04e-01	0	31	0	617086976	73	4171
2026-01-02 11:58:55.72	220.79	57.76	-52.6	-53.9	16.7	6.01e-01	0	31	0	618659840	73	4328
2026-01-02 11:58:56.72	221.65	58.00	-52.6	-53.8	16.7	6.04e-01	0	31	0	620756992	73	4288
2026-01-02 11:58:57.72	222.53	58.24	-52.8	-54.1	16.6	6.04e-01	0	31	0	622329856	73	4409
2026-01-02 11:58:58.71	223.42	58.48	-52.9	-54.2	16.6	6.05e-01	0	31	0	624427008	73	4452
2026-01-02 11:58:59.72	224.34	58.71	-53.3	-54.7	16.6	6.04e-01	0	31	0	626524160	74	4477
2026-01-02 11:59:00.70	225.25	58.93	-53.1	-54.4	16.6	6.04e-01	0	31	0	628097024	74	4332
2026-01-02 11:59:01.70	226.19	59.15	-53.3	-54.6	16.5	6.03e-01	0	31	0	630194176	74	4441
2026-01-02 11:59:02.69	227.14	59.36	-53.5	-54.9	16.5	6.03e-01	0	31	0	631767040	74	4569
2026-01-02 11:59:03.68	228.10	59.57	-53.6	-55.1	16.5	6.01e-01	0	31	0	633864192	75	4411
2026-01-02 11:59:04.67	229.08	59.76	-53.5	-54.9	16.6	6.03e-01	0	31	0	635437056	75	4305
2026-01-02 11:59:05.66	230.07	59.95	-53.8	-55.3	16.4	6.04e-01	0	31	0	637534208	75	4503
2026-01-02 11:59:06.66	231.09	60.14	-53.9	-55.4	16.4	6.03e-01	0	32	0	639107072	75	4579
2026-01-02 11:59:07.67	232.13	60.32	-53.7	-55.1	16.5	6.01e-01	0	31	0	641204224	75	4438
2026-01-02 11:59:08.66	233.17	60.49	-53.8	-55.2	16.5	6.03e-01	0	31	0	643301376	75	4484
2026-01-02 11:59:09.66	234.23	60.65	-53.8	-55.3	16.4	6.03e-01	0	31	0	644874240	75	4543
2026-01-02 11:59:10.65	235.29	60.80	-53.9	-55.4	16.4	6.04e-01	0	31	0	646971392	75	4587
2026-01-02 11:59:11.64	236.37	60.95	-54.1	-55.6	16.4	6.03e-01	0	31	0	648544256	76	4441
2026-01-02 11:59:12.63	237.46	61.08	-54.4	-56.0	16.4	6.04e-01	0	31	0	650641408	76	4617
2026-01-02 11:59:13.62	238.56	61.21	-54.2	-55.8	16.4	6.03e-01	0	31	0	652214272	76	4510
2026-01-02 11:59:14.62	239.68	61.33	-54.6	-56.2	16.3	6.04e-01	0	31	0	654311424	76	4744
2026-01-02 11:59:15.61	240.80	61.43	-54.7	-56.4	16.3	6.02e-01	0	31	0	655884288	77	4577
2026-01-02 11:59:16.61	241.94	61.53	-54.5	-56.2	16.3	6.05e-01	0	31	0	657981440	77	4451
2026-01-02 11:59:17.61	243.09	61.63	-54.1	-55.7	16.5	6.04e-01	0	31	0	660078592	77	4201
2026-01-02 11:59:18.61	244.24	61.71	-54.1	-55.6	16.5	6.05e-01	0	32	0	661651456	77	4178
2026-01-02 11:59:19.60	245.40	61.78	-54.3	-55.8	16.4	6.05e-01	0	31	0	663748608	77	4286
2026-01-02 11:59:20.60	246.57	61.84	-54.0	-55.6	16.5	6.01e-01	0	32	0	665321472	77	4146
2026-01-02 11:59:21.59	247.73	61.89	-54.0	-55.5	16.5	6.03e-01	0	31	0	667418624	77	4118
2026-01-02 11:59:22.60	248.92	61.93	-54.4	-55.9	16.4	6.03e-01	0	31	0	668991488	77	4339
2026-01-02 11:59:23.59	250.10	61.96	-53.9	-55.4	16.5	6.03e-01	0	31	0	671088640	77	4053
2026-01-02 11:59:24.59	251.28	61.98	-54.4	-55.9	16.4	6.05e-01	0	31	0	672661504	76	4589
2026-01-02 11:59:25.58	252.46	61.99	-54.2	-55.7	16.4	6.03e-01	0	31	0	674758656	76	4470
2026-01-02 11:59:26.58	253.65	61.99	-53.7	-55.1	16.5	6.05e-01	0	31	0	676855808	76	4164
2026-01-02 11:59:27.58	254.83	61.98	-53.7	-55.1	16.6	6.03e-01	0	32	0	678428672	76	4189
2026-01-02 11:59:28.58	256.02	61.95	-54.2	-55.8	16.4	6.05e-01	0	31	0	680525824	76	4504
2026-01-02 11:59:29.58	257.20	61.92	-53.6	-55.0	16.6	6.03e-01	0	31	0	682098688	76	4121
2026-01-02 11:59:30.58	258.38	61.88	-53.4	-54.8	16.6	6.03e-01	0	32	0	684195840	75	4275
2026-01-02 11:59:31.58	259.55	61.83	-53.5	-54.9	16.6	6.03e-01	0	32	0	685768704	75	4320
2026-01-02 11:59:32.58	260.72	61.77	-53.7	-55.2	16.5	6.05e-01	0	31	0	687865856	75	4455
2026-01-02 11:59:33.57	261.88	61.69	-53.5	-54.9	16.6	6.04e-01	0	31	0	689963008	75	4310
2026-01-02 11:59:34.57	263.03	61.61	-53.6	-55.0	16.5	6.03e-01	0	32	0	691535872	75	4372
2026-01-02 11:59:35.57	264.18	61.52	-53.6	-55.0	16.5	6.03e-01	0	31	0	693633024	75	4381
2026-01-02 11:59:36.57	265.32	61.42	-53.7	-55.2	16.5	6.03e-01	0	31	0	695205888	75	4454
2026-01-02 11:59:37.57	266.45	61.31	-53.1	-54.4	16.7	6.03e-01	0	32	0	697303040	75	4062
2026-01-02 11:59:38.57	267.56	61.19	-53.0	-54.3	16.7	6.05e-01	0	32	0	698875904	75	4009
2026-01-02 11:59:39.57	268.67	61.06	-53.4	-54.7	16.6	6.04e-01	0	31	0	700973056	75	4239
2026-01-02 11:59:40.57	269.77	60.92	-52.9	-54.2	16.8	6.04e-01	0	31	0	703070208	75	3999
2026-01-02 11:59:41.57	270.85	60.77	-52.8	-54.1	16.7	6.04e-01	0	32	0	704643072	74	4149
2026-01-02 11:59:42.57	271.92	60.62	-52.9	-54.1	16.7	6.05e-01	0	31	0	706740224	74	4190
2026-01-02 11:59:43.58	272.99	60.45	-52.9	-54.2	16.7	6.01e-01	0	31	0	708313088	74	4211
2026-01-02 11:59:44.59	274.04	60.28	-52.9	-54.2	16.7	6.01e-01	0	31	0	710410240	74	4227
2026-01-02 11:59:45.59	275.07	60.10	-52.7	-54.0	16.8	6.03e-01	0	31	0	712507392	74	4112
2026-01-02 11:59:46.59	276.08	59.91	-52.9	-54.1	16.7	6.03e-01	0	31	0	714080256	74	4193
2026-01-02 11:59:47.59	277.08	59.72	-53.1	-54.4	16.6	6.04e-01	0	31	0	716177408	74	4334
2026-01-02 11:59:48.59	278.07	59.52	-53.0	-54.3	16.7	6.05e-01	0	32	0	717750272	74	4251
2026-01-02 11:59:49.59	279.04	59.31	-52.7	-53.9	16.8	6.04e-01	0	31	0	719847424	74	4090
2026-01-02 11:59:50.59	279.99	59.10	-52.9	-54.1	16.7	6.02e-01	0	32	0	721944576	74	4190
2026-01-02 11:59:51.59	280.93	58.88	-53.0	-54.4	16.7	6.00e-01	0	32	0	723517440	74	4293
2026-01-02 11:59:52.60	281.86	58.65	-52.7	-54.0	16.7	6.04e-01	0	31	0	725614592	74	4106
2026-01-02 11:59:53.60	282.76	58.42	-52.1	-53.3	16.8	6.04e-01	0	32	0	727187456	73	4021
2026-01-02 11:59:54.59	283.64	58.18	-52.3	-53.5	16.8	6.04e-01	0	32	0	729284608	73	4119
2026-01-02 11:59:55.59	284.52	57.94	-52.3	-53.5	16.8	6.02e-01	0	31	0	730857472	73	4144
2026-01-02 11:59:56.60	285.38	57.69	-52.3	-53.5	16.8	6.04e-01	0	32	0	732954624	73	4109
2026-01-02 11:59:57.60	286.23	57.44	-52.1	-53.3	16.8	6.03e-01	0	31	0	735051776	73	4009
2026-01-02 11:59:58.61	287.06	57.18	-52.1	-53.3	16.8	6.02e-01	0	31	0	736624640	73	4011
2026-01-02 11:59:59.61	287.87	56.92	-52.1	-53.3	16.8	6.03e-01	0	31	0	738721792	73	4014
2026-01-02 12:00:00.61	288.67	56.65	-52.1	-53.2	16.8	6.03e-01	0	31	0	740294656	73	4000
2026-01-02 12:00:01.60	289.44	56.38	-51.9	-53.1	16.8	6.02e-01	0	32	0	742391808	73	3918
2026-01-02 12:00:02.61	290.21	56.11	-51.9	-53.0	16.8	6.04e-01	0	31	0	743964672	72	4120
2026-01-02 12:00:03.61	290.96	55.83	-51.6	-52.7	16.9	6.04e-01	0	31	0	746061824	72	3996
2026-01-02 12:00:04.61	291.70	55.55	-51.7	-52.8	16.9	6.03e-01	0	31	0	748158976	72	4023
2026-01-02 12:00:05.60	292.41	55.28	-51.6	-52.7	16.9	6.03e-01	0	31	0	749731840	72	3986
2026-01-02 12:00:06.61	293.12	54.99	-51.7	-52.8	16.8	6.04e-01	0	31	0	751828992	72	4033
2026-01-02 12:00:07.61	293.82	54.70	-51.4	-52.5	16.9	6.05e-01	0	31	0	753401856	72	3907
2026-01-02 12:00:08.61	294.49	54.41	-51.4	-52.4	16.9	6.06e-01	0	31	0	755499008	71	4083
2026-01-02 12:00:09.62	295.17	54.12	-51.4	-52.5	16.9	6.02e-01	0	31	0	757596160	71	4111
2026-01-02 12:00:10.62	295.82	53.82	-51.7	-52.8	16.8	6.03e-01	0	31	0	759169024	71	4264
2026-01-02 12:00:11.62	296.46	53.53	-51.5	-52.6	16.8	6.01e-01	0	31	0	761266176	71	4193
2026-01-02 12:00:12.62	297.08	53.23	-51.5	-52.6	16.9	6.02e-01	0	31	0	762839040	71	4158
2026-01-02 12:00:13.63	297.70	52.93	-51.2	-52.3	17.0	6.01e-01	0	31	0	764936192	71	4012
2026-01-02 12:00:14.63	298.30	52.63	-51.5	-52.6	16.9	6.03e-01	0	31	0	766509056	71	4160
2026-01-02 12:00:15.64	298.89	52.33	-51.8	-52.9	16.8	6.05e-01	0	31	0	768606208	71	4306
2026-01-02 12:00:16.64	299.47	52.02	-52.0	-53.2	16.7	6.03e-01	0	31	0	770703360	71	4455
2026-01-02 12:00:17.64	300.03	51.72	-52.0	-53.2	16.7	6.03e-01	0	31	0	772276224	71	4444
2026-01-02 12:00:18.65	300.59	51.41	-52.3	-53.5	16.7	6.03e-01	0	32	0	774373376	72	4358
2026-01-02 12:00:19.65	301.13	51.11	-51.7	-52.8	16.9	6.04e-01	0	32	0	775946240	72	4027
2026-01-02 12:00:20.65	301.66	50.81	-51.7	-52.8	16.9	6.02e-01	0	31	0	778043392	72	4043
2026-01-02 12:00:21.64	302.18	50.50	-52.2	-53.3	16.8	6.02e-01	0	31	0	780140544	72	4278
2026-01-02 12:00:22.65	302.69	50.20	-52.5	-53.8	16.6	6.02e-01	0	32	0	781713408	72	4528
2026-01-02 12:00:23.65	303.19	49.89	-52.5	-53.8	16.7	6.04e-01	0	31	0	783810560	72	4512
2026-01-02 12:00:24.66	303.69	49.58	-52.4	-53.6	16.7	6.03e-01	0	31	0	785383424	72	4410
2026-01-02 12:00:25.66	304.16	49.28	-52.2	-53.4	16.8	6.04e-01	0	32	0	787480576	72	4318
2026-01-02 12:00:26.65	304.63	48.97	-52.2	-53.4	16.7	6.01e-01	0	32	0	789053440	72	4334
2026-01-02 12:00:27.66	305.10	48.67	-52.3	-53.5	16.8	6.02e-01	0	31	0	791150592	72	4349
2026-01-02 12:00:28.66	305.55	48.36	-52.4	-53.6	16.7	6.04e-01	0	31	0	793247744	72	4433
2026-01-02 12:00:29.67	305.99	48.05	-52.4	-53.6	16.7	6.04e-01	0	31	0	794820608	72	4407
2026-01-02 12:00:30.67	306.43	47.75	-52.3	-53.5	16.7	6.03e-01	0	32	0	796917760	72	4390
2026-01-02 12:00:31.67	306.85	47.45	-52.4	-53.6	16.7	6.03e-01	0	31	0	798490624	72	4433
2026-01-02 12:00:32.68	307.28	47.14	-52.2	-53.4	16.7	6.04e-01	0	31	0	800587776	72	4335
2026-01-02 12:00:33.68	307.69	46.84	-52.1	-53.2	16.8	6.02e-01	0	32	0	802684928	72	4225
2026-01-02 12:00:34.69	308.09	46.54	-52.0	-53.1	16.8	6.02e-01	0	31	0	804257792	72	4176
2026-01-02 12:00:35.68	308.48	46.24	-52.1	-53.3	16.7	6.01e-01	0	32	0	806354944	72	4270
2026-01-02 12:00:36.68	308.87	45.94	-52.2	-53.3	16.7	6.02e-01	0	32	0	807927808	72	4288
2026-01-02 12:00:37.69	309.25	45.64	-51.9	-53.1	16.8	6.05e-01	0	31	0	810024960	72	4147
2026-01-02 12:00:38.69	309.62	45.34	-51.8	-52.9	16.8	6.02e-01	0	32	0	812122112	72	4084
2026-01-02 12:00:39.70	309.99	45.04	-51.8	-53.0	16.8	6.03e-01	0	31	0	813694976	72	4112
2026-01-02 12:00:40.70	310.35	44.75	-52.1	-53.3	16.7	6.02e-01	0	31	0	815792128	72	4283
2026-01-02 12:00:41.70	310.70	44.45	-52.3	-53.5	16.7	6.03e-01	0	31	0	817364992	72	4378
2026-01-02 12:00:42.70	311.05	44.16	-52.3	-53.5	16.7	6.05e-01	0	31	0	819462144	72	4348
2026-01-02 12:00:43.70	311.39	43.87	-52.1	-53.2	16.8	6.04e-01	0	31	0	821035008	72	4229
2026-01-02 12:00:44.70	311.72	43.58	-52.0	-53.2	16.8	6.04e-01	0	31	0	823132160	72	4195
2026-01-02 12:00:45.70	312.05	43.29	-52.1	-53.3	16.8	6.03e-01	0	31	0	825229312	72	4246
2026-01-02 12:00:46.71	312.37	43.00	-52.2	-53.4	16.7	6.05e-01	0	31	0	826802176	72	4323
2026-01-02 12:00:47.71	312.68	42.71	-52.3	-53.5	16.7	6.02e-01	0	32	0	828899328	72	4362
2026-01-02 12:00:48.71	312.99	42.43	-52.3	-53.5	16.7	6.04e-01	0	31	0	830472192	72	4344
2026-01-02 12:00:49.71	313.30	42.14	-52.3	-53.5	16.7	6.04e-01	0	31	0	832569344	72	4378
2026-01-02 12:00:50.71	313.60	41.86	-52.5	-53.7	16.7	6.04e-01	0	31	0	834666496	72	4476
2026-01-02 12:00:51.72	313.89	41.58	-52.5	-53.7	16.6	6.03e-01	0	31	0	836239360	72	4484
2026-01-02 12:00:52.72	314.18	41.30	-52.5	-53.7	16.7	6.03e-01	0	32	0	838336512	72	4485
2026-01-02 12:00:53.73	314.47	41.02	-52.6	-53.9	16.6	6.02e-01	0	31	0	839909376	73	4301
2026-01-02 12:00:54.73	314.75	40.74	-52.7	-54.0	16.7	6.04e-01	0	31	0	842006528	73	4369
2026-01-02 12:00:55.74	315.03	40.46	-52.8	-54.1	16.7	6.03e-01	0	32	0	843579392	73	4393
2026-01-02 12:00:56.74	315.30	40.19	-52.6	-53.8	16.7	6.03e-01	0	31	0	845676544	73	4272
2026-01-02 12:00:57.74	315.56	39.92	-52.5	-53.8	16.7	6.05e-01	0	31	0	847773696	73	4264
2026-01-02 12:00:58.74	315.82	39.65	-52.6	-53.8	16.7	6.05e-01	0	31	0	849346560	73	4278
2026-01-02 12:00:59.74	316.08	39.38	-52.6	-53.9	16.7	6.03e-01	0	31	0	851443712	73	4298
2026-01-02 12:01:00.73	316.33	39.11	-52.4	-53.6	16.7	6.04e-01	0	31	0	853016576	73	4175
2026-01-02 12:01:01.73	316.57	38.85	-52.4	-53.6	16.7	6.03e-01	0	31	0	855113728	73	4163
2026-01-02 12:01:02.74	316.82	38.58	-52.4	-53.7	16.7	6.04e-01	0	32	0	856686592	73	4194
2026-01-02 12:01:03.74	317.06	38.32	-52.5	-53.8	16.7	6.04e-01	0	32	0	858783744	73	4261
2026-01-02 12:01:04.75	317.30	38.06	-52.6	-53.9	16.7	6.01e-01	0	32	0	860880896	73	4300
2026-01-02 12:01:05.75	317.53	37.80	-52.4	-53.6	16.8	6.03e-01	0	32	0	862453760	73	4168
2026-01-02 12:01:06.75	317.76	37.54	-52.4	-53.6	16.7	6.03e-01	0	32	0	864550912	73	4186
2026-01-02 12:01:07.75	317.99	37.29	-52.2	-53.4	16.8	6.04e-01	0	31	0	866123776	73	4097
2026-01-02 12:01:08.75	318.21	37.03	-52.1	-53.2	16.8	6.05e-01	0	32	0	868220928	73	4004
2026-01-02 12:01:09.75	318.43	36.78	-52.0	-53.2	16.8	6.03e-01	0	32	0	870318080	73	3977
2026-01-02 12:01:10.76	318.64	36.53	-52.0	-53.1	16.8	6.02e-01	0	31	0	871890944	73	3958
2026-01-02 12:01:11.76	318.86	36.28	-51.8	-53.0	16.8	6.04e-01	0	31	0	873988096	72	4103
2026-01-02 12:01:12.76	319.06	36.03	-51.6	-52.8	16.9	6.01e-01	0	31	0	875560960	72	4011
2026-01-02 12:01:13.77	319.27	35.78	-51.6	-52.7	16.9	6.03e-01	0	31	0	877658112	72	3990
2026-01-02 12:01:14.77	319.47	35.54	-51.7	-52.9	16.9	6.05e-01	0	32	0	879755264	72	4052
2026-01-02 12:01:15.77	319.67	35.30	-51.4	-52.5	16.9	6.02e-01	0	31	0	881328128	72	3881
2026-01-02 12:01:16.77	319.87	35.05	-51.2	-52.3	16.9	6.03e-01	0	31	0	883425280	71	4035
2026-01-02 12:01:17.78	320.06	34.81	-51.0	-52.0	17.0	6.03e-01	0	31	0	884998144	71	3908
2026-01-02 12:01:18.78	320.26	34.57	-50.9	-52.0	17.0	6.04e-01	0	31	0	887095296	71	3877
2026-01-02 12:01:19.78	320.44	34.34	-50.9	-51.9	17.0	6.04e-01	0	31	0	888668160	71	3860
2026-01-02 12:01:20.79	320.63	34.10	-50.9	-52.0	16.9	6.04e-01	0	32	0	890765312	70	4109
2026-01-02 12:01:21.79	320.81	33.87	-51.0	-52.0	16.9	6.04e-01	0	32	0	892862464	70	4139
2026-01-02 12:01:22.79	320.99	33.64	-51.0	-52.1	16.9	6.04e-01	0	31	0	894435328	70	4176
2026-01-02 12:01:23.79	321.17	33.41	-51.0	-52.1	16.9	6.01e-01	0	31	0	896532480	70	4160
2026-01-02 12:01:24.80	321.35	33.18	-50.8	-51.8	17.0	6.01e-01	0	31	0	898105344	70	4037
2026-01-02 12:01:25.80	321.52	32.95	-50.7	-51.8	16.9	6.03e-01	0	31	0	900202496	70	4017
2026-01-02 12:01:26.80	321.69	32.72	-50.9	-51.9	16.9	6.05e-01	0	32	0	902299648	70	4082
2026-01-02 12:01:27.80	321.86	32.50	-50.8	-51.8	16.9	6.01e-01	0	32	0	903872512	70	4035
2026-01-02 12:01:28.81	322.02	32.28	-50.8	-51.8	17.0	6.03e-01	0	31	0	905969664	70	4019
2026-01-02 12:01:29.81	322.19	32.06	-50.7	-51.8	16.9	6.02e-01	0	31	0	907542528	70	4018
2026-01-02 12:01:30.81	322.35	31.84	-50.8	-51.8	16.9	6.05e-01	0	31	0	909639680	70	4046
2026-01-02 12:01:31.82	322.51	31.62	-50.7	-51.7	16.9	6.02e-01	0	32	0	911212544	70	3983
2026-01-02 12:01:32.82	322.66	31.40	-50.7	-51.7	16.9	6.03e-01	0	31	0	913309696	70	3989
2026-01-02 12:01:33.82	322.82	31.19	-50.6	-51.6	17.0	6.02e-01	0	31	0	915406848	70	3951
2026-01-02 12:01:34.82	322.97	30.97	-50.5	-51.5	17.0	6.03e-01	0	31	0	916979712	70	3906
2026-01-02 12:01:35.82	323.12	30.76	-50.5	-51.5	17.0	6.06e-01	0	31	0	919076864	70	3896
2026-01-02 12:01:36.82	323.27	30.55	-50.5	-51.5	17.0	6.05e-01	0	32	0	920649728	70	3907
2026-01-02 12:01:37.81	323.42	30.34	-50.6	-51.6	17.0	6.04e-01	0	32	0	922746880	70	3949
2026-01-02 12:01:38.81	323.56	30.14	-50.6	-51.7	16.9	6.04e-01	0	31	0	924844032	70	3976
2026-01-02 12:01:39.81	323.70	29.93	-50.7	-51.7	16.9	6.02e-01	0	31	0	926416896	70	4004
2026-01-02 12:01:40.81	323.84	29.73	-50.7	-51.7	16.9	6.04e-01	0	31	0	928514048	70	4001
2026-01-02 12:01:41.81	323.98	29.52	-50.7	-51.8	16.9	6.04e-01	0	31	0	930086912	70	4008
2026-01-02 12:01:42.81	324.12	29.32	-50.8	-51.9	16.9	6.04e-01	0	31	0	932184064	70	4062
2026-01-02 12:01:43.80	324.26	29.12	-50.8	-51.9	16.9	6.04e-01	0	32	0	933756928	70	4081
2026-01-02 12:01:44.80	324.39	28.92	-50.9	-52.0	16.9	6.03e-01	0	32	0	935854080	70	4123
2026-01-02 12:01:45.80	324.52	28.73	-51.0	-52.1	16.9	6.05e-01	0	31	0	937951232	70	4163
2026-01-02 12:01:46.78	324.65	28.53	-51.0	-52.1	16.9	6.03e-01	0	31	0	939524096	70	4188
2026-01-02 12:01:47.78	324.78	28.34	-51.0	-52.1	16.9	6.03e-01	0	31	0	941621248	70	4193
2026-01-02 12:01:48.77	324.91	28.15	-51.0	-52.1	16.9	6.04e-01	0	31	0	943194112	70	4156
2026-01-02 12:01:49.76	325.03	27.96	-51.1	-52.1	16.9	6.02e-01	0	32	0	945291264	70	4181
2026-01-02 12:01:50.76	325.16	27.77	-50.9	-52.0	16.9	6.06e-01	0	31	0	946864128	70	4112
2026-01-02 12:01:51.76	325.28	27.58	-51.0	-52.1	16.8	6.03e-01	0	31	0	948961280	70	4163
2026-01-02 12:01:52.75	325.40	27.39	-51.0	-52.1	16.8	6.06e-01	0	32	0	950534144	70	4181
2026-01-02 12:01:53.75	325.52	27.20	-51.1	-52.2	16.8	6.04e-01	0	31	0	952631296	70	4227
2026-01-02 12:01:54.73	325.64	27.02	-51.2	-52.3	16.8	6.04e-01	0	31	0	954204160	70	4247
2026-01-02 12:01:55.74	325.76	26.83	-51.2	-52.3	16.8	6.04e-01	0	31	0	956301312	70	4280
2026-01-02 12:01:56.74	325.87	26.65	-51.3	-52.4	16.8	6.01e-01	0	31	0	958398464	70	4326
2026-01-02 12:01:57.73	325.99	26.47	-51.3	-52.5	16.8	6.05e-01	0	31	0	959971328	70	4343
2026-01-02 12:01:58.73	326.10	26.29	-51.5	-52.7	16.7	6.04e-01	0	31	0	962068480	70	4452
2026-01-02 12:01:59.73	326.22	26.11	-51.5	-52.6	16.7	6.01e-01	0	32	0	963641344	70	4429
2026-01-02 12:02:00.73	326.33	25.93	-51.5	-52.6	16.8	6.04e-01	0	32	0	965738496	70	4425
2026-01-02 12:02:01.73	326.44	25.75	-51.5	-52.7	16.7	6.03e-01	0	31	0	967311360	70	4448
2026-01-02 12:02:02.73	326.55	25.57	-51.5	-52.6	16.7	6.04e-01	0	31	0	969408512	70	4438
2026-01-02 12:02:03.73	326.65	25.40	-51.6	-52.8	16.7	6.04e-01	0	31	0	971505664	71	4252
2026-01-02 12:02:04.73	326.76	25.22	-51.6	-52.8	16.8	6.03e-01	0	31	0	973078528	71	4250
2026-01-02 12:02:05.73	326.86	25.05	-51.7	-52.9	16.8	6.04e-01	0	31	0	975175680	71	4299
2026-01-02 12:02:06.73	326.97	24.88	-51.8	-53.0	16.7	6.05e-01	0	31	0	976748544	71	4353
2026-01-02 12:02:07.73	327.07	24.71	-51.7	-52.9	16.8	6.05e-01	0	31	0	978845696	71	4293
2026-01-02 12:02:08.73	327.17	24.54	-51.7	-52.9	16.7	6.02e-01	0	31	0	980418560	71	4311
2026-01-02 12:02:09.73	327.27	24.37	-51.7	-52.9	16.7	6.05e-01	0	31	0	982515712	71	4301
2026-01-02 12:02:10.73	327.37	24.20	-51.7	-52.9	16.7	6.02e-01	0	31	0	984612864	71	4292
2026-01-02 12:02:11.73	327.47	24.04	-51.6	-52.8	16.8	6.01e-01	0	31	0	986185728	71	4255
2026-01-02 12:02:12.73	327.57	23.87	-51.6	-52.8	16.8	6.02e-01	0	31	0	988282880	71	4253
2026-01-02 12:02:13.73	327.67	23.71	-51.6	-52.8	16.8	6.03e-01	0	31	0	989855744	71	4246
2026-01-02 12:02:14.72	327.76	23.55	-51.4	-52.6	16.8	6.03e-01	0	32	0	991952896	71	4152
2026-01-02 12:02:15.72	327.86	23.38	-51.5	-52.6	16.8	6.03e-01	0	31	0	993525760	71	4165
2026-01-02 12:02:16.71	327.95	23.22	-51.5	-52.6	16.7	6.06e-01	0	32	0	995622912	71	4174
2026-01-02 12:02:17.72	328.04	23.06	-51.5	-52.6	16.8	6.02e-01	0	31	0	997720064	71	4177
2026-01-02 12:02:18.71	328.13	22.91	-51.4	-52.6	16.8	6.04e-01	0	31	0	999292928	71	4165
2026-01-02 12:02:19.71	328.22	22.75	-51.5	-52.6	16.8	6.01e-01	0	31	0	1001390080	71	4179
2026-01-02 12:02:20.71	328.31	22.59	-51.5	-52.6	16.8	6.03e-01	0	31	0	1002962944	71	4169
2026-01-02 12:02:21.71	328.40	22.43	-51.5	-52.6	16.8	6.04e-01	0	32	0	1005060096	71	4170
2026-01-02 12:02:22.69	328.49	22.28	-51.4	-52.6	16.8	6.04e-01	0	31	0	1007157248	71	4157
2026-01-02 12:02:23.69	328.58	22.13	-51.4	-52.6	16.8	6.03e-01	0	31	0	1008730112	71	4154
2026-01-02 12:02:24.68	328.66	21.98	-51.5	-52.6	16.8	6.03e-01	0	31	0	1010302976	71	4175
2026-01-02 12:02:25.68	328.75	21.82	-51.5	-52.6	16.8	6.05e-01	0	31	0	1012400128	71	4181
2026-01-02 12:02:26.68	328.83	21.67	-51.4	-52.5	16.8	6.03e-01	0	31	0	1014497280	71	4145
2026-01-02 12:02:27.67	328.92	21.52	-51.5	-52.6	16.8	6.03e-01	0	32	0	1016070144	71	4179
2026-01-02 12:02:28.67	329.00	21.37	-51.5	-52.6	16.8	6.05e-01	0	32	0	1018167296	71	4169
2026-01-02 12:02:29.67	329.08	21.23	-51.4	-52.6	16.8	6.02e-01	0	31	0	1019740160	71	4169
2026-01-02 12:02:30.67	329.16	21.08	-51.5	-52.6	16.8	6.03e-01	0	31	0	1021837312	71	4173
2026-01-02 12:02:31.67	329.24	20.93	-51.4	-52.5	16.8	6.03e-01	0	32	0	1023934464	71	4116
2026-01-02 12:02:32.66	329.32	20.79	-51.4	-52.5	16.8	6.03e-01	0	32	0	1025507328	71	4120
2026-01-02 12:02:33.65	329.40	20.64	-51.4	-52.5	16.8	6.06e-01	0	31	0	1027604480	71	4135
2026-01-02 12:02:34.65	329.48	20.50	-51.4	-52.5	16.8	6.02e-01	0	31	0	1029177344	71	4129
2026-01-02 12:02:35.64	329.56	20.36	-51.3	-52.4	16.9	6.05e-01	0	31	0	1031274496	71	4092
2026-01-02 12:02:36.63	329.64	20.22	-51.2	-52.4	16.9	6.03e-01	0	32	0	1032847360	71	4053
2026-01-02 12:02:37.62	329.71	20.07	-51.3	-52.5	16.8	6.02e-01	0	32	0	1034944512	71	4100
2026-01-02 12:02:38.62	329.79	19.93	-51.4	-52.6	16.8	6.04e-01	0	31	0	1036517376	71	4147
2026-01-02 12:02:39.61	329.86	19.80	-51.4	-52.5	16.8	6.03e-01	0	31	0	1038614528	71	4128
2026-01-02 12:02:40.60	329.93	19.66	-51.3	-52.4	16.9	6.04e-01	0	31	0	1040711680	71	4081
2026-01-02 12:02:41.60	330.01	19.52	-51.3	-52.5	16.8	6.02e-01	0	31	0	1042284544	71	4104
2026-01-02 12:02:42.60	330.08	19.38	-51.2	-52.4	16.8	6.04e-01	0	31	0	1044381696	71	4064
2026-01-02 12:02:43.59	330.15	19.25	-51.3	-52.4	16.8	6.05e-01	0	31	0	1045954560	71	4096
2026-01-02 12:02:44.59	330.23	19.11	-51.3	-52.5	16.8	6.02e-01	0	31	0	1048051712	71	4101
2026-01-02 12:02:45.58	330.30	18.98	-51.2	-52.3	16.9	6.03e-01	0	31	0	1049624576	71	4023
2026-01-02 12:02:46.58	330.37	18.84	-51.2	-52.3	16.8	6.02e-01	0	32	0	1051721728	71	4035
2026-01-02 12:02:47.57	330.44	18.71	-51.2	-52.3	16.8	6.06e-01	0	32	0	1053294592	71	4025
2026-01-02 12:02:48.56	330.50	18.58	-51.2	-52.4	16.8	6.03e-01	0	32	0	1055391744	71	4066
2026-01-02 12:02:49.55	330.57	18.45	-51.2	-52.3	16.8	6.05e-01	0	32	0	1057488896	71	4027
2026-01-02 12:02:50.54	330.64	18.32	-51.2	-52.3	16.8	6.03e-01	0	32	0	1059061760	71	4033
2026-01-02 12:02:51.52	330.71	18.19	-51.2	-52.4	16.8	6.02e-01	0	31	0	1061158912	71	4061
2026-01-02 12:02:52.51	330.77	18.06	-51.0	-52.2	16.8	6.06e-01	0	32	0	1062731776	71	3969
2026-01-02 12:02:53.50	330.84	17.93	-51.1	-52.2	16.8	6.03e-01	0	32	0	1064828928	71	3975
2026-01-02 12:02:54.49	330.90	17.80	-51.1	-52.2	16.8	6.04e-01	0	31	0	1066401792	71	3991
2026-01-02 12:02:55.48	330.97	17.68	-51.1	-52.3	16.8	6.03e-01	0	31	0	1068498944	71	4019
2026-01-02 12:02:56.47	331.03	17.55	-51.1	-52.2	16.9	6.06e-01	0	32	0	1070071808	71	3985
2026-01-02 12:02:57.46	331.10	17.43	-50.9	-52.0	16.9	6.03e-01	0	31	0	1072168960	71	3903
2026-01-02 12:02:58.45	331.16	17.30	-51.0	-52.1	16.9	6.02e-01	0	32	0	1073741824	71	3924
2026-01-02 12:02:59.45	331.22	17.18	-50.9	-52.0	16.9	6.03e-01	0	31	0	1075838976	71	3908
2026-01-02 12:03:00.44	331.29	17.05	-50.9	-52.0	16.9	6.01e-01	0	31	0	1077411840	71	3898
2026-01-02 12:03:01.43	331.35	16.93	-50.9	-52.0	16.9	6.03e-01	0	31	0	1079508992	71	3913
2026-01-02 12:03:02.43	331.41	16.81	-50.9	-52.0	16.9	6.04e-01	0	31	0	1081081856	71	3907
2026-01-02 12:03:03.43	331.47	16.68	-50.9	-52.0	16.9	6.04e-01	0	32	0	1083179008	71	3913
2026-01-02 12:03:04.43	331.53	16.56	-51.0	-52.1	16.9	6.06e-01	0	31	0	1085276160	71	3940
2026-01-02 12:03:05.43	331.59	16.44	-51.0	-52.1	16.9	6.04e-01	0	31	0	1086849024	71	3949
2026-01-02 12:03:06.42	331.65	16.32	-51.0	-52.1	16.9	6.02e-01	0	32	0	1088946176	71	3938
2026-01-02 12:03:07.41	331.71	16.20	-51.0	-52.1	16.9	6.03e-01	0	32	0	1090519040	71	3946
2026-01-02 12:03:08.40	331.77	16.08	-51.0	-52.1	16.9	6.05e-01	0	31	0	1092616192	71	3946
2026-01-02 12:03:09.40	331.83	15.97	-51.0	-52.2	16.9	6.04e-01	0	31	0	1094713344	71	3964
2026-01-02 12:03:10.38	331.88	15.85	-51.0	-52.1	16.9	6.05e-01	0	31	0	1096286208	71	3940
2026-01-02 12:03:11.38	331.94	15.73	-51.0	-52.1	16.9	6.06e-01	0	31	0	1097859072	71	3955
2026-01-02 12:03:12.37	332.00	15.62	-51.0	-52.1	16.9	6.06e-01	0	31	0	1099956224	71	3930
2026-01-02 12:03:13.36	332.05	15.50	-51.0	-52.2	16.8	6.00e-01	0	31	0	1102053376	71	3967
2026-01-02 12:03:14.36	332.11	15.38	-51.0	-52.2	16.8	6.03e-01	0	32	0	1103626240	71	3962
2026-01-02 12:03:15.36	332.17	15.27	-51.0	-52.1	16.9	6.04e-01	0	31	0	1105723392	71	3925
2026-01-02 12:03:16.35	332.22	15.16	-51.1	-52.2	16.8	6.03e-01	0	31	0	1107296256	71	3970
2026-01-02 12:03:17.34	332.28	15.04	-51.0	-52.2	16.8	6.02e-01	0	31	0	1109393408	71	3973
2026-01-02 12:03:18.34	332.33	14.93	-51.0	-52.2	16.9	6.01e-01	0	32	0	1111490560	71	3969
2026-01-02 12:03:19.34	332.38	14.82	-51.0	-52.1	16.9	6.03e-01	0	31	0	1113063424	71	3936
2026-01-02 12:03:20.34	332.44	14.70	-51.0	-52.1	16.9	6.02e-01	0	32	0	1115160576	71	3958
2026-01-02 12:03:21.34	332.49	14.59	-51.1	-52.2	16.8	6.02e-01	0	31	0	1116733440	71	3982
2026-01-02 12:03:22.34	332.54	14.48	-51.0	-52.1	16.9	6.06e-01	0	31	0	1118830592	71	3956
2026-01-02 12:03:23.34	332.60	14.37	-51.0	-52.1	16.9	6.00e-01	0	31	0	1120403456	71	3924
2026-01-02 12:03:24.33	332.65	14.26	-51.0	-52.2	16.8	6.04e-01	0	32	0	1122500608	71	3972
2026-01-02 12:03:25.33	332.70	14.15	-51.0	-52.1	16.9	6.03e-01	0	32	0	1124073472	71	3955
2026-01-02 12:03:26.33	332.75	14.04	-51.1	-52.2	16.9	6.02e-01	0	32	0	1126170624	71	3980
2026-01-02 12:03:27.32	332.80	13.93	-51.2	-52.4	16.8	6.03e-01	0	32	0	1128267776	71	4071
2026-01-02 12:03:28.32	332.85	13.83	-51.1	-52.3	16.8	6.03e-01	0	31	0	1129840640	71	4018
2026-01-02 12:03:29.31	332.90	13.72	-51.2	-52.3	16.8	6.03e-01	0	31	0	1131937792	71	4033
2026-01-02 12:03:30.31	332.95	13.61	-51.1	-52.2	16.8	6.04e-01	0	32	0	1133510656	71	3986
2026-01-02 12:03:31.30	333.00	13.51	-51.0	-52.2	16.8	6.05e-01	0	31	0	1135607808	71	3972
2026-01-02 12:03:32.30	333.05	13.40	-51.1	-52.3	16.8	6.03e-01	0	31	0	1137180672	71	4011
2026-01-02 12:03:33.30	333.10	13.30	-51.1	-52.3	16.8	6.03e-01	0	32	0	1139277824	71	4017
2026-01-02 12:03:34.30	333.15	13.19	-51.1	-52.3	16.8	6.05e-01	0	31	0	1141374976	71	4025
2026-01-02 12:03:35.30	333.20	13.09	-51.2	-52.3	16.8	6.02e-01	0	32	0	1142947840	71	4041
2026-01-02 12:03:36.29	333.25	12.98	-51.1	-52.2	16.8	6.02e-01	0	32	0	1145044992	71	3997
2026-01-02 12:03:37.29	333.29	12.88	-51.2	-52.3	16.8	6.03e-01	0	31	0	1146617856	71	4044
2026-01-02 12:03:38.29	333.34	12.78	-51.2	-52.4	16.8	6.02e-01	0	31	0	1148715008	71	4079
2026-01-02 12:03:39.28	333.39	12.67	-51.3	-52.5	16.8	6.02e-01	0	31	0	1150287872	71	4142
2026-01-02 12:03:40.29	333.44	12.57	-51.3	-52.4	16.8	6.04e-01	0	32	0	1152385024	71	4093
2026-01-02 12:03:41.29	333.48	12.47	-51.3	-52.4	16.8	6.02e-01	0	31	0	1153957888	71	4098
2026-01-02 12:03:42.29	333.53	12.37	-51.4	-52.5	16.8	6.03e-01	0	32	0	1156055040	71	4144
2026-01-02 12:03:43.29	333.57	12.27	-51.4	-52.6	16.8	6.03e-01	0	32	0	1158152192	71	4155
2026-01-02 12:03:44.30	333.62	12.17	-51.4	-52.6	16.7	6.04e-01	0	32	0	1159725056	71	4160
2026-01-02 12:03:45.29	333.66	12.07	-51.3	-52.5	16.8	6.04e-01	0	31	0	1161822208	71	4141
2026-01-02 12:03:46.30	333.71	11.97	-51.4	-52.6	16.7	6.05e-01	0	32	0	1163395072	71	4168
2026-01-02 12:03:47.29	333.75	11.87	-51.4	-52.7	16.7	6.04e-01	0	31	0	1165492224	71	4204
2026-01-02 12:03:48.28	333.80	11.77	-51.4	-52.6	16.7	6.03e-01	0	32	0	1167065088	71	4174
2026-01-02 12:03:49.28	333.84	11.67	-51.3	-52.6	16.7	6.02e-01	0	32	0	1169162240	71	4148
2026-01-02 12:03:50.28	333.89	11.57	-51.4	-52.6	16.7	6.04e-01	0	32	0	1171259392	71	4193
2026-01-02 12:03:51.28	333.93	11.48	-51.5	-52.7	16.7	6.04e-01	0	32	0	1172832256	71	4221
2026-01-02 12:03:52.28	333.97	11.38	-51.5	-52.8	16.7	6.03e-01	0	31	0	1174929408	71	4255
2026-01-02 12:03:53.27	334.02	11.28	-51.5	-52.7	16.7	6.06e-01	0	31	0	1176502272	71	4235
2026-01-02 12:03:54.27	334.06	11.19	-51.5	-52.8	16.7	6.03e-01	0	32	0	1178599424	71	4260
2026-01-02 12:03:55.28	334.10	11.09	-51.5	-52.8	16.7	6.04e-01	0	32	0	1180172288	71	4255
2026-01-02 12:03:56.28	334.14	11.00	-51.6	-52.8	16.7	6.02e-01	0	32	0	1182269440	71	4269
2026-01-02 12:03:57.28	334.19	10.90	-51.6	-52.8	16.7	6.03e-01	0	31	0	1184366592	71	4264
2026-01-02 12:03:58.28	334.23	10.81	-51.6	-52.8	16.7	6.05e-01	0	31	0	1185939456	71	4278
2026-01-02 12:03:59.28	334.27	10.71	-51.5	-52.7	16.7	6.03e-01	0	31	0	1188036608	71	4237
2026-01-02 12:04:00.28	334.31	10.62	-51.5	-52.7	16.7	6.02e-01	0	31	0	1189609472	71	4221
2026-01-02 12:04:01.28	334.35	10.52	-51.5	-52.7	16.7	6.02e-01	0	32	0	1191706624	71	4232
2026-01-02 12:04:02.27	334.39	10.43	-51.5	-52.7	16.7	6.04e-01	0	31	0	1193803776	71	4242
2026-01-02 12:04:03.27	334.43	10.34	-51.5	-52.7	16.7	6.02e-01	0	31	0	1195376640	71	4228
2026-01-02 12:04:04.27	334.47	10.25	-51.5	-52.8	16.7	6.02e-01	0	31	0	1197473792	71	4252
2026-01-02 12:04:05.28	334.51	10.15	-51.6	-52.8	16.7	6.04e-01	0	32	0	1199046656	71	4269
2026-01-02 12:04:06.27	334.55	10.06	-51.7	-52.9	16.6	6.03e-01	0	31	0	1201143808	71	4338
2026-01-02 12:04:07.28	334.59	9.97	-51.6	-52.9	16.7	6.05e-01	0	31	0	1202716672	71	4312
2026-01-02 12:04:08.29	334.63	9.88	-51.7	-53.0	16.6	6.03e-01	0	32	0	1204813824	71	4342
2026-01-02 12:04:09.29	334.67	9.79	-51.5	-52.8	16.6	6.02e-01	0	31	0	1206910976	71	4271
2026-01-02 12:04:10.29	334.71	9.70	-51.7	-53.0	16.6	6.04e-01	0	32	0	1208483840	71	4341
2026-01-02 12:04:11.30	334.75	9.61	-51.7	-53.0	16.7	6.05e-01	0	31	0	1210580992	71	4358
2026-01-02 12:04:12.31	334.79	9.52	-51.8	-53.1	16.6	6.06e-01	0	32	0	1212153856	71	4418
2026-01-02 12:04:13.31	334.82	9.43	-51.8	-53.1	16.6	6.02e-01	0	32	0	1214251008	71	4411
2026-01-02 12:04:14.31	334.86	9.34	-51.7	-53.0	16.6	6.04e-01	0	32	0	1216348160	71	4361
2026-01-02 12:04:15.31	334.90	9.25	-51.8	-53.1	16.6	6.01e-01	0	32	0	1217921024	71	4413
2026-01-02 12:04:16.30	334.94	9.17	-51.7	-53.0	16.6	6.03e-01	0	32	0	1220018176	71	4367
2026-01-02 12:04:17.31	334.97	9.08	-51.7	-53.0	16.6	6.02e-01	0	32	0	1221591040	71	4372
2026-01-02 12:04:18.31	335.01	8.99	-51.8	-53.1	16.6	6.04e-01	0	31	0	1223688192	71	4401
2026-01-02 12:04:19.32	335.05	8.90	-51.7	-53.0	16.6	6.05e-01	0	31	0	1225785344	71	4344
2026-01-02 12:04:20.32	335.08	8.82	-51.7	-53.1	16.6	6.02e-01	0	31	0	1227358208	71	4392
2026-01-02 12:04:21.32	335.12	8.73	-51.8	-53.2	16.5	6.03e-01	0	31	0	1229455360	71	4452
2026-01-02 12:04:22.32	335.16	8.64	-51.8	-53.2	16.6	6.03e-01	0	32	0	1231028224	71	4454
2026-01-02 12:04:23.32	335.19	8.56	-51.9	-53.2	16.5	6.03e-01	0	32	0	1233125376	71	4480
2026-01-02 12:04:24.32	335.23	8.47	-51.9	-53.3	16.5	6.02e-01	0	31	0	1234698240	71	4513
2026-01-02 12:04:25.32	335.26	8.39	-52.0	-53.4	16.5	6.01e-01	0	31	0	1236795392	71	4561
2026-01-02 12:04:26.32	335.30	8.30	-52.1	-53.4	16.5	6.03e-01	0	31	0	1238892544	71	4591
2026-01-02 12:04:27.32	335.33	8.22	-52.0	-53.3	16.5	6.04e-01	0	32	0	1240465408	71	4545
2026-01-02 12:04:28.33	335.37	8.13	-52.0	-53.3	16.5	6.01e-01	0	32	0	1242562560	71	4533
