passes_logs/2026/01/02/R3.2S_Murmansk/R3.2S_Murmansk__20260102_011018_KANOPUS-V_5_rec.log

#Pass ID: 20260102_011018_KANOPUS-V 5
#Satellite: KANOPUS-V 5
#Configuration: KANOPUS-V_8320
#almurnet v.1.7.20251203
#Start time: 2026-01-02 01:10:19

#Version: 2.2.20231116
#Station: R3.2S_Murmansk
#Location: 33.079688 lon 68.888172 lat
#TLE: 1 43876U 18111A   25365.78559900  .00000034  00000+0  43243-5 0  9991
#TLE: 2 43876  97.3689 269.5581 0001682  83.9573 276.1856 15.23322632389307

#Time	Az	El	Level	Level2	SNR	BER	BlckErr	Temp	State	Recorded	gain1	gain2
2026-01-02 01:10:19.26	28.36	2.07	-60.7	-70.5	3.8	7.45e-01	0	31	0	0	86	10604
2026-01-02 01:10:20.25	28.26	2.12	-60.7	-70.5	3.8	7.45e-01	0	31	104	0	86	10556
2026-01-02 01:10:21.25	28.15	2.18	-60.8	-70.5	3.8	7.47e-01	0	31	104	0	86	10552
2026-01-02 01:10:22.25	28.05	2.24	-60.7	-70.4	3.8	7.46e-01	0	32	104	0	86	10510
2026-01-02 01:10:23.24	27.94	2.30	-60.8	-70.5	3.8	7.46e-01	0	32	104	0	86	10584
2026-01-02 01:10:24.23	27.84	2.36	-60.7	-70.5	3.8	7.45e-01	0	31	104	0	86	10534
2026-01-02 01:10:25.23	27.73	2.41	-60.7	-70.5	3.8	7.45e-01	0	31	104	0	86	10578
2026-01-02 01:10:26.22	27.63	2.47	-60.7	-70.5	3.8	7.45e-01	0	32	104	0	86	10544
2026-01-02 01:10:27.22	27.52	2.53	-60.7	-70.5	3.8	7.45e-01	0	31	104	0	86	10562
2026-01-02 01:10:28.22	27.41	2.59	-60.7	-70.5	3.8	7.47e-01	0	32	104	0	86	10551
2026-01-02 01:10:29.22	27.30	2.65	-60.7	-70.4	3.8	7.47e-01	0	31	104	0	86	10528
2026-01-02 01:10:30.21	27.19	2.71	-60.7	-70.4	3.8	7.44e-01	0	32	104	0	86	10532
2026-01-02 01:10:31.20	27.08	2.77	-60.7	-70.5	3.8	7.45e-01	0	32	104	0	86	10595
2026-01-02 01:10:32.20	26.97	2.82	-60.7	-70.5	3.8	7.45e-01	0	32	104	0	86	10558
2026-01-02 01:10:33.20	26.86	2.88	-60.7	-70.5	3.8	7.45e-01	0	32	104	0	86	10550
2026-01-02 01:10:34.20	26.75	2.94	-60.7	-70.5	3.8	7.45e-01	0	32	104	0	86	10538
2026-01-02 01:10:35.20	26.64	3.00	-60.7	-70.5	3.8	7.45e-01	0	32	104	0	86	10574
2026-01-02 01:10:36.20	26.52	3.06	-60.7	-70.4	3.8	7.46e-01	0	32	104	0	86	10529
2026-01-02 01:10:37.21	26.41	3.12	-60.7	-70.4	3.8	7.47e-01	0	32	104	0	86	10530
2026-01-02 01:10:38.21	26.29	3.18	-60.7	-70.5	3.8	7.47e-01	0	32	104	0	86	10574
2026-01-02 01:10:39.21	26.18	3.24	-60.7	-70.5	3.8	7.46e-01	0	32	104	0	86	10558
2026-01-02 01:10:40.20	26.06	3.30	-60.7	-70.5	3.8	7.47e-01	0	32	104	0	86	10571
2026-01-02 01:10:41.20	25.95	3.36	-60.7	-70.4	3.8	7.45e-01	0	32	104	0	86	10512
2026-01-02 01:10:42.20	25.83	3.42	-60.7	-70.5	3.8	7.46e-01	0	32	104	0	86	10540
2026-01-02 01:10:43.20	25.71	3.48	-60.7	-70.5	3.8	7.47e-01	0	32	104	0	86	10574
2026-01-02 01:10:44.19	25.60	3.54	-60.7	-70.4	3.8	7.45e-01	0	32	104	0	86	10522
2026-01-02 01:10:45.19	25.48	3.60	-60.7	-70.4	3.8	7.47e-01	0	32	104	0	86	10526
2026-01-02 01:10:46.19	25.36	3.66	-60.7	-70.4	3.8	7.44e-01	0	32	104	0	86	10527
2026-01-02 01:10:47.19	25.24	3.72	-60.7	-70.5	3.8	7.48e-01	0	32	104	0	86	10593
2026-01-02 01:10:48.19	25.12	3.78	-60.7	-70.5	3.8	7.44e-01	0	32	104	0	86	10554
2026-01-02 01:10:49.18	25.00	3.84	-60.7	-70.4	3.8	7.45e-01	0	32	104	0	86	10525
2026-01-02 01:10:50.18	24.88	3.90	-60.7	-70.4	3.8	7.45e-01	0	32	104	0	86	10528
2026-01-02 01:10:51.19	24.75	3.96	-60.7	-70.5	3.8	7.45e-01	0	32	104	0	86	10553
2026-01-02 01:10:52.19	24.63	4.02	-60.7	-70.4	3.8	7.45e-01	0	32	104	0	86	10531
2026-01-02 01:10:53.18	24.51	4.08	-60.7	-70.5	3.8	7.46e-01	0	32	104	0	86	10591
2026-01-02 01:10:54.18	24.38	4.14	-60.7	-70.4	3.8	7.46e-01	0	32	104	0	86	10509
2026-01-02 01:10:55.18	24.26	4.20	-60.7	-70.5	3.8	7.46e-01	0	32	104	0	86	10552
2026-01-02 01:10:56.17	24.13	4.26	-60.7	-70.5	3.8	7.45e-01	0	32	104	0	86	10542
2026-01-02 01:10:57.17	24.00	4.33	-60.7	-70.4	3.8	7.45e-01	0	32	104	0	86	10528
2026-01-02 01:10:58.17	23.88	4.39	-60.7	-70.5	3.8	7.47e-01	0	32	104	0	86	10574
2026-01-02 01:10:59.17	23.75	4.45	-60.7	-70.4	3.8	7.46e-01	0	32	104	0	86	10520
2026-01-02 01:11:00.17	23.62	4.51	-60.7	-70.4	3.8	7.45e-01	0	32	104	0	86	10524
2026-01-02 01:11:01.18	23.49	4.57	-60.7	-70.4	3.8	7.45e-01	0	32	104	0	86	10523
2026-01-02 01:11:02.18	23.36	4.63	-60.7	-70.5	3.8	7.46e-01	0	32	104	0	86	10546
2026-01-02 01:11:03.18	23.23	4.69	-60.7	-70.5	3.8	7.45e-01	0	32	104	0	86	10540
2026-01-02 01:11:04.19	23.09	4.76	-60.7	-70.4	3.8	7.46e-01	0	32	104	0	86	10507
2026-01-02 01:11:05.19	22.96	4.82	-60.7	-70.5	3.8	7.44e-01	0	32	104	0	86	10541
2026-01-02 01:11:06.19	22.83	4.88	-60.7	-70.4	3.8	7.47e-01	0	32	104	0	86	10513
2026-01-02 01:11:07.19	22.69	4.94	-60.7	-70.4	3.8	7.45e-01	0	32	104	0	86	10517
2026-01-02 01:11:08.20	22.56	5.00	-60.7	-70.4	3.8	7.46e-01	0	32	104	0	86	10530
2026-01-02 01:11:09.20	22.42	5.07	-60.7	-70.4	3.8	7.47e-01	0	32	104	0	86	10520
2026-01-02 01:11:10.20	22.29	5.13	-60.9	-70.6	3.8	7.45e-01	0	32	104	0	86	10745
2026-01-02 01:11:11.20	22.15	5.19	-60.8	-70.5	3.8	7.46e-01	0	33	104	0	86	10616
2026-01-02 01:11:12.20	22.01	5.25	-60.7	-70.4	3.8	7.47e-01	0	32	104	0	86	10522
2026-01-02 01:11:13.20	21.87	5.31	-60.8	-70.6	3.8	7.45e-01	0	33	104	0	86	10656
2026-01-02 01:11:14.20	21.73	5.38	-60.7	-70.4	3.8	7.46e-01	0	32	104	0	86	10488
2026-01-02 01:11:15.19	21.60	5.44	-60.8	-70.5	3.8	7.47e-01	0	32	104	0	86	10623
2026-01-02 01:11:16.19	21.46	5.50	-60.7	-70.5	3.8	7.45e-01	0	32	104	0	86	10539
2026-01-02 01:11:17.19	21.31	5.56	-60.9	-70.6	3.8	7.45e-01	0	32	104	0	86	10764
2026-01-02 01:11:18.18	21.17	5.62	-60.7	-70.4	3.8	7.46e-01	0	32	104	0	86	10525
2026-01-02 01:11:19.18	21.03	5.69	-60.8	-70.5	3.8	7.45e-01	0	33	104	0	86	10632
2026-01-02 01:11:20.18	20.89	5.75	-60.7	-70.5	3.8	7.45e-01	0	33	104	0	86	10588
2026-01-02 01:11:21.18	20.74	5.81	-60.9	-70.6	3.8	7.47e-01	0	33	104	0	86	10719
2026-01-02 01:11:22.17	20.60	5.87	-60.7	-70.4	3.8	7.46e-01	0	33	104	0	86	10519
2026-01-02 01:11:23.16	20.45	5.94	-60.8	-70.5	3.8	7.45e-01	0	33	104	0	86	10617
2026-01-02 01:11:24.16	20.30	6.00	-60.8	-70.5	3.8	7.47e-01	0	33	104	0	86	10559
2026-01-02 01:11:25.15	20.16	6.06	-60.9	-70.6	3.8	7.45e-01	0	33	104	0	86	10717
2026-01-02 01:11:26.14	20.01	6.12	-60.7	-70.5	3.8	7.44e-01	0	33	104	0	86	10582
2026-01-02 01:11:27.14	19.86	6.19	-60.8	-70.6	3.8	7.44e-01	0	33	104	0	86	10686
2026-01-02 01:11:28.14	19.71	6.25	-60.8	-70.5	3.8	7.46e-01	0	33	104	0	86	10603
2026-01-02 01:11:29.14	19.56	6.31	-60.9	-70.6	3.8	7.46e-01	0	33	104	0	86	10777
2026-01-02 01:11:30.14	19.41	6.38	-60.8	-70.5	3.8	7.45e-01	0	33	104	0	86	10573
2026-01-02 01:11:31.13	19.26	6.44	-60.8	-70.6	3.8	7.47e-01	0	33	104	0	86	10672
2026-01-02 01:11:32.14	19.10	6.50	-60.8	-70.5	3.8	7.45e-01	0	33	104	0	86	10604
2026-01-02 01:11:33.14	18.95	6.57	-60.9	-70.7	3.8	7.44e-01	0	33	104	0	86	10820
2026-01-02 01:11:34.13	18.79	6.63	-60.8	-70.5	3.8	7.46e-01	0	33	104	0	86	10624
2026-01-02 01:11:35.13	18.63	6.69	-60.9	-70.6	3.8	7.46e-01	0	33	104	0	86	10733
2026-01-02 01:11:36.12	18.48	6.75	-60.8	-70.6	3.8	7.45e-01	0	33	104	0	86	10693
2026-01-02 01:11:37.12	18.32	6.82	-61.0	-70.7	3.8	7.46e-01	0	33	104	0	86	10836
2026-01-02 01:11:38.12	18.16	6.88	-60.8	-70.5	3.8	7.44e-01	0	33	104	0	86	10652
2026-01-02 01:11:39.12	18.00	6.94	-60.9	-70.6	3.8	7.46e-01	0	33	104	0	86	10736
2026-01-02 01:11:40.12	17.84	7.01	-60.9	-70.6	3.8	7.46e-01	0	33	104	0	86	10689
2026-01-02 01:11:41.12	17.68	7.07	-61.0	-70.7	3.8	7.45e-01	0	33	104	0	86	10893
2026-01-02 01:11:42.12	17.52	7.14	-60.8	-70.5	3.8	7.47e-01	0	33	104	0	86	10642
2026-01-02 01:11:43.12	17.35	7.20	-60.9	-70.7	3.8	7.46e-01	0	33	104	0	86	10800
2026-01-02 01:11:44.12	17.19	7.26	-60.9	-70.6	3.8	7.46e-01	0	33	104	0	86	10702
2026-01-02 01:11:45.11	17.02	7.33	-61.0	-70.7	3.8	7.47e-01	0	33	104	0	86	10856
2026-01-02 01:11:46.11	16.86	7.39	-60.9	-70.6	3.8	7.46e-01	0	33	104	0	86	10725
2026-01-02 01:11:47.12	16.69	7.45	-60.9	-70.7	3.8	7.46e-01	0	33	104	0	86	10804
2026-01-02 01:11:48.11	16.52	7.52	-60.9	-70.6	3.8	7.46e-01	0	33	104	0	86	10772
2026-01-02 01:11:49.11	16.35	7.58	-61.0	-70.7	3.8	7.46e-01	0	33	104	0	86	10900
2026-01-02 01:11:50.11	16.18	7.64	-60.9	-70.6	3.8	7.45e-01	0	33	104	0	86	10729
2026-01-02 01:11:51.11	16.01	7.71	-61.0	-70.7	3.8	7.46e-01	0	33	104	0	86	10816
2026-01-02 01:11:52.11	15.84	7.77	-60.9	-70.6	3.8	7.45e-01	0	33	104	0	86	10726
2026-01-02 01:11:53.11	15.67	7.84	-61.0	-70.7	3.8	7.46e-01	0	33	104	0	86	10895
2026-01-02 01:11:54.10	15.49	7.90	-60.9	-70.6	3.8	7.47e-01	0	33	104	0	86	10733
2026-01-02 01:11:55.11	15.32	7.96	-61.0	-70.7	3.8	7.47e-01	0	33	104	0	86	10862
2026-01-02 01:11:56.11	15.14	8.03	-60.9	-70.7	3.8	7.46e-01	0	33	104	0	86	10800
2026-01-02 01:11:57.11	14.96	8.09	-61.1	-70.8	3.8	7.44e-01	0	33	104	0	86	10912
2026-01-02 01:11:58.12	14.78	8.16	-60.9	-70.7	3.8	7.46e-01	0	33	104	0	86	10789
2026-01-02 01:11:59.12	14.60	8.22	-61.0	-70.7	3.8	7.45e-01	0	33	104	0	86	10861
2026-01-02 01:12:00.12	14.42	8.28	-61.0	-70.7	3.8	7.46e-01	0	33	104	0	86	10815
2026-01-02 01:12:01.12	14.24	8.35	-61.1	-70.8	3.8	7.46e-01	0	33	104	0	86	10949
2026-01-02 01:12:02.12	14.06	8.41	-61.0	-70.7	3.8	7.46e-01	0	33	104	0	86	10813
2026-01-02 01:12:03.12	13.88	8.47	-61.0	-70.7	3.9	7.46e-01	0	33	104	0	86	10891
2026-01-02 01:12:04.12	13.69	8.54	-61.0	-70.7	3.8	7.46e-01	0	33	104	0	86	10873
2026-01-02 01:12:05.12	13.51	8.60	-61.1	-70.8	3.8	7.44e-01	0	33	104	0	86	10981
2026-01-02 01:12:06.12	13.32	8.67	-61.0	-70.7	3.8	7.46e-01	0	33	104	0	86	10838
2026-01-02 01:12:07.12	13.14	8.73	-61.0	-70.8	3.8	7.45e-01	0	33	104	0	86	10940
2026-01-02 01:12:08.12	12.95	8.79	-61.0	-70.7	3.8	7.45e-01	0	33	104	0	86	10889
2026-01-02 01:12:09.11	12.76	8.86	-61.1	-70.9	3.8	7.47e-01	0	33	104	0	86	11071
2026-01-02 01:12:10.12	12.57	8.92	-61.0	-70.7	3.8	7.47e-01	0	33	104	0	86	10903
2026-01-02 01:12:11.12	12.38	8.98	-61.1	-70.8	3.8	7.44e-01	0	33	104	0	86	11003
2026-01-02 01:12:12.12	12.18	9.05	-61.0	-70.7	3.8	7.43e-01	0	33	104	0	86	10903
2026-01-02 01:12:13.12	11.99	9.11	-61.2	-70.9	3.8	7.46e-01	0	33	104	0	86	11043
2026-01-02 01:12:14.12	11.80	9.17	-61.0	-70.8	3.8	7.45e-01	0	33	104	0	86	10921
2026-01-02 01:12:15.12	11.60	9.24	-61.1	-70.8	3.8	7.47e-01	0	33	104	0	86	10933
2026-01-02 01:12:16.11	11.41	9.30	-61.1	-70.7	3.8	7.46e-01	0	33	104	0	86	10901
2026-01-02 01:12:17.11	11.21	9.36	-61.2	-70.9	3.8	7.45e-01	0	33	104	0	86	11113
2026-01-02 01:12:18.10	11.01	9.43	-61.1	-70.8	3.8	7.46e-01	0	33	104	0	86	10944
2026-01-02 01:12:19.10	10.81	9.49	-61.1	-70.8	3.8	7.45e-01	0	33	104	0	86	10959
2026-01-02 01:12:20.10	10.61	9.55	-61.1	-70.8	3.8	7.45e-01	0	33	104	0	86	10996
2026-01-02 01:12:21.10	10.41	9.62	-61.2	-70.9	3.8	7.45e-01	0	33	104	0	86	11125
2026-01-02 01:12:22.11	10.20	9.68	-61.1	-70.8	3.8	7.45e-01	0	33	104	0	86	10959
2026-01-02 01:12:23.10	10.00	9.74	-61.1	-70.9	3.8	7.45e-01	0	33	104	0	86	11049
2026-01-02 01:12:24.10	9.80	9.80	-61.1	-70.8	3.8	7.46e-01	0	33	104	0	86	10995
2026-01-02 01:12:25.09	9.59	9.87	-61.2	-70.9	3.8	7.46e-01	0	33	104	0	86	11141
2026-01-02 01:12:26.09	9.38	9.93	-61.1	-70.8	3.8	7.46e-01	0	33	104	0	86	11011
2026-01-02 01:12:27.09	9.18	9.99	-61.2	-70.9	3.8	7.45e-01	0	33	104	0	86	11086
2026-01-02 01:12:28.08	8.97	10.05	-61.1	-70.8	3.8	7.45e-01	0	33	104	0	86	11023
2026-01-02 01:12:29.07	8.76	10.11	-61.2	-70.9	3.8	7.46e-01	0	33	104	0	86	11138
2026-01-02 01:12:30.07	8.55	10.18	-61.1	-70.9	3.8	7.46e-01	0	33	104	0	86	11054
2026-01-02 01:12:31.05	8.34	10.24	-61.2	-70.9	3.8	7.46e-01	0	33	104	0	86	11120
2026-01-02 01:12:32.05	8.12	10.30	-61.1	-70.9	3.8	7.47e-01	0	33	104	0	86	11038
2026-01-02 01:12:33.05	7.91	10.36	-61.3	-71.0	3.8	7.45e-01	0	33	104	0	86	11189
2026-01-02 01:12:34.05	7.69	10.42	-61.2	-70.9	3.8	7.46e-01	0	33	104	0	86	11146
2026-01-02 01:12:35.05	7.47	10.48	-61.2	-70.9	3.8	7.47e-01	0	33	104	0	86	11140
2026-01-02 01:12:36.05	7.26	10.55	-61.2	-70.9	3.8	7.46e-01	0	33	104	0	86	11085
2026-01-02 01:12:37.05	7.04	10.61	-61.3	-71.0	3.8	7.47e-01	0	33	104	0	86	11218
2026-01-02 01:12:38.05	6.81	10.67	-61.2	-70.9	3.8	7.47e-01	0	33	104	0	86	11100
2026-01-02 01:12:39.04	6.59	10.73	-61.2	-70.9	3.8	7.46e-01	0	33	104	0	86	11155
2026-01-02 01:12:40.03	6.37	10.79	-61.2	-70.9	3.8	7.46e-01	0	33	104	0	86	11106
2026-01-02 01:12:41.03	6.15	10.85	-61.3	-71.0	3.8	7.45e-01	0	33	104	0	86	11226
2026-01-02 01:12:42.04	5.92	10.91	-61.2	-70.9	3.8	7.46e-01	0	33	104	0	86	11104
2026-01-02 01:12:43.04	5.69	10.97	-61.2	-71.0	3.8	7.47e-01	0	33	104	0	86	11186
2026-01-02 01:12:44.04	5.47	11.03	-61.2	-70.9	3.8	7.46e-01	0	33	104	0	86	11132
2026-01-02 01:12:45.04	5.24	11.09	-61.3	-71.0	3.8	7.46e-01	0	33	104	0	86	11286
2026-01-02 01:12:46.04	5.01	11.15	-61.2	-70.9	3.8	7.46e-01	0	33	104	0	86	11125
2026-01-02 01:12:47.03	4.78	11.21	-61.3	-70.9	3.8	7.44e-01	0	33	104	0	86	11149
2026-01-02 01:12:48.03	4.54	11.27	-61.2	-70.9	3.8	7.45e-01	0	33	104	0	86	11151
2026-01-02 01:12:49.03	4.31	11.33	-61.3	-71.0	3.8	7.46e-01	0	33	104	0	86	11241
2026-01-02 01:12:50.03	4.08	11.39	-61.2	-71.0	3.8	7.47e-01	0	33	104	0	86	11163
2026-01-02 01:12:51.02	3.84	11.45	-61.3	-71.0	3.8	7.48e-01	0	33	104	0	86	11241
2026-01-02 01:12:52.01	3.61	11.50	-61.2	-71.0	3.8	7.46e-01	0	33	104	0	86	11169
2026-01-02 01:12:53.01	3.37	11.56	-61.3	-71.1	3.8	7.47e-01	0	33	104	0	86	11295
2026-01-02 01:12:54.01	3.13	11.62	-61.2	-71.0	3.8	7.44e-01	0	33	104	0	86	11181
2026-01-02 01:12:55.01	2.89	11.68	-61.3	-71.0	3.8	7.46e-01	0	33	104	0	86	11247
2026-01-02 01:12:56.00	2.65	11.73	-61.3	-71.0	3.8	7.47e-01	0	33	104	0	86	11189
2026-01-02 01:12:57.00	2.41	11.79	-61.3	-71.0	3.8	7.47e-01	0	33	104	0	86	11281
2026-01-02 01:12:58.00	2.16	11.85	-61.3	-71.0	3.8	7.46e-01	0	33	104	0	86	11217
2026-01-02 01:12:58.99	1.92	11.91	-61.3	-71.0	3.8	7.46e-01	0	33	104	0	86	11241
2026-01-02 01:12:59.99	1.67	11.96	-61.3	-71.0	3.8	7.46e-01	0	33	104	0	86	11227
2026-01-02 01:13:00.98	1.43	12.02	-61.3	-71.0	3.8	7.47e-01	0	33	104	0	86	11283
2026-01-02 01:13:01.98	1.18	12.07	-61.3	-71.0	3.8	7.45e-01	0	33	104	0	86	11232
2026-01-02 01:13:02.98	0.93	12.13	-61.3	-71.0	3.8	7.45e-01	0	33	104	0	86	11233
2026-01-02 01:13:03.98	0.68	12.19	-61.3	-71.0	3.8	7.46e-01	0	33	104	0	86	11218
2026-01-02 01:13:04.99	0.42	12.24	-61.4	-71.1	3.8	7.47e-01	0	33	104	0	86	11382
2026-01-02 01:13:05.98	0.17	12.30	-61.3	-71.0	3.8	7.45e-01	0	33	104	0	86	11247
2026-01-02 01:13:06.98	359.91	12.35	-61.3	-71.1	3.8	7.45e-01	0	33	104	0	86	11293
2026-01-02 01:13:07.99	359.66	12.40	-61.3	-71.0	3.8	7.46e-01	0	33	104	0	86	11239
2026-01-02 01:13:08.98	359.40	12.46	-61.4	-71.1	3.8	7.45e-01	0	33	104	0	86	11359
2026-01-02 01:13:09.98	359.14	12.51	-61.3	-71.1	3.8	7.45e-01	0	33	104	0	86	11299
2026-01-02 01:13:10.98	358.88	12.56	-61.4	-71.1	3.8	7.45e-01	0	33	104	0	86	11330
2026-01-02 01:13:11.98	358.62	12.62	-61.3	-71.0	3.8	7.44e-01	0	33	104	0	86	11266
2026-01-02 01:13:12.98	358.36	12.67	-61.4	-71.1	3.8	7.44e-01	0	33	104	0	86	11382
2026-01-02 01:13:13.98	358.10	12.72	-61.4	-71.1	3.8	7.46e-01	0	33	104	0	86	11320
2026-01-02 01:13:14.97	357.84	12.77	-61.4	-71.1	3.8	7.46e-01	0	33	104	0	86	11365
2026-01-02 01:13:15.97	357.57	12.83	-61.4	-71.1	3.8	7.46e-01	0	33	104	0	86	11366
2026-01-02 01:13:16.96	357.31	12.88	-61.4	-71.1	3.8	7.46e-01	0	33	104	0	86	11409
2026-01-02 01:13:17.97	357.04	12.93	-61.4	-71.1	3.8	7.46e-01	0	33	104	0	86	11341
2026-01-02 01:13:18.96	356.77	12.98	-61.4	-71.1	3.8	7.48e-01	0	33	104	0	86	11308
2026-01-02 01:13:19.97	356.50	13.03	-61.3	-71.1	3.8	7.44e-01	0	33	104	0	86	11321
2026-01-02 01:13:20.97	356.23	13.08	-61.4	-71.1	3.8	7.47e-01	0	33	104	0	86	11415
2026-01-02 01:13:21.96	355.96	13.13	-61.4	-71.1	3.8	7.47e-01	0	33	104	0	86	11371
2026-01-02 01:13:22.96	355.69	13.17	-61.4	-71.1	3.8	7.44e-01	0	33	104	0	86	11379
2026-01-02 01:13:23.96	355.41	13.22	-61.4	-71.1	3.8	7.45e-01	0	33	104	0	86	11342
2026-01-02 01:13:24.95	355.14	13.27	-61.5	-71.2	3.8	7.45e-01	0	33	104	0	86	11475
2026-01-02 01:13:25.94	354.87	13.32	-61.4	-71.1	3.8	7.45e-01	0	33	104	0	86	11403
2026-01-02 01:13:26.93	354.59	13.36	-61.4	-71.1	3.8	7.45e-01	0	33	104	0	86	11401
2026-01-02 01:13:27.93	354.32	13.41	-61.4	-71.1	3.8	7.43e-01	0	33	104	0	86	11372
2026-01-02 01:13:28.92	354.04	13.46	-61.5	-71.2	3.8	7.44e-01	0	33	104	0	86	11467
2026-01-02 01:13:29.91	353.76	13.50	-61.4	-71.1	3.8	7.46e-01	0	33	104	0	86	11386
2026-01-02 01:13:30.90	353.48	13.55	-61.4	-71.1	3.8	7.46e-01	0	33	104	0	86	11394
2026-01-02 01:13:31.91	353.20	13.59	-61.4	-71.1	3.8	7.47e-01	0	33	104	0	86	11351
2026-01-02 01:13:32.91	352.91	13.63	-61.5	-71.2	3.8	7.45e-01	0	33	104	0	86	11481
2026-01-02 01:13:33.91	352.63	13.68	-61.4	-71.1	3.8	7.46e-01	0	33	104	0	86	11397
2026-01-02 01:13:34.89	352.35	13.72	-61.4	-71.2	3.8	7.43e-01	0	33	104	0	86	11419
2026-01-02 01:13:35.90	352.06	13.76	-61.4	-71.1	3.8	7.46e-01	0	33	104	0	86	11394
2026-01-02 01:13:36.89	351.78	13.81	-61.5	-71.2	3.8	7.46e-01	0	33	104	0	86	11490
2026-01-02 01:13:37.89	351.49	13.85	-61.4	-71.2	3.8	7.46e-01	0	33	104	0	86	11458
2026-01-02 01:13:38.88	351.20	13.89	-61.5	-71.2	3.8	7.45e-01	0	33	104	0	86	11449
2026-01-02 01:13:39.88	350.91	13.93	-61.4	-71.2	3.8	7.46e-01	0	33	104	0	86	11434
2026-01-02 01:13:40.88	350.62	13.97	-61.5	-71.2	3.8	7.46e-01	0	33	104	0	86	11538
2026-01-02 01:13:41.88	350.33	14.01	-61.5	-71.2	3.8	7.45e-01	0	33	104	0	86	11451
2026-01-02 01:13:42.87	350.04	14.05	-61.5	-71.2	3.8	7.45e-01	0	33	104	0	86	11547
2026-01-02 01:13:43.87	349.74	14.08	-61.5	-71.1	3.8	7.47e-01	0	33	104	0	86	11404
2026-01-02 01:13:44.87	349.45	14.12	-61.5	-71.3	3.8	7.45e-01	0	33	104	0	86	11568
2026-01-02 01:13:45.87	349.15	14.16	-61.5	-71.2	3.8	7.46e-01	0	33	104	0	86	11488
2026-01-02 01:13:46.87	348.85	14.20	-61.5	-71.2	3.8	7.46e-01	0	33	104	0	86	11536
2026-01-02 01:13:47.87	348.56	14.23	-61.5	-71.2	3.8	7.46e-01	0	33	104	0	86	11495
2026-01-02 01:13:48.87	348.26	14.27	-61.7	-71.4	3.8	7.44e-01	0	33	104	0	86	11799
2026-01-02 01:13:49.87	347.96	14.30	-61.6	-71.3	3.8	7.46e-01	0	33	104	0	86	11660
2026-01-02 01:13:50.87	347.66	14.34	-61.6	-71.3	3.8	7.46e-01	0	33	104	0	86	11629
2026-01-02 01:13:51.86	347.36	14.37	-61.6	-71.3	3.8	7.45e-01	0	33	104	0	86	11610
2026-01-02 01:13:52.86	347.06	14.40	-61.7	-71.4	3.8	7.45e-01	0	33	104	0	86	11720
2026-01-02 01:13:53.85	346.76	14.43	-61.6	-71.3	3.8	7.45e-01	0	33	104	0	86	11634
2026-01-02 01:13:54.85	346.45	14.47	-61.6	-71.3	3.8	7.45e-01	0	33	104	0	86	11619
2026-01-02 01:13:55.85	346.15	14.50	-61.5	-71.3	3.8	7.45e-01	0	33	104	0	86	11569
2026-01-02 01:13:56.85	345.84	14.53	-61.6	-71.4	3.8	7.46e-01	0	33	104	0	86	11719
2026-01-02 01:13:57.84	345.54	14.56	-61.6	-71.3	3.8	7.47e-01	0	33	104	0	86	11678
2026-01-02 01:13:58.85	345.23	14.59	-61.6	-71.3	3.8	7.45e-01	0	33	104	0	86	11627
2026-01-02 01:13:59.84	344.93	14.61	-61.6	-71.3	3.8	7.44e-01	0	33	104	0	86	11602
2026-01-02 01:14:00.84	344.62	14.64	-61.6	-71.4	3.8	7.45e-01	0	33	104	0	86	11723
2026-01-02 01:14:01.83	344.31	14.67	-61.6	-71.3	3.8	7.45e-01	0	33	104	0	86	11678
2026-01-02 01:14:02.84	344.00	14.70	-61.6	-71.3	3.8	7.44e-01	0	33	104	0	86	11653
2026-01-02 01:14:03.83	343.69	14.72	-61.6	-71.3	3.8	7.45e-01	0	33	104	0	86	11571
2026-01-02 01:14:04.83	343.38	14.75	-61.6	-71.4	3.8	7.45e-01	0	33	104	0	86	11697
2026-01-02 01:14:05.84	343.07	14.77	-61.6	-71.3	3.8	7.47e-01	0	33	104	0	86	11633
2026-01-02 01:14:06.84	342.76	14.79	-61.6	-71.3	3.8	7.47e-01	0	34	104	0	86	11652
2026-01-02 01:14:07.84	342.45	14.82	-61.6	-71.3	3.8	7.45e-01	0	33	104	0	86	11629
2026-01-02 01:14:08.84	342.13	14.84	-61.6	-71.4	3.8	7.45e-01	0	33	104	0	86	11740
2026-01-02 01:14:09.83	341.82	14.86	-61.6	-71.3	3.8	7.46e-01	0	33	104	0	86	11649
2026-01-02 01:14:10.83	341.51	14.88	-61.6	-71.3	3.8	7.44e-01	0	33	104	0	86	11614
2026-01-02 01:14:11.83	341.19	14.90	-61.6	-71.3	3.8	7.47e-01	0	33	104	0	86	11578
2026-01-02 01:14:12.84	340.87	14.92	-61.7	-71.4	3.8	7.46e-01	0	33	104	0	86	11724
2026-01-02 01:14:13.84	340.56	14.94	-61.6	-71.3	3.8	7.44e-01	0	33	104	0	86	11610
2026-01-02 01:14:14.84	340.24	14.96	-61.6	-71.3	3.8	7.44e-01	0	33	104	0	86	11635
2026-01-02 01:14:15.84	339.93	14.98	-61.6	-71.3	3.8	7.44e-01	0	33	104	0	86	11594
2026-01-02 01:14:16.84	339.61	14.99	-61.6	-71.4	3.8	7.45e-01	0	33	104	0	86	11712
2026-01-02 01:14:17.84	339.29	15.01	-61.6	-71.3	3.8	7.46e-01	0	33	104	0	86	11657
2026-01-02 01:14:18.83	338.98	15.02	-61.6	-71.3	3.8	7.46e-01	0	33	104	0	86	11606
2026-01-02 01:14:19.84	338.66	15.04	-61.6	-71.3	3.8	7.46e-01	0	33	104	0	86	11582
2026-01-02 01:14:20.83	338.34	15.05	-61.7	-71.4	3.8	7.47e-01	0	33	104	0	86	11713
2026-01-02 01:14:21.83	338.02	15.06	-61.6	-71.3	3.8	7.44e-01	0	33	104	0	86	11618
2026-01-02 01:14:22.83	337.70	15.07	-61.6	-71.3	3.8	7.46e-01	0	33	104	0	86	11651
2026-01-02 01:14:23.83	337.38	15.09	-61.6	-71.3	3.8	7.47e-01	0	33	104	0	86	11620
2026-01-02 01:14:24.83	337.06	15.10	-61.7	-71.4	3.8	7.46e-01	0	33	104	0	86	11763
2026-01-02 01:14:25.82	336.75	15.10	-61.6	-71.4	3.8	7.45e-01	0	33	104	0	86	11687
2026-01-02 01:14:26.83	336.42	15.11	-61.6	-71.3	3.8	7.46e-01	0	33	104	0	86	11637
2026-01-02 01:14:27.82	336.11	15.12	-61.6	-71.3	3.8	7.46e-01	0	33	104	0	86	11633
2026-01-02 01:14:28.82	335.79	15.13	-61.7	-71.4	3.8	7.46e-01	0	33	104	0	86	11737
2026-01-02 01:14:29.82	335.46	15.14	-61.6	-71.3	3.8	7.45e-01	0	33	104	0	86	11655
2026-01-02 01:14:30.82	335.14	15.14	-61.6	-71.4	3.8	7.44e-01	0	33	104	0	86	11714
2026-01-02 01:14:31.82	334.82	15.15	-61.6	-71.3	3.8	7.45e-01	0	33	104	0	86	11608
2026-01-02 01:14:32.82	334.50	15.15	-61.7	-71.4	3.8	7.46e-01	0	33	104	0	86	11709
2026-01-02 01:14:33.81	334.18	15.15	-61.6	-71.4	3.8	7.45e-01	0	33	104	0	86	11705
2026-01-02 01:14:34.81	333.86	15.16	-61.6	-71.4	3.8	7.45e-01	0	33	104	0	86	11702
2026-01-02 01:14:35.82	333.54	15.16	-61.6	-71.3	3.8	7.47e-01	0	33	104	0	86	11584
2026-01-02 01:14:36.81	333.22	15.16	-61.7	-71.4	3.8	7.45e-01	0	33	104	0	86	11738
2026-01-02 01:14:37.81	332.90	15.16	-61.6	-71.3	3.8	7.45e-01	0	33	104	0	86	11669
2026-01-02 01:14:38.81	332.58	15.16	-61.6	-71.4	3.8	7.46e-01	0	33	104	0	86	11709
2026-01-02 01:14:39.80	332.26	15.16	-61.6	-71.3	3.9	7.45e-01	0	33	104	0	86	11631
2026-01-02 01:14:40.81	331.93	15.15	-61.7	-71.4	3.8	7.46e-01	0	33	104	0	86	11757
2026-01-02 01:14:41.81	331.61	15.15	-61.6	-71.4	3.8	7.44e-01	0	33	104	0	86	11703
2026-01-02 01:14:42.81	331.29	15.15	-61.6	-71.4	3.8	7.45e-01	0	33	104	0	86	11723
2026-01-02 01:14:43.82	330.96	15.14	-61.6	-71.3	3.8	7.46e-01	0	33	104	0	86	11661
2026-01-02 01:14:44.82	330.64	15.14	-61.7	-71.4	3.8	7.47e-01	0	33	104	0	86	11781
2026-01-02 01:14:45.81	330.33	15.13	-61.7	-71.4	3.8	7.45e-01	0	33	104	0	86	11710
2026-01-02 01:14:46.82	330.00	15.12	-61.7	-71.4	3.8	7.46e-01	0	33	104	0	86	11724
2026-01-02 01:14:47.82	329.68	15.12	-61.6	-71.3	3.8	7.48e-01	0	33	104	0	86	11631
2026-01-02 01:14:48.83	329.36	15.11	-61.7	-71.4	3.8	7.46e-01	0	34	104	0	86	11781
2026-01-02 01:14:49.83	329.04	15.10	-61.7	-71.4	3.8	7.46e-01	0	33	104	0	86	11708
2026-01-02 01:14:50.83	328.72	15.09	-61.7	-71.4	3.8	7.45e-01	0	33	104	0	86	11718
2026-01-02 01:14:51.83	328.40	15.08	-61.6	-71.4	3.8	7.45e-01	0	33	104	0	86	11688
2026-01-02 01:14:52.83	328.08	15.07	-61.7	-71.4	3.8	7.45e-01	0	33	104	0	86	11730
2026-01-02 01:14:53.84	327.76	15.05	-61.6	-71.3	3.8	7.46e-01	0	33	104	0	86	11663
2026-01-02 01:14:54.84	327.44	15.04	-61.7	-71.4	3.8	7.46e-01	0	33	104	0	86	11708
2026-01-02 01:14:55.84	327.12	15.03	-61.6	-71.4	3.8	7.45e-01	0	33	104	0	86	11688
2026-01-02 01:14:56.84	326.80	15.01	-61.7	-71.4	3.8	7.46e-01	0	33	104	0	86	11793
2026-01-02 01:14:57.83	326.49	15.00	-61.6	-71.4	3.8	7.48e-01	0	33	104	0	86	11708
2026-01-02 01:14:58.82	326.17	14.98	-61.7	-71.4	3.8	7.44e-01	0	33	104	0	86	11734
2026-01-02 01:14:59.82	325.85	14.97	-61.6	-71.3	3.8	7.46e-01	0	34	104	0	86	11615
2026-01-02 01:15:00.81	325.54	14.95	-61.7	-71.4	3.8	7.46e-01	0	33	104	0	86	11795
2026-01-02 01:15:01.81	325.23	14.93	-61.6	-71.4	3.8	7.46e-01	0	33	104	0	86	11720
2026-01-02 01:15:02.80	324.91	14.91	-61.7	-71.4	3.8	7.47e-01	0	33	104	0	86	11718
2026-01-02 01:15:03.80	324.60	14.89	-61.6	-71.4	3.8	7.45e-01	0	33	104	0	86	11717
2026-01-02 01:15:04.80	324.28	14.87	-61.7	-71.4	3.8	7.46e-01	0	33	104	0	86	11773
2026-01-02 01:15:05.80	323.97	14.85	-61.6	-71.3	3.8	7.45e-01	0	33	104	0	86	11662
2026-01-02 01:15:06.80	323.66	14.83	-61.6	-71.4	3.8	7.47e-01	0	33	104	0	86	11707
2026-01-02 01:15:07.81	323.34	14.80	-61.6	-71.3	3.8	7.44e-01	0	33	104	0	86	11682
2026-01-02 01:15:08.81	323.03	14.78	-61.7	-71.4	3.8	7.45e-01	0	33	104	0	86	11787
2026-01-02 01:15:09.81	322.72	14.76	-61.6	-71.4	3.8	7.45e-01	0	33	104	0	86	11709
2026-01-02 01:15:10.81	322.40	14.73	-61.7	-71.4	3.8	7.45e-01	0	33	104	0	86	11697
2026-01-02 01:15:11.81	322.09	14.71	-61.6	-71.3	3.8	7.47e-01	0	33	104	0	86	11663
2026-01-02 01:15:12.81	321.78	14.68	-61.7	-71.4	3.8	7.45e-01	0	33	104	0	86	11779
2026-01-02 01:15:13.80	321.48	14.65	-61.6	-71.4	3.8	7.45e-01	0	33	104	0	86	11687
2026-01-02 01:15:14.80	321.17	14.63	-61.6	-71.3	3.8	7.46e-01	0	33	104	0	86	11681
2026-01-02 01:15:15.80	320.86	14.60	-61.6	-71.3	3.8	7.45e-01	0	33	104	0	86	11626
2026-01-02 01:15:16.80	320.55	14.57	-61.7	-71.4	3.8	7.45e-01	0	33	104	0	86	11736
2026-01-02 01:15:17.81	320.24	14.54	-61.6	-71.3	3.8	7.45e-01	0	33	104	0	86	11671
2026-01-02 01:15:18.80	319.94	14.51	-61.6	-71.3	3.8	7.46e-01	0	33	104	0	86	11676
2026-01-02 01:15:19.81	319.63	14.48	-61.6	-71.3	3.8	7.45e-01	0	33	104	0	86	11613
2026-01-02 01:15:20.81	319.33	14.45	-61.7	-71.4	3.8	7.45e-01	0	34	104	0	86	11767
2026-01-02 01:15:21.81	319.03	14.42	-61.6	-71.3	3.8	7.46e-01	0	33	104	0	86	11658
2026-01-02 01:15:22.81	318.72	14.38	-61.6	-71.3	3.8	7.45e-01	0	33	104	0	86	11642
2026-01-02 01:15:23.80	318.42	14.35	-61.6	-71.3	3.8	7.45e-01	0	33	104	0	86	11646
2026-01-02 01:15:24.80	318.12	14.32	-61.7	-71.3	3.8	7.47e-01	0	33	104	0	86	11681
2026-01-02 01:15:25.80	317.82	14.28	-61.6	-71.3	3.8	7.47e-01	0	33	104	0	86	11656
2026-01-02 01:15:26.80	317.52	14.25	-61.6	-71.3	3.8	7.45e-01	0	33	104	0	86	11660
2026-01-02 01:15:27.80	317.22	14.21	-61.6	-71.3	3.8	7.46e-01	0	33	104	0	86	11631
2026-01-02 01:15:28.79	316.93	14.17	-61.7	-71.4	3.8	7.45e-01	0	33	104	0	86	11757
2026-01-02 01:15:29.79	316.63	14.14	-61.6	-71.3	3.8	7.46e-01	0	33	104	0	86	11667
2026-01-02 01:15:30.79	316.34	14.10	-61.6	-71.3	3.8	7.45e-01	0	33	104	0	86	11676
2026-01-02 01:15:31.79	316.04	14.06	-61.6	-71.3	3.8	7.46e-01	0	34	104	0	86	11614
2026-01-02 01:15:32.79	315.75	14.02	-61.7	-71.4	3.8	7.48e-01	0	33	104	0	86	11765
2026-01-02 01:15:33.79	315.46	13.98	-61.6	-71.3	3.8	7.46e-01	0	33	104	0	86	11641
2026-01-02 01:15:34.79	315.16	13.94	-61.6	-71.3	3.8	7.44e-01	0	33	104	0	86	11640
2026-01-02 01:15:35.79	314.87	13.90	-61.6	-71.3	3.8	7.46e-01	0	33	104	0	86	11585
2026-01-02 01:15:36.78	314.58	13.86	-61.6	-71.4	3.8	7.46e-01	0	33	104	0	86	11712
2026-01-02 01:15:37.78	314.29	13.82	-61.6	-71.3	3.8	7.45e-01	0	33	104	0	86	11661
2026-01-02 01:15:38.78	314.01	13.78	-61.6	-71.4	3.8	7.43e-01	0	33	104	0	86	11685
2026-01-02 01:15:39.77	313.72	13.74	-61.6	-71.2	3.8	7.45e-01	0	33	104	0	86	11529
2026-01-02 01:15:40.78	313.43	13.69	-61.6	-71.4	3.8	7.45e-01	0	33	104	0	86	11735
2026-01-02 01:15:41.78	313.15	13.65	-61.6	-71.3	3.8	7.47e-01	0	33	104	0	86	11598
2026-01-02 01:15:42.78	312.86	13.61	-61.6	-71.3	3.8	7.44e-01	0	33	104	0	86	11641
2026-01-02 01:15:43.78	312.58	13.56	-61.5	-71.3	3.8	7.46e-01	0	33	104	0	86	11583
2026-01-02 01:15:44.78	312.30	13.52	-61.6	-71.3	3.8	7.45e-01	0	33	104	0	86	11679
2026-01-02 01:15:45.78	312.02	13.47	-61.6	-71.3	3.8	7.47e-01	0	34	104	0	86	11607
2026-01-02 01:15:46.78	311.74	13.42	-61.6	-71.3	3.8	7.44e-01	0	33	104	0	86	11628
2026-01-02 01:15:47.78	311.46	13.38	-61.5	-71.2	3.8	7.44e-01	0	33	104	0	86	11515
2026-01-02 01:15:48.78	311.18	13.33	-61.6	-71.3	3.8	7.46e-01	0	33	104	0	86	11650
2026-01-02 01:15:49.79	310.90	13.28	-61.6	-71.3	3.8	7.45e-01	0	33	104	0	86	11572
2026-01-02 01:15:50.79	310.62	13.24	-61.5	-71.3	3.8	7.47e-01	0	33	104	0	86	11600
2026-01-02 01:15:51.79	310.35	13.19	-61.5	-71.2	3.8	7.46e-01	0	33	104	0	86	11487
2026-01-02 01:15:52.78	310.08	13.14	-61.6	-71.3	3.8	7.45e-01	0	33	104	0	86	11613
2026-01-02 01:15:53.79	309.80	13.09	-61.6	-71.3	3.8	7.46e-01	0	33	104	0	86	11604
2026-01-02 01:15:54.79	309.53	13.04	-61.6	-71.3	3.8	7.47e-01	0	33	104	0	86	11575
2026-01-02 01:15:55.79	309.26	12.99	-61.5	-71.2	3.8	7.46e-01	0	33	104	0	86	11513
2026-01-02 01:15:56.79	308.99	12.94	-61.6	-71.3	3.8	7.46e-01	0	33	104	0	86	11641
2026-01-02 01:15:57.79	308.72	12.89	-61.6	-71.3	3.8	7.46e-01	0	33	104	0	86	11611
2026-01-02 01:15:58.79	308.45	12.84	-61.5	-71.3	3.8	7.45e-01	0	33	104	0	86	11562
2026-01-02 01:15:59.79	308.19	12.79	-61.5	-71.2	3.8	7.47e-01	0	34	104	0	86	11506
2026-01-02 01:16:00.79	307.92	12.74	-61.6	-71.3	3.8	7.46e-01	0	33	104	0	86	11603
2026-01-02 01:16:01.79	307.66	12.68	-61.5	-71.3	3.8	7.44e-01	0	33	104	0	86	11565
2026-01-02 01:16:02.79	307.40	12.63	-61.5	-71.3	3.8	7.47e-01	0	33	104	0	86	11591
2026-01-02 01:16:03.78	307.14	12.58	-61.5	-71.2	3.8	7.46e-01	0	34	104	0	86	11512
2026-01-02 01:16:04.78	306.88	12.52	-61.6	-71.3	3.8	7.45e-01	0	33	104	0	86	11591
2026-01-02 01:16:05.78	306.62	12.47	-61.5	-71.2	3.8	7.44e-01	0	33	104	0	86	11546
2026-01-02 01:16:06.78	306.36	12.42	-61.5	-71.3	3.8	7.45e-01	0	33	104	0	86	11565
2026-01-02 01:16:07.79	306.10	12.36	-61.5	-71.2	3.8	7.44e-01	0	33	104	0	86	11493
2026-01-02 01:16:08.79	305.85	12.31	-61.5	-71.3	3.8	7.46e-01	0	34	104	0	86	11551
2026-01-02 01:16:09.80	305.59	12.25	-61.5	-71.2	3.8	7.45e-01	0	34	104	0	86	11520
2026-01-02 01:16:10.80	305.34	12.20	-61.5	-71.2	3.8	7.46e-01	0	33	104	0	86	11500
2026-01-02 01:16:11.80	305.08	12.14	-61.5	-71.2	3.8	7.46e-01	0	33	104	0	86	11444
2026-01-02 01:16:12.80	304.83	12.09	-61.5	-71.3	3.8	7.47e-01	0	34	104	0	86	11590
2026-01-02 01:16:13.81	304.58	12.03	-61.5	-71.3	3.8	7.47e-01	0	33	104	0	86	11565
2026-01-02 01:16:14.81	304.33	11.97	-61.5	-71.2	3.8	7.46e-01	0	33	104	0	86	11506
2026-01-02 01:16:15.80	304.09	11.92	-61.4	-71.2	3.8	7.46e-01	0	33	104	0	86	11452
2026-01-02 01:16:16.80	303.84	11.86	-61.5	-71.2	3.8	7.46e-01	0	34	104	0	86	11500
2026-01-02 01:16:17.80	303.59	11.80	-61.5	-71.2	3.8	7.47e-01	0	33	104	0	86	11495
2026-01-02 01:16:18.79	303.35	11.75	-61.5	-71.2	3.8	7.47e-01	0	34	104	0	86	11510
2026-01-02 01:16:19.79	303.11	11.69	-61.5	-71.2	3.8	7.45e-01	0	33	104	0	86	11465
2026-01-02 01:16:20.78	302.87	11.63	-61.5	-71.2	3.8	7.46e-01	0	33	104	0	86	11548
2026-01-02 01:16:21.79	302.63	11.57	-61.5	-71.2	3.8	7.46e-01	0	33	104	0	86	11516
2026-01-02 01:16:22.79	302.39	11.51	-61.5	-71.2	3.8	7.44e-01	0	33	104	0	86	11522
2026-01-02 01:16:23.79	302.15	11.46	-61.5	-71.1	3.8	7.46e-01	0	33	104	0	86	11414
2026-01-02 01:16:24.78	301.92	11.40	-61.5	-71.2	3.8	7.46e-01	0	33	104	0	86	11546
2026-01-02 01:16:25.78	301.68	11.34	-61.5	-71.2	3.8	7.45e-01	0	33	104	0	86	11470
2026-01-02 01:16:26.78	301.44	11.28	-61.5	-71.2	3.8	7.46e-01	0	33	104	0	86	11442
2026-01-02 01:16:27.77	301.21	11.22	-61.4	-71.2	3.8	7.45e-01	0	33	104	0	86	11434
2026-01-02 01:16:28.77	300.98	11.16	-61.5	-71.2	3.8	7.45e-01	0	33	104	0	86	11542
2026-01-02 01:16:29.77	300.75	11.10	-61.5	-71.2	3.8	7.45e-01	0	33	104	0	86	11517
2026-01-02 01:16:30.76	300.52	11.04	-61.5	-71.2	3.8	7.45e-01	0	33	104	0	86	11454
2026-01-02 01:16:31.76	300.29	10.98	-61.4	-71.2	3.8	7.46e-01	0	33	104	0	86	11431
2026-01-02 01:16:32.77	300.06	10.92	-61.5	-71.2	3.8	7.45e-01	0	33	104	0	86	11507
2026-01-02 01:16:33.76	299.84	10.86	-61.5	-71.2	3.8	7.46e-01	0	34	104	0	86	11475
2026-01-02 01:16:34.74	299.62	10.80	-61.5	-71.2	3.8	7.45e-01	0	33	104	0	86	11458
2026-01-02 01:16:35.74	299.39	10.74	-61.4	-71.2	3.8	7.47e-01	0	33	104	0	86	11449
2026-01-02 01:16:36.74	299.17	10.68	-61.5	-71.2	3.8	7.45e-01	0	34	104	0	86	11498
2026-01-02 01:16:37.74	298.95	10.62	-61.5	-71.2	3.8	7.46e-01	0	33	104	0	86	11488
2026-01-02 01:16:38.73	298.73	10.56	-61.5	-71.1	3.8	7.44e-01	0	33	104	0	86	11394
2026-01-02 01:16:39.73	298.51	10.49	-61.4	-71.2	3.8	7.44e-01	0	34	104	0	86	11434
2026-01-02 01:16:40.74	298.29	10.43	-61.5	-71.2	3.8	7.46e-01	0	34	104	0	86	11493
2026-01-02 01:16:41.74	298.07	10.37	-61.5	-71.2	3.8	7.45e-01	0	33	104	0	86	11452
2026-01-02 01:16:42.74	297.86	10.31	-61.4	-71.2	3.8	7.46e-01	0	34	104	0	86	11444
2026-01-02 01:16:43.74	297.64	10.25	-61.4	-71.2	3.8	7.48e-01	0	34	104	0	86	11426
2026-01-02 01:16:44.74	297.43	10.18	-61.5	-71.2	3.8	7.45e-01	0	33	104	0	86	11436
2026-01-02 01:16:45.73	297.22	10.12	-61.4	-71.2	3.8	7.45e-01	0	34	104	0	86	11463
2026-01-02 01:16:46.73	297.00	10.06	-61.4	-71.2	3.8	7.45e-01	0	34	104	0	86	11443
2026-01-02 01:16:47.73	296.79	10.00	-61.4	-71.1	3.8	7.45e-01	0	34	104	0	86	11390
2026-01-02 01:16:48.73	296.58	9.94	-61.5	-71.2	3.8	7.47e-01	0	33	104	0	86	11429
2026-01-02 01:16:49.72	296.38	9.87	-61.4	-71.2	3.8	7.46e-01	0	33	104	0	86	11425
2026-01-02 01:16:50.73	296.17	9.81	-61.4	-71.1	3.8	7.45e-01	0	33	104	0	86	11376
2026-01-02 01:16:51.73	295.96	9.75	-61.4	-71.2	3.8	7.47e-01	0	33	104	0	86	11418
2026-01-02 01:16:52.73	295.76	9.68	-61.5	-71.2	3.8	7.45e-01	0	34	104	0	86	11473
2026-01-02 01:16:53.74	295.55	9.62	-61.4	-71.1	3.8	7.48e-01	0	34	104	0	86	11347
2026-01-02 01:16:54.74	295.35	9.56	-61.4	-71.1	3.8	7.46e-01	0	34	104	0	86	11412
2026-01-02 01:16:55.74	295.15	9.49	-61.4	-71.1	3.8	7.45e-01	0	33	104	0	86	11401
2026-01-02 01:16:56.75	294.94	9.43	-61.5	-71.2	3.8	7.47e-01	0	34	104	0	86	11435
2026-01-02 01:16:57.74	294.75	9.37	-61.4	-71.1	3.8	7.47e-01	0	34	104	0	86	11359
2026-01-02 01:16:58.74	294.55	9.30	-61.4	-71.1	3.8	7.45e-01	0	34	104	0	86	11396
2026-01-02 01:16:59.74	294.35	9.24	-61.5	-71.2	3.8	7.46e-01	0	33	104	0	86	11445
2026-01-02 01:17:00.74	294.15	9.18	-61.5	-71.2	3.8	7.44e-01	0	33	104	0	86	11506
2026-01-02 01:17:01.74	293.96	9.11	-61.4	-71.1	3.8	7.46e-01	0	34	104	0	86	11374
2026-01-02 01:17:02.74	293.76	9.05	-61.4	-71.1	3.8	7.45e-01	0	33	104	0	86	11335
2026-01-02 01:17:03.74	293.57	8.99	-61.4	-71.1	3.8	7.46e-01	0	33	104	0	86	11411
2026-01-02 01:17:04.74	293.38	8.92	-61.5	-71.2	3.8	7.46e-01	0	33	104	0	86	11472
2026-01-02 01:17:05.74	293.19	8.86	-61.4	-71.1	3.8	7.45e-01	0	34	104	0	86	11366
2026-01-02 01:17:06.74	293.00	8.80	-61.4	-71.1	3.8	7.47e-01	0	33	104	0	86	11348
2026-01-02 01:17:07.74	292.81	8.73	-61.5	-71.2	3.8	7.45e-01	0	34	104	0	86	11468
2026-01-02 01:17:08.73	292.62	8.67	-61.5	-71.2	3.8	7.46e-01	0	34	104	0	86	11456
2026-01-02 01:17:09.74	292.43	8.60	-61.3	-71.1	3.8	7.47e-01	0	34	104	0	86	11302
2026-01-02 01:17:10.75	292.25	8.54	-61.3	-71.1	3.8	7.46e-01	0	34	104	0	86	11290
2026-01-02 01:17:11.75	292.06	8.48	-61.4	-71.1	3.8	7.46e-01	0	34	104	0	86	11389
2026-01-02 01:17:12.74	291.88	8.41	-61.4	-71.1	3.8	7.46e-01	0	34	104	0	86	11411
2026-01-02 01:17:13.75	291.69	8.35	-61.3	-71.0	3.8	7.46e-01	0	34	104	0	86	11242
2026-01-02 01:17:14.75	291.51	8.28	-61.3	-71.0	3.8	7.44e-01	0	34	104	0	86	11240
2026-01-02 01:17:15.75	291.33	8.22	-61.4	-71.1	3.8	7.47e-01	0	33	104	0	86	11375
2026-01-02 01:17:16.75	291.15	8.16	-61.4	-71.2	3.8	7.46e-01	0	33	104	0	86	11447
2026-01-02 01:17:17.74	290.97	8.09	-61.2	-71.0	3.8	7.46e-01	0	34	104	0	86	11162
2026-01-02 01:17:18.74	290.80	8.03	-61.3	-71.0	3.8	7.46e-01	0	34	104	0	86	11159
2026-01-02 01:17:19.75	290.62	7.96	-61.4	-71.0	3.8	7.48e-01	0	33	104	0	86	11286
2026-01-02 01:17:20.75	290.44	7.90	-61.4	-71.1	3.8	7.45e-01	0	33	104	0	86	11319
2026-01-02 01:17:21.75	290.27	7.84	-61.2	-70.9	3.8	7.46e-01	0	33	104	0	86	11120
2026-01-02 01:17:22.75	290.09	7.77	-61.2	-70.9	3.8	7.44e-01	0	33	104	0	86	11152
2026-01-02 01:17:23.74	289.92	7.71	-61.3	-71.0	3.8	7.45e-01	0	33	104	0	86	11260
2026-01-02 01:17:24.74	289.75	7.64	-61.3	-71.1	3.8	7.45e-01	0	34	104	0	86	11330
2026-01-02 01:17:25.74	289.58	7.58	-61.2	-70.9	3.8	7.46e-01	0	33	104	0	86	11086
2026-01-02 01:17:26.74	289.41	7.52	-61.2	-70.9	3.8	7.46e-01	0	33	104	0	86	11136
2026-01-02 01:17:27.74	289.24	7.45	-61.3	-71.0	3.8	7.46e-01	0	34	104	0	86	11229
2026-01-02 01:17:28.74	289.07	7.39	-61.3	-71.0	3.8	7.44e-01	0	33	104	0	86	11268
2026-01-02 01:17:29.74	288.91	7.33	-61.1	-70.8	3.8	7.46e-01	0	33	104	0	86	11001
2026-01-02 01:17:30.74	288.74	7.26	-61.2	-70.9	3.8	7.44e-01	0	34	104	0	86	11106
2026-01-02 01:17:31.74	288.57	7.20	-61.3	-71.0	3.8	7.46e-01	0	33	104	0	86	11214
2026-01-02 01:17:32.73	288.41	7.13	-61.3	-71.0	3.8	7.46e-01	0	34	104	0	86	11178
2026-01-02 01:17:33.73	288.25	7.07	-61.1	-70.8	3.8	7.46e-01	0	34	104	0	86	10959
2026-01-02 01:17:34.73	288.08	7.01	-61.1	-70.9	3.8	7.46e-01	0	33	104	0	86	11058
2026-01-02 01:17:35.72	287.92	6.94	-61.2	-70.9	3.8	7.46e-01	0	33	104	0	86	11148
2026-01-02 01:17:36.72	287.76	6.88	-61.2	-70.9	3.8	7.46e-01	0	34	104	0	86	11151
2026-01-02 01:17:37.72	287.60	6.82	-61.1	-70.9	3.8	7.46e-01	0	34	104	0	86	11046
2026-01-02 01:17:38.72	287.44	6.75	-61.1	-70.9	3.8	7.47e-01	0	34	104	0	86	11030
2026-01-02 01:17:39.72	287.29	6.69	-61.2	-71.0	3.8	7.45e-01	0	34	104	0	86	11192
2026-01-02 01:17:40.72	287.13	6.63	-61.2	-71.0	3.8	7.46e-01	0	34	104	0	86	11176
2026-01-02 01:17:41.72	286.97	6.56	-61.1	-70.8	3.8	7.46e-01	0	34	104	0	86	10950
2026-01-02 01:17:42.72	286.82	6.50	-61.1	-70.8	3.8	7.45e-01	0	33	104	0	86	10971
2026-01-02 01:17:43.72	286.66	6.44	-61.2	-70.9	3.8	7.47e-01	0	34	104	0	86	11096
2026-01-02 01:17:44.71	286.51	6.37	-61.2	-70.9	3.8	7.45e-01	0	33	104	0	86	11057
2026-01-02 01:17:45.71	286.36	6.31	-61.0	-70.7	3.8	7.44e-01	0	33	104	0	86	10880
2026-01-02 01:17:46.71	286.21	6.25	-61.0	-70.7	3.8	7.46e-01	0	34	104	0	86	10891
2026-01-02 01:17:47.72	286.05	6.18	-61.1	-70.9	3.8	7.44e-01	0	34	104	0	86	11064
2026-01-02 01:17:48.71	285.90	6.12	-61.1	-70.8	3.8	7.46e-01	0	34	104	0	86	10979
2026-01-02 01:17:49.72	285.75	6.06	-61.0	-70.7	3.8	7.47e-01	0	33	104	0	86	10888
2026-01-02 01:17:50.72	285.60	5.99	-61.0	-70.7	3.8	7.47e-01	0	34	104	0	86	10792
2026-01-02 01:17:51.72	285.46	5.93	-61.1	-70.8	3.8	7.46e-01	0	33	104	0	86	10971
2026-01-02 01:17:52.72	285.31	5.87	-61.1	-70.8	3.8	7.46e-01	0	33	104	0	86	10930
2026-01-02 01:17:53.72	285.16	5.80	-61.0	-70.7	3.8	7.46e-01	0	34	104	0	86	10831
2026-01-02 01:17:54.73	285.02	5.74	-60.9	-70.7	3.8	7.48e-01	0	34	104	0	86	10794
2026-01-02 01:17:55.72	284.87	5.68	-61.0	-70.8	3.8	7.46e-01	0	33	104	0	86	10921
2026-01-02 01:17:56.72	284.73	5.62	-61.0	-70.7	3.8	7.46e-01	0	34	104	0	86	10857
2026-01-02 01:17:57.72	284.59	5.55	-60.9	-70.6	3.8	7.46e-01	0	33	104	0	86	10694
2026-01-02 01:17:58.72	284.44	5.49	-60.9	-70.6	3.8	7.46e-01	0	33	104	0	86	10711
2026-01-02 01:17:59.71	284.30	5.43	-61.0	-70.7	3.8	7.47e-01	0	34	104	0	86	10791
2026-01-02 01:18:00.71	284.16	5.37	-60.9	-70.6	3.8	7.46e-01	0	34	104	0	86	10764
2026-01-02 01:18:01.71	284.02	5.30	-60.8	-70.5	3.8	7.45e-01	0	33	104	0	86	10645
2026-01-02 01:18:02.72	283.88	5.24	-60.8	-70.5	3.8	7.46e-01	0	34	104	0	86	10652
2026-01-02 01:18:03.72	283.74	5.18	-60.9	-70.6	3.8	7.47e-01	0	33	104	0	86	10777
2026-01-02 01:18:04.73	283.61	5.12	-60.9	-70.6	3.8	7.46e-01	0	33	104	0	86	10736
2026-01-02 01:18:05.72	283.47	5.05	-60.7	-70.5	3.8	7.45e-01	0	33	104	0	86	10538
2026-01-02 01:18:06.73	283.33	4.99	-60.7	-70.4	3.8	7.46e-01	0	34	104	0	85	11137
2026-01-02 01:18:07.73	283.20	4.93	-61.1	-70.9	3.8	7.45e-01	0	33	104	0	85	11711
2026-01-02 01:18:08.74	283.06	4.87	-61.5	-71.2	3.8	7.44e-01	0	33	104	0	86	11466
2026-01-02 01:18:09.73	282.93	4.81	-61.7	-71.5	3.8	7.46e-01	0	33	104	0	86	11822
2026-01-02 01:18:10.73	282.80	4.74	-61.9	-71.6	3.8	7.46e-01	0	33	104	0	86	12019
2026-01-02 01:18:11.73	282.66	4.68	-62.0	-71.8	3.8	7.46e-01	0	33	104	0	87	11574
2026-01-02 01:18:12.73	282.53	4.62	-62.2	-71.9	3.8	7.46e-01	0	34	104	0	87	11710
2026-01-02 01:18:13.72	282.40	4.56	-62.3	-72.0	3.8	7.46e-01	0	33	104	0	87	11893
2026-01-02 01:18:14.72	282.27	4.50	-62.4	-72.1	3.8	7.45e-01	0	33	104	0	87	12006
2026-01-02 01:18:15.72	282.14	4.44	-62.5	-72.2	3.8	7.45e-01	0	33	104	0	88	11548
2026-01-02 01:18:16.71	282.01	4.38	-62.6	-72.4	3.8	7.45e-01	0	34	104	0	88	11690
2026-01-02 01:18:17.72	281.89	4.31	-62.7	-72.4	3.8	7.45e-01	0	33	104	0	88	11809
2026-01-02 01:18:18.72	281.76	4.25	-62.8	-72.5	3.8	7.46e-01	0	33	104	0	88	11892
2026-01-02 01:18:19.72	281.63	4.19	-62.9	-72.6	3.8	7.46e-01	0	33	104	0	88	12020
2026-01-02 01:18:20.72	281.50	4.13	-63.0	-72.7	3.8	7.45e-01	0	33	104	0	89	11427
2026-01-02 01:18:21.72	281.38	4.07	-63.0	-72.8	3.8	7.46e-01	0	34	104	0	89	11593
2026-01-02 01:18:22.73	281.25	4.01	-63.0	-72.8	3.8	7.46e-01	0	34	104	0	89	11564
2026-01-02 01:18:23.72	281.13	3.95	-63.0	-72.8	3.8	7.44e-01	0	33	104	0	89	11595
2026-01-02 01:18:24.72	281.01	3.89	-63.1	-72.8	3.8	7.45e-01	0	34	104	0	89	11605
2026-01-02 01:18:25.72	280.89	3.83	-63.1	-72.8	3.8	7.46e-01	0	34	104	0	89	11635
2026-01-02 01:18:26.72	280.76	3.77	-63.1	-72.8	3.8	7.45e-01	0	34	104	0	89	11597
2026-01-02 01:18:27.72	280.64	3.71	-63.1	-72.8	3.8	7.46e-01	0	33	104	0	89	11644
2026-01-02 01:18:28.71	280.52	3.65	-63.1	-72.8	3.8	7.47e-01	0	34	104	0	89	11613
2026-01-02 01:18:29.71	280.40	3.59	-63.1	-72.8	3.8	7.46e-01	0	33	104	0	89	11654
2026-01-02 01:18:30.71	280.28	3.53	-63.1	-72.8	3.8	7.45e-01	0	33	104	0	89	11657
2026-01-02 01:18:31.71	280.16	3.47	-63.1	-72.8	3.8	7.45e-01	0	33	104	0	89	11606
2026-01-02 01:18:32.71	280.05	3.41	-63.1	-72.8	3.8	7.47e-01	0	34	104	0	89	11644
2026-01-02 01:18:33.71	279.93	3.35	-63.0	-72.8	3.8	7.46e-01	0	34	104	0	89	11620
2026-01-02 01:18:34.71	279.81	3.29	-63.0	-72.8	3.8	7.46e-01	0	33	104	0	89	11553
2026-01-02 01:18:35.71	279.70	3.23	-63.0	-72.7	3.8	7.46e-01	0	34	104	0	89	11531
2026-01-02 01:18:36.70	279.58	3.17	-62.9	-72.7	3.8	7.47e-01	0	34	104	0	89	11451
2026-01-02 01:18:37.71	279.46	3.11	-62.9	-72.6	3.8	7.45e-01	0	33	104	0	89	11371
2026-01-02 01:18:38.71	279.35	3.05	-62.9	-72.6	3.8	7.45e-01	0	33	104	0	89	11368
2026-01-02 01:18:39.71	279.24	2.99	-62.9	-72.6	3.8	7.46e-01	0	34	104	0	89	11328
2026-01-02 01:18:40.70	279.12	2.93	-62.9	-72.6	3.8	7.45e-01	0	34	104	0	89	11346
2026-01-02 01:18:41.71	279.01	2.87	-62.9	-72.6	3.8	7.46e-01	0	34	104	0	89	11386
2026-01-02 01:18:42.71	278.90	2.81	-62.8	-72.5	3.8	7.45e-01	0	34	104	0	89	11280
2026-01-02 01:18:43.71	278.79	2.75	-62.8	-72.6	3.8	7.45e-01	0	33	104	0	89	11335
2026-01-02 01:18:44.71	278.68	2.69	-62.8	-72.5	3.8	7.46e-01	0	33	104	0	89	11248
2026-01-02 01:18:45.71	278.57	2.63	-62.8	-72.5	3.8	7.46e-01	0	34	104	0	89	11265
2026-01-02 01:18:46.71	278.46	2.57	-62.8	-72.6	3.8	7.44e-01	0	34	104	0	89	11315
2026-01-02 01:18:47.71	278.35	2.51	-62.8	-72.5	3.8	7.45e-01	0	33	104	0	89	11266
2026-01-02 01:18:48.72	278.24	2.46	-62.8	-72.5	3.8	7.46e-01	0	33	104	0	89	11258
2026-01-02 01:18:49.72	278.13	2.40	-62.8	-72.5	3.8	7.46e-01	0	33	104	0	89	11202
2026-01-02 01:18:50.72	278.02	2.34	-62.8	-72.5	3.8	7.48e-01	0	34	104	0	89	11227
2026-01-02 01:18:51.72	277.92	2.28	-62.8	-72.5	3.8	7.45e-01	0	34	104	0	89	11184
2026-01-02 01:18:52.72	277.81	2.22	-62.8	-72.5	3.8	7.44e-01	0	34	104	0	89	11201
2026-01-02 01:18:53.73	277.70	2.16	-62.8	-72.5	3.8	7.46e-01	0	34	104	0	89	11225
2026-01-02 01:18:54.73	277.60	2.10	-62.7	-72.5	3.8	7.47e-01	0	33	104	0	89	11174
2026-01-02 01:18:55.73	277.49	2.05	-62.7	-72.5	3.8	7.47e-01	0	33	104	0	89	11163
2026-01-02 01:18:56.73	277.39	1.99	-62.7	-72.5	3.8	7.44e-01	0	33	104	0	89	11192
2026-01-02 01:18:57.73	277.29	1.93	-62.7	-72.5	3.8	7.46e-01	0	34	104	0	89	11185

#Closed at: 2026-01-02 01:18:58
#Recorded file [0 MB]: D:/lorett/data/31004_260102_041019.dat