passes_logs/2026/01/02/R3.2S_Murmansk/R3.2S_Murmansk__20260102_050128_KANOPUS-V-IK_rec.log

#Pass ID: 20260102_050128_KANOPUS-V-IK
#Satellite: KANOPUS-V-IK
#Configuration: KANOPUS-V_8128
#almurnet v.1.7.20251203
#Start time: 2026-01-02 05:01:28

#Version: 2.2.20231116
#Station: R3.2S_Murmansk
#Location: 33.079688 lon 68.888172 lat
#TLE: 1 42825U 17042A   26001.21266440  .00005755  00000+0  24506-3 0  9990
#TLE: 2 42825  97.3692 269.9908 0001826  86.2004 273.9442 15.23363314469954

#Time	Az	El	Level	Level2	SNR	BER	BlckErr	Temp	State	Recorded	gain1	gain2
2026-01-02 05:01:28.11	87.39	1.98	-54.3	-65.0	3.8	7.44e-01	0	31	0	0	76	13206
2026-01-02 05:01:29.11	87.29	2.04	-54.3	-65.0	3.8	7.46e-01	0	31	104	0	76	13227
2026-01-02 05:01:30.11	87.19	2.09	-54.3	-65.0	3.8	7.45e-01	0	31	104	0	76	13240
2026-01-02 05:01:31.10	87.09	2.15	-54.3	-65.0	3.8	7.47e-01	0	31	104	0	76	13242
2026-01-02 05:01:32.11	86.99	2.21	-54.3	-65.0	3.8	7.46e-01	0	31	104	0	76	13240
2026-01-02 05:01:33.11	86.89	2.27	-54.3	-65.0	3.8	7.47e-01	0	31	104	0	76	13229
2026-01-02 05:01:34.11	86.78	2.33	-54.3	-65.0	3.8	7.47e-01	0	31	104	0	76	13225
2026-01-02 05:01:35.11	86.68	2.39	-54.3	-65.0	3.8	7.45e-01	0	31	104	0	76	13253
2026-01-02 05:01:36.11	86.58	2.45	-54.3	-65.1	3.8	7.45e-01	0	31	104	0	76	13294
2026-01-02 05:01:37.11	86.48	2.51	-54.3	-65.0	3.8	7.46e-01	0	31	104	0	76	13202
2026-01-02 05:01:38.11	86.37	2.57	-54.3	-65.0	3.8	7.45e-01	0	31	104	0	76	13251
2026-01-02 05:01:39.10	86.27	2.63	-54.3	-65.1	3.8	7.45e-01	0	31	104	0	76	13268
2026-01-02 05:01:40.10	86.16	2.69	-54.3	-65.0	3.8	7.45e-01	0	31	104	0	76	13249
2026-01-02 05:01:41.10	86.06	2.75	-54.3	-65.0	3.8	7.46e-01	0	31	104	0	76	13253
2026-01-02 05:01:42.10	85.95	2.81	-54.3	-65.1	3.8	7.46e-01	0	31	104	0	76	13299
2026-01-02 05:01:43.11	85.84	2.88	-54.3	-65.0	3.8	7.45e-01	0	31	104	0	76	13254
2026-01-02 05:01:44.11	85.74	2.94	-54.3	-65.1	3.8	7.46e-01	0	31	104	0	76	13298
2026-01-02 05:01:45.12	85.63	3.00	-54.3	-65.1	3.8	7.47e-01	0	31	104	0	76	13300
2026-01-02 05:01:46.11	85.52	3.06	-54.3	-65.1	3.8	7.44e-01	0	31	104	0	76	13269
2026-01-02 05:01:47.11	85.41	3.12	-54.3	-65.1	3.8	7.46e-01	0	31	104	0	76	13294
2026-01-02 05:01:48.10	85.30	3.18	-54.3	-65.1	3.8	7.44e-01	0	31	104	0	76	13299
2026-01-02 05:01:49.11	85.19	3.24	-54.3	-65.1	3.8	7.46e-01	0	31	104	0	76	13271
2026-01-02 05:01:50.10	85.08	3.30	-54.3	-65.1	3.8	7.45e-01	0	31	104	0	76	13330
2026-01-02 05:01:51.10	84.97	3.36	-54.3	-65.1	3.8	7.47e-01	0	31	104	0	76	13294
2026-01-02 05:01:52.10	84.86	3.43	-54.3	-65.1	3.8	7.44e-01	0	31	104	0	76	13264
2026-01-02 05:01:53.10	84.75	3.49	-54.3	-65.1	3.8	7.46e-01	0	31	104	0	76	13288
2026-01-02 05:01:54.09	84.63	3.55	-54.3	-65.1	3.8	7.45e-01	0	31	104	0	76	13286
2026-01-02 05:01:55.09	84.52	3.61	-54.3	-65.1	3.8	7.45e-01	0	31	104	0	76	13278
2026-01-02 05:01:56.08	84.41	3.67	-54.3	-65.0	3.8	7.47e-01	0	31	104	0	76	13259
2026-01-02 05:01:57.08	84.29	3.73	-54.3	-65.1	3.8	7.45e-01	0	31	104	0	76	13275
2026-01-02 05:01:58.09	84.17	3.80	-54.4	-65.1	3.8	7.46e-01	0	31	104	0	76	13308
2026-01-02 05:01:59.09	84.06	3.86	-54.3	-65.1	3.8	7.45e-01	0	31	104	0	76	13299
2026-01-02 05:02:00.09	83.94	3.92	-54.3	-65.1	3.8	7.45e-01	0	31	104	0	76	13292
2026-01-02 05:02:01.09	83.82	3.98	-54.3	-65.1	3.8	7.46e-01	0	31	104	0	76	13300
2026-01-02 05:02:02.09	83.70	4.05	-54.3	-65.1	3.8	7.46e-01	0	31	104	0	76	13283
2026-01-02 05:02:03.08	83.58	4.11	-54.3	-65.1	3.8	7.46e-01	0	32	104	0	76	13316
2026-01-02 05:02:04.08	83.46	4.17	-54.3	-65.1	3.8	7.46e-01	0	31	104	0	76	13293
2026-01-02 05:02:05.08	83.34	4.23	-54.3	-65.1	3.8	7.45e-01	0	32	104	0	76	13320
2026-01-02 05:02:06.08	83.22	4.30	-54.3	-65.1	3.8	7.45e-01	0	31	104	0	76	13285
2026-01-02 05:02:07.08	83.10	4.36	-54.3	-65.1	3.8	7.46e-01	0	32	104	0	76	13299
2026-01-02 05:02:08.08	82.98	4.42	-54.3	-65.1	3.8	7.46e-01	0	32	104	0	76	13319
2026-01-02 05:02:09.08	82.86	4.49	-54.3	-65.1	3.8	7.44e-01	0	32	104	0	76	13345
2026-01-02 05:02:10.08	82.73	4.55	-54.3	-65.1	3.8	7.47e-01	0	32	104	0	76	13321
2026-01-02 05:02:11.07	82.61	4.61	-54.3	-65.1	3.8	7.45e-01	0	32	104	0	76	13293
2026-01-02 05:02:12.07	82.48	4.68	-54.3	-65.1	3.8	7.45e-01	0	32	104	0	76	13343
2026-01-02 05:02:13.07	82.36	4.74	-54.3	-65.1	3.8	7.45e-01	0	32	104	0	76	13304
2026-01-02 05:02:14.07	82.23	4.80	-54.3	-65.1	3.8	7.46e-01	0	32	104	0	76	13337
2026-01-02 05:02:15.07	82.10	4.87	-54.3	-65.1	3.8	7.46e-01	0	32	104	0	76	13345
2026-01-02 05:02:16.07	81.97	4.93	-54.4	-65.1	3.8	7.46e-01	0	32	104	0	76	13302
2026-01-02 05:02:17.07	81.84	5.00	-54.4	-65.1	3.8	7.45e-01	0	32	104	0	76	13331
2026-01-02 05:02:18.08	81.71	5.06	-54.4	-65.1	3.8	7.45e-01	0	32	104	0	76	13325
2026-01-02 05:02:19.08	81.58	5.12	-54.3	-65.1	3.8	7.45e-01	0	32	104	0	76	13351
2026-01-02 05:02:20.09	81.45	5.19	-54.4	-65.1	3.9	7.45e-01	0	32	104	0	76	13316
2026-01-02 05:02:21.09	81.32	5.25	-54.4	-65.1	3.8	7.46e-01	0	32	104	0	76	13345
2026-01-02 05:02:22.09	81.19	5.32	-54.4	-65.1	3.8	7.46e-01	0	32	104	0	76	13333
2026-01-02 05:02:23.09	81.05	5.38	-54.4	-65.1	3.8	7.46e-01	0	32	104	0	76	13290
2026-01-02 05:02:24.09	80.92	5.45	-54.4	-65.1	3.8	7.46e-01	0	32	104	0	76	13324
2026-01-02 05:02:25.10	80.78	5.51	-54.3	-65.1	3.8	7.44e-01	0	32	104	0	76	13330
2026-01-02 05:02:26.10	80.65	5.58	-54.4	-65.1	3.8	7.46e-01	0	32	104	0	76	13334
2026-01-02 05:02:27.10	80.51	5.64	-54.4	-65.1	3.8	7.47e-01	0	32	104	0	76	13290
2026-01-02 05:02:28.09	80.37	5.71	-54.4	-65.1	3.8	7.46e-01	0	32	104	0	76	13352
2026-01-02 05:02:29.09	80.23	5.77	-54.4	-65.1	3.8	7.45e-01	0	32	104	0	76	13282
2026-01-02 05:02:30.09	80.10	5.84	-54.4	-65.1	3.8	7.46e-01	0	32	104	0	76	13306
2026-01-02 05:02:31.08	79.96	5.90	-54.4	-65.1	3.8	7.46e-01	0	32	104	0	76	13284
2026-01-02 05:02:32.08	79.82	5.97	-54.4	-65.1	3.8	7.47e-01	0	32	104	0	76	13286
2026-01-02 05:02:33.09	79.67	6.03	-54.3	-65.1	3.8	7.47e-01	0	32	104	0	76	13312
2026-01-02 05:02:34.09	79.53	6.10	-54.4	-65.1	3.8	7.45e-01	0	32	104	0	76	13280
2026-01-02 05:02:35.09	79.39	6.17	-54.4	-65.0	3.8	7.44e-01	0	32	104	0	76	13251
2026-01-02 05:02:36.09	79.24	6.23	-54.4	-65.1	3.8	7.47e-01	0	32	104	0	76	13339
2026-01-02 05:02:37.10	79.10	6.30	-54.4	-65.1	3.8	7.46e-01	0	32	104	0	76	13353
2026-01-02 05:02:38.10	78.95	6.36	-54.4	-65.1	3.8	7.44e-01	0	32	104	0	76	13296
2026-01-02 05:02:39.09	78.81	6.43	-54.4	-65.1	3.8	7.45e-01	0	32	104	0	76	13360
2026-01-02 05:02:40.09	78.66	6.49	-54.4	-65.1	3.8	7.45e-01	0	32	104	0	76	13351
2026-01-02 05:02:41.10	78.51	6.56	-54.4	-65.1	3.8	7.45e-01	0	32	104	0	76	13274
2026-01-02 05:02:42.11	78.36	6.63	-54.4	-65.1	3.8	7.46e-01	0	32	104	0	76	13345
2026-01-02 05:02:43.11	78.21	6.69	-54.4	-65.1	3.8	7.45e-01	0	32	104	0	76	13324
2026-01-02 05:02:44.11	78.06	6.76	-54.4	-65.1	3.8	7.45e-01	0	32	104	0	76	13369
2026-01-02 05:02:45.11	77.91	6.83	-54.4	-65.1	3.8	7.46e-01	0	32	104	0	76	13270
2026-01-02 05:02:46.11	77.75	6.89	-54.4	-65.1	3.8	7.45e-01	0	32	104	0	76	13355
2026-01-02 05:02:47.11	77.60	6.96	-54.4	-65.1	3.8	7.45e-01	0	32	104	0	76	13347
2026-01-02 05:02:48.11	77.45	7.03	-54.4	-65.1	3.8	7.44e-01	0	32	104	0	76	13352
2026-01-02 05:02:49.11	77.29	7.09	-54.4	-65.1	3.8	7.45e-01	0	32	104	0	76	13375
2026-01-02 05:02:50.11	77.13	7.16	-54.4	-65.1	3.8	7.46e-01	0	32	104	0	76	13300
2026-01-02 05:02:51.10	76.98	7.23	-54.4	-65.1	3.8	7.45e-01	0	32	104	0	76	13337
2026-01-02 05:02:52.10	76.82	7.29	-54.4	-65.1	3.8	7.46e-01	0	32	104	0	76	13325
2026-01-02 05:02:53.09	76.66	7.36	-54.4	-65.1	3.8	7.46e-01	0	32	104	0	76	13331
2026-01-02 05:02:54.09	76.50	7.43	-54.4	-65.1	3.8	7.44e-01	0	32	104	0	76	13361
2026-01-02 05:02:55.09	76.34	7.49	-54.4	-65.1	3.8	7.45e-01	0	32	104	0	76	13361
2026-01-02 05:02:56.09	76.18	7.56	-54.4	-65.1	3.8	7.45e-01	0	32	104	0	76	13313
2026-01-02 05:02:57.09	76.02	7.63	-54.4	-65.1	3.8	7.44e-01	0	32	104	0	76	13324
2026-01-02 05:02:58.09	75.85	7.70	-54.4	-65.1	3.8	7.46e-01	0	32	104	0	76	13322
2026-01-02 05:02:59.09	75.69	7.76	-54.4	-65.1	3.8	7.46e-01	0	32	104	0	76	13360
2026-01-02 05:03:00.08	75.53	7.83	-54.4	-65.1	3.8	7.45e-01	0	32	104	0	76	13336
2026-01-02 05:03:01.07	75.36	7.90	-54.4	-65.1	3.8	7.46e-01	0	32	104	0	76	13351
2026-01-02 05:03:02.08	75.19	7.96	-54.4	-65.1	3.8	7.45e-01	0	32	104	0	76	13353
2026-01-02 05:03:03.08	75.02	8.03	-54.4	-65.1	3.8	7.46e-01	0	32	104	0	76	13312
2026-01-02 05:03:04.09	74.85	8.10	-54.4	-65.1	3.8	7.46e-01	0	32	104	0	76	13371
2026-01-02 05:03:05.08	74.68	8.17	-54.4	-65.1	3.8	7.45e-01	0	32	104	0	76	13352
2026-01-02 05:03:06.08	74.51	8.23	-54.4	-65.1	3.8	7.44e-01	0	32	104	0	76	13375
2026-01-02 05:03:07.07	74.34	8.30	-54.4	-65.1	3.8	7.45e-01	0	32	104	0	76	13371
2026-01-02 05:03:08.07	74.17	8.37	-54.4	-65.1	3.8	7.44e-01	0	32	104	0	76	13318
2026-01-02 05:03:09.07	73.99	8.44	-54.4	-65.1	3.8	7.47e-01	0	32	104	0	76	13369
2026-01-02 05:03:10.07	73.82	8.50	-54.4	-65.1	3.8	7.46e-01	0	32	104	0	76	13358
2026-01-02 05:03:11.08	73.64	8.57	-54.4	-65.1	3.8	7.45e-01	0	32	104	0	76	13379
2026-01-02 05:03:12.08	73.46	8.64	-54.4	-65.1	3.8	7.45e-01	0	32	104	0	76	13353
2026-01-02 05:03:13.08	73.28	8.71	-54.4	-65.1	3.8	7.46e-01	0	32	104	0	76	13375
2026-01-02 05:03:14.08	73.10	8.78	-54.4	-65.1	3.8	7.46e-01	0	32	104	0	76	13357
2026-01-02 05:03:15.07	72.92	8.84	-54.4	-65.1	3.8	7.45e-01	0	32	104	0	76	13341
2026-01-02 05:03:16.07	72.74	8.91	-54.4	-65.1	3.8	7.47e-01	0	32	104	0	76	13322
2026-01-02 05:03:17.07	72.56	8.98	-54.4	-65.1	3.8	7.45e-01	0	32	104	0	76	13370
2026-01-02 05:03:18.06	72.38	9.05	-54.4	-65.1	3.8	7.44e-01	0	32	104	0	76	13321
2026-01-02 05:03:19.06	72.19	9.11	-54.4	-65.1	3.8	7.46e-01	0	32	104	0	76	13324
2026-01-02 05:03:20.07	72.00	9.18	-54.4	-65.1	3.8	7.47e-01	0	32	104	0	76	13352
2026-01-02 05:03:21.07	71.81	9.25	-54.4	-65.1	3.8	7.45e-01	0	32	104	0	76	13334
2026-01-02 05:03:22.07	71.63	9.32	-54.4	-65.1	3.8	7.45e-01	0	32	104	0	76	13377
2026-01-02 05:03:23.07	71.44	9.39	-54.4	-65.1	3.8	7.46e-01	0	32	104	0	76	13331
2026-01-02 05:03:24.06	71.25	9.45	-54.4	-65.1	3.8	7.46e-01	0	32	104	0	76	13352
2026-01-02 05:03:25.06	71.06	9.52	-54.4	-65.1	3.8	7.47e-01	0	32	104	0	76	13359
2026-01-02 05:03:26.05	70.86	9.59	-54.4	-65.1	3.8	7.45e-01	0	32	104	0	76	13351
2026-01-02 05:03:27.05	70.67	9.66	-54.4	-65.1	3.8	7.45e-01	0	32	104	0	76	13314
2026-01-02 05:03:28.05	70.48	9.72	-54.4	-65.1	3.8	7.46e-01	0	32	104	0	76	13385
2026-01-02 05:03:29.05	70.28	9.79	-54.4	-65.1	3.8	7.45e-01	0	32	104	0	76	13356
2026-01-02 05:03:30.05	70.08	9.86	-54.4	-65.1	3.8	7.46e-01	0	32	104	0	76	13385
2026-01-02 05:03:31.05	69.88	9.93	-54.4	-65.1	3.8	7.46e-01	0	32	104	0	76	13331
2026-01-02 05:03:32.04	69.69	9.99	-54.4	-65.1	3.8	7.44e-01	0	32	104	0	76	13363
2026-01-02 05:03:33.05	69.48	10.06	-54.4	-65.1	3.8	7.47e-01	0	32	104	0	76	13403
2026-01-02 05:03:34.04	69.28	10.13	-54.4	-65.1	3.8	7.46e-01	0	32	104	0	76	13388
2026-01-02 05:03:35.05	69.08	10.20	-54.4	-65.1	3.8	7.44e-01	0	32	104	0	76	13363
2026-01-02 05:03:36.05	68.87	10.27	-54.4	-65.1	3.8	7.44e-01	0	32	104	0	76	13392
2026-01-02 05:03:37.04	68.67	10.33	-54.4	-65.1	3.8	7.45e-01	0	32	104	0	76	13328
2026-01-02 05:03:38.05	68.46	10.40	-54.4	-65.1	3.8	7.46e-01	0	32	104	0	76	13327
2026-01-02 05:03:39.04	68.25	10.47	-54.4	-65.1	3.8	7.46e-01	0	33	104	0	76	13313
2026-01-02 05:03:40.05	68.04	10.54	-54.4	-65.1	3.8	7.46e-01	0	32	104	0	76	13398
2026-01-02 05:03:41.05	67.83	10.60	-54.4	-65.1	3.8	7.46e-01	0	32	104	0	76	13306
2026-01-02 05:03:42.05	67.62	10.67	-54.4	-65.2	3.8	7.47e-01	0	32	104	0	76	13418
2026-01-02 05:03:43.06	67.41	10.74	-54.4	-65.1	3.8	7.46e-01	0	32	104	0	76	13330
2026-01-02 05:03:44.06	67.19	10.80	-54.4	-65.1	3.8	7.47e-01	0	32	104	0	76	13394
2026-01-02 05:03:45.05	66.98	10.87	-54.4	-65.1	3.8	7.46e-01	0	32	104	0	76	13341
2026-01-02 05:03:46.05	66.76	10.94	-54.4	-65.1	3.8	7.44e-01	0	33	104	0	76	13406
2026-01-02 05:03:47.04	66.55	11.00	-54.4	-65.1	3.8	7.46e-01	0	32	104	0	76	13343
2026-01-02 05:03:48.04	66.33	11.07	-54.4	-65.1	3.8	7.47e-01	0	33	104	0	76	13384
2026-01-02 05:03:49.05	66.11	11.14	-54.4	-65.1	3.8	7.45e-01	0	32	104	0	76	13349
2026-01-02 05:03:50.05	65.89	11.20	-54.4	-65.1	3.8	7.46e-01	0	32	104	0	76	13317
2026-01-02 05:03:51.05	65.66	11.27	-54.4	-65.1	3.8	7.46e-01	0	32	104	0	76	13284
2026-01-02 05:03:52.04	65.44	11.34	-54.3	-65.0	3.8	7.47e-01	0	32	104	0	76	13227
2026-01-02 05:03:53.04	65.22	11.40	-54.3	-64.9	3.8	7.46e-01	0	32	104	0	76	13102
2026-01-02 05:03:54.03	64.99	11.47	-54.4	-65.0	3.8	7.44e-01	0	32	104	0	76	13208
2026-01-02 05:03:55.02	64.77	11.53	-54.4	-65.0	3.8	7.45e-01	0	32	104	0	76	13241
2026-01-02 05:03:56.02	64.54	11.60	-54.4	-65.1	3.8	7.45e-01	0	33	104	0	76	13395
2026-01-02 05:03:57.01	64.31	11.66	-54.4	-65.1	3.8	7.45e-01	0	32	104	0	76	13365
2026-01-02 05:03:58.01	64.08	11.73	-54.4	-65.1	3.8	7.46e-01	0	33	104	0	76	13362
2026-01-02 05:03:59.00	63.85	11.79	-54.4	-65.1	3.8	7.46e-01	0	33	104	0	76	13289
2026-01-02 05:04:00.00	63.62	11.86	-54.4	-65.1	3.8	7.45e-01	0	33	104	0	76	13295
2026-01-02 05:04:01.01	63.38	11.92	-54.4	-65.1	3.8	7.46e-01	0	33	104	0	76	13305
2026-01-02 05:04:02.00	63.14	11.99	-54.4	-65.1	3.8	7.46e-01	0	32	104	0	76	13292
2026-01-02 05:04:02.99	62.91	12.05	-54.4	-65.1	3.8	7.45e-01	0	33	104	0	76	13406
2026-01-02 05:04:04.00	62.67	12.12	-54.4	-65.1	3.8	7.44e-01	0	33	104	0	76	13344
2026-01-02 05:04:04.99	62.43	12.18	-54.4	-65.0	3.8	7.45e-01	0	32	104	0	76	13259
2026-01-02 05:04:05.99	62.19	12.24	-54.4	-65.1	3.8	7.47e-01	0	32	104	0	76	13279
2026-01-02 05:04:06.99	61.95	12.31	-54.4	-65.1	3.8	7.45e-01	0	32	104	0	76	13306
2026-01-02 05:04:07.99	61.70	12.37	-54.4	-65.1	3.8	7.46e-01	0	32	104	0	76	13343
2026-01-02 05:04:08.98	61.46	12.43	-54.4	-65.1	3.8	7.46e-01	0	32	104	0	76	13329
2026-01-02 05:04:09.98	61.21	12.50	-54.4	-65.1	3.8	7.45e-01	0	33	104	0	76	13355
2026-01-02 05:04:10.98	60.97	12.56	-54.4	-65.1	3.8	7.45e-01	0	33	104	0	76	13390
2026-01-02 05:04:11.98	60.72	12.62	-54.4	-65.1	3.8	7.47e-01	0	32	104	0	76	13377
2026-01-02 05:04:12.98	60.47	12.68	-54.4	-65.1	3.8	7.44e-01	0	32	104	0	76	13338
2026-01-02 05:04:13.98	60.21	12.75	-54.4	-65.1	3.8	7.46e-01	0	33	104	0	76	13343
2026-01-02 05:04:14.99	59.96	12.81	-54.4	-65.1	3.8	7.45e-01	0	33	104	0	76	13386
2026-01-02 05:04:15.98	59.71	12.87	-54.4	-65.1	3.8	7.45e-01	0	33	104	0	76	13394
2026-01-02 05:04:16.99	59.45	12.93	-54.4	-65.1	3.8	7.46e-01	0	33	104	0	76	13336
2026-01-02 05:04:17.98	59.19	12.99	-54.4	-65.1	3.8	7.46e-01	0	33	104	0	76	13328
2026-01-02 05:04:18.97	58.94	13.05	-54.4	-65.1	3.8	7.46e-01	0	33	104	0	76	13385
2026-01-02 05:04:19.98	58.68	13.11	-54.4	-65.1	3.8	7.46e-01	0	33	104	0	76	13390
2026-01-02 05:04:20.97	58.42	13.17	-54.4	-65.1	3.8	7.45e-01	0	33	104	0	76	13333
2026-01-02 05:04:21.97	58.16	13.23	-54.4	-65.1	3.8	7.46e-01	0	33	104	0	76	13345
2026-01-02 05:04:22.98	57.89	13.29	-54.4	-65.1	3.8	7.46e-01	0	33	104	0	76	13348
2026-01-02 05:04:23.98	57.63	13.35	-54.4	-65.1	3.8	7.45e-01	0	33	104	0	76	13409
2026-01-02 05:04:24.98	57.36	13.41	-54.4	-65.1	3.8	7.46e-01	0	33	104	0	76	13381
2026-01-02 05:04:25.98	57.09	13.47	-54.4	-65.1	3.8	7.46e-01	0	33	104	0	76	13372
2026-01-02 05:04:26.98	56.82	13.53	-54.4	-65.1	3.8	7.47e-01	0	32	104	0	76	13342
2026-01-02 05:04:27.98	56.56	13.58	-54.4	-65.1	3.8	7.46e-01	0	33	104	0	76	13400
2026-01-02 05:04:28.97	56.29	13.64	-54.4	-65.1	3.8	7.46e-01	0	32	104	0	76	13357
2026-01-02 05:04:29.98	56.01	13.70	-54.4	-65.1	3.8	7.46e-01	0	33	104	0	76	13380
2026-01-02 05:04:30.98	55.74	13.75	-54.4	-65.1	3.8	7.47e-01	0	33	104	0	76	13407
2026-01-02 05:04:31.98	55.46	13.81	-54.4	-65.1	3.8	7.45e-01	0	32	104	0	76	13356
2026-01-02 05:04:32.98	55.19	13.87	-54.4	-65.1	3.8	7.45e-01	0	32	104	0	76	13388
2026-01-02 05:04:33.97	54.91	13.92	-54.4	-65.1	3.8	7.46e-01	0	33	104	0	76	13370
2026-01-02 05:04:34.97	54.64	13.98	-54.4	-65.1	3.8	7.46e-01	0	33	104	0	76	13317
2026-01-02 05:04:35.97	54.36	14.03	-54.4	-65.1	3.8	7.45e-01	0	33	104	0	76	13345
2026-01-02 05:04:36.95	54.08	14.08	-54.4	-65.1	3.8	7.46e-01	0	33	104	0	76	13349
2026-01-02 05:04:37.95	53.80	14.14	-54.4	-65.1	3.8	7.45e-01	0	33	104	0	76	13351
2026-01-02 05:04:38.95	53.51	14.19	-54.4	-65.1	3.8	7.47e-01	0	32	104	0	76	13365
2026-01-02 05:04:39.96	53.23	14.24	-54.4	-65.1	3.8	7.44e-01	0	32	104	0	76	13412
2026-01-02 05:04:40.97	52.94	14.30	-54.4	-65.1	3.8	7.44e-01	0	33	104	0	76	13401
2026-01-02 05:04:41.96	52.65	14.35	-54.4	-65.1	3.8	7.46e-01	0	33	104	0	76	13286
2026-01-02 05:04:42.97	52.36	14.40	-54.4	-65.1	3.8	7.45e-01	0	33	104	0	76	13389
2026-01-02 05:04:43.96	52.08	14.45	-54.4	-65.1	3.8	7.45e-01	0	33	104	0	76	13361
2026-01-02 05:04:44.96	51.79	14.50	-54.4	-65.1	3.8	7.46e-01	0	33	104	0	76	13345
2026-01-02 05:04:45.97	51.49	14.55	-54.4	-65.1	3.8	7.46e-01	0	33	104	0	76	13402
2026-01-02 05:04:46.97	51.20	14.60	-54.4	-65.2	3.8	7.46e-01	0	33	104	0	76	13416
2026-01-02 05:04:47.97	50.90	14.65	-54.4	-65.2	3.8	7.45e-01	0	33	104	0	76	13416
2026-01-02 05:04:48.96	50.61	14.70	-54.4	-65.1	3.8	7.45e-01	0	33	104	0	76	13342
2026-01-02 05:04:49.96	50.32	14.75	-54.4	-65.1	3.8	7.47e-01	0	32	104	0	76	13367
2026-01-02 05:04:50.96	50.02	14.79	-54.4	-65.1	3.8	7.46e-01	0	33	104	0	76	13394
2026-01-02 05:04:51.96	49.72	14.84	-54.4	-65.1	3.8	7.45e-01	0	33	104	0	76	13400
2026-01-02 05:04:52.95	49.42	14.89	-54.4	-65.1	3.8	7.47e-01	0	33	104	0	76	13393
2026-01-02 05:04:53.95	49.12	14.93	-54.4	-65.2	3.8	7.45e-01	0	33	104	0	76	13415
2026-01-02 05:04:54.95	48.82	14.98	-54.4	-65.1	3.8	7.46e-01	0	33	104	0	76	13402
2026-01-02 05:04:55.95	48.52	15.02	-54.4	-65.1	3.8	7.47e-01	0	33	104	0	76	13393
2026-01-02 05:04:56.95	48.21	15.07	-54.4	-65.1	3.8	7.47e-01	0	33	104	0	76	13330
2026-01-02 05:04:57.94	47.91	15.11	-54.4	-65.1	3.8	7.44e-01	0	33	104	0	76	13413
2026-01-02 05:04:58.94	47.60	15.15	-54.4	-65.2	3.8	7.46e-01	0	33	104	0	76	13426
2026-01-02 05:04:59.94	47.30	15.19	-54.4	-65.1	3.8	7.46e-01	0	33	104	0	76	13376
2026-01-02 05:05:00.93	46.99	15.23	-54.4	-65.1	3.8	7.46e-01	0	33	104	0	76	13366
2026-01-02 05:05:01.93	46.68	15.27	-54.4	-65.2	3.8	7.45e-01	0	33	104	0	76	13442
2026-01-02 05:05:02.94	46.37	15.32	-54.4	-65.1	3.8	7.47e-01	0	33	104	0	76	13351
2026-01-02 05:05:03.93	46.06	15.35	-54.4	-65.1	3.8	7.46e-01	0	33	104	0	76	13377
2026-01-02 05:05:04.93	45.75	15.39	-54.4	-65.2	3.8	7.46e-01	0	33	104	0	76	13428
2026-01-02 05:05:05.92	45.44	15.43	-54.4	-65.1	3.8	7.45e-01	0	33	104	0	76	13396
2026-01-02 05:05:06.93	45.12	15.47	-54.4	-65.1	3.8	7.46e-01	0	33	104	0	76	13382
2026-01-02 05:05:07.93	44.81	15.51	-54.4	-65.2	3.8	7.47e-01	0	33	104	0	76	13433
2026-01-02 05:05:08.92	44.49	15.54	-54.4	-65.1	3.8	7.47e-01	0	33	104	0	76	13407
2026-01-02 05:05:09.93	44.17	15.58	-54.4	-65.1	3.8	7.44e-01	0	33	104	0	76	13377
2026-01-02 05:05:10.93	43.86	15.61	-54.4	-65.1	3.8	7.47e-01	0	33	104	0	76	13347
2026-01-02 05:05:11.92	43.54	15.65	-54.4	-65.1	3.8	7.47e-01	0	33	104	0	76	13340
2026-01-02 05:05:12.92	43.22	15.68	-54.4	-65.1	3.8	7.45e-01	0	33	104	0	76	13300
2026-01-02 05:05:13.92	42.90	15.71	-54.4	-65.1	3.8	7.46e-01	0	33	104	0	76	13364
2026-01-02 05:05:14.92	42.58	15.74	-54.4	-65.1	3.8	7.47e-01	0	33	104	0	76	13350
2026-01-02 05:05:15.92	42.26	15.78	-54.4	-65.1	3.8	7.47e-01	0	33	104	0	76	13301
2026-01-02 05:05:16.92	41.94	15.81	-54.4	-65.1	3.8	7.46e-01	0	33	104	0	76	13371
2026-01-02 05:05:17.91	41.61	15.83	-54.4	-65.2	3.8	7.45e-01	0	33	104	0	76	13422
2026-01-02 05:05:18.91	41.29	15.86	-54.4	-65.1	3.8	7.45e-01	0	33	104	0	76	13389
2026-01-02 05:05:19.91	40.97	15.89	-54.4	-65.2	3.8	7.44e-01	0	33	104	0	76	13462
2026-01-02 05:05:20.90	40.64	15.92	-54.4	-65.1	3.8	7.47e-01	0	33	104	0	76	13389
2026-01-02 05:05:21.90	40.32	15.95	-54.4	-65.2	3.8	7.45e-01	0	33	104	0	76	13420
2026-01-02 05:05:22.90	39.99	15.97	-54.4	-65.1	3.8	7.46e-01	0	33	104	0	76	13368
2026-01-02 05:05:23.91	39.66	16.00	-54.4	-65.1	3.8	7.46e-01	0	33	104	0	76	13399
2026-01-02 05:05:24.90	39.33	16.02	-54.4	-65.1	3.8	7.47e-01	0	33	104	0	76	13399
2026-01-02 05:05:25.90	39.01	16.04	-54.4	-65.1	3.8	7.46e-01	0	33	104	0	76	13356
2026-01-02 05:05:26.90	38.68	16.07	-54.4	-65.1	3.8	7.46e-01	0	33	104	0	76	13369
2026-01-02 05:05:27.90	38.35	16.09	-54.4	-65.1	3.8	7.46e-01	0	33	104	0	76	13361
2026-01-02 05:05:28.90	38.01	16.11	-54.4	-65.1	3.8	7.45e-01	0	33	104	0	76	13364
2026-01-02 05:05:29.89	37.69	16.13	-54.3	-65.1	3.8	7.46e-01	0	33	104	0	76	13398
2026-01-02 05:05:30.89	37.36	16.15	-54.4	-65.1	3.8	7.45e-01	0	32	104	0	76	13338
2026-01-02 05:05:31.89	37.02	16.17	-54.4	-65.1	3.8	7.46e-01	0	33	104	0	76	13391
2026-01-02 05:05:32.89	36.69	16.18	-54.4	-65.1	3.8	7.47e-01	0	33	104	0	76	13360
2026-01-02 05:05:33.89	36.36	16.20	-54.4	-65.1	3.8	7.45e-01	0	33	104	0	76	13411
2026-01-02 05:05:34.88	36.03	16.22	-54.4	-65.1	3.8	7.45e-01	0	33	104	0	76	13373
2026-01-02 05:05:35.88	35.69	16.23	-54.4	-65.2	3.8	7.46e-01	0	32	104	0	76	13465
2026-01-02 05:05:36.87	35.36	16.25	-54.4	-65.1	3.8	7.46e-01	0	33	104	0	76	13353
2026-01-02 05:05:37.87	35.03	16.26	-54.4	-65.1	3.8	7.47e-01	0	33	104	0	76	13407
2026-01-02 05:05:38.87	34.69	16.27	-54.4	-65.1	3.8	7.45e-01	0	33	104	0	76	13408
2026-01-02 05:05:39.87	34.36	16.28	-54.4	-65.1	3.8	7.45e-01	0	33	104	0	76	13327
2026-01-02 05:05:40.87	34.02	16.30	-54.4	-65.2	3.8	7.46e-01	0	33	104	0	76	13424
2026-01-02 05:05:41.87	33.69	16.31	-54.4	-65.1	3.8	7.47e-01	0	33	104	0	76	13388
2026-01-02 05:05:42.88	33.35	16.31	-54.4	-65.1	3.8	7.46e-01	0	33	104	0	76	13414
2026-01-02 05:05:43.88	33.01	16.32	-54.4	-65.1	3.8	7.46e-01	0	33	104	0	76	13361
2026-01-02 05:05:44.88	32.67	16.33	-54.4	-65.1	3.8	7.45e-01	0	33	104	0	76	13354
2026-01-02 05:05:45.88	32.34	16.34	-54.4	-65.1	3.8	7.47e-01	0	33	104	0	76	13356
2026-01-02 05:05:46.87	32.00	16.34	-54.4	-65.1	3.8	7.45e-01	0	33	104	0	76	13372
2026-01-02 05:05:47.87	31.67	16.35	-54.4	-65.1	3.8	7.45e-01	0	33	104	0	76	13352
2026-01-02 05:05:48.88	31.33	16.35	-54.4	-65.1	3.8	7.45e-01	0	33	104	0	76	13328
2026-01-02 05:05:49.88	30.99	16.35	-54.4	-65.1	3.8	7.47e-01	0	33	104	0	76	13302
2026-01-02 05:05:50.88	30.65	16.36	-54.4	-65.1	3.8	7.46e-01	0	33	104	0	76	13370
2026-01-02 05:05:51.89	30.31	16.36	-54.4	-65.1	3.8	7.44e-01	0	33	104	0	76	13400
2026-01-02 05:05:52.88	29.98	16.36	-54.4	-65.1	3.8	7.46e-01	0	33	104	0	76	13391
2026-01-02 05:05:53.87	29.64	16.36	-54.4	-65.1	3.8	7.44e-01	0	33	104	0	76	13382
2026-01-02 05:05:54.87	29.31	16.36	-54.4	-65.2	3.8	7.47e-01	0	33	104	0	76	13451
2026-01-02 05:05:55.87	28.97	16.35	-54.3	-65.1	3.8	7.45e-01	0	33	104	0	76	13400
2026-01-02 05:05:56.86	28.63	16.35	-54.4	-65.2	3.8	7.46e-01	0	33	104	0	76	13451
2026-01-02 05:05:57.85	28.30	16.35	-54.4	-65.1	3.8	7.44e-01	0	33	104	0	76	13378
2026-01-02 05:05:58.84	27.97	16.34	-54.4	-65.1	3.8	7.45e-01	0	33	104	0	76	13399
2026-01-02 05:05:59.84	27.63	16.34	-54.4	-65.1	3.8	7.45e-01	0	33	104	0	76	13395
2026-01-02 05:06:00.83	27.30	16.33	-54.4	-65.2	3.8	7.46e-01	0	33	104	0	76	13426
2026-01-02 05:06:01.83	26.96	16.32	-54.4	-65.1	3.8	7.47e-01	0	33	104	0	76	13399
2026-01-02 05:06:02.83	26.62	16.31	-54.4	-65.2	3.8	7.47e-01	0	33	104	0	76	13418
2026-01-02 05:06:03.83	26.29	16.31	-54.4	-65.1	3.8	7.47e-01	0	33	104	0	76	13384
2026-01-02 05:06:04.82	25.96	16.30	-54.4	-65.1	3.8	7.45e-01	0	33	104	0	76	13390
2026-01-02 05:06:05.83	25.62	16.28	-54.4	-65.1	3.8	7.46e-01	0	33	104	0	76	13329
2026-01-02 05:06:06.81	25.29	16.27	-54.4	-65.1	3.8	7.44e-01	0	33	104	0	76	13395
2026-01-02 05:06:07.81	24.95	16.26	-54.4	-65.2	3.8	7.46e-01	0	33	104	0	76	13429
2026-01-02 05:06:08.80	24.62	16.25	-54.4	-65.2	3.8	7.47e-01	0	33	104	0	76	13427
2026-01-02 05:06:09.81	24.29	16.23	-54.4	-65.1	3.8	7.46e-01	0	33	104	0	76	13407
2026-01-02 05:06:10.80	23.96	16.22	-54.4	-65.2	3.8	7.46e-01	0	33	104	0	76	13446
2026-01-02 05:06:11.79	23.63	16.20	-54.4	-65.2	3.8	7.45e-01	0	33	104	0	76	13455
2026-01-02 05:06:12.78	23.30	16.18	-54.4	-65.1	3.8	7.47e-01	0	33	104	0	76	13392
2026-01-02 05:06:13.78	22.96	16.17	-54.4	-65.1	3.8	7.48e-01	0	33	104	0	76	13394
2026-01-02 05:06:14.78	22.63	16.15	-54.4	-65.1	3.8	7.45e-01	0	33	104	0	76	13354
2026-01-02 05:06:15.79	22.30	16.13	-54.4	-65.1	3.8	7.45e-01	0	33	104	0	76	13370
2026-01-02 05:06:16.78	21.97	16.11	-54.4	-65.1	3.8	7.43e-01	0	33	104	0	76	13392
2026-01-02 05:06:17.78	21.64	16.09	-54.4	-65.1	3.8	7.45e-01	0	33	104	0	76	13360
2026-01-02 05:06:18.78	21.31	16.07	-54.4	-65.1	3.8	7.45e-01	0	33	104	0	76	13352
2026-01-02 05:06:19.77	20.98	16.04	-54.4	-65.1	3.8	7.45e-01	0	33	104	0	76	13382
2026-01-02 05:06:20.77	20.66	16.02	-54.4	-65.2	3.8	7.44e-01	0	33	104	0	76	13457
2026-01-02 05:06:21.78	20.32	16.00	-54.4	-65.1	3.8	7.45e-01	0	33	104	0	76	13385
2026-01-02 05:06:22.78	20.00	15.97	-54.4	-65.2	3.8	7.46e-01	0	33	104	0	76	13441
2026-01-02 05:06:23.78	19.67	15.95	-54.4	-65.1	3.8	7.46e-01	0	33	104	0	76	13411
2026-01-02 05:06:24.76	19.35	15.92	-54.3	-65.1	3.8	7.45e-01	0	33	104	0	76	13376
2026-01-02 05:06:25.76	19.03	15.89	-54.4	-65.2	3.8	7.45e-01	0	33	104	0	76	13429
2026-01-02 05:06:26.76	18.70	15.86	-54.4	-65.1	3.8	7.45e-01	0	33	104	0	76	13411
2026-01-02 05:06:27.75	18.38	15.84	-54.4	-65.1	3.8	7.46e-01	0	33	104	0	76	13358
2026-01-02 05:06:28.75	18.06	15.81	-54.4	-65.1	3.8	7.45e-01	0	33	104	0	76	13309
2026-01-02 05:06:29.75	17.73	15.78	-54.4	-65.1	3.8	7.46e-01	0	33	104	0	76	13356
2026-01-02 05:06:30.75	17.41	15.74	-54.4	-65.2	3.8	7.46e-01	0	33	104	0	76	13426
2026-01-02 05:06:31.75	17.09	15.71	-54.4	-65.2	3.8	7.45e-01	0	33	104	0	76	13450
2026-01-02 05:06:32.75	16.77	15.68	-54.4	-65.1	3.8	7.46e-01	0	33	104	0	76	13361
2026-01-02 05:06:33.75	16.45	15.65	-54.4	-65.2	3.8	7.46e-01	0	33	104	0	76	13451
2026-01-02 05:06:34.74	16.14	15.61	-54.4	-65.2	3.8	7.46e-01	0	33	104	0	76	13490
2026-01-02 05:06:35.74	15.82	15.58	-54.4	-65.2	3.8	7.45e-01	0	33	104	0	76	13428
2026-01-02 05:06:36.74	15.50	15.54	-54.4	-65.2	3.8	7.44e-01	0	33	104	0	76	13466
2026-01-02 05:06:37.74	15.19	15.51	-54.4	-65.1	3.8	7.47e-01	0	33	104	0	76	13410
2026-01-02 05:06:38.73	14.88	15.47	-54.4	-65.2	3.8	7.43e-01	0	33	104	0	76	13420
2026-01-02 05:06:39.74	14.56	15.43	-54.4	-65.1	3.8	7.44e-01	0	33	104	0	76	13410
2026-01-02 05:06:40.74	14.25	15.39	-54.4	-65.2	3.8	7.46e-01	0	33	104	0	76	13416
2026-01-02 05:06:41.74	13.94	15.36	-54.4	-65.1	3.8	7.46e-01	0	33	104	0	76	13397
2026-01-02 05:06:42.74	13.63	15.32	-54.4	-65.1	3.8	7.45e-01	0	33	104	0	76	13409
2026-01-02 05:06:43.74	13.32	15.28	-54.4	-65.2	3.8	7.47e-01	0	33	104	0	76	13452
2026-01-02 05:06:44.75	13.00	15.23	-54.4	-65.1	3.8	7.45e-01	0	33	104	0	76	13406
2026-01-02 05:06:45.75	12.70	15.19	-54.4	-65.1	3.8	7.46e-01	0	33	104	0	76	13410
2026-01-02 05:06:46.75	12.39	15.15	-54.4	-65.1	3.8	7.45e-01	0	33	104	0	76	13396
2026-01-02 05:06:47.75	12.08	15.11	-54.4	-65.1	3.8	7.44e-01	0	33	104	0	76	13392
2026-01-02 05:06:48.75	11.78	15.07	-54.4	-65.1	3.8	7.45e-01	0	33	104	0	76	13353
2026-01-02 05:06:49.75	11.48	15.02	-54.4	-65.1	3.8	7.45e-01	0	33	104	0	76	13399
2026-01-02 05:06:50.75	11.17	14.98	-54.4	-65.2	3.8	7.45e-01	0	33	104	0	76	13427
2026-01-02 05:06:51.74	10.88	14.93	-54.4	-65.2	3.8	7.45e-01	0	33	104	0	76	13464
2026-01-02 05:06:52.74	10.57	14.89	-54.4	-65.2	3.8	7.44e-01	0	33	104	0	76	13437
2026-01-02 05:06:53.74	10.28	14.84	-54.4	-65.2	3.8	7.45e-01	0	33	104	0	76	13488
2026-01-02 05:06:54.74	9.98	14.79	-54.4	-65.2	3.8	7.46e-01	0	33	104	0	76	13465
2026-01-02 05:06:55.74	9.68	14.75	-54.4	-65.2	3.8	7.46e-01	0	33	104	0	76	13466
2026-01-02 05:06:56.74	9.38	14.70	-54.4	-65.2	3.8	7.46e-01	0	33	104	0	76	13432
2026-01-02 05:06:57.74	9.09	14.65	-54.4	-65.1	3.8	7.44e-01	0	33	104	0	76	13382
2026-01-02 05:06:58.73	8.80	14.60	-54.4	-65.1	3.8	7.45e-01	0	33	104	0	76	13408
2026-01-02 05:06:59.73	8.51	14.55	-54.4	-65.2	3.8	7.47e-01	0	33	104	0	76	13443
2026-01-02 05:07:00.72	8.22	14.50	-54.4	-65.1	3.8	7.43e-01	0	33	104	0	76	13382
2026-01-02 05:07:01.72	7.93	14.45	-54.4	-65.1	3.8	7.47e-01	0	33	104	0	76	13386
2026-01-02 05:07:02.71	7.64	14.40	-54.4	-65.2	3.8	7.45e-01	0	33	104	0	76	13456
2026-01-02 05:07:03.71	7.36	14.35	-54.4	-65.2	3.8	7.45e-01	0	33	104	0	76	13415
2026-01-02 05:07:04.71	7.07	14.30	-54.4	-65.1	3.8	7.45e-01	0	33	104	0	76	13403
2026-01-02 05:07:05.71	6.78	14.25	-54.4	-65.2	3.8	7.44e-01	0	33	104	0	76	13428
2026-01-02 05:07:06.70	6.50	14.20	-54.4	-65.2	3.8	7.44e-01	0	33	104	0	76	13450
2026-01-02 05:07:07.68	6.23	14.14	-54.4	-65.2	3.8	7.45e-01	0	33	104	0	76	13460
2026-01-02 05:07:08.68	5.94	14.09	-54.4	-65.2	3.8	7.46e-01	0	33	104	0	76	13446
2026-01-02 05:07:09.67	5.67	14.04	-54.4	-65.1	3.8	7.46e-01	0	33	104	0	76	13412
2026-01-02 05:07:10.67	5.39	13.98	-54.4	-65.1	3.8	7.44e-01	0	33	104	0	76	13406
2026-01-02 05:07:11.67	5.11	13.93	-54.4	-65.2	3.8	7.45e-01	0	33	104	0	76	13460
2026-01-02 05:07:12.67	4.83	13.87	-54.4	-65.2	3.8	7.46e-01	0	33	104	0	76	13456
2026-01-02 05:07:13.66	4.56	13.82	-54.4	-65.2	3.8	7.45e-01	0	33	104	0	76	13421
2026-01-02 05:07:14.66	4.29	13.76	-54.4	-65.1	3.8	7.46e-01	0	33	104	0	76	13395
2026-01-02 05:07:15.66	4.01	13.70	-54.4	-65.2	3.8	7.46e-01	0	33	104	0	76	13422
2026-01-02 05:07:16.66	3.74	13.65	-54.4	-65.1	3.8	7.46e-01	0	33	104	0	76	13414
2026-01-02 05:07:17.66	3.47	13.59	-54.4	-65.2	3.8	7.47e-01	0	33	104	0	76	13490
2026-01-02 05:07:18.65	3.21	13.53	-54.4	-65.2	3.8	7.43e-01	0	33	104	0	76	13454
2026-01-02 05:07:19.65	2.94	13.47	-54.3	-65.2	3.8	7.45e-01	0	33	104	0	76	13423
2026-01-02 05:07:20.65	2.67	13.42	-54.4	-65.2	3.9	7.46e-01	0	33	104	0	76	13471
2026-01-02 05:07:21.66	2.40	13.36	-54.4	-65.2	3.8	7.46e-01	0	33	104	0	76	13457
2026-01-02 05:07:22.66	2.14	13.30	-54.5	-65.2	3.8	7.45e-01	0	33	104	0	76	13422
2026-01-02 05:07:23.66	1.88	13.24	-54.4	-65.2	3.8	7.44e-01	0	33	104	0	76	13477
2026-01-02 05:07:24.66	1.62	13.18	-54.4	-65.2	3.8	7.44e-01	0	33	104	0	76	13471
2026-01-02 05:07:25.67	1.35	13.12	-54.4	-65.2	3.8	7.46e-01	0	33	104	0	76	13484
2026-01-02 05:07:26.67	1.09	13.06	-54.4	-65.2	3.8	7.45e-01	0	33	104	0	76	13487
2026-01-02 05:07:27.65	0.84	13.00	-54.4	-65.2	3.8	7.46e-01	0	33	104	0	76	13467
2026-01-02 05:07:28.66	0.58	12.94	-54.4	-65.2	3.8	7.48e-01	0	33	104	0	76	13423
2026-01-02 05:07:29.65	0.33	12.88	-54.4	-65.2	3.8	7.45e-01	0	33	104	0	76	13465
2026-01-02 05:07:30.65	0.08	12.82	-54.4	-65.1	3.8	7.46e-01	0	33	104	0	76	13394
2026-01-02 05:07:31.65	359.82	12.75	-54.4	-65.2	3.8	7.46e-01	0	33	104	0	76	13433
2026-01-02 05:07:32.65	359.57	12.69	-54.4	-65.2	3.8	7.44e-01	0	33	104	0	76	13478
2026-01-02 05:07:33.65	359.32	12.63	-54.4	-65.2	3.8	7.47e-01	0	33	104	0	76	13464
2026-01-02 05:07:34.66	359.07	12.57	-54.4	-65.2	3.8	7.43e-01	0	33	104	0	76	13415
2026-01-02 05:07:35.65	358.83	12.51	-54.4	-65.2	3.8	7.46e-01	0	33	104	0	76	13485
2026-01-02 05:07:36.65	358.58	12.44	-54.4	-65.2	3.8	7.45e-01	0	33	104	0	76	13478
2026-01-02 05:07:37.65	358.34	12.38	-54.4	-65.2	3.8	7.48e-01	0	33	104	0	76	13425
2026-01-02 05:07:38.65	358.09	12.32	-54.4	-65.2	3.8	7.45e-01	0	33	104	0	76	13430
2026-01-02 05:07:39.64	357.86	12.25	-54.4	-65.2	3.8	7.45e-01	0	33	104	0	76	13417
2026-01-02 05:07:40.65	357.61	12.19	-54.4	-65.2	3.8	7.46e-01	0	33	104	0	76	13440
2026-01-02 05:07:41.65	357.37	12.12	-54.4	-65.2	3.8	7.45e-01	0	33	104	0	76	13472
2026-01-02 05:07:42.65	357.13	12.06	-54.4	-65.2	3.8	7.45e-01	0	33	104	0	76	13442
2026-01-02 05:07:43.64	356.90	12.00	-54.4	-65.2	3.8	7.45e-01	0	33	104	0	76	13457
2026-01-02 05:07:44.64	356.66	11.93	-54.4	-65.1	3.8	7.47e-01	0	33	104	0	76	13402
2026-01-02 05:07:45.64	356.43	11.87	-54.3	-65.2	3.8	7.45e-01	0	33	104	0	76	13454
2026-01-02 05:07:46.64	356.20	11.80	-54.4	-65.2	3.8	7.44e-01	0	33	104	0	76	13469
2026-01-02 05:07:47.64	355.96	11.74	-54.4	-65.2	3.8	7.44e-01	0	33	104	0	76	13441
2026-01-02 05:07:48.63	355.74	11.67	-54.4	-65.2	3.8	7.46e-01	0	33	104	0	76	13459
2026-01-02 05:07:49.63	355.51	11.61	-54.4	-65.2	3.8	7.45e-01	0	33	104	0	76	13451
2026-01-02 05:07:50.64	355.28	11.54	-54.4	-65.2	3.8	7.46e-01	0	33	104	0	76	13454
2026-01-02 05:07:51.64	355.05	11.48	-54.4	-65.1	3.8	7.45e-01	0	33	104	0	76	13383
2026-01-02 05:07:52.64	354.82	11.41	-54.4	-65.2	3.8	7.44e-01	0	33	104	0	76	13425
2026-01-02 05:07:53.64	354.60	11.35	-54.5	-65.2	3.8	7.46e-01	0	33	104	0	76	13461
2026-01-02 05:07:54.64	354.38	11.28	-54.5	-65.1	3.8	7.46e-01	0	33	104	0	76	13387
2026-01-02 05:07:55.64	354.16	11.21	-54.4	-65.2	3.8	7.47e-01	0	33	104	0	76	13488
2026-01-02 05:07:56.64	353.93	11.15	-54.4	-65.2	3.8	7.45e-01	0	33	104	0	76	13489
2026-01-02 05:07:57.63	353.72	11.08	-54.4	-65.2	3.8	7.46e-01	0	33	104	0	76	13452
2026-01-02 05:07:58.63	353.50	11.01	-54.4	-65.2	3.8	7.46e-01	0	33	104	0	76	13417
2026-01-02 05:07:59.63	353.28	10.95	-54.4	-65.2	3.8	7.46e-01	0	33	104	0	76	13473
2026-01-02 05:08:00.61	353.07	10.88	-54.5	-65.2	3.8	7.46e-01	0	33	104	0	76	13434
2026-01-02 05:08:01.61	352.86	10.82	-54.4	-65.2	3.8	7.46e-01	0	33	104	0	76	13456
2026-01-02 05:08:02.62	352.64	10.75	-54.4	-65.2	3.8	7.47e-01	0	33	104	0	76	13416
2026-01-02 05:08:03.61	352.43	10.68	-54.4	-65.2	3.8	7.44e-01	0	33	104	0	76	13436
2026-01-02 05:08:04.61	352.22	10.62	-54.4	-65.2	3.8	7.45e-01	0	33	104	0	76	13520
2026-01-02 05:08:05.61	352.01	10.55	-54.5	-65.2	3.8	7.47e-01	0	33	104	0	76	13498
2026-01-02 05:08:06.60	351.80	10.48	-54.4	-65.2	3.8	7.44e-01	0	33	104	0	76	13441
2026-01-02 05:08:07.61	351.60	10.41	-54.4	-65.2	3.8	7.45e-01	0	33	104	0	76	13486
2026-01-02 05:08:08.60	351.39	10.35	-54.5	-65.2	3.8	7.46e-01	0	33	104	0	76	13447
2026-01-02 05:08:09.61	351.18	10.28	-54.5	-65.2	3.8	7.46e-01	0	33	104	0	76	13452
2026-01-02 05:08:10.61	350.98	10.21	-54.4	-65.2	3.8	7.47e-01	0	33	104	0	76	13454
2026-01-02 05:08:11.61	350.78	10.14	-54.4	-65.1	3.8	7.45e-01	0	33	104	0	76	13406
2026-01-02 05:08:12.61	350.58	10.08	-54.4	-65.2	3.8	7.46e-01	0	33	104	0	76	13459
2026-01-02 05:08:13.61	350.38	10.01	-54.4	-65.2	3.8	7.45e-01	0	33	104	0	76	13434
2026-01-02 05:08:14.61	350.18	9.94	-54.4	-65.2	3.8	7.45e-01	0	33	104	0	76	13427
2026-01-02 05:08:15.61	349.98	9.87	-54.4	-65.2	3.8	7.47e-01	0	33	104	0	76	13435
2026-01-02 05:08:16.61	349.78	9.81	-54.4	-65.2	3.8	7.44e-01	0	33	104	0	76	13504
2026-01-02 05:08:17.61	349.59	9.74	-54.4	-65.2	3.8	7.46e-01	0	33	104	0	76	13481
2026-01-02 05:08:18.61	349.39	9.67	-54.4	-65.2	3.8	7.45e-01	0	33	104	0	76	13496
2026-01-02 05:08:19.61	349.20	9.60	-54.5	-65.2	3.8	7.47e-01	0	33	104	0	76	13458
2026-01-02 05:08:20.62	349.01	9.54	-54.4	-65.2	3.8	7.47e-01	0	33	104	0	76	13421
2026-01-02 05:08:21.62	348.81	9.47	-54.4	-65.2	3.8	7.46e-01	0	33	104	0	76	13505
2026-01-02 05:08:22.62	348.62	9.40	-54.5	-65.2	3.8	7.46e-01	0	33	104	0	76	13422
2026-01-02 05:08:23.62	348.44	9.33	-54.4	-65.2	3.8	7.45e-01	0	33	104	0	76	13437
2026-01-02 05:08:24.61	348.25	9.27	-54.5	-65.1	3.8	7.45e-01	0	33	104	0	76	13409
2026-01-02 05:08:25.62	348.06	9.20	-54.4	-65.2	3.8	7.46e-01	0	33	104	0	76	13438
2026-01-02 05:08:26.61	347.88	9.13	-54.4	-65.1	3.8	7.47e-01	0	33	104	0	76	13403
2026-01-02 05:08:27.62	347.69	9.06	-54.4	-65.2	3.8	7.46e-01	0	33	104	0	76	13456
2026-01-02 05:08:28.62	347.51	8.99	-54.4	-65.2	3.8	7.46e-01	0	33	104	0	76	13428
2026-01-02 05:08:29.62	347.32	8.93	-54.4	-65.2	3.8	7.45e-01	0	33	104	0	76	13461
2026-01-02 05:08:30.63	347.14	8.86	-54.4	-65.2	3.8	7.46e-01	0	33	104	0	76	13450
2026-01-02 05:08:31.62	346.96	8.79	-54.4	-65.2	3.8	7.45e-01	0	33	104	0	76	13471
2026-01-02 05:08:32.62	346.78	8.72	-54.4	-65.2	3.8	7.44e-01	0	33	104	0	76	13458
2026-01-02 05:08:33.62	346.61	8.66	-54.4	-65.2	3.8	7.45e-01	0	33	104	0	76	13499
2026-01-02 05:08:34.62	346.43	8.59	-54.4	-65.2	3.8	7.46e-01	0	33	104	0	76	13474
2026-01-02 05:08:35.62	346.25	8.52	-54.4	-65.2	3.8	7.46e-01	0	33	104	0	76	13472
2026-01-02 05:08:36.62	346.08	8.45	-54.4	-65.2	3.8	7.44e-01	0	33	104	0	76	13476
2026-01-02 05:08:37.63	345.90	8.39	-54.4	-65.1	3.8	7.46e-01	0	33	104	0	76	13413
2026-01-02 05:08:38.62	345.73	8.32	-54.4	-65.2	3.8	7.47e-01	0	33	104	0	76	13425
2026-01-02 05:08:39.62	345.56	8.25	-54.4	-65.2	3.8	7.47e-01	0	33	104	0	76	13475
2026-01-02 05:08:40.61	345.39	8.18	-54.4	-65.2	3.8	7.46e-01	0	33	104	0	76	13472
2026-01-02 05:08:41.61	345.22	8.12	-54.5	-65.2	3.8	7.44e-01	0	33	104	0	76	13486
2026-01-02 05:08:42.62	345.05	8.05	-54.5	-65.2	3.8	7.45e-01	0	33	104	0	76	13510
2026-01-02 05:08:43.62	344.88	7.98	-54.5	-65.2	3.8	7.45e-01	0	33	104	0	76	13466
2026-01-02 05:08:44.62	344.71	7.91	-54.5	-65.2	3.8	7.45e-01	0	33	104	0	76	13498
2026-01-02 05:08:45.63	344.55	7.85	-54.4	-65.2	3.8	7.49e-01	0	33	104	0	76	13476
2026-01-02 05:08:46.63	344.38	7.78	-54.4	-65.2	3.8	7.46e-01	0	33	104	0	76	13506
2026-01-02 05:08:47.63	344.22	7.71	-54.4	-65.2	3.8	7.46e-01	0	33	104	0	76	13475
2026-01-02 05:08:48.63	344.05	7.65	-54.4	-65.2	3.8	7.45e-01	0	33	104	0	76	13415
2026-01-02 05:08:49.63	343.89	7.58	-54.5	-65.2	3.8	7.47e-01	0	33	104	0	76	13461
2026-01-02 05:08:50.63	343.73	7.51	-54.4	-65.2	3.8	7.46e-01	0	33	104	0	76	13435
2026-01-02 05:08:51.64	343.57	7.44	-54.5	-65.2	3.8	7.46e-01	0	33	104	0	76	13472
2026-01-02 05:08:52.63	343.41	7.38	-54.4	-65.2	3.8	7.46e-01	0	33	104	0	76	13459
2026-01-02 05:08:53.64	343.25	7.31	-54.4	-65.2	3.8	7.46e-01	0	33	104	0	76	13456
2026-01-02 05:08:54.64	343.09	7.24	-54.5	-65.2	3.8	7.46e-01	0	33	104	0	76	13455
2026-01-02 05:08:55.64	342.94	7.18	-54.4	-65.2	3.8	7.46e-01	0	33	104	0	76	13459
2026-01-02 05:08:56.64	342.78	7.11	-54.4	-65.2	3.8	7.46e-01	0	33	104	0	76	13463
2026-01-02 05:08:57.64	342.63	7.04	-54.4	-65.2	3.8	7.46e-01	0	33	104	0	76	13464
2026-01-02 05:08:58.63	342.48	6.98	-54.4	-65.1	3.8	7.45e-01	0	33	104	0	76	13410
2026-01-02 05:08:59.63	342.32	6.91	-54.4	-65.2	3.8	7.45e-01	0	33	104	0	76	13448
2026-01-02 05:09:00.63	342.17	6.85	-54.4	-65.2	3.8	7.45e-01	0	33	104	0	76	13462
2026-01-02 05:09:01.62	342.02	6.78	-54.4	-65.2	3.8	7.45e-01	0	33	104	0	76	13468
2026-01-02 05:09:02.62	341.87	6.71	-54.5	-65.2	3.8	7.44e-01	0	33	104	0	76	13449
2026-01-02 05:09:03.61	341.72	6.65	-54.4	-65.2	3.8	7.46e-01	0	33	104	0	76	13438
2026-01-02 05:09:04.61	341.57	6.58	-54.4	-65.2	3.8	7.45e-01	0	33	104	0	76	13435
2026-01-02 05:09:05.61	341.43	6.52	-54.4	-65.2	3.8	7.46e-01	0	33	104	0	76	13424
2026-01-02 05:09:06.61	341.28	6.45	-54.4	-65.2	3.8	7.44e-01	0	33	104	0	76	13477
2026-01-02 05:09:07.60	341.14	6.39	-54.4	-65.2	3.8	7.47e-01	0	33	104	0	76	13432
2026-01-02 05:09:08.60	340.99	6.32	-54.5	-65.1	3.8	7.44e-01	0	33	104	0	76	13410
2026-01-02 05:09:09.59	340.85	6.25	-54.4	-65.2	3.8	7.46e-01	0	33	104	0	76	13417
2026-01-02 05:09:10.58	340.71	6.19	-54.5	-65.2	3.8	7.46e-01	0	33	104	0	76	13480
2026-01-02 05:09:11.58	340.56	6.12	-54.5	-65.2	3.8	7.45e-01	0	33	104	0	76	13455
2026-01-02 05:09:12.58	340.42	6.06	-54.4	-65.2	3.8	7.46e-01	0	33	104	0	76	13441
2026-01-02 05:09:13.58	340.28	5.99	-54.5	-65.2	3.8	7.45e-01	0	33	104	0	76	13443
2026-01-02 05:09:14.58	340.14	5.93	-54.4	-65.2	3.8	7.46e-01	0	33	104	0	76	13417
2026-01-02 05:09:15.57	340.00	5.86	-54.5	-65.2	3.8	7.46e-01	0	33	104	0	76	13509
2026-01-02 05:09:16.56	339.87	5.80	-54.5	-65.2	3.8	7.46e-01	0	33	104	0	76	13482
2026-01-02 05:09:17.56	339.73	5.73	-54.5	-65.2	3.8	7.48e-01	0	33	104	0	76	13484
2026-01-02 05:09:18.56	339.59	5.67	-54.4	-65.2	3.8	7.46e-01	0	33	104	0	76	13452
2026-01-02 05:09:19.55	339.46	5.61	-54.4	-65.2	3.8	7.46e-01	0	33	104	0	76	13501
2026-01-02 05:09:20.55	339.32	5.54	-54.5	-65.2	3.8	7.45e-01	0	33	104	0	76	13439
2026-01-02 05:09:21.55	339.19	5.48	-54.4	-65.2	3.8	7.46e-01	0	33	104	0	76	13452
2026-01-02 05:09:22.54	339.05	5.41	-54.4	-65.2	3.9	7.46e-01	0	33	104	0	76	13431
2026-01-02 05:09:23.54	338.92	5.35	-54.4	-65.2	3.8	7.45e-01	0	33	104	0	76	13446
2026-01-02 05:09:24.53	338.79	5.28	-54.4	-65.1	3.8	7.43e-01	0	33	104	0	76	13381
2026-01-02 05:09:25.54	338.66	5.22	-54.5	-65.2	3.8	7.46e-01	0	33	104	0	76	13469
2026-01-02 05:09:26.54	338.53	5.16	-54.4	-65.2	3.8	7.45e-01	0	33	104	0	76	13482
2026-01-02 05:09:27.53	338.40	5.09	-54.4	-65.2	3.8	7.46e-01	0	33	104	0	76	13440
2026-01-02 05:09:28.53	338.27	5.03	-54.4	-65.2	3.8	7.45e-01	0	33	104	0	76	13435
2026-01-02 05:09:29.53	338.14	4.96	-54.4	-65.2	3.8	7.46e-01	0	33	104	0	76	13440
2026-01-02 05:09:30.53	338.01	4.90	-54.4	-65.2	3.8	7.45e-01	0	33	104	0	76	13474
2026-01-02 05:09:31.52	337.89	4.84	-54.5	-65.2	3.8	7.46e-01	0	33	104	0	76	13477
2026-01-02 05:09:32.52	337.76	4.77	-54.4	-65.2	3.8	7.44e-01	0	33	104	0	76	13510
2026-01-02 05:09:33.53	337.63	4.71	-54.4	-65.2	3.8	7.45e-01	0	33	104	0	76	13458
2026-01-02 05:09:34.53	337.51	4.65	-54.4	-65.2	3.8	7.45e-01	0	33	104	0	76	13446
2026-01-02 05:09:35.53	337.39	4.58	-54.4	-65.2	3.8	7.45e-01	0	33	104	0	76	13481
2026-01-02 05:09:36.51	337.26	4.52	-54.4	-65.2	3.8	7.47e-01	0	33	104	0	76	13491
2026-01-02 05:09:37.51	337.14	4.46	-54.4	-65.2	3.8	7.45e-01	0	33	104	0	76	13415
2026-01-02 05:09:38.51	337.02	4.39	-54.5	-65.2	3.8	7.45e-01	0	33	104	0	76	13485
2026-01-02 05:09:39.50	336.90	4.33	-54.5	-65.2	3.8	7.46e-01	0	33	104	0	76	13518
2026-01-02 05:09:40.50	336.78	4.27	-54.4	-65.2	3.8	7.46e-01	0	33	104	0	76	13435
2026-01-02 05:09:41.49	336.66	4.21	-54.4	-65.2	3.8	7.46e-01	0	33	104	0	76	13439
2026-01-02 05:09:42.49	336.54	4.15	-54.4	-65.1	3.8	7.46e-01	0	33	104	0	76	13412
2026-01-02 05:09:43.49	336.42	4.08	-54.4	-65.2	3.8	7.46e-01	0	33	104	0	76	13450
2026-01-02 05:09:44.48	336.30	4.02	-54.4	-65.2	3.8	7.46e-01	0	33	104	0	76	13442
2026-01-02 05:09:45.48	336.19	3.96	-54.4	-65.2	3.8	7.45e-01	0	33	104	0	76	13458
2026-01-02 05:09:46.49	336.07	3.90	-54.4	-65.2	3.8	7.46e-01	0	33	104	0	76	13449
2026-01-02 05:09:47.49	335.95	3.83	-54.4	-65.2	3.8	7.46e-01	0	33	104	0	76	13474
2026-01-02 05:09:48.49	335.84	3.77	-54.4	-65.2	3.8	7.45e-01	0	33	104	0	76	13464
2026-01-02 05:09:49.49	335.72	3.71	-54.4	-65.2	3.8	7.47e-01	0	33	104	0	76	13504
2026-01-02 05:09:50.50	335.61	3.65	-54.5	-65.2	3.8	7.46e-01	0	33	104	0	76	13499
2026-01-02 05:09:51.50	335.49	3.59	-54.4	-65.2	3.8	7.43e-01	0	33	104	0	76	13454
2026-01-02 05:09:52.49	335.38	3.52	-54.4	-65.1	3.8	7.44e-01	0	33	104	0	76	13391
2026-01-02 05:09:53.49	335.27	3.46	-54.4	-65.2	3.8	7.46e-01	0	33	104	0	76	13485
2026-01-02 05:09:54.49	335.16	3.40	-54.4	-65.2	3.8	7.45e-01	0	33	104	0	76	13445
2026-01-02 05:09:55.49	335.05	3.34	-54.4	-65.2	3.8	7.45e-01	0	33	104	0	76	13473
2026-01-02 05:09:56.49	334.94	3.28	-54.4	-65.2	3.8	7.46e-01	0	33	104	0	76	13443
2026-01-02 05:09:57.49	334.83	3.22	-54.5	-65.2	3.8	7.45e-01	0	33	104	0	76	13435
2026-01-02 05:09:58.49	334.72	3.16	-54.4	-65.2	3.8	7.46e-01	0	33	104	0	76	13435
2026-01-02 05:09:59.49	334.61	3.10	-54.5	-65.2	3.8	7.47e-01	0	33	104	0	76	13444
2026-01-02 05:10:00.49	334.50	3.03	-54.4	-65.2	3.8	7.45e-01	0	33	104	0	76	13504
2026-01-02 05:10:01.49	334.39	2.97	-54.4	-65.2	3.8	7.47e-01	0	33	104	0	76	13435
2026-01-02 05:10:02.49	334.29	2.91	-54.4	-65.2	3.8	7.46e-01	0	33	104	0	76	13422
2026-01-02 05:10:03.48	334.18	2.85	-54.4	-65.2	3.8	7.46e-01	0	33	104	0	76	13430
2026-01-02 05:10:04.47	334.08	2.79	-54.4	-65.2	3.8	7.46e-01	0	33	104	0	76	13457
2026-01-02 05:10:05.47	333.97	2.73	-54.4	-65.2	3.8	7.46e-01	0	33	104	0	76	13441
2026-01-02 05:10:06.47	333.87	2.67	-54.4	-65.2	3.8	7.46e-01	0	33	104	0	76	13446
2026-01-02 05:10:07.47	333.76	2.61	-54.4	-65.2	3.8	7.44e-01	0	33	104	0	76	13453
2026-01-02 05:10:08.47	333.66	2.55	-54.4	-65.1	3.8	7.43e-01	0	33	104	0	76	13398
2026-01-02 05:10:09.46	333.56	2.49	-54.4	-65.2	3.8	7.44e-01	0	33	104	0	76	13449
2026-01-02 05:10:10.46	333.46	2.43	-54.4	-65.2	3.8	7.45e-01	0	33	104	0	76	13422
2026-01-02 05:10:11.46	333.35	2.37	-54.4	-65.1	3.8	7.46e-01	0	33	104	0	76	13401
2026-01-02 05:10:12.46	333.25	2.31	-54.4	-65.1	3.8	7.45e-01	0	33	104	0	76	13405
2026-01-02 05:10:13.46	333.15	2.25	-54.4	-65.2	3.8	7.46e-01	0	33	104	0	76	13457
2026-01-02 05:10:14.46	333.05	2.19	-54.4	-65.2	3.8	7.46e-01	0	33	104	0	76	13422
2026-01-02 05:10:15.46	332.95	2.13	-54.4	-65.2	3.8	7.46e-01	0	33	104	0	76	13417
2026-01-02 05:10:16.46	332.85	2.08	-54.4	-65.2	3.8	7.46e-01	0	33	104	0	76	13498
2026-01-02 05:10:17.46	332.76	2.02	-54.4	-65.2	3.8	7.48e-01	0	33	104	0	76	13439
2026-01-02 05:10:18.45	332.66	1.96	-54.4	-65.2	3.8	7.45e-01	0	33	104	0	76	13452

#Closed at: 2026-01-02 05:10:19
#Recorded file [0 MB]: D:/lorett/data/31004_260102_080127.dat