passes_logs/2026/01/02/R3.2S_Murmansk/R3.2S_Murmansk__20260102_130732_NOAA_21_JPSS-2_rec.log

#Pass ID: 20260102_130732_NOAA 21 (JPSS-2)
#Satellite: NOAA 21 (JPSS-2)
#Configuration: NOAA-21
#almurnet v.1.7.20251203
#Start time: 2026-01-02 13:07:33

#Version: 2.2.20231116
#Station: R3.2S_Murmansk
#Location: 33.079688 lon 68.888172 lat
#TLE: 1 54234U 22150A   26001.12709759  .00000171  00000+0  10204-3 0  9995
#TLE: 2 54234  98.7484 302.1957 0001286 353.9379   6.1781 14.19530519162845

#Time	Az	El	Level	Level2	SNR	BER	BlckErr	Temp	State	Recorded	gain1	gain2
2026-01-02 13:07:33.99	246.68	2.09	-60.3	-73.7	3.8	1.49e+00	0	30	0	0	86	17093
2026-01-02 13:07:34.97	246.78	2.13	-60.3	-73.6	3.8	1.49e+00	0	30	104	0	85	18056
2026-01-02 13:07:35.93	246.88	2.17	-60.3	-73.6	3.8	1.49e+00	0	30	104	0	85	18070
2026-01-02 13:07:36.90	246.98	2.21	-60.3	-73.6	3.8	1.49e+00	0	30	104	0	85	18047
2026-01-02 13:07:37.87	247.08	2.25	-60.3	-73.6	3.8	1.49e+00	0	30	104	0	85	18037
2026-01-02 13:07:38.84	247.18	2.29	-60.3	-73.6	3.8	1.49e+00	0	30	104	0	85	18022
2026-01-02 13:07:39.80	247.28	2.34	-60.3	-73.6	3.8	1.49e+00	0	30	104	0	85	18045
2026-01-02 13:07:40.77	247.38	2.38	-60.3	-73.6	3.8	1.49e+00	0	31	104	0	85	18075
2026-01-02 13:07:41.73	247.48	2.42	-60.3	-73.6	3.8	1.49e+00	0	31	104	0	85	18047
2026-01-02 13:07:42.70	247.58	2.46	-60.3	-73.6	3.8	1.49e+00	0	31	104	0	85	18071
2026-01-02 13:07:43.67	247.69	2.50	-60.3	-73.6	3.8	1.49e+00	0	31	104	0	85	18029
2026-01-02 13:07:44.63	247.79	2.54	-60.3	-73.6	3.9	1.49e+00	0	31	104	0	85	18073
2026-01-02 13:07:45.60	247.89	2.59	-60.3	-73.6	3.9	1.49e+00	0	30	104	0	85	18012
2026-01-02 13:07:46.56	247.99	2.63	-60.3	-73.6	3.8	1.49e+00	0	31	104	0	85	18006
2026-01-02 13:07:47.53	248.09	2.67	-60.3	-73.6	3.8	1.49e+00	0	30	104	0	85	17960
2026-01-02 13:07:48.50	248.20	2.71	-60.3	-73.6	3.8	1.49e+00	0	31	104	0	85	17919
2026-01-02 13:07:49.46	248.30	2.75	-60.3	-73.6	3.8	1.49e+00	0	31	104	0	85	17930
2026-01-02 13:07:50.43	248.40	2.79	-60.3	-73.5	3.8	1.49e+00	0	31	104	0	85	17882
2026-01-02 13:07:51.40	248.51	2.83	-60.3	-73.6	3.8	1.49e+00	0	31	104	0	85	17998
2026-01-02 13:07:52.37	248.61	2.88	-60.3	-73.6	3.8	1.49e+00	0	31	104	0	85	17986
2026-01-02 13:07:53.34	248.72	2.92	-60.3	-73.6	3.8	1.49e+00	0	31	104	0	85	18011
2026-01-02 13:07:54.30	248.82	2.96	-60.3	-73.6	3.8	1.49e+00	0	31	104	0	85	18044
2026-01-02 13:07:55.27	248.92	3.00	-60.3	-73.6	3.8	1.49e+00	0	31	104	0	85	18005
2026-01-02 13:07:56.24	249.03	3.04	-60.3	-73.6	3.8	1.49e+00	0	31	104	0	85	18030
2026-01-02 13:07:57.20	249.13	3.08	-60.3	-73.6	3.8	1.49e+00	0	31	104	0	85	18044
2026-01-02 13:07:58.17	249.24	3.12	-60.3	-73.6	3.8	1.49e+00	0	31	104	0	85	18048
2026-01-02 13:07:59.13	249.34	3.16	-60.3	-73.6	3.8	1.49e+00	0	31	104	0	85	17982
2026-01-02 13:08:00.10	249.45	3.21	-60.3	-73.6	3.8	1.49e+00	0	31	104	0	85	17957
2026-01-02 13:08:01.07	249.56	3.25	-60.3	-73.6	3.8	1.49e+00	0	31	104	0	85	17923
2026-01-02 13:08:02.03	249.66	3.29	-60.3	-73.5	3.8	1.49e+00	0	31	104	0	85	17867
2026-01-02 13:08:03.00	249.77	3.33	-60.3	-73.5	3.8	1.49e+00	0	31	104	0	85	17799
2026-01-02 13:08:03.96	249.88	3.37	-60.3	-73.5	3.8	1.49e+00	0	31	104	0	85	17766
2026-01-02 13:08:04.93	249.99	3.41	-60.3	-73.5	3.8	1.49e+00	0	31	104	0	85	17791
2026-01-02 13:08:05.90	250.09	3.45	-60.3	-73.6	3.8	1.49e+00	0	31	104	0	85	17901
2026-01-02 13:08:06.86	250.20	3.49	-60.3	-73.6	3.8	1.49e+00	0	31	104	0	85	17901
2026-01-02 13:08:07.83	250.31	3.54	-60.3	-73.5	3.8	1.49e+00	0	31	104	0	85	17856
2026-01-02 13:08:08.80	250.42	3.58	-60.3	-73.6	3.8	1.49e+00	0	31	104	0	85	17902
2026-01-02 13:08:09.76	250.53	3.62	-60.3	-73.6	3.8	1.49e+00	0	31	104	0	85	17967
2026-01-02 13:08:10.73	250.64	3.66	-60.3	-73.6	3.8	1.49e+00	0	31	104	0	85	17998
2026-01-02 13:08:11.70	250.75	3.70	-60.3	-73.6	3.8	1.49e+00	0	31	104	0	85	17922
2026-01-02 13:08:12.66	250.86	3.74	-60.3	-73.5	3.8	1.49e+00	0	31	104	0	85	17824
2026-01-02 13:08:13.63	250.97	3.78	-60.2	-73.4	3.8	1.49e+00	0	31	104	0	85	17675
2026-01-02 13:08:14.60	251.08	3.82	-60.3	-73.4	3.8	1.49e+00	0	31	104	0	85	17660
2026-01-02 13:08:15.56	251.19	3.86	-60.3	-73.4	3.8	1.49e+00	0	31	104	0	85	17550
2026-01-02 13:08:16.53	251.30	3.90	-60.3	-73.4	3.8	1.49e+00	0	31	104	0	85	17499
2026-01-02 13:08:17.50	251.41	3.95	-60.3	-73.5	3.8	1.49e+00	0	31	104	0	85	17725
2026-01-02 13:08:18.47	251.52	3.99	-60.3	-73.5	3.8	1.49e+00	0	31	104	0	85	17815
2026-01-02 13:08:19.43	251.63	4.03	-60.3	-73.6	3.8	1.49e+00	0	31	104	0	85	17906
2026-01-02 13:08:20.41	251.75	4.07	-60.3	-73.6	3.8	1.49e+00	0	31	104	0	85	17935
2026-01-02 13:08:21.38	251.86	4.11	-60.3	-73.6	3.8	1.49e+00	0	31	104	0	85	17943
2026-01-02 13:08:22.34	251.97	4.15	-60.3	-73.5	3.8	1.49e+00	0	31	104	0	85	17816
2026-01-02 13:08:23.31	252.08	4.19	-60.2	-73.4	3.8	1.49e+00	0	31	104	0	85	17605
2026-01-02 13:08:24.28	252.20	4.23	-60.2	-73.3	3.8	1.49e+00	0	31	104	0	85	17400
2026-01-02 13:08:25.24	252.31	4.27	-60.2	-73.3	3.8	1.49e+00	0	31	104	0	85	17307
2026-01-02 13:08:26.21	252.43	4.31	-60.2	-73.3	3.8	1.49e+00	0	31	104	0	85	17290
2026-01-02 13:08:27.17	252.54	4.35	-60.2	-73.3	3.8	1.49e+00	0	31	104	0	85	17294
2026-01-02 13:08:28.14	252.65	4.39	-60.2	-73.2	3.8	1.49e+00	0	31	104	0	85	17145
2026-01-02 13:08:29.11	252.77	4.43	-60.2	-73.0	3.8	1.49e+00	0	31	104	0	85	16799
2026-01-02 13:08:30.08	252.89	4.48	-60.2	-72.9	3.8	1.49e+00	0	31	104	0	85	16570
2026-01-02 13:08:31.05	253.00	4.52	-60.2	-72.9	3.8	1.49e+00	0	31	104	0	85	16647
2026-01-02 13:08:32.02	253.12	4.56	-60.2	-73.1	3.8	1.49e+00	0	31	104	0	85	17042
2026-01-02 13:08:32.99	253.23	4.60	-60.3	-73.4	3.8	1.49e+00	0	31	104	0	85	17674
2026-01-02 13:08:33.97	253.35	4.64	-60.3	-73.5	3.8	1.49e+00	0	31	104	0	85	17815
2026-01-02 13:08:34.94	253.47	4.68	-60.2	-72.9	3.8	1.49e+00	0	31	104	0	85	16546
2026-01-02 13:08:35.92	253.59	4.72	-60.1	-71.6	3.9	1.49e+00	0	31	104	0	85	14221
2026-01-02 13:08:36.89	253.71	4.76	-60.0	-69.6	4.3	1.47e+00	0	31	104	0	85	11355
2026-01-02 13:08:37.86	253.82	4.80	-59.8	-69.2	4.0	9.15e-01	2	31	104	0	85	10784
2026-01-02 13:08:38.84	253.94	4.84	-59.7	-67.9	5.0	6.91e-01	0	31	0	0	85	9326
2026-01-02 13:08:39.82	254.06	4.88	-59.6	-67.0	5.5	5.07e-01	0	31	0	2097152	85	8419
2026-01-02 13:08:40.79	254.18	4.92	-59.2	-65.4	6.6	2.28e-01	0	31	0	5242880	85	6986
2026-01-02 13:08:41.77	254.30	4.96	-58.4	-63.0	8.5	3.46e-02	0	31	0	8388608	83	5975
2026-01-02 13:08:42.74	254.42	5.00	-57.4	-60.7	10.6	3.39e-03	0	31	0	11534336	81	5126
2026-01-02 13:08:43.72	254.54	5.04	-60.7	-73.6	3.8	5.54e-01	0	31	104	13631488	86	16918
2026-01-02 13:08:44.70	254.66	5.08	-59.6	-66.0	6.3	1.47e+00	0	31	104	13631488	85	7487
2026-01-02 13:08:45.68	254.79	5.12	-55.8	-57.9	12.7	1.36e-01	0	31	0	15728640	78	4436
2026-01-02 13:08:46.68	254.91	5.17	-58.3	-62.9	8.8	1.50e-06	0	31	0	18874368	81	6624
2026-01-02 13:08:47.68	255.04	5.21	-54.1	-55.6	14.1	2.41e-03	0	31	0	22020096	74	4261
2026-01-02 13:08:48.67	255.16	5.25	-54.2	-55.8	14.0	0.00e+00	0	31	0	25165824	75	4103
2026-01-02 13:08:49.67	255.29	5.29	-54.0	-55.4	14.1	0.00e+00	0	31	0	28311552	74	4187
2026-01-02 13:08:50.66	255.41	5.33	-54.0	-55.4	14.2	0.00e+00	0	31	0	31457280	74	4163
2026-01-02 13:08:51.66	255.54	5.37	-53.9	-55.3	14.2	0.00e+00	0	31	0	34603008	74	4131
2026-01-02 13:08:52.64	255.66	5.41	-53.9	-55.3	14.2	0.00e+00	0	31	0	37748736	74	4125
2026-01-02 13:08:53.62	255.79	5.45	-53.7	-55.1	14.3	0.00e+00	0	31	0	40894464	74	4013
2026-01-02 13:08:54.61	255.91	5.49	-53.6	-55.0	14.3	0.00e+00	0	31	0	44040192	73	4224
2026-01-02 13:08:55.60	256.04	5.53	-53.7	-55.1	14.3	0.00e+00	0	31	0	47185920	73	4266
2026-01-02 13:08:56.60	256.17	5.57	-53.6	-54.9	14.4	0.00e+00	0	31	0	49283072	73	4181
2026-01-02 13:08:57.59	256.29	5.61	-53.5	-54.8	14.4	0.00e+00	0	31	0	52428800	73	4125
2026-01-02 13:08:58.58	256.42	5.65	-53.5	-54.8	14.5	0.00e+00	0	31	0	55574528	73	4112
2026-01-02 13:08:59.58	256.55	5.69	-53.5	-54.8	14.5	0.00e+00	0	31	0	58720256	73	4099
2026-01-02 13:09:00.57	256.68	5.73	-53.4	-54.7	14.5	0.00e+00	0	31	0	61865984	73	4094
2026-01-02 13:09:01.56	256.81	5.77	-53.4	-54.7	14.5	0.00e+00	0	31	0	65011712	73	4068
2026-01-02 13:09:02.54	256.93	5.81	-53.5	-54.9	14.4	0.00e+00	0	31	0	68157440	73	4153
2026-01-02 13:09:03.54	257.06	5.85	-53.4	-54.7	14.5	0.00e+00	0	31	0	71303168	73	4072
2026-01-02 13:09:04.54	257.20	5.89	-53.5	-54.8	14.5	0.00e+00	0	31	0	74448896	73	4118
2026-01-02 13:09:05.53	257.33	5.93	-53.4	-54.7	14.5	0.00e+00	0	31	0	77594624	73	4073
2026-01-02 13:09:06.52	257.46	5.97	-53.3	-54.6	14.6	0.00e+00	0	31	0	80740352	73	4024
2026-01-02 13:09:07.52	257.59	6.01	-53.3	-54.5	14.6	0.00e+00	0	31	0	83886080	73	3998
2026-01-02 13:09:08.52	257.72	6.05	-53.4	-54.6	14.5	0.00e+00	0	31	0	87031808	73	4049
2026-01-02 13:09:09.51	257.85	6.09	-53.4	-54.7	14.5	0.00e+00	0	31	0	90177536	73	4090
2026-01-02 13:09:10.51	257.98	6.13	-53.3	-54.6	14.6	0.00e+00	0	31	0	93323264	73	4011
2026-01-02 13:09:11.50	258.12	6.17	-53.4	-54.6	14.6	0.00e+00	0	31	0	96468992	73	4040
2026-01-02 13:09:12.50	258.25	6.21	-53.3	-54.6	14.6	0.00e+00	0	31	0	99614720	73	4027
2026-01-02 13:09:13.50	258.38	6.25	-53.3	-54.6	14.6	0.00e+00	0	31	0	102760448	73	4016
2026-01-02 13:09:14.49	258.52	6.29	-53.3	-54.5	14.6	0.00e+00	0	31	0	105906176	73	3996
2026-01-02 13:09:15.48	258.65	6.33	-53.3	-54.6	14.6	0.00e+00	0	31	0	109051904	73	4021
2026-01-02 13:09:16.47	258.78	6.37	-53.4	-54.7	14.6	0.00e+00	0	31	0	112197632	73	4057
2026-01-02 13:09:17.46	258.92	6.41	-53.2	-54.5	14.7	0.00e+00	0	31	0	115343360	73	3968
2026-01-02 13:09:18.46	259.05	6.45	-53.3	-54.5	14.7	0.00e+00	0	31	0	118489088	73	3975
2026-01-02 13:09:19.46	259.19	6.49	-53.2	-54.4	14.7	0.00e+00	0	31	0	121634816	73	3944
2026-01-02 13:09:20.46	259.32	6.53	-53.2	-54.4	14.7	0.00e+00	0	31	0	124780544	73	3953
2026-01-02 13:09:21.45	259.46	6.56	-53.3	-54.5	14.7	0.00e+00	0	31	0	127926272	73	3982
2026-01-02 13:09:22.45	259.60	6.60	-53.3	-54.5	14.7	0.00e+00	0	31	0	131072000	73	3976
2026-01-02 13:09:23.45	259.73	6.64	-53.3	-54.5	14.7	0.00e+00	0	31	0	134217728	73	3972
2026-01-02 13:09:24.44	259.87	6.68	-53.2	-54.4	14.7	0.00e+00	0	31	0	136314880	72	4178
2026-01-02 13:09:25.43	260.01	6.72	-53.2	-54.4	14.7	0.00e+00	0	31	0	139460608	72	4150
2026-01-02 13:09:26.42	260.14	6.76	-53.1	-54.3	14.7	0.00e+00	0	31	0	142606336	72	4128
2026-01-02 13:09:27.42	260.28	6.80	-53.2	-54.4	14.7	0.00e+00	0	31	0	145752064	72	4151
2026-01-02 13:09:28.41	260.42	6.83	-53.1	-54.3	14.7	0.00e+00	0	31	0	148897792	72	4114
2026-01-02 13:09:29.41	260.56	6.87	-53.1	-54.2	14.8	0.00e+00	0	31	0	152043520	72	4088
2026-01-02 13:09:30.42	260.70	6.91	-53.0	-54.2	14.8	0.00e+00	0	31	0	155189248	72	4054
2026-01-02 13:09:31.42	260.84	6.95	-53.1	-54.2	14.8	0.00e+00	0	31	0	158334976	72	4086
2026-01-02 13:09:32.41	260.98	6.99	-53.1	-54.3	14.7	0.00e+00	0	31	0	161480704	72	4104
2026-01-02 13:09:33.42	261.12	7.03	-53.0	-54.1	14.8	0.00e+00	0	32	0	164626432	72	4047
2026-01-02 13:09:34.41	261.26	7.06	-53.0	-54.2	14.8	0.00e+00	0	32	0	167772160	72	4068
2026-01-02 13:09:35.41	261.40	7.10	-53.1	-54.2	14.8	0.00e+00	0	31	0	170917888	72	4082
2026-01-02 13:09:36.41	261.55	7.14	-53.1	-54.3	14.8	0.00e+00	0	31	0	174063616	72	4125
2026-01-02 13:09:37.41	261.69	7.18	-53.1	-54.2	14.8	0.00e+00	0	31	0	177209344	72	4085
2026-01-02 13:09:38.41	261.83	7.22	-53.1	-54.3	14.8	0.00e+00	0	31	0	180355072	72	4122
2026-01-02 13:09:39.42	261.98	7.25	-53.2	-54.4	14.7	0.00e+00	0	32	0	183500800	72	4148
2026-01-02 13:09:40.42	262.12	7.29	-53.2	-54.4	14.7	0.00e+00	0	31	0	186646528	72	4148
2026-01-02 13:09:41.41	262.26	7.33	-53.1	-54.2	14.8	0.00e+00	0	31	0	189792256	72	4096
2026-01-02 13:09:42.40	262.40	7.37	-53.1	-54.3	14.8	0.00e+00	0	31	0	192937984	72	4105
2026-01-02 13:09:43.40	262.55	7.40	-53.1	-54.2	14.8	0.00e+00	0	32	0	196083712	72	4093
2026-01-02 13:09:44.40	262.69	7.44	-53.0	-54.2	14.9	0.00e+00	0	31	0	199229440	72	4056
2026-01-02 13:09:45.41	262.84	7.48	-53.0	-54.1	14.9	0.00e+00	0	31	0	202375168	72	4045
2026-01-02 13:09:46.42	262.99	7.51	-53.0	-54.1	14.9	0.00e+00	0	31	0	205520896	72	4046
2026-01-02 13:09:47.42	263.13	7.55	-53.0	-54.1	14.9	0.00e+00	0	31	0	208666624	72	4031
2026-01-02 13:09:48.42	263.28	7.59	-52.9	-54.1	14.9	0.00e+00	0	31	0	211812352	72	4006
2026-01-02 13:09:49.42	263.43	7.62	-52.9	-54.0	14.9	0.00e+00	0	31	0	214958080	72	3995
2026-01-02 13:09:50.41	263.57	7.66	-52.9	-54.0	14.9	0.00e+00	0	31	0	218103808	72	3979
2026-01-02 13:09:51.41	263.72	7.70	-52.9	-54.1	14.9	0.00e+00	0	31	0	221249536	72	4016
2026-01-02 13:09:52.41	263.87	7.73	-52.8	-53.9	15.0	0.00e+00	0	31	0	224395264	72	3929
2026-01-02 13:09:53.40	264.01	7.77	-52.8	-53.9	15.0	0.00e+00	0	31	0	227540992	72	3949
2026-01-02 13:09:54.40	264.16	7.80	-52.8	-53.9	15.0	0.00e+00	0	31	0	230686720	72	3938
2026-01-02 13:09:55.40	264.31	7.84	-52.8	-53.9	15.0	0.00e+00	0	31	0	233832448	72	3915
2026-01-02 13:09:56.39	264.46	7.88	-52.8	-53.9	15.0	0.00e+00	0	32	0	236978176	72	3919
2026-01-02 13:09:57.39	264.61	7.91	-52.7	-53.8	15.1	0.00e+00	0	32	0	240123904	72	3886
2026-01-02 13:09:58.39	264.76	7.95	-52.7	-53.8	15.0	0.00e+00	0	31	0	243269632	72	3901
2026-01-02 13:09:59.39	264.91	7.98	-52.7	-53.8	15.0	0.00e+00	0	31	0	246415360	72	3905
2026-01-02 13:10:00.39	265.06	8.02	-52.7	-53.7	15.0	0.00e+00	0	31	0	249561088	71	4094
2026-01-02 13:10:01.39	265.21	8.05	-52.8	-53.9	15.0	0.00e+00	0	31	0	252706816	71	4167
2026-01-02 13:10:02.39	265.36	8.09	-52.8	-53.9	15.0	0.00e+00	0	32	0	255852544	71	4167
2026-01-02 13:10:03.39	265.51	8.12	-52.8	-53.9	15.0	0.00e+00	0	31	0	258998272	71	4167
2026-01-02 13:10:04.39	265.66	8.16	-52.8	-53.9	15.0	0.00e+00	0	31	0	262144000	71	4163
2026-01-02 13:10:05.38	265.81	8.19	-52.7	-53.7	15.0	0.00e+00	0	31	0	264241152	71	4092
2026-01-02 13:10:06.38	265.96	8.23	-52.6	-53.6	15.1	0.00e+00	0	31	0	267386880	71	4051
2026-01-02 13:10:07.38	266.12	8.26	-52.5	-53.5	15.1	0.00e+00	0	32	0	270532608	71	3986
2026-01-02 13:10:08.38	266.27	8.30	-52.5	-53.5	15.1	0.00e+00	0	31	0	273678336	71	3998
2026-01-02 13:10:09.37	266.42	8.33	-52.4	-53.5	15.1	0.00e+00	0	31	0	276824064	71	3961
2026-01-02 13:10:10.37	266.58	8.36	-52.5	-53.6	15.0	0.00e+00	0	32	0	279969792	71	4046
2026-01-02 13:10:11.37	266.73	8.40	-52.7	-53.8	14.9	0.00e+00	0	31	0	283115520	71	4117
2026-01-02 13:10:12.36	266.88	8.43	-52.9	-54.1	14.7	0.00e+00	0	32	0	286261248	71	4278
2026-01-02 13:10:13.36	267.04	8.46	-53.4	-54.8	14.4	0.00e+00	0	31	0	289406976	72	4342
2026-01-02 13:10:14.35	267.19	8.50	-53.9	-55.5	13.9	0.00e+00	0	31	0	292552704	73	4446
2026-01-02 13:10:15.35	267.35	8.53	-54.5	-56.3	13.4	0.00e+00	0	32	0	295698432	74	4601
2026-01-02 13:10:16.36	267.51	8.57	-55.0	-57.0	12.9	0.00e+00	0	31	0	298844160	75	4712
2026-01-02 13:10:17.35	267.66	8.60	-55.2	-57.4	12.5	0.00e+00	0	31	0	301989888	75	4976
2026-01-02 13:10:18.35	267.82	8.63	-55.3	-57.6	12.3	2.20e-06	0	32	0	305135616	75	5084
2026-01-02 13:10:19.35	267.97	8.66	-55.5	-58.0	12.0	1.37e-05	0	32	0	308281344	76	4987
2026-01-02 13:10:20.35	268.13	8.70	-55.8	-58.6	11.4	5.26e-05	0	32	0	311427072	76	5397
2026-01-02 13:10:21.34	268.29	8.73	-56.4	-59.7	10.5	7.05e-04	0	31	0	314572800	77	5759
2026-01-02 13:10:22.34	268.44	8.76	-57.0	-61.2	9.1	4.87e-03	0	32	0	317718528	79	6121
2026-01-02 13:10:23.32	268.60	8.79	-57.5	-62.6	7.8	3.67e-02	0	31	0	320864256	80	6792
2026-01-02 13:10:24.32	268.76	8.83	-57.7	-63.4	7.1	9.74e-02	0	32	0	324009984	80	7412
2026-01-02 13:10:25.32	268.92	8.86	-57.7	-63.3	7.3	9.78e-02	0	32	0	327155712	80	7295
2026-01-02 13:10:26.32	269.08	8.89	-57.5	-62.5	8.1	6.13e-02	0	32	0	330301440	80	6672
2026-01-02 13:10:27.31	269.23	8.92	-57.2	-61.4	9.0	2.70e-02	0	32	0	333447168	80	5910
2026-01-02 13:10:28.30	269.39	8.95	-58.0	-63.7	7.2	3.73e-02	0	31	0	336592896	81	7273
2026-01-02 13:10:29.29	269.55	8.98	-59.7	-71.2	3.9	1.49e+00	0	32	104	336592896	85	13701
2026-01-02 13:10:30.28	269.71	9.01	-58.3	-65.6	4.3	1.48e+00	0	32	104	336592896	83	8032
2026-01-02 13:10:31.28	269.87	9.04	-56.3	-59.0	11.6	2.88e-04	0	31	0	337641472	79	4723
2026-01-02 13:10:32.27	270.03	9.08	-54.9	-56.8	13.1	0.00e+00	0	32	0	340787200	76	4367
2026-01-02 13:10:33.26	270.19	9.11	-54.8	-56.6	13.3	0.00e+00	0	32	0	343932928	76	4278
2026-01-02 13:10:34.26	270.35	9.14	-54.4	-56.1	13.6	0.00e+00	0	32	0	347078656	75	4276
2026-01-02 13:10:35.26	270.52	9.17	-54.1	-55.7	14.0	0.00e+00	0	32	0	350224384	74	4301
2026-01-02 13:10:36.26	270.68	9.20	-53.9	-55.3	14.3	0.00e+00	0	32	0	353370112	74	4138
2026-01-02 13:10:37.25	270.84	9.23	-53.7	-55.0	14.5	0.00e+00	0	32	0	356515840	74	3969
2026-01-02 13:10:38.24	271.00	9.26	-53.0	-54.2	14.8	0.00e+00	0	32	0	359661568	72	4070
2026-01-02 13:10:39.24	271.16	9.29	-52.7	-53.8	15.0	0.00e+00	0	32	0	362807296	71	4112
2026-01-02 13:10:40.23	271.33	9.32	-52.6	-53.6	15.1	0.00e+00	0	32	0	365953024	71	4042
2026-01-02 13:10:41.23	271.49	9.35	-52.4	-53.4	15.2	0.00e+00	0	32	0	369098752	71	3948
2026-01-02 13:10:42.22	271.65	9.37	-52.4	-53.4	15.2	0.00e+00	0	32	0	372244480	71	3933
2026-01-02 13:10:43.21	271.82	9.40	-52.5	-53.5	15.2	0.00e+00	0	32	0	375390208	71	3990
2026-01-02 13:10:44.21	271.98	9.43	-52.6	-53.6	15.1	0.00e+00	0	32	0	378535936	71	4047
2026-01-02 13:10:45.21	272.15	9.46	-52.5	-53.6	15.2	0.00e+00	0	31	0	381681664	71	4005
2026-01-02 13:10:46.21	272.31	9.49	-52.6	-53.6	15.2	0.00e+00	0	32	0	384827392	71	4043
2026-01-02 13:10:47.21	272.48	9.52	-52.6	-53.6	15.2	0.00e+00	0	31	0	387973120	71	4042
2026-01-02 13:10:48.21	272.65	9.55	-52.7	-53.7	15.1	0.00e+00	0	32	0	391118848	71	4080
2026-01-02 13:10:49.20	272.81	9.57	-52.7	-53.7	15.1	0.00e+00	0	32	0	394264576	71	4080
2026-01-02 13:10:50.19	272.98	9.60	-52.7	-53.8	15.1	0.00e+00	0	32	0	397410304	71	4102
2026-01-02 13:10:51.19	273.14	9.63	-52.6	-53.7	15.1	0.00e+00	0	32	0	400556032	71	4074
2026-01-02 13:10:52.19	273.31	9.66	-52.7	-53.8	15.1	0.00e+00	0	32	0	402653184	71	4101
2026-01-02 13:10:53.19	273.48	9.68	-52.7	-53.7	15.1	0.00e+00	0	32	0	405798912	71	4095
2026-01-02 13:10:54.18	273.65	9.71	-52.7	-53.7	15.1	0.00e+00	0	32	0	408944640	71	4086
2026-01-02 13:10:55.18	273.81	9.74	-52.6	-53.6	15.2	0.00e+00	0	32	0	412090368	71	4046
2026-01-02 13:10:56.17	273.98	9.76	-52.6	-53.7	15.2	0.00e+00	0	32	0	415236096	71	4052
2026-01-02 13:10:57.17	274.15	9.79	-52.6	-53.7	15.2	0.00e+00	0	32	0	418381824	71	4057
2026-01-02 13:10:58.16	274.32	9.82	-52.5	-53.5	15.2	0.00e+00	0	31	0	421527552	71	3990
2026-01-02 13:10:59.16	274.49	9.84	-52.5	-53.5	15.2	0.00e+00	0	32	0	424673280	71	3965
2026-01-02 13:11:00.16	274.66	9.87	-52.6	-53.6	15.2	0.00e+00	0	32	0	427819008	71	4030
2026-01-02 13:11:01.16	274.83	9.90	-52.5	-53.5	15.2	0.00e+00	0	31	0	430964736	71	3999
2026-01-02 13:11:02.15	275.00	9.92	-52.5	-53.5	15.2	0.00e+00	0	32	0	434110464	71	3987
2026-01-02 13:11:03.15	275.17	9.95	-52.5	-53.6	15.2	0.00e+00	0	32	0	437256192	71	4023
2026-01-02 13:11:04.14	275.34	9.97	-52.5	-53.5	15.2	0.00e+00	0	32	0	440401920	71	3990
2026-01-02 13:11:05.13	275.51	10.00	-52.6	-53.6	15.2	0.00e+00	0	32	0	443547648	71	4024
2026-01-02 13:11:06.13	275.68	10.02	-52.5	-53.5	15.2	0.00e+00	0	32	0	446693376	71	4004
2026-01-02 13:11:07.12	275.85	10.05	-52.4	-53.5	15.3	0.00e+00	0	32	0	449839104	71	3961
2026-01-02 13:11:08.12	276.02	10.07	-52.5	-53.5	15.2	0.00e+00	0	32	0	452984832	71	3960
2026-01-02 13:11:09.12	276.19	10.09	-52.4	-53.5	15.2	0.00e+00	0	32	0	456130560	71	3961
2026-01-02 13:11:10.12	276.37	10.12	-52.4	-53.4	15.3	0.00e+00	0	32	0	459276288	71	3925
2026-01-02 13:11:11.11	276.54	10.14	-52.4	-53.4	15.3	0.00e+00	0	32	0	462422016	71	3933
2026-01-02 13:11:12.10	276.71	10.17	-52.5	-53.5	15.3	0.00e+00	0	31	0	465567744	71	3971
2026-01-02 13:11:13.10	276.88	10.19	-52.4	-53.4	15.3	0.00e+00	0	32	0	468713472	71	3938
2026-01-02 13:11:14.10	277.06	10.21	-52.4	-53.4	15.3	0.00e+00	0	32	0	471859200	71	3953
2026-01-02 13:11:15.09	277.23	10.24	-52.4	-53.4	15.3	0.00e+00	0	32	0	475004928	71	3933
2026-01-02 13:11:16.09	277.40	10.26	-52.5	-53.5	15.2	0.00e+00	0	32	0	478150656	71	3994
2026-01-02 13:11:17.09	277.58	10.28	-52.6	-53.6	15.2	0.00e+00	0	32	0	481296384	71	4021
2026-01-02 13:11:18.08	277.75	10.30	-52.6	-53.6	15.2	0.00e+00	0	32	0	484442112	71	4049
2026-01-02 13:11:19.08	277.92	10.33	-52.7	-53.7	15.1	0.00e+00	0	32	0	487587840	71	4086
2026-01-02 13:11:20.08	278.10	10.35	-52.6	-53.6	15.2	0.00e+00	0	32	0	490733568	71	4040
2026-01-02 13:11:21.08	278.28	10.37	-52.6	-53.7	15.2	0.00e+00	0	32	0	493879296	71	4057
2026-01-02 13:11:22.07	278.45	10.39	-52.6	-53.7	15.2	0.00e+00	0	32	0	497025024	71	4055
2026-01-02 13:11:23.07	278.63	10.41	-52.6	-53.6	15.2	0.00e+00	0	32	0	499122176	71	4027
2026-01-02 13:11:24.06	278.80	10.43	-52.6	-53.6	15.2	0.00e+00	0	32	0	502267904	71	4049
2026-01-02 13:11:25.05	278.98	10.45	-52.5	-53.5	15.3	0.00e+00	0	31	0	505413632	71	4001
2026-01-02 13:11:26.05	279.15	10.47	-52.7	-53.7	15.2	0.00e+00	0	31	0	508559360	71	4077
2026-01-02 13:11:27.05	279.33	10.49	-52.6	-53.7	15.2	0.00e+00	0	32	0	511705088	71	4063
2026-01-02 13:11:28.05	279.51	10.51	-52.8	-53.8	15.1	0.00e+00	0	32	0	514850816	71	4126
2026-01-02 13:11:29.05	279.68	10.53	-52.8	-53.8	15.1	0.00e+00	0	32	0	517996544	71	4144
2026-01-02 13:11:30.06	279.86	10.55	-52.8	-53.9	15.1	0.00e+00	0	32	0	521142272	71	4158
2026-01-02 13:11:31.06	280.04	10.57	-52.7	-53.8	15.2	0.00e+00	0	31	0	524288000	71	4105
2026-01-02 13:11:32.06	280.22	10.59	-52.7	-53.7	15.2	0.00e+00	0	32	0	527433728	71	4075
2026-01-02 13:11:33.06	280.40	10.61	-52.7	-53.7	15.2	0.00e+00	0	32	0	530579456	71	4070
2026-01-02 13:11:34.06	280.58	10.63	-52.6	-53.6	15.2	0.00e+00	0	32	0	533725184	71	4038
2026-01-02 13:11:35.06	280.76	10.65	-52.6	-53.6	15.3	0.00e+00	0	32	0	536870912	71	4020
2026-01-02 13:11:36.05	280.93	10.67	-52.5	-53.5	15.3	0.00e+00	0	32	0	540016640	71	4001
2026-01-02 13:11:37.05	281.11	10.69	-52.6	-53.6	15.2	0.00e+00	0	32	0	543162368	71	4010
2026-01-02 13:11:38.04	281.29	10.70	-52.5	-53.5	15.3	0.00e+00	0	32	0	546308096	71	3999
2026-01-02 13:11:39.03	281.47	10.72	-52.6	-53.6	15.2	0.00e+00	0	32	0	549453824	71	4044
2026-01-02 13:11:40.03	281.65	10.74	-52.7	-53.8	15.2	0.00e+00	0	32	0	552599552	71	4107
2026-01-02 13:11:41.02	281.83	10.76	-52.7	-53.8	15.2	0.00e+00	0	32	0	555745280	71	4102
2026-01-02 13:11:42.02	282.01	10.77	-52.7	-53.8	15.2	0.00e+00	0	32	0	558891008	71	4105
2026-01-02 13:11:43.02	282.19	10.79	-52.8	-53.9	15.1	0.00e+00	0	32	0	562036736	71	4156
2026-01-02 13:11:44.01	282.37	10.81	-52.8	-53.8	15.2	0.00e+00	0	32	0	565182464	71	4125
2026-01-02 13:11:45.01	282.55	10.82	-52.7	-53.7	15.2	0.00e+00	0	32	0	568328192	71	4096
2026-01-02 13:11:46.00	282.73	10.84	-52.7	-53.7	15.2	0.00e+00	0	32	0	571473920	71	4092
2026-01-02 13:11:47.00	282.91	10.85	-52.7	-53.7	15.2	0.00e+00	0	31	0	574619648	71	4067
2026-01-02 13:11:48.00	283.09	10.87	-52.7	-53.7	15.2	0.00e+00	0	32	0	577765376	71	4084
2026-01-02 13:11:49.00	283.27	10.89	-52.6	-53.6	15.3	0.00e+00	0	32	0	580911104	71	4041
2026-01-02 13:11:50.00	283.45	10.90	-52.6	-53.6	15.3	0.00e+00	0	32	0	584056832	71	4020
2026-01-02 13:11:51.00	283.64	10.92	-52.6	-53.7	15.3	0.00e+00	0	32	0	587202560	71	4052
2026-01-02 13:11:52.00	283.82	10.93	-52.8	-53.8	15.2	0.00e+00	0	32	0	590348288	71	4126
2026-01-02 13:11:52.99	284.00	10.94	-52.9	-53.9	15.1	0.00e+00	0	32	0	593494016	71	4176
2026-01-02 13:11:53.99	284.18	10.96	-53.0	-54.0	15.1	0.00e+00	0	32	0	596639744	71	4231
2026-01-02 13:11:54.98	284.36	10.97	-52.9	-54.0	15.1	0.00e+00	0	32	0	599785472	71	4224
2026-01-02 13:11:55.97	284.54	10.98	-52.9	-53.9	15.2	0.00e+00	0	32	0	602931200	71	4168
2026-01-02 13:11:56.96	284.72	11.00	-52.8	-53.8	15.2	0.00e+00	0	32	0	606076928	71	4145
2026-01-02 13:11:57.96	284.91	11.01	-52.8	-53.9	15.2	0.00e+00	0	32	0	609222656	71	4164
2026-01-02 13:11:58.96	285.09	11.02	-52.8	-53.8	15.2	0.00e+00	0	32	0	611319808	71	4117
2026-01-02 13:11:59.96	285.27	11.04	-52.6	-53.6	15.3	0.00e+00	0	32	0	614465536	71	4034
2026-01-02 13:12:00.96	285.46	11.05	-52.6	-53.5	15.3	0.00e+00	0	32	0	617611264	71	4001
2026-01-02 13:12:01.96	285.64	11.06	-52.5	-53.5	15.3	0.00e+00	0	32	0	620756992	71	3992
2026-01-02 13:12:02.96	285.82	11.07	-52.5	-53.5	15.3	0.00e+00	0	32	0	623902720	71	3991
2026-01-02 13:12:03.95	286.01	11.08	-52.6	-53.6	15.3	0.00e+00	0	31	0	627048448	71	4043
2026-01-02 13:12:04.94	286.19	11.10	-52.6	-53.6	15.3	0.00e+00	0	32	0	630194176	71	4041
2026-01-02 13:12:05.94	286.37	11.11	-52.6	-53.6	15.3	0.00e+00	0	32	0	633339904	71	4030
2026-01-02 13:12:06.93	286.56	11.12	-52.6	-53.5	15.3	0.00e+00	0	32	0	636485632	71	3995
2026-01-02 13:12:07.93	286.74	11.13	-52.5	-53.5	15.3	0.00e+00	0	32	0	639631360	71	3997
2026-01-02 13:12:08.92	286.92	11.14	-52.6	-53.5	15.3	0.00e+00	0	32	0	642777088	71	3996
2026-01-02 13:12:09.92	287.11	11.15	-52.5	-53.5	15.3	0.00e+00	0	32	0	645922816	71	3985
2026-01-02 13:12:10.92	287.29	11.16	-52.5	-53.5	15.4	0.00e+00	0	32	0	649068544	71	3959
2026-01-02 13:12:11.91	287.48	11.17	-52.5	-53.5	15.4	0.00e+00	0	32	0	652214272	71	3976
2026-01-02 13:12:12.91	287.66	11.18	-52.6	-53.5	15.3	0.00e+00	0	32	0	655360000	71	3989
2026-01-02 13:12:13.90	287.85	11.19	-52.6	-53.6	15.3	0.00e+00	0	31	0	658505728	71	4007
2026-01-02 13:12:14.90	288.03	11.19	-52.7	-53.7	15.2	0.00e+00	0	32	0	661651456	71	4085
2026-01-02 13:12:15.90	288.22	11.20	-52.8	-53.8	15.2	0.00e+00	0	32	0	664797184	71	4104
2026-01-02 13:12:16.89	288.40	11.21	-53.0	-54.1	15.1	0.00e+00	0	31	0	667942912	71	4243
2026-01-02 13:12:17.89	288.59	11.22	-52.9	-53.9	15.2	0.00e+00	0	32	0	671088640	71	4193
2026-01-02 13:12:18.89	288.77	11.23	-53.0	-54.0	15.1	0.00e+00	0	32	0	674234368	71	4224
2026-01-02 13:12:19.89	288.96	11.23	-52.8	-53.9	15.2	0.00e+00	0	32	0	677380096	71	4152
2026-01-02 13:12:20.89	289.14	11.24	-53.0	-54.0	15.1	0.00e+00	0	32	0	680525824	71	4217
2026-01-02 13:12:21.88	289.33	11.25	-52.8	-53.9	15.2	0.00e+00	0	32	0	683671552	71	4155
2026-01-02 13:12:22.88	289.51	11.25	-52.8	-53.8	15.2	0.00e+00	0	32	0	686817280	71	4129
2026-01-02 13:12:23.87	289.70	11.26	-52.6	-53.6	15.3	0.00e+00	0	32	0	689963008	71	4020
2026-01-02 13:12:24.87	289.88	11.27	-52.5	-53.5	15.3	0.00e+00	0	32	0	693108736	71	3985
2026-01-02 13:12:25.85	290.07	11.27	-52.6	-53.6	15.3	0.00e+00	0	32	0	696254464	71	4009
2026-01-02 13:12:26.85	290.25	11.28	-52.4	-53.4	15.4	0.00e+00	0	32	0	699400192	71	3930
2026-01-02 13:12:27.84	290.44	11.28	-52.3	-53.3	15.4	0.00e+00	0	32	0	702545920	71	3885
2026-01-02 13:12:28.84	290.62	11.29	-52.4	-53.3	15.5	0.00e+00	0	32	0	705691648	71	3908
2026-01-02 13:12:29.84	290.81	11.29	-52.4	-53.3	15.4	0.00e+00	0	32	0	707788800	71	3893
2026-01-02 13:12:30.83	290.99	11.30	-52.5	-53.4	15.4	0.00e+00	0	32	0	710934528	71	3943
2026-01-02 13:12:31.83	291.18	11.30	-52.5	-53.5	15.4	0.00e+00	0	32	0	714080256	71	3975
2026-01-02 13:12:32.83	291.37	11.30	-52.4	-53.3	15.4	0.00e+00	0	32	0	717225984	71	3895
2026-01-02 13:12:33.83	291.56	11.31	-52.3	-53.3	15.5	0.00e+00	0	32	0	720371712	71	3875
2026-01-02 13:12:34.82	291.74	11.31	-52.3	-53.2	15.5	0.00e+00	0	32	0	723517440	71	3836
2026-01-02 13:12:35.81	291.92	11.31	-52.3	-53.2	15.5	0.00e+00	0	32	0	726663168	71	3846
2026-01-02 13:12:36.81	292.11	11.32	-52.3	-53.3	15.5	0.00e+00	0	32	0	729808896	71	3873
2026-01-02 13:12:37.80	292.30	11.32	-52.3	-53.2	15.5	0.00e+00	0	32	0	732954624	71	3856
2026-01-02 13:12:38.80	292.48	11.32	-52.3	-53.2	15.5	0.00e+00	0	32	0	736100352	71	3854
2026-01-02 13:12:39.79	292.67	11.32	-52.3	-53.2	15.5	0.00e+00	0	32	0	739246080	71	3849
2026-01-02 13:12:40.79	292.86	11.33	-52.3	-53.2	15.5	0.00e+00	0	32	0	742391808	71	3858
2026-01-02 13:12:41.79	293.04	11.33	-52.4	-53.3	15.4	0.00e+00	0	32	0	745537536	71	3895
2026-01-02 13:12:42.78	293.23	11.33	-52.4	-53.4	15.4	0.00e+00	0	32	0	748683264	71	3918
2026-01-02 13:12:43.77	293.41	11.33	-52.5	-53.4	15.4	0.00e+00	0	32	0	751828992	71	3951
2026-01-02 13:12:44.76	293.60	11.33	-52.4	-53.3	15.4	0.00e+00	0	31	0	754974720	71	3891
2026-01-02 13:12:45.76	293.79	11.33	-52.5	-53.4	15.3	0.00e+00	0	32	0	758120448	71	3956
2026-01-02 13:12:46.76	293.97	11.33	-52.4	-53.3	15.4	0.00e+00	0	32	0	761266176	71	3910
2026-01-02 13:12:47.76	294.16	11.33	-52.3	-53.3	15.4	0.00e+00	0	32	0	764411904	71	3881
2026-01-02 13:12:48.75	294.34	11.33	-52.3	-53.3	15.4	0.00e+00	0	32	0	767557632	71	3870
2026-01-02 13:12:49.74	294.53	11.33	-52.4	-53.4	15.4	0.00e+00	0	32	0	770703360	71	3919
2026-01-02 13:12:50.73	294.71	11.33	-52.3	-53.3	15.4	0.00e+00	0	32	0	773849088	71	3894
2026-01-02 13:12:51.73	294.90	11.33	-52.4	-53.3	15.4	0.00e+00	0	32	0	776994816	71	3897
2026-01-02 13:12:52.72	295.09	11.33	-52.4	-53.4	15.4	0.00e+00	0	31	0	780140544	71	3929
2026-01-02 13:12:53.72	295.27	11.32	-52.5	-53.4	15.4	0.00e+00	0	32	0	783286272	71	3943
2026-01-02 13:12:54.72	295.46	11.32	-52.4	-53.3	15.4	0.00e+00	0	32	0	786432000	71	3899
2026-01-02 13:12:55.71	295.65	11.32	-52.4	-53.3	15.4	0.00e+00	0	32	0	789577728	71	3891
2026-01-02 13:12:56.71	295.83	11.32	-52.3	-53.3	15.4	0.00e+00	0	32	0	792723456	71	3878
2026-01-02 13:12:57.71	296.02	11.32	-52.5	-53.5	15.3	0.00e+00	0	32	0	795869184	71	3959
2026-01-02 13:12:58.71	296.21	11.31	-52.5	-53.4	15.4	0.00e+00	0	32	0	799014912	71	3943
2026-01-02 13:12:59.71	296.39	11.31	-52.4	-53.3	15.4	0.00e+00	0	32	0	802160640	71	3893
2026-01-02 13:13:00.70	296.58	11.31	-52.3	-53.3	15.4	0.00e+00	0	32	0	805306368	71	3884
2026-01-02 13:13:01.70	296.76	11.30	-52.3	-53.3	15.4	0.00e+00	0	32	0	807403520	71	3881
2026-01-02 13:13:02.70	296.95	11.30	-52.3	-53.3	15.4	0.00e+00	0	32	0	810549248	71	3887
2026-01-02 13:13:03.70	297.14	11.29	-52.3	-53.2	15.5	0.00e+00	0	32	0	813694976	71	3840
2026-01-02 13:13:04.69	297.32	11.29	-52.2	-53.2	15.5	0.00e+00	0	32	0	816840704	71	3825
2026-01-02 13:13:05.70	297.51	11.28	-52.2	-53.1	15.4	0.00e+00	0	32	0	819986432	70	4033
2026-01-02 13:13:06.69	297.69	11.28	-52.2	-53.2	15.4	0.00e+00	0	32	0	823132160	70	4071
2026-01-02 13:13:07.69	297.88	11.27	-52.3	-53.2	15.4	0.00e+00	0	32	0	826277888	70	4093
2026-01-02 13:13:08.69	298.07	11.27	-52.3	-53.2	15.4	0.00e+00	0	32	0	829423616	70	4097
2026-01-02 13:13:09.69	298.25	11.26	-52.4	-53.3	15.3	0.00e+00	0	32	0	832569344	70	4135
2026-01-02 13:13:10.69	298.44	11.25	-52.4	-53.3	15.3	0.00e+00	0	32	0	835715072	70	4132
2026-01-02 13:13:11.69	298.62	11.25	-52.3	-53.2	15.4	0.00e+00	0	32	0	838860800	70	4095
2026-01-02 13:13:12.70	298.81	11.24	-52.3	-53.2	15.4	0.00e+00	0	32	0	842006528	70	4092
2026-01-02 13:13:13.69	299.00	11.23	-52.4	-53.3	15.3	0.00e+00	0	32	0	845152256	70	4144
2026-01-02 13:13:14.69	299.18	11.23	-52.5	-53.5	15.3	0.00e+00	0	32	0	848297984	70	4198
2026-01-02 13:13:15.69	299.37	11.22	-52.4	-53.4	15.3	0.00e+00	0	32	0	851443712	70	4164
2026-01-02 13:13:16.70	299.56	11.21	-52.5	-53.5	15.3	0.00e+00	0	32	0	854589440	70	4221
2026-01-02 13:13:17.70	299.74	11.20	-52.6	-53.6	15.2	0.00e+00	0	32	0	857735168	70	4254
2026-01-02 13:13:18.70	299.93	11.19	-52.7	-53.7	15.2	0.00e+00	0	32	0	860880896	70	4319
2026-01-02 13:13:19.70	300.11	11.19	-52.6	-53.6	15.2	0.00e+00	0	32	0	864026624	70	4248
2026-01-02 13:13:20.70	300.30	11.18	-52.4	-53.4	15.3	0.00e+00	0	32	0	867172352	70	4154
2026-01-02 13:13:21.70	300.48	11.17	-52.4	-53.4	15.3	0.00e+00	0	32	0	870318080	70	4169
2026-01-02 13:13:22.71	300.67	11.16	-52.4	-53.4	15.3	0.00e+00	0	32	0	873463808	70	4155
2026-01-02 13:13:23.71	300.85	11.15	-52.3	-53.3	15.4	0.00e+00	0	32	0	876609536	70	4118
2026-01-02 13:13:24.71	301.04	11.14	-52.4	-53.4	15.3	0.00e+00	0	32	0	879755264	70	4165
2026-01-02 13:13:25.70	301.22	11.13	-52.4	-53.3	15.4	0.00e+00	0	32	0	882900992	70	4134
2026-01-02 13:13:26.70	301.40	11.12	-52.4	-53.4	15.3	0.00e+00	0	32	0	886046720	70	4180
2026-01-02 13:13:27.70	301.59	11.11	-52.5	-53.5	15.3	0.00e+00	0	32	0	889192448	70	4205
2026-01-02 13:13:28.71	301.77	11.10	-52.4	-53.4	15.3	0.00e+00	0	32	0	892338176	70	4151
2026-01-02 13:13:29.70	301.96	11.08	-52.5	-53.4	15.3	0.00e+00	0	32	0	895483904	70	4182
2026-01-02 13:13:30.70	302.14	11.07	-52.4	-53.3	15.3	0.00e+00	0	32	0	898629632	70	4132
2026-01-02 13:13:31.70	302.32	11.06	-52.4	-53.4	15.3	0.00e+00	0	32	0	901775360	70	4154
2026-01-02 13:13:32.71	302.51	11.05	-52.4	-53.4	15.3	0.00e+00	0	32	0	904921088	70	4151
2026-01-02 13:13:33.72	302.69	11.04	-52.5	-53.4	15.3	0.00e+00	0	32	0	908066816	70	4186
2026-01-02 13:13:34.71	302.88	11.02	-52.4	-53.4	15.3	0.00e+00	0	32	0	911212544	70	4185
2026-01-02 13:13:35.71	303.06	11.01	-52.4	-53.4	15.3	0.00e+00	0	32	0	914358272	70	4174
2026-01-02 13:13:36.71	303.24	11.00	-52.4	-53.4	15.3	0.00e+00	0	32	0	917504000	70	4169
2026-01-02 13:13:37.70	303.42	10.99	-52.4	-53.4	15.3	0.00e+00	0	32	0	920649728	70	4169
2026-01-02 13:13:38.70	303.60	10.97	-52.3	-53.2	15.4	0.00e+00	0	32	0	923795456	70	4074
2026-01-02 13:13:39.70	303.79	10.96	-52.2	-53.2	15.4	0.00e+00	0	32	0	926941184	70	4063
2026-01-02 13:13:40.70	303.97	10.94	-52.3	-53.2	15.4	0.00e+00	0	32	0	930086912	70	4081
2026-01-02 13:13:41.69	304.15	10.93	-52.3	-53.2	15.4	0.00e+00	0	32	0	933232640	70	4079
2026-01-02 13:13:42.68	304.33	10.92	-52.3	-53.2	15.4	0.00e+00	0	32	0	936378368	70	4087
2026-01-02 13:13:43.69	304.51	10.90	-52.3	-53.2	15.4	0.00e+00	0	32	0	939524096	70	4094
2026-01-02 13:13:44.69	304.69	10.89	-52.4	-53.3	15.3	0.00e+00	0	32	0	942669824	70	4139
2026-01-02 13:13:45.69	304.88	10.87	-52.4	-53.3	15.4	0.00e+00	0	32	0	944766976	70	4136
2026-01-02 13:13:46.69	305.06	10.86	-52.4	-53.4	15.3	0.00e+00	0	32	0	948961280	70	4148
2026-01-02 13:13:47.69	305.24	10.84	-52.4	-53.4	15.3	0.00e+00	0	32	0	952107008	70	4173
2026-01-02 13:13:48.70	305.42	10.82	-52.4	-53.3	15.3	0.00e+00	0	32	0	955252736	70	4138
2026-01-02 13:13:49.69	305.60	10.81	-52.4	-53.4	15.3	0.00e+00	0	32	0	958398464	70	4151
2026-01-02 13:13:50.69	305.78	10.79	-52.4	-53.3	15.3	0.00e+00	0	32	0	961544192	70	4143
2026-01-02 13:13:51.69	305.96	10.77	-52.3	-53.3	15.4	0.00e+00	0	32	0	963641344	70	4110
2026-01-02 13:13:52.69	306.14	10.76	-52.3	-53.3	15.4	0.00e+00	0	32	0	966787072	70	4111
2026-01-02 13:13:53.69	306.32	10.74	-52.3	-53.3	15.3	0.00e+00	0	32	0	969932800	70	4126
2026-01-02 13:13:54.68	306.50	10.72	-52.4	-53.4	15.3	0.00e+00	0	32	0	973078528	70	4147
2026-01-02 13:13:55.69	306.68	10.70	-52.4	-53.4	15.3	0.00e+00	0	32	0	976224256	70	4149
2026-01-02 13:13:56.68	306.86	10.69	-52.4	-53.4	15.3	0.00e+00	0	32	0	979369984	70	4191
2026-01-02 13:13:57.69	307.04	10.67	-52.5	-53.5	15.3	0.00e+00	0	32	0	982515712	70	4209
2026-01-02 13:13:58.68	307.21	10.65	-52.5	-53.5	15.3	0.00e+00	0	32	0	985661440	70	4208
2026-01-02 13:13:59.68	307.39	10.63	-52.5	-53.5	15.3	0.00e+00	0	32	0	988807168	70	4201
2026-01-02 13:14:00.68	307.57	10.61	-52.4	-53.4	15.3	0.00e+00	0	32	0	991952896	70	4160
2026-01-02 13:14:01.68	307.75	10.59	-52.5	-53.5	15.3	0.00e+00	0	32	0	995098624	70	4221
2026-01-02 13:14:02.68	307.93	10.58	-52.4	-53.4	15.3	0.00e+00	0	32	0	998244352	70	4180
2026-01-02 13:14:03.68	308.10	10.56	-52.4	-53.4	15.3	0.00e+00	0	32	0	1001390080	70	4149
2026-01-02 13:14:04.67	308.28	10.54	-52.3	-53.3	15.3	0.00e+00	0	32	0	1004535808	70	4131
2026-01-02 13:14:05.67	308.46	10.52	-52.3	-53.2	15.3	0.00e+00	0	32	0	1007681536	70	4089
2026-01-02 13:14:06.67	308.63	10.50	-52.3	-53.3	15.3	0.00e+00	0	32	0	1010827264	70	4103
2026-01-02 13:14:07.67	308.81	10.48	-52.2	-53.2	15.4	0.00e+00	0	32	0	1013972992	70	4062
2026-01-02 13:14:08.67	308.99	10.46	-52.3	-53.2	15.4	0.00e+00	0	32	0	1017118720	70	4081
2026-01-02 13:14:09.66	309.16	10.43	-52.2	-53.2	15.4	0.00e+00	0	32	0	1020264448	70	4076
2026-01-02 13:14:10.66	309.34	10.41	-52.3	-53.2	15.3	0.00e+00	0	32	0	1023410176	70	4091
2026-01-02 13:14:11.65	309.51	10.39	-52.3	-53.3	15.3	0.00e+00	0	32	0	1026555904	70	4107
2026-01-02 13:14:12.65	309.69	10.37	-52.2	-53.2	15.4	0.00e+00	0	32	0	1029701632	70	4071
2026-01-02 13:14:13.65	309.86	10.35	-52.2	-53.2	15.4	0.00e+00	0	32	0	1032847360	70	4066
2026-01-02 13:14:14.66	310.04	10.33	-52.3	-53.3	15.3	0.00e+00	0	32	0	1035993088	70	4107
2026-01-02 13:14:15.66	310.21	10.31	-52.2	-53.2	15.3	0.00e+00	0	32	0	1039138816	70	4072
2026-01-02 13:14:16.66	310.39	10.28	-52.3	-53.3	15.3	0.00e+00	0	32	0	1042284544	70	4107
2026-01-02 13:14:17.66	310.56	10.26	-52.2	-53.2	15.4	0.00e+00	0	32	0	1045430272	70	4058
2026-01-02 13:14:18.66	310.73	10.24	-52.2	-53.2	15.4	0.00e+00	0	32	0	1048576000	70	4059
2026-01-02 13:14:19.66	310.91	10.21	-52.2	-53.1	15.4	0.00e+00	0	32	0	1051721728	70	4033
2026-01-02 13:14:20.67	311.08	10.19	-52.2	-53.1	15.4	0.00e+00	0	32	0	1054867456	70	4026
2026-01-02 13:14:21.67	311.26	10.17	-52.1	-53.0	15.4	0.00e+00	0	32	0	1058013184	70	3995
2026-01-02 13:14:22.67	311.43	10.14	-52.1	-53.0	15.4	0.00e+00	0	32	0	1061158912	70	3977
2026-01-02 13:14:23.67	311.60	10.12	-52.1	-53.0	15.4	0.00e+00	0	32	0	1064304640	70	3987
2026-01-02 13:14:24.67	311.77	10.10	-52.1	-53.0	15.4	0.00e+00	0	32	0	1067450368	70	3978
2026-01-02 13:14:25.67	311.94	10.07	-52.1	-53.1	15.4	0.00e+00	0	32	0	1070596096	70	4005
2026-01-02 13:14:26.67	312.12	10.05	-52.1	-53.1	15.4	0.00e+00	0	32	0	1073741824	70	4011
2026-01-02 13:14:27.66	312.29	10.02	-52.2	-53.1	15.4	0.00e+00	0	32	0	1076887552	70	4039
2026-01-02 13:14:28.65	312.46	10.00	-52.2	-53.2	15.3	0.00e+00	0	31	0	1080033280	70	4073
2026-01-02 13:14:29.65	312.63	9.97	-52.3	-53.2	15.3	0.00e+00	0	32	0	1083179008	70	4086
2026-01-02 13:14:30.64	312.80	9.95	-52.3	-53.2	15.3	0.00e+00	0	32	0	1086324736	70	4098
2026-01-02 13:14:31.63	312.96	9.92	-52.3	-53.3	15.3	0.00e+00	0	32	0	1088421888	70	4129
2026-01-02 13:14:32.62	313.13	9.90	-52.3	-53.3	15.3	0.00e+00	0	32	0	1091567616	70	4123
2026-01-02 13:14:33.62	313.30	9.87	-52.2	-53.2	15.4	0.00e+00	0	32	0	1094713344	70	4084
2026-01-02 13:14:34.62	313.47	9.85	-52.3	-53.3	15.3	0.00e+00	0	32	0	1097859072	70	4121
2026-01-02 13:14:35.63	313.64	9.82	-52.3	-53.3	15.3	0.00e+00	0	32	0	1101004800	70	4111
2026-01-02 13:14:36.62	313.81	9.79	-52.3	-53.3	15.3	0.00e+00	0	32	0	1104150528	70	4120
2026-01-02 13:14:37.62	313.98	9.77	-52.3	-53.3	15.3	0.00e+00	0	32	0	1107296256	70	4110
2026-01-02 13:14:38.61	314.14	9.74	-52.3	-53.3	15.3	0.00e+00	0	32	0	1110441984	70	4112
2026-01-02 13:14:39.61	314.31	9.71	-52.4	-53.4	15.2	0.00e+00	0	32	0	1113587712	70	4154
2026-01-02 13:14:40.61	314.48	9.69	-52.2	-53.1	15.3	0.00e+00	0	32	0	1116733440	70	4048
2026-01-02 13:14:41.60	314.65	9.66	-52.1	-53.1	15.3	0.00e+00	0	32	0	1119879168	70	4028
2026-01-02 13:14:42.60	314.81	9.63	-52.2	-53.2	15.2	0.00e+00	0	32	0	1123024896	70	4089
2026-01-02 13:14:43.60	314.98	9.61	-52.3	-53.3	15.2	0.00e+00	0	32	0	1126170624	70	4105
2026-01-02 13:14:44.59	315.14	9.58	-52.4	-53.4	15.2	0.00e+00	0	32	0	1129316352	70	4177
2026-01-02 13:14:45.58	315.31	9.55	-52.3	-53.3	15.3	0.00e+00	0	32	0	1132462080	70	4136
2026-01-02 13:14:46.58	315.47	9.52	-52.4	-53.4	15.2	0.00e+00	0	32	0	1135607808	70	4164
2026-01-02 13:14:47.58	315.64	9.49	-52.4	-53.4	15.2	0.00e+00	0	32	0	1138753536	70	4180
2026-01-02 13:14:48.57	315.80	9.47	-52.4	-53.4	15.2	0.00e+00	0	32	0	1141899264	70	4170
2026-01-02 13:14:49.57	315.97	9.44	-52.4	-53.4	15.2	0.00e+00	0	32	0	1145044992	70	4148
2026-01-02 13:14:50.57	316.13	9.41	-52.4	-53.3	15.3	0.00e+00	0	32	0	1148190720	70	4145
2026-01-02 13:14:51.57	316.30	9.38	-52.3	-53.3	15.3	0.00e+00	0	32	0	1151336448	70	4103
2026-01-02 13:14:52.57	316.46	9.35	-52.3	-53.2	15.3	0.00e+00	0	32	0	1154482176	70	4089
2026-01-02 13:14:53.57	316.62	9.32	-52.3	-53.3	15.3	0.00e+00	0	32	0	1157627904	70	4106
2026-01-02 13:14:54.56	316.79	9.29	-52.4	-53.4	15.3	0.00e+00	0	32	0	1160773632	70	4149
2026-01-02 13:14:55.55	316.95	9.26	-52.3	-53.3	15.3	0.00e+00	0	32	0	1163919360	70	4124
2026-01-02 13:14:56.55	317.11	9.23	-52.3	-53.3	15.3	0.00e+00	0	32	0	1167065088	70	4125
2026-01-02 13:14:57.54	317.27	9.20	-52.3	-53.3	15.2	0.00e+00	0	32	0	1170210816	70	4137
2026-01-02 13:14:58.53	317.43	9.17	-52.3	-53.3	15.3	0.00e+00	0	32	0	1173356544	70	4121
2026-01-02 13:14:59.52	317.59	9.14	-52.3	-53.3	15.3	0.00e+00	0	32	0	1176502272	70	4111
2026-01-02 13:15:00.52	317.75	9.11	-52.2	-53.2	15.3	0.00e+00	0	31	0	1179648000	70	4087
2026-01-02 13:15:01.52	317.91	9.08	-52.2	-53.3	15.3	0.00e+00	0	32	0	1182793728	70	4103
2026-01-02 13:15:02.52	318.07	9.05	-52.3	-53.3	15.2	0.00e+00	0	32	0	1184890880	70	4112
2026-01-02 13:15:03.51	318.23	9.02	-52.4	-53.4	15.2	0.00e+00	0	32	0	1188036608	70	4155
2026-01-02 13:15:04.52	318.39	8.99	-52.5	-53.5	15.2	0.00e+00	0	32	0	1191182336	70	4218
2026-01-02 13:15:05.52	318.55	8.96	-52.4	-53.5	15.2	0.00e+00	0	32	0	1194328064	70	4203
2026-01-02 13:15:06.51	318.71	8.93	-52.5	-53.5	15.2	0.00e+00	0	32	0	1197473792	70	4239
2026-01-02 13:15:07.50	318.87	8.90	-52.4	-53.4	15.2	0.00e+00	0	32	0	1200619520	70	4184
2026-01-02 13:15:08.49	319.03	8.86	-52.4	-53.4	15.2	0.00e+00	0	32	0	1203765248	70	4183
2026-01-02 13:15:09.49	319.18	8.83	-52.4	-53.4	15.1	0.00e+00	0	32	0	1206910976	70	4193
2026-01-02 13:15:10.49	319.34	8.80	-52.4	-53.4	15.2	0.00e+00	0	32	0	1210056704	70	4184
2026-01-02 13:15:11.50	319.50	8.77	-52.4	-53.4	15.2	0.00e+00	0	32	0	1213202432	70	4167
2026-01-02 13:15:12.49	319.66	8.74	-52.4	-53.4	15.2	0.00e+00	0	32	0	1216348160	70	4158
2026-01-02 13:15:13.49	319.81	8.70	-52.3	-53.3	15.2	0.00e+00	0	32	0	1219493888	70	4141
2026-01-02 13:15:14.48	319.97	8.67	-52.3	-53.3	15.2	0.00e+00	0	32	0	1222639616	70	4104
2026-01-02 13:15:15.48	320.13	8.64	-52.3	-53.3	15.2	0.00e+00	0	32	0	1225785344	70	4099
2026-01-02 13:15:16.48	320.28	8.61	-52.2	-53.3	15.1	0.00e+00	0	32	0	1228931072	70	4102
2026-01-02 13:15:17.48	320.44	8.57	-52.3	-53.3	15.2	0.00e+00	0	31	0	1232076800	70	4116
2026-01-02 13:15:18.48	320.59	8.54	-52.4	-53.4	15.1	0.00e+00	0	32	0	1235222528	70	4166
2026-01-02 13:15:19.48	320.75	8.51	-52.6	-53.6	15.0	0.00e+00	0	32	0	1238368256	70	4291
2026-01-02 13:15:20.47	320.90	8.47	-52.6	-53.7	15.0	0.00e+00	0	32	0	1241513984	70	4305
2026-01-02 13:15:21.47	321.05	8.44	-52.5	-53.6	15.0	0.00e+00	0	32	0	1244659712	70	4274
2026-01-02 13:15:22.47	321.21	8.41	-52.5	-53.6	15.0	0.00e+00	0	32	0	1247805440	70	4270
2026-01-02 13:15:23.47	321.36	8.37	-52.6	-53.7	15.0	0.00e+00	0	32	0	1250951168	70	4317
2026-01-02 13:15:24.46	321.51	8.34	-52.6	-53.7	15.0	0.00e+00	0	32	0	1254096896	70	4330
2026-01-02 13:15:25.46	321.67	8.31	-52.6	-53.7	15.0	0.00e+00	0	32	0	1257242624	70	4292
2026-01-02 13:15:26.46	321.82	8.27	-52.7	-53.8	14.9	0.00e+00	0	32	0	1260388352	70	4377
2026-01-02 13:15:27.45	321.97	8.24	-52.7	-53.9	14.9	0.00e+00	0	32	0	1263534080	70	4399
2026-01-02 13:15:28.45	322.12	8.20	-52.7	-53.8	15.0	0.00e+00	0	32	0	1266679808	70	4341
2026-01-02 13:15:29.44	322.27	8.17	-52.6	-53.7	15.0	0.00e+00	0	32	0	1269825536	70	4333
2026-01-02 13:15:30.44	322.42	8.14	-52.6	-53.6	14.9	0.00e+00	0	32	0	1272971264	70	4289
2026-01-02 13:15:31.44	322.57	8.10	-52.6	-53.7	14.9	0.00e+00	0	32	0	1276116992	70	4319
2026-01-02 13:15:32.45	322.73	8.07	-52.6	-53.7	15.0	0.00e+00	0	32	0	1279262720	70	4301
2026-01-02 13:15:33.45	322.88	8.03	-52.5	-53.6	15.1	0.00e+00	0	32	0	1282408448	70	4245
2026-01-02 13:15:34.45	323.03	8.00	-52.5	-53.6	15.0	0.00e+00	0	32	0	1285554176	70	4267
2026-01-02 13:15:35.43	323.17	7.96	-52.5	-53.5	15.1	0.00e+00	0	32	0	1288699904	70	4237
2026-01-02 13:15:36.43	323.32	7.93	-52.6	-53.7	15.0	0.00e+00	0	32	0	1291845632	70	4305
2026-01-02 13:15:37.42	323.47	7.89	-52.6	-53.7	15.0	0.00e+00	0	32	0	1294991360	70	4304
2026-01-02 13:15:38.42	323.62	7.85	-52.8	-53.9	14.9	0.00e+00	0	32	0	1297088512	70	4406
2026-01-02 13:15:39.41	323.76	7.82	-52.7	-53.9	14.9	0.00e+00	0	32	0	1300234240	70	4395
2026-01-02 13:15:40.40	323.91	7.78	-52.8	-53.9	14.9	0.00e+00	0	32	0	1303379968	70	4418
2026-01-02 13:15:41.40	324.06	7.75	-52.7	-53.8	14.9	0.00e+00	0	32	0	1306525696	70	4381
2026-01-02 13:15:42.40	324.20	7.71	-52.8	-53.9	14.9	0.00e+00	0	32	0	1309671424	70	4402
2026-01-02 13:15:43.38	324.35	7.68	-52.8	-53.9	14.9	0.00e+00	0	32	0	1312817152	70	4441
2026-01-02 13:15:44.38	324.49	7.64	-52.8	-54.0	14.8	0.00e+00	0	32	0	1315962880	70	4458
2026-01-02 13:15:45.38	324.64	7.60	-52.9	-54.1	14.8	0.00e+00	0	32	0	1319108608	71	4264
2026-01-02 13:15:46.37	324.78	7.57	-52.9	-54.1	14.9	0.00e+00	0	32	0	1322254336	71	4255
2026-01-02 13:15:47.37	324.93	7.53	-53.0	-54.2	14.8	0.00e+00	0	32	0	1325400064	71	4293
2026-01-02 13:15:48.37	325.07	7.50	-52.9	-54.0	14.9	0.00e+00	0	32	0	1328545792	71	4223
2026-01-02 13:15:49.36	325.22	7.46	-52.9	-54.1	14.8	0.00e+00	0	32	0	1331691520	71	4258
2026-01-02 13:15:50.36	325.36	7.42	-52.9	-54.1	14.8	0.00e+00	0	32	0	1334837248	71	4262
2026-01-02 13:15:51.35	325.50	7.39	-52.8	-54.0	14.9	0.00e+00	0	32	0	1337982976	71	4208
2026-01-02 13:15:52.35	325.65	7.35	-52.8	-53.9	14.9	0.00e+00	0	32	0	1341128704	71	4185
2026-01-02 13:15:53.34	325.79	7.31	-52.7	-53.9	14.9	0.00e+00	0	32	0	1344274432	71	4155
2026-01-02 13:15:54.34	325.93	7.27	-52.7	-53.9	14.9	0.00e+00	0	32	0	1347420160	71	4146
2026-01-02 13:15:55.33	326.07	7.24	-52.8	-54.0	14.9	0.00e+00	0	32	0	1350565888	71	4201
2026-01-02 13:15:56.33	326.22	7.20	-52.8	-53.9	14.9	0.00e+00	0	32	0	1353711616	71	4181
2026-01-02 13:15:57.32	326.36	7.16	-52.9	-54.0	14.8	0.00e+00	0	32	0	1356857344	71	4240
2026-01-02 13:15:58.32	326.50	7.13	-52.9	-54.0	14.9	0.00e+00	0	32	0	1360003072	71	4227
2026-01-02 13:15:59.31	326.64	7.09	-52.9	-54.0	14.9	0.00e+00	0	32	0	1363148800	71	4221
2026-01-02 13:16:00.30	326.78	7.05	-52.8	-53.9	14.9	0.00e+00	0	32	0	1366294528	71	4188
2026-01-02 13:16:01.30	326.92	7.01	-53.0	-54.1	14.8	0.00e+00	0	32	0	1369440256	71	4282
2026-01-02 13:16:02.30	327.06	6.98	-52.9	-54.1	14.8	0.00e+00	0	32	0	1372585984	71	4267
2026-01-02 13:16:03.30	327.20	6.94	-53.1	-54.3	14.7	0.00e+00	0	32	0	1375731712	71	4366
2026-01-02 13:16:04.30	327.34	6.90	-53.2	-54.4	14.6	0.00e+00	0	32	0	1378877440	71	4431
2026-01-02 13:16:05.29	327.47	6.86	-53.2	-54.4	14.6	0.00e+00	0	32	0	1382023168	71	4438
2026-01-02 13:16:06.28	327.61	6.82	-53.1	-54.4	14.7	0.00e+00	0	32	0	1384120320	71	4394
2026-01-02 13:16:07.27	327.75	6.79	-53.2	-54.4	14.6	0.00e+00	0	32	0	1387266048	71	4423
2026-01-02 13:16:08.26	327.88	6.75	-53.2	-54.4	14.7	0.00e+00	0	32	0	1390411776	71	4409
2026-01-02 13:16:09.24	328.02	6.71	-53.1	-54.4	14.6	0.00e+00	0	32	0	1393557504	71	4394
2026-01-02 13:16:10.24	328.16	6.67	-53.1	-54.3	14.6	0.00e+00	0	32	0	1396703232	71	4382
2026-01-02 13:16:11.24	328.29	6.63	-53.1	-54.3	14.6	0.00e+00	0	32	0	1399848960	71	4360
2026-01-02 13:16:12.23	328.43	6.59	-53.1	-54.3	14.7	0.00e+00	0	32	0	1402994688	71	4362
2026-01-02 13:16:13.24	328.57	6.56	-53.1	-54.3	14.7	0.00e+00	0	32	0	1406140416	71	4356
2026-01-02 13:16:14.24	328.70	6.52	-53.0	-54.2	14.7	0.00e+00	0	32	0	1409286144	71	4315
2026-01-02 13:16:15.23	328.84	6.48	-53.1	-54.3	14.7	0.00e+00	0	32	0	1412431872	71	4360
2026-01-02 13:16:16.22	328.97	6.44	-53.1	-54.3	14.6	0.00e+00	0	32	0	1415577600	71	4367
2026-01-02 13:16:17.22	329.10	6.40	-53.1	-54.3	14.6	0.00e+00	0	32	0	1418723328	71	4365
2026-01-02 13:16:18.21	329.24	6.36	-53.1	-54.4	14.6	0.00e+00	0	31	0	1421869056	71	4403
2026-01-02 13:16:19.21	329.37	6.32	-53.0	-54.2	14.7	0.00e+00	0	32	0	1425014784	71	4311
2026-01-02 13:16:20.21	329.51	6.28	-53.2	-54.5	14.6	0.00e+00	0	32	0	1428160512	71	4459
2026-01-02 13:16:21.21	329.64	6.24	-53.3	-54.6	14.6	0.00e+00	0	32	0	1431306240	71	4496
2026-01-02 13:16:22.20	329.77	6.20	-53.2	-54.5	14.6	0.00e+00	0	32	0	1434451968	71	4469
2026-01-02 13:16:23.19	329.90	6.17	-53.1	-54.4	14.6	0.00e+00	0	32	0	1437597696	71	4406
2026-01-02 13:16:24.19	330.03	6.13	-53.2	-54.5	14.6	0.00e+00	0	32	0	1440743424	71	4446
2026-01-02 13:16:25.19	330.17	6.09	-53.1	-54.4	14.6	0.00e+00	0	32	0	1443889152	71	4402
2026-01-02 13:16:26.19	330.30	6.05	-53.2	-54.4	14.6	0.00e+00	0	31	0	1447034880	71	4439
2026-01-02 13:16:27.18	330.43	6.01	-53.2	-54.5	14.5	0.00e+00	0	32	0	1450180608	71	4480
2026-01-02 13:16:28.19	330.56	5.97	-53.3	-54.6	14.5	0.00e+00	0	32	0	1453326336	71	4506
2026-01-02 13:16:29.18	330.69	5.93	-53.2	-54.4	14.6	0.00e+00	0	32	0	1456472064	71	4414
2026-01-02 13:16:30.17	330.82	5.89	-53.2	-54.4	14.6	0.00e+00	0	32	0	1459617792	71	4422
2026-01-02 13:16:31.17	330.95	5.85	-53.1	-54.4	14.6	0.00e+00	0	32	0	1462763520	71	4414
2026-01-02 13:16:32.17	331.08	5.81	-53.1	-54.3	14.7	0.00e+00	0	32	0	1465909248	71	4372
2026-01-02 13:16:33.16	331.21	5.77	-53.2	-54.5	14.5	0.00e+00	0	32	0	1469054976	71	4456
2026-01-02 13:16:34.15	331.33	5.73	-53.2	-54.4	14.6	0.00e+00	0	32	0	1472200704	71	4426
2026-01-02 13:16:35.15	331.46	5.69	-53.1	-54.3	14.6	0.00e+00	0	32	0	1475346432	71	4388
2026-01-02 13:16:36.15	331.59	5.65	-53.0	-54.2	14.7	0.00e+00	0	32	0	1478492160	71	4320
2026-01-02 13:16:37.14	331.72	5.61	-53.2	-54.5	14.6	0.00e+00	0	32	0	1481637888	71	4450
2026-01-02 13:16:38.13	331.84	5.57	-53.1	-54.3	14.6	0.00e+00	0	32	0	1483735040	71	4362
2026-01-02 13:16:39.13	331.97	5.53	-53.1	-54.4	14.6	0.00e+00	0	32	0	1486880768	71	4405
2026-01-02 13:16:40.12	332.10	5.49	-53.1	-54.3	14.6	0.00e+00	0	32	0	1490026496	71	4361
2026-01-02 13:16:41.12	332.22	5.45	-53.2	-54.4	14.5	0.00e+00	0	32	0	1493172224	71	4441
2026-01-02 13:16:42.12	332.35	5.41	-53.2	-54.5	14.5	0.00e+00	0	32	0	1496317952	71	4462
2026-01-02 13:16:43.11	332.47	5.37	-53.2	-54.5	14.5	0.00e+00	0	32	0	1499463680	71	4456
2026-01-02 13:16:44.10	332.60	5.33	-53.2	-54.5	14.5	0.00e+00	0	32	0	1502609408	71	4478
2026-01-02 13:16:45.10	332.72	5.29	-53.3	-54.6	14.4	0.00e+00	0	32	0	1505755136	71	4533
2026-01-02 13:16:46.09	332.85	5.25	-53.3	-54.6	14.5	0.00e+00	0	32	0	1508900864	72	4266
2026-01-02 13:16:47.09	332.97	5.20	-53.5	-54.9	14.2	0.00e+00	0	32	0	1512046592	72	4425
2026-01-02 13:16:48.09	333.10	5.16	-53.6	-54.9	14.3	0.00e+00	0	32	0	1515192320	72	4441
2026-01-02 13:16:49.09	333.22	5.12	-53.5	-54.9	14.3	0.00e+00	0	32	0	1518338048	72	4412
2026-01-02 13:16:50.09	333.34	5.08	-53.4	-54.8	14.3	0.00e+00	0	32	0	1521483776	72	4377
2026-01-02 13:16:51.09	333.47	5.04	-53.5	-54.9	14.3	0.00e+00	0	32	0	1524629504	72	4415
2026-01-02 13:16:52.09	333.59	5.00	-53.3	-54.6	14.5	0.00e+00	0	32	0	1527775232	72	4264
2026-01-02 13:16:53.10	333.71	4.96	-60.2	-71.6	3.9	2.94e-01	0	32	104	1530920960	85	14255
2026-01-02 13:16:54.10	333.84	4.92	-60.9	-74.2	3.8	1.49e+00	0	32	104	1530920960	87	17227
2026-01-02 13:16:55.10	333.96	4.88	-61.3	-74.6	3.8	1.49e+00	0	32	104	1530920960	87	18070
2026-01-02 13:16:56.10	334.08	4.83	-61.6	-74.9	3.8	1.49e+00	0	32	104	1530920960	88	17571
2026-01-02 13:16:57.11	334.20	4.79	-61.8	-75.1	3.8	1.49e+00	0	32	104	1530920960	88	18000
2026-01-02 13:16:58.10	334.32	4.75	-61.9	-75.3	3.8	1.49e+00	0	32	104	1530920960	89	17332
2026-01-02 13:16:59.10	334.44	4.71	-62.0	-75.4	3.8	1.49e+00	0	32	104	1530920960	89	17560
2026-01-02 13:17:00.10	334.56	4.67	-62.1	-75.5	3.8	1.49e+00	0	32	104	1530920960	89	17778
2026-01-02 13:17:01.09	334.68	4.63	-62.2	-75.6	3.8	1.49e+00	0	32	104	1530920960	89	17933
2026-01-02 13:17:02.10	334.80	4.59	-62.3	-75.6	3.8	1.49e+00	0	32	104	1530920960	89	17953
2026-01-02 13:17:03.10	334.92	4.54	-62.3	-75.7	3.8	1.49e+00	0	32	104	1530920960	89	18162
2026-01-02 13:17:04.10	335.04	4.50	-62.4	-75.7	3.8	1.49e+00	0	32	104	1530920960	89	18210
2026-01-02 13:17:05.09	335.16	4.46	-62.4	-75.8	3.8	1.49e+00	0	32	104	1530920960	89	18316
2026-01-02 13:17:06.09	335.28	4.42	-62.4	-75.8	3.8	1.49e+00	0	32	104	1530920960	90	17427
2026-01-02 13:17:07.09	335.40	4.38	-62.5	-75.8	3.8	1.49e+00	0	32	104	1530920960	90	17439
2026-01-02 13:17:08.08	335.51	4.34	-62.5	-75.9	3.8	1.49e+00	0	32	104	1530920960	90	17489
2026-01-02 13:17:09.08	335.63	4.30	-62.5	-75.9	3.8	1.49e+00	0	32	104	1530920960	90	17489
2026-01-02 13:17:10.07	335.75	4.25	-62.5	-75.9	3.8	1.49e+00	0	32	104	1530920960	90	17563
2026-01-02 13:17:11.06	335.86	4.21	-62.5	-75.9	3.8	1.49e+00	0	32	104	1530920960	90	17565
2026-01-02 13:17:12.06	335.98	4.17	-62.5	-75.9	3.8	1.49e+00	0	32	104	1530920960	90	17576
2026-01-02 13:17:13.06	336.09	4.13	-62.5	-75.9	3.8	1.49e+00	0	32	104	1530920960	90	17579
2026-01-02 13:17:14.06	336.21	4.09	-62.5	-75.9	3.8	1.49e+00	0	32	104	1530920960	90	17619
2026-01-02 13:17:15.06	336.32	4.05	-62.5	-75.8	3.8	1.49e+00	0	32	104	1530920960	90	17475
2026-01-02 13:17:16.05	336.44	4.00	-62.4	-75.8	3.8	1.49e+00	0	32	104	1530920960	90	17414
2026-01-02 13:17:17.04	336.55	3.96	-62.4	-75.8	3.8	1.49e+00	0	32	104	1530920960	90	17382
2026-01-02 13:17:18.04	336.67	3.92	-62.4	-75.8	3.8	1.49e+00	0	32	104	1530920960	90	17376
2026-01-02 13:17:19.03	336.78	3.88	-62.4	-75.8	3.8	1.49e+00	0	32	104	1530920960	90	17286
2026-01-02 13:17:20.02	336.89	3.84	-62.4	-75.7	3.8	1.49e+00	0	32	104	1530920960	90	17265
2026-01-02 13:17:21.00	337.00	3.80	-62.4	-75.7	3.8	1.49e+00	0	32	104	1530920960	90	17249
2026-01-02 13:17:21.99	337.12	3.76	-62.4	-75.7	3.8	1.49e+00	0	32	104	1530920960	90	17222
2026-01-02 13:17:22.98	337.23	3.71	-62.3	-75.7	3.8	1.49e+00	0	32	104	1530920960	90	17217
2026-01-02 13:17:23.96	337.34	3.67	-62.3	-75.7	3.8	1.49e+00	0	32	104	1530920960	90	17163
2026-01-02 13:17:24.96	337.45	3.63	-62.3	-75.7	3.8	1.49e+00	0	32	104	1530920960	90	17187
2026-01-02 13:17:25.95	337.56	3.59	-62.3	-75.7	3.8	1.49e+00	0	32	104	1530920960	90	17143
2026-01-02 13:17:26.94	337.67	3.55	-62.3	-75.7	3.8	1.49e+00	0	32	104	1530920960	90	17115
2026-01-02 13:17:27.94	337.78	3.50	-62.3	-75.7	3.8	1.49e+00	0	32	104	1530920960	90	17141
2026-01-02 13:17:28.94	337.90	3.46	-62.3	-75.7	3.8	1.49e+00	0	32	104	1530920960	90	17094
2026-01-02 13:17:29.94	338.01	3.42	-62.2	-75.6	3.8	1.49e+00	0	32	104	1530920960	90	17006
2026-01-02 13:17:30.94	338.12	3.38	-62.3	-75.6	3.8	1.49e+00	0	32	104	1530920960	90	17027
2026-01-02 13:17:31.94	338.23	3.34	-62.2	-75.6	3.8	1.49e+00	0	32	104	1530920960	90	17060
2026-01-02 13:17:32.93	338.34	3.29	-62.2	-75.6	3.8	1.49e+00	0	32	104	1530920960	90	17044
2026-01-02 13:17:33.93	338.45	3.25	-62.2	-75.6	3.8	1.49e+00	0	32	104	1530920960	90	17017
2026-01-02 13:17:34.93	338.56	3.21	-62.2	-75.6	3.8	1.49e+00	0	32	104	1530920960	90	17020
2026-01-02 13:17:35.92	338.66	3.17	-62.2	-75.6	3.8	1.49e+00	0	32	104	1530920960	90	16951
2026-01-02 13:17:36.90	338.77	3.13	-62.2	-75.6	3.8	1.49e+00	0	32	104	1530920960	90	16962
2026-01-02 13:17:37.89	338.88	3.08	-62.2	-75.6	3.8	1.49e+00	0	32	104	1530920960	90	16944
2026-01-02 13:17:38.89	338.99	3.04	-62.2	-75.6	3.8	1.49e+00	0	32	104	1530920960	90	16947
2026-01-02 13:17:39.88	339.09	3.00	-62.2	-75.6	3.8	1.49e+00	0	32	104	1530920960	90	16904
2026-01-02 13:17:40.88	339.20	2.96	-62.2	-75.6	3.8	1.49e+00	0	32	104	1530920960	90	16917
2026-01-02 13:17:41.88	339.31	2.91	-62.2	-75.5	3.8	1.49e+00	0	32	104	1530920960	90	16874
2026-01-02 13:17:42.88	339.41	2.87	-62.2	-75.5	3.8	1.49e+00	0	32	104	1530920960	90	16878
2026-01-02 13:17:43.88	339.52	2.83	-62.2	-75.6	3.8	1.49e+00	0	32	104	1530920960	90	16914
2026-01-02 13:17:44.87	339.63	2.79	-62.2	-75.5	3.8	1.49e+00	0	32	104	1530920960	90	16877
2026-01-02 13:17:45.87	339.73	2.75	-62.2	-75.5	3.8	1.49e+00	0	32	104	1530920960	90	16853
2026-01-02 13:17:46.88	339.84	2.70	-62.2	-75.5	3.8	1.49e+00	0	32	104	1530920960	90	16873
2026-01-02 13:17:47.87	339.94	2.66	-62.2	-75.5	3.8	1.49e+00	0	32	104	1530920960	90	16811
2026-01-02 13:17:48.88	340.05	2.62	-62.2	-75.5	3.8	1.49e+00	0	32	104	1530920960	90	16812
2026-01-02 13:17:49.87	340.16	2.58	-62.1	-75.5	3.8	1.49e+00	0	32	104	1530920960	90	16821
2026-01-02 13:17:50.87	340.26	2.53	-62.1	-75.5	3.8	1.49e+00	0	32	104	1530920960	90	16848
2026-01-02 13:17:51.88	340.37	2.49	-62.1	-75.5	3.8	1.49e+00	0	32	104	1530920960	90	16834
2026-01-02 13:17:52.88	340.47	2.45	-62.1	-75.5	3.8	1.49e+00	0	32	104	1530920960	90	16882
2026-01-02 13:17:53.88	340.57	2.40	-62.1	-75.5	3.8	1.49e+00	0	32	104	1530920960	90	16786
2026-01-02 13:17:54.89	340.68	2.36	-62.1	-75.5	3.8	1.49e+00	0	32	104	1530920960	90	16738
2026-01-02 13:17:55.89	340.78	2.32	-62.1	-75.5	3.8	1.49e+00	0	32	104	1530920960	90	16751
2026-01-02 13:17:56.89	340.88	2.28	-62.1	-75.5	3.8	1.49e+00	0	32	104	1530920960	90	16729
2026-01-02 13:17:57.89	340.99	2.23	-62.1	-75.5	3.8	1.49e+00	0	32	104	1530920960	90	16746
2026-01-02 13:17:58.89	341.09	2.19	-62.1	-75.5	3.8	1.49e+00	0	32	104	1530920960	90	16743
2026-01-02 13:17:59.89	341.19	2.15	-62.1	-75.5	3.8	1.49e+00	0	32	104	1530920960	90	16705
2026-01-02 13:18:00.89	341.29	2.11	-62.1	-75.5	3.8	1.49e+00	0	32	104	1530920960	90	16718
2026-01-02 13:18:01.89	341.40	2.06	-62.1	-75.5	3.8	1.49e+00	0	32	104	1530920960	90	16706
2026-01-02 13:18:02.89	341.50	2.02	-62.1	-75.5	3.8	1.49e+00	0	32	104	1530920960	90	16751
2026-01-02 13:18:03.89	341.60	1.98	-62.1	-75.5	3.8	1.49e+00	0	32	104	1530920960	90	16732
2026-01-02 13:18:04.89	341.70	1.94	-62.1	-75.5	3.8	1.49e+00	0	32	104	1530920960	90	16721

#Closed at: 2026-01-02 13:18:05
#Recorded file [1530 MB]: D:/lorett/data/31004_260102_160733.dat