passes_logs/2026/01/02/R3.2S_Murmansk/R3.2S_Murmansk__20260102_035006_AQUA_rec.log

#Pass ID: 20260102_035006_AQUA
#Satellite: AQUA
#Configuration: AQUA
#almurnet v.1.7.20251203
#Start time: 2026-01-02 03:50:08

#Version: 2.2.20231116
#Station: R3.2S_Murmansk
#Location: 33.079688 lon 68.888172 lat
#TLE: 1 27424U 02022A   25365.92641127  .00002078  00000+0  42628-3 0  9999
#TLE: 2 27424  98.4058 327.1196 0001962  94.7781 340.6230 14.61783896258835

#Time	Az	El	Level	Level2	SNR	BER	BlckErr	Temp	State	Recorded	gain1	gain2
2026-01-02 03:50:08.22	29.37	2.09	-54.6	-73.9	3.8	7.46e-01	0	31	0	0	77	34442
2026-01-02 03:50:09.22	29.33	2.15	-54.6	-74.0	3.8	7.42e-01	0	32	104	0	77	34530
2026-01-02 03:50:10.23	29.29	2.22	-54.6	-74.0	3.8	7.49e-01	0	32	104	0	77	34535
2026-01-02 03:50:11.22	29.25	2.28	-54.6	-74.0	3.8	7.47e-01	0	31	104	0	77	34602
2026-01-02 03:50:12.20	29.21	2.34	-54.6	-74.0	3.8	7.45e-01	0	31	104	0	76	36653
2026-01-02 03:50:13.20	29.17	2.41	-54.6	-74.0	3.8	7.47e-01	0	31	104	0	77	34529
2026-01-02 03:50:14.20	29.12	2.47	-54.6	-74.0	3.8	7.48e-01	0	32	104	0	77	34550
2026-01-02 03:50:15.20	29.08	2.54	-54.6	-74.0	3.8	7.48e-01	0	32	104	0	77	34519
2026-01-02 03:50:16.21	29.04	2.60	-54.6	-74.0	3.8	7.43e-01	0	32	104	0	77	34536
2026-01-02 03:50:17.20	28.99	2.67	-54.6	-74.0	3.8	7.43e-01	0	32	104	0	77	34584
2026-01-02 03:50:18.20	28.95	2.73	-54.6	-74.0	3.8	7.48e-01	0	32	104	0	77	34611
2026-01-02 03:50:19.19	28.91	2.80	-54.6	-74.0	3.8	7.49e-01	0	32	104	0	77	34568
2026-01-02 03:50:20.19	28.86	2.86	-54.5	-74.0	3.8	7.48e-01	0	32	104	0	77	34599
2026-01-02 03:50:21.19	28.82	2.93	-54.6	-74.0	3.9	7.48e-01	0	32	104	0	77	34612
2026-01-02 03:50:22.19	28.77	2.99	-54.6	-74.0	3.8	7.44e-01	0	32	104	0	77	34562
2026-01-02 03:50:23.19	28.73	3.06	-54.6	-74.4	3.7	7.48e-01	0	32	104	0	77	36297
2026-01-02 03:50:24.20	28.68	3.13	-54.6	-74.0	3.8	7.48e-01	0	32	104	0	77	34491
2026-01-02 03:50:25.20	28.64	3.19	-54.6	-73.9	3.8	7.45e-01	0	32	104	0	77	34468
2026-01-02 03:50:26.20	28.59	3.26	-54.6	-73.9	3.8	7.47e-01	0	32	104	0	76	36506
2026-01-02 03:50:27.20	28.55	3.33	-54.6	-73.9	3.8	7.42e-01	0	32	104	0	77	34384
2026-01-02 03:50:28.20	28.50	3.39	-54.6	-73.9	3.8	7.46e-01	0	32	104	0	77	34356
2026-01-02 03:50:29.20	28.46	3.46	-54.6	-73.9	3.8	7.47e-01	0	32	104	0	77	34366
2026-01-02 03:50:30.20	28.41	3.53	-54.6	-73.9	3.8	7.46e-01	0	32	104	0	77	34333
2026-01-02 03:50:31.19	28.36	3.59	-54.6	-73.9	3.8	7.45e-01	0	32	104	0	77	34353
2026-01-02 03:50:32.19	28.32	3.66	-54.6	-73.9	3.8	7.46e-01	0	32	104	0	77	34430
2026-01-02 03:50:33.20	28.27	3.73	-54.6	-73.9	3.8	7.42e-01	0	32	104	0	77	34480
2026-01-02 03:50:34.20	28.22	3.80	-54.6	-73.9	3.8	7.47e-01	0	32	104	0	77	34441
2026-01-02 03:50:35.21	28.17	3.87	-54.6	-73.9	3.8	7.48e-01	0	32	104	0	77	34353
2026-01-02 03:50:36.21	28.13	3.94	-54.6	-73.9	3.8	7.43e-01	0	32	104	0	77	34280
2026-01-02 03:50:37.21	28.08	4.00	-54.6	-73.9	3.8	7.45e-01	0	32	104	0	77	34339
2026-01-02 03:50:38.21	28.03	4.07	-54.6	-73.9	3.8	7.48e-01	0	32	104	0	77	34365
2026-01-02 03:50:39.21	27.98	4.14	-54.6	-73.9	3.8	7.44e-01	0	32	104	0	77	34383
2026-01-02 03:50:40.21	27.93	4.21	-54.6	-73.9	3.8	7.47e-01	0	32	104	0	77	34418
2026-01-02 03:50:41.22	27.88	4.28	-54.6	-74.0	3.8	7.43e-01	0	32	104	0	77	34515
2026-01-02 03:50:42.22	27.83	4.35	-54.6	-73.9	3.8	7.45e-01	0	32	104	0	77	34414
2026-01-02 03:50:43.23	27.78	4.42	-54.6	-74.0	3.8	7.44e-01	0	32	104	0	77	34481
2026-01-02 03:50:44.23	27.73	4.49	-54.6	-74.0	3.8	7.49e-01	0	32	104	0	77	34535
2026-01-02 03:50:45.23	27.68	4.56	-54.6	-73.9	3.8	7.48e-01	0	32	104	0	77	34457
2026-01-02 03:50:46.23	27.63	4.63	-54.6	-74.0	3.8	7.40e-01	0	32	104	0	77	34833
2026-01-02 03:50:47.23	27.58	4.70	-54.6	-74.0	3.8	7.44e-01	0	32	104	0	77	34555
2026-01-02 03:50:48.22	27.53	4.77	-54.6	-74.0	3.8	7.48e-01	0	32	104	0	77	34548
2026-01-02 03:50:49.22	27.48	4.84	-54.6	-74.0	3.8	7.39e-01	0	32	104	0	77	34500
2026-01-02 03:50:50.22	27.42	4.91	-54.6	-73.9	3.8	7.44e-01	0	32	104	0	77	34401
2026-01-02 03:50:51.22	27.37	4.98	-54.6	-73.9	3.8	7.48e-01	0	32	104	0	77	34472
2026-01-02 03:50:52.22	27.32	5.05	-54.6	-73.9	3.8	7.48e-01	0	32	104	0	77	34445
2026-01-02 03:50:53.22	27.27	5.12	-54.6	-73.9	3.8	7.46e-01	0	32	104	0	77	34425
2026-01-02 03:50:54.22	27.21	5.19	-54.6	-73.9	3.8	7.45e-01	0	32	104	0	77	34365
2026-01-02 03:50:55.22	27.16	5.27	-54.6	-73.9	3.8	7.45e-01	0	32	104	0	77	34447
2026-01-02 03:50:56.21	27.11	5.34	-54.6	-74.0	3.8	7.48e-01	0	32	104	0	77	34490
2026-01-02 03:50:57.22	27.05	5.41	-54.6	-74.0	3.8	7.47e-01	0	32	104	0	77	34509
2026-01-02 03:50:58.22	27.00	5.48	-54.6	-73.9	3.8	7.47e-01	0	32	104	0	77	34408
2026-01-02 03:50:59.22	26.94	5.55	-54.6	-73.9	3.8	7.47e-01	0	32	104	0	77	34475
2026-01-02 03:51:00.23	26.89	5.63	-54.6	-73.9	3.8	7.45e-01	0	32	104	0	77	34441
2026-01-02 03:51:01.23	26.83	5.70	-54.6	-73.9	3.8	7.44e-01	0	32	104	0	77	34470
2026-01-02 03:51:02.22	26.78	5.77	-54.6	-73.9	3.8	7.42e-01	0	32	104	0	77	34475
2026-01-02 03:51:03.22	26.72	5.85	-54.6	-73.9	3.8	7.44e-01	0	32	104	0	77	34477
2026-01-02 03:51:04.22	26.67	5.92	-54.6	-73.9	3.8	7.45e-01	0	32	104	0	77	34462
2026-01-02 03:51:05.22	26.61	5.99	-54.6	-74.0	3.8	7.46e-01	0	32	104	0	77	34559
2026-01-02 03:51:06.22	26.55	6.07	-54.6	-74.0	3.8	7.45e-01	0	32	104	0	77	34520
2026-01-02 03:51:07.22	26.50	6.14	-54.6	-73.9	3.8	7.47e-01	0	32	104	0	77	34381
2026-01-02 03:51:08.19	26.44	6.21	-54.6	-74.0	3.8	7.45e-01	0	32	104	0	77	34513
2026-01-02 03:51:09.19	26.38	6.29	-54.6	-74.0	3.8	7.46e-01	0	32	104	0	77	34492
2026-01-02 03:51:10.20	26.32	6.36	-54.6	-74.0	3.8	7.45e-01	0	32	104	0	77	34484
2026-01-02 03:51:11.18	26.27	6.44	-54.6	-74.0	3.8	7.45e-01	0	32	104	0	77	34536
2026-01-02 03:51:12.18	26.21	6.51	-54.5	-73.7	3.8	7.48e-01	0	32	104	0	76	35652
2026-01-02 03:51:13.18	26.15	6.59	-54.6	-74.0	3.8	7.48e-01	0	32	104	0	77	34502
2026-01-02 03:51:14.17	26.09	6.66	-54.6	-74.0	3.8	7.46e-01	0	32	104	0	77	34522
2026-01-02 03:51:15.17	26.03	6.74	-54.6	-74.0	3.8	7.45e-01	0	32	104	0	77	34587
2026-01-02 03:51:16.17	25.97	6.81	-54.6	-74.0	3.8	7.44e-01	0	32	104	0	77	34538
2026-01-02 03:51:17.17	25.91	6.89	-54.6	-74.0	3.8	7.48e-01	0	32	104	0	77	34543
2026-01-02 03:51:18.16	25.85	6.96	-54.6	-74.0	3.8	7.48e-01	0	32	104	0	77	34598
2026-01-02 03:51:19.16	25.79	7.04	-54.6	-74.0	3.8	7.47e-01	0	32	104	0	77	34553
2026-01-02 03:51:20.15	25.72	7.12	-54.6	-74.0	3.8	7.42e-01	0	32	104	0	77	34569
2026-01-02 03:51:21.15	25.66	7.19	-54.6	-74.0	3.8	7.46e-01	0	32	104	0	77	34540
2026-01-02 03:51:22.15	25.60	7.27	-54.6	-74.0	3.8	7.44e-01	0	32	104	0	77	34500
2026-01-02 03:51:23.16	25.54	7.35	-54.6	-73.9	3.8	7.45e-01	0	32	104	0	77	34469
2026-01-02 03:51:24.15	25.47	7.43	-54.6	-74.0	3.8	7.46e-01	0	32	104	0	77	34497
2026-01-02 03:51:25.15	25.41	7.50	-54.6	-74.0	3.8	7.46e-01	0	32	104	0	77	34493
2026-01-02 03:51:26.14	25.35	7.58	-54.6	-74.0	3.8	7.49e-01	0	32	104	0	77	34487
2026-01-02 03:51:27.14	25.28	7.66	-54.6	-74.0	3.8	7.46e-01	0	32	104	0	77	34550
2026-01-02 03:51:28.13	25.22	7.74	-54.6	-74.0	3.8	7.48e-01	0	32	104	0	77	34499
2026-01-02 03:51:29.14	25.15	7.82	-54.6	-74.0	3.8	7.47e-01	0	33	104	0	77	34546
2026-01-02 03:51:30.14	25.08	7.90	-54.6	-74.0	3.8	7.46e-01	0	32	104	0	77	34612
2026-01-02 03:51:31.14	25.02	7.98	-54.6	-74.0	3.8	7.44e-01	0	32	104	0	77	34576
2026-01-02 03:51:32.13	24.95	8.06	-54.6	-74.0	3.8	7.45e-01	0	32	104	0	77	34539
2026-01-02 03:51:33.13	24.89	8.14	-54.6	-74.0	3.8	7.46e-01	0	32	104	0	77	34494
2026-01-02 03:51:34.13	24.82	8.22	-54.6	-74.0	3.8	7.45e-01	0	32	104	0	77	34501
2026-01-02 03:51:35.14	24.75	8.30	-54.6	-73.9	3.8	7.44e-01	0	32	104	0	77	34472
2026-01-02 03:51:36.14	24.68	8.38	-54.6	-74.0	3.8	7.44e-01	0	32	104	0	77	34511
2026-01-02 03:51:37.14	24.61	8.46	-54.6	-74.0	3.8	7.49e-01	0	32	104	0	77	34538
2026-01-02 03:51:38.14	24.54	8.54	-54.6	-73.9	3.8	7.44e-01	0	32	104	0	77	34466
2026-01-02 03:51:39.14	24.47	8.62	-54.6	-74.0	3.8	7.45e-01	0	32	104	0	77	34505
2026-01-02 03:51:40.13	24.40	8.70	-54.6	-74.0	3.8	7.47e-01	0	32	104	0	77	34495
2026-01-02 03:51:41.14	24.33	8.78	-54.6	-74.0	3.7	7.44e-01	0	32	104	0	77	34743
2026-01-02 03:51:42.13	24.26	8.87	-54.6	-74.0	3.8	7.47e-01	0	32	104	0	77	34553
2026-01-02 03:51:43.13	24.19	8.95	-54.6	-74.0	3.8	7.47e-01	0	32	104	0	77	34539
2026-01-02 03:51:44.13	24.12	9.03	-54.6	-74.0	3.8	7.47e-01	0	32	104	0	77	34512
2026-01-02 03:51:45.14	24.05	9.11	-54.6	-74.0	3.8	7.49e-01	0	32	104	0	77	34556
2026-01-02 03:51:46.14	23.97	9.20	-54.6	-74.0	3.8	7.47e-01	0	32	104	0	77	34573
2026-01-02 03:51:47.13	23.90	9.28	-54.6	-73.9	3.8	7.44e-01	0	32	104	0	77	34463
2026-01-02 03:51:48.13	23.83	9.36	-54.6	-74.0	3.8	7.47e-01	0	32	104	0	77	34579
2026-01-02 03:51:49.13	23.75	9.45	-54.6	-74.0	3.8	7.45e-01	0	32	104	0	77	34518
2026-01-02 03:51:50.13	23.68	9.53	-54.6	-73.9	3.8	7.48e-01	0	32	104	0	77	34479
2026-01-02 03:51:51.12	23.60	9.62	-54.6	-74.0	3.8	7.45e-01	0	32	104	0	77	34500
2026-01-02 03:51:52.13	23.53	9.70	-54.6	-73.9	3.8	7.43e-01	0	32	104	0	77	34472
2026-01-02 03:51:53.13	23.45	9.79	-54.6	-74.0	3.8	7.45e-01	0	32	104	0	77	34500
2026-01-02 03:51:54.13	23.37	9.87	-54.6	-74.0	3.8	7.48e-01	0	32	104	0	77	34530
2026-01-02 03:51:55.13	23.30	9.96	-54.6	-74.0	3.8	7.47e-01	0	32	104	0	77	34516
2026-01-02 03:51:56.13	23.22	10.04	-54.6	-74.0	3.8	7.45e-01	0	32	104	0	77	34596
2026-01-02 03:51:57.13	23.14	10.13	-54.6	-74.0	3.8	7.48e-01	0	33	104	0	77	34583
2026-01-02 03:51:58.12	23.06	10.22	-54.6	-74.0	3.8	7.48e-01	0	32	104	0	77	34621
2026-01-02 03:51:59.12	22.98	10.30	-54.6	-74.0	3.8	7.45e-01	0	33	104	0	77	34612
2026-01-02 03:52:00.12	22.90	10.39	-54.6	-74.0	3.8	7.45e-01	0	32	104	0	77	34686
2026-01-02 03:52:01.12	22.82	10.48	-54.6	-74.0	3.8	7.47e-01	0	32	104	0	77	34614
2026-01-02 03:52:02.12	22.74	10.56	-54.6	-74.0	3.8	7.45e-01	0	32	104	0	77	34587
2026-01-02 03:52:03.12	22.66	10.65	-54.6	-74.0	3.8	7.45e-01	0	32	104	0	77	34616
2026-01-02 03:52:04.11	22.58	10.74	-54.6	-74.0	3.8	7.47e-01	0	32	104	0	77	34651
2026-01-02 03:52:05.11	22.50	10.83	-54.6	-74.0	3.8	7.49e-01	0	32	104	0	77	34602
2026-01-02 03:52:06.12	22.41	10.92	-54.6	-74.0	3.8	7.46e-01	0	32	104	0	77	34656
2026-01-02 03:52:07.12	22.33	11.01	-54.6	-74.0	3.7	7.46e-01	0	32	104	0	77	34733
2026-01-02 03:52:08.12	22.24	11.10	-54.6	-74.0	3.8	7.47e-01	0	32	104	0	77	34680
2026-01-02 03:52:09.12	22.16	11.19	-54.6	-74.0	3.8	7.47e-01	0	32	104	0	77	34722
2026-01-02 03:52:10.12	22.07	11.28	-54.6	-74.0	3.8	7.45e-01	0	32	104	0	77	34607
2026-01-02 03:52:11.11	21.99	11.36	-54.7	-74.0	3.8	7.47e-01	0	32	104	0	77	34670
2026-01-02 03:52:12.11	21.90	11.46	-54.6	-74.0	3.8	7.45e-01	0	32	104	0	77	34650
2026-01-02 03:52:13.10	21.81	11.55	-54.6	-74.0	3.8	7.47e-01	0	32	104	0	77	34587
2026-01-02 03:52:14.10	21.73	11.64	-54.6	-74.0	3.8	7.45e-01	0	32	104	0	77	34665
2026-01-02 03:52:15.11	21.64	11.73	-54.6	-74.0	3.8	7.46e-01	0	32	104	0	77	34633
2026-01-02 03:52:16.11	21.55	11.82	-54.6	-74.0	3.8	7.48e-01	0	32	104	0	77	34649
2026-01-02 03:52:17.11	21.46	11.91	-54.6	-74.0	3.8	7.47e-01	0	32	104	0	77	34627
2026-01-02 03:52:18.10	21.37	12.00	-54.6	-74.0	3.8	7.48e-01	0	32	104	0	77	34668
2026-01-02 03:52:19.10	21.28	12.10	-54.7	-74.0	3.8	7.46e-01	0	33	104	0	77	34694
2026-01-02 03:52:20.09	21.19	12.19	-54.6	-74.0	3.8	7.48e-01	0	33	104	0	77	34619
2026-01-02 03:52:21.09	21.09	12.28	-54.6	-74.0	3.8	7.45e-01	0	32	104	0	77	34624
2026-01-02 03:52:22.09	21.00	12.38	-54.7	-74.0	3.8	7.49e-01	0	32	104	0	77	34754
2026-01-02 03:52:23.09	20.91	12.47	-54.6	-74.0	3.8	7.47e-01	0	33	104	0	77	34606
2026-01-02 03:52:24.08	20.81	12.56	-54.7	-74.0	3.8	7.45e-01	0	33	104	0	77	34728
2026-01-02 03:52:25.08	20.72	12.66	-54.6	-74.0	3.8	7.46e-01	0	33	104	0	77	34648
2026-01-02 03:52:26.08	20.62	12.75	-54.6	-74.0	3.8	7.48e-01	0	32	104	0	77	34616
2026-01-02 03:52:27.08	20.53	12.85	-54.6	-74.0	3.8	7.47e-01	0	32	104	0	77	34678
2026-01-02 03:52:28.08	20.43	12.95	-54.6	-74.0	3.8	7.45e-01	0	32	104	0	77	34687
2026-01-02 03:52:29.08	20.33	13.04	-54.6	-74.0	3.8	7.50e-01	0	32	104	0	77	34613
2026-01-02 03:52:30.08	20.23	13.14	-54.6	-74.0	3.8	7.48e-01	0	32	104	0	77	34615
2026-01-02 03:52:31.08	20.13	13.24	-54.6	-74.0	3.8	7.45e-01	0	32	104	0	77	34667
2026-01-02 03:52:32.08	20.03	13.33	-54.7	-74.0	3.8	7.46e-01	0	32	104	0	77	34642
2026-01-02 03:52:33.09	19.93	13.43	-54.6	-74.0	3.7	7.43e-01	0	32	104	0	77	34846
2026-01-02 03:52:34.09	19.83	13.53	-54.6	-74.0	3.8	7.46e-01	0	32	104	0	77	34538
2026-01-02 03:52:35.09	19.73	13.63	-54.6	-74.0	3.8	7.48e-01	0	32	104	0	77	34616
2026-01-02 03:52:36.10	19.63	13.73	-54.6	-74.0	3.8	7.47e-01	0	32	104	0	77	34649
2026-01-02 03:52:37.09	19.52	13.82	-54.6	-74.0	3.8	7.43e-01	0	33	104	0	77	34639
2026-01-02 03:52:38.09	19.42	13.92	-54.7	-74.0	3.8	7.44e-01	0	32	104	0	77	34658
2026-01-02 03:52:39.09	19.31	14.02	-54.6	-74.0	3.8	7.47e-01	0	32	104	0	77	34568
2026-01-02 03:52:40.09	19.21	14.12	-54.6	-74.0	3.8	7.42e-01	0	33	104	0	77	34560
2026-01-02 03:52:41.09	19.10	14.22	-54.6	-74.0	3.8	7.46e-01	0	32	104	0	77	34583
2026-01-02 03:52:42.09	18.99	14.32	-54.6	-74.0	3.8	7.46e-01	0	32	104	0	77	34671
2026-01-02 03:52:43.09	18.88	14.43	-54.6	-74.0	3.8	7.48e-01	0	33	104	0	77	34723
2026-01-02 03:52:44.09	18.77	14.53	-54.7	-74.0	3.8	7.47e-01	0	33	104	0	77	34561
2026-01-02 03:52:45.10	18.66	14.63	-54.7	-74.0	3.8	7.46e-01	0	32	104	0	77	34660
2026-01-02 03:52:46.09	18.55	14.73	-54.7	-74.0	3.8	7.46e-01	0	33	104	0	77	34620
2026-01-02 03:52:47.09	18.44	14.83	-54.7	-74.0	3.8	7.48e-01	0	32	104	0	77	34659
2026-01-02 03:52:48.08	18.33	14.94	-54.7	-74.0	3.8	7.46e-01	0	33	104	0	77	34673
2026-01-02 03:52:49.08	18.22	15.04	-54.7	-74.0	3.8	7.47e-01	0	32	104	0	77	34698
2026-01-02 03:52:50.08	18.10	15.14	-54.7	-74.0	3.8	7.48e-01	0	33	104	0	77	34737
2026-01-02 03:52:51.08	17.99	15.25	-54.7	-74.0	3.8	7.47e-01	0	32	104	0	77	34695
2026-01-02 03:52:52.08	17.87	15.35	-54.7	-74.0	3.8	7.45e-01	0	33	104	0	77	34754
2026-01-02 03:52:53.08	17.75	15.46	-54.6	-74.0	3.8	7.45e-01	0	33	104	0	77	34638
2026-01-02 03:52:54.08	17.64	15.56	-54.7	-74.0	3.8	7.46e-01	0	33	104	0	77	34650
2026-01-02 03:52:55.08	17.52	15.67	-54.6	-74.0	3.8	7.43e-01	0	32	104	0	77	34644
2026-01-02 03:52:56.08	17.40	15.77	-54.6	-74.0	3.8	7.46e-01	0	33	104	0	77	34624
2026-01-02 03:52:57.08	17.28	15.88	-54.7	-74.0	3.8	7.45e-01	0	32	104	0	77	34691
2026-01-02 03:52:58.08	17.15	15.99	-54.6	-74.0	3.8	7.49e-01	0	33	104	0	77	34673
2026-01-02 03:52:59.08	17.03	16.09	-54.7	-74.0	3.8	7.46e-01	0	33	104	0	77	34744
2026-01-02 03:53:00.08	16.91	16.20	-54.7	-74.0	3.8	7.45e-01	0	33	104	0	77	34699
2026-01-02 03:53:01.08	16.78	16.31	-54.7	-74.0	3.8	7.45e-01	0	33	104	0	77	34711
2026-01-02 03:53:02.08	16.66	16.42	-54.6	-74.0	3.8	7.48e-01	0	33	104	0	77	34685
2026-01-02 03:53:03.08	16.53	16.52	-54.7	-74.0	3.8	7.45e-01	0	33	104	0	77	34730
2026-01-02 03:53:04.08	16.40	16.63	-54.7	-74.0	3.8	7.45e-01	0	33	104	0	77	34655
2026-01-02 03:53:05.08	16.28	16.74	-54.7	-74.0	3.8	7.49e-01	0	33	104	0	77	34673
2026-01-02 03:53:06.09	16.15	16.85	-54.6	-74.0	3.8	7.43e-01	0	32	104	0	77	34722
2026-01-02 03:53:07.09	16.01	16.96	-54.6	-74.0	3.8	7.45e-01	0	33	104	0	77	34665
2026-01-02 03:53:08.08	15.88	17.07	-54.6	-74.0	3.8	7.51e-01	0	33	104	0	77	34555
2026-01-02 03:53:09.08	15.75	17.18	-54.6	-74.0	3.8	7.48e-01	0	33	104	0	77	34684
2026-01-02 03:53:10.08	15.62	17.30	-54.7	-74.0	3.8	7.47e-01	0	33	104	0	77	34616
2026-01-02 03:53:11.08	15.48	17.41	-54.7	-74.0	3.8	7.45e-01	0	33	104	0	77	34676
2026-01-02 03:53:12.08	15.35	17.52	-54.6	-74.0	3.8	7.48e-01	0	33	104	0	77	34666
2026-01-02 03:53:13.08	15.21	17.63	-54.6	-74.0	3.8	7.45e-01	0	32	104	0	77	34682
2026-01-02 03:53:14.07	15.07	17.74	-54.6	-74.0	3.8	7.42e-01	0	33	104	0	77	34709
2026-01-02 03:53:15.07	14.93	17.86	-54.7	-74.0	3.8	7.45e-01	0	33	104	0	77	34737
2026-01-02 03:53:16.05	14.80	17.97	-54.6	-74.0	3.8	7.47e-01	0	33	104	0	77	34683
2026-01-02 03:53:17.05	14.65	18.08	-54.7	-74.0	3.8	7.49e-01	0	33	104	0	77	34736
2026-01-02 03:53:18.04	14.51	18.20	-54.7	-74.0	3.8	7.43e-01	0	33	104	0	77	34715
2026-01-02 03:53:19.03	14.37	18.31	-54.6	-74.0	3.8	7.49e-01	0	33	104	0	77	34701
2026-01-02 03:53:20.02	14.23	18.43	-54.7	-74.0	3.8	7.47e-01	0	33	104	0	77	34607
2026-01-02 03:53:21.02	14.08	18.54	-54.7	-74.0	3.8	7.47e-01	0	33	104	0	77	34724
2026-01-02 03:53:22.02	13.93	18.66	-54.6	-74.0	3.8	7.48e-01	0	32	104	0	77	34670
2026-01-02 03:53:23.02	13.78	18.77	-54.6	-74.0	3.8	7.44e-01	0	32	104	0	77	34622
2026-01-02 03:53:24.00	13.64	18.89	-54.6	-74.0	3.8	7.47e-01	0	33	104	0	77	34670
2026-01-02 03:53:25.01	13.48	19.01	-54.6	-74.1	3.8	7.42e-01	0	33	104	0	77	34903
2026-01-02 03:53:26.01	13.33	19.13	-54.7	-74.0	3.8	7.45e-01	0	33	104	0	77	34680
2026-01-02 03:53:27.01	13.18	19.24	-54.7	-74.0	3.8	7.43e-01	0	33	104	0	77	34722
2026-01-02 03:53:28.00	13.03	19.36	-54.6	-74.0	3.8	7.47e-01	0	32	104	0	77	34628
2026-01-02 03:53:29.00	12.87	19.48	-54.6	-74.0	3.8	7.43e-01	0	33	104	0	77	34668
2026-01-02 03:53:29.99	12.71	19.60	-54.7	-74.0	3.8	7.47e-01	0	33	104	0	77	34695
2026-01-02 03:53:31.00	12.55	19.72	-54.7	-74.0	3.8	7.44e-01	0	33	104	0	77	34731
2026-01-02 03:53:32.00	12.39	19.84	-54.7	-74.0	3.8	7.45e-01	0	33	104	0	77	34750
2026-01-02 03:53:33.00	12.23	19.96	-54.7	-74.0	3.8	7.47e-01	0	33	104	0	77	34690
2026-01-02 03:53:33.99	12.07	20.08	-54.6	-74.0	3.8	7.47e-01	0	32	104	0	77	34668
2026-01-02 03:53:34.98	11.91	20.20	-54.6	-74.0	3.8	7.46e-01	0	33	104	0	77	34664
2026-01-02 03:53:35.98	11.74	20.32	-54.7	-74.0	3.8	7.49e-01	0	33	104	0	77	34677
2026-01-02 03:53:36.98	11.57	20.45	-54.7	-74.0	3.8	7.47e-01	0	33	104	0	77	34689
2026-01-02 03:53:37.99	11.40	20.57	-54.7	-74.0	3.8	7.47e-01	0	33	104	0	77	34752
2026-01-02 03:53:38.99	11.23	20.69	-54.7	-74.0	3.8	7.47e-01	0	33	104	0	77	34635
2026-01-02 03:53:39.99	11.06	20.82	-54.7	-74.0	3.8	7.45e-01	0	33	104	0	77	34747
2026-01-02 03:53:40.99	10.89	20.94	-54.7	-74.0	3.8	7.47e-01	0	33	104	0	77	34687
2026-01-02 03:53:42.00	10.71	21.07	-54.7	-74.0	3.8	7.46e-01	0	32	104	0	77	34759
2026-01-02 03:53:43.00	10.53	21.19	-54.7	-74.0	3.8	7.43e-01	0	33	104	0	77	34730
2026-01-02 03:53:44.00	10.36	21.32	-54.7	-74.0	3.8	7.46e-01	0	33	104	0	77	34703
2026-01-02 03:53:44.99	10.18	21.44	-54.7	-74.0	3.8	7.43e-01	0	32	104	0	77	34710
2026-01-02 03:53:45.99	10.00	21.57	-54.7	-74.0	3.8	7.44e-01	0	33	104	0	77	34684
2026-01-02 03:53:46.99	9.82	21.69	-54.7	-74.0	3.8	7.47e-01	0	33	104	0	77	34712
2026-01-02 03:53:47.99	9.63	21.82	-54.7	-74.0	3.8	7.44e-01	0	33	104	0	77	34689
2026-01-02 03:53:48.99	9.45	21.95	-54.7	-74.0	3.8	7.43e-01	0	33	104	0	77	34715
2026-01-02 03:53:49.99	9.26	22.08	-54.7	-74.0	3.8	7.45e-01	0	33	104	0	77	34654
2026-01-02 03:53:50.99	9.07	22.20	-54.7	-74.0	3.8	7.44e-01	0	33	104	0	77	34831
2026-01-02 03:53:51.99	8.88	22.33	-54.6	-74.0	3.8	7.46e-01	0	32	104	0	77	34727
2026-01-02 03:53:52.98	8.69	22.46	-54.7	-74.0	3.8	7.46e-01	0	33	104	0	77	34712
2026-01-02 03:53:53.98	8.50	22.59	-54.7	-74.0	3.8	7.49e-01	0	33	104	0	77	34707
2026-01-02 03:53:54.98	8.30	22.72	-54.7	-74.0	3.8	7.45e-01	0	32	104	0	77	34785
2026-01-02 03:53:55.97	8.10	22.85	-54.7	-74.0	3.8	7.49e-01	0	33	104	0	77	34708
2026-01-02 03:53:56.97	7.91	22.98	-54.7	-74.0	3.8	7.46e-01	0	33	104	0	77	34704
2026-01-02 03:53:57.97	7.70	23.11	-54.7	-74.0	3.8	7.46e-01	0	33	104	0	77	34715
2026-01-02 03:53:58.98	7.50	23.24	-54.7	-74.0	3.8	7.43e-01	0	33	104	0	77	34708
2026-01-02 03:53:59.98	7.30	23.37	-54.6	-74.0	3.8	7.49e-01	0	33	104	0	77	34617
2026-01-02 03:54:00.97	7.09	23.50	-54.7	-74.0	3.8	7.50e-01	0	33	104	0	77	34661
2026-01-02 03:54:01.98	6.88	23.63	-54.7	-74.0	3.8	7.47e-01	0	32	104	0	77	34738
2026-01-02 03:54:02.98	6.67	23.77	-54.7	-74.0	3.8	7.48e-01	0	33	104	0	77	34732
2026-01-02 03:54:03.98	6.46	23.90	-54.7	-74.0	3.8	7.43e-01	0	33	104	0	77	34711
2026-01-02 03:54:04.98	6.24	24.03	-54.6	-74.0	3.8	7.48e-01	0	32	104	0	77	34718
2026-01-02 03:54:05.98	6.03	24.16	-54.6	-74.0	3.8	7.47e-01	0	33	104	0	77	34712
2026-01-02 03:54:06.98	5.81	24.30	-54.7	-74.0	3.8	7.46e-01	0	32	104	0	77	34711
2026-01-02 03:54:07.98	5.59	24.43	-54.7	-74.0	3.8	7.49e-01	0	33	104	0	77	34702
2026-01-02 03:54:08.97	5.37	24.56	-54.7	-74.0	3.8	7.45e-01	0	32	104	0	77	34659
2026-01-02 03:54:09.96	5.15	24.70	-54.7	-74.0	3.8	7.46e-01	0	32	104	0	77	34705
2026-01-02 03:54:10.95	4.93	24.83	-54.7	-74.0	3.8	7.46e-01	0	33	104	0	77	34700
2026-01-02 03:54:11.96	4.70	24.97	-54.7	-74.0	3.8	7.43e-01	0	32	104	0	77	34722
2026-01-02 03:54:12.96	4.47	25.10	-54.7	-74.0	3.8	7.49e-01	0	33	104	0	77	34731
2026-01-02 03:54:13.95	4.24	25.23	-54.7	-74.0	3.8	7.47e-01	0	33	104	0	77	34787
2026-01-02 03:54:14.95	4.00	25.37	-54.7	-74.0	3.8	7.45e-01	0	33	104	0	77	34666
2026-01-02 03:54:15.95	3.77	25.51	-54.7	-74.0	3.8	7.46e-01	0	33	104	0	77	34727
2026-01-02 03:54:16.95	3.53	25.64	-54.6	-74.1	3.8	7.45e-01	0	33	104	0	77	35030
2026-01-02 03:54:17.94	3.29	25.78	-54.7	-74.0	3.8	7.45e-01	0	33	104	0	77	34663
2026-01-02 03:54:18.93	3.05	25.91	-54.7	-74.0	3.8	7.45e-01	0	33	104	0	77	34750
2026-01-02 03:54:19.93	2.81	26.05	-54.7	-74.0	3.8	7.46e-01	0	33	104	0	77	34698
2026-01-02 03:54:20.92	2.56	26.18	-54.7	-74.0	3.8	7.46e-01	0	32	104	0	77	34758
2026-01-02 03:54:21.92	2.31	26.32	-54.7	-74.0	3.8	7.46e-01	0	33	104	0	77	34714
2026-01-02 03:54:22.92	2.06	26.46	-54.7	-74.0	3.8	7.47e-01	0	32	104	0	77	34660
2026-01-02 03:54:23.91	1.81	26.59	-54.7	-74.0	3.8	7.45e-01	0	33	104	0	77	34702
2026-01-02 03:54:24.91	1.55	26.73	-54.7	-74.0	3.8	7.44e-01	0	33	104	0	77	34778
2026-01-02 03:54:25.91	1.29	26.87	-54.7	-74.0	3.8	7.46e-01	0	33	104	0	77	34730
2026-01-02 03:54:26.91	1.03	27.01	-54.7	-74.0	3.8	7.46e-01	0	32	104	0	77	34730
2026-01-02 03:54:27.90	0.77	27.14	-54.7	-74.0	3.8	7.49e-01	0	33	104	0	77	34693
2026-01-02 03:54:28.90	0.51	27.28	-54.7	-74.0	3.8	7.44e-01	0	33	104	0	77	34692
2026-01-02 03:54:29.89	0.24	27.42	-54.7	-74.0	3.8	7.47e-01	0	33	104	0	77	34681
2026-01-02 03:54:30.89	359.97	27.56	-54.7	-74.0	3.8	7.47e-01	0	33	104	0	77	34677
2026-01-02 03:54:31.89	359.70	27.69	-54.7	-74.0	3.8	7.47e-01	0	33	104	0	77	34812
2026-01-02 03:54:32.89	359.42	27.83	-54.7	-74.0	3.8	7.43e-01	0	33	104	0	77	34743
2026-01-02 03:54:33.88	359.15	27.97	-54.7	-74.0	3.8	7.47e-01	0	32	104	0	77	34776
2026-01-02 03:54:34.89	358.86	28.11	-54.7	-74.0	3.8	7.48e-01	0	33	104	0	77	34816
2026-01-02 03:54:35.89	358.58	28.25	-54.7	-74.0	3.8	7.46e-01	0	32	104	0	77	34670
2026-01-02 03:54:36.89	358.30	28.38	-54.7	-74.0	3.8	7.43e-01	0	33	104	0	77	34812
2026-01-02 03:54:37.89	358.01	28.52	-54.7	-74.0	3.8	7.46e-01	0	32	104	0	77	34811
2026-01-02 03:54:38.89	357.72	28.66	-54.7	-74.0	3.8	7.46e-01	0	33	104	0	77	34755
2026-01-02 03:54:39.90	357.42	28.80	-54.7	-74.0	3.8	7.44e-01	0	33	104	0	77	34668
2026-01-02 03:54:40.90	357.12	28.94	-54.7	-74.0	3.8	7.47e-01	0	32	104	0	77	34730
2026-01-02 03:54:41.90	356.83	29.08	-54.7	-74.0	3.8	7.47e-01	0	32	104	0	77	34732
2026-01-02 03:54:42.91	356.52	29.21	-54.7	-74.1	3.7	7.39e-01	0	32	104	0	77	34965
2026-01-02 03:54:43.91	356.22	29.35	-54.7	-74.0	3.8	7.44e-01	0	33	104	0	77	34676
2026-01-02 03:54:44.91	355.91	29.49	-54.7	-74.0	3.8	7.45e-01	0	33	104	0	77	34658
2026-01-02 03:54:45.92	355.60	29.63	-54.7	-74.0	3.8	7.46e-01	0	33	104	0	77	34782
2026-01-02 03:54:46.92	355.29	29.76	-54.7	-74.0	3.8	7.42e-01	0	33	104	0	77	34714
2026-01-02 03:54:47.92	354.97	29.90	-54.6	-74.0	3.8	7.42e-01	0	33	104	0	77	34671
2026-01-02 03:54:48.91	354.66	30.04	-54.7	-74.0	3.8	7.47e-01	0	32	104	0	77	34681
2026-01-02 03:54:49.91	354.33	30.17	-54.7	-74.0	3.8	7.47e-01	0	33	104	0	77	34668
2026-01-02 03:54:50.91	354.01	30.31	-54.7	-74.0	3.8	7.45e-01	0	33	104	0	77	34739
2026-01-02 03:54:51.92	353.68	30.44	-54.7	-74.0	3.8	7.46e-01	0	33	104	0	77	34781
2026-01-02 03:54:52.92	353.35	30.58	-54.7	-74.0	3.8	7.46e-01	0	33	104	0	77	34692
2026-01-02 03:54:53.92	353.02	30.71	-54.7	-74.0	3.8	7.47e-01	0	33	104	0	77	34721
2026-01-02 03:54:54.91	352.69	30.85	-54.7	-74.0	3.8	7.42e-01	0	32	104	0	77	34745
2026-01-02 03:54:55.91	352.35	30.98	-54.7	-74.0	3.8	7.45e-01	0	33	104	0	77	34644
2026-01-02 03:54:56.91	352.01	31.12	-54.7	-74.0	3.8	7.42e-01	0	33	104	0	77	34729
2026-01-02 03:54:57.90	351.67	31.25	-54.7	-74.0	3.8	7.44e-01	0	33	104	0	77	34862
2026-01-02 03:54:58.90	351.32	31.38	-54.7	-74.0	3.8	7.44e-01	0	32	104	0	77	34671
2026-01-02 03:54:59.90	350.97	31.51	-54.7	-74.0	3.8	7.46e-01	0	32	104	0	77	34676
2026-01-02 03:55:00.91	350.62	31.64	-54.7	-74.0	3.8	7.48e-01	0	33	104	0	77	34742
2026-01-02 03:55:01.91	350.26	31.77	-54.7	-74.0	3.8	7.49e-01	0	33	104	0	77	34671
2026-01-02 03:55:02.90	349.91	31.90	-54.6	-74.0	3.8	7.45e-01	0	33	104	0	77	34688
2026-01-02 03:55:03.90	349.54	32.03	-54.7	-74.0	3.8	7.47e-01	0	33	104	0	77	34724
2026-01-02 03:55:04.91	349.18	32.16	-54.7	-74.0	3.8	7.49e-01	0	33	104	0	77	34754
2026-01-02 03:55:05.90	348.81	32.29	-54.4	-74.0	3.8	7.44e-01	0	32	104	0	77	34654
2026-01-02 03:55:06.90	348.44	32.42	-54.7	-74.0	3.8	7.50e-01	0	32	104	0	77	34687
2026-01-02 03:55:07.91	348.06	32.55	-54.7	-74.0	3.8	7.47e-01	0	33	104	0	77	34669
2026-01-02 03:55:08.91	347.69	32.67	-54.7	-74.0	3.9	7.43e-01	0	33	104	0	77	34806
2026-01-02 03:55:09.90	347.31	32.80	-54.7	-74.0	3.8	7.49e-01	0	33	104	0	77	34772
2026-01-02 03:55:10.90	346.93	32.92	-54.7	-74.0	3.8	7.45e-01	0	33	104	0	77	34725
2026-01-02 03:55:11.90	346.54	33.04	-54.7	-74.0	3.8	7.47e-01	0	33	104	0	77	34629
2026-01-02 03:55:12.90	346.15	33.17	-54.7	-74.0	3.8	7.46e-01	0	33	104	0	77	34737
2026-01-02 03:55:13.90	345.76	33.29	-54.7	-74.0	3.8	7.44e-01	0	33	104	0	77	34762
2026-01-02 03:55:14.90	345.37	33.41	-54.7	-74.0	3.8	7.47e-01	0	33	104	0	77	34749
2026-01-02 03:55:15.89	344.97	33.53	-54.7	-74.0	3.8	7.48e-01	0	33	104	0	77	34669
2026-01-02 03:55:16.88	344.58	33.64	-54.6	-74.0	3.8	7.44e-01	0	33	104	0	77	34633
2026-01-02 03:55:17.88	344.17	33.76	-54.7	-74.0	3.8	7.43e-01	0	33	104	0	77	34729
2026-01-02 03:55:18.88	343.76	33.88	-54.7	-74.0	3.8	7.42e-01	0	32	104	0	77	34700
2026-01-02 03:55:19.87	343.36	33.99	-54.7	-74.0	3.8	7.48e-01	0	33	104	0	77	34712
2026-01-02 03:55:20.87	342.95	34.10	-54.6	-74.0	3.8	7.45e-01	0	33	104	0	77	34659
2026-01-02 03:55:21.87	342.53	34.22	-54.7	-74.0	3.8	7.45e-01	0	33	104	0	77	34663
2026-01-02 03:55:22.86	342.12	34.33	-54.7	-74.0	3.8	7.43e-01	0	33	104	0	77	34669
2026-01-02 03:55:23.87	341.69	34.44	-54.7	-74.0	3.8	7.45e-01	0	33	104	0	77	34757
2026-01-02 03:55:24.86	341.27	34.55	-54.7	-74.0	3.8	7.46e-01	0	32	104	0	77	34760
2026-01-02 03:55:25.86	340.84	34.65	-54.7	-74.0	3.8	7.48e-01	0	33	104	0	77	34676
2026-01-02 03:55:26.86	340.41	34.76	-54.7	-74.0	3.9	7.44e-01	0	32	104	0	77	34777
2026-01-02 03:55:27.86	339.98	34.86	-54.6	-74.0	3.8	7.45e-01	0	33	104	0	77	34753
2026-01-02 03:55:28.86	339.54	34.97	-54.7	-74.0	3.8	7.44e-01	0	32	104	0	77	34683
2026-01-02 03:55:29.85	339.11	35.07	-54.7	-74.0	3.8	7.43e-01	0	32	104	0	77	34653
2026-01-02 03:55:30.86	338.66	35.17	-54.6	-74.0	3.8	7.47e-01	0	33	104	0	77	34609
2026-01-02 03:55:31.86	338.22	35.27	-54.6	-74.0	3.8	7.45e-01	0	33	104	0	77	34718
2026-01-02 03:55:32.85	337.77	35.36	-54.7	-74.0	3.8	7.45e-01	0	33	104	0	77	34769
2026-01-02 03:55:33.85	337.32	35.46	-54.7	-74.0	3.8	7.44e-01	0	33	104	0	77	34790
2026-01-02 03:55:34.84	336.87	35.55	-54.7	-74.1	3.9	7.44e-01	0	33	104	0	77	35077
2026-01-02 03:55:35.85	336.41	35.64	-54.7	-74.0	3.8	7.47e-01	0	33	104	0	77	34684
2026-01-02 03:55:36.85	335.96	35.73	-54.7	-74.0	3.8	7.46e-01	0	33	104	0	77	34713
2026-01-02 03:55:37.85	335.50	35.82	-54.7	-74.0	3.8	7.44e-01	0	32	104	0	77	34716
2026-01-02 03:55:38.85	335.03	35.91	-54.7	-74.0	3.8	7.46e-01	0	32	104	0	77	34645
2026-01-02 03:55:39.85	334.57	35.99	-54.7	-74.0	3.8	7.47e-01	0	33	104	0	77	34716
2026-01-02 03:55:40.85	334.10	36.07	-54.7	-74.0	3.8	7.47e-01	0	33	104	0	77	34726
2026-01-02 03:55:41.85	333.63	36.15	-54.7	-74.0	3.8	7.44e-01	0	33	104	0	77	34733
2026-01-02 03:55:42.85	333.15	36.23	-54.7	-74.0	3.8	7.48e-01	0	33	104	0	77	34717
2026-01-02 03:55:43.85	332.68	36.31	-54.7	-74.0	3.8	7.45e-01	0	33	104	0	77	34649
2026-01-02 03:55:44.86	332.20	36.39	-54.7	-74.0	3.8	7.47e-01	0	33	104	0	77	34690
2026-01-02 03:55:45.86	331.72	36.46	-54.7	-74.0	3.8	7.46e-01	0	33	104	0	77	34693
2026-01-02 03:55:46.87	331.23	36.53	-54.7	-74.0	3.8	7.46e-01	0	33	104	0	77	34696
2026-01-02 03:55:47.87	330.74	36.60	-54.7	-74.0	3.8	7.46e-01	0	33	104	0	77	34768
2026-01-02 03:55:48.87	330.26	36.66	-54.7	-74.0	3.8	7.46e-01	0	33	104	0	77	34700
2026-01-02 03:55:49.87	329.77	36.73	-54.7	-74.0	3.8	7.47e-01	0	33	104	0	77	34694
2026-01-02 03:55:50.88	329.27	36.79	-54.7	-74.0	3.8	7.46e-01	0	33	104	0	77	34640
2026-01-02 03:55:51.87	328.79	36.85	-54.7	-74.0	3.8	7.48e-01	0	33	104	0	77	34729
2026-01-02 03:55:52.87	328.29	36.91	-54.7	-74.0	3.8	7.50e-01	0	33	104	0	77	34737
2026-01-02 03:55:53.88	327.79	36.96	-54.7	-74.0	3.8	7.44e-01	0	33	104	0	77	34781
2026-01-02 03:55:54.88	327.29	37.02	-54.7	-74.0	3.8	7.47e-01	0	33	104	0	77	34748
2026-01-02 03:55:55.88	326.80	37.07	-54.7	-74.0	3.8	7.50e-01	0	33	104	0	77	34673
2026-01-02 03:55:56.88	326.30	37.11	-54.7	-74.0	3.8	7.48e-01	0	33	104	0	77	34744
2026-01-02 03:55:57.88	325.79	37.16	-54.6	-73.7	3.8	7.46e-01	0	33	104	0	76	35553
2026-01-02 03:55:58.88	325.29	37.20	-54.7	-74.0	3.8	7.47e-01	0	33	104	0	77	34745
2026-01-02 03:55:59.87	324.79	37.24	-54.7	-74.0	3.8	7.43e-01	0	33	104	0	77	34674
2026-01-02 03:56:00.87	324.28	37.28	-54.7	-74.0	3.8	7.50e-01	0	33	104	0	77	34724
2026-01-02 03:56:01.87	323.78	37.32	-54.6	-74.0	3.8	7.43e-01	0	33	104	0	77	34714
2026-01-02 03:56:02.87	323.27	37.35	-54.7	-74.0	3.8	7.47e-01	0	33	104	0	77	34712
2026-01-02 03:56:03.87	322.76	37.38	-54.7	-74.0	3.8	7.50e-01	0	33	104	0	77	34731
2026-01-02 03:56:04.86	322.25	37.41	-54.7	-74.0	3.8	7.48e-01	0	33	104	0	77	34705
2026-01-02 03:56:05.87	321.74	37.44	-54.7	-74.0	3.8	7.45e-01	0	33	104	0	77	34763
2026-01-02 03:56:06.87	321.22	37.46	-54.7	-74.0	3.8	7.45e-01	0	33	104	0	77	34711
2026-01-02 03:56:07.87	320.71	37.48	-54.7	-74.0	3.8	7.45e-01	0	33	104	0	77	34719
2026-01-02 03:56:08.87	320.20	37.50	-54.7	-74.0	3.8	7.45e-01	0	33	104	0	77	34753
2026-01-02 03:56:09.87	319.68	37.51	-54.7	-74.0	3.8	7.45e-01	0	33	104	0	77	34690
2026-01-02 03:56:10.87	319.17	37.53	-54.7	-74.0	3.8	7.47e-01	0	33	104	0	77	34760
2026-01-02 03:56:11.87	318.65	37.54	-54.7	-74.0	3.8	7.47e-01	0	33	104	0	77	34713
2026-01-02 03:56:12.86	318.14	37.55	-54.7	-74.0	3.8	7.45e-01	0	33	104	0	77	34718
2026-01-02 03:56:13.87	317.62	37.55	-54.7	-74.0	3.8	7.45e-01	0	33	104	0	77	34684
2026-01-02 03:56:14.86	317.11	37.55	-54.7	-74.0	3.8	7.45e-01	0	33	104	0	77	34665
2026-01-02 03:56:15.86	316.60	37.55	-54.7	-74.0	3.8	7.45e-01	0	33	104	0	77	34716
2026-01-02 03:56:16.85	316.09	37.55	-54.7	-74.0	3.8	7.47e-01	0	33	104	0	77	34725
2026-01-02 03:56:17.86	315.56	37.55	-54.7	-74.0	3.8	7.46e-01	0	33	104	0	77	34669
2026-01-02 03:56:18.86	315.05	37.54	-54.7	-74.0	3.8	7.44e-01	0	33	104	0	77	34749
2026-01-02 03:56:19.86	314.53	37.53	-54.7	-74.0	3.8	7.43e-01	0	33	104	0	77	34751
2026-01-02 03:56:20.86	314.02	37.52	-54.7	-74.0	3.8	7.48e-01	0	33	104	0	77	34764
2026-01-02 03:56:21.85	313.51	37.50	-54.7	-74.0	3.8	7.46e-01	0	33	104	0	77	34732
2026-01-02 03:56:22.85	313.00	37.48	-54.7	-74.0	3.8	7.47e-01	0	33	104	0	77	34644
2026-01-02 03:56:23.84	312.49	37.46	-54.7	-74.0	3.8	7.47e-01	0	33	104	0	77	34717
2026-01-02 03:56:24.84	311.98	37.44	-54.7	-74.0	3.8	7.46e-01	0	33	104	0	77	34790
2026-01-02 03:56:25.83	311.47	37.41	-54.7	-74.0	3.8	7.47e-01	0	33	104	0	77	34690
2026-01-02 03:56:26.82	310.96	37.39	-54.7	-74.0	3.8	7.48e-01	0	33	104	0	77	34856
2026-01-02 03:56:27.81	310.46	37.36	-54.7	-74.0	3.8	7.47e-01	0	33	104	0	77	34733
2026-01-02 03:56:28.81	309.95	37.32	-54.7	-74.0	3.8	7.42e-01	0	33	104	0	77	34720
2026-01-02 03:56:29.80	309.45	37.29	-54.7	-74.0	3.8	7.44e-01	0	33	104	0	77	34718
2026-01-02 03:56:30.80	308.94	37.25	-54.7	-74.0	3.8	7.47e-01	0	32	104	0	77	34726
2026-01-02 03:56:31.79	308.44	37.21	-54.7	-74.0	3.8	7.43e-01	0	33	104	0	77	34734
2026-01-02 03:56:32.80	307.93	37.17	-54.7	-74.0	3.8	7.47e-01	0	32	104	0	77	34804
2026-01-02 03:56:33.80	307.43	37.12	-54.7	-74.0	3.8	7.45e-01	0	32	104	0	77	34775
2026-01-02 03:56:34.80	306.93	37.07	-54.7	-74.0	3.8	7.49e-01	0	33	104	0	77	34755
2026-01-02 03:56:35.81	306.42	37.02	-54.7	-74.0	3.8	7.45e-01	0	33	104	0	77	34791
2026-01-02 03:56:36.80	305.93	36.97	-54.7	-74.0	3.8	7.45e-01	0	33	104	0	77	34689
2026-01-02 03:56:37.81	305.43	36.92	-54.7	-74.0	3.8	7.46e-01	0	32	104	0	77	34753
2026-01-02 03:56:38.82	304.93	36.86	-54.7	-74.0	3.8	7.46e-01	0	33	104	0	77	34837
2026-01-02 03:56:39.82	304.43	36.80	-54.7	-74.0	3.8	7.46e-01	0	33	104	0	77	34723
2026-01-02 03:56:40.82	303.94	36.74	-54.7	-74.0	3.8	7.46e-01	0	33	104	0	77	34742
2026-01-02 03:56:41.81	303.46	36.68	-54.7	-74.0	3.8	7.47e-01	0	33	104	0	77	34708
2026-01-02 03:56:42.81	302.97	36.61	-54.7	-74.0	3.8	7.48e-01	0	33	104	0	77	34706
2026-01-02 03:56:43.81	302.49	36.54	-54.7	-74.0	3.8	7.48e-01	0	33	104	0	77	34857
2026-01-02 03:56:44.81	302.00	36.47	-54.7	-74.0	3.8	7.46e-01	0	33	104	0	77	34799
2026-01-02 03:56:45.80	301.53	36.40	-54.7	-74.0	3.8	7.45e-01	0	33	104	0	77	34825
2026-01-02 03:56:46.81	301.04	36.32	-54.7	-74.0	3.8	7.46e-01	0	33	104	0	77	34755
2026-01-02 03:56:47.80	300.57	36.25	-54.7	-74.0	3.8	7.49e-01	0	33	104	0	77	34802
2026-01-02 03:56:48.80	300.10	36.17	-54.7	-74.0	3.8	7.47e-01	0	33	104	0	77	34743
2026-01-02 03:56:49.79	299.63	36.09	-54.7	-74.0	3.8	7.48e-01	0	33	104	0	77	34802
2026-01-02 03:56:50.79	299.16	36.01	-54.7	-74.0	3.8	7.43e-01	0	33	104	0	77	34757
2026-01-02 03:56:51.80	298.69	35.92	-54.7	-74.0	3.8	7.51e-01	0	33	104	0	77	34795
2026-01-02 03:56:52.79	298.23	35.84	-54.7	-74.0	3.8	7.49e-01	0	33	104	0	77	34763
2026-01-02 03:56:53.79	297.77	35.75	-54.7	-74.0	3.8	7.44e-01	0	33	104	0	77	34715
2026-01-02 03:56:54.79	297.31	35.66	-54.7	-74.0	3.8	7.46e-01	0	33	104	0	77	34699
2026-01-02 03:56:55.79	296.85	35.57	-54.7	-74.0	3.8	7.44e-01	0	33	104	0	77	34686
2026-01-02 03:56:56.79	296.40	35.48	-54.7	-74.0	3.8	7.45e-01	0	33	104	0	77	34799
2026-01-02 03:56:57.78	295.95	35.38	-54.7	-74.0	3.8	7.46e-01	0	33	104	0	77	34690
2026-01-02 03:56:58.78	295.50	35.29	-54.7	-74.0	3.8	7.45e-01	0	33	104	0	77	34683
2026-01-02 03:56:59.79	295.05	35.19	-54.7	-74.0	3.8	7.47e-01	0	32	104	0	77	34797
2026-01-02 03:57:00.78	294.61	35.09	-54.7	-74.0	3.8	7.46e-01	0	33	104	0	77	34707
2026-01-02 03:57:01.77	294.18	34.99	-54.7	-74.0	3.8	7.46e-01	0	33	104	0	77	34769
2026-01-02 03:57:02.77	293.74	34.88	-54.7	-74.0	3.8	7.46e-01	0	33	104	0	77	34789
2026-01-02 03:57:03.77	293.30	34.78	-54.7	-74.0	3.8	7.45e-01	0	33	104	0	77	34773
2026-01-02 03:57:04.76	292.88	34.68	-54.7	-74.0	3.8	7.47e-01	0	33	104	0	77	34746
2026-01-02 03:57:05.76	292.45	34.57	-54.7	-74.0	3.8	7.47e-01	0	32	104	0	77	34752
2026-01-02 03:57:06.76	292.02	34.46	-54.7	-74.0	3.8	7.46e-01	0	33	104	0	77	34775
2026-01-02 03:57:07.76	291.60	34.35	-54.7	-74.0	3.8	7.49e-01	0	33	104	0	77	34786
2026-01-02 03:57:08.76	291.18	34.24	-54.7	-74.0	3.8	7.45e-01	0	33	104	0	77	34770
2026-01-02 03:57:09.76	290.76	34.13	-54.7	-74.0	3.8	7.48e-01	0	33	104	0	77	34781
2026-01-02 03:57:10.76	290.35	34.01	-54.7	-74.0	3.8	7.44e-01	0	33	104	0	77	34715
2026-01-02 03:57:11.77	289.93	33.90	-54.7	-74.0	3.8	7.45e-01	0	32	104	0	77	34772
2026-01-02 03:57:12.76	289.53	33.78	-54.7	-74.0	3.8	7.45e-01	0	32	104	0	77	34626
2026-01-02 03:57:13.76	289.12	33.66	-54.7	-74.0	3.8	7.46e-01	0	33	104	0	77	34771
2026-01-02 03:57:14.76	288.72	33.54	-54.7	-74.0	3.8	7.46e-01	0	32	104	0	77	34718
2026-01-02 03:57:15.76	288.32	33.42	-54.7	-74.0	3.8	7.42e-01	0	33	104	0	77	34762
2026-01-02 03:57:16.75	287.93	33.31	-54.7	-74.0	3.8	7.45e-01	0	33	104	0	77	34749
2026-01-02 03:57:17.75	287.54	33.18	-54.7	-74.0	3.8	7.43e-01	0	33	104	0	77	34628
2026-01-02 03:57:18.74	287.15	33.06	-54.2	-74.0	3.8	7.44e-01	0	32	104	0	77	34780
2026-01-02 03:57:19.74	286.76	32.94	-54.7	-74.0	3.8	7.44e-01	0	33	104	0	77	34713
2026-01-02 03:57:20.74	286.38	32.82	-54.7	-74.0	3.8	7.49e-01	0	33	104	0	77	34746
2026-01-02 03:57:21.75	285.99	32.69	-54.7	-74.0	3.9	7.44e-01	0	33	104	0	77	34756
2026-01-02 03:57:22.75	285.61	32.56	-54.7	-74.0	3.8	7.47e-01	0	33	104	0	77	34714
2026-01-02 03:57:23.74	285.24	32.44	-54.7	-74.0	3.8	7.45e-01	0	33	104	0	77	34721
2026-01-02 03:57:24.74	284.87	32.31	-54.7	-74.0	3.8	7.49e-01	0	33	104	0	77	34724
2026-01-02 03:57:25.73	284.51	32.18	-54.7	-74.0	3.8	7.42e-01	0	33	104	0	77	34673
2026-01-02 03:57:26.73	284.14	32.05	-54.7	-74.0	3.8	7.46e-01	0	33	104	0	77	34677
2026-01-02 03:57:27.73	283.78	31.92	-54.7	-74.0	3.8	7.44e-01	0	33	104	0	77	34773
2026-01-02 03:57:28.72	283.42	31.79	-54.7	-74.0	3.8	7.47e-01	0	32	104	0	77	34735
2026-01-02 03:57:29.72	283.06	31.66	-54.7	-74.0	3.8	7.51e-01	0	33	104	0	77	34750
2026-01-02 03:57:30.72	282.71	31.53	-54.7	-74.0	3.8	7.47e-01	0	33	104	0	77	34814
2026-01-02 03:57:31.72	282.36	31.40	-54.7	-74.0	3.8	7.44e-01	0	33	104	0	77	34720
2026-01-02 03:57:32.71	282.01	31.27	-54.7	-74.0	3.8	7.45e-01	0	33	104	0	77	34740
2026-01-02 03:57:33.72	281.66	31.13	-54.7	-74.0	3.8	7.48e-01	0	33	104	0	77	34741
2026-01-02 03:57:34.71	281.33	31.00	-54.7	-74.0	3.8	7.45e-01	0	33	104	0	77	34639
2026-01-02 03:57:35.71	280.99	30.87	-54.7	-74.0	3.8	7.47e-01	0	33	104	0	77	34755
2026-01-02 03:57:36.70	280.65	30.73	-54.7	-74.0	3.8	7.50e-01	0	33	104	0	77	34654
2026-01-02 03:57:37.69	280.32	30.60	-54.7	-74.0	3.9	7.45e-01	0	33	104	0	77	34700
2026-01-02 03:57:38.70	279.99	30.46	-54.7	-74.0	3.8	7.47e-01	0	33	104	0	77	34797
2026-01-02 03:57:39.70	279.66	30.33	-54.7	-74.0	3.8	7.48e-01	0	33	104	0	77	34707
2026-01-02 03:57:40.70	279.34	30.19	-54.7	-74.0	3.8	7.46e-01	0	32	104	0	77	34718
2026-01-02 03:57:41.71	279.01	30.05	-54.7	-74.0	3.8	7.45e-01	0	33	104	0	77	34718
2026-01-02 03:57:42.71	278.69	29.92	-54.7	-74.0	3.8	7.46e-01	0	33	104	0	77	34741
2026-01-02 03:57:43.71	278.37	29.78	-54.7	-74.0	3.8	7.49e-01	0	33	104	0	77	34771
2026-01-02 03:57:44.71	278.06	29.64	-54.6	-73.8	3.8	7.46e-01	0	33	104	0	76	35722
2026-01-02 03:57:45.71	277.75	29.51	-54.7	-74.0	3.8	7.47e-01	0	33	104	0	77	34701
2026-01-02 03:57:46.70	277.44	29.37	-54.7	-74.0	3.8	7.47e-01	0	33	104	0	77	34727
2026-01-02 03:57:47.70	277.14	29.23	-54.7	-74.0	3.8	7.44e-01	0	32	104	0	77	34724
2026-01-02 03:57:48.70	276.84	29.09	-54.7	-74.0	3.8	7.49e-01	0	33	104	0	77	34799
2026-01-02 03:57:49.71	276.53	28.95	-54.7	-74.0	3.8	7.45e-01	0	33	104	0	77	34750
2026-01-02 03:57:50.71	276.24	28.82	-54.7	-74.0	3.8	7.44e-01	0	33	104	0	77	34742
2026-01-02 03:57:51.71	275.94	28.68	-54.7	-74.0	3.8	7.49e-01	0	32	104	0	77	34703
2026-01-02 03:57:52.71	275.65	28.54	-54.7	-74.0	3.8	7.46e-01	0	33	104	0	77	34752
2026-01-02 03:57:53.71	275.36	28.40	-54.7	-74.0	3.8	7.46e-01	0	33	104	0	77	34783
2026-01-02 03:57:54.71	275.07	28.26	-54.7	-74.0	3.8	7.47e-01	0	33	104	0	77	34759
2026-01-02 03:57:55.72	274.78	28.12	-54.7	-74.0	3.8	7.48e-01	0	32	104	0	77	34720
2026-01-02 03:57:56.73	274.50	27.98	-54.7	-74.0	3.8	7.46e-01	0	33	104	0	77	34776
2026-01-02 03:57:57.73	274.22	27.84	-54.7	-74.0	3.8	7.46e-01	0	33	104	0	77	34779
2026-01-02 03:57:58.74	273.94	27.70	-54.7	-74.0	3.8	7.48e-01	0	33	104	0	77	34756
2026-01-02 03:57:59.74	273.67	27.57	-54.7	-74.0	3.8	7.48e-01	0	33	104	0	77	34746
2026-01-02 03:58:00.75	273.39	27.43	-54.7	-74.0	3.8	7.46e-01	0	33	104	0	77	34741
2026-01-02 03:58:01.74	273.13	27.29	-54.7	-74.0	3.8	7.47e-01	0	33	104	0	77	34665
2026-01-02 03:58:02.74	272.86	27.15	-54.7	-74.0	3.8	7.48e-01	0	33	104	0	77	34726
2026-01-02 03:58:03.74	272.59	27.01	-54.7	-74.0	3.8	7.47e-01	0	33	104	0	77	34767
2026-01-02 03:58:04.74	272.33	26.87	-54.7	-74.0	3.8	7.48e-01	0	32	104	0	77	34807
2026-01-02 03:58:05.75	272.07	26.73	-54.7	-74.0	3.8	7.45e-01	0	33	104	0	77	34690
2026-01-02 03:58:06.75	271.81	26.60	-54.7	-74.0	3.8	7.44e-01	0	32	104	0	77	34767
2026-01-02 03:58:07.75	271.56	26.46	-54.7	-74.0	3.8	7.43e-01	0	33	104	0	77	34713
2026-01-02 03:58:08.74	271.31	26.32	-54.7	-74.0	3.8	7.47e-01	0	33	104	0	77	34701
2026-01-02 03:58:09.75	271.06	26.18	-54.7	-74.0	3.8	7.45e-01	0	33	104	0	77	34785
2026-01-02 03:58:10.75	270.81	26.05	-54.7	-74.0	3.8	7.46e-01	0	33	104	0	77	34718
2026-01-02 03:58:11.74	270.56	25.91	-54.7	-74.0	3.8	7.46e-01	0	33	104	0	77	34686
2026-01-02 03:58:12.74	270.32	25.77	-54.7	-74.0	3.8	7.43e-01	0	33	104	0	77	34803
2026-01-02 03:58:13.74	270.08	25.64	-54.7	-74.0	3.8	7.46e-01	0	33	104	0	77	34764
2026-01-02 03:58:14.74	269.84	25.50	-54.7	-74.0	3.8	7.46e-01	0	33	104	0	77	34761
2026-01-02 03:58:15.73	269.60	25.37	-54.7	-74.0	3.8	7.47e-01	0	33	104	0	77	34734
2026-01-02 03:58:16.72	269.37	25.23	-54.7	-74.0	3.8	7.45e-01	0	33	104	0	77	34697
2026-01-02 03:58:17.72	269.14	25.10	-54.7	-74.0	3.8	7.46e-01	0	33	104	0	77	34702
2026-01-02 03:58:18.72	268.91	24.96	-54.7	-74.0	3.8	7.44e-01	0	32	104	0	77	34758
2026-01-02 03:58:19.72	268.68	24.82	-54.7	-74.0	3.8	7.47e-01	0	33	104	0	77	34778
2026-01-02 03:58:20.71	268.45	24.69	-54.7	-74.0	3.8	7.47e-01	0	33	104	0	77	34792
2026-01-02 03:58:21.71	268.23	24.56	-54.7	-74.0	3.8	7.45e-01	0	33	104	0	77	34789
2026-01-02 03:58:22.71	268.01	24.42	-54.7	-74.0	3.8	7.47e-01	0	33	104	0	77	34720
2026-01-02 03:58:23.70	267.79	24.29	-54.7	-74.0	3.8	7.43e-01	0	32	104	0	77	34690
2026-01-02 03:58:24.69	267.57	24.16	-54.7	-74.0	3.8	7.46e-01	0	33	104	0	77	34752
2026-01-02 03:58:25.69	267.36	24.02	-54.7	-74.0	3.8	7.46e-01	0	33	104	0	77	34777
2026-01-02 03:58:26.69	267.14	23.89	-54.7	-74.0	3.8	7.45e-01	0	33	104	0	77	34753
2026-01-02 03:58:27.69	266.93	23.76	-54.7	-74.0	3.8	7.47e-01	0	33	104	0	77	34800
2026-01-02 03:58:28.69	266.72	23.62	-54.7	-74.0	3.8	7.43e-01	0	33	104	0	77	34752
2026-01-02 03:58:29.68	266.51	23.49	-54.7	-74.0	3.8	7.45e-01	0	33	104	0	77	34690
2026-01-02 03:58:30.68	266.30	23.36	-54.7	-74.0	3.8	7.47e-01	0	33	104	0	77	34757
2026-01-02 03:58:31.69	266.09	23.23	-54.7	-74.0	3.8	7.45e-01	0	33	104	0	77	34723
2026-01-02 03:58:32.68	265.89	23.10	-54.7	-74.0	3.8	7.45e-01	0	33	104	0	77	34656
2026-01-02 03:58:33.68	265.69	22.97	-54.7	-74.0	3.8	7.47e-01	0	33	104	0	77	34689
2026-01-02 03:58:34.68	265.49	22.84	-54.7	-74.0	3.8	7.48e-01	0	33	104	0	77	34739
2026-01-02 03:58:35.68	265.29	22.71	-54.7	-74.0	3.8	7.43e-01	0	33	104	0	77	34670
2026-01-02 03:58:36.67	265.10	22.58	-54.3	-73.7	3.8	7.45e-01	0	33	104	0	76	35424
2026-01-02 03:58:37.67	264.90	22.45	-54.7	-74.0	3.8	7.45e-01	0	33	104	0	77	34755
2026-01-02 03:58:38.66	264.71	22.32	-54.7	-74.0	3.8	7.46e-01	0	33	104	0	77	34756
2026-01-02 03:58:39.66	264.52	22.19	-54.7	-74.0	3.8	7.45e-01	0	33	104	0	77	34788
2026-01-02 03:58:40.66	264.33	22.06	-54.7	-74.0	3.8	7.47e-01	0	33	104	0	77	34772
2026-01-02 03:58:41.66	264.14	21.94	-54.7	-74.0	3.8	7.47e-01	0	33	104	0	77	34638
2026-01-02 03:58:42.66	263.96	21.81	-54.7	-74.0	3.8	7.44e-01	0	33	104	0	77	34720
2026-01-02 03:58:43.66	263.77	21.68	-54.7	-74.0	3.8	7.47e-01	0	33	104	0	77	34745
2026-01-02 03:58:44.66	263.59	21.55	-54.7	-74.0	3.8	7.44e-01	0	33	104	0	77	34708
2026-01-02 03:58:45.67	263.40	21.43	-54.7	-74.0	3.8	7.50e-01	0	33	104	0	77	34778
2026-01-02 03:58:46.67	263.22	21.30	-54.7	-74.0	3.8	7.48e-01	0	33	104	0	77	34775
2026-01-02 03:58:47.67	263.05	21.18	-54.7	-74.0	3.8	7.45e-01	0	33	104	0	77	34805
2026-01-02 03:58:48.67	262.87	21.05	-54.7	-74.0	3.8	7.47e-01	0	33	104	0	77	34773
2026-01-02 03:58:49.66	262.69	20.93	-54.7	-74.0	3.8	7.42e-01	0	33	104	0	77	34728
2026-01-02 03:58:50.66	262.52	20.80	-54.7	-74.0	3.8	7.47e-01	0	33	104	0	77	34678
2026-01-02 03:58:51.66	262.35	20.68	-54.7	-74.0	3.8	7.46e-01	0	33	104	0	77	34686
2026-01-02 03:58:52.66	262.18	20.55	-54.7	-74.0	3.8	7.45e-01	0	33	104	0	77	34758
2026-01-02 03:58:53.65	262.01	20.43	-54.7	-74.0	3.8	7.49e-01	0	33	104	0	77	34665
2026-01-02 03:58:54.65	261.84	20.31	-54.7	-74.0	3.8	7.43e-01	0	32	104	0	77	34756
2026-01-02 03:58:55.64	261.68	20.19	-54.7	-74.0	3.8	7.46e-01	0	33	104	0	77	34658
2026-01-02 03:58:56.64	261.51	20.07	-54.7	-74.0	3.8	7.46e-01	0	33	104	0	77	34716
2026-01-02 03:58:57.65	261.35	19.94	-54.7	-74.0	3.8	7.44e-01	0	33	104	0	77	34804
2026-01-02 03:58:58.65	261.18	19.82	-54.7	-74.0	3.8	7.47e-01	0	33	104	0	77	34786
2026-01-02 03:58:59.64	261.02	19.70	-54.7	-74.0	3.8	7.47e-01	0	33	104	0	77	34686
2026-01-02 03:59:00.64	260.86	19.58	-54.7	-74.0	3.8	7.45e-01	0	33	104	0	77	34730
2026-01-02 03:59:01.63	260.71	19.46	-54.7	-74.0	3.8	7.44e-01	0	33	104	0	77	34702
2026-01-02 03:59:02.64	260.55	19.34	-54.6	-74.0	3.8	7.48e-01	0	33	104	0	77	34732
2026-01-02 03:59:03.64	260.39	19.22	-54.7	-74.0	3.8	7.46e-01	0	33	104	0	77	34699
2026-01-02 03:59:04.64	260.24	19.10	-54.7	-74.0	3.8	7.47e-01	0	33	104	0	77	34724
2026-01-02 03:59:05.63	260.09	18.99	-54.7	-74.0	3.8	7.45e-01	0	33	104	0	77	34751
2026-01-02 03:59:06.64	259.93	18.87	-54.7	-74.0	3.8	7.46e-01	0	33	104	0	77	34799
2026-01-02 03:59:07.64	259.78	18.75	-54.7	-74.0	3.8	7.48e-01	0	33	104	0	77	34718
2026-01-02 03:59:08.64	259.63	18.63	-54.7	-74.0	3.8	7.45e-01	0	33	104	0	77	34768
2026-01-02 03:59:09.65	259.48	18.52	-54.7	-74.0	3.8	7.42e-01	0	33	104	0	77	34779
2026-01-02 03:59:10.65	259.34	18.40	-54.7	-74.0	3.8	7.44e-01	0	33	104	0	77	34806
2026-01-02 03:59:11.65	259.19	18.28	-54.7	-74.0	3.8	7.48e-01	0	33	104	0	77	34740
2026-01-02 03:59:12.65	259.04	18.17	-54.7	-74.0	3.8	7.45e-01	0	33	104	0	77	34766
2026-01-02 03:59:13.65	258.90	18.05	-54.7	-74.0	3.8	7.46e-01	0	33	104	0	77	34719
2026-01-02 03:59:14.65	258.76	17.94	-54.7	-74.0	3.8	7.45e-01	0	33	104	0	77	34695
2026-01-02 03:59:15.65	258.62	17.82	-54.7	-74.0	3.8	7.46e-01	0	33	104	0	77	34693
2026-01-02 03:59:16.65	258.48	17.71	-54.7	-74.0	3.8	7.46e-01	0	33	104	0	77	34765
2026-01-02 03:59:17.65	258.34	17.60	-54.7	-74.0	3.8	7.48e-01	0	33	104	0	77	34687
2026-01-02 03:59:18.64	258.20	17.49	-54.7	-74.0	3.8	7.45e-01	0	33	104	0	77	34699
2026-01-02 03:59:19.65	258.06	17.37	-54.7	-74.0	3.8	7.44e-01	0	33	104	0	77	34711
2026-01-02 03:59:20.66	257.93	17.26	-54.7	-74.0	3.8	7.47e-01	0	33	104	0	77	34769
2026-01-02 03:59:21.66	257.79	17.15	-54.7	-74.0	3.8	7.49e-01	0	33	104	0	77	34731
2026-01-02 03:59:22.66	257.66	17.04	-54.7	-74.0	3.8	7.49e-01	0	33	104	0	77	34726
2026-01-02 03:59:23.66	257.53	16.92	-54.7	-74.0	3.8	7.45e-01	0	33	104	0	77	34770
2026-01-02 03:59:24.65	257.40	16.81	-54.7	-74.0	3.8	7.45e-01	0	33	104	0	77	34761
2026-01-02 03:59:25.65	257.27	16.70	-54.7	-74.0	3.8	7.49e-01	0	33	104	0	77	34721
2026-01-02 03:59:26.66	257.14	16.59	-54.7	-74.0	3.8	7.48e-01	0	33	104	0	77	34683
2026-01-02 03:59:27.65	257.01	16.49	-54.7	-74.0	3.8	7.47e-01	0	33	104	0	77	34780
2026-01-02 03:59:28.64	256.88	16.38	-54.3	-74.0	3.8	7.48e-01	0	33	104	0	77	34752
2026-01-02 03:59:29.64	256.76	16.27	-54.7	-74.0	3.8	7.47e-01	0	33	104	0	77	34705
2026-01-02 03:59:30.64	256.63	16.16	-54.7	-74.0	3.8	7.46e-01	0	33	104	0	77	34772
2026-01-02 03:59:31.64	256.51	16.05	-54.7	-74.0	3.8	7.45e-01	0	33	104	0	77	34700
2026-01-02 03:59:32.64	256.39	15.95	-54.7	-74.0	3.8	7.49e-01	0	33	104	0	77	34770
2026-01-02 03:59:33.63	256.26	15.84	-54.7	-74.0	3.8	7.48e-01	0	33	104	0	77	34729
2026-01-02 03:59:34.63	256.14	15.73	-54.7	-74.0	3.8	7.46e-01	0	33	104	0	77	34758
2026-01-02 03:59:35.63	256.02	15.63	-54.7	-74.0	3.8	7.44e-01	0	33	104	0	77	34760
2026-01-02 03:59:36.64	255.90	15.52	-54.7	-74.0	3.8	7.47e-01	0	33	104	0	77	34768
2026-01-02 03:59:37.64	255.78	15.41	-54.7	-74.0	3.8	7.48e-01	0	33	104	0	77	34757
2026-01-02 03:59:38.64	255.67	15.31	-54.7	-74.0	3.8	7.46e-01	0	33	104	0	77	34719
2026-01-02 03:59:39.64	255.55	15.20	-54.7	-74.0	3.8	7.46e-01	0	33	104	0	77	34687
2026-01-02 03:59:40.64	255.43	15.10	-54.7	-74.0	3.8	7.46e-01	0	33	104	0	77	34748
2026-01-02 03:59:41.64	255.32	15.00	-54.7	-74.0	3.8	7.45e-01	0	33	104	0	77	34692
2026-01-02 03:59:42.64	255.20	14.89	-54.7	-74.0	3.8	7.47e-01	0	33	104	0	77	34748
2026-01-02 03:59:43.63	255.09	14.79	-54.7	-74.0	3.8	7.47e-01	0	33	104	0	77	34796
2026-01-02 03:59:44.63	254.98	14.69	-54.7	-74.0	3.8	7.48e-01	0	33	104	0	77	34741
2026-01-02 03:59:45.63	254.87	14.58	-54.7	-74.0	3.8	7.47e-01	0	33	104	0	77	34737
2026-01-02 03:59:46.62	254.76	14.48	-54.7	-74.0	3.8	7.42e-01	0	33	104	0	77	34633
2026-01-02 03:59:47.62	254.65	14.38	-54.7	-74.0	3.8	7.49e-01	0	33	104	0	77	34683
2026-01-02 03:59:48.62	254.54	14.28	-54.7	-74.0	3.8	7.49e-01	0	33	104	0	77	34711
2026-01-02 03:59:49.62	254.43	14.18	-54.7	-74.0	3.8	7.46e-01	0	33	104	0	77	34771
2026-01-02 03:59:50.63	254.32	14.08	-54.7	-74.0	3.8	7.46e-01	0	33	104	0	77	34796
2026-01-02 03:59:51.63	254.22	13.98	-54.7	-74.0	3.8	7.48e-01	0	33	104	0	77	34831
2026-01-02 03:59:52.63	254.11	13.88	-54.7	-74.0	3.8	7.44e-01	0	33	104	0	77	34711
2026-01-02 03:59:53.63	254.00	13.78	-54.7	-74.0	3.8	7.42e-01	0	33	104	0	77	34696
2026-01-02 03:59:54.62	253.90	13.68	-54.7	-74.0	3.8	7.48e-01	0	33	104	0	77	34797
2026-01-02 03:59:55.62	253.80	13.58	-54.7	-74.0	3.9	7.45e-01	0	33	104	0	77	34829
2026-01-02 03:59:56.62	253.70	13.48	-54.7	-74.0	3.8	7.47e-01	0	32	104	0	77	34777
2026-01-02 03:59:57.62	253.59	13.38	-54.7	-74.0	3.8	7.47e-01	0	33	104	0	77	34751
2026-01-02 03:59:58.62	253.49	13.29	-54.7	-74.0	3.8	7.46e-01	0	33	104	0	77	34818
2026-01-02 03:59:59.62	253.39	13.19	-54.7	-74.0	3.8	7.43e-01	0	33	104	0	77	34811
2026-01-02 04:00:00.62	253.29	13.09	-54.7	-74.0	3.8	7.48e-01	0	33	104	0	77	34771
2026-01-02 04:00:01.62	253.19	13.00	-54.7	-74.0	3.8	7.46e-01	0	33	104	0	77	34720
2026-01-02 04:00:02.61	253.09	12.90	-54.7	-74.0	3.8	7.48e-01	0	33	104	0	77	34798
2026-01-02 04:00:03.61	253.00	12.80	-54.7	-74.0	3.8	7.45e-01	0	33	104	0	77	34816
2026-01-02 04:00:04.61	252.90	12.71	-54.7	-74.0	3.8	7.43e-01	0	33	104	0	77	34769
2026-01-02 04:00:05.62	252.80	12.61	-54.7	-74.0	3.8	7.44e-01	0	33	104	0	77	34825
2026-01-02 04:00:06.62	252.71	12.52	-54.7	-74.0	3.8	7.46e-01	0	33	104	0	77	34787
2026-01-02 04:00:07.62	252.61	12.42	-54.7	-74.0	3.8	7.49e-01	0	33	104	0	77	34751
2026-01-02 04:00:08.61	252.52	12.33	-54.7	-74.0	3.8	7.48e-01	0	33	104	0	77	34844
2026-01-02 04:00:09.61	252.43	12.23	-54.7	-74.0	3.8	7.44e-01	0	33	104	0	77	34749
2026-01-02 04:00:10.61	252.33	12.14	-54.7	-74.0	3.8	7.43e-01	0	33	104	0	77	34713
2026-01-02 04:00:11.61	252.24	12.05	-54.7	-74.0	3.9	7.45e-01	0	33	104	0	77	34723
2026-01-02 04:00:12.62	252.15	11.95	-54.7	-74.0	3.8	7.45e-01	0	33	104	0	77	34751
2026-01-02 04:00:13.61	252.06	11.86	-54.7	-74.0	3.8	7.47e-01	0	33	104	0	77	34739
2026-01-02 04:00:14.61	251.97	11.77	-54.7	-74.0	3.8	7.46e-01	0	33	104	0	77	34740
2026-01-02 04:00:15.62	251.88	11.68	-54.7	-74.0	3.8	7.45e-01	0	33	104	0	77	34671
2026-01-02 04:00:16.62	251.79	11.58	-54.7	-74.0	3.8	7.49e-01	0	33	104	0	77	34721
2026-01-02 04:00:17.61	251.70	11.49	-54.7	-74.0	3.8	7.45e-01	0	33	104	0	77	34787
2026-01-02 04:00:18.61	251.61	11.40	-54.7	-74.0	3.8	7.44e-01	0	33	104	0	77	34852
2026-01-02 04:00:19.61	251.52	11.31	-54.7	-74.0	3.8	7.44e-01	0	33	104	0	77	34806
2026-01-02 04:00:20.61	251.44	11.22	-54.7	-74.0	3.8	7.49e-01	0	32	104	0	77	34854
2026-01-02 04:00:21.60	251.35	11.13	-54.7	-74.0	3.8	7.43e-01	0	33	104	0	77	34808
2026-01-02 04:00:22.61	251.27	11.04	-54.7	-74.0	3.8	7.46e-01	0	33	104	0	77	34795
2026-01-02 04:00:23.61	251.18	10.95	-54.7	-74.0	3.8	7.47e-01	0	33	104	0	77	34752
2026-01-02 04:00:24.60	251.10	10.86	-54.7	-74.0	3.8	7.45e-01	0	33	104	0	77	34735
2026-01-02 04:00:25.60	251.01	10.77	-54.7	-74.0	3.8	7.48e-01	0	33	104	0	77	34736
2026-01-02 04:00:26.60	250.93	10.69	-54.7	-74.0	3.8	7.44e-01	0	33	104	0	77	34848
2026-01-02 04:00:27.59	250.85	10.60	-54.7	-74.0	3.8	7.43e-01	0	33	104	0	77	34747
2026-01-02 04:00:28.59	250.77	10.51	-54.7	-74.0	3.8	7.46e-01	0	33	104	0	77	34777
2026-01-02 04:00:29.59	250.68	10.42	-54.7	-74.0	3.8	7.47e-01	0	32	104	0	77	34750
2026-01-02 04:00:30.59	250.60	10.33	-54.7	-74.0	3.8	7.46e-01	0	33	104	0	77	34749
2026-01-02 04:00:31.59	250.52	10.25	-54.7	-74.0	3.8	7.46e-01	0	33	104	0	77	34753
2026-01-02 04:00:32.58	250.44	10.16	-54.7	-74.0	3.8	7.46e-01	0	33	104	0	77	34741
2026-01-02 04:00:33.58	250.36	10.07	-54.7	-74.0	3.8	7.44e-01	0	33	104	0	77	34741
2026-01-02 04:00:34.57	250.29	9.99	-54.7	-74.0	3.8	7.46e-01	0	33	104	0	77	34767
2026-01-02 04:00:35.57	250.21	9.90	-54.7	-74.0	3.8	7.44e-01	0	33	104	0	77	34723
2026-01-02 04:00:36.58	250.13	9.82	-54.7	-74.0	3.8	7.46e-01	0	33	104	0	77	34804
2026-01-02 04:00:37.58	250.05	9.73	-54.7	-74.0	3.8	7.43e-01	0	33	104	0	77	34616
2026-01-02 04:00:38.58	249.98	9.64	-54.7	-74.0	3.8	7.45e-01	0	33	104	0	77	34745
2026-01-02 04:00:39.57	249.90	9.56	-54.7	-74.0	3.8	7.43e-01	0	33	104	0	77	34826
2026-01-02 04:00:40.57	249.82	9.48	-54.7	-74.0	3.8	7.46e-01	0	32	104	0	77	34712
2026-01-02 04:00:41.57	249.75	9.39	-54.7	-74.0	3.8	7.48e-01	0	33	104	0	77	34767
2026-01-02 04:00:42.57	249.67	9.31	-54.7	-74.0	3.8	7.48e-01	0	33	104	0	77	34753
2026-01-02 04:00:43.57	249.60	9.22	-54.7	-74.0	3.8	7.49e-01	0	33	104	0	77	34708
2026-01-02 04:00:44.57	249.53	9.14	-54.7	-74.0	3.8	7.43e-01	0	32	104	0	77	34793
2026-01-02 04:00:45.57	249.45	9.06	-54.7	-74.0	3.8	7.46e-01	0	33	104	0	77	34697
2026-01-02 04:00:46.57	249.38	8.97	-54.1	-74.0	3.8	7.46e-01	0	33	104	0	77	34754
2026-01-02 04:00:47.57	249.31	8.89	-54.7	-74.0	3.8	7.48e-01	0	33	104	0	77	34656
2026-01-02 04:00:48.57	249.23	8.81	-54.7	-74.0	3.8	7.43e-01	0	33	104	0	77	34707
2026-01-02 04:00:49.56	249.16	8.73	-54.7	-74.0	3.8	7.45e-01	0	33	104	0	77	34630
2026-01-02 04:00:50.56	249.09	8.64	-54.7	-74.0	3.8	7.49e-01	0	32	104	0	77	34809
2026-01-02 04:00:51.56	249.02	8.56	-54.7	-74.0	3.8	7.46e-01	0	32	104	0	77	34748
2026-01-02 04:00:52.55	248.95	8.48	-54.7	-74.0	3.8	7.48e-01	0	32	104	0	77	34818
2026-01-02 04:00:53.54	248.88	8.40	-54.7	-74.0	3.8	7.43e-01	0	33	104	0	77	34796
2026-01-02 04:00:54.54	248.81	8.32	-54.7	-74.0	3.8	7.48e-01	0	33	104	0	77	34761
2026-01-02 04:00:55.55	248.74	8.24	-54.7	-74.0	3.8	7.47e-01	0	33	104	0	77	34790
2026-01-02 04:00:56.55	248.68	8.16	-54.7	-74.0	3.8	7.46e-01	0	33	104	0	77	34775
2026-01-02 04:00:57.55	248.61	8.08	-54.7	-74.0	3.8	7.46e-01	0	33	104	0	77	34770
2026-01-02 04:00:58.54	248.54	8.00	-54.7	-74.0	3.8	7.44e-01	0	33	104	0	77	34758
2026-01-02 04:00:59.54	248.47	7.92	-54.7	-74.0	3.8	7.49e-01	0	33	104	0	77	34729
2026-01-02 04:01:00.54	248.41	7.84	-54.7	-74.0	3.8	7.46e-01	0	33	104	0	77	34755
2026-01-02 04:01:01.54	248.34	7.76	-54.7	-74.0	3.8	7.48e-01	0	33	104	0	77	34783
2026-01-02 04:01:02.54	248.27	7.68	-54.7	-74.0	3.8	7.44e-01	0	33	104	0	77	34740
2026-01-02 04:01:03.55	248.21	7.60	-54.7	-74.0	3.8	7.45e-01	0	33	104	0	77	34798
2026-01-02 04:01:04.55	248.14	7.52	-54.7	-74.0	3.8	7.42e-01	0	33	104	0	77	34774
2026-01-02 04:01:05.56	248.08	7.44	-54.7	-74.0	3.8	7.46e-01	0	33	104	0	77	34821
2026-01-02 04:01:06.55	248.01	7.37	-54.7	-74.0	3.8	7.48e-01	0	33	104	0	77	34753
2026-01-02 04:01:07.56	247.95	7.29	-54.7	-74.0	3.8	7.44e-01	0	33	104	0	77	34737
2026-01-02 04:01:08.56	247.89	7.21	-54.7	-74.0	3.8	7.47e-01	0	33	104	0	77	34821
2026-01-02 04:01:09.56	247.82	7.13	-54.7	-74.0	3.8	7.47e-01	0	32	104	0	77	34785
2026-01-02 04:01:10.56	247.76	7.05	-54.7	-74.0	3.8	7.46e-01	0	33	104	0	77	34747
2026-01-02 04:01:11.57	247.70	6.98	-54.7	-74.0	3.8	7.45e-01	0	33	104	0	77	34745
2026-01-02 04:01:12.57	247.63	6.90	-54.6	-74.0	3.8	7.47e-01	0	33	104	0	77	34823
2026-01-02 04:01:13.57	247.57	6.82	-54.7	-74.0	3.8	7.46e-01	0	33	104	0	77	34767
2026-01-02 04:01:14.58	247.51	6.75	-54.7	-74.0	3.8	7.46e-01	0	33	104	0	77	34778
2026-01-02 04:01:15.58	247.45	6.67	-54.7	-74.0	3.8	7.46e-01	0	32	104	0	77	34729
2026-01-02 04:01:16.58	247.39	6.59	-54.7	-74.0	3.8	7.45e-01	0	33	104	0	77	34693
2026-01-02 04:01:17.58	247.33	6.52	-54.7	-74.0	3.8	7.49e-01	0	33	104	0	77	34839
2026-01-02 04:01:18.58	247.27	6.44	-54.7	-74.0	3.8	7.49e-01	0	33	104	0	77	34809
2026-01-02 04:01:19.58	247.21	6.37	-54.7	-74.0	3.8	7.46e-01	0	33	104	0	77	34782
2026-01-02 04:01:20.58	247.15	6.29	-54.7	-74.0	3.8	7.47e-01	0	33	104	0	77	34759
2026-01-02 04:01:21.58	247.09	6.22	-54.7	-74.0	3.8	7.48e-01	0	33	104	0	77	34693
2026-01-02 04:01:22.58	247.03	6.14	-54.7	-74.0	3.8	7.47e-01	0	33	104	0	77	34790
2026-01-02 04:01:23.58	246.98	6.07	-54.7	-74.0	3.8	7.44e-01	0	33	104	0	77	34715
2026-01-02 04:01:24.58	246.92	6.00	-54.7	-74.0	3.8	7.42e-01	0	33	104	0	77	34794
2026-01-02 04:01:25.58	246.86	5.92	-54.7	-74.0	3.8	7.44e-01	0	33	104	0	77	34781
2026-01-02 04:01:26.57	246.80	5.85	-54.7	-74.0	3.8	7.47e-01	0	32	104	0	77	34793
2026-01-02 04:01:27.57	246.75	5.77	-54.7	-74.0	3.8	7.48e-01	0	33	104	0	77	34708
2026-01-02 04:01:28.56	246.69	5.70	-54.7	-74.0	3.8	7.49e-01	0	33	104	0	77	34708
2026-01-02 04:01:29.56	246.63	5.63	-54.7	-74.0	3.8	7.46e-01	0	33	104	0	77	34741
2026-01-02 04:01:30.56	246.58	5.56	-54.7	-74.0	3.8	7.47e-01	0	33	104	0	77	34737
2026-01-02 04:01:31.55	246.52	5.48	-54.7	-74.0	3.8	7.46e-01	0	33	104	0	77	34749
2026-01-02 04:01:32.55	246.47	5.41	-54.7	-74.0	3.8	7.46e-01	0	33	104	0	77	34751
2026-01-02 04:01:33.54	246.41	5.34	-54.7	-74.0	3.8	7.47e-01	0	33	104	0	77	34764
2026-01-02 04:01:34.54	246.36	5.27	-54.7	-74.0	3.8	7.47e-01	0	33	104	0	77	34781
2026-01-02 04:01:35.54	246.31	5.20	-54.7	-74.0	3.8	7.46e-01	0	33	104	0	77	34711
2026-01-02 04:01:36.53	246.25	5.12	-54.7	-74.0	3.8	7.42e-01	0	33	104	0	77	34784
2026-01-02 04:01:37.54	246.20	5.05	-54.7	-74.0	3.8	7.42e-01	0	33	104	0	77	34725
2026-01-02 04:01:38.53	246.15	4.98	-54.5	-74.0	3.8	7.46e-01	0	33	104	0	77	34753
2026-01-02 04:01:39.53	246.09	4.91	-54.7	-74.0	3.8	7.48e-01	0	33	104	0	77	34686
2026-01-02 04:01:40.53	246.04	4.84	-54.7	-74.0	3.8	7.48e-01	0	33	104	0	77	34689
2026-01-02 04:01:41.53	245.99	4.77	-54.7	-74.0	3.8	7.45e-01	0	33	104	0	77	34607
2026-01-02 04:01:42.53	245.94	4.70	-54.7	-74.0	3.8	7.46e-01	0	33	104	0	77	34616
2026-01-02 04:01:43.53	245.88	4.63	-54.7	-74.0	3.8	7.45e-01	0	33	104	0	77	34734
2026-01-02 04:01:44.53	245.83	4.56	-54.7	-74.0	3.8	7.44e-01	0	33	104	0	77	34732
2026-01-02 04:01:45.53	245.78	4.49	-54.7	-74.0	3.8	7.46e-01	0	33	104	0	77	34671
2026-01-02 04:01:46.53	245.73	4.42	-54.7	-74.0	3.8	7.46e-01	0	33	104	0	77	34713
2026-01-02 04:01:47.54	245.68	4.35	-54.7	-74.0	3.8	7.45e-01	0	33	104	0	77	34717
2026-01-02 04:01:48.54	245.63	4.28	-54.6	-74.0	3.8	7.45e-01	0	33	104	0	77	34704
2026-01-02 04:01:49.53	245.58	4.21	-54.7	-74.0	3.8	7.47e-01	0	33	104	0	77	34725
2026-01-02 04:01:50.53	245.53	4.14	-54.7	-74.0	3.8	7.45e-01	0	33	104	0	77	34704
2026-01-02 04:01:51.54	245.48	4.07	-54.7	-74.0	3.8	7.49e-01	0	33	104	0	77	34684
2026-01-02 04:01:52.54	245.43	4.00	-54.7	-74.0	3.8	7.45e-01	0	33	104	0	77	34774
2026-01-02 04:01:53.53	245.38	3.93	-54.7	-74.0	3.8	7.46e-01	0	33	104	0	77	34740
2026-01-02 04:01:54.52	245.33	3.87	-54.7	-74.0	3.8	7.43e-01	0	33	104	0	77	34749
2026-01-02 04:01:55.53	245.28	3.80	-54.7	-74.0	3.8	7.47e-01	0	33	104	0	77	34791
2026-01-02 04:01:56.53	245.23	3.73	-54.7	-74.0	3.8	7.44e-01	0	33	104	0	77	34712
2026-01-02 04:01:57.53	245.19	3.66	-54.7	-74.0	3.8	7.45e-01	0	33	104	0	77	34738
2026-01-02 04:01:58.53	245.14	3.59	-54.7	-74.0	3.8	7.46e-01	0	33	104	0	77	34795
2026-01-02 04:01:59.52	245.09	3.53	-54.7	-74.0	3.8	7.47e-01	0	32	104	0	77	34748
2026-01-02 04:02:00.52	245.04	3.46	-54.7	-74.0	3.9	7.47e-01	0	33	104	0	77	34767
2026-01-02 04:02:01.52	245.00	3.39	-54.7	-74.0	3.8	7.47e-01	0	33	104	0	77	34702
2026-01-02 04:02:02.52	244.95	3.32	-54.7	-74.0	3.8	7.47e-01	0	33	104	0	77	34794
2026-01-02 04:02:03.52	244.90	3.26	-54.7	-74.0	3.8	7.45e-01	0	33	104	0	77	34746
2026-01-02 04:02:04.52	244.86	3.19	-54.2	-74.0	3.9	7.44e-01	0	33	104	0	77	34756
2026-01-02 04:02:05.52	244.81	3.12	-54.7	-74.0	3.8	7.47e-01	0	33	104	0	77	34731
2026-01-02 04:02:06.53	244.77	3.06	-54.7	-74.0	3.8	7.42e-01	0	33	104	0	77	34726
2026-01-02 04:02:07.54	244.72	2.99	-54.7	-74.0	3.8	7.48e-01	0	33	104	0	77	34811
2026-01-02 04:02:08.54	244.67	2.92	-54.7	-74.0	3.8	7.44e-01	0	33	104	0	77	34712
2026-01-02 04:02:09.53	244.63	2.86	-54.7	-74.0	3.8	7.43e-01	0	33	104	0	77	34756
2026-01-02 04:02:10.53	244.59	2.79	-54.7	-74.0	3.8	7.48e-01	0	33	104	0	77	34811
2026-01-02 04:02:11.53	244.54	2.73	-54.7	-74.0	3.8	7.44e-01	0	33	104	0	77	34735
2026-01-02 04:02:12.53	244.50	2.66	-54.7	-74.0	3.8	7.46e-01	0	33	104	0	77	34772
2026-01-02 04:02:13.52	244.45	2.60	-54.7	-74.0	3.8	7.44e-01	0	33	104	0	77	34854
2026-01-02 04:02:14.53	244.41	2.53	-54.7	-74.0	3.8	7.45e-01	0	32	104	0	77	34832
2026-01-02 04:02:15.53	244.36	2.46	-54.7	-74.0	3.8	7.48e-01	0	33	104	0	77	34810
2026-01-02 04:02:16.53	244.32	2.40	-54.7	-74.0	3.8	7.50e-01	0	33	104	0	77	34719
2026-01-02 04:02:17.53	244.28	2.33	-54.7	-74.0	3.8	7.45e-01	0	33	104	0	77	34782
2026-01-02 04:02:18.52	244.24	2.27	-54.7	-74.0	3.8	7.47e-01	0	33	104	0	77	34753
2026-01-02 04:02:19.52	244.19	2.21	-54.7	-74.0	3.8	7.44e-01	0	32	104	0	77	34775
2026-01-02 04:02:20.53	244.15	2.14	-54.7	-74.0	3.8	7.43e-01	0	33	104	0	77	34761
2026-01-02 04:02:21.53	244.11	2.08	-54.7	-74.0	3.8	7.46e-01	0	33	104	0	77	34834
2026-01-02 04:02:22.53	244.07	2.01	-54.7	-74.0	3.8	7.46e-01	0	33	104	0	77	34735
2026-01-02 04:02:23.53	244.02	1.95	-54.7	-74.0	3.8	7.44e-01	0	33	104	0	77	34817

#Closed at: 2026-01-02 04:02:23
#Recorded file [0 MB]: D:/lorett/data/31004_260102_065008.dat