passes_logs/2026/01/02/R3.2S_Murmansk/R3.2S_Murmansk__20260102_012531_NOAA_21_JPSS-2_rec.log

#Pass ID: 20260102_012531_NOAA 21 (JPSS-2)
#Satellite: NOAA 21 (JPSS-2)
#Configuration: NOAA-21
#almurnet v.1.7.20251203
#Start time: 2026-01-02 01:25:33

#Version: 2.2.20231116
#Station: R3.2S_Murmansk
#Location: 33.079688 lon 68.888172 lat
#TLE: 1 54234U 22150A   26001.12709759  .00000171  00000+0  10204-3 0  9995
#TLE: 2 54234  98.7484 302.1957 0001286 353.9379   6.1781 14.19530519162845

#Time	Az	El	Level	Level2	SNR	BER	BlckErr	Temp	State	Recorded	gain1	gain2
2026-01-02 01:25:33.44	27.65	2.10	-59.4	-73.2	3.8	1.49e+00	0	31	0	0	85	17203
2026-01-02 01:25:34.43	27.63	2.16	-59.3	-73.0	3.8	1.49e+00	0	31	104	0	83	18930
2026-01-02 01:25:35.42	27.62	2.23	-59.3	-73.1	3.8	1.49e+00	0	31	104	0	83	18951
2026-01-02 01:25:36.42	27.60	2.29	-59.3	-73.0	3.8	1.49e+00	0	31	104	0	83	18948
2026-01-02 01:25:37.41	27.59	2.35	-59.3	-73.0	3.8	1.49e+00	0	31	104	0	83	18890
2026-01-02 01:25:38.41	27.57	2.42	-59.3	-73.0	3.8	1.49e+00	0	31	104	0	83	18883
2026-01-02 01:25:39.40	27.56	2.48	-59.3	-73.0	3.8	1.49e+00	0	31	104	0	83	18902
2026-01-02 01:25:40.40	27.54	2.55	-59.3	-73.0	3.8	1.49e+00	0	31	104	0	83	18852
2026-01-02 01:25:41.40	27.52	2.61	-59.3	-73.0	3.8	1.49e+00	0	31	104	0	83	18933
2026-01-02 01:25:42.40	27.51	2.68	-59.3	-73.0	3.8	1.49e+00	0	31	104	0	83	18899
2026-01-02 01:25:43.38	27.49	2.74	-59.2	-73.0	3.8	1.49e+00	0	31	104	0	83	18854
2026-01-02 01:25:44.38	27.48	2.81	-59.3	-73.0	3.8	1.49e+00	0	31	104	0	83	18850
2026-01-02 01:25:45.38	27.46	2.87	-59.3	-73.0	3.8	1.49e+00	0	31	104	0	83	18940
2026-01-02 01:25:46.38	27.44	2.94	-59.3	-73.0	3.8	1.49e+00	0	31	104	0	83	18918
2026-01-02 01:25:47.38	27.43	3.00	-59.3	-73.0	3.8	1.49e+00	0	32	104	0	83	18908
2026-01-02 01:25:48.38	27.41	3.07	-59.2	-73.0	3.8	1.49e+00	0	32	104	0	83	18814
2026-01-02 01:25:49.38	27.39	3.13	-59.2	-72.9	3.8	1.49e+00	0	32	104	0	83	18663
2026-01-02 01:25:50.38	27.38	3.20	-59.2	-72.9	3.8	1.49e+00	0	32	104	0	83	18543
2026-01-02 01:25:51.38	27.36	3.27	-59.2	-72.8	3.8	1.49e+00	0	32	104	0	83	18309
2026-01-02 01:25:52.37	27.34	3.33	-59.2	-72.7	3.8	1.49e+00	0	32	104	0	83	18191
2026-01-02 01:25:53.37	27.33	3.40	-59.2	-72.6	3.8	1.49e+00	0	32	104	0	83	17894
2026-01-02 01:25:54.38	27.31	3.46	-59.2	-72.5	3.8	1.49e+00	0	32	104	0	83	17693
2026-01-02 01:25:55.38	27.29	3.53	-59.2	-72.4	3.8	1.49e+00	0	32	104	0	83	17518
2026-01-02 01:25:56.37	27.27	3.60	-59.2	-72.2	3.8	1.49e+00	0	32	104	0	83	17133
2026-01-02 01:25:57.37	27.26	3.67	-59.2	-72.1	3.8	1.49e+00	0	32	104	0	83	17002
2026-01-02 01:25:58.36	27.24	3.73	-59.2	-71.9	3.8	1.49e+00	0	32	104	0	83	16636
2026-01-02 01:25:59.37	27.22	3.80	-59.1	-71.6	3.8	1.49e+00	0	32	104	0	83	16034
2026-01-02 01:26:00.37	27.20	3.87	-59.1	-71.4	3.8	1.49e+00	0	32	104	0	83	15672
2026-01-02 01:26:01.38	27.19	3.94	-59.1	-71.3	3.9	1.49e+00	0	32	104	0	83	15423
2026-01-02 01:26:02.37	27.17	4.00	-59.1	-71.3	3.8	1.49e+00	0	32	104	0	83	15461
2026-01-02 01:26:03.37	27.15	4.07	-59.1	-71.4	3.8	1.49e+00	0	32	104	0	83	15582
2026-01-02 01:26:04.37	27.13	4.14	-59.1	-71.4	3.9	1.49e+00	0	32	104	0	83	15629
2026-01-02 01:26:05.37	27.11	4.21	-59.1	-71.5	3.8	1.49e+00	0	32	104	0	83	15937
2026-01-02 01:26:06.37	27.10	4.28	-59.1	-71.7	3.8	1.49e+00	0	32	104	0	83	16291
2026-01-02 01:26:07.36	27.08	4.34	-59.2	-72.0	3.8	1.49e+00	0	32	104	0	83	16769
2026-01-02 01:26:08.37	27.06	4.41	-59.2	-72.0	3.8	1.49e+00	0	32	104	0	83	16739
2026-01-02 01:26:09.37	27.04	4.48	-59.1	-71.8	3.8	1.49e+00	0	32	104	0	83	16400
2026-01-02 01:26:10.37	27.02	4.55	-59.1	-71.1	3.9	1.49e+00	0	32	104	0	83	15135
2026-01-02 01:26:11.37	27.00	4.62	-59.0	-70.2	3.9	1.47e+00	0	32	104	0	83	13632
2026-01-02 01:26:12.37	26.98	4.69	-58.9	-68.8	4.4	1.46e+00	0	32	104	0	83	11637
2026-01-02 01:26:13.37	26.96	4.76	-58.8	-67.7	4.8	8.27e-01	0	32	104	0	83	10277
2026-01-02 01:26:14.38	26.95	4.83	-58.6	-66.4	5.5	4.70e-01	0	32	0	3145728	83	8837
2026-01-02 01:26:15.39	26.93	4.90	-58.4	-65.5	6.1	3.01e-01	0	32	0	6291456	83	7982
2026-01-02 01:26:16.39	26.91	4.97	-58.2	-64.9	6.6	1.93e-01	0	32	0	9437184	83	7452
2026-01-02 01:26:17.39	26.89	5.04	-59.7	-71.5	3.9	2.44e-01	0	32	104	11534336	84	14933
2026-01-02 01:26:18.39	26.87	5.12	-58.8	-66.9	4.5	1.49e+00	0	32	104	11534336	84	8846
2026-01-02 01:26:19.38	26.85	5.19	-55.6	-69.3	3.8	1.49e+00	0	32	104	11534336	77	17335
2026-01-02 01:26:20.38	26.83	5.26	-55.6	-69.3	3.8	1.49e+00	0	32	104	11534336	77	17342
2026-01-02 01:26:21.37	26.81	5.33	-55.6	-69.3	3.8	1.49e+00	0	32	104	11534336	77	17404
2026-01-02 01:26:22.37	26.79	5.40	-55.4	-69.0	3.8	1.49e+00	0	32	104	11534336	77	16723
2026-01-02 01:26:23.37	26.77	5.47	-55.4	-68.9	3.8	1.49e+00	0	32	104	11534336	77	16637
2026-01-02 01:26:24.37	26.75	5.54	-55.3	-68.9	3.8	1.49e+00	0	32	104	11534336	77	16678
2026-01-02 01:26:25.37	26.73	5.61	-55.3	-69.0	3.8	1.49e+00	0	32	104	11534336	77	16706
2026-01-02 01:26:26.38	26.71	5.69	-55.4	-69.0	3.8	1.49e+00	0	32	104	11534336	77	16814
2026-01-02 01:26:27.37	26.69	5.76	-55.4	-69.0	3.8	1.49e+00	0	32	104	11534336	76	17845
2026-01-02 01:26:28.37	26.66	5.83	-55.4	-69.0	3.8	1.49e+00	0	32	104	11534336	76	17869
2026-01-02 01:26:29.38	26.64	5.91	-55.4	-69.1	3.8	1.49e+00	0	32	104	11534336	76	17895
2026-01-02 01:26:30.38	26.62	5.98	-55.4	-69.0	3.8	1.49e+00	0	32	104	11534336	76	17872
2026-01-02 01:26:31.38	26.60	6.05	-55.4	-69.0	3.8	1.49e+00	0	32	104	11534336	76	17882
2026-01-02 01:26:32.38	26.58	6.13	-55.4	-69.0	3.8	1.49e+00	0	32	104	11534336	76	17847
2026-01-02 01:26:33.37	26.56	6.20	-55.4	-69.0	3.8	1.49e+00	0	32	104	11534336	76	17863
2026-01-02 01:26:34.37	26.54	6.27	-55.3	-69.0	3.8	1.49e+00	0	32	104	11534336	76	17757
2026-01-02 01:26:35.37	26.51	6.35	-55.4	-69.0	3.8	1.49e+00	0	32	104	11534336	76	17751
2026-01-02 01:26:36.37	26.49	6.42	-55.4	-69.0	3.8	1.49e+00	0	32	104	11534336	76	17703
2026-01-02 01:26:37.36	26.47	6.49	-55.3	-69.0	3.8	1.49e+00	0	32	104	11534336	76	17692
2026-01-02 01:26:38.36	26.45	6.57	-55.3	-69.0	3.8	1.49e+00	0	32	104	11534336	76	17775
2026-01-02 01:26:39.36	26.43	6.64	-55.4	-69.0	3.8	1.49e+00	0	32	104	11534336	76	17797
2026-01-02 01:26:40.35	26.40	6.72	-55.4	-69.0	3.8	1.49e+00	0	32	104	11534336	76	17818
2026-01-02 01:26:41.34	26.38	6.79	-55.4	-69.0	3.8	1.49e+00	0	32	104	11534336	76	17801
2026-01-02 01:26:42.34	26.36	6.87	-55.3	-69.0	3.8	1.49e+00	0	32	104	11534336	76	17824
2026-01-02 01:26:43.34	26.34	6.94	-55.3	-69.0	3.8	1.49e+00	0	33	104	11534336	76	17797
2026-01-02 01:26:44.34	26.31	7.02	-55.3	-69.0	3.8	1.49e+00	0	33	104	11534336	76	17817
2026-01-02 01:26:45.34	26.29	7.10	-55.3	-69.0	3.8	1.49e+00	0	32	104	11534336	76	17834
2026-01-02 01:26:46.34	26.27	7.17	-55.3	-69.0	3.8	1.49e+00	0	33	104	11534336	76	17849
2026-01-02 01:26:47.34	26.24	7.25	-55.4	-69.0	3.8	1.49e+00	0	33	104	11534336	76	17845
2026-01-02 01:26:48.34	26.22	7.33	-55.3	-69.0	3.8	1.49e+00	0	32	104	11534336	76	17869
2026-01-02 01:26:49.34	26.20	7.40	-55.3	-69.0	3.8	1.49e+00	0	33	104	11534336	76	17877
2026-01-02 01:26:50.34	26.17	7.48	-55.2	-69.0	3.8	1.49e+00	0	33	104	11534336	76	17844
2026-01-02 01:26:51.34	26.15	7.56	-55.3	-69.1	3.8	1.49e+00	0	33	104	11534336	76	17889
2026-01-02 01:26:52.34	26.12	7.64	-55.4	-69.0	3.8	1.49e+00	0	33	104	11534336	76	17816
2026-01-02 01:26:53.34	26.10	7.71	-55.4	-69.0	3.8	1.49e+00	0	33	104	11534336	76	17804
2026-01-02 01:26:54.34	26.08	7.79	-55.3	-69.0	3.8	1.49e+00	0	33	104	11534336	76	17749
2026-01-02 01:26:55.33	26.05	7.87	-55.3	-69.0	3.8	1.49e+00	0	32	104	11534336	76	17812
2026-01-02 01:26:56.34	26.03	7.95	-55.3	-69.0	3.8	1.49e+00	0	32	104	11534336	76	17824
2026-01-02 01:26:57.34	26.00	8.03	-55.3	-69.0	3.8	1.49e+00	0	33	104	11534336	76	17797
2026-01-02 01:26:58.34	25.98	8.11	-55.3	-69.0	3.8	1.49e+00	0	33	104	11534336	76	17817
2026-01-02 01:26:59.34	25.95	8.19	-55.3	-69.0	3.8	1.49e+00	0	33	104	11534336	76	17760
2026-01-02 01:27:00.33	25.93	8.27	-55.4	-69.0	3.8	1.49e+00	0	33	104	11534336	76	17817
2026-01-02 01:27:01.34	25.90	8.35	-55.3	-69.0	3.8	1.49e+00	0	33	104	11534336	76	17801
2026-01-02 01:27:02.34	25.87	8.43	-55.4	-69.0	3.8	1.49e+00	0	33	104	11534336	76	17818
2026-01-02 01:27:03.34	25.85	8.51	-55.3	-69.0	3.8	1.49e+00	0	33	104	11534336	76	17871
2026-01-02 01:27:04.34	25.82	8.59	-55.3	-69.0	3.8	1.49e+00	0	33	104	11534336	76	17860
2026-01-02 01:27:05.34	25.80	8.67	-55.3	-69.0	3.8	1.49e+00	0	33	104	11534336	76	17797
2026-01-02 01:27:06.34	25.77	8.75	-55.4	-69.0	3.8	1.49e+00	0	33	104	11534336	76	17839
2026-01-02 01:27:07.34	25.74	8.83	-55.4	-69.0	3.8	1.49e+00	0	33	104	11534336	76	17798
2026-01-02 01:27:08.34	25.72	8.91	-55.3	-69.0	3.8	1.49e+00	0	33	104	11534336	76	17862
2026-01-02 01:27:09.34	25.69	8.99	-55.3	-69.0	3.8	1.49e+00	0	33	104	11534336	76	17876
2026-01-02 01:27:10.34	25.66	9.08	-55.4	-69.1	3.8	1.49e+00	0	33	104	11534336	76	17929
2026-01-02 01:27:11.34	25.63	9.16	-55.4	-69.1	3.8	1.49e+00	0	33	104	11534336	76	17909
2026-01-02 01:27:12.34	25.61	9.24	-55.3	-69.0	3.8	1.49e+00	0	33	104	11534336	76	17874
2026-01-02 01:27:13.35	25.58	9.33	-55.3	-69.1	3.8	1.49e+00	0	33	104	11534336	76	17899
2026-01-02 01:27:14.34	25.55	9.41	-55.4	-69.0	3.8	1.49e+00	0	33	104	11534336	76	17872
2026-01-02 01:27:15.34	25.52	9.49	-55.4	-69.1	3.8	1.49e+00	0	33	104	11534336	76	17900
2026-01-02 01:27:16.34	25.50	9.58	-55.3	-69.0	3.8	1.49e+00	0	33	104	11534336	76	17838
2026-01-02 01:27:17.33	25.47	9.66	-55.3	-69.0	3.8	1.49e+00	0	33	104	11534336	76	17836
2026-01-02 01:27:18.32	25.44	9.74	-55.3	-69.0	3.8	1.49e+00	0	33	104	11534336	76	17829
2026-01-02 01:27:19.32	25.41	9.83	-55.4	-69.0	3.8	1.49e+00	0	33	104	11534336	76	17885
2026-01-02 01:27:20.32	25.38	9.91	-55.4	-69.0	3.8	1.49e+00	0	33	104	11534336	76	17797
2026-01-02 01:27:21.32	25.35	10.00	-55.4	-69.0	3.8	1.49e+00	0	33	104	11534336	76	17785
2026-01-02 01:27:22.32	25.32	10.08	-55.3	-69.0	3.8	1.49e+00	0	33	104	11534336	76	17761
2026-01-02 01:27:23.32	25.29	10.17	-55.4	-69.0	3.8	1.49e+00	0	33	104	11534336	76	17788
2026-01-02 01:27:24.32	25.26	10.25	-55.4	-69.0	3.8	1.49e+00	0	33	104	11534336	76	17857
2026-01-02 01:27:25.32	25.23	10.34	-55.4	-69.0	3.8	1.49e+00	0	33	104	11534336	76	17789
2026-01-02 01:27:26.32	25.20	10.43	-55.3	-69.0	3.8	1.49e+00	0	33	104	11534336	76	17811
2026-01-02 01:27:27.32	25.17	10.51	-55.4	-69.0	3.8	1.49e+00	0	33	104	11534336	76	17844
2026-01-02 01:27:28.31	25.14	10.60	-55.4	-69.0	3.8	1.49e+00	0	33	104	11534336	76	17821
2026-01-02 01:27:29.30	25.11	10.69	-55.4	-69.0	3.8	1.49e+00	0	33	104	11534336	76	17872
2026-01-02 01:27:30.30	25.08	10.78	-55.3	-69.1	3.8	1.49e+00	0	33	104	11534336	76	17933
2026-01-02 01:27:31.30	25.05	10.86	-55.4	-69.0	3.8	1.49e+00	0	33	104	11534336	76	17850
2026-01-02 01:27:32.30	25.02	10.95	-55.4	-69.1	3.8	1.49e+00	0	33	104	11534336	76	17899
2026-01-02 01:27:33.30	24.99	11.04	-55.4	-69.0	3.8	1.49e+00	0	33	104	11534336	76	17838
2026-01-02 01:27:34.30	24.96	11.13	-55.4	-69.1	3.8	1.49e+00	0	33	104	11534336	76	17910
2026-01-02 01:27:35.29	24.92	11.22	-55.4	-69.0	3.8	1.49e+00	0	33	104	11534336	76	17882
2026-01-02 01:27:36.30	24.89	11.31	-55.4	-69.1	3.8	1.49e+00	0	33	104	11534336	76	17906
2026-01-02 01:27:37.30	24.86	11.40	-55.3	-69.0	3.8	1.49e+00	0	33	104	11534336	76	17871
2026-01-02 01:27:38.30	24.83	11.49	-55.4	-69.0	3.8	1.49e+00	0	33	104	11534336	76	17850
2026-01-02 01:27:39.30	24.79	11.58	-55.3	-69.1	3.8	1.49e+00	0	33	104	11534336	76	17891
2026-01-02 01:27:40.30	24.76	11.67	-55.4	-69.0	3.8	1.49e+00	0	33	104	11534336	76	17861
2026-01-02 01:27:41.30	24.73	11.76	-55.4	-69.0	3.8	1.49e+00	0	33	104	11534336	76	17838
2026-01-02 01:27:42.30	24.69	11.85	-55.1	-69.1	3.8	1.49e+00	0	33	104	11534336	76	17900
2026-01-02 01:27:43.30	24.66	11.95	-55.3	-69.0	3.8	1.49e+00	0	33	104	11534336	76	17820
2026-01-02 01:27:44.30	24.63	12.04	-55.3	-69.0	3.8	1.49e+00	0	33	104	11534336	76	17870
2026-01-02 01:27:45.30	24.59	12.13	-55.3	-69.0	3.8	1.49e+00	0	33	104	11534336	76	17845
2026-01-02 01:27:46.30	24.56	12.22	-55.3	-69.0	3.8	1.49e+00	0	33	104	11534336	76	17843
2026-01-02 01:27:47.29	24.52	12.32	-55.3	-69.0	3.8	1.49e+00	0	33	104	11534336	76	17800
2026-01-02 01:27:48.29	24.49	12.41	-55.3	-69.0	3.8	1.49e+00	0	33	104	11534336	76	17812
2026-01-02 01:27:49.29	24.45	12.50	-55.3	-69.0	3.8	1.49e+00	0	33	104	11534336	76	17806
2026-01-02 01:27:50.30	24.42	12.60	-55.3	-69.0	3.8	1.49e+00	0	33	104	11534336	76	17828
2026-01-02 01:27:51.30	24.38	12.69	-55.3	-69.0	3.8	1.49e+00	0	33	104	11534336	76	17826
2026-01-02 01:27:52.30	24.34	12.79	-55.4	-69.0	3.8	1.49e+00	0	33	104	11534336	76	17865
2026-01-02 01:27:53.30	24.31	12.89	-55.3	-69.0	3.8	1.49e+00	0	33	104	11534336	76	17821
2026-01-02 01:27:54.30	24.27	12.98	-55.4	-69.0	3.8	1.49e+00	0	33	104	11534336	76	17858
2026-01-02 01:27:55.30	24.23	13.08	-55.3	-69.0	3.8	1.49e+00	0	33	104	11534336	76	17847
2026-01-02 01:27:56.31	24.20	13.17	-55.3	-69.0	3.8	1.49e+00	0	33	104	11534336	76	17792
2026-01-02 01:27:57.30	24.16	13.27	-55.3	-69.0	3.8	1.49e+00	0	33	104	11534336	76	17862
2026-01-02 01:27:58.30	24.12	13.37	-55.3	-69.0	3.8	1.49e+00	0	33	104	11534336	76	17791
2026-01-02 01:27:59.30	24.08	13.47	-55.3	-69.0	3.8	1.49e+00	0	33	104	11534336	76	17849
2026-01-02 01:28:00.30	24.05	13.56	-55.3	-69.0	3.8	1.49e+00	0	33	104	11534336	76	17845
2026-01-02 01:28:01.29	24.01	13.66	-55.3	-69.0	3.8	1.49e+00	0	33	104	11534336	76	17826
2026-01-02 01:28:02.29	23.97	13.76	-55.3	-69.0	3.8	1.49e+00	0	33	104	11534336	76	17850
2026-01-02 01:28:03.30	23.93	13.86	-55.3	-69.0	3.8	1.49e+00	0	33	104	11534336	76	17850
2026-01-02 01:28:04.30	23.89	13.96	-55.3	-69.0	3.8	1.49e+00	0	33	104	11534336	76	17837
2026-01-02 01:28:05.30	23.85	14.06	-55.3	-69.0	3.8	1.49e+00	0	33	104	11534336	76	17770
2026-01-02 01:28:06.31	23.81	14.16	-55.3	-69.0	3.8	1.49e+00	0	33	104	11534336	76	17871
2026-01-02 01:28:07.31	23.77	14.26	-55.3	-69.0	3.8	1.49e+00	0	33	104	11534336	76	17811
2026-01-02 01:28:08.31	23.73	14.36	-55.3	-69.0	3.8	1.49e+00	0	33	104	11534336	76	17814
2026-01-02 01:28:09.32	23.69	14.47	-55.3	-69.0	3.8	1.49e+00	0	33	104	11534336	76	17815
2026-01-02 01:28:10.31	23.65	14.57	-55.3	-69.0	3.8	1.49e+00	0	33	104	11534336	76	17822
2026-01-02 01:28:11.31	23.61	14.67	-55.3	-69.0	3.8	1.49e+00	0	33	104	11534336	76	17877
2026-01-02 01:28:12.31	23.56	14.77	-55.3	-69.0	3.8	1.49e+00	0	33	104	11534336	76	17822
2026-01-02 01:28:13.31	23.52	14.88	-55.3	-69.0	3.8	1.49e+00	0	33	104	11534336	76	17885
2026-01-02 01:28:14.31	23.48	14.98	-55.3	-69.0	3.8	1.49e+00	0	33	104	11534336	76	17860
2026-01-02 01:28:15.31	23.44	15.08	-55.3	-69.0	3.8	1.49e+00	0	33	104	11534336	76	17840
2026-01-02 01:28:16.31	23.39	15.19	-55.3	-69.0	3.8	1.49e+00	0	33	104	11534336	76	17838
2026-01-02 01:28:17.31	23.35	15.29	-55.3	-69.0	3.8	1.49e+00	0	33	104	11534336	76	17798
2026-01-02 01:28:18.31	23.31	15.40	-55.3	-69.0	3.8	1.49e+00	0	33	104	11534336	76	17845
2026-01-02 01:28:19.30	23.26	15.50	-55.4	-69.1	3.8	1.49e+00	0	33	104	11534336	76	17891
2026-01-02 01:28:20.31	23.22	15.61	-55.4	-69.0	3.8	1.49e+00	0	33	104	11534336	76	17870
2026-01-02 01:28:21.31	23.17	15.72	-55.3	-69.0	3.8	1.49e+00	0	33	104	11534336	76	17873
2026-01-02 01:28:22.31	23.13	15.82	-55.3	-69.0	3.8	1.49e+00	0	33	104	11534336	76	17825
2026-01-02 01:28:23.30	23.08	15.93	-55.4	-69.0	3.8	1.49e+00	0	33	104	11534336	76	17880
2026-01-02 01:28:24.30	23.04	16.04	-55.4	-69.0	3.8	1.49e+00	0	33	104	11534336	76	17835
2026-01-02 01:28:25.30	22.99	16.15	-55.4	-69.0	3.8	1.49e+00	0	33	104	11534336	76	17878
2026-01-02 01:28:26.30	22.95	16.26	-55.4	-69.0	3.8	1.49e+00	0	33	104	11534336	76	17780
2026-01-02 01:28:27.30	22.90	16.37	-55.4	-69.0	3.8	1.49e+00	0	33	104	11534336	76	17873
2026-01-02 01:28:28.31	22.85	16.48	-55.3	-69.0	3.8	1.49e+00	0	33	104	11534336	76	17842
2026-01-02 01:28:29.30	22.80	16.59	-55.3	-69.1	3.8	1.49e+00	0	33	104	11534336	76	17910
2026-01-02 01:28:30.30	22.76	16.70	-55.4	-69.0	3.8	1.49e+00	0	33	104	11534336	76	17884
2026-01-02 01:28:31.30	22.71	16.81	-55.3	-69.0	3.8	1.49e+00	0	33	104	11534336	76	17820
2026-01-02 01:28:32.30	22.66	16.92	-55.3	-69.1	3.8	1.49e+00	0	33	104	11534336	76	17921
2026-01-02 01:28:33.30	22.61	17.03	-55.4	-69.0	3.8	1.49e+00	0	33	104	11534336	76	17865
2026-01-02 01:28:34.30	22.56	17.15	-55.4	-69.1	3.8	1.49e+00	0	33	104	11534336	76	17894
2026-01-02 01:28:35.29	22.51	17.26	-55.4	-69.1	3.8	1.49e+00	0	33	104	11534336	76	17923
2026-01-02 01:28:36.29	22.46	17.37	-55.4	-69.0	3.8	1.49e+00	0	33	104	11534336	76	17875
2026-01-02 01:28:37.30	22.41	17.49	-55.4	-69.0	3.8	1.49e+00	0	33	104	11534336	76	17878
2026-01-02 01:28:38.30	22.36	17.60	-55.4	-69.0	3.8	1.49e+00	0	33	104	11534336	76	17880
2026-01-02 01:28:39.30	22.30	17.72	-55.4	-69.1	3.8	1.49e+00	0	33	104	11534336	76	17919
2026-01-02 01:28:40.29	22.25	17.83	-55.4	-69.1	3.8	1.49e+00	0	33	104	11534336	76	17906
2026-01-02 01:28:41.29	22.20	17.95	-55.4	-69.0	3.8	1.49e+00	0	33	104	11534336	76	17844
2026-01-02 01:28:42.29	22.15	18.07	-55.4	-69.1	3.8	1.49e+00	0	33	104	11534336	76	17899
2026-01-02 01:28:43.29	22.09	18.18	-55.4	-69.0	3.8	1.49e+00	0	33	104	11534336	76	17858
2026-01-02 01:28:44.29	22.04	18.30	-55.4	-69.0	3.8	1.49e+00	0	33	104	11534336	76	17881
2026-01-02 01:28:45.29	21.99	18.42	-55.4	-69.0	3.8	1.49e+00	0	33	104	11534336	76	17843
2026-01-02 01:28:46.29	21.93	18.54	-55.4	-69.1	3.8	1.49e+00	0	33	104	11534336	76	17892
2026-01-02 01:28:47.28	21.88	18.66	-55.4	-69.0	3.8	1.49e+00	0	33	104	11534336	76	17880
2026-01-02 01:28:48.28	21.82	18.78	-55.3	-69.1	3.8	1.49e+00	0	33	104	11534336	76	17909
2026-01-02 01:28:49.28	21.77	18.90	-55.3	-69.0	3.8	1.49e+00	0	33	104	11534336	76	17860
2026-01-02 01:28:50.27	21.71	19.02	-55.4	-69.0	3.8	1.49e+00	0	33	104	11534336	76	17885
2026-01-02 01:28:51.27	21.65	19.14	-55.4	-69.0	3.8	1.49e+00	0	33	104	11534336	76	17824
2026-01-02 01:28:52.27	21.59	19.26	-55.4	-69.1	3.8	1.49e+00	0	33	104	11534336	76	17916
2026-01-02 01:28:53.27	21.54	19.39	-55.4	-69.0	3.8	1.49e+00	0	33	104	11534336	76	17888
2026-01-02 01:28:54.27	21.48	19.51	-55.4	-69.1	3.8	1.49e+00	0	33	104	11534336	76	17914
2026-01-02 01:28:55.27	21.42	19.63	-55.4	-69.1	3.8	1.49e+00	0	33	104	11534336	76	17903
2026-01-02 01:28:56.27	21.36	19.76	-55.4	-69.1	3.8	1.49e+00	0	33	104	11534336	76	17920
2026-01-02 01:28:57.27	21.30	19.88	-55.4	-69.1	3.8	1.49e+00	0	33	104	11534336	76	17932
2026-01-02 01:28:58.28	21.24	20.01	-55.4	-69.1	3.8	1.49e+00	0	33	104	11534336	76	17898
2026-01-02 01:28:59.28	21.18	20.14	-55.4	-69.1	3.8	1.49e+00	0	33	104	11534336	76	17896
2026-01-02 01:29:00.28	21.11	20.27	-55.3	-69.0	3.8	1.49e+00	0	33	104	11534336	76	17883
2026-01-02 01:29:01.27	21.05	20.39	-55.4	-69.0	3.8	1.49e+00	0	33	104	11534336	76	17856
2026-01-02 01:29:02.27	20.99	20.52	-55.4	-69.0	3.8	1.49e+00	0	33	104	11534336	76	17836
2026-01-02 01:29:03.28	20.93	20.65	-55.3	-69.0	3.8	1.49e+00	0	33	104	11534336	76	17841
2026-01-02 01:29:04.28	20.86	20.78	-55.3	-69.0	3.8	1.49e+00	0	33	104	11534336	76	17799
2026-01-02 01:29:05.28	20.80	20.91	-55.4	-69.0	3.8	1.49e+00	0	33	104	11534336	76	17782
2026-01-02 01:29:06.28	20.73	21.04	-55.4	-69.0	3.8	1.49e+00	0	33	104	11534336	76	17766
2026-01-02 01:29:07.28	20.67	21.17	-55.3	-69.0	3.8	1.49e+00	0	33	104	11534336	76	17787
2026-01-02 01:29:08.28	20.60	21.31	-55.4	-69.0	3.8	1.49e+00	0	33	104	11534336	76	17769
2026-01-02 01:29:09.28	20.53	21.44	-55.3	-69.0	3.8	1.49e+00	0	33	104	11534336	76	17750
2026-01-02 01:29:10.28	20.47	21.57	-55.3	-69.0	3.8	1.49e+00	0	33	104	11534336	76	17787
2026-01-02 01:29:11.27	20.40	21.70	-55.4	-69.0	3.8	1.49e+00	0	33	104	11534336	76	17824
2026-01-02 01:29:12.28	20.33	21.84	-55.3	-69.0	3.9	1.49e+00	0	33	104	11534336	76	17789
2026-01-02 01:29:13.28	20.26	21.98	-55.3	-69.0	3.8	1.49e+00	0	33	104	11534336	76	17770
2026-01-02 01:29:14.27	20.19	22.11	-55.4	-69.0	3.8	1.49e+00	0	33	104	11534336	76	17786
2026-01-02 01:29:15.27	20.12	22.25	-55.4	-69.0	3.8	1.49e+00	0	33	104	11534336	76	17803
2026-01-02 01:29:16.28	20.05	22.39	-55.4	-69.0	3.8	1.49e+00	0	33	104	11534336	76	17782
2026-01-02 01:29:17.28	19.98	22.53	-55.4	-69.0	3.8	1.49e+00	0	33	104	11534336	76	17770
2026-01-02 01:29:18.28	19.90	22.66	-55.4	-69.0	3.8	1.49e+00	0	33	104	11534336	76	17775
2026-01-02 01:29:19.28	19.83	22.80	-55.3	-69.0	3.8	1.49e+00	0	33	104	11534336	76	17714
2026-01-02 01:29:20.28	19.75	22.94	-55.4	-69.0	3.8	1.49e+00	0	33	104	11534336	76	17742
2026-01-02 01:29:21.28	19.68	23.09	-55.4	-69.0	3.8	1.49e+00	0	33	104	11534336	76	17777
2026-01-02 01:29:22.29	19.60	23.23	-55.4	-69.0	3.8	1.49e+00	0	33	104	11534336	76	17840
2026-01-02 01:29:23.29	19.53	23.37	-55.3	-69.1	3.8	1.49e+00	0	33	104	11534336	76	17896
2026-01-02 01:29:24.29	19.45	23.51	-55.4	-69.0	3.8	1.49e+00	0	33	104	11534336	76	17834
2026-01-02 01:29:25.28	19.37	23.66	-55.4	-69.0	3.8	1.49e+00	0	33	104	11534336	76	17833
2026-01-02 01:29:26.28	19.30	23.80	-55.4	-69.0	3.8	1.49e+00	0	33	104	11534336	76	17885
2026-01-02 01:29:27.28	19.22	23.95	-55.4	-69.0	3.8	1.49e+00	0	33	104	11534336	76	17838
2026-01-02 01:29:28.28	19.14	24.09	-55.4	-69.1	3.8	1.49e+00	0	33	104	11534336	76	17905
2026-01-02 01:29:29.28	19.06	24.24	-55.3	-69.0	3.8	1.49e+00	0	33	104	11534336	76	17837
2026-01-02 01:29:30.29	18.97	24.39	-55.4	-69.0	3.8	1.49e+00	0	33	104	11534336	76	17867
2026-01-02 01:29:31.29	18.89	24.54	-55.4	-69.0	3.8	1.49e+00	0	33	104	11534336	76	17868
2026-01-02 01:29:32.29	18.81	24.69	-55.4	-69.1	3.8	1.49e+00	0	33	104	11534336	76	17918
2026-01-02 01:29:33.29	18.72	24.84	-55.4	-69.0	3.8	1.49e+00	0	33	104	11534336	76	17861
2026-01-02 01:29:34.29	18.64	24.99	-55.4	-69.0	3.8	1.49e+00	0	33	104	11534336	76	17857
2026-01-02 01:29:35.29	18.55	25.14	-55.3	-69.0	3.8	1.49e+00	0	33	104	11534336	76	17871
2026-01-02 01:29:36.29	18.47	25.29	-55.4	-69.0	3.8	1.49e+00	0	33	104	11534336	76	17847
2026-01-02 01:29:37.29	18.38	25.45	-55.3	-69.0	3.8	1.49e+00	0	33	104	11534336	76	17863
2026-01-02 01:29:38.29	18.29	25.60	-55.3	-69.0	3.8	1.49e+00	0	33	104	11534336	76	17844
2026-01-02 01:29:39.29	18.20	25.76	-55.3	-69.0	3.8	1.49e+00	0	33	104	11534336	76	17830
2026-01-02 01:29:40.29	18.11	25.91	-55.4	-69.0	3.8	1.49e+00	0	33	104	11534336	76	17849
2026-01-02 01:29:41.29	18.02	26.07	-55.4	-69.0	3.8	1.49e+00	0	33	104	11534336	76	17837
2026-01-02 01:29:42.28	17.93	26.22	-55.4	-69.0	3.8	1.49e+00	0	33	104	11534336	76	17837
2026-01-02 01:29:43.28	17.83	26.38	-55.4	-69.1	3.8	1.49e+00	0	33	104	11534336	76	17894
2026-01-02 01:29:44.28	17.74	26.54	-55.4	-69.0	3.8	1.49e+00	0	33	104	11534336	76	17872
2026-01-02 01:29:45.28	17.65	26.70	-55.4	-69.0	3.8	1.49e+00	0	33	104	11534336	76	17838
2026-01-02 01:29:46.28	17.55	26.86	-55.4	-69.0	3.8	1.49e+00	0	33	104	11534336	76	17871
2026-01-02 01:29:47.27	17.45	27.02	-55.4	-69.1	3.8	1.49e+00	0	33	104	11534336	76	17890
2026-01-02 01:29:48.27	17.36	27.18	-55.4	-69.0	3.8	1.49e+00	0	33	104	11534336	76	17847
2026-01-02 01:29:49.27	17.26	27.35	-55.4	-69.0	3.8	1.49e+00	0	33	104	11534336	76	17858
2026-01-02 01:29:50.27	17.16	27.51	-55.4	-69.0	3.8	1.49e+00	0	33	104	11534336	76	17851
2026-01-02 01:29:51.27	17.06	27.68	-55.4	-69.1	3.8	1.49e+00	0	33	104	11534336	76	17899
2026-01-02 01:29:52.27	16.95	27.84	-55.4	-69.1	3.8	1.49e+00	0	33	104	11534336	76	17935
2026-01-02 01:29:53.27	16.85	28.01	-55.4	-69.0	3.8	1.49e+00	0	33	104	11534336	76	17869
2026-01-02 01:29:54.27	16.75	28.18	-55.4	-69.1	3.8	1.49e+00	0	33	104	11534336	76	17905
2026-01-02 01:29:55.26	16.64	28.34	-55.4	-69.1	3.8	1.49e+00	0	33	104	11534336	76	17929
2026-01-02 01:29:56.26	16.53	28.51	-55.4	-69.0	3.8	1.49e+00	0	33	104	11534336	76	17835
2026-01-02 01:29:57.26	16.43	28.69	-55.4	-69.0	3.8	1.49e+00	0	33	104	11534336	76	17857
2026-01-02 01:29:58.25	16.32	28.86	-55.4	-69.0	3.8	1.49e+00	0	33	104	11534336	76	17853
2026-01-02 01:29:59.25	16.21	29.03	-55.4	-69.0	3.8	1.49e+00	0	33	104	11534336	76	17858
2026-01-02 01:30:00.24	16.10	29.20	-55.4	-69.0	3.8	1.49e+00	0	33	104	11534336	76	17888
2026-01-02 01:30:01.24	15.98	29.37	-55.4	-69.0	3.8	1.49e+00	0	33	104	11534336	76	17884
2026-01-02 01:30:02.24	15.87	29.55	-55.4	-69.0	3.8	1.49e+00	0	33	104	11534336	76	17863
2026-01-02 01:30:03.25	15.75	29.73	-55.3	-69.0	3.8	1.49e+00	0	33	104	11534336	76	17844
2026-01-02 01:30:04.25	15.64	29.90	-55.4	-69.0	3.8	1.49e+00	0	33	104	11534336	76	17830
2026-01-02 01:30:05.24	15.52	30.08	-55.4	-69.1	3.8	1.49e+00	0	33	104	11534336	76	17934
2026-01-02 01:30:06.23	15.40	30.26	-55.4	-69.0	3.8	1.49e+00	0	33	104	11534336	76	17860
2026-01-02 01:30:07.24	15.28	30.44	-55.3	-69.0	3.8	1.49e+00	0	33	104	11534336	76	17864
2026-01-02 01:30:08.24	15.16	30.62	-55.4	-69.0	3.8	1.49e+00	0	33	104	11534336	76	17857
2026-01-02 01:30:09.24	15.03	30.80	-55.3	-69.0	3.8	1.49e+00	0	33	104	11534336	76	17881
2026-01-02 01:30:10.24	14.91	30.99	-55.4	-69.0	3.8	1.49e+00	0	33	104	11534336	76	17824
2026-01-02 01:30:11.24	14.78	31.17	-55.3	-69.0	3.8	1.49e+00	0	33	104	11534336	76	17860
2026-01-02 01:30:12.24	14.65	31.36	-55.3	-69.0	3.8	1.49e+00	0	33	104	11534336	76	17854
2026-01-02 01:30:13.24	14.52	31.54	-55.3	-69.0	3.8	1.49e+00	0	33	104	11534336	76	17849
2026-01-02 01:30:14.23	14.39	31.73	-55.4	-69.0	3.8	1.49e+00	0	33	104	11534336	76	17863
2026-01-02 01:30:15.23	14.26	31.91	-55.4	-69.1	3.8	1.49e+00	0	33	104	11534336	76	17892
2026-01-02 01:30:16.24	14.13	32.11	-55.4	-69.0	3.8	1.49e+00	0	33	104	11534336	76	17846
2026-01-02 01:30:17.24	13.99	32.30	-55.4	-69.0	3.8	1.49e+00	0	33	104	11534336	76	17853
2026-01-02 01:30:18.24	13.85	32.49	-55.4	-69.0	3.8	1.49e+00	0	33	104	11534336	76	17864
2026-01-02 01:30:19.24	13.71	32.68	-55.3	-69.0	3.8	1.49e+00	0	33	104	11534336	76	17879
2026-01-02 01:30:20.24	13.57	32.87	-55.3	-69.0	3.8	1.49e+00	0	33	104	11534336	76	17813
2026-01-02 01:30:21.24	13.43	33.07	-55.3	-69.0	3.8	1.49e+00	0	33	104	11534336	76	17862
2026-01-02 01:30:22.24	13.29	33.26	-55.3	-69.0	3.8	1.49e+00	0	33	104	11534336	76	17858
2026-01-02 01:30:23.23	13.14	33.46	-55.3	-69.0	3.8	1.49e+00	0	33	104	11534336	76	17832
2026-01-02 01:30:24.23	12.99	33.65	-55.4	-69.0	3.8	1.49e+00	0	33	104	11534336	76	17860
2026-01-02 01:30:25.23	12.84	33.85	-55.4	-69.0	3.8	1.49e+00	0	33	104	11534336	76	17887
2026-01-02 01:30:26.23	12.69	34.05	-55.4	-69.0	3.8	1.49e+00	0	33	104	11534336	76	17813
2026-01-02 01:30:27.24	12.54	34.26	-55.4	-69.0	3.8	1.49e+00	0	33	104	11534336	76	17876
2026-01-02 01:30:28.23	12.38	34.45	-55.3	-69.0	3.8	1.49e+00	0	33	104	11534336	76	17858
2026-01-02 01:30:29.23	12.22	34.66	-55.3	-69.0	3.8	1.49e+00	0	33	104	11534336	76	17867
2026-01-02 01:30:30.23	12.07	34.86	-55.4	-69.0	3.8	1.49e+00	0	33	104	11534336	76	17820
2026-01-02 01:30:31.23	11.90	35.07	-55.4	-69.0	3.8	1.49e+00	0	33	104	11534336	76	17846
2026-01-02 01:30:32.23	11.74	35.27	-55.4	-69.0	3.8	1.49e+00	0	33	104	11534336	76	17863
2026-01-02 01:30:33.23	11.57	35.48	-55.3	-69.0	3.8	1.49e+00	0	33	104	11534336	76	17851
2026-01-02 01:30:34.24	11.40	35.69	-55.3	-69.0	3.8	1.49e+00	0	33	104	11534336	76	17857
2026-01-02 01:30:35.24	11.23	35.90	-55.3	-69.0	3.8	1.49e+00	0	33	104	11534336	76	17800
2026-01-02 01:30:36.23	11.06	36.11	-55.3	-69.1	3.8	1.49e+00	0	33	104	11534336	76	17902
2026-01-02 01:30:37.23	10.89	36.32	-55.3	-69.0	3.8	1.49e+00	0	33	104	11534336	76	17860
2026-01-02 01:30:38.23	10.71	36.53	-55.3	-69.0	3.8	1.49e+00	0	33	104	11534336	76	17867
2026-01-02 01:30:39.24	10.53	36.75	-55.3	-69.0	3.8	1.49e+00	0	33	104	11534336	76	17879
2026-01-02 01:30:40.23	10.35	36.96	-55.3	-69.0	3.8	1.49e+00	0	33	104	11534336	76	17849
2026-01-02 01:30:41.23	10.17	37.17	-55.3	-69.0	3.8	1.49e+00	0	33	104	11534336	76	17860
2026-01-02 01:30:42.22	9.98	37.39	-55.4	-69.0	3.8	1.49e+00	0	33	104	11534336	76	17879
2026-01-02 01:30:43.23	9.79	37.61	-55.4	-69.1	3.8	1.49e+00	0	33	104	11534336	76	17900
2026-01-02 01:30:44.22	9.60	37.82	-55.3	-69.0	3.8	1.49e+00	0	33	104	11534336	76	17885
2026-01-02 01:30:45.23	9.40	38.05	-55.3	-69.0	3.8	1.49e+00	0	33	104	11534336	76	17862
2026-01-02 01:30:46.22	9.21	38.27	-55.3	-69.0	3.8	1.49e+00	0	33	104	11534336	76	17848
2026-01-02 01:30:47.22	9.01	38.49	-55.4	-69.0	3.8	1.49e+00	0	33	104	11534336	76	17841
2026-01-02 01:30:48.22	8.80	38.71	-55.4	-69.0	3.8	1.49e+00	0	33	104	11534336	76	17851
2026-01-02 01:30:49.22	8.60	38.93	-55.3	-69.0	3.8	1.49e+00	0	33	104	11534336	76	17885
2026-01-02 01:30:50.21	8.39	39.16	-55.3	-69.0	3.8	1.49e+00	0	33	104	11534336	76	17846
2026-01-02 01:30:51.21	8.18	39.38	-55.3	-69.0	3.8	1.49e+00	0	33	104	11534336	76	17829
2026-01-02 01:30:52.21	7.97	39.61	-55.4	-69.0	3.8	1.49e+00	0	33	104	11534336	76	17858
2026-01-02 01:30:53.21	7.75	39.84	-55.4	-69.1	3.8	1.49e+00	0	33	104	11534336	76	17891
2026-01-02 01:30:54.20	7.53	40.07	-55.4	-69.0	3.8	1.49e+00	0	33	104	11534336	76	17886
2026-01-02 01:30:55.21	7.30	40.30	-55.4	-69.0	3.8	1.49e+00	0	33	104	11534336	76	17864
2026-01-02 01:30:56.21	7.08	40.53	-55.4	-69.1	3.8	1.49e+00	0	33	104	11534336	76	17907
2026-01-02 01:30:57.21	6.84	40.76	-55.4	-69.0	3.8	1.49e+00	0	33	104	11534336	76	17834
2026-01-02 01:30:58.21	6.61	40.99	-55.3	-69.0	3.8	1.49e+00	0	33	104	11534336	76	17861
2026-01-02 01:30:59.20	6.38	41.23	-55.3	-69.0	3.8	1.49e+00	0	33	104	11534336	76	17829
2026-01-02 01:31:00.20	6.13	41.46	-55.3	-69.1	3.8	1.49e+00	0	33	104	11534336	76	17904
2026-01-02 01:31:01.20	5.89	41.70	-55.3	-69.0	3.8	1.49e+00	0	33	104	11534336	76	17834
2026-01-02 01:31:02.20	5.64	41.93	-55.3	-69.0	3.8	1.49e+00	0	33	104	11534336	76	17881
2026-01-02 01:31:03.20	5.39	42.17	-55.3	-69.0	3.8	1.49e+00	0	33	104	11534336	76	17886
2026-01-02 01:31:04.20	5.13	42.41	-55.3	-69.0	3.8	1.49e+00	0	33	104	11534336	76	17865
2026-01-02 01:31:05.20	4.87	42.65	-55.4	-69.0	3.8	1.49e+00	0	33	104	11534336	76	17881
2026-01-02 01:31:06.21	4.61	42.89	-55.3	-69.0	3.8	1.49e+00	0	33	104	11534336	76	17834
2026-01-02 01:31:07.21	4.34	43.13	-55.3	-69.0	3.8	1.49e+00	0	33	104	11534336	76	17879
2026-01-02 01:31:08.22	4.07	43.38	-55.3	-69.0	3.8	1.49e+00	0	33	104	11534336	76	17824
2026-01-02 01:31:09.21	3.79	43.62	-55.3	-69.0	3.8	1.49e+00	0	33	104	11534336	76	17863
2026-01-02 01:31:10.22	3.51	43.86	-55.3	-69.0	3.8	1.49e+00	0	33	104	11534336	76	17809
2026-01-02 01:31:11.23	3.22	44.11	-55.4	-69.0	3.8	1.49e+00	0	33	104	11534336	76	17815
2026-01-02 01:31:12.23	2.93	44.36	-55.3	-69.0	3.8	1.49e+00	0	33	104	11534336	76	17836
2026-01-02 01:31:13.23	2.64	44.60	-55.3	-69.0	3.8	1.49e+00	0	33	104	11534336	76	17833
2026-01-02 01:31:14.23	2.34	44.85	-55.3	-69.0	3.8	1.49e+00	0	33	104	11534336	76	17836
2026-01-02 01:31:15.24	2.04	45.10	-55.4	-69.0	3.8	1.49e+00	0	33	104	11534336	76	17885
2026-01-02 01:31:16.24	1.73	45.34	-55.3	-69.0	3.8	1.49e+00	0	33	104	11534336	76	17802
2026-01-02 01:31:17.25	1.41	45.60	-55.3	-69.0	3.8	1.49e+00	0	33	104	11534336	76	17838
2026-01-02 01:31:18.25	1.09	45.84	-55.3	-69.0	3.8	1.49e+00	0	33	104	11534336	76	17869
2026-01-02 01:31:19.25	0.77	46.09	-55.3	-69.0	3.8	1.49e+00	0	33	104	11534336	76	17839
2026-01-02 01:31:20.26	0.44	46.35	-55.3	-69.0	3.8	1.49e+00	0	33	104	11534336	76	17833
2026-01-02 01:31:21.26	0.11	46.60	-55.3	-69.0	3.8	1.49e+00	0	33	104	11534336	76	17813
2026-01-02 01:31:22.26	359.77	46.85	-55.3	-69.0	3.8	1.49e+00	0	33	104	11534336	76	17847
2026-01-02 01:31:23.26	359.42	47.10	-55.3	-69.1	3.8	1.49e+00	0	33	104	11534336	76	17889
2026-01-02 01:31:24.26	359.07	47.35	-55.3	-69.1	3.8	1.49e+00	0	33	104	11534336	76	17890
2026-01-02 01:31:25.26	358.72	47.60	-55.3	-69.0	3.8	1.49e+00	0	33	104	11534336	76	17819
2026-01-02 01:31:26.27	358.35	47.86	-55.3	-69.1	3.8	1.49e+00	0	33	104	11534336	76	17895
2026-01-02 01:31:27.27	357.98	48.11	-55.3	-69.0	3.8	1.49e+00	0	33	104	11534336	76	17823
2026-01-02 01:31:28.27	357.61	48.36	-55.3	-69.1	3.8	1.49e+00	0	33	104	11534336	76	17890
2026-01-02 01:31:29.27	357.23	48.61	-55.3	-69.0	3.8	1.49e+00	0	33	104	11534336	76	17858
2026-01-02 01:31:30.27	356.84	48.87	-55.3	-69.0	3.8	1.49e+00	0	33	104	11534336	76	17836
2026-01-02 01:31:31.28	356.44	49.12	-55.3	-69.0	3.8	1.49e+00	0	33	104	11534336	76	17875
2026-01-02 01:31:32.27	356.05	49.37	-55.3	-69.0	3.8	1.49e+00	0	33	104	11534336	76	17836
2026-01-02 01:31:33.27	355.64	49.62	-55.3	-69.0	3.8	1.49e+00	0	33	104	11534336	76	17842
2026-01-02 01:31:34.27	355.23	49.88	-55.4	-69.0	3.8	1.49e+00	0	33	104	11534336	76	17836
2026-01-02 01:31:35.28	354.81	50.13	-55.4	-69.0	3.8	1.49e+00	0	33	104	11534336	76	17869
2026-01-02 01:31:36.27	354.38	50.38	-55.3	-69.0	3.8	1.49e+00	0	33	104	11534336	76	17833
2026-01-02 01:31:37.27	353.95	50.63	-55.3	-69.0	3.8	1.49e+00	0	33	104	11534336	76	17847
2026-01-02 01:31:38.28	353.50	50.88	-55.3	-69.0	3.8	1.49e+00	0	33	104	11534336	76	17837
2026-01-02 01:31:39.28	353.05	51.13	-55.3	-69.1	3.8	1.49e+00	0	33	104	11534336	76	17925
2026-01-02 01:31:40.28	352.60	51.38	-55.3	-69.0	3.8	1.49e+00	0	33	104	11534336	76	17878
2026-01-02 01:31:41.28	352.13	51.63	-55.3	-69.0	3.8	1.49e+00	0	33	104	11534336	76	17797
2026-01-02 01:31:42.27	351.66	51.88	-55.3	-69.0	3.8	1.49e+00	0	33	104	11534336	76	17838
2026-01-02 01:31:43.28	351.18	52.13	-55.4	-69.0	3.8	1.49e+00	0	33	104	11534336	76	17849
2026-01-02 01:31:44.27	350.69	52.37	-55.3	-69.0	3.8	1.49e+00	0	33	104	11534336	76	17819
2026-01-02 01:31:45.27	350.20	52.62	-55.3	-69.0	3.8	1.49e+00	0	33	104	11534336	76	17884
2026-01-02 01:31:46.27	349.69	52.87	-55.3	-69.0	3.8	1.49e+00	0	33	104	11534336	76	17865
2026-01-02 01:31:47.27	349.18	53.11	-55.3	-69.0	3.8	1.49e+00	0	33	104	11534336	76	17878
2026-01-02 01:31:48.27	348.66	53.35	-55.3	-69.0	3.8	1.49e+00	0	33	104	11534336	76	17849
2026-01-02 01:31:49.27	348.12	53.59	-55.4	-69.0	3.8	1.49e+00	0	33	104	11534336	76	17856
2026-01-02 01:31:50.27	347.58	53.83	-55.3	-69.0	3.8	1.49e+00	0	33	104	11534336	76	17849
2026-01-02 01:31:51.26	347.04	54.07	-55.3	-69.0	3.8	1.49e+00	0	33	104	11534336	76	17837
2026-01-02 01:31:52.26	346.48	54.31	-55.3	-69.0	3.8	1.49e+00	0	33	104	11534336	76	17838
2026-01-02 01:31:53.26	345.91	54.54	-55.4	-69.0	3.8	1.49e+00	0	33	104	11534336	76	17843
2026-01-02 01:31:54.26	345.34	54.77	-55.3	-69.0	3.8	1.49e+00	0	33	104	11534336	76	17811
2026-01-02 01:31:55.25	344.75	55.00	-55.4	-69.0	3.8	1.49e+00	0	33	104	11534336	76	17850
2026-01-02 01:31:56.24	344.16	55.23	-55.3	-69.1	3.8	1.49e+00	0	33	104	11534336	76	17894
2026-01-02 01:31:57.24	343.56	55.46	-55.3	-69.0	3.8	1.49e+00	0	33	104	11534336	76	17830
2026-01-02 01:31:58.25	342.94	55.68	-55.3	-69.0	3.8	1.49e+00	0	33	104	11534336	76	17842
2026-01-02 01:31:59.24	342.32	55.90	-55.3	-69.0	3.8	1.49e+00	0	33	104	11534336	76	17837
2026-01-02 01:32:00.24	341.68	56.12	-55.3	-69.0	3.8	1.49e+00	0	33	104	11534336	76	17867
2026-01-02 01:32:01.24	341.03	56.34	-55.3	-69.0	3.8	1.49e+00	0	33	104	11534336	76	17852
2026-01-02 01:32:02.24	340.38	56.55	-55.3	-69.0	3.9	1.49e+00	0	33	104	11534336	76	17841
2026-01-02 01:32:03.24	339.71	56.77	-55.4	-69.0	3.8	1.49e+00	0	33	104	11534336	76	17817
2026-01-02 01:32:04.25	339.03	56.98	-55.4	-69.1	3.8	1.49e+00	0	33	104	11534336	76	17907
2026-01-02 01:32:05.25	338.34	57.18	-55.3	-69.0	3.8	1.49e+00	0	33	104	11534336	76	17861
2026-01-02 01:32:06.25	337.64	57.38	-55.3	-69.0	3.8	1.49e+00	0	33	104	11534336	76	17836
2026-01-02 01:32:07.24	336.94	57.58	-55.3	-69.0	3.8	1.49e+00	0	33	104	11534336	76	17885
2026-01-02 01:32:08.25	336.22	57.78	-55.4	-69.0	3.8	1.49e+00	0	33	104	11534336	76	17869
2026-01-02 01:32:09.25	335.49	57.97	-55.4	-69.0	3.8	1.49e+00	0	33	104	11534336	76	17887
2026-01-02 01:32:10.25	334.75	58.16	-55.3	-69.0	3.8	1.49e+00	0	33	104	11534336	76	17846
2026-01-02 01:32:11.24	334.01	58.34	-55.3	-69.0	3.8	1.49e+00	0	33	104	11534336	76	17847
2026-01-02 01:32:12.24	333.25	58.52	-55.3	-69.0	3.8	1.49e+00	0	33	104	11534336	76	17839
2026-01-02 01:32:13.24	332.48	58.69	-55.3	-69.0	3.8	1.49e+00	0	33	104	11534336	76	17779
2026-01-02 01:32:14.25	331.69	58.87	-55.3	-69.0	3.8	1.49e+00	0	33	104	11534336	76	17818
2026-01-02 01:32:15.25	330.90	59.03	-55.4	-69.0	3.9	1.49e+00	0	33	104	11534336	76	17860
2026-01-02 01:32:16.25	330.10	59.19	-55.3	-69.0	3.8	1.49e+00	0	33	104	11534336	76	17820
2026-01-02 01:32:17.26	329.28	59.35	-55.4	-69.0	3.8	1.49e+00	0	33	104	11534336	76	17867
2026-01-02 01:32:18.26	328.46	59.50	-55.3	-69.0	3.8	1.49e+00	0	33	104	11534336	76	17853
2026-01-02 01:32:19.26	327.63	59.65	-55.3	-69.0	3.8	1.49e+00	0	33	104	11534336	76	17843
2026-01-02 01:32:20.26	326.79	59.79	-55.3	-69.0	3.8	1.49e+00	0	33	104	11534336	76	17818
2026-01-02 01:32:21.26	325.94	59.93	-55.3	-69.0	3.8	1.49e+00	0	33	104	11534336	76	17852
2026-01-02 01:32:22.26	325.08	60.06	-55.3	-69.0	3.8	1.49e+00	0	33	104	11534336	76	17818
2026-01-02 01:32:23.27	324.21	60.19	-55.3	-69.0	3.8	1.49e+00	0	33	104	11534336	76	17852
2026-01-02 01:32:24.26	323.34	60.30	-55.3	-69.0	3.8	1.49e+00	0	33	104	11534336	76	17821
2026-01-02 01:32:25.26	322.46	60.42	-55.4	-69.0	3.8	1.49e+00	0	33	104	11534336	76	17852
2026-01-02 01:32:26.26	321.57	60.53	-55.3	-69.0	3.8	1.49e+00	0	33	104	11534336	76	17863
2026-01-02 01:32:27.27	320.66	60.63	-55.3	-69.0	3.8	1.49e+00	0	33	104	11534336	76	17865
2026-01-02 01:32:28.27	319.76	60.72	-55.3	-69.0	3.8	1.49e+00	0	33	104	11534336	76	17871
2026-01-02 01:32:29.27	318.85	60.81	-55.3	-69.0	3.8	1.49e+00	0	33	104	11534336	76	17853
2026-01-02 01:32:30.26	317.94	60.90	-55.3	-69.0	3.8	1.49e+00	0	33	104	11534336	76	17866
2026-01-02 01:32:31.26	317.02	60.97	-55.4	-69.0	3.8	1.49e+00	0	33	104	11534336	76	17858
2026-01-02 01:32:32.26	316.09	61.04	-55.3	-69.0	3.8	1.49e+00	0	33	104	11534336	76	17806
2026-01-02 01:32:33.27	315.15	61.11	-55.3	-69.0	3.8	1.49e+00	0	33	104	11534336	76	17786
2026-01-02 01:32:34.27	314.21	61.16	-55.3	-69.0	3.8	1.49e+00	0	33	104	11534336	76	17809
2026-01-02 01:32:35.27	313.27	61.21	-55.3	-69.0	3.8	1.49e+00	0	33	104	11534336	76	17837
2026-01-02 01:32:36.28	312.31	61.26	-55.3	-69.0	3.8	1.49e+00	0	33	104	11534336	76	17826
2026-01-02 01:32:37.28	311.36	61.29	-55.3	-69.1	3.8	1.49e+00	0	33	104	11534336	76	17893
2026-01-02 01:32:38.27	310.42	61.32	-55.3	-69.1	3.8	1.49e+00	0	33	104	11534336	76	17899
2026-01-02 01:32:39.27	309.47	61.35	-55.3	-69.0	3.8	1.49e+00	0	33	104	11534336	76	17867
2026-01-02 01:32:40.26	308.52	61.36	-55.3	-69.1	3.8	1.49e+00	0	33	104	11534336	76	17912
2026-01-02 01:32:41.26	307.56	61.37	-55.4	-69.0	3.8	1.49e+00	0	33	104	11534336	76	17882
2026-01-02 01:32:42.26	306.61	61.37	-55.3	-69.0	3.8	1.49e+00	0	33	104	11534336	76	17805
2026-01-02 01:32:43.26	305.65	61.37	-55.3	-69.0	3.8	1.49e+00	0	33	104	11534336	76	17843
2026-01-02 01:32:44.25	304.71	61.35	-55.3	-69.0	3.8	1.49e+00	0	33	104	11534336	76	17857
2026-01-02 01:32:45.26	303.74	61.34	-55.3	-69.0	3.8	1.49e+00	0	33	104	11534336	76	17828
2026-01-02 01:32:46.25	302.80	61.31	-55.3	-69.1	3.8	1.49e+00	0	33	104	11534336	76	17911
2026-01-02 01:32:47.26	301.84	61.28	-55.3	-69.0	3.8	1.49e+00	0	33	104	11534336	76	17813
2026-01-02 01:32:48.26	300.89	61.24	-55.3	-69.0	3.8	1.49e+00	0	33	104	11534336	76	17841
2026-01-02 01:32:49.26	299.95	61.19	-55.3	-69.0	3.8	1.49e+00	0	33	104	11534336	76	17829
2026-01-02 01:32:50.26	299.01	61.14	-55.3	-69.0	3.8	1.49e+00	0	33	104	11534336	76	17832
2026-01-02 01:32:51.26	298.07	61.08	-55.3	-69.0	3.8	1.49e+00	0	33	104	11534336	76	17825
2026-01-02 01:32:52.25	297.15	61.01	-55.3	-69.0	3.8	1.49e+00	0	33	104	11534336	76	17873
2026-01-02 01:32:53.24	296.23	60.94	-55.3	-69.1	3.8	1.49e+00	0	33	104	11534336	76	17908
2026-01-02 01:32:54.24	295.31	60.86	-55.3	-69.0	3.8	1.49e+00	0	33	104	11534336	76	17861
2026-01-02 01:32:55.25	294.39	60.77	-55.3	-69.0	3.8	1.49e+00	0	33	104	11534336	76	17865
2026-01-02 01:32:56.24	293.49	60.68	-55.3	-69.0	3.8	1.49e+00	0	33	104	11534336	76	17839
2026-01-02 01:32:57.24	292.59	60.58	-55.3	-69.0	3.8	1.49e+00	0	33	104	11534336	76	17855
2026-01-02 01:32:58.23	291.70	60.48	-55.3	-69.0	3.8	1.49e+00	0	33	104	11534336	76	17828
2026-01-02 01:32:59.24	290.80	60.37	-55.3	-69.0	3.8	1.49e+00	0	33	104	11534336	76	17874
2026-01-02 01:33:00.23	289.93	60.25	-55.3	-69.0	3.8	1.49e+00	0	33	104	11534336	76	17833
2026-01-02 01:33:01.24	289.05	60.13	-55.3	-69.0	3.8	1.49e+00	0	33	104	11534336	76	17812
2026-01-02 01:33:02.23	288.20	60.00	-55.3	-69.0	3.8	1.49e+00	0	33	104	11534336	76	17818
2026-01-02 01:33:03.23	287.35	59.87	-55.3	-69.0	3.8	1.49e+00	0	33	104	11534336	76	17823
2026-01-02 01:33:04.22	286.51	59.73	-55.3	-69.0	3.8	1.49e+00	0	33	104	11534336	76	17864
2026-01-02 01:33:05.23	285.67	59.58	-55.3	-69.0	3.8	1.49e+00	0	33	104	11534336	76	17814
2026-01-02 01:33:06.23	284.84	59.44	-55.3	-69.0	3.8	1.49e+00	0	33	104	11534336	76	17866
2026-01-02 01:33:07.22	284.03	59.28	-55.3	-69.0	3.8	1.49e+00	0	33	104	11534336	76	17883
2026-01-02 01:33:08.22	283.22	59.12	-55.3	-69.0	3.8	1.49e+00	0	33	104	11534336	76	17835
2026-01-02 01:33:09.22	282.43	58.96	-55.3	-69.0	3.8	1.49e+00	0	34	104	11534336	76	17829
2026-01-02 01:33:10.22	281.64	58.79	-55.3	-69.0	3.9	1.49e+00	0	33	104	11534336	76	17848
2026-01-02 01:33:11.22	280.86	58.62	-55.3	-69.0	3.8	1.49e+00	0	33	104	11534336	76	17827
2026-01-02 01:33:12.22	280.10	58.44	-55.3	-69.0	3.8	1.49e+00	0	33	104	11534336	76	17813
2026-01-02 01:33:13.22	279.34	58.26	-55.3	-69.0	3.8	1.49e+00	0	33	104	11534336	76	17796
2026-01-02 01:33:14.22	278.60	58.07	-55.3	-69.0	3.8	1.49e+00	0	33	104	11534336	76	17844
2026-01-02 01:33:15.21	277.87	57.89	-55.3	-69.0	3.8	1.49e+00	0	33	104	11534336	76	17824
2026-01-02 01:33:16.22	277.13	57.69	-55.3	-69.0	3.8	1.49e+00	0	33	104	11534336	76	17799
2026-01-02 01:33:17.22	276.42	57.49	-55.3	-69.0	3.8	1.49e+00	0	33	104	11534336	76	17862
2026-01-02 01:33:18.22	275.72	57.29	-55.3	-69.0	3.8	1.49e+00	0	33	104	11534336	76	17798
2026-01-02 01:33:19.21	275.03	57.09	-55.3	-69.0	3.8	1.49e+00	0	33	104	11534336	76	17851
2026-01-02 01:33:20.21	274.34	56.89	-55.3	-69.0	3.8	1.49e+00	0	33	104	11534336	76	17807
2026-01-02 01:33:21.22	273.66	56.67	-55.3	-69.0	3.8	1.49e+00	0	33	104	11534336	76	17841
2026-01-02 01:33:22.21	273.01	56.46	-55.3	-69.0	3.8	1.49e+00	0	33	104	11534336	76	17795
2026-01-02 01:33:23.21	272.36	56.25	-55.3	-69.0	3.8	1.49e+00	0	33	104	11534336	76	17817
2026-01-02 01:33:24.21	271.71	56.03	-55.3	-69.0	3.8	1.49e+00	0	33	104	11534336	76	17816
2026-01-02 01:33:25.21	271.08	55.81	-55.3	-69.0	3.8	1.49e+00	0	33	104	11534336	76	17793
2026-01-02 01:33:26.21	270.46	55.58	-55.3	-69.0	3.8	1.49e+00	0	33	104	11534336	76	17809
2026-01-02 01:33:27.21	269.85	55.36	-55.3	-69.0	3.8	1.49e+00	0	33	104	11534336	76	17859
2026-01-02 01:33:28.21	269.24	55.13	-55.3	-69.0	3.8	1.49e+00	0	33	104	11534336	76	17765
2026-01-02 01:33:29.21	268.65	54.90	-55.3	-69.0	3.8	1.49e+00	0	33	104	11534336	76	17799
2026-01-02 01:33:30.21	268.07	54.67	-55.3	-69.0	3.8	1.49e+00	0	33	104	11534336	76	17858
2026-01-02 01:33:31.20	267.50	54.43	-55.3	-69.0	3.8	1.49e+00	0	33	104	11534336	76	17829
2026-01-02 01:33:32.21	266.93	54.19	-55.3	-69.0	3.8	1.49e+00	0	33	104	11534336	76	17852
2026-01-02 01:33:33.21	266.37	53.96	-55.3	-69.0	3.8	1.49e+00	0	33	104	11534336	76	17841
2026-01-02 01:33:34.21	265.83	53.72	-55.3	-69.1	3.8	1.49e+00	0	33	104	11534336	76	17892
2026-01-02 01:33:35.20	265.29	53.48	-55.3	-69.0	3.8	1.49e+00	0	33	104	11534336	76	17804
2026-01-02 01:33:36.21	264.76	53.23	-55.3	-69.0	3.8	1.49e+00	0	33	104	11534336	76	17840
2026-01-02 01:33:37.21	264.24	52.99	-55.3	-69.0	3.8	1.49e+00	0	33	104	11534336	76	17856
2026-01-02 01:33:38.21	263.73	52.75	-55.3	-69.0	3.8	1.49e+00	0	33	104	11534336	76	17832
2026-01-02 01:33:39.21	263.23	52.50	-55.3	-69.0	3.8	1.49e+00	0	33	104	11534336	76	17817
2026-01-02 01:33:40.21	262.73	52.25	-55.3	-69.0	3.8	1.49e+00	0	33	104	11534336	76	17872
2026-01-02 01:33:41.21	262.25	52.01	-55.3	-69.0	3.8	1.49e+00	0	33	104	11534336	76	17827
2026-01-02 01:33:42.21	261.77	51.76	-55.3	-69.0	3.8	1.49e+00	0	33	104	11534336	76	17822
2026-01-02 01:33:43.21	261.30	51.51	-55.3	-69.0	3.8	1.49e+00	0	33	104	11534336	76	17867
2026-01-02 01:33:44.20	260.84	51.26	-55.3	-69.0	3.8	1.49e+00	0	33	104	11534336	76	17838
2026-01-02 01:33:45.21	260.39	51.01	-55.3	-69.0	3.8	1.49e+00	0	33	104	11534336	76	17801
2026-01-02 01:33:46.20	259.94	50.76	-55.3	-69.0	3.8	1.49e+00	0	33	104	11534336	76	17853
2026-01-02 01:33:47.21	259.50	50.50	-55.3	-69.0	3.8	1.49e+00	0	33	104	11534336	76	17864
2026-01-02 01:33:48.21	259.07	50.25	-55.3	-69.0	3.8	1.49e+00	0	33	104	11534336	76	17818
2026-01-02 01:33:49.21	258.64	50.00	-55.3	-69.0	3.8	1.49e+00	0	33	104	11534336	76	17844
2026-01-02 01:33:50.21	258.23	49.75	-55.3	-69.0	3.8	1.49e+00	0	33	104	11534336	76	17833
2026-01-02 01:33:51.22	257.81	49.49	-55.3	-69.0	3.8	1.49e+00	0	33	104	11534336	76	17822
2026-01-02 01:33:52.22	257.41	49.24	-55.3	-69.1	3.8	1.49e+00	0	33	104	11534336	76	17892
2026-01-02 01:33:53.22	257.01	48.98	-55.3	-69.0	3.8	1.49e+00	0	33	104	11534336	76	17847
2026-01-02 01:33:54.22	256.62	48.73	-55.3	-69.0	3.8	1.49e+00	0	33	104	11534336	76	17776
2026-01-02 01:33:55.21	256.24	48.48	-55.3	-69.0	3.8	1.49e+00	0	33	104	11534336	76	17861
2026-01-02 01:33:56.20	255.87	48.23	-55.3	-69.0	3.8	1.49e+00	0	33	104	11534336	76	17806
2026-01-02 01:33:57.19	255.50	47.98	-55.3	-69.0	3.8	1.49e+00	0	33	104	11534336	76	17847
2026-01-02 01:33:58.19	255.13	47.73	-55.3	-69.0	3.8	1.49e+00	0	33	104	11534336	76	17856
2026-01-02 01:33:59.19	254.77	47.47	-55.3	-69.0	3.8	1.49e+00	0	33	104	11534336	76	17789
2026-01-02 01:34:00.19	254.42	47.22	-55.3	-69.0	3.8	1.49e+00	0	33	104	11534336	76	17829
2026-01-02 01:34:01.19	254.07	46.97	-55.3	-69.0	3.8	1.49e+00	0	33	104	11534336	76	17811
2026-01-02 01:34:02.19	253.73	46.72	-55.3	-69.0	3.8	1.49e+00	0	33	104	11534336	76	17786
2026-01-02 01:34:03.19	253.39	46.47	-55.3	-69.0	3.8	1.49e+00	0	33	104	11534336	76	17769
2026-01-02 01:34:04.20	253.05	46.21	-55.3	-69.0	3.8	1.49e+00	0	33	104	11534336	76	17828
2026-01-02 01:34:05.20	252.73	45.96	-55.3	-69.1	3.8	1.49e+00	0	33	104	11534336	76	17900
2026-01-02 01:34:06.20	252.41	45.71	-55.3	-69.0	3.8	1.49e+00	0	33	104	11534336	76	17818
2026-01-02 01:34:07.20	252.09	45.47	-55.3	-69.0	3.8	1.49e+00	0	33	104	11534336	76	17811
2026-01-02 01:34:08.19	251.78	45.22	-55.3	-69.0	3.8	1.49e+00	0	33	104	11534336	76	17768
2026-01-02 01:34:09.19	251.48	44.97	-55.3	-69.0	3.8	1.49e+00	0	33	104	11534336	76	17817
2026-01-02 01:34:10.19	251.17	44.72	-55.3	-69.0	3.8	1.49e+00	0	33	104	11534336	76	17834
2026-01-02 01:34:11.19	250.88	44.48	-55.3	-69.0	3.8	1.49e+00	0	33	104	11534336	76	17837
2026-01-02 01:34:12.19	250.59	44.23	-55.3	-69.0	3.8	1.49e+00	0	33	104	11534336	76	17785
2026-01-02 01:34:13.19	250.30	43.99	-55.3	-69.0	3.8	1.49e+00	0	33	104	11534336	76	17858
2026-01-02 01:34:14.20	250.01	43.74	-55.3	-69.0	3.8	1.49e+00	0	33	104	11534336	76	17826
2026-01-02 01:34:15.20	249.73	43.49	-55.3	-69.0	3.8	1.49e+00	0	33	104	11534336	76	17800
2026-01-02 01:34:16.20	249.46	43.25	-55.3	-69.0	3.8	1.49e+00	0	33	104	11534336	76	17788
2026-01-02 01:34:17.19	249.19	43.01	-55.3	-69.0	3.8	1.49e+00	0	33	104	11534336	76	17787
2026-01-02 01:34:18.20	248.92	42.77	-55.3	-69.0	3.8	1.49e+00	0	33	104	11534336	76	17854
2026-01-02 01:34:19.19	248.66	42.53	-55.3	-69.0	3.8	1.49e+00	0	33	104	11534336	76	17847
2026-01-02 01:34:20.19	248.40	42.29	-55.3	-69.0	3.8	1.49e+00	0	33	104	11534336	76	17824
2026-01-02 01:34:21.18	248.15	42.05	-55.3	-69.0	3.8	1.49e+00	0	33	104	11534336	76	17799
2026-01-02 01:34:22.18	247.90	41.82	-55.3	-69.0	3.8	1.49e+00	0	33	104	11534336	76	17764
2026-01-02 01:34:23.17	247.65	41.58	-55.3	-69.0	3.8	1.49e+00	0	33	104	11534336	76	17848
2026-01-02 01:34:24.18	247.41	41.34	-55.3	-69.0	3.8	1.49e+00	0	33	104	11534336	76	17801
2026-01-02 01:34:25.18	247.17	41.11	-55.3	-69.0	3.8	1.49e+00	0	33	104	11534336	76	17792
2026-01-02 01:34:26.18	246.93	40.87	-55.3	-69.0	3.8	1.49e+00	0	33	104	11534336	76	17772
2026-01-02 01:34:27.18	246.70	40.64	-55.3	-69.0	3.8	1.49e+00	0	33	104	11534336	76	17773
2026-01-02 01:34:28.18	246.47	40.41	-55.3	-69.0	3.8	1.49e+00	0	33	104	11534336	76	17802
2026-01-02 01:34:29.18	246.24	40.18	-55.3	-69.0	3.8	1.49e+00	0	33	104	11534336	76	17830
2026-01-02 01:34:30.18	246.02	39.95	-55.3	-69.0	3.8	1.49e+00	0	33	104	11534336	76	17810
2026-01-02 01:34:31.18	245.80	39.72	-55.3	-69.0	3.8	1.49e+00	0	33	104	11534336	76	17749
2026-01-02 01:34:32.18	245.58	39.49	-55.3	-69.0	3.8	1.49e+00	0	33	104	11534336	76	17874
2026-01-02 01:34:33.18	245.37	39.26	-55.3	-69.0	3.8	1.49e+00	0	33	104	11534336	76	17844
2026-01-02 01:34:34.18	245.16	39.04	-55.3	-69.0	3.8	1.49e+00	0	33	104	11534336	76	17849
2026-01-02 01:34:35.17	244.95	38.81	-55.3	-69.0	3.8	1.49e+00	0	33	104	11534336	76	17843
2026-01-02 01:34:36.17	244.74	38.59	-55.3	-69.0	3.8	1.49e+00	0	33	104	11534336	76	17796
2026-01-02 01:34:37.17	244.54	38.36	-55.3	-69.0	3.8	1.49e+00	0	33	104	11534336	76	17836
2026-01-02 01:34:38.17	244.34	38.14	-55.3	-69.0	3.8	1.49e+00	0	33	104	11534336	76	17839
2026-01-02 01:34:39.17	244.15	37.92	-55.3	-69.0	3.8	1.49e+00	0	33	104	11534336	76	17788
2026-01-02 01:34:40.18	243.95	37.70	-55.3	-69.0	3.8	1.49e+00	0	33	104	11534336	76	17844
2026-01-02 01:34:41.18	243.76	37.48	-55.3	-69.0	3.8	1.49e+00	0	33	104	11534336	76	17784
2026-01-02 01:34:42.17	243.57	37.26	-55.3	-69.0	3.8	1.49e+00	0	33	104	11534336	76	17789
2026-01-02 01:34:43.18	243.38	37.05	-55.3	-69.0	3.8	1.49e+00	0	33	104	11534336	76	17834
2026-01-02 01:34:44.18	243.20	36.83	-55.3	-69.0	3.9	1.49e+00	0	33	104	11534336	76	17812
2026-01-02 01:34:45.18	243.02	36.62	-55.3	-69.0	3.8	1.49e+00	0	33	104	11534336	76	17812
2026-01-02 01:34:46.17	242.84	36.40	-55.3	-69.0	3.8	1.49e+00	0	33	104	11534336	76	17756
2026-01-02 01:34:47.17	242.66	36.19	-55.3	-69.0	3.8	1.49e+00	0	33	104	11534336	76	17851
2026-01-02 01:34:48.17	242.49	35.98	-55.3	-69.0	3.8	1.49e+00	0	33	104	11534336	76	17764
2026-01-02 01:34:49.17	242.32	35.77	-55.3	-69.0	3.8	1.49e+00	0	33	104	11534336	76	17778
2026-01-02 01:34:50.17	242.15	35.56	-55.3	-69.0	3.8	1.49e+00	0	33	104	11534336	76	17829
2026-01-02 01:34:51.17	241.98	35.35	-55.3	-69.0	3.8	1.49e+00	0	33	104	11534336	76	17807
2026-01-02 01:34:52.17	241.81	35.15	-55.3	-69.0	3.8	1.49e+00	0	33	104	11534336	76	17860
2026-01-02 01:34:53.17	241.65	34.94	-55.3	-69.0	3.8	1.49e+00	0	33	104	11534336	76	17864
2026-01-02 01:34:54.17	241.49	34.73	-55.3	-69.0	3.8	1.49e+00	0	33	104	11534336	76	17791
2026-01-02 01:34:55.16	241.33	34.53	-55.3	-69.0	3.8	1.49e+00	0	33	104	11534336	76	17802
2026-01-02 01:34:56.16	241.18	34.33	-55.3	-69.0	3.8	1.49e+00	0	33	104	11534336	76	17819
2026-01-02 01:34:57.16	241.02	34.13	-55.3	-69.0	3.8	1.49e+00	0	33	104	11534336	76	17783
2026-01-02 01:34:58.16	240.87	33.93	-55.3	-69.0	3.8	1.49e+00	0	33	104	11534336	76	17820
2026-01-02 01:34:59.16	240.72	33.73	-55.3	-69.0	3.8	1.49e+00	0	33	104	11534336	76	17820
2026-01-02 01:35:00.16	240.57	33.53	-55.3	-69.0	3.8	1.49e+00	0	33	104	11534336	76	17799
2026-01-02 01:35:01.16	240.42	33.33	-55.3	-69.0	3.8	1.49e+00	0	33	104	11534336	76	17810
2026-01-02 01:35:02.16	240.27	33.13	-55.3	-69.0	3.8	1.49e+00	0	33	104	11534336	76	17809
2026-01-02 01:35:03.16	240.13	32.94	-55.3	-69.0	3.8	1.49e+00	0	33	104	11534336	76	17790
2026-01-02 01:35:04.17	239.98	32.74	-55.3	-69.0	3.8	1.49e+00	0	33	104	11534336	76	17777
2026-01-02 01:35:05.16	239.85	32.55	-55.3	-69.0	3.8	1.49e+00	0	33	104	11534336	76	17803
2026-01-02 01:35:06.16	239.71	32.36	-55.3	-69.0	3.8	1.49e+00	0	33	104	11534336	76	17775
2026-01-02 01:35:07.16	239.57	32.17	-55.3	-69.0	3.8	1.49e+00	0	33	104	11534336	76	17808
2026-01-02 01:35:08.17	239.43	31.98	-55.3	-69.0	3.8	1.49e+00	0	33	104	11534336	76	17785
2026-01-02 01:35:09.16	239.30	31.79	-55.3	-69.0	3.8	1.49e+00	0	33	104	11534336	76	17790
2026-01-02 01:35:10.16	239.17	31.60	-55.3	-69.0	3.8	1.49e+00	0	33	104	11534336	76	17756
2026-01-02 01:35:11.16	239.04	31.41	-55.3	-69.0	3.8	1.49e+00	0	33	104	11534336	76	17815
2026-01-02 01:35:12.16	238.91	31.23	-55.3	-69.0	3.8	1.49e+00	0	33	104	11534336	76	17793
2026-01-02 01:35:13.16	238.78	31.04	-55.3	-69.0	3.8	1.49e+00	0	33	104	11534336	76	17786
2026-01-02 01:35:14.17	238.65	30.86	-55.3	-69.0	3.8	1.49e+00	0	33	104	11534336	76	17810
2026-01-02 01:35:15.17	238.53	30.67	-55.3	-69.0	3.8	1.49e+00	0	33	104	11534336	76	17816
2026-01-02 01:35:16.17	238.40	30.49	-55.3	-69.0	3.8	1.49e+00	0	33	104	11534336	76	17794
2026-01-02 01:35:17.17	238.28	30.31	-55.3	-69.0	3.8	1.49e+00	0	33	104	11534336	76	17802
2026-01-02 01:35:18.17	238.16	30.13	-55.3	-69.0	3.8	1.49e+00	0	33	104	11534336	76	17806
2026-01-02 01:35:19.18	238.04	29.95	-55.3	-69.0	3.8	1.49e+00	0	33	104	11534336	76	17800
2026-01-02 01:35:20.18	237.92	29.77	-55.3	-69.0	3.8	1.49e+00	0	33	104	11534336	76	17769
2026-01-02 01:35:21.19	237.80	29.59	-55.3	-69.0	3.8	1.49e+00	0	33	104	11534336	76	17746
2026-01-02 01:35:22.19	237.69	29.41	-55.3	-69.0	3.8	1.49e+00	0	33	104	11534336	76	17776
2026-01-02 01:35:23.19	237.57	29.24	-55.3	-69.0	3.8	1.49e+00	0	33	104	11534336	76	17821
2026-01-02 01:35:24.19	237.46	29.06	-55.3	-69.0	3.8	1.49e+00	0	33	104	11534336	76	17817
2026-01-02 01:35:25.19	237.35	28.89	-55.3	-69.0	3.8	1.49e+00	0	33	104	11534336	76	17814
2026-01-02 01:35:26.19	237.24	28.72	-55.3	-69.0	3.8	1.49e+00	0	33	104	11534336	76	17838
2026-01-02 01:35:27.19	237.13	28.55	-55.3	-69.0	3.8	1.49e+00	0	33	104	11534336	76	17799
2026-01-02 01:35:28.19	237.02	28.38	-55.3	-69.0	3.8	1.49e+00	0	33	104	11534336	76	17820
2026-01-02 01:35:29.19	236.92	28.21	-55.3	-69.0	3.8	1.49e+00	0	33	104	11534336	76	17801
2026-01-02 01:35:30.19	236.81	28.04	-55.3	-69.0	3.8	1.49e+00	0	33	104	11534336	76	17825
2026-01-02 01:35:31.19	236.71	27.87	-55.3	-69.0	3.8	1.49e+00	0	33	104	11534336	76	17811
2026-01-02 01:35:32.19	236.60	27.70	-55.3	-69.0	3.8	1.49e+00	0	33	104	11534336	76	17813
2026-01-02 01:35:33.19	236.50	27.54	-55.3	-69.0	3.8	1.49e+00	0	33	104	11534336	76	17835
2026-01-02 01:35:34.20	236.40	27.37	-55.3	-69.0	3.8	1.49e+00	0	33	104	11534336	76	17849
2026-01-02 01:35:35.21	236.30	27.20	-55.3	-69.0	3.8	1.49e+00	0	33	104	11534336	76	17820
2026-01-02 01:35:36.20	236.20	27.04	-55.3	-69.0	3.8	1.49e+00	0	33	104	11534336	76	17808
2026-01-02 01:35:37.20	236.10	26.88	-55.3	-69.0	3.8	1.49e+00	0	33	104	11534336	76	17763
2026-01-02 01:35:38.20	236.01	26.72	-55.3	-69.0	3.8	1.49e+00	0	33	104	11534336	76	17813
2026-01-02 01:35:39.20	235.91	26.56	-55.3	-69.0	3.8	1.49e+00	0	33	104	11534336	76	17767
2026-01-02 01:35:40.19	235.82	26.40	-55.3	-69.0	3.8	1.49e+00	0	33	104	11534336	76	17808
2026-01-02 01:35:41.20	235.72	26.24	-55.3	-69.0	3.8	1.49e+00	0	33	104	11534336	76	17842
2026-01-02 01:35:42.20	235.63	26.08	-55.3	-69.0	3.8	1.49e+00	0	33	104	11534336	76	17776
2026-01-02 01:35:43.20	235.54	25.92	-55.3	-69.0	3.8	1.49e+00	0	33	104	11534336	76	17803
2026-01-02 01:35:44.19	235.45	25.77	-55.3	-69.0	3.8	1.49e+00	0	33	104	11534336	76	17773
2026-01-02 01:35:45.20	235.35	25.61	-55.3	-69.0	3.8	1.49e+00	0	33	104	11534336	76	17809
2026-01-02 01:35:46.19	235.27	25.46	-55.3	-69.0	3.8	1.49e+00	0	33	104	11534336	76	17789
2026-01-02 01:35:47.19	235.18	25.30	-55.3	-69.0	3.8	1.49e+00	0	33	104	11534336	76	17779
2026-01-02 01:35:48.20	235.09	25.15	-55.3	-69.0	3.8	1.49e+00	0	33	104	11534336	76	17773
2026-01-02 01:35:49.20	235.00	25.00	-55.3	-69.0	3.8	1.49e+00	0	33	104	11534336	76	17772
2026-01-02 01:35:50.21	234.92	24.84	-55.3	-69.0	3.8	1.49e+00	0	33	104	11534336	76	17767
2026-01-02 01:35:51.21	234.83	24.69	-55.3	-69.0	3.8	1.49e+00	0	33	104	11534336	76	17743
2026-01-02 01:35:52.21	234.75	24.54	-55.3	-69.0	3.8	1.49e+00	0	33	104	11534336	76	17848
2026-01-02 01:35:53.21	234.66	24.39	-55.3	-69.0	3.8	1.49e+00	0	33	104	11534336	76	17738
2026-01-02 01:35:54.21	234.58	24.24	-55.3	-69.0	3.8	1.49e+00	0	34	104	11534336	76	17731
2026-01-02 01:35:55.20	234.50	24.10	-55.3	-69.0	3.8	1.49e+00	0	33	104	11534336	76	17756
2026-01-02 01:35:56.20	234.42	23.95	-55.3	-69.0	3.8	1.49e+00	0	33	104	11534336	76	17768
2026-01-02 01:35:57.20	234.34	23.81	-55.3	-69.0	3.8	1.49e+00	0	33	104	11534336	76	17768
2026-01-02 01:35:58.19	234.26	23.66	-55.3	-69.0	3.8	1.49e+00	0	33	104	11534336	76	17754
2026-01-02 01:35:59.19	234.18	23.52	-55.3	-69.0	3.8	1.49e+00	0	33	104	11534336	76	17750
2026-01-02 01:36:00.19	234.11	23.37	-55.3	-69.0	3.8	1.49e+00	0	33	104	11534336	76	17763
2026-01-02 01:36:01.19	234.03	23.23	-55.3	-69.0	3.8	1.49e+00	0	33	104	11534336	76	17766
2026-01-02 01:36:02.18	233.95	23.09	-55.3	-69.0	3.8	1.49e+00	0	33	104	11534336	76	17752
2026-01-02 01:36:03.19	233.88	22.94	-55.3	-69.0	3.8	1.49e+00	0	33	104	11534336	76	17750
2026-01-02 01:36:04.19	233.80	22.80	-55.3	-69.0	3.8	1.49e+00	0	33	104	11534336	76	17755
2026-01-02 01:36:05.17	233.73	22.67	-55.3	-69.0	3.8	1.49e+00	0	33	104	11534336	76	17796
2026-01-02 01:36:06.17	233.66	22.53	-55.3	-69.0	3.8	1.49e+00	0	33	104	11534336	76	17783
2026-01-02 01:36:07.18	233.58	22.39	-55.3	-69.0	3.8	1.49e+00	0	33	104	11534336	76	17796
2026-01-02 01:36:08.17	233.51	22.25	-55.3	-69.0	3.8	1.49e+00	0	33	104	11534336	76	17733
2026-01-02 01:36:09.17	233.44	22.11	-55.3	-69.0	3.8	1.49e+00	0	34	104	11534336	76	17766
2026-01-02 01:36:10.17	233.37	21.97	-55.3	-69.0	3.8	1.49e+00	0	33	104	11534336	76	17781
2026-01-02 01:36:11.17	233.30	21.84	-55.3	-69.0	3.8	1.49e+00	0	33	104	11534336	76	17804
2026-01-02 01:36:12.18	233.23	21.70	-55.3	-69.0	3.8	1.49e+00	0	33	104	11534336	76	17805
2026-01-02 01:36:13.18	233.16	21.57	-55.3	-69.0	3.8	1.49e+00	0	33	104	11534336	76	17819
2026-01-02 01:36:14.17	233.09	21.43	-55.3	-69.0	3.8	1.49e+00	0	33	104	11534336	76	17770
2026-01-02 01:36:15.17	233.02	21.30	-55.3	-69.0	3.8	1.49e+00	0	33	104	11534336	76	17813
2026-01-02 01:36:16.17	232.96	21.17	-55.3	-69.0	3.8	1.49e+00	0	33	104	11534336	76	17761
2026-01-02 01:36:17.17	232.89	21.04	-55.3	-69.0	3.8	1.49e+00	0	33	104	11534336	76	17760
2026-01-02 01:36:18.17	232.82	20.90	-55.3	-69.0	3.8	1.49e+00	0	33	104	11534336	76	17792
2026-01-02 01:36:19.17	232.76	20.77	-55.3	-69.0	3.8	1.49e+00	0	33	104	11534336	76	17761
2026-01-02 01:36:20.18	232.69	20.64	-55.3	-69.0	3.8	1.49e+00	0	33	104	11534336	76	17767
2026-01-02 01:36:21.18	232.63	20.51	-55.3	-69.0	3.8	1.49e+00	0	33	104	11534336	76	17798
2026-01-02 01:36:22.18	232.57	20.38	-55.3	-69.0	3.8	1.49e+00	0	33	104	11534336	76	17775
2026-01-02 01:36:23.18	232.50	20.25	-55.3	-69.0	3.8	1.49e+00	0	33	104	11534336	76	17805
2026-01-02 01:36:24.19	232.44	20.13	-55.3	-69.0	3.8	1.49e+00	0	33	104	11534336	76	17819
2026-01-02 01:36:25.19	232.38	20.00	-55.3	-69.0	3.8	1.49e+00	0	33	104	11534336	76	17803
2026-01-02 01:36:26.20	232.32	19.87	-55.3	-69.0	3.8	1.49e+00	0	33	104	11534336	76	17816
2026-01-02 01:36:27.20	232.25	19.74	-55.3	-69.0	3.8	1.49e+00	0	33	104	11534336	76	17745
2026-01-02 01:36:28.21	232.19	19.62	-55.3	-69.0	3.8	1.49e+00	0	33	104	11534336	76	17781
2026-01-02 01:36:29.21	232.13	19.49	-55.3	-69.0	3.8	1.49e+00	0	33	104	11534336	76	17767
2026-01-02 01:36:30.21	232.07	19.37	-55.3	-69.0	3.8	1.49e+00	0	33	104	11534336	76	17794
2026-01-02 01:36:31.21	232.02	19.25	-55.3	-69.0	3.8	1.49e+00	0	33	104	11534336	76	17830
2026-01-02 01:36:32.22	231.96	19.12	-55.3	-69.0	3.8	1.49e+00	0	33	104	11534336	76	17764
2026-01-02 01:36:33.22	231.90	19.00	-55.3	-69.0	3.8	1.49e+00	0	33	104	11534336	76	17760
2026-01-02 01:36:34.21	231.84	18.88	-55.3	-69.0	3.8	1.49e+00	0	33	104	11534336	76	17748
2026-01-02 01:36:35.22	231.78	18.76	-55.3	-69.0	3.8	1.49e+00	0	33	104	11534336	76	17731
2026-01-02 01:36:36.21	231.73	18.64	-55.3	-69.0	3.8	1.49e+00	0	33	104	11534336	76	17796
2026-01-02 01:36:37.21	231.67	18.52	-55.3	-69.0	3.8	1.49e+00	0	33	104	11534336	76	17809
2026-01-02 01:36:38.20	231.62	18.40	-55.3	-69.0	3.8	1.49e+00	0	33	104	11534336	76	17794
2026-01-02 01:36:39.21	231.56	18.28	-55.3	-69.0	3.8	1.49e+00	0	33	104	11534336	76	17813
2026-01-02 01:36:40.21	231.51	18.16	-55.3	-69.0	3.8	1.49e+00	0	33	104	11534336	76	17800
2026-01-02 01:36:41.21	231.45	18.04	-55.3	-69.0	3.8	1.49e+00	0	33	104	11534336	76	17790
2026-01-02 01:36:42.21	231.40	17.92	-55.3	-69.0	3.8	1.49e+00	0	33	104	11534336	76	17759
2026-01-02 01:36:43.20	231.35	17.81	-55.3	-69.0	3.8	1.49e+00	0	33	104	11534336	76	17795
2026-01-02 01:36:44.19	231.30	17.69	-55.3	-69.0	3.8	1.49e+00	0	33	104	11534336	76	17783
2026-01-02 01:36:45.19	231.24	17.58	-55.3	-69.0	3.8	1.49e+00	0	33	104	11534336	76	17814
2026-01-02 01:36:46.19	231.19	17.46	-55.3	-69.0	3.8	1.49e+00	0	33	104	11534336	76	17776
2026-01-02 01:36:47.19	231.14	17.35	-55.3	-69.0	3.8	1.49e+00	0	33	104	11534336	76	17780
2026-01-02 01:36:48.20	231.09	17.23	-55.3	-69.0	3.8	1.49e+00	0	33	104	11534336	76	17774
2026-01-02 01:36:49.20	231.04	17.12	-55.3	-69.0	3.8	1.49e+00	0	33	104	11534336	76	17804
2026-01-02 01:36:50.19	230.99	17.00	-55.3	-69.0	3.8	1.49e+00	0	33	104	11534336	76	17780
2026-01-02 01:36:51.20	230.94	16.89	-55.3	-69.0	3.8	1.49e+00	0	33	104	11534336	76	17739
2026-01-02 01:36:52.20	230.89	16.78	-55.3	-69.0	3.8	1.49e+00	0	33	104	11534336	76	17840
2026-01-02 01:36:53.20	230.84	16.67	-55.3	-69.0	3.8	1.49e+00	0	33	104	11534336	76	17846
2026-01-02 01:36:54.21	230.79	16.55	-55.3	-69.0	3.8	1.49e+00	0	33	104	11534336	76	17810
2026-01-02 01:36:55.20	230.74	16.44	-55.3	-69.0	3.8	1.49e+00	0	33	104	11534336	76	17792
2026-01-02 01:36:56.20	230.69	16.33	-55.3	-69.0	3.8	1.49e+00	0	33	104	11534336	76	17782
2026-01-02 01:36:57.20	230.65	16.22	-55.3	-69.0	3.8	1.49e+00	0	33	104	11534336	76	17781
