passes_logs/2026/01/02/R3.2S_Murmansk/R3.2S_Murmansk__20260102_054726_KANOPUS-V_5_rec.log

#Pass ID: 20260102_054726_KANOPUS-V 5
#Satellite: KANOPUS-V 5
#Configuration: KANOPUS-V_8320
#almurnet v.1.7.20251203
#Start time: 2026-01-02 05:47:26

#Version: 2.2.20231116
#Station: R3.2S_Murmansk
#Location: 33.079688 lon 68.888172 lat
#TLE: 1 43876U 18111A   25365.78559900  .00000034  00000+0  43243-5 0  9991
#TLE: 2 43876  97.3689 269.5581 0001682  83.9573 276.1856 15.23322632389307

#Time	Az	El	Level	Level2	SNR	BER	BlckErr	Temp	State	Recorded	gain1	gain2
2026-01-02 05:47:26.96	106.24	2.05	-56.0	-65.7	3.8	7.46e-01	0	31	0	0	75	11472
2026-01-02 05:47:27.95	106.16	2.12	-56.1	-65.8	3.8	7.46e-01	0	31	104	0	76	10976
2026-01-02 05:47:28.95	106.09	2.18	-56.1	-65.8	3.8	7.44e-01	0	31	104	0	76	10972
2026-01-02 05:47:29.94	106.01	2.25	-56.1	-65.8	3.8	7.46e-01	0	31	104	0	76	11001
2026-01-02 05:47:30.94	105.93	2.31	-56.1	-65.8	3.8	7.47e-01	0	31	104	0	76	10973
2026-01-02 05:47:31.94	105.85	2.37	-56.1	-65.8	3.8	7.44e-01	0	31	104	0	76	10963
2026-01-02 05:47:32.94	105.77	2.44	-56.1	-65.9	3.8	7.46e-01	0	31	104	0	76	11031
2026-01-02 05:47:33.95	105.69	2.51	-56.1	-65.8	3.8	7.46e-01	0	31	104	0	76	10973
2026-01-02 05:47:34.95	105.62	2.57	-56.1	-65.8	3.8	7.46e-01	0	31	104	0	76	11027
2026-01-02 05:47:35.95	105.54	2.64	-56.1	-65.8	3.8	7.45e-01	0	31	104	0	76	10996
2026-01-02 05:47:36.96	105.45	2.70	-56.1	-65.8	3.8	7.44e-01	0	31	104	0	76	11011
2026-01-02 05:47:37.96	105.37	2.77	-56.1	-65.8	3.8	7.45e-01	0	31	104	0	76	11025
2026-01-02 05:47:38.96	105.29	2.83	-56.1	-65.8	3.8	7.46e-01	0	31	104	0	76	11022
2026-01-02 05:47:39.96	105.21	2.90	-56.1	-65.8	3.8	7.46e-01	0	31	104	0	76	11000
2026-01-02 05:47:40.95	105.13	2.97	-56.1	-65.8	3.8	7.45e-01	0	31	104	0	76	11022
2026-01-02 05:47:41.95	105.04	3.03	-56.1	-65.8	3.8	7.46e-01	0	31	104	0	76	10977
2026-01-02 05:47:42.96	104.96	3.10	-56.1	-65.9	3.8	7.46e-01	0	31	104	0	76	11030
2026-01-02 05:47:43.97	104.88	3.17	-56.1	-65.8	3.8	7.46e-01	0	31	104	0	76	10984
2026-01-02 05:47:44.97	104.79	3.23	-56.1	-65.9	3.8	7.44e-01	0	31	104	0	76	11032
2026-01-02 05:47:45.97	104.71	3.30	-56.1	-65.9	3.8	7.47e-01	0	32	104	0	76	11042
2026-01-02 05:47:46.96	104.62	3.37	-56.1	-65.8	3.8	7.45e-01	0	31	104	0	76	10996
2026-01-02 05:47:47.96	104.54	3.44	-56.1	-65.8	3.8	7.44e-01	0	31	104	0	76	10980
2026-01-02 05:47:48.97	104.45	3.50	-56.1	-65.9	3.8	7.47e-01	0	31	104	0	76	11034
2026-01-02 05:47:49.97	104.36	3.57	-56.1	-65.8	3.8	7.45e-01	0	31	104	0	76	10995
2026-01-02 05:47:50.97	104.27	3.64	-56.1	-65.9	3.8	7.47e-01	0	31	104	0	76	11041
2026-01-02 05:47:51.97	104.19	3.71	-56.1	-65.9	3.8	7.46e-01	0	31	104	0	76	11048
2026-01-02 05:47:52.96	104.10	3.78	-56.1	-65.8	3.8	7.45e-01	0	31	104	0	76	11003
2026-01-02 05:47:53.96	104.01	3.84	-56.1	-65.8	3.8	7.45e-01	0	31	104	0	76	11010
2026-01-02 05:47:54.96	103.92	3.91	-56.1	-65.8	3.8	7.44e-01	0	32	104	0	76	10973
2026-01-02 05:47:55.96	103.83	3.98	-56.1	-65.8	3.8	7.45e-01	0	31	104	0	76	10997
2026-01-02 05:47:56.96	103.74	4.05	-56.1	-65.8	3.8	7.45e-01	0	32	104	0	76	11005
2026-01-02 05:47:57.95	103.65	4.12	-56.1	-65.8	3.8	7.46e-01	0	31	104	0	76	11005
2026-01-02 05:47:58.94	103.56	4.19	-56.1	-65.9	3.8	7.46e-01	0	32	104	0	76	11060
2026-01-02 05:47:59.93	103.46	4.26	-56.1	-65.8	3.8	7.45e-01	0	31	104	0	76	10957
2026-01-02 05:48:00.93	103.37	4.33	-56.1	-65.8	3.8	7.46e-01	0	32	104	0	76	11019
2026-01-02 05:48:01.92	103.28	4.40	-56.1	-65.8	3.8	7.45e-01	0	32	104	0	76	11021
2026-01-02 05:48:02.91	103.18	4.47	-56.1	-65.8	3.8	7.43e-01	0	32	104	0	76	11009
2026-01-02 05:48:03.91	103.09	4.54	-56.1	-65.8	3.8	7.45e-01	0	32	104	0	76	11026
2026-01-02 05:48:04.90	102.99	4.61	-56.1	-65.9	3.8	7.47e-01	0	32	104	0	76	11056
2026-01-02 05:48:05.90	102.90	4.68	-56.1	-65.8	3.8	7.45e-01	0	32	104	0	76	10983
2026-01-02 05:48:06.90	102.80	4.75	-56.1	-65.9	3.8	7.45e-01	0	32	104	0	76	11034
2026-01-02 05:48:07.90	102.70	4.82	-56.1	-65.8	3.8	7.46e-01	0	32	104	0	76	11009
2026-01-02 05:48:08.90	102.61	4.89	-56.1	-65.9	3.8	7.45e-01	0	32	104	0	76	11036
2026-01-02 05:48:09.90	102.51	4.96	-56.1	-65.9	3.8	7.46e-01	0	32	104	0	76	11035
2026-01-02 05:48:10.90	102.41	5.03	-56.1	-65.9	3.8	7.44e-01	0	32	104	0	76	11030
2026-01-02 05:48:11.90	102.31	5.11	-56.1	-65.8	3.8	7.45e-01	0	32	104	0	76	11006
2026-01-02 05:48:12.90	102.21	5.18	-56.1	-65.9	3.8	7.45e-01	0	32	104	0	76	11047
2026-01-02 05:48:13.90	102.11	5.25	-56.1	-65.8	3.8	7.44e-01	0	32	104	0	76	11002
2026-01-02 05:48:14.90	102.00	5.32	-56.1	-65.8	3.8	7.46e-01	0	32	104	0	76	11018
2026-01-02 05:48:15.90	101.90	5.39	-56.1	-65.8	3.8	7.46e-01	0	32	104	0	76	11022
2026-01-02 05:48:16.90	101.80	5.47	-56.1	-65.8	3.8	7.46e-01	0	32	104	0	76	11028
2026-01-02 05:48:17.90	101.69	5.54	-56.1	-65.9	3.8	7.47e-01	0	32	104	0	76	11041
2026-01-02 05:48:18.90	101.59	5.61	-56.1	-65.9	3.8	7.44e-01	0	32	104	0	76	11046
2026-01-02 05:48:19.90	101.48	5.69	-56.1	-65.9	3.8	7.45e-01	0	32	104	0	76	11038
2026-01-02 05:48:20.90	101.38	5.76	-56.1	-65.9	3.8	7.46e-01	0	32	104	0	76	11030
2026-01-02 05:48:21.90	101.27	5.83	-56.1	-65.9	3.8	7.45e-01	0	32	104	0	76	11065
2026-01-02 05:48:22.90	101.16	5.91	-56.1	-65.9	3.8	7.47e-01	0	32	104	0	76	11045
2026-01-02 05:48:23.89	101.06	5.98	-56.1	-65.9	3.8	7.46e-01	0	32	104	0	76	11087
2026-01-02 05:48:24.89	100.95	6.06	-56.1	-65.9	3.8	7.45e-01	0	32	104	0	76	11080
2026-01-02 05:48:25.89	100.84	6.13	-56.1	-65.9	3.8	7.46e-01	0	32	104	0	76	11040
2026-01-02 05:48:26.89	100.73	6.21	-56.1	-65.9	3.8	7.46e-01	0	32	104	0	76	11045
2026-01-02 05:48:27.89	100.62	6.28	-56.1	-65.9	3.8	7.46e-01	0	32	104	0	76	11046
2026-01-02 05:48:28.90	100.50	6.36	-56.1	-65.8	3.8	7.47e-01	0	32	104	0	76	11016
2026-01-02 05:48:29.90	100.39	6.43	-56.1	-65.9	3.8	7.45e-01	0	32	104	0	76	11073
2026-01-02 05:48:30.89	100.28	6.51	-56.1	-65.9	3.8	7.45e-01	0	32	104	0	76	11045
2026-01-02 05:48:31.89	100.16	6.58	-56.1	-65.9	3.8	7.44e-01	0	32	104	0	76	11061
2026-01-02 05:48:32.89	100.05	6.66	-56.1	-65.9	3.8	7.46e-01	0	32	104	0	76	11071
2026-01-02 05:48:33.89	99.93	6.74	-56.1	-65.9	3.8	7.44e-01	0	32	104	0	76	11049
2026-01-02 05:48:34.89	99.82	6.81	-56.1	-65.9	3.8	7.45e-01	0	32	104	0	76	11052
2026-01-02 05:48:35.88	99.70	6.89	-56.1	-65.9	3.8	7.44e-01	0	32	104	0	76	11054
2026-01-02 05:48:36.89	99.58	6.97	-56.1	-65.8	3.8	7.46e-01	0	32	104	0	76	11028
2026-01-02 05:48:37.89	99.46	7.04	-56.1	-65.9	3.8	7.46e-01	0	32	104	0	76	11065
2026-01-02 05:48:38.89	99.34	7.12	-56.1	-65.9	3.8	7.45e-01	0	32	104	0	76	11084
2026-01-02 05:48:39.89	99.22	7.20	-56.1	-65.9	3.8	7.46e-01	0	32	104	0	76	11057
2026-01-02 05:48:40.88	99.10	7.27	-56.1	-65.9	3.8	7.46e-01	0	32	104	0	76	11065
2026-01-02 05:48:41.87	98.98	7.35	-56.1	-65.8	3.8	7.46e-01	0	32	104	0	76	11009
2026-01-02 05:48:42.87	98.86	7.43	-56.1	-65.9	3.8	7.46e-01	0	32	104	0	76	11060
2026-01-02 05:48:43.87	98.74	7.51	-56.1	-65.9	3.8	7.45e-01	0	32	104	0	76	11049
2026-01-02 05:48:44.88	98.61	7.59	-56.1	-65.9	3.8	7.46e-01	0	32	104	0	76	11046
2026-01-02 05:48:45.88	98.48	7.67	-56.1	-65.9	3.8	7.46e-01	0	32	104	0	76	11054
2026-01-02 05:48:46.88	98.36	7.75	-56.1	-65.9	3.8	7.44e-01	0	32	104	0	76	11051
2026-01-02 05:48:47.88	98.23	7.83	-56.1	-65.9	3.8	7.45e-01	0	32	104	0	76	11062
2026-01-02 05:48:48.88	98.10	7.90	-56.1	-65.8	3.8	7.45e-01	0	32	104	0	76	11019
2026-01-02 05:48:49.88	97.97	7.98	-56.1	-65.9	3.8	7.45e-01	0	32	104	0	76	11070
2026-01-02 05:48:50.87	97.84	8.06	-56.1	-65.9	3.8	7.46e-01	0	32	104	0	76	11061
2026-01-02 05:48:51.88	97.71	8.14	-56.1	-65.9	3.8	7.45e-01	0	32	104	0	76	11070
2026-01-02 05:48:52.88	97.58	8.22	-56.1	-65.9	3.8	7.47e-01	0	32	104	0	76	11050
2026-01-02 05:48:53.88	97.45	8.31	-56.1	-65.9	3.8	7.45e-01	0	32	104	0	76	11041
2026-01-02 05:48:54.88	97.31	8.39	-56.1	-65.9	3.8	7.46e-01	0	32	104	0	76	11078
2026-01-02 05:48:55.88	97.18	8.47	-56.1	-65.9	3.8	7.46e-01	0	32	104	0	76	11046
2026-01-02 05:48:56.87	97.05	8.55	-56.1	-65.9	3.8	7.45e-01	0	32	104	0	76	11037
2026-01-02 05:48:57.87	96.91	8.63	-56.1	-65.9	3.8	7.45e-01	0	32	104	0	76	11075
2026-01-02 05:48:58.86	96.77	8.71	-56.1	-65.9	3.8	7.45e-01	0	32	104	0	76	11069
2026-01-02 05:48:59.86	96.63	8.79	-56.1	-65.9	3.8	7.46e-01	0	32	104	0	76	11040
2026-01-02 05:49:00.85	96.50	8.87	-56.1	-65.9	3.8	7.44e-01	0	32	104	0	76	11093
2026-01-02 05:49:01.85	96.36	8.96	-56.1	-65.9	3.8	7.45e-01	0	32	104	0	76	11070
2026-01-02 05:49:02.85	96.21	9.04	-56.2	-65.9	3.8	7.47e-01	0	33	104	0	76	11094
2026-01-02 05:49:03.84	96.07	9.12	-56.1	-65.9	3.8	7.46e-01	0	32	104	0	76	11048
2026-01-02 05:49:04.84	95.93	9.20	-56.1	-65.9	3.8	7.47e-01	0	32	104	0	76	11092
2026-01-02 05:49:05.84	95.78	9.29	-56.1	-65.9	3.9	7.46e-01	0	32	104	0	76	11066
2026-01-02 05:49:06.84	95.64	9.37	-56.2	-65.9	3.8	7.46e-01	0	32	104	0	76	11069
2026-01-02 05:49:07.85	95.49	9.46	-56.2	-65.9	3.8	7.45e-01	0	32	104	0	76	11081
2026-01-02 05:49:08.84	95.34	9.54	-56.2	-65.9	3.8	7.45e-01	0	32	104	0	76	11073
2026-01-02 05:49:09.84	95.20	9.62	-56.1	-65.9	3.8	7.47e-01	0	32	104	0	76	11062
2026-01-02 05:49:10.83	95.05	9.71	-56.1	-65.9	3.8	7.44e-01	0	32	104	0	76	11077
2026-01-02 05:49:11.83	94.90	9.79	-56.1	-65.9	3.8	7.46e-01	0	32	104	0	76	11080
2026-01-02 05:49:12.82	94.75	9.87	-56.1	-65.9	3.8	7.48e-01	0	32	104	0	76	11049
2026-01-02 05:49:13.82	94.59	9.96	-56.1	-65.9	3.8	7.47e-01	0	32	104	0	76	11091
2026-01-02 05:49:14.81	94.44	10.04	-56.1	-65.9	3.8	7.46e-01	0	32	104	0	76	11056
2026-01-02 05:49:15.81	94.28	10.13	-56.2	-65.9	3.8	7.45e-01	0	32	104	0	76	11102
2026-01-02 05:49:16.81	94.13	10.22	-56.1	-65.9	3.8	7.44e-01	0	32	104	0	76	11059
2026-01-02 05:49:17.81	93.97	10.30	-56.1	-65.9	3.8	7.45e-01	0	33	104	0	76	11053
2026-01-02 05:49:18.81	93.81	10.39	-56.1	-65.9	3.8	7.45e-01	0	32	104	0	76	11092
2026-01-02 05:49:19.81	93.65	10.47	-56.1	-65.9	3.8	7.45e-01	0	33	104	0	76	11083
2026-01-02 05:49:20.82	93.49	10.56	-56.2	-65.9	3.8	7.45e-01	0	32	104	0	76	11049
2026-01-02 05:49:21.82	93.33	10.65	-56.1	-65.9	3.8	7.46e-01	0	32	104	0	76	11085
2026-01-02 05:49:22.83	93.16	10.74	-56.2	-65.9	3.8	7.44e-01	0	33	104	0	76	11081
2026-01-02 05:49:23.84	92.99	10.82	-56.1	-65.9	3.8	7.44e-01	0	33	104	0	76	11067
2026-01-02 05:49:24.84	92.83	10.91	-56.2	-65.9	3.8	7.46e-01	0	33	104	0	76	11063
2026-01-02 05:49:25.84	92.66	11.00	-56.1	-65.9	3.8	7.45e-01	0	33	104	0	76	11087
2026-01-02 05:49:26.84	92.49	11.09	-56.2	-65.9	3.8	7.44e-01	0	33	104	0	76	11106
2026-01-02 05:49:27.84	92.32	11.18	-56.2	-65.9	3.8	7.44e-01	0	33	104	0	76	11107
2026-01-02 05:49:28.84	92.15	11.26	-56.2	-65.9	3.8	7.46e-01	0	33	104	0	76	11103
2026-01-02 05:49:29.84	91.98	11.35	-56.2	-65.9	3.8	7.47e-01	0	32	104	0	76	11085
2026-01-02 05:49:30.84	91.80	11.44	-56.2	-65.9	3.8	7.45e-01	0	32	104	0	76	11077
2026-01-02 05:49:31.83	91.63	11.53	-56.2	-65.9	3.8	7.47e-01	0	33	104	0	76	11056
2026-01-02 05:49:32.84	91.45	11.62	-56.2	-65.9	3.8	7.46e-01	0	32	104	0	76	11087
2026-01-02 05:49:33.84	91.28	11.71	-56.2	-65.9	3.8	7.44e-01	0	33	104	0	76	11087
2026-01-02 05:49:34.84	91.10	11.80	-56.2	-65.9	3.8	7.46e-01	0	33	104	0	76	11040
2026-01-02 05:49:35.85	90.91	11.89	-56.1	-65.9	3.8	7.46e-01	0	33	104	0	76	11082
2026-01-02 05:49:36.84	90.73	11.98	-56.2	-65.9	3.8	7.46e-01	0	33	104	0	76	11068
2026-01-02 05:49:37.85	90.55	12.07	-56.2	-65.9	3.8	7.44e-01	0	33	104	0	76	11090
2026-01-02 05:49:38.84	90.37	12.16	-56.2	-65.9	3.8	7.45e-01	0	33	104	0	76	11112
2026-01-02 05:49:39.83	90.18	12.25	-56.1	-65.9	3.8	7.46e-01	0	32	104	0	76	11042
2026-01-02 05:49:40.83	89.99	12.34	-56.2	-65.9	3.8	7.45e-01	0	33	104	0	76	11079
2026-01-02 05:49:41.83	89.81	12.43	-56.1	-65.9	3.8	7.46e-01	0	33	104	0	76	11054
2026-01-02 05:49:42.83	89.62	12.52	-56.2	-65.9	3.8	7.46e-01	0	32	104	0	76	11077
2026-01-02 05:49:43.82	89.43	12.61	-56.2	-65.9	3.8	7.47e-01	0	33	104	0	76	11078
2026-01-02 05:49:44.81	89.23	12.70	-56.2	-65.9	3.8	7.47e-01	0	33	104	0	76	11049
2026-01-02 05:49:45.81	89.04	12.79	-56.2	-65.9	3.8	7.45e-01	0	33	104	0	76	11095
2026-01-02 05:49:46.80	88.85	12.89	-56.2	-65.9	3.8	7.46e-01	0	33	104	0	76	11080
2026-01-02 05:49:47.80	88.65	12.98	-56.2	-65.9	3.8	7.47e-01	0	32	104	0	76	11044
2026-01-02 05:49:48.80	88.45	13.07	-56.2	-65.9	3.8	7.46e-01	0	33	104	0	76	11061
2026-01-02 05:49:49.80	88.25	13.16	-56.1	-65.9	3.8	7.45e-01	0	33	104	0	76	11092
2026-01-02 05:49:50.81	88.05	13.26	-56.2	-65.9	3.8	7.45e-01	0	33	104	0	76	11063
2026-01-02 05:49:51.81	87.84	13.35	-56.2	-65.9	3.8	7.47e-01	0	33	104	0	76	11058
2026-01-02 05:49:52.80	87.64	13.44	-56.2	-65.9	3.8	7.47e-01	0	33	104	0	76	11072
2026-01-02 05:49:53.80	87.43	13.53	-56.2	-65.9	3.8	7.46e-01	0	33	104	0	76	11084
2026-01-02 05:49:54.79	87.23	13.63	-56.2	-65.9	3.8	7.45e-01	0	32	104	0	76	11077
2026-01-02 05:49:55.78	87.02	13.72	-56.2	-65.9	3.8	7.46e-01	0	32	104	0	76	11075
2026-01-02 05:49:56.78	86.81	13.81	-56.1	-65.9	3.8	7.47e-01	0	33	104	0	76	11102
2026-01-02 05:49:57.78	86.59	13.90	-56.2	-65.9	3.8	7.46e-01	0	33	104	0	76	11123
2026-01-02 05:49:58.79	86.38	14.00	-56.2	-65.9	3.8	7.45e-01	0	33	104	0	76	11050
2026-01-02 05:49:59.79	86.16	14.09	-56.2	-65.9	3.8	7.43e-01	0	33	104	0	76	11061
2026-01-02 05:50:00.78	85.94	14.19	-56.2	-65.9	3.8	7.44e-01	0	33	104	0	76	11075
2026-01-02 05:50:01.78	85.72	14.28	-56.2	-65.9	3.8	7.44e-01	0	33	104	0	76	11105
2026-01-02 05:50:02.78	85.50	14.37	-56.2	-65.9	3.8	7.46e-01	0	33	104	0	76	11105
2026-01-02 05:50:03.78	85.28	14.47	-56.2	-65.9	3.8	7.45e-01	0	33	104	0	76	11077
2026-01-02 05:50:04.77	85.06	14.56	-56.2	-65.9	3.8	7.45e-01	0	33	104	0	76	11100
2026-01-02 05:50:05.76	84.83	14.66	-56.2	-65.9	3.8	7.45e-01	0	33	104	0	76	11109
2026-01-02 05:50:06.75	84.61	14.75	-56.2	-65.9	3.8	7.45e-01	0	33	104	0	76	11082
2026-01-02 05:50:07.75	84.38	14.84	-56.2	-65.9	3.8	7.45e-01	0	33	104	0	76	11030
2026-01-02 05:50:08.75	84.14	14.94	-56.1	-65.9	3.8	7.46e-01	0	33	104	0	76	11095
2026-01-02 05:50:09.75	83.91	15.03	-56.2	-65.9	3.8	7.45e-01	0	33	104	0	76	11079
2026-01-02 05:50:10.75	83.68	15.13	-56.2	-65.9	3.8	7.46e-01	0	32	104	0	76	11058
2026-01-02 05:50:11.74	83.44	15.22	-56.2	-65.9	3.8	7.46e-01	0	32	104	0	76	11100
2026-01-02 05:50:12.73	83.20	15.32	-56.2	-65.9	3.8	7.47e-01	0	33	104	0	76	11126
2026-01-02 05:50:13.72	82.97	15.41	-56.2	-65.9	3.8	7.47e-01	0	33	104	0	76	11117
2026-01-02 05:50:14.71	82.73	15.50	-56.2	-65.9	3.8	7.45e-01	0	33	104	0	76	11081
2026-01-02 05:50:15.71	82.48	15.60	-56.2	-65.9	3.8	7.46e-01	0	33	104	0	76	11111
2026-01-02 05:50:16.72	82.23	15.69	-56.2	-65.9	3.8	7.45e-01	0	33	104	0	76	11083
2026-01-02 05:50:17.71	81.99	15.79	-56.2	-65.9	3.8	7.45e-01	0	32	104	0	76	11117
2026-01-02 05:50:18.71	81.74	15.88	-56.2	-65.9	3.8	7.47e-01	0	33	104	0	76	11073
2026-01-02 05:50:19.71	81.49	15.98	-56.2	-65.9	3.8	7.46e-01	0	33	104	0	76	11109
2026-01-02 05:50:20.71	81.23	16.07	-56.2	-65.9	3.8	7.47e-01	0	33	104	0	76	11065
2026-01-02 05:50:21.70	80.98	16.17	-56.2	-65.9	3.8	7.46e-01	0	33	104	0	76	11105
2026-01-02 05:50:22.70	80.72	16.26	-56.2	-65.9	3.8	7.48e-01	0	33	104	0	76	11100
2026-01-02 05:50:23.69	80.46	16.36	-56.2	-65.9	3.8	7.46e-01	0	33	104	0	76	11062
2026-01-02 05:50:24.70	80.20	16.45	-56.2	-65.9	3.8	7.46e-01	0	33	104	0	76	11105
2026-01-02 05:50:25.70	79.94	16.55	-56.2	-65.9	3.8	7.45e-01	0	33	104	0	76	11104
2026-01-02 05:50:26.70	79.67	16.64	-56.2	-65.9	3.8	7.44e-01	0	33	104	0	76	11100
2026-01-02 05:50:27.71	79.40	16.74	-56.2	-65.9	3.8	7.46e-01	0	33	104	0	76	11074
2026-01-02 05:50:28.71	79.13	16.83	-56.2	-65.9	3.8	7.46e-01	0	33	104	0	76	11114
2026-01-02 05:50:29.70	78.86	16.93	-56.2	-65.9	3.8	7.45e-01	0	33	104	0	76	11126
2026-01-02 05:50:30.71	78.59	17.02	-56.2	-65.9	3.8	7.46e-01	0	33	104	0	76	11093
2026-01-02 05:50:31.71	78.31	17.12	-56.2	-65.9	3.8	7.45e-01	0	33	104	0	76	11102
2026-01-02 05:50:32.71	78.03	17.21	-56.2	-65.9	3.8	7.45e-01	0	33	104	0	76	11124
2026-01-02 05:50:33.71	77.75	17.30	-56.2	-65.9	3.8	7.45e-01	0	33	104	0	76	11123
2026-01-02 05:50:34.70	77.48	17.40	-56.2	-65.9	3.8	7.46e-01	0	32	104	0	76	11101
2026-01-02 05:50:35.70	77.19	17.49	-56.2	-65.9	3.8	7.45e-01	0	33	104	0	76	11100
2026-01-02 05:50:36.71	76.90	17.58	-56.2	-65.9	3.8	7.46e-01	0	33	104	0	76	11057
2026-01-02 05:50:37.71	76.62	17.68	-56.2	-65.9	3.8	7.46e-01	0	33	104	0	76	11136
2026-01-02 05:50:38.71	76.33	17.77	-56.2	-65.9	3.8	7.44e-01	0	33	104	0	76	11090
2026-01-02 05:50:39.71	76.03	17.86	-56.2	-65.9	3.8	7.45e-01	0	33	104	0	76	11063
2026-01-02 05:50:40.71	75.74	17.96	-56.2	-65.9	3.8	7.46e-01	0	33	104	0	76	11099
2026-01-02 05:50:41.71	75.44	18.05	-56.2	-65.9	3.8	7.44e-01	0	33	104	0	76	11090
2026-01-02 05:50:42.71	75.15	18.14	-56.2	-65.9	3.8	7.44e-01	0	33	104	0	76	11098
2026-01-02 05:50:43.71	74.84	18.23	-56.2	-65.9	3.8	7.45e-01	0	33	104	0	76	11153
2026-01-02 05:50:44.71	74.54	18.32	-56.2	-65.9	3.8	7.45e-01	0	33	104	0	76	11081
2026-01-02 05:50:45.71	74.24	18.42	-56.2	-65.9	3.8	7.47e-01	0	33	104	0	76	11098
2026-01-02 05:50:46.71	73.93	18.51	-56.2	-65.9	3.8	7.45e-01	0	33	104	0	76	11139
2026-01-02 05:50:47.71	73.62	18.60	-56.2	-65.9	3.8	7.45e-01	0	33	104	0	76	11077
2026-01-02 05:50:48.71	73.31	18.69	-56.2	-65.9	3.8	7.45e-01	0	33	104	0	76	11118
2026-01-02 05:50:49.70	73.00	18.78	-56.2	-65.9	3.8	7.46e-01	0	33	104	0	76	11116
2026-01-02 05:50:50.70	72.69	18.87	-56.2	-65.9	3.8	7.45e-01	0	33	104	0	76	11099
2026-01-02 05:50:51.70	72.37	18.95	-56.2	-65.9	3.8	7.46e-01	0	32	104	0	76	11133
2026-01-02 05:50:52.70	72.05	19.04	-56.2	-65.9	3.8	7.47e-01	0	33	104	0	76	11111
2026-01-02 05:50:53.70	71.73	19.13	-56.2	-65.9	3.8	7.47e-01	0	33	104	0	76	11093
2026-01-02 05:50:54.70	71.40	19.22	-56.2	-65.9	3.8	7.46e-01	0	33	104	0	76	11151
2026-01-02 05:50:55.70	71.08	19.31	-56.2	-65.9	3.8	7.45e-01	0	33	104	0	76	11139
2026-01-02 05:50:56.69	70.75	19.39	-56.2	-65.9	3.8	7.44e-01	0	33	104	0	76	11085
2026-01-02 05:50:57.69	70.42	19.48	-56.2	-65.9	3.8	7.44e-01	0	33	104	0	76	11089
2026-01-02 05:50:58.68	70.09	19.56	-56.2	-65.9	3.8	7.46e-01	0	33	104	0	76	11086
2026-01-02 05:50:59.67	69.76	19.65	-56.2	-65.9	3.8	7.47e-01	0	33	104	0	76	11118
2026-01-02 05:51:00.67	69.42	19.73	-56.2	-65.9	3.8	7.46e-01	0	33	104	0	76	11094
2026-01-02 05:51:01.67	69.08	19.82	-56.2	-65.9	3.8	7.46e-01	0	33	104	0	76	11120
2026-01-02 05:51:02.67	68.74	19.90	-56.2	-65.9	3.8	7.47e-01	0	33	104	0	76	11105
2026-01-02 05:51:03.68	68.40	19.99	-56.2	-65.9	3.8	7.47e-01	0	33	104	0	76	11102
2026-01-02 05:51:04.68	68.05	20.07	-56.2	-65.9	3.8	7.45e-01	0	33	104	0	76	11111
2026-01-02 05:51:05.67	67.71	20.15	-56.2	-65.9	3.8	7.45e-01	0	33	104	0	76	11107
2026-01-02 05:51:06.67	67.36	20.23	-56.2	-65.9	3.8	7.46e-01	0	33	104	0	76	11139
2026-01-02 05:51:07.67	67.01	20.31	-56.2	-65.9	3.8	7.45e-01	0	33	104	0	76	11118
2026-01-02 05:51:08.67	66.65	20.39	-56.2	-65.9	3.8	7.47e-01	0	33	104	0	76	11058
2026-01-02 05:51:09.67	66.30	20.47	-56.2	-65.9	3.8	7.45e-01	0	33	104	0	76	11110
2026-01-02 05:51:10.67	65.94	20.55	-56.2	-65.9	3.8	7.46e-01	0	33	104	0	76	11102
2026-01-02 05:51:11.66	65.58	20.62	-56.2	-65.9	3.8	7.46e-01	0	33	104	0	76	11101
2026-01-02 05:51:12.65	65.22	20.70	-56.2	-65.9	3.8	7.45e-01	0	33	104	0	76	11107
2026-01-02 05:51:13.65	64.86	20.78	-56.2	-65.9	3.8	7.45e-01	0	33	104	0	76	11085
2026-01-02 05:51:14.65	64.49	20.85	-56.2	-65.9	3.8	7.46e-01	0	33	104	0	76	11124
2026-01-02 05:51:15.65	64.12	20.93	-56.2	-65.9	3.8	7.45e-01	0	33	104	0	76	11084
2026-01-02 05:51:16.65	63.75	21.00	-56.2	-65.9	3.8	7.46e-01	0	33	104	0	76	11130
2026-01-02 05:51:17.65	63.38	21.07	-56.2	-65.9	3.8	7.44e-01	0	33	104	0	76	11119
2026-01-02 05:51:18.65	63.01	21.14	-56.2	-65.9	3.8	7.45e-01	0	33	104	0	76	11114
2026-01-02 05:51:19.66	62.63	21.22	-56.2	-65.9	3.8	7.47e-01	0	33	104	0	76	11116
2026-01-02 05:51:20.66	62.25	21.29	-56.2	-65.9	3.8	7.46e-01	0	33	104	0	76	11086
2026-01-02 05:51:21.66	61.87	21.35	-56.2	-65.9	3.8	7.47e-01	0	33	104	0	76	11089
2026-01-02 05:51:22.66	61.49	21.42	-56.2	-65.9	3.8	7.45e-01	0	33	104	0	76	11119
2026-01-02 05:51:23.66	61.10	21.49	-56.2	-65.9	3.8	7.47e-01	0	33	104	0	76	11127
2026-01-02 05:51:24.66	60.72	21.56	-56.2	-65.9	3.8	7.46e-01	0	33	104	0	76	11132
2026-01-02 05:51:25.67	60.32	21.62	-56.2	-65.9	3.8	7.46e-01	0	33	104	0	76	11093
2026-01-02 05:51:26.67	59.93	21.68	-56.2	-66.0	3.8	7.43e-01	0	33	104	0	76	11159
2026-01-02 05:51:27.66	59.55	21.75	-56.2	-65.9	3.8	7.46e-01	0	33	104	0	76	11101
2026-01-02 05:51:28.66	59.15	21.81	-56.2	-65.9	3.8	7.45e-01	0	33	104	0	76	11137
2026-01-02 05:51:29.66	58.76	21.87	-56.2	-65.9	3.8	7.45e-01	0	33	104	0	76	11115
2026-01-02 05:51:30.65	58.37	21.93	-56.2	-65.9	3.8	7.46e-01	0	33	104	0	76	11126
2026-01-02 05:51:31.65	57.97	21.99	-56.2	-65.9	3.8	7.47e-01	0	33	104	0	76	11135
2026-01-02 05:51:32.65	57.57	22.04	-56.2	-65.9	3.8	7.45e-01	0	33	104	0	76	11117
2026-01-02 05:51:33.65	57.17	22.10	-56.2	-65.9	3.8	7.46e-01	0	33	104	0	76	11123
2026-01-02 05:51:34.65	56.76	22.15	-56.2	-66.0	3.8	7.46e-01	0	33	104	0	76	11162
2026-01-02 05:51:35.65	56.36	22.21	-56.2	-65.9	3.8	7.46e-01	0	33	104	0	76	11123
2026-01-02 05:51:36.65	55.95	22.26	-56.2	-65.9	3.8	7.45e-01	0	33	104	0	76	11150
2026-01-02 05:51:37.65	55.54	22.31	-56.2	-65.9	3.8	7.46e-01	0	33	104	0	76	11117
2026-01-02 05:51:38.65	55.13	22.36	-56.2	-66.0	3.8	7.44e-01	0	33	104	0	76	11163
2026-01-02 05:51:39.65	54.72	22.41	-56.2	-65.9	3.8	7.46e-01	0	33	104	0	76	11126
2026-01-02 05:51:40.65	54.31	22.46	-56.2	-65.9	3.8	7.46e-01	0	33	104	0	76	11081
2026-01-02 05:51:41.65	53.90	22.50	-56.2	-65.9	3.8	7.45e-01	0	33	104	0	76	11087
2026-01-02 05:51:42.65	53.48	22.55	-56.2	-65.9	3.8	7.47e-01	0	33	104	0	76	11108
2026-01-02 05:51:43.65	53.06	22.59	-56.2	-65.9	3.8	7.44e-01	0	33	104	0	76	11136
2026-01-02 05:51:44.65	52.65	22.63	-56.2	-65.9	3.8	7.46e-01	0	33	104	0	76	11133
2026-01-02 05:51:45.64	52.23	22.67	-56.2	-65.9	3.8	7.46e-01	0	33	104	0	76	11122
2026-01-02 05:51:46.65	51.81	22.71	-56.2	-65.9	3.8	7.44e-01	0	33	104	0	76	11109
2026-01-02 05:51:47.64	51.39	22.75	-56.2	-65.9	3.8	7.46e-01	0	33	104	0	76	11109
2026-01-02 05:51:48.65	50.96	22.78	-56.2	-65.9	3.9	7.45e-01	0	33	104	0	76	11131
2026-01-02 05:51:49.65	50.54	22.82	-56.2	-65.9	3.8	7.44e-01	0	33	104	0	76	11142
2026-01-02 05:51:50.65	50.11	22.85	-56.2	-66.0	3.8	7.46e-01	0	33	104	0	76	11162
2026-01-02 05:51:51.65	49.69	22.88	-56.2	-65.9	3.8	7.48e-01	0	33	104	0	76	11139
2026-01-02 05:51:52.65	49.26	22.91	-56.2	-65.9	3.8	7.45e-01	0	33	104	0	76	11136
2026-01-02 05:51:53.65	48.83	22.94	-56.2	-65.9	3.8	7.46e-01	0	33	104	0	76	11103
2026-01-02 05:51:54.64	48.41	22.97	-56.2	-65.9	3.8	7.46e-01	0	33	104	0	76	11132
2026-01-02 05:51:55.64	47.98	23.00	-56.2	-65.9	3.8	7.46e-01	0	33	104	0	76	11121
2026-01-02 05:51:56.64	47.55	23.02	-56.2	-65.9	3.8	7.46e-01	0	33	104	0	76	11137
2026-01-02 05:51:57.63	47.12	23.04	-56.2	-65.9	3.8	7.45e-01	0	33	104	0	76	11103
2026-01-02 05:51:58.62	46.70	23.06	-56.2	-65.9	3.8	7.46e-01	0	33	104	0	76	11155
2026-01-02 05:51:59.61	46.27	23.08	-56.2	-66.0	3.8	7.47e-01	0	33	104	0	76	11183
2026-01-02 05:52:00.61	45.84	23.10	-56.2	-65.9	3.8	7.44e-01	0	33	104	0	76	11104
2026-01-02 05:52:01.61	45.40	23.12	-56.2	-65.9	3.8	7.47e-01	0	33	104	0	76	11117
2026-01-02 05:52:02.61	44.97	23.13	-56.2	-66.0	3.8	7.46e-01	0	33	104	0	76	11160
2026-01-02 05:52:03.61	44.54	23.14	-56.2	-65.9	3.8	7.46e-01	0	33	104	0	76	11105
2026-01-02 05:52:04.60	44.11	23.16	-56.2	-65.9	3.8	7.46e-01	0	33	104	0	76	11121
2026-01-02 05:52:05.60	43.67	23.17	-56.2	-65.9	3.8	7.45e-01	0	33	104	0	76	11145
2026-01-02 05:52:06.59	43.24	23.17	-56.2	-65.9	3.8	7.46e-01	0	33	104	0	76	11145
2026-01-02 05:52:07.59	42.81	23.18	-56.2	-65.9	3.8	7.46e-01	0	33	104	0	76	11145
2026-01-02 05:52:08.58	42.38	23.19	-56.2	-65.9	3.8	7.45e-01	0	33	104	0	76	11119
2026-01-02 05:52:09.57	41.94	23.19	-56.2	-65.9	3.8	7.46e-01	0	33	104	0	76	11135
2026-01-02 05:52:10.57	41.51	23.19	-56.2	-65.9	3.8	7.47e-01	0	33	104	0	76	11115
2026-01-02 05:52:11.57	41.07	23.19	-56.2	-65.9	3.8	7.46e-01	0	33	104	0	76	11119
2026-01-02 05:52:12.56	40.64	23.19	-56.2	-65.9	3.8	7.48e-01	0	33	104	0	76	11134
2026-01-02 05:52:13.56	40.21	23.19	-56.2	-65.9	3.8	7.46e-01	0	33	104	0	76	11151
2026-01-02 05:52:14.56	39.77	23.18	-56.2	-65.9	3.8	7.45e-01	0	33	104	0	76	11085
2026-01-02 05:52:15.57	39.33	23.18	-56.2	-65.9	3.8	7.45e-01	0	33	104	0	76	11125
2026-01-02 05:52:16.56	38.90	23.17	-56.2	-66.0	3.8	7.45e-01	0	33	104	0	76	11172
2026-01-02 05:52:17.56	38.47	23.16	-56.2	-65.9	3.8	7.46e-01	0	33	104	0	76	11113
2026-01-02 05:52:18.56	38.03	23.15	-56.2	-65.9	3.8	7.47e-01	0	33	104	0	76	11136
2026-01-02 05:52:19.56	37.60	23.14	-56.2	-65.9	3.8	7.45e-01	0	33	104	0	76	11144
2026-01-02 05:52:20.56	37.17	23.13	-56.2	-65.9	3.8	7.45e-01	0	33	104	0	76	11136
2026-01-02 05:52:21.56	36.73	23.11	-56.2	-65.9	3.8	7.47e-01	0	33	104	0	76	11141
2026-01-02 05:52:22.55	36.30	23.09	-56.2	-65.9	3.8	7.46e-01	0	33	104	0	76	11147
2026-01-02 05:52:23.55	35.87	23.07	-56.2	-65.9	3.8	7.46e-01	0	33	104	0	76	11136
2026-01-02 05:52:24.55	35.44	23.05	-56.2	-66.0	3.8	7.44e-01	0	33	104	0	76	11166
2026-01-02 05:52:25.55	35.01	23.03	-56.2	-65.9	3.8	7.47e-01	0	33	104	0	76	11108
2026-01-02 05:52:26.56	34.58	23.01	-56.2	-65.9	3.8	7.46e-01	0	33	104	0	76	11120
2026-01-02 05:52:27.55	34.15	22.98	-56.2	-65.9	3.8	7.46e-01	0	33	104	0	76	11109
2026-01-02 05:52:28.56	33.72	22.96	-56.2	-65.9	3.8	7.46e-01	0	33	104	0	76	11115
2026-01-02 05:52:29.56	33.29	22.93	-56.2	-65.9	3.8	7.47e-01	0	33	104	0	76	11145
2026-01-02 05:52:30.56	32.86	22.90	-56.2	-65.9	3.8	7.45e-01	0	33	104	0	76	11146
2026-01-02 05:52:31.56	32.44	22.87	-56.2	-65.9	3.8	7.44e-01	0	33	104	0	76	11126
2026-01-02 05:52:32.56	32.01	22.84	-56.2	-65.9	3.8	7.46e-01	0	33	104	0	76	11153
2026-01-02 05:52:33.56	31.59	22.80	-56.2	-65.9	3.8	7.46e-01	0	33	104	0	76	11136
2026-01-02 05:52:34.56	31.17	22.77	-56.2	-65.9	3.8	7.44e-01	0	33	104	0	76	11141
2026-01-02 05:52:35.56	30.74	22.73	-56.2	-65.9	3.8	7.46e-01	0	33	104	0	76	11132
2026-01-02 05:52:36.56	30.32	22.69	-56.2	-65.9	3.8	7.46e-01	0	33	104	0	76	11126
2026-01-02 05:52:37.55	29.91	22.65	-56.2	-66.0	3.8	7.47e-01	0	33	104	0	76	11183
2026-01-02 05:52:38.56	29.49	22.61	-56.2	-65.9	3.8	7.45e-01	0	33	104	0	76	11134
2026-01-02 05:52:39.56	29.07	22.57	-56.2	-65.9	3.8	7.44e-01	0	33	104	0	76	11097
2026-01-02 05:52:40.56	28.66	22.53	-56.2	-66.0	3.8	7.45e-01	0	33	104	0	76	11165
2026-01-02 05:52:41.57	28.24	22.48	-56.2	-65.9	3.8	7.45e-01	0	33	104	0	76	11154
2026-01-02 05:52:42.57	27.82	22.44	-56.2	-65.9	3.8	7.44e-01	0	33	104	0	76	11132
2026-01-02 05:52:43.57	27.41	22.39	-56.2	-65.9	3.8	7.47e-01	0	33	104	0	76	11136
2026-01-02 05:52:44.57	27.00	22.34	-56.2	-65.9	3.8	7.45e-01	0	33	104	0	76	11141
2026-01-02 05:52:45.58	26.59	22.29	-56.2	-65.9	3.8	7.45e-01	0	33	104	0	76	11124
2026-01-02 05:52:46.58	26.18	22.24	-56.2	-65.9	3.8	7.46e-01	0	33	104	0	76	11152
2026-01-02 05:52:47.57	25.78	22.18	-56.2	-65.9	3.8	7.47e-01	0	33	104	0	76	11128
2026-01-02 05:52:48.58	25.38	22.13	-56.2	-65.9	3.8	7.44e-01	0	33	104	0	76	11150
2026-01-02 05:52:49.58	24.97	22.07	-56.2	-65.9	3.8	7.45e-01	0	33	104	0	76	11155
2026-01-02 05:52:50.58	24.57	22.02	-56.2	-65.9	3.8	7.44e-01	0	33	104	0	76	11134
2026-01-02 05:52:51.58	24.17	21.96	-56.2	-65.9	3.8	7.47e-01	0	33	104	0	76	11157
2026-01-02 05:52:52.58	23.78	21.90	-56.2	-65.9	3.8	7.45e-01	0	33	104	0	76	11147
2026-01-02 05:52:53.58	23.38	21.84	-56.2	-65.9	3.8	7.45e-01	0	33	104	0	76	11110
2026-01-02 05:52:54.58	22.99	21.78	-56.2	-66.0	3.8	7.45e-01	0	33	104	0	76	11180
2026-01-02 05:52:55.58	22.60	21.72	-56.2	-65.9	3.8	7.46e-01	0	33	104	0	76	11137
2026-01-02 05:52:56.58	22.21	21.66	-56.2	-65.9	3.8	7.44e-01	0	33	104	0	76	11156
2026-01-02 05:52:57.58	21.82	21.59	-56.2	-65.9	3.8	7.46e-01	0	33	104	0	76	11131
2026-01-02 05:52:58.57	21.44	21.53	-56.2	-66.0	3.8	7.46e-01	0	33	104	0	76	11168
2026-01-02 05:52:59.57	21.05	21.46	-56.2	-65.9	3.8	7.45e-01	0	33	104	0	76	11145
2026-01-02 05:53:00.57	20.67	21.39	-56.2	-65.9	3.8	7.44e-01	0	33	104	0	76	11139
2026-01-02 05:53:01.57	20.29	21.32	-56.2	-65.9	3.8	7.45e-01	0	33	104	0	76	11128
2026-01-02 05:53:02.57	19.91	21.26	-56.2	-66.0	3.8	7.46e-01	0	33	104	0	76	11176
2026-01-02 05:53:03.56	19.54	21.19	-56.2	-65.9	3.8	7.46e-01	0	33	104	0	76	11143
2026-01-02 05:53:04.56	19.16	21.11	-56.2	-66.0	3.8	7.45e-01	0	33	104	0	76	11159
2026-01-02 05:53:05.55	18.80	21.04	-56.2	-66.0	3.8	7.46e-01	0	33	104	0	76	11183
2026-01-02 05:53:06.55	18.43	20.97	-56.2	-66.0	3.8	7.46e-01	0	33	104	0	76	11168
2026-01-02 05:53:07.54	18.06	20.90	-56.2	-66.0	3.8	7.47e-01	0	33	104	0	76	11163
2026-01-02 05:53:08.54	17.69	20.82	-56.2	-65.9	3.8	7.44e-01	0	33	104	0	76	11155
2026-01-02 05:53:09.53	17.33	20.75	-56.2	-65.9	3.8	7.46e-01	0	33	104	0	76	11113
2026-01-02 05:53:10.53	16.97	20.67	-56.2	-66.0	3.8	7.47e-01	0	33	104	0	76	11161
2026-01-02 05:53:11.53	16.61	20.60	-56.2	-66.0	3.8	7.46e-01	0	33	104	0	76	11172
2026-01-02 05:53:12.53	16.25	20.52	-56.2	-65.9	3.8	7.46e-01	0	33	104	0	76	11136
2026-01-02 05:53:13.53	15.90	20.44	-56.2	-66.0	3.8	7.46e-01	0	33	104	0	76	11162
2026-01-02 05:53:14.52	15.54	20.36	-56.2	-65.9	3.8	7.45e-01	0	33	104	0	76	11149
2026-01-02 05:53:15.51	15.20	20.28	-56.2	-66.0	3.8	7.46e-01	0	33	104	0	76	11178
2026-01-02 05:53:16.52	14.84	20.20	-56.2	-66.0	3.8	7.46e-01	0	33	104	0	76	11183
2026-01-02 05:53:17.51	14.50	20.12	-56.2	-66.0	3.8	7.45e-01	0	33	104	0	76	11182
2026-01-02 05:53:18.52	14.15	20.04	-56.2	-66.0	3.8	7.46e-01	0	33	104	0	76	11170
2026-01-02 05:53:19.52	13.81	19.96	-56.2	-66.0	3.8	7.47e-01	0	33	104	0	76	11178
2026-01-02 05:53:20.52	13.46	19.87	-56.2	-65.9	3.8	7.47e-01	0	33	104	0	76	11117
2026-01-02 05:53:21.53	13.12	19.79	-56.2	-65.9	3.8	7.45e-01	0	33	104	0	76	11145
2026-01-02 05:53:22.53	12.78	19.70	-56.2	-65.9	3.8	7.46e-01	0	33	104	0	76	11116
2026-01-02 05:53:23.53	12.45	19.62	-56.2	-66.0	3.8	7.45e-01	0	33	104	0	76	11210
2026-01-02 05:53:24.54	12.11	19.53	-56.2	-65.9	3.8	7.45e-01	0	33	104	0	76	11105
2026-01-02 05:53:25.54	11.78	19.45	-56.2	-65.9	3.8	7.47e-01	0	33	104	0	76	11139
2026-01-02 05:53:26.54	11.45	19.36	-56.2	-65.9	3.8	7.45e-01	0	33	104	0	76	11148
2026-01-02 05:53:27.54	11.13	19.27	-56.2	-66.0	3.8	7.46e-01	0	33	104	0	76	11183
2026-01-02 05:53:28.55	10.80	19.19	-56.2	-65.9	3.8	7.46e-01	0	33	104	0	76	11150
2026-01-02 05:53:29.54	10.48	19.10	-56.2	-65.9	3.8	7.45e-01	0	33	104	0	76	11146
2026-01-02 05:53:30.54	10.16	19.01	-56.2	-66.0	3.8	7.44e-01	0	33	104	0	76	11175
2026-01-02 05:53:31.54	9.84	18.92	-56.2	-66.0	3.8	7.46e-01	0	33	104	0	76	11177
2026-01-02 05:53:32.54	9.53	18.83	-56.2	-66.0	3.8	7.44e-01	0	33	104	0	76	11167
2026-01-02 05:53:33.55	9.21	18.74	-56.2	-65.9	3.8	7.46e-01	0	33	104	0	76	11098
2026-01-02 05:53:34.55	8.90	18.65	-56.2	-66.0	3.8	7.46e-01	0	33	104	0	76	11173
2026-01-02 05:53:35.55	8.59	18.56	-56.2	-65.9	3.8	7.46e-01	0	33	104	0	76	11154
2026-01-02 05:53:36.54	8.29	18.47	-56.2	-65.9	3.8	7.43e-01	0	33	104	0	76	11156
2026-01-02 05:53:37.54	7.98	18.38	-56.2	-65.9	3.8	7.45e-01	0	33	104	0	76	11142
2026-01-02 05:53:38.54	7.68	18.29	-56.2	-65.9	3.8	7.46e-01	0	33	104	0	76	11120
2026-01-02 05:53:39.54	7.38	18.20	-56.2	-65.9	3.8	7.47e-01	0	33	104	0	76	11130
2026-01-02 05:53:40.55	7.08	18.11	-56.2	-65.9	3.8	7.45e-01	0	33	104	0	76	11145
2026-01-02 05:53:41.55	6.78	18.02	-56.2	-65.9	3.8	7.46e-01	0	33	104	0	76	11150
2026-01-02 05:53:42.55	6.49	17.92	-56.2	-65.9	3.8	7.45e-01	0	33	104	0	76	11131
2026-01-02 05:53:43.55	6.20	17.83	-56.2	-66.0	3.8	7.46e-01	0	33	104	0	76	11187
2026-01-02 05:53:44.55	5.91	17.74	-56.2	-66.0	3.8	7.45e-01	0	33	104	0	76	11158
2026-01-02 05:53:45.56	5.62	17.64	-56.2	-66.0	3.8	7.44e-01	0	33	104	0	76	11173
2026-01-02 05:53:46.56	5.33	17.55	-56.2	-66.0	3.8	7.45e-01	0	33	104	0	76	11170
2026-01-02 05:53:47.56	5.05	17.46	-56.2	-66.0	3.8	7.45e-01	0	33	104	0	76	11170
2026-01-02 05:53:48.57	4.76	17.36	-56.2	-66.0	3.8	7.45e-01	0	33	104	0	76	11192
2026-01-02 05:53:49.57	4.48	17.27	-56.2	-65.9	3.8	7.47e-01	0	33	104	0	76	11143
2026-01-02 05:53:50.57	4.21	17.18	-56.2	-65.9	3.8	7.46e-01	0	33	104	0	76	11114
2026-01-02 05:53:51.58	3.93	17.08	-56.2	-65.9	3.8	7.46e-01	0	33	104	0	76	11120
2026-01-02 05:53:52.58	3.65	16.99	-56.2	-65.9	3.8	7.45e-01	0	33	104	0	76	11127
2026-01-02 05:53:53.58	3.38	16.89	-56.2	-66.0	3.8	7.45e-01	0	33	104	0	76	11187
2026-01-02 05:53:54.58	3.11	16.80	-56.2	-66.0	3.8	7.45e-01	0	33	104	0	76	11165
2026-01-02 05:53:55.58	2.85	16.71	-56.2	-65.9	3.8	7.45e-01	0	33	104	0	76	11134
2026-01-02 05:53:56.58	2.58	16.61	-56.2	-65.9	3.8	7.46e-01	0	33	104	0	76	11149
2026-01-02 05:53:57.58	2.32	16.52	-56.2	-65.9	3.8	7.44e-01	0	33	104	0	76	11132
2026-01-02 05:53:58.58	2.06	16.42	-56.2	-65.9	3.8	7.47e-01	0	33	104	0	76	11149
2026-01-02 05:53:59.57	1.80	16.33	-56.2	-65.9	3.8	7.44e-01	0	33	104	0	76	11153
2026-01-02 05:54:00.57	1.54	16.23	-56.2	-66.0	3.8	7.45e-01	0	33	104	0	76	11184
2026-01-02 05:54:01.57	1.29	16.14	-56.2	-66.0	3.8	7.44e-01	0	33	104	0	76	11189
2026-01-02 05:54:02.57	1.03	16.04	-56.2	-66.0	3.8	7.48e-01	0	33	104	0	76	11172
2026-01-02 05:54:03.57	0.78	15.95	-56.2	-65.9	3.8	7.47e-01	0	33	104	0	76	11155
2026-01-02 05:54:04.57	0.53	15.86	-56.2	-66.0	3.8	7.47e-01	0	33	104	0	76	11176
2026-01-02 05:54:05.58	0.28	15.76	-56.2	-66.0	3.8	7.44e-01	0	33	104	0	76	11162
2026-01-02 05:54:06.58	0.03	15.67	-56.2	-66.0	3.8	7.45e-01	0	33	104	0	76	11163
2026-01-02 05:54:07.57	359.79	15.57	-56.2	-66.0	3.8	7.45e-01	0	33	104	0	76	11161
2026-01-02 05:54:08.57	359.55	15.48	-56.2	-66.0	3.8	7.46e-01	0	33	104	0	76	11173
2026-01-02 05:54:09.57	359.31	15.38	-56.2	-66.0	3.8	7.46e-01	0	33	104	0	76	11210
2026-01-02 05:54:10.57	359.07	15.29	-56.2	-66.0	3.8	7.46e-01	0	33	104	0	76	11176
2026-01-02 05:54:11.57	358.83	15.19	-56.2	-66.0	3.8	7.45e-01	0	33	104	0	76	11181
2026-01-02 05:54:12.56	358.60	15.10	-56.2	-65.9	3.8	7.47e-01	0	33	104	0	76	11142
2026-01-02 05:54:13.55	358.37	15.01	-56.2	-66.0	3.8	7.45e-01	0	33	104	0	76	11194
2026-01-02 05:54:14.55	358.14	14.91	-56.2	-65.9	3.8	7.45e-01	0	33	104	0	76	11136
2026-01-02 05:54:15.55	357.91	14.82	-56.2	-66.0	3.8	7.46e-01	0	33	104	0	76	11189
2026-01-02 05:54:16.55	357.68	14.72	-56.2	-66.0	3.8	7.46e-01	0	33	104	0	76	11160
2026-01-02 05:54:17.54	357.45	14.63	-56.2	-65.9	3.8	7.45e-01	0	33	104	0	76	11141
2026-01-02 05:54:18.54	357.23	14.54	-56.2	-66.0	3.8	7.44e-01	0	33	104	0	76	11184
2026-01-02 05:54:19.54	357.01	14.44	-56.2	-66.0	3.8	7.46e-01	0	33	104	0	76	11172
2026-01-02 05:54:20.54	356.79	14.35	-56.2	-66.0	3.8	7.46e-01	0	33	104	0	76	11177
2026-01-02 05:54:21.54	356.57	14.25	-56.2	-65.9	3.8	7.45e-01	0	33	104	0	76	11122
2026-01-02 05:54:22.53	356.35	14.16	-56.2	-65.9	3.8	7.46e-01	0	33	104	0	76	11144
2026-01-02 05:54:23.54	356.13	14.07	-56.2	-66.0	3.8	7.45e-01	0	33	104	0	76	11162
2026-01-02 05:54:24.54	355.92	13.97	-56.2	-66.0	3.8	7.45e-01	0	33	104	0	76	11176
2026-01-02 05:54:25.55	355.70	13.88	-56.2	-65.9	3.8	7.45e-01	0	33	104	0	76	11153
2026-01-02 05:54:26.54	355.49	13.79	-56.2	-65.9	3.8	7.44e-01	0	33	104	0	76	11118
2026-01-02 05:54:27.55	355.28	13.69	-56.2	-66.0	3.8	7.45e-01	0	33	104	0	76	11189
2026-01-02 05:54:28.55	355.07	13.60	-56.2	-66.0	3.8	7.45e-01	0	33	104	0	76	11198
2026-01-02 05:54:29.55	354.87	13.51	-56.2	-65.9	3.8	7.44e-01	0	33	104	0	76	11151
2026-01-02 05:54:30.55	354.66	13.42	-56.2	-65.9	3.8	7.47e-01	0	33	104	0	76	11149
2026-01-02 05:54:31.56	354.46	13.32	-56.2	-66.0	3.8	7.46e-01	0	33	104	0	76	11187
2026-01-02 05:54:32.55	354.26	13.23	-56.2	-66.0	3.8	7.45e-01	0	33	104	0	76	11166
2026-01-02 05:54:33.55	354.06	13.14	-56.2	-66.0	3.8	7.46e-01	0	33	104	0	76	11187
2026-01-02 05:54:34.54	353.86	13.05	-56.2	-66.0	3.8	7.45e-01	0	33	104	0	76	11184
2026-01-02 05:54:35.54	353.66	12.96	-56.2	-65.9	3.8	7.44e-01	0	33	104	0	76	11134
2026-01-02 05:54:36.54	353.47	12.86	-56.2	-66.0	3.8	7.46e-01	0	33	104	0	76	11160
2026-01-02 05:54:37.53	353.27	12.77	-56.2	-65.9	3.8	7.45e-01	0	33	104	0	76	11151
2026-01-02 05:54:38.53	353.08	12.68	-56.2	-66.0	3.8	7.45e-01	0	33	104	0	76	11189
2026-01-02 05:54:39.53	352.89	12.59	-56.2	-65.9	3.8	7.47e-01	0	33	104	0	76	11152
2026-01-02 05:54:40.53	352.70	12.50	-56.2	-66.0	3.8	7.45e-01	0	33	104	0	76	11231
2026-01-02 05:54:41.53	352.51	12.41	-56.2	-66.0	3.8	7.44e-01	0	33	104	0	76	11196
2026-01-02 05:54:42.53	352.32	12.32	-56.2	-66.0	3.8	7.44e-01	0	33	104	0	76	11188
2026-01-02 05:54:43.53	352.14	12.23	-56.2	-66.0	3.8	7.47e-01	0	33	104	0	76	11158
2026-01-02 05:54:44.52	351.95	12.14	-56.2	-66.0	3.8	7.47e-01	0	33	104	0	76	11201
2026-01-02 05:54:45.52	351.77	12.05	-56.2	-66.0	3.8	7.46e-01	0	33	104	0	76	11196
2026-01-02 05:54:46.53	351.59	11.96	-56.2	-66.0	3.8	7.46e-01	0	33	104	0	76	11177
2026-01-02 05:54:47.53	351.41	11.87	-56.2	-66.0	3.8	7.45e-01	0	33	104	0	76	11167
2026-01-02 05:54:48.53	351.23	11.78	-56.2	-65.9	3.8	7.45e-01	0	33	104	0	76	11135
2026-01-02 05:54:49.53	351.05	11.69	-56.2	-66.0	3.8	7.45e-01	0	33	104	0	76	11163
2026-01-02 05:54:50.53	350.88	11.60	-56.3	-66.0	3.8	7.45e-01	0	33	104	0	76	11211
2026-01-02 05:54:51.53	350.70	11.51	-56.2	-66.0	3.8	7.43e-01	0	33	104	0	76	11208
2026-01-02 05:54:52.53	350.53	11.43	-56.3	-66.0	3.8	7.47e-01	0	33	104	0	76	11204
2026-01-02 05:54:53.53	350.36	11.34	-56.2	-65.9	3.8	7.46e-01	0	33	104	0	76	11146
2026-01-02 05:54:54.53	350.18	11.25	-56.2	-66.0	3.8	7.46e-01	0	33	104	0	76	11182
2026-01-02 05:54:55.54	350.01	11.16	-56.2	-66.0	3.8	7.47e-01	0	33	104	0	76	11163
2026-01-02 05:54:56.54	349.84	11.07	-56.2	-65.9	3.8	7.45e-01	0	33	104	0	76	11156
2026-01-02 05:54:57.54	349.68	10.99	-56.2	-66.0	3.8	7.46e-01	0	33	104	0	76	11221
2026-01-02 05:54:58.54	349.51	10.90	-56.3	-66.0	3.8	7.44e-01	0	33	104	0	76	11212
2026-01-02 05:54:59.54	349.35	10.81	-56.2	-66.0	3.8	7.45e-01	0	33	104	0	76	11176
2026-01-02 05:55:00.55	349.18	10.72	-56.2	-66.0	3.8	7.46e-01	0	33	104	0	76	11183
2026-01-02 05:55:01.54	349.02	10.64	-56.2	-66.0	3.8	7.45e-01	0	33	104	0	76	11212
2026-01-02 05:55:02.54	348.86	10.55	-56.2	-66.0	3.8	7.45e-01	0	33	104	0	76	11201
2026-01-02 05:55:03.54	348.70	10.46	-56.2	-66.0	3.8	7.45e-01	0	33	104	0	76	11191
2026-01-02 05:55:04.54	348.54	10.38	-56.2	-66.0	3.8	7.46e-01	0	33	104	0	76	11204
2026-01-02 05:55:05.54	348.38	10.29	-56.2	-66.0	3.8	7.46e-01	0	33	104	0	76	11189
2026-01-02 05:55:06.54	348.23	10.21	-56.2	-66.0	3.8	7.46e-01	0	33	104	0	76	11176
2026-01-02 05:55:07.54	348.07	10.12	-56.2	-65.9	3.8	7.46e-01	0	33	104	0	76	11112
2026-01-02 05:55:08.54	347.92	10.04	-56.2	-66.0	3.8	7.47e-01	0	33	104	0	76	11166
2026-01-02 05:55:09.54	347.77	9.95	-56.2	-65.9	3.8	7.46e-01	0	33	104	0	76	11153
2026-01-02 05:55:10.54	347.61	9.87	-56.2	-66.0	3.8	7.45e-01	0	33	104	0	76	11203
2026-01-02 05:55:11.53	347.46	9.78	-56.2	-65.9	3.8	7.47e-01	0	33	104	0	76	11144
2026-01-02 05:55:12.54	347.31	9.70	-56.2	-65.9	3.8	7.45e-01	0	33	104	0	76	11155
2026-01-02 05:55:13.54	347.16	9.61	-56.2	-66.0	3.8	7.47e-01	0	33	104	0	76	11196
2026-01-02 05:55:14.53	347.02	9.53	-56.2	-66.0	3.8	7.45e-01	0	33	104	0	76	11220
2026-01-02 05:55:15.53	346.87	9.45	-56.2	-66.0	3.8	7.46e-01	0	33	104	0	76	11170
2026-01-02 05:55:16.54	346.73	9.36	-56.2	-65.9	3.8	7.46e-01	0	33	104	0	76	11156
2026-01-02 05:55:17.53	346.58	9.28	-56.2	-66.0	3.8	7.46e-01	0	33	104	0	76	11179
2026-01-02 05:55:18.52	346.44	9.20	-56.2	-66.0	3.8	7.45e-01	0	33	104	0	76	11181
2026-01-02 05:55:19.52	346.30	9.12	-56.2	-65.9	3.8	7.47e-01	0	33	104	0	76	11157
2026-01-02 05:55:20.51	346.16	9.04	-56.2	-65.9	3.8	7.46e-01	0	33	104	0	76	11145
2026-01-02 05:55:21.51	346.02	8.95	-56.2	-66.0	3.8	7.45e-01	0	33	104	0	76	11185
2026-01-02 05:55:22.51	345.88	8.87	-56.2	-66.0	3.8	7.44e-01	0	33	104	0	76	11207
2026-01-02 05:55:23.51	345.74	8.79	-56.2	-65.9	3.8	7.46e-01	0	33	104	0	76	11157
2026-01-02 05:55:24.51	345.60	8.71	-56.2	-66.0	3.8	7.45e-01	0	33	104	0	76	11203
2026-01-02 05:55:25.51	345.47	8.63	-56.2	-66.0	3.8	7.47e-01	0	33	104	0	76	11176
2026-01-02 05:55:26.51	345.33	8.55	-56.2	-66.0	3.8	7.45e-01	0	33	104	0	76	11168
2026-01-02 05:55:27.50	345.20	8.47	-56.3	-66.0	3.8	7.46e-01	0	33	104	0	76	11161
2026-01-02 05:55:28.50	345.07	8.38	-56.2	-66.0	3.8	7.45e-01	0	33	104	0	76	11215
2026-01-02 05:55:29.50	344.93	8.30	-56.2	-66.0	3.8	7.45e-01	0	33	104	0	76	11210
2026-01-02 05:55:30.50	344.80	8.22	-56.2	-66.0	3.8	7.46e-01	0	33	104	0	76	11204
2026-01-02 05:55:31.51	344.67	8.14	-56.3	-66.0	3.8	7.45e-01	0	33	104	0	76	11178
2026-01-02 05:55:32.51	344.54	8.06	-56.2	-66.0	3.8	7.44e-01	0	33	104	0	76	11184
2026-01-02 05:55:33.51	344.41	7.98	-56.2	-66.0	3.8	7.47e-01	0	33	104	0	76	11216
2026-01-02 05:55:34.51	344.28	7.90	-56.3	-66.0	3.8	7.47e-01	0	33	104	0	76	11181
2026-01-02 05:55:35.50	344.16	7.83	-56.2	-65.9	3.8	7.45e-01	0	33	104	0	76	11151
2026-01-02 05:55:36.50	344.03	7.75	-56.2	-66.0	3.8	7.46e-01	0	33	104	0	76	11181
2026-01-02 05:55:37.51	343.91	7.67	-56.2	-65.9	3.8	7.45e-01	0	33	104	0	76	11156
2026-01-02 05:55:38.51	343.78	7.59	-56.2	-66.0	3.8	7.47e-01	0	33	104	0	76	11178
2026-01-02 05:55:39.51	343.66	7.51	-56.2	-66.0	3.8	7.43e-01	0	33	104	0	76	11161
2026-01-02 05:55:40.50	343.54	7.43	-56.2	-66.0	3.8	7.45e-01	0	33	104	0	76	11192
2026-01-02 05:55:41.51	343.41	7.35	-56.2	-66.0	3.8	7.46e-01	0	33	104	0	76	11161
2026-01-02 05:55:42.50	343.29	7.28	-56.2	-66.0	3.8	7.47e-01	0	33	104	0	76	11184
2026-01-02 05:55:43.50	343.17	7.20	-56.2	-66.0	3.8	7.46e-01	0	33	104	0	76	11171
2026-01-02 05:55:44.50	343.05	7.12	-56.2	-65.9	3.8	7.47e-01	0	33	104	0	76	11156
2026-01-02 05:55:45.50	342.94	7.05	-56.3	-66.0	3.8	7.45e-01	0	33	104	0	76	11190
2026-01-02 05:55:46.50	342.82	6.97	-56.3	-66.0	3.8	7.45e-01	0	33	104	0	76	11200
2026-01-02 05:55:47.49	342.70	6.89	-56.3	-66.0	3.8	7.44e-01	0	33	104	0	76	11190
2026-01-02 05:55:48.48	342.59	6.82	-56.3	-66.0	3.8	7.45e-01	0	33	104	0	76	11173
2026-01-02 05:55:49.48	342.47	6.74	-56.3	-66.0	3.8	7.46e-01	0	33	104	0	76	11185
2026-01-02 05:55:50.48	342.36	6.67	-56.2	-66.0	3.8	7.47e-01	0	33	104	0	76	11160
2026-01-02 05:55:51.48	342.24	6.59	-56.2	-66.0	3.8	7.44e-01	0	33	104	0	76	11162
2026-01-02 05:55:52.48	342.13	6.51	-56.2	-66.0	3.8	7.46e-01	0	33	104	0	76	11199
2026-01-02 05:55:53.49	342.02	6.44	-56.2	-66.0	3.8	7.44e-01	0	33	104	0	76	11239
2026-01-02 05:55:54.49	341.91	6.36	-56.2	-66.0	3.8	7.46e-01	0	33	104	0	76	11161
2026-01-02 05:55:55.49	341.80	6.29	-56.2	-66.0	3.8	7.46e-01	0	33	104	0	76	11169
2026-01-02 05:55:56.49	341.69	6.21	-56.2	-66.0	3.8	7.46e-01	0	33	104	0	76	11169
2026-01-02 05:55:57.49	341.58	6.14	-56.2	-66.0	3.8	7.46e-01	0	33	104	0	76	11202
2026-01-02 05:55:58.49	341.47	6.07	-56.2	-66.0	3.8	7.46e-01	0	33	104	0	76	11173
2026-01-02 05:55:59.49	341.36	5.99	-56.2	-66.0	3.8	7.46e-01	0	33	104	0	76	11202
2026-01-02 05:56:00.48	341.25	5.92	-56.3	-66.0	3.8	7.44e-01	0	33	104	0	76	11208
2026-01-02 05:56:01.48	341.15	5.84	-56.3	-66.0	3.8	7.44e-01	0	33	104	0	76	11216
2026-01-02 05:56:02.48	341.04	5.77	-56.2	-66.0	3.8	7.47e-01	0	33	104	0	76	11164
2026-01-02 05:56:03.47	340.94	5.70	-56.3	-66.0	3.8	7.46e-01	0	33	104	0	76	11182
2026-01-02 05:56:04.47	340.83	5.63	-56.2	-66.0	3.8	7.46e-01	0	33	104	0	76	11161
2026-01-02 05:56:05.47	340.73	5.55	-56.2	-66.0	3.8	7.44e-01	0	33	104	0	76	11180
2026-01-02 05:56:06.47	340.63	5.48	-56.3	-66.0	3.8	7.44e-01	0	33	104	0	76	11204
2026-01-02 05:56:07.47	340.52	5.41	-56.2	-66.0	3.8	7.44e-01	0	33	104	0	76	11202
2026-01-02 05:56:08.47	340.42	5.33	-56.3	-66.0	3.8	7.47e-01	0	33	104	0	76	11223
2026-01-02 05:56:09.47	340.32	5.26	-56.2	-66.0	3.8	7.46e-01	0	33	104	0	76	11164
2026-01-02 05:56:10.47	340.22	5.19	-56.3	-66.0	3.8	7.46e-01	0	33	104	0	76	11234
2026-01-02 05:56:11.47	340.12	5.12	-56.2	-66.0	3.8	7.45e-01	0	33	104	0	76	11196
2026-01-02 05:56:12.46	340.02	5.05	-56.3	-66.0	3.8	7.45e-01	0	33	104	0	76	11196
2026-01-02 05:56:13.46	339.93	4.98	-56.2	-66.0	3.8	7.45e-01	0	33	104	0	76	11170
2026-01-02 05:56:14.46	339.83	4.91	-56.3	-66.0	3.8	7.46e-01	0	33	104	0	76	11177
2026-01-02 05:56:15.46	339.73	4.83	-56.3	-66.0	3.8	7.44e-01	0	33	104	0	76	11158
2026-01-02 05:56:16.46	339.63	4.76	-56.2	-66.0	3.8	7.45e-01	0	33	104	0	76	11165
2026-01-02 05:56:17.46	339.54	4.69	-56.2	-66.0	3.8	7.44e-01	0	33	104	0	76	11188
2026-01-02 05:56:18.46	339.44	4.62	-56.2	-66.0	3.8	7.46e-01	0	33	104	0	76	11219
2026-01-02 05:56:19.45	339.35	4.55	-56.2	-66.0	3.8	7.44e-01	0	33	104	0	76	11226
2026-01-02 05:56:20.46	339.25	4.48	-56.3	-66.0	3.8	7.46e-01	0	33	104	0	76	11224
2026-01-02 05:56:21.46	339.16	4.41	-56.3	-66.0	3.8	7.44e-01	0	33	104	0	76	11186
2026-01-02 05:56:22.45	339.07	4.34	-56.2	-66.0	3.8	7.45e-01	0	33	104	0	76	11207
2026-01-02 05:56:23.45	338.98	4.27	-56.3	-66.0	3.8	7.46e-01	0	33	104	0	76	11213
2026-01-02 05:56:24.45	338.89	4.21	-56.3	-65.9	3.8	7.46e-01	0	33	104	0	76	11146
2026-01-02 05:56:25.45	338.79	4.14	-56.2	-66.0	3.8	7.45e-01	0	33	104	0	76	11207
2026-01-02 05:56:26.45	338.70	4.07	-56.3	-66.0	3.8	7.44e-01	0	33	104	0	76	11208
2026-01-02 05:56:27.45	338.61	4.00	-56.3	-66.0	3.8	7.45e-01	0	33	104	0	76	11199
2026-01-02 05:56:28.44	338.53	3.93	-56.2	-66.0	3.8	7.45e-01	0	33	104	0	76	11226
2026-01-02 05:56:29.45	338.44	3.86	-56.2	-66.0	3.8	7.47e-01	0	33	104	0	76	11191
2026-01-02 05:56:30.45	338.35	3.79	-56.2	-66.0	3.8	7.46e-01	0	33	104	0	76	11185
2026-01-02 05:56:31.44	338.26	3.73	-56.2	-66.0	3.8	7.45e-01	0	33	104	0	76	11181
2026-01-02 05:56:32.44	338.17	3.66	-56.3	-66.0	3.8	7.47e-01	0	33	104	0	76	11191
2026-01-02 05:56:33.44	338.09	3.59	-56.2	-66.0	3.8	7.44e-01	0	33	104	0	76	11205
2026-01-02 05:56:34.45	338.00	3.52	-56.2	-66.0	3.8	7.47e-01	0	33	104	0	76	11165
2026-01-02 05:56:35.45	337.91	3.45	-56.3	-66.0	3.8	7.44e-01	0	33	104	0	76	11198
2026-01-02 05:56:36.45	337.83	3.39	-56.2	-66.0	3.8	7.47e-01	0	33	104	0	76	11204
2026-01-02 05:56:37.45	337.74	3.32	-56.3	-66.0	3.8	7.47e-01	0	33	104	0	76	11192
2026-01-02 05:56:38.45	337.66	3.25	-56.3	-66.0	3.8	7.44e-01	0	33	104	0	76	11191
2026-01-02 05:56:39.44	337.58	3.19	-56.2	-66.0	3.8	7.47e-01	0	33	104	0	76	11202
2026-01-02 05:56:40.44	337.49	3.12	-56.2	-66.0	3.8	7.47e-01	0	33	104	0	76	11216
2026-01-02 05:56:41.45	337.41	3.05	-56.3	-66.0	3.8	7.46e-01	0	33	104	0	76	11175
2026-01-02 05:56:42.45	337.33	2.99	-56.3	-66.0	3.8	7.45e-01	0	33	104	0	76	11189
2026-01-02 05:56:43.44	337.25	2.92	-56.2	-66.0	3.8	7.47e-01	0	33	104	0	76	11212
2026-01-02 05:56:44.44	337.17	2.86	-56.2	-66.0	3.8	7.45e-01	0	33	104	0	76	11174
2026-01-02 05:56:45.44	337.09	2.79	-56.3	-66.0	3.8	7.45e-01	0	33	104	0	76	11189
2026-01-02 05:56:46.43	337.01	2.73	-56.2	-66.0	3.8	7.46e-01	0	33	104	0	76	11223
2026-01-02 05:56:47.43	336.93	2.66	-56.2	-66.0	3.8	7.46e-01	0	33	104	0	76	11163
2026-01-02 05:56:48.43	336.85	2.59	-56.2	-66.0	3.8	7.47e-01	0	33	104	0	76	11184
2026-01-02 05:56:49.43	336.77	2.53	-56.3	-66.0	3.8	7.48e-01	0	33	104	0	76	11189
2026-01-02 05:56:50.43	336.69	2.46	-56.2	-66.0	3.8	7.46e-01	0	33	104	0	76	11206
2026-01-02 05:56:51.43	336.61	2.40	-56.3	-66.0	3.8	7.45e-01	0	33	104	0	76	11196
2026-01-02 05:56:52.42	336.54	2.34	-56.3	-66.0	3.8	7.46e-01	0	33	104	0	76	11228
2026-01-02 05:56:53.43	336.46	2.27	-56.2	-66.0	3.8	7.47e-01	0	33	104	0	76	11199
2026-01-02 05:56:54.43	336.38	2.21	-56.2	-66.0	3.8	7.46e-01	0	33	104	0	76	11202
2026-01-02 05:56:55.43	336.31	2.14	-56.3	-66.0	3.8	7.44e-01	0	33	104	0	76	11194
2026-01-02 05:56:56.44	336.23	2.08	-56.3	-66.0	3.8	7.46e-01	0	33	104	0	76	11219
2026-01-02 05:56:57.44	336.16	2.01	-56.3	-66.0	3.8	7.46e-01	0	33	104	0	76	11225
2026-01-02 05:56:58.44	336.08	1.95	-56.3	-66.0	3.8	7.46e-01	0	33	104	0	76	11224
2026-01-02 05:56:59.43	336.01	1.89	-56.3	-66.0	3.8	7.46e-01	0	33	104	0	76	11209

#Closed at: 2026-01-02 05:57:00
#Recorded file [0 MB]: D:/lorett/data/31004_260102_084726.dat