passes_logs/2026/01/02/R3.2S_Murmansk/R3.2S_Murmansk__20260102_121536_NOAA_20_JPSS-1_rec.log

#Pass ID: 20260102_121536_NOAA 20 (JPSS-1)
#Satellite: NOAA 20 (JPSS-1)
#Configuration: NOAA 20
#almurnet v.1.7.20251203
#Start time: 2026-01-02 12:15:38

#Version: 2.2.20231116
#Station: R3.2S_Murmansk
#Location: 33.079688 lon 68.888172 lat
#TLE: 1 43013U 17073A   26001.09198674  .00000169  00000+0  10130-3 0  9995
#TLE: 2 43013  98.7621 302.1793 0001944  59.5293 300.6075 14.19531878420769

#Time	Az	El	Level	Level2	SNR	BER	BlckErr	Temp	State	Recorded	gain1	gain2
2026-01-02 12:15:38.05	221.79	2.09	-60.1	-75.8	3.8	1.49e+00	0	30	0	0	86	21858
2026-01-02 12:15:39.05	221.88	2.15	-60.1	-75.7	3.8	1.49e+00	0	30	104	0	85	22938
2026-01-02 12:15:40.05	221.96	2.20	-60.1	-75.7	3.8	1.49e+00	0	30	104	0	85	23035
2026-01-02 12:15:41.04	222.04	2.25	-60.1	-75.7	3.8	1.49e+00	0	30	104	0	85	22951
2026-01-02 12:15:42.04	222.12	2.30	-60.1	-75.7	3.8	1.49e+00	0	30	104	0	85	22918
2026-01-02 12:15:43.04	222.20	2.36	-60.1	-75.7	3.8	1.49e+00	0	30	104	0	85	22938
2026-01-02 12:15:44.04	222.28	2.41	-60.1	-75.7	3.8	1.49e+00	0	30	104	0	85	22932
2026-01-02 12:15:45.03	222.36	2.46	-60.1	-75.7	3.8	1.49e+00	0	30	104	0	85	23039
2026-01-02 12:15:46.03	222.44	2.51	-60.1	-75.7	3.8	1.49e+00	0	30	104	0	85	22987
2026-01-02 12:15:47.03	222.53	2.57	-60.1	-75.7	3.8	1.49e+00	0	31	104	0	85	22934
2026-01-02 12:15:48.02	222.61	2.62	-60.1	-75.7	3.8	1.49e+00	0	31	104	0	85	23011
2026-01-02 12:15:49.01	222.69	2.67	-60.1	-75.8	3.8	1.49e+00	0	31	104	0	85	23064
2026-01-02 12:15:50.01	222.78	2.72	-60.1	-75.7	3.8	1.49e+00	0	31	104	0	85	23004
2026-01-02 12:15:51.00	222.86	2.78	-60.1	-75.8	3.8	1.49e+00	0	31	104	0	85	23061
2026-01-02 12:15:51.99	222.94	2.83	-60.1	-75.8	3.8	1.49e+00	0	31	104	0	85	23133
2026-01-02 12:15:52.99	223.03	2.88	-60.1	-75.7	3.8	1.49e+00	0	31	104	0	85	23024
2026-01-02 12:15:53.98	223.11	2.94	-60.1	-75.7	3.8	1.49e+00	0	31	104	0	85	22913
2026-01-02 12:15:54.98	223.19	2.99	-60.1	-75.6	3.8	1.49e+00	0	31	104	0	85	22734
2026-01-02 12:15:55.98	223.28	3.04	-60.1	-75.6	3.8	1.49e+00	0	31	104	0	85	22703
2026-01-02 12:15:56.98	223.37	3.10	-60.1	-75.6	3.8	1.49e+00	0	31	104	0	85	22605
2026-01-02 12:15:57.98	223.45	3.15	-60.1	-75.6	3.8	1.49e+00	0	31	104	0	85	22649
2026-01-02 12:15:58.98	223.54	3.20	-60.1	-75.6	3.8	1.49e+00	0	31	104	0	85	22593
2026-01-02 12:15:59.98	223.62	3.26	-60.1	-75.7	3.8	1.49e+00	0	31	104	0	85	22811
2026-01-02 12:16:00.97	223.71	3.31	-60.1	-75.7	3.8	1.49e+00	0	31	104	0	85	22917
2026-01-02 12:16:01.98	223.80	3.36	-60.1	-75.7	3.8	1.49e+00	0	31	104	0	85	23020
2026-01-02 12:16:02.97	223.88	3.42	-60.1	-75.8	3.8	1.49e+00	0	31	104	0	85	23124
2026-01-02 12:16:03.98	223.97	3.47	-60.1	-75.8	3.8	1.49e+00	0	31	104	0	85	23106
2026-01-02 12:16:04.97	224.06	3.52	-60.1	-75.7	3.8	1.49e+00	0	31	104	0	85	22992
2026-01-02 12:16:05.97	224.15	3.58	-60.1	-75.7	3.8	1.49e+00	0	31	104	0	85	22812
2026-01-02 12:16:06.97	224.24	3.63	-60.1	-75.6	3.8	1.49e+00	0	31	104	0	85	22728
2026-01-02 12:16:07.97	224.33	3.68	-60.1	-75.5	3.8	1.49e+00	0	31	104	0	85	22482
2026-01-02 12:16:08.97	224.41	3.74	-60.1	-75.5	3.8	1.49e+00	0	31	104	0	85	22301
2026-01-02 12:16:09.97	224.50	3.79	-60.0	-75.5	3.8	1.49e+00	0	31	104	0	85	22265
2026-01-02 12:16:10.98	224.59	3.85	-60.1	-75.5	3.9	1.49e+00	0	31	104	0	85	22310
2026-01-02 12:16:11.97	224.68	3.90	-60.1	-75.5	3.8	1.49e+00	0	31	104	0	85	22402
2026-01-02 12:16:12.97	224.77	3.96	-60.1	-75.5	3.8	1.49e+00	0	31	104	0	85	22455
2026-01-02 12:16:13.96	224.86	4.01	-60.1	-75.4	3.8	1.49e+00	0	31	104	0	85	22232
2026-01-02 12:16:14.96	224.96	4.06	-60.1	-75.4	3.8	1.49e+00	0	31	104	0	85	22157
2026-01-02 12:16:15.96	225.05	4.12	-60.1	-75.2	3.8	1.49e+00	0	31	104	0	85	21732
2026-01-02 12:16:16.95	225.14	4.17	-60.1	-75.2	3.8	1.49e+00	0	31	104	0	85	21746
2026-01-02 12:16:17.95	225.23	4.23	-60.1	-75.4	3.8	1.49e+00	0	31	104	0	85	22115
2026-01-02 12:16:18.95	225.32	4.28	-60.1	-75.5	3.8	1.49e+00	0	31	104	0	85	22387
2026-01-02 12:16:19.95	225.41	4.33	-60.1	-75.7	3.8	1.49e+00	0	31	104	0	85	22886
2026-01-02 12:16:20.95	225.51	4.39	-60.1	-75.7	3.8	1.49e+00	0	31	104	0	85	22973
2026-01-02 12:16:21.95	225.60	4.44	-60.1	-75.3	3.8	1.49e+00	0	31	104	0	85	21912
2026-01-02 12:16:22.94	225.69	4.50	-60.1	-74.7	3.8	1.49e+00	0	31	104	0	85	20373
2026-01-02 12:16:23.94	225.79	4.55	-60.1	-74.1	3.8	1.49e+00	0	31	104	0	85	19078
2026-01-02 12:16:24.93	225.88	4.61	-60.0	-73.6	3.8	1.49e+00	0	31	104	0	85	17950
2026-01-02 12:16:25.94	225.98	4.66	-60.0	-73.8	3.8	1.49e+00	0	31	104	0	85	18314
2026-01-02 12:16:26.94	226.07	4.72	-60.0	-74.0	3.8	1.49e+00	0	31	104	0	85	18827
2026-01-02 12:16:27.94	226.17	4.77	-60.0	-74.2	3.8	1.49e+00	0	31	104	0	85	19337
2026-01-02 12:16:28.94	226.26	4.83	-60.0	-74.2	3.8	1.49e+00	0	31	104	0	85	19358
2026-01-02 12:16:29.94	226.36	4.88	-60.0	-73.5	3.9	1.49e+00	0	31	104	0	85	17722
2026-01-02 12:16:30.94	226.46	4.94	-59.9	-71.5	4.4	1.43e+00	86	31	0	0	85	14146
2026-01-02 12:16:31.94	226.55	4.99	-59.8	-70.0	5.1	8.96e-01	0	31	0	1048576	85	11820
2026-01-02 12:16:32.94	226.65	5.05	-59.6	-68.8	5.7	4.40e-01	0	31	0	3145728	85	10343
2026-01-02 12:16:33.94	226.75	5.10	-59.5	-67.5	6.7	2.32e-01	0	31	0	5242880	85	8882
2026-01-02 12:16:34.94	226.84	5.16	-60.1	-74.1	3.8	4.00e-01	0	31	104	6291456	85	19007
2026-01-02 12:16:35.94	226.94	5.21	-59.5	-67.7	6.6	2.18e-01	0	31	0	7340032	85	9114
2026-01-02 12:16:36.94	227.04	5.27	-60.0	-74.3	3.8	1.36e+00	0	31	104	7340032	85	19428
2026-01-02 12:16:37.93	227.14	5.32	-56.7	-59.5	13.0	1.41e+00	0	31	0	7340032	80	4756
2026-01-02 12:16:38.93	227.24	5.38	-56.6	-59.3	13.3	0.00e+00	0	31	0	8388608	79	4924
2026-01-02 12:16:39.93	227.34	5.43	-56.4	-59.0	13.5	0.00e+00	0	31	0	10485760	79	4727
2026-01-02 12:16:40.93	227.44	5.49	-56.5	-59.1	13.4	0.00e+00	0	31	0	12582912	79	4809
2026-01-02 12:16:41.93	227.54	5.54	-56.5	-59.1	13.5	0.00e+00	0	31	0	14680064	79	4765
2026-01-02 12:16:42.93	227.64	5.60	-56.4	-58.9	13.6	0.00e+00	0	31	0	16777216	79	4704
2026-01-02 12:16:43.92	227.74	5.66	-56.3	-58.8	13.7	0.00e+00	0	31	0	17825792	79	4629
2026-01-02 12:16:44.92	227.84	5.71	-56.3	-58.8	13.7	0.00e+00	0	31	0	19922944	79	4641
2026-01-02 12:16:45.91	227.94	5.77	-56.3	-58.8	13.7	0.00e+00	0	31	0	22020096	79	4614
2026-01-02 12:16:46.90	228.04	5.82	-56.3	-58.8	13.7	0.00e+00	0	31	0	24117248	79	4601
2026-01-02 12:16:47.89	228.14	5.88	-56.3	-58.7	13.7	0.00e+00	0	31	0	25165824	79	4590
2026-01-02 12:16:48.89	228.25	5.93	-56.3	-58.7	13.8	0.00e+00	0	31	0	27262976	79	4573
2026-01-02 12:16:49.89	228.35	5.99	-56.3	-58.7	13.7	0.00e+00	0	31	0	29360128	79	4570
2026-01-02 12:16:50.90	228.45	6.05	-56.3	-58.7	13.7	0.00e+00	0	31	0	31457280	79	4573
2026-01-02 12:16:51.90	228.56	6.10	-56.2	-58.6	13.8	0.00e+00	0	31	0	33554432	79	4519
2026-01-02 12:16:52.90	228.66	6.16	-56.2	-58.6	13.8	0.00e+00	0	31	0	34603008	78	4768
2026-01-02 12:16:53.90	228.77	6.21	-56.3	-58.6	13.8	0.00e+00	0	31	0	36700160	78	4809
2026-01-02 12:16:54.90	228.87	6.27	-56.2	-58.5	13.9	0.00e+00	0	31	0	38797312	78	4713
2026-01-02 12:16:55.90	228.98	6.33	-56.1	-58.3	14.0	0.00e+00	0	31	0	40894464	78	4627
2026-01-02 12:16:56.90	229.08	6.38	-56.1	-58.3	13.9	0.00e+00	0	31	0	42991616	78	4640
2026-01-02 12:16:57.90	229.19	6.44	-56.1	-58.3	13.9	0.00e+00	0	31	0	44040192	78	4650
2026-01-02 12:16:58.90	229.30	6.49	-56.1	-58.3	13.9	0.00e+00	0	31	0	46137344	78	4646
2026-01-02 12:16:59.90	229.40	6.55	-56.1	-58.4	13.9	0.00e+00	0	31	0	48234496	78	4657
2026-01-02 12:17:00.90	229.51	6.61	-56.1	-58.3	14.0	0.00e+00	0	31	0	50331648	78	4640
2026-01-02 12:17:01.90	229.62	6.66	-56.0	-58.2	14.0	0.00e+00	0	31	0	51380224	78	4594
2026-01-02 12:17:02.89	229.73	6.72	-56.1	-58.3	14.0	0.00e+00	0	31	0	53477376	78	4638
2026-01-02 12:17:03.88	229.83	6.78	-56.1	-58.3	14.0	0.00e+00	0	31	0	55574528	78	4646
2026-01-02 12:17:04.88	229.94	6.83	-56.0	-58.2	14.1	0.00e+00	0	31	0	57671680	78	4564
2026-01-02 12:17:05.88	230.05	6.89	-56.0	-58.3	14.0	0.00e+00	0	31	0	59768832	78	4607
2026-01-02 12:17:06.88	230.16	6.95	-56.1	-58.3	14.0	0.00e+00	0	31	0	60817408	78	4616
2026-01-02 12:17:07.87	230.27	7.00	-56.1	-58.4	13.9	0.00e+00	0	31	0	62914560	78	4675
2026-01-02 12:17:08.87	230.38	7.06	-55.9	-58.0	14.2	0.00e+00	0	31	0	65011712	78	4468
2026-01-02 12:17:09.87	230.49	7.12	-55.8	-57.9	14.2	0.00e+00	0	31	0	67108864	78	4433
2026-01-02 12:17:10.86	230.61	7.17	-55.8	-57.9	14.2	0.00e+00	0	31	0	68157440	78	4428
2026-01-02 12:17:11.85	230.72	7.23	-55.8	-57.9	14.2	0.00e+00	0	31	0	70254592	78	4439
2026-01-02 12:17:12.86	230.83	7.29	-55.8	-57.9	14.2	0.00e+00	0	31	0	72351744	78	4439
2026-01-02 12:17:13.85	230.94	7.34	-55.9	-58.0	14.2	0.00e+00	0	31	0	74448896	78	4460
2026-01-02 12:17:14.85	231.05	7.40	-55.8	-57.9	14.3	0.00e+00	0	31	0	76546048	78	4422
2026-01-02 12:17:15.84	231.17	7.45	-55.7	-57.8	14.3	0.00e+00	0	31	0	77594624	78	4349
2026-01-02 12:17:16.84	231.28	7.51	-55.8	-57.8	14.3	0.00e+00	0	31	0	79691776	78	4381
2026-01-02 12:17:17.83	231.39	7.57	-55.7	-57.8	14.3	0.00e+00	0	31	0	81788928	78	4352
2026-01-02 12:17:18.83	231.51	7.63	-55.8	-57.8	14.3	0.00e+00	0	31	0	83886080	78	4391
2026-01-02 12:17:19.83	231.62	7.68	-55.8	-57.9	14.3	0.00e+00	0	31	0	84934656	78	4392
2026-01-02 12:17:20.82	231.74	7.74	-55.8	-57.8	14.3	0.00e+00	0	31	0	87031808	78	4387
2026-01-02 12:17:21.82	231.86	7.80	-55.8	-57.8	14.3	0.00e+00	0	31	0	89128960	78	4363
2026-01-02 12:17:22.81	231.97	7.85	-55.8	-57.9	14.3	0.00e+00	0	31	0	91226112	78	4402
2026-01-02 12:17:23.81	232.09	7.91	-55.8	-57.9	14.3	0.00e+00	0	31	0	93323264	78	4393
2026-01-02 12:17:24.80	232.21	7.97	-55.7	-57.7	14.4	0.00e+00	0	31	0	94371840	78	4323
2026-01-02 12:17:25.81	232.32	8.02	-55.8	-57.8	14.4	0.00e+00	0	31	0	96468992	78	4351
2026-01-02 12:17:26.80	232.44	8.08	-55.7	-57.7	14.4	0.00e+00	0	31	0	98566144	78	4338
2026-01-02 12:17:27.80	232.56	8.14	-55.7	-57.6	14.4	0.00e+00	0	31	0	100663296	77	4545
2026-01-02 12:17:28.80	232.68	8.20	-55.6	-57.6	14.4	0.00e+00	0	31	0	102760448	77	4515
2026-01-02 12:17:29.79	232.80	8.25	-55.7	-57.6	14.4	0.00e+00	0	31	0	103809024	77	4538
2026-01-02 12:17:30.79	232.92	8.31	-55.6	-57.6	14.4	0.00e+00	0	31	0	105906176	77	4524
2026-01-02 12:17:31.78	233.04	8.37	-55.6	-57.6	14.4	0.00e+00	0	31	0	108003328	77	4531
2026-01-02 12:17:32.78	233.16	8.42	-55.6	-57.6	14.4	0.00e+00	0	31	0	110100480	77	4514
2026-01-02 12:17:33.78	233.28	8.48	-55.7	-57.7	14.4	0.00e+00	0	31	0	111149056	77	4549
2026-01-02 12:17:34.78	233.40	8.54	-55.6	-57.5	14.5	0.00e+00	0	31	0	113246208	77	4484
2026-01-02 12:17:35.78	233.53	8.60	-55.5	-57.4	14.5	0.00e+00	0	31	0	115343360	77	4392
2026-01-02 12:17:36.77	233.65	8.65	-55.4	-57.3	14.6	0.00e+00	0	31	0	117440512	77	4341
2026-01-02 12:17:37.77	233.77	8.71	-55.5	-57.4	14.6	0.00e+00	0	31	0	119537664	77	4398
2026-01-02 12:17:38.77	233.90	8.77	-55.5	-57.3	14.6	0.00e+00	0	31	0	120586240	77	4391
2026-01-02 12:17:39.77	234.02	8.83	-55.4	-57.2	14.7	0.00e+00	0	31	0	122683392	77	4305
2026-01-02 12:17:40.77	234.14	8.88	-55.4	-57.2	14.7	0.00e+00	0	31	0	124780544	77	4304
2026-01-02 12:17:41.76	234.27	8.94	-55.3	-57.1	14.7	0.00e+00	0	31	0	126877696	77	4288
2026-01-02 12:17:42.75	234.39	9.00	-55.3	-57.1	14.8	0.00e+00	0	31	0	128974848	77	4247
2026-01-02 12:17:43.75	234.52	9.06	-55.2	-57.0	14.8	0.00e+00	0	31	0	130023424	77	4210
2026-01-02 12:17:44.75	234.65	9.11	-55.2	-56.9	14.8	0.00e+00	0	31	0	132120576	76	4410
2026-01-02 12:17:45.74	234.77	9.17	-55.2	-57.0	14.8	0.00e+00	0	31	0	134217728	76	4452
2026-01-02 12:17:46.74	234.90	9.23	-55.2	-56.9	14.8	0.00e+00	0	31	0	136314880	76	4440
2026-01-02 12:17:47.75	235.03	9.29	-55.1	-56.8	14.8	0.00e+00	0	31	0	137363456	76	4372
2026-01-02 12:17:48.74	235.16	9.34	-55.2	-56.9	14.8	0.00e+00	0	31	0	139460608	76	4435
2026-01-02 12:17:49.73	235.28	9.40	-55.2	-56.9	14.8	0.00e+00	0	31	0	141557760	76	4436
2026-01-02 12:17:50.74	235.42	9.46	-55.1	-56.8	14.8	0.00e+00	0	31	0	143654912	76	4390
2026-01-02 12:17:51.73	235.54	9.52	-55.1	-56.8	14.9	0.00e+00	0	31	0	145752064	76	4383
2026-01-02 12:17:52.73	235.68	9.57	-55.1	-56.8	14.9	0.00e+00	0	31	0	146800640	76	4345
2026-01-02 12:17:53.73	235.81	9.63	-55.1	-56.9	14.8	0.00e+00	0	31	0	148897792	76	4392
2026-01-02 12:17:54.73	235.94	9.69	-55.0	-56.7	14.9	0.00e+00	0	31	0	150994944	76	4318
2026-01-02 12:17:55.73	236.07	9.75	-55.0	-56.7	14.9	0.00e+00	0	31	0	153092096	76	4335
2026-01-02 12:17:56.73	236.20	9.80	-55.0	-56.7	14.9	0.00e+00	0	31	0	154140672	76	4325
2026-01-02 12:17:57.73	236.34	9.86	-55.1	-56.8	14.9	0.00e+00	0	31	0	156237824	76	4342
2026-01-02 12:17:58.72	236.47	9.92	-55.1	-56.8	14.9	0.00e+00	0	31	0	158334976	76	4362
2026-01-02 12:17:59.72	236.60	9.98	-55.1	-56.9	14.8	0.00e+00	0	31	0	160432128	76	4400
2026-01-02 12:18:00.72	236.74	10.03	-55.3	-57.0	14.7	0.00e+00	0	32	0	162529280	76	4474
2026-01-02 12:18:01.73	236.87	10.09	-55.3	-57.0	14.8	0.00e+00	0	32	0	163577856	76	4490
2026-01-02 12:18:02.73	237.01	10.15	-55.2	-56.9	14.8	0.00e+00	0	31	0	165675008	76	4439
2026-01-02 12:18:03.73	237.15	10.21	-55.3	-57.1	14.7	0.00e+00	0	31	0	167772160	76	4499
2026-01-02 12:18:04.73	237.28	10.27	-55.3	-57.1	14.7	0.00e+00	0	31	0	169869312	76	4507
2026-01-02 12:18:05.73	237.42	10.32	-55.3	-57.0	14.8	0.00e+00	0	31	0	171966464	76	4492
2026-01-02 12:18:06.73	237.56	10.38	-55.3	-57.0	14.7	0.00e+00	0	31	0	173015040	76	4490
2026-01-02 12:18:07.73	237.70	10.44	-55.2	-57.0	14.8	0.00e+00	0	31	0	175112192	76	4456
2026-01-02 12:18:08.72	237.83	10.50	-55.2	-57.0	14.8	0.00e+00	0	31	0	177209344	76	4456
2026-01-02 12:18:09.72	237.97	10.55	-55.2	-57.0	14.8	0.00e+00	0	31	0	179306496	76	4456
2026-01-02 12:18:10.72	238.11	10.61	-55.1	-56.8	14.9	0.00e+00	0	31	0	181403648	76	4375
2026-01-02 12:18:11.72	238.25	10.67	-55.1	-56.8	14.9	0.00e+00	0	32	0	182452224	76	4356
2026-01-02 12:18:12.71	238.39	10.73	-55.2	-56.9	14.8	0.00e+00	0	31	0	184549376	76	4411
2026-01-02 12:18:13.72	238.54	10.78	-55.2	-56.9	14.8	0.00e+00	0	32	0	186646528	76	4438
2026-01-02 12:18:14.71	238.68	10.84	-55.2	-56.9	14.8	0.00e+00	0	31	0	188743680	76	4436
2026-01-02 12:18:15.71	238.82	10.90	-55.2	-56.9	14.8	0.00e+00	0	31	0	189792256	76	4435
2026-01-02 12:18:16.71	238.96	10.96	-55.3	-57.1	14.8	0.00e+00	0	31	0	191889408	76	4504
2026-01-02 12:18:17.70	239.11	11.01	-55.3	-57.0	14.8	0.00e+00	0	31	0	193986560	76	4481
2026-01-02 12:18:18.69	239.25	11.07	-55.2	-56.9	14.8	0.00e+00	0	31	0	196083712	76	4416
2026-01-02 12:18:19.68	239.39	11.13	-55.2	-56.9	14.8	0.00e+00	0	32	0	198180864	76	4432
2026-01-02 12:18:20.68	239.54	11.18	-55.2	-56.9	14.8	0.00e+00	0	32	0	199229440	76	4435
2026-01-02 12:18:21.67	239.68	11.24	-55.1	-56.8	14.9	0.00e+00	0	32	0	201326592	76	4372
2026-01-02 12:18:22.67	239.83	11.30	-55.0	-56.7	15.0	0.00e+00	0	31	0	203423744	76	4306
2026-01-02 12:18:23.66	239.97	11.36	-55.0	-56.6	15.0	0.00e+00	0	31	0	205520896	76	4275
2026-01-02 12:18:24.65	240.12	11.41	-54.9	-56.6	15.1	0.00e+00	0	32	0	206569472	76	4243
2026-01-02 12:18:25.64	240.27	11.47	-55.0	-56.7	15.0	0.00e+00	0	32	0	208666624	76	4305
2026-01-02 12:18:26.64	240.41	11.53	-55.0	-56.6	15.0	0.00e+00	0	31	0	210763776	76	4280
2026-01-02 12:18:27.64	240.56	11.58	-54.9	-56.5	15.1	0.00e+00	0	32	0	212860928	76	4211
2026-01-02 12:18:28.64	240.71	11.64	-54.9	-56.5	15.1	0.00e+00	0	32	0	214958080	76	4227
2026-01-02 12:18:29.63	240.86	11.70	-55.0	-56.6	15.1	0.00e+00	0	31	0	216006656	76	4254
2026-01-02 12:18:30.63	241.01	11.75	-54.9	-56.5	15.1	0.00e+00	0	31	0	218103808	76	4237
2026-01-02 12:18:31.63	241.16	11.81	-55.0	-56.6	15.0	0.00e+00	0	32	0	220200960	76	4255
2026-01-02 12:18:32.63	241.32	11.87	-54.9	-56.5	15.1	0.00e+00	0	32	0	222298112	76	4212
2026-01-02 12:18:33.63	241.47	11.92	-54.9	-56.5	15.1	0.00e+00	0	32	0	223346688	76	4223
2026-01-02 12:18:34.62	241.62	11.98	-54.9	-56.5	15.1	0.00e+00	0	31	0	225443840	76	4230
2026-01-02 12:18:35.63	241.78	12.04	-54.9	-56.5	15.1	0.00e+00	0	32	0	227540992	76	4218
2026-01-02 12:18:36.63	241.93	12.10	-54.9	-56.5	15.1	0.00e+00	0	31	0	229638144	76	4209
2026-01-02 12:18:37.62	242.08	12.15	-54.9	-56.4	15.1	0.00e+00	0	32	0	231735296	76	4187
2026-01-02 12:18:38.62	242.24	12.21	-54.9	-56.5	15.1	0.00e+00	0	32	0	232783872	76	4201
2026-01-02 12:18:39.62	242.40	12.26	-54.9	-56.4	15.1	0.00e+00	0	32	0	234881024	76	4193
2026-01-02 12:18:40.62	242.55	12.32	-54.9	-56.4	15.2	0.00e+00	0	32	0	236978176	76	4188
2026-01-02 12:18:41.62	242.71	12.38	-54.8	-56.3	15.2	0.00e+00	0	31	0	239075328	76	4137
2026-01-02 12:18:42.62	242.87	12.43	-54.9	-56.5	15.1	0.00e+00	0	32	0	241172480	76	4197
2026-01-02 12:18:43.63	243.03	12.49	-54.8	-56.4	15.2	0.00e+00	0	31	0	242221056	76	4146
2026-01-02 12:18:44.62	243.18	12.55	-54.7	-56.2	15.2	0.00e+00	0	31	0	244318208	76	4089
2026-01-02 12:18:45.62	243.34	12.60	-54.6	-56.1	15.2	0.00e+00	0	31	0	246415360	75	4261
2026-01-02 12:18:46.62	243.50	12.66	-54.6	-56.2	15.2	0.00e+00	0	32	0	248512512	75	4308
2026-01-02 12:18:47.62	243.66	12.72	-54.5	-56.0	15.2	0.00e+00	0	31	0	249561088	75	4236
2026-01-02 12:18:48.62	243.83	12.77	-54.6	-56.1	15.2	0.00e+00	0	31	0	251658240	75	4267
2026-01-02 12:18:49.62	243.99	12.83	-54.5	-56.0	15.2	0.00e+00	0	32	0	253755392	75	4217
2026-01-02 12:18:50.62	244.15	12.88	-54.5	-56.0	15.2	0.00e+00	0	31	0	255852544	75	4231
2026-01-02 12:18:51.62	244.31	12.94	-54.4	-55.9	15.3	0.00e+00	0	31	0	257949696	75	4168
2026-01-02 12:18:52.62	244.48	13.00	-54.4	-55.9	15.3	0.00e+00	0	31	0	258998272	75	4167
2026-01-02 12:18:53.63	244.64	13.05	-54.5	-56.0	15.3	0.00e+00	0	32	0	261095424	75	4212
2026-01-02 12:18:54.62	244.81	13.11	-54.5	-56.0	15.2	0.00e+00	0	32	0	263192576	75	4227
2026-01-02 12:18:55.62	244.97	13.16	-54.3	-55.8	15.3	0.00e+00	0	32	0	265289728	75	4125
2026-01-02 12:18:56.62	245.14	13.22	-54.4	-55.8	15.4	0.00e+00	0	32	0	267386880	75	4145
2026-01-02 12:18:57.61	245.30	13.27	-54.3	-55.7	15.4	0.00e+00	0	31	0	268435456	75	4069
2026-01-02 12:18:58.61	245.47	13.33	-54.1	-55.5	15.4	0.00e+00	0	31	0	270532608	74	4197
2026-01-02 12:18:59.61	245.64	13.38	-54.1	-55.5	15.4	0.00e+00	0	32	0	272629760	74	4212
2026-01-02 12:19:00.60	245.80	13.44	-54.1	-55.5	15.5	0.00e+00	0	32	0	274726912	74	4200
2026-01-02 12:19:01.61	245.97	13.49	-54.1	-55.4	15.5	0.00e+00	0	31	0	276824064	74	4188
2026-01-02 12:19:02.60	246.14	13.55	-54.2	-55.5	15.4	0.00e+00	0	32	0	277872640	74	4236
2026-01-02 12:19:03.60	246.31	13.60	-54.1	-55.4	15.5	0.00e+00	0	32	0	279969792	74	4184
2026-01-02 12:19:04.61	246.49	13.66	-54.0	-55.4	15.5	0.00e+00	0	31	0	282066944	74	4159
2026-01-02 12:19:05.60	246.66	13.71	-54.1	-55.5	15.4	0.00e+00	0	31	0	284164096	74	4212
2026-01-02 12:19:06.60	246.83	13.76	-54.1	-55.4	15.5	0.00e+00	0	31	0	285212672	74	4178
2026-01-02 12:19:07.60	247.00	13.82	-54.0	-55.4	15.5	0.00e+00	0	31	0	287309824	74	4159
2026-01-02 12:19:08.60	247.17	13.87	-53.9	-55.2	15.6	0.00e+00	0	31	0	289406976	74	4091
2026-01-02 12:19:09.60	247.35	13.93	-53.9	-55.2	15.6	0.00e+00	0	31	0	291504128	74	4092
2026-01-02 12:19:10.60	247.52	13.98	-53.8	-55.1	15.6	0.00e+00	0	32	0	293601280	74	4030
2026-01-02 12:19:11.59	247.70	14.03	-53.7	-55.0	15.7	0.00e+00	0	32	0	294649856	74	3985
2026-01-02 12:19:12.59	247.87	14.09	-53.8	-55.0	15.7	0.00e+00	0	32	0	296747008	74	3997
2026-01-02 12:19:13.59	248.05	14.14	-53.7	-55.0	15.6	0.00e+00	0	32	0	298844160	73	4196
2026-01-02 12:19:14.59	248.22	14.19	-53.7	-55.0	15.6	0.00e+00	0	31	0	300941312	73	4225
2026-01-02 12:19:15.58	248.40	14.25	-53.7	-55.0	15.6	0.00e+00	0	31	0	301989888	73	4210
2026-01-02 12:19:16.57	248.58	14.30	-53.7	-54.9	15.6	0.00e+00	0	31	0	304087040	73	4187
2026-01-02 12:19:17.56	248.75	14.35	-53.7	-55.0	15.6	0.00e+00	0	32	0	306184192	73	4230
2026-01-02 12:19:18.56	248.93	14.40	-53.9	-55.2	15.5	0.00e+00	0	32	0	308281344	73	4295
2026-01-02 12:19:19.55	249.11	14.46	-53.8	-55.1	15.6	0.00e+00	0	32	0	310378496	73	4243
2026-01-02 12:19:20.55	249.29	14.51	-53.7	-55.0	15.6	0.00e+00	0	32	0	311427072	73	4238
2026-01-02 12:19:21.55	249.47	14.56	-53.7	-55.0	15.6	0.00e+00	0	32	0	313524224	73	4223
2026-01-02 12:19:22.53	249.65	14.61	-53.7	-55.0	15.6	0.00e+00	0	32	0	315621376	73	4198
2026-01-02 12:19:23.53	249.83	14.66	-53.7	-55.0	15.6	0.00e+00	0	32	0	317718528	73	4204
2026-01-02 12:19:24.53	250.02	14.72	-53.7	-54.9	15.6	0.00e+00	0	32	0	318767104	73	4188
2026-01-02 12:19:25.53	250.20	14.77	-53.7	-55.0	15.6	0.00e+00	0	32	0	320864256	73	4221
2026-01-02 12:19:26.53	250.39	14.82	-53.7	-55.0	15.6	0.00e+00	0	31	0	322961408	73	4221
2026-01-02 12:19:27.52	250.57	14.87	-53.8	-55.1	15.6	0.00e+00	0	31	0	325058560	73	4284
2026-01-02 12:19:28.52	250.75	14.92	-53.9	-55.3	15.5	0.00e+00	0	32	0	327155712	73	4346
2026-01-02 12:19:29.52	250.94	14.97	-54.0	-55.3	15.5	0.00e+00	0	32	0	328204288	73	4384
2026-01-02 12:19:30.51	251.13	15.02	-54.0	-55.3	15.5	0.00e+00	0	32	0	330301440	73	4379
2026-01-02 12:19:31.50	251.31	15.07	-54.0	-55.4	15.4	0.00e+00	0	32	0	332398592	73	4415
2026-01-02 12:19:32.50	251.50	15.12	-54.0	-55.4	15.5	0.00e+00	0	32	0	334495744	73	4392
2026-01-02 12:19:33.49	251.69	15.17	-54.1	-55.4	15.5	0.00e+00	0	32	0	335544320	73	4419
2026-01-02 12:19:34.48	251.87	15.22	-54.1	-55.5	15.4	0.00e+00	0	32	0	337641472	73	4454
2026-01-02 12:19:35.47	252.06	15.27	-54.1	-55.5	15.4	0.00e+00	0	32	0	339738624	73	4474
2026-01-02 12:19:36.48	252.25	15.32	-54.1	-55.5	15.4	0.00e+00	0	31	0	341835776	73	4466
2026-01-02 12:19:37.48	252.44	15.37	-54.2	-55.5	15.4	0.00e+00	0	32	0	343932928	73	4491
2026-01-02 12:19:38.48	252.64	15.42	-54.2	-55.6	15.4	0.00e+00	0	32	0	344981504	73	4532
2026-01-02 12:19:39.48	252.83	15.47	-54.4	-55.8	15.3	0.00e+00	0	31	0	347078656	73	4623
2026-01-02 12:19:40.47	253.02	15.52	-54.4	-55.9	15.3	0.00e+00	0	31	0	349175808	74	4403
2026-01-02 12:19:41.47	253.21	15.57	-54.5	-56.0	15.3	0.00e+00	0	31	0	351272960	74	4451
2026-01-02 12:19:42.47	253.41	15.62	-54.5	-56.0	15.3	0.00e+00	0	32	0	353370112	74	4473
2026-01-02 12:19:43.48	253.60	15.67	-54.6	-56.0	15.3	0.00e+00	0	31	0	354418688	74	4490
2026-01-02 12:19:44.47	253.80	15.71	-54.5	-56.0	15.3	0.00e+00	0	31	0	356515840	74	4462
2026-01-02 12:19:45.47	253.99	15.76	-54.6	-56.1	15.2	0.00e+00	0	32	0	358612992	74	4512
2026-01-02 12:19:46.47	254.19	15.81	-54.7	-56.2	15.2	0.00e+00	0	32	0	360710144	74	4583
2026-01-02 12:19:47.47	254.39	15.86	-54.7	-56.2	15.2	0.00e+00	0	32	0	362807296	74	4585
2026-01-02 12:19:48.48	254.59	15.90	-54.7	-56.2	15.1	0.00e+00	0	32	0	363855872	74	4596
2026-01-02 12:19:49.48	254.79	15.95	-54.7	-56.2	15.2	0.00e+00	0	31	0	365953024	74	4586
2026-01-02 12:19:50.48	254.98	16.00	-54.8	-56.3	15.1	0.00e+00	0	32	0	368050176	74	4645
2026-01-02 12:19:51.48	255.18	16.04	-54.8	-56.3	15.1	0.00e+00	0	32	0	370147328	74	4625
2026-01-02 12:19:52.48	255.38	16.09	-54.8	-56.4	15.1	0.00e+00	0	32	0	371195904	74	4671
2026-01-02 12:19:53.48	255.59	16.14	-54.9	-56.5	15.0	0.00e+00	0	31	0	373293056	74	4721
2026-01-02 12:19:54.48	255.79	16.18	-54.9	-56.5	15.0	0.00e+00	0	31	0	375390208	75	4486
2026-01-02 12:19:55.48	255.99	16.23	-54.9	-56.5	15.1	0.00e+00	0	32	0	377487360	75	4477
2026-01-02 12:19:56.48	256.19	16.27	-55.0	-56.6	15.0	0.00e+00	0	31	0	379584512	75	4530
2026-01-02 12:19:57.47	256.39	16.32	-55.0	-56.6	15.0	0.00e+00	0	32	0	380633088	75	4541
2026-01-02 12:19:58.48	256.60	16.36	-55.1	-56.8	14.9	0.00e+00	0	32	0	382730240	75	4609
2026-01-02 12:19:59.48	256.80	16.41	-55.2	-56.9	14.9	0.00e+00	0	32	0	384827392	75	4672
2026-01-02 12:20:00.48	257.01	16.45	-55.3	-57.0	14.8	0.00e+00	0	32	0	386924544	75	4715
2026-01-02 12:20:01.48	257.21	16.50	-55.2	-56.9	14.9	0.00e+00	0	31	0	389021696	75	4658
2026-01-02 12:20:02.48	257.42	16.54	-55.3	-57.0	14.9	0.00e+00	0	32	0	390070272	75	4719
2026-01-02 12:20:03.48	257.63	16.58	-55.3	-57.0	14.9	0.00e+00	0	31	0	392167424	75	4752
2026-01-02 12:20:04.48	257.83	16.63	-55.5	-57.3	14.8	0.00e+00	0	32	0	394264576	76	4616
2026-01-02 12:20:05.48	258.04	16.67	-55.6	-57.4	14.7	0.00e+00	0	32	0	396361728	76	4688
2026-01-02 12:20:06.49	258.25	16.71	-55.7	-57.5	14.7	0.00e+00	0	31	0	397410304	76	4743
2026-01-02 12:20:07.47	258.46	16.75	-55.8	-57.7	14.6	0.00e+00	0	32	0	399507456	76	4816
2026-01-02 12:20:08.47	258.67	16.80	-55.7	-57.5	14.7	0.00e+00	0	32	0	401604608	76	4748
2026-01-02 12:20:09.47	258.88	16.84	-55.6	-57.4	14.7	0.00e+00	0	32	0	403701760	76	4673
2026-01-02 12:20:10.46	259.08	16.88	-55.5	-57.2	14.8	0.00e+00	0	32	0	405798912	76	4589
2026-01-02 12:20:11.46	259.30	16.92	-55.5	-57.2	14.8	0.00e+00	0	32	0	406847488	76	4598
2026-01-02 12:20:12.47	259.51	16.96	-55.4	-57.1	14.9	0.00e+00	0	32	0	408944640	76	4541
2026-01-02 12:20:13.46	259.72	17.00	-55.3	-56.9	15.0	0.00e+00	0	32	0	411041792	76	4418
2026-01-02 12:20:14.46	259.93	17.04	-55.2	-56.8	15.0	0.00e+00	0	32	0	413138944	76	4354
2026-01-02 12:20:15.46	260.15	17.08	-55.2	-56.8	15.0	0.00e+00	0	32	0	415236096	76	4375
2026-01-02 12:20:16.46	260.36	17.12	-55.2	-56.8	15.0	0.00e+00	0	32	0	416284672	76	4368
2026-01-02 12:20:17.45	260.57	17.16	-55.2	-56.8	15.0	0.00e+00	0	32	0	418381824	76	4374
2026-01-02 12:20:18.44	260.79	17.20	-55.2	-56.8	15.0	0.00e+00	0	31	0	420478976	76	4377
2026-01-02 12:20:19.43	261.00	17.24	-55.3	-56.9	15.0	0.00e+00	0	32	0	422576128	76	4426
2026-01-02 12:20:20.43	261.22	17.28	-55.2	-56.9	15.0	0.00e+00	0	32	0	423624704	76	4392
2026-01-02 12:20:21.43	261.43	17.31	-55.2	-56.9	15.0	0.00e+00	0	32	0	425721856	76	4401
2026-01-02 12:20:22.43	261.65	17.35	-55.2	-56.9	15.0	0.00e+00	0	32	0	427819008	76	4412
2026-01-02 12:20:23.42	261.86	17.39	-55.0	-56.6	15.1	0.00e+00	0	32	0	429916160	76	4260
2026-01-02 12:20:24.41	262.08	17.43	-54.9	-56.4	15.2	0.00e+00	0	32	0	432013312	76	4177
2026-01-02 12:20:25.41	262.30	17.46	-54.9	-56.4	15.2	0.00e+00	0	32	0	433061888	76	4155
2026-01-02 12:20:26.41	262.52	17.50	-54.8	-56.2	15.3	0.00e+00	0	32	0	435159040	76	4097
2026-01-02 12:20:27.39	262.73	17.53	-54.5	-55.9	15.4	0.00e+00	0	32	0	437256192	75	4176
2026-01-02 12:20:28.39	262.95	17.57	-54.5	-56.0	15.4	0.00e+00	0	32	0	439353344	75	4208
2026-01-02 12:20:29.39	263.18	17.60	-54.5	-56.0	15.3	0.00e+00	0	32	0	440401920	75	4214
2026-01-02 12:20:30.38	263.39	17.64	-54.5	-56.0	15.4	0.00e+00	0	32	0	442499072	75	4223
2026-01-02 12:20:31.38	263.62	17.67	-54.5	-56.0	15.4	0.00e+00	0	31	0	444596224	75	4213
2026-01-02 12:20:32.38	263.84	17.71	-54.5	-56.0	15.3	0.00e+00	0	32	0	446693376	75	4223
2026-01-02 12:20:33.39	264.06	17.74	-54.5	-56.0	15.4	0.00e+00	0	31	0	448790528	75	4211
2026-01-02 12:20:34.40	264.29	17.78	-54.6	-56.0	15.3	0.00e+00	0	32	0	449839104	75	4234
2026-01-02 12:20:35.39	264.51	17.81	-54.4	-55.9	15.4	0.00e+00	0	32	0	451936256	75	4164
2026-01-02 12:20:36.39	264.73	17.84	-54.5	-55.9	15.4	0.00e+00	0	31	0	454033408	75	4181
2026-01-02 12:20:37.39	264.96	17.87	-54.5	-55.9	15.4	0.00e+00	0	32	0	456130560	75	4173
2026-01-02 12:20:38.39	265.18	17.91	-54.5	-55.9	15.4	0.00e+00	0	32	0	458227712	75	4188
2026-01-02 12:20:39.38	265.41	17.94	-54.5	-55.9	15.4	0.00e+00	0	32	0	459276288	75	4168
2026-01-02 12:20:40.38	265.63	17.97	-54.6	-56.0	15.3	0.00e+00	0	32	0	461373440	75	4238
2026-01-02 12:20:41.38	265.86	18.00	-54.7	-56.2	15.3	0.00e+00	0	32	0	463470592	75	4295
2026-01-02 12:20:42.38	266.09	18.03	-54.7	-56.2	15.2	0.00e+00	0	32	0	465567744	75	4322
2026-01-02 12:20:43.38	266.31	18.06	-54.8	-56.3	15.2	0.00e+00	0	32	0	466616320	75	4376
2026-01-02 12:20:44.38	266.54	18.09	-54.8	-56.3	15.2	0.00e+00	0	32	0	468713472	75	4378
2026-01-02 12:20:45.38	266.77	18.12	-54.7	-56.2	15.2	0.00e+00	0	32	0	470810624	75	4337
2026-01-02 12:20:46.38	267.00	18.15	-54.8	-56.3	15.2	0.00e+00	0	32	0	472907776	75	4377
2026-01-02 12:20:47.38	267.23	18.17	-54.7	-56.2	15.2	0.00e+00	0	32	0	475004928	75	4327
2026-01-02 12:20:48.37	267.45	18.20	-54.7	-56.2	15.3	0.00e+00	0	32	0	476053504	75	4297
2026-01-02 12:20:49.37	267.68	18.23	-54.7	-56.2	15.3	0.00e+00	0	31	0	478150656	75	4312
2026-01-02 12:20:50.38	267.92	18.26	-54.7	-56.2	15.3	0.00e+00	0	32	0	480247808	75	4324
2026-01-02 12:20:51.37	268.14	18.28	-54.6	-56.1	15.3	0.00e+00	0	32	0	482344960	75	4244
2026-01-02 12:20:52.38	268.38	18.31	-54.6	-56.1	15.3	0.00e+00	0	32	0	484442112	75	4270
2026-01-02 12:20:53.38	268.61	18.34	-54.7	-56.2	15.3	0.00e+00	0	32	0	485490688	75	4298
2026-01-02 12:20:54.38	268.84	18.36	-54.6	-56.0	15.3	0.00e+00	0	32	0	487587840	75	4221
2026-01-02 12:20:55.38	269.07	18.39	-54.6	-56.1	15.3	0.00e+00	0	32	0	489684992	75	4256
2026-01-02 12:20:56.37	269.30	18.41	-54.7	-56.2	15.3	0.00e+00	0	32	0	491782144	75	4303
2026-01-02 12:20:57.36	269.53	18.44	-54.8	-56.3	15.2	0.00e+00	0	32	0	493879296	75	4363
2026-01-02 12:20:58.36	269.77	18.46	-54.8	-56.3	15.2	0.00e+00	0	32	0	494927872	75	4363
2026-01-02 12:20:59.36	270.00	18.48	-54.7	-56.3	15.2	0.00e+00	0	32	0	497025024	75	4341
2026-01-02 12:21:00.36	270.23	18.51	-54.7	-56.2	15.3	0.00e+00	0	32	0	499122176	75	4327
2026-01-02 12:21:01.36	270.47	18.53	-54.7	-56.2	15.3	0.00e+00	0	32	0	501219328	75	4317
2026-01-02 12:21:02.36	270.70	18.55	-54.7	-56.2	15.3	0.00e+00	0	32	0	502267904	75	4333
2026-01-02 12:21:03.35	270.94	18.57	-54.7	-56.1	15.3	0.00e+00	0	32	0	504365056	75	4289
2026-01-02 12:21:04.35	271.17	18.59	-54.7	-56.1	15.3	0.00e+00	0	32	0	506462208	75	4277
2026-01-02 12:21:05.35	271.41	18.61	-54.6	-56.1	15.3	0.00e+00	0	32	0	508559360	75	4263
2026-01-02 12:21:06.35	271.64	18.63	-54.7	-56.2	15.3	0.00e+00	0	32	0	510656512	75	4307
2026-01-02 12:21:07.35	271.88	18.65	-54.6	-56.1	15.3	0.00e+00	0	32	0	511705088	75	4277
2026-01-02 12:21:08.34	272.11	18.67	-54.7	-56.2	15.3	0.00e+00	0	32	0	513802240	75	4300
2026-01-02 12:21:09.34	272.35	18.69	-54.7	-56.1	15.3	0.00e+00	0	31	0	515899392	75	4290
2026-01-02 12:21:10.34	272.59	18.71	-54.7	-56.1	15.3	0.00e+00	0	31	0	517996544	75	4267
2026-01-02 12:21:11.33	272.82	18.73	-54.6	-56.0	15.4	0.00e+00	0	32	0	519045120	75	4210
2026-01-02 12:21:12.33	273.06	18.74	-54.6	-56.1	15.3	0.00e+00	0	32	0	521142272	75	4250
2026-01-02 12:21:13.33	273.30	18.76	-54.5	-56.0	15.4	0.00e+00	0	32	0	523239424	75	4209
2026-01-02 12:21:14.33	273.53	18.78	-54.6	-56.0	15.4	0.00e+00	0	32	0	525336576	75	4233
2026-01-02 12:21:15.33	273.77	18.79	-54.6	-56.0	15.4	0.00e+00	0	32	0	527433728	75	4228
2026-01-02 12:21:16.31	274.01	18.81	-54.7	-56.1	15.3	0.00e+00	0	32	0	528482304	75	4289
2026-01-02 12:21:17.31	274.24	18.82	-54.8	-56.2	15.3	0.00e+00	0	32	0	530579456	75	4340
2026-01-02 12:21:18.30	274.48	18.84	-54.9	-56.5	15.2	0.00e+00	0	32	0	532676608	75	4453
2026-01-02 12:21:19.29	274.72	18.85	-55.0	-56.6	15.1	0.00e+00	0	32	0	534773760	75	4500
2026-01-02 12:21:20.29	274.96	18.87	-55.1	-56.7	15.1	0.00e+00	0	32	0	535822336	75	4574
2026-01-02 12:21:21.29	275.20	18.88	-55.1	-56.7	15.1	0.00e+00	0	32	0	537919488	75	4583
2026-01-02 12:21:22.28	275.43	18.89	-55.1	-56.7	15.1	0.00e+00	0	32	0	540016640	75	4554
2026-01-02 12:21:23.28	275.67	18.90	-55.1	-56.7	15.1	0.00e+00	0	32	0	542113792	75	4566
2026-01-02 12:21:24.27	275.91	18.92	-55.1	-56.7	15.0	0.00e+00	0	32	0	544210944	75	4592
2026-01-02 12:21:25.26	276.15	18.93	-55.1	-56.7	15.0	0.00e+00	0	32	0	545259520	75	4594
2026-01-02 12:21:26.24	276.39	18.94	-55.1	-56.7	15.1	0.00e+00	0	32	0	547356672	75	4549
2026-01-02 12:21:27.23	276.62	18.95	-55.1	-56.6	15.1	0.00e+00	0	32	0	549453824	75	4532
2026-01-02 12:21:28.24	276.87	18.96	-55.0	-56.6	15.1	0.00e+00	0	32	0	551550976	75	4525
2026-01-02 12:21:29.24	277.11	18.97	-55.1	-56.7	15.1	0.00e+00	0	32	0	552599552	75	4573
2026-01-02 12:21:30.23	277.35	18.98	-55.2	-56.8	15.1	0.00e+00	0	32	0	554696704	75	4601
2026-01-02 12:21:31.23	277.59	18.98	-55.2	-56.9	15.0	0.00e+00	0	32	0	556793856	75	4671
2026-01-02 12:21:32.21	277.82	18.99	-55.4	-57.1	14.9	0.00e+00	0	32	0	558891008	76	4526
2026-01-02 12:21:33.22	278.07	19.00	-55.4	-57.0	15.0	0.00e+00	0	32	0	560988160	76	4468
2026-01-02 12:21:34.22	278.31	19.01	-55.3	-56.9	15.1	0.00e+00	0	32	0	562036736	76	4424
2026-01-02 12:21:35.21	278.55	19.01	-55.3	-56.9	15.1	0.00e+00	0	32	0	564133888	76	4399
2026-01-02 12:21:36.21	278.79	19.02	-55.2	-56.7	15.2	0.00e+00	0	32	0	566231040	76	4335
2026-01-02 12:21:37.21	279.03	19.02	-55.2	-56.7	15.2	0.00e+00	0	32	0	568328192	76	4325
2026-01-02 12:21:38.21	279.27	19.03	-55.2	-56.7	15.2	0.00e+00	0	32	0	570425344	76	4336
2026-01-02 12:21:39.21	279.52	19.03	-55.1	-56.6	15.2	0.00e+00	0	32	0	571473920	76	4284
2026-01-02 12:21:40.21	279.76	19.04	-55.1	-56.6	15.2	0.00e+00	0	32	0	573571072	76	4277
2026-01-02 12:21:41.20	280.00	19.04	-55.2	-56.7	15.2	0.00e+00	0	32	0	575668224	76	4328
2026-01-02 12:21:42.20	280.24	19.04	-55.3	-57.0	15.0	0.00e+00	0	32	0	577765376	76	4451
2026-01-02 12:21:43.20	280.48	19.04	-55.6	-57.3	14.9	0.00e+00	0	32	0	579862528	76	4623
2026-01-02 12:21:44.19	280.72	19.05	-55.6	-57.3	14.8	0.00e+00	0	32	0	580911104	76	4639
2026-01-02 12:21:45.19	280.96	19.05	-55.6	-57.3	14.9	0.00e+00	0	32	0	583008256	76	4621
2026-01-02 12:21:46.18	281.20	19.05	-55.6	-57.4	14.8	0.00e+00	0	32	0	585105408	76	4661
2026-01-02 12:21:47.19	281.45	19.05	-55.7	-57.5	14.8	0.00e+00	0	32	0	587202560	76	4726
2026-01-02 12:21:48.19	281.69	19.05	-55.5	-57.2	14.9	0.00e+00	0	32	0	588251136	76	4595
2026-01-02 12:21:49.19	281.93	19.05	-55.4	-57.1	15.0	0.00e+00	0	32	0	590348288	76	4513
2026-01-02 12:21:50.19	282.17	19.05	-55.5	-57.2	14.9	0.00e+00	0	32	0	592445440	76	4585
2026-01-02 12:21:51.19	282.42	19.05	-55.5	-57.2	14.9	0.00e+00	0	32	0	594542592	76	4586
2026-01-02 12:21:52.18	282.66	19.04	-55.6	-57.3	14.9	0.00e+00	0	32	0	596639744	76	4616
2026-01-02 12:21:53.18	282.90	19.04	-55.7	-57.5	14.8	0.00e+00	0	32	0	597688320	76	4718
2026-01-02 12:21:54.18	283.14	19.04	-55.6	-57.3	14.9	0.00e+00	0	32	0	599785472	76	4635
2026-01-02 12:21:55.19	283.38	19.04	-55.5	-57.2	14.9	0.00e+00	0	32	0	601882624	76	4596
2026-01-02 12:21:56.19	283.63	19.03	-55.6	-57.3	14.9	0.00e+00	0	32	0	603979776	76	4650
2026-01-02 12:21:57.19	283.87	19.03	-55.6	-57.3	14.9	0.00e+00	0	32	0	605028352	76	4644
2026-01-02 12:21:58.18	284.11	19.02	-55.4	-57.0	15.1	0.00e+00	0	32	0	607125504	76	4463
2026-01-02 12:21:59.18	284.35	19.02	-55.2	-56.8	15.2	0.00e+00	0	32	0	609222656	76	4373
2026-01-02 12:22:00.18	284.59	19.01	-55.1	-56.7	15.2	0.00e+00	0	32	0	611319808	76	4308
2026-01-02 12:22:01.18	284.83	19.00	-55.1	-56.6	15.3	0.00e+00	0	32	0	613416960	76	4289
2026-01-02 12:22:02.18	285.07	19.00	-55.1	-56.6	15.3	0.00e+00	0	32	0	614465536	76	4269
2026-01-02 12:22:03.18	285.31	18.99	-55.1	-56.6	15.2	0.00e+00	0	32	0	616562688	76	4264
2026-01-02 12:22:04.18	285.55	18.98	-55.1	-56.6	15.2	0.00e+00	0	32	0	618659840	76	4261
2026-01-02 12:22:05.18	285.80	18.97	-55.1	-56.7	15.2	0.00e+00	0	32	0	620756992	76	4300
2026-01-02 12:22:06.18	286.04	18.96	-55.2	-56.7	15.2	0.00e+00	0	31	0	622854144	76	4333
2026-01-02 12:22:07.18	286.28	18.95	-55.2	-56.7	15.2	0.00e+00	0	32	0	623902720	76	4323
2026-01-02 12:22:08.17	286.51	18.94	-55.2	-56.8	15.2	0.00e+00	0	32	0	625999872	76	4353
2026-01-02 12:22:09.17	286.76	18.93	-55.1	-56.7	15.2	0.00e+00	0	32	0	628097024	76	4296
2026-01-02 12:22:10.17	287.00	18.92	-55.1	-56.7	15.2	0.00e+00	0	32	0	630194176	76	4295
2026-01-02 12:22:11.17	287.24	18.91	-55.3	-56.8	15.1	0.00e+00	0	32	0	631242752	76	4384
2026-01-02 12:22:12.16	287.47	18.90	-55.2	-56.8	15.2	0.00e+00	0	32	0	633339904	76	4362
2026-01-02 12:22:13.16	287.71	18.89	-55.2	-56.8	15.2	0.00e+00	0	32	0	635437056	76	4371
2026-01-02 12:22:14.16	287.95	18.87	-55.3	-56.9	15.1	0.00e+00	0	32	0	637534208	76	4440
2026-01-02 12:22:15.16	288.19	18.86	-55.3	-56.9	15.1	0.00e+00	0	32	0	639631360	76	4427
2026-01-02 12:22:16.17	288.43	18.85	-55.4	-57.0	15.0	0.00e+00	0	32	0	640679936	76	4491
2026-01-02 12:22:17.17	288.67	18.83	-55.4	-57.0	15.1	0.00e+00	0	32	0	642777088	76	4451
2026-01-02 12:22:18.16	288.91	18.82	-55.3	-56.9	15.1	0.00e+00	0	32	0	644874240	76	4412
2026-01-02 12:22:19.16	289.15	18.80	-55.3	-56.9	15.1	0.00e+00	0	32	0	646971392	76	4413
2026-01-02 12:22:20.16	289.38	18.79	-55.3	-56.9	15.1	0.00e+00	0	32	0	649068544	76	4438
2026-01-02 12:22:21.16	289.62	18.77	-55.1	-56.6	15.3	0.00e+00	0	32	0	650117120	76	4275
2026-01-02 12:22:22.15	289.86	18.75	-55.0	-56.5	15.3	0.00e+00	0	32	0	652214272	76	4199
2026-01-02 12:22:23.16	290.10	18.74	-54.8	-56.2	15.5	0.00e+00	0	32	0	654311424	76	4078
2026-01-02 12:22:24.16	290.33	18.72	-54.8	-56.2	15.5	0.00e+00	0	32	0	656408576	76	4074
2026-01-02 12:22:25.16	290.57	18.70	-54.6	-56.0	15.5	0.00e+00	0	32	0	658505728	75	4225
2026-01-02 12:22:26.16	290.81	18.68	-54.6	-56.0	15.5	0.00e+00	0	32	0	659554304	75	4223
2026-01-02 12:22:27.15	291.04	18.66	-54.6	-56.0	15.5	0.00e+00	0	32	0	661651456	75	4207
2026-01-02 12:22:28.14	291.27	18.65	-54.6	-56.0	15.5	0.00e+00	0	32	0	663748608	75	4232
2026-01-02 12:22:29.13	291.51	18.63	-54.7	-56.2	15.4	0.00e+00	0	32	0	665845760	75	4312
2026-01-02 12:22:30.13	291.74	18.61	-54.8	-56.3	15.3	0.00e+00	0	32	0	666894336	75	4345
2026-01-02 12:22:31.13	291.98	18.58	-54.8	-56.3	15.3	0.00e+00	0	32	0	668991488	75	4370
2026-01-02 12:22:32.12	292.21	18.56	-54.9	-56.4	15.3	0.00e+00	0	32	0	671088640	75	4430
2026-01-02 12:22:33.12	292.44	18.54	-54.8	-56.3	15.3	0.00e+00	0	32	0	673185792	75	4360
2026-01-02 12:22:34.12	292.68	18.52	-54.8	-56.3	15.3	0.00e+00	0	32	0	675282944	75	4345
2026-01-02 12:22:35.13	292.91	18.50	-54.6	-56.1	15.4	0.00e+00	0	32	0	676331520	75	4244
2026-01-02 12:22:36.14	293.15	18.47	-54.6	-56.0	15.4	0.00e+00	0	32	0	678428672	75	4227
2026-01-02 12:22:37.13	293.38	18.45	-54.5	-55.8	15.5	0.00e+00	0	32	0	680525824	75	4132
2026-01-02 12:22:38.13	293.61	18.43	-54.4	-55.7	15.6	0.00e+00	0	32	0	682622976	75	4085
2026-01-02 12:22:39.12	293.84	18.40	-54.2	-55.5	15.6	0.00e+00	0	32	0	683671552	74	4202
2026-01-02 12:22:40.13	294.08	18.38	-54.1	-55.4	15.7	0.00e+00	0	32	0	685768704	74	4179
2026-01-02 12:22:41.13	294.31	18.35	-54.2	-55.4	15.6	0.00e+00	0	32	0	687865856	74	4193
2026-01-02 12:22:42.13	294.54	18.33	-54.2	-55.4	15.7	0.00e+00	0	32	0	689963008	74	4184
2026-01-02 12:22:43.13	294.77	18.30	-54.0	-55.3	15.7	0.00e+00	0	32	0	692060160	74	4121
2026-01-02 12:22:44.13	295.00	18.28	-53.9	-55.1	15.8	0.00e+00	0	32	0	693108736	74	4024
2026-01-02 12:22:45.13	295.23	18.25	-53.8	-55.0	15.8	0.00e+00	0	32	0	695205888	74	4001
2026-01-02 12:22:46.13	295.46	18.22	-53.9	-55.2	15.7	0.00e+00	0	32	0	697303040	74	4057
2026-01-02 12:22:47.12	295.69	18.19	-54.1	-55.3	15.7	0.00e+00	0	32	0	699400192	74	4141
2026-01-02 12:22:48.12	295.92	18.17	-54.1	-55.4	15.6	0.00e+00	0	32	0	701497344	74	4182
2026-01-02 12:22:49.12	296.14	18.14	-54.2	-55.6	15.6	0.00e+00	0	32	0	702545920	74	4251
2026-01-02 12:22:50.12	296.37	18.11	-54.3	-55.7	15.6	0.00e+00	0	32	0	704643072	74	4297
2026-01-02 12:22:51.12	296.60	18.08	-54.4	-55.8	15.5	0.00e+00	0	32	0	706740224	74	4352
2026-01-02 12:22:52.12	296.83	18.05	-54.4	-55.8	15.5	0.00e+00	0	32	0	708837376	74	4342
2026-01-02 12:22:53.13	297.06	18.02	-54.4	-55.7	15.6	0.00e+00	0	32	0	709885952	74	4324
2026-01-02 12:22:54.12	297.28	17.99	-54.3	-55.7	15.6	0.00e+00	0	32	0	711983104	74	4308
2026-01-02 12:22:55.13	297.51	17.96	-54.4	-55.7	15.5	0.00e+00	0	32	0	714080256	74	4333
2026-01-02 12:22:56.13	297.73	17.93	-54.4	-55.7	15.6	0.00e+00	0	32	0	716177408	74	4324
2026-01-02 12:22:57.12	297.96	17.90	-54.2	-55.6	15.6	0.00e+00	0	32	0	718274560	74	4255
2026-01-02 12:22:58.12	298.18	17.86	-54.1	-55.5	15.7	0.00e+00	0	32	0	719323136	74	4198
2026-01-02 12:22:59.13	298.41	17.83	-54.1	-55.4	15.7	0.00e+00	0	32	0	721420288	74	4165
2026-01-02 12:23:00.14	298.63	17.80	-54.0	-55.2	15.7	0.00e+00	0	32	0	723517440	74	4097
2026-01-02 12:23:01.14	298.85	17.77	-53.6	-54.8	15.8	0.00e+00	0	32	0	725614592	73	4117
2026-01-02 12:23:02.14	299.08	17.73	-53.4	-54.6	15.9	0.00e+00	0	32	0	727711744	73	4016
2026-01-02 12:23:03.14	299.30	17.70	-53.4	-54.5	16.0	0.00e+00	0	32	0	728760320	73	4000
2026-01-02 12:23:04.14	299.52	17.66	-53.3	-54.5	16.0	0.00e+00	0	32	0	730857472	73	3963
2026-01-02 12:23:05.14	299.74	17.63	-53.3	-54.5	16.0	0.00e+00	0	32	0	732954624	73	3964
2026-01-02 12:23:06.14	299.96	17.59	-53.4	-54.5	15.9	0.00e+00	0	32	0	735051776	73	4003
2026-01-02 12:23:07.13	300.18	17.56	-53.5	-54.6	15.9	0.00e+00	0	32	0	737148928	73	4044
2026-01-02 12:23:08.14	300.40	17.52	-53.6	-54.7	15.9	0.00e+00	0	32	0	738197504	73	4092
2026-01-02 12:23:09.14	300.62	17.49	-53.5	-54.7	15.9	0.00e+00	0	32	0	740294656	73	4072
2026-01-02 12:23:10.14	300.84	17.45	-53.6	-54.8	15.9	0.00e+00	0	32	0	742391808	73	4109
2026-01-02 12:23:11.15	301.06	17.41	-53.6	-54.8	15.9	0.00e+00	0	32	0	744488960	73	4108
2026-01-02 12:23:12.15	301.28	17.38	-53.5	-54.7	15.9	0.00e+00	0	32	0	746586112	73	4084
2026-01-02 12:23:13.14	301.49	17.34	-53.5	-54.6	15.9	0.00e+00	0	32	0	747634688	73	4037
2026-01-02 12:23:14.14	301.71	17.30	-53.5	-54.6	15.9	0.00e+00	0	32	0	749731840	73	4049
2026-01-02 12:23:15.14	301.92	17.26	-53.5	-54.6	15.9	0.00e+00	0	32	0	751828992	73	4043
2026-01-02 12:23:16.14	302.14	17.23	-53.3	-54.5	15.9	0.00e+00	0	32	0	753926144	73	3976
2026-01-02 12:23:17.15	302.35	17.19	-53.3	-54.4	15.9	0.00e+00	0	32	0	754974720	73	3941
2026-01-02 12:23:18.15	302.57	17.15	-53.2	-54.3	16.0	0.00e+00	0	32	0	757071872	72	4117
2026-01-02 12:23:19.14	302.78	17.11	-53.1	-54.2	16.0	0.00e+00	0	32	0	759169024	72	4053
2026-01-02 12:23:20.14	302.99	17.07	-52.9	-54.0	16.1	0.00e+00	0	32	0	761266176	72	3974
2026-01-02 12:23:21.14	303.21	17.03	-53.0	-54.0	16.1	0.00e+00	0	32	0	763363328	72	3995
2026-01-02 12:23:22.13	303.42	16.99	-53.0	-54.1	16.1	0.00e+00	0	32	0	764411904	72	4020
2026-01-02 12:23:23.13	303.63	16.95	-53.1	-54.2	16.0	0.00e+00	0	32	0	766509056	72	4088
2026-01-02 12:23:24.13	303.84	16.91	-53.2	-54.3	15.9	0.00e+00	0	32	0	768606208	72	4145
2026-01-02 12:23:25.13	304.05	16.87	-53.4	-54.5	15.9	0.00e+00	0	32	0	770703360	72	4234
2026-01-02 12:23:26.15	304.26	16.83	-53.5	-54.7	15.8	0.00e+00	0	32	0	771751936	72	4300
2026-01-02 12:23:27.15	304.47	16.78	-53.5	-54.7	15.8	0.00e+00	0	32	0	773849088	72	4312
2026-01-02 12:23:28.15	304.68	16.74	-53.5	-54.8	15.8	0.00e+00	0	32	0	775946240	72	4342
2026-01-02 12:23:29.15	304.89	16.70	-53.5	-54.7	15.8	0.00e+00	0	32	0	778043392	72	4325
2026-01-02 12:23:30.15	305.10	16.66	-53.6	-54.8	15.8	0.00e+00	0	32	0	780140544	72	4376
2026-01-02 12:23:31.14	305.30	16.61	-53.6	-54.8	15.7	0.00e+00	0	32	0	781189120	72	4378
2026-01-02 12:23:32.14	305.51	16.57	-53.6	-54.8	15.8	0.00e+00	0	32	0	783286272	72	4365
2026-01-02 12:23:33.14	305.71	16.53	-53.6	-54.8	15.8	0.00e+00	0	32	0	785383424	72	4379
2026-01-02 12:23:34.14	305.92	16.48	-53.5	-54.7	15.8	0.00e+00	0	32	0	787480576	72	4328
2026-01-02 12:23:35.14	306.12	16.44	-53.5	-54.7	15.8	0.00e+00	0	32	0	789577728	72	4294
2026-01-02 12:23:36.14	306.33	16.40	-53.6	-54.8	15.8	0.00e+00	0	32	0	790626304	72	4351
2026-01-02 12:23:37.14	306.53	16.35	-53.5	-54.6	15.8	0.00e+00	0	32	0	792723456	72	4277
2026-01-02 12:23:38.14	306.73	16.31	-53.5	-54.7	15.8	0.00e+00	0	32	0	794820608	72	4316
2026-01-02 12:23:39.13	306.93	16.26	-53.7	-54.9	15.7	0.00e+00	0	32	0	796917760	72	4430
2026-01-02 12:23:40.13	307.13	16.22	-53.9	-55.2	15.6	0.00e+00	0	32	0	799014912	72	4552
2026-01-02 12:23:41.12	307.33	16.17	-54.1	-55.5	15.6	0.00e+00	0	32	0	800063488	73	4442
2026-01-02 12:23:42.13	307.54	16.13	-54.3	-55.7	15.5	0.00e+00	0	32	0	802160640	73	4574
2026-01-02 12:23:43.12	307.73	16.08	-54.6	-56.0	15.4	0.00e+00	0	32	0	804257792	74	4480
2026-01-02 12:23:44.12	307.93	16.04	-54.7	-56.1	15.3	0.00e+00	0	32	0	806354944	74	4545
2026-01-02 12:23:45.11	308.13	15.99	-54.8	-56.3	15.3	0.00e+00	0	32	0	807403520	74	4626
2026-01-02 12:23:46.11	308.33	15.94	-54.9	-56.4	15.3	0.00e+00	0	32	0	809500672	75	4414
2026-01-02 12:23:47.11	308.53	15.90	-55.0	-56.5	15.2	0.00e+00	0	32	0	811597824	75	4475
2026-01-02 12:23:48.11	308.72	15.85	-55.0	-56.6	15.2	0.00e+00	0	32	0	813694976	75	4505
2026-01-02 12:23:49.11	308.92	15.80	-55.0	-56.5	15.2	0.00e+00	0	32	0	815792128	75	4478
2026-01-02 12:23:50.11	309.11	15.75	-55.0	-56.6	15.2	0.00e+00	0	32	0	816840704	75	4526
2026-01-02 12:23:51.11	309.31	15.71	-55.1	-56.6	15.1	0.00e+00	0	32	0	818937856	75	4545
2026-01-02 12:23:52.10	309.50	15.66	-55.1	-56.6	15.2	0.00e+00	0	32	0	821035008	75	4539
2026-01-02 12:23:53.10	309.70	15.61	-54.9	-56.5	15.2	0.00e+00	0	32	0	823132160	75	4451
2026-01-02 12:23:54.10	309.89	15.56	-54.9	-56.5	15.3	0.00e+00	0	32	0	824180736	75	4454
2026-01-02 12:23:55.10	310.08	15.51	-54.7	-56.2	15.4	0.00e+00	0	32	0	826277888	75	4307
2026-01-02 12:23:56.10	310.27	15.46	-54.5	-55.9	15.5	0.00e+00	0	32	0	828375040	75	4193
2026-01-02 12:23:57.11	310.47	15.42	-54.5	-55.9	15.5	0.00e+00	0	32	0	830472192	75	4191
2026-01-02 12:23:58.11	310.66	15.37	-54.5	-56.0	15.4	0.00e+00	0	32	0	832569344	75	4207
2026-01-02 12:23:59.10	310.85	15.32	-54.6	-56.1	15.4	0.00e+00	0	32	0	833617920	75	4272
2026-01-02 12:24:00.09	311.03	15.27	-54.8	-56.2	15.3	0.00e+00	0	32	0	835715072	75	4336
2026-01-02 12:24:01.09	311.22	15.22	-54.9	-56.5	15.2	0.00e+00	0	32	0	837812224	75	4469
2026-01-02 12:24:02.09	311.41	15.17	-55.1	-56.7	15.1	0.00e+00	0	32	0	839909376	75	4589
2026-01-02 12:24:03.09	311.60	15.12	-55.2	-56.9	15.0	0.00e+00	0	32	0	842006528	75	4653
2026-01-02 12:24:04.09	311.79	15.07	-55.3	-57.0	15.0	0.00e+00	0	32	0	843055104	75	4732
2026-01-02 12:24:05.10	311.97	15.02	-55.4	-57.1	14.9	0.00e+00	0	32	0	845152256	75	4768
2026-01-02 12:24:06.10	312.16	14.97	-55.3	-57.0	15.0	0.00e+00	0	32	0	847249408	75	4707
2026-01-02 12:24:07.10	312.34	14.92	-55.3	-57.0	15.0	0.00e+00	0	32	0	849346560	75	4709
2026-01-02 12:24:08.10	312.53	14.86	-55.2	-56.9	15.0	0.00e+00	0	32	0	851443712	75	4680
2026-01-02 12:24:09.10	312.71	14.81	-55.3	-57.0	15.0	0.00e+00	0	32	0	852492288	75	4732
2026-01-02 12:24:10.09	312.89	14.76	-55.5	-57.2	14.9	0.00e+00	0	32	0	854589440	76	4572
2026-01-02 12:24:11.09	313.08	14.71	-55.4	-57.1	15.0	0.00e+00	0	32	0	856686592	76	4497
2026-01-02 12:24:12.09	313.26	14.66	-55.3	-57.0	15.0	0.00e+00	0	32	0	858783744	76	4481
2026-01-02 12:24:13.09	313.44	14.61	-55.4	-57.1	15.0	0.00e+00	0	32	0	859832320	76	4511
2026-01-02 12:24:14.09	313.62	14.56	-55.3	-56.9	15.1	0.00e+00	0	32	0	861929472	76	4411
2026-01-02 12:24:15.09	313.80	14.50	-55.2	-56.8	15.1	0.00e+00	0	32	0	864026624	76	4353
2026-01-02 12:24:16.09	313.98	14.45	-55.2	-56.9	15.1	0.00e+00	0	32	0	866123776	76	4412
2026-01-02 12:24:17.09	314.16	14.40	-55.2	-56.8	15.1	0.00e+00	0	32	0	868220928	76	4391
2026-01-02 12:24:18.08	314.34	14.35	-55.2	-56.9	15.1	0.00e+00	0	32	0	869269504	76	4396
2026-01-02 12:24:19.08	314.52	14.30	-55.2	-56.9	15.0	0.00e+00	0	32	0	871366656	76	4395
2026-01-02 12:24:20.08	314.69	14.24	-55.3	-57.0	15.0	0.00e+00	0	32	0	873463808	76	4453
2026-01-02 12:24:21.07	314.87	14.19	-55.2	-56.9	15.1	0.00e+00	0	32	0	875560960	76	4418
2026-01-02 12:24:22.06	315.04	14.14	-55.1	-56.8	15.1	0.00e+00	0	32	0	876609536	76	4344
2026-01-02 12:24:23.07	315.22	14.08	-54.9	-56.5	15.3	0.00e+00	0	32	0	878706688	76	4210
2026-01-02 12:24:24.07	315.39	14.03	-54.6	-56.1	15.3	0.00e+00	0	32	0	880803840	75	4246
2026-01-02 12:24:25.07	315.57	13.98	-54.4	-55.8	15.5	0.00e+00	0	32	0	882900992	75	4123
2026-01-02 12:24:26.06	315.74	13.92	-54.4	-55.8	15.5	0.00e+00	0	32	0	884998144	75	4125
2026-01-02 12:24:27.05	315.91	13.87	-54.3	-55.7	15.5	0.00e+00	0	32	0	886046720	75	4085
2026-01-02 12:24:28.06	316.09	13.82	-54.3	-55.7	15.5	0.00e+00	0	32	0	888143872	75	4068
2026-01-02 12:24:29.05	316.26	13.76	-54.4	-55.8	15.5	0.00e+00	0	32	0	890241024	75	4108
2026-01-02 12:24:30.05	316.43	13.71	-54.4	-55.8	15.5	0.00e+00	0	32	0	892338176	75	4115
2026-01-02 12:24:31.04	316.60	13.66	-54.4	-55.9	15.4	0.00e+00	0	32	0	894435328	75	4154
2026-01-02 12:24:32.04	316.77	13.60	-54.5	-55.9	15.4	0.00e+00	0	32	0	895483904	75	4183
2026-01-02 12:24:33.03	316.93	13.55	-54.5	-55.9	15.4	0.00e+00	0	32	0	897581056	75	4174
2026-01-02 12:24:34.03	317.10	13.49	-54.6	-56.1	15.3	0.00e+00	0	32	0	899678208	75	4280
2026-01-02 12:24:35.02	317.27	13.44	-54.8	-56.3	15.3	0.00e+00	0	32	0	901775360	75	4390
2026-01-02 12:24:36.02	317.44	13.38	-54.9	-56.5	15.2	0.00e+00	0	32	0	902823936	75	4478
2026-01-02 12:24:37.02	317.60	13.33	-55.2	-56.9	14.9	0.00e+00	0	32	0	904921088	75	4691
2026-01-02 12:24:38.03	317.77	13.27	-55.3	-57.1	14.9	0.00e+00	0	32	0	907018240	75	4779
2026-01-02 12:24:39.02	317.94	13.22	-55.5	-57.3	14.8	0.00e+00	0	32	0	909115392	76	4625
2026-01-02 12:24:40.02	318.10	13.17	-55.6	-57.4	14.8	0.00e+00	0	32	0	911212544	76	4690
2026-01-02 12:24:41.02	318.27	13.11	-55.5	-57.3	14.8	0.00e+00	0	32	0	912261120	76	4625
2026-01-02 12:24:42.02	318.43	13.06	-55.3	-57.0	15.0	0.00e+00	0	32	0	914358272	76	4451
2026-01-02 12:24:43.02	318.59	13.00	-55.0	-56.6	15.2	0.00e+00	0	32	0	916455424	76	4256
2026-01-02 12:24:44.02	318.76	12.94	-54.9	-56.5	15.2	0.00e+00	0	32	0	918552576	76	4220
2026-01-02 12:24:45.03	318.92	12.89	-54.5	-56.0	15.3	0.00e+00	0	32	0	920649728	75	4241
2026-01-02 12:24:46.03	319.08	12.83	-54.2	-55.7	15.5	0.00e+00	0	32	0	921698304	75	4052
2026-01-02 12:24:47.03	319.24	12.78	-54.0	-55.3	15.6	0.00e+00	0	32	0	923795456	74	4139
2026-01-02 12:24:48.03	319.40	12.72	-54.0	-55.4	15.6	0.00e+00	0	32	0	925892608	74	4149
2026-01-02 12:24:49.02	319.56	12.67	-54.1	-55.5	15.6	0.00e+00	0	32	0	927989760	74	4204
2026-01-02 12:24:50.02	319.72	12.61	-54.2	-55.6	15.5	0.00e+00	0	32	0	930086912	74	4287
2026-01-02 12:24:51.02	319.88	12.56	-54.3	-55.8	15.4	0.00e+00	0	32	0	931135488	74	4343
2026-01-02 12:24:52.03	320.04	12.50	-54.4	-55.9	15.4	0.00e+00	0	32	0	933232640	74	4402
2026-01-02 12:24:53.03	320.20	12.44	-54.5	-55.9	15.4	0.00e+00	0	32	0	935329792	74	4436
2026-01-02 12:24:54.03	320.35	12.39	-54.3	-55.8	15.4	0.00e+00	0	32	0	937426944	74	4354
2026-01-02 12:24:55.04	320.51	12.33	-54.3	-55.8	15.4	0.00e+00	0	32	0	938475520	74	4345
2026-01-02 12:24:56.04	320.67	12.27	-54.3	-55.8	15.4	0.00e+00	0	32	0	940572672	74	4346
2026-01-02 12:24:57.03	320.82	12.22	-54.2	-55.6	15.5	0.00e+00	0	32	0	942669824	74	4288
2026-01-02 12:24:58.04	320.98	12.16	-54.2	-55.6	15.5	0.00e+00	0	32	0	944766976	74	4262
2026-01-02 12:24:59.04	321.13	12.10	-54.3	-55.8	15.4	0.00e+00	0	32	0	946864128	74	4355
2026-01-02 12:25:00.03	321.28	12.05	-54.4	-55.9	15.3	0.00e+00	0	32	0	947912704	74	4402
2026-01-02 12:25:01.02	321.43	11.99	-54.4	-55.9	15.3	0.00e+00	0	32	0	950009856	74	4415
2026-01-02 12:25:02.01	321.58	11.94	-54.5	-56.0	15.3	0.00e+00	0	32	0	952107008	74	4464
2026-01-02 12:25:03.01	321.74	11.88	-54.5	-56.0	15.3	0.00e+00	0	32	0	954204160	74	4483
2026-01-02 12:25:04.00	321.89	11.82	-54.5	-56.0	15.3	0.00e+00	0	32	0	955252736	74	4481
2026-01-02 12:25:05.00	322.04	11.77	-54.5	-56.0	15.3	0.00e+00	0	32	0	957349888	74	4460
2026-01-02 12:25:05.99	322.19	11.71	-54.3	-55.7	15.4	0.00e+00	0	32	0	959447040	74	4336
2026-01-02 12:25:06.98	322.33	11.66	-54.1	-55.5	15.5	0.00e+00	0	32	0	961544192	74	4203
2026-01-02 12:25:07.97	322.48	11.60	-54.0	-55.3	15.6	0.00e+00	0	32	0	963641344	74	4133
2026-01-02 12:25:08.97	322.63	11.54	-53.9	-55.3	15.6	0.00e+00	0	32	0	964689920	74	4103
2026-01-02 12:25:09.97	322.78	11.49	-54.0	-55.3	15.6	0.00e+00	0	32	0	966787072	74	4142
2026-01-02 12:25:10.97	322.92	11.43	-53.9	-55.2	15.6	0.00e+00	0	32	0	968884224	74	4073
2026-01-02 12:25:11.96	323.07	11.37	-54.0	-55.3	15.6	0.00e+00	0	32	0	970981376	74	4143
2026-01-02 12:25:12.97	323.22	11.32	-54.1	-55.5	15.5	0.00e+00	0	32	0	973078528	74	4237
2026-01-02 12:25:13.96	323.36	11.26	-54.3	-55.8	15.4	0.00e+00	0	32	0	974127104	74	4367
2026-01-02 12:25:14.95	323.51	11.20	-54.4	-55.9	15.3	0.00e+00	0	32	0	976224256	74	4424
2026-01-02 12:25:15.95	323.65	11.15	-54.5	-56.0	15.2	0.00e+00	0	32	0	978321408	74	4489
2026-01-02 12:25:16.94	323.79	11.09	-54.5	-56.1	15.2	0.00e+00	0	32	0	980418560	74	4513
2026-01-02 12:25:17.94	323.94	11.03	-54.5	-56.0	15.2	0.00e+00	0	32	0	981467136	74	4493
2026-01-02 12:25:18.94	324.08	10.98	-54.4	-55.9	15.3	0.00e+00	0	32	0	983564288	74	4419
2026-01-02 12:25:19.93	324.22	10.92	-54.4	-55.9	15.3	0.00e+00	0	32	0	985661440	74	4432
2026-01-02 12:25:20.93	324.36	10.86	-54.3	-55.8	15.3	0.00e+00	0	32	0	987758592	74	4345
2026-01-02 12:25:21.92	324.50	10.81	-54.4	-55.9	15.3	0.00e+00	0	32	0	989855744	74	4413
2026-01-02 12:25:22.92	324.64	10.75	-54.3	-55.8	15.3	0.00e+00	0	32	0	990904320	74	4365
2026-01-02 12:25:23.92	324.78	10.69	-54.4	-55.9	15.3	0.00e+00	0	32	0	993001472	74	4402
2026-01-02 12:25:24.91	324.92	10.63	-54.5	-56.1	15.2	0.00e+00	0	32	0	995098624	74	4500
2026-01-02 12:25:25.90	325.06	10.58	-54.6	-56.1	15.2	0.00e+00	0	32	0	997195776	74	4545
2026-01-02 12:25:26.90	325.20	10.52	-54.7	-56.3	15.1	0.00e+00	0	32	0	998244352	74	4613
2026-01-02 12:25:27.89	325.34	10.46	-54.8	-56.5	15.0	0.00e+00	0	32	0	1000341504	74	4724
2026-01-02 12:25:28.89	325.47	10.41	-54.9	-56.6	14.9	0.00e+00	0	32	0	1002438656	74	4764
2026-01-02 12:25:29.89	325.61	10.35	-54.9	-56.6	15.0	0.00e+00	0	32	0	1004535808	75	4510
2026-01-02 12:25:30.89	325.75	10.29	-54.9	-56.6	15.0	0.00e+00	0	32	0	1006632960	75	4545
2026-01-02 12:25:31.89	325.88	10.23	-54.9	-56.5	15.0	0.00e+00	0	32	0	1007681536	75	4491
2026-01-02 12:25:32.87	326.02	10.18	-54.6	-56.2	15.2	0.00e+00	0	32	0	1009778688	75	4329
2026-01-02 12:25:33.86	326.15	10.12	-54.5	-56.0	15.3	0.00e+00	0	32	0	1011875840	75	4219
2026-01-02 12:25:34.86	326.29	10.06	-54.3	-55.8	15.4	0.00e+00	0	32	0	1013972992	75	4105
2026-01-02 12:25:35.86	326.42	10.01	-54.3	-55.8	15.4	0.00e+00	0	32	0	1015021568	75	4123
2026-01-02 12:25:36.86	326.55	9.95	-54.2	-55.7	15.4	0.00e+00	0	32	0	1017118720	75	4079
2026-01-02 12:25:37.85	326.69	9.89	-54.3	-55.8	15.3	0.00e+00	0	32	0	1019215872	75	4123
2026-01-02 12:25:38.84	326.82	9.84	-54.4	-55.9	15.3	0.00e+00	0	32	0	1021313024	75	4176
2026-01-02 12:25:39.83	326.95	9.78	-54.5	-56.0	15.2	0.00e+00	0	32	0	1023410176	75	4230
2026-01-02 12:25:40.82	327.08	9.72	-54.6	-56.2	15.1	0.00e+00	0	32	0	1024458752	75	4317
2026-01-02 12:25:41.81	327.21	9.67	-54.6	-56.2	15.1	0.00e+00	0	32	0	1026555904	75	4315
2026-01-02 12:25:42.80	327.34	9.61	-54.8	-56.4	15.0	0.00e+00	0	32	0	1028653056	75	4422
2026-01-02 12:25:43.79	327.47	9.55	-54.8	-56.5	15.0	0.00e+00	0	32	0	1030750208	75	4459
2026-01-02 12:25:44.78	327.59	9.50	-54.7	-56.3	15.1	0.00e+00	0	32	0	1031798784	75	4388
2026-01-02 12:25:45.77	327.72	9.44	-54.7	-56.3	15.1	0.00e+00	0	32	0	1033895936	75	4374
2026-01-02 12:25:46.76	327.85	9.38	-54.6	-56.3	15.1	0.00e+00	0	32	0	1035993088	75	4343
2026-01-02 12:25:47.76	327.98	9.33	-54.7	-56.4	15.0	0.00e+00	0	32	0	1038090240	75	4405
2026-01-02 12:25:48.75	328.11	9.27	-54.7	-56.3	15.1	0.00e+00	0	32	0	1039138816	75	4373
2026-01-02 12:25:49.76	328.23	9.21	-54.7	-56.3	15.1	0.00e+00	0	32	0	1041235968	75	4389
2026-01-02 12:25:50.75	328.36	9.16	-54.7	-56.4	15.0	0.00e+00	0	32	0	1043333120	75	4406
2026-01-02 12:25:51.75	328.49	9.10	-54.9	-56.6	14.9	0.00e+00	0	32	0	1045430272	75	4541
2026-01-02 12:25:52.75	328.61	9.04	-55.0	-56.8	14.9	0.00e+00	0	32	0	1047527424	75	4600
2026-01-02 12:25:53.74	328.74	8.98	-55.0	-56.8	14.8	0.00e+00	0	32	0	1048576000	75	4646
2026-01-02 12:25:54.74	328.86	8.93	-55.1	-57.0	14.7	0.00e+00	0	32	0	1050673152	75	4725
2026-01-02 12:25:55.74	328.99	8.87	-55.2	-57.0	14.7	0.00e+00	0	32	0	1052770304	75	4757
2026-01-02 12:25:56.75	329.11	8.81	-55.3	-57.2	14.6	0.00e+00	0	32	0	1054867456	75	4843
2026-01-02 12:25:57.75	329.23	8.76	-55.2	-57.1	14.6	0.00e+00	0	32	0	1056964608	75	4805
2026-01-02 12:25:58.76	329.36	8.70	-55.3	-57.2	14.6	0.00e+00	0	32	0	1058013184	75	4824
2026-01-02 12:25:59.76	329.48	8.64	-55.3	-57.2	14.6	0.00e+00	0	32	0	1060110336	75	4851
2026-01-02 12:26:00.77	329.60	8.58	-55.3	-57.2	14.6	0.00e+00	0	32	0	1062207488	75	4839
2026-01-02 12:26:01.78	329.73	8.53	-55.3	-57.2	14.7	0.00e+00	0	32	0	1064304640	76	4549
2026-01-02 12:26:02.78	329.85	8.47	-55.2	-57.1	14.7	0.00e+00	0	32	0	1066401792	76	4518
2026-01-02 12:26:03.79	329.97	8.41	-55.3	-57.2	14.7	0.00e+00	0	32	0	1067450368	76	4571
2026-01-02 12:26:04.79	330.09	8.35	-55.3	-57.1	14.7	0.00e+00	0	32	0	1069547520	76	4524
2026-01-02 12:26:05.81	330.21	8.30	-55.3	-57.2	14.6	0.00e+00	0	32	0	1071644672	76	4566
2026-01-02 12:26:06.81	330.33	8.24	-55.4	-57.3	14.6	0.00e+00	0	32	0	1073741824	76	4641
2026-01-02 12:26:07.82	330.45	8.18	-55.4	-57.4	14.6	0.00e+00	0	32	0	1075838976	76	4661
2026-01-02 12:26:08.83	330.57	8.12	-55.5	-57.5	14.4	0.00e+00	0	32	0	1076887552	76	4755
2026-01-02 12:26:09.83	330.69	8.07	-55.7	-57.7	14.3	0.00e+00	0	32	0	1078984704	76	4853
2026-01-02 12:26:10.84	330.81	8.01	-55.7	-57.7	14.3	0.00e+00	0	32	0	1081081856	76	4864
2026-01-02 12:26:11.84	330.93	7.95	-55.7	-57.7	14.3	0.00e+00	0	32	0	1083179008	76	4861
2026-01-02 12:26:12.85	331.05	7.90	-55.8	-57.9	14.2	0.00e+00	0	32	0	1085276160	76	4948
2026-01-02 12:26:13.86	331.16	7.84	-55.7	-57.9	14.3	0.00e+00	0	32	0	1086324736	76	4929
2026-01-02 12:26:14.87	331.28	7.78	-55.6	-57.7	14.3	0.00e+00	0	32	0	1088421888	76	4837
2026-01-02 12:26:15.87	331.40	7.73	-55.5	-57.5	14.4	0.00e+00	0	32	0	1090519040	76	4739
2026-01-02 12:26:16.88	331.51	7.67	-55.4	-57.4	14.5	0.00e+00	0	32	0	1092616192	76	4673
2026-01-02 12:26:17.89	331.63	7.61	-55.5	-57.4	14.5	0.00e+00	0	32	0	1094713344	76	4702
2026-01-02 12:26:18.90	331.74	7.55	-55.3	-57.2	14.6	0.00e+00	0	32	0	1095761920	76	4556
2026-01-02 12:26:19.91	331.86	7.50	-55.3	-57.3	14.6	0.00e+00	0	32	0	1097859072	76	4606
2026-01-02 12:26:20.91	331.97	7.44	-55.4	-57.3	14.6	0.00e+00	0	32	0	1099956224	76	4629
2026-01-02 12:26:21.92	332.08	7.38	-55.4	-57.3	14.6	0.00e+00	0	32	0	1102053376	76	4642
2026-01-02 12:26:22.92	332.20	7.33	-55.5	-57.5	14.4	0.00e+00	0	32	0	1104150528	76	4747
2026-01-02 12:26:23.93	332.31	7.27	-55.7	-57.7	14.3	0.00e+00	0	32	0	1105199104	76	4864
2026-01-02 12:26:24.94	332.42	7.21	-55.7	-57.8	14.3	0.00e+00	0	32	0	1107296256	76	4886
2026-01-02 12:26:25.94	332.53	7.16	-55.8	-58.0	14.2	0.00e+00	0	32	0	1109393408	76	5004
2026-01-02 12:26:26.95	332.65	7.10	-55.9	-58.1	14.1	0.00e+00	0	32	0	1111490560	77	4778
2026-01-02 12:26:27.95	332.76	7.04	-55.9	-58.1	14.1	0.00e+00	0	32	0	1113587712	77	4801
2026-01-02 12:26:28.95	332.87	6.99	-55.8	-58.0	14.1	0.00e+00	0	32	0	1114636288	77	4747
2026-01-02 12:26:29.95	332.98	6.93	-55.9	-58.2	14.1	0.00e+00	0	32	0	1116733440	77	4828
2026-01-02 12:26:30.96	333.09	6.87	-55.9	-58.2	14.0	0.00e+00	0	32	0	1118830592	77	4825
2026-01-02 12:26:31.96	333.20	6.82	-55.8	-58.0	14.1	0.00e+00	0	32	0	1120927744	77	4748
2026-01-02 12:26:32.97	333.31	6.76	-55.8	-58.0	14.1	0.00e+00	0	32	0	1123024896	77	4729
2026-01-02 12:26:33.98	333.41	6.71	-55.7	-58.0	14.2	0.00e+00	0	32	0	1124073472	77	4711
2026-01-02 12:26:34.98	333.52	6.65	-55.8	-58.0	14.2	0.00e+00	0	32	0	1126170624	77	4723
2026-01-02 12:26:35.99	333.63	6.59	-55.7	-57.9	14.2	0.00e+00	0	32	0	1128267776	77	4658
2026-01-02 12:26:36.99	333.74	6.54	-55.7	-57.9	14.2	0.00e+00	0	32	0	1130364928	77	4681
2026-01-02 12:26:38.00	333.84	6.48	-55.8	-58.0	14.1	0.00e+00	0	32	0	1132462080	77	4735
2026-01-02 12:26:39.01	333.95	6.42	-55.9	-58.2	14.0	0.00e+00	0	32	0	1133510656	77	4851
2026-01-02 12:26:40.02	334.06	6.37	-55.9	-58.2	14.0	0.00e+00	0	32	0	1135607808	77	4870
2026-01-02 12:26:41.02	334.16	6.31	-56.1	-58.5	13.8	0.00e+00	0	32	0	1137704960	77	5003
2026-01-02 12:26:42.03	334.27	6.26	-56.0	-58.4	13.8	0.00e+00	0	32	0	1139802112	77	4969
2026-01-02 12:26:43.03	334.37	6.20	-55.9	-58.2	13.9	0.00e+00	0	32	0	1141899264	77	4867
2026-01-02 12:26:44.04	334.48	6.14	-56.1	-58.6	13.7	0.00e+00	0	32	0	1142947840	77	5055
2026-01-02 12:26:45.04	334.58	6.09	-55.9	-58.3	13.9	0.00e+00	0	32	0	1145044992	77	4879
2026-01-02 12:26:46.05	334.69	6.03	-55.9	-58.3	13.8	0.00e+00	0	32	0	1147142144	77	4906
2026-01-02 12:26:47.05	334.79	5.98	-56.0	-58.5	13.7	0.00e+00	0	32	0	1149239296	77	5009
2026-01-02 12:26:48.06	334.89	5.92	-56.1	-58.7	13.6	0.00e+00	0	32	0	1151336448	77	5115
2026-01-02 12:26:49.06	335.00	5.87	-55.9	-58.3	13.8	0.00e+00	0	32	0	1152385024	77	4889
2026-01-02 12:26:50.07	335.10	5.81	-55.9	-58.2	13.8	0.00e+00	0	32	0	1154482176	77	4862
2026-01-02 12:26:51.08	335.20	5.75	-55.8	-58.2	13.8	0.00e+00	0	32	0	1156579328	77	4848
2026-01-02 12:26:52.09	335.30	5.70	-55.9	-58.3	13.7	0.00e+00	0	32	0	1158676480	77	4922
2026-01-02 12:26:53.09	335.40	5.64	-55.9	-58.4	13.8	0.00e+00	0	32	0	1160773632	77	4946
2026-01-02 12:26:54.10	335.51	5.59	-55.9	-58.4	13.7	0.00e+00	0	32	0	1161822208	77	4951
2026-01-02 12:26:55.11	335.61	5.53	-55.9	-58.3	13.8	0.00e+00	0	32	0	1163919360	77	4918
2026-01-02 12:26:56.12	335.71	5.48	-56.0	-58.5	13.7	0.00e+00	0	32	0	1166016512	77	5008
2026-01-02 12:26:57.13	335.81	5.42	-56.1	-58.7	13.6	0.00e+00	0	32	0	1168113664	77	5102
2026-01-02 12:26:58.14	335.91	5.37	-56.3	-58.9	13.4	0.00e+00	0	32	0	1170210816	77	5240
2026-01-02 12:26:59.14	336.01	5.31	-56.3	-59.0	13.3	0.00e+00	0	32	0	1171259392	77	5311
2026-01-02 12:27:00.15	336.11	5.26	-56.5	-59.3	13.2	0.00e+00	0	32	0	1173356544	78	5162
2026-01-02 12:27:01.15	336.20	5.20	-56.5	-59.3	13.2	0.00e+00	0	32	0	1175453696	78	5200
2026-01-02 12:27:02.15	336.30	5.15	-56.5	-59.3	13.2	0.00e+00	0	32	0	1177550848	78	5206
2026-01-02 12:27:03.16	336.40	5.09	-56.5	-59.3	13.2	0.00e+00	0	32	0	1179648000	78	5194
2026-01-02 12:27:04.17	336.50	5.04	-56.5	-59.3	13.2	0.00e+00	0	32	0	1180696576	78	5198
2026-01-02 12:27:05.17	336.59	4.98	-60.5	-74.7	3.8	4.57e-01	0	32	104	1182793728	86	19205
2026-01-02 12:27:06.18	336.69	4.93	-61.0	-76.6	3.8	1.49e+00	0	32	104	1182793728	87	22549
