passes_logs/2026/01/02/R3.2S_Murmansk/R3.2S_Murmansk__20260102_051416_SUOMI_NPP_rec.log

#Pass ID: 20260102_051416_SUOMI NPP
#Satellite: SUOMI NPP
#Configuration: NPP
#almurnet v.1.7.20251203
#Start time: 2026-01-02 05:14:17

#Version: 2.2.20231116
#Station: R3.2S_Murmansk
#Location: 33.079688 lon 68.888172 lat
#TLE: 1 37849U 11061A   26001.07732418  .00000182  00000+0  10735-3 0  9990
#TLE: 2 37849  98.7795 303.2470 0002580  87.2016 272.9455 14.19520779734739

#Time	Az	El	Level	Level2	SNR	BER	BlckErr	Temp	State	Recorded	gain1	gain2
2026-01-02 05:14:17.34	62.22	2.02	-55.0	-70.9	3.8	1.49e+00	0	31	0	0	75	23443
2026-01-02 05:14:18.34	62.16	2.08	-55.0	-70.9	3.8	1.49e+00	0	31	104	0	75	23437
2026-01-02 05:14:19.33	62.09	2.14	-55.0	-70.9	3.8	1.49e+00	0	31	104	0	75	23473
2026-01-02 05:14:20.34	62.03	2.19	-55.0	-70.9	3.8	1.49e+00	0	31	104	0	75	23483
2026-01-02 05:14:21.34	61.96	2.25	-54.9	-70.9	3.8	1.49e+00	0	31	104	0	75	23450
2026-01-02 05:14:22.34	61.90	2.31	-55.0	-70.9	3.9	1.49e+00	0	31	104	0	75	23447
2026-01-02 05:14:23.33	61.83	2.37	-55.0	-70.9	3.8	1.49e+00	0	31	104	0	75	23439
2026-01-02 05:14:24.33	61.77	2.42	-55.0	-70.9	3.8	1.49e+00	0	31	104	0	75	23415
2026-01-02 05:14:25.32	61.70	2.48	-55.0	-70.9	3.8	1.49e+00	0	31	104	0	75	23428
2026-01-02 05:14:26.32	61.64	2.54	-55.0	-70.9	3.8	1.49e+00	0	31	104	0	75	23460
2026-01-02 05:14:27.32	61.57	2.59	-55.0	-70.9	3.8	1.49e+00	0	31	104	0	75	23476
2026-01-02 05:14:28.32	61.50	2.65	-55.0	-70.9	3.8	1.49e+00	0	31	104	0	75	23491
2026-01-02 05:14:29.32	61.44	2.71	-55.0	-70.9	3.8	1.49e+00	0	31	104	0	75	23474
2026-01-02 05:14:30.32	61.37	2.77	-55.0	-70.9	3.8	1.49e+00	0	31	104	0	75	23488
2026-01-02 05:14:31.32	61.30	2.82	-55.0	-70.9	3.8	1.49e+00	0	31	104	0	75	23479
2026-01-02 05:14:32.32	61.24	2.88	-55.0	-70.9	3.8	1.49e+00	0	31	104	0	75	23508
2026-01-02 05:14:33.32	61.17	2.94	-55.0	-70.9	3.8	1.49e+00	0	31	104	0	75	23507
2026-01-02 05:14:34.32	61.10	3.00	-55.0	-70.9	3.8	1.49e+00	0	31	104	0	75	23481
2026-01-02 05:14:35.32	61.03	3.06	-55.0	-70.9	3.8	1.49e+00	0	31	104	0	75	23470
2026-01-02 05:14:36.32	60.96	3.11	-55.0	-70.9	3.8	1.49e+00	0	31	104	0	75	23486
2026-01-02 05:14:37.32	60.89	3.17	-55.0	-70.9	3.8	1.49e+00	0	31	104	0	75	23482
2026-01-02 05:14:38.32	60.82	3.23	-55.0	-70.9	3.8	1.49e+00	0	31	104	0	75	23466
2026-01-02 05:14:39.32	60.75	3.29	-55.0	-70.9	3.8	1.49e+00	0	31	104	0	75	23494
2026-01-02 05:14:40.31	60.68	3.35	-55.0	-70.9	3.8	1.49e+00	0	31	104	0	75	23455
2026-01-02 05:14:41.32	60.61	3.41	-55.0	-70.9	3.8	1.49e+00	0	31	104	0	75	23433
2026-01-02 05:14:42.32	60.54	3.46	-55.0	-70.9	3.8	1.49e+00	0	31	104	0	75	23435
2026-01-02 05:14:43.32	60.47	3.52	-55.0	-70.9	3.8	1.49e+00	0	31	104	0	75	23472
2026-01-02 05:14:44.32	60.40	3.58	-55.0	-70.9	3.8	1.49e+00	0	31	104	0	75	23503
2026-01-02 05:14:45.32	60.33	3.64	-55.0	-70.9	3.8	1.49e+00	0	31	104	0	75	23494
2026-01-02 05:14:46.33	60.26	3.70	-55.0	-70.9	3.8	1.49e+00	0	31	104	0	75	23481
2026-01-02 05:14:47.33	60.18	3.76	-55.0	-70.9	3.8	1.49e+00	0	31	104	0	75	23535
2026-01-02 05:14:48.33	60.11	3.82	-55.0	-70.9	3.8	1.49e+00	0	31	104	0	75	23497
2026-01-02 05:14:49.33	60.04	3.88	-55.0	-70.9	3.8	1.49e+00	0	31	104	0	75	23452
2026-01-02 05:14:50.32	59.97	3.94	-55.0	-70.9	3.8	1.49e+00	0	31	104	0	75	23538
2026-01-02 05:14:51.33	59.89	4.00	-55.0	-70.9	3.8	1.49e+00	0	32	104	0	75	23508
2026-01-02 05:14:52.33	59.82	4.05	-55.0	-70.9	3.8	1.49e+00	0	31	104	0	75	23530
2026-01-02 05:14:53.33	59.74	4.11	-55.0	-70.9	3.8	1.49e+00	0	31	104	0	75	23513
2026-01-02 05:14:54.33	59.67	4.17	-55.0	-70.9	3.8	1.49e+00	0	31	104	0	75	23549
2026-01-02 05:14:55.33	59.60	4.23	-55.0	-70.9	3.8	1.49e+00	0	31	104	0	75	23552
2026-01-02 05:14:56.33	59.52	4.29	-55.0	-70.9	3.8	1.49e+00	0	31	104	0	75	23504
2026-01-02 05:14:57.33	59.44	4.35	-55.0	-70.9	3.8	1.49e+00	0	31	104	0	75	23538
2026-01-02 05:14:58.33	59.37	4.41	-55.0	-70.9	3.8	1.49e+00	0	31	104	0	75	23500
2026-01-02 05:14:59.33	59.29	4.47	-55.0	-70.9	3.8	1.49e+00	0	31	104	0	75	23531
2026-01-02 05:15:00.33	59.22	4.53	-55.0	-70.9	3.8	1.49e+00	0	31	104	0	75	23491
2026-01-02 05:15:01.33	59.14	4.59	-55.0	-70.9	3.8	1.49e+00	0	31	104	0	75	23514
2026-01-02 05:15:02.32	59.06	4.65	-55.0	-70.9	3.8	1.49e+00	0	31	104	0	75	23531
2026-01-02 05:15:03.32	58.99	4.71	-55.0	-70.9	3.8	1.49e+00	0	31	104	0	75	23504
2026-01-02 05:15:04.32	58.91	4.77	-55.0	-70.9	3.8	1.49e+00	0	32	104	0	75	23518
2026-01-02 05:15:05.32	58.83	4.83	-55.0	-70.9	3.8	1.49e+00	0	31	104	0	75	23513
2026-01-02 05:15:06.32	58.75	4.90	-55.0	-70.9	3.8	1.49e+00	0	31	104	0	75	23430
2026-01-02 05:15:07.32	58.67	4.96	-55.0	-70.9	3.8	1.49e+00	0	32	104	0	75	23505
2026-01-02 05:15:08.31	58.60	5.02	-55.0	-70.9	3.9	1.49e+00	0	32	104	0	75	23521
2026-01-02 05:15:09.30	58.52	5.08	-55.0	-70.9	3.8	1.49e+00	0	32	104	0	75	23556
2026-01-02 05:15:10.30	58.44	5.14	-55.0	-70.9	3.8	1.49e+00	0	32	104	0	75	23499
2026-01-02 05:15:11.29	58.36	5.20	-55.0	-70.9	3.8	1.49e+00	0	31	104	0	75	23496
2026-01-02 05:15:12.29	58.28	5.26	-55.0	-70.9	3.8	1.49e+00	0	32	104	0	75	23531
2026-01-02 05:15:13.29	58.20	5.32	-54.9	-70.9	3.8	1.49e+00	0	32	104	0	75	23535
2026-01-02 05:15:14.29	58.12	5.38	-55.0	-70.9	3.8	1.49e+00	0	32	104	0	75	23551
2026-01-02 05:15:15.28	58.04	5.44	-55.0	-70.9	3.8	1.49e+00	0	32	104	0	75	23509
2026-01-02 05:15:16.27	57.96	5.50	-55.0	-70.9	3.8	1.49e+00	0	32	104	0	75	23566
2026-01-02 05:15:17.28	57.87	5.57	-55.0	-70.9	3.8	1.49e+00	0	32	104	0	75	23530
2026-01-02 05:15:18.28	57.79	5.63	-55.0	-70.9	3.8	1.49e+00	0	32	104	0	75	23532
2026-01-02 05:15:19.27	57.71	5.69	-55.0	-70.9	3.8	1.49e+00	0	32	104	0	75	23534
2026-01-02 05:15:20.27	57.63	5.75	-55.0	-70.9	3.8	1.49e+00	0	32	104	0	75	23548
2026-01-02 05:15:21.27	57.54	5.81	-55.0	-70.9	3.8	1.49e+00	0	32	104	0	75	23531
2026-01-02 05:15:22.27	57.46	5.87	-55.0	-71.0	3.8	1.49e+00	0	32	104	0	75	23591
2026-01-02 05:15:23.27	57.37	5.94	-55.0	-70.9	3.8	1.49e+00	0	32	104	0	75	23553
2026-01-02 05:15:24.27	57.29	6.00	-55.0	-70.9	3.8	1.49e+00	0	32	104	0	75	23567
2026-01-02 05:15:25.26	57.21	6.06	-55.0	-70.9	3.8	1.49e+00	0	32	104	0	75	23550
2026-01-02 05:15:26.27	57.12	6.12	-55.0	-70.9	3.8	1.49e+00	0	32	104	0	75	23580
2026-01-02 05:15:27.26	57.03	6.18	-55.0	-70.9	3.8	1.49e+00	0	32	104	0	75	23506
2026-01-02 05:15:28.26	56.95	6.25	-55.0	-70.9	3.8	1.49e+00	0	32	104	0	75	23520
2026-01-02 05:15:29.25	56.86	6.31	-55.0	-70.9	3.8	1.49e+00	0	32	104	0	75	23571
2026-01-02 05:15:30.26	56.77	6.37	-55.0	-70.9	3.8	1.49e+00	0	32	104	0	75	23522
2026-01-02 05:15:31.26	56.69	6.44	-55.0	-71.0	3.8	1.49e+00	0	32	104	0	75	23585
2026-01-02 05:15:32.27	56.60	6.50	-55.0	-70.9	3.8	1.49e+00	0	32	104	0	75	23539
2026-01-02 05:15:33.27	56.51	6.56	-55.0	-70.9	3.8	1.49e+00	0	32	104	0	75	23550
2026-01-02 05:15:34.27	56.42	6.62	-55.0	-70.9	3.8	1.49e+00	0	32	104	0	75	23516
2026-01-02 05:15:35.27	56.33	6.69	-55.0	-70.9	3.8	1.49e+00	0	32	104	0	75	23509
2026-01-02 05:15:36.28	56.24	6.75	-55.0	-71.0	3.8	1.49e+00	0	32	104	0	75	23584
2026-01-02 05:15:37.28	56.15	6.82	-55.0	-70.9	3.8	1.49e+00	0	32	104	0	75	23571
2026-01-02 05:15:38.28	56.06	6.88	-55.0	-71.0	3.8	1.49e+00	0	32	104	0	75	23585
2026-01-02 05:15:39.28	55.97	6.94	-55.0	-70.9	3.8	1.49e+00	0	32	104	0	75	23521
2026-01-02 05:15:40.28	55.88	7.01	-55.0	-70.9	3.8	1.49e+00	0	32	104	0	75	23564
2026-01-02 05:15:41.29	55.79	7.07	-55.0	-70.9	3.8	1.49e+00	0	32	104	0	75	23518
2026-01-02 05:15:42.29	55.70	7.13	-55.0	-70.9	3.8	1.49e+00	0	32	104	0	75	23572
2026-01-02 05:15:43.27	55.61	7.20	-55.0	-70.9	3.8	1.49e+00	0	32	104	0	75	23522
2026-01-02 05:15:44.28	55.51	7.26	-55.0	-71.0	3.8	1.49e+00	0	32	104	0	75	23592
2026-01-02 05:15:45.28	55.42	7.33	-55.0	-70.9	3.8	1.49e+00	0	32	104	0	75	23519
2026-01-02 05:15:46.28	55.33	7.39	-55.0	-71.0	3.8	1.49e+00	0	32	104	0	75	23599
2026-01-02 05:15:47.28	55.23	7.45	-55.0	-70.9	3.8	1.49e+00	0	32	104	0	75	23482
2026-01-02 05:15:48.28	55.14	7.52	-55.0	-70.9	3.8	1.49e+00	0	32	104	0	75	23556
2026-01-02 05:15:49.29	55.04	7.58	-55.0	-70.9	3.8	1.49e+00	0	32	104	0	75	23540
2026-01-02 05:15:50.28	54.95	7.65	-55.0	-70.9	3.8	1.49e+00	0	32	104	0	75	23564
2026-01-02 05:15:51.28	54.85	7.71	-55.0	-70.9	3.8	1.49e+00	0	32	104	0	75	23573
2026-01-02 05:15:52.28	54.76	7.78	-55.0	-70.9	3.8	1.49e+00	0	32	104	0	75	23547
2026-01-02 05:15:53.28	54.66	7.84	-55.0	-70.9	3.8	1.49e+00	0	32	104	0	75	23538
2026-01-02 05:15:54.28	54.56	7.91	-55.0	-70.9	3.8	1.49e+00	0	32	104	0	75	23545
2026-01-02 05:15:55.28	54.47	7.97	-55.0	-71.0	3.8	1.49e+00	0	32	104	0	75	23605
2026-01-02 05:15:56.29	54.37	8.04	-55.0	-70.9	3.8	1.49e+00	0	32	104	0	75	23549
2026-01-02 05:15:57.29	54.27	8.10	-55.0	-71.0	3.8	1.49e+00	0	32	104	0	75	23609
2026-01-02 05:15:58.29	54.17	8.17	-55.0	-70.9	3.8	1.49e+00	0	32	104	0	75	23578
2026-01-02 05:15:59.29	54.07	8.23	-55.0	-71.0	3.8	1.49e+00	0	32	104	0	75	23644
2026-01-02 05:16:00.29	53.97	8.30	-55.0	-71.0	3.8	1.49e+00	0	32	104	0	75	23613
2026-01-02 05:16:01.29	53.87	8.36	-55.0	-70.9	3.8	1.49e+00	0	32	104	0	75	23566
2026-01-02 05:16:02.29	53.77	8.43	-55.0	-71.0	3.8	1.49e+00	0	32	104	0	75	23592
2026-01-02 05:16:03.28	53.67	8.49	-55.0	-70.9	3.8	1.49e+00	0	32	104	0	75	23519
2026-01-02 05:16:04.28	53.57	8.56	-55.0	-70.9	3.8	1.49e+00	0	32	104	0	75	23579
2026-01-02 05:16:05.28	53.47	8.62	-55.0	-71.0	3.8	1.49e+00	0	32	104	0	75	23602
2026-01-02 05:16:06.28	53.36	8.69	-55.0	-70.9	3.8	1.49e+00	0	32	104	0	75	23568
2026-01-02 05:16:07.28	53.26	8.76	-55.0	-70.9	3.8	1.49e+00	0	32	104	0	75	23490
2026-01-02 05:16:08.28	53.16	8.82	-55.0	-70.9	3.8	1.49e+00	0	32	104	0	75	23526
2026-01-02 05:16:09.27	53.06	8.89	-55.0	-70.9	3.8	1.49e+00	0	32	104	0	75	23573
2026-01-02 05:16:10.27	52.95	8.95	-55.0	-70.9	3.8	1.49e+00	0	32	104	0	75	23524
2026-01-02 05:16:11.27	52.85	9.02	-55.0	-70.9	3.8	1.49e+00	0	32	104	0	75	23555
2026-01-02 05:16:12.27	52.74	9.09	-55.0	-70.9	3.8	1.49e+00	0	32	104	0	75	23579
2026-01-02 05:16:13.27	52.63	9.15	-55.0	-70.9	3.8	1.49e+00	0	32	104	0	75	23533
2026-01-02 05:16:14.26	52.53	9.22	-55.0	-71.0	3.8	1.49e+00	0	32	104	0	75	23588
2026-01-02 05:16:15.25	52.42	9.28	-55.0	-71.0	3.8	1.49e+00	0	32	104	0	75	23585
2026-01-02 05:16:16.25	52.32	9.35	-55.0	-70.9	3.8	1.49e+00	0	32	104	0	75	23545
2026-01-02 05:16:17.25	52.21	9.42	-55.0	-70.9	3.8	1.49e+00	0	32	104	0	75	23562
2026-01-02 05:16:18.24	52.10	9.48	-55.0	-70.9	3.8	1.49e+00	0	32	104	0	75	23574
2026-01-02 05:16:19.24	51.99	9.55	-55.0	-70.9	3.8	1.49e+00	0	32	104	0	75	23528
2026-01-02 05:16:20.24	51.88	9.62	-55.0	-71.0	3.8	1.49e+00	0	32	104	0	75	23600
2026-01-02 05:16:21.23	51.77	9.68	-55.0	-70.9	3.8	1.49e+00	0	32	104	0	75	23548
2026-01-02 05:16:22.23	51.66	9.75	-55.0	-70.9	3.8	1.49e+00	0	32	104	0	75	23565
2026-01-02 05:16:23.23	51.55	9.82	-55.0	-70.9	3.8	1.49e+00	0	32	104	0	75	23521
2026-01-02 05:16:24.22	51.44	9.88	-55.0	-70.9	3.8	1.49e+00	0	32	104	0	75	23575
2026-01-02 05:16:25.22	51.33	9.95	-55.0	-70.9	3.8	1.49e+00	0	32	104	0	75	23552
2026-01-02 05:16:26.22	51.22	10.02	-55.0	-70.9	3.8	1.49e+00	0	32	104	0	75	23531
2026-01-02 05:16:27.22	51.10	10.09	-55.0	-70.9	3.8	1.49e+00	0	32	104	0	75	23575
2026-01-02 05:16:28.21	50.99	10.15	-55.0	-70.9	3.8	1.49e+00	0	32	104	0	75	23577
2026-01-02 05:16:29.21	50.88	10.22	-55.0	-70.9	3.8	1.49e+00	0	32	104	0	75	23565
2026-01-02 05:16:30.22	50.76	10.29	-55.0	-70.9	3.8	1.49e+00	0	32	104	0	75	23545
2026-01-02 05:16:31.22	50.65	10.36	-55.0	-70.9	3.8	1.49e+00	0	32	104	0	75	23573
2026-01-02 05:16:32.21	50.53	10.42	-55.0	-71.0	3.8	1.49e+00	0	32	104	0	75	23599
2026-01-02 05:16:33.21	50.42	10.49	-55.0	-70.9	3.8	1.49e+00	0	32	104	0	75	23545
2026-01-02 05:16:34.22	50.30	10.56	-55.0	-71.0	3.8	1.49e+00	0	32	104	0	75	23611
2026-01-02 05:16:35.22	50.18	10.63	-55.0	-70.9	3.8	1.49e+00	0	32	104	0	75	23508
2026-01-02 05:16:36.22	50.06	10.70	-55.0	-71.0	3.8	1.49e+00	0	32	104	0	75	23615
2026-01-02 05:16:37.23	49.94	10.77	-55.0	-70.9	3.8	1.49e+00	0	32	104	0	75	23565
2026-01-02 05:16:38.22	49.82	10.83	-55.0	-71.0	3.8	1.49e+00	0	32	104	0	75	23611
2026-01-02 05:16:39.23	49.70	10.90	-55.0	-70.9	3.8	1.49e+00	0	32	104	0	75	23571
2026-01-02 05:16:40.23	49.58	10.97	-55.0	-70.9	3.8	1.49e+00	0	32	104	0	75	23577
2026-01-02 05:16:41.22	49.46	11.04	-55.0	-70.9	3.8	1.49e+00	0	32	104	0	75	23524
2026-01-02 05:16:42.22	49.34	11.11	-55.0	-71.0	3.8	1.49e+00	0	32	104	0	75	23597
2026-01-02 05:16:43.22	49.22	11.18	-55.0	-70.9	3.8	1.49e+00	0	32	104	0	75	23561
2026-01-02 05:16:44.22	49.10	11.25	-55.0	-70.9	3.8	1.49e+00	0	32	104	0	75	23557
2026-01-02 05:16:45.22	48.97	11.31	-55.0	-71.0	3.8	1.49e+00	0	32	104	0	75	23584
2026-01-02 05:16:46.22	48.85	11.38	-55.0	-70.9	3.8	1.49e+00	0	32	104	0	75	23580
2026-01-02 05:16:47.23	48.72	11.45	-55.0	-70.9	3.8	1.49e+00	0	32	104	0	75	23525
2026-01-02 05:16:48.23	48.60	11.52	-55.0	-70.9	3.8	1.49e+00	0	32	104	0	75	23579
2026-01-02 05:16:49.23	48.47	11.59	-55.0	-71.0	3.8	1.49e+00	0	32	104	0	75	23593
2026-01-02 05:16:50.23	48.35	11.66	-55.0	-71.0	3.8	1.49e+00	0	32	104	0	75	23622
2026-01-02 05:16:51.23	48.22	11.73	-55.0	-70.9	3.8	1.49e+00	0	32	104	0	75	23549
2026-01-02 05:16:52.23	48.09	11.80	-55.0	-70.9	3.8	1.49e+00	0	32	104	0	75	23563
2026-01-02 05:16:53.23	47.96	11.87	-55.0	-70.9	3.8	1.49e+00	0	32	104	0	75	23561
2026-01-02 05:16:54.23	47.84	11.94	-55.0	-70.9	3.8	1.49e+00	0	32	104	0	75	23537
2026-01-02 05:16:55.23	47.71	12.01	-55.0	-70.9	3.8	1.49e+00	0	32	104	0	75	23569
2026-01-02 05:16:56.22	47.58	12.07	-55.0	-70.9	3.8	1.49e+00	0	32	104	0	75	23515
2026-01-02 05:16:57.22	47.45	12.14	-55.0	-70.9	3.8	1.49e+00	0	32	104	0	75	23567
2026-01-02 05:16:58.23	47.31	12.21	-55.0	-70.9	3.8	1.49e+00	0	32	104	0	75	23542
2026-01-02 05:16:59.22	47.18	12.28	-55.0	-71.0	3.8	1.49e+00	0	32	104	0	75	23656
2026-01-02 05:17:00.22	47.05	12.35	-55.0	-71.0	3.8	1.49e+00	0	32	104	0	75	23627
2026-01-02 05:17:01.22	46.92	12.42	-55.0	-71.0	3.8	1.49e+00	0	32	104	0	75	23593
2026-01-02 05:17:02.23	46.78	12.49	-55.0	-71.0	3.8	1.49e+00	0	32	104	0	75	23594
2026-01-02 05:17:03.23	46.65	12.56	-55.0	-70.9	3.8	1.49e+00	0	32	104	0	75	23578
2026-01-02 05:17:04.24	46.51	12.63	-55.0	-71.0	3.8	1.49e+00	0	32	104	0	75	23623
2026-01-02 05:17:05.24	46.38	12.70	-55.0	-71.0	3.8	1.49e+00	0	32	104	0	75	23582
2026-01-02 05:17:06.24	46.24	12.77	-55.0	-71.0	3.8	1.49e+00	0	32	104	0	75	23609
2026-01-02 05:17:07.25	46.10	12.84	-55.0	-70.9	3.8	1.49e+00	0	32	104	0	75	23579
2026-01-02 05:17:08.24	45.97	12.91	-55.0	-71.0	3.8	1.49e+00	0	32	104	0	75	23625
2026-01-02 05:17:09.24	45.83	12.98	-55.0	-70.9	3.8	1.49e+00	0	32	104	0	75	23581
2026-01-02 05:17:10.23	45.69	13.05	-55.0	-71.0	3.8	1.49e+00	0	32	104	0	75	23629
2026-01-02 05:17:11.23	45.55	13.12	-55.0	-71.0	3.8	1.49e+00	0	32	104	0	75	23583
2026-01-02 05:17:12.23	45.41	13.19	-55.0	-70.9	3.8	1.49e+00	0	32	104	0	75	23547
2026-01-02 05:17:13.23	45.27	13.26	-55.0	-70.9	3.8	1.49e+00	0	32	104	0	75	23577
2026-01-02 05:17:14.22	45.13	13.33	-55.0	-71.0	3.8	1.49e+00	0	32	104	0	75	23602
2026-01-02 05:17:15.20	44.99	13.40	-55.0	-71.0	3.8	1.49e+00	0	32	104	0	75	23585
2026-01-02 05:17:16.20	44.85	13.47	-55.0	-71.0	3.8	1.49e+00	0	32	104	0	75	23589
2026-01-02 05:17:17.20	44.70	13.54	-55.0	-70.9	3.8	1.49e+00	0	32	104	0	75	23536
2026-01-02 05:17:18.20	44.56	13.61	-55.0	-71.0	3.8	1.49e+00	0	32	104	0	75	23591
2026-01-02 05:17:19.20	44.41	13.68	-55.0	-70.9	3.8	1.49e+00	0	32	104	0	75	23564
2026-01-02 05:17:20.20	44.27	13.75	-55.0	-71.0	3.8	1.49e+00	0	32	104	0	75	23604
2026-01-02 05:17:21.19	44.12	13.82	-55.0	-70.9	3.8	1.49e+00	0	32	104	0	75	23533
2026-01-02 05:17:22.19	43.97	13.89	-55.0	-71.0	3.8	1.49e+00	0	32	104	0	75	23589
2026-01-02 05:17:23.19	43.83	13.96	-55.0	-71.0	3.8	1.49e+00	0	32	104	0	75	23628
2026-01-02 05:17:24.19	43.68	14.03	-55.0	-71.0	3.8	1.49e+00	0	32	104	0	75	23623
2026-01-02 05:17:25.19	43.53	14.10	-55.0	-71.0	3.8	1.49e+00	0	32	104	0	75	23587
2026-01-02 05:17:26.19	43.38	14.17	-55.0	-71.0	3.8	1.49e+00	0	32	104	0	75	23616
2026-01-02 05:17:27.19	43.23	14.24	-55.0	-71.0	3.8	1.49e+00	0	32	104	0	75	23584
2026-01-02 05:17:28.20	43.07	14.31	-55.0	-71.0	3.8	1.49e+00	0	32	104	0	75	23624
2026-01-02 05:17:29.20	42.92	14.38	-55.0	-71.0	3.8	1.49e+00	0	32	104	0	75	23584
2026-01-02 05:17:30.20	42.77	14.45	-55.0	-70.9	3.8	1.49e+00	0	32	104	0	75	23555
2026-01-02 05:17:31.19	42.61	14.52	-55.0	-71.0	3.8	1.49e+00	0	32	104	0	75	23592
2026-01-02 05:17:32.20	42.46	14.59	-55.0	-71.0	3.8	1.49e+00	0	32	104	0	75	23655
2026-01-02 05:17:33.21	42.30	14.66	-55.0	-71.0	3.8	1.49e+00	0	32	104	0	75	23609
2026-01-02 05:17:34.21	42.15	14.73	-55.0	-71.0	3.8	1.49e+00	0	32	104	0	75	23600
2026-01-02 05:17:35.20	41.99	14.80	-55.0	-70.9	3.8	1.49e+00	0	32	104	0	75	23581
2026-01-02 05:17:36.20	41.83	14.87	-55.0	-71.0	3.8	1.49e+00	0	32	104	0	75	23611
2026-01-02 05:17:37.20	41.67	14.94	-55.0	-71.0	3.8	1.49e+00	0	32	104	0	75	23624
2026-01-02 05:17:38.20	41.51	15.01	-55.0	-71.0	3.8	1.49e+00	0	32	104	0	75	23604
2026-01-02 05:17:39.20	41.36	15.08	-55.0	-70.9	3.8	1.49e+00	0	32	104	0	75	23547
2026-01-02 05:17:40.20	41.19	15.15	-55.0	-71.0	3.8	1.49e+00	0	32	104	0	75	23639
2026-01-02 05:17:41.20	41.03	15.22	-55.0	-71.0	3.8	1.49e+00	0	32	104	0	75	23640
2026-01-02 05:17:42.20	40.87	15.29	-55.0	-70.9	3.8	1.49e+00	0	32	104	0	75	23557
2026-01-02 05:17:43.20	40.71	15.36	-55.0	-71.0	3.8	1.49e+00	0	32	104	0	75	23633
2026-01-02 05:17:44.20	40.54	15.43	-55.0	-71.0	3.8	1.49e+00	0	32	104	0	75	23584
2026-01-02 05:17:45.20	40.38	15.50	-55.0	-71.0	3.8	1.49e+00	0	32	104	0	75	23597
2026-01-02 05:17:46.21	40.21	15.57	-55.0	-71.0	3.8	1.49e+00	0	32	104	0	75	23610
2026-01-02 05:17:47.21	40.05	15.64	-55.0	-71.0	3.8	1.49e+00	0	32	104	0	75	23614
2026-01-02 05:17:48.20	39.88	15.71	-55.0	-71.0	3.8	1.49e+00	0	32	104	0	75	23635
2026-01-02 05:17:49.20	39.71	15.78	-55.0	-70.9	3.8	1.49e+00	0	32	104	0	75	23517
2026-01-02 05:17:50.21	39.54	15.85	-55.0	-71.0	3.8	1.49e+00	0	32	104	0	75	23609
2026-01-02 05:17:51.21	39.37	15.92	-55.0	-71.0	3.8	1.49e+00	0	32	104	0	75	23645
2026-01-02 05:17:52.22	39.20	15.99	-55.0	-71.0	3.8	1.49e+00	0	32	104	0	75	23645
2026-01-02 05:17:53.22	39.03	16.06	-55.0	-70.9	3.8	1.49e+00	0	32	104	0	75	23577
2026-01-02 05:17:54.22	38.86	16.13	-55.0	-70.9	3.9	1.49e+00	0	32	104	0	75	23567
2026-01-02 05:17:55.22	38.69	16.20	-55.0	-71.0	3.8	1.49e+00	0	32	104	0	75	23595
2026-01-02 05:17:56.22	38.51	16.27	-55.0	-70.9	3.8	1.49e+00	0	32	104	0	75	23581
2026-01-02 05:17:57.22	38.34	16.34	-55.0	-71.0	3.8	1.49e+00	0	32	104	0	75	23629
2026-01-02 05:17:58.22	38.16	16.41	-55.0	-70.9	3.8	1.49e+00	0	32	104	0	75	23573
2026-01-02 05:17:59.22	37.99	16.48	-55.0	-71.0	3.8	1.49e+00	0	32	104	0	75	23601
2026-01-02 05:18:00.23	37.81	16.55	-55.0	-71.0	3.8	1.49e+00	0	32	104	0	75	23613
2026-01-02 05:18:01.22	37.63	16.61	-55.0	-71.0	3.8	1.49e+00	0	32	104	0	75	23604
2026-01-02 05:18:02.22	37.46	16.68	-55.0	-71.0	3.8	1.49e+00	0	32	104	0	75	23603
2026-01-02 05:18:03.22	37.28	16.75	-55.0	-71.0	3.8	1.49e+00	0	32	104	0	75	23615
2026-01-02 05:18:04.21	37.10	16.82	-55.0	-70.9	3.8	1.49e+00	0	32	104	0	75	23571
2026-01-02 05:18:05.21	36.92	16.89	-55.0	-70.9	3.9	1.49e+00	0	32	104	0	75	23532
2026-01-02 05:18:06.21	36.74	16.96	-55.0	-71.0	3.8	1.49e+00	0	32	104	0	75	23591
2026-01-02 05:18:07.21	36.55	17.02	-55.0	-71.0	3.8	1.49e+00	0	32	104	0	75	23627
2026-01-02 05:18:08.21	36.37	17.09	-55.0	-71.0	3.8	1.49e+00	0	32	104	0	75	23599
2026-01-02 05:18:09.21	36.19	17.16	-55.0	-71.0	3.8	1.49e+00	0	32	104	0	75	23665
2026-01-02 05:18:10.22	36.00	17.23	-55.0	-71.0	3.8	1.49e+00	0	32	104	0	75	23588
2026-01-02 05:18:11.21	35.82	17.30	-55.0	-71.0	3.8	1.49e+00	0	32	104	0	75	23652
2026-01-02 05:18:12.21	35.63	17.36	-55.0	-70.9	3.8	1.49e+00	0	32	104	0	75	23576
2026-01-02 05:18:13.20	35.44	17.43	-55.0	-71.0	3.8	1.49e+00	0	32	104	0	75	23585
2026-01-02 05:18:14.19	35.26	17.50	-55.0	-71.0	3.8	1.49e+00	0	32	104	0	75	23595
2026-01-02 05:18:15.20	35.07	17.57	-55.0	-71.0	3.8	1.49e+00	0	32	104	0	75	23593
2026-01-02 05:18:16.19	34.88	17.63	-55.0	-71.0	3.8	1.49e+00	0	32	104	0	75	23636
2026-01-02 05:18:17.19	34.69	17.70	-55.0	-71.0	3.8	1.49e+00	0	32	104	0	75	23663
2026-01-02 05:18:18.18	34.50	17.77	-55.0	-71.0	3.8	1.49e+00	0	32	104	0	75	23656
2026-01-02 05:18:19.18	34.31	17.83	-55.0	-71.0	3.8	1.49e+00	0	32	104	0	75	23602
2026-01-02 05:18:20.17	34.11	17.90	-55.0	-71.0	3.8	1.49e+00	0	32	104	0	75	23666
2026-01-02 05:18:21.18	33.92	17.96	-55.0	-71.0	3.8	1.49e+00	0	32	104	0	75	23612
2026-01-02 05:18:22.18	33.72	18.03	-55.0	-71.0	3.8	1.49e+00	0	32	104	0	75	23678
2026-01-02 05:18:23.17	33.53	18.10	-55.0	-71.0	3.8	1.49e+00	0	32	104	0	75	23600
2026-01-02 05:18:24.17	33.33	18.16	-55.0	-71.0	3.8	1.49e+00	0	32	104	0	75	23624
2026-01-02 05:18:25.17	33.13	18.23	-55.0	-71.0	3.8	1.49e+00	0	32	104	0	75	23640
2026-01-02 05:18:26.18	32.93	18.29	-55.0	-71.0	3.8	1.49e+00	0	32	104	0	75	23633
2026-01-02 05:18:27.18	32.73	18.36	-55.0	-71.0	3.8	1.49e+00	0	32	104	0	75	23630
2026-01-02 05:18:28.17	32.53	18.42	-55.0	-71.0	3.8	1.49e+00	0	32	104	0	75	23655
2026-01-02 05:18:29.17	32.33	18.49	-55.0	-71.0	3.8	1.49e+00	0	32	104	0	75	23640
2026-01-02 05:18:30.17	32.13	18.55	-55.0	-71.0	3.8	1.49e+00	0	32	104	0	75	23603
2026-01-02 05:18:31.17	31.93	18.62	-55.0	-70.9	3.8	1.49e+00	0	32	104	0	75	23563
2026-01-02 05:18:32.17	31.72	18.68	-55.0	-71.0	3.8	1.49e+00	0	32	104	0	75	23599
2026-01-02 05:18:33.17	31.52	18.75	-55.0	-71.0	3.8	1.49e+00	0	32	104	0	75	23612
2026-01-02 05:18:34.17	31.31	18.81	-55.0	-70.9	3.8	1.49e+00	0	32	104	0	75	23551
2026-01-02 05:18:35.17	31.11	18.87	-55.0	-71.0	3.8	1.49e+00	0	32	104	0	75	23635
2026-01-02 05:18:36.18	30.90	18.94	-55.0	-71.0	3.8	1.49e+00	0	32	104	0	75	23620
2026-01-02 05:18:37.18	30.69	19.00	-55.0	-71.0	3.8	1.49e+00	0	32	104	0	75	23641
2026-01-02 05:18:38.18	30.48	19.06	-55.0	-71.0	3.8	1.49e+00	0	32	104	0	75	23621
2026-01-02 05:18:39.18	30.27	19.13	-55.1	-71.0	3.8	1.49e+00	0	32	104	0	75	23649
2026-01-02 05:18:40.19	30.06	19.19	-55.0	-71.0	3.8	1.49e+00	0	32	104	0	75	23649
2026-01-02 05:18:41.18	29.85	19.25	-55.0	-71.0	3.8	1.49e+00	0	32	104	0	75	23605
2026-01-02 05:18:42.18	29.64	19.31	-55.0	-71.0	3.8	1.49e+00	0	33	104	0	75	23632
2026-01-02 05:18:43.18	29.42	19.38	-55.0	-71.0	3.8	1.49e+00	0	32	104	0	75	23623
2026-01-02 05:18:44.18	29.21	19.44	-55.0	-71.0	3.8	1.49e+00	0	32	104	0	75	23647
2026-01-02 05:18:45.18	28.99	19.50	-55.0	-71.0	3.8	1.49e+00	0	33	104	0	75	23649
2026-01-02 05:18:46.17	28.78	19.56	-55.0	-70.9	3.8	1.49e+00	0	32	104	0	75	23573
2026-01-02 05:18:47.18	28.56	19.62	-55.0	-71.0	3.8	1.49e+00	0	32	104	0	75	23592
2026-01-02 05:18:48.18	28.34	19.68	-55.0	-70.9	3.8	1.49e+00	0	32	104	0	75	23559
2026-01-02 05:18:49.18	28.12	19.74	-55.0	-71.0	3.8	1.49e+00	0	32	104	0	75	23654
2026-01-02 05:18:50.18	27.90	19.80	-55.0	-71.0	3.8	1.49e+00	0	32	104	0	75	23584
2026-01-02 05:18:51.18	27.68	19.86	-55.0	-70.9	3.8	1.49e+00	0	32	104	0	75	23570
2026-01-02 05:18:52.18	27.46	19.92	-55.0	-70.9	3.8	1.49e+00	0	32	104	0	75	23565
2026-01-02 05:18:53.18	27.24	19.98	-55.0	-71.0	3.8	1.49e+00	0	32	104	0	75	23616
2026-01-02 05:18:54.18	27.02	20.04	-55.0	-71.0	3.8	1.49e+00	0	32	104	0	75	23647
2026-01-02 05:18:55.17	26.79	20.09	-55.0	-70.9	3.8	1.49e+00	0	33	104	0	75	23550
2026-01-02 05:18:56.17	26.57	20.15	-55.0	-70.9	3.8	1.49e+00	0	32	104	0	75	23579
2026-01-02 05:18:57.17	26.34	20.21	-55.0	-71.0	3.8	1.49e+00	0	32	104	0	75	23674
2026-01-02 05:18:58.18	26.12	20.27	-55.0	-71.0	3.8	1.49e+00	0	32	104	0	75	23603
2026-01-02 05:18:59.18	25.89	20.32	-55.0	-71.0	3.8	1.49e+00	0	32	104	0	75	23596
2026-01-02 05:19:00.18	25.66	20.38	-55.0	-71.0	3.8	1.49e+00	0	32	104	0	75	23641
2026-01-02 05:19:01.17	25.43	20.44	-55.0	-71.0	3.8	1.49e+00	0	32	104	0	75	23633
2026-01-02 05:19:02.17	25.20	20.49	-55.0	-71.0	3.8	1.49e+00	0	32	104	0	75	23614
2026-01-02 05:19:03.17	24.97	20.55	-55.0	-71.0	3.8	1.49e+00	0	32	104	0	75	23599
2026-01-02 05:19:04.17	24.74	20.60	-55.0	-71.0	3.8	1.49e+00	0	32	104	0	75	23607
2026-01-02 05:19:05.17	24.51	20.66	-55.0	-71.0	3.8	1.49e+00	0	32	104	0	75	23600
2026-01-02 05:19:06.17	24.28	20.71	-55.0	-71.0	3.8	1.49e+00	0	32	104	0	75	23654
2026-01-02 05:19:07.17	24.04	20.76	-55.0	-71.0	3.8	1.49e+00	0	32	104	0	75	23592
2026-01-02 05:19:08.17	23.81	20.82	-55.0	-71.0	3.8	1.49e+00	0	32	104	0	75	23615
2026-01-02 05:19:09.17	23.57	20.87	-55.0	-71.0	3.8	1.49e+00	0	32	104	0	75	23632
2026-01-02 05:19:10.16	23.34	20.92	-55.0	-70.9	3.8	1.49e+00	0	32	104	0	75	23576
2026-01-02 05:19:11.16	23.10	20.98	-55.0	-71.0	3.8	1.49e+00	0	32	104	0	75	23627
2026-01-02 05:19:12.16	22.86	21.03	-55.0	-70.9	3.8	1.49e+00	0	32	104	0	75	23567
2026-01-02 05:19:13.15	22.62	21.08	-55.0	-71.0	3.8	1.49e+00	0	32	104	0	75	23650
2026-01-02 05:19:14.15	22.39	21.13	-55.0	-71.0	3.8	1.49e+00	0	32	104	0	75	23595
2026-01-02 05:19:15.14	22.15	21.18	-55.0	-70.9	3.8	1.49e+00	0	32	104	0	75	23574
2026-01-02 05:19:16.14	21.91	21.23	-55.0	-71.0	3.8	1.49e+00	0	32	104	0	75	23633
2026-01-02 05:19:17.13	21.67	21.28	-55.0	-70.9	3.8	1.49e+00	0	32	104	0	75	23543
2026-01-02 05:19:18.13	21.42	21.33	-55.0	-70.9	3.8	1.49e+00	0	32	104	0	75	23581
2026-01-02 05:19:19.13	21.18	21.38	-55.0	-70.9	3.8	1.49e+00	0	32	104	0	75	23533
2026-01-02 05:19:20.12	20.94	21.42	-55.0	-70.9	3.8	1.49e+00	0	32	104	0	75	23479
2026-01-02 05:19:21.12	20.69	21.47	-55.0	-70.9	3.8	1.49e+00	0	32	104	0	75	23515
2026-01-02 05:19:22.11	20.45	21.52	-55.0	-70.9	3.8	1.49e+00	0	32	104	0	75	23512
2026-01-02 05:19:23.11	20.20	21.57	-55.0	-70.9	3.8	1.49e+00	0	32	104	0	75	23504
2026-01-02 05:19:24.10	19.96	21.61	-55.0	-70.9	3.8	1.49e+00	0	32	104	0	75	23499
2026-01-02 05:19:25.10	19.71	21.66	-55.0	-70.9	3.8	1.49e+00	0	32	104	0	75	23500
2026-01-02 05:19:26.09	19.46	21.70	-55.0	-71.0	3.8	1.49e+00	0	33	104	0	75	23588
2026-01-02 05:19:27.08	19.22	21.75	-55.0	-71.0	3.8	1.49e+00	0	33	104	0	75	23668
2026-01-02 05:19:28.07	18.97	21.79	-55.0	-70.9	3.8	1.49e+00	0	32	104	0	75	23572
2026-01-02 05:19:29.07	18.72	21.84	-55.0	-71.0	3.8	1.49e+00	0	32	104	0	75	23617
2026-01-02 05:19:30.07	18.46	21.88	-55.0	-70.9	3.8	1.49e+00	0	32	104	0	75	23551
2026-01-02 05:19:31.07	18.21	21.92	-55.0	-71.0	3.8	1.49e+00	0	33	104	0	75	23597
2026-01-02 05:19:32.07	17.96	21.96	-55.0	-71.0	3.8	1.49e+00	0	32	104	0	75	23595
2026-01-02 05:19:33.07	17.71	22.01	-55.0	-71.0	3.8	1.49e+00	0	32	104	0	75	23608
2026-01-02 05:19:34.07	17.45	22.05	-55.0	-71.0	3.8	1.49e+00	0	32	104	0	75	23635
2026-01-02 05:19:35.07	17.20	22.09	-55.0	-71.0	3.8	1.49e+00	0	32	104	0	75	23685
2026-01-02 05:19:36.07	16.94	22.13	-54.7	-71.0	3.8	1.49e+00	0	32	104	0	75	23589
2026-01-02 05:19:37.07	16.68	22.17	-55.0	-71.0	3.8	1.49e+00	0	32	104	0	75	23590
2026-01-02 05:19:38.07	16.43	22.21	-55.0	-71.0	3.8	1.49e+00	0	32	104	0	75	23588
2026-01-02 05:19:39.07	16.17	22.25	-55.0	-71.0	3.8	1.49e+00	0	32	104	0	75	23582
2026-01-02 05:19:40.07	15.91	22.28	-55.0	-71.0	3.8	1.49e+00	0	32	104	0	75	23632
2026-01-02 05:19:41.08	15.65	22.32	-55.0	-71.0	3.8	1.49e+00	0	32	104	0	75	23626
2026-01-02 05:19:42.07	15.39	22.36	-55.0	-71.0	3.8	1.49e+00	0	33	104	0	75	23633
2026-01-02 05:19:43.07	15.13	22.40	-55.0	-71.0	3.8	1.49e+00	0	32	104	0	75	23594
2026-01-02 05:19:44.07	14.87	22.43	-55.0	-71.0	3.8	1.49e+00	0	32	104	0	75	23623
2026-01-02 05:19:45.06	14.61	22.47	-55.0	-70.9	3.8	1.49e+00	0	32	104	0	75	23576
2026-01-02 05:19:46.06	14.35	22.50	-55.0	-71.0	3.8	1.49e+00	0	32	104	0	75	23630
2026-01-02 05:19:47.07	14.08	22.53	-55.0	-71.0	3.8	1.49e+00	0	32	104	0	75	23663
2026-01-02 05:19:48.07	13.82	22.57	-55.0	-71.0	3.8	1.49e+00	0	33	104	0	75	23604
2026-01-02 05:19:49.07	13.55	22.60	-55.0	-71.0	3.8	1.49e+00	0	33	104	0	75	23663
2026-01-02 05:19:50.07	13.29	22.63	-55.0	-71.0	3.8	1.49e+00	0	33	104	0	75	23643
2026-01-02 05:19:51.07	13.02	22.66	-55.0	-71.0	3.8	1.49e+00	0	32	104	0	75	23689
2026-01-02 05:19:52.07	12.76	22.70	-55.0	-71.0	3.8	1.49e+00	0	32	104	0	75	23641
2026-01-02 05:19:53.07	12.49	22.73	-55.0	-71.0	3.8	1.49e+00	0	32	104	0	75	23614
2026-01-02 05:19:54.07	12.23	22.75	-55.0	-71.0	3.8	1.49e+00	0	32	104	0	75	23592
2026-01-02 05:19:55.07	11.96	22.78	-55.0	-70.9	3.8	1.49e+00	0	32	104	0	75	23575
2026-01-02 05:19:56.07	11.69	22.81	-55.0	-71.0	3.8	1.49e+00	0	32	104	0	75	23642
2026-01-02 05:19:57.07	11.42	22.84	-55.0	-71.0	3.8	1.49e+00	0	32	104	0	75	23600
2026-01-02 05:19:58.07	11.15	22.87	-55.0	-70.9	3.8	1.49e+00	0	32	104	0	75	23573
2026-01-02 05:19:59.07	10.89	22.89	-55.0	-71.0	3.8	1.49e+00	0	32	104	0	75	23687
2026-01-02 05:20:00.07	10.62	22.92	-55.0	-71.0	3.8	1.49e+00	0	32	104	0	75	23635
2026-01-02 05:20:01.07	10.35	22.94	-55.0	-71.0	3.8	1.49e+00	0	32	104	0	75	23718
2026-01-02 05:20:02.07	10.08	22.97	-55.0	-71.0	3.8	1.49e+00	0	33	104	0	75	23653
2026-01-02 05:20:03.07	9.81	22.99	-55.0	-71.0	3.8	1.49e+00	0	32	104	0	75	23596
2026-01-02 05:20:04.07	9.53	23.02	-55.0	-71.0	3.8	1.49e+00	0	32	104	0	75	23620
2026-01-02 05:20:05.07	9.26	23.04	-55.0	-71.0	3.8	1.49e+00	0	32	104	0	75	23622
2026-01-02 05:20:06.06	8.99	23.06	-55.0	-71.0	3.8	1.49e+00	0	32	104	0	75	23602
2026-01-02 05:20:07.07	8.72	23.08	-55.0	-71.0	3.8	1.49e+00	0	33	104	0	75	23605
2026-01-02 05:20:08.07	8.45	23.10	-55.0	-71.0	3.8	1.49e+00	0	32	104	0	75	23683
2026-01-02 05:20:09.08	8.17	23.12	-55.0	-71.0	3.8	1.49e+00	0	32	104	0	75	23593
2026-01-02 05:20:10.07	7.90	23.14	-55.0	-71.0	3.8	1.49e+00	0	32	104	0	75	23632
2026-01-02 05:20:11.07	7.62	23.16	-55.0	-71.0	3.8	1.49e+00	0	32	104	0	75	23606
2026-01-02 05:20:12.07	7.35	23.18	-55.0	-70.9	3.8	1.49e+00	0	32	104	0	75	23549
2026-01-02 05:20:13.07	7.08	23.19	-55.0	-71.0	3.8	1.49e+00	0	32	104	0	75	23614
2026-01-02 05:20:14.07	6.80	23.21	-55.0	-71.0	3.8	1.49e+00	0	33	104	0	75	23631
2026-01-02 05:20:15.07	6.53	23.22	-55.0	-71.0	3.8	1.49e+00	0	32	104	0	75	23612
2026-01-02 05:20:16.07	6.25	23.24	-55.0	-71.0	3.8	1.49e+00	0	32	104	0	75	23608
2026-01-02 05:20:17.07	5.98	23.25	-55.0	-71.0	3.8	1.49e+00	0	32	104	0	75	23650
2026-01-02 05:20:18.07	5.70	23.27	-55.0	-71.0	3.8	1.49e+00	0	32	104	0	75	23619
2026-01-02 05:20:19.06	5.43	23.28	-55.0	-71.0	3.8	1.49e+00	0	32	104	0	75	23631
2026-01-02 05:20:20.05	5.15	23.29	-55.0	-71.0	3.8	1.49e+00	0	32	104	0	75	23590
2026-01-02 05:20:21.06	4.87	23.30	-55.0	-71.0	3.8	1.49e+00	0	32	104	0	75	23663
2026-01-02 05:20:22.05	4.60	23.31	-55.0	-71.0	3.8	1.49e+00	0	32	104	0	75	23641
2026-01-02 05:20:23.05	4.32	23.32	-55.0	-71.0	3.8	1.49e+00	0	32	104	0	75	23605
2026-01-02 05:20:24.05	4.05	23.33	-55.0	-71.0	3.8	1.49e+00	0	32	104	0	75	23606
2026-01-02 05:20:25.04	3.77	23.34	-55.0	-71.0	3.8	1.49e+00	0	32	104	0	75	23601
2026-01-02 05:20:26.04	3.50	23.35	-55.0	-70.9	3.8	1.49e+00	0	32	104	0	75	23557
2026-01-02 05:20:27.04	3.22	23.35	-55.0	-71.0	3.8	1.49e+00	0	32	104	0	75	23619
2026-01-02 05:20:28.04	2.94	23.36	-55.0	-71.0	3.8	1.49e+00	0	33	104	0	75	23654
2026-01-02 05:20:29.04	2.66	23.37	-55.0	-71.0	3.8	1.49e+00	0	33	104	0	75	23619
2026-01-02 05:20:30.04	2.39	23.37	-55.0	-70.9	3.8	1.49e+00	0	32	104	0	75	23578
2026-01-02 05:20:31.04	2.11	23.37	-55.0	-71.0	3.8	1.49e+00	0	32	104	0	75	23617
2026-01-02 05:20:32.03	1.83	23.38	-55.0	-71.0	3.8	1.49e+00	0	32	104	0	75	23639
2026-01-02 05:20:33.04	1.55	23.38	-55.0	-71.0	3.8	1.49e+00	0	32	104	0	75	23615
2026-01-02 05:20:34.04	1.27	23.38	-55.0	-70.9	3.8	1.49e+00	0	33	104	0	75	23581
2026-01-02 05:20:35.04	1.00	23.38	-55.0	-71.0	3.8	1.49e+00	0	32	104	0	75	23608
2026-01-02 05:20:36.05	0.72	23.38	-55.0	-70.9	3.8	1.49e+00	0	32	104	0	75	23571
2026-01-02 05:20:37.06	0.43	23.38	-55.0	-71.0	3.8	1.49e+00	0	32	104	0	75	23619
2026-01-02 05:20:38.06	0.16	23.38	-55.0	-71.0	3.8	1.49e+00	0	32	104	0	75	23582
2026-01-02 05:20:39.06	359.88	23.38	-55.0	-71.0	3.8	1.49e+00	0	32	104	0	75	23586
2026-01-02 05:20:40.06	359.60	23.38	-55.0	-71.0	3.8	1.49e+00	0	32	104	0	75	23614
2026-01-02 05:20:41.06	359.32	23.38	-55.0	-70.9	3.8	1.49e+00	0	33	104	0	75	23579
2026-01-02 05:20:42.06	359.04	23.37	-55.0	-71.0	3.8	1.49e+00	0	33	104	0	75	23595
2026-01-02 05:20:43.06	358.77	23.37	-55.0	-70.9	3.8	1.49e+00	0	32	104	0	75	23566
2026-01-02 05:20:44.06	358.49	23.36	-55.0	-71.0	3.8	1.49e+00	0	32	104	0	75	23590
2026-01-02 05:20:45.06	358.21	23.36	-55.0	-70.9	3.8	1.49e+00	0	32	104	0	75	23568
2026-01-02 05:20:46.06	357.93	23.35	-55.0	-70.9	3.8	1.49e+00	0	32	104	0	75	23558
2026-01-02 05:20:47.07	357.65	23.34	-55.0	-71.0	3.8	1.49e+00	0	32	104	0	75	23609
2026-01-02 05:20:48.07	357.38	23.33	-55.0	-71.0	3.8	1.49e+00	0	32	104	0	75	23607
2026-01-02 05:20:49.07	357.10	23.32	-55.0	-70.9	3.8	1.49e+00	0	32	104	0	75	23559
2026-01-02 05:20:50.07	356.82	23.31	-55.0	-70.9	3.8	1.49e+00	0	33	104	0	75	23557
2026-01-02 05:20:51.06	356.55	23.30	-55.0	-70.9	3.8	1.49e+00	0	32	104	0	75	23553
2026-01-02 05:20:52.07	356.27	23.29	-55.0	-71.0	3.8	1.49e+00	0	32	104	0	75	23631
2026-01-02 05:20:53.07	355.99	23.28	-55.0	-71.0	3.8	1.49e+00	0	33	104	0	75	23660
2026-01-02 05:20:54.07	355.72	23.27	-55.0	-71.0	3.9	1.49e+00	0	32	104	0	75	23623
2026-01-02 05:20:55.07	355.44	23.25	-55.0	-71.0	3.8	1.49e+00	0	32	104	0	75	23625
2026-01-02 05:20:56.07	355.17	23.24	-55.0	-71.0	3.8	1.49e+00	0	32	104	0	75	23632
2026-01-02 05:20:57.06	354.90	23.23	-55.0	-71.0	3.8	1.49e+00	0	32	104	0	75	23634
2026-01-02 05:20:58.06	354.62	23.21	-55.0	-71.0	3.8	1.49e+00	0	32	104	0	75	23602
2026-01-02 05:20:59.05	354.35	23.19	-55.0	-70.9	3.8	1.49e+00	0	32	104	0	75	23565
2026-01-02 05:21:00.06	354.07	23.18	-55.0	-71.0	3.8	1.49e+00	0	32	104	0	75	23620
2026-01-02 05:21:01.05	353.80	23.16	-55.0	-70.9	3.8	1.49e+00	0	32	104	0	75	23542
2026-01-02 05:21:02.05	353.53	23.14	-55.0	-71.0	3.8	1.49e+00	0	32	104	0	75	23628
2026-01-02 05:21:03.05	353.25	23.12	-55.0	-71.0	3.8	1.49e+00	0	33	104	0	75	23607
2026-01-02 05:21:04.05	352.98	23.10	-55.0	-70.9	3.8	1.49e+00	0	32	104	0	75	23580
2026-01-02 05:21:05.05	352.71	23.08	-55.0	-70.9	3.8	1.49e+00	0	33	104	0	75	23564
2026-01-02 05:21:06.05	352.43	23.06	-55.0	-70.9	3.8	1.49e+00	0	32	104	0	75	23579
2026-01-02 05:21:07.05	352.16	23.04	-55.0	-70.9	3.8	1.49e+00	0	32	104	0	75	23549
2026-01-02 05:21:08.05	351.89	23.02	-55.0	-71.0	3.8	1.49e+00	0	32	104	0	75	23585
2026-01-02 05:21:09.05	351.62	22.99	-55.0	-71.0	3.8	1.49e+00	0	33	104	0	75	23641
2026-01-02 05:21:10.05	351.35	22.97	-55.0	-71.0	3.8	1.49e+00	0	32	104	0	75	23585
2026-01-02 05:21:11.05	351.08	22.95	-55.0	-70.9	3.8	1.49e+00	0	32	104	0	75	23560
2026-01-02 05:21:12.04	350.81	22.92	-55.0	-70.9	3.8	1.49e+00	0	32	104	0	75	23551
2026-01-02 05:21:13.03	350.54	22.90	-55.0	-70.9	3.8	1.49e+00	0	32	104	0	75	23577
2026-01-02 05:21:14.03	350.27	22.87	-55.0	-71.0	3.8	1.49e+00	0	33	104	0	75	23584
2026-01-02 05:21:15.03	350.01	22.84	-55.0	-71.0	3.8	1.49e+00	0	32	104	0	75	23617
2026-01-02 05:21:16.03	349.74	22.82	-55.0	-71.0	3.8	1.49e+00	0	32	104	0	75	23668
2026-01-02 05:21:17.03	349.47	22.79	-55.0	-71.0	3.8	1.49e+00	0	33	104	0	75	23622
2026-01-02 05:21:18.02	349.21	22.76	-55.0	-70.9	3.8	1.49e+00	0	33	104	0	75	23580
2026-01-02 05:21:19.02	348.94	22.73	-55.0	-71.0	3.8	1.49e+00	0	32	104	0	75	23678
2026-01-02 05:21:20.02	348.67	22.70	-55.0	-71.0	3.8	1.49e+00	0	32	104	0	75	23613
2026-01-02 05:21:20.96	348.42	22.67	-55.0	-70.9	3.8	1.49e+00	0	32	104	0	75	23579
2026-01-02 05:21:21.94	348.16	22.64	-55.0	-71.0	3.8	1.49e+00	0	32	104	0	75	23664
2026-01-02 05:21:22.94	347.90	22.61	-55.0	-71.0	3.8	1.49e+00	0	32	104	0	75	23616
2026-01-02 05:21:23.93	347.64	22.57	-55.0	-71.0	3.8	1.49e+00	0	32	104	0	75	23594
2026-01-02 05:21:24.94	347.37	22.54	-55.0	-71.0	3.8	1.49e+00	0	32	104	0	75	23693
2026-01-02 05:21:25.94	347.11	22.51	-55.0	-70.9	3.8	1.49e+00	0	32	104	0	75	23556
2026-01-02 05:21:26.94	346.85	22.47	-55.0	-71.0	3.8	1.49e+00	0	32	104	0	75	23638
2026-01-02 05:21:27.93	346.59	22.44	-55.0	-71.0	3.8	1.49e+00	0	32	104	0	75	23594
2026-01-02 05:21:28.94	346.32	22.40	-55.0	-71.0	3.8	1.49e+00	0	33	104	0	75	23594
2026-01-02 05:21:29.94	346.06	22.37	-55.0	-70.9	3.8	1.49e+00	0	32	104	0	75	23561
2026-01-02 05:21:30.94	345.80	22.33	-55.0	-70.9	3.8	1.49e+00	0	32	104	0	75	23579
2026-01-02 05:21:31.94	345.54	22.29	-55.0	-71.0	3.8	1.49e+00	0	32	104	0	75	23602
2026-01-02 05:21:32.94	345.28	22.25	-55.0	-71.0	3.8	1.49e+00	0	32	104	0	75	23634
2026-01-02 05:21:33.94	345.03	22.22	-55.0	-71.0	3.8	1.49e+00	0	32	104	0	75	23596
2026-01-02 05:21:34.94	344.77	22.18	-55.0	-71.0	3.8	1.49e+00	0	32	104	0	75	23612
2026-01-02 05:21:35.94	344.51	22.14	-55.0	-70.9	3.8	1.49e+00	0	32	104	0	75	23575
2026-01-02 05:21:36.94	344.26	22.10	-55.0	-71.0	3.8	1.49e+00	0	33	104	0	75	23586
2026-01-02 05:21:37.93	344.00	22.06	-55.0	-71.0	3.8	1.49e+00	0	32	104	0	75	23616
2026-01-02 05:21:38.93	343.75	22.02	-55.0	-71.0	3.8	1.49e+00	0	32	104	0	75	23658
2026-01-02 05:21:39.93	343.49	21.97	-55.0	-71.0	3.8	1.49e+00	0	32	104	0	75	23600
2026-01-02 05:21:40.93	343.24	21.93	-55.0	-71.0	3.8	1.49e+00	0	32	104	0	75	23591
2026-01-02 05:21:41.93	342.99	21.89	-55.0	-70.9	3.8	1.49e+00	0	32	104	0	75	23578
2026-01-02 05:21:42.93	342.74	21.85	-55.0	-71.0	3.8	1.49e+00	0	32	104	0	75	23625
2026-01-02 05:21:43.93	342.49	21.80	-55.0	-70.9	3.8	1.49e+00	0	32	104	0	75	23548
2026-01-02 05:21:44.92	342.24	21.76	-55.0	-70.9	3.8	1.49e+00	0	32	104	0	75	23561
2026-01-02 05:21:45.92	341.99	21.71	-55.0	-70.9	3.8	1.49e+00	0	33	104	0	75	23570
2026-01-02 05:21:46.92	341.74	21.67	-55.0	-70.9	3.8	1.49e+00	0	32	104	0	75	23565
2026-01-02 05:21:47.92	341.49	21.62	-55.0	-71.0	3.8	1.49e+00	0	32	104	0	75	23636
2026-01-02 05:21:48.92	341.24	21.57	-55.0	-71.0	3.8	1.49e+00	0	32	104	0	75	23602
2026-01-02 05:21:49.92	341.00	21.53	-55.0	-71.0	3.8	1.49e+00	0	32	104	0	75	23616
2026-01-02 05:21:50.91	340.75	21.48	-55.0	-71.0	3.8	1.49e+00	0	32	104	0	75	23621
2026-01-02 05:21:51.92	340.50	21.43	-55.0	-71.0	3.8	1.49e+00	0	32	104	0	75	23593
2026-01-02 05:21:52.92	340.26	21.38	-55.0	-70.9	3.8	1.49e+00	0	33	104	0	75	23528
2026-01-02 05:21:53.92	340.02	21.34	-55.0	-70.9	3.8	1.49e+00	0	32	104	0	75	23574
2026-01-02 05:21:54.92	339.77	21.29	-55.0	-71.0	3.8	1.49e+00	0	33	104	0	75	23610
2026-01-02 05:21:55.91	339.53	21.24	-55.0	-70.9	3.8	1.49e+00	0	33	104	0	75	23566
2026-01-02 05:21:56.90	339.29	21.19	-55.0	-70.9	3.8	1.49e+00	0	32	104	0	75	23567
2026-01-02 05:21:57.90	339.05	21.14	-55.0	-70.9	3.8	1.49e+00	0	32	104	0	75	23564
2026-01-02 05:21:58.90	338.81	21.09	-55.0	-71.0	3.8	1.49e+00	0	32	104	0	75	23625
2026-01-02 05:21:59.90	338.58	21.04	-55.0	-71.0	3.8	1.49e+00	0	32	104	0	75	23588
2026-01-02 05:22:00.90	338.34	20.98	-55.0	-71.0	3.8	1.49e+00	0	32	104	0	75	23599
2026-01-02 05:22:01.90	338.10	20.93	-55.0	-71.0	3.8	1.49e+00	0	32	104	0	75	23601
2026-01-02 05:22:02.90	337.86	20.88	-55.0	-71.0	3.8	1.49e+00	0	32	104	0	75	23589
2026-01-02 05:22:03.90	337.63	20.83	-55.0	-71.0	3.8	1.49e+00	0	33	104	0	75	23604
2026-01-02 05:22:04.90	337.39	20.77	-55.0	-71.0	3.8	1.49e+00	0	32	104	0	75	23679
2026-01-02 05:22:05.90	337.16	20.72	-55.0	-70.9	3.8	1.49e+00	0	32	104	0	75	23575
2026-01-02 05:22:06.90	336.93	20.66	-55.0	-71.0	3.8	1.49e+00	0	32	104	0	75	23631
2026-01-02 05:22:07.89	336.69	20.61	-55.0	-71.0	3.8	1.49e+00	0	32	104	0	75	23628
2026-01-02 05:22:08.89	336.46	20.55	-55.0	-71.0	3.8	1.49e+00	0	32	104	0	75	23611
2026-01-02 05:22:09.89	336.23	20.50	-55.0	-71.0	3.8	1.49e+00	0	32	104	0	75	23616
2026-01-02 05:22:10.89	336.00	20.44	-55.0	-70.9	3.8	1.49e+00	0	32	104	0	75	23568
2026-01-02 05:22:11.89	335.77	20.39	-55.0	-70.9	3.8	1.49e+00	0	32	104	0	75	23540
2026-01-02 05:22:12.88	335.55	20.33	-55.0	-70.9	3.8	1.49e+00	0	32	104	0	75	23579
2026-01-02 05:22:13.88	335.32	20.28	-55.0	-70.9	3.8	1.49e+00	0	32	104	0	75	23547
2026-01-02 05:22:14.88	335.09	20.22	-55.0	-71.0	3.8	1.49e+00	0	32	104	0	75	23589
2026-01-02 05:22:15.88	334.87	20.16	-55.0	-70.9	3.8	1.49e+00	0	33	104	0	75	23567
2026-01-02 05:22:16.88	334.64	20.10	-55.0	-71.0	3.8	1.49e+00	0	32	104	0	75	23637
2026-01-02 05:22:17.88	334.42	20.04	-55.0	-71.0	3.8	1.49e+00	0	32	104	0	75	23618
2026-01-02 05:22:18.88	334.20	19.99	-55.0	-70.9	3.8	1.49e+00	0	32	104	0	75	23580
2026-01-02 05:22:19.87	333.98	19.93	-55.0	-71.0	3.8	1.49e+00	0	33	104	0	75	23601
2026-01-02 05:22:20.86	333.76	19.87	-55.0	-70.9	3.8	1.49e+00	0	32	104	0	75	23578
2026-01-02 05:22:21.86	333.54	19.81	-55.0	-71.0	3.8	1.49e+00	0	32	104	0	75	23611
2026-01-02 05:22:22.86	333.32	19.75	-55.0	-71.0	3.8	1.49e+00	0	32	104	0	75	23586
2026-01-02 05:22:23.86	333.10	19.69	-55.0	-71.0	3.8	1.49e+00	0	32	104	0	75	23606
2026-01-02 05:22:24.86	332.88	19.63	-55.0	-71.0	3.8	1.49e+00	0	32	104	0	75	23618
2026-01-02 05:22:25.85	332.66	19.57	-55.0	-70.9	3.8	1.49e+00	0	32	104	0	75	23576
2026-01-02 05:22:26.84	332.45	19.51	-55.0	-71.0	3.8	1.49e+00	0	32	104	0	75	23606
2026-01-02 05:22:27.83	332.24	19.45	-55.0	-71.0	3.8	1.49e+00	0	33	104	0	75	23609
2026-01-02 05:22:28.83	332.02	19.39	-55.0	-71.0	3.8	1.49e+00	0	32	104	0	75	23613
2026-01-02 05:22:29.82	331.81	19.33	-55.0	-71.0	3.8	1.49e+00	0	32	104	0	75	23589
2026-01-02 05:22:30.82	331.60	19.27	-55.0	-70.9	3.8	1.49e+00	0	33	104	0	75	23561
2026-01-02 05:22:31.82	331.39	19.20	-55.0	-71.0	3.8	1.49e+00	0	32	104	0	75	23592
2026-01-02 05:22:32.81	331.18	19.14	-55.0	-71.0	3.8	1.49e+00	0	32	104	0	75	23588
2026-01-02 05:22:33.80	330.97	19.08	-55.0	-70.9	3.8	1.49e+00	0	32	104	0	75	23554
2026-01-02 05:22:34.81	330.76	19.02	-55.0	-70.9	3.8	1.49e+00	0	33	104	0	75	23574
2026-01-02 05:22:35.80	330.55	18.95	-55.0	-70.9	3.8	1.49e+00	0	33	104	0	75	23520
2026-01-02 05:22:36.81	330.34	18.89	-55.0	-71.0	3.8	1.49e+00	0	32	104	0	75	23597
2026-01-02 05:22:37.80	330.14	18.83	-55.0	-70.9	3.8	1.49e+00	0	32	104	0	75	23514
2026-01-02 05:22:38.81	329.93	18.76	-55.0	-70.9	3.8	1.49e+00	0	33	104	0	75	23455
2026-01-02 05:22:39.80	329.73	18.70	-55.0	-71.0	3.8	1.49e+00	0	32	104	0	75	23583
2026-01-02 05:22:40.81	329.52	18.63	-55.0	-70.9	3.8	1.49e+00	0	32	104	0	75	23565
2026-01-02 05:22:41.80	329.32	18.57	-55.0	-70.9	3.8	1.49e+00	0	33	104	0	75	23535
2026-01-02 05:22:42.80	329.12	18.50	-55.0	-70.9	3.8	1.49e+00	0	32	104	0	75	23534
2026-01-02 05:22:43.80	328.92	18.44	-55.0	-70.9	3.8	1.49e+00	0	32	104	0	75	23479
2026-01-02 05:22:44.80	328.72	18.37	-55.0	-71.0	3.8	1.49e+00	0	32	104	0	75	23598
2026-01-02 05:22:45.80	328.52	18.31	-55.0	-70.9	3.8	1.49e+00	0	32	104	0	75	23516
2026-01-02 05:22:46.80	328.32	18.24	-55.0	-70.9	3.8	1.49e+00	0	32	104	0	75	23529
2026-01-02 05:22:47.80	328.12	18.18	-55.0	-70.9	3.8	1.49e+00	0	32	104	0	75	23538
2026-01-02 05:22:48.79	327.92	18.11	-55.0	-70.9	3.8	1.49e+00	0	32	104	0	75	23573
2026-01-02 05:22:49.79	327.73	18.05	-55.0	-71.0	3.8	1.49e+00	0	32	104	0	75	23583
2026-01-02 05:22:50.79	327.53	17.98	-55.0	-70.9	3.8	1.49e+00	0	33	104	0	75	23532
2026-01-02 05:22:51.79	327.34	17.91	-55.0	-70.9	3.8	1.49e+00	0	33	104	0	75	23558
2026-01-02 05:22:52.79	327.14	17.85	-55.0	-70.9	3.8	1.49e+00	0	32	104	0	75	23500
2026-01-02 05:22:53.78	326.95	17.78	-55.0	-70.9	3.8	1.49e+00	0	32	104	0	75	23504
2026-01-02 05:22:54.78	326.76	17.72	-55.0	-70.9	3.8	1.49e+00	0	32	104	0	75	23578
2026-01-02 05:22:55.78	326.57	17.65	-55.0	-71.0	3.8	1.49e+00	0	32	104	0	75	23599
2026-01-02 05:22:56.78	326.38	17.58	-55.0	-71.0	3.8	1.49e+00	0	33	104	0	75	23598
2026-01-02 05:22:57.78	326.19	17.51	-55.0	-71.0	3.8	1.49e+00	0	32	104	0	75	23595
2026-01-02 05:22:58.78	326.00	17.45	-55.0	-71.0	3.8	1.49e+00	0	33	104	0	75	23600
2026-01-02 05:22:59.78	325.81	17.38	-55.0	-71.0	3.8	1.49e+00	0	32	104	0	75	23643
2026-01-02 05:23:00.78	325.63	17.31	-55.0	-71.0	3.8	1.49e+00	0	32	104	0	75	23595
2026-01-02 05:23:01.78	325.44	17.24	-55.0	-71.0	3.8	1.49e+00	0	32	104	0	75	23610
2026-01-02 05:23:02.78	325.26	17.18	-55.0	-70.9	3.8	1.49e+00	0	33	104	0	75	23570
2026-01-02 05:23:03.78	325.07	17.11	-55.0	-71.0	3.8	1.49e+00	0	32	104	0	75	23599
2026-01-02 05:23:04.78	324.89	17.04	-55.0	-70.9	3.8	1.49e+00	0	32	104	0	75	23544
2026-01-02 05:23:05.79	324.70	16.97	-55.0	-70.9	3.8	1.49e+00	0	33	104	0	75	23565
2026-01-02 05:23:06.79	324.52	16.90	-55.0	-71.0	3.8	1.49e+00	0	33	104	0	75	23614
2026-01-02 05:23:07.78	324.34	16.83	-55.0	-71.0	3.8	1.49e+00	0	32	104	0	75	23606
2026-01-02 05:23:08.79	324.16	16.77	-55.0	-70.9	3.8	1.49e+00	0	33	104	0	75	23578
2026-01-02 05:23:09.78	323.98	16.70	-55.0	-70.9	3.8	1.49e+00	0	32	104	0	75	23571
2026-01-02 05:23:10.78	323.81	16.63	-55.0	-70.9	3.8	1.49e+00	0	33	104	0	75	23516
2026-01-02 05:23:11.79	323.63	16.56	-55.0	-70.9	3.8	1.49e+00	0	33	104	0	75	23527
2026-01-02 05:23:12.78	323.45	16.49	-55.0	-70.9	3.8	1.49e+00	0	32	104	0	75	23508
2026-01-02 05:23:13.79	323.27	16.42	-55.0	-70.9	3.8	1.49e+00	0	32	104	0	75	23554
2026-01-02 05:23:14.78	323.10	16.35	-55.0	-70.9	3.8	1.49e+00	0	32	104	0	75	23496
2026-01-02 05:23:15.78	322.93	16.28	-55.0	-70.9	3.8	1.49e+00	0	32	104	0	75	23525
2026-01-02 05:23:16.78	322.75	16.21	-55.0	-70.9	3.8	1.49e+00	0	32	104	0	75	23522
2026-01-02 05:23:17.78	322.58	16.14	-55.0	-70.9	3.8	1.49e+00	0	32	104	0	75	23537
2026-01-02 05:23:18.78	322.41	16.08	-55.0	-71.0	3.8	1.49e+00	0	33	104	0	75	23582
2026-01-02 05:23:19.77	322.24	16.01	-55.0	-70.9	3.8	1.49e+00	0	32	104	0	75	23519
2026-01-02 05:23:20.77	322.07	15.94	-55.0	-70.9	3.8	1.49e+00	0	32	104	0	75	23512
2026-01-02 05:23:21.77	321.90	15.87	-55.0	-70.9	3.8	1.49e+00	0	32	104	0	75	23560
2026-01-02 05:23:22.76	321.73	15.80	-55.0	-70.9	3.8	1.49e+00	0	32	104	0	75	23578
2026-01-02 05:23:23.76	321.56	15.73	-55.0	-70.9	3.8	1.49e+00	0	32	104	0	75	23555
2026-01-02 05:23:24.75	321.40	15.66	-55.0	-70.9	3.8	1.49e+00	0	33	104	0	75	23553
2026-01-02 05:23:25.73	321.24	15.59	-55.0	-70.9	3.8	1.49e+00	0	32	104	0	75	23578
2026-01-02 05:23:26.73	321.07	15.52	-55.0	-70.9	3.8	1.49e+00	0	33	104	0	75	23556
2026-01-02 05:23:27.72	320.91	15.45	-55.0	-70.9	3.8	1.49e+00	0	32	104	0	75	23560
2026-01-02 05:23:28.71	320.74	15.38	-55.0	-70.9	3.8	1.49e+00	0	32	104	0	75	23487
2026-01-02 05:23:29.71	320.58	15.31	-55.0	-70.9	3.8	1.49e+00	0	33	104	0	75	23545
2026-01-02 05:23:30.71	320.42	15.24	-55.0	-70.9	3.8	1.49e+00	0	32	104	0	75	23503
2026-01-02 05:23:31.71	320.26	15.17	-55.0	-70.9	3.8	1.49e+00	0	32	104	0	75	23482
2026-01-02 05:23:32.71	320.10	15.10	-55.0	-70.9	3.8	1.49e+00	0	33	104	0	75	23482
2026-01-02 05:23:33.71	319.94	15.03	-55.0	-70.9	3.8	1.49e+00	0	32	104	0	75	23454
2026-01-02 05:23:34.70	319.78	14.96	-55.0	-70.9	3.8	1.49e+00	0	32	104	0	75	23437
2026-01-02 05:23:35.70	319.62	14.89	-55.0	-70.9	3.8	1.49e+00	0	32	104	0	75	23455
2026-01-02 05:23:36.70	319.46	14.82	-55.0	-70.9	3.8	1.49e+00	0	32	104	0	75	23488
2026-01-02 05:23:37.70	319.31	14.75	-55.0	-70.9	3.8	1.49e+00	0	32	104	0	75	23483
2026-01-02 05:23:38.70	319.15	14.68	-55.0	-70.9	3.8	1.49e+00	0	32	104	0	75	23492
2026-01-02 05:23:39.69	318.99	14.61	-55.0	-70.9	3.8	1.49e+00	0	32	104	0	75	23487
2026-01-02 05:23:40.70	318.84	14.54	-55.0	-70.9	3.8	1.49e+00	0	32	104	0	75	23519
2026-01-02 05:23:41.70	318.68	14.47	-55.0	-70.9	3.8	1.49e+00	0	32	104	0	75	23505
2026-01-02 05:23:42.70	318.53	14.40	-55.0	-70.9	3.8	1.49e+00	0	33	104	0	75	23537
2026-01-02 05:23:43.70	318.38	14.33	-55.0	-70.9	3.8	1.49e+00	0	33	104	0	75	23559
2026-01-02 05:23:44.70	318.23	14.26	-55.0	-70.9	3.8	1.49e+00	0	32	104	0	75	23542
2026-01-02 05:23:45.70	318.08	14.19	-55.0	-71.0	3.8	1.49e+00	0	32	104	0	75	23588
2026-01-02 05:23:46.70	317.93	14.12	-55.0	-71.0	3.8	1.49e+00	0	32	104	0	75	23600
2026-01-02 05:23:47.70	317.78	14.05	-55.0	-70.9	3.8	1.49e+00	0	32	104	0	75	23505
2026-01-02 05:23:48.69	317.63	13.98	-55.0	-70.9	3.8	1.49e+00	0	32	104	0	75	23575
2026-01-02 05:23:49.69	317.48	13.91	-55.0	-70.9	3.8	1.49e+00	0	33	104	0	75	23505
2026-01-02 05:23:50.69	317.33	13.84	-55.0	-70.9	3.8	1.49e+00	0	32	104	0	75	23535
2026-01-02 05:23:51.70	317.18	13.77	-55.0	-71.0	3.8	1.49e+00	0	32	104	0	75	23596
2026-01-02 05:23:52.70	317.04	13.70	-55.0	-70.9	3.8	1.49e+00	0	33	104	0	75	23526
2026-01-02 05:23:53.70	316.89	13.63	-55.0	-70.9	3.8	1.49e+00	0	32	104	0	75	23520
2026-01-02 05:23:54.69	316.75	13.56	-55.0	-70.9	3.8	1.49e+00	0	32	104	0	75	23547
2026-01-02 05:23:55.69	316.61	13.49	-55.0	-70.9	3.8	1.49e+00	0	32	104	0	75	23482
2026-01-02 05:23:56.70	316.46	13.42	-55.0	-70.9	3.8	1.49e+00	0	33	104	0	75	23438
2026-01-02 05:23:57.70	316.32	13.35	-55.0	-70.9	3.8	1.49e+00	0	33	104	0	75	23504
2026-01-02 05:23:58.69	316.18	13.28	-55.0	-70.9	3.8	1.49e+00	0	33	104	0	75	23460
2026-01-02 05:23:59.70	316.03	13.21	-55.0	-70.9	3.8	1.49e+00	0	32	104	0	75	23382
2026-01-02 05:24:00.69	315.90	13.14	-55.0	-70.9	3.8	1.49e+00	0	32	104	0	75	23391
2026-01-02 05:24:01.69	315.76	13.07	-55.0	-70.8	3.8	1.49e+00	0	33	104	0	75	23212
2026-01-02 05:24:02.68	315.62	13.00	-55.0	-70.8	3.8	1.49e+00	0	32	104	0	75	23296
2026-01-02 05:24:03.69	315.48	12.93	-55.0	-70.8	3.8	1.49e+00	0	32	104	0	75	23205
2026-01-02 05:24:04.69	315.34	12.86	-55.0	-70.8	3.8	1.49e+00	0	32	104	0	75	23178
2026-01-02 05:24:05.68	315.20	12.79	-55.0	-70.8	3.8	1.49e+00	0	32	104	0	75	23180
2026-01-02 05:24:06.67	315.07	12.72	-55.0	-70.8	3.8	1.49e+00	0	32	104	0	75	23193
2026-01-02 05:24:07.67	314.93	12.65	-55.0	-70.8	3.8	1.49e+00	0	33	104	0	75	23187
2026-01-02 05:24:08.68	314.80	12.58	-55.0	-70.8	3.8	1.49e+00	0	33	104	0	75	23192
2026-01-02 05:24:09.67	314.66	12.51	-55.0	-70.9	3.8	1.49e+00	0	33	104	0	75	23335
2026-01-02 05:24:10.67	314.53	12.44	-55.0	-70.9	3.8	1.49e+00	0	32	104	0	75	23400
2026-01-02 05:24:11.67	314.40	12.37	-55.0	-70.9	3.8	1.49e+00	0	32	104	0	75	23447
2026-01-02 05:24:12.67	314.26	12.31	-55.0	-70.9	3.8	1.49e+00	0	32	104	0	75	23486
2026-01-02 05:24:13.67	314.13	12.24	-55.0	-70.9	3.8	1.49e+00	0	32	104	0	75	23554
2026-01-02 05:24:14.67	314.00	12.17	-55.0	-70.9	3.8	1.49e+00	0	33	104	0	75	23571
2026-01-02 05:24:15.68	313.87	12.10	-55.0	-70.9	3.8	1.49e+00	0	32	104	0	75	23565
2026-01-02 05:24:16.68	313.74	12.03	-55.0	-70.9	3.8	1.49e+00	0	32	104	0	75	23504
2026-01-02 05:24:17.68	313.61	11.96	-55.0	-70.9	3.8	1.49e+00	0	32	104	0	75	23465
2026-01-02 05:24:18.68	313.48	11.89	-55.0	-70.9	3.8	1.49e+00	0	32	104	0	75	23413
2026-01-02 05:24:19.67	313.35	11.82	-55.0	-70.9	3.8	1.49e+00	0	32	104	0	75	23319
2026-01-02 05:24:20.67	313.22	11.75	-55.0	-70.9	3.8	1.49e+00	0	32	104	0	75	23334
2026-01-02 05:24:21.67	313.10	11.68	-55.0	-70.9	3.8	1.49e+00	0	32	104	0	75	23350
2026-01-02 05:24:22.67	312.97	11.61	-55.0	-70.9	3.8	1.49e+00	0	32	104	0	75	23375
2026-01-02 05:24:23.66	312.85	11.54	-55.0	-70.9	3.8	1.49e+00	0	32	104	0	75	23495
2026-01-02 05:24:24.65	312.72	11.48	-55.0	-70.9	3.8	1.49e+00	0	32	104	0	75	23520
2026-01-02 05:24:25.65	312.60	11.41	-55.0	-70.9	3.8	1.49e+00	0	32	104	0	75	23566
2026-01-02 05:24:26.65	312.47	11.34	-55.0	-70.9	3.8	1.49e+00	0	33	104	0	75	23536
2026-01-02 05:24:27.64	312.35	11.27	-55.0	-71.0	3.9	1.49e+00	0	32	104	0	75	23587
2026-01-02 05:24:28.63	312.23	11.20	-55.0	-70.9	3.8	1.49e+00	0	32	104	0	75	23529
2026-01-02 05:24:29.63	312.11	11.13	-55.0	-70.9	3.8	1.49e+00	0	32	104	0	75	23521
2026-01-02 05:24:30.62	311.99	11.07	-55.0	-70.9	3.8	1.49e+00	0	32	104	0	75	23483
2026-01-02 05:24:31.62	311.87	11.00	-55.0	-70.9	3.8	1.49e+00	0	33	104	0	75	23467
2026-01-02 05:24:32.62	311.75	10.93	-55.0	-70.9	3.8	1.49e+00	0	32	104	0	75	23467
2026-01-02 05:24:33.62	311.63	10.86	-55.0	-70.9	3.8	1.49e+00	0	33	104	0	75	23567
2026-01-02 05:24:34.62	311.51	10.79	-55.0	-71.0	3.8	1.49e+00	0	32	104	0	75	23598
2026-01-02 05:24:35.62	311.39	10.72	-55.0	-70.9	3.8	1.49e+00	0	32	104	0	75	23492
2026-01-02 05:24:36.62	311.27	10.66	-55.0	-70.9	3.8	1.49e+00	0	32	104	0	75	23572
2026-01-02 05:24:37.62	311.15	10.59	-55.0	-70.9	3.8	1.49e+00	0	33	104	0	75	23555
2026-01-02 05:24:38.61	311.04	10.52	-55.0	-70.9	3.8	1.49e+00	0	32	104	0	75	23550
2026-01-02 05:24:39.62	310.92	10.45	-55.0	-70.9	3.8	1.49e+00	0	32	104	0	75	23534
2026-01-02 05:24:40.62	310.80	10.38	-55.0	-71.0	3.8	1.49e+00	0	32	104	0	75	23588
2026-01-02 05:24:41.61	310.69	10.32	-55.0	-70.9	3.8	1.49e+00	0	33	104	0	75	23505
2026-01-02 05:24:42.61	310.57	10.25	-55.0	-70.9	3.8	1.49e+00	0	32	104	0	75	23522
2026-01-02 05:24:43.60	310.46	10.18	-55.0	-70.9	3.8	1.49e+00	0	32	104	0	75	23474
2026-01-02 05:24:44.60	310.35	10.11	-55.0	-70.9	3.8	1.49e+00	0	32	104	0	75	23399
2026-01-02 05:24:45.60	310.23	10.05	-55.0	-70.9	3.8	1.49e+00	0	32	104	0	75	23502
2026-01-02 05:24:46.60	310.12	9.98	-55.0	-70.9	3.8	1.49e+00	0	32	104	0	75	23484
2026-01-02 05:24:47.60	310.01	9.91	-55.0	-70.9	3.8	1.49e+00	0	32	104	0	75	23547
2026-01-02 05:24:48.60	309.90	9.85	-55.0	-70.9	3.8	1.49e+00	0	33	104	0	75	23542
2026-01-02 05:24:49.60	309.78	9.78	-55.0	-70.9	3.8	1.49e+00	0	33	104	0	75	23576
2026-01-02 05:24:50.61	309.67	9.71	-55.0	-70.9	3.8	1.49e+00	0	32	104	0	75	23557
2026-01-02 05:24:51.60	309.56	9.64	-55.0	-70.9	3.8	1.49e+00	0	32	104	0	75	23550
2026-01-02 05:24:52.61	309.45	9.58	-55.0	-71.0	3.8	1.49e+00	0	32	104	0	75	23591
2026-01-02 05:24:53.61	309.34	9.51	-54.6	-70.9	3.8	1.49e+00	0	32	104	0	75	23578
2026-01-02 05:24:54.61	309.24	9.44	-55.0	-70.9	3.8	1.49e+00	0	32	104	0	75	23528
2026-01-02 05:24:55.60	309.13	9.38	-55.0	-70.9	3.9	1.49e+00	0	32	104	0	75	23479
2026-01-02 05:24:56.61	309.02	9.31	-55.0	-70.9	3.8	1.49e+00	0	32	104	0	75	23551
2026-01-02 05:24:57.61	308.91	9.24	-55.0	-70.9	3.8	1.49e+00	0	32	104	0	75	23578
2026-01-02 05:24:58.61	308.81	9.18	-55.0	-70.9	3.8	1.49e+00	0	32	104	0	75	23551
2026-01-02 05:24:59.61	308.70	9.11	-55.0	-70.9	3.8	1.49e+00	0	32	104	0	75	23541
2026-01-02 05:25:00.61	308.59	9.04	-55.0	-70.9	3.8	1.49e+00	0	32	104	0	75	23559
2026-01-02 05:25:01.61	308.49	8.98	-55.0	-70.9	3.8	1.49e+00	0	33	104	0	75	23508
2026-01-02 05:25:02.61	308.39	8.91	-55.0	-70.9	3.8	1.49e+00	0	33	104	0	75	23515
2026-01-02 05:25:03.60	308.28	8.85	-55.0	-71.0	3.8	1.49e+00	0	32	104	0	75	23586
2026-01-02 05:25:04.61	308.18	8.78	-55.0	-70.9	3.8	1.49e+00	0	33	104	0	75	23493
2026-01-02 05:25:05.61	308.07	8.71	-55.0	-70.9	3.8	1.49e+00	0	33	104	0	75	23567
2026-01-02 05:25:06.61	307.97	8.65	-55.0	-70.9	3.8	1.49e+00	0	32	104	0	75	23533
2026-01-02 05:25:07.62	307.87	8.58	-55.0	-70.9	3.8	1.49e+00	0	32	104	0	75	23576
2026-01-02 05:25:08.62	307.77	8.51	-55.0	-70.9	3.8	1.49e+00	0	32	104	0	75	23542
2026-01-02 05:25:09.62	307.67	8.45	-55.0	-70.9	3.8	1.49e+00	0	32	104	0	75	23565
2026-01-02 05:25:10.62	307.57	8.38	-55.0	-70.9	3.8	1.49e+00	0	32	104	0	75	23554
2026-01-02 05:25:11.62	307.46	8.32	-55.0	-71.0	3.8	1.49e+00	0	33	104	0	75	23583
2026-01-02 05:25:12.61	307.37	8.25	-55.0	-70.9	3.8	1.49e+00	0	32	104	0	75	23575
2026-01-02 05:25:13.61	307.27	8.19	-55.0	-70.9	3.8	1.49e+00	0	32	104	0	75	23565
2026-01-02 05:25:14.60	307.17	8.12	-55.0	-70.9	3.8	1.49e+00	0	33	104	0	75	23560
2026-01-02 05:25:15.60	307.07	8.06	-55.0	-70.9	3.8	1.49e+00	0	32	104	0	75	23524
2026-01-02 05:25:16.59	306.97	7.99	-55.0	-70.9	3.8	1.49e+00	0	32	104	0	75	23541
2026-01-02 05:25:17.60	306.87	7.93	-55.0	-70.9	3.8	1.49e+00	0	32	104	0	75	23506
2026-01-02 05:25:18.59	306.78	7.86	-55.0	-70.9	3.8	1.49e+00	0	32	104	0	75	23549
2026-01-02 05:25:19.59	306.68	7.80	-54.8	-71.0	3.8	1.49e+00	0	32	104	0	75	23585
2026-01-02 05:25:20.58	306.59	7.74	-55.0	-70.9	3.8	1.49e+00	0	32	104	0	75	23540
2026-01-02 05:25:21.58	306.49	7.67	-55.0	-70.9	3.8	1.49e+00	0	32	104	0	75	23543
2026-01-02 05:25:22.58	306.40	7.61	-55.0	-70.9	3.8	1.49e+00	0	32	104	0	75	23516
2026-01-02 05:25:23.57	306.30	7.54	-55.0	-70.9	3.8	1.49e+00	0	32	104	0	75	23531
2026-01-02 05:25:24.56	306.21	7.48	-55.0	-70.9	3.8	1.49e+00	0	32	104	0	75	23522
2026-01-02 05:25:25.56	306.11	7.41	-55.0	-70.9	3.8	1.49e+00	0	32	104	0	75	23499
2026-01-02 05:25:26.56	306.02	7.35	-55.0	-71.0	3.8	1.49e+00	0	33	104	0	75	23587
2026-01-02 05:25:27.55	305.93	7.29	-55.0	-70.9	3.8	1.49e+00	0	32	104	0	75	23571
2026-01-02 05:25:28.55	305.84	7.22	-55.0	-71.0	3.8	1.49e+00	0	32	104	0	75	23597
2026-01-02 05:25:29.54	305.74	7.16	-55.0	-71.0	3.8	1.49e+00	0	33	104	0	75	23587
2026-01-02 05:25:30.53	305.65	7.10	-55.0	-70.9	3.8	1.49e+00	0	33	104	0	75	23520
2026-01-02 05:25:31.52	305.56	7.03	-55.0	-70.9	3.8	1.49e+00	0	32	104	0	75	23575
2026-01-02 05:25:32.51	305.47	6.97	-55.0	-70.9	3.8	1.49e+00	0	32	104	0	75	23559
2026-01-02 05:25:33.51	305.38	6.91	-55.0	-71.0	3.8	1.49e+00	0	32	104	0	75	23582
2026-01-02 05:25:34.50	305.29	6.84	-55.0	-70.9	3.8	1.49e+00	0	32	104	0	75	23489
2026-01-02 05:25:35.49	305.20	6.78	-55.0	-70.9	3.8	1.49e+00	0	33	104	0	75	23576
2026-01-02 05:25:36.48	305.11	6.72	-55.0	-70.9	3.8	1.49e+00	0	32	104	0	75	23570
2026-01-02 05:25:37.47	305.03	6.66	-55.0	-70.9	3.8	1.49e+00	0	32	104	0	75	23503
2026-01-02 05:25:38.47	304.94	6.59	-55.0	-71.0	3.8	1.49e+00	0	32	104	0	75	23610
2026-01-02 05:25:39.47	304.85	6.53	-55.0	-71.0	3.8	1.49e+00	0	33	104	0	75	23590
2026-01-02 05:25:40.47	304.76	6.47	-55.0	-70.9	3.8	1.49e+00	0	33	104	0	75	23545
2026-01-02 05:25:41.47	304.67	6.40	-55.0	-70.9	3.8	1.49e+00	0	32	104	0	75	23525
2026-01-02 05:25:42.47	304.59	6.34	-55.0	-70.9	3.8	1.49e+00	0	32	104	0	75	23560
2026-01-02 05:25:43.48	304.50	6.28	-55.0	-70.9	3.8	1.49e+00	0	32	104	0	75	23529
2026-01-02 05:25:44.48	304.41	6.22	-55.0	-71.0	3.8	1.49e+00	0	33	104	0	75	23595
2026-01-02 05:25:45.48	304.33	6.15	-55.0	-71.0	3.8	1.49e+00	0	33	104	0	75	23589
2026-01-02 05:25:46.48	304.24	6.09	-55.0	-70.9	3.8	1.49e+00	0	32	104	0	75	23529
2026-01-02 05:25:47.48	304.16	6.03	-55.0	-71.0	3.8	1.49e+00	0	32	104	0	75	23592
2026-01-02 05:25:48.48	304.07	5.97	-54.8	-71.0	3.8	1.49e+00	0	33	104	0	75	23592
2026-01-02 05:25:49.48	303.99	5.90	-55.0	-70.9	3.8	1.49e+00	0	32	104	0	75	23533
2026-01-02 05:25:50.48	303.90	5.84	-55.0	-71.0	3.8	1.49e+00	0	32	104	0	75	23588
2026-01-02 05:25:51.48	303.82	5.78	-55.0	-70.9	3.8	1.49e+00	0	32	104	0	75	23573
2026-01-02 05:25:52.48	303.74	5.72	-55.0	-70.9	3.8	1.49e+00	0	32	104	0	75	23550
2026-01-02 05:25:53.48	303.65	5.66	-55.0	-70.9	3.8	1.49e+00	0	33	104	0	75	23563
2026-01-02 05:25:54.48	303.57	5.59	-55.0	-70.9	3.8	1.49e+00	0	32	104	0	75	23543
2026-01-02 05:25:55.47	303.49	5.53	-55.0	-70.9	3.8	1.49e+00	0	33	104	0	75	23575
2026-01-02 05:25:56.47	303.41	5.47	-55.0	-70.9	3.8	1.49e+00	0	32	104	0	75	23530
2026-01-02 05:25:57.47	303.33	5.41	-55.0	-70.9	3.8	1.49e+00	0	32	104	0	75	23576
2026-01-02 05:25:58.47	303.24	5.35	-55.0	-70.9	3.8	1.49e+00	0	32	104	0	75	23575
2026-01-02 05:25:59.47	303.16	5.29	-55.0	-70.9	3.8	1.49e+00	0	33	104	0	75	23550
2026-01-02 05:26:00.47	303.08	5.23	-55.0	-70.9	3.8	1.49e+00	0	33	104	0	75	23571
2026-01-02 05:26:01.47	303.00	5.17	-55.0	-70.9	3.8	1.49e+00	0	33	104	0	75	23534
2026-01-02 05:26:02.46	302.92	5.11	-55.0	-71.0	3.8	1.49e+00	0	32	104	0	75	23607
2026-01-02 05:26:03.46	302.85	5.04	-55.0	-70.9	3.8	1.49e+00	0	32	104	0	75	23488
2026-01-02 05:26:04.47	302.77	4.98	-55.0	-71.0	3.8	1.49e+00	0	32	104	0	75	23593
2026-01-02 05:26:05.46	302.69	4.92	-55.0	-71.0	3.8	1.49e+00	0	32	104	0	75	23630
2026-01-02 05:26:06.45	302.61	4.86	-55.0	-71.0	3.8	1.49e+00	0	32	104	0	75	23586
2026-01-02 05:26:07.45	302.53	4.80	-55.0	-71.0	3.8	1.49e+00	0	33	104	0	75	23634
2026-01-02 05:26:08.45	302.45	4.74	-55.0	-70.9	3.8	1.49e+00	0	32	104	0	75	23522
2026-01-02 05:26:09.45	302.38	4.68	-55.0	-70.9	3.8	1.49e+00	0	33	104	0	75	23550
2026-01-02 05:26:10.44	302.30	4.62	-55.0	-70.9	3.8	1.49e+00	0	32	104	0	75	23545
2026-01-02 05:26:11.45	302.22	4.56	-55.0	-70.9	3.8	1.49e+00	0	33	104	0	75	23545
2026-01-02 05:26:12.46	302.15	4.50	-55.0	-70.9	3.8	1.49e+00	0	32	104	0	75	23553
2026-01-02 05:26:13.45	302.07	4.44	-55.0	-71.0	3.8	1.49e+00	0	32	104	0	75	23611
2026-01-02 05:26:14.45	301.99	4.38	-55.0	-70.9	3.8	1.49e+00	0	32	104	0	75	23527
2026-01-02 05:26:15.44	301.92	4.32	-55.0	-70.9	3.8	1.49e+00	0	32	104	0	75	23499
2026-01-02 05:26:16.44	301.85	4.26	-55.0	-70.9	3.8	1.49e+00	0	33	104	0	75	23495
2026-01-02 05:26:17.44	301.77	4.20	-55.0	-71.0	3.8	1.49e+00	0	33	104	0	75	23583
2026-01-02 05:26:18.44	301.70	4.14	-55.0	-71.0	3.8	1.49e+00	0	32	104	0	75	23601
2026-01-02 05:26:19.44	301.62	4.08	-55.0	-70.9	3.8	1.49e+00	0	33	104	0	75	23546
2026-01-02 05:26:20.44	301.55	4.02	-55.0	-71.0	3.8	1.49e+00	0	33	104	0	75	23613
2026-01-02 05:26:21.44	301.47	3.96	-55.0	-70.9	3.8	1.49e+00	0	33	104	0	75	23528
2026-01-02 05:26:22.43	301.40	3.91	-55.0	-70.9	3.8	1.49e+00	0	32	104	0	75	23537
2026-01-02 05:26:23.42	301.33	3.85	-55.0	-71.0	3.8	1.49e+00	0	32	104	0	75	23588
2026-01-02 05:26:24.41	301.26	3.79	-55.0	-70.9	3.8	1.49e+00	0	33	104	0	75	23572
2026-01-02 05:26:25.41	301.19	3.73	-55.0	-70.9	3.8	1.49e+00	0	33	104	0	75	23553
2026-01-02 05:26:26.41	301.11	3.67	-55.0	-71.0	3.8	1.49e+00	0	32	104	0	75	23592
2026-01-02 05:26:27.41	301.04	3.61	-55.0	-70.9	3.8	1.49e+00	0	32	104	0	75	23560
2026-01-02 05:26:28.40	300.97	3.55	-55.0	-70.9	3.8	1.49e+00	0	32	104	0	75	23510
2026-01-02 05:26:29.40	300.90	3.49	-55.0	-70.9	3.8	1.49e+00	0	32	104	0	75	23566
2026-01-02 05:26:30.38	300.83	3.44	-55.0	-70.9	3.8	1.49e+00	0	33	104	0	75	23569
2026-01-02 05:26:31.38	300.76	3.38	-55.0	-70.9	3.9	1.49e+00	0	33	104	0	75	23546
2026-01-02 05:26:32.37	300.69	3.32	-55.0	-70.9	3.8	1.49e+00	0	32	104	0	75	23556
2026-01-02 05:26:33.37	300.62	3.26	-55.0	-71.0	3.8	1.49e+00	0	32	104	0	75	23599
2026-01-02 05:26:34.36	300.55	3.20	-55.0	-71.0	3.8	1.49e+00	0	32	104	0	75	23605
2026-01-02 05:26:35.36	300.48	3.15	-55.0	-71.0	3.8	1.49e+00	0	33	104	0	75	23604
2026-01-02 05:26:36.36	300.41	3.09	-55.0	-70.9	3.8	1.49e+00	0	32	104	0	75	23496
2026-01-02 05:26:37.36	300.35	3.03	-55.0	-70.9	3.8	1.49e+00	0	33	104	0	75	23536
2026-01-02 05:26:38.36	300.28	2.97	-55.0	-70.9	3.8	1.49e+00	0	32	104	0	75	23528
