passes_logs/2026/01/02/R3.2S_Murmansk/R3.2S_Murmansk__20260102_021237_AQUA_rec.log

#Pass ID: 20260102_021237_AQUA
#Satellite: AQUA
#Configuration: AQUA
#almurnet v.1.7.20251203
#Start time: 2026-01-02 02:12:36

#Version: 2.2.20231116
#Station: R3.2S_Murmansk
#Location: 33.079688 lon 68.888172 lat
#TLE: 1 27424U 02022A   25365.92641127  .00002078  00000+0  42628-3 0  9999
#TLE: 2 27424  98.4058 327.1196 0001962  94.7781 340.6230 14.61783896258835

#Time	Az	El	Level	Level2	SNR	BER	BlckErr	Temp	State	Recorded	gain1	gain2
2026-01-02 02:12:36.86	23.34	1.99	-54.6	-74.0	3.8	7.48e-01	0	31	0	0	77	34499
2026-01-02 02:12:37.86	23.35	2.05	-54.6	-73.9	3.8	7.45e-01	0	31	104	0	77	34480
2026-01-02 02:12:38.86	23.36	2.12	-54.6	-73.9	3.8	7.46e-01	0	31	104	0	77	34475
2026-01-02 02:12:39.86	23.36	2.19	-54.6	-74.0	3.8	7.46e-01	0	31	104	0	77	34496
2026-01-02 02:12:40.87	23.37	2.25	-54.6	-74.0	3.8	7.44e-01	0	31	104	0	77	34590
2026-01-02 02:12:41.87	23.38	2.32	-54.6	-74.0	3.8	7.43e-01	0	31	104	0	77	34617
2026-01-02 02:12:42.87	23.38	2.39	-54.6	-74.0	3.8	7.46e-01	0	31	104	0	77	34490
2026-01-02 02:12:43.88	23.39	2.46	-54.6	-74.0	3.8	7.49e-01	0	31	104	0	77	34491
2026-01-02 02:12:44.88	23.40	2.52	-54.6	-73.9	3.8	7.46e-01	0	31	104	0	77	34465
2026-01-02 02:12:45.88	23.40	2.59	-54.6	-74.0	3.8	7.44e-01	0	31	104	0	77	34585
2026-01-02 02:12:46.88	23.41	2.66	-54.6	-74.0	3.8	7.42e-01	0	31	104	0	77	34569
2026-01-02 02:12:47.88	23.42	2.73	-54.6	-74.0	3.8	7.46e-01	0	31	104	0	77	34506
2026-01-02 02:12:48.88	23.42	2.79	-54.6	-74.0	3.8	7.47e-01	0	31	104	0	77	34570
2026-01-02 02:12:49.88	23.43	2.86	-54.6	-74.0	3.8	7.50e-01	0	31	104	0	77	34534
2026-01-02 02:12:50.87	23.44	2.93	-54.6	-74.0	3.8	7.50e-01	0	31	104	0	77	34499
2026-01-02 02:12:51.87	23.44	3.00	-54.6	-73.9	3.8	7.45e-01	0	32	104	0	77	34474
2026-01-02 02:12:52.87	23.45	3.07	-54.6	-74.0	3.8	7.46e-01	0	31	104	0	77	34567
2026-01-02 02:12:53.87	23.46	3.14	-54.6	-73.9	3.8	7.46e-01	0	32	104	0	77	34480
2026-01-02 02:12:54.86	23.46	3.20	-54.6	-74.0	3.8	7.46e-01	0	31	104	0	77	34514
2026-01-02 02:12:55.86	23.47	3.27	-54.6	-74.0	3.8	7.46e-01	0	32	104	0	77	34513
2026-01-02 02:12:56.86	23.48	3.34	-54.6	-74.0	3.8	7.48e-01	0	31	104	0	77	34616
2026-01-02 02:12:57.86	23.49	3.41	-54.6	-74.0	3.8	7.48e-01	0	32	104	0	77	34556
2026-01-02 02:12:58.86	23.49	3.48	-54.6	-74.0	3.8	7.46e-01	0	32	104	0	77	34544
2026-01-02 02:12:59.85	23.50	3.55	-54.6	-74.0	3.8	7.45e-01	0	32	104	0	77	34522
2026-01-02 02:13:00.85	23.51	3.62	-54.6	-74.0	3.8	7.47e-01	0	32	104	0	77	34573
2026-01-02 02:13:01.85	23.51	3.69	-54.6	-74.0	3.8	7.48e-01	0	32	104	0	77	34514
2026-01-02 02:13:02.85	23.52	3.76	-54.6	-74.0	3.8	7.46e-01	0	32	104	0	77	34554
2026-01-02 02:13:03.85	23.53	3.83	-54.6	-74.0	3.8	7.46e-01	0	32	104	0	77	34561
2026-01-02 02:13:04.84	23.53	3.91	-54.6	-74.0	3.8	7.47e-01	0	32	104	0	77	34520
2026-01-02 02:13:05.84	23.54	3.98	-54.6	-74.0	3.8	7.46e-01	0	32	104	0	77	34673
2026-01-02 02:13:06.84	23.55	4.05	-54.6	-74.0	3.8	7.44e-01	0	32	104	0	77	34556
2026-01-02 02:13:07.84	23.56	4.12	-54.6	-74.0	3.8	7.47e-01	0	32	104	0	77	34570
2026-01-02 02:13:08.84	23.56	4.19	-54.6	-74.0	3.8	7.46e-01	0	32	104	0	77	34556
2026-01-02 02:13:09.83	23.57	4.26	-54.6	-74.0	3.8	7.42e-01	0	32	104	0	77	34638
2026-01-02 02:13:10.84	23.58	4.34	-54.6	-74.0	3.8	7.47e-01	0	32	104	0	77	34548
2026-01-02 02:13:11.84	23.58	4.41	-54.6	-74.0	3.8	7.50e-01	0	32	104	0	77	34574
2026-01-02 02:13:12.84	23.59	4.48	-54.6	-74.0	3.8	7.47e-01	0	32	104	0	77	34640
2026-01-02 02:13:13.83	23.60	4.55	-54.6	-74.0	3.8	7.48e-01	0	32	104	0	77	34669
2026-01-02 02:13:14.82	23.60	4.63	-54.6	-74.0	3.8	7.47e-01	0	32	104	0	77	34636
2026-01-02 02:13:15.82	23.61	4.70	-54.6	-74.0	3.8	7.46e-01	0	32	104	0	77	34636
2026-01-02 02:13:16.82	23.62	4.77	-54.6	-74.0	3.8	7.47e-01	0	32	104	0	77	34589
2026-01-02 02:13:17.82	23.63	4.85	-54.6	-74.0	3.8	7.46e-01	0	32	104	0	77	34698
2026-01-02 02:13:18.83	23.63	4.92	-54.6	-74.0	3.8	7.47e-01	0	32	104	0	77	34583
2026-01-02 02:13:19.83	23.64	5.00	-54.6	-74.0	3.8	7.45e-01	0	32	104	0	77	34498
2026-01-02 02:13:20.83	23.65	5.07	-54.6	-74.0	3.8	7.48e-01	0	32	104	0	77	34563
2026-01-02 02:13:21.83	23.66	5.15	-54.6	-73.9	3.8	7.47e-01	0	32	104	0	77	34479
2026-01-02 02:13:22.84	23.66	5.22	-54.6	-74.0	3.8	7.44e-01	0	32	104	0	77	34579
2026-01-02 02:13:23.85	23.67	5.30	-54.6	-74.0	3.8	7.45e-01	0	32	104	0	77	34585
2026-01-02 02:13:24.85	23.68	5.37	-54.6	-74.0	3.8	7.50e-01	0	32	104	0	77	34512
2026-01-02 02:13:25.85	23.68	5.45	-54.6	-74.0	3.8	7.46e-01	0	32	104	0	77	34576
2026-01-02 02:13:26.86	23.69	5.53	-54.6	-74.0	3.8	7.47e-01	0	32	104	0	77	34577
2026-01-02 02:13:27.86	23.70	5.60	-54.6	-74.0	3.8	7.44e-01	0	32	104	0	77	34661
2026-01-02 02:13:28.86	23.71	5.68	-54.6	-74.0	3.8	7.44e-01	0	32	104	0	77	34578
2026-01-02 02:13:29.86	23.71	5.76	-54.6	-74.0	3.8	7.45e-01	0	32	104	0	77	34695
2026-01-02 02:13:30.86	23.72	5.83	-54.6	-74.0	3.8	7.44e-01	0	32	104	0	77	34630
2026-01-02 02:13:31.86	23.73	5.91	-54.6	-74.0	3.8	7.48e-01	0	32	104	0	77	34564
2026-01-02 02:13:32.86	23.74	5.99	-54.6	-74.0	3.8	7.44e-01	0	32	104	0	77	34530
2026-01-02 02:13:33.86	23.74	6.07	-54.6	-73.9	3.8	7.45e-01	0	32	104	0	77	34440
2026-01-02 02:13:34.86	23.75	6.14	-54.6	-73.9	3.8	7.44e-01	0	32	104	0	77	34427
2026-01-02 02:13:35.86	23.76	6.22	-54.6	-74.0	3.8	7.44e-01	0	32	104	0	77	34573
2026-01-02 02:13:36.86	23.77	6.30	-54.6	-74.0	3.8	7.44e-01	0	32	104	0	77	34506
2026-01-02 02:13:37.87	23.77	6.38	-54.6	-74.0	3.8	7.44e-01	0	32	104	0	77	34533
2026-01-02 02:13:38.87	23.78	6.46	-54.6	-74.0	3.8	7.46e-01	0	32	104	0	77	34553
2026-01-02 02:13:39.87	23.79	6.54	-54.6	-74.0	3.8	7.48e-01	0	32	104	0	77	34571
2026-01-02 02:13:40.87	23.80	6.62	-54.6	-74.0	3.8	7.44e-01	0	32	104	0	77	34650
2026-01-02 02:13:41.87	23.80	6.70	-54.6	-74.0	3.8	7.48e-01	0	32	104	0	77	34658
2026-01-02 02:13:42.87	23.81	6.78	-54.7	-74.0	3.8	7.48e-01	0	32	104	0	77	34636
2026-01-02 02:13:43.87	23.82	6.86	-54.6	-74.0	3.8	7.45e-01	0	32	104	0	77	34602
2026-01-02 02:13:44.86	23.83	6.94	-54.6	-74.0	3.8	7.46e-01	0	32	104	0	77	34645
2026-01-02 02:13:45.85	23.83	7.02	-54.7	-74.0	3.8	7.46e-01	0	32	104	0	77	34689
2026-01-02 02:13:46.85	23.84	7.10	-54.7	-74.0	3.8	7.47e-01	0	32	104	0	77	34660
2026-01-02 02:13:47.85	23.85	7.18	-54.7	-74.0	3.8	7.45e-01	0	32	104	0	77	34665
2026-01-02 02:13:48.84	23.86	7.27	-54.6	-74.0	3.8	7.47e-01	0	32	104	0	77	34659
2026-01-02 02:13:49.84	23.86	7.35	-54.7	-74.0	3.8	7.46e-01	0	32	104	0	77	34708
2026-01-02 02:13:50.84	23.87	7.43	-54.6	-74.0	3.8	7.44e-01	0	32	104	0	77	34683
2026-01-02 02:13:51.83	23.88	7.51	-54.7	-74.0	3.8	7.46e-01	0	32	104	0	77	34614
2026-01-02 02:13:52.82	23.89	7.59	-54.6	-74.0	3.8	7.45e-01	0	32	104	0	77	34642
2026-01-02 02:13:53.82	23.90	7.68	-54.6	-74.0	3.8	7.47e-01	0	32	104	0	77	34659
2026-01-02 02:13:54.82	23.90	7.76	-54.7	-74.0	3.8	7.47e-01	0	32	104	0	77	34686
2026-01-02 02:13:55.83	23.91	7.85	-54.7	-74.0	3.8	7.43e-01	0	32	104	0	77	34684
2026-01-02 02:13:56.82	23.92	7.93	-54.6	-74.0	3.8	7.50e-01	0	32	104	0	77	34606
2026-01-02 02:13:57.82	23.93	8.02	-54.7	-74.0	3.8	7.45e-01	0	32	104	0	77	34685
2026-01-02 02:13:58.83	23.94	8.10	-54.7	-74.0	3.8	7.47e-01	0	32	104	0	77	34600
2026-01-02 02:13:59.83	23.94	8.19	-54.7	-74.0	3.8	7.49e-01	0	32	104	0	77	34597
2026-01-02 02:14:00.83	23.95	8.27	-54.7	-74.0	3.8	7.46e-01	0	33	104	0	77	34570
2026-01-02 02:14:01.83	23.96	8.36	-54.7	-74.0	3.8	7.47e-01	0	32	104	0	77	34522
2026-01-02 02:14:02.83	23.97	8.44	-54.7	-74.0	3.8	7.46e-01	0	32	104	0	77	34653
2026-01-02 02:14:03.83	23.98	8.53	-54.7	-74.0	3.8	7.48e-01	0	33	104	0	77	34639
2026-01-02 02:14:04.83	23.98	8.62	-54.6	-74.0	3.8	7.47e-01	0	32	104	0	77	34642
2026-01-02 02:14:05.83	23.99	8.71	-54.7	-74.0	3.8	7.43e-01	0	32	104	0	77	34632
2026-01-02 02:14:06.83	24.00	8.79	-54.7	-74.0	3.8	7.44e-01	0	33	104	0	77	34630
2026-01-02 02:14:07.84	24.01	8.88	-54.7	-74.0	3.8	7.48e-01	0	32	104	0	77	34542
2026-01-02 02:14:08.84	24.02	8.97	-54.6	-74.0	3.8	7.44e-01	0	33	104	0	77	34546
2026-01-02 02:14:09.83	24.02	9.06	-54.7	-74.0	3.8	7.46e-01	0	32	104	0	77	34481
2026-01-02 02:14:10.83	24.03	9.15	-54.6	-74.0	3.8	7.44e-01	0	32	104	0	77	34588
2026-01-02 02:14:11.83	24.04	9.24	-54.7	-74.0	3.8	7.44e-01	0	33	104	0	77	34611
2026-01-02 02:14:12.82	24.05	9.33	-54.7	-74.0	3.8	7.46e-01	0	32	104	0	77	34548
2026-01-02 02:14:13.82	24.06	9.42	-54.7	-74.0	3.8	7.46e-01	0	32	104	0	77	34565
2026-01-02 02:14:14.82	24.07	9.51	-54.7	-74.0	3.8	7.44e-01	0	32	104	0	77	34536
2026-01-02 02:14:15.82	24.07	9.60	-54.7	-74.0	3.8	7.45e-01	0	32	104	0	77	34583
2026-01-02 02:14:16.82	24.08	9.69	-54.2	-74.0	3.8	7.44e-01	0	33	104	0	77	34630
2026-01-02 02:14:17.82	24.09	9.78	-54.7	-74.0	3.8	7.44e-01	0	32	104	0	77	34651
2026-01-02 02:14:18.82	24.10	9.87	-54.7	-74.0	3.8	7.48e-01	0	32	104	0	77	34639
2026-01-02 02:14:19.82	24.11	9.96	-54.7	-74.0	3.8	7.45e-01	0	32	104	0	77	34684
2026-01-02 02:14:20.83	24.12	10.06	-54.7	-74.0	3.8	7.44e-01	0	33	104	0	77	34663
2026-01-02 02:14:21.82	24.12	10.15	-54.7	-74.0	3.8	7.49e-01	0	33	104	0	77	34640
2026-01-02 02:14:22.82	24.13	10.24	-54.7	-74.0	3.8	7.45e-01	0	32	104	0	77	34590
2026-01-02 02:14:23.82	24.14	10.34	-54.7	-74.0	3.8	7.46e-01	0	33	104	0	77	34590
2026-01-02 02:14:24.81	24.15	10.43	-54.7	-74.0	3.8	7.45e-01	0	33	104	0	77	34616
2026-01-02 02:14:25.81	24.16	10.53	-54.7	-74.0	3.8	7.45e-01	0	32	104	0	77	34662
2026-01-02 02:14:26.81	24.17	10.62	-54.7	-74.0	3.8	7.48e-01	0	32	104	0	77	34652
2026-01-02 02:14:27.81	24.18	10.72	-54.7	-74.0	3.8	7.45e-01	0	33	104	0	77	34646
2026-01-02 02:14:28.81	24.19	10.81	-54.7	-74.0	3.8	7.47e-01	0	33	104	0	77	34655
2026-01-02 02:14:29.82	24.19	10.91	-54.7	-74.0	3.8	7.46e-01	0	33	104	0	77	34710
2026-01-02 02:14:30.82	24.20	11.01	-54.7	-74.0	3.8	7.45e-01	0	32	104	0	77	34651
2026-01-02 02:14:31.83	24.21	11.11	-54.7	-74.0	3.8	7.47e-01	0	33	104	0	77	34673
2026-01-02 02:14:32.83	24.22	11.20	-54.7	-74.0	3.8	7.49e-01	0	32	104	0	77	34649
2026-01-02 02:14:33.83	24.23	11.30	-54.7	-74.0	3.8	7.45e-01	0	32	104	0	77	34705
2026-01-02 02:14:34.82	24.24	11.40	-54.7	-74.0	3.8	7.47e-01	0	33	104	0	77	34782
2026-01-02 02:14:35.83	24.25	11.50	-54.7	-74.0	3.8	7.46e-01	0	33	104	0	77	34772
2026-01-02 02:14:36.83	24.26	11.60	-54.7	-74.0	3.8	7.49e-01	0	33	104	0	77	34623
2026-01-02 02:14:37.84	24.27	11.70	-54.7	-74.0	3.8	7.45e-01	0	33	104	0	77	34695
2026-01-02 02:14:38.84	24.27	11.80	-54.7	-74.0	3.8	7.48e-01	0	33	104	0	77	34715
2026-01-02 02:14:39.84	24.28	11.90	-54.7	-74.0	3.8	7.46e-01	0	32	104	0	77	34605
2026-01-02 02:14:40.83	24.29	12.00	-54.7	-74.0	3.8	7.45e-01	0	33	104	0	77	34654
2026-01-02 02:14:41.83	24.30	12.10	-54.7	-74.0	3.8	7.48e-01	0	32	104	0	77	34663
2026-01-02 02:14:42.84	24.31	12.21	-54.7	-74.0	3.8	7.47e-01	0	33	104	0	77	34702
2026-01-02 02:14:43.84	24.32	12.31	-54.7	-74.0	3.8	7.44e-01	0	33	104	0	77	34807
2026-01-02 02:14:44.85	24.33	12.41	-54.7	-74.0	3.8	7.46e-01	0	33	104	0	77	34700
2026-01-02 02:14:45.85	24.34	12.52	-54.7	-74.0	3.8	7.45e-01	0	33	104	0	77	34708
2026-01-02 02:14:46.85	24.35	12.62	-54.7	-74.0	3.8	7.48e-01	0	33	104	0	77	34701
2026-01-02 02:14:47.84	24.36	12.72	-54.7	-74.0	3.8	7.47e-01	0	32	104	0	77	34694
2026-01-02 02:14:48.85	24.37	12.83	-54.7	-74.0	3.8	7.45e-01	0	33	104	0	77	34698
2026-01-02 02:14:49.85	24.38	12.94	-54.7	-74.0	3.8	7.42e-01	0	33	104	0	77	34736
2026-01-02 02:14:50.85	24.39	13.04	-54.7	-74.0	3.8	7.44e-01	0	33	104	0	77	34726
2026-01-02 02:14:51.84	24.40	13.15	-54.7	-74.0	3.8	7.48e-01	0	33	104	0	77	34690
2026-01-02 02:14:52.84	24.41	13.26	-54.7	-74.0	3.8	7.45e-01	0	33	104	0	77	34677
2026-01-02 02:14:53.84	24.42	13.36	-54.7	-74.0	3.8	7.49e-01	0	33	104	0	77	34706
2026-01-02 02:14:54.84	24.42	13.47	-54.7	-74.0	3.8	7.46e-01	0	33	104	0	77	34700
2026-01-02 02:14:55.84	24.43	13.58	-54.7	-74.0	3.8	7.43e-01	0	33	104	0	77	34719
2026-01-02 02:14:56.83	24.44	13.69	-54.7	-74.0	3.8	7.48e-01	0	33	104	0	77	34704
2026-01-02 02:14:57.83	24.45	13.80	-54.7	-74.0	3.8	7.49e-01	0	33	104	0	77	34732
2026-01-02 02:14:58.83	24.46	13.91	-54.7	-74.0	3.8	7.48e-01	0	33	104	0	77	34754
2026-01-02 02:14:59.83	24.47	14.02	-54.7	-74.0	3.8	7.47e-01	0	33	104	0	77	34720
2026-01-02 02:15:00.83	24.48	14.13	-54.7	-74.0	3.8	7.47e-01	0	33	104	0	77	34696
2026-01-02 02:15:01.82	24.49	14.24	-54.7	-74.0	3.8	7.47e-01	0	33	104	0	77	34800
2026-01-02 02:15:02.82	24.50	14.36	-54.7	-74.0	3.8	7.44e-01	0	33	104	0	77	34769
2026-01-02 02:15:03.81	24.51	14.47	-54.7	-74.0	3.8	7.47e-01	0	33	104	0	77	34718
2026-01-02 02:15:04.81	24.52	14.58	-54.7	-74.0	3.8	7.47e-01	0	33	104	0	77	34747
2026-01-02 02:15:05.81	24.53	14.70	-54.7	-74.0	3.8	7.46e-01	0	33	104	0	77	34786
2026-01-02 02:15:06.81	24.54	14.81	-54.7	-74.0	3.8	7.48e-01	0	33	104	0	77	34758
2026-01-02 02:15:07.80	24.55	14.93	-54.7	-74.0	3.8	7.47e-01	0	33	104	0	77	34672
2026-01-02 02:15:08.80	24.56	15.04	-54.5	-74.0	3.8	7.46e-01	0	33	104	0	77	34798
2026-01-02 02:15:09.80	24.57	15.16	-54.7	-74.0	3.9	7.44e-01	0	33	104	0	77	34724
2026-01-02 02:15:10.80	24.59	15.28	-54.7	-74.0	3.8	7.49e-01	0	33	104	0	77	34753
2026-01-02 02:15:11.80	24.60	15.40	-54.7	-74.0	3.8	7.48e-01	0	33	104	0	77	34745
2026-01-02 02:15:12.80	24.61	15.51	-54.7	-74.0	3.8	7.46e-01	0	33	104	0	77	34762
2026-01-02 02:15:13.81	24.62	15.64	-54.7	-74.0	3.8	7.45e-01	0	33	104	0	77	34782
2026-01-02 02:15:14.80	24.63	15.75	-54.7	-74.0	3.8	7.48e-01	0	33	104	0	77	34736
2026-01-02 02:15:15.80	24.64	15.88	-54.7	-74.0	3.8	7.47e-01	0	33	104	0	77	34802
2026-01-02 02:15:16.79	24.65	16.00	-54.7	-74.0	3.8	7.46e-01	0	33	104	0	77	34805
2026-01-02 02:15:17.79	24.66	16.12	-54.7	-74.0	3.8	7.46e-01	0	33	104	0	77	34804
2026-01-02 02:15:18.79	24.67	16.24	-54.7	-74.0	3.8	7.47e-01	0	33	104	0	77	34742
2026-01-02 02:15:19.80	24.68	16.37	-54.7	-74.0	3.8	7.46e-01	0	33	104	0	77	34794
2026-01-02 02:15:20.81	24.69	16.49	-54.7	-74.0	3.8	7.47e-01	0	33	104	0	77	34778
2026-01-02 02:15:21.81	24.70	16.62	-54.7	-74.0	3.8	7.44e-01	0	33	104	0	77	34814
2026-01-02 02:15:22.81	24.71	16.74	-54.7	-74.0	3.8	7.44e-01	0	33	104	0	77	34796
2026-01-02 02:15:23.81	24.73	16.87	-54.7	-74.0	3.8	7.44e-01	0	33	104	0	77	34678
2026-01-02 02:15:24.81	24.74	16.99	-54.7	-74.0	3.8	7.46e-01	0	33	104	0	77	34736
2026-01-02 02:15:25.82	24.75	17.12	-54.7	-74.0	3.8	7.47e-01	0	33	104	0	77	34798
2026-01-02 02:15:26.82	24.76	17.25	-54.7	-74.0	3.8	7.46e-01	0	33	104	0	77	34727
2026-01-02 02:15:27.82	24.77	17.38	-54.7	-74.0	3.8	7.44e-01	0	33	104	0	77	34730
2026-01-02 02:15:28.83	24.78	17.51	-54.7	-74.0	3.8	7.48e-01	0	33	104	0	77	34823
2026-01-02 02:15:29.83	24.79	17.64	-54.7	-74.0	3.8	7.44e-01	0	33	104	0	77	34804
2026-01-02 02:15:30.82	24.81	17.77	-54.7	-74.0	3.8	7.46e-01	0	33	104	0	77	34818
2026-01-02 02:15:31.82	24.82	17.91	-54.7	-74.0	3.8	7.47e-01	0	33	104	0	77	34771
2026-01-02 02:15:32.82	24.83	18.04	-54.7	-74.0	3.8	7.48e-01	0	33	104	0	77	34835
2026-01-02 02:15:33.82	24.84	18.17	-54.7	-74.0	3.8	7.40e-01	0	33	104	0	77	34842
2026-01-02 02:15:34.82	24.85	18.31	-54.7	-74.0	3.8	7.42e-01	0	33	104	0	77	34814
2026-01-02 02:15:35.82	24.87	18.44	-54.7	-74.0	3.8	7.45e-01	0	33	104	0	77	34805
2026-01-02 02:15:36.82	24.88	18.58	-54.7	-74.0	3.8	7.46e-01	0	33	104	0	77	34829
2026-01-02 02:15:37.82	24.89	18.72	-54.7	-74.0	3.8	7.48e-01	0	33	104	0	77	34808
2026-01-02 02:15:38.82	24.90	18.86	-54.7	-74.0	3.8	7.49e-01	0	33	104	0	77	34712
2026-01-02 02:15:39.82	24.91	18.99	-54.7	-74.0	3.8	7.46e-01	0	33	104	0	77	34768
2026-01-02 02:15:40.82	24.93	19.13	-54.7	-74.0	3.8	7.45e-01	0	33	104	0	77	34798
2026-01-02 02:15:41.83	24.94	19.28	-54.7	-74.0	3.9	7.47e-01	0	33	104	0	77	34794
2026-01-02 02:15:42.82	24.95	19.42	-54.7	-74.0	3.8	7.44e-01	0	33	104	0	77	34770
2026-01-02 02:15:43.82	24.96	19.56	-54.7	-74.0	3.8	7.45e-01	0	33	104	0	77	34780
2026-01-02 02:15:44.82	24.98	19.70	-54.7	-74.0	3.8	7.46e-01	0	33	104	0	77	34774
2026-01-02 02:15:45.82	24.99	19.85	-54.7	-74.1	3.8	7.46e-01	0	33	104	0	77	34920
2026-01-02 02:15:46.83	25.00	19.99	-54.7	-74.0	3.8	7.49e-01	0	33	104	0	77	34863
2026-01-02 02:15:47.83	25.02	20.14	-54.7	-74.0	3.8	7.44e-01	0	33	104	0	77	34779
2026-01-02 02:15:48.82	25.03	20.29	-54.7	-74.0	3.8	7.47e-01	0	33	104	0	77	34864
2026-01-02 02:15:49.83	25.04	20.44	-54.7	-74.0	3.8	7.50e-01	0	33	104	0	77	34845
2026-01-02 02:15:50.82	25.05	20.58	-54.7	-74.0	3.8	7.45e-01	0	33	104	0	77	34802
2026-01-02 02:15:51.82	25.07	20.73	-54.7	-74.0	3.8	7.46e-01	0	33	104	0	77	34807
2026-01-02 02:15:52.82	25.08	20.88	-54.7	-74.0	3.8	7.44e-01	0	33	104	0	77	34785
2026-01-02 02:15:53.82	25.09	21.04	-54.7	-74.0	3.8	7.46e-01	0	33	104	0	77	34869
2026-01-02 02:15:54.81	25.11	21.19	-54.7	-74.0	3.9	7.46e-01	0	33	104	0	77	34787
2026-01-02 02:15:55.81	25.12	21.34	-54.7	-74.0	3.8	7.47e-01	0	33	104	0	77	34842
2026-01-02 02:15:56.80	25.14	21.49	-54.7	-74.0	3.8	7.47e-01	0	33	104	0	77	34732
2026-01-02 02:15:57.81	25.15	21.65	-54.7	-74.0	3.8	7.46e-01	0	33	104	0	77	34765
2026-01-02 02:15:58.80	25.16	21.81	-54.7	-74.0	3.8	7.48e-01	0	33	104	0	77	34801
2026-01-02 02:15:59.80	25.18	21.97	-54.7	-74.0	3.8	7.46e-01	0	33	104	0	77	34770
2026-01-02 02:16:00.80	25.19	22.12	-54.7	-74.0	3.8	7.47e-01	0	33	104	0	77	34829
2026-01-02 02:16:01.79	25.21	22.28	-54.7	-74.0	3.8	7.46e-01	0	33	104	0	77	34839
2026-01-02 02:16:02.79	25.22	22.45	-54.7	-74.0	3.8	7.48e-01	0	33	104	0	77	34745
2026-01-02 02:16:03.80	25.23	22.61	-54.7	-74.0	3.8	7.48e-01	0	33	104	0	77	34798
2026-01-02 02:16:04.80	25.25	22.77	-54.7	-74.0	3.8	7.49e-01	0	33	104	0	77	34798
2026-01-02 02:16:05.79	25.26	22.94	-54.7	-74.0	3.8	7.47e-01	0	33	104	0	77	34744
2026-01-02 02:16:06.79	25.28	23.10	-54.7	-74.0	3.8	7.46e-01	0	33	104	0	77	34764
2026-01-02 02:16:07.79	25.29	23.27	-54.7	-74.0	3.8	7.46e-01	0	33	104	0	77	34760
2026-01-02 02:16:08.78	25.31	23.44	-54.7	-74.0	3.8	7.47e-01	0	33	104	0	77	34826
2026-01-02 02:16:09.78	25.32	23.61	-54.7	-74.0	3.8	7.46e-01	0	33	104	0	77	34833
2026-01-02 02:16:10.78	25.34	23.78	-54.7	-74.0	3.8	7.48e-01	0	33	104	0	77	34724
2026-01-02 02:16:11.78	25.35	23.95	-54.7	-74.0	3.8	7.47e-01	0	33	104	0	77	34818
2026-01-02 02:16:12.78	25.37	24.12	-54.7	-74.0	3.8	7.48e-01	0	33	104	0	77	34850
2026-01-02 02:16:13.79	25.39	24.30	-54.7	-74.0	3.8	7.47e-01	0	33	104	0	77	34786
2026-01-02 02:16:14.78	25.40	24.47	-54.7	-74.0	3.8	7.46e-01	0	33	104	0	77	34798
2026-01-02 02:16:15.78	25.42	24.65	-54.7	-74.0	3.8	7.49e-01	0	33	104	0	77	34795
2026-01-02 02:16:16.78	25.43	24.83	-54.7	-74.0	3.8	7.47e-01	0	33	104	0	77	34832
2026-01-02 02:16:17.77	25.45	25.01	-54.7	-74.0	3.8	7.46e-01	0	33	104	0	77	34790
2026-01-02 02:16:18.77	25.47	25.19	-54.7	-74.0	3.8	7.47e-01	0	33	104	0	77	34792
2026-01-02 02:16:19.77	25.48	25.37	-54.7	-74.0	3.8	7.44e-01	0	33	104	0	77	34835
2026-01-02 02:16:20.77	25.50	25.55	-54.7	-74.0	3.8	7.45e-01	0	33	104	0	77	34850
2026-01-02 02:16:21.77	25.52	25.74	-54.7	-74.0	3.8	7.45e-01	0	33	104	0	77	34801
2026-01-02 02:16:22.77	25.53	25.92	-54.7	-74.0	3.8	7.45e-01	0	33	104	0	77	34776
2026-01-02 02:16:23.76	25.55	26.11	-54.6	-74.0	3.8	7.46e-01	0	33	104	0	77	34838
2026-01-02 02:16:24.76	25.57	26.30	-54.7	-74.0	3.8	7.45e-01	0	33	104	0	77	34840
2026-01-02 02:16:25.76	25.59	26.49	-54.7	-74.0	3.8	7.45e-01	0	33	104	0	77	34802
2026-01-02 02:16:26.77	25.60	26.68	-54.7	-74.0	3.8	7.46e-01	0	33	104	0	77	34879
2026-01-02 02:16:27.77	25.62	26.88	-54.7	-74.1	3.8	7.44e-01	0	33	104	0	77	34882
2026-01-02 02:16:28.77	25.64	27.07	-54.7	-74.0	3.8	7.46e-01	0	33	104	0	77	34824
2026-01-02 02:16:29.78	25.66	27.27	-54.7	-74.0	3.8	7.43e-01	0	33	104	0	77	34799
2026-01-02 02:16:30.77	25.68	27.47	-54.7	-74.0	3.8	7.44e-01	0	33	104	0	77	34735
2026-01-02 02:16:31.77	25.69	27.67	-54.7	-74.0	3.8	7.47e-01	0	33	104	0	77	34817
2026-01-02 02:16:32.77	25.71	27.87	-54.7	-74.0	3.8	7.46e-01	0	33	104	0	77	34843
2026-01-02 02:16:33.77	25.73	28.07	-54.7	-74.0	3.8	7.45e-01	0	33	104	0	77	34825
2026-01-02 02:16:34.76	25.75	28.28	-54.7	-74.1	3.8	7.45e-01	0	33	104	0	77	34899
2026-01-02 02:16:35.77	25.77	28.48	-54.7	-74.1	3.8	7.43e-01	0	33	104	0	77	34895
2026-01-02 02:16:36.76	25.79	28.69	-54.7	-74.0	3.8	7.48e-01	0	33	104	0	77	34812
2026-01-02 02:16:37.77	25.81	28.90	-54.7	-74.0	3.8	7.47e-01	0	33	104	0	77	34772
2026-01-02 02:16:38.77	25.83	29.11	-54.7	-74.1	3.8	7.44e-01	0	33	104	0	77	34922
2026-01-02 02:16:39.77	25.85	29.33	-54.7	-74.0	3.8	7.46e-01	0	33	104	0	77	34786
2026-01-02 02:16:40.78	25.87	29.54	-54.7	-74.0	3.8	7.48e-01	0	33	104	0	77	34856
2026-01-02 02:16:41.79	25.89	29.76	-54.7	-74.0	3.8	7.49e-01	0	33	104	0	77	34815
2026-01-02 02:16:42.79	25.91	29.98	-54.7	-74.1	3.8	7.45e-01	0	33	104	0	77	34893
2026-01-02 02:16:43.79	25.93	30.20	-54.7	-74.0	3.8	7.47e-01	0	33	104	0	77	34802
2026-01-02 02:16:44.79	25.96	30.42	-54.7	-74.1	3.8	7.48e-01	0	33	104	0	77	34933
2026-01-02 02:16:45.79	25.98	30.65	-54.7	-74.0	3.8	7.45e-01	0	33	104	0	77	34799
2026-01-02 02:16:46.78	26.00	30.87	-54.7	-74.0	3.8	7.44e-01	0	33	104	0	77	34821
2026-01-02 02:16:47.78	26.02	31.10	-54.7	-74.0	3.8	7.49e-01	0	33	104	0	77	34852
2026-01-02 02:16:48.78	26.04	31.33	-54.7	-74.0	3.8	7.44e-01	0	33	104	0	77	34870
2026-01-02 02:16:49.78	26.07	31.56	-54.7	-74.1	3.8	7.48e-01	0	33	104	0	77	34889
2026-01-02 02:16:50.78	26.09	31.79	-54.7	-74.0	3.8	7.46e-01	0	33	104	0	77	34849
2026-01-02 02:16:51.78	26.11	32.03	-54.7	-74.0	3.8	7.44e-01	0	33	104	0	77	34836
2026-01-02 02:16:52.78	26.14	32.26	-54.7	-74.0	3.8	7.43e-01	0	33	104	0	77	34870
2026-01-02 02:16:53.78	26.16	32.50	-54.7	-74.1	3.8	7.46e-01	0	33	104	0	77	34886
2026-01-02 02:16:54.78	26.18	32.74	-54.7	-74.0	3.8	7.46e-01	0	33	104	0	77	34864
2026-01-02 02:16:55.77	26.21	32.99	-54.7	-74.0	3.8	7.46e-01	0	33	104	0	77	34827
2026-01-02 02:16:56.77	26.23	33.23	-54.7	-74.0	3.8	7.47e-01	0	33	104	0	77	34808
2026-01-02 02:16:57.77	26.26	33.48	-54.7	-74.0	3.8	7.46e-01	0	33	104	0	77	34843
2026-01-02 02:16:58.77	26.28	33.73	-54.7	-74.1	3.8	7.45e-01	0	33	104	0	77	34955
2026-01-02 02:16:59.77	26.31	33.98	-54.7	-74.0	3.8	7.46e-01	0	33	104	0	77	34739
2026-01-02 02:17:00.77	26.34	34.24	-54.7	-74.0	3.8	7.47e-01	0	33	104	0	77	34803
2026-01-02 02:17:01.77	26.36	34.49	-54.7	-74.0	3.8	7.48e-01	0	33	104	0	77	34832
2026-01-02 02:17:02.76	26.39	34.75	-54.7	-74.1	3.8	7.48e-01	0	33	104	0	77	34924
2026-01-02 02:17:03.76	26.42	35.01	-54.7	-74.0	3.8	7.45e-01	0	33	104	0	77	34796
2026-01-02 02:17:04.76	26.44	35.27	-54.7	-74.0	3.8	7.49e-01	0	33	104	0	77	34818
2026-01-02 02:17:05.76	26.47	35.54	-54.7	-74.0	3.8	7.47e-01	0	33	104	0	77	34756
2026-01-02 02:17:06.76	26.50	35.81	-54.7	-74.1	3.8	7.43e-01	0	33	104	0	77	34901
2026-01-02 02:17:07.76	26.53	36.08	-54.7	-74.0	3.8	7.44e-01	0	33	104	0	77	34839
2026-01-02 02:17:08.76	26.56	36.35	-54.7	-74.1	3.8	7.44e-01	0	33	104	0	77	34893
2026-01-02 02:17:09.75	26.59	36.62	-54.7	-74.0	3.8	7.48e-01	0	33	104	0	77	34872
2026-01-02 02:17:10.75	26.62	36.90	-54.7	-74.0	3.8	7.44e-01	0	33	104	0	77	34826
2026-01-02 02:17:11.75	26.65	37.18	-54.7	-74.0	3.8	7.49e-01	0	33	104	0	77	34874
2026-01-02 02:17:12.75	26.68	37.47	-54.7	-74.1	3.8	7.45e-01	0	33	104	0	77	34885
2026-01-02 02:17:13.75	26.71	37.75	-54.7	-74.0	3.8	7.48e-01	0	33	104	0	77	34820
2026-01-02 02:17:14.74	26.74	38.04	-54.7	-74.0	3.8	7.47e-01	0	33	104	0	77	34870
2026-01-02 02:17:15.74	26.77	38.33	-54.7	-74.0	3.8	7.48e-01	0	33	104	0	77	34847
2026-01-02 02:17:16.75	26.81	38.62	-54.7	-74.0	3.8	7.47e-01	0	33	104	0	77	34779
2026-01-02 02:17:17.75	26.84	38.92	-54.7	-74.0	3.8	7.47e-01	0	33	104	0	77	34843
2026-01-02 02:17:18.74	26.87	39.22	-54.7	-74.0	3.8	7.44e-01	0	33	104	0	77	34840
2026-01-02 02:17:19.75	26.91	39.52	-54.7	-74.0	3.8	7.43e-01	0	33	104	0	77	34773
2026-01-02 02:17:20.74	26.94	39.82	-54.7	-74.1	3.8	7.47e-01	0	33	104	0	77	34884
2026-01-02 02:17:21.75	26.98	40.13	-54.7	-74.0	3.8	7.46e-01	0	33	104	0	77	34868
2026-01-02 02:17:22.75	27.02	40.44	-54.7	-74.0	3.8	7.48e-01	0	33	104	0	77	34861
2026-01-02 02:17:23.75	27.05	40.76	-54.7	-74.0	3.8	7.45e-01	0	33	104	0	77	34866
2026-01-02 02:17:24.74	27.09	41.07	-54.7	-74.1	3.8	7.46e-01	0	33	104	0	77	34880
2026-01-02 02:17:25.74	27.13	41.39	-54.7	-74.0	3.8	7.47e-01	0	33	104	0	77	34868
2026-01-02 02:17:26.73	27.17	41.71	-54.7	-74.0	3.8	7.48e-01	0	33	104	0	77	34850
2026-01-02 02:17:27.73	27.21	42.03	-54.7	-74.1	3.8	7.44e-01	0	33	104	0	77	34923
2026-01-02 02:17:28.74	27.25	42.36	-54.7	-74.1	3.8	7.45e-01	0	33	104	0	77	34969
2026-01-02 02:17:29.74	27.29	42.69	-54.7	-74.1	3.8	7.46e-01	0	33	104	0	77	34916
2026-01-02 02:17:30.74	27.33	43.03	-54.7	-74.1	3.8	7.45e-01	0	33	104	0	77	34888
2026-01-02 02:17:31.75	27.38	43.37	-54.7	-74.1	3.8	7.48e-01	0	33	104	0	77	34892
2026-01-02 02:17:32.75	27.42	43.71	-54.7	-74.0	3.8	7.47e-01	0	33	104	0	77	34803
2026-01-02 02:17:33.75	27.47	44.05	-54.7	-74.1	3.8	7.48e-01	0	33	104	0	77	34894
2026-01-02 02:17:34.76	27.51	44.40	-54.7	-74.0	3.8	7.45e-01	0	33	104	0	77	34829
2026-01-02 02:17:35.76	27.56	44.75	-54.7	-74.0	3.8	7.45e-01	0	33	104	0	77	34836
2026-01-02 02:17:36.75	27.61	45.10	-54.7	-74.0	3.8	7.45e-01	0	33	104	0	77	34848
2026-01-02 02:17:37.75	27.65	45.46	-54.7	-74.0	3.8	7.42e-01	0	33	104	0	77	34825
2026-01-02 02:17:38.76	27.70	45.82	-54.7	-74.0	3.8	7.43e-01	0	33	104	0	77	34864
2026-01-02 02:17:39.75	27.75	46.18	-54.7	-74.1	3.8	7.42e-01	0	33	104	0	77	34888
2026-01-02 02:17:40.76	27.81	46.55	-54.7	-74.1	3.8	7.43e-01	0	33	104	0	77	34885
2026-01-02 02:17:41.76	27.86	46.92	-54.7	-74.0	3.8	7.46e-01	0	33	104	0	77	34820
2026-01-02 02:17:42.77	27.91	47.30	-54.7	-74.0	3.8	7.45e-01	0	33	104	0	77	34853
2026-01-02 02:17:43.77	27.97	47.68	-54.7	-74.0	3.8	7.46e-01	0	33	104	0	77	34874
2026-01-02 02:17:44.76	28.03	48.05	-54.7	-74.1	3.8	7.46e-01	0	33	104	0	77	34945
2026-01-02 02:17:45.76	28.08	48.44	-54.7	-74.0	3.8	7.44e-01	0	33	104	0	77	34870
2026-01-02 02:17:46.77	28.14	48.83	-54.7	-74.1	3.8	7.46e-01	0	33	104	0	77	34945
2026-01-02 02:17:47.76	28.20	49.21	-54.7	-74.1	3.8	7.47e-01	0	33	104	0	77	34882
2026-01-02 02:17:48.77	28.27	49.61	-54.7	-74.0	3.8	7.46e-01	0	33	104	0	77	34872
2026-01-02 02:17:49.78	28.33	50.02	-54.7	-74.0	3.8	7.46e-01	0	33	104	0	77	34873
2026-01-02 02:17:50.77	28.40	50.41	-54.7	-74.1	3.8	7.47e-01	0	33	104	0	77	34912
2026-01-02 02:17:51.77	28.46	50.82	-54.7	-74.1	3.8	7.44e-01	0	33	104	0	77	34936
2026-01-02 02:17:52.77	28.53	51.23	-54.7	-74.1	3.8	7.49e-01	0	33	104	0	77	34928
2026-01-02 02:17:53.77	28.60	51.64	-54.7	-74.0	3.8	7.48e-01	0	33	104	0	77	34870
2026-01-02 02:17:54.77	28.67	52.06	-54.7	-74.0	3.8	7.47e-01	0	33	104	0	77	34876
2026-01-02 02:17:55.76	28.75	52.47	-54.7	-74.1	3.8	7.43e-01	0	33	104	0	77	34887
2026-01-02 02:17:56.77	28.83	52.90	-54.7	-74.1	3.8	7.44e-01	0	33	104	0	77	34928
2026-01-02 02:17:57.76	28.90	53.33	-54.7	-74.1	3.8	7.47e-01	0	33	104	0	77	34884
2026-01-02 02:17:58.75	28.98	53.75	-54.7	-74.0	3.8	7.47e-01	0	33	104	0	77	34864
2026-01-02 02:17:59.75	29.07	54.19	-54.7	-74.1	3.8	7.42e-01	0	33	104	0	77	34907
2026-01-02 02:18:00.75	29.15	54.63	-54.7	-74.0	3.8	7.46e-01	0	33	104	0	77	34798
2026-01-02 02:18:01.75	29.24	55.07	-54.7	-74.1	3.8	7.45e-01	0	33	104	0	77	34894
2026-01-02 02:18:02.74	29.33	55.51	-54.7	-74.1	3.8	7.44e-01	0	33	104	0	77	34921
2026-01-02 02:18:03.74	29.43	55.97	-54.7	-74.0	3.8	7.46e-01	0	33	104	0	77	34873
2026-01-02 02:18:04.74	29.52	56.42	-54.6	-74.1	3.8	7.44e-01	0	33	104	0	77	34905
2026-01-02 02:18:05.74	29.62	56.88	-54.7	-74.0	3.8	7.49e-01	0	33	104	0	77	34853
2026-01-02 02:18:06.74	29.73	57.34	-54.7	-74.1	3.8	7.46e-01	0	33	104	0	77	34981
2026-01-02 02:18:07.75	29.83	57.81	-54.7	-74.1	3.8	7.47e-01	0	33	104	0	77	35054
2026-01-02 02:18:08.75	29.94	58.28	-54.7	-74.1	3.8	7.47e-01	0	33	104	0	77	34893
2026-01-02 02:18:09.74	30.06	58.75	-54.7	-74.1	3.8	7.47e-01	0	33	104	0	77	34923
2026-01-02 02:18:10.75	30.18	59.23	-54.7	-74.1	3.8	7.47e-01	0	33	104	0	77	34905
2026-01-02 02:18:11.75	30.30	59.71	-54.7	-74.1	3.8	7.45e-01	0	33	104	0	77	34954
2026-01-02 02:18:12.75	30.43	60.20	-54.7	-74.1	3.8	7.46e-01	0	33	104	0	77	34943
2026-01-02 02:18:13.75	30.56	60.69	-54.7	-74.1	3.8	7.45e-01	0	33	104	0	77	34983
2026-01-02 02:18:14.75	30.70	61.18	-54.7	-74.1	3.8	7.45e-01	0	33	104	0	77	34912
2026-01-02 02:18:15.74	30.84	61.67	-54.7	-74.1	3.8	7.46e-01	0	33	104	0	77	34960
2026-01-02 02:18:16.75	30.99	62.18	-54.7	-74.1	3.8	7.42e-01	0	33	104	0	77	34916
2026-01-02 02:18:17.75	31.14	62.68	-54.7	-74.0	3.8	7.47e-01	0	33	104	0	77	34830
2026-01-02 02:18:18.75	31.30	63.19	-54.7	-74.1	3.8	7.45e-01	0	33	104	0	77	34923
2026-01-02 02:18:19.75	31.47	63.70	-54.7	-74.1	3.8	7.45e-01	0	33	104	0	77	34901
2026-01-02 02:18:20.75	31.65	64.22	-54.7	-74.1	3.8	7.46e-01	0	33	104	0	77	35015
2026-01-02 02:18:21.75	31.83	64.73	-54.7	-74.1	3.8	7.46e-01	0	33	104	0	77	34902
2026-01-02 02:18:22.75	32.02	65.26	-54.7	-74.0	3.8	7.42e-01	0	33	104	0	77	34835
2026-01-02 02:18:23.75	32.22	65.78	-54.7	-74.1	3.8	7.46e-01	0	33	104	0	77	34907
2026-01-02 02:18:24.75	32.43	66.31	-54.7	-74.0	3.8	7.43e-01	0	33	104	0	77	34852
2026-01-02 02:18:25.76	32.66	66.85	-54.7	-74.1	3.8	7.46e-01	0	33	104	0	77	34920
2026-01-02 02:18:26.76	32.89	67.38	-54.7	-74.1	3.8	7.48e-01	0	33	104	0	77	34951
2026-01-02 02:18:27.76	33.13	67.92	-54.7	-74.1	3.8	7.48e-01	0	33	104	0	77	34912
2026-01-02 02:18:28.75	33.39	68.46	-54.7	-74.1	3.8	7.45e-01	0	32	104	0	77	34926
2026-01-02 02:18:29.76	33.66	69.01	-54.7	-74.0	3.8	7.46e-01	0	33	104	0	77	34872
2026-01-02 02:18:30.77	33.95	69.56	-54.7	-74.1	3.8	7.47e-01	0	33	104	0	77	34949
2026-01-02 02:18:31.77	34.26	70.11	-54.7	-74.1	3.8	7.44e-01	0	33	104	0	77	34896
2026-01-02 02:18:32.77	34.58	70.66	-54.7	-74.1	3.8	7.44e-01	0	33	104	0	77	34986
2026-01-02 02:18:33.76	34.92	71.21	-54.7	-74.0	3.8	7.45e-01	0	33	104	0	77	34858
2026-01-02 02:18:34.76	35.28	71.77	-54.7	-74.1	3.8	7.45e-01	0	33	104	0	77	34955
2026-01-02 02:18:35.76	35.67	72.33	-54.7	-74.1	3.8	7.45e-01	0	33	104	0	77	34981
2026-01-02 02:18:36.76	36.09	72.89	-54.7	-74.1	3.8	7.50e-01	0	33	104	0	77	34918
2026-01-02 02:18:37.77	36.54	73.46	-54.7	-74.1	3.8	7.46e-01	0	33	104	0	77	34919
2026-01-02 02:18:38.77	37.02	74.03	-54.7	-74.1	3.8	7.46e-01	0	33	104	0	77	34931
2026-01-02 02:18:39.77	37.53	74.60	-54.7	-74.1	3.8	7.44e-01	0	33	104	0	77	34889
2026-01-02 02:18:40.77	38.09	75.17	-54.7	-74.1	3.8	7.46e-01	0	33	104	0	77	34932
2026-01-02 02:18:41.77	38.69	75.74	-54.7	-74.1	3.8	7.47e-01	0	33	104	0	77	34928
2026-01-02 02:18:42.77	39.34	76.31	-54.7	-74.0	3.8	7.47e-01	0	33	104	0	77	34867
2026-01-02 02:18:43.76	40.05	76.88	-54.7	-74.0	3.8	7.44e-01	0	33	104	0	77	34853
2026-01-02 02:18:44.76	40.83	77.45	-54.7	-74.1	3.8	7.46e-01	0	33	104	0	77	34881
2026-01-02 02:18:45.76	41.68	78.02	-54.7	-74.0	3.8	7.44e-01	0	33	104	0	77	34864
2026-01-02 02:18:46.76	42.62	78.59	-54.7	-74.1	3.8	7.47e-01	0	33	104	0	77	34911
2026-01-02 02:18:47.76	43.67	79.16	-54.7	-74.1	3.8	7.46e-01	0	33	104	0	77	34971
2026-01-02 02:18:48.76	44.83	79.73	-54.7	-74.1	3.8	7.45e-01	0	33	104	0	77	34940
2026-01-02 02:18:49.77	46.14	80.30	-54.7	-74.1	3.8	7.44e-01	0	33	104	0	77	34939
2026-01-02 02:18:50.77	47.60	80.86	-54.7	-74.1	3.8	7.45e-01	0	33	104	0	77	34944
2026-01-02 02:18:51.78	49.27	81.42	-54.7	-74.1	3.8	7.46e-01	0	33	104	0	77	34937
2026-01-02 02:18:52.78	51.16	81.97	-54.7	-74.1	3.8	7.46e-01	0	33	104	0	77	34918
2026-01-02 02:18:53.78	53.32	82.51	-54.3	-74.1	3.8	7.45e-01	0	33	104	0	77	34961
2026-01-02 02:18:54.78	55.82	83.04	-54.7	-74.1	3.8	7.44e-01	0	33	104	0	77	34887
2026-01-02 02:18:55.77	58.70	83.55	-54.7	-74.1	3.8	7.48e-01	0	33	104	0	77	34981
2026-01-02 02:18:56.76	62.07	84.04	-54.7	-74.1	3.8	7.46e-01	0	33	104	0	77	34952
2026-01-02 02:18:57.76	66.07	84.51	-54.7	-74.1	3.8	7.45e-01	0	33	104	0	77	34940
2026-01-02 02:18:58.76	70.80	84.96	-54.7	-74.1	3.8	7.45e-01	0	33	104	0	77	34914
2026-01-02 02:18:59.75	76.34	85.35	-54.7	-74.1	3.8	7.43e-01	0	33	104	0	77	34940
2026-01-02 02:19:00.75	82.92	85.71	-54.7	-74.1	3.8	7.43e-01	0	33	104	0	77	34906
2026-01-02 02:19:01.76	90.64	85.99	-54.7	-74.1	3.8	7.44e-01	0	33	104	0	77	34934
2026-01-02 02:19:02.75	99.18	86.20	-54.7	-74.0	3.8	7.44e-01	0	33	104	0	77	34820
2026-01-02 02:19:03.75	108.55	86.31	-54.7	-74.1	3.8	7.49e-01	0	33	104	0	77	34946
2026-01-02 02:19:04.75	118.23	86.31	-54.7	-74.1	3.8	7.46e-01	0	33	104	0	77	34894
2026-01-02 02:19:05.75	127.68	86.22	-54.7	-74.0	3.8	7.47e-01	0	33	104	0	77	34846
2026-01-02 02:19:06.75	136.44	86.03	-54.7	-74.1	3.8	7.46e-01	0	33	104	0	77	34905
2026-01-02 02:19:07.75	144.23	85.75	-54.7	-74.1	3.8	7.47e-01	0	33	104	0	77	34939
2026-01-02 02:19:08.75	150.96	85.41	-54.7	-74.1	3.8	7.45e-01	0	33	104	0	77	34986
2026-01-02 02:19:09.75	156.69	85.01	-54.7	-74.1	3.8	7.45e-01	0	33	104	0	77	34884
2026-01-02 02:19:10.75	161.53	84.58	-54.7	-74.1	3.8	7.47e-01	0	33	104	0	77	34969
2026-01-02 02:19:11.74	165.59	84.11	-54.7	-74.1	3.8	7.46e-01	0	33	104	0	77	34970
2026-01-02 02:19:12.74	169.07	83.62	-54.7	-74.1	3.8	7.45e-01	0	33	104	0	77	34882
2026-01-02 02:19:13.73	172.01	83.11	-54.7	-74.1	3.8	7.47e-01	0	33	104	0	77	34883
2026-01-02 02:19:14.73	174.56	82.58	-54.7	-74.1	3.8	7.43e-01	0	33	104	0	77	34974
2026-01-02 02:19:15.72	176.74	82.05	-54.7	-74.1	3.8	7.49e-01	0	33	104	0	77	34923
2026-01-02 02:19:16.71	178.65	81.50	-54.7	-74.1	3.8	7.46e-01	0	33	104	0	77	34904
2026-01-02 02:19:17.72	180.36	80.94	-54.7	-74.1	3.8	7.46e-01	0	33	104	0	77	34916
2026-01-02 02:19:18.72	181.85	80.38	-54.7	-74.0	3.8	7.45e-01	0	33	104	0	77	34852
2026-01-02 02:19:19.72	183.17	79.82	-54.6	-74.1	3.8	7.46e-01	0	33	104	0	77	34981
2026-01-02 02:19:20.71	184.34	79.26	-54.7	-74.1	3.8	7.48e-01	0	33	104	0	77	34896
2026-01-02 02:19:21.72	185.41	78.68	-54.7	-74.0	3.8	7.47e-01	0	33	104	0	77	34861
2026-01-02 02:19:22.72	186.37	78.11	-54.7	-74.1	3.8	7.49e-01	0	33	104	0	77	34906
2026-01-02 02:19:23.72	187.24	77.54	-54.7	-74.1	3.8	7.46e-01	0	33	104	0	77	34892
2026-01-02 02:19:24.71	188.02	76.97	-54.7	-74.1	3.8	7.48e-01	0	33	104	0	77	34905
2026-01-02 02:19:25.71	188.74	76.40	-54.7	-74.0	3.8	7.44e-01	0	33	104	0	77	34833
2026-01-02 02:19:26.71	189.41	75.83	-54.7	-74.1	3.8	7.47e-01	0	33	104	0	77	34881
2026-01-02 02:19:27.71	190.02	75.25	-54.7	-74.1	3.8	7.45e-01	0	33	104	0	77	34985
2026-01-02 02:19:28.71	190.58	74.68	-54.7	-74.1	3.8	7.45e-01	0	33	104	0	77	35022
2026-01-02 02:19:29.71	191.10	74.12	-54.7	-74.1	3.8	7.42e-01	0	33	104	0	77	34959
2026-01-02 02:19:30.71	191.59	73.55	-54.7	-74.1	3.8	7.42e-01	0	33	104	0	77	34918
2026-01-02 02:19:31.71	192.04	72.98	-54.7	-74.1	3.8	7.45e-01	0	33	104	0	77	34881
2026-01-02 02:19:32.72	192.46	72.41	-54.7	-74.1	3.8	7.44e-01	0	33	104	0	77	34913
2026-01-02 02:19:33.72	192.85	71.85	-54.7	-74.1	3.8	7.46e-01	0	33	104	0	77	34900
2026-01-02 02:19:34.72	193.22	71.29	-54.7	-74.1	3.8	7.48e-01	0	33	104	0	77	34945
2026-01-02 02:19:35.72	193.57	70.74	-54.7	-74.1	3.8	7.42e-01	0	33	104	0	77	34913
2026-01-02 02:19:36.71	193.89	70.19	-54.7	-74.1	3.8	7.47e-01	0	33	104	0	77	34979
2026-01-02 02:19:37.72	194.20	69.63	-54.7	-74.1	3.8	7.46e-01	0	33	104	0	77	34955
2026-01-02 02:19:38.72	194.49	69.08	-54.7	-74.1	3.8	7.45e-01	0	33	104	0	77	34936
2026-01-02 02:19:39.73	194.77	68.53	-54.7	-74.1	3.8	7.48e-01	0	33	104	0	77	34880
2026-01-02 02:19:40.73	195.03	67.99	-54.7	-74.1	3.8	7.50e-01	0	33	104	0	77	34931
2026-01-02 02:19:41.73	195.28	67.45	-54.7	-74.1	3.8	7.47e-01	0	33	104	0	77	34945
2026-01-02 02:19:42.73	195.51	66.91	-54.7	-74.1	3.9	7.46e-01	0	33	104	0	77	34942
2026-01-02 02:19:43.73	195.73	66.38	-54.7	-74.0	3.8	7.49e-01	0	33	104	0	77	34875
2026-01-02 02:19:44.74	195.95	65.84	-54.7	-74.1	3.8	7.47e-01	0	33	104	0	77	34994
2026-01-02 02:19:45.74	196.15	65.31	-54.7	-74.1	3.8	7.44e-01	0	33	104	0	77	34903
2026-01-02 02:19:46.74	196.34	64.79	-54.7	-74.1	3.8	7.48e-01	0	33	104	0	77	34938
2026-01-02 02:19:47.73	196.52	64.28	-54.7	-74.1	3.8	7.44e-01	0	33	104	0	77	34997
2026-01-02 02:19:48.74	196.70	63.76	-54.7	-74.1	3.8	7.45e-01	0	33	104	0	77	34903
2026-01-02 02:19:49.74	196.87	63.24	-54.7	-74.1	3.8	7.50e-01	0	33	104	0	77	34955
2026-01-02 02:19:50.74	197.03	62.73	-54.7	-74.1	3.8	7.44e-01	0	33	104	0	77	34987
2026-01-02 02:19:51.74	197.19	62.23	-54.7	-74.1	3.8	7.43e-01	0	33	104	0	77	34902
2026-01-02 02:19:52.74	197.34	61.73	-54.7	-74.1	3.8	7.45e-01	0	33	104	0	77	34929
2026-01-02 02:19:53.75	197.48	61.22	-54.7	-74.1	3.8	7.46e-01	0	33	104	0	77	34943
2026-01-02 02:19:54.75	197.62	60.73	-54.7	-74.1	3.8	7.43e-01	0	33	104	0	77	34905
2026-01-02 02:19:55.75	197.75	60.24	-54.7	-74.1	3.8	7.47e-01	0	33	104	0	77	34911
2026-01-02 02:19:56.75	197.88	59.75	-54.7	-74.1	3.8	7.48e-01	0	33	104	0	77	34992
2026-01-02 02:19:57.74	198.00	59.27	-54.7	-74.1	3.8	7.46e-01	0	33	104	0	77	34963
2026-01-02 02:19:58.74	198.12	58.79	-54.7	-74.1	3.8	7.47e-01	0	33	104	0	77	34926
2026-01-02 02:19:59.74	198.24	58.32	-54.7	-74.1	3.8	7.46e-01	0	33	104	0	77	34941
2026-01-02 02:20:00.74	198.35	57.85	-54.7	-74.1	3.8	7.45e-01	0	33	104	0	77	34884
2026-01-02 02:20:01.74	198.46	57.38	-54.7	-74.1	3.8	7.46e-01	0	33	104	0	77	35006
2026-01-02 02:20:02.74	198.56	56.91	-54.7	-74.1	3.8	7.42e-01	0	33	104	0	77	34950
2026-01-02 02:20:03.74	198.66	56.45	-54.7	-74.1	3.8	7.46e-01	0	33	104	0	77	35014
2026-01-02 02:20:04.73	198.76	56.00	-54.7	-74.1	3.8	7.47e-01	0	33	104	0	77	34935
2026-01-02 02:20:05.74	198.85	55.55	-54.7	-74.1	3.8	7.44e-01	0	33	104	0	77	35003
2026-01-02 02:20:06.74	198.94	55.10	-54.7	-74.1	3.8	7.45e-01	0	33	104	0	77	34950
2026-01-02 02:20:07.73	199.03	54.66	-54.7	-74.1	3.8	7.48e-01	0	33	104	0	77	34929
2026-01-02 02:20:08.73	199.12	54.22	-54.7	-74.1	3.8	7.47e-01	0	33	104	0	77	34925
2026-01-02 02:20:09.73	199.20	53.78	-54.7	-74.1	3.8	7.42e-01	0	33	104	0	77	34944
2026-01-02 02:20:10.73	199.28	53.35	-54.7	-74.1	3.8	7.45e-01	0	33	104	0	77	34967
2026-01-02 02:20:11.73	199.36	52.92	-54.7	-74.1	3.8	7.44e-01	0	33	104	0	77	34955
2026-01-02 02:20:12.73	199.44	52.49	-54.7	-74.1	3.8	7.43e-01	0	33	104	0	77	34959
2026-01-02 02:20:13.74	199.51	52.06	-54.7	-74.1	3.8	7.44e-01	0	33	104	0	77	34951
2026-01-02 02:20:14.74	199.59	51.65	-54.7	-74.1	3.8	7.45e-01	0	33	104	0	77	35027
2026-01-02 02:20:15.74	199.66	51.23	-54.7	-74.1	3.8	7.49e-01	0	33	104	0	77	34940
2026-01-02 02:20:16.75	199.73	50.82	-54.7	-74.1	3.8	7.45e-01	0	33	104	0	77	35023
2026-01-02 02:20:17.75	199.79	50.41	-54.7	-74.1	3.8	7.47e-01	0	33	104	0	77	34914
2026-01-02 02:20:18.75	199.86	50.01	-54.7	-74.1	3.8	7.41e-01	0	33	104	0	77	34971
2026-01-02 02:20:19.74	199.92	49.61	-54.7	-74.1	3.8	7.45e-01	0	33	104	0	77	34898
2026-01-02 02:20:20.75	199.98	49.21	-54.7	-74.1	3.8	7.46e-01	0	33	104	0	77	34961
2026-01-02 02:20:21.75	200.05	48.82	-54.7	-74.1	3.8	7.44e-01	0	33	104	0	77	34972
2026-01-02 02:20:22.74	200.10	48.43	-54.7	-74.1	3.8	7.44e-01	0	33	104	0	77	34986
2026-01-02 02:20:23.74	200.16	48.05	-54.7	-74.1	3.8	7.46e-01	0	33	104	0	77	34916
2026-01-02 02:20:24.74	200.22	47.66	-54.7	-74.1	3.8	7.47e-01	0	33	104	0	77	34960
2026-01-02 02:20:25.74	200.27	47.29	-54.7	-74.1	3.8	7.45e-01	0	33	104	0	77	34886
2026-01-02 02:20:26.74	200.33	46.91	-54.7	-74.1	3.8	7.46e-01	0	33	104	0	77	34944
2026-01-02 02:20:27.73	200.38	46.54	-54.7	-74.1	3.8	7.45e-01	0	33	104	0	77	34915
2026-01-02 02:20:28.74	200.43	46.17	-54.7	-74.1	3.8	7.48e-01	0	33	104	0	77	34917
2026-01-02 02:20:29.74	200.48	45.81	-54.7	-74.1	3.8	7.47e-01	0	33	104	0	77	35044
2026-01-02 02:20:30.73	200.53	45.45	-54.7	-74.1	3.8	7.44e-01	0	33	104	0	77	35018
2026-01-02 02:20:31.73	200.58	45.09	-54.7	-74.1	3.8	7.42e-01	0	33	104	0	77	34939
2026-01-02 02:20:32.73	200.63	44.74	-54.7	-74.1	3.8	7.46e-01	0	33	104	0	77	34955
2026-01-02 02:20:33.73	200.68	44.39	-54.7	-74.0	3.8	7.46e-01	0	33	104	0	77	34875
2026-01-02 02:20:34.73	200.72	44.04	-54.7	-74.1	3.8	7.47e-01	0	33	104	0	77	34940
2026-01-02 02:20:35.73	200.77	43.69	-54.7	-74.1	3.8	7.46e-01	0	33	104	0	77	35022
2026-01-02 02:20:36.73	200.81	43.35	-54.7	-74.1	3.8	7.50e-01	0	33	104	0	77	34976
2026-01-02 02:20:37.73	200.85	43.01	-54.7	-74.1	3.8	7.42e-01	0	33	104	0	77	34977
2026-01-02 02:20:38.73	200.90	42.68	-54.7	-74.1	3.8	7.44e-01	0	33	104	0	77	35072
2026-01-02 02:20:39.73	200.94	42.35	-54.7	-74.1	3.8	7.48e-01	0	33	104	0	77	34932
2026-01-02 02:20:40.73	200.98	42.02	-54.7	-74.1	3.8	7.46e-01	0	33	104	0	77	35023
2026-01-02 02:20:41.71	201.02	41.70	-54.7	-74.1	3.8	7.45e-01	0	33	104	0	77	34890
2026-01-02 02:20:42.64	201.05	41.40	-54.7	-74.1	3.8	7.43e-01	0	33	104	0	77	34990
2026-01-02 02:20:43.64	201.09	41.08	-54.7	-74.1	3.8	7.47e-01	0	33	104	0	77	34937
2026-01-02 02:20:44.64	201.13	40.76	-54.7	-74.1	3.8	7.46e-01	0	33	104	0	77	34936
2026-01-02 02:20:45.65	201.17	40.44	-54.7	-74.1	3.8	7.44e-01	0	33	104	0	77	34931
2026-01-02 02:20:46.65	201.20	40.13	-54.7	-74.1	3.8	7.46e-01	0	33	104	0	77	34963
2026-01-02 02:20:47.65	201.24	39.82	-54.7	-74.1	3.8	7.47e-01	0	33	104	0	77	35025
2026-01-02 02:20:48.65	201.27	39.51	-54.7	-74.1	3.8	7.46e-01	0	33	104	0	77	34955
2026-01-02 02:20:49.65	201.31	39.21	-54.7	-74.1	3.8	7.45e-01	0	33	104	0	77	34954
2026-01-02 02:20:50.65	201.34	38.91	-54.7	-74.1	3.8	7.46e-01	0	33	104	0	77	34994
2026-01-02 02:20:51.65	201.38	38.61	-54.7	-74.1	3.8	7.49e-01	0	33	104	0	77	34986
2026-01-02 02:20:52.65	201.41	38.32	-54.7	-74.1	3.8	7.45e-01	0	33	104	0	77	35004
2026-01-02 02:20:53.65	201.44	38.03	-54.7	-74.1	3.8	7.48e-01	0	33	104	0	77	34930
2026-01-02 02:20:54.66	201.47	37.73	-54.7	-74.1	3.8	7.43e-01	0	33	104	0	77	34960
2026-01-02 02:20:55.66	201.50	37.45	-54.7	-74.1	3.8	7.48e-01	0	33	104	0	77	34958
2026-01-02 02:20:56.66	201.54	37.16	-54.7	-74.1	3.8	7.45e-01	0	33	104	0	77	35016
2026-01-02 02:20:57.67	201.57	36.88	-54.7	-74.1	3.8	7.45e-01	0	33	104	0	77	34944
2026-01-02 02:20:58.67	201.60	36.60	-54.7	-74.1	3.8	7.46e-01	0	33	104	0	77	34911
2026-01-02 02:20:59.66	201.63	36.32	-54.7	-74.1	3.8	7.45e-01	0	33	104	0	77	34985
2026-01-02 02:21:00.66	201.65	36.05	-54.7	-74.0	3.8	7.45e-01	0	33	104	0	77	34862
2026-01-02 02:21:01.66	201.68	35.78	-54.7	-74.1	3.8	7.49e-01	0	33	104	0	77	34924
2026-01-02 02:21:02.66	201.71	35.51	-54.7	-74.1	3.8	7.46e-01	0	33	104	0	77	34881
2026-01-02 02:21:03.67	201.74	35.24	-54.7	-74.1	3.8	7.45e-01	0	33	104	0	77	34946
2026-01-02 02:21:04.67	201.77	34.97	-54.7	-74.1	3.8	7.44e-01	0	33	104	0	77	34971
2026-01-02 02:21:05.67	201.79	34.71	-54.7	-74.1	3.8	7.45e-01	0	33	104	0	77	35002
2026-01-02 02:21:06.67	201.82	34.45	-54.7	-74.1	3.8	7.44e-01	0	33	104	0	77	34962
2026-01-02 02:21:07.66	201.85	34.20	-54.7	-74.1	3.8	7.43e-01	0	33	104	0	77	34955
2026-01-02 02:21:08.65	201.87	33.94	-54.7	-74.0	3.8	7.45e-01	0	33	104	0	77	34843
2026-01-02 02:21:09.65	201.90	33.69	-54.7	-74.1	3.8	7.47e-01	0	33	104	0	77	34935
2026-01-02 02:21:10.65	201.92	33.44	-54.7	-74.1	3.8	7.45e-01	0	33	104	0	77	34883
2026-01-02 02:21:11.65	201.95	33.19	-54.7	-74.1	3.8	7.44e-01	0	33	104	0	77	34946
2026-01-02 02:21:12.65	201.97	32.94	-54.7	-74.1	3.8	7.46e-01	0	33	104	0	77	34951
2026-01-02 02:21:13.65	202.00	32.70	-54.7	-74.1	3.8	7.44e-01	0	33	104	0	77	34915
2026-01-02 02:21:14.65	202.02	32.46	-54.7	-74.1	3.8	7.44e-01	0	33	104	0	77	34888
2026-01-02 02:21:15.65	202.04	32.22	-54.7	-74.1	3.8	7.44e-01	0	33	104	0	77	34891
2026-01-02 02:21:16.64	202.07	31.98	-54.7	-74.1	3.8	7.46e-01	0	33	104	0	77	34914
2026-01-02 02:21:17.64	202.09	31.74	-54.7	-74.1	3.8	7.45e-01	0	33	104	0	77	34947
2026-01-02 02:21:18.64	202.11	31.51	-54.7	-74.1	3.8	7.47e-01	0	33	104	0	77	34933
2026-01-02 02:21:19.64	202.14	31.28	-54.7	-74.1	3.8	7.47e-01	0	33	104	0	77	34944
2026-01-02 02:21:20.64	202.16	31.05	-54.7	-74.1	3.8	7.46e-01	0	33	104	0	77	34989
2026-01-02 02:21:21.63	202.18	30.82	-54.7	-74.1	3.8	7.46e-01	0	33	104	0	77	34892
2026-01-02 02:21:22.63	202.20	30.59	-54.7	-74.1	3.8	7.45e-01	0	33	104	0	77	35008
2026-01-02 02:21:23.63	202.22	30.37	-54.7	-74.1	3.8	7.44e-01	0	33	104	0	77	35008
2026-01-02 02:21:24.63	202.24	30.15	-54.7	-74.1	3.8	7.45e-01	0	33	104	0	77	34947
2026-01-02 02:21:25.63	202.26	29.92	-54.7	-74.1	3.8	7.47e-01	0	33	104	0	77	34932
2026-01-02 02:21:26.63	202.29	29.71	-54.7	-74.1	3.8	7.45e-01	0	33	104	0	77	34906
2026-01-02 02:21:27.62	202.31	29.49	-54.7	-74.1	3.8	7.45e-01	0	33	104	0	77	34964
2026-01-02 02:21:28.62	202.33	29.27	-54.7	-74.1	3.8	7.43e-01	0	33	104	0	77	34960
2026-01-02 02:21:29.63	202.35	29.06	-54.7	-74.1	3.9	7.48e-01	0	33	104	0	77	34980
2026-01-02 02:21:30.62	202.37	28.85	-54.7	-74.1	3.8	7.48e-01	0	33	104	0	77	35065
2026-01-02 02:21:31.62	202.39	28.64	-54.7	-74.1	3.8	7.44e-01	0	33	104	0	77	35018
2026-01-02 02:21:32.62	202.40	28.43	-54.7	-74.1	3.8	7.46e-01	0	33	104	0	77	34937
2026-01-02 02:21:33.63	202.42	28.22	-54.7	-74.1	3.8	7.45e-01	0	33	104	0	77	35030
2026-01-02 02:21:34.62	202.44	28.02	-54.7	-74.1	3.8	7.44e-01	0	33	104	0	77	34884
2026-01-02 02:21:35.62	202.46	27.81	-54.7	-74.1	3.8	7.46e-01	0	33	104	0	77	34932
2026-01-02 02:21:36.63	202.48	27.61	-54.7	-74.1	3.8	7.50e-01	0	33	104	0	77	34904
2026-01-02 02:21:37.62	202.50	27.41	-54.7	-74.1	3.8	7.45e-01	0	33	104	0	77	34901
2026-01-02 02:21:38.62	202.52	27.21	-54.7	-74.1	3.8	7.46e-01	0	33	104	0	77	34965
2026-01-02 02:21:39.61	202.53	27.01	-54.7	-74.1	3.8	7.46e-01	0	33	104	0	77	34966
2026-01-02 02:21:40.62	202.55	26.82	-54.7	-74.1	3.8	7.47e-01	0	33	104	0	77	34969
2026-01-02 02:21:41.62	202.57	26.62	-54.7	-74.1	3.8	7.46e-01	0	33	104	0	77	34920
2026-01-02 02:21:42.63	202.59	26.43	-54.7	-74.1	3.8	7.46e-01	0	33	104	0	77	34948
2026-01-02 02:21:43.63	202.60	26.24	-54.7	-74.1	3.8	7.45e-01	0	33	104	0	77	34987
2026-01-02 02:21:44.63	202.62	26.05	-54.7	-74.1	3.8	7.47e-01	0	33	104	0	77	34970
2026-01-02 02:21:45.62	202.64	25.86	-54.7	-74.1	3.8	7.47e-01	0	33	104	0	77	34906
2026-01-02 02:21:46.62	202.66	25.67	-54.7	-74.1	3.8	7.47e-01	0	33	104	0	77	34976
2026-01-02 02:21:47.62	202.67	25.49	-54.7	-74.0	3.8	7.45e-01	0	33	104	0	77	34865
2026-01-02 02:21:48.62	202.69	25.30	-54.7	-74.1	3.8	7.47e-01	0	33	104	0	77	34966
2026-01-02 02:21:49.62	202.70	25.12	-54.7	-74.1	3.8	7.44e-01	0	33	104	0	77	34904
2026-01-02 02:21:50.62	202.72	24.94	-54.7	-74.1	3.8	7.44e-01	0	33	104	0	77	35007
2026-01-02 02:21:51.62	202.74	24.76	-54.7	-74.1	3.8	7.47e-01	0	33	104	0	77	34922
2026-01-02 02:21:52.62	202.75	24.58	-54.7	-74.0	3.8	7.50e-01	0	33	104	0	77	34872
2026-01-02 02:21:53.62	202.77	24.40	-54.7	-74.1	3.8	7.44e-01	0	33	104	0	77	34915
2026-01-02 02:21:54.61	202.78	24.22	-54.7	-74.1	3.8	7.47e-01	0	33	104	0	77	34903
2026-01-02 02:21:55.61	202.80	24.05	-54.7	-74.1	3.8	7.46e-01	0	33	104	0	77	34935
2026-01-02 02:21:56.61	202.81	23.88	-54.7	-74.1	3.8	7.48e-01	0	33	104	0	77	34882
2026-01-02 02:21:57.62	202.83	23.70	-54.7	-74.1	3.8	7.44e-01	0	33	104	0	77	34968
2026-01-02 02:21:58.63	202.85	23.53	-54.7	-74.1	3.8	7.46e-01	0	33	104	0	77	34952
2026-01-02 02:21:59.62	202.86	23.36	-54.7	-74.1	3.8	7.47e-01	0	33	104	0	77	35001
2026-01-02 02:22:00.62	202.87	23.19	-54.7	-74.1	3.8	7.46e-01	0	33	104	0	77	34888
2026-01-02 02:22:01.62	202.89	23.02	-54.7	-74.1	3.8	7.46e-01	0	33	104	0	77	34896
2026-01-02 02:22:02.62	202.90	22.86	-54.7	-74.1	3.8	7.48e-01	0	33	104	0	77	34921
2026-01-02 02:22:03.62	202.92	22.69	-54.7	-74.1	3.8	7.43e-01	0	33	104	0	77	35001
2026-01-02 02:22:04.62	202.93	22.53	-54.7	-74.1	3.8	7.46e-01	0	33	104	0	77	34913
2026-01-02 02:22:05.62	202.95	22.36	-54.7	-74.1	3.8	7.48e-01	0	33	104	0	77	34928
2026-01-02 02:22:06.62	202.96	22.20	-54.7	-74.1	3.8	7.46e-01	0	33	104	0	77	34999
2026-01-02 02:22:07.61	202.97	22.04	-54.7	-74.1	3.8	7.48e-01	0	33	104	0	77	34935
2026-01-02 02:22:08.61	202.99	21.88	-54.7	-74.1	3.8	7.46e-01	0	33	104	0	77	34923
2026-01-02 02:22:09.61	203.00	21.72	-54.7	-74.1	3.8	7.41e-01	0	33	104	0	77	34896
2026-01-02 02:22:10.60	203.02	21.57	-54.7	-74.1	3.8	7.48e-01	0	33	104	0	77	34906
2026-01-02 02:22:11.60	203.03	21.41	-54.7	-74.1	3.8	7.45e-01	0	33	104	0	77	34981
2026-01-02 02:22:12.59	203.04	21.26	-54.7	-74.1	3.8	7.47e-01	0	33	104	0	77	34939
2026-01-02 02:22:13.59	203.06	21.10	-54.7	-74.1	3.8	7.46e-01	0	33	104	0	77	34928
2026-01-02 02:22:14.59	203.07	20.95	-54.7	-74.1	3.8	7.43e-01	0	33	104	0	77	34955
2026-01-02 02:22:15.59	203.08	20.80	-54.7	-74.1	3.8	7.45e-01	0	33	104	0	77	34971
2026-01-02 02:22:16.59	203.10	20.64	-54.7	-74.1	3.8	7.44e-01	0	33	104	0	77	34898
2026-01-02 02:22:17.58	203.11	20.50	-54.7	-74.1	3.8	7.46e-01	0	33	104	0	77	34957
2026-01-02 02:22:18.58	203.12	20.35	-54.7	-74.1	3.8	7.44e-01	0	33	104	0	77	34892
2026-01-02 02:22:19.58	203.13	20.20	-54.7	-74.1	3.8	7.48e-01	0	33	104	0	77	34985
2026-01-02 02:22:20.57	203.15	20.05	-54.7	-74.0	3.8	7.47e-01	0	33	104	0	77	34878
2026-01-02 02:22:21.57	203.16	19.90	-54.7	-74.1	3.8	7.48e-01	0	33	104	0	77	34934
2026-01-02 02:22:22.58	203.17	19.76	-54.7	-74.1	3.8	7.42e-01	0	33	104	0	77	35023
2026-01-02 02:22:23.57	203.18	19.61	-54.7	-74.1	3.8	7.46e-01	0	33	104	0	77	35004
2026-01-02 02:22:24.58	203.20	19.47	-54.7	-74.1	3.8	7.44e-01	0	33	104	0	77	35032
2026-01-02 02:22:25.58	203.21	19.33	-54.7	-74.1	3.8	7.46e-01	0	33	104	0	77	34991
2026-01-02 02:22:26.58	203.22	19.18	-54.7	-74.1	3.8	7.46e-01	0	33	104	0	77	34920
2026-01-02 02:22:27.59	203.23	19.04	-54.7	-74.1	3.8	7.47e-01	0	33	104	0	77	34945
2026-01-02 02:22:28.58	203.24	18.90	-54.7	-74.1	3.8	7.46e-01	0	33	104	0	77	34899
2026-01-02 02:22:29.58	203.26	18.76	-54.7	-74.1	3.8	7.45e-01	0	33	104	0	77	34916
2026-01-02 02:22:30.58	203.27	18.62	-54.7	-74.1	3.8	7.48e-01	0	33	104	0	77	34901
2026-01-02 02:22:31.59	203.28	18.49	-54.7	-74.1	3.8	7.47e-01	0	33	104	0	77	34915
2026-01-02 02:22:32.59	203.29	18.35	-54.7	-74.1	3.8	7.47e-01	0	33	104	0	77	34893
2026-01-02 02:22:33.59	203.30	18.21	-54.7	-74.1	3.8	7.48e-01	0	33	104	0	77	34890
2026-01-02 02:22:34.59	203.31	18.08	-54.7	-74.1	3.8	7.46e-01	0	33	104	0	77	34942
2026-01-02 02:22:35.59	203.33	17.94	-54.7	-74.1	3.8	7.43e-01	0	33	104	0	77	34921
2026-01-02 02:22:36.59	203.34	17.81	-54.7	-74.1	3.8	7.43e-01	0	33	104	0	77	34967
2026-01-02 02:22:37.60	203.35	17.68	-54.7	-74.1	3.8	7.44e-01	0	33	104	0	77	34964
2026-01-02 02:22:38.60	203.36	17.54	-54.7	-74.1	3.8	7.46e-01	0	33	104	0	77	34964
2026-01-02 02:22:39.60	203.37	17.41	-54.7	-74.1	3.8	7.47e-01	0	33	104	0	77	34932
2026-01-02 02:22:40.60	203.38	17.28	-54.7	-74.1	3.8	7.44e-01	0	33	104	0	77	34966
2026-01-02 02:22:41.59	203.39	17.15	-54.7	-74.1	3.8	7.46e-01	0	33	104	0	77	34939
2026-01-02 02:22:42.60	203.40	17.02	-54.7	-74.1	3.8	7.46e-01	0	33	104	0	77	35009
2026-01-02 02:22:43.60	203.42	16.89	-54.7	-74.1	3.8	7.41e-01	0	33	104	0	77	34960
2026-01-02 02:22:44.60	203.43	16.77	-54.7	-74.1	3.8	7.46e-01	0	33	104	0	77	34966
2026-01-02 02:22:45.61	203.44	16.64	-54.7	-74.1	3.8	7.47e-01	0	33	104	0	77	35017
2026-01-02 02:22:46.61	203.45	16.51	-54.7	-74.1	3.8	7.49e-01	0	33	104	0	77	34981
2026-01-02 02:22:47.61	203.46	16.39	-54.7	-74.1	3.8	7.45e-01	0	33	104	0	77	34970
2026-01-02 02:22:48.62	203.47	16.26	-54.7	-74.1	3.8	7.44e-01	0	33	104	0	77	34970
2026-01-02 02:22:49.61	203.48	16.14	-54.7	-74.1	3.8	7.46e-01	0	33	104	0	77	34915
2026-01-02 02:22:50.61	203.49	16.02	-54.7	-74.1	3.8	7.47e-01	0	33	104	0	77	35009
2026-01-02 02:22:51.61	203.50	15.89	-54.7	-74.1	3.8	7.47e-01	0	33	104	0	77	34991
2026-01-02 02:22:52.61	203.51	15.77	-54.7	-74.1	3.8	7.45e-01	0	33	104	0	77	34932
2026-01-02 02:22:53.61	203.52	15.65	-54.7	-74.1	3.8	7.47e-01	0	33	104	0	77	34931
2026-01-02 02:22:54.62	203.53	15.53	-54.7	-74.1	3.8	7.45e-01	0	33	104	0	77	34909
2026-01-02 02:22:55.62	203.54	15.41	-54.7	-74.1	3.8	7.43e-01	0	33	104	0	77	34961
2026-01-02 02:22:56.62	203.55	15.29	-54.7	-74.1	3.8	7.44e-01	0	33	104	0	77	34887
2026-01-02 02:22:57.62	203.56	15.17	-54.7	-74.1	3.8	7.48e-01	0	33	104	0	77	34954
2026-01-02 02:22:58.62	203.57	15.05	-54.7	-74.1	3.8	7.44e-01	0	33	104	0	77	34951
2026-01-02 02:22:59.62	203.58	14.94	-54.7	-74.1	3.8	7.45e-01	0	33	104	0	77	34937
2026-01-02 02:23:00.62	203.59	14.82	-54.7	-74.1	3.8	7.46e-01	0	33	104	0	77	34946
2026-01-02 02:23:01.62	203.60	14.70	-54.7	-74.1	3.8	7.46e-01	0	33	104	0	77	34908
2026-01-02 02:23:02.62	203.61	14.59	-54.7	-74.1	3.8	7.46e-01	0	33	104	0	77	34940
2026-01-02 02:23:03.62	203.62	14.47	-54.7	-74.1	3.8	7.46e-01	0	33	104	0	77	35022
2026-01-02 02:23:04.61	203.63	14.36	-54.7	-74.1	3.8	7.47e-01	0	33	104	0	77	34915
2026-01-02 02:23:05.61	203.64	14.25	-54.7	-74.0	3.8	7.45e-01	0	33	104	0	77	34867
2026-01-02 02:23:06.60	203.65	14.13	-54.7	-74.1	3.8	7.46e-01	0	33	104	0	77	34942
2026-01-02 02:23:07.60	203.66	14.02	-54.7	-74.1	3.8	7.50e-01	0	33	104	0	77	34966
2026-01-02 02:23:08.59	203.67	13.91	-54.7	-74.1	3.8	7.45e-01	0	33	104	0	77	34901
2026-01-02 02:23:09.59	203.68	13.80	-54.7	-74.1	3.8	7.44e-01	0	33	104	0	77	34993
2026-01-02 02:23:10.59	203.69	13.69	-54.7	-74.1	3.8	7.45e-01	0	33	104	0	77	34961
2026-01-02 02:23:11.59	203.70	13.58	-54.7	-74.1	3.8	7.48e-01	0	33	104	0	77	34927
2026-01-02 02:23:12.59	203.71	13.47	-54.7	-74.1	3.8	7.45e-01	0	33	104	0	77	34987
2026-01-02 02:23:13.58	203.71	13.36	-54.7	-74.1	3.8	7.48e-01	0	33	104	0	77	34909
2026-01-02 02:23:14.59	203.72	13.25	-54.7	-74.1	3.8	7.48e-01	0	33	104	0	77	34974
2026-01-02 02:23:15.58	203.73	13.14	-54.7	-74.1	3.8	7.46e-01	0	33	104	0	77	34939
2026-01-02 02:23:16.58	203.74	13.04	-54.7	-74.1	3.8	7.48e-01	0	33	104	0	77	34933
2026-01-02 02:23:17.58	203.75	12.93	-54.7	-74.1	3.9	7.48e-01	0	33	104	0	77	34935
2026-01-02 02:23:18.58	203.76	12.82	-54.7	-74.1	3.8	7.45e-01	0	33	104	0	77	34935
2026-01-02 02:23:19.58	203.77	12.72	-54.7	-74.1	3.8	7.39e-01	0	33	104	0	77	34905
2026-01-02 02:23:20.58	203.78	12.61	-54.7	-74.1	3.8	7.48e-01	0	33	104	0	77	34898
2026-01-02 02:23:21.58	203.79	12.51	-54.7	-74.1	3.8	7.46e-01	0	33	104	0	77	34951
2026-01-02 02:23:22.58	203.80	12.40	-54.7	-74.1	3.8	7.47e-01	0	33	104	0	77	34963
2026-01-02 02:23:23.58	203.80	12.30	-54.7	-74.1	3.8	7.46e-01	0	33	104	0	77	34977
2026-01-02 02:23:24.58	203.81	12.19	-54.7	-74.1	3.8	7.46e-01	0	33	104	0	77	34920
2026-01-02 02:23:25.58	203.82	12.09	-54.7	-74.1	3.8	7.45e-01	0	33	104	0	77	34903
2026-01-02 02:23:26.58	203.83	11.99	-54.7	-74.1	3.8	7.47e-01	0	33	104	0	77	34922
2026-01-02 02:23:27.57	203.84	11.89	-54.7	-74.1	3.8	7.47e-01	0	33	104	0	77	34968
2026-01-02 02:23:28.58	203.85	11.78	-54.7	-74.1	3.8	7.43e-01	0	33	104	0	77	34897
2026-01-02 02:23:29.58	203.86	11.68	-54.7	-74.1	3.8	7.47e-01	0	33	104	0	77	35015
2026-01-02 02:23:30.58	203.86	11.58	-54.7	-74.1	3.8	7.45e-01	0	33	104	0	77	34955
2026-01-02 02:23:31.58	203.87	11.48	-54.7	-74.1	3.8	7.46e-01	0	33	104	0	77	34972
2026-01-02 02:23:32.58	203.88	11.38	-54.7	-74.1	3.8	7.46e-01	0	33	104	0	77	35049
2026-01-02 02:23:33.58	203.89	11.28	-54.7	-74.1	3.8	7.46e-01	0	33	104	0	77	35010
2026-01-02 02:23:34.57	203.90	11.19	-54.7	-74.1	3.8	7.44e-01	0	33	104	0	77	35013
2026-01-02 02:23:35.57	203.91	11.09	-54.7	-74.1	3.8	7.49e-01	0	33	104	0	77	34978
2026-01-02 02:23:36.57	203.92	10.99	-54.7	-74.1	3.8	7.42e-01	0	33	104	0	77	34945
2026-01-02 02:23:37.56	203.92	10.89	-54.7	-74.1	3.8	7.48e-01	0	33	104	0	77	34912
2026-01-02 02:23:38.56	203.93	10.80	-54.7	-74.1	3.8	7.47e-01	0	33	104	0	77	34982
2026-01-02 02:23:39.56	203.94	10.70	-54.7	-74.1	3.8	7.44e-01	0	33	104	0	77	34910
2026-01-02 02:23:40.57	203.95	10.60	-54.7	-74.1	3.8	7.46e-01	0	33	104	0	77	34899
2026-01-02 02:23:41.57	203.96	10.51	-54.7	-74.1	3.8	7.46e-01	0	33	104	0	77	34939
2026-01-02 02:23:42.57	203.96	10.41	-54.7	-74.1	3.8	7.45e-01	0	33	104	0	77	34936
2026-01-02 02:23:43.57	203.97	10.32	-54.7	-74.1	3.8	7.45e-01	0	33	104	0	77	34996
2026-01-02 02:23:44.58	203.98	10.22	-54.7	-74.1	3.8	7.46e-01	0	33	104	0	77	34938
2026-01-02 02:23:45.58	203.99	10.13	-54.7	-74.1	3.8	7.44e-01	0	33	104	0	77	35068
2026-01-02 02:23:46.58	204.00	10.03	-54.7	-74.1	3.8	7.46e-01	0	33	104	0	77	35027
2026-01-02 02:23:47.58	204.01	9.94	-54.7	-74.1	3.8	7.46e-01	0	33	104	0	77	34962
2026-01-02 02:23:48.58	204.01	9.85	-54.7	-74.1	3.8	7.46e-01	0	33	104	0	77	34973
2026-01-02 02:23:49.58	204.02	9.75	-54.7	-74.1	3.8	7.51e-01	0	33	104	0	77	34911
2026-01-02 02:23:50.57	204.03	9.66	-54.7	-74.1	3.8	7.48e-01	0	33	104	0	77	34943
2026-01-02 02:23:51.57	204.04	9.57	-54.7	-74.1	3.8	7.43e-01	0	33	104	0	77	34994
2026-01-02 02:23:52.57	204.04	9.48	-54.7	-74.1	3.8	7.43e-01	0	33	104	0	77	34960
2026-01-02 02:23:53.57	204.05	9.39	-54.7	-74.1	3.8	7.47e-01	0	33	104	0	77	34939
2026-01-02 02:23:54.56	204.06	9.30	-54.7	-74.1	3.8	7.45e-01	0	33	104	0	77	34912
2026-01-02 02:23:55.57	204.07	9.21	-54.7	-74.1	3.8	7.46e-01	0	33	104	0	77	34971
2026-01-02 02:23:56.57	204.08	9.12	-54.7	-74.1	3.8	7.43e-01	0	33	104	0	77	34921
2026-01-02 02:23:57.57	204.08	9.03	-54.7	-74.1	3.8	7.43e-01	0	33	104	0	77	34898
2026-01-02 02:23:58.57	204.09	8.94	-54.7	-74.1	3.8	7.47e-01	0	33	104	0	77	34944
2026-01-02 02:23:59.57	204.10	8.85	-54.7	-74.1	3.8	7.43e-01	0	33	104	0	77	35004
2026-01-02 02:24:00.56	204.11	8.76	-54.7	-74.1	3.8	7.46e-01	0	33	104	0	77	34889
2026-01-02 02:24:01.57	204.11	8.67	-54.7	-74.1	3.8	7.48e-01	0	33	104	0	77	34977
2026-01-02 02:24:02.55	204.12	8.59	-54.7	-74.0	3.8	7.50e-01	0	33	104	0	77	34878
2026-01-02 02:24:03.55	204.13	8.50	-54.7	-74.1	3.8	7.44e-01	0	33	104	0	77	34967
2026-01-02 02:24:04.55	204.14	8.41	-54.7	-74.1	3.8	7.43e-01	0	33	104	0	77	34976
2026-01-02 02:24:05.55	204.14	8.32	-54.7	-74.1	3.8	7.46e-01	0	33	104	0	77	34966
2026-01-02 02:24:06.54	204.15	8.24	-54.7	-74.1	3.8	7.44e-01	0	33	104	0	77	34965
2026-01-02 02:24:07.54	204.16	8.15	-54.7	-74.1	3.8	7.45e-01	0	33	104	0	77	34983
2026-01-02 02:24:08.53	204.17	8.07	-54.7	-74.1	3.8	7.46e-01	0	33	104	0	77	34944
2026-01-02 02:24:09.53	204.17	7.98	-54.7	-74.1	3.8	7.41e-01	0	33	104	0	77	34952
2026-01-02 02:24:10.53	204.18	7.90	-54.7	-74.1	3.8	7.44e-01	0	33	104	0	77	34928
2026-01-02 02:24:11.52	204.19	7.81	-54.7	-74.1	3.8	7.42e-01	0	33	104	0	77	34922
2026-01-02 02:24:12.52	204.19	7.73	-54.7	-74.1	3.8	7.42e-01	0	33	104	0	77	34944
2026-01-02 02:24:13.52	204.20	7.64	-54.7	-74.0	3.8	7.47e-01	0	33	104	0	77	34856
2026-01-02 02:24:14.52	204.21	7.56	-54.7	-74.1	3.8	7.44e-01	0	33	104	0	77	34884
2026-01-02 02:24:15.52	204.22	7.47	-54.7	-74.1	3.8	7.43e-01	0	33	104	0	77	34956
2026-01-02 02:24:16.52	204.22	7.39	-54.7	-74.1	3.8	7.46e-01	0	33	104	0	77	35016
2026-01-02 02:24:17.51	204.23	7.31	-54.7	-74.1	3.8	7.46e-01	0	33	104	0	77	34977
2026-01-02 02:24:18.51	204.24	7.23	-54.7	-74.1	3.8	7.45e-01	0	33	104	0	77	35008
2026-01-02 02:24:19.51	204.24	7.14	-54.7	-74.1	3.8	7.47e-01	0	33	104	0	77	34932
2026-01-02 02:24:20.52	204.25	7.06	-54.7	-74.1	3.8	7.49e-01	0	33	104	0	77	34966
2026-01-02 02:24:21.52	204.26	6.98	-54.7	-74.1	3.8	7.47e-01	0	33	104	0	77	34946
2026-01-02 02:24:22.52	204.27	6.90	-54.7	-74.1	3.8	7.45e-01	0	33	104	0	77	34886
2026-01-02 02:24:23.51	204.27	6.82	-54.7	-74.0	3.8	7.44e-01	0	33	104	0	77	34853
2026-01-02 02:24:24.51	204.28	6.74	-54.7	-74.1	3.8	7.47e-01	0	33	104	0	77	34963
2026-01-02 02:24:25.52	204.29	6.65	-54.7	-74.1	3.8	7.48e-01	0	33	104	0	77	35004
2026-01-02 02:24:26.52	204.29	6.57	-54.7	-74.1	3.8	7.45e-01	0	33	104	0	77	34956
2026-01-02 02:24:27.52	204.30	6.49	-54.7	-74.1	3.8	7.46e-01	0	33	104	0	77	34941
2026-01-02 02:24:28.51	204.31	6.41	-54.7	-74.1	3.8	7.45e-01	0	33	104	0	77	34925
2026-01-02 02:24:29.51	204.32	6.33	-54.7	-74.1	3.8	7.46e-01	0	33	104	0	77	34905
2026-01-02 02:24:30.51	204.32	6.26	-54.7	-74.1	3.8	7.47e-01	0	33	104	0	77	34911
2026-01-02 02:24:31.51	204.33	6.18	-54.7	-74.1	3.8	7.45e-01	0	33	104	0	77	34896
2026-01-02 02:24:32.50	204.34	6.10	-54.7	-74.0	3.8	7.47e-01	0	33	104	0	77	34865
2026-01-02 02:24:33.50	204.34	6.02	-54.7	-74.1	3.8	7.47e-01	0	33	104	0	77	34933
2026-01-02 02:24:34.50	204.35	5.94	-54.7	-74.1	3.8	7.46e-01	0	33	104	0	77	34905
2026-01-02 02:24:35.51	204.36	5.86	-54.7	-74.1	3.8	7.43e-01	0	33	104	0	77	34931
2026-01-02 02:24:36.51	204.36	5.78	-54.7	-74.1	3.8	7.43e-01	0	33	104	0	77	34911
2026-01-02 02:24:37.51	204.37	5.71	-54.7	-74.0	3.8	7.44e-01	0	33	104	0	77	34873
2026-01-02 02:24:38.51	204.38	5.63	-54.7	-74.1	3.8	7.47e-01	0	33	104	0	77	34929
2026-01-02 02:24:39.51	204.38	5.55	-54.7	-74.1	3.8	7.46e-01	0	33	104	0	77	34959
2026-01-02 02:24:40.52	204.39	5.48	-54.7	-74.1	3.8	7.45e-01	0	33	104	0	77	34966
2026-01-02 02:24:41.52	204.40	5.40	-54.7	-74.1	3.8	7.44e-01	0	33	104	0	77	34942
2026-01-02 02:24:42.52	204.40	5.32	-54.7	-74.1	3.8	7.45e-01	0	33	104	0	77	34917
2026-01-02 02:24:43.52	204.41	5.25	-54.7	-74.1	3.8	7.45e-01	0	33	104	0	77	34919
2026-01-02 02:24:44.53	204.42	5.17	-54.7	-74.1	3.8	7.46e-01	0	33	104	0	77	34886
2026-01-02 02:24:45.53	204.42	5.09	-54.7	-74.1	3.8	7.45e-01	0	33	104	0	77	34897
2026-01-02 02:24:46.53	204.43	5.02	-54.7	-74.0	3.8	7.42e-01	0	33	104	0	77	34879
2026-01-02 02:24:47.53	204.44	4.94	-54.7	-74.1	3.8	7.48e-01	0	33	104	0	77	34940
2026-01-02 02:24:48.53	204.44	4.87	-54.7	-74.1	3.8	7.46e-01	0	33	104	0	77	34957
2026-01-02 02:24:49.53	204.45	4.79	-54.7	-74.1	3.8	7.48e-01	0	33	104	0	77	34951
2026-01-02 02:24:50.53	204.46	4.72	-54.7	-74.1	3.8	7.44e-01	0	33	104	0	77	34923
2026-01-02 02:24:51.53	204.46	4.65	-54.7	-74.1	3.8	7.46e-01	0	33	104	0	77	34934
2026-01-02 02:24:52.53	204.47	4.57	-54.7	-74.1	3.8	7.46e-01	0	33	104	0	77	34972
2026-01-02 02:24:53.53	204.48	4.50	-54.7	-74.1	3.8	7.46e-01	0	33	104	0	77	34931
2026-01-02 02:24:54.52	204.48	4.43	-54.7	-74.1	3.8	7.45e-01	0	33	104	0	77	35004
2026-01-02 02:24:55.52	204.49	4.35	-54.7	-74.0	3.8	7.47e-01	0	33	104	0	77	34858
2026-01-02 02:24:56.52	204.49	4.28	-54.7	-74.0	3.8	7.43e-01	0	33	104	0	77	34855
2026-01-02 02:24:57.51	204.50	4.21	-54.7	-74.1	3.8	7.43e-01	0	33	104	0	77	34908
