passes_logs/2026/01/02/R3.2S_Murmansk/R3.2S_Murmansk__20260102_143702_FENGYUN_3D_rec.log

#Pass ID: 20260102_143702_FENGYUN 3D
#Satellite: FENGYUN 3D
#Configuration: FENGYUN 3D
#almurnet v.1.7.20251203
#Start time: 2026-01-02 14:37:02

#Version: 2.2.20231116
#Station: R3.2S_Murmansk
#Location: 33.079688 lon 68.888172 lat
#TLE: 1 43010U 17072A   26001.19005061  .00000535  00000+0  27473-3 0  9994
#TLE: 2 43010  98.9910 332.7942 0001852 133.6060 226.5269 14.19691635421296

#Time	Az	El	Level	Level2	SNR	BER	BlckErr	Temp	State	Recorded	gain1	gain2
2026-01-02 14:37:02.29	231.06	1.98	-60.2	-72.8	3.8	8.45e-01	0	30	0	0	87	14612
2026-01-02 14:37:03.28	231.14	2.02	-60.2	-72.7	3.8	8.45e-01	0	30	104	0	85	16198
2026-01-02 14:37:04.27	231.23	2.07	-60.2	-72.7	3.8	8.46e-01	0	30	104	0	85	16185
2026-01-02 14:37:05.26	231.32	2.12	-60.2	-72.7	3.8	8.46e-01	0	30	104	0	85	16185
2026-01-02 14:37:06.25	231.41	2.17	-60.2	-72.8	3.8	8.46e-01	0	30	104	0	85	16321
2026-01-02 14:37:07.26	231.50	2.22	-60.2	-72.8	3.8	8.45e-01	0	30	104	0	85	16324
2026-01-02 14:37:08.26	231.59	2.27	-60.2	-72.8	3.8	8.45e-01	0	30	104	0	85	16350
2026-01-02 14:37:09.25	231.68	2.32	-60.2	-72.8	3.8	8.45e-01	0	30	104	0	85	16321
2026-01-02 14:37:10.25	231.77	2.36	-60.2	-72.8	3.8	8.46e-01	0	30	104	0	85	16376
2026-01-02 14:37:11.25	231.87	2.41	-60.2	-72.8	3.8	8.46e-01	0	30	104	0	85	16322
2026-01-02 14:37:12.25	231.96	2.46	-60.2	-72.8	3.8	8.46e-01	0	30	104	0	85	16401
2026-01-02 14:37:13.24	232.05	2.51	-60.2	-72.8	3.8	8.46e-01	0	30	104	0	85	16405
2026-01-02 14:37:14.24	232.14	2.56	-60.2	-72.8	3.8	8.45e-01	0	30	104	0	85	16393
2026-01-02 14:37:15.24	232.23	2.61	-60.2	-72.8	3.8	8.45e-01	0	30	104	0	85	16357
2026-01-02 14:37:16.25	232.33	2.66	-60.2	-72.7	3.8	8.46e-01	0	30	104	0	85	16295
2026-01-02 14:37:17.25	232.42	2.71	-60.2	-72.7	3.8	8.46e-01	0	30	104	0	85	16226
2026-01-02 14:37:18.25	232.51	2.76	-60.2	-72.6	3.8	8.46e-01	0	30	104	0	85	16120
2026-01-02 14:37:19.25	232.61	2.81	-60.2	-72.6	3.8	8.46e-01	0	30	104	0	85	16103
2026-01-02 14:37:20.25	232.70	2.86	-60.2	-72.6	3.8	8.46e-01	0	30	104	0	85	16063
2026-01-02 14:37:21.25	232.80	2.90	-60.2	-72.6	3.8	8.46e-01	0	31	104	0	85	16078
2026-01-02 14:37:22.25	232.89	2.95	-60.2	-72.6	3.8	8.46e-01	0	31	104	0	85	16115
2026-01-02 14:37:23.24	232.99	3.00	-60.2	-72.7	3.8	8.46e-01	0	31	104	0	85	16168
2026-01-02 14:37:24.24	233.08	3.05	-60.2	-72.7	3.8	8.45e-01	0	30	104	0	85	16163
2026-01-02 14:37:25.24	233.18	3.10	-60.2	-72.7	3.8	8.46e-01	0	31	104	0	85	16228
2026-01-02 14:37:26.24	233.27	3.15	-60.2	-72.7	3.8	8.46e-01	0	31	104	0	85	16310
2026-01-02 14:37:27.24	233.37	3.20	-60.2	-72.8	3.8	8.45e-01	0	31	104	0	85	16335
2026-01-02 14:37:28.24	233.47	3.25	-60.2	-72.8	3.8	8.46e-01	0	31	104	0	85	16405
2026-01-02 14:37:29.23	233.56	3.30	-60.2	-72.8	3.8	8.45e-01	0	31	104	0	85	16412
2026-01-02 14:37:30.23	233.66	3.35	-60.2	-72.7	3.8	8.45e-01	0	31	104	0	85	16277
2026-01-02 14:37:31.22	233.76	3.40	-60.2	-72.6	3.8	8.45e-01	0	31	104	0	85	16028
2026-01-02 14:37:32.22	233.85	3.45	-60.2	-72.5	3.8	8.46e-01	0	31	104	0	85	15893
2026-01-02 14:37:33.21	233.95	3.50	-60.2	-72.5	3.8	8.46e-01	0	31	104	0	85	15833
2026-01-02 14:37:34.20	234.05	3.54	-60.2	-72.6	3.8	8.45e-01	0	31	104	0	85	16015
2026-01-02 14:37:35.20	234.15	3.59	-60.2	-72.7	3.8	8.46e-01	0	31	104	0	85	16139
2026-01-02 14:37:36.20	234.25	3.64	-60.2	-72.7	3.8	8.45e-01	0	31	104	0	85	16243
2026-01-02 14:37:37.20	234.35	3.69	-60.2	-72.7	3.8	8.45e-01	0	31	104	0	85	16309
2026-01-02 14:37:38.20	234.45	3.74	-60.2	-72.8	3.8	8.44e-01	0	31	104	0	85	16418
2026-01-02 14:37:39.19	234.55	3.79	-60.2	-72.8	3.8	8.46e-01	0	31	104	0	85	16362
2026-01-02 14:37:40.19	234.65	3.84	-60.2	-72.7	3.8	8.46e-01	0	31	104	0	85	16179
2026-01-02 14:37:41.19	234.75	3.89	-60.2	-72.6	3.8	8.46e-01	0	31	104	0	85	15994
2026-01-02 14:37:42.19	234.85	3.94	-60.2	-72.3	3.8	8.44e-01	0	31	104	0	85	15543
2026-01-02 14:37:43.18	234.95	3.99	-60.2	-72.1	3.8	8.45e-01	0	31	104	0	85	15211
2026-01-02 14:37:44.18	235.05	4.04	-60.2	-72.0	3.8	8.45e-01	0	31	104	0	85	14988
2026-01-02 14:37:45.18	235.15	4.09	-60.2	-72.0	3.8	8.45e-01	0	31	104	0	85	15005
2026-01-02 14:37:46.17	235.25	4.14	-60.2	-72.1	3.8	8.45e-01	0	31	104	0	85	15074
2026-01-02 14:37:47.17	235.36	4.19	-60.2	-72.1	3.8	8.45e-01	0	31	104	0	85	15192
2026-01-02 14:37:48.17	235.46	4.24	-60.2	-72.1	3.8	8.45e-01	0	31	104	0	85	15219
2026-01-02 14:37:49.17	235.56	4.29	-60.2	-72.0	3.8	8.45e-01	0	31	104	0	85	14933
2026-01-02 14:37:50.16	235.66	4.34	-60.1	-71.7	3.8	8.46e-01	0	31	104	0	85	14537
2026-01-02 14:37:51.17	235.77	4.39	-60.1	-71.6	3.8	8.46e-01	0	31	104	0	85	14246
2026-01-02 14:37:52.17	235.87	4.44	-60.2	-71.9	3.8	8.46e-01	0	31	104	0	85	14802
2026-01-02 14:37:53.17	235.98	4.49	-60.2	-72.5	3.8	8.46e-01	0	31	104	0	85	15869
2026-01-02 14:37:54.16	236.08	4.54	-60.2	-72.7	3.8	8.46e-01	0	31	104	0	85	16182
2026-01-02 14:37:55.16	236.19	4.59	-60.2	-71.8	3.8	8.46e-01	0	31	104	0	85	14606
2026-01-02 14:37:56.16	236.29	4.64	-60.0	-70.2	3.9	8.46e-01	0	31	104	0	85	12181
2026-01-02 14:37:57.17	236.40	4.69	-59.9	-69.0	4.3	8.35e-01	0	31	0	0	85	10589
2026-01-02 14:37:58.17	236.51	4.74	-59.7	-68.0	4.6	8.19e-01	0	31	0	0	85	9477
2026-01-02 14:37:59.17	236.61	4.79	-59.7	-67.8	4.7	8.06e-01	0	31	0	0	85	9262
2026-01-02 14:38:00.17	236.72	4.84	-59.7	-67.7	4.7	8.01e-01	0	31	0	0	85	9077
2026-01-02 14:38:01.16	236.83	4.89	-59.6	-67.0	5.0	7.88e-01	0	31	0	0	85	8414
2026-01-02 14:38:02.16	236.94	4.94	-59.1	-65.0	6.3	3.49e-01	0	31	0	3145728	84	7060
2026-01-02 14:38:03.16	237.04	4.99	-58.2	-62.4	8.4	7.83e-02	0	31	0	8388608	82	5902
2026-01-02 14:38:04.16	237.15	5.04	-57.1	-60.1	10.3	3.30e-03	0	31	0	13631488	80	5091
2026-01-02 14:38:05.17	237.26	5.09	-56.9	-59.7	10.8	6.45e-04	0	31	0	19922944	80	4870
2026-01-02 14:38:06.17	237.37	5.14	-60.1	-72.2	3.8	8.45e-01	0	31	104	22020096	85	15226
2026-01-02 14:38:07.16	237.48	5.19	-54.9	-56.6	13.1	0.00e+00	0	31	0	24117248	76	4279
2026-01-02 14:38:08.16	237.59	5.24	-57.9	-61.7	9.1	7.55e-03	0	31	0	30408704	81	5738
2026-01-02 14:38:09.16	237.70	5.29	-51.6	-52.6	15.1	0.00e+00	0	31	0	35651584	69	4024
2026-01-02 14:38:10.15	237.81	5.34	-51.7	-52.6	15.1	0.00e+00	0	31	0	40894464	69	4044
2026-01-02 14:38:11.15	237.92	5.39	-51.4	-52.3	15.2	0.00e+00	0	31	0	47185920	69	3907
2026-01-02 14:38:12.15	238.03	5.44	-51.4	-52.4	15.2	0.00e+00	0	31	0	52428800	69	3916
2026-01-02 14:38:13.15	238.15	5.49	-51.3	-52.3	15.3	0.00e+00	0	31	0	57671680	69	3882
2026-01-02 14:38:14.15	238.26	5.54	-51.4	-52.3	15.3	0.00e+00	0	31	0	63963136	69	3909
2026-01-02 14:38:15.15	238.37	5.59	-51.4	-52.3	15.2	0.00e+00	0	31	0	69206016	69	3904
2026-01-02 14:38:16.14	238.48	5.64	-51.4	-52.3	15.2	0.00e+00	0	31	0	74448896	69	3911
2026-01-02 14:38:17.14	238.60	5.69	-51.3	-52.3	15.3	0.00e+00	0	31	0	80740352	69	3886
2026-01-02 14:38:18.14	238.71	5.74	-51.4	-52.3	15.3	0.00e+00	0	31	0	85983232	69	3899
2026-01-02 14:38:19.14	238.82	5.79	-51.4	-52.3	15.3	0.00e+00	0	31	0	92274688	69	3898
2026-01-02 14:38:20.14	238.94	5.84	-51.4	-52.3	15.3	0.00e+00	0	31	0	97517568	69	3906
2026-01-02 14:38:21.14	239.05	5.89	-51.5	-52.5	15.2	0.00e+00	0	31	0	102760448	69	3964
2026-01-02 14:38:22.15	239.17	5.94	-51.5	-52.4	15.2	0.00e+00	0	31	0	109051904	69	3953
2026-01-02 14:38:23.15	239.28	5.99	-51.5	-52.5	15.2	0.00e+00	0	31	0	114294784	69	3981
2026-01-02 14:38:24.15	239.40	6.04	-51.5	-52.5	15.2	0.00e+00	0	31	0	119537664	69	3959
2026-01-02 14:38:25.15	239.52	6.09	-51.5	-52.5	15.2	0.00e+00	0	31	0	125829120	69	3970
2026-01-02 14:38:26.15	239.63	6.14	-51.6	-52.6	15.1	0.00e+00	0	31	0	131072000	69	4039
2026-01-02 14:38:27.15	239.75	6.19	-51.5	-52.5	15.2	0.00e+00	0	31	0	136314880	69	3970
2026-01-02 14:38:28.15	239.87	6.24	-51.6	-52.6	15.2	0.00e+00	0	31	0	142606336	69	4016
2026-01-02 14:38:29.15	239.99	6.29	-51.4	-52.4	15.3	0.00e+00	0	31	0	147849216	69	3930
2026-01-02 14:38:30.14	240.10	6.34	-51.4	-52.3	15.3	0.00e+00	0	31	0	154140672	69	3912
2026-01-02 14:38:31.14	240.22	6.39	-51.2	-52.1	15.4	0.00e+00	0	31	0	159383552	69	3807
2026-01-02 14:38:32.14	240.34	6.44	-51.2	-52.1	15.3	0.00e+00	0	31	0	164626432	68	4026
2026-01-02 14:38:33.14	240.46	6.49	-51.0	-51.9	15.4	0.00e+00	0	31	0	170917888	68	3953
2026-01-02 14:38:34.13	240.58	6.54	-51.1	-52.0	15.4	0.00e+00	0	31	0	176160768	68	3962
2026-01-02 14:38:35.13	240.70	6.59	-51.1	-52.0	15.4	0.00e+00	0	31	0	181403648	68	3989
2026-01-02 14:38:36.13	240.82	6.64	-51.1	-52.0	15.4	0.00e+00	0	31	0	187695104	68	3965
2026-01-02 14:38:37.13	240.94	6.69	-51.2	-52.1	15.4	0.00e+00	0	31	0	192937984	68	4019
2026-01-02 14:38:38.13	241.06	6.74	-51.1	-52.0	15.4	0.00e+00	0	31	0	198180864	68	3992
2026-01-02 14:38:39.13	241.18	6.79	-51.1	-52.0	15.4	0.00e+00	0	31	0	204472320	68	3969
2026-01-02 14:38:40.12	241.30	6.84	-51.1	-52.0	15.4	0.00e+00	0	31	0	209715200	68	3980
2026-01-02 14:38:41.13	241.43	6.89	-51.0	-51.9	15.5	0.00e+00	0	31	0	214958080	68	3925
2026-01-02 14:38:42.12	241.55	6.94	-50.9	-51.8	15.5	0.00e+00	0	31	0	221249536	68	3884
2026-01-02 14:38:43.10	241.67	6.99	-50.9	-51.8	15.5	0.00e+00	0	31	0	226492416	68	3904
2026-01-02 14:38:44.10	241.80	7.04	-51.0	-51.8	15.5	0.00e+00	0	31	0	231735296	68	3906
2026-01-02 14:38:45.10	241.92	7.09	-51.0	-51.9	15.4	0.00e+00	0	31	0	238026752	68	3956
2026-01-02 14:38:46.09	242.04	7.14	-50.9	-51.8	15.5	0.00e+00	0	31	0	243269632	68	3881
2026-01-02 14:38:47.09	242.17	7.19	-51.0	-51.9	15.4	0.00e+00	0	31	0	248512512	68	3951
2026-01-02 14:38:48.09	242.29	7.24	-51.0	-51.9	15.5	0.00e+00	0	31	0	254803968	68	3914
2026-01-02 14:38:49.09	242.42	7.29	-50.9	-51.8	15.5	0.00e+00	0	31	0	260046848	68	3893
2026-01-02 14:38:50.09	242.55	7.34	-51.0	-51.8	15.5	0.00e+00	0	31	0	266338304	68	3908
2026-01-02 14:38:51.08	242.67	7.39	-51.0	-51.8	15.5	0.00e+00	0	31	0	271581184	68	3909
2026-01-02 14:38:52.08	242.80	7.44	-50.9	-51.8	15.5	0.00e+00	0	31	0	276824064	68	3891
2026-01-02 14:38:53.08	242.93	7.49	-50.9	-51.8	15.5	0.00e+00	0	31	0	282066944	68	3893
2026-01-02 14:38:54.07	243.05	7.54	-50.8	-51.6	15.6	0.00e+00	0	31	0	288358400	68	3806
2026-01-02 14:38:55.07	243.18	7.59	-50.5	-51.3	15.6	0.00e+00	0	31	0	293601280	67	3906
2026-01-02 14:38:56.07	243.31	7.64	-50.5	-51.3	15.6	0.00e+00	0	31	0	298844160	67	3894
2026-01-02 14:38:57.07	243.44	7.68	-50.4	-51.2	15.7	0.00e+00	0	31	0	305135616	67	3858
2026-01-02 14:38:58.07	243.57	7.73	-50.4	-51.2	15.7	0.00e+00	0	31	0	310378496	67	3856
2026-01-02 14:38:59.07	243.70	7.78	-50.4	-51.2	15.7	0.00e+00	0	31	0	316669952	67	3842
2026-01-02 14:39:00.06	243.83	7.83	-50.3	-51.1	15.7	0.00e+00	0	31	0	321912832	67	3818
2026-01-02 14:39:01.06	243.96	7.88	-50.4	-51.2	15.7	0.00e+00	0	31	0	327155712	67	3854
2026-01-02 14:39:02.05	244.09	7.93	-50.4	-51.2	15.7	0.00e+00	0	31	0	333447168	67	3867
2026-01-02 14:39:03.05	244.22	7.98	-50.5	-51.3	15.6	0.00e+00	0	31	0	338690048	67	3912
2026-01-02 14:39:04.05	244.35	8.03	-50.5	-51.3	15.6	0.00e+00	0	31	0	343932928	67	3890
2026-01-02 14:39:05.05	244.49	8.08	-50.5	-51.4	15.6	0.00e+00	0	31	0	350224384	67	3929
2026-01-02 14:39:06.04	244.62	8.13	-50.6	-51.4	15.6	0.00e+00	0	31	0	355467264	67	3951
2026-01-02 14:39:07.05	244.75	8.18	-50.5	-51.4	15.6	0.00e+00	0	31	0	360710144	67	3919
2026-01-02 14:39:08.05	244.89	8.23	-50.5	-51.3	15.6	0.00e+00	0	31	0	367001600	67	3913
2026-01-02 14:39:09.05	245.02	8.28	-50.5	-51.4	15.6	0.00e+00	0	31	0	372244480	67	3922
2026-01-02 14:39:10.05	245.16	8.33	-50.5	-51.4	15.6	0.00e+00	0	31	0	378535936	67	3918
2026-01-02 14:39:11.04	245.29	8.38	-50.4	-51.3	15.7	0.00e+00	0	31	0	383778816	67	3883
2026-01-02 14:39:12.04	245.42	8.43	-50.4	-51.3	15.7	0.00e+00	0	31	0	389021696	67	3878
2026-01-02 14:39:13.04	245.56	8.48	-50.5	-51.3	15.7	0.00e+00	0	31	0	395313152	67	3890
2026-01-02 14:39:14.04	245.70	8.52	-50.5	-51.4	15.7	0.00e+00	0	31	0	400556032	67	3926
2026-01-02 14:39:15.04	245.83	8.57	-50.5	-51.4	15.6	0.00e+00	0	31	0	405798912	67	3928
2026-01-02 14:39:16.04	245.97	8.62	-50.4	-51.3	15.7	0.00e+00	0	31	0	412090368	67	3890
2026-01-02 14:39:17.05	246.11	8.67	-50.5	-51.3	15.7	0.00e+00	0	31	0	417333248	67	3907
2026-01-02 14:39:18.04	246.25	8.72	-50.3	-51.2	15.7	0.00e+00	0	31	0	422576128	67	3832
2026-01-02 14:39:19.04	246.39	8.77	-50.3	-51.1	15.7	0.00e+00	0	31	0	428867584	67	3807
2026-01-02 14:39:20.04	246.53	8.82	-50.3	-51.1	15.7	0.00e+00	0	31	0	434110464	67	3797
2026-01-02 14:39:21.04	246.67	8.87	-50.2	-51.0	15.8	0.00e+00	0	31	0	440401920	67	3773
2026-01-02 14:39:22.03	246.81	8.92	-50.2	-51.0	15.8	0.00e+00	0	31	0	445644800	67	3741
2026-01-02 14:39:23.03	246.95	8.96	-50.2	-50.9	15.8	0.00e+00	0	31	0	450887680	66	3955
2026-01-02 14:39:24.03	247.09	9.01	-50.1	-50.9	15.8	0.00e+00	0	31	0	457179136	66	3920
2026-01-02 14:39:25.03	247.23	9.06	-50.1	-50.9	15.8	0.00e+00	0	31	0	462422016	66	3917
2026-01-02 14:39:26.03	247.37	9.11	-50.1	-50.9	15.8	0.00e+00	0	31	0	467664896	66	3935
2026-01-02 14:39:27.03	247.51	9.16	-50.2	-51.0	15.7	0.00e+00	0	31	0	472907776	66	3965
2026-01-02 14:39:28.02	247.65	9.21	-50.2	-51.0	15.7	0.00e+00	0	31	0	479199232	66	3997
2026-01-02 14:39:29.01	247.80	9.25	-50.2	-51.0	15.8	0.00e+00	0	31	0	484442112	66	3965
2026-01-02 14:39:30.01	247.94	9.30	-50.2	-51.0	15.8	0.00e+00	0	31	0	490733568	66	3972
2026-01-02 14:39:31.00	248.08	9.35	-50.3	-51.1	15.7	0.00e+00	0	31	0	495976448	66	4007
2026-01-02 14:39:32.00	248.23	9.40	-50.1	-50.9	15.8	0.00e+00	0	31	0	501219328	66	3954
2026-01-02 14:39:33.00	248.37	9.45	-49.9	-50.7	15.9	0.00e+00	0	31	0	507510784	66	3853
2026-01-02 14:39:33.99	248.52	9.50	-50.0	-50.7	15.9	0.00e+00	0	31	0	512753664	66	3865
2026-01-02 14:39:34.99	248.66	9.54	-50.0	-50.7	15.9	0.00e+00	0	31	0	517996544	66	3865
2026-01-02 14:39:35.99	248.81	9.59	-50.0	-50.8	15.8	0.00e+00	0	31	0	524288000	66	3875
2026-01-02 14:39:36.99	248.96	9.64	-50.0	-50.7	15.8	0.00e+00	0	31	0	529530880	66	3863
2026-01-02 14:39:37.99	249.10	9.69	-50.0	-50.8	15.8	0.00e+00	0	31	0	535822336	66	3898
2026-01-02 14:39:38.99	249.25	9.73	-50.1	-50.9	15.8	0.00e+00	0	31	0	541065216	66	3935
2026-01-02 14:39:39.98	249.40	9.78	-50.0	-50.8	15.9	0.00e+00	0	31	0	546308096	66	3878
2026-01-02 14:39:40.97	249.55	9.83	-50.0	-50.8	15.8	0.00e+00	0	31	0	551550976	66	3898
2026-01-02 14:39:41.96	249.69	9.88	-50.0	-50.8	15.8	0.00e+00	0	31	0	557842432	66	3898
2026-01-02 14:39:42.96	249.84	9.92	-50.0	-50.8	15.9	0.00e+00	0	31	0	563085312	66	3870
2026-01-02 14:39:43.95	249.99	9.97	-49.9	-50.7	15.9	0.00e+00	0	31	0	568328192	66	3850
2026-01-02 14:39:44.95	250.14	10.02	-50.0	-50.7	15.9	0.00e+00	0	31	0	574619648	66	3856
2026-01-02 14:39:45.94	250.29	10.06	-50.0	-50.8	15.9	0.00e+00	0	31	0	579862528	66	3875
2026-01-02 14:39:46.94	250.44	10.11	-50.1	-50.9	15.9	0.00e+00	0	31	0	586153984	66	3921
2026-01-02 14:39:47.93	250.60	10.16	-50.0	-50.8	15.9	0.00e+00	0	31	0	591396864	66	3870
2026-01-02 14:39:48.93	250.75	10.20	-49.9	-50.7	15.9	0.00e+00	0	31	0	596639744	66	3831
2026-01-02 14:39:49.93	250.90	10.25	-49.9	-50.7	15.9	0.00e+00	0	31	0	602931200	66	3835
2026-01-02 14:39:50.93	251.05	10.30	-49.8	-50.5	15.9	0.00e+00	0	31	0	608174080	66	3766
2026-01-02 14:39:51.92	251.21	10.34	-49.8	-50.5	15.9	0.00e+00	0	31	0	613416960	66	3775
2026-01-02 14:39:52.93	251.36	10.39	-49.8	-50.6	15.9	0.00e+00	0	32	0	618659840	66	3785
2026-01-02 14:39:53.93	251.52	10.44	-49.7	-50.4	16.0	0.00e+00	0	31	0	624951296	66	3732
2026-01-02 14:39:54.93	251.67	10.48	-49.7	-50.4	16.0	0.00e+00	0	31	0	630194176	66	3737
2026-01-02 14:39:55.93	251.83	10.53	-49.7	-50.4	15.9	0.00e+00	0	31	0	636485632	65	3935
2026-01-02 14:39:56.93	251.99	10.58	-49.7	-50.5	15.9	0.00e+00	0	31	0	641728512	65	3967
2026-01-02 14:39:57.92	252.14	10.62	-49.6	-50.3	15.9	0.00e+00	0	31	0	646971392	65	3900
2026-01-02 14:39:58.91	252.30	10.67	-49.6	-50.4	16.0	0.00e+00	0	31	0	653262848	65	3914
2026-01-02 14:39:59.90	252.45	10.71	-49.6	-50.3	16.0	0.00e+00	0	31	0	658505728	65	3909
2026-01-02 14:40:00.91	252.61	10.76	-49.5	-50.3	16.0	0.00e+00	0	31	0	663748608	65	3883
2026-01-02 14:40:01.91	252.77	10.81	-49.6	-50.3	16.0	0.00e+00	0	31	0	670040064	65	3901
2026-01-02 14:40:02.91	252.93	10.85	-49.5	-50.2	16.0	0.00e+00	0	31	0	675282944	65	3857
2026-01-02 14:40:03.91	253.09	10.90	-49.6	-50.3	16.0	0.00e+00	0	31	0	680525824	65	3900
2026-01-02 14:40:04.91	253.25	10.94	-49.7	-50.4	15.9	0.00e+00	0	31	0	686817280	65	3946
2026-01-02 14:40:05.91	253.41	10.99	-49.6	-50.3	16.0	0.00e+00	0	31	0	692060160	65	3912
2026-01-02 14:40:06.91	253.57	11.03	-49.6	-50.3	16.0	0.00e+00	0	31	0	698351616	65	3901
2026-01-02 14:40:07.92	253.74	11.08	-49.6	-50.3	16.0	0.00e+00	0	31	0	703594496	65	3908
2026-01-02 14:40:08.91	253.90	11.12	-49.5	-50.3	16.0	0.00e+00	0	31	0	708837376	65	3874
2026-01-02 14:40:09.91	254.06	11.17	-49.5	-50.2	16.0	0.00e+00	0	31	0	715128832	65	3864
2026-01-02 14:40:10.91	254.22	11.21	-49.6	-50.3	16.0	0.00e+00	0	31	0	720371712	65	3905
2026-01-02 14:40:11.91	254.39	11.26	-49.5	-50.3	16.0	0.00e+00	0	31	0	725614592	65	3886
2026-01-02 14:40:12.92	254.55	11.30	-49.6	-50.4	16.0	0.00e+00	0	31	0	731906048	65	3915
2026-01-02 14:40:13.92	254.72	11.35	-49.6	-50.3	16.0	0.00e+00	0	31	0	737148928	65	3907
2026-01-02 14:40:14.92	254.88	11.39	-49.5	-50.2	16.0	0.00e+00	0	31	0	742391808	65	3849
2026-01-02 14:40:15.93	255.05	11.43	-49.5	-50.3	16.0	0.00e+00	0	31	0	748683264	65	3877
2026-01-02 14:40:16.93	255.21	11.48	-49.4	-50.2	16.0	0.00e+00	0	31	0	753926144	65	3836
2026-01-02 14:40:17.93	255.38	11.52	-49.5	-50.2	16.0	0.00e+00	0	31	0	760217600	65	3845
2026-01-02 14:40:18.93	255.55	11.56	-49.5	-50.3	16.0	0.00e+00	0	31	0	765460480	65	3880
2026-01-02 14:40:19.92	255.71	11.61	-49.5	-50.2	16.0	0.00e+00	0	31	0	770703360	65	3850
2026-01-02 14:40:20.93	255.88	11.65	-49.5	-50.2	16.0	0.00e+00	0	31	0	776994816	65	3861
2026-01-02 14:40:21.93	256.05	11.69	-49.5	-50.3	16.0	0.00e+00	0	31	0	782237696	65	3874
2026-01-02 14:40:22.93	256.22	11.74	-49.4	-50.1	16.1	0.00e+00	0	31	0	787480576	65	3813
2026-01-02 14:40:23.93	256.39	11.78	-49.4	-50.1	16.1	0.00e+00	0	31	0	793772032	65	3802
2026-01-02 14:40:24.93	256.56	11.82	-49.4	-50.1	16.0	0.00e+00	0	31	0	799014912	65	3806
2026-01-02 14:40:25.92	256.73	11.87	-49.4	-50.1	16.1	0.00e+00	0	31	0	804257792	65	3788
2026-01-02 14:40:26.92	256.90	11.91	-49.2	-49.9	16.1	0.00e+00	0	31	0	810549248	65	3723
2026-01-02 14:40:27.92	257.07	11.95	-49.3	-50.0	16.1	0.00e+00	0	31	0	815792128	65	3746
2026-01-02 14:40:28.93	257.24	11.99	-49.2	-49.9	16.1	0.00e+00	0	31	0	822083584	65	3725
2026-01-02 14:40:29.92	257.41	12.03	-49.2	-49.9	16.1	0.00e+00	0	31	0	827326464	65	3699
2026-01-02 14:40:30.91	257.58	12.08	-49.3	-50.0	16.1	0.00e+00	0	31	0	832569344	65	3738
2026-01-02 14:40:31.91	257.76	12.12	-49.2	-49.9	16.1	0.00e+00	0	31	0	838860800	65	3724
2026-01-02 14:40:32.91	257.93	12.16	-49.2	-49.9	16.1	0.00e+00	0	31	0	844103680	64	3919
2026-01-02 14:40:33.90	258.10	12.20	-49.1	-49.8	16.1	0.00e+00	0	31	0	849346560	64	3904
2026-01-02 14:40:34.90	258.28	12.24	-49.1	-49.8	16.1	0.00e+00	0	31	0	855638016	64	3871
2026-01-02 14:40:35.89	258.45	12.28	-49.0	-49.7	16.1	0.00e+00	0	31	0	860880896	64	3852
2026-01-02 14:40:36.89	258.63	12.32	-49.0	-49.7	16.2	0.00e+00	0	31	0	866123776	64	3836
2026-01-02 14:40:37.89	258.80	12.36	-49.0	-49.7	16.2	0.00e+00	0	31	0	872415232	64	3848
2026-01-02 14:40:38.88	258.98	12.40	-48.9	-49.6	16.2	0.00e+00	0	31	0	877658112	64	3787
2026-01-02 14:40:39.88	259.15	12.44	-48.9	-49.6	16.2	0.00e+00	0	31	0	882900992	64	3803
2026-01-02 14:40:40.88	259.33	12.48	-49.0	-49.7	16.2	0.00e+00	0	31	0	889192448	64	3835
2026-01-02 14:40:41.88	259.51	12.52	-49.1	-49.8	16.1	0.00e+00	0	31	0	894435328	64	3874
2026-01-02 14:40:42.86	259.68	12.56	-49.1	-49.7	16.1	0.00e+00	0	31	0	899678208	64	3864
2026-01-02 14:40:43.86	259.86	12.60	-49.2	-49.9	16.1	0.00e+00	0	31	0	905969664	64	3915
2026-01-02 14:40:44.86	260.04	12.64	-49.2	-49.9	16.1	0.00e+00	0	31	0	911212544	64	3917
2026-01-02 14:40:45.86	260.22	12.68	-49.2	-49.9	16.1	0.00e+00	0	31	0	916455424	64	3937
2026-01-02 14:40:46.86	260.40	12.72	-49.2	-49.9	16.1	0.00e+00	0	31	0	922746880	64	3943
2026-01-02 14:40:47.86	260.58	12.76	-49.1	-49.8	16.1	0.00e+00	0	31	0	927989760	64	3869
2026-01-02 14:40:48.85	260.76	12.80	-49.2	-49.9	16.1	0.00e+00	0	31	0	934281216	64	3920
2026-01-02 14:40:49.85	260.94	12.83	-49.1	-49.8	16.1	0.00e+00	0	31	0	939524096	64	3910
2026-01-02 14:40:50.85	261.12	12.87	-49.1	-49.8	16.1	0.00e+00	0	31	0	944766976	64	3892
2026-01-02 14:40:51.84	261.31	12.91	-49.1	-49.8	16.2	0.00e+00	0	31	0	951058432	64	3882
2026-01-02 14:40:52.84	261.49	12.95	-49.0	-49.7	16.2	0.00e+00	0	31	0	956301312	64	3853
2026-01-02 14:40:53.84	261.67	12.98	-49.0	-49.7	16.2	0.00e+00	0	31	0	961544192	64	3843
2026-01-02 14:40:54.84	261.85	13.02	-49.1	-49.8	16.1	0.00e+00	0	31	0	967835648	64	3874
2026-01-02 14:40:55.84	262.04	13.06	-48.9	-49.6	16.2	0.00e+00	0	31	0	973078528	64	3805
2026-01-02 14:40:56.84	262.22	13.10	-49.0	-49.7	16.2	0.00e+00	0	31	0	978321408	64	3836
2026-01-02 14:40:57.84	262.41	13.13	-49.1	-49.8	16.1	0.00e+00	0	31	0	984612864	64	3910
2026-01-02 14:40:58.84	262.59	13.17	-49.2	-49.9	16.1	0.00e+00	0	31	0	989855744	64	3926
2026-01-02 14:40:59.84	262.78	13.21	-49.3	-50.0	16.1	0.00e+00	0	31	0	996147200	64	3976
2026-01-02 14:41:00.85	262.97	13.24	-49.3	-50.0	16.1	0.00e+00	0	32	0	1001390080	64	3984
2026-01-02 14:41:01.86	263.16	13.28	-49.3	-50.0	16.1	0.00e+00	0	31	0	1006632960	64	3979
2026-01-02 14:41:02.86	263.34	13.31	-49.2	-50.0	16.1	0.00e+00	0	31	0	1012924416	64	3959
2026-01-02 14:41:03.86	263.53	13.35	-49.0	-49.7	16.1	0.00e+00	0	32	0	1018167296	64	3837
2026-01-02 14:41:04.86	263.72	13.38	-48.9	-49.6	16.2	0.00e+00	0	31	0	1023410176	64	3793
2026-01-02 14:41:05.87	263.91	13.42	-49.0	-49.7	16.1	0.00e+00	0	31	0	1029701632	64	3830
2026-01-02 14:41:06.87	264.10	13.45	-48.8	-49.5	16.2	0.00e+00	0	31	0	1034944512	64	3755
2026-01-02 14:41:07.87	264.29	13.49	-48.8	-49.5	16.2	0.00e+00	0	31	0	1040187392	64	3742
2026-01-02 14:41:08.88	264.48	13.52	-48.7	-49.3	16.3	0.00e+00	0	31	0	1046478848	64	3682
2026-01-02 14:41:09.87	264.67	13.56	-48.9	-49.5	16.2	0.00e+00	0	31	0	1051721728	63	3998
2026-01-02 14:41:10.87	264.86	13.59	-48.9	-49.6	16.2	0.00e+00	0	31	0	1058013184	63	4016
2026-01-02 14:41:11.86	265.05	13.62	-49.0	-49.7	16.1	0.00e+00	0	31	0	1063256064	63	4068
2026-01-02 14:41:12.86	265.24	13.66	-49.1	-49.7	16.1	0.00e+00	0	32	0	1068498944	63	4097
2026-01-02 14:41:13.87	265.43	13.69	-49.0	-49.7	16.1	0.00e+00	0	31	0	1074790400	63	4083
2026-01-02 14:41:14.87	265.63	13.72	-49.0	-49.7	16.1	0.00e+00	0	31	0	1080033280	63	4075
2026-01-02 14:41:15.87	265.82	13.76	-49.0	-49.7	16.1	0.00e+00	0	31	0	1085276160	63	4068
2026-01-02 14:41:16.87	266.01	13.79	-48.9	-49.5	16.2	0.00e+00	0	31	0	1091567616	63	4000
2026-01-02 14:41:17.88	266.21	13.82	-48.8	-49.5	16.1	0.00e+00	0	31	0	1096810496	63	3975
2026-01-02 14:41:18.87	266.40	13.85	-48.7	-49.4	16.2	0.00e+00	0	31	0	1103101952	63	3931
2026-01-02 14:41:19.87	266.59	13.88	-48.7	-49.3	16.2	0.00e+00	0	32	0	1108344832	63	3899
2026-01-02 14:41:20.87	266.79	13.91	-48.6	-49.3	16.3	0.00e+00	0	31	0	1113587712	63	3879
2026-01-02 14:41:21.88	266.99	13.94	-48.6	-49.3	16.3	0.00e+00	0	31	0	1119879168	63	3880
2026-01-02 14:41:22.88	267.18	13.98	-48.7	-49.3	16.2	0.00e+00	0	31	0	1125122048	63	3906
2026-01-02 14:41:23.88	267.38	14.01	-48.7	-49.4	16.2	0.00e+00	0	31	0	1131413504	63	3918
2026-01-02 14:41:24.88	267.57	14.04	-48.6	-49.3	16.2	0.00e+00	0	31	0	1136656384	63	3889
2026-01-02 14:41:25.88	267.77	14.07	-48.7	-49.4	16.2	0.00e+00	0	31	0	1141899264	63	3934
2026-01-02 14:41:26.88	267.97	14.10	-48.7	-49.4	16.2	0.00e+00	0	32	0	1148190720	63	3937
2026-01-02 14:41:27.88	268.16	14.12	-48.8	-49.4	16.2	0.00e+00	0	31	0	1153433600	63	3958
2026-01-02 14:41:28.87	268.36	14.15	-48.8	-49.5	16.2	0.00e+00	0	31	0	1158676480	63	3971
2026-01-02 14:41:29.86	268.56	14.18	-48.8	-49.5	16.2	0.00e+00	0	31	0	1164967936	63	3990
2026-01-02 14:41:30.86	268.76	14.21	-48.9	-49.5	16.2	0.00e+00	0	31	0	1170210816	63	3993
2026-01-02 14:41:31.86	268.95	14.24	-48.9	-49.5	16.2	0.00e+00	0	31	0	1175453696	63	3996
2026-01-02 14:41:32.85	269.15	14.27	-48.8	-49.5	16.2	0.00e+00	0	31	0	1181745152	63	3973
2026-01-02 14:41:33.85	269.35	14.29	-48.8	-49.5	16.2	0.00e+00	0	31	0	1186988032	63	3992
2026-01-02 14:41:34.85	269.55	14.32	-48.8	-49.5	16.2	0.00e+00	0	31	0	1192230912	63	3983
2026-01-02 14:41:35.85	269.75	14.35	-48.7	-49.4	16.2	0.00e+00	0	31	0	1198522368	63	3924
2026-01-02 14:41:36.84	269.95	14.37	-48.8	-49.4	16.2	0.00e+00	0	31	0	1203765248	63	3946
2026-01-02 14:41:37.84	270.15	14.40	-48.8	-49.4	16.2	0.00e+00	0	32	0	1209008128	63	3944
2026-01-02 14:41:38.84	270.35	14.43	-48.8	-49.5	16.2	0.00e+00	0	32	0	1215299584	63	3964
2026-01-02 14:41:39.83	270.55	14.45	-48.8	-49.4	16.2	0.00e+00	0	31	0	1220542464	63	3948
2026-01-02 14:41:40.83	270.75	14.48	-48.9	-49.6	16.2	0.00e+00	0	31	0	1225785344	63	4009
2026-01-02 14:41:41.81	270.95	14.50	-48.9	-49.6	16.2	0.00e+00	0	31	0	1232076800	63	4006
2026-01-02 14:41:42.81	271.16	14.53	-48.9	-49.6	16.2	0.00e+00	0	32	0	1237319680	63	4028
2026-01-02 14:41:43.81	271.36	14.55	-49.0	-49.7	16.1	0.00e+00	0	31	0	1242562560	63	4058
2026-01-02 14:41:44.81	271.56	14.58	-48.9	-49.6	16.2	0.00e+00	0	31	0	1248854016	63	4021
2026-01-02 14:41:45.81	271.77	14.60	-48.7	-49.4	16.2	0.00e+00	0	32	0	1254096896	63	3934
2026-01-02 14:41:46.80	271.97	14.62	-48.7	-49.4	16.2	0.00e+00	0	32	0	1259339776	63	3942
2026-01-02 14:41:47.80	272.17	14.65	-48.7	-49.4	16.2	0.00e+00	0	31	0	1265631232	63	3925
2026-01-02 14:41:48.80	272.38	14.67	-48.7	-49.3	16.3	0.00e+00	0	31	0	1270874112	63	3900
2026-01-02 14:41:49.79	272.58	14.69	-48.7	-49.3	16.3	0.00e+00	0	31	0	1277165568	63	3894
2026-01-02 14:41:50.79	272.78	14.72	-48.7	-49.4	16.2	0.00e+00	0	32	0	1282408448	63	3936
2026-01-02 14:41:51.79	272.99	14.74	-48.8	-49.4	16.2	0.00e+00	0	31	0	1287651328	63	3956
2026-01-02 14:41:52.79	273.20	14.76	-48.9	-49.6	16.2	0.00e+00	0	31	0	1293942784	63	4021
2026-01-02 14:41:53.79	273.40	14.78	-48.8	-49.5	16.2	0.00e+00	0	31	0	1299185664	63	3986
2026-01-02 14:41:54.79	273.61	14.80	-48.8	-49.5	16.2	0.00e+00	0	31	0	1304428544	63	3982
2026-01-02 14:41:55.78	273.81	14.82	-48.9	-49.6	16.2	0.00e+00	0	32	0	1310720000	63	4006
2026-01-02 14:41:56.79	274.02	14.84	-48.8	-49.5	16.2	0.00e+00	0	31	0	1315962880	63	3967
2026-01-02 14:41:57.78	274.23	14.86	-48.7	-49.4	16.2	0.00e+00	0	31	0	1321205760	63	3923
2026-01-02 14:41:58.78	274.43	14.88	-48.7	-49.4	16.2	0.00e+00	0	31	0	1327497216	63	3924
2026-01-02 14:41:59.78	274.64	14.90	-48.7	-49.4	16.2	0.00e+00	0	32	0	1332740096	63	3939
2026-01-02 14:42:00.77	274.85	14.92	-48.7	-49.4	16.2	0.00e+00	0	31	0	1337982976	63	3936
2026-01-02 14:42:01.76	275.05	14.94	-48.7	-49.4	16.2	0.00e+00	0	31	0	1344274432	63	3925
2026-01-02 14:42:02.75	275.26	14.96	-48.8	-49.5	16.2	0.00e+00	0	31	0	1349517312	63	3960
2026-01-02 14:42:03.75	275.47	14.98	-48.8	-49.5	16.2	0.00e+00	0	31	0	1354760192	63	3990
2026-01-02 14:42:04.76	275.68	14.99	-48.9	-49.6	16.2	0.00e+00	0	31	0	1361051648	63	4011
2026-01-02 14:42:05.76	275.89	15.01	-49.0	-49.7	16.1	0.00e+00	0	31	0	1366294528	63	4075
2026-01-02 14:42:06.76	276.10	15.03	-49.0	-49.7	16.1	0.00e+00	0	31	0	1371537408	63	4092
2026-01-02 14:42:07.76	276.31	15.05	-49.1	-49.8	16.1	0.00e+00	0	32	0	1377828864	63	4129
2026-01-02 14:42:08.76	276.52	15.06	-49.1	-49.8	16.1	0.00e+00	0	31	0	1383071744	63	4126
2026-01-02 14:42:09.76	276.73	15.08	-49.1	-49.9	16.1	0.00e+00	0	31	0	1389363200	63	4155
2026-01-02 14:42:10.76	276.94	15.09	-49.1	-49.8	16.1	0.00e+00	0	32	0	1394606080	63	4102
2026-01-02 14:42:11.76	277.15	15.11	-49.0	-49.7	16.1	0.00e+00	0	31	0	1399848960	63	4064
2026-01-02 14:42:12.76	277.36	15.12	-48.9	-49.6	16.2	0.00e+00	0	31	0	1406140416	63	4024
2026-01-02 14:42:13.76	277.57	15.14	-48.8	-49.5	16.2	0.00e+00	0	31	0	1411383296	63	3972
2026-01-02 14:42:14.75	277.78	15.15	-48.7	-49.4	16.2	0.00e+00	0	32	0	1416626176	63	3919
2026-01-02 14:42:15.75	277.99	15.17	-48.8	-49.5	16.2	0.00e+00	0	31	0	1422917632	63	3963
2026-01-02 14:42:16.75	278.20	15.18	-48.8	-49.4	16.2	0.00e+00	0	31	0	1428160512	63	3952
2026-01-02 14:42:17.75	278.41	15.19	-48.9	-49.6	16.2	0.00e+00	0	31	0	1433403392	63	4015
2026-01-02 14:42:18.75	278.63	15.21	-48.9	-49.6	16.2	0.00e+00	0	31	0	1439694848	63	4035
2026-01-02 14:42:19.76	278.84	15.22	-49.0	-49.6	16.1	0.00e+00	0	31	0	1444937728	63	4048
2026-01-02 14:42:20.75	279.05	15.23	-48.9	-49.6	16.2	0.00e+00	0	31	0	1451229184	63	4015
2026-01-02 14:42:21.75	279.26	15.24	-49.0	-49.7	16.1	0.00e+00	0	32	0	1456472064	63	4062
2026-01-02 14:42:22.75	279.48	15.26	-49.0	-49.6	16.1	0.00e+00	0	31	0	1461714944	63	4040
2026-01-02 14:42:23.75	279.69	15.27	-48.8	-49.5	16.2	0.00e+00	0	31	0	1468006400	63	3974
2026-01-02 14:42:24.75	279.90	15.28	-48.8	-49.5	16.2	0.00e+00	0	31	0	1473249280	63	3983
2026-01-02 14:42:25.74	280.11	15.29	-48.8	-49.5	16.2	0.00e+00	0	31	0	1478492160	63	3971
2026-01-02 14:42:26.75	280.33	15.30	-48.8	-49.5	16.2	0.00e+00	0	31	0	1484783616	63	3984
2026-01-02 14:42:27.74	280.54	15.31	-48.8	-49.5	16.2	0.00e+00	0	31	0	1490026496	63	3972
2026-01-02 14:42:28.74	280.75	15.32	-48.9	-49.6	16.2	0.00e+00	0	32	0	1495269376	63	4013
2026-01-02 14:42:29.73	280.96	15.33	-48.8	-49.4	16.2	0.00e+00	0	31	0	1501560832	63	3943
2026-01-02 14:42:30.72	281.17	15.33	-48.7	-49.3	16.3	0.00e+00	0	31	0	1506803712	63	3887
2026-01-02 14:42:31.72	281.39	15.34	-48.7	-49.3	16.3	0.00e+00	0	31	0	1512046592	63	3902
2026-01-02 14:42:32.72	281.60	15.35	-48.6	-49.2	16.3	0.00e+00	0	32	0	1518338048	63	3845
2026-01-02 14:42:33.72	281.82	15.36	-48.6	-49.3	16.3	0.00e+00	0	31	0	1523580928	63	3871
2026-01-02 14:42:34.72	282.03	15.36	-48.7	-49.4	16.3	0.00e+00	0	31	0	1528823808	63	3920
2026-01-02 14:42:35.71	282.24	15.37	-48.9	-49.5	16.2	0.00e+00	0	31	0	1535115264	63	3987
2026-01-02 14:42:36.70	282.45	15.38	-48.8	-49.5	16.2	0.00e+00	0	31	0	1540358144	63	3980
2026-01-02 14:42:37.70	282.67	15.38	-48.8	-49.5	16.2	0.00e+00	0	31	0	1545601024	63	3965
2026-01-02 14:42:38.70	282.88	15.39	-48.9	-49.5	16.2	0.00e+00	0	31	0	1551892480	63	3986
2026-01-02 14:42:39.69	283.10	15.39	-48.9	-49.5	16.2	0.00e+00	0	31	0	1557135360	63	4002
2026-01-02 14:42:40.69	283.31	15.40	-48.9	-49.6	16.2	0.00e+00	0	31	0	1563426816	63	4011
2026-01-02 14:42:41.69	283.52	15.40	-48.9	-49.6	16.2	0.00e+00	0	31	0	1568669696	63	4012
2026-01-02 14:42:42.68	283.74	15.41	-49.0	-49.7	16.2	0.00e+00	0	31	0	1573912576	63	4057
2026-01-02 14:42:43.68	283.95	15.41	-49.0	-49.7	16.2	0.00e+00	0	32	0	1579155456	63	4088
2026-01-02 14:42:44.68	284.17	15.41	-49.1	-49.8	16.2	0.00e+00	0	31	0	1585446912	63	4108
2026-01-02 14:42:45.68	284.38	15.42	-49.2	-49.9	16.1	0.00e+00	0	31	0	1590689792	63	4147
2026-01-02 14:42:46.68	284.60	15.42	-49.1	-49.8	16.2	0.00e+00	0	31	0	1595932672	63	4100
2026-01-02 14:42:47.68	284.81	15.42	-49.0	-49.7	16.2	0.00e+00	0	32	0	1602224128	63	4083
2026-01-02 14:42:48.68	285.03	15.42	-49.1	-49.7	16.2	0.00e+00	0	32	0	1607467008	63	4090
2026-01-02 14:42:49.68	285.24	15.43	-49.1	-49.8	16.1	0.00e+00	0	31	0	1613758464	63	4101
2026-01-02 14:42:50.68	285.46	15.43	-49.1	-49.8	16.2	0.00e+00	0	31	0	1619001344	63	4100
2026-01-02 14:42:51.67	285.67	15.43	-49.1	-49.7	16.2	0.00e+00	0	31	0	1624244224	63	4089
2026-01-02 14:42:52.66	285.88	15.43	-49.1	-49.7	16.2	0.00e+00	0	31	0	1630535680	63	4082
2026-01-02 14:42:53.66	286.10	15.43	-49.1	-49.7	16.2	0.00e+00	0	31	0	1635778560	63	4085
2026-01-02 14:42:54.66	286.31	15.43	-49.1	-49.7	16.2	0.00e+00	0	31	0	1641021440	63	4081
2026-01-02 14:42:55.65	286.52	15.43	-49.0	-49.7	16.2	0.00e+00	0	31	0	1647312896	63	4068
2026-01-02 14:42:56.65	286.74	15.43	-49.1	-49.7	16.2	0.00e+00	0	31	0	1652555776	63	4094
2026-01-02 14:42:57.65	286.95	15.42	-49.1	-49.7	16.2	0.00e+00	0	31	0	1658847232	63	4087
2026-01-02 14:42:58.66	287.17	15.42	-49.1	-49.7	16.1	0.00e+00	0	31	0	1664090112	63	4082
2026-01-02 14:42:59.66	287.39	15.42	-49.0	-49.7	16.2	0.00e+00	0	32	0	1669332992	63	4063
2026-01-02 14:43:00.67	287.60	15.42	-49.0	-49.7	16.2	0.00e+00	0	31	0	1675624448	63	4055
2026-01-02 14:43:01.67	287.82	15.41	-49.1	-49.8	16.1	0.00e+00	0	31	0	1680867328	63	4130
2026-01-02 14:43:02.66	288.03	15.41	-49.1	-49.8	16.1	0.00e+00	0	31	0	1686110208	63	4137
2026-01-02 14:43:03.66	288.24	15.41	-49.1	-49.8	16.1	0.00e+00	0	31	0	1692401664	63	4122
2026-01-02 14:43:04.66	288.46	15.40	-49.3	-50.0	16.0	0.00e+00	0	32	0	1697644544	63	4229
2026-01-02 14:43:05.66	288.67	15.40	-49.3	-50.0	16.1	0.00e+00	0	32	0	1702887424	63	4220
2026-01-02 14:43:06.66	288.89	15.39	-49.3	-50.0	16.1	0.00e+00	0	32	0	1709178880	63	4225
2026-01-02 14:43:07.67	289.10	15.39	-49.3	-50.0	16.0	0.00e+00	0	32	0	1714421760	63	4235
2026-01-02 14:43:08.67	289.32	15.38	-49.3	-50.0	16.1	0.00e+00	0	32	0	1720713216	63	4198
2026-01-02 14:43:09.67	289.53	15.38	-49.3	-50.0	16.1	0.00e+00	0	31	0	1725956096	63	4224
2026-01-02 14:43:10.67	289.75	15.37	-49.3	-50.0	16.1	0.00e+00	0	31	0	1731198976	63	4231
2026-01-02 14:43:11.67	289.96	15.36	-49.2	-49.9	16.1	0.00e+00	0	32	0	1737490432	63	4172
2026-01-02 14:43:12.67	290.17	15.36	-49.3	-50.0	16.1	0.00e+00	0	32	0	1742733312	63	4237
2026-01-02 14:43:13.67	290.39	15.35	-49.3	-50.0	16.1	0.00e+00	0	32	0	1747976192	63	4228
2026-01-02 14:43:14.68	290.60	15.34	-49.3	-50.1	16.1	0.00e+00	0	31	0	1754267648	63	4245
2026-01-02 14:43:15.68	290.82	15.33	-49.2	-49.8	16.1	0.00e+00	0	32	0	1759510528	63	4137
2026-01-02 14:43:16.68	291.03	15.32	-49.1	-49.8	16.1	0.00e+00	0	32	0	1764753408	63	4122
2026-01-02 14:43:17.67	291.24	15.31	-49.2	-49.8	16.1	0.00e+00	0	32	0	1771044864	63	4144
2026-01-02 14:43:18.67	291.46	15.31	-49.1	-49.7	16.2	0.00e+00	0	32	0	1776287744	63	4088
2026-01-02 14:43:19.67	291.67	15.30	-49.0	-49.6	16.2	0.00e+00	0	31	0	1782579200	63	4049
2026-01-02 14:43:20.67	291.88	15.29	-49.1	-49.8	16.1	0.00e+00	0	32	0	1787822080	63	4106
2026-01-02 14:43:21.67	292.09	15.28	-49.1	-49.8	16.2	0.00e+00	0	31	0	1793064960	63	4106
2026-01-02 14:43:22.67	292.31	15.26	-49.2	-49.9	16.1	0.00e+00	0	31	0	1799356416	63	4181
2026-01-02 14:43:23.67	292.52	15.25	-49.2	-49.9	16.1	0.00e+00	0	31	0	1804599296	63	4158
2026-01-02 14:43:24.66	292.73	15.24	-49.3	-49.9	16.1	0.00e+00	0	31	0	1809842176	63	4183
2026-01-02 14:43:25.67	292.94	15.23	-49.2	-49.9	16.1	0.00e+00	0	31	0	1816133632	63	4171
2026-01-02 14:43:26.66	293.15	15.22	-49.3	-50.0	16.1	0.00e+00	0	31	0	1821376512	63	4194
2026-01-02 14:43:27.67	293.37	15.20	-49.3	-50.0	16.1	0.00e+00	0	31	0	1826619392	63	4227
2026-01-02 14:43:28.66	293.58	15.19	-49.3	-50.0	16.0	0.00e+00	0	31	0	1832910848	63	4240
2026-01-02 14:43:29.66	293.79	15.18	-49.3	-50.0	16.1	0.00e+00	0	32	0	1838153728	63	4214
2026-01-02 14:43:30.66	294.00	15.17	-49.4	-50.1	16.1	0.00e+00	0	31	0	1844445184	63	4259
2026-01-02 14:43:31.65	294.21	15.15	-49.3	-50.0	16.1	0.00e+00	0	31	0	1849688064	63	4240
2026-01-02 14:43:32.64	294.42	15.14	-49.3	-50.0	16.1	0.00e+00	0	31	0	1854930944	63	4225
2026-01-02 14:43:33.64	294.63	15.12	-49.4	-50.1	16.1	0.00e+00	0	32	0	1861222400	63	4243
2026-01-02 14:43:34.64	294.84	15.11	-49.4	-50.1	16.1	0.00e+00	0	31	0	1866465280	64	4036
2026-01-02 14:43:35.64	295.05	15.09	-49.3	-50.0	16.1	0.00e+00	0	31	0	1871708160	64	3990
2026-01-02 14:43:36.64	295.26	15.08	-49.3	-49.9	16.1	0.00e+00	0	31	0	1877999616	64	3956
2026-01-02 14:43:37.63	295.47	15.06	-49.2	-49.9	16.2	0.00e+00	0	31	0	1883242496	64	3941
2026-01-02 14:43:38.64	295.68	15.04	-49.3	-50.0	16.1	0.00e+00	0	31	0	1888485376	64	3990
2026-01-02 14:43:39.64	295.89	15.03	-49.3	-50.0	16.1	0.00e+00	0	31	0	1894776832	64	3965
2026-01-02 14:43:40.64	296.10	15.01	-49.4	-50.1	16.1	0.00e+00	0	31	0	1900019712	64	4010
2026-01-02 14:43:41.64	296.31	14.99	-49.3	-50.0	16.1	0.00e+00	0	32	0	1906311168	64	3961
2026-01-02 14:43:42.64	296.51	14.97	-49.4	-50.1	16.1	0.00e+00	0	31	0	1911554048	64	4048
2026-01-02 14:43:43.64	296.72	14.96	-49.4	-50.1	16.1	0.00e+00	0	32	0	1916796928	64	4036
2026-01-02 14:43:44.63	296.93	14.94	-49.4	-50.1	16.1	0.00e+00	0	32	0	1923088384	64	4024
2026-01-02 14:43:45.63	297.14	14.92	-49.3	-50.0	16.1	0.00e+00	0	32	0	1928331264	64	3978
2026-01-02 14:43:46.63	297.34	14.90	-49.3	-50.0	16.1	0.00e+00	0	32	0	1933574144	64	3993
2026-01-02 14:43:47.63	297.55	14.88	-49.3	-50.0	16.2	0.00e+00	0	32	0	1938817024	64	3975
2026-01-02 14:43:48.62	297.76	14.86	-49.3	-50.0	16.1	0.00e+00	0	31	0	1945108480	64	3995
2026-01-02 14:43:49.62	297.96	14.84	-49.3	-50.0	16.1	0.00e+00	0	32	0	1950351360	64	3984
2026-01-02 14:43:50.62	298.17	14.82	-49.4	-50.1	16.1	0.00e+00	0	31	0	1956642816	64	4020
2026-01-02 14:43:51.62	298.38	14.80	-49.5	-50.2	16.1	0.00e+00	0	32	0	1961885696	64	4066
2026-01-02 14:43:52.61	298.58	14.78	-49.4	-50.1	16.1	0.00e+00	0	32	0	1967128576	64	4027
2026-01-02 14:43:53.62	298.79	14.76	-49.4	-50.1	16.1	0.00e+00	0	31	0	1973420032	64	4024
2026-01-02 14:43:54.62	298.99	14.73	-49.4	-50.1	16.1	0.00e+00	0	32	0	1978662912	64	4044
2026-01-02 14:43:55.61	299.20	14.71	-49.3	-50.0	16.1	0.00e+00	0	32	0	1983905792	64	3996
2026-01-02 14:43:56.61	299.40	14.69	-49.3	-50.0	16.1	0.00e+00	0	31	0	1990197248	64	3999
2026-01-02 14:43:57.61	299.60	14.67	-49.4	-50.1	16.1	0.00e+00	0	31	0	1995440128	64	4030
2026-01-02 14:43:58.61	299.81	14.64	-49.4	-50.1	16.1	0.00e+00	0	31	0	2000683008	64	4034
2026-01-02 14:43:59.62	300.01	14.62	-49.4	-50.1	16.1	0.00e+00	0	31	0	2006974464	64	4005
2026-01-02 14:44:00.61	300.22	14.60	-49.5	-50.2	16.1	0.00e+00	0	31	0	2012217344	64	4069
2026-01-02 14:44:01.61	300.42	14.57	-49.6	-50.3	16.1	0.00e+00	0	31	0	2018508800	64	4111
2026-01-02 14:44:02.62	300.62	14.55	-49.6	-50.3	16.0	0.00e+00	0	32	0	2023751680	64	4112
2026-01-02 14:44:03.61	300.83	14.52	-49.7	-50.4	16.0	0.00e+00	0	32	0	2028994560	64	4174
2026-01-02 14:44:04.61	301.03	14.50	-49.6	-50.3	16.0	0.00e+00	0	32	0	2035286016	64	4121
2026-01-02 14:44:05.61	301.23	14.47	-49.6	-50.3	16.0	0.00e+00	0	31	0	2040528896	64	4118
2026-01-02 14:44:06.61	301.43	14.45	-49.5	-50.2	16.0	0.00e+00	0	31	0	2045771776	64	4090
2026-01-02 14:44:07.61	301.63	14.42	-49.5	-50.2	16.0	0.00e+00	0	32	0	2052063232	64	4097
2026-01-02 14:44:08.61	301.83	14.40	-49.5	-50.2	16.0	0.00e+00	0	31	0	2057306112	64	4091
2026-01-02 14:44:09.62	302.04	14.37	-49.6	-50.3	16.0	0.00e+00	0	32	0	2062548992	64	4123
2026-01-02 14:44:10.61	302.23	14.34	-49.6	-50.3	16.0	0.00e+00	0	32	0	2068840448	64	4142
2026-01-02 14:44:11.61	302.43	14.32	-49.7	-50.4	15.9	0.00e+00	0	32	0	2074083328	64	4165
2026-01-02 14:44:12.61	302.63	14.29	-49.6	-50.4	16.0	0.00e+00	0	31	0	2080374784	64	4156
2026-01-02 14:44:13.61	302.83	14.26	-49.7	-50.4	15.9	0.00e+00	0	32	0	2085617664	64	4172
2026-01-02 14:44:14.61	303.03	14.23	-49.5	-50.2	16.0	0.00e+00	0	31	0	2090860544	64	4094
2026-01-02 14:44:15.61	303.23	14.21	-49.5	-50.1	16.0	0.00e+00	0	31	0	2097152000	64	4051
2026-01-02 14:44:16.60	303.43	14.18	-49.5	-50.2	16.0	0.00e+00	0	32	0	2102394880	64	4066
2026-01-02 14:44:17.61	303.62	14.15	-49.4	-50.1	16.1	0.00e+00	0	32	0	2107637760	64	4041
2026-01-02 14:44:18.60	303.82	14.12	-49.4	-50.1	16.1	0.00e+00	0	31	0	2113929216	64	4042
2026-01-02 14:44:19.61	304.02	14.09	-49.4	-50.1	16.0	0.00e+00	0	31	0	2119172096	64	4047
2026-01-02 14:44:20.61	304.22	14.06	-49.5	-50.2	16.0	0.00e+00	0	32	0	2124414976	64	4067
2026-01-02 14:44:21.61	304.41	14.03	-49.4	-50.2	16.0	0.00e+00	0	31	0	2130706432	64	4053
2026-01-02 14:44:22.60	304.61	14.00	-49.4	-50.1	16.1	0.00e+00	0	32	0	2135949312	64	4026
2026-01-02 14:44:23.60	304.80	13.97	-49.5	-50.3	16.0	0.00e+00	0	31	0	2142240768	64	4105
2026-01-02 14:44:24.60	305.00	13.94	-49.4	-50.1	16.1	0.00e+00	0	32	0	2147483648	64	4024
2026-01-02 14:44:25.61	305.19	13.91	-49.3	-50.1	16.1	0.00e+00	0	32	0	2152726528	64	4007
2026-01-02 14:44:26.61	305.39	13.88	-49.5	-50.2	16.1	0.00e+00	0	31	0	2159017984	64	4055
2026-01-02 14:44:27.61	305.58	13.85	-49.5	-50.3	16.0	0.00e+00	0	31	0	2164260864	64	4105
2026-01-02 14:44:28.62	305.78	13.82	-49.6	-50.3	16.0	0.00e+00	0	31	0	2169503744	64	4123
2026-01-02 14:44:29.62	305.97	13.78	-49.7	-50.5	16.0	0.00e+00	0	31	0	2175795200	64	4204
2026-01-02 14:44:30.63	306.16	13.75	-49.7	-50.4	16.0	0.00e+00	0	32	0	2181038080	64	4173
2026-01-02 14:44:31.63	306.35	13.72	-49.6	-50.3	16.0	0.00e+00	0	32	0	2186280960	64	4118
2026-01-02 14:44:32.63	306.55	13.69	-49.5	-50.2	16.0	0.00e+00	0	32	0	2192572416	64	4070
2026-01-02 14:44:33.62	306.74	13.65	-49.5	-50.2	16.1	0.00e+00	0	31	0	2197815296	64	4065
2026-01-02 14:44:34.63	306.93	13.62	-49.5	-50.2	16.0	0.00e+00	0	31	0	2204106752	64	4059
2026-01-02 14:44:35.63	307.12	13.59	-49.6	-50.3	16.0	0.00e+00	0	31	0	2209349632	64	4109
2026-01-02 14:44:36.63	307.31	13.55	-49.6	-50.3	16.0	0.00e+00	0	31	0	2214592512	64	4121
2026-01-02 14:44:37.63	307.50	13.52	-49.7	-50.4	16.0	0.00e+00	0	31	0	2220883968	64	4184
2026-01-02 14:44:38.64	307.69	13.48	-49.7	-50.4	16.0	0.00e+00	0	31	0	2226126848	64	4172
2026-01-02 14:44:39.64	307.88	13.45	-49.6	-50.3	16.0	0.00e+00	0	31	0	2232418304	64	4141
2026-01-02 14:44:40.64	308.07	13.42	-49.6	-50.3	16.0	0.00e+00	0	31	0	2237661184	64	4134
2026-01-02 14:44:41.64	308.25	13.38	-49.6	-50.4	16.0	0.00e+00	0	32	0	2242904064	64	4149
2026-01-02 14:44:42.64	308.44	13.35	-49.6	-50.3	16.0	0.00e+00	0	31	0	2249195520	64	4119
2026-01-02 14:44:43.63	308.63	13.31	-49.6	-50.4	16.0	0.00e+00	0	31	0	2254438400	64	4150
2026-01-02 14:44:44.63	308.81	13.28	-49.6	-50.3	16.0	0.00e+00	0	31	0	2259681280	64	4136
2026-01-02 14:44:45.63	309.00	13.24	-49.7	-50.4	16.0	0.00e+00	0	31	0	2265972736	64	4181
2026-01-02 14:44:46.63	309.19	13.20	-49.7	-50.4	15.9	0.00e+00	0	32	0	2271215616	64	4184
2026-01-02 14:44:47.63	309.37	13.17	-49.6	-50.3	16.0	0.00e+00	0	31	0	2276458496	64	4114
2026-01-02 14:44:48.63	309.56	13.13	-49.6	-50.4	16.0	0.00e+00	0	31	0	2282749952	64	4146
2026-01-02 14:44:49.63	309.74	13.09	-49.6	-50.3	16.0	0.00e+00	0	31	0	2287992832	64	4122
2026-01-02 14:44:50.63	309.92	13.06	-49.6	-50.3	16.0	0.00e+00	0	32	0	2294284288	64	4132
2026-01-02 14:44:51.64	310.11	13.02	-49.7	-50.4	15.9	0.00e+00	0	31	0	2299527168	64	4159
2026-01-02 14:44:52.64	310.29	12.98	-49.6	-50.3	16.0	0.00e+00	0	31	0	2304770048	64	4128
2026-01-02 14:44:53.64	310.48	12.95	-49.6	-50.4	15.9	0.00e+00	0	32	0	2311061504	64	4160
2026-01-02 14:44:54.63	310.66	12.91	-49.8	-50.5	15.9	0.00e+00	0	31	0	2316304384	64	4216
2026-01-02 14:44:55.63	310.84	12.87	-49.8	-50.5	15.9	0.00e+00	0	31	0	2322595840	64	4233
2026-01-02 14:44:56.63	311.02	12.83	-49.8	-50.5	15.9	0.00e+00	0	32	0	2327838720	64	4240
2026-01-02 14:44:57.63	311.20	12.79	-49.8	-50.5	15.9	0.00e+00	0	32	0	2333081600	64	4234
2026-01-02 14:44:58.64	311.38	12.76	-49.7	-50.5	15.9	0.00e+00	0	32	0	2339373056	64	4203
2026-01-02 14:44:59.64	311.56	12.72	-49.8	-50.5	15.9	0.00e+00	0	32	0	2344615936	64	4231
2026-01-02 14:45:00.64	311.74	12.68	-49.7	-50.5	15.9	0.00e+00	0	32	0	2349858816	64	4204
2026-01-02 14:45:01.65	311.92	12.64	-49.7	-50.4	15.9	0.00e+00	0	31	0	2356150272	64	4193
2026-01-02 14:45:02.66	312.10	12.60	-49.7	-50.5	15.9	0.00e+00	0	32	0	2361393152	64	4209
2026-01-02 14:45:03.65	312.28	12.56	-49.7	-50.5	15.9	0.00e+00	0	31	0	2366636032	64	4215
2026-01-02 14:45:04.65	312.46	12.52	-49.8	-50.5	15.9	0.00e+00	0	32	0	2372927488	64	4240
2026-01-02 14:45:05.66	312.63	12.48	-49.8	-50.6	15.9	0.00e+00	0	31	0	2378170368	64	4248
2026-01-02 14:45:06.65	312.81	12.44	-49.7	-50.5	15.9	0.00e+00	0	32	0	2384461824	64	4211
2026-01-02 14:45:07.65	312.99	12.40	-49.8	-50.6	15.9	0.00e+00	0	31	0	2389704704	64	4247
2026-01-02 14:45:08.65	313.16	12.36	-49.7	-50.5	15.9	0.00e+00	0	32	0	2394947584	64	4205
2026-01-02 14:45:09.65	313.34	12.32	-49.7	-50.5	15.9	0.00e+00	0	32	0	2401239040	64	4201
2026-01-02 14:45:10.65	313.51	12.28	-49.7	-50.4	15.9	0.00e+00	0	32	0	2406481920	64	4186
2026-01-02 14:45:11.66	313.69	12.24	-49.7	-50.4	15.9	0.00e+00	0	31	0	2411724800	64	4188
2026-01-02 14:45:12.66	313.86	12.20	-49.7	-50.4	15.9	0.00e+00	0	32	0	2418016256	64	4185
2026-01-02 14:45:13.66	314.03	12.16	-49.7	-50.5	15.9	0.00e+00	0	31	0	2423259136	64	4207
2026-01-02 14:45:14.66	314.21	12.12	-49.8	-50.6	15.8	0.00e+00	0	32	0	2428502016	64	4251
2026-01-02 14:45:15.66	314.38	12.07	-49.9	-50.7	15.9	0.00e+00	0	31	0	2434793472	65	4064
2026-01-02 14:45:16.66	314.55	12.03	-50.0	-50.7	15.8	0.00e+00	0	31	0	2440036352	65	4093
2026-01-02 14:45:17.66	314.72	11.99	-49.9	-50.7	15.9	0.00e+00	0	32	0	2446327808	65	4064
2026-01-02 14:45:18.66	314.89	11.95	-49.9	-50.6	15.9	0.00e+00	0	32	0	2451570688	65	4033
2026-01-02 14:45:19.66	315.07	11.91	-49.8	-50.6	15.9	0.00e+00	0	32	0	2456813568	65	4013
2026-01-02 14:45:20.66	315.24	11.87	-49.9	-50.7	15.9	0.00e+00	0	32	0	2463105024	65	4064
2026-01-02 14:45:21.66	315.40	11.82	-49.8	-50.5	15.9	0.00e+00	0	31	0	2468347904	65	3998
2026-01-02 14:45:22.65	315.57	11.78	-49.9	-50.7	15.9	0.00e+00	0	32	0	2473590784	65	4054
2026-01-02 14:45:23.65	315.74	11.74	-49.8	-50.6	15.9	0.00e+00	0	31	0	2479882240	65	4026
2026-01-02 14:45:24.64	315.91	11.70	-49.8	-50.5	15.9	0.00e+00	0	31	0	2485125120	65	3993
2026-01-02 14:45:25.64	316.07	11.65	-49.8	-50.6	15.9	0.00e+00	0	31	0	2490368000	65	4021
2026-01-02 14:45:26.64	316.24	11.61	-49.9	-50.7	15.9	0.00e+00	0	32	0	2496659456	65	4056
2026-01-02 14:45:27.65	316.41	11.57	-49.8	-50.6	15.9	0.00e+00	0	31	0	2501902336	65	4009
2026-01-02 14:45:28.65	316.58	11.52	-49.8	-50.5	15.9	0.00e+00	0	31	0	2508193792	65	3992
2026-01-02 14:45:29.65	316.74	11.48	-49.9	-50.7	15.9	0.00e+00	0	32	0	2513436672	65	4070
2026-01-02 14:45:30.66	316.91	11.44	-49.9	-50.6	15.9	0.00e+00	0	32	0	2518679552	65	4035
2026-01-02 14:45:31.65	317.07	11.39	-49.9	-50.6	15.9	0.00e+00	0	32	0	2524971008	65	4037
2026-01-02 14:45:32.65	317.24	11.35	-50.0	-50.8	15.8	0.00e+00	0	31	0	2530213888	65	4126
2026-01-02 14:45:33.65	317.40	11.30	-50.0	-50.7	15.8	0.00e+00	0	31	0	2535456768	65	4083
2026-01-02 14:45:34.66	317.57	11.26	-49.9	-50.7	15.8	0.00e+00	0	31	0	2541748224	65	4070
2026-01-02 14:45:35.66	317.73	11.22	-50.0	-50.8	15.8	0.00e+00	0	32	0	2546991104	65	4103
2026-01-02 14:45:36.65	317.89	11.17	-50.1	-50.8	15.8	0.00e+00	0	32	0	2552233984	65	4144
2026-01-02 14:45:37.66	318.05	11.13	-50.1	-50.9	15.7	0.00e+00	0	32	0	2558525440	65	4178
2026-01-02 14:45:38.66	318.21	11.08	-50.2	-51.0	15.7	0.00e+00	0	32	0	2563768320	65	4226
2026-01-02 14:45:39.66	318.38	11.04	-50.2	-51.0	15.7	0.00e+00	0	32	0	2570059776	65	4238
2026-01-02 14:45:40.66	318.54	10.99	-50.1	-51.0	15.8	0.00e+00	0	31	0	2575302656	65	4195
2026-01-02 14:45:41.67	318.70	10.95	-50.2	-51.0	15.7	0.00e+00	0	32	0	2580545536	65	4236
2026-01-02 14:45:42.67	318.86	10.90	-50.2	-51.0	15.7	0.00e+00	0	31	0	2586836992	65	4217
2026-01-02 14:45:43.67	319.02	10.86	-50.3	-51.1	15.7	0.00e+00	0	31	0	2592079872	65	4273
2026-01-02 14:45:44.67	319.18	10.81	-50.1	-50.9	15.7	0.00e+00	0	32	0	2597322752	65	4188
2026-01-02 14:45:45.67	319.33	10.77	-50.2	-51.0	15.7	0.00e+00	0	32	0	2603614208	65	4241
2026-01-02 14:45:46.66	319.49	10.72	-50.2	-51.0	15.7	0.00e+00	0	31	0	2608857088	65	4206
2026-01-02 14:45:47.64	319.64	10.68	-50.2	-51.0	15.7	0.00e+00	0	31	0	2614099968	65	4231
2026-01-02 14:45:48.63	319.80	10.63	-50.2	-51.0	15.7	0.00e+00	0	31	0	2620391424	65	4238
2026-01-02 14:45:49.63	319.96	10.59	-50.3	-51.1	15.7	0.00e+00	0	31	0	2625634304	65	4253
2026-01-02 14:45:50.63	320.11	10.54	-50.2	-51.0	15.7	0.00e+00	0	31	0	2630877184	65	4231
2026-01-02 14:45:51.62	320.26	10.49	-50.2	-51.0	15.7	0.00e+00	0	32	0	2637168640	65	4229
2026-01-02 14:45:52.63	320.42	10.45	-50.2	-51.0	15.7	0.00e+00	0	32	0	2642411520	65	4202
2026-01-02 14:45:53.62	320.57	10.40	-50.3	-51.1	15.7	0.00e+00	0	31	0	2647654400	65	4253
2026-01-02 14:45:54.62	320.73	10.36	-50.1	-50.9	15.7	0.00e+00	0	32	0	2653945856	65	4179
2026-01-02 14:45:55.61	320.88	10.31	-50.1	-50.9	15.7	0.00e+00	0	32	0	2659188736	65	4147
2026-01-02 14:45:56.61	321.03	10.26	-50.1	-50.9	15.8	0.00e+00	0	32	0	2664431616	65	4157
2026-01-02 14:45:57.61	321.19	10.22	-50.2	-51.0	15.7	0.00e+00	0	31	0	2670723072	65	4209
2026-01-02 14:45:58.61	321.34	10.17	-50.2	-51.0	15.7	0.00e+00	0	32	0	2675965952	65	4210
2026-01-02 14:45:59.61	321.49	10.12	-50.1	-50.9	15.7	0.00e+00	0	32	0	2682257408	65	4191
2026-01-02 14:46:00.61	321.64	10.08	-50.0	-50.8	15.8	0.00e+00	0	32	0	2687500288	65	4135
2026-01-02 14:46:01.61	321.79	10.03	-50.1	-50.9	15.7	0.00e+00	0	32	0	2692743168	65	4150
2026-01-02 14:46:02.62	321.94	9.98	-50.1	-50.8	15.7	0.00e+00	0	32	0	2699034624	65	4140
2026-01-02 14:46:03.62	322.09	9.93	-50.1	-50.9	15.7	0.00e+00	0	32	0	2704277504	65	4172
2026-01-02 14:46:04.62	322.24	9.89	-50.0	-50.8	15.7	0.00e+00	0	32	0	2709520384	65	4105
2026-01-02 14:46:05.62	322.39	9.84	-50.0	-50.7	15.8	0.00e+00	0	31	0	2715811840	65	4098
2026-01-02 14:46:06.62	322.54	9.79	-50.0	-50.8	15.8	0.00e+00	0	31	0	2721054720	65	4106
2026-01-02 14:46:07.62	322.69	9.75	-50.1	-50.9	15.7	0.00e+00	0	31	0	2726297600	65	4150
2026-01-02 14:46:08.62	322.83	9.70	-50.1	-50.8	15.7	0.00e+00	0	32	0	2732589056	65	4142
2026-01-02 14:46:09.61	322.98	9.65	-50.1	-50.9	15.7	0.00e+00	0	31	0	2737831936	65	4180
2026-01-02 14:46:10.62	323.13	9.60	-50.2	-51.0	15.7	0.00e+00	0	31	0	2744123392	65	4214
2026-01-02 14:46:11.61	323.27	9.56	-50.3	-51.2	15.6	0.00e+00	0	32	0	2749366272	65	4303
2026-01-02 14:46:12.61	323.42	9.51	-50.4	-51.3	15.6	0.00e+00	0	32	0	2754609152	66	4101
2026-01-02 14:46:13.61	323.56	9.46	-50.5	-51.3	15.6	0.00e+00	0	31	0	2760900608	66	4145
2026-01-02 14:46:14.61	323.71	9.41	-50.5	-51.3	15.6	0.00e+00	0	32	0	2766143488	66	4128
2026-01-02 14:46:15.61	323.85	9.36	-50.5	-51.3	15.6	0.00e+00	0	31	0	2771386368	66	4133
2026-01-02 14:46:16.61	323.99	9.32	-50.5	-51.4	15.6	0.00e+00	0	32	0	2777677824	66	4156
2026-01-02 14:46:17.61	324.14	9.27	-50.4	-51.2	15.6	0.00e+00	0	32	0	2782920704	66	4087
2026-01-02 14:46:18.61	324.28	9.22	-50.4	-51.3	15.6	0.00e+00	0	31	0	2788163584	66	4102
2026-01-02 14:46:19.62	324.42	9.17	-50.5	-51.3	15.6	0.00e+00	0	32	0	2794455040	66	4135
2026-01-02 14:46:20.61	324.56	9.12	-50.5	-51.4	15.6	0.00e+00	0	32	0	2799697920	66	4157
2026-01-02 14:46:21.60	324.70	9.08	-50.6	-51.4	15.6	0.00e+00	0	32	0	2805989376	66	4187
2026-01-02 14:46:22.60	324.85	9.03	-50.5	-51.3	15.6	0.00e+00	0	32	0	2811232256	66	4138
2026-01-02 14:46:23.61	324.99	8.98	-50.4	-51.2	15.6	0.00e+00	0	32	0	2816475136	66	4098
2026-01-02 14:46:24.60	325.13	8.93	-50.4	-51.2	15.6	0.00e+00	0	32	0	2822766592	66	4079
2026-01-02 14:46:25.60	325.27	8.88	-50.6	-51.4	15.5	0.00e+00	0	32	0	2828009472	66	4177
2026-01-02 14:46:26.60	325.41	8.83	-50.5	-51.4	15.5	0.00e+00	0	32	0	2833252352	66	4167
2026-01-02 14:46:27.60	325.54	8.79	-50.6	-51.4	15.5	0.00e+00	0	32	0	2839543808	66	4186
2026-01-02 14:46:28.60	325.68	8.74	-50.5	-51.4	15.5	0.00e+00	0	32	0	2844786688	66	4154
2026-01-02 14:46:29.59	325.82	8.69	-50.6	-51.4	15.5	0.00e+00	0	31	0	2850029568	66	4190
2026-01-02 14:46:30.59	325.96	8.64	-50.5	-51.4	15.5	0.00e+00	0	32	0	2856321024	66	4163
2026-01-02 14:46:31.59	326.09	8.59	-50.6	-51.4	15.5	0.00e+00	0	31	0	2861563904	66	4192
2026-01-02 14:46:32.59	326.23	8.54	-50.7	-51.6	15.4	0.00e+00	0	32	0	2867855360	66	4276
2026-01-02 14:46:33.59	326.37	8.49	-50.6	-51.5	15.5	0.00e+00	0	32	0	2873098240	66	4220
2026-01-02 14:46:34.60	326.50	8.44	-50.7	-51.6	15.4	0.00e+00	0	31	0	2878341120	66	4255
2026-01-02 14:46:35.60	326.64	8.40	-50.7	-51.6	15.4	0.00e+00	0	31	0	2884632576	66	4280
2026-01-02 14:46:36.60	326.77	8.35	-50.8	-51.7	15.4	0.00e+00	0	32	0	2889875456	66	4323
2026-01-02 14:46:37.61	326.91	8.30	-50.9	-51.8	15.4	0.00e+00	0	31	0	2895118336	67	4105
2026-01-02 14:46:38.60	327.04	8.25	-50.7	-51.6	15.5	0.00e+00	0	31	0	2901409792	67	4005
2026-01-02 14:46:39.61	327.18	8.20	-50.7	-51.6	15.5	0.00e+00	0	32	0	2906652672	67	4014
2026-01-02 14:46:40.61	327.31	8.15	-50.7	-51.6	15.5	0.00e+00	0	32	0	2911895552	67	4015
2026-01-02 14:46:41.61	327.44	8.10	-50.8	-51.6	15.5	0.00e+00	0	31	0	2918187008	67	4041
2026-01-02 14:46:42.61	327.57	8.05	-50.8	-51.7	15.5	0.00e+00	0	31	0	2923429888	67	4054
2026-01-02 14:46:43.61	327.71	8.00	-50.8	-51.7	15.5	0.00e+00	0	32	0	2929721344	67	4060
2026-01-02 14:46:44.61	327.84	7.95	-50.7	-51.6	15.5	0.00e+00	0	32	0	2934964224	67	4034
2026-01-02 14:46:45.61	327.97	7.90	-50.8	-51.6	15.5	0.00e+00	0	32	0	2940207104	67	4040
2026-01-02 14:46:46.60	328.10	7.86	-50.9	-51.8	15.4	0.00e+00	0	32	0	2946498560	67	4112
2026-01-02 14:46:47.59	328.23	7.81	-50.9	-51.8	15.4	0.00e+00	0	31	0	2951741440	67	4104
2026-01-02 14:46:48.59	328.36	7.76	-50.9	-51.8	15.4	0.00e+00	0	32	0	2956984320	67	4135
2026-01-02 14:46:49.58	328.48	7.71	-50.9	-51.8	15.4	0.00e+00	0	32	0	2963275776	67	4135
2026-01-02 14:46:50.58	328.61	7.66	-50.9	-51.7	15.4	0.00e+00	0	31	0	2968518656	67	4097
2026-01-02 14:46:51.59	328.74	7.61	-51.0	-52.0	15.3	0.00e+00	0	32	0	2973761536	67	4203
2026-01-02 14:46:52.58	328.87	7.56	-50.9	-51.8	15.4	0.00e+00	0	31	0	2980052992	67	4102
2026-01-02 14:46:53.57	329.00	7.51	-50.9	-51.9	15.3	0.00e+00	0	32	0	2985295872	67	4149
2026-01-02 14:46:54.56	329.12	7.46	-50.9	-51.8	15.4	0.00e+00	0	32	0	2990538752	67	4100
2026-01-02 14:46:55.56	329.25	7.41	-50.9	-51.8	15.4	0.00e+00	0	32	0	2996830208	67	4107
2026-01-02 14:46:56.56	329.37	7.36	-50.9	-51.8	15.3	0.00e+00	0	32	0	3002073088	67	4139
2026-01-02 14:46:57.56	329.50	7.31	-50.9	-51.8	15.3	0.00e+00	0	31	0	3007315968	67	4115
2026-01-02 14:46:58.56	329.63	7.26	-51.0	-51.9	15.3	0.00e+00	0	31	0	3013607424	67	4182
2026-01-02 14:46:59.56	329.75	7.21	-51.0	-51.9	15.3	0.00e+00	0	32	0	3018850304	67	4178
2026-01-02 14:47:00.55	329.87	7.17	-51.0	-51.9	15.3	0.00e+00	0	32	0	3024093184	67	4181
2026-01-02 14:47:01.56	330.00	7.12	-50.9	-51.8	15.4	0.00e+00	0	32	0	3030384640	67	4125
2026-01-02 14:47:02.56	330.12	7.07	-50.9	-51.8	15.4	0.00e+00	0	32	0	3035627520	67	4118
2026-01-02 14:47:03.55	330.25	7.02	-50.9	-51.9	15.3	0.00e+00	0	32	0	3041918976	67	4147
2026-01-02 14:47:04.55	330.37	6.97	-51.0	-51.9	15.3	0.00e+00	0	32	0	3047161856	67	4168
2026-01-02 14:47:05.56	330.49	6.92	-51.0	-52.0	15.3	0.00e+00	0	31	0	3052404736	67	4198
2026-01-02 14:47:06.56	330.62	6.87	-50.9	-51.8	15.3	0.00e+00	0	32	0	3058696192	67	4142
2026-01-02 14:47:07.57	330.74	6.82	-51.0	-51.9	15.3	0.00e+00	0	32	0	3063939072	67	4165
2026-01-02 14:47:08.56	330.86	6.77	-51.1	-52.0	15.2	0.00e+00	0	31	0	3069181952	67	4224
2026-01-02 14:47:09.57	330.98	6.72	-51.1	-52.1	15.2	0.00e+00	0	32	0	3075473408	67	4257
2026-01-02 14:47:10.56	331.10	6.67	-51.1	-52.0	15.2	0.00e+00	0	32	0	3080716288	67	4208
2026-01-02 14:47:11.56	331.22	6.62	-51.1	-52.0	15.2	0.00e+00	0	31	0	3087007744	67	4241
2026-01-02 14:47:12.56	331.34	6.57	-51.2	-52.2	15.1	0.00e+00	0	31	0	3092250624	67	4295
2026-01-02 14:47:13.56	331.46	6.52	-51.1	-52.1	15.2	0.00e+00	0	32	0	3097493504	67	4258
2026-01-02 14:47:14.56	331.58	6.47	-51.1	-52.0	15.2	0.00e+00	0	32	0	3103784960	67	4237
2026-01-02 14:47:15.55	331.70	6.42	-51.2	-52.2	15.1	0.00e+00	0	31	0	3109027840	67	4318
2026-01-02 14:47:16.55	331.82	6.37	-51.3	-52.3	15.1	0.00e+00	0	32	0	3114270720	67	4368
2026-01-02 14:47:17.54	331.93	6.32	-51.5	-52.5	15.1	0.00e+00	0	31	0	3120562176	68	4221
2026-01-02 14:47:18.54	332.05	6.27	-51.6	-52.6	15.0	0.00e+00	0	32	0	3125805056	68	4291
2026-01-02 14:47:19.54	332.17	6.22	-51.6	-52.6	15.0	0.00e+00	0	32	0	3131047936	68	4286
2026-01-02 14:47:20.54	332.28	6.17	-51.7	-52.7	15.0	0.00e+00	0	32	0	3137339392	68	4313
2026-01-02 14:47:21.54	332.40	6.12	-51.7	-52.8	14.9	0.00e+00	0	32	0	3142582272	68	4346
2026-01-02 14:47:22.53	332.51	6.07	-51.8	-52.9	14.9	0.00e+00	0	32	0	3147825152	68	4407
2026-01-02 14:47:23.53	332.63	6.02	-52.0	-53.0	14.9	0.00e+00	0	32	0	3154116608	69	4235
2026-01-02 14:47:24.54	332.75	5.97	-52.0	-53.0	14.9	0.00e+00	0	31	0	3159359488	69	4238
2026-01-02 14:47:25.54	332.86	5.92	-51.8	-52.9	15.0	0.00e+00	0	31	0	3165650944	69	4163
2026-01-02 14:47:26.53	332.98	5.87	-51.8	-52.9	14.9	0.00e+00	0	32	0	3170893824	69	4160
2026-01-02 14:47:27.52	333.09	5.82	-51.8	-52.9	15.0	0.00e+00	0	32	0	3176136704	69	4148
2026-01-02 14:47:28.52	333.20	5.78	-51.8	-52.8	15.0	0.00e+00	0	32	0	3181379584	69	4130
2026-01-02 14:47:29.52	333.32	5.73	-51.8	-52.9	14.9	0.00e+00	0	32	0	3187671040	69	4170
2026-01-02 14:47:30.53	333.43	5.68	-51.7	-52.8	15.0	0.00e+00	0	31	0	3192913920	69	4106
2026-01-02 14:47:31.51	333.54	5.63	-51.8	-52.9	14.9	0.00e+00	0	32	0	3199205376	69	4146
2026-01-02 14:47:32.52	333.65	5.58	-51.8	-52.8	14.9	0.00e+00	0	31	0	3204448256	69	4139
2026-01-02 14:47:33.52	333.77	5.53	-51.8	-52.8	14.9	0.00e+00	0	32	0	3209691136	69	4136
2026-01-02 14:47:34.52	333.88	5.48	-51.7	-52.8	14.9	0.00e+00	0	32	0	3215982592	69	4100
2026-01-02 14:47:35.51	333.99	5.43	-51.8	-52.9	14.8	0.00e+00	0	32	0	3221225472	69	4177
2026-01-02 14:47:36.51	334.10	5.38	-51.5	-52.6	15.0	0.00e+00	0	31	0	3226468352	69	4022
2026-01-02 14:47:37.51	334.21	5.33	-52.0	-53.2	14.7	0.00e+00	0	32	0	3232759808	69	4298
2026-01-02 14:47:38.51	334.32	5.28	-51.6	-52.7	14.8	0.00e+00	0	31	0	3238002688	69	4071
2026-01-02 14:47:39.51	334.43	5.23	-51.2	-52.3	14.8	0.00e+00	0	32	0	3243245568	68	4133
2026-01-02 14:47:40.52	334.54	5.18	-51.0	-52.1	15.0	0.00e+00	0	32	0	3249537024	68	4005
2026-01-02 14:47:41.51	334.65	5.13	-51.2	-52.3	14.8	0.00e+00	0	32	0	3254779904	68	4122
2026-01-02 14:47:42.51	334.76	5.08	-51.6	-52.7	14.6	0.00e+00	0	31	0	3261071360	68	4327
2026-01-02 14:47:43.51	334.86	5.03	-51.5	-52.6	14.7	0.00e+00	0	32	0	3266314240	68	4271
2026-01-02 14:47:44.51	334.97	4.98	-52.5	-53.8	14.4	0.00e+00	0	32	0	3271557120	70	4344
2026-01-02 14:47:45.51	335.08	4.93	-60.6	-73.2	3.8	8.45e-01	0	32	104	3274702848	86	16215
2026-01-02 14:47:46.50	335.19	4.88	-61.1	-73.6	3.8	8.45e-01	0	32	104	3274702848	87	16116
2026-01-02 14:47:47.50	335.29	4.83	-61.4	-74.0	3.8	8.46e-01	0	32	104	3274702848	87	16712
2026-01-02 14:47:48.49	335.40	4.78	-61.6	-74.2	3.8	8.45e-01	0	32	104	3274702848	88	16220
2026-01-02 14:47:49.49	335.51	4.73	-61.8	-74.4	3.8	8.45e-01	0	32	104	3274702848	88	16599
2026-01-02 14:47:50.48	335.61	4.68	-61.9	-74.6	3.8	8.46e-01	0	31	104	3274702848	89	15945
2026-01-02 14:47:51.48	335.72	4.63	-62.0	-74.6	3.8	8.46e-01	0	32	104	3274702848	89	16113
2026-01-02 14:47:52.48	335.82	4.59	-62.1	-74.7	3.8	8.45e-01	0	32	104	3274702848	89	16255
2026-01-02 14:47:53.47	335.93	4.54	-62.2	-74.8	3.8	8.45e-01	0	32	104	3274702848	89	16395
2026-01-02 14:47:54.47	336.03	4.49	-62.2	-74.9	3.8	8.46e-01	0	32	104	3274702848	89	16529
2026-01-02 14:47:55.47	336.13	4.44	-62.3	-74.9	3.8	8.46e-01	0	31	104	3274702848	89	16557
2026-01-02 14:47:56.46	336.24	4.39	-62.3	-75.0	3.8	8.45e-01	0	32	104	3274702848	89	16704
2026-01-02 14:47:57.46	336.34	4.34	-62.3	-75.0	3.8	8.46e-01	0	32	104	3274702848	89	16703
2026-01-02 14:47:58.46	336.44	4.29	-62.4	-75.0	3.8	8.45e-01	0	32	104	3274702848	89	16770
2026-01-02 14:47:59.46	336.55	4.24	-62.4	-75.0	3.8	8.46e-01	0	32	104	3274702848	89	16830
2026-01-02 14:48:00.46	336.65	4.19	-62.4	-75.0	3.8	8.45e-01	0	32	104	3274702848	90	15916
2026-01-02 14:48:01.46	336.75	4.14	-62.4	-75.0	3.8	8.44e-01	0	32	104	3274702848	90	15879
2026-01-02 14:48:02.45	336.85	4.09	-62.4	-75.1	3.8	8.45e-01	0	32	104	3274702848	90	15967
2026-01-02 14:48:03.45	336.96	4.04	-62.4	-75.0	3.9	8.46e-01	0	32	104	3274702848	90	15864
2026-01-02 14:48:04.46	337.06	3.99	-62.4	-75.1	3.8	8.47e-01	0	32	104	3274702848	90	15955
2026-01-02 14:48:05.46	337.16	3.94	-62.4	-75.0	3.8	8.46e-01	0	32	104	3274702848	90	15927
2026-01-02 14:48:06.47	337.26	3.89	-62.4	-75.0	3.8	8.46e-01	0	32	104	3274702848	90	15940
2026-01-02 14:48:07.47	337.36	3.85	-62.4	-75.0	3.8	8.45e-01	0	32	104	3274702848	90	15799
2026-01-02 14:48:08.47	337.46	3.80	-62.3	-74.9	3.8	8.46e-01	0	32	104	3274702848	90	15728
2026-01-02 14:48:09.47	337.56	3.75	-62.3	-74.9	3.8	8.45e-01	0	32	104	3274702848	90	15720
2026-01-02 14:48:10.47	337.66	3.70	-62.3	-74.9	3.8	8.46e-01	0	31	104	3274702848	90	15709
2026-01-02 14:48:11.47	337.76	3.65	-62.3	-74.9	3.8	8.46e-01	0	32	104	3274702848	90	15698
2026-01-02 14:48:12.47	337.86	3.60	-62.3	-74.9	3.8	8.45e-01	0	31	104	3274702848	90	15672
2026-01-02 14:48:13.48	337.96	3.55	-62.3	-74.9	3.8	8.46e-01	0	32	104	3274702848	90	15617
2026-01-02 14:48:14.48	338.06	3.50	-62.3	-74.9	3.8	8.45e-01	0	32	104	3274702848	90	15623
2026-01-02 14:48:15.48	338.15	3.45	-62.2	-74.9	3.8	8.45e-01	0	32	104	3274702848	90	15620
2026-01-02 14:48:16.48	338.25	3.40	-62.2	-74.9	3.8	8.46e-01	0	32	104	3274702848	90	15618
2026-01-02 14:48:17.48	338.35	3.35	-62.2	-74.8	3.8	8.46e-01	0	32	104	3274702848	90	15511
2026-01-02 14:48:18.48	338.45	3.30	-62.2	-74.8	3.8	8.46e-01	0	32	104	3274702848	90	15546
2026-01-02 14:48:19.49	338.54	3.25	-62.2	-74.8	3.8	8.45e-01	0	32	104	3274702848	90	15556
2026-01-02 14:48:20.49	338.64	3.21	-62.2	-74.8	3.8	8.44e-01	0	32	104	3274702848	90	15538
2026-01-02 14:48:21.49	338.74	3.16	-62.2	-74.8	3.8	8.46e-01	0	32	104	3274702848	90	15553
2026-01-02 14:48:22.50	338.83	3.11	-62.2	-74.8	3.8	8.47e-01	0	32	104	3274702848	90	15529
2026-01-02 14:48:23.49	338.93	3.06	-62.2	-74.8	3.8	8.46e-01	0	32	104	3274702848	90	15500
2026-01-02 14:48:24.49	339.02	3.01	-62.2	-74.8	3.8	8.45e-01	0	32	104	3274702848	90	15447
2026-01-02 14:48:25.49	339.12	2.96	-62.2	-74.8	3.8	8.46e-01	0	32	104	3274702848	90	15468
2026-01-02 14:48:26.50	339.21	2.91	-62.2	-74.8	3.8	8.45e-01	0	32	104	3274702848	90	15454
