passes_logs/2026/01/02/R3.2S_Murmansk/R3.2S_Murmansk__20260102_025623_FENGYUN_3D_rec.log

#Pass ID: 20260102_025623_FENGYUN 3D
#Satellite: FENGYUN 3D
#Configuration: FENGYUN 3D
#almurnet v.1.7.20251203
#Start time: 2026-01-02 02:56:24

#Version: 2.2.20231116
#Station: R3.2S_Murmansk
#Location: 33.079688 lon 68.888172 lat
#TLE: 1 43010U 17072A   26001.19005061  .00000535  00000+0  27473-3 0  9994
#TLE: 2 43010  98.9910 332.7942 0001852 133.6060 226.5269 14.19691635421296

#Time	Az	El	Level	Level2	SNR	BER	BlckErr	Temp	State	Recorded	gain1	gain2
2026-01-02 02:56:24.71	25.88	2.08	-54.9	-67.8	3.8	8.45e-01	0	31	0	0	74	17463
2026-01-02 02:56:25.70	25.88	2.14	-54.9	-67.9	3.8	8.45e-01	0	31	104	0	75	16512
2026-01-02 02:56:26.70	25.88	2.21	-54.9	-67.8	3.8	8.46e-01	0	31	104	0	75	16502
2026-01-02 02:56:27.70	25.88	2.27	-54.9	-67.9	3.8	8.45e-01	0	31	104	0	75	16532
2026-01-02 02:56:28.70	25.88	2.34	-54.9	-67.9	3.8	8.46e-01	0	31	104	0	75	16543
2026-01-02 02:56:29.70	25.88	2.40	-54.9	-67.9	3.8	8.46e-01	0	31	104	0	75	16533
2026-01-02 02:56:30.70	25.88	2.47	-54.9	-67.8	3.8	8.46e-01	0	31	104	0	75	16474
2026-01-02 02:56:31.70	25.88	2.53	-54.9	-67.9	3.8	8.45e-01	0	31	104	0	75	16515
2026-01-02 02:56:32.70	25.88	2.60	-54.9	-67.9	3.8	8.45e-01	0	31	104	0	75	16543
2026-01-02 02:56:33.70	25.88	2.66	-54.9	-67.9	3.8	8.45e-01	0	31	104	0	75	16532
2026-01-02 02:56:34.70	25.87	2.73	-54.9	-67.9	3.8	8.46e-01	0	31	104	0	75	16517
2026-01-02 02:56:35.70	25.87	2.79	-54.9	-67.9	3.8	8.46e-01	0	31	104	0	75	16529
2026-01-02 02:56:36.70	25.87	2.86	-54.9	-67.9	3.8	8.46e-01	0	31	104	0	75	16526
2026-01-02 02:56:37.70	25.87	2.92	-54.9	-67.9	3.8	8.45e-01	0	31	104	0	75	16527
2026-01-02 02:56:38.70	25.87	2.99	-54.9	-67.8	3.8	8.46e-01	0	31	104	0	75	16455
2026-01-02 02:56:39.71	25.87	3.06	-54.9	-67.8	3.8	8.46e-01	0	31	104	0	75	16479
2026-01-02 02:56:40.71	25.87	3.12	-54.9	-67.8	3.8	8.46e-01	0	31	104	0	75	16465
2026-01-02 02:56:41.69	25.87	3.19	-54.9	-67.9	3.8	8.46e-01	0	31	104	0	75	16537
2026-01-02 02:56:42.69	25.86	3.25	-54.9	-67.9	3.8	8.47e-01	0	31	104	0	75	16589
2026-01-02 02:56:43.69	25.86	3.32	-54.9	-67.9	3.8	8.46e-01	0	31	104	0	75	16585
2026-01-02 02:56:44.68	25.86	3.39	-54.9	-67.9	3.8	8.46e-01	0	31	104	0	75	16556
2026-01-02 02:56:45.69	25.86	3.45	-54.9	-67.9	3.8	8.45e-01	0	31	104	0	75	16542
2026-01-02 02:56:46.69	25.86	3.52	-54.9	-67.9	3.8	8.46e-01	0	31	104	0	75	16538
2026-01-02 02:56:47.68	25.86	3.59	-54.9	-67.9	3.8	8.46e-01	0	31	104	0	75	16557
2026-01-02 02:56:48.68	25.86	3.66	-54.9	-67.9	3.8	8.44e-01	0	31	104	0	75	16550
2026-01-02 02:56:49.68	25.85	3.72	-54.9	-67.9	3.8	8.45e-01	0	31	104	0	75	16508
2026-01-02 02:56:50.67	25.85	3.79	-54.9	-67.8	3.8	8.46e-01	0	31	104	0	75	16459
2026-01-02 02:56:51.68	25.85	3.86	-54.9	-67.8	3.8	8.46e-01	0	31	104	0	75	16415
2026-01-02 02:56:52.67	25.85	3.93	-54.9	-67.7	3.8	8.46e-01	0	31	104	0	75	16291
2026-01-02 02:56:53.66	25.85	4.00	-54.9	-67.6	3.8	8.45e-01	0	31	104	0	75	16110
2026-01-02 02:56:54.66	25.85	4.06	-54.9	-67.6	3.8	8.44e-01	0	31	104	0	75	15955
2026-01-02 02:56:55.65	25.84	4.13	-54.9	-67.4	3.8	8.45e-01	0	31	104	0	75	15735
2026-01-02 02:56:56.65	25.84	4.20	-54.9	-67.4	3.8	8.45e-01	0	31	104	0	75	15627
2026-01-02 02:56:57.65	25.84	4.27	-54.9	-67.5	3.8	8.47e-01	0	32	104	0	75	15820
2026-01-02 02:56:58.65	25.84	4.34	-54.9	-67.7	3.8	8.45e-01	0	32	104	0	75	16136
2026-01-02 02:56:59.65	25.84	4.41	-55.0	-67.8	3.8	8.46e-01	0	32	104	0	75	16341
2026-01-02 02:57:00.63	25.84	4.48	-54.9	-67.9	3.8	8.46e-01	0	31	104	0	75	16521
2026-01-02 02:57:01.62	25.83	4.55	-55.0	-67.9	3.8	8.46e-01	0	31	104	0	75	16558
2026-01-02 02:57:02.63	25.83	4.62	-54.9	-67.9	3.8	8.46e-01	0	31	104	0	75	16568
2026-01-02 02:57:03.63	25.83	4.69	-55.0	-67.9	3.8	8.46e-01	0	32	104	0	75	16529
2026-01-02 02:57:04.62	25.83	4.76	-54.9	-67.9	3.8	8.46e-01	0	32	104	0	75	16507
2026-01-02 02:57:05.62	25.83	4.83	-54.9	-67.8	3.8	8.45e-01	0	32	104	0	75	16440
2026-01-02 02:57:06.62	25.82	4.90	-55.0	-67.8	3.8	8.46e-01	0	31	104	0	75	16344
2026-01-02 02:57:07.62	25.82	4.97	-54.9	-67.7	3.8	8.44e-01	0	32	104	0	75	16246
2026-01-02 02:57:08.62	25.82	5.04	-54.9	-67.7	3.8	8.46e-01	0	32	104	0	75	16260
2026-01-02 02:57:09.62	25.82	5.11	-54.9	-67.7	3.8	8.45e-01	0	32	104	0	75	16202
2026-01-02 02:57:10.62	25.82	5.18	-54.9	-67.6	3.8	8.45e-01	0	32	104	0	75	16090
2026-01-02 02:57:11.62	25.81	5.26	-54.9	-67.5	3.8	8.45e-01	0	32	104	0	75	15886
2026-01-02 02:57:12.62	25.81	5.33	-54.9	-67.5	3.8	8.45e-01	0	32	104	0	75	15845
2026-01-02 02:57:13.62	25.81	5.40	-54.9	-67.5	3.8	8.47e-01	0	32	104	0	75	15934
2026-01-02 02:57:14.63	25.81	5.47	-54.9	-67.5	3.8	8.46e-01	0	32	104	0	75	15835
2026-01-02 02:57:15.63	25.80	5.55	-54.9	-67.4	3.8	8.46e-01	0	32	104	0	75	15729
2026-01-02 02:57:16.63	25.80	5.62	-54.9	-67.5	3.8	8.46e-01	0	32	104	0	75	15838
2026-01-02 02:57:17.64	25.80	5.69	-54.9	-67.6	3.8	8.46e-01	0	32	104	0	75	15944
2026-01-02 02:57:18.64	25.80	5.76	-54.9	-67.6	3.8	8.45e-01	0	32	104	0	75	15987
2026-01-02 02:57:19.63	25.80	5.84	-55.0	-67.7	3.8	8.45e-01	0	32	104	0	75	16192
2026-01-02 02:57:20.63	25.79	5.91	-54.9	-67.7	3.8	8.46e-01	0	32	104	0	75	16296
2026-01-02 02:57:21.64	25.79	5.99	-55.0	-67.8	3.8	8.46e-01	0	32	104	0	75	16444
2026-01-02 02:57:22.64	25.79	6.06	-55.0	-67.8	3.8	8.46e-01	0	32	104	0	75	16482
2026-01-02 02:57:23.64	25.79	6.13	-55.0	-67.9	3.8	8.46e-01	0	32	104	0	75	16567
2026-01-02 02:57:24.64	25.78	6.21	-55.0	-67.9	3.8	8.46e-01	0	32	104	0	75	16606
2026-01-02 02:57:25.64	25.78	6.28	-55.0	-67.9	3.8	8.46e-01	0	32	104	0	75	16630
2026-01-02 02:57:26.64	25.78	6.36	-55.0	-67.9	3.8	8.45e-01	0	32	104	0	75	16568
2026-01-02 02:57:27.64	25.77	6.43	-55.0	-67.9	3.8	8.45e-01	0	32	104	0	75	16606
2026-01-02 02:57:28.64	25.77	6.51	-55.0	-67.9	3.8	8.45e-01	0	32	104	0	75	16599
2026-01-02 02:57:29.63	25.77	6.58	-55.0	-67.9	3.8	8.47e-01	0	32	104	0	75	16583
2026-01-02 02:57:30.64	25.77	6.66	-55.0	-67.9	3.8	8.45e-01	0	32	104	0	75	16525
2026-01-02 02:57:31.64	25.76	6.74	-55.0	-67.8	3.8	8.46e-01	0	32	104	0	75	16502
2026-01-02 02:57:32.63	25.76	6.81	-55.0	-67.9	3.8	8.46e-01	0	32	104	0	75	16526
2026-01-02 02:57:33.63	25.76	6.89	-55.0	-67.8	3.8	8.44e-01	0	32	104	0	75	16433
2026-01-02 02:57:34.63	25.75	6.96	-55.0	-67.8	3.8	8.45e-01	0	32	104	0	75	16458
2026-01-02 02:57:35.63	25.75	7.04	-55.0	-67.8	3.8	8.46e-01	0	32	104	0	75	16483
2026-01-02 02:57:36.63	25.75	7.12	-55.0	-67.8	3.8	8.45e-01	0	32	104	0	75	16473
2026-01-02 02:57:37.63	25.75	7.19	-55.0	-67.9	3.8	8.46e-01	0	32	104	0	75	16510
2026-01-02 02:57:38.63	25.74	7.27	-55.0	-67.8	3.8	8.46e-01	0	32	104	0	75	16477
2026-01-02 02:57:39.62	25.74	7.35	-55.0	-67.9	3.8	8.47e-01	0	32	104	0	75	16530
2026-01-02 02:57:40.62	25.74	7.43	-55.0	-67.9	3.8	8.47e-01	0	32	104	0	75	16598
2026-01-02 02:57:41.62	25.73	7.51	-55.0	-67.9	3.8	8.46e-01	0	32	104	0	75	16648
2026-01-02 02:57:42.63	25.73	7.58	-55.0	-67.9	3.8	8.45e-01	0	32	104	0	75	16658
2026-01-02 02:57:43.63	25.73	7.66	-55.0	-67.9	3.8	8.46e-01	0	32	104	0	75	16643
2026-01-02 02:57:44.63	25.72	7.74	-54.9	-68.0	3.8	8.46e-01	0	32	104	0	75	16695
2026-01-02 02:57:45.63	25.72	7.82	-55.0	-67.9	3.8	8.46e-01	0	32	104	0	75	16656
2026-01-02 02:57:46.63	25.72	7.90	-55.0	-67.9	3.8	8.46e-01	0	32	104	0	75	16627
2026-01-02 02:57:47.63	25.71	7.98	-55.0	-67.9	3.8	8.46e-01	0	32	104	0	75	16603
2026-01-02 02:57:48.63	25.71	8.06	-55.0	-67.9	3.8	8.45e-01	0	32	104	0	75	16626
2026-01-02 02:57:49.63	25.71	8.14	-55.0	-67.9	3.8	8.46e-01	0	32	104	0	75	16683
2026-01-02 02:57:50.63	25.70	8.22	-55.0	-67.9	3.8	8.46e-01	0	32	104	0	75	16601
2026-01-02 02:57:51.63	25.70	8.30	-55.0	-67.9	3.8	8.46e-01	0	32	104	0	75	16669
2026-01-02 02:57:52.64	25.69	8.38	-55.0	-67.9	3.8	8.45e-01	0	32	104	0	75	16586
2026-01-02 02:57:53.64	25.69	8.47	-55.0	-67.9	3.8	8.47e-01	0	32	104	0	75	16618
2026-01-02 02:57:54.64	25.69	8.55	-55.0	-67.9	3.8	8.46e-01	0	32	104	0	75	16557
2026-01-02 02:57:55.63	25.68	8.63	-55.0	-67.9	3.8	8.44e-01	0	32	104	0	75	16593
2026-01-02 02:57:56.63	25.68	8.71	-55.0	-67.9	3.8	8.47e-01	0	32	104	0	75	16602
2026-01-02 02:57:57.64	25.67	8.79	-55.0	-67.9	3.8	8.46e-01	0	32	104	0	75	16623
2026-01-02 02:57:58.63	25.67	8.87	-55.0	-67.9	3.8	8.45e-01	0	32	104	0	75	16610
2026-01-02 02:57:59.63	25.67	8.96	-55.0	-67.9	3.8	8.46e-01	0	32	104	0	75	16683
2026-01-02 02:58:00.64	25.66	9.04	-55.0	-67.9	3.8	8.46e-01	0	32	104	0	75	16664
2026-01-02 02:58:01.63	25.66	9.12	-55.0	-67.9	3.8	8.46e-01	0	32	104	0	75	16675
2026-01-02 02:58:02.63	25.65	9.21	-55.0	-68.0	3.8	8.46e-01	0	32	104	0	75	16697
2026-01-02 02:58:03.63	25.65	9.29	-55.0	-67.9	3.8	8.45e-01	0	32	104	0	75	16655
2026-01-02 02:58:04.62	25.65	9.38	-55.0	-67.9	3.8	8.46e-01	0	32	104	0	75	16670
2026-01-02 02:58:05.62	25.64	9.46	-55.0	-67.9	3.8	8.45e-01	0	32	104	0	75	16690
2026-01-02 02:58:06.62	25.64	9.54	-55.0	-67.9	3.8	8.45e-01	0	32	104	0	75	16668
2026-01-02 02:58:07.62	25.63	9.63	-55.0	-67.9	3.8	8.45e-01	0	32	104	0	75	16671
2026-01-02 02:58:08.62	25.63	9.71	-55.0	-67.9	3.8	8.46e-01	0	32	104	0	75	16655
2026-01-02 02:58:09.62	25.62	9.80	-55.0	-68.0	3.8	8.46e-01	0	32	104	0	75	16695
2026-01-02 02:58:10.62	25.62	9.89	-55.0	-67.9	3.8	8.46e-01	0	33	104	0	75	16664
2026-01-02 02:58:11.62	25.61	9.97	-55.0	-67.9	3.8	8.46e-01	0	32	104	0	75	16578
2026-01-02 02:58:12.62	25.61	10.06	-55.0	-67.9	3.8	8.46e-01	0	32	104	0	75	16550
2026-01-02 02:58:13.62	25.60	10.15	-55.0	-67.9	3.8	8.46e-01	0	32	104	0	75	16519
2026-01-02 02:58:14.61	25.60	10.23	-55.0	-67.9	3.8	8.46e-01	0	32	104	0	75	16540
2026-01-02 02:58:15.62	25.60	10.32	-55.0	-67.9	3.8	8.46e-01	0	32	104	0	75	16562
2026-01-02 02:58:16.62	25.59	10.41	-55.0	-67.9	3.8	8.46e-01	0	32	104	0	75	16531
2026-01-02 02:58:17.62	25.59	10.50	-55.0	-67.9	3.8	8.46e-01	0	32	104	0	75	16556
2026-01-02 02:58:18.62	25.58	10.59	-55.0	-67.9	3.8	8.46e-01	0	33	104	0	75	16510
2026-01-02 02:58:19.62	25.57	10.67	-55.0	-67.9	3.8	8.46e-01	0	33	104	0	75	16575
2026-01-02 02:58:20.63	25.57	10.76	-55.0	-67.9	3.8	8.46e-01	0	33	104	0	75	16607
2026-01-02 02:58:21.63	25.56	10.85	-55.0	-67.9	3.8	8.45e-01	0	32	104	0	75	16600
2026-01-02 02:58:22.63	25.56	10.94	-55.0	-67.9	3.8	8.45e-01	0	32	104	0	75	16648
2026-01-02 02:58:23.63	25.55	11.03	-55.0	-67.9	3.8	8.46e-01	0	32	104	0	75	16668
2026-01-02 02:58:24.63	25.55	11.12	-55.0	-67.9	3.8	8.46e-01	0	33	104	0	75	16619
2026-01-02 02:58:25.63	25.54	11.22	-55.0	-67.9	3.8	8.46e-01	0	32	104	0	75	16667
2026-01-02 02:58:26.63	25.54	11.31	-55.0	-68.0	3.8	8.45e-01	0	32	104	0	75	16738
2026-01-02 02:58:27.62	25.53	11.40	-55.0	-67.9	3.8	8.45e-01	0	33	104	0	75	16694
2026-01-02 02:58:28.62	25.53	11.49	-55.0	-68.0	3.8	8.45e-01	0	32	104	0	75	16724
2026-01-02 02:58:29.62	25.52	11.58	-55.0	-67.9	3.8	8.45e-01	0	33	104	0	75	16677
2026-01-02 02:58:30.61	25.52	11.67	-55.0	-67.9	3.8	8.45e-01	0	32	104	0	75	16677
2026-01-02 02:58:31.62	25.51	11.77	-55.0	-68.0	3.8	8.46e-01	0	32	104	0	75	16735
2026-01-02 02:58:32.62	25.50	11.86	-55.0	-68.0	3.8	8.46e-01	0	32	104	0	75	16735
2026-01-02 02:58:33.62	25.50	11.95	-55.0	-67.9	3.8	8.46e-01	0	33	104	0	75	16676
2026-01-02 02:58:34.62	25.49	12.05	-55.0	-68.0	3.8	8.45e-01	0	33	104	0	75	16706
2026-01-02 02:58:35.63	25.49	12.14	-55.0	-68.0	3.8	8.47e-01	0	32	104	0	75	16723
2026-01-02 02:58:36.62	25.48	12.24	-55.0	-68.0	3.8	8.47e-01	0	33	104	0	75	16719
2026-01-02 02:58:37.63	25.47	12.33	-55.0	-68.0	3.8	8.45e-01	0	32	104	0	75	16710
2026-01-02 02:58:38.64	25.47	12.43	-55.0	-67.9	3.8	8.45e-01	0	32	104	0	75	16685
2026-01-02 02:58:39.64	25.46	12.52	-55.0	-67.9	3.8	8.45e-01	0	32	104	0	75	16691
2026-01-02 02:58:40.64	25.45	12.62	-55.0	-67.9	3.8	8.48e-01	0	33	104	0	75	16670
2026-01-02 02:58:41.64	25.45	12.72	-55.0	-67.9	3.8	8.45e-01	0	33	104	0	75	16659
2026-01-02 02:58:42.64	25.44	12.81	-55.0	-67.9	3.8	8.46e-01	0	33	104	0	75	16673
2026-01-02 02:58:43.64	25.43	12.91	-55.0	-67.9	3.8	8.45e-01	0	32	104	0	75	16659
2026-01-02 02:58:44.64	25.43	13.01	-55.0	-68.0	3.8	8.45e-01	0	33	104	0	75	16706
2026-01-02 02:58:45.65	25.42	13.11	-55.0	-67.9	3.8	8.46e-01	0	33	104	0	75	16685
2026-01-02 02:58:46.64	25.41	13.20	-55.0	-67.9	3.8	8.44e-01	0	33	104	0	75	16680
2026-01-02 02:58:47.65	25.41	13.30	-55.0	-67.9	3.8	8.45e-01	0	32	104	0	75	16653
2026-01-02 02:58:48.65	25.40	13.40	-55.0	-67.9	3.8	8.45e-01	0	33	104	0	75	16662
2026-01-02 02:58:49.65	25.39	13.50	-55.0	-67.9	3.8	8.45e-01	0	33	104	0	75	16693
2026-01-02 02:58:50.64	25.39	13.60	-55.0	-68.0	3.8	8.46e-01	0	32	104	0	75	16703
2026-01-02 02:58:51.64	25.38	13.70	-55.0	-67.9	3.8	8.45e-01	0	33	104	0	75	16689
2026-01-02 02:58:52.64	25.37	13.80	-55.0	-67.9	3.8	8.46e-01	0	33	104	0	75	16689
2026-01-02 02:58:53.64	25.36	13.90	-55.0	-68.0	3.8	8.46e-01	0	32	104	0	75	16728
2026-01-02 02:58:54.64	25.36	14.01	-55.0	-68.0	3.8	8.46e-01	0	33	104	0	75	16757
2026-01-02 02:58:55.64	25.35	14.11	-55.0	-68.0	3.8	8.47e-01	0	33	104	0	75	16746
2026-01-02 02:58:56.64	25.34	14.21	-55.0	-68.0	3.8	8.45e-01	0	33	104	0	75	16732
2026-01-02 02:58:57.63	25.33	14.31	-55.0	-67.9	3.8	8.46e-01	0	33	104	0	75	16693
2026-01-02 02:58:58.64	25.33	14.42	-55.0	-68.0	3.8	8.45e-01	0	33	104	0	75	16706
2026-01-02 02:58:59.63	25.32	14.52	-55.0	-68.0	3.8	8.45e-01	0	33	104	0	75	16707
2026-01-02 02:59:00.62	25.31	14.62	-55.0	-67.9	3.8	8.45e-01	0	33	104	0	75	16685
2026-01-02 02:59:01.62	25.30	14.73	-55.0	-68.0	3.8	8.46e-01	0	33	104	0	75	16701
2026-01-02 02:59:02.61	25.29	14.83	-55.0	-68.0	3.8	8.46e-01	0	32	104	0	75	16715
2026-01-02 02:59:03.62	25.29	14.94	-55.0	-68.0	3.8	8.46e-01	0	32	104	0	75	16726
2026-01-02 02:59:04.62	25.28	15.05	-55.0	-67.9	3.8	8.46e-01	0	33	104	0	75	16679
2026-01-02 02:59:05.62	25.27	15.15	-55.0	-67.9	3.8	8.46e-01	0	32	104	0	75	16661
2026-01-02 02:59:06.62	25.26	15.26	-55.0	-67.9	3.8	8.46e-01	0	33	104	0	75	16681
2026-01-02 02:59:07.62	25.25	15.37	-55.0	-67.9	3.8	8.45e-01	0	33	104	0	75	16679
2026-01-02 02:59:08.62	25.24	15.48	-55.0	-68.0	3.8	8.46e-01	0	33	104	0	75	16720
2026-01-02 02:59:09.62	25.23	15.58	-55.0	-67.9	3.8	8.48e-01	0	33	104	0	75	16655
2026-01-02 02:59:10.62	25.23	15.69	-55.0	-68.0	3.8	8.47e-01	0	32	104	0	75	16710
2026-01-02 02:59:11.62	25.22	15.80	-55.0	-68.0	3.8	8.46e-01	0	32	104	0	75	16712
2026-01-02 02:59:12.61	25.21	15.91	-55.0	-67.9	3.8	8.46e-01	0	33	104	0	75	16670
2026-01-02 02:59:13.61	25.20	16.02	-55.0	-67.9	3.8	8.46e-01	0	32	104	0	75	16683
2026-01-02 02:59:14.62	25.19	16.13	-55.0	-67.9	3.8	8.46e-01	0	33	104	0	75	16689
2026-01-02 02:59:15.62	25.18	16.25	-55.0	-68.0	3.8	8.46e-01	0	33	104	0	75	16741
2026-01-02 02:59:16.62	25.17	16.36	-55.0	-67.9	3.8	8.46e-01	0	32	104	0	75	16690
2026-01-02 02:59:17.63	25.16	16.47	-55.0	-68.0	3.8	8.47e-01	0	32	104	0	75	16705
2026-01-02 02:59:18.63	25.15	16.58	-55.0	-68.0	3.8	8.46e-01	0	33	104	0	75	16719
2026-01-02 02:59:19.63	25.14	16.70	-55.0	-67.9	3.8	8.46e-01	0	33	104	0	75	16668
2026-01-02 02:59:20.64	25.13	16.81	-55.0	-68.0	3.8	8.46e-01	0	33	104	0	75	16732
2026-01-02 02:59:21.64	25.12	16.93	-55.0	-68.0	3.8	8.46e-01	0	33	104	0	75	16706
2026-01-02 02:59:22.64	25.11	17.04	-55.0	-68.0	3.8	8.45e-01	0	33	104	0	75	16710
2026-01-02 02:59:23.65	25.10	17.16	-55.0	-68.0	3.8	8.46e-01	0	33	104	0	75	16705
2026-01-02 02:59:24.65	25.09	17.28	-55.0	-67.9	3.8	8.46e-01	0	33	104	0	75	16685
2026-01-02 02:59:25.64	25.08	17.39	-55.0	-68.0	3.8	8.46e-01	0	33	104	0	75	16705
2026-01-02 02:59:26.64	25.07	17.51	-55.0	-68.0	3.8	8.45e-01	0	33	104	0	75	16718
2026-01-02 02:59:27.65	25.06	17.63	-55.0	-68.0	3.8	8.45e-01	0	33	104	0	75	16714
2026-01-02 02:59:28.65	25.05	17.75	-55.0	-68.0	3.8	8.45e-01	0	33	104	0	75	16705
2026-01-02 02:59:29.65	25.04	17.87	-55.0	-67.9	3.8	8.46e-01	0	33	104	0	75	16689
2026-01-02 02:59:30.65	25.03	17.99	-55.0	-67.9	3.8	8.47e-01	0	33	104	0	75	16672
2026-01-02 02:59:31.65	25.02	18.11	-55.0	-67.9	3.8	8.46e-01	0	33	104	0	75	16673
2026-01-02 02:59:32.65	25.00	18.23	-55.0	-68.0	3.9	8.44e-01	0	33	104	0	75	16711
2026-01-02 02:59:33.65	24.99	18.35	-55.0	-68.0	3.8	8.46e-01	0	33	104	0	75	16757
2026-01-02 02:59:34.64	24.98	18.47	-55.0	-68.0	3.8	8.45e-01	0	33	104	0	75	16709
2026-01-02 02:59:35.64	24.97	18.59	-55.0	-68.0	3.8	8.45e-01	0	33	104	0	75	16725
2026-01-02 02:59:36.65	24.96	18.72	-55.0	-67.9	3.8	8.46e-01	0	33	104	0	75	16688
2026-01-02 02:59:37.64	24.95	18.84	-55.0	-68.0	3.8	8.44e-01	0	33	104	0	75	16704
2026-01-02 02:59:38.65	24.93	18.97	-55.0	-68.0	3.8	8.46e-01	0	33	104	0	75	16743
2026-01-02 02:59:39.66	24.92	19.09	-55.0	-67.9	3.8	8.46e-01	0	33	104	0	75	16686
2026-01-02 02:59:40.66	24.91	19.22	-55.0	-67.9	3.8	8.46e-01	0	33	104	0	75	16692
2026-01-02 02:59:41.66	24.90	19.34	-55.0	-68.0	3.8	8.46e-01	0	33	104	0	75	16699
2026-01-02 02:59:42.65	24.88	19.47	-55.0	-67.9	3.8	8.45e-01	0	33	104	0	75	16681
2026-01-02 02:59:43.65	24.87	19.60	-55.0	-68.0	3.8	8.45e-01	0	32	104	0	75	16733
2026-01-02 02:59:44.65	24.86	19.73	-55.0	-67.9	3.8	8.45e-01	0	32	104	0	75	16676
2026-01-02 02:59:45.65	24.85	19.85	-55.0	-68.0	3.8	8.45e-01	0	33	104	0	75	16746
2026-01-02 02:59:46.65	24.83	19.98	-55.0	-67.9	3.8	8.46e-01	0	33	104	0	75	16681
2026-01-02 02:59:47.64	24.82	20.11	-55.0	-67.9	3.8	8.46e-01	0	33	104	0	75	16663
2026-01-02 02:59:48.64	24.81	20.24	-55.0	-67.9	3.8	8.46e-01	0	33	104	0	75	16693
2026-01-02 02:59:49.64	24.79	20.38	-55.0	-67.9	3.8	8.45e-01	0	33	104	0	75	16664
2026-01-02 02:59:50.64	24.78	20.51	-55.0	-68.0	3.8	8.46e-01	0	33	104	0	75	16704
2026-01-02 02:59:51.64	24.76	20.64	-55.0	-68.0	3.8	8.46e-01	0	33	104	0	75	16757
2026-01-02 02:59:52.64	24.75	20.78	-55.0	-68.0	3.8	8.45e-01	0	33	104	0	75	16749
2026-01-02 02:59:53.65	24.74	20.91	-55.0	-68.0	3.8	8.46e-01	0	33	104	0	75	16754
2026-01-02 02:59:54.65	24.72	21.05	-55.0	-68.0	3.8	8.45e-01	0	33	104	0	75	16755
2026-01-02 02:59:55.65	24.71	21.18	-55.0	-68.0	3.8	8.46e-01	0	33	104	0	75	16725
2026-01-02 02:59:56.65	24.69	21.32	-55.0	-67.9	3.8	8.46e-01	0	33	104	0	75	16679
2026-01-02 02:59:57.65	24.68	21.46	-55.0	-68.0	3.8	8.46e-01	0	33	104	0	75	16728
2026-01-02 02:59:58.65	24.66	21.60	-55.0	-68.0	3.8	8.46e-01	0	33	104	0	75	16729
2026-01-02 02:59:59.66	24.65	21.74	-55.0	-68.0	3.8	8.46e-01	0	33	104	0	75	16759
2026-01-02 03:00:00.65	24.63	21.88	-55.0	-68.0	3.8	8.45e-01	0	33	104	0	75	16716
2026-01-02 03:00:01.65	24.62	22.02	-55.0	-68.0	3.8	8.46e-01	0	33	104	0	75	16720
2026-01-02 03:00:02.65	24.60	22.16	-55.0	-68.0	3.8	8.46e-01	0	33	104	0	75	16695
2026-01-02 03:00:03.65	24.59	22.30	-55.0	-68.0	3.8	8.46e-01	0	33	104	0	75	16743
2026-01-02 03:00:04.65	24.57	22.44	-55.0	-68.0	3.8	8.46e-01	0	33	104	0	75	16718
2026-01-02 03:00:05.64	24.55	22.58	-55.0	-68.0	3.8	8.44e-01	0	33	104	0	75	16713
2026-01-02 03:00:06.64	24.54	22.73	-55.0	-68.0	3.8	8.45e-01	0	33	104	0	75	16731
2026-01-02 03:00:07.64	24.52	22.87	-55.0	-68.0	3.8	8.45e-01	0	33	104	0	75	16702
2026-01-02 03:00:08.64	24.50	23.02	-55.0	-68.0	3.8	8.46e-01	0	33	104	0	75	16710
2026-01-02 03:00:09.64	24.49	23.17	-55.0	-67.9	3.8	8.45e-01	0	33	104	0	75	16679
2026-01-02 03:00:10.64	24.47	23.32	-55.0	-67.9	3.8	8.45e-01	0	33	104	0	75	16680
2026-01-02 03:00:11.64	24.45	23.46	-55.0	-68.0	3.8	8.46e-01	0	33	104	0	75	16731
2026-01-02 03:00:12.64	24.43	23.61	-55.0	-68.0	3.8	8.46e-01	0	33	104	0	75	16718
2026-01-02 03:00:13.64	24.42	23.77	-55.0	-67.9	3.8	8.45e-01	0	33	104	0	75	16692
2026-01-02 03:00:14.63	24.40	23.91	-55.0	-68.0	3.8	8.45e-01	0	33	104	0	75	16722
2026-01-02 03:00:15.63	24.38	24.07	-55.0	-67.9	3.8	8.46e-01	0	33	104	0	75	16683
2026-01-02 03:00:16.64	24.36	24.22	-55.0	-67.9	3.8	8.45e-01	0	33	104	0	75	16682
2026-01-02 03:00:17.64	24.34	24.38	-55.0	-68.0	3.8	8.46e-01	0	32	104	0	75	16703
2026-01-02 03:00:18.64	24.32	24.53	-55.0	-68.0	3.8	8.46e-01	0	33	104	0	75	16730
2026-01-02 03:00:19.64	24.30	24.69	-55.0	-67.9	3.8	8.45e-01	0	33	104	0	75	16672
2026-01-02 03:00:20.64	24.28	24.84	-55.0	-68.0	3.8	8.46e-01	0	33	104	0	75	16749
2026-01-02 03:00:21.62	24.27	25.00	-55.0	-67.9	3.8	8.47e-01	0	33	104	0	75	16682
2026-01-02 03:00:22.63	24.25	25.16	-55.0	-68.0	3.8	8.45e-01	0	33	104	0	75	16722
2026-01-02 03:00:23.63	24.23	25.32	-55.0	-68.0	3.8	8.46e-01	0	33	104	0	75	16703
2026-01-02 03:00:24.63	24.21	25.48	-55.0	-68.0	3.8	8.46e-01	0	33	104	0	75	16720
2026-01-02 03:00:25.63	24.18	25.64	-55.0	-67.9	3.8	8.46e-01	0	33	104	0	75	16682
2026-01-02 03:00:26.63	24.16	25.80	-55.0	-68.0	3.8	8.46e-01	0	33	104	0	75	16725
2026-01-02 03:00:27.63	24.14	25.97	-55.0	-68.0	3.8	8.47e-01	0	33	104	0	75	16750
2026-01-02 03:00:28.64	24.12	26.13	-55.0	-67.9	3.8	8.45e-01	0	33	104	0	75	16692
2026-01-02 03:00:29.64	24.10	26.30	-55.0	-68.0	3.8	8.46e-01	0	33	104	0	75	16731
2026-01-02 03:00:30.64	24.08	26.46	-55.0	-68.0	3.8	8.46e-01	0	33	104	0	75	16705
2026-01-02 03:00:31.64	24.05	26.63	-55.0	-68.0	3.8	8.45e-01	0	33	104	0	75	16779
2026-01-02 03:00:32.64	24.03	26.80	-55.0	-68.0	3.8	8.47e-01	0	33	104	0	75	16705
2026-01-02 03:00:33.64	24.01	26.97	-55.0	-67.9	3.8	8.45e-01	0	33	104	0	75	16685
2026-01-02 03:00:34.63	23.99	27.14	-55.0	-68.0	3.8	8.47e-01	0	33	104	0	75	16708
2026-01-02 03:00:35.63	23.96	27.31	-55.0	-68.0	3.8	8.46e-01	0	33	104	0	75	16710
2026-01-02 03:00:36.63	23.94	27.48	-55.0	-68.0	3.8	8.45e-01	0	33	104	0	75	16742
2026-01-02 03:00:37.63	23.92	27.66	-55.0	-68.0	3.8	8.47e-01	0	33	104	0	75	16705
2026-01-02 03:00:38.63	23.89	27.83	-55.0	-68.0	3.8	8.45e-01	0	33	104	0	75	16731
2026-01-02 03:00:39.63	23.87	28.01	-55.0	-67.9	3.8	8.45e-01	0	33	104	0	75	16690
2026-01-02 03:00:40.63	23.84	28.19	-54.8	-68.0	3.8	8.45e-01	0	33	104	0	75	16753
2026-01-02 03:00:41.64	23.82	28.37	-55.0	-68.0	3.8	8.46e-01	0	33	104	0	75	16726
2026-01-02 03:00:42.64	23.79	28.55	-55.0	-68.0	3.8	8.46e-01	0	33	104	0	75	16705
2026-01-02 03:00:43.64	23.77	28.73	-55.0	-68.0	3.8	8.45e-01	0	33	104	0	75	16713
2026-01-02 03:00:44.64	23.74	28.91	-55.0	-67.9	3.8	8.47e-01	0	33	104	0	75	16641
2026-01-02 03:00:45.64	23.71	29.09	-55.0	-68.0	3.8	8.46e-01	0	33	104	0	75	16732
2026-01-02 03:00:46.65	23.69	29.28	-55.0	-67.9	3.8	8.45e-01	0	33	104	0	75	16688
2026-01-02 03:00:47.65	23.66	29.46	-55.0	-67.9	3.8	8.46e-01	0	33	104	0	75	16659
2026-01-02 03:00:48.66	23.63	29.65	-55.0	-68.0	3.8	8.46e-01	0	33	104	0	75	16695
2026-01-02 03:00:49.66	23.60	29.84	-55.0	-68.0	3.8	8.46e-01	0	33	104	0	75	16740
2026-01-02 03:00:50.66	23.57	30.03	-55.0	-67.9	3.8	8.46e-01	0	33	104	0	75	16686
2026-01-02 03:00:51.66	23.54	30.22	-55.0	-68.0	3.8	8.46e-01	0	33	104	0	75	16713
2026-01-02 03:00:52.66	23.52	30.41	-55.0	-68.0	3.8	8.47e-01	0	33	104	0	75	16721
2026-01-02 03:00:53.66	23.49	30.61	-55.0	-68.0	3.8	8.45e-01	0	33	104	0	75	16724
2026-01-02 03:00:54.67	23.46	30.80	-55.0	-68.0	3.8	8.45e-01	0	33	104	0	75	16748
2026-01-02 03:00:55.67	23.43	31.00	-55.0	-67.9	3.8	8.46e-01	0	33	104	0	75	16680
2026-01-02 03:00:56.67	23.39	31.20	-55.0	-67.9	3.8	8.46e-01	0	33	104	0	75	16675
2026-01-02 03:00:57.66	23.36	31.39	-55.0	-68.0	3.8	8.46e-01	0	33	104	0	75	16706
2026-01-02 03:00:58.65	23.33	31.59	-55.0	-67.9	3.8	8.45e-01	0	33	104	0	75	16665
2026-01-02 03:00:59.65	23.30	31.79	-55.0	-68.0	3.8	8.46e-01	0	33	104	0	75	16717
2026-01-02 03:01:00.65	23.27	31.99	-55.0	-68.0	3.8	8.45e-01	0	33	104	0	75	16701
2026-01-02 03:01:01.65	23.23	32.20	-55.0	-67.9	3.8	8.45e-01	0	33	104	0	75	16681
2026-01-02 03:01:02.65	23.20	32.40	-55.0	-68.0	3.8	8.46e-01	0	33	104	0	75	16747
2026-01-02 03:01:03.65	23.17	32.61	-55.0	-68.0	3.8	8.45e-01	0	33	104	0	75	16734
2026-01-02 03:01:04.64	23.13	32.81	-55.0	-68.0	3.8	8.46e-01	0	33	104	0	75	16754
2026-01-02 03:01:05.64	23.10	33.02	-55.0	-68.0	3.8	8.45e-01	0	33	104	0	75	16786
2026-01-02 03:01:06.64	23.06	33.23	-55.0	-67.9	3.8	8.46e-01	0	33	104	0	75	16691
2026-01-02 03:01:07.63	23.03	33.44	-55.0	-68.0	3.8	8.45e-01	0	33	104	0	75	16723
2026-01-02 03:01:08.63	22.99	33.66	-55.0	-68.0	3.8	8.45e-01	0	33	104	0	75	16704
2026-01-02 03:01:09.63	22.95	33.87	-55.0	-68.0	3.8	8.44e-01	0	33	104	0	75	16758
2026-01-02 03:01:10.62	22.92	34.09	-55.0	-67.9	3.8	8.46e-01	0	33	104	0	75	16677
2026-01-02 03:01:11.62	22.88	34.31	-55.0	-68.0	3.8	8.46e-01	0	33	104	0	75	16751
2026-01-02 03:01:12.62	22.84	34.53	-55.0	-68.0	3.8	8.46e-01	0	33	104	0	75	16754
2026-01-02 03:01:13.61	22.80	34.75	-55.0	-68.0	3.8	8.46e-01	0	33	104	0	75	16724
2026-01-02 03:01:14.62	22.76	34.97	-55.0	-68.0	3.8	8.45e-01	0	33	104	0	75	16754
2026-01-02 03:01:15.62	22.72	35.19	-55.0	-68.0	3.8	8.46e-01	0	33	104	0	75	16718
2026-01-02 03:01:16.63	22.68	35.42	-55.0	-68.0	3.8	8.46e-01	0	33	104	0	75	16749
2026-01-02 03:01:17.63	22.64	35.65	-55.0	-68.0	3.8	8.46e-01	0	33	104	0	75	16746
2026-01-02 03:01:18.63	22.59	35.88	-55.0	-68.0	3.8	8.46e-01	0	33	104	0	75	16718
2026-01-02 03:01:19.63	22.55	36.11	-55.0	-68.0	3.8	8.46e-01	0	33	104	0	75	16741
2026-01-02 03:01:20.63	22.51	36.34	-55.0	-67.9	3.8	8.47e-01	0	33	104	0	75	16674
2026-01-02 03:01:21.63	22.46	36.58	-55.0	-68.0	3.8	8.45e-01	0	33	104	0	75	16714
2026-01-02 03:01:22.63	22.42	36.81	-55.0	-68.0	3.8	8.45e-01	0	33	104	0	75	16731
2026-01-02 03:01:23.63	22.37	37.05	-55.0	-68.0	3.8	8.46e-01	0	33	104	0	75	16712
2026-01-02 03:01:24.63	22.33	37.29	-55.0	-68.0	3.8	8.46e-01	0	33	104	0	75	16721
2026-01-02 03:01:25.64	22.28	37.53	-55.0	-67.9	3.8	8.46e-01	0	33	104	0	75	16694
2026-01-02 03:01:26.64	22.23	37.78	-55.0	-68.0	3.8	8.45e-01	0	33	104	0	75	16710
2026-01-02 03:01:27.63	22.18	38.02	-55.0	-68.0	3.8	8.44e-01	0	33	104	0	75	16732
2026-01-02 03:01:28.63	22.13	38.27	-55.0	-67.9	3.8	8.46e-01	0	33	104	0	75	16646
2026-01-02 03:01:29.63	22.08	38.51	-55.0	-67.9	3.8	8.45e-01	0	33	104	0	75	16693
2026-01-02 03:01:30.63	22.03	38.76	-55.0	-68.0	3.8	8.46e-01	0	33	104	0	75	16757
2026-01-02 03:01:31.63	21.98	39.02	-55.0	-68.0	3.8	8.45e-01	0	33	104	0	75	16747
2026-01-02 03:01:32.63	21.92	39.27	-55.0	-68.0	3.8	8.45e-01	0	33	104	0	75	16717
2026-01-02 03:01:33.63	21.87	39.52	-55.0	-68.0	3.8	8.45e-01	0	33	104	0	75	16748
2026-01-02 03:01:34.64	21.82	39.78	-55.0	-68.0	3.8	8.46e-01	0	33	104	0	75	16718
2026-01-02 03:01:35.64	21.76	40.04	-55.0	-68.0	3.8	8.47e-01	0	33	104	0	75	16735
2026-01-02 03:01:36.64	21.70	40.30	-55.0	-68.0	3.8	8.47e-01	0	33	104	0	75	16712
2026-01-02 03:01:37.64	21.64	40.57	-55.0	-68.0	3.8	8.45e-01	0	33	104	0	75	16748
2026-01-02 03:01:38.64	21.59	40.83	-55.0	-67.9	3.8	8.45e-01	0	33	104	0	75	16675
2026-01-02 03:01:39.64	21.53	41.10	-55.0	-68.0	3.8	8.46e-01	0	33	104	0	75	16755
2026-01-02 03:01:40.65	21.46	41.37	-55.0	-67.9	3.8	8.46e-01	0	33	104	0	75	16682
2026-01-02 03:01:41.65	21.40	41.64	-55.0	-68.0	3.8	8.44e-01	0	33	104	0	75	16732
2026-01-02 03:01:42.66	21.34	41.92	-55.0	-68.0	3.8	8.45e-01	0	33	104	0	75	16734
2026-01-02 03:01:43.66	21.27	42.19	-55.0	-68.0	3.8	8.45e-01	0	33	104	0	75	16726
2026-01-02 03:01:44.66	21.21	42.47	-55.0	-68.0	3.8	8.47e-01	0	33	104	0	75	16698
2026-01-02 03:01:45.67	21.14	42.75	-55.0	-68.0	3.8	8.46e-01	0	33	104	0	75	16709
2026-01-02 03:01:46.67	21.07	43.03	-55.0	-68.0	3.8	8.46e-01	0	33	104	0	75	16700
2026-01-02 03:01:47.67	21.00	43.31	-55.0	-68.0	3.8	8.46e-01	0	33	104	0	75	16702
2026-01-02 03:01:48.67	20.93	43.60	-55.0	-68.0	3.8	8.46e-01	0	33	104	0	75	16730
2026-01-02 03:01:49.66	20.86	43.88	-55.0	-68.0	3.8	8.46e-01	0	33	104	0	75	16739
2026-01-02 03:01:50.67	20.79	44.18	-55.0	-67.9	3.8	8.46e-01	0	33	104	0	75	16679
2026-01-02 03:01:51.67	20.71	44.47	-55.0	-68.0	3.8	8.45e-01	0	33	104	0	75	16733
2026-01-02 03:01:52.67	20.64	44.76	-55.0	-68.0	3.8	8.46e-01	0	33	104	0	75	16746
2026-01-02 03:01:53.67	20.56	45.06	-55.0	-68.0	3.8	8.47e-01	0	33	104	0	75	16765
2026-01-02 03:01:54.67	20.48	45.35	-55.0	-68.0	3.8	8.46e-01	0	33	104	0	75	16737
2026-01-02 03:01:55.67	20.40	45.65	-55.0	-68.0	3.9	8.45e-01	0	33	104	0	75	16725
2026-01-02 03:01:56.67	20.32	45.96	-55.0	-68.0	3.8	8.46e-01	0	33	104	0	75	16737
2026-01-02 03:01:57.66	20.24	46.26	-55.0	-67.9	3.8	8.45e-01	0	33	104	0	75	16678
2026-01-02 03:01:58.66	20.15	46.56	-55.0	-68.0	3.8	8.46e-01	0	33	104	0	75	16728
2026-01-02 03:01:59.66	20.06	46.87	-55.0	-68.0	3.8	8.45e-01	0	33	104	0	75	16737
2026-01-02 03:02:00.66	19.97	47.18	-55.0	-68.0	3.8	8.45e-01	0	33	104	0	75	16780
2026-01-02 03:02:01.66	19.88	47.50	-55.0	-68.0	3.8	8.47e-01	0	33	104	0	75	16737
2026-01-02 03:02:02.65	19.79	47.81	-55.0	-68.0	3.8	8.45e-01	0	33	104	0	75	16775
2026-01-02 03:02:03.64	19.70	48.12	-55.0	-68.0	3.8	8.46e-01	0	33	104	0	75	16746
2026-01-02 03:02:04.64	19.60	48.44	-55.0	-68.0	3.8	8.46e-01	0	33	104	0	75	16722
2026-01-02 03:02:05.64	19.50	48.76	-55.0	-68.0	3.8	8.46e-01	0	33	104	0	75	16718
2026-01-02 03:02:06.63	19.40	49.09	-55.0	-68.0	3.8	8.47e-01	0	33	104	0	75	16733
2026-01-02 03:02:07.63	19.30	49.41	-55.0	-68.0	3.8	8.46e-01	0	33	104	0	75	16775
2026-01-02 03:02:08.63	19.19	49.74	-55.0	-68.0	3.8	8.46e-01	0	33	104	0	75	16721
2026-01-02 03:02:09.63	19.08	50.07	-55.0	-68.0	3.8	8.45e-01	0	33	104	0	75	16784
2026-01-02 03:02:10.63	18.97	50.41	-55.0	-68.0	3.8	8.45e-01	0	33	104	0	75	16709
2026-01-02 03:02:11.63	18.86	50.74	-55.0	-68.0	3.8	8.46e-01	0	33	104	0	75	16728
2026-01-02 03:02:12.63	18.74	51.08	-55.0	-68.0	3.8	8.46e-01	0	33	104	0	75	16747
2026-01-02 03:02:13.63	18.62	51.42	-55.0	-68.0	3.8	8.45e-01	0	33	104	0	75	16776
2026-01-02 03:02:14.62	18.50	51.76	-55.0	-68.0	3.8	8.45e-01	0	33	104	0	75	16771
2026-01-02 03:02:15.62	18.38	52.10	-55.0	-68.0	3.8	8.45e-01	0	33	104	0	75	16741
2026-01-02 03:02:16.62	18.25	52.45	-55.0	-68.0	3.8	8.46e-01	0	33	104	0	75	16736
2026-01-02 03:02:17.62	18.12	52.80	-55.0	-68.0	3.8	8.46e-01	0	33	104	0	75	16767
2026-01-02 03:02:18.62	17.98	53.15	-55.0	-67.9	3.8	8.46e-01	0	33	104	0	75	16691
2026-01-02 03:02:19.62	17.85	53.51	-55.0	-68.0	3.8	8.45e-01	0	33	104	0	75	16759
2026-01-02 03:02:20.62	17.70	53.87	-55.0	-68.0	3.8	8.46e-01	0	33	104	0	75	16723
2026-01-02 03:02:21.62	17.56	54.22	-55.0	-68.0	3.8	8.46e-01	0	33	104	0	75	16717
2026-01-02 03:02:22.62	17.41	54.59	-55.0	-67.9	3.8	8.47e-01	0	33	104	0	75	16628
2026-01-02 03:02:23.63	17.26	54.95	-55.0	-68.0	3.8	8.46e-01	0	33	104	0	75	16761
2026-01-02 03:02:24.63	17.10	55.32	-55.0	-68.0	3.8	8.46e-01	0	33	104	0	75	16757
2026-01-02 03:02:25.63	16.94	55.69	-55.0	-68.0	3.8	8.46e-01	0	33	104	0	75	16729
2026-01-02 03:02:26.63	16.78	56.06	-55.0	-68.0	3.8	8.46e-01	0	33	104	0	75	16773
2026-01-02 03:02:27.64	16.60	56.43	-55.0	-68.0	3.8	8.45e-01	0	33	104	0	75	16790
2026-01-02 03:02:28.64	16.43	56.81	-55.0	-68.0	3.8	8.46e-01	0	33	104	0	75	16761
2026-01-02 03:02:29.64	16.25	57.19	-55.0	-68.0	3.8	8.46e-01	0	33	104	0	75	16774
2026-01-02 03:02:30.64	16.07	57.57	-55.0	-68.0	3.9	8.47e-01	0	33	104	0	75	16707
2026-01-02 03:02:31.64	15.88	57.95	-55.0	-68.0	3.8	8.46e-01	0	33	104	0	75	16766
2026-01-02 03:02:32.65	15.68	58.34	-55.0	-68.0	3.8	8.46e-01	0	33	104	0	75	16733
2026-01-02 03:02:33.65	15.48	58.72	-55.0	-68.0	3.8	8.45e-01	0	33	104	0	75	16767
2026-01-02 03:02:34.65	15.27	59.11	-55.0	-67.9	3.8	8.45e-01	0	33	104	0	75	16694
2026-01-02 03:02:35.65	15.06	59.50	-55.0	-68.0	3.8	8.47e-01	0	33	104	0	75	16759
2026-01-02 03:02:36.65	14.84	59.90	-55.0	-68.0	3.8	8.46e-01	0	33	104	0	75	16720
2026-01-02 03:02:37.65	14.61	60.29	-55.0	-67.9	3.8	8.46e-01	0	33	104	0	75	16680
2026-01-02 03:02:38.65	14.37	60.69	-55.0	-68.0	3.8	8.46e-01	0	33	104	0	75	16711
2026-01-02 03:02:39.65	14.13	61.09	-55.0	-68.0	3.8	8.46e-01	0	33	104	0	75	16739
2026-01-02 03:02:40.65	13.88	61.49	-55.0	-68.0	3.8	8.46e-01	0	33	104	0	75	16744
2026-01-02 03:02:41.65	13.62	61.89	-55.0	-68.0	3.8	8.46e-01	0	33	104	0	75	16741
2026-01-02 03:02:42.66	13.35	62.30	-55.0	-68.0	3.8	8.47e-01	0	33	104	0	75	16735
2026-01-02 03:02:43.66	13.07	62.71	-55.0	-67.9	3.8	8.46e-01	0	33	104	0	75	16684
2026-01-02 03:02:44.66	12.79	63.11	-55.0	-68.0	3.8	8.46e-01	0	33	104	0	75	16727
2026-01-02 03:02:45.66	12.49	63.52	-55.0	-67.9	3.8	8.46e-01	0	33	104	0	75	16669
2026-01-02 03:02:46.67	12.18	63.94	-55.0	-68.0	3.8	8.45e-01	0	33	104	0	75	16737
2026-01-02 03:02:47.67	11.86	64.35	-55.0	-68.0	3.8	8.45e-01	0	33	104	0	75	16700
2026-01-02 03:02:48.67	11.53	64.77	-55.0	-68.0	3.8	8.47e-01	0	33	104	0	75	16752
2026-01-02 03:02:49.67	11.19	65.19	-55.0	-68.0	3.8	8.46e-01	0	33	104	0	75	16760
2026-01-02 03:02:50.67	10.83	65.60	-55.0	-68.0	3.8	8.46e-01	0	33	104	0	75	16755
2026-01-02 03:02:51.67	10.46	66.02	-55.0	-68.0	3.8	8.45e-01	0	33	104	0	75	16732
2026-01-02 03:02:52.67	10.08	66.44	-55.0	-68.0	3.8	8.45e-01	0	33	104	0	75	16706
2026-01-02 03:02:53.67	9.68	66.87	-55.0	-68.0	3.8	8.47e-01	0	33	104	0	75	16701
2026-01-02 03:02:54.67	9.26	67.29	-55.0	-68.0	3.8	8.45e-01	0	33	104	0	75	16758
2026-01-02 03:02:55.67	8.82	67.71	-55.0	-68.0	3.8	8.45e-01	0	33	104	0	75	16698
2026-01-02 03:02:56.66	8.37	68.13	-55.0	-68.0	3.8	8.45e-01	0	33	104	0	75	16695
2026-01-02 03:02:57.66	7.90	68.56	-55.0	-67.9	3.8	8.45e-01	0	33	104	0	75	16689
2026-01-02 03:02:58.66	7.41	68.98	-55.0	-68.0	3.8	8.45e-01	0	33	104	0	75	16721
2026-01-02 03:02:59.66	6.89	69.41	-55.0	-68.0	3.8	8.46e-01	0	33	104	0	75	16757
2026-01-02 03:03:00.66	6.35	69.84	-55.0	-68.0	3.8	8.45e-01	0	33	104	0	75	16712
2026-01-02 03:03:01.66	5.79	70.26	-55.0	-67.9	3.8	8.45e-01	0	33	104	0	75	16688
2026-01-02 03:03:02.66	5.20	70.69	-55.0	-68.0	3.8	8.45e-01	0	33	104	0	75	16777
2026-01-02 03:03:03.65	4.58	71.11	-55.0	-68.0	3.8	8.47e-01	0	33	104	0	75	16733
2026-01-02 03:03:04.65	3.93	71.54	-55.0	-68.0	3.8	8.46e-01	0	33	104	0	75	16749
2026-01-02 03:03:05.65	3.25	71.96	-55.0	-68.0	3.8	8.46e-01	0	33	104	0	75	16703
2026-01-02 03:03:06.65	2.53	72.39	-55.0	-67.9	3.8	8.45e-01	0	33	104	0	75	16682
2026-01-02 03:03:07.65	1.77	72.81	-55.0	-68.0	3.8	8.46e-01	0	33	104	0	75	16713
2026-01-02 03:03:08.65	0.98	73.24	-55.0	-68.0	3.8	8.45e-01	0	33	104	0	75	16725
2026-01-02 03:03:09.65	0.14	73.66	-55.0	-68.0	3.8	8.46e-01	0	33	104	0	75	16759
2026-01-02 03:03:10.65	359.25	74.07	-55.0	-68.0	3.8	8.47e-01	0	33	104	0	75	16775
2026-01-02 03:03:11.64	358.32	74.49	-55.0	-68.0	3.8	8.46e-01	0	33	104	0	75	16746
2026-01-02 03:03:12.64	357.33	74.90	-55.0	-68.0	3.8	8.45e-01	0	33	104	0	75	16732
2026-01-02 03:03:13.65	356.27	75.31	-54.9	-68.0	3.8	8.47e-01	0	33	104	0	75	16789
2026-01-02 03:03:14.64	355.17	75.71	-55.0	-68.0	3.8	8.46e-01	0	33	104	0	75	16729
2026-01-02 03:03:15.64	354.00	76.12	-55.0	-68.0	3.8	8.45e-01	0	33	104	0	75	16749
2026-01-02 03:03:16.64	352.75	76.51	-55.0	-68.0	3.8	8.44e-01	0	33	104	0	75	16750
2026-01-02 03:03:17.63	351.43	76.90	-55.0	-68.0	3.8	8.46e-01	0	33	104	0	75	16761
2026-01-02 03:03:18.62	350.04	77.28	-55.0	-68.0	3.8	8.46e-01	0	33	104	0	75	16743
2026-01-02 03:03:19.62	348.54	77.66	-55.0	-68.0	3.8	8.46e-01	0	33	104	0	75	16699
2026-01-02 03:03:20.63	346.92	78.03	-55.0	-68.0	3.8	8.45e-01	0	33	104	0	75	16763
2026-01-02 03:03:21.63	345.22	78.39	-55.0	-68.0	3.8	8.46e-01	0	33	104	0	75	16755
2026-01-02 03:03:22.63	343.41	78.74	-55.0	-68.0	3.8	8.46e-01	0	33	104	0	75	16750
2026-01-02 03:03:23.63	341.48	79.08	-55.0	-68.0	3.8	8.46e-01	0	33	104	0	75	16723
2026-01-02 03:03:24.63	339.43	79.41	-55.0	-68.0	3.8	8.46e-01	0	33	104	0	75	16782
2026-01-02 03:03:25.63	337.25	79.72	-55.0	-67.9	3.8	8.46e-01	0	33	104	0	75	16694
2026-01-02 03:03:26.64	334.90	80.03	-55.0	-68.0	3.8	8.46e-01	0	33	104	0	75	16714
2026-01-02 03:03:27.64	332.44	80.31	-55.0	-68.0	3.8	8.46e-01	0	33	104	0	75	16708
2026-01-02 03:03:28.64	329.83	80.57	-55.0	-68.0	3.8	8.46e-01	0	33	104	0	75	16723
2026-01-02 03:03:29.64	327.07	80.82	-55.0	-68.0	3.8	8.46e-01	0	33	104	0	75	16782
2026-01-02 03:03:30.64	324.17	81.04	-55.0	-68.0	3.8	8.46e-01	0	33	104	0	75	16723
2026-01-02 03:03:31.64	321.13	81.23	-55.0	-68.0	3.8	8.47e-01	0	33	104	0	75	16750
2026-01-02 03:03:32.64	317.95	81.41	-55.0	-68.0	3.8	8.46e-01	0	33	104	0	75	16752
2026-01-02 03:03:33.64	314.66	81.55	-55.0	-68.0	3.8	8.45e-01	0	33	104	0	75	16732
2026-01-02 03:03:34.64	311.25	81.67	-55.0	-68.0	3.8	8.45e-01	0	33	104	0	75	16755
2026-01-02 03:03:35.64	307.76	81.76	-55.0	-68.0	3.8	8.47e-01	0	33	104	0	75	16734
2026-01-02 03:03:36.64	304.21	81.81	-55.0	-68.0	3.8	8.45e-01	0	33	104	0	75	16723
2026-01-02 03:03:37.64	300.63	81.84	-55.0	-68.0	3.8	8.45e-01	0	33	104	0	75	16758
2026-01-02 03:03:38.64	297.04	81.83	-55.0	-68.0	3.8	8.46e-01	0	33	104	0	75	16768
2026-01-02 03:03:39.63	293.50	81.79	-55.0	-68.0	3.8	8.46e-01	0	33	104	0	75	16797
2026-01-02 03:03:40.64	289.94	81.72	-55.0	-68.0	3.8	8.46e-01	0	33	104	0	75	16791
2026-01-02 03:03:41.64	286.48	81.62	-55.0	-68.0	3.8	8.46e-01	0	33	104	0	75	16806
2026-01-02 03:03:42.64	283.12	81.49	-55.0	-68.0	3.8	8.46e-01	0	33	104	0	75	16749
2026-01-02 03:03:43.65	279.85	81.33	-55.0	-68.0	3.8	8.46e-01	0	33	104	0	75	16768
2026-01-02 03:03:44.65	276.73	81.15	-55.0	-68.0	3.8	8.45e-01	0	33	104	0	75	16723
2026-01-02 03:03:45.65	273.75	80.94	-55.0	-68.0	3.8	8.47e-01	0	33	104	0	75	16773
2026-01-02 03:03:46.65	270.91	80.71	-55.0	-68.0	3.8	8.46e-01	0	33	104	0	75	16754
2026-01-02 03:03:47.64	268.25	80.46	-55.0	-68.0	3.8	8.46e-01	0	33	104	0	75	16729
2026-01-02 03:03:48.65	265.68	80.18	-55.0	-68.0	3.8	8.46e-01	0	33	104	0	75	16765
2026-01-02 03:03:49.64	263.30	79.89	-55.0	-67.9	3.8	8.46e-01	0	33	104	0	75	16659
2026-01-02 03:03:50.64	261.04	79.59	-55.0	-68.0	3.8	8.46e-01	0	33	104	0	75	16758
2026-01-02 03:03:51.64	258.91	79.27	-55.0	-68.0	3.8	8.45e-01	0	33	104	0	75	16718
2026-01-02 03:03:52.64	256.91	78.94	-55.0	-68.0	3.8	8.44e-01	0	33	104	0	75	16721
2026-01-02 03:03:53.64	255.04	78.59	-55.0	-68.0	3.8	8.45e-01	0	33	104	0	75	16746
2026-01-02 03:03:54.64	253.27	78.23	-55.0	-68.0	3.8	8.45e-01	0	33	104	0	75	16714
2026-01-02 03:03:55.64	251.62	77.87	-55.0	-68.0	3.8	8.46e-01	0	33	104	0	75	16735
2026-01-02 03:03:56.64	250.06	77.50	-55.0	-68.0	3.8	8.45e-01	0	33	104	0	75	16741
2026-01-02 03:03:57.64	248.60	77.11	-55.0	-68.0	3.8	8.46e-01	0	33	104	0	75	16706
2026-01-02 03:03:58.64	247.23	76.73	-55.0	-67.9	3.8	8.46e-01	0	33	104	0	75	16691
2026-01-02 03:03:59.63	245.95	76.34	-55.0	-68.0	3.8	8.45e-01	0	33	104	0	75	16740
2026-01-02 03:04:00.61	244.75	75.94	-55.0	-68.0	3.8	8.45e-01	0	33	104	0	75	16766
2026-01-02 03:04:01.61	243.60	75.54	-55.0	-68.0	3.8	8.47e-01	0	33	104	0	75	16761
2026-01-02 03:04:02.60	242.53	75.14	-55.0	-67.9	3.8	8.45e-01	0	33	104	0	75	16691
2026-01-02 03:04:03.60	241.51	74.73	-55.0	-68.0	3.8	8.45e-01	0	33	104	0	75	16738
2026-01-02 03:04:04.58	240.56	74.32	-55.0	-68.0	3.8	8.46e-01	0	33	104	0	75	16775
2026-01-02 03:04:05.58	239.64	73.90	-54.7	-68.0	3.8	8.45e-01	0	33	104	0	75	16796
2026-01-02 03:04:06.58	238.77	73.48	-55.0	-68.0	3.8	8.47e-01	0	33	104	0	75	16773
2026-01-02 03:04:07.58	237.95	73.06	-55.0	-68.0	3.8	8.46e-01	0	33	104	0	75	16767
2026-01-02 03:04:08.58	237.17	72.64	-55.0	-68.0	3.8	8.46e-01	0	33	104	0	75	16768
2026-01-02 03:04:09.57	236.43	72.22	-55.0	-67.9	3.8	8.46e-01	0	33	104	0	75	16692
2026-01-02 03:04:10.57	235.73	71.79	-55.0	-68.0	3.8	8.45e-01	0	33	104	0	75	16760
2026-01-02 03:04:11.57	235.06	71.36	-55.0	-68.0	3.8	8.45e-01	0	33	104	0	75	16762
2026-01-02 03:04:12.57	234.42	70.94	-55.0	-68.0	3.8	8.46e-01	0	33	104	0	75	16761
2026-01-02 03:04:13.56	233.81	70.51	-55.0	-68.0	3.8	8.46e-01	0	33	104	0	75	16721
2026-01-02 03:04:14.56	233.23	70.09	-55.0	-68.0	3.8	8.45e-01	0	33	104	0	75	16719
2026-01-02 03:04:15.55	232.68	69.66	-55.0	-68.0	3.8	8.45e-01	0	33	104	0	75	16708
2026-01-02 03:04:16.55	232.15	69.24	-55.0	-68.0	3.8	8.46e-01	0	33	104	0	75	16737
2026-01-02 03:04:17.55	231.65	68.81	-55.0	-68.0	3.8	8.46e-01	0	33	104	0	75	16756
2026-01-02 03:04:18.55	231.16	68.38	-55.0	-68.0	3.8	8.46e-01	0	33	104	0	75	16721
2026-01-02 03:04:19.55	230.69	67.96	-55.0	-68.0	3.8	8.46e-01	0	33	104	0	75	16735
2026-01-02 03:04:20.55	230.25	67.53	-55.0	-68.0	3.8	8.44e-01	0	33	104	0	75	16752
2026-01-02 03:04:21.55	229.82	67.11	-55.0	-68.0	3.8	8.46e-01	0	33	104	0	75	16724
2026-01-02 03:04:22.56	229.40	66.68	-55.0	-68.0	3.8	8.47e-01	0	33	104	0	75	16760
2026-01-02 03:04:23.57	229.01	66.25	-55.0	-68.0	3.8	8.46e-01	0	33	104	0	75	16739
2026-01-02 03:04:24.57	228.63	65.83	-55.0	-68.0	3.8	8.46e-01	0	33	104	0	75	16719
2026-01-02 03:04:25.57	228.26	65.41	-55.0	-68.0	3.8	8.46e-01	0	33	104	0	75	16706
2026-01-02 03:04:26.57	227.91	65.00	-55.0	-68.0	3.8	8.46e-01	0	33	104	0	75	16755
2026-01-02 03:04:27.57	227.57	64.58	-55.0	-68.0	3.8	8.45e-01	0	33	104	0	75	16730
2026-01-02 03:04:28.58	227.24	64.16	-55.0	-68.0	3.8	8.46e-01	0	33	104	0	75	16779
2026-01-02 03:04:29.58	226.93	63.75	-55.0	-68.0	3.8	8.46e-01	0	33	104	0	75	16759
2026-01-02 03:04:30.57	226.63	63.34	-55.0	-68.0	3.8	8.46e-01	0	33	104	0	75	16755
2026-01-02 03:04:31.57	226.34	62.93	-55.0	-68.0	3.8	8.45e-01	0	33	104	0	75	16708
2026-01-02 03:04:32.56	226.06	62.52	-55.0	-68.0	3.8	8.46e-01	0	33	104	0	75	16748
2026-01-02 03:04:33.55	225.79	62.12	-55.0	-68.0	3.8	8.47e-01	0	33	104	0	75	16726
2026-01-02 03:04:34.54	225.52	61.72	-55.0	-68.0	3.8	8.46e-01	0	33	104	0	75	16695
2026-01-02 03:04:35.53	225.27	61.32	-55.0	-68.0	3.8	8.45e-01	0	33	104	0	75	16737
2026-01-02 03:04:36.53	225.02	60.92	-55.0	-67.9	3.8	8.45e-01	0	33	104	0	75	16678
2026-01-02 03:04:37.53	224.78	60.52	-55.0	-68.0	3.8	8.46e-01	0	33	104	0	75	16764
2026-01-02 03:04:38.53	224.55	60.12	-55.0	-68.0	3.8	8.46e-01	0	33	104	0	75	16717
2026-01-02 03:04:39.53	224.33	59.73	-55.0	-68.0	3.8	8.45e-01	0	33	104	0	75	16751
2026-01-02 03:04:40.53	224.11	59.33	-55.0	-68.0	3.8	8.46e-01	0	33	104	0	75	16719
2026-01-02 03:04:41.52	223.90	58.95	-55.0	-68.0	3.8	8.45e-01	0	33	104	0	75	16739
2026-01-02 03:04:42.52	223.69	58.56	-55.0	-68.0	3.8	8.47e-01	0	33	104	0	75	16756
2026-01-02 03:04:43.51	223.49	58.18	-55.0	-68.0	3.8	8.46e-01	0	33	104	0	75	16770
2026-01-02 03:04:44.50	223.30	57.80	-55.0	-68.0	3.8	8.45e-01	0	33	104	0	75	16782
2026-01-02 03:04:45.50	223.11	57.41	-55.0	-68.0	3.8	8.45e-01	0	33	104	0	75	16734
2026-01-02 03:04:46.50	222.93	57.03	-55.0	-68.0	3.8	8.46e-01	0	33	104	0	75	16737
2026-01-02 03:04:47.50	222.75	56.66	-55.0	-68.0	3.8	8.46e-01	0	33	104	0	75	16729
2026-01-02 03:04:48.49	222.58	56.28	-55.0	-68.0	3.8	8.47e-01	0	33	104	0	75	16794
2026-01-02 03:04:49.48	222.41	55.91	-55.0	-68.0	3.8	8.46e-01	0	33	104	0	75	16746
2026-01-02 03:04:50.47	222.25	55.55	-55.0	-68.0	3.8	8.48e-01	0	33	104	0	75	16727
2026-01-02 03:04:51.47	222.09	55.18	-55.0	-68.0	3.8	8.46e-01	0	33	104	0	75	16760
2026-01-02 03:04:52.47	221.94	54.81	-55.0	-68.0	3.8	8.47e-01	0	33	104	0	75	16758
2026-01-02 03:04:53.45	221.79	54.46	-55.0	-68.0	3.8	8.46e-01	0	33	104	0	75	16765
2026-01-02 03:04:54.43	221.64	54.10	-55.0	-68.0	3.8	8.46e-01	0	33	104	0	75	16726
2026-01-02 03:04:55.42	221.50	53.75	-55.0	-68.0	3.8	8.46e-01	0	33	104	0	75	16793
2026-01-02 03:04:56.41	221.36	53.39	-55.0	-68.0	3.8	8.45e-01	0	33	104	0	75	16739
2026-01-02 03:04:57.40	221.23	53.04	-55.0	-68.0	3.8	8.45e-01	0	33	104	0	75	16743
2026-01-02 03:04:58.39	221.09	52.69	-55.0	-68.0	3.8	8.46e-01	0	33	104	0	75	16715
2026-01-02 03:04:59.38	220.96	52.34	-55.0	-68.0	3.8	8.46e-01	0	33	104	0	75	16727
2026-01-02 03:05:00.37	220.84	52.00	-55.0	-68.0	3.8	8.46e-01	0	33	104	0	75	16730
2026-01-02 03:05:01.36	220.72	51.66	-55.0	-68.0	3.8	8.46e-01	0	33	104	0	75	16767
2026-01-02 03:05:02.35	220.60	51.32	-55.0	-68.0	3.8	8.45e-01	0	33	104	0	75	16741
2026-01-02 03:05:03.35	220.48	50.98	-55.0	-68.0	3.8	8.45e-01	0	33	104	0	75	16696
2026-01-02 03:05:04.35	220.36	50.64	-55.0	-68.0	3.8	8.46e-01	0	33	104	0	75	16774
2026-01-02 03:05:05.34	220.25	50.31	-55.0	-68.0	3.8	8.45e-01	0	33	104	0	75	16737
2026-01-02 03:05:06.33	220.14	49.97	-55.0	-68.0	3.8	8.46e-01	0	33	104	0	75	16753
2026-01-02 03:05:07.32	220.03	49.65	-55.0	-68.0	3.8	8.46e-01	0	33	104	0	75	16715
2026-01-02 03:05:08.31	219.93	49.32	-55.0	-68.0	3.8	8.47e-01	0	33	104	0	75	16768
2026-01-02 03:05:09.31	219.82	48.99	-55.0	-68.0	3.8	8.46e-01	0	33	104	0	75	16703
2026-01-02 03:05:10.30	219.72	48.67	-55.0	-68.0	3.8	8.45e-01	0	33	104	0	75	16789
2026-01-02 03:05:11.30	219.62	48.35	-55.0	-68.0	3.8	8.46e-01	0	33	104	0	75	16742
2026-01-02 03:05:12.28	219.53	48.03	-55.0	-68.0	3.8	8.45e-01	0	33	104	0	75	16743
2026-01-02 03:05:13.28	219.43	47.72	-55.0	-68.0	3.8	8.45e-01	0	33	104	0	75	16772
2026-01-02 03:05:14.27	219.34	47.40	-55.0	-68.0	3.8	8.46e-01	0	33	104	0	75	16726
2026-01-02 03:05:15.27	219.25	47.09	-55.0	-68.0	3.8	8.45e-01	0	33	104	0	75	16696
2026-01-02 03:05:16.26	219.16	46.78	-55.0	-68.0	3.8	8.45e-01	0	33	104	0	75	16736
2026-01-02 03:05:17.25	219.07	46.48	-55.0	-68.0	3.8	8.45e-01	0	33	104	0	75	16734
2026-01-02 03:05:18.23	218.99	46.17	-55.0	-68.0	3.8	8.45e-01	0	33	104	0	75	16707
2026-01-02 03:05:19.22	218.91	45.87	-55.0	-68.0	3.8	8.45e-01	0	33	104	0	75	16771
2026-01-02 03:05:20.21	218.83	45.57	-55.0	-68.0	3.8	8.46e-01	0	33	104	0	75	16755
2026-01-02 03:05:21.20	218.75	45.27	-55.0	-68.0	3.8	8.45e-01	0	33	104	0	75	16756
2026-01-02 03:05:22.20	218.67	44.98	-55.1	-68.0	3.8	8.45e-01	0	33	104	0	75	16739
2026-01-02 03:05:23.19	218.59	44.68	-55.0	-68.0	3.8	8.45e-01	0	33	104	0	75	16758
2026-01-02 03:05:24.20	218.51	44.39	-55.0	-68.0	3.8	8.46e-01	0	33	104	0	75	16727
2026-01-02 03:05:25.20	218.44	44.09	-55.0	-68.0	3.8	8.46e-01	0	33	104	0	75	16760
2026-01-02 03:05:26.20	218.36	43.80	-55.0	-68.0	3.8	8.46e-01	0	33	104	0	75	16796
2026-01-02 03:05:27.20	218.29	43.52	-55.0	-68.0	3.8	8.45e-01	0	33	104	0	75	16772
2026-01-02 03:05:28.20	218.22	43.23	-55.0	-68.0	3.8	8.46e-01	0	33	104	0	75	16787
2026-01-02 03:05:29.19	218.15	42.95	-55.0	-68.0	3.8	8.45e-01	0	33	104	0	75	16777
2026-01-02 03:05:30.19	218.08	42.67	-55.0	-68.0	3.8	8.46e-01	0	33	104	0	75	16738
2026-01-02 03:05:31.18	218.02	42.39	-55.0	-68.0	3.8	8.45e-01	0	33	104	0	75	16818
2026-01-02 03:05:32.19	217.95	42.11	-55.0	-68.0	3.8	8.46e-01	0	33	104	0	75	16745
2026-01-02 03:05:33.19	217.89	41.84	-55.0	-68.0	3.8	8.45e-01	0	33	104	0	75	16759
2026-01-02 03:05:34.19	217.82	41.56	-55.0	-68.0	3.8	8.46e-01	0	33	104	0	75	16802
2026-01-02 03:05:35.18	217.76	41.29	-55.1	-68.0	3.8	8.45e-01	0	33	104	0	75	16767
2026-01-02 03:05:36.19	217.70	41.02	-55.0	-68.0	3.8	8.45e-01	0	33	104	0	75	16762
2026-01-02 03:05:37.19	217.64	40.75	-55.0	-68.0	3.8	8.46e-01	0	33	104	0	75	16755
2026-01-02 03:05:38.18	217.58	40.49	-55.0	-68.0	3.8	8.46e-01	0	33	104	0	75	16772
2026-01-02 03:05:39.18	217.52	40.23	-55.0	-68.0	3.8	8.46e-01	0	33	104	0	75	16723
2026-01-02 03:05:40.18	217.47	39.97	-55.0	-68.0	3.8	8.45e-01	0	33	104	0	75	16719
2026-01-02 03:05:41.18	217.41	39.71	-55.0	-68.0	3.8	8.46e-01	0	33	104	0	75	16757
2026-01-02 03:05:42.18	217.36	39.45	-55.0	-68.0	3.8	8.46e-01	0	33	104	0	75	16727
2026-01-02 03:05:43.19	217.30	39.19	-55.0	-68.0	3.8	8.46e-01	0	33	104	0	75	16749
2026-01-02 03:05:44.19	217.25	38.93	-55.0	-68.0	3.8	8.46e-01	0	33	104	0	75	16791
2026-01-02 03:05:45.19	217.20	38.68	-55.0	-68.0	3.8	8.45e-01	0	33	104	0	75	16752
2026-01-02 03:05:46.19	217.14	38.43	-55.0	-68.0	3.8	8.46e-01	0	33	104	0	75	16743
2026-01-02 03:05:47.19	217.09	38.18	-55.0	-68.0	3.8	8.44e-01	0	33	104	0	75	16727
2026-01-02 03:05:48.19	217.04	37.94	-55.0	-68.0	3.8	8.46e-01	0	33	104	0	75	16740
2026-01-02 03:05:49.18	217.00	37.69	-55.0	-68.0	3.8	8.45e-01	0	33	104	0	75	16768
2026-01-02 03:05:50.18	216.95	37.45	-55.1	-68.0	3.8	8.45e-01	0	33	104	0	75	16757
2026-01-02 03:05:51.19	216.90	37.21	-55.0	-68.0	3.8	8.45e-01	0	33	104	0	75	16732
2026-01-02 03:05:52.19	216.85	36.97	-55.0	-67.9	3.8	8.46e-01	0	33	104	0	75	16690
2026-01-02 03:05:53.20	216.81	36.73	-55.0	-68.0	3.8	8.44e-01	0	33	104	0	75	16727
2026-01-02 03:05:54.20	216.76	36.49	-55.0	-67.9	3.8	8.45e-01	0	33	104	0	75	16668
2026-01-02 03:05:55.20	216.72	36.25	-55.0	-67.9	3.8	8.45e-01	0	33	104	0	75	16672
2026-01-02 03:05:56.20	216.67	36.02	-55.0	-68.0	3.8	8.45e-01	0	33	104	0	75	16721
2026-01-02 03:05:57.20	216.63	35.79	-55.0	-68.0	3.8	8.45e-01	0	33	104	0	75	16758
2026-01-02 03:05:58.19	216.59	35.56	-54.9	-68.0	3.8	8.45e-01	0	33	104	0	75	16696
2026-01-02 03:05:59.20	216.54	35.33	-55.1	-68.0	3.8	8.46e-01	0	33	104	0	75	16760
2026-01-02 03:06:00.20	216.50	35.10	-55.0	-68.0	3.8	8.46e-01	0	33	104	0	75	16737
2026-01-02 03:06:01.19	216.46	34.88	-55.0	-68.0	3.8	8.46e-01	0	33	104	0	75	16700
2026-01-02 03:06:02.19	216.42	34.66	-55.0	-68.0	3.8	8.47e-01	0	33	104	0	75	16749
2026-01-02 03:06:03.19	216.38	34.44	-55.0	-68.0	3.8	8.46e-01	0	33	104	0	75	16745
2026-01-02 03:06:04.20	216.34	34.21	-55.0	-68.0	3.8	8.46e-01	0	33	104	0	75	16757
2026-01-02 03:06:05.20	216.30	33.99	-55.0	-68.0	3.8	8.47e-01	0	33	104	0	75	16750
2026-01-02 03:06:06.19	216.27	33.78	-55.0	-67.9	3.8	8.46e-01	0	33	104	0	75	16680
2026-01-02 03:06:07.20	216.23	33.56	-55.0	-67.9	3.8	8.46e-01	0	33	104	0	75	16624
2026-01-02 03:06:08.19	216.19	33.35	-55.0	-67.9	3.8	8.47e-01	0	33	104	0	75	16616
2026-01-02 03:06:09.19	216.16	33.14	-55.0	-67.9	3.8	8.44e-01	0	33	104	0	75	16658
2026-01-02 03:06:10.18	216.12	32.93	-55.0	-67.9	3.8	8.47e-01	0	33	104	0	75	16673
2026-01-02 03:06:11.18	216.09	32.72	-55.0	-68.0	3.8	8.46e-01	0	33	104	0	75	16705
2026-01-02 03:06:12.18	216.05	32.51	-55.0	-67.9	3.8	8.46e-01	0	33	104	0	75	16678
2026-01-02 03:06:13.17	216.02	32.30	-55.0	-67.9	3.8	8.45e-01	0	33	104	0	75	16668
2026-01-02 03:06:14.16	215.98	32.10	-55.0	-67.9	3.8	8.46e-01	0	33	104	0	75	16687
2026-01-02 03:06:15.15	215.95	31.90	-55.0	-68.0	3.8	8.46e-01	0	33	104	0	75	16724
2026-01-02 03:06:16.14	215.92	31.70	-55.0	-68.0	3.8	8.48e-01	0	33	104	0	75	16729
2026-01-02 03:06:17.14	215.89	31.49	-55.0	-67.9	3.8	8.46e-01	0	33	104	0	75	16686
2026-01-02 03:06:18.14	215.85	31.29	-55.0	-67.9	3.8	8.46e-01	0	33	104	0	75	16688
2026-01-02 03:06:19.14	215.82	31.10	-55.0	-67.9	3.8	8.45e-01	0	33	104	0	75	16660
2026-01-02 03:06:20.14	215.79	30.90	-55.0	-68.0	3.8	8.45e-01	0	33	104	0	75	16703
2026-01-02 03:06:21.14	215.76	30.70	-55.1	-68.0	3.8	8.46e-01	0	33	104	0	75	16704
2026-01-02 03:06:22.14	215.73	30.51	-55.1	-68.0	3.8	8.45e-01	0	33	104	0	75	16755
2026-01-02 03:06:23.14	215.70	30.31	-55.0	-68.0	3.8	8.46e-01	0	33	104	0	75	16779
2026-01-02 03:06:24.14	215.67	30.12	-55.0	-68.0	3.8	8.46e-01	0	33	104	0	75	16788
2026-01-02 03:06:25.15	215.64	29.93	-55.0	-68.0	3.8	8.45e-01	0	33	104	0	75	16782
2026-01-02 03:06:26.14	215.61	29.74	-55.1	-68.0	3.8	8.46e-01	0	33	104	0	75	16758
2026-01-02 03:06:27.14	215.58	29.55	-55.0	-68.0	3.8	8.46e-01	0	33	104	0	75	16794
2026-01-02 03:06:28.14	215.56	29.36	-55.0	-68.0	3.8	8.45e-01	0	33	104	0	75	16751
2026-01-02 03:06:29.14	215.53	29.18	-55.0	-68.0	3.8	8.46e-01	0	33	104	0	75	16779
2026-01-02 03:06:30.14	215.50	28.99	-55.0	-68.0	3.8	8.45e-01	0	33	104	0	75	16727
2026-01-02 03:06:31.14	215.47	28.81	-55.0	-68.0	3.8	8.45e-01	0	33	104	0	75	16739
2026-01-02 03:06:32.14	215.45	28.63	-55.1	-68.0	3.8	8.46e-01	0	33	104	0	75	16762
2026-01-02 03:06:33.14	215.42	28.45	-55.1	-68.0	3.8	8.45e-01	0	33	104	0	75	16789
2026-01-02 03:06:34.14	215.40	28.27	-55.1	-68.0	3.8	8.46e-01	0	33	104	0	75	16738
2026-01-02 03:06:35.13	215.37	28.09	-55.1	-68.0	3.8	8.45e-01	0	33	104	0	75	16753
2026-01-02 03:06:36.13	215.35	27.91	-55.1	-68.0	3.8	8.44e-01	0	33	104	0	75	16746
2026-01-02 03:06:37.12	215.32	27.74	-55.1	-68.0	3.8	8.46e-01	0	33	104	0	75	16746
2026-01-02 03:06:38.13	215.30	27.56	-55.0	-68.0	3.8	8.46e-01	0	33	104	0	75	16758
2026-01-02 03:06:39.13	215.27	27.38	-55.1	-68.0	3.8	8.46e-01	0	33	104	0	75	16755
2026-01-02 03:06:40.13	215.25	27.21	-55.1	-68.0	3.8	8.46e-01	0	33	104	0	75	16771
2026-01-02 03:06:41.13	215.22	27.04	-55.0	-68.0	3.8	8.46e-01	0	33	104	0	75	16757
2026-01-02 03:06:42.13	215.20	26.87	-55.0	-68.0	3.8	8.46e-01	0	33	104	0	75	16752
2026-01-02 03:06:43.12	215.18	26.70	-55.0	-68.0	3.8	8.45e-01	0	33	104	0	75	16811
2026-01-02 03:06:44.11	215.16	26.53	-55.0	-68.0	3.8	8.45e-01	0	33	104	0	75	16769
2026-01-02 03:06:45.10	215.13	26.37	-55.0	-68.0	3.8	8.46e-01	0	33	104	0	75	16707
2026-01-02 03:06:46.10	215.11	26.20	-55.0	-68.0	3.8	8.45e-01	0	33	104	0	75	16742
2026-01-02 03:06:47.10	215.09	26.03	-55.0	-68.0	3.8	8.46e-01	0	33	104	0	75	16774
2026-01-02 03:06:48.10	215.07	25.87	-55.0	-68.0	3.8	8.46e-01	0	33	104	0	75	16764
2026-01-02 03:06:49.10	215.05	25.70	-55.0	-68.0	3.8	8.44e-01	0	33	104	0	75	16758
2026-01-02 03:06:50.10	215.02	25.54	-55.0	-68.0	3.8	8.46e-01	0	33	104	0	75	16739
2026-01-02 03:06:51.09	215.00	25.38	-55.0	-68.0	3.8	8.47e-01	0	33	104	0	75	16749
2026-01-02 03:06:52.09	214.98	25.22	-55.0	-68.0	3.8	8.46e-01	0	33	104	0	75	16766
2026-01-02 03:06:53.09	214.96	25.06	-55.0	-68.0	3.8	8.46e-01	0	33	104	0	75	16767
2026-01-02 03:06:54.09	214.94	24.90	-55.1	-68.0	3.8	8.45e-01	0	33	104	0	75	16748
2026-01-02 03:06:55.09	214.92	24.74	-55.0	-68.0	3.8	8.46e-01	0	33	104	0	75	16721
2026-01-02 03:06:56.10	214.90	24.58	-55.1	-68.0	3.8	8.45e-01	0	33	104	0	75	16757
2026-01-02 03:06:57.10	214.88	24.43	-55.1	-68.0	3.8	8.45e-01	0	33	104	0	75	16762
2026-01-02 03:06:58.10	214.86	24.27	-55.1	-68.0	3.8	8.46e-01	0	33	104	0	75	16759
2026-01-02 03:06:59.10	214.84	24.12	-55.0	-68.0	3.8	8.46e-01	0	33	104	0	75	16776
2026-01-02 03:07:00.10	214.82	23.96	-55.1	-68.0	3.8	8.45e-01	0	33	104	0	75	16761
2026-01-02 03:07:01.09	214.81	23.81	-55.1	-68.0	3.8	8.46e-01	0	33	104	0	75	16747
2026-01-02 03:07:02.10	214.79	23.66	-55.1	-68.0	3.8	8.45e-01	0	33	104	0	75	16791
2026-01-02 03:07:03.10	214.77	23.51	-55.1	-68.0	3.8	8.47e-01	0	33	104	0	75	16786
2026-01-02 03:07:04.10	214.75	23.36	-55.1	-68.0	3.8	8.45e-01	0	33	104	0	75	16805
2026-01-02 03:07:05.10	214.73	23.21	-55.0	-68.0	3.8	8.45e-01	0	33	104	0	75	16759
2026-01-02 03:07:06.09	214.72	23.06	-55.1	-68.0	3.8	8.46e-01	0	33	104	0	75	16776
2026-01-02 03:07:07.10	214.70	22.91	-55.1	-68.0	3.8	8.45e-01	0	33	104	0	75	16798
2026-01-02 03:07:08.09	214.68	22.77	-55.1	-68.0	3.8	8.46e-01	0	33	104	0	75	16783
2026-01-02 03:07:09.09	214.66	22.62	-55.1	-68.0	3.8	8.46e-01	0	33	104	0	75	16838
2026-01-02 03:07:10.08	214.65	22.48	-55.1	-68.0	3.8	8.45e-01	0	33	104	0	75	16762
2026-01-02 03:07:11.08	214.63	22.33	-55.1	-68.0	3.8	8.45e-01	0	33	104	0	75	16785
2026-01-02 03:07:12.08	214.61	22.19	-55.1	-68.0	3.8	8.46e-01	0	33	104	0	75	16771
2026-01-02 03:07:13.07	214.60	22.05	-55.1	-68.0	3.8	8.45e-01	0	33	104	0	75	16774
2026-01-02 03:07:14.07	214.58	21.91	-55.1	-68.0	3.8	8.46e-01	0	33	104	0	75	16798
2026-01-02 03:07:15.08	214.57	21.77	-55.0	-68.0	3.8	8.45e-01	0	33	104	0	75	16743
2026-01-02 03:07:16.07	214.55	21.63	-55.1	-68.0	3.8	8.44e-01	0	33	104	0	75	16765
2026-01-02 03:07:17.06	214.53	21.49	-55.1	-68.0	3.8	8.46e-01	0	33	104	0	75	16819
2026-01-02 03:07:18.05	214.52	21.35	-55.0	-68.0	3.8	8.45e-01	0	33	104	0	75	16786
2026-01-02 03:07:19.05	214.50	21.21	-54.9	-68.0	3.8	8.46e-01	0	33	104	0	75	16759
2026-01-02 03:07:20.05	214.49	21.08	-55.1	-68.0	3.8	8.46e-01	0	33	104	0	75	16735
2026-01-02 03:07:21.04	214.47	20.94	-55.0	-68.0	3.8	8.46e-01	0	33	104	0	75	16751
2026-01-02 03:07:22.04	214.46	20.80	-55.1	-68.0	3.8	8.45e-01	0	33	104	0	75	16813
2026-01-02 03:07:23.04	214.44	20.67	-55.1	-68.0	3.8	8.46e-01	0	33	104	0	75	16806
2026-01-02 03:07:24.04	214.43	20.54	-55.1	-68.0	3.8	8.45e-01	0	33	104	0	75	16768
2026-01-02 03:07:25.03	214.42	20.40	-55.1	-68.0	3.8	8.45e-01	0	33	104	0	75	16833
2026-01-02 03:07:26.04	214.40	20.27	-55.0	-68.0	3.8	8.46e-01	0	33	104	0	75	16797
2026-01-02 03:07:27.04	214.39	20.14	-55.1	-68.0	3.8	8.45e-01	0	33	104	0	75	16783
2026-01-02 03:07:28.04	214.37	20.01	-55.1	-68.0	3.8	8.47e-01	0	33	104	0	75	16771
2026-01-02 03:07:29.04	214.36	19.87	-55.1	-68.0	3.8	8.46e-01	0	33	104	0	75	16728
2026-01-02 03:07:30.05	214.35	19.74	-55.1	-68.0	3.8	8.46e-01	0	33	104	0	75	16719
2026-01-02 03:07:31.05	214.33	19.61	-55.1	-68.0	3.8	8.45e-01	0	33	104	0	75	16779
2026-01-02 03:07:32.05	214.32	19.49	-55.1	-68.0	3.8	8.47e-01	0	33	104	0	75	16810
2026-01-02 03:07:33.06	214.31	19.36	-55.1	-68.0	3.8	8.46e-01	0	33	104	0	75	16785
2026-01-02 03:07:34.06	214.29	19.23	-55.1	-68.0	3.8	8.46e-01	0	33	104	0	75	16738
2026-01-02 03:07:35.07	214.28	19.10	-55.1	-68.0	3.8	8.45e-01	0	33	104	0	75	16811
2026-01-02 03:07:36.06	214.27	18.98	-55.0	-68.0	3.8	8.46e-01	0	33	104	0	75	16795
2026-01-02 03:07:37.06	214.26	18.85	-55.0	-68.0	3.8	8.46e-01	0	33	104	0	75	16738
2026-01-02 03:07:38.06	214.24	18.72	-55.0	-68.0	3.8	8.47e-01	0	33	104	0	75	16788
2026-01-02 03:07:39.05	214.23	18.60	-55.1	-68.0	3.8	8.46e-01	0	33	104	0	75	16760
2026-01-02 03:07:40.05	214.22	18.48	-55.1	-68.0	3.8	8.46e-01	0	33	104	0	75	16808
2026-01-02 03:07:41.05	214.21	18.36	-55.0	-68.0	3.8	8.46e-01	0	33	104	0	75	16740
2026-01-02 03:07:42.05	214.19	18.23	-55.0	-68.0	3.8	8.47e-01	0	33	104	0	75	16784
2026-01-02 03:07:43.05	214.18	18.11	-55.1	-68.0	3.8	8.46e-01	0	33	104	0	75	16806
2026-01-02 03:07:44.05	214.17	17.99	-55.0	-68.0	3.8	8.46e-01	0	33	104	0	75	16753
2026-01-02 03:07:45.05	214.16	17.87	-55.0	-68.0	3.8	8.45e-01	0	33	104	0	75	16762
2026-01-02 03:07:46.05	214.15	17.75	-55.0	-68.0	3.8	8.46e-01	0	33	104	0	75	16765
2026-01-02 03:07:47.05	214.14	17.63	-55.1	-68.0	3.8	8.46e-01	0	33	104	0	75	16802
2026-01-02 03:07:48.05	214.13	17.51	-55.1	-68.0	3.8	8.46e-01	0	33	104	0	75	16775
2026-01-02 03:07:49.05	214.11	17.39	-55.0	-68.0	3.8	8.46e-01	0	33	104	0	75	16777
2026-01-02 03:07:50.05	214.10	17.27	-55.1	-68.0	3.8	8.47e-01	0	33	104	0	75	16763
2026-01-02 03:07:51.05	214.09	17.16	-55.0	-68.0	3.8	8.46e-01	0	33	104	0	75	16777
2026-01-02 03:07:52.06	214.08	17.04	-55.0	-68.0	3.9	8.45e-01	0	33	104	0	75	16742
2026-01-02 03:07:53.06	214.07	16.92	-55.0	-68.0	3.8	8.44e-01	0	33	104	0	75	16748
2026-01-02 03:07:54.07	214.06	16.81	-55.0	-68.0	3.8	8.44e-01	0	33	104	0	75	16715
2026-01-02 03:07:55.06	214.05	16.69	-55.0	-68.0	3.8	8.47e-01	0	33	104	0	75	16697
2026-01-02 03:07:56.07	214.04	16.58	-55.0	-68.0	3.8	8.46e-01	0	33	104	0	75	16742
2026-01-02 03:07:57.07	214.03	16.46	-55.0	-68.0	3.8	8.45e-01	0	33	104	0	75	16803
2026-01-02 03:07:58.06	214.02	16.35	-55.1	-68.0	3.8	8.45e-01	0	33	104	0	75	16816
2026-01-02 03:07:59.06	214.01	16.24	-55.1	-68.0	3.8	8.45e-01	0	33	104	0	75	16762
2026-01-02 03:08:00.06	214.00	16.13	-55.1	-68.0	3.8	8.46e-01	0	33	104	0	75	16785
2026-01-02 03:08:01.06	213.99	16.01	-55.1	-68.0	3.8	8.46e-01	0	33	104	0	75	16773
2026-01-02 03:08:02.06	213.98	15.90	-55.0	-68.0	3.8	8.45e-01	0	33	104	0	75	16733
2026-01-02 03:08:03.05	213.97	15.79	-55.0	-68.0	3.8	8.45e-01	0	33	104	0	75	16765
2026-01-02 03:08:04.05	213.96	15.68	-55.0	-68.0	3.8	8.47e-01	0	33	104	0	75	16754
2026-01-02 03:08:05.04	213.95	15.57	-55.1	-68.0	3.8	8.46e-01	0	33	104	0	75	16741
2026-01-02 03:08:06.04	213.94	15.47	-55.1	-68.0	3.8	8.45e-01	0	33	104	0	75	16790
2026-01-02 03:08:07.04	213.93	15.36	-55.0	-68.0	3.8	8.46e-01	0	33	104	0	75	16719
2026-01-02 03:08:08.03	213.92	15.25	-55.1	-68.0	3.8	8.45e-01	0	33	104	0	75	16772
2026-01-02 03:08:09.03	213.91	15.14	-55.0	-68.0	3.8	8.45e-01	0	33	104	0	75	16747
2026-01-02 03:08:10.02	213.91	15.04	-55.0	-68.0	3.8	8.45e-01	0	33	104	0	75	16775
2026-01-02 03:08:11.02	213.90	14.93	-55.0	-68.0	3.8	8.45e-01	0	33	104	0	75	16715
2026-01-02 03:08:12.02	213.89	14.82	-55.0	-67.9	3.8	8.45e-01	0	33	104	0	75	16692
2026-01-02 03:08:13.02	213.88	14.72	-55.1	-68.0	3.8	8.47e-01	0	33	104	0	75	16731
2026-01-02 03:08:14.01	213.87	14.61	-55.0	-67.9	3.8	8.46e-01	0	33	104	0	75	16689
2026-01-02 03:08:14.99	213.86	14.51	-55.0	-68.0	3.8	8.46e-01	0	33	104	0	75	16743
2026-01-02 03:08:15.98	213.85	14.40	-55.1	-68.0	3.8	8.46e-01	0	33	104	0	75	16752
2026-01-02 03:08:16.96	213.84	14.30	-55.1	-68.0	3.9	8.46e-01	0	33	104	0	75	16748
2026-01-02 03:08:17.96	213.84	14.20	-55.1	-68.0	3.8	8.45e-01	0	33	104	0	75	16772
2026-01-02 03:08:18.95	213.83	14.10	-55.0	-68.0	3.8	8.46e-01	0	33	104	0	75	16775
2026-01-02 03:08:19.95	213.82	13.99	-55.1	-68.0	3.8	8.45e-01	0	33	104	0	75	16731
2026-01-02 03:08:20.94	213.81	13.89	-55.0	-68.0	3.8	8.46e-01	0	33	104	0	75	16741
2026-01-02 03:08:21.93	213.80	13.79	-55.0	-68.0	3.8	8.45e-01	0	33	104	0	75	16753
2026-01-02 03:08:22.92	213.80	13.69	-55.1	-68.0	3.8	8.44e-01	0	33	104	0	75	16771
2026-01-02 03:08:23.92	213.79	13.59	-55.1	-68.0	3.8	8.45e-01	0	33	104	0	75	16797
2026-01-02 03:08:24.91	213.78	13.49	-55.1	-68.0	3.8	8.46e-01	0	33	104	0	75	16755
2026-01-02 03:08:25.90	213.77	13.39	-55.1	-68.0	3.8	8.46e-01	0	33	104	0	75	16748
2026-01-02 03:08:26.90	213.77	13.29	-55.1	-68.0	3.8	8.47e-01	0	33	104	0	75	16761
2026-01-02 03:08:27.90	213.76	13.19	-55.1	-68.0	3.8	8.46e-01	0	33	104	0	75	16761
2026-01-02 03:08:28.90	213.75	13.09	-55.1	-68.0	3.8	8.46e-01	0	33	104	0	75	16822
2026-01-02 03:08:29.90	213.74	12.99	-55.1	-68.0	3.8	8.44e-01	0	33	104	0	75	16777
2026-01-02 03:08:30.89	213.74	12.90	-55.1	-68.0	3.8	8.45e-01	0	33	104	0	75	16773
2026-01-02 03:08:31.88	213.73	12.80	-55.1	-68.0	3.8	8.46e-01	0	33	104	0	75	16802
2026-01-02 03:08:32.87	213.72	12.70	-55.1	-68.0	3.8	8.45e-01	0	33	104	0	75	16776
2026-01-02 03:08:33.86	213.71	12.61	-55.1	-68.0	3.8	8.46e-01	0	33	104	0	75	16727
2026-01-02 03:08:34.85	213.71	12.51	-55.1	-68.0	3.8	8.46e-01	0	33	104	0	75	16747
2026-01-02 03:08:35.85	213.70	12.41	-55.0	-68.0	3.8	8.45e-01	0	33	104	0	75	16783
2026-01-02 03:08:36.84	213.69	12.32	-55.1	-68.0	3.8	8.46e-01	0	33	104	0	75	16815
2026-01-02 03:08:37.84	213.69	12.22	-55.1	-68.0	3.8	8.45e-01	0	33	104	0	75	16789
2026-01-02 03:08:38.82	213.68	12.13	-55.1	-68.0	3.8	8.46e-01	0	33	104	0	75	16732
2026-01-02 03:08:39.82	213.67	12.03	-55.1	-68.0	3.8	8.46e-01	0	33	104	0	75	16810
2026-01-02 03:08:40.81	213.67	11.94	-55.1	-68.0	3.8	8.46e-01	0	33	104	0	75	16733
2026-01-02 03:08:41.80	213.66	11.85	-55.1	-68.0	3.8	8.46e-01	0	33	104	0	75	16807
2026-01-02 03:08:42.79	213.65	11.76	-55.0	-68.0	3.8	8.45e-01	0	33	104	0	75	16792
2026-01-02 03:08:43.77	213.65	11.66	-55.0	-68.0	3.8	8.45e-01	0	33	104	0	75	16803
