passes_logs/2026/01/02/R3.2S_Murmansk/R3.2S_Murmansk__20260102_015503_SUOMI_NPP_rec.log

#Pass ID: 20260102_015503_SUOMI NPP
#Satellite: SUOMI NPP
#Configuration: NPP
#almurnet v.1.7.20251203
#Start time: 2026-01-02 01:55:04

#Version: 2.2.20231116
#Station: R3.2S_Murmansk
#Location: 33.079688 lon 68.888172 lat
#TLE: 1 37849U 11061A   26001.07732418  .00000182  00000+0  10735-3 0  9990
#TLE: 2 37849  98.7795 303.2470 0002580  87.2016 272.9455 14.19520779734739

#Time	Az	El	Level	Level2	SNR	BER	BlckErr	Temp	State	Recorded	gain1	gain2
2026-01-02 01:55:04.89	29.87	2.10	-55.0	-70.9	3.8	1.49e+00	0	31	0	0	75	23502
2026-01-02 01:55:05.89	29.85	2.16	-55.0	-70.9	3.8	1.49e+00	0	31	104	0	75	23494
2026-01-02 01:55:06.89	29.82	2.22	-55.0	-70.9	3.8	1.49e+00	0	31	104	0	75	23575
2026-01-02 01:55:07.89	29.80	2.28	-55.0	-70.9	3.8	1.49e+00	0	31	104	0	75	23495
2026-01-02 01:55:08.90	29.77	2.35	-55.0	-70.9	3.8	1.49e+00	0	31	104	0	75	23510
2026-01-02 01:55:09.90	29.75	2.41	-55.0	-70.9	3.8	1.49e+00	0	31	104	0	75	23476
2026-01-02 01:55:10.90	29.72	2.48	-55.0	-70.9	3.8	1.49e+00	0	31	104	0	75	23538
2026-01-02 01:55:11.90	29.69	2.54	-55.0	-70.9	3.8	1.49e+00	0	31	104	0	75	23511
2026-01-02 01:55:12.91	29.67	2.60	-55.0	-70.9	3.8	1.49e+00	0	31	104	0	75	23518
2026-01-02 01:55:13.91	29.64	2.67	-55.0	-70.9	3.8	1.49e+00	0	31	104	0	75	23530
2026-01-02 01:55:14.90	29.62	2.73	-55.0	-70.9	3.8	1.49e+00	0	31	104	0	75	23539
2026-01-02 01:55:15.90	29.59	2.80	-55.0	-70.9	3.8	1.49e+00	0	31	104	0	75	23519
2026-01-02 01:55:16.90	29.56	2.86	-55.0	-70.9	3.8	1.49e+00	0	31	104	0	75	23518
2026-01-02 01:55:17.89	29.54	2.93	-55.0	-70.9	3.8	1.49e+00	0	31	104	0	75	23517
2026-01-02 01:55:18.90	29.51	2.99	-55.0	-70.9	3.8	1.49e+00	0	31	104	0	75	23525
2026-01-02 01:55:19.90	29.48	3.06	-55.0	-70.9	3.8	1.49e+00	0	32	104	0	75	23514
2026-01-02 01:55:20.91	29.46	3.12	-55.0	-70.9	3.8	1.49e+00	0	31	104	0	75	23492
2026-01-02 01:55:21.91	29.43	3.19	-55.0	-70.9	3.8	1.49e+00	0	31	104	0	75	23460
2026-01-02 01:55:22.90	29.40	3.25	-55.0	-70.9	3.8	1.49e+00	0	31	104	0	75	23460
2026-01-02 01:55:23.90	29.38	3.32	-55.0	-70.9	3.8	1.49e+00	0	31	104	0	75	23435
2026-01-02 01:55:24.90	29.35	3.38	-55.0	-70.9	3.8	1.49e+00	0	31	104	0	75	23520
2026-01-02 01:55:25.91	29.32	3.45	-55.0	-70.9	3.8	1.49e+00	0	31	104	0	75	23471
2026-01-02 01:55:26.91	29.29	3.52	-55.0	-70.9	3.8	1.49e+00	0	31	104	0	75	23459
2026-01-02 01:55:27.90	29.27	3.58	-55.0	-70.9	3.8	1.49e+00	0	31	104	0	75	23393
2026-01-02 01:55:28.90	29.24	3.65	-55.0	-70.9	3.8	1.49e+00	0	31	104	0	75	23373
2026-01-02 01:55:29.91	29.21	3.71	-55.0	-70.9	3.8	1.49e+00	0	31	104	0	75	23322
2026-01-02 01:55:30.90	29.18	3.78	-55.0	-70.8	3.8	1.49e+00	0	31	104	0	75	23288
2026-01-02 01:55:31.90	29.15	3.85	-55.0	-70.8	3.8	1.49e+00	0	31	104	0	75	23256
2026-01-02 01:55:32.90	29.12	3.91	-55.0	-70.8	3.8	1.49e+00	0	32	104	0	75	23247
2026-01-02 01:55:33.90	29.10	3.98	-55.0	-70.8	3.8	1.49e+00	0	32	104	0	75	23273
2026-01-02 01:55:34.89	29.07	4.05	-55.0	-70.8	3.8	1.49e+00	0	32	104	0	75	23273
2026-01-02 01:55:35.89	29.04	4.12	-55.0	-70.8	3.8	1.49e+00	0	32	104	0	75	23263
2026-01-02 01:55:36.89	29.01	4.18	-55.0	-70.8	3.8	1.49e+00	0	32	104	0	75	23290
2026-01-02 01:55:37.89	28.98	4.25	-55.0	-70.9	3.8	1.49e+00	0	32	104	0	75	23322
2026-01-02 01:55:38.89	28.95	4.32	-55.0	-70.9	3.8	1.49e+00	0	31	104	0	75	23314
2026-01-02 01:55:39.89	28.92	4.39	-55.0	-70.8	3.8	1.49e+00	0	32	104	0	75	23244
2026-01-02 01:55:40.89	28.89	4.46	-55.0	-70.8	3.8	1.49e+00	0	32	104	0	75	23288
2026-01-02 01:55:41.89	28.86	4.52	-55.0	-70.9	3.8	1.49e+00	0	32	104	0	75	23329
2026-01-02 01:55:42.89	28.83	4.59	-55.0	-70.8	3.8	1.49e+00	0	32	104	0	75	23311
2026-01-02 01:55:43.89	28.80	4.66	-55.0	-70.9	3.8	1.49e+00	0	32	104	0	75	23452
2026-01-02 01:55:44.89	28.77	4.73	-55.0	-70.9	3.8	1.49e+00	0	32	104	0	75	23430
2026-01-02 01:55:45.90	28.74	4.80	-55.0	-70.9	3.8	1.49e+00	0	32	104	0	75	23404
2026-01-02 01:55:46.90	28.71	4.87	-55.0	-70.9	3.8	1.49e+00	0	32	104	0	75	23385
2026-01-02 01:55:47.91	28.68	4.94	-55.0	-70.9	3.8	1.49e+00	0	32	104	0	75	23506
2026-01-02 01:55:48.91	28.65	5.01	-55.0	-70.9	3.8	1.49e+00	0	32	104	0	75	23547
2026-01-02 01:55:49.91	28.61	5.08	-55.0	-70.9	3.8	1.49e+00	0	32	104	0	75	23500
2026-01-02 01:55:50.90	28.58	5.15	-55.0	-70.9	3.8	1.49e+00	0	32	104	0	75	23493
2026-01-02 01:55:51.91	28.55	5.22	-55.0	-70.9	3.8	1.49e+00	0	32	104	0	75	23500
2026-01-02 01:55:52.91	28.52	5.29	-55.0	-70.9	3.8	1.49e+00	0	32	104	0	75	23473
2026-01-02 01:55:53.91	28.49	5.36	-55.0	-70.9	3.8	1.49e+00	0	32	104	0	75	23468
2026-01-02 01:55:54.91	28.45	5.43	-55.0	-70.9	3.8	1.49e+00	0	32	104	0	75	23485
2026-01-02 01:55:55.91	28.42	5.50	-55.0	-70.9	3.8	1.49e+00	0	32	104	0	75	23460
2026-01-02 01:55:56.91	28.39	5.57	-55.0	-70.9	3.8	1.49e+00	0	32	104	0	75	23425
2026-01-02 01:55:57.92	28.36	5.64	-55.0	-70.9	3.8	1.49e+00	0	32	104	0	75	23413
2026-01-02 01:55:58.92	28.32	5.71	-55.0	-70.9	3.8	1.49e+00	0	32	104	0	75	23389
2026-01-02 01:55:59.92	28.29	5.79	-55.0	-70.9	3.8	1.49e+00	0	32	104	0	75	23326
2026-01-02 01:56:00.92	28.26	5.86	-55.0	-70.9	3.8	1.49e+00	0	32	104	0	75	23487
2026-01-02 01:56:01.92	28.22	5.93	-55.0	-70.9	3.8	1.49e+00	0	32	104	0	75	23358
2026-01-02 01:56:02.92	28.19	6.00	-55.0	-70.9	3.8	1.49e+00	0	32	104	0	75	23430
2026-01-02 01:56:03.92	28.16	6.07	-55.0	-70.9	3.8	1.49e+00	0	32	104	0	75	23413
2026-01-02 01:56:04.93	28.12	6.15	-55.0	-70.9	3.8	1.49e+00	0	32	104	0	75	23504
2026-01-02 01:56:05.93	28.09	6.22	-55.0	-70.9	3.8	1.49e+00	0	32	104	0	75	23556
2026-01-02 01:56:06.92	28.05	6.29	-55.0	-70.9	3.8	1.49e+00	0	32	104	0	75	23548
2026-01-02 01:56:07.93	28.02	6.37	-55.0	-70.9	3.8	1.49e+00	0	32	104	0	75	23532
2026-01-02 01:56:08.93	27.98	6.44	-55.0	-70.9	3.8	1.49e+00	0	32	104	0	75	23580
2026-01-02 01:56:09.93	27.95	6.51	-55.0	-71.0	3.8	1.49e+00	0	32	104	0	75	23610
2026-01-02 01:56:10.94	27.91	6.59	-55.0	-70.9	3.8	1.49e+00	0	32	104	0	75	23540
2026-01-02 01:56:11.94	27.88	6.66	-55.0	-70.9	3.8	1.49e+00	0	32	104	0	75	23508
2026-01-02 01:56:12.94	27.84	6.74	-55.0	-70.9	3.8	1.49e+00	0	32	104	0	75	23530
2026-01-02 01:56:13.94	27.81	6.81	-55.0	-70.9	3.8	1.49e+00	0	32	104	0	75	23482
2026-01-02 01:56:14.94	27.77	6.88	-55.0	-70.9	3.8	1.49e+00	0	32	104	0	75	23480
2026-01-02 01:56:15.93	27.74	6.96	-55.0	-70.9	3.8	1.49e+00	0	32	104	0	75	23456
2026-01-02 01:56:16.94	27.70	7.03	-55.0	-70.9	3.8	1.49e+00	0	32	104	0	75	23422
2026-01-02 01:56:17.94	27.66	7.11	-55.0	-70.9	3.8	1.49e+00	0	32	104	0	75	23484
2026-01-02 01:56:18.93	27.63	7.18	-55.0	-70.9	3.8	1.49e+00	0	32	104	0	75	23479
2026-01-02 01:56:19.93	27.59	7.26	-55.0	-70.9	3.8	1.49e+00	0	32	104	0	75	23519
2026-01-02 01:56:20.93	27.55	7.33	-55.0	-70.9	3.8	1.49e+00	0	32	104	0	75	23474
2026-01-02 01:56:21.93	27.51	7.41	-55.0	-70.9	3.8	1.49e+00	0	32	104	0	75	23441
2026-01-02 01:56:22.92	27.48	7.49	-55.0	-70.9	3.8	1.49e+00	0	32	104	0	75	23469
2026-01-02 01:56:23.92	27.44	7.56	-55.0	-70.9	3.8	1.49e+00	0	32	104	0	75	23437
2026-01-02 01:56:24.92	27.40	7.64	-55.0	-70.9	3.8	1.49e+00	0	32	104	0	75	23413
2026-01-02 01:56:25.92	27.36	7.72	-55.0	-70.9	3.8	1.49e+00	0	32	104	0	75	23468
2026-01-02 01:56:26.92	27.32	7.79	-55.0	-70.9	3.8	1.49e+00	0	32	104	0	75	23505
2026-01-02 01:56:27.92	27.28	7.87	-55.0	-70.9	3.8	1.49e+00	0	32	104	0	75	23436
2026-01-02 01:56:28.91	27.25	7.95	-55.0	-70.9	3.8	1.49e+00	0	32	104	0	75	23522
2026-01-02 01:56:29.91	27.21	8.02	-55.0	-71.0	3.8	1.49e+00	0	32	104	0	75	23586
2026-01-02 01:56:30.90	27.17	8.10	-55.0	-70.9	3.8	1.49e+00	0	32	104	0	75	23567
2026-01-02 01:56:31.89	27.13	8.18	-55.0	-71.0	3.8	1.49e+00	0	32	104	0	75	23599
2026-01-02 01:56:32.88	27.09	8.26	-55.0	-70.9	3.8	1.49e+00	0	32	104	0	75	23579
2026-01-02 01:56:33.88	27.05	8.33	-55.0	-71.0	3.8	1.49e+00	0	32	104	0	75	23624
2026-01-02 01:56:34.87	27.01	8.41	-55.0	-70.9	3.8	1.49e+00	0	32	104	0	75	23558
2026-01-02 01:56:35.87	26.97	8.49	-55.0	-70.9	3.8	1.49e+00	0	32	104	0	75	23527
2026-01-02 01:56:36.87	26.93	8.57	-55.0	-70.9	3.8	1.49e+00	0	32	104	0	75	23537
2026-01-02 01:56:37.87	26.89	8.65	-55.0	-70.9	3.8	1.49e+00	0	32	104	0	75	23502
2026-01-02 01:56:38.87	26.84	8.73	-55.0	-70.9	3.8	1.49e+00	0	32	104	0	75	23465
2026-01-02 01:56:39.87	26.80	8.81	-55.0	-70.9	3.8	1.49e+00	0	32	104	0	75	23434
2026-01-02 01:56:40.87	26.76	8.89	-55.0	-70.9	3.8	1.49e+00	0	32	104	0	75	23455
2026-01-02 01:56:41.88	26.72	8.97	-55.0	-70.9	3.8	1.49e+00	0	32	104	0	75	23442
2026-01-02 01:56:42.88	26.68	9.05	-55.0	-70.9	3.8	1.49e+00	0	32	104	0	75	23469
2026-01-02 01:56:43.88	26.63	9.13	-55.0	-70.9	3.8	1.49e+00	0	32	104	0	75	23509
2026-01-02 01:56:44.89	26.59	9.22	-55.0	-70.9	3.8	1.49e+00	0	32	104	0	75	23501
2026-01-02 01:56:45.89	26.55	9.30	-55.0	-70.9	3.8	1.49e+00	0	32	104	0	75	23471
2026-01-02 01:56:46.89	26.50	9.38	-55.0	-70.9	3.8	1.49e+00	0	32	104	0	75	23524
2026-01-02 01:56:47.89	26.46	9.46	-55.0	-70.9	3.8	1.49e+00	0	32	104	0	75	23531
2026-01-02 01:56:48.89	26.42	9.54	-55.0	-70.9	3.8	1.49e+00	0	32	104	0	75	23540
2026-01-02 01:56:49.90	26.37	9.63	-55.0	-71.0	3.8	1.49e+00	0	32	104	0	75	23588
2026-01-02 01:56:50.90	26.33	9.71	-55.0	-70.9	3.8	1.49e+00	0	32	104	0	75	23575
2026-01-02 01:56:51.90	26.28	9.79	-55.0	-70.9	3.8	1.49e+00	0	32	104	0	75	23554
2026-01-02 01:56:52.90	26.24	9.87	-55.0	-70.9	3.8	1.49e+00	0	32	104	0	75	23531
2026-01-02 01:56:53.90	26.19	9.96	-55.0	-70.9	3.8	1.49e+00	0	32	104	0	75	23535
2026-01-02 01:56:54.89	26.15	10.04	-55.0	-70.9	3.8	1.49e+00	0	32	104	0	75	23511
2026-01-02 01:56:55.89	26.10	10.13	-55.0	-70.9	3.8	1.49e+00	0	32	104	0	75	23520
2026-01-02 01:56:56.89	26.05	10.21	-55.0	-70.9	3.8	1.49e+00	0	32	104	0	75	23485
2026-01-02 01:56:57.90	26.01	10.30	-55.0	-70.9	3.8	1.49e+00	0	33	104	0	75	23434
2026-01-02 01:56:58.89	25.96	10.38	-55.0	-70.9	3.8	1.49e+00	0	32	104	0	75	23440
2026-01-02 01:56:59.89	25.91	10.46	-55.0	-70.9	3.8	1.49e+00	0	32	104	0	75	23513
2026-01-02 01:57:00.87	25.87	10.55	-55.0	-70.9	3.8	1.49e+00	0	32	104	0	75	23439
2026-01-02 01:57:01.87	25.82	10.63	-55.0	-70.9	3.8	1.49e+00	0	32	104	0	75	23391
2026-01-02 01:57:02.87	25.77	10.72	-55.0	-70.9	3.8	1.49e+00	0	33	104	0	75	23457
2026-01-02 01:57:03.87	25.72	10.81	-55.0	-70.9	3.8	1.49e+00	0	32	104	0	75	23447
2026-01-02 01:57:04.87	25.67	10.89	-55.0	-70.9	3.8	1.49e+00	0	32	104	0	75	23501
2026-01-02 01:57:05.87	25.63	10.98	-55.0	-70.9	3.8	1.49e+00	0	32	104	0	75	23562
2026-01-02 01:57:06.88	25.58	11.07	-55.0	-71.0	3.8	1.49e+00	0	33	104	0	75	23597
2026-01-02 01:57:07.88	25.53	11.15	-55.0	-71.0	3.8	1.49e+00	0	33	104	0	75	23585
2026-01-02 01:57:08.87	25.48	11.24	-55.0	-70.9	3.8	1.49e+00	0	32	104	0	75	23567
2026-01-02 01:57:09.88	25.43	11.33	-55.0	-70.9	3.8	1.49e+00	0	32	104	0	75	23565
2026-01-02 01:57:10.87	25.38	11.42	-55.0	-70.9	3.8	1.49e+00	0	32	104	0	75	23572
2026-01-02 01:57:11.88	25.32	11.51	-55.0	-71.0	3.8	1.49e+00	0	32	104	0	75	23609
2026-01-02 01:57:12.88	25.27	11.59	-55.0	-71.0	3.8	1.49e+00	0	32	104	0	75	23615
2026-01-02 01:57:13.88	25.22	11.68	-55.0	-71.0	3.8	1.49e+00	0	32	104	0	75	23595
2026-01-02 01:57:14.88	25.17	11.77	-55.0	-71.0	3.8	1.49e+00	0	32	104	0	75	23598
2026-01-02 01:57:15.88	25.12	11.86	-55.0	-71.0	3.8	1.49e+00	0	33	104	0	75	23586
2026-01-02 01:57:16.88	25.07	11.95	-55.0	-70.9	3.8	1.49e+00	0	32	104	0	75	23560
2026-01-02 01:57:17.88	25.01	12.04	-55.0	-70.9	3.8	1.49e+00	0	32	104	0	75	23534
2026-01-02 01:57:18.88	24.96	12.13	-55.0	-70.9	3.8	1.49e+00	0	32	104	0	75	23551
2026-01-02 01:57:19.87	24.91	12.22	-55.0	-70.9	3.8	1.49e+00	0	32	104	0	75	23524
2026-01-02 01:57:20.87	24.85	12.32	-55.0	-70.9	3.8	1.49e+00	0	32	104	0	75	23526
2026-01-02 01:57:21.87	24.80	12.41	-55.0	-70.9	3.8	1.49e+00	0	32	104	0	75	23484
2026-01-02 01:57:22.88	24.74	12.50	-55.0	-70.9	3.8	1.49e+00	0	33	104	0	75	23498
2026-01-02 01:57:23.87	24.69	12.59	-55.0	-70.9	3.8	1.49e+00	0	32	104	0	75	23544
2026-01-02 01:57:24.88	24.63	12.68	-55.0	-70.9	3.8	1.49e+00	0	32	104	0	75	23474
2026-01-02 01:57:25.87	24.58	12.78	-55.0	-70.9	3.8	1.49e+00	0	32	104	0	75	23507
2026-01-02 01:57:26.87	24.52	12.87	-55.0	-70.9	3.8	1.49e+00	0	33	104	0	75	23500
2026-01-02 01:57:27.86	24.46	12.96	-55.0	-70.9	3.8	1.49e+00	0	32	104	0	75	23498
2026-01-02 01:57:28.85	24.41	13.05	-55.0	-70.9	3.8	1.49e+00	0	32	104	0	75	23531
2026-01-02 01:57:29.84	24.35	13.15	-55.0	-70.9	3.8	1.49e+00	0	32	104	0	75	23493
2026-01-02 01:57:30.84	24.29	13.24	-55.0	-70.9	3.8	1.49e+00	0	33	104	0	75	23496
2026-01-02 01:57:31.84	24.24	13.34	-55.0	-70.9	3.8	1.49e+00	0	33	104	0	75	23489
2026-01-02 01:57:32.84	24.18	13.43	-55.0	-70.9	3.8	1.49e+00	0	32	104	0	75	23568
2026-01-02 01:57:33.84	24.12	13.53	-55.0	-70.9	3.8	1.49e+00	0	33	104	0	75	23581
2026-01-02 01:57:34.84	24.06	13.62	-55.0	-70.9	3.8	1.49e+00	0	32	104	0	75	23557
2026-01-02 01:57:35.83	24.00	13.72	-55.0	-71.0	3.8	1.49e+00	0	32	104	0	75	23602
2026-01-02 01:57:36.83	23.94	13.82	-55.0	-71.0	3.8	1.49e+00	0	33	104	0	75	23602
2026-01-02 01:57:37.82	23.88	13.91	-55.0	-70.9	3.8	1.49e+00	0	33	104	0	75	23565
2026-01-02 01:57:38.83	23.82	14.01	-55.0	-70.9	3.8	1.49e+00	0	33	104	0	75	23538
2026-01-02 01:57:39.82	23.76	14.11	-55.0	-71.0	3.8	1.49e+00	0	33	104	0	75	23582
2026-01-02 01:57:40.82	23.70	14.20	-55.0	-70.9	3.8	1.49e+00	0	33	104	0	75	23549
2026-01-02 01:57:41.83	23.63	14.30	-55.0	-70.9	3.8	1.49e+00	0	33	104	0	75	23568
2026-01-02 01:57:42.83	23.57	14.40	-55.0	-71.0	3.8	1.49e+00	0	33	104	0	75	23624
2026-01-02 01:57:43.83	23.51	14.50	-55.0	-71.0	3.8	1.49e+00	0	33	104	0	75	23585
2026-01-02 01:57:44.82	23.44	14.60	-55.0	-71.0	3.8	1.49e+00	0	33	104	0	75	23617
2026-01-02 01:57:45.82	23.38	14.70	-55.0	-70.9	3.8	1.49e+00	0	33	104	0	75	23562
2026-01-02 01:57:46.82	23.32	14.80	-55.0	-71.0	3.8	1.49e+00	0	33	104	0	75	23613
2026-01-02 01:57:47.82	23.25	14.90	-55.0	-71.0	3.8	1.49e+00	0	32	104	0	75	23605
2026-01-02 01:57:48.83	23.18	15.00	-55.0	-71.0	3.8	1.49e+00	0	33	104	0	75	23670
2026-01-02 01:57:49.83	23.12	15.10	-55.0	-70.9	3.8	1.49e+00	0	32	104	0	75	23561
2026-01-02 01:57:50.84	23.05	15.21	-55.0	-71.0	3.8	1.49e+00	0	33	104	0	75	23593
2026-01-02 01:57:51.83	22.99	15.31	-55.0	-71.0	3.8	1.49e+00	0	33	104	0	75	23601
2026-01-02 01:57:52.83	22.92	15.41	-55.0	-71.0	3.8	1.49e+00	0	33	104	0	75	23590
2026-01-02 01:57:53.83	22.85	15.51	-55.0	-71.0	3.8	1.49e+00	0	33	104	0	75	23590
2026-01-02 01:57:54.84	22.78	15.62	-55.0	-71.0	3.8	1.49e+00	0	33	104	0	75	23582
2026-01-02 01:57:55.83	22.71	15.72	-55.0	-70.9	3.8	1.49e+00	0	33	104	0	75	23565
2026-01-02 01:57:56.84	22.64	15.82	-55.0	-70.9	3.8	1.49e+00	0	33	104	0	75	23489
2026-01-02 01:57:57.84	22.57	15.93	-55.0	-70.9	3.8	1.49e+00	0	32	104	0	75	23563
2026-01-02 01:57:58.84	22.50	16.03	-55.0	-70.9	3.8	1.49e+00	0	33	104	0	75	23528
2026-01-02 01:57:59.84	22.43	16.14	-55.0	-70.9	3.8	1.49e+00	0	33	104	0	75	23568
2026-01-02 01:58:00.84	22.36	16.24	-55.0	-70.9	3.8	1.49e+00	0	32	104	0	75	23478
2026-01-02 01:58:01.85	22.29	16.35	-55.0	-70.9	3.8	1.49e+00	0	33	104	0	75	23481
2026-01-02 01:58:02.85	22.22	16.46	-55.0	-70.9	3.8	1.49e+00	0	33	104	0	75	23479
2026-01-02 01:58:03.85	22.14	16.56	-55.0	-70.9	3.8	1.49e+00	0	33	104	0	75	23477
2026-01-02 01:58:04.85	22.07	16.67	-55.0	-70.9	3.8	1.49e+00	0	33	104	0	75	23464
2026-01-02 01:58:05.85	21.99	16.78	-55.0	-70.9	3.8	1.49e+00	0	33	104	0	75	23437
2026-01-02 01:58:06.85	21.92	16.89	-55.0	-70.9	3.8	1.49e+00	0	33	104	0	75	23423
2026-01-02 01:58:07.85	21.84	17.00	-55.0	-70.9	3.8	1.49e+00	0	33	104	0	75	23373
2026-01-02 01:58:08.85	21.77	17.11	-55.0	-70.9	3.8	1.49e+00	0	33	104	0	75	23368
2026-01-02 01:58:09.86	21.69	17.22	-55.0	-70.9	3.8	1.49e+00	0	33	104	0	75	23352
2026-01-02 01:58:10.86	21.61	17.33	-55.0	-70.9	3.8	1.49e+00	0	33	104	0	75	23363
2026-01-02 01:58:11.86	21.54	17.44	-55.0	-70.9	3.8	1.49e+00	0	33	104	0	75	23338
2026-01-02 01:58:12.87	21.46	17.55	-55.0	-70.9	3.8	1.49e+00	0	32	104	0	75	23318
2026-01-02 01:58:13.87	21.38	17.66	-55.0	-70.9	3.8	1.49e+00	0	33	104	0	75	23426
2026-01-02 01:58:14.87	21.30	17.77	-55.0	-70.9	3.8	1.49e+00	0	33	104	0	75	23402
2026-01-02 01:58:15.87	21.22	17.88	-55.0	-70.9	3.8	1.49e+00	0	33	104	0	75	23457
2026-01-02 01:58:16.87	21.14	17.99	-55.0	-70.9	3.8	1.49e+00	0	33	104	0	75	23475
2026-01-02 01:58:17.88	21.06	18.11	-55.0	-70.9	3.8	1.49e+00	0	33	104	0	75	23513
2026-01-02 01:58:18.88	20.97	18.22	-55.0	-70.9	3.8	1.49e+00	0	33	104	0	75	23539
2026-01-02 01:58:19.88	20.89	18.34	-55.0	-70.9	3.8	1.49e+00	0	33	104	0	75	23542
2026-01-02 01:58:20.88	20.81	18.45	-55.0	-70.9	3.8	1.49e+00	0	33	104	0	75	23535
2026-01-02 01:58:21.88	20.73	18.57	-55.0	-71.0	3.8	1.49e+00	0	33	104	0	75	23612
2026-01-02 01:58:22.88	20.64	18.68	-55.0	-70.9	3.8	1.49e+00	0	33	104	0	75	23577
2026-01-02 01:58:23.88	20.56	18.80	-55.0	-70.9	3.8	1.49e+00	0	33	104	0	75	23561
2026-01-02 01:58:24.89	20.47	18.91	-55.0	-70.9	3.8	1.49e+00	0	33	104	0	75	23559
2026-01-02 01:58:25.89	20.38	19.03	-55.0	-71.0	3.8	1.49e+00	0	33	104	0	75	23587
2026-01-02 01:58:26.88	20.30	19.15	-55.0	-70.9	3.8	1.49e+00	0	33	104	0	75	23575
2026-01-02 01:58:27.89	20.21	19.27	-55.0	-70.9	3.8	1.49e+00	0	33	104	0	75	23565
2026-01-02 01:58:28.88	20.12	19.38	-55.0	-70.9	3.8	1.49e+00	0	33	104	0	75	23552
2026-01-02 01:58:29.88	20.03	19.50	-55.0	-70.9	3.8	1.49e+00	0	33	104	0	75	23547
2026-01-02 01:58:30.89	19.94	19.62	-55.0	-71.0	3.8	1.49e+00	0	33	104	0	75	23625
2026-01-02 01:58:31.89	19.85	19.74	-55.0	-71.0	3.8	1.49e+00	0	33	104	0	75	23643
2026-01-02 01:58:32.88	19.76	19.86	-55.0	-71.0	3.8	1.49e+00	0	33	104	0	75	23624
2026-01-02 01:58:33.88	19.66	19.98	-55.0	-71.0	3.8	1.49e+00	0	33	104	0	75	23623
2026-01-02 01:58:34.89	19.57	20.10	-55.0	-71.0	3.8	1.49e+00	0	33	104	0	75	23593
2026-01-02 01:58:35.88	19.48	20.22	-55.0	-70.9	3.8	1.49e+00	0	33	104	0	75	23570
2026-01-02 01:58:36.88	19.38	20.35	-55.0	-70.9	3.8	1.49e+00	0	33	104	0	75	23573
2026-01-02 01:58:37.88	19.29	20.47	-55.0	-71.0	3.8	1.49e+00	0	33	104	0	75	23607
2026-01-02 01:58:38.88	19.19	20.59	-55.0	-71.0	3.8	1.49e+00	0	33	104	0	75	23683
2026-01-02 01:58:39.87	19.09	20.71	-55.0	-70.9	3.8	1.49e+00	0	33	104	0	75	23581
2026-01-02 01:58:40.87	19.00	20.84	-55.0	-71.0	3.8	1.49e+00	0	33	104	0	75	23623
2026-01-02 01:58:41.87	18.90	20.96	-55.0	-71.0	3.8	1.49e+00	0	33	104	0	75	23596
2026-01-02 01:58:42.87	18.80	21.09	-55.0	-70.9	3.8	1.49e+00	0	33	104	0	75	23520
2026-01-02 01:58:43.87	18.70	21.22	-55.0	-71.0	3.8	1.49e+00	0	33	104	0	75	23628
2026-01-02 01:58:44.88	18.60	21.34	-55.0	-70.9	3.8	1.49e+00	0	33	104	0	75	23580
2026-01-02 01:58:45.88	18.49	21.47	-55.0	-71.0	3.8	1.49e+00	0	33	104	0	75	23614
2026-01-02 01:58:46.87	18.39	21.60	-55.0	-71.0	3.8	1.49e+00	0	33	104	0	75	23619
2026-01-02 01:58:47.88	18.29	21.73	-55.0	-71.0	3.8	1.49e+00	0	33	104	0	75	23597
2026-01-02 01:58:48.87	18.18	21.85	-55.0	-71.0	3.8	1.49e+00	0	33	104	0	75	23628
2026-01-02 01:58:49.87	18.08	21.98	-55.0	-71.0	3.8	1.49e+00	0	33	104	0	75	23582
2026-01-02 01:58:50.88	17.97	22.11	-55.0	-71.0	3.8	1.49e+00	0	33	104	0	75	23591
2026-01-02 01:58:51.88	17.86	22.24	-55.0	-71.0	3.8	1.49e+00	0	33	104	0	75	23582
2026-01-02 01:58:52.88	17.75	22.37	-55.0	-71.0	3.8	1.49e+00	0	33	104	0	75	23589
2026-01-02 01:58:53.89	17.64	22.51	-55.0	-71.0	3.8	1.49e+00	0	33	104	0	75	23613
2026-01-02 01:58:54.88	17.53	22.64	-55.0	-70.9	3.8	1.49e+00	0	33	104	0	75	23573
2026-01-02 01:58:55.88	17.42	22.77	-55.0	-71.0	3.8	1.49e+00	0	33	104	0	75	23600
2026-01-02 01:58:56.88	17.31	22.90	-55.0	-70.9	3.8	1.49e+00	0	33	104	0	75	23570
2026-01-02 01:58:57.88	17.20	23.04	-55.0	-70.9	3.8	1.49e+00	0	33	104	0	75	23538
2026-01-02 01:58:58.87	17.08	23.17	-55.0	-71.0	3.8	1.49e+00	0	33	104	0	75	23620
2026-01-02 01:58:59.87	16.97	23.30	-55.0	-71.0	3.8	1.49e+00	0	33	104	0	75	23607
2026-01-02 01:59:00.87	16.85	23.44	-55.0	-71.0	3.8	1.49e+00	0	33	104	0	75	23680
2026-01-02 01:59:01.86	16.74	23.57	-55.0	-70.9	3.8	1.49e+00	0	33	104	0	75	23552
2026-01-02 01:59:02.86	16.62	23.71	-55.0	-71.0	3.8	1.49e+00	0	33	104	0	75	23609
2026-01-02 01:59:03.86	16.50	23.85	-55.0	-71.0	3.8	1.49e+00	0	33	104	0	75	23654
2026-01-02 01:59:04.86	16.38	23.98	-55.0	-70.9	3.8	1.49e+00	0	33	104	0	75	23574
2026-01-02 01:59:05.86	16.26	24.12	-55.0	-71.0	3.8	1.49e+00	0	33	104	0	75	23628
2026-01-02 01:59:06.87	16.13	24.26	-55.0	-71.0	3.8	1.49e+00	0	33	104	0	75	23645
2026-01-02 01:59:07.87	16.01	24.40	-55.0	-71.0	3.8	1.49e+00	0	33	104	0	75	23618
2026-01-02 01:59:08.86	15.88	24.54	-55.0	-71.0	3.8	1.49e+00	0	33	104	0	75	23613
2026-01-02 01:59:09.86	15.76	24.68	-55.0	-71.0	3.8	1.49e+00	0	33	104	0	75	23641
2026-01-02 01:59:10.86	15.63	24.82	-55.0	-70.9	3.8	1.49e+00	0	33	104	0	75	23554
2026-01-02 01:59:11.86	15.50	24.96	-55.0	-70.9	3.8	1.49e+00	0	33	104	0	75	23562
2026-01-02 01:59:12.86	15.37	25.11	-55.0	-70.9	3.8	1.49e+00	0	33	104	0	75	23565
2026-01-02 01:59:13.86	15.24	25.25	-55.0	-71.0	3.8	1.49e+00	0	33	104	0	75	23622
2026-01-02 01:59:14.86	15.11	25.39	-55.0	-71.0	3.8	1.49e+00	0	33	104	0	75	23586
2026-01-02 01:59:15.86	14.98	25.54	-55.0	-70.9	3.8	1.49e+00	0	33	104	0	75	23571
2026-01-02 01:59:16.87	14.84	25.68	-55.0	-71.0	3.8	1.49e+00	0	33	104	0	75	23597
2026-01-02 01:59:17.87	14.70	25.83	-55.0	-70.9	3.8	1.49e+00	0	33	104	0	75	23577
2026-01-02 01:59:18.87	14.57	25.97	-55.0	-70.9	3.8	1.49e+00	0	33	104	0	75	23580
2026-01-02 01:59:19.87	14.43	26.12	-55.0	-71.0	3.8	1.49e+00	0	33	104	0	75	23586
2026-01-02 01:59:20.88	14.29	26.27	-55.0	-71.0	3.8	1.49e+00	0	33	104	0	75	23590
2026-01-02 01:59:21.88	14.15	26.42	-55.0	-71.0	3.8	1.49e+00	0	33	104	0	75	23644
2026-01-02 01:59:22.88	14.00	26.57	-55.0	-70.9	3.8	1.49e+00	0	33	104	0	75	23569
2026-01-02 01:59:23.88	13.86	26.71	-55.0	-70.9	3.8	1.49e+00	0	33	104	0	75	23565
2026-01-02 01:59:24.88	13.71	26.86	-55.0	-71.0	3.8	1.49e+00	0	33	104	0	75	23659
2026-01-02 01:59:25.88	13.57	27.01	-55.0	-71.0	3.8	1.49e+00	0	33	104	0	75	23628
2026-01-02 01:59:26.87	13.42	27.16	-55.0	-71.0	3.8	1.49e+00	0	33	104	0	75	23585
2026-01-02 01:59:27.87	13.27	27.32	-55.0	-71.0	3.8	1.49e+00	0	33	104	0	75	23626
2026-01-02 01:59:28.87	13.12	27.47	-55.0	-71.0	3.8	1.49e+00	0	33	104	0	75	23661
2026-01-02 01:59:29.86	12.97	27.62	-55.0	-71.0	3.8	1.49e+00	0	33	104	0	75	23611
2026-01-02 01:59:30.86	12.81	27.77	-55.0	-70.9	3.8	1.49e+00	0	33	104	0	75	23575
2026-01-02 01:59:31.85	12.66	27.93	-55.0	-71.0	3.8	1.49e+00	0	33	104	0	75	23647
2026-01-02 01:59:32.85	12.50	28.08	-55.0	-71.0	3.8	1.49e+00	0	33	104	0	75	23724
2026-01-02 01:59:33.85	12.34	28.24	-55.0	-71.0	3.8	1.49e+00	0	33	104	0	75	23582
2026-01-02 01:59:34.84	12.19	28.39	-55.0	-71.0	3.8	1.49e+00	0	33	104	0	75	23602
2026-01-02 01:59:35.85	12.02	28.55	-55.0	-70.9	3.8	1.49e+00	0	33	104	0	75	23579
2026-01-02 01:59:36.86	11.86	28.71	-55.0	-71.0	3.8	1.49e+00	0	33	104	0	75	23621
2026-01-02 01:59:37.85	11.69	28.86	-55.0	-71.0	3.8	1.49e+00	0	33	104	0	75	23658
2026-01-02 01:59:38.85	11.53	29.02	-55.0	-71.0	3.8	1.49e+00	0	33	104	0	75	23647
2026-01-02 01:59:39.85	11.36	29.18	-55.0	-71.0	3.8	1.49e+00	0	33	104	0	75	23628
2026-01-02 01:59:40.85	11.19	29.34	-55.0	-71.0	3.9	1.49e+00	0	33	104	0	75	23629
2026-01-02 01:59:41.86	11.01	29.50	-55.0	-71.0	3.8	1.49e+00	0	33	104	0	75	23653
2026-01-02 01:59:42.87	10.84	29.66	-55.0	-70.9	3.8	1.49e+00	0	33	104	0	75	23579
2026-01-02 01:59:43.86	10.67	29.82	-55.0	-71.0	3.8	1.49e+00	0	33	104	0	75	23657
2026-01-02 01:59:44.86	10.49	29.99	-55.0	-71.0	3.8	1.49e+00	0	33	104	0	75	23681
2026-01-02 01:59:45.86	10.31	30.15	-55.0	-71.0	3.8	1.49e+00	0	33	104	0	75	23613
2026-01-02 01:59:46.86	10.13	30.31	-55.0	-71.0	3.8	1.49e+00	0	33	104	0	75	23596
2026-01-02 01:59:47.85	9.95	30.47	-55.0	-71.0	3.8	1.49e+00	0	33	104	0	75	23617
2026-01-02 01:59:48.85	9.76	30.64	-55.0	-71.0	3.8	1.49e+00	0	33	104	0	75	23612
2026-01-02 01:59:49.85	9.58	30.80	-55.0	-71.0	3.8	1.49e+00	0	33	104	0	75	23640
2026-01-02 01:59:50.84	9.39	30.97	-55.0	-71.0	3.8	1.49e+00	0	33	104	0	75	23619
2026-01-02 01:59:51.85	9.20	31.14	-55.0	-71.0	3.8	1.49e+00	0	33	104	0	75	23680
2026-01-02 01:59:52.84	9.01	31.30	-55.0	-71.0	3.8	1.49e+00	0	33	104	0	75	23614
2026-01-02 01:59:53.84	8.81	31.47	-55.0	-71.0	3.8	1.49e+00	0	33	104	0	75	23610
2026-01-02 01:59:54.84	8.61	31.64	-55.0	-71.0	3.8	1.49e+00	0	33	104	0	75	23617
2026-01-02 01:59:55.84	8.42	31.80	-55.0	-71.0	3.8	1.49e+00	0	33	104	0	75	23627
2026-01-02 01:59:56.84	8.22	31.97	-55.0	-71.0	3.8	1.49e+00	0	33	104	0	75	23674
2026-01-02 01:59:57.85	8.01	32.14	-55.0	-71.0	3.8	1.49e+00	0	33	104	0	75	23594
2026-01-02 01:59:58.85	7.81	32.32	-55.0	-71.0	3.8	1.49e+00	0	33	104	0	75	23636
2026-01-02 01:59:59.86	7.60	32.49	-55.0	-71.0	3.9	1.49e+00	0	33	104	0	75	23635
2026-01-02 02:00:00.86	7.39	32.66	-55.0	-71.0	3.8	1.49e+00	0	33	104	0	75	23646
2026-01-02 02:00:01.87	7.17	32.83	-55.0	-71.0	3.8	1.49e+00	0	33	104	0	75	23621
2026-01-02 02:00:02.86	6.96	33.00	-55.0	-71.0	3.8	1.49e+00	0	33	104	0	75	23644
2026-01-02 02:00:03.86	6.74	33.18	-55.0	-71.0	3.8	1.49e+00	0	33	104	0	75	23612
2026-01-02 02:00:04.86	6.52	33.35	-55.0	-71.0	3.8	1.49e+00	0	33	104	0	75	23639
2026-01-02 02:00:05.86	6.30	33.52	-55.0	-71.0	3.8	1.49e+00	0	33	104	0	75	23626
2026-01-02 02:00:06.86	6.08	33.70	-55.0	-71.0	3.8	1.49e+00	0	33	104	0	75	23684
2026-01-02 02:00:07.86	5.85	33.87	-55.0	-71.0	3.8	1.49e+00	0	33	104	0	75	23616
2026-01-02 02:00:08.86	5.62	34.05	-55.0	-71.0	3.8	1.49e+00	0	33	104	0	75	23636
2026-01-02 02:00:09.87	5.39	34.23	-55.0	-71.0	3.8	1.49e+00	0	33	104	0	75	23624
2026-01-02 02:00:10.87	5.16	34.40	-55.0	-71.0	3.8	1.49e+00	0	33	104	0	75	23659
2026-01-02 02:00:11.88	4.92	34.58	-55.0	-71.0	3.8	1.49e+00	0	33	104	0	75	23628
2026-01-02 02:00:12.87	4.68	34.76	-55.0	-71.0	3.8	1.49e+00	0	33	104	0	75	23595
2026-01-02 02:00:13.87	4.44	34.93	-55.0	-71.0	3.8	1.49e+00	0	33	104	0	75	23655
2026-01-02 02:00:14.87	4.20	35.11	-55.0	-71.0	3.8	1.49e+00	0	33	104	0	75	23669
2026-01-02 02:00:15.87	3.95	35.29	-55.0	-71.0	3.8	1.49e+00	0	33	104	0	75	23617
2026-01-02 02:00:16.87	3.70	35.47	-55.1	-71.0	3.9	1.49e+00	0	33	104	0	75	23625
2026-01-02 02:00:17.87	3.45	35.65	-55.0	-71.0	3.8	1.49e+00	0	33	104	0	75	23655
2026-01-02 02:00:18.87	3.19	35.83	-55.0	-71.0	3.8	1.49e+00	0	33	104	0	75	23650
2026-01-02 02:00:19.87	2.93	36.01	-55.0	-71.0	3.8	1.49e+00	0	33	104	0	75	23625
2026-01-02 02:00:20.87	2.67	36.19	-55.0	-71.0	3.8	1.49e+00	0	33	104	0	75	23712
2026-01-02 02:00:21.87	2.41	36.37	-55.0	-71.0	3.8	1.49e+00	0	33	104	0	75	23720
2026-01-02 02:00:22.87	2.14	36.55	-55.0	-71.0	3.9	1.49e+00	0	33	104	0	75	23643
2026-01-02 02:00:23.86	1.87	36.73	-55.0	-71.0	3.8	1.49e+00	0	33	104	0	75	23653
2026-01-02 02:00:24.87	1.60	36.91	-55.0	-71.0	3.8	1.49e+00	0	33	104	0	75	23718
2026-01-02 02:00:25.87	1.32	37.09	-55.0	-71.0	3.8	1.49e+00	0	33	104	0	75	23712
2026-01-02 02:00:26.87	1.04	37.28	-55.0	-71.0	3.8	1.49e+00	0	33	104	0	75	23675
2026-01-02 02:00:27.87	0.76	37.46	-55.0	-71.0	3.8	1.49e+00	0	33	104	0	75	23630
2026-01-02 02:00:28.87	0.47	37.64	-55.0	-71.0	3.8	1.49e+00	0	33	104	0	75	23607
2026-01-02 02:00:29.87	0.19	37.82	-55.0	-71.0	3.8	1.49e+00	0	33	104	0	75	23590
2026-01-02 02:00:30.87	359.89	38.01	-55.0	-71.0	3.8	1.49e+00	0	33	104	0	75	23679
2026-01-02 02:00:31.86	359.60	38.19	-55.0	-71.0	3.8	1.49e+00	0	33	104	0	75	23669
2026-01-02 02:00:32.86	359.30	38.37	-55.0	-71.0	3.8	1.49e+00	0	33	104	0	75	23655
2026-01-02 02:00:33.86	359.00	38.55	-55.0	-71.0	3.8	1.49e+00	0	33	104	0	75	23639
2026-01-02 02:00:34.85	358.70	38.73	-55.0	-71.0	3.8	1.49e+00	0	33	104	0	75	23643
2026-01-02 02:00:35.85	358.39	38.92	-55.0	-71.0	3.8	1.49e+00	0	33	104	0	75	23666
2026-01-02 02:00:36.84	358.08	39.10	-55.0	-71.0	3.8	1.49e+00	0	33	104	0	75	23646
2026-01-02 02:00:37.84	357.76	39.28	-55.0	-71.0	3.8	1.49e+00	0	33	104	0	75	23683
2026-01-02 02:00:38.84	357.44	39.46	-55.0	-71.0	3.8	1.49e+00	0	33	104	0	75	23605
2026-01-02 02:00:39.83	357.12	39.64	-55.0	-71.0	3.8	1.49e+00	0	33	104	0	75	23621
2026-01-02 02:00:40.82	356.80	39.83	-55.0	-71.0	3.8	1.49e+00	0	33	104	0	75	23690
2026-01-02 02:00:41.82	356.47	40.01	-55.0	-71.0	3.8	1.49e+00	0	33	104	0	75	23621
2026-01-02 02:00:42.82	356.13	40.19	-55.0	-71.0	3.8	1.49e+00	0	33	104	0	75	23627
2026-01-02 02:00:43.82	355.79	40.37	-55.0	-71.0	3.8	1.49e+00	0	33	104	0	75	23663
2026-01-02 02:00:44.82	355.45	40.56	-55.0	-71.0	3.8	1.49e+00	0	33	104	0	75	23646
2026-01-02 02:00:45.82	355.10	40.74	-55.0	-71.0	3.8	1.49e+00	0	33	104	0	75	23635
2026-01-02 02:00:46.83	354.75	40.92	-55.0	-71.0	3.8	1.49e+00	0	33	104	0	75	23657
2026-01-02 02:00:47.83	354.40	41.10	-55.0	-71.0	3.8	1.49e+00	0	33	104	0	75	23634
2026-01-02 02:00:48.83	354.04	41.28	-55.0	-71.0	3.8	1.49e+00	0	33	104	0	75	23621
2026-01-02 02:00:49.82	353.68	41.46	-55.0	-71.0	3.8	1.49e+00	0	33	104	0	75	23671
2026-01-02 02:00:50.82	353.31	41.64	-55.0	-70.9	3.8	1.49e+00	0	33	104	0	75	23560
2026-01-02 02:00:51.83	352.94	41.82	-55.0	-70.9	3.8	1.49e+00	0	33	104	0	75	23555
2026-01-02 02:00:52.83	352.56	42.00	-55.0	-71.0	3.8	1.49e+00	0	33	104	0	75	23582
2026-01-02 02:00:53.82	352.19	42.18	-55.0	-71.0	3.8	1.49e+00	0	33	104	0	75	23625
2026-01-02 02:00:54.82	351.80	42.36	-55.0	-71.0	3.8	1.49e+00	0	33	104	0	75	23636
2026-01-02 02:00:55.83	351.41	42.54	-55.0	-71.0	3.8	1.49e+00	0	33	104	0	75	23607
2026-01-02 02:00:56.83	351.02	42.71	-55.0	-70.9	3.8	1.49e+00	0	33	104	0	75	23578
2026-01-02 02:00:57.83	350.62	42.89	-55.0	-71.0	3.8	1.49e+00	0	33	104	0	75	23630
2026-01-02 02:00:58.84	350.22	43.07	-55.0	-71.0	3.8	1.49e+00	0	33	104	0	75	23652
2026-01-02 02:00:59.84	349.81	43.24	-55.0	-71.0	3.8	1.49e+00	0	33	104	0	75	23626
2026-01-02 02:01:00.84	349.40	43.41	-55.0	-71.0	3.8	1.49e+00	0	33	104	0	75	23602
2026-01-02 02:01:01.84	348.99	43.59	-55.0	-70.9	3.8	1.49e+00	0	33	104	0	75	23574
2026-01-02 02:01:02.84	348.57	43.76	-55.0	-71.0	3.8	1.49e+00	0	33	104	0	75	23665
2026-01-02 02:01:03.84	348.15	43.93	-55.0	-71.0	3.8	1.49e+00	0	33	104	0	75	23591
2026-01-02 02:01:04.84	347.72	44.10	-55.0	-71.0	3.8	1.49e+00	0	33	104	0	75	23605
2026-01-02 02:01:05.84	347.29	44.27	-55.0	-71.0	3.8	1.49e+00	0	33	104	0	75	23639
2026-01-02 02:01:06.83	346.86	44.43	-55.0	-71.0	3.8	1.49e+00	0	33	104	0	75	23629
2026-01-02 02:01:07.83	346.41	44.60	-55.0	-71.0	3.8	1.49e+00	0	33	104	0	75	23602
2026-01-02 02:01:08.84	345.96	44.77	-55.0	-71.0	3.8	1.49e+00	0	33	104	0	75	23668
2026-01-02 02:01:09.83	345.52	44.93	-55.0	-71.0	3.8	1.49e+00	0	33	104	0	75	23618
2026-01-02 02:01:10.84	345.06	45.09	-55.0	-71.0	3.8	1.49e+00	0	33	104	0	75	23607
2026-01-02 02:01:11.84	344.60	45.26	-55.0	-71.0	3.8	1.49e+00	0	33	104	0	75	23610
2026-01-02 02:01:12.85	344.13	45.42	-55.0	-71.0	3.8	1.49e+00	0	33	104	0	75	23628
2026-01-02 02:01:13.84	343.66	45.57	-55.0	-71.0	3.8	1.49e+00	0	33	104	0	75	23613
2026-01-02 02:01:14.84	343.19	45.73	-55.0	-71.0	3.8	1.49e+00	0	33	104	0	75	23640
2026-01-02 02:01:15.84	342.71	45.89	-55.0	-70.9	3.8	1.49e+00	0	33	104	0	75	23554
2026-01-02 02:01:16.84	342.22	46.04	-55.0	-71.0	3.8	1.49e+00	0	33	104	0	75	23601
2026-01-02 02:01:17.85	341.73	46.19	-55.0	-71.0	3.8	1.49e+00	0	33	104	0	75	23626
2026-01-02 02:01:18.85	341.24	46.34	-55.0	-71.0	3.8	1.49e+00	0	33	104	0	75	23691
2026-01-02 02:01:19.84	340.74	46.49	-55.0	-71.0	3.8	1.49e+00	0	33	104	0	75	23635
2026-01-02 02:01:20.85	340.23	46.64	-55.0	-71.0	3.8	1.49e+00	0	33	104	0	75	23655
2026-01-02 02:01:21.85	339.73	46.78	-55.0	-71.0	3.8	1.49e+00	0	33	104	0	75	23585
2026-01-02 02:01:22.85	339.21	46.92	-55.0	-71.0	3.8	1.49e+00	0	33	104	0	75	23636
2026-01-02 02:01:23.85	338.70	47.06	-55.0	-71.0	3.8	1.49e+00	0	33	104	0	75	23600
2026-01-02 02:01:24.85	338.17	47.20	-55.0	-71.0	3.8	1.49e+00	0	33	104	0	75	23606
2026-01-02 02:01:25.85	337.65	47.34	-55.0	-71.0	3.8	1.49e+00	0	33	104	0	75	23660
2026-01-02 02:01:26.85	337.12	47.47	-55.0	-71.0	3.8	1.49e+00	0	33	104	0	75	23660
2026-01-02 02:01:27.85	336.58	47.60	-55.0	-71.0	3.8	1.49e+00	0	33	104	0	75	23650
2026-01-02 02:01:28.86	336.04	47.73	-55.0	-71.0	3.8	1.49e+00	0	33	104	0	75	23616
2026-01-02 02:01:29.86	335.49	47.86	-55.0	-71.0	3.8	1.49e+00	0	33	104	0	75	23611
2026-01-02 02:01:30.86	334.94	47.98	-55.0	-71.0	3.8	1.49e+00	0	33	104	0	75	23681
2026-01-02 02:01:31.87	334.38	48.11	-55.0	-71.0	3.8	1.49e+00	0	33	104	0	75	23623
2026-01-02 02:01:32.87	333.82	48.23	-55.0	-71.0	3.8	1.49e+00	0	33	104	0	75	23627
2026-01-02 02:01:33.87	333.26	48.34	-55.0	-71.0	3.8	1.49e+00	0	33	104	0	75	23590
2026-01-02 02:01:34.87	332.69	48.46	-55.0	-71.0	3.8	1.49e+00	0	33	104	0	75	23674
2026-01-02 02:01:35.86	332.13	48.56	-55.0	-71.0	3.8	1.49e+00	0	33	104	0	75	23629
2026-01-02 02:01:36.86	331.56	48.67	-55.0	-71.0	3.8	1.49e+00	0	33	104	0	75	23597
2026-01-02 02:01:37.87	330.97	48.78	-55.0	-71.0	3.8	1.49e+00	0	33	104	0	75	23603
2026-01-02 02:01:38.87	330.39	48.88	-55.0	-71.0	3.8	1.49e+00	0	33	104	0	75	23657
2026-01-02 02:01:39.86	329.81	48.98	-55.0	-71.0	3.8	1.49e+00	0	33	104	0	75	23627
2026-01-02 02:01:40.86	329.22	49.08	-55.0	-71.0	3.8	1.49e+00	0	33	104	0	75	23614
2026-01-02 02:01:41.85	328.63	49.17	-55.0	-71.0	3.8	1.49e+00	0	33	104	0	75	23657
2026-01-02 02:01:42.84	328.04	49.26	-55.0	-71.0	3.8	1.49e+00	0	33	104	0	75	23670
2026-01-02 02:01:43.84	327.44	49.34	-55.0	-71.0	3.8	1.49e+00	0	33	104	0	75	23642
2026-01-02 02:01:44.84	326.83	49.43	-55.0	-71.0	3.8	1.49e+00	0	33	104	0	75	23638
2026-01-02 02:01:45.83	326.23	49.51	-55.0	-71.0	3.8	1.49e+00	0	33	104	0	75	23685
2026-01-02 02:01:46.83	325.62	49.58	-55.0	-71.0	3.9	1.49e+00	0	33	104	0	75	23633
2026-01-02 02:01:47.84	325.00	49.66	-55.0	-70.9	3.8	1.49e+00	0	33	104	0	75	23574
2026-01-02 02:01:48.84	324.38	49.73	-55.0	-71.0	3.8	1.49e+00	0	33	104	0	75	23593
2026-01-02 02:01:49.84	323.76	49.79	-55.0	-71.0	3.8	1.49e+00	0	33	104	0	75	23614
2026-01-02 02:01:50.85	323.13	49.86	-55.0	-71.0	3.8	1.49e+00	0	33	104	0	75	23650
2026-01-02 02:01:51.84	322.52	49.92	-55.0	-71.0	3.8	1.49e+00	0	33	104	0	75	23641
2026-01-02 02:01:52.83	321.89	49.97	-55.0	-71.0	3.8	1.49e+00	0	33	104	0	75	23632
2026-01-02 02:01:53.83	321.27	50.03	-55.0	-71.0	3.8	1.49e+00	0	33	104	0	75	23607
2026-01-02 02:01:54.83	320.63	50.07	-55.0	-71.0	3.8	1.49e+00	0	33	104	0	75	23645
2026-01-02 02:01:55.83	320.00	50.12	-55.0	-71.0	3.8	1.49e+00	0	33	104	0	75	23673
2026-01-02 02:01:56.84	319.36	50.16	-55.0	-71.0	3.8	1.49e+00	0	33	104	0	75	23652
2026-01-02 02:01:57.83	318.73	50.20	-55.0	-71.0	3.8	1.49e+00	0	33	104	0	75	23657
2026-01-02 02:01:58.84	318.08	50.23	-55.0	-71.0	3.8	1.49e+00	0	33	104	0	75	23593
2026-01-02 02:01:59.84	317.44	50.26	-55.0	-71.0	3.8	1.49e+00	0	33	104	0	75	23662
2026-01-02 02:02:00.84	316.80	50.29	-55.0	-71.0	3.8	1.49e+00	0	33	104	0	75	23632
2026-01-02 02:02:01.85	316.15	50.31	-55.0	-71.0	3.8	1.49e+00	0	33	104	0	75	23644
2026-01-02 02:02:02.85	315.51	50.33	-55.0	-71.0	3.8	1.49e+00	0	33	104	0	75	23663
2026-01-02 02:02:03.85	314.87	50.35	-55.1	-71.0	3.8	1.49e+00	0	33	104	0	75	23652
2026-01-02 02:02:04.85	314.22	50.36	-55.0	-71.0	3.8	1.49e+00	0	33	104	0	75	23653
2026-01-02 02:02:05.86	313.57	50.36	-55.0	-71.0	3.8	1.49e+00	0	33	104	0	75	23651
2026-01-02 02:02:06.86	312.93	50.37	-55.0	-71.0	3.8	1.49e+00	0	33	104	0	75	23637
2026-01-02 02:02:07.85	312.29	50.37	-55.0	-71.0	3.8	1.49e+00	0	33	104	0	75	23602
2026-01-02 02:02:08.85	311.64	50.36	-55.0	-71.0	3.8	1.49e+00	0	33	104	0	75	23668
2026-01-02 02:02:09.85	311.00	50.35	-55.0	-71.0	3.8	1.49e+00	0	33	104	0	75	23674
2026-01-02 02:02:10.85	310.35	50.34	-55.0	-71.0	3.8	1.49e+00	0	33	104	0	75	23633
2026-01-02 02:02:11.86	309.70	50.33	-55.0	-71.0	3.8	1.49e+00	0	33	104	0	75	23655
2026-01-02 02:02:12.86	309.06	50.31	-55.0	-71.0	3.8	1.49e+00	0	33	104	0	75	23648
2026-01-02 02:02:13.86	308.42	50.28	-55.1	-71.0	3.8	1.49e+00	0	33	104	0	75	23637
2026-01-02 02:02:14.85	307.78	50.25	-55.0	-71.0	3.8	1.49e+00	0	33	104	0	75	23635
2026-01-02 02:02:15.85	307.14	50.22	-55.0	-71.0	3.8	1.49e+00	0	33	104	0	75	23650
2026-01-02 02:02:16.85	306.50	50.19	-55.0	-71.0	3.8	1.49e+00	0	33	104	0	75	23620
2026-01-02 02:02:17.85	305.87	50.15	-55.0	-71.0	3.8	1.49e+00	0	33	104	0	75	23677
2026-01-02 02:02:18.85	305.23	50.11	-55.0	-71.0	3.8	1.49e+00	0	33	104	0	75	23592
2026-01-02 02:02:19.86	304.59	50.06	-55.0	-71.0	3.8	1.49e+00	0	33	104	0	75	23684
2026-01-02 02:02:20.86	303.96	50.01	-55.0	-71.0	3.8	1.49e+00	0	33	104	0	75	23602
2026-01-02 02:02:21.85	303.34	49.96	-55.0	-71.0	3.8	1.49e+00	0	33	104	0	75	23638
2026-01-02 02:02:22.85	302.71	49.90	-55.0	-71.0	3.9	1.49e+00	0	33	104	0	75	23622
2026-01-02 02:02:23.86	302.08	49.84	-55.0	-71.0	3.8	1.49e+00	0	33	104	0	75	23637
2026-01-02 02:02:24.86	301.46	49.78	-55.0	-71.0	3.8	1.49e+00	0	33	104	0	75	23687
2026-01-02 02:02:25.86	300.84	49.71	-55.0	-71.0	3.8	1.49e+00	0	33	104	0	75	23670
2026-01-02 02:02:26.86	300.22	49.64	-55.0	-71.0	3.8	1.49e+00	0	33	104	0	75	23663
2026-01-02 02:02:27.85	299.62	49.56	-55.0	-71.0	3.8	1.49e+00	0	33	104	0	75	23706
2026-01-02 02:02:28.86	299.00	49.48	-55.0	-71.0	3.8	1.49e+00	0	33	104	0	75	23608
2026-01-02 02:02:29.86	298.39	49.40	-55.1	-71.0	3.8	1.49e+00	0	33	104	0	75	23632
2026-01-02 02:02:30.86	297.79	49.32	-55.0	-71.0	3.8	1.49e+00	0	33	104	0	75	23671
2026-01-02 02:02:31.87	297.18	49.23	-55.0	-71.0	3.8	1.49e+00	0	33	104	0	75	23658
2026-01-02 02:02:32.87	296.59	49.14	-55.0	-71.0	3.8	1.49e+00	0	33	104	0	75	23674
2026-01-02 02:02:33.87	295.99	49.04	-55.0	-71.0	3.8	1.49e+00	0	33	104	0	75	23650
2026-01-02 02:02:34.87	295.40	48.95	-55.0	-71.0	3.8	1.49e+00	0	33	104	0	75	23657
2026-01-02 02:02:35.87	294.82	48.85	-55.0	-71.0	3.8	1.49e+00	0	33	104	0	75	23626
2026-01-02 02:02:36.86	294.24	48.74	-55.0	-71.0	3.8	1.49e+00	0	33	104	0	75	23688
2026-01-02 02:02:37.86	293.66	48.64	-55.0	-71.0	3.8	1.49e+00	0	33	104	0	75	23668
2026-01-02 02:02:38.85	293.09	48.53	-55.0	-71.0	3.8	1.49e+00	0	33	104	0	75	23695
2026-01-02 02:02:39.84	292.53	48.42	-55.0	-71.0	3.8	1.49e+00	0	33	104	0	75	23699
2026-01-02 02:02:40.84	291.96	48.31	-55.0	-71.0	3.8	1.49e+00	0	33	104	0	75	23686
2026-01-02 02:02:41.84	291.40	48.19	-55.0	-71.0	3.8	1.49e+00	0	33	104	0	75	23634
2026-01-02 02:02:42.84	290.85	48.07	-55.0	-71.0	3.8	1.49e+00	0	33	104	0	75	23656
2026-01-02 02:02:43.83	290.30	47.95	-55.0	-71.0	3.8	1.49e+00	0	33	104	0	75	23663
2026-01-02 02:02:44.83	289.75	47.82	-55.0	-71.0	3.8	1.49e+00	0	33	104	0	75	23638
2026-01-02 02:02:45.83	289.21	47.69	-55.0	-70.9	3.8	1.49e+00	0	33	104	0	75	23562
2026-01-02 02:02:46.83	288.67	47.57	-55.0	-71.0	3.8	1.49e+00	0	33	104	0	75	23637
2026-01-02 02:02:47.83	288.13	47.43	-55.0	-71.0	3.8	1.49e+00	0	33	104	0	75	23655
2026-01-02 02:02:48.83	287.60	47.30	-55.0	-71.0	3.8	1.49e+00	0	33	104	0	75	23590
2026-01-02 02:02:49.82	287.08	47.16	-55.0	-71.0	3.8	1.49e+00	0	33	104	0	75	23705
2026-01-02 02:02:50.82	286.56	47.02	-55.0	-71.0	3.8	1.49e+00	0	33	104	0	75	23600
2026-01-02 02:02:51.83	286.04	46.88	-55.0	-71.0	3.8	1.49e+00	0	33	104	0	75	23599
2026-01-02 02:02:52.82	285.53	46.74	-55.0	-71.0	3.8	1.49e+00	0	33	104	0	75	23629
2026-01-02 02:02:53.83	285.02	46.59	-55.0	-71.0	3.8	1.49e+00	0	33	104	0	75	23655
2026-01-02 02:02:54.82	284.52	46.45	-55.0	-71.0	3.8	1.49e+00	0	33	104	0	75	23598
2026-01-02 02:02:55.83	284.02	46.30	-55.0	-71.0	3.8	1.49e+00	0	33	104	0	75	23670
2026-01-02 02:02:56.83	283.52	46.15	-55.0	-71.0	3.8	1.49e+00	0	33	104	0	75	23631
2026-01-02 02:02:57.82	283.04	46.00	-55.0	-71.0	3.8	1.49e+00	0	33	104	0	75	23653
2026-01-02 02:02:58.82	282.56	45.84	-55.0	-71.0	3.8	1.49e+00	0	33	104	0	75	23617
2026-01-02 02:02:59.81	282.08	45.69	-55.0	-71.0	3.8	1.49e+00	0	33	104	0	75	23701
2026-01-02 02:03:00.81	281.61	45.53	-55.0	-71.0	3.8	1.49e+00	0	33	104	0	75	23633
2026-01-02 02:03:01.82	281.13	45.37	-55.0	-71.0	3.8	1.49e+00	0	33	104	0	75	23635
2026-01-02 02:03:02.81	280.67	45.21	-55.0	-71.0	3.8	1.49e+00	0	33	104	0	75	23623
2026-01-02 02:03:03.81	280.21	45.05	-55.0	-71.0	3.8	1.49e+00	0	33	104	0	75	23621
2026-01-02 02:03:04.81	279.76	44.89	-55.0	-70.9	3.8	1.49e+00	0	33	104	0	75	23577
2026-01-02 02:03:05.81	279.31	44.72	-55.0	-71.0	3.8	1.49e+00	0	33	104	0	75	23608
2026-01-02 02:03:06.81	278.86	44.55	-55.0	-71.0	3.8	1.49e+00	0	33	104	0	75	23641
2026-01-02 02:03:07.81	278.42	44.39	-55.0	-70.9	3.8	1.49e+00	0	33	104	0	75	23571
2026-01-02 02:03:08.81	277.98	44.22	-55.0	-71.0	3.8	1.49e+00	0	33	104	0	75	23596
2026-01-02 02:03:09.81	277.55	44.05	-55.0	-71.0	3.8	1.49e+00	0	33	104	0	75	23626
2026-01-02 02:03:10.80	277.13	43.88	-55.0	-71.0	3.8	1.49e+00	0	33	104	0	75	23606
2026-01-02 02:03:11.80	276.71	43.71	-55.0	-71.0	3.8	1.49e+00	0	33	104	0	75	23605
2026-01-02 02:03:12.80	276.29	43.54	-55.0	-71.0	3.8	1.49e+00	0	33	104	0	75	23660
2026-01-02 02:03:13.80	275.87	43.36	-55.0	-71.0	3.8	1.49e+00	0	33	104	0	75	23628
2026-01-02 02:03:14.80	275.47	43.19	-55.0	-71.0	3.8	1.49e+00	0	33	104	0	75	23618
2026-01-02 02:03:15.80	275.06	43.01	-55.0	-71.0	3.8	1.49e+00	0	33	104	0	75	23615
2026-01-02 02:03:16.79	274.66	42.84	-55.1	-71.0	3.8	1.49e+00	0	33	104	0	75	23656
2026-01-02 02:03:17.79	274.27	42.66	-55.0	-71.0	3.8	1.49e+00	0	33	104	0	75	23663
2026-01-02 02:03:18.79	273.88	42.49	-55.0	-71.0	3.8	1.49e+00	0	33	104	0	75	23719
2026-01-02 02:03:19.79	273.49	42.31	-55.0	-71.0	3.8	1.49e+00	0	33	104	0	75	23612
2026-01-02 02:03:20.79	273.11	42.13	-55.0	-71.0	3.8	1.49e+00	0	33	104	0	75	23588
2026-01-02 02:03:21.79	272.73	41.95	-55.0	-71.0	3.8	1.49e+00	0	33	104	0	75	23649
2026-01-02 02:03:22.79	272.35	41.77	-55.0	-71.0	3.8	1.49e+00	0	33	104	0	75	23591
2026-01-02 02:03:23.79	271.98	41.59	-55.0	-70.9	3.8	1.49e+00	0	33	104	0	75	23577
2026-01-02 02:03:24.78	271.62	41.41	-55.0	-71.0	3.8	1.49e+00	0	33	104	0	75	23612
2026-01-02 02:03:25.78	271.26	41.23	-55.0	-71.0	3.8	1.49e+00	0	33	104	0	75	23677
2026-01-02 02:03:26.79	270.90	41.05	-55.0	-71.0	3.8	1.49e+00	0	33	104	0	75	23624
2026-01-02 02:03:27.79	270.54	40.87	-55.0	-71.0	3.9	1.49e+00	0	33	104	0	75	23631
2026-01-02 02:03:28.79	270.19	40.68	-55.0	-71.0	3.8	1.49e+00	0	33	104	0	75	23635
2026-01-02 02:03:29.79	269.84	40.50	-55.0	-71.0	3.8	1.49e+00	0	33	104	0	75	23632
2026-01-02 02:03:30.80	269.50	40.32	-55.0	-71.0	3.8	1.49e+00	0	33	104	0	75	23656
2026-01-02 02:03:31.80	269.16	40.14	-55.0	-71.0	3.8	1.49e+00	0	33	104	0	75	23647
2026-01-02 02:03:32.80	268.83	39.95	-55.0	-71.0	3.8	1.49e+00	0	33	104	0	75	23608
2026-01-02 02:03:33.79	268.50	39.77	-55.0	-71.0	3.8	1.49e+00	0	33	104	0	75	23633
2026-01-02 02:03:34.79	268.17	39.59	-55.1	-71.0	3.8	1.49e+00	0	33	104	0	75	23678
2026-01-02 02:03:35.79	267.85	39.40	-55.0	-71.0	3.8	1.49e+00	0	33	104	0	75	23604
2026-01-02 02:03:36.78	267.53	39.22	-55.0	-71.0	3.8	1.49e+00	0	33	104	0	75	23626
2026-01-02 02:03:37.78	267.22	39.04	-55.0	-71.0	3.8	1.49e+00	0	33	104	0	75	23612
2026-01-02 02:03:38.79	266.90	38.85	-55.0	-71.0	3.8	1.49e+00	0	33	104	0	75	23590
2026-01-02 02:03:39.79	266.59	38.67	-55.0	-71.0	3.8	1.49e+00	0	33	104	0	75	23675
2026-01-02 02:03:40.78	266.29	38.49	-55.1	-71.0	3.8	1.49e+00	0	33	104	0	75	23673
2026-01-02 02:03:41.78	265.99	38.31	-55.0	-71.0	3.8	1.49e+00	0	33	104	0	75	23684
2026-01-02 02:03:42.78	265.69	38.12	-55.0	-71.0	3.8	1.49e+00	0	33	104	0	75	23617
2026-01-02 02:03:43.77	265.39	37.94	-55.0	-71.0	3.8	1.49e+00	0	33	104	0	75	23591
2026-01-02 02:03:44.77	265.10	37.76	-55.0	-71.0	3.8	1.49e+00	0	33	104	0	75	23635
2026-01-02 02:03:45.77	264.81	37.57	-55.0	-71.0	3.8	1.49e+00	0	33	104	0	75	23674
2026-01-02 02:03:46.78	264.53	37.39	-55.0	-71.0	3.8	1.49e+00	0	33	104	0	75	23649
2026-01-02 02:03:47.79	264.24	37.21	-55.0	-71.0	3.8	1.49e+00	0	33	104	0	75	23723
2026-01-02 02:03:48.78	263.96	37.03	-55.0	-71.0	3.8	1.49e+00	0	33	104	0	75	23672
2026-01-02 02:03:49.77	263.69	36.85	-55.0	-71.0	3.8	1.49e+00	0	33	104	0	75	23635
2026-01-02 02:03:50.77	263.42	36.66	-55.0	-71.0	3.9	1.49e+00	0	33	104	0	75	23643
2026-01-02 02:03:51.77	263.15	36.48	-55.0	-71.0	3.8	1.49e+00	0	33	104	0	75	23659
2026-01-02 02:03:52.77	262.88	36.30	-55.0	-71.0	3.8	1.49e+00	0	33	104	0	75	23652
2026-01-02 02:03:53.77	262.62	36.12	-55.1	-71.0	3.8	1.49e+00	0	33	104	0	75	23621
2026-01-02 02:03:54.76	262.36	35.94	-55.0	-71.0	3.8	1.49e+00	0	33	104	0	75	23710
2026-01-02 02:03:55.76	262.10	35.76	-55.1	-71.0	3.8	1.49e+00	0	33	104	0	75	23634
2026-01-02 02:03:56.76	261.85	35.58	-55.0	-71.0	3.8	1.49e+00	0	33	104	0	75	23598
2026-01-02 02:03:57.77	261.59	35.40	-55.0	-71.0	3.8	1.49e+00	0	33	104	0	75	23592
2026-01-02 02:03:58.77	261.34	35.22	-55.0	-71.0	3.8	1.49e+00	0	33	104	0	75	23683
2026-01-02 02:03:59.76	261.10	35.04	-55.0	-71.0	3.8	1.49e+00	0	33	104	0	75	23597
2026-01-02 02:04:00.76	260.85	34.86	-55.0	-71.0	3.8	1.49e+00	0	33	104	0	75	23676
2026-01-02 02:04:01.76	260.61	34.69	-55.0	-71.0	3.8	1.49e+00	0	33	104	0	75	23668
2026-01-02 02:04:02.77	260.37	34.51	-55.0	-71.0	3.8	1.49e+00	0	33	104	0	75	23615
2026-01-02 02:04:03.77	260.13	34.33	-55.0	-71.0	3.8	1.49e+00	0	33	104	0	75	23629
2026-01-02 02:04:04.78	259.90	34.15	-55.0	-71.0	3.8	1.49e+00	0	33	104	0	75	23670
2026-01-02 02:04:05.77	259.67	33.98	-55.1	-71.0	3.8	1.49e+00	0	33	104	0	75	23663
2026-01-02 02:04:06.78	259.44	33.80	-55.1	-71.0	3.8	1.49e+00	0	33	104	0	75	23682
2026-01-02 02:04:07.78	259.21	33.62	-55.0	-71.0	3.8	1.49e+00	0	33	104	0	75	23691
2026-01-02 02:04:08.78	258.99	33.45	-55.0	-71.0	3.8	1.49e+00	0	33	104	0	75	23649
2026-01-02 02:04:09.78	258.77	33.28	-55.0	-71.0	3.8	1.49e+00	0	33	104	0	75	23621
2026-01-02 02:04:10.78	258.55	33.10	-55.0	-71.0	3.8	1.49e+00	0	33	104	0	75	23659
2026-01-02 02:04:11.78	258.33	32.93	-55.1	-71.0	3.8	1.49e+00	0	33	104	0	75	23647
2026-01-02 02:04:12.77	258.12	32.76	-55.0	-71.0	3.8	1.49e+00	0	33	104	0	75	23647
2026-01-02 02:04:13.78	257.91	32.58	-55.0	-71.0	3.8	1.49e+00	0	33	104	0	75	23637
2026-01-02 02:04:14.77	257.70	32.41	-55.0	-71.0	3.8	1.49e+00	0	33	104	0	75	23696
2026-01-02 02:04:15.76	257.49	32.24	-55.1	-71.0	3.8	1.49e+00	0	33	104	0	75	23708
2026-01-02 02:04:16.77	257.29	32.07	-55.0	-71.1	3.8	1.49e+00	0	33	104	0	75	23857
2026-01-02 02:04:17.77	257.08	31.90	-55.0	-71.0	3.8	1.49e+00	0	33	104	0	75	23624
2026-01-02 02:04:18.77	256.88	31.73	-55.0	-71.0	3.8	1.49e+00	0	33	104	0	75	23613
2026-01-02 02:04:19.77	256.68	31.56	-55.0	-71.0	3.8	1.49e+00	0	33	104	0	75	23648
2026-01-02 02:04:20.76	256.49	31.40	-55.0	-71.0	3.8	1.49e+00	0	33	104	0	75	23599
2026-01-02 02:04:21.77	256.29	31.23	-55.1	-71.0	3.8	1.49e+00	0	33	104	0	75	23627
2026-01-02 02:04:22.77	256.10	31.06	-55.0	-71.0	3.8	1.49e+00	0	33	104	0	75	23615
2026-01-02 02:04:23.77	255.91	30.89	-55.0	-71.0	3.8	1.49e+00	0	33	104	0	75	23629
2026-01-02 02:04:24.77	255.72	30.73	-55.0	-71.0	3.8	1.49e+00	0	33	104	0	75	23666
2026-01-02 02:04:25.78	255.53	30.56	-55.0	-71.0	3.8	1.49e+00	0	33	104	0	75	23651
2026-01-02 02:04:26.79	255.35	30.39	-55.0	-71.0	3.8	1.49e+00	0	33	104	0	75	23715
2026-01-02 02:04:27.79	255.16	30.23	-55.0	-71.0	3.8	1.49e+00	0	33	104	0	75	23612
2026-01-02 02:04:28.79	254.98	30.07	-55.0	-71.0	3.8	1.49e+00	0	33	104	0	75	23661
2026-01-02 02:04:29.79	254.80	29.90	-55.0	-71.0	3.8	1.49e+00	0	33	104	0	75	23626
2026-01-02 02:04:30.79	254.63	29.74	-55.0	-71.0	3.8	1.49e+00	0	33	104	0	75	23622
2026-01-02 02:04:31.78	254.45	29.58	-55.0	-71.0	3.8	1.49e+00	0	33	104	0	75	23646
2026-01-02 02:04:32.78	254.28	29.42	-55.0	-71.0	3.8	1.49e+00	0	33	104	0	75	23688
2026-01-02 02:04:33.78	254.11	29.26	-55.0	-71.0	3.8	1.49e+00	0	33	104	0	75	23611
2026-01-02 02:04:34.78	253.94	29.10	-55.0	-71.0	3.8	1.49e+00	0	33	104	0	75	23664
2026-01-02 02:04:35.78	253.77	28.94	-55.0	-71.0	3.8	1.49e+00	0	33	104	0	75	23696
2026-01-02 02:04:36.78	253.60	28.78	-55.0	-71.0	3.8	1.49e+00	0	33	104	0	75	23641
2026-01-02 02:04:37.77	253.44	28.63	-55.0	-71.0	3.8	1.49e+00	0	33	104	0	75	23673
2026-01-02 02:04:38.77	253.27	28.47	-55.1	-71.0	3.8	1.49e+00	0	33	104	0	75	23647
2026-01-02 02:04:39.77	253.11	28.31	-55.0	-71.0	3.8	1.49e+00	0	33	104	0	75	23675
2026-01-02 02:04:40.77	252.95	28.16	-55.1	-71.0	3.8	1.49e+00	0	33	104	0	75	23586
2026-01-02 02:04:41.77	252.79	28.00	-55.0	-71.0	3.8	1.49e+00	0	33	104	0	75	23708
2026-01-02 02:04:42.77	252.64	27.85	-55.1	-71.0	3.8	1.49e+00	0	33	104	0	75	23630
2026-01-02 02:04:43.77	252.48	27.69	-55.0	-71.0	3.8	1.49e+00	0	33	104	0	75	23670
2026-01-02 02:04:44.77	252.33	27.54	-55.1	-70.9	3.8	1.49e+00	0	33	104	0	75	23576
2026-01-02 02:04:45.77	252.17	27.38	-55.0	-71.0	3.8	1.49e+00	0	33	104	0	75	23609
2026-01-02 02:04:46.76	252.02	27.23	-55.0	-71.0	3.8	1.49e+00	0	33	104	0	75	23613
2026-01-02 02:04:47.76	251.87	27.08	-55.0	-71.0	3.8	1.49e+00	0	33	104	0	75	23644
2026-01-02 02:04:48.76	251.73	26.93	-55.1	-71.0	3.8	1.49e+00	0	33	104	0	75	23643
2026-01-02 02:04:49.75	251.58	26.78	-55.0	-71.0	3.9	1.49e+00	0	33	104	0	75	23615
2026-01-02 02:04:50.74	251.44	26.63	-55.0	-71.0	3.8	1.49e+00	0	33	104	0	75	23634
2026-01-02 02:04:51.74	251.29	26.48	-55.0	-71.0	3.8	1.49e+00	0	33	104	0	75	23643
2026-01-02 02:04:52.75	251.15	26.33	-55.1	-71.0	3.8	1.49e+00	0	33	104	0	75	23710
2026-01-02 02:04:53.75	251.01	26.19	-55.1	-71.0	3.8	1.49e+00	0	33	104	0	75	23742
2026-01-02 02:04:54.75	250.87	26.04	-55.1	-71.0	3.8	1.49e+00	0	33	104	0	75	23630
2026-01-02 02:04:55.75	250.73	25.89	-55.0	-71.0	3.8	1.49e+00	0	33	104	0	75	23617
2026-01-02 02:04:56.75	250.59	25.74	-55.0	-71.0	3.8	1.49e+00	0	33	104	0	75	23640
2026-01-02 02:04:57.74	250.46	25.60	-55.0	-71.0	3.8	1.49e+00	0	33	104	0	75	23667
2026-01-02 02:04:58.74	250.32	25.46	-55.1	-71.0	3.8	1.49e+00	0	33	104	0	75	23694
2026-01-02 02:04:59.75	250.19	25.31	-55.1	-71.0	3.8	1.49e+00	0	33	104	0	75	23609
2026-01-02 02:05:00.74	250.05	25.17	-55.1	-71.0	3.8	1.49e+00	0	33	104	0	75	23664
2026-01-02 02:05:01.74	249.92	25.02	-55.1	-71.0	3.8	1.49e+00	0	33	104	0	75	23656
2026-01-02 02:05:02.75	249.79	24.88	-55.1	-71.0	3.8	1.49e+00	0	33	104	0	75	23630
2026-01-02 02:05:03.75	249.66	24.74	-55.0	-71.0	3.8	1.49e+00	0	33	104	0	75	23639
2026-01-02 02:05:04.74	249.54	24.60	-55.0	-71.0	3.8	1.49e+00	0	33	104	0	75	23650
2026-01-02 02:05:05.74	249.41	24.46	-55.0	-71.0	3.8	1.49e+00	0	33	104	0	75	23610
2026-01-02 02:05:06.74	249.29	24.32	-55.0	-71.0	3.8	1.49e+00	0	33	104	0	75	23694
2026-01-02 02:05:07.74	249.16	24.18	-55.0	-71.0	3.8	1.49e+00	0	33	104	0	75	23654
2026-01-02 02:05:08.74	249.04	24.04	-55.0	-71.0	3.8	1.49e+00	0	33	104	0	75	23646
2026-01-02 02:05:09.75	248.92	23.90	-55.0	-71.0	3.8	1.49e+00	0	33	104	0	75	23676
2026-01-02 02:05:10.75	248.79	23.76	-55.1	-71.0	3.8	1.49e+00	0	33	104	0	75	23633
2026-01-02 02:05:11.75	248.67	23.62	-55.0	-71.0	3.8	1.49e+00	0	33	104	0	75	23697
2026-01-02 02:05:12.74	248.56	23.49	-55.0	-71.0	3.8	1.49e+00	0	33	104	0	75	23711
2026-01-02 02:05:13.74	248.44	23.35	-55.0	-71.0	3.8	1.49e+00	0	33	104	0	75	23682
2026-01-02 02:05:14.74	248.32	23.22	-55.1	-71.0	3.8	1.49e+00	0	33	104	0	75	23647
2026-01-02 02:05:15.74	248.21	23.08	-55.0	-71.0	3.8	1.49e+00	0	33	104	0	75	23665
2026-01-02 02:05:16.74	248.09	22.95	-55.0	-71.0	3.8	1.49e+00	0	33	104	0	75	23656
2026-01-02 02:05:17.74	247.98	22.81	-55.1	-71.0	3.8	1.49e+00	0	33	104	0	75	23648
2026-01-02 02:05:18.74	247.87	22.68	-55.0	-71.0	3.8	1.49e+00	0	33	104	0	75	23691
2026-01-02 02:05:19.75	247.75	22.55	-55.0	-71.0	3.8	1.49e+00	0	33	104	0	75	23638
2026-01-02 02:05:20.75	247.64	22.42	-55.0	-71.0	3.8	1.49e+00	0	33	104	0	75	23709
2026-01-02 02:05:21.75	247.53	22.28	-55.1	-71.0	3.8	1.49e+00	0	33	104	0	75	23644
2026-01-02 02:05:22.75	247.43	22.15	-55.1	-71.0	3.8	1.49e+00	0	33	104	0	75	23690
2026-01-02 02:05:23.74	247.32	22.02	-55.1	-71.0	3.8	1.49e+00	0	33	104	0	75	23661
2026-01-02 02:05:24.74	247.21	21.89	-55.0	-71.0	3.8	1.49e+00	0	33	104	0	75	23683
2026-01-02 02:05:25.75	247.11	21.76	-55.1	-71.0	3.8	1.49e+00	0	33	104	0	75	23717
2026-01-02 02:05:26.75	247.00	21.63	-55.0	-71.0	3.8	1.49e+00	0	33	104	0	75	23593
2026-01-02 02:05:27.75	246.90	21.51	-55.0	-71.0	3.8	1.49e+00	0	33	104	0	75	23647
2026-01-02 02:05:28.75	246.79	21.38	-55.0	-71.0	3.8	1.49e+00	0	33	104	0	75	23640
2026-01-02 02:05:29.75	246.69	21.25	-55.0	-71.0	3.8	1.49e+00	0	33	104	0	75	23643
2026-01-02 02:05:30.75	246.59	21.13	-55.0	-71.0	3.8	1.49e+00	0	33	104	0	75	23675
2026-01-02 02:05:31.75	246.49	21.00	-55.0	-71.0	3.8	1.49e+00	0	33	104	0	75	23649
2026-01-02 02:05:32.75	246.39	20.87	-55.0	-71.0	3.8	1.49e+00	0	33	104	0	75	23657
2026-01-02 02:05:33.76	246.29	20.75	-55.1	-71.0	3.8	1.49e+00	0	33	104	0	75	23692
2026-01-02 02:05:34.76	246.19	20.62	-55.1	-71.0	3.8	1.49e+00	0	33	104	0	75	23657
2026-01-02 02:05:35.75	246.09	20.50	-55.1	-71.0	3.8	1.49e+00	0	33	104	0	75	23699
2026-01-02 02:05:36.74	246.00	20.38	-55.1	-71.0	3.8	1.49e+00	0	33	104	0	75	23657
2026-01-02 02:05:37.74	245.90	20.26	-55.1	-71.0	3.8	1.49e+00	0	33	104	0	75	23655
2026-01-02 02:05:38.73	245.81	20.13	-55.0	-71.0	3.8	1.49e+00	0	33	104	0	75	23712
2026-01-02 02:05:39.73	245.71	20.01	-55.1	-71.0	3.8	1.49e+00	0	33	104	0	75	23646
2026-01-02 02:05:40.73	245.62	19.89	-55.1	-71.0	3.8	1.49e+00	0	33	104	0	75	23744
2026-01-02 02:05:41.74	245.53	19.77	-55.1	-71.0	3.8	1.49e+00	0	33	104	0	75	23692
2026-01-02 02:05:42.73	245.44	19.65	-55.0	-71.0	3.8	1.49e+00	0	33	104	0	75	23708
2026-01-02 02:05:43.74	245.34	19.53	-55.1	-71.0	3.8	1.49e+00	0	33	104	0	75	23736
2026-01-02 02:05:44.73	245.26	19.41	-55.1	-71.0	3.8	1.49e+00	0	33	104	0	75	23681
2026-01-02 02:05:45.72	245.17	19.29	-55.0	-71.0	3.8	1.49e+00	0	33	104	0	75	23667
2026-01-02 02:05:46.72	245.08	19.18	-55.1	-71.0	3.8	1.49e+00	0	33	104	0	75	23655
2026-01-02 02:05:47.72	244.99	19.06	-55.0	-71.0	3.8	1.49e+00	0	33	104	0	75	23647
2026-01-02 02:05:48.72	244.90	18.94	-55.0	-71.0	3.8	1.49e+00	0	33	104	0	75	23684
2026-01-02 02:05:49.72	244.81	18.82	-55.1	-71.0	3.8	1.49e+00	0	33	104	0	75	23650
2026-01-02 02:05:50.72	244.73	18.71	-55.0	-71.0	3.8	1.49e+00	0	33	104	0	75	23672
2026-01-02 02:05:51.72	244.64	18.59	-55.1	-71.0	3.8	1.49e+00	0	33	104	0	75	23679
2026-01-02 02:05:52.72	244.56	18.48	-55.0	-71.0	3.8	1.49e+00	0	33	104	0	75	23667
2026-01-02 02:05:53.72	244.47	18.36	-55.0	-71.0	3.8	1.49e+00	0	33	104	0	75	23636
2026-01-02 02:05:54.73	244.39	18.24	-55.0	-71.0	3.8	1.49e+00	0	33	104	0	75	23609
2026-01-02 02:05:55.72	244.31	18.13	-55.0	-71.0	3.8	1.49e+00	0	33	104	0	75	23592
2026-01-02 02:05:56.72	244.23	18.02	-55.0	-71.0	3.8	1.49e+00	0	33	104	0	75	23751
2026-01-02 02:05:57.73	244.14	17.90	-55.0	-71.0	3.8	1.49e+00	0	33	104	0	75	23614
2026-01-02 02:05:58.72	244.06	17.79	-55.0	-71.0	3.8	1.49e+00	0	33	104	0	75	23643
2026-01-02 02:05:59.72	243.98	17.68	-55.0	-71.0	3.8	1.49e+00	0	33	104	0	75	23614
2026-01-02 02:06:00.72	243.90	17.57	-55.0	-71.0	3.8	1.49e+00	0	33	104	0	75	23655
2026-01-02 02:06:01.72	243.82	17.46	-55.0	-71.0	3.8	1.49e+00	0	33	104	0	75	23691
2026-01-02 02:06:02.72	243.74	17.35	-55.0	-71.0	3.8	1.49e+00	0	33	104	0	75	23704
2026-01-02 02:06:03.72	243.67	17.24	-55.1	-71.0	3.8	1.49e+00	0	33	104	0	75	23710
2026-01-02 02:06:04.72	243.59	17.13	-55.1	-71.0	3.8	1.49e+00	0	33	104	0	75	23611
2026-01-02 02:06:05.72	243.51	17.02	-55.1	-71.0	3.8	1.49e+00	0	33	104	0	75	23637
2026-01-02 02:06:06.72	243.44	16.91	-55.0	-71.0	3.8	1.49e+00	0	33	104	0	75	23682
2026-01-02 02:06:07.72	243.36	16.80	-55.0	-71.0	3.8	1.49e+00	0	33	104	0	75	23676
2026-01-02 02:06:08.72	243.29	16.69	-55.0	-71.0	3.8	1.49e+00	0	33	104	0	75	23673
2026-01-02 02:06:09.72	243.21	16.58	-55.0	-71.0	3.8	1.49e+00	0	33	104	0	75	23636
2026-01-02 02:06:10.72	243.14	16.47	-55.0	-71.0	3.8	1.49e+00	0	33	104	0	75	23605
2026-01-02 02:06:11.72	243.06	16.37	-55.0	-71.0	3.8	1.49e+00	0	33	104	0	75	23600
2026-01-02 02:06:12.71	242.99	16.26	-55.0	-71.0	3.8	1.49e+00	0	33	104	0	75	23706
2026-01-02 02:06:13.72	242.92	16.15	-55.1	-71.0	3.8	1.49e+00	0	33	104	0	75	23661
2026-01-02 02:06:14.72	242.85	16.05	-55.0	-71.0	3.8	1.49e+00	0	33	104	0	75	23666
2026-01-02 02:06:15.72	242.78	15.94	-55.0	-71.0	3.8	1.49e+00	0	33	104	0	75	23670
2026-01-02 02:06:16.73	242.70	15.84	-55.0	-71.0	3.8	1.49e+00	0	33	104	0	75	23629
2026-01-02 02:06:17.73	242.63	15.73	-55.0	-71.0	3.8	1.49e+00	0	33	104	0	75	23683
2026-01-02 02:06:18.73	242.56	15.63	-55.0	-71.0	3.8	1.49e+00	0	33	104	0	75	23684
2026-01-02 02:06:19.73	242.50	15.53	-55.0	-71.0	3.8	1.49e+00	0	33	104	0	75	23605
2026-01-02 02:06:20.73	242.43	15.42	-55.1	-71.0	3.8	1.49e+00	0	33	104	0	75	23703
2026-01-02 02:06:21.73	242.36	15.32	-55.1	-71.0	3.8	1.49e+00	0	33	104	0	75	23681
2026-01-02 02:06:22.74	242.29	15.22	-55.1	-71.0	3.8	1.49e+00	0	33	104	0	75	23647
2026-01-02 02:06:23.75	242.22	15.11	-55.1	-71.0	3.8	1.49e+00	0	33	104	0	75	23643
2026-01-02 02:06:24.74	242.16	15.01	-55.0	-71.0	3.8	1.49e+00	0	33	104	0	75	23678
2026-01-02 02:06:25.75	242.09	14.91	-55.0	-71.0	3.8	1.49e+00	0	33	104	0	75	23624
2026-01-02 02:06:26.75	242.02	14.81	-55.1	-71.0	3.8	1.49e+00	0	33	104	0	75	23624
2026-01-02 02:06:27.74	241.96	14.71	-55.0	-71.0	3.8	1.49e+00	0	33	104	0	75	23659
2026-01-02 02:06:28.74	241.89	14.61	-55.0	-71.0	3.8	1.49e+00	0	33	104	0	75	23679
2026-01-02 02:06:29.75	241.83	14.51	-55.0	-71.0	3.8	1.49e+00	0	33	104	0	75	23666
2026-01-02 02:06:30.74	241.76	14.41	-55.0	-71.0	3.8	1.49e+00	0	33	104	0	75	23627
2026-01-02 02:06:31.74	241.70	14.31	-55.0	-71.0	3.8	1.49e+00	0	33	104	0	75	23656
2026-01-02 02:06:32.73	241.64	14.21	-55.1	-71.0	3.8	1.49e+00	0	33	104	0	75	23689
2026-01-02 02:06:33.73	241.58	14.11	-55.0	-71.0	3.8	1.49e+00	0	33	104	0	75	23659
2026-01-02 02:06:34.73	241.51	14.02	-55.0	-71.0	3.8	1.49e+00	0	33	104	0	75	23610
2026-01-02 02:06:35.74	241.45	13.92	-55.0	-71.0	3.8	1.49e+00	0	33	104	0	75	23630
2026-01-02 02:06:36.74	241.39	13.82	-55.0	-71.0	3.9	1.49e+00	0	33	104	0	75	23692
2026-01-02 02:06:37.73	241.33	13.72	-55.0	-71.0	3.8	1.49e+00	0	33	104	0	75	23668
2026-01-02 02:06:38.73	241.27	13.63	-55.0	-71.0	3.8	1.49e+00	0	33	104	0	75	23680
2026-01-02 02:06:39.73	241.21	13.53	-55.1	-71.0	3.8	1.49e+00	0	33	104	0	75	23712
2026-01-02 02:06:40.72	241.15	13.44	-55.1	-71.0	3.8	1.49e+00	0	33	104	0	75	23673
2026-01-02 02:06:41.72	241.09	13.34	-55.0	-71.0	3.8	1.49e+00	0	33	104	0	75	23612
2026-01-02 02:06:42.72	241.03	13.24	-55.1	-71.0	3.8	1.49e+00	0	33	104	0	75	23713
2026-01-02 02:06:43.72	240.97	13.15	-55.0	-71.0	3.8	1.49e+00	0	33	104	0	75	23650
2026-01-02 02:06:44.72	240.92	13.06	-55.0	-71.0	3.8	1.49e+00	0	33	104	0	75	23690
2026-01-02 02:06:45.72	240.86	12.96	-55.0	-71.0	3.8	1.49e+00	0	33	104	0	75	23666
2026-01-02 02:06:46.72	240.80	12.87	-55.0	-71.0	3.8	1.49e+00	0	33	104	0	75	23661
2026-01-02 02:06:47.72	240.74	12.77	-55.0	-71.0	3.8	1.49e+00	0	33	104	0	75	23652
2026-01-02 02:06:48.72	240.69	12.68	-55.0	-71.0	3.8	1.49e+00	0	33	104	0	75	23611
2026-01-02 02:06:49.72	240.63	12.59	-55.0	-71.0	3.8	1.49e+00	0	33	104	0	75	23644
2026-01-02 02:06:50.73	240.57	12.49	-55.0	-71.0	3.8	1.49e+00	0	33	104	0	75	23679
2026-01-02 02:06:51.74	240.52	12.40	-55.0	-71.0	3.8	1.49e+00	0	33	104	0	75	23642
2026-01-02 02:06:52.74	240.46	12.31	-55.0	-71.0	3.8	1.49e+00	0	33	104	0	75	23658
2026-01-02 02:06:53.74	240.41	12.22	-55.1	-71.0	3.8	1.49e+00	0	33	104	0	75	23673
2026-01-02 02:06:54.73	240.35	12.13	-55.0	-71.0	3.8	1.49e+00	0	33	104	0	75	23681
2026-01-02 02:06:55.73	240.30	12.04	-55.0	-71.0	3.8	1.49e+00	0	33	104	0	75	23608
2026-01-02 02:06:56.74	240.25	11.94	-55.0	-71.0	3.8	1.49e+00	0	33	104	0	75	23626
2026-01-02 02:06:57.73	240.19	11.85	-55.0	-71.0	3.8	1.49e+00	0	33	104	0	75	23675
2026-01-02 02:06:58.73	240.14	11.76	-55.0	-71.0	3.8	1.49e+00	0	33	104	0	75	23674
2026-01-02 02:06:59.72	240.09	11.68	-55.0	-71.0	3.8	1.49e+00	0	33	104	0	75	23678
2026-01-02 02:07:00.73	240.04	11.58	-55.0	-71.0	3.8	1.49e+00	0	33	104	0	75	23640
2026-01-02 02:07:01.73	239.98	11.50	-55.0	-71.0	3.8	1.49e+00	0	33	104	0	75	23660
2026-01-02 02:07:02.73	239.93	11.41	-55.0	-71.0	3.8	1.49e+00	0	33	104	0	75	23705
2026-01-02 02:07:03.73	239.88	11.32	-55.0	-71.0	3.8	1.49e+00	0	33	104	0	75	23678
2026-01-02 02:07:04.73	239.83	11.23	-55.0	-71.0	3.8	1.49e+00	0	33	104	0	75	23701
2026-01-02 02:07:05.73	239.78	11.14	-55.1	-71.0	3.8	1.49e+00	0	33	104	0	75	23680
2026-01-02 02:07:06.74	239.73	11.05	-55.1	-71.0	3.9	1.49e+00	0	33	104	0	75	23666
2026-01-02 02:07:07.74	239.68	10.97	-55.1	-71.0	3.8	1.49e+00	0	33	104	0	75	23689
2026-01-02 02:07:08.74	239.63	10.88	-55.1	-71.0	3.8	1.49e+00	0	33	104	0	75	23637
2026-01-02 02:07:09.74	239.58	10.79	-55.0	-71.0	3.8	1.49e+00	0	33	104	0	75	23599
2026-01-02 02:07:10.74	239.53	10.71	-55.1	-71.0	3.8	1.49e+00	0	33	104	0	75	23649
2026-01-02 02:07:11.75	239.48	10.62	-55.0	-71.0	3.8	1.49e+00	0	33	104	0	75	23712
2026-01-02 02:07:12.75	239.43	10.53	-55.0	-71.0	3.8	1.49e+00	0	33	104	0	75	23687
2026-01-02 02:07:13.74	239.38	10.45	-55.1	-71.0	3.8	1.49e+00	0	33	104	0	75	23704
2026-01-02 02:07:14.74	239.34	10.36	-55.0	-71.0	3.8	1.49e+00	0	33	104	0	75	23705
2026-01-02 02:07:15.73	239.29	10.28	-55.0	-71.0	3.8	1.49e+00	0	33	104	0	75	23678
2026-01-02 02:07:16.73	239.24	10.19	-55.0	-71.0	3.8	1.49e+00	0	33	104	0	75	23682
2026-01-02 02:07:17.72	239.20	10.11	-55.0	-71.0	3.8	1.49e+00	0	33	104	0	75	23663
2026-01-02 02:07:18.72	239.15	10.02	-55.0	-71.0	3.8	1.49e+00	0	33	104	0	75	23681
2026-01-02 02:07:19.72	239.10	9.94	-55.0	-71.0	3.8	1.49e+00	0	33	104	0	75	23691
2026-01-02 02:07:20.73	239.06	9.86	-55.0	-71.0	3.8	1.49e+00	0	33	104	0	75	23672
2026-01-02 02:07:21.74	239.01	9.77	-55.1	-71.0	3.8	1.49e+00	0	33	104	0	75	23665
2026-01-02 02:07:22.73	238.97	9.69	-55.0	-71.0	3.8	1.49e+00	0	33	104	0	75	23721
2026-01-02 02:07:23.73	238.92	9.61	-55.0	-71.0	3.8	1.49e+00	0	33	104	0	75	23633
2026-01-02 02:07:24.74	238.87	9.52	-55.0	-71.0	3.8	1.49e+00	0	33	104	0	75	23691
