passes_logs/2026/01/02/R3.2S_Murmansk/R3.2S_Murmansk__20260102_062355_NOAA_21_JPSS-2_rec.log

#Pass ID: 20260102_062355_NOAA 21 (JPSS-2)
#Satellite: NOAA 21 (JPSS-2)
#Configuration: NOAA-21
#almurnet v.1.7.20251203
#Start time: 2026-01-02 06:23:56

#Version: 2.2.20231116
#Station: R3.2S_Murmansk
#Location: 33.079688 lon 68.888172 lat
#TLE: 1 54234U 22150A   26001.12709759  .00000171  00000+0  10204-3 0  9995
#TLE: 2 54234  98.7484 302.1957 0001286 353.9379   6.1781 14.19530519162845

#Time	Az	El	Level	Level2	SNR	BER	BlckErr	Temp	State	Recorded	gain1	gain2
2026-01-02 06:23:56.62	83.09	2.09	-54.8	-68.5	3.8	1.49e+00	0	31	0	0	74	18940
2026-01-02 06:23:57.62	83.03	2.15	-54.8	-68.6	3.8	1.49e+00	0	31	104	0	74	18978
2026-01-02 06:23:58.61	82.97	2.21	-54.8	-68.5	3.8	1.49e+00	0	31	104	0	74	18934
2026-01-02 06:23:59.60	82.92	2.27	-54.8	-68.6	3.8	1.49e+00	0	31	104	0	74	18997
2026-01-02 06:24:00.60	82.86	2.33	-54.8	-68.6	3.8	1.49e+00	0	31	104	0	74	19008
2026-01-02 06:24:01.60	82.80	2.38	-54.9	-68.6	3.8	1.49e+00	0	31	104	0	74	19038
2026-01-02 06:24:02.60	82.74	2.44	-54.9	-68.6	3.8	1.49e+00	0	31	104	0	74	18958
2026-01-02 06:24:03.60	82.68	2.50	-54.9	-68.6	3.8	1.49e+00	0	31	104	0	74	18966
2026-01-02 06:24:04.59	82.62	2.56	-54.9	-68.6	3.8	1.49e+00	0	31	104	0	74	18958
2026-01-02 06:24:05.59	82.56	2.62	-54.9	-68.6	3.8	1.49e+00	0	31	104	0	74	19009
2026-01-02 06:24:06.59	82.50	2.68	-54.9	-68.6	3.8	1.49e+00	0	31	104	0	74	18952
2026-01-02 06:24:07.58	82.44	2.74	-54.9	-68.6	3.8	1.49e+00	0	31	104	0	74	19048
2026-01-02 06:24:08.59	82.38	2.80	-54.9	-68.6	3.8	1.49e+00	0	31	104	0	74	19015
2026-01-02 06:24:09.59	82.32	2.86	-54.9	-68.6	3.8	1.49e+00	0	31	104	0	74	19029
2026-01-02 06:24:10.58	82.25	2.92	-54.9	-68.6	3.8	1.49e+00	0	31	104	0	74	19056
2026-01-02 06:24:11.59	82.19	2.98	-54.9	-68.6	3.8	1.49e+00	0	31	104	0	74	19023
2026-01-02 06:24:12.60	82.13	3.04	-54.9	-68.6	3.8	1.49e+00	0	31	104	0	74	19066
2026-01-02 06:24:13.59	82.07	3.10	-54.9	-68.6	3.8	1.49e+00	0	31	104	0	74	19025
2026-01-02 06:24:14.59	82.01	3.15	-54.9	-68.6	3.8	1.49e+00	0	31	104	0	74	19049
2026-01-02 06:24:15.59	81.94	3.21	-54.9	-68.6	3.8	1.49e+00	0	31	104	0	74	19071
2026-01-02 06:24:16.59	81.88	3.27	-54.9	-68.6	3.8	1.49e+00	0	31	104	0	74	19017
2026-01-02 06:24:17.59	81.82	3.34	-54.9	-68.6	3.8	1.49e+00	0	31	104	0	74	19037
2026-01-02 06:24:18.59	81.75	3.40	-54.9	-68.6	3.8	1.49e+00	0	31	104	0	74	19037
2026-01-02 06:24:19.59	81.69	3.46	-54.9	-68.6	3.8	1.49e+00	0	31	104	0	74	18990
2026-01-02 06:24:20.58	81.63	3.52	-54.9	-68.6	3.8	1.49e+00	0	31	104	0	74	18988
2026-01-02 06:24:21.58	81.56	3.58	-54.9	-68.6	3.8	1.49e+00	0	31	104	0	74	18985
2026-01-02 06:24:22.59	81.50	3.64	-54.9	-68.6	3.8	1.49e+00	0	31	104	0	74	19049
2026-01-02 06:24:23.59	81.43	3.70	-54.9	-68.6	3.8	1.49e+00	0	31	104	0	74	19035
2026-01-02 06:24:24.59	81.37	3.76	-54.9	-68.6	3.8	1.49e+00	0	31	104	0	74	19014
2026-01-02 06:24:25.59	81.30	3.82	-54.9	-68.6	3.8	1.49e+00	0	31	104	0	74	19021
2026-01-02 06:24:26.60	81.23	3.88	-54.9	-68.6	3.8	1.49e+00	0	31	104	0	74	19081
2026-01-02 06:24:27.59	81.17	3.94	-54.9	-68.6	3.8	1.49e+00	0	31	104	0	74	19022
2026-01-02 06:24:28.58	81.10	4.00	-54.9	-68.6	3.8	1.49e+00	0	31	104	0	74	19134
2026-01-02 06:24:29.59	81.04	4.06	-54.9	-68.6	3.8	1.49e+00	0	31	104	0	74	19063
2026-01-02 06:24:30.59	80.97	4.13	-54.9	-68.6	3.8	1.49e+00	0	31	104	0	74	19051
2026-01-02 06:24:31.59	80.90	4.19	-54.9	-68.6	3.8	1.49e+00	0	31	104	0	74	19042
2026-01-02 06:24:32.59	80.83	4.25	-54.9	-68.6	3.8	1.49e+00	0	31	104	0	74	19032
2026-01-02 06:24:33.58	80.77	4.31	-54.9	-68.6	3.8	1.49e+00	0	31	104	0	74	19015
2026-01-02 06:24:34.58	80.70	4.37	-54.9	-68.6	3.8	1.49e+00	0	31	104	0	74	19029
2026-01-02 06:24:35.58	80.63	4.43	-54.9	-68.6	3.8	1.49e+00	0	31	104	0	74	19070
2026-01-02 06:24:36.58	80.56	4.50	-54.9	-68.6	3.8	1.49e+00	0	32	104	0	74	19073
2026-01-02 06:24:37.58	80.49	4.56	-54.9	-68.6	3.8	1.49e+00	0	31	104	0	74	19086
2026-01-02 06:24:38.58	80.42	4.62	-54.9	-68.6	3.8	1.49e+00	0	31	104	0	74	19061
2026-01-02 06:24:39.59	80.35	4.68	-54.9	-68.6	3.8	1.49e+00	0	31	104	0	74	19095
2026-01-02 06:24:40.59	80.28	4.75	-54.9	-68.6	3.8	1.49e+00	0	31	104	0	74	19065
2026-01-02 06:24:41.59	80.21	4.81	-54.9	-68.6	3.8	1.49e+00	0	31	104	0	74	19079
2026-01-02 06:24:42.59	80.14	4.87	-54.9	-68.6	3.8	1.49e+00	0	31	104	0	74	19131
2026-01-02 06:24:43.60	80.07	4.93	-54.9	-68.6	3.8	1.49e+00	0	31	104	0	74	19120
2026-01-02 06:24:44.59	80.00	5.00	-54.9	-68.6	3.8	1.49e+00	0	32	104	0	74	19031
2026-01-02 06:24:45.57	79.93	5.06	-54.9	-68.6	3.8	1.49e+00	0	31	104	0	74	19095
2026-01-02 06:24:46.58	79.86	5.12	-54.9	-68.6	3.8	1.49e+00	0	31	104	0	74	19072
2026-01-02 06:24:47.58	79.78	5.19	-54.9	-68.6	3.8	1.49e+00	0	31	104	0	74	19066
2026-01-02 06:24:48.57	79.71	5.25	-54.9	-68.6	3.8	1.49e+00	0	32	104	0	74	19049
2026-01-02 06:24:49.57	79.64	5.31	-54.9	-68.6	3.8	1.49e+00	0	31	104	0	74	19068
2026-01-02 06:24:50.57	79.57	5.37	-54.9	-68.6	3.8	1.49e+00	0	31	104	0	74	19085
2026-01-02 06:24:51.56	79.49	5.44	-54.9	-68.6	3.8	1.49e+00	0	31	104	0	74	19109
2026-01-02 06:24:52.56	79.42	5.50	-54.9	-68.6	3.8	1.49e+00	0	32	104	0	74	19045
2026-01-02 06:24:53.56	79.34	5.57	-54.9	-68.6	3.8	1.49e+00	0	32	104	0	74	19060
2026-01-02 06:24:54.56	79.27	5.63	-54.9	-68.6	3.8	1.49e+00	0	32	104	0	74	19078
2026-01-02 06:24:55.55	79.20	5.69	-54.9	-68.6	3.8	1.49e+00	0	32	104	0	74	19132
2026-01-02 06:24:56.55	79.12	5.76	-54.9	-68.6	3.8	1.49e+00	0	32	104	0	74	19059
2026-01-02 06:24:57.55	79.04	5.82	-54.9	-68.6	3.8	1.49e+00	0	32	104	0	74	19062
2026-01-02 06:24:58.54	78.97	5.88	-54.9	-68.6	3.8	1.49e+00	0	32	104	0	74	19057
2026-01-02 06:24:59.54	78.89	5.95	-54.9	-68.6	3.8	1.49e+00	0	32	104	0	74	19046
2026-01-02 06:25:00.54	78.82	6.01	-54.9	-68.6	3.8	1.49e+00	0	32	104	0	74	19090
2026-01-02 06:25:01.54	78.74	6.08	-54.9	-68.6	3.8	1.49e+00	0	32	104	0	74	19110
2026-01-02 06:25:02.54	78.66	6.14	-54.9	-68.6	3.8	1.49e+00	0	32	104	0	74	19088
2026-01-02 06:25:03.54	78.58	6.21	-54.9	-68.6	3.8	1.49e+00	0	32	104	0	74	19101
2026-01-02 06:25:04.53	78.51	6.27	-54.9	-68.6	3.8	1.49e+00	0	32	104	0	74	19082
2026-01-02 06:25:05.54	78.43	6.34	-54.9	-68.6	3.8	1.49e+00	0	32	104	0	74	19120
2026-01-02 06:25:06.53	78.35	6.40	-54.9	-68.6	3.8	1.49e+00	0	32	104	0	74	19078
2026-01-02 06:25:07.53	78.27	6.47	-54.9	-68.6	3.8	1.49e+00	0	32	104	0	74	19046
2026-01-02 06:25:08.52	78.19	6.53	-54.9	-68.6	3.8	1.49e+00	0	32	104	0	74	19007
2026-01-02 06:25:09.52	78.11	6.60	-54.9	-68.6	3.8	1.49e+00	0	32	104	0	74	19125
2026-01-02 06:25:10.52	78.03	6.66	-54.9	-68.6	3.8	1.49e+00	0	32	104	0	74	19126
2026-01-02 06:25:11.53	77.95	6.73	-54.9	-68.6	3.8	1.49e+00	0	32	104	0	74	19105
2026-01-02 06:25:12.53	77.87	6.80	-54.9	-68.6	3.8	1.49e+00	0	32	104	0	74	19059
2026-01-02 06:25:13.52	77.79	6.86	-54.9	-68.6	3.8	1.49e+00	0	32	104	0	74	19079
2026-01-02 06:25:14.52	77.71	6.93	-54.9	-68.6	3.8	1.49e+00	0	32	104	0	74	19118
2026-01-02 06:25:15.52	77.62	6.99	-54.9	-68.6	3.8	1.49e+00	0	32	104	0	74	19088
2026-01-02 06:25:16.52	77.54	7.06	-54.9	-68.6	3.8	1.49e+00	0	32	104	0	74	19128
2026-01-02 06:25:17.52	77.46	7.13	-54.9	-68.6	3.8	1.49e+00	0	32	104	0	74	19100
2026-01-02 06:25:18.52	77.37	7.19	-54.9	-68.6	3.8	1.49e+00	0	32	104	0	74	19110
2026-01-02 06:25:19.52	77.29	7.26	-54.9	-68.6	3.8	1.49e+00	0	32	104	0	75	18033
2026-01-02 06:25:20.52	77.21	7.33	-54.9	-68.6	3.8	1.49e+00	0	32	104	0	75	18001
2026-01-02 06:25:21.51	77.12	7.39	-54.9	-68.6	3.8	1.49e+00	0	32	104	0	75	17971
2026-01-02 06:25:22.51	77.04	7.46	-54.9	-68.6	3.8	1.49e+00	0	32	104	0	75	18051
2026-01-02 06:25:23.51	76.95	7.53	-54.9	-68.6	3.8	1.49e+00	0	32	104	0	75	18023
2026-01-02 06:25:24.50	76.87	7.60	-54.9	-68.6	3.8	1.49e+00	0	32	104	0	75	18057
2026-01-02 06:25:25.50	76.78	7.66	-54.9	-68.6	3.8	1.49e+00	0	32	104	0	75	17988
2026-01-02 06:25:26.50	76.69	7.73	-54.9	-68.6	3.8	1.49e+00	0	32	104	0	75	18086
2026-01-02 06:25:27.50	76.61	7.80	-54.9	-68.6	3.8	1.49e+00	0	32	104	0	75	17997
2026-01-02 06:25:28.50	76.52	7.87	-54.9	-68.6	3.8	1.49e+00	0	32	104	0	75	18012
2026-01-02 06:25:29.51	76.43	7.93	-54.9	-68.6	3.8	1.49e+00	0	32	104	0	75	18020
2026-01-02 06:25:30.50	76.34	8.00	-54.9	-68.6	3.8	1.49e+00	0	32	104	0	75	18074
2026-01-02 06:25:31.49	76.26	8.07	-54.9	-68.6	3.8	1.49e+00	0	32	104	0	75	18068
2026-01-02 06:25:32.49	76.17	8.14	-54.9	-68.6	3.8	1.49e+00	0	32	104	0	75	18070
2026-01-02 06:25:33.50	76.08	8.21	-54.9	-68.6	3.8	1.49e+00	0	32	104	0	75	18016
2026-01-02 06:25:34.50	75.99	8.27	-54.9	-68.6	3.8	1.49e+00	0	32	104	0	75	18047
2026-01-02 06:25:35.50	75.90	8.34	-54.9	-68.6	3.8	1.49e+00	0	32	104	0	75	18090
2026-01-02 06:25:36.50	75.81	8.41	-54.9	-68.6	3.8	1.49e+00	0	32	104	0	75	18026
2026-01-02 06:25:37.50	75.71	8.48	-54.9	-68.6	3.8	1.49e+00	0	32	104	0	75	18043
2026-01-02 06:25:38.50	75.62	8.55	-54.9	-68.6	3.8	1.49e+00	0	32	104	0	75	18050
2026-01-02 06:25:39.50	75.53	8.62	-54.9	-68.6	3.8	1.49e+00	0	32	104	0	75	18084
2026-01-02 06:25:40.49	75.44	8.69	-54.9	-68.6	3.8	1.49e+00	0	32	104	0	75	17990
2026-01-02 06:25:41.49	75.34	8.76	-54.9	-68.6	3.8	1.49e+00	0	32	104	0	75	18038
2026-01-02 06:25:42.48	75.25	8.82	-54.9	-68.6	3.8	1.49e+00	0	32	104	0	75	18073
2026-01-02 06:25:43.48	75.16	8.89	-54.9	-68.6	3.8	1.49e+00	0	32	104	0	75	18089
2026-01-02 06:25:44.47	75.06	8.96	-54.9	-68.6	3.8	1.49e+00	0	32	104	0	75	18059
2026-01-02 06:25:45.48	74.97	9.03	-54.9	-68.6	3.8	1.49e+00	0	32	104	0	75	18043
2026-01-02 06:25:46.48	74.87	9.10	-54.9	-68.6	3.8	1.49e+00	0	32	104	0	75	17976
2026-01-02 06:25:47.48	74.78	9.17	-54.9	-68.6	3.8	1.49e+00	0	32	104	0	75	18068
2026-01-02 06:25:48.47	74.68	9.24	-54.9	-68.6	3.8	1.49e+00	0	32	104	0	75	18051
2026-01-02 06:25:49.47	74.58	9.31	-54.9	-68.6	3.8	1.49e+00	0	32	104	0	75	18088
2026-01-02 06:25:50.47	74.49	9.38	-54.9	-68.6	3.8	1.49e+00	0	32	104	0	75	18049
2026-01-02 06:25:51.47	74.39	9.45	-54.9	-68.6	3.8	1.49e+00	0	32	104	0	75	18066
2026-01-02 06:25:52.47	74.29	9.52	-54.9	-68.6	3.8	1.49e+00	0	32	104	0	75	18018
2026-01-02 06:25:53.47	74.19	9.60	-54.9	-68.6	3.8	1.49e+00	0	32	104	0	75	18045
2026-01-02 06:25:54.46	74.09	9.67	-54.9	-68.7	3.8	1.49e+00	0	32	104	0	75	18101
2026-01-02 06:25:55.45	73.99	9.74	-54.9	-68.6	3.8	1.49e+00	0	32	104	0	75	18090
2026-01-02 06:25:56.45	73.89	9.81	-54.9	-68.6	3.8	1.49e+00	0	32	104	0	75	18018
2026-01-02 06:25:57.45	73.79	9.88	-54.9	-68.6	3.8	1.49e+00	0	32	104	0	75	18043
2026-01-02 06:25:58.44	73.69	9.95	-54.9	-68.6	3.8	1.49e+00	0	32	104	0	75	18032
2026-01-02 06:25:59.43	73.59	10.02	-54.9	-68.6	3.8	1.49e+00	0	32	104	0	75	18002
2026-01-02 06:26:00.43	73.49	10.09	-54.9	-68.6	3.8	1.49e+00	0	32	104	0	75	18066
2026-01-02 06:26:01.43	73.39	10.16	-54.9	-68.6	3.8	1.49e+00	0	32	104	0	75	18029
2026-01-02 06:26:02.43	73.28	10.23	-54.9	-68.6	3.8	1.49e+00	0	32	104	0	75	18038
2026-01-02 06:26:03.43	73.18	10.31	-54.9	-68.6	3.8	1.49e+00	0	32	104	0	75	17985
2026-01-02 06:26:04.42	73.08	10.38	-54.9	-68.6	3.8	1.49e+00	0	32	104	0	75	18050
2026-01-02 06:26:05.42	72.97	10.45	-54.9	-68.6	3.8	1.49e+00	0	32	104	0	75	17963
2026-01-02 06:26:06.41	72.87	10.52	-54.9	-68.6	3.8	1.49e+00	0	32	104	0	75	18026
2026-01-02 06:26:07.40	72.76	10.59	-54.9	-68.6	3.8	1.49e+00	0	32	104	0	75	18005
2026-01-02 06:26:08.41	72.65	10.66	-54.9	-68.6	3.8	1.49e+00	0	32	104	0	75	18017
2026-01-02 06:26:09.40	72.55	10.74	-54.9	-68.6	3.8	1.49e+00	0	32	104	0	75	18058
2026-01-02 06:26:10.40	72.44	10.81	-54.9	-68.6	3.8	1.49e+00	0	32	104	0	75	18057
2026-01-02 06:26:11.40	72.33	10.88	-54.9	-68.6	3.8	1.49e+00	0	32	104	0	75	18045
2026-01-02 06:26:12.40	72.22	10.95	-54.9	-68.6	3.8	1.49e+00	0	32	104	0	75	18000
2026-01-02 06:26:13.40	72.11	11.03	-54.9	-68.6	3.8	1.49e+00	0	32	104	0	75	17966
2026-01-02 06:26:14.39	72.01	11.10	-54.9	-68.6	3.8	1.49e+00	0	32	104	0	75	18027
2026-01-02 06:26:15.39	71.90	11.17	-54.9	-68.6	3.8	1.49e+00	0	32	104	0	75	18011
2026-01-02 06:26:16.39	71.78	11.25	-54.9	-68.6	3.8	1.49e+00	0	32	104	0	75	17944
2026-01-02 06:26:17.39	71.67	11.32	-54.9	-68.6	3.8	1.49e+00	0	32	104	0	75	17951
2026-01-02 06:26:18.39	71.56	11.39	-54.9	-68.6	3.8	1.49e+00	0	32	104	0	75	17926
2026-01-02 06:26:19.39	71.45	11.47	-54.9	-68.6	3.8	1.49e+00	0	32	104	0	75	17958
2026-01-02 06:26:20.39	71.33	11.54	-54.9	-68.6	3.8	1.49e+00	0	32	104	0	75	17969
2026-01-02 06:26:21.39	71.22	11.61	-54.9	-68.6	3.8	1.49e+00	0	32	104	0	75	17957
2026-01-02 06:26:22.38	71.11	11.69	-54.9	-68.6	3.8	1.49e+00	0	32	104	0	75	17936
2026-01-02 06:26:23.38	70.99	11.76	-54.9	-68.6	3.8	1.49e+00	0	32	104	0	75	17976
2026-01-02 06:26:24.38	70.88	11.84	-54.9	-68.6	3.8	1.49e+00	0	32	104	0	75	17956
2026-01-02 06:26:25.38	70.76	11.91	-54.9	-68.6	3.8	1.49e+00	0	32	104	0	75	17959
2026-01-02 06:26:26.39	70.64	11.99	-54.9	-68.6	3.8	1.49e+00	0	32	104	0	75	17992
2026-01-02 06:26:27.39	70.52	12.06	-54.9	-68.6	3.8	1.49e+00	0	32	104	0	75	17966
2026-01-02 06:26:28.38	70.41	12.13	-54.9	-68.6	3.8	1.49e+00	0	32	104	0	75	18041
2026-01-02 06:26:29.38	70.29	12.21	-54.9	-68.6	3.8	1.49e+00	0	32	104	0	75	18020
2026-01-02 06:26:30.38	70.17	12.28	-54.9	-68.6	3.8	1.49e+00	0	32	104	0	75	18031
2026-01-02 06:26:31.38	70.05	12.36	-54.9	-68.6	3.8	1.49e+00	0	32	104	0	75	18051
2026-01-02 06:26:32.37	69.93	12.43	-54.9	-68.6	3.8	1.49e+00	0	32	104	0	75	18059
2026-01-02 06:26:33.37	69.81	12.51	-54.9	-68.6	3.8	1.49e+00	0	32	104	0	75	18089
2026-01-02 06:26:34.36	69.69	12.58	-54.9	-68.6	3.8	1.49e+00	0	32	104	0	75	18072
2026-01-02 06:26:35.36	69.57	12.66	-54.9	-68.6	3.8	1.49e+00	0	32	104	0	75	18063
2026-01-02 06:26:36.36	69.44	12.73	-54.9	-68.6	3.8	1.49e+00	0	32	104	0	75	18072
2026-01-02 06:26:37.36	69.32	12.81	-54.9	-68.6	3.8	1.49e+00	0	32	104	0	75	18038
2026-01-02 06:26:38.36	69.20	12.88	-54.9	-68.6	3.8	1.49e+00	0	32	104	0	75	18080
2026-01-02 06:26:39.36	69.07	12.96	-54.9	-68.6	3.8	1.49e+00	0	32	104	0	75	18035
2026-01-02 06:26:40.36	68.94	13.04	-54.9	-68.6	3.8	1.49e+00	0	32	104	0	75	18092
2026-01-02 06:26:41.36	68.82	13.11	-54.9	-68.6	3.8	1.49e+00	0	32	104	0	75	18015
2026-01-02 06:26:42.37	68.69	13.19	-54.9	-68.6	3.8	1.49e+00	0	32	104	0	75	18019
2026-01-02 06:26:43.36	68.56	13.26	-54.9	-68.6	3.8	1.49e+00	0	32	104	0	75	18054
2026-01-02 06:26:44.36	68.43	13.34	-54.9	-68.7	3.8	1.49e+00	0	32	104	0	75	18108
2026-01-02 06:26:45.36	68.31	13.42	-54.9	-68.6	3.8	1.49e+00	0	32	104	0	75	18047
2026-01-02 06:26:46.35	68.18	13.49	-54.9	-68.6	3.8	1.49e+00	0	32	104	0	75	18035
2026-01-02 06:26:47.35	68.05	13.57	-54.9	-68.6	3.8	1.49e+00	0	32	104	0	75	18051
2026-01-02 06:26:48.36	67.91	13.65	-54.9	-68.6	3.8	1.49e+00	0	32	104	0	75	18071
2026-01-02 06:26:49.36	67.78	13.72	-54.9	-68.6	3.8	1.49e+00	0	32	104	0	75	17981
2026-01-02 06:26:50.36	67.65	13.80	-54.9	-68.6	3.8	1.49e+00	0	32	104	0	75	17909
2026-01-02 06:26:51.36	67.52	13.88	-54.9	-68.6	3.8	1.49e+00	0	32	104	0	75	17904
2026-01-02 06:26:52.35	67.38	13.95	-54.9	-68.5	3.8	1.49e+00	0	32	104	0	75	17856
2026-01-02 06:26:53.34	67.25	14.03	-54.9	-68.6	3.8	1.49e+00	0	32	104	0	75	17927
2026-01-02 06:26:54.33	67.12	14.10	-54.9	-68.6	3.8	1.49e+00	0	32	104	0	75	17949
2026-01-02 06:26:55.33	66.98	14.18	-54.9	-68.6	3.8	1.49e+00	0	32	104	0	75	17998
2026-01-02 06:26:56.34	66.84	14.26	-54.9	-68.6	3.8	1.49e+00	0	32	104	0	75	17964
2026-01-02 06:26:57.33	66.71	14.34	-54.9	-68.6	3.8	1.49e+00	0	32	104	0	75	17960
2026-01-02 06:26:58.33	66.57	14.41	-54.9	-68.6	3.8	1.49e+00	0	32	104	0	75	18001
2026-01-02 06:26:59.33	66.43	14.49	-54.9	-68.6	3.8	1.49e+00	0	32	104	0	75	18051
2026-01-02 06:27:00.33	66.29	14.57	-54.9	-68.6	3.8	1.49e+00	0	32	104	0	75	18084
2026-01-02 06:27:01.33	66.15	14.65	-54.9	-68.6	3.8	1.49e+00	0	32	104	0	75	18091
2026-01-02 06:27:02.32	66.01	14.72	-54.9	-68.7	3.8	1.49e+00	0	32	104	0	75	18102
2026-01-02 06:27:03.32	65.87	14.80	-54.9	-68.6	3.8	1.49e+00	0	32	104	0	75	18072
2026-01-02 06:27:04.32	65.73	14.88	-54.9	-68.7	3.8	1.49e+00	0	32	104	0	75	18098
2026-01-02 06:27:05.31	65.58	14.96	-54.9	-68.6	3.8	1.49e+00	0	32	104	0	75	18047
2026-01-02 06:27:06.31	65.44	15.03	-54.9	-68.7	3.8	1.49e+00	0	32	104	0	75	18103
2026-01-02 06:27:07.31	65.29	15.11	-54.9	-68.6	3.8	1.49e+00	0	32	104	0	75	18080
2026-01-02 06:27:08.31	65.15	15.19	-54.9	-68.6	3.8	1.49e+00	0	32	104	0	75	18069
2026-01-02 06:27:09.31	65.00	15.27	-54.9	-68.6	3.8	1.49e+00	0	32	104	0	75	18043
2026-01-02 06:27:10.30	64.86	15.35	-54.9	-68.6	3.8	1.49e+00	0	32	104	0	75	18016
2026-01-02 06:27:11.30	64.71	15.42	-54.9	-68.6	3.8	1.49e+00	0	32	104	0	75	18044
2026-01-02 06:27:12.31	64.56	15.50	-54.9	-68.6	3.8	1.49e+00	0	32	104	0	75	17980
2026-01-02 06:27:13.31	64.41	15.58	-54.9	-68.6	3.8	1.49e+00	0	32	104	0	75	18005
2026-01-02 06:27:14.31	64.26	15.66	-54.9	-68.6	3.8	1.49e+00	0	33	104	0	75	17985
2026-01-02 06:27:15.31	64.11	15.74	-54.9	-68.6	3.8	1.49e+00	0	32	104	0	75	17997
2026-01-02 06:27:16.32	63.95	15.82	-54.9	-68.6	3.8	1.49e+00	0	32	104	0	75	18007
2026-01-02 06:27:17.32	63.80	15.90	-54.9	-68.6	3.8	1.49e+00	0	32	104	0	75	18035
2026-01-02 06:27:18.33	63.64	15.98	-54.9	-68.6	3.8	1.49e+00	0	32	104	0	75	17993
2026-01-02 06:27:19.33	63.49	16.05	-54.9	-68.6	3.8	1.49e+00	0	32	104	0	75	17995
2026-01-02 06:27:20.32	63.34	16.13	-54.9	-68.6	3.8	1.49e+00	0	32	104	0	75	18004
2026-01-02 06:27:21.32	63.18	16.21	-54.9	-68.6	3.8	1.49e+00	0	32	104	0	75	17978
2026-01-02 06:27:22.32	63.02	16.29	-54.9	-68.6	3.8	1.49e+00	0	32	104	0	75	17975
2026-01-02 06:27:23.31	62.87	16.37	-54.9	-68.6	3.8	1.49e+00	0	32	104	0	75	18006
2026-01-02 06:27:24.31	62.71	16.45	-54.9	-68.6	3.8	1.49e+00	0	32	104	0	75	17975
2026-01-02 06:27:25.31	62.55	16.53	-54.9	-68.6	3.8	1.49e+00	0	32	104	0	75	17964
2026-01-02 06:27:26.31	62.39	16.60	-54.9	-68.6	3.8	1.49e+00	0	32	104	0	75	18016
2026-01-02 06:27:27.31	62.23	16.68	-54.9	-68.6	3.8	1.49e+00	0	32	104	0	75	18021
2026-01-02 06:27:28.31	62.06	16.76	-54.9	-68.6	3.8	1.49e+00	0	32	104	0	75	18026
2026-01-02 06:27:29.31	61.90	16.84	-54.9	-68.6	3.8	1.49e+00	0	32	104	0	75	18093
2026-01-02 06:27:30.31	61.74	16.92	-54.9	-68.6	3.8	1.49e+00	0	32	104	0	75	18040
2026-01-02 06:27:31.30	61.57	17.00	-54.9	-68.7	3.8	1.49e+00	0	32	104	0	75	18127
2026-01-02 06:27:32.30	61.41	17.08	-54.9	-68.7	3.8	1.49e+00	0	32	104	0	75	18109
2026-01-02 06:27:33.29	61.24	17.16	-54.9	-68.6	3.8	1.49e+00	0	32	104	0	75	18053
2026-01-02 06:27:34.28	61.08	17.23	-54.9	-68.6	3.8	1.49e+00	0	32	104	0	75	17970
2026-01-02 06:27:35.29	60.91	17.31	-54.9	-68.6	3.8	1.49e+00	0	32	104	0	75	18049
2026-01-02 06:27:36.29	60.74	17.39	-54.9	-68.6	3.8	1.49e+00	0	32	104	0	75	17935
2026-01-02 06:27:37.28	60.57	17.47	-54.9	-68.6	3.9	1.49e+00	0	32	104	0	75	17990
2026-01-02 06:27:38.28	60.40	17.55	-54.9	-68.6	3.8	1.49e+00	0	32	104	0	75	17955
2026-01-02 06:27:39.27	60.23	17.63	-54.9	-68.6	3.8	1.49e+00	0	32	104	0	75	18028
2026-01-02 06:27:40.27	60.06	17.71	-54.9	-68.6	3.8	1.49e+00	0	32	104	0	75	18057
2026-01-02 06:27:41.27	59.88	17.79	-54.9	-68.6	3.8	1.49e+00	0	32	104	0	75	18026
2026-01-02 06:27:42.27	59.71	17.86	-54.9	-68.6	3.8	1.49e+00	0	32	104	0	75	18072
2026-01-02 06:27:43.27	59.53	17.94	-54.9	-68.6	3.8	1.49e+00	0	32	104	0	75	18043
2026-01-02 06:27:44.27	59.36	18.02	-54.9	-68.6	3.8	1.49e+00	0	32	104	0	75	18019
2026-01-02 06:27:45.27	59.18	18.10	-54.9	-68.6	3.8	1.49e+00	0	32	104	0	75	18083
2026-01-02 06:27:46.27	59.00	18.18	-54.9	-68.6	3.8	1.49e+00	0	32	104	0	75	18039
2026-01-02 06:27:47.28	58.82	18.26	-54.9	-68.6	3.8	1.49e+00	0	32	104	0	75	18094
2026-01-02 06:27:48.28	58.64	18.34	-54.9	-68.6	3.8	1.49e+00	0	32	104	0	75	18069
2026-01-02 06:27:49.28	58.46	18.42	-54.9	-68.6	3.8	1.49e+00	0	32	104	0	75	18022
2026-01-02 06:27:50.28	58.28	18.49	-54.9	-68.6	3.8	1.49e+00	0	32	104	0	75	18084
2026-01-02 06:27:51.28	58.09	18.57	-54.9	-68.6	3.8	1.49e+00	0	32	104	0	75	18076
2026-01-02 06:27:52.28	57.91	18.65	-54.9	-68.7	3.8	1.49e+00	0	32	104	0	75	18115
2026-01-02 06:27:53.28	57.72	18.73	-54.9	-68.6	3.9	1.49e+00	0	32	104	0	75	18039
2026-01-02 06:27:54.27	57.54	18.81	-54.9	-68.6	3.9	1.49e+00	0	32	104	0	75	18042
2026-01-02 06:27:55.26	57.35	18.88	-54.9	-68.6	3.8	1.49e+00	0	32	104	0	75	18014
2026-01-02 06:27:56.26	57.17	18.96	-54.9	-68.6	3.8	1.49e+00	0	32	104	0	75	17983
2026-01-02 06:27:57.25	56.98	19.04	-54.9	-68.6	3.8	1.49e+00	0	32	104	0	75	17894
2026-01-02 06:27:58.25	56.79	19.12	-54.9	-68.5	3.8	1.49e+00	0	32	104	0	75	17864
2026-01-02 06:27:59.25	56.60	19.20	-54.9	-68.5	3.8	1.49e+00	0	32	104	0	75	17808
2026-01-02 06:28:00.25	56.41	19.27	-54.9	-68.5	3.8	1.49e+00	0	32	104	0	75	17782
2026-01-02 06:28:01.25	56.21	19.35	-54.9	-68.5	3.8	1.49e+00	0	33	104	0	75	17781
2026-01-02 06:28:02.23	56.02	19.43	-54.9	-68.5	3.8	1.49e+00	0	32	104	0	75	17850
2026-01-02 06:28:03.22	55.83	19.50	-54.9	-68.5	3.8	1.49e+00	0	32	104	0	75	17828
2026-01-02 06:28:04.22	55.64	19.58	-54.9	-68.6	3.8	1.49e+00	0	32	104	0	75	17903
2026-01-02 06:28:05.22	55.44	19.66	-54.9	-68.6	3.8	1.49e+00	0	32	104	0	75	17970
2026-01-02 06:28:06.22	55.24	19.74	-54.9	-68.6	3.8	1.49e+00	0	32	104	0	75	18016
2026-01-02 06:28:07.22	55.04	19.81	-54.9	-68.6	3.8	1.49e+00	0	32	104	0	75	18042
2026-01-02 06:28:08.22	54.84	19.89	-54.9	-68.7	3.8	1.49e+00	0	33	104	0	75	18166
2026-01-02 06:28:09.21	54.64	19.97	-54.9	-68.7	3.8	1.49e+00	0	32	104	0	75	18120
2026-01-02 06:28:10.22	54.44	20.04	-54.9	-68.6	3.8	1.49e+00	0	32	104	0	75	18057
2026-01-02 06:28:11.22	54.24	20.12	-54.9	-68.6	3.8	1.49e+00	0	33	104	0	75	18055
2026-01-02 06:28:12.22	54.03	20.20	-54.9	-68.6	3.8	1.49e+00	0	32	104	0	75	18019
2026-01-02 06:28:13.22	53.83	20.27	-54.9	-68.6	3.8	1.49e+00	0	33	104	0	75	17922
2026-01-02 06:28:14.22	53.62	20.35	-54.9	-68.6	3.8	1.49e+00	0	32	104	0	75	17986
2026-01-02 06:28:15.22	53.42	20.42	-54.9	-68.6	3.8	1.49e+00	0	32	104	0	75	17911
2026-01-02 06:28:16.21	53.21	20.50	-54.9	-68.6	3.8	1.49e+00	0	32	104	0	75	18001
2026-01-02 06:28:17.22	53.00	20.58	-54.9	-68.6	3.8	1.49e+00	0	33	104	0	75	17998
2026-01-02 06:28:18.22	52.79	20.65	-54.9	-68.6	3.8	1.49e+00	0	32	104	0	75	18049
2026-01-02 06:28:19.22	52.58	20.73	-54.9	-68.7	3.8	1.49e+00	0	32	104	0	75	18112
2026-01-02 06:28:20.22	52.37	20.80	-54.9	-68.7	3.8	1.49e+00	0	32	104	0	75	18154
2026-01-02 06:28:21.21	52.15	20.88	-54.9	-68.7	3.8	1.49e+00	0	32	104	0	75	18097
2026-01-02 06:28:22.22	51.94	20.95	-54.9	-68.6	3.8	1.49e+00	0	32	104	0	75	18014
2026-01-02 06:28:23.22	51.72	21.03	-54.9	-68.6	3.8	1.49e+00	0	32	104	0	75	17989
2026-01-02 06:28:24.21	51.51	21.10	-54.9	-68.6	3.8	1.49e+00	0	32	104	0	75	18007
2026-01-02 06:28:25.21	51.29	21.17	-54.9	-68.6	3.8	1.49e+00	0	32	104	0	75	18037
2026-01-02 06:28:26.21	51.07	21.25	-54.9	-68.6	3.8	1.49e+00	0	32	104	0	75	18052
2026-01-02 06:28:27.20	50.86	21.32	-54.9	-68.6	3.8	1.49e+00	0	32	104	0	75	18009
2026-01-02 06:28:28.20	50.64	21.39	-54.9	-68.6	3.8	1.49e+00	0	33	104	0	75	18013
2026-01-02 06:28:29.20	50.41	21.47	-54.9	-68.6	3.8	1.49e+00	0	32	104	0	75	18036
2026-01-02 06:28:30.20	50.19	21.54	-54.9	-68.6	3.8	1.49e+00	0	33	104	0	75	17966
2026-01-02 06:28:31.20	49.97	21.61	-54.9	-68.6	3.8	1.49e+00	0	33	104	0	75	18074
2026-01-02 06:28:32.20	49.74	21.68	-54.9	-68.7	3.8	1.49e+00	0	32	104	0	75	18097
2026-01-02 06:28:33.19	49.52	21.75	-54.9	-68.6	3.8	1.49e+00	0	33	104	0	75	18037
2026-01-02 06:28:34.20	49.29	21.83	-54.9	-68.6	3.8	1.49e+00	0	32	104	0	75	18076
2026-01-02 06:28:35.19	49.06	21.90	-54.9	-68.6	3.8	1.49e+00	0	32	104	0	75	18016
2026-01-02 06:28:36.19	48.84	21.97	-54.9	-68.7	3.8	1.49e+00	0	33	104	0	75	18098
2026-01-02 06:28:37.19	48.61	22.04	-54.9	-68.7	3.8	1.49e+00	0	32	104	0	75	18122
2026-01-02 06:28:38.18	48.38	22.11	-54.9	-68.6	3.8	1.49e+00	0	32	104	0	75	18010
2026-01-02 06:28:39.18	48.14	22.18	-54.9	-68.6	3.8	1.49e+00	0	32	104	0	75	18056
2026-01-02 06:28:40.18	47.91	22.25	-54.9	-68.6	3.8	1.49e+00	0	32	104	0	75	17990
2026-01-02 06:28:41.18	47.68	22.32	-54.9	-68.6	3.8	1.49e+00	0	33	104	0	75	18041
2026-01-02 06:28:42.18	47.44	22.39	-54.9	-68.6	3.8	1.49e+00	0	33	104	0	75	18068
2026-01-02 06:28:43.17	47.21	22.46	-54.9	-68.6	3.8	1.49e+00	0	32	104	0	75	18062
2026-01-02 06:28:44.17	46.97	22.52	-54.9	-68.6	3.8	1.49e+00	0	32	104	0	75	18059
2026-01-02 06:28:45.17	46.73	22.59	-54.9	-68.7	3.8	1.49e+00	0	32	104	0	75	18109
2026-01-02 06:28:46.17	46.49	22.66	-54.9	-68.7	3.8	1.49e+00	0	33	104	0	75	18114
2026-01-02 06:28:47.17	46.25	22.73	-54.9	-68.7	3.8	1.49e+00	0	33	104	0	75	18100
2026-01-02 06:28:48.17	46.01	22.80	-54.9	-68.7	3.8	1.49e+00	0	32	104	0	75	18108
2026-01-02 06:28:49.16	45.77	22.86	-54.9	-68.7	3.8	1.49e+00	0	32	104	0	75	18102
2026-01-02 06:28:50.17	45.52	22.93	-55.0	-68.7	3.8	1.49e+00	0	33	104	0	75	18114
2026-01-02 06:28:51.17	45.28	22.99	-54.9	-68.6	3.8	1.49e+00	0	32	104	0	75	18094
2026-01-02 06:28:52.16	45.04	23.06	-54.9	-68.6	3.8	1.49e+00	0	32	104	0	75	18063
2026-01-02 06:28:53.15	44.79	23.12	-54.9	-68.6	3.8	1.49e+00	0	32	104	0	75	18074
2026-01-02 06:28:54.14	44.55	23.19	-54.9	-68.7	3.8	1.49e+00	0	32	104	0	75	18131
2026-01-02 06:28:55.14	44.30	23.25	-54.9	-68.6	3.8	1.49e+00	0	33	104	0	75	18092
2026-01-02 06:28:56.14	44.05	23.32	-54.9	-68.6	3.8	1.49e+00	0	32	104	0	75	18085
2026-01-02 06:28:57.12	43.80	23.38	-54.9	-68.6	3.8	1.49e+00	0	33	104	0	75	18065
2026-01-02 06:28:58.12	43.55	23.44	-54.9	-68.6	3.8	1.49e+00	0	33	104	0	75	18092
2026-01-02 06:28:59.12	43.30	23.50	-54.9	-68.7	3.8	1.49e+00	0	33	104	0	75	18115
2026-01-02 06:29:00.11	43.05	23.57	-54.9	-68.7	3.8	1.49e+00	0	33	104	0	75	18098
2026-01-02 06:29:01.11	42.79	23.63	-54.9	-68.7	3.8	1.49e+00	0	33	104	0	75	18158
2026-01-02 06:29:02.09	42.54	23.69	-54.9	-68.7	3.8	1.49e+00	0	32	104	0	75	18101
2026-01-02 06:29:03.09	42.28	23.75	-54.9	-68.7	3.8	1.49e+00	0	33	104	0	75	18129
2026-01-02 06:29:04.08	42.03	23.81	-54.9	-68.6	3.8	1.49e+00	0	32	104	0	75	18070
2026-01-02 06:29:05.08	41.77	23.87	-54.9	-68.7	3.8	1.49e+00	0	33	104	0	75	18132
2026-01-02 06:29:06.08	41.51	23.93	-54.9	-68.7	3.8	1.49e+00	0	33	104	0	75	18097
2026-01-02 06:29:07.08	41.25	23.98	-54.9	-68.7	3.8	1.49e+00	0	32	104	0	75	18115
2026-01-02 06:29:08.07	40.99	24.04	-54.9	-68.7	3.8	1.49e+00	0	32	104	0	75	18148
2026-01-02 06:29:09.06	40.73	24.10	-54.9	-68.7	3.8	1.49e+00	0	33	104	0	75	18127
2026-01-02 06:29:10.07	40.46	24.16	-54.9	-68.7	3.8	1.49e+00	0	33	104	0	75	18097
2026-01-02 06:29:11.06	40.20	24.21	-54.9	-68.6	3.8	1.49e+00	0	32	104	0	75	18074
2026-01-02 06:29:12.06	39.93	24.27	-54.9	-68.6	3.8	1.49e+00	0	32	104	0	75	18031
2026-01-02 06:29:13.06	39.67	24.33	-54.9	-68.6	3.8	1.49e+00	0	32	104	0	75	18080
2026-01-02 06:29:14.06	39.40	24.38	-54.9	-68.7	3.8	1.49e+00	0	33	104	0	75	18119
2026-01-02 06:29:15.06	39.13	24.43	-54.9	-68.6	3.8	1.49e+00	0	33	104	0	75	18073
2026-01-02 06:29:16.06	38.86	24.49	-54.9	-68.6	3.8	1.49e+00	0	32	104	0	75	18063
2026-01-02 06:29:17.06	38.59	24.54	-54.9	-68.7	3.8	1.49e+00	0	32	104	0	75	18132
2026-01-02 06:29:18.06	38.32	24.59	-54.9	-68.7	3.8	1.49e+00	0	33	104	0	75	18121
2026-01-02 06:29:19.06	38.05	24.65	-54.9	-68.6	3.8	1.49e+00	0	33	104	0	75	18088
2026-01-02 06:29:20.05	37.78	24.70	-54.9	-68.7	3.8	1.49e+00	0	33	104	0	75	18153
2026-01-02 06:29:21.05	37.50	24.75	-54.9	-68.6	3.8	1.49e+00	0	33	104	0	75	18058
2026-01-02 06:29:22.05	37.23	24.80	-54.9	-68.7	3.8	1.49e+00	0	33	104	0	75	18104
2026-01-02 06:29:23.05	36.95	24.85	-54.9	-68.6	3.8	1.49e+00	0	33	104	0	75	18066
2026-01-02 06:29:24.04	36.68	24.90	-54.9	-68.7	3.8	1.49e+00	0	33	104	0	75	18113
2026-01-02 06:29:25.04	36.40	24.94	-55.0	-68.6	3.8	1.49e+00	0	33	104	0	75	18092
2026-01-02 06:29:26.04	36.12	24.99	-54.9	-68.6	3.8	1.49e+00	0	33	104	0	75	18065
2026-01-02 06:29:27.04	35.84	25.04	-54.9	-68.6	3.8	1.49e+00	0	33	104	0	75	18079
2026-01-02 06:29:28.04	35.56	25.09	-54.9	-68.6	3.8	1.49e+00	0	33	104	0	75	17987
2026-01-02 06:29:29.04	35.28	25.13	-54.9	-68.6	3.8	1.49e+00	0	32	104	0	75	18076
2026-01-02 06:29:30.04	35.00	25.18	-54.9	-68.6	3.8	1.49e+00	0	33	104	0	75	18079
2026-01-02 06:29:31.03	34.72	25.22	-54.9	-68.7	3.8	1.49e+00	0	32	104	0	75	18125
2026-01-02 06:29:32.01	34.44	25.26	-54.9	-68.6	3.8	1.49e+00	0	32	104	0	75	18091
2026-01-02 06:29:33.01	34.16	25.31	-54.9	-68.6	3.8	1.49e+00	0	32	104	0	75	18073
2026-01-02 06:29:34.02	33.87	25.35	-54.9	-68.7	3.8	1.49e+00	0	33	104	0	75	18108
2026-01-02 06:29:35.01	33.59	25.39	-54.9	-68.6	3.8	1.49e+00	0	32	104	0	75	18050
2026-01-02 06:29:36.01	33.30	25.43	-54.9	-68.6	3.8	1.49e+00	0	33	104	0	75	18060
2026-01-02 06:29:37.00	33.02	25.47	-54.9	-68.6	3.8	1.49e+00	0	32	104	0	75	18085
2026-01-02 06:29:38.00	32.73	25.51	-54.9	-68.7	3.8	1.49e+00	0	32	104	0	75	18149
2026-01-02 06:29:39.00	32.44	25.55	-54.9	-68.7	3.8	1.49e+00	0	32	104	0	75	18155
2026-01-02 06:29:40.00	32.15	25.59	-54.9	-68.7	3.8	1.49e+00	0	33	104	0	75	18098
2026-01-02 06:29:40.99	31.87	25.62	-54.9	-68.6	3.8	1.49e+00	0	32	104	0	75	18086
2026-01-02 06:29:41.98	31.58	25.66	-54.9	-68.6	3.8	1.49e+00	0	33	104	0	75	18085
2026-01-02 06:29:42.96	31.30	25.69	-54.9	-68.6	3.8	1.49e+00	0	32	104	0	75	18025
2026-01-02 06:29:43.95	31.01	25.73	-54.9	-68.7	3.9	1.49e+00	0	32	104	0	75	18105
2026-01-02 06:29:44.94	30.72	25.76	-54.9	-68.6	3.8	1.49e+00	0	33	104	0	75	18083
2026-01-02 06:29:45.92	30.43	25.79	-54.9	-68.7	3.8	1.49e+00	0	32	104	0	75	18130
2026-01-02 06:29:46.92	30.14	25.83	-54.9	-68.7	3.8	1.49e+00	0	33	104	0	75	18102
2026-01-02 06:29:47.90	29.85	25.86	-54.9	-68.6	3.8	1.49e+00	0	33	104	0	75	18091
2026-01-02 06:29:48.90	29.55	25.89	-54.9	-68.6	3.8	1.49e+00	0	33	104	0	75	18090
2026-01-02 06:29:49.89	29.26	25.92	-54.9	-68.7	3.8	1.49e+00	0	33	104	0	75	18100
2026-01-02 06:29:50.88	28.97	25.95	-54.9	-68.7	3.8	1.49e+00	0	32	104	0	75	18101
2026-01-02 06:29:51.87	28.67	25.98	-54.9	-68.6	3.8	1.49e+00	0	32	104	0	75	18076
2026-01-02 06:29:52.86	28.38	26.00	-54.9	-68.7	3.8	1.49e+00	0	33	104	0	75	18097
2026-01-02 06:29:53.85	28.09	26.03	-54.9	-68.7	3.8	1.49e+00	0	33	104	0	75	18122
2026-01-02 06:29:54.84	27.79	26.06	-54.9	-68.6	3.8	1.49e+00	0	32	104	0	75	18053
2026-01-02 06:29:55.82	27.50	26.08	-54.9	-68.6	3.8	1.49e+00	0	33	104	0	75	18079
2026-01-02 06:29:56.81	27.20	26.10	-54.9	-68.7	3.8	1.49e+00	0	32	104	0	75	18104
2026-01-02 06:29:57.80	26.91	26.13	-54.9	-68.6	3.8	1.49e+00	0	33	104	0	75	18070
2026-01-02 06:29:58.79	26.61	26.15	-54.9	-68.7	3.8	1.49e+00	0	32	104	0	75	18101
2026-01-02 06:29:59.78	26.31	26.17	-54.9	-68.7	3.8	1.49e+00	0	32	104	0	75	18102
2026-01-02 06:30:00.76	26.02	26.19	-54.9	-68.7	3.8	1.49e+00	0	32	104	0	75	18102
2026-01-02 06:30:01.76	25.72	26.21	-54.9	-68.7	3.8	1.49e+00	0	32	104	0	75	18099
2026-01-02 06:30:02.76	25.41	26.23	-54.9	-68.6	3.8	1.49e+00	0	33	104	0	75	18025
2026-01-02 06:30:03.76	25.11	26.25	-54.9	-68.7	3.8	1.49e+00	0	32	104	0	75	18111
2026-01-02 06:30:04.76	24.81	26.27	-54.9	-68.6	3.8	1.49e+00	0	33	104	0	75	18082
2026-01-02 06:30:05.77	24.51	26.29	-54.9	-68.6	3.8	1.49e+00	0	32	104	0	75	18068
2026-01-02 06:30:06.77	24.20	26.30	-54.9	-68.6	3.8	1.49e+00	0	33	104	0	75	18084
2026-01-02 06:30:07.77	23.90	26.32	-54.9	-68.7	3.8	1.49e+00	0	33	104	0	75	18096
2026-01-02 06:30:08.76	23.60	26.33	-54.9	-68.6	3.8	1.49e+00	0	33	104	0	75	18050
2026-01-02 06:30:09.76	23.30	26.34	-54.9	-68.6	3.8	1.49e+00	0	32	104	0	75	18070
2026-01-02 06:30:10.76	22.99	26.36	-54.9	-68.6	3.8	1.49e+00	0	33	104	0	75	18087
2026-01-02 06:30:11.75	22.69	26.37	-54.9	-68.7	3.8	1.49e+00	0	33	104	0	75	18154
2026-01-02 06:30:12.75	22.39	26.38	-54.9	-68.7	3.8	1.49e+00	0	32	104	0	75	18112
2026-01-02 06:30:13.75	22.08	26.39	-54.9	-68.6	3.8	1.49e+00	0	32	104	0	75	18064
2026-01-02 06:30:14.74	21.78	26.40	-54.9	-68.6	3.8	1.49e+00	0	32	104	0	75	18085
2026-01-02 06:30:15.73	21.48	26.41	-55.0	-68.7	3.8	1.49e+00	0	33	104	0	75	18107
2026-01-02 06:30:16.73	21.17	26.41	-54.9	-68.7	3.8	1.49e+00	0	32	104	0	75	18109
2026-01-02 06:30:17.73	20.87	26.42	-54.9	-68.7	3.8	1.49e+00	0	33	104	0	75	18096
2026-01-02 06:30:18.73	20.56	26.42	-54.9	-68.6	3.8	1.49e+00	0	33	104	0	75	18036
2026-01-02 06:30:19.73	20.26	26.43	-54.9	-68.7	3.8	1.49e+00	0	33	104	0	75	18125
2026-01-02 06:30:20.73	19.95	26.43	-55.0	-68.7	3.8	1.49e+00	0	32	104	0	75	18174
2026-01-02 06:30:21.72	19.65	26.44	-54.9	-68.7	3.8	1.49e+00	0	33	104	0	75	18113
2026-01-02 06:30:22.73	19.34	26.44	-55.0	-68.6	3.8	1.49e+00	0	33	104	0	75	18069
2026-01-02 06:30:23.73	19.04	26.44	-55.0	-68.7	3.8	1.49e+00	0	33	104	0	75	18116
2026-01-02 06:30:24.72	18.73	26.44	-55.0	-68.7	3.8	1.49e+00	0	32	104	0	75	18106
2026-01-02 06:30:25.73	18.43	26.44	-55.0	-68.7	3.8	1.49e+00	0	33	104	0	75	18108
2026-01-02 06:30:26.73	18.12	26.43	-54.9	-68.6	3.8	1.49e+00	0	33	104	0	75	18058
2026-01-02 06:30:27.73	17.82	26.43	-54.9	-68.7	3.8	1.49e+00	0	32	104	0	75	18127
2026-01-02 06:30:28.73	17.51	26.43	-54.9	-68.7	3.8	1.49e+00	0	32	104	0	75	18118
2026-01-02 06:30:29.73	17.21	26.42	-54.9	-68.7	3.8	1.49e+00	0	33	104	0	75	18112
2026-01-02 06:30:30.73	16.90	26.42	-55.0	-68.6	3.8	1.49e+00	0	32	104	0	75	18088
2026-01-02 06:30:31.73	16.60	26.41	-54.9	-68.6	3.8	1.49e+00	0	32	104	0	75	18084
2026-01-02 06:30:32.73	16.29	26.41	-55.0	-68.7	3.8	1.49e+00	0	33	104	0	75	18097
2026-01-02 06:30:33.72	15.99	26.40	-55.0	-68.6	3.8	1.49e+00	0	33	104	0	75	18093
2026-01-02 06:30:34.71	15.69	26.39	-54.9	-68.7	3.8	1.49e+00	0	33	104	0	75	18103
2026-01-02 06:30:35.71	15.38	26.38	-54.9	-68.7	3.8	1.49e+00	0	32	104	0	75	18140
2026-01-02 06:30:36.70	15.08	26.37	-54.9	-68.7	3.8	1.49e+00	0	33	104	0	75	18115
2026-01-02 06:30:37.70	14.78	26.36	-54.9	-68.7	3.8	1.49e+00	0	32	104	0	75	18112
2026-01-02 06:30:38.70	14.47	26.34	-54.9	-68.7	3.8	1.49e+00	0	32	104	0	75	18110
2026-01-02 06:30:39.69	14.17	26.33	-54.9	-68.7	3.8	1.49e+00	0	33	104	0	75	18151
2026-01-02 06:30:40.69	13.87	26.32	-54.9	-68.7	3.8	1.49e+00	0	32	104	0	75	18135
2026-01-02 06:30:41.69	13.57	26.30	-54.9	-68.7	3.8	1.49e+00	0	33	104	0	75	18114
2026-01-02 06:30:42.69	13.26	26.29	-55.0	-68.7	3.8	1.49e+00	0	33	104	0	75	18111
2026-01-02 06:30:43.69	12.96	26.27	-54.9	-68.7	3.8	1.49e+00	0	33	104	0	75	18117
2026-01-02 06:30:44.69	12.66	26.25	-54.9	-68.6	3.8	1.49e+00	0	33	104	0	75	18092
2026-01-02 06:30:45.69	12.36	26.23	-54.9	-68.7	3.8	1.49e+00	0	33	104	0	75	18117
2026-01-02 06:30:46.70	12.05	26.21	-54.8	-68.6	3.8	1.49e+00	0	32	104	0	75	18095
2026-01-02 06:30:47.70	11.75	26.19	-54.9	-68.7	3.8	1.49e+00	0	33	104	0	75	18102
2026-01-02 06:30:48.70	11.45	26.17	-54.9	-68.6	3.8	1.49e+00	0	32	104	0	75	18081
2026-01-02 06:30:49.70	11.15	26.15	-55.0	-68.7	3.8	1.49e+00	0	33	104	0	75	18122
2026-01-02 06:30:50.70	10.85	26.13	-54.9	-68.7	3.8	1.49e+00	0	33	104	0	75	18118
2026-01-02 06:30:51.69	10.56	26.10	-54.9	-68.6	3.8	1.49e+00	0	33	104	0	75	18052
2026-01-02 06:30:52.69	10.26	26.08	-55.0	-68.6	3.8	1.49e+00	0	33	104	0	75	18082
2026-01-02 06:30:53.69	9.96	26.05	-54.9	-68.6	3.8	1.49e+00	0	33	104	0	75	18067
2026-01-02 06:30:54.69	9.66	26.03	-54.9	-68.6	3.8	1.49e+00	0	33	104	0	75	18093
2026-01-02 06:30:55.69	9.37	26.00	-54.9	-68.7	3.8	1.49e+00	0	32	104	0	75	18198
2026-01-02 06:30:56.69	9.07	25.97	-54.9	-68.7	3.8	1.49e+00	0	33	104	0	75	18143
2026-01-02 06:30:57.68	8.78	25.94	-54.9	-68.7	3.8	1.49e+00	0	33	104	0	75	18144
2026-01-02 06:30:58.68	8.48	25.91	-54.9	-68.7	3.8	1.49e+00	0	32	104	0	75	18100
2026-01-02 06:30:59.68	8.19	25.88	-55.0	-68.7	3.8	1.49e+00	0	33	104	0	75	18102
2026-01-02 06:31:00.67	7.89	25.85	-54.9	-68.7	3.8	1.49e+00	0	33	104	0	75	18151
2026-01-02 06:31:01.66	7.60	25.82	-54.9	-68.7	3.8	1.49e+00	0	33	104	0	75	18168
2026-01-02 06:31:02.66	7.31	25.79	-54.9	-68.7	3.8	1.49e+00	0	33	104	0	75	18124
2026-01-02 06:31:03.65	7.02	25.75	-55.0	-68.7	3.8	1.49e+00	0	33	104	0	75	18144
2026-01-02 06:31:04.66	6.72	25.72	-55.0	-68.7	3.8	1.49e+00	0	33	104	0	75	18127
2026-01-02 06:31:05.65	6.44	25.69	-55.0	-68.7	3.8	1.49e+00	0	33	104	0	75	18157
2026-01-02 06:31:06.64	6.15	25.65	-55.0	-68.7	3.8	1.49e+00	0	33	104	0	75	18102
2026-01-02 06:31:07.64	5.86	25.61	-54.9	-68.6	3.8	1.49e+00	0	33	104	0	75	18095
2026-01-02 06:31:08.64	5.57	25.58	-54.9	-68.6	3.8	1.49e+00	0	33	104	0	75	18077
2026-01-02 06:31:09.64	5.28	25.54	-55.0	-68.6	3.8	1.49e+00	0	33	104	0	75	18066
2026-01-02 06:31:10.64	4.99	25.50	-54.9	-68.7	3.8	1.49e+00	0	33	104	0	75	18124
2026-01-02 06:31:11.64	4.70	25.46	-55.0	-68.7	3.8	1.49e+00	0	33	104	0	75	18146
2026-01-02 06:31:12.63	4.42	25.42	-54.9	-68.7	3.8	1.49e+00	0	33	104	0	75	18116
2026-01-02 06:31:13.63	4.13	25.38	-54.9	-68.7	3.8	1.49e+00	0	33	104	0	75	18157
2026-01-02 06:31:14.63	3.85	25.34	-54.9	-68.7	3.8	1.49e+00	0	33	104	0	75	18132
2026-01-02 06:31:15.64	3.56	25.30	-55.0	-68.7	3.8	1.49e+00	0	33	104	0	75	18124
2026-01-02 06:31:16.64	3.28	25.25	-55.0	-68.6	3.8	1.49e+00	0	32	104	0	75	18090
2026-01-02 06:31:17.64	3.00	25.21	-54.9	-68.6	3.8	1.49e+00	0	33	104	0	75	18088
2026-01-02 06:31:18.63	2.72	25.16	-54.9	-68.7	3.8	1.49e+00	0	32	104	0	75	18133
2026-01-02 06:31:19.63	2.44	25.12	-54.9	-68.7	3.8	1.49e+00	0	33	104	0	75	18115
2026-01-02 06:31:20.63	2.16	25.07	-55.0	-68.7	3.8	1.49e+00	0	33	104	0	75	18166
2026-01-02 06:31:21.62	1.88	25.03	-55.0	-68.7	3.8	1.49e+00	0	32	104	0	75	18114
2026-01-02 06:31:22.62	1.60	24.98	-55.0	-68.7	3.8	1.49e+00	0	33	104	0	75	18108
2026-01-02 06:31:23.62	1.32	24.93	-54.9	-68.6	3.8	1.49e+00	0	33	104	0	75	18091
2026-01-02 06:31:24.62	1.05	24.88	-55.0	-68.7	3.8	1.49e+00	0	33	104	0	75	18124
2026-01-02 06:31:25.62	0.77	24.84	-55.0	-68.7	3.8	1.49e+00	0	33	104	0	75	18127
2026-01-02 06:31:26.62	0.49	24.79	-55.0	-68.6	3.8	1.49e+00	0	33	104	0	75	18095
2026-01-02 06:31:27.62	0.22	24.74	-54.9	-68.7	3.8	1.49e+00	0	33	104	0	75	18112
2026-01-02 06:31:28.62	359.95	24.68	-55.0	-68.7	3.8	1.49e+00	0	32	104	0	75	18103
2026-01-02 06:31:29.63	359.67	24.63	-54.9	-68.7	3.8	1.49e+00	0	33	104	0	75	18130
2026-01-02 06:31:30.62	359.40	24.58	-55.0	-68.7	3.8	1.49e+00	0	33	104	0	75	18111
2026-01-02 06:31:31.62	359.13	24.53	-54.9	-68.7	3.8	1.49e+00	0	32	104	0	75	18117
2026-01-02 06:31:32.62	358.86	24.47	-54.9	-68.7	3.8	1.49e+00	0	33	104	0	75	18103
2026-01-02 06:31:33.61	358.60	24.42	-55.0	-68.7	3.8	1.49e+00	0	33	104	0	75	18100
2026-01-02 06:31:34.61	358.33	24.37	-55.0	-68.7	3.8	1.49e+00	0	33	104	0	75	18109
2026-01-02 06:31:35.61	358.06	24.31	-54.9	-68.7	3.8	1.49e+00	0	32	104	0	75	18111
2026-01-02 06:31:36.61	357.79	24.26	-54.9	-68.6	3.8	1.49e+00	0	33	104	0	75	18092
2026-01-02 06:31:37.61	357.53	24.20	-54.9	-68.7	3.8	1.49e+00	0	33	104	0	75	18114
2026-01-02 06:31:38.60	357.27	24.14	-54.9	-68.7	3.8	1.49e+00	0	33	104	0	75	18100
2026-01-02 06:31:39.60	357.00	24.09	-55.0	-68.7	3.8	1.49e+00	0	33	104	0	75	18101
2026-01-02 06:31:40.60	356.74	24.03	-54.9	-68.6	3.8	1.49e+00	0	32	104	0	75	18085
2026-01-02 06:31:41.59	356.48	23.97	-54.9	-68.7	3.8	1.49e+00	0	33	104	0	75	18118
2026-01-02 06:31:42.60	356.22	23.91	-54.9	-68.7	3.8	1.49e+00	0	33	104	0	75	18123
2026-01-02 06:31:43.61	355.96	23.85	-55.0	-68.7	3.9	1.49e+00	0	33	104	0	75	18170
2026-01-02 06:31:44.61	355.70	23.79	-55.0	-68.7	3.8	1.49e+00	0	33	104	0	75	18151
2026-01-02 06:31:45.62	355.44	23.73	-55.0	-68.7	3.8	1.49e+00	0	33	104	0	75	18108
2026-01-02 06:31:46.61	355.19	23.67	-55.0	-68.7	3.8	1.49e+00	0	32	104	0	75	18152
2026-01-02 06:31:47.61	354.93	23.61	-54.9	-68.7	3.8	1.49e+00	0	33	104	0	75	18128
2026-01-02 06:31:48.61	354.68	23.55	-55.0	-68.7	3.8	1.49e+00	0	33	104	0	75	18142
2026-01-02 06:31:49.61	354.42	23.49	-55.0	-68.7	3.8	1.49e+00	0	32	104	0	75	18154
2026-01-02 06:31:50.61	354.17	23.42	-54.9	-68.7	3.8	1.49e+00	0	33	104	0	75	18127
2026-01-02 06:31:51.61	353.92	23.36	-55.0	-68.7	3.8	1.49e+00	0	33	104	0	75	18160
2026-01-02 06:31:52.61	353.67	23.30	-54.9	-68.7	3.8	1.49e+00	0	33	104	0	75	18120
2026-01-02 06:31:53.61	353.42	23.23	-55.0	-68.7	3.8	1.49e+00	0	33	104	0	75	18148
2026-01-02 06:31:54.61	353.17	23.17	-55.0	-68.7	3.8	1.49e+00	0	33	104	0	75	18149
2026-01-02 06:31:55.61	352.93	23.10	-55.0	-68.7	3.8	1.49e+00	0	33	104	0	75	18122
2026-01-02 06:31:56.62	352.68	23.04	-55.0	-68.7	3.8	1.49e+00	0	33	104	0	75	18158
2026-01-02 06:31:57.61	352.43	22.97	-55.0	-68.7	3.8	1.49e+00	0	33	104	0	75	18111
2026-01-02 06:31:58.61	352.19	22.91	-55.0	-68.7	3.8	1.49e+00	0	33	104	0	75	18168
2026-01-02 06:31:59.61	351.95	22.84	-55.0	-68.7	3.8	1.49e+00	0	33	104	0	75	18118
2026-01-02 06:32:00.60	351.71	22.77	-55.0	-68.7	3.8	1.49e+00	0	33	104	0	75	18173
2026-01-02 06:32:01.60	351.47	22.71	-55.0	-68.6	3.8	1.49e+00	0	33	104	0	75	18092
2026-01-02 06:32:02.61	351.23	22.64	-55.0	-68.7	3.8	1.49e+00	0	33	104	0	75	18138
2026-01-02 06:32:03.61	350.99	22.57	-55.0	-68.7	3.8	1.49e+00	0	33	104	0	75	18166
2026-01-02 06:32:04.60	350.75	22.50	-54.9	-68.7	3.8	1.49e+00	0	33	104	0	75	18124
2026-01-02 06:32:05.59	350.52	22.44	-55.0	-68.7	3.8	1.49e+00	0	33	104	0	75	18097
2026-01-02 06:32:06.59	350.28	22.37	-54.9	-68.7	3.9	1.49e+00	0	33	104	0	75	18132
2026-01-02 06:32:07.59	350.05	22.30	-54.9	-68.7	3.8	1.49e+00	0	33	104	0	75	18129
2026-01-02 06:32:08.59	349.81	22.23	-55.0	-68.6	3.8	1.49e+00	0	32	104	0	75	18093
2026-01-02 06:32:09.58	349.58	22.16	-55.0	-68.7	3.8	1.49e+00	0	33	104	0	75	18131
2026-01-02 06:32:10.58	349.35	22.09	-55.0	-68.7	3.8	1.49e+00	0	33	104	0	75	18142
2026-01-02 06:32:11.58	349.12	22.02	-55.0	-68.7	3.8	1.49e+00	0	33	104	0	75	18156
2026-01-02 06:32:12.58	348.89	21.95	-55.0	-68.7	3.8	1.49e+00	0	33	104	0	75	18117
2026-01-02 06:32:13.58	348.66	21.88	-55.0	-68.6	3.8	1.49e+00	0	33	104	0	75	18092
2026-01-02 06:32:14.57	348.44	21.81	-55.0	-68.7	3.8	1.49e+00	0	33	104	0	75	18153
2026-01-02 06:32:15.57	348.21	21.73	-55.0	-68.7	3.8	1.49e+00	0	32	104	0	75	18154
2026-01-02 06:32:16.57	347.99	21.66	-55.0	-68.7	3.8	1.49e+00	0	33	104	0	75	18133
2026-01-02 06:32:17.56	347.77	21.59	-55.0	-68.6	3.8	1.49e+00	0	33	104	0	75	18089
2026-01-02 06:32:18.57	347.54	21.52	-55.0	-68.7	3.8	1.49e+00	0	33	104	0	75	18143
2026-01-02 06:32:19.57	347.32	21.44	-55.0	-68.7	3.8	1.49e+00	0	33	104	0	75	18127
2026-01-02 06:32:20.56	347.10	21.37	-55.0	-68.7	3.8	1.49e+00	0	33	104	0	75	18124
2026-01-02 06:32:21.56	346.88	21.30	-55.0	-68.7	3.8	1.49e+00	0	33	104	0	75	18157
2026-01-02 06:32:22.56	346.66	21.23	-55.0	-68.7	3.8	1.49e+00	0	32	104	0	75	18129
2026-01-02 06:32:23.57	346.44	21.15	-55.0	-68.7	3.8	1.49e+00	0	33	104	0	75	18116
2026-01-02 06:32:24.57	346.23	21.08	-55.0	-68.7	3.8	1.49e+00	0	33	104	0	75	18172
2026-01-02 06:32:25.56	346.01	21.00	-55.0	-68.7	3.8	1.49e+00	0	33	104	0	75	18183
2026-01-02 06:32:26.56	345.80	20.93	-55.0	-68.7	3.8	1.49e+00	0	33	104	0	75	18160
2026-01-02 06:32:27.56	345.59	20.85	-55.0	-68.7	3.8	1.49e+00	0	33	104	0	75	18188
2026-01-02 06:32:28.55	345.37	20.78	-55.0	-68.7	3.8	1.49e+00	0	33	104	0	75	18135
2026-01-02 06:32:29.56	345.16	20.71	-55.0	-68.7	3.8	1.49e+00	0	33	104	0	75	18153
2026-01-02 06:32:30.55	344.95	20.63	-55.0	-68.7	3.8	1.49e+00	0	33	104	0	75	18174
2026-01-02 06:32:31.55	344.74	20.56	-55.0	-68.7	3.8	1.49e+00	0	32	104	0	75	18140
2026-01-02 06:32:32.55	344.54	20.48	-55.0	-68.7	3.8	1.49e+00	0	33	104	0	75	18209
2026-01-02 06:32:33.55	344.33	20.40	-55.0	-68.7	3.8	1.49e+00	0	32	104	0	75	18172
2026-01-02 06:32:34.55	344.12	20.33	-55.0	-68.7	3.8	1.49e+00	0	33	104	0	75	18183
2026-01-02 06:32:35.55	343.92	20.25	-55.0	-68.7	3.8	1.49e+00	0	32	104	0	75	18138
2026-01-02 06:32:36.54	343.71	20.18	-55.0	-68.7	3.8	1.49e+00	0	32	104	0	75	18189
2026-01-02 06:32:37.53	343.51	20.10	-55.0	-68.7	3.8	1.49e+00	0	33	104	0	75	18152
2026-01-02 06:32:38.53	343.31	20.03	-55.0	-68.7	3.8	1.49e+00	0	33	104	0	75	18134
2026-01-02 06:32:39.54	343.11	19.95	-55.0	-68.7	3.8	1.49e+00	0	33	104	0	75	18136
2026-01-02 06:32:40.53	342.91	19.87	-55.0	-68.7	3.8	1.49e+00	0	33	104	0	75	18210
2026-01-02 06:32:41.53	342.71	19.80	-55.0	-68.7	3.8	1.49e+00	0	33	104	0	75	18115
2026-01-02 06:32:42.52	342.52	19.72	-55.0	-68.7	3.8	1.49e+00	0	33	104	0	75	18184
2026-01-02 06:32:43.52	342.32	19.64	-55.0	-68.6	3.8	1.49e+00	0	33	104	0	75	18089
2026-01-02 06:32:44.51	342.12	19.57	-55.0	-68.7	3.8	1.49e+00	0	33	104	0	75	18158
2026-01-02 06:32:45.51	341.93	19.49	-55.0	-68.7	3.8	1.49e+00	0	32	104	0	75	18157
2026-01-02 06:32:46.51	341.74	19.41	-55.0	-68.7	3.8	1.49e+00	0	33	104	0	75	18188
2026-01-02 06:32:47.51	341.54	19.33	-55.0	-68.7	3.8	1.49e+00	0	33	104	0	75	18171
2026-01-02 06:32:48.51	341.35	19.26	-55.0	-68.7	3.8	1.49e+00	0	33	104	0	75	18178
2026-01-02 06:32:49.51	341.16	19.18	-55.0	-68.7	3.8	1.49e+00	0	33	104	0	75	18140
2026-01-02 06:32:50.51	340.97	19.10	-55.0	-68.7	3.8	1.49e+00	0	33	104	0	75	18139
2026-01-02 06:32:51.52	340.78	19.02	-55.0	-68.7	3.8	1.49e+00	0	33	104	0	75	18113
2026-01-02 06:32:52.52	340.59	18.94	-55.0	-68.6	3.8	1.49e+00	0	33	104	0	75	18083
2026-01-02 06:32:53.52	340.40	18.87	-55.0	-68.7	3.8	1.49e+00	0	33	104	0	75	18156
2026-01-02 06:32:54.52	340.22	18.79	-55.0	-68.7	3.8	1.49e+00	0	33	104	0	75	18143
2026-01-02 06:32:55.52	340.03	18.71	-55.0	-68.7	3.8	1.49e+00	0	33	104	0	75	18152
2026-01-02 06:32:56.51	339.85	18.63	-55.0	-68.7	3.8	1.49e+00	0	33	104	0	75	18170
2026-01-02 06:32:57.51	339.67	18.55	-55.0	-68.7	3.8	1.49e+00	0	33	104	0	75	18148
2026-01-02 06:32:58.51	339.48	18.48	-55.0	-68.7	3.8	1.49e+00	0	33	104	0	75	18160
2026-01-02 06:32:59.51	339.30	18.40	-55.0	-68.7	3.8	1.49e+00	0	33	104	0	75	18152
2026-01-02 06:33:00.50	339.12	18.32	-55.0	-68.7	3.8	1.49e+00	0	33	104	0	75	18105
2026-01-02 06:33:01.50	338.94	18.24	-55.0	-68.7	3.8	1.49e+00	0	33	104	0	75	18150
2026-01-02 06:33:02.50	338.77	18.16	-55.0	-68.7	3.8	1.49e+00	0	33	104	0	75	18174
2026-01-02 06:33:03.49	338.59	18.08	-55.0	-68.7	3.8	1.49e+00	0	33	104	0	75	18166
2026-01-02 06:33:04.49	338.41	18.01	-55.0	-68.7	3.8	1.49e+00	0	33	104	0	75	18139
2026-01-02 06:33:05.49	338.24	17.93	-55.0	-68.7	3.8	1.49e+00	0	33	104	0	75	18130
2026-01-02 06:33:06.49	338.06	17.85	-55.0	-68.7	3.8	1.49e+00	0	33	104	0	75	18125
2026-01-02 06:33:07.49	337.89	17.77	-55.0	-68.7	3.9	1.49e+00	0	33	104	0	75	18114
2026-01-02 06:33:08.49	337.72	17.69	-55.0	-68.7	3.8	1.49e+00	0	33	104	0	75	18140
2026-01-02 06:33:09.49	337.54	17.61	-55.0	-68.7	3.8	1.49e+00	0	32	104	0	75	18154
2026-01-02 06:33:10.48	337.37	17.53	-55.0	-68.7	3.8	1.49e+00	0	33	104	0	75	18180
2026-01-02 06:33:11.48	337.20	17.46	-55.0	-68.7	3.8	1.49e+00	0	33	104	0	75	18114
2026-01-02 06:33:12.47	337.04	17.38	-55.0	-68.7	3.8	1.49e+00	0	33	104	0	75	18155
2026-01-02 06:33:13.47	336.87	17.30	-55.0	-68.7	3.8	1.49e+00	0	32	104	0	75	18163
2026-01-02 06:33:14.48	336.70	17.22	-55.0	-68.7	3.8	1.49e+00	0	32	104	0	75	18198
2026-01-02 06:33:15.48	336.53	17.14	-55.0	-68.7	3.8	1.49e+00	0	33	104	0	75	18176
2026-01-02 06:33:16.48	336.37	17.06	-55.0	-68.7	3.8	1.49e+00	0	33	104	0	75	18159
2026-01-02 06:33:17.47	336.20	16.98	-55.0	-68.7	3.8	1.49e+00	0	33	104	0	75	18156
2026-01-02 06:33:18.47	336.04	16.90	-55.0	-68.7	3.8	1.49e+00	0	33	104	0	75	18121
2026-01-02 06:33:19.47	335.88	16.83	-55.0	-68.7	3.8	1.49e+00	0	33	104	0	75	18175
2026-01-02 06:33:20.47	335.71	16.75	-55.0	-68.7	3.8	1.49e+00	0	33	104	0	75	18161
2026-01-02 06:33:21.47	335.55	16.67	-55.0	-68.7	3.8	1.49e+00	0	33	104	0	75	18171
2026-01-02 06:33:22.47	335.39	16.59	-55.0	-68.7	3.8	1.49e+00	0	33	104	0	75	18189
2026-01-02 06:33:23.47	335.23	16.51	-55.0	-68.7	3.8	1.49e+00	0	33	104	0	75	18164
2026-01-02 06:33:24.46	335.07	16.43	-55.0	-68.7	3.8	1.49e+00	0	33	104	0	75	18170
2026-01-02 06:33:25.47	334.91	16.35	-55.0	-68.7	3.8	1.49e+00	0	33	104	0	75	18178
2026-01-02 06:33:26.46	334.76	16.28	-55.0	-68.7	3.8	1.49e+00	0	33	104	0	75	18144
2026-01-02 06:33:27.46	334.60	16.20	-55.0	-68.7	3.8	1.49e+00	0	33	104	0	75	18151
2026-01-02 06:33:28.46	334.45	16.12	-55.0	-68.7	3.8	1.49e+00	0	33	104	0	75	18120
2026-01-02 06:33:29.46	334.29	16.04	-55.0	-68.7	3.8	1.49e+00	0	33	104	0	75	18182
2026-01-02 06:33:30.46	334.14	15.96	-55.0	-68.7	3.8	1.49e+00	0	33	104	0	75	18181
2026-01-02 06:33:31.46	333.98	15.88	-55.0	-68.7	3.8	1.49e+00	0	33	104	0	75	18197
2026-01-02 06:33:32.46	333.83	15.80	-55.0	-68.7	3.8	1.49e+00	0	33	104	0	75	18186
2026-01-02 06:33:33.45	333.68	15.73	-55.0	-68.7	3.8	1.49e+00	0	33	104	0	75	18149
2026-01-02 06:33:34.45	333.53	15.65	-55.0	-68.7	3.8	1.49e+00	0	33	104	0	75	18215
2026-01-02 06:33:35.45	333.38	15.57	-55.0	-68.7	3.8	1.49e+00	0	33	104	0	75	18220
2026-01-02 06:33:36.46	333.23	15.49	-55.0	-68.7	3.8	1.49e+00	0	33	104	0	75	18143
2026-01-02 06:33:37.46	333.08	15.41	-55.0	-68.7	3.8	1.49e+00	0	33	104	0	75	18192
2026-01-02 06:33:38.45	332.94	15.34	-55.0	-68.7	3.8	1.49e+00	0	33	104	0	75	18170
2026-01-02 06:33:39.45	332.79	15.26	-55.0	-68.7	3.8	1.49e+00	0	33	104	0	75	18162
2026-01-02 06:33:40.45	332.64	15.18	-55.0	-68.7	3.8	1.49e+00	0	33	104	0	75	18147
2026-01-02 06:33:41.45	332.50	15.10	-55.0	-68.7	3.8	1.49e+00	0	33	104	0	75	18130
2026-01-02 06:33:42.44	332.36	15.02	-55.0	-68.7	3.8	1.49e+00	0	33	104	0	75	18169
2026-01-02 06:33:43.45	332.21	14.95	-55.0	-68.7	3.8	1.49e+00	0	33	104	0	75	18198
2026-01-02 06:33:44.46	332.07	14.87	-55.0	-68.7	3.8	1.49e+00	0	33	104	0	75	18106
2026-01-02 06:33:45.46	331.93	14.79	-55.0	-68.7	3.8	1.49e+00	0	33	104	0	75	18173
2026-01-02 06:33:46.46	331.78	14.71	-55.0	-68.7	3.8	1.49e+00	0	33	104	0	75	18143
2026-01-02 06:33:47.46	331.64	14.63	-55.0	-68.7	3.8	1.49e+00	0	33	104	0	75	18115
2026-01-02 06:33:48.46	331.50	14.56	-55.0	-68.7	3.8	1.49e+00	0	33	104	0	75	18173
2026-01-02 06:33:49.47	331.36	14.48	-55.0	-68.7	3.8	1.49e+00	0	33	104	0	75	18207
2026-01-02 06:33:50.47	331.23	14.40	-55.0	-68.7	3.8	1.49e+00	0	33	104	0	75	18172
2026-01-02 06:33:51.47	331.09	14.32	-55.0	-68.7	3.8	1.49e+00	0	33	104	0	75	18178
2026-01-02 06:33:52.48	330.95	14.25	-55.0	-68.7	3.8	1.49e+00	0	33	104	0	75	18143
2026-01-02 06:33:53.48	330.81	14.17	-55.0	-68.7	3.8	1.49e+00	0	33	104	0	75	18175
2026-01-02 06:33:54.47	330.68	14.09	-55.0	-68.7	3.8	1.49e+00	0	33	104	0	75	18193
2026-01-02 06:33:55.47	330.54	14.02	-55.0	-68.7	3.8	1.49e+00	0	33	104	0	75	18169
2026-01-02 06:33:56.47	330.41	13.94	-55.0	-68.7	3.8	1.49e+00	0	33	104	0	75	18183
2026-01-02 06:33:57.46	330.28	13.86	-55.0	-68.7	3.8	1.49e+00	0	33	104	0	75	18176
2026-01-02 06:33:58.46	330.15	13.79	-55.0	-68.7	3.8	1.49e+00	0	33	104	0	75	18191
2026-01-02 06:33:59.47	330.01	13.71	-55.0	-68.7	3.8	1.49e+00	0	33	104	0	75	18182
2026-01-02 06:34:00.47	329.88	13.63	-55.0	-68.7	3.8	1.49e+00	0	33	104	0	75	18162
2026-01-02 06:34:01.46	329.75	13.56	-55.0	-68.7	3.8	1.49e+00	0	33	104	0	75	18218
2026-01-02 06:34:02.45	329.62	13.48	-55.0	-68.7	3.8	1.49e+00	0	33	104	0	75	18196
2026-01-02 06:34:03.45	329.50	13.41	-55.0	-68.7	3.8	1.49e+00	0	33	104	0	75	18178
2026-01-02 06:34:04.45	329.37	13.33	-55.0	-68.7	3.8	1.49e+00	0	33	104	0	75	18216
2026-01-02 06:34:05.44	329.24	13.25	-55.0	-68.7	3.8	1.49e+00	0	33	104	0	75	18205
2026-01-02 06:34:06.44	329.11	13.18	-55.0	-68.7	3.8	1.49e+00	0	33	104	0	75	18175
2026-01-02 06:34:07.43	328.99	13.10	-55.0	-68.7	3.8	1.49e+00	0	33	104	0	75	18167
2026-01-02 06:34:08.43	328.86	13.03	-55.0	-68.7	3.8	1.49e+00	0	33	104	0	75	18162
2026-01-02 06:34:09.43	328.74	12.95	-55.0	-68.7	3.8	1.49e+00	0	33	104	0	75	18169
2026-01-02 06:34:10.43	328.61	12.88	-55.0	-68.7	3.8	1.49e+00	0	33	104	0	75	18161
2026-01-02 06:34:11.43	328.49	12.80	-55.0	-68.7	3.8	1.49e+00	0	33	104	0	75	18153
2026-01-02 06:34:12.41	328.37	12.73	-55.0	-68.7	3.8	1.49e+00	0	33	104	0	75	18182
2026-01-02 06:34:13.41	328.25	12.65	-55.0	-68.7	3.8	1.49e+00	0	33	104	0	75	18180
2026-01-02 06:34:14.41	328.12	12.58	-55.0	-68.7	3.8	1.49e+00	0	33	104	0	75	18189
2026-01-02 06:34:15.41	328.00	12.50	-55.0	-68.7	3.8	1.49e+00	0	33	104	0	75	18221
2026-01-02 06:34:16.41	327.88	12.43	-55.0	-68.7	3.8	1.49e+00	0	33	104	0	75	18170
2026-01-02 06:34:17.40	327.76	12.35	-55.0	-68.7	3.8	1.49e+00	0	33	104	0	75	18179
2026-01-02 06:34:18.40	327.64	12.28	-55.0	-68.7	3.8	1.49e+00	0	33	104	0	75	18150
2026-01-02 06:34:19.40	327.52	12.20	-55.0	-68.7	3.8	1.49e+00	0	33	104	0	75	18144
2026-01-02 06:34:20.40	327.41	12.13	-55.0	-68.7	3.8	1.49e+00	0	33	104	0	75	18215
2026-01-02 06:34:21.41	327.29	12.05	-55.0	-68.7	3.8	1.49e+00	0	33	104	0	75	18158
2026-01-02 06:34:22.41	327.17	11.98	-55.0	-68.7	3.8	1.49e+00	0	33	104	0	75	18202
2026-01-02 06:34:23.41	327.05	11.91	-55.0	-68.7	3.8	1.49e+00	0	33	104	0	75	18169
2026-01-02 06:34:24.41	326.94	11.83	-55.0	-68.7	3.8	1.49e+00	0	33	104	0	75	18165
2026-01-02 06:34:25.42	326.82	11.76	-55.0	-68.7	3.8	1.49e+00	0	33	104	0	75	18141
2026-01-02 06:34:26.42	326.71	11.68	-55.0	-68.7	3.8	1.49e+00	0	33	104	0	75	18162
2026-01-02 06:34:27.42	326.59	11.61	-55.0	-68.7	3.8	1.49e+00	0	33	104	0	75	18124
2026-01-02 06:34:28.42	326.48	11.53	-55.0	-68.7	3.8	1.49e+00	0	33	104	0	75	18243
2026-01-02 06:34:29.41	326.37	11.46	-55.0	-68.7	3.8	1.49e+00	0	33	104	0	75	18168
2026-01-02 06:34:30.41	326.26	11.39	-55.0	-68.7	3.8	1.49e+00	0	33	104	0	75	18221
2026-01-02 06:34:31.41	326.15	11.32	-55.0	-68.7	3.8	1.49e+00	0	33	104	0	75	18184
2026-01-02 06:34:32.42	326.03	11.24	-55.0	-68.7	3.8	1.49e+00	0	33	104	0	75	18180
2026-01-02 06:34:33.42	325.92	11.17	-55.0	-68.7	3.8	1.49e+00	0	33	104	0	75	18229
2026-01-02 06:34:34.42	325.81	11.10	-55.0	-68.7	3.8	1.49e+00	0	33	104	0	75	18162
2026-01-02 06:34:35.42	325.70	11.02	-55.0	-68.7	3.8	1.49e+00	0	33	104	0	75	18184
2026-01-02 06:34:36.42	325.60	10.95	-55.0	-68.7	3.8	1.49e+00	0	33	104	0	75	18162
2026-01-02 06:34:37.42	325.49	10.88	-55.0	-68.7	3.8	1.49e+00	0	33	104	0	75	18181
2026-01-02 06:34:38.42	325.38	10.80	-55.0	-68.7	3.8	1.49e+00	0	33	104	0	75	18118
2026-01-02 06:34:39.42	325.27	10.73	-55.0	-68.7	3.8	1.49e+00	0	33	104	0	75	18162
2026-01-02 06:34:40.42	325.17	10.66	-55.0	-68.7	3.8	1.49e+00	0	33	104	0	75	18255
2026-01-02 06:34:41.42	325.06	10.59	-55.0	-68.7	3.8	1.49e+00	0	33	104	0	75	18142
2026-01-02 06:34:42.42	324.95	10.51	-55.0	-68.7	3.8	1.49e+00	0	33	104	0	75	18175
2026-01-02 06:34:43.42	324.85	10.44	-55.0	-68.7	3.8	1.49e+00	0	33	104	0	75	18173
2026-01-02 06:34:44.42	324.74	10.37	-55.0	-68.7	3.8	1.49e+00	0	33	104	0	75	18132
2026-01-02 06:34:45.42	324.64	10.30	-55.0	-68.7	3.8	1.49e+00	0	33	104	0	75	18203
2026-01-02 06:34:46.42	324.54	10.23	-55.0	-68.7	3.8	1.49e+00	0	33	104	0	75	18203
2026-01-02 06:34:47.42	324.43	10.16	-55.0	-68.7	3.8	1.49e+00	0	33	104	0	75	18259
2026-01-02 06:34:48.42	324.33	10.08	-55.0	-68.7	3.8	1.49e+00	0	33	104	0	75	18183
2026-01-02 06:34:49.42	324.23	10.01	-55.0	-68.7	3.8	1.49e+00	0	33	104	0	75	18212
2026-01-02 06:34:50.41	324.13	9.94	-55.0	-68.7	3.8	1.49e+00	0	33	104	0	75	18147
2026-01-02 06:34:51.41	324.03	9.87	-55.0	-68.7	3.8	1.49e+00	0	33	104	0	75	18179
2026-01-02 06:34:52.41	323.93	9.80	-55.0	-68.7	3.8	1.49e+00	0	33	104	0	75	18184
2026-01-02 06:34:53.41	323.83	9.73	-55.0	-68.7	3.8	1.49e+00	0	33	104	0	75	18156
2026-01-02 06:34:54.40	323.73	9.66	-55.0	-68.7	3.8	1.49e+00	0	33	104	0	75	18160
2026-01-02 06:34:55.40	323.63	9.59	-55.0	-68.7	3.8	1.49e+00	0	33	104	0	75	18172
2026-01-02 06:34:56.40	323.53	9.52	-55.0	-68.7	3.8	1.49e+00	0	33	104	0	75	18155
2026-01-02 06:34:57.40	323.44	9.45	-55.0	-68.7	3.8	1.49e+00	0	33	104	0	75	18171
2026-01-02 06:34:58.40	323.34	9.38	-55.0	-68.7	3.8	1.49e+00	0	33	104	0	75	18148
2026-01-02 06:34:59.39	323.24	9.31	-55.0	-68.7	3.8	1.49e+00	0	33	104	0	75	18155
2026-01-02 06:35:00.39	323.15	9.24	-55.0	-68.7	3.8	1.49e+00	0	33	104	0	75	18126
2026-01-02 06:35:01.37	323.05	9.17	-55.0	-68.7	3.8	1.49e+00	0	33	104	0	75	18188
2026-01-02 06:35:02.36	322.96	9.10	-55.0	-68.7	3.8	1.49e+00	0	33	104	0	75	18221
2026-01-02 06:35:03.36	322.86	9.03	-55.0	-68.7	3.8	1.49e+00	0	33	104	0	75	18201
2026-01-02 06:35:04.35	322.77	8.96	-55.0	-68.7	3.8	1.49e+00	0	33	104	0	75	18190
2026-01-02 06:35:05.35	322.68	8.89	-55.0	-68.7	3.8	1.49e+00	0	33	104	0	75	18163
2026-01-02 06:35:06.34	322.58	8.82	-55.0	-68.7	3.8	1.49e+00	0	33	104	0	75	18169
2026-01-02 06:35:07.33	322.49	8.76	-55.0	-68.7	3.8	1.49e+00	0	33	104	0	75	18156
2026-01-02 06:35:08.33	322.40	8.69	-55.0	-68.7	3.8	1.49e+00	0	33	104	0	75	18242
2026-01-02 06:35:09.33	322.31	8.62	-55.0	-68.7	3.8	1.49e+00	0	33	104	0	75	18200
2026-01-02 06:35:10.32	322.22	8.55	-55.0	-68.7	3.8	1.49e+00	0	33	104	0	75	18234
2026-01-02 06:35:11.32	322.12	8.48	-55.0	-68.7	3.8	1.49e+00	0	33	104	0	75	18167
2026-01-02 06:35:12.31	322.03	8.41	-55.0	-68.7	3.8	1.49e+00	0	33	104	0	75	18186
2026-01-02 06:35:13.31	321.94	8.34	-55.0	-68.7	3.8	1.49e+00	0	33	104	0	75	18210
2026-01-02 06:35:14.30	321.85	8.28	-55.0	-68.7	3.8	1.49e+00	0	33	104	0	75	18237
2026-01-02 06:35:15.30	321.77	8.21	-55.0	-68.7	3.8	1.49e+00	0	33	104	0	75	18238
2026-01-02 06:35:16.31	321.68	8.14	-55.0	-68.7	3.8	1.49e+00	0	33	104	0	75	18203
2026-01-02 06:35:17.30	321.59	8.07	-55.0	-68.7	3.8	1.49e+00	0	33	104	0	75	18156
2026-01-02 06:35:18.29	321.50	8.00	-55.0	-68.7	3.8	1.49e+00	0	33	104	0	75	18196
2026-01-02 06:35:19.30	321.41	7.94	-55.0	-68.7	3.8	1.49e+00	0	33	104	0	75	18223
2026-01-02 06:35:20.30	321.32	7.87	-55.0	-68.7	3.8	1.49e+00	0	33	104	0	75	18180
2026-01-02 06:35:21.30	321.24	7.80	-55.0	-68.7	3.8	1.49e+00	0	33	104	0	75	18214
2026-01-02 06:35:22.30	321.15	7.73	-55.0	-68.7	3.8	1.49e+00	0	33	104	0	75	18183
2026-01-02 06:35:23.30	321.06	7.67	-55.0	-68.7	3.8	1.49e+00	0	33	104	0	75	18196
2026-01-02 06:35:24.30	320.98	7.60	-55.0	-68.7	3.8	1.49e+00	0	33	104	0	75	18184
2026-01-02 06:35:25.30	320.89	7.53	-55.0	-68.7	3.8	1.49e+00	0	33	104	0	75	18231
2026-01-02 06:35:26.31	320.81	7.46	-55.0	-68.7	3.8	1.49e+00	0	33	104	0	75	18174
2026-01-02 06:35:27.31	320.72	7.40	-55.0	-68.7	3.8	1.49e+00	0	33	104	0	75	18180
2026-01-02 06:35:28.31	320.64	7.33	-55.0	-68.7	3.8	1.49e+00	0	33	104	0	75	18185
2026-01-02 06:35:29.31	320.55	7.26	-55.0	-68.7	3.8	1.49e+00	0	33	104	0	75	18169
2026-01-02 06:35:30.31	320.47	7.20	-55.0	-68.7	3.8	1.49e+00	0	33	104	0	75	18230
2026-01-02 06:35:31.31	320.39	7.13	-55.0	-68.7	3.8	1.49e+00	0	33	104	0	75	18191
2026-01-02 06:35:32.31	320.31	7.06	-55.0	-68.7	3.8	1.49e+00	0	33	104	0	75	18258
2026-01-02 06:35:33.30	320.22	7.00	-55.0	-68.7	3.8	1.49e+00	0	33	104	0	75	18217
2026-01-02 06:35:34.30	320.14	6.93	-55.0	-68.7	3.8	1.49e+00	0	33	104	0	75	18133
2026-01-02 06:35:35.29	320.06	6.87	-55.0	-68.7	3.8	1.49e+00	0	33	104	0	75	18173
2026-01-02 06:35:36.29	319.98	6.80	-55.0	-68.7	3.8	1.49e+00	0	33	104	0	75	18180
2026-01-02 06:35:37.29	319.90	6.74	-55.0	-68.7	3.8	1.49e+00	0	33	104	0	75	18190
2026-01-02 06:35:38.29	319.82	6.67	-55.0	-68.7	3.8	1.49e+00	0	33	104	0	75	18178
2026-01-02 06:35:39.29	319.74	6.60	-55.0	-68.7	3.8	1.49e+00	0	33	104	0	75	18180
2026-01-02 06:35:40.29	319.66	6.54	-55.0	-68.7	3.8	1.49e+00	0	33	104	0	75	18216
2026-01-02 06:35:41.29	319.58	6.47	-55.0	-68.6	3.8	1.49e+00	0	33	104	0	75	18081
2026-01-02 06:35:42.29	319.50	6.41	-55.0	-68.7	3.8	1.49e+00	0	33	104	0	75	18248
2026-01-02 06:35:43.28	319.43	6.34	-55.0	-68.7	3.8	1.49e+00	0	33	104	0	75	18159
2026-01-02 06:35:44.28	319.35	6.28	-55.0	-68.7	3.8	1.49e+00	0	33	104	0	75	18236
2026-01-02 06:35:45.27	319.27	6.21	-55.0	-68.7	3.8	1.49e+00	0	33	104	0	75	18224
2026-01-02 06:35:46.27	319.19	6.15	-55.0	-68.7	3.8	1.49e+00	0	33	104	0	75	18212
2026-01-02 06:35:47.27	319.12	6.08	-55.0	-68.7	3.8	1.49e+00	0	33	104	0	75	18212
2026-01-02 06:35:48.27	319.04	6.02	-55.0	-68.7	3.8	1.49e+00	0	33	104	0	75	18237
2026-01-02 06:35:49.27	318.96	5.96	-55.0	-68.7	3.8	1.49e+00	0	33	104	0	75	18257
2026-01-02 06:35:50.27	318.89	5.89	-55.0	-68.7	3.8	1.49e+00	0	33	104	0	75	18237
2026-01-02 06:35:51.27	318.81	5.83	-55.0	-68.7	3.8	1.49e+00	0	33	104	0	75	18203
2026-01-02 06:35:52.28	318.74	5.76	-55.0	-68.7	3.8	1.49e+00	0	33	104	0	75	18248
2026-01-02 06:35:53.28	318.66	5.70	-55.0	-68.7	3.8	1.49e+00	0	33	104	0	75	18257
2026-01-02 06:35:54.28	318.59	5.63	-55.0	-68.7	3.8	1.49e+00	0	33	104	0	75	18179
2026-01-02 06:35:55.28	318.51	5.57	-55.0	-68.7	3.8	1.49e+00	0	33	104	0	75	18281
2026-01-02 06:35:56.28	318.44	5.51	-55.0	-68.7	3.8	1.49e+00	0	33	104	0	75	18193
2026-01-02 06:35:57.29	318.37	5.44	-55.0	-68.7	3.8	1.49e+00	0	33	104	0	75	18212
2026-01-02 06:35:58.28	318.29	5.38	-55.0	-68.7	3.8	1.49e+00	0	33	104	0	75	18244
2026-01-02 06:35:59.28	318.22	5.32	-55.0	-68.7	3.8	1.49e+00	0	33	104	0	75	18221
2026-01-02 06:36:00.27	318.15	5.25	-55.0	-68.7	3.8	1.49e+00	0	33	104	0	75	18249
2026-01-02 06:36:01.28	318.08	5.19	-55.0	-68.7	3.8	1.49e+00	0	33	104	0	75	18170
2026-01-02 06:36:02.28	318.00	5.13	-55.0	-68.7	3.8	1.49e+00	0	33	104	0	75	18244
2026-01-02 06:36:03.27	317.93	5.06	-55.0	-68.7	3.8	1.49e+00	0	33	104	0	75	18189
2026-01-02 06:36:04.27	317.86	5.00	-55.0	-68.7	3.8	1.49e+00	0	33	104	0	75	18147
2026-01-02 06:36:05.27	317.79	4.94	-55.0	-68.7	3.8	1.49e+00	0	33	104	0	75	18206
2026-01-02 06:36:06.27	317.72	4.88	-55.0	-68.7	3.8	1.49e+00	0	33	104	0	75	18233
2026-01-02 06:36:07.27	317.65	4.81	-55.0	-68.7	3.8	1.49e+00	0	33	104	0	75	18175
2026-01-02 06:36:08.26	317.58	4.75	-55.0	-68.7	3.8	1.49e+00	0	33	104	0	75	18146
2026-01-02 06:36:09.25	317.51	4.69	-55.0	-68.7	3.8	1.49e+00	0	33	104	0	75	18183
2026-01-02 06:36:10.25	317.44	4.63	-55.0	-68.7	3.8	1.49e+00	0	33	104	0	75	18240
2026-01-02 06:36:11.25	317.37	4.57	-55.0	-68.7	3.8	1.49e+00	0	33	104	0	75	18212
2026-01-02 06:36:12.25	317.31	4.50	-55.0	-68.7	3.8	1.49e+00	0	33	104	0	75	18205
2026-01-02 06:36:13.25	317.24	4.44	-55.0	-68.7	3.8	1.49e+00	0	33	104	0	75	18200
2026-01-02 06:36:14.25	317.17	4.38	-55.0	-68.7	3.8	1.49e+00	0	33	104	0	75	18207
2026-01-02 06:36:15.25	317.10	4.32	-55.0	-68.7	3.8	1.49e+00	0	33	104	0	75	18162
2026-01-02 06:36:16.25	317.03	4.26	-55.0	-68.7	3.8	1.49e+00	0	33	104	0	75	18179
2026-01-02 06:36:17.24	316.97	4.20	-55.0	-68.7	3.8	1.49e+00	0	33	104	0	75	18238
