passes_logs/2026/01/02/R3.2S_Murmansk/R3.2S_Murmansk__20260102_103311_NOAA_20_JPSS-1_rec.log

#Pass ID: 20260102_103311_NOAA 20 (JPSS-1)
#Satellite: NOAA 20 (JPSS-1)
#Configuration: NOAA 20
#almurnet v.1.7.20251203
#Start time: 2026-01-02 10:33:13

#Version: 2.2.20231116
#Station: R3.2S_Murmansk
#Location: 33.079688 lon 68.888172 lat
#TLE: 1 43013U 17073A   26001.09198674  .00000169  00000+0  10130-3 0  9995
#TLE: 2 43013  98.7621 302.1793 0001944  59.5293 300.6075 14.19531878420769

#Time	Az	El	Level	Level2	SNR	BER	BlckErr	Temp	State	Recorded	gain1	gain2
2026-01-02 10:33:13.25	177.00	2.11	-60.1	-75.6	3.8	1.49e+00	0	31	0	0	86	21268
2026-01-02 10:33:14.24	177.03	2.18	-60.1	-75.7	3.8	1.49e+00	0	31	104	0	85	22815
2026-01-02 10:33:15.23	177.06	2.24	-60.1	-75.6	3.8	1.49e+00	0	31	104	0	85	22697
2026-01-02 10:33:16.23	177.09	2.30	-60.1	-75.6	3.8	1.49e+00	0	31	104	0	85	22615
2026-01-02 10:33:17.22	177.12	2.36	-60.1	-75.5	3.8	1.49e+00	0	30	104	0	85	22462
2026-01-02 10:33:18.23	177.16	2.43	-60.1	-75.5	3.8	1.49e+00	0	31	104	0	85	22381
2026-01-02 10:33:19.22	177.19	2.49	-60.1	-75.5	3.8	1.49e+00	0	31	104	0	85	22268
2026-01-02 10:33:20.21	177.22	2.55	-60.1	-75.4	3.8	1.49e+00	0	31	104	0	85	22083
2026-01-02 10:33:21.20	177.25	2.62	-60.1	-75.4	3.8	1.49e+00	0	31	104	0	85	22158
2026-01-02 10:33:22.19	177.29	2.68	-60.1	-75.5	3.8	1.49e+00	0	31	104	0	85	22438
2026-01-02 10:33:23.18	177.32	2.74	-60.1	-75.6	3.8	1.49e+00	0	31	104	0	85	22600
2026-01-02 10:33:24.17	177.35	2.81	-60.1	-75.6	3.8	1.49e+00	0	31	104	0	85	22646
2026-01-02 10:33:25.16	177.39	2.87	-60.1	-75.6	3.8	1.49e+00	0	31	104	0	85	22778
2026-01-02 10:33:26.16	177.42	2.93	-60.1	-75.6	3.8	1.49e+00	0	31	104	0	85	22775
2026-01-02 10:33:27.15	177.45	3.00	-60.1	-75.5	3.8	1.49e+00	0	31	104	0	85	22511
2026-01-02 10:33:28.14	177.49	3.06	-60.1	-75.6	3.8	1.49e+00	0	31	104	0	85	22541
2026-01-02 10:33:29.13	177.52	3.13	-60.1	-75.5	3.8	1.49e+00	0	31	104	0	85	22327
2026-01-02 10:33:30.12	177.55	3.19	-60.1	-75.5	3.8	1.49e+00	0	31	104	0	85	22379
2026-01-02 10:33:31.12	177.59	3.26	-60.1	-75.5	3.8	1.49e+00	0	31	104	0	85	22400
2026-01-02 10:33:32.11	177.62	3.32	-60.1	-75.6	3.8	1.49e+00	0	31	104	0	85	22594
2026-01-02 10:33:33.10	177.65	3.39	-60.1	-75.6	3.8	1.49e+00	0	31	104	0	85	22770
2026-01-02 10:33:34.09	177.69	3.45	-60.1	-75.7	3.8	1.49e+00	0	31	104	0	85	22841
2026-01-02 10:33:35.08	177.72	3.52	-60.1	-75.6	3.8	1.49e+00	0	31	104	0	85	22710
2026-01-02 10:33:36.08	177.76	3.58	-60.1	-75.3	3.8	1.49e+00	0	31	104	0	85	21902
2026-01-02 10:33:37.07	177.79	3.65	-60.1	-74.6	3.8	1.49e+00	0	31	104	0	85	20104
2026-01-02 10:33:38.07	177.83	3.71	-60.0	-73.8	3.8	1.49e+00	0	31	104	0	85	18414
2026-01-02 10:33:39.07	177.86	3.78	-60.0	-72.4	4.1	1.47e+00	0	31	0	0	85	15698
2026-01-02 10:33:40.06	177.90	3.85	-59.9	-71.6	4.3	1.35e+00	33	31	0	0	85	14306
2026-01-02 10:33:41.05	177.93	3.91	-59.9	-71.0	4.6	1.03e+00	0	31	0	1048576	85	13383
2026-01-02 10:33:42.04	177.97	3.98	-59.8	-70.3	4.9	8.44e-01	0	31	0	3145728	85	12345
2026-01-02 10:33:43.03	178.00	4.04	-59.8	-69.6	5.2	6.64e-01	0	31	0	5242880	85	11395
2026-01-02 10:33:44.03	178.04	4.11	-59.7	-69.1	5.5	4.58e-01	0	31	0	7340032	85	10749
2026-01-02 10:33:45.02	178.08	4.18	-59.7	-68.8	5.7	4.13e-01	0	31	0	8388608	85	10345
2026-01-02 10:33:46.01	178.11	4.25	-59.6	-68.3	6.1	3.21e-01	0	31	0	10485760	85	9773
2026-01-02 10:33:47.00	178.15	4.31	-59.5	-67.9	6.3	2.66e-01	0	31	0	12582912	85	9388
2026-01-02 10:33:48.00	178.18	4.38	-59.5	-67.5	6.6	1.73e-01	0	31	0	14680064	85	8880
2026-01-02 10:33:48.99	178.22	4.45	-59.4	-66.9	7.2	1.15e-01	0	31	0	15728640	85	8272
2026-01-02 10:33:49.98	178.26	4.52	-59.2	-66.2	7.7	8.50e-02	0	31	0	17825792	85	7671
2026-01-02 10:33:50.98	178.29	4.58	-59.1	-65.7	8.2	4.90e-02	0	31	0	19922944	84	7632
2026-01-02 10:33:51.98	178.33	4.65	-58.9	-65.0	8.9	1.98e-02	0	31	0	22020096	84	7052
2026-01-02 10:33:52.96	178.37	4.72	-58.8	-64.4	9.3	1.08e-02	0	31	0	24117248	84	6621
2026-01-02 10:33:53.95	178.40	4.79	-58.6	-64.0	9.5	6.15e-03	0	31	0	25165824	83	6700
2026-01-02 10:33:54.95	178.44	4.86	-58.5	-63.7	9.8	3.53e-03	0	31	0	27262976	83	6492
2026-01-02 10:33:55.95	178.48	4.93	-58.4	-63.4	10.0	2.74e-03	0	31	0	29360128	83	6266
2026-01-02 10:33:56.94	178.52	4.99	-58.3	-63.3	10.2	1.94e-03	0	31	0	31457280	83	6163
2026-01-02 10:33:57.94	178.56	5.06	-58.4	-63.4	10.1	1.91e-03	0	31	0	32505856	83	6272
2026-01-02 10:33:58.93	178.59	5.13	-58.4	-63.6	9.9	3.19e-03	0	31	0	34603008	83	6414
2026-01-02 10:33:59.93	178.63	5.20	-58.9	-65.1	8.7	3.84e-03	0	31	0	36700160	83	7545
2026-01-02 10:34:00.92	178.67	5.27	-59.7	-69.3	5.5	4.44e-03	0	31	0	38797312	84	11576
2026-01-02 10:34:01.91	178.71	5.34	-60.1	-75.4	3.8	1.49e+00	0	31	104	39845888	85	22117
2026-01-02 10:34:02.91	178.75	5.41	-56.0	-58.3	13.6	9.72e-01	0	31	104	39845888	78	4650
2026-01-02 10:34:03.89	178.79	5.48	-55.7	-57.9	14.1	0.00e+00	0	31	0	40894464	78	4422
2026-01-02 10:34:04.89	178.83	5.55	-55.7	-57.9	14.2	0.00e+00	0	31	0	42991616	78	4430
2026-01-02 10:34:05.88	178.86	5.62	-55.8	-58.0	14.1	0.00e+00	0	31	0	45088768	78	4455
2026-01-02 10:34:06.88	178.90	5.69	-55.8	-58.1	14.1	0.00e+00	0	31	0	47185920	78	4505
2026-01-02 10:34:07.88	178.94	5.76	-55.8	-58.0	14.1	0.00e+00	0	31	0	48234496	78	4478
2026-01-02 10:34:08.88	178.98	5.84	-55.8	-58.0	14.1	0.00e+00	0	31	0	50331648	78	4472
2026-01-02 10:34:09.87	179.02	5.91	-55.8	-58.0	14.2	0.00e+00	0	31	0	52428800	78	4454
2026-01-02 10:34:10.87	179.06	5.98	-55.7	-57.9	14.2	0.00e+00	0	31	0	54525952	78	4404
2026-01-02 10:34:11.85	179.10	6.05	-55.8	-58.0	14.2	0.00e+00	0	31	0	55574528	78	4458
2026-01-02 10:34:12.86	179.14	6.12	-55.7	-57.9	14.2	0.00e+00	0	31	0	57671680	78	4402
2026-01-02 10:34:13.85	179.19	6.19	-55.6	-57.7	14.2	0.00e+00	0	31	0	59768832	77	4597
2026-01-02 10:34:14.84	179.23	6.26	-55.7	-57.8	14.2	0.00e+00	0	31	0	61865984	77	4620
2026-01-02 10:34:15.84	179.27	6.34	-55.7	-57.9	14.2	0.00e+00	0	31	0	63963136	77	4660
2026-01-02 10:34:16.83	179.31	6.41	-55.6	-57.7	14.3	0.00e+00	0	31	0	65011712	77	4552
2026-01-02 10:34:17.83	179.35	6.48	-55.6	-57.7	14.3	0.00e+00	0	31	0	67108864	77	4584
2026-01-02 10:34:18.82	179.39	6.56	-55.6	-57.8	14.3	0.00e+00	0	31	0	69206016	77	4602
2026-01-02 10:34:19.81	179.43	6.63	-55.7	-57.9	14.2	0.00e+00	0	31	0	71303168	77	4667
2026-01-02 10:34:20.80	179.47	6.70	-55.7	-57.8	14.3	0.00e+00	0	31	0	72351744	77	4621
2026-01-02 10:34:21.80	179.52	6.78	-55.7	-57.8	14.3	0.00e+00	0	31	0	74448896	77	4644
2026-01-02 10:34:22.79	179.56	6.85	-55.6	-57.7	14.3	0.00e+00	0	31	0	76546048	77	4569
2026-01-02 10:34:23.79	179.60	6.92	-55.7	-57.8	14.3	0.00e+00	0	31	0	78643200	77	4613
2026-01-02 10:34:24.79	179.65	7.00	-55.7	-57.8	14.3	0.00e+00	0	31	0	80740352	77	4620
2026-01-02 10:34:25.79	179.69	7.07	-55.5	-57.5	14.5	0.00e+00	0	31	0	81788928	77	4446
2026-01-02 10:34:26.79	179.73	7.15	-55.5	-57.6	14.4	0.00e+00	0	31	0	83886080	77	4506
2026-01-02 10:34:27.78	179.77	7.22	-55.6	-57.6	14.4	0.00e+00	0	31	0	85983232	77	4518
2026-01-02 10:34:28.77	179.82	7.30	-55.6	-57.7	14.4	0.00e+00	0	31	0	88080384	77	4563
2026-01-02 10:34:29.76	179.86	7.37	-55.7	-57.8	14.3	0.00e+00	0	31	0	89128960	77	4601
2026-01-02 10:34:30.75	179.91	7.45	-55.6	-57.6	14.4	0.00e+00	0	31	0	91226112	77	4534
2026-01-02 10:34:31.75	179.95	7.52	-55.6	-57.6	14.4	0.00e+00	0	31	0	93323264	77	4520
2026-01-02 10:34:32.74	179.99	7.60	-55.6	-57.6	14.4	0.00e+00	0	31	0	95420416	77	4538
2026-01-02 10:34:33.72	180.04	7.67	-55.5	-57.5	14.5	0.00e+00	0	31	0	97517568	77	4489
2026-01-02 10:34:34.71	180.08	7.75	-55.5	-57.5	14.5	0.00e+00	0	31	0	98566144	77	4491
2026-01-02 10:34:35.71	180.13	7.83	-55.6	-57.5	14.5	0.00e+00	0	31	0	100663296	77	4491
2026-01-02 10:34:36.70	180.17	7.90	-55.5	-57.5	14.5	0.00e+00	0	31	0	102760448	77	4474
2026-01-02 10:34:37.69	180.22	7.98	-55.6	-57.6	14.5	0.00e+00	0	31	0	104857600	77	4518
2026-01-02 10:34:38.69	180.26	8.06	-55.6	-57.7	14.4	0.00e+00	0	31	0	105906176	77	4558
2026-01-02 10:34:39.69	180.31	8.13	-55.5	-57.4	14.6	0.00e+00	0	31	0	108003328	77	4425
2026-01-02 10:34:40.68	180.36	8.21	-55.5	-57.4	14.6	0.00e+00	0	32	0	110100480	77	4432
2026-01-02 10:34:41.68	180.40	8.29	-55.4	-57.4	14.6	0.00e+00	0	31	0	112197632	77	4396
2026-01-02 10:34:42.66	180.45	8.37	-55.4	-57.3	14.6	0.00e+00	0	32	0	114294784	77	4371
2026-01-02 10:34:43.65	180.50	8.44	-55.3	-57.2	14.7	0.00e+00	0	31	0	115343360	77	4338
2026-01-02 10:34:44.65	180.54	8.52	-55.3	-57.2	14.7	0.00e+00	0	31	0	117440512	77	4307
2026-01-02 10:34:45.64	180.59	8.60	-55.4	-57.3	14.6	0.00e+00	0	31	0	119537664	77	4363
2026-01-02 10:34:46.63	180.64	8.68	-55.3	-57.2	14.7	0.00e+00	0	31	0	121634816	77	4297
2026-01-02 10:34:47.62	180.69	8.76	-55.4	-57.2	14.7	0.00e+00	0	31	0	122683392	77	4340
2026-01-02 10:34:48.61	180.73	8.84	-55.3	-57.1	14.8	0.00e+00	0	31	0	124780544	77	4290
2026-01-02 10:34:49.60	180.78	8.92	-55.3	-57.2	14.8	0.00e+00	0	31	0	126877696	77	4309
2026-01-02 10:34:50.60	180.83	9.00	-55.2	-57.0	14.8	0.00e+00	0	32	0	128974848	77	4236
2026-01-02 10:34:51.59	180.88	9.08	-55.2	-57.0	14.8	0.00e+00	0	31	0	130023424	76	4472
2026-01-02 10:34:52.58	180.93	9.16	-55.2	-57.0	14.8	0.00e+00	0	31	0	132120576	76	4484
2026-01-02 10:34:53.57	180.98	9.24	-55.2	-57.1	14.8	0.00e+00	0	32	0	134217728	76	4494
2026-01-02 10:34:54.57	181.03	9.32	-55.1	-56.9	14.8	0.00e+00	0	31	0	136314880	76	4410
2026-01-02 10:34:55.56	181.08	9.40	-55.1	-56.9	14.9	0.00e+00	0	32	0	138412032	76	4413
2026-01-02 10:34:56.56	181.13	9.48	-55.2	-56.9	14.8	0.00e+00	0	32	0	139460608	76	4432
2026-01-02 10:34:57.55	181.18	9.56	-55.0	-56.8	14.9	0.00e+00	0	32	0	141557760	76	4342
2026-01-02 10:34:58.53	181.23	9.64	-55.0	-56.8	14.9	0.00e+00	0	31	0	143654912	76	4342
2026-01-02 10:34:59.52	181.28	9.72	-55.1	-56.8	14.9	0.00e+00	0	32	0	145752064	76	4362
2026-01-02 10:35:00.52	181.33	9.81	-55.0	-56.8	14.9	0.00e+00	0	31	0	146800640	76	4342
2026-01-02 10:35:01.51	181.38	9.89	-55.0	-56.7	15.0	0.00e+00	0	31	0	148897792	76	4327
2026-01-02 10:35:02.50	181.43	9.97	-55.0	-56.7	15.0	0.00e+00	0	32	0	150994944	76	4307
2026-01-02 10:35:03.50	181.48	10.06	-55.0	-56.7	15.0	0.00e+00	0	32	0	153092096	76	4324
2026-01-02 10:35:04.49	181.53	10.14	-54.9	-56.6	15.0	0.00e+00	0	31	0	155189248	76	4272
2026-01-02 10:35:05.49	181.59	10.22	-54.9	-56.5	15.1	0.00e+00	0	32	0	156237824	76	4221
2026-01-02 10:35:06.47	181.64	10.30	-54.9	-56.6	15.1	0.00e+00	0	32	0	158334976	76	4244
2026-01-02 10:35:07.47	181.69	10.39	-54.8	-56.5	15.1	0.00e+00	0	31	0	160432128	76	4197
2026-01-02 10:35:08.46	181.75	10.47	-54.9	-56.6	15.1	0.00e+00	0	32	0	162529280	76	4259
2026-01-02 10:35:09.46	181.80	10.56	-54.9	-56.5	15.1	0.00e+00	0	32	0	163577856	76	4241
2026-01-02 10:35:10.45	181.85	10.64	-54.8	-56.4	15.1	0.00e+00	0	32	0	165675008	76	4179
2026-01-02 10:35:11.44	181.91	10.73	-54.7	-56.4	15.2	0.00e+00	0	32	0	167772160	76	4146
2026-01-02 10:35:12.43	181.96	10.81	-54.8	-56.4	15.1	0.00e+00	0	32	0	169869312	76	4188
2026-01-02 10:35:13.43	182.02	10.90	-54.8	-56.4	15.2	0.00e+00	0	32	0	171966464	76	4149
2026-01-02 10:35:14.43	182.07	10.99	-54.8	-56.4	15.1	0.00e+00	0	31	0	173015040	76	4186
2026-01-02 10:35:15.42	182.13	11.07	-54.7	-56.3	15.2	0.00e+00	0	32	0	175112192	76	4122
2026-01-02 10:35:16.42	182.18	11.16	-54.6	-56.2	15.2	0.00e+00	0	32	0	177209344	75	4304
2026-01-02 10:35:17.42	182.24	11.25	-54.6	-56.2	15.2	0.00e+00	0	32	0	179306496	75	4324
2026-01-02 10:35:18.41	182.29	11.33	-54.6	-56.2	15.2	0.00e+00	0	31	0	180355072	75	4298
2026-01-02 10:35:19.40	182.35	11.42	-54.7	-56.3	15.1	0.00e+00	0	32	0	182452224	75	4346
2026-01-02 10:35:20.39	182.41	11.51	-54.6	-56.2	15.1	0.00e+00	0	32	0	184549376	75	4331
2026-01-02 10:35:21.39	182.46	11.60	-54.5	-56.0	15.3	0.00e+00	0	32	0	186646528	75	4218
2026-01-02 10:35:22.37	182.52	11.68	-54.5	-56.0	15.3	0.00e+00	0	32	0	188743680	75	4242
2026-01-02 10:35:23.36	182.58	11.77	-54.5	-56.0	15.3	0.00e+00	0	32	0	189792256	75	4208
2026-01-02 10:35:24.36	182.64	11.86	-54.5	-56.1	15.3	0.00e+00	0	32	0	191889408	75	4254
2026-01-02 10:35:25.36	182.70	11.95	-54.5	-56.0	15.3	0.00e+00	0	32	0	193986560	75	4203
2026-01-02 10:35:26.35	182.75	12.04	-54.4	-55.9	15.4	0.00e+00	0	32	0	196083712	75	4166
2026-01-02 10:35:27.34	182.81	12.13	-54.4	-55.9	15.4	0.00e+00	0	32	0	197132288	75	4172
2026-01-02 10:35:28.33	182.87	12.22	-54.4	-55.8	15.4	0.00e+00	0	32	0	199229440	75	4145
2026-01-02 10:35:29.33	182.93	12.31	-54.4	-55.9	15.4	0.00e+00	0	32	0	201326592	75	4167
2026-01-02 10:35:30.32	182.99	12.40	-54.4	-55.9	15.4	0.00e+00	0	32	0	203423744	75	4189
2026-01-02 10:35:31.32	183.05	12.49	-54.3	-55.8	15.4	0.00e+00	0	32	0	205520896	74	4367
2026-01-02 10:35:32.32	183.12	12.58	-54.4	-55.9	15.3	0.00e+00	0	32	0	206569472	74	4405
2026-01-02 10:35:33.31	183.18	12.68	-54.4	-55.9	15.4	0.00e+00	0	32	0	208666624	74	4422
2026-01-02 10:35:34.30	183.24	12.77	-54.4	-55.9	15.4	0.00e+00	0	32	0	210763776	74	4404
2026-01-02 10:35:35.30	183.30	12.86	-54.2	-55.7	15.4	0.00e+00	0	32	0	212860928	74	4299
2026-01-02 10:35:36.30	183.36	12.95	-54.3	-55.7	15.4	0.00e+00	0	32	0	214958080	74	4327
2026-01-02 10:35:37.29	183.42	13.05	-54.3	-55.8	15.4	0.00e+00	0	32	0	216006656	74	4343
2026-01-02 10:35:38.28	183.49	13.14	-54.2	-55.7	15.5	0.00e+00	0	32	0	218103808	74	4294
2026-01-02 10:35:39.27	183.55	13.23	-54.2	-55.6	15.5	0.00e+00	0	32	0	220200960	74	4274
2026-01-02 10:35:40.26	183.61	13.33	-54.2	-55.7	15.5	0.00e+00	0	32	0	222298112	74	4292
2026-01-02 10:35:41.26	183.68	13.42	-54.1	-55.5	15.5	0.00e+00	0	32	0	223346688	74	4225
2026-01-02 10:35:42.25	183.74	13.51	-54.2	-55.6	15.5	0.00e+00	0	32	0	225443840	74	4245
2026-01-02 10:35:43.24	183.81	13.61	-54.1	-55.5	15.6	0.00e+00	0	32	0	227540992	74	4210
2026-01-02 10:35:44.23	183.87	13.70	-54.2	-55.6	15.5	0.00e+00	0	31	0	229638144	74	4244
2026-01-02 10:35:45.22	183.94	13.80	-54.1	-55.4	15.6	0.00e+00	0	32	0	230686720	74	4177
2026-01-02 10:35:46.21	184.00	13.90	-54.1	-55.5	15.6	0.00e+00	0	31	0	232783872	74	4201
2026-01-02 10:35:47.20	184.07	13.99	-53.9	-55.3	15.7	0.00e+00	0	32	0	234881024	74	4109
2026-01-02 10:35:48.19	184.14	14.09	-54.0	-55.3	15.6	0.00e+00	0	32	0	236978176	74	4118
2026-01-02 10:35:49.19	184.21	14.19	-54.0	-55.3	15.6	0.00e+00	0	32	0	238026752	74	4128
2026-01-02 10:35:50.19	184.27	14.28	-53.9	-55.3	15.6	0.00e+00	0	32	0	240123904	74	4114
2026-01-02 10:35:51.18	184.34	14.38	-54.0	-55.4	15.6	0.00e+00	0	32	0	242221056	74	4156
2026-01-02 10:35:52.16	184.41	14.48	-54.0	-55.3	15.6	0.00e+00	0	32	0	244318208	74	4138
2026-01-02 10:35:53.16	184.48	14.58	-53.9	-55.2	15.7	0.00e+00	0	32	0	246415360	74	4075
2026-01-02 10:35:54.15	184.55	14.68	-53.9	-55.2	15.6	0.00e+00	0	32	0	247463936	74	4088
2026-01-02 10:35:55.14	184.62	14.77	-53.9	-55.2	15.7	0.00e+00	0	32	0	249561088	74	4064
2026-01-02 10:35:56.13	184.69	14.87	-53.9	-55.2	15.7	0.00e+00	0	32	0	251658240	74	4076
2026-01-02 10:35:57.12	184.76	14.97	-53.8	-55.1	15.7	0.00e+00	0	32	0	253755392	74	4039
2026-01-02 10:35:58.12	184.83	15.07	-53.8	-55.1	15.7	0.00e+00	0	32	0	254803968	74	4030
2026-01-02 10:35:59.11	184.90	15.17	-53.8	-55.1	15.7	0.00e+00	0	32	0	256901120	74	4029
2026-01-02 10:36:00.11	184.97	15.28	-53.8	-55.1	15.7	0.00e+00	0	32	0	258998272	74	4006
2026-01-02 10:36:01.11	185.05	15.38	-53.8	-55.1	15.7	0.00e+00	0	32	0	261095424	74	4009
2026-01-02 10:36:02.10	185.12	15.48	-53.8	-55.1	15.7	0.00e+00	0	32	0	263192576	74	4006
2026-01-02 10:36:03.09	185.19	15.58	-53.7	-55.0	15.8	0.00e+00	0	32	0	264241152	74	3977
2026-01-02 10:36:04.09	185.27	15.68	-53.7	-55.0	15.8	0.00e+00	0	32	0	266338304	74	3966
2026-01-02 10:36:05.09	185.34	15.79	-53.6	-54.9	15.7	0.00e+00	0	32	0	268435456	73	4164
2026-01-02 10:36:06.08	185.42	15.89	-53.6	-54.9	15.8	0.00e+00	0	32	0	270532608	73	4153
2026-01-02 10:36:07.08	185.49	16.00	-53.7	-55.0	15.7	0.00e+00	0	32	0	271581184	73	4200
2026-01-02 10:36:08.09	185.57	16.10	-53.6	-54.9	15.7	0.00e+00	0	32	0	273678336	73	4159
2026-01-02 10:36:09.08	185.65	16.21	-53.6	-54.9	15.8	0.00e+00	0	32	0	275775488	73	4147
2026-01-02 10:36:10.06	185.72	16.31	-53.4	-54.7	15.9	0.00e+00	0	32	0	277872640	73	4059
2026-01-02 10:36:11.07	185.80	16.42	-53.6	-54.8	15.8	0.00e+00	0	32	0	279969792	73	4121
2026-01-02 10:36:12.06	185.88	16.52	-53.4	-54.6	15.9	0.00e+00	0	32	0	281018368	73	4036
2026-01-02 10:36:13.06	185.96	16.63	-53.4	-54.6	15.9	0.00e+00	0	32	0	283115520	73	4040
2026-01-02 10:36:14.05	186.04	16.73	-53.3	-54.5	15.9	0.00e+00	0	32	0	285212672	73	3997
2026-01-02 10:36:15.04	186.12	16.84	-53.3	-54.5	15.9	0.00e+00	0	32	0	287309824	73	3991
2026-01-02 10:36:16.04	186.20	16.95	-53.3	-54.5	15.9	0.00e+00	0	32	0	288358400	73	4000
2026-01-02 10:36:17.03	186.28	17.06	-53.3	-54.4	16.0	0.00e+00	0	32	0	290455552	73	3957
2026-01-02 10:36:18.02	186.36	17.17	-53.2	-54.4	15.9	0.00e+00	0	32	0	292552704	72	4167
2026-01-02 10:36:19.01	186.44	17.27	-53.3	-54.5	15.9	0.00e+00	0	32	0	294649856	72	4199
2026-01-02 10:36:20.01	186.52	17.38	-53.2	-54.4	15.9	0.00e+00	0	32	0	296747008	72	4175
2026-01-02 10:36:21.00	186.60	17.49	-53.3	-54.4	15.9	0.00e+00	0	32	0	297795584	72	4186
2026-01-02 10:36:22.00	186.69	17.60	-53.3	-54.5	15.9	0.00e+00	0	32	0	299892736	72	4197
2026-01-02 10:36:23.00	186.77	17.71	-53.2	-54.3	16.0	0.00e+00	0	32	0	301989888	72	4127
2026-01-02 10:36:23.99	186.86	17.83	-53.2	-54.4	16.0	0.00e+00	0	32	0	304087040	72	4151
2026-01-02 10:36:24.98	186.94	17.94	-53.1	-54.3	16.0	0.00e+00	0	32	0	305135616	72	4107
2026-01-02 10:36:25.97	187.03	18.05	-53.1	-54.3	16.0	0.00e+00	0	32	0	307232768	72	4110
2026-01-02 10:36:26.96	187.11	18.16	-53.1	-54.2	16.0	0.00e+00	0	32	0	309329920	72	4075
2026-01-02 10:36:27.96	187.20	18.27	-53.2	-54.4	16.0	0.00e+00	0	32	0	311427072	72	4148
2026-01-02 10:36:28.95	187.29	18.39	-53.1	-54.3	16.0	0.00e+00	0	32	0	313524224	72	4106
2026-01-02 10:36:29.94	187.38	18.50	-53.2	-54.4	16.0	0.00e+00	0	32	0	314572800	72	4157
2026-01-02 10:36:30.94	187.47	18.61	-53.1	-54.2	16.0	0.00e+00	0	32	0	316669952	72	4081
2026-01-02 10:36:31.92	187.56	18.73	-53.0	-54.1	16.1	0.00e+00	0	32	0	318767104	72	4038
2026-01-02 10:36:32.92	187.65	18.84	-53.0	-54.1	16.0	0.00e+00	0	32	0	320864256	72	4041
2026-01-02 10:36:33.92	187.74	18.96	-53.1	-54.2	16.0	0.00e+00	0	32	0	321912832	72	4076
2026-01-02 10:36:34.91	187.83	19.07	-52.9	-54.0	16.1	0.00e+00	0	32	0	324009984	72	3974
2026-01-02 10:36:35.91	187.92	19.19	-53.0	-54.2	16.0	0.00e+00	0	32	0	326107136	72	4054
2026-01-02 10:36:36.91	188.02	19.31	-53.1	-54.2	16.0	0.00e+00	0	32	0	328204288	72	4058
2026-01-02 10:36:37.90	188.11	19.43	-53.0	-54.1	16.1	0.00e+00	0	32	0	330301440	72	4027
2026-01-02 10:36:38.90	188.20	19.55	-53.0	-54.1	16.1	0.00e+00	0	32	0	331350016	72	4030
2026-01-02 10:36:39.90	188.30	19.66	-53.0	-54.2	16.1	0.00e+00	0	32	0	333447168	72	4052
2026-01-02 10:36:40.89	188.39	19.78	-53.0	-54.1	16.1	0.00e+00	0	32	0	335544320	72	4022
2026-01-02 10:36:41.88	188.49	19.90	-53.0	-54.2	16.1	0.00e+00	0	32	0	337641472	72	4052
2026-01-02 10:36:42.87	188.59	20.02	-53.1	-54.2	16.0	0.00e+00	0	32	0	339738624	72	4093
2026-01-02 10:36:43.86	188.69	20.14	-53.1	-54.2	16.0	0.00e+00	0	32	0	340787200	72	4082
2026-01-02 10:36:44.85	188.78	20.26	-53.0	-54.1	16.1	0.00e+00	0	32	0	342884352	72	4039
2026-01-02 10:36:45.85	188.88	20.38	-53.1	-54.2	16.1	0.00e+00	0	32	0	344981504	72	4056
2026-01-02 10:36:46.84	188.98	20.51	-53.1	-54.3	16.1	0.00e+00	0	32	0	347078656	72	4105
2026-01-02 10:36:47.83	189.08	20.63	-53.1	-54.3	16.0	0.00e+00	0	32	0	348127232	72	4112
2026-01-02 10:36:48.81	189.18	20.75	-53.1	-54.3	16.0	0.00e+00	0	32	0	350224384	72	4102
2026-01-02 10:36:49.80	189.29	20.87	-53.2	-54.3	16.0	0.00e+00	0	32	0	352321536	72	4145
2026-01-02 10:36:50.79	189.39	21.00	-53.1	-54.2	16.0	0.00e+00	0	32	0	354418688	72	4090
2026-01-02 10:36:51.79	189.49	21.12	-53.2	-54.3	16.0	0.00e+00	0	32	0	355467264	72	4115
2026-01-02 10:36:52.78	189.60	21.25	-53.3	-54.4	16.0	0.00e+00	0	32	0	357564416	72	4164
2026-01-02 10:36:53.76	189.70	21.37	-53.2	-54.3	16.0	0.00e+00	0	32	0	359661568	72	4124
2026-01-02 10:36:54.76	189.81	21.50	-53.1	-54.2	16.1	0.00e+00	0	32	0	361758720	72	4079
2026-01-02 10:36:55.74	189.91	21.62	-53.1	-54.2	16.1	0.00e+00	0	32	0	362807296	72	4093
2026-01-02 10:36:56.73	190.02	21.75	-53.1	-54.2	16.1	0.00e+00	0	32	0	364904448	72	4052
2026-01-02 10:36:57.72	190.13	21.88	-53.1	-54.3	16.1	0.00e+00	0	32	0	367001600	72	4103
2026-01-02 10:36:58.72	190.24	22.00	-53.0	-54.1	16.1	0.00e+00	0	32	0	369098752	72	4042
2026-01-02 10:36:59.71	190.35	22.13	-53.0	-54.1	16.1	0.00e+00	0	32	0	371195904	72	4029
2026-01-02 10:37:00.70	190.46	22.26	-52.9	-54.0	16.2	0.00e+00	0	32	0	372244480	72	3971
2026-01-02 10:37:01.70	190.58	22.39	-52.8	-53.9	16.2	0.00e+00	0	32	0	374341632	72	3916
2026-01-02 10:37:02.69	190.69	22.52	-52.8	-53.9	16.2	0.00e+00	0	32	0	376438784	72	3917
2026-01-02 10:37:03.68	190.80	22.65	-52.7	-53.8	16.2	0.00e+00	0	32	0	378535936	72	3881
2026-01-02 10:37:04.67	190.92	22.78	-52.8	-53.8	16.2	0.00e+00	0	32	0	379584512	72	3893
2026-01-02 10:37:05.66	191.03	22.92	-52.8	-53.8	16.2	0.00e+00	0	32	0	381681664	72	3896
2026-01-02 10:37:06.65	191.15	23.05	-52.8	-53.8	16.2	0.00e+00	0	32	0	383778816	72	3889
2026-01-02 10:37:07.64	191.27	23.18	-52.9	-54.0	16.2	0.00e+00	0	32	0	385875968	72	3970
2026-01-02 10:37:08.64	191.39	23.32	-52.8	-53.9	16.2	0.00e+00	0	32	0	387973120	72	3922
2026-01-02 10:37:09.63	191.51	23.45	-52.8	-53.9	16.2	0.00e+00	0	32	0	389021696	72	3921
2026-01-02 10:37:10.62	191.63	23.58	-52.9	-53.9	16.1	0.00e+00	0	32	0	391118848	72	3940
2026-01-02 10:37:11.62	191.75	23.72	-52.8	-53.8	16.2	0.00e+00	0	32	0	393216000	72	3909
2026-01-02 10:37:12.61	191.87	23.86	-52.9	-53.9	16.2	0.00e+00	0	32	0	395313152	72	3955
2026-01-02 10:37:13.60	192.00	23.99	-52.9	-53.9	16.2	0.00e+00	0	32	0	396361728	72	3938
2026-01-02 10:37:14.58	192.12	24.13	-53.0	-54.0	16.1	0.00e+00	0	32	0	398458880	72	4003
2026-01-02 10:37:15.58	192.25	24.27	-52.9	-54.0	16.2	0.00e+00	0	32	0	400556032	72	3969
2026-01-02 10:37:16.57	192.37	24.40	-53.1	-54.2	16.1	0.00e+00	0	32	0	402653184	72	4063
2026-01-02 10:37:17.56	192.50	24.54	-53.1	-54.2	16.1	0.00e+00	0	32	0	404750336	72	4096
2026-01-02 10:37:18.55	192.63	24.68	-53.2	-54.3	16.1	0.00e+00	0	32	0	405798912	72	4132
2026-01-02 10:37:19.53	192.76	24.82	-53.2	-54.3	16.0	0.00e+00	0	32	0	407896064	72	4134
2026-01-02 10:37:20.52	192.89	24.96	-53.3	-54.4	16.0	0.00e+00	0	32	0	409993216	72	4192
2026-01-02 10:37:21.51	193.02	25.10	-53.4	-54.6	15.9	0.00e+00	0	32	0	412090368	72	4263
2026-01-02 10:37:22.49	193.16	25.24	-53.5	-54.7	15.9	0.00e+00	0	32	0	413138944	72	4331
2026-01-02 10:37:23.49	193.29	25.38	-53.5	-54.7	15.9	0.00e+00	0	32	0	415236096	72	4305
2026-01-02 10:37:24.48	193.43	25.53	-53.6	-54.8	15.9	0.00e+00	0	32	0	417333248	72	4383
2026-01-02 10:37:25.48	193.57	25.67	-53.7	-54.9	15.8	0.00e+00	0	32	0	419430400	72	4433
2026-01-02 10:37:26.47	193.70	25.82	-53.8	-55.0	15.8	0.00e+00	0	32	0	420478976	72	4491
2026-01-02 10:37:27.47	193.85	25.96	-53.8	-55.0	15.8	0.00e+00	0	32	0	422576128	72	4484
2026-01-02 10:37:28.46	193.99	26.11	-53.8	-55.1	15.8	0.00e+00	0	32	0	424673280	72	4512
2026-01-02 10:37:29.46	194.13	26.25	-53.9	-55.2	15.8	0.00e+00	0	32	0	426770432	73	4296
2026-01-02 10:37:30.45	194.27	26.40	-53.9	-55.1	15.8	0.00e+00	0	32	0	428867584	73	4281
2026-01-02 10:37:31.44	194.42	26.55	-53.9	-55.1	15.8	0.00e+00	0	32	0	429916160	73	4278
2026-01-02 10:37:32.44	194.56	26.70	-54.0	-55.2	15.7	0.00e+00	0	32	0	432013312	73	4329
2026-01-02 10:37:33.43	194.71	26.85	-54.0	-55.3	15.7	0.00e+00	0	32	0	434110464	73	4367
2026-01-02 10:37:34.42	194.86	26.99	-54.1	-55.4	15.7	0.00e+00	0	32	0	436207616	73	4410
2026-01-02 10:37:35.41	195.01	27.14	-54.2	-55.5	15.7	0.00e+00	0	32	0	437256192	73	4454
2026-01-02 10:37:36.40	195.16	27.29	-54.2	-55.5	15.6	0.00e+00	0	32	0	439353344	73	4476
2026-01-02 10:37:37.38	195.31	27.44	-54.1	-55.4	15.7	0.00e+00	0	32	0	441450496	73	4409
2026-01-02 10:37:38.38	195.47	27.60	-54.1	-55.4	15.7	0.00e+00	0	32	0	443547648	73	4397
2026-01-02 10:37:39.38	195.63	27.75	-54.1	-55.3	15.7	0.00e+00	0	32	0	445644800	73	4389
2026-01-02 10:37:40.37	195.78	27.90	-54.2	-55.5	15.7	0.00e+00	0	32	0	446693376	73	4445
2026-01-02 10:37:41.37	195.94	28.06	-54.2	-55.5	15.6	0.00e+00	0	32	0	448790528	73	4482
2026-01-02 10:37:42.36	196.10	28.21	-54.3	-55.6	15.6	0.00e+00	0	32	0	450887680	73	4535
2026-01-02 10:37:43.35	196.26	28.37	-54.4	-55.8	15.6	0.00e+00	0	32	0	452984832	74	4359
2026-01-02 10:37:44.35	196.43	28.52	-54.5	-55.9	15.5	0.00e+00	0	32	0	454033408	74	4432
2026-01-02 10:37:45.35	196.59	28.68	-54.8	-56.2	15.4	0.00e+00	0	32	0	456130560	74	4589
2026-01-02 10:37:46.35	196.76	28.84	-55.0	-56.5	15.3	0.00e+00	0	32	0	458227712	75	4458
2026-01-02 10:37:47.33	196.93	28.99	-55.2	-56.8	15.2	0.00e+00	0	32	0	460324864	75	4605
2026-01-02 10:37:48.33	197.10	29.15	-55.3	-56.9	15.1	0.00e+00	0	32	0	462422016	75	4678
2026-01-02 10:37:49.33	197.27	29.31	-55.5	-57.2	15.1	0.00e+00	0	32	0	463470592	76	4554
2026-01-02 10:37:50.32	197.44	29.47	-55.6	-57.3	15.0	0.00e+00	0	32	0	465567744	76	4646
2026-01-02 10:37:51.31	197.62	29.63	-55.8	-57.5	14.9	0.00e+00	0	32	0	467664896	76	4740
2026-01-02 10:37:52.30	197.79	29.79	-55.8	-57.5	14.9	0.00e+00	0	32	0	469762048	76	4750
2026-01-02 10:37:53.29	197.97	29.95	-55.8	-57.5	14.9	0.00e+00	0	32	0	470810624	76	4754
2026-01-02 10:37:54.28	198.15	30.11	-55.8	-57.5	14.9	0.00e+00	0	32	0	472907776	76	4745
2026-01-02 10:37:55.28	198.33	30.28	-55.9	-57.6	14.8	0.00e+00	0	32	0	475004928	76	4785
2026-01-02 10:37:56.27	198.52	30.44	-55.8	-57.5	14.9	0.00e+00	0	32	0	477102080	76	4725
2026-01-02 10:37:57.26	198.70	30.60	-55.6	-57.3	15.0	0.00e+00	0	32	0	479199232	76	4628
2026-01-02 10:37:58.26	198.89	30.77	-55.7	-57.4	14.9	0.00e+00	0	32	0	480247808	76	4691
2026-01-02 10:37:59.25	199.08	30.93	-55.9	-57.6	14.8	0.00e+00	0	32	0	482344960	76	4807
2026-01-02 10:38:00.26	199.27	31.10	-55.9	-57.7	14.9	0.00e+00	0	32	0	484442112	77	4587
2026-01-02 10:38:01.25	199.46	31.27	-55.9	-57.7	14.9	0.00e+00	0	32	0	486539264	77	4584
2026-01-02 10:38:02.24	199.66	31.43	-56.1	-57.9	14.8	0.00e+00	0	32	0	487587840	77	4670
2026-01-02 10:38:03.23	199.85	31.60	-56.1	-57.9	14.8	0.00e+00	0	32	0	489684992	77	4669
2026-01-02 10:38:04.23	200.05	31.77	-56.2	-58.0	14.7	0.00e+00	0	32	0	491782144	77	4755
2026-01-02 10:38:05.23	200.26	31.94	-56.0	-57.9	14.8	0.00e+00	0	32	0	493879296	77	4652
2026-01-02 10:38:06.21	200.46	32.10	-56.3	-58.2	14.6	0.00e+00	0	32	0	495976448	77	4858
2026-01-02 10:38:07.21	200.66	32.27	-56.1	-57.9	14.8	0.00e+00	0	32	0	497025024	78	4434
2026-01-02 10:38:08.20	200.87	32.44	-56.0	-57.8	14.9	0.00e+00	0	32	0	499122176	78	4366
2026-01-02 10:38:09.19	201.08	32.61	-55.9	-57.6	15.0	0.00e+00	0	32	0	501219328	78	4286
2026-01-02 10:38:10.18	201.29	32.78	-55.8	-57.5	15.0	0.00e+00	0	32	0	503316480	78	4212
2026-01-02 10:38:11.17	201.50	32.96	-55.7	-57.4	15.1	0.00e+00	0	32	0	504365056	78	4169
2026-01-02 10:38:12.16	201.72	33.13	-55.7	-57.4	15.0	0.00e+00	0	32	0	506462208	77	4418
2026-01-02 10:38:13.16	201.93	33.30	-55.6	-57.2	15.1	0.00e+00	0	32	0	508559360	77	4333
2026-01-02 10:38:14.15	202.15	33.48	-55.5	-57.2	15.2	0.00e+00	0	32	0	510656512	77	4292
2026-01-02 10:38:15.14	202.38	33.65	-55.3	-56.9	15.3	0.00e+00	0	32	0	511705088	77	4168
2026-01-02 10:38:16.13	202.60	33.82	-55.2	-56.7	15.4	0.00e+00	0	32	0	513802240	77	4094
2026-01-02 10:38:17.12	202.83	34.00	-55.2	-56.7	15.3	0.00e+00	0	32	0	515899392	76	4293
2026-01-02 10:38:18.12	203.06	34.17	-54.8	-56.2	15.6	0.00e+00	0	32	0	517996544	76	4087
2026-01-02 10:38:19.11	203.29	34.35	-54.8	-56.2	15.6	0.00e+00	0	32	0	520093696	76	4056
2026-01-02 10:38:20.11	203.52	34.53	-54.6	-56.0	15.6	0.00e+00	0	32	0	521142272	75	4230
2026-01-02 10:38:21.10	203.76	34.70	-54.6	-56.0	15.6	0.00e+00	0	32	0	523239424	75	4218
2026-01-02 10:38:22.10	204.00	34.88	-54.5	-55.9	15.6	0.00e+00	0	32	0	525336576	75	4171
2026-01-02 10:38:23.10	204.25	35.06	-54.5	-55.8	15.7	0.00e+00	0	32	0	527433728	75	4125
2026-01-02 10:38:24.10	204.49	35.24	-54.4	-55.7	15.7	0.00e+00	0	32	0	529530880	75	4098
2026-01-02 10:38:25.09	204.74	35.42	-54.2	-55.4	15.8	0.00e+00	0	32	0	530579456	74	4187
2026-01-02 10:38:26.08	204.99	35.60	-54.2	-55.4	15.7	0.00e+00	0	32	0	532676608	74	4177
2026-01-02 10:38:27.08	205.24	35.78	-54.0	-55.2	15.9	0.00e+00	0	32	0	534773760	74	4089
2026-01-02 10:38:28.07	205.50	35.96	-54.0	-55.2	15.8	0.00e+00	0	32	0	536870912	74	4088
2026-01-02 10:38:29.06	205.75	36.14	-53.9	-55.1	15.9	0.00e+00	0	32	0	537919488	74	4028
2026-01-02 10:38:30.06	206.02	36.32	-53.7	-54.9	16.0	0.00e+00	0	32	0	540016640	74	3943
2026-01-02 10:38:31.05	206.28	36.50	-53.7	-54.9	16.0	0.00e+00	0	32	0	542113792	74	3945
2026-01-02 10:38:32.05	206.55	36.68	-53.7	-54.9	16.0	0.00e+00	0	32	0	544210944	74	3947
2026-01-02 10:38:33.04	206.82	36.86	-53.5	-54.6	16.1	0.00e+00	0	32	0	545259520	73	4020
2026-01-02 10:38:34.03	207.09	37.05	-53.2	-54.3	16.2	0.00e+00	0	32	0	547356672	73	3895
2026-01-02 10:38:35.03	207.37	37.23	-53.2	-54.3	16.2	0.00e+00	0	32	0	549453824	73	3880
2026-01-02 10:38:36.03	207.65	37.41	-53.3	-54.4	16.1	0.00e+00	0	32	0	551550976	73	3936
2026-01-02 10:38:37.02	207.93	37.60	-53.4	-54.5	16.1	0.00e+00	0	32	0	553648128	73	3978
2026-01-02 10:38:38.02	208.22	37.78	-53.6	-54.8	16.0	0.00e+00	0	32	0	554696704	73	4103
2026-01-02 10:38:39.01	208.50	37.96	-53.8	-55.0	15.9	0.00e+00	0	32	0	556793856	73	4208
2026-01-02 10:38:40.01	208.80	38.15	-53.8	-55.0	15.9	0.00e+00	0	32	0	558891008	73	4228
2026-01-02 10:38:41.00	209.09	38.33	-53.7	-54.8	15.9	0.00e+00	0	32	0	560988160	73	4142
2026-01-02 10:38:42.00	209.39	38.52	-53.5	-54.6	16.1	0.00e+00	0	32	0	563085312	73	4026
2026-01-02 10:38:42.99	209.69	38.70	-53.4	-54.5	16.1	0.00e+00	0	32	0	564133888	73	3986
2026-01-02 10:38:44.00	210.00	38.89	-53.6	-54.7	16.0	0.00e+00	0	32	0	566231040	73	4083
2026-01-02 10:38:45.00	210.31	39.07	-53.5	-54.6	16.1	0.00e+00	0	32	0	568328192	73	4017
2026-01-02 10:38:46.00	210.63	39.26	-53.6	-54.8	16.0	0.00e+00	0	32	0	570425344	73	4114
2026-01-02 10:38:46.99	210.94	39.44	-53.8	-54.9	16.0	0.00e+00	0	32	0	571473920	73	4185
2026-01-02 10:38:47.99	211.26	39.63	-53.9	-55.1	15.9	0.00e+00	0	32	0	573571072	73	4281
2026-01-02 10:38:48.98	211.58	39.81	-54.0	-55.2	15.9	0.00e+00	0	32	0	575668224	73	4322
2026-01-02 10:38:49.98	211.91	40.00	-54.1	-55.3	15.8	0.00e+00	0	32	0	577765376	73	4387
2026-01-02 10:38:50.97	212.24	40.18	-54.1	-55.4	15.8	0.00e+00	0	32	0	579862528	73	4400
2026-01-02 10:38:51.97	212.57	40.37	-54.2	-55.5	15.7	0.00e+00	0	32	0	580911104	73	4481
2026-01-02 10:38:52.95	212.91	40.55	-54.2	-55.5	15.7	0.00e+00	0	32	0	583008256	73	4481
2026-01-02 10:38:53.94	213.25	40.73	-54.1	-55.3	15.8	0.00e+00	0	32	0	585105408	73	4383
2026-01-02 10:38:54.93	213.59	40.91	-53.8	-55.0	15.9	0.00e+00	0	32	0	587202560	73	4228
2026-01-02 10:38:55.93	213.94	41.10	-53.7	-54.9	15.9	0.00e+00	0	32	0	588251136	73	4178
2026-01-02 10:38:56.92	214.29	41.28	-53.8	-55.0	15.9	0.00e+00	0	32	0	590348288	73	4197
2026-01-02 10:38:57.92	214.65	41.47	-53.9	-55.2	15.8	0.00e+00	0	32	0	592445440	73	4295
2026-01-02 10:38:58.91	215.01	41.65	-54.1	-55.3	15.8	0.00e+00	0	32	0	594542592	73	4391
2026-01-02 10:38:59.89	215.37	41.83	-54.4	-55.7	15.7	0.00e+00	0	32	0	595591168	74	4322
2026-01-02 10:39:00.88	215.74	42.01	-54.4	-55.7	15.7	0.00e+00	0	32	0	597688320	74	4320
2026-01-02 10:39:01.87	216.11	42.19	-54.6	-55.9	15.6	0.00e+00	0	32	0	599785472	74	4414
2026-01-02 10:39:02.87	216.49	42.37	-54.4	-55.7	15.7	0.00e+00	0	32	0	601882624	74	4333
2026-01-02 10:39:03.86	216.87	42.55	-54.2	-55.5	15.8	0.00e+00	0	32	0	603979776	74	4196
2026-01-02 10:39:04.86	217.25	42.74	-54.0	-55.2	15.9	0.00e+00	0	32	0	605028352	74	4071
2026-01-02 10:39:05.85	217.64	42.91	-54.0	-55.2	15.9	0.00e+00	0	32	0	607125504	74	4092
2026-01-02 10:39:06.84	218.03	43.09	-54.3	-55.5	15.8	0.00e+00	0	32	0	609222656	74	4239
2026-01-02 10:39:07.83	218.43	43.27	-54.7	-56.0	15.6	0.00e+00	0	32	0	611319808	74	4483
2026-01-02 10:39:08.82	218.83	43.45	-54.7	-56.1	15.5	0.00e+00	0	32	0	612368384	74	4505
2026-01-02 10:39:09.82	219.24	43.63	-54.7	-56.1	15.5	0.00e+00	0	32	0	614465536	74	4525
2026-01-02 10:39:10.81	219.65	43.80	-54.7	-56.0	15.6	0.00e+00	0	32	0	616562688	74	4467
2026-01-02 10:39:11.80	220.06	43.98	-54.4	-55.7	15.7	0.00e+00	0	32	0	618659840	74	4305
2026-01-02 10:39:12.79	220.48	44.15	-54.3	-55.5	15.8	0.00e+00	0	32	0	620756992	74	4218
2026-01-02 10:39:13.78	220.91	44.32	-54.5	-55.8	15.7	0.00e+00	0	32	0	621805568	74	4369
2026-01-02 10:39:14.78	221.34	44.50	-54.8	-56.2	15.5	0.00e+00	0	32	0	623902720	75	4339
2026-01-02 10:39:15.78	221.78	44.67	-55.3	-56.8	15.3	0.00e+00	0	32	0	625999872	75	4651
2026-01-02 10:39:16.77	222.21	44.84	-55.5	-57.0	15.3	0.00e+00	0	32	0	628097024	76	4493
2026-01-02 10:39:17.77	222.66	45.01	-55.4	-56.9	15.3	0.00e+00	0	32	0	629145600	76	4441
2026-01-02 10:39:18.77	223.11	45.18	-55.3	-56.8	15.4	0.00e+00	0	32	0	631242752	76	4385
2026-01-02 10:39:19.75	223.56	45.35	-55.1	-56.6	15.5	0.00e+00	0	32	0	633339904	76	4254
2026-01-02 10:39:20.75	224.02	45.51	-55.2	-56.7	15.4	0.00e+00	0	32	0	635437056	76	4304
2026-01-02 10:39:21.75	224.48	45.68	-55.2	-56.7	15.4	0.00e+00	0	32	0	637534208	76	4331
2026-01-02 10:39:22.74	224.95	45.84	-55.3	-56.8	15.3	0.00e+00	0	32	0	638582784	76	4380
2026-01-02 10:39:23.73	225.42	46.00	-55.4	-56.9	15.3	0.00e+00	0	32	0	640679936	76	4408
2026-01-02 10:39:24.73	225.90	46.16	-55.2	-56.7	15.4	0.00e+00	0	32	0	642777088	76	4331
2026-01-02 10:39:25.72	226.38	46.32	-55.2	-56.7	15.4	0.00e+00	0	32	0	644874240	76	4301
2026-01-02 10:39:26.71	226.86	46.48	-55.2	-56.6	15.5	0.00e+00	0	32	0	645922816	76	4291
2026-01-02 10:39:27.70	227.35	46.63	-55.0	-56.4	15.6	0.00e+00	0	32	0	648019968	76	4154
2026-01-02 10:39:28.69	227.85	46.79	-54.9	-56.3	15.6	0.00e+00	0	32	0	650117120	76	4136
2026-01-02 10:39:29.68	228.34	46.94	-54.9	-56.3	15.6	0.00e+00	0	32	0	652214272	76	4122
2026-01-02 10:39:30.67	228.85	47.09	-55.0	-56.4	15.5	0.00e+00	0	32	0	654311424	76	4176
2026-01-02 10:39:31.66	229.36	47.24	-55.2	-56.6	15.5	0.00e+00	0	32	0	655360000	76	4266
2026-01-02 10:39:32.65	229.87	47.38	-55.1	-56.5	15.5	0.00e+00	0	32	0	657457152	76	4215
2026-01-02 10:39:33.65	230.39	47.53	-54.7	-56.1	15.7	0.00e+00	0	32	0	659554304	76	4009
2026-01-02 10:39:34.64	230.91	47.67	-54.8	-56.2	15.7	0.00e+00	0	32	0	661651456	76	4065
2026-01-02 10:39:35.64	231.45	47.81	-54.6	-55.9	15.7	0.00e+00	0	32	0	662700032	75	4183
2026-01-02 10:39:36.64	231.98	47.95	-54.6	-55.9	15.7	0.00e+00	0	32	0	664797184	75	4167
2026-01-02 10:39:37.63	232.52	48.08	-54.7	-56.1	15.7	0.00e+00	0	32	0	666894336	75	4265
2026-01-02 10:39:38.62	233.06	48.22	-54.9	-56.3	15.5	0.00e+00	0	32	0	668991488	75	4390
2026-01-02 10:39:39.61	233.61	48.35	-54.9	-56.3	15.5	0.00e+00	0	32	0	671088640	75	4391
2026-01-02 10:39:40.60	234.16	48.48	-54.9	-56.2	15.6	0.00e+00	0	32	0	672137216	75	4339
2026-01-02 10:39:41.59	234.71	48.60	-54.7	-56.0	15.7	0.00e+00	0	32	0	674234368	75	4200
2026-01-02 10:39:42.59	235.28	48.73	-54.6	-55.9	15.7	0.00e+00	0	32	0	676331520	75	4160
2026-01-02 10:39:43.58	235.84	48.85	-54.6	-55.9	15.7	0.00e+00	0	32	0	678428672	75	4190
2026-01-02 10:39:44.58	236.42	48.97	-54.7	-56.0	15.7	0.00e+00	0	32	0	679477248	75	4219
2026-01-02 10:39:45.57	236.99	49.08	-54.8	-56.2	15.6	0.00e+00	0	32	0	681574400	75	4323
2026-01-02 10:39:46.56	237.57	49.20	-54.8	-56.2	15.6	0.00e+00	0	32	0	683671552	75	4311
2026-01-02 10:39:47.55	238.15	49.31	-54.8	-56.2	15.6	0.00e+00	0	32	0	685768704	75	4306
2026-01-02 10:39:48.56	238.74	49.42	-54.9	-56.3	15.5	0.00e+00	0	32	0	687865856	75	4370
2026-01-02 10:39:49.56	239.34	49.52	-55.3	-56.8	15.3	0.00e+00	0	32	0	688914432	75	4630
2026-01-02 10:39:50.56	239.94	49.63	-55.8	-57.4	15.1	0.00e+00	0	32	0	691011584	76	4662
2026-01-02 10:39:51.54	240.53	49.72	-55.9	-57.6	15.0	0.00e+00	0	32	0	693108736	77	4525
2026-01-02 10:39:52.53	241.13	49.82	-55.7	-57.3	15.2	0.00e+00	0	32	0	695205888	77	4358
2026-01-02 10:39:53.53	241.74	49.91	-55.3	-56.8	15.4	0.00e+00	0	32	0	696254464	77	4124
2026-01-02 10:39:54.52	242.35	50.00	-55.2	-56.7	15.5	0.00e+00	0	32	0	698351616	77	4058
2026-01-02 10:39:55.51	242.96	50.09	-55.3	-56.7	15.5	0.00e+00	0	32	0	700448768	76	4315
2026-01-02 10:39:56.51	243.58	50.17	-55.4	-56.9	15.4	0.00e+00	0	32	0	702545920	76	4411
2026-01-02 10:39:57.49	244.19	50.25	-55.4	-57.0	15.3	0.00e+00	0	32	0	703594496	76	4447
2026-01-02 10:39:58.48	244.81	50.32	-55.3	-56.8	15.4	0.00e+00	0	32	0	705691648	76	4360
2026-01-02 10:39:59.48	245.44	50.40	-55.0	-56.4	15.6	0.00e+00	0	32	0	707788800	76	4166
2026-01-02 10:40:00.48	246.08	50.47	-54.4	-55.6	15.8	0.00e+00	0	32	0	709885952	75	4034
2026-01-02 10:40:01.47	246.71	50.53	-54.1	-55.3	15.9	0.00e+00	0	32	0	711983104	74	4113
2026-01-02 10:40:02.47	247.35	50.59	-54.2	-55.4	15.9	0.00e+00	0	32	0	713031680	74	4158
2026-01-02 10:40:03.46	247.98	50.65	-54.4	-55.6	15.8	0.00e+00	0	32	0	715128832	74	4285
2026-01-02 10:40:04.45	248.62	50.71	-54.5	-55.8	15.7	0.00e+00	0	32	0	717225984	74	4359
2026-01-02 10:40:05.45	249.27	50.76	-54.7	-56.0	15.6	0.00e+00	0	32	0	719323136	74	4483
2026-01-02 10:40:06.44	249.91	50.81	-54.8	-56.1	15.6	0.00e+00	0	32	0	720371712	74	4532
2026-01-02 10:40:07.43	250.55	50.85	-54.6	-56.0	15.6	0.00e+00	0	32	0	722468864	74	4443
2026-01-02 10:40:08.42	251.20	50.89	-54.5	-55.8	15.7	0.00e+00	0	32	0	724566016	74	4355
2026-01-02 10:40:09.41	251.84	50.93	-54.2	-55.4	15.9	0.00e+00	0	32	0	726663168	74	4159
2026-01-02 10:40:10.41	252.50	50.96	-53.7	-54.9	16.1	0.00e+00	0	32	0	728760320	74	3920
2026-01-02 10:40:11.41	253.15	50.99	-53.6	-54.7	16.1	0.00e+00	0	32	0	729808896	73	4096
2026-01-02 10:40:12.41	253.81	51.02	-53.9	-55.0	16.0	0.00e+00	0	32	0	731906048	73	4226
2026-01-02 10:40:13.41	254.47	51.04	-54.2	-55.4	15.8	0.00e+00	0	32	0	734003200	73	4399
2026-01-02 10:40:14.40	255.12	51.05	-54.2	-55.4	15.8	0.00e+00	0	32	0	736100352	73	4413
2026-01-02 10:40:15.40	255.78	51.07	-53.9	-55.1	15.9	0.00e+00	0	32	0	738197504	73	4275
2026-01-02 10:40:16.39	256.44	51.08	-53.9	-55.0	15.9	0.00e+00	0	32	0	739246080	73	4234
2026-01-02 10:40:17.38	257.09	51.08	-53.8	-54.9	16.0	0.00e+00	0	32	0	741343232	73	4176
2026-01-02 10:40:18.36	257.74	51.09	-54.1	-55.3	15.9	0.00e+00	0	32	0	743440384	73	4342
2026-01-02 10:40:19.35	258.39	51.08	-54.3	-55.6	15.8	0.00e+00	0	32	0	745537536	73	4503
2026-01-02 10:40:20.35	259.06	51.08	-54.4	-55.7	15.8	0.00e+00	0	32	0	746586112	74	4292
2026-01-02 10:40:21.34	259.71	51.07	-54.2	-55.3	15.9	0.00e+00	0	32	0	748683264	74	4144
2026-01-02 10:40:22.33	260.36	51.05	-54.3	-55.6	15.8	0.00e+00	0	32	0	750780416	74	4249
2026-01-02 10:40:23.33	261.02	51.04	-54.6	-55.9	15.7	0.00e+00	0	32	0	752877568	74	4422
2026-01-02 10:40:24.32	261.67	51.02	-54.7	-56.1	15.6	0.00e+00	0	32	0	753926144	74	4518
2026-01-02 10:40:25.31	262.32	50.99	-54.5	-55.8	15.7	0.00e+00	0	32	0	756023296	74	4379
2026-01-02 10:40:26.31	262.98	50.96	-54.2	-55.5	15.8	0.00e+00	0	32	0	758120448	74	4194
2026-01-02 10:40:27.30	263.63	50.93	-54.2	-55.4	15.9	0.00e+00	0	32	0	760217600	74	4189
2026-01-02 10:40:28.29	264.28	50.89	-54.8	-56.1	15.6	0.00e+00	0	32	0	762314752	74	4531
2026-01-02 10:40:29.28	264.92	50.85	-55.3	-56.7	15.4	0.00e+00	0	32	0	763363328	75	4597
2026-01-02 10:40:30.28	265.57	50.81	-55.3	-56.7	15.4	0.00e+00	0	32	0	765460480	76	4319
2026-01-02 10:40:31.28	266.22	50.76	-54.8	-56.2	15.7	0.00e+00	0	32	0	767557632	76	4056
2026-01-02 10:40:32.27	266.86	50.71	-54.2	-55.4	15.9	0.00e+00	0	32	0	769654784	75	3945
2026-01-02 10:40:33.25	267.49	50.66	-54.4	-55.6	15.8	0.00e+00	0	32	0	770703360	74	4276
2026-01-02 10:40:34.25	268.13	50.60	-54.6	-55.9	15.6	0.00e+00	0	32	0	772800512	74	4420
2026-01-02 10:40:35.24	268.76	50.54	-55.0	-56.5	15.5	0.00e+00	0	32	0	774897664	75	4458
2026-01-02 10:40:36.23	269.39	50.47	-54.9	-56.4	15.5	0.00e+00	0	32	0	776994816	75	4394
2026-01-02 10:40:37.22	270.02	50.40	-54.7	-56.0	15.7	0.00e+00	0	32	0	779091968	75	4223
2026-01-02 10:40:38.21	270.64	50.33	-54.3	-55.6	15.9	0.00e+00	0	32	0	780140544	75	4037
2026-01-02 10:40:39.21	271.27	50.26	-55.0	-56.4	15.6	0.00e+00	0	32	0	782237696	75	4432
2026-01-02 10:40:40.21	271.89	50.18	-55.6	-57.2	15.2	0.00e+00	0	32	0	784334848	76	4573
2026-01-02 10:40:41.21	272.51	50.09	-55.0	-56.4	15.6	0.00e+00	0	32	0	786432000	76	4157
2026-01-02 10:40:42.20	273.13	50.01	-54.8	-56.1	15.7	0.00e+00	0	32	0	788529152	76	4030
2026-01-02 10:40:43.20	273.74	49.92	-55.1	-56.5	15.6	0.00e+00	0	32	0	789577728	76	4217
2026-01-02 10:40:44.19	274.34	49.83	-55.8	-57.5	15.1	0.00e+00	0	32	0	791674880	76	4709
2026-01-02 10:40:45.19	274.95	49.73	-56.6	-58.6	14.7	0.00e+00	0	32	0	793772032	78	4769
2026-01-02 10:40:46.18	275.55	49.63	-56.9	-58.9	14.4	0.00e+00	0	32	0	795869184	79	4688
2026-01-02 10:40:47.17	276.14	49.53	-56.5	-58.3	14.8	0.00e+00	0	32	0	796917760	79	4373
2026-01-02 10:40:48.17	276.73	49.43	-56.2	-58.0	15.0	0.00e+00	0	32	0	799014912	79	4217
2026-01-02 10:40:49.15	277.31	49.32	-56.6	-58.5	14.7	0.00e+00	0	32	0	801112064	79	4483
2026-01-02 10:40:50.14	277.89	49.21	-57.6	-60.0	13.9	0.00e+00	0	32	0	803209216	80	4999
2026-01-02 10:40:51.14	278.48	49.10	-58.1	-60.8	13.4	0.00e+00	0	32	0	804257792	81	5177
2026-01-02 10:40:52.13	279.05	48.98	-57.6	-60.1	13.8	0.00e+00	0	32	0	806354944	81	4775
2026-01-02 10:40:53.13	279.62	48.86	-57.3	-59.5	14.2	0.00e+00	0	32	0	808452096	81	4451
2026-01-02 10:40:54.12	280.18	48.74	-57.3	-59.6	14.1	0.00e+00	0	32	0	810549248	80	4763
2026-01-02 10:40:55.11	280.74	48.62	-58.0	-60.7	13.5	0.00e+00	0	32	0	812646400	81	5132
2026-01-02 10:40:56.09	281.29	48.49	-58.0	-60.7	13.4	0.00e+00	0	32	0	813694976	81	5118
2026-01-02 10:40:57.09	281.85	48.36	-57.7	-60.1	13.8	0.00e+00	0	32	0	815792128	81	4777
2026-01-02 10:40:58.07	282.39	48.24	-57.3	-59.5	14.2	0.00e+00	0	32	0	817889280	81	4480
2026-01-02 10:40:59.07	282.93	48.10	-57.2	-59.3	14.3	0.00e+00	0	32	0	819986432	80	4609
2026-01-02 10:41:00.06	283.47	47.97	-57.7	-60.2	13.7	0.00e+00	0	32	0	821035008	80	5115
2026-01-02 10:41:01.05	284.00	47.83	-58.1	-60.9	13.3	0.00e+00	0	32	0	823132160	81	5227
2026-01-02 10:41:02.04	284.53	47.69	-57.7	-60.1	13.8	0.00e+00	0	32	0	825229312	81	4802
2026-01-02 10:41:03.04	285.06	47.55	-56.7	-58.7	14.6	0.00e+00	0	32	0	827326464	80	4309
2026-01-02 10:41:04.03	285.57	47.40	-56.6	-58.5	14.7	0.00e+00	0	32	0	828375040	79	4469
2026-01-02 10:41:05.02	286.09	47.26	-57.0	-59.1	14.4	0.00e+00	0	32	0	830472192	79	4775
2026-01-02 10:41:06.01	286.59	47.11	-56.9	-58.9	14.5	0.00e+00	0	32	0	832569344	79	4670
2026-01-02 10:41:07.00	287.10	46.96	-56.4	-58.2	14.9	0.00e+00	0	32	0	834666496	79	4321
2026-01-02 10:41:07.99	287.60	46.81	-56.3	-58.1	15.0	0.00e+00	0	32	0	836763648	79	4243
2026-01-02 10:41:08.99	288.09	46.66	-56.1	-57.7	15.0	0.00e+00	0	32	0	837812224	78	4323
2026-01-02 10:41:09.98	288.58	46.50	-55.8	-57.3	15.3	0.00e+00	0	32	0	839909376	78	4131
2026-01-02 10:41:10.97	289.07	46.35	-55.7	-57.2	15.3	0.00e+00	0	32	0	842006528	77	4332
2026-01-02 10:41:11.97	289.55	46.19	-55.4	-56.9	15.4	0.00e+00	0	32	0	844103680	77	4170
2026-01-02 10:41:12.96	290.03	46.03	-54.9	-56.3	15.6	0.00e+00	0	32	0	845152256	76	4115
2026-01-02 10:41:13.96	290.50	45.87	-54.9	-56.2	15.7	0.00e+00	0	32	0	847249408	76	4078
2026-01-02 10:41:14.96	290.97	45.70	-55.0	-56.4	15.6	0.00e+00	0	32	0	849346560	76	4158
2026-01-02 10:41:15.95	291.43	45.54	-55.4	-56.8	15.4	0.00e+00	0	32	0	851443712	76	4363
2026-01-02 10:41:16.94	291.89	45.38	-55.5	-56.9	15.4	0.00e+00	0	32	0	853540864	76	4438
2026-01-02 10:41:17.93	292.34	45.21	-55.6	-57.2	15.3	0.00e+00	0	32	0	854589440	76	4558
2026-01-02 10:41:18.92	292.78	45.04	-55.9	-57.5	15.1	0.00e+00	0	32	0	856686592	76	4740
2026-01-02 10:41:19.92	293.23	44.87	-56.4	-58.2	14.8	0.00e+00	0	32	0	858783744	77	4842
2026-01-02 10:41:20.91	293.67	44.70	-56.2	-58.0	15.0	0.00e+00	0	32	0	860880896	78	4442
2026-01-02 10:41:21.90	294.10	44.53	-55.9	-57.5	15.2	0.00e+00	0	32	0	861929472	78	4200
2026-01-02 10:41:22.89	294.53	44.36	-55.5	-57.0	15.4	0.00e+00	0	32	0	864026624	77	4208
2026-01-02 10:41:23.89	294.95	44.19	-55.7	-57.3	15.2	0.00e+00	0	32	0	866123776	77	4355
2026-01-02 10:41:24.88	295.37	44.01	-55.9	-57.5	15.1	0.00e+00	0	32	0	868220928	77	4461
2026-01-02 10:41:25.88	295.79	43.84	-55.5	-57.0	15.4	0.00e+00	0	32	0	870318080	77	4221
2026-01-02 10:41:26.87	296.20	43.66	-54.9	-56.3	15.6	0.00e+00	0	32	0	871366656	76	4107
2026-01-02 10:41:27.86	296.60	43.49	-54.8	-56.1	15.7	0.00e+00	0	32	0	873463808	76	4030
2026-01-02 10:41:28.85	297.00	43.31	-54.9	-56.2	15.7	0.00e+00	0	32	0	875560960	76	4085
2026-01-02 10:41:29.85	297.41	43.13	-54.4	-55.6	15.9	0.00e+00	0	32	0	877658112	75	4022
2026-01-02 10:41:30.85	297.80	42.95	-54.4	-55.7	15.8	0.00e+00	0	32	0	878706688	75	4075
2026-01-02 10:41:31.86	298.20	42.77	-55.2	-56.7	15.4	0.00e+00	0	32	0	880803840	75	4564
2026-01-02 10:41:32.85	298.58	42.59	-55.8	-57.4	15.2	0.00e+00	0	32	0	882900992	76	4678
2026-01-02 10:41:33.84	298.96	42.41	-55.6	-57.1	15.3	0.00e+00	0	32	0	884998144	76	4534
2026-01-02 10:41:34.84	299.34	42.23	-55.1	-56.4	15.6	0.00e+00	0	32	0	887095296	76	4184
2026-01-02 10:41:35.83	299.71	42.05	-54.7	-56.0	15.8	0.00e+00	0	32	0	888143872	76	3993
2026-01-02 10:41:36.83	300.08	41.87	-54.8	-56.1	15.7	0.00e+00	0	32	0	890241024	76	4051
2026-01-02 10:41:37.82	300.44	41.69	-55.9	-57.5	15.1	0.00e+00	0	32	0	892338176	77	4465
2026-01-02 10:41:38.82	300.80	41.50	-56.6	-58.5	14.7	0.00e+00	0	32	0	894435328	78	4715
2026-01-02 10:41:39.81	301.16	41.32	-56.2	-57.9	15.0	0.00e+00	0	32	0	895483904	78	4407
2026-01-02 10:41:40.80	301.51	41.14	-55.3	-56.7	15.5	0.00e+00	0	32	0	897581056	77	4070
2026-01-02 10:41:41.80	301.86	40.96	-54.5	-55.8	15.8	0.00e+00	0	32	0	899678208	75	4132
2026-01-02 10:41:42.79	302.20	40.77	-54.6	-55.8	15.8	0.00e+00	0	32	0	901775360	75	4141
2026-01-02 10:41:43.78	302.54	40.59	-54.9	-56.2	15.6	0.00e+00	0	32	0	903872512	75	4325
2026-01-02 10:41:44.77	302.88	40.41	-55.9	-57.6	15.1	0.00e+00	0	32	0	904921088	77	4518
2026-01-02 10:41:45.76	303.21	40.23	-56.5	-58.3	14.8	0.00e+00	0	32	0	907018240	78	4651
2026-01-02 10:41:46.76	303.54	40.04	-56.3	-58.2	14.9	0.00e+00	0	32	0	909115392	78	4550
2026-01-02 10:41:47.76	303.87	39.86	-56.0	-57.6	15.1	0.00e+00	0	32	0	911212544	78	4267
2026-01-02 10:41:48.75	304.19	39.67	-55.9	-57.5	15.2	0.00e+00	0	32	0	913309696	78	4223
2026-01-02 10:41:49.74	304.51	39.49	-56.2	-58.0	14.9	0.00e+00	0	32	0	914358272	78	4460
2026-01-02 10:41:50.73	304.82	39.31	-56.9	-58.9	14.4	0.00e+00	0	32	0	916455424	78	4973
2026-01-02 10:41:51.72	305.13	39.12	-57.6	-60.0	13.8	0.00e+00	0	32	0	918552576	80	5041
2026-01-02 10:41:52.71	305.44	38.94	-57.6	-60.1	13.8	0.00e+00	0	32	0	920649728	80	5046
2026-01-02 10:41:53.70	305.74	38.76	-57.6	-60.0	13.8	0.00e+00	0	32	0	921698304	80	5009
2026-01-02 10:41:54.69	306.04	38.58	-57.2	-59.4	14.2	0.00e+00	0	32	0	923795456	80	4701
2026-01-02 10:41:55.68	306.34	38.39	-56.8	-58.8	14.5	0.00e+00	0	32	0	925892608	80	4385
2026-01-02 10:41:56.68	306.64	38.21	-56.5	-58.4	14.7	0.00e+00	0	32	0	927989760	79	4394
2026-01-02 10:41:57.67	306.93	38.03	-56.3	-58.1	14.9	0.00e+00	0	32	0	929038336	79	4243
2026-01-02 10:41:58.67	307.22	37.84	-56.3	-58.0	15.0	0.00e+00	0	32	0	931135488	79	4228
2026-01-02 10:41:59.66	307.50	37.66	-56.7	-58.6	14.7	0.00e+00	0	32	0	933232640	79	4513
2026-01-02 10:42:00.66	307.78	37.48	-57.3	-59.5	14.1	0.00e+00	0	32	0	935329792	79	5032
2026-01-02 10:42:01.65	308.06	37.30	-57.2	-59.5	14.1	0.00e+00	0	32	0	937426944	79	4986
2026-01-02 10:42:02.64	308.34	37.12	-56.7	-58.7	14.6	0.00e+00	0	32	0	938475520	79	4590
2026-01-02 10:42:03.64	308.61	36.93	-56.3	-58.1	14.9	0.00e+00	0	32	0	940572672	79	4249
2026-01-02 10:42:04.63	308.88	36.75	-56.3	-58.1	14.9	0.00e+00	0	32	0	942669824	79	4272
2026-01-02 10:42:05.62	309.15	36.57	-56.0	-57.6	15.1	0.00e+00	0	32	0	944766976	78	4267
2026-01-02 10:42:06.62	309.41	36.39	-56.0	-57.6	15.1	0.00e+00	0	32	0	945815552	78	4287
2026-01-02 10:42:07.60	309.67	36.21	-56.7	-58.7	14.5	0.00e+00	0	32	0	947912704	78	4816
2026-01-02 10:42:08.58	309.92	36.04	-57.5	-59.9	13.9	0.00e+00	0	32	0	950009856	80	4930
2026-01-02 10:42:09.57	310.18	35.86	-58.2	-61.1	13.2	0.00e+00	0	32	0	952107008	81	5364
2026-01-02 10:42:10.57	310.43	35.68	-57.8	-60.4	13.5	0.00e+00	0	32	0	953155584	81	4979
2026-01-02 10:42:11.56	310.68	35.50	-56.6	-58.6	14.6	0.00e+00	0	32	0	955252736	79	4511
2026-01-02 10:42:12.55	310.93	35.32	-55.4	-56.9	15.4	0.00e+00	0	32	0	957349888	77	4186
2026-01-02 10:42:13.54	311.17	35.14	-55.0	-56.3	15.6	0.00e+00	0	32	0	959447040	76	4141
2026-01-02 10:42:14.54	311.42	34.97	-55.0	-56.4	15.6	0.00e+00	0	32	0	961544192	76	4151
2026-01-02 10:42:15.53	311.66	34.79	-55.0	-56.3	15.6	0.00e+00	0	32	0	962592768	76	4129
2026-01-02 10:42:16.52	311.89	34.61	-55.9	-57.5	15.1	0.00e+00	0	32	0	964689920	76	4746
2026-01-02 10:42:17.51	312.13	34.44	-57.0	-59.1	14.3	0.00e+00	0	32	0	966787072	79	4791
2026-01-02 10:42:18.50	312.36	34.26	-57.8	-60.4	13.6	0.00e+00	0	32	0	968884224	80	5238
2026-01-02 10:42:19.49	312.59	34.09	-57.7	-60.2	13.7	0.00e+00	0	32	0	969932800	80	5152
2026-01-02 10:42:20.47	312.81	33.92	-56.8	-58.9	14.4	0.00e+00	0	32	0	972029952	80	4419
2026-01-02 10:42:21.47	313.04	33.74	-56.0	-57.7	15.0	0.00e+00	0	32	0	974127104	78	4301
2026-01-02 10:42:22.46	313.26	33.57	-55.8	-57.4	15.2	0.00e+00	0	32	0	976224256	78	4149
2026-01-02 10:42:23.45	313.48	33.40	-55.7	-57.3	15.2	0.00e+00	0	32	0	978321408	77	4343
2026-01-02 10:42:24.45	313.70	33.22	-55.4	-56.9	15.4	0.00e+00	0	32	0	979369984	77	4177
2026-01-02 10:42:25.44	313.91	33.05	-56.0	-57.7	15.0	0.00e+00	0	32	0	981467136	77	4584
2026-01-02 10:42:26.44	314.13	32.88	-56.9	-59.1	14.3	0.00e+00	0	32	0	983564288	79	4760
2026-01-02 10:42:27.43	314.34	32.71	-57.5	-59.9	13.9	0.00e+00	0	32	0	985661440	80	4969
2026-01-02 10:42:28.43	314.55	32.54	-57.5	-59.9	13.9	0.00e+00	0	32	0	986710016	80	4937
2026-01-02 10:42:29.42	314.76	32.37	-56.8	-58.9	14.5	0.00e+00	0	32	0	988807168	80	4400
2026-01-02 10:42:30.41	314.96	32.20	-56.0	-57.7	15.0	0.00e+00	0	32	0	990904320	78	4321
2026-01-02 10:42:31.41	315.16	32.03	-55.4	-56.9	15.3	0.00e+00	0	32	0	993001472	77	4162
2026-01-02 10:42:32.40	315.37	31.86	-55.2	-56.6	15.5	0.00e+00	0	32	0	995098624	77	4043
2026-01-02 10:42:33.39	315.56	31.70	-55.0	-56.4	15.5	0.00e+00	0	32	0	996147200	76	4153
2026-01-02 10:42:34.39	315.76	31.53	-55.0	-56.4	15.6	0.00e+00	0	32	0	998244352	76	4169
2026-01-02 10:42:35.38	315.96	31.36	-55.4	-56.9	15.3	0.00e+00	0	32	0	1000341504	76	4433
2026-01-02 10:42:36.37	316.15	31.20	-55.9	-57.5	15.0	0.00e+00	0	32	0	1002438656	76	4734
2026-01-02 10:42:37.36	316.34	31.04	-56.7	-58.7	14.5	0.00e+00	0	32	0	1003487232	78	4856
2026-01-02 10:42:38.36	316.53	30.87	-57.3	-59.6	14.0	0.00e+00	0	32	0	1005584384	79	5048
2026-01-02 10:42:39.34	316.71	30.71	-57.5	-60.0	13.8	0.00e+00	0	32	0	1007681536	80	5014
2026-01-02 10:42:40.34	316.90	30.54	-57.1	-59.4	14.1	0.00e+00	0	32	0	1009778688	80	4666
2026-01-02 10:42:41.34	317.09	30.38	-56.7	-58.8	14.5	0.00e+00	0	32	0	1010827264	80	4354
2026-01-02 10:42:42.32	317.27	30.22	-56.5	-58.4	14.7	0.00e+00	0	32	0	1012924416	79	4402
2026-01-02 10:42:43.32	317.45	30.06	-55.8	-57.5	15.1	0.00e+00	0	32	0	1015021568	78	4212
2026-01-02 10:42:44.31	317.62	29.90	-55.4	-56.9	15.3	0.00e+00	0	32	0	1017118720	77	4178
2026-01-02 10:42:45.32	317.80	29.74	-55.2	-56.7	15.4	0.00e+00	0	32	0	1019215872	77	4062
2026-01-02 10:42:46.31	317.98	29.58	-55.2	-56.7	15.4	0.00e+00	0	32	0	1020264448	76	4314
2026-01-02 10:42:47.30	318.15	29.42	-55.5	-57.0	15.3	0.00e+00	0	32	0	1022361600	76	4466
2026-01-02 10:42:48.30	318.32	29.26	-55.7	-57.3	15.1	0.00e+00	0	32	0	1024458752	76	4641
2026-01-02 10:42:49.29	318.49	29.10	-55.9	-57.6	15.0	0.00e+00	0	32	0	1026555904	77	4532
2026-01-02 10:42:50.29	318.66	28.94	-56.3	-58.2	14.7	0.00e+00	0	32	0	1027604480	77	4832
2026-01-02 10:42:51.29	318.83	28.79	-56.3	-58.3	14.7	0.00e+00	0	32	0	1029701632	77	4873
2026-01-02 10:42:52.28	319.00	28.63	-56.3	-58.3	14.7	0.00e+00	0	32	0	1031798784	77	4876
2026-01-02 10:42:53.27	319.16	28.48	-56.1	-57.9	14.8	0.00e+00	0	32	0	1033895936	77	4676
2026-01-02 10:42:54.27	319.32	28.32	-56.0	-57.7	15.0	0.00e+00	0	32	0	1035993088	77	4572
2026-01-02 10:42:55.26	319.48	28.17	-55.8	-57.4	15.1	0.00e+00	0	32	0	1037041664	77	4434
2026-01-02 10:42:56.25	319.64	28.02	-55.6	-57.2	15.2	0.00e+00	0	32	0	1039138816	77	4335
2026-01-02 10:42:57.25	319.80	27.86	-55.3	-56.8	15.4	0.00e+00	0	32	0	1041235968	77	4109
2026-01-02 10:42:58.24	319.96	27.71	-55.0	-56.4	15.6	0.00e+00	0	32	0	1043333120	76	4157
2026-01-02 10:42:59.24	320.11	27.56	-55.0	-56.4	15.5	0.00e+00	0	32	0	1044381696	76	4157
2026-01-02 10:43:00.23	320.26	27.41	-54.9	-56.3	15.6	0.00e+00	0	32	0	1046478848	76	4124
2026-01-02 10:43:01.22	320.42	27.26	-55.0	-56.4	15.5	0.00e+00	0	32	0	1048576000	76	4174
2026-01-02 10:43:02.22	320.57	27.11	-55.0	-56.4	15.5	0.00e+00	0	32	0	1050673152	76	4185
2026-01-02 10:43:03.21	320.72	26.96	-55.0	-56.4	15.5	0.00e+00	0	32	0	1052770304	76	4185
2026-01-02 10:43:04.20	320.86	26.81	-55.0	-56.4	15.6	0.00e+00	0	32	0	1053818880	76	4148
2026-01-02 10:43:05.20	321.01	26.66	-55.1	-56.6	15.5	0.00e+00	0	32	0	1055916032	76	4262
2026-01-02 10:43:06.18	321.15	26.52	-55.3	-56.8	15.4	0.00e+00	0	32	0	1058013184	76	4341
2026-01-02 10:43:07.17	321.30	26.37	-55.3	-56.9	15.3	0.00e+00	0	32	0	1060110336	76	4398
2026-01-02 10:43:08.17	321.44	26.23	-55.4	-57.0	15.3	0.00e+00	0	32	0	1061158912	76	4471
2026-01-02 10:43:09.16	321.58	26.08	-55.3	-56.8	15.3	0.00e+00	0	32	0	1063256064	76	4377
2026-01-02 10:43:10.15	321.72	25.94	-55.4	-56.9	15.3	0.00e+00	0	32	0	1065353216	76	4421
2026-01-02 10:43:11.14	321.86	25.79	-55.3	-56.9	15.3	0.00e+00	0	32	0	1067450368	76	4399
2026-01-02 10:43:12.13	322.00	25.65	-55.1	-56.6	15.4	0.00e+00	0	32	0	1069547520	76	4251
2026-01-02 10:43:13.12	322.13	25.51	-55.0	-56.5	15.5	0.00e+00	0	32	0	1070596096	76	4197
2026-01-02 10:43:14.11	322.27	25.37	-54.9	-56.3	15.5	0.00e+00	0	32	0	1072693248	76	4126
2026-01-02 10:43:15.11	322.40	25.23	-54.8	-56.2	15.6	0.00e+00	0	32	0	1074790400	76	4062
2026-01-02 10:43:16.09	322.54	25.09	-54.7	-56.1	15.7	0.00e+00	0	32	0	1076887552	76	4016
2026-01-02 10:43:17.09	322.67	24.95	-54.9	-56.2	15.6	0.00e+00	0	32	0	1077936128	76	4097
2026-01-02 10:43:18.08	322.80	24.81	-55.0	-56.4	15.5	0.00e+00	0	32	0	1080033280	76	4161
2026-01-02 10:43:19.08	322.93	24.67	-55.2	-56.7	15.4	0.00e+00	0	32	0	1082130432	76	4304
2026-01-02 10:43:20.08	323.06	24.53	-55.4	-56.9	15.3	0.00e+00	0	32	0	1084227584	76	4430
2026-01-02 10:43:21.07	323.19	24.39	-55.4	-57.0	15.2	0.00e+00	0	32	0	1086324736	76	4452
2026-01-02 10:43:22.07	323.31	24.25	-55.6	-57.2	15.1	0.00e+00	0	32	0	1087373312	76	4559
2026-01-02 10:43:23.05	323.44	24.12	-55.4	-57.0	15.2	0.00e+00	0	32	0	1089470464	76	4444
2026-01-02 10:43:24.05	323.56	23.98	-55.3	-56.9	15.3	0.00e+00	0	32	0	1091567616	76	4392
2026-01-02 10:43:25.03	323.68	23.85	-55.3	-56.9	15.3	0.00e+00	0	32	0	1093664768	76	4427
2026-01-02 10:43:26.03	323.81	23.71	-55.0	-56.4	15.5	0.00e+00	0	32	0	1094713344	76	4168
2026-01-02 10:43:27.03	323.93	23.57	-54.9	-56.4	15.5	0.00e+00	0	32	0	1096810496	76	4147
2026-01-02 10:43:28.02	324.05	23.44	-54.8	-56.2	15.6	0.00e+00	0	32	0	1098907648	76	4088
2026-01-02 10:43:29.01	324.17	23.31	-54.5	-55.8	15.7	0.00e+00	0	32	0	1101004800	75	4128
2026-01-02 10:43:30.01	324.29	23.17	-54.5	-55.8	15.7	0.00e+00	0	32	0	1103101952	75	4136
2026-01-02 10:43:31.00	324.41	23.04	-54.4	-55.8	15.6	0.00e+00	0	32	0	1104150528	75	4104
2026-01-02 10:43:31.99	324.52	22.91	-54.4	-55.7	15.7	0.00e+00	0	32	0	1106247680	75	4078
2026-01-02 10:43:33.00	324.64	22.78	-54.5	-55.9	15.6	0.00e+00	0	32	0	1108344832	75	4159
2026-01-02 10:43:33.98	324.75	22.65	-54.5	-55.9	15.6	0.00e+00	0	32	0	1110441984	75	4166
2026-01-02 10:43:34.98	324.87	22.52	-54.5	-55.9	15.6	0.00e+00	0	32	0	1111490560	75	4172
2026-01-02 10:43:35.97	324.98	22.39	-54.5	-55.8	15.7	0.00e+00	0	32	0	1113587712	75	4134
2026-01-02 10:43:36.96	325.09	22.26	-54.4	-55.7	15.7	0.00e+00	0	32	0	1115684864	75	4081
2026-01-02 10:43:37.96	325.20	22.13	-54.4	-55.7	15.7	0.00e+00	0	32	0	1117782016	75	4082
2026-01-02 10:43:38.95	325.31	22.00	-54.5	-55.8	15.7	0.00e+00	0	32	0	1119879168	75	4121
2026-01-02 10:43:39.94	325.42	21.88	-54.4	-55.7	15.7	0.00e+00	0	32	0	1120927744	75	4060
2026-01-02 10:43:40.93	325.53	21.75	-54.4	-55.8	15.7	0.00e+00	0	32	0	1123024896	75	4110
2026-01-02 10:43:41.93	325.64	21.62	-54.5	-55.9	15.6	0.00e+00	0	32	0	1125122048	75	4173
2026-01-02 10:43:42.92	325.74	21.50	-54.6	-56.0	15.5	0.00e+00	0	32	0	1127219200	75	4231
2026-01-02 10:43:43.91	325.85	21.37	-54.7	-56.1	15.5	0.00e+00	0	32	0	1128267776	75	4277
2026-01-02 10:43:44.89	325.95	21.25	-54.7	-56.1	15.5	0.00e+00	0	32	0	1130364928	75	4276
2026-01-02 10:43:45.87	326.06	21.13	-54.8	-56.3	15.4	0.00e+00	0	32	0	1132462080	75	4359
2026-01-02 10:43:46.87	326.16	21.00	-54.9	-56.4	15.4	0.00e+00	0	32	0	1134559232	75	4398
2026-01-02 10:43:47.86	326.26	20.88	-54.9	-56.4	15.4	0.00e+00	0	32	0	1135607808	75	4396
2026-01-02 10:43:48.86	326.36	20.76	-54.9	-56.4	15.4	0.00e+00	0	32	0	1137704960	75	4429
2026-01-02 10:43:49.85	326.47	20.64	-55.0	-56.5	15.3	0.00e+00	0	32	0	1139802112	75	4465
2026-01-02 10:43:50.83	326.56	20.52	-55.0	-56.6	15.3	0.00e+00	0	32	0	1141899264	75	4506
2026-01-02 10:43:51.83	326.67	20.40	-54.8	-56.2	15.4	0.00e+00	0	32	0	1143996416	75	4334
2026-01-02 10:43:52.83	326.76	20.27	-54.8	-56.3	15.4	0.00e+00	0	32	0	1145044992	75	4343
2026-01-02 10:43:53.83	326.86	20.15	-54.7	-56.2	15.5	0.00e+00	0	32	0	1147142144	75	4295
2026-01-02 10:43:54.83	326.96	20.03	-54.6	-56.0	15.5	0.00e+00	0	32	0	1149239296	75	4230
2026-01-02 10:43:55.82	327.06	19.91	-54.6	-56.0	15.5	0.00e+00	0	32	0	1151336448	75	4236
2026-01-02 10:43:56.81	327.15	19.80	-54.5	-55.9	15.6	0.00e+00	0	32	0	1152385024	75	4182
2026-01-02 10:43:57.81	327.25	19.68	-54.7	-56.1	15.5	0.00e+00	0	32	0	1154482176	75	4255
2026-01-02 10:43:58.80	327.34	19.56	-54.6	-56.0	15.5	0.00e+00	0	32	0	1156579328	75	4235
2026-01-02 10:43:59.80	327.44	19.44	-54.7	-56.2	15.5	0.00e+00	0	32	0	1158676480	75	4298
2026-01-02 10:44:00.79	327.53	19.33	-54.8	-56.3	15.4	0.00e+00	0	32	0	1160773632	75	4348
2026-01-02 10:44:01.78	327.62	19.21	-54.8	-56.3	15.4	0.00e+00	0	32	0	1161822208	75	4362
2026-01-02 10:44:02.78	327.72	19.09	-54.7	-56.2	15.4	0.00e+00	0	32	0	1163919360	75	4309
2026-01-02 10:44:03.78	327.81	18.98	-54.8	-56.3	15.4	0.00e+00	0	32	0	1166016512	75	4352
2026-01-02 10:44:04.77	327.90	18.86	-54.8	-56.3	15.4	0.00e+00	0	32	0	1168113664	75	4373
2026-01-02 10:44:05.76	327.99	18.75	-54.9	-56.4	15.3	0.00e+00	0	32	0	1169162240	75	4436
2026-01-02 10:44:06.76	328.08	18.64	-55.0	-56.5	15.3	0.00e+00	0	32	0	1171259392	75	4481
2026-01-02 10:44:07.75	328.17	18.52	-55.0	-56.5	15.3	0.00e+00	0	32	0	1173356544	75	4475
2026-01-02 10:44:08.75	328.26	18.41	-54.9	-56.4	15.3	0.00e+00	0	32	0	1175453696	75	4430
2026-01-02 10:44:09.74	328.34	18.30	-54.8	-56.3	15.4	0.00e+00	0	32	0	1177550848	75	4381
2026-01-02 10:44:10.73	328.43	18.19	-54.9	-56.4	15.3	0.00e+00	0	32	0	1178599424	75	4406
2026-01-02 10:44:11.73	328.52	18.07	-54.7	-56.1	15.5	0.00e+00	0	32	0	1180696576	75	4291
2026-01-02 10:44:12.73	328.60	17.96	-54.7	-56.1	15.5	0.00e+00	0	32	0	1182793728	75	4275
2026-01-02 10:44:13.73	328.69	17.85	-54.5	-55.9	15.5	0.00e+00	0	32	0	1184890880	75	4186
2026-01-02 10:44:14.72	328.77	17.74	-54.3	-55.7	15.7	0.00e+00	0	32	0	1185939456	75	4058
2026-01-02 10:44:15.72	328.86	17.63	-54.3	-55.6	15.7	0.00e+00	0	32	0	1188036608	75	4040
2026-01-02 10:44:16.71	328.94	17.52	-54.3	-55.6	15.7	0.00e+00	0	32	0	1190133760	75	4046
2026-01-02 10:44:17.70	329.02	17.41	-54.3	-55.6	15.7	0.00e+00	0	32	0	1192230912	75	4048
2026-01-02 10:44:18.70	329.10	17.30	-54.2	-55.5	15.7	0.00e+00	0	32	0	1194328064	75	3997
2026-01-02 10:44:19.69	329.19	17.20	-54.1	-55.5	15.7	0.00e+00	0	32	0	1195376640	74	4202
2026-01-02 10:44:20.68	329.27	17.09	-54.1	-55.4	15.7	0.00e+00	0	32	0	1197473792	74	4156
2026-01-02 10:44:21.67	329.35	16.98	-54.0	-55.4	15.7	0.00e+00	0	32	0	1199570944	74	4150
2026-01-02 10:44:22.66	329.43	16.88	-54.1	-55.4	15.7	0.00e+00	0	32	0	1201668096	74	4160
2026-01-02 10:44:23.66	329.51	16.77	-54.1	-55.5	15.7	0.00e+00	0	32	0	1202716672	74	4201
2026-01-02 10:44:24.65	329.59	16.66	-54.3	-55.6	15.6	0.00e+00	0	32	0	1204813824	74	4275
2026-01-02 10:44:25.65	329.66	16.56	-54.3	-55.7	15.6	0.00e+00	0	32	0	1206910976	74	4318
2026-01-02 10:44:26.64	329.74	16.45	-54.4	-55.8	15.6	0.00e+00	0	32	0	1209008128	74	4345
2026-01-02 10:44:27.63	329.82	16.35	-54.5	-55.9	15.5	0.00e+00	0	32	0	1211105280	74	4418
2026-01-02 10:44:28.63	329.90	16.24	-54.5	-56.0	15.4	0.00e+00	0	32	0	1212153856	74	4467
2026-01-02 10:44:29.62	329.97	16.14	-54.7	-56.2	15.3	0.00e+00	0	32	0	1214251008	74	4551
2026-01-02 10:44:30.62	330.05	16.04	-54.7	-56.2	15.3	0.00e+00	0	32	0	1216348160	74	4592
2026-01-02 10:44:31.61	330.12	15.93	-54.8	-56.4	15.2	0.00e+00	0	32	0	1218445312	74	4676
2026-01-02 10:44:32.60	330.20	15.83	-54.8	-56.4	15.3	0.00e+00	0	32	0	1219493888	74	4657
2026-01-02 10:44:33.59	330.27	15.73	-54.8	-56.3	15.3	0.00e+00	0	32	0	1221591040	74	4619
