passes_logs/2026/01/02/R3.2S_Murmansk/R3.2S_Murmansk__20260102_033459_SUOMI_NPP_rec.log

#Pass ID: 20260102_033459_SUOMI NPP
#Satellite: SUOMI NPP
#Configuration: NPP
#almurnet v.1.7.20251203
#Start time: 2026-01-02 03:35:00

#Version: 2.2.20231116
#Station: R3.2S_Murmansk
#Location: 33.079688 lon 68.888172 lat
#TLE: 1 37849U 11061A   26001.07732418  .00000182  00000+0  10735-3 0  9990
#TLE: 2 37849  98.7795 303.2470 0002580  87.2016 272.9455 14.19520779734739

#Time	Az	El	Level	Level2	SNR	BER	BlckErr	Temp	State	Recorded	gain1	gain2
2026-01-02 03:35:00.56	42.14	2.04	-54.9	-70.9	3.8	1.49e+00	0	31	0	0	75	23416
2026-01-02 03:35:01.55	42.08	2.10	-54.9	-70.9	3.8	1.49e+00	0	31	104	0	75	23439
2026-01-02 03:35:02.54	42.03	2.15	-55.0	-70.9	3.8	1.49e+00	0	31	104	0	75	23441
2026-01-02 03:35:03.53	41.98	2.21	-55.0	-70.9	3.8	1.49e+00	0	31	104	0	75	23453
2026-01-02 03:35:04.52	41.92	2.27	-55.0	-70.9	3.8	1.49e+00	0	31	104	0	75	23479
2026-01-02 03:35:05.52	41.87	2.33	-55.0	-70.9	3.8	1.49e+00	0	31	104	0	75	23447
2026-01-02 03:35:06.51	41.81	2.39	-55.0	-70.9	3.8	1.49e+00	0	31	104	0	75	23500
2026-01-02 03:35:07.50	41.76	2.45	-55.0	-70.9	3.8	1.49e+00	0	31	104	0	75	23485
2026-01-02 03:35:08.48	41.70	2.51	-55.0	-70.9	3.8	1.49e+00	0	31	104	0	75	23465
2026-01-02 03:35:09.46	41.65	2.56	-55.0	-70.9	3.8	1.49e+00	0	31	104	0	75	23468
2026-01-02 03:35:10.45	41.59	2.62	-55.0	-70.9	3.8	1.49e+00	0	31	104	0	75	23385
2026-01-02 03:35:11.44	41.54	2.68	-55.0	-70.9	3.8	1.49e+00	0	31	104	0	75	23486
2026-01-02 03:35:12.43	41.48	2.74	-55.0	-70.9	3.8	1.49e+00	0	31	104	0	75	23502
2026-01-02 03:35:13.43	41.42	2.80	-55.0	-70.9	3.8	1.49e+00	0	31	104	0	75	23472
2026-01-02 03:35:14.43	41.37	2.86	-55.0	-70.9	3.8	1.49e+00	0	31	104	0	75	23516
2026-01-02 03:35:15.42	41.31	2.92	-55.0	-70.9	3.8	1.49e+00	0	31	104	0	75	23534
2026-01-02 03:35:16.41	41.25	2.98	-55.0	-70.9	3.8	1.49e+00	0	31	104	0	75	23521
2026-01-02 03:35:17.40	41.20	3.04	-55.0	-70.9	3.8	1.49e+00	0	31	104	0	75	23501
2026-01-02 03:35:18.39	41.14	3.10	-55.0	-70.9	3.8	1.49e+00	0	31	104	0	75	23458
2026-01-02 03:35:19.38	41.08	3.16	-55.0	-71.0	3.8	1.49e+00	0	31	104	0	75	23588
2026-01-02 03:35:20.38	41.02	3.22	-55.0	-70.9	3.8	1.49e+00	0	31	104	0	75	23446
2026-01-02 03:35:21.37	40.96	3.28	-55.0	-70.9	3.8	1.49e+00	0	31	104	0	75	23503
2026-01-02 03:35:22.37	40.91	3.34	-55.0	-70.9	3.8	1.49e+00	0	31	104	0	75	23524
2026-01-02 03:35:23.36	40.85	3.40	-55.0	-70.9	3.8	1.49e+00	0	31	104	0	75	23543
2026-01-02 03:35:24.35	40.79	3.46	-55.0	-70.9	3.8	1.49e+00	0	31	104	0	75	23474
2026-01-02 03:35:25.35	40.73	3.52	-55.0	-70.9	3.8	1.49e+00	0	31	104	0	75	23546
2026-01-02 03:35:26.34	40.67	3.59	-55.0	-70.9	3.8	1.49e+00	0	31	104	0	75	23518
2026-01-02 03:35:27.34	40.61	3.65	-55.0	-70.9	3.8	1.49e+00	0	31	104	0	75	23557
2026-01-02 03:35:28.34	40.55	3.71	-55.0	-71.0	3.8	1.49e+00	0	31	104	0	75	23588
2026-01-02 03:35:29.33	40.49	3.77	-55.0	-70.9	3.8	1.49e+00	0	31	104	0	75	23561
2026-01-02 03:35:30.33	40.43	3.83	-55.0	-70.9	3.8	1.49e+00	0	31	104	0	75	23555
2026-01-02 03:35:31.32	40.37	3.89	-55.0	-70.9	3.9	1.49e+00	0	31	104	0	75	23579
2026-01-02 03:35:32.32	40.30	3.95	-55.0	-70.9	3.8	1.49e+00	0	31	104	0	75	23524
2026-01-02 03:35:33.32	40.24	4.02	-55.0	-70.9	3.8	1.49e+00	0	31	104	0	75	23521
2026-01-02 03:35:34.32	40.18	4.08	-55.0	-70.9	3.8	1.49e+00	0	31	104	0	75	23554
2026-01-02 03:35:35.31	40.12	4.14	-55.0	-70.9	3.8	1.49e+00	0	31	104	0	75	23580
2026-01-02 03:35:36.30	40.06	4.20	-55.0	-70.9	3.8	1.49e+00	0	31	104	0	75	23540
2026-01-02 03:35:37.30	39.99	4.27	-55.0	-71.0	3.8	1.49e+00	0	31	104	0	75	23583
2026-01-02 03:35:38.29	39.93	4.33	-55.0	-70.9	3.8	1.49e+00	0	31	104	0	75	23577
2026-01-02 03:35:39.29	39.87	4.39	-55.0	-70.9	3.8	1.49e+00	0	32	104	0	75	23495
2026-01-02 03:35:40.28	39.80	4.45	-55.0	-70.9	3.8	1.49e+00	0	32	104	0	75	23577
2026-01-02 03:35:41.27	39.74	4.51	-55.0	-70.9	3.8	1.49e+00	0	31	104	0	75	23528
2026-01-02 03:35:42.26	39.67	4.58	-55.0	-70.9	3.8	1.49e+00	0	32	104	0	75	23571
2026-01-02 03:35:43.26	39.61	4.64	-55.0	-70.9	3.8	1.49e+00	0	32	104	0	75	23555
2026-01-02 03:35:44.25	39.55	4.70	-55.0	-70.9	3.8	1.49e+00	0	31	104	0	75	23530
2026-01-02 03:35:45.23	39.48	4.77	-55.0	-70.9	3.8	1.49e+00	0	32	104	0	75	23554
2026-01-02 03:35:46.22	39.42	4.83	-55.0	-70.9	3.8	1.49e+00	0	32	104	0	75	23515
2026-01-02 03:35:47.21	39.35	4.89	-55.0	-70.9	3.8	1.49e+00	0	32	104	0	75	23515
2026-01-02 03:35:48.19	39.29	4.95	-55.0	-70.9	3.8	1.49e+00	0	32	104	0	75	23533
2026-01-02 03:35:49.17	39.22	5.02	-55.0	-70.9	3.8	1.49e+00	0	32	104	0	75	23572
2026-01-02 03:35:50.15	39.16	5.08	-55.0	-70.9	3.8	1.49e+00	0	32	104	0	75	23546
2026-01-02 03:35:51.14	39.09	5.14	-55.0	-70.9	3.8	1.49e+00	0	32	104	0	75	23541
2026-01-02 03:35:52.13	39.02	5.21	-55.0	-70.9	3.8	1.49e+00	0	32	104	0	75	23548
2026-01-02 03:35:53.11	38.96	5.27	-55.0	-70.9	3.8	1.49e+00	0	32	104	0	75	23578
2026-01-02 03:35:54.11	38.89	5.33	-55.0	-71.0	3.8	1.49e+00	0	32	104	0	75	23630
2026-01-02 03:35:55.10	38.82	5.40	-55.0	-71.0	3.8	1.49e+00	0	32	104	0	75	23601
2026-01-02 03:35:56.09	38.75	5.46	-55.0	-70.9	3.8	1.49e+00	0	32	104	0	75	23548
2026-01-02 03:35:57.07	38.68	5.53	-55.0	-70.9	3.8	1.49e+00	0	32	104	0	75	23530
2026-01-02 03:35:58.07	38.61	5.59	-55.0	-71.0	3.8	1.49e+00	0	32	104	0	75	23695
2026-01-02 03:35:59.05	38.55	5.65	-55.0	-71.0	3.8	1.49e+00	0	32	104	0	75	23628
2026-01-02 03:36:00.03	38.48	5.72	-55.0	-71.0	3.8	1.49e+00	0	32	104	0	75	23600
2026-01-02 03:36:01.03	38.41	5.78	-55.0	-71.0	3.8	1.49e+00	0	32	104	0	75	23588
2026-01-02 03:36:02.01	38.34	5.85	-55.0	-70.9	3.8	1.49e+00	0	32	104	0	75	23508
2026-01-02 03:36:03.01	38.27	5.91	-54.6	-70.9	3.8	1.49e+00	0	32	104	0	75	23564
2026-01-02 03:36:03.99	38.20	5.98	-55.0	-70.9	3.8	1.49e+00	0	32	104	0	75	23575
2026-01-02 03:36:04.97	38.13	6.04	-55.0	-70.9	3.8	1.49e+00	0	32	104	0	75	23552
2026-01-02 03:36:05.97	38.05	6.11	-55.0	-71.0	3.8	1.49e+00	0	32	104	0	75	23615
2026-01-02 03:36:06.96	37.98	6.17	-55.0	-71.0	3.8	1.49e+00	0	32	104	0	75	23605
2026-01-02 03:36:07.95	37.91	6.24	-55.0	-71.0	3.8	1.49e+00	0	32	104	0	75	23585
2026-01-02 03:36:08.94	37.84	6.30	-55.0	-71.0	3.8	1.49e+00	0	32	104	0	75	23616
2026-01-02 03:36:09.94	37.76	6.37	-55.0	-71.0	3.8	1.49e+00	0	32	104	0	75	23589
2026-01-02 03:36:10.93	37.69	6.44	-55.0	-71.0	3.8	1.49e+00	0	32	104	0	75	23607
2026-01-02 03:36:11.93	37.62	6.50	-55.0	-71.0	3.8	1.49e+00	0	32	104	0	75	23633
2026-01-02 03:36:12.93	37.54	6.57	-55.0	-70.9	3.8	1.49e+00	0	32	104	0	75	23562
2026-01-02 03:36:13.91	37.47	6.63	-55.0	-70.9	3.8	1.49e+00	0	32	104	0	75	23543
2026-01-02 03:36:14.90	37.39	6.70	-55.0	-70.9	3.8	1.49e+00	0	32	104	0	75	23539
2026-01-02 03:36:15.90	37.32	6.77	-55.0	-70.9	3.8	1.49e+00	0	32	104	0	75	23544
2026-01-02 03:36:16.90	37.24	6.84	-55.0	-70.9	3.8	1.49e+00	0	32	104	0	75	23564
2026-01-02 03:36:17.90	37.17	6.90	-55.0	-71.0	3.9	1.49e+00	0	32	104	0	75	23593
2026-01-02 03:36:18.90	37.09	6.97	-55.0	-71.0	3.8	1.49e+00	0	32	104	0	75	23602
2026-01-02 03:36:19.89	37.01	7.04	-55.0	-71.0	3.8	1.49e+00	0	32	104	0	75	23599
2026-01-02 03:36:20.89	36.94	7.10	-55.0	-70.9	3.8	1.49e+00	0	32	104	0	75	23568
2026-01-02 03:36:21.89	36.86	7.17	-55.0	-71.0	3.8	1.49e+00	0	32	104	0	75	23619
2026-01-02 03:36:22.89	36.78	7.24	-55.0	-71.0	3.8	1.49e+00	0	32	104	0	75	23592
2026-01-02 03:36:23.89	36.70	7.31	-55.0	-70.9	3.8	1.49e+00	0	32	104	0	75	23556
2026-01-02 03:36:24.89	36.62	7.38	-55.0	-71.0	3.8	1.49e+00	0	32	104	0	75	23582
2026-01-02 03:36:25.90	36.54	7.45	-55.0	-71.0	3.8	1.49e+00	0	32	104	0	75	23620
2026-01-02 03:36:26.89	36.46	7.51	-55.0	-71.0	3.8	1.49e+00	0	32	104	0	75	23627
2026-01-02 03:36:27.90	36.38	7.58	-55.0	-71.0	3.8	1.49e+00	0	32	104	0	75	23605
2026-01-02 03:36:28.90	36.30	7.65	-55.0	-71.0	3.8	1.49e+00	0	32	104	0	75	23602
2026-01-02 03:36:29.90	36.22	7.72	-55.0	-70.9	3.8	1.49e+00	0	32	104	0	75	23563
2026-01-02 03:36:30.90	36.14	7.79	-55.0	-71.0	3.8	1.49e+00	0	32	104	0	75	23621
2026-01-02 03:36:31.90	36.06	7.86	-55.0	-71.0	3.8	1.49e+00	0	32	104	0	75	23621
2026-01-02 03:36:32.89	35.98	7.93	-55.0	-71.0	3.8	1.49e+00	0	32	104	0	75	23588
2026-01-02 03:36:33.89	35.89	8.00	-55.0	-70.9	3.8	1.49e+00	0	32	104	0	75	23560
2026-01-02 03:36:34.88	35.81	8.07	-55.0	-70.9	3.8	1.49e+00	0	32	104	0	75	23573
2026-01-02 03:36:35.88	35.73	8.14	-55.0	-70.9	3.8	1.49e+00	0	32	104	0	75	23548
2026-01-02 03:36:36.88	35.64	8.21	-55.0	-71.0	3.8	1.49e+00	0	32	104	0	75	23603
2026-01-02 03:36:37.89	35.56	8.28	-55.0	-71.0	3.8	1.49e+00	0	32	104	0	75	23610
2026-01-02 03:36:38.89	35.47	8.35	-55.0	-71.0	3.8	1.49e+00	0	32	104	0	75	23589
2026-01-02 03:36:39.90	35.39	8.42	-55.0	-70.9	3.8	1.49e+00	0	32	104	0	75	23578
2026-01-02 03:36:40.89	35.30	8.49	-55.0	-71.0	3.8	1.49e+00	0	32	104	0	75	23632
2026-01-02 03:36:41.89	35.22	8.56	-55.0	-70.9	3.8	1.49e+00	0	32	104	0	75	23555
2026-01-02 03:36:42.89	35.13	8.63	-55.0	-71.0	3.8	1.49e+00	0	32	104	0	75	23629
2026-01-02 03:36:43.89	35.04	8.70	-55.0	-71.0	3.8	1.49e+00	0	32	104	0	75	23605
2026-01-02 03:36:44.90	34.96	8.77	-55.0	-71.0	3.8	1.49e+00	0	32	104	0	75	23609
2026-01-02 03:36:45.90	34.87	8.84	-55.0	-71.0	3.8	1.49e+00	0	32	104	0	75	23600
2026-01-02 03:36:46.90	34.78	8.91	-55.0	-71.0	3.8	1.49e+00	0	32	104	0	75	23626
2026-01-02 03:36:47.90	34.69	8.98	-55.0	-71.0	3.8	1.49e+00	0	32	104	0	75	23633
2026-01-02 03:36:48.90	34.60	9.06	-55.0	-71.0	3.8	1.49e+00	0	32	104	0	75	23666
2026-01-02 03:36:49.90	34.51	9.13	-55.0	-70.9	3.9	1.49e+00	0	32	104	0	75	23579
2026-01-02 03:36:50.90	34.42	9.20	-55.0	-71.0	3.8	1.49e+00	0	32	104	0	75	23591
2026-01-02 03:36:51.89	34.33	9.27	-55.0	-71.0	3.8	1.49e+00	0	32	104	0	75	23616
2026-01-02 03:36:52.89	34.24	9.34	-55.0	-71.0	3.8	1.49e+00	0	32	104	0	75	23591
2026-01-02 03:36:53.88	34.15	9.41	-55.0	-71.0	3.8	1.49e+00	0	32	104	0	75	23600
2026-01-02 03:36:54.89	34.06	9.49	-55.0	-70.9	3.8	1.49e+00	0	32	104	0	75	23577
2026-01-02 03:36:55.88	33.97	9.56	-55.0	-70.9	3.8	1.49e+00	0	32	104	0	75	23575
2026-01-02 03:36:56.88	33.88	9.63	-55.0	-71.0	3.8	1.49e+00	0	32	104	0	75	23582
2026-01-02 03:36:57.88	33.78	9.70	-55.0	-71.0	3.8	1.49e+00	0	32	104	0	75	23643
2026-01-02 03:36:58.87	33.69	9.78	-55.0	-71.0	3.8	1.49e+00	0	32	104	0	75	23599
2026-01-02 03:36:59.87	33.60	9.85	-55.0	-71.0	3.8	1.49e+00	0	32	104	0	75	23627
2026-01-02 03:37:00.87	33.50	9.92	-55.0	-71.0	3.9	1.49e+00	0	32	104	0	75	23607
2026-01-02 03:37:01.86	33.41	9.99	-55.0	-71.0	3.8	1.49e+00	0	32	104	0	75	23615
2026-01-02 03:37:02.86	33.31	10.07	-55.0	-71.0	3.8	1.49e+00	0	32	104	0	75	23641
2026-01-02 03:37:03.86	33.21	10.14	-55.0	-71.0	3.8	1.49e+00	0	32	104	0	75	23615
2026-01-02 03:37:04.86	33.12	10.21	-55.0	-71.0	3.8	1.49e+00	0	32	104	0	75	23593
2026-01-02 03:37:05.86	33.02	10.29	-55.0	-71.0	3.8	1.49e+00	0	32	104	0	75	23626
2026-01-02 03:37:06.86	32.92	10.36	-55.0	-71.0	3.8	1.49e+00	0	32	104	0	75	23682
2026-01-02 03:37:07.86	32.82	10.44	-55.0	-71.0	3.8	1.49e+00	0	32	104	0	75	23630
2026-01-02 03:37:08.86	32.73	10.51	-55.0	-71.0	3.8	1.49e+00	0	32	104	0	75	23626
2026-01-02 03:37:09.87	32.63	10.59	-55.0	-71.0	3.8	1.49e+00	0	32	104	0	75	23641
2026-01-02 03:37:10.87	32.53	10.66	-55.0	-71.0	3.8	1.49e+00	0	32	104	0	75	23668
2026-01-02 03:37:11.87	32.43	10.73	-55.0	-71.0	3.8	1.49e+00	0	32	104	0	75	23603
2026-01-02 03:37:12.88	32.32	10.81	-55.0	-70.9	3.8	1.49e+00	0	32	104	0	75	23539
2026-01-02 03:37:13.87	32.22	10.88	-55.0	-71.0	3.8	1.49e+00	0	33	104	0	75	23607
2026-01-02 03:37:14.86	32.12	10.96	-55.0	-71.0	3.8	1.49e+00	0	32	104	0	75	23592
2026-01-02 03:37:15.86	32.02	11.03	-55.0	-71.0	3.8	1.49e+00	0	32	104	0	75	23618
2026-01-02 03:37:16.86	31.92	11.11	-55.0	-70.9	3.8	1.49e+00	0	32	104	0	75	23555
2026-01-02 03:37:17.86	31.81	11.18	-55.0	-71.0	3.8	1.49e+00	0	32	104	0	75	23653
2026-01-02 03:37:18.87	31.71	11.26	-55.0	-71.0	3.8	1.49e+00	0	32	104	0	75	23583
2026-01-02 03:37:19.87	31.60	11.34	-55.0	-71.0	3.8	1.49e+00	0	32	104	0	75	23643
2026-01-02 03:37:20.87	31.50	11.41	-55.0	-71.0	3.8	1.49e+00	0	32	104	0	75	23586
2026-01-02 03:37:21.87	31.39	11.49	-55.0	-71.0	3.8	1.49e+00	0	32	104	0	75	23638
2026-01-02 03:37:22.87	31.29	11.56	-55.0	-71.0	3.8	1.49e+00	0	32	104	0	75	23655
2026-01-02 03:37:23.87	31.18	11.64	-51.1	-70.5	3.8	1.49e+00	0	32	104	0	73	25094
2026-01-02 03:37:24.87	31.07	11.72	-55.0	-71.0	3.8	1.49e+00	0	32	104	0	75	23604
2026-01-02 03:37:25.87	30.96	11.79	-55.0	-71.0	3.8	1.49e+00	0	32	104	0	75	23612
2026-01-02 03:37:26.87	30.86	11.87	-55.0	-71.0	3.8	1.49e+00	0	32	104	0	75	23603
2026-01-02 03:37:27.86	30.75	11.95	-55.0	-71.0	3.8	1.49e+00	0	32	104	0	75	23626
2026-01-02 03:37:28.86	30.64	12.02	-55.0	-71.0	3.8	1.49e+00	0	32	104	0	75	23620
2026-01-02 03:37:29.86	30.53	12.10	-55.0	-71.0	3.8	1.49e+00	0	32	104	0	75	23646
2026-01-02 03:37:30.87	30.41	12.18	-55.0	-71.0	3.8	1.49e+00	0	32	104	0	75	23686
2026-01-02 03:37:31.87	30.30	12.25	-55.0	-71.0	3.9	1.49e+00	0	32	104	0	75	23687
2026-01-02 03:37:32.87	30.19	12.33	-55.0	-71.0	3.8	1.49e+00	0	32	104	0	75	23633
2026-01-02 03:37:33.87	30.08	12.41	-55.0	-71.0	3.8	1.49e+00	0	32	104	0	75	23690
2026-01-02 03:37:34.87	29.96	12.49	-55.0	-71.0	3.8	1.49e+00	0	32	104	0	75	23686
2026-01-02 03:37:35.86	29.85	12.56	-55.0	-71.0	3.8	1.49e+00	0	32	104	0	75	23654
2026-01-02 03:37:36.86	29.74	12.64	-55.0	-71.0	3.8	1.49e+00	0	33	104	0	75	23667
2026-01-02 03:37:37.86	29.62	12.72	-55.0	-71.0	3.8	1.49e+00	0	32	104	0	75	23657
2026-01-02 03:37:38.86	29.51	12.80	-55.0	-71.0	3.8	1.49e+00	0	32	104	0	75	23583
2026-01-02 03:37:39.86	29.39	12.88	-55.0	-71.0	3.8	1.49e+00	0	32	104	0	75	23667
2026-01-02 03:37:40.86	29.27	12.96	-55.0	-71.0	3.8	1.49e+00	0	33	104	0	75	23685
2026-01-02 03:37:41.87	29.15	13.04	-55.0	-71.0	3.8	1.49e+00	0	32	104	0	75	23665
2026-01-02 03:37:42.87	29.03	13.11	-55.0	-71.0	3.8	1.49e+00	0	32	104	0	75	23608
2026-01-02 03:37:43.88	28.91	13.19	-55.0	-71.0	3.8	1.49e+00	0	32	104	0	75	23605
2026-01-02 03:37:44.88	28.79	13.27	-55.0	-71.0	3.8	1.49e+00	0	32	104	0	75	23650
2026-01-02 03:37:45.88	28.67	13.35	-55.0	-71.0	3.8	1.49e+00	0	32	104	0	75	23593
2026-01-02 03:37:46.88	28.55	13.43	-55.0	-71.0	3.8	1.49e+00	0	32	104	0	75	23627
2026-01-02 03:37:47.88	28.43	13.51	-55.0	-71.0	3.8	1.49e+00	0	33	104	0	75	23660
2026-01-02 03:37:48.87	28.31	13.59	-55.0	-71.0	3.8	1.49e+00	0	32	104	0	75	23695
2026-01-02 03:37:49.87	28.19	13.67	-55.0	-71.0	3.7	1.49e+00	0	32	104	0	75	23746
2026-01-02 03:37:50.87	28.06	13.75	-55.0	-71.0	3.8	1.49e+00	0	32	104	0	75	23633
2026-01-02 03:37:51.87	27.94	13.83	-55.0	-71.0	3.8	1.49e+00	0	32	104	0	75	23648
2026-01-02 03:37:52.86	27.81	13.91	-55.0	-71.0	3.8	1.49e+00	0	32	104	0	75	23655
2026-01-02 03:37:53.86	27.69	13.99	-55.1	-71.0	3.8	1.49e+00	0	32	104	0	75	23662
2026-01-02 03:37:54.85	27.56	14.07	-55.0	-71.0	3.8	1.49e+00	0	32	104	0	75	23631
2026-01-02 03:37:55.84	27.44	14.15	-55.0	-71.0	3.8	1.49e+00	0	32	104	0	75	23600
2026-01-02 03:37:56.84	27.31	14.23	-55.0	-71.0	3.8	1.49e+00	0	32	104	0	75	23599
2026-01-02 03:37:57.84	27.18	14.31	-55.0	-71.0	3.8	1.49e+00	0	32	104	0	75	23621
2026-01-02 03:37:58.83	27.05	14.39	-55.0	-71.0	3.8	1.49e+00	0	32	104	0	75	23639
2026-01-02 03:37:59.83	26.92	14.47	-55.0	-71.0	3.8	1.49e+00	0	32	104	0	75	23687
2026-01-02 03:38:00.84	26.79	14.55	-55.0	-71.0	3.8	1.49e+00	0	32	104	0	75	23626
2026-01-02 03:38:01.83	26.66	14.63	-55.0	-71.0	3.8	1.49e+00	0	32	104	0	75	23629
2026-01-02 03:38:02.84	26.52	14.71	-55.0	-71.0	3.8	1.49e+00	0	32	104	0	75	23659
2026-01-02 03:38:03.83	26.39	14.80	-55.0	-71.0	3.8	1.49e+00	0	32	104	0	75	23660
2026-01-02 03:38:04.83	26.26	14.88	-55.0	-71.0	3.8	1.49e+00	0	32	104	0	75	23608
2026-01-02 03:38:05.83	26.12	14.96	-55.0	-71.0	3.8	1.49e+00	0	32	104	0	75	23664
2026-01-02 03:38:06.82	25.99	15.04	-55.0	-71.0	3.8	1.49e+00	0	32	104	0	75	23688
2026-01-02 03:38:07.82	25.85	15.12	-55.0	-71.0	3.8	1.49e+00	0	32	104	0	75	23678
2026-01-02 03:38:08.83	25.72	15.20	-55.0	-71.0	3.8	1.49e+00	0	32	104	0	75	23617
2026-01-02 03:38:09.83	25.58	15.29	-55.0	-71.0	3.8	1.49e+00	0	32	104	0	75	23644
2026-01-02 03:38:10.82	25.44	15.37	-55.0	-71.0	3.8	1.49e+00	0	32	104	0	75	23634
2026-01-02 03:38:11.82	25.30	15.45	-55.0	-71.0	3.8	1.49e+00	0	32	104	0	75	23607
2026-01-02 03:38:12.81	25.16	15.53	-55.0	-71.0	3.8	1.49e+00	0	33	104	0	75	23645
2026-01-02 03:38:13.81	25.02	15.61	-55.0	-71.0	3.8	1.49e+00	0	32	104	0	75	23702
2026-01-02 03:38:14.81	24.88	15.70	-55.0	-71.0	3.8	1.49e+00	0	32	104	0	75	23615
2026-01-02 03:38:15.81	24.74	15.78	-55.3	-71.2	3.9	1.49e+00	0	32	104	0	74	25795
2026-01-02 03:38:16.81	24.59	15.86	-55.0	-71.0	3.8	1.49e+00	0	32	104	0	75	23670
2026-01-02 03:38:17.82	24.45	15.95	-55.0	-71.0	3.8	1.49e+00	0	32	104	0	75	23638
2026-01-02 03:38:18.81	24.31	16.03	-55.0	-71.0	3.8	1.49e+00	0	32	104	0	75	23592
2026-01-02 03:38:19.81	24.16	16.11	-55.0	-71.0	3.8	1.49e+00	0	32	104	0	75	23688
2026-01-02 03:38:20.80	24.01	16.19	-55.0	-71.0	3.8	1.49e+00	0	32	104	0	75	23681
2026-01-02 03:38:21.81	23.87	16.28	-55.1	-71.0	3.8	1.49e+00	0	33	104	0	75	23681
2026-01-02 03:38:22.80	23.72	16.36	-55.0	-71.0	3.8	1.49e+00	0	32	104	0	75	23597
2026-01-02 03:38:23.79	23.57	16.44	-55.0	-71.0	3.8	1.49e+00	0	32	104	0	75	23658
2026-01-02 03:38:24.79	23.42	16.53	-55.0	-71.0	3.8	1.49e+00	0	32	104	0	75	23688
2026-01-02 03:38:25.80	23.27	16.61	-55.0	-71.0	3.8	1.49e+00	0	32	104	0	75	23620
2026-01-02 03:38:26.80	23.12	16.69	-55.0	-71.0	3.8	1.49e+00	0	33	104	0	75	23669
2026-01-02 03:38:27.79	22.97	16.78	-55.0	-71.0	3.8	1.49e+00	0	32	104	0	75	23657
2026-01-02 03:38:28.80	22.81	16.86	-55.0	-71.0	3.8	1.49e+00	0	32	104	0	75	23599
2026-01-02 03:38:29.80	22.66	16.94	-55.0	-71.0	3.8	1.49e+00	0	32	104	0	75	23643
2026-01-02 03:38:30.80	22.50	17.03	-55.0	-71.0	3.8	1.49e+00	0	32	104	0	75	23677
2026-01-02 03:38:31.79	22.35	17.11	-55.0	-71.0	3.8	1.49e+00	0	33	104	0	75	23635
2026-01-02 03:38:32.80	22.19	17.20	-55.0	-71.0	3.8	1.49e+00	0	33	104	0	75	23597
2026-01-02 03:38:33.79	22.03	17.28	-55.1	-70.9	3.8	1.49e+00	0	32	104	0	75	23560
2026-01-02 03:38:34.79	21.87	17.36	-55.1	-70.9	3.8	1.49e+00	0	33	104	0	75	23497
2026-01-02 03:38:35.79	21.72	17.45	-55.1	-71.0	3.8	1.49e+00	0	32	104	0	75	23593
2026-01-02 03:38:36.79	21.55	17.53	-55.0	-70.9	3.8	1.49e+00	0	32	104	0	75	23574
2026-01-02 03:38:37.79	21.39	17.62	-55.0	-70.9	3.8	1.49e+00	0	32	104	0	75	23557
2026-01-02 03:38:38.80	21.23	17.70	-55.0	-71.0	3.8	1.49e+00	0	32	104	0	75	23587
2026-01-02 03:38:39.80	21.07	17.79	-55.0	-70.9	3.8	1.49e+00	0	32	104	0	75	23567
2026-01-02 03:38:40.80	20.90	17.87	-55.1	-71.0	3.8	1.49e+00	0	32	104	0	75	23600
2026-01-02 03:38:41.81	20.74	17.96	-55.0	-71.0	3.6	1.49e+00	0	33	104	0	75	23679
2026-01-02 03:38:42.81	20.57	18.04	-55.0	-71.0	3.8	1.49e+00	0	33	104	0	75	23682
2026-01-02 03:38:43.82	20.40	18.13	-55.0	-71.0	3.8	1.49e+00	0	32	104	0	75	23650
2026-01-02 03:38:44.82	20.23	18.21	-55.1	-71.0	3.8	1.49e+00	0	33	104	0	75	23701
2026-01-02 03:38:45.82	20.06	18.30	-55.0	-71.0	3.8	1.49e+00	0	33	104	0	75	23693
2026-01-02 03:38:46.81	19.90	18.38	-55.1	-71.0	3.8	1.49e+00	0	33	104	0	75	23704
2026-01-02 03:38:47.81	19.72	18.47	-55.0	-71.0	3.8	1.49e+00	0	32	104	0	75	23681
2026-01-02 03:38:48.81	19.55	18.55	-55.0	-71.0	3.8	1.49e+00	0	32	104	0	75	23626
2026-01-02 03:38:49.80	19.38	18.63	-55.0	-71.0	3.8	1.49e+00	0	32	104	0	75	23621
2026-01-02 03:38:50.80	19.21	18.72	-55.0	-71.0	3.8	1.49e+00	0	33	104	0	75	23621
2026-01-02 03:38:51.80	19.03	18.80	-55.1	-71.0	3.8	1.49e+00	0	32	104	0	75	23659
2026-01-02 03:38:52.80	18.86	18.89	-55.0	-71.0	3.8	1.49e+00	0	32	104	0	75	23677
2026-01-02 03:38:53.79	18.68	18.97	-55.0	-71.0	3.8	1.49e+00	0	32	104	0	75	23656
2026-01-02 03:38:54.79	18.50	19.06	-55.0	-71.0	3.8	1.49e+00	0	32	104	0	75	23712
2026-01-02 03:38:55.79	18.33	19.14	-55.1	-71.0	3.8	1.49e+00	0	32	104	0	75	23637
2026-01-02 03:38:56.78	18.15	19.23	-55.0	-71.0	3.8	1.49e+00	0	32	104	0	75	23758
2026-01-02 03:38:57.78	17.97	19.31	-55.0	-71.0	3.8	1.49e+00	0	33	104	0	75	23658
2026-01-02 03:38:58.78	17.79	19.40	-55.0	-71.0	3.8	1.49e+00	0	32	104	0	75	23644
2026-01-02 03:38:59.78	17.60	19.48	-55.0	-71.0	3.8	1.49e+00	0	33	104	0	75	23701
2026-01-02 03:39:00.78	17.42	19.57	-55.0	-71.0	3.8	1.49e+00	0	33	104	0	75	23691
2026-01-02 03:39:01.78	17.23	19.65	-55.0	-71.0	3.8	1.49e+00	0	32	104	0	75	23707
2026-01-02 03:39:02.79	17.05	19.74	-55.0	-71.0	3.8	1.49e+00	0	33	104	0	75	23733
2026-01-02 03:39:03.79	16.86	19.82	-55.0	-71.0	3.8	1.49e+00	0	32	104	0	75	23662
2026-01-02 03:39:04.78	16.67	19.90	-55.0	-71.0	3.8	1.49e+00	0	33	104	0	75	23649
2026-01-02 03:39:05.78	16.48	19.99	-55.0	-71.0	3.8	1.49e+00	0	33	104	0	75	23670
2026-01-02 03:39:06.77	16.30	20.07	-55.0	-71.0	3.8	1.49e+00	0	33	104	0	75	23715
2026-01-02 03:39:07.76	16.11	20.16	-55.5	-71.3	3.9	1.49e+00	0	33	104	0	74	25980
2026-01-02 03:39:08.76	15.91	20.24	-55.0	-71.0	3.8	1.49e+00	0	32	104	0	75	23657
2026-01-02 03:39:09.76	15.72	20.33	-55.1	-71.0	3.8	1.49e+00	0	32	104	0	75	23712
2026-01-02 03:39:10.75	15.53	20.41	-55.1	-71.0	3.8	1.49e+00	0	33	104	0	75	23741
2026-01-02 03:39:11.76	15.33	20.49	-55.1	-71.0	3.8	1.49e+00	0	33	104	0	75	23662
2026-01-02 03:39:12.75	15.14	20.58	-55.1	-71.0	3.8	1.49e+00	0	33	104	0	75	23679
2026-01-02 03:39:13.76	14.94	20.66	-55.0	-71.0	3.8	1.49e+00	0	32	104	0	75	23721
2026-01-02 03:39:14.76	14.74	20.75	-55.0	-71.0	3.8	1.49e+00	0	33	104	0	75	23727
2026-01-02 03:39:15.77	14.54	20.83	-55.0	-71.0	3.8	1.49e+00	0	33	104	0	75	23673
2026-01-02 03:39:16.78	14.33	20.92	-55.0	-71.0	3.8	1.49e+00	0	33	104	0	75	23685
2026-01-02 03:39:17.78	14.13	21.00	-55.0	-71.0	3.8	1.49e+00	0	32	104	0	75	23694
2026-01-02 03:39:18.78	13.93	21.08	-55.0	-71.0	3.8	1.49e+00	0	33	104	0	75	23661
2026-01-02 03:39:19.77	13.72	21.17	-55.0	-71.0	3.8	1.49e+00	0	33	104	0	75	23647
2026-01-02 03:39:20.77	13.52	21.25	-55.1	-71.0	3.8	1.49e+00	0	33	104	0	75	23631
2026-01-02 03:39:21.77	13.31	21.33	-55.1	-71.0	3.8	1.49e+00	0	32	104	0	75	23691
2026-01-02 03:39:22.77	13.10	21.42	-55.0	-71.0	3.8	1.49e+00	0	33	104	0	75	23739
2026-01-02 03:39:23.77	12.90	21.50	-55.1	-71.0	3.8	1.49e+00	0	33	104	0	75	23669
2026-01-02 03:39:24.76	12.69	21.58	-55.1	-71.0	3.8	1.49e+00	0	33	104	0	75	23715
2026-01-02 03:39:25.76	12.48	21.66	-55.1	-71.0	3.8	1.49e+00	0	32	104	0	75	23686
2026-01-02 03:39:26.76	12.26	21.75	-55.1	-71.0	3.8	1.49e+00	0	32	104	0	75	23664
2026-01-02 03:39:27.76	12.05	21.83	-55.0	-71.0	3.8	1.49e+00	0	33	104	0	75	23672
2026-01-02 03:39:28.76	11.84	21.91	-55.0	-71.0	3.8	1.49e+00	0	33	104	0	75	23627
2026-01-02 03:39:29.77	11.62	21.99	-55.0	-71.0	3.8	1.49e+00	0	33	104	0	75	23593
2026-01-02 03:39:30.76	11.40	22.08	-55.0	-71.0	3.8	1.49e+00	0	32	104	0	75	23625
2026-01-02 03:39:31.76	11.19	22.16	-55.1	-71.0	3.8	1.49e+00	0	33	104	0	75	23666
2026-01-02 03:39:32.76	10.97	22.24	-55.1	-71.0	3.8	1.49e+00	0	33	104	0	75	23711
2026-01-02 03:39:33.76	10.75	22.32	-55.1	-71.1	3.7	1.49e+00	0	33	104	0	75	23877
2026-01-02 03:39:34.76	10.52	22.40	-55.1	-71.0	3.8	1.49e+00	0	33	104	0	75	23712
2026-01-02 03:39:35.75	10.30	22.48	-55.0	-71.0	3.8	1.49e+00	0	33	104	0	75	23737
2026-01-02 03:39:36.76	10.08	22.56	-55.0	-71.0	3.8	1.49e+00	0	33	104	0	75	23695
2026-01-02 03:39:37.76	9.85	22.64	-55.1	-71.0	3.8	1.49e+00	0	33	104	0	75	23683
2026-01-02 03:39:38.75	9.63	22.72	-55.0	-71.0	3.8	1.49e+00	0	33	104	0	75	23652
2026-01-02 03:39:39.75	9.40	22.80	-55.1	-71.0	3.8	1.49e+00	0	33	104	0	75	23692
2026-01-02 03:39:40.75	9.17	22.88	-55.0	-71.0	3.8	1.49e+00	0	33	104	0	75	23654
2026-01-02 03:39:41.75	8.94	22.96	-55.1	-71.0	3.8	1.49e+00	0	33	104	0	75	23708
2026-01-02 03:39:42.75	8.71	23.04	-55.0	-71.0	3.8	1.49e+00	0	33	104	0	75	23675
2026-01-02 03:39:43.75	8.48	23.12	-55.1	-71.0	3.8	1.49e+00	0	32	104	0	75	23682
2026-01-02 03:39:44.76	8.24	23.20	-55.1	-71.0	3.8	1.49e+00	0	33	104	0	75	23651
2026-01-02 03:39:45.76	8.01	23.28	-55.1	-71.0	3.8	1.49e+00	0	32	104	0	75	23692
2026-01-02 03:39:46.75	7.77	23.36	-55.0	-71.0	3.8	1.49e+00	0	33	104	0	75	23699
2026-01-02 03:39:47.75	7.54	23.44	-55.1	-71.0	3.8	1.49e+00	0	32	104	0	75	23668
2026-01-02 03:39:48.75	7.30	23.51	-55.1	-71.0	3.8	1.49e+00	0	33	104	0	75	23733
2026-01-02 03:39:49.75	7.06	23.59	-55.1	-71.0	3.8	1.49e+00	0	33	104	0	75	23641
2026-01-02 03:39:50.75	6.82	23.67	-55.1	-71.0	3.8	1.49e+00	0	33	104	0	75	23671
2026-01-02 03:39:51.74	6.58	23.74	-55.1	-71.0	3.8	1.49e+00	0	32	104	0	75	23690
2026-01-02 03:39:52.73	6.34	23.82	-55.1	-71.0	3.8	1.49e+00	0	33	104	0	75	23646
2026-01-02 03:39:53.72	6.10	23.89	-55.1	-71.0	3.8	1.49e+00	0	33	104	0	75	23644
2026-01-02 03:39:54.72	5.85	23.97	-55.1	-71.0	3.8	1.49e+00	0	32	104	0	75	23633
2026-01-02 03:39:55.72	5.61	24.05	-55.1	-71.0	3.8	1.49e+00	0	33	104	0	75	23683
2026-01-02 03:39:56.72	5.36	24.12	-55.1	-71.0	3.8	1.49e+00	0	32	104	0	75	23699
2026-01-02 03:39:57.71	5.11	24.19	-55.0	-71.0	3.8	1.49e+00	0	32	104	0	75	23717
2026-01-02 03:39:58.71	4.86	24.27	-55.0	-71.0	3.8	1.49e+00	0	33	104	0	75	23712
2026-01-02 03:39:59.71	4.61	24.34	-54.9	-70.9	3.8	1.49e+00	0	33	104	0	74	24922
2026-01-02 03:40:00.71	4.36	24.42	-55.0	-71.0	3.8	1.49e+00	0	33	104	0	75	23684
2026-01-02 03:40:01.71	4.10	24.49	-55.0	-71.0	3.8	1.49e+00	0	33	104	0	75	23686
2026-01-02 03:40:02.70	3.85	24.56	-55.0	-71.0	3.8	1.49e+00	0	33	104	0	75	23678
2026-01-02 03:40:03.70	3.60	24.63	-55.1	-71.0	3.8	1.49e+00	0	33	104	0	75	23686
2026-01-02 03:40:04.69	3.34	24.70	-55.1	-71.0	3.8	1.49e+00	0	32	104	0	75	23705
2026-01-02 03:40:05.69	3.08	24.78	-55.1	-71.0	3.8	1.49e+00	0	33	104	0	75	23668
2026-01-02 03:40:06.68	2.83	24.85	-55.0	-71.0	3.8	1.49e+00	0	33	104	0	75	23665
2026-01-02 03:40:07.68	2.56	24.92	-55.0	-71.0	3.8	1.49e+00	0	33	104	0	75	23648
2026-01-02 03:40:08.67	2.30	24.99	-55.1	-71.0	3.8	1.49e+00	0	32	104	0	75	23644
2026-01-02 03:40:09.68	2.04	25.06	-55.0	-71.0	3.8	1.49e+00	0	33	104	0	75	23664
2026-01-02 03:40:10.68	1.77	25.12	-55.1	-71.0	3.8	1.49e+00	0	33	104	0	75	23749
2026-01-02 03:40:11.68	1.51	25.19	-55.1	-71.0	3.8	1.49e+00	0	33	104	0	75	23658
2026-01-02 03:40:12.68	1.24	25.26	-55.1	-71.0	3.8	1.49e+00	0	33	104	0	75	23665
2026-01-02 03:40:13.68	0.97	25.33	-55.0	-71.0	3.9	1.49e+00	0	33	104	0	75	23707
2026-01-02 03:40:14.68	0.71	25.40	-55.1	-71.0	3.8	1.49e+00	0	33	104	0	75	23676
2026-01-02 03:40:15.68	0.44	25.46	-55.1	-71.0	3.8	1.49e+00	0	32	104	0	75	23676
2026-01-02 03:40:16.68	0.16	25.53	-55.1	-71.0	3.8	1.49e+00	0	33	104	0	75	23704
2026-01-02 03:40:17.68	359.89	25.59	-55.1	-71.0	3.8	1.49e+00	0	33	104	0	75	23665
2026-01-02 03:40:18.67	359.62	25.66	-55.1	-71.0	3.8	1.49e+00	0	33	104	0	75	23733
2026-01-02 03:40:19.67	359.35	25.72	-55.1	-71.0	3.8	1.49e+00	0	33	104	0	75	23741
2026-01-02 03:40:20.67	359.07	25.79	-55.0	-71.0	3.8	1.49e+00	0	33	104	0	75	23640
2026-01-02 03:40:21.66	358.80	25.85	-55.0	-71.0	3.8	1.49e+00	0	33	104	0	75	23705
2026-01-02 03:40:22.66	358.52	25.91	-55.1	-71.0	3.8	1.49e+00	0	33	104	0	75	23708
2026-01-02 03:40:23.67	358.24	25.97	-55.0	-71.0	3.8	1.49e+00	0	33	104	0	75	23691
2026-01-02 03:40:24.66	357.96	26.03	-55.1	-71.0	3.8	1.49e+00	0	33	104	0	75	23747
2026-01-02 03:40:25.66	357.68	26.09	-55.1	-71.0	3.8	1.49e+00	0	33	104	0	75	23650
2026-01-02 03:40:26.66	357.40	26.16	-55.0	-71.0	3.8	1.49e+00	0	33	104	0	75	23694
2026-01-02 03:40:27.66	357.11	26.21	-55.1	-71.0	3.8	1.49e+00	0	33	104	0	75	23652
2026-01-02 03:40:28.66	356.83	26.27	-55.1	-71.0	3.8	1.49e+00	0	33	104	0	75	23665
2026-01-02 03:40:29.66	356.54	26.33	-55.0	-71.0	3.8	1.49e+00	0	33	104	0	75	23705
2026-01-02 03:40:30.66	356.26	26.39	-55.0	-71.0	3.8	1.49e+00	0	33	104	0	75	23703
2026-01-02 03:40:31.67	355.96	26.45	-55.1	-71.0	3.8	1.49e+00	0	33	104	0	75	23692
2026-01-02 03:40:32.67	355.68	26.50	-55.0	-71.0	3.8	1.49e+00	0	33	104	0	75	23617
2026-01-02 03:40:33.67	355.39	26.56	-55.1	-71.0	3.8	1.49e+00	0	33	104	0	75	23688
2026-01-02 03:40:34.67	355.10	26.61	-55.1	-71.0	3.8	1.49e+00	0	33	104	0	75	23715
2026-01-02 03:40:35.67	354.80	26.67	-55.1	-71.0	3.8	1.49e+00	0	33	104	0	75	23638
2026-01-02 03:40:36.68	354.51	26.72	-55.1	-71.0	3.8	1.49e+00	0	33	104	0	75	23698
2026-01-02 03:40:37.67	354.22	26.77	-55.1	-71.0	3.8	1.49e+00	0	33	104	0	75	23683
2026-01-02 03:40:38.67	353.92	26.82	-55.0	-71.0	3.8	1.49e+00	0	33	104	0	75	23636
2026-01-02 03:40:39.67	353.63	26.88	-55.0	-71.0	3.8	1.49e+00	0	33	104	0	75	23658
2026-01-02 03:40:40.66	353.33	26.93	-55.0	-71.0	3.8	1.49e+00	0	33	104	0	75	23671
2026-01-02 03:40:41.66	353.04	26.97	-55.0	-71.0	3.8	1.49e+00	0	33	104	0	75	23646
2026-01-02 03:40:42.66	352.74	27.02	-55.0	-71.0	3.8	1.49e+00	0	33	104	0	75	23686
2026-01-02 03:40:43.67	352.43	27.07	-55.0	-71.0	3.8	1.49e+00	0	33	104	0	75	23692
2026-01-02 03:40:44.67	352.13	27.12	-55.0	-71.0	3.8	1.49e+00	0	33	104	0	75	23691
2026-01-02 03:40:45.67	351.83	27.17	-55.1	-71.0	3.8	1.49e+00	0	33	104	0	75	23687
2026-01-02 03:40:46.67	351.53	27.21	-55.1	-71.0	3.8	1.49e+00	0	33	104	0	75	23666
2026-01-02 03:40:47.67	351.23	27.26	-55.1	-71.0	3.8	1.49e+00	0	33	104	0	75	23747
2026-01-02 03:40:48.67	350.92	27.30	-55.0	-71.0	3.8	1.49e+00	0	33	104	0	75	23715
2026-01-02 03:40:49.67	350.62	27.34	-55.0	-71.0	3.8	1.49e+00	0	33	104	0	75	23658
2026-01-02 03:40:50.67	350.31	27.39	-55.0	-71.0	3.8	1.49e+00	0	33	104	0	75	23624
2026-01-02 03:40:51.67	350.01	27.43	-55.0	-71.1	3.9	1.49e+00	0	32	104	0	73	26984
2026-01-02 03:40:52.66	349.70	27.47	-55.1	-71.0	3.8	1.49e+00	0	33	104	0	75	23688
2026-01-02 03:40:53.66	349.40	27.51	-55.1	-71.0	3.8	1.49e+00	0	33	104	0	75	23665
2026-01-02 03:40:54.67	349.08	27.55	-55.1	-71.0	3.8	1.49e+00	0	33	104	0	75	23661
2026-01-02 03:40:55.66	348.78	27.58	-55.1	-71.0	3.8	1.49e+00	0	33	104	0	75	23770
2026-01-02 03:40:56.66	348.47	27.62	-55.0	-71.0	3.8	1.49e+00	0	33	104	0	75	23691
2026-01-02 03:40:57.66	348.16	27.66	-55.0	-71.0	3.8	1.49e+00	0	33	104	0	75	23672
2026-01-02 03:40:58.66	347.84	27.69	-55.0	-71.0	3.8	1.49e+00	0	33	104	0	75	23717
2026-01-02 03:40:59.66	347.53	27.73	-55.1	-71.0	3.8	1.49e+00	0	33	104	0	75	23686
2026-01-02 03:41:00.66	347.22	27.76	-55.1	-71.0	3.8	1.49e+00	0	33	104	0	75	23703
2026-01-02 03:41:01.65	346.91	27.79	-55.1	-71.0	3.8	1.49e+00	0	33	104	0	75	23687
2026-01-02 03:41:02.65	346.60	27.83	-55.0	-71.0	3.8	1.49e+00	0	33	104	0	75	23697
2026-01-02 03:41:03.65	346.28	27.86	-55.0	-71.0	3.8	1.49e+00	0	33	104	0	75	23701
2026-01-02 03:41:04.65	345.96	27.89	-55.0	-71.0	3.8	1.49e+00	0	33	104	0	75	23732
2026-01-02 03:41:05.65	345.65	27.91	-55.1	-71.0	3.8	1.49e+00	0	33	104	0	75	23706
2026-01-02 03:41:06.65	345.33	27.94	-55.0	-71.0	3.8	1.49e+00	0	33	104	0	75	23635
2026-01-02 03:41:07.66	345.01	27.97	-55.1	-71.0	3.8	1.49e+00	0	33	104	0	75	23736
2026-01-02 03:41:08.65	344.70	28.00	-55.0	-71.0	3.8	1.49e+00	0	33	104	0	75	23665
2026-01-02 03:41:09.65	344.38	28.02	-55.1	-71.0	3.8	1.49e+00	0	33	104	0	75	23671
2026-01-02 03:41:10.65	344.06	28.05	-55.1	-71.0	3.8	1.49e+00	0	33	104	0	75	23697
2026-01-02 03:41:11.66	343.74	28.07	-55.0	-71.0	3.8	1.49e+00	0	33	104	0	75	23632
2026-01-02 03:41:12.65	343.42	28.09	-55.1	-71.0	3.8	1.49e+00	0	33	104	0	75	23725
2026-01-02 03:41:13.65	343.10	28.11	-55.1	-71.0	3.8	1.49e+00	0	33	104	0	75	23663
2026-01-02 03:41:14.64	342.78	28.13	-55.1	-71.0	3.8	1.49e+00	0	33	104	0	75	23724
2026-01-02 03:41:15.64	342.46	28.15	-55.1	-71.0	3.8	1.49e+00	0	33	104	0	75	23665
2026-01-02 03:41:16.64	342.14	28.17	-55.1	-71.0	3.8	1.49e+00	0	33	104	0	75	23674
2026-01-02 03:41:17.64	341.82	28.19	-54.9	-71.0	3.8	1.49e+00	0	33	104	0	75	23659
2026-01-02 03:41:18.63	341.50	28.20	-55.0	-71.0	3.8	1.49e+00	0	33	104	0	75	23687
2026-01-02 03:41:19.64	341.18	28.22	-55.0	-71.0	3.8	1.49e+00	0	33	104	0	75	23650
2026-01-02 03:41:20.64	340.85	28.23	-55.0	-71.0	3.8	1.49e+00	0	33	104	0	75	23636
2026-01-02 03:41:21.64	340.53	28.25	-55.0	-71.0	3.8	1.49e+00	0	33	104	0	75	23699
2026-01-02 03:41:22.63	340.21	28.26	-55.0	-71.0	3.8	1.49e+00	0	33	104	0	75	23693
2026-01-02 03:41:23.62	339.89	28.27	-55.0	-71.0	3.8	1.49e+00	0	33	104	0	75	23697
2026-01-02 03:41:24.62	339.57	28.28	-55.0	-71.0	3.8	1.49e+00	0	33	104	0	75	23713
2026-01-02 03:41:25.61	339.25	28.29	-55.0	-71.0	3.8	1.49e+00	0	33	104	0	75	23673
2026-01-02 03:41:26.61	338.92	28.30	-55.0	-71.0	3.8	1.49e+00	0	33	104	0	75	23739
2026-01-02 03:41:27.61	338.60	28.31	-55.0	-71.0	3.8	1.49e+00	0	33	104	0	75	23689
2026-01-02 03:41:28.60	338.28	28.31	-55.0	-71.0	3.8	1.49e+00	0	33	104	0	75	23664
2026-01-02 03:41:29.60	337.95	28.32	-55.0	-71.0	3.8	1.49e+00	0	33	104	0	75	23670
2026-01-02 03:41:30.60	337.63	28.32	-55.0	-71.0	3.8	1.49e+00	0	32	104	0	75	23585
2026-01-02 03:41:31.60	337.30	28.32	-55.1	-71.0	3.8	1.49e+00	0	33	104	0	75	23682
2026-01-02 03:41:32.60	336.98	28.33	-55.0	-71.0	3.8	1.49e+00	0	33	104	0	75	23720
2026-01-02 03:41:33.60	336.65	28.33	-55.0	-71.0	3.8	1.49e+00	0	33	104	0	75	23678
2026-01-02 03:41:34.60	336.33	28.33	-55.1	-71.0	3.8	1.49e+00	0	32	104	0	75	23705
2026-01-02 03:41:35.59	336.01	28.33	-55.0	-71.0	3.8	1.49e+00	0	33	104	0	75	23665
2026-01-02 03:41:36.58	335.69	28.33	-55.0	-71.0	3.8	1.49e+00	0	33	104	0	75	23654
2026-01-02 03:41:37.57	335.36	28.32	-55.1	-71.0	3.8	1.49e+00	0	33	104	0	75	23668
2026-01-02 03:41:38.58	335.04	28.32	-55.1	-71.0	3.8	1.49e+00	0	33	104	0	75	23731
2026-01-02 03:41:39.57	334.72	28.31	-55.0	-71.0	3.8	1.49e+00	0	33	104	0	75	23626
2026-01-02 03:41:40.57	334.39	28.31	-55.1	-71.0	3.8	1.49e+00	0	33	104	0	75	23676
2026-01-02 03:41:41.56	334.07	28.30	-55.0	-71.0	3.8	1.49e+00	0	33	104	0	75	23641
2026-01-02 03:41:42.56	333.75	28.29	-55.1	-71.0	3.8	1.49e+00	0	33	104	0	75	23669
2026-01-02 03:41:43.56	333.42	28.28	-55.1	-71.0	3.8	1.49e+00	0	33	104	0	75	23694
2026-01-02 03:41:44.56	333.10	28.27	-55.1	-71.0	3.8	1.49e+00	0	33	104	0	75	23685
2026-01-02 03:41:45.57	332.77	28.26	-55.1	-71.0	3.8	1.49e+00	0	33	104	0	75	23706
2026-01-02 03:41:46.57	332.45	28.25	-55.1	-71.0	3.9	1.49e+00	0	33	104	0	75	23679
2026-01-02 03:41:47.58	332.12	28.24	-55.0	-71.0	3.8	1.49e+00	0	33	104	0	75	23661
2026-01-02 03:41:48.58	331.80	28.22	-55.1	-71.0	3.8	1.49e+00	0	33	104	0	75	23716
2026-01-02 03:41:49.58	331.48	28.21	-55.0	-71.0	3.8	1.49e+00	0	33	104	0	75	23688
2026-01-02 03:41:50.58	331.16	28.19	-55.1	-71.0	3.8	1.49e+00	0	33	104	0	75	23687
2026-01-02 03:41:51.58	330.83	28.17	-55.1	-71.0	3.8	1.49e+00	0	33	104	0	75	23693
2026-01-02 03:41:52.57	330.51	28.16	-55.1	-71.0	3.8	1.49e+00	0	33	104	0	75	23643
2026-01-02 03:41:53.56	330.20	28.14	-55.1	-71.0	3.8	1.49e+00	0	33	104	0	75	23698
2026-01-02 03:41:54.56	329.88	28.12	-55.1	-71.0	3.8	1.49e+00	0	33	104	0	75	23763
2026-01-02 03:41:55.56	329.56	28.10	-55.1	-71.0	3.8	1.49e+00	0	33	104	0	75	23717
2026-01-02 03:41:56.56	329.24	28.07	-55.1	-71.0	3.8	1.49e+00	0	33	104	0	75	23710
2026-01-02 03:41:57.56	328.92	28.05	-55.1	-71.0	3.8	1.49e+00	0	33	104	0	75	23726
2026-01-02 03:41:58.56	328.60	28.03	-55.1	-71.0	3.8	1.49e+00	0	33	104	0	75	23751
2026-01-02 03:41:59.56	328.28	28.00	-55.1	-71.0	3.8	1.49e+00	0	33	104	0	75	23696
2026-01-02 03:42:00.55	327.96	27.98	-55.1	-71.0	3.8	1.49e+00	0	33	104	0	75	23684
2026-01-02 03:42:01.55	327.65	27.95	-55.0	-71.0	3.8	1.49e+00	0	33	104	0	75	23663
2026-01-02 03:42:02.55	327.33	27.92	-55.1	-71.0	3.8	1.49e+00	0	33	104	0	75	23663
2026-01-02 03:42:03.54	327.02	27.89	-55.0	-71.0	3.8	1.49e+00	0	33	104	0	75	23701
2026-01-02 03:42:04.54	326.70	27.86	-55.1	-71.0	3.8	1.49e+00	0	33	104	0	75	23678
2026-01-02 03:42:05.53	326.39	27.83	-55.0	-71.0	3.8	1.49e+00	0	33	104	0	75	23691
2026-01-02 03:42:06.54	326.07	27.80	-55.0	-71.0	3.8	1.49e+00	0	33	104	0	75	23688
2026-01-02 03:42:07.54	325.76	27.77	-55.0	-71.0	3.8	1.49e+00	0	33	104	0	75	23670
2026-01-02 03:42:08.53	325.45	27.74	-55.0	-71.0	3.8	1.49e+00	0	33	104	0	75	23648
2026-01-02 03:42:09.54	325.13	27.70	-55.0	-71.0	3.8	1.49e+00	0	33	104	0	75	23645
2026-01-02 03:42:10.54	324.82	27.67	-55.1	-71.0	3.8	1.49e+00	0	33	104	0	75	23705
2026-01-02 03:42:11.53	324.51	27.63	-55.0	-71.0	3.8	1.49e+00	0	33	104	0	75	23623
2026-01-02 03:42:12.53	324.20	27.59	-55.0	-71.0	3.8	1.49e+00	0	33	104	0	75	23707
2026-01-02 03:42:13.54	323.89	27.56	-55.1	-71.0	3.8	1.49e+00	0	33	104	0	75	23600
2026-01-02 03:42:14.54	323.58	27.52	-55.1	-71.0	3.8	1.49e+00	0	33	104	0	75	23676
2026-01-02 03:42:15.53	323.27	27.48	-55.1	-71.0	3.8	1.49e+00	0	33	104	0	75	23696
2026-01-02 03:42:16.54	322.96	27.44	-55.1	-71.0	3.8	1.49e+00	0	33	104	0	75	23700
2026-01-02 03:42:17.54	322.66	27.40	-55.1	-71.0	3.9	1.49e+00	0	33	104	0	75	23709
2026-01-02 03:42:18.53	322.35	27.35	-55.0	-71.0	3.8	1.49e+00	0	33	104	0	75	23727
2026-01-02 03:42:19.53	322.05	27.31	-55.0	-71.0	3.8	1.49e+00	0	33	104	0	75	23631
2026-01-02 03:42:20.53	321.74	27.27	-55.0	-70.9	3.8	1.49e+00	0	33	104	0	75	23563
2026-01-02 03:42:21.52	321.44	27.22	-55.0	-71.0	3.8	1.49e+00	0	33	104	0	75	23600
2026-01-02 03:42:22.53	321.14	27.18	-55.1	-71.0	3.8	1.49e+00	0	33	104	0	75	23696
2026-01-02 03:42:23.53	320.84	27.13	-55.0	-71.0	3.8	1.49e+00	0	33	104	0	75	23602
2026-01-02 03:42:24.53	320.54	27.08	-55.0	-71.0	3.8	1.49e+00	0	33	104	0	75	23674
2026-01-02 03:42:25.53	320.24	27.04	-55.0	-71.0	3.8	1.49e+00	0	33	104	0	75	23663
2026-01-02 03:42:26.52	319.94	26.99	-55.0	-71.0	3.8	1.49e+00	0	33	104	0	75	23661
2026-01-02 03:42:27.53	319.64	26.94	-55.0	-71.0	3.8	1.49e+00	0	33	104	0	75	23672
2026-01-02 03:42:28.53	319.34	26.89	-55.0	-71.0	3.8	1.49e+00	0	33	104	0	75	23683
2026-01-02 03:42:29.53	319.05	26.84	-55.0	-71.0	3.8	1.49e+00	0	33	104	0	75	23622
2026-01-02 03:42:30.51	318.76	26.79	-55.0	-71.0	3.8	1.49e+00	0	33	104	0	75	23612
2026-01-02 03:42:31.52	318.46	26.73	-55.0	-71.0	3.8	1.49e+00	0	33	104	0	75	23612
2026-01-02 03:42:32.51	318.17	26.68	-55.0	-71.0	3.8	1.49e+00	0	33	104	0	75	23661
2026-01-02 03:42:33.51	317.88	26.63	-55.0	-71.0	3.8	1.49e+00	0	33	104	0	75	23651
2026-01-02 03:42:34.51	317.59	26.57	-55.0	-71.0	3.8	1.49e+00	0	33	104	0	75	23628
2026-01-02 03:42:35.51	317.30	26.52	-55.0	-71.0	3.8	1.49e+00	0	33	104	0	75	23674
2026-01-02 03:42:36.51	317.01	26.46	-55.0	-71.0	3.8	1.49e+00	0	33	104	0	75	23635
2026-01-02 03:42:37.52	316.72	26.40	-55.0	-71.0	3.8	1.49e+00	0	33	104	0	75	23709
2026-01-02 03:42:38.51	316.43	26.35	-55.0	-71.0	3.9	1.49e+00	0	33	104	0	75	23684
2026-01-02 03:42:39.52	316.14	26.29	-55.1	-71.0	3.8	1.49e+00	0	33	104	0	75	23652
2026-01-02 03:42:40.52	315.86	26.23	-55.1	-71.0	3.8	1.49e+00	0	33	104	0	75	23625
2026-01-02 03:42:41.52	315.57	26.17	-55.1	-71.0	3.8	1.49e+00	0	33	104	0	75	23702
2026-01-02 03:42:42.53	315.29	26.11	-55.0	-71.0	3.8	1.49e+00	0	33	104	0	75	23631
2026-01-02 03:42:43.53	315.01	26.05	-55.1	-71.0	3.8	1.49e+00	0	33	104	0	75	23642
2026-01-02 03:42:44.53	314.72	25.99	-55.0	-71.0	3.8	1.49e+00	0	33	104	0	75	23631
2026-01-02 03:42:45.53	314.44	25.93	-55.0	-71.0	3.8	1.49e+00	0	33	104	0	75	23673
2026-01-02 03:42:46.52	314.17	25.86	-55.1	-71.0	3.8	1.49e+00	0	33	104	0	75	23624
2026-01-02 03:42:47.52	313.89	25.80	-55.1	-71.0	3.8	1.49e+00	0	33	104	0	75	23671
2026-01-02 03:42:48.50	313.62	25.74	-55.0	-71.0	3.8	1.49e+00	0	33	104	0	75	23682
2026-01-02 03:42:49.50	313.35	25.67	-55.1	-71.0	3.8	1.49e+00	0	33	104	0	75	23676
2026-01-02 03:42:50.50	313.07	25.61	-55.0	-71.0	3.8	1.49e+00	0	33	104	0	75	23665
2026-01-02 03:42:51.51	312.80	25.54	-55.0	-71.0	3.8	1.49e+00	0	33	104	0	75	23693
2026-01-02 03:42:52.51	312.52	25.48	-55.0	-71.0	3.8	1.49e+00	0	33	104	0	75	23637
2026-01-02 03:42:53.50	312.26	25.41	-55.0	-71.0	3.8	1.49e+00	0	33	104	0	75	23601
2026-01-02 03:42:54.50	311.99	25.34	-55.0	-71.0	3.8	1.49e+00	0	33	104	0	75	23628
2026-01-02 03:42:55.49	311.72	25.28	-55.0	-71.0	3.8	1.49e+00	0	33	104	0	75	23648
2026-01-02 03:42:56.49	311.45	25.21	-55.1	-71.0	3.8	1.49e+00	0	33	104	0	75	23671
2026-01-02 03:42:57.49	311.19	25.14	-55.0	-71.0	3.8	1.49e+00	0	33	104	0	75	23730
2026-01-02 03:42:58.48	310.92	25.07	-55.1	-71.0	3.8	1.49e+00	0	33	104	0	75	23698
2026-01-02 03:42:59.49	310.66	25.00	-55.0	-71.0	3.8	1.49e+00	0	33	104	0	75	23617
2026-01-02 03:43:00.48	310.40	24.93	-55.0	-71.0	3.8	1.49e+00	0	33	104	0	75	23607
2026-01-02 03:43:01.47	310.14	24.86	-55.0	-70.9	3.8	1.49e+00	0	33	104	0	75	23574
2026-01-02 03:43:02.47	309.88	24.79	-55.0	-71.0	3.8	1.49e+00	0	33	104	0	75	23627
2026-01-02 03:43:03.47	309.62	24.72	-55.0	-71.0	3.8	1.49e+00	0	33	104	0	75	23626
2026-01-02 03:43:04.47	309.36	24.65	-55.0	-71.0	3.9	1.49e+00	0	33	104	0	75	23591
2026-01-02 03:43:05.46	309.11	24.58	-55.0	-70.9	3.8	1.49e+00	0	33	104	0	75	23571
2026-01-02 03:43:06.46	308.85	24.51	-55.0	-71.0	3.8	1.49e+00	0	33	104	0	75	23633
2026-01-02 03:43:07.45	308.60	24.43	-55.0	-71.0	3.8	1.49e+00	0	33	104	0	75	23670
2026-01-02 03:43:08.44	308.35	24.36	-55.0	-71.0	3.8	1.49e+00	0	33	104	0	75	23674
2026-01-02 03:43:09.44	308.10	24.29	-55.0	-71.0	3.8	1.49e+00	0	33	104	0	75	23609
2026-01-02 03:43:10.44	307.85	24.21	-55.0	-71.0	3.8	1.49e+00	0	33	104	0	75	23672
2026-01-02 03:43:11.44	307.60	24.14	-55.0	-71.0	3.8	1.49e+00	0	33	104	0	75	23650
2026-01-02 03:43:12.44	307.35	24.06	-55.0	-71.0	3.8	1.49e+00	0	33	104	0	75	23627
2026-01-02 03:43:13.44	307.10	23.99	-55.0	-71.0	3.8	1.49e+00	0	33	104	0	75	23602
2026-01-02 03:43:14.43	306.86	23.91	-55.0	-71.0	3.8	1.49e+00	0	33	104	0	75	23587
2026-01-02 03:43:15.43	306.61	23.84	-55.0	-71.0	3.8	1.49e+00	0	33	104	0	75	23628
2026-01-02 03:43:16.43	306.37	23.76	-55.0	-71.0	3.8	1.49e+00	0	33	104	0	75	23597
2026-01-02 03:43:17.42	306.13	23.68	-55.0	-71.0	3.8	1.49e+00	0	33	104	0	75	23658
2026-01-02 03:43:18.42	305.89	23.61	-55.0	-71.0	3.8	1.49e+00	0	33	104	0	75	23671
2026-01-02 03:43:19.43	305.65	23.53	-55.0	-71.0	3.8	1.49e+00	0	33	104	0	75	23604
2026-01-02 03:43:20.42	305.41	23.45	-55.0	-70.9	3.8	1.49e+00	0	33	104	0	75	23581
2026-01-02 03:43:21.42	305.17	23.37	-55.0	-71.0	3.8	1.49e+00	0	33	104	0	75	23583
2026-01-02 03:43:22.42	304.93	23.30	-55.0	-71.0	3.8	1.49e+00	0	33	104	0	75	23611
2026-01-02 03:43:23.42	304.70	23.22	-55.0	-71.0	3.8	1.49e+00	0	33	104	0	75	23651
2026-01-02 03:43:24.41	304.47	23.14	-55.0	-71.0	3.8	1.49e+00	0	33	104	0	75	23623
2026-01-02 03:43:25.41	304.23	23.06	-55.0	-71.0	3.8	1.49e+00	0	33	104	0	75	23626
2026-01-02 03:43:26.40	304.01	22.98	-55.0	-71.0	3.8	1.49e+00	0	33	104	0	75	23654
2026-01-02 03:43:27.40	303.77	22.90	-55.0	-71.0	3.8	1.49e+00	0	33	104	0	75	23672
2026-01-02 03:43:28.40	303.55	22.82	-55.0	-71.0	3.8	1.49e+00	0	33	104	0	75	23680
2026-01-02 03:43:29.40	303.32	22.74	-55.0	-71.0	3.8	1.49e+00	0	33	104	0	75	23616
2026-01-02 03:43:30.39	303.09	22.66	-50.1	-70.7	3.8	1.49e+00	0	33	104	0	74	24151
2026-01-02 03:43:31.40	302.86	22.58	-55.0	-71.0	3.8	1.49e+00	0	33	104	0	75	23629
2026-01-02 03:43:32.40	302.64	22.50	-55.0	-71.0	3.8	1.49e+00	0	33	104	0	75	23621
2026-01-02 03:43:33.40	302.42	22.42	-55.0	-71.0	3.8	1.49e+00	0	33	104	0	75	23620
2026-01-02 03:43:34.40	302.19	22.34	-55.0	-71.0	3.8	1.49e+00	0	33	104	0	75	23631
2026-01-02 03:43:35.39	301.98	22.26	-55.0	-71.0	3.8	1.49e+00	0	33	104	0	75	23598
2026-01-02 03:43:36.39	301.76	22.18	-55.0	-70.9	3.8	1.49e+00	0	33	104	0	75	23562
2026-01-02 03:43:37.39	301.54	22.09	-55.0	-71.0	3.8	1.49e+00	0	33	104	0	75	23584
2026-01-02 03:43:38.39	301.32	22.01	-55.0	-71.0	3.8	1.49e+00	0	33	104	0	75	23604
2026-01-02 03:43:39.39	301.10	21.93	-55.0	-70.9	3.8	1.49e+00	0	33	104	0	75	23579
2026-01-02 03:43:40.39	300.89	21.85	-55.0	-71.0	3.8	1.49e+00	0	33	104	0	75	23636
2026-01-02 03:43:41.40	300.67	21.76	-55.0	-71.0	3.8	1.49e+00	0	33	104	0	75	23590
2026-01-02 03:43:42.40	300.46	21.68	-55.0	-70.9	3.8	1.49e+00	0	33	104	0	75	23494
2026-01-02 03:43:43.41	300.24	21.60	-55.0	-70.9	3.8	1.49e+00	0	33	104	0	75	23352
2026-01-02 03:43:44.40	300.04	21.52	-55.0	-70.9	3.8	1.49e+00	0	33	104	0	75	23459
2026-01-02 03:43:45.40	299.83	21.43	-55.0	-70.9	3.8	1.49e+00	0	33	104	0	75	23414
2026-01-02 03:43:46.40	299.62	21.35	-55.0	-70.9	3.8	1.49e+00	0	33	104	0	75	23377
2026-01-02 03:43:47.40	299.41	21.27	-55.0	-70.9	3.8	1.49e+00	0	33	104	0	75	23458
2026-01-02 03:43:48.40	299.20	21.18	-55.0	-70.9	3.8	1.49e+00	0	32	104	0	75	23534
2026-01-02 03:43:49.39	299.00	21.10	-55.0	-70.9	3.8	1.49e+00	0	33	104	0	75	23572
2026-01-02 03:43:50.38	298.80	21.02	-55.0	-70.9	3.8	1.49e+00	0	33	104	0	75	23540
2026-01-02 03:43:51.38	298.60	20.93	-55.0	-70.9	3.8	1.49e+00	0	33	104	0	75	23532
2026-01-02 03:43:52.38	298.39	20.85	-55.0	-70.9	3.8	1.49e+00	0	33	104	0	75	23496
2026-01-02 03:43:53.38	298.19	20.76	-55.0	-70.9	3.8	1.49e+00	0	33	104	0	75	23488
2026-01-02 03:43:54.38	297.99	20.68	-55.0	-70.9	3.8	1.49e+00	0	33	104	0	75	23573
2026-01-02 03:43:55.38	297.80	20.60	-55.0	-70.9	3.8	1.49e+00	0	33	104	0	75	23574
2026-01-02 03:43:56.38	297.60	20.51	-55.0	-71.2	3.8	1.49e+00	0	33	104	0	75	24376
2026-01-02 03:43:57.39	297.40	20.43	-55.0	-71.0	3.8	1.49e+00	0	33	104	0	75	23643
2026-01-02 03:43:58.39	297.21	20.34	-55.0	-71.0	3.8	1.49e+00	0	33	104	0	75	23661
2026-01-02 03:43:59.39	297.01	20.26	-55.0	-71.0	3.8	1.49e+00	0	33	104	0	75	23641
2026-01-02 03:44:00.38	296.82	20.17	-55.0	-71.0	3.8	1.49e+00	0	33	104	0	75	23689
2026-01-02 03:44:01.38	296.63	20.09	-55.1	-71.0	3.8	1.49e+00	0	33	104	0	75	23708
2026-01-02 03:44:02.37	296.44	20.00	-55.0	-71.0	3.8	1.49e+00	0	33	104	0	75	23586
2026-01-02 03:44:03.36	296.25	19.92	-55.0	-70.9	3.8	1.49e+00	0	33	104	0	75	23515
2026-01-02 03:44:04.36	296.06	19.84	-55.0	-71.0	3.8	1.49e+00	0	33	104	0	75	23586
2026-01-02 03:44:05.36	295.87	19.75	-55.0	-70.9	3.8	1.49e+00	0	33	104	0	75	23537
2026-01-02 03:44:06.35	295.69	19.67	-55.0	-71.0	3.8	1.49e+00	0	33	104	0	75	23637
2026-01-02 03:44:07.34	295.51	19.58	-55.0	-71.0	3.8	1.49e+00	0	33	104	0	75	23599
2026-01-02 03:44:08.34	295.32	19.50	-55.0	-70.9	3.8	1.49e+00	0	33	104	0	75	23572
2026-01-02 03:44:09.33	295.14	19.41	-55.0	-71.0	3.8	1.49e+00	0	33	104	0	75	23645
2026-01-02 03:44:10.33	294.96	19.33	-55.0	-71.0	3.8	1.49e+00	0	33	104	0	75	23613
2026-01-02 03:44:11.32	294.78	19.25	-55.0	-71.0	3.8	1.49e+00	0	33	104	0	75	23594
2026-01-02 03:44:12.32	294.60	19.16	-55.0	-71.0	3.8	1.49e+00	0	33	104	0	75	23596
2026-01-02 03:44:13.33	294.42	19.07	-55.0	-71.0	3.8	1.49e+00	0	33	104	0	75	23617
2026-01-02 03:44:14.33	294.24	18.99	-55.0	-70.9	3.8	1.49e+00	0	33	104	0	75	23571
2026-01-02 03:44:15.32	294.06	18.91	-55.0	-71.0	3.8	1.49e+00	0	33	104	0	75	23605
2026-01-02 03:44:16.32	293.89	18.82	-55.0	-71.0	3.8	1.49e+00	0	33	104	0	75	23623
2026-01-02 03:44:17.32	293.71	18.74	-55.0	-70.9	3.8	1.49e+00	0	33	104	0	75	23579
2026-01-02 03:44:18.31	293.54	18.65	-55.0	-71.0	3.8	1.49e+00	0	33	104	0	75	23621
2026-01-02 03:44:19.31	293.36	18.57	-55.0	-71.0	3.8	1.49e+00	0	33	104	0	75	23588
2026-01-02 03:44:20.31	293.19	18.48	-55.0	-71.0	3.8	1.49e+00	0	33	104	0	75	23621
2026-01-02 03:44:21.31	293.02	18.40	-55.0	-71.0	3.8	1.49e+00	0	33	104	0	75	23610
2026-01-02 03:44:22.31	292.85	18.31	-49.0	-70.8	3.8	1.49e+00	0	33	104	0	74	24586
2026-01-02 03:44:23.30	292.68	18.23	-55.0	-71.0	3.8	1.49e+00	0	33	104	0	75	23627
2026-01-02 03:44:24.30	292.51	18.14	-55.0	-71.0	3.8	1.49e+00	0	33	104	0	75	23619
2026-01-02 03:44:25.31	292.34	18.06	-55.0	-71.0	3.8	1.49e+00	0	33	104	0	75	23634
2026-01-02 03:44:26.31	292.18	17.97	-55.0	-71.0	3.8	1.49e+00	0	33	104	0	75	23622
2026-01-02 03:44:27.31	292.01	17.89	-55.0	-71.0	3.8	1.49e+00	0	33	104	0	75	23719
2026-01-02 03:44:28.31	291.85	17.80	-55.0	-71.0	3.8	1.49e+00	0	33	104	0	75	23588
2026-01-02 03:44:29.31	291.68	17.72	-55.0	-70.9	3.8	1.49e+00	0	33	104	0	75	23567
2026-01-02 03:44:30.31	291.52	17.63	-55.0	-71.0	3.8	1.49e+00	0	33	104	0	75	23611
2026-01-02 03:44:31.31	291.36	17.55	-55.0	-71.0	3.8	1.49e+00	0	33	104	0	75	23622
2026-01-02 03:44:32.31	291.20	17.46	-55.0	-71.0	3.8	1.49e+00	0	33	104	0	75	23639
2026-01-02 03:44:33.32	291.04	17.38	-55.0	-71.0	3.8	1.49e+00	0	33	104	0	75	23669
2026-01-02 03:44:34.32	290.88	17.30	-55.0	-71.0	3.8	1.49e+00	0	33	104	0	75	23704
2026-01-02 03:44:35.32	290.72	17.21	-55.0	-71.0	3.8	1.49e+00	0	33	104	0	75	23633
2026-01-02 03:44:36.32	290.56	17.13	-55.0	-71.0	3.8	1.49e+00	0	33	104	0	75	23651
2026-01-02 03:44:37.33	290.40	17.04	-55.0	-71.0	3.8	1.49e+00	0	33	104	0	75	23593
2026-01-02 03:44:38.33	290.25	16.96	-55.0	-70.9	3.8	1.49e+00	0	33	104	0	75	23536
2026-01-02 03:44:39.33	290.09	16.87	-55.0	-71.0	3.8	1.49e+00	0	33	104	0	75	23588
2026-01-02 03:44:40.33	289.94	16.79	-55.0	-71.0	3.8	1.49e+00	0	33	104	0	75	23616
2026-01-02 03:44:41.33	289.78	16.71	-55.0	-71.0	3.8	1.49e+00	0	33	104	0	75	23602
2026-01-02 03:44:42.34	289.63	16.62	-55.0	-71.0	3.8	1.49e+00	0	33	104	0	75	23614
2026-01-02 03:44:43.34	289.48	16.54	-55.0	-70.9	3.8	1.49e+00	0	33	104	0	75	23551
2026-01-02 03:44:44.35	289.33	16.45	-55.0	-70.9	3.8	1.49e+00	0	33	104	0	75	23531
2026-01-02 03:44:45.35	289.18	16.37	-55.0	-71.0	3.8	1.49e+00	0	33	104	0	75	23608
2026-01-02 03:44:46.35	289.03	16.29	-55.0	-71.0	3.8	1.49e+00	0	33	104	0	75	23620
2026-01-02 03:44:47.35	288.88	16.20	-55.0	-71.0	3.8	1.49e+00	0	33	104	0	75	23620
2026-01-02 03:44:48.35	288.73	16.12	-55.0	-71.0	3.9	1.49e+00	0	33	104	0	75	23647
2026-01-02 03:44:49.35	288.59	16.04	-55.0	-71.0	3.8	1.49e+00	0	33	104	0	75	23605
2026-01-02 03:44:50.35	288.44	15.95	-55.0	-70.9	3.8	1.49e+00	0	33	104	0	75	23536
2026-01-02 03:44:51.35	288.30	15.87	-55.0	-71.0	3.8	1.49e+00	0	33	104	0	75	23627
2026-01-02 03:44:52.35	288.15	15.79	-55.0	-71.0	3.8	1.49e+00	0	32	104	0	75	23601
2026-01-02 03:44:53.36	288.01	15.70	-55.0	-70.9	3.8	1.49e+00	0	33	104	0	75	23561
2026-01-02 03:44:54.35	287.87	15.62	-55.0	-71.0	3.8	1.49e+00	0	33	104	0	75	23634
2026-01-02 03:44:55.35	287.73	15.54	-55.0	-71.0	3.8	1.49e+00	0	33	104	0	75	23593
2026-01-02 03:44:56.34	287.59	15.46	-55.0	-70.9	3.8	1.49e+00	0	33	104	0	75	23553
2026-01-02 03:44:57.34	287.45	15.37	-55.0	-70.9	3.8	1.49e+00	0	33	104	0	75	23533
2026-01-02 03:44:58.34	287.31	15.29	-55.0	-70.9	3.8	1.49e+00	0	33	104	0	75	23551
2026-01-02 03:44:59.33	287.17	15.21	-55.0	-70.9	3.8	1.49e+00	0	33	104	0	75	23579
2026-01-02 03:45:00.33	287.03	15.13	-55.0	-70.9	3.8	1.49e+00	0	33	104	0	75	23537
2026-01-02 03:45:01.33	286.90	15.05	-55.0	-70.9	3.8	1.49e+00	0	33	104	0	75	23574
2026-01-02 03:45:02.32	286.76	14.97	-55.0	-71.0	3.8	1.49e+00	0	33	104	0	75	23589
2026-01-02 03:45:03.31	286.63	14.88	-55.0	-71.0	3.8	1.49e+00	0	33	104	0	75	23647
2026-01-02 03:45:04.31	286.49	14.80	-55.0	-71.0	3.8	1.49e+00	0	33	104	0	75	23650
2026-01-02 03:45:05.31	286.36	14.72	-55.0	-71.0	3.8	1.49e+00	0	33	104	0	75	23595
2026-01-02 03:45:06.31	286.23	14.64	-55.0	-71.0	3.8	1.49e+00	0	33	104	0	75	23599
2026-01-02 03:45:07.31	286.10	14.56	-55.0	-71.0	3.8	1.49e+00	0	33	104	0	75	23617
2026-01-02 03:45:08.31	285.96	14.48	-55.0	-70.9	3.8	1.49e+00	0	33	104	0	75	23577
2026-01-02 03:45:09.31	285.83	14.40	-55.0	-71.0	3.8	1.49e+00	0	33	104	0	75	23676
2026-01-02 03:45:10.31	285.70	14.32	-55.0	-71.0	3.8	1.49e+00	0	33	104	0	75	23676
2026-01-02 03:45:11.32	285.57	14.23	-55.0	-71.0	3.8	1.49e+00	0	33	104	0	75	23636
2026-01-02 03:45:12.32	285.44	14.15	-55.0	-71.0	3.8	1.49e+00	0	33	104	0	75	23589
2026-01-02 03:45:13.32	285.32	14.07	-55.0	-71.0	3.8	1.49e+00	0	33	104	0	75	23645
2026-01-02 03:45:14.31	285.19	13.99	-55.0	-71.0	3.7	1.49e+00	0	33	104	0	75	23745
2026-01-02 03:45:15.30	285.07	13.91	-55.0	-70.9	3.8	1.49e+00	0	33	104	0	75	23542
2026-01-02 03:45:16.30	284.94	13.83	-55.0	-71.0	3.8	1.49e+00	0	33	104	0	75	23586
2026-01-02 03:45:17.30	284.81	13.75	-55.0	-71.0	3.8	1.49e+00	0	33	104	0	75	23582
2026-01-02 03:45:18.30	284.69	13.67	-55.0	-71.0	3.8	1.49e+00	0	33	104	0	75	23653
2026-01-02 03:45:19.31	284.57	13.59	-55.0	-71.0	3.8	1.49e+00	0	33	104	0	75	23686
2026-01-02 03:45:20.30	284.44	13.51	-55.0	-71.0	3.8	1.49e+00	0	33	104	0	75	23612
2026-01-02 03:45:21.31	284.32	13.43	-55.0	-71.0	3.8	1.49e+00	0	33	104	0	75	23657
2026-01-02 03:45:22.31	284.20	13.35	-55.0	-71.0	3.8	1.49e+00	0	33	104	0	75	23648
2026-01-02 03:45:23.31	284.08	13.27	-55.0	-71.0	3.8	1.49e+00	0	33	104	0	75	23652
2026-01-02 03:45:24.31	283.96	13.20	-55.0	-71.0	3.8	1.49e+00	0	33	104	0	75	23603
2026-01-02 03:45:25.32	283.84	13.12	-55.0	-71.0	3.8	1.49e+00	0	33	104	0	75	23642
2026-01-02 03:45:26.31	283.72	13.04	-55.0	-71.0	3.8	1.49e+00	0	33	104	0	75	23584
2026-01-02 03:45:27.31	283.60	12.96	-55.0	-71.0	3.8	1.49e+00	0	33	104	0	75	23649
2026-01-02 03:45:28.31	283.48	12.88	-55.0	-71.0	3.8	1.49e+00	0	33	104	0	75	23658
2026-01-02 03:45:29.31	283.36	12.80	-55.0	-71.0	3.8	1.49e+00	0	33	104	0	75	23655
2026-01-02 03:45:30.30	283.25	12.72	-55.0	-71.0	3.8	1.49e+00	0	33	104	0	75	23588
2026-01-02 03:45:31.30	283.13	12.65	-55.0	-71.0	3.8	1.49e+00	0	33	104	0	75	23621
2026-01-02 03:45:32.29	283.02	12.57	-55.0	-71.0	3.8	1.49e+00	0	33	104	0	75	23645
2026-01-02 03:45:33.29	282.91	12.49	-55.0	-71.0	3.8	1.49e+00	0	33	104	0	75	23614
2026-01-02 03:45:34.29	282.79	12.41	-55.0	-71.0	3.8	1.49e+00	0	33	104	0	75	23637
2026-01-02 03:45:35.29	282.68	12.33	-55.0	-71.0	3.8	1.49e+00	0	33	104	0	75	23672
2026-01-02 03:45:36.29	282.56	12.26	-55.0	-71.0	3.8	1.49e+00	0	32	104	0	75	23618
2026-01-02 03:45:37.28	282.45	12.18	-55.0	-71.0	3.8	1.49e+00	0	33	104	0	75	23644
2026-01-02 03:45:38.28	282.34	12.10	-55.0	-70.9	3.8	1.49e+00	0	33	104	0	75	23572
2026-01-02 03:45:39.28	282.23	12.03	-55.0	-71.0	3.8	1.49e+00	0	33	104	0	75	23588
2026-01-02 03:45:40.28	282.12	11.95	-54.8	-70.7	3.8	1.49e+00	0	33	104	0	73	25819
2026-01-02 03:45:41.28	282.01	11.87	-55.0	-71.0	3.8	1.49e+00	0	33	104	0	75	23646
2026-01-02 03:45:42.27	281.90	11.80	-55.0	-71.0	3.8	1.49e+00	0	33	104	0	75	23584
2026-01-02 03:45:43.27	281.79	11.72	-55.0	-71.0	3.8	1.49e+00	0	33	104	0	75	23654
2026-01-02 03:45:44.27	281.69	11.64	-55.0	-71.0	3.8	1.49e+00	0	33	104	0	75	23602
2026-01-02 03:45:45.27	281.58	11.57	-55.0	-71.0	3.8	1.49e+00	0	33	104	0	75	23636
2026-01-02 03:45:46.27	281.47	11.49	-55.0	-71.0	3.8	1.49e+00	0	33	104	0	75	23647
2026-01-02 03:45:47.27	281.37	11.41	-55.0	-71.0	3.8	1.49e+00	0	33	104	0	75	23617
2026-01-02 03:45:48.27	281.26	11.34	-55.0	-71.0	3.8	1.49e+00	0	33	104	0	75	23636
2026-01-02 03:45:49.27	281.16	11.26	-55.0	-71.0	3.8	1.49e+00	0	33	104	0	75	23642
2026-01-02 03:45:50.26	281.05	11.19	-55.0	-71.0	3.8	1.49e+00	0	33	104	0	75	23601
2026-01-02 03:45:51.27	280.95	11.11	-55.0	-71.0	3.8	1.49e+00	0	33	104	0	75	23627
2026-01-02 03:45:52.26	280.84	11.04	-55.0	-71.0	3.8	1.49e+00	0	33	104	0	75	23620
2026-01-02 03:45:53.26	280.74	10.96	-55.0	-71.0	3.8	1.49e+00	0	33	104	0	75	23639
2026-01-02 03:45:54.26	280.64	10.88	-55.0	-71.0	3.8	1.49e+00	0	33	104	0	75	23633
2026-01-02 03:45:55.26	280.54	10.81	-55.0	-71.0	3.8	1.49e+00	0	33	104	0	75	23603
2026-01-02 03:45:56.25	280.44	10.74	-55.0	-71.0	3.8	1.49e+00	0	33	104	0	75	23629
2026-01-02 03:45:57.26	280.33	10.66	-55.0	-71.0	3.8	1.49e+00	0	33	104	0	75	23604
2026-01-02 03:45:58.26	280.23	10.59	-55.0	-71.0	3.8	1.49e+00	0	33	104	0	75	23611
2026-01-02 03:45:59.25	280.14	10.51	-55.0	-71.0	3.8	1.49e+00	0	33	104	0	75	23609
2026-01-02 03:46:00.25	280.04	10.44	-55.0	-70.9	3.8	1.49e+00	0	33	104	0	75	23575
2026-01-02 03:46:01.26	279.94	10.36	-55.0	-71.0	3.8	1.49e+00	0	33	104	0	75	23602
2026-01-02 03:46:02.25	279.84	10.29	-55.0	-71.0	3.8	1.49e+00	0	33	104	0	75	23639
2026-01-02 03:46:03.26	279.74	10.21	-55.0	-71.0	3.8	1.49e+00	0	33	104	0	75	23620
2026-01-02 03:46:04.26	279.64	10.14	-55.0	-71.0	3.8	1.49e+00	0	33	104	0	75	23606
2026-01-02 03:46:05.25	279.55	10.07	-55.0	-71.0	3.8	1.49e+00	0	33	104	0	75	23662
2026-01-02 03:46:06.25	279.45	9.99	-55.0	-71.0	3.7	1.49e+00	0	33	104	0	75	23688
2026-01-02 03:46:07.25	279.36	9.92	-55.0	-71.0	3.8	1.49e+00	0	33	104	0	75	23609
2026-01-02 03:46:08.25	279.26	9.85	-55.0	-70.9	3.8	1.49e+00	0	33	104	0	75	23558
2026-01-02 03:46:09.25	279.17	9.78	-55.0	-70.9	3.8	1.49e+00	0	33	104	0	75	23562
2026-01-02 03:46:10.25	279.07	9.70	-55.0	-70.9	3.8	1.49e+00	0	33	104	0	75	23564
2026-01-02 03:46:11.25	278.98	9.63	-55.0	-71.0	3.8	1.49e+00	0	33	104	0	75	23626
2026-01-02 03:46:12.24	278.89	9.56	-55.0	-70.9	3.8	1.49e+00	0	33	104	0	75	23564
2026-01-02 03:46:13.23	278.79	9.49	-55.0	-71.0	3.8	1.49e+00	0	33	104	0	75	23584
2026-01-02 03:46:14.24	278.70	9.41	-55.0	-70.9	3.8	1.49e+00	0	33	104	0	75	23560
2026-01-02 03:46:15.24	278.61	9.34	-55.0	-71.0	3.8	1.49e+00	0	33	104	0	75	23583
2026-01-02 03:46:16.23	278.52	9.27	-55.0	-71.0	3.8	1.49e+00	0	33	104	0	75	23615
2026-01-02 03:46:17.23	278.43	9.20	-55.0	-71.0	3.8	1.49e+00	0	33	104	0	75	23600
2026-01-02 03:46:18.23	278.34	9.13	-55.0	-71.0	3.8	1.49e+00	0	33	104	0	75	23645
2026-01-02 03:46:19.22	278.25	9.05	-55.0	-70.9	3.8	1.49e+00	0	33	104	0	75	23554
2026-01-02 03:46:20.23	278.16	8.98	-55.0	-71.0	3.8	1.49e+00	0	33	104	0	75	23597
2026-01-02 03:46:21.22	278.07	8.91	-55.0	-71.0	3.8	1.49e+00	0	32	104	0	75	23642
2026-01-02 03:46:22.21	277.98	8.84	-55.0	-71.0	3.8	1.49e+00	0	33	104	0	75	23604
2026-01-02 03:46:23.21	277.89	8.77	-55.0	-71.0	3.8	1.49e+00	0	33	104	0	75	23657
2026-01-02 03:46:24.20	277.81	8.70	-55.0	-71.0	3.8	1.49e+00	0	33	104	0	75	23598
2026-01-02 03:46:25.21	277.72	8.63	-55.0	-71.0	3.8	1.49e+00	0	33	104	0	75	23621
2026-01-02 03:46:26.21	277.63	8.56	-55.0	-71.0	3.8	1.49e+00	0	33	104	0	75	23627
2026-01-02 03:46:27.21	277.54	8.49	-55.0	-71.0	3.8	1.49e+00	0	33	104	0	75	23609
2026-01-02 03:46:28.21	277.46	8.42	-55.0	-71.0	3.8	1.49e+00	0	33	104	0	75	23680
2026-01-02 03:46:29.20	277.37	8.35	-55.0	-70.9	3.8	1.49e+00	0	33	104	0	75	23571
2026-01-02 03:46:30.21	277.29	8.28	-55.0	-71.0	3.8	1.49e+00	0	33	104	0	75	23620
2026-01-02 03:46:31.20	277.20	8.21	-55.0	-71.0	3.8	1.49e+00	0	33	104	0	75	23625
2026-01-02 03:46:32.20	277.12	8.14	-55.0	-71.3	3.8	1.49e+00	0	33	104	0	75	24510
2026-01-02 03:46:33.21	277.04	8.07	-55.0	-71.0	3.8	1.49e+00	0	32	104	0	75	23653
2026-01-02 03:46:34.20	276.95	8.00	-55.0	-71.0	3.8	1.49e+00	0	33	104	0	75	23620
2026-01-02 03:46:35.20	276.87	7.93	-55.0	-70.9	3.8	1.49e+00	0	33	104	0	75	23562
2026-01-02 03:46:36.20	276.79	7.86	-55.0	-71.0	3.8	1.49e+00	0	33	104	0	75	23586
2026-01-02 03:46:37.20	276.70	7.79	-55.0	-71.0	3.8	1.49e+00	0	32	104	0	75	23629
2026-01-02 03:46:38.20	276.62	7.72	-55.0	-71.0	3.8	1.49e+00	0	33	104	0	75	23606
2026-01-02 03:46:39.19	276.54	7.65	-55.0	-70.9	3.8	1.49e+00	0	33	104	0	75	23565
2026-01-02 03:46:40.19	276.46	7.58	-55.0	-71.0	3.8	1.49e+00	0	33	104	0	75	23629
2026-01-02 03:46:41.19	276.38	7.51	-55.0	-71.0	3.8	1.49e+00	0	33	104	0	75	23644
2026-01-02 03:46:42.19	276.30	7.44	-55.0	-70.9	3.8	1.49e+00	0	33	104	0	75	23557
2026-01-02 03:46:43.19	276.22	7.38	-55.0	-71.0	3.8	1.49e+00	0	33	104	0	75	23588
2026-01-02 03:46:44.19	276.14	7.31	-55.0	-71.0	3.8	1.49e+00	0	33	104	0	75	23613
2026-01-02 03:46:45.19	276.06	7.24	-55.0	-71.0	3.8	1.49e+00	0	33	104	0	75	23664
2026-01-02 03:46:46.19	275.98	7.17	-55.0	-71.0	3.8	1.49e+00	0	33	104	0	75	23614
2026-01-02 03:46:47.19	275.90	7.10	-55.0	-71.0	3.8	1.49e+00	0	33	104	0	75	23623
2026-01-02 03:46:48.18	275.83	7.04	-55.0	-71.0	3.8	1.49e+00	0	33	104	0	75	23629
2026-01-02 03:46:49.18	275.75	6.97	-55.0	-71.0	3.8	1.49e+00	0	32	104	0	75	23600
2026-01-02 03:46:50.18	275.67	6.90	-55.0	-71.0	3.8	1.49e+00	0	33	104	0	75	23607
2026-01-02 03:46:51.18	275.60	6.83	-55.0	-71.0	3.8	1.49e+00	0	32	104	0	75	23610
2026-01-02 03:46:52.18	275.52	6.77	-55.0	-71.0	3.8	1.49e+00	0	32	104	0	75	23589
2026-01-02 03:46:53.19	275.44	6.70	-55.0	-71.0	3.8	1.49e+00	0	33	104	0	75	23637
2026-01-02 03:46:54.19	275.37	6.63	-55.0	-71.0	3.8	1.49e+00	0	33	104	0	75	23590
2026-01-02 03:46:55.19	275.29	6.56	-55.0	-71.0	3.8	1.49e+00	0	32	104	0	75	23606
2026-01-02 03:46:56.19	275.22	6.50	-55.0	-71.0	3.8	1.49e+00	0	33	104	0	75	23607
2026-01-02 03:46:57.20	275.14	6.43	-55.0	-70.9	3.8	1.49e+00	0	33	104	0	75	23565
2026-01-02 03:46:58.20	275.07	6.36	-55.0	-71.0	3.9	1.49e+00	0	33	104	0	75	23591
2026-01-02 03:46:59.20	274.99	6.30	-55.0	-71.0	3.8	1.49e+00	0	33	104	0	75	23651
2026-01-02 03:47:00.20	274.92	6.23	-55.0	-71.0	3.8	1.49e+00	0	33	104	0	75	23672
2026-01-02 03:47:01.20	274.85	6.16	-55.0	-71.0	3.8	1.49e+00	0	33	104	0	75	23622
2026-01-02 03:47:02.19	274.77	6.10	-55.0	-71.0	3.8	1.49e+00	0	33	104	0	75	23658
2026-01-02 03:47:03.19	274.70	6.03	-55.0	-71.0	3.8	1.49e+00	0	32	104	0	75	23611
2026-01-02 03:47:04.19	274.63	5.97	-55.0	-71.0	3.8	1.49e+00	0	33	104	0	75	23679
2026-01-02 03:47:05.18	274.56	5.90	-55.0	-71.0	3.8	1.49e+00	0	33	104	0	75	23612
2026-01-02 03:47:06.18	274.49	5.84	-55.0	-71.0	3.8	1.49e+00	0	33	104	0	75	23606
2026-01-02 03:47:07.18	274.42	5.77	-55.0	-71.0	3.8	1.49e+00	0	33	104	0	75	23625
2026-01-02 03:47:08.17	274.35	5.71	-55.0	-71.0	3.8	1.49e+00	0	33	104	0	75	23587
2026-01-02 03:47:09.17	274.27	5.64	-55.0	-71.0	3.8	1.49e+00	0	33	104	0	75	23640
2026-01-02 03:47:10.16	274.21	5.58	-55.0	-70.9	3.8	1.49e+00	0	32	104	0	75	23577
2026-01-02 03:47:11.16	274.14	5.51	-55.0	-71.0	3.8	1.49e+00	0	33	104	0	75	23615
2026-01-02 03:47:12.15	274.07	5.45	-55.0	-70.9	3.8	1.49e+00	0	33	104	0	75	23577
2026-01-02 03:47:13.15	274.00	5.38	-55.0	-71.0	3.8	1.49e+00	0	33	104	0	75	23658
2026-01-02 03:47:14.14	273.93	5.32	-55.0	-71.0	3.8	1.49e+00	0	32	104	0	75	23601
2026-01-02 03:47:15.14	273.86	5.25	-55.0	-71.0	3.8	1.49e+00	0	33	104	0	75	23597
2026-01-02 03:47:16.14	273.79	5.19	-55.0	-71.0	3.8	1.49e+00	0	32	104	0	75	23623
2026-01-02 03:47:17.14	273.72	5.12	-55.0	-71.0	3.8	1.49e+00	0	33	104	0	75	23644
2026-01-02 03:47:18.13	273.66	5.06	-55.0	-70.9	3.8	1.49e+00	0	33	104	0	75	23567
2026-01-02 03:47:19.13	273.59	5.00	-55.0	-71.0	3.8	1.49e+00	0	33	104	0	75	23637
2026-01-02 03:47:20.13	273.52	4.93	-55.0	-71.0	3.8	1.49e+00	0	33	104	0	75	23589
