passes_logs/2026/01/02/R3.2S_Murmansk/R3.2S_Murmansk__20260102_101211_SUOMI_NPP_rec.log

#Pass ID: 20260102_101211_SUOMI NPP
#Satellite: SUOMI NPP
#Configuration: NPP
#almurnet v.1.7.20251203
#Start time: 2026-01-02 10:12:10

#Version: 2.2.20231116
#Station: R3.2S_Murmansk
#Location: 33.079688 lon 68.888172 lat
#TLE: 1 37849U 11061A   26001.07732418  .00000182  00000+0  10735-3 0  9990
#TLE: 2 37849  98.7795 303.2470 0002580  87.2016 272.9455 14.19520779734739

#Time	Az	El	Level	Level2	SNR	BER	BlckErr	Temp	State	Recorded	gain1	gain2
2026-01-02 10:12:10.79	166.48	1.98	-60.1	-75.6	3.8	1.49e+00	0	30	0	0	86	21328
2026-01-02 10:12:11.77	166.50	2.04	-60.1	-75.5	3.8	1.49e+00	0	31	104	0	85	22366
2026-01-02 10:12:12.76	166.52	2.10	-60.1	-75.5	3.8	1.49e+00	0	31	104	0	85	22317
2026-01-02 10:12:13.75	166.54	2.16	-60.1	-75.5	3.8	1.49e+00	0	31	104	0	85	22384
2026-01-02 10:12:14.74	166.56	2.23	-60.1	-75.5	3.8	1.49e+00	0	30	104	0	85	22314
2026-01-02 10:12:15.72	166.58	2.29	-60.1	-75.5	3.8	1.49e+00	0	31	104	0	85	22335
2026-01-02 10:12:16.70	166.60	2.35	-60.1	-75.5	3.8	1.49e+00	0	31	104	0	85	22312
2026-01-02 10:12:17.68	166.62	2.42	-60.1	-75.5	3.8	1.49e+00	0	31	104	0	85	22446
2026-01-02 10:12:18.68	166.64	2.48	-60.1	-75.6	3.8	1.49e+00	0	31	104	0	85	22581
2026-01-02 10:12:19.67	166.66	2.55	-60.1	-75.6	3.8	1.49e+00	0	31	104	0	85	22636
2026-01-02 10:12:20.67	166.68	2.61	-60.1	-75.6	3.8	1.49e+00	0	31	104	0	85	22563
2026-01-02 10:12:21.65	166.70	2.67	-60.1	-75.5	3.8	1.49e+00	0	31	104	0	85	22394
2026-01-02 10:12:22.65	166.72	2.74	-60.1	-75.5	3.8	1.49e+00	0	31	104	0	85	22473
2026-01-02 10:12:23.63	166.74	2.80	-60.1	-75.4	3.8	1.49e+00	0	31	104	0	85	22140
2026-01-02 10:12:24.63	166.76	2.87	-60.1	-75.3	3.8	1.49e+00	0	31	104	0	85	21966
2026-01-02 10:12:25.62	166.78	2.93	-60.1	-75.3	3.8	1.49e+00	0	31	104	0	85	21798
2026-01-02 10:12:26.62	166.80	3.00	-60.1	-75.4	3.8	1.49e+00	0	31	104	0	85	22182
2026-01-02 10:12:27.61	166.83	3.06	-60.1	-75.5	3.8	1.49e+00	0	31	104	0	85	22380
2026-01-02 10:12:28.59	166.85	3.13	-60.1	-75.5	3.8	1.49e+00	0	31	104	0	85	22518
2026-01-02 10:12:29.59	166.87	3.20	-60.1	-75.7	3.8	1.49e+00	0	31	104	0	85	22787
2026-01-02 10:12:30.59	166.89	3.26	-60.1	-75.6	3.8	1.49e+00	0	31	104	0	85	22634
2026-01-02 10:12:31.59	166.91	3.33	-60.1	-75.4	3.8	1.49e+00	0	31	104	0	85	22155
2026-01-02 10:12:32.58	166.93	3.39	-60.1	-74.9	3.8	1.49e+00	0	31	104	0	85	20901
2026-01-02 10:12:33.58	166.95	3.46	-60.0	-74.3	3.8	1.49e+00	0	31	104	0	85	19530
2026-01-02 10:12:34.57	166.97	3.53	-60.0	-73.6	3.8	1.49e+00	0	31	104	0	85	17989
2026-01-02 10:12:35.56	166.99	3.59	-60.0	-72.6	4.1	1.47e+00	0	31	0	0	85	16075
2026-01-02 10:12:36.56	167.02	3.66	-59.9	-71.5	4.4	1.38e+00	92	31	0	0	85	14187
2026-01-02 10:12:37.55	167.04	3.73	-59.8	-70.8	4.6	1.12e+00	0	31	0	1048576	85	13044
2026-01-02 10:12:38.55	167.06	3.80	-59.8	-70.2	4.9	8.31e-01	0	31	0	3145728	85	12152
2026-01-02 10:12:39.55	167.08	3.86	-59.7	-69.5	5.3	6.18e-01	0	31	0	5242880	85	11168
2026-01-02 10:12:40.55	167.10	3.93	-59.6	-68.8	5.7	4.75e-01	0	31	0	7340032	85	10393
2026-01-02 10:12:41.54	167.13	4.00	-59.6	-68.2	6.1	3.31e-01	0	31	0	9437184	85	9681
2026-01-02 10:12:42.53	167.15	4.07	-59.5	-67.6	6.5	2.20e-01	0	31	0	10485760	85	9017
2026-01-02 10:12:43.53	167.17	4.14	-59.4	-67.1	6.9	1.63e-01	0	31	0	12582912	85	8522
2026-01-02 10:12:44.52	167.19	4.20	-59.3	-66.9	7.1	1.13e-01	0	31	0	14680064	85	8309
2026-01-02 10:12:45.52	167.21	4.27	-59.2	-66.2	7.6	7.50e-02	0	31	0	16777216	85	7707
2026-01-02 10:12:46.50	167.24	4.34	-59.1	-65.6	8.2	4.85e-02	0	31	0	17825792	84	7594
2026-01-02 10:12:47.50	167.26	4.41	-59.0	-65.4	8.4	2.93e-02	0	31	0	19922944	84	7374
2026-01-02 10:12:48.49	167.28	4.48	-58.8	-64.6	9.1	1.84e-02	0	31	0	22020096	84	6784
2026-01-02 10:12:49.49	167.30	4.55	-58.7	-64.2	9.5	7.04e-03	0	31	0	24117248	84	6421
2026-01-02 10:12:50.48	167.33	4.62	-58.4	-63.7	9.7	4.95e-03	0	31	0	26214400	83	6490
2026-01-02 10:12:51.47	167.35	4.69	-58.4	-63.5	9.9	3.94e-03	0	31	0	27262976	83	6326
2026-01-02 10:12:52.46	167.37	4.76	-58.3	-63.4	10.0	2.71e-03	0	31	0	29360128	83	6260
2026-01-02 10:12:53.45	167.40	4.82	-58.3	-63.2	10.2	1.60e-03	0	31	0	31457280	83	6123
2026-01-02 10:12:54.44	167.42	4.89	-58.3	-63.5	9.9	3.05e-03	0	31	0	33554432	83	6310
2026-01-02 10:12:55.44	167.44	4.97	-58.4	-63.6	9.9	3.09e-03	0	31	0	34603008	83	6385
2026-01-02 10:12:56.43	167.47	5.04	-58.8	-64.8	8.9	8.73e-03	0	31	0	36700160	83	7325
2026-01-02 10:12:57.43	167.49	5.11	-59.3	-66.5	7.5	1.83e-01	0	31	0	38797312	84	8434
2026-01-02 10:12:58.43	167.51	5.18	-58.3	-63.2	10.3	9.53e-03	0	31	0	40894464	83	6072
2026-01-02 10:12:59.42	167.54	5.25	-59.9	-71.8	4.3	5.94e-01	0	31	0	41943040	84	15535
2026-01-02 10:13:00.41	167.56	5.32	-59.3	-66.7	4.8	1.48e+00	0	31	104	41943040	85	8111
2026-01-02 10:13:01.40	167.58	5.39	-56.3	-58.9	13.5	0.00e+00	0	31	0	42991616	79	4655
2026-01-02 10:13:02.39	167.61	5.46	-56.3	-58.9	13.6	0.00e+00	0	31	0	45088768	79	4673
2026-01-02 10:13:03.38	167.63	5.53	-56.4	-59.0	13.4	0.00e+00	0	31	0	46137344	79	4750
2026-01-02 10:13:04.38	167.66	5.61	-56.5	-59.2	13.4	0.00e+00	0	31	0	48234496	79	4829
2026-01-02 10:13:05.37	167.68	5.68	-56.1	-58.6	13.7	0.00e+00	0	31	0	50331648	78	4803
2026-01-02 10:13:06.36	167.70	5.75	-56.1	-58.6	13.7	0.00e+00	0	31	0	52428800	78	4794
2026-01-02 10:13:07.35	167.73	5.82	-56.2	-58.7	13.7	0.00e+00	0	31	0	53477376	78	4835
2026-01-02 10:13:08.34	167.75	5.89	-56.1	-58.6	13.7	0.00e+00	0	31	0	55574528	78	4781
2026-01-02 10:13:09.33	167.78	5.97	-56.1	-58.6	13.8	0.00e+00	0	31	0	57671680	78	4767
2026-01-02 10:13:10.33	167.80	6.04	-55.9	-58.3	13.9	0.00e+00	0	31	0	59768832	78	4601
2026-01-02 10:13:11.32	167.83	6.11	-56.0	-58.4	13.9	0.00e+00	0	31	0	61865984	78	4656
2026-01-02 10:13:12.32	167.85	6.19	-56.1	-58.5	13.8	0.00e+00	0	31	0	62914560	78	4750
2026-01-02 10:13:13.31	167.88	6.26	-56.1	-58.4	13.9	0.00e+00	0	31	0	65011712	78	4689
2026-01-02 10:13:14.31	167.90	6.33	-56.0	-58.3	14.0	0.00e+00	0	31	0	67108864	78	4633
2026-01-02 10:13:15.30	167.93	6.41	-55.9	-58.2	14.0	0.00e+00	0	31	0	69206016	78	4577
2026-01-02 10:13:16.29	167.95	6.48	-55.9	-58.2	14.1	0.00e+00	0	31	0	70254592	78	4563
2026-01-02 10:13:17.28	167.98	6.56	-55.9	-58.2	14.0	0.00e+00	0	31	0	72351744	78	4596
2026-01-02 10:13:18.28	168.00	6.63	-55.9	-58.1	14.1	0.00e+00	0	31	0	74448896	78	4543
2026-01-02 10:13:19.27	168.03	6.71	-55.8	-58.0	14.2	0.00e+00	0	31	0	76546048	78	4442
2026-01-02 10:13:20.26	168.05	6.78	-55.9	-58.1	14.1	0.00e+00	0	31	0	78643200	78	4512
2026-01-02 10:13:21.25	168.08	6.86	-55.7	-57.9	14.3	0.00e+00	0	31	0	79691776	78	4414
2026-01-02 10:13:22.23	168.11	6.93	-55.7	-57.9	14.2	0.00e+00	0	31	0	81788928	77	4695
2026-01-02 10:13:23.23	168.13	7.01	-55.7	-57.9	14.2	0.00e+00	0	31	0	83886080	77	4670
2026-01-02 10:13:24.22	168.16	7.08	-55.6	-57.7	14.3	0.00e+00	0	31	0	85983232	77	4552
2026-01-02 10:13:25.22	168.19	7.16	-55.7	-57.9	14.3	0.00e+00	0	31	0	87031808	77	4659
2026-01-02 10:13:26.21	168.21	7.24	-55.6	-57.7	14.4	0.00e+00	0	31	0	89128960	77	4586
2026-01-02 10:13:27.20	168.24	7.31	-55.6	-57.8	14.4	0.00e+00	0	31	0	91226112	77	4600
2026-01-02 10:13:28.19	168.27	7.39	-55.8	-57.9	14.2	0.00e+00	0	32	0	93323264	77	4690
2026-01-02 10:13:29.19	168.29	7.47	-55.7	-57.8	14.3	0.00e+00	0	31	0	95420416	77	4608
2026-01-02 10:13:30.18	168.32	7.54	-55.6	-57.6	14.4	0.00e+00	0	31	0	96468992	77	4514
2026-01-02 10:13:31.17	168.35	7.62	-55.6	-57.7	14.4	0.00e+00	0	31	0	98566144	77	4551
2026-01-02 10:13:32.15	168.37	7.70	-55.5	-57.5	14.5	0.00e+00	0	31	0	100663296	77	4446
2026-01-02 10:13:33.14	168.40	7.78	-55.4	-57.3	14.6	0.00e+00	0	31	0	102760448	77	4365
2026-01-02 10:13:34.13	168.43	7.85	-55.3	-57.3	14.6	0.00e+00	0	31	0	103809024	77	4362
2026-01-02 10:13:35.13	168.46	7.93	-55.3	-57.2	14.7	0.00e+00	0	31	0	105906176	77	4294
2026-01-02 10:13:36.12	168.48	8.01	-55.2	-57.1	14.7	0.00e+00	0	31	0	108003328	77	4279
2026-01-02 10:13:37.13	168.51	8.09	-55.2	-57.1	14.7	0.00e+00	0	31	0	110100480	76	4512
2026-01-02 10:13:38.12	168.54	8.17	-55.2	-57.0	14.7	0.00e+00	0	32	0	111149056	76	4491
2026-01-02 10:13:39.11	168.57	8.25	-55.2	-57.0	14.7	0.00e+00	0	32	0	113246208	76	4474
2026-01-02 10:13:40.11	168.60	8.33	-55.2	-57.0	14.7	0.00e+00	0	31	0	115343360	76	4476
2026-01-02 10:13:41.10	168.62	8.41	-55.2	-57.1	14.7	0.00e+00	0	32	0	117440512	76	4496
2026-01-02 10:13:42.10	168.65	8.49	-55.1	-56.9	14.8	0.00e+00	0	32	0	119537664	76	4403
2026-01-02 10:13:43.09	168.68	8.57	-55.1	-56.9	14.8	0.00e+00	0	32	0	120586240	76	4417
2026-01-02 10:13:44.08	168.71	8.65	-54.9	-56.7	14.9	0.00e+00	0	32	0	122683392	76	4301
2026-01-02 10:13:45.07	168.74	8.73	-55.0	-56.7	14.9	0.00e+00	0	32	0	124780544	76	4317
2026-01-02 10:13:46.06	168.77	8.81	-55.0	-56.7	14.9	0.00e+00	0	31	0	126877696	76	4329
2026-01-02 10:13:47.05	168.80	8.89	-54.9	-56.6	15.0	0.00e+00	0	32	0	127926272	76	4247
2026-01-02 10:13:48.04	168.83	8.98	-55.0	-56.8	14.9	0.00e+00	0	32	0	130023424	76	4343
2026-01-02 10:13:49.03	168.86	9.06	-54.9	-56.7	14.9	0.00e+00	0	32	0	132120576	76	4310
2026-01-02 10:13:50.03	168.89	9.14	-54.9	-56.5	15.0	0.00e+00	0	32	0	134217728	76	4240
2026-01-02 10:13:51.02	168.92	9.22	-54.9	-56.6	15.0	0.00e+00	0	32	0	136314880	76	4253
2026-01-02 10:13:52.02	168.95	9.31	-54.8	-56.5	15.0	0.00e+00	0	32	0	137363456	76	4204
2026-01-02 10:13:53.00	168.98	9.39	-54.7	-56.3	15.0	0.00e+00	0	32	0	139460608	75	4379
2026-01-02 10:13:54.00	169.01	9.47	-54.6	-56.2	15.1	0.00e+00	0	32	0	141557760	75	4292
2026-01-02 10:13:54.99	169.04	9.56	-54.4	-56.0	15.2	0.00e+00	0	32	0	143654912	75	4197
2026-01-02 10:13:55.99	169.07	9.64	-54.6	-56.2	15.2	0.00e+00	0	31	0	144703488	75	4298
2026-01-02 10:13:56.97	169.10	9.72	-54.6	-56.3	15.1	0.00e+00	0	32	0	146800640	75	4348
2026-01-02 10:13:57.97	169.13	9.81	-54.5	-56.0	15.2	0.00e+00	0	32	0	148897792	75	4239
2026-01-02 10:13:58.95	169.16	9.89	-54.5	-56.1	15.2	0.00e+00	0	32	0	150994944	75	4279
2026-01-02 10:13:59.95	169.19	9.98	-54.6	-56.2	15.1	0.00e+00	0	32	0	153092096	75	4316
2026-01-02 10:14:00.94	169.22	10.06	-54.6	-56.2	15.2	0.00e+00	0	32	0	154140672	75	4306
2026-01-02 10:14:01.95	169.26	10.15	-54.6	-56.2	15.1	0.00e+00	0	32	0	156237824	75	4323
2026-01-02 10:14:02.94	169.29	10.24	-54.3	-55.8	15.3	0.00e+00	0	32	0	158334976	75	4143
2026-01-02 10:14:03.94	169.32	10.32	-54.4	-55.9	15.3	0.00e+00	0	32	0	160432128	75	4163
2026-01-02 10:14:04.92	169.35	10.41	-54.4	-55.9	15.3	0.00e+00	0	32	0	161480704	75	4184
2026-01-02 10:14:05.91	169.38	10.49	-54.1	-55.6	15.4	0.00e+00	0	32	0	163577856	74	4250
2026-01-02 10:14:06.91	169.42	10.58	-54.1	-55.6	15.4	0.00e+00	0	32	0	165675008	74	4274
2026-01-02 10:14:07.90	169.45	10.67	-54.1	-55.6	15.4	0.00e+00	0	31	0	167772160	74	4265
2026-01-02 10:14:08.89	169.48	10.76	-54.1	-55.6	15.4	0.00e+00	0	32	0	169869312	74	4264
2026-01-02 10:14:09.88	169.51	10.84	-54.1	-55.6	15.4	0.00e+00	0	32	0	170917888	74	4246
2026-01-02 10:14:10.87	169.55	10.93	-54.0	-55.5	15.5	0.00e+00	0	32	0	173015040	74	4195
2026-01-02 10:14:11.87	169.58	11.02	-54.1	-55.5	15.4	0.00e+00	0	32	0	175112192	74	4230
2026-01-02 10:14:12.86	169.61	11.11	-54.1	-55.6	15.5	0.00e+00	0	32	0	177209344	74	4257
2026-01-02 10:14:13.86	169.65	11.20	-53.8	-55.2	15.6	0.00e+00	0	32	0	178257920	74	4071
2026-01-02 10:14:14.85	169.68	11.29	-53.9	-55.3	15.5	0.00e+00	0	32	0	180355072	74	4137
2026-01-02 10:14:15.83	169.72	11.38	-53.9	-55.3	15.5	0.00e+00	0	32	0	182452224	74	4123
2026-01-02 10:14:16.82	169.75	11.47	-54.0	-55.4	15.5	0.00e+00	0	32	0	184549376	74	4159
2026-01-02 10:14:17.80	169.78	11.56	-53.8	-55.2	15.6	0.00e+00	0	32	0	185597952	74	4086
2026-01-02 10:14:18.79	169.82	11.65	-53.9	-55.3	15.6	0.00e+00	0	32	0	187695104	74	4103
2026-01-02 10:14:19.79	169.85	11.74	-53.8	-55.2	15.6	0.00e+00	0	32	0	189792256	74	4087
2026-01-02 10:14:20.78	169.89	11.83	-53.9	-55.4	15.6	0.00e+00	0	32	0	191889408	74	4150
2026-01-02 10:14:21.77	169.92	11.92	-54.0	-55.4	15.5	0.00e+00	0	32	0	193986560	74	4173
2026-01-02 10:14:22.77	169.96	12.02	-53.8	-55.2	15.6	0.00e+00	0	32	0	195035136	74	4072
2026-01-02 10:14:23.76	169.99	12.11	-53.8	-55.1	15.7	0.00e+00	0	32	0	197132288	74	4037
2026-01-02 10:14:24.75	170.03	12.20	-53.9	-55.3	15.6	0.00e+00	0	32	0	199229440	74	4101
2026-01-02 10:14:25.75	170.07	12.29	-53.7	-55.1	15.7	0.00e+00	0	32	0	201326592	74	4021
2026-01-02 10:14:26.74	170.10	12.39	-54.0	-55.4	15.6	0.00e+00	0	32	0	202375168	74	4150
2026-01-02 10:14:27.74	170.14	12.48	-53.9	-55.3	15.6	0.00e+00	0	32	0	204472320	74	4132
2026-01-02 10:14:28.73	170.18	12.58	-53.9	-55.3	15.6	0.00e+00	0	32	0	206569472	74	4141
2026-01-02 10:14:29.73	170.21	12.67	-53.8	-55.2	15.6	0.00e+00	0	32	0	208666624	74	4075
2026-01-02 10:14:30.72	170.25	12.77	-53.8	-55.1	15.7	0.00e+00	0	32	0	210763776	74	4035
2026-01-02 10:14:31.71	170.29	12.86	-53.7	-55.1	15.7	0.00e+00	0	32	0	211812352	74	4015
2026-01-02 10:14:32.70	170.32	12.96	-53.8	-55.2	15.6	0.00e+00	0	32	0	213909504	74	4075
2026-01-02 10:14:33.69	170.36	13.05	-53.7	-55.1	15.6	0.00e+00	0	32	0	216006656	73	4261
2026-01-02 10:14:34.69	170.40	13.15	-53.8	-55.2	15.6	0.00e+00	0	32	0	218103808	73	4313
2026-01-02 10:14:35.68	170.44	13.25	-53.8	-55.1	15.6	0.00e+00	0	32	0	219152384	73	4285
2026-01-02 10:14:36.67	170.48	13.34	-53.9	-55.2	15.5	0.00e+00	0	32	0	221249536	73	4334
2026-01-02 10:14:37.66	170.51	13.44	-53.8	-55.2	15.6	0.00e+00	0	32	0	223346688	73	4303
2026-01-02 10:14:38.64	170.55	13.54	-53.7	-55.1	15.6	0.00e+00	0	32	0	225443840	73	4253
2026-01-02 10:14:39.64	170.59	13.64	-53.5	-54.8	15.7	0.00e+00	0	32	0	227540992	73	4128
2026-01-02 10:14:40.63	170.63	13.74	-53.7	-55.0	15.7	0.00e+00	0	32	0	228589568	73	4201
2026-01-02 10:14:41.63	170.67	13.84	-53.7	-55.1	15.7	0.00e+00	0	32	0	230686720	73	4250
2026-01-02 10:14:42.62	170.71	13.94	-53.7	-55.0	15.7	0.00e+00	0	32	0	232783872	73	4222
2026-01-02 10:14:43.62	170.75	14.04	-53.7	-55.0	15.7	0.00e+00	0	32	0	234881024	73	4204
2026-01-02 10:14:44.61	170.79	14.14	-53.7	-55.0	15.7	0.00e+00	0	32	0	235929600	73	4240
2026-01-02 10:14:45.62	170.83	14.24	-53.8	-55.1	15.6	0.00e+00	0	32	0	238026752	73	4289
2026-01-02 10:14:46.61	170.87	14.34	-53.8	-55.1	15.6	0.00e+00	0	32	0	240123904	73	4262
2026-01-02 10:14:47.60	170.91	14.44	-53.8	-55.1	15.6	0.00e+00	0	32	0	242221056	73	4280
2026-01-02 10:14:48.60	170.96	14.54	-53.9	-55.3	15.6	0.00e+00	0	32	0	244318208	73	4350
2026-01-02 10:14:49.59	171.00	14.65	-53.7	-55.0	15.6	0.00e+00	0	32	0	245366784	73	4238
2026-01-02 10:14:50.58	171.04	14.75	-53.8	-55.1	15.6	0.00e+00	0	32	0	247463936	73	4259
2026-01-02 10:14:51.57	171.08	14.85	-53.8	-55.1	15.7	0.00e+00	0	32	0	249561088	73	4268
2026-01-02 10:14:52.56	171.12	14.95	-53.9	-55.2	15.6	0.00e+00	0	32	0	251658240	73	4327
2026-01-02 10:14:53.55	171.17	15.06	-53.9	-55.3	15.6	0.00e+00	0	32	0	252706816	73	4346
2026-01-02 10:14:54.55	171.21	15.16	-53.9	-55.3	15.6	0.00e+00	0	32	0	254803968	73	4376
2026-01-02 10:14:55.54	171.25	15.27	-53.8	-55.2	15.6	0.00e+00	0	32	0	256901120	73	4312
2026-01-02 10:14:56.53	171.29	15.37	-54.0	-55.3	15.6	0.00e+00	0	32	0	258998272	73	4387
2026-01-02 10:14:57.51	171.34	15.48	-54.0	-55.4	15.5	0.00e+00	0	32	0	260046848	73	4417
2026-01-02 10:14:58.50	171.38	15.58	-54.0	-55.3	15.6	0.00e+00	0	32	0	262144000	73	4382
2026-01-02 10:14:59.50	171.43	15.69	-54.0	-55.4	15.5	0.00e+00	0	32	0	264241152	73	4435
2026-01-02 10:15:00.49	171.47	15.80	-54.0	-55.4	15.6	0.00e+00	0	32	0	266338304	73	4415
2026-01-02 10:15:01.49	171.52	15.91	-53.9	-55.3	15.6	0.00e+00	0	32	0	268435456	73	4358
2026-01-02 10:15:02.48	171.56	16.02	-54.0	-55.4	15.6	0.00e+00	0	32	0	269484032	73	4423
2026-01-02 10:15:03.47	171.61	16.12	-54.0	-55.4	15.5	0.00e+00	0	32	0	271581184	73	4407
2026-01-02 10:15:04.46	171.65	16.23	-54.0	-55.3	15.6	0.00e+00	0	32	0	273678336	73	4381
2026-01-02 10:15:05.45	171.70	16.34	-54.0	-55.4	15.6	0.00e+00	0	32	0	275775488	73	4431
2026-01-02 10:15:06.44	171.74	16.45	-54.0	-55.4	15.5	0.00e+00	0	32	0	276824064	73	4407
2026-01-02 10:15:07.43	171.79	16.56	-54.0	-55.3	15.6	0.00e+00	0	32	0	278921216	73	4371
2026-01-02 10:15:08.42	171.84	16.67	-53.9	-55.3	15.6	0.00e+00	0	32	0	281018368	73	4343
2026-01-02 10:15:09.42	171.89	16.79	-54.1	-55.5	15.5	0.00e+00	0	32	0	283115520	73	4451
2026-01-02 10:15:10.41	171.93	16.90	-53.9	-55.3	15.6	0.00e+00	0	32	0	284164096	73	4348
2026-01-02 10:15:11.39	171.98	17.01	-54.0	-55.4	15.6	0.00e+00	0	32	0	286261248	73	4398
2026-01-02 10:15:12.38	172.03	17.12	-53.8	-55.2	15.6	0.00e+00	0	32	0	288358400	73	4293
2026-01-02 10:15:13.36	172.08	17.23	-53.9	-55.3	15.6	0.00e+00	0	32	0	290455552	73	4356
2026-01-02 10:15:14.36	172.13	17.35	-54.0	-55.3	15.6	0.00e+00	0	32	0	292552704	73	4371
2026-01-02 10:15:15.35	172.17	17.46	-53.9	-55.3	15.6	0.00e+00	0	32	0	293601280	73	4346
2026-01-02 10:15:16.34	172.22	17.58	-53.9	-55.3	15.6	0.00e+00	0	32	0	295698432	73	4347
2026-01-02 10:15:17.33	172.27	17.69	-54.0	-55.3	15.6	0.00e+00	0	32	0	297795584	73	4378
2026-01-02 10:15:18.32	172.32	17.81	-54.1	-55.4	15.6	0.00e+00	0	32	0	299892736	73	4429
2026-01-02 10:15:19.32	172.38	17.93	-54.2	-55.6	15.5	0.00e+00	0	32	0	300941312	73	4501
2026-01-02 10:15:20.31	172.43	18.04	-54.2	-55.6	15.5	0.00e+00	0	32	0	303038464	73	4503
2026-01-02 10:15:21.30	172.48	18.16	-53.9	-55.3	15.6	0.00e+00	0	32	0	305135616	73	4363
2026-01-02 10:15:22.30	172.53	18.28	-54.1	-55.4	15.6	0.00e+00	0	32	0	307232768	73	4431
2026-01-02 10:15:23.30	172.58	18.40	-54.0	-55.3	15.6	0.00e+00	0	32	0	309329920	73	4371
2026-01-02 10:15:24.29	172.63	18.52	-54.1	-55.5	15.5	0.00e+00	0	32	0	310378496	73	4443
2026-01-02 10:15:25.28	172.69	18.64	-54.0	-55.3	15.6	0.00e+00	0	32	0	312475648	73	4378
2026-01-02 10:15:26.28	172.74	18.76	-54.1	-55.5	15.5	0.00e+00	0	32	0	314572800	73	4484
2026-01-02 10:15:27.27	172.80	18.88	-53.9	-55.2	15.6	0.00e+00	0	32	0	316669952	73	4337
2026-01-02 10:15:28.27	172.85	19.00	-54.0	-55.3	15.6	0.00e+00	0	32	0	317718528	73	4370
2026-01-02 10:15:29.26	172.90	19.12	-54.2	-55.6	15.5	0.00e+00	0	32	0	319815680	73	4531
2026-01-02 10:15:30.25	172.96	19.25	-54.1	-55.4	15.6	0.00e+00	0	32	0	321912832	73	4441
2026-01-02 10:15:31.25	173.01	19.37	-54.2	-55.5	15.5	0.00e+00	0	32	0	324009984	73	4493
2026-01-02 10:15:32.24	173.07	19.49	-54.2	-55.6	15.5	0.00e+00	0	32	0	326107136	73	4521
2026-01-02 10:15:33.24	173.13	19.62	-54.4	-55.8	15.5	0.00e+00	0	32	0	327155712	74	4380
2026-01-02 10:15:34.23	173.18	19.74	-54.6	-56.1	15.4	0.00e+00	0	32	0	329252864	74	4515
2026-01-02 10:15:35.22	173.24	19.87	-54.5	-56.0	15.4	0.00e+00	0	32	0	331350016	74	4473
2026-01-02 10:15:36.21	173.30	20.00	-54.4	-55.9	15.4	0.00e+00	0	32	0	333447168	74	4405
2026-01-02 10:15:37.20	173.36	20.12	-54.6	-56.2	15.3	0.00e+00	0	32	0	334495744	74	4548
2026-01-02 10:15:38.19	173.41	20.25	-54.6	-56.2	15.3	0.00e+00	0	32	0	336592896	74	4548
2026-01-02 10:15:39.19	173.47	20.38	-54.7	-56.2	15.3	0.00e+00	0	32	0	338690048	74	4558
2026-01-02 10:15:40.18	173.53	20.51	-54.8	-56.4	15.2	0.00e+00	0	32	0	340787200	74	4668
2026-01-02 10:15:41.17	173.59	20.64	-54.6	-56.1	15.3	0.00e+00	0	32	0	341835776	74	4526
2026-01-02 10:15:42.17	173.65	20.77	-54.6	-56.1	15.3	0.00e+00	0	32	0	343932928	74	4505
2026-01-02 10:15:43.15	173.71	20.90	-54.6	-56.1	15.3	0.00e+00	0	32	0	346030080	74	4537
2026-01-02 10:15:44.15	173.77	21.03	-54.5	-56.0	15.4	0.00e+00	0	32	0	348127232	74	4444
2026-01-02 10:15:45.15	173.84	21.16	-54.4	-55.8	15.5	0.00e+00	0	32	0	350224384	74	4381
2026-01-02 10:15:46.14	173.90	21.30	-54.2	-55.6	15.5	0.00e+00	0	32	0	351272960	74	4268
2026-01-02 10:15:47.14	173.96	21.43	-54.2	-55.5	15.6	0.00e+00	0	32	0	353370112	74	4236
2026-01-02 10:15:48.13	174.02	21.56	-54.2	-55.5	15.6	0.00e+00	0	32	0	355467264	74	4232
2026-01-02 10:15:49.13	174.09	21.70	-54.1	-55.4	15.6	0.00e+00	0	32	0	357564416	74	4170
2026-01-02 10:15:50.12	174.15	21.84	-54.0	-55.3	15.6	0.00e+00	0	32	0	358612992	74	4122
2026-01-02 10:15:51.11	174.22	21.97	-53.9	-55.2	15.7	0.00e+00	0	32	0	360710144	74	4073
2026-01-02 10:15:52.11	174.28	22.11	-54.1	-55.4	15.6	0.00e+00	0	32	0	362807296	74	4192
2026-01-02 10:15:53.10	174.35	22.25	-54.0	-55.3	15.7	0.00e+00	0	32	0	364904448	74	4130
2026-01-02 10:15:54.10	174.42	22.39	-54.1	-55.4	15.6	0.00e+00	0	32	0	367001600	74	4152
2026-01-02 10:15:55.11	174.48	22.53	-53.9	-55.2	15.7	0.00e+00	0	32	0	368050176	74	4061
2026-01-02 10:15:56.10	174.55	22.67	-53.9	-55.2	15.7	0.00e+00	0	32	0	370147328	74	4067
2026-01-02 10:15:57.09	174.62	22.81	-54.2	-55.5	15.6	0.00e+00	0	32	0	372244480	74	4220
2026-01-02 10:15:58.08	174.69	22.95	-53.9	-55.2	15.7	0.00e+00	0	32	0	374341632	74	4059
2026-01-02 10:15:59.08	174.76	23.09	-54.0	-55.2	15.7	0.00e+00	0	32	0	375390208	74	4094
2026-01-02 10:16:00.07	174.83	23.23	-53.8	-55.1	15.8	0.00e+00	0	32	0	377487360	74	4024
2026-01-02 10:16:01.06	174.90	23.38	-53.9	-55.1	15.7	0.00e+00	0	32	0	379584512	74	4045
2026-01-02 10:16:02.06	174.97	23.52	-53.9	-55.1	15.8	0.00e+00	0	32	0	381681664	74	4040
2026-01-02 10:16:03.05	175.04	23.67	-53.9	-55.2	15.7	0.00e+00	0	32	0	383778816	73	4296
2026-01-02 10:16:04.05	175.11	23.81	-53.8	-55.0	15.8	0.00e+00	0	32	0	384827392	73	4239
2026-01-02 10:16:05.04	175.19	23.96	-53.9	-55.2	15.7	0.00e+00	0	32	0	386924544	73	4322
2026-01-02 10:16:06.03	175.26	24.11	-53.9	-55.2	15.7	0.00e+00	0	32	0	389021696	73	4308
2026-01-02 10:16:07.04	175.34	24.26	-54.1	-55.4	15.6	0.00e+00	0	32	0	391118848	73	4431
2026-01-02 10:16:08.03	175.41	24.41	-54.0	-55.4	15.6	0.00e+00	0	32	0	392167424	73	4405
2026-01-02 10:16:09.03	175.49	24.56	-54.2	-55.5	15.6	0.00e+00	0	32	0	394264576	73	4491
2026-01-02 10:16:10.02	175.56	24.71	-54.1	-55.5	15.6	0.00e+00	0	32	0	396361728	73	4446
2026-01-02 10:16:11.01	175.64	24.86	-54.3	-55.7	15.4	0.00e+00	0	32	0	398458880	73	4584
2026-01-02 10:16:12.00	175.72	25.01	-54.1	-55.5	15.5	0.00e+00	0	32	0	400556032	73	4473
2026-01-02 10:16:12.99	175.80	25.16	-54.0	-55.4	15.6	0.00e+00	0	32	0	401604608	73	4413
2026-01-02 10:16:13.99	175.88	25.32	-54.2	-55.6	15.5	0.00e+00	0	32	0	403701760	73	4517
2026-01-02 10:16:14.98	175.96	25.47	-54.0	-55.4	15.6	0.00e+00	0	32	0	405798912	73	4405
2026-01-02 10:16:15.96	176.04	25.63	-54.2	-55.6	15.5	0.00e+00	0	32	0	407896064	73	4521
2026-01-02 10:16:16.95	176.12	25.78	-54.0	-55.4	15.6	0.00e+00	0	32	0	409993216	73	4409
2026-01-02 10:16:17.94	176.20	25.94	-54.1	-55.5	15.6	0.00e+00	0	32	0	411041792	73	4454
2026-01-02 10:16:18.94	176.28	26.10	-54.1	-55.5	15.6	0.00e+00	0	32	0	413138944	73	4442
2026-01-02 10:16:19.93	176.37	26.26	-54.0	-55.3	15.7	0.00e+00	0	32	0	415236096	73	4375
2026-01-02 10:16:20.92	176.45	26.42	-53.9	-55.1	15.7	0.00e+00	0	32	0	417333248	73	4288
2026-01-02 10:16:21.92	176.54	26.58	-53.9	-55.2	15.7	0.00e+00	0	32	0	418381824	73	4299
2026-01-02 10:16:22.91	176.62	26.74	-53.7	-54.9	15.8	0.00e+00	0	32	0	420478976	73	4187
2026-01-02 10:16:23.91	176.71	26.91	-53.6	-54.8	15.8	0.00e+00	0	32	0	422576128	73	4141
2026-01-02 10:16:24.90	176.80	27.07	-53.3	-54.5	16.0	0.00e+00	0	32	0	424673280	73	3961
2026-01-02 10:16:25.89	176.89	27.23	-53.2	-54.3	16.0	0.00e+00	0	32	0	426770432	73	3906
2026-01-02 10:16:26.88	176.98	27.40	-52.9	-54.0	16.0	0.00e+00	0	32	0	427819008	72	3985
2026-01-02 10:16:27.88	177.07	27.57	-53.0	-54.1	16.0	0.00e+00	0	32	0	429916160	72	4046
2026-01-02 10:16:28.87	177.16	27.73	-53.0	-54.1	16.0	0.00e+00	0	32	0	432013312	72	4048
2026-01-02 10:16:29.86	177.25	27.90	-53.0	-54.1	16.0	0.00e+00	0	32	0	434110464	72	4016
2026-01-02 10:16:30.85	177.35	28.07	-53.2	-54.4	15.9	0.00e+00	0	32	0	435159040	72	4179
2026-01-02 10:16:31.84	177.44	28.24	-53.2	-54.3	16.0	0.00e+00	0	32	0	437256192	72	4145
2026-01-02 10:16:32.83	177.53	28.41	-53.5	-54.7	15.8	0.00e+00	0	32	0	439353344	72	4329
2026-01-02 10:16:33.83	177.63	28.58	-53.5	-54.7	15.8	0.00e+00	0	32	0	441450496	72	4339
2026-01-02 10:16:34.82	177.73	28.76	-53.6	-54.8	15.8	0.00e+00	0	32	0	442499072	72	4380
2026-01-02 10:16:35.81	177.83	28.93	-53.6	-54.8	15.8	0.00e+00	0	32	0	444596224	72	4368
2026-01-02 10:16:36.80	177.93	29.11	-53.8	-55.0	15.7	0.00e+00	0	32	0	446693376	72	4485
2026-01-02 10:16:37.79	178.03	29.28	-54.2	-55.5	15.6	0.00e+00	0	32	0	448790528	73	4489
2026-01-02 10:16:38.78	178.13	29.46	-54.1	-55.4	15.6	0.00e+00	0	32	0	449839104	73	4432
2026-01-02 10:16:39.77	178.23	29.64	-54.4	-55.8	15.4	0.00e+00	0	32	0	451936256	74	4374
2026-01-02 10:16:40.76	178.33	29.81	-54.8	-56.3	15.3	0.00e+00	0	32	0	454033408	75	4359
2026-01-02 10:16:41.75	178.44	29.99	-54.8	-56.3	15.3	0.00e+00	0	32	0	456130560	75	4351
2026-01-02 10:16:42.75	178.54	30.18	-55.3	-57.0	15.0	0.00e+00	0	32	0	458227712	75	4716
2026-01-02 10:16:43.74	178.65	30.36	-55.2	-56.8	15.1	0.00e+00	0	32	0	459276288	75	4613
2026-01-02 10:16:44.73	178.76	30.54	-55.5	-57.1	15.0	0.00e+00	0	32	0	461373440	76	4544
2026-01-02 10:16:45.72	178.87	30.73	-55.6	-57.3	14.9	0.00e+00	0	32	0	463470592	76	4620
2026-01-02 10:16:46.72	178.98	30.91	-55.6	-57.4	14.9	0.00e+00	0	32	0	465567744	76	4658
2026-01-02 10:16:47.71	179.09	31.10	-55.7	-57.5	14.8	0.00e+00	0	32	0	466616320	76	4751
2026-01-02 10:16:48.70	179.20	31.29	-55.8	-57.6	14.8	0.00e+00	0	32	0	468713472	76	4802
2026-01-02 10:16:49.69	179.32	31.47	-56.2	-58.1	14.6	0.00e+00	0	32	0	470810624	77	4786
2026-01-02 10:16:50.68	179.43	31.66	-56.3	-58.4	14.4	0.00e+00	0	32	0	472907776	77	4935
2026-01-02 10:16:51.68	179.55	31.86	-56.6	-58.8	14.3	0.00e+00	0	32	0	475004928	78	4873
2026-01-02 10:16:52.66	179.67	32.05	-56.7	-59.0	14.2	0.00e+00	0	32	0	476053504	79	4739
2026-01-02 10:16:53.66	179.79	32.24	-56.6	-58.8	14.3	0.00e+00	0	32	0	478150656	79	4619
2026-01-02 10:16:54.65	179.91	32.43	-56.9	-59.2	14.0	0.00e+00	0	32	0	480247808	79	4819
2026-01-02 10:16:55.64	180.03	32.63	-56.9	-59.2	14.0	0.00e+00	0	32	0	482344960	79	4841
2026-01-02 10:16:56.63	180.15	32.83	-56.8	-59.2	14.1	0.00e+00	0	32	0	483393536	79	4822
2026-01-02 10:16:57.62	180.28	33.02	-56.8	-59.1	14.1	0.00e+00	0	32	0	485490688	79	4765
2026-01-02 10:16:58.61	180.40	33.22	-56.7	-58.8	14.3	0.00e+00	0	32	0	487587840	79	4644
2026-01-02 10:16:59.61	180.53	33.42	-56.6	-58.7	14.3	0.00e+00	0	32	0	489684992	79	4571
2026-01-02 10:17:00.60	180.66	33.62	-56.2	-58.2	14.6	0.00e+00	0	32	0	491782144	78	4551
2026-01-02 10:17:01.59	180.79	33.83	-56.6	-58.7	14.3	0.00e+00	0	32	0	492830720	78	4838
2026-01-02 10:17:02.59	180.93	34.03	-55.8	-57.6	14.9	0.00e+00	0	32	0	494927872	78	4245
2026-01-02 10:17:03.58	181.06	34.23	-55.9	-57.6	14.9	0.00e+00	0	32	0	497025024	78	4288
2026-01-02 10:17:04.57	181.20	34.44	-56.0	-57.8	14.8	0.00e+00	0	32	0	499122176	78	4341
2026-01-02 10:17:05.55	181.33	34.64	-55.9	-57.6	14.8	0.00e+00	0	32	0	500170752	78	4290
2026-01-02 10:17:06.56	181.48	34.86	-56.4	-58.5	14.4	0.00e+00	0	32	0	502267904	78	4712
2026-01-02 10:17:07.56	181.62	35.07	-56.5	-58.5	14.3	0.00e+00	0	32	0	504365056	78	4756
2026-01-02 10:17:08.55	181.76	35.28	-56.5	-58.5	14.4	0.00e+00	0	32	0	506462208	78	4720
2026-01-02 10:17:09.54	181.91	35.49	-56.7	-58.8	14.2	0.00e+00	0	32	0	508559360	78	4906
2026-01-02 10:17:10.54	182.05	35.70	-56.8	-59.1	14.1	0.00e+00	0	32	0	509607936	78	5052
2026-01-02 10:17:11.53	182.20	35.92	-56.7	-58.9	14.2	0.00e+00	0	32	0	511705088	79	4690
2026-01-02 10:17:12.52	182.35	36.13	-56.9	-59.2	14.1	0.00e+00	0	32	0	513802240	79	4824
2026-01-02 10:17:13.52	182.51	36.35	-57.2	-59.7	13.8	0.00e+00	0	32	0	515899392	79	5148
2026-01-02 10:17:14.51	182.66	36.57	-57.1	-59.4	13.9	0.00e+00	0	32	0	516947968	79	4965
2026-01-02 10:17:15.50	182.82	36.79	-57.2	-59.7	13.8	0.00e+00	0	32	0	519045120	79	5124
2026-01-02 10:17:16.49	182.98	37.01	-57.0	-59.3	14.0	0.00e+00	0	32	0	521142272	80	4644
2026-01-02 10:17:17.47	183.13	37.23	-56.9	-59.2	14.1	0.00e+00	0	32	0	523239424	80	4586
2026-01-02 10:17:18.47	183.30	37.45	-56.8	-59.0	14.2	0.00e+00	0	32	0	524288000	80	4450
2026-01-02 10:17:19.45	183.46	37.67	-56.3	-58.3	14.5	0.00e+00	0	32	0	526385152	79	4376
2026-01-02 10:17:20.45	183.63	37.90	-56.5	-58.5	14.4	0.00e+00	0	32	0	528482304	78	4732
2026-01-02 10:17:21.44	183.80	38.13	-56.4	-58.4	14.5	0.00e+00	0	32	0	530579456	78	4656
2026-01-02 10:17:22.43	183.97	38.36	-56.3	-58.3	14.6	0.00e+00	0	32	0	532676608	78	4608
2026-01-02 10:17:23.42	184.14	38.59	-56.7	-58.8	14.3	0.00e+00	0	32	0	533725184	78	4921
2026-01-02 10:17:24.42	184.32	38.82	-57.0	-59.3	14.0	0.00e+00	0	32	0	535822336	79	4887
2026-01-02 10:17:25.41	184.50	39.05	-57.2	-59.7	13.9	0.00e+00	0	32	0	537919488	80	4832
2026-01-02 10:17:26.39	184.68	39.28	-57.4	-59.9	13.8	0.00e+00	0	32	0	540016640	80	4981
2026-01-02 10:17:27.39	184.87	39.52	-57.8	-60.6	13.4	0.00e+00	0	32	0	541065216	80	5356
2026-01-02 10:17:28.38	185.05	39.75	-57.2	-59.6	13.9	0.00e+00	0	32	0	543162368	80	4788
2026-01-02 10:17:29.38	185.24	39.99	-57.8	-60.6	13.2	0.00e+00	0	32	0	545259520	81	5100
2026-01-02 10:17:30.37	185.44	40.23	-58.2	-61.3	12.6	0.00e+00	0	32	0	547356672	81	5471
2026-01-02 10:17:31.36	185.63	40.47	-57.7	-60.5	13.3	0.00e+00	0	32	0	549453824	81	5012
2026-01-02 10:17:32.35	185.83	40.71	-58.1	-61.1	12.9	0.00e+00	0	32	0	550502400	81	5363
2026-01-02 10:17:33.35	186.03	40.95	-57.9	-60.8	13.2	7.00e-07	0	32	0	552599552	81	5171
2026-01-02 10:17:34.33	186.23	41.19	-57.3	-59.7	13.8	0.00e+00	0	32	0	554696704	81	4585
2026-01-02 10:17:35.33	186.44	41.44	-57.2	-59.6	13.9	0.00e+00	0	32	0	556793856	80	4808
2026-01-02 10:17:36.33	186.65	41.69	-56.8	-59.1	14.2	0.00e+00	0	32	0	557842432	80	4498
2026-01-02 10:17:37.32	186.86	41.93	-56.3	-58.2	14.7	0.00e+00	0	32	0	559939584	79	4326
2026-01-02 10:17:38.32	187.08	42.18	-56.0	-57.8	14.9	0.00e+00	0	32	0	562036736	78	4383
2026-01-02 10:17:39.31	187.30	42.43	-55.3	-56.9	15.3	0.00e+00	0	32	0	564133888	77	4146
2026-01-02 10:17:40.31	187.53	42.68	-55.4	-57.0	15.2	0.00e+00	0	32	0	566231040	77	4221
2026-01-02 10:17:41.30	187.75	42.93	-55.5	-57.1	15.1	0.00e+00	0	32	0	567279616	77	4267
2026-01-02 10:17:42.30	187.98	43.19	-55.2	-56.7	15.3	0.00e+00	0	32	0	569376768	76	4314
2026-01-02 10:17:43.29	188.22	43.44	-55.0	-56.4	15.4	0.00e+00	0	32	0	571473920	76	4168
2026-01-02 10:17:44.28	188.45	43.70	-55.2	-56.8	15.3	0.00e+00	0	32	0	573571072	76	4344
2026-01-02 10:17:45.27	188.69	43.95	-55.4	-57.0	15.2	0.00e+00	0	32	0	574619648	76	4472
2026-01-02 10:17:46.27	188.94	44.21	-55.5	-57.1	15.0	0.00e+00	0	32	0	576716800	76	4512
2026-01-02 10:17:47.27	189.19	44.48	-55.3	-56.8	15.2	0.00e+00	0	32	0	578813952	76	4377
2026-01-02 10:17:48.26	189.44	44.73	-54.9	-56.3	15.5	0.00e+00	0	32	0	580911104	76	4118
2026-01-02 10:17:49.25	189.70	45.00	-55.0	-56.5	15.4	0.00e+00	0	32	0	583008256	76	4210
2026-01-02 10:17:50.24	189.96	45.26	-55.2	-56.6	15.3	0.00e+00	0	32	0	584056832	76	4288
2026-01-02 10:17:51.24	190.23	45.52	-55.1	-56.5	15.5	0.00e+00	0	32	0	586153984	76	4204
2026-01-02 10:17:52.23	190.50	45.79	-55.1	-56.5	15.4	0.00e+00	0	32	0	588251136	76	4228
2026-01-02 10:17:53.21	190.77	46.05	-55.5	-57.1	15.2	0.00e+00	0	32	0	590348288	76	4524
2026-01-02 10:17:54.20	191.04	46.31	-55.7	-57.4	15.0	0.00e+00	0	32	0	591396864	76	4659
2026-01-02 10:17:55.20	191.33	46.58	-55.6	-57.2	15.1	0.00e+00	0	32	0	593494016	76	4596
2026-01-02 10:17:56.20	191.62	46.85	-55.4	-56.9	15.3	0.00e+00	0	32	0	595591168	76	4409
2026-01-02 10:17:57.19	191.91	47.12	-55.0	-56.4	15.5	0.00e+00	0	32	0	597688320	76	4155
2026-01-02 10:17:58.18	192.21	47.39	-55.1	-56.5	15.5	0.00e+00	0	32	0	598736896	76	4238
2026-01-02 10:17:59.18	192.52	47.67	-54.5	-55.9	15.6	0.00e+00	0	32	0	600834048	75	4161
2026-01-02 10:18:00.17	192.82	47.94	-54.7	-56.1	15.6	0.00e+00	0	32	0	602931200	75	4261
2026-01-02 10:18:01.18	193.14	48.22	-54.6	-55.9	15.6	0.00e+00	0	32	0	605028352	75	4182
2026-01-02 10:18:02.17	193.46	48.49	-54.6	-56.0	15.6	0.00e+00	0	32	0	607125504	75	4233
2026-01-02 10:18:03.16	193.79	48.76	-54.1	-55.4	15.8	0.00e+00	0	32	0	608174080	74	4150
2026-01-02 10:18:04.16	194.12	49.04	-54.1	-55.4	15.8	0.00e+00	0	32	0	610271232	74	4156
2026-01-02 10:18:05.15	194.46	49.32	-53.7	-54.9	16.0	0.00e+00	0	32	0	612368384	73	4154
2026-01-02 10:18:06.15	194.80	49.59	-53.5	-54.6	16.0	0.00e+00	0	32	0	614465536	73	4030
2026-01-02 10:18:07.14	195.15	49.87	-53.4	-54.5	16.0	0.00e+00	0	32	0	616562688	72	4201
2026-01-02 10:18:08.13	195.51	50.15	-53.8	-55.0	15.8	0.00e+00	0	32	0	617611264	72	4486
2026-01-02 10:18:09.13	195.87	50.43	-54.3	-55.6	15.7	0.00e+00	0	32	0	619708416	73	4503
2026-01-02 10:18:10.12	196.24	50.71	-54.9	-56.4	15.4	0.00e+00	0	32	0	621805568	74	4684
2026-01-02 10:18:11.11	196.61	50.99	-54.6	-56.0	15.6	0.00e+00	0	32	0	623902720	75	4231
2026-01-02 10:18:12.10	197.00	51.26	-55.1	-56.6	15.3	0.00e+00	0	32	0	624951296	75	4522
2026-01-02 10:18:13.09	197.38	51.54	-54.7	-56.1	15.5	0.00e+00	0	32	0	627048448	75	4288
2026-01-02 10:18:14.08	197.78	51.82	-53.6	-54.7	16.0	0.00e+00	0	32	0	629145600	73	4095
2026-01-02 10:18:15.08	198.19	52.11	-53.2	-54.2	16.1	0.00e+00	0	32	0	631242752	72	4073
2026-01-02 10:18:16.07	198.60	52.39	-52.3	-53.3	16.4	0.00e+00	0	32	0	632291328	71	3883
2026-01-02 10:18:17.05	199.01	52.66	-52.3	-53.3	16.3	0.00e+00	0	32	0	634388480	71	3874
2026-01-02 10:18:18.05	199.45	52.95	-51.9	-52.8	16.5	0.00e+00	0	32	0	636485632	69	4105
2026-01-02 10:18:19.05	199.88	53.23	-51.7	-52.6	16.5	0.00e+00	0	32	0	638582784	69	4007
2026-01-02 10:18:20.04	200.33	53.51	-51.9	-52.8	16.4	0.00e+00	0	32	0	640679936	69	4139
2026-01-02 10:18:21.04	200.78	53.79	-52.5	-53.5	16.3	0.00e+00	0	32	0	641728512	70	4225
2026-01-02 10:18:22.04	201.25	54.07	-52.9	-54.0	16.1	0.00e+00	0	32	0	643825664	71	4222
2026-01-02 10:18:23.03	201.72	54.35	-53.2	-54.3	16.1	0.00e+00	0	32	0	645922816	71	4388
2026-01-02 10:18:24.02	202.20	54.63	-52.7	-53.8	16.2	0.00e+00	0	32	0	648019968	71	4104
2026-01-02 10:18:25.02	202.69	54.91	-52.4	-53.3	16.4	0.00e+00	0	32	0	649068544	71	3908
2026-01-02 10:18:26.01	203.19	55.19	-52.0	-52.9	16.4	0.00e+00	0	32	0	651165696	70	3924
2026-01-02 10:18:26.99	203.69	55.46	-52.2	-53.1	16.4	0.00e+00	0	32	0	653262848	70	4015
2026-01-02 10:18:27.99	204.22	55.74	-52.4	-53.3	16.3	0.00e+00	0	32	0	655360000	70	4135
2026-01-02 10:18:28.98	204.74	56.02	-52.9	-54.0	16.1	0.00e+00	0	32	0	657457152	70	4451
2026-01-02 10:18:29.97	205.28	56.29	-53.1	-54.2	16.1	0.00e+00	0	32	0	658505728	71	4332
2026-01-02 10:18:30.97	205.84	56.57	-53.4	-54.5	16.0	0.00e+00	0	32	0	660602880	72	4229
2026-01-02 10:18:31.96	206.40	56.84	-53.0	-54.1	16.2	0.00e+00	0	32	0	662700032	72	4014
2026-01-02 10:18:32.96	206.97	57.11	-52.8	-53.8	16.3	0.00e+00	0	32	0	664797184	72	3909
2026-01-02 10:18:33.95	207.56	57.38	-52.5	-53.5	16.3	0.00e+00	0	32	0	665845760	71	3974
2026-01-02 10:18:34.93	208.14	57.65	-52.9	-53.9	16.2	0.00e+00	0	32	0	667942912	71	4172
2026-01-02 10:18:35.93	208.75	57.92	-53.1	-54.2	16.1	0.00e+00	0	32	0	670040064	71	4304
2026-01-02 10:18:36.93	209.38	58.18	-53.4	-54.5	16.0	0.00e+00	0	32	0	672137216	72	4222
2026-01-02 10:18:37.92	210.01	58.44	-53.2	-54.2	16.1	0.00e+00	0	32	0	674234368	72	4093
2026-01-02 10:18:38.92	210.66	58.71	-52.7	-53.6	16.3	0.00e+00	0	32	0	675282944	71	4027
2026-01-02 10:18:39.91	211.31	58.97	-53.0	-54.0	16.2	0.00e+00	0	32	0	677380096	71	4236
2026-01-02 10:18:40.90	211.98	59.22	-53.9	-55.1	15.9	0.00e+00	0	32	0	679477248	73	4268
2026-01-02 10:18:41.89	212.66	59.47	-55.1	-56.6	15.4	0.00e+00	0	32	0	681574400	75	4540
2026-01-02 10:18:42.89	213.36	59.73	-54.9	-56.4	15.5	0.00e+00	0	32	0	682622976	75	4395
2026-01-02 10:18:43.88	214.07	59.97	-54.0	-55.2	15.9	0.00e+00	0	32	0	684720128	74	4053
2026-01-02 10:18:44.88	214.80	60.22	-53.7	-54.8	16.0	0.00e+00	0	32	0	686817280	73	4122
2026-01-02 10:18:45.87	215.53	60.46	-54.1	-55.5	15.8	0.00e+00	0	32	0	688914432	73	4442
2026-01-02 10:18:46.86	216.28	60.70	-54.2	-55.5	15.7	0.00e+00	0	32	0	691011584	73	4470
2026-01-02 10:18:47.86	217.05	60.94	-53.6	-54.7	16.0	0.00e+00	0	32	0	692060160	73	4071
2026-01-02 10:18:48.85	217.83	61.17	-53.5	-54.5	16.0	0.00e+00	0	32	0	694157312	73	4004
2026-01-02 10:18:49.85	218.63	61.40	-54.2	-55.5	15.7	0.00e+00	0	32	0	696254464	73	4490
2026-01-02 10:18:50.84	219.43	61.62	-54.6	-56.0	15.6	0.00e+00	0	32	0	698351616	74	4490
2026-01-02 10:18:51.83	220.25	61.84	-54.1	-55.3	15.8	0.00e+00	0	32	0	699400192	74	4132
2026-01-02 10:18:52.82	221.08	62.05	-53.5	-54.6	16.1	0.00e+00	0	32	0	701497344	73	4020
2026-01-02 10:18:53.81	221.93	62.26	-53.2	-54.2	16.2	0.00e+00	0	32	0	703594496	72	4082
2026-01-02 10:18:54.79	222.79	62.46	-53.0	-54.0	16.2	0.00e+00	0	32	0	705691648	72	3992
2026-01-02 10:18:55.78	223.67	62.66	-53.0	-54.0	16.3	0.00e+00	0	32	0	706740224	72	4004
2026-01-02 10:18:56.78	224.57	62.86	-52.9	-53.9	16.3	0.00e+00	0	32	0	708837376	72	3948
2026-01-02 10:18:57.77	225.47	63.05	-52.7	-53.6	16.3	0.00e+00	0	32	0	710934528	71	4040
2026-01-02 10:18:58.77	226.40	63.24	-52.2	-53.1	16.4	0.00e+00	0	32	0	713031680	70	4036
2026-01-02 10:18:59.76	227.34	63.41	-52.4	-53.3	16.3	0.00e+00	0	32	0	715128832	70	4122
2026-01-02 10:19:00.76	228.30	63.59	-52.6	-53.5	16.3	0.00e+00	0	32	0	716177408	70	4237
2026-01-02 10:19:01.75	229.26	63.75	-52.8	-53.8	16.2	0.00e+00	0	32	0	718274560	70	4389
2026-01-02 10:19:02.75	230.25	63.92	-53.4	-54.5	16.1	0.00e+00	0	32	0	720371712	72	4224
2026-01-02 10:19:03.74	231.24	64.07	-54.2	-55.5	15.8	0.00e+00	0	32	0	722468864	73	4460
2026-01-02 10:19:04.73	232.24	64.22	-53.6	-54.7	16.0	0.00e+00	0	32	0	724566016	73	4071
2026-01-02 10:19:05.72	233.25	64.36	-52.6	-53.5	16.3	0.00e+00	0	32	0	725614592	71	3999
2026-01-02 10:19:06.71	234.28	64.49	-52.9	-53.8	16.3	0.00e+00	0	32	0	727711744	71	4142
2026-01-02 10:19:07.71	235.33	64.62	-53.7	-54.9	16.0	0.00e+00	0	32	0	729808896	72	4409
2026-01-02 10:19:08.70	236.38	64.74	-54.9	-56.4	15.5	0.00e+00	0	32	0	731906048	74	4668
2026-01-02 10:19:09.70	237.45	64.85	-54.8	-56.3	15.6	0.00e+00	0	32	0	732954624	75	4348
2026-01-02 10:19:10.69	238.52	64.95	-54.3	-55.5	15.9	0.00e+00	0	32	0	735051776	75	3993
2026-01-02 10:19:11.68	239.60	65.05	-54.3	-55.5	15.9	0.00e+00	0	32	0	737148928	75	3993
2026-01-02 10:19:12.68	240.70	65.14	-54.6	-55.9	15.7	0.00e+00	0	32	0	739246080	74	4412
2026-01-02 10:19:13.67	241.80	65.22	-54.7	-56.1	15.6	0.00e+00	0	32	0	740294656	74	4509
2026-01-02 10:19:14.67	242.91	65.29	-54.5	-55.7	15.7	0.00e+00	0	32	0	742391808	74	4335
2026-01-02 10:19:15.67	244.04	65.35	-55.0	-56.4	15.5	0.00e+00	0	32	0	744488960	75	4419
2026-01-02 10:19:16.66	245.15	65.41	-55.0	-56.4	15.5	0.00e+00	0	32	0	746586112	75	4439
2026-01-02 10:19:17.65	246.28	65.45	-54.4	-55.6	15.8	0.00e+00	0	32	0	748683264	75	4029
2026-01-02 10:19:18.65	247.42	65.49	-53.7	-54.8	16.0	0.00e+00	0	32	0	749731840	73	4135
2026-01-02 10:19:19.64	248.55	65.52	-53.8	-54.9	16.0	0.00e+00	0	32	0	751828992	73	4170
2026-01-02 10:19:20.63	249.68	65.54	-53.6	-54.6	16.1	0.00e+00	0	32	0	753926144	73	4044
2026-01-02 10:19:21.61	250.80	65.56	-53.0	-53.9	16.3	0.00e+00	0	32	0	756023296	72	3955
2026-01-02 10:19:22.60	251.94	65.56	-53.0	-53.9	16.3	0.00e+00	0	32	0	757071872	72	3952
2026-01-02 10:19:23.59	253.07	65.56	-53.8	-55.0	16.0	0.00e+00	0	32	0	759169024	72	4461
2026-01-02 10:19:24.59	254.22	65.54	-54.6	-55.9	15.7	0.00e+00	0	32	0	761266176	74	4439
2026-01-02 10:19:25.58	255.35	65.52	-53.4	-54.5	16.1	0.00e+00	0	32	0	763363328	73	3968
2026-01-02 10:19:26.57	256.48	65.49	-52.8	-53.7	16.3	0.00e+00	0	32	0	765460480	72	3845
2026-01-02 10:19:27.56	257.61	65.45	-53.7	-54.9	16.0	0.00e+00	0	32	0	766509056	72	4418
2026-01-02 10:19:28.55	258.73	65.41	-55.0	-56.4	15.5	0.00e+00	0	32	0	768606208	75	4440
2026-01-02 10:19:29.54	259.85	65.35	-54.0	-55.3	15.9	0.00e+00	0	32	0	770703360	74	4104
2026-01-02 10:19:30.54	260.97	65.29	-53.9	-55.1	15.9	0.00e+00	0	32	0	772800512	73	4267
2026-01-02 10:19:31.53	262.07	65.21	-53.7	-54.9	16.0	0.00e+00	0	32	0	773849088	73	4148
2026-01-02 10:19:32.53	263.18	65.13	-52.9	-53.9	16.3	0.00e+00	0	32	0	775946240	72	3926
2026-01-02 10:19:33.53	264.28	65.04	-51.8	-52.6	16.6	0.00e+00	0	32	0	778043392	70	3803
2026-01-02 10:19:34.52	265.36	64.95	-51.4	-52.2	16.6	0.00e+00	0	32	0	780140544	69	3853
2026-01-02 10:19:35.52	266.44	64.84	-51.9	-52.8	16.5	0.00e+00	0	32	0	782237696	69	4123
2026-01-02 10:19:36.51	267.50	64.73	-52.3	-53.2	16.4	0.00e+00	0	32	0	783286272	69	4299
2026-01-02 10:19:37.51	268.56	64.61	-52.6	-53.6	16.3	0.00e+00	0	32	0	785383424	70	4258
2026-01-02 10:19:38.49	269.58	64.49	-53.1	-54.1	16.2	0.00e+00	0	32	0	787480576	71	4277
2026-01-02 10:19:39.48	270.61	64.35	-53.3	-54.3	16.2	0.00e+00	0	32	0	789577728	72	4130
2026-01-02 10:19:40.47	271.62	64.21	-53.4	-54.5	16.1	0.00e+00	0	32	0	790626304	72	4200
2026-01-02 10:19:41.47	272.64	64.06	-53.0	-54.0	16.3	0.00e+00	0	32	0	792723456	72	3963
2026-01-02 10:19:42.46	273.62	63.91	-52.7	-53.7	16.4	0.00e+00	0	32	0	794820608	72	3830
2026-01-02 10:19:43.45	274.60	63.75	-52.6	-53.6	16.4	0.00e+00	0	32	0	796917760	71	4018
2026-01-02 10:19:44.45	275.57	63.58	-52.3	-53.2	16.5	0.00e+00	0	32	0	799014912	71	3838
2026-01-02 10:19:45.44	276.52	63.41	-51.9	-52.8	16.5	0.00e+00	0	32	0	800063488	70	3884
2026-01-02 10:19:46.44	277.46	63.23	-52.6	-53.5	16.4	0.00e+00	0	32	0	802160640	70	4211
2026-01-02 10:19:47.44	278.39	63.04	-53.7	-54.9	16.0	0.00e+00	0	32	0	804257792	72	4424
2026-01-02 10:19:48.42	279.29	62.86	-53.8	-55.0	15.9	0.00e+00	0	32	0	806354944	73	4225
2026-01-02 10:19:49.42	280.19	62.66	-53.0	-54.0	16.3	0.00e+00	0	32	0	807403520	72	3978
2026-01-02 10:19:50.41	281.06	62.46	-52.9	-53.9	16.3	0.00e+00	0	32	0	809500672	72	3935
2026-01-02 10:19:51.41	281.93	62.25	-53.6	-54.7	16.1	0.00e+00	0	32	0	811597824	72	4304
2026-01-02 10:19:52.41	282.79	62.04	-53.6	-54.7	16.1	0.00e+00	0	32	0	813694976	73	4067
2026-01-02 10:19:53.41	283.63	61.83	-52.7	-53.7	16.4	0.00e+00	0	32	0	815792128	72	3855
2026-01-02 10:19:54.40	284.45	61.61	-53.3	-54.4	16.1	0.00e+00	0	32	0	816840704	72	4177
2026-01-02 10:19:55.39	285.25	61.38	-53.2	-54.3	16.2	0.00e+00	0	32	0	818937856	72	4120
2026-01-02 10:19:56.37	286.03	61.16	-51.7	-52.5	16.6	0.00e+00	0	32	0	821035008	70	3759
2026-01-02 10:19:57.36	286.81	60.93	-51.0	-51.8	16.7	0.00e+00	0	32	0	823132160	68	3883
2026-01-02 10:19:58.35	287.57	60.70	-52.2	-53.1	16.4	0.00e+00	0	32	0	824180736	69	4245
2026-01-02 10:19:59.34	288.32	60.46	-52.5	-53.4	16.4	0.00e+00	0	32	0	826277888	70	4185
2026-01-02 10:20:00.33	289.05	60.22	-52.1	-53.0	16.5	0.00e+00	0	32	0	828375040	70	3975
2026-01-02 10:20:01.33	289.78	59.97	-51.8	-52.7	16.6	0.00e+00	0	32	0	830472192	70	3841
2026-01-02 10:20:02.34	290.50	59.72	-51.9	-52.7	16.5	0.00e+00	0	32	0	832569344	70	3856
2026-01-02 10:20:03.33	291.19	59.47	-51.5	-52.3	16.6	0.00e+00	0	32	0	833617920	69	3882
2026-01-02 10:20:04.32	291.87	59.22	-50.9	-51.7	16.7	0.00e+00	0	32	0	835715072	68	3826
2026-01-02 10:20:05.31	292.53	58.96	-51.4	-52.2	16.6	0.00e+00	0	32	0	837812224	68	4082
2026-01-02 10:20:06.31	293.19	58.70	-51.9	-52.8	16.5	0.00e+00	0	32	0	839909376	69	4116
2026-01-02 10:20:07.31	293.84	58.44	-51.8	-52.6	16.5	0.00e+00	0	32	0	840957952	69	4032
2026-01-02 10:20:08.30	294.47	58.18	-51.1	-51.8	16.7	0.00e+00	0	32	0	843055104	68	3907
2026-01-02 10:20:09.29	295.09	57.92	-51.2	-52.0	16.6	0.00e+00	0	32	0	845152256	68	3988
2026-01-02 10:20:10.29	295.70	57.65	-51.7	-52.5	16.5	0.00e+00	0	32	0	847249408	68	4233
2026-01-02 10:20:11.28	296.29	57.38	-52.0	-53.0	16.4	0.00e+00	0	32	0	848297984	69	4203
2026-01-02 10:20:12.27	296.87	57.11	-52.1	-53.1	16.4	0.00e+00	0	32	0	850395136	69	4254
2026-01-02 10:20:13.27	297.44	56.84	-52.2	-53.2	16.3	0.00e+00	0	32	0	852492288	69	4308
2026-01-02 10:20:14.26	298.00	56.57	-52.0	-52.9	16.5	0.00e+00	0	32	0	854589440	69	4174
2026-01-02 10:20:15.24	298.55	56.30	-52.6	-53.6	16.3	0.00e+00	0	32	0	856686592	70	4260
2026-01-02 10:20:16.24	299.09	56.02	-52.3	-53.2	16.4	0.00e+00	0	32	0	857735168	70	4087
2026-01-02 10:20:17.23	299.62	55.75	-51.9	-52.8	16.5	0.00e+00	0	32	0	859832320	70	3873
2026-01-02 10:20:18.23	300.14	55.47	-51.9	-52.7	16.5	0.00e+00	0	32	0	861929472	69	4082
2026-01-02 10:20:19.21	300.64	55.20	-51.5	-52.3	16.6	0.00e+00	0	32	0	864026624	69	3903
2026-01-02 10:20:20.21	301.14	54.92	-50.9	-51.6	16.7	0.00e+00	0	32	0	865075200	68	3819
2026-01-02 10:20:21.20	301.63	54.64	-51.3	-52.1	16.6	0.00e+00	0	32	0	867172352	68	4027
2026-01-02 10:20:22.20	302.11	54.36	-52.0	-52.9	16.5	0.00e+00	0	32	0	869269504	69	4147
2026-01-02 10:20:23.19	302.58	54.08	-53.6	-54.7	16.0	0.00e+00	0	32	0	871366656	72	4337
2026-01-02 10:20:24.18	303.04	53.80	-53.6	-54.8	16.1	0.00e+00	0	32	0	873463808	73	4105
2026-01-02 10:20:25.17	303.49	53.52	-52.6	-53.6	16.3	0.00e+00	0	32	0	874512384	71	4011
2026-01-02 10:20:26.16	303.93	53.24	-52.2	-53.1	16.5	0.00e+00	0	32	0	876609536	70	4013
2026-01-02 10:20:27.15	304.37	52.96	-53.2	-54.2	16.2	0.00e+00	0	32	0	878706688	71	4330
2026-01-02 10:20:28.13	304.79	52.69	-53.6	-54.7	16.0	0.00e+00	0	32	0	880803840	72	4335
2026-01-02 10:20:29.12	305.21	52.41	-53.5	-54.6	16.1	0.00e+00	0	32	0	881852416	72	4244
2026-01-02 10:20:30.12	305.62	52.13	-53.4	-54.5	16.1	0.00e+00	0	32	0	883949568	72	4209
2026-01-02 10:20:31.12	306.03	51.84	-53.6	-54.7	16.0	0.00e+00	0	32	0	886046720	72	4329
2026-01-02 10:20:32.10	306.42	51.57	-53.9	-55.0	16.0	0.00e+00	0	32	0	888143872	73	4220
2026-01-02 10:20:33.10	306.81	51.29	-53.2	-54.2	16.2	0.00e+00	0	32	0	890241024	72	4069
2026-01-02 10:20:34.09	307.20	51.01	-53.1	-54.1	16.2	0.00e+00	0	32	0	891289600	72	4028
2026-01-02 10:20:35.08	307.57	50.73	-52.9	-53.9	16.3	0.00e+00	0	32	0	893386752	72	3919
2026-01-02 10:20:36.07	307.94	50.45	-53.3	-54.4	16.1	0.00e+00	0	32	0	895483904	72	4166
2026-01-02 10:20:37.07	308.30	50.17	-53.7	-54.8	16.0	0.00e+00	0	32	0	897581056	72	4365
2026-01-02 10:20:38.06	308.66	49.90	-54.0	-55.1	15.9	0.00e+00	0	32	0	898629632	73	4290
2026-01-02 10:20:39.06	309.01	49.62	-53.7	-54.9	16.0	0.00e+00	0	32	0	900726784	73	4158
2026-01-02 10:20:40.05	309.35	49.34	-54.4	-55.7	15.8	0.00e+00	0	32	0	902823936	73	4556
2026-01-02 10:20:41.04	309.69	49.07	-54.8	-56.2	15.6	0.00e+00	0	32	0	904921088	75	4318
2026-01-02 10:20:42.04	310.02	48.79	-54.5	-55.8	15.8	0.00e+00	0	32	0	907018240	75	4103
2026-01-02 10:20:43.03	310.34	48.52	-54.0	-55.1	15.9	0.00e+00	0	32	0	908066816	74	4048
2026-01-02 10:20:44.02	310.66	48.25	-53.9	-55.0	16.0	0.00e+00	0	32	0	910163968	73	4232
2026-01-02 10:20:45.02	310.98	47.97	-53.6	-54.7	16.1	0.00e+00	0	32	0	912261120	73	4098
2026-01-02 10:20:46.02	311.29	47.70	-53.0	-54.1	16.2	0.00e+00	0	32	0	914358272	72	4007
2026-01-02 10:20:47.01	311.59	47.43	-53.2	-54.2	16.2	0.00e+00	0	32	0	915406848	72	4077
2026-01-02 10:20:48.01	311.89	47.16	-53.9	-55.1	15.9	0.00e+00	0	32	0	917504000	73	4246
2026-01-02 10:20:49.00	312.18	46.89	-55.3	-56.8	15.4	0.00e+00	0	32	0	919601152	75	4620
2026-01-02 10:20:50.00	312.47	46.62	-56.2	-58.0	14.9	0.00e+00	0	32	0	921698304	77	4729
2026-01-02 10:20:50.99	312.76	46.36	-56.8	-58.8	14.5	0.00e+00	0	32	0	923795456	78	4890
2026-01-02 10:20:51.99	313.04	46.09	-56.1	-57.8	15.0	0.00e+00	0	32	0	924844032	78	4350
2026-01-02 10:20:52.98	313.31	45.82	-55.6	-57.1	15.3	0.00e+00	0	32	0	926941184	77	4252
2026-01-02 10:20:53.97	313.58	45.56	-55.2	-56.7	15.5	0.00e+00	0	32	0	929038336	76	4317
2026-01-02 10:20:54.96	313.84	45.30	-55.3	-56.8	15.4	0.00e+00	0	32	0	931135488	76	4350
2026-01-02 10:20:55.95	314.10	45.04	-55.2	-56.6	15.5	0.00e+00	0	32	0	932184064	76	4251
2026-01-02 10:20:56.94	314.36	44.78	-55.1	-56.6	15.5	0.00e+00	0	32	0	934281216	76	4249
2026-01-02 10:20:57.93	314.61	44.52	-55.0	-56.4	15.5	0.00e+00	0	32	0	936378368	76	4193
2026-01-02 10:20:58.92	314.86	44.26	-55.4	-57.0	15.3	0.00e+00	0	32	0	938475520	76	4455
2026-01-02 10:20:59.92	315.11	44.00	-56.1	-57.9	14.9	0.00e+00	0	32	0	939524096	77	4684
2026-01-02 10:21:00.92	315.35	43.75	-55.7	-57.3	15.2	0.00e+00	0	32	0	941621248	77	4365
2026-01-02 10:21:01.92	315.59	43.49	-55.1	-56.5	15.5	0.00e+00	0	32	0	943718400	76	4198
2026-01-02 10:21:02.91	315.82	43.24	-54.5	-55.8	15.8	0.00e+00	0	32	0	945815552	75	4101
2026-01-02 10:21:03.90	316.05	42.98	-54.7	-56.0	15.7	0.00e+00	0	32	0	947912704	75	4207
2026-01-02 10:21:04.89	316.28	42.73	-55.5	-57.0	15.3	0.00e+00	0	32	0	948961280	76	4486
2026-01-02 10:21:05.88	316.50	42.48	-56.3	-58.1	14.8	0.00e+00	0	32	0	951058432	77	4778
2026-01-02 10:21:06.87	316.72	42.24	-55.8	-57.5	15.1	0.00e+00	0	32	0	953155584	78	4199
2026-01-02 10:21:07.86	316.93	41.99	-54.4	-55.7	15.8	0.00e+00	0	32	0	955252736	75	4063
2026-01-02 10:21:08.86	317.15	41.74	-53.3	-54.4	16.2	0.00e+00	0	32	0	956301312	73	3923
2026-01-02 10:21:09.84	317.35	41.50	-52.6	-53.5	16.3	0.00e+00	0	32	0	958398464	71	4000
2026-01-02 10:21:10.83	317.56	41.26	-51.9	-52.8	16.5	0.00e+00	0	32	0	960495616	70	3888
2026-01-02 10:21:11.82	317.76	41.01	-52.5	-53.5	16.3	0.00e+00	0	32	0	962592768	70	4200
2026-01-02 10:21:12.81	317.96	40.77	-53.5	-54.6	16.1	0.00e+00	0	32	0	964689920	72	4268
2026-01-02 10:21:13.81	318.16	40.53	-55.0	-56.4	15.5	0.00e+00	0	32	0	965738496	75	4420
2026-01-02 10:21:14.80	318.36	40.29	-55.9	-57.7	15.0	0.00e+00	0	32	0	967835648	77	4549
2026-01-02 10:21:15.79	318.55	40.06	-56.0	-57.8	15.0	0.00e+00	0	32	0	969932800	77	4601
2026-01-02 10:21:16.79	318.74	39.82	-55.7	-57.3	15.2	0.00e+00	0	32	0	972029952	77	4388
2026-01-02 10:21:17.79	318.93	39.58	-55.1	-56.6	15.5	0.00e+00	0	32	0	973078528	76	4252
2026-01-02 10:21:18.78	319.11	39.35	-54.1	-55.3	15.9	0.00e+00	0	32	0	975175680	74	4144
2026-01-02 10:21:19.77	319.30	39.12	-52.6	-53.6	16.4	0.00e+00	0	32	0	977272832	71	4020
2026-01-02 10:21:20.76	319.47	38.89	-52.1	-53.0	16.4	0.00e+00	0	32	0	979369984	70	4003
2026-01-02 10:21:21.76	319.65	38.65	-52.0	-52.9	16.5	0.00e+00	0	32	0	981467136	70	3948
2026-01-02 10:21:22.75	319.83	38.43	-52.9	-53.9	16.2	0.00e+00	0	32	0	982515712	70	4425
2026-01-02 10:21:23.75	320.00	38.20	-54.3	-55.7	15.7	0.00e+00	0	32	0	984612864	73	4546
2026-01-02 10:21:24.74	320.17	37.97	-55.9	-57.6	15.0	0.00e+00	0	32	0	986710016	76	4803
2026-01-02 10:21:25.73	320.34	37.75	-56.8	-59.1	14.3	0.00e+00	0	32	0	988807168	78	5053
2026-01-02 10:21:26.73	320.50	37.52	-56.4	-58.4	14.7	0.00e+00	0	32	0	989855744	79	4397
2026-01-02 10:21:27.72	320.66	37.30	-55.4	-57.0	15.3	0.00e+00	0	32	0	991952896	77	4234
2026-01-02 10:21:28.71	320.82	37.08	-55.0	-56.4	15.5	0.00e+00	0	32	0	994050048	76	4186
2026-01-02 10:21:29.70	320.98	36.86	-53.7	-54.9	16.0	0.00e+00	0	32	0	996147200	74	3924
2026-01-02 10:21:30.69	321.14	36.64	-53.6	-54.8	16.0	0.00e+00	0	32	0	998244352	73	4103
2026-01-02 10:21:31.67	321.29	36.43	-53.8	-55.0	15.9	0.00e+00	0	32	0	999292928	73	4220
2026-01-02 10:21:32.67	321.45	36.21	-54.6	-55.9	15.6	0.00e+00	0	32	0	1001390080	74	4417
2026-01-02 10:21:33.66	321.60	35.99	-55.3	-56.9	15.3	0.00e+00	0	32	0	1003487232	75	4657
2026-01-02 10:21:34.65	321.74	35.78	-56.2	-58.1	14.8	0.00e+00	0	32	0	1005584384	77	4781
2026-01-02 10:21:35.64	321.89	35.57	-56.4	-58.3	14.7	0.00e+00	0	32	0	1006632960	78	4641
2026-01-02 10:21:36.64	322.04	35.36	-56.0	-57.8	15.0	0.00e+00	0	32	0	1008730112	78	4372
2026-01-02 10:21:37.63	322.18	35.15	-56.1	-57.9	15.0	0.00e+00	0	32	0	1010827264	78	4420
2026-01-02 10:21:38.62	322.32	34.94	-55.5	-57.1	15.2	0.00e+00	0	32	0	1012924416	77	4253
2026-01-02 10:21:39.61	322.46	34.73	-54.5	-55.8	15.7	0.00e+00	0	32	0	1013972992	75	4140
2026-01-02 10:21:40.61	322.60	34.52	-54.1	-55.3	15.9	0.00e+00	0	32	0	1016070144	74	4113
2026-01-02 10:21:41.60	322.74	34.32	-53.6	-54.7	16.0	0.00e+00	0	32	0	1018167296	73	4062
2026-01-02 10:21:42.60	322.87	34.11	-53.8	-54.9	15.9	0.00e+00	0	32	0	1020264448	73	4193
2026-01-02 10:21:43.59	323.00	33.91	-53.5	-54.6	16.0	0.00e+00	0	32	0	1022361600	73	4049
2026-01-02 10:21:44.59	323.14	33.71	-53.7	-54.9	15.9	0.00e+00	0	32	0	1023410176	73	4160
2026-01-02 10:21:45.57	323.27	33.51	-54.0	-55.2	15.9	0.00e+00	0	32	0	1025507328	73	4296
2026-01-02 10:21:46.57	323.40	33.31	-54.5	-55.8	15.6	0.00e+00	0	32	0	1027604480	74	4388
2026-01-02 10:21:47.56	323.52	33.11	-54.8	-56.2	15.4	0.00e+00	0	32	0	1029701632	74	4590
2026-01-02 10:21:48.55	323.65	32.91	-54.6	-55.9	15.6	0.00e+00	0	32	0	1030750208	74	4433
2026-01-02 10:21:49.54	323.77	32.72	-54.5	-55.8	15.6	0.00e+00	0	32	0	1032847360	74	4380
2026-01-02 10:21:50.53	323.89	32.52	-54.6	-56.0	15.6	0.00e+00	0	32	0	1034944512	75	4212
2026-01-02 10:21:51.53	324.02	32.33	-54.2	-55.5	15.9	0.00e+00	0	32	0	1037041664	75	3962
2026-01-02 10:21:52.52	324.13	32.14	-54.5	-55.9	15.6	0.00e+00	0	32	0	1039138816	74	4395
2026-01-02 10:21:53.51	324.25	31.94	-54.5	-55.8	15.6	0.00e+00	0	32	0	1040187392	74	4379
2026-01-02 10:21:54.50	324.37	31.75	-54.7	-56.0	15.6	0.00e+00	0	32	0	1042284544	74	4473
2026-01-02 10:21:55.50	324.49	31.56	-55.0	-56.4	15.4	0.00e+00	0	32	0	1044381696	75	4414
2026-01-02 10:21:56.49	324.60	31.38	-55.4	-56.9	15.2	0.00e+00	0	32	0	1046478848	75	4700
2026-01-02 10:21:57.48	324.71	31.19	-55.6	-57.2	15.2	0.00e+00	0	32	0	1047527424	76	4550
2026-01-02 10:21:58.47	324.83	31.00	-55.8	-57.4	15.1	0.00e+00	0	32	0	1049624576	76	4692
2026-01-02 10:21:59.47	324.94	30.82	-55.7	-57.3	15.1	0.00e+00	0	32	0	1051721728	76	4648
2026-01-02 10:22:00.46	325.05	30.63	-55.5	-57.1	15.2	0.00e+00	0	32	0	1053818880	76	4520
2026-01-02 10:22:01.46	325.16	30.45	-55.5	-57.2	15.2	0.00e+00	0	32	0	1055916032	76	4555
2026-01-02 10:22:02.46	325.26	30.27	-55.1	-56.5	15.4	0.00e+00	0	32	0	1056964608	76	4237
2026-01-02 10:22:03.45	325.37	30.09	-54.8	-56.2	15.6	0.00e+00	0	32	0	1059061760	76	4057
2026-01-02 10:22:04.44	325.47	29.91	-55.2	-56.7	15.4	0.00e+00	0	32	0	1061158912	76	4301
2026-01-02 10:22:05.42	325.58	29.73	-55.1	-56.6	15.4	0.00e+00	0	32	0	1063256064	76	4270
2026-01-02 10:22:06.42	325.68	29.55	-55.0	-56.5	15.4	0.00e+00	0	32	0	1064304640	76	4198
2026-01-02 10:22:07.42	325.78	29.37	-55.1	-56.6	15.4	0.00e+00	0	32	0	1066401792	76	4250
2026-01-02 10:22:08.41	325.88	29.20	-55.1	-56.6	15.4	0.00e+00	0	32	0	1068498944	76	4263
2026-01-02 10:22:09.40	325.98	29.02	-55.4	-57.0	15.3	0.00e+00	0	32	0	1070596096	76	4442
2026-01-02 10:22:10.39	326.08	28.85	-55.5	-57.0	15.2	0.00e+00	0	32	0	1072693248	76	4481
2026-01-02 10:22:11.38	326.18	28.68	-55.8	-57.5	15.0	0.00e+00	0	32	0	1073741824	77	4455
2026-01-02 10:22:12.37	326.27	28.51	-55.6	-57.3	15.2	0.00e+00	0	32	0	1075838976	77	4352
2026-01-02 10:22:13.37	326.37	28.34	-55.9	-57.6	15.0	0.00e+00	0	32	0	1077936128	77	4526
2026-01-02 10:22:14.36	326.46	28.17	-55.6	-57.2	15.2	0.00e+00	0	32	0	1080033280	77	4305
2026-01-02 10:22:15.35	326.56	28.00	-55.3	-56.8	15.4	0.00e+00	0	32	0	1081081856	77	4111
2026-01-02 10:22:16.34	326.65	27.83	-55.4	-56.9	15.3	0.00e+00	0	32	0	1083179008	77	4182
2026-01-02 10:22:17.33	326.74	27.66	-55.0	-56.5	15.4	0.00e+00	0	32	0	1085276160	76	4222
2026-01-02 10:22:18.32	326.83	27.50	-54.8	-56.2	15.6	0.00e+00	0	32	0	1087373312	76	4072
2026-01-02 10:22:19.31	326.92	27.33	-54.7	-56.1	15.6	0.00e+00	0	32	0	1088421888	76	4045
2026-01-02 10:22:20.30	327.01	27.17	-54.1	-55.3	15.8	0.00e+00	0	32	0	1090519040	74	4145
2026-01-02 10:22:21.29	327.10	27.01	-53.9	-55.1	15.9	0.00e+00	0	32	0	1092616192	74	4019
2026-01-02 10:22:22.29	327.19	26.84	-53.8	-55.0	16.0	0.00e+00	0	32	0	1094713344	74	3959
2026-01-02 10:22:23.29	327.27	26.68	-53.7	-54.8	15.9	0.00e+00	0	32	0	1096810496	73	4139
2026-01-02 10:22:24.27	327.36	26.52	-53.9	-55.1	15.8	0.00e+00	0	32	0	1097859072	73	4288
2026-01-02 10:22:25.27	327.44	26.36	-53.8	-55.1	15.8	0.00e+00	0	32	0	1099956224	73	4252
2026-01-02 10:22:26.27	327.53	26.20	-54.1	-55.4	15.7	0.00e+00	0	32	0	1102053376	73	4398
2026-01-02 10:22:27.26	327.61	26.05	-54.3	-55.7	15.6	0.00e+00	0	32	0	1104150528	73	4560
2026-01-02 10:22:28.24	327.69	25.89	-54.4	-55.8	15.6	0.00e+00	0	32	0	1105199104	74	4345
2026-01-02 10:22:29.23	327.78	25.74	-54.4	-55.7	15.6	0.00e+00	0	32	0	1107296256	74	4320
2026-01-02 10:22:30.23	327.86	25.58	-54.6	-56.0	15.5	0.00e+00	0	32	0	1109393408	74	4471
2026-01-02 10:22:31.22	327.94	25.42	-54.7	-56.1	15.4	0.00e+00	0	32	0	1111490560	74	4536
2026-01-02 10:22:32.21	328.02	25.27	-54.4	-55.8	15.6	0.00e+00	0	32	0	1112539136	74	4356
2026-01-02 10:22:33.20	328.09	25.12	-54.5	-56.0	15.4	0.00e+00	0	32	0	1114636288	74	4445
2026-01-02 10:22:34.19	328.17	24.97	-54.4	-55.8	15.6	0.00e+00	0	32	0	1116733440	74	4357
2026-01-02 10:22:35.18	328.25	24.82	-54.2	-55.6	15.7	0.00e+00	0	32	0	1118830592	74	4247
2026-01-02 10:22:36.17	328.33	24.67	-54.1	-55.4	15.7	0.00e+00	0	32	0	1120927744	74	4176
2026-01-02 10:22:37.17	328.40	24.52	-54.0	-55.3	15.8	0.00e+00	0	32	0	1121976320	74	4125
2026-01-02 10:22:38.16	328.48	24.37	-54.1	-55.4	15.7	0.00e+00	0	32	0	1124073472	74	4184
2026-01-02 10:22:39.16	328.55	24.22	-54.0	-55.4	15.8	0.00e+00	0	32	0	1126170624	74	4148
2026-01-02 10:22:40.15	328.63	24.07	-53.8	-55.0	15.9	0.00e+00	0	32	0	1128267776	74	3978
2026-01-02 10:22:41.14	328.70	23.93	-54.0	-55.2	15.8	0.00e+00	0	32	0	1129316352	74	4093
2026-01-02 10:22:42.14	328.77	23.78	-53.9	-55.2	15.8	0.00e+00	0	32	0	1131413504	74	4071
2026-01-02 10:22:43.14	328.85	23.64	-53.4	-54.5	16.0	0.00e+00	0	32	0	1133510656	73	3992
2026-01-02 10:22:44.13	328.92	23.49	-53.1	-54.2	16.1	0.00e+00	0	32	0	1135607808	72	4080
2026-01-02 10:22:45.13	328.99	23.35	-52.9	-53.9	16.2	0.00e+00	0	32	0	1137704960	72	3936
2026-01-02 10:22:46.12	329.06	23.21	-52.5	-53.5	16.3	0.00e+00	0	32	0	1138753536	71	3985
2026-01-02 10:22:47.11	329.13	23.06	-52.4	-53.4	16.3	0.00e+00	0	32	0	1140850688	71	3919
2026-01-02 10:22:47.88	329.18	22.95	-51.8	-52.7	16.5	0.00e+00	0	32	0	1142947840	70	3862
2026-01-02 10:22:49.15	329.27	22.78	-51.3	-52.2	16.6	0.00e+00	0	32	0	1145044992	69	3837
2026-01-02 10:22:49.88	329.32	22.67	-51.2	-52.0	16.6	0.00e+00	0	32	0	1146093568	69	3766
2026-01-02 10:22:51.15	329.41	22.49	-51.3	-52.1	16.6	0.00e+00	0	32	0	1149239296	68	4021
2026-01-02 10:22:51.89	329.46	22.39	-51.2	-52.0	16.5	0.00e+00	0	32	0	1150287872	68	3999
2026-01-02 10:22:53.17	329.54	22.21	-51.4	-52.3	16.5	0.00e+00	0	32	0	1152385024	68	4102
2026-01-02 10:22:53.93	329.59	22.11	-51.5	-52.4	16.4	0.00e+00	0	32	0	1154482176	68	4151
2026-01-02 10:22:55.20	329.68	21.94	-51.9	-52.8	16.3	0.00e+00	0	32	0	1156579328	68	4365
2026-01-02 10:22:55.97	329.73	21.83	-52.1	-53.1	16.3	0.00e+00	0	32	0	1157627904	69	4251
2026-01-02 10:22:57.25	329.81	21.66	-52.2	-53.2	16.2	0.00e+00	0	32	0	1160773632	69	4302
2026-01-02 10:22:57.99	329.86	21.56	-52.3	-53.3	16.3	0.00e+00	0	32	0	1161822208	70	4111
2026-01-02 10:22:59.25	329.94	21.39	-52.6	-53.6	16.2	0.00e+00	0	32	0	1163919360	70	4250
2026-01-02 10:23:00.04	329.99	21.28	-52.6	-53.6	16.2	0.00e+00	0	32	0	1166016512	70	4258
2026-01-02 10:23:01.26	330.06	21.12	-52.6	-53.6	16.2	0.00e+00	0	32	0	1168113664	70	4274
2026-01-02 10:23:02.11	330.11	21.01	-52.5	-53.5	16.2	0.00e+00	0	32	0	1169162240	70	4230
2026-01-02 10:23:03.25	330.19	20.86	-52.6	-53.7	16.2	0.00e+00	0	32	0	1171259392	70	4305
2026-01-02 10:23:04.11	330.24	20.75	-52.5	-53.5	16.2	0.00e+00	0	32	0	1173356544	70	4205
2026-01-02 10:23:05.24	330.31	20.60	-52.4	-53.5	16.2	0.00e+00	0	32	0	1175453696	70	4195
2026-01-02 10:23:06.09	330.36	20.49	-52.3	-53.3	16.3	0.00e+00	0	32	0	1176502272	70	4121
2026-01-02 10:23:07.23	330.43	20.34	-52.4	-53.4	16.2	0.00e+00	0	32	0	1179648000	70	4174
2026-01-02 10:23:08.08	330.48	20.23	-52.3	-53.3	16.2	0.00e+00	0	32	0	1180696576	70	4114
2026-01-02 10:23:09.22	330.54	20.09	-52.3	-53.3	16.2	0.00e+00	0	32	0	1182793728	70	4126
2026-01-02 10:23:10.07	330.59	19.98	-52.2	-53.1	16.3	0.00e+00	0	32	0	1184890880	70	4041
2026-01-02 10:23:11.20	330.66	19.84	-52.0	-53.0	16.3	0.00e+00	0	32	0	1186988032	70	3981
2026-01-02 10:23:12.05	330.71	19.73	-52.1	-53.0	16.3	0.00e+00	0	32	0	1188036608	70	3988
2026-01-02 10:23:13.17	330.77	19.59	-52.2	-53.1	16.3	0.00e+00	0	32	0	1190133760	70	4051
2026-01-02 10:23:14.02	330.82	19.49	-52.1	-53.1	16.3	0.00e+00	0	32	0	1192230912	70	4026
2026-01-02 10:23:15.16	330.88	19.34	-52.3	-53.3	16.3	0.00e+00	0	32	0	1194328064	70	4117
2026-01-02 10:23:16.02	330.93	19.24	-52.3	-53.3	16.2	0.00e+00	0	32	0	1195376640	70	4117
2026-01-02 10:23:17.16	330.99	19.10	-52.5	-53.5	16.2	0.00e+00	0	32	0	1197473792	70	4234
2026-01-02 10:23:18.01	331.04	18.99	-52.4	-53.4	16.2	0.00e+00	0	32	0	1199570944	70	4174
2026-01-02 10:23:19.14	331.10	18.86	-52.6	-53.6	16.2	0.00e+00	0	32	0	1201668096	70	4267
2026-01-02 10:23:19.99	331.15	18.75	-52.7	-53.8	16.1	0.00e+00	0	32	0	1202716672	70	4365
2026-01-02 10:23:21.13	331.21	18.62	-52.8	-53.9	16.1	0.00e+00	0	32	0	1204813824	70	4399
2026-01-02 10:23:21.98	331.25	18.52	-52.8	-53.9	16.1	0.00e+00	0	32	0	1206910976	71	4186
2026-01-02 10:23:23.12	331.31	18.38	-53.0	-54.1	16.0	0.00e+00	0	32	0	1209008128	71	4282
2026-01-02 10:23:23.98	331.36	18.28	-53.0	-54.2	16.0	0.00e+00	0	32	0	1210056704	71	4293
2026-01-02 10:23:25.12	331.42	18.14	-53.2	-54.4	15.9	0.00e+00	0	32	0	1213202432	71	4415
2026-01-02 10:23:25.97	331.46	18.04	-53.4	-54.6	15.9	0.00e+00	0	32	0	1214251008	71	4496
2026-01-02 10:23:27.10	331.52	17.91	-53.4	-54.6	15.8	0.00e+00	0	32	0	1216348160	72	4289
2026-01-02 10:23:27.95	331.56	17.81	-53.5	-54.7	15.8	0.00e+00	0	32	0	1218445312	72	4339
2026-01-02 10:23:29.09	331.62	17.68	-53.5	-54.7	15.8	0.00e+00	0	32	0	1220542464	72	4319
2026-01-02 10:23:29.94	331.67	17.58	-53.6	-54.8	15.8	0.00e+00	0	32	0	1221591040	72	4376
2026-01-02 10:23:31.07	331.72	17.45	-53.6	-54.8	15.8	0.00e+00	0	32	0	1223688192	72	4369
2026-01-02 10:23:31.92	331.76	17.35	-53.7	-54.9	15.7	0.00e+00	0	32	0	1225785344	72	4426
