passes_logs/2026/01/02/R3.2S_Murmansk/R3.2S_Murmansk__20260102_052711_AQUA_rec.log

#Pass ID: 20260102_052711_AQUA
#Satellite: AQUA
#Configuration: AQUA
#almurnet v.1.7.20251203
#Start time: 2026-01-02 05:27:12

#Version: 2.2.20231116
#Station: R3.2S_Murmansk
#Location: 33.079688 lon 68.888172 lat
#TLE: 1 27424U 02022A   25365.92641127  .00002078  00000+0  42628-3 0  9999
#TLE: 2 27424  98.4058 327.1196 0001962  94.7781 340.6230 14.61783896258835

#Time	Az	El	Level	Level2	SNR	BER	BlckErr	Temp	State	Recorded	gain1	gain2
2026-01-02 05:27:12.34	41.07	2.05	-54.6	-74.0	3.8	7.47e-01	0	32	0	0	77	34618
2026-01-02 05:27:13.35	40.99	2.11	-54.6	-74.0	3.8	7.46e-01	0	32	104	0	77	34575
2026-01-02 05:27:14.35	40.92	2.16	-54.6	-74.0	3.8	7.46e-01	0	32	104	0	77	34553
2026-01-02 05:27:15.35	40.85	2.22	-54.6	-74.0	3.8	7.44e-01	0	32	104	0	77	34583
2026-01-02 05:27:16.35	40.77	2.28	-54.6	-74.0	3.8	7.45e-01	0	33	104	0	77	34579
2026-01-02 05:27:17.35	40.70	2.34	-54.6	-74.0	3.8	7.46e-01	0	32	104	0	77	34612
2026-01-02 05:27:18.35	40.63	2.40	-54.6	-74.0	3.8	7.44e-01	0	32	104	0	77	34607
2026-01-02 05:27:19.35	40.55	2.46	-54.6	-74.0	3.8	7.46e-01	0	32	104	0	77	34617
2026-01-02 05:27:20.35	40.48	2.52	-54.6	-74.0	3.8	7.43e-01	0	32	104	0	77	34607
2026-01-02 05:27:21.35	40.40	2.58	-54.6	-74.0	3.8	7.47e-01	0	32	104	0	77	34691
2026-01-02 05:27:22.34	40.33	2.64	-54.6	-74.0	3.8	7.43e-01	0	32	104	0	77	34653
2026-01-02 05:27:23.34	40.25	2.70	-54.6	-74.0	3.8	7.49e-01	0	32	104	0	77	34627
2026-01-02 05:27:24.35	40.18	2.76	-54.6	-74.0	3.8	7.43e-01	0	32	104	0	77	34686
2026-01-02 05:27:25.35	40.10	2.81	-54.6	-74.0	3.8	7.43e-01	0	32	104	0	77	34677
2026-01-02 05:27:26.35	40.02	2.87	-54.6	-74.0	3.8	7.46e-01	0	32	104	0	77	34682
2026-01-02 05:27:27.34	39.95	2.93	-54.6	-74.0	3.8	7.42e-01	0	32	104	0	77	34657
2026-01-02 05:27:28.34	39.87	2.99	-54.6	-74.0	3.8	7.49e-01	0	32	104	0	77	34588
2026-01-02 05:27:29.33	39.79	3.05	-54.6	-74.0	3.8	7.48e-01	0	32	104	0	77	34587
2026-01-02 05:27:30.33	39.71	3.11	-54.6	-74.0	3.8	7.47e-01	0	32	104	0	77	34607
2026-01-02 05:27:31.31	39.63	3.17	-54.6	-74.0	3.8	7.47e-01	0	32	104	0	77	34648
2026-01-02 05:27:32.31	39.56	3.23	-54.6	-74.0	3.8	7.46e-01	0	32	104	0	77	34676
2026-01-02 05:27:33.31	39.48	3.29	-54.6	-74.0	3.8	7.46e-01	0	32	104	0	77	34671
2026-01-02 05:27:34.30	39.40	3.35	-54.6	-74.0	3.8	7.45e-01	0	32	104	0	77	34666
2026-01-02 05:27:35.29	39.32	3.41	-54.6	-74.0	3.8	7.47e-01	0	32	104	0	77	34654
2026-01-02 05:27:36.29	39.24	3.47	-54.6	-74.0	3.8	7.45e-01	0	32	104	0	77	34603
2026-01-02 05:27:37.30	39.16	3.53	-54.6	-74.0	3.8	7.44e-01	0	32	104	0	77	34577
2026-01-02 05:27:38.29	39.08	3.59	-54.6	-74.0	3.8	7.46e-01	0	33	104	0	77	34587
2026-01-02 05:27:39.29	38.99	3.66	-54.6	-74.0	3.8	7.45e-01	0	32	104	0	77	34570
2026-01-02 05:27:40.29	38.91	3.72	-54.6	-74.0	3.8	7.45e-01	0	32	104	0	77	34633
2026-01-02 05:27:41.29	38.83	3.78	-54.7	-74.0	3.8	7.49e-01	0	32	104	0	77	34554
2026-01-02 05:27:42.29	38.75	3.84	-54.6	-74.0	3.8	7.49e-01	0	32	104	0	77	34614
2026-01-02 05:27:43.29	38.66	3.90	-54.6	-74.0	3.8	7.44e-01	0	32	104	0	77	34535
2026-01-02 05:27:44.29	38.58	3.96	-54.6	-74.0	3.8	7.45e-01	0	32	104	0	77	34573
2026-01-02 05:27:45.29	38.49	4.02	-54.6	-74.0	3.8	7.46e-01	0	32	104	0	77	34589
2026-01-02 05:27:46.30	38.41	4.09	-54.6	-74.0	3.8	7.45e-01	0	32	104	0	77	34618
2026-01-02 05:27:47.30	38.32	4.15	-54.7	-74.0	3.8	7.44e-01	0	32	104	0	77	34552
2026-01-02 05:27:48.29	38.24	4.21	-54.6	-74.0	3.8	7.43e-01	0	32	104	0	77	34553
2026-01-02 05:27:49.30	38.15	4.27	-54.6	-74.0	3.8	7.49e-01	0	32	104	0	77	34558
2026-01-02 05:27:50.30	38.07	4.33	-54.6	-74.0	3.8	7.43e-01	0	32	104	0	77	34535
2026-01-02 05:27:51.31	37.98	4.40	-54.6	-74.0	3.8	7.46e-01	0	32	104	0	77	34582
2026-01-02 05:27:52.30	37.89	4.46	-54.6	-74.0	3.8	7.43e-01	0	32	104	0	77	34562
2026-01-02 05:27:53.30	37.81	4.52	-54.6	-74.0	3.8	7.47e-01	0	32	104	0	77	34560
2026-01-02 05:27:54.30	37.72	4.58	-54.6	-74.0	3.8	7.45e-01	0	32	104	0	77	34540
2026-01-02 05:27:55.30	37.63	4.64	-54.6	-74.0	3.8	7.49e-01	0	32	104	0	77	34561
2026-01-02 05:27:56.29	37.54	4.71	-54.6	-74.0	3.8	7.45e-01	0	32	104	0	77	34630
2026-01-02 05:27:57.29	37.45	4.77	-54.6	-74.0	3.8	7.47e-01	0	32	104	0	77	34615
2026-01-02 05:27:58.29	37.36	4.83	-54.6	-74.0	3.8	7.44e-01	0	32	104	0	77	34591
2026-01-02 05:27:59.29	37.27	4.90	-54.6	-74.0	3.8	7.47e-01	0	32	104	0	77	34584
2026-01-02 05:28:00.29	37.18	4.96	-54.6	-74.0	3.8	7.46e-01	0	32	104	0	77	34631
2026-01-02 05:28:01.29	37.09	5.02	-54.6	-74.0	3.8	7.47e-01	0	32	104	0	77	34606
2026-01-02 05:28:02.29	37.00	5.08	-54.6	-74.0	3.8	7.45e-01	0	32	104	0	77	34608
2026-01-02 05:28:03.29	36.91	5.15	-54.6	-74.0	3.8	7.46e-01	0	32	104	0	77	34585
2026-01-02 05:28:04.29	36.82	5.21	-54.6	-74.0	3.8	7.43e-01	0	32	104	0	77	34587
2026-01-02 05:28:05.28	36.73	5.27	-54.6	-74.0	3.8	7.44e-01	0	33	104	0	77	34564
2026-01-02 05:28:06.27	36.63	5.34	-54.6	-74.0	3.8	7.46e-01	0	32	104	0	77	34610
2026-01-02 05:28:07.27	36.54	5.40	-54.6	-74.0	3.8	7.44e-01	0	33	104	0	77	34620
2026-01-02 05:28:08.27	36.45	5.47	-54.6	-74.0	3.8	7.46e-01	0	32	104	0	77	34578
2026-01-02 05:28:09.27	36.35	5.53	-54.6	-74.0	3.8	7.45e-01	0	33	104	0	77	34620
2026-01-02 05:28:10.27	36.26	5.59	-54.6	-74.0	3.8	7.46e-01	0	33	104	0	77	34584
2026-01-02 05:28:11.28	36.16	5.66	-54.6	-74.0	3.8	7.47e-01	0	32	104	0	77	34583
2026-01-02 05:28:12.28	36.06	5.72	-54.6	-74.0	3.8	7.49e-01	0	32	104	0	77	34643
2026-01-02 05:28:13.29	35.97	5.79	-54.6	-74.0	3.8	7.46e-01	0	32	104	0	77	34620
2026-01-02 05:28:14.28	35.87	5.85	-54.6	-74.0	3.8	7.45e-01	0	32	104	0	77	34623
2026-01-02 05:28:15.28	35.77	5.92	-54.6	-74.0	3.8	7.47e-01	0	32	104	0	77	34552
2026-01-02 05:28:16.28	35.68	5.98	-54.6	-74.0	3.8	7.44e-01	0	33	104	0	77	34617
2026-01-02 05:28:17.28	35.58	6.05	-54.6	-74.0	3.8	7.47e-01	0	32	104	0	77	34600
2026-01-02 05:28:18.28	35.48	6.11	-54.6	-74.0	3.8	7.45e-01	0	32	104	0	77	34647
2026-01-02 05:28:19.28	35.38	6.18	-54.6	-74.0	3.8	7.45e-01	0	32	104	0	77	34600
2026-01-02 05:28:20.29	35.28	6.24	-54.6	-74.0	3.8	7.46e-01	0	33	104	0	77	34703
2026-01-02 05:28:21.28	35.18	6.31	-54.7	-74.0	3.8	7.48e-01	0	32	104	0	77	34633
2026-01-02 05:28:22.27	35.08	6.37	-54.6	-74.0	3.8	7.45e-01	0	32	104	0	77	34664
2026-01-02 05:28:23.27	34.98	6.44	-54.6	-74.0	3.8	7.46e-01	0	33	104	0	77	34622
2026-01-02 05:28:24.28	34.87	6.50	-54.6	-74.0	3.8	7.46e-01	0	32	104	0	77	34617
2026-01-02 05:28:25.27	34.77	6.57	-54.6	-74.0	3.8	7.49e-01	0	32	104	0	77	34610
2026-01-02 05:28:26.28	34.67	6.63	-54.6	-74.0	3.8	7.46e-01	0	32	104	0	77	34622
2026-01-02 05:28:27.28	34.57	6.70	-54.6	-74.0	3.8	7.45e-01	0	33	104	0	77	34634
2026-01-02 05:28:28.27	34.46	6.76	-54.6	-74.0	3.8	7.45e-01	0	33	104	0	77	34666
2026-01-02 05:28:29.27	34.36	6.83	-54.6	-74.0	3.8	7.47e-01	0	33	104	0	77	34634
2026-01-02 05:28:30.26	34.25	6.90	-54.6	-74.0	3.8	7.46e-01	0	32	104	0	77	34666
2026-01-02 05:28:31.26	34.15	6.96	-54.6	-74.0	3.8	7.48e-01	0	32	104	0	77	34607
2026-01-02 05:28:32.26	34.04	7.03	-54.6	-74.0	3.8	7.45e-01	0	32	104	0	77	34661
2026-01-02 05:28:33.25	33.94	7.09	-54.6	-74.0	3.8	7.47e-01	0	32	104	0	77	34662
2026-01-02 05:28:34.25	33.83	7.16	-54.6	-74.0	3.8	7.45e-01	0	33	104	0	77	34683
2026-01-02 05:28:35.24	33.72	7.23	-54.6	-74.0	3.8	7.48e-01	0	32	104	0	77	34606
2026-01-02 05:28:36.23	33.62	7.29	-54.6	-74.0	3.8	7.46e-01	0	33	104	0	77	34676
2026-01-02 05:28:37.23	33.51	7.36	-54.6	-74.0	3.8	7.49e-01	0	32	104	0	77	34670
2026-01-02 05:28:38.24	33.40	7.43	-54.6	-74.0	3.8	7.43e-01	0	33	104	0	77	34628
2026-01-02 05:28:39.23	33.29	7.49	-54.7	-74.0	3.8	7.46e-01	0	32	104	0	77	34631
2026-01-02 05:28:40.23	33.18	7.56	-54.6	-74.0	3.8	7.48e-01	0	32	104	0	77	34629
2026-01-02 05:28:41.23	33.07	7.63	-54.6	-74.0	3.8	7.46e-01	0	33	104	0	77	34674
2026-01-02 05:28:42.22	32.95	7.69	-54.6	-74.0	3.8	7.43e-01	0	32	104	0	77	34644
2026-01-02 05:28:43.22	32.84	7.76	-54.6	-74.0	3.8	7.46e-01	0	32	104	0	77	34625
2026-01-02 05:28:44.22	32.73	7.83	-54.6	-74.0	3.8	7.46e-01	0	33	104	0	77	34592
2026-01-02 05:28:45.22	32.62	7.90	-54.6	-74.0	3.8	7.49e-01	0	33	104	0	77	34629
2026-01-02 05:28:46.22	32.50	7.97	-54.6	-74.0	3.8	7.45e-01	0	33	104	0	77	34603
2026-01-02 05:28:47.22	32.39	8.03	-54.6	-74.0	3.8	7.47e-01	0	33	104	0	77	34585
2026-01-02 05:28:48.23	32.27	8.10	-54.6	-74.0	3.8	7.45e-01	0	33	104	0	77	34589
2026-01-02 05:28:49.23	32.15	8.17	-54.6	-74.0	3.8	7.46e-01	0	32	104	0	77	34642
2026-01-02 05:28:50.23	32.04	8.24	-54.6	-74.0	3.8	7.48e-01	0	33	104	0	77	34634
2026-01-02 05:28:51.23	31.92	8.31	-54.6	-74.0	3.8	7.46e-01	0	32	104	0	77	34681
2026-01-02 05:28:52.23	31.80	8.37	-54.6	-74.0	3.8	7.50e-01	0	32	104	0	77	34621
2026-01-02 05:28:53.23	31.69	8.44	-54.6	-74.0	3.8	7.45e-01	0	33	104	0	77	34594
2026-01-02 05:28:54.23	31.57	8.51	-54.6	-74.0	3.8	7.46e-01	0	33	104	0	77	34589
2026-01-02 05:28:55.24	31.45	8.58	-54.6	-74.0	3.8	7.46e-01	0	33	104	0	77	34566
2026-01-02 05:28:56.24	31.33	8.65	-54.6	-74.0	3.8	7.47e-01	0	33	104	0	77	34690
2026-01-02 05:28:57.25	31.20	8.72	-54.6	-74.0	3.8	7.47e-01	0	33	104	0	77	34599
2026-01-02 05:28:58.24	31.08	8.79	-54.6	-74.0	3.8	7.47e-01	0	32	104	0	77	34682
2026-01-02 05:28:59.24	30.96	8.86	-54.6	-74.0	3.8	7.49e-01	0	33	104	0	77	34596
2026-01-02 05:29:00.23	30.84	8.92	-54.6	-74.0	3.8	7.47e-01	0	33	104	0	77	34656
2026-01-02 05:29:01.23	30.72	8.99	-54.6	-74.0	3.8	7.45e-01	0	33	104	0	77	34618
2026-01-02 05:29:02.23	30.59	9.06	-54.6	-74.0	3.8	7.49e-01	0	33	104	0	77	34620
2026-01-02 05:29:03.23	30.47	9.13	-54.6	-74.0	3.8	7.47e-01	0	32	104	0	77	34629
2026-01-02 05:29:04.23	30.34	9.20	-54.6	-74.0	3.8	7.46e-01	0	33	104	0	77	34623
2026-01-02 05:29:05.22	30.22	9.27	-54.6	-74.0	3.8	7.46e-01	0	32	104	0	77	34632
2026-01-02 05:29:06.22	30.09	9.34	-54.6	-74.0	3.8	7.46e-01	0	33	104	0	77	34650
2026-01-02 05:29:07.22	29.96	9.41	-54.6	-74.0	3.8	7.45e-01	0	33	104	0	77	34593
2026-01-02 05:29:08.22	29.83	9.48	-54.6	-74.0	3.8	7.46e-01	0	33	104	0	77	34646
2026-01-02 05:29:09.22	29.71	9.55	-54.6	-74.0	3.8	7.45e-01	0	32	104	0	77	34582
2026-01-02 05:29:10.22	29.58	9.62	-54.6	-74.0	3.8	7.48e-01	0	32	104	0	77	34552
2026-01-02 05:29:11.22	29.45	9.69	-54.6	-74.0	3.8	7.47e-01	0	33	104	0	77	34588
2026-01-02 05:29:12.22	29.32	9.76	-54.6	-74.0	3.8	7.42e-01	0	33	104	0	77	34642
2026-01-02 05:29:13.22	29.18	9.83	-54.6	-74.0	3.8	7.50e-01	0	32	104	0	77	34607
2026-01-02 05:29:14.22	29.05	9.90	-54.6	-74.0	3.8	7.48e-01	0	32	104	0	77	34666
2026-01-02 05:29:15.22	28.92	9.97	-54.6	-74.0	3.8	7.44e-01	0	33	104	0	77	34684
2026-01-02 05:29:16.22	28.79	10.04	-54.6	-74.0	3.8	7.48e-01	0	32	104	0	77	34596
2026-01-02 05:29:17.22	28.65	10.11	-54.6	-74.0	3.8	7.47e-01	0	32	104	0	77	34598
2026-01-02 05:29:18.21	28.52	10.18	-54.6	-74.0	3.8	7.43e-01	0	33	104	0	77	34634
2026-01-02 05:29:19.21	28.38	10.25	-54.6	-74.0	3.8	7.46e-01	0	33	104	0	77	34558
2026-01-02 05:29:20.21	28.25	10.32	-54.6	-74.0	3.8	7.45e-01	0	33	104	0	77	34656
2026-01-02 05:29:21.20	28.11	10.39	-54.6	-74.0	3.8	7.45e-01	0	32	104	0	77	34556
2026-01-02 05:29:22.20	27.97	10.46	-54.6	-74.0	3.8	7.44e-01	0	33	104	0	77	34643
2026-01-02 05:29:23.20	27.83	10.54	-54.6	-74.0	3.8	7.46e-01	0	32	104	0	77	34540
2026-01-02 05:29:24.20	27.69	10.61	-54.6	-74.0	3.8	7.48e-01	0	33	104	0	77	34653
2026-01-02 05:29:25.20	27.55	10.68	-54.6	-74.0	3.8	7.47e-01	0	32	104	0	77	34546
2026-01-02 05:29:26.20	27.41	10.75	-54.6	-74.0	3.8	7.45e-01	0	32	104	0	77	34628
2026-01-02 05:29:27.20	27.27	10.82	-54.6	-74.0	3.8	7.43e-01	0	32	104	0	77	34583
2026-01-02 05:29:28.20	27.13	10.89	-54.6	-74.0	3.8	7.46e-01	0	32	104	0	77	34636
2026-01-02 05:29:29.19	26.99	10.96	-54.6	-74.0	3.8	7.47e-01	0	32	104	0	77	34566
2026-01-02 05:29:30.19	26.84	11.03	-54.6	-74.0	3.8	7.49e-01	0	33	104	0	77	34498
2026-01-02 05:29:31.19	26.70	11.10	-54.6	-74.0	3.8	7.47e-01	0	33	104	0	77	34581
2026-01-02 05:29:32.18	26.55	11.18	-54.6	-74.0	3.8	7.45e-01	0	33	104	0	77	34533
2026-01-02 05:29:33.18	26.41	11.25	-54.6	-74.0	3.8	7.45e-01	0	33	104	0	77	34536
2026-01-02 05:29:34.17	26.26	11.32	-54.6	-74.0	3.8	7.45e-01	0	33	104	0	77	34525
2026-01-02 05:29:35.17	26.11	11.39	-54.6	-74.0	3.8	7.46e-01	0	33	104	0	77	34623
2026-01-02 05:29:36.17	25.96	11.46	-54.6	-74.0	3.8	7.46e-01	0	33	104	0	77	34597
2026-01-02 05:29:37.17	25.81	11.53	-54.6	-74.0	3.8	7.46e-01	0	32	104	0	77	34560
2026-01-02 05:29:38.18	25.66	11.61	-54.6	-74.0	3.8	7.44e-01	0	33	104	0	77	34583
2026-01-02 05:29:39.17	25.51	11.68	-54.6	-74.0	3.8	7.45e-01	0	33	104	0	77	34627
2026-01-02 05:29:40.16	25.36	11.75	-54.6	-74.0	3.8	7.47e-01	0	33	104	0	77	34535
2026-01-02 05:29:41.16	25.21	11.82	-54.7	-74.0	3.8	7.47e-01	0	33	104	0	77	34724
2026-01-02 05:29:42.17	25.05	11.89	-54.6	-74.0	3.8	7.46e-01	0	32	104	0	77	34635
2026-01-02 05:29:43.17	24.90	11.97	-54.7	-74.0	3.8	7.44e-01	0	33	104	0	77	34639
2026-01-02 05:29:44.16	24.75	12.04	-54.6	-74.0	3.8	7.47e-01	0	33	104	0	77	34607
2026-01-02 05:29:45.16	24.59	12.11	-54.6	-74.0	3.8	7.48e-01	0	33	104	0	77	34583
2026-01-02 05:29:46.17	24.43	12.18	-54.6	-74.0	3.8	7.42e-01	0	33	104	0	77	34526
2026-01-02 05:29:47.17	24.27	12.26	-54.6	-74.0	3.8	7.47e-01	0	32	104	0	77	34619
2026-01-02 05:29:48.17	24.12	12.33	-54.5	-74.0	3.8	7.44e-01	0	33	104	0	77	34562
2026-01-02 05:29:49.17	23.96	12.40	-54.6	-74.0	3.8	7.47e-01	0	32	104	0	77	34640
2026-01-02 05:29:50.17	23.80	12.47	-54.6	-74.0	3.8	7.44e-01	0	33	104	0	77	34568
2026-01-02 05:29:51.17	23.63	12.54	-54.6	-74.0	3.8	7.46e-01	0	33	104	0	77	34592
2026-01-02 05:29:52.16	23.47	12.62	-54.6	-74.0	3.8	7.44e-01	0	33	104	0	77	34684
2026-01-02 05:29:53.16	23.31	12.69	-54.6	-74.0	3.8	7.46e-01	0	32	104	0	77	34588
2026-01-02 05:29:54.16	23.15	12.76	-54.6	-74.0	3.8	7.50e-01	0	33	104	0	77	34584
2026-01-02 05:29:55.16	22.98	12.83	-54.6	-74.0	3.8	7.48e-01	0	33	104	0	77	34545
2026-01-02 05:29:56.15	22.82	12.91	-54.6	-74.0	3.8	7.43e-01	0	33	104	0	77	34573
2026-01-02 05:29:57.15	22.65	12.98	-54.7	-74.0	3.8	7.49e-01	0	33	104	0	77	34640
2026-01-02 05:29:58.15	22.48	13.05	-54.6	-74.0	3.8	7.44e-01	0	33	104	0	77	34536
2026-01-02 05:29:59.15	22.32	13.12	-54.6	-74.0	3.8	7.44e-01	0	32	104	0	77	34610
2026-01-02 05:30:00.15	22.15	13.20	-54.6	-74.0	3.8	7.46e-01	0	33	104	0	77	34597
2026-01-02 05:30:01.15	21.98	13.27	-54.7	-74.0	3.8	7.47e-01	0	32	104	0	77	34620
2026-01-02 05:30:02.15	21.81	13.34	-54.6	-74.0	3.8	7.46e-01	0	33	104	0	77	34606
2026-01-02 05:30:03.14	21.64	13.41	-54.6	-74.0	3.8	7.46e-01	0	33	104	0	77	34621
2026-01-02 05:30:04.15	21.46	13.49	-54.6	-74.0	3.8	7.45e-01	0	33	104	0	77	34614
2026-01-02 05:30:05.15	21.29	13.56	-54.6	-74.0	3.8	7.45e-01	0	33	104	0	77	34554
2026-01-02 05:30:06.15	21.11	13.63	-54.6	-74.0	3.8	7.45e-01	0	33	104	0	77	34680
2026-01-02 05:30:07.15	20.94	13.70	-54.6	-74.0	3.8	7.43e-01	0	32	104	0	77	34620
2026-01-02 05:30:08.14	20.76	13.78	-54.6	-74.0	3.8	7.45e-01	0	33	104	0	77	34674
2026-01-02 05:30:09.13	20.59	13.85	-54.6	-74.0	3.8	7.46e-01	0	32	104	0	77	34622
2026-01-02 05:30:10.13	20.41	13.92	-54.6	-74.0	3.8	7.46e-01	0	32	104	0	77	34590
2026-01-02 05:30:11.13	20.23	13.99	-54.6	-74.0	3.8	7.44e-01	0	32	104	0	77	34656
2026-01-02 05:30:12.12	20.05	14.06	-54.6	-74.0	3.8	7.48e-01	0	32	104	0	77	34637
2026-01-02 05:30:13.13	19.87	14.14	-54.6	-74.0	3.8	7.44e-01	0	33	104	0	77	34712
2026-01-02 05:30:14.13	19.68	14.21	-54.6	-74.0	3.8	7.46e-01	0	32	104	0	77	34637
2026-01-02 05:30:15.12	19.50	14.28	-54.6	-74.0	3.8	7.43e-01	0	32	104	0	77	34612
2026-01-02 05:30:16.12	19.32	14.35	-54.6	-74.0	3.8	7.44e-01	0	33	104	0	77	34637
2026-01-02 05:30:17.12	19.13	14.43	-54.6	-74.0	3.8	7.44e-01	0	32	104	0	77	34612
2026-01-02 05:30:18.13	18.95	14.50	-54.6	-74.0	3.8	7.48e-01	0	32	104	0	77	34604
2026-01-02 05:30:19.13	18.76	14.57	-54.6	-74.0	3.8	7.48e-01	0	33	104	0	77	34561
2026-01-02 05:30:20.13	18.57	14.64	-54.6	-74.0	3.8	7.48e-01	0	32	104	0	77	34646
2026-01-02 05:30:21.13	18.38	14.71	-54.6	-74.0	3.8	7.44e-01	0	33	104	0	77	34619
2026-01-02 05:30:22.13	18.19	14.79	-54.6	-74.0	3.8	7.47e-01	0	33	104	0	77	34656
2026-01-02 05:30:23.12	18.00	14.86	-54.7	-74.0	3.8	7.44e-01	0	33	104	0	77	34662
2026-01-02 05:30:24.12	17.81	14.93	-54.6	-74.0	3.8	7.49e-01	0	32	104	0	77	34651
2026-01-02 05:30:25.12	17.62	15.00	-54.6	-74.0	3.8	7.44e-01	0	32	104	0	77	34637
2026-01-02 05:30:26.13	17.42	15.07	-54.6	-74.0	3.8	7.47e-01	0	32	104	0	77	34648
2026-01-02 05:30:27.12	17.23	15.14	-54.6	-74.0	3.8	7.43e-01	0	32	104	0	77	34593
2026-01-02 05:30:28.12	17.03	15.22	-54.6	-74.0	3.8	7.48e-01	0	32	104	0	77	34706
2026-01-02 05:30:29.11	16.84	15.29	-54.6	-74.0	3.8	7.46e-01	0	33	104	0	77	34540
2026-01-02 05:30:30.11	16.64	15.36	-54.6	-74.0	3.9	7.46e-01	0	32	104	0	77	34560
2026-01-02 05:30:31.10	16.44	15.43	-54.6	-74.0	3.8	7.42e-01	0	33	104	0	77	34704
2026-01-02 05:30:32.10	16.24	15.50	-54.6	-74.0	3.8	7.47e-01	0	32	104	0	77	34711
2026-01-02 05:30:33.09	16.04	15.57	-54.6	-74.0	3.8	7.46e-01	0	32	104	0	77	34641
2026-01-02 05:30:34.07	15.84	15.64	-54.6	-74.0	3.8	7.45e-01	0	32	104	0	77	34641
2026-01-02 05:30:35.07	15.64	15.71	-54.6	-74.0	3.8	7.45e-01	0	32	104	0	77	34591
2026-01-02 05:30:36.07	15.43	15.78	-54.6	-74.0	3.8	7.44e-01	0	32	104	0	77	34721
2026-01-02 05:30:37.07	15.23	15.85	-54.6	-74.0	3.8	7.49e-01	0	33	104	0	77	34715
2026-01-02 05:30:38.06	15.02	15.92	-54.6	-74.0	3.8	7.43e-01	0	33	104	0	77	34725
2026-01-02 05:30:39.06	14.82	15.99	-54.6	-74.0	3.8	7.45e-01	0	33	104	0	77	34635
2026-01-02 05:30:40.06	14.61	16.06	-54.6	-74.0	3.8	7.45e-01	0	32	104	0	77	34641
2026-01-02 05:30:41.05	14.40	16.13	-54.6	-74.0	3.8	7.45e-01	0	32	104	0	77	34648
2026-01-02 05:30:42.05	14.19	16.20	-54.6	-74.0	3.8	7.47e-01	0	32	104	0	77	34685
2026-01-02 05:30:43.06	13.98	16.27	-54.6	-74.0	3.8	7.47e-01	0	32	104	0	77	34690
2026-01-02 05:30:44.05	13.77	16.34	-54.6	-74.0	3.8	7.46e-01	0	33	104	0	77	34700
2026-01-02 05:30:45.05	13.55	16.41	-54.7	-74.0	3.8	7.43e-01	0	33	104	0	77	34723
2026-01-02 05:30:46.05	13.34	16.48	-54.6	-74.0	3.8	7.46e-01	0	32	104	0	77	34655
2026-01-02 05:30:47.06	13.12	16.55	-54.6	-74.0	3.8	7.46e-01	0	32	104	0	77	34607
2026-01-02 05:30:48.07	12.90	16.61	-54.6	-74.0	3.8	7.45e-01	0	33	104	0	77	34719
2026-01-02 05:30:49.07	12.68	16.68	-54.6	-74.0	3.8	7.47e-01	0	33	104	0	77	34667
2026-01-02 05:30:50.06	12.46	16.75	-54.6	-74.0	3.8	7.47e-01	0	33	104	0	77	34650
2026-01-02 05:30:51.06	12.24	16.82	-54.6	-74.0	3.8	7.46e-01	0	33	104	0	77	34580
2026-01-02 05:30:52.06	12.02	16.89	-54.6	-74.0	3.8	7.45e-01	0	32	104	0	77	34678
2026-01-02 05:30:53.06	11.80	16.95	-54.6	-74.0	3.8	7.46e-01	0	32	104	0	77	34653
2026-01-02 05:30:54.06	11.58	17.02	-54.7	-74.0	3.8	7.47e-01	0	33	104	0	77	34641
2026-01-02 05:30:55.06	11.35	17.09	-54.6	-74.0	3.8	7.46e-01	0	32	104	0	77	34593
2026-01-02 05:30:56.06	11.13	17.16	-54.6	-74.0	3.8	7.48e-01	0	33	104	0	77	34646
2026-01-02 05:30:57.06	10.90	17.22	-54.6	-74.0	3.8	7.48e-01	0	33	104	0	77	34638
2026-01-02 05:30:58.06	10.67	17.29	-54.6	-74.0	3.8	7.44e-01	0	32	104	0	77	34711
2026-01-02 05:30:59.06	10.44	17.36	-54.6	-74.0	3.8	7.46e-01	0	33	104	0	77	34606
2026-01-02 05:31:00.06	10.21	17.42	-54.6	-74.0	3.8	7.49e-01	0	32	104	0	77	34544
2026-01-02 05:31:01.06	9.98	17.49	-54.6	-74.0	3.8	7.47e-01	0	33	104	0	77	34694
2026-01-02 05:31:02.07	9.75	17.55	-54.6	-74.0	3.8	7.47e-01	0	33	104	0	77	34614
2026-01-02 05:31:03.07	9.51	17.62	-54.6	-74.0	3.8	7.48e-01	0	33	104	0	77	34618
2026-01-02 05:31:04.06	9.28	17.68	-54.6	-74.0	3.8	7.48e-01	0	32	104	0	77	34553
2026-01-02 05:31:05.06	9.05	17.75	-54.6	-74.0	3.8	7.43e-01	0	33	104	0	77	34640
2026-01-02 05:31:06.07	8.81	17.81	-54.7	-74.0	3.8	7.47e-01	0	33	104	0	77	34662
2026-01-02 05:31:07.07	8.57	17.88	-54.6	-74.0	3.8	7.44e-01	0	33	104	0	77	34696
2026-01-02 05:31:08.07	8.33	17.94	-54.7	-74.0	3.8	7.47e-01	0	33	104	0	77	34665
2026-01-02 05:31:09.06	8.10	18.00	-54.6	-74.0	3.8	7.48e-01	0	32	104	0	77	34660
2026-01-02 05:31:10.06	7.85	18.07	-54.7	-74.0	3.8	7.45e-01	0	33	104	0	77	34645
2026-01-02 05:31:11.07	7.61	18.13	-54.6	-74.0	3.8	7.46e-01	0	33	104	0	77	34677
2026-01-02 05:31:12.07	7.37	18.19	-54.7	-74.0	3.8	7.50e-01	0	33	104	0	77	34621
2026-01-02 05:31:13.06	7.13	18.25	-54.7	-74.0	3.8	7.46e-01	0	32	104	0	77	34576
2026-01-02 05:31:14.06	6.88	18.32	-54.6	-74.0	3.8	7.46e-01	0	32	104	0	77	34698
2026-01-02 05:31:15.06	6.63	18.38	-54.6	-74.0	3.8	7.46e-01	0	33	104	0	77	34628
2026-01-02 05:31:16.07	6.39	18.44	-54.6	-74.0	3.8	7.47e-01	0	33	104	0	77	34625
2026-01-02 05:31:17.07	6.14	18.50	-54.6	-74.0	3.8	7.45e-01	0	33	104	0	77	34649
2026-01-02 05:31:18.07	5.89	18.56	-54.6	-74.0	3.8	7.43e-01	0	33	104	0	77	34630
2026-01-02 05:31:19.06	5.64	18.62	-54.6	-74.0	3.8	7.47e-01	0	33	104	0	77	34633
2026-01-02 05:31:20.07	5.39	18.68	-54.6	-74.0	3.8	7.48e-01	0	33	104	0	77	34670
2026-01-02 05:31:21.07	5.13	18.74	-54.6	-74.0	3.8	7.47e-01	0	33	104	0	77	34571
2026-01-02 05:31:22.06	4.88	18.80	-54.6	-74.0	3.8	7.49e-01	0	33	104	0	77	34584
2026-01-02 05:31:23.06	4.63	18.86	-54.6	-74.0	3.8	7.47e-01	0	33	104	0	77	34596
2026-01-02 05:31:24.06	4.37	18.91	-54.6	-74.0	3.8	7.43e-01	0	33	104	0	77	34763
2026-01-02 05:31:25.06	4.12	18.97	-54.6	-74.0	3.8	7.46e-01	0	32	104	0	77	34679
2026-01-02 05:31:26.07	3.86	19.03	-54.6	-74.0	3.8	7.47e-01	0	32	104	0	77	34626
2026-01-02 05:31:27.06	3.60	19.08	-54.6	-74.0	3.8	7.45e-01	0	32	104	0	77	34651
2026-01-02 05:31:28.06	3.34	19.14	-54.6	-74.0	3.8	7.44e-01	0	33	104	0	77	34604
2026-01-02 05:31:29.06	3.08	19.20	-54.6	-74.0	3.8	7.44e-01	0	32	104	0	77	34641
2026-01-02 05:31:30.05	2.82	19.25	-54.6	-74.0	3.8	7.46e-01	0	33	104	0	77	34666
2026-01-02 05:31:31.05	2.56	19.31	-54.6	-74.0	3.8	7.45e-01	0	33	104	0	77	34690
2026-01-02 05:31:32.05	2.29	19.36	-54.6	-74.0	3.8	7.43e-01	0	32	104	0	77	34686
2026-01-02 05:31:33.05	2.03	19.41	-54.6	-74.0	3.8	7.44e-01	0	33	104	0	77	34648
2026-01-02 05:31:34.04	1.77	19.47	-54.6	-74.0	3.8	7.46e-01	0	33	104	0	77	34639
2026-01-02 05:31:35.04	1.50	19.52	-54.6	-74.0	3.8	7.45e-01	0	33	104	0	77	34535
2026-01-02 05:31:36.04	1.23	19.57	-54.6	-74.0	3.8	7.44e-01	0	33	104	0	77	34590
2026-01-02 05:31:37.03	0.97	19.62	-54.6	-74.0	3.8	7.41e-01	0	33	104	0	77	34549
2026-01-02 05:31:38.02	0.70	19.67	-54.6	-74.0	3.8	7.44e-01	0	33	104	0	77	34592
2026-01-02 05:31:39.02	0.43	19.73	-54.6	-74.0	3.8	7.48e-01	0	33	104	0	77	34653
2026-01-02 05:31:40.02	0.16	19.78	-54.6	-74.0	3.8	7.49e-01	0	32	104	0	77	34601
2026-01-02 05:31:41.01	359.89	19.83	-54.6	-74.0	3.8	7.44e-01	0	32	104	0	77	34647
2026-01-02 05:31:42.02	359.61	19.87	-54.6	-74.0	3.8	7.49e-01	0	32	104	0	77	34697
2026-01-02 05:31:43.02	359.34	19.92	-54.6	-74.0	3.8	7.47e-01	0	32	104	0	77	34612
2026-01-02 05:31:44.01	359.06	19.97	-54.6	-74.0	3.8	7.46e-01	0	33	104	0	77	34671
2026-01-02 05:31:45.00	358.79	20.02	-54.6	-74.0	3.8	7.47e-01	0	32	104	0	77	34663
2026-01-02 05:31:46.01	358.51	20.07	-54.6	-74.0	3.8	7.47e-01	0	33	104	0	77	34622
2026-01-02 05:31:47.00	358.24	20.11	-54.6	-74.0	3.8	7.47e-01	0	32	104	0	77	34679
2026-01-02 05:31:48.00	357.96	20.16	-54.6	-74.0	3.8	7.47e-01	0	32	104	0	77	34615
2026-01-02 05:31:49.00	357.68	20.20	-54.6	-74.0	3.8	7.45e-01	0	32	104	0	77	34589
2026-01-02 05:31:50.00	357.40	20.25	-54.6	-74.0	3.8	7.47e-01	0	33	104	0	77	34656
2026-01-02 05:31:51.00	357.11	20.29	-54.6	-74.0	3.8	7.44e-01	0	33	104	0	77	34667
2026-01-02 05:31:52.00	356.83	20.33	-54.6	-74.0	3.8	7.47e-01	0	33	104	0	77	34651
2026-01-02 05:31:53.00	356.55	20.38	-54.6	-74.0	3.8	7.43e-01	0	33	104	0	77	34605
2026-01-02 05:31:54.01	356.26	20.42	-54.6	-74.0	3.8	7.47e-01	0	32	104	0	77	34637
2026-01-02 05:31:55.01	355.98	20.46	-54.6	-74.0	3.8	7.46e-01	0	33	104	0	77	34694
2026-01-02 05:31:56.00	355.69	20.50	-54.6	-74.0	3.8	7.45e-01	0	32	104	0	77	34627
2026-01-02 05:31:57.01	355.41	20.54	-54.6	-74.0	3.8	7.43e-01	0	33	104	0	77	34658
2026-01-02 05:31:58.01	355.12	20.58	-54.6	-74.0	3.8	7.45e-01	0	32	104	0	77	34574
2026-01-02 05:31:59.02	354.83	20.62	-54.6	-74.0	3.9	7.47e-01	0	33	104	0	77	34615
2026-01-02 05:32:00.02	354.54	20.66	-54.6	-74.0	3.8	7.44e-01	0	33	104	0	77	34658
2026-01-02 05:32:01.01	354.25	20.70	-54.6	-74.0	3.8	7.48e-01	0	33	104	0	77	34578
2026-01-02 05:32:02.01	353.96	20.73	-54.6	-74.0	3.8	7.46e-01	0	32	104	0	77	34627
2026-01-02 05:32:03.01	353.67	20.77	-54.6	-74.0	3.8	7.45e-01	0	33	104	0	77	34674
2026-01-02 05:32:04.01	353.38	20.81	-54.6	-74.0	3.8	7.46e-01	0	33	104	0	77	34618
2026-01-02 05:32:05.00	353.09	20.84	-54.6	-74.0	3.8	7.43e-01	0	33	104	0	77	34664
2026-01-02 05:32:06.00	352.80	20.87	-54.6	-74.0	3.8	7.45e-01	0	32	104	0	77	34622
2026-01-02 05:32:07.00	352.50	20.91	-54.6	-74.0	3.8	7.50e-01	0	32	104	0	77	34705
2026-01-02 05:32:08.00	352.21	20.94	-54.6	-74.0	3.8	7.47e-01	0	32	104	0	77	34605
2026-01-02 05:32:08.99	351.92	20.97	-54.6	-74.0	3.8	7.45e-01	0	33	104	0	77	34549
2026-01-02 05:32:09.99	351.62	21.00	-54.7	-74.0	3.8	7.45e-01	0	32	104	0	77	34654
2026-01-02 05:32:10.99	351.32	21.03	-54.6	-74.0	3.8	7.46e-01	0	33	104	0	77	34615
2026-01-02 05:32:11.98	351.03	21.06	-54.7	-74.0	3.8	7.47e-01	0	33	104	0	77	34645
2026-01-02 05:32:12.97	350.73	21.09	-54.6	-74.0	3.8	7.45e-01	0	32	104	0	77	34586
2026-01-02 05:32:13.98	350.43	21.12	-54.6	-74.0	3.8	7.46e-01	0	32	104	0	77	34674
2026-01-02 05:32:14.97	350.14	21.15	-54.7	-74.0	3.8	7.43e-01	0	33	104	0	77	34684
2026-01-02 05:32:15.97	349.84	21.17	-54.7	-74.0	3.8	7.47e-01	0	33	104	0	77	34731
2026-01-02 05:32:16.97	349.54	21.20	-54.6	-74.0	3.8	7.43e-01	0	32	104	0	77	34629
2026-01-02 05:32:17.97	349.24	21.22	-54.7	-74.0	3.8	7.45e-01	0	33	104	0	77	34732
2026-01-02 05:32:18.97	348.94	21.25	-54.6	-74.0	3.9	7.45e-01	0	33	104	0	77	34641
2026-01-02 05:32:19.97	348.64	21.27	-54.6	-74.0	3.8	7.47e-01	0	33	104	0	77	34702
2026-01-02 05:32:20.97	348.33	21.30	-54.6	-74.0	3.8	7.47e-01	0	33	104	0	77	34579
2026-01-02 05:32:21.96	348.03	21.32	-54.6	-74.0	3.8	7.45e-01	0	33	104	0	77	34668
2026-01-02 05:32:22.96	347.73	21.34	-54.6	-74.0	3.8	7.45e-01	0	32	104	0	77	34698
2026-01-02 05:32:23.97	347.42	21.36	-54.7	-74.0	3.8	7.48e-01	0	32	104	0	77	34673
2026-01-02 05:32:24.96	347.12	21.38	-54.6	-74.0	3.8	7.47e-01	0	33	104	0	77	34596
2026-01-02 05:32:25.96	346.82	21.40	-54.7	-74.0	3.8	7.48e-01	0	32	104	0	77	34726
2026-01-02 05:32:26.96	346.52	21.42	-54.7	-74.0	3.8	7.46e-01	0	33	104	0	77	34711
2026-01-02 05:32:27.96	346.21	21.43	-54.6	-74.0	3.8	7.47e-01	0	33	104	0	77	34671
2026-01-02 05:32:28.96	345.91	21.45	-54.7	-74.0	3.8	7.46e-01	0	33	104	0	77	34595
2026-01-02 05:32:29.96	345.60	21.46	-54.6	-74.0	3.8	7.44e-01	0	33	104	0	77	34604
2026-01-02 05:32:30.95	345.30	21.48	-54.7	-74.0	3.8	7.45e-01	0	32	104	0	77	34617
2026-01-02 05:32:31.95	344.99	21.49	-54.6	-74.0	3.8	7.44e-01	0	33	104	0	77	34683
2026-01-02 05:32:32.95	344.68	21.51	-54.6	-74.0	3.8	7.44e-01	0	33	104	0	77	34694
2026-01-02 05:32:33.95	344.38	21.52	-54.7	-74.0	3.8	7.45e-01	0	33	104	0	77	34647
2026-01-02 05:32:34.95	344.07	21.53	-54.6	-74.0	3.8	7.48e-01	0	33	104	0	77	34610
2026-01-02 05:32:35.94	343.77	21.54	-54.6	-74.0	3.8	7.45e-01	0	33	104	0	77	34580
2026-01-02 05:32:36.94	343.46	21.55	-54.6	-74.0	3.8	7.48e-01	0	33	104	0	77	34624
2026-01-02 05:32:37.93	343.15	21.56	-54.6	-74.0	3.8	7.48e-01	0	32	104	0	77	34615
2026-01-02 05:32:38.94	342.84	21.57	-54.6	-74.0	3.8	7.46e-01	0	32	104	0	77	34638
2026-01-02 05:32:39.93	342.54	21.57	-54.6	-74.0	3.8	7.48e-01	0	33	104	0	77	34588
2026-01-02 05:32:40.93	342.23	21.58	-54.6	-74.0	3.8	7.47e-01	0	32	104	0	77	34637
2026-01-02 05:32:41.92	341.93	21.59	-54.6	-74.0	3.8	7.48e-01	0	33	104	0	77	34619
2026-01-02 05:32:42.92	341.62	21.59	-54.6	-74.0	3.8	7.44e-01	0	32	104	0	77	34615
2026-01-02 05:32:43.92	341.31	21.60	-54.6	-74.0	3.8	7.48e-01	0	33	104	0	77	34620
2026-01-02 05:32:44.92	341.00	21.60	-54.6	-74.0	3.8	7.45e-01	0	33	104	0	77	34686
2026-01-02 05:32:45.91	340.70	21.60	-54.6	-74.0	3.8	7.46e-01	0	32	104	0	77	34587
2026-01-02 05:32:46.91	340.39	21.60	-54.6	-74.0	3.8	7.47e-01	0	33	104	0	77	34638
2026-01-02 05:32:47.91	340.08	21.60	-54.6	-74.0	3.8	7.43e-01	0	33	104	0	77	34704
2026-01-02 05:32:48.91	339.77	21.60	-54.6	-74.0	3.8	7.46e-01	0	32	104	0	77	34558
2026-01-02 05:32:49.91	339.46	21.60	-54.6	-74.0	3.8	7.46e-01	0	33	104	0	77	34603
2026-01-02 05:32:50.90	339.16	21.60	-54.6	-74.0	3.8	7.44e-01	0	33	104	0	77	34649
2026-01-02 05:32:51.90	338.85	21.60	-54.6	-74.0	3.8	7.45e-01	0	32	104	0	77	34666
2026-01-02 05:32:52.90	338.54	21.59	-54.6	-74.0	3.8	7.43e-01	0	32	104	0	77	34673
2026-01-02 05:32:53.91	338.23	21.59	-54.6	-74.0	3.8	7.48e-01	0	32	104	0	77	34672
2026-01-02 05:32:54.91	337.92	21.58	-54.6	-74.0	3.8	7.45e-01	0	33	104	0	77	34642
2026-01-02 05:32:55.92	337.61	21.58	-54.6	-74.0	3.8	7.46e-01	0	32	104	0	77	34709
2026-01-02 05:32:56.92	337.30	21.57	-54.6	-74.0	3.8	7.46e-01	0	33	104	0	77	34672
2026-01-02 05:32:57.93	336.99	21.56	-54.7	-74.0	3.8	7.46e-01	0	33	104	0	77	34700
2026-01-02 05:32:58.92	336.68	21.55	-54.6	-74.0	3.8	7.46e-01	0	32	104	0	77	34626
2026-01-02 05:32:59.92	336.38	21.54	-54.6	-74.0	3.8	7.49e-01	0	32	104	0	77	34625
2026-01-02 05:33:00.92	336.07	21.53	-54.7	-74.0	3.8	7.43e-01	0	32	104	0	77	34635
2026-01-02 05:33:01.92	335.76	21.52	-54.6	-74.0	3.8	7.43e-01	0	32	104	0	77	34615
2026-01-02 05:33:02.91	335.46	21.51	-54.6	-74.0	3.8	7.46e-01	0	33	104	0	77	34639
2026-01-02 05:33:03.91	335.15	21.50	-54.7	-74.0	3.8	7.47e-01	0	32	104	0	77	34701
2026-01-02 05:33:04.91	334.85	21.48	-54.6	-74.0	3.8	7.45e-01	0	32	104	0	77	34676
2026-01-02 05:33:05.90	334.54	21.47	-54.6	-74.0	3.8	7.44e-01	0	32	104	0	77	34604
2026-01-02 05:33:06.91	334.23	21.45	-54.6	-74.0	3.8	7.44e-01	0	32	104	0	77	34645
2026-01-02 05:33:07.91	333.93	21.44	-54.6	-74.0	3.8	7.44e-01	0	32	104	0	77	34610
2026-01-02 05:33:08.91	333.62	21.42	-54.6	-74.0	3.8	7.44e-01	0	32	104	0	77	34570
2026-01-02 05:33:09.90	333.32	21.40	-54.6	-74.0	3.8	7.49e-01	0	32	104	0	77	34637
2026-01-02 05:33:10.90	333.02	21.38	-54.7	-74.0	3.8	7.49e-01	0	33	104	0	77	34639
2026-01-02 05:33:11.90	332.71	21.36	-54.6	-74.0	3.8	7.46e-01	0	33	104	0	77	34739
2026-01-02 05:33:12.91	332.41	21.34	-54.6	-74.0	3.8	7.47e-01	0	32	104	0	77	34574
2026-01-02 05:33:13.91	332.10	21.32	-54.6	-74.0	3.8	7.46e-01	0	32	104	0	77	34593
2026-01-02 05:33:14.91	331.80	21.30	-54.7	-74.0	3.8	7.46e-01	0	33	104	0	77	34687
2026-01-02 05:33:15.91	331.50	21.28	-54.7	-74.0	3.8	7.44e-01	0	33	104	0	77	34724
2026-01-02 05:33:16.90	331.20	21.25	-54.7	-74.0	3.8	7.44e-01	0	33	104	0	77	34733
2026-01-02 05:33:17.90	330.90	21.23	-54.7	-74.0	3.8	7.44e-01	0	33	104	0	77	34752
2026-01-02 05:33:18.90	330.60	21.20	-54.7	-74.0	3.8	7.46e-01	0	33	104	0	77	34572
2026-01-02 05:33:19.90	330.30	21.18	-54.7	-74.0	3.8	7.48e-01	0	33	104	0	77	34661
2026-01-02 05:33:20.90	330.00	21.15	-54.6	-74.0	3.8	7.48e-01	0	32	104	0	77	34650
2026-01-02 05:33:21.91	329.70	21.12	-54.6	-74.0	3.8	7.47e-01	0	33	104	0	77	34639
2026-01-02 05:33:22.91	329.40	21.10	-54.7	-74.0	3.8	7.43e-01	0	33	104	0	77	34587
2026-01-02 05:33:23.91	329.10	21.07	-54.6	-74.0	3.8	7.49e-01	0	33	104	0	77	34638
2026-01-02 05:33:24.92	328.80	21.04	-54.7	-74.0	3.8	7.48e-01	0	33	104	0	77	34724
2026-01-02 05:33:25.92	328.50	21.01	-54.6	-74.0	3.8	7.47e-01	0	33	104	0	77	34628
2026-01-02 05:33:26.91	328.21	20.98	-54.6	-74.0	3.8	7.48e-01	0	33	104	0	77	34728
2026-01-02 05:33:27.91	327.92	20.94	-54.6	-74.0	3.8	7.42e-01	0	33	104	0	77	34620
2026-01-02 05:33:28.91	327.62	20.91	-54.6	-74.0	3.8	7.44e-01	0	33	104	0	77	34649
2026-01-02 05:33:29.91	327.33	20.88	-54.6	-74.0	3.9	7.45e-01	0	33	104	0	77	34610
2026-01-02 05:33:30.91	327.03	20.84	-54.6	-74.0	3.8	7.46e-01	0	33	104	0	77	34623
2026-01-02 05:33:31.91	326.74	20.81	-54.6	-74.0	3.8	7.48e-01	0	32	104	0	77	34611
2026-01-02 05:33:32.90	326.45	20.77	-54.6	-74.0	3.8	7.44e-01	0	33	104	0	77	34620
2026-01-02 05:33:33.90	326.16	20.74	-54.6	-74.0	3.8	7.46e-01	0	32	104	0	77	34670
2026-01-02 05:33:34.89	325.87	20.70	-54.6	-74.0	3.8	7.49e-01	0	33	104	0	77	34599
2026-01-02 05:33:35.89	325.58	20.66	-54.6	-74.0	3.8	7.48e-01	0	33	104	0	77	34586
2026-01-02 05:33:36.88	325.30	20.63	-54.6	-74.0	3.8	7.44e-01	0	33	104	0	77	34653
2026-01-02 05:33:37.88	325.01	20.59	-54.6	-74.0	3.8	7.48e-01	0	33	104	0	77	34613
2026-01-02 05:33:38.87	324.72	20.55	-54.6	-74.0	3.8	7.49e-01	0	33	104	0	77	34661
2026-01-02 05:33:39.87	324.44	20.51	-54.6	-74.0	3.8	7.46e-01	0	33	104	0	77	34578
2026-01-02 05:33:40.86	324.15	20.47	-54.6	-74.0	3.8	7.45e-01	0	33	104	0	77	34717
2026-01-02 05:33:41.87	323.86	20.43	-54.6	-74.0	3.8	7.43e-01	0	33	104	0	77	34658
2026-01-02 05:33:42.87	323.58	20.38	-54.6	-74.0	3.8	7.48e-01	0	33	104	0	77	34607
2026-01-02 05:33:43.86	323.30	20.34	-54.7	-74.0	3.8	7.44e-01	0	32	104	0	77	34681
2026-01-02 05:33:44.86	323.02	20.30	-54.6	-74.0	3.8	7.46e-01	0	33	104	0	77	34651
2026-01-02 05:33:45.86	322.74	20.25	-54.6	-74.0	3.8	7.42e-01	0	32	104	0	77	34660
2026-01-02 05:33:46.87	322.45	20.21	-54.6	-74.0	3.8	7.41e-01	0	33	104	0	77	34640
2026-01-02 05:33:47.86	322.17	20.16	-54.5	-74.0	3.8	7.45e-01	0	32	104	0	77	34665
2026-01-02 05:33:48.87	321.89	20.12	-54.6	-74.0	3.8	7.46e-01	0	33	104	0	77	34603
2026-01-02 05:33:49.87	321.61	20.07	-54.6	-74.0	3.8	7.43e-01	0	33	104	0	77	34537
2026-01-02 05:33:50.87	321.34	20.02	-54.6	-74.0	3.8	7.46e-01	0	33	104	0	77	34562
2026-01-02 05:33:51.86	321.06	19.98	-54.6	-74.0	3.8	7.45e-01	0	33	104	0	77	34578
2026-01-02 05:33:52.86	320.79	19.93	-54.6	-74.0	3.8	7.46e-01	0	32	104	0	77	34647
2026-01-02 05:33:53.86	320.51	19.88	-54.6	-74.0	3.8	7.49e-01	0	32	104	0	77	34642
2026-01-02 05:33:54.86	320.24	19.83	-54.6	-74.0	3.8	7.48e-01	0	33	104	0	77	34491
2026-01-02 05:33:55.85	319.97	19.78	-54.6	-74.0	3.8	7.46e-01	0	32	104	0	77	34569
2026-01-02 05:33:56.86	319.69	19.73	-54.6	-74.0	3.8	7.46e-01	0	33	104	0	77	34617
2026-01-02 05:33:57.85	319.42	19.68	-54.6	-74.0	3.8	7.47e-01	0	33	104	0	77	34586
2026-01-02 05:33:58.86	319.15	19.63	-54.6	-74.0	3.8	7.49e-01	0	32	104	0	77	34505
2026-01-02 05:33:59.86	318.88	19.58	-54.6	-74.0	3.8	7.45e-01	0	33	104	0	77	34573
2026-01-02 05:34:00.87	318.61	19.52	-54.6	-74.0	3.8	7.47e-01	0	33	104	0	77	34581
2026-01-02 05:34:01.88	318.34	19.47	-54.6	-74.0	3.8	7.44e-01	0	33	104	0	77	34616
2026-01-02 05:34:02.88	318.08	19.42	-54.6	-74.0	3.8	7.44e-01	0	33	104	0	77	34618
2026-01-02 05:34:03.88	317.81	19.36	-54.6	-74.0	3.8	7.47e-01	0	32	104	0	77	34617
2026-01-02 05:34:04.88	317.55	19.31	-54.6	-74.0	3.8	7.48e-01	0	33	104	0	77	34621
2026-01-02 05:34:05.88	317.28	19.25	-54.6	-74.0	3.8	7.45e-01	0	33	104	0	77	34604
2026-01-02 05:34:06.88	317.02	19.20	-54.6	-74.0	3.8	7.47e-01	0	33	104	0	77	34600
2026-01-02 05:34:07.88	316.76	19.14	-54.6	-74.0	3.8	7.44e-01	0	33	104	0	77	34626
2026-01-02 05:34:08.88	316.50	19.09	-54.6	-74.0	3.8	7.46e-01	0	32	104	0	77	34675
2026-01-02 05:34:09.88	316.24	19.03	-54.6	-74.0	3.8	7.44e-01	0	33	104	0	77	34613
2026-01-02 05:34:10.88	315.98	18.97	-54.6	-74.0	3.8	7.46e-01	0	33	104	0	77	34571
2026-01-02 05:34:11.88	315.73	18.92	-54.6	-74.0	3.8	7.46e-01	0	33	104	0	77	34582
2026-01-02 05:34:12.89	315.47	18.86	-54.6	-74.0	3.8	7.45e-01	0	33	104	0	77	34639
2026-01-02 05:34:13.89	315.21	18.80	-54.6	-74.0	3.8	7.46e-01	0	33	104	0	77	34672
2026-01-02 05:34:14.89	314.96	18.74	-54.6	-74.0	3.8	7.47e-01	0	33	104	0	77	34582
2026-01-02 05:34:15.89	314.71	18.68	-54.6	-74.0	3.8	7.43e-01	0	33	104	0	77	34566
2026-01-02 05:34:16.89	314.45	18.62	-54.6	-74.0	3.8	7.44e-01	0	33	104	0	77	34552
2026-01-02 05:34:17.88	314.21	18.56	-54.6	-74.0	3.8	7.46e-01	0	33	104	0	77	34633
2026-01-02 05:34:18.87	313.96	18.50	-54.6	-74.0	3.8	7.48e-01	0	33	104	0	77	34691
2026-01-02 05:34:19.86	313.71	18.44	-54.6	-74.0	3.8	7.44e-01	0	33	104	0	77	34588
2026-01-02 05:34:20.87	313.46	18.38	-54.6	-74.0	3.8	7.41e-01	0	33	104	0	77	34654
2026-01-02 05:34:21.88	313.21	18.32	-54.7	-74.0	3.8	7.46e-01	0	33	104	0	77	34670
2026-01-02 05:34:22.87	312.97	18.26	-54.7	-74.0	3.8	7.50e-01	0	33	104	0	77	34684
2026-01-02 05:34:23.87	312.73	18.19	-54.6	-74.0	3.8	7.50e-01	0	33	104	0	77	34589
2026-01-02 05:34:24.87	312.48	18.13	-54.6	-74.0	3.8	7.42e-01	0	33	104	0	77	34610
2026-01-02 05:34:25.88	312.24	18.07	-54.6	-74.0	3.8	7.44e-01	0	33	104	0	77	34602
2026-01-02 05:34:26.87	312.00	18.01	-54.6	-74.0	3.8	7.45e-01	0	33	104	0	77	34534
2026-01-02 05:34:27.87	311.76	17.94	-54.6	-74.0	3.8	7.43e-01	0	33	104	0	77	34591
2026-01-02 05:34:28.87	311.52	17.88	-54.6	-74.0	3.8	7.50e-01	0	33	104	0	77	34560
2026-01-02 05:34:29.87	311.28	17.81	-54.6	-74.0	3.8	7.46e-01	0	33	104	0	77	34577
2026-01-02 05:34:30.87	311.05	17.75	-54.6	-74.0	3.8	7.47e-01	0	33	104	0	77	34633
2026-01-02 05:34:31.87	310.81	17.69	-54.6	-74.0	3.8	7.45e-01	0	33	104	0	77	34582
2026-01-02 05:34:32.87	310.58	17.62	-54.6	-74.0	3.8	7.48e-01	0	33	104	0	77	34594
2026-01-02 05:34:33.87	310.34	17.55	-54.6	-74.0	3.8	7.45e-01	0	33	104	0	77	34596
2026-01-02 05:34:34.86	310.11	17.49	-54.6	-74.0	3.8	7.48e-01	0	33	104	0	77	34653
2026-01-02 05:34:35.86	309.88	17.42	-54.6	-74.0	3.8	7.47e-01	0	33	104	0	77	34614
2026-01-02 05:34:36.86	309.65	17.36	-54.6	-74.0	3.8	7.45e-01	0	33	104	0	77	34565
2026-01-02 05:34:37.85	309.42	17.29	-54.6	-74.0	3.8	7.47e-01	0	33	104	0	77	34614
2026-01-02 05:34:38.84	309.20	17.23	-54.6	-74.0	3.8	7.49e-01	0	33	104	0	77	34582
2026-01-02 05:34:39.83	308.97	17.16	-54.6	-74.0	3.8	7.46e-01	0	33	104	0	77	34626
2026-01-02 05:34:40.83	308.75	17.09	-54.6	-74.0	3.8	7.48e-01	0	33	104	0	77	34615
2026-01-02 05:34:41.83	308.52	17.03	-54.6	-74.0	3.8	7.45e-01	0	33	104	0	77	34555
2026-01-02 05:34:42.83	308.30	16.96	-54.6	-74.0	3.8	7.44e-01	0	33	104	0	77	34674
2026-01-02 05:34:43.83	308.07	16.89	-54.6	-74.0	3.8	7.49e-01	0	33	104	0	77	34665
2026-01-02 05:34:44.82	307.85	16.82	-54.6	-74.0	3.8	7.45e-01	0	33	104	0	77	34514
2026-01-02 05:34:45.81	307.64	16.76	-54.6	-74.0	3.8	7.46e-01	0	33	104	0	77	34597
2026-01-02 05:34:46.81	307.42	16.69	-54.6	-74.0	3.8	7.45e-01	0	33	104	0	77	34574
2026-01-02 05:34:47.81	307.20	16.62	-54.6	-74.0	3.8	7.46e-01	0	33	104	0	77	34671
2026-01-02 05:34:48.81	306.98	16.55	-54.6	-74.0	3.8	7.45e-01	0	33	104	0	77	34590
2026-01-02 05:34:49.81	306.76	16.48	-54.6	-74.0	3.8	7.50e-01	0	33	104	0	77	34555
2026-01-02 05:34:50.80	306.55	16.41	-54.6	-74.0	3.8	7.45e-01	0	32	104	0	77	34606
2026-01-02 05:34:51.79	306.34	16.34	-54.6	-74.0	3.8	7.45e-01	0	33	104	0	77	34628
2026-01-02 05:34:52.79	306.12	16.27	-54.6	-74.0	3.8	7.46e-01	0	32	104	0	77	34655
2026-01-02 05:34:53.79	305.91	16.21	-54.6	-74.0	3.8	7.47e-01	0	33	104	0	77	34661
2026-01-02 05:34:54.80	305.70	16.13	-54.6	-74.0	3.8	7.43e-01	0	32	104	0	77	34649
2026-01-02 05:34:55.79	305.49	16.07	-54.6	-74.0	3.8	7.46e-01	0	33	104	0	77	34555
2026-01-02 05:34:56.80	305.28	15.99	-54.6	-74.0	3.8	7.45e-01	0	33	104	0	77	34601
2026-01-02 05:34:57.80	305.07	15.92	-54.6	-74.0	3.8	7.45e-01	0	33	104	0	77	34661
2026-01-02 05:34:58.80	304.86	15.85	-54.6	-74.0	3.8	7.48e-01	0	32	104	0	77	34585
2026-01-02 05:34:59.80	304.66	15.78	-54.6	-74.0	3.8	7.46e-01	0	32	104	0	77	34602
2026-01-02 05:35:00.81	304.45	15.71	-54.6	-74.0	3.8	7.52e-01	0	33	104	0	77	34672
2026-01-02 05:35:01.81	304.25	15.64	-54.6	-74.0	3.8	7.45e-01	0	33	104	0	77	34588
2026-01-02 05:35:02.81	304.05	15.57	-54.6	-74.0	3.8	7.44e-01	0	33	104	0	77	34622
2026-01-02 05:35:03.81	303.84	15.50	-54.6	-74.0	3.8	7.46e-01	0	33	104	0	77	34615
2026-01-02 05:35:04.82	303.64	15.43	-54.6	-74.0	3.8	7.47e-01	0	33	104	0	77	34672
2026-01-02 05:35:05.82	303.44	15.36	-54.5	-74.0	3.8	7.44e-01	0	33	104	0	77	34583
2026-01-02 05:35:06.81	303.24	15.29	-54.6	-74.0	3.8	7.48e-01	0	33	104	0	77	34625
2026-01-02 05:35:07.81	303.05	15.21	-54.6	-74.0	3.8	7.48e-01	0	33	104	0	77	34645
2026-01-02 05:35:08.81	302.85	15.14	-54.6	-74.0	3.8	7.42e-01	0	33	104	0	77	34561
2026-01-02 05:35:09.81	302.65	15.07	-54.6	-74.0	3.8	7.46e-01	0	33	104	0	77	34624
2026-01-02 05:35:10.81	302.46	15.00	-54.6	-74.0	3.8	7.47e-01	0	33	104	0	77	34554
2026-01-02 05:35:11.81	302.27	14.93	-54.6	-74.0	3.8	7.44e-01	0	33	104	0	77	34560
2026-01-02 05:35:12.80	302.08	14.86	-54.6	-74.0	3.9	7.46e-01	0	33	104	0	77	34598
2026-01-02 05:35:13.80	301.88	14.78	-54.6	-74.0	3.8	7.47e-01	0	33	104	0	77	34623
2026-01-02 05:35:14.80	301.69	14.71	-54.6	-74.0	3.8	7.44e-01	0	33	104	0	77	34560
2026-01-02 05:35:15.79	301.51	14.64	-54.6	-74.0	3.8	7.42e-01	0	33	104	0	77	34539
2026-01-02 05:35:16.79	301.32	14.57	-54.6	-74.0	3.8	7.45e-01	0	33	104	0	77	34600
2026-01-02 05:35:17.79	301.13	14.50	-54.6	-74.0	3.8	7.45e-01	0	33	104	0	77	34623
2026-01-02 05:35:18.79	300.94	14.42	-54.6	-74.0	3.8	7.50e-01	0	33	104	0	77	34626
2026-01-02 05:35:19.79	300.76	14.35	-54.6	-74.0	3.8	7.45e-01	0	33	104	0	77	34654
2026-01-02 05:35:20.79	300.57	14.28	-54.6	-74.0	3.8	7.41e-01	0	33	104	0	77	34603
2026-01-02 05:35:21.79	300.39	14.21	-54.6	-74.0	3.8	7.43e-01	0	33	104	0	77	34583
2026-01-02 05:35:22.79	300.21	14.13	-54.6	-74.0	3.8	7.46e-01	0	33	104	0	77	34572
2026-01-02 05:35:23.79	300.02	14.06	-54.6	-74.0	3.8	7.45e-01	0	32	104	0	77	34602
2026-01-02 05:35:24.79	299.84	13.99	-54.6	-74.0	3.8	7.45e-01	0	33	104	0	77	34599
2026-01-02 05:35:25.79	299.66	13.92	-54.6	-74.0	3.8	7.48e-01	0	33	104	0	77	34593
2026-01-02 05:35:26.78	299.49	13.85	-54.6	-74.0	3.8	7.45e-01	0	33	104	0	77	34685
2026-01-02 05:35:27.78	299.31	13.77	-54.6	-74.0	3.8	7.46e-01	0	33	104	0	77	34561
2026-01-02 05:35:28.78	299.13	13.70	-54.6	-74.0	3.8	7.46e-01	0	32	104	0	77	34639
2026-01-02 05:35:29.78	298.95	13.63	-54.6	-74.0	3.8	7.44e-01	0	33	104	0	77	34609
2026-01-02 05:35:30.79	298.78	13.55	-54.6	-74.0	3.8	7.46e-01	0	33	104	0	77	34549
2026-01-02 05:35:31.79	298.60	13.48	-54.6	-74.0	3.8	7.44e-01	0	33	104	0	77	34590
2026-01-02 05:35:32.79	298.43	13.41	-54.6	-74.0	3.8	7.47e-01	0	33	104	0	77	34687
2026-01-02 05:35:33.79	298.26	13.34	-54.6	-74.0	3.8	7.43e-01	0	33	104	0	77	34602
2026-01-02 05:35:34.79	298.09	13.26	-54.6	-74.0	3.8	7.45e-01	0	33	104	0	77	34533
2026-01-02 05:35:35.79	297.92	13.19	-54.6	-74.0	3.8	7.47e-01	0	33	104	0	77	34529
2026-01-02 05:35:36.79	297.75	13.12	-54.6	-74.0	3.8	7.47e-01	0	33	104	0	77	34596
2026-01-02 05:35:37.79	297.58	13.05	-54.6	-74.0	3.8	7.48e-01	0	33	104	0	77	34605
2026-01-02 05:35:38.79	297.41	12.97	-54.6	-74.0	3.8	7.44e-01	0	33	104	0	77	34642
2026-01-02 05:35:39.78	297.24	12.90	-54.6	-74.0	3.8	7.46e-01	0	33	104	0	77	34657
2026-01-02 05:35:40.78	297.08	12.83	-54.6	-74.0	3.8	7.45e-01	0	33	104	0	77	34582
2026-01-02 05:35:41.78	296.91	12.76	-54.6	-74.0	3.8	7.47e-01	0	33	104	0	77	34510
2026-01-02 05:35:42.78	296.75	12.68	-54.6	-74.0	3.8	7.40e-01	0	33	104	0	77	34598
2026-01-02 05:35:43.78	296.59	12.61	-54.6	-74.0	3.8	7.44e-01	0	33	104	0	77	34565
2026-01-02 05:35:44.77	296.42	12.54	-54.6	-74.0	3.8	7.45e-01	0	33	104	0	77	34586
2026-01-02 05:35:45.77	296.26	12.47	-54.6	-74.0	3.8	7.47e-01	0	33	104	0	77	34586
2026-01-02 05:35:46.77	296.10	12.39	-54.6	-74.0	3.8	7.47e-01	0	33	104	0	77	34624
2026-01-02 05:35:47.77	295.94	12.32	-54.6	-74.0	3.8	7.45e-01	0	33	104	0	77	34580
2026-01-02 05:35:48.76	295.79	12.25	-54.6	-74.0	3.8	7.46e-01	0	33	104	0	77	34621
2026-01-02 05:35:49.76	295.63	12.18	-54.6	-74.0	3.8	7.47e-01	0	32	104	0	77	34679
2026-01-02 05:35:50.76	295.47	12.10	-54.6	-74.0	3.8	7.43e-01	0	33	104	0	77	34658
2026-01-02 05:35:51.77	295.31	12.03	-54.6	-74.0	3.8	7.47e-01	0	33	104	0	77	34636
2026-01-02 05:35:52.77	295.16	11.96	-54.6	-74.0	3.8	7.44e-01	0	33	104	0	77	34571
2026-01-02 05:35:53.78	295.00	11.89	-54.6	-74.0	3.8	7.45e-01	0	32	104	0	77	34620
2026-01-02 05:35:54.78	294.85	11.81	-54.6	-74.0	3.8	7.44e-01	0	33	104	0	77	34591
2026-01-02 05:35:55.78	294.69	11.74	-54.6	-74.0	3.8	7.45e-01	0	33	104	0	77	34592
2026-01-02 05:35:56.78	294.54	11.67	-54.6	-74.0	3.8	7.46e-01	0	32	104	0	77	34606
2026-01-02 05:35:57.78	294.39	11.60	-54.6	-74.0	3.8	7.46e-01	0	33	104	0	77	34528
2026-01-02 05:35:58.79	294.24	11.52	-54.6	-74.0	3.8	7.45e-01	0	33	104	0	77	34613
2026-01-02 05:35:59.79	294.09	11.45	-54.7	-74.0	3.8	7.46e-01	0	33	104	0	77	34631
2026-01-02 05:36:00.79	293.94	11.38	-54.6	-74.0	3.8	7.48e-01	0	33	104	0	77	34580
2026-01-02 05:36:01.79	293.79	11.31	-54.6	-74.0	3.8	7.47e-01	0	32	104	0	77	34655
2026-01-02 05:36:02.79	293.64	11.24	-54.6	-74.0	3.8	7.46e-01	0	33	104	0	77	34695
2026-01-02 05:36:03.79	293.49	11.17	-54.6	-74.0	3.8	7.47e-01	0	33	104	0	77	34636
2026-01-02 05:36:04.80	293.35	11.09	-54.6	-74.0	3.8	7.45e-01	0	33	104	0	77	34592
2026-01-02 05:36:05.79	293.20	11.02	-54.6	-74.0	3.8	7.45e-01	0	33	104	0	77	34600
2026-01-02 05:36:06.79	293.06	10.95	-54.6	-74.0	3.8	7.46e-01	0	33	104	0	77	34608
2026-01-02 05:36:07.79	292.92	10.88	-54.6	-74.0	3.8	7.45e-01	0	33	104	0	77	34545
2026-01-02 05:36:08.78	292.77	10.81	-54.7	-74.0	3.8	7.47e-01	0	33	104	0	77	34644
2026-01-02 05:36:09.78	292.63	10.74	-54.6	-74.0	3.8	7.46e-01	0	33	104	0	77	34717
2026-01-02 05:36:10.78	292.49	10.67	-54.6	-74.0	3.8	7.44e-01	0	33	104	0	77	34621
2026-01-02 05:36:11.78	292.35	10.59	-54.6	-74.0	3.8	7.46e-01	0	33	104	0	77	34630
2026-01-02 05:36:12.78	292.21	10.52	-54.6	-74.0	3.8	7.48e-01	0	33	104	0	77	34650
2026-01-02 05:36:13.78	292.07	10.45	-54.6	-74.0	3.8	7.41e-01	0	33	104	0	77	34611
2026-01-02 05:36:14.77	291.93	10.38	-54.6	-74.0	3.8	7.46e-01	0	33	104	0	77	34554
2026-01-02 05:36:15.77	291.80	10.31	-54.6	-74.0	3.8	7.50e-01	0	33	104	0	77	34599
2026-01-02 05:36:16.77	291.66	10.24	-54.6	-74.0	3.8	7.45e-01	0	33	104	0	77	34577
2026-01-02 05:36:17.77	291.52	10.17	-54.6	-74.0	3.8	7.47e-01	0	33	104	0	77	34625
2026-01-02 05:36:18.77	291.39	10.10	-54.6	-74.0	3.8	7.41e-01	0	33	104	0	77	34654
2026-01-02 05:36:19.77	291.25	10.03	-54.6	-74.0	3.8	7.46e-01	0	33	104	0	77	34497
2026-01-02 05:36:20.77	291.12	9.96	-54.6	-74.0	3.8	7.47e-01	0	33	104	0	77	34625
2026-01-02 05:36:21.77	290.99	9.89	-54.6	-74.0	3.8	7.47e-01	0	33	104	0	77	34590
2026-01-02 05:36:22.76	290.85	9.82	-54.6	-74.0	3.8	7.45e-01	0	32	104	0	77	34632
2026-01-02 05:36:23.76	290.72	9.75	-54.6	-74.0	3.8	7.43e-01	0	32	104	0	77	34591
2026-01-02 05:36:24.75	290.59	9.68	-54.6	-74.0	3.8	7.53e-01	0	32	104	0	77	34615
2026-01-02 05:36:25.76	290.46	9.61	-54.6	-74.0	3.8	7.47e-01	0	33	104	0	77	34644
2026-01-02 05:36:26.76	290.33	9.54	-54.6	-74.0	3.8	7.47e-01	0	33	104	0	77	34633
2026-01-02 05:36:27.76	290.20	9.47	-54.6	-74.0	3.8	7.43e-01	0	32	104	0	77	34624
2026-01-02 05:36:28.76	290.07	9.40	-54.6	-74.0	3.8	7.46e-01	0	32	104	0	77	34613
2026-01-02 05:36:29.76	289.95	9.33	-54.6	-74.0	3.8	7.46e-01	0	32	104	0	77	34599
2026-01-02 05:36:30.76	289.82	9.26	-54.6	-74.0	3.8	7.45e-01	0	33	104	0	77	34594
2026-01-02 05:36:31.76	289.69	9.19	-54.6	-74.0	3.8	7.49e-01	0	33	104	0	77	34656
2026-01-02 05:36:32.76	289.57	9.12	-54.6	-74.0	3.8	7.41e-01	0	33	104	0	77	34502
2026-01-02 05:36:33.76	289.44	9.05	-54.6	-74.0	3.8	7.45e-01	0	32	104	0	77	34523
2026-01-02 05:36:34.75	289.32	8.98	-54.6	-74.0	3.8	7.46e-01	0	33	104	0	77	34561
2026-01-02 05:36:35.75	289.19	8.91	-54.6	-74.0	3.8	7.46e-01	0	32	104	0	77	34666
2026-01-02 05:36:36.75	289.07	8.84	-54.6	-74.0	3.8	7.46e-01	0	32	104	0	77	34635
2026-01-02 05:36:37.75	288.95	8.77	-54.6	-74.0	3.8	7.46e-01	0	33	104	0	77	34586
2026-01-02 05:36:38.74	288.83	8.70	-54.6	-74.0	3.8	7.46e-01	0	33	104	0	77	34589
2026-01-02 05:36:39.74	288.71	8.63	-54.6	-74.0	3.8	7.45e-01	0	33	104	0	77	34622
2026-01-02 05:36:40.74	288.59	8.57	-54.6	-74.0	3.8	7.51e-01	0	33	104	0	77	34673
2026-01-02 05:36:41.73	288.47	8.50	-54.6	-74.0	3.8	7.46e-01	0	33	104	0	77	34693
2026-01-02 05:36:42.73	288.35	8.43	-54.6	-74.0	3.8	7.47e-01	0	33	104	0	77	34563
2026-01-02 05:36:43.72	288.23	8.36	-54.6	-74.0	3.8	7.46e-01	0	33	104	0	77	34660
2026-01-02 05:36:44.72	288.11	8.29	-54.6	-74.0	3.8	7.47e-01	0	33	104	0	77	34563
2026-01-02 05:36:45.71	288.00	8.23	-54.6	-74.0	3.8	7.48e-01	0	33	104	0	77	34598
2026-01-02 05:36:46.72	287.88	8.16	-54.6	-74.0	3.8	7.52e-01	0	32	104	0	77	34655
2026-01-02 05:36:47.71	287.76	8.09	-54.6	-74.0	3.8	7.44e-01	0	33	104	0	77	34575
2026-01-02 05:36:48.71	287.65	8.02	-54.6	-74.0	3.8	7.44e-01	0	32	104	0	77	34623
2026-01-02 05:36:49.71	287.53	7.95	-54.6	-74.0	3.8	7.50e-01	0	32	104	0	77	34624
2026-01-02 05:36:50.71	287.42	7.89	-54.6	-74.0	3.8	7.44e-01	0	32	104	0	77	34605
2026-01-02 05:36:51.70	287.31	7.82	-54.6	-74.0	3.8	7.47e-01	0	33	104	0	77	34588
2026-01-02 05:36:52.70	287.19	7.75	-54.6	-74.0	3.8	7.45e-01	0	33	104	0	77	34622
2026-01-02 05:36:53.70	287.08	7.68	-54.6	-74.0	3.8	7.46e-01	0	32	104	0	77	34632
2026-01-02 05:36:54.70	286.97	7.62	-54.6	-74.0	3.8	7.48e-01	0	33	104	0	77	34677
2026-01-02 05:36:55.70	286.86	7.55	-54.6	-74.0	3.8	7.45e-01	0	32	104	0	77	34638
2026-01-02 05:36:56.70	286.75	7.48	-54.6	-74.0	3.8	7.47e-01	0	32	104	0	77	34635
2026-01-02 05:36:57.71	286.63	7.41	-54.6	-74.0	3.8	7.46e-01	0	33	104	0	77	34603
2026-01-02 05:36:58.71	286.52	7.35	-54.6	-74.0	3.8	7.45e-01	0	32	104	0	77	34548
2026-01-02 05:36:59.72	286.41	7.28	-54.6	-74.0	3.8	7.46e-01	0	33	104	0	77	34594
2026-01-02 05:37:00.71	286.31	7.21	-54.6	-74.0	3.8	7.45e-01	0	33	104	0	77	34623
2026-01-02 05:37:01.71	286.20	7.15	-54.6	-74.0	3.8	7.45e-01	0	32	104	0	77	34617
2026-01-02 05:37:02.71	286.09	7.08	-54.6	-74.0	3.8	7.46e-01	0	32	104	0	77	34599
2026-01-02 05:37:03.71	285.98	7.01	-54.6	-74.0	3.8	7.47e-01	0	32	104	0	77	34631
2026-01-02 05:37:04.72	285.88	6.95	-54.6	-74.0	3.8	7.47e-01	0	33	104	0	77	34635
2026-01-02 05:37:05.72	285.77	6.88	-54.6	-74.0	3.8	7.42e-01	0	33	104	0	77	34587
2026-01-02 05:37:06.71	285.67	6.81	-54.6	-74.0	3.8	7.49e-01	0	33	104	0	77	34563
2026-01-02 05:37:07.71	285.56	6.75	-54.6	-74.0	3.8	7.45e-01	0	32	104	0	77	34646
2026-01-02 05:37:08.71	285.46	6.68	-54.6	-74.0	3.8	7.47e-01	0	33	104	0	77	34509
2026-01-02 05:37:09.71	285.35	6.62	-54.7	-74.0	3.8	7.46e-01	0	33	104	0	77	34613
2026-01-02 05:37:10.71	285.25	6.55	-54.6	-74.0	3.8	7.45e-01	0	33	104	0	77	34639
2026-01-02 05:37:11.72	285.15	6.48	-54.7	-74.0	3.8	7.43e-01	0	32	104	0	77	34544
2026-01-02 05:37:12.72	285.04	6.42	-54.6	-74.0	3.8	7.48e-01	0	32	104	0	77	34641
2026-01-02 05:37:13.72	284.94	6.35	-54.6	-74.0	3.8	7.45e-01	0	33	104	0	77	34603
2026-01-02 05:37:14.72	284.84	6.29	-54.6	-74.0	3.8	7.48e-01	0	33	104	0	77	34648
2026-01-02 05:37:15.72	284.74	6.22	-54.6	-74.0	3.8	7.46e-01	0	33	104	0	77	34600
2026-01-02 05:37:16.72	284.64	6.16	-54.6	-74.0	3.8	7.44e-01	0	32	104	0	77	34541
2026-01-02 05:37:17.72	284.54	6.09	-54.6	-74.0	3.8	7.48e-01	0	33	104	0	77	34633
2026-01-02 05:37:18.72	284.44	6.03	-54.6	-74.0	3.8	7.47e-01	0	32	104	0	77	34606
2026-01-02 05:37:19.73	284.34	5.96	-54.6	-74.0	3.8	7.49e-01	0	32	104	0	77	34633
2026-01-02 05:37:20.72	284.24	5.90	-54.6	-74.0	3.8	7.44e-01	0	32	104	0	77	34633
2026-01-02 05:37:21.73	284.14	5.83	-54.6	-74.0	3.8	7.45e-01	0	33	104	0	77	34685
2026-01-02 05:37:22.73	284.05	5.77	-54.6	-74.0	3.8	7.44e-01	0	33	104	0	77	34643
2026-01-02 05:37:23.73	283.95	5.70	-54.6	-74.0	3.8	7.44e-01	0	33	104	0	77	34601
2026-01-02 05:37:24.73	283.85	5.64	-54.6	-74.0	3.8	7.45e-01	0	33	104	0	77	34584
2026-01-02 05:37:25.73	283.76	5.57	-54.6	-74.0	3.8	7.44e-01	0	33	104	0	77	34617
2026-01-02 05:37:26.72	283.66	5.51	-54.6	-74.0	3.8	7.46e-01	0	33	104	0	77	34642
2026-01-02 05:37:27.72	283.57	5.45	-54.6	-74.0	3.8	7.46e-01	0	33	104	0	77	34621
2026-01-02 05:37:28.72	283.48	5.38	-54.6	-74.0	3.8	7.46e-01	0	32	104	0	77	34597
2026-01-02 05:37:29.72	283.38	5.32	-54.6	-74.0	3.8	7.45e-01	0	32	104	0	77	34507
2026-01-02 05:37:30.72	283.29	5.25	-54.6	-74.0	3.8	7.46e-01	0	32	104	0	77	34618
2026-01-02 05:37:31.72	283.19	5.19	-54.6	-74.0	3.8	7.44e-01	0	33	104	0	77	34574
2026-01-02 05:37:32.72	283.10	5.13	-54.6	-74.0	3.8	7.46e-01	0	33	104	0	77	34562
2026-01-02 05:37:33.71	283.01	5.06	-54.6	-74.0	3.8	7.45e-01	0	33	104	0	77	34627
2026-01-02 05:37:34.72	282.92	5.00	-54.6	-74.0	3.8	7.50e-01	0	33	104	0	77	34631
2026-01-02 05:37:35.72	282.83	4.94	-54.6	-74.0	3.8	7.46e-01	0	33	104	0	77	34657
2026-01-02 05:37:36.71	282.74	4.87	-54.6	-74.0	3.9	7.46e-01	0	33	104	0	77	34621
2026-01-02 05:37:37.71	282.65	4.81	-54.6	-74.0	3.8	7.47e-01	0	33	104	0	77	34657
2026-01-02 05:37:38.71	282.56	4.75	-54.6	-74.0	3.8	7.47e-01	0	33	104	0	77	34574
2026-01-02 05:37:39.72	282.47	4.69	-54.6	-74.0	3.8	7.47e-01	0	32	104	0	77	34615
2026-01-02 05:37:40.72	282.38	4.62	-54.6	-74.0	3.8	7.47e-01	0	32	104	0	77	34650
2026-01-02 05:37:41.72	282.29	4.56	-54.6	-74.0	3.8	7.45e-01	0	33	104	0	77	34578
2026-01-02 05:37:42.71	282.20	4.50	-54.6	-74.0	3.8	7.46e-01	0	32	104	0	77	34606
2026-01-02 05:37:43.71	282.11	4.44	-54.6	-74.0	3.8	7.47e-01	0	32	104	0	77	34578
2026-01-02 05:37:44.70	282.03	4.37	-54.6	-74.0	3.8	7.45e-01	0	32	104	0	77	34616
2026-01-02 05:37:45.70	281.94	4.31	-54.6	-74.0	3.8	7.46e-01	0	32	104	0	77	34551
2026-01-02 05:37:46.70	281.85	4.25	-54.6	-74.0	3.8	7.46e-01	0	33	104	0	77	34563
2026-01-02 05:37:47.70	281.77	4.19	-54.6	-74.0	3.8	7.48e-01	0	33	104	0	77	34660
2026-01-02 05:37:48.70	281.68	4.13	-54.6	-74.0	3.8	7.47e-01	0	32	104	0	77	34578
2026-01-02 05:37:49.69	281.60	4.06	-54.6	-74.0	3.8	7.48e-01	0	33	104	0	77	34595
2026-01-02 05:37:50.69	281.51	4.00	-54.6	-74.0	3.8	7.48e-01	0	33	104	0	77	34568
2026-01-02 05:37:51.69	281.43	3.94	-54.6	-74.0	3.8	7.45e-01	0	33	104	0	77	34574
2026-01-02 05:37:52.68	281.35	3.88	-54.6	-74.0	3.8	7.43e-01	0	32	104	0	77	34589
2026-01-02 05:37:53.68	281.26	3.82	-54.6	-74.0	3.8	7.48e-01	0	33	104	0	77	34634
2026-01-02 05:37:54.68	281.18	3.76	-54.6	-74.0	3.8	7.42e-01	0	32	104	0	77	34600
2026-01-02 05:37:55.67	281.10	3.70	-54.6	-74.0	3.8	7.47e-01	0	33	104	0	77	34629
2026-01-02 05:37:56.67	281.01	3.64	-54.6	-74.0	3.9	7.43e-01	0	33	104	0	77	34547
2026-01-02 05:37:57.66	280.93	3.58	-54.6	-74.0	3.8	7.47e-01	0	33	104	0	77	34539
2026-01-02 05:37:58.66	280.85	3.51	-54.6	-74.0	3.8	7.42e-01	0	33	104	0	77	34559
2026-01-02 05:37:59.65	280.77	3.45	-54.6	-74.0	3.8	7.45e-01	0	33	104	0	77	34536
2026-01-02 05:38:00.65	280.69	3.39	-54.6	-74.0	3.8	7.44e-01	0	33	104	0	77	34540
2026-01-02 05:38:01.65	280.61	3.33	-54.6	-74.0	3.8	7.45e-01	0	33	104	0	77	34536
2026-01-02 05:38:02.65	280.53	3.27	-54.6	-74.0	3.8	7.49e-01	0	32	104	0	77	34610
2026-01-02 05:38:03.65	280.45	3.21	-54.6	-74.0	3.8	7.45e-01	0	33	104	0	77	34565
2026-01-02 05:38:04.65	280.37	3.15	-54.6	-74.0	3.8	7.45e-01	0	32	104	0	77	34632
2026-01-02 05:38:05.64	280.29	3.09	-54.6	-74.0	3.8	7.46e-01	0	33	104	0	77	34601
2026-01-02 05:38:06.65	280.21	3.03	-54.6	-74.0	3.8	7.44e-01	0	32	104	0	77	34533
2026-01-02 05:38:07.65	280.13	2.97	-54.6	-74.0	3.8	7.47e-01	0	32	104	0	77	34628
2026-01-02 05:38:08.65	280.06	2.91	-54.6	-74.0	3.8	7.47e-01	0	33	104	0	77	34642
2026-01-02 05:38:09.65	279.98	2.85	-54.6	-74.0	3.8	7.43e-01	0	33	104	0	77	34482
2026-01-02 05:38:10.65	279.90	2.79	-54.6	-74.0	3.8	7.44e-01	0	33	104	0	77	34524
2026-01-02 05:38:11.66	279.82	2.73	-54.6	-74.0	3.8	7.49e-01	0	32	104	0	77	34618
2026-01-02 05:38:12.66	279.75	2.67	-54.6	-74.0	3.8	7.45e-01	0	33	104	0	77	34601
2026-01-02 05:38:13.66	279.67	2.61	-54.6	-74.0	3.8	7.47e-01	0	33	104	0	77	34562
2026-01-02 05:38:14.65	279.60	2.55	-54.6	-74.0	3.8	7.45e-01	0	33	104	0	77	34586
2026-01-02 05:38:15.65	279.52	2.49	-54.6	-74.0	3.8	7.49e-01	0	32	104	0	77	34583
2026-01-02 05:38:16.65	279.45	2.44	-54.6	-74.0	3.8	7.46e-01	0	33	104	0	77	34626
2026-01-02 05:38:17.65	279.37	2.38	-54.6	-74.0	3.8	7.45e-01	0	33	104	0	77	34574
2026-01-02 05:38:18.65	279.30	2.32	-54.6	-74.0	3.8	7.44e-01	0	33	104	0	77	34617
2026-01-02 05:38:19.65	279.22	2.26	-54.6	-74.0	3.8	7.51e-01	0	33	104	0	77	34553
2026-01-02 05:38:20.65	279.15	2.20	-54.6	-74.0	3.8	7.46e-01	0	33	104	0	77	34561
2026-01-02 05:38:21.65	279.08	2.14	-54.6	-74.0	3.8	7.47e-01	0	33	104	0	77	34672
2026-01-02 05:38:22.63	279.00	2.08	-54.6	-74.0	3.8	7.45e-01	0	32	104	0	77	34620
2026-01-02 05:38:23.63	278.93	2.02	-54.6	-74.0	3.8	7.45e-01	0	33	104	0	77	34589
2026-01-02 05:38:24.63	278.86	1.97	-54.6	-74.0	3.8	7.45e-01	0	33	104	0	77	34626
2026-01-02 05:38:25.63	278.79	1.91	-54.6	-74.0	3.8	7.45e-01	0	32	104	0	77	34596

#Closed at: 2026-01-02 05:38:26
#Recorded file [0 MB]: D:/lorett/data/31004_260102_082712.dat