passes_logs/2026/01/02/R3.2S_Murmansk/R3.2S_Murmansk__20260102_014019_KANOPUS-V_6_rec.log

#Pass ID: 20260102_014019_KANOPUS-V 6
#Satellite: KANOPUS-V 6
#Configuration: KANOPUS-V_8320
#almurnet v.1.7.20251203
#Start time: 2026-01-02 01:40:20

#Version: 2.2.20231116
#Station: R3.2S_Murmansk
#Location: 33.079688 lon 68.888172 lat
#TLE: 1 43877U 18111B   26001.20722580  .00026151  00000+0  76270-3 0  9995
#TLE: 2 43877  97.3771 277.3120 0002522 101.1090 259.0437 15.35332397389843

#Time	Az	El	Level	Level2	SNR	BER	BlckErr	Temp	State	Recorded	gain1	gain2
2026-01-02 01:40:20.02	26.99	2.00	-56.3	-66.1	3.8	7.45e-01	0	33	0	0	75	11957
2026-01-02 01:40:21.01	26.87	2.06	-56.4	-66.1	3.8	7.45e-01	0	33	104	0	77	10768
2026-01-02 01:40:22.01	26.76	2.12	-56.4	-66.2	3.8	7.44e-01	0	33	104	0	77	10815
2026-01-02 01:40:23.02	26.65	2.18	-56.4	-66.2	3.8	7.47e-01	0	33	104	0	77	10801
2026-01-02 01:40:24.01	26.53	2.23	-56.4	-66.2	3.8	7.46e-01	0	34	104	0	77	10788
2026-01-02 01:40:25.02	26.42	2.29	-56.4	-66.2	3.8	7.45e-01	0	34	104	0	77	10823
2026-01-02 01:40:26.02	26.30	2.35	-56.4	-66.2	3.8	7.44e-01	0	34	104	0	77	10823
2026-01-02 01:40:27.02	26.18	2.41	-56.4	-66.2	3.8	7.45e-01	0	34	104	0	77	10811
2026-01-02 01:40:28.02	26.07	2.47	-56.4	-66.2	3.8	7.46e-01	0	33	104	0	77	10804
2026-01-02 01:40:29.02	25.95	2.52	-56.4	-66.2	3.8	7.48e-01	0	33	104	0	77	10796
2026-01-02 01:40:30.02	25.83	2.58	-56.4	-66.2	3.8	7.44e-01	0	33	104	0	77	10792
2026-01-02 01:40:31.03	25.71	2.64	-56.4	-66.2	3.8	7.45e-01	0	33	104	0	77	10801
2026-01-02 01:40:32.03	25.59	2.70	-56.4	-66.2	3.8	7.45e-01	0	33	104	0	77	10829
2026-01-02 01:40:33.03	25.47	2.76	-56.4	-66.2	3.8	7.45e-01	0	33	104	0	77	10844
2026-01-02 01:40:34.04	25.35	2.82	-56.4	-66.2	3.8	7.48e-01	0	33	104	0	77	10790
2026-01-02 01:40:35.04	25.23	2.88	-56.4	-66.2	3.8	7.45e-01	0	33	104	0	77	10818
2026-01-02 01:40:36.04	25.11	2.93	-56.4	-66.2	3.8	7.46e-01	0	33	104	0	77	10797
2026-01-02 01:40:37.04	24.98	2.99	-56.4	-66.2	3.8	7.45e-01	0	33	104	0	77	10822
2026-01-02 01:40:38.04	24.86	3.05	-56.4	-66.2	3.8	7.44e-01	0	34	104	0	77	10794
2026-01-02 01:40:39.03	24.74	3.11	-56.4	-66.2	3.8	7.45e-01	0	34	104	0	77	10828
2026-01-02 01:40:40.03	24.61	3.17	-56.4	-66.2	3.8	7.45e-01	0	34	104	0	77	10807
2026-01-02 01:40:41.03	24.49	3.23	-56.4	-66.2	3.8	7.46e-01	0	34	104	0	77	10821
2026-01-02 01:40:42.03	24.36	3.29	-56.4	-66.1	3.8	7.45e-01	0	34	104	0	77	10774
2026-01-02 01:40:43.03	24.23	3.35	-56.4	-66.2	3.8	7.47e-01	0	33	104	0	77	10796
2026-01-02 01:40:44.04	24.10	3.41	-56.4	-66.2	3.8	7.46e-01	0	33	104	0	77	10820
2026-01-02 01:40:45.04	23.98	3.46	-56.4	-66.2	3.8	7.46e-01	0	34	104	0	77	10825
2026-01-02 01:40:46.04	23.85	3.52	-56.4	-66.1	3.8	7.45e-01	0	33	104	0	77	10775
2026-01-02 01:40:47.04	23.72	3.58	-56.4	-66.2	3.8	7.46e-01	0	33	104	0	77	10845
2026-01-02 01:40:48.04	23.59	3.64	-56.4	-66.2	3.8	7.44e-01	0	33	104	0	77	10825
2026-01-02 01:40:49.05	23.45	3.70	-56.4	-66.2	3.8	7.47e-01	0	33	104	0	77	10800
2026-01-02 01:40:50.05	23.32	3.76	-56.4	-66.2	3.8	7.45e-01	0	33	104	0	77	10781
2026-01-02 01:40:51.05	23.19	3.82	-56.4	-66.2	3.8	7.46e-01	0	33	104	0	77	10800
2026-01-02 01:40:52.06	23.06	3.88	-56.4	-66.1	3.8	7.45e-01	0	33	104	0	77	10770
2026-01-02 01:40:53.06	22.92	3.94	-56.4	-66.2	3.8	7.46e-01	0	34	104	0	77	10838
2026-01-02 01:40:54.06	22.79	4.00	-56.4	-66.2	3.8	7.45e-01	0	33	104	0	77	10822
2026-01-02 01:40:55.06	22.65	4.06	-56.4	-66.2	3.8	7.45e-01	0	33	104	0	77	10779
2026-01-02 01:40:56.06	22.51	4.12	-56.4	-66.2	3.8	7.45e-01	0	33	104	0	77	10803
2026-01-02 01:40:57.06	22.38	4.18	-56.4	-66.2	3.8	7.46e-01	0	33	104	0	77	10785
2026-01-02 01:40:58.07	22.24	4.24	-56.4	-66.2	3.8	7.43e-01	0	33	104	0	77	10817
2026-01-02 01:40:59.07	22.10	4.30	-56.4	-66.2	3.8	7.44e-01	0	34	104	0	77	10840
2026-01-02 01:41:00.07	21.96	4.36	-56.4	-66.2	3.8	7.46e-01	0	33	104	0	77	10818
2026-01-02 01:41:01.07	21.82	4.42	-56.4	-66.1	3.8	7.45e-01	0	34	104	0	77	10778
2026-01-02 01:41:02.07	21.68	4.48	-56.4	-66.1	3.8	7.45e-01	0	34	104	0	77	10775
2026-01-02 01:41:03.07	21.54	4.54	-56.4	-66.2	3.8	7.45e-01	0	34	104	0	77	10793
2026-01-02 01:41:04.06	21.39	4.60	-56.4	-66.1	3.8	7.48e-01	0	33	104	0	77	10764
2026-01-02 01:41:05.07	21.25	4.67	-56.4	-66.2	3.8	7.46e-01	0	33	104	0	77	10783
2026-01-02 01:41:06.07	21.11	4.73	-56.4	-66.2	3.8	7.44e-01	0	33	104	0	77	10781
2026-01-02 01:41:07.06	20.96	4.79	-56.4	-66.2	3.8	7.47e-01	0	34	104	0	77	10797
2026-01-02 01:41:08.06	20.82	4.85	-56.4	-66.2	3.8	7.44e-01	0	33	104	0	77	10783
2026-01-02 01:41:09.05	20.67	4.91	-56.4	-66.2	3.8	7.46e-01	0	34	104	0	77	10814
2026-01-02 01:41:10.06	20.52	4.97	-56.4	-66.2	3.8	7.46e-01	0	33	104	0	77	10824
2026-01-02 01:41:11.05	20.37	5.03	-56.4	-66.2	3.8	7.45e-01	0	33	104	0	77	10822
2026-01-02 01:41:12.04	20.23	5.09	-56.4	-66.1	3.8	7.46e-01	0	33	104	0	77	10770
2026-01-02 01:41:13.05	20.08	5.15	-56.4	-66.2	3.8	7.45e-01	0	33	104	0	77	10782
2026-01-02 01:41:14.05	19.92	5.21	-56.4	-66.1	3.8	7.45e-01	0	33	104	0	77	10773
2026-01-02 01:41:15.04	19.77	5.27	-56.4	-66.1	3.8	7.47e-01	0	33	104	0	77	10768
2026-01-02 01:41:16.04	19.62	5.33	-56.4	-66.1	3.8	7.45e-01	0	34	104	0	77	10771
2026-01-02 01:41:17.04	19.47	5.39	-56.4	-66.2	3.8	7.45e-01	0	34	104	0	77	10813
2026-01-02 01:41:18.03	19.32	5.45	-56.4	-66.2	3.8	7.45e-01	0	33	104	0	77	10796
2026-01-02 01:41:19.03	19.16	5.52	-56.4	-66.1	3.8	7.43e-01	0	34	104	0	77	10777
2026-01-02 01:41:20.04	19.00	5.58	-56.4	-66.2	3.8	7.46e-01	0	34	104	0	77	10839
2026-01-02 01:41:21.05	18.84	5.64	-56.4	-66.2	3.8	7.45e-01	0	33	104	0	77	10804
2026-01-02 01:41:22.05	18.69	5.70	-56.4	-66.2	3.8	7.45e-01	0	34	104	0	77	10800
2026-01-02 01:41:23.05	18.53	5.76	-56.4	-66.2	3.8	7.45e-01	0	33	104	0	77	10805
2026-01-02 01:41:24.05	18.37	5.82	-56.4	-66.2	3.8	7.46e-01	0	34	104	0	77	10813
2026-01-02 01:41:25.05	18.21	5.89	-56.4	-66.1	3.8	7.45e-01	0	34	104	0	77	10774
2026-01-02 01:41:26.05	18.05	5.95	-56.4	-66.2	3.8	7.46e-01	0	34	104	0	77	10794
2026-01-02 01:41:27.06	17.88	6.01	-56.4	-66.2	3.8	7.44e-01	0	34	104	0	77	10791
2026-01-02 01:41:28.06	17.72	6.07	-56.4	-66.2	3.8	7.44e-01	0	34	104	0	77	10795
2026-01-02 01:41:29.06	17.55	6.13	-56.4	-66.2	3.8	7.46e-01	0	33	104	0	77	10819
2026-01-02 01:41:30.06	17.39	6.19	-56.4	-66.2	3.8	7.46e-01	0	33	104	0	77	10820
2026-01-02 01:41:31.06	17.22	6.26	-56.4	-66.2	3.8	7.45e-01	0	33	104	0	77	10780
2026-01-02 01:41:32.06	17.06	6.32	-56.4	-66.2	3.8	7.45e-01	0	34	104	0	77	10798
2026-01-02 01:41:33.06	16.89	6.38	-56.4	-66.2	3.8	7.46e-01	0	34	104	0	77	10799
2026-01-02 01:41:34.06	16.72	6.44	-56.4	-66.2	3.8	7.45e-01	0	33	104	0	77	10796
2026-01-02 01:41:35.05	16.55	6.50	-56.4	-66.2	3.8	7.46e-01	0	34	104	0	77	10815
2026-01-02 01:41:36.05	16.38	6.56	-56.4	-66.2	3.8	7.45e-01	0	33	104	0	77	10796
2026-01-02 01:41:37.05	16.21	6.62	-56.4	-66.2	3.8	7.46e-01	0	34	104	0	77	10784
2026-01-02 01:41:38.05	16.03	6.69	-56.4	-66.2	3.8	7.45e-01	0	34	104	0	77	10795
2026-01-02 01:41:39.05	15.86	6.75	-56.4	-66.1	3.8	7.47e-01	0	33	104	0	77	10777
2026-01-02 01:41:40.05	15.69	6.81	-56.4	-66.1	3.8	7.46e-01	0	34	104	0	77	10777
2026-01-02 01:41:41.04	15.51	6.87	-56.4	-66.2	3.8	7.44e-01	0	34	104	0	77	10787
2026-01-02 01:41:42.04	15.34	6.93	-56.4	-66.2	3.8	7.46e-01	0	34	104	0	77	10836
2026-01-02 01:41:43.04	15.16	6.99	-56.4	-66.2	3.8	7.46e-01	0	34	104	0	77	10802
2026-01-02 01:41:44.04	14.98	7.06	-56.4	-66.2	3.8	7.44e-01	0	34	104	0	77	10807
2026-01-02 01:41:45.04	14.80	7.12	-56.4	-66.1	3.8	7.45e-01	0	34	104	0	77	10774
2026-01-02 01:41:46.04	14.62	7.18	-56.4	-66.1	3.8	7.46e-01	0	34	104	0	77	10774
2026-01-02 01:41:47.04	14.44	7.24	-56.4	-66.1	3.8	7.47e-01	0	33	104	0	77	10757
2026-01-02 01:41:48.04	14.25	7.30	-56.4	-66.2	3.8	7.45e-01	0	34	104	0	77	10823
2026-01-02 01:41:49.04	14.07	7.36	-56.4	-66.2	3.8	7.45e-01	0	33	104	0	77	10804
2026-01-02 01:41:50.04	13.89	7.43	-56.4	-66.1	3.8	7.45e-01	0	34	104	0	77	10775
2026-01-02 01:41:51.05	13.70	7.49	-56.4	-66.2	3.8	7.45e-01	0	34	104	0	77	10811
2026-01-02 01:41:52.06	13.51	7.55	-56.4	-66.2	3.8	7.44e-01	0	33	104	0	77	10822
2026-01-02 01:41:53.06	13.32	7.61	-56.4	-66.2	3.8	7.46e-01	0	34	104	0	77	10789
2026-01-02 01:41:54.06	13.13	7.67	-56.4	-66.2	3.8	7.45e-01	0	34	104	0	77	10781
2026-01-02 01:41:55.05	12.94	7.73	-56.4	-66.2	3.8	7.46e-01	0	34	104	0	77	10823
2026-01-02 01:41:56.05	12.75	7.80	-56.4	-66.2	3.8	7.46e-01	0	34	104	0	77	10794
2026-01-02 01:41:57.05	12.56	7.86	-56.4	-66.2	3.8	7.45e-01	0	33	104	0	77	10807
2026-01-02 01:41:58.05	12.37	7.92	-56.4	-66.1	3.8	7.45e-01	0	34	104	0	77	10751
2026-01-02 01:41:59.05	12.17	7.98	-56.4	-66.2	3.8	7.47e-01	0	34	104	0	77	10803
2026-01-02 01:42:00.05	11.98	8.04	-56.4	-66.2	3.8	7.45e-01	0	34	104	0	77	10795
2026-01-02 01:42:01.05	11.78	8.10	-56.4	-66.1	3.8	7.46e-01	0	34	104	0	77	10753
2026-01-02 01:42:02.05	11.58	8.16	-56.4	-66.1	3.8	7.46e-01	0	34	104	0	77	10778
2026-01-02 01:42:03.05	11.38	8.23	-56.4	-66.2	3.8	7.47e-01	0	34	104	0	77	10780
2026-01-02 01:42:04.05	11.18	8.29	-56.4	-66.2	3.8	7.45e-01	0	34	104	0	77	10802
2026-01-02 01:42:05.05	10.98	8.35	-56.4	-66.1	3.8	7.46e-01	0	34	104	0	77	10772
2026-01-02 01:42:06.05	10.78	8.41	-56.4	-66.2	3.8	7.44e-01	0	34	104	0	77	10785
2026-01-02 01:42:07.05	10.58	8.47	-56.4	-66.1	3.8	7.46e-01	0	34	104	0	77	10774
2026-01-02 01:42:08.05	10.37	8.53	-56.4	-66.1	3.8	7.45e-01	0	34	104	0	77	10778
2026-01-02 01:42:09.06	10.17	8.59	-56.4	-66.1	3.8	7.46e-01	0	34	104	0	77	10741
2026-01-02 01:42:10.06	9.96	8.65	-56.4	-66.1	3.8	7.45e-01	0	34	104	0	77	10764
2026-01-02 01:42:11.05	9.76	8.71	-56.4	-66.2	3.8	7.46e-01	0	34	104	0	77	10848
2026-01-02 01:42:12.05	9.55	8.77	-56.4	-66.1	3.8	7.45e-01	0	34	104	0	77	10768
2026-01-02 01:42:13.05	9.34	8.83	-56.4	-66.1	3.8	7.44e-01	0	34	104	0	77	10742
2026-01-02 01:42:14.04	9.13	8.89	-56.4	-66.1	3.8	7.45e-01	0	34	104	0	77	10768
2026-01-02 01:42:15.04	8.92	8.95	-56.4	-66.1	3.8	7.46e-01	0	34	104	0	77	10768
2026-01-02 01:42:16.04	8.70	9.01	-56.4	-66.1	3.8	7.43e-01	0	34	104	0	77	10773
2026-01-02 01:42:17.04	8.49	9.07	-56.4	-66.1	3.8	7.47e-01	0	34	104	0	77	10763
2026-01-02 01:42:18.04	8.27	9.13	-56.4	-66.2	3.8	7.46e-01	0	33	104	0	77	10782
2026-01-02 01:42:19.03	8.06	9.19	-56.4	-66.2	3.8	7.44e-01	0	34	104	0	77	10779
2026-01-02 01:42:20.03	7.84	9.25	-56.4	-66.1	3.8	7.45e-01	0	34	104	0	77	10752
2026-01-02 01:42:21.03	7.62	9.31	-56.4	-66.2	3.8	7.47e-01	0	34	104	0	77	10788
2026-01-02 01:42:22.03	7.40	9.37	-56.4	-66.1	3.8	7.46e-01	0	34	104	0	77	10770
2026-01-02 01:42:23.04	7.18	9.43	-56.4	-66.2	3.8	7.46e-01	0	34	104	0	77	10784
2026-01-02 01:42:24.04	6.96	9.49	-56.4	-66.2	3.8	7.45e-01	0	34	104	0	77	10814
2026-01-02 01:42:25.04	6.73	9.55	-56.4	-66.2	3.8	7.46e-01	0	33	104	0	77	10798
2026-01-02 01:42:26.05	6.50	9.61	-56.4	-66.2	3.8	7.46e-01	0	33	104	0	77	10779
2026-01-02 01:42:27.05	6.28	9.67	-56.4	-66.2	3.8	7.45e-01	0	34	104	0	77	10785
2026-01-02 01:42:28.05	6.05	9.72	-56.4	-66.2	3.8	7.46e-01	0	34	104	0	77	10821
2026-01-02 01:42:29.06	5.82	9.78	-56.4	-66.2	3.8	7.44e-01	0	34	104	0	77	10781
2026-01-02 01:42:30.06	5.59	9.84	-56.4	-66.1	3.8	7.47e-01	0	34	104	0	77	10756
2026-01-02 01:42:31.06	5.36	9.90	-56.4	-66.2	3.8	7.45e-01	0	34	104	0	77	10783
2026-01-02 01:42:32.06	5.13	9.96	-56.4	-66.2	3.8	7.46e-01	0	34	104	0	77	10809
2026-01-02 01:42:33.06	4.90	10.01	-56.4	-66.1	3.8	7.46e-01	0	34	104	0	77	10773
2026-01-02 01:42:34.07	4.66	10.07	-56.4	-66.2	3.8	7.45e-01	0	34	104	0	77	10782
2026-01-02 01:42:35.07	4.42	10.13	-56.4	-66.2	3.8	7.44e-01	0	33	104	0	77	10800
2026-01-02 01:42:36.08	4.18	10.19	-56.4	-66.2	3.8	7.47e-01	0	34	104	0	77	10793
2026-01-02 01:42:37.08	3.95	10.24	-56.4	-66.2	3.8	7.45e-01	0	34	104	0	77	10795
2026-01-02 01:42:38.08	3.71	10.30	-56.4	-66.1	3.8	7.45e-01	0	34	104	0	77	10773
2026-01-02 01:42:39.07	3.47	10.36	-56.4	-66.2	3.8	7.46e-01	0	34	104	0	77	10787
2026-01-02 01:42:40.07	3.23	10.41	-56.4	-66.2	3.8	7.47e-01	0	34	104	0	77	10800
2026-01-02 01:42:41.07	2.99	10.47	-56.4	-66.2	3.8	7.46e-01	0	33	104	0	77	10804
2026-01-02 01:42:42.07	2.74	10.52	-56.4	-66.2	3.8	7.46e-01	0	34	104	0	77	10783
2026-01-02 01:42:43.07	2.50	10.58	-56.4	-66.2	3.8	7.46e-01	0	34	104	0	77	10792
2026-01-02 01:42:44.08	2.25	10.63	-56.4	-66.2	3.8	7.48e-01	0	34	104	0	77	10804
2026-01-02 01:42:45.07	2.00	10.69	-56.4	-66.2	3.8	7.45e-01	0	34	104	0	77	10794
2026-01-02 01:42:46.07	1.76	10.74	-56.4	-66.1	3.8	7.46e-01	0	34	104	0	77	10771
2026-01-02 01:42:47.07	1.51	10.80	-56.4	-66.1	3.8	7.47e-01	0	34	104	0	77	10772
2026-01-02 01:42:48.07	1.26	10.85	-56.4	-66.1	3.8	7.46e-01	0	34	104	0	77	10771
2026-01-02 01:42:49.07	1.00	10.91	-56.4	-66.1	3.8	7.47e-01	0	34	104	0	77	10772
2026-01-02 01:42:50.07	0.75	10.96	-56.4	-66.2	3.8	7.46e-01	0	34	104	0	77	10807
2026-01-02 01:42:51.08	0.49	11.01	-56.4	-66.1	3.8	7.45e-01	0	34	104	0	77	10768
2026-01-02 01:42:52.07	0.24	11.07	-56.4	-66.1	3.8	7.46e-01	0	34	104	0	77	10763
2026-01-02 01:42:53.07	359.98	11.12	-56.4	-66.1	3.8	7.46e-01	0	34	104	0	77	10743
2026-01-02 01:42:54.08	359.72	11.17	-56.4	-66.1	3.8	7.45e-01	0	34	104	0	77	10773
2026-01-02 01:42:55.08	359.46	11.22	-56.4	-66.1	3.8	7.46e-01	0	34	104	0	77	10769
2026-01-02 01:42:56.09	359.20	11.28	-56.4	-66.1	3.8	7.47e-01	0	34	104	0	77	10771
2026-01-02 01:42:57.09	358.94	11.33	-56.4	-66.2	3.8	7.47e-01	0	34	104	0	77	10779
2026-01-02 01:42:58.08	358.68	11.38	-56.4	-66.1	3.8	7.44e-01	0	34	104	0	77	10774
2026-01-02 01:42:59.08	358.42	11.43	-56.4	-66.1	3.8	7.46e-01	0	34	104	0	77	10777
2026-01-02 01:43:00.08	358.15	11.48	-56.4	-66.2	3.8	7.44e-01	0	34	104	0	77	10793
2026-01-02 01:43:01.08	357.88	11.53	-56.4	-66.1	3.8	7.45e-01	0	34	104	0	77	10763
2026-01-02 01:43:02.08	357.62	11.58	-56.4	-66.2	3.8	7.45e-01	0	34	104	0	77	10779
2026-01-02 01:43:03.08	357.35	11.63	-56.4	-66.1	3.8	7.44e-01	0	34	104	0	77	10762
2026-01-02 01:43:04.09	357.08	11.68	-56.4	-66.1	3.8	7.43e-01	0	34	104	0	77	10729
2026-01-02 01:43:05.09	356.81	11.73	-56.4	-66.1	3.8	7.45e-01	0	34	104	0	77	10756
2026-01-02 01:43:06.08	356.54	11.77	-56.4	-66.1	3.8	7.46e-01	0	34	104	0	77	10747
2026-01-02 01:43:07.08	356.26	11.82	-56.4	-66.2	3.8	7.45e-01	0	34	104	0	77	10798
2026-01-02 01:43:08.08	355.99	11.87	-56.4	-66.2	3.8	7.46e-01	0	34	104	0	77	10792
2026-01-02 01:43:09.07	355.72	11.91	-56.4	-66.1	3.8	7.46e-01	0	34	104	0	77	10774
2026-01-02 01:43:10.07	355.44	11.96	-56.4	-66.1	3.8	7.47e-01	0	34	104	0	77	10764
2026-01-02 01:43:11.07	355.16	12.01	-56.4	-66.1	3.8	7.44e-01	0	34	104	0	77	10768
2026-01-02 01:43:12.07	354.89	12.05	-56.4	-66.1	3.8	7.46e-01	0	34	104	0	77	10772
2026-01-02 01:43:13.07	354.61	12.10	-56.4	-66.2	3.8	7.46e-01	0	34	104	0	77	10798
2026-01-02 01:43:14.07	354.32	12.14	-56.4	-66.1	3.8	7.46e-01	0	34	104	0	77	10747
2026-01-02 01:43:15.07	354.04	12.19	-56.4	-66.1	3.8	7.46e-01	0	34	104	0	77	10762
2026-01-02 01:43:16.06	353.76	12.23	-56.4	-66.1	3.8	7.45e-01	0	34	104	0	77	10778
2026-01-02 01:43:17.06	353.48	12.27	-56.4	-66.2	3.8	7.45e-01	0	34	104	0	77	10790
2026-01-02 01:43:18.06	353.19	12.32	-56.4	-66.2	3.8	7.46e-01	0	34	104	0	77	10796
2026-01-02 01:43:19.06	352.91	12.36	-56.4	-66.2	3.8	7.44e-01	0	34	104	0	77	10801
2026-01-02 01:43:20.06	352.62	12.40	-56.4	-66.1	3.8	7.45e-01	0	34	104	0	77	10747
2026-01-02 01:43:21.06	352.33	12.44	-56.4	-66.1	3.8	7.43e-01	0	34	104	0	77	10745
2026-01-02 01:43:22.07	352.04	12.48	-56.4	-66.2	3.8	7.46e-01	0	34	104	0	77	10786
2026-01-02 01:43:23.06	351.75	12.52	-56.4	-66.1	3.8	7.46e-01	0	34	104	0	77	10754
2026-01-02 01:43:24.06	351.46	12.56	-56.4	-66.1	3.8	7.46e-01	0	33	104	0	77	10724
2026-01-02 01:43:25.05	351.17	12.60	-56.4	-66.1	3.8	7.47e-01	0	34	104	0	77	10757
2026-01-02 01:43:26.05	350.88	12.64	-56.4	-66.2	3.8	7.45e-01	0	34	104	0	77	10779
2026-01-02 01:43:27.04	350.59	12.68	-56.4	-66.1	3.8	7.47e-01	0	34	104	0	77	10778
2026-01-02 01:43:28.03	350.30	12.72	-56.4	-66.1	3.8	7.46e-01	0	34	104	0	77	10753
2026-01-02 01:43:29.03	350.00	12.76	-56.4	-66.2	3.8	7.46e-01	0	34	104	0	77	10793
2026-01-02 01:43:30.03	349.71	12.79	-56.4	-66.1	3.8	7.44e-01	0	34	104	0	77	10768
2026-01-02 01:43:31.01	349.41	12.83	-56.4	-66.1	3.8	7.46e-01	0	34	104	0	77	10767
2026-01-02 01:43:32.01	349.12	12.86	-56.4	-66.1	3.8	7.45e-01	0	34	104	0	77	10774
2026-01-02 01:43:33.01	348.82	12.90	-56.4	-66.2	3.8	7.46e-01	0	34	104	0	77	10783
2026-01-02 01:43:34.01	348.52	12.93	-56.4	-66.2	3.8	7.46e-01	0	34	104	0	77	10808
2026-01-02 01:43:35.01	348.21	12.97	-56.4	-66.2	3.8	7.46e-01	0	34	104	0	77	10780
2026-01-02 01:43:36.01	347.91	13.00	-56.4	-66.1	3.8	7.45e-01	0	34	104	0	77	10766
2026-01-02 01:43:37.00	347.61	13.03	-56.4	-66.2	3.8	7.46e-01	0	34	104	0	77	10816
2026-01-02 01:43:38.01	347.31	13.06	-56.4	-66.1	3.8	7.47e-01	0	34	104	0	77	10767
2026-01-02 01:43:39.01	347.00	13.10	-56.4	-66.2	3.8	7.46e-01	0	34	104	0	77	10791
2026-01-02 01:43:40.01	346.70	13.13	-56.4	-66.1	3.8	7.46e-01	0	34	104	0	77	10773
2026-01-02 01:43:41.01	346.39	13.16	-56.4	-66.1	3.8	7.44e-01	0	34	104	0	77	10711
2026-01-02 01:43:42.01	346.08	13.19	-56.4	-66.1	3.8	7.47e-01	0	34	104	0	77	10759
2026-01-02 01:43:43.02	345.77	13.22	-56.4	-66.1	3.8	7.45e-01	0	34	104	0	77	10745
2026-01-02 01:43:44.01	345.47	13.24	-56.4	-66.1	3.8	7.45e-01	0	34	104	0	77	10775
2026-01-02 01:43:45.00	345.16	13.27	-56.4	-66.1	3.8	7.44e-01	0	34	104	0	77	10749
2026-01-02 01:43:46.00	344.85	13.30	-56.4	-66.1	3.8	7.46e-01	0	34	104	0	77	10772
2026-01-02 01:43:47.00	344.54	13.33	-56.4	-66.1	3.8	7.45e-01	0	34	104	0	77	10720
2026-01-02 01:43:48.00	344.23	13.35	-56.4	-66.2	3.8	7.46e-01	0	34	104	0	77	10787
2026-01-02 01:43:49.00	343.92	13.38	-56.4	-66.1	3.8	7.46e-01	0	34	104	0	77	10755
2026-01-02 01:43:50.00	343.60	13.40	-56.4	-66.1	3.8	7.47e-01	0	34	104	0	77	10735
2026-01-02 01:43:51.00	343.29	13.43	-56.4	-66.1	3.8	7.45e-01	0	34	104	0	77	10763
2026-01-02 01:43:52.00	342.98	13.45	-56.4	-66.2	3.8	7.47e-01	0	34	104	0	77	10793
2026-01-02 01:43:53.01	342.66	13.47	-56.4	-66.2	3.8	7.44e-01	0	34	104	0	77	10792
2026-01-02 01:43:54.00	342.35	13.49	-56.4	-66.2	3.8	7.46e-01	0	34	104	0	77	10798
2026-01-02 01:43:55.01	342.03	13.51	-56.4	-66.2	3.8	7.47e-01	0	34	104	0	77	10789
2026-01-02 01:43:56.01	341.71	13.53	-56.4	-66.2	3.8	7.46e-01	0	34	104	0	77	10782
2026-01-02 01:43:57.01	341.39	13.55	-56.4	-66.1	3.8	7.47e-01	0	34	104	0	77	10738
2026-01-02 01:43:58.00	341.08	13.57	-56.4	-66.1	3.8	7.45e-01	0	34	104	0	77	10763
2026-01-02 01:43:59.00	340.76	13.59	-56.4	-66.2	3.8	7.45e-01	0	34	104	0	77	10783
2026-01-02 01:44:00.00	340.44	13.61	-56.4	-66.1	3.8	7.46e-01	0	34	104	0	77	10771
2026-01-02 01:44:01.00	340.13	13.62	-56.4	-66.1	3.8	7.45e-01	0	34	104	0	77	10764
2026-01-02 01:44:02.00	339.81	13.64	-56.4	-66.1	3.8	7.45e-01	0	34	104	0	77	10769
2026-01-02 01:44:02.99	339.49	13.66	-56.4	-66.2	3.8	7.45e-01	0	34	104	0	77	10785
2026-01-02 01:44:03.99	339.17	13.67	-56.4	-66.2	3.8	7.45e-01	0	34	104	0	77	10782
2026-01-02 01:44:04.99	338.85	13.68	-56.4	-66.1	3.8	7.46e-01	0	34	104	0	77	10725
2026-01-02 01:44:05.99	338.53	13.70	-56.4	-66.1	3.8	7.44e-01	0	33	104	0	77	10771
2026-01-02 01:44:07.00	338.20	13.71	-56.4	-66.1	3.8	7.45e-01	0	34	104	0	77	10761
2026-01-02 01:44:07.99	337.89	13.72	-56.4	-66.1	3.8	7.45e-01	0	34	104	0	77	10735
2026-01-02 01:44:08.99	337.56	13.73	-56.4	-66.1	3.8	7.45e-01	0	34	104	0	77	10755
2026-01-02 01:44:09.98	337.25	13.74	-56.4	-66.2	3.8	7.46e-01	0	34	104	0	77	10805
2026-01-02 01:44:10.99	336.92	13.75	-56.4	-66.1	3.8	7.45e-01	0	34	104	0	77	10728
2026-01-02 01:44:11.99	336.60	13.76	-56.4	-66.1	3.8	7.46e-01	0	34	104	0	77	10751
2026-01-02 01:44:13.00	336.27	13.77	-56.4	-66.2	3.8	7.46e-01	0	34	104	0	77	10789
2026-01-02 01:44:14.00	335.95	13.78	-56.4	-66.1	3.8	7.47e-01	0	34	104	0	77	10750
2026-01-02 01:44:15.00	335.62	13.78	-56.4	-66.2	3.8	7.45e-01	0	34	104	0	77	10780
2026-01-02 01:44:15.99	335.30	13.79	-56.4	-66.1	3.8	7.46e-01	0	34	104	0	77	10734
2026-01-02 01:44:16.99	334.98	13.79	-56.4	-66.2	3.8	7.46e-01	0	34	104	0	77	10791
2026-01-02 01:44:17.98	334.66	13.80	-56.4	-66.2	3.8	7.46e-01	0	34	104	0	77	10780
2026-01-02 01:44:18.97	334.34	13.80	-56.4	-66.1	3.8	7.45e-01	0	34	104	0	77	10750
2026-01-02 01:44:19.97	334.02	13.80	-56.4	-66.1	3.8	7.44e-01	0	34	104	0	77	10774
2026-01-02 01:44:20.96	333.70	13.80	-56.4	-66.2	3.8	7.44e-01	0	34	104	0	77	10796
2026-01-02 01:44:21.97	333.37	13.81	-56.4	-66.1	3.8	7.46e-01	0	34	104	0	77	10761
2026-01-02 01:44:22.96	333.05	13.81	-56.4	-66.1	3.8	7.47e-01	0	33	104	0	77	10753
2026-01-02 01:44:23.95	332.73	13.81	-56.4	-66.1	3.8	7.47e-01	0	34	104	0	77	10771
2026-01-02 01:44:24.95	332.40	13.80	-56.4	-66.1	3.8	7.45e-01	0	34	104	0	77	10746
2026-01-02 01:44:25.95	332.08	13.80	-56.4	-66.2	3.8	7.46e-01	0	34	104	0	77	10781
2026-01-02 01:44:26.95	331.76	13.80	-56.4	-66.1	3.8	7.46e-01	0	34	104	0	77	10736
2026-01-02 01:44:27.95	331.43	13.80	-56.4	-66.1	3.8	7.46e-01	0	34	104	0	77	10757
2026-01-02 01:44:28.95	331.11	13.79	-56.4	-66.2	3.8	7.46e-01	0	34	104	0	77	10782
2026-01-02 01:44:29.95	330.78	13.79	-56.4	-66.1	3.8	7.46e-01	0	34	104	0	77	10728
2026-01-02 01:44:30.95	330.46	13.78	-56.4	-66.1	3.8	7.45e-01	0	34	104	0	77	10758
2026-01-02 01:44:31.95	330.14	13.77	-56.4	-66.1	3.8	7.47e-01	0	34	104	0	77	10776
2026-01-02 01:44:32.95	329.81	13.77	-56.4	-66.1	3.8	7.45e-01	0	34	104	0	77	10762
2026-01-02 01:44:33.96	329.49	13.76	-56.4	-66.2	3.8	7.46e-01	0	34	104	0	77	10792
2026-01-02 01:44:34.96	329.17	13.75	-56.4	-66.1	3.8	7.47e-01	0	34	104	0	77	10773
2026-01-02 01:44:35.97	328.84	13.74	-56.4	-66.1	3.8	7.46e-01	0	34	104	0	77	10749
2026-01-02 01:44:36.97	328.52	13.73	-56.4	-66.2	3.8	7.45e-01	0	34	104	0	77	10793
2026-01-02 01:44:37.98	328.19	13.72	-56.4	-66.1	3.8	7.45e-01	0	34	104	0	77	10739
2026-01-02 01:44:38.97	327.87	13.71	-56.4	-66.1	3.8	7.46e-01	0	34	104	0	77	10752
2026-01-02 01:44:39.97	327.55	13.70	-56.4	-66.1	3.8	7.45e-01	0	34	104	0	77	10771
2026-01-02 01:44:40.97	327.23	13.68	-56.4	-66.1	3.8	7.44e-01	0	34	104	0	77	10751
2026-01-02 01:44:41.98	326.91	13.67	-56.4	-66.1	3.8	7.45e-01	0	34	104	0	77	10778
2026-01-02 01:44:42.97	326.59	13.65	-56.4	-66.1	3.8	7.45e-01	0	34	104	0	77	10738
2026-01-02 01:44:43.97	326.27	13.64	-56.4	-66.1	3.8	7.44e-01	0	34	104	0	77	10730
2026-01-02 01:44:44.98	325.95	13.62	-56.4	-66.2	3.8	7.45e-01	0	34	104	0	77	10783
2026-01-02 01:44:45.97	325.63	13.60	-56.4	-66.1	3.8	7.46e-01	0	34	104	0	77	10714
2026-01-02 01:44:46.97	325.32	13.59	-56.4	-66.1	3.8	7.47e-01	0	34	104	0	77	10733
2026-01-02 01:44:47.96	325.00	13.57	-56.4	-66.1	3.8	7.45e-01	0	34	104	0	77	10763
2026-01-02 01:44:48.96	324.68	13.55	-56.4	-66.1	3.8	7.44e-01	0	34	104	0	77	10775
2026-01-02 01:44:49.97	324.36	13.53	-56.4	-66.1	3.8	7.46e-01	0	34	104	0	77	10778
2026-01-02 01:44:50.96	324.05	13.51	-56.4	-66.1	3.8	7.46e-01	0	34	104	0	77	10776
2026-01-02 01:44:51.97	323.73	13.49	-56.4	-66.1	3.8	7.45e-01	0	34	104	0	77	10727
2026-01-02 01:44:52.97	323.42	13.47	-56.4	-66.1	3.8	7.45e-01	0	34	104	0	77	10763
2026-01-02 01:44:53.98	323.10	13.44	-56.4	-66.1	3.8	7.44e-01	0	34	104	0	77	10722
2026-01-02 01:44:54.97	322.79	13.42	-56.4	-66.1	3.8	7.45e-01	0	34	104	0	77	10762
2026-01-02 01:44:55.97	322.47	13.40	-56.4	-66.1	3.8	7.44e-01	0	34	104	0	77	10749
2026-01-02 01:44:56.97	322.16	13.37	-56.4	-66.1	3.8	7.47e-01	0	34	104	0	77	10706
2026-01-02 01:44:57.97	321.85	13.35	-56.4	-66.1	3.8	7.43e-01	0	34	104	0	77	10744
2026-01-02 01:44:58.97	321.54	13.32	-56.4	-66.1	3.8	7.46e-01	0	34	104	0	77	10772
2026-01-02 01:44:59.97	321.23	13.29	-56.4	-66.1	3.8	7.45e-01	0	34	104	0	77	10735
2026-01-02 01:45:00.97	320.91	13.27	-56.4	-66.1	3.8	7.47e-01	0	34	104	0	77	10765
2026-01-02 01:45:01.97	320.61	13.24	-56.4	-66.1	3.8	7.46e-01	0	34	104	0	77	10746
2026-01-02 01:45:02.98	320.29	13.21	-56.4	-66.1	3.8	7.45e-01	0	34	104	0	77	10736
2026-01-02 01:45:03.98	319.99	13.18	-56.4	-66.1	3.8	7.47e-01	0	34	104	0	77	10762
2026-01-02 01:45:04.98	319.68	13.15	-56.4	-66.1	3.8	7.46e-01	0	34	104	0	77	10750
2026-01-02 01:45:05.99	319.37	13.12	-56.4	-66.1	3.8	7.46e-01	0	34	104	0	77	10736
2026-01-02 01:45:06.98	319.07	13.09	-56.4	-66.1	3.8	7.45e-01	0	34	104	0	77	10746
2026-01-02 01:45:07.99	318.76	13.06	-56.4	-66.1	3.8	7.45e-01	0	34	104	0	77	10739
2026-01-02 01:45:08.99	318.45	13.02	-56.4	-66.1	3.8	7.45e-01	0	33	104	0	77	10743
2026-01-02 01:45:09.98	318.15	12.99	-56.4	-66.1	3.8	7.45e-01	0	34	104	0	77	10747
2026-01-02 01:45:10.98	317.85	12.96	-56.4	-66.1	3.8	7.47e-01	0	34	104	0	77	10759
2026-01-02 01:45:11.97	317.55	12.92	-56.4	-66.1	3.8	7.45e-01	0	34	104	0	77	10744
2026-01-02 01:45:12.97	317.25	12.89	-56.4	-66.1	3.8	7.45e-01	0	34	104	0	77	10751
2026-01-02 01:45:13.97	316.95	12.85	-56.4	-66.1	3.8	7.45e-01	0	34	104	0	77	10726
2026-01-02 01:45:14.97	316.65	12.82	-56.4	-66.1	3.8	7.45e-01	0	34	104	0	77	10745
2026-01-02 01:45:15.96	316.36	12.78	-56.4	-66.2	3.8	7.46e-01	0	34	104	0	77	10785
2026-01-02 01:45:16.96	316.06	12.75	-56.4	-66.1	3.8	7.45e-01	0	33	104	0	77	10739
2026-01-02 01:45:17.96	315.77	12.71	-56.4	-66.1	3.8	7.44e-01	0	34	104	0	77	10741
2026-01-02 01:45:18.95	315.47	12.67	-56.4	-66.1	3.8	7.46e-01	0	34	104	0	77	10756
2026-01-02 01:45:19.95	315.18	12.63	-56.4	-66.1	3.8	7.46e-01	0	34	104	0	77	10736
2026-01-02 01:45:20.94	314.89	12.59	-56.4	-66.1	3.8	7.45e-01	0	34	104	0	77	10715
2026-01-02 01:45:21.95	314.59	12.55	-56.4	-66.1	3.8	7.45e-01	0	34	104	0	77	10745
2026-01-02 01:45:22.96	314.30	12.51	-56.4	-66.1	3.8	7.44e-01	0	34	104	0	77	10742
2026-01-02 01:45:23.96	314.01	12.47	-56.4	-66.1	3.8	7.46e-01	0	34	104	0	77	10728
2026-01-02 01:45:24.97	313.72	12.43	-56.4	-66.1	3.8	7.45e-01	0	34	104	0	77	10730
2026-01-02 01:45:25.97	313.43	12.39	-56.4	-66.1	3.8	7.46e-01	0	34	104	0	77	10761
2026-01-02 01:45:26.97	313.14	12.35	-56.4	-66.1	3.8	7.46e-01	0	34	104	0	77	10722
2026-01-02 01:45:27.97	312.86	12.30	-56.4	-66.1	3.8	7.47e-01	0	33	104	0	77	10737
2026-01-02 01:45:28.97	312.57	12.26	-56.4	-66.1	3.8	7.45e-01	0	34	104	0	77	10744
2026-01-02 01:45:29.97	312.29	12.22	-56.4	-66.1	3.8	7.45e-01	0	34	104	0	77	10740
2026-01-02 01:45:30.97	312.00	12.17	-56.4	-66.1	3.8	7.45e-01	0	33	104	0	77	10749
2026-01-02 01:45:31.97	311.72	12.13	-56.4	-66.1	3.8	7.44e-01	0	34	104	0	77	10708
2026-01-02 01:45:32.97	311.44	12.08	-56.4	-66.1	3.8	7.46e-01	0	34	104	0	77	10741
2026-01-02 01:45:33.97	311.16	12.04	-56.4	-66.1	3.8	7.46e-01	0	34	104	0	77	10726
2026-01-02 01:45:34.97	310.88	11.99	-56.4	-66.1	3.8	7.45e-01	0	34	104	0	77	10696
2026-01-02 01:45:35.97	310.60	11.95	-56.4	-66.1	3.8	7.45e-01	0	34	104	0	77	10720
2026-01-02 01:45:36.97	310.33	11.90	-56.4	-66.1	3.8	7.44e-01	0	34	104	0	77	10731
2026-01-02 01:45:37.97	310.05	11.85	-56.4	-66.1	3.8	7.46e-01	0	34	104	0	77	10772
2026-01-02 01:45:38.97	309.78	11.80	-56.4	-66.1	3.8	7.45e-01	0	34	104	0	77	10737
2026-01-02 01:45:39.98	309.50	11.76	-56.4	-66.1	3.8	7.46e-01	0	34	104	0	77	10713
2026-01-02 01:45:40.98	309.23	11.71	-56.4	-66.1	3.8	7.46e-01	0	34	104	0	77	10733
2026-01-02 01:45:41.98	308.96	11.66	-56.4	-66.1	3.8	7.45e-01	0	34	104	0	77	10774
2026-01-02 01:45:42.97	308.69	11.61	-56.4	-66.1	3.8	7.46e-01	0	34	104	0	77	10768
2026-01-02 01:45:43.97	308.42	11.56	-56.4	-66.1	3.8	7.45e-01	0	34	104	0	77	10737
2026-01-02 01:45:44.98	308.15	11.51	-56.4	-66.2	3.8	7.47e-01	0	34	104	0	77	10788
2026-01-02 01:45:45.97	307.89	11.46	-56.4	-66.1	3.8	7.47e-01	0	34	104	0	77	10739
2026-01-02 01:45:46.98	307.62	11.41	-56.4	-66.1	3.8	7.47e-01	0	34	104	0	77	10761
2026-01-02 01:45:47.98	307.36	11.36	-56.4	-66.2	3.8	7.45e-01	0	34	104	0	77	10790
2026-01-02 01:45:48.98	307.09	11.31	-56.4	-66.1	3.8	7.46e-01	0	34	104	0	77	10762
2026-01-02 01:45:49.98	306.83	11.26	-56.4	-66.1	3.8	7.45e-01	0	34	104	0	77	10748
2026-01-02 01:45:50.98	306.57	11.20	-56.4	-66.1	3.8	7.47e-01	0	34	104	0	77	10731
2026-01-02 01:45:51.98	306.31	11.15	-56.4	-66.1	3.8	7.46e-01	0	34	104	0	77	10733
2026-01-02 01:45:52.98	306.05	11.10	-56.4	-66.1	3.8	7.46e-01	0	34	104	0	77	10772
2026-01-02 01:45:53.98	305.80	11.05	-56.4	-66.1	3.8	7.46e-01	0	34	104	0	77	10763
2026-01-02 01:45:54.98	305.54	10.99	-56.4	-66.1	3.8	7.45e-01	0	34	104	0	77	10757
2026-01-02 01:45:55.98	305.29	10.94	-56.4	-66.1	3.8	7.47e-01	0	33	104	0	77	10763
2026-01-02 01:45:56.98	305.03	10.89	-56.4	-66.1	3.8	7.45e-01	0	34	104	0	77	10763
2026-01-02 01:45:57.99	304.78	10.83	-56.4	-66.1	3.8	7.46e-01	0	33	104	0	77	10748
2026-01-02 01:45:58.98	304.53	10.78	-56.4	-66.1	3.8	7.46e-01	0	34	104	0	77	10766
2026-01-02 01:45:59.98	304.28	10.72	-56.4	-66.1	3.8	7.47e-01	0	34	104	0	77	10769
2026-01-02 01:46:00.98	304.03	10.67	-56.4	-66.1	3.8	7.45e-01	0	34	104	0	77	10732
2026-01-02 01:46:01.98	303.78	10.61	-56.4	-66.1	3.8	7.46e-01	0	34	104	0	77	10744
2026-01-02 01:46:02.97	303.54	10.56	-56.4	-66.1	3.8	7.47e-01	0	34	104	0	77	10766
2026-01-02 01:46:03.96	303.30	10.50	-56.4	-66.2	3.8	7.47e-01	0	34	104	0	77	10786
2026-01-02 01:46:04.97	303.05	10.45	-56.4	-66.1	3.8	7.47e-01	0	34	104	0	77	10745
2026-01-02 01:46:05.97	302.81	10.39	-56.4	-66.1	3.8	7.46e-01	0	33	104	0	77	10724
2026-01-02 01:46:06.97	302.56	10.33	-56.4	-66.1	3.8	7.45e-01	0	34	104	0	77	10704
2026-01-02 01:46:07.97	302.32	10.28	-56.4	-66.1	3.8	7.45e-01	0	34	104	0	77	10726
2026-01-02 01:46:08.97	302.08	10.22	-56.4	-66.1	3.8	7.45e-01	0	34	104	0	77	10759
2026-01-02 01:46:09.97	301.85	10.16	-56.4	-66.1	3.8	7.45e-01	0	34	104	0	77	10725
2026-01-02 01:46:10.97	301.61	10.11	-56.4	-66.1	3.8	7.46e-01	0	34	104	0	77	10774
2026-01-02 01:46:11.98	301.37	10.05	-56.4	-66.1	3.8	7.45e-01	0	34	104	0	77	10725
2026-01-02 01:46:12.97	301.14	9.99	-56.4	-66.1	3.8	7.46e-01	0	34	104	0	77	10709
2026-01-02 01:46:13.97	300.91	9.93	-56.4	-66.1	3.8	7.46e-01	0	34	104	0	77	10744
2026-01-02 01:46:14.97	300.67	9.88	-56.4	-66.1	3.8	7.45e-01	0	34	104	0	77	10751
2026-01-02 01:46:15.96	300.44	9.82	-56.4	-66.1	3.8	7.44e-01	0	34	104	0	77	10718
2026-01-02 01:46:16.96	300.21	9.76	-56.4	-66.1	3.8	7.46e-01	0	34	104	0	77	10756
2026-01-02 01:46:17.96	299.99	9.70	-56.4	-66.1	3.8	7.46e-01	0	34	104	0	77	10718
2026-01-02 01:46:18.96	299.76	9.64	-56.4	-66.1	3.8	7.46e-01	0	34	104	0	77	10697
2026-01-02 01:46:19.95	299.53	9.59	-56.4	-66.1	3.8	7.44e-01	0	34	104	0	77	10718
2026-01-02 01:46:20.95	299.31	9.53	-56.4	-66.1	3.8	7.45e-01	0	34	104	0	77	10746
2026-01-02 01:46:21.94	299.09	9.47	-56.4	-66.1	3.8	7.47e-01	0	34	104	0	77	10744
2026-01-02 01:46:22.95	298.86	9.41	-56.4	-66.1	3.8	7.46e-01	0	34	104	0	77	10702
2026-01-02 01:46:23.95	298.64	9.35	-56.4	-66.1	3.8	7.45e-01	0	34	104	0	77	10683
2026-01-02 01:46:24.95	298.42	9.29	-56.4	-66.1	3.8	7.46e-01	0	33	104	0	77	10706
2026-01-02 01:46:25.96	298.20	9.23	-56.4	-66.1	3.8	7.47e-01	0	34	104	0	77	10707
2026-01-02 01:46:26.95	297.98	9.17	-56.4	-66.1	3.8	7.46e-01	0	34	104	0	77	10735
2026-01-02 01:46:27.94	297.77	9.11	-56.4	-66.1	3.8	7.45e-01	0	34	104	0	77	10707
2026-01-02 01:46:28.94	297.55	9.05	-56.4	-66.1	3.8	7.45e-01	0	34	104	0	77	10738
2026-01-02 01:46:29.93	297.34	8.99	-56.4	-66.1	3.8	7.45e-01	0	34	104	0	77	10718
2026-01-02 01:46:30.93	297.13	8.93	-56.4	-66.1	3.8	7.45e-01	0	34	104	0	77	10730
2026-01-02 01:46:31.93	296.91	8.87	-56.4	-66.1	3.8	7.45e-01	0	34	104	0	77	10737
2026-01-02 01:46:32.94	296.70	8.81	-56.4	-66.1	3.8	7.45e-01	0	34	104	0	77	10717
2026-01-02 01:46:33.94	296.49	8.75	-56.4	-66.1	3.8	7.45e-01	0	34	104	0	77	10751
2026-01-02 01:46:34.94	296.28	8.69	-56.4	-66.1	3.8	7.47e-01	0	34	104	0	77	10703
2026-01-02 01:46:35.94	296.07	8.63	-56.4	-66.1	3.8	7.45e-01	0	34	104	0	77	10694
2026-01-02 01:46:36.94	295.87	8.57	-56.4	-66.1	3.8	7.46e-01	0	34	104	0	77	10711
2026-01-02 01:46:37.94	295.66	8.51	-56.4	-66.1	3.8	7.46e-01	0	34	104	0	77	10737
2026-01-02 01:46:38.94	295.45	8.44	-56.4	-66.1	3.8	7.45e-01	0	34	104	0	77	10713
2026-01-02 01:46:39.94	295.25	8.38	-56.4	-66.1	3.8	7.44e-01	0	34	104	0	77	10734
2026-01-02 01:46:40.94	295.05	8.32	-56.4	-66.1	3.8	7.47e-01	0	34	104	0	77	10698
2026-01-02 01:46:41.95	294.85	8.26	-56.4	-66.1	3.8	7.45e-01	0	34	104	0	77	10749
2026-01-02 01:46:42.94	294.65	8.20	-56.4	-66.2	3.8	7.47e-01	0	34	104	0	77	10780
2026-01-02 01:46:43.94	294.45	8.14	-56.4	-66.1	3.8	7.44e-01	0	34	104	0	77	10707
2026-01-02 01:46:44.95	294.25	8.08	-56.4	-66.1	3.8	7.46e-01	0	34	104	0	77	10702
2026-01-02 01:46:45.95	294.05	8.02	-56.4	-66.1	3.8	7.46e-01	0	34	104	0	77	10711
2026-01-02 01:46:46.95	293.86	7.95	-56.4	-66.1	3.8	7.45e-01	0	34	104	0	77	10687
2026-01-02 01:46:47.96	293.66	7.89	-56.4	-66.1	3.8	7.46e-01	0	34	104	0	77	10680
2026-01-02 01:46:48.96	293.47	7.83	-56.4	-66.1	3.8	7.45e-01	0	34	104	0	77	10762
2026-01-02 01:46:49.96	293.27	7.77	-56.4	-66.1	3.8	7.45e-01	0	34	104	0	77	10740
2026-01-02 01:46:50.95	293.08	7.71	-56.4	-66.1	3.8	7.46e-01	0	34	104	0	77	10713
2026-01-02 01:46:51.95	292.89	7.65	-56.4	-66.1	3.8	7.46e-01	0	34	104	0	77	10725
2026-01-02 01:46:52.96	292.70	7.58	-56.4	-66.1	3.8	7.47e-01	0	34	104	0	77	10684
2026-01-02 01:46:53.96	292.51	7.52	-56.4	-66.1	3.8	7.46e-01	0	34	104	0	77	10729
2026-01-02 01:46:54.96	292.33	7.46	-56.4	-66.1	3.8	7.46e-01	0	34	104	0	77	10696
2026-01-02 01:46:55.96	292.14	7.40	-56.4	-66.1	3.8	7.45e-01	0	34	104	0	77	10733
2026-01-02 01:46:56.96	291.95	7.34	-56.4	-66.1	3.8	7.45e-01	0	34	104	0	77	10728
2026-01-02 01:46:57.97	291.77	7.27	-56.4	-66.1	3.8	7.46e-01	0	34	104	0	77	10738
2026-01-02 01:46:58.97	291.58	7.21	-56.4	-66.1	3.8	7.46e-01	0	34	104	0	77	10725
2026-01-02 01:46:59.96	291.40	7.15	-56.4	-66.1	3.8	7.45e-01	0	34	104	0	77	10730
2026-01-02 01:47:00.96	291.22	7.09	-56.4	-66.1	3.8	7.46e-01	0	34	104	0	77	10734
2026-01-02 01:47:01.96	291.04	7.03	-56.4	-66.1	3.8	7.44e-01	0	34	104	0	77	10683
2026-01-02 01:47:02.97	290.86	6.96	-56.4	-66.1	3.8	7.47e-01	0	34	104	0	77	10681
2026-01-02 01:47:03.97	290.68	6.90	-56.4	-66.1	3.8	7.46e-01	0	34	104	0	77	10748
2026-01-02 01:47:04.98	290.51	6.84	-56.4	-66.1	3.8	7.45e-01	0	34	104	0	77	10696
2026-01-02 01:47:05.98	290.33	6.78	-56.4	-66.1	3.8	7.43e-01	0	34	104	0	77	10718
2026-01-02 01:47:06.98	290.15	6.72	-56.4	-66.1	3.8	7.45e-01	0	34	104	0	77	10689
2026-01-02 01:47:07.98	289.98	6.65	-56.4	-66.1	3.8	7.45e-01	0	34	104	0	77	10729
2026-01-02 01:47:08.98	289.81	6.59	-56.4	-66.1	3.8	7.45e-01	0	34	104	0	77	10711
2026-01-02 01:47:09.98	289.63	6.53	-56.4	-66.1	3.8	7.48e-01	0	34	104	0	77	10698
2026-01-02 01:47:10.98	289.46	6.47	-56.4	-66.1	3.8	7.46e-01	0	34	104	0	77	10726
2026-01-02 01:47:11.98	289.29	6.41	-56.4	-66.1	3.8	7.47e-01	0	34	104	0	77	10689
2026-01-02 01:47:12.97	289.13	6.35	-56.4	-66.1	3.8	7.46e-01	0	34	104	0	77	10729
2026-01-02 01:47:13.97	288.96	6.28	-56.4	-66.1	3.8	7.47e-01	0	34	104	0	77	10701
2026-01-02 01:47:14.97	288.79	6.22	-56.4	-66.1	3.8	7.44e-01	0	34	104	0	77	10715
2026-01-02 01:47:15.96	288.62	6.16	-56.4	-66.1	3.8	7.46e-01	0	34	104	0	77	10718
2026-01-02 01:47:16.96	288.46	6.10	-56.4	-66.1	3.8	7.47e-01	0	34	104	0	77	10707
2026-01-02 01:47:17.97	288.29	6.04	-56.4	-66.1	3.8	7.47e-01	0	34	104	0	77	10717
2026-01-02 01:47:18.96	288.13	5.98	-56.4	-66.1	3.8	7.44e-01	0	34	104	0	77	10725
2026-01-02 01:47:19.96	287.97	5.91	-56.4	-66.1	3.8	7.45e-01	0	34	104	0	77	10705
2026-01-02 01:47:20.96	287.81	5.85	-56.4	-66.1	3.8	7.44e-01	0	34	104	0	77	10729
2026-01-02 01:47:21.97	287.64	5.79	-56.4	-66.1	3.8	7.47e-01	0	34	104	0	77	10677
2026-01-02 01:47:22.97	287.48	5.73	-56.4	-66.1	3.8	7.44e-01	0	34	104	0	77	10729
2026-01-02 01:47:23.96	287.33	5.67	-56.4	-66.1	3.8	7.44e-01	0	34	104	0	77	10706
2026-01-02 01:47:24.96	287.17	5.61	-56.4	-66.1	3.8	7.45e-01	0	34	104	0	77	10679
2026-01-02 01:47:25.96	287.01	5.55	-56.4	-66.1	3.8	7.46e-01	0	34	104	0	77	10719
2026-01-02 01:47:26.96	286.85	5.48	-56.4	-66.1	3.8	7.44e-01	0	34	104	0	77	10750
2026-01-02 01:47:27.96	286.70	5.42	-56.4	-66.1	3.8	7.45e-01	0	34	104	0	77	10714
2026-01-02 01:47:28.96	286.54	5.36	-56.4	-66.1	3.8	7.45e-01	0	34	104	0	77	10731
2026-01-02 01:47:29.96	286.39	5.30	-56.4	-66.1	3.8	7.45e-01	0	34	104	0	77	10729
2026-01-02 01:47:30.96	286.24	5.24	-56.4	-66.1	3.8	7.46e-01	0	34	104	0	77	10733
2026-01-02 01:47:31.97	286.08	5.18	-56.4	-66.1	3.8	7.46e-01	0	34	104	0	77	10670
2026-01-02 01:47:32.97	285.93	5.12	-56.4	-66.1	3.8	7.46e-01	0	34	104	0	77	10712
2026-01-02 01:47:33.97	285.78	5.05	-56.4	-66.1	3.8	7.46e-01	0	34	104	0	77	10690
2026-01-02 01:47:34.97	285.63	4.99	-56.4	-66.1	3.8	7.44e-01	0	34	104	0	77	10742
2026-01-02 01:47:35.98	285.48	4.93	-56.4	-66.1	3.8	7.46e-01	0	34	104	0	77	10691
2026-01-02 01:47:36.97	285.33	4.87	-56.4	-66.1	3.8	7.46e-01	0	34	104	0	77	10706
2026-01-02 01:47:37.97	285.19	4.81	-56.4	-66.1	3.8	7.44e-01	0	34	104	0	77	10738
2026-01-02 01:47:38.97	285.04	4.75	-56.4	-66.1	3.8	7.46e-01	0	34	104	0	77	10705
2026-01-02 01:47:39.98	284.89	4.69	-56.4	-66.1	3.8	7.45e-01	0	34	104	0	77	10664
2026-01-02 01:47:40.99	284.75	4.63	-56.4	-66.1	3.8	7.47e-01	0	34	104	0	77	10737
2026-01-02 01:47:41.99	284.60	4.57	-56.4	-66.1	3.8	7.46e-01	0	34	104	0	77	10696
2026-01-02 01:47:42.98	284.46	4.51	-56.4	-66.1	3.8	7.44e-01	0	34	104	0	77	10695
2026-01-02 01:47:43.98	284.32	4.45	-56.4	-66.1	3.8	7.45e-01	0	34	104	0	77	10687
2026-01-02 01:47:44.98	284.18	4.39	-56.4	-66.1	3.8	7.45e-01	0	34	104	0	77	10736
2026-01-02 01:47:45.98	284.04	4.33	-56.4	-66.1	3.8	7.46e-01	0	34	104	0	77	10737
2026-01-02 01:47:46.98	283.90	4.26	-56.4	-66.1	3.8	7.46e-01	0	34	104	0	77	10683
2026-01-02 01:47:47.98	283.76	4.20	-56.3	-66.1	3.8	7.44e-01	0	34	104	0	77	10678
2026-01-02 01:47:48.99	283.62	4.14	-56.4	-66.1	3.8	7.47e-01	0	33	104	0	77	10699
2026-01-02 01:47:49.99	283.48	4.08	-56.4	-66.1	3.8	7.47e-01	0	33	104	0	77	10687
2026-01-02 01:47:50.99	283.35	4.02	-56.4	-66.0	3.8	7.44e-01	0	34	104	0	77	10645
2026-01-02 01:47:51.99	283.21	3.96	-56.4	-66.1	3.8	7.44e-01	0	33	104	0	77	10674
2026-01-02 01:47:52.99	283.07	3.90	-56.4	-66.1	3.8	7.46e-01	0	34	104	0	77	10674
2026-01-02 01:47:53.99	282.94	3.84	-56.4	-66.1	3.8	7.47e-01	0	34	104	0	77	10724
2026-01-02 01:47:54.99	282.81	3.78	-56.4	-66.1	3.8	7.44e-01	0	34	104	0	77	10697
2026-01-02 01:47:55.99	282.67	3.72	-56.4	-66.1	3.8	7.45e-01	0	34	104	0	77	10726
2026-01-02 01:47:56.99	282.54	3.66	-56.4	-66.1	3.8	7.46e-01	0	34	104	0	77	10690
2026-01-02 01:47:58.00	282.41	3.60	-56.4	-66.1	3.8	7.47e-01	0	34	104	0	77	10692
2026-01-02 01:47:59.01	282.28	3.54	-56.4	-66.1	3.8	7.44e-01	0	34	104	0	77	10708
2026-01-02 01:48:00.01	282.14	3.48	-56.4	-66.1	3.8	7.45e-01	0	34	104	0	77	10723
2026-01-02 01:48:01.01	282.02	3.42	-56.4	-66.1	3.8	7.46e-01	0	34	104	0	77	10718
2026-01-02 01:48:02.01	281.89	3.37	-56.4	-66.1	3.8	7.47e-01	0	34	104	0	77	10716
2026-01-02 01:48:03.01	281.76	3.31	-56.4	-66.1	3.8	7.45e-01	0	34	104	0	77	10685
2026-01-02 01:48:04.01	281.63	3.25	-56.4	-66.1	3.8	7.45e-01	0	34	104	0	77	10710
2026-01-02 01:48:05.02	281.50	3.19	-56.4	-66.1	3.8	7.45e-01	0	34	104	0	77	10703
2026-01-02 01:48:06.02	281.38	3.13	-56.4	-66.1	3.8	7.46e-01	0	34	104	0	77	10687
2026-01-02 01:48:07.01	281.25	3.07	-56.4	-66.1	3.8	7.46e-01	0	34	104	0	77	10699
2026-01-02 01:48:08.02	281.13	3.01	-56.4	-66.1	3.8	7.44e-01	0	33	104	0	77	10664
2026-01-02 01:48:09.02	281.00	2.95	-56.4	-66.1	3.8	7.43e-01	0	34	104	0	77	10720
2026-01-02 01:48:10.02	280.88	2.89	-56.4	-66.1	3.8	7.46e-01	0	34	104	0	77	10705
2026-01-02 01:48:11.02	280.76	2.83	-56.4	-66.1	3.8	7.45e-01	0	34	104	0	77	10679
2026-01-02 01:48:12.02	280.64	2.77	-56.4	-66.1	3.8	7.46e-01	0	34	104	0	77	10695
2026-01-02 01:48:13.02	280.52	2.72	-56.4	-66.1	3.8	7.45e-01	0	34	104	0	77	10690
2026-01-02 01:48:14.01	280.40	2.66	-56.4	-66.1	3.8	7.47e-01	0	34	104	0	77	10674
2026-01-02 01:48:15.01	280.28	2.60	-56.4	-66.1	3.8	7.46e-01	0	34	104	0	77	10683
2026-01-02 01:48:16.01	280.16	2.54	-56.3	-66.1	3.8	7.46e-01	0	34	104	0	77	10676
2026-01-02 01:48:16.99	280.04	2.48	-56.4	-66.1	3.8	7.46e-01	0	34	104	0	77	10691
2026-01-02 01:48:18.00	279.92	2.43	-56.3	-66.1	3.8	7.45e-01	0	34	104	0	77	10671
2026-01-02 01:48:18.99	279.81	2.37	-56.4	-66.1	3.8	7.46e-01	0	34	104	0	77	10711
2026-01-02 01:48:19.99	279.69	2.31	-56.3	-66.1	3.8	7.45e-01	0	34	104	0	77	10672
2026-01-02 01:48:20.98	279.57	2.25	-56.3	-66.1	3.8	7.46e-01	0	33	104	0	77	10666
2026-01-02 01:48:21.98	279.46	2.19	-56.4	-66.1	3.8	7.45e-01	0	34	104	0	77	10669
2026-01-02 01:48:22.98	279.34	2.14	-56.4	-66.1	3.8	7.47e-01	0	34	104	0	77	10717
2026-01-02 01:48:23.98	279.23	2.08	-56.4	-66.1	3.8	7.46e-01	0	34	104	0	77	10678
2026-01-02 01:48:24.98	279.12	2.02	-56.4	-66.1	3.8	7.45e-01	0	34	104	0	77	10715
2026-01-02 01:48:25.99	279.00	1.96	-56.4	-66.1	3.8	7.46e-01	0	34	104	0	77	10686
2026-01-02 01:48:26.99	278.89	1.91	-56.4	-66.1	3.8	7.45e-01	0	34	104	0	77	10704

#Closed at: 2026-01-02 01:48:27
#Recorded file [0 MB]: D:/lorett/data/31004_260102_044019.dat