passes_logs/2026/01/02/R3.2S_Murmansk/R3.2S_Murmansk__20260102_233533_AQUA_rec.log

#Pass ID: 20260102_233533_AQUA
#Satellite: AQUA
#Configuration: AQUA
#almurnet v.1.7.20251203
#Start time: 2026-01-02 23:35:34

#Version: 2.2.20231116
#Station: R3.2S_Murmansk
#Location: 33.079688 lon 68.888172 lat
#TLE: 1 27424U 02022A   25365.92641127  .00002078  00000+0  42628-3 0  9999
#TLE: 2 27424  98.4058 327.1196 0001962  94.7781 340.6230 14.61783896258835

#Time	Az	El	Level	Level2	SNR	BER	BlckErr	Temp	State	Recorded	gain1	gain2
2026-01-02 23:35:34.45	21.63	2.07	-59.2	-78.1	3.8	7.48e-01	0	29	0	0	87	31290
2026-01-02 23:35:35.42	21.72	2.12	-59.2	-78.1	3.8	7.45e-01	0	29	104	0	86	33250
2026-01-02 23:35:36.42	21.82	2.17	-59.3	-78.1	3.8	7.45e-01	0	29	104	0	86	33254
2026-01-02 23:35:37.42	21.92	2.22	-59.3	-78.1	3.8	7.41e-01	0	29	104	0	86	33074
2026-01-02 23:35:38.42	22.01	2.27	-59.2	-78.1	3.8	7.47e-01	0	29	104	0	86	32956
2026-01-02 23:35:39.42	22.11	2.33	-59.2	-78.0	3.8	7.47e-01	0	29	104	0	86	32828
2026-01-02 23:35:40.42	22.21	2.38	-59.2	-78.0	3.8	7.45e-01	0	29	104	0	86	32693
2026-01-02 23:35:41.42	22.31	2.43	-59.2	-78.0	3.8	7.48e-01	0	29	104	0	86	32583
2026-01-02 23:35:42.41	22.41	2.48	-59.2	-78.0	3.8	7.46e-01	0	29	104	0	86	32655
2026-01-02 23:35:43.41	22.51	2.53	-59.3	-77.9	3.8	7.47e-01	0	29	104	0	86	32328
2026-01-02 23:35:44.40	22.61	2.58	-59.2	-77.9	3.8	7.47e-01	0	29	104	0	86	32257
2026-01-02 23:35:45.40	22.71	2.63	-59.2	-77.9	3.8	7.46e-01	0	29	104	0	86	32436
2026-01-02 23:35:46.39	22.81	2.68	-59.3	-78.0	3.8	7.47e-01	0	29	104	0	86	32769
2026-01-02 23:35:47.39	22.91	2.74	-59.3	-78.1	3.8	7.45e-01	0	29	104	0	86	33071
2026-01-02 23:35:48.38	23.01	2.79	-59.2	-78.1	3.8	7.46e-01	0	29	104	0	86	33226
2026-01-02 23:35:49.38	23.11	2.84	-59.3	-78.1	3.8	7.47e-01	0	29	104	0	86	32987
2026-01-02 23:35:50.38	23.22	2.89	-59.2	-78.1	3.8	7.45e-01	0	29	104	0	86	33184
2026-01-02 23:35:51.38	23.32	2.94	-59.2	-78.1	3.8	7.44e-01	0	29	104	0	86	33118
2026-01-02 23:35:52.38	23.42	2.99	-59.3	-78.2	3.8	7.44e-01	0	30	104	0	86	33372
2026-01-02 23:35:53.38	23.52	3.05	-59.3	-78.0	3.8	7.44e-01	0	30	104	0	86	32812
2026-01-02 23:35:54.37	23.63	3.10	-59.3	-77.5	3.8	7.47e-01	0	30	104	0	86	30930
2026-01-02 23:35:55.37	23.73	3.15	-59.3	-78.0	3.8	7.45e-01	0	29	104	0	86	32676
2026-01-02 23:35:56.37	23.84	3.20	-59.2	-77.3	3.8	7.47e-01	0	30	104	0	86	30066
2026-01-02 23:35:57.36	23.94	3.25	-59.2	-76.8	3.9	7.44e-01	0	30	104	0	86	28596
2026-01-02 23:35:58.37	24.05	3.31	-59.3	-77.8	3.8	7.47e-01	0	30	104	0	86	32069
2026-01-02 23:35:59.37	24.15	3.36	-59.2	-77.6	3.8	7.43e-01	0	30	104	0	86	31382
2026-01-02 23:36:00.36	24.26	3.41	-59.3	-78.1	3.8	7.47e-01	0	30	104	0	86	33088
2026-01-02 23:36:01.36	24.37	3.46	-59.3	-78.1	3.8	7.48e-01	0	30	104	0	86	33058
2026-01-02 23:36:02.34	24.47	3.51	-59.2	-77.9	3.8	7.45e-01	0	30	104	0	86	32452
2026-01-02 23:36:03.34	24.58	3.57	-59.2	-78.1	3.8	7.47e-01	0	30	104	0	86	33097
2026-01-02 23:36:04.33	24.69	3.62	-59.3	-77.9	3.8	7.44e-01	0	30	104	0	86	32367
2026-01-02 23:36:05.33	24.79	3.67	-59.3	-78.2	3.8	7.48e-01	0	30	104	0	86	33342
2026-01-02 23:36:06.32	24.90	3.72	-59.3	-78.0	3.8	7.49e-01	0	30	104	0	86	32719
2026-01-02 23:36:07.32	25.01	3.77	-59.3	-77.8	3.8	7.42e-01	0	30	104	0	86	32044
2026-01-02 23:36:08.32	25.12	3.83	-59.2	-76.9	3.8	7.45e-01	0	30	104	0	86	28805
2026-01-02 23:36:09.32	25.23	3.88	-59.2	-75.6	3.9	7.44e-01	0	30	104	0	86	24830
2026-01-02 23:36:10.31	25.34	3.93	-59.2	-75.0	4.1	7.34e-01	0	30	104	0	86	23274
2026-01-02 23:36:11.31	25.45	3.98	-59.2	-75.2	4.0	7.42e-01	0	30	104	0	86	23683
2026-01-02 23:36:12.30	25.56	4.04	-59.2	-74.8	4.2	7.34e-01	0	30	104	0	86	22524
2026-01-02 23:36:13.30	25.67	4.09	-59.2	-74.7	4.1	7.31e-01	0	30	104	0	86	22500
2026-01-02 23:36:14.30	25.78	4.14	-59.2	-74.0	4.4	7.25e-01	0	30	104	0	86	20563
2026-01-02 23:36:15.30	25.90	4.19	-59.1	-72.4	5.0	7.10e-01	37	30	0	0	86	17257
2026-01-02 23:36:16.29	26.01	4.25	-59.0	-71.4	5.6	6.93e-01	0	30	0	0	86	15341
2026-01-02 23:36:17.29	26.12	4.30	-59.0	-70.7	6.1	6.77e-01	70	30	0	1572864	86	14178
2026-01-02 23:36:18.30	26.24	4.35	-59.0	-70.5	6.3	6.76e-01	92	30	0	3670016	86	13751
2026-01-02 23:36:19.30	26.35	4.41	-59.0	-70.4	6.3	6.71e-01	91	30	0	5242880	86	13591
2026-01-02 23:36:20.29	26.46	4.46	-58.9	-69.6	6.9	6.60e-01	91	30	0	7340032	86	12449
2026-01-02 23:36:21.29	26.58	4.51	-58.6	-67.1	9.0	6.27e-01	0	30	0	8912896	86	9296
2026-01-02 23:36:22.28	26.69	4.56	-57.9	-64.0	11.5	6.11e-01	0	30	0	11010048	85	6930
2026-01-02 23:36:23.27	26.81	4.62	-56.9	-61.2	13.4	6.04e-01	0	30	0	12582912	82	5942
2026-01-02 23:36:24.27	26.92	4.67	-55.9	-59.2	14.5	6.01e-01	0	30	0	14680064	81	4988
2026-01-02 23:36:25.27	27.04	4.72	-55.1	-57.9	15.0	6.01e-01	0	30	0	16777216	79	4820
2026-01-02 23:36:26.27	27.16	4.77	-54.5	-56.8	15.4	6.03e-01	0	30	0	18350080	78	4529
2026-01-02 23:36:27.26	27.27	4.83	-54.2	-56.4	15.5	6.03e-01	0	30	0	20447232	77	4573
2026-01-02 23:36:28.26	27.39	4.88	-54.4	-56.7	15.4	6.03e-01	0	30	0	22020096	77	4741
2026-01-02 23:36:29.27	27.51	4.93	-54.8	-57.3	15.1	6.05e-01	0	30	0	24117248	77	5082
2026-01-02 23:36:30.27	27.63	4.99	-55.5	-58.4	14.7	6.03e-01	0	30	0	25690112	78	5461
2026-01-02 23:36:31.26	27.75	5.04	-56.0	-59.3	14.3	6.02e-01	0	30	0	27787264	80	5354
2026-01-02 23:36:32.26	27.87	5.09	-53.9	-55.9	15.7	6.05e-01	0	30	0	29884416	76	4563
2026-01-02 23:36:33.26	27.99	5.15	-54.7	-57.1	15.2	6.02e-01	0	30	0	31457280	77	4964
2026-01-02 23:36:34.26	28.11	5.20	-57.7	-63.5	11.7	6.07e-01	0	30	0	33554432	83	7358
2026-01-02 23:36:35.26	28.23	5.25	-57.5	-62.3	12.3	6.05e-01	0	30	0	35127296	84	6050
2026-01-02 23:36:36.26	28.35	5.31	-55.0	-57.4	15.2	6.03e-01	0	30	0	37224448	78	4818
2026-01-02 23:36:37.25	28.47	5.36	-53.8	-55.7	15.7	6.03e-01	0	30	0	38797312	76	4459
2026-01-02 23:36:38.25	28.60	5.41	-53.7	-55.6	15.8	6.02e-01	0	30	0	40894464	76	4440
2026-01-02 23:36:39.25	28.72	5.46	-53.7	-55.6	15.8	6.05e-01	0	30	0	42991616	76	4406
2026-01-02 23:36:40.24	28.84	5.52	-53.8	-55.7	15.7	6.03e-01	0	30	0	44564480	76	4472
2026-01-02 23:36:41.24	28.97	5.57	-53.8	-55.7	15.7	6.04e-01	0	30	0	46661632	76	4474
2026-01-02 23:36:42.24	29.09	5.62	-53.8	-55.7	15.7	6.03e-01	0	30	0	48234496	76	4475
2026-01-02 23:36:43.24	29.22	5.68	-53.6	-55.5	15.8	6.06e-01	0	30	0	50331648	76	4361
2026-01-02 23:36:44.24	29.34	5.73	-53.5	-55.4	15.8	6.01e-01	0	30	0	51904512	76	4298
2026-01-02 23:36:45.23	29.47	5.78	-53.4	-55.2	15.9	6.02e-01	0	30	0	54001664	76	4232
2026-01-02 23:36:46.23	29.59	5.84	-53.3	-55.0	15.9	6.02e-01	0	30	0	55574528	75	4376
2026-01-02 23:36:47.23	29.72	5.89	-53.3	-55.0	15.9	6.03e-01	0	30	0	57671680	75	4385
2026-01-02 23:36:48.22	29.85	5.94	-53.4	-55.2	15.8	6.03e-01	0	30	0	59768832	75	4459
2026-01-02 23:36:49.22	29.97	6.00	-53.4	-55.1	15.9	6.02e-01	0	30	0	61341696	75	4437
2026-01-02 23:36:50.22	30.10	6.05	-53.4	-55.2	15.9	6.05e-01	0	31	0	63438848	75	4466
2026-01-02 23:36:51.22	30.23	6.10	-53.4	-55.2	15.8	6.04e-01	0	30	0	65011712	75	4475
2026-01-02 23:36:52.22	30.36	6.16	-53.4	-55.2	15.9	6.04e-01	0	31	0	67108864	75	4461
2026-01-02 23:36:53.22	30.49	6.21	-53.4	-55.1	15.9	6.04e-01	0	30	0	69206016	75	4438
2026-01-02 23:36:54.22	30.62	6.26	-53.2	-54.9	15.9	6.02e-01	0	30	0	70778880	75	4329
2026-01-02 23:36:55.22	30.75	6.32	-53.3	-55.0	15.9	6.04e-01	0	30	0	72876032	75	4373
2026-01-02 23:36:56.21	30.88	6.37	-53.2	-54.9	16.0	6.02e-01	0	30	0	74448896	75	4335
2026-01-02 23:36:57.21	31.01	6.43	-53.2	-54.9	16.0	6.01e-01	0	30	0	76546048	75	4321
2026-01-02 23:36:58.21	31.15	6.48	-53.3	-55.0	15.9	6.03e-01	0	30	0	78118912	75	4373
2026-01-02 23:36:59.20	31.28	6.53	-53.3	-55.1	15.9	6.05e-01	0	31	0	80216064	75	4396
2026-01-02 23:37:00.20	31.41	6.59	-53.3	-55.0	15.9	6.01e-01	0	30	0	82313216	75	4377
2026-01-02 23:37:01.20	31.55	6.64	-53.2	-54.9	15.9	6.04e-01	0	30	0	83886080	75	4331
2026-01-02 23:37:02.20	31.68	6.69	-53.2	-54.9	15.9	6.01e-01	0	31	0	85983232	75	4327
2026-01-02 23:37:03.20	31.81	6.75	-53.2	-54.9	16.0	6.03e-01	0	30	0	87556096	75	4296
2026-01-02 23:37:04.20	31.95	6.80	-53.2	-55.0	15.9	6.06e-01	0	31	0	89653248	75	4345
2026-01-02 23:37:05.20	32.09	6.85	-53.2	-54.8	16.0	6.03e-01	0	30	0	91226112	75	4290
2026-01-02 23:37:06.19	32.22	6.91	-53.1	-54.7	16.0	6.02e-01	0	30	0	93323264	75	4237
2026-01-02 23:37:07.19	32.36	6.96	-53.1	-54.8	16.0	6.04e-01	0	30	0	94896128	75	4247
2026-01-02 23:37:08.18	32.50	7.01	-53.1	-54.8	16.0	6.03e-01	0	31	0	96993280	75	4274
2026-01-02 23:37:09.18	32.63	7.07	-53.0	-54.7	16.0	6.05e-01	0	30	0	99090432	75	4212
2026-01-02 23:37:10.17	32.77	7.12	-53.0	-54.7	16.0	6.02e-01	0	30	0	100663296	75	4205
2026-01-02 23:37:11.17	32.91	7.17	-52.9	-54.6	16.1	6.02e-01	0	31	0	102760448	75	4156
2026-01-02 23:37:12.17	33.05	7.23	-53.0	-54.7	16.0	6.06e-01	0	30	0	104333312	75	4211
2026-01-02 23:37:13.17	33.19	7.28	-53.0	-54.7	16.1	6.03e-01	0	31	0	106430464	75	4195
2026-01-02 23:37:14.17	33.33	7.33	-53.0	-54.7	16.1	6.03e-01	0	31	0	108003328	75	4206
2026-01-02 23:37:15.17	33.47	7.39	-53.0	-54.6	16.1	6.03e-01	0	30	0	110100480	75	4180
2026-01-02 23:37:16.16	33.61	7.44	-53.0	-54.6	16.1	6.04e-01	0	31	0	112197632	75	4176
2026-01-02 23:37:17.16	33.76	7.49	-53.0	-54.6	16.1	6.02e-01	0	30	0	113770496	75	4187
2026-01-02 23:37:18.16	33.90	7.55	-52.9	-54.4	16.1	6.04e-01	0	31	0	115867648	74	4336
2026-01-02 23:37:19.16	34.04	7.60	-52.9	-54.5	16.1	6.05e-01	0	31	0	117440512	74	4346
2026-01-02 23:37:20.16	34.19	7.65	-52.9	-54.5	16.1	6.01e-01	0	31	0	119537664	74	4353
2026-01-02 23:37:21.16	34.33	7.71	-52.9	-54.6	16.1	6.03e-01	0	30	0	121110528	74	4399
2026-01-02 23:37:22.16	34.48	7.76	-53.0	-54.6	16.0	6.02e-01	0	31	0	123207680	74	4423
2026-01-02 23:37:23.16	34.62	7.81	-53.0	-54.6	16.0	6.05e-01	0	31	0	125304832	74	4409
2026-01-02 23:37:24.16	34.77	7.87	-53.0	-54.6	16.1	6.05e-01	0	31	0	126877696	74	4407
2026-01-02 23:37:25.16	34.92	7.92	-52.9	-54.5	16.1	6.02e-01	0	30	0	128974848	74	4372
2026-01-02 23:37:26.15	35.06	7.97	-52.8	-54.4	16.1	6.03e-01	0	31	0	130547712	74	4316
2026-01-02 23:37:27.15	35.21	8.03	-52.8	-54.4	16.1	6.02e-01	0	31	0	132644864	74	4305
2026-01-02 23:37:28.14	35.36	8.08	-52.8	-54.4	16.1	6.02e-01	0	31	0	134217728	74	4330
2026-01-02 23:37:29.14	35.51	8.13	-52.8	-54.4	16.1	6.05e-01	0	31	0	136314880	74	4306
2026-01-02 23:37:30.14	35.66	8.19	-52.9	-54.5	16.1	6.03e-01	0	31	0	137887744	74	4351
2026-01-02 23:37:31.13	35.80	8.24	-52.9	-54.5	16.1	6.02e-01	0	31	0	139984896	74	4350
2026-01-02 23:37:32.13	35.96	8.29	-52.8	-54.3	16.1	6.04e-01	0	31	0	142082048	74	4277
2026-01-02 23:37:33.13	36.11	8.34	-52.7	-54.3	16.1	6.04e-01	0	31	0	143654912	74	4259
2026-01-02 23:37:34.13	36.26	8.40	-52.8	-54.3	16.1	6.03e-01	0	31	0	145752064	74	4272
2026-01-02 23:37:35.12	36.41	8.45	-52.7	-54.2	16.2	6.03e-01	0	31	0	147324928	74	4242
2026-01-02 23:37:36.12	36.56	8.50	-52.7	-54.2	16.2	6.03e-01	0	31	0	149422080	74	4204
2026-01-02 23:37:37.12	36.72	8.56	-52.7	-54.2	16.2	6.03e-01	0	31	0	151519232	74	4220
2026-01-02 23:37:38.12	36.87	8.61	-52.7	-54.2	16.2	6.04e-01	0	31	0	153092096	74	4224
2026-01-02 23:37:39.12	37.03	8.66	-52.7	-54.2	16.2	6.06e-01	0	31	0	155189248	74	4219
2026-01-02 23:37:40.12	37.18	8.71	-52.7	-54.2	16.2	6.05e-01	0	31	0	156762112	74	4221
2026-01-02 23:37:41.12	37.34	8.77	-52.6	-54.1	16.2	6.03e-01	0	31	0	158859264	74	4164
2026-01-02 23:37:42.12	37.49	8.82	-52.7	-54.2	16.2	6.04e-01	0	31	0	160432128	74	4211
2026-01-02 23:37:43.12	37.65	8.87	-52.6	-54.0	16.2	6.04e-01	0	31	0	162529280	74	4145
2026-01-02 23:37:44.12	37.81	8.92	-52.5	-54.0	16.2	6.03e-01	0	31	0	164626432	74	4130
2026-01-02 23:37:45.11	37.97	8.98	-52.6	-54.1	16.2	6.04e-01	0	31	0	166199296	74	4185
2026-01-02 23:37:46.11	38.13	9.03	-52.5	-54.0	16.2	6.03e-01	0	31	0	168296448	74	4135
2026-01-02 23:37:47.12	38.29	9.08	-52.5	-53.9	16.3	6.02e-01	0	31	0	169869312	74	4098
2026-01-02 23:37:48.12	38.45	9.13	-52.6	-54.1	16.2	6.06e-01	0	31	0	171966464	74	4172
2026-01-02 23:37:49.12	38.61	9.19	-52.6	-54.1	16.2	6.01e-01	0	31	0	173539328	74	4183
2026-01-02 23:37:50.13	38.77	9.24	-52.5	-54.0	16.2	6.05e-01	0	31	0	175636480	74	4117
2026-01-02 23:37:51.12	38.93	9.29	-52.5	-54.0	16.2	6.04e-01	0	31	0	177733632	74	4116
2026-01-02 23:37:52.12	39.10	9.34	-52.4	-53.9	16.3	6.03e-01	0	31	0	179306496	74	4072
2026-01-02 23:37:53.13	39.26	9.40	-52.5	-53.9	16.2	6.05e-01	0	31	0	181403648	74	4086
2026-01-02 23:37:54.13	39.42	9.45	-52.4	-53.9	16.3	6.04e-01	0	31	0	182976512	74	4052
2026-01-02 23:37:55.12	39.59	9.50	-52.4	-53.9	16.3	6.02e-01	0	31	0	185073664	74	4053
2026-01-02 23:37:56.12	39.75	9.55	-52.4	-53.9	16.3	6.03e-01	0	31	0	186646528	74	4075
2026-01-02 23:37:57.12	39.92	9.60	-52.5	-53.9	16.3	6.04e-01	0	31	0	188743680	74	4082
2026-01-02 23:37:58.11	40.08	9.65	-52.5	-53.9	16.3	6.02e-01	0	31	0	190840832	74	4082
2026-01-02 23:37:59.12	40.25	9.71	-52.4	-53.8	16.3	6.03e-01	0	31	0	192413696	74	4047
2026-01-02 23:38:00.12	40.42	9.76	-52.2	-53.6	16.3	6.04e-01	0	31	0	194510848	73	4178
2026-01-02 23:38:01.11	40.59	9.81	-52.2	-53.6	16.3	6.02e-01	0	31	0	196083712	73	4187
2026-01-02 23:38:02.11	40.76	9.86	-52.3	-53.7	16.3	6.03e-01	0	31	0	198180864	73	4240
2026-01-02 23:38:03.11	40.93	9.91	-52.3	-53.8	16.2	6.03e-01	0	31	0	200278016	73	4246
2026-01-02 23:38:04.12	41.10	9.96	-52.4	-53.9	16.2	6.02e-01	0	31	0	201850880	73	4295
2026-01-02 23:38:05.11	41.27	10.01	-52.4	-53.8	16.2	6.05e-01	0	31	0	203948032	73	4274
2026-01-02 23:38:06.11	41.44	10.06	-52.3	-53.7	16.3	6.01e-01	0	31	0	205520896	73	4205
2026-01-02 23:38:07.11	41.61	10.12	-52.3	-53.7	16.3	6.04e-01	0	31	0	207618048	73	4230
2026-01-02 23:38:08.11	41.78	10.17	-52.2	-53.6	16.3	6.05e-01	0	31	0	209190912	73	4170
2026-01-02 23:38:09.10	41.95	10.22	-52.2	-53.6	16.3	6.04e-01	0	31	0	211288064	73	4178
2026-01-02 23:38:10.10	42.13	10.27	-52.3	-53.7	16.2	6.04e-01	0	31	0	213385216	73	4221
2026-01-02 23:38:11.10	42.30	10.32	-52.2	-53.7	16.3	6.03e-01	0	31	0	214958080	73	4197
2026-01-02 23:38:12.10	42.48	10.37	-52.3	-53.7	16.3	6.03e-01	0	31	0	217055232	73	4203
2026-01-02 23:38:13.11	42.66	10.42	-52.2	-53.6	16.3	6.04e-01	0	31	0	218628096	73	4148
2026-01-02 23:38:14.11	42.83	10.47	-52.2	-53.6	16.3	6.04e-01	0	31	0	220725248	73	4171
2026-01-02 23:38:15.10	43.01	10.52	-52.2	-53.6	16.3	6.03e-01	0	31	0	222298112	73	4147
2026-01-02 23:38:16.10	43.19	10.57	-52.1	-53.5	16.3	6.05e-01	0	31	0	224395264	73	4137
2026-01-02 23:38:17.10	43.36	10.62	-52.1	-53.5	16.3	6.04e-01	0	31	0	226492416	73	4136
2026-01-02 23:38:18.10	43.54	10.67	-52.1	-53.5	16.3	6.04e-01	0	31	0	228065280	73	4110
2026-01-02 23:38:19.10	43.72	10.72	-52.2	-53.6	16.3	6.02e-01	0	31	0	230162432	73	4147
2026-01-02 23:38:20.09	43.90	10.77	-52.1	-53.4	16.4	6.04e-01	0	31	0	231735296	73	4087
2026-01-02 23:38:21.09	44.08	10.82	-52.0	-53.3	16.4	6.02e-01	0	31	0	233832448	73	4039
2026-01-02 23:38:22.09	44.26	10.87	-52.0	-53.4	16.4	6.02e-01	0	31	0	235405312	73	4053
2026-01-02 23:38:23.09	44.45	10.91	-52.1	-53.4	16.4	6.06e-01	0	31	0	237502464	73	4088
2026-01-02 23:38:24.09	44.63	10.96	-52.1	-53.5	16.3	6.04e-01	0	31	0	239075328	73	4119
2026-01-02 23:38:25.10	44.81	11.01	-52.1	-53.5	16.3	6.05e-01	0	31	0	241172480	73	4102
2026-01-02 23:38:26.09	45.00	11.06	-52.1	-53.4	16.3	6.05e-01	0	31	0	243269632	73	4082
2026-01-02 23:38:27.09	45.18	11.11	-52.0	-53.4	16.4	6.04e-01	0	31	0	244842496	73	4066
2026-01-02 23:38:28.09	45.37	11.16	-52.1	-53.4	16.4	6.03e-01	0	31	0	246939648	73	4089
2026-01-02 23:38:29.09	45.55	11.21	-52.1	-53.5	16.4	6.05e-01	0	31	0	248512512	73	4107
2026-01-02 23:38:30.08	45.74	11.25	-52.0	-53.3	16.4	6.03e-01	0	31	0	250609664	73	4049
2026-01-02 23:38:31.08	45.93	11.30	-51.8	-53.1	16.3	6.04e-01	0	31	0	252182528	72	4193
2026-01-02 23:38:32.07	46.11	11.35	-51.8	-53.1	16.4	6.05e-01	0	31	0	254279680	72	4191
2026-01-02 23:38:33.07	46.30	11.40	-51.8	-53.1	16.4	6.04e-01	0	31	0	256376832	72	4179
2026-01-02 23:38:34.08	46.49	11.44	-52.0	-53.3	16.4	6.03e-01	0	31	0	257949696	72	4267
2026-01-02 23:38:35.08	46.68	11.49	-52.0	-53.3	16.3	6.02e-01	0	31	0	260046848	72	4270
2026-01-02 23:38:36.09	46.87	11.54	-52.0	-53.3	16.3	6.02e-01	0	31	0	261619712	72	4267
2026-01-02 23:38:37.09	47.07	11.59	-52.0	-53.3	16.3	6.03e-01	0	31	0	263716864	72	4279
2026-01-02 23:38:38.09	47.26	11.63	-52.0	-53.3	16.3	6.06e-01	0	31	0	265289728	72	4270
2026-01-02 23:38:39.08	47.45	11.68	-51.9	-53.2	16.3	6.04e-01	0	31	0	267386880	72	4218
2026-01-02 23:38:40.08	47.64	11.73	-51.9	-53.3	16.3	6.05e-01	0	31	0	269484032	72	4260
2026-01-02 23:38:41.09	47.84	11.77	-52.0	-53.3	16.3	6.05e-01	0	31	0	271056896	72	4288
2026-01-02 23:38:42.08	48.03	11.82	-51.9	-53.2	16.3	6.03e-01	0	31	0	273154048	72	4232
2026-01-02 23:38:43.08	48.22	11.86	-51.8	-53.1	16.4	6.06e-01	0	31	0	274726912	72	4181
2026-01-02 23:38:44.08	48.42	11.91	-51.9	-53.2	16.4	6.02e-01	0	31	0	276824064	72	4207
2026-01-02 23:38:45.07	48.61	11.95	-51.8	-53.1	16.4	6.02e-01	0	31	0	278921216	72	4179
2026-01-02 23:38:46.07	48.81	12.00	-51.8	-53.2	16.4	6.04e-01	0	31	0	280494080	72	4198
2026-01-02 23:38:47.07	49.01	12.05	-51.9	-53.2	16.4	6.05e-01	0	31	0	282591232	72	4214
2026-01-02 23:38:48.06	49.21	12.09	-51.9	-53.3	16.3	6.04e-01	0	31	0	284164096	72	4251
2026-01-02 23:38:49.06	49.40	12.13	-51.8	-53.1	16.4	6.01e-01	0	30	0	286261248	72	4180
2026-01-02 23:38:50.06	49.60	12.18	-51.8	-53.1	16.4	6.04e-01	0	31	0	287834112	72	4156
2026-01-02 23:38:51.07	49.81	12.22	-51.9	-53.2	16.4	6.05e-01	0	31	0	289931264	72	4205
2026-01-02 23:38:52.06	50.01	12.27	-52.0	-53.3	16.3	6.01e-01	0	31	0	292028416	72	4278
2026-01-02 23:38:53.06	50.21	12.31	-52.1	-53.5	16.3	6.04e-01	0	31	0	293601280	72	4341
2026-01-02 23:38:54.06	50.41	12.36	-52.1	-53.5	16.3	6.01e-01	0	31	0	295698432	72	4375
2026-01-02 23:38:55.06	50.61	12.40	-51.9	-53.3	16.4	6.02e-01	0	31	0	297271296	72	4263
2026-01-02 23:38:56.06	50.82	12.44	-51.7	-53.0	16.4	6.04e-01	0	31	0	299368448	72	4115
2026-01-02 23:38:57.06	51.02	12.48	-51.9	-53.2	16.4	6.02e-01	0	31	0	300941312	72	4209
2026-01-02 23:38:58.05	51.22	12.53	-51.8	-53.2	16.4	6.04e-01	0	31	0	303038464	72	4199
2026-01-02 23:38:59.05	51.43	12.57	-51.8	-53.1	16.4	6.05e-01	0	31	0	305135616	72	4168
2026-01-02 23:39:00.05	51.63	12.61	-51.7	-53.0	16.4	6.02e-01	0	31	0	306708480	72	4134
2026-01-02 23:39:01.06	51.84	12.65	-51.7	-53.0	16.4	6.03e-01	0	31	0	308805632	72	4112
2026-01-02 23:39:02.06	52.05	12.70	-51.7	-53.0	16.4	6.04e-01	0	31	0	310378496	72	4135
2026-01-02 23:39:03.06	52.26	12.74	-51.7	-53.0	16.4	6.03e-01	0	31	0	312475648	72	4129
2026-01-02 23:39:04.05	52.46	12.78	-51.8	-53.2	16.4	6.05e-01	0	31	0	314048512	72	4201
2026-01-02 23:39:05.05	52.67	12.82	-51.6	-52.9	16.4	6.03e-01	0	31	0	316145664	72	4062
2026-01-02 23:39:06.05	52.88	12.86	-51.5	-52.8	16.4	6.03e-01	0	31	0	318242816	72	4008
2026-01-02 23:39:07.05	53.09	12.90	-51.6	-52.9	16.4	6.03e-01	0	31	0	319815680	72	4055
2026-01-02 23:39:08.05	53.30	12.94	-51.7	-53.0	16.4	6.02e-01	0	31	0	321912832	72	4135
2026-01-02 23:39:09.04	53.51	12.98	-51.7	-53.0	16.4	6.04e-01	0	31	0	323485696	72	4127
2026-01-02 23:39:10.03	53.72	13.02	-51.8	-53.1	16.4	6.01e-01	0	31	0	325582848	72	4179
2026-01-02 23:39:11.04	53.94	13.06	-51.7	-53.0	16.5	6.01e-01	0	31	0	327155712	72	4104
2026-01-02 23:39:12.05	54.15	13.10	-51.6	-52.8	16.5	6.03e-01	0	31	0	329252864	72	4045
2026-01-02 23:39:13.05	54.36	13.14	-51.6	-52.9	16.5	6.04e-01	0	31	0	331350016	72	4062
2026-01-02 23:39:14.05	54.58	13.18	-51.6	-52.9	16.5	6.04e-01	0	31	0	332922880	72	4084
2026-01-02 23:39:15.05	54.79	13.22	-51.7	-52.9	16.5	6.03e-01	0	31	0	335020032	72	4097
2026-01-02 23:39:16.04	55.01	13.25	-51.7	-53.0	16.4	6.04e-01	0	31	0	336592896	72	4138
2026-01-02 23:39:17.04	55.22	13.29	-51.7	-52.9	16.4	6.04e-01	0	31	0	338690048	72	4093
2026-01-02 23:39:18.04	55.44	13.33	-51.7	-52.9	16.4	6.04e-01	0	31	0	340262912	72	4088
2026-01-02 23:39:19.04	55.66	13.37	-51.6	-52.9	16.4	6.04e-01	0	31	0	342360064	72	4063
2026-01-02 23:39:20.04	55.88	13.40	-51.6	-52.9	16.4	6.02e-01	0	31	0	344457216	72	4089
2026-01-02 23:39:21.04	56.09	13.44	-51.6	-52.8	16.5	6.03e-01	0	31	0	346030080	72	4044
2026-01-02 23:39:22.04	56.31	13.48	-51.6	-52.9	16.4	6.03e-01	0	31	0	348127232	72	4073
2026-01-02 23:39:23.04	56.53	13.51	-51.6	-52.9	16.4	6.03e-01	0	31	0	349700096	72	4070
2026-01-02 23:39:24.04	56.75	13.55	-51.6	-52.9	16.4	6.01e-01	0	31	0	351797248	72	4069
2026-01-02 23:39:25.03	56.97	13.59	-51.7	-52.9	16.5	6.02e-01	0	31	0	353370112	72	4091
2026-01-02 23:39:26.03	57.19	13.62	-51.7	-52.9	16.4	6.03e-01	0	31	0	355467264	72	4085
2026-01-02 23:39:27.02	57.41	13.65	-51.7	-52.9	16.5	6.02e-01	0	31	0	357564416	72	4093
2026-01-02 23:39:28.02	57.63	13.69	-51.7	-52.9	16.5	6.02e-01	0	31	0	359137280	72	4083
2026-01-02 23:39:29.02	57.86	13.72	-51.6	-52.9	16.5	6.02e-01	0	31	0	361234432	72	4076
2026-01-02 23:39:30.02	58.08	13.76	-51.6	-52.9	16.4	6.02e-01	0	31	0	362807296	72	4071
2026-01-02 23:39:31.02	58.30	13.79	-51.6	-52.9	16.5	6.02e-01	0	31	0	364904448	72	4055
2026-01-02 23:39:32.02	58.53	13.82	-51.6	-52.9	16.5	6.01e-01	0	31	0	366477312	72	4058
2026-01-02 23:39:33.03	58.76	13.86	-51.6	-52.9	16.5	6.03e-01	0	31	0	368574464	72	4058
2026-01-02 23:39:34.03	58.98	13.89	-51.6	-52.9	16.4	6.05e-01	0	31	0	370671616	72	4084
2026-01-02 23:39:35.03	59.21	13.92	-51.6	-52.8	16.5	6.02e-01	0	31	0	372244480	72	4045
2026-01-02 23:39:36.03	59.43	13.95	-51.6	-52.9	16.5	6.03e-01	0	31	0	374341632	72	4070
2026-01-02 23:39:37.03	59.66	13.99	-51.7	-53.0	16.5	6.02e-01	0	31	0	375914496	72	4112
2026-01-02 23:39:38.03	59.89	14.02	-51.5	-52.8	16.5	6.03e-01	0	31	0	378011648	72	4019
2026-01-02 23:39:39.03	60.12	14.05	-51.4	-52.7	16.5	6.04e-01	0	31	0	379584512	72	3967
2026-01-02 23:39:40.02	60.34	14.08	-51.5	-52.8	16.5	6.02e-01	0	31	0	381681664	72	4017
2026-01-02 23:39:41.02	60.57	14.11	-51.6	-52.8	16.5	6.03e-01	0	31	0	383778816	72	4029
2026-01-02 23:39:42.03	60.80	14.14	-51.6	-52.9	16.4	6.04e-01	0	31	0	385351680	72	4052
2026-01-02 23:39:43.03	61.03	14.17	-51.6	-52.8	16.4	6.03e-01	0	31	0	387448832	72	4046
2026-01-02 23:39:44.02	61.26	14.20	-51.4	-52.7	16.5	6.01e-01	0	31	0	389021696	72	3974
2026-01-02 23:39:45.02	61.49	14.23	-51.5	-52.8	16.5	6.01e-01	0	31	0	391118848	72	4019
2026-01-02 23:39:46.01	61.72	14.25	-51.6	-52.8	16.5	6.02e-01	0	31	0	393216000	72	4049
2026-01-02 23:39:47.01	61.95	14.28	-51.5	-52.8	16.5	6.01e-01	0	31	0	394788864	72	4014
2026-01-02 23:39:48.01	62.19	14.31	-51.6	-52.8	16.5	6.03e-01	0	31	0	396886016	72	4029
2026-01-02 23:39:49.02	62.42	14.34	-51.5	-52.7	16.5	6.03e-01	0	31	0	398458880	72	3996
2026-01-02 23:39:50.02	62.65	14.36	-51.5	-52.8	16.5	6.03e-01	0	31	0	400556032	72	4008
2026-01-02 23:39:51.02	62.89	14.39	-51.6	-52.8	16.5	6.03e-01	0	31	0	402128896	72	4044
2026-01-02 23:39:52.01	63.12	14.41	-51.6	-52.8	16.5	6.03e-01	0	31	0	404226048	72	4048
2026-01-02 23:39:53.00	63.35	14.44	-51.5	-52.7	16.5	6.06e-01	0	31	0	406323200	72	3999
2026-01-02 23:39:54.00	63.59	14.47	-51.5	-52.7	16.5	6.01e-01	0	31	0	407896064	72	3977
2026-01-02 23:39:55.00	63.82	14.49	-51.5	-52.7	16.5	6.03e-01	0	31	0	409993216	72	3993
2026-01-02 23:39:56.00	64.06	14.51	-51.7	-52.9	16.4	6.02e-01	0	31	0	411566080	72	4083
2026-01-02 23:39:57.01	64.30	14.54	-51.6	-52.9	16.5	6.02e-01	0	31	0	413663232	72	4058
2026-01-02 23:39:58.00	64.53	14.56	-51.7	-53.0	16.4	6.02e-01	0	31	0	415236096	72	4106
2026-01-02 23:39:59.00	64.77	14.59	-51.7	-53.0	16.5	6.03e-01	0	31	0	417333248	72	4121
2026-01-02 23:39:59.99	65.00	14.61	-51.6	-52.9	16.5	6.04e-01	0	31	0	418906112	72	4083
2026-01-02 23:40:01.00	65.24	14.63	-51.6	-52.8	16.5	6.05e-01	0	31	0	421003264	72	4031
2026-01-02 23:40:02.00	65.48	14.65	-51.6	-52.8	16.5	6.02e-01	0	31	0	423100416	72	4027
2026-01-02 23:40:02.99	65.72	14.67	-51.5	-52.8	16.5	6.03e-01	0	31	0	424673280	72	4018
2026-01-02 23:40:03.99	65.96	14.69	-51.4	-52.6	16.5	6.04e-01	0	31	0	426770432	72	3948
2026-01-02 23:40:04.98	66.19	14.72	-51.5	-52.7	16.5	6.03e-01	0	31	0	428343296	72	3984
2026-01-02 23:40:05.97	66.43	14.74	-51.5	-52.8	16.5	6.04e-01	0	31	0	430440448	72	4006
2026-01-02 23:40:06.96	66.67	14.76	-51.6	-52.8	16.5	6.04e-01	0	31	0	432013312	72	4044
2026-01-02 23:40:07.96	66.91	14.77	-51.5	-52.8	16.5	6.02e-01	0	31	0	434110464	72	4022
2026-01-02 23:40:08.96	67.15	14.79	-51.4	-52.7	16.5	6.04e-01	0	31	0	436207616	72	3971
2026-01-02 23:40:09.95	67.39	14.81	-51.4	-52.6	16.5	6.04e-01	0	31	0	437780480	72	3955
2026-01-02 23:40:10.95	67.63	14.83	-51.4	-52.7	16.5	6.04e-01	0	31	0	439877632	72	3973
2026-01-02 23:40:11.95	67.87	14.85	-51.5	-52.7	16.5	6.01e-01	0	31	0	441450496	72	3984
2026-01-02 23:40:12.95	68.11	14.87	-51.5	-52.7	16.5	6.05e-01	0	31	0	443547648	72	3991
2026-01-02 23:40:13.96	68.36	14.88	-51.4	-52.7	16.5	6.04e-01	0	31	0	445120512	72	3972
2026-01-02 23:40:14.95	68.60	14.90	-51.5	-52.7	16.5	6.04e-01	0	31	0	447217664	72	3993
2026-01-02 23:40:15.94	68.84	14.91	-51.5	-52.7	16.5	6.04e-01	0	31	0	448790528	72	3982
2026-01-02 23:40:16.95	69.08	14.93	-51.5	-52.8	16.5	6.05e-01	0	31	0	450887680	72	4012
2026-01-02 23:40:17.94	69.32	14.94	-51.4	-52.7	16.5	6.02e-01	0	31	0	452984832	72	3963
2026-01-02 23:40:18.94	69.57	14.96	-51.4	-52.6	16.5	6.05e-01	0	31	0	454557696	71	4168
2026-01-02 23:40:19.94	69.81	14.97	-51.4	-52.7	16.4	6.03e-01	0	31	0	456654848	71	4205
2026-01-02 23:40:20.93	70.05	14.99	-51.5	-52.8	16.4	6.04e-01	0	31	0	458227712	71	4243
2026-01-02 23:40:21.93	70.30	15.00	-51.6	-52.8	16.4	6.03e-01	0	31	0	460324864	71	4289
2026-01-02 23:40:22.93	70.54	15.01	-51.4	-52.7	16.4	6.04e-01	0	31	0	461897728	71	4203
2026-01-02 23:40:23.92	70.78	15.03	-51.4	-52.7	16.4	6.04e-01	0	31	0	463994880	71	4194
2026-01-02 23:40:24.92	71.03	15.04	-51.5	-52.7	16.4	6.04e-01	0	31	0	466092032	71	4233
2026-01-02 23:40:25.93	71.27	15.05	-51.5	-52.7	16.4	6.03e-01	0	31	0	467664896	71	4241
2026-01-02 23:40:26.93	71.52	15.06	-51.4	-52.6	16.5	6.03e-01	0	31	0	469762048	71	4175
2026-01-02 23:40:27.92	71.76	15.07	-51.4	-52.7	16.5	6.04e-01	0	31	0	471334912	71	4202
2026-01-02 23:40:28.92	72.01	15.08	-51.5	-52.8	16.4	6.04e-01	0	31	0	473432064	71	4256
2026-01-02 23:40:29.91	72.25	15.09	-51.5	-52.8	16.5	6.04e-01	0	31	0	475529216	71	4253
2026-01-02 23:40:30.91	72.50	15.10	-51.4	-52.6	16.5	6.02e-01	0	31	0	477102080	71	4183
2026-01-02 23:40:31.90	72.74	15.11	-51.4	-52.6	16.5	6.04e-01	0	31	0	479199232	71	4190
2026-01-02 23:40:32.89	72.99	15.12	-51.3	-52.5	16.5	6.00e-01	0	31	0	480772096	71	4123
2026-01-02 23:40:33.90	73.23	15.12	-51.4	-52.6	16.5	6.02e-01	0	31	0	482869248	71	4170
2026-01-02 23:40:34.89	73.48	15.13	-51.5	-52.8	16.4	6.05e-01	0	31	0	484442112	71	4258
2026-01-02 23:40:35.89	73.72	15.14	-51.5	-52.8	16.4	6.01e-01	0	31	0	486539264	71	4246
2026-01-02 23:40:36.89	73.97	15.14	-51.4	-52.7	16.4	6.02e-01	0	31	0	488112128	71	4210
2026-01-02 23:40:37.90	74.22	15.15	-51.5	-52.8	16.4	6.02e-01	0	31	0	490209280	71	4246
2026-01-02 23:40:38.89	74.47	15.15	-51.4	-52.6	16.5	6.04e-01	0	31	0	492306432	71	4189
2026-01-02 23:40:39.87	74.71	15.16	-51.5	-52.7	16.4	6.05e-01	0	31	0	493879296	71	4229
2026-01-02 23:40:40.87	74.95	15.16	-51.3	-52.5	16.5	6.01e-01	0	31	0	495976448	71	4129
2026-01-02 23:40:41.86	75.20	15.17	-51.4	-52.6	16.5	6.01e-01	0	31	0	497549312	71	4168
2026-01-02 23:40:42.85	75.44	15.17	-51.4	-52.7	16.5	6.03e-01	0	31	0	499646464	71	4210
2026-01-02 23:40:43.86	75.69	15.17	-51.6	-52.9	16.4	6.05e-01	0	31	0	501219328	71	4294
2026-01-02 23:40:44.86	75.94	15.18	-51.5	-52.8	16.4	6.02e-01	0	31	0	503316480	71	4260
2026-01-02 23:40:45.85	76.19	15.18	-51.5	-52.8	16.4	6.03e-01	0	31	0	505413632	71	4250
2026-01-02 23:40:46.86	76.44	15.18	-51.6	-52.8	16.4	6.01e-01	0	31	0	506986496	71	4275
2026-01-02 23:40:47.86	76.68	15.18	-51.4	-52.7	16.5	6.00e-01	0	31	0	509083648	71	4200
2026-01-02 23:40:48.85	76.93	15.18	-51.6	-52.8	16.4	6.01e-01	0	31	0	510656512	71	4267
2026-01-02 23:40:49.85	77.18	15.18	-51.5	-52.8	16.4	6.03e-01	0	31	0	512753664	71	4260
2026-01-02 23:40:50.85	77.42	15.18	-51.6	-52.9	16.4	6.06e-01	0	31	0	514326528	71	4318
2026-01-02 23:40:51.85	77.67	15.18	-51.7	-52.9	16.4	6.03e-01	0	31	0	516423680	71	4337
2026-01-02 23:40:52.85	77.92	15.18	-51.5	-52.7	16.4	6.03e-01	0	31	0	518520832	71	4223
2026-01-02 23:40:53.85	78.17	15.18	-51.4	-52.6	16.5	6.02e-01	0	31	0	520093696	71	4157
2026-01-02 23:40:54.84	78.41	15.18	-51.4	-52.6	16.5	6.05e-01	0	31	0	522190848	71	4162
2026-01-02 23:40:55.84	78.66	15.17	-51.5	-52.7	16.4	6.04e-01	0	31	0	523763712	71	4218
2026-01-02 23:40:56.84	78.91	15.17	-51.4	-52.7	16.5	6.02e-01	0	31	0	525860864	71	4201
2026-01-02 23:40:57.85	79.16	15.17	-51.3	-52.6	16.5	6.03e-01	0	31	0	527433728	71	4146
2026-01-02 23:40:58.85	79.40	15.16	-51.3	-52.6	16.5	6.00e-01	0	31	0	529530880	71	4150
2026-01-02 23:40:59.84	79.65	15.16	-51.4	-52.7	16.4	6.05e-01	0	31	0	531103744	71	4204
2026-01-02 23:41:00.84	79.90	15.15	-51.5	-52.8	16.4	6.02e-01	0	31	0	533200896	71	4245
2026-01-02 23:41:01.84	80.14	15.15	-51.5	-52.7	16.4	6.04e-01	0	31	0	535298048	71	4233
2026-01-02 23:41:02.83	80.39	15.14	-51.3	-52.5	16.5	6.01e-01	0	31	0	536870912	71	4104
2026-01-02 23:41:03.82	80.63	15.13	-51.2	-52.4	16.5	6.03e-01	0	31	0	538968064	71	4092
2026-01-02 23:41:04.82	80.88	15.13	-51.3	-52.5	16.5	6.02e-01	0	31	0	540540928	71	4140
2026-01-02 23:41:05.82	81.13	15.12	-51.4	-52.7	16.4	6.03e-01	0	31	0	542638080	71	4211
2026-01-02 23:41:06.82	81.37	15.11	-51.5	-52.7	16.5	6.03e-01	0	31	0	544210944	71	4230
2026-01-02 23:41:07.81	81.62	15.10	-51.5	-52.7	16.4	6.03e-01	0	31	0	546308096	71	4235
2026-01-02 23:41:08.81	81.86	15.09	-51.3	-52.5	16.5	6.04e-01	0	31	0	548405248	71	4127
2026-01-02 23:41:09.81	82.11	15.08	-51.3	-52.6	16.5	6.02e-01	0	31	0	549978112	71	4147
2026-01-02 23:41:10.81	82.35	15.08	-51.3	-52.5	16.5	6.04e-01	0	31	0	552075264	71	4144
2026-01-02 23:41:11.81	82.60	15.06	-51.3	-52.5	16.5	6.02e-01	0	31	0	553648128	71	4128
2026-01-02 23:41:12.81	82.85	15.05	-51.3	-52.6	16.5	6.00e-01	0	31	0	555745280	71	4154
2026-01-02 23:41:13.81	83.09	15.04	-51.3	-52.5	16.4	6.05e-01	0	31	0	557842432	71	4133
2026-01-02 23:41:14.80	83.33	15.03	-51.3	-52.5	16.5	6.03e-01	0	31	0	559415296	71	4123
2026-01-02 23:41:15.80	83.58	15.02	-51.3	-52.5	16.4	6.03e-01	0	31	0	560988160	71	4121
2026-01-02 23:41:16.79	83.82	15.01	-51.4	-52.6	16.5	6.04e-01	0	31	0	563085312	71	4169
2026-01-02 23:41:17.78	84.06	14.99	-51.4	-52.6	16.4	6.03e-01	0	31	0	565182464	71	4179
2026-01-02 23:41:18.78	84.31	14.98	-51.3	-52.6	16.4	6.04e-01	0	31	0	566755328	71	4158
2026-01-02 23:41:19.77	84.55	14.97	-51.3	-52.5	16.5	6.03e-01	0	31	0	568852480	71	4127
2026-01-02 23:41:20.77	84.79	14.95	-51.3	-52.5	16.5	6.03e-01	0	31	0	570425344	71	4129
2026-01-02 23:41:21.77	85.04	14.94	-51.4	-52.7	16.5	6.03e-01	0	31	0	572522496	71	4195
2026-01-02 23:41:22.77	85.28	14.92	-51.4	-52.7	16.5	6.03e-01	0	31	0	574619648	71	4207
2026-01-02 23:41:23.77	85.52	14.91	-51.4	-52.6	16.4	6.07e-01	0	31	0	576192512	71	4174
2026-01-02 23:41:24.77	85.77	14.89	-51.3	-52.5	16.4	6.05e-01	0	31	0	578289664	71	4123
2026-01-02 23:41:25.77	86.01	14.87	-51.4	-52.6	16.5	6.04e-01	0	31	0	579862528	71	4176
2026-01-02 23:41:26.76	86.25	14.86	-51.4	-52.6	16.5	6.02e-01	0	31	0	581959680	71	4190
2026-01-02 23:41:27.77	86.49	14.84	-51.5	-52.7	16.4	6.03e-01	0	31	0	583532544	71	4220
2026-01-02 23:41:28.76	86.73	14.82	-51.4	-52.7	16.4	6.02e-01	0	31	0	585629696	71	4201
2026-01-02 23:41:29.76	86.97	14.80	-51.4	-52.6	16.5	6.02e-01	0	31	0	587726848	71	4158
2026-01-02 23:41:30.76	87.21	14.78	-51.3	-52.5	16.5	6.00e-01	0	31	0	589299712	71	4122
2026-01-02 23:41:31.76	87.46	14.76	-51.3	-52.5	16.5	6.01e-01	0	31	0	591396864	71	4135
2026-01-02 23:41:32.76	87.70	14.74	-51.3	-52.5	16.5	6.02e-01	0	31	0	592969728	71	4139
2026-01-02 23:41:33.76	87.94	14.72	-51.4	-52.6	16.5	6.01e-01	0	31	0	595066880	71	4160
2026-01-02 23:41:34.76	88.18	14.70	-51.4	-52.6	16.5	6.02e-01	0	31	0	596639744	71	4167
2026-01-02 23:41:35.76	88.42	14.68	-51.4	-52.6	16.4	6.02e-01	0	31	0	598736896	71	4175
2026-01-02 23:41:36.76	88.65	14.66	-51.3	-52.5	16.5	6.02e-01	0	31	0	600834048	71	4127
2026-01-02 23:41:37.76	88.89	14.64	-51.3	-52.5	16.5	6.02e-01	0	31	0	602406912	71	4138
2026-01-02 23:41:38.76	89.13	14.62	-51.4	-52.6	16.5	6.04e-01	0	31	0	604504064	71	4162
2026-01-02 23:41:39.75	89.37	14.60	-51.3	-52.5	16.5	6.02e-01	0	31	0	606076928	71	4139
2026-01-02 23:41:40.74	89.60	14.57	-51.4	-52.6	16.5	6.03e-01	0	31	0	608174080	71	4184
2026-01-02 23:41:41.74	89.84	14.55	-51.3	-52.6	16.5	6.05e-01	0	31	0	609746944	71	4154
2026-01-02 23:41:42.74	90.08	14.53	-51.3	-52.6	16.5	6.03e-01	0	31	0	611844096	71	4155
2026-01-02 23:41:43.74	90.31	14.50	-51.3	-52.5	16.5	6.03e-01	0	31	0	613416960	71	4116
2026-01-02 23:41:44.74	90.55	14.48	-51.4	-52.6	16.5	6.03e-01	0	31	0	615514112	71	4174
2026-01-02 23:41:45.73	90.78	14.45	-51.5	-52.7	16.4	6.01e-01	0	31	0	617611264	71	4224
2026-01-02 23:41:46.73	91.02	14.43	-51.4	-52.6	16.4	6.03e-01	0	31	0	619184128	71	4182
2026-01-02 23:41:47.72	91.25	14.40	-51.4	-52.6	16.4	6.04e-01	0	31	0	621281280	71	4175
2026-01-02 23:41:48.72	91.49	14.37	-51.3	-52.5	16.5	6.04e-01	0	31	0	622854144	71	4134
2026-01-02 23:41:49.72	91.72	14.35	-51.4	-52.6	16.5	6.05e-01	0	31	0	624951296	71	4186
2026-01-02 23:41:50.72	91.95	14.32	-51.3	-52.6	16.5	6.05e-01	0	31	0	626524160	71	4158
2026-01-02 23:41:51.71	92.18	14.29	-51.4	-52.7	16.5	6.04e-01	0	31	0	628621312	71	4209
2026-01-02 23:41:52.72	92.42	14.26	-51.4	-52.6	16.5	6.00e-01	0	31	0	630718464	71	4192
2026-01-02 23:41:53.71	92.65	14.24	-51.4	-52.6	16.5	6.03e-01	0	31	0	632291328	71	4165
2026-01-02 23:41:54.71	92.88	14.21	-51.3	-52.5	16.5	6.05e-01	0	31	0	634388480	71	4143
2026-01-02 23:41:55.71	93.11	14.18	-51.4	-52.6	16.5	6.02e-01	0	31	0	635961344	71	4187
2026-01-02 23:41:56.71	93.34	14.15	-51.3	-52.6	16.4	6.04e-01	0	31	0	638058496	71	4147
2026-01-02 23:41:57.72	93.58	14.12	-51.4	-52.6	16.4	6.03e-01	0	31	0	639631360	71	4185
2026-01-02 23:41:58.72	93.81	14.09	-51.3	-52.5	16.5	6.03e-01	0	31	0	641728512	71	4139
2026-01-02 23:41:59.72	94.03	14.06	-51.3	-52.6	16.5	6.04e-01	0	31	0	643825664	71	4155
2026-01-02 23:42:00.71	94.26	14.03	-51.3	-52.5	16.5	6.03e-01	0	31	0	645398528	71	4133
2026-01-02 23:42:01.71	94.49	14.00	-51.3	-52.5	16.5	6.04e-01	0	31	0	647495680	71	4129
2026-01-02 23:42:02.71	94.72	13.97	-51.3	-52.6	16.5	6.03e-01	0	31	0	649068544	71	4159
2026-01-02 23:42:03.71	94.94	13.93	-51.3	-52.6	16.5	6.03e-01	0	31	0	651165696	71	4159
2026-01-02 23:42:04.71	95.17	13.90	-51.5	-52.7	16.5	6.03e-01	0	31	0	653262848	71	4218
2026-01-02 23:42:05.71	95.40	13.87	-51.4	-52.7	16.5	6.05e-01	0	31	0	654835712	71	4203
2026-01-02 23:42:06.71	95.62	13.84	-51.3	-52.5	16.5	6.03e-01	0	31	0	656932864	71	4121
2026-01-02 23:42:07.70	95.85	13.80	-51.4	-52.7	16.5	6.03e-01	0	31	0	658505728	71	4200
2026-01-02 23:42:08.70	96.07	13.77	-51.5	-52.7	16.4	6.03e-01	0	31	0	660602880	71	4238
2026-01-02 23:42:09.69	96.29	13.74	-51.4	-52.6	16.4	6.01e-01	0	31	0	662175744	71	4176
2026-01-02 23:42:10.68	96.52	13.70	-51.4	-52.6	16.5	6.03e-01	0	31	0	664272896	71	4160
2026-01-02 23:42:11.68	96.74	13.67	-51.3	-52.5	16.5	6.03e-01	0	31	0	665845760	71	4114
2026-01-02 23:42:12.68	96.96	13.63	-51.3	-52.5	16.5	6.00e-01	0	31	0	667942912	71	4139
2026-01-02 23:42:13.69	97.19	13.60	-51.3	-52.6	16.5	6.04e-01	0	31	0	670040064	71	4153
2026-01-02 23:42:14.67	97.40	13.56	-51.3	-52.6	16.5	6.02e-01	0	31	0	671612928	71	4158
2026-01-02 23:42:15.66	97.62	13.53	-51.5	-52.7	16.4	6.03e-01	0	31	0	673710080	71	4239
2026-01-02 23:42:16.67	97.84	13.49	-51.5	-52.8	16.4	6.03e-01	0	31	0	675282944	71	4255
2026-01-02 23:42:17.67	98.06	13.45	-51.4	-52.7	16.4	6.04e-01	0	31	0	677380096	71	4206
2026-01-02 23:42:18.66	98.28	13.42	-51.3	-52.5	16.5	6.03e-01	0	31	0	678952960	71	4135
2026-01-02 23:42:19.66	98.50	13.38	-51.3	-52.5	16.4	6.03e-01	0	31	0	681050112	71	4131
2026-01-02 23:42:20.66	98.72	13.34	-51.3	-52.6	16.4	6.06e-01	0	31	0	683147264	71	4155
2026-01-02 23:42:21.66	98.94	13.31	-51.4	-52.6	16.4	6.03e-01	0	31	0	684720128	71	4190
2026-01-02 23:42:22.65	99.15	13.27	-51.4	-52.7	16.4	6.01e-01	0	31	0	686817280	71	4216
2026-01-02 23:42:23.65	99.37	13.23	-51.4	-52.6	16.5	6.03e-01	0	31	0	688390144	71	4188
2026-01-02 23:42:24.65	99.58	13.19	-51.5	-52.7	16.4	6.05e-01	0	31	0	690487296	71	4225
2026-01-02 23:42:25.65	99.80	13.15	-51.4	-52.7	16.4	6.04e-01	0	31	0	692060160	71	4209
2026-01-02 23:42:26.65	100.01	13.11	-51.4	-52.7	16.5	6.03e-01	0	31	0	694157312	71	4208
2026-01-02 23:42:27.65	100.23	13.07	-51.4	-52.7	16.4	6.02e-01	0	31	0	696254464	71	4206
2026-01-02 23:42:28.65	100.44	13.04	-51.4	-52.7	16.4	6.04e-01	0	31	0	697827328	71	4218
2026-01-02 23:42:29.65	100.66	13.00	-51.6	-52.9	16.4	6.02e-01	0	31	0	699924480	71	4296
2026-01-02 23:42:30.65	100.87	12.95	-51.5	-52.7	16.4	6.04e-01	0	31	0	701497344	71	4220
2026-01-02 23:42:31.64	101.08	12.91	-51.5	-52.8	16.4	6.04e-01	0	31	0	703594496	71	4243
2026-01-02 23:42:32.64	101.29	12.87	-51.4	-52.6	16.4	6.04e-01	0	31	0	705167360	71	4176
2026-01-02 23:42:33.64	101.50	12.83	-51.4	-52.7	16.4	6.03e-01	0	31	0	707264512	71	4200
2026-01-02 23:42:34.64	101.71	12.79	-51.4	-52.7	16.4	6.03e-01	0	31	0	708837376	71	4210
2026-01-02 23:42:35.64	101.92	12.75	-51.5	-52.7	16.4	6.07e-01	0	31	0	710934528	71	4238
2026-01-02 23:42:36.64	102.13	12.71	-51.4	-52.7	16.4	6.03e-01	0	31	0	713031680	71	4221
2026-01-02 23:42:37.65	102.34	12.67	-51.5	-52.7	16.4	6.03e-01	0	31	0	714604544	71	4236
2026-01-02 23:42:38.65	102.54	12.62	-51.5	-52.8	16.4	6.03e-01	0	31	0	716701696	71	4272
2026-01-02 23:42:39.65	102.75	12.58	-51.4	-52.7	16.4	6.03e-01	0	31	0	718798848	71	4219
2026-01-02 23:42:40.65	102.96	12.54	-51.5	-52.7	16.4	6.01e-01	0	31	0	720371712	71	4223
2026-01-02 23:42:41.65	103.16	12.50	-51.5	-52.7	16.4	6.02e-01	0	31	0	721944576	71	4235
2026-01-02 23:42:42.64	103.37	12.45	-51.6	-52.8	16.4	6.03e-01	0	31	0	724041728	71	4287
2026-01-02 23:42:43.63	103.57	12.41	-51.5	-52.8	16.4	6.04e-01	0	31	0	726138880	71	4248
2026-01-02 23:42:44.63	103.77	12.37	-51.5	-52.8	16.4	6.03e-01	0	31	0	727711744	71	4262
2026-01-02 23:42:45.62	103.97	12.32	-51.4	-52.7	16.4	6.04e-01	0	31	0	729808896	71	4208
2026-01-02 23:42:46.63	104.18	12.28	-51.4	-52.7	16.4	6.03e-01	0	31	0	731381760	71	4194
2026-01-02 23:42:47.62	104.38	12.23	-51.5	-52.7	16.4	6.05e-01	0	31	0	733478912	71	4224
2026-01-02 23:42:48.62	104.58	12.19	-51.6	-52.9	16.4	6.02e-01	0	31	0	735576064	71	4297
2026-01-02 23:42:49.61	104.78	12.15	-51.6	-52.9	16.4	6.04e-01	0	31	0	737148928	71	4326
2026-01-02 23:42:50.61	104.98	12.10	-51.6	-52.9	16.4	6.02e-01	0	31	0	739246080	71	4329
2026-01-02 23:42:51.60	105.18	12.06	-51.6	-52.9	16.4	6.03e-01	0	31	0	740818944	71	4301
2026-01-02 23:42:52.60	105.37	12.01	-51.6	-52.9	16.4	6.02e-01	0	31	0	742916096	71	4292
2026-01-02 23:42:53.61	105.57	11.97	-51.5	-52.7	16.4	6.06e-01	0	31	0	744488960	71	4239
2026-01-02 23:42:54.60	105.77	11.92	-51.6	-52.9	16.4	6.04e-01	0	31	0	746586112	71	4297
2026-01-02 23:42:55.61	105.97	11.87	-51.6	-52.8	16.4	6.05e-01	0	31	0	748683264	71	4290
2026-01-02 23:42:56.60	106.16	11.83	-51.5	-52.8	16.4	6.05e-01	0	31	0	750256128	71	4273
2026-01-02 23:42:57.60	106.36	11.78	-51.6	-52.8	16.4	6.03e-01	0	31	0	752353280	71	4282
2026-01-02 23:42:58.60	106.55	11.74	-51.7	-52.9	16.4	6.05e-01	0	31	0	753926144	71	4340
2026-01-02 23:42:59.59	106.75	11.69	-51.6	-52.9	16.4	6.03e-01	0	31	0	756023296	71	4334
2026-01-02 23:43:00.59	106.94	11.64	-51.6	-52.9	16.4	6.03e-01	0	31	0	757596160	71	4334
2026-01-02 23:43:01.58	107.13	11.60	-51.7	-53.0	16.4	6.05e-01	0	31	0	759693312	71	4347
2026-01-02 23:43:02.59	107.32	11.55	-51.7	-53.0	16.3	6.04e-01	0	31	0	761266176	71	4382
2026-01-02 23:43:03.59	107.52	11.50	-51.8	-53.1	16.3	6.01e-01	0	31	0	763363328	71	4412
2026-01-02 23:43:04.59	107.71	11.45	-51.7	-53.0	16.4	6.05e-01	0	31	0	765460480	71	4342
2026-01-02 23:43:05.58	107.90	11.41	-51.8	-53.1	16.4	6.03e-01	0	31	0	767033344	71	4403
2026-01-02 23:43:06.58	108.09	11.36	-51.7	-53.0	16.4	6.03e-01	0	31	0	769130496	71	4372
2026-01-02 23:43:07.58	108.27	11.31	-51.7	-53.0	16.4	6.03e-01	0	31	0	770703360	71	4388
2026-01-02 23:43:08.57	108.46	11.26	-51.7	-53.0	16.4	6.03e-01	0	31	0	772800512	71	4357
2026-01-02 23:43:09.57	108.65	11.21	-51.7	-53.0	16.4	6.02e-01	0	31	0	774373376	71	4370
2026-01-02 23:43:10.57	108.84	11.17	-51.7	-53.0	16.4	6.03e-01	0	31	0	776470528	71	4387
2026-01-02 23:43:11.57	109.02	11.12	-51.7	-53.0	16.3	6.04e-01	0	31	0	778567680	71	4373
2026-01-02 23:43:12.56	109.21	11.07	-51.8	-53.1	16.3	6.03e-01	0	31	0	780140544	71	4400
2026-01-02 23:43:13.55	109.39	11.02	-51.8	-53.1	16.3	6.05e-01	0	31	0	782237696	71	4408
2026-01-02 23:43:14.55	109.58	10.97	-51.8	-53.1	16.3	6.02e-01	0	31	0	783810560	71	4434
2026-01-02 23:43:15.53	109.76	10.92	-51.9	-53.3	16.3	6.03e-01	0	31	0	785907712	71	4509
2026-01-02 23:43:16.53	109.94	10.87	-51.9	-53.2	16.3	6.03e-01	0	31	0	787480576	71	4479
2026-01-02 23:43:17.53	110.12	10.82	-52.0	-53.4	16.3	6.03e-01	0	31	0	789577728	71	4546
2026-01-02 23:43:18.52	110.30	10.77	-51.9	-53.3	16.3	6.02e-01	0	31	0	791150592	71	4494
2026-01-02 23:43:19.51	110.48	10.73	-51.9	-53.3	16.3	6.05e-01	0	31	0	793247744	71	4497
2026-01-02 23:43:20.50	110.66	10.68	-51.9	-53.2	16.3	6.02e-01	0	31	0	795344896	71	4475
2026-01-02 23:43:21.50	110.84	10.63	-51.8	-53.1	16.3	6.02e-01	0	31	0	796917760	71	4436
2026-01-02 23:43:22.49	111.02	10.58	-51.8	-53.1	16.3	6.04e-01	0	31	0	799014912	71	4435
2026-01-02 23:43:23.48	111.20	10.53	-51.8	-53.2	16.3	6.03e-01	0	31	0	800587776	71	4449
2026-01-02 23:43:24.48	111.37	10.48	-51.8	-53.2	16.3	6.04e-01	0	31	0	802684928	71	4442
2026-01-02 23:43:25.47	111.55	10.43	-51.9	-53.2	16.3	6.02e-01	0	31	0	804257792	71	4475
2026-01-02 23:43:26.46	111.72	10.38	-51.9	-53.3	16.3	6.04e-01	0	31	0	806354944	71	4503
2026-01-02 23:43:27.46	111.90	10.33	-52.0	-53.4	16.3	6.04e-01	0	31	0	807927808	71	4576
2026-01-02 23:43:28.46	112.08	10.28	-52.0	-53.4	16.3	6.04e-01	0	31	0	810024960	72	4297
2026-01-02 23:43:29.46	112.25	10.22	-52.0	-53.4	16.3	6.02e-01	0	31	0	812122112	72	4314
2026-01-02 23:43:30.46	112.43	10.17	-52.0	-53.3	16.3	6.03e-01	0	31	0	813694976	72	4287
2026-01-02 23:43:31.45	112.60	10.12	-51.9	-53.3	16.3	6.02e-01	0	31	0	815792128	72	4262
2026-01-02 23:43:32.46	112.77	10.07	-52.0	-53.3	16.3	6.05e-01	0	31	0	817364992	72	4273
2026-01-02 23:43:33.45	112.94	10.02	-52.0	-53.3	16.3	6.03e-01	0	31	0	819462144	72	4275
2026-01-02 23:43:34.45	113.12	9.97	-52.0	-53.3	16.3	6.04e-01	0	31	0	821035008	72	4282
2026-01-02 23:43:35.45	113.29	9.92	-52.0	-53.3	16.3	6.00e-01	0	31	0	823132160	72	4288
2026-01-02 23:43:36.45	113.46	9.87	-52.0	-53.4	16.3	6.03e-01	0	31	0	824705024	72	4298
2026-01-02 23:43:37.45	113.63	9.81	-52.1	-53.4	16.3	6.02e-01	0	31	0	826802176	72	4336
2026-01-02 23:43:38.45	113.80	9.76	-52.0	-53.4	16.3	6.05e-01	0	31	0	828899328	72	4332
2026-01-02 23:43:39.44	113.96	9.71	-52.0	-53.4	16.3	6.02e-01	0	31	0	830472192	72	4335
2026-01-02 23:43:40.43	114.13	9.66	-52.0	-53.4	16.3	6.04e-01	0	31	0	832569344	72	4307
2026-01-02 23:43:41.43	114.30	9.61	-52.0	-53.4	16.3	6.04e-01	0	31	0	834142208	72	4296
2026-01-02 23:43:42.43	114.46	9.56	-52.1	-53.5	16.3	6.05e-01	0	31	0	836239360	72	4359
2026-01-02 23:43:43.42	114.63	9.50	-52.1	-53.5	16.2	6.06e-01	0	31	0	838336512	72	4374
2026-01-02 23:43:44.43	114.80	9.45	-52.2	-53.6	16.2	6.02e-01	0	31	0	839909376	72	4403
2026-01-02 23:43:45.42	114.96	9.40	-52.2	-53.6	16.2	6.03e-01	0	31	0	842006528	72	4433
2026-01-02 23:43:46.42	115.12	9.35	-52.2	-53.7	16.2	6.03e-01	0	31	0	843579392	72	4448
2026-01-02 23:43:47.42	115.29	9.29	-52.2	-53.6	16.2	6.05e-01	0	31	0	845676544	72	4419
2026-01-02 23:43:48.42	115.45	9.24	-52.3	-53.7	16.2	6.04e-01	0	31	0	847249408	72	4482
2026-01-02 23:43:49.42	115.61	9.19	-52.3	-53.7	16.2	6.05e-01	0	31	0	849346560	72	4471
2026-01-02 23:43:50.42	115.78	9.14	-52.2	-53.7	16.2	6.03e-01	0	31	0	851443712	72	4455
2026-01-02 23:43:51.42	115.94	9.08	-52.3	-53.8	16.2	6.04e-01	0	31	0	853016576	72	4500
2026-01-02 23:43:52.42	116.10	9.03	-52.3	-53.8	16.2	6.01e-01	0	31	0	855113728	72	4521
2026-01-02 23:43:53.42	116.26	8.98	-52.2	-53.7	16.2	6.02e-01	0	31	0	856686592	72	4469
2026-01-02 23:43:54.40	116.41	8.93	-52.3	-53.7	16.2	6.05e-01	0	31	0	858783744	72	4474
2026-01-02 23:43:55.40	116.57	8.87	-52.2	-53.7	16.2	6.04e-01	0	31	0	860356608	72	4455
2026-01-02 23:43:56.40	116.73	8.82	-52.3	-53.8	16.2	6.05e-01	0	31	0	862453760	72	4505
2026-01-02 23:43:57.39	116.89	8.77	-52.2	-53.6	16.3	6.03e-01	0	31	0	864026624	72	4419
2026-01-02 23:43:58.39	117.05	8.71	-52.2	-53.6	16.2	6.02e-01	0	31	0	866123776	72	4418
2026-01-02 23:43:59.39	117.20	8.66	-52.2	-53.6	16.2	6.01e-01	0	31	0	868220928	72	4416
2026-01-02 23:44:00.40	117.36	8.61	-52.2	-53.6	16.2	6.03e-01	0	31	0	869793792	72	4429
2026-01-02 23:44:01.39	117.51	8.55	-52.3	-53.8	16.2	6.02e-01	0	31	0	871890944	72	4515
2026-01-02 23:44:02.39	117.67	8.50	-52.4	-53.9	16.2	6.04e-01	0	31	0	873463808	72	4547
2026-01-02 23:44:03.39	117.82	8.45	-52.4	-53.9	16.2	6.01e-01	0	31	0	875560960	72	4567
2026-01-02 23:44:04.38	117.97	8.40	-52.4	-53.9	16.2	6.04e-01	0	31	0	877133824	72	4580
2026-01-02 23:44:05.37	118.13	8.34	-52.4	-53.9	16.1	6.02e-01	0	31	0	879230976	72	4564
2026-01-02 23:44:06.37	118.28	8.29	-52.5	-54.0	16.1	6.04e-01	0	31	0	881328128	72	4628
2026-01-02 23:44:07.38	118.43	8.24	-52.5	-54.0	16.1	6.05e-01	0	31	0	882900992	72	4611
2026-01-02 23:44:08.37	118.58	8.18	-52.4	-53.9	16.1	6.05e-01	0	31	0	884998144	72	4556
2026-01-02 23:44:09.37	118.73	8.13	-52.4	-53.9	16.1	6.02e-01	0	31	0	886571008	72	4577
2026-01-02 23:44:10.37	118.88	8.07	-52.4	-53.9	16.1	6.02e-01	0	31	0	888668160	72	4579
2026-01-02 23:44:11.37	119.03	8.02	-52.4	-53.9	16.2	6.03e-01	0	31	0	890241024	72	4551
2026-01-02 23:44:12.36	119.18	7.97	-52.3	-53.9	16.2	6.02e-01	0	31	0	892338176	72	4547
2026-01-02 23:44:13.36	119.33	7.91	-52.3	-53.8	16.2	6.02e-01	0	31	0	894435328	72	4540
2026-01-02 23:44:14.36	119.47	7.86	-52.3	-53.8	16.2	6.02e-01	0	31	0	896008192	72	4509
2026-01-02 23:44:15.35	119.62	7.81	-52.3	-53.8	16.2	6.02e-01	0	31	0	898105344	72	4524
2026-01-02 23:44:16.35	119.77	7.75	-52.4	-54.0	16.1	6.03e-01	0	31	0	899678208	72	4621
2026-01-02 23:44:17.34	119.91	7.70	-52.5	-54.0	16.1	6.04e-01	0	31	0	901775360	72	4634
2026-01-02 23:44:18.34	120.06	7.65	-52.5	-54.1	16.1	6.04e-01	0	31	0	903348224	73	4427
2026-01-02 23:44:19.33	120.20	7.59	-52.5	-54.1	16.2	6.04e-01	0	31	0	905445376	73	4423
2026-01-02 23:44:20.32	120.34	7.54	-52.6	-54.2	16.1	6.03e-01	0	31	0	907018240	73	4449
2026-01-02 23:44:21.31	120.49	7.49	-52.6	-54.2	16.1	6.00e-01	0	31	0	909115392	73	4471
2026-01-02 23:44:22.31	120.63	7.43	-52.6	-54.2	16.1	6.00e-01	0	31	0	911212544	73	4455
2026-01-02 23:44:23.31	120.77	7.38	-52.6	-54.3	16.1	6.02e-01	0	31	0	912785408	73	4498
2026-01-02 23:44:24.30	120.91	7.33	-52.6	-54.2	16.1	6.05e-01	0	31	0	914882560	73	4490
2026-01-02 23:44:25.30	121.05	7.27	-52.5	-54.1	16.1	6.02e-01	0	31	0	916455424	73	4441
2026-01-02 23:44:26.29	121.19	7.22	-52.6	-54.2	16.1	6.05e-01	0	31	0	918552576	73	4455
2026-01-02 23:44:27.30	121.34	7.16	-52.6	-54.2	16.1	6.02e-01	0	31	0	920125440	73	4451
2026-01-02 23:44:28.29	121.47	7.11	-52.5	-54.1	16.1	6.03e-01	0	31	0	922222592	73	4436
2026-01-02 23:44:29.29	121.61	7.06	-52.5	-54.1	16.1	6.02e-01	0	31	0	923795456	73	4418
2026-01-02 23:44:30.30	121.75	7.00	-52.5	-54.1	16.1	6.02e-01	0	31	0	925892608	73	4423
2026-01-02 23:44:31.29	121.89	6.95	-52.5	-54.1	16.1	6.02e-01	0	31	0	927989760	73	4434
2026-01-02 23:44:32.29	122.03	6.89	-52.6	-54.2	16.1	6.05e-01	0	31	0	929562624	73	4489
2026-01-02 23:44:33.29	122.17	6.84	-52.7	-54.3	16.0	6.00e-01	0	31	0	931659776	73	4534
2026-01-02 23:44:34.29	122.30	6.79	-52.5	-54.1	16.1	6.04e-01	0	31	0	933232640	73	4433
2026-01-02 23:44:35.29	122.44	6.73	-52.6	-54.2	16.1	6.01e-01	0	31	0	935329792	73	4461
2026-01-02 23:44:36.28	122.57	6.68	-52.6	-54.2	16.1	6.04e-01	0	31	0	937426944	73	4486
2026-01-02 23:44:37.29	122.71	6.62	-52.7	-54.4	16.0	6.04e-01	0	31	0	938999808	73	4549
2026-01-02 23:44:38.28	122.84	6.57	-52.7	-54.4	16.0	6.03e-01	0	31	0	941096960	73	4562
2026-01-02 23:44:39.28	122.98	6.52	-52.8	-54.5	16.0	6.04e-01	0	31	0	942669824	73	4623
2026-01-02 23:44:40.27	123.11	6.46	-52.7	-54.3	16.0	6.03e-01	0	31	0	944766976	73	4545
2026-01-02 23:44:41.27	123.24	6.41	-52.7	-54.4	16.0	6.05e-01	0	31	0	946339840	73	4581
2026-01-02 23:44:42.27	123.38	6.36	-52.8	-54.4	16.0	6.04e-01	0	31	0	948436992	73	4590
2026-01-02 23:44:43.27	123.51	6.30	-52.8	-54.4	16.0	6.02e-01	0	31	0	950534144	73	4594
2026-01-02 23:44:44.27	123.64	6.25	-52.7	-54.4	16.0	6.04e-01	0	31	0	952107008	73	4550
2026-01-02 23:44:45.26	123.77	6.19	-52.8	-54.5	16.0	6.03e-01	0	31	0	954204160	73	4631
2026-01-02 23:44:46.26	123.90	6.14	-52.8	-54.5	16.0	6.05e-01	0	31	0	955777024	73	4624
2026-01-02 23:44:47.25	124.03	6.09	-52.8	-54.5	16.0	6.03e-01	0	31	0	957874176	73	4620
2026-01-02 23:44:48.24	124.16	6.03	-52.8	-54.6	16.0	6.02e-01	0	31	0	959447040	73	4664
2026-01-02 23:44:49.23	124.29	5.98	-52.8	-54.5	15.9	6.01e-01	0	31	0	961544192	73	4634
2026-01-02 23:44:50.23	124.41	5.93	-52.9	-54.6	15.9	6.02e-01	0	31	0	963117056	73	4684
2026-01-02 23:44:51.23	124.54	5.87	-52.8	-54.6	16.0	6.03e-01	0	31	0	965214208	73	4670
2026-01-02 23:44:52.23	124.67	5.82	-52.9	-54.6	15.9	6.05e-01	0	31	0	967311360	73	4681
2026-01-02 23:44:53.23	124.80	5.76	-52.9	-54.6	15.9	6.01e-01	0	31	0	968884224	73	4676
2026-01-02 23:44:54.23	124.92	5.71	-52.9	-54.7	15.9	6.01e-01	0	31	0	970981376	73	4716
2026-01-02 23:44:55.23	125.05	5.66	-52.9	-54.7	15.9	6.04e-01	0	31	0	972554240	73	4732
2026-01-02 23:44:56.22	125.17	5.60	-53.0	-54.8	15.8	6.03e-01	0	31	0	974651392	73	4805
2026-01-02 23:44:57.21	125.30	5.55	-52.9	-54.7	15.9	6.02e-01	0	31	0	976224256	73	4733
2026-01-02 23:44:58.21	125.42	5.50	-53.0	-54.9	15.8	6.04e-01	0	31	0	978321408	73	4816
2026-01-02 23:44:59.21	125.55	5.44	-53.0	-54.9	15.9	6.02e-01	0	31	0	980418560	73	4830
2026-01-02 23:45:00.21	125.67	5.39	-53.0	-54.8	15.9	6.02e-01	0	31	0	981991424	74	4532
2026-01-02 23:45:01.21	125.79	5.34	-53.0	-54.8	15.9	6.04e-01	0	31	0	984088576	74	4506
2026-01-02 23:45:02.22	125.92	5.28	-53.1	-54.9	15.9	6.02e-01	0	31	0	985661440	74	4571
2026-01-02 23:45:03.21	126.04	5.23	-53.0	-54.8	16.0	6.04e-01	0	31	0	987758592	74	4507
2026-01-02 23:45:04.21	126.16	5.17	-53.1	-54.9	15.9	6.03e-01	0	31	0	989331456	74	4586
2026-01-02 23:45:05.21	126.28	5.12	-53.1	-54.9	15.9	6.02e-01	0	31	0	991428608	74	4596
2026-01-02 23:45:06.20	126.40	5.07	-53.0	-54.8	15.9	6.02e-01	0	31	0	993525760	74	4516
2026-01-02 23:45:07.20	126.52	5.01	-53.1	-55.0	15.8	6.03e-01	0	31	0	995098624	74	4615
2026-01-02 23:45:08.19	126.64	4.96	-59.4	-78.0	3.4	7.56e-01	0	31	104	996671488	86	32759
2026-01-02 23:45:09.20	126.76	4.91	-59.8	-78.3	3.8	7.47e-01	0	31	104	996671488	87	31872
2026-01-02 23:45:10.21	126.88	4.85	-60.1	-78.9	3.8	7.50e-01	0	31	104	996671488	87	34451
2026-01-02 23:45:11.20	127.00	4.80	-60.3	-79.2	3.8	7.44e-01	0	31	104	996671488	88	33519
2026-01-02 23:45:12.21	127.12	4.75	-60.5	-79.4	3.8	7.47e-01	0	31	104	996671488	88	34191
2026-01-02 23:45:13.21	127.24	4.69	-60.6	-79.5	3.8	7.46e-01	0	31	104	996671488	89	32900
2026-01-02 23:45:14.21	127.35	4.64	-60.6	-79.5	3.8	7.48e-01	0	31	104	996671488	89	32808
2026-01-02 23:45:15.21	127.47	4.58	-60.6	-79.3	3.8	7.47e-01	0	31	104	996671488	89	32167
2026-01-02 23:45:16.21	127.59	4.53	-60.8	-79.7	3.8	7.46e-01	0	31	104	996671488	89	33578
2026-01-02 23:45:17.21	127.70	4.48	-60.3	-78.8	3.9	7.44e-01	0	31	104	996671488	89	30204
2026-01-02 23:45:18.20	127.82	4.43	-61.0	-79.9	3.8	7.48e-01	0	31	104	996671488	89	34327
2026-01-02 23:45:19.21	127.93	4.37	-61.1	-80.3	3.8	7.47e-01	0	31	104	996671488	90	33843
2026-01-02 23:45:20.20	128.05	4.32	-61.2	-80.1	3.8	7.44e-01	0	31	104	996671488	90	32998
2026-01-02 23:45:21.20	128.16	4.27	-61.2	-80.2	3.8	7.47e-01	0	31	104	996671488	90	33352
2026-01-02 23:45:22.21	128.27	4.21	-61.3	-80.2	3.8	7.48e-01	0	31	104	996671488	90	33415
2026-01-02 23:45:23.21	128.39	4.16	-61.4	-80.3	3.8	7.45e-01	0	31	104	996671488	90	33750
2026-01-02 23:45:24.22	128.50	4.11	-61.4	-80.3	3.8	7.45e-01	0	31	104	996671488	90	33964
2026-01-02 23:45:25.22	128.61	4.05	-61.4	-80.4	3.8	7.46e-01	0	31	104	996671488	90	34127
2026-01-02 23:45:26.22	128.73	4.00	-61.5	-80.4	3.8	7.42e-01	0	31	104	996671488	90	34165
2026-01-02 23:45:27.21	128.84	3.95	-61.5	-80.4	3.8	7.45e-01	0	31	104	996671488	90	34294
2026-01-02 23:45:28.21	128.95	3.89	-61.5	-80.5	3.8	7.45e-01	0	31	104	996671488	90	34587
2026-01-02 23:45:29.21	129.06	3.84	-61.6	-80.5	3.8	7.45e-01	0	31	104	996671488	90	34575
2026-01-02 23:45:30.21	129.17	3.79	-61.6	-80.5	3.8	7.48e-01	0	31	104	996671488	90	34652
2026-01-02 23:45:31.21	129.28	3.73	-61.6	-80.5	3.9	7.45e-01	0	31	104	996671488	91	32710
2026-01-02 23:45:32.21	129.39	3.68	-61.6	-80.5	3.8	7.46e-01	0	31	104	996671488	91	32801
2026-01-02 23:45:33.21	129.50	3.63	-61.6	-80.5	3.8	7.45e-01	0	31	104	996671488	91	32813
2026-01-02 23:45:34.21	129.61	3.58	-61.6	-80.5	3.8	7.46e-01	0	31	104	996671488	91	32691
2026-01-02 23:45:35.21	129.71	3.52	-61.5	-80.5	3.8	7.46e-01	0	31	104	996671488	91	32584
2026-01-02 23:45:36.21	129.82	3.47	-61.5	-80.5	3.8	7.45e-01	0	31	104	996671488	91	32592
2026-01-02 23:45:37.21	129.93	3.42	-61.5	-80.4	3.8	7.46e-01	0	31	104	996671488	91	32538
2026-01-02 23:45:38.21	130.04	3.36	-61.5	-80.4	3.8	7.44e-01	0	31	104	996671488	91	32525
2026-01-02 23:45:39.20	130.14	3.31	-61.5	-80.4	3.8	7.48e-01	0	31	104	996671488	91	32432
2026-01-02 23:45:40.21	130.25	3.26	-61.5	-80.4	3.8	7.46e-01	0	31	104	996671488	91	32445
2026-01-02 23:45:41.20	130.35	3.21	-61.5	-80.4	3.8	7.45e-01	0	31	104	996671488	91	32379
2026-01-02 23:45:42.20	130.46	3.16	-61.5	-80.4	3.8	7.48e-01	0	31	104	996671488	91	32407
2026-01-02 23:45:43.21	130.56	3.10	-61.5	-80.4	3.8	7.47e-01	0	31	104	996671488	91	32389
2026-01-02 23:45:44.20	130.67	3.05	-61.5	-80.4	3.8	7.46e-01	0	31	104	996671488	91	32285
2026-01-02 23:45:45.20	130.77	3.00	-61.5	-80.3	3.8	7.46e-01	0	31	104	996671488	91	32159
2026-01-02 23:45:46.20	130.88	2.95	-61.5	-80.4	3.8	7.42e-01	0	31	104	996671488	91	32311
2026-01-02 23:45:47.20	130.98	2.89	-61.5	-80.4	3.8	7.46e-01	0	31	104	996671488	91	32192
2026-01-02 23:45:48.19	131.08	2.84	-61.4	-80.4	3.8	7.45e-01	0	31	104	996671488	91	32194
2026-01-02 23:45:49.20	131.19	2.79	-61.5	-80.4	3.8	7.45e-01	0	31	104	996671488	91	32226
2026-01-02 23:45:50.20	131.29	2.74	-61.4	-80.4	3.8	7.45e-01	0	31	104	996671488	91	32215
2026-01-02 23:45:51.20	131.39	2.68	-61.4	-80.3	3.8	7.42e-01	0	31	104	996671488	91	32141
2026-01-02 23:45:52.19	131.49	2.63	-61.4	-80.4	3.8	7.51e-01	0	31	104	996671488	91	32197
2026-01-02 23:45:53.20	131.59	2.58	-61.4	-80.4	3.8	7.45e-01	0	31	104	996671488	91	32201
2026-01-02 23:45:54.19	131.69	2.53	-61.4	-80.3	3.8	7.47e-01	0	31	104	996671488	91	32114
2026-01-02 23:45:55.19	131.79	2.48	-61.4	-80.3	3.8	7.46e-01	0	31	104	996671488	91	32099
2026-01-02 23:45:56.19	131.89	2.42	-61.4	-80.4	3.8	7.47e-01	0	31	104	996671488	91	32222
2026-01-02 23:45:57.19	131.99	2.37	-61.4	-80.3	3.8	7.46e-01	0	31	104	996671488	91	32159
2026-01-02 23:45:58.18	132.09	2.32	-61.4	-80.3	3.8	7.43e-01	0	31	104	996671488	91	32121
2026-01-02 23:45:59.18	132.19	2.27	-61.4	-80.3	3.8	7.47e-01	0	31	104	996671488	91	32072
2026-01-02 23:46:00.18	132.29	2.22	-61.4	-80.3	3.8	7.46e-01	0	31	104	996671488	91	32052
2026-01-02 23:46:01.17	132.39	2.17	-61.4	-80.3	3.8	7.47e-01	0	31	104	996671488	91	32076
2026-01-02 23:46:02.17	132.48	2.11	-61.4	-80.3	3.8	7.46e-01	0	31	104	996671488	91	31948
2026-01-02 23:46:03.17	132.58	2.06	-61.4	-80.3	3.8	7.43e-01	0	31	104	996671488	91	32044
2026-01-02 23:46:04.17	132.68	2.01	-61.4	-80.3	3.8	7.48e-01	0	31	104	996671488	91	32029
2026-01-02 23:46:05.17	132.78	1.96	-61.4	-80.3	3.8	7.46e-01	0	31	104	996671488	91	32078
2026-01-02 23:46:06.16	132.87	1.91	-61.4	-80.3	3.8	7.45e-01	0	31	104	996671488	91	32015

#Closed at: 2026-01-02 23:46:06
#Recorded file [996 MB]: D:/lorett/data/31004_260103_023534.dat