passes_logs/2026/01/28/R3.2S-Naryan-Mar/R3.2S-Naryan-Mar__20260128_161439_TY-42_rec.log

#Pass ID: 20260128_161439_TY-42
#Satellite: TY-42
#Configuration: TY-42
#almurnet v.1.7.20240730
#Start time: 2026-01-28 16:14:39

#Version: 2.2.20231116
#Station: R3.2S-Naryan-Mar
#Location: 53.008057 lon 67.646978 lat
#TLE: 1 64048U 25103A   26028.22870370  .00008010  00000-0  38191-3 0 09994
#TLE: 2 64048 097.4119 103.3979 0001765 093.5114 028.5586 15.19170123 38824

#Time	Az	El	Level	Level2	SNR	BER	BlckErr	Temp	State	Recorded	gain1	gain2
2026-01-28 16:14:39.82	123.51	0.03	-55.2	-58.5	3.3	0.00e+00	0	44	0	0	60	99364
2026-01-28 16:14:40.82	123.46	0.09	-55.8	-60.0	3.5	0.00e+00	0	45	104	0	60	117859
2026-01-28 16:14:41.83	123.41	0.15	-56.3	-60.4	3.6	0.00e+00	0	45	104	0	60	123334
2026-01-28 16:14:42.84	123.36	0.22	-56.0	-60.3	3.6	0.00e+00	0	45	104	0	60	123095
2026-01-28 16:14:43.84	123.32	0.28	-56.7	-61.0	3.6	0.00e+00	0	45	104	0	60	132314
2026-01-28 16:14:44.84	123.27	0.34	-56.7	-61.0	3.6	0.00e+00	0	46	104	0	60	133370
2026-01-28 16:14:45.85	123.22	0.40	-57.2	-61.2	3.6	0.00e+00	0	46	104	0	60	135870
2026-01-28 16:14:46.86	123.17	0.47	-57.6	-61.4	3.6	0.00e+00	0	46	104	0	60	139162
2026-01-28 16:14:47.86	123.12	0.53	-57.5	-61.6	3.6	0.00e+00	0	46	104	0	60	142590
2026-01-28 16:14:48.87	123.07	0.59	-57.4	-61.2	3.6	0.00e+00	0	46	104	0	60	135224
2026-01-28 16:14:49.87	123.02	0.66	-57.6	-61.5	3.6	0.00e+00	0	46	104	0	60	140726
2026-01-28 16:14:50.87	122.97	0.72	-57.2	-61.3	3.6	0.00e+00	0	46	104	0	60	138024
2026-01-28 16:14:51.88	122.92	0.78	-56.4	-60.7	3.6	0.00e+00	0	46	104	0	60	128785
2026-01-28 16:14:52.89	122.87	0.85	-57.2	-60.9	3.6	0.00e+00	0	46	104	0	60	131993
2026-01-28 16:14:53.89	122.82	0.91	-57.2	-61.1	3.6	0.00e+00	0	46	104	0	60	134747
2026-01-28 16:14:54.89	122.77	0.97	-56.5	-60.4	3.6	0.00e+00	0	46	104	0	60	123852
2026-01-28 16:14:55.90	122.72	1.04	-56.5	-60.2	3.6	0.00e+00	0	46	104	0	60	120638
2026-01-28 16:14:56.91	122.67	1.10	-55.6	-59.7	3.6	0.00e+00	0	46	104	0	60	113688
2026-01-28 16:14:57.92	122.62	1.17	-55.4	-59.2	3.6	0.00e+00	0	46	104	0	60	107655
2026-01-28 16:14:58.92	122.56	1.23	-55.5	-59.3	3.6	0.00e+00	0	46	104	0	60	108669
2026-01-28 16:14:59.92	122.51	1.30	-55.4	-59.2	3.6	0.00e+00	0	46	104	0	60	108174
2026-01-28 16:15:00.93	122.46	1.36	-55.4	-59.2	3.6	0.00e+00	0	46	104	0	60	107801
2026-01-28 16:15:01.94	122.40	1.43	-55.3	-59.1	3.6	0.00e+00	0	46	104	0	60	106647
2026-01-28 16:15:02.94	122.35	1.49	-55.3	-59.0	3.6	0.00e+00	0	46	104	0	60	105961
2026-01-28 16:15:03.95	122.30	1.56	-55.2	-59.0	3.6	0.00e+00	0	46	104	0	60	105806
2026-01-28 16:15:04.96	122.24	1.63	-55.2	-59.0	3.6	0.00e+00	0	46	104	0	60	105541
2026-01-28 16:15:05.96	122.19	1.69	-55.2	-58.9	3.6	0.00e+00	0	46	104	0	60	104802
2026-01-28 16:15:06.97	122.13	1.76	-55.2	-58.9	3.6	0.00e+00	0	46	104	0	60	104375
2026-01-28 16:15:07.97	122.08	1.82	-55.2	-59.0	3.6	0.00e+00	0	46	104	0	60	105502
2026-01-28 16:15:08.98	122.02	1.89	-55.2	-58.9	3.5	0.00e+00	0	46	104	0	60	104555
2026-01-28 16:15:09.98	121.97	1.96	-55.2	-58.9	3.6	0.00e+00	0	46	104	0	60	104624
2026-01-28 16:15:10.99	121.91	2.03	-55.2	-58.9	3.6	0.00e+00	0	46	104	0	60	104839
2026-01-28 16:15:12.00	121.85	2.09	-55.2	-58.9	3.6	0.00e+00	0	46	104	0	60	104197
2026-01-28 16:15:13.01	121.80	2.16	-55.1	-58.9	3.6	0.00e+00	0	46	104	0	60	104313
2026-01-28 16:15:14.02	121.74	2.23	-55.1	-58.9	3.6	0.00e+00	0	47	104	0	60	104127
2026-01-28 16:15:15.02	121.68	2.30	-55.1	-58.9	3.6	0.00e+00	0	47	104	0	60	104340
2026-01-28 16:15:16.03	121.62	2.36	-55.1	-58.9	3.6	0.00e+00	0	46	104	0	60	104240
2026-01-28 16:15:17.04	121.56	2.43	-55.1	-58.9	3.6	0.00e+00	0	46	104	0	60	103987
2026-01-28 16:15:18.05	121.50	2.50	-55.1	-58.9	3.6	0.00e+00	0	46	104	0	60	104422
2026-01-28 16:15:19.06	121.45	2.57	-55.1	-58.9	3.6	0.00e+00	0	47	104	0	60	103756
2026-01-28 16:15:20.06	121.39	2.64	-55.1	-58.9	3.6	0.00e+00	0	46	104	0	60	103778
2026-01-28 16:15:21.07	121.33	2.71	-55.1	-58.8	3.6	0.00e+00	0	47	104	0	60	103522
2026-01-28 16:15:22.08	121.27	2.78	-55.1	-58.8	3.6	0.00e+00	0	47	104	0	60	103346
2026-01-28 16:15:23.09	121.20	2.85	-55.1	-58.8	3.6	0.00e+00	0	47	104	0	60	103389
2026-01-28 16:15:24.10	121.14	2.92	-55.1	-58.8	3.6	0.00e+00	0	47	104	0	60	103312
2026-01-28 16:15:25.10	121.08	2.99	-55.1	-58.8	3.6	0.00e+00	0	47	104	0	60	103342
2026-01-28 16:15:26.11	121.02	3.06	-55.1	-58.8	3.6	0.00e+00	0	47	104	0	60	103565
2026-01-28 16:15:27.11	120.96	3.12	-55.0	-58.8	3.6	0.00e+00	0	47	104	0	60	102827
2026-01-28 16:15:28.11	120.90	3.19	-55.1	-58.8	3.6	0.00e+00	0	47	104	0	60	102908
2026-01-28 16:15:29.11	120.83	3.26	-55.1	-58.8	3.6	0.00e+00	0	47	104	0	60	103279
2026-01-28 16:15:30.11	120.77	3.34	-55.1	-58.8	3.6	0.00e+00	0	47	104	0	60	102957
2026-01-28 16:15:31.12	120.71	3.41	-55.1	-58.8	3.6	0.00e+00	0	47	104	0	60	102608
2026-01-28 16:15:32.12	120.64	3.48	-55.1	-58.8	3.6	0.00e+00	0	47	104	0	60	102926
2026-01-28 16:15:33.13	120.58	3.55	-55.1	-58.8	3.6	0.00e+00	0	47	104	0	60	103381
2026-01-28 16:15:34.14	120.51	3.62	-55.1	-58.8	3.5	0.00e+00	0	47	104	0	60	102833
2026-01-28 16:15:35.15	120.45	3.69	-55.1	-58.8	3.6	0.00e+00	0	47	104	0	60	103352
2026-01-28 16:15:36.16	120.38	3.77	-55.1	-58.8	3.6	0.00e+00	0	47	104	0	60	103107
2026-01-28 16:15:37.16	120.31	3.84	-55.1	-58.8	3.6	0.00e+00	0	47	104	0	60	102782
2026-01-28 16:15:38.17	120.25	3.91	-55.1	-58.8	3.6	0.00e+00	0	47	104	0	60	103197
2026-01-28 16:15:39.18	120.18	3.98	-55.0	-58.8	3.6	0.00e+00	0	47	104	0	60	103144
2026-01-28 16:15:40.18	120.11	4.06	-55.0	-58.8	3.6	0.00e+00	0	47	104	0	60	102600
2026-01-28 16:15:41.18	120.05	4.13	-55.0	-58.8	3.6	0.00e+00	0	47	104	0	60	102824
2026-01-28 16:15:42.19	119.98	4.20	-55.0	-58.8	3.6	0.00e+00	0	47	104	0	60	103014
2026-01-28 16:15:43.19	119.91	4.27	-55.0	-58.8	3.6	0.00e+00	0	47	104	0	60	102735
2026-01-28 16:15:44.20	119.84	4.35	-55.0	-58.7	3.6	0.00e+00	0	47	104	0	60	102441
2026-01-28 16:15:45.20	119.77	4.42	-55.0	-58.7	3.6	0.00e+00	0	47	104	0	60	102260
2026-01-28 16:15:46.20	119.70	4.50	-55.0	-58.8	3.6	0.00e+00	0	47	104	0	60	102610
2026-01-28 16:15:47.20	119.63	4.57	-55.0	-58.7	3.6	0.00e+00	0	47	104	0	60	102335
2026-01-28 16:15:48.21	119.56	4.65	-55.0	-58.8	3.6	0.00e+00	0	47	104	0	60	102583
2026-01-28 16:15:49.22	119.48	4.72	-55.0	-58.7	3.6	0.00e+00	0	47	104	0	60	102029
2026-01-28 16:15:50.23	119.41	4.80	-55.0	-58.7	3.6	0.00e+00	0	47	104	0	60	101491
2026-01-28 16:15:51.24	119.34	4.87	-55.0	-58.7	3.6	0.00e+00	0	47	104	0	60	102151
2026-01-28 16:15:52.24	119.27	4.95	-54.9	-58.7	3.6	0.00e+00	0	47	104	0	60	101805
2026-01-28 16:15:53.25	119.19	5.02	-54.9	-58.7	3.6	0.00e+00	0	47	104	0	60	101753
2026-01-28 16:15:54.26	119.12	5.10	-54.9	-58.7	3.6	0.00e+00	0	47	104	0	60	101766
2026-01-28 16:15:55.26	119.04	5.18	-54.9	-58.7	3.6	0.00e+00	0	47	104	0	60	101617
2026-01-28 16:15:56.27	118.97	5.25	-54.9	-58.7	3.6	0.00e+00	0	47	104	0	60	101646
2026-01-28 16:15:57.28	118.89	5.33	-54.9	-58.7	3.6	0.00e+00	0	47	104	0	60	102030
2026-01-28 16:15:58.28	118.82	5.41	-54.9	-58.7	3.6	0.00e+00	0	47	104	0	60	101609
2026-01-28 16:15:59.29	118.74	5.49	-55.0	-58.7	3.6	0.00e+00	0	47	104	0	60	102047
2026-01-28 16:16:00.29	118.66	5.56	-55.0	-58.7	3.6	0.00e+00	0	47	104	0	60	102055
2026-01-28 16:16:01.30	118.58	5.64	-54.9	-58.7	3.6	0.00e+00	0	47	104	0	60	101985
2026-01-28 16:16:02.30	118.50	5.72	-55.0	-58.7	3.6	0.00e+00	0	47	104	0	60	101720
2026-01-28 16:16:03.30	118.43	5.80	-54.9	-58.6	3.6	0.00e+00	0	47	104	0	60	101130
2026-01-28 16:16:04.31	118.35	5.88	-54.9	-58.6	3.6	0.00e+00	0	47	104	0	60	100736
2026-01-28 16:16:05.32	118.27	5.96	-54.9	-58.6	3.6	0.00e+00	0	47	104	0	60	100773
2026-01-28 16:16:06.33	118.18	6.04	-54.9	-58.6	3.6	0.00e+00	0	47	104	0	60	100842
2026-01-28 16:16:07.34	118.10	6.12	-54.8	-58.9	3.6	0.00e+00	0	47	104	0	60	104696
2026-01-28 16:16:08.34	118.02	6.19	-54.8	-58.7	3.6	0.00e+00	0	47	104	0	60	102214
2026-01-28 16:16:09.35	117.94	6.28	-54.4	-58.3	3.6	0.00e+00	0	47	104	0	60	96997
2026-01-28 16:16:10.36	117.86	6.36	-54.7	-58.7	3.6	0.00e+00	0	47	104	0	60	102098
2026-01-28 16:16:11.37	117.77	6.44	-54.1	-58.1	3.6	0.00e+00	0	47	104	0	60	95367
2026-01-28 16:16:12.38	117.69	6.52	-53.9	-58.1	3.6	0.00e+00	0	47	104	0	60	94975
2026-01-28 16:16:13.38	117.60	6.60	-53.8	-58.0	3.6	0.00e+00	0	47	104	0	60	94087
2026-01-28 16:16:14.39	117.52	6.68	-53.7	-58.0	3.6	0.00e+00	0	47	104	0	60	93804
2026-01-28 16:16:15.40	117.43	6.76	-53.9	-58.4	3.6	0.00e+00	0	47	104	0	60	98793
2026-01-28 16:16:16.39	117.34	6.85	-54.3	-58.7	3.6	0.00e+00	0	47	104	0	60	102035
2026-01-28 16:16:17.40	117.26	6.93	-54.7	-58.6	3.5	0.00e+00	0	47	104	0	60	100343
2026-01-28 16:16:18.41	117.17	7.01	-55.2	-59.0	3.6	0.00e+00	0	47	104	0	60	105643
2026-01-28 16:16:19.41	117.08	7.09	-53.6	-58.2	3.6	0.00e+00	0	47	104	0	60	96124
2026-01-28 16:16:20.42	116.99	7.18	-53.4	-58.2	3.6	0.00e+00	0	47	104	0	60	95626
2026-01-28 16:16:21.43	116.90	7.26	-53.4	-58.2	3.6	0.00e+00	0	47	104	0	60	96462
2026-01-28 16:16:22.44	116.81	7.35	-53.6	-58.2	3.6	0.00e+00	0	47	104	0	60	96604
2026-01-28 16:16:23.45	116.72	7.43	-53.4	-57.8	3.6	0.00e+00	0	47	104	0	60	92229
2026-01-28 16:16:24.46	116.62	7.52	-54.1	-58.6	3.6	0.00e+00	0	47	104	0	60	100965
2026-01-28 16:16:25.46	116.53	7.60	-53.3	-58.0	3.6	0.00e+00	0	47	104	0	60	94081
2026-01-28 16:16:26.47	116.44	7.69	-53.5	-58.1	3.6	0.00e+00	0	47	104	0	60	94740
2026-01-28 16:16:27.48	116.34	7.77	-53.5	-58.2	3.6	0.00e+00	0	47	104	0	60	96407
2026-01-28 16:16:28.48	116.25	7.86	-53.3	-58.0	3.6	0.00e+00	0	47	104	0	60	93945
2026-01-28 16:16:29.48	116.15	7.94	-53.4	-58.0	3.6	0.00e+00	0	47	104	0	60	94226
2026-01-28 16:16:30.49	116.06	8.03	-53.8	-58.3	3.6	0.00e+00	0	47	104	0	60	97071
2026-01-28 16:16:31.49	115.96	8.12	-55.0	-58.9	3.6	0.00e+00	0	47	104	0	60	103896
2026-01-28 16:16:32.50	115.86	8.20	-55.3	-59.1	3.6	0.00e+00	0	47	104	0	60	107014
2026-01-28 16:16:33.50	115.77	8.29	-54.3	-58.4	3.6	0.00e+00	0	47	104	0	60	98440
2026-01-28 16:16:34.51	115.67	8.38	-54.9	-58.7	3.6	0.00e+00	0	47	104	0	60	101580
2026-01-28 16:16:35.51	115.57	8.47	-53.5	-58.1	3.6	0.00e+00	0	47	104	0	60	95272
2026-01-28 16:16:36.52	115.47	8.56	-53.6	-58.1	3.6	0.00e+00	0	48	104	0	60	95491
2026-01-28 16:16:37.53	115.36	8.65	-53.6	-58.1	3.6	0.00e+00	0	48	104	0	60	95322
2026-01-28 16:16:38.54	115.26	8.74	-54.1	-58.4	3.6	0.00e+00	0	48	104	0	60	98075
2026-01-28 16:16:39.54	115.16	8.82	-55.0	-58.8	3.6	0.00e+00	0	48	104	0	60	103039
2026-01-28 16:16:40.55	115.05	8.91	-54.9	-58.9	3.6	0.00e+00	0	47	104	0	60	103842
2026-01-28 16:16:41.56	114.95	9.01	-55.2	-59.1	3.6	0.00e+00	0	47	104	0	60	106976
2026-01-28 16:16:42.57	114.84	9.10	-54.6	-58.8	3.6	0.00e+00	0	47	104	0	60	103399
2026-01-28 16:16:43.57	114.74	9.19	-54.7	-59.0	3.6	0.00e+00	0	48	104	0	60	105163
2026-01-28 16:16:44.59	114.63	9.28	-54.4	-58.7	3.6	0.00e+00	0	47	104	0	60	102134
2026-01-28 16:16:45.59	114.52	9.37	-54.7	-58.9	3.6	0.00e+00	0	47	104	0	60	103833
2026-01-28 16:16:46.60	114.41	9.46	-54.7	-58.8	3.6	0.00e+00	0	48	104	0	60	102989
2026-01-28 16:16:47.60	114.30	9.56	-54.7	-59.0	3.6	0.00e+00	0	48	104	0	60	105414
2026-01-28 16:16:48.61	114.19	9.65	-53.7	-58.5	3.6	0.00e+00	0	48	104	0	60	99496
2026-01-28 16:16:49.61	114.08	9.74	-54.5	-58.8	3.6	0.00e+00	0	48	104	0	60	102646
2026-01-28 16:16:50.62	113.97	9.84	-54.3	-58.8	3.6	0.00e+00	0	48	104	0	60	103319
2026-01-28 16:16:51.62	113.85	9.93	-54.8	-59.0	3.6	0.00e+00	0	48	104	0	60	104950
2026-01-28 16:16:52.63	113.74	10.02	-53.3	-58.2	3.6	0.00e+00	0	48	104	0	60	95786
2026-01-28 16:16:53.64	113.62	10.12	-53.1	-58.2	3.6	0.00e+00	0	48	104	0	60	96517
2026-01-28 16:16:54.65	113.51	10.21	-54.0	-58.5	3.6	0.00e+00	0	48	104	0	60	99976
2026-01-28 16:16:55.66	113.39	10.31	-53.8	-58.4	3.6	0.00e+00	0	48	104	0	60	98942
2026-01-28 16:16:56.66	113.27	10.41	-53.5	-58.4	3.6	0.00e+00	0	48	104	0	60	98155
2026-01-28 16:16:57.67	113.15	10.50	-52.1	-57.8	3.6	0.00e+00	0	48	104	0	60	91692
2026-01-28 16:16:58.68	113.03	10.60	-53.0	-58.1	3.6	0.00e+00	0	48	104	0	60	95184
2026-01-28 16:16:59.68	112.91	10.70	-53.1	-58.1	3.6	0.00e+00	0	48	104	0	60	95362
2026-01-28 16:17:00.69	112.79	10.79	-52.7	-58.1	3.6	0.00e+00	0	47	104	0	60	94844
2026-01-28 16:17:01.70	112.66	10.89	-52.2	-57.9	3.6	0.00e+00	0	47	104	0	60	93008
2026-01-28 16:17:02.70	112.54	10.99	-51.1	-57.4	3.6	0.00e+00	0	48	104	0	60	87312
2026-01-28 16:17:03.70	112.42	11.09	-53.6	-58.5	3.6	0.00e+00	0	48	104	0	60	98997
2026-01-28 16:17:04.70	112.29	11.19	-52.8	-58.1	3.6	0.00e+00	0	48	104	0	60	95252
2026-01-28 16:17:05.71	112.16	11.29	-51.0	-57.4	3.6	0.00e+00	0	48	104	0	60	87422
2026-01-28 16:17:06.72	112.03	11.39	-51.0	-57.4	3.6	0.00e+00	0	48	104	0	60	87461
2026-01-28 16:17:07.72	111.90	11.49	-51.1	-57.4	3.6	0.00e+00	0	48	104	0	60	88200
2026-01-28 16:17:08.73	111.77	11.59	-51.2	-57.4	3.6	0.00e+00	0	48	104	0	60	88045
2026-01-28 16:17:09.74	111.64	11.69	-51.4	-57.5	3.6	0.00e+00	0	48	104	0	60	88817
2026-01-28 16:17:10.75	111.51	11.79	-53.8	-58.6	3.6	0.00e+00	0	48	104	0	60	100792
2026-01-28 16:17:11.76	111.37	11.89	-52.9	-58.2	3.6	0.00e+00	0	48	104	0	60	96593
2026-01-28 16:17:12.77	111.24	12.00	-52.5	-58.1	3.6	0.00e+00	0	48	104	0	60	94608
2026-01-28 16:17:13.78	111.10	12.10	-54.2	-58.8	3.6	0.00e+00	0	48	104	0	60	102814
2026-01-28 16:17:14.78	110.96	12.20	-52.6	-58.1	3.6	0.00e+00	0	48	104	0	60	94975
2026-01-28 16:17:15.79	110.82	12.31	-51.2	-57.4	3.6	0.00e+00	0	48	104	0	60	87525
2026-01-28 16:17:16.80	110.68	12.41	-52.1	-57.8	3.6	0.00e+00	0	48	104	0	60	91818
2026-01-28 16:17:17.80	110.54	12.52	-52.6	-58.1	3.6	0.00e+00	0	48	104	0	60	95251
2026-01-28 16:17:18.81	110.40	12.62	-54.4	-58.9	3.6	0.00e+00	0	48	104	0	60	104084
2026-01-28 16:17:19.82	110.26	12.73	-53.3	-59.0	3.6	0.00e+00	0	48	104	0	60	104987
2026-01-28 16:17:20.83	110.11	12.83	-55.0	-59.4	3.6	0.00e+00	0	48	104	0	60	110706
2026-01-28 16:17:21.84	109.96	12.94	-55.4	-59.5	3.6	0.00e+00	0	48	104	0	60	111964
2026-01-28 16:17:22.84	109.82	13.05	-53.8	-59.1	3.6	0.00e+00	0	48	104	0	60	106516
2026-01-28 16:17:23.85	109.67	13.15	-53.5	-58.8	3.6	0.00e+00	0	48	104	0	60	103009
2026-01-28 16:17:24.85	109.52	13.26	-54.1	-59.3	3.6	0.00e+00	0	48	104	0	60	108702
2026-01-28 16:17:25.85	109.37	13.37	-54.1	-59.3	3.6	0.00e+00	0	48	104	0	60	109318
2026-01-28 16:17:26.85	109.22	13.48	-55.5	-59.5	3.6	0.00e+00	0	48	104	0	60	111428
2026-01-28 16:17:27.85	109.06	13.58	-53.2	-58.6	3.6	0.00e+00	0	48	104	0	60	101123
2026-01-28 16:17:28.85	108.91	13.69	-55.5	-59.4	3.6	0.00e+00	0	48	104	0	60	110735
2026-01-28 16:17:29.86	108.75	13.80	-55.9	-59.8	3.6	0.00e+00	0	48	104	0	60	115647
2026-01-28 16:17:30.86	108.59	13.91	-52.9	-58.5	3.6	0.00e+00	0	48	104	0	60	99772
2026-01-28 16:17:31.87	108.43	14.02	-52.6	-58.4	3.6	0.00e+00	0	48	104	0	60	98643
2026-01-28 16:17:32.88	108.27	14.14	-53.4	-58.8	3.6	0.00e+00	0	48	104	0	60	102737
2026-01-28 16:17:33.89	108.11	14.25	-53.9	-58.9	3.6	0.00e+00	0	48	104	0	60	104615
2026-01-28 16:17:34.90	107.94	14.36	-56.0	-59.8	3.6	0.00e+00	0	48	104	0	60	115703
2026-01-28 16:17:35.90	107.78	14.47	-55.8	-59.6	3.6	0.00e+00	0	48	104	0	60	112519
2026-01-28 16:17:36.90	107.61	14.59	-55.9	-59.8	3.6	0.00e+00	0	48	104	0	60	115261
2026-01-28 16:17:37.91	107.44	14.70	-56.1	-59.8	3.6	0.00e+00	0	48	104	0	60	115403
2026-01-28 16:17:38.91	107.28	14.81	-55.5	-59.5	3.6	0.00e+00	0	48	104	0	60	111100
2026-01-28 16:17:39.92	107.10	14.93	-55.8	-59.6	3.6	0.00e+00	0	48	104	0	60	112767
2026-01-28 16:17:40.92	106.93	15.04	-55.7	-59.6	3.6	0.00e+00	0	48	104	0	60	112410
2026-01-28 16:17:41.93	106.75	15.16	-55.6	-59.6	3.6	0.00e+00	0	48	104	0	60	112972
2026-01-28 16:17:42.94	106.58	15.28	-55.4	-59.4	3.6	0.00e+00	0	48	104	0	60	110165
2026-01-28 16:17:43.95	106.40	15.39	-55.9	-59.8	3.6	0.00e+00	0	48	104	0	60	115506
2026-01-28 16:17:44.95	106.22	15.51	-55.9	-59.6	3.6	0.00e+00	0	48	104	0	60	112697
2026-01-28 16:17:45.96	106.04	15.63	-56.2	-59.9	3.6	0.00e+00	0	48	104	0	60	117092
2026-01-28 16:17:46.96	105.86	15.74	-55.9	-59.7	3.6	0.00e+00	0	48	104	0	60	114455
2026-01-28 16:17:47.97	105.67	15.86	-55.8	-59.8	3.6	0.00e+00	0	48	104	0	60	116287
2026-01-28 16:17:48.98	105.48	15.98	-55.9	-59.7	3.6	0.00e+00	0	48	104	0	60	114603
2026-01-28 16:17:49.99	105.29	16.10	-55.8	-59.9	3.6	0.00e+00	0	48	104	0	60	116328
2026-01-28 16:17:51.00	105.10	16.22	-55.4	-59.7	3.6	0.00e+00	0	48	104	0	60	114438
2026-01-28 16:17:52.00	104.91	16.34	-55.0	-59.4	3.6	0.00e+00	0	48	104	0	60	109908
2026-01-28 16:17:53.01	104.72	16.46	-56.0	-59.9	3.6	0.00e+00	0	48	104	0	60	117232
2026-01-28 16:17:54.02	104.52	16.58	-55.6	-59.6	3.6	0.00e+00	0	48	104	0	60	113286
2026-01-28 16:17:55.02	104.32	16.71	-55.2	-59.4	3.6	0.00e+00	0	48	104	0	60	110101
2026-01-28 16:17:56.03	104.12	16.83	-55.4	-59.5	3.6	0.00e+00	0	48	104	0	60	111239
2026-01-28 16:17:57.03	103.92	16.95	-55.5	-59.5	3.6	0.00e+00	0	48	104	0	60	111226
2026-01-28 16:17:58.04	103.72	17.07	-55.3	-59.3	3.6	0.00e+00	0	48	104	0	60	109046
2026-01-28 16:17:59.04	103.51	17.20	-54.4	-58.6	3.6	0.00e+00	0	48	104	0	60	101083
2026-01-28 16:18:00.05	103.30	17.32	-55.6	-59.5	3.6	0.00e+00	0	48	104	0	60	112261
2026-01-28 16:18:01.06	103.09	17.45	-55.2	-59.2	3.6	0.00e+00	0	48	104	0	60	107300
2026-01-28 16:18:02.06	102.88	17.57	-54.5	-58.7	3.6	0.00e+00	0	48	104	0	60	101536
2026-01-28 16:18:03.07	102.67	17.70	-55.5	-59.5	3.6	0.00e+00	0	48	104	0	60	112025
2026-01-28 16:18:04.08	102.45	17.82	-54.8	-59.0	3.6	0.00e+00	0	48	104	0	60	105247
2026-01-28 16:18:05.09	102.23	17.95	-54.6	-58.7	3.5	0.00e+00	0	48	104	0	60	101913
2026-01-28 16:18:06.09	102.02	18.07	-54.7	-58.7	3.6	0.00e+00	0	48	104	0	60	101848
2026-01-28 16:18:07.10	101.79	18.20	-55.7	-59.4	3.6	0.00e+00	0	48	104	0	60	111035
2026-01-28 16:18:08.10	101.57	18.33	-55.6	-59.3	3.6	0.00e+00	0	48	104	0	60	108746
2026-01-28 16:18:09.11	101.34	18.46	-54.2	-58.8	3.5	0.00e+00	0	48	104	0	60	102800
2026-01-28 16:18:10.10	101.12	18.58	-55.5	-59.5	3.6	0.00e+00	0	48	104	0	60	111491
2026-01-28 16:18:11.11	100.89	18.71	-55.1	-58.9	3.6	0.00e+00	0	48	104	0	60	104535
2026-01-28 16:18:12.10	100.66	18.84	-55.2	-59.0	3.6	0.00e+00	0	48	104	0	60	105301
2026-01-28 16:18:13.11	100.42	18.97	-55.5	-59.3	3.6	0.00e+00	0	48	104	0	60	109733
2026-01-28 16:18:14.12	100.18	19.10	-55.6	-59.4	3.6	0.00e+00	0	48	104	0	60	110678
2026-01-28 16:18:15.12	99.94	19.23	-55.5	-59.4	3.6	0.00e+00	0	48	104	0	60	110273
2026-01-28 16:18:16.12	99.70	19.36	-56.0	-59.4	3.6	0.00e+00	0	48	104	0	60	109856
2026-01-28 16:18:17.12	99.46	19.49	-55.5	-58.9	3.6	0.00e+00	0	48	104	0	60	104105
2026-01-28 16:18:18.12	99.21	19.62	-53.6	-57.1	3.6	0.00e+00	0	48	104	0	60	85180
2026-01-28 16:18:19.13	98.96	19.75	-55.6	-59.1	3.6	0.00e+00	0	48	104	0	60	107284
2026-01-28 16:18:20.14	98.71	19.89	-53.4	-57.0	3.6	0.00e+00	0	48	104	0	60	83482
2026-01-28 16:18:21.14	98.45	20.02	-53.6	-56.9	3.6	0.00e+00	0	48	104	0	60	82924
2026-01-28 16:18:22.15	98.20	20.15	-53.9	-57.1	3.6	0.00e+00	0	48	104	0	60	84798
2026-01-28 16:18:23.16	97.94	20.29	-54.1	-58.1	3.6	0.00e+00	0	48	104	0	60	94566
2026-01-28 16:18:24.15	97.68	20.42	-54.6	-57.7	3.6	0.00e+00	0	48	104	0	60	91029
2026-01-28 16:18:25.16	97.41	20.55	-54.8	-58.5	3.6	0.00e+00	0	48	104	0	60	100056
2026-01-28 16:18:26.16	97.14	20.69	-55.3	-58.7	3.6	0.00e+00	0	48	104	0	60	102156
2026-01-28 16:18:27.16	96.88	20.82	-54.2	-57.4	3.6	0.00e+00	0	48	104	0	60	88023
2026-01-28 16:18:28.17	96.60	20.95	-54.3	-57.6	3.6	0.00e+00	0	48	104	0	60	89324
2026-01-28 16:18:29.17	96.33	21.09	-54.4	-58.1	3.6	0.00e+00	0	48	104	0	60	95293
2026-01-28 16:18:30.18	96.05	21.22	-54.3	-58.3	3.6	0.00e+00	0	48	104	0	60	97208
2026-01-28 16:18:31.19	95.76	21.36	-53.9	-57.5	3.6	0.00e+00	0	48	104	0	60	88924
2026-01-28 16:18:32.20	95.48	21.50	-53.9	-57.7	3.6	0.00e+00	0	48	104	0	60	90826
2026-01-28 16:18:33.20	95.19	21.63	-53.6	-57.7	3.6	0.00e+00	0	48	104	0	60	90609
2026-01-28 16:18:34.20	94.91	21.77	-52.8	-56.9	3.6	0.00e+00	0	48	104	0	60	82992
2026-01-28 16:18:35.21	94.61	21.90	-54.3	-58.4	3.6	0.00e+00	0	48	104	0	60	98817
2026-01-28 16:18:36.22	94.31	22.04	-52.6	-56.6	3.6	0.00e+00	0	48	104	0	60	80392
2026-01-28 16:18:37.22	94.02	22.18	-52.5	-56.5	3.6	0.00e+00	0	48	104	0	60	78651
2026-01-28 16:18:38.23	93.71	22.31	-52.7	-56.6	3.6	0.00e+00	0	48	104	0	60	79661
2026-01-28 16:18:39.24	93.41	22.45	-53.0	-56.6	3.6	0.00e+00	0	48	104	0	60	79709
2026-01-28 16:18:40.25	93.10	22.59	-52.4	-56.2	3.6	0.00e+00	0	48	104	0	60	76115
2026-01-28 16:18:41.26	92.79	22.73	-53.0	-56.8	3.6	0.00e+00	0	48	104	0	60	81626
2026-01-28 16:18:42.26	92.47	22.86	-52.7	-56.2	3.6	0.00e+00	0	48	104	0	60	76547
2026-01-28 16:18:43.27	92.16	23.00	-52.3	-56.1	3.6	0.00e+00	0	48	104	0	60	75927
2026-01-28 16:18:44.28	91.83	23.14	-52.6	-56.1	3.6	0.00e+00	0	48	104	0	60	75832
2026-01-28 16:18:45.28	91.51	23.28	-52.7	-56.2	3.6	0.00e+00	0	48	104	0	60	76450
2026-01-28 16:18:46.28	91.19	23.41	-53.1	-56.7	3.6	0.00e+00	0	48	104	0	60	80723
2026-01-28 16:18:47.29	90.86	23.55	-54.9	-58.2	3.6	0.00e+00	0	48	104	0	60	96062
2026-01-28 16:18:48.30	90.52	23.69	-53.3	-57.0	3.6	0.00e+00	0	48	104	0	60	83558
2026-01-28 16:18:49.30	90.19	23.82	-55.1	-58.4	3.6	0.00e+00	0	48	104	0	60	97925
2026-01-28 16:18:50.30	89.85	23.96	-54.3	-58.2	3.6	0.00e+00	0	48	104	0	60	95802
2026-01-28 16:18:51.31	89.50	24.10	-54.0	-57.5	3.6	0.00e+00	0	48	104	0	60	88819
2026-01-28 16:18:52.32	89.16	24.24	-55.2	-58.4	3.6	0.00e+00	0	48	104	0	60	98894
2026-01-28 16:18:53.32	88.81	24.37	-55.4	-58.6	3.6	0.00e+00	0	48	104	0	60	100702
2026-01-28 16:18:54.33	88.45	24.51	-55.5	-58.7	3.6	0.00e+00	0	48	104	0	60	101636
2026-01-28 16:18:55.34	88.10	24.64	-54.4	-57.6	3.5	0.00e+00	0	48	104	0	60	89931
2026-01-28 16:18:56.34	87.74	24.78	-55.4	-59.1	3.6	0.00e+00	0	48	104	0	60	106272
2026-01-28 16:18:57.34	87.38	24.91	-55.1	-58.7	3.6	0.00e+00	0	48	104	0	60	101388
2026-01-28 16:18:58.35	87.01	25.05	-55.4	-59.0	3.5	0.00e+00	0	48	104	0	60	105454
2026-01-28 16:18:59.36	86.64	25.19	-55.4	-59.0	3.6	0.00e+00	0	48	104	0	60	104866
2026-01-28 16:19:00.36	86.26	25.32	-55.5	-58.9	3.6	0.00e+00	0	48	104	0	60	103812
2026-01-28 16:19:01.36	85.89	25.45	-55.4	-58.9	3.6	0.00e+00	0	48	104	0	60	104518
2026-01-28 16:19:02.37	85.51	25.59	-55.2	-58.7	3.6	0.00e+00	0	48	104	0	60	101372
2026-01-28 16:19:03.38	85.12	25.72	-54.9	-58.0	3.6	0.00e+00	0	48	104	0	60	94036
2026-01-28 16:19:04.38	84.73	25.85	-54.3	-57.4	3.6	0.00e+00	0	48	104	0	60	87563
2026-01-28 16:19:05.39	84.34	25.99	-54.3	-57.3	3.6	0.00e+00	0	48	104	0	60	86820
2026-01-28 16:19:06.39	83.95	26.12	-54.4	-57.3	3.6	0.00e+00	0	48	104	0	60	87203
2026-01-28 16:19:07.40	83.55	26.25	-55.0	-58.5	3.6	0.00e+00	0	48	104	0	60	99078
2026-01-28 16:19:08.40	83.14	26.38	-54.4	-58.1	3.6	0.00e+00	0	48	104	0	60	94550
2026-01-28 16:19:09.40	82.74	26.51	-54.4	-58.0	3.6	0.00e+00	0	48	104	0	60	93596
2026-01-28 16:19:10.41	82.33	26.64	-54.4	-58.2	3.6	0.00e+00	0	48	104	0	60	96085
2026-01-28 16:19:11.42	81.91	26.76	-54.2	-57.4	3.6	0.00e+00	0	48	104	0	60	87475
2026-01-28 16:19:12.43	81.49	26.89	-54.7	-58.0	3.6	0.00e+00	0	48	104	0	60	93943
2026-01-28 16:19:13.44	81.07	27.02	-55.1	-58.5	3.6	0.00e+00	0	48	104	0	60	98990
2026-01-28 16:19:14.45	80.64	27.14	-54.7	-58.4	3.6	0.00e+00	0	48	104	0	60	98537
2026-01-28 16:19:15.45	80.22	27.27	-54.7	-58.6	3.6	0.00e+00	0	48	104	0	60	100804
2026-01-28 16:19:16.46	79.78	27.39	-55.6	-58.9	3.6	0.00e+00	0	48	104	0	60	104529
2026-01-28 16:19:17.46	79.35	27.51	-55.4	-58.7	3.6	0.00e+00	0	48	104	0	60	102255
2026-01-28 16:19:18.47	78.91	27.64	-55.7	-58.9	3.5	0.00e+00	0	48	104	0	60	104260
2026-01-28 16:19:19.47	78.47	27.76	-55.8	-58.9	3.6	0.00e+00	0	48	104	0	60	104229
2026-01-28 16:19:20.47	78.02	27.87	-55.6	-58.5	3.6	0.00e+00	0	48	104	0	60	100129
2026-01-28 16:19:21.47	77.58	27.99	-56.8	-60.4	3.6	0.00e+00	0	48	104	0	60	124352
2026-01-28 16:19:22.48	77.12	28.11	-56.0	-58.9	3.6	0.00e+00	0	48	104	0	60	104287
2026-01-28 16:19:23.49	76.66	28.22	-56.0	-58.9	3.6	0.00e+00	0	48	104	0	60	104299
2026-01-28 16:19:24.50	76.20	28.34	-55.8	-58.6	3.6	0.00e+00	0	48	104	0	60	100418
2026-01-28 16:19:25.50	75.74	28.45	-55.5	-58.5	3.6	0.00e+00	0	48	104	0	60	99725
2026-01-28 16:19:26.51	75.27	28.56	-55.1	-58.4	3.6	0.00e+00	0	48	104	0	60	97929
2026-01-28 16:19:27.52	74.79	28.67	-55.3	-58.4	3.6	0.00e+00	0	48	104	0	60	98351
2026-01-28 16:19:28.53	74.31	28.78	-55.5	-59.3	3.6	0.00e+00	0	48	104	0	60	109584
2026-01-28 16:19:29.54	73.83	28.89	-55.6	-58.5	3.6	0.00e+00	0	48	104	0	60	99282
2026-01-28 16:19:30.54	73.35	28.99	-55.7	-58.6	3.6	0.00e+00	0	48	104	0	60	101224
2026-01-28 16:19:31.55	72.87	29.10	-55.6	-58.5	3.6	0.00e+00	0	48	104	0	60	99376
2026-01-28 16:19:32.56	72.37	29.20	-55.6	-58.5	3.6	0.00e+00	0	48	104	0	60	100050
2026-01-28 16:19:33.56	71.89	29.30	-55.4	-58.3	3.6	0.00e+00	0	48	104	0	60	96762
2026-01-28 16:19:34.56	71.39	29.40	-55.2	-58.0	3.6	0.00e+00	0	48	104	0	60	94240
2026-01-28 16:19:35.57	70.89	29.49	-55.8	-58.8	3.6	0.00e+00	0	48	104	0	60	103051
2026-01-28 16:19:36.58	70.39	29.59	-55.9	-59.2	3.6	0.00e+00	0	48	104	0	60	107544
2026-01-28 16:19:37.58	69.88	29.68	-55.8	-58.8	3.6	0.00e+00	0	48	104	0	60	103300
2026-01-28 16:19:38.59	69.37	29.77	-55.9	-59.0	3.6	0.00e+00	0	48	104	0	60	105435
2026-01-28 16:19:39.60	68.86	29.86	-54.8	-58.3	3.6	0.00e+00	0	48	104	0	60	97466
2026-01-28 16:19:40.61	68.34	29.95	-55.0	-58.2	3.6	0.00e+00	0	48	104	0	60	96589
2026-01-28 16:19:41.62	67.82	30.03	-55.1	-58.2	3.6	0.00e+00	0	48	104	0	60	95990
2026-01-28 16:19:42.62	67.31	30.11	-55.2	-58.3	3.6	0.00e+00	0	48	104	0	60	97609
2026-01-28 16:19:43.63	66.78	30.19	-54.9	-58.2	3.6	0.00e+00	0	48	104	0	60	96312
2026-01-28 16:19:44.63	66.26	30.27	-55.1	-58.3	3.6	0.00e+00	0	48	104	0	60	97097
2026-01-28 16:19:45.64	65.73	30.35	-54.7	-58.3	3.6	0.00e+00	0	48	104	0	60	97680
2026-01-28 16:19:46.64	65.20	30.42	-55.5	-58.6	3.6	0.00e+00	0	48	104	0	60	100156
2026-01-28 16:19:47.65	64.66	30.49	-55.5	-58.6	3.6	0.00e+00	0	48	104	0	60	100693
2026-01-28 16:19:48.66	64.12	30.56	-55.0	-58.2	3.6	0.00e+00	0	48	104	0	60	96700
2026-01-28 16:19:49.66	63.59	30.62	-55.1	-58.2	3.6	0.00e+00	0	48	104	0	60	95954
2026-01-28 16:19:50.67	63.04	30.69	-54.5	-57.6	3.6	0.00e+00	0	48	104	0	60	89799
2026-01-28 16:19:51.67	62.50	30.75	-55.2	-58.1	3.6	0.00e+00	0	48	104	0	60	94701
2026-01-28 16:19:52.68	61.96	30.80	-55.7	-59.0	3.6	0.00e+00	0	48	104	0	60	105531
2026-01-28 16:19:53.69	61.41	30.86	-55.5	-58.4	3.6	0.00e+00	0	48	104	0	60	98758
2026-01-28 16:19:54.69	60.86	30.91	-56.5	-59.5	3.6	0.00e+00	0	48	104	0	60	112155
2026-01-28 16:19:55.70	60.31	30.96	-55.5	-58.5	3.6	0.00e+00	0	48	104	0	60	99355
2026-01-28 16:19:56.71	59.75	31.01	-55.0	-57.9	3.6	0.00e+00	0	48	104	0	60	92391
2026-01-28 16:19:57.72	59.19	31.05	-55.1	-58.0	3.6	0.00e+00	0	48	104	0	60	94049
2026-01-28 16:19:58.73	58.63	31.10	-55.8	-59.4	3.6	0.00e+00	0	48	104	0	60	110258
2026-01-28 16:19:59.74	58.07	31.14	-54.8	-58.2	3.6	0.00e+00	0	48	104	0	60	96345
2026-01-28 16:20:00.74	57.52	31.17	-55.9	-58.7	3.6	0.00e+00	0	48	104	0	60	102128
2026-01-28 16:20:01.75	56.96	31.20	-55.6	-59.0	3.6	0.00e+00	0	48	104	0	60	105762
2026-01-28 16:20:02.76	56.39	31.24	-54.8	-58.1	3.6	0.00e+00	0	48	104	0	60	95435
2026-01-28 16:20:03.76	55.83	31.26	-54.0	-57.7	3.6	0.00e+00	0	48	104	0	60	91237
2026-01-28 16:20:04.76	55.27	31.29	-53.6	-57.5	3.6	0.00e+00	0	48	104	0	60	88580
2026-01-28 16:20:05.77	54.70	31.31	-53.9	-57.7	3.6	0.00e+00	0	48	104	0	60	91000
2026-01-28 16:20:06.77	54.14	31.33	-54.7	-59.6	3.6	0.00e+00	0	48	104	0	60	113185
2026-01-28 16:20:07.77	53.58	31.34	-56.8	-60.2	3.6	0.00e+00	0	48	104	0	60	121705
2026-01-28 16:20:08.78	53.01	31.36	-56.1	-60.3	3.5	0.00e+00	0	48	104	0	60	122227
2026-01-28 16:20:09.78	52.45	31.37	-53.6	-59.2	3.6	0.00e+00	0	48	104	0	60	108322
2026-01-28 16:20:10.79	51.88	31.37	-57.0	-60.4	3.6	0.00e+00	0	48	104	0	60	124315
2026-01-28 16:20:11.79	51.31	31.38	-56.7	-60.2	3.6	0.00e+00	0	48	104	0	60	121202
2026-01-28 16:20:12.80	50.74	31.38	-56.8	-60.4	3.6	0.00e+00	0	48	104	0	60	124084
2026-01-28 16:20:13.80	50.18	31.38	-56.9	-60.6	3.6	0.00e+00	0	48	104	0	60	126504
2026-01-28 16:20:14.81	49.61	31.37	-56.9	-60.2	3.6	0.00e+00	0	48	104	0	60	120923
2026-01-28 16:20:15.81	49.04	31.37	-56.5	-60.3	3.6	0.00e+00	0	48	104	0	60	121945
2026-01-28 16:20:16.82	48.48	31.35	-56.8	-60.5	3.6	0.00e+00	0	48	104	0	60	125988
2026-01-28 16:20:17.82	47.91	31.34	-57.0	-60.6	3.6	0.00e+00	0	48	104	0	60	126722
2026-01-28 16:20:18.83	47.34	31.32	-55.4	-59.6	3.6	0.00e+00	0	48	104	0	60	113192
2026-01-28 16:20:19.84	46.78	31.30	-54.0	-58.6	3.6	0.00e+00	0	48	104	0	60	100194
2026-01-28 16:20:20.84	46.22	31.28	-54.1	-58.6	3.6	0.00e+00	0	48	104	0	60	100739
2026-01-28 16:20:21.84	45.66	31.26	-54.1	-58.8	3.6	0.00e+00	0	48	104	0	60	102650
2026-01-28 16:20:22.85	45.09	31.23	-53.6	-59.1	3.6	0.00e+00	0	48	104	0	60	106215
2026-01-28 16:20:23.85	44.53	31.20	-55.4	-59.9	3.6	0.00e+00	0	48	104	0	60	116609
2026-01-28 16:20:24.85	43.98	31.16	-53.3	-59.0	3.6	0.00e+00	0	48	104	0	60	105772
2026-01-28 16:20:25.85	43.42	31.13	-56.1	-60.1	3.6	0.00e+00	0	48	104	0	60	119909
2026-01-28 16:20:26.86	42.86	31.09	-53.8	-59.0	3.6	0.00e+00	0	48	104	0	60	105401
2026-01-28 16:20:27.86	42.31	31.05	-53.7	-59.0	3.6	0.00e+00	0	48	104	0	60	104993
2026-01-28 16:20:28.87	41.75	31.00	-54.1	-59.1	3.6	0.00e+00	0	48	104	0	60	106900
2026-01-28 16:20:29.88	41.20	30.95	-53.6	-58.9	3.6	0.00e+00	0	48	104	0	60	103856
2026-01-28 16:20:30.88	40.65	30.90	-53.6	-58.4	3.6	0.00e+00	0	48	104	0	60	97927
2026-01-28 16:20:31.89	40.10	30.85	-53.3	-58.6	3.6	0.00e+00	0	48	104	0	60	101014
2026-01-28 16:20:32.90	39.55	30.79	-53.0	-58.1	3.6	0.00e+00	0	48	104	0	60	94677
2026-01-28 16:20:33.90	39.01	30.73	-53.0	-57.7	3.6	0.00e+00	0	48	104	0	60	90346
2026-01-28 16:20:34.91	38.47	30.67	-55.8	-58.8	3.6	0.00e+00	0	48	104	0	60	102741
2026-01-28 16:20:35.92	37.92	30.61	-54.2	-58.4	3.6	0.00e+00	0	48	104	0	60	98554
2026-01-28 16:20:36.92	37.39	30.54	-54.2	-58.4	3.6	0.00e+00	0	48	104	0	60	98205
2026-01-28 16:20:37.93	36.85	30.48	-53.9	-58.4	3.6	0.00e+00	0	48	104	0	60	97943
2026-01-28 16:20:38.93	36.32	30.40	-53.1	-57.8	3.6	0.00e+00	0	48	104	0	60	91667
2026-01-28 16:20:39.94	35.79	30.33	-53.8	-58.1	3.6	0.00e+00	0	48	104	0	60	95473
2026-01-28 16:20:40.94	35.26	30.26	-53.8	-58.0	3.6	0.00e+00	0	48	104	0	60	93868
2026-01-28 16:20:41.95	34.74	30.18	-53.1	-58.0	3.6	0.00e+00	0	48	104	0	60	93660
2026-01-28 16:20:42.95	34.22	30.10	-53.0	-57.9	3.6	0.00e+00	0	48	104	0	60	93227
2026-01-28 16:20:43.96	33.70	30.02	-54.7	-58.7	3.6	0.00e+00	0	48	104	0	60	102224
2026-01-28 16:20:44.96	33.18	29.93	-55.7	-59.2	3.6	0.00e+00	0	48	104	0	60	107347
2026-01-28 16:20:45.96	32.67	29.85	-54.5	-58.3	3.6	0.00e+00	0	48	104	0	60	96821
2026-01-28 16:20:46.97	32.16	29.76	-54.3	-58.4	3.6	0.00e+00	0	48	104	0	60	98085
2026-01-28 16:20:47.98	31.65	29.67	-55.1	-58.7	3.6	0.00e+00	0	48	104	0	60	101556
2026-01-28 16:20:48.99	31.15	29.57	-55.0	-58.5	3.6	0.00e+00	0	48	104	0	60	99032
2026-01-28 16:20:50.00	30.64	29.48	-54.8	-58.4	3.6	0.00e+00	0	48	104	0	60	98916
2026-01-28 16:20:51.00	30.15	29.38	-54.7	-58.5	3.6	0.00e+00	0	48	104	0	60	99043
2026-01-28 16:20:52.01	29.65	29.28	-55.6	-59.2	3.6	0.00e+00	0	48	104	0	60	107416
2026-01-28 16:20:53.01	29.17	29.18	-55.4	-58.5	3.6	0.00e+00	0	48	104	0	60	99668
2026-01-28 16:20:54.01	28.68	29.08	-55.8	-59.7	3.6	0.00e+00	0	48	104	0	60	114609
2026-01-28 16:20:55.02	28.19	28.98	-54.9	-58.5	3.6	0.00e+00	0	48	104	0	60	99934
2026-01-28 16:20:56.02	27.72	28.87	-54.9	-58.5	3.6	0.00e+00	0	48	104	0	60	99347
2026-01-28 16:20:57.02	27.24	28.77	-55.6	-59.4	3.6	0.00e+00	0	48	104	0	60	110528
2026-01-28 16:20:58.02	26.77	28.66	-55.5	-59.6	3.6	0.00e+00	0	48	104	0	60	113197
2026-01-28 16:20:59.03	26.30	28.55	-54.6	-58.9	3.6	0.00e+00	0	48	104	0	60	103793
2026-01-28 16:21:00.03	25.84	28.44	-55.8	-59.5	3.6	0.00e+00	0	48	104	0	60	111834
2026-01-28 16:21:01.04	25.37	28.33	-54.0	-58.7	3.6	0.00e+00	0	48	104	0	60	101594
2026-01-28 16:21:02.04	24.91	28.21	-54.4	-58.7	3.6	0.00e+00	0	48	104	0	60	102258
2026-01-28 16:21:03.05	24.46	28.10	-53.5	-58.9	3.6	0.00e+00	0	48	104	0	60	104123
2026-01-28 16:21:04.06	24.00	27.98	-55.3	-59.2	3.5	0.00e+00	0	48	104	0	60	108363
2026-01-28 16:21:05.06	23.55	27.86	-56.3	-60.0	3.6	0.00e+00	0	49	104	0	60	118073
2026-01-28 16:21:06.07	23.11	27.74	-56.3	-60.2	3.6	0.00e+00	0	48	104	0	60	120418
2026-01-28 16:21:07.07	22.67	27.62	-52.8	-58.7	3.6	0.00e+00	0	48	104	0	60	102391
2026-01-28 16:21:08.08	22.23	27.50	-54.7	-59.4	3.6	0.00e+00	0	48	104	0	60	109958
2026-01-28 16:21:09.09	21.79	27.38	-54.2	-59.6	3.6	0.00e+00	0	48	104	0	60	113262
2026-01-28 16:21:10.10	21.36	27.26	-55.8	-60.1	3.6	0.00e+00	0	48	104	0	60	119668
2026-01-28 16:21:11.11	20.93	27.13	-53.1	-59.1	3.6	0.00e+00	0	48	104	0	60	106231
2026-01-28 16:21:12.12	20.51	27.01	-53.4	-59.2	3.6	0.00e+00	0	49	104	0	60	108394
2026-01-28 16:21:13.12	20.09	26.88	-55.2	-59.9	3.6	0.00e+00	0	48	104	0	60	117105
2026-01-28 16:21:14.13	19.67	26.75	-55.8	-60.1	3.6	0.00e+00	0	48	104	0	60	120141
2026-01-28 16:21:15.14	19.26	26.62	-56.1	-60.0	3.6	0.00e+00	0	48	104	0	60	117652
2026-01-28 16:21:16.14	18.85	26.50	-55.0	-59.0	3.5	0.00e+00	0	49	104	0	60	105254
2026-01-28 16:21:17.15	18.45	26.37	-55.4	-59.4	3.6	0.00e+00	0	49	104	0	60	111035
2026-01-28 16:21:18.15	18.05	26.24	-54.0	-58.1	3.6	0.00e+00	0	48	104	0	60	95353
2026-01-28 16:21:19.16	17.65	26.11	-54.1	-58.4	3.6	0.00e+00	0	49	104	0	60	98716
2026-01-28 16:21:20.17	17.25	25.98	-53.2	-57.5	3.6	0.00e+00	0	48	104	0	60	88699
2026-01-28 16:21:21.18	16.86	25.84	-52.6	-57.1	3.6	0.00e+00	0	49	104	0	60	84572
2026-01-28 16:21:22.18	16.48	25.71	-52.7	-57.0	3.6	0.00e+00	0	48	104	0	60	84093
2026-01-28 16:21:23.19	16.09	25.58	-52.9	-56.9	3.6	0.00e+00	0	49	104	0	60	82660
2026-01-28 16:21:24.20	15.71	25.44	-52.8	-57.5	3.6	0.00e+00	0	49	104	0	60	88438
2026-01-28 16:21:25.21	15.34	25.31	-53.5	-57.2	3.6	0.00e+00	0	49	104	0	60	86049
2026-01-28 16:21:26.21	14.97	25.18	-51.9	-56.4	3.6	0.00e+00	0	48	104	0	60	78175
2026-01-28 16:21:27.22	14.59	25.04	-53.3	-57.0	3.6	0.00e+00	0	48	104	0	60	83989
2026-01-28 16:21:28.22	14.23	24.91	-52.2	-56.5	3.6	0.00e+00	0	48	104	0	60	78816
2026-01-28 16:21:29.23	13.87	24.77	-52.9	-57.1	3.6	0.00e+00	0	48	104	0	60	84383
2026-01-28 16:21:30.24	13.51	24.64	-53.3	-57.4	3.6	0.00e+00	0	48	104	0	60	87948
2026-01-28 16:21:31.24	13.16	24.50	-54.2	-58.3	3.6	0.00e+00	0	48	104	0	60	97685
2026-01-28 16:21:32.24	12.81	24.37	-54.2	-57.2	3.6	0.00e+00	0	49	104	0	60	85604
2026-01-28 16:21:33.25	12.46	24.23	-54.3	-58.3	3.6	0.00e+00	0	48	104	0	60	97625
2026-01-28 16:21:34.25	12.11	24.09	-54.7	-58.2	3.6	0.00e+00	0	49	104	0	60	95823
2026-01-28 16:21:35.26	11.77	23.96	-53.3	-57.2	3.6	0.00e+00	0	48	104	0	60	85894
2026-01-28 16:21:36.26	11.44	23.82	-54.1	-57.9	3.6	0.00e+00	0	48	104	0	60	92588
2026-01-28 16:21:37.26	11.10	23.69	-54.3	-58.0	3.6	0.00e+00	0	49	104	0	60	94168
2026-01-28 16:21:38.27	10.77	23.55	-54.7	-58.2	3.6	0.00e+00	0	48	104	0	60	96350
2026-01-28 16:21:39.28	10.44	23.41	-54.0	-57.4	3.6	0.00e+00	0	49	104	0	60	87497
2026-01-28 16:21:40.29	10.11	23.27	-54.1	-57.6	3.6	0.00e+00	0	48	104	0	60	89345
2026-01-28 16:21:41.30	9.79	23.14	-54.2	-57.8	3.6	0.00e+00	0	48	104	0	60	91679
2026-01-28 16:21:42.30	9.47	23.00	-54.7	-58.4	3.6	0.00e+00	0	48	104	0	60	98549
2026-01-28 16:21:43.31	9.16	22.86	-52.5	-56.5	3.6	0.00e+00	0	49	104	0	60	78855
2026-01-28 16:21:44.32	8.84	22.73	-53.3	-56.9	3.6	0.00e+00	0	48	104	0	60	82904
2026-01-28 16:21:45.32	8.54	22.59	-53.8	-57.0	3.6	0.00e+00	0	48	104	0	60	83877
2026-01-28 16:21:46.32	8.23	22.45	-54.3	-57.5	3.6	0.00e+00	0	48	104	0	60	89020
2026-01-28 16:21:47.33	7.93	22.32	-55.5	-59.3	3.6	0.00e+00	0	48	104	0	60	109717
2026-01-28 16:21:48.33	7.63	22.18	-53.9	-58.7	3.6	0.00e+00	0	48	104	0	60	101469
2026-01-28 16:21:49.34	7.33	22.05	-54.2	-57.7	3.6	0.00e+00	0	48	104	0	60	90938
2026-01-28 16:21:50.35	7.03	21.91	-54.4	-58.8	3.6	0.00e+00	0	48	104	0	60	102733
2026-01-28 16:21:51.35	6.74	21.77	-55.2	-58.4	3.6	0.00e+00	0	48	104	0	60	98841
2026-01-28 16:21:52.36	6.45	21.64	-54.2	-58.5	3.6	0.00e+00	0	48	104	0	60	99280
2026-01-28 16:21:53.36	6.17	21.50	-54.0	-58.6	3.6	0.00e+00	0	49	104	0	60	101043
2026-01-28 16:21:54.36	5.89	21.37	-53.7	-58.7	3.6	0.00e+00	0	48	104	0	60	101294
2026-01-28 16:21:55.37	5.61	21.23	-55.7	-59.6	3.6	0.00e+00	0	48	104	0	60	112945
2026-01-28 16:21:56.38	5.33	21.10	-55.6	-59.6	3.6	0.00e+00	0	48	104	0	60	113534
2026-01-28 16:21:57.39	5.05	20.96	-56.1	-59.8	3.6	0.00e+00	0	48	104	0	60	115234
2026-01-28 16:21:58.39	4.78	20.83	-55.6	-59.3	3.6	0.00e+00	0	48	104	0	60	109287
2026-01-28 16:21:59.40	4.51	20.70	-55.2	-59.6	3.6	0.00e+00	0	48	104	0	60	112858
2026-01-28 16:22:00.41	4.25	20.56	-55.3	-58.7	3.6	0.00e+00	0	48	104	0	60	102361
2026-01-28 16:22:01.41	3.98	20.43	-55.4	-58.8	3.6	0.00e+00	0	49	104	0	60	102644
2026-01-28 16:22:02.42	3.72	20.30	-55.5	-58.6	3.6	0.00e+00	0	48	104	0	60	100132
2026-01-28 16:22:03.43	3.46	20.16	-55.2	-58.8	3.6	0.00e+00	0	48	104	0	60	102530
2026-01-28 16:22:04.43	3.21	20.03	-55.4	-58.5	3.6	0.00e+00	0	48	104	0	60	99857
2026-01-28 16:22:05.44	2.95	19.90	-55.3	-58.6	3.6	0.00e+00	0	48	104	0	60	100351
2026-01-28 16:22:06.44	2.71	19.77	-55.1	-58.5	3.6	0.00e+00	0	48	104	0	60	99780
2026-01-28 16:22:07.45	2.46	19.64	-55.1	-58.8	3.6	0.00e+00	0	48	104	0	60	102850
2026-01-28 16:22:08.46	2.21	19.50	-55.2	-59.0	3.6	0.00e+00	0	49	104	0	60	105472
2026-01-28 16:22:09.46	1.97	19.37	-54.3	-58.4	3.6	0.00e+00	0	48	104	0	60	98581
2026-01-28 16:22:10.47	1.72	19.24	-55.1	-58.7	3.6	0.00e+00	0	48	104	0	60	101871
2026-01-28 16:22:11.48	1.48	19.11	-55.8	-59.5	3.6	0.00e+00	0	48	104	0	60	111257
2026-01-28 16:22:12.48	1.25	18.99	-54.9	-58.8	3.6	0.00e+00	0	49	104	0	60	102672
2026-01-28 16:22:13.49	1.01	18.86	-55.2	-58.8	3.6	0.00e+00	0	48	104	0	60	103448
2026-01-28 16:22:14.49	0.78	18.73	-55.5	-59.0	3.6	0.00e+00	0	48	104	0	60	105429
2026-01-28 16:22:15.50	0.55	18.60	-55.1	-58.8	3.6	0.00e+00	0	48	104	0	60	102834
2026-01-28 16:22:16.51	0.33	18.47	-55.5	-59.1	3.6	0.00e+00	0	49	104	0	60	106876
2026-01-28 16:22:17.52	0.10	18.34	-55.4	-59.4	3.6	0.00e+00	0	48	104	0	60	110764
2026-01-28 16:22:18.52	359.88	18.22	-55.3	-59.0	3.6	0.00e+00	0	49	104	0	60	105634
2026-01-28 16:22:19.53	359.66	18.09	-55.6	-59.0	3.6	0.00e+00	0	49	104	0	60	105802
2026-01-28 16:22:20.54	359.44	17.96	-55.9	-59.5	3.6	0.00e+00	0	49	104	0	60	111353
2026-01-28 16:22:21.55	359.22	17.84	-55.2	-58.7	3.6	0.00e+00	0	48	104	0	60	102225
2026-01-28 16:22:22.55	359.01	17.71	-55.4	-58.9	3.6	0.00e+00	0	48	104	0	60	103942
2026-01-28 16:22:23.56	358.79	17.59	-55.2	-58.8	3.6	0.00e+00	0	49	104	0	60	102479
2026-01-28 16:22:24.56	358.59	17.46	-55.4	-58.9	3.6	0.00e+00	0	49	104	0	60	103771
2026-01-28 16:22:25.57	358.38	17.34	-55.6	-59.0	3.6	0.00e+00	0	48	104	0	60	105821
2026-01-28 16:22:26.58	358.17	17.22	-55.8	-59.3	3.6	0.00e+00	0	48	104	0	60	109094
2026-01-28 16:22:27.58	357.97	17.09	-55.9	-59.5	3.6	0.00e+00	0	49	104	0	60	111697
2026-01-28 16:22:28.59	357.76	16.97	-55.7	-59.3	3.6	0.00e+00	0	49	104	0	60	109756
2026-01-28 16:22:29.60	357.56	16.85	-55.8	-59.4	3.6	0.00e+00	0	48	104	0	60	110901
2026-01-28 16:22:30.61	357.36	16.73	-55.9	-59.5	3.6	0.00e+00	0	49	104	0	60	111358
2026-01-28 16:22:31.62	357.17	16.60	-56.0	-59.7	3.6	0.00e+00	0	48	104	0	60	114187
2026-01-28 16:22:32.62	356.97	16.49	-55.6	-59.0	3.6	0.00e+00	0	49	104	0	60	105790
2026-01-28 16:22:33.63	356.78	16.36	-55.6	-59.1	3.6	0.00e+00	0	48	104	0	60	106944
2026-01-28 16:22:34.64	356.59	16.24	-55.7	-59.5	3.6	0.00e+00	0	48	104	0	60	111701
2026-01-28 16:22:35.65	356.40	16.12	-55.6	-59.5	3.6	0.00e+00	0	48	104	0	60	111996
2026-01-28 16:22:36.65	356.21	16.01	-55.7	-59.5	3.6	0.00e+00	0	48	104	0	60	111823
2026-01-28 16:22:37.65	356.03	15.89	-56.0	-59.7	3.6	0.00e+00	0	48	104	0	60	114502
2026-01-28 16:22:38.66	355.84	15.77	-55.9	-59.6	3.6	0.00e+00	0	48	104	0	60	113044
2026-01-28 16:22:39.66	355.66	15.65	-55.7	-59.5	3.6	0.00e+00	0	48	104	0	60	111506
2026-01-28 16:22:40.67	355.48	15.54	-55.7	-59.6	3.6	0.00e+00	0	48	104	0	60	113240
2026-01-28 16:22:41.68	355.30	15.42	-55.5	-59.5	3.6	0.00e+00	0	49	104	0	60	111770
2026-01-28 16:22:42.68	355.12	15.30	-55.9	-59.7	3.6	0.00e+00	0	48	104	0	60	114940
2026-01-28 16:22:43.69	354.95	15.19	-56.0	-59.8	3.6	0.00e+00	0	48	104	0	60	115586
2026-01-28 16:22:44.69	354.78	15.07	-55.5	-59.5	3.6	0.00e+00	0	48	104	0	60	111800
2026-01-28 16:22:45.69	354.60	14.96	-55.4	-59.3	3.6	0.00e+00	0	48	104	0	60	109606
2026-01-28 16:22:46.70	354.43	14.85	-55.6	-59.6	3.6	0.00e+00	0	48	104	0	60	113147
2026-01-28 16:22:47.71	354.26	14.73	-55.4	-59.5	3.6	0.00e+00	0	48	104	0	60	111929
2026-01-28 16:22:48.72	354.09	14.62	-55.0	-59.1	3.6	0.00e+00	0	49	104	0	60	106455
2026-01-28 16:22:49.72	353.93	14.51	-55.2	-59.1	3.5	0.00e+00	0	48	104	0	60	106595
2026-01-28 16:22:50.73	353.76	14.39	-55.0	-58.8	3.6	0.00e+00	0	48	104	0	60	103484
2026-01-28 16:22:51.73	353.60	14.28	-55.2	-59.0	3.6	0.00e+00	0	48	104	0	60	105126
2026-01-28 16:22:52.74	353.44	14.17	-55.1	-58.9	3.6	0.00e+00	0	48	104	0	60	104674
2026-01-28 16:22:53.74	353.28	14.06	-55.3	-59.0	3.6	0.00e+00	0	48	104	0	60	105499
2026-01-28 16:22:54.75	353.12	13.95	-54.5	-58.5	3.6	0.00e+00	0	48	104	0	60	99014
2026-01-28 16:22:55.75	352.97	13.84	-54.5	-58.5	3.6	0.00e+00	0	48	104	0	60	99393
2026-01-28 16:22:56.76	352.81	13.73	-54.5	-58.5	3.6	0.00e+00	0	48	104	0	60	100067
2026-01-28 16:22:57.76	352.66	13.62	-54.4	-58.4	3.6	0.00e+00	0	48	104	0	60	98514
2026-01-28 16:22:58.77	352.50	13.51	-54.8	-58.6	3.6	0.00e+00	0	48	104	0	60	101125
2026-01-28 16:22:59.78	352.35	13.40	-54.6	-58.6	3.6	0.00e+00	0	48	104	0	60	100144
2026-01-28 16:23:00.78	352.20	13.30	-54.7	-58.5	3.6	0.00e+00	0	49	104	0	60	99927
2026-01-28 16:23:01.79	352.05	13.19	-54.9	-58.7	3.6	0.00e+00	0	48	104	0	60	102091
2026-01-28 16:23:02.80	351.90	13.08	-54.6	-58.6	3.6	0.00e+00	0	48	104	0	60	100194
2026-01-28 16:23:03.81	351.76	12.98	-54.4	-58.4	3.6	0.00e+00	0	49	104	0	60	98627
2026-01-28 16:23:04.82	351.61	12.87	-54.8	-58.6	3.6	0.00e+00	0	48	104	0	60	100332
2026-01-28 16:23:05.82	351.47	12.76	-54.8	-58.6	3.6	0.00e+00	0	48	104	0	60	100577
2026-01-28 16:23:06.83	351.32	12.66	-54.4	-58.4	3.6	0.00e+00	0	48	104	0	60	98485
2026-01-28 16:23:07.84	351.18	12.55	-54.3	-58.3	3.6	0.00e+00	0	48	104	0	60	97817
2026-01-28 16:23:08.84	351.04	12.45	-54.5	-58.4	3.6	0.00e+00	0	48	104	0	60	98567
2026-01-28 16:23:09.85	350.90	12.35	-54.8	-58.5	3.6	0.00e+00	0	48	104	0	60	99456
2026-01-28 16:23:10.85	350.77	12.24	-54.9	-58.7	3.6	0.00e+00	0	48	104	0	60	101596
2026-01-28 16:23:11.86	350.63	12.14	-54.7	-58.4	3.5	0.00e+00	0	48	104	0	60	98522
2026-01-28 16:23:12.86	350.49	12.04	-54.3	-58.3	3.5	0.00e+00	0	48	104	0	60	97207
2026-01-28 16:23:13.86	350.36	11.94	-54.7	-58.4	3.6	0.00e+00	0	48	104	0	60	98126
2026-01-28 16:23:14.87	350.23	11.84	-54.6	-58.5	3.6	0.00e+00	0	48	104	0	60	99027
2026-01-28 16:23:15.87	350.10	11.74	-54.7	-58.4	3.6	0.00e+00	0	48	104	0	60	98657
2026-01-28 16:23:16.87	349.97	11.63	-54.2	-58.2	3.6	0.00e+00	0	48	104	0	60	95700
2026-01-28 16:23:17.88	349.84	11.53	-54.4	-58.3	3.6	0.00e+00	0	48	104	0	60	97091
2026-01-28 16:23:18.88	349.71	11.43	-54.5	-58.3	3.6	0.00e+00	0	48	104	0	60	96956
2026-01-28 16:23:19.89	349.58	11.33	-54.1	-58.1	3.6	0.00e+00	0	48	104	0	60	95096
2026-01-28 16:23:20.90	349.45	11.24	-54.7	-58.4	3.6	0.00e+00	0	48	104	0	60	97869
2026-01-28 16:23:21.90	349.33	11.14	-54.7	-58.5	3.6	0.00e+00	0	48	104	0	60	99831
2026-01-28 16:23:22.91	349.20	11.04	-53.7	-57.9	3.6	0.00e+00	0	48	104	0	60	93303
2026-01-28 16:23:23.92	349.08	10.94	-53.1	-57.8	3.6	0.00e+00	0	48	104	0	60	91595
2026-01-28 16:23:24.92	348.96	10.84	-53.0	-57.8	3.6	0.00e+00	0	48	104	0	60	91390
2026-01-28 16:23:25.92	348.84	10.75	-53.2	-57.7	3.6	0.00e+00	0	48	104	0	60	91256
2026-01-28 16:23:26.93	348.72	10.65	-54.0	-58.1	3.6	0.00e+00	0	48	104	0	60	95409
2026-01-28 16:23:27.93	348.60	10.55	-54.5	-58.3	3.6	0.00e+00	0	48	104	0	60	96899
2026-01-28 16:23:28.94	348.48	10.46	-54.4	-58.2	3.6	0.00e+00	0	48	104	0	60	96400
2026-01-28 16:23:29.94	348.36	10.36	-54.5	-58.2	3.6	0.00e+00	0	48	104	0	60	96145
2026-01-28 16:23:30.95	348.25	10.27	-54.1	-58.2	3.6	0.00e+00	0	48	104	0	60	95858
2026-01-28 16:23:31.96	348.13	10.17	-54.4	-58.4	3.5	0.00e+00	0	48	104	0	60	97983
2026-01-28 16:23:32.96	348.02	10.08	-54.3	-58.1	3.6	0.00e+00	0	48	104	0	60	95609
2026-01-28 16:23:33.96	347.90	9.98	-54.5	-58.1	3.6	0.00e+00	0	48	104	0	60	95457
2026-01-28 16:23:34.97	347.79	9.89	-54.1	-58.1	3.6	0.00e+00	0	49	104	0	60	94634
2026-01-28 16:23:35.98	347.68	9.80	-54.2	-58.1	3.6	0.00e+00	0	48	104	0	60	95108
2026-01-28 16:23:36.99	347.57	9.70	-54.4	-58.2	3.6	0.00e+00	0	49	104	0	60	95797
2026-01-28 16:23:38.00	347.46	9.61	-54.4	-58.0	3.6	0.00e+00	0	48	104	0	60	94421
2026-01-28 16:23:39.00	347.35	9.52	-54.5	-58.2	3.6	0.00e+00	0	48	104	0	60	96126
2026-01-28 16:23:40.01	347.24	9.43	-54.2	-58.0	3.6	0.00e+00	0	48	104	0	60	93557
2026-01-28 16:23:41.01	347.13	9.34	-54.1	-57.9	3.6	0.00e+00	0	48	104	0	60	92974
2026-01-28 16:23:42.02	347.03	9.25	-54.1	-57.9	3.6	0.00e+00	0	48	104	0	60	93319
2026-01-28 16:23:43.01	346.92	9.16	-54.4	-58.1	3.6	0.00e+00	0	48	104	0	60	94687
2026-01-28 16:23:44.02	346.82	9.07	-54.4	-58.0	3.6	0.00e+00	0	48	104	0	60	94383
2026-01-28 16:23:45.02	346.71	8.98	-53.9	-57.8	3.6	0.00e+00	0	48	104	0	60	92351
2026-01-28 16:23:46.02	346.61	8.89	-54.1	-57.9	3.6	0.00e+00	0	48	104	0	60	92983
2026-01-28 16:23:47.03	346.51	8.80	-54.4	-58.0	3.6	0.00e+00	0	48	104	0	60	94270
2026-01-28 16:23:48.04	346.41	8.71	-54.4	-58.1	3.6	0.00e+00	0	48	104	0	60	94560
2026-01-28 16:23:49.04	346.31	8.62	-54.2	-57.9	3.6	0.00e+00	0	48	104	0	60	93200
2026-01-28 16:23:50.05	346.20	8.53	-53.7	-57.9	3.6	0.00e+00	0	48	104	0	60	93141
2026-01-28 16:23:51.05	346.11	8.44	-54.2	-57.9	3.6	0.00e+00	0	48	104	0	60	93175
2026-01-28 16:23:52.06	346.01	8.36	-54.1	-57.9	3.6	0.00e+00	0	49	104	0	60	93382
2026-01-28 16:23:53.06	345.91	8.27	-52.0	-56.9	3.6	0.00e+00	0	48	104	0	60	83026
2026-01-28 16:23:54.07	345.81	8.18	-48.5	-55.3	3.6	0.00e+00	0	49	104	0	60	68719
2026-01-28 16:23:55.08	345.72	8.09	-54.3	-58.0	3.6	0.00e+00	0	49	104	0	60	93664
2026-01-28 16:23:56.08	345.62	8.01	-48.8	-55.5	3.6	0.00e+00	0	49	104	0	60	70321
2026-01-28 16:23:57.08	345.53	7.92	-48.0	-55.0	3.6	0.00e+00	0	48	104	0	60	66391
2026-01-28 16:23:58.09	345.43	7.84	-48.0	-55.1	3.6	0.00e+00	0	49	104	0	60	67255
2026-01-28 16:23:59.09	345.34	7.75	-51.9	-57.0	3.6	0.00e+00	0	49	104	0	60	84211
2026-01-28 16:24:00.10	345.25	7.67	-54.1	-58.0	3.6	0.00e+00	0	49	104	0	60	93809
2026-01-28 16:24:01.10	345.15	7.58	-49.4	-55.7	3.6	0.00e+00	0	48	104	0	60	72526
2026-01-28 16:24:02.11	345.06	7.50	-51.4	-57.2	3.6	0.00e+00	0	48	104	0	60	85365
2026-01-28 16:24:03.12	344.97	7.41	-50.6	-56.4	3.5	0.00e+00	0	48	104	0	60	77900
2026-01-28 16:24:04.13	344.88	7.33	-49.3	-55.7	3.5	0.00e+00	0	48	104	0	60	72107
2026-01-28 16:24:05.13	344.79	7.25	-50.1	-56.2	3.6	0.00e+00	0	48	104	0	60	76545
2026-01-28 16:24:06.13	344.70	7.16	-50.5	-56.5	3.6	0.00e+00	0	48	104	0	60	78862
2026-01-28 16:24:07.14	344.62	7.08	-53.9	-57.8	3.6	0.00e+00	0	48	104	0	60	92374
2026-01-28 16:24:08.14	344.53	7.00	-50.9	-56.6	3.6	0.00e+00	0	48	104	0	60	80169
2026-01-28 16:24:09.15	344.44	6.92	-51.4	-57.1	3.6	0.00e+00	0	49	104	0	60	84401
2026-01-28 16:24:10.15	344.36	6.83	-51.1	-57.0	3.6	0.00e+00	0	49	104	0	60	83465
2026-01-28 16:24:11.16	344.27	6.75	-51.3	-56.7	3.6	0.00e+00	0	49	104	0	60	80991
2026-01-28 16:24:12.17	344.19	6.67	-49.8	-56.0	3.6	0.00e+00	0	49	104	0	60	74355
2026-01-28 16:24:13.17	344.10	6.59	-50.5	-56.4	3.5	0.00e+00	0	49	104	0	60	78507
2026-01-28 16:24:14.18	344.02	6.51	-50.9	-56.6	3.6	0.00e+00	0	49	104	0	60	80326
2026-01-28 16:24:15.19	343.94	6.43	-53.5	-57.6	3.6	0.00e+00	0	49	104	0	60	89531
2026-01-28 16:24:16.19	343.85	6.35	-49.6	-56.0	3.6	0.00e+00	0	49	104	0	60	74683
2026-01-28 16:24:17.19	343.77	6.27	-53.7	-57.7	3.6	0.00e+00	0	49	104	0	60	90889
2026-01-28 16:24:18.19	343.69	6.19	-52.4	-57.4	3.5	0.00e+00	0	48	104	0	60	87866
2026-01-28 16:24:19.20	343.61	6.11	-50.1	-56.4	3.6	0.00e+00	0	49	104	0	60	78017
2026-01-28 16:24:20.21	343.53	6.03	-49.7	-56.1	3.6	0.00e+00	0	48	104	0	60	75329
2026-01-28 16:24:21.21	343.45	5.95	-53.6	-58.1	3.6	0.00e+00	0	48	104	0	60	95323
2026-01-28 16:24:22.22	343.37	5.87	-54.7	-58.7	3.6	0.00e+00	0	48	104	0	60	102084
2026-01-28 16:24:23.23	343.29	5.79	-55.7	-59.7	3.6	0.00e+00	0	49	104	0	60	114696
2026-01-28 16:24:24.23	343.22	5.72	-55.8	-59.6	3.5	0.00e+00	0	48	104	0	60	112995
2026-01-28 16:24:25.24	343.14	5.64	-56.0	-59.6	3.5	0.00e+00	0	49	104	0	60	113003
2026-01-28 16:24:26.25	343.06	5.56	-56.3	-59.9	3.6	0.00e+00	0	48	104	0	60	116789
2026-01-28 16:24:27.26	342.98	5.48	-56.4	-60.2	3.6	0.00e+00	0	48	104	0	60	120777
2026-01-28 16:24:28.26	342.91	5.41	-56.5	-60.2	3.6	0.00e+00	0	48	104	0	60	121731
2026-01-28 16:24:29.27	342.83	5.33	-56.4	-60.4	3.6	0.00e+00	0	48	104	0	60	123264
2026-01-28 16:24:30.27	342.76	5.25	-57.1	-60.7	3.6	0.00e+00	0	48	104	0	60	127550
2026-01-28 16:24:31.28	342.69	5.18	-45.4	-46.1	4.6	0.00e+00	0	48	104	0	60	23853
2026-01-28 16:24:32.28	342.61	5.10	-56.7	-60.5	3.6	0.00e+00	0	48	104	0	60	125623
2026-01-28 16:24:33.28	342.54	5.03	-56.6	-60.2	3.6	0.00e+00	0	48	104	0	60	121635
2026-01-28 16:24:34.29	342.47	4.95	-56.9	-60.5	3.6	0.00e+00	0	48	104	0	60	124759
2026-01-28 16:24:35.29	342.40	4.87	-57.1	-60.9	3.6	0.00e+00	0	49	104	0	60	131631
2026-01-28 16:24:36.30	342.32	4.80	-57.9	-61.6	3.6	0.00e+00	0	49	104	0	60	142955
2026-01-28 16:24:37.31	342.25	4.72	-56.4	-61.0	3.6	0.00e+00	0	49	104	0	60	133213
2026-01-28 16:24:38.32	342.18	4.65	-55.7	-60.2	3.6	0.00e+00	0	48	104	0	60	121483
2026-01-28 16:24:39.32	342.11	4.58	-56.3	-60.5	3.6	0.00e+00	0	48	104	0	60	125433
2026-01-28 16:24:40.32	342.04	4.50	-56.3	-60.4	3.6	0.00e+00	0	48	104	0	60	123568
2026-01-28 16:24:41.33	341.97	4.43	-56.3	-60.4	3.6	0.00e+00	0	48	104	0	60	124480
2026-01-28 16:24:42.33	341.90	4.35	-56.2	-60.4	3.6	0.00e+00	0	48	104	0	60	123314
2026-01-28 16:24:43.34	341.84	4.28	-56.1	-60.3	3.6	0.00e+00	0	48	104	0	60	122094
2026-01-28 16:24:44.35	341.77	4.21	-56.1	-60.3	3.6	0.00e+00	0	48	104	0	60	122358
2026-01-28 16:24:45.36	341.70	4.13	-56.1	-60.2	3.6	0.00e+00	0	49	104	0	60	121333
2026-01-28 16:24:46.36	341.63	4.06	-56.0	-60.1	3.6	0.00e+00	0	48	104	0	60	120373
2026-01-28 16:24:47.37	341.57	3.99	-56.1	-60.2	3.6	0.00e+00	0	48	104	0	60	121411
2026-01-28 16:24:48.37	341.50	3.92	-56.1	-60.2	3.6	0.00e+00	0	48	104	0	60	120959
2026-01-28 16:24:49.38	341.43	3.84	-56.0	-60.2	3.6	0.00e+00	0	48	104	0	60	120680
2026-01-28 16:24:50.38	341.37	3.77	-56.1	-60.2	3.6	0.00e+00	0	48	104	0	60	120389
2026-01-28 16:24:51.39	341.31	3.70	-56.0	-60.2	3.6	0.00e+00	0	48	104	0	60	121133
2026-01-28 16:24:52.40	341.24	3.63	-56.0	-60.1	3.6	0.00e+00	0	48	104	0	60	120007
2026-01-28 16:24:53.40	341.18	3.56	-56.0	-60.2	3.6	0.00e+00	0	48	104	0	60	120659
2026-01-28 16:24:54.41	341.11	3.49	-56.0	-60.1	3.6	0.00e+00	0	48	104	0	60	120160
2026-01-28 16:24:55.41	341.05	3.42	-56.0	-60.2	3.6	0.00e+00	0	48	104	0	60	120640
2026-01-28 16:24:56.42	340.99	3.35	-56.0	-60.1	3.6	0.00e+00	0	48	104	0	60	119997
2026-01-28 16:24:57.42	340.93	3.28	-56.0	-60.1	3.6	0.00e+00	0	48	104	0	60	120066
2026-01-28 16:24:58.43	340.86	3.21	-56.0	-60.1	3.6	0.00e+00	0	48	104	0	60	120214
2026-01-28 16:24:59.44	340.80	3.14	-56.0	-60.1	3.6	0.00e+00	0	48	104	0	60	120341
2026-01-28 16:25:00.45	340.74	3.07	-55.9	-60.1	3.6	0.00e+00	0	48	104	0	60	119796
2026-01-28 16:25:01.46	340.68	3.00	-56.0	-60.1	3.6	0.00e+00	0	49	104	0	60	120227
2026-01-28 16:25:02.46	340.62	2.93	-56.0	-60.1	3.6	0.00e+00	0	49	104	0	60	119907
2026-01-28 16:25:03.47	340.56	2.86	-55.9	-60.1	3.6	0.00e+00	0	49	104	0	60	119368
2026-01-28 16:25:04.48	340.50	2.79	-55.9	-60.1	3.6	0.00e+00	0	48	104	0	60	119861
2026-01-28 16:25:05.48	340.44	2.72	-55.9	-60.1	3.6	0.00e+00	0	49	104	0	60	119553
2026-01-28 16:25:06.49	340.38	2.65	-55.9	-60.1	3.6	0.00e+00	0	49	104	0	60	119513
2026-01-28 16:25:07.49	340.32	2.58	-55.9	-60.1	3.6	0.00e+00	0	49	104	0	60	119575
2026-01-28 16:25:08.50	340.27	2.52	-55.9	-60.1	3.6	0.00e+00	0	48	104	0	60	119596
2026-01-28 16:25:09.51	340.21	2.45	-55.9	-60.1	3.6	0.00e+00	0	48	104	0	60	119581
2026-01-28 16:25:10.51	340.15	2.38	-55.9	-60.1	3.5	0.00e+00	0	49	104	0	60	119544
2026-01-28 16:25:11.51	340.09	2.31	-56.0	-60.1	3.6	0.00e+00	0	48	104	0	60	119103
2026-01-28 16:25:12.52	340.04	2.24	-55.9	-60.1	3.6	0.00e+00	0	48	104	0	60	119066
2026-01-28 16:25:13.53	339.98	2.18	-55.9	-60.0	3.6	0.00e+00	0	48	104	0	60	118788
2026-01-28 16:25:14.54	339.92	2.11	-55.9	-60.1	3.6	0.00e+00	0	48	104	0	60	119131
2026-01-28 16:25:15.54	339.87	2.04	-55.9	-60.0	3.6	0.00e+00	0	48	104	0	60	118650
2026-01-28 16:25:16.55	339.81	1.98	-55.9	-60.0	3.6	0.00e+00	0	49	104	0	60	118145
2026-01-28 16:25:17.55	339.76	1.91	-55.9	-60.0	3.6	0.00e+00	0	48	104	0	60	118731
2026-01-28 16:25:18.56	339.70	1.84	-55.9	-60.0	3.6	0.00e+00	0	48	104	0	60	118761
2026-01-28 16:25:19.57	339.65	1.78	-55.9	-60.0	3.6	0.00e+00	0	48	104	0	60	118670
2026-01-28 16:25:20.58	339.60	1.71	-56.0	-60.1	3.6	0.00e+00	0	49	104	0	60	119100
2026-01-28 16:25:21.58	339.54	1.65	-55.9	-60.0	3.6	0.00e+00	0	49	104	0	60	118406
2026-01-28 16:25:22.59	339.49	1.58	-55.9	-60.0	3.6	0.00e+00	0	49	104	0	60	118553
2026-01-28 16:25:23.60	339.44	1.51	-55.9	-60.0	3.6	0.00e+00	0	49	104	0	60	118309
2026-01-28 16:25:24.60	339.38	1.45	-55.9	-60.0	3.6	0.00e+00	0	49	104	0	60	118249
2026-01-28 16:25:25.61	339.33	1.38	-55.9	-60.0	3.6	0.00e+00	0	49	104	0	60	118005
2026-01-28 16:25:26.62	339.28	1.32	-55.9	-60.0	3.6	0.00e+00	0	49	104	0	60	118484
2026-01-28 16:25:27.62	339.23	1.25	-55.9	-60.0	3.6	0.00e+00	0	49	104	0	60	118512
2026-01-28 16:25:28.63	339.18	1.19	-55.9	-60.0	3.6	0.00e+00	0	48	104	0	60	117729
2026-01-28 16:25:29.63	339.13	1.13	-55.9	-60.0	3.6	0.00e+00	0	48	104	0	60	118131
2026-01-28 16:25:30.64	339.07	1.06	-55.9	-60.0	3.6	0.00e+00	0	48	104	0	60	118299
2026-01-28 16:25:31.64	339.02	1.00	-55.9	-60.0	3.6	0.00e+00	0	48	104	0	60	118253
2026-01-28 16:25:32.65	338.97	0.93	-55.9	-60.0	3.6	0.00e+00	0	49	104	0	60	117710
2026-01-28 16:25:33.66	338.92	0.87	-55.9	-60.0	3.6	0.00e+00	0	48	104	0	60	118450
2026-01-28 16:25:34.67	338.87	0.81	-55.9	-59.9	3.6	0.00e+00	0	48	104	0	60	116954
2026-01-28 16:25:35.68	338.82	0.74	-55.9	-59.9	3.6	0.00e+00	0	48	104	0	60	117586
2026-01-28 16:25:36.69	338.78	0.68	-55.9	-59.9	3.6	0.00e+00	0	48	104	0	60	117525
2026-01-28 16:25:37.69	338.73	0.62	-55.9	-59.9	3.6	0.00e+00	0	48	104	0	60	117457
2026-01-28 16:25:38.70	338.68	0.55	-55.8	-59.9	3.6	0.00e+00	0	48	104	0	60	117575
2026-01-28 16:25:39.71	338.63	0.49	-55.9	-60.0	3.6	0.00e+00	0	49	104	0	60	117656
2026-01-28 16:25:40.71	338.58	0.43	-55.8	-59.9	3.6	0.00e+00	0	49	104	0	60	117326
2026-01-28 16:25:41.71	338.54	0.36	-55.8	-59.9	3.6	0.00e+00	0	48	104	0	60	117577
2026-01-28 16:25:42.72	338.49	0.30	-55.8	-59.9	3.6	0.00e+00	0	48	104	0	60	117281
2026-01-28 16:25:43.73	338.44	0.24	-55.8	-59.9	3.6	0.00e+00	0	48	104	0	60	116870
2026-01-28 16:25:44.73	338.39	0.18	-55.8	-59.9	3.6	0.00e+00	0	48	104	0	60	116534
2026-01-28 16:25:45.74	338.35	0.12	-55.8	-59.9	3.6	0.00e+00	0	48	104	0	60	116412
2026-01-28 16:25:46.74	338.30	0.05	-55.7	-59.8	3.6	0.00e+00	0	48	104	0	60	115659

#Closed at: 2026-01-28 16:25:47
#Recorded file [0 MB]: D:/Data/35015_260128_191439.dat