passes_logs/2026/01/28/R3.2S-Naryan-Mar/R3.2S-Naryan-Mar__20260128_142052_TY-40_rec.log

#Pass ID: 20260128_142052_TY-40
#Satellite: TY-40
#Configuration: TY-39
#almurnet v.1.7.20240730
#Start time: 2026-01-28 14:20:55

#Version: 2.2.20231116
#Station: R3.2S-Naryan-Mar
#Location: 53.008057 lon 67.646978 lat
#TLE: 1 56846U 23081A   26027.86322491  .00005171  00000-0  23026-3 0  9995
#TLE: 2 56846  97.3872 100.5479 0001461  75.1546 284.9852 15.21887283146669

#Time	Az	El	Level	Level2	SNR	BER	BlckErr	Temp	State	Recorded	gain1	gain2
2026-01-28 14:20:55.48	80.65	0.13	-55.9	-59.3	3.3	0.00e+00	0	45	0	0	60	108636
2026-01-28 14:20:56.48	80.55	0.19	-56.1	-60.4	3.6	0.00e+00	0	45	104	0	60	123964
2026-01-28 14:20:57.49	80.45	0.24	-56.7	-60.6	3.6	0.00e+00	0	45	104	0	60	127317
2026-01-28 14:20:58.49	80.35	0.29	-55.9	-60.0	3.6	0.00e+00	0	45	104	0	60	118562
2026-01-28 14:20:59.49	80.25	0.35	-56.8	-60.6	3.6	0.00e+00	0	45	104	0	60	126222
2026-01-28 14:21:00.50	80.15	0.40	-55.5	-59.2	3.6	0.00e+00	0	45	104	0	60	107771
2026-01-28 14:21:01.51	80.05	0.45	-55.5	-59.6	3.6	0.00e+00	0	45	104	0	60	112505
2026-01-28 14:21:02.51	79.95	0.51	-55.9	-59.7	3.6	0.00e+00	0	45	104	0	60	114544
2026-01-28 14:21:03.52	79.85	0.56	-55.6	-59.5	3.6	0.00e+00	0	45	104	0	60	112166
2026-01-28 14:21:04.52	79.75	0.61	-54.9	-58.8	3.6	0.00e+00	0	46	104	0	60	103327
2026-01-28 14:21:05.53	79.64	0.67	-56.5	-60.2	3.5	0.00e+00	0	45	104	0	60	120975
2026-01-28 14:21:06.54	79.54	0.72	-55.9	-59.6	3.6	0.00e+00	0	46	104	0	60	112405
2026-01-28 14:21:07.54	79.44	0.78	-57.0	-60.6	3.6	0.00e+00	0	45	104	0	60	127324
2026-01-28 14:21:08.55	79.33	0.83	-56.2	-59.7	3.6	0.00e+00	0	45	104	0	60	114902
2026-01-28 14:21:09.56	79.23	0.88	-55.7	-59.3	3.6	0.00e+00	0	46	104	0	60	108723
2026-01-28 14:21:10.57	79.12	0.94	-54.9	-58.7	3.6	0.00e+00	0	46	104	0	60	102268
2026-01-28 14:21:11.57	79.02	0.99	-56.4	-60.1	3.6	0.00e+00	0	46	104	0	60	119265
2026-01-28 14:21:12.58	78.91	1.05	-55.5	-58.4	3.6	0.00e+00	0	46	104	0	60	98835
2026-01-28 14:21:13.59	78.80	1.10	-56.0	-59.9	3.6	0.00e+00	0	46	104	0	60	116803
2026-01-28 14:21:14.59	78.70	1.15	-55.3	-58.9	3.6	0.00e+00	0	46	104	0	60	103920
2026-01-28 14:21:15.60	78.59	1.21	-55.3	-58.8	3.6	0.00e+00	0	46	104	0	60	102520
2026-01-28 14:21:16.60	78.48	1.26	-55.5	-58.7	3.6	0.00e+00	0	46	104	0	60	102183
2026-01-28 14:21:17.61	78.37	1.32	-54.4	-57.7	3.6	0.00e+00	0	46	104	0	60	90434
2026-01-28 14:21:18.62	78.26	1.37	-51.1	-54.7	3.6	0.00e+00	0	46	104	0	60	63954
2026-01-28 14:21:19.62	78.15	1.43	-51.1	-54.6	3.6	0.00e+00	0	46	104	0	60	63869
2026-01-28 14:21:20.63	78.04	1.48	-51.1	-54.7	3.6	0.00e+00	0	46	104	0	60	64059
2026-01-28 14:21:21.64	77.93	1.54	-51.1	-54.7	3.6	0.00e+00	0	46	104	0	60	64043
2026-01-28 14:21:22.65	77.82	1.59	-51.1	-54.7	3.6	0.00e+00	0	46	104	0	60	64419
2026-01-28 14:21:23.66	77.71	1.64	-51.0	-54.6	3.6	0.00e+00	0	46	104	0	60	63372
2026-01-28 14:21:24.67	77.59	1.70	-51.0	-54.6	3.5	0.00e+00	0	46	104	0	60	63442
2026-01-28 14:21:25.67	77.48	1.75	-51.0	-54.7	3.6	0.00e+00	0	46	104	0	60	63966
2026-01-28 14:21:26.68	77.37	1.81	-51.0	-54.7	3.6	0.00e+00	0	46	104	0	60	64151
2026-01-28 14:21:27.68	77.25	1.86	-51.0	-54.6	3.5	0.00e+00	0	46	104	0	60	63687
2026-01-28 14:21:28.68	77.14	1.92	-51.0	-54.6	3.5	0.00e+00	0	46	104	0	60	63503
2026-01-28 14:21:29.69	77.02	1.97	-51.0	-54.7	3.6	0.00e+00	0	46	104	0	60	63955
2026-01-28 14:21:30.70	76.91	2.03	-51.0	-54.6	3.6	0.00e+00	0	46	104	0	60	63846
2026-01-28 14:21:31.70	76.79	2.08	-51.0	-54.6	3.5	0.00e+00	0	46	104	0	60	63665
2026-01-28 14:21:32.71	76.68	2.14	-51.0	-54.7	3.6	0.00e+00	0	46	104	0	60	64075
2026-01-28 14:21:33.72	76.56	2.19	-51.1	-54.7	3.6	0.00e+00	0	46	104	0	60	63944
2026-01-28 14:21:34.72	76.44	2.25	-51.0	-54.6	3.6	0.00e+00	0	46	104	0	60	63236
2026-01-28 14:21:35.73	76.32	2.30	-50.9	-54.5	3.6	0.00e+00	0	46	104	0	60	62705
2026-01-28 14:21:36.74	76.20	2.36	-51.0	-54.5	3.5	0.00e+00	0	46	104	0	60	63070
2026-01-28 14:21:37.74	76.08	2.42	-51.0	-54.6	3.6	0.00e+00	0	46	104	0	60	63677
2026-01-28 14:21:38.75	75.96	2.47	-51.0	-54.5	3.6	0.00e+00	0	46	104	0	60	62940
2026-01-28 14:21:39.76	75.84	2.53	-51.0	-54.5	3.6	0.00e+00	0	46	104	0	60	62820
2026-01-28 14:21:40.76	75.72	2.58	-50.9	-54.5	3.6	0.00e+00	0	46	104	0	60	62617
2026-01-28 14:21:41.77	75.60	2.64	-50.9	-54.5	3.6	0.00e+00	0	46	104	0	60	62831
2026-01-28 14:21:42.78	75.47	2.69	-50.9	-54.5	3.6	0.00e+00	0	46	104	0	60	62663
2026-01-28 14:21:43.78	75.35	2.75	-50.9	-54.5	3.6	0.00e+00	0	46	104	0	60	62808
2026-01-28 14:21:44.78	75.23	2.80	-51.0	-54.5	3.5	0.00e+00	0	46	104	0	60	62831
2026-01-28 14:21:45.79	75.10	2.86	-51.0	-54.6	3.6	0.00e+00	0	46	104	0	60	63712
2026-01-28 14:21:46.79	74.98	2.92	-50.9	-54.5	3.6	0.00e+00	0	46	104	0	60	62735
2026-01-28 14:21:47.80	74.85	2.97	-50.9	-54.5	3.6	0.00e+00	0	46	104	0	60	62797
2026-01-28 14:21:48.81	74.72	3.03	-51.0	-54.6	3.6	0.00e+00	0	46	104	0	60	63807
2026-01-28 14:21:49.81	74.60	3.08	-51.0	-54.6	3.6	0.00e+00	0	46	104	0	60	63572
2026-01-28 14:21:50.82	74.47	3.14	-51.0	-54.6	3.6	0.00e+00	0	46	104	0	60	63397
2026-01-28 14:21:51.83	74.34	3.20	-51.0	-54.5	3.6	0.00e+00	0	46	104	0	60	62988
2026-01-28 14:21:52.84	74.21	3.25	-51.0	-54.5	3.6	0.00e+00	0	46	104	0	60	62684
2026-01-28 14:21:53.85	74.08	3.31	-51.0	-54.6	3.6	0.00e+00	0	47	104	0	60	63633
2026-01-28 14:21:54.85	73.95	3.36	-51.1	-54.6	3.6	0.00e+00	0	47	104	0	60	63588
2026-01-28 14:21:55.85	73.82	3.42	-51.1	-54.7	3.6	0.00e+00	0	47	104	0	60	64057
2026-01-28 14:21:56.86	73.69	3.48	-51.1	-54.6	3.6	0.00e+00	0	47	104	0	60	63603
2026-01-28 14:21:57.87	73.56	3.53	-51.1	-54.6	3.6	0.00e+00	0	47	104	0	60	63610
2026-01-28 14:21:58.88	73.42	3.59	-51.1	-54.6	3.6	0.00e+00	0	47	104	0	60	63826
2026-01-28 14:21:59.89	73.29	3.64	-51.1	-54.7	3.5	0.00e+00	0	47	104	0	60	64195
2026-01-28 14:22:00.90	73.15	3.70	-51.1	-54.6	3.5	0.00e+00	0	46	104	0	60	63577
2026-01-28 14:22:01.90	73.02	3.76	-51.1	-54.7	3.6	0.00e+00	0	47	104	0	60	64425
2026-01-28 14:22:02.91	72.88	3.81	-51.1	-54.7	3.5	0.00e+00	0	47	104	0	60	63995
2026-01-28 14:22:03.92	72.75	3.87	-51.1	-54.7	3.6	0.00e+00	0	47	104	0	60	63986
2026-01-28 14:22:04.92	72.61	3.93	-51.1	-54.6	3.6	0.00e+00	0	47	104	0	60	63814
2026-01-28 14:22:05.92	72.47	3.98	-51.0	-54.7	3.5	0.00e+00	0	47	104	0	60	64061
2026-01-28 14:22:06.93	72.33	4.04	-51.0	-54.7	3.6	0.00e+00	0	47	104	0	60	64210
2026-01-28 14:22:07.93	72.19	4.10	-51.0	-54.6	3.6	0.00e+00	0	47	104	0	60	63808
2026-01-28 14:22:08.94	72.05	4.15	-51.1	-54.7	3.6	0.00e+00	0	47	104	0	60	64173
2026-01-28 14:22:09.94	71.91	4.21	-51.1	-54.7	3.6	0.00e+00	0	47	104	0	60	64074
2026-01-28 14:22:10.95	71.77	4.27	-51.1	-54.7	3.6	0.00e+00	0	47	104	0	60	64602
2026-01-28 14:22:11.96	71.63	4.32	-51.1	-54.8	3.6	0.00e+00	0	47	104	0	60	64762
2026-01-28 14:22:12.97	71.49	4.38	-51.2	-54.8	3.5	0.00e+00	0	47	104	0	60	65081
2026-01-28 14:22:13.97	71.34	4.44	-51.2	-54.8	3.6	0.00e+00	0	47	104	0	60	64799
2026-01-28 14:22:14.98	71.20	4.49	-51.1	-54.8	3.6	0.00e+00	0	47	104	0	60	64743
2026-01-28 14:22:15.99	71.05	4.55	-51.2	-54.8	3.6	0.00e+00	0	47	104	0	60	65023
2026-01-28 14:22:17.00	70.91	4.61	-51.2	-54.9	3.6	0.00e+00	0	47	104	0	60	65661
2026-01-28 14:22:18.01	70.76	4.66	-51.2	-54.8	3.6	0.00e+00	0	47	104	0	60	65274
2026-01-28 14:22:19.02	70.61	4.72	-51.3	-54.9	3.6	0.00e+00	0	47	104	0	60	65872
2026-01-28 14:22:20.02	70.47	4.78	-51.3	-54.9	3.6	0.00e+00	0	47	104	0	60	65730
2026-01-28 14:22:21.03	70.32	4.83	-51.3	-54.9	3.5	0.00e+00	0	47	104	0	60	65767
2026-01-28 14:22:22.04	70.17	4.89	-51.2	-54.9	3.6	0.00e+00	0	47	104	0	60	65514
2026-01-28 14:22:23.04	70.02	4.95	-51.2	-54.9	3.5	0.00e+00	0	47	104	0	60	65671
2026-01-28 14:22:24.05	69.87	5.00	-51.3	-54.9	3.6	0.00e+00	0	47	104	0	60	66062
2026-01-28 14:22:25.05	69.72	5.06	-51.3	-55.0	3.6	0.00e+00	0	47	104	0	60	66481
2026-01-28 14:22:26.05	69.57	5.12	-51.3	-55.0	3.6	0.00e+00	0	47	104	0	60	66177
2026-01-28 14:22:27.06	69.41	5.17	-51.4	-54.9	3.6	0.00e+00	0	47	104	0	60	65937
2026-01-28 14:22:28.07	69.26	5.23	-51.4	-55.0	3.5	0.00e+00	0	47	104	0	60	66245
2026-01-28 14:22:29.08	69.10	5.29	-51.4	-54.9	3.6	0.00e+00	0	47	104	0	60	66132
2026-01-28 14:22:30.08	68.95	5.34	-51.4	-55.0	3.6	0.00e+00	0	47	104	0	60	66467
2026-01-28 14:22:31.09	68.79	5.40	-51.3	-55.0	3.6	0.00e+00	0	47	104	0	60	66320
2026-01-28 14:22:32.10	68.63	5.46	-51.3	-54.9	3.6	0.00e+00	0	47	104	0	60	66115
2026-01-28 14:22:33.11	68.47	5.52	-51.3	-54.9	3.6	0.00e+00	0	47	104	0	60	65993
2026-01-28 14:22:34.12	68.32	5.57	-51.4	-55.0	3.6	0.00e+00	0	47	104	0	60	66366
2026-01-28 14:22:35.13	68.16	5.63	-51.4	-54.9	3.6	0.00e+00	0	47	104	0	60	65682
2026-01-28 14:22:36.13	68.00	5.69	-51.4	-55.0	3.6	0.00e+00	0	47	104	0	60	66266
2026-01-28 14:22:37.14	67.83	5.74	-51.4	-54.9	3.6	0.00e+00	0	47	104	0	60	66045
2026-01-28 14:22:38.15	67.67	5.80	-51.4	-55.0	3.6	0.00e+00	0	47	104	0	60	66185
2026-01-28 14:22:39.15	67.51	5.86	-51.3	-54.9	3.6	0.00e+00	0	47	104	0	60	65893
2026-01-28 14:22:40.16	67.35	5.91	-51.3	-54.9	3.6	0.00e+00	0	47	104	0	60	66052
2026-01-28 14:22:41.16	67.18	5.97	-51.3	-54.9	3.6	0.00e+00	0	47	104	0	60	65989
2026-01-28 14:22:42.17	67.02	6.03	-51.3	-54.8	3.6	0.00e+00	0	47	104	0	60	65376
2026-01-28 14:22:43.18	66.85	6.08	-53.8	-56.0	3.6	0.00e+00	0	47	104	0	60	74825
2026-01-28 14:22:44.19	66.68	6.14	-54.6	-57.7	3.5	0.00e+00	0	47	104	0	60	90778
2026-01-28 14:22:45.19	66.52	6.20	-51.9	-55.9	3.6	0.00e+00	0	47	104	0	60	74096
2026-01-28 14:22:46.20	66.35	6.25	-54.9	-58.2	3.6	0.00e+00	0	47	104	0	60	95791
2026-01-28 14:22:47.21	66.18	6.31	-53.5	-56.7	3.6	0.00e+00	0	47	104	0	60	80672
2026-01-28 14:22:48.22	66.01	6.37	-53.2	-56.2	3.6	0.00e+00	0	47	104	0	60	76641
2026-01-28 14:22:49.22	65.84	6.42	-53.9	-56.5	3.6	0.00e+00	0	47	104	0	60	78640
2026-01-28 14:22:50.23	65.67	6.48	-53.0	-56.4	3.6	0.00e+00	0	47	104	0	60	78298
2026-01-28 14:22:51.24	65.49	6.54	-52.9	-56.5	3.6	0.00e+00	0	47	104	0	60	78955
2026-01-28 14:22:52.25	65.32	6.59	-51.8	-55.3	3.6	0.00e+00	0	47	104	0	60	69043
2026-01-28 14:22:53.26	65.14	6.65	-53.2	-56.9	3.6	0.00e+00	0	47	104	0	60	82969
2026-01-28 14:22:54.26	64.97	6.71	-53.2	-56.7	3.6	0.00e+00	0	47	104	0	60	80532
2026-01-28 14:22:55.26	64.79	6.76	-52.7	-56.2	3.6	0.00e+00	0	47	104	0	60	76686
2026-01-28 14:22:56.26	64.62	6.82	-52.3	-56.9	3.6	0.00e+00	0	47	104	0	60	82997
2026-01-28 14:22:57.26	64.44	6.87	-53.8	-57.6	3.5	0.00e+00	0	47	104	0	60	89924
2026-01-28 14:22:58.27	64.26	6.93	-55.4	-58.6	3.6	0.00e+00	0	47	104	0	60	101010
2026-01-28 14:22:59.28	64.08	6.99	-53.5	-57.4	3.5	0.00e+00	0	47	104	0	60	87933
2026-01-28 14:23:00.29	63.90	7.04	-50.1	-54.9	3.6	0.00e+00	0	47	104	0	60	65601
2026-01-28 14:23:01.29	63.72	7.10	-49.9	-55.5	3.6	0.00e+00	0	47	104	0	60	70342
2026-01-28 14:23:02.30	63.54	7.15	-50.1	-55.0	3.6	0.00e+00	0	47	104	0	60	66523
2026-01-28 14:23:03.31	63.35	7.21	-49.2	-54.7	3.6	0.00e+00	0	47	104	0	60	63976
2026-01-28 14:23:04.32	63.17	7.27	-50.3	-55.0	3.6	0.00e+00	0	47	104	0	60	66524
2026-01-28 14:23:05.33	62.98	7.32	-51.5	-55.6	3.6	0.00e+00	0	47	104	0	60	71279
2026-01-28 14:23:06.34	62.80	7.38	-51.9	-55.8	3.5	0.00e+00	0	47	104	0	60	72709
2026-01-28 14:23:07.34	62.61	7.43	-52.3	-56.3	3.6	0.00e+00	0	47	104	0	60	76960
2026-01-28 14:23:08.35	62.42	7.49	-49.1	-53.9	3.6	0.00e+00	0	47	104	0	60	58767
2026-01-28 14:23:09.36	62.24	7.54	-50.2	-54.2	3.6	0.00e+00	0	47	104	0	60	60614
2026-01-28 14:23:10.36	62.05	7.60	-50.2	-55.5	3.6	0.00e+00	0	47	104	0	60	70861
2026-01-28 14:23:11.37	61.86	7.65	-51.3	-55.1	3.6	0.00e+00	0	47	104	0	60	67568
2026-01-28 14:23:12.38	61.66	7.71	-46.3	-50.5	3.6	0.00e+00	0	47	104	0	60	39822
2026-01-28 14:23:13.38	61.47	7.76	-47.7	-51.7	3.6	0.00e+00	0	47	104	0	60	45318
2026-01-28 14:23:14.38	61.28	7.82	-49.0	-52.4	3.6	0.00e+00	0	47	104	0	60	49434
2026-01-28 14:23:15.39	61.09	7.87	-50.6	-55.3	3.6	0.00e+00	0	47	104	0	60	68538
2026-01-28 14:23:16.40	60.89	7.93	-48.9	-53.8	3.6	0.00e+00	0	47	104	0	60	57662
2026-01-28 14:23:17.40	60.70	7.98	-48.1	-52.2	3.6	0.00e+00	0	47	104	0	60	48304
2026-01-28 14:23:18.41	60.50	8.04	-47.5	-51.3	3.6	0.00e+00	0	47	104	0	60	43400
2026-01-28 14:23:19.42	60.30	8.09	-46.2	-50.2	3.6	0.00e+00	0	47	104	0	60	38402
2026-01-28 14:23:20.43	60.10	8.15	-46.0	-50.6	3.6	0.00e+00	0	47	104	0	60	40071
2026-01-28 14:23:21.44	59.90	8.20	-46.6	-50.8	3.6	0.00e+00	0	47	104	0	60	40897
2026-01-28 14:23:22.45	59.70	8.25	-47.4	-51.0	3.6	0.00e+00	0	47	104	0	60	42129
2026-01-28 14:23:23.45	59.50	8.31	-49.4	-53.0	3.6	0.00e+00	0	48	104	0	60	52806
2026-01-28 14:23:24.46	59.30	8.36	-52.6	-56.5	3.6	0.00e+00	0	47	104	0	60	79260
2026-01-28 14:23:25.46	59.10	8.42	-45.3	-49.3	3.6	0.00e+00	0	47	104	0	60	34635
2026-01-28 14:23:26.47	58.89	8.47	-45.2	-49.2	3.6	0.00e+00	0	47	104	0	60	34308
2026-01-28 14:23:27.47	58.69	8.52	-48.0	-49.9	3.6	0.00e+00	0	47	104	0	60	37012
2026-01-28 14:23:28.48	58.48	8.58	-44.7	-47.1	3.5	0.00e+00	0	47	104	0	60	26848
2026-01-28 14:23:29.48	58.27	8.63	-44.9	-47.5	3.6	0.00e+00	0	48	104	0	60	28113
2026-01-28 14:23:30.49	58.07	8.68	-44.8	-47.5	3.6	0.00e+00	0	48	104	0	60	28153
2026-01-28 14:23:31.49	57.86	8.73	-45.1	-47.7	3.6	0.00e+00	0	48	104	0	60	28718
2026-01-28 14:23:32.50	57.65	8.79	-49.1	-51.2	3.6	0.00e+00	0	48	104	0	60	43149
2026-01-28 14:23:33.51	57.44	8.84	-52.9	-55.8	3.6	0.00e+00	0	47	104	0	60	72627
2026-01-28 14:23:34.52	57.22	8.89	-50.0	-53.7	3.5	0.00e+00	0	48	104	0	60	57237
2026-01-28 14:23:35.52	57.01	8.94	-45.0	-47.9	3.6	0.00e+00	0	47	104	0	60	29383
2026-01-28 14:23:36.53	56.80	9.00	-45.3	-48.5	3.6	0.00e+00	0	48	104	0	60	31391
2026-01-28 14:23:37.54	56.58	9.05	-45.6	-48.8	3.5	0.00e+00	0	48	104	0	60	32594
2026-01-28 14:23:38.54	56.37	9.10	-45.1	-48.3	3.6	0.00e+00	0	48	104	0	60	30733
2026-01-28 14:23:39.55	56.15	9.15	-49.9	-53.5	3.6	0.00e+00	0	48	104	0	60	55737
2026-01-28 14:23:40.55	55.93	9.20	-49.6	-53.6	3.6	0.00e+00	0	48	104	0	60	56413
2026-01-28 14:23:41.56	55.72	9.25	-45.0	-48.5	3.6	0.00e+00	0	48	104	0	60	31427
2026-01-28 14:23:42.56	55.50	9.30	-45.3	-48.8	3.6	0.00e+00	0	48	104	0	60	32732
2026-01-28 14:23:43.57	55.28	9.35	-46.0	-49.5	3.6	0.00e+00	0	48	104	0	60	35486
2026-01-28 14:23:44.57	55.06	9.40	-44.9	-48.6	3.6	0.00e+00	0	48	104	0	60	31905
2026-01-28 14:23:45.57	54.84	9.45	-44.7	-48.5	3.6	0.00e+00	0	48	104	0	60	31519
2026-01-28 14:23:46.58	54.61	9.50	-44.0	-47.7	3.6	0.00e+00	0	48	104	0	60	28687
2026-01-28 14:23:47.58	54.39	9.55	-51.2	-55.2	3.6	0.00e+00	0	48	104	0	60	68230
2026-01-28 14:23:48.59	54.16	9.60	-48.9	-53.0	3.6	0.00e+00	0	48	104	0	60	53003
2026-01-28 14:23:49.60	53.94	9.65	-48.5	-52.1	3.6	0.00e+00	0	47	104	0	60	47450
2026-01-28 14:23:50.61	53.71	9.70	-48.6	-52.0	3.5	0.00e+00	0	48	104	0	60	47344
2026-01-28 14:23:51.62	53.48	9.75	-44.6	-48.0	3.6	0.00e+00	0	48	104	0	60	29861
2026-01-28 14:23:52.62	53.25	9.80	-47.1	-50.4	3.6	0.00e+00	0	48	104	0	60	39109
2026-01-28 14:23:53.63	53.02	9.85	-47.1	-50.2	3.5	0.00e+00	0	48	104	0	60	38401
2026-01-28 14:23:54.63	52.79	9.89	-47.7	-51.6	3.6	0.00e+00	0	48	104	0	60	45056
2026-01-28 14:23:55.64	52.56	9.94	-50.9	-54.6	3.6	0.00e+00	0	48	104	0	60	63407
2026-01-28 14:23:56.64	52.33	9.99	-50.2	-53.5	3.6	0.00e+00	0	48	104	0	60	56202
2026-01-28 14:23:57.64	52.10	10.04	-48.8	-51.7	3.5	0.00e+00	0	48	104	0	60	45689
2026-01-28 14:23:58.64	51.86	10.08	-48.7	-51.5	3.6	0.00e+00	0	48	104	0	60	44522
2026-01-28 14:23:59.64	51.63	10.13	-49.9	-52.7	3.6	0.00e+00	0	48	104	0	60	51232
2026-01-28 14:24:00.65	51.39	10.18	-48.8	-51.6	3.6	0.00e+00	0	48	104	0	60	45028
2026-01-28 14:24:01.66	51.16	10.22	-49.3	-52.0	3.6	0.00e+00	0	48	104	0	60	47234
2026-01-28 14:24:02.66	50.92	10.27	-50.7	-53.2	3.6	0.00e+00	0	48	104	0	60	53896
2026-01-28 14:24:03.67	50.68	10.31	-49.3	-51.0	3.6	0.00e+00	0	48	104	0	60	42055
2026-01-28 14:24:04.68	50.44	10.36	-48.5	-50.3	3.6	0.00e+00	0	48	104	0	60	38785
2026-01-28 14:24:05.68	50.20	10.40	-48.1	-49.8	3.6	0.00e+00	0	48	104	0	60	36423
2026-01-28 14:24:06.68	49.96	10.45	-51.6	-53.5	3.6	0.00e+00	0	48	104	0	60	56152
2026-01-28 14:24:07.69	49.71	10.49	-50.1	-51.9	3.6	0.00e+00	0	48	104	0	60	46599
2026-01-28 14:24:08.70	49.47	10.54	-49.7	-51.6	3.6	0.00e+00	0	48	104	0	60	44900
2026-01-28 14:24:09.70	49.23	10.58	-51.0	-52.9	3.6	0.00e+00	0	48	104	0	60	52460
2026-01-28 14:24:10.71	48.98	10.62	-51.3	-55.2	3.6	0.00e+00	0	48	104	0	60	68467
2026-01-28 14:24:11.72	48.73	10.67	-50.7	-54.2	3.6	0.00e+00	0	48	104	0	60	60905
2026-01-28 14:24:12.72	48.49	10.71	-51.2	-55.1	3.5	0.00e+00	0	48	104	0	60	67361
2026-01-28 14:24:13.72	48.24	10.75	-53.2	-56.2	3.6	0.00e+00	0	48	104	0	60	76472
2026-01-28 14:24:14.73	47.99	10.79	-50.1	-53.9	3.6	0.00e+00	0	48	104	0	60	58584
2026-01-28 14:24:15.73	47.74	10.84	-52.1	-55.8	3.6	0.00e+00	0	48	104	0	60	73114
2026-01-28 14:24:16.74	47.49	10.88	-51.4	-55.1	3.6	0.00e+00	0	48	104	0	60	67427
2026-01-28 14:24:17.74	47.24	10.92	-51.8	-55.5	3.6	0.00e+00	0	48	104	0	60	70780
2026-01-28 14:24:18.75	46.99	10.96	-51.4	-55.7	3.6	0.00e+00	0	48	104	0	60	71738
2026-01-28 14:24:19.75	46.74	11.00	-51.7	-55.7	3.6	0.00e+00	0	48	104	0	60	71975
2026-01-28 14:24:20.76	46.48	11.04	-52.2	-55.9	3.6	0.00e+00	0	48	104	0	60	73753
2026-01-28 14:24:21.77	46.23	11.08	-52.0	-55.7	3.6	0.00e+00	0	48	104	0	60	71843
2026-01-28 14:24:22.78	45.97	11.12	-51.3	-54.0	3.6	0.00e+00	0	48	104	0	60	59481
2026-01-28 14:24:23.78	45.71	11.16	-50.9	-54.0	3.6	0.00e+00	0	48	104	0	60	59528
2026-01-28 14:24:24.79	45.46	11.19	-51.2	-54.0	3.5	0.00e+00	0	48	104	0	60	59582
2026-01-28 14:24:25.80	45.20	11.23	-52.9	-55.4	3.6	0.00e+00	0	48	104	0	60	69274
2026-01-28 14:24:26.80	44.94	11.27	-53.1	-56.5	3.6	0.00e+00	0	48	104	0	60	79017
2026-01-28 14:24:27.81	44.68	11.31	-53.3	-56.7	3.6	0.00e+00	0	48	104	0	60	80769
2026-01-28 14:24:28.82	44.42	11.34	-53.1	-56.7	3.6	0.00e+00	0	48	104	0	60	81298
2026-01-28 14:24:29.83	44.15	11.38	-55.0	-58.1	3.6	0.00e+00	0	48	104	0	60	94597
2026-01-28 14:24:30.84	43.89	11.42	-53.3	-57.0	3.5	0.00e+00	0	48	104	0	60	83294
2026-01-28 14:24:31.84	43.63	11.45	-53.2	-56.9	3.6	0.00e+00	0	48	104	0	60	82442
2026-01-28 14:24:32.85	43.36	11.49	-54.0	-57.4	3.6	0.00e+00	0	48	104	0	60	87381
2026-01-28 14:24:33.86	43.10	11.52	-54.3	-57.7	3.6	0.00e+00	0	48	104	0	60	90895
2026-01-28 14:24:34.86	42.84	11.56	-53.3	-56.9	3.6	0.00e+00	0	48	104	0	60	82546
2026-01-28 14:24:35.86	42.57	11.59	-53.8	-57.8	3.6	0.00e+00	0	48	104	0	60	91685
2026-01-28 14:24:36.86	42.31	11.62	-54.3	-57.4	3.6	0.00e+00	0	48	104	0	60	87593
2026-01-28 14:24:37.87	42.04	11.65	-55.2	-58.4	3.6	0.00e+00	0	48	104	0	60	98456
2026-01-28 14:24:38.88	41.77	11.69	-51.9	-55.2	3.6	0.00e+00	0	48	104	0	60	68030
2026-01-28 14:24:39.89	41.50	11.72	-51.9	-55.2	3.6	0.00e+00	0	48	104	0	60	68030
2026-01-28 14:24:40.90	41.23	11.75	-53.3	-56.7	3.6	0.00e+00	0	48	104	0	60	80507
2026-01-28 14:24:41.90	40.96	11.78	-54.3	-57.8	3.6	0.00e+00	0	48	104	0	60	92178
2026-01-28 14:24:42.91	40.69	11.81	-53.8	-57.3	3.6	0.00e+00	0	48	104	0	60	86618
2026-01-28 14:24:43.92	40.41	11.84	-53.6	-56.9	3.6	0.00e+00	0	48	104	0	60	82811
2026-01-28 14:24:44.92	40.14	11.87	-53.9	-57.5	3.6	0.00e+00	0	48	104	0	60	89098
2026-01-28 14:24:45.93	39.87	11.90	-54.7	-58.6	3.6	0.00e+00	0	48	104	0	60	100918
2026-01-28 14:24:46.94	39.59	11.93	-52.4	-54.9	3.6	0.00e+00	0	48	104	0	60	66005
2026-01-28 14:24:47.94	39.32	11.96	-52.4	-54.9	3.6	0.00e+00	0	47	104	0	60	66118
2026-01-28 14:24:48.95	39.05	11.98	-53.3	-56.3	3.6	0.00e+00	0	48	104	0	60	77638
2026-01-28 14:24:49.96	38.77	12.01	-54.8	-58.5	3.6	0.00e+00	0	48	104	0	60	99893
2026-01-28 14:24:50.96	38.49	12.04	-54.1	-57.8	3.6	0.00e+00	0	48	104	0	60	91635
2026-01-28 14:24:51.96	38.22	12.06	-54.5	-58.4	3.6	0.00e+00	0	48	104	0	60	98362
2026-01-28 14:24:52.97	37.94	12.09	-54.5	-58.1	3.6	0.00e+00	0	48	104	0	60	95538
2026-01-28 14:24:53.98	37.66	12.11	-53.3	-56.4	3.6	0.00e+00	0	48	104	0	60	77867
2026-01-28 14:24:54.98	37.38	12.14	-55.0	-58.6	3.6	0.00e+00	0	48	104	0	60	100572
2026-01-28 14:24:55.99	37.10	12.16	-54.3	-57.5	3.6	0.00e+00	0	48	104	0	60	88619
2026-01-28 14:24:57.00	36.82	12.18	-52.5	-56.6	3.6	0.00e+00	0	48	104	0	60	80154
2026-01-28 14:24:58.00	36.55	12.21	-52.7	-56.9	3.6	0.00e+00	0	48	104	0	60	82336
2026-01-28 14:24:59.01	36.26	12.23	-54.8	-58.6	3.6	0.00e+00	0	48	104	0	60	101127
2026-01-28 14:25:00.01	35.98	12.25	-53.8	-58.3	3.6	0.00e+00	0	48	104	0	60	97690
2026-01-28 14:25:01.02	35.70	12.27	-55.1	-58.8	3.6	0.00e+00	0	48	104	0	60	103105
2026-01-28 14:25:02.03	35.42	12.29	-53.8	-57.2	3.6	0.00e+00	0	48	104	0	60	85268
2026-01-28 14:25:03.04	35.13	12.31	-54.4	-58.4	3.6	0.00e+00	0	48	104	0	60	98887
2026-01-28 14:25:04.04	34.85	12.33	-54.2	-57.4	3.6	0.00e+00	0	48	104	0	60	88167
2026-01-28 14:25:05.04	34.57	12.35	-54.5	-57.6	3.6	0.00e+00	0	48	104	0	60	89661
2026-01-28 14:25:06.05	34.29	12.37	-54.0	-57.1	3.6	0.00e+00	0	47	104	0	60	84684
2026-01-28 14:25:07.05	34.00	12.38	-55.0	-59.2	3.6	0.00e+00	0	48	104	0	60	107477
2026-01-28 14:25:08.06	33.72	12.40	-53.7	-57.9	3.6	0.00e+00	0	48	104	0	60	92565
2026-01-28 14:25:09.06	33.43	12.42	-54.3	-58.9	3.6	0.00e+00	0	48	104	0	60	103963
2026-01-28 14:25:10.06	33.15	12.43	-55.0	-58.7	3.5	0.00e+00	0	48	104	0	60	102302
2026-01-28 14:25:11.07	32.86	12.45	-55.2	-58.3	3.6	0.00e+00	0	48	104	0	60	97817
2026-01-28 14:25:12.07	32.58	12.46	-55.3	-58.4	3.6	0.00e+00	0	48	104	0	60	98903
2026-01-28 14:25:13.07	32.30	12.48	-55.7	-59.2	3.6	0.00e+00	0	48	104	0	60	108137
2026-01-28 14:25:14.08	32.01	12.49	-55.6	-59.3	3.6	0.00e+00	0	48	104	0	60	108997
2026-01-28 14:25:15.09	31.72	12.50	-53.6	-57.9	3.6	0.00e+00	0	48	104	0	60	93023
2026-01-28 14:25:16.10	31.43	12.52	-54.7	-58.2	3.6	0.00e+00	0	48	104	0	60	96115
2026-01-28 14:25:17.10	31.14	12.53	-52.2	-57.6	3.6	0.00e+00	0	48	104	0	60	89905
2026-01-28 14:25:18.11	30.86	12.54	-52.1	-56.2	3.6	0.00e+00	0	48	104	0	60	76389
2026-01-28 14:25:19.12	30.57	12.55	-53.7	-57.9	3.6	0.00e+00	0	48	104	0	60	93409
2026-01-28 14:25:20.12	30.28	12.56	-51.8	-56.0	3.6	0.00e+00	0	48	104	0	60	74979
2026-01-28 14:25:21.12	29.99	12.57	-52.7	-56.2	3.5	0.00e+00	0	48	104	0	60	76292
2026-01-28 14:25:22.13	29.70	12.58	-52.6	-56.3	3.6	0.00e+00	0	48	104	0	60	77213
2026-01-28 14:25:23.13	29.41	12.59	-51.9	-55.7	3.6	0.00e+00	0	48	104	0	60	72187
2026-01-28 14:25:24.14	29.12	12.59	-54.3	-57.8	3.6	0.00e+00	0	48	104	0	60	92140
2026-01-28 14:25:25.14	28.84	12.60	-53.4	-57.7	3.6	0.00e+00	0	48	104	0	60	90409
2026-01-28 14:25:26.14	28.55	12.61	-54.6	-58.5	3.6	0.00e+00	0	48	104	0	60	99853
2026-01-28 14:25:27.14	28.26	12.61	-52.8	-57.0	3.6	0.00e+00	0	48	104	0	60	84209
2026-01-28 14:25:28.15	27.97	12.62	-52.1	-56.0	3.6	0.00e+00	0	48	104	0	60	74670
2026-01-28 14:25:29.15	27.68	12.62	-51.9	-55.8	3.6	0.00e+00	0	48	104	0	60	73282
2026-01-28 14:25:30.16	27.39	12.63	-51.4	-55.4	3.6	0.00e+00	0	48	104	0	60	69932
2026-01-28 14:25:31.15	27.10	12.63	-51.9	-55.5	3.6	0.00e+00	0	48	104	0	60	70204
2026-01-28 14:25:32.16	26.81	12.63	-50.9	-55.3	3.6	0.00e+00	0	48	104	0	60	69013
2026-01-28 14:25:33.17	26.52	12.63	-51.5	-56.7	3.6	0.00e+00	0	48	104	0	60	80943
2026-01-28 14:25:34.17	26.23	12.63	-52.0	-56.8	3.6	0.00e+00	0	48	104	0	60	81912
2026-01-28 14:25:35.18	25.94	12.64	-50.3	-54.9	3.6	0.00e+00	0	48	104	0	60	65910
2026-01-28 14:25:36.18	25.65	12.64	-50.2	-54.6	3.5	0.00e+00	0	48	104	0	60	63699
2026-01-28 14:25:37.18	25.37	12.63	-50.5	-55.0	3.6	0.00e+00	0	48	104	0	60	66802
2026-01-28 14:25:38.18	25.08	12.63	-51.1	-55.2	3.6	0.00e+00	0	48	104	0	60	68453
2026-01-28 14:25:39.19	24.79	12.63	-50.1	-53.3	3.6	0.00e+00	0	48	104	0	60	54589
2026-01-28 14:25:40.20	24.49	12.63	-50.4	-54.9	3.6	0.00e+00	0	48	104	0	60	65594
2026-01-28 14:25:41.20	24.21	12.63	-51.3	-55.3	3.6	0.00e+00	0	48	104	0	60	69249
2026-01-28 14:25:42.21	23.91	12.62	-50.8	-54.5	3.6	0.00e+00	0	48	104	0	60	62755
2026-01-28 14:25:43.21	23.63	12.62	-49.5	-54.7	3.6	0.00e+00	0	48	104	0	60	63962
2026-01-28 14:25:44.20	23.34	12.61	-49.7	-54.0	3.6	0.00e+00	0	48	104	0	60	59407
2026-01-28 14:25:45.20	23.05	12.61	-50.4	-54.2	3.6	0.00e+00	0	48	104	0	60	60517
2026-01-28 14:25:46.21	22.76	12.60	-50.5	-54.2	3.6	0.00e+00	0	48	104	0	60	60706
2026-01-28 14:25:47.21	22.47	12.60	-45.9	-52.3	3.6	0.00e+00	0	48	104	0	60	48991
2026-01-28 14:25:48.21	22.19	12.59	-48.6	-54.1	3.6	0.00e+00	0	48	104	0	60	59686
2026-01-28 14:25:49.22	21.90	12.58	-46.4	-52.6	3.6	0.00e+00	0	48	104	0	60	50476
2026-01-28 14:25:50.22	21.61	12.57	-50.6	-54.8	3.6	0.00e+00	0	48	104	0	60	65280
2026-01-28 14:25:51.23	21.32	12.56	-46.9	-52.5	3.5	0.00e+00	0	48	104	0	60	50153
2026-01-28 14:25:52.24	21.03	12.55	-47.6	-53.1	3.6	0.00e+00	0	48	104	0	60	53217
2026-01-28 14:25:53.24	20.74	12.54	-49.6	-53.9	3.6	0.00e+00	0	48	104	0	60	58665
2026-01-28 14:25:54.25	20.45	12.53	-50.7	-54.6	3.6	0.00e+00	0	48	104	0	60	63623
2026-01-28 14:25:55.25	20.17	12.52	-52.3	-56.7	3.6	0.00e+00	0	48	104	0	60	80688
2026-01-28 14:25:56.26	19.88	12.51	-53.2	-55.9	3.6	0.00e+00	0	48	104	0	60	73695
2026-01-28 14:25:57.25	19.60	12.50	-50.5	-54.0	3.6	0.00e+00	0	48	104	0	60	59078
2026-01-28 14:25:58.26	19.31	12.48	-53.5	-56.8	3.6	0.00e+00	0	48	104	0	60	82212
2026-01-28 14:25:59.26	19.03	12.47	-49.1	-54.4	3.6	0.00e+00	0	48	104	0	60	62088
2026-01-28 14:26:00.27	18.74	12.45	-49.8	-55.4	3.6	0.00e+00	0	48	104	0	60	69641
2026-01-28 14:26:01.27	18.45	12.44	-49.8	-55.4	3.5	0.00e+00	0	48	104	0	60	69505
2026-01-28 14:26:02.28	18.17	12.42	-50.4	-55.4	3.6	0.00e+00	0	48	104	0	60	69458
2026-01-28 14:26:03.28	17.88	12.41	-50.6	-54.5	3.6	0.00e+00	0	48	104	0	60	62467
2026-01-28 14:26:04.29	17.60	12.39	-53.2	-56.4	3.6	0.00e+00	0	48	104	0	60	78317
2026-01-28 14:26:05.30	17.31	12.37	-50.1	-54.6	3.6	0.00e+00	0	48	104	0	60	63730
2026-01-28 14:26:06.31	17.03	12.36	-48.5	-54.3	3.6	0.00e+00	0	48	104	0	60	61628
2026-01-28 14:26:07.31	16.75	12.34	-50.2	-54.5	3.6	0.00e+00	0	48	104	0	60	62809
2026-01-28 14:26:08.32	16.46	12.32	-48.0	-54.1	3.6	0.00e+00	0	48	104	0	60	59808
2026-01-28 14:26:09.33	16.18	12.30	-49.2	-54.7	3.6	0.00e+00	0	48	104	0	60	64192
2026-01-28 14:26:10.33	15.90	12.28	-50.7	-55.6	3.6	0.00e+00	0	48	104	0	60	71275
2026-01-28 14:26:11.34	15.62	12.26	-49.5	-56.0	3.6	0.00e+00	0	48	104	0	60	74523
2026-01-28 14:26:12.34	15.34	12.24	-53.0	-57.1	3.6	0.00e+00	0	48	104	0	60	84377
2026-01-28 14:26:13.34	15.06	12.21	-54.2	-58.5	3.6	0.00e+00	0	48	104	0	60	100113
2026-01-28 14:26:14.35	14.78	12.19	-52.3	-57.7	3.6	0.00e+00	0	48	104	0	60	91001
2026-01-28 14:26:15.35	14.50	12.17	-50.4	-56.1	3.6	0.00e+00	0	48	104	0	60	75283
2026-01-28 14:26:16.36	14.22	12.15	-50.7	-56.5	3.6	0.00e+00	0	48	104	0	60	79277
2026-01-28 14:26:17.36	13.94	12.12	-51.0	-56.6	3.5	0.00e+00	0	48	104	0	60	79886
2026-01-28 14:26:18.37	13.66	12.10	-51.5	-56.8	3.6	0.00e+00	0	48	104	0	60	81564
2026-01-28 14:26:19.38	13.39	12.07	-54.1	-58.6	3.6	0.00e+00	0	48	104	0	60	100650
2026-01-28 14:26:20.39	13.11	12.05	-53.1	-57.6	3.6	0.00e+00	0	48	104	0	60	89602
2026-01-28 14:26:21.39	12.83	12.02	-51.1	-56.2	3.6	0.00e+00	0	48	104	0	60	76164
2026-01-28 14:26:22.40	12.56	11.99	-52.1	-56.1	3.6	0.00e+00	0	48	104	0	60	75811
2026-01-28 14:26:23.41	12.28	11.97	-51.5	-56.4	3.5	0.00e+00	0	48	104	0	60	78398
2026-01-28 14:26:24.42	12.01	11.94	-51.9	-56.0	3.6	0.00e+00	0	48	104	0	60	74383
2026-01-28 14:26:25.42	11.73	11.91	-52.8	-56.4	3.6	0.00e+00	0	48	104	0	60	78024
2026-01-28 14:26:26.43	11.46	11.88	-53.6	-56.6	3.6	0.00e+00	0	48	104	0	60	80173
2026-01-28 14:26:27.44	11.19	11.85	-52.3	-56.8	3.6	0.00e+00	0	48	104	0	60	81883
2026-01-28 14:26:28.44	10.92	11.82	-50.7	-56.1	3.6	0.00e+00	0	48	104	0	60	75157
2026-01-28 14:26:29.45	10.64	11.79	-50.3	-55.8	3.6	0.00e+00	0	48	104	0	60	72833
2026-01-28 14:26:30.46	10.37	11.76	-51.9	-56.9	3.6	0.00e+00	0	48	104	0	60	82545
2026-01-28 14:26:31.46	10.11	11.73	-51.9	-56.5	3.5	0.00e+00	0	48	104	0	60	79492
2026-01-28 14:26:32.47	9.84	11.70	-51.7	-56.5	3.6	0.00e+00	0	48	104	0	60	79462
2026-01-28 14:26:33.48	9.57	11.67	-52.5	-56.9	3.6	0.00e+00	0	48	104	0	60	83243
2026-01-28 14:26:34.48	9.30	11.64	-53.6	-57.8	3.6	0.00e+00	0	48	104	0	60	91927
2026-01-28 14:26:35.49	9.03	11.60	-51.3	-57.0	3.6	0.00e+00	0	48	104	0	60	84012
2026-01-28 14:26:36.49	8.77	11.57	-51.6	-56.9	3.6	0.00e+00	0	48	104	0	60	82837
2026-01-28 14:26:37.50	8.50	11.53	-52.8	-57.4	3.6	0.00e+00	0	48	104	0	60	87469
2026-01-28 14:26:38.50	8.24	11.50	-52.8	-57.5	3.6	0.00e+00	0	48	104	0	60	89154
2026-01-28 14:26:39.51	7.98	11.47	-50.2	-56.1	3.6	0.00e+00	0	48	104	0	60	75708
2026-01-28 14:26:40.52	7.71	11.43	-51.1	-56.4	3.6	0.00e+00	0	48	104	0	60	77765
2026-01-28 14:26:41.53	7.45	11.39	-52.3	-57.1	3.6	0.00e+00	0	48	104	0	60	84722
2026-01-28 14:26:42.54	7.19	11.36	-54.1	-58.3	3.6	0.00e+00	0	48	104	0	60	96887
2026-01-28 14:26:43.54	6.93	11.32	-54.3	-58.6	3.6	0.00e+00	0	48	104	0	60	100726
2026-01-28 14:26:44.55	6.67	11.29	-55.4	-58.9	3.6	0.00e+00	0	48	104	0	60	104213
2026-01-28 14:26:45.56	6.41	11.25	-54.2	-58.1	3.6	0.00e+00	0	48	104	0	60	95158
2026-01-28 14:26:46.57	6.15	11.21	-54.6	-58.5	3.6	0.00e+00	0	48	104	0	60	99934
2026-01-28 14:26:47.57	5.89	11.17	-53.9	-58.0	3.6	0.00e+00	0	48	104	0	60	93913
2026-01-28 14:26:48.57	5.64	11.13	-53.5	-57.9	3.5	0.00e+00	0	48	104	0	60	92471
2026-01-28 14:26:49.58	5.38	11.10	-54.2	-58.3	3.6	0.00e+00	0	48	104	0	60	97819
2026-01-28 14:26:50.58	5.13	11.06	-54.8	-59.0	3.6	0.00e+00	0	48	104	0	60	106015
2026-01-28 14:26:51.59	4.87	11.02	-53.6	-58.6	3.6	0.00e+00	0	48	104	0	60	100297
2026-01-28 14:26:52.60	4.62	10.98	-55.2	-59.3	3.6	0.00e+00	0	48	104	0	60	108588
2026-01-28 14:26:53.61	4.37	10.94	-54.5	-58.3	3.6	0.00e+00	0	48	104	0	60	97302
2026-01-28 14:26:54.61	4.12	10.89	-53.8	-58.0	3.6	0.00e+00	0	48	104	0	60	94436
2026-01-28 14:26:55.62	3.86	10.85	-53.5	-58.1	3.6	0.00e+00	0	48	104	0	60	95396
2026-01-28 14:26:56.63	3.61	10.81	-54.0	-58.1	3.6	0.00e+00	0	48	104	0	60	95406
2026-01-28 14:26:57.64	3.36	10.77	-54.7	-58.3	3.6	0.00e+00	0	48	104	0	60	97531
2026-01-28 14:26:58.65	3.12	10.73	-54.9	-58.7	3.6	0.00e+00	0	48	104	0	60	102146
2026-01-28 14:26:59.65	2.87	10.69	-54.5	-58.7	3.6	0.00e+00	0	48	104	0	60	101582
2026-01-28 14:27:00.66	2.62	10.64	-55.3	-59.0	3.6	0.00e+00	0	48	104	0	60	105455
2026-01-28 14:27:01.66	2.38	10.60	-54.3	-58.5	3.6	0.00e+00	0	48	104	0	60	99333
2026-01-28 14:27:02.67	2.13	10.56	-54.6	-58.2	3.6	0.00e+00	0	48	104	0	60	96283
2026-01-28 14:27:03.68	1.89	10.51	-54.5	-58.0	3.6	0.00e+00	0	48	104	0	60	94404
2026-01-28 14:27:04.69	1.65	10.47	-54.0	-57.7	3.6	0.00e+00	0	48	104	0	60	91178
2026-01-28 14:27:05.69	1.41	10.42	-53.6	-57.5	3.6	0.00e+00	0	48	104	0	60	88656
2026-01-28 14:27:06.69	1.17	10.38	-52.3	-57.0	3.6	0.00e+00	0	48	104	0	60	83379
2026-01-28 14:27:07.69	0.93	10.33	-52.7	-57.6	3.6	0.00e+00	0	48	104	0	60	89345
2026-01-28 14:27:08.70	0.69	10.29	-53.6	-57.8	3.6	0.00e+00	0	48	104	0	60	92274
2026-01-28 14:27:09.71	0.45	10.24	-54.4	-58.3	3.6	0.00e+00	0	48	104	0	60	97343
2026-01-28 14:27:10.71	0.22	10.20	-51.3	-56.8	3.6	0.00e+00	0	48	104	0	60	82167
2026-01-28 14:27:11.72	359.98	10.15	-53.2	-57.6	3.6	0.00e+00	0	48	104	0	60	89999
2026-01-28 14:27:12.73	359.74	10.10	-53.1	-57.5	3.6	0.00e+00	0	48	104	0	60	89188
2026-01-28 14:27:13.74	359.51	10.06	-53.8	-57.7	3.6	0.00e+00	0	48	104	0	60	90587
2026-01-28 14:27:14.74	359.28	10.01	-53.5	-57.5	3.6	0.00e+00	0	48	104	0	60	89014
2026-01-28 14:27:15.75	359.04	9.96	-53.0	-57.4	3.6	0.00e+00	0	48	104	0	60	88020
2026-01-28 14:27:16.75	358.81	9.92	-52.9	-57.2	3.6	0.00e+00	0	48	104	0	60	86090
2026-01-28 14:27:17.76	358.58	9.87	-53.3	-57.5	3.6	0.00e+00	0	48	104	0	60	89151
2026-01-28 14:27:18.77	358.35	9.82	-53.6	-57.5	3.6	0.00e+00	0	48	104	0	60	89124
2026-01-28 14:27:19.77	358.12	9.77	-54.1	-57.6	3.6	0.00e+00	0	48	104	0	60	89950
2026-01-28 14:27:20.78	357.90	9.72	-53.6	-57.5	3.6	0.00e+00	0	48	104	0	60	88592
2026-01-28 14:27:21.79	357.67	9.67	-53.5	-57.5	3.6	0.00e+00	0	48	104	0	60	88418
2026-01-28 14:27:22.80	357.44	9.62	-53.8	-57.6	3.6	0.00e+00	0	48	104	0	60	89341
2026-01-28 14:27:23.80	357.22	9.57	-52.9	-57.6	3.6	0.00e+00	0	48	104	0	60	89472
2026-01-28 14:27:24.81	356.99	9.53	-53.6	-57.7	3.6	0.00e+00	0	48	104	0	60	90714
2026-01-28 14:27:25.82	356.77	9.48	-53.4	-57.6	3.6	0.00e+00	0	48	104	0	60	90115
2026-01-28 14:27:26.82	356.55	9.43	-53.9	-57.8	3.6	0.00e+00	0	48	104	0	60	91403
2026-01-28 14:27:27.82	356.33	9.38	-52.6	-57.4	3.6	0.00e+00	0	48	104	0	60	88210
2026-01-28 14:27:28.83	356.11	9.33	-52.4	-57.3	3.6	0.00e+00	0	48	104	0	60	86861
2026-01-28 14:27:29.84	355.89	9.27	-52.0	-57.3	3.6	0.00e+00	0	48	104	0	60	86372
2026-01-28 14:27:30.85	355.67	9.22	-53.1	-57.4	3.6	0.00e+00	0	48	104	0	60	88006
2026-01-28 14:27:31.85	355.46	9.17	-52.6	-57.5	3.6	0.00e+00	0	48	104	0	60	88886
2026-01-28 14:27:32.86	355.24	9.12	-53.3	-57.8	3.6	0.00e+00	0	48	104	0	60	91897
2026-01-28 14:27:33.87	355.02	9.07	-53.0	-57.5	3.6	0.00e+00	0	48	104	0	60	88527
2026-01-28 14:27:34.87	354.81	9.02	-53.8	-57.7	3.6	0.00e+00	0	48	104	0	60	91039
2026-01-28 14:27:35.88	354.60	8.97	-53.2	-57.7	3.6	0.00e+00	0	48	104	0	60	91083
2026-01-28 14:27:36.88	354.38	8.92	-52.5	-57.6	3.6	0.00e+00	0	48	104	0	60	89282
2026-01-28 14:27:37.89	354.17	8.86	-53.0	-57.7	3.6	0.00e+00	0	48	104	0	60	90806
2026-01-28 14:27:38.89	353.96	8.81	-53.3	-57.7	3.6	0.00e+00	0	48	104	0	60	91228
2026-01-28 14:27:39.90	353.75	8.76	-52.7	-57.5	3.6	0.00e+00	0	48	104	0	60	88560
2026-01-28 14:27:40.90	353.55	8.71	-53.3	-57.7	3.6	0.00e+00	0	48	104	0	60	91155
2026-01-28 14:27:41.90	353.34	8.65	-52.6	-57.5	3.6	0.00e+00	0	48	104	0	60	88287
2026-01-28 14:27:42.91	353.13	8.60	-54.0	-57.8	3.6	0.00e+00	0	48	104	0	60	92314
2026-01-28 14:27:43.92	352.93	8.55	-53.1	-57.5	3.6	0.00e+00	0	48	104	0	60	88833
2026-01-28 14:27:44.93	352.72	8.49	-52.5	-57.4	3.6	0.00e+00	0	48	104	0	60	87374
2026-01-28 14:27:45.93	352.52	8.44	-52.9	-57.5	3.6	0.00e+00	0	48	104	0	60	89168
2026-01-28 14:27:46.94	352.31	8.39	-52.8	-57.4	3.6	0.00e+00	0	48	104	0	60	87349
2026-01-28 14:27:47.94	352.11	8.33	-54.0	-58.3	3.5	0.00e+00	0	48	104	0	60	96776
2026-01-28 14:27:48.95	351.91	8.28	-53.0	-57.7	3.6	0.00e+00	0	48	104	0	60	90869
2026-01-28 14:27:49.96	351.71	8.23	-51.8	-57.3	3.6	0.00e+00	0	48	104	0	60	86787
2026-01-28 14:27:50.97	351.51	8.17	-53.1	-57.8	3.6	0.00e+00	0	48	104	0	60	91329
2026-01-28 14:27:51.98	351.31	8.12	-52.1	-57.5	3.6	0.00e+00	0	48	104	0	60	88463
2026-01-28 14:27:52.98	351.12	8.06	-51.4	-56.9	3.6	0.00e+00	0	48	104	0	60	83216
2026-01-28 14:27:53.99	350.92	8.01	-51.5	-56.9	3.6	0.00e+00	0	48	104	0	60	83006
2026-01-28 14:27:55.00	350.72	7.96	-47.7	-54.9	3.6	0.00e+00	0	48	104	0	60	65694
2026-01-28 14:27:56.01	350.53	7.90	-53.9	-57.9	3.6	0.00e+00	0	48	104	0	60	93297
2026-01-28 14:27:57.01	350.33	7.85	-50.9	-56.6	3.6	0.00e+00	0	48	104	0	60	79686
2026-01-28 14:27:58.01	350.14	7.79	-47.8	-54.9	3.6	0.00e+00	0	48	104	0	60	66134
2026-01-28 14:27:59.01	349.95	7.74	-51.2	-56.9	3.6	0.00e+00	0	48	104	0	60	83039
2026-01-28 14:28:00.02	349.76	7.68	-48.2	-55.3	3.6	0.00e+00	0	48	104	0	60	68911
2026-01-28 14:28:01.03	349.57	7.63	-47.0	-54.3	3.6	0.00e+00	0	48	104	0	60	61438
2026-01-28 14:28:02.03	349.38	7.57	-46.9	-54.2	3.6	0.00e+00	0	48	104	0	60	60513
2026-01-28 14:28:03.04	349.19	7.52	-45.9	-53.6	3.6	0.00e+00	0	48	104	0	60	56941
2026-01-28 14:28:04.05	349.01	7.46	-53.3	-57.6	3.6	0.00e+00	0	48	104	0	60	89354
2026-01-28 14:28:05.06	348.82	7.41	-50.1	-56.3	3.6	0.00e+00	0	48	104	0	60	76848
2026-01-28 14:28:06.07	348.63	7.35	-53.3	-57.6	3.6	0.00e+00	0	48	104	0	60	90037
2026-01-28 14:28:07.08	348.45	7.29	-45.8	-53.5	3.6	0.00e+00	0	48	104	0	60	55669
2026-01-28 14:28:08.09	348.26	7.24	-45.6	-53.4	3.6	0.00e+00	0	48	104	0	60	55464
2026-01-28 14:28:09.09	348.08	7.18	-45.6	-53.2	3.6	0.00e+00	0	48	104	0	60	53857
2026-01-28 14:28:10.09	347.90	7.13	-45.5	-53.1	3.6	0.00e+00	0	48	104	0	60	53436
2026-01-28 14:28:11.10	347.72	7.07	-51.3	-56.4	3.6	0.00e+00	0	48	104	0	60	77838
2026-01-28 14:28:12.11	347.54	7.02	-47.7	-54.9	3.6	0.00e+00	0	48	104	0	60	65930
2026-01-28 14:28:13.11	347.36	6.96	-46.7	-53.9	3.6	0.00e+00	0	48	104	0	60	58743
2026-01-28 14:28:14.11	347.18	6.90	-53.4	-57.7	3.6	0.00e+00	0	48	104	0	60	90681
2026-01-28 14:28:15.12	347.01	6.85	-50.0	-56.1	3.6	0.00e+00	0	48	104	0	60	75907
2026-01-28 14:28:16.12	346.83	6.79	-46.7	-53.9	3.6	0.00e+00	0	48	104	0	60	58426
2026-01-28 14:28:17.12	346.66	6.74	-47.1	-54.3	3.6	0.00e+00	0	48	104	0	60	61482
2026-01-28 14:28:18.13	346.48	6.68	-47.5	-54.6	3.6	0.00e+00	0	48	104	0	60	63615
2026-01-28 14:28:19.13	346.31	6.63	-53.5	-57.3	3.6	0.00e+00	0	48	104	0	60	86721
2026-01-28 14:28:20.14	346.13	6.57	-46.4	-53.6	3.6	0.00e+00	0	48	104	0	60	56578
2026-01-28 14:28:21.15	345.96	6.51	-48.9	-55.2	3.6	0.00e+00	0	48	104	0	60	68294
2026-01-28 14:28:22.16	345.79	6.46	-51.9	-57.1	3.6	0.00e+00	0	48	104	0	60	84933
2026-01-28 14:28:23.16	345.62	6.40	-50.7	-56.6	3.6	0.00e+00	0	48	104	0	60	79984
2026-01-28 14:28:24.17	345.45	6.34	-46.5	-53.9	3.6	0.00e+00	0	48	104	0	60	58550
2026-01-28 14:28:25.17	345.28	6.29	-47.5	-54.4	3.6	0.00e+00	0	48	104	0	60	61938
2026-01-28 14:28:26.18	345.11	6.23	-48.0	-54.7	3.6	0.00e+00	0	48	104	0	60	64282
2026-01-28 14:28:27.19	344.94	6.17	-49.8	-56.0	3.6	0.00e+00	0	48	104	0	60	74659
2026-01-28 14:28:28.19	344.78	6.12	-48.3	-55.2	3.6	0.00e+00	0	48	104	0	60	67861
2026-01-28 14:28:29.20	344.61	6.06	-53.5	-57.5	3.6	0.00e+00	0	48	104	0	60	88420
2026-01-28 14:28:30.21	344.45	6.00	-48.0	-55.1	3.6	0.00e+00	0	48	104	0	60	67031
2026-01-28 14:28:31.21	344.28	5.95	-52.9	-57.7	3.6	0.00e+00	0	48	104	0	60	90781
2026-01-28 14:28:32.22	344.12	5.89	-54.1	-58.4	3.6	0.00e+00	0	48	104	0	60	98902
2026-01-28 14:28:33.23	343.96	5.83	-54.2	-59.0	3.6	0.00e+00	0	48	104	0	60	104899
2026-01-28 14:28:34.23	343.80	5.78	-55.9	-59.8	3.6	0.00e+00	0	48	104	0	60	115238
2026-01-28 14:28:35.24	343.64	5.72	-54.8	-59.0	3.6	0.00e+00	0	48	104	0	60	104990
2026-01-28 14:28:36.25	343.48	5.66	-55.1	-59.2	3.6	0.00e+00	0	48	104	0	60	107384
2026-01-28 14:28:37.26	343.32	5.61	-56.1	-60.0	3.6	0.00e+00	0	48	104	0	60	118285
2026-01-28 14:28:38.27	343.16	5.55	-56.2	-60.1	3.6	0.00e+00	0	48	104	0	60	119756
2026-01-28 14:28:39.27	343.00	5.49	-56.5	-60.4	3.6	0.00e+00	0	48	104	0	60	124370
2026-01-28 14:28:40.28	342.84	5.44	-57.0	-60.7	3.6	0.00e+00	0	48	104	0	60	127557
2026-01-28 14:28:41.29	342.69	5.38	-56.5	-60.6	3.6	0.00e+00	0	48	104	0	60	126760
2026-01-28 14:28:42.30	342.53	5.32	-56.2	-60.3	3.6	0.00e+00	0	48	104	0	60	122127
2026-01-28 14:28:43.30	342.38	5.27	-56.8	-60.4	3.6	0.00e+00	0	48	104	0	60	124152
2026-01-28 14:28:44.30	342.23	5.21	-56.9	-60.6	3.6	0.00e+00	0	48	104	0	60	126891
2026-01-28 14:28:45.31	342.07	5.15	-57.3	-61.2	3.6	0.00e+00	0	48	104	0	60	136538
2026-01-28 14:28:46.31	341.92	5.10	-57.8	-61.4	3.6	0.00e+00	0	48	104	0	60	139698
2026-01-28 14:28:47.32	341.77	5.04	-55.8	-60.3	3.6	0.00e+00	0	48	104	0	60	123156
2026-01-28 14:28:48.32	341.62	4.98	-55.4	-60.0	3.6	0.00e+00	0	48	104	0	60	117946
2026-01-28 14:28:49.32	341.47	4.93	-56.3	-60.4	3.6	0.00e+00	0	48	104	0	60	123893
2026-01-28 14:28:50.32	341.32	4.87	-56.3	-60.5	3.6	0.00e+00	0	48	104	0	60	124656
2026-01-28 14:28:51.32	341.18	4.82	-56.4	-60.5	3.6	0.00e+00	0	48	104	0	60	125207
2026-01-28 14:28:52.33	341.03	4.76	-56.4	-60.5	3.6	0.00e+00	0	48	104	0	60	125846
2026-01-28 14:28:53.34	340.88	4.70	-56.4	-60.5	3.6	0.00e+00	0	48	104	0	60	125514
2026-01-28 14:28:54.35	340.73	4.64	-56.4	-60.5	3.6	0.00e+00	0	48	104	0	60	125349
2026-01-28 14:28:55.36	340.59	4.59	-56.4	-60.6	3.6	0.00e+00	0	48	104	0	60	126459
2026-01-28 14:28:56.37	340.44	4.53	-56.3	-60.5	3.6	0.00e+00	0	48	104	0	60	125147
2026-01-28 14:28:57.37	340.30	4.48	-56.4	-60.5	3.6	0.00e+00	0	48	104	0	60	124622
2026-01-28 14:28:58.37	340.16	4.42	-56.4	-60.5	3.6	0.00e+00	0	48	104	0	60	125428
2026-01-28 14:28:59.38	340.01	4.36	-56.4	-60.5	3.6	0.00e+00	0	48	104	0	60	125440
2026-01-28 14:29:00.39	339.87	4.31	-56.4	-60.5	3.6	0.00e+00	0	48	104	0	60	125514
2026-01-28 14:29:01.39	339.73	4.25	-56.4	-60.5	3.6	0.00e+00	0	48	104	0	60	125051
2026-01-28 14:29:02.39	339.59	4.19	-56.4	-60.5	3.6	0.00e+00	0	48	104	0	60	125484
2026-01-28 14:29:03.40	339.45	4.14	-56.4	-60.6	3.6	0.00e+00	0	48	104	0	60	126312
2026-01-28 14:29:04.41	339.31	4.08	-56.4	-60.6	3.6	0.00e+00	0	48	104	0	60	126172
2026-01-28 14:29:05.42	339.17	4.02	-56.4	-60.5	3.6	0.00e+00	0	48	104	0	60	126025
2026-01-28 14:29:06.42	339.04	3.97	-56.5	-60.6	3.6	0.00e+00	0	48	104	0	60	126631
2026-01-28 14:29:07.43	338.90	3.91	-56.4	-60.6	3.6	0.00e+00	0	48	104	0	60	126971
2026-01-28 14:29:08.43	338.77	3.86	-56.4	-60.5	3.6	0.00e+00	0	48	104	0	60	125896
2026-01-28 14:29:09.44	338.63	3.80	-56.4	-60.6	3.6	0.00e+00	0	48	104	0	60	126381
2026-01-28 14:29:10.45	338.49	3.74	-56.4	-60.6	3.6	0.00e+00	0	48	104	0	60	126720
2026-01-28 14:29:11.46	338.36	3.69	-56.4	-60.5	3.5	0.00e+00	0	48	104	0	60	125850
2026-01-28 14:29:12.47	338.23	3.63	-56.4	-60.6	3.6	0.00e+00	0	48	104	0	60	127347
2026-01-28 14:29:13.47	338.09	3.57	-56.4	-60.6	3.6	0.00e+00	0	48	104	0	60	126686
2026-01-28 14:29:14.48	337.96	3.52	-56.4	-60.6	3.6	0.00e+00	0	48	104	0	60	126921
2026-01-28 14:29:15.48	337.83	3.46	-56.4	-60.7	3.6	0.00e+00	0	48	104	0	60	127544
2026-01-28 14:29:16.49	337.70	3.41	-56.4	-60.5	3.6	0.00e+00	0	48	104	0	60	126029
2026-01-28 14:29:17.49	337.57	3.35	-56.4	-60.6	3.6	0.00e+00	0	48	104	0	60	126940
2026-01-28 14:29:18.50	337.44	3.29	-56.5	-60.6	3.6	0.00e+00	0	48	104	0	60	126658
2026-01-28 14:29:19.50	337.31	3.24	-56.4	-60.6	3.6	0.00e+00	0	48	104	0	60	126487
2026-01-28 14:29:20.51	337.18	3.18	-56.4	-60.5	3.6	0.00e+00	0	48	104	0	60	125960
2026-01-28 14:29:21.52	337.06	3.13	-56.4	-60.5	3.6	0.00e+00	0	48	104	0	60	125740
2026-01-28 14:29:22.52	336.93	3.07	-56.3	-60.5	3.6	0.00e+00	0	48	104	0	60	125532
2026-01-28 14:29:23.53	336.80	3.01	-56.3	-60.5	3.6	0.00e+00	0	48	104	0	60	125980
2026-01-28 14:29:24.54	336.68	2.96	-56.4	-60.5	3.6	0.00e+00	0	48	104	0	60	125391
2026-01-28 14:29:25.55	336.55	2.90	-56.4	-60.5	3.6	0.00e+00	0	48	104	0	60	125543
2026-01-28 14:29:26.55	336.43	2.85	-56.4	-60.5	3.6	0.00e+00	0	48	104	0	60	125136
2026-01-28 14:29:27.56	336.30	2.79	-56.4	-60.5	3.6	0.00e+00	0	48	104	0	60	125063
2026-01-28 14:29:28.56	336.18	2.74	-56.4	-60.5	3.6	0.00e+00	0	48	104	0	60	125642
2026-01-28 14:29:29.57	336.06	2.68	-56.4	-60.5	3.6	0.00e+00	0	48	104	0	60	125591
2026-01-28 14:29:30.57	335.94	2.63	-56.4	-60.5	3.6	0.00e+00	0	48	104	0	60	125864
2026-01-28 14:29:31.57	335.82	2.57	-56.4	-60.5	3.6	0.00e+00	0	48	104	0	60	125880
2026-01-28 14:29:32.58	335.69	2.52	-56.3	-60.5	3.6	0.00e+00	0	48	104	0	60	125077
2026-01-28 14:29:33.58	335.58	2.46	-56.4	-60.5	3.6	0.00e+00	0	48	104	0	60	125308
2026-01-28 14:29:34.59	335.46	2.40	-56.4	-60.5	3.6	0.00e+00	0	48	104	0	60	124792
2026-01-28 14:29:35.59	335.34	2.35	-56.4	-60.5	3.6	0.00e+00	0	48	104	0	60	125822
2026-01-28 14:29:36.59	335.22	2.29	-56.4	-60.6	3.6	0.00e+00	0	48	104	0	60	126325
2026-01-28 14:29:37.59	335.10	2.24	-56.4	-60.5	3.6	0.00e+00	0	48	104	0	60	124946
2026-01-28 14:29:38.60	334.98	2.18	-56.4	-60.5	3.6	0.00e+00	0	48	104	0	60	125817
2026-01-28 14:29:39.60	334.87	2.13	-56.4	-60.6	3.6	0.00e+00	0	48	104	0	60	126258
2026-01-28 14:29:40.61	334.75	2.08	-56.4	-60.6	3.6	0.00e+00	0	48	104	0	60	126479
2026-01-28 14:29:41.62	334.64	2.02	-56.4	-60.5	3.6	0.00e+00	0	48	104	0	60	125879
2026-01-28 14:29:42.63	334.52	1.96	-56.5	-60.6	3.6	0.00e+00	0	48	104	0	60	126258
2026-01-28 14:29:43.64	334.41	1.91	-56.4	-60.5	3.6	0.00e+00	0	48	104	0	60	125537
2026-01-28 14:29:44.64	334.29	1.86	-56.4	-60.5	3.6	0.00e+00	0	48	104	0	60	125786
2026-01-28 14:29:45.65	334.18	1.80	-56.4	-60.5	3.5	0.00e+00	0	48	104	0	60	125449
2026-01-28 14:29:46.66	334.07	1.75	-56.4	-60.5	3.6	0.00e+00	0	48	104	0	60	125021
2026-01-28 14:29:47.67	333.95	1.69	-56.4	-60.5	3.6	0.00e+00	0	48	104	0	60	125086
2026-01-28 14:29:48.67	333.84	1.64	-56.4	-60.5	3.6	0.00e+00	0	48	104	0	60	125623
2026-01-28 14:29:49.67	333.73	1.58	-56.4	-60.5	3.6	0.00e+00	0	48	104	0	60	125953
2026-01-28 14:29:50.68	333.62	1.53	-56.4	-60.5	3.6	0.00e+00	0	48	104	0	60	126040
2026-01-28 14:29:51.69	333.51	1.47	-56.4	-60.5	3.6	0.00e+00	0	48	104	0	60	126043
2026-01-28 14:29:52.69	333.40	1.42	-56.4	-60.6	3.6	0.00e+00	0	48	104	0	60	126140
2026-01-28 14:29:53.70	333.29	1.36	-56.4	-60.5	3.6	0.00e+00	0	48	104	0	60	125420
2026-01-28 14:29:54.70	333.19	1.31	-56.3	-60.5	3.6	0.00e+00	0	48	104	0	60	125264
2026-01-28 14:29:55.71	333.08	1.26	-56.3	-60.5	3.6	0.00e+00	0	48	104	0	60	125308
2026-01-28 14:29:56.72	332.97	1.20	-56.3	-60.4	3.6	0.00e+00	0	48	104	0	60	124282
2026-01-28 14:29:57.73	332.86	1.15	-56.3	-60.5	3.6	0.00e+00	0	48	104	0	60	125785
2026-01-28 14:29:58.74	332.76	1.09	-56.3	-60.4	3.6	0.00e+00	0	48	104	0	60	124608
2026-01-28 14:29:59.74	332.65	1.04	-56.3	-60.5	3.6	0.00e+00	0	48	104	0	60	125514
2026-01-28 14:30:00.75	332.54	0.99	-56.3	-60.5	3.6	0.00e+00	0	48	104	0	60	124822
2026-01-28 14:30:01.76	332.44	0.93	-56.3	-60.5	3.6	0.00e+00	0	48	104	0	60	124707
2026-01-28 14:30:02.77	332.34	0.88	-56.2	-60.5	3.6	0.00e+00	0	48	104	0	60	125387
2026-01-28 14:30:03.77	332.23	0.82	-56.2	-60.4	3.6	0.00e+00	0	48	104	0	60	124549
2026-01-28 14:30:04.78	332.13	0.77	-56.2	-60.4	3.5	0.00e+00	0	48	104	0	60	123452
2026-01-28 14:30:05.79	332.03	0.72	-56.2	-60.4	3.6	0.00e+00	0	48	104	0	60	124503
2026-01-28 14:30:06.79	331.92	0.66	-56.3	-60.4	3.6	0.00e+00	0	48	104	0	60	124026
2026-01-28 14:30:07.80	331.82	0.61	-56.3	-60.4	3.6	0.00e+00	0	48	104	0	60	123976
2026-01-28 14:30:08.80	331.72	0.56	-56.2	-60.4	3.6	0.00e+00	0	48	104	0	60	123759
2026-01-28 14:30:09.81	331.62	0.50	-56.2	-60.4	3.6	0.00e+00	0	48	104	0	60	124201
2026-01-28 14:30:10.81	331.52	0.45	-56.2	-60.4	3.6	0.00e+00	0	48	104	0	60	124513
2026-01-28 14:30:11.82	331.42	0.40	-56.2	-60.4	3.6	0.00e+00	0	48	104	0	60	123652
2026-01-28 14:30:12.82	331.32	0.34	-56.2	-60.4	3.6	0.00e+00	0	48	104	0	60	123909
2026-01-28 14:30:13.83	331.22	0.29	-56.2	-60.4	3.6	0.00e+00	0	48	104	0	60	123514
2026-01-28 14:30:14.83	331.12	0.24	-56.3	-60.4	3.6	0.00e+00	0	48	104	0	60	124443
2026-01-28 14:30:15.84	331.03	0.18	-56.2	-60.4	3.6	0.00e+00	0	48	104	0	60	124274
2026-01-28 14:30:16.85	330.93	0.13	-56.2	-60.4	3.6	0.00e+00	0	48	104	0	60	123862
2026-01-28 14:30:17.86	330.83	0.08	-56.2	-60.4	3.6	0.00e+00	0	48	104	0	60	123191
2026-01-28 14:30:18.86	330.73	0.02	-56.2	-60.3	3.6	0.00e+00	0	48	104	0	60	122890
2026-01-28 14:30:19.87	330.64	-0.03	-56.2	-60.3	3.6	0.00e+00	0	48	104	0	60	122774
2026-01-28 14:30:20.88	330.54	-0.08	-56.2	-60.4	3.6	0.00e+00	0	48	104	0	60	123358

#Closed at: 2026-01-28 14:30:21
#Recorded file [0 MB]: D:/Data/35015_260128_172949.dat