passes_logs/2026/01/28/R3.2S-Naryan-Mar/R3.2S-Naryan-Mar__20260128_215738_NOAA_21_JPSS-2_rec.log

#Pass ID: 20260128_215738_NOAA 21 (JPSS-2)
#Satellite: NOAA 21 (JPSS-2)
#Configuration: NOAA-21
#almurnet v.1.7.20240730
#Start time: 2026-01-28 21:57:41

#Version: 2.2.20231116
#Station: R3.2S-Naryan-Mar
#Location: 53.008057 lon 67.646978 lat
#TLE: 1 54234U 22150A   26027.77052245  .00000166  00000+0  99439-4 0  9997
#TLE: 2 54234  98.7510 328.5165 0000872 203.6403 156.4733 14.19540252166628

#Time	Az	El	Level	Level2	SNR	BER	BlckErr	Temp	State	Recorded	gain1	gain2
2026-01-28 21:57:41.92	19.10	0.17	-60.6	-73.8	3.3	1.54e+00	0	45	0	0	60	185336
2026-01-28 21:57:42.92	19.14	0.23	-61.4	-75.7	3.5	1.52e+00	0	45	104	0	60	233098
2026-01-28 21:57:43.93	19.18	0.29	-60.7	-75.6	3.5	1.51e+00	0	45	104	0	60	230012
2026-01-28 21:57:44.94	19.22	0.35	-61.4	-75.8	3.5	1.52e+00	0	45	104	0	60	233322
2026-01-28 21:57:45.94	19.26	0.41	-61.9	-75.9	3.5	1.52e+00	0	45	104	0	60	237332
2026-01-28 21:57:46.95	19.29	0.46	-61.2	-75.6	3.5	1.52e+00	0	45	104	0	60	230237
2026-01-28 21:57:47.96	19.33	0.52	-61.6	-75.7	3.5	1.52e+00	0	45	104	0	60	233163
2026-01-28 21:57:48.97	19.37	0.58	-61.2	-75.2	3.5	1.52e+00	0	45	104	0	60	219818
2026-01-28 21:57:49.97	19.41	0.64	-61.1	-75.4	3.5	1.52e+00	0	45	104	0	60	223508
2026-01-28 21:57:50.97	19.45	0.70	-61.2	-75.2	3.5	1.51e+00	0	45	104	0	60	219376
2026-01-28 21:57:51.98	19.49	0.76	-60.8	-75.1	3.5	1.52e+00	0	45	104	0	60	216674
2026-01-28 21:57:52.98	19.53	0.81	-60.2	-74.6	3.5	1.51e+00	0	45	104	0	60	203996
2026-01-28 21:57:53.99	19.57	0.87	-57.8	-73.6	3.5	1.52e+00	0	45	104	0	60	181393
2026-01-28 21:57:55.00	19.60	0.93	-51.9	-69.9	3.7	1.51e+00	0	45	104	0	60	118671
2026-01-28 21:57:56.01	19.64	0.99	-59.5	-73.8	3.5	1.52e+00	0	45	104	0	60	185537
2026-01-28 21:57:57.01	19.68	1.05	-56.8	-72.5	3.6	1.51e+00	0	45	104	0	60	161055
2026-01-28 21:57:58.02	19.72	1.11	-55.1	-71.7	3.8	1.51e+00	0	45	104	0	60	145752
2026-01-28 21:57:59.03	19.76	1.17	-55.2	-71.7	3.7	1.51e+00	0	45	104	0	60	146152
2026-01-28 21:58:00.04	19.80	1.23	-55.1	-71.4	3.8	1.51e+00	0	45	104	0	60	141246
2026-01-28 21:58:01.05	19.84	1.29	-55.2	-71.4	3.8	1.51e+00	0	46	104	0	60	142131
2026-01-28 21:58:02.06	19.88	1.35	-55.1	-71.6	3.8	1.51e+00	0	46	104	0	60	144711
2026-01-28 21:58:03.07	19.92	1.41	-54.9	-71.8	3.7	1.51e+00	0	45	104	0	60	147543
2026-01-28 21:58:04.07	19.97	1.47	-54.9	-71.8	3.8	1.51e+00	0	45	104	0	60	147562
2026-01-28 21:58:05.08	20.01	1.53	-54.9	-71.0	3.8	1.51e+00	0	45	104	0	60	135614
2026-01-28 21:58:06.09	20.05	1.59	-54.8	-71.1	3.8	1.51e+00	0	45	104	0	60	136579
2026-01-28 21:58:07.10	20.09	1.65	-54.8	-71.2	3.8	1.51e+00	0	46	104	0	60	138087
2026-01-28 21:58:08.10	20.13	1.71	-54.8	-71.2	3.8	1.51e+00	0	46	104	0	60	137842
2026-01-28 21:58:09.10	20.17	1.77	-54.9	-71.2	3.8	1.51e+00	0	46	104	0	60	138674
2026-01-28 21:58:10.10	20.21	1.83	-55.0	-71.4	3.8	1.51e+00	0	45	104	0	60	140563
2026-01-28 21:58:11.10	20.25	1.89	-55.0	-71.4	3.8	1.51e+00	0	46	104	0	60	140676
2026-01-28 21:58:12.11	20.29	1.95	-54.9	-71.8	3.8	1.51e+00	0	46	104	0	60	147308
2026-01-28 21:58:13.10	20.34	2.01	-55.0	-71.8	3.8	1.51e+00	0	46	104	0	60	148599
2026-01-28 21:58:14.11	20.38	2.07	-55.0	-71.2	3.8	1.51e+00	0	46	104	0	60	138552
2026-01-28 21:58:15.11	20.42	2.13	-54.9	-71.1	3.8	1.51e+00	0	46	104	0	60	136319
2026-01-28 21:58:16.12	20.46	2.20	-54.9	-71.4	3.8	1.51e+00	0	46	104	0	60	141404
2026-01-28 21:58:17.12	20.50	2.26	-55.0	-71.4	3.8	1.51e+00	0	46	104	0	60	141626
2026-01-28 21:58:18.13	20.55	2.32	-55.0	-71.4	3.8	1.51e+00	0	46	104	0	60	140828
2026-01-28 21:58:19.14	20.59	2.38	-54.9	-71.2	3.8	1.51e+00	0	46	104	0	60	137923
2026-01-28 21:58:20.15	20.63	2.44	-55.0	-71.7	3.7	1.51e+00	0	46	104	0	60	147157
2026-01-28 21:58:21.15	20.68	2.50	-54.9	-71.7	3.8	1.51e+00	0	46	104	0	60	146394
2026-01-28 21:58:22.16	20.72	2.57	-54.8	-71.0	3.8	1.51e+00	0	46	104	0	60	135339
2026-01-28 21:58:23.17	20.76	2.63	-54.9	-71.4	3.8	1.51e+00	0	46	104	0	60	140830
2026-01-28 21:58:24.17	20.81	2.69	-54.8	-71.1	3.8	1.51e+00	0	46	104	0	60	136474
2026-01-28 21:58:25.18	20.85	2.75	-54.8	-71.2	3.8	1.51e+00	0	46	104	0	60	138757
2026-01-28 21:58:26.18	20.89	2.82	-54.9	-71.2	3.8	1.51e+00	0	46	104	0	60	138218
2026-01-28 21:58:27.19	20.94	2.88	-54.9	-71.4	3.8	1.51e+00	0	46	104	0	60	141164
2026-01-28 21:58:28.19	20.98	2.94	-54.8	-71.0	3.8	1.51e+00	0	46	104	0	60	135488
2026-01-28 21:58:29.20	21.03	3.01	-55.0	-71.7	3.8	1.51e+00	0	46	104	0	60	146986
2026-01-28 21:58:30.20	21.07	3.07	-54.9	-71.6	3.8	1.51e+00	0	46	104	0	60	145274
2026-01-28 21:58:31.21	21.12	3.13	-54.9	-71.2	3.8	1.51e+00	0	46	104	0	60	138778
2026-01-28 21:58:32.21	21.16	3.19	-55.0	-71.2	3.8	1.51e+00	0	46	104	0	60	138011
2026-01-28 21:58:33.22	21.21	3.26	-54.9	-71.0	3.8	1.51e+00	0	46	104	0	60	135284
2026-01-28 21:58:34.23	21.25	3.32	-54.9	-71.0	3.8	1.51e+00	0	46	104	0	60	135116
2026-01-28 21:58:35.23	21.30	3.39	-55.0	-71.2	3.8	1.51e+00	0	46	104	0	60	138104
2026-01-28 21:58:36.24	21.34	3.45	-54.9	-71.3	3.8	1.51e+00	0	46	104	0	60	139753
2026-01-28 21:58:37.25	21.39	3.51	-54.9	-71.7	3.7	1.51e+00	0	46	104	0	60	146016
2026-01-28 21:58:38.25	21.43	3.58	-54.9	-71.1	3.8	1.51e+00	0	46	104	0	60	135987
2026-01-28 21:58:39.26	21.48	3.64	-54.8	-71.0	3.8	1.51e+00	0	46	104	0	60	135450
2026-01-28 21:58:40.27	21.53	3.71	-54.8	-71.0	3.8	1.51e+00	0	46	104	0	60	134612
2026-01-28 21:58:41.28	21.57	3.77	-54.8	-71.3	3.8	1.51e+00	0	46	104	0	60	140182
2026-01-28 21:58:42.28	21.62	3.84	-54.8	-71.0	3.8	1.51e+00	0	46	104	0	60	134317
2026-01-28 21:58:43.28	21.67	3.90	-54.8	-71.6	3.8	1.51e+00	0	46	104	0	60	144232
2026-01-28 21:58:44.29	21.71	3.97	-54.8	-71.0	3.8	1.51e+00	0	46	104	0	60	135386
2026-01-28 21:58:45.29	21.76	4.03	-54.9	-71.0	3.8	1.51e+00	0	46	104	0	60	134659
2026-01-28 21:58:46.30	21.81	4.10	-54.8	-71.1	3.8	1.51e+00	0	46	104	0	60	135921
2026-01-28 21:58:47.31	21.86	4.16	-54.9	-71.6	3.8	1.51e+00	0	46	104	0	60	145148
2026-01-28 21:58:48.31	21.90	4.23	-54.9	-71.1	3.8	1.51e+00	0	46	104	0	60	135832
2026-01-28 21:58:49.32	21.95	4.29	-54.9	-71.2	3.8	1.51e+00	0	46	104	0	60	138684
2026-01-28 21:58:50.32	22.00	4.36	-54.9	-71.2	3.8	1.51e+00	0	46	104	0	60	137402
2026-01-28 21:58:51.32	22.05	4.42	-55.0	-71.3	3.8	1.51e+00	0	46	104	0	60	139205
2026-01-28 21:58:52.33	22.10	4.49	-54.9	-71.1	3.8	1.51e+00	0	46	104	0	60	136837
2026-01-28 21:58:53.34	22.15	4.56	-55.0	-71.1	3.8	1.51e+00	0	46	104	0	60	136062
2026-01-28 21:58:54.35	22.20	4.62	-54.9	-71.6	3.7	1.51e+00	0	46	104	0	60	144940
2026-01-28 21:58:55.36	22.25	4.69	-54.9	-71.6	3.8	1.51e+00	0	46	104	0	60	144479
2026-01-28 21:58:56.36	22.30	4.76	-54.9	-71.3	3.8	1.51e+00	0	46	104	0	60	138973
2026-01-28 21:58:57.37	22.34	4.83	-54.9	-71.1	3.8	1.51e+00	0	46	104	0	60	135783
2026-01-28 21:58:58.37	22.39	4.89	-54.9	-71.1	3.8	1.51e+00	0	46	104	0	60	137005
2026-01-28 21:58:59.38	22.44	4.96	-55.0	-71.3	3.7	1.51e+00	0	46	104	0	60	139564
2026-01-28 21:59:00.39	22.50	5.03	-54.9	-71.3	3.8	1.51e+00	0	46	104	0	60	140028
2026-01-28 21:59:01.39	22.55	5.09	-54.9	-71.0	3.8	1.51e+00	0	46	104	0	60	134382
2026-01-28 21:59:02.40	22.60	5.16	-54.8	-70.9	3.8	1.51e+00	0	46	104	0	60	133967
2026-01-28 21:59:03.40	22.65	5.23	-54.9	-71.6	3.8	1.51e+00	0	46	104	0	60	144333
2026-01-28 21:59:04.41	22.70	5.30	-54.8	-71.6	3.8	1.51e+00	0	46	104	0	60	144504
2026-01-28 21:59:05.42	22.75	5.37	-54.8	-71.0	3.8	1.51e+00	0	46	104	0	60	135396
2026-01-28 21:59:06.43	22.80	5.44	-54.7	-71.1	3.8	1.51e+00	0	46	104	0	60	136695
2026-01-28 21:59:07.44	22.85	5.50	-54.7	-71.1	3.8	1.51e+00	0	46	104	0	60	136527
2026-01-28 21:59:08.44	22.91	5.57	-54.9	-71.1	3.8	1.51e+00	0	46	104	0	60	136864
2026-01-28 21:59:09.45	22.96	5.64	-54.6	-71.0	3.8	1.51e+00	0	46	104	0	60	134713
2026-01-28 21:59:10.46	23.01	5.71	-54.6	-70.9	3.8	1.51e+00	0	46	104	0	60	133300
2026-01-28 21:59:11.47	23.06	5.78	-54.7	-71.0	3.8	1.51e+00	0	46	104	0	60	134277
2026-01-28 21:59:12.48	23.12	5.85	-54.7	-71.4	3.8	1.51e+00	0	46	104	0	60	142131
2026-01-28 21:59:13.48	23.17	5.92	-54.8	-70.9	3.8	1.51e+00	0	46	104	0	60	133568
2026-01-28 21:59:14.49	23.22	5.99	-54.7	-70.9	3.8	1.51e+00	0	46	104	0	60	133906
2026-01-28 21:59:15.49	23.28	6.06	-53.8	-70.1	3.9	1.51e+00	0	46	104	0	60	121918
2026-01-28 21:59:16.50	23.33	6.13	-58.4	-73.5	3.5	1.52e+00	0	46	104	0	60	179535
2026-01-28 21:59:17.50	23.38	6.20	-59.2	-73.7	3.5	1.52e+00	0	46	104	0	60	184531
2026-01-28 21:59:18.51	23.44	6.27	-55.0	-71.4	3.6	1.51e+00	0	46	104	0	60	140653
2026-01-28 21:59:19.52	23.49	6.34	-56.7	-72.0	3.6	1.51e+00	0	46	104	0	60	151812
2026-01-28 21:59:20.52	23.55	6.41	-56.7	-73.0	3.6	1.51e+00	0	46	104	0	60	170594
2026-01-28 21:59:21.53	23.60	6.48	-56.5	-72.3	3.6	1.51e+00	0	46	104	0	60	157187
2026-01-28 21:59:22.54	23.66	6.55	-56.2	-72.6	3.6	1.51e+00	0	46	104	0	60	163224
2026-01-28 21:59:23.55	23.71	6.62	-56.3	-71.7	3.7	1.51e+00	0	46	104	0	60	146895
2026-01-28 21:59:24.56	23.77	6.70	-55.4	-72.7	3.6	1.51e+00	0	46	104	0	60	164704
2026-01-28 21:59:25.57	23.83	6.77	-59.3	-73.8	3.5	1.51e+00	0	46	104	0	60	186103
2026-01-28 21:59:26.58	23.88	6.84	-56.0	-71.8	3.6	1.51e+00	0	46	104	0	60	147616
2026-01-28 21:59:27.58	23.94	6.91	-57.2	-72.9	3.7	1.51e+00	0	46	104	0	60	167715
2026-01-28 21:59:28.59	24.00	6.98	-56.3	-72.2	3.6	1.51e+00	0	46	104	0	60	154289
2026-01-28 21:59:29.60	24.05	7.06	-56.6	-72.5	3.7	1.51e+00	0	46	104	0	60	160949
2026-01-28 21:59:30.61	24.11	7.13	-56.8	-72.3	3.6	1.51e+00	0	46	104	0	60	157193
2026-01-28 21:59:31.61	24.17	7.20	-58.5	-72.8	3.5	1.51e+00	0	46	104	0	60	165626
2026-01-28 21:59:32.61	24.23	7.27	-55.8	-72.8	3.6	1.51e+00	0	46	104	0	60	166969
2026-01-28 21:59:33.62	24.28	7.35	-58.7	-73.2	3.5	1.52e+00	0	46	104	0	60	173173
2026-01-28 21:59:34.62	24.34	7.42	-59.7	-74.3	3.5	1.52e+00	0	46	104	0	60	196400
2026-01-28 21:59:35.62	24.40	7.49	-59.1	-73.4	3.5	1.52e+00	0	46	104	0	60	178131
2026-01-28 21:59:36.63	24.46	7.57	-58.8	-73.1	3.5	1.52e+00	0	46	104	0	60	171469
2026-01-28 21:59:37.64	24.52	7.64	-55.7	-71.7	3.7	1.51e+00	0	46	104	0	60	147120
2026-01-28 21:59:38.65	24.58	7.71	-55.2	-71.5	3.7	1.51e+00	0	46	104	0	60	142487
2026-01-28 21:59:39.65	24.64	7.79	-57.4	-73.5	3.5	1.51e+00	0	46	104	0	60	179942
2026-01-28 21:59:40.66	24.70	7.86	-60.2	-74.3	3.5	1.52e+00	0	46	104	0	60	196644
2026-01-28 21:59:41.67	24.76	7.94	-60.1	-74.0	3.5	1.52e+00	0	46	104	0	60	190444
2026-01-28 21:59:42.67	24.82	8.01	-58.6	-73.2	3.5	1.52e+00	0	46	104	0	60	174017
2026-01-28 21:59:43.68	24.88	8.09	-56.7	-72.4	3.6	1.51e+00	0	47	104	0	60	159178
2026-01-28 21:59:44.69	24.94	8.16	-58.8	-74.2	3.5	1.52e+00	0	46	104	0	60	195896
2026-01-28 21:59:45.69	25.00	8.24	-59.3	-73.9	3.5	1.52e+00	0	47	104	0	60	189461
2026-01-28 21:59:46.70	25.06	8.31	-59.4	-73.8	3.5	1.52e+00	0	46	104	0	60	185929
2026-01-28 21:59:47.70	25.13	8.39	-59.5	-73.6	3.5	1.52e+00	0	46	104	0	60	183055
2026-01-28 21:59:48.71	25.19	8.47	-59.3	-73.5	3.5	1.52e+00	0	46	104	0	60	179669
2026-01-28 21:59:49.71	25.25	8.54	-59.3	-73.4	3.5	1.51e+00	0	46	104	0	60	177047
2026-01-28 21:59:50.72	25.31	8.62	-58.5	-73.4	3.5	1.52e+00	0	46	104	0	60	177947
2026-01-28 21:59:51.72	25.38	8.69	-57.4	-73.4	3.5	1.52e+00	0	46	104	0	60	177696
2026-01-28 21:59:52.73	25.44	8.77	-59.7	-72.9	3.5	1.51e+00	0	46	104	0	60	168110
2026-01-28 21:59:53.73	25.50	8.85	-60.1	-73.5	3.5	1.52e+00	0	46	104	0	60	179585
2026-01-28 21:59:54.74	25.57	8.93	-60.2	-73.5	3.5	1.51e+00	0	46	104	0	60	178982
2026-01-28 21:59:55.75	25.63	9.00	-59.6	-73.8	3.5	1.52e+00	0	46	104	0	60	186718
2026-01-28 21:59:56.76	25.70	9.08	-59.6	-73.2	3.5	1.52e+00	0	46	104	0	60	174396
2026-01-28 21:59:57.77	25.76	9.16	-58.5	-73.1	3.5	1.51e+00	0	47	104	0	60	171397
2026-01-28 21:59:58.78	25.83	9.24	-59.2	-73.2	3.5	1.52e+00	0	46	104	0	60	174188
2026-01-28 21:59:59.78	25.90	9.32	-58.9	-74.2	3.5	1.51e+00	0	46	104	0	60	195562
2026-01-28 22:00:00.79	25.96	9.39	-57.7	-73.8	3.5	1.51e+00	0	46	104	0	60	187354
2026-01-28 22:00:01.80	26.03	9.47	-59.8	-74.2	3.5	1.52e+00	0	46	104	0	60	194708
2026-01-28 22:00:02.81	26.10	9.55	-59.6	-74.2	3.5	1.52e+00	0	46	104	0	60	194268
2026-01-28 22:00:03.81	26.16	9.63	-59.2	-74.0	3.5	1.52e+00	0	46	104	0	60	190166
2026-01-28 22:00:04.82	26.23	9.71	-59.9	-73.9	3.5	1.52e+00	0	47	104	0	60	188638
2026-01-28 22:00:05.82	26.30	9.79	-59.3	-74.2	3.5	1.52e+00	0	47	104	0	60	194147
2026-01-28 22:00:06.83	26.37	9.87	-58.6	-73.3	3.5	1.52e+00	0	46	104	0	60	176875
2026-01-28 22:00:07.83	26.43	9.95	-58.2	-73.7	3.5	1.51e+00	0	47	104	0	60	184537
2026-01-28 22:00:08.84	26.50	10.03	-58.1	-74.0	3.5	1.51e+00	0	47	104	0	60	190377
2026-01-28 22:00:09.85	26.57	10.11	-58.8	-73.9	3.5	1.51e+00	0	46	104	0	60	189297
2026-01-28 22:00:10.85	26.64	10.19	-59.4	-74.0	3.5	1.51e+00	0	46	104	0	60	190126
2026-01-28 22:00:11.86	26.71	10.27	-59.4	-73.7	3.6	1.51e+00	0	47	104	0	60	183384
2026-01-28 22:00:12.86	26.78	10.35	-59.3	-73.6	3.5	1.52e+00	0	46	104	0	60	182589
2026-01-28 22:00:13.87	26.85	10.44	-59.2	-73.7	3.5	1.51e+00	0	47	104	0	60	184564
2026-01-28 22:00:14.88	26.92	10.52	-59.7	-74.2	3.5	1.52e+00	0	47	104	0	60	195853
2026-01-28 22:00:15.88	27.00	10.60	-58.8	-73.1	3.6	1.52e+00	0	46	104	0	60	172745
2026-01-28 22:00:16.89	27.07	10.68	-57.9	-73.3	3.6	1.51e+00	0	47	104	0	60	175297
2026-01-28 22:00:17.90	27.14	10.76	-58.6	-73.4	3.5	1.51e+00	0	47	104	0	60	178442
2026-01-28 22:00:18.90	27.21	10.85	-59.3	-74.1	3.5	1.52e+00	0	47	104	0	60	193596
2026-01-28 22:00:19.90	27.28	10.93	-57.7	-73.7	3.5	1.52e+00	0	47	104	0	60	184605
2026-01-28 22:00:20.91	27.36	11.01	-59.8	-73.5	3.5	1.52e+00	0	47	104	0	60	179911
2026-01-28 22:00:21.92	27.43	11.10	-58.4	-72.5	3.6	1.52e+00	0	47	104	0	60	160754
2026-01-28 22:00:22.93	27.51	11.18	-58.0	-73.7	3.5	1.52e+00	0	47	104	0	60	184493
2026-01-28 22:00:23.93	27.58	11.26	-58.7	-73.3	3.5	1.52e+00	0	47	104	0	60	176671
2026-01-28 22:00:24.94	27.66	11.35	-59.4	-73.9	3.5	1.52e+00	0	47	104	0	60	188676
2026-01-28 22:00:25.94	27.73	11.43	-58.3	-73.1	3.6	1.51e+00	0	47	104	0	60	172464
2026-01-28 22:00:26.95	27.81	11.52	-58.2	-73.0	3.6	1.51e+00	0	46	104	0	60	170389
2026-01-28 22:00:27.96	27.88	11.60	-58.2	-72.6	3.5	1.51e+00	0	47	104	0	60	161644
2026-01-28 22:00:28.96	27.96	11.69	-57.2	-72.5	3.6	1.52e+00	0	46	104	0	60	161205
2026-01-28 22:00:29.97	28.04	11.77	-57.6	-72.6	3.5	1.51e+00	0	46	104	0	60	161998
2026-01-28 22:00:30.97	28.11	11.86	-59.7	-73.8	3.5	1.52e+00	0	47	104	0	60	187132
2026-01-28 22:00:31.98	28.19	11.94	-57.9	-73.6	3.5	1.51e+00	0	47	104	0	60	182237
2026-01-28 22:00:32.99	28.27	12.03	-59.6	-73.1	3.5	1.52e+00	0	46	104	0	60	172519
2026-01-28 22:00:34.00	28.35	12.12	-58.6	-72.3	3.5	1.51e+00	0	47	104	0	60	157588
2026-01-28 22:00:35.01	28.43	12.20	-57.9	-72.2	3.5	1.51e+00	0	47	104	0	60	154608
2026-01-28 22:00:36.01	28.51	12.29	-59.2	-73.8	3.5	1.51e+00	0	47	104	0	60	185835
2026-01-28 22:00:37.02	28.59	12.38	-58.0	-72.9	3.7	1.52e+00	0	47	104	0	60	168843
2026-01-28 22:00:38.02	28.67	12.46	-57.5	-72.2	3.6	1.51e+00	0	47	104	0	60	155011
2026-01-28 22:00:39.02	28.75	12.55	-59.5	-73.9	3.5	1.51e+00	0	47	104	0	60	188272
2026-01-28 22:00:40.03	28.83	12.64	-57.7	-72.9	3.5	1.51e+00	0	47	104	0	60	167236
2026-01-28 22:00:41.04	28.91	12.73	-57.5	-72.2	3.6	1.51e+00	0	47	104	0	60	154928
2026-01-28 22:00:42.04	28.99	12.82	-57.5	-72.0	3.6	1.51e+00	0	47	104	0	60	151331
2026-01-28 22:00:43.05	29.08	12.90	-57.1	-71.8	3.6	1.51e+00	0	47	104	0	60	147174
2026-01-28 22:00:44.06	29.16	12.99	-56.7	-73.4	3.6	1.52e+00	0	46	104	0	60	178424
2026-01-28 22:00:45.06	29.24	13.08	-58.5	-72.6	3.5	1.52e+00	0	47	104	0	60	163218
2026-01-28 22:00:46.07	29.33	13.17	-59.5	-74.0	3.5	1.51e+00	0	47	104	0	60	191336
2026-01-28 22:00:47.08	29.41	13.26	-60.4	-74.5	3.5	1.52e+00	0	46	104	0	60	201147
2026-01-28 22:00:48.09	29.50	13.35	-57.0	-72.1	3.6	1.51e+00	0	47	104	0	60	153419
2026-01-28 22:00:49.09	29.58	13.44	-56.8	-71.5	3.6	1.51e+00	0	47	104	0	60	143674
2026-01-28 22:00:50.10	29.67	13.53	-56.9	-72.1	3.6	1.51e+00	0	47	104	0	60	153626
2026-01-28 22:00:51.11	29.76	13.63	-56.6	-72.0	3.6	1.51e+00	0	47	104	0	60	150840
2026-01-28 22:00:52.12	29.84	13.72	-59.3	-73.7	3.5	1.52e+00	0	47	104	0	60	184493
2026-01-28 22:00:53.12	29.93	13.81	-59.8	-73.4	3.5	1.51e+00	0	47	104	0	60	178502
2026-01-28 22:00:54.12	30.02	13.90	-59.5	-74.2	3.5	1.51e+00	0	47	104	0	60	195933
2026-01-28 22:00:55.12	30.11	13.99	-60.1	-74.3	3.5	1.52e+00	0	47	104	0	60	198322
2026-01-28 22:00:56.13	30.19	14.08	-58.1	-73.3	3.5	1.51e+00	0	47	104	0	60	175467
2026-01-28 22:00:57.13	30.28	14.18	-56.6	-72.8	3.5	1.51e+00	0	47	104	0	60	166059
2026-01-28 22:00:58.14	30.37	14.27	-58.9	-73.2	3.5	1.51e+00	0	47	104	0	60	172962
2026-01-28 22:00:59.14	30.46	14.36	-59.9	-73.1	3.5	1.51e+00	0	47	104	0	60	172437
2026-01-28 22:01:00.15	30.56	14.46	-60.2	-74.4	3.5	1.51e+00	0	47	104	0	60	199630
2026-01-28 22:01:01.15	30.65	14.55	-59.4	-73.3	3.5	1.52e+00	0	47	104	0	60	174982
2026-01-28 22:01:02.15	30.74	14.64	-60.1	-74.4	3.5	1.52e+00	0	46	104	0	60	199332
2026-01-28 22:01:03.16	30.83	14.74	-57.7	-73.2	3.6	1.51e+00	0	46	104	0	60	173307
2026-01-28 22:01:04.17	30.93	14.83	-59.9	-73.4	3.5	1.52e+00	0	47	104	0	60	177636
2026-01-28 22:01:05.18	31.02	14.93	-59.9	-73.4	3.5	1.52e+00	0	47	104	0	60	178926
2026-01-28 22:01:06.18	31.11	15.02	-59.9	-73.3	3.5	1.51e+00	0	47	104	0	60	174973
2026-01-28 22:01:07.19	31.21	15.12	-59.4	-73.3	3.5	1.52e+00	0	47	104	0	60	175024
2026-01-28 22:01:08.20	31.31	15.22	-58.9	-74.0	3.5	1.51e+00	0	47	104	0	60	190306
2026-01-28 22:01:09.21	31.40	15.31	-58.5	-73.2	3.5	1.52e+00	0	47	104	0	60	174611
2026-01-28 22:01:10.21	31.50	15.41	-60.2	-74.4	3.5	1.52e+00	0	47	104	0	60	199815
2026-01-28 22:01:11.22	31.60	15.51	-58.7	-74.5	3.5	1.52e+00	0	47	104	0	60	203097
2026-01-28 22:01:12.22	31.70	15.60	-59.6	-73.6	3.5	1.51e+00	0	47	104	0	60	182003
2026-01-28 22:01:13.23	31.79	15.70	-59.9	-73.1	3.5	1.52e+00	0	47	104	0	60	172739
2026-01-28 22:01:14.24	31.89	15.80	-59.0	-73.1	3.5	1.51e+00	0	47	104	0	60	172515
2026-01-28 22:01:15.24	31.99	15.90	-58.2	-72.9	3.5	1.52e+00	0	47	104	0	60	167157
2026-01-28 22:01:16.24	32.09	16.00	-58.6	-74.3	3.6	1.51e+00	0	47	104	0	60	197906
2026-01-28 22:01:17.25	32.20	16.10	-56.4	-73.4	3.6	1.51e+00	0	47	104	0	60	178516
2026-01-28 22:01:18.26	32.30	16.20	-57.5	-72.2	3.6	1.51e+00	0	47	104	0	60	155180
2026-01-28 22:01:19.26	32.40	16.29	-58.6	-73.7	3.5	1.52e+00	0	47	104	0	60	183966
2026-01-28 22:01:20.27	32.50	16.39	-60.1	-74.5	3.5	1.52e+00	0	47	104	0	60	202830
2026-01-28 22:01:21.28	32.61	16.49	-59.5	-73.8	3.5	1.51e+00	0	47	104	0	60	185935
2026-01-28 22:01:22.28	32.71	16.59	-59.0	-74.0	3.5	1.52e+00	0	47	104	0	60	190599
2026-01-28 22:01:23.29	32.82	16.70	-58.7	-74.0	3.5	1.52e+00	0	47	104	0	60	190151
2026-01-28 22:01:24.30	32.92	16.80	-55.1	-73.6	3.6	1.51e+00	0	47	104	0	60	181104
2026-01-28 22:01:25.30	33.03	16.90	-56.8	-73.1	3.5	1.52e+00	0	47	104	0	60	172141
2026-01-28 22:01:26.30	33.14	17.00	-59.1	-74.0	3.5	1.52e+00	0	47	104	0	60	190889
2026-01-28 22:01:27.31	33.24	17.10	-56.2	-72.9	3.6	1.51e+00	0	47	104	0	60	168813
2026-01-28 22:01:28.32	33.35	17.21	-56.8	-73.4	3.6	1.51e+00	0	47	104	0	60	178710
2026-01-28 22:01:29.32	33.46	17.31	-57.1	-73.3	3.6	1.52e+00	0	47	104	0	60	176801
2026-01-28 22:01:30.33	33.57	17.41	-57.7	-73.2	3.6	1.51e+00	0	47	104	0	60	172911
2026-01-28 22:01:31.34	33.68	17.52	-58.0	-73.3	3.6	1.51e+00	0	47	104	0	60	175154
2026-01-28 22:01:32.34	33.79	17.62	-59.3	-73.9	3.5	1.52e+00	0	47	104	0	60	189550
2026-01-28 22:01:33.35	33.91	17.72	-59.6	-74.0	3.5	1.52e+00	0	47	104	0	60	190300
2026-01-28 22:01:34.35	34.02	17.83	-60.1	-73.8	3.5	1.52e+00	0	47	104	0	60	186658
2026-01-28 22:01:35.35	34.13	17.93	-56.8	-73.0	3.6	1.51e+00	0	47	104	0	60	170205
2026-01-28 22:01:36.36	34.25	18.04	-59.3	-73.7	3.5	1.52e+00	0	47	104	0	60	185088
2026-01-28 22:01:37.37	34.36	18.14	-57.7	-73.0	3.6	1.52e+00	0	47	104	0	60	169133
2026-01-28 22:01:38.38	34.48	18.25	-57.4	-72.6	3.6	1.51e+00	0	47	104	0	60	162111
2026-01-28 22:01:39.39	34.60	18.36	-57.1	-72.0	3.6	1.51e+00	0	47	104	0	60	151159
2026-01-28 22:01:40.40	34.72	18.46	-55.6	-72.8	3.6	1.51e+00	0	47	104	0	60	165749
2026-01-28 22:01:41.40	34.83	18.57	-58.8	-74.0	3.5	1.52e+00	0	47	104	0	60	190459
2026-01-28 22:01:42.41	34.95	18.68	-56.6	-73.5	3.5	1.52e+00	0	47	104	0	60	179704
2026-01-28 22:01:43.41	35.07	18.78	-58.5	-72.7	3.6	1.51e+00	0	47	104	0	60	164463
2026-01-28 22:01:44.42	35.19	18.89	-52.1	-69.0	4.1	1.50e+00	0	47	104	0	60	107757
2026-01-28 22:01:45.43	35.32	19.00	-51.7	-69.0	4.2	1.50e+00	0	47	104	0	60	107617
2026-01-28 22:01:46.43	35.44	19.11	-52.4	-68.5	4.1	1.50e+00	0	47	104	0	60	101035
2026-01-28 22:01:47.43	35.56	19.22	-52.3	-70.6	4.0	1.50e+00	0	47	104	0	60	129364
2026-01-28 22:01:48.43	35.68	19.33	-54.2	-70.2	3.9	1.51e+00	0	47	104	0	60	122475
2026-01-28 22:01:49.43	35.81	19.44	-55.9	-71.1	3.8	1.51e+00	0	47	104	0	60	136802
2026-01-28 22:01:50.44	35.93	19.55	-58.8	-73.8	3.5	1.52e+00	0	47	104	0	60	186904
2026-01-28 22:01:51.45	36.06	19.66	-53.9	-71.8	3.7	1.51e+00	0	47	104	0	60	148336
2026-01-28 22:01:52.45	36.19	19.77	-56.6	-72.3	3.7	1.51e+00	0	47	104	0	60	156360
2026-01-28 22:01:53.46	36.32	19.88	-56.4	-72.3	3.6	1.51e+00	0	46	104	0	60	156359
2026-01-28 22:01:54.47	36.45	19.99	-57.9	-73.0	3.6	1.51e+00	0	47	104	0	60	169667
2026-01-28 22:01:55.48	36.58	20.10	-59.5	-73.6	3.5	1.52e+00	0	47	104	0	60	182236
2026-01-28 22:01:56.48	36.71	20.22	-59.2	-74.2	3.5	1.52e+00	0	47	104	0	60	195067
2026-01-28 22:01:57.49	36.84	20.33	-55.7	-71.8	3.6	1.51e+00	0	47	104	0	60	147557
2026-01-28 22:01:58.50	36.98	20.44	-60.2	-74.2	3.5	1.51e+00	0	47	104	0	60	195200
2026-01-28 22:01:59.50	37.11	20.56	-55.2	-73.0	3.6	1.52e+00	0	47	104	0	60	170050
2026-01-28 22:02:00.50	37.24	20.67	-54.7	-71.6	3.8	1.51e+00	0	47	104	0	60	145105
2026-01-28 22:02:01.50	37.38	20.78	-54.9	-71.6	3.8	1.51e+00	0	47	104	0	60	145449
2026-01-28 22:02:02.50	37.52	20.90	-54.5	-71.5	3.8	1.51e+00	0	47	104	0	60	143377
2026-01-28 22:02:03.51	37.65	21.01	-54.0	-71.8	3.8	1.51e+00	0	47	104	0	60	147205
2026-01-28 22:02:04.51	37.79	21.13	-58.7	-72.8	3.5	1.51e+00	0	47	104	0	60	166718
2026-01-28 22:02:05.52	37.93	21.24	-60.7	-74.4	3.5	1.51e+00	0	47	104	0	60	200566
2026-01-28 22:02:06.53	38.07	21.36	-59.5	-73.1	3.5	1.51e+00	0	47	104	0	60	172184
2026-01-28 22:02:07.54	38.22	21.48	-57.5	-73.9	3.6	1.51e+00	0	47	104	0	60	188034
2026-01-28 22:02:08.54	38.36	21.59	-57.0	-72.9	3.6	1.52e+00	0	47	104	0	60	167258
2026-01-28 22:02:09.55	38.50	21.71	-56.1	-72.1	3.6	1.51e+00	0	47	104	0	60	153919
2026-01-28 22:02:10.56	38.65	21.83	-58.1	-73.3	3.6	1.51e+00	0	47	104	0	60	176090
2026-01-28 22:02:11.57	38.80	21.95	-58.7	-73.8	3.5	1.52e+00	0	47	104	0	60	186880
2026-01-28 22:02:12.58	38.94	22.06	-58.5	-73.1	3.5	1.51e+00	0	47	104	0	60	171844
2026-01-28 22:02:13.59	39.09	22.18	-60.2	-73.6	3.5	1.51e+00	0	47	104	0	60	182800
2026-01-28 22:02:14.59	39.24	22.30	-57.9	-73.6	3.5	1.52e+00	0	47	104	0	60	181960
2026-01-28 22:02:15.60	39.39	22.42	-58.5	-74.0	3.5	1.52e+00	0	47	104	0	60	190224
2026-01-28 22:02:16.61	39.55	22.54	-57.2	-72.3	3.6	1.51e+00	0	47	104	0	60	156447
2026-01-28 22:02:17.61	39.70	22.66	-55.2	-71.8	3.7	1.51e+00	0	47	104	0	60	148357
2026-01-28 22:02:18.61	39.85	22.78	-55.4	-71.6	3.7	1.51e+00	0	47	104	0	60	145111
2026-01-28 22:02:19.62	40.01	22.90	-55.5	-72.0	3.6	1.51e+00	0	46	104	0	60	151869
2026-01-28 22:02:20.63	40.16	23.02	-56.1	-73.3	3.5	1.51e+00	0	47	104	0	60	175933
2026-01-28 22:02:21.63	40.32	23.14	-55.1	-71.7	3.6	1.51e+00	0	47	104	0	60	145631
2026-01-28 22:02:22.63	40.48	23.27	-55.6	-72.3	3.6	1.51e+00	0	47	104	0	60	156088
2026-01-28 22:02:23.63	40.64	23.39	-54.5	-71.9	3.7	1.52e+00	0	47	104	0	60	150319
2026-01-28 22:02:24.64	40.80	23.51	-55.8	-70.8	3.6	1.51e+00	0	47	104	0	60	132646
2026-01-28 22:02:25.65	40.96	23.63	-55.7	-70.5	3.6	1.51e+00	0	47	104	0	60	128111
2026-01-28 22:02:26.66	41.13	23.76	-54.6	-70.8	3.6	1.51e+00	0	47	104	0	60	131186
2026-01-28 22:02:27.67	41.29	23.88	-56.5	-72.8	3.6	1.51e+00	0	47	104	0	60	165255
2026-01-28 22:02:28.67	41.46	24.01	-54.8	-71.3	3.6	1.51e+00	0	47	104	0	60	140407
2026-01-28 22:02:29.68	41.63	24.13	-55.8	-71.7	3.6	1.51e+00	0	47	104	0	60	146695
2026-01-28 22:02:30.69	41.80	24.26	-60.7	-74.4	3.5	1.52e+00	0	47	104	0	60	199151
2026-01-28 22:02:31.70	41.97	24.38	-60.4	-74.0	3.5	1.52e+00	0	47	104	0	60	190489
2026-01-28 22:02:32.70	42.14	24.51	-54.6	-71.9	3.8	1.51e+00	0	47	104	0	60	150074
2026-01-28 22:02:33.71	42.31	24.63	-55.5	-72.2	3.8	1.51e+00	0	47	104	0	60	154532
2026-01-28 22:02:34.72	42.49	24.76	-56.2	-72.6	3.6	1.51e+00	0	47	104	0	60	162843
2026-01-28 22:02:35.72	42.66	24.88	-60.0	-74.1	3.5	1.51e+00	0	47	104	0	60	192698
2026-01-28 22:02:36.73	42.84	25.01	-58.8	-73.0	3.5	1.51e+00	0	47	104	0	60	169375
2026-01-28 22:02:37.73	43.01	25.14	-58.8	-72.9	3.5	1.51e+00	0	47	104	0	60	167656
2026-01-28 22:02:38.74	43.20	25.27	-56.9	-73.3	3.6	1.52e+00	0	47	104	0	60	176365
2026-01-28 22:02:39.75	43.38	25.39	-57.9	-73.0	3.5	1.51e+00	0	47	104	0	60	169093
2026-01-28 22:02:40.75	43.56	25.52	-59.3	-73.9	3.5	1.52e+00	0	47	104	0	60	188712
2026-01-28 22:02:41.76	43.74	25.65	-57.7	-72.9	3.6	1.52e+00	0	47	104	0	60	167994
2026-01-28 22:02:42.76	43.93	25.78	-56.7	-72.4	3.6	1.52e+00	0	47	104	0	60	158708
2026-01-28 22:02:43.77	44.12	25.91	-60.2	-73.9	3.5	1.51e+00	0	47	104	0	60	188525
2026-01-28 22:02:44.78	44.30	26.04	-58.1	-74.4	3.5	1.52e+00	0	47	104	0	60	199179
2026-01-28 22:02:45.79	44.50	26.17	-58.3	-73.6	3.5	1.51e+00	0	47	104	0	60	182094
2026-01-28 22:02:46.80	44.69	26.30	-60.0	-73.7	3.5	1.52e+00	0	47	104	0	60	183621
2026-01-28 22:02:47.80	44.88	26.43	-58.0	-74.2	3.5	1.52e+00	0	47	104	0	60	196084
2026-01-28 22:02:48.81	45.07	26.56	-58.5	-74.7	3.5	1.52e+00	0	47	104	0	60	206838
2026-01-28 22:02:49.82	45.27	26.69	-60.1	-74.3	3.5	1.52e+00	0	47	104	0	60	197738
2026-01-28 22:02:50.82	45.47	26.82	-59.4	-74.6	3.5	1.52e+00	0	47	104	0	60	204326
2026-01-28 22:02:51.82	45.67	26.95	-58.0	-73.4	3.6	1.51e+00	0	47	104	0	60	178040
2026-01-28 22:02:52.83	45.87	27.08	-57.2	-72.4	3.7	1.51e+00	0	47	104	0	60	158967
2026-01-28 22:02:53.84	46.07	27.22	-58.6	-73.8	3.5	1.51e+00	0	47	104	0	60	186893
2026-01-28 22:02:54.84	46.27	27.35	-57.8	-73.4	3.6	1.51e+00	0	47	104	0	60	177780
2026-01-28 22:02:55.84	46.48	27.48	-56.4	-72.5	3.7	1.51e+00	0	47	104	0	60	159751
2026-01-28 22:02:56.85	46.69	27.61	-56.6	-72.5	3.7	1.51e+00	0	47	104	0	60	159806
2026-01-28 22:02:57.86	46.90	27.74	-58.2	-73.7	3.5	1.51e+00	0	47	104	0	60	184804
2026-01-28 22:02:58.87	47.11	27.88	-59.8	-74.3	3.5	1.52e+00	0	47	104	0	60	198289
2026-01-28 22:02:59.88	47.32	28.01	-60.5	-74.9	3.5	1.52e+00	0	47	104	0	60	210631
2026-01-28 22:03:00.89	47.54	28.15	-59.9	-74.0	3.6	1.52e+00	0	47	104	0	60	191607
2026-01-28 22:03:01.90	47.75	28.28	-60.8	-74.3	3.5	1.51e+00	0	47	104	0	60	197660
2026-01-28 22:03:02.90	47.97	28.41	-59.2	-74.2	3.5	1.52e+00	0	47	104	0	60	194441
2026-01-28 22:03:03.91	48.19	28.55	-55.4	-72.0	3.7	1.52e+00	0	47	104	0	60	152202
2026-01-28 22:03:04.92	48.41	28.68	-55.9	-72.6	3.7	1.51e+00	0	47	104	0	60	161613
2026-01-28 22:03:05.92	48.64	28.82	-55.4	-71.9	3.7	1.51e+00	0	47	104	0	60	150556
2026-01-28 22:03:06.92	48.86	28.95	-55.9	-72.5	3.7	1.51e+00	0	47	104	0	60	159910
2026-01-28 22:03:07.93	49.09	29.09	-59.3	-73.8	3.5	1.51e+00	0	47	104	0	60	186942
2026-01-28 22:03:08.94	49.32	29.22	-59.0	-74.2	3.5	1.51e+00	0	47	104	0	60	195982
2026-01-28 22:03:09.94	49.55	29.36	-60.4	-74.1	3.5	1.51e+00	0	47	104	0	60	191865
2026-01-28 22:03:10.95	49.78	29.50	-60.2	-74.2	3.5	1.52e+00	0	47	104	0	60	195475
2026-01-28 22:03:11.96	50.02	29.63	-59.9	-73.5	3.5	1.52e+00	0	47	104	0	60	179862
2026-01-28 22:03:12.96	50.25	29.77	-59.2	-72.6	3.5	1.51e+00	0	47	104	0	60	161685
2026-01-28 22:03:13.97	50.49	29.90	-60.7	-73.4	3.5	1.52e+00	0	47	104	0	60	177405
2026-01-28 22:03:14.97	50.73	30.04	-60.5	-73.5	3.5	1.51e+00	0	47	104	0	60	180032
2026-01-28 22:03:15.98	50.97	30.18	-55.6	-72.5	3.7	1.51e+00	0	47	104	0	60	159695
2026-01-28 22:03:16.99	51.22	30.31	-56.7	-73.4	3.6	1.51e+00	0	47	104	0	60	177894
2026-01-28 22:03:17.99	51.46	30.45	-60.8	-74.7	3.5	1.51e+00	0	47	104	0	60	206171
2026-01-28 22:03:19.00	51.71	30.59	-59.9	-74.4	3.5	1.52e+00	0	47	104	0	60	200262
2026-01-28 22:03:20.01	51.97	30.72	-57.5	-73.0	3.6	1.51e+00	0	47	104	0	60	170547
2026-01-28 22:03:21.02	52.22	30.86	-58.0	-73.3	3.6	1.51e+00	0	47	104	0	60	175244
2026-01-28 22:03:22.03	52.48	31.00	-59.0	-74.2	3.5	1.52e+00	0	47	104	0	60	195047
2026-01-28 22:03:23.04	52.73	31.13	-60.2	-74.7	3.5	1.52e+00	0	47	104	0	60	206519
2026-01-28 22:03:24.05	52.99	31.27	-60.5	-74.9	3.5	1.52e+00	0	47	104	0	60	211568
2026-01-28 22:03:25.05	53.25	31.41	-58.8	-72.8	3.5	1.52e+00	0	47	104	0	60	166255
2026-01-28 22:03:26.06	53.52	31.54	-61.0	-74.4	3.5	1.51e+00	0	47	104	0	60	199709
2026-01-28 22:03:27.06	53.78	31.68	-58.1	-73.8	3.6	1.52e+00	0	47	104	0	60	185929
2026-01-28 22:03:28.07	54.05	31.82	-61.1	-74.5	3.5	1.52e+00	0	47	104	0	60	202678
2026-01-28 22:03:29.08	54.32	31.96	-59.2	-74.0	3.6	1.52e+00	0	47	104	0	60	190343
2026-01-28 22:03:30.08	54.59	32.09	-60.9	-74.7	3.6	1.51e+00	0	47	104	0	60	207397
2026-01-28 22:03:31.09	54.87	32.23	-61.0	-74.9	3.5	1.52e+00	0	47	104	0	60	211940
2026-01-28 22:03:32.09	55.14	32.36	-59.9	-74.1	3.5	1.51e+00	0	47	104	0	60	193200
2026-01-28 22:03:33.10	55.42	32.50	-61.2	-75.3	3.5	1.52e+00	0	47	104	0	60	221354
2026-01-28 22:03:34.10	55.70	32.64	-60.4	-75.1	3.5	1.52e+00	0	47	104	0	60	216704
2026-01-28 22:03:35.10	55.99	32.77	-60.5	-74.8	3.5	1.52e+00	0	47	104	0	60	209434
2026-01-28 22:03:36.11	56.27	32.91	-61.4	-74.9	3.5	1.52e+00	0	47	104	0	60	210475
2026-01-28 22:03:37.12	56.56	33.04	-61.4	-75.4	3.5	1.52e+00	0	47	104	0	60	224776
2026-01-28 22:03:38.13	56.86	33.18	-61.1	-74.9	3.5	1.52e+00	0	47	104	0	60	210436
2026-01-28 22:03:39.13	57.15	33.32	-61.0	-74.8	3.5	1.52e+00	0	47	104	0	60	208009
2026-01-28 22:03:40.13	57.44	33.45	-61.2	-74.8	3.5	1.52e+00	0	47	104	0	60	209267
2026-01-28 22:03:41.14	57.74	33.59	-61.1	-75.5	3.5	1.52e+00	0	47	104	0	60	225353
2026-01-28 22:03:42.14	58.04	33.72	-61.9	-75.8	3.5	1.52e+00	0	47	104	0	60	234969
2026-01-28 22:03:43.15	58.34	33.85	-61.8	-76.0	3.5	1.52e+00	0	47	104	0	60	238751
2026-01-28 22:03:44.16	58.65	33.99	-62.0	-75.5	3.5	1.52e+00	0	47	104	0	60	226202
2026-01-28 22:03:45.16	58.96	34.12	-62.0	-75.9	3.5	1.52e+00	0	47	104	0	60	237098
2026-01-28 22:03:46.16	59.27	34.25	-61.8	-75.7	3.5	1.52e+00	0	47	104	0	60	230568
2026-01-28 22:03:47.16	59.58	34.39	-61.4	-75.3	3.5	1.52e+00	0	47	104	0	60	221724
2026-01-28 22:03:48.16	59.89	34.52	-62.2	-75.8	3.5	1.52e+00	0	47	104	0	60	235650
2026-01-28 22:03:49.17	60.21	34.65	-61.9	-76.1	3.5	1.52e+00	0	47	104	0	60	244148
2026-01-28 22:03:50.18	60.53	34.78	-62.1	-75.5	3.5	1.52e+00	0	47	104	0	60	225672
2026-01-28 22:03:51.18	60.85	34.92	-62.0	-75.6	3.5	1.51e+00	0	47	104	0	60	229570
2026-01-28 22:03:52.19	61.18	35.05	-61.0	-75.7	3.5	1.52e+00	0	47	104	0	60	232036
2026-01-28 22:03:53.20	61.51	35.18	-61.0	-75.8	3.5	1.51e+00	0	47	104	0	60	234257
2026-01-28 22:03:54.20	61.84	35.31	-61.8	-75.3	3.5	1.52e+00	0	47	104	0	60	222316
2026-01-28 22:03:55.21	62.18	35.44	-62.0	-75.4	3.5	1.52e+00	0	47	104	0	60	224231
2026-01-28 22:03:56.21	62.51	35.57	-62.4	-76.3	3.5	1.52e+00	0	47	104	0	60	248848
2026-01-28 22:03:57.22	62.85	35.70	-62.5	-76.4	3.5	1.52e+00	0	47	104	0	60	251786
2026-01-28 22:03:58.22	63.19	35.82	-62.3	-75.8	3.5	1.52e+00	0	47	104	0	60	235684
2026-01-28 22:03:59.23	63.53	35.95	-62.5	-76.1	3.5	1.52e+00	0	47	104	0	60	243428
2026-01-28 22:04:00.24	63.88	36.08	-62.5	-76.4	3.5	1.52e+00	0	47	104	0	60	251001
2026-01-28 22:04:01.24	64.23	36.20	-62.6	-76.2	3.5	1.52e+00	0	47	104	0	60	245069
2026-01-28 22:04:02.24	64.58	36.33	-62.5	-75.9	3.5	1.52e+00	0	47	104	0	60	236521
2026-01-28 22:04:03.25	64.94	36.45	-62.3	-75.8	3.5	1.52e+00	0	47	104	0	60	234128
2026-01-28 22:04:04.25	65.29	36.58	-62.2	-76.1	3.5	1.52e+00	0	47	104	0	60	241476
2026-01-28 22:04:05.26	65.65	36.70	-62.1	-76.1	3.5	1.52e+00	0	47	104	0	60	242883
2026-01-28 22:04:06.27	66.02	36.82	-62.0	-76.0	3.5	1.52e+00	0	47	104	0	60	238730
2026-01-28 22:04:07.27	66.38	36.94	-60.9	-76.0	3.5	1.51e+00	0	47	104	0	60	240686
2026-01-28 22:04:08.28	66.75	37.07	-62.6	-76.1	3.5	1.52e+00	0	47	104	0	60	241766
2026-01-28 22:04:09.28	67.12	37.18	-61.4	-75.9	3.5	1.52e+00	0	47	104	0	60	236783
2026-01-28 22:04:10.29	67.50	37.30	-61.4	-75.8	3.5	1.52e+00	0	47	104	0	60	234083
2026-01-28 22:04:11.30	67.87	37.42	-61.2	-76.2	3.5	1.52e+00	0	47	104	0	60	245745
2026-01-28 22:04:12.31	68.25	37.54	-61.5	-75.9	3.5	1.52e+00	0	47	104	0	60	238308
2026-01-28 22:04:13.31	68.63	37.66	-61.0	-75.9	3.5	1.52e+00	0	47	104	0	60	236452
2026-01-28 22:04:14.32	69.02	37.77	-61.2	-75.7	3.5	1.52e+00	0	47	104	0	60	230730
2026-01-28 22:04:15.32	69.40	37.88	-62.1	-76.1	3.5	1.52e+00	0	47	104	0	60	243420
2026-01-28 22:04:16.32	69.79	38.00	-61.2	-75.8	3.5	1.52e+00	0	47	104	0	60	234804
2026-01-28 22:04:17.33	70.19	38.11	-62.1	-76.0	3.5	1.52e+00	0	47	104	0	60	240544
2026-01-28 22:04:18.33	70.58	38.22	-62.1	-75.6	3.5	1.52e+00	0	47	104	0	60	228530
2026-01-28 22:04:19.33	70.97	38.33	-62.3	-76.2	3.5	1.52e+00	0	47	104	0	60	246771
2026-01-28 22:04:20.33	71.37	38.44	-62.4	-75.8	3.5	1.52e+00	0	47	104	0	60	234708
2026-01-28 22:04:21.34	71.78	38.54	-61.9	-76.0	3.5	1.52e+00	0	47	104	0	60	241407
2026-01-28 22:04:22.35	72.18	38.65	-62.4	-75.9	3.5	1.52e+00	0	47	104	0	60	237178
2026-01-28 22:04:23.36	72.59	38.76	-61.5	-76.2	3.5	1.52e+00	0	47	104	0	60	246071
2026-01-28 22:04:24.36	73.00	38.86	-62.5	-75.9	3.5	1.51e+00	0	47	104	0	60	236704
2026-01-28 22:04:25.37	73.42	38.96	-62.1	-76.2	3.5	1.51e+00	0	47	104	0	60	246183
2026-01-28 22:04:26.38	73.84	39.06	-61.8	-75.9	3.5	1.52e+00	0	47	104	0	60	237699
2026-01-28 22:04:27.38	74.25	39.16	-61.9	-76.3	3.5	1.52e+00	0	47	104	0	60	249015
2026-01-28 22:04:28.39	74.67	39.26	-61.7	-75.9	3.5	1.52e+00	0	47	104	0	60	238609
2026-01-28 22:04:29.40	75.10	39.36	-62.1	-76.1	3.5	1.51e+00	0	47	104	0	60	242834
2026-01-28 22:04:30.41	75.53	39.45	-62.0	-75.8	3.5	1.52e+00	0	47	104	0	60	235720
2026-01-28 22:04:31.42	75.96	39.55	-61.8	-76.2	3.5	1.52e+00	0	47	104	0	60	246111
2026-01-28 22:04:32.42	76.39	39.64	-61.9	-76.0	3.5	1.52e+00	0	47	104	0	60	239339
2026-01-28 22:04:33.43	76.82	39.73	-62.1	-76.2	3.5	1.52e+00	0	47	104	0	60	245554
2026-01-28 22:04:34.43	77.26	39.82	-61.3	-75.8	3.5	1.52e+00	0	47	104	0	60	235391
2026-01-28 22:04:35.43	77.69	39.91	-62.0	-76.0	3.5	1.52e+00	0	47	104	0	60	238859
2026-01-28 22:04:36.44	78.13	39.99	-62.0	-76.1	3.5	1.52e+00	0	47	104	0	60	243756
2026-01-28 22:04:37.44	78.57	40.08	-61.7	-75.9	3.5	1.52e+00	0	47	104	0	60	236119
2026-01-28 22:04:38.45	79.02	40.16	-61.7	-75.7	3.5	1.52e+00	0	47	104	0	60	231233
2026-01-28 22:04:39.45	79.47	40.24	-61.7	-75.9	3.5	1.52e+00	0	47	104	0	60	236975
2026-01-28 22:04:40.46	79.92	40.32	-61.8	-75.7	3.5	1.52e+00	0	47	104	0	60	233096
2026-01-28 22:04:41.47	80.37	40.40	-61.5	-76.0	3.5	1.51e+00	0	47	104	0	60	241271
2026-01-28 22:04:42.48	80.83	40.47	-61.7	-75.8	3.5	1.52e+00	0	47	104	0	60	234414
2026-01-28 22:04:43.49	81.28	40.55	-62.1	-76.2	3.5	1.52e+00	0	47	104	0	60	245064
2026-01-28 22:04:44.49	81.74	40.62	-61.8	-76.1	3.5	1.52e+00	0	47	104	0	60	244081
2026-01-28 22:04:45.50	82.20	40.69	-61.6	-76.0	3.5	1.52e+00	0	47	104	0	60	239686
2026-01-28 22:04:46.50	82.66	40.76	-62.1	-75.9	3.5	1.51e+00	0	47	104	0	60	238280
2026-01-28 22:04:47.51	83.13	40.82	-61.9	-76.0	3.5	1.52e+00	0	47	104	0	60	238784
2026-01-28 22:04:48.52	83.59	40.89	-61.9	-76.0	3.5	1.51e+00	0	47	104	0	60	239774
2026-01-28 22:04:49.52	84.06	40.95	-63.2	-77.5	3.5	1.52e+00	0	47	104	0	60	283853
2026-01-28 22:04:50.52	84.52	41.01	-63.5	-77.2	3.5	1.52e+00	0	47	104	0	60	275840
2026-01-28 22:04:51.53	85.00	41.07	-62.9	-77.3	3.5	1.52e+00	0	47	104	0	60	277868
2026-01-28 22:04:52.53	85.47	41.12	-62.9	-76.9	3.5	1.51e+00	0	47	104	0	60	266819
2026-01-28 22:04:53.54	85.94	41.18	-63.2	-77.3	3.5	1.52e+00	0	47	104	0	60	277680
2026-01-28 22:04:54.55	86.42	41.23	-63.1	-77.2	3.5	1.52e+00	0	47	104	0	60	274285
2026-01-28 22:04:55.55	86.90	41.28	-62.9	-77.1	3.5	1.52e+00	0	47	104	0	60	272717
2026-01-28 22:04:56.56	87.38	41.33	-62.5	-77.0	3.5	1.52e+00	0	47	104	0	60	270649
2026-01-28 22:04:57.56	87.85	41.37	-62.6	-76.8	3.5	1.52e+00	0	47	104	0	60	263487
2026-01-28 22:04:58.57	88.34	41.42	-61.9	-76.5	3.5	1.52e+00	0	47	104	0	60	254066
2026-01-28 22:04:59.58	88.82	41.46	-62.0	-76.9	3.5	1.52e+00	0	47	104	0	60	264774
2026-01-28 22:05:00.59	89.31	41.50	-61.9	-76.5	3.5	1.51e+00	0	47	104	0	60	253654
2026-01-28 22:05:01.60	89.79	41.53	-62.3	-76.8	3.5	1.52e+00	0	47	104	0	60	263422
2026-01-28 22:05:02.60	90.28	41.57	-61.8	-76.4	3.5	1.52e+00	0	47	104	0	60	252550
2026-01-28 22:05:03.60	90.76	41.60	-62.4	-76.9	3.5	1.52e+00	0	47	104	0	60	266258
2026-01-28 22:05:04.61	91.25	41.63	-61.9	-76.3	3.5	1.52e+00	0	47	104	0	60	248950
2026-01-28 22:05:05.61	91.74	41.66	-61.7	-76.6	3.5	1.51e+00	0	47	104	0	60	256850
2026-01-28 22:05:06.62	92.23	41.68	-61.4	-76.4	3.5	1.52e+00	0	47	104	0	60	252544
2026-01-28 22:05:07.63	92.72	41.71	-61.8	-76.5	3.5	1.52e+00	0	47	104	0	60	253991
2026-01-28 22:05:08.63	93.21	41.73	-62.3	-76.6	3.5	1.52e+00	0	47	104	0	60	256568
2026-01-28 22:05:09.64	93.70	41.75	-62.1	-76.5	3.5	1.51e+00	0	47	104	0	60	255141
2026-01-28 22:05:10.64	94.19	41.76	-62.1	-76.6	3.5	1.52e+00	0	47	104	0	60	256738
2026-01-28 22:05:11.65	94.69	41.78	-61.4	-76.3	3.5	1.52e+00	0	47	104	0	60	247589
2026-01-28 22:05:12.66	95.18	41.79	-61.0	-76.3	3.5	1.52e+00	0	47	104	0	60	248356
2026-01-28 22:05:13.66	95.67	41.80	-62.4	-76.7	3.5	1.52e+00	0	47	104	0	60	259871
2026-01-28 22:05:14.67	96.17	41.81	-62.3	-76.7	3.5	1.52e+00	0	47	104	0	60	259165
2026-01-28 22:05:15.68	96.67	41.81	-62.1	-76.5	3.5	1.52e+00	0	47	104	0	60	255258
2026-01-28 22:05:16.68	97.16	41.81	-61.9	-76.4	3.5	1.51e+00	0	47	104	0	60	250276
2026-01-28 22:05:17.69	97.65	41.81	-62.0	-76.6	3.5	1.52e+00	0	47	104	0	60	256636
2026-01-28 22:05:18.69	98.14	41.81	-62.1	-76.6	3.5	1.52e+00	0	47	104	0	60	257462
2026-01-28 22:05:19.70	98.64	41.81	-61.9	-76.3	3.5	1.52e+00	0	47	104	0	60	248938
2026-01-28 22:05:20.70	99.13	41.80	-62.1	-76.7	3.5	1.52e+00	0	47	104	0	60	259303
2026-01-28 22:05:21.70	99.62	41.79	-61.6	-76.4	3.5	1.52e+00	0	47	104	0	60	251946
2026-01-28 22:05:22.71	100.12	41.78	-61.5	-76.5	3.5	1.52e+00	0	47	104	0	60	254882
2026-01-28 22:05:23.72	100.61	41.77	-61.1	-76.1	3.5	1.52e+00	0	47	104	0	60	243923
2026-01-28 22:05:24.72	101.10	41.75	-61.4	-76.4	3.5	1.52e+00	0	47	104	0	60	252631
2026-01-28 22:05:25.73	101.60	41.73	-61.2	-76.5	3.5	1.52e+00	0	47	104	0	60	252822
2026-01-28 22:05:26.73	102.08	41.71	-60.3	-75.8	3.6	1.52e+00	0	47	104	0	60	235275
2026-01-28 22:05:27.74	102.58	41.69	-60.3	-75.8	3.6	1.52e+00	0	47	104	0	60	235558
2026-01-28 22:05:28.74	103.06	41.66	-60.4	-75.6	3.6	1.52e+00	0	47	104	0	60	228605
2026-01-28 22:05:29.75	103.56	41.64	-60.4	-75.9	3.5	1.51e+00	0	47	104	0	60	236612
2026-01-28 22:05:30.76	104.05	41.61	-60.5	-75.8	3.5	1.52e+00	0	47	104	0	60	235931
2026-01-28 22:05:31.77	104.54	41.57	-61.0	-76.0	3.5	1.51e+00	0	47	104	0	60	239034
2026-01-28 22:05:32.78	105.02	41.54	-61.9	-76.0	3.5	1.51e+00	0	47	104	0	60	239971
2026-01-28 22:05:33.78	105.51	41.50	-61.7	-76.0	3.5	1.52e+00	0	47	104	0	60	240044
2026-01-28 22:05:34.78	105.99	41.46	-61.8	-76.1	3.5	1.52e+00	0	47	104	0	60	244017
2026-01-28 22:05:35.79	106.47	41.42	-61.9	-76.2	3.5	1.52e+00	0	47	104	0	60	246749
2026-01-28 22:05:36.79	106.95	41.38	-61.9	-76.1	3.5	1.52e+00	0	47	104	0	60	243549
2026-01-28 22:05:37.80	107.44	41.33	-61.8	-75.9	3.5	1.51e+00	0	47	104	0	60	237487
2026-01-28 22:05:38.80	107.91	41.29	-62.4	-76.2	3.5	1.52e+00	0	47	104	0	60	246601
2026-01-28 22:05:39.81	108.39	41.24	-61.9	-76.4	3.5	1.52e+00	0	47	104	0	60	250254
2026-01-28 22:05:40.82	108.87	41.19	-62.0	-76.3	3.5	1.51e+00	0	47	104	0	60	247506
2026-01-28 22:05:41.82	109.34	41.13	-62.4	-76.3	3.5	1.52e+00	0	47	104	0	60	249729
2026-01-28 22:05:42.83	109.82	41.08	-62.1	-76.3	3.5	1.52e+00	0	47	104	0	60	247830
2026-01-28 22:05:43.84	110.29	41.02	-62.3	-76.4	3.5	1.52e+00	0	47	104	0	60	252399
2026-01-28 22:05:44.85	110.76	40.96	-61.8	-76.2	3.5	1.52e+00	0	47	104	0	60	246519
2026-01-28 22:05:45.86	111.24	40.90	-62.0	-76.4	3.5	1.52e+00	0	47	104	0	60	251378
2026-01-28 22:05:46.86	111.70	40.83	-61.8	-76.0	3.5	1.52e+00	0	47	104	0	60	238995
2026-01-28 22:05:47.87	112.17	40.77	-62.0	-76.4	3.5	1.52e+00	0	47	104	0	60	250678
2026-01-28 22:05:48.88	112.63	40.70	-61.7	-76.3	3.5	1.52e+00	0	47	104	0	60	249823
2026-01-28 22:05:49.89	113.09	40.63	-61.4	-75.7	3.5	1.51e+00	0	47	104	0	60	232556
2026-01-28 22:05:50.89	113.55	40.56	-61.2	-75.8	3.5	1.52e+00	0	47	104	0	60	233644
2026-01-28 22:05:51.90	114.01	40.48	-60.8	-75.7	3.5	1.52e+00	0	47	104	0	60	233041
2026-01-28 22:05:52.91	114.47	40.41	-60.6	-75.6	3.5	1.52e+00	0	47	104	0	60	228299
2026-01-28 22:05:53.91	114.92	40.33	-61.2	-75.9	3.5	1.51e+00	0	47	104	0	60	237533
2026-01-28 22:05:54.92	115.37	40.25	-60.8	-75.6	3.5	1.52e+00	0	47	104	0	60	229354
2026-01-28 22:05:55.92	115.81	40.17	-61.0	-75.8	3.6	1.51e+00	0	47	104	0	60	235912
2026-01-28 22:05:56.93	116.26	40.09	-60.9	-75.9	3.5	1.52e+00	0	47	104	0	60	237925
2026-01-28 22:05:57.93	116.70	40.00	-60.3	-75.5	3.5	1.52e+00	0	47	104	0	60	226938
2026-01-28 22:05:58.94	117.15	39.92	-60.3	-75.6	3.6	1.51e+00	0	47	104	0	60	230099
2026-01-28 22:05:59.94	117.58	39.83	-60.1	-75.5	3.5	1.51e+00	0	47	104	0	60	226123
2026-01-28 22:06:00.95	118.02	39.74	-60.7	-75.9	3.5	1.52e+00	0	47	104	0	60	237961
2026-01-28 22:06:01.96	118.46	39.65	-60.1	-76.0	3.5	1.51e+00	0	47	104	0	60	239959
2026-01-28 22:06:02.97	118.89	39.56	-60.3	-75.6	3.5	1.52e+00	0	47	104	0	60	229653
2026-01-28 22:06:03.98	119.32	39.46	-60.1	-75.4	3.5	1.52e+00	0	47	104	0	60	223464
2026-01-28 22:06:04.99	119.75	39.37	-60.0	-75.6	3.5	1.51e+00	0	47	104	0	60	228135
2026-01-28 22:06:05.99	120.18	39.27	-60.8	-75.7	3.5	1.52e+00	0	47	104	0	60	231715
2026-01-28 22:06:07.00	120.60	39.17	-60.5	-75.6	3.5	1.52e+00	0	47	104	0	60	230358
2026-01-28 22:06:08.01	121.02	39.07	-60.5	-75.9	3.5	1.51e+00	0	47	104	0	60	238142
2026-01-28 22:06:09.01	121.44	38.97	-60.4	-75.9	3.5	1.52e+00	0	47	104	0	60	238183
2026-01-28 22:06:10.02	121.85	38.87	-61.1	-75.9	3.5	1.52e+00	0	47	104	0	60	236277
2026-01-28 22:06:11.02	122.26	38.77	-60.9	-75.6	3.5	1.52e+00	0	47	104	0	60	228674
2026-01-28 22:06:12.03	122.67	38.66	-60.2	-75.6	3.5	1.51e+00	0	47	104	0	60	229096
2026-01-28 22:06:13.03	123.08	38.56	-60.7	-75.9	3.5	1.51e+00	0	47	104	0	60	237492
2026-01-28 22:06:14.04	123.49	38.45	-60.7	-75.4	3.5	1.51e+00	0	47	104	0	60	224527
2026-01-28 22:06:15.04	123.88	38.34	-61.2	-75.5	3.5	1.52e+00	0	47	104	0	60	225673
2026-01-28 22:06:16.05	124.29	38.23	-60.7	-75.7	3.5	1.52e+00	0	47	104	0	60	232829
2026-01-28 22:06:17.05	124.68	38.12	-61.3	-75.9	3.5	1.52e+00	0	47	104	0	60	236528
2026-01-28 22:06:18.06	125.08	38.01	-61.2	-75.5	3.5	1.52e+00	0	47	104	0	60	227260
2026-01-28 22:06:19.06	125.46	37.89	-61.2	-75.5	3.5	1.52e+00	0	47	104	0	60	226499
2026-01-28 22:06:20.07	125.85	37.78	-61.3	-75.9	3.5	1.52e+00	0	47	104	0	60	236434
2026-01-28 22:06:21.08	126.24	37.66	-61.4	-75.9	3.5	1.52e+00	0	47	104	0	60	236131
2026-01-28 22:06:22.09	126.63	37.54	-61.3	-75.5	3.5	1.51e+00	0	47	104	0	60	225471
2026-01-28 22:06:23.10	127.01	37.43	-61.2	-75.3	3.4	1.52e+00	0	47	104	0	60	222431
2026-01-28 22:06:24.10	127.38	37.31	-61.1	-75.7	3.5	1.52e+00	0	47	104	0	60	232448
2026-01-28 22:06:25.11	127.76	37.19	-61.2	-75.5	3.5	1.52e+00	0	47	104	0	60	227696
2026-01-28 22:06:26.12	128.13	37.07	-61.3	-75.5	3.5	1.52e+00	0	47	104	0	60	225734
2026-01-28 22:06:27.13	128.50	36.95	-61.1	-75.3	3.5	1.51e+00	0	47	104	0	60	220187
2026-01-28 22:06:28.13	128.87	36.83	-61.1	-75.6	3.5	1.52e+00	0	47	104	0	60	228667
2026-01-28 22:06:29.14	129.24	36.70	-60.9	-75.5	3.5	1.52e+00	0	47	104	0	60	227577
2026-01-28 22:06:30.14	129.59	36.58	-61.3	-75.5	3.5	1.52e+00	0	47	104	0	60	227456
2026-01-28 22:06:31.15	129.95	36.45	-61.4	-75.4	3.5	1.52e+00	0	47	104	0	60	223458
2026-01-28 22:06:32.15	130.31	36.33	-61.2	-75.6	3.5	1.52e+00	0	47	104	0	60	228288
2026-01-28 22:06:33.16	130.66	36.20	-61.1	-75.6	3.5	1.51e+00	0	47	104	0	60	230360
2026-01-28 22:06:34.16	131.01	36.08	-61.8	-75.7	3.5	1.52e+00	0	47	104	0	60	231647
2026-01-28 22:06:35.17	131.36	35.95	-61.4	-75.4	3.5	1.51e+00	0	47	104	0	60	224369
2026-01-28 22:06:36.18	131.71	35.82	-61.3	-75.7	3.5	1.52e+00	0	47	104	0	60	230932
2026-01-28 22:06:37.18	132.05	35.69	-61.4	-75.7	3.5	1.51e+00	0	47	104	0	60	230991
2026-01-28 22:06:38.19	132.39	35.56	-61.7	-75.6	3.5	1.51e+00	0	47	104	0	60	229893
2026-01-28 22:06:39.20	132.73	35.43	-61.6	-75.5	3.5	1.52e+00	0	47	104	0	60	226261
2026-01-28 22:06:40.21	133.07	35.30	-61.4	-75.7	3.5	1.52e+00	0	47	104	0	60	230594
2026-01-28 22:06:41.22	133.40	35.17	-61.6	-75.7	3.5	1.52e+00	0	47	104	0	60	232920
2026-01-28 22:06:42.22	133.73	35.04	-61.6	-75.4	3.5	1.51e+00	0	47	104	0	60	225134
2026-01-28 22:06:43.23	134.06	34.91	-61.6	-75.5	3.5	1.52e+00	0	47	104	0	60	227816
2026-01-28 22:06:44.24	134.38	34.78	-61.5	-75.5	3.5	1.51e+00	0	47	104	0	60	227048
2026-01-28 22:06:45.25	134.70	34.64	-61.5	-75.6	3.5	1.52e+00	0	47	104	0	60	230131
2026-01-28 22:06:46.25	135.02	34.51	-61.5	-75.5	3.5	1.52e+00	0	47	104	0	60	225599
2026-01-28 22:06:47.26	135.34	34.38	-61.7	-75.4	3.5	1.52e+00	0	47	104	0	60	224878
2026-01-28 22:06:48.26	135.65	34.24	-61.5	-75.7	3.5	1.52e+00	0	47	104	0	60	230891
2026-01-28 22:06:49.26	135.96	34.11	-61.6	-75.6	3.5	1.51e+00	0	47	104	0	60	230520
2026-01-28 22:06:50.27	136.27	33.97	-61.6	-75.4	3.5	1.52e+00	0	47	104	0	60	224874
2026-01-28 22:06:51.27	136.58	33.84	-61.7	-75.5	3.5	1.52e+00	0	47	104	0	60	226588
2026-01-28 22:06:52.28	136.88	33.70	-61.6	-75.6	3.5	1.52e+00	0	47	104	0	60	228641
2026-01-28 22:06:53.29	137.19	33.57	-61.4	-75.5	3.5	1.52e+00	0	47	104	0	60	227590
2026-01-28 22:06:54.29	137.48	33.43	-61.6	-75.3	3.5	1.52e+00	0	47	104	0	60	221151
2026-01-28 22:06:55.30	137.78	33.30	-61.6	-75.3	3.5	1.52e+00	0	47	104	0	60	222452
2026-01-28 22:06:56.31	138.08	33.16	-61.6	-75.5	3.5	1.52e+00	0	47	104	0	60	227773
2026-01-28 22:06:57.32	138.37	33.02	-61.5	-75.6	3.5	1.52e+00	0	47	104	0	60	228843
2026-01-28 22:06:58.33	138.66	32.89	-61.6	-75.3	3.5	1.52e+00	0	47	104	0	60	220691
2026-01-28 22:06:59.34	138.95	32.75	-61.6	-75.1	3.5	1.52e+00	0	47	104	0	60	217499
2026-01-28 22:07:00.34	139.23	32.61	-61.6	-75.4	3.5	1.52e+00	0	47	104	0	60	222763
2026-01-28 22:07:01.35	139.52	32.48	-61.5	-75.1	3.5	1.52e+00	0	47	104	0	60	215969
2026-01-28 22:07:02.36	139.80	32.34	-61.5	-75.2	3.5	1.52e+00	0	47	104	0	60	217915
2026-01-28 22:07:03.36	140.07	32.20	-61.5	-75.1	3.5	1.52e+00	0	47	104	0	60	215858
2026-01-28 22:07:04.37	140.35	32.06	-61.6	-75.3	3.5	1.52e+00	0	47	104	0	60	221201
2026-01-28 22:07:05.37	140.62	31.93	-61.6	-75.5	3.5	1.52e+00	0	47	104	0	60	227471
2026-01-28 22:07:06.37	140.89	31.79	-61.6	-75.3	3.5	1.52e+00	0	47	104	0	60	220624
2026-01-28 22:07:07.38	141.16	31.65	-61.6	-75.5	3.5	1.52e+00	0	47	104	0	60	226670
2026-01-28 22:07:08.38	141.43	31.52	-61.6	-75.0	3.5	1.52e+00	0	47	104	0	60	214322
2026-01-28 22:07:09.39	141.69	31.38	-61.6	-75.0	3.5	1.52e+00	0	47	104	0	60	214199
2026-01-28 22:07:10.39	141.95	31.24	-61.5	-75.0	3.5	1.52e+00	0	47	104	0	60	212814
2026-01-28 22:07:11.40	142.21	31.10	-61.5	-75.0	3.5	1.52e+00	0	47	104	0	60	213755
2026-01-28 22:07:12.41	142.47	30.97	-61.5	-75.4	3.5	1.52e+00	0	47	104	0	60	224524
2026-01-28 22:07:13.41	142.73	30.83	-61.5	-75.4	3.5	1.52e+00	0	47	104	0	60	225204
2026-01-28 22:07:14.42	142.98	30.69	-61.5	-75.1	3.5	1.52e+00	0	47	104	0	60	215202
2026-01-28 22:07:15.43	143.23	30.55	-61.4	-74.9	3.5	1.52e+00	0	47	104	0	60	210428
2026-01-28 22:07:16.44	143.48	30.41	-61.4	-75.2	3.5	1.52e+00	0	47	104	0	60	218215
2026-01-28 22:07:17.44	143.73	30.28	-61.4	-75.1	3.5	1.52e+00	0	47	104	0	60	216945
2026-01-28 22:07:18.45	143.98	30.14	-61.4	-75.0	3.5	1.52e+00	0	47	104	0	60	214566
2026-01-28 22:07:19.45	144.22	30.00	-61.4	-75.0	3.5	1.51e+00	0	47	104	0	60	214507
2026-01-28 22:07:20.46	144.46	29.87	-61.4	-74.8	3.5	1.52e+00	0	47	104	0	60	208633
2026-01-28 22:07:21.46	144.70	29.73	-61.4	-75.3	3.5	1.52e+00	0	47	104	0	60	221143
2026-01-28 22:07:22.46	144.93	29.59	-61.4	-74.9	3.5	1.52e+00	0	47	104	0	60	211778
2026-01-28 22:07:23.47	145.17	29.46	-61.4	-74.8	3.5	1.52e+00	0	47	104	0	60	209341
2026-01-28 22:07:24.48	145.40	29.32	-61.5	-75.1	3.5	1.52e+00	0	47	104	0	60	216881
2026-01-28 22:07:25.49	145.64	29.18	-61.4	-74.9	3.5	1.52e+00	0	47	104	0	60	210371
2026-01-28 22:07:26.50	145.87	29.05	-61.4	-74.9	3.5	1.52e+00	0	47	104	0	60	210338
2026-01-28 22:07:27.50	146.09	28.91	-61.4	-74.8	3.5	1.52e+00	0	47	104	0	60	209654
2026-01-28 22:07:28.51	146.32	28.78	-61.3	-74.9	3.6	1.52e+00	0	47	104	0	60	210498
2026-01-28 22:07:29.52	146.55	28.64	-61.4	-74.9	3.5	1.51e+00	0	47	104	0	60	211581
2026-01-28 22:07:30.53	146.77	28.50	-61.4	-75.4	3.5	1.52e+00	0	47	104	0	60	223390
2026-01-28 22:07:31.54	146.99	28.37	-61.3	-75.3	3.5	1.51e+00	0	47	104	0	60	220773
2026-01-28 22:07:32.54	147.21	28.23	-61.4	-74.7	3.5	1.52e+00	0	47	104	0	60	206898
2026-01-28 22:07:33.55	147.42	28.10	-61.3	-75.0	3.5	1.52e+00	0	47	104	0	60	212888
2026-01-28 22:07:34.56	147.64	27.96	-61.3	-75.3	3.5	1.52e+00	0	47	104	0	60	220392
2026-01-28 22:07:35.56	147.85	27.83	-61.3	-75.3	3.5	1.52e+00	0	47	104	0	60	221019
2026-01-28 22:07:36.56	148.06	27.70	-61.3	-74.7	3.5	1.52e+00	0	47	104	0	60	207769
2026-01-28 22:07:37.57	148.27	27.56	-61.3	-74.6	3.5	1.52e+00	0	47	104	0	60	205138
2026-01-28 22:07:38.58	148.48	27.43	-61.2	-74.6	3.5	1.52e+00	0	47	104	0	60	205093
2026-01-28 22:07:39.58	148.69	27.30	-61.2	-74.5	3.5	1.51e+00	0	47	104	0	60	203074
2026-01-28 22:07:40.59	148.89	27.16	-61.3	-74.7	3.5	1.52e+00	0	47	104	0	60	207103
2026-01-28 22:07:41.60	149.10	27.03	-61.3	-75.2	3.5	1.52e+00	0	47	104	0	60	218873
2026-01-28 22:07:42.61	149.30	26.90	-61.2	-75.1	3.5	1.51e+00	0	47	104	0	60	217451
2026-01-28 22:07:43.62	149.50	26.76	-61.2	-75.1	3.5	1.52e+00	0	47	104	0	60	217411
2026-01-28 22:07:44.63	149.70	26.63	-61.2	-74.6	3.5	1.52e+00	0	47	104	0	60	203370
2026-01-28 22:07:45.63	149.89	26.50	-61.1	-74.7	3.5	1.52e+00	0	47	104	0	60	207007
2026-01-28 22:07:46.64	150.09	26.37	-61.1	-75.0	3.5	1.52e+00	0	47	104	0	60	214203
2026-01-28 22:07:47.65	150.28	26.24	-61.1	-75.0	3.5	1.52e+00	0	47	104	0	60	214752
2026-01-28 22:07:48.65	150.47	26.11	-61.1	-74.3	3.5	1.52e+00	0	47	104	0	60	196732
2026-01-28 22:07:49.66	150.66	25.98	-61.0	-74.7	3.5	1.52e+00	0	47	104	0	60	206643
2026-01-28 22:07:50.65	150.85	25.85	-61.0	-75.0	3.5	1.51e+00	0	47	104	0	60	212823
2026-01-28 22:07:51.66	151.04	25.72	-61.0	-75.0	3.5	1.52e+00	0	47	104	0	60	213985
2026-01-28 22:07:52.66	151.22	25.59	-61.0	-74.5	3.5	1.51e+00	0	47	104	0	60	201058
2026-01-28 22:07:53.67	151.41	25.46	-61.0	-74.4	3.5	1.51e+00	0	47	104	0	60	200442
2026-01-28 22:07:54.67	151.59	25.33	-61.0	-74.4	3.5	1.52e+00	0	47	104	0	60	200558
2026-01-28 22:07:55.68	151.77	25.20	-61.0	-74.3	3.5	1.51e+00	0	47	104	0	60	196309
2026-01-28 22:07:56.68	151.95	25.08	-61.0	-74.7	3.5	1.51e+00	0	47	104	0	60	205975
2026-01-28 22:07:57.68	152.13	24.95	-61.1	-75.0	3.5	1.52e+00	0	47	104	0	60	213565
2026-01-28 22:07:58.69	152.31	24.82	-61.0	-74.4	3.5	1.51e+00	0	47	104	0	60	199634
2026-01-28 22:07:59.69	152.48	24.69	-61.0	-74.3	3.5	1.52e+00	0	47	104	0	60	197210
2026-01-28 22:08:00.71	152.66	24.57	-61.0	-74.6	3.5	1.52e+00	0	47	104	0	60	205130
2026-01-28 22:08:01.71	152.83	24.44	-61.0	-74.5	3.5	1.52e+00	0	47	104	0	60	201008
2026-01-28 22:08:02.72	153.00	24.31	-60.9	-74.4	3.5	1.51e+00	0	47	104	0	60	198571
2026-01-28 22:08:03.73	153.17	24.19	-60.9	-74.3	3.5	1.52e+00	0	47	104	0	60	197919
2026-01-28 22:08:04.73	153.34	24.06	-61.0	-74.8	3.5	1.51e+00	0	47	104	0	60	209828
2026-01-28 22:08:05.74	153.51	23.94	-61.0	-74.7	3.5	1.52e+00	0	47	104	0	60	207552
2026-01-28 22:08:06.75	153.68	23.81	-60.9	-74.3	3.5	1.52e+00	0	47	104	0	60	198052
2026-01-28 22:08:07.76	153.84	23.69	-61.0	-74.6	3.5	1.51e+00	0	47	104	0	60	203733
2026-01-28 22:08:08.77	154.01	23.56	-60.9	-74.7	3.5	1.51e+00	0	47	104	0	60	205849
2026-01-28 22:08:09.77	154.17	23.44	-60.9	-74.4	3.5	1.51e+00	0	47	104	0	60	199391
2026-01-28 22:08:10.78	154.33	23.31	-60.9	-74.4	3.5	1.52e+00	0	47	104	0	60	199830
2026-01-28 22:08:11.78	154.49	23.19	-60.9	-74.3	3.5	1.52e+00	0	47	104	0	60	196939
2026-01-28 22:08:12.79	154.65	23.07	-60.9	-74.5	3.5	1.51e+00	0	47	104	0	60	201059
2026-01-28 22:08:13.79	154.81	22.95	-60.9	-74.7	3.5	1.51e+00	0	47	104	0	60	206556
2026-01-28 22:08:14.80	154.97	22.83	-60.9	-74.8	3.5	1.52e+00	0	47	104	0	60	209801
2026-01-28 22:08:15.81	155.12	22.70	-60.9	-74.7	3.5	1.52e+00	0	47	104	0	60	206799
2026-01-28 22:08:16.82	155.28	22.58	-60.9	-74.2	3.5	1.52e+00	0	47	104	0	60	195089
2026-01-28 22:08:17.82	155.43	22.46	-60.8	-74.6	3.5	1.51e+00	0	47	104	0	60	204117
2026-01-28 22:08:18.83	155.58	22.34	-60.8	-74.7	3.5	1.51e+00	0	47	104	0	60	207281
2026-01-28 22:08:19.84	155.73	22.22	-60.8	-74.5	3.5	1.52e+00	0	47	104	0	60	201160
2026-01-28 22:08:20.84	155.88	22.10	-60.7	-74.2	3.5	1.52e+00	0	47	104	0	60	194082
2026-01-28 22:08:21.85	156.03	21.98	-60.8	-74.7	3.5	1.52e+00	0	47	104	0	60	206718
2026-01-28 22:08:22.86	156.18	21.86	-60.7	-74.7	3.5	1.52e+00	0	47	104	0	60	206147
2026-01-28 22:08:23.86	156.33	21.74	-60.8	-74.3	3.5	1.52e+00	0	47	104	0	60	197247
2026-01-28 22:08:24.87	156.47	21.63	-60.7	-74.2	3.5	1.52e+00	0	47	104	0	60	195562
2026-01-28 22:08:25.88	156.62	21.51	-60.7	-74.7	3.5	1.52e+00	0	47	104	0	60	206671
2026-01-28 22:08:26.89	156.76	21.39	-60.7	-74.7	3.5	1.52e+00	0	47	104	0	60	205872
2026-01-28 22:08:27.89	156.90	21.27	-60.8	-74.2	3.5	1.52e+00	0	47	104	0	60	195661
2026-01-28 22:08:28.89	157.04	21.16	-60.7	-74.2	3.5	1.51e+00	0	47	104	0	60	195020
2026-01-28 22:08:29.90	157.18	21.04	-60.7	-74.6	3.5	1.52e+00	0	47	104	0	60	205245
2026-01-28 22:08:30.90	157.32	20.93	-60.6	-74.6	3.5	1.51e+00	0	47	104	0	60	204721
2026-01-28 22:08:31.91	157.46	20.81	-60.7	-74.2	3.5	1.52e+00	0	47	104	0	60	195977
2026-01-28 22:08:32.92	157.60	20.69	-60.7	-74.1	3.5	1.52e+00	0	47	104	0	60	193487
2026-01-28 22:08:33.93	157.73	20.58	-60.6	-74.6	3.5	1.52e+00	0	47	104	0	60	203553
2026-01-28 22:08:34.93	157.87	20.46	-60.5	-74.4	3.5	1.52e+00	0	47	104	0	60	200803
2026-01-28 22:08:35.94	158.00	20.35	-60.6	-74.1	3.5	1.52e+00	0	47	104	0	60	191864
2026-01-28 22:08:36.94	158.14	20.24	-60.4	-74.2	3.5	1.52e+00	0	47	104	0	60	195833
2026-01-28 22:08:37.95	158.27	20.12	-60.6	-74.6	3.5	1.52e+00	0	47	104	0	60	203236
2026-01-28 22:08:38.95	158.40	20.01	-60.5	-74.4	3.5	1.52e+00	0	47	104	0	60	199983
2026-01-28 22:08:39.96	158.53	19.90	-60.6	-74.0	3.5	1.52e+00	0	47	104	0	60	190571
2026-01-28 22:08:40.96	158.66	19.79	-60.4	-74.0	3.5	1.52e+00	0	47	104	0	60	190329
2026-01-28 22:08:41.97	158.79	19.67	-60.5	-74.4	3.5	1.52e+00	0	47	104	0	60	200376
2026-01-28 22:08:42.97	158.91	19.56	-60.4	-74.3	3.5	1.52e+00	0	47	104	0	60	198202
2026-01-28 22:08:43.98	159.04	19.45	-60.4	-73.9	3.5	1.52e+00	0	47	104	0	60	187675
2026-01-28 22:08:44.99	159.17	19.34	-60.3	-73.9	3.5	1.52e+00	0	47	104	0	60	188665
2026-01-28 22:08:45.99	159.29	19.23	-60.3	-74.4	3.5	1.52e+00	0	47	104	0	60	198526
2026-01-28 22:08:46.99	159.42	19.12	-60.4	-74.3	3.5	1.52e+00	0	47	104	0	60	196452
2026-01-28 22:08:48.00	159.54	19.01	-60.4	-73.8	3.5	1.52e+00	0	47	104	0	60	185304
2026-01-28 22:08:49.01	159.66	18.90	-60.1	-73.8	3.5	1.52e+00	0	47	104	0	60	187195
2026-01-28 22:08:50.02	159.79	18.79	-60.3	-74.3	3.5	1.52e+00	0	47	104	0	60	197312
2026-01-28 22:08:51.02	159.91	18.68	-60.3	-74.2	3.5	1.52e+00	0	47	104	0	60	194847
2026-01-28 22:08:52.03	160.03	18.57	-60.3	-73.8	3.5	1.52e+00	0	47	104	0	60	186353
2026-01-28 22:08:53.04	160.15	18.47	-60.1	-74.0	3.5	1.51e+00	0	47	104	0	60	190330
2026-01-28 22:08:54.05	160.26	18.36	-60.2	-74.3	3.5	1.52e+00	0	47	104	0	60	196418
2026-01-28 22:08:55.06	160.38	18.25	-60.2	-74.1	3.5	1.52e+00	0	47	104	0	60	193810
2026-01-28 22:08:56.07	160.50	18.14	-60.3	-73.8	3.5	1.52e+00	0	47	104	0	60	185803
2026-01-28 22:08:57.07	160.61	18.04	-60.2	-74.0	3.5	1.52e+00	0	47	104	0	60	190214
2026-01-28 22:08:58.08	160.73	17.93	-60.1	-74.2	3.5	1.52e+00	0	47	104	0	60	195836
2026-01-28 22:08:59.09	160.85	17.82	-60.2	-74.1	3.5	1.52e+00	0	47	104	0	60	191881
2026-01-28 22:09:00.10	160.96	17.72	-60.1	-73.8	3.5	1.52e+00	0	47	104	0	60	185888
2026-01-28 22:09:01.10	161.07	17.61	-60.0	-73.9	3.5	1.52e+00	0	47	104	0	60	188218
2026-01-28 22:09:02.11	161.18	17.51	-59.9	-74.2	3.5	1.52e+00	0	47	104	0	60	195213
2026-01-28 22:09:03.12	161.30	17.40	-59.8	-73.8	3.5	1.52e+00	0	47	104	0	60	187175
2026-01-28 22:09:04.12	161.41	17.30	-60.1	-73.7	3.5	1.52e+00	0	47	104	0	60	184722
2026-01-28 22:09:05.13	161.52	17.20	-59.8	-73.8	3.5	1.52e+00	0	47	104	0	60	186820
2026-01-28 22:09:06.13	161.62	17.09	-60.1	-74.2	3.5	1.52e+00	0	47	104	0	60	194554
2026-01-28 22:09:07.14	161.73	16.99	-59.5	-73.8	3.5	1.52e+00	0	47	104	0	60	185853
2026-01-28 22:09:08.14	161.84	16.89	-60.0	-73.7	3.5	1.51e+00	0	47	104	0	60	183471
2026-01-28 22:09:09.15	161.95	16.78	-59.5	-73.7	3.5	1.52e+00	0	47	104	0	60	184010
2026-01-28 22:09:10.16	162.06	16.68	-60.0	-74.0	3.5	1.52e+00	0	47	104	0	60	190749
2026-01-28 22:09:11.17	162.16	16.58	-59.4	-73.8	3.5	1.52e+00	0	47	104	0	60	186143
2026-01-28 22:09:12.17	162.27	16.48	-59.9	-73.6	3.5	1.52e+00	0	47	104	0	60	181106
2026-01-28 22:09:13.18	162.37	16.38	-59.3	-73.7	3.5	1.52e+00	0	47	104	0	60	184269
2026-01-28 22:09:14.19	162.47	16.28	-59.8	-73.9	3.5	1.52e+00	0	47	104	0	60	188285
2026-01-28 22:09:15.20	162.58	16.17	-59.6	-73.7	3.5	1.51e+00	0	47	104	0	60	184785
2026-01-28 22:09:16.20	162.68	16.08	-59.6	-73.4	3.5	1.52e+00	0	47	104	0	60	177708
2026-01-28 22:09:17.21	162.78	15.98	-59.3	-73.6	3.5	1.52e+00	0	47	104	0	60	183123
2026-01-28 22:09:18.21	162.88	15.88	-59.6	-73.8	3.5	1.52e+00	0	47	104	0	60	186494
2026-01-28 22:09:19.22	162.98	15.78	-59.6	-73.6	3.5	1.52e+00	0	47	104	0	60	182623
2026-01-28 22:09:20.22	163.08	15.68	-59.4	-73.3	3.5	1.52e+00	0	47	104	0	60	176184
2026-01-28 22:09:21.22	163.18	15.58	-59.4	-73.6	3.5	1.52e+00	0	47	104	0	60	181991
2026-01-28 22:09:22.23	163.28	15.48	-59.4	-73.7	3.5	1.52e+00	0	47	104	0	60	185062
2026-01-28 22:09:23.24	163.38	15.38	-59.6	-73.6	3.5	1.51e+00	0	47	104	0	60	182997
2026-01-28 22:09:24.25	163.48	15.29	-59.6	-73.5	3.5	1.51e+00	0	47	104	0	60	179783
2026-01-28 22:09:25.26	163.57	15.19	-59.5	-73.5	3.5	1.51e+00	0	47	104	0	60	180650
2026-01-28 22:09:26.26	163.67	15.09	-59.2	-73.8	3.5	1.52e+00	0	47	104	0	60	186775
2026-01-28 22:09:27.27	163.76	15.00	-59.4	-73.6	3.5	1.52e+00	0	47	104	0	60	181176
2026-01-28 22:09:28.28	163.86	14.90	-59.6	-73.5	3.5	1.52e+00	0	47	104	0	60	179293
2026-01-28 22:09:29.28	163.95	14.80	-59.4	-73.4	3.5	1.52e+00	0	47	104	0	60	178826
2026-01-28 22:09:30.29	164.05	14.71	-59.2	-73.7	3.5	1.52e+00	0	47	104	0	60	184722
2026-01-28 22:09:31.30	164.14	14.61	-59.2	-73.5	3.5	1.52e+00	0	47	104	0	60	180629
2026-01-28 22:09:32.30	164.23	14.52	-59.5	-73.4	3.5	1.51e+00	0	47	104	0	60	178526
2026-01-28 22:09:33.30	164.32	14.42	-59.4	-73.4	3.5	1.52e+00	0	47	104	0	60	178800
2026-01-28 22:09:34.31	164.42	14.33	-59.4	-73.7	3.5	1.52e+00	0	47	104	0	60	184778
2026-01-28 22:09:35.31	164.51	14.23	-59.0	-73.3	3.5	1.52e+00	0	47	104	0	60	176283
2026-01-28 22:09:36.31	164.60	14.14	-59.5	-73.4	3.5	1.52e+00	0	47	104	0	60	178136
2026-01-28 22:09:37.32	164.69	14.05	-59.2	-73.4	3.5	1.52e+00	0	47	104	0	60	177932
2026-01-28 22:09:38.32	164.78	13.95	-59.5	-73.6	3.5	1.52e+00	0	47	104	0	60	182539
2026-01-28 22:09:39.33	164.86	13.86	-59.1	-73.3	3.5	1.52e+00	0	47	104	0	60	176370
2026-01-28 22:09:40.34	164.95	13.77	-59.3	-73.2	3.5	1.52e+00	0	47	104	0	60	174319
2026-01-28 22:09:41.35	165.04	13.68	-58.9	-73.3	3.5	1.52e+00	0	47	104	0	60	175312
2026-01-28 22:09:42.35	165.13	13.58	-59.4	-73.5	3.5	1.52e+00	0	47	104	0	60	180368
2026-01-28 22:09:43.36	165.22	13.49	-59.1	-73.3	3.5	1.52e+00	0	47	104	0	60	175870
2026-01-28 22:09:44.37	165.30	13.40	-59.2	-73.1	3.5	1.51e+00	0	47	104	0	60	172124
2026-01-28 22:09:45.38	165.39	13.31	-58.8	-73.1	3.5	1.52e+00	0	47	104	0	60	171493
2026-01-28 22:09:46.38	165.47	13.22	-59.3	-73.5	3.5	1.52e+00	0	47	104	0	60	179294
2026-01-28 22:09:47.38	165.56	13.13	-59.0	-73.2	3.5	1.52e+00	0	47	104	0	60	173416
2026-01-28 22:09:48.39	165.64	13.04	-59.2	-73.1	3.5	1.52e+00	0	47	104	0	60	172644
2026-01-28 22:09:49.40	165.73	12.95	-58.9	-73.1	3.5	1.52e+00	0	47	104	0	60	171093
2026-01-28 22:09:50.40	165.81	12.86	-59.1	-73.3	3.5	1.52e+00	0	47	104	0	60	176520
2026-01-28 22:09:51.41	165.89	12.77	-58.8	-73.0	3.5	1.52e+00	0	47	104	0	60	170614
2026-01-28 22:09:52.41	165.97	12.68	-59.2	-73.1	3.5	1.52e+00	0	47	104	0	60	172894
2026-01-28 22:09:53.42	166.06	12.59	-58.8	-72.8	3.5	1.51e+00	0	47	104	0	60	165855
2026-01-28 22:09:54.42	166.14	12.50	-58.9	-73.3	3.5	1.51e+00	0	47	104	0	60	175034
2026-01-28 22:09:55.43	166.22	12.41	-58.6	-72.8	3.5	1.52e+00	0	47	104	0	60	165574
2026-01-28 22:09:56.44	166.30	12.32	-58.7	-72.9	3.5	1.52e+00	0	47	104	0	60	167741
2026-01-28 22:09:57.45	166.38	12.24	-58.3	-72.6	3.5	1.51e+00	0	47	104	0	60	162645
2026-01-28 22:09:58.46	166.46	12.15	-58.7	-73.1	3.6	1.52e+00	0	47	104	0	60	171222
