passes_logs/2026/01/28/R3.2S-Naryan-Mar/R3.2S-Naryan-Mar__20260128_125054_TY-39_rec.log

#Pass ID: 20260128_125054_TY-39
#Satellite: TY-39
#Configuration: TY-39
#almurnet v.1.7.20240730
#Start time: 2026-01-28 12:50:57

#Version: 2.2.20231116
#Station: R3.2S-Naryan-Mar
#Location: 53.008057 lon 67.646978 lat
#TLE: 1 51832U 22019J   26027.53500954  .00003458  00000-0  16483-3 0  9996
#TLE: 2 51832  97.3625  93.9185 0008876  12.4294 347.7158 15.19733854216436

#Time	Az	El	Level	Level2	SNR	BER	BlckErr	Temp	State	Recorded	gain1	gain2
2026-01-28 12:50:57.69	58.45	0.14	-56.3	-77.6	3.5	3.04e+01	0	43	0	0	60	290221
2026-01-28 12:50:58.69	58.33	0.19	-56.7	-60.3	3.6	0.00e+00	0	45	104	0	60	122135
2026-01-28 12:50:59.69	58.22	0.24	-56.7	-60.2	3.6	0.00e+00	0	45	104	0	60	121671
2026-01-28 12:51:00.70	58.11	0.29	-56.9	-60.6	3.6	0.00e+00	0	45	104	0	60	126392
2026-01-28 12:51:01.70	57.99	0.33	-57.1	-60.6	3.6	0.00e+00	0	45	104	0	60	126652
2026-01-28 12:51:02.71	57.88	0.38	-56.0	-59.6	3.6	0.00e+00	0	45	104	0	60	112979
2026-01-28 12:51:03.72	57.76	0.43	-55.4	-59.0	3.6	0.00e+00	0	45	104	0	60	105994
2026-01-28 12:51:04.72	57.65	0.48	-55.3	-59.0	3.6	0.00e+00	0	45	104	0	60	105316
2026-01-28 12:51:05.73	57.53	0.53	-54.6	-58.7	3.6	0.00e+00	0	45	104	0	60	102040
2026-01-28 12:51:06.74	57.42	0.58	-53.2	-57.8	3.6	0.00e+00	0	45	104	0	60	91528
2026-01-28 12:51:07.74	57.30	0.63	-52.6	-57.2	3.6	0.00e+00	0	45	104	0	60	85919
2026-01-28 12:51:08.75	57.18	0.68	-51.7	-55.7	3.6	0.00e+00	0	45	104	0	60	72462
2026-01-28 12:51:09.76	57.06	0.73	-50.3	-54.3	3.6	0.00e+00	0	45	104	0	60	61713
2026-01-28 12:51:10.77	56.95	0.77	-52.2	-55.1	3.6	0.00e+00	0	45	104	0	60	67484
2026-01-28 12:51:11.78	56.83	0.82	-50.3	-55.2	3.6	0.00e+00	0	45	104	0	60	67965
2026-01-28 12:51:12.78	56.71	0.87	-53.1	-56.8	3.6	0.00e+00	0	46	104	0	60	81634
2026-01-28 12:51:13.78	56.59	0.92	-52.8	-55.9	3.6	0.00e+00	0	46	104	0	60	74100
2026-01-28 12:51:14.79	56.47	0.97	-52.8	-56.3	3.6	0.00e+00	0	46	104	0	60	77356
2026-01-28 12:51:15.79	56.35	1.02	-53.3	-55.7	3.6	0.00e+00	0	46	104	0	60	72255
2026-01-28 12:51:16.80	56.22	1.07	-53.3	-55.6	3.6	0.00e+00	0	46	104	0	60	71532
2026-01-28 12:51:17.80	56.10	1.12	-53.2	-55.6	3.6	0.00e+00	0	46	104	0	60	71190
2026-01-28 12:51:18.81	55.98	1.17	-53.1	-55.5	3.6	0.00e+00	0	45	104	0	60	70116
2026-01-28 12:51:19.82	55.86	1.21	-53.1	-55.5	3.6	0.00e+00	0	45	104	0	60	70284
2026-01-28 12:51:20.82	55.73	1.26	-53.0	-55.3	3.6	0.00e+00	0	46	104	0	60	69251
2026-01-28 12:51:21.83	55.61	1.31	-53.1	-55.5	3.6	0.00e+00	0	46	104	0	60	70145
2026-01-28 12:51:22.84	55.48	1.36	-53.0	-55.4	3.6	0.00e+00	0	46	104	0	60	69385
2026-01-28 12:51:23.85	55.36	1.41	-53.0	-55.3	3.6	0.00e+00	0	46	104	0	60	69174
2026-01-28 12:51:24.85	55.23	1.46	-53.0	-55.3	3.6	0.00e+00	0	46	104	0	60	69167
2026-01-28 12:51:25.86	55.11	1.51	-53.0	-55.3	3.6	0.00e+00	0	46	104	0	60	68665
2026-01-28 12:51:26.87	54.98	1.56	-53.0	-55.3	3.6	0.00e+00	0	46	104	0	60	68940
2026-01-28 12:51:27.88	54.85	1.61	-52.9	-55.3	3.6	0.00e+00	0	46	104	0	60	68664
2026-01-28 12:51:28.88	54.72	1.66	-52.9	-55.2	3.6	0.00e+00	0	46	104	0	60	68253
2026-01-28 12:51:29.89	54.59	1.71	-52.9	-55.2	3.6	0.00e+00	0	46	104	0	60	68305
2026-01-28 12:51:30.90	54.46	1.75	-52.9	-55.2	3.6	0.00e+00	0	46	104	0	60	68015
2026-01-28 12:51:31.90	54.34	1.80	-52.8	-55.2	3.6	0.00e+00	0	46	104	0	60	67854
2026-01-28 12:51:32.90	54.21	1.85	-52.8	-55.2	3.6	0.00e+00	0	46	104	0	60	67860
2026-01-28 12:51:33.91	54.08	1.90	-52.8	-55.2	3.6	0.00e+00	0	46	104	0	60	67855
2026-01-28 12:51:34.92	53.94	1.95	-52.8	-55.2	3.7	0.00e+00	0	46	104	0	60	67951
2026-01-28 12:51:35.92	53.81	2.00	-52.8	-55.2	3.6	0.00e+00	0	46	104	0	60	67772
2026-01-28 12:51:36.93	53.68	2.05	-52.8	-55.2	3.6	0.00e+00	0	46	104	0	60	67763
2026-01-28 12:51:37.93	53.55	2.10	-52.8	-55.2	3.7	0.00e+00	0	46	104	0	60	67700
2026-01-28 12:51:38.94	53.41	2.15	-52.8	-55.1	3.6	0.00e+00	0	46	104	0	60	67683
2026-01-28 12:51:39.95	53.28	2.19	-52.8	-55.1	3.6	0.00e+00	0	46	104	0	60	67648
2026-01-28 12:51:40.96	53.14	2.24	-52.8	-55.1	3.6	0.00e+00	0	46	104	0	60	67472
2026-01-28 12:51:41.97	53.01	2.29	-52.8	-55.1	3.6	0.00e+00	0	46	104	0	60	67432
2026-01-28 12:51:42.98	52.87	2.34	-52.8	-55.1	3.6	0.00e+00	0	46	104	0	60	67603
2026-01-28 12:51:43.98	52.73	2.39	-52.7	-55.0	3.6	0.00e+00	0	46	104	0	60	66812
2026-01-28 12:51:44.99	52.60	2.44	-52.7	-55.1	3.6	0.00e+00	0	46	104	0	60	67562
2026-01-28 12:51:45.99	52.46	2.49	-52.7	-55.1	3.6	0.00e+00	0	46	104	0	60	67167
2026-01-28 12:51:47.00	52.32	2.54	-52.7	-55.0	3.6	0.00e+00	0	46	104	0	60	66559
2026-01-28 12:51:48.01	52.18	2.59	-52.7	-55.0	3.6	0.00e+00	0	46	104	0	60	66787
2026-01-28 12:51:49.01	52.04	2.64	-52.7	-55.0	3.6	0.00e+00	0	46	104	0	60	66601
2026-01-28 12:51:50.02	51.90	2.68	-52.6	-55.0	3.6	0.00e+00	0	46	104	0	60	66454
2026-01-28 12:51:51.03	51.76	2.73	-52.6	-55.0	3.6	0.00e+00	0	46	104	0	60	66431
2026-01-28 12:51:52.04	51.62	2.78	-52.6	-55.0	3.6	0.00e+00	0	46	104	0	60	66406
2026-01-28 12:51:53.05	51.48	2.83	-52.7	-55.0	3.6	0.00e+00	0	46	104	0	60	66568
2026-01-28 12:51:54.05	51.33	2.88	-52.6	-55.0	3.6	0.00e+00	0	46	104	0	60	66522
2026-01-28 12:51:55.06	51.19	2.93	-52.6	-55.0	3.6	0.00e+00	0	46	104	0	60	66404
2026-01-28 12:51:56.07	51.05	2.98	-52.6	-55.0	3.6	0.00e+00	0	46	104	0	60	66197
2026-01-28 12:51:57.07	50.90	3.03	-52.6	-55.0	3.6	0.00e+00	0	46	104	0	60	66319
2026-01-28 12:51:58.08	50.76	3.07	-52.6	-55.0	3.6	0.00e+00	0	46	104	0	60	66392
2026-01-28 12:51:59.09	50.61	3.12	-52.6	-55.0	3.6	0.00e+00	0	46	104	0	60	66352
2026-01-28 12:52:00.10	50.46	3.17	-52.6	-55.0	3.6	0.00e+00	0	46	104	0	60	66500
2026-01-28 12:52:01.11	50.32	3.22	-52.6	-55.0	3.6	0.00e+00	0	46	104	0	60	66324
2026-01-28 12:52:02.11	50.17	3.27	-52.6	-54.9	3.6	0.00e+00	0	46	104	0	60	65861
2026-01-28 12:52:03.12	50.02	3.32	-52.6	-55.0	3.6	0.00e+00	0	47	104	0	60	66322
2026-01-28 12:52:04.12	49.87	3.37	-52.6	-55.0	3.6	0.00e+00	0	47	104	0	60	66383
2026-01-28 12:52:05.13	49.72	3.41	-52.6	-54.9	3.6	0.00e+00	0	46	104	0	60	66056
2026-01-28 12:52:06.14	49.57	3.46	-52.6	-55.0	3.6	0.00e+00	0	46	104	0	60	66469
2026-01-28 12:52:07.14	49.42	3.51	-52.6	-55.0	3.6	0.00e+00	0	46	104	0	60	66514
2026-01-28 12:52:08.15	49.27	3.56	-52.6	-55.0	3.6	0.00e+00	0	47	104	0	60	66354
2026-01-28 12:52:09.15	49.12	3.61	-52.6	-54.9	3.6	0.00e+00	0	46	104	0	60	66003
2026-01-28 12:52:10.16	48.97	3.66	-52.6	-55.0	3.6	0.00e+00	0	47	104	0	60	66469
2026-01-28 12:52:11.16	48.81	3.70	-52.6	-55.0	3.6	0.00e+00	0	47	104	0	60	66214
2026-01-28 12:52:12.17	48.66	3.75	-52.6	-55.0	3.6	0.00e+00	0	47	104	0	60	66226
2026-01-28 12:52:13.17	48.51	3.80	-52.6	-55.0	3.6	0.00e+00	0	47	104	0	60	66229
2026-01-28 12:52:14.18	48.35	3.85	-52.6	-55.0	3.6	0.00e+00	0	47	104	0	60	66280
2026-01-28 12:52:15.18	48.19	3.90	-52.6	-54.9	3.6	0.00e+00	0	47	104	0	60	65933
2026-01-28 12:52:16.19	48.04	3.94	-52.6	-54.9	3.6	0.00e+00	0	47	104	0	60	66010
2026-01-28 12:52:17.20	47.88	3.99	-52.6	-54.9	3.7	0.00e+00	0	47	104	0	60	65892
2026-01-28 12:52:18.21	47.72	4.04	-52.6	-54.9	3.6	0.00e+00	0	47	104	0	60	65739
2026-01-28 12:52:19.22	47.56	4.09	-52.6	-54.9	3.6	0.00e+00	0	47	104	0	60	65569
2026-01-28 12:52:20.22	47.40	4.13	-52.6	-54.9	3.6	0.00e+00	0	47	104	0	60	65616
2026-01-28 12:52:21.23	47.24	4.18	-52.6	-54.9	3.6	0.00e+00	0	47	104	0	60	65527
2026-01-28 12:52:22.23	47.08	4.23	-52.6	-54.9	3.6	0.00e+00	0	47	104	0	60	65762
2026-01-28 12:52:23.24	46.92	4.28	-52.5	-54.9	3.6	0.00e+00	0	47	104	0	60	65655
2026-01-28 12:52:24.25	46.76	4.33	-52.5	-54.8	3.6	0.00e+00	0	47	104	0	60	65369
2026-01-28 12:52:25.25	46.60	4.37	-52.6	-54.9	3.6	0.00e+00	0	47	104	0	60	65511
2026-01-28 12:52:26.26	46.43	4.42	-52.6	-54.9	3.6	0.00e+00	0	47	104	0	60	65979
2026-01-28 12:52:27.27	46.27	4.47	-52.5	-54.9	3.6	0.00e+00	0	47	104	0	60	65660
2026-01-28 12:52:28.28	46.10	4.51	-52.6	-54.9	3.6	0.00e+00	0	47	104	0	60	65646
2026-01-28 12:52:29.29	45.94	4.56	-52.5	-54.9	3.6	0.00e+00	0	47	104	0	60	65517
2026-01-28 12:52:30.29	45.77	4.61	-52.5	-54.9	3.6	0.00e+00	0	47	104	0	60	65639
2026-01-28 12:52:31.31	45.60	4.66	-52.5	-54.9	3.6	0.00e+00	0	47	104	0	60	65633
2026-01-28 12:52:32.31	45.44	4.70	-52.6	-54.9	3.6	0.00e+00	0	47	104	0	60	65561
2026-01-28 12:52:33.32	45.27	4.75	-52.5	-54.9	3.6	0.00e+00	0	47	104	0	60	65708
2026-01-28 12:52:34.33	45.10	4.80	-52.5	-54.8	3.6	0.00e+00	0	47	104	0	60	65300
2026-01-28 12:52:35.33	44.93	4.84	-52.5	-54.8	3.7	0.00e+00	0	47	104	0	60	65301
2026-01-28 12:52:36.34	44.76	4.89	-52.5	-54.8	3.6	0.00e+00	0	47	104	0	60	65259
2026-01-28 12:52:37.34	44.59	4.94	-52.5	-54.9	3.6	0.00e+00	0	47	104	0	60	65416
2026-01-28 12:52:38.35	44.42	4.98	-52.5	-54.9	3.6	0.00e+00	0	47	104	0	60	65512
2026-01-28 12:52:39.36	44.25	5.03	-52.5	-54.8	3.6	0.00e+00	0	47	104	0	60	65149
2026-01-28 12:52:40.37	44.07	5.07	-52.5	-54.9	3.7	0.00e+00	0	47	104	0	60	65803
2026-01-28 12:52:41.37	43.90	5.12	-52.5	-54.8	3.6	0.00e+00	0	47	104	0	60	65178
2026-01-28 12:52:42.37	43.73	5.17	-52.5	-54.9	3.6	0.00e+00	0	47	104	0	60	65430
2026-01-28 12:52:43.38	43.55	5.21	-52.5	-54.8	3.6	0.00e+00	0	47	104	0	60	65275
2026-01-28 12:52:44.39	43.37	5.26	-52.5	-54.8	3.6	0.00e+00	0	47	104	0	60	65294
2026-01-28 12:52:45.40	43.20	5.30	-52.5	-54.9	3.6	0.00e+00	0	47	104	0	60	65418
2026-01-28 12:52:46.41	43.02	5.35	-52.5	-54.9	3.6	0.00e+00	0	47	104	0	60	65442
2026-01-28 12:52:47.42	42.84	5.40	-52.5	-54.9	3.6	0.00e+00	0	47	104	0	60	65535
2026-01-28 12:52:48.42	42.66	5.44	-52.5	-54.9	3.6	0.00e+00	0	47	104	0	60	65521
2026-01-28 12:52:49.43	42.48	5.49	-52.5	-54.8	3.6	0.00e+00	0	47	104	0	60	65391
2026-01-28 12:52:50.44	42.30	5.53	-52.5	-54.8	3.6	0.00e+00	0	47	104	0	60	65272
2026-01-28 12:52:51.45	42.12	5.58	-52.5	-54.8	3.6	0.00e+00	0	47	104	0	60	65056
2026-01-28 12:52:52.46	41.94	5.62	-52.5	-54.8	3.6	0.00e+00	0	47	104	0	60	65025
2026-01-28 12:52:53.46	41.76	5.67	-52.5	-54.8	3.6	0.00e+00	0	47	104	0	60	64860
2026-01-28 12:52:54.47	41.58	5.71	-52.5	-54.8	3.6	0.00e+00	0	47	104	0	60	64849
2026-01-28 12:52:55.47	41.39	5.75	-52.5	-54.8	3.6	0.00e+00	0	47	104	0	60	64744
2026-01-28 12:52:56.48	41.21	5.80	-52.5	-54.9	3.6	0.00e+00	0	47	104	0	60	65418
2026-01-28 12:52:57.49	41.02	5.84	-52.5	-54.8	3.6	0.00e+00	0	47	104	0	60	65119
2026-01-28 12:52:58.50	40.84	5.89	-52.5	-54.8	3.6	0.00e+00	0	47	104	0	60	65259
2026-01-28 12:52:59.50	40.65	5.93	-52.5	-54.8	3.6	0.00e+00	0	47	104	0	60	65204
2026-01-28 12:53:00.51	40.46	5.98	-52.5	-54.8	3.6	0.00e+00	0	47	104	0	60	65340
2026-01-28 12:53:01.52	40.27	6.02	-52.5	-54.9	3.6	0.00e+00	0	47	104	0	60	65756
2026-01-28 12:53:02.53	40.09	6.06	-52.1	-54.5	3.6	0.00e+00	0	47	104	0	60	63094
2026-01-28 12:53:03.54	39.90	6.11	-51.9	-54.1	3.6	0.00e+00	0	47	104	0	60	60249
2026-01-28 12:53:04.55	39.70	6.15	-52.3	-54.5	3.6	0.00e+00	0	47	104	0	60	63147
2026-01-28 12:53:05.55	39.52	6.19	-52.0	-54.2	3.6	0.00e+00	0	47	104	0	60	60466
2026-01-28 12:53:06.56	39.32	6.24	-50.4	-53.8	3.6	0.00e+00	0	47	104	0	60	58199
2026-01-28 12:53:07.57	39.13	6.28	-51.8	-54.1	3.6	0.00e+00	0	47	104	0	60	60265
2026-01-28 12:53:08.57	38.94	6.32	-50.7	-53.1	3.6	0.00e+00	0	47	104	0	60	53248
2026-01-28 12:53:09.58	38.74	6.36	-50.4	-53.4	3.6	0.00e+00	0	47	104	0	60	55221
2026-01-28 12:53:10.59	38.55	6.41	-50.2	-54.1	3.6	0.00e+00	0	47	104	0	60	60288
2026-01-28 12:53:11.59	38.36	6.45	-51.9	-54.8	3.5	0.00e+00	0	47	104	0	60	65328
2026-01-28 12:53:12.59	38.16	6.49	-51.1	-54.1	3.6	0.00e+00	0	47	104	0	60	59887
2026-01-28 12:53:13.59	37.97	6.53	-51.7	-55.0	3.6	0.00e+00	0	47	104	0	60	66547
2026-01-28 12:53:14.60	37.77	6.57	-51.9	-55.0	3.6	0.00e+00	0	47	104	0	60	66595
2026-01-28 12:53:15.60	37.57	6.61	-50.2	-53.0	3.6	0.00e+00	0	47	104	0	60	52780
2026-01-28 12:53:16.61	37.37	6.65	-50.7	-53.2	3.6	0.00e+00	0	47	104	0	60	53870
2026-01-28 12:53:17.62	37.17	6.70	-50.6	-53.2	3.6	0.00e+00	0	47	104	0	60	53857
2026-01-28 12:53:18.62	36.97	6.74	-50.6	-52.8	3.6	0.00e+00	0	47	104	0	60	51411
2026-01-28 12:53:19.62	36.78	6.78	-50.9	-53.5	3.6	0.00e+00	0	47	104	0	60	56044
2026-01-28 12:53:20.63	36.57	6.82	-51.6	-53.9	3.6	0.00e+00	0	47	104	0	60	58860
2026-01-28 12:53:21.64	36.37	6.86	-51.0	-54.8	3.6	0.00e+00	0	47	104	0	60	65127
2026-01-28 12:53:22.65	36.17	6.90	-53.2	-56.0	3.6	0.00e+00	0	47	104	0	60	74290
2026-01-28 12:53:23.65	35.97	6.94	-52.9	-56.1	3.6	0.00e+00	0	47	104	0	60	75467
2026-01-28 12:53:24.66	35.76	6.98	-50.8	-54.6	3.6	0.00e+00	0	47	104	0	60	63434
2026-01-28 12:53:25.66	35.56	7.02	-51.0	-54.7	3.6	0.00e+00	0	47	104	0	60	64240
2026-01-28 12:53:26.66	35.35	7.06	-52.3	-55.0	3.6	0.00e+00	0	47	104	0	60	66864
2026-01-28 12:53:27.67	35.15	7.09	-52.0	-55.5	3.6	0.00e+00	0	47	104	0	60	70767
2026-01-28 12:53:28.67	34.94	7.13	-51.8	-55.6	3.6	0.00e+00	0	47	104	0	60	71145
2026-01-28 12:53:29.68	34.73	7.17	-51.7	-55.1	3.6	0.00e+00	0	47	104	0	60	67186
2026-01-28 12:53:30.68	34.52	7.21	-51.5	-55.3	3.6	0.00e+00	0	47	104	0	60	68835
2026-01-28 12:53:31.69	34.32	7.25	-51.2	-55.1	3.6	0.00e+00	0	47	104	0	60	67222
2026-01-28 12:53:32.69	34.11	7.29	-51.1	-55.3	3.6	0.00e+00	0	47	104	0	60	68857
2026-01-28 12:53:33.70	33.90	7.32	-50.5	-55.6	3.6	0.00e+00	0	47	104	0	60	71203
2026-01-28 12:53:34.71	33.68	7.36	-50.9	-55.3	3.6	0.00e+00	0	47	104	0	60	68850
2026-01-28 12:53:35.71	33.47	7.40	-51.4	-55.3	3.6	0.00e+00	0	47	104	0	60	68545
2026-01-28 12:53:36.72	33.26	7.44	-50.6	-55.3	3.6	0.00e+00	0	47	104	0	60	68852
2026-01-28 12:53:37.73	33.05	7.47	-50.3	-55.4	3.6	0.00e+00	0	47	104	0	60	69436
2026-01-28 12:53:38.73	32.83	7.51	-53.0	-56.7	3.6	0.00e+00	0	47	104	0	60	81239
2026-01-28 12:53:39.74	32.62	7.55	-52.3	-56.2	3.6	0.00e+00	0	47	104	0	60	76305
2026-01-28 12:53:40.73	32.41	7.58	-52.6	-56.3	3.6	0.00e+00	0	47	104	0	60	77689
2026-01-28 12:53:41.74	32.19	7.62	-51.9	-55.5	3.5	0.00e+00	0	47	104	0	60	70270
2026-01-28 12:53:42.74	31.98	7.65	-52.3	-56.1	3.6	0.00e+00	0	47	104	0	60	75882
2026-01-28 12:53:43.75	31.76	7.69	-51.7	-55.5	3.6	0.00e+00	0	47	104	0	60	70266
2026-01-28 12:53:44.74	31.54	7.72	-51.2	-54.7	3.6	0.00e+00	0	47	104	0	60	64585
2026-01-28 12:53:45.75	31.33	7.76	-50.8	-54.6	3.6	0.00e+00	0	47	104	0	60	63303
2026-01-28 12:53:46.75	31.11	7.79	-50.9	-54.8	3.6	0.00e+00	0	47	104	0	60	64756
2026-01-28 12:53:47.76	30.89	7.82	-51.2	-54.8	3.6	0.00e+00	0	47	104	0	60	65206
2026-01-28 12:53:48.76	30.67	7.86	-50.8	-54.7	3.5	0.00e+00	0	47	104	0	60	64277
2026-01-28 12:53:49.76	30.45	7.89	-50.3	-54.4	3.6	0.00e+00	0	47	104	0	60	62062
2026-01-28 12:53:50.77	30.23	7.93	-51.0	-54.7	3.6	0.00e+00	0	47	104	0	60	64406
2026-01-28 12:53:51.78	30.00	7.96	-50.4	-54.5	3.6	0.00e+00	0	47	104	0	60	63072
2026-01-28 12:53:52.78	29.78	7.99	-50.2	-54.0	3.6	0.00e+00	0	47	104	0	60	59485
2026-01-28 12:53:53.78	29.56	8.02	-50.4	-54.2	3.6	0.00e+00	0	47	104	0	60	60469
2026-01-28 12:53:54.79	29.34	8.06	-50.5	-54.3	3.6	0.00e+00	0	47	104	0	60	61562
2026-01-28 12:53:55.80	29.11	8.09	-50.7	-54.4	3.6	0.00e+00	0	47	104	0	60	62036
2026-01-28 12:53:56.80	28.89	8.12	-50.4	-54.3	3.6	0.00e+00	0	47	104	0	60	61421
2026-01-28 12:53:57.80	28.66	8.15	-49.4	-53.6	3.6	0.00e+00	0	47	104	0	60	56373
2026-01-28 12:53:58.81	28.44	8.18	-49.4	-53.0	3.5	0.00e+00	0	47	104	0	60	52918
2026-01-28 12:53:59.81	28.21	8.21	-48.9	-51.7	3.6	0.00e+00	0	47	104	0	60	45568
2026-01-28 12:54:00.81	27.98	8.24	-48.4	-51.4	3.5	0.00e+00	0	47	104	0	60	43863
2026-01-28 12:54:01.82	27.76	8.27	-48.2	-51.2	3.6	0.00e+00	0	47	104	0	60	42863
2026-01-28 12:54:02.82	27.53	8.30	-49.4	-52.8	3.6	0.00e+00	0	47	104	0	60	51454
2026-01-28 12:54:03.83	27.30	8.33	-48.9	-51.7	3.5	0.00e+00	0	48	104	0	60	45648
2026-01-28 12:54:04.84	27.07	8.36	-50.7	-54.0	3.6	0.00e+00	0	47	104	0	60	59611
2026-01-28 12:54:05.84	26.84	8.39	-51.2	-54.8	3.6	0.00e+00	0	47	104	0	60	65006
2026-01-28 12:54:06.84	26.61	8.42	-49.4	-52.8	3.5	0.00e+00	0	47	104	0	60	51484
2026-01-28 12:54:07.85	26.38	8.45	-48.4	-51.4	3.6	0.00e+00	0	47	104	0	60	43814
2026-01-28 12:54:08.86	26.14	8.47	-48.3	-51.1	3.6	0.00e+00	0	48	104	0	60	42245
2026-01-28 12:54:09.86	25.91	8.50	-48.6	-51.3	3.6	0.00e+00	0	48	104	0	60	43216
2026-01-28 12:54:10.86	25.68	8.53	-47.4	-51.8	3.6	0.00e+00	0	47	104	0	60	46062
2026-01-28 12:54:11.87	25.45	8.55	-51.0	-54.0	3.6	0.00e+00	0	47	104	0	60	59608
2026-01-28 12:54:12.87	25.21	8.58	-51.4	-55.0	3.6	0.00e+00	0	47	104	0	60	66768
2026-01-28 12:54:13.88	24.98	8.61	-49.1	-51.8	3.6	0.00e+00	0	47	104	0	60	45974
2026-01-28 12:54:14.89	24.74	8.63	-49.9	-54.4	3.6	0.00e+00	0	47	104	0	60	61858
2026-01-28 12:54:15.89	24.51	8.66	-48.7	-52.0	3.6	0.00e+00	0	47	104	0	60	47269
2026-01-28 12:54:16.90	24.27	8.68	-49.3	-52.0	3.6	0.00e+00	0	47	104	0	60	46854
2026-01-28 12:54:17.90	24.04	8.71	-49.3	-51.9	3.6	0.00e+00	0	47	104	0	60	46599
2026-01-28 12:54:18.90	23.80	8.73	-50.1	-54.7	3.6	0.00e+00	0	47	104	0	60	64200
2026-01-28 12:54:19.90	23.56	8.76	-49.3	-52.0	3.6	0.00e+00	0	47	104	0	60	47130
2026-01-28 12:54:20.91	23.32	8.78	-49.1	-52.0	3.6	0.00e+00	0	48	104	0	60	47048
2026-01-28 12:54:21.92	23.08	8.80	-49.5	-53.4	3.6	0.00e+00	0	47	104	0	60	55032
2026-01-28 12:54:22.93	22.84	8.83	-49.5	-53.8	3.6	0.00e+00	0	47	104	0	60	58114
2026-01-28 12:54:23.93	22.61	8.85	-50.2	-52.9	3.6	0.00e+00	0	47	104	0	60	52030
2026-01-28 12:54:24.94	22.37	8.87	-48.4	-54.2	3.6	0.00e+00	0	47	104	0	60	60452
2026-01-28 12:54:25.94	22.13	8.89	-50.7	-53.7	3.6	0.00e+00	0	48	104	0	60	57516
2026-01-28 12:54:26.95	21.88	8.91	-49.2	-53.2	3.6	0.00e+00	0	48	104	0	60	53970
2026-01-28 12:54:27.96	21.64	8.93	-49.4	-53.3	3.6	0.00e+00	0	48	104	0	60	54952
2026-01-28 12:54:28.97	21.40	8.95	-50.9	-53.8	3.6	0.00e+00	0	48	104	0	60	57905
2026-01-28 12:54:29.97	21.16	8.97	-50.7	-53.8	3.6	0.00e+00	0	47	104	0	60	58206
2026-01-28 12:54:30.98	20.92	8.99	-47.8	-53.5	3.6	0.00e+00	0	48	104	0	60	55704
2026-01-28 12:54:31.99	20.67	9.01	-50.9	-53.9	3.6	0.00e+00	0	47	104	0	60	58287
2026-01-28 12:54:33.00	20.43	9.03	-47.3	-53.3	3.6	0.00e+00	0	47	104	0	60	54702
2026-01-28 12:54:34.01	20.18	9.05	-51.5	-56.1	3.5	0.00e+00	0	47	104	0	60	75907
2026-01-28 12:54:35.01	19.94	9.07	-49.6	-54.9	3.6	0.00e+00	0	47	104	0	60	66051
2026-01-28 12:54:36.01	19.70	9.09	-49.8	-55.0	3.6	0.00e+00	0	47	104	0	60	66196
2026-01-28 12:54:37.02	19.45	9.10	-51.6	-56.0	3.6	0.00e+00	0	48	104	0	60	74580
2026-01-28 12:54:38.03	19.20	9.12	-52.3	-56.7	3.6	0.00e+00	0	47	104	0	60	80812
2026-01-28 12:54:39.04	18.96	9.14	-48.0	-52.1	3.6	0.00e+00	0	48	104	0	60	47753
2026-01-28 12:54:40.04	18.71	9.15	-49.2	-54.7	3.6	0.00e+00	0	47	104	0	60	64134
2026-01-28 12:54:41.04	18.47	9.17	-48.8	-54.8	3.6	0.00e+00	0	47	104	0	60	64839
2026-01-28 12:54:42.05	18.22	9.19	-53.0	-57.0	3.6	0.00e+00	0	48	104	0	60	83671
2026-01-28 12:54:43.06	17.97	9.20	-51.9	-56.5	3.6	0.00e+00	0	48	104	0	60	78776
2026-01-28 12:54:44.07	17.73	9.21	-52.2	-56.6	3.6	0.00e+00	0	48	104	0	60	79793
2026-01-28 12:54:45.08	17.48	9.23	-51.4	-56.6	3.6	0.00e+00	0	47	104	0	60	80095
2026-01-28 12:54:46.08	17.23	9.24	-51.0	-56.4	3.6	0.00e+00	0	47	104	0	60	78330
2026-01-28 12:54:47.09	16.98	9.26	-52.1	-55.3	3.6	0.00e+00	0	47	104	0	60	68767
2026-01-28 12:54:48.10	16.73	9.27	-49.1	-52.2	3.6	0.00e+00	0	47	104	0	60	48423
2026-01-28 12:54:49.11	16.48	9.28	-50.5	-55.0	3.6	0.00e+00	0	47	104	0	60	66429
2026-01-28 12:54:50.12	16.23	9.29	-52.3	-55.3	3.6	0.00e+00	0	47	104	0	60	68494
2026-01-28 12:54:51.12	15.99	9.30	-50.0	-52.7	3.6	0.00e+00	0	48	104	0	60	51317
2026-01-28 12:54:52.13	15.74	9.32	-50.6	-53.1	3.6	0.00e+00	0	48	104	0	60	53447
2026-01-28 12:54:53.14	15.49	9.33	-49.8	-52.9	3.6	0.00e+00	0	48	104	0	60	52351
2026-01-28 12:54:54.15	15.24	9.34	-49.7	-53.0	3.6	0.00e+00	0	48	104	0	60	52665
2026-01-28 12:54:55.15	14.99	9.35	-50.0	-54.5	3.6	0.00e+00	0	48	104	0	60	62521
2026-01-28 12:54:56.15	14.74	9.36	-50.6	-53.6	3.5	0.00e+00	0	48	104	0	60	56891
2026-01-28 12:54:57.16	14.49	9.36	-50.0	-53.4	3.6	0.00e+00	0	48	104	0	60	55420
2026-01-28 12:54:58.16	14.24	9.37	-52.2	-55.8	3.6	0.00e+00	0	48	104	0	60	73061
2026-01-28 12:54:59.17	13.99	9.38	-51.5	-54.1	3.6	0.00e+00	0	48	104	0	60	60283
2026-01-28 12:55:00.18	13.73	9.39	-51.6	-54.3	3.6	0.00e+00	0	48	104	0	60	61062
2026-01-28 12:55:01.18	13.49	9.40	-51.9	-54.6	3.6	0.00e+00	0	48	104	0	60	63555
2026-01-28 12:55:02.19	13.23	9.40	-52.1	-55.0	3.6	0.00e+00	0	48	104	0	60	66486
2026-01-28 12:55:03.19	12.98	9.41	-52.8	-56.5	3.6	0.00e+00	0	48	104	0	60	78861
2026-01-28 12:55:04.20	12.73	9.41	-52.9	-55.7	3.6	0.00e+00	0	48	104	0	60	72363
2026-01-28 12:55:05.21	12.48	9.42	-53.9	-58.0	3.6	0.00e+00	0	48	104	0	60	93660
2026-01-28 12:55:06.22	12.23	9.42	-53.4	-56.5	3.6	0.00e+00	0	48	104	0	60	79432
2026-01-28 12:55:07.22	11.98	9.43	-53.0	-56.0	3.6	0.00e+00	0	48	104	0	60	74771
2026-01-28 12:55:08.23	11.72	9.43	-53.7	-56.6	3.6	0.00e+00	0	48	104	0	60	80221
2026-01-28 12:55:09.23	11.47	9.44	-53.9	-56.8	3.6	0.00e+00	0	48	104	0	60	82268
2026-01-28 12:55:10.24	11.22	9.44	-54.0	-57.0	3.6	0.00e+00	0	48	104	0	60	83576
2026-01-28 12:55:11.24	10.97	9.44	-53.5	-56.9	3.6	0.00e+00	0	48	104	0	60	82410
2026-01-28 12:55:12.25	10.72	9.44	-54.3	-58.2	3.6	0.00e+00	0	48	104	0	60	95701
2026-01-28 12:55:13.25	10.47	9.45	-53.5	-57.2	3.6	0.00e+00	0	48	104	0	60	86164
2026-01-28 12:55:14.26	10.21	9.45	-53.6	-56.5	3.6	0.00e+00	0	48	104	0	60	78987
2026-01-28 12:55:15.27	9.96	9.45	-53.0	-57.9	3.6	0.00e+00	0	48	104	0	60	92735
2026-01-28 12:55:16.28	9.71	9.45	-54.2	-57.4	3.6	0.00e+00	0	48	104	0	60	87302
2026-01-28 12:55:17.28	9.46	9.45	-54.4	-57.6	3.6	0.00e+00	0	48	104	0	60	89490
2026-01-28 12:55:18.29	9.20	9.45	-54.2	-57.7	3.6	0.00e+00	0	48	104	0	60	90944
2026-01-28 12:55:19.29	8.95	9.45	-53.9	-57.9	3.6	0.00e+00	0	48	104	0	60	92497
2026-01-28 12:55:20.30	8.70	9.45	-54.8	-58.6	3.6	0.00e+00	0	48	104	0	60	100867
2026-01-28 12:55:21.30	8.45	9.44	-54.1	-58.1	3.6	0.00e+00	0	48	104	0	60	94718
2026-01-28 12:55:22.31	8.20	9.44	-54.6	-58.0	3.6	0.00e+00	0	48	104	0	60	94389
2026-01-28 12:55:23.31	7.95	9.44	-52.7	-57.5	3.6	0.00e+00	0	48	104	0	60	89041
2026-01-28 12:55:24.32	7.69	9.44	-52.4	-57.4	3.6	0.00e+00	0	48	104	0	60	87557
2026-01-28 12:55:25.32	7.44	9.43	-52.8	-57.5	3.6	0.00e+00	0	48	104	0	60	88777
2026-01-28 12:55:26.33	7.19	9.43	-53.0	-57.6	3.6	0.00e+00	0	48	104	0	60	89540
2026-01-28 12:55:27.33	6.94	9.42	-54.4	-58.2	3.6	0.00e+00	0	48	104	0	60	96465
2026-01-28 12:55:28.34	6.69	9.42	-54.3	-58.0	3.6	0.00e+00	0	48	104	0	60	93998
2026-01-28 12:55:29.34	6.44	9.41	-53.2	-57.3	3.6	0.00e+00	0	48	104	0	60	86227
2026-01-28 12:55:30.35	6.19	9.41	-53.0	-56.7	3.6	0.00e+00	0	48	104	0	60	80571
2026-01-28 12:55:31.36	5.93	9.40	-52.7	-57.2	3.6	0.00e+00	0	48	104	0	60	85536
2026-01-28 12:55:32.36	5.69	9.40	-53.1	-56.7	3.6	0.00e+00	0	48	104	0	60	80531
2026-01-28 12:55:33.37	5.43	9.39	-53.0	-56.7	3.6	0.00e+00	0	48	104	0	60	80970
2026-01-28 12:55:34.38	5.18	9.38	-52.7	-56.7	3.6	0.00e+00	0	48	104	0	60	81062
2026-01-28 12:55:35.38	4.93	9.37	-53.0	-57.2	3.6	0.00e+00	0	48	104	0	60	85983
2026-01-28 12:55:36.39	4.68	9.36	-54.6	-58.5	3.6	0.00e+00	0	48	104	0	60	99824
2026-01-28 12:55:37.40	4.43	9.36	-53.4	-57.0	3.6	0.00e+00	0	48	104	0	60	83842
2026-01-28 12:55:38.41	4.18	9.35	-53.2	-56.8	3.6	0.00e+00	0	48	104	0	60	81922
2026-01-28 12:55:39.41	3.93	9.34	-53.0	-56.9	3.6	0.00e+00	0	48	104	0	60	82659
2026-01-28 12:55:40.42	3.68	9.33	-52.9	-56.7	3.6	0.00e+00	0	48	104	0	60	81351
2026-01-28 12:55:41.42	3.43	9.32	-53.3	-56.9	3.6	0.00e+00	0	48	104	0	60	82694
2026-01-28 12:55:42.43	3.18	9.30	-53.5	-57.1	3.6	0.00e+00	0	48	104	0	60	84594
2026-01-28 12:55:43.43	2.94	9.29	-52.1	-56.7	3.6	0.00e+00	0	48	104	0	60	81015
2026-01-28 12:55:44.44	2.69	9.28	-54.2	-57.8	3.6	0.00e+00	0	48	104	0	60	91742
2026-01-28 12:55:45.45	2.44	9.27	-53.8	-57.4	3.6	0.00e+00	0	48	104	0	60	87417
2026-01-28 12:55:46.46	2.19	9.26	-52.4	-56.7	3.6	0.00e+00	0	48	104	0	60	81353
2026-01-28 12:55:47.46	1.94	9.24	-52.9	-57.1	3.6	0.00e+00	0	48	104	0	60	84262
2026-01-28 12:55:48.47	1.70	9.23	-52.6	-56.7	3.6	0.00e+00	0	48	104	0	60	81371
2026-01-28 12:55:49.48	1.45	9.21	-52.6	-56.7	3.6	0.00e+00	0	48	104	0	60	81158
2026-01-28 12:55:50.49	1.20	9.20	-52.7	-56.6	3.6	0.00e+00	0	48	104	0	60	80402
2026-01-28 12:55:51.50	0.95	9.19	-52.6	-56.6	3.6	0.00e+00	0	48	104	0	60	80092
2026-01-28 12:55:52.50	0.71	9.17	-53.0	-57.3	3.6	0.00e+00	0	48	104	0	60	86989
2026-01-28 12:55:53.51	0.46	9.15	-52.2	-56.4	3.6	0.00e+00	0	48	104	0	60	78551
2026-01-28 12:55:54.52	0.21	9.14	-52.5	-56.7	3.6	0.00e+00	0	48	104	0	60	80765
2026-01-28 12:55:55.52	359.97	9.12	-52.3	-56.4	3.6	0.00e+00	0	48	104	0	60	78486
2026-01-28 12:55:56.53	359.72	9.10	-52.7	-56.8	3.6	0.00e+00	0	48	104	0	60	81873
2026-01-28 12:55:57.54	359.48	9.09	-52.7	-56.8	3.5	0.00e+00	0	48	104	0	60	81873
2026-01-28 12:55:58.54	359.24	9.07	-52.9	-56.8	3.6	0.00e+00	0	48	104	0	60	81750
2026-01-28 12:55:59.55	358.99	9.05	-53.4	-57.1	3.6	0.00e+00	0	48	104	0	60	84851
2026-01-28 12:56:00.55	358.75	9.03	-53.8	-57.2	3.6	0.00e+00	0	48	104	0	60	85846
2026-01-28 12:56:01.55	358.51	9.01	-53.5	-57.3	3.6	0.00e+00	0	48	104	0	60	86439
2026-01-28 12:56:02.56	358.27	8.99	-53.6	-57.2	3.6	0.00e+00	0	48	104	0	60	85847
2026-01-28 12:56:03.56	358.03	8.97	-53.5	-57.2	3.6	0.00e+00	0	48	104	0	60	85668
2026-01-28 12:56:04.57	357.78	8.95	-53.7	-57.4	3.6	0.00e+00	0	48	104	0	60	88088
2026-01-28 12:56:05.58	357.54	8.93	-53.5	-57.3	3.6	0.00e+00	0	48	104	0	60	86357
2026-01-28 12:56:06.58	357.30	8.91	-53.7	-57.6	3.6	0.00e+00	0	48	104	0	60	89518
2026-01-28 12:56:07.59	357.06	8.89	-53.8	-57.3	3.6	0.00e+00	0	48	104	0	60	86834
2026-01-28 12:56:08.60	356.82	8.87	-53.8	-57.4	3.6	0.00e+00	0	48	104	0	60	87282
2026-01-28 12:56:09.61	356.58	8.85	-53.6	-57.3	3.6	0.00e+00	0	48	104	0	60	86571
2026-01-28 12:56:10.61	356.34	8.83	-52.9	-57.0	3.6	0.00e+00	0	48	104	0	60	83489
2026-01-28 12:56:11.62	356.10	8.80	-53.1	-57.1	3.6	0.00e+00	0	48	104	0	60	84553
2026-01-28 12:56:12.62	355.87	8.78	-53.4	-57.4	3.6	0.00e+00	0	48	104	0	60	87708
2026-01-28 12:56:13.63	355.63	8.76	-52.5	-57.1	3.6	0.00e+00	0	48	104	0	60	84939
2026-01-28 12:56:14.64	355.39	8.73	-53.3	-57.4	3.6	0.00e+00	0	48	104	0	60	87525
2026-01-28 12:56:15.64	355.15	8.71	-53.0	-57.2	3.6	0.00e+00	0	48	104	0	60	85413
2026-01-28 12:56:16.65	354.92	8.68	-53.7	-57.5	3.6	0.00e+00	0	48	104	0	60	88534
2026-01-28 12:56:17.66	354.68	8.66	-52.2	-57.0	3.6	0.00e+00	0	48	104	0	60	83882
2026-01-28 12:56:18.66	354.45	8.63	-53.7	-57.5	3.6	0.00e+00	0	48	104	0	60	88285
2026-01-28 12:56:19.67	354.21	8.61	-53.2	-57.4	3.6	0.00e+00	0	48	104	0	60	87305
2026-01-28 12:56:20.68	353.98	8.58	-53.6	-57.5	3.6	0.00e+00	0	48	104	0	60	88377
2026-01-28 12:56:21.69	353.74	8.56	-53.2	-57.4	3.6	0.00e+00	0	48	104	0	60	87519
2026-01-28 12:56:22.69	353.51	8.53	-52.9	-57.2	3.6	0.00e+00	0	48	104	0	60	85639
2026-01-28 12:56:23.70	353.28	8.50	-53.5	-57.5	3.6	0.00e+00	0	48	104	0	60	88494
2026-01-28 12:56:24.70	353.05	8.47	-52.8	-57.2	3.6	0.00e+00	0	48	104	0	60	85455
2026-01-28 12:56:25.71	352.81	8.45	-54.0	-57.7	3.6	0.00e+00	0	48	104	0	60	91043
2026-01-28 12:56:26.71	352.58	8.42	-53.6	-57.5	3.6	0.00e+00	0	48	104	0	60	89025
2026-01-28 12:56:27.72	352.35	8.39	-53.2	-57.4	3.6	0.00e+00	0	48	104	0	60	87235
2026-01-28 12:56:28.72	352.13	8.36	-53.5	-57.6	3.6	0.00e+00	0	48	104	0	60	89469
2026-01-28 12:56:29.73	351.90	8.33	-54.3	-58.0	3.6	0.00e+00	0	48	104	0	60	93957
2026-01-28 12:56:30.73	351.67	8.30	-53.0	-57.4	3.6	0.00e+00	0	48	104	0	60	87618
2026-01-28 12:56:31.74	351.44	8.27	-52.8	-57.5	3.6	0.00e+00	0	48	104	0	60	88328
2026-01-28 12:56:32.74	351.21	8.24	-52.7	-57.3	3.6	0.00e+00	0	48	104	0	60	86222
2026-01-28 12:56:33.74	350.99	8.21	-52.7	-57.3	3.6	0.00e+00	0	48	104	0	60	86257
2026-01-28 12:56:34.75	350.76	8.18	-53.7	-57.7	3.6	0.00e+00	0	48	104	0	60	90787
2026-01-28 12:56:35.76	350.54	8.15	-54.0	-57.9	3.6	0.00e+00	0	48	104	0	60	92438
2026-01-28 12:56:36.76	350.31	8.12	-52.9	-57.3	3.6	0.00e+00	0	48	104	0	60	86236
2026-01-28 12:56:37.77	350.09	8.09	-50.7	-56.4	3.6	0.00e+00	0	48	104	0	60	78419
2026-01-28 12:56:38.78	349.86	8.06	-52.2	-57.0	3.6	0.00e+00	0	48	104	0	60	84116
2026-01-28 12:56:39.78	349.64	8.03	-50.7	-56.5	3.5	0.00e+00	0	48	104	0	60	79460
2026-01-28 12:56:40.79	349.42	7.99	-50.3	-56.2	3.6	0.00e+00	0	48	104	0	60	76713
2026-01-28 12:56:41.80	349.19	7.96	-50.0	-56.1	3.6	0.00e+00	0	48	104	0	60	75431
2026-01-28 12:56:42.81	348.97	7.93	-47.5	-54.6	3.6	0.00e+00	0	48	104	0	60	63577
2026-01-28 12:56:43.81	348.75	7.89	-53.9	-57.8	3.6	0.00e+00	0	48	104	0	60	92063
2026-01-28 12:56:44.82	348.53	7.86	-54.1	-57.8	3.6	0.00e+00	0	48	104	0	60	91999
2026-01-28 12:56:45.82	348.31	7.83	-53.9	-57.8	3.6	0.00e+00	0	48	104	0	60	91735
2026-01-28 12:56:46.83	348.09	7.79	-49.7	-56.0	3.6	0.00e+00	0	48	104	0	60	75071
2026-01-28 12:56:47.83	347.88	7.76	-47.7	-54.9	3.6	0.00e+00	0	48	104	0	60	65496
2026-01-28 12:56:48.84	347.66	7.72	-47.2	-54.4	3.6	0.00e+00	0	48	104	0	60	62061
2026-01-28 12:56:49.83	347.45	7.69	-47.4	-54.3	3.6	0.00e+00	0	48	104	0	60	61600
2026-01-28 12:56:50.84	347.23	7.65	-53.2	-57.3	3.5	0.00e+00	0	48	104	0	60	86914
2026-01-28 12:56:51.85	347.01	7.62	-50.8	-56.4	3.6	0.00e+00	0	48	104	0	60	77845
2026-01-28 12:56:52.86	346.80	7.58	-48.2	-55.0	3.6	0.00e+00	0	48	104	0	60	66296
2026-01-28 12:56:53.87	346.58	7.55	-48.4	-55.2	3.6	0.00e+00	0	48	104	0	60	67864
2026-01-28 12:56:54.87	346.37	7.51	-48.1	-54.8	3.6	0.00e+00	0	48	104	0	60	65146
2026-01-28 12:56:55.88	346.16	7.47	-48.4	-55.0	3.6	0.00e+00	0	48	104	0	60	66422
2026-01-28 12:56:56.89	345.94	7.44	-48.6	-55.2	3.6	0.00e+00	0	48	104	0	60	68271
2026-01-28 12:56:57.89	345.73	7.40	-48.5	-55.2	3.6	0.00e+00	0	48	104	0	60	68456
2026-01-28 12:56:58.90	345.52	7.36	-49.8	-55.9	3.6	0.00e+00	0	48	104	0	60	73545
2026-01-28 12:56:59.90	345.31	7.33	-51.8	-57.2	3.5	0.00e+00	0	48	104	0	60	85361
2026-01-28 12:57:00.91	345.10	7.29	-51.6	-56.9	3.6	0.00e+00	0	48	104	0	60	82900
2026-01-28 12:57:01.92	344.89	7.25	-51.1	-56.7	3.6	0.00e+00	0	48	104	0	60	80987
2026-01-28 12:57:02.93	344.69	7.21	-49.7	-55.8	3.6	0.00e+00	0	48	104	0	60	72903
2026-01-28 12:57:03.93	344.48	7.18	-49.8	-55.9	3.6	0.00e+00	0	48	104	0	60	73573
2026-01-28 12:57:04.94	344.27	7.14	-50.4	-56.4	3.6	0.00e+00	0	48	104	0	60	77950
2026-01-28 12:57:05.95	344.07	7.10	-50.5	-56.5	3.6	0.00e+00	0	48	104	0	60	78672
2026-01-28 12:57:06.95	343.86	7.06	-50.0	-56.1	3.6	0.00e+00	0	48	104	0	60	75687
2026-01-28 12:57:07.96	343.66	7.02	-49.9	-56.1	3.6	0.00e+00	0	48	104	0	60	75450
2026-01-28 12:57:08.96	343.45	6.98	-49.5	-55.8	3.6	0.00e+00	0	48	104	0	60	73336
2026-01-28 12:57:09.96	343.25	6.94	-50.8	-56.5	3.6	0.00e+00	0	48	104	0	60	79525
2026-01-28 12:57:10.97	343.05	6.90	-53.8	-57.6	3.6	0.00e+00	0	48	104	0	60	89774
2026-01-28 12:57:11.98	342.85	6.86	-51.0	-56.7	3.6	0.00e+00	0	48	104	0	60	80722
2026-01-28 12:57:12.98	342.65	6.82	-49.6	-55.9	3.6	0.00e+00	0	48	104	0	60	74068
2026-01-28 12:57:13.99	342.45	6.78	-49.8	-56.0	3.6	0.00e+00	0	48	104	0	60	74632
2026-01-28 12:57:15.00	342.25	6.74	-53.6	-57.3	3.6	0.00e+00	0	48	104	0	60	87082
2026-01-28 12:57:16.00	342.05	6.70	-53.1	-57.2	3.6	0.00e+00	0	48	104	0	60	85702
2026-01-28 12:57:17.01	341.85	6.66	-51.1	-56.7	3.6	0.00e+00	0	48	104	0	60	81120
2026-01-28 12:57:18.02	341.65	6.62	-51.6	-56.9	3.6	0.00e+00	0	48	104	0	60	82728
2026-01-28 12:57:19.02	341.46	6.58	-50.5	-56.2	3.6	0.00e+00	0	48	104	0	60	76657
2026-01-28 12:57:20.03	341.26	6.54	-50.5	-56.3	3.6	0.00e+00	0	48	104	0	60	77329
2026-01-28 12:57:21.03	341.06	6.49	-50.9	-56.5	3.6	0.00e+00	0	48	104	0	60	79222
2026-01-28 12:57:22.04	340.87	6.45	-51.1	-56.7	3.5	0.00e+00	0	48	104	0	60	80880
2026-01-28 12:57:23.03	340.68	6.41	-52.4	-57.2	3.6	0.00e+00	0	48	104	0	60	85976
2026-01-28 12:57:24.04	340.48	6.37	-53.6	-57.2	3.6	0.00e+00	0	48	104	0	60	86200
2026-01-28 12:57:25.04	340.29	6.33	-52.6	-57.2	3.6	0.00e+00	0	48	104	0	60	85990
2026-01-28 12:57:26.04	340.10	6.28	-53.9	-57.6	3.6	0.00e+00	0	48	104	0	60	90048
2026-01-28 12:57:27.05	339.91	6.24	-53.2	-57.4	3.6	0.00e+00	0	48	104	0	60	87644
2026-01-28 12:57:28.06	339.72	6.20	-53.7	-57.8	3.6	0.00e+00	0	48	104	0	60	91531
2026-01-28 12:57:29.07	339.53	6.16	-52.9	-57.0	3.6	0.00e+00	0	48	104	0	60	83395
2026-01-28 12:57:30.07	339.34	6.11	-53.3	-57.1	3.6	0.00e+00	0	48	104	0	60	84933
2026-01-28 12:57:31.07	339.15	6.07	-53.3	-57.2	3.6	0.00e+00	0	48	104	0	60	85508
2026-01-28 12:57:32.08	338.97	6.03	-53.1	-57.1	3.6	0.00e+00	0	48	104	0	60	84422
2026-01-28 12:57:33.09	338.78	5.98	-53.2	-57.6	3.5	0.00e+00	0	48	104	0	60	89584
2026-01-28 12:57:34.09	338.59	5.94	-52.5	-57.2	3.6	0.00e+00	0	48	104	0	60	85386
2026-01-28 12:57:35.10	338.41	5.90	-55.1	-58.9	3.6	0.00e+00	0	48	104	0	60	104402
2026-01-28 12:57:36.11	338.22	5.85	-56.1	-59.9	3.6	0.00e+00	0	48	104	0	60	116681
2026-01-28 12:57:37.11	338.04	5.81	-56.1	-59.8	3.6	0.00e+00	0	48	104	0	60	114995
2026-01-28 12:57:38.11	337.86	5.76	-56.1	-59.8	3.6	0.00e+00	0	48	104	0	60	115448
2026-01-28 12:57:39.11	337.68	5.72	-55.4	-59.5	3.6	0.00e+00	0	48	104	0	60	111201
2026-01-28 12:57:40.12	337.49	5.68	-56.3	-60.2	3.6	0.00e+00	0	48	104	0	60	120636
2026-01-28 12:57:41.12	337.31	5.63	-56.5	-60.2	3.6	0.00e+00	0	48	104	0	60	121156
2026-01-28 12:57:42.12	337.13	5.59	-57.0	-60.5	3.6	0.00e+00	0	48	104	0	60	124885
2026-01-28 12:57:43.12	336.96	5.54	-56.8	-60.5	3.6	0.00e+00	0	48	104	0	60	124630
2026-01-28 12:57:44.13	336.78	5.50	-56.7	-60.4	3.6	0.00e+00	0	48	104	0	60	123529
2026-01-28 12:57:45.13	336.60	5.45	-56.5	-60.3	3.6	0.00e+00	0	48	104	0	60	122622
2026-01-28 12:57:46.14	336.42	5.41	-57.0	-60.5	3.6	0.00e+00	0	48	104	0	60	125339
2026-01-28 12:57:47.14	336.24	5.36	-57.2	-60.9	3.6	0.00e+00	0	48	104	0	60	131932
2026-01-28 12:57:48.15	336.07	5.32	-57.5	-61.4	3.6	0.00e+00	0	48	104	0	60	138931
2026-01-28 12:57:49.15	335.89	5.27	-57.4	-61.3	3.6	0.00e+00	0	48	104	0	60	137380
2026-01-28 12:57:50.16	335.72	5.23	-56.5	-60.6	3.6	0.00e+00	0	48	104	0	60	126474
2026-01-28 12:57:51.17	335.54	5.18	-56.7	-60.6	3.6	0.00e+00	0	48	104	0	60	126058
2026-01-28 12:57:52.17	335.37	5.14	-56.9	-60.6	3.6	0.00e+00	0	48	104	0	60	126925
2026-01-28 12:57:53.18	335.20	5.09	-56.9	-60.6	3.6	0.00e+00	0	48	104	0	60	127264
2026-01-28 12:57:54.18	335.03	5.04	-56.9	-60.6	3.6	0.00e+00	0	48	104	0	60	127251
2026-01-28 12:57:55.19	334.85	5.00	-56.8	-60.6	3.6	0.00e+00	0	48	104	0	60	126495
2026-01-28 12:57:56.19	334.69	4.95	-56.8	-60.6	3.6	0.00e+00	0	48	104	0	60	126547
2026-01-28 12:57:57.20	334.51	4.91	-56.9	-60.6	3.6	0.00e+00	0	48	104	0	60	127005
2026-01-28 12:57:58.20	334.35	4.86	-56.9	-60.6	3.6	0.00e+00	0	48	104	0	60	127223
2026-01-28 12:57:59.21	334.18	4.81	-56.8	-60.6	3.6	0.00e+00	0	48	104	0	60	126419
2026-01-28 12:58:00.22	334.01	4.77	-56.8	-60.5	3.6	0.00e+00	0	48	104	0	60	125693
2026-01-28 12:58:01.23	333.84	4.72	-56.8	-60.5	3.6	0.00e+00	0	48	104	0	60	125947
2026-01-28 12:58:02.23	333.68	4.67	-56.8	-60.6	3.6	0.00e+00	0	48	104	0	60	126322
2026-01-28 12:58:03.24	333.51	4.63	-56.9	-60.6	3.6	0.00e+00	0	48	104	0	60	126811
2026-01-28 12:58:04.25	333.34	4.58	-56.8	-60.6	3.6	0.00e+00	0	48	104	0	60	126964
2026-01-28 12:58:05.26	333.18	4.53	-56.8	-60.6	3.6	0.00e+00	0	48	104	0	60	127190
2026-01-28 12:58:06.27	333.01	4.49	-56.8	-60.6	3.6	0.00e+00	0	48	104	0	60	126999
2026-01-28 12:58:07.28	332.85	4.44	-56.9	-60.6	3.6	0.00e+00	0	48	104	0	60	126953
2026-01-28 12:58:08.29	332.69	4.39	-56.8	-60.6	3.6	0.00e+00	0	48	104	0	60	127478
2026-01-28 12:58:09.29	332.53	4.34	-56.9	-60.6	3.6	0.00e+00	0	48	104	0	60	126417
2026-01-28 12:58:10.29	332.37	4.30	-56.9	-60.6	3.6	0.00e+00	0	48	104	0	60	127373
2026-01-28 12:58:11.29	332.21	4.25	-56.8	-60.6	3.6	0.00e+00	0	48	104	0	60	127473
2026-01-28 12:58:12.30	332.05	4.20	-56.9	-60.6	3.6	0.00e+00	0	48	104	0	60	127289
2026-01-28 12:58:13.29	331.89	4.16	-56.8	-60.7	3.6	0.00e+00	0	48	104	0	60	127779
2026-01-28 12:58:14.29	331.73	4.11	-56.9	-60.6	3.6	0.00e+00	0	48	104	0	60	126956
2026-01-28 12:58:15.29	331.58	4.06	-56.8	-60.6	3.5	0.00e+00	0	48	104	0	60	126309
2026-01-28 12:58:16.30	331.42	4.01	-56.8	-60.6	3.6	0.00e+00	0	48	104	0	60	126951
2026-01-28 12:58:17.30	331.26	3.97	-56.8	-60.7	3.6	0.00e+00	0	48	104	0	60	127642
2026-01-28 12:58:18.31	331.11	3.92	-56.8	-60.6	3.6	0.00e+00	0	48	104	0	60	126703
2026-01-28 12:58:19.31	330.95	3.87	-56.8	-60.7	3.6	0.00e+00	0	48	104	0	60	127581
2026-01-28 12:58:20.32	330.80	3.82	-56.8	-60.7	3.6	0.00e+00	0	48	104	0	60	127615
2026-01-28 12:58:21.33	330.64	3.78	-56.8	-60.6	3.6	0.00e+00	0	48	104	0	60	127003
2026-01-28 12:58:22.33	330.49	3.73	-56.8	-60.6	3.6	0.00e+00	0	48	104	0	60	127112
2026-01-28 12:58:23.34	330.34	3.68	-56.8	-60.6	3.6	0.00e+00	0	48	104	0	60	126228
2026-01-28 12:58:24.35	330.19	3.63	-56.8	-60.6	3.6	0.00e+00	0	48	104	0	60	126903
2026-01-28 12:58:25.35	330.04	3.58	-56.8	-60.6	3.6	0.00e+00	0	48	104	0	60	126784
2026-01-28 12:58:26.35	329.89	3.54	-56.8	-60.6	3.6	0.00e+00	0	48	104	0	60	126534
2026-01-28 12:58:27.35	329.74	3.49	-56.8	-60.6	3.6	0.00e+00	0	48	104	0	60	126231
2026-01-28 12:58:28.36	329.59	3.44	-56.8	-60.6	3.6	0.00e+00	0	48	104	0	60	126598
2026-01-28 12:58:29.36	329.44	3.39	-56.8	-60.6	3.6	0.00e+00	0	48	104	0	60	126430
2026-01-28 12:58:30.36	329.29	3.34	-56.8	-60.6	3.6	0.00e+00	0	48	104	0	60	126732
2026-01-28 12:58:31.37	329.14	3.30	-56.8	-60.6	3.6	0.00e+00	0	48	104	0	60	126315
2026-01-28 12:58:32.37	329.00	3.25	-56.8	-60.5	3.6	0.00e+00	0	48	104	0	60	125990
2026-01-28 12:58:33.38	328.85	3.20	-56.8	-60.5	3.6	0.00e+00	0	48	104	0	60	125668
2026-01-28 12:58:34.39	328.71	3.15	-56.7	-60.5	3.6	0.00e+00	0	48	104	0	60	125810
2026-01-28 12:58:35.40	328.56	3.10	-56.7	-60.5	3.6	0.00e+00	0	48	104	0	60	125486
2026-01-28 12:58:36.40	328.42	3.05	-56.8	-60.5	3.6	0.00e+00	0	48	104	0	60	125657
2026-01-28 12:58:37.41	328.27	3.01	-56.8	-60.5	3.6	0.00e+00	0	48	104	0	60	126051
2026-01-28 12:58:38.42	328.13	2.96	-56.8	-60.5	3.6	0.00e+00	0	48	104	0	60	125036
2026-01-28 12:58:39.43	327.99	2.91	-56.8	-60.5	3.6	0.00e+00	0	48	104	0	60	125258
2026-01-28 12:58:40.44	327.84	2.86	-56.7	-60.5	3.6	0.00e+00	0	48	104	0	60	125737
2026-01-28 12:58:41.44	327.70	2.81	-56.7	-60.5	3.6	0.00e+00	0	48	104	0	60	124954
2026-01-28 12:58:42.45	327.56	2.76	-56.7	-60.5	3.6	0.00e+00	0	48	104	0	60	125320
2026-01-28 12:58:43.45	327.42	2.71	-56.7	-60.5	3.6	0.00e+00	0	48	104	0	60	125505
2026-01-28 12:58:44.45	327.28	2.67	-56.7	-60.5	3.6	0.00e+00	0	48	104	0	60	125328
2026-01-28 12:58:45.45	327.15	2.62	-56.7	-60.5	3.6	0.00e+00	0	48	104	0	60	124673
2026-01-28 12:58:46.45	327.01	2.57	-56.7	-60.5	3.6	0.00e+00	0	48	104	0	60	124816
2026-01-28 12:58:47.46	326.87	2.52	-56.7	-60.5	3.6	0.00e+00	0	48	104	0	60	124930
2026-01-28 12:58:48.47	326.73	2.47	-56.7	-60.5	3.6	0.00e+00	0	48	104	0	60	125196
2026-01-28 12:58:49.48	326.60	2.42	-56.7	-60.5	3.6	0.00e+00	0	48	104	0	60	125344
2026-01-28 12:58:50.48	326.46	2.37	-56.7	-60.5	3.5	0.00e+00	0	48	104	0	60	125501
2026-01-28 12:58:51.49	326.33	2.33	-56.7	-60.5	3.6	0.00e+00	0	48	104	0	60	125107
2026-01-28 12:58:52.50	326.19	2.28	-56.7	-60.4	3.6	0.00e+00	0	48	104	0	60	124379
2026-01-28 12:58:53.50	326.06	2.23	-56.7	-60.5	3.6	0.00e+00	0	48	104	0	60	125237
2026-01-28 12:58:54.51	325.92	2.18	-56.7	-60.5	3.6	0.00e+00	0	48	104	0	60	124862
2026-01-28 12:58:55.52	325.79	2.13	-56.7	-60.5	3.5	0.00e+00	0	48	104	0	60	125168
2026-01-28 12:58:56.53	325.66	2.08	-56.7	-60.5	3.5	0.00e+00	0	48	104	0	60	125849
2026-01-28 12:58:57.53	325.53	2.03	-56.7	-60.5	3.6	0.00e+00	0	48	104	0	60	125347
2026-01-28 12:58:58.54	325.39	1.98	-56.7	-60.5	3.6	0.00e+00	0	48	104	0	60	125213
2026-01-28 12:58:59.54	325.26	1.94	-56.7	-60.5	3.6	0.00e+00	0	48	104	0	60	125805
2026-01-28 12:59:00.55	325.13	1.89	-56.8	-60.5	3.6	0.00e+00	0	48	104	0	60	125369
2026-01-28 12:59:01.56	325.00	1.84	-56.7	-60.5	3.6	0.00e+00	0	48	104	0	60	125548
2026-01-28 12:59:02.56	324.88	1.79	-56.7	-60.5	3.6	0.00e+00	0	48	104	0	60	125562
2026-01-28 12:59:03.56	324.75	1.74	-56.7	-60.5	3.6	0.00e+00	0	48	104	0	60	125518
2026-01-28 12:59:04.57	324.62	1.69	-56.7	-60.5	3.6	0.00e+00	0	48	104	0	60	124731
2026-01-28 12:59:05.58	324.49	1.64	-56.7	-60.5	3.6	0.00e+00	0	48	104	0	60	125096
2026-01-28 12:59:06.58	324.37	1.59	-56.7	-60.4	3.6	0.00e+00	0	48	104	0	60	124254
2026-01-28 12:59:07.59	324.24	1.54	-56.7	-60.5	3.6	0.00e+00	0	48	104	0	60	124695
2026-01-28 12:59:08.60	324.11	1.50	-56.7	-60.5	3.6	0.00e+00	0	48	104	0	60	125263
2026-01-28 12:59:09.61	323.99	1.45	-56.7	-60.4	3.6	0.00e+00	0	48	104	0	60	123996
2026-01-28 12:59:10.62	323.86	1.40	-56.7	-60.5	3.6	0.00e+00	0	48	104	0	60	125009
2026-01-28 12:59:11.62	323.74	1.35	-56.7	-60.4	3.6	0.00e+00	0	48	104	0	60	124564
2026-01-28 12:59:12.63	323.62	1.30	-56.7	-60.5	3.6	0.00e+00	0	48	104	0	60	124761
2026-01-28 12:59:13.64	323.49	1.25	-56.7	-60.5	3.6	0.00e+00	0	48	104	0	60	124842
2026-01-28 12:59:14.65	323.37	1.20	-56.7	-60.4	3.6	0.00e+00	0	48	104	0	60	124346
2026-01-28 12:59:15.65	323.25	1.15	-56.7	-60.5	3.6	0.00e+00	0	48	104	0	60	124623
2026-01-28 12:59:16.66	323.13	1.11	-56.7	-60.4	3.6	0.00e+00	0	48	104	0	60	124189
2026-01-28 12:59:17.66	323.01	1.06	-56.7	-60.4	3.6	0.00e+00	0	48	104	0	60	124579
2026-01-28 12:59:18.67	322.89	1.01	-56.7	-60.5	3.6	0.00e+00	0	48	104	0	60	124723
2026-01-28 12:59:19.68	322.77	0.96	-56.7	-60.5	3.6	0.00e+00	0	48	104	0	60	124940
2026-01-28 12:59:20.68	322.65	0.91	-56.7	-60.5	3.6	0.00e+00	0	48	104	0	60	124657
2026-01-28 12:59:21.69	322.53	0.86	-56.7	-60.4	3.6	0.00e+00	0	48	104	0	60	123794
2026-01-28 12:59:22.70	322.41	0.81	-56.7	-60.4	3.6	0.00e+00	0	48	104	0	60	123687
2026-01-28 12:59:23.71	322.29	0.76	-56.7	-60.5	3.6	0.00e+00	0	48	104	0	60	125020
2026-01-28 12:59:24.72	322.17	0.72	-56.6	-60.4	3.6	0.00e+00	0	48	104	0	60	124281
2026-01-28 12:59:25.72	322.06	0.67	-56.7	-60.5	3.6	0.00e+00	0	48	104	0	60	125051
2026-01-28 12:59:26.73	321.94	0.62	-56.7	-60.4	3.6	0.00e+00	0	48	104	0	60	124539
2026-01-28 12:59:27.74	321.82	0.57	-56.7	-60.5	3.6	0.00e+00	0	48	104	0	60	124720
2026-01-28 12:59:28.75	321.71	0.52	-56.7	-60.5	3.6	0.00e+00	0	48	104	0	60	124723
2026-01-28 12:59:29.76	321.59	0.47	-56.7	-60.5	3.6	0.00e+00	0	48	104	0	60	124740
2026-01-28 12:59:30.76	321.48	0.42	-56.7	-60.4	3.6	0.00e+00	0	48	104	0	60	123915
2026-01-28 12:59:31.77	321.37	0.37	-56.7	-60.4	3.6	0.00e+00	0	48	104	0	60	124505
2026-01-28 12:59:32.77	321.25	0.33	-56.6	-60.4	3.6	0.00e+00	0	48	104	0	60	124177
2026-01-28 12:59:33.78	321.14	0.28	-56.7	-60.4	3.6	0.00e+00	0	48	104	0	60	124319
2026-01-28 12:59:34.79	321.03	0.23	-56.7	-60.4	3.6	0.00e+00	0	48	104	0	60	123985
2026-01-28 12:59:35.80	320.91	0.18	-56.7	-60.4	3.5	0.00e+00	0	48	104	0	60	123837
2026-01-28 12:59:36.80	320.80	0.13	-56.7	-60.4	3.6	0.00e+00	0	48	104	0	60	124226
2026-01-28 12:59:37.80	320.69	0.08	-56.7	-60.4	3.6	0.00e+00	0	48	104	0	60	124511
2026-01-28 12:59:38.81	320.58	0.03	-56.7	-60.4	3.6	0.00e+00	0	48	104	0	60	124189
2026-01-28 12:59:39.81	320.47	-0.01	-56.7	-60.4	3.6	0.00e+00	0	48	104	0	60	124469
2026-01-28 12:59:40.81	320.36	-0.06	-56.7	-60.4	3.6	0.00e+00	0	48	104	0	60	124583
2026-01-28 12:59:41.82	320.26	-0.11	-56.6	-60.4	3.6	0.00e+00	0	48	104	0	60	124495

#Closed at: 2026-01-28 12:59:41
#Recorded file [0 MB]: D:/Data/35015_260128_155057.dat