passes_logs/2026/01/28/R3.2S-Naryan-Mar/R3.2S-Naryan-Mar__20260128_104556_NOAA_20_JPSS-1_rec.log

#Pass ID: 20260128_104556_NOAA 20 (JPSS-1)
#Satellite: NOAA 20 (JPSS-1)
#Configuration: NOAA 20
#almurnet v.1.7.20240730
#Start time: 2026-01-28 10:45:59

#Version: 2.2.20231116
#Station: R3.2S-Naryan-Mar
#Location: 53.008057 lon 67.646978 lat
#TLE: 1 43013U 17073A   26027.80586608  .00000156  00000+0  94940-4 0  9998
#TLE: 2 43013  98.7647 328.6108 0000947  21.3465 338.7750 14.19541216424550

#Time	Az	El	Level	Level2	SNR	BER	BlckErr	Temp	State	Recorded	gain1	gain2
2026-01-28 10:45:59.78	214.84	0.15	-60.2	-77.3	3.3	1.54e+00	0	45	0	0	60	286234
2026-01-28 10:46:00.77	214.91	0.20	-62.4	-79.0	3.6	1.51e+00	0	45	104	0	60	350188
2026-01-28 10:46:01.78	214.98	0.25	-62.4	-79.0	3.6	1.51e+00	0	45	104	0	60	350594
2026-01-28 10:46:02.78	215.04	0.30	-62.3	-78.8	3.6	1.51e+00	0	45	104	0	60	341211
2026-01-28 10:46:03.79	215.11	0.35	-62.3	-78.8	3.6	1.51e+00	0	45	104	0	60	341293
2026-01-28 10:46:04.79	215.18	0.40	-62.2	-78.7	3.6	1.51e+00	0	45	104	0	60	338415
2026-01-28 10:46:05.80	215.25	0.45	-62.2	-78.7	3.6	1.51e+00	0	45	104	0	60	337976
2026-01-28 10:46:06.81	215.32	0.51	-61.9	-78.4	3.6	1.51e+00	0	45	104	0	60	325656
2026-01-28 10:46:07.82	215.39	0.56	-61.8	-78.4	3.6	1.51e+00	0	45	104	0	60	324928
2026-01-28 10:46:08.83	215.46	0.61	-61.7	-78.1	3.6	1.51e+00	0	45	104	0	60	315659
2026-01-28 10:46:09.84	215.54	0.66	-61.2	-77.9	3.6	1.51e+00	0	45	104	0	60	306611
2026-01-28 10:46:10.84	215.61	0.72	-60.3	-77.1	3.6	1.51e+00	0	45	104	0	60	279733
2026-01-28 10:46:11.85	215.68	0.77	-60.1	-76.7	3.6	1.51e+00	0	45	104	0	60	267863
2026-01-28 10:46:12.85	215.75	0.82	-59.6	-76.3	3.6	1.51e+00	0	45	104	0	60	254750
2026-01-28 10:46:13.86	215.82	0.87	-59.4	-76.1	3.6	1.51e+00	0	45	104	0	60	249106
2026-01-28 10:46:14.86	215.89	0.92	-59.2	-75.9	3.6	1.51e+00	0	45	104	0	60	245373
2026-01-28 10:46:15.87	215.96	0.98	-59.2	-75.9	3.6	1.51e+00	0	45	104	0	60	243842
2026-01-28 10:46:16.88	216.04	1.03	-59.2	-75.7	3.6	1.51e+00	0	45	104	0	60	238671
2026-01-28 10:46:17.88	216.11	1.08	-59.1	-75.5	3.6	1.51e+00	0	45	104	0	60	234189
2026-01-28 10:46:18.89	216.18	1.13	-58.9	-75.5	3.6	1.51e+00	0	45	104	0	60	232182
2026-01-28 10:46:19.90	216.25	1.19	-58.9	-75.4	3.6	1.51e+00	0	45	104	0	60	230975
2026-01-28 10:46:20.91	216.33	1.24	-58.9	-75.4	3.6	1.51e+00	0	45	104	0	60	230796
2026-01-28 10:46:21.91	216.40	1.29	-58.9	-75.4	3.6	1.51e+00	0	45	104	0	60	230051
2026-01-28 10:46:22.92	216.48	1.35	-58.8	-75.3	3.6	1.51e+00	0	45	104	0	60	229246
2026-01-28 10:46:23.92	216.55	1.40	-58.8	-75.3	3.6	1.51e+00	0	45	104	0	60	228126
2026-01-28 10:46:24.92	216.62	1.45	-58.8	-75.3	3.6	1.51e+00	0	45	104	0	60	227970
2026-01-28 10:46:25.93	216.70	1.51	-58.8	-75.3	3.6	1.51e+00	0	45	104	0	60	227371
2026-01-28 10:46:26.94	216.77	1.56	-58.8	-75.2	3.6	1.51e+00	0	45	104	0	60	226599
2026-01-28 10:46:27.95	216.85	1.61	-58.7	-75.2	3.6	1.51e+00	0	45	104	0	60	226140
2026-01-28 10:46:28.95	216.92	1.66	-58.7	-75.2	3.6	1.51e+00	0	45	104	0	60	226208
2026-01-28 10:46:29.96	217.00	1.72	-58.7	-75.2	3.6	1.51e+00	0	45	104	0	60	225385
2026-01-28 10:46:30.97	217.07	1.77	-58.7	-75.2	3.6	1.51e+00	0	45	104	0	60	226750
2026-01-28 10:46:31.98	217.15	1.83	-58.7	-75.2	3.6	1.51e+00	0	45	104	0	60	224663
2026-01-28 10:46:32.99	217.23	1.88	-58.7	-75.2	3.6	1.51e+00	0	45	104	0	60	225561
2026-01-28 10:46:33.99	217.30	1.93	-58.7	-75.2	3.6	1.51e+00	0	45	104	0	60	224522
2026-01-28 10:46:35.00	217.38	1.99	-58.7	-75.2	3.6	1.51e+00	0	46	104	0	60	225153
2026-01-28 10:46:36.01	217.46	2.04	-58.7	-75.2	3.6	1.51e+00	0	46	104	0	60	225088
2026-01-28 10:46:37.01	217.54	2.09	-58.7	-75.2	3.6	1.51e+00	0	46	104	0	60	224929
2026-01-28 10:46:38.02	217.61	2.15	-58.6	-75.2	3.6	1.51e+00	0	45	104	0	60	224675
2026-01-28 10:46:39.03	217.69	2.20	-58.6	-75.1	3.6	1.51e+00	0	45	104	0	60	223400
2026-01-28 10:46:40.04	217.77	2.26	-58.6	-75.1	3.6	1.51e+00	0	45	104	0	60	223743
2026-01-28 10:46:41.05	217.85	2.31	-58.6	-75.1	3.6	1.51e+00	0	46	104	0	60	222918
2026-01-28 10:46:42.05	217.93	2.36	-58.6	-75.1	3.6	1.51e+00	0	45	104	0	60	222195
2026-01-28 10:46:43.05	218.01	2.42	-58.6	-75.1	3.6	1.51e+00	0	46	104	0	60	223030
2026-01-28 10:46:44.06	218.09	2.47	-58.6	-75.1	3.6	1.51e+00	0	46	104	0	60	222408
2026-01-28 10:46:45.06	218.16	2.53	-58.6	-75.1	3.6	1.51e+00	0	46	104	0	60	222702
2026-01-28 10:46:46.07	218.24	2.58	-58.6	-75.0	3.6	1.51e+00	0	46	104	0	60	221584
2026-01-28 10:46:47.08	218.32	2.63	-58.6	-75.1	3.6	1.51e+00	0	46	104	0	60	222215
2026-01-28 10:46:48.08	218.40	2.69	-58.6	-75.0	3.6	1.51e+00	0	46	104	0	60	221361
2026-01-28 10:46:49.09	218.49	2.74	-58.6	-75.0	3.6	1.51e+00	0	46	104	0	60	219665
2026-01-28 10:46:50.09	218.57	2.80	-58.5	-75.0	3.6	1.51e+00	0	46	104	0	60	221175
2026-01-28 10:46:51.10	218.65	2.85	-58.5	-75.0	3.6	1.51e+00	0	46	104	0	60	219618
2026-01-28 10:46:52.11	218.73	2.91	-58.5	-75.0	3.6	1.51e+00	0	46	104	0	60	221177
2026-01-28 10:46:53.11	218.81	2.96	-58.5	-75.0	3.6	1.51e+00	0	46	104	0	60	219887
2026-01-28 10:46:54.12	218.89	3.02	-58.5	-75.0	3.6	1.51e+00	0	46	104	0	60	219918
2026-01-28 10:46:55.12	218.98	3.07	-58.5	-74.9	3.6	1.51e+00	0	46	104	0	60	218431
2026-01-28 10:46:56.13	219.06	3.13	-58.5	-75.0	3.6	1.51e+00	0	46	104	0	60	219172
2026-01-28 10:46:57.14	219.14	3.18	-58.5	-74.9	3.6	1.51e+00	0	46	104	0	60	218913
2026-01-28 10:46:58.15	219.22	3.24	-58.5	-74.9	3.6	1.51e+00	0	46	104	0	60	218088
2026-01-28 10:46:59.16	219.31	3.29	-58.5	-74.9	3.6	1.51e+00	0	46	104	0	60	217995
2026-01-28 10:47:00.16	219.39	3.35	-58.4	-74.9	3.6	1.51e+00	0	46	104	0	60	218718
2026-01-28 10:47:01.17	219.48	3.40	-58.4	-74.9	3.6	1.51e+00	0	46	104	0	60	218643
2026-01-28 10:47:02.17	219.56	3.46	-58.4	-74.9	3.6	1.51e+00	0	46	104	0	60	218105
2026-01-28 10:47:03.18	219.65	3.51	-58.4	-74.9	3.6	1.51e+00	0	46	104	0	60	217174
2026-01-28 10:47:04.19	219.73	3.57	-58.4	-74.9	3.6	1.51e+00	0	46	104	0	60	217720
2026-01-28 10:47:05.20	219.82	3.62	-58.4	-74.9	3.6	1.51e+00	0	46	104	0	60	218012
2026-01-28 10:47:06.20	219.90	3.68	-58.4	-74.9	3.6	1.51e+00	0	46	104	0	60	216842
2026-01-28 10:47:07.21	219.99	3.73	-58.4	-74.9	3.6	1.51e+00	0	46	104	0	60	216809
2026-01-28 10:47:08.21	220.07	3.79	-58.4	-74.9	3.6	1.51e+00	0	46	104	0	60	217994
2026-01-28 10:47:09.22	220.16	3.85	-58.4	-74.9	3.6	1.51e+00	0	46	104	0	60	217098
2026-01-28 10:47:10.22	220.25	3.90	-58.4	-74.9	3.6	1.51e+00	0	46	104	0	60	217329
2026-01-28 10:47:11.23	220.34	3.96	-58.4	-74.9	3.6	1.51e+00	0	46	104	0	60	217357
2026-01-28 10:47:12.24	220.42	4.01	-58.4	-74.9	3.6	1.51e+00	0	46	104	0	60	217073
2026-01-28 10:47:13.24	220.51	4.07	-58.4	-74.8	3.6	1.51e+00	0	46	104	0	60	216546
2026-01-28 10:47:14.24	220.60	4.12	-58.4	-74.9	3.6	1.51e+00	0	46	104	0	60	217165
2026-01-28 10:47:15.25	220.69	4.18	-58.4	-74.8	3.6	1.51e+00	0	46	104	0	60	216315
2026-01-28 10:47:16.26	220.78	4.24	-58.3	-74.8	3.6	1.51e+00	0	46	104	0	60	216361
2026-01-28 10:47:17.27	220.87	4.29	-58.3	-74.9	3.6	1.51e+00	0	46	104	0	60	217600
2026-01-28 10:47:18.27	220.95	4.35	-58.3	-74.9	3.6	1.51e+00	0	46	104	0	60	216955
2026-01-28 10:47:19.28	221.04	4.41	-58.4	-74.8	3.6	1.51e+00	0	46	104	0	60	216455
2026-01-28 10:47:20.29	221.14	4.46	-58.3	-74.8	3.6	1.51e+00	0	46	104	0	60	214484
2026-01-28 10:47:21.30	221.23	4.52	-58.3	-74.7	3.6	1.51e+00	0	46	104	0	60	213843
2026-01-28 10:47:22.31	221.32	4.58	-58.4	-74.8	3.6	1.51e+00	0	46	104	0	60	214350
2026-01-28 10:47:23.31	221.41	4.63	-58.3	-74.7	3.6	1.51e+00	0	46	104	0	60	213928
2026-01-28 10:47:24.32	221.50	4.69	-58.4	-74.8	3.6	1.51e+00	0	46	104	0	60	214517
2026-01-28 10:47:25.32	221.59	4.75	-58.3	-74.8	3.6	1.51e+00	0	46	104	0	60	215919
2026-01-28 10:47:26.33	221.68	4.80	-58.4	-74.8	3.6	1.51e+00	0	46	104	0	60	216280
2026-01-28 10:47:27.33	221.78	4.86	-58.4	-74.7	3.6	1.51e+00	0	46	104	0	60	213563
2026-01-28 10:47:28.34	221.87	4.92	-58.3	-74.7	3.6	1.51e+00	0	46	104	0	60	213542
2026-01-28 10:47:29.35	221.96	4.97	-58.3	-74.7	3.6	1.51e+00	0	46	104	0	60	212448
2026-01-28 10:47:30.36	222.06	5.03	-58.3	-74.7	3.6	1.51e+00	0	46	104	0	60	213148
2026-01-28 10:47:31.37	222.15	5.09	-58.3	-74.7	3.6	1.51e+00	0	46	104	0	60	213055
2026-01-28 10:47:32.37	222.24	5.14	-58.3	-74.8	3.6	1.51e+00	0	46	104	0	60	215208
2026-01-28 10:47:33.38	222.34	5.20	-58.3	-74.8	3.6	1.51e+00	0	46	104	0	60	214519
2026-01-28 10:47:34.39	222.43	5.26	-58.3	-74.5	3.6	1.51e+00	0	46	104	0	60	207739
2026-01-28 10:47:35.40	222.53	5.32	-58.3	-74.2	3.6	1.51e+00	0	46	104	0	60	201159
2026-01-28 10:47:36.40	222.63	5.37	-58.3	-74.0	3.6	1.51e+00	0	46	104	0	60	196092
2026-01-28 10:47:37.41	222.72	5.43	-58.3	-73.8	3.6	1.51e+00	0	46	104	0	60	191193
2026-01-28 10:47:38.41	222.82	5.49	-58.2	-72.8	3.6	1.51e+00	0	46	104	0	60	171033
2026-01-28 10:47:39.42	222.91	5.55	-58.2	-70.6	4.3	1.50e+00	0	46	104	0	60	133329
2026-01-28 10:47:40.42	223.01	5.60	-57.9	-67.1	6.0	4.05e-01	0	46	0	0	60	88618
2026-01-28 10:47:41.42	223.11	5.66	-57.5	-64.6	8.6	9.43e-02	0	46	0	2097152	60	66345
2026-01-28 10:47:42.42	223.21	5.72	-57.0	-62.5	11.0	1.05e-02	0	46	0	4194304	60	52452
2026-01-28 10:47:43.43	223.30	5.78	-56.4	-61.0	12.8	6.38e-04	0	46	0	6291456	60	43873
2026-01-28 10:47:44.43	223.40	5.83	-55.9	-59.8	14.0	8.30e-06	0	46	0	7340032	60	38179
2026-01-28 10:47:45.44	223.50	5.89	-55.5	-58.9	14.9	0.00e+00	0	46	0	9437184	60	34531
2026-01-28 10:47:46.45	223.60	5.95	-55.2	-58.4	15.4	0.00e+00	0	46	0	11534336	60	32581
2026-01-28 10:47:47.46	223.70	6.01	-55.2	-58.4	15.4	0.00e+00	0	46	0	13631488	60	32536
2026-01-28 10:47:48.46	223.80	6.07	-55.7	-59.5	13.6	0.00e+00	0	46	0	15728640	60	36928
2026-01-28 10:47:49.47	223.90	6.12	-58.3	-74.7	3.6	1.51e+00	0	46	104	15728640	60	212780
2026-01-28 10:47:50.48	224.00	6.18	-56.4	-60.9	13.4	1.41e+00	0	46	104	15728640	60	43242
2026-01-28 10:47:51.49	224.10	6.24	-57.8	-66.2	6.9	7.81e-02	0	46	0	1048576	60	80168
2026-01-28 10:47:52.50	224.21	6.30	-58.0	-70.0	4.2	1.51e+00	0	46	104	1048576	60	124310
2026-01-28 10:47:53.50	224.31	6.36	-56.2	-60.3	13.5	7.27e-02	0	46	104	1048576	60	40772
2026-01-28 10:47:54.51	224.41	6.42	-55.6	-59.0	15.3	0.00e+00	0	46	0	1048576	60	34837
2026-01-28 10:47:55.52	224.51	6.48	-55.6	-58.9	15.4	0.00e+00	0	46	0	3145728	60	34523
2026-01-28 10:47:56.52	224.62	6.53	-55.2	-58.2	16.2	0.00e+00	0	46	0	4194304	60	31741
2026-01-28 10:47:57.52	224.72	6.59	-54.9	-57.5	16.7	0.00e+00	0	46	0	6291456	60	29463
2026-01-28 10:47:58.53	224.82	6.65	-54.7	-57.2	17.0	0.00e+00	0	46	0	8388608	60	28386
2026-01-28 10:47:59.54	224.93	6.71	-54.7	-57.3	16.9	0.00e+00	0	46	0	10485760	60	28551
2026-01-28 10:48:00.55	225.03	6.77	-54.7	-57.2	17.1	0.00e+00	0	46	0	12582912	60	28406
2026-01-28 10:48:01.55	225.14	6.83	-54.6	-57.2	17.1	0.00e+00	0	46	0	13631488	60	28273
2026-01-28 10:48:02.56	225.24	6.89	-54.6	-57.2	17.1	0.00e+00	0	46	0	15728640	60	28440
2026-01-28 10:48:03.57	225.35	6.95	-54.6	-57.1	17.2	0.00e+00	0	46	0	17825792	60	28029
2026-01-28 10:48:04.58	225.46	7.00	-54.6	-57.2	17.1	0.00e+00	0	46	0	19922944	60	28271
2026-01-28 10:48:05.59	225.57	7.06	-54.6	-57.2	17.1	0.00e+00	0	46	0	20971520	60	28429
2026-01-28 10:48:06.60	225.67	7.12	-54.7	-57.2	17.1	0.00e+00	0	46	0	23068672	60	28524
2026-01-28 10:48:07.60	225.78	7.18	-54.7	-57.3	17.0	0.00e+00	0	46	0	25165824	60	28670
2026-01-28 10:48:08.61	225.89	7.24	-54.7	-57.3	17.2	0.00e+00	0	46	0	27262976	60	28604
2026-01-28 10:48:09.62	226.00	7.30	-54.8	-57.3	17.2	0.00e+00	0	46	0	29360128	60	28768
2026-01-28 10:48:10.62	226.11	7.36	-54.7	-57.2	17.3	0.00e+00	0	46	0	31457280	60	28460
2026-01-28 10:48:11.62	226.21	7.42	-54.7	-57.3	17.2	0.00e+00	0	46	0	32505856	60	28680
2026-01-28 10:48:12.63	226.33	7.48	-54.7	-57.2	17.3	0.00e+00	0	46	0	34603008	60	28414
2026-01-28 10:48:13.64	226.44	7.54	-54.6	-57.0	17.5	0.00e+00	0	46	0	36700160	60	27740
2026-01-28 10:48:14.64	226.55	7.60	-54.6	-57.1	17.5	0.00e+00	0	46	0	38797312	60	27977
2026-01-28 10:48:15.64	226.66	7.66	-54.6	-56.9	17.6	0.00e+00	0	46	0	40894464	60	27414
2026-01-28 10:48:16.64	226.77	7.72	-54.7	-57.0	17.6	0.00e+00	0	46	0	41943040	60	27824
2026-01-28 10:48:17.65	226.88	7.78	-54.6	-56.9	17.7	0.00e+00	0	46	0	44040192	60	27513
2026-01-28 10:48:18.66	226.99	7.84	-54.7	-57.0	17.7	0.00e+00	0	46	0	46137344	60	27807
2026-01-28 10:48:19.66	227.10	7.89	-54.6	-56.9	17.8	0.00e+00	0	46	0	48234496	60	27448
2026-01-28 10:48:20.67	227.22	7.95	-54.7	-57.0	17.7	0.00e+00	0	46	0	49283072	60	27603
2026-01-28 10:48:21.67	227.33	8.01	-54.7	-57.0	17.8	0.00e+00	0	46	0	51380224	60	27859
2026-01-28 10:48:22.68	227.45	8.07	-54.7	-57.0	17.9	0.00e+00	0	46	0	53477376	60	27686
2026-01-28 10:48:23.69	227.56	8.13	-54.7	-57.0	17.8	0.00e+00	0	46	0	55574528	60	27661
2026-01-28 10:48:24.69	227.68	8.19	-54.7	-56.9	17.9	0.00e+00	0	46	0	57671680	60	27455
2026-01-28 10:48:25.69	227.79	8.25	-54.8	-57.0	17.9	0.00e+00	0	46	0	59768832	60	27791
2026-01-28 10:48:26.70	227.91	8.31	-54.7	-57.0	17.9	0.00e+00	0	46	0	60817408	60	27666
2026-01-28 10:48:27.70	228.02	8.37	-54.7	-56.8	18.1	0.00e+00	0	46	0	62914560	60	27244
2026-01-28 10:48:28.71	228.14	8.43	-54.7	-56.9	18.1	0.00e+00	0	46	0	65011712	60	27276
2026-01-28 10:48:29.71	228.26	8.49	-54.5	-56.7	18.3	0.00e+00	0	46	0	67108864	60	26663
2026-01-28 10:48:30.72	228.38	8.55	-54.5	-56.6	18.3	0.00e+00	0	46	0	69206016	60	26597
2026-01-28 10:48:31.73	228.49	8.61	-54.6	-56.7	18.2	0.00e+00	0	46	0	70254592	60	26802
2026-01-28 10:48:32.73	228.61	8.67	-54.6	-56.7	18.2	0.00e+00	0	46	0	72351744	60	26808
2026-01-28 10:48:33.74	228.73	8.74	-54.7	-56.8	18.1	0.00e+00	0	46	0	74448896	60	27109
2026-01-28 10:48:34.75	228.85	8.80	-54.7	-56.8	18.2	0.00e+00	0	46	0	76546048	60	27098
2026-01-28 10:48:35.75	228.97	8.86	-54.6	-56.7	18.3	0.00e+00	0	46	0	77594624	60	26649
2026-01-28 10:48:36.76	229.09	8.92	-54.7	-56.8	18.2	0.00e+00	0	46	0	79691776	60	27057
2026-01-28 10:48:37.77	229.21	8.98	-54.6	-56.7	18.3	0.00e+00	0	46	0	81788928	60	26846
2026-01-28 10:48:38.78	229.34	9.04	-54.6	-56.7	18.3	0.00e+00	0	46	0	83886080	60	26801
2026-01-28 10:48:39.78	229.46	9.10	-54.5	-56.6	18.3	0.00e+00	0	46	0	85983232	60	26620
2026-01-28 10:48:40.79	229.58	9.16	-54.6	-56.7	18.3	0.00e+00	0	46	0	87031808	60	26760
2026-01-28 10:48:41.79	229.70	9.22	-54.6	-56.7	18.2	0.00e+00	0	46	0	89128960	60	26943
2026-01-28 10:48:42.80	229.83	9.28	-54.5	-56.6	18.3	0.00e+00	0	46	0	91226112	60	26585
2026-01-28 10:48:43.80	229.95	9.34	-54.7	-56.8	18.3	0.00e+00	0	46	0	93323264	60	27024
2026-01-28 10:48:44.81	230.08	9.40	-54.7	-56.8	18.2	0.00e+00	0	46	0	95420416	60	27144
2026-01-28 10:48:45.81	230.20	9.46	-54.6	-56.7	18.4	0.00e+00	0	46	0	97517568	60	26859
2026-01-28 10:48:46.81	230.33	9.52	-54.6	-56.6	18.4	0.00e+00	0	46	0	98566144	60	26567
2026-01-28 10:48:47.82	230.45	9.58	-54.6	-56.7	18.4	0.00e+00	0	46	0	100663296	60	26654
2026-01-28 10:48:48.82	230.58	9.64	-54.6	-56.6	18.5	0.00e+00	0	46	0	102760448	60	26505
2026-01-28 10:48:49.83	230.71	9.70	-54.6	-56.7	18.5	0.00e+00	0	46	0	104857600	60	26661
2026-01-28 10:48:50.83	230.83	9.77	-54.7	-56.7	18.5	0.00e+00	0	46	0	105906176	60	26700
2026-01-28 10:48:51.83	230.96	9.83	-54.7	-56.8	18.5	0.00e+00	0	46	0	108003328	60	27008
2026-01-28 10:48:52.84	231.09	9.89	-54.8	-56.8	18.4	0.00e+00	0	46	0	110100480	60	27142
2026-01-28 10:48:53.85	231.22	9.95	-54.8	-56.9	18.4	0.00e+00	0	46	0	112197632	60	27449
2026-01-28 10:48:54.85	231.35	10.01	-54.7	-56.8	18.5	0.00e+00	0	46	0	114294784	60	27016
2026-01-28 10:48:55.86	231.48	10.07	-54.7	-56.7	18.6	0.00e+00	0	46	0	115343360	60	26917
2026-01-28 10:48:56.87	231.61	10.13	-54.7	-56.8	18.5	0.00e+00	0	46	0	117440512	60	27101
2026-01-28 10:48:57.87	231.74	10.19	-54.7	-56.7	18.6	0.00e+00	0	46	0	119537664	60	26806
2026-01-28 10:48:58.88	231.87	10.25	-54.7	-56.7	18.6	0.00e+00	0	46	0	121634816	60	26890
2026-01-28 10:48:59.88	232.00	10.31	-54.6	-56.6	18.8	0.00e+00	0	46	0	123731968	60	26416
2026-01-28 10:49:00.89	232.14	10.38	-54.7	-56.6	18.7	0.00e+00	0	46	0	124780544	60	26478
2026-01-28 10:49:01.89	232.27	10.44	-54.7	-56.6	18.8	0.00e+00	0	46	0	126877696	60	26606
2026-01-28 10:49:02.90	232.40	10.50	-54.6	-56.5	18.8	0.00e+00	0	46	0	128974848	60	26266
2026-01-28 10:49:03.91	232.54	10.56	-54.6	-56.5	19.0	0.00e+00	0	46	0	131072000	60	26066
2026-01-28 10:49:04.91	232.67	10.62	-54.5	-56.4	19.0	0.00e+00	0	46	0	133169152	60	25744
2026-01-28 10:49:05.92	232.81	10.68	-54.5	-56.4	18.9	0.00e+00	0	46	0	134217728	60	25923
2026-01-28 10:49:06.93	232.95	10.74	-54.4	-56.3	19.0	0.00e+00	0	46	0	136314880	60	25539
2026-01-28 10:49:07.93	233.08	10.80	-54.4	-56.2	19.1	0.00e+00	0	46	0	138412032	60	25408
2026-01-28 10:49:08.94	233.22	10.87	-54.4	-56.3	19.0	0.00e+00	0	46	0	140509184	60	25675
2026-01-28 10:49:09.94	233.36	10.93	-54.4	-56.3	19.0	0.00e+00	0	46	0	142606336	60	25616
2026-01-28 10:49:10.94	233.49	10.99	-54.4	-56.3	18.9	0.00e+00	0	46	0	143654912	60	25698
2026-01-28 10:49:11.95	233.63	11.05	-54.4	-56.3	19.1	0.00e+00	0	46	0	145752064	60	25460
2026-01-28 10:49:12.96	233.77	11.11	-54.5	-56.4	18.9	0.00e+00	0	46	0	147849216	60	25910
2026-01-28 10:49:13.97	233.91	11.17	-54.4	-56.3	19.2	0.00e+00	0	46	0	149946368	60	25452
2026-01-28 10:49:14.97	234.05	11.23	-54.4	-56.2	19.1	0.00e+00	0	46	0	152043520	60	25367
2026-01-28 10:49:15.98	234.20	11.29	-54.4	-56.3	19.1	0.00e+00	0	46	0	153092096	60	25630
2026-01-28 10:49:16.98	234.34	11.36	-54.4	-56.3	19.1	0.00e+00	0	46	0	155189248	60	25591
2026-01-28 10:49:17.98	234.48	11.42	-54.4	-56.3	19.1	0.00e+00	0	46	0	157286400	60	25491
2026-01-28 10:49:18.99	234.62	11.48	-54.3	-56.2	19.1	0.00e+00	0	46	0	159383552	60	25194
2026-01-28 10:49:19.99	234.76	11.54	-54.3	-56.2	19.0	0.00e+00	0	46	0	161480704	60	25153
2026-01-28 10:49:21.00	234.91	11.60	-54.3	-56.1	19.0	0.00e+00	0	46	0	162529280	60	25130
2026-01-28 10:49:22.00	235.05	11.66	-54.3	-56.2	19.0	0.00e+00	0	46	0	164626432	60	25259
2026-01-28 10:49:23.01	235.20	11.72	-54.4	-56.3	18.9	0.00e+00	0	46	0	166723584	60	25545
2026-01-28 10:49:24.02	235.34	11.78	-54.3	-56.1	19.1	0.00e+00	0	46	0	168820736	60	25072
2026-01-28 10:49:25.02	235.49	11.84	-54.2	-56.1	19.1	0.00e+00	0	46	0	170917888	60	24879
2026-01-28 10:49:26.03	235.64	11.91	-54.1	-56.0	19.0	0.00e+00	0	46	0	171966464	60	24650
2026-01-28 10:49:27.04	235.79	11.97	-54.0	-55.9	19.1	0.00e+00	0	46	0	174063616	60	24370
2026-01-28 10:49:28.04	235.93	12.03	-54.0	-55.8	19.1	0.00e+00	0	46	0	176160768	60	24247
2026-01-28 10:49:29.05	236.08	12.09	-54.1	-56.0	19.1	0.00e+00	0	46	0	178257920	60	24630
2026-01-28 10:49:30.06	236.23	12.15	-54.1	-55.9	19.2	0.00e+00	0	46	0	180355072	60	24465
2026-01-28 10:49:31.07	236.38	12.21	-54.0	-55.9	19.2	0.00e+00	0	46	0	181403648	60	24423
2026-01-28 10:49:32.07	236.53	12.27	-54.1	-56.1	19.0	0.00e+00	0	46	0	183500800	60	24878
2026-01-28 10:49:33.08	236.68	12.33	-54.0	-55.9	19.1	0.00e+00	0	46	0	185597952	60	24482
2026-01-28 10:49:34.09	236.84	12.40	-54.0	-55.9	19.2	0.00e+00	0	46	0	187695104	60	24387
2026-01-28 10:49:35.09	236.99	12.46	-54.1	-56.0	19.1	0.00e+00	0	46	0	189792256	60	24758
2026-01-28 10:49:36.10	237.14	12.52	-54.1	-55.9	19.2	0.00e+00	0	46	0	190840832	60	24464
2026-01-28 10:49:37.10	237.29	12.58	-54.0	-55.8	19.3	0.00e+00	0	46	0	192937984	60	24242
2026-01-28 10:49:38.11	237.45	12.64	-53.9	-55.8	19.3	0.00e+00	0	46	0	195035136	60	24113
2026-01-28 10:49:39.12	237.60	12.70	-54.0	-55.8	19.3	0.00e+00	0	46	0	197132288	60	24206
2026-01-28 10:49:40.13	237.76	12.76	-53.8	-55.6	19.5	0.00e+00	0	46	0	199229440	60	23574
2026-01-28 10:49:41.13	237.91	12.82	-53.8	-55.6	19.5	0.00e+00	0	46	0	200278016	60	23692
2026-01-28 10:49:42.14	238.07	12.88	-53.8	-55.6	19.6	0.00e+00	0	46	0	202375168	60	23541
2026-01-28 10:49:43.14	238.23	12.94	-53.9	-55.6	19.6	0.00e+00	0	46	0	204472320	60	23655
2026-01-28 10:49:44.14	238.39	13.00	-53.9	-55.7	19.6	0.00e+00	0	46	0	206569472	60	23789
2026-01-28 10:49:45.15	238.54	13.06	-53.8	-55.5	19.6	0.00e+00	0	46	0	208666624	60	23416
2026-01-28 10:49:46.15	238.70	13.12	-53.8	-55.5	19.6	0.00e+00	0	46	0	209715200	60	23472
2026-01-28 10:49:47.16	238.86	13.19	-53.8	-55.5	19.7	0.00e+00	0	46	0	211812352	60	23229
2026-01-28 10:49:48.17	239.02	13.25	-53.8	-55.6	19.7	0.00e+00	0	46	0	213909504	60	23489
2026-01-28 10:49:49.17	239.18	13.31	-54.0	-55.7	19.6	0.00e+00	0	46	0	216006656	60	23971
2026-01-28 10:49:50.18	239.35	13.37	-54.0	-55.7	19.6	0.00e+00	0	46	0	218103808	60	24001
2026-01-28 10:49:51.19	239.51	13.43	-54.0	-55.7	19.6	0.00e+00	0	46	0	219152384	60	23834
2026-01-28 10:49:52.19	239.67	13.49	-54.1	-55.8	19.5	0.00e+00	0	46	0	221249536	60	24186
2026-01-28 10:49:53.20	239.84	13.55	-54.1	-55.9	19.4	0.00e+00	0	46	0	223346688	60	24338
2026-01-28 10:49:54.20	240.00	13.61	-54.1	-55.8	19.5	0.00e+00	0	46	0	225443840	60	24294
2026-01-28 10:49:55.21	240.16	13.67	-54.1	-55.9	19.3	0.00e+00	0	46	0	227540992	60	24524
2026-01-28 10:49:56.22	240.33	13.73	-54.2	-56.0	19.2	0.00e+00	0	46	0	228589568	60	24725
2026-01-28 10:49:57.22	240.50	13.79	-54.1	-55.9	19.3	0.00e+00	0	46	0	230686720	60	24570
2026-01-28 10:49:58.23	240.66	13.85	-54.0	-55.8	19.5	0.00e+00	0	46	0	232783872	60	24157
2026-01-28 10:49:59.23	240.83	13.91	-54.0	-55.7	19.4	0.00e+00	0	46	0	234881024	60	24016
2026-01-28 10:50:00.24	241.00	13.97	-54.0	-55.7	19.5	0.00e+00	0	46	0	236978176	60	23968
2026-01-28 10:50:01.25	241.17	14.03	-54.0	-55.8	19.5	0.00e+00	0	46	0	238026752	60	24024
2026-01-28 10:50:02.26	241.34	14.09	-53.9	-55.7	19.5	0.00e+00	0	46	0	240123904	60	23851
2026-01-28 10:50:03.27	241.51	14.15	-54.0	-55.7	19.5	0.00e+00	0	46	0	242221056	60	23922
2026-01-28 10:50:04.27	241.68	14.20	-54.1	-55.8	19.5	0.00e+00	0	46	0	244318208	60	24267
2026-01-28 10:50:05.28	241.85	14.26	-54.0	-55.8	19.5	0.00e+00	0	46	0	246415360	60	24095
2026-01-28 10:50:06.29	242.02	14.32	-54.0	-55.8	19.5	0.00e+00	0	46	0	247463936	60	24089
2026-01-28 10:50:07.29	242.20	14.38	-54.0	-55.7	19.6	0.00e+00	0	46	0	249561088	60	23964
2026-01-28 10:50:08.30	242.37	14.44	-53.9	-55.7	19.6	0.00e+00	0	46	0	251658240	60	23772
2026-01-28 10:50:09.30	242.54	14.50	-53.8	-55.6	19.7	0.00e+00	0	46	0	253755392	60	23545
2026-01-28 10:50:10.31	242.72	14.56	-53.8	-55.5	19.8	0.00e+00	0	46	0	255852544	60	23372
2026-01-28 10:50:11.32	242.89	14.62	-53.8	-55.5	19.8	0.00e+00	0	46	0	256901120	60	23384
2026-01-28 10:50:12.32	243.07	14.68	-53.6	-55.3	20.0	0.00e+00	0	46	0	258998272	60	22738
2026-01-28 10:50:13.32	243.24	14.73	-53.5	-55.1	20.1	0.00e+00	0	46	0	261095424	60	22228
2026-01-28 10:50:14.33	243.42	14.79	-53.3	-54.9	20.3	0.00e+00	0	46	0	263192576	60	21785
2026-01-28 10:50:15.33	243.60	14.85	-53.4	-54.9	20.4	0.00e+00	0	46	0	265289728	60	21822
2026-01-28 10:50:16.34	243.78	14.91	-53.4	-54.9	20.4	0.00e+00	0	46	0	266338304	60	21882
2026-01-28 10:50:17.35	243.96	14.97	-53.4	-55.0	20.4	0.00e+00	0	46	0	268435456	60	21930
2026-01-28 10:50:18.35	244.14	15.02	-53.3	-54.8	20.6	0.00e+00	0	46	0	270532608	60	21601
2026-01-28 10:50:19.36	244.32	15.08	-53.3	-54.9	20.4	0.00e+00	0	46	0	272629760	60	21699
2026-01-28 10:50:20.37	244.50	15.14	-53.4	-54.9	20.6	0.00e+00	0	46	0	274726912	60	21725
2026-01-28 10:50:21.38	244.68	15.20	-53.3	-54.8	20.6	0.00e+00	0	46	0	275775488	60	21574
2026-01-28 10:50:22.38	244.87	15.26	-53.2	-54.7	20.7	0.00e+00	0	46	0	277872640	60	21269
2026-01-28 10:50:23.39	245.05	15.31	-53.2	-54.6	20.8	0.00e+00	0	46	0	279969792	60	21152
2026-01-28 10:50:24.39	245.23	15.37	-53.1	-54.5	20.8	0.00e+00	0	46	0	282066944	60	20833
2026-01-28 10:50:25.39	245.42	15.43	-53.1	-54.5	20.8	0.00e+00	0	46	0	284164096	60	20858
2026-01-28 10:50:26.40	245.60	15.48	-53.1	-54.6	20.9	0.00e+00	0	46	0	285212672	60	20995
2026-01-28 10:50:27.41	245.79	15.54	-52.9	-54.3	21.0	0.00e+00	0	46	0	287309824	60	20373
2026-01-28 10:50:28.41	245.98	15.60	-53.0	-54.4	20.9	0.00e+00	0	46	0	289406976	60	20533
2026-01-28 10:50:29.42	246.16	15.65	-53.0	-54.4	21.0	0.00e+00	0	46	0	291504128	60	20514
2026-01-28 10:50:30.43	246.35	15.71	-53.1	-54.6	20.9	0.00e+00	0	46	0	293601280	60	20929
2026-01-28 10:50:31.44	246.54	15.77	-53.1	-54.5	20.9	0.00e+00	0	46	0	294649856	60	20872
2026-01-28 10:50:32.45	246.73	15.82	-53.1	-54.5	20.8	0.00e+00	0	46	0	296747008	60	20823
2026-01-28 10:50:33.45	246.92	15.88	-53.1	-54.5	20.7	0.00e+00	0	46	0	298844160	60	20825
2026-01-28 10:50:34.45	247.11	15.93	-53.1	-54.5	20.8	0.00e+00	0	46	0	300941312	60	20901
2026-01-28 10:50:35.46	247.31	15.99	-53.0	-54.5	20.8	0.00e+00	0	46	0	303038464	60	20772
2026-01-28 10:50:36.47	247.50	16.04	-53.0	-54.4	20.8	0.00e+00	0	46	0	304087040	60	20641
2026-01-28 10:50:37.48	247.69	16.10	-53.0	-54.5	20.8	0.00e+00	0	46	0	306184192	60	20716
2026-01-28 10:50:38.48	247.89	16.15	-52.9	-54.3	21.0	0.00e+00	0	46	0	308281344	60	20220
2026-01-28 10:50:39.49	248.08	16.21	-52.9	-54.4	20.9	0.00e+00	0	46	0	310378496	60	20471
2026-01-28 10:50:40.50	248.28	16.26	-52.9	-54.3	20.9	0.00e+00	0	46	0	312475648	60	20440
2026-01-28 10:50:41.50	248.47	16.32	-53.0	-54.5	20.8	0.00e+00	0	46	0	313524224	60	20751
2026-01-28 10:50:42.51	248.67	16.37	-53.3	-54.8	20.6	0.00e+00	0	46	0	315621376	60	21464
2026-01-28 10:50:43.52	248.87	16.42	-53.4	-54.9	20.5	0.00e+00	0	46	0	317718528	60	21793
2026-01-28 10:50:44.52	249.06	16.48	-53.5	-55.1	20.3	0.00e+00	0	46	0	319815680	60	22171
2026-01-28 10:50:45.52	249.26	16.53	-53.5	-55.1	20.2	0.00e+00	0	46	0	321912832	60	22197
2026-01-28 10:50:46.53	249.46	16.58	-53.5	-55.1	20.3	0.00e+00	0	46	0	322961408	60	22272
2026-01-28 10:50:47.54	249.66	16.64	-53.6	-55.1	20.2	0.00e+00	0	46	0	325058560	60	22318
2026-01-28 10:50:48.55	249.86	16.69	-53.5	-55.0	20.4	0.00e+00	0	46	0	327155712	60	21993
2026-01-28 10:50:49.55	250.06	16.74	-53.4	-54.9	20.2	0.00e+00	0	46	0	329252864	60	21871
2026-01-28 10:50:50.56	250.27	16.79	-53.3	-54.8	20.5	0.00e+00	0	46	0	331350016	60	21599
2026-01-28 10:50:51.57	250.47	16.85	-53.4	-54.9	20.4	0.00e+00	0	46	0	332398592	60	21759
2026-01-28 10:50:52.58	250.67	16.90	-53.4	-54.9	20.4	0.00e+00	0	46	0	334495744	60	21821
2026-01-28 10:50:53.58	250.88	16.95	-53.5	-55.1	20.2	0.00e+00	0	46	0	336592896	60	22208
2026-01-28 10:50:54.58	251.08	17.00	-53.5	-55.0	20.2	0.00e+00	0	46	0	338690048	60	22140
2026-01-28 10:50:55.59	251.29	17.05	-53.7	-55.3	20.0	0.00e+00	0	46	0	339738624	60	22750
2026-01-28 10:50:56.59	251.49	17.10	-53.7	-55.3	20.0	0.00e+00	0	46	0	341835776	60	22886
2026-01-28 10:50:57.59	251.70	17.15	-53.8	-55.4	19.9	0.00e+00	0	46	0	343932928	60	23173
2026-01-28 10:50:58.60	251.90	17.20	-53.8	-55.5	19.8	0.00e+00	0	46	0	346030080	60	23207
2026-01-28 10:50:59.59	252.11	17.25	-53.8	-55.4	19.8	0.00e+00	0	46	0	348127232	60	23112
2026-01-28 10:51:00.59	252.32	17.30	-53.8	-55.4	19.8	0.00e+00	0	46	0	349175808	60	23141
2026-01-28 10:51:01.59	252.52	17.35	-53.7	-55.4	19.9	0.00e+00	0	46	0	351272960	60	23087
2026-01-28 10:51:02.60	252.73	17.40	-53.7	-55.3	20.0	0.00e+00	0	46	0	353370112	60	22798
2026-01-28 10:51:03.60	252.94	17.45	-53.6	-55.2	20.0	0.00e+00	0	46	0	355467264	60	22592
2026-01-28 10:51:04.61	253.16	17.50	-53.7	-55.3	19.8	0.00e+00	0	46	0	357564416	60	22845
2026-01-28 10:51:05.62	253.37	17.55	-53.7	-55.4	19.7	0.00e+00	0	46	0	359661568	60	23130
2026-01-28 10:51:06.62	253.58	17.60	-53.8	-55.5	19.5	0.00e+00	0	46	0	360710144	60	23469
2026-01-28 10:51:07.63	253.79	17.64	-54.0	-55.8	19.3	0.00e+00	0	46	0	362807296	60	24049
2026-01-28 10:51:08.64	254.01	17.69	-54.1	-55.9	19.3	0.00e+00	0	46	0	364904448	60	24332
2026-01-28 10:51:09.65	254.23	17.74	-54.2	-56.0	19.0	0.00e+00	0	46	0	367001600	60	24732
2026-01-28 10:51:10.65	254.44	17.79	-54.2	-56.1	19.1	0.00e+00	0	46	0	368050176	60	24903
2026-01-28 10:51:11.66	254.66	17.83	-54.3	-56.1	19.1	0.00e+00	0	46	0	370147328	60	25129
2026-01-28 10:51:12.66	254.87	17.88	-54.3	-56.1	19.1	0.00e+00	0	46	0	372244480	60	24994
2026-01-28 10:51:13.67	255.09	17.93	-54.2	-56.1	19.1	0.00e+00	0	46	0	374341632	60	24910
2026-01-28 10:51:14.68	255.31	17.97	-54.3	-56.2	19.0	0.00e+00	0	46	0	376438784	60	25158
2026-01-28 10:51:15.68	255.53	18.02	-54.4	-56.3	18.8	0.00e+00	0	46	0	377487360	60	25596
2026-01-28 10:51:16.69	255.75	18.06	-54.5	-56.4	18.8	0.00e+00	0	46	0	379584512	60	25864
2026-01-28 10:51:17.69	255.96	18.11	-54.6	-56.6	18.6	0.00e+00	0	46	0	381681664	60	26397
2026-01-28 10:51:18.70	256.18	18.15	-54.6	-56.6	18.6	0.00e+00	0	46	0	383778816	60	26380
2026-01-28 10:51:19.71	256.41	18.20	-54.6	-56.6	18.5	0.00e+00	0	46	0	385875968	60	26585
2026-01-28 10:51:20.71	256.63	18.24	-54.5	-56.4	18.6	0.00e+00	0	46	0	387973120	60	26006
2026-01-28 10:51:21.72	256.85	18.28	-54.4	-56.3	18.8	0.00e+00	0	46	0	389021696	60	25715
2026-01-28 10:51:22.73	257.07	18.33	-54.4	-56.3	18.9	0.00e+00	0	46	0	391118848	60	25576
2026-01-28 10:51:23.74	257.30	18.37	-54.3	-56.2	19.0	0.00e+00	0	46	0	393216000	60	25298
2026-01-28 10:51:24.75	257.52	18.41	-54.3	-56.2	19.0	0.00e+00	0	46	0	395313152	60	25223
2026-01-28 10:51:25.75	257.75	18.46	-54.2	-56.1	19.2	0.00e+00	0	46	0	396361728	60	24953
2026-01-28 10:51:26.76	257.97	18.50	-54.2	-56.0	19.2	0.00e+00	0	46	0	398458880	60	24698
2026-01-28 10:51:27.77	258.20	18.54	-54.2	-56.0	19.1	0.00e+00	0	46	0	400556032	60	24783
2026-01-28 10:51:28.78	258.43	18.58	-54.2	-56.0	19.1	0.00e+00	0	46	0	402653184	60	24805
2026-01-28 10:51:29.78	258.65	18.62	-54.2	-56.1	19.1	0.00e+00	0	46	0	404750336	60	24997
2026-01-28 10:51:30.78	258.88	18.66	-54.3	-56.2	19.0	0.00e+00	0	46	0	405798912	60	25191
2026-01-28 10:51:31.79	259.11	18.70	-54.4	-56.3	18.8	0.00e+00	0	46	0	407896064	60	25498
2026-01-28 10:51:32.80	259.34	18.74	-54.4	-56.3	18.9	0.00e+00	0	46	0	409993216	60	25531
2026-01-28 10:51:33.81	259.57	18.78	-54.3	-56.1	19.0	0.00e+00	0	46	0	412090368	60	25136
2026-01-28 10:51:34.81	259.80	18.82	-54.3	-56.1	19.1	0.00e+00	0	46	0	414187520	60	25008
2026-01-28 10:51:35.82	260.03	18.86	-54.2	-56.1	19.1	0.00e+00	0	46	0	416284672	60	24880
2026-01-28 10:51:36.82	260.26	18.90	-54.0	-55.8	19.4	0.00e+00	0	46	0	417333248	60	24140
2026-01-28 10:51:37.83	260.49	18.93	-53.9	-55.6	19.6	0.00e+00	0	46	0	419430400	60	23710
2026-01-28 10:51:38.84	260.72	18.97	-54.0	-55.7	19.5	0.00e+00	0	46	0	421527552	60	23816
2026-01-28 10:51:39.84	260.96	19.01	-53.8	-55.5	19.6	0.00e+00	0	46	0	423624704	60	23302
2026-01-28 10:51:40.85	261.19	19.04	-53.8	-55.5	19.6	0.00e+00	0	46	0	424673280	60	23471
2026-01-28 10:51:41.86	261.42	19.08	-53.8	-55.5	19.6	0.00e+00	0	46	0	426770432	60	23375
2026-01-28 10:51:42.87	261.66	19.12	-53.9	-55.6	19.5	0.00e+00	0	46	0	428867584	60	23690
2026-01-28 10:51:43.87	261.89	19.15	-53.9	-55.6	19.4	0.00e+00	0	46	0	430964736	60	23718
2026-01-28 10:51:44.88	262.13	19.19	-53.9	-55.6	19.4	0.00e+00	0	46	0	433061888	60	23738
2026-01-28 10:51:45.88	262.36	19.22	-53.9	-55.6	19.4	0.00e+00	0	46	0	434110464	60	23722
2026-01-28 10:51:46.88	262.60	19.25	-53.9	-55.6	19.4	0.00e+00	0	46	0	436207616	60	23703
2026-01-28 10:51:47.89	262.84	19.29	-53.9	-55.6	19.3	0.00e+00	0	46	0	438304768	60	23733
2026-01-28 10:51:48.89	263.07	19.32	-54.0	-55.8	19.2	0.00e+00	0	46	0	440401920	60	24272
2026-01-28 10:51:49.90	263.31	19.35	-53.9	-55.7	19.3	0.00e+00	0	46	0	442499072	60	23776
2026-01-28 10:51:50.91	263.55	19.38	-53.9	-55.6	19.3	0.00e+00	0	46	0	444596224	60	23725
2026-01-28 10:51:51.91	263.79	19.42	-53.9	-55.7	19.3	0.00e+00	0	46	0	445644800	60	23766
2026-01-28 10:51:52.91	264.03	19.45	-53.8	-55.5	19.5	0.00e+00	0	46	0	447741952	60	23289
2026-01-28 10:51:53.92	264.27	19.48	-53.6	-55.3	19.7	0.00e+00	0	46	0	449839104	60	22807
2026-01-28 10:51:54.93	264.51	19.51	-53.6	-55.2	19.8	0.00e+00	0	46	0	451936256	60	22567
2026-01-28 10:51:55.94	264.75	19.54	-53.5	-55.2	19.9	0.00e+00	0	46	0	452984832	60	22524
2026-01-28 10:51:56.95	264.99	19.57	-53.6	-55.2	19.8	0.00e+00	0	46	0	455081984	60	22589
2026-01-28 10:51:57.95	265.23	19.60	-53.6	-55.3	19.7	0.00e+00	0	46	0	457179136	60	22790
2026-01-28 10:51:58.96	265.48	19.63	-53.6	-55.2	19.8	0.00e+00	0	46	0	459276288	60	22584
2026-01-28 10:51:59.96	265.72	19.65	-53.7	-55.4	19.7	0.00e+00	0	46	0	461373440	60	23047
2026-01-28 10:52:00.97	265.96	19.68	-53.8	-55.5	19.6	0.00e+00	0	46	0	462422016	60	23267
2026-01-28 10:52:01.98	266.21	19.71	-53.7	-55.4	19.6	0.00e+00	0	46	0	464519168	60	23176
2026-01-28 10:52:02.99	266.45	19.74	-53.7	-55.4	19.6	0.00e+00	0	46	0	466616320	60	23017
2026-01-28 10:52:03.99	266.69	19.76	-53.6	-55.3	19.8	0.00e+00	0	46	0	468713472	60	22703
2026-01-28 10:52:05.00	266.94	19.79	-53.6	-55.2	19.9	0.00e+00	0	46	0	470810624	60	22671
2026-01-28 10:52:06.00	267.18	19.81	-53.5	-55.1	20.0	0.00e+00	0	46	0	472907776	60	22393
2026-01-28 10:52:07.01	267.43	19.84	-53.5	-55.1	20.0	0.00e+00	0	46	0	473956352	60	22344
2026-01-28 10:52:08.01	267.67	19.86	-53.5	-55.2	20.0	0.00e+00	0	46	0	476053504	60	22476
2026-01-28 10:52:09.02	267.92	19.88	-53.5	-55.1	20.0	0.00e+00	0	46	0	478150656	60	22213
2026-01-28 10:52:10.03	268.17	19.91	-53.4	-54.9	20.1	0.00e+00	0	46	0	480247808	60	21875
2026-01-28 10:52:11.04	268.42	19.93	-53.3	-54.9	20.1	0.00e+00	0	46	0	481296384	60	21843
2026-01-28 10:52:12.05	268.66	19.95	-53.4	-54.9	20.1	0.00e+00	0	46	0	483393536	60	21887
2026-01-28 10:52:13.06	268.91	19.97	-53.4	-55.0	20.0	0.00e+00	0	46	0	485490688	60	21963
2026-01-28 10:52:14.07	269.16	20.00	-53.5	-55.2	19.8	0.00e+00	0	46	0	487587840	60	22545
2026-01-28 10:52:15.08	269.41	20.02	-53.5	-55.1	19.8	0.00e+00	0	46	0	489684992	60	22385
2026-01-28 10:52:16.08	269.66	20.04	-53.4	-55.1	19.9	0.00e+00	0	46	0	490733568	60	22297
2026-01-28 10:52:17.09	269.91	20.06	-53.3	-55.0	20.0	0.00e+00	0	46	0	492830720	60	21972
2026-01-28 10:52:18.10	270.16	20.08	-53.3	-54.9	20.0	0.00e+00	0	46	0	494927872	60	21694
2026-01-28 10:52:19.10	270.41	20.09	-53.0	-54.6	20.3	0.00e+00	0	46	0	497025024	60	20981
2026-01-28 10:52:20.11	270.66	20.11	-53.0	-54.6	20.3	0.00e+00	0	46	0	499122176	60	20925
2026-01-28 10:52:21.12	270.91	20.13	-53.0	-54.6	20.3	0.00e+00	0	46	0	501219328	60	21040
2026-01-28 10:52:22.12	271.16	20.15	-53.0	-54.6	20.2	0.00e+00	0	46	0	502267904	60	21012
2026-01-28 10:52:23.13	271.41	20.16	-53.2	-54.8	20.0	0.00e+00	0	46	0	504365056	60	21546
2026-01-28 10:52:24.13	271.66	20.18	-53.3	-55.0	19.8	0.00e+00	0	46	0	506462208	60	22095
2026-01-28 10:52:25.14	271.91	20.19	-53.6	-55.4	19.4	7.00e-07	0	46	0	508559360	60	23126
2026-01-28 10:52:26.14	272.16	20.21	-53.8	-55.7	19.2	0.00e+00	0	46	0	509607936	60	23877
2026-01-28 10:52:27.15	272.41	20.22	-54.0	-55.9	19.0	7.00e-07	0	46	0	511705088	60	24487
2026-01-28 10:52:28.15	272.66	20.24	-54.1	-56.0	18.9	0.00e+00	0	46	0	513802240	60	24729
2026-01-28 10:52:29.16	272.91	20.25	-54.1	-56.1	18.9	0.00e+00	0	46	0	515899392	60	24902
2026-01-28 10:52:30.17	273.17	20.26	-53.8	-55.7	19.2	0.00e+00	0	46	0	517996544	60	23990
2026-01-28 10:52:31.18	273.42	20.28	-53.5	-55.4	19.6	0.00e+00	0	46	0	519045120	60	23012
2026-01-28 10:52:32.19	273.67	20.29	-53.5	-55.3	19.7	0.00e+00	0	46	0	521142272	60	22836
2026-01-28 10:52:33.20	273.93	20.30	-53.4	-55.2	19.8	0.00e+00	0	46	0	523239424	60	22535
2026-01-28 10:52:34.20	274.18	20.31	-53.3	-55.1	19.8	0.00e+00	0	46	0	525336576	60	22355
2026-01-28 10:52:35.21	274.43	20.32	-53.2	-55.0	19.9	0.00e+00	0	46	0	527433728	60	22017
2026-01-28 10:52:36.21	274.69	20.33	-53.3	-55.0	19.9	0.00e+00	0	46	0	529530880	60	22131
2026-01-28 10:52:37.22	274.94	20.34	-53.4	-55.2	19.8	0.00e+00	0	46	0	530579456	60	22511
2026-01-28 10:52:38.22	275.19	20.35	-53.6	-55.5	19.5	0.00e+00	0	46	0	532676608	60	23396
2026-01-28 10:52:39.23	275.45	20.35	-53.7	-55.7	19.4	0.00e+00	0	46	0	534773760	60	23917
2026-01-28 10:52:40.24	275.70	20.36	-53.9	-55.9	19.2	0.00e+00	0	46	0	536870912	60	24449
2026-01-28 10:52:41.23	275.95	20.37	-53.9	-56.0	19.0	0.00e+00	0	46	0	537919488	60	24773
2026-01-28 10:52:42.24	276.21	20.37	-53.9	-56.1	19.0	0.00e+00	0	46	0	540016640	60	24882
2026-01-28 10:52:43.24	276.46	20.38	-53.8	-55.9	19.1	0.00e+00	0	46	0	542113792	60	24565
2026-01-28 10:52:44.25	276.71	20.38	-53.7	-55.9	19.1	0.00e+00	0	46	0	544210944	60	24360
2026-01-28 10:52:45.25	276.97	20.39	-53.5	-55.7	19.1	0.00e+00	0	46	0	546308096	60	23976
2026-01-28 10:52:46.25	277.22	20.39	-53.7	-55.9	19.1	0.00e+00	0	46	0	547356672	60	24366
2026-01-28 10:52:47.26	277.47	20.40	-53.7	-56.0	18.9	0.00e+00	0	46	0	549453824	60	24650
2026-01-28 10:52:48.27	277.73	20.40	-53.8	-56.1	18.8	0.00e+00	0	46	0	551550976	60	24903
2026-01-28 10:52:49.28	277.98	20.40	-53.8	-56.2	18.4	0.00e+00	0	46	0	553648128	60	25228
2026-01-28 10:52:50.28	278.24	20.40	-53.9	-56.3	18.4	0.00e+00	0	46	0	555745280	60	25696
2026-01-28 10:52:51.29	278.49	20.40	-53.9	-56.5	18.2	0.00e+00	0	46	0	556793856	60	26078
2026-01-28 10:52:52.30	278.75	20.40	-53.8	-56.3	18.4	0.00e+00	0	46	0	558891008	60	25685
2026-01-28 10:52:53.30	279.00	20.40	-53.8	-56.4	18.4	0.00e+00	0	46	0	560988160	60	25820
2026-01-28 10:52:54.31	279.26	20.40	-53.8	-56.2	18.3	0.00e+00	0	46	0	563085312	60	25422
2026-01-28 10:52:55.31	279.51	20.40	-53.7	-56.2	18.4	0.00e+00	0	46	0	565182464	60	25407
2026-01-28 10:52:56.32	279.76	20.40	-53.7	-56.1	18.3	0.00e+00	0	46	0	566231040	60	25115
2026-01-28 10:52:57.33	280.02	20.40	-53.6	-56.0	18.5	0.00e+00	0	46	0	568328192	60	24830
2026-01-28 10:52:58.34	280.27	20.40	-53.5	-55.9	18.6	0.00e+00	0	46	0	570425344	60	24432
2026-01-28 10:52:59.34	280.53	20.39	-53.4	-55.9	18.5	0.00e+00	0	46	0	572522496	60	24304
2026-01-28 10:53:00.35	280.78	20.39	-53.3	-55.7	18.7	0.00e+00	0	46	0	574619648	60	23879
2026-01-28 10:53:01.35	281.04	20.38	-53.1	-55.3	19.1	0.00e+00	0	46	0	575668224	60	22684
2026-01-28 10:53:02.36	281.29	20.38	-53.1	-55.2	19.3	0.00e+00	0	46	0	577765376	60	22469
2026-01-28 10:53:03.37	281.54	20.37	-53.2	-55.2	19.4	0.00e+00	0	46	0	579862528	60	22523
2026-01-28 10:53:04.38	281.80	20.37	-53.1	-55.0	19.5	0.00e+00	0	46	0	581959680	60	22128
2026-01-28 10:53:05.39	282.05	20.36	-53.1	-55.0	19.6	0.00e+00	0	46	0	584056832	60	22043
2026-01-28 10:53:06.39	282.31	20.35	-53.3	-55.2	19.5	0.00e+00	0	46	0	586153984	60	22435
2026-01-28 10:53:07.40	282.56	20.35	-53.6	-55.4	19.4	0.00e+00	0	46	0	587202560	60	23139
2026-01-28 10:53:08.40	282.81	20.34	-53.7	-55.6	19.2	0.00e+00	0	46	0	589299712	60	23728
2026-01-28 10:53:09.41	283.07	20.33	-53.9	-55.8	19.1	0.00e+00	0	46	0	591396864	60	24193
2026-01-28 10:53:10.42	283.32	20.32	-54.0	-55.9	19.1	0.00e+00	0	46	0	593494016	60	24475
2026-01-28 10:53:11.42	283.57	20.31	-54.0	-55.9	19.1	0.00e+00	0	46	0	594542592	60	24552
2026-01-28 10:53:12.43	283.83	20.30	-54.1	-56.0	19.1	0.00e+00	0	46	0	596639744	60	24686
2026-01-28 10:53:13.44	284.08	20.29	-53.9	-55.8	19.4	0.00e+00	0	46	0	598736896	60	24145
2026-01-28 10:53:14.45	284.33	20.28	-53.9	-55.7	19.3	0.00e+00	0	46	0	600834048	60	24010
2026-01-28 10:53:15.45	284.58	20.26	-54.0	-55.9	19.3	0.00e+00	0	46	0	602931200	60	24531
2026-01-28 10:53:16.45	284.83	20.25	-53.9	-55.8	19.3	0.00e+00	0	46	0	603979776	60	24172
2026-01-28 10:53:17.46	285.09	20.24	-53.9	-55.8	19.3	0.00e+00	0	46	0	606076928	60	24126
2026-01-28 10:53:18.46	285.34	20.22	-53.8	-55.7	19.3	0.00e+00	0	46	0	608174080	60	23813
2026-01-28 10:53:19.47	285.59	20.21	-53.8	-55.7	19.3	0.00e+00	0	46	0	610271232	60	23860
2026-01-28 10:53:20.48	285.84	20.19	-53.7	-55.5	19.5	0.00e+00	0	46	0	612368384	60	23454
2026-01-28 10:53:21.48	286.09	20.18	-53.8	-55.6	19.4	0.00e+00	0	46	0	613416960	60	23544
2026-01-28 10:53:22.49	286.34	20.16	-53.9	-55.7	19.4	0.00e+00	0	46	0	615514112	60	23909
2026-01-28 10:53:23.50	286.59	20.15	-54.0	-55.9	19.2	0.00e+00	0	46	0	617611264	60	24301
2026-01-28 10:53:24.50	286.84	20.13	-54.0	-55.9	19.2	0.00e+00	0	46	0	619708416	60	24457
2026-01-28 10:53:25.51	287.09	20.11	-54.1	-56.0	19.2	0.00e+00	0	46	0	621805568	60	24618
2026-01-28 10:53:26.51	287.34	20.09	-53.7	-55.6	19.6	0.00e+00	0	46	0	622854144	60	23555
2026-01-28 10:53:27.52	287.59	20.08	-53.5	-55.4	19.8	0.00e+00	0	46	0	624951296	60	23045
2026-01-28 10:53:28.53	287.84	20.06	-53.3	-55.3	19.8	0.00e+00	0	46	0	627048448	60	22774
2026-01-28 10:53:29.53	288.09	20.04	-53.1	-55.2	19.9	0.00e+00	0	46	0	629145600	60	22470
2026-01-28 10:53:30.54	288.34	20.02	-53.0	-55.1	19.9	0.00e+00	0	46	0	631242752	60	22235
2026-01-28 10:53:31.54	288.58	20.00	-53.1	-55.2	19.9	0.00e+00	0	46	0	632291328	60	22507
2026-01-28 10:53:32.54	288.83	19.98	-53.1	-55.2	19.8	0.00e+00	0	46	0	634388480	60	22645
2026-01-28 10:53:33.55	289.08	19.95	-53.2	-55.5	19.5	0.00e+00	0	46	0	636485632	60	23402
2026-01-28 10:53:34.56	289.32	19.93	-53.3	-55.7	19.4	0.00e+00	0	46	0	638582784	60	23813
2026-01-28 10:53:35.56	289.57	19.91	-53.4	-55.8	19.3	0.00e+00	0	46	0	640679936	60	24105
2026-01-28 10:53:36.57	289.82	19.89	-53.3	-55.6	19.4	0.00e+00	0	46	0	641728512	60	23684
2026-01-28 10:53:37.58	290.06	19.86	-53.3	-55.6	19.4	0.00e+00	0	46	0	643825664	60	23629
2026-01-28 10:53:38.58	290.31	19.84	-53.3	-55.5	19.6	0.00e+00	0	46	0	645922816	60	23421
2026-01-28 10:53:39.59	290.55	19.81	-53.0	-55.0	20.1	0.00e+00	0	46	0	648019968	60	22139
2026-01-28 10:53:40.60	290.80	19.79	-53.0	-55.0	20.2	0.00e+00	0	46	0	650117120	60	21919
2026-01-28 10:53:41.60	291.04	19.76	-53.0	-54.8	20.4	0.00e+00	0	46	0	651165696	60	21449
2026-01-28 10:53:42.60	291.28	19.74	-52.9	-54.6	20.6	0.00e+00	0	46	0	653262848	60	20976
2026-01-28 10:53:43.60	291.52	19.71	-53.0	-54.6	20.7	0.00e+00	0	46	0	655360000	60	21052
2026-01-28 10:53:44.61	291.77	19.68	-53.0	-54.6	20.7	0.00e+00	0	46	0	657457152	60	20931
2026-01-28 10:53:45.61	292.01	19.66	-52.9	-54.4	20.8	0.00e+00	0	46	0	659554304	60	20521
2026-01-28 10:53:46.61	292.25	19.63	-52.9	-54.4	20.8	0.00e+00	0	46	0	660602880	60	20513
2026-01-28 10:53:47.61	292.49	19.60	-52.9	-54.3	20.9	0.00e+00	0	46	0	662700032	60	20441
2026-01-28 10:53:48.61	292.73	19.57	-52.8	-54.3	20.9	0.00e+00	0	46	0	664797184	60	20211
2026-01-28 10:53:49.62	292.97	19.54	-53.0	-54.5	20.7	0.00e+00	0	46	0	666894336	60	20821
2026-01-28 10:53:50.62	293.21	19.51	-53.1	-54.7	20.6	0.00e+00	0	46	0	668991488	60	21284
2026-01-28 10:53:51.63	293.45	19.48	-53.2	-54.9	20.4	0.00e+00	0	46	0	670040064	60	21789
2026-01-28 10:53:52.63	293.69	19.45	-53.2	-55.1	20.3	0.00e+00	0	46	0	672137216	60	22164
2026-01-28 10:53:53.64	293.93	19.42	-53.2	-55.1	20.1	0.00e+00	0	46	0	674234368	60	22312
2026-01-28 10:53:54.65	294.17	19.39	-53.1	-55.1	20.1	0.00e+00	0	46	0	676331520	60	22303
2026-01-28 10:53:55.66	294.41	19.36	-53.1	-55.1	20.1	0.00e+00	0	46	0	678428672	60	22359
2026-01-28 10:53:56.67	294.65	19.32	-53.0	-55.0	20.0	0.00e+00	0	46	0	679477248	60	22106
2026-01-28 10:53:57.68	294.88	19.29	-53.1	-55.2	19.9	0.00e+00	0	46	0	681574400	60	22451
2026-01-28 10:53:58.68	295.12	19.26	-52.9	-54.9	20.2	0.00e+00	0	46	0	683671552	60	21728
2026-01-28 10:53:59.69	295.35	19.22	-52.9	-54.8	20.2	0.00e+00	0	46	0	685768704	60	21552
2026-01-28 10:54:00.70	295.59	19.19	-52.9	-54.8	20.2	0.00e+00	0	46	0	687865856	60	21417
2026-01-28 10:54:01.70	295.82	19.15	-52.9	-54.7	20.2	0.00e+00	0	46	0	688914432	60	21321
2026-01-28 10:54:02.71	296.06	19.12	-52.6	-54.3	20.6	0.00e+00	0	46	0	691011584	60	20376
2026-01-28 10:54:03.71	296.29	19.08	-52.4	-53.9	21.0	0.00e+00	0	46	0	693108736	60	19390
2026-01-28 10:54:04.71	296.52	19.05	-52.4	-53.8	21.1	7.00e-07	0	46	0	695205888	60	19196
2026-01-28 10:54:05.72	296.76	19.01	-52.4	-53.9	21.0	0.00e+00	0	46	0	697303040	60	19367
2026-01-28 10:54:06.72	296.99	18.98	-52.4	-53.9	21.1	0.00e+00	0	46	0	698351616	60	19320
2026-01-28 10:54:07.73	297.22	18.94	-52.6	-54.1	20.9	0.00e+00	0	46	0	700448768	60	19766
2026-01-28 10:54:08.73	297.45	18.90	-52.6	-54.1	21.0	0.00e+00	0	46	0	702545920	60	19796
2026-01-28 10:54:09.74	297.68	18.86	-52.7	-54.2	20.9	0.00e+00	0	46	0	704643072	60	20075
2026-01-28 10:54:10.75	297.91	18.82	-52.5	-54.0	21.0	0.00e+00	0	46	0	706740224	60	19580
2026-01-28 10:54:11.76	298.14	18.79	-52.6	-54.0	21.0	0.00e+00	0	46	0	707788800	60	19634
2026-01-28 10:54:12.76	298.37	18.75	-52.7	-54.1	20.9	0.00e+00	0	46	0	709885952	60	19920
2026-01-28 10:54:13.77	298.60	18.71	-52.6	-54.0	21.1	0.00e+00	0	46	0	711983104	60	19688
2026-01-28 10:54:14.78	298.83	18.67	-52.7	-54.1	20.9	0.00e+00	0	46	0	714080256	60	19775
2026-01-28 10:54:15.78	299.05	18.63	-52.6	-54.0	21.1	0.00e+00	0	46	0	715128832	60	19611
2026-01-28 10:54:16.79	299.28	18.59	-52.4	-53.8	21.3	0.00e+00	0	46	0	717225984	60	19147
2026-01-28 10:54:17.79	299.51	18.55	-52.5	-53.9	21.2	0.00e+00	0	46	0	719323136	60	19436
2026-01-28 10:54:18.80	299.73	18.51	-52.2	-53.6	21.4	0.00e+00	0	46	0	721420288	60	18682
2026-01-28 10:54:19.81	299.96	18.46	-52.1	-53.6	21.4	0.00e+00	0	46	0	723517440	60	18763
2026-01-28 10:54:20.82	300.18	18.42	-51.9	-53.5	21.4	0.00e+00	0	46	0	725614592	60	18451
2026-01-28 10:54:21.83	300.41	18.38	-51.8	-53.3	21.5	0.00e+00	0	46	0	726663168	60	18122
2026-01-28 10:54:22.83	300.63	18.34	-51.9	-53.4	21.5	0.00e+00	0	46	0	728760320	60	18402
2026-01-28 10:54:23.84	300.85	18.29	-51.9	-53.4	21.4	0.00e+00	0	46	0	730857472	60	18402
2026-01-28 10:54:24.85	301.07	18.25	-51.8	-53.3	21.5	0.00e+00	0	46	0	732954624	60	18166
2026-01-28 10:54:25.86	301.29	18.21	-51.8	-53.4	21.6	0.00e+00	0	46	0	735051776	60	18259
2026-01-28 10:54:26.86	301.51	18.16	-52.0	-53.5	21.4	0.00e+00	0	46	0	736100352	60	18586
2026-01-28 10:54:27.87	301.73	18.12	-52.0	-53.6	21.5	0.00e+00	0	46	0	738197504	60	18700
2026-01-28 10:54:28.88	301.95	18.07	-52.1	-53.6	21.6	0.00e+00	0	46	0	740294656	60	18691
2026-01-28 10:54:29.88	302.17	18.03	-52.2	-53.7	21.5	0.00e+00	0	46	0	742391808	60	18886
2026-01-28 10:54:30.89	302.39	17.98	-52.2	-53.7	21.5	0.00e+00	0	46	0	744488960	60	18925
2026-01-28 10:54:31.90	302.61	17.94	-52.3	-53.9	21.4	0.00e+00	0	46	0	745537536	60	19337
2026-01-28 10:54:32.91	302.83	17.89	-52.4	-54.0	21.3	0.00e+00	0	46	0	747634688	60	19634
2026-01-28 10:54:33.92	303.04	17.84	-52.4	-54.0	21.2	0.00e+00	0	46	0	749731840	60	19728
2026-01-28 10:54:34.92	303.26	17.80	-52.3	-54.1	21.1	0.00e+00	0	46	0	751828992	60	19758
2026-01-28 10:54:35.93	303.47	17.75	-52.3	-54.0	21.2	0.00e+00	0	46	0	753926144	60	19711
2026-01-28 10:54:36.94	303.69	17.70	-52.4	-54.1	21.2	0.00e+00	0	46	0	754974720	60	19787
2026-01-28 10:54:37.94	303.90	17.66	-52.3	-54.0	21.2	0.00e+00	0	46	0	757071872	60	19652
2026-01-28 10:54:38.95	304.11	17.61	-52.4	-54.2	21.0	0.00e+00	0	46	0	759169024	60	20024
2026-01-28 10:54:39.95	304.32	17.56	-52.5	-54.3	20.8	0.00e+00	0	46	0	761266176	60	20271
2026-01-28 10:54:40.96	304.53	17.51	-52.7	-54.5	20.7	7.00e-07	0	46	0	763363328	60	20682
2026-01-28 10:54:41.97	304.75	17.46	-52.9	-54.7	20.4	0.00e+00	0	46	0	764411904	60	21263
2026-01-28 10:54:42.98	304.96	17.42	-53.0	-54.8	20.1	0.00e+00	0	46	0	766509056	60	21426
2026-01-28 10:54:43.99	305.17	17.37	-53.1	-54.9	19.7	0.00e+00	0	46	0	768606208	60	21673
2026-01-28 10:54:45.00	305.38	17.32	-53.2	-54.9	20.0	0.00e+00	0	46	0	770703360	60	21662
2026-01-28 10:54:46.00	305.58	17.27	-53.3	-54.9	19.9	0.00e+00	0	46	0	772800512	60	21875
2026-01-28 10:54:47.01	305.79	17.22	-53.2	-54.8	19.6	0.00e+00	0	46	0	773849088	60	21545
2026-01-28 10:54:48.02	306.00	17.17	-53.3	-54.9	19.4	0.00e+00	0	46	0	775946240	60	21829
2026-01-28 10:54:49.02	306.20	17.12	-53.3	-55.0	18.0	0.00e+00	0	46	0	778043392	60	22003
2026-01-28 10:54:50.03	306.41	17.07	-53.3	-55.0	16.6	0.00e+00	0	46	0	780140544	60	22109
2026-01-28 10:54:51.03	306.61	17.02	-53.3	-55.1	17.8	0.00e+00	0	46	0	782237696	60	22232
2026-01-28 10:54:52.04	306.82	16.96	-53.5	-55.2	19.6	0.00e+00	0	46	0	783286272	60	22623
2026-01-28 10:54:53.05	307.02	16.91	-53.5	-55.2	19.4	0.00e+00	0	46	0	785383424	60	22459
2026-01-28 10:54:54.06	307.22	16.86	-53.4	-55.1	19.6	0.00e+00	0	46	0	787480576	60	22338
2026-01-28 10:54:55.07	307.43	16.81	-53.4	-55.2	19.7	0.00e+00	0	46	0	789577728	60	22514
2026-01-28 10:54:56.07	307.63	16.76	-53.4	-55.1	19.4	0.00e+00	0	46	0	791674880	60	22365
2026-01-28 10:54:57.08	307.83	16.71	-53.4	-55.2	19.7	0.00e+00	0	46	0	792723456	60	22460
2026-01-28 10:54:58.08	308.03	16.65	-53.3	-55.1	19.9	0.00e+00	0	46	0	794820608	60	22199
2026-01-28 10:54:59.09	308.23	16.60	-53.4	-55.3	19.3	0.00e+00	0	46	0	796917760	60	22783
2026-01-28 10:55:00.10	308.43	16.55	-53.5	-55.5	18.6	0.00e+00	0	46	0	799014912	60	23266
2026-01-28 10:55:01.10	308.62	16.49	-53.5	-55.7	18.7	0.00e+00	0	46	0	801112064	60	23837
2026-01-28 10:55:02.11	308.82	16.44	-53.7	-55.9	18.8	0.00e+00	0	46	0	802160640	60	24515
2026-01-28 10:55:03.12	309.02	16.39	-53.7	-56.0	18.8	0.00e+00	0	46	0	804257792	60	24774
2026-01-28 10:55:04.13	309.21	16.33	-53.7	-56.0	18.8	0.00e+00	0	46	0	806354944	60	24815
2026-01-28 10:55:05.13	309.41	16.28	-53.5	-55.9	18.7	0.00e+00	0	46	0	808452096	60	24337
2026-01-28 10:55:06.14	309.60	16.23	-53.4	-55.7	18.8	0.00e+00	0	46	0	810549248	60	23960
2026-01-28 10:55:07.15	309.80	16.17	-53.4	-55.7	18.8	0.00e+00	0	46	0	811597824	60	23857
2026-01-28 10:55:08.15	309.99	16.12	-53.4	-55.5	19.1	0.00e+00	0	46	0	813694976	60	23333
2026-01-28 10:55:09.16	310.18	16.06	-53.6	-55.7	19.2	0.00e+00	0	46	0	815792128	60	23750
2026-01-28 10:55:10.16	310.37	16.01	-53.5	-55.5	19.2	0.00e+00	0	46	0	817889280	60	23385
2026-01-28 10:55:11.17	310.57	15.95	-53.6	-55.6	19.1	0.00e+00	0	46	0	819986432	60	23482
2026-01-28 10:55:12.17	310.75	15.90	-53.8	-55.7	19.0	0.00e+00	0	46	0	821035008	60	23981
2026-01-28 10:55:13.18	310.95	15.84	-53.7	-55.7	19.0	0.00e+00	0	46	0	823132160	60	23923
2026-01-28 10:55:14.18	311.13	15.79	-53.8	-55.7	19.0	0.00e+00	0	46	0	825229312	60	23920
2026-01-28 10:55:15.19	311.32	15.73	-53.9	-55.8	19.0	0.00e+00	0	46	0	827326464	60	24244
2026-01-28 10:55:16.20	311.51	15.68	-53.9	-55.9	18.9	0.00e+00	0	46	0	829423616	60	24475
2026-01-28 10:55:17.21	311.70	15.62	-53.8	-55.8	18.9	0.00e+00	0	46	0	830472192	60	24132
2026-01-28 10:55:18.22	311.88	15.56	-53.9	-55.9	18.9	0.00e+00	0	46	0	832569344	60	24345
2026-01-28 10:55:19.22	312.07	15.51	-53.9	-55.8	18.9	0.00e+00	0	46	0	834666496	60	24288
2026-01-28 10:55:20.23	312.25	15.45	-53.6	-55.6	19.2	0.00e+00	0	46	0	836763648	60	23513
2026-01-28 10:55:21.24	312.44	15.39	-53.5	-55.4	19.4	0.00e+00	0	46	0	838860800	60	22948
2026-01-28 10:55:22.25	312.62	15.34	-53.2	-55.0	19.7	0.00e+00	0	46	0	839909376	60	22128
2026-01-28 10:55:23.25	312.81	15.28	-53.0	-54.8	19.9	0.00e+00	0	46	0	842006528	60	21494
2026-01-28 10:55:24.26	312.99	15.22	-53.0	-54.8	20.0	0.00e+00	0	46	0	844103680	60	21413
2026-01-28 10:55:25.27	313.17	15.17	-52.9	-54.6	20.2	0.00e+00	0	46	0	846200832	60	21098
2026-01-28 10:55:26.27	313.35	15.11	-53.0	-54.8	20.0	0.00e+00	0	46	0	848297984	60	21486
2026-01-28 10:55:27.27	313.53	15.05	-53.1	-54.9	19.9	0.00e+00	0	46	0	849346560	60	21817
2026-01-28 10:55:28.27	313.71	15.00	-53.1	-54.9	20.0	0.00e+00	0	46	0	851443712	60	21754
2026-01-28 10:55:29.27	313.89	14.94	-53.0	-54.8	20.1	0.00e+00	0	46	0	853540864	60	21435
2026-01-28 10:55:30.28	314.06	14.88	-53.1	-54.8	20.1	0.00e+00	0	46	0	855638016	60	21532
2026-01-28 10:55:31.28	314.24	14.82	-53.2	-54.9	20.0	0.00e+00	0	46	0	856686592	60	21697
2026-01-28 10:55:32.29	314.42	14.77	-53.3	-55.0	19.8	0.00e+00	0	46	0	858783744	60	21955
2026-01-28 10:55:33.30	314.59	14.71	-53.4	-55.2	19.6	0.00e+00	0	46	0	860880896	60	22510
2026-01-28 10:55:34.31	314.77	14.65	-53.7	-55.5	19.3	0.00e+00	0	46	0	862978048	60	23311
2026-01-28 10:55:35.31	314.94	14.59	-53.9	-55.8	19.0	0.00e+00	0	46	0	865075200	60	24146
2026-01-28 10:55:36.32	315.12	14.53	-54.2	-56.2	18.7	0.00e+00	0	46	0	867172352	60	25311
2026-01-28 10:55:37.33	315.29	14.47	-54.3	-56.4	18.6	0.00e+00	0	46	0	868220928	60	25935
2026-01-28 10:55:38.34	315.47	14.41	-54.3	-56.4	18.6	0.00e+00	0	46	0	870318080	60	25859
2026-01-28 10:55:39.34	315.64	14.36	-54.2	-56.4	18.7	0.00e+00	0	46	0	872415232	60	25806
2026-01-28 10:55:40.34	315.81	14.30	-54.0	-56.0	18.9	0.00e+00	0	46	0	874512384	60	24668
2026-01-28 10:55:41.35	315.98	14.24	-54.0	-56.0	19.0	0.00e+00	0	46	0	876609536	60	24640
2026-01-28 10:55:42.35	316.15	14.18	-53.7	-55.6	19.4	0.00e+00	0	46	0	877658112	60	23600
2026-01-28 10:55:43.35	316.32	14.12	-53.4	-55.2	19.8	0.00e+00	0	46	0	879755264	60	22451
2026-01-28 10:55:44.36	316.49	14.06	-53.2	-54.9	20.1	0.00e+00	0	46	0	881852416	60	21835
2026-01-28 10:55:45.37	316.66	14.00	-53.2	-54.9	20.0	0.00e+00	0	46	0	883949568	60	21834
2026-01-28 10:55:46.37	316.82	13.94	-53.4	-55.2	19.7	0.00e+00	0	46	0	884998144	60	22424
2026-01-28 10:55:47.38	316.99	13.88	-53.5	-55.3	19.6	0.00e+00	0	46	0	887095296	60	22813
2026-01-28 10:55:48.38	317.15	13.83	-53.6	-55.5	19.4	0.00e+00	0	46	0	889192448	60	23344
2026-01-28 10:55:49.38	317.32	13.77	-53.7	-55.6	19.2	0.00e+00	0	46	0	891289600	60	23622
2026-01-28 10:55:50.39	317.49	13.71	-53.6	-55.5	19.2	0.00e+00	0	46	0	893386752	60	23311
2026-01-28 10:55:51.39	317.65	13.65	-53.7	-55.6	19.2	0.00e+00	0	46	0	895483904	60	23611
2026-01-28 10:55:52.40	317.81	13.59	-53.7	-55.6	19.2	0.00e+00	0	46	0	896532480	60	23504
2026-01-28 10:55:53.41	317.98	13.53	-53.6	-55.5	19.2	0.00e+00	0	46	0	898629632	60	23344
2026-01-28 10:55:54.41	318.14	13.47	-53.6	-55.5	19.0	0.00e+00	0	46	0	900726784	60	23456
2026-01-28 10:55:55.42	318.30	13.41	-53.6	-55.5	19.0	0.00e+00	0	46	0	902823936	60	23472
2026-01-28 10:55:56.42	318.46	13.35	-53.6	-55.7	18.8	0.00e+00	0	46	0	904921088	60	23795
2026-01-28 10:55:57.43	318.62	13.29	-53.7	-55.9	18.4	0.00e+00	0	46	0	905969664	60	24359
2026-01-28 10:55:58.44	318.78	13.23	-53.7	-56.1	18.0	0.00e+00	0	46	0	908066816	60	25114
2026-01-28 10:55:59.44	318.94	13.17	-53.7	-56.3	17.8	0.00e+00	0	46	0	910163968	60	25471
2026-01-28 10:56:00.45	319.10	13.11	-53.7	-56.4	17.5	0.00e+00	0	46	0	912261120	60	25838
2026-01-28 10:56:01.45	319.26	13.05	-53.6	-56.4	17.4	0.00e+00	0	46	0	913309696	60	25981
2026-01-28 10:56:02.46	319.41	12.99	-53.5	-56.3	17.6	0.00e+00	0	46	0	915406848	60	25443
2026-01-28 10:56:03.47	319.57	12.93	-53.6	-56.2	17.6	0.00e+00	0	46	0	917504000	60	25429
2026-01-28 10:56:04.48	319.73	12.87	-53.5	-56.2	17.7	0.00e+00	0	46	0	919601152	60	25227
2026-01-28 10:56:05.48	319.88	12.81	-53.6	-56.1	17.9	0.00e+00	0	46	0	921698304	60	24943
2026-01-28 10:56:06.49	320.04	12.75	-53.8	-56.3	17.7	0.00e+00	0	46	0	923795456	60	25548
2026-01-28 10:56:07.50	320.19	12.69	-53.9	-56.4	17.7	0.00e+00	0	46	0	924844032	60	25869
2026-01-28 10:56:08.51	320.35	12.63	-54.1	-56.7	17.3	0.00e+00	0	46	0	926941184	60	26854
2026-01-28 10:56:09.52	320.50	12.57	-54.4	-57.1	17.0	0.00e+00	0	46	0	929038336	60	27995
2026-01-28 10:56:10.52	320.65	12.51	-54.5	-57.3	16.7	0.00e+00	0	46	0	931135488	60	28682
2026-01-28 10:56:11.52	320.80	12.44	-54.7	-57.6	16.4	0.00e+00	0	46	0	933232640	60	29722
2026-01-28 10:56:12.52	320.95	12.38	-54.8	-57.8	16.3	0.00e+00	0	46	0	934281216	60	30497
2026-01-28 10:56:13.53	321.11	12.32	-54.9	-57.9	16.2	0.00e+00	0	46	0	936378368	60	30694
2026-01-28 10:56:14.54	321.26	12.26	-54.9	-57.9	16.1	0.00e+00	0	46	0	938475520	60	30757
2026-01-28 10:56:15.55	321.41	12.20	-54.9	-57.9	16.1	0.00e+00	0	46	0	940572672	60	30855
2026-01-28 10:56:16.56	321.56	12.14	-55.0	-57.9	16.0	0.00e+00	0	46	0	941621248	60	30920
2026-01-28 10:56:17.57	321.70	12.08	-54.9	-57.9	16.0	0.00e+00	0	46	0	943718400	60	30729
2026-01-28 10:56:18.57	321.85	12.02	-54.9	-58.0	15.8	0.00e+00	0	46	0	945815552	60	31038
2026-01-28 10:56:19.58	322.00	11.96	-54.8	-58.2	15.4	0.00e+00	0	46	0	947912704	60	31802
2026-01-28 10:56:20.59	322.15	11.90	-54.6	-58.5	14.9	0.00e+00	0	46	0	950009856	60	32803
2026-01-28 10:56:21.59	322.29	11.84	-54.5	-58.8	14.3	0.00e+00	0	46	0	952107008	60	34230
2026-01-28 10:56:22.60	322.44	11.78	-54.5	-59.2	13.8	3.00e-06	0	46	0	953155584	60	35933
2026-01-28 10:56:23.61	322.58	11.72	-54.5	-59.6	13.4	6.80e-06	0	46	0	955252736	60	37425
2026-01-28 10:56:24.61	322.73	11.66	-54.5	-59.9	12.9	3.35e-05	0	46	0	957349888	60	38854
2026-01-28 10:56:25.62	322.87	11.59	-54.5	-60.1	12.6	6.56e-05	0	46	0	959447040	60	39725
2026-01-28 10:56:26.62	323.01	11.53	-54.6	-60.3	12.4	1.08e-04	0	46	0	961544192	60	40497
2026-01-28 10:56:27.63	323.15	11.47	-54.8	-60.4	12.4	1.46e-04	0	46	0	962592768	60	41047
2026-01-28 10:56:28.64	323.30	11.41	-54.8	-60.5	12.3	1.89e-04	0	46	0	964689920	60	41395
2026-01-28 10:56:29.64	323.44	11.35	-55.0	-60.5	12.3	2.08e-04	0	46	0	966787072	60	41523
2026-01-28 10:56:30.65	323.58	11.29	-55.2	-60.7	12.3	1.94e-04	0	46	0	968884224	60	42464
2026-01-28 10:56:31.66	323.72	11.23	-55.4	-60.9	12.1	2.45e-04	0	46	0	969932800	60	43215
2026-01-28 10:56:32.67	323.86	11.17	-55.6	-61.1	11.9	3.20e-04	0	46	0	972029952	60	44688
2026-01-28 10:56:33.67	324.00	11.11	-56.0	-61.4	11.7	5.08e-04	0	46	0	974127104	60	46148
2026-01-28 10:56:34.68	324.14	11.05	-56.2	-61.8	11.2	9.58e-04	0	46	0	976224256	60	48239
2026-01-28 10:56:35.69	324.28	10.99	-56.4	-62.1	11.1	1.59e-03	0	46	0	978321408	60	49868
2026-01-28 10:56:36.69	324.41	10.93	-56.7	-62.4	10.6	2.31e-03	0	46	0	980418560	60	51928
2026-01-28 10:56:37.70	324.55	10.87	-56.8	-62.8	10.2	5.00e-03	0	46	0	981467136	60	54242
2026-01-28 10:56:38.71	324.69	10.80	-56.8	-63.0	10.0	6.39e-03	0	46	0	983564288	60	55135
2026-01-28 10:56:39.71	324.82	10.74	-56.6	-63.1	9.7	9.06e-03	0	46	0	985661440	60	55999
2026-01-28 10:56:40.72	324.96	10.68	-56.3	-63.3	9.4	1.42e-02	0	46	0	987758592	60	56998
2026-01-28 10:56:41.73	325.09	10.62	-56.1	-63.3	9.4	1.55e-02	0	46	0	989855744	60	57080
2026-01-28 10:56:42.74	325.23	10.56	-55.9	-63.5	9.1	1.90e-02	0	46	0	990904320	60	58584
2026-01-28 10:56:43.75	325.36	10.50	-55.9	-63.6	8.9	2.42e-02	0	46	0	993001472	60	59111
2026-01-28 10:56:44.75	325.49	10.44	-55.8	-63.8	8.6	3.07e-02	0	46	0	995098624	60	60805
2026-01-28 10:56:45.76	325.63	10.38	-55.9	-64.2	8.2	4.40e-02	0	46	0	997195776	60	63334
2026-01-28 10:56:46.76	325.76	10.32	-56.1	-64.5	7.8	5.77e-02	0	46	0	998244352	60	65537
2026-01-28 10:56:47.77	325.89	10.26	-56.4	-64.8	7.4	7.99e-02	0	46	0	1000341504	60	68468
2026-01-28 10:56:48.77	326.02	10.20	-56.6	-65.2	7.1	1.26e-01	0	46	0	1002438656	60	71397
2026-01-28 10:56:49.78	326.15	10.14	-56.9	-65.6	6.7	1.63e-01	0	46	0	1004535808	60	74513
2026-01-28 10:56:50.79	326.28	10.08	-57.1	-66.0	6.2	2.07e-01	0	46	0	1006632960	60	77733
2026-01-28 10:56:51.80	326.41	10.02	-57.2	-66.2	6.0	2.78e-01	0	46	0	1008730112	60	80390
2026-01-28 10:56:52.80	326.54	9.96	-57.2	-66.5	5.7	3.30e-01	0	46	0	1009778688	60	82382
2026-01-28 10:56:53.81	326.67	9.90	-57.1	-66.5	5.6	3.73e-01	0	46	0	1011875840	60	82828
2026-01-28 10:56:54.82	326.80	9.83	-57.1	-66.8	5.4	4.29e-01	0	46	0	1013972992	60	85363
2026-01-28 10:56:55.83	326.93	9.77	-57.0	-66.9	5.3	4.61e-01	0	46	0	1016070144	60	86372
2026-01-28 10:56:56.84	327.05	9.71	-57.1	-67.1	5.1	4.86e-01	0	46	0	1018167296	60	88486
2026-01-28 10:56:57.84	327.18	9.65	-57.1	-67.2	5.0	5.56e-01	0	46	0	1019215872	60	90108
2026-01-28 10:56:58.85	327.30	9.59	-57.3	-67.5	4.8	6.16e-01	0	46	0	1021313024	60	93318
2026-01-28 10:56:59.86	327.43	9.53	-57.4	-67.8	4.6	6.91e-01	0	46	0	1023410176	60	95956
2026-01-28 10:57:00.87	327.56	9.47	-57.6	-68.2	4.3	8.94e-01	0	46	0	1025507328	60	100945
2026-01-28 10:57:01.88	327.68	9.41	-57.7	-68.5	4.1	9.61e-01	0	46	0	1026555904	60	104821
2026-01-28 10:57:02.88	327.80	9.35	-57.7	-68.9	4.0	1.11e+00	0	46	0	1028653056	60	109160
2026-01-28 10:57:03.88	327.93	9.29	-57.6	-69.1	3.9	1.32e+00	0	46	0	1030750208	60	112126
2026-01-28 10:57:04.88	328.05	9.23	-57.4	-70.8	3.7	1.41e+00	0	46	104	1030750208	60	135226
2026-01-28 10:57:05.89	328.17	9.17	-57.0	-70.6	3.8	1.43e+00	0	46	0	1030750208	60	132567
2026-01-28 10:57:06.89	328.29	9.11	-56.6	-71.2	3.8	1.49e+00	0	46	104	1030750208	60	142798
2026-01-28 10:57:07.89	328.41	9.05	-56.3	-71.5	3.8	1.50e+00	0	46	104	1030750208	60	148034
2026-01-28 10:57:08.90	328.54	8.99	-56.1	-71.8	3.6	1.49e+00	0	46	104	1030750208	60	152823
2026-01-28 10:57:09.90	328.66	8.93	-56.1	-72.0	3.7	1.50e+00	0	46	104	1030750208	60	156340
2026-01-28 10:57:10.91	328.78	8.87	-56.2	-72.2	3.6	1.55e+00	0	46	104	1030750208	60	160072
2026-01-28 10:57:11.91	328.89	8.81	-56.5	-72.5	3.6	1.51e+00	0	46	104	1030750208	60	165413
2026-01-28 10:57:12.92	329.01	8.75	-56.8	-72.7	3.6	1.51e+00	0	46	104	1030750208	60	169828
2026-01-28 10:57:13.93	329.13	8.69	-57.6	-74.0	3.6	1.51e+00	0	46	104	1030750208	60	196761
2026-01-28 10:57:14.94	329.25	8.63	-57.3	-74.2	3.6	1.51e+00	0	46	104	1030750208	60	201585
2026-01-28 10:57:15.95	329.37	8.57	-57.2	-73.7	3.6	1.51e+00	0	46	104	1030750208	60	190054
2026-01-28 10:57:16.96	329.49	8.51	-57.7	-74.3	3.6	1.51e+00	0	46	104	1030750208	60	202999
2026-01-28 10:57:17.96	329.60	8.45	-57.5	-73.1	3.6	1.51e+00	0	46	104	1030750208	60	176791
2026-01-28 10:57:18.97	329.72	8.39	-57.3	-73.1	3.6	1.51e+00	0	46	104	1030750208	60	176711
2026-01-28 10:57:19.98	329.84	8.33	-57.6	-73.3	3.6	1.51e+00	0	46	104	1030750208	60	181517
2026-01-28 10:57:20.99	329.95	8.27	-57.7	-73.4	3.6	1.51e+00	0	47	104	1030750208	60	183835
2026-01-28 10:57:21.99	330.07	8.22	-55.3	-73.7	3.6	1.51e+00	0	46	104	1030750208	60	189152
2026-01-28 10:57:23.00	330.18	8.16	-57.3	-74.1	3.6	1.51e+00	0	46	104	1030750208	60	199595
2026-01-28 10:57:24.01	330.30	8.10	-57.4	-74.0	3.6	1.51e+00	0	46	104	1030750208	60	197077
2026-01-28 10:57:25.01	330.41	8.04	-56.9	-73.8	3.6	1.51e+00	0	46	104	1030750208	60	192447
2026-01-28 10:57:26.01	330.52	7.98	-57.3	-74.4	3.6	1.51e+00	0	46	104	1030750208	60	205369
2026-01-28 10:57:27.02	330.64	7.92	-57.5	-73.9	3.6	1.51e+00	0	46	104	1030750208	60	194030
2026-01-28 10:57:28.03	330.75	7.86	-57.0	-73.7	3.6	1.51e+00	0	46	104	1030750208	60	190047
