passes_logs/2026/01/28/R3.2S-Naryan-Mar/R3.2S-Naryan-Mar__20260128_083002_TY-42_rec.log

#Pass ID: 20260128_083002_TY-42
#Satellite: TY-42
#Configuration: TY-42
#almurnet v.1.7.20240730
#Start time: 2026-01-28 08:30:05

#Version: 2.2.20231116
#Station: R3.2S-Naryan-Mar
#Location: 53.008057 lon 67.646978 lat
#TLE: 1 64048U 25103A   26027.88263889  .00008008  00000-0  38191-3 0 09993
#TLE: 2 64048 097.4119 103.0583 0001740 093.1169 297.5293 15.19162476 38770

#Time	Az	El	Level	Level2	SNR	BER	BlckErr	Temp	State	Recorded	gain1	gain2
2026-01-28 08:30:05.46	20.14	0.16	-60.8	-75.5	3.4	1.51e+00	0	45	0	0	60	227621
2026-01-28 08:30:06.46	20.13	0.23	-58.3	-62.0	3.6	0.00e+00	0	46	104	0	60	148815
2026-01-28 08:30:07.46	20.11	0.29	-58.5	-62.1	3.6	0.00e+00	0	46	104	0	60	150841
2026-01-28 08:30:08.47	20.09	0.36	-58.1	-61.9	3.6	0.00e+00	0	46	104	0	60	146775
2026-01-28 08:30:09.47	20.08	0.42	-57.2	-60.8	3.6	0.00e+00	0	46	104	0	60	129804
2026-01-28 08:30:10.48	20.06	0.49	-55.5	-59.4	3.6	0.00e+00	0	46	104	0	60	110749
2026-01-28 08:30:11.49	20.04	0.55	-55.6	-60.0	3.6	0.00e+00	0	47	104	0	60	117647
2026-01-28 08:30:12.49	20.02	0.62	-55.1	-59.4	3.6	0.00e+00	0	47	104	0	60	110865
2026-01-28 08:30:13.50	20.01	0.68	-54.0	-58.0	3.6	0.00e+00	0	47	104	0	60	94271
2026-01-28 08:30:14.51	19.99	0.75	-54.6	-58.5	3.6	0.00e+00	0	47	104	0	60	99901
2026-01-28 08:30:15.52	19.97	0.81	-52.4	-57.4	3.6	0.00e+00	0	47	104	0	60	87616
2026-01-28 08:30:16.52	19.95	0.88	-52.1	-56.0	3.6	0.00e+00	0	47	104	0	60	74687
2026-01-28 08:30:17.53	19.93	0.95	-54.3	-56.8	3.6	0.00e+00	0	47	104	0	60	82275
2026-01-28 08:30:18.54	19.91	1.01	-55.7	-59.3	3.6	0.00e+00	0	47	104	0	60	109063
2026-01-28 08:30:19.55	19.90	1.08	-49.5	-52.8	3.6	0.00e+00	0	47	104	0	60	51411
2026-01-28 08:30:20.56	19.88	1.15	-49.3	-52.8	3.6	0.00e+00	0	47	104	0	60	51514
2026-01-28 08:30:21.57	19.86	1.21	-49.2	-52.8	3.6	0.00e+00	0	47	104	0	60	51417
2026-01-28 08:30:22.57	19.84	1.28	-49.2	-52.8	3.6	0.00e+00	0	47	104	0	60	51502
2026-01-28 08:30:23.58	19.82	1.35	-49.3	-52.7	3.6	0.00e+00	0	47	104	0	60	51308
2026-01-28 08:30:24.59	19.80	1.41	-49.2	-52.8	3.5	0.00e+00	0	47	104	0	60	51356
2026-01-28 08:30:25.60	19.78	1.48	-49.2	-52.8	3.6	0.00e+00	0	47	104	0	60	51360
2026-01-28 08:30:26.61	19.76	1.55	-49.3	-52.8	3.6	0.00e+00	0	47	104	0	60	51841
2026-01-28 08:30:27.62	19.74	1.62	-49.3	-52.8	3.5	0.00e+00	0	47	104	0	60	51533
2026-01-28 08:30:28.63	19.72	1.69	-49.3	-52.8	3.6	0.00e+00	0	47	104	0	60	51686
2026-01-28 08:30:29.64	19.70	1.76	-49.3	-52.8	3.6	0.00e+00	0	47	104	0	60	51446
2026-01-28 08:30:30.64	19.68	1.83	-49.3	-52.8	3.5	0.00e+00	0	47	104	0	60	51376
2026-01-28 08:30:31.65	19.66	1.89	-49.4	-52.7	3.6	0.00e+00	0	47	104	0	60	51241
2026-01-28 08:30:32.66	19.64	1.96	-49.3	-52.7	3.5	0.00e+00	0	47	104	0	60	51152
2026-01-28 08:30:33.66	19.62	2.03	-49.3	-52.7	3.5	0.00e+00	0	47	104	0	60	51072
2026-01-28 08:30:34.67	19.60	2.10	-49.3	-52.7	3.6	0.00e+00	0	47	104	0	60	50772
2026-01-28 08:30:35.68	19.58	2.17	-49.2	-52.6	3.6	0.00e+00	0	47	104	0	60	50306
2026-01-28 08:30:36.69	19.56	2.24	-49.1	-52.6	3.6	0.00e+00	0	47	104	0	60	50577
2026-01-28 08:30:37.70	19.54	2.31	-49.1	-52.5	3.6	0.00e+00	0	47	104	0	60	50113
2026-01-28 08:30:38.71	19.52	2.38	-49.1	-52.5	3.6	0.00e+00	0	47	104	0	60	50051
2026-01-28 08:30:39.72	19.50	2.46	-49.1	-52.5	3.6	0.00e+00	0	47	104	0	60	49919
2026-01-28 08:30:40.72	19.47	2.53	-49.0	-52.5	3.6	0.00e+00	0	47	104	0	60	49618
2026-01-28 08:30:41.73	19.45	2.60	-49.0	-52.5	3.6	0.00e+00	0	47	104	0	60	49696
2026-01-28 08:30:42.74	19.43	2.67	-48.9	-52.5	3.5	0.00e+00	0	47	104	0	60	49633
2026-01-28 08:30:43.75	19.41	2.74	-49.0	-52.5	3.6	0.00e+00	0	47	104	0	60	49723
2026-01-28 08:30:44.75	19.39	2.81	-48.9	-52.4	3.5	0.00e+00	0	47	104	0	60	49219
2026-01-28 08:30:45.76	19.36	2.89	-48.9	-52.4	3.6	0.00e+00	0	47	104	0	60	49553
2026-01-28 08:30:46.77	19.34	2.96	-49.0	-52.6	3.6	0.00e+00	0	47	104	0	60	50291
2026-01-28 08:30:47.78	19.32	3.03	-49.0	-52.5	3.6	0.00e+00	0	47	104	0	60	50128
2026-01-28 08:30:48.79	19.29	3.10	-49.0	-52.5	3.6	0.00e+00	0	47	104	0	60	49612
2026-01-28 08:30:49.80	19.27	3.18	-49.0	-52.5	3.6	0.00e+00	0	47	104	0	60	49990
2026-01-28 08:30:50.80	19.25	3.25	-49.0	-52.5	3.6	0.00e+00	0	47	104	0	60	49649
2026-01-28 08:30:51.81	19.23	3.32	-48.9	-52.5	3.6	0.00e+00	0	47	104	0	60	49715
2026-01-28 08:30:52.82	19.20	3.40	-49.0	-52.6	3.6	0.00e+00	0	47	104	0	60	50286
2026-01-28 08:30:53.83	19.18	3.47	-48.9	-52.5	3.6	0.00e+00	0	47	104	0	60	50128
2026-01-28 08:30:54.83	19.15	3.55	-49.0	-52.6	3.6	0.00e+00	0	47	104	0	60	50426
2026-01-28 08:30:55.84	19.13	3.62	-49.0	-52.6	3.6	0.00e+00	0	47	104	0	60	50475
2026-01-28 08:30:56.84	19.11	3.70	-49.0	-52.6	3.6	0.00e+00	0	47	104	0	60	50275
2026-01-28 08:30:57.85	19.08	3.77	-49.0	-52.6	3.6	0.00e+00	0	47	104	0	60	50324
2026-01-28 08:30:58.85	19.06	3.85	-49.0	-52.5	3.5	0.00e+00	0	47	104	0	60	49751
2026-01-28 08:30:59.86	19.03	3.92	-48.8	-52.4	3.5	0.00e+00	0	47	104	0	60	49081
2026-01-28 08:31:00.87	19.01	4.00	-48.8	-52.4	3.6	0.00e+00	0	47	104	0	60	49352
2026-01-28 08:31:01.87	18.98	4.08	-48.9	-52.5	3.6	0.00e+00	0	47	104	0	60	49728
2026-01-28 08:31:02.88	18.96	4.15	-48.8	-52.4	3.6	0.00e+00	0	47	104	0	60	49357
2026-01-28 08:31:03.88	18.93	4.23	-48.8	-52.5	3.6	0.00e+00	0	47	104	0	60	49764
2026-01-28 08:31:04.89	18.90	4.31	-48.9	-52.3	3.5	0.00e+00	0	47	104	0	60	48735
2026-01-28 08:31:05.90	18.88	4.38	-48.9	-52.3	3.6	0.00e+00	0	47	104	0	60	48979
2026-01-28 08:31:06.90	18.85	4.46	-48.9	-52.4	3.5	0.00e+00	0	47	104	0	60	49233
2026-01-28 08:31:07.91	18.83	4.54	-48.9	-52.3	3.6	0.00e+00	0	47	104	0	60	49034
2026-01-28 08:31:08.91	18.80	4.62	-48.9	-52.3	3.6	0.00e+00	0	47	104	0	60	48963
2026-01-28 08:31:09.92	18.77	4.70	-49.0	-52.4	3.5	0.00e+00	0	47	104	0	60	49152
2026-01-28 08:31:10.93	18.74	4.78	-49.0	-52.4	3.6	0.00e+00	0	47	104	0	60	49244
2026-01-28 08:31:11.94	18.72	4.86	-49.0	-52.3	3.6	0.00e+00	0	47	104	0	60	48624
2026-01-28 08:31:12.94	18.69	4.93	-49.0	-52.3	3.5	0.00e+00	0	47	104	0	60	48576
2026-01-28 08:31:13.95	18.66	5.01	-48.8	-52.3	3.6	0.00e+00	0	47	104	0	60	48676
2026-01-28 08:31:14.96	18.63	5.09	-48.9	-52.2	3.6	0.00e+00	0	47	104	0	60	48288
2026-01-28 08:31:15.97	18.61	5.18	-48.9	-52.2	3.6	0.00e+00	0	47	104	0	60	48349
2026-01-28 08:31:16.98	18.58	5.26	-48.9	-52.3	3.5	0.00e+00	0	47	104	0	60	48933
2026-01-28 08:31:17.98	18.55	5.34	-48.9	-52.3	3.6	0.00e+00	0	47	104	0	60	48892
2026-01-28 08:31:18.99	18.52	5.42	-48.9	-52.3	3.6	0.00e+00	0	47	104	0	60	48851
2026-01-28 08:31:20.00	18.49	5.50	-48.8	-52.3	3.5	0.00e+00	0	47	104	0	60	48865
2026-01-28 08:31:21.01	18.46	5.58	-48.8	-52.4	3.6	0.00e+00	0	48	104	0	60	49201
2026-01-28 08:31:22.02	18.43	5.67	-48.8	-52.4	3.6	0.00e+00	0	47	104	0	60	49255
2026-01-28 08:31:23.03	18.40	5.75	-48.8	-52.4	3.6	0.00e+00	0	48	104	0	60	49098
2026-01-28 08:31:24.04	18.37	5.83	-48.8	-52.3	3.6	0.00e+00	0	48	104	0	60	48719
2026-01-28 08:31:25.04	18.34	5.92	-48.8	-52.3	3.6	0.00e+00	0	48	104	0	60	48903
2026-01-28 08:31:26.05	18.31	6.00	-48.8	-52.3	3.5	0.00e+00	0	48	104	0	60	48919
2026-01-28 08:31:27.06	18.28	6.08	-48.8	-52.2	3.5	0.00e+00	0	48	104	0	60	48317
2026-01-28 08:31:28.06	18.25	6.17	-50.1	-55.9	3.6	0.00e+00	0	48	104	0	60	73393
2026-01-28 08:31:29.07	18.22	6.25	-51.4	-54.9	3.5	0.00e+00	0	48	104	0	60	65755
2026-01-28 08:31:30.07	18.19	6.34	-49.0	-53.0	3.6	0.00e+00	0	48	104	0	60	53106
2026-01-28 08:31:31.08	18.15	6.42	-45.5	-50.5	3.6	0.00e+00	0	48	104	0	60	39723
2026-01-28 08:31:32.09	18.12	6.51	-48.8	-54.3	3.6	0.00e+00	0	48	104	0	60	61200
2026-01-28 08:31:33.08	18.09	6.59	-45.5	-50.8	3.6	0.00e+00	0	48	104	0	60	40935
2026-01-28 08:31:34.09	18.06	6.68	-45.6	-50.7	3.6	0.00e+00	0	48	104	0	60	40447
2026-01-28 08:31:35.10	18.02	6.77	-45.9	-50.9	3.6	0.00e+00	0	48	104	0	60	41372
2026-01-28 08:31:36.10	17.99	6.86	-48.4	-53.0	3.5	0.00e+00	0	48	104	0	60	52826
2026-01-28 08:31:37.11	17.96	6.94	-50.2	-53.1	3.6	0.00e+00	0	48	104	0	60	53564
2026-01-28 08:31:38.11	17.92	7.03	-49.8	-54.4	3.6	0.00e+00	0	48	104	0	60	61872
2026-01-28 08:31:39.11	17.89	7.12	-50.0	-56.6	3.6	0.00e+00	0	48	104	0	60	79748
2026-01-28 08:31:40.12	17.86	7.21	-50.9	-53.1	3.5	0.00e+00	0	48	104	0	60	53688
2026-01-28 08:31:41.13	17.82	7.30	-50.9	-53.0	3.6	0.00e+00	0	48	104	0	60	52819
2026-01-28 08:31:42.14	17.79	7.39	-50.5	-53.1	3.6	0.00e+00	0	48	104	0	60	53517
2026-01-28 08:31:43.14	17.75	7.48	-50.4	-53.0	3.6	0.00e+00	0	48	104	0	60	53044
2026-01-28 08:31:44.15	17.72	7.57	-49.1	-54.0	3.6	0.00e+00	0	48	104	0	60	59478
2026-01-28 08:31:45.16	17.68	7.66	-53.9	-58.0	3.6	0.00e+00	0	48	104	0	60	94179
2026-01-28 08:31:46.16	17.64	7.75	-52.3	-56.9	3.6	0.00e+00	0	48	104	0	60	82405
2026-01-28 08:31:47.17	17.61	7.85	-51.7	-55.0	3.6	0.00e+00	0	48	104	0	60	66674
2026-01-28 08:31:48.18	17.57	7.94	-51.2	-54.2	3.6	0.00e+00	0	48	104	0	60	60545
2026-01-28 08:31:49.18	17.53	8.03	-51.7	-54.6	3.6	0.00e+00	0	48	104	0	60	63432
2026-01-28 08:31:50.18	17.50	8.12	-52.6	-55.5	3.5	0.00e+00	0	48	104	0	60	70543
2026-01-28 08:31:51.19	17.46	8.22	-53.2	-56.3	3.5	0.00e+00	0	48	104	0	60	77571
2026-01-28 08:31:52.19	17.42	8.31	-51.5	-55.0	3.6	0.00e+00	0	48	104	0	60	66763
2026-01-28 08:31:53.20	17.38	8.41	-51.4	-54.9	3.6	0.00e+00	0	48	104	0	60	65746
2026-01-28 08:31:54.21	17.34	8.50	-51.4	-56.5	3.6	0.00e+00	0	48	104	0	60	78929
2026-01-28 08:31:55.21	17.30	8.60	-51.3	-55.5	3.6	0.00e+00	0	48	104	0	60	70761
2026-01-28 08:31:56.22	17.26	8.69	-50.8	-53.3	3.5	0.00e+00	0	48	104	0	60	55007
2026-01-28 08:31:57.23	17.22	8.79	-50.8	-53.5	3.6	0.00e+00	0	48	104	0	60	56096
2026-01-28 08:31:58.23	17.18	8.89	-50.5	-53.5	3.6	0.00e+00	0	48	104	0	60	55866
2026-01-28 08:31:59.24	17.14	8.98	-50.5	-53.5	3.6	0.00e+00	0	48	104	0	60	55989
2026-01-28 08:32:00.25	17.10	9.08	-52.9	-56.3	3.6	0.00e+00	0	48	104	0	60	76923
2026-01-28 08:32:01.26	17.06	9.18	-49.9	-55.0	3.6	0.00e+00	0	48	104	0	60	66392
2026-01-28 08:32:02.26	17.02	9.28	-52.0	-54.1	3.6	0.00e+00	0	48	104	0	60	59801
2026-01-28 08:32:03.27	16.98	9.38	-51.6	-54.8	3.6	0.00e+00	0	48	104	0	60	65281
2026-01-28 08:32:04.27	16.93	9.48	-50.3	-55.5	3.6	0.00e+00	0	48	104	0	60	70208
2026-01-28 08:32:05.28	16.89	9.58	-52.0	-54.1	3.6	0.00e+00	0	48	104	0	60	59774
2026-01-28 08:32:06.28	16.85	9.68	-51.4	-53.7	3.6	0.00e+00	0	48	104	0	60	57382
2026-01-28 08:32:07.28	16.81	9.78	-50.9	-53.6	3.6	0.00e+00	0	48	104	0	60	56464
2026-01-28 08:32:08.29	16.76	9.88	-54.1	-57.4	3.6	0.00e+00	0	48	104	0	60	87232
2026-01-28 08:32:09.29	16.72	9.98	-51.4	-56.3	3.6	0.00e+00	0	48	104	0	60	76903
2026-01-28 08:32:10.29	16.67	10.09	-51.4	-54.3	3.6	0.00e+00	0	48	104	0	60	61255
2026-01-28 08:32:11.30	16.63	10.19	-54.9	-58.6	3.6	0.00e+00	0	48	104	0	60	100773
2026-01-28 08:32:12.31	16.58	10.30	-51.9	-54.0	3.6	0.00e+00	0	48	104	0	60	59374
2026-01-28 08:32:13.31	16.53	10.40	-50.8	-53.5	3.5	0.00e+00	0	48	104	0	60	56138
2026-01-28 08:32:14.32	16.49	10.51	-50.5	-53.6	3.6	0.00e+00	0	48	104	0	60	56311
2026-01-28 08:32:15.33	16.44	10.61	-50.6	-53.6	3.6	0.00e+00	0	48	104	0	60	56399
2026-01-28 08:32:16.34	16.39	10.72	-51.3	-54.2	3.5	0.00e+00	0	48	104	0	60	60776
2026-01-28 08:32:17.35	16.34	10.83	-53.9	-57.2	3.6	0.00e+00	0	48	104	0	60	85993
2026-01-28 08:32:18.35	16.30	10.93	-49.8	-54.8	3.6	0.00e+00	0	48	104	0	60	64884
2026-01-28 08:32:19.35	16.25	11.04	-51.9	-56.3	3.6	0.00e+00	0	48	104	0	60	77717
2026-01-28 08:32:20.36	16.20	11.15	-51.7	-54.7	3.6	0.00e+00	0	48	104	0	60	64426
2026-01-28 08:32:21.37	16.15	11.26	-52.3	-55.6	3.6	0.00e+00	0	48	104	0	60	71151
2026-01-28 08:32:22.38	16.10	11.37	-52.4	-55.7	3.6	0.00e+00	0	48	104	0	60	72011
2026-01-28 08:32:23.38	16.05	11.48	-53.8	-56.9	3.6	0.00e+00	0	48	104	0	60	83200
2026-01-28 08:32:24.39	16.00	11.59	-52.9	-57.9	3.6	0.00e+00	0	48	104	0	60	93184
2026-01-28 08:32:25.39	15.94	11.71	-54.0	-57.9	3.6	0.00e+00	0	48	104	0	60	92682
2026-01-28 08:32:26.40	15.89	11.82	-52.5	-57.8	3.6	0.00e+00	0	48	104	0	60	91957
2026-01-28 08:32:27.40	15.84	11.93	-54.7	-58.8	3.6	0.00e+00	0	48	104	0	60	102545
2026-01-28 08:32:28.41	15.78	12.05	-52.4	-56.9	3.6	0.00e+00	0	48	104	0	60	83258
2026-01-28 08:32:29.42	15.73	12.16	-53.2	-57.5	3.6	0.00e+00	0	48	104	0	60	88335
2026-01-28 08:32:30.42	15.68	12.28	-53.5	-57.6	3.6	0.00e+00	0	48	104	0	60	89863
2026-01-28 08:32:31.42	15.62	12.39	-53.4	-57.6	3.6	0.00e+00	0	48	104	0	60	89639
2026-01-28 08:32:32.43	15.57	12.51	-54.5	-59.0	3.6	0.00e+00	0	48	104	0	60	105531
2026-01-28 08:32:33.43	15.51	12.63	-55.1	-58.8	3.6	0.00e+00	0	48	104	0	60	102860
2026-01-28 08:32:34.44	15.45	12.75	-53.6	-57.7	3.6	0.00e+00	0	48	104	0	60	91186
2026-01-28 08:32:35.45	15.40	12.86	-54.7	-58.6	3.6	0.00e+00	0	48	104	0	60	100379
2026-01-28 08:32:36.46	15.34	12.99	-52.4	-57.7	3.6	0.00e+00	0	48	104	0	60	90860
2026-01-28 08:32:37.47	15.28	13.11	-52.7	-57.8	3.6	0.00e+00	0	48	104	0	60	91818
2026-01-28 08:32:38.47	15.22	13.23	-53.7	-58.2	3.6	0.00e+00	0	48	104	0	60	95972
2026-01-28 08:32:39.48	15.16	13.35	-54.8	-58.6	3.6	0.00e+00	0	48	104	0	60	100315
2026-01-28 08:32:40.49	15.10	13.47	-55.8	-59.6	3.6	0.00e+00	0	48	104	0	60	113222
2026-01-28 08:32:41.49	15.04	13.60	-54.1	-57.6	3.6	0.00e+00	0	48	104	0	60	89243
2026-01-28 08:32:42.50	14.98	13.72	-56.1	-59.8	3.6	0.00e+00	0	48	104	0	60	116058
2026-01-28 08:32:43.51	14.91	13.85	-54.2	-57.0	3.6	0.00e+00	0	48	104	0	60	84045
2026-01-28 08:32:44.51	14.85	13.97	-53.6	-57.4	3.6	0.00e+00	0	48	104	0	60	87337
2026-01-28 08:32:45.52	14.79	14.10	-53.6	-56.2	3.6	0.00e+00	0	48	104	0	60	76629
2026-01-28 08:32:46.53	14.72	14.23	-53.7	-56.2	3.6	0.00e+00	0	48	104	0	60	76690
2026-01-28 08:32:47.53	14.66	14.36	-53.5	-55.8	3.6	0.00e+00	0	48	104	0	60	73230
2026-01-28 08:32:48.54	14.59	14.49	-52.9	-55.2	3.6	0.00e+00	0	48	104	0	60	68200
2026-01-28 08:32:49.55	14.52	14.62	-55.5	-58.7	3.6	0.00e+00	0	48	104	0	60	102175
2026-01-28 08:32:50.56	14.46	14.75	-53.2	-56.3	3.6	0.00e+00	0	48	104	0	60	77555
2026-01-28 08:32:51.56	14.39	14.88	-53.3	-57.0	3.6	0.00e+00	0	48	104	0	60	83317
2026-01-28 08:32:52.57	14.32	15.01	-53.2	-55.9	3.6	0.00e+00	0	48	104	0	60	73618
2026-01-28 08:32:53.58	14.25	15.15	-53.3	-55.8	3.6	0.00e+00	0	48	104	0	60	73079
2026-01-28 08:32:54.59	14.18	15.28	-53.3	-55.8	3.6	0.00e+00	0	48	104	0	60	72716
2026-01-28 08:32:55.59	14.11	15.42	-53.3	-56.7	3.6	0.00e+00	0	48	104	0	60	80780
2026-01-28 08:32:56.60	14.03	15.55	-54.5	-57.2	3.6	0.00e+00	0	48	104	0	60	85632
2026-01-28 08:32:57.60	13.96	15.69	-53.6	-57.1	3.6	0.00e+00	0	48	104	0	60	85144
2026-01-28 08:32:58.61	13.89	15.83	-54.3	-57.4	3.6	0.00e+00	0	48	104	0	60	88127
2026-01-28 08:32:59.61	13.81	15.97	-53.5	-57.1	3.6	0.00e+00	0	48	104	0	60	84437
2026-01-28 08:33:00.61	13.74	16.11	-55.3	-58.7	3.6	0.00e+00	0	48	104	0	60	101482
2026-01-28 08:33:01.62	13.66	16.25	-54.0	-57.4	3.6	0.00e+00	0	48	104	0	60	88033
2026-01-28 08:33:02.63	13.58	16.39	-54.2	-57.6	3.6	0.00e+00	0	48	104	0	60	90036
2026-01-28 08:33:03.64	13.51	16.54	-55.1	-58.1	3.6	0.00e+00	0	48	104	0	60	94925
2026-01-28 08:33:04.64	13.43	16.68	-53.7	-56.6	3.6	0.00e+00	0	48	104	0	60	80352
2026-01-28 08:33:05.65	13.35	16.83	-54.0	-56.9	3.6	0.00e+00	0	48	104	0	60	83198
2026-01-28 08:33:06.66	13.27	16.97	-54.6	-57.5	3.6	0.00e+00	0	48	104	0	60	88422
2026-01-28 08:33:07.66	13.18	17.12	-53.4	-56.1	3.6	0.00e+00	0	48	104	0	60	75538
2026-01-28 08:33:08.67	13.10	17.27	-54.1	-57.2	3.6	0.00e+00	0	48	104	0	60	85496
2026-01-28 08:33:09.67	13.02	17.42	-53.9	-56.7	3.6	0.00e+00	0	48	104	0	60	81042
2026-01-28 08:33:10.68	12.93	17.57	-54.2	-56.9	3.6	0.00e+00	0	48	104	0	60	82969
2026-01-28 08:33:11.69	12.85	17.72	-54.5	-57.5	3.6	0.00e+00	0	48	104	0	60	88536
2026-01-28 08:33:12.69	12.76	17.88	-54.6	-57.7	3.6	0.00e+00	0	48	104	0	60	90745
2026-01-28 08:33:13.69	12.67	18.03	-53.8	-56.5	3.6	0.00e+00	0	48	104	0	60	78952
2026-01-28 08:33:14.69	12.58	18.19	-54.7	-57.6	3.6	0.00e+00	0	48	104	0	60	90218
2026-01-28 08:33:15.70	12.49	18.34	-53.8	-56.5	3.6	0.00e+00	0	48	104	0	60	78951
2026-01-28 08:33:16.71	12.40	18.50	-53.5	-55.9	3.6	0.00e+00	0	48	104	0	60	73928
2026-01-28 08:33:17.72	12.31	18.66	-53.5	-55.9	3.6	0.00e+00	0	48	104	0	60	74081
2026-01-28 08:33:18.72	12.22	18.82	-53.4	-55.9	3.6	0.00e+00	0	48	104	0	60	73585
2026-01-28 08:33:19.73	12.12	18.98	-54.8	-57.7	3.6	0.00e+00	0	48	104	0	60	91268
2026-01-28 08:33:20.74	12.02	19.15	-55.8	-58.9	3.6	0.00e+00	0	48	104	0	60	103773
2026-01-28 08:33:21.75	11.93	19.31	-54.7	-57.6	3.6	0.00e+00	0	48	104	0	60	89344
2026-01-28 08:33:22.75	11.83	19.48	-54.3	-57.3	3.6	0.00e+00	0	48	104	0	60	86548
2026-01-28 08:33:23.76	11.73	19.65	-54.6	-57.6	3.6	0.00e+00	0	48	104	0	60	89357
2026-01-28 08:33:24.77	11.63	19.81	-54.8	-57.6	3.6	0.00e+00	0	48	104	0	60	89327
2026-01-28 08:33:25.77	11.52	19.98	-54.9	-57.9	3.6	0.00e+00	0	48	104	0	60	92542
2026-01-28 08:33:26.78	11.42	20.15	-55.3	-58.1	3.6	0.00e+00	0	48	104	0	60	95110
2026-01-28 08:33:27.78	11.31	20.33	-55.6	-58.7	3.6	0.00e+00	0	48	104	0	60	102444
2026-01-28 08:33:28.79	11.21	20.50	-53.4	-57.4	3.6	0.00e+00	0	48	104	0	60	87524
2026-01-28 08:33:29.78	11.10	20.67	-55.1	-58.4	3.6	0.00e+00	0	48	104	0	60	98365
2026-01-28 08:33:30.79	10.99	20.85	-53.5	-57.4	3.6	0.00e+00	0	48	104	0	60	87782
2026-01-28 08:33:31.79	10.88	21.03	-53.8	-57.6	3.6	0.00e+00	0	48	104	0	60	89326
2026-01-28 08:33:32.79	10.77	21.21	-54.2	-57.8	3.6	0.00e+00	0	48	104	0	60	91398
2026-01-28 08:33:33.79	10.65	21.39	-54.0	-57.5	3.6	0.00e+00	0	48	104	0	60	89002
2026-01-28 08:33:34.79	10.54	21.57	-54.5	-57.7	3.6	0.00e+00	0	48	104	0	60	90414
2026-01-28 08:33:35.80	10.42	21.75	-54.9	-58.3	3.6	0.00e+00	0	48	104	0	60	97224
2026-01-28 08:33:36.81	10.30	21.94	-54.7	-57.8	3.5	0.00e+00	0	48	104	0	60	91978
2026-01-28 08:33:37.82	10.18	22.13	-54.9	-57.9	3.6	0.00e+00	0	48	104	0	60	93047
2026-01-28 08:33:38.82	10.06	22.31	-54.9	-58.2	3.6	0.00e+00	0	48	104	0	60	96593
2026-01-28 08:33:39.82	9.94	22.50	-54.9	-57.8	3.6	0.00e+00	0	48	104	0	60	91957
2026-01-28 08:33:40.82	9.81	22.69	-53.7	-57.4	3.6	0.00e+00	0	48	104	0	60	87508
2026-01-28 08:33:41.82	9.68	22.89	-54.7	-57.7	3.6	0.00e+00	0	48	104	0	60	90368
2026-01-28 08:33:42.82	9.56	23.08	-55.0	-57.8	3.6	0.00e+00	0	48	104	0	60	91953
2026-01-28 08:33:43.82	9.43	23.28	-55.1	-58.6	3.6	0.00e+00	0	48	104	0	60	101136
2026-01-28 08:33:44.83	9.29	23.48	-55.8	-59.2	3.6	0.00e+00	0	48	104	0	60	108091
2026-01-28 08:33:45.83	9.16	23.68	-55.1	-59.2	3.6	0.00e+00	0	48	104	0	60	107819
2026-01-28 08:33:46.83	9.02	23.88	-55.7	-58.8	3.6	0.00e+00	0	48	104	0	60	103337
2026-01-28 08:33:47.83	8.88	24.08	-55.3	-59.3	3.6	0.00e+00	0	48	104	0	60	108647
2026-01-28 08:33:48.83	8.74	24.28	-56.1	-59.3	3.6	0.00e+00	0	48	104	0	60	109277
2026-01-28 08:33:49.82	8.60	24.49	-55.0	-58.2	3.6	0.00e+00	0	48	104	0	60	96145
2026-01-28 08:33:50.83	8.45	24.70	-55.3	-58.3	3.6	0.00e+00	0	48	104	0	60	96841
2026-01-28 08:33:51.84	8.31	24.91	-55.6	-58.5	3.5	0.00e+00	0	48	104	0	60	100123
2026-01-28 08:33:52.85	8.15	25.12	-55.7	-58.6	3.6	0.00e+00	0	48	104	0	60	100918
2026-01-28 08:33:53.85	8.00	25.34	-55.3	-58.2	3.6	0.00e+00	0	48	104	0	60	96267
2026-01-28 08:33:54.85	7.85	25.55	-55.5	-58.9	3.6	0.00e+00	0	48	104	0	60	103735
2026-01-28 08:33:55.85	7.69	25.77	-55.0	-58.0	3.6	0.00e+00	0	48	104	0	60	94399
2026-01-28 08:33:56.86	7.53	25.99	-54.8	-57.9	3.6	0.00e+00	0	48	104	0	60	92765
2026-01-28 08:33:57.85	7.37	26.21	-55.2	-58.3	3.6	0.00e+00	0	48	104	0	60	97366
2026-01-28 08:33:58.86	7.21	26.44	-55.5	-58.5	3.6	0.00e+00	0	48	104	0	60	99657
2026-01-28 08:33:59.86	7.04	26.66	-55.9	-59.2	3.6	0.00e+00	0	48	104	0	60	108476
2026-01-28 08:34:00.86	6.87	26.89	-55.9	-59.1	3.5	0.00e+00	0	48	104	0	60	106703
2026-01-28 08:34:01.86	6.70	27.12	-55.8	-58.8	3.6	0.00e+00	0	48	104	0	60	103351
2026-01-28 08:34:02.86	6.52	27.35	-55.8	-59.3	3.6	0.00e+00	0	48	104	0	60	109396
2026-01-28 08:34:03.87	6.35	27.59	-55.9	-59.0	3.6	0.00e+00	0	48	104	0	60	105636
2026-01-28 08:34:04.87	6.16	27.82	-55.6	-58.7	3.6	0.00e+00	0	48	104	0	60	101383
2026-01-28 08:34:05.88	5.98	28.06	-55.9	-59.1	3.6	0.00e+00	0	48	104	0	60	106220
2026-01-28 08:34:06.88	5.79	28.30	-55.2	-57.9	3.6	0.00e+00	0	48	104	0	60	93053
2026-01-28 08:34:07.88	5.60	28.55	-54.9	-57.7	3.6	0.00e+00	0	48	104	0	60	90335
2026-01-28 08:34:08.88	5.41	28.79	-54.8	-57.5	3.6	0.00e+00	0	48	104	0	60	89171
2026-01-28 08:34:09.89	5.21	29.04	-55.0	-57.8	3.6	0.00e+00	0	48	104	0	60	91414
2026-01-28 08:34:10.89	5.01	29.29	-55.2	-58.1	3.6	0.00e+00	0	48	104	0	60	95128
2026-01-28 08:34:11.89	4.81	29.54	-55.3	-58.5	3.6	0.00e+00	0	48	104	0	60	99841
2026-01-28 08:34:12.89	4.60	29.79	-54.8	-57.6	3.6	0.00e+00	0	48	104	0	60	89646
2026-01-28 08:34:13.90	4.39	30.05	-55.6	-58.6	3.6	0.00e+00	0	48	104	0	60	100443
2026-01-28 08:34:14.90	4.18	30.31	-55.7	-58.7	3.6	0.00e+00	0	48	104	0	60	101657
2026-01-28 08:34:15.90	3.96	30.57	-55.6	-58.7	3.6	0.00e+00	0	48	104	0	60	101411
2026-01-28 08:34:16.91	3.73	30.84	-55.6	-58.6	3.6	0.00e+00	0	48	104	0	60	100800
2026-01-28 08:34:17.91	3.51	31.10	-55.5	-58.6	3.6	0.00e+00	0	48	104	0	60	100287
2026-01-28 08:34:18.92	3.27	31.37	-55.2	-58.5	3.6	0.00e+00	0	48	104	0	60	99683
2026-01-28 08:34:19.93	3.04	31.64	-54.2	-57.7	3.6	0.00e+00	0	48	104	0	60	91069
2026-01-28 08:34:20.93	2.80	31.92	-54.6	-57.8	3.6	0.00e+00	0	48	104	0	60	92092
2026-01-28 08:34:21.94	2.55	32.19	-54.5	-58.5	3.6	0.00e+00	0	48	104	0	60	99458
2026-01-28 08:34:22.95	2.30	32.47	-55.5	-58.4	3.6	0.00e+00	0	48	104	0	60	98372
2026-01-28 08:34:23.95	2.05	32.75	-54.5	-57.8	3.6	0.00e+00	0	48	104	0	60	92315
2026-01-28 08:34:24.96	1.79	33.04	-54.4	-57.7	3.6	0.00e+00	0	48	104	0	60	90671
2026-01-28 08:34:25.97	1.53	33.33	-54.7	-57.8	3.6	0.00e+00	0	48	104	0	60	92034
2026-01-28 08:34:26.97	1.26	33.61	-55.1	-58.0	3.6	0.00e+00	0	48	104	0	60	94297
2026-01-28 08:34:27.98	0.98	33.91	-56.1	-59.3	3.6	0.00e+00	0	48	104	0	60	109121
2026-01-28 08:34:28.99	0.70	34.20	-56.2	-59.8	3.6	0.00e+00	0	48	104	0	60	115357
2026-01-28 08:34:29.99	0.42	34.50	-55.8	-58.9	3.6	0.00e+00	0	48	104	0	60	103981
2026-01-28 08:34:31.00	0.13	34.80	-55.7	-58.8	3.6	0.00e+00	0	48	104	0	60	102723
2026-01-28 08:34:32.00	359.83	35.10	-55.9	-59.0	3.6	0.00e+00	0	48	104	0	60	105576
2026-01-28 08:34:33.01	359.53	35.40	-55.6	-58.5	3.6	0.00e+00	0	48	104	0	60	99001
2026-01-28 08:34:34.02	359.22	35.71	-55.8	-58.9	3.5	0.00e+00	0	48	104	0	60	104525
2026-01-28 08:34:35.02	358.91	36.02	-56.0	-59.1	3.6	0.00e+00	0	48	104	0	60	106917
2026-01-28 08:34:36.02	358.59	36.33	-56.5	-59.9	3.6	0.00e+00	0	48	104	0	60	117391
2026-01-28 08:34:37.03	358.26	36.64	-56.5	-59.9	3.5	0.00e+00	0	48	104	0	60	117064
2026-01-28 08:34:38.04	357.92	36.96	-56.4	-59.7	3.6	0.00e+00	0	48	104	0	60	114913
2026-01-28 08:34:39.05	357.58	37.28	-56.4	-59.9	3.6	0.00e+00	0	48	104	0	60	116941
2026-01-28 08:34:40.04	357.24	37.59	-56.5	-59.9	3.6	0.00e+00	0	48	104	0	60	116885
2026-01-28 08:34:41.05	356.88	37.92	-56.4	-59.9	3.6	0.00e+00	0	48	104	0	60	117057
2026-01-28 08:34:42.06	356.51	38.25	-56.4	-59.9	3.6	0.00e+00	0	48	104	0	60	116775
2026-01-28 08:34:43.07	356.14	38.58	-56.4	-59.7	3.6	0.00e+00	0	48	104	0	60	114894
2026-01-28 08:34:44.07	355.76	38.90	-56.3	-59.8	3.6	0.00e+00	0	48	104	0	60	115401
2026-01-28 08:34:45.07	355.38	39.24	-56.3	-59.7	3.6	0.00e+00	0	48	104	0	60	114698
2026-01-28 08:34:46.08	354.98	39.57	-56.5	-60.0	3.6	0.00e+00	0	48	104	0	60	117868
2026-01-28 08:34:47.08	354.58	39.91	-56.5	-60.0	3.6	0.00e+00	0	48	104	0	60	118648
2026-01-28 08:34:48.08	354.16	40.24	-56.4	-59.9	3.6	0.00e+00	0	48	104	0	60	116393
2026-01-28 08:34:49.09	353.74	40.59	-56.5	-60.1	3.6	0.00e+00	0	48	104	0	60	119784
2026-01-28 08:34:50.09	353.31	40.93	-56.6	-60.1	3.6	0.00e+00	0	48	104	0	60	119277
2026-01-28 08:34:51.10	352.86	41.27	-56.5	-59.9	3.6	0.00e+00	0	48	104	0	60	117145
2026-01-28 08:34:52.10	352.41	41.62	-56.4	-59.9	3.6	0.00e+00	0	48	104	0	60	117015
2026-01-28 08:34:53.10	351.95	41.97	-56.5	-59.9	3.6	0.00e+00	0	48	104	0	60	116453
2026-01-28 08:34:54.11	351.48	42.32	-56.6	-60.1	3.6	0.00e+00	0	48	104	0	60	119810
2026-01-28 08:34:55.12	350.99	42.67	-56.8	-60.4	3.6	0.00e+00	0	48	104	0	60	124406
2026-01-28 08:34:56.12	350.50	43.02	-56.4	-59.9	3.6	0.00e+00	0	48	104	0	60	117112
2026-01-28 08:34:57.13	349.99	43.38	-56.7	-60.3	3.6	0.00e+00	0	48	104	0	60	122884
2026-01-28 08:34:58.14	349.46	43.74	-56.9	-60.6	3.6	0.00e+00	0	48	104	0	60	127152
2026-01-28 08:34:59.15	348.93	44.09	-56.7	-60.5	3.6	0.00e+00	0	48	104	0	60	125600
2026-01-28 08:35:00.15	348.39	44.45	-56.8	-60.5	3.5	0.00e+00	0	48	104	0	60	125451
2026-01-28 08:35:01.16	347.83	44.81	-56.6	-60.3	3.6	0.00e+00	0	48	104	0	60	122627
2026-01-28 08:35:02.17	347.26	45.17	-56.8	-60.7	3.6	0.00e+00	0	48	104	0	60	127852
2026-01-28 08:35:03.17	346.67	45.53	-56.9	-60.7	3.6	0.00e+00	0	48	104	0	60	127569
2026-01-28 08:35:04.18	346.07	45.89	-56.7	-60.4	3.6	0.00e+00	0	48	104	0	60	124176
2026-01-28 08:35:05.19	345.46	46.25	-57.0	-60.8	3.6	0.00e+00	0	48	104	0	60	130280
2026-01-28 08:35:06.19	344.83	46.61	-56.7	-60.3	3.6	0.00e+00	0	48	104	0	60	122286
2026-01-28 08:35:07.20	344.19	46.97	-57.0	-60.8	3.6	0.00e+00	0	49	104	0	60	129777
2026-01-28 08:35:08.20	343.53	47.33	-57.0	-60.6	3.6	0.00e+00	0	48	104	0	60	126784
2026-01-28 08:35:09.21	342.86	47.69	-57.0	-60.8	3.6	0.00e+00	0	48	104	0	60	129743
2026-01-28 08:35:10.21	342.17	48.05	-56.9	-60.6	3.6	0.00e+00	0	48	104	0	60	127484
2026-01-28 08:35:11.22	341.46	48.40	-56.8	-60.5	3.6	0.00e+00	0	48	104	0	60	124690
2026-01-28 08:35:12.22	340.74	48.76	-56.8	-60.6	3.6	0.00e+00	0	48	104	0	60	126438
2026-01-28 08:35:13.22	340.00	49.11	-57.0	-60.6	3.6	0.00e+00	0	48	104	0	60	127185
2026-01-28 08:35:14.22	339.25	49.46	-57.1	-60.8	3.6	0.00e+00	0	48	104	0	60	130276
2026-01-28 08:35:15.23	338.47	49.81	-57.0	-60.7	3.6	0.00e+00	0	48	104	0	60	128178
2026-01-28 08:35:16.24	337.67	50.15	-57.1	-60.9	3.6	0.00e+00	0	48	104	0	60	131704
2026-01-28 08:35:17.24	336.86	50.50	-57.0	-60.7	3.6	0.00e+00	0	48	104	0	60	127896
2026-01-28 08:35:18.25	336.02	50.84	-57.1	-60.8	3.6	0.00e+00	0	48	104	0	60	129444
2026-01-28 08:35:19.26	335.16	51.17	-57.1	-60.8	3.6	0.00e+00	0	48	104	0	60	129367
2026-01-28 08:35:20.26	334.30	51.50	-57.1	-60.7	3.6	0.00e+00	0	48	104	0	60	128938
2026-01-28 08:35:21.27	333.40	51.83	-57.0	-60.7	3.6	0.00e+00	0	48	104	0	60	128254
2026-01-28 08:35:22.27	332.49	52.15	-57.0	-60.7	3.6	0.00e+00	0	48	104	0	60	127587
2026-01-28 08:35:23.28	331.55	52.47	-57.1	-60.7	3.6	0.00e+00	0	48	104	0	60	128228
2026-01-28 08:35:24.28	330.60	52.78	-56.9	-60.6	3.6	0.00e+00	0	48	104	0	60	126556
2026-01-28 08:35:25.29	329.62	53.09	-57.1	-60.7	3.5	0.00e+00	0	48	104	0	60	127519
2026-01-28 08:35:26.30	328.62	53.39	-57.1	-60.7	3.6	0.00e+00	0	48	104	0	60	128165
2026-01-28 08:35:27.30	327.61	53.68	-56.8	-60.6	3.6	0.00e+00	0	48	104	0	60	126076
2026-01-28 08:35:28.30	326.58	53.96	-57.1	-60.6	3.6	0.00e+00	0	48	104	0	60	127119
2026-01-28 08:35:29.31	325.52	54.24	-56.6	-60.5	3.6	0.00e+00	0	48	104	0	60	124909
2026-01-28 08:35:30.32	324.43	54.51	-56.7	-60.5	3.6	0.00e+00	0	48	104	0	60	125285
2026-01-28 08:35:31.33	323.33	54.77	-56.4	-60.5	3.6	0.00e+00	0	48	104	0	60	125308
2026-01-28 08:35:32.34	322.20	55.02	-56.5	-60.5	3.6	0.00e+00	0	48	104	0	60	125444
2026-01-28 08:35:33.34	321.06	55.26	-56.6	-60.5	3.6	0.00e+00	0	49	104	0	60	125345
2026-01-28 08:35:34.35	319.90	55.50	-56.5	-60.3	3.6	0.00e+00	0	48	104	0	60	121989
2026-01-28 08:35:35.35	318.73	55.72	-56.6	-60.0	3.6	0.00e+00	0	49	104	0	60	118481
2026-01-28 08:35:36.36	317.52	55.93	-56.5	-60.1	3.6	0.00e+00	0	48	104	0	60	119712
2026-01-28 08:35:37.36	316.31	56.12	-56.6	-60.2	3.6	0.00e+00	0	48	104	0	60	120652
2026-01-28 08:35:38.37	315.07	56.31	-56.3	-59.8	3.6	0.00e+00	0	48	104	0	60	116168
2026-01-28 08:35:39.37	313.83	56.48	-56.1	-59.8	3.6	0.00e+00	0	48	104	0	60	115955
2026-01-28 08:35:40.37	312.57	56.64	-56.1	-59.9	3.6	0.00e+00	0	48	104	0	60	116319
2026-01-28 08:35:41.38	311.28	56.79	-56.1	-60.0	3.6	0.00e+00	0	48	104	0	60	118668
2026-01-28 08:35:42.39	309.98	56.93	-56.1	-59.9	3.6	0.00e+00	0	48	104	0	60	117378
2026-01-28 08:35:43.39	308.69	57.05	-55.7	-59.8	3.6	0.00e+00	0	48	104	0	60	116268
2026-01-28 08:35:44.40	307.36	57.16	-55.7	-59.9	3.6	0.00e+00	0	48	104	0	60	117130
2026-01-28 08:35:45.41	306.03	57.25	-56.2	-60.0	3.6	0.00e+00	0	48	104	0	60	118203
2026-01-28 08:35:46.41	304.70	57.33	-56.4	-60.0	3.6	0.00e+00	0	48	104	0	60	118813
2026-01-28 08:35:47.42	303.35	57.39	-56.1	-59.9	3.6	0.00e+00	0	48	104	0	60	117491
2026-01-28 08:35:48.43	302.00	57.44	-56.3	-59.9	3.6	0.00e+00	0	48	104	0	60	117000
2026-01-28 08:35:49.44	300.64	57.48	-56.0	-59.9	3.6	0.00e+00	0	48	104	0	60	116695
2026-01-28 08:35:50.45	299.27	57.50	-55.7	-59.8	3.6	0.00e+00	0	48	104	0	60	115574
2026-01-28 08:35:51.45	297.92	57.50	-55.7	-59.9	3.6	0.00e+00	0	48	104	0	60	116319
2026-01-28 08:35:52.46	296.56	57.49	-55.9	-59.8	3.6	0.00e+00	0	48	104	0	60	115739
2026-01-28 08:35:53.47	295.20	57.46	-55.1	-59.6	3.6	0.00e+00	0	48	104	0	60	113535
2026-01-28 08:35:54.47	293.85	57.42	-55.3	-59.8	3.6	0.00e+00	0	48	104	0	60	115448
2026-01-28 08:35:55.48	292.50	57.37	-55.0	-59.7	3.6	0.00e+00	0	48	104	0	60	114220
2026-01-28 08:35:56.48	291.17	57.30	-55.0	-59.6	3.6	0.00e+00	0	49	104	0	60	113481
2026-01-28 08:35:57.49	289.83	57.21	-55.4	-60.0	3.6	0.00e+00	0	48	104	0	60	117652
2026-01-28 08:35:58.50	288.50	57.11	-55.8	-60.1	3.6	0.00e+00	0	48	104	0	60	119394
2026-01-28 08:35:59.50	287.19	57.00	-56.3	-60.4	3.5	0.00e+00	0	48	104	0	60	124286
2026-01-28 08:36:00.51	285.89	56.87	-56.2	-60.3	3.6	0.00e+00	0	48	104	0	60	123067
2026-01-28 08:36:01.51	284.60	56.73	-56.3	-60.5	3.6	0.00e+00	0	48	104	0	60	124998
2026-01-28 08:36:02.52	283.32	56.57	-56.6	-60.6	3.6	0.00e+00	0	48	104	0	60	127373
2026-01-28 08:36:03.52	282.07	56.41	-56.1	-60.5	3.6	0.00e+00	0	48	104	0	60	125071
2026-01-28 08:36:04.53	280.82	56.23	-56.2	-60.5	3.6	0.00e+00	0	48	104	0	60	125551
2026-01-28 08:36:05.53	279.60	56.04	-55.8	-60.4	3.6	0.00e+00	0	48	104	0	60	124179
2026-01-28 08:36:06.54	278.38	55.83	-55.7	-60.3	3.6	0.00e+00	0	48	104	0	60	122670
2026-01-28 08:36:07.54	277.20	55.62	-55.2	-60.1	3.6	0.00e+00	0	48	104	0	60	119028
2026-01-28 08:36:08.55	276.02	55.39	-55.3	-60.1	3.6	0.00e+00	0	48	104	0	60	119167
2026-01-28 08:36:09.55	274.87	55.16	-55.2	-60.1	3.6	0.00e+00	0	48	104	0	60	119632
2026-01-28 08:36:10.55	273.75	54.91	-55.2	-60.1	3.6	0.00e+00	0	48	104	0	60	119063
2026-01-28 08:36:11.56	272.63	54.66	-55.4	-60.1	3.6	0.00e+00	0	48	104	0	60	120053
2026-01-28 08:36:12.57	271.53	54.39	-55.2	-60.0	3.6	0.00e+00	0	48	104	0	60	118265
2026-01-28 08:36:13.57	270.46	54.12	-55.6	-60.2	3.6	0.00e+00	0	48	104	0	60	121075
2026-01-28 08:36:14.57	269.42	53.84	-55.5	-59.9	3.6	0.00e+00	0	48	104	0	60	117583
2026-01-28 08:36:15.58	268.38	53.55	-55.7	-60.0	3.6	0.00e+00	0	49	104	0	60	118358
2026-01-28 08:36:16.58	267.38	53.26	-55.7	-60.1	3.6	0.00e+00	0	48	104	0	60	119043
2026-01-28 08:36:17.59	266.39	52.95	-55.6	-59.9	3.6	0.00e+00	0	49	104	0	60	116669
2026-01-28 08:36:18.59	265.42	52.65	-55.6	-59.7	3.5	0.00e+00	0	48	104	0	60	114910
2026-01-28 08:36:19.60	264.47	52.33	-55.7	-59.8	3.5	0.00e+00	0	48	104	0	60	116040
2026-01-28 08:36:20.61	263.54	52.01	-55.8	-59.9	3.6	0.00e+00	0	48	104	0	60	116344
2026-01-28 08:36:21.61	262.64	51.68	-55.9	-59.8	3.6	0.00e+00	0	48	104	0	60	116062
2026-01-28 08:36:22.62	261.75	51.35	-56.1	-60.0	3.6	0.00e+00	0	48	104	0	60	118583
2026-01-28 08:36:23.63	260.88	51.02	-56.1	-60.0	3.6	0.00e+00	0	48	104	0	60	118765
2026-01-28 08:36:24.63	260.04	50.68	-55.9	-59.9	3.6	0.00e+00	0	48	104	0	60	116643
2026-01-28 08:36:25.64	259.21	50.34	-56.2	-60.1	3.6	0.00e+00	0	48	104	0	60	119692
2026-01-28 08:36:26.64	258.41	49.99	-56.4	-60.1	3.6	0.00e+00	0	48	104	0	60	120248
2026-01-28 08:36:27.65	257.61	49.64	-56.4	-60.1	3.6	0.00e+00	0	48	104	0	60	120120
2026-01-28 08:36:28.65	256.85	49.29	-56.3	-60.1	3.6	0.00e+00	0	48	104	0	60	120052
2026-01-28 08:36:29.66	256.09	48.94	-56.4	-60.2	3.6	0.00e+00	0	48	104	0	60	121251
2026-01-28 08:36:30.67	255.35	48.58	-56.5	-60.2	3.6	0.00e+00	0	48	104	0	60	121280
2026-01-28 08:36:31.68	254.63	48.22	-56.4	-60.2	3.6	0.00e+00	0	48	104	0	60	121103
2026-01-28 08:36:32.68	253.94	47.87	-56.4	-60.1	3.6	0.00e+00	0	48	104	0	60	120224
2026-01-28 08:36:33.68	253.26	47.51	-56.3	-60.1	3.6	0.00e+00	0	48	104	0	60	119140
2026-01-28 08:36:34.68	252.59	47.15	-56.3	-60.1	3.6	0.00e+00	0	48	104	0	60	119018
2026-01-28 08:36:35.69	251.94	46.79	-56.3	-60.0	3.6	0.00e+00	0	48	104	0	60	118138
2026-01-28 08:36:36.69	251.30	46.43	-56.3	-60.0	3.6	0.00e+00	0	48	104	0	60	118617
2026-01-28 08:36:37.70	250.68	46.07	-56.3	-60.0	3.6	0.00e+00	0	48	104	0	60	117827
2026-01-28 08:36:38.70	250.07	45.71	-56.3	-60.1	3.6	0.00e+00	0	48	104	0	60	119074
2026-01-28 08:36:39.71	249.48	45.35	-56.3	-60.0	3.6	0.00e+00	0	48	104	0	60	118396
2026-01-28 08:36:40.71	248.90	44.99	-56.3	-60.0	3.6	0.00e+00	0	48	104	0	60	118879
2026-01-28 08:36:41.72	248.33	44.63	-56.4	-60.0	3.6	0.00e+00	0	48	104	0	60	118872
2026-01-28 08:36:42.73	247.78	44.27	-56.4	-60.1	3.6	0.00e+00	0	48	104	0	60	119675
2026-01-28 08:36:43.73	247.24	43.91	-56.4	-60.1	3.6	0.00e+00	0	48	104	0	60	119707
2026-01-28 08:36:44.74	246.71	43.55	-56.4	-60.1	3.6	0.00e+00	0	48	104	0	60	120155
2026-01-28 08:36:45.74	246.20	43.20	-56.4	-60.1	3.6	0.00e+00	0	48	104	0	60	119489
2026-01-28 08:36:46.75	245.69	42.84	-56.3	-60.0	3.6	0.00e+00	0	48	104	0	60	118127
2026-01-28 08:36:47.75	245.20	42.49	-56.3	-60.0	3.6	0.00e+00	0	48	104	0	60	118845
2026-01-28 08:36:48.76	244.72	42.13	-56.4	-60.0	3.6	0.00e+00	0	48	104	0	60	118899
2026-01-28 08:36:49.77	244.25	41.78	-56.4	-60.1	3.6	0.00e+00	0	48	104	0	60	119330
2026-01-28 08:36:50.78	243.78	41.43	-56.4	-60.1	3.6	0.00e+00	0	48	104	0	60	119622
2026-01-28 08:36:51.78	243.34	41.09	-56.3	-60.1	3.6	0.00e+00	0	48	104	0	60	119140
2026-01-28 08:36:52.79	242.90	40.74	-56.4	-60.1	3.6	0.00e+00	0	48	104	0	60	119293
2026-01-28 08:36:53.80	242.46	40.39	-56.4	-60.0	3.6	0.00e+00	0	48	104	0	60	118994
2026-01-28 08:36:54.81	242.04	40.05	-56.4	-60.0	3.6	0.00e+00	0	48	104	0	60	118739
2026-01-28 08:36:55.81	241.63	39.71	-56.4	-60.1	3.6	0.00e+00	0	48	104	0	60	119189
2026-01-28 08:36:56.81	241.23	39.38	-56.3	-60.0	3.6	0.00e+00	0	48	104	0	60	118201
2026-01-28 08:36:57.82	240.84	39.04	-56.4	-60.0	3.6	0.00e+00	0	48	104	0	60	118648
2026-01-28 08:36:58.83	240.45	38.71	-56.4	-60.0	3.6	0.00e+00	0	48	104	0	60	118937
2026-01-28 08:36:59.84	240.07	38.38	-56.4	-60.0	3.6	0.00e+00	0	48	104	0	60	118817
2026-01-28 08:37:00.85	239.70	38.05	-56.4	-60.0	3.6	0.00e+00	0	48	104	0	60	118630
2026-01-28 08:37:01.85	239.34	37.72	-56.3	-60.0	3.6	0.00e+00	0	48	104	0	60	118418
2026-01-28 08:37:02.86	238.99	37.40	-56.2	-59.9	3.6	0.00e+00	0	48	104	0	60	116725
2026-01-28 08:37:03.87	238.64	37.07	-56.2	-59.9	3.6	0.00e+00	0	48	104	0	60	117351
2026-01-28 08:37:04.88	238.30	36.75	-56.2	-59.8	3.6	0.00e+00	0	48	104	0	60	115827
2026-01-28 08:37:05.89	237.97	36.44	-56.1	-59.8	3.6	0.00e+00	0	49	104	0	60	115271
2026-01-28 08:37:06.90	237.64	36.12	-56.1	-59.8	3.6	0.00e+00	0	49	104	0	60	116010
2026-01-28 08:37:07.90	237.32	35.81	-56.2	-59.9	3.6	0.00e+00	0	48	104	0	60	116369
2026-01-28 08:37:08.91	237.01	35.50	-56.2	-59.8	3.6	0.00e+00	0	49	104	0	60	116125
2026-01-28 08:37:09.91	236.71	35.20	-56.1	-59.8	3.6	0.00e+00	0	48	104	0	60	115522
2026-01-28 08:37:10.92	236.41	34.89	-56.1	-59.8	3.6	0.00e+00	0	48	104	0	60	115115
2026-01-28 08:37:11.93	236.11	34.59	-56.2	-59.9	3.6	0.00e+00	0	48	104	0	60	116572
2026-01-28 08:37:12.93	235.82	34.29	-56.2	-59.8	3.6	0.00e+00	0	48	104	0	60	115896
2026-01-28 08:37:13.94	235.54	34.00	-56.1	-59.8	3.6	0.00e+00	0	48	104	0	60	115624
2026-01-28 08:37:14.94	235.26	33.70	-56.1	-59.7	3.6	0.00e+00	0	48	104	0	60	114869
2026-01-28 08:37:15.95	234.99	33.41	-56.1	-59.8	3.6	0.00e+00	0	48	104	0	60	115865
2026-01-28 08:37:16.95	234.73	33.12	-56.1	-59.8	3.6	0.00e+00	0	48	104	0	60	115305
2026-01-28 08:37:17.96	234.46	32.84	-56.1	-59.7	3.6	0.00e+00	0	48	104	0	60	114920
2026-01-28 08:37:18.97	234.20	32.55	-56.0	-59.6	3.6	0.00e+00	0	48	104	0	60	113569
2026-01-28 08:37:19.98	233.95	32.27	-56.0	-59.6	3.6	0.00e+00	0	48	104	0	60	113512
2026-01-28 08:37:20.98	233.71	31.99	-56.1	-59.7	3.6	0.00e+00	0	48	104	0	60	114340
2026-01-28 08:37:21.99	233.46	31.72	-55.9	-59.6	3.5	0.00e+00	0	48	104	0	60	112383
2026-01-28 08:37:23.00	233.22	31.44	-55.9	-59.5	3.6	0.00e+00	0	48	104	0	60	112226
2026-01-28 08:37:24.00	232.99	31.17	-56.0	-59.7	3.6	0.00e+00	0	48	104	0	60	113738
2026-01-28 08:37:25.01	232.76	30.90	-56.0	-59.7	3.6	0.00e+00	0	49	104	0	60	114076
2026-01-28 08:37:26.01	232.53	30.64	-55.9	-59.6	3.6	0.00e+00	0	48	104	0	60	112910
2026-01-28 08:37:27.01	232.31	30.37	-56.0	-59.6	3.6	0.00e+00	0	48	104	0	60	113121
2026-01-28 08:37:28.02	232.09	30.11	-56.1	-59.7	3.6	0.00e+00	0	49	104	0	60	114349
2026-01-28 08:37:29.03	231.88	29.85	-56.1	-59.7	3.6	0.00e+00	0	49	104	0	60	114309
2026-01-28 08:37:30.03	231.67	29.59	-56.0	-59.6	3.6	0.00e+00	0	48	104	0	60	112636
2026-01-28 08:37:31.04	231.46	29.34	-55.9	-59.5	3.6	0.00e+00	0	48	104	0	60	111663
2026-01-28 08:37:32.05	231.26	29.09	-56.1	-59.7	3.6	0.00e+00	0	48	104	0	60	114206
2026-01-28 08:37:33.06	231.06	28.83	-56.0	-59.7	3.6	0.00e+00	0	48	104	0	60	114243
2026-01-28 08:37:34.06	230.86	28.59	-56.0	-59.6	3.6	0.00e+00	0	48	104	0	60	112946
2026-01-28 08:37:35.07	230.67	28.34	-55.8	-59.4	3.6	0.00e+00	0	48	104	0	60	110907
2026-01-28 08:37:36.08	230.48	28.10	-56.0	-59.6	3.6	0.00e+00	0	48	104	0	60	112467
2026-01-28 08:37:37.08	230.29	27.86	-55.9	-59.5	3.6	0.00e+00	0	48	104	0	60	111966
2026-01-28 08:37:38.09	230.11	27.62	-55.9	-59.5	3.6	0.00e+00	0	48	104	0	60	112196
2026-01-28 08:37:39.09	229.93	27.38	-56.0	-59.6	3.6	0.00e+00	0	48	104	0	60	113219
2026-01-28 08:37:40.09	229.75	27.15	-55.8	-59.4	3.6	0.00e+00	0	48	104	0	60	110134
2026-01-28 08:37:41.10	229.58	26.91	-56.0	-59.6	3.6	0.00e+00	0	48	104	0	60	113589
2026-01-28 08:37:42.11	229.40	26.68	-55.9	-59.6	3.6	0.00e+00	0	48	104	0	60	113277
2026-01-28 08:37:43.11	229.24	26.46	-55.9	-59.6	3.6	0.00e+00	0	48	104	0	60	113410
2026-01-28 08:37:44.12	229.07	26.23	-55.9	-59.6	3.6	0.00e+00	0	48	104	0	60	113251
2026-01-28 08:37:45.12	228.91	26.01	-56.0	-59.6	3.6	0.00e+00	0	48	104	0	60	113085
2026-01-28 08:37:46.12	228.75	25.78	-55.9	-59.6	3.6	0.00e+00	0	48	104	0	60	112719
2026-01-28 08:37:47.13	228.59	25.56	-55.9	-59.6	3.6	0.00e+00	0	48	104	0	60	112714
2026-01-28 08:37:48.14	228.43	25.34	-56.0	-59.6	3.6	0.00e+00	0	48	104	0	60	112818
2026-01-28 08:37:49.14	228.28	25.13	-56.0	-59.6	3.6	0.00e+00	0	48	104	0	60	113318
2026-01-28 08:37:50.15	228.12	24.91	-55.9	-59.6	3.6	0.00e+00	0	48	104	0	60	112877
2026-01-28 08:37:51.15	227.98	24.70	-55.9	-59.5	3.6	0.00e+00	0	48	104	0	60	111516
2026-01-28 08:37:52.15	227.83	24.49	-55.9	-59.6	3.6	0.00e+00	0	49	104	0	60	113125
2026-01-28 08:37:53.16	227.68	24.28	-55.9	-59.6	3.6	0.00e+00	0	49	104	0	60	112640
2026-01-28 08:37:54.17	227.54	24.07	-55.9	-59.5	3.6	0.00e+00	0	48	104	0	60	111421
2026-01-28 08:37:55.18	227.40	23.87	-55.9	-59.6	3.6	0.00e+00	0	48	104	0	60	112526
2026-01-28 08:37:56.19	227.26	23.66	-55.9	-59.6	3.6	0.00e+00	0	48	104	0	60	113117
2026-01-28 08:37:57.19	227.13	23.46	-55.9	-59.6	3.6	0.00e+00	0	48	104	0	60	112698
2026-01-28 08:37:58.20	226.99	23.26	-55.9	-59.5	3.6	0.00e+00	0	48	104	0	60	111690
2026-01-28 08:37:59.21	226.86	23.06	-55.8	-59.5	3.6	0.00e+00	0	48	104	0	60	111464
2026-01-28 08:38:00.21	226.73	22.87	-55.9	-59.6	3.6	0.00e+00	0	48	104	0	60	112472
2026-01-28 08:38:01.22	226.60	22.67	-55.8	-59.4	3.6	0.00e+00	0	48	104	0	60	110740
2026-01-28 08:38:02.23	226.47	22.48	-55.8	-59.5	3.6	0.00e+00	0	48	104	0	60	111932
2026-01-28 08:38:03.23	226.35	22.29	-55.7	-59.4	3.6	0.00e+00	0	48	104	0	60	111055
2026-01-28 08:38:04.24	226.22	22.10	-55.8	-59.5	3.6	0.00e+00	0	48	104	0	60	111346
2026-01-28 08:38:05.24	226.10	21.91	-55.7	-59.4	3.6	0.00e+00	0	48	104	0	60	110283
2026-01-28 08:38:06.25	225.98	21.72	-55.6	-59.3	3.6	0.00e+00	0	48	104	0	60	109251
2026-01-28 08:38:07.25	225.86	21.54	-55.6	-59.3	3.6	0.00e+00	0	48	104	0	60	109578
2026-01-28 08:38:08.26	225.75	21.35	-55.7	-59.4	3.6	0.00e+00	0	48	104	0	60	110717
2026-01-28 08:38:09.26	225.63	21.17	-55.5	-59.3	3.6	0.00e+00	0	48	104	0	60	108652
2026-01-28 08:38:10.27	225.52	20.99	-55.7	-59.3	3.6	0.00e+00	0	48	104	0	60	109181
2026-01-28 08:38:11.27	225.41	20.81	-55.7	-59.4	3.6	0.00e+00	0	48	104	0	60	110374
2026-01-28 08:38:12.27	225.30	20.64	-55.6	-59.3	3.6	0.00e+00	0	48	104	0	60	109372
2026-01-28 08:38:13.28	225.19	20.46	-55.6	-59.3	3.6	0.00e+00	0	48	104	0	60	108956
2026-01-28 08:38:14.28	225.08	20.29	-55.8	-59.4	3.6	0.00e+00	0	48	104	0	60	110875
2026-01-28 08:38:15.29	224.97	20.11	-55.5	-59.3	3.6	0.00e+00	0	48	104	0	60	108615
2026-01-28 08:38:16.28	224.87	19.94	-55.6	-59.3	3.6	0.00e+00	0	48	104	0	60	109220
2026-01-28 08:38:17.29	224.77	19.77	-55.4	-59.1	3.6	0.00e+00	0	48	104	0	60	106223
2026-01-28 08:38:18.29	224.66	19.60	-55.6	-59.3	3.6	0.00e+00	0	48	104	0	60	109066
2026-01-28 08:38:19.29	224.56	19.44	-55.4	-59.2	3.6	0.00e+00	0	48	104	0	60	107686
2026-01-28 08:38:20.30	224.46	19.27	-55.5	-59.2	3.6	0.00e+00	0	48	104	0	60	108180
2026-01-28 08:38:21.30	224.37	19.11	-55.3	-59.0	3.6	0.00e+00	0	48	104	0	60	105676
2026-01-28 08:38:22.31	224.27	18.94	-55.3	-59.0	3.6	0.00e+00	0	48	104	0	60	105342
2026-01-28 08:38:23.32	224.17	18.78	-55.4	-59.1	3.6	0.00e+00	0	48	104	0	60	106694
2026-01-28 08:38:24.33	224.08	18.62	-55.3	-59.2	3.6	0.00e+00	0	48	104	0	60	107623
2026-01-28 08:38:25.33	223.98	18.46	-55.2	-58.9	3.6	0.00e+00	0	48	104	0	60	104739
2026-01-28 08:38:26.33	223.89	18.30	-55.1	-58.9	3.6	0.00e+00	0	48	104	0	60	104127
2026-01-28 08:38:27.34	223.80	18.14	-55.2	-58.9	3.6	0.00e+00	0	48	104	0	60	104341
2026-01-28 08:38:28.35	223.71	17.98	-55.4	-59.2	3.6	0.00e+00	0	48	104	0	60	107412
2026-01-28 08:38:29.35	223.62	17.83	-55.3	-59.1	3.6	0.00e+00	0	49	104	0	60	106486
2026-01-28 08:38:30.35	223.53	17.67	-55.0	-58.8	3.6	0.00e+00	0	48	104	0	60	102830
2026-01-28 08:38:31.36	223.45	17.52	-55.2	-58.9	3.6	0.00e+00	0	49	104	0	60	103850
2026-01-28 08:38:32.37	223.36	17.37	-55.4	-59.1	3.6	0.00e+00	0	48	104	0	60	107145
2026-01-28 08:38:33.38	223.28	17.22	-55.4	-59.1	3.6	0.00e+00	0	48	104	0	60	106310
2026-01-28 08:38:34.38	223.19	17.07	-55.1	-58.9	3.6	0.00e+00	0	48	104	0	60	103704
2026-01-28 08:38:35.39	223.11	16.92	-55.2	-58.9	3.6	0.00e+00	0	48	104	0	60	104684
2026-01-28 08:38:36.40	223.03	16.77	-55.4	-59.0	3.6	0.00e+00	0	48	104	0	60	105840
2026-01-28 08:38:37.40	222.95	16.63	-55.3	-59.1	3.6	0.00e+00	0	48	104	0	60	106455
2026-01-28 08:38:38.41	222.87	16.48	-55.2	-59.0	3.6	0.00e+00	0	48	104	0	60	105094
2026-01-28 08:38:39.41	222.79	16.34	-55.3	-59.0	3.6	0.00e+00	0	48	104	0	60	104934
2026-01-28 08:38:40.42	222.71	16.19	-55.4	-59.1	3.6	0.00e+00	0	48	104	0	60	106576
2026-01-28 08:38:41.43	222.63	16.05	-55.3	-59.0	3.6	0.00e+00	0	48	104	0	60	105939
2026-01-28 08:38:42.43	222.56	15.91	-55.3	-59.0	3.6	0.00e+00	0	48	104	0	60	105896
2026-01-28 08:38:43.44	222.48	15.77	-55.3	-58.9	3.6	0.00e+00	0	48	104	0	60	104574
2026-01-28 08:38:44.45	222.41	15.63	-55.4	-59.1	3.6	0.00e+00	0	48	104	0	60	107288
2026-01-28 08:38:45.45	222.33	15.49	-55.4	-59.0	3.5	0.00e+00	0	49	104	0	60	105586
2026-01-28 08:38:46.46	222.26	15.35	-55.4	-59.0	3.6	0.00e+00	0	48	104	0	60	105474
2026-01-28 08:38:47.47	222.19	15.22	-55.1	-58.8	3.6	0.00e+00	0	48	104	0	60	103120
2026-01-28 08:38:48.47	222.12	15.08	-55.4	-59.1	3.6	0.00e+00	0	48	104	0	60	106857
2026-01-28 08:38:49.48	222.05	14.95	-55.3	-59.1	3.6	0.00e+00	0	48	104	0	60	106071
2026-01-28 08:38:50.49	221.98	14.81	-55.2	-58.9	3.6	0.00e+00	0	48	104	0	60	103754
2026-01-28 08:38:51.49	221.91	14.68	-55.1	-58.8	3.6	0.00e+00	0	48	104	0	60	103217
2026-01-28 08:38:52.50	221.84	14.55	-55.2	-58.9	3.6	0.00e+00	0	48	104	0	60	104009
2026-01-28 08:38:53.50	221.77	14.42	-55.2	-58.8	3.6	0.00e+00	0	48	104	0	60	103071
2026-01-28 08:38:54.51	221.71	14.29	-55.0	-58.7	3.6	0.00e+00	0	48	104	0	60	102327
2026-01-28 08:38:55.51	221.64	14.16	-55.1	-58.7	3.6	0.00e+00	0	49	104	0	60	102382
2026-01-28 08:38:56.52	221.58	14.03	-55.0	-58.8	3.6	0.00e+00	0	48	104	0	60	102516
2026-01-28 08:38:57.52	221.51	13.90	-55.1	-58.7	3.6	0.00e+00	0	49	104	0	60	102058
2026-01-28 08:38:58.53	221.45	13.78	-55.0	-58.7	3.6	0.00e+00	0	48	104	0	60	101779
2026-01-28 08:38:59.54	221.38	13.65	-55.1	-58.7	3.6	0.00e+00	0	48	104	0	60	101847
2026-01-28 08:39:00.54	221.32	13.53	-55.2	-58.8	3.6	0.00e+00	0	48	104	0	60	102624
2026-01-28 08:39:01.55	221.26	13.40	-55.2	-58.8	3.6	0.00e+00	0	48	104	0	60	102510
2026-01-28 08:39:02.55	221.20	13.28	-54.9	-58.5	3.6	0.00e+00	0	48	104	0	60	99961
2026-01-28 08:39:03.56	221.14	13.16	-54.8	-58.5	3.6	0.00e+00	0	48	104	0	60	99388
2026-01-28 08:39:04.56	221.08	13.03	-55.2	-58.7	3.6	0.00e+00	0	48	104	0	60	102331
2026-01-28 08:39:05.57	221.02	12.91	-55.0	-58.6	3.6	0.00e+00	0	49	104	0	60	101219
2026-01-28 08:39:06.57	220.96	12.79	-54.3	-58.1	3.6	0.00e+00	0	48	104	0	60	94896
2026-01-28 08:39:07.57	220.90	12.67	-54.5	-58.2	3.6	0.00e+00	0	48	104	0	60	96319
2026-01-28 08:39:08.58	220.84	12.55	-54.4	-58.2	3.6	0.00e+00	0	48	104	0	60	96227
2026-01-28 08:39:09.59	220.79	12.44	-53.7	-57.7	3.6	0.00e+00	0	49	104	0	60	90384
2026-01-28 08:39:10.59	220.73	12.32	-53.6	-57.6	3.6	0.00e+00	0	48	104	0	60	90203
2026-01-28 08:39:11.59	220.68	12.20	-53.6	-57.6	3.6	0.00e+00	0	48	104	0	60	89262
2026-01-28 08:39:12.60	220.62	12.09	-53.6	-57.6	3.6	0.00e+00	0	48	104	0	60	89433
2026-01-28 08:39:13.61	220.57	11.97	-53.6	-57.5	3.6	0.00e+00	0	48	104	0	60	88546
2026-01-28 08:39:14.61	220.51	11.86	-53.6	-57.6	3.6	0.00e+00	0	48	104	0	60	89821
2026-01-28 08:39:15.62	220.46	11.74	-53.8	-57.8	3.6	0.00e+00	0	48	104	0	60	92128
2026-01-28 08:39:16.62	220.40	11.63	-53.2	-57.2	3.6	0.00e+00	0	48	104	0	60	85681
2026-01-28 08:39:17.62	220.35	11.52	-53.2	-57.2	3.6	0.00e+00	0	48	104	0	60	85851
2026-01-28 08:39:18.63	220.30	11.41	-53.2	-57.2	3.6	0.00e+00	0	48	104	0	60	86110
2026-01-28 08:39:19.64	220.25	11.29	-53.2	-57.2	3.6	0.00e+00	0	48	104	0	60	86176
2026-01-28 08:39:20.64	220.20	11.18	-53.3	-57.3	3.6	0.00e+00	0	48	104	0	60	86709
2026-01-28 08:39:21.64	220.15	11.07	-53.6	-57.5	3.6	0.00e+00	0	49	104	0	60	89214
2026-01-28 08:39:22.65	220.10	10.96	-53.9	-57.8	3.6	0.00e+00	0	48	104	0	60	91930
2026-01-28 08:39:23.66	220.05	10.85	-53.8	-57.7	3.6	0.00e+00	0	48	104	0	60	90877
2026-01-28 08:39:24.67	220.00	10.75	-54.0	-57.9	3.6	0.00e+00	0	49	104	0	60	92610
2026-01-28 08:39:25.68	219.95	10.64	-53.8	-57.8	3.6	0.00e+00	0	49	104	0	60	91790
2026-01-28 08:39:26.68	219.90	10.53	-53.9	-57.8	3.6	0.00e+00	0	49	104	0	60	92021
2026-01-28 08:39:27.69	219.85	10.42	-53.7	-57.7	3.6	0.00e+00	0	48	104	0	60	90689
2026-01-28 08:39:28.70	219.81	10.32	-53.6	-57.5	3.6	0.00e+00	0	48	104	0	60	88950
2026-01-28 08:39:29.70	219.76	10.21	-53.7	-57.7	3.6	0.00e+00	0	48	104	0	60	90670
2026-01-28 08:39:30.70	219.71	10.11	-53.7	-57.7	3.6	0.00e+00	0	48	104	0	60	90592
2026-01-28 08:39:31.69	219.67	10.01	-54.3	-58.1	3.6	0.00e+00	0	48	104	0	60	95142
2026-01-28 08:39:32.70	219.62	9.90	-54.6	-58.3	3.6	0.00e+00	0	49	104	0	60	97392
2026-01-28 08:39:33.71	219.58	9.80	-54.7	-58.4	3.6	0.00e+00	0	49	104	0	60	98394
2026-01-28 08:39:34.71	219.53	9.70	-54.8	-58.5	3.5	0.00e+00	0	48	104	0	60	99134
2026-01-28 08:39:35.71	219.49	9.60	-54.7	-58.4	3.6	0.00e+00	0	48	104	0	60	97963
2026-01-28 08:39:36.72	219.44	9.49	-54.9	-58.6	3.6	0.00e+00	0	48	104	0	60	100143
2026-01-28 08:39:37.72	219.40	9.39	-54.7	-58.4	3.6	0.00e+00	0	48	104	0	60	98044
2026-01-28 08:39:38.73	219.36	9.29	-54.4	-58.1	3.6	0.00e+00	0	48	104	0	60	94881
2026-01-28 08:39:39.73	219.32	9.19	-54.6	-58.3	3.6	0.00e+00	0	48	104	0	60	96776
2026-01-28 08:39:40.74	219.27	9.09	-54.8	-58.5	3.6	0.00e+00	0	48	104	0	60	99417
2026-01-28 08:39:41.74	219.23	9.00	-54.6	-58.3	3.6	0.00e+00	0	48	104	0	60	97449
2026-01-28 08:39:42.74	219.19	8.90	-54.0	-57.8	3.6	0.00e+00	0	49	104	0	60	92146
2026-01-28 08:39:43.75	219.15	8.80	-54.3	-58.1	3.6	0.00e+00	0	49	104	0	60	94972
2026-01-28 08:39:44.75	219.11	8.70	-54.6	-58.3	3.6	0.00e+00	0	49	104	0	60	97169
2026-01-28 08:39:45.76	219.07	8.61	-54.3	-58.0	3.5	0.00e+00	0	48	104	0	60	94069
2026-01-28 08:39:46.76	219.03	8.51	-54.0	-57.8	3.6	0.00e+00	0	49	104	0	60	91641
2026-01-28 08:39:47.77	218.99	8.41	-54.0	-57.8	3.6	0.00e+00	0	48	104	0	60	91430
2026-01-28 08:39:48.77	218.95	8.32	-54.0	-57.7	3.6	0.00e+00	0	49	104	0	60	91270
2026-01-28 08:39:49.78	218.91	8.22	-53.9	-57.7	3.6	0.00e+00	0	48	104	0	60	91038
2026-01-28 08:39:50.78	218.87	8.13	-54.0	-57.7	3.6	0.00e+00	0	49	104	0	60	91201
2026-01-28 08:39:51.78	218.83	8.04	-53.9	-57.6	3.6	0.00e+00	0	49	104	0	60	89631
2026-01-28 08:39:52.79	218.79	7.94	-54.0	-57.7	3.6	0.00e+00	0	49	104	0	60	90992
2026-01-28 08:39:53.80	218.76	7.85	-54.2	-57.9	3.6	0.00e+00	0	48	104	0	60	92665
2026-01-28 08:39:54.81	218.72	7.76	-54.2	-57.9	3.6	0.00e+00	0	48	104	0	60	92767
2026-01-28 08:39:55.81	218.68	7.66	-54.1	-57.8	3.6	0.00e+00	0	48	104	0	60	92119
2026-01-28 08:39:56.81	218.64	7.57	-54.0	-57.7	3.5	0.00e+00	0	49	104	0	60	90864
2026-01-28 08:39:57.82	218.61	7.48	-54.1	-57.8	3.6	0.00e+00	0	48	104	0	60	92187
2026-01-28 08:39:58.83	218.57	7.39	-54.2	-58.0	3.6	0.00e+00	0	49	104	0	60	93471
2026-01-28 08:39:59.85	218.53	7.30	-54.0	-57.7	3.6	0.00e+00	0	49	104	0	60	91025
2026-01-28 08:40:00.85	218.50	7.21	-54.0	-57.6	3.6	0.00e+00	0	49	104	0	60	89633
2026-01-28 08:40:01.86	218.46	7.12	-54.1	-57.9	3.6	0.00e+00	0	48	104	0	60	92830
2026-01-28 08:40:02.85	218.43	7.03	-54.2	-57.9	3.6	0.00e+00	0	49	104	0	60	93429
2026-01-28 08:40:03.86	218.39	6.94	-53.9	-57.6	3.6	0.00e+00	0	49	104	0	60	89646
2026-01-28 08:40:04.87	218.36	6.85	-53.8	-57.4	3.6	0.00e+00	0	49	104	0	60	87314
2026-01-28 08:40:05.87	218.33	6.76	-53.8	-57.3	3.6	0.00e+00	0	48	104	0	60	87168
2026-01-28 08:40:06.87	218.29	6.68	-53.7	-57.4	3.6	0.00e+00	0	48	104	0	60	87452
2026-01-28 08:40:07.88	218.26	6.59	-53.7	-57.4	3.5	0.00e+00	0	48	104	0	60	87956
2026-01-28 08:40:08.88	218.23	6.50	-54.0	-57.6	3.6	0.00e+00	0	48	104	0	60	90080
2026-01-28 08:40:09.89	218.19	6.42	-53.7	-57.3	3.6	0.00e+00	0	48	104	0	60	86868
2026-01-28 08:40:10.90	218.16	6.33	-53.9	-57.6	3.6	0.00e+00	0	48	104	0	60	89948
2026-01-28 08:40:11.90	218.13	6.24	-53.8	-57.4	3.6	0.00e+00	0	49	104	0	60	87543
2026-01-28 08:40:12.91	218.09	6.16	-53.6	-57.2	3.6	0.00e+00	0	48	104	0	60	85522
2026-01-28 08:40:13.91	218.06	6.07	-53.8	-57.4	3.6	0.00e+00	0	48	104	0	60	88081
2026-01-28 08:40:14.92	218.03	5.99	-54.1	-57.8	3.6	0.00e+00	0	48	104	0	60	91838
2026-01-28 08:40:15.92	218.00	5.90	-54.1	-58.0	3.6	0.00e+00	0	48	104	0	60	94474
2026-01-28 08:40:16.93	217.97	5.82	-55.2	-58.9	3.6	0.00e+00	0	49	104	0	60	104410
2026-01-28 08:40:17.94	217.94	5.74	-55.5	-59.3	3.6	0.00e+00	0	48	104	0	60	109295
2026-01-28 08:40:18.95	217.91	5.65	-56.4	-60.1	3.6	0.00e+00	0	48	104	0	60	119188
2026-01-28 08:40:19.96	217.88	5.57	-56.7	-60.5	3.6	0.00e+00	0	48	104	0	60	124817
2026-01-28 08:40:20.96	217.85	5.49	-57.1	-60.8	3.6	0.00e+00	0	48	104	0	60	129840
2026-01-28 08:40:21.97	217.82	5.40	-57.4	-61.1	3.6	0.00e+00	0	48	104	0	60	133958
2026-01-28 08:40:22.98	217.79	5.32	-57.5	-61.3	3.6	0.00e+00	0	49	104	0	60	136780
2026-01-28 08:40:23.98	217.76	5.24	-57.8	-61.5	3.6	0.00e+00	0	49	104	0	60	139855
2026-01-28 08:40:24.99	217.73	5.16	-57.7	-61.5	3.6	0.00e+00	0	48	104	0	60	139841
2026-01-28 08:40:26.00	217.70	5.08	-57.6	-61.4	3.6	0.00e+00	0	48	104	0	60	139237
2026-01-28 08:40:27.00	217.67	5.00	-58.0	-61.7	3.6	0.00e+00	0	48	104	0	60	144549
2026-01-28 08:40:28.01	217.64	4.92	-58.0	-61.7	3.6	0.00e+00	0	48	104	0	60	144274
2026-01-28 08:40:29.02	217.61	4.84	-57.8	-61.7	3.6	0.00e+00	0	49	104	0	60	143270
2026-01-28 08:40:30.03	217.58	4.76	-57.4	-61.4	3.5	0.00e+00	0	48	104	0	60	139282
2026-01-28 08:40:31.03	217.56	4.68	-55.7	-60.6	3.6	0.00e+00	0	49	104	0	60	126064
2026-01-28 08:40:32.04	217.53	4.60	-55.0	-59.9	3.6	0.00e+00	0	48	104	0	60	116348
2026-01-28 08:40:33.05	217.50	4.52	-55.1	-59.6	3.6	0.00e+00	0	48	104	0	60	113146
2026-01-28 08:40:34.04	217.47	4.44	-56.0	-60.5	3.6	0.00e+00	0	48	104	0	60	125186
2026-01-28 08:40:35.05	217.45	4.36	-56.3	-60.7	3.6	0.00e+00	0	48	104	0	60	127694
2026-01-28 08:40:36.05	217.42	4.29	-56.5	-60.8	3.6	0.00e+00	0	48	104	0	60	129422
2026-01-28 08:40:37.06	217.39	4.21	-56.5	-60.8	3.6	0.00e+00	0	48	104	0	60	129087
2026-01-28 08:40:38.07	217.37	4.13	-56.4	-60.8	3.6	0.00e+00	0	49	104	0	60	129179
2026-01-28 08:40:39.07	217.34	4.05	-56.5	-60.8	3.6	0.00e+00	0	48	104	0	60	129874
2026-01-28 08:40:40.08	217.31	3.98	-56.7	-61.0	3.6	0.00e+00	0	48	104	0	60	132213
2026-01-28 08:40:41.09	217.29	3.90	-56.7	-61.0	3.6	0.00e+00	0	48	104	0	60	132372
2026-01-28 08:40:42.09	217.26	3.82	-56.7	-61.0	3.6	0.00e+00	0	48	104	0	60	132156
2026-01-28 08:40:43.10	217.24	3.75	-56.7	-61.0	3.6	0.00e+00	0	48	104	0	60	133223
2026-01-28 08:40:44.10	217.21	3.67	-56.7	-60.9	3.6	0.00e+00	0	48	104	0	60	131384
2026-01-28 08:40:45.11	217.18	3.60	-56.7	-61.0	3.6	0.00e+00	0	48	104	0	60	132991
2026-01-28 08:40:46.12	217.16	3.52	-56.7	-60.9	3.6	0.00e+00	0	48	104	0	60	131956
2026-01-28 08:40:47.12	217.13	3.45	-56.7	-61.0	3.6	0.00e+00	0	48	104	0	60	132551
2026-01-28 08:40:48.13	217.11	3.37	-56.7	-60.9	3.6	0.00e+00	0	49	104	0	60	131826
2026-01-28 08:40:49.13	217.09	3.30	-56.7	-61.0	3.6	0.00e+00	0	48	104	0	60	132421
2026-01-28 08:40:50.14	217.06	3.22	-56.7	-60.9	3.6	0.00e+00	0	49	104	0	60	131645
2026-01-28 08:40:51.15	217.04	3.15	-56.7	-61.0	3.6	0.00e+00	0	48	104	0	60	132105
2026-01-28 08:40:52.15	217.01	3.08	-56.6	-60.9	3.6	0.00e+00	0	48	104	0	60	131595
2026-01-28 08:40:53.16	216.99	3.00	-56.6	-60.9	3.6	0.00e+00	0	48	104	0	60	131369
2026-01-28 08:40:54.16	216.97	2.93	-56.6	-60.9	3.6	0.00e+00	0	49	104	0	60	131204
2026-01-28 08:40:55.17	216.94	2.86	-56.6	-60.9	3.6	0.00e+00	0	49	104	0	60	131245
2026-01-28 08:40:56.17	216.92	2.78	-56.6	-60.9	3.6	0.00e+00	0	49	104	0	60	131329
2026-01-28 08:40:57.18	216.90	2.71	-56.6	-60.9	3.6	0.00e+00	0	49	104	0	60	131023
2026-01-28 08:40:58.18	216.87	2.64	-56.6	-60.9	3.6	0.00e+00	0	48	104	0	60	131572
2026-01-28 08:40:59.19	216.85	2.57	-56.6	-60.9	3.6	0.00e+00	0	48	104	0	60	131093
2026-01-28 08:41:00.19	216.83	2.50	-56.6	-60.9	3.6	0.00e+00	0	48	104	0	60	131106
2026-01-28 08:41:01.19	216.81	2.42	-56.6	-60.9	3.6	0.00e+00	0	48	104	0	60	130727
2026-01-28 08:41:02.19	216.78	2.35	-56.5	-60.8	3.6	0.00e+00	0	48	104	0	60	130163
2026-01-28 08:41:03.20	216.76	2.28	-56.5	-60.9	3.6	0.00e+00	0	49	104	0	60	130675
2026-01-28 08:41:04.21	216.74	2.21	-56.6	-60.9	3.6	0.00e+00	0	48	104	0	60	130895
2026-01-28 08:41:05.21	216.72	2.14	-56.5	-60.9	3.6	0.00e+00	0	49	104	0	60	130492
2026-01-28 08:41:06.22	216.70	2.07	-56.5	-60.9	3.6	0.00e+00	0	49	104	0	60	130649
2026-01-28 08:41:07.23	216.67	2.00	-56.5	-60.9	3.6	0.00e+00	0	48	104	0	60	130785
2026-01-28 08:41:08.24	216.65	1.93	-56.5	-60.9	3.6	0.00e+00	0	48	104	0	60	130769
2026-01-28 08:41:09.24	216.63	1.86	-56.6	-60.9	3.6	0.00e+00	0	48	104	0	60	130543
2026-01-28 08:41:10.25	216.61	1.79	-56.6	-60.9	3.6	0.00e+00	0	48	104	0	60	130778
2026-01-28 08:41:11.26	216.59	1.72	-56.6	-60.9	3.6	0.00e+00	0	48	104	0	60	131107
2026-01-28 08:41:12.27	216.57	1.65	-56.6	-60.8	3.6	0.00e+00	0	48	104	0	60	130252
2026-01-28 08:41:13.28	216.55	1.58	-56.6	-60.9	3.6	0.00e+00	0	49	104	0	60	130735
2026-01-28 08:41:14.28	216.53	1.52	-56.6	-60.9	3.5	0.00e+00	0	48	104	0	60	130681
2026-01-28 08:41:15.29	216.51	1.45	-56.6	-60.9	3.6	0.00e+00	0	48	104	0	60	131238
2026-01-28 08:41:16.30	216.49	1.38	-56.6	-60.9	3.6	0.00e+00	0	49	104	0	60	131497
2026-01-28 08:41:17.30	216.47	1.31	-56.6	-60.9	3.6	0.00e+00	0	49	104	0	60	130902
2026-01-28 08:41:18.31	216.45	1.24	-56.6	-60.9	3.6	0.00e+00	0	49	104	0	60	130877
2026-01-28 08:41:19.32	216.43	1.18	-56.6	-60.9	3.6	0.00e+00	0	49	104	0	60	131206
2026-01-28 08:41:20.33	216.41	1.11	-56.6	-60.9	3.6	0.00e+00	0	49	104	0	60	131611
2026-01-28 08:41:21.34	216.39	1.04	-56.5	-60.9	3.6	0.00e+00	0	49	104	0	60	131208
2026-01-28 08:41:22.35	216.37	0.97	-56.6	-60.9	3.6	0.00e+00	0	48	104	0	60	130578
2026-01-28 08:41:23.35	216.35	0.91	-56.5	-60.9	3.6	0.00e+00	0	49	104	0	60	130577
2026-01-28 08:41:24.36	216.33	0.84	-56.5	-60.9	3.6	0.00e+00	0	48	104	0	60	130951
2026-01-28 08:41:25.37	216.31	0.77	-56.5	-60.8	3.6	0.00e+00	0	48	104	0	60	130066
2026-01-28 08:41:26.38	216.29	0.71	-56.5	-60.9	3.6	0.00e+00	0	48	104	0	60	130586
2026-01-28 08:41:27.38	216.27	0.64	-56.6	-60.9	3.6	0.00e+00	0	49	104	0	60	130870
2026-01-28 08:41:28.40	216.25	0.57	-56.5	-60.9	3.6	0.00e+00	0	49	104	0	60	130518
2026-01-28 08:41:29.40	216.23	0.51	-56.5	-60.9	3.6	0.00e+00	0	49	104	0	60	131280
2026-01-28 08:41:30.41	216.22	0.44	-56.5	-60.8	3.6	0.00e+00	0	49	104	0	60	130084
2026-01-28 08:41:31.42	216.20	0.38	-56.5	-60.8	3.6	0.00e+00	0	49	104	0	60	129988
2026-01-28 08:41:32.43	216.18	0.31	-56.5	-60.9	3.6	0.00e+00	0	48	104	0	60	130631
2026-01-28 08:41:33.43	216.16	0.25	-56.5	-60.8	3.6	0.00e+00	0	48	104	0	60	130235
2026-01-28 08:41:34.44	216.14	0.18	-56.5	-60.9	3.6	0.00e+00	0	48	104	0	60	130692
2026-01-28 08:41:35.45	216.13	0.12	-56.5	-60.8	3.6	0.00e+00	0	48	104	0	60	130463
2026-01-28 08:41:36.46	216.11	0.05	-56.4	-60.8	3.6	0.00e+00	0	48	104	0	60	129907
2026-01-28 08:41:37.47	216.09	-0.01	-56.5	-60.8	3.6	0.00e+00	0	48	104	0	60	130136
2026-01-28 08:41:38.48	216.07	-0.07	-56.5	-60.8	3.6	0.00e+00	0	48	104	0	60	130409
2026-01-28 08:41:39.48	216.06	-0.14	-56.5	-60.8	3.5	0.00e+00	0	48	104	0	60	129929

#Closed at: 2026-01-28 08:41:40
#Recorded file [0 MB]: D:/Data/35015_260128_113428.dat