passes_logs/2026/01/28/R3.2S-Naryan-Mar/R3.2S-Naryan-Mar__20260128_222728_SUOMI_NPP_rec.log

#Pass ID: 20260128_222728_SUOMI NPP
#Satellite: SUOMI NPP
#Configuration: NPP
#almurnet v.1.7.20240730
#Start time: 2026-01-28 22:27:29

#Version: 2.2.20231116
#Station: R3.2S-Naryan-Mar
#Location: 53.008057 lon 67.646978 lat
#TLE: 1 37849U 11061A   26027.86188320  .00000172  00000+0  10275-3 0  9990
#TLE: 2 37849  98.7823 329.8005 0002088  41.4184 318.7150 14.19530883738530

#Time	Az	El	Level	Level2	SNR	BER	BlckErr	Temp	State	Recorded	gain1	gain2
2026-01-28 22:27:29.24	20.20	0.02	-60.5	-75.4	3.5	1.51e+00	0	44	0	0	60	223310
2026-01-28 22:27:30.25	20.23	0.08	-61.7	-78.1	3.6	1.51e+00	0	45	104	0	60	314750
2026-01-28 22:27:31.25	20.26	0.14	-61.8	-78.1	3.6	1.51e+00	0	45	104	0	60	315953
2026-01-28 22:27:32.26	20.28	0.20	-61.9	-78.2	3.6	1.51e+00	0	45	104	0	60	317466
2026-01-28 22:27:33.27	20.31	0.26	-61.7	-78.1	3.6	1.51e+00	0	45	104	0	60	315910
2026-01-28 22:27:34.27	20.34	0.32	-61.9	-78.3	3.6	1.51e+00	0	45	104	0	60	320706
2026-01-28 22:27:35.28	20.36	0.38	-61.8	-78.2	3.6	1.51e+00	0	45	104	0	60	317663
2026-01-28 22:27:36.29	20.39	0.44	-61.7	-78.1	3.5	1.51e+00	0	45	104	0	60	316175
2026-01-28 22:27:37.30	20.42	0.50	-61.7	-78.0	3.6	1.51e+00	0	45	104	0	60	309805
2026-01-28 22:27:38.30	20.44	0.56	-61.4	-78.1	3.6	1.51e+00	0	45	104	0	60	313104
2026-01-28 22:27:39.31	20.47	0.62	-61.2	-78.0	3.6	1.51e+00	0	45	104	0	60	311224
2026-01-28 22:27:40.32	20.50	0.68	-61.8	-78.1	3.6	1.51e+00	0	45	104	0	60	313769
2026-01-28 22:27:41.33	20.53	0.74	-61.2	-78.0	3.6	1.51e+00	0	45	104	0	60	310299
2026-01-28 22:27:42.33	20.55	0.80	-60.9	-77.6	3.6	1.51e+00	0	45	104	0	60	296919
2026-01-28 22:27:43.34	20.58	0.86	-59.9	-77.4	3.6	1.51e+00	0	45	104	0	60	289744
2026-01-28 22:27:44.35	20.61	0.92	-60.5	-77.0	3.6	1.51e+00	0	45	104	0	60	278091
2026-01-28 22:27:45.36	20.64	0.98	-60.5	-77.0	3.6	1.51e+00	0	45	104	0	60	277665
2026-01-28 22:27:46.36	20.66	1.04	-55.8	-75.3	3.6	1.51e+00	0	45	104	0	60	228812
2026-01-28 22:27:47.37	20.69	1.10	-58.7	-76.5	3.6	1.51e+00	0	45	104	0	60	262430
2026-01-28 22:27:48.37	20.72	1.16	-58.8	-76.4	3.6	1.51e+00	0	45	104	0	60	260046
2026-01-28 22:27:49.38	20.75	1.22	-58.8	-76.4	3.6	1.51e+00	0	45	104	0	60	260323
2026-01-28 22:27:50.39	20.78	1.28	-59.0	-76.6	3.6	1.51e+00	0	45	104	0	60	263580
2026-01-28 22:27:51.39	20.81	1.35	-58.9	-76.5	3.6	1.51e+00	0	45	104	0	60	262005
2026-01-28 22:27:52.40	20.83	1.41	-58.9	-76.4	3.6	1.51e+00	0	45	104	0	60	258423
2026-01-28 22:27:53.40	20.86	1.47	-58.9	-76.4	3.6	1.51e+00	0	45	104	0	60	258114
2026-01-28 22:27:54.41	20.89	1.53	-58.9	-76.4	3.6	1.51e+00	0	45	104	0	60	259350
2026-01-28 22:27:55.41	20.92	1.59	-58.9	-76.5	3.6	1.51e+00	0	45	104	0	60	262201
2026-01-28 22:27:56.42	20.95	1.65	-59.0	-76.5	3.6	1.51e+00	0	45	104	0	60	260483
2026-01-28 22:27:57.43	20.98	1.72	-59.0	-76.4	3.6	1.51e+00	0	45	104	0	60	258858
2026-01-28 22:27:58.44	21.01	1.78	-58.9	-76.5	3.6	1.51e+00	0	45	104	0	60	261358
2026-01-28 22:27:59.45	21.04	1.84	-58.9	-76.4	3.6	1.51e+00	0	45	104	0	60	259412
2026-01-28 22:28:00.45	21.07	1.90	-58.8	-76.4	3.6	1.51e+00	0	45	104	0	60	258526
2026-01-28 22:28:01.46	21.10	1.97	-58.8	-76.4	3.6	1.51e+00	0	45	104	0	60	258778
2026-01-28 22:28:02.47	21.12	2.03	-58.9	-76.4	3.6	1.51e+00	0	45	104	0	60	257969
2026-01-28 22:28:03.48	21.15	2.09	-58.8	-76.4	3.6	1.51e+00	0	45	104	0	60	257627
2026-01-28 22:28:04.48	21.18	2.15	-58.9	-76.4	3.6	1.51e+00	0	45	104	0	60	258368
2026-01-28 22:28:05.49	21.21	2.22	-58.9	-76.5	3.6	1.51e+00	0	45	104	0	60	260527
2026-01-28 22:28:06.50	21.24	2.28	-58.9	-76.4	3.6	1.51e+00	0	45	104	0	60	257509
2026-01-28 22:28:07.50	21.27	2.34	-58.9	-76.4	3.6	1.51e+00	0	46	104	0	60	259783
2026-01-28 22:28:08.50	21.30	2.41	-58.9	-76.4	3.6	1.51e+00	0	45	104	0	60	259300
2026-01-28 22:28:09.51	21.33	2.47	-58.9	-76.3	3.6	1.51e+00	0	45	104	0	60	257091
2026-01-28 22:28:10.51	21.36	2.53	-58.8	-76.4	3.6	1.51e+00	0	46	104	0	60	258046
2026-01-28 22:28:11.52	21.39	2.60	-58.8	-76.3	3.6	1.51e+00	0	46	104	0	60	256930
2026-01-28 22:28:12.52	21.42	2.66	-58.8	-76.3	3.6	1.51e+00	0	45	104	0	60	256590
2026-01-28 22:28:13.53	21.46	2.73	-58.7	-76.3	3.6	1.51e+00	0	45	104	0	60	256817
2026-01-28 22:28:14.52	21.49	2.79	-58.7	-76.4	3.6	1.51e+00	0	45	104	0	60	258411
2026-01-28 22:28:15.53	21.52	2.85	-58.8	-76.3	3.6	1.51e+00	0	45	104	0	60	256550
2026-01-28 22:28:16.54	21.55	2.92	-58.6	-76.3	3.6	1.51e+00	0	45	104	0	60	256805
2026-01-28 22:28:17.54	21.58	2.98	-58.7	-76.3	3.6	1.51e+00	0	46	104	0	60	256671
2026-01-28 22:28:18.55	21.61	3.05	-58.7	-76.3	3.6	1.51e+00	0	45	104	0	60	257044
2026-01-28 22:28:19.56	21.64	3.11	-58.7	-76.2	3.6	1.51e+00	0	45	104	0	60	253979
2026-01-28 22:28:20.57	21.67	3.18	-58.7	-76.2	3.6	1.51e+00	0	45	104	0	60	253799
2026-01-28 22:28:21.57	21.70	3.24	-58.7	-76.3	3.6	1.51e+00	0	46	104	0	60	254933
2026-01-28 22:28:22.58	21.74	3.31	-58.7	-76.4	3.6	1.51e+00	0	46	104	0	60	257759
2026-01-28 22:28:23.59	21.77	3.38	-58.7	-76.4	3.6	1.51e+00	0	46	104	0	60	257658
2026-01-28 22:28:24.60	21.80	3.44	-58.7	-76.4	3.6	1.51e+00	0	46	104	0	60	258429
2026-01-28 22:28:25.60	21.83	3.51	-58.6	-76.3	3.6	1.51e+00	0	46	104	0	60	254668
2026-01-28 22:28:26.61	21.87	3.57	-58.6	-76.3	3.6	1.51e+00	0	46	104	0	60	255464
2026-01-28 22:28:27.61	21.90	3.64	-58.6	-76.2	3.6	1.51e+00	0	46	104	0	60	252397
2026-01-28 22:28:28.62	21.93	3.71	-58.4	-76.2	3.6	1.51e+00	0	45	104	0	60	253475
2026-01-28 22:28:29.62	21.96	3.77	-58.4	-76.1	3.6	1.51e+00	0	46	104	0	60	250916
2026-01-28 22:28:30.63	21.99	3.84	-58.4	-76.2	3.6	1.51e+00	0	46	104	0	60	252750
2026-01-28 22:28:31.64	22.03	3.91	-58.4	-76.3	3.6	1.51e+00	0	46	104	0	60	256400
2026-01-28 22:28:32.65	22.06	3.97	-58.4	-76.3	3.6	1.51e+00	0	46	104	0	60	255873
2026-01-28 22:28:33.66	22.09	4.04	-58.4	-76.2	3.6	1.51e+00	0	46	104	0	60	254366
2026-01-28 22:28:34.66	22.13	4.11	-58.6	-76.3	3.6	1.51e+00	0	46	104	0	60	255558
2026-01-28 22:28:35.67	22.16	4.18	-58.6	-76.2	3.6	1.51e+00	0	46	104	0	60	253761
2026-01-28 22:28:36.68	22.19	4.24	-58.6	-76.2	3.6	1.51e+00	0	46	104	0	60	252732
2026-01-28 22:28:37.69	22.23	4.31	-58.6	-76.2	3.5	1.51e+00	0	46	104	0	60	253581
2026-01-28 22:28:38.70	22.26	4.38	-58.6	-76.2	3.6	1.51e+00	0	46	104	0	60	254113
2026-01-28 22:28:39.70	22.30	4.45	-58.7	-76.3	3.6	1.51e+00	0	46	104	0	60	254672
2026-01-28 22:28:40.71	22.33	4.52	-58.6	-76.3	3.6	1.51e+00	0	46	104	0	60	255390
2026-01-28 22:28:41.72	22.36	4.59	-58.6	-76.3	3.6	1.51e+00	0	46	104	0	60	255777
2026-01-28 22:28:42.72	22.40	4.65	-58.6	-76.3	3.6	1.51e+00	0	46	104	0	60	255936
2026-01-28 22:28:43.73	22.43	4.72	-58.6	-76.2	3.6	1.51e+00	0	46	104	0	60	252255
2026-01-28 22:28:44.73	22.47	4.79	-58.7	-76.3	3.6	1.51e+00	0	46	104	0	60	255308
2026-01-28 22:28:45.74	22.50	4.86	-58.7	-76.3	3.6	1.51e+00	0	46	104	0	60	254706
2026-01-28 22:28:46.75	22.54	4.93	-58.6	-76.2	3.6	1.51e+00	0	46	104	0	60	253532
2026-01-28 22:28:47.76	22.57	5.00	-58.6	-76.2	3.6	1.51e+00	0	46	104	0	60	254140
2026-01-28 22:28:48.76	22.61	5.07	-58.7	-76.3	3.6	1.51e+00	0	46	104	0	60	255861
2026-01-28 22:28:49.77	22.64	5.14	-58.7	-76.3	3.6	1.51e+00	0	46	104	0	60	254554
2026-01-28 22:28:50.78	22.68	5.21	-58.7	-76.3	3.6	1.51e+00	0	46	104	0	60	255865
2026-01-28 22:28:51.79	22.71	5.28	-58.6	-76.3	3.6	1.51e+00	0	46	104	0	60	255961
2026-01-28 22:28:52.80	22.75	5.35	-58.6	-76.4	3.6	1.51e+00	0	46	104	0	60	258011
2026-01-28 22:28:53.80	22.79	5.42	-58.6	-76.1	3.6	1.51e+00	0	46	104	0	60	250655
2026-01-28 22:28:54.81	22.82	5.49	-58.6	-76.2	3.6	1.51e+00	0	46	104	0	60	253838
2026-01-28 22:28:55.82	22.86	5.56	-58.6	-76.3	3.6	1.51e+00	0	46	104	0	60	255473
2026-01-28 22:28:56.83	22.89	5.64	-58.6	-76.2	3.6	1.51e+00	0	46	104	0	60	253200
2026-01-28 22:28:57.84	22.93	5.71	-58.6	-76.2	3.6	1.51e+00	0	46	104	0	60	252162
2026-01-28 22:28:58.84	22.97	5.78	-58.5	-76.0	3.6	1.51e+00	0	46	104	0	60	247243
2026-01-28 22:28:59.85	23.00	5.85	-58.5	-76.1	3.5	1.51e+00	0	46	104	0	60	251348
2026-01-28 22:29:00.86	23.04	5.92	-58.5	-76.1	3.6	1.51e+00	0	46	104	0	60	249461
2026-01-28 22:29:01.86	23.08	5.99	-58.5	-75.9	3.6	1.51e+00	0	46	104	0	60	245583
2026-01-28 22:29:02.87	23.12	6.07	-59.8	-76.4	3.6	1.51e+00	0	46	104	0	60	259281
2026-01-28 22:29:03.88	23.15	6.14	-59.2	-76.3	3.6	1.51e+00	0	46	104	0	60	256667
2026-01-28 22:29:04.88	23.19	6.21	-56.0	-75.2	3.6	1.51e+00	0	46	104	0	60	226596
2026-01-28 22:29:05.89	23.23	6.29	-59.5	-76.4	3.6	1.51e+00	0	46	104	0	60	257595
2026-01-28 22:29:06.90	23.27	6.36	-57.5	-75.7	3.6	1.51e+00	0	46	104	0	60	239688
2026-01-28 22:29:07.91	23.31	6.43	-58.7	-76.3	3.6	1.51e+00	0	46	104	0	60	255868
2026-01-28 22:29:08.91	23.34	6.51	-58.0	-75.9	3.6	1.51e+00	0	46	104	0	60	243480
2026-01-28 22:29:09.92	23.38	6.58	-56.9	-75.6	3.6	1.51e+00	0	46	104	0	60	235860
2026-01-28 22:29:10.93	23.42	6.65	-59.8	-76.6	3.6	1.51e+00	0	46	104	0	60	265595
2026-01-28 22:29:11.94	23.46	6.73	-59.2	-76.5	3.6	1.51e+00	0	46	104	0	60	261488
2026-01-28 22:29:12.94	23.50	6.80	-59.1	-76.2	3.6	1.51e+00	0	46	104	0	60	253057
2026-01-28 22:29:13.95	23.54	6.88	-57.6	-76.3	3.6	1.51e+00	0	46	104	0	60	254602
2026-01-28 22:29:14.96	23.58	6.95	-56.2	-75.2	3.6	1.51e+00	0	46	104	0	60	226634
2026-01-28 22:29:15.97	23.62	7.03	-57.8	-75.9	3.6	1.51e+00	0	46	104	0	60	243739
2026-01-28 22:29:16.98	23.66	7.10	-56.4	-75.1	3.6	1.51e+00	0	46	104	0	60	222846
2026-01-28 22:29:17.98	23.70	7.18	-56.0	-74.9	3.6	1.51e+00	0	46	104	0	60	218703
2026-01-28 22:29:18.99	23.74	7.25	-58.1	-76.5	3.6	1.51e+00	0	46	104	0	60	260451
2026-01-28 22:29:20.00	23.78	7.33	-60.0	-76.7	3.5	1.51e+00	0	46	104	0	60	268233
2026-01-28 22:29:21.00	23.82	7.40	-59.1	-76.0	3.6	1.51e+00	0	46	104	0	60	246418
2026-01-28 22:29:22.01	23.86	7.48	-58.1	-76.2	3.6	1.51e+00	0	46	104	0	60	252033
2026-01-28 22:29:23.01	23.90	7.56	-59.2	-76.4	3.6	1.51e+00	0	46	104	0	60	257585
2026-01-28 22:29:24.02	23.94	7.63	-59.0	-76.2	3.6	1.51e+00	0	46	104	0	60	253543
2026-01-28 22:29:25.03	23.98	7.71	-59.5	-76.3	3.5	1.51e+00	0	46	104	0	60	256199
2026-01-28 22:29:26.04	24.02	7.79	-59.8	-76.4	3.6	1.51e+00	0	46	104	0	60	259180
2026-01-28 22:29:27.04	24.06	7.87	-60.1	-76.7	3.6	1.51e+00	0	46	104	0	60	268511
2026-01-28 22:29:28.05	24.11	7.94	-59.9	-76.9	3.6	1.51e+00	0	46	104	0	60	273499
2026-01-28 22:29:29.06	24.15	8.02	-57.5	-75.8	3.5	1.51e+00	0	46	104	0	60	241354
2026-01-28 22:29:30.06	24.19	8.10	-60.2	-76.7	3.6	1.51e+00	0	46	104	0	60	267105
2026-01-28 22:29:31.07	24.23	8.18	-57.4	-76.4	3.6	1.51e+00	0	46	104	0	60	258997
2026-01-28 22:29:32.08	24.27	8.26	-57.2	-76.1	3.6	1.51e+00	0	46	104	0	60	251315
2026-01-28 22:29:33.09	24.32	8.33	-57.6	-76.4	3.6	1.51e+00	0	46	104	0	60	258628
2026-01-28 22:29:34.09	24.36	8.41	-58.2	-76.7	3.6	1.51e+00	0	46	104	0	60	266945
2026-01-28 22:29:35.09	24.40	8.49	-58.0	-76.4	3.6	1.51e+00	0	46	104	0	60	258547
2026-01-28 22:29:36.10	24.45	8.57	-60.1	-76.8	3.6	1.51e+00	0	46	104	0	60	269818
2026-01-28 22:29:37.10	24.49	8.65	-58.7	-76.4	3.6	1.51e+00	0	46	104	0	60	258940
2026-01-28 22:29:38.11	24.53	8.73	-59.9	-76.3	3.6	1.51e+00	0	46	104	0	60	256591
2026-01-28 22:29:39.12	24.58	8.81	-60.0	-76.7	3.6	1.51e+00	0	46	104	0	60	268105
2026-01-28 22:29:40.13	24.62	8.89	-60.4	-76.3	3.5	1.51e+00	0	46	104	0	60	256165
2026-01-28 22:29:41.14	24.67	8.97	-60.1	-76.1	3.6	1.51e+00	0	46	104	0	60	249806
2026-01-28 22:29:42.15	24.71	9.05	-60.0	-76.1	3.6	1.51e+00	0	46	104	0	60	249230
2026-01-28 22:29:43.15	24.76	9.13	-59.0	-76.6	3.6	1.51e+00	0	46	104	0	60	265050
2026-01-28 22:29:44.16	24.80	9.22	-59.5	-76.8	3.6	1.51e+00	0	46	104	0	60	272468
2026-01-28 22:29:45.16	24.85	9.30	-59.8	-76.2	3.6	1.51e+00	0	46	104	0	60	251716
2026-01-28 22:29:46.17	24.89	9.38	-60.4	-76.7	3.6	1.51e+00	0	46	104	0	60	266626
2026-01-28 22:29:47.17	24.94	9.46	-59.3	-76.7	3.6	1.51e+00	0	46	104	0	60	266947
2026-01-28 22:29:48.18	24.98	9.54	-59.4	-76.2	3.5	1.51e+00	0	46	104	0	60	251581
2026-01-28 22:29:49.18	25.03	9.63	-59.5	-76.4	3.6	1.51e+00	0	46	104	0	60	259317
2026-01-28 22:29:50.18	25.08	9.71	-59.7	-76.5	3.6	1.51e+00	0	46	104	0	60	261663
2026-01-28 22:29:51.19	25.12	9.79	-60.3	-76.7	3.6	1.51e+00	0	46	104	0	60	268157
2026-01-28 22:29:52.19	25.17	9.88	-59.6	-76.6	3.6	1.51e+00	0	46	104	0	60	265914
2026-01-28 22:29:53.20	25.22	9.96	-60.3	-76.1	3.6	1.51e+00	0	46	104	0	60	251175
2026-01-28 22:29:54.21	25.27	10.04	-58.7	-76.2	3.6	1.51e+00	0	46	104	0	60	253489
2026-01-28 22:29:55.21	25.31	10.13	-59.5	-76.5	3.6	1.51e+00	0	46	104	0	60	261326
2026-01-28 22:29:56.22	25.36	10.21	-59.4	-76.2	3.6	1.51e+00	0	46	104	0	60	253128
2026-01-28 22:29:57.22	25.41	10.30	-58.8	-76.1	3.6	1.51e+00	0	46	104	0	60	250745
2026-01-28 22:29:58.23	25.46	10.38	-58.8	-76.3	3.6	1.51e+00	0	46	104	0	60	254446
2026-01-28 22:29:59.24	25.51	10.47	-57.7	-76.8	3.6	1.51e+00	0	46	104	0	60	270960
2026-01-28 22:30:00.25	25.56	10.55	-59.6	-76.9	3.6	1.51e+00	0	46	104	0	60	274485
2026-01-28 22:30:01.25	25.61	10.64	-59.0	-76.0	3.6	1.51e+00	0	46	104	0	60	246463
2026-01-28 22:30:02.26	25.65	10.73	-59.8	-76.6	3.6	1.51e+00	0	46	104	0	60	264756
2026-01-28 22:30:03.27	25.70	10.81	-58.8	-76.5	3.6	1.51e+00	0	46	104	0	60	260354
2026-01-28 22:30:04.28	25.76	10.90	-59.2	-76.4	3.6	1.51e+00	0	46	104	0	60	259493
2026-01-28 22:30:05.28	25.81	10.99	-59.8	-76.5	3.6	1.51e+00	0	46	104	0	60	261450
2026-01-28 22:30:06.29	25.86	11.07	-59.9	-76.4	3.6	1.51e+00	0	46	104	0	60	258656
2026-01-28 22:30:07.30	25.91	11.16	-59.7	-76.5	3.6	1.51e+00	0	46	104	0	60	261960
2026-01-28 22:30:08.31	25.96	11.25	-59.6	-76.8	3.6	1.51e+00	0	46	104	0	60	271395
2026-01-28 22:30:09.31	26.01	11.34	-59.7	-76.1	3.6	1.51e+00	0	46	104	0	60	249024
2026-01-28 22:30:10.32	26.06	11.43	-59.8	-76.4	3.6	1.51e+00	0	46	104	0	60	259334
2026-01-28 22:30:11.32	26.11	11.52	-59.6	-76.6	3.6	1.51e+00	0	46	104	0	60	263787
2026-01-28 22:30:12.33	26.17	11.60	-59.8	-76.5	3.6	1.51e+00	0	46	104	0	60	263163
2026-01-28 22:30:13.34	26.22	11.69	-59.9	-76.5	3.5	1.51e+00	0	46	104	0	60	260654
2026-01-28 22:30:14.35	26.27	11.78	-59.8	-76.4	3.6	1.51e+00	0	46	104	0	60	258327
2026-01-28 22:30:15.36	26.32	11.88	-58.4	-76.2	3.6	1.51e+00	0	46	104	0	60	252134
2026-01-28 22:30:16.37	26.38	11.97	-59.7	-76.6	3.6	1.51e+00	0	46	104	0	60	266241
2026-01-28 22:30:17.37	26.43	12.06	-59.8	-76.2	3.6	1.51e+00	0	46	104	0	60	251706
2026-01-28 22:30:18.38	26.49	12.15	-58.9	-76.6	3.6	1.51e+00	0	46	104	0	60	265319
2026-01-28 22:30:19.38	26.54	12.24	-60.3	-76.5	3.6	1.51e+00	0	46	104	0	60	261537
2026-01-28 22:30:20.39	26.60	12.33	-59.9	-76.3	3.6	1.51e+00	0	46	104	0	60	255185
2026-01-28 22:30:21.39	26.65	12.42	-59.5	-76.1	3.6	1.51e+00	0	46	104	0	60	249191
2026-01-28 22:30:22.39	26.70	12.51	-59.4	-76.1	3.6	1.51e+00	0	46	104	0	60	248772
2026-01-28 22:30:23.40	26.76	12.61	-59.4	-76.2	3.6	1.51e+00	0	46	104	0	60	253151
2026-01-28 22:30:24.40	26.82	12.70	-58.7	-76.2	3.6	1.51e+00	0	46	104	0	60	252135
2026-01-28 22:30:25.41	26.87	12.79	-60.1	-76.4	3.6	1.51e+00	0	46	104	0	60	258309
2026-01-28 22:30:26.41	26.93	12.89	-58.7	-76.4	3.6	1.51e+00	0	46	104	0	60	258542
2026-01-28 22:30:27.42	26.99	12.98	-59.0	-76.1	3.6	1.51e+00	0	46	104	0	60	250064
2026-01-28 22:30:28.43	27.04	13.08	-59.0	-76.2	3.6	1.51e+00	0	46	104	0	60	253007
2026-01-28 22:30:29.44	27.10	13.17	-59.1	-76.3	3.6	1.51e+00	0	46	104	0	60	254669
2026-01-28 22:30:30.45	27.16	13.27	-59.6	-76.3	3.6	1.51e+00	0	46	104	0	60	254511
2026-01-28 22:30:31.46	27.22	13.36	-57.9	-76.3	3.6	1.51e+00	0	46	104	0	60	254886
2026-01-28 22:30:32.46	27.28	13.46	-59.4	-76.2	3.6	1.51e+00	0	46	104	0	60	251989
2026-01-28 22:30:33.47	27.34	13.55	-60.2	-76.7	3.6	1.51e+00	0	46	104	0	60	268131
2026-01-28 22:30:34.47	27.39	13.65	-60.3	-76.8	3.6	1.51e+00	0	46	104	0	60	270760
2026-01-28 22:30:35.48	27.45	13.75	-58.0	-75.5	3.6	1.51e+00	0	46	104	0	60	233285
2026-01-28 22:30:36.49	27.52	13.84	-57.9	-75.0	3.6	1.51e+00	0	46	104	0	60	221162
2026-01-28 22:30:37.49	27.58	13.94	-57.9	-75.3	3.6	1.51e+00	0	46	104	0	60	228647
2026-01-28 22:30:38.49	27.64	14.04	-57.9	-76.0	3.6	1.51e+00	0	46	104	0	60	247742
2026-01-28 22:30:39.50	27.70	14.14	-60.3	-76.6	3.6	1.51e+00	0	46	104	0	60	266357
2026-01-28 22:30:40.51	27.76	14.24	-59.9	-76.2	3.6	1.51e+00	0	46	104	0	60	253310
2026-01-28 22:30:41.52	27.82	14.34	-60.0	-76.7	3.6	1.51e+00	0	46	104	0	60	267184
2026-01-28 22:30:42.52	27.88	14.43	-59.9	-76.6	3.6	1.51e+00	0	46	104	0	60	265184
2026-01-28 22:30:43.53	27.95	14.53	-58.2	-75.7	3.6	1.51e+00	0	46	104	0	60	239028
2026-01-28 22:30:44.54	28.01	14.63	-57.8	-75.7	3.6	1.51e+00	0	46	104	0	60	238917
2026-01-28 22:30:45.55	28.07	14.74	-58.3	-75.6	3.6	1.51e+00	0	46	104	0	60	237145
2026-01-28 22:30:46.55	28.14	14.84	-59.4	-75.8	3.6	1.51e+00	0	46	104	0	60	240272
2026-01-28 22:30:47.56	28.20	14.94	-60.2	-76.3	3.6	1.51e+00	0	46	104	0	60	257347
2026-01-28 22:30:48.56	28.27	15.04	-60.2	-76.4	3.6	1.51e+00	0	46	104	0	60	258546
2026-01-28 22:30:49.57	28.33	15.14	-58.7	-76.4	3.6	1.51e+00	0	46	104	0	60	260157
2026-01-28 22:30:50.58	28.40	15.24	-59.8	-76.3	3.6	1.51e+00	0	46	104	0	60	256489
2026-01-28 22:30:51.58	28.46	15.35	-60.0	-75.9	3.6	1.51e+00	0	46	104	0	60	243661
2026-01-28 22:30:52.59	28.53	15.45	-60.1	-76.0	3.6	1.51e+00	0	46	104	0	60	248527
2026-01-28 22:30:53.60	28.60	15.55	-60.1	-75.9	3.6	1.51e+00	0	46	104	0	60	245252
2026-01-28 22:30:54.60	28.66	15.66	-59.9	-75.4	3.6	1.51e+00	0	46	104	0	60	231167
2026-01-28 22:30:55.61	28.73	15.76	-58.0	-76.2	3.6	1.51e+00	0	46	104	0	60	252239
2026-01-28 22:30:56.61	28.80	15.87	-60.2	-76.2	3.6	1.51e+00	0	46	104	0	60	253244
2026-01-28 22:30:57.62	28.87	15.97	-58.1	-76.1	3.6	1.51e+00	0	46	104	0	60	250030
2026-01-28 22:30:58.62	28.94	16.08	-57.2	-75.9	3.6	1.51e+00	0	46	104	0	60	244020
2026-01-28 22:30:59.63	29.01	16.19	-59.7	-75.7	3.6	1.51e+00	0	46	104	0	60	238534
2026-01-28 22:31:00.64	29.08	16.29	-59.6	-75.8	3.6	1.51e+00	0	46	104	0	60	242886
2026-01-28 22:31:01.65	29.15	16.40	-59.6	-76.0	3.6	1.51e+00	0	46	104	0	60	246192
2026-01-28 22:31:02.65	29.22	16.51	-58.2	-75.4	3.5	1.51e+00	0	46	104	0	60	230695
2026-01-28 22:31:03.66	29.29	16.62	-57.5	-76.2	3.6	1.51e+00	0	46	104	0	60	253350
2026-01-28 22:31:04.67	29.36	16.72	-57.6	-75.5	3.5	1.51e+00	0	46	104	0	60	232818
2026-01-28 22:31:05.68	29.43	16.83	-59.2	-75.9	3.6	1.51e+00	0	46	104	0	60	243181
2026-01-28 22:31:06.69	29.51	16.94	-58.0	-75.8	3.5	1.51e+00	0	46	104	0	60	240207
2026-01-28 22:31:07.70	29.58	17.05	-57.8	-75.5	3.6	1.51e+00	0	46	104	0	60	234407
2026-01-28 22:31:08.70	29.65	17.16	-58.3	-75.2	3.6	1.51e+00	0	46	104	0	60	226694
2026-01-28 22:31:09.71	29.73	17.27	-58.1	-74.8	3.6	1.51e+00	0	46	104	0	60	215651
2026-01-28 22:31:10.71	29.80	17.38	-58.2	-75.6	3.5	1.51e+00	0	46	104	0	60	235369
2026-01-28 22:31:11.72	29.88	17.50	-59.1	-76.4	3.6	1.51e+00	0	46	104	0	60	259514
2026-01-28 22:31:12.73	29.95	17.61	-58.4	-76.1	3.6	1.51e+00	0	46	104	0	60	250098
2026-01-28 22:31:13.73	30.03	17.72	-57.4	-75.9	3.6	1.51e+00	0	46	104	0	60	245092
2026-01-28 22:31:14.74	30.11	17.83	-57.5	-75.2	3.6	1.51e+00	0	46	104	0	60	224946
2026-01-28 22:31:15.74	30.18	17.95	-58.0	-75.8	3.6	1.51e+00	0	46	104	0	60	240633
2026-01-28 22:31:16.75	30.26	18.06	-57.3	-75.7	3.6	1.51e+00	0	46	104	0	60	240180
2026-01-28 22:31:17.76	30.34	18.18	-58.2	-76.2	3.6	1.51e+00	0	46	104	0	60	254181
2026-01-28 22:31:18.76	30.42	18.29	-56.7	-76.5	3.5	1.51e+00	0	46	104	0	60	261163
2026-01-28 22:31:19.77	30.50	18.41	-56.3	-74.8	3.6	1.51e+00	0	46	104	0	60	216135
2026-01-28 22:31:20.78	30.58	18.52	-56.2	-74.5	3.6	1.51e+00	0	46	104	0	60	209069
2026-01-28 22:31:21.79	30.66	18.64	-58.9	-76.7	3.6	1.51e+00	0	46	104	0	60	269187
2026-01-28 22:31:22.80	30.74	18.76	-57.9	-75.2	3.6	1.51e+00	0	46	104	0	60	225551
2026-01-28 22:31:23.80	30.83	18.88	-57.0	-74.9	3.6	1.51e+00	0	46	104	0	60	216727
2026-01-28 22:31:24.81	30.91	18.99	-57.1	-75.1	3.6	1.51e+00	0	46	104	0	60	222609
2026-01-28 22:31:25.82	30.99	19.11	-57.5	-75.3	3.6	1.51e+00	0	46	104	0	60	227035
2026-01-28 22:31:26.83	31.08	19.23	-57.9	-75.2	3.6	1.51e+00	0	46	104	0	60	225043
2026-01-28 22:31:27.83	31.16	19.35	-59.7	-76.6	3.6	1.51e+00	0	46	104	0	60	263661
2026-01-28 22:31:28.83	31.25	19.47	-58.1	-75.7	3.6	1.51e+00	0	46	104	0	60	238918
2026-01-28 22:31:29.84	31.33	19.59	-59.3	-76.1	3.6	1.51e+00	0	46	104	0	60	250125
2026-01-28 22:31:30.85	31.42	19.71	-57.8	-75.6	3.6	1.51e+00	0	46	104	0	60	235044
2026-01-28 22:31:31.85	31.51	19.83	-59.1	-75.6	3.6	1.51e+00	0	46	104	0	60	236316
2026-01-28 22:31:32.86	31.59	19.96	-59.0	-75.4	3.6	1.51e+00	0	46	104	0	60	230478
2026-01-28 22:31:33.87	31.68	20.08	-58.5	-75.4	3.6	1.51e+00	0	46	104	0	60	231339
2026-01-28 22:31:34.88	31.77	20.20	-60.1	-76.7	3.6	1.51e+00	0	46	104	0	60	268203
2026-01-28 22:31:35.88	31.86	20.33	-59.5	-77.0	3.6	1.51e+00	0	46	104	0	60	275805
2026-01-28 22:31:36.89	31.95	20.45	-59.4	-75.4	3.6	1.51e+00	0	46	104	0	60	230490
2026-01-28 22:31:37.90	32.04	20.58	-59.7	-76.0	3.6	1.51e+00	0	46	104	0	60	247976
2026-01-28 22:31:38.91	32.14	20.70	-58.5	-75.4	3.6	1.51e+00	0	46	104	0	60	231551
2026-01-28 22:31:39.91	32.23	20.83	-58.7	-75.2	3.6	1.51e+00	0	46	104	0	60	225084
2026-01-28 22:31:40.92	32.32	20.96	-59.3	-75.5	3.6	1.51e+00	0	46	104	0	60	233149
2026-01-28 22:31:41.92	32.41	21.08	-60.1	-75.5	3.6	1.51e+00	0	46	104	0	60	233480
2026-01-28 22:31:42.93	32.51	21.21	-56.7	-75.7	3.6	1.51e+00	0	46	104	0	60	239785
2026-01-28 22:31:43.93	32.60	21.34	-56.6	-76.4	3.6	1.51e+00	0	46	104	0	60	258581
2026-01-28 22:31:44.94	32.70	21.47	-59.8	-75.4	3.6	1.51e+00	0	46	104	0	60	231652
2026-01-28 22:31:45.95	32.80	21.60	-60.4	-76.2	3.6	1.51e+00	0	46	104	0	60	253105
2026-01-28 22:31:46.96	32.90	21.73	-57.4	-76.0	3.6	1.51e+00	0	46	104	0	60	246970
2026-01-28 22:31:47.96	32.99	21.86	-57.6	-75.5	3.6	1.51e+00	0	46	104	0	60	232280
2026-01-28 22:31:48.97	33.09	21.99	-57.3	-75.5	3.6	1.51e+00	0	46	104	0	60	232181
2026-01-28 22:31:49.98	33.20	22.12	-56.7	-75.4	3.6	1.51e+00	0	46	104	0	60	229907
2026-01-28 22:31:50.98	33.30	22.25	-58.3	-76.1	3.6	1.51e+00	0	46	104	0	60	250707
2026-01-28 22:31:51.98	33.40	22.39	-58.7	-76.0	3.6	1.51e+00	0	46	104	0	60	248169
2026-01-28 22:31:52.99	33.50	22.52	-59.3	-76.6	3.6	1.51e+00	0	46	104	0	60	264046
2026-01-28 22:31:54.00	33.60	22.65	-59.1	-76.6	3.6	1.51e+00	0	46	104	0	60	266111
2026-01-28 22:31:55.01	33.71	22.79	-59.1	-75.6	3.6	1.51e+00	0	46	104	0	60	234950
2026-01-28 22:31:56.02	33.81	22.93	-57.6	-74.7	3.6	1.51e+00	0	46	104	0	60	213348
2026-01-28 22:31:57.02	33.92	23.06	-58.7	-75.1	3.6	1.51e+00	0	46	104	0	60	222641
2026-01-28 22:31:58.03	34.03	23.20	-59.1	-75.2	3.6	1.50e+00	0	46	104	0	60	224182
2026-01-28 22:31:59.04	34.14	23.34	-59.6	-76.5	3.6	1.51e+00	0	46	104	0	60	261873
2026-01-28 22:32:00.05	34.25	23.48	-59.6	-76.4	3.6	1.51e+00	0	46	104	0	60	259882
2026-01-28 22:32:01.06	34.36	23.61	-60.3	-76.6	3.6	1.51e+00	0	46	104	0	60	264074
2026-01-28 22:32:02.06	34.47	23.75	-60.5	-76.9	3.6	1.51e+00	0	46	104	0	60	274986
2026-01-28 22:32:03.07	34.58	23.89	-59.1	-75.5	3.6	1.51e+00	0	46	104	0	60	234528
2026-01-28 22:32:04.07	34.69	24.03	-58.7	-75.0	3.6	1.51e+00	0	46	104	0	60	220074
2026-01-28 22:32:05.07	34.80	24.17	-59.2	-75.2	3.6	1.51e+00	0	46	104	0	60	225105
2026-01-28 22:32:06.08	34.92	24.32	-59.6	-75.3	3.5	1.51e+00	0	46	104	0	60	227292
2026-01-28 22:32:07.08	35.03	24.46	-60.5	-76.6	3.6	1.51e+00	0	46	104	0	60	265083
2026-01-28 22:32:08.09	35.15	24.60	-60.0	-76.5	3.6	1.51e+00	0	46	104	0	60	260515
2026-01-28 22:32:09.10	35.27	24.75	-60.2	-76.7	3.6	1.51e+00	0	46	104	0	60	268081
2026-01-28 22:32:10.10	35.39	24.89	-60.4	-77.1	3.6	1.51e+00	0	46	104	0	60	279574
2026-01-28 22:32:11.11	35.51	25.04	-60.7	-75.9	3.6	1.51e+00	0	46	104	0	60	245124
2026-01-28 22:32:12.12	35.63	25.18	-60.7	-76.8	3.6	1.51e+00	0	46	104	0	60	271087
2026-01-28 22:32:13.13	35.75	25.33	-60.6	-76.8	3.6	1.51e+00	0	46	104	0	60	272387
2026-01-28 22:32:14.13	35.87	25.48	-60.4	-76.7	3.6	1.51e+00	0	46	104	0	60	267852
2026-01-28 22:32:15.14	36.00	25.63	-60.5	-76.7	3.6	1.51e+00	0	46	104	0	60	267449
2026-01-28 22:32:16.14	36.12	25.77	-59.5	-76.8	3.6	1.51e+00	0	46	104	0	60	271415
2026-01-28 22:32:17.15	36.25	25.92	-60.5	-76.0	3.6	1.51e+00	0	46	104	0	60	247375
2026-01-28 22:32:18.16	36.38	26.07	-60.0	-76.7	3.6	1.51e+00	0	46	104	0	60	266868
2026-01-28 22:32:19.16	36.50	26.22	-59.1	-76.0	3.6	1.51e+00	0	46	104	0	60	248443
2026-01-28 22:32:20.17	36.63	26.38	-58.8	-75.6	3.6	1.51e+00	0	46	104	0	60	237298
2026-01-28 22:32:21.17	36.76	26.53	-58.7	-76.0	3.6	1.51e+00	0	46	104	0	60	246424
2026-01-28 22:32:22.17	36.90	26.68	-59.0	-76.0	3.5	1.51e+00	0	46	104	0	60	247695
2026-01-28 22:32:23.18	37.03	26.83	-60.7	-76.9	3.6	1.51e+00	0	46	104	0	60	274834
2026-01-28 22:32:24.18	37.16	26.99	-60.1	-76.2	3.6	1.51e+00	0	46	104	0	60	253178
2026-01-28 22:32:25.19	37.30	27.14	-59.5	-76.5	3.6	1.51e+00	0	46	104	0	60	263017
2026-01-28 22:32:26.19	37.44	27.30	-59.3	-76.7	3.6	1.51e+00	0	46	104	0	60	266890
2026-01-28 22:32:27.19	37.58	27.45	-59.9	-76.0	3.6	1.51e+00	0	46	104	0	60	248423
2026-01-28 22:32:28.20	37.72	27.61	-59.8	-76.8	3.6	1.51e+00	0	46	104	0	60	269982
2026-01-28 22:32:29.21	37.86	27.77	-59.9	-76.6	3.6	1.51e+00	0	46	104	0	60	264216
2026-01-28 22:32:30.21	38.00	27.93	-59.5	-76.2	3.6	1.51e+00	0	46	104	0	60	253628
2026-01-28 22:32:31.22	38.14	28.09	-59.9	-76.7	3.6	1.51e+00	0	46	104	0	60	266711
2026-01-28 22:32:32.22	38.29	28.25	-58.1	-76.7	3.6	1.51e+00	0	46	104	0	60	266859
2026-01-28 22:32:33.23	38.44	28.41	-58.7	-75.7	3.6	1.51e+00	0	46	104	0	60	239472
2026-01-28 22:32:34.24	38.58	28.57	-59.1	-76.7	3.6	1.51e+00	0	46	104	0	60	268055
2026-01-28 22:32:35.24	38.73	28.73	-59.4	-76.0	3.6	1.51e+00	0	46	104	0	60	247604
2026-01-28 22:32:36.25	38.89	28.90	-58.9	-75.5	3.6	1.51e+00	0	46	104	0	60	232174
2026-01-28 22:32:37.25	39.04	29.06	-58.3	-75.8	3.6	1.51e+00	0	46	104	0	60	241573
2026-01-28 22:32:38.26	39.19	29.23	-58.3	-75.9	3.6	1.51e+00	0	46	104	0	60	245566
2026-01-28 22:32:39.26	39.35	29.39	-60.2	-77.0	3.6	1.51e+00	0	46	104	0	60	278571
2026-01-28 22:32:40.27	39.50	29.56	-59.9	-77.0	3.6	1.51e+00	0	46	104	0	60	277854
2026-01-28 22:32:41.28	39.66	29.73	-58.2	-76.6	3.6	1.51e+00	0	46	104	0	60	264926
2026-01-28 22:32:42.28	39.82	29.89	-58.6	-76.7	3.6	1.51e+00	0	46	104	0	60	267583
2026-01-28 22:32:43.29	39.99	30.06	-59.0	-76.4	3.6	1.51e+00	0	46	104	0	60	259855
2026-01-28 22:32:44.30	40.15	30.23	-59.6	-76.5	3.6	1.51e+00	0	46	104	0	60	262381
2026-01-28 22:32:45.30	40.32	30.40	-60.2	-76.6	3.5	1.51e+00	0	46	104	0	60	264966
2026-01-28 22:32:46.31	40.48	30.57	-60.4	-76.7	3.6	1.51e+00	0	46	104	0	60	267506
2026-01-28 22:32:47.32	40.65	30.74	-60.8	-77.2	3.6	1.51e+00	0	46	104	0	60	282212
2026-01-28 22:32:48.32	40.82	30.92	-61.1	-77.4	3.6	1.51e+00	0	46	104	0	60	289420
2026-01-28 22:32:49.32	40.99	31.09	-60.4	-76.8	3.5	1.51e+00	0	46	104	0	60	270762
2026-01-28 22:32:50.33	41.17	31.26	-60.0	-77.1	3.6	1.51e+00	0	46	104	0	60	281250
2026-01-28 22:32:51.34	41.35	31.44	-60.9	-76.7	3.6	1.51e+00	0	46	104	0	60	266516
2026-01-28 22:32:52.34	41.52	31.61	-60.9	-77.1	3.6	1.51e+00	0	46	104	0	60	279559
2026-01-28 22:32:53.35	41.70	31.79	-61.0	-76.7	3.5	1.51e+00	0	46	104	0	60	269494
2026-01-28 22:32:54.36	41.89	31.97	-61.0	-77.0	3.6	1.51e+00	0	46	104	0	60	277164
2026-01-28 22:32:55.37	42.07	32.14	-60.8	-77.1	3.6	1.51e+00	0	46	104	0	60	280523
2026-01-28 22:32:56.38	42.26	32.32	-60.9	-77.2	3.6	1.51e+00	0	46	104	0	60	285395
2026-01-28 22:32:57.38	42.44	32.50	-61.0	-77.1	3.6	1.51e+00	0	46	104	0	60	281212
2026-01-28 22:32:58.39	42.63	32.68	-60.9	-77.1	3.6	1.51e+00	0	46	104	0	60	280889
2026-01-28 22:32:59.40	42.83	32.86	-60.9	-76.9	3.6	1.51e+00	0	46	104	0	60	274000
2026-01-28 22:33:00.40	43.02	33.04	-60.9	-76.8	3.6	1.51e+00	0	46	104	0	60	272451
2026-01-28 22:33:01.41	43.22	33.23	-60.9	-76.9	3.6	1.51e+00	0	46	104	0	60	274745
2026-01-28 22:33:02.42	43.42	33.41	-60.8	-76.9	3.6	1.51e+00	0	46	104	0	60	273301
2026-01-28 22:33:03.42	43.62	33.59	-60.6	-77.3	3.6	1.51e+00	0	46	104	0	60	285920
2026-01-28 22:33:04.43	43.82	33.78	-61.1	-77.4	3.6	1.51e+00	0	46	104	0	60	288933
2026-01-28 22:33:05.44	44.02	33.96	-60.9	-76.9	3.6	1.51e+00	0	46	104	0	60	274854
2026-01-28 22:33:06.45	44.23	34.15	-60.5	-76.9	3.6	1.51e+00	0	46	104	0	60	273121
2026-01-28 22:33:07.46	44.44	34.34	-60.8	-76.9	3.6	1.51e+00	0	46	104	0	60	273598
2026-01-28 22:33:08.46	44.65	34.52	-60.9	-76.9	3.6	1.51e+00	0	46	104	0	60	274838
2026-01-28 22:33:09.47	44.87	34.71	-61.0	-76.8	3.6	1.51e+00	0	46	104	0	60	272232
2026-01-28 22:33:10.47	45.08	34.90	-60.9	-76.9	3.6	1.51e+00	0	46	104	0	60	273144
2026-01-28 22:33:11.47	45.30	35.09	-60.7	-77.0	3.6	1.51e+00	0	46	104	0	60	276464
2026-01-28 22:33:12.48	45.52	35.28	-61.0	-77.1	3.6	1.51e+00	0	46	104	0	60	281898
2026-01-28 22:33:13.48	45.75	35.47	-61.0	-77.2	3.6	1.51e+00	0	46	104	0	60	285235
2026-01-28 22:33:14.49	45.98	35.66	-61.0	-77.3	3.6	1.51e+00	0	46	104	0	60	287553
2026-01-28 22:33:15.50	46.21	35.85	-60.7	-76.7	3.6	1.51e+00	0	46	104	0	60	268820
2026-01-28 22:33:16.51	46.44	36.05	-61.1	-76.7	3.6	1.51e+00	0	46	104	0	60	268184
2026-01-28 22:33:17.52	46.67	36.24	-61.1	-76.6	3.6	1.51e+00	0	46	104	0	60	266249
2026-01-28 22:33:18.52	46.91	36.43	-61.0	-76.6	3.6	1.51e+00	0	46	104	0	60	263628
2026-01-28 22:33:19.53	47.15	36.63	-61.1	-77.2	3.6	1.51e+00	0	46	104	0	60	282897
2026-01-28 22:33:20.53	47.39	36.82	-61.0	-77.1	3.6	1.51e+00	0	46	104	0	60	280962
2026-01-28 22:33:21.54	47.64	37.02	-61.1	-77.0	3.6	1.51e+00	0	46	104	0	60	278680
2026-01-28 22:33:22.55	47.89	37.22	-61.2	-77.4	3.6	1.51e+00	0	46	104	0	60	290671
2026-01-28 22:33:23.55	48.14	37.41	-61.2	-76.6	3.6	1.51e+00	0	46	104	0	60	266188
2026-01-28 22:33:24.56	48.40	37.61	-61.2	-76.6	3.6	1.51e+00	0	46	104	0	60	263509
2026-01-28 22:33:25.57	48.66	37.81	-61.2	-76.4	3.6	1.51e+00	0	46	104	0	60	258131
2026-01-28 22:33:26.57	48.92	38.01	-61.2	-76.6	3.6	1.51e+00	0	46	104	0	60	264577
2026-01-28 22:33:27.57	49.18	38.20	-61.3	-77.3	3.6	1.51e+00	0	46	104	0	60	285591
2026-01-28 22:33:28.58	49.45	38.41	-61.3	-77.0	3.6	1.51e+00	0	46	104	0	60	278502
2026-01-28 22:33:29.58	49.72	38.60	-61.3	-77.5	3.6	1.51e+00	0	46	104	0	60	293713
2026-01-28 22:33:30.59	49.99	38.81	-61.2	-77.6	3.6	1.51e+00	0	46	104	0	60	296421
2026-01-28 22:33:31.60	50.27	39.01	-61.3	-76.3	3.6	1.51e+00	0	46	104	0	60	257003
2026-01-28 22:33:32.60	50.55	39.21	-61.3	-76.4	3.6	1.51e+00	0	46	104	0	60	258534
2026-01-28 22:33:33.61	50.84	39.41	-61.3	-76.2	3.6	1.51e+00	0	46	104	0	60	254337
2026-01-28 22:33:34.61	51.12	39.61	-61.2	-76.3	3.6	1.51e+00	0	46	104	0	60	255667
2026-01-28 22:33:35.62	51.41	39.82	-61.3	-77.5	3.6	1.51e+00	0	46	104	0	60	294267
2026-01-28 22:33:36.63	51.71	40.02	-61.5	-77.7	3.6	1.51e+00	0	46	104	0	60	302316
2026-01-28 22:33:37.64	52.01	40.22	-61.5	-76.8	3.6	1.51e+00	0	46	104	0	60	270403
2026-01-28 22:33:38.64	52.31	40.43	-61.5	-77.0	3.6	1.51e+00	0	46	104	0	60	276646
2026-01-28 22:33:39.65	52.62	40.63	-61.4	-76.9	3.6	1.51e+00	0	46	104	0	60	275669
2026-01-28 22:33:40.65	52.93	40.83	-61.5	-76.5	3.6	1.51e+00	0	46	104	0	60	261483
2026-01-28 22:33:41.66	53.24	41.04	-61.5	-76.6	3.6	1.51e+00	0	46	104	0	60	263444
2026-01-28 22:33:42.67	53.56	41.25	-61.4	-76.8	3.6	1.51e+00	0	46	104	0	60	272579
2026-01-28 22:33:43.67	53.88	41.45	-61.6	-77.8	3.6	1.51e+00	0	46	104	0	60	304804
2026-01-28 22:33:44.67	54.20	41.65	-61.8	-77.9	3.6	1.51e+00	0	46	104	0	60	306006
2026-01-28 22:33:45.68	54.53	41.86	-61.6	-77.4	3.6	1.51e+00	0	46	104	0	60	290846
2026-01-28 22:33:46.69	54.87	42.07	-61.6	-77.5	3.6	1.51e+00	0	46	104	0	60	292272
2026-01-28 22:33:47.69	55.21	42.27	-61.8	-77.4	3.6	1.51e+00	0	46	104	0	60	290815
2026-01-28 22:33:48.69	55.55	42.47	-61.7	-76.7	3.6	1.51e+00	0	46	104	0	60	267961
2026-01-28 22:33:49.70	55.90	42.68	-61.8	-76.9	3.6	1.51e+00	0	46	104	0	60	274686
2026-01-28 22:33:50.70	56.24	42.88	-61.8	-77.5	3.6	1.51e+00	0	46	104	0	60	294067
2026-01-28 22:33:51.71	56.60	43.09	-61.8	-77.8	3.6	1.51e+00	0	46	104	0	60	302937
2026-01-28 22:33:52.72	56.96	43.30	-61.9	-78.1	3.6	1.51e+00	0	46	104	0	60	313602
2026-01-28 22:33:53.72	57.33	43.50	-61.8	-78.0	3.6	1.51e+00	0	46	104	0	60	311176
2026-01-28 22:33:54.73	57.70	43.71	-61.9	-78.2	3.6	1.51e+00	0	46	104	0	60	318197
2026-01-28 22:33:55.73	58.07	43.91	-62.0	-78.2	3.6	1.51e+00	0	46	104	0	60	318211
2026-01-28 22:33:56.73	58.45	44.11	-61.9	-78.2	3.6	1.51e+00	0	46	104	0	60	319485
2026-01-28 22:33:57.74	58.83	44.32	-62.0	-78.2	3.6	1.51e+00	0	46	104	0	60	319281
2026-01-28 22:33:58.74	59.22	44.52	-62.3	-78.6	3.6	1.51e+00	0	46	104	0	60	333655
2026-01-28 22:33:59.74	59.61	44.72	-62.2	-78.4	3.6	1.51e+00	0	46	104	0	60	325829
2026-01-28 22:34:00.75	60.01	44.93	-62.5	-78.7	3.6	1.51e+00	0	46	104	0	60	337317
2026-01-28 22:34:01.76	60.41	45.13	-62.4	-78.7	3.6	1.51e+00	0	46	104	0	60	336052
2026-01-28 22:34:02.76	60.82	45.33	-62.7	-78.9	3.6	1.51e+00	0	46	104	0	60	345358
2026-01-28 22:34:03.76	61.23	45.53	-62.7	-78.8	3.6	1.51e+00	0	46	104	0	60	342413
2026-01-28 22:34:04.77	61.65	45.73	-62.7	-78.9	3.6	1.51e+00	0	46	104	0	60	346426
2026-01-28 22:34:05.77	62.07	45.93	-62.7	-78.9	3.6	1.51e+00	0	46	104	0	60	344904
2026-01-28 22:34:06.78	62.51	46.13	-62.8	-79.0	3.6	1.51e+00	0	46	104	0	60	350110
2026-01-28 22:34:07.79	62.94	46.33	-62.7	-78.9	3.6	1.51e+00	0	46	104	0	60	343633
2026-01-28 22:34:08.80	63.39	46.53	-62.6	-78.9	3.6	1.51e+00	0	46	104	0	60	344949
2026-01-28 22:34:09.81	63.83	46.73	-62.6	-78.8	3.6	1.51e+00	0	46	104	0	60	342076
2026-01-28 22:34:10.82	64.29	46.93	-62.7	-78.9	3.6	1.51e+00	0	46	104	0	60	344922
2026-01-28 22:34:11.82	64.74	47.12	-62.7	-78.8	3.6	1.51e+00	0	46	104	0	60	341232
2026-01-28 22:34:12.83	65.21	47.32	-62.7	-79.0	3.6	1.51e+00	0	46	104	0	60	349209
2026-01-28 22:34:13.83	65.67	47.51	-62.8	-79.0	3.6	1.51e+00	0	46	104	0	60	351153
2026-01-28 22:34:14.84	66.15	47.70	-62.8	-79.0	3.6	1.51e+00	0	46	104	0	60	350800
2026-01-28 22:34:15.85	66.63	47.89	-62.8	-78.8	3.6	1.51e+00	0	46	104	0	60	341888
2026-01-28 22:34:16.85	67.12	48.08	-62.8	-79.1	3.6	1.51e+00	0	46	104	0	60	352906
2026-01-28 22:34:17.85	67.61	48.27	-62.8	-79.0	3.6	1.51e+00	0	46	104	0	60	349132
2026-01-28 22:34:18.85	68.10	48.45	-62.8	-79.1	3.6	1.51e+00	0	46	104	0	60	352599
2026-01-28 22:34:19.85	68.60	48.64	-62.8	-78.9	3.6	1.51e+00	0	46	104	0	60	346912
2026-01-28 22:34:20.85	69.11	48.82	-62.9	-79.1	3.6	1.51e+00	0	46	104	0	60	353521
2026-01-28 22:34:21.86	69.63	49.00	-62.9	-78.9	3.6	1.51e+00	0	46	104	0	60	344444
2026-01-28 22:34:22.86	70.15	49.18	-63.0	-79.1	3.6	1.51e+00	0	46	104	0	60	353845
2026-01-28 22:34:23.87	70.68	49.36	-62.9	-79.2	3.6	1.51e+00	0	46	104	0	60	357013
2026-01-28 22:34:24.87	71.21	49.53	-62.9	-79.1	3.6	1.51e+00	0	46	104	0	60	354834
2026-01-28 22:34:25.88	71.75	49.71	-63.0	-79.0	3.6	1.51e+00	0	46	104	0	60	350953
2026-01-28 22:34:26.89	72.30	49.88	-63.0	-79.2	3.6	1.51e+00	0	46	104	0	60	358170
2026-01-28 22:34:27.90	72.86	50.05	-63.0	-79.2	3.6	1.51e+00	0	46	104	0	60	357603
2026-01-28 22:34:28.90	73.41	50.22	-63.0	-79.3	3.6	1.51e+00	0	46	104	0	60	360292
2026-01-28 22:34:29.91	73.98	50.39	-63.0	-78.9	3.6	1.51e+00	0	46	104	0	60	346675
2026-01-28 22:34:30.92	74.55	50.55	-63.0	-79.3	3.6	1.51e+00	0	46	104	0	60	359570
2026-01-28 22:34:31.91	75.12	50.71	-62.9	-79.1	3.6	1.51e+00	0	46	104	0	60	351839
2026-01-28 22:34:32.92	75.71	50.87	-63.0	-79.2	3.6	1.51e+00	0	46	104	0	60	355725
2026-01-28 22:34:33.92	76.29	51.02	-62.9	-78.8	3.6	1.51e+00	0	46	104	0	60	341214
2026-01-28 22:34:34.93	76.89	51.18	-63.0	-79.2	3.6	1.51e+00	0	46	104	0	60	355478
2026-01-28 22:34:35.94	77.49	51.33	-62.7	-78.9	3.6	1.51e+00	0	46	104	0	60	346473
2026-01-28 22:34:36.94	78.10	51.48	-62.9	-79.1	3.6	1.51e+00	0	46	104	0	60	352695
2026-01-28 22:34:37.95	78.72	51.62	-62.8	-78.6	3.6	1.51e+00	0	46	104	0	60	334815
2026-01-28 22:34:38.96	79.34	51.77	-63.0	-79.0	3.6	1.51e+00	0	46	104	0	60	348813
2026-01-28 22:34:39.97	79.97	51.90	-62.7	-78.8	3.6	1.51e+00	0	46	104	0	60	342212
2026-01-28 22:34:40.97	80.59	52.04	-62.7	-78.9	3.6	1.51e+00	0	46	104	0	60	345820
2026-01-28 22:34:41.99	81.24	52.17	-62.7	-78.5	3.6	1.51e+00	0	46	104	0	60	330508
2026-01-28 22:34:42.99	81.88	52.30	-62.6	-78.8	3.6	1.51e+00	0	46	104	0	60	342788
2026-01-28 22:34:44.01	82.54	52.43	-62.5	-78.8	3.6	1.51e+00	0	46	104	0	60	341106
2026-01-28 22:34:45.02	83.19	52.55	-62.6	-78.8	3.6	1.51e+00	0	46	104	0	60	341308
2026-01-28 22:34:46.02	83.85	52.67	-62.6	-78.4	3.5	1.51e+00	0	46	104	0	60	325447
2026-01-28 22:34:47.03	84.51	52.79	-63.6	-79.6	3.6	1.51e+00	0	46	104	0	60	374229
2026-01-28 22:34:48.04	85.19	52.90	-63.7	-79.9	3.6	1.51e+00	0	46	104	0	60	386303
2026-01-28 22:34:49.04	85.86	53.01	-63.2	-79.0	3.6	1.51e+00	0	46	104	0	60	350674
2026-01-28 22:34:50.06	86.55	53.11	-63.2	-79.1	3.6	1.51e+00	0	46	104	0	60	354670
2026-01-28 22:34:51.06	87.23	53.21	-63.2	-79.4	3.6	1.51e+00	0	46	104	0	60	364401
2026-01-28 22:34:52.06	87.91	53.31	-63.3	-79.5	3.6	1.51e+00	0	46	104	0	60	368931
2026-01-28 22:34:53.07	88.61	53.40	-63.3	-79.4	3.6	1.51e+00	0	46	104	0	60	363728
2026-01-28 22:34:54.08	89.31	53.49	-63.2	-79.4	3.6	1.51e+00	0	46	104	0	60	367730
2026-01-28 22:34:55.07	90.00	53.58	-63.2	-79.5	3.6	1.51e+00	0	46	104	0	60	369211
2026-01-28 22:34:56.08	90.71	53.66	-63.2	-79.0	3.6	1.51e+00	0	46	104	0	60	350675
2026-01-28 22:34:57.09	91.42	53.73	-63.1	-79.2	3.6	1.51e+00	0	46	104	0	60	355824
2026-01-28 22:34:58.09	92.13	53.80	-63.2	-79.4	3.6	1.51e+00	0	46	104	0	60	366647
2026-01-28 22:34:59.10	92.85	53.87	-63.1	-79.5	3.6	1.51e+00	0	46	104	0	60	368512
2026-01-28 22:35:00.11	93.57	53.94	-63.2	-79.2	3.6	1.51e+00	0	46	104	0	60	355615
2026-01-28 22:35:01.11	94.29	53.99	-63.1	-79.2	3.6	1.51e+00	0	46	104	0	60	358171
2026-01-28 22:35:02.12	95.02	54.05	-63.1	-79.4	3.6	1.51e+00	0	46	104	0	60	364599
2026-01-28 22:35:03.13	95.75	54.10	-63.2	-79.4	3.6	1.51e+00	0	46	104	0	60	364626
2026-01-28 22:35:04.13	96.48	54.14	-63.1	-79.1	3.6	1.51e+00	0	46	104	0	60	351257
2026-01-28 22:35:05.13	97.20	54.18	-63.1	-79.2	3.6	1.51e+00	0	46	104	0	60	356583
2026-01-28 22:35:06.14	97.94	54.22	-63.1	-79.4	3.6	1.51e+00	0	46	104	0	60	364330
2026-01-28 22:35:07.14	98.67	54.25	-63.1	-79.3	3.6	1.51e+00	0	46	104	0	60	362840
2026-01-28 22:35:08.15	99.42	54.28	-63.1	-79.2	3.6	1.51e+00	0	46	104	0	60	355499
2026-01-28 22:35:09.16	100.16	54.30	-63.1	-79.2	3.6	1.51e+00	0	46	104	0	60	355811
2026-01-28 22:35:10.16	100.89	54.32	-63.1	-79.3	3.6	1.51e+00	0	46	104	0	60	361826
2026-01-28 22:35:11.17	101.64	54.33	-63.1	-79.3	3.6	1.51e+00	0	46	104	0	60	362606
2026-01-28 22:35:12.17	102.38	54.34	-63.1	-79.1	3.6	1.51e+00	0	46	104	0	60	353864
2026-01-28 22:35:13.18	103.12	54.34	-63.2	-79.2	3.6	1.51e+00	0	46	104	0	60	358718
2026-01-28 22:35:14.19	103.87	54.34	-63.2	-79.4	3.6	1.51e+00	0	46	104	0	60	365553
2026-01-28 22:35:15.20	104.61	54.33	-63.2	-79.4	3.6	1.51e+00	0	46	104	0	60	364001
2026-01-28 22:35:16.21	105.36	54.32	-63.1	-79.1	3.6	1.51e+00	0	46	104	0	60	351558
2026-01-28 22:35:17.21	106.09	54.31	-63.1	-79.2	3.6	1.51e+00	0	46	104	0	60	355905
2026-01-28 22:35:18.22	106.84	54.29	-63.1	-79.4	3.6	1.51e+00	0	46	104	0	60	363669
2026-01-28 22:35:19.23	107.58	54.26	-63.0	-79.3	3.6	1.51e+00	0	46	104	0	60	360000
2026-01-28 22:35:20.24	108.32	54.23	-63.0	-79.1	3.6	1.51e+00	0	46	104	0	60	351418
2026-01-28 22:35:21.24	109.05	54.20	-63.0	-79.1	3.6	1.51e+00	0	46	104	0	60	353945
2026-01-28 22:35:22.25	109.79	54.16	-63.0	-79.3	3.6	1.51e+00	0	46	104	0	60	359577
2026-01-28 22:35:23.25	110.51	54.11	-63.0	-79.2	3.6	1.51e+00	0	46	104	0	60	357360
2026-01-28 22:35:24.26	111.25	54.06	-63.0	-78.9	3.6	1.51e+00	0	46	104	0	60	345228
2026-01-28 22:35:25.26	111.97	54.01	-63.0	-79.0	3.6	1.51e+00	0	46	104	0	60	349635
2026-01-28 22:35:26.26	112.69	53.95	-62.9	-79.2	3.6	1.51e+00	0	46	104	0	60	356152
2026-01-28 22:35:27.27	113.41	53.89	-63.1	-79.3	3.6	1.51e+00	0	46	104	0	60	362469
2026-01-28 22:35:28.28	114.13	53.83	-63.2	-79.2	3.6	1.51e+00	0	46	104	0	60	356754
2026-01-28 22:35:29.29	114.85	53.75	-63.2	-79.4	3.6	1.51e+00	0	46	104	0	60	363880
2026-01-28 22:35:30.30	115.56	53.68	-63.2	-79.4	3.6	1.51e+00	0	46	104	0	60	366838
2026-01-28 22:35:31.30	116.27	53.60	-63.2	-79.4	3.6	1.51e+00	0	46	104	0	60	363582
2026-01-28 22:35:32.31	116.97	53.52	-63.0	-79.0	3.6	1.51e+00	0	46	104	0	60	347949
2026-01-28 22:35:33.31	117.67	53.43	-63.0	-79.2	3.6	1.51e+00	0	46	104	0	60	356977
2026-01-28 22:35:34.32	118.37	53.34	-62.9	-79.1	3.6	1.51e+00	0	46	104	0	60	354167
2026-01-28 22:35:35.33	119.06	53.24	-63.1	-79.3	3.6	1.51e+00	0	46	104	0	60	359945
2026-01-28 22:35:36.34	119.75	53.14	-63.0	-78.9	3.6	1.51e+00	0	46	104	0	60	345948
2026-01-28 22:35:37.34	120.43	53.04	-63.1	-79.2	3.6	1.51e+00	0	46	104	0	60	358887
2026-01-28 22:35:38.35	121.11	52.93	-63.0	-79.3	3.6	1.51e+00	0	46	104	0	60	359556
2026-01-28 22:35:39.36	121.78	52.82	-63.1	-79.2	3.6	1.51e+00	0	46	104	0	60	358233
2026-01-28 22:35:40.36	122.44	52.71	-63.0	-78.9	3.6	1.51e+00	0	46	104	0	60	345267
2026-01-28 22:35:41.37	123.11	52.59	-63.0	-79.2	3.6	1.51e+00	0	46	104	0	60	356951
2026-01-28 22:35:42.38	123.77	52.46	-62.9	-79.1	3.6	1.51e+00	0	46	104	0	60	352568
2026-01-28 22:35:43.38	124.41	52.34	-62.9	-79.0	3.6	1.51e+00	0	46	104	0	60	349261
2026-01-28 22:35:44.39	125.06	52.21	-62.8	-78.8	3.6	1.51e+00	0	46	104	0	60	339556
2026-01-28 22:35:45.40	125.70	52.08	-62.8	-79.0	3.6	1.51e+00	0	46	104	0	60	348764
2026-01-28 22:35:46.41	126.34	51.94	-62.9	-79.1	3.6	1.51e+00	0	46	104	0	60	352981
2026-01-28 22:35:47.42	126.97	51.80	-62.8	-78.8	3.6	1.51e+00	0	46	104	0	60	340421
2026-01-28 22:35:48.42	127.59	51.66	-62.9	-78.7	3.6	1.51e+00	0	46	104	0	60	338587
2026-01-28 22:35:49.44	128.21	51.52	-63.0	-79.2	3.6	1.51e+00	0	46	104	0	60	358154
2026-01-28 22:35:50.44	128.82	51.37	-63.0	-79.3	3.6	1.51e+00	0	46	104	0	60	359732
2026-01-28 22:35:51.45	129.43	51.22	-62.9	-78.9	3.6	1.51e+00	0	46	104	0	60	345003
2026-01-28 22:35:52.46	130.03	51.06	-62.9	-78.6	3.6	1.51e+00	0	46	104	0	60	332424
2026-01-28 22:35:53.46	130.62	50.91	-62.9	-79.1	3.6	1.51e+00	0	46	104	0	60	352109
2026-01-28 22:35:54.47	131.20	50.75	-62.8	-79.0	3.6	1.51e+00	0	46	104	0	60	349869
2026-01-28 22:35:55.47	131.78	50.59	-62.7	-78.6	3.6	1.51e+00	0	46	104	0	60	333571
2026-01-28 22:35:56.48	132.36	50.43	-62.8	-78.7	3.6	1.51e+00	0	46	104	0	60	335562
2026-01-28 22:35:57.49	132.93	50.26	-62.8	-78.5	3.6	1.51e+00	0	46	104	0	60	330579
2026-01-28 22:35:58.50	133.49	50.09	-62.7	-78.4	3.6	1.51e+00	0	46	104	0	60	324782
2026-01-28 22:35:59.50	134.04	49.92	-62.7	-78.6	3.6	1.51e+00	0	46	104	0	60	333362
2026-01-28 22:36:00.51	134.59	49.75	-62.8	-79.1	3.6	1.51e+00	0	46	104	0	60	352876
2026-01-28 22:36:01.52	135.14	49.58	-62.9	-78.7	3.6	1.51e+00	0	46	104	0	60	336411
2026-01-28 22:36:02.53	135.68	49.40	-62.9	-78.8	3.6	1.51e+00	0	46	104	0	60	340617
2026-01-28 22:36:03.54	136.21	49.22	-62.9	-79.1	3.6	1.51e+00	0	46	104	0	60	353502
2026-01-28 22:36:04.54	136.73	49.04	-62.9	-79.1	3.6	1.51e+00	0	46	104	0	60	352663
2026-01-28 22:36:05.55	137.25	48.86	-62.9	-78.9	3.6	1.51e+00	0	46	104	0	60	343452
2026-01-28 22:36:06.56	137.77	48.67	-62.8	-78.9	3.6	1.51e+00	0	46	104	0	60	344991
2026-01-28 22:36:07.56	138.27	48.49	-62.8	-79.0	3.5	1.51e+00	0	46	104	0	60	350503
2026-01-28 22:36:08.57	138.77	48.30	-62.8	-79.0	3.6	1.51e+00	0	46	104	0	60	349838
2026-01-28 22:36:09.57	139.26	48.12	-62.7	-78.5	3.6	1.51e+00	0	46	104	0	60	331016
2026-01-28 22:36:10.58	139.76	47.93	-62.7	-78.5	3.6	1.51e+00	0	46	104	0	60	330410
2026-01-28 22:36:11.58	140.24	47.74	-62.6	-78.8	3.6	1.51e+00	0	46	104	0	60	342233
2026-01-28 22:36:12.59	140.71	47.54	-62.6	-78.8	3.6	1.51e+00	0	46	104	0	60	342575
2026-01-28 22:36:13.60	141.19	47.35	-62.6	-78.5	3.6	1.51e+00	0	46	104	0	60	328980
2026-01-28 22:36:14.61	141.65	47.15	-62.5	-78.5	3.6	1.51e+00	0	46	104	0	60	328783
2026-01-28 22:36:15.61	142.11	46.96	-62.5	-78.7	3.6	1.51e+00	0	46	104	0	60	337312
2026-01-28 22:36:16.61	142.56	46.76	-62.5	-78.7	3.6	1.51e+00	0	46	104	0	60	338444
2026-01-28 22:36:17.62	143.01	46.57	-62.7	-78.6	3.6	1.51e+00	0	46	104	0	60	334321
2026-01-28 22:36:18.63	143.46	46.37	-62.5	-78.6	3.6	1.51e+00	0	46	104	0	60	333271
2026-01-28 22:36:19.64	143.90	46.17	-62.6	-78.8	3.6	1.51e+00	0	46	104	0	60	341858
2026-01-28 22:36:20.64	144.33	45.97	-62.5	-78.7	3.6	1.51e+00	0	46	104	0	60	337190
2026-01-28 22:36:21.65	144.75	45.77	-62.7	-78.7	3.6	1.51e+00	0	46	104	0	60	338561
2026-01-28 22:36:22.66	145.18	45.56	-62.5	-78.6	3.6	1.51e+00	0	46	104	0	60	335019
2026-01-28 22:36:23.67	145.59	45.36	-62.6	-78.8	3.6	1.51e+00	0	46	104	0	60	341316
2026-01-28 22:36:24.67	146.00	45.16	-62.5	-78.7	3.6	1.51e+00	0	46	104	0	60	336075
2026-01-28 22:36:25.68	146.41	44.95	-62.6	-78.7	3.6	1.51e+00	0	46	104	0	60	338507
2026-01-28 22:36:26.68	146.81	44.75	-62.4	-78.6	3.6	1.51e+00	0	46	104	0	60	332813
2026-01-28 22:36:27.69	147.20	44.55	-62.4	-78.6	3.6	1.51e+00	0	46	104	0	60	334175
2026-01-28 22:36:28.70	147.60	44.34	-62.4	-78.5	3.6	1.51e+00	0	46	104	0	60	329636
2026-01-28 22:36:29.70	147.98	44.14	-62.4	-78.4	3.6	1.51e+00	0	46	104	0	60	325999
2026-01-28 22:36:30.71	148.36	43.93	-62.3	-78.5	3.6	1.51e+00	0	46	104	0	60	329347
2026-01-28 22:36:31.71	148.73	43.73	-62.3	-78.6	3.6	1.51e+00	0	46	104	0	60	332311
2026-01-28 22:36:32.71	149.10	43.52	-62.3	-78.6	3.6	1.51e+00	0	46	104	0	60	331656
2026-01-28 22:36:33.72	149.47	43.32	-62.3	-78.5	3.6	1.51e+00	0	46	104	0	60	329788
2026-01-28 22:36:34.73	149.83	43.11	-62.3	-78.5	3.6	1.51e+00	0	46	104	0	60	331024
2026-01-28 22:36:35.73	150.19	42.90	-62.3	-78.4	3.6	1.51e+00	0	46	104	0	60	326324
2026-01-28 22:36:36.74	150.54	42.70	-62.2	-78.4	3.6	1.51e+00	0	46	104	0	60	325821
2026-01-28 22:36:37.74	150.89	42.49	-62.2	-78.4	3.6	1.51e+00	0	46	104	0	60	326287
2026-01-28 22:36:38.75	151.24	42.29	-62.2	-78.4	3.6	1.51e+00	0	46	104	0	60	327357
2026-01-28 22:36:39.76	151.58	42.08	-62.2	-78.4	3.6	1.51e+00	0	46	104	0	60	327306
2026-01-28 22:36:40.77	151.91	41.87	-62.2	-78.4	3.6	1.51e+00	0	46	104	0	60	324794
2026-01-28 22:36:41.77	152.24	41.67	-62.3	-78.4	3.6	1.51e+00	0	46	104	0	60	327272
2026-01-28 22:36:42.77	152.57	41.46	-62.1	-78.4	3.6	1.51e+00	0	46	104	0	60	325189
2026-01-28 22:36:43.78	152.89	41.26	-62.1	-78.3	3.6	1.51e+00	0	46	104	0	60	323997
2026-01-28 22:36:44.79	153.21	41.05	-62.1	-78.2	3.6	1.51e+00	0	46	104	0	60	319482
2026-01-28 22:36:45.79	153.53	40.84	-62.1	-78.1	3.6	1.51e+00	0	46	104	0	60	315008
2026-01-28 22:36:46.80	153.84	40.64	-62.1	-78.3	3.6	1.51e+00	0	46	104	0	60	323036
2026-01-28 22:36:47.81	154.15	40.43	-62.1	-78.4	3.6	1.51e+00	0	46	104	0	60	325833
2026-01-28 22:36:48.81	154.45	40.23	-62.1	-78.3	3.6	1.51e+00	0	46	104	0	60	320754
2026-01-28 22:36:49.81	154.75	40.03	-62.1	-78.2	3.6	1.51e+00	0	46	104	0	60	316688
2026-01-28 22:36:50.82	155.04	39.82	-62.1	-78.3	3.6	1.51e+00	0	46	104	0	60	322493
2026-01-28 22:36:51.83	155.34	39.62	-62.1	-78.3	3.6	1.51e+00	0	46	104	0	60	323229
2026-01-28 22:36:52.84	155.63	39.41	-62.0	-78.2	3.6	1.51e+00	0	46	104	0	60	316812
2026-01-28 22:36:53.84	155.91	39.21	-62.1	-78.1	3.6	1.51e+00	0	46	104	0	60	316495
2026-01-28 22:36:54.85	156.19	39.01	-62.0	-78.2	3.6	1.51e+00	0	46	104	0	60	320160
2026-01-28 22:36:55.86	156.47	38.81	-62.0	-78.2	3.6	1.51e+00	0	46	104	0	60	318234
2026-01-28 22:36:56.86	156.75	38.61	-62.0	-78.0	3.6	1.51e+00	0	46	104	0	60	312895
2026-01-28 22:36:57.87	157.02	38.40	-62.0	-78.1	3.6	1.51e+00	0	46	104	0	60	314150
2026-01-28 22:36:58.88	157.29	38.20	-62.0	-78.2	3.6	1.51e+00	0	46	104	0	60	317146
2026-01-28 22:36:59.88	157.55	38.00	-61.8	-78.0	3.6	1.51e+00	0	46	104	0	60	312080
2026-01-28 22:37:00.89	157.82	37.80	-61.9	-77.7	3.6	1.51e+00	0	46	104	0	60	301899
2026-01-28 22:37:01.89	158.07	37.61	-61.8	-77.7	3.6	1.51e+00	0	46	104	0	60	302030
2026-01-28 22:37:02.90	158.33	37.41	-61.7	-78.0	3.6	1.51e+00	0	46	104	0	60	310381
2026-01-28 22:37:03.90	158.58	37.21	-61.7	-77.9	3.6	1.51e+00	0	46	104	0	60	309104
2026-01-28 22:37:04.90	158.83	37.01	-61.6	-77.7	3.6	1.51e+00	0	46	104	0	60	302217
2026-01-28 22:37:05.91	159.08	36.82	-61.6	-77.6	3.6	1.51e+00	0	46	104	0	60	295823
2026-01-28 22:37:06.92	159.32	36.62	-61.6	-77.8	3.6	1.51e+00	0	46	104	0	60	305359
2026-01-28 22:37:07.92	159.56	36.43	-61.6	-77.8	3.6	1.51e+00	0	46	104	0	60	304726
2026-01-28 22:37:08.93	159.80	36.23	-61.6	-77.4	3.6	1.51e+00	0	46	104	0	60	290755
2026-01-28 22:37:09.94	160.04	36.03	-61.6	-77.3	3.6	1.51e+00	0	46	104	0	60	288211
2026-01-28 22:37:10.94	160.27	35.84	-61.6	-77.8	3.6	1.51e+00	0	46	104	0	60	303612
2026-01-28 22:37:11.95	160.50	35.65	-61.6	-77.9	3.6	1.51e+00	0	46	104	0	60	306739
2026-01-28 22:37:12.96	160.73	35.46	-61.6	-77.5	3.6	1.51e+00	0	46	104	0	60	294839
2026-01-28 22:37:13.96	160.95	35.27	-61.5	-77.6	3.6	1.51e+00	0	46	104	0	60	297599
2026-01-28 22:37:14.97	161.18	35.07	-61.5	-77.8	3.6	1.51e+00	0	46	104	0	60	304767
2026-01-28 22:37:15.98	161.40	34.88	-61.5	-77.7	3.6	1.51e+00	0	46	104	0	60	300926
2026-01-28 22:37:16.99	161.62	34.69	-61.5	-77.2	3.6	1.51e+00	0	46	104	0	60	285448
2026-01-28 22:37:17.99	161.83	34.50	-61.4	-77.4	3.6	1.51e+00	0	46	104	0	60	290017
2026-01-28 22:37:19.00	162.04	34.32	-61.4	-77.6	3.6	1.51e+00	0	46	104	0	60	298461
2026-01-28 22:37:20.01	162.25	34.13	-61.3	-77.6	3.6	1.51e+00	0	46	104	0	60	298392
2026-01-28 22:37:21.01	162.46	33.94	-61.4	-77.4	3.6	1.51e+00	0	46	104	0	60	290077
2026-01-28 22:37:22.01	162.66	33.76	-61.3	-77.6	3.6	1.51e+00	0	46	104	0	60	296546
2026-01-28 22:37:23.02	162.87	33.57	-61.3	-77.6	3.6	1.51e+00	0	46	104	0	60	297404
2026-01-28 22:37:24.02	163.07	33.39	-61.3	-77.6	3.6	1.51e+00	0	46	104	0	60	297279
2026-01-28 22:37:25.03	163.27	33.20	-61.3	-77.5	3.6	1.51e+00	0	46	104	0	60	292409
2026-01-28 22:37:26.04	163.46	33.02	-61.3	-77.5	3.6	1.51e+00	0	46	104	0	60	293653
2026-01-28 22:37:27.04	163.66	32.84	-61.3	-77.6	3.6	1.51e+00	0	46	104	0	60	296289
2026-01-28 22:37:28.06	163.85	32.66	-61.3	-77.5	3.6	1.51e+00	0	46	104	0	60	292633
2026-01-28 22:37:29.07	164.04	32.47	-61.4	-77.3	3.6	1.51e+00	0	46	104	0	60	286048
2026-01-28 22:37:30.07	164.23	32.29	-61.3	-77.4	3.6	1.51e+00	0	46	104	0	60	290187
2026-01-28 22:37:31.08	164.42	32.11	-61.3	-77.5	3.6	1.51e+00	0	46	104	0	60	293830
2026-01-28 22:37:32.08	164.60	31.94	-61.2	-77.5	3.6	1.51e+00	0	46	104	0	60	292741
2026-01-28 22:37:33.08	164.78	31.76	-61.3	-77.4	3.6	1.51e+00	0	46	104	0	60	290863
2026-01-28 22:37:34.09	164.96	31.58	-61.2	-77.4	3.6	1.51e+00	0	46	104	0	60	290956
2026-01-28 22:37:35.10	165.14	31.41	-61.2	-77.5	3.6	1.51e+00	0	46	104	0	60	292255
2026-01-28 22:37:36.11	165.32	31.23	-61.1	-77.3	3.6	1.51e+00	0	46	104	0	60	287757
2026-01-28 22:37:37.10	165.49	31.06	-61.2	-77.3	3.6	1.51e+00	0	46	104	0	60	285596
2026-01-28 22:37:38.11	165.66	30.88	-61.1	-77.3	3.6	1.51e+00	0	46	104	0	60	286496
2026-01-28 22:37:39.11	165.83	30.71	-61.2	-77.4	3.6	1.51e+00	0	46	104	0	60	291028
2026-01-28 22:37:40.12	166.00	30.54	-61.0	-77.2	3.6	1.51e+00	0	46	104	0	60	285378
2026-01-28 22:37:41.13	166.17	30.37	-61.2	-77.2	3.6	1.51e+00	0	46	104	0	60	282769
2026-01-28 22:37:42.14	166.34	30.19	-60.9	-77.2	3.6	1.51e+00	0	46	104	0	60	282950
2026-01-28 22:37:43.14	166.50	30.03	-61.1	-77.3	3.6	1.51e+00	0	46	104	0	60	288621
2026-01-28 22:37:44.15	166.67	29.86	-60.9	-77.2	3.6	1.51e+00	0	46	104	0	60	283813
2026-01-28 22:37:45.16	166.83	29.69	-61.1	-77.3	3.6	1.51e+00	0	46	104	0	60	286932
2026-01-28 22:37:46.17	166.99	29.52	-60.9	-77.2	3.6	1.51e+00	0	46	104	0	60	282361
2026-01-28 22:37:47.17	167.14	29.35	-61.0	-77.3	3.6	1.51e+00	0	46	104	0	60	287754
2026-01-28 22:37:48.18	167.30	29.18	-60.9	-77.1	3.6	1.51e+00	0	46	104	0	60	280670
2026-01-28 22:37:49.19	167.46	29.02	-61.0	-77.1	3.6	1.51e+00	0	46	104	0	60	281135
2026-01-28 22:37:50.20	167.61	28.85	-60.8	-77.1	3.6	1.51e+00	0	46	104	0	60	279617
2026-01-28 22:37:51.20	167.76	28.69	-60.9	-77.2	3.6	1.51e+00	0	46	104	0	60	284375
2026-01-28 22:37:52.20	167.91	28.53	-60.8	-77.0	3.6	1.51e+00	0	46	104	0	60	277766
2026-01-28 22:37:53.21	168.06	28.36	-60.9	-76.9	3.6	1.51e+00	0	46	104	0	60	274584
2026-01-28 22:37:54.21	168.20	28.20	-60.7	-76.9	3.6	1.51e+00	0	46	104	0	60	273762
2026-01-28 22:37:55.22	168.35	28.04	-60.8	-77.1	3.6	1.51e+00	0	46	104	0	60	281467
2026-01-28 22:37:56.22	168.49	27.88	-60.7	-76.9	3.6	1.51e+00	0	46	104	0	60	275505
2026-01-28 22:37:57.23	168.64	27.72	-60.8	-76.8	3.6	1.51e+00	0	46	104	0	60	270544
2026-01-28 22:37:58.24	168.78	27.56	-60.7	-76.9	3.6	1.51e+00	0	46	104	0	60	273824
2026-01-28 22:37:59.24	168.92	27.41	-60.8	-77.0	3.6	1.51e+00	0	46	104	0	60	278349
2026-01-28 22:38:00.25	169.06	27.25	-60.7	-77.0	3.6	1.51e+00	0	46	104	0	60	276016
2026-01-28 22:38:01.25	169.19	27.09	-60.8	-76.9	3.6	1.51e+00	0	46	104	0	60	274258
2026-01-28 22:38:02.26	169.33	26.94	-60.7	-76.9	3.6	1.51e+00	0	46	104	0	60	273399
2026-01-28 22:38:03.27	169.47	26.78	-60.7	-77.0	3.6	1.51e+00	0	46	104	0	60	277704
2026-01-28 22:38:04.28	169.60	26.63	-60.6	-77.0	3.6	1.51e+00	0	46	104	0	60	275946
2026-01-28 22:38:05.28	169.73	26.47	-60.7	-76.9	3.6	1.51e+00	0	46	104	0	60	272696
2026-01-28 22:38:06.29	169.86	26.32	-60.6	-76.9	3.6	1.51e+00	0	46	104	0	60	272978
2026-01-28 22:38:07.29	169.99	26.17	-60.7	-77.0	3.6	1.51e+00	0	46	104	0	60	276776
2026-01-28 22:38:08.30	170.12	26.02	-60.6	-76.9	3.6	1.51e+00	0	46	104	0	60	273379
2026-01-28 22:38:09.29	170.25	25.87	-60.7	-76.8	3.6	1.51e+00	0	46	104	0	60	269598
2026-01-28 22:38:10.29	170.37	25.72	-60.6	-76.8	3.6	1.51e+00	0	46	104	0	60	269845
2026-01-28 22:38:11.30	170.50	25.57	-60.6	-76.9	3.6	1.51e+00	0	47	104	0	60	274496
2026-01-28 22:38:12.30	170.62	25.42	-60.6	-76.9	3.6	1.51e+00	0	46	104	0	60	272714
2026-01-28 22:38:13.31	170.75	25.27	-60.6	-76.7	3.6	1.51e+00	0	46	104	0	60	267944
2026-01-28 22:38:14.32	170.87	25.12	-60.5	-76.7	3.6	1.51e+00	0	46	104	0	60	268448
2026-01-28 22:38:15.33	170.99	24.98	-60.6	-76.9	3.6	1.51e+00	0	46	104	0	60	274339
2026-01-28 22:38:16.34	171.11	24.83	-60.5	-76.8	3.6	1.51e+00	0	47	104	0	60	270321
2026-01-28 22:38:17.34	171.23	24.68	-60.5	-76.6	3.6	1.51e+00	0	46	104	0	60	266078
2026-01-28 22:38:18.35	171.35	24.54	-60.5	-76.6	3.6	1.51e+00	0	46	104	0	60	265842
2026-01-28 22:38:19.36	171.46	24.39	-60.5	-76.8	3.6	1.51e+00	0	46	104	0	60	270988
2026-01-28 22:38:20.37	171.58	24.25	-60.4	-76.7	3.6	1.51e+00	0	46	104	0	60	268866
2026-01-28 22:38:21.38	171.69	24.11	-60.5	-76.5	3.6	1.51e+00	0	46	104	0	60	262436
2026-01-28 22:38:22.38	171.81	23.97	-60.4	-76.6	3.6	1.51e+00	0	46	104	0	60	264303
2026-01-28 22:38:23.39	171.92	23.82	-60.6	-76.9	3.6	1.51e+00	0	46	104	0	60	272886
2026-01-28 22:38:24.39	172.03	23.68	-60.4	-76.7	3.6	1.51e+00	0	46	104	0	60	269126
2026-01-28 22:38:25.40	172.14	23.54	-60.5	-76.6	3.6	1.51e+00	0	47	104	0	60	265847
2026-01-28 22:38:26.41	172.25	23.40	-60.4	-76.5	3.6	1.51e+00	0	47	104	0	60	262891
2026-01-28 22:38:27.41	172.36	23.27	-60.5	-76.8	3.6	1.51e+00	0	46	104	0	60	270098
2026-01-28 22:38:28.42	172.47	23.13	-60.3	-76.6	3.6	1.51e+00	0	46	104	0	60	265889
2026-01-28 22:38:29.43	172.58	22.99	-60.5	-76.5	3.6	1.51e+00	0	47	104	0	60	260925
2026-01-28 22:38:30.44	172.68	22.85	-60.2	-76.4	3.6	1.51e+00	0	46	104	0	60	259503
2026-01-28 22:38:31.44	172.79	22.72	-60.4	-76.7	3.6	1.51e+00	0	46	104	0	60	269117
2026-01-28 22:38:32.45	172.89	22.58	-60.3	-76.6	3.6	1.51e+00	0	46	104	0	60	264656
2026-01-28 22:38:33.46	173.00	22.45	-60.5	-76.2	3.6	1.51e+00	0	46	104	0	60	252876
2026-01-28 22:38:34.47	173.10	22.31	-60.2	-76.2	3.5	1.51e+00	0	46	104	0	60	253754
2026-01-28 22:38:35.48	173.20	22.18	-60.4	-76.7	3.5	1.51e+00	0	46	104	0	60	268185
2026-01-28 22:38:36.48	173.30	22.04	-60.2	-76.6	3.6	1.51e+00	0	46	104	0	60	265147
2026-01-28 22:38:37.49	173.40	21.91	-60.4	-76.2	3.6	1.51e+00	0	46	104	0	60	252789
2026-01-28 22:38:38.50	173.50	21.78	-60.2	-76.2	3.6	1.51e+00	0	46	104	0	60	252252
2026-01-28 22:38:39.51	173.60	21.65	-60.3	-76.7	3.6	1.51e+00	0	46	104	0	60	266443
2026-01-28 22:38:40.51	173.70	21.52	-60.2	-76.5	3.6	1.51e+00	0	46	104	0	60	261730
2026-01-28 22:38:41.52	173.79	21.39	-60.3	-76.2	3.6	1.51e+00	0	46	104	0	60	252797
2026-01-28 22:38:42.52	173.89	21.26	-60.1	-76.2	3.6	1.51e+00	0	46	104	0	60	252537
2026-01-28 22:38:43.52	173.98	21.13	-60.2	-76.6	3.6	1.51e+00	0	46	104	0	60	263404
2026-01-28 22:38:44.53	174.08	21.00	-60.0	-76.4	3.6	1.51e+00	0	46	104	0	60	259457
2026-01-28 22:38:45.54	174.17	20.87	-60.1	-76.0	3.6	1.51e+00	0	47	104	0	60	247608
2026-01-28 22:38:46.54	174.27	20.75	-59.8	-76.0	3.6	1.51e+00	0	46	104	0	60	248537
2026-01-28 22:38:47.55	174.36	20.62	-60.1	-76.4	3.6	1.51e+00	0	46	104	0	60	258960
2026-01-28 22:38:48.55	174.45	20.49	-59.8	-76.3	3.6	1.51e+00	0	46	104	0	60	256703
2026-01-28 22:38:49.55	174.54	20.37	-59.9	-75.9	3.6	1.51e+00	0	46	104	0	60	244821
2026-01-28 22:38:50.56	174.63	20.24	-59.7	-76.0	3.6	1.51e+00	0	46	104	0	60	247991
2026-01-28 22:38:51.57	174.72	20.12	-60.0	-76.3	3.6	1.51e+00	0	46	104	0	60	255577
2026-01-28 22:38:52.57	174.81	20.00	-59.7	-76.2	3.6	1.51e+00	0	46	104	0	60	251739
2026-01-28 22:38:53.58	174.90	19.87	-59.9	-75.7	3.6	1.51e+00	0	46	104	0	60	238319
2026-01-28 22:38:54.59	174.99	19.75	-59.8	-75.5	3.6	1.51e+00	0	46	104	0	60	234331
2026-01-28 22:38:55.59	175.07	19.63	-59.9	-76.1	3.6	1.51e+00	0	47	104	0	60	248686
2026-01-28 22:38:56.60	175.16	19.51	-59.8	-75.7	3.6	1.51e+00	0	46	104	0	60	239874
2026-01-28 22:38:57.61	175.24	19.38	-59.8	-75.7	3.6	1.51e+00	0	46	104	0	60	238745
2026-01-28 22:38:58.61	175.33	19.26	-59.8	-75.7	3.6	1.51e+00	0	46	104	0	60	239259
2026-01-28 22:38:59.61	175.41	19.15	-59.8	-75.5	3.6	1.51e+00	0	46	104	0	60	233844
2026-01-28 22:39:00.62	175.50	19.03	-59.7	-76.1	3.6	1.51e+00	0	47	104	0	60	249455
2026-01-28 22:39:01.62	175.58	18.91	-59.8	-75.7	3.6	1.51e+00	0	46	104	0	60	237941
2026-01-28 22:39:02.63	175.66	18.79	-59.7	-75.7	3.6	1.51e+00	0	46	104	0	60	239207
2026-01-28 22:39:03.63	175.74	18.67	-59.8	-76.2	3.6	1.51e+00	0	46	104	0	60	251577
2026-01-28 22:39:04.64	175.82	18.55	-59.7	-76.0	3.6	1.51e+00	0	46	104	0	60	247819
2026-01-28 22:39:05.63	175.90	18.44	-59.7	-75.5	3.6	1.51e+00	0	46	104	0	60	233755
2026-01-28 22:39:06.64	175.98	18.32	-59.7	-75.6	3.6	1.51e+00	0	46	104	0	60	236798
2026-01-28 22:39:07.65	176.06	18.20	-59.6	-76.0	3.6	1.51e+00	0	46	104	0	60	248478
2026-01-28 22:39:08.65	176.14	18.09	-59.6	-76.0	3.6	1.51e+00	0	46	104	0	60	246191
2026-01-28 22:39:09.66	176.22	17.97	-59.6	-75.7	3.6	1.51e+00	0	47	104	0	60	238016
2026-01-28 22:39:10.67	176.30	17.86	-59.5	-75.7	3.6	1.51e+00	0	46	104	0	60	240023
2026-01-28 22:39:11.68	176.38	17.74	-59.6	-75.9	3.6	1.51e+00	0	47	104	0	60	244062
2026-01-28 22:39:12.68	176.45	17.63	-59.5	-75.8	3.6	1.51e+00	0	47	104	0	60	242529
2026-01-28 22:39:13.68	176.53	17.52	-59.4	-75.5	3.6	1.51e+00	0	46	104	0	60	234220
2026-01-28 22:39:14.68	176.60	17.41	-59.4	-75.8	3.6	1.51e+00	0	46	104	0	60	240556
2026-01-28 22:39:15.69	176.68	17.30	-59.6	-75.9	3.6	1.51e+00	0	47	104	0	60	244765
2026-01-28 22:39:16.70	176.75	17.18	-59.3	-75.6	3.6	1.51e+00	0	46	104	0	60	236796
2026-01-28 22:39:17.70	176.83	17.07	-59.4	-75.5	3.6	1.51e+00	0	46	104	0	60	233394
2026-01-28 22:39:18.70	176.90	16.96	-59.2	-75.6	3.6	1.51e+00	0	47	104	0	60	234882
2026-01-28 22:39:19.71	176.97	16.85	-59.4	-75.7	3.6	1.51e+00	0	46	104	0	60	239504
2026-01-28 22:39:20.71	177.05	16.74	-59.2	-75.6	3.6	1.51e+00	0	47	104	0	60	234926
2026-01-28 22:39:21.72	177.12	16.63	-59.4	-75.3	3.6	1.51e+00	0	46	104	0	60	227610
2026-01-28 22:39:22.72	177.19	16.52	-59.2	-75.5	3.6	1.51e+00	0	46	104	0	60	234440
2026-01-28 22:39:23.73	177.26	16.42	-59.1	-75.6	3.6	1.51e+00	0	46	104	0	60	235229
2026-01-28 22:39:24.74	177.33	16.31	-59.2	-75.5	3.6	1.51e+00	0	46	104	0	60	232490
2026-01-28 22:39:25.75	177.40	16.20	-59.3	-75.2	3.6	1.51e+00	0	47	104	0	60	225441
2026-01-28 22:39:26.76	177.47	16.09	-59.2	-75.5	3.6	1.51e+00	0	46	104	0	60	232842
2026-01-28 22:39:27.76	177.54	15.99	-59.1	-75.5	3.6	1.51e+00	0	47	104	0	60	233684
2026-01-28 22:39:28.77	177.61	15.88	-59.1	-75.3	3.6	1.51e+00	0	46	104	0	60	228744
2026-01-28 22:39:29.78	177.68	15.77	-59.1	-75.0	3.6	1.51e+00	0	46	104	0	60	221011
2026-01-28 22:39:30.78	177.75	15.67	-59.0	-75.4	3.6	1.51e+00	0	46	104	0	60	230334
2026-01-28 22:39:31.79	177.81	15.56	-59.1	-75.4	3.6	1.51e+00	0	47	104	0	60	230743
2026-01-28 22:39:32.80	177.88	15.46	-59.0	-75.2	3.6	1.51e+00	0	47	104	0	60	224909
2026-01-28 22:39:33.80	177.95	15.35	-59.2	-75.0	3.6	1.51e+00	0	46	104	0	60	220189
2026-01-28 22:39:34.81	178.01	15.25	-59.0	-75.4	3.6	1.51e+00	0	47	104	0	60	230670
2026-01-28 22:39:35.81	178.08	15.15	-58.9	-75.4	3.6	1.51e+00	0	47	104	0	60	231547
2026-01-28 22:39:36.82	178.14	15.04	-59.1	-75.2	3.6	1.51e+00	0	46	104	0	60	226629
2026-01-28 22:39:37.83	178.21	14.94	-59.0	-74.9	3.6	1.51e+00	0	46	104	0	60	217780
2026-01-28 22:39:38.84	178.27	14.84	-59.0	-75.3	3.6	1.51e+00	0	47	104	0	60	228117
2026-01-28 22:39:39.84	178.34	14.74	-58.8	-75.4	3.6	1.51e+00	0	47	104	0	60	229469
2026-01-28 22:39:40.85	178.40	14.64	-59.0	-75.2	3.6	1.51e+00	0	47	104	0	60	225938
2026-01-28 22:39:41.86	178.46	14.53	-58.7	-74.9	3.6	1.51e+00	0	46	104	0	60	217124
2026-01-28 22:39:42.87	178.53	14.43	-59.0	-75.4	3.6	1.51e+00	0	46	104	0	60	230054
2026-01-28 22:39:43.87	178.59	14.33	-58.6	-75.4	3.6	1.51e+00	0	46	104	0	60	229636
2026-01-28 22:39:44.88	178.65	14.23	-58.9	-75.2	3.6	1.51e+00	0	46	104	0	60	224532
2026-01-28 22:39:45.89	178.71	14.13	-58.7	-74.9	3.6	1.51e+00	0	47	104	0	60	218589
