passes_logs/2026/01/28/R3.2S-Naryan-Mar/R3.2S-Naryan-Mar__20260128_113728_TY-42_rec.log

#Pass ID: 20260128_113728_TY-42
#Satellite: TY-42
#Configuration: TY-42
#almurnet v.1.7.20240730
#Start time: 2026-01-28 11:37:33

#Version: 2.2.20231116
#Station: R3.2S-Naryan-Mar
#Location: 53.008057 lon 67.646978 lat
#TLE: 1 64048U 25103A   26027.88263889  .00008008  00000-0  38191-3 0 09993
#TLE: 2 64048 097.4119 103.0583 0001740 093.1169 297.5293 15.19162476 38770

#Time	Az	El	Level	Level2	SNR	BER	BlckErr	Temp	State	Recorded	gain1	gain2
2026-01-28 11:37:33.98	33.78	0.27	-58.8	-73.8	3.5	8.45e-01	0	44	0	0	60	191758
2026-01-28 11:37:34.98	33.68	0.32	-56.8	-60.5	3.6	0.00e+00	0	46	104	0	60	126019
2026-01-28 11:37:35.99	33.57	0.37	-57.1	-60.7	3.6	0.00e+00	0	46	104	0	60	127554
2026-01-28 11:37:36.99	33.46	0.42	-57.3	-60.9	3.5	0.00e+00	0	46	104	0	60	131337
2026-01-28 11:37:38.00	33.35	0.47	-57.3	-61.3	3.6	0.00e+00	0	46	104	0	60	137333
2026-01-28 11:37:39.00	33.24	0.52	-56.7	-60.8	3.6	0.00e+00	0	46	104	0	60	129310
2026-01-28 11:37:40.01	33.13	0.57	-55.8	-59.5	3.6	0.00e+00	0	46	104	0	60	111643
2026-01-28 11:37:41.02	33.02	0.62	-55.2	-58.7	3.6	0.00e+00	0	46	104	0	60	101613
2026-01-28 11:37:42.02	32.92	0.67	-52.5	-57.8	3.6	0.00e+00	0	46	104	0	60	92320
2026-01-28 11:37:43.03	32.80	0.72	-52.9	-57.3	3.6	0.00e+00	0	46	104	0	60	86912
2026-01-28 11:37:44.04	32.69	0.77	-54.5	-58.0	3.6	0.00e+00	0	46	104	0	60	94395
2026-01-28 11:37:45.04	32.58	0.82	-50.9	-56.1	3.6	0.00e+00	0	46	104	0	60	75870
2026-01-28 11:37:46.05	32.47	0.88	-51.0	-54.4	3.6	0.00e+00	0	46	104	0	60	61765
2026-01-28 11:37:47.05	32.36	0.93	-51.4	-56.2	3.6	0.00e+00	0	46	104	0	60	76779
2026-01-28 11:37:48.06	32.24	0.98	-54.3	-57.5	3.6	0.00e+00	0	46	104	0	60	88721
2026-01-28 11:37:49.07	32.13	1.03	-48.4	-53.3	3.6	0.00e+00	0	46	104	0	60	54431
2026-01-28 11:37:50.08	32.01	1.08	-46.5	-51.5	3.6	0.00e+00	0	46	104	0	60	44290
2026-01-28 11:37:51.09	31.90	1.13	-46.5	-51.4	3.6	0.00e+00	0	46	104	0	60	44021
2026-01-28 11:37:52.09	31.79	1.18	-46.4	-51.3	3.5	0.00e+00	0	46	104	0	60	43293
2026-01-28 11:37:53.10	31.67	1.23	-46.3	-51.3	3.6	0.00e+00	0	46	104	0	60	43233
2026-01-28 11:37:54.11	31.55	1.28	-46.3	-51.3	3.6	0.00e+00	0	46	104	0	60	43625
2026-01-28 11:37:55.12	31.44	1.34	-46.2	-51.2	3.6	0.00e+00	0	46	104	0	60	43041
2026-01-28 11:37:56.12	31.32	1.39	-46.1	-51.2	3.6	0.00e+00	0	46	104	0	60	43018
2026-01-28 11:37:57.12	31.20	1.44	-46.2	-51.2	3.6	0.00e+00	0	46	104	0	60	43062
2026-01-28 11:37:58.13	31.08	1.49	-46.1	-51.2	3.5	0.00e+00	0	46	104	0	60	43119
2026-01-28 11:37:59.13	30.96	1.54	-46.1	-51.2	3.5	0.00e+00	0	46	104	0	60	42966
2026-01-28 11:38:00.14	30.84	1.59	-46.1	-51.2	3.6	0.00e+00	0	46	104	0	60	42810
2026-01-28 11:38:01.14	30.73	1.64	-46.1	-51.2	3.5	0.00e+00	0	46	104	0	60	43039
2026-01-28 11:38:02.14	30.61	1.69	-46.2	-51.2	3.5	0.00e+00	0	47	104	0	60	43132
2026-01-28 11:38:03.15	30.48	1.74	-46.1	-51.2	3.6	0.00e+00	0	47	104	0	60	42834
2026-01-28 11:38:04.16	30.36	1.80	-46.1	-51.3	3.6	0.00e+00	0	47	104	0	60	43308
2026-01-28 11:38:05.17	30.24	1.85	-46.1	-51.1	3.6	0.00e+00	0	47	104	0	60	42711
2026-01-28 11:38:06.18	30.12	1.90	-46.2	-51.2	3.6	0.00e+00	0	47	104	0	60	43117
2026-01-28 11:38:07.18	29.99	1.95	-46.2	-51.2	3.6	0.00e+00	0	47	104	0	60	42918
2026-01-28 11:38:08.18	29.87	2.00	-46.1	-51.2	3.5	0.00e+00	0	47	104	0	60	42745
2026-01-28 11:38:09.19	29.75	2.05	-46.2	-51.2	3.6	0.00e+00	0	47	104	0	60	42852
2026-01-28 11:38:10.19	29.62	2.10	-46.2	-51.2	3.6	0.00e+00	0	47	104	0	60	43195
2026-01-28 11:38:11.19	29.50	2.16	-46.1	-51.2	3.6	0.00e+00	0	47	104	0	60	42841
2026-01-28 11:38:12.20	29.37	2.21	-46.3	-51.2	3.5	0.00e+00	0	47	104	0	60	43168
2026-01-28 11:38:13.21	29.24	2.26	-46.3	-51.2	3.5	0.00e+00	0	47	104	0	60	42942
2026-01-28 11:38:14.21	29.12	2.31	-46.3	-51.2	3.6	0.00e+00	0	47	104	0	60	42980
2026-01-28 11:38:15.21	28.99	2.36	-46.2	-51.2	3.6	0.00e+00	0	47	104	0	60	43134
2026-01-28 11:38:16.22	28.86	2.41	-46.3	-51.2	3.5	0.00e+00	0	47	104	0	60	43058
2026-01-28 11:38:17.22	28.73	2.46	-46.3	-51.2	3.6	0.00e+00	0	47	104	0	60	42859
2026-01-28 11:38:18.23	28.60	2.52	-46.5	-51.3	3.6	0.00e+00	0	47	104	0	60	43447
2026-01-28 11:38:19.23	28.47	2.57	-46.5	-51.3	3.6	0.00e+00	0	47	104	0	60	43417
2026-01-28 11:38:20.24	28.34	2.62	-46.5	-51.3	3.6	0.00e+00	0	47	104	0	60	43342
2026-01-28 11:38:21.25	28.21	2.67	-46.5	-51.3	3.6	0.00e+00	0	47	104	0	60	43415
2026-01-28 11:38:22.26	28.08	2.72	-46.5	-51.3	3.6	0.00e+00	0	47	104	0	60	43328
2026-01-28 11:38:23.27	27.94	2.77	-46.4	-51.3	3.6	0.00e+00	0	47	104	0	60	43297
2026-01-28 11:38:24.28	27.81	2.83	-46.6	-51.3	3.6	0.00e+00	0	47	104	0	60	43592
2026-01-28 11:38:25.28	27.68	2.88	-46.6	-51.3	3.6	0.00e+00	0	47	104	0	60	43394
2026-01-28 11:38:26.29	27.54	2.93	-46.6	-51.3	3.6	0.00e+00	0	47	104	0	60	43636
2026-01-28 11:38:27.30	27.41	2.98	-46.5	-51.2	3.6	0.00e+00	0	47	104	0	60	43071
2026-01-28 11:38:28.30	27.27	3.03	-46.5	-51.2	3.6	0.00e+00	0	47	104	0	60	43202
2026-01-28 11:38:29.31	27.13	3.08	-46.5	-51.2	3.5	0.00e+00	0	47	104	0	60	43123
2026-01-28 11:38:30.31	27.00	3.14	-46.3	-51.2	3.6	0.00e+00	0	47	104	0	60	42945
2026-01-28 11:38:31.32	26.86	3.19	-46.3	-51.1	3.6	0.00e+00	0	47	104	0	60	42701
2026-01-28 11:38:32.33	26.72	3.24	-46.3	-51.3	3.6	0.00e+00	0	47	104	0	60	43349
2026-01-28 11:38:33.34	26.58	3.29	-46.4	-51.3	3.6	0.00e+00	0	47	104	0	60	43505
2026-01-28 11:38:34.35	26.44	3.34	-46.4	-51.2	3.6	0.00e+00	0	47	104	0	60	42819
2026-01-28 11:38:35.36	26.30	3.40	-46.3	-51.2	3.6	0.00e+00	0	47	104	0	60	42957
2026-01-28 11:38:36.36	26.16	3.45	-46.2	-51.1	3.6	0.00e+00	0	47	104	0	60	42468
2026-01-28 11:38:37.37	26.02	3.50	-46.2	-51.2	3.6	0.00e+00	0	47	104	0	60	42717
2026-01-28 11:38:38.38	25.88	3.55	-46.2	-51.2	3.6	0.00e+00	0	47	104	0	60	43204
2026-01-28 11:38:39.38	25.73	3.60	-46.2	-51.1	3.6	0.00e+00	0	47	104	0	60	42703
2026-01-28 11:38:40.39	25.59	3.65	-46.2	-51.1	3.6	0.00e+00	0	47	104	0	60	42697
2026-01-28 11:38:41.40	25.45	3.71	-46.1	-51.2	3.6	0.00e+00	0	47	104	0	60	42716
2026-01-28 11:38:42.40	25.30	3.76	-46.0	-51.0	3.6	0.00e+00	0	47	104	0	60	42065
2026-01-28 11:38:43.41	25.16	3.81	-46.0	-51.0	3.6	0.00e+00	0	47	104	0	60	42146
2026-01-28 11:38:44.42	25.01	3.86	-46.0	-51.1	3.6	0.00e+00	0	47	104	0	60	42270
2026-01-28 11:38:45.43	24.86	3.91	-46.0	-51.0	3.6	0.00e+00	0	47	104	0	60	42173
2026-01-28 11:38:46.43	24.72	3.96	-45.9	-51.0	3.6	0.00e+00	0	47	104	0	60	42049
2026-01-28 11:38:47.44	24.57	4.01	-45.9	-51.0	3.6	0.00e+00	0	47	104	0	60	42155
2026-01-28 11:38:48.45	24.42	4.07	-45.8	-51.0	3.5	0.00e+00	0	47	104	0	60	42018
2026-01-28 11:38:49.45	24.27	4.12	-45.8	-51.0	3.6	0.00e+00	0	47	104	0	60	41957
2026-01-28 11:38:50.46	24.12	4.17	-45.7	-50.9	3.6	0.00e+00	0	47	104	0	60	41575
2026-01-28 11:38:51.47	23.97	4.22	-45.8	-51.0	3.6	0.00e+00	0	47	104	0	60	41845
2026-01-28 11:38:52.48	23.82	4.27	-45.9	-51.1	3.6	0.00e+00	0	47	104	0	60	42476
2026-01-28 11:38:53.48	23.66	4.32	-45.9	-51.0	3.6	0.00e+00	0	47	104	0	60	41986
2026-01-28 11:38:54.49	23.51	4.37	-45.9	-51.0	3.6	0.00e+00	0	47	104	0	60	42067
2026-01-28 11:38:55.50	23.36	4.43	-45.7	-51.0	3.6	0.00e+00	0	47	104	0	60	41800
2026-01-28 11:38:56.50	23.20	4.48	-45.7	-51.0	3.6	0.00e+00	0	47	104	0	60	42031
2026-01-28 11:38:57.51	23.05	4.53	-45.8	-51.0	3.6	0.00e+00	0	47	104	0	60	41793
2026-01-28 11:38:58.51	22.89	4.58	-45.8	-50.9	3.6	0.00e+00	0	47	104	0	60	41622
2026-01-28 11:38:59.52	22.74	4.63	-45.8	-51.0	3.5	0.00e+00	0	47	104	0	60	41980
2026-01-28 11:39:00.52	22.58	4.68	-45.9	-51.0	3.5	0.00e+00	0	47	104	0	60	41973
2026-01-28 11:39:01.53	22.42	4.73	-45.9	-50.9	3.5	0.00e+00	0	47	104	0	60	41716
2026-01-28 11:39:02.54	22.26	4.78	-45.9	-51.0	3.6	0.00e+00	0	47	104	0	60	41903
2026-01-28 11:39:03.53	22.11	4.83	-45.8	-51.0	3.5	0.00e+00	0	47	104	0	60	41858
2026-01-28 11:39:04.53	21.95	4.89	-45.8	-51.0	3.6	0.00e+00	0	47	104	0	60	41751
2026-01-28 11:39:05.54	21.79	4.94	-45.9	-51.0	3.6	0.00e+00	0	47	104	0	60	42035
2026-01-28 11:39:06.55	21.63	4.99	-45.9	-51.0	3.6	0.00e+00	0	47	104	0	60	41987
2026-01-28 11:39:07.55	21.46	5.04	-45.7	-51.0	3.6	0.00e+00	0	47	104	0	60	42004
2026-01-28 11:39:08.56	21.30	5.09	-45.7	-50.9	3.6	0.00e+00	0	47	104	0	60	41621
2026-01-28 11:39:09.56	21.14	5.14	-45.8	-51.0	3.6	0.00e+00	0	48	104	0	60	41787
2026-01-28 11:39:10.57	20.97	5.19	-45.8	-51.0	3.6	0.00e+00	0	47	104	0	60	41758
2026-01-28 11:39:11.58	20.81	5.24	-45.7	-50.9	3.6	0.00e+00	0	48	104	0	60	41635
2026-01-28 11:39:12.59	20.64	5.29	-45.7	-50.9	3.6	0.00e+00	0	48	104	0	60	41358
2026-01-28 11:39:13.60	20.47	5.34	-45.8	-50.9	3.6	0.00e+00	0	48	104	0	60	41673
2026-01-28 11:39:14.61	20.31	5.39	-45.7	-50.9	3.6	0.00e+00	0	48	104	0	60	41573
2026-01-28 11:39:15.62	20.14	5.44	-45.8	-50.9	3.6	0.00e+00	0	48	104	0	60	41620
2026-01-28 11:39:16.62	19.97	5.49	-45.8	-50.9	3.6	0.00e+00	0	48	104	0	60	41561
2026-01-28 11:39:17.62	19.80	5.54	-45.7	-50.9	3.6	0.00e+00	0	48	104	0	60	41506
2026-01-28 11:39:18.63	19.63	5.59	-45.7	-50.9	3.6	0.00e+00	0	47	104	0	60	41728
2026-01-28 11:39:19.63	19.46	5.64	-45.7	-51.0	3.6	0.00e+00	0	48	104	0	60	41784
2026-01-28 11:39:20.64	19.29	5.69	-45.6	-50.8	3.6	0.00e+00	0	48	104	0	60	41163
2026-01-28 11:39:21.65	19.12	5.74	-45.7	-50.9	3.6	0.00e+00	0	48	104	0	60	41342
2026-01-28 11:39:22.66	18.94	5.79	-45.7	-50.8	3.5	0.00e+00	0	48	104	0	60	41200
2026-01-28 11:39:23.66	18.77	5.84	-45.7	-50.8	3.6	0.00e+00	0	48	104	0	60	41260
2026-01-28 11:39:24.66	18.60	5.89	-45.9	-50.9	3.6	0.00e+00	0	48	104	0	60	41634
2026-01-28 11:39:25.67	18.42	5.94	-45.9	-50.9	3.6	0.00e+00	0	48	104	0	60	41549
2026-01-28 11:39:26.68	18.24	5.99	-45.9	-51.0	3.6	0.00e+00	0	48	104	0	60	41899
2026-01-28 11:39:27.68	18.07	6.04	-46.5	-52.0	3.6	0.00e+00	0	48	104	0	60	47129
2026-01-28 11:39:28.69	17.89	6.09	-50.5	-53.7	3.6	0.00e+00	0	48	104	0	60	57503
2026-01-28 11:39:29.70	17.71	6.14	-49.7	-53.2	3.6	0.00e+00	0	48	104	0	60	53827
2026-01-28 11:39:30.70	17.53	6.19	-48.5	-53.9	3.6	0.00e+00	0	48	104	0	60	58960
2026-01-28 11:39:31.71	17.35	6.24	-48.6	-52.2	3.6	0.00e+00	0	48	104	0	60	48188
2026-01-28 11:39:32.72	17.17	6.29	-48.4	-51.5	3.6	0.00e+00	0	48	104	0	60	44320
2026-01-28 11:39:33.72	16.99	6.34	-49.3	-52.0	3.6	0.00e+00	0	48	104	0	60	47375
2026-01-28 11:39:34.73	16.81	6.38	-48.6	-52.2	3.6	0.00e+00	0	48	104	0	60	48043
2026-01-28 11:39:35.73	16.63	6.43	-50.7	-55.4	3.6	0.00e+00	0	48	104	0	60	69606
2026-01-28 11:39:36.74	16.44	6.48	-49.7	-55.4	3.6	0.00e+00	0	48	104	0	60	70002
2026-01-28 11:39:37.74	16.26	6.53	-50.4	-56.0	3.6	0.00e+00	0	48	104	0	60	74502
2026-01-28 11:39:38.75	16.07	6.58	-50.0	-55.3	3.5	0.00e+00	0	48	104	0	60	68599
2026-01-28 11:39:39.76	15.88	6.63	-49.5	-55.7	3.6	0.00e+00	0	48	104	0	60	72004
2026-01-28 11:39:40.76	15.70	6.67	-49.7	-55.8	3.6	0.00e+00	0	48	104	0	60	72896
2026-01-28 11:39:41.77	15.51	6.72	-51.7	-56.5	3.6	0.00e+00	0	48	104	0	60	78723
2026-01-28 11:39:42.77	15.32	6.77	-50.5	-55.9	3.6	0.00e+00	0	48	104	0	60	74058
2026-01-28 11:39:43.78	15.13	6.82	-52.5	-56.2	3.6	0.00e+00	0	48	104	0	60	76095
2026-01-28 11:39:44.79	14.94	6.87	-52.4	-56.3	3.6	0.00e+00	0	48	104	0	60	77467
2026-01-28 11:39:45.80	14.75	6.91	-52.1	-56.1	3.6	0.00e+00	0	48	104	0	60	75538
2026-01-28 11:39:46.80	14.56	6.96	-51.4	-54.9	3.6	0.00e+00	0	48	104	0	60	65491
2026-01-28 11:39:47.81	14.37	7.01	-49.5	-53.6	3.6	0.00e+00	0	48	104	0	60	56913
2026-01-28 11:39:48.82	14.17	7.05	-49.7	-53.7	3.6	0.00e+00	0	48	104	0	60	57389
2026-01-28 11:39:49.82	13.98	7.10	-49.7	-53.8	3.6	0.00e+00	0	48	104	0	60	57700
2026-01-28 11:39:50.83	13.78	7.15	-50.0	-53.8	3.6	0.00e+00	0	48	104	0	60	58080
2026-01-28 11:39:51.84	13.59	7.19	-52.0	-55.8	3.6	0.00e+00	0	48	104	0	60	73335
2026-01-28 11:39:52.85	13.39	7.24	-53.7	-57.9	3.6	0.00e+00	0	48	104	0	60	92589
2026-01-28 11:39:53.86	13.19	7.29	-51.8	-55.5	3.6	0.00e+00	0	48	104	0	60	70840
2026-01-28 11:39:54.86	13.00	7.33	-51.3	-55.1	3.6	0.00e+00	0	48	104	0	60	67078
2026-01-28 11:39:55.87	12.80	7.38	-51.8	-56.6	3.6	0.00e+00	0	48	104	0	60	79732
2026-01-28 11:39:56.88	12.60	7.43	-53.3	-56.2	3.6	0.00e+00	0	48	104	0	60	76806
2026-01-28 11:39:57.89	12.39	7.47	-50.5	-55.8	3.6	0.00e+00	0	48	104	0	60	72701
2026-01-28 11:39:58.89	12.19	7.52	-49.7	-55.8	3.6	0.00e+00	0	48	104	0	60	72718
2026-01-28 11:39:59.90	11.99	7.56	-53.6	-56.7	3.6	0.00e+00	0	48	104	0	60	81130
2026-01-28 11:40:00.91	11.79	7.61	-55.3	-59.1	3.6	0.00e+00	0	48	104	0	60	107005
2026-01-28 11:40:01.92	11.58	7.65	-51.7	-57.5	3.6	0.00e+00	0	48	104	0	60	89079
2026-01-28 11:40:02.93	11.38	7.70	-54.7	-58.7	3.6	0.00e+00	0	48	104	0	60	101915
2026-01-28 11:40:03.94	11.17	7.74	-52.2	-57.2	3.6	0.00e+00	0	48	104	0	60	85718
2026-01-28 11:40:04.94	10.97	7.79	-52.5	-57.4	3.6	0.00e+00	0	48	104	0	60	87896
2026-01-28 11:40:05.95	10.76	7.83	-52.6	-57.7	3.6	0.00e+00	0	48	104	0	60	91186
2026-01-28 11:40:06.95	10.55	7.87	-52.0	-57.6	3.6	0.00e+00	0	48	104	0	60	89317
2026-01-28 11:40:07.96	10.35	7.92	-54.2	-58.5	3.6	0.00e+00	0	48	104	0	60	99411
2026-01-28 11:40:08.96	10.14	7.96	-53.3	-58.0	3.6	0.00e+00	0	48	104	0	60	94330
2026-01-28 11:40:09.97	9.93	8.00	-53.2	-57.8	3.6	0.00e+00	0	48	104	0	60	91800
2026-01-28 11:40:10.98	9.72	8.05	-54.1	-58.0	3.6	0.00e+00	0	48	104	0	60	94018
2026-01-28 11:40:11.98	9.51	8.09	-54.1	-58.0	3.6	0.00e+00	0	48	104	0	60	94311
2026-01-28 11:40:12.98	9.30	8.13	-53.5	-57.9	3.6	0.00e+00	0	48	104	0	60	92751
2026-01-28 11:40:13.98	9.08	8.17	-52.5	-57.4	3.6	0.00e+00	0	48	104	0	60	87653
2026-01-28 11:40:14.99	8.87	8.22	-53.2	-57.7	3.6	0.00e+00	0	48	104	0	60	90957
2026-01-28 11:40:16.00	8.65	8.26	-53.7	-58.0	3.6	0.00e+00	0	48	104	0	60	94309
2026-01-28 11:40:17.01	8.44	8.30	-52.3	-57.5	3.6	0.00e+00	0	48	104	0	60	88542
2026-01-28 11:40:18.02	8.22	8.34	-53.8	-58.2	3.6	0.00e+00	0	48	104	0	60	96507
2026-01-28 11:40:19.02	8.01	8.38	-54.6	-58.5	3.6	0.00e+00	0	48	104	0	60	99019
2026-01-28 11:40:20.03	7.79	8.43	-53.7	-58.0	3.6	0.00e+00	0	48	104	0	60	94377
2026-01-28 11:40:21.04	7.57	8.47	-52.9	-57.9	3.6	0.00e+00	0	48	104	0	60	92551
2026-01-28 11:40:22.05	7.35	8.51	-53.9	-58.2	3.6	0.00e+00	0	48	104	0	60	95976
2026-01-28 11:40:23.05	7.13	8.55	-53.9	-58.2	3.6	0.00e+00	0	48	104	0	60	95704
2026-01-28 11:40:24.06	6.91	8.59	-53.0	-56.4	3.6	0.00e+00	0	48	104	0	60	78342
2026-01-28 11:40:25.06	6.69	8.63	-52.7	-57.6	3.6	0.00e+00	0	48	104	0	60	89316
2026-01-28 11:40:26.06	6.47	8.67	-52.8	-57.3	3.6	0.00e+00	0	48	104	0	60	86221
2026-01-28 11:40:27.07	6.24	8.71	-53.7	-57.9	3.6	0.00e+00	0	48	104	0	60	92663
2026-01-28 11:40:28.08	6.02	8.74	-53.3	-57.8	3.6	0.00e+00	0	48	104	0	60	92197
2026-01-28 11:40:29.08	5.80	8.78	-54.5	-58.7	3.6	0.00e+00	0	48	104	0	60	102113
2026-01-28 11:40:30.09	5.57	8.82	-53.8	-57.0	3.6	0.00e+00	0	48	104	0	60	83509
2026-01-28 11:40:31.10	5.34	8.86	-52.8	-57.1	3.6	0.00e+00	0	48	104	0	60	84861
2026-01-28 11:40:32.10	5.12	8.90	-53.7	-57.2	3.6	0.00e+00	0	48	104	0	60	85551
2026-01-28 11:40:33.11	4.89	8.94	-53.1	-57.0	3.6	0.00e+00	0	48	104	0	60	83803
2026-01-28 11:40:34.12	4.66	8.97	-52.7	-57.1	3.6	0.00e+00	0	48	104	0	60	84258
2026-01-28 11:40:35.12	4.43	9.01	-53.1	-57.2	3.6	0.00e+00	0	48	104	0	60	85823
2026-01-28 11:40:36.13	4.20	9.05	-53.6	-57.3	3.6	0.00e+00	0	48	104	0	60	86654
2026-01-28 11:40:37.14	3.97	9.08	-55.0	-58.9	3.6	0.00e+00	0	48	104	0	60	104818
2026-01-28 11:40:38.14	3.74	9.12	-53.6	-57.2	3.6	0.00e+00	0	48	104	0	60	85893
2026-01-28 11:40:39.15	3.51	9.15	-53.4	-57.5	3.6	0.00e+00	0	48	104	0	60	88633
2026-01-28 11:40:40.15	3.28	9.19	-53.8	-57.4	3.6	0.00e+00	0	48	104	0	60	88158
2026-01-28 11:40:41.16	3.04	9.22	-53.6	-57.3	3.6	0.00e+00	0	48	104	0	60	87189
2026-01-28 11:40:42.17	2.81	9.26	-53.6	-57.5	3.6	0.00e+00	0	48	104	0	60	88658
2026-01-28 11:40:43.17	2.58	9.29	-53.2	-57.4	3.6	0.00e+00	0	48	104	0	60	88121
2026-01-28 11:40:44.17	2.34	9.33	-53.0	-57.3	3.6	0.00e+00	0	48	104	0	60	86535
2026-01-28 11:40:45.18	2.11	9.36	-53.3	-57.5	3.6	0.00e+00	0	48	104	0	60	88366
2026-01-28 11:40:46.18	1.87	9.40	-53.4	-57.5	3.6	0.00e+00	0	48	104	0	60	89116
2026-01-28 11:40:47.19	1.63	9.43	-54.3	-58.6	3.6	0.00e+00	0	48	104	0	60	100467
2026-01-28 11:40:48.20	1.39	9.46	-53.1	-57.1	3.6	0.00e+00	0	48	104	0	60	84447
2026-01-28 11:40:49.19	1.16	9.49	-52.9	-57.0	3.6	0.00e+00	0	48	104	0	60	83535
2026-01-28 11:40:50.20	0.92	9.53	-52.8	-56.9	3.6	0.00e+00	0	48	104	0	60	82885
2026-01-28 11:40:51.21	0.68	9.56	-52.5	-56.7	3.6	0.00e+00	0	48	104	0	60	81306
2026-01-28 11:40:52.22	0.44	9.59	-53.7	-57.4	3.6	0.00e+00	0	48	104	0	60	87542
2026-01-28 11:40:53.23	0.20	9.62	-53.8	-57.7	3.6	0.00e+00	0	48	104	0	60	90510
2026-01-28 11:40:54.23	359.96	9.65	-53.2	-57.2	3.6	0.00e+00	0	48	104	0	60	85756
2026-01-28 11:40:55.24	359.71	9.68	-53.5	-57.3	3.6	0.00e+00	0	48	104	0	60	86856
2026-01-28 11:40:56.24	359.47	9.71	-52.8	-56.9	3.6	0.00e+00	0	48	104	0	60	82555
2026-01-28 11:40:57.24	359.23	9.74	-53.4	-57.2	3.6	0.00e+00	0	48	104	0	60	86202
2026-01-28 11:40:58.25	358.98	9.77	-53.4	-57.2	3.6	0.00e+00	0	48	104	0	60	85794
2026-01-28 11:40:59.26	358.74	9.80	-53.9	-57.5	3.6	0.00e+00	0	48	104	0	60	88859
2026-01-28 11:41:00.26	358.49	9.83	-54.1	-57.7	3.6	0.00e+00	0	48	104	0	60	91234
2026-01-28 11:41:01.26	358.25	9.86	-54.4	-58.2	3.6	0.00e+00	0	48	104	0	60	96617
2026-01-28 11:41:02.25	358.01	9.88	-53.2	-57.5	3.6	0.00e+00	0	48	104	0	60	88279
2026-01-28 11:41:03.26	357.76	9.91	-54.5	-58.2	3.6	0.00e+00	0	48	104	0	60	95828
2026-01-28 11:41:04.27	357.51	9.94	-54.1	-57.6	3.5	0.00e+00	0	48	104	0	60	90096
2026-01-28 11:41:05.28	357.26	9.96	-53.9	-57.7	3.6	0.00e+00	0	48	104	0	60	90507
2026-01-28 11:41:06.29	357.01	9.99	-53.9	-57.8	3.6	0.00e+00	0	48	104	0	60	91930
2026-01-28 11:41:07.29	356.76	10.02	-54.0	-57.8	3.6	0.00e+00	0	48	104	0	60	91814
2026-01-28 11:41:08.29	356.51	10.04	-53.4	-58.0	3.6	0.00e+00	0	48	104	0	60	94366
2026-01-28 11:41:09.30	356.26	10.07	-54.1	-58.2	3.6	0.00e+00	0	48	104	0	60	96569
2026-01-28 11:41:10.31	356.01	10.09	-53.4	-57.8	3.6	0.00e+00	0	48	104	0	60	91623
2026-01-28 11:41:11.32	355.76	10.11	-52.1	-57.3	3.6	0.00e+00	0	48	104	0	60	86883
2026-01-28 11:41:12.32	355.51	10.14	-52.7	-57.5	3.6	0.00e+00	0	48	104	0	60	88725
2026-01-28 11:41:13.33	355.25	10.16	-52.2	-57.4	3.6	0.00e+00	0	48	104	0	60	87276
2026-01-28 11:41:14.33	355.00	10.18	-52.2	-57.3	3.6	0.00e+00	0	48	104	0	60	87198
2026-01-28 11:41:15.34	354.75	10.21	-52.9	-57.6	3.6	0.00e+00	0	48	104	0	60	90048
2026-01-28 11:41:16.35	354.49	10.23	-53.2	-57.7	3.6	0.00e+00	0	48	104	0	60	91215
2026-01-28 11:41:17.36	354.24	10.25	-54.5	-58.4	3.6	0.00e+00	0	48	104	0	60	98541
2026-01-28 11:41:18.36	353.99	10.27	-53.3	-57.7	3.6	0.00e+00	0	48	104	0	60	91026
2026-01-28 11:41:19.36	353.73	10.29	-53.9	-57.9	3.6	0.00e+00	0	48	104	0	60	93370
2026-01-28 11:41:20.37	353.47	10.31	-53.3	-57.8	3.6	0.00e+00	0	48	104	0	60	91769
2026-01-28 11:41:21.38	353.22	10.33	-53.8	-58.0	3.6	0.00e+00	0	48	104	0	60	93696
2026-01-28 11:41:22.38	352.96	10.35	-54.0	-58.0	3.6	0.00e+00	0	48	104	0	60	94061
2026-01-28 11:41:23.39	352.70	10.37	-53.8	-58.0	3.6	0.00e+00	0	48	104	0	60	93865
2026-01-28 11:41:24.39	352.45	10.39	-53.0	-57.8	3.6	0.00e+00	0	48	104	0	60	91562
2026-01-28 11:41:25.40	352.19	10.41	-53.8	-58.1	3.6	0.00e+00	0	48	104	0	60	95609
2026-01-28 11:41:26.41	351.93	10.42	-54.4	-58.3	3.6	0.00e+00	0	48	104	0	60	97455
2026-01-28 11:41:27.42	351.67	10.44	-54.6	-58.3	3.6	0.00e+00	0	48	104	0	60	97071
2026-01-28 11:41:28.42	351.41	10.46	-54.3	-58.1	3.6	0.00e+00	0	48	104	0	60	95348
2026-01-28 11:41:29.42	351.16	10.47	-53.5	-57.9	3.6	0.00e+00	0	48	104	0	60	92978
2026-01-28 11:41:30.43	350.90	10.49	-53.0	-57.8	3.6	0.00e+00	0	48	104	0	60	91963
2026-01-28 11:41:31.43	350.64	10.50	-53.3	-57.9	3.6	0.00e+00	0	48	104	0	60	93133
2026-01-28 11:41:32.44	350.38	10.52	-54.0	-58.0	3.6	0.00e+00	0	48	104	0	60	94015
2026-01-28 11:41:33.44	350.12	10.53	-53.4	-57.9	3.6	0.00e+00	0	48	104	0	60	92910
2026-01-28 11:41:34.45	349.85	10.55	-54.1	-58.0	3.6	0.00e+00	0	48	104	0	60	94195
2026-01-28 11:41:35.46	349.59	10.56	-54.3	-58.2	3.6	0.00e+00	0	48	104	0	60	96071
2026-01-28 11:41:36.46	349.33	10.57	-54.4	-58.0	3.6	0.00e+00	0	48	104	0	60	94428
2026-01-28 11:41:37.47	349.07	10.58	-54.3	-58.1	3.6	0.00e+00	0	48	104	0	60	94832
2026-01-28 11:41:38.48	348.81	10.60	-54.3	-58.0	3.6	0.00e+00	0	48	104	0	60	94290
2026-01-28 11:41:39.48	348.55	10.61	-54.3	-58.0	3.6	0.00e+00	0	48	104	0	60	93457
2026-01-28 11:41:40.49	348.28	10.62	-54.3	-57.9	3.6	0.00e+00	0	48	104	0	60	93131
2026-01-28 11:41:41.49	348.02	10.63	-53.9	-57.8	3.6	0.00e+00	0	48	104	0	60	91616
2026-01-28 11:41:42.50	347.76	10.64	-54.2	-57.8	3.6	0.00e+00	0	48	104	0	60	91776
2026-01-28 11:41:43.51	347.49	10.65	-54.1	-57.8	3.6	0.00e+00	0	48	104	0	60	92368
2026-01-28 11:41:44.52	347.23	10.66	-53.8	-57.9	3.6	0.00e+00	0	48	104	0	60	92794
2026-01-28 11:41:45.53	346.96	10.66	-53.8	-57.8	3.6	0.00e+00	0	48	104	0	60	92290
2026-01-28 11:41:46.54	346.70	10.67	-54.3	-58.0	3.6	0.00e+00	0	48	104	0	60	94137
2026-01-28 11:41:47.54	346.44	10.68	-54.0	-58.0	3.6	0.00e+00	0	48	104	0	60	93577
2026-01-28 11:41:48.54	346.17	10.69	-53.6	-57.9	3.6	0.00e+00	0	48	104	0	60	92471
2026-01-28 11:41:49.55	345.91	10.69	-53.9	-57.9	3.6	0.00e+00	0	48	104	0	60	93189
2026-01-28 11:41:50.56	345.64	10.70	-54.1	-58.1	3.6	0.00e+00	0	48	104	0	60	94562
2026-01-28 11:41:51.57	345.38	10.70	-54.0	-58.0	3.6	0.00e+00	0	48	104	0	60	94212
2026-01-28 11:41:52.57	345.12	10.71	-53.4	-57.8	3.6	0.00e+00	0	48	104	0	60	92047
2026-01-28 11:41:53.58	344.85	10.71	-54.2	-58.1	3.6	0.00e+00	0	48	104	0	60	94919
2026-01-28 11:41:54.59	344.58	10.72	-54.0	-58.1	3.6	0.00e+00	0	48	104	0	60	95041
2026-01-28 11:41:55.59	344.32	10.72	-53.9	-57.9	3.6	0.00e+00	0	48	104	0	60	93168
2026-01-28 11:41:56.60	344.05	10.72	-54.2	-58.0	3.6	0.00e+00	0	48	104	0	60	94392
2026-01-28 11:41:57.61	343.79	10.72	-53.8	-57.9	3.6	0.00e+00	0	48	104	0	60	92385
2026-01-28 11:41:58.62	343.52	10.73	-53.8	-58.0	3.6	0.00e+00	0	48	104	0	60	93970
2026-01-28 11:41:59.62	343.26	10.73	-53.9	-57.8	3.6	0.00e+00	0	48	104	0	60	91909
2026-01-28 11:42:00.63	342.99	10.73	-53.9	-57.8	3.6	0.00e+00	0	48	104	0	60	92242
2026-01-28 11:42:01.64	342.73	10.73	-53.8	-57.9	3.6	0.00e+00	0	48	104	0	60	92578
2026-01-28 11:42:02.64	342.46	10.73	-53.7	-57.9	3.6	0.00e+00	0	48	104	0	60	93197
2026-01-28 11:42:03.64	342.20	10.73	-54.0	-57.9	3.6	0.00e+00	0	48	104	0	60	92686
2026-01-28 11:42:04.65	341.93	10.73	-54.2	-58.0	3.6	0.00e+00	0	48	104	0	60	94261
2026-01-28 11:42:05.66	341.67	10.72	-54.2	-58.0	3.6	0.00e+00	0	48	104	0	60	93853
2026-01-28 11:42:06.66	341.40	10.72	-52.2	-57.3	3.6	0.00e+00	0	48	104	0	60	86468
2026-01-28 11:42:07.67	341.14	10.72	-52.6	-57.4	3.6	0.00e+00	0	48	104	0	60	87910
2026-01-28 11:42:08.67	340.87	10.72	-52.6	-57.4	3.5	0.00e+00	0	48	104	0	60	88181
2026-01-28 11:42:09.68	340.61	10.71	-52.2	-57.2	3.6	0.00e+00	0	48	104	0	60	85843
2026-01-28 11:42:10.69	340.34	10.71	-52.0	-57.0	3.6	0.00e+00	0	48	104	0	60	83983
2026-01-28 11:42:11.69	340.08	10.70	-52.8	-57.4	3.6	0.00e+00	0	48	104	0	60	87538
2026-01-28 11:42:12.70	339.81	10.70	-53.4	-57.6	3.6	0.00e+00	0	48	104	0	60	89391
2026-01-28 11:42:13.71	339.55	10.69	-52.7	-57.5	3.5	0.00e+00	0	48	104	0	60	88676
2026-01-28 11:42:14.72	339.28	10.69	-51.6	-56.9	3.6	0.00e+00	0	48	104	0	60	83212
2026-01-28 11:42:15.72	339.02	10.68	-52.2	-57.2	3.6	0.00e+00	0	48	104	0	60	85536
2026-01-28 11:42:16.73	338.76	10.67	-52.0	-57.1	3.6	0.00e+00	0	48	104	0	60	85026
2026-01-28 11:42:17.74	338.49	10.66	-51.7	-57.1	3.6	0.00e+00	0	48	104	0	60	84548
2026-01-28 11:42:18.74	338.23	10.66	-51.8	-57.1	3.6	0.00e+00	0	48	104	0	60	84689
2026-01-28 11:42:19.75	337.96	10.65	-51.7	-57.0	3.6	0.00e+00	0	48	104	0	60	83376
2026-01-28 11:42:20.75	337.70	10.64	-53.5	-57.5	3.6	0.00e+00	0	48	104	0	60	88361
2026-01-28 11:42:21.76	337.44	10.63	-50.7	-56.5	3.6	0.00e+00	0	48	104	0	60	78806
2026-01-28 11:42:22.76	337.18	10.62	-50.7	-56.5	3.6	0.00e+00	0	48	104	0	60	79493
2026-01-28 11:42:23.77	336.91	10.61	-50.4	-56.3	3.6	0.00e+00	0	48	104	0	60	77465
2026-01-28 11:42:24.77	336.65	10.60	-50.5	-56.4	3.6	0.00e+00	0	48	104	0	60	77878
2026-01-28 11:42:25.78	336.39	10.58	-50.1	-56.2	3.6	0.00e+00	0	48	104	0	60	75971
2026-01-28 11:42:26.79	336.13	10.57	-50.3	-56.2	3.6	0.00e+00	0	48	104	0	60	76181
2026-01-28 11:42:27.79	335.87	10.56	-50.6	-56.4	3.6	0.00e+00	0	48	104	0	60	77848
2026-01-28 11:42:28.80	335.60	10.55	-53.2	-57.5	3.6	0.00e+00	0	48	104	0	60	88729
2026-01-28 11:42:29.81	335.34	10.53	-50.8	-56.6	3.6	0.00e+00	0	48	104	0	60	79837
2026-01-28 11:42:30.81	335.08	10.52	-51.6	-56.9	3.6	0.00e+00	0	48	104	0	60	82599
2026-01-28 11:42:31.82	334.82	10.50	-50.8	-56.5	3.6	0.00e+00	0	48	104	0	60	79335
2026-01-28 11:42:32.83	334.56	10.49	-51.0	-56.6	3.6	0.00e+00	0	48	104	0	60	80287
2026-01-28 11:42:33.84	334.30	10.47	-51.4	-56.8	3.6	0.00e+00	0	48	104	0	60	82173
2026-01-28 11:42:34.85	334.04	10.46	-51.7	-56.9	3.6	0.00e+00	0	48	104	0	60	82839
2026-01-28 11:42:35.85	333.78	10.44	-53.0	-57.4	3.6	0.00e+00	0	48	104	0	60	88204
2026-01-28 11:42:36.86	333.52	10.42	-51.6	-56.8	3.6	0.00e+00	0	48	104	0	60	81875
2026-01-28 11:42:37.86	333.26	10.41	-52.7	-57.3	3.6	0.00e+00	0	48	104	0	60	86550
2026-01-28 11:42:38.87	333.01	10.39	-50.5	-56.1	3.6	0.00e+00	0	48	104	0	60	75594
2026-01-28 11:42:39.87	332.75	10.37	-52.9	-57.4	3.6	0.00e+00	0	48	104	0	60	87905
2026-01-28 11:42:40.88	332.49	10.35	-51.8	-56.9	3.6	0.00e+00	0	48	104	0	60	82615
2026-01-28 11:42:41.88	332.24	10.33	-50.5	-56.1	3.6	0.00e+00	0	48	104	0	60	75658
2026-01-28 11:42:42.88	331.98	10.31	-50.1	-55.9	3.6	0.00e+00	0	48	104	0	60	73682
2026-01-28 11:42:43.89	331.72	10.29	-53.6	-57.6	3.6	0.00e+00	0	48	104	0	60	89577
2026-01-28 11:42:44.89	331.47	10.27	-53.8	-57.6	3.6	0.00e+00	0	48	104	0	60	90010
2026-01-28 11:42:45.90	331.21	10.25	-53.2	-57.5	3.6	0.00e+00	0	48	104	0	60	88738
2026-01-28 11:42:46.91	330.96	10.23	-51.7	-56.7	3.6	0.00e+00	0	48	104	0	60	81111
2026-01-28 11:42:47.92	330.70	10.21	-54.2	-57.9	3.6	0.00e+00	0	48	104	0	60	92655
2026-01-28 11:42:48.92	330.45	10.18	-52.5	-57.1	3.6	0.00e+00	0	48	104	0	60	84773
2026-01-28 11:42:49.92	330.20	10.16	-52.8	-57.1	3.6	0.00e+00	0	48	104	0	60	85049
2026-01-28 11:42:50.92	329.95	10.14	-53.0	-57.2	3.6	0.00e+00	0	48	104	0	60	85736
2026-01-28 11:42:51.93	329.70	10.12	-50.3	-56.1	3.6	0.00e+00	0	48	104	0	60	75938
2026-01-28 11:42:52.93	329.45	10.09	-53.9	-57.6	3.6	0.00e+00	0	48	104	0	60	89253
2026-01-28 11:42:53.94	329.19	10.07	-54.1	-57.7	3.6	0.00e+00	0	48	104	0	60	90653
2026-01-28 11:42:54.94	328.94	10.04	-54.0	-57.6	3.6	0.00e+00	0	48	104	0	60	89370
2026-01-28 11:42:55.95	328.69	10.02	-53.9	-57.7	3.6	0.00e+00	0	48	104	0	60	90960
2026-01-28 11:42:56.96	328.44	9.99	-54.0	-57.6	3.6	0.00e+00	0	48	104	0	60	89758
2026-01-28 11:42:57.97	328.19	9.97	-53.7	-57.5	3.6	0.00e+00	0	48	104	0	60	88869
2026-01-28 11:42:58.97	327.94	9.94	-53.6	-57.5	3.6	0.00e+00	0	48	104	0	60	89034
2026-01-28 11:42:59.98	327.70	9.91	-53.6	-57.6	3.6	0.00e+00	0	48	104	0	60	89426
2026-01-28 11:43:00.98	327.45	9.88	-53.9	-57.7	3.6	0.00e+00	0	48	104	0	60	90457
2026-01-28 11:43:01.98	327.20	9.86	-54.0	-57.6	3.6	0.00e+00	0	48	104	0	60	89840
2026-01-28 11:43:02.99	326.96	9.83	-53.7	-57.5	3.6	0.00e+00	0	48	104	0	60	88975
2026-01-28 11:43:03.99	326.71	9.80	-54.0	-57.7	3.6	0.00e+00	0	48	104	0	60	91008
2026-01-28 11:43:05.00	326.47	9.77	-53.9	-57.6	3.6	0.00e+00	0	48	104	0	60	89712
2026-01-28 11:43:06.01	326.22	9.74	-54.0	-57.7	3.6	0.00e+00	0	48	104	0	60	90724
2026-01-28 11:43:07.01	325.98	9.71	-53.6	-57.5	3.6	0.00e+00	0	48	104	0	60	88356
2026-01-28 11:43:08.01	325.74	9.68	-54.0	-57.7	3.6	0.00e+00	0	48	104	0	60	90815
2026-01-28 11:43:09.01	325.50	9.65	-53.9	-57.8	3.6	0.00e+00	0	48	104	0	60	91337
2026-01-28 11:43:10.02	325.25	9.62	-53.9	-57.6	3.6	0.00e+00	0	48	104	0	60	89546
2026-01-28 11:43:11.02	325.01	9.59	-53.6	-57.6	3.6	0.00e+00	0	48	104	0	60	89310
2026-01-28 11:43:12.02	324.77	9.56	-54.0	-57.7	3.6	0.00e+00	0	48	104	0	60	91188
2026-01-28 11:43:13.03	324.53	9.53	-53.8	-57.6	3.6	0.00e+00	0	48	104	0	60	89970
2026-01-28 11:43:14.03	324.30	9.50	-54.1	-57.8	3.6	0.00e+00	0	48	104	0	60	91372
2026-01-28 11:43:15.04	324.06	9.46	-53.9	-57.7	3.6	0.00e+00	0	48	104	0	60	90432
2026-01-28 11:43:16.05	323.82	9.43	-53.9	-57.5	3.5	0.00e+00	0	48	104	0	60	88871
2026-01-28 11:43:17.05	323.58	9.40	-53.6	-57.4	3.6	0.00e+00	0	48	104	0	60	87885
2026-01-28 11:43:18.06	323.34	9.36	-54.0	-57.7	3.6	0.00e+00	0	48	104	0	60	91098
2026-01-28 11:43:19.07	323.11	9.33	-53.7	-57.4	3.6	0.00e+00	0	48	104	0	60	88013
2026-01-28 11:43:20.07	322.87	9.30	-53.8	-57.5	3.6	0.00e+00	0	48	104	0	60	88294
2026-01-28 11:43:21.08	322.64	9.26	-53.7	-57.4	3.6	0.00e+00	0	48	104	0	60	88031
2026-01-28 11:43:22.09	322.40	9.23	-53.7	-57.5	3.6	0.00e+00	0	48	104	0	60	88731
2026-01-28 11:43:23.09	322.17	9.19	-53.6	-57.4	3.6	0.00e+00	0	48	104	0	60	87519
2026-01-28 11:43:24.10	321.93	9.16	-53.6	-57.3	3.6	0.00e+00	0	48	104	0	60	86937
2026-01-28 11:43:25.10	321.70	9.12	-53.7	-57.2	3.6	0.00e+00	0	48	104	0	60	85706
2026-01-28 11:43:26.10	321.47	9.08	-53.7	-57.4	3.6	0.00e+00	0	48	104	0	60	88140
2026-01-28 11:43:27.11	321.24	9.05	-53.6	-57.2	3.6	0.00e+00	0	48	104	0	60	85971
2026-01-28 11:43:28.12	321.01	9.01	-53.5	-57.0	3.6	0.00e+00	0	48	104	0	60	84151
2026-01-28 11:43:29.13	320.78	8.97	-53.9	-57.3	3.6	0.00e+00	0	48	104	0	60	86906
2026-01-28 11:43:30.13	320.55	8.94	-53.7	-57.3	3.6	0.00e+00	0	48	104	0	60	86275
2026-01-28 11:43:31.14	320.33	8.90	-53.9	-57.5	3.6	0.00e+00	0	48	104	0	60	88869
2026-01-28 11:43:32.14	320.10	8.86	-53.8	-57.5	3.6	0.00e+00	0	48	104	0	60	88370
2026-01-28 11:43:33.15	319.87	8.82	-53.5	-57.2	3.6	0.00e+00	0	48	104	0	60	85287
2026-01-28 11:43:34.16	319.65	8.78	-53.8	-57.3	3.6	0.00e+00	0	48	104	0	60	86711
2026-01-28 11:43:35.17	319.42	8.74	-53.5	-57.2	3.6	0.00e+00	0	48	104	0	60	86080
2026-01-28 11:43:36.17	319.20	8.71	-53.6	-57.0	3.6	0.00e+00	0	48	104	0	60	83856
2026-01-28 11:43:37.18	318.97	8.67	-53.3	-56.8	3.6	0.00e+00	0	48	104	0	60	81721
2026-01-28 11:43:38.19	318.75	8.63	-53.8	-57.3	3.6	0.00e+00	0	48	104	0	60	86599
2026-01-28 11:43:39.20	318.53	8.59	-53.3	-57.1	3.6	0.00e+00	0	48	104	0	60	84822
2026-01-28 11:43:40.21	318.31	8.55	-53.6	-57.2	3.6	0.00e+00	0	48	104	0	60	85754
2026-01-28 11:43:41.21	318.09	8.51	-53.4	-56.8	3.6	0.00e+00	0	48	104	0	60	82131
2026-01-28 11:43:42.21	317.87	8.47	-53.3	-56.9	3.6	0.00e+00	0	48	104	0	60	82843
2026-01-28 11:43:43.21	317.65	8.43	-53.5	-57.3	3.6	0.00e+00	0	48	104	0	60	86842
2026-01-28 11:43:44.21	317.44	8.38	-53.5	-57.0	3.6	0.00e+00	0	48	104	0	60	83535
2026-01-28 11:43:45.22	317.22	8.34	-53.4	-57.0	3.6	0.00e+00	0	48	104	0	60	83466
2026-01-28 11:43:46.22	317.00	8.30	-53.4	-57.0	3.6	0.00e+00	0	48	104	0	60	83443
2026-01-28 11:43:47.22	316.79	8.26	-53.4	-56.9	3.6	0.00e+00	0	48	104	0	60	82717
2026-01-28 11:43:48.22	316.57	8.22	-52.8	-56.4	3.6	0.00e+00	0	48	104	0	60	77743
2026-01-28 11:43:49.23	316.36	8.18	-53.3	-56.8	3.6	0.00e+00	0	48	104	0	60	81853
2026-01-28 11:43:50.23	316.15	8.13	-53.0	-56.4	3.6	0.00e+00	0	48	104	0	60	77897
2026-01-28 11:43:51.23	315.94	8.09	-53.2	-56.8	3.6	0.00e+00	0	48	104	0	60	81678
2026-01-28 11:43:52.24	315.72	8.05	-53.3	-56.8	3.6	0.00e+00	0	48	104	0	60	82171
2026-01-28 11:43:53.25	315.51	8.01	-53.2	-56.6	3.6	0.00e+00	0	48	104	0	60	80264
2026-01-28 11:43:54.26	315.30	7.96	-53.2	-56.7	3.6	0.00e+00	0	48	104	0	60	80558
2026-01-28 11:43:55.26	315.09	7.92	-53.2	-56.8	3.6	0.00e+00	0	48	104	0	60	81707
2026-01-28 11:43:56.27	314.88	7.87	-53.1	-56.6	3.6	0.00e+00	0	48	104	0	60	80007
2026-01-28 11:43:57.27	314.68	7.83	-53.5	-57.1	3.6	0.00e+00	0	48	104	0	60	84876
2026-01-28 11:43:58.28	314.47	7.79	-53.0	-56.5	3.6	0.00e+00	0	48	104	0	60	78652
2026-01-28 11:43:59.28	314.26	7.74	-52.4	-55.5	3.6	0.00e+00	0	48	104	0	60	70094
2026-01-28 11:44:00.27	314.06	7.70	-53.1	-56.7	3.6	0.00e+00	0	48	104	0	60	80472
2026-01-28 11:44:01.28	313.86	7.65	-52.6	-55.8	3.6	0.00e+00	0	48	104	0	60	72737
2026-01-28 11:44:02.28	313.65	7.61	-52.7	-55.9	3.6	0.00e+00	0	48	104	0	60	74033
2026-01-28 11:44:03.28	313.45	7.56	-52.9	-56.2	3.6	0.00e+00	0	48	104	0	60	76753
2026-01-28 11:44:04.29	313.25	7.52	-53.0	-56.5	3.6	0.00e+00	0	48	104	0	60	79348
2026-01-28 11:44:05.29	313.05	7.47	-53.6	-57.1	3.6	0.00e+00	0	48	104	0	60	85118
2026-01-28 11:44:06.30	312.85	7.43	-53.0	-56.4	3.6	0.00e+00	0	48	104	0	60	78210
2026-01-28 11:44:07.31	312.64	7.38	-53.1	-56.7	3.6	0.00e+00	0	48	104	0	60	80575
2026-01-28 11:44:08.31	312.45	7.34	-52.6	-55.7	3.6	0.00e+00	0	48	104	0	60	72457
2026-01-28 11:44:09.31	312.25	7.29	-52.8	-56.0	3.6	0.00e+00	0	48	104	0	60	74308
2026-01-28 11:44:10.32	312.05	7.24	-52.9	-56.3	3.6	0.00e+00	0	48	104	0	60	77167
2026-01-28 11:44:11.32	311.85	7.20	-53.1	-56.6	3.6	0.00e+00	0	48	104	0	60	79809
2026-01-28 11:44:12.33	311.66	7.15	-53.0	-56.7	3.6	0.00e+00	0	48	104	0	60	80593
2026-01-28 11:44:13.33	311.46	7.10	-53.1	-56.7	3.6	0.00e+00	0	48	104	0	60	80686
2026-01-28 11:44:14.33	311.27	7.06	-53.4	-56.9	3.6	0.00e+00	0	48	104	0	60	82903
2026-01-28 11:44:15.34	311.08	7.01	-53.5	-57.2	3.6	0.00e+00	0	48	104	0	60	86151
2026-01-28 11:44:16.35	310.88	6.96	-53.0	-56.7	3.6	0.00e+00	0	48	104	0	60	80776
2026-01-28 11:44:17.35	310.69	6.92	-53.0	-56.7	3.6	0.00e+00	0	48	104	0	60	81309
2026-01-28 11:44:18.36	310.50	6.87	-53.0	-56.7	3.6	0.00e+00	0	48	104	0	60	81248
2026-01-28 11:44:19.37	310.31	6.82	-53.0	-56.7	3.6	0.00e+00	0	48	104	0	60	80603
2026-01-28 11:44:20.37	310.12	6.77	-52.5	-56.3	3.6	0.00e+00	0	48	104	0	60	76963
2026-01-28 11:44:21.37	309.93	6.73	-53.2	-56.9	3.6	0.00e+00	0	48	104	0	60	83055
2026-01-28 11:44:22.38	309.74	6.68	-53.3	-56.9	3.6	0.00e+00	0	48	104	0	60	83134
2026-01-28 11:44:23.38	309.56	6.63	-53.4	-57.2	3.6	0.00e+00	0	48	104	0	60	85754
2026-01-28 11:44:24.39	309.37	6.58	-52.7	-56.7	3.6	0.00e+00	0	48	104	0	60	80511
2026-01-28 11:44:25.40	309.18	6.53	-52.7	-56.6	3.6	0.00e+00	0	48	104	0	60	79918
2026-01-28 11:44:26.41	309.00	6.48	-52.7	-56.5	3.6	0.00e+00	0	48	104	0	60	79488
2026-01-28 11:44:27.42	308.81	6.44	-52.6	-56.4	3.6	0.00e+00	0	48	104	0	60	78352
2026-01-28 11:44:28.42	308.63	6.39	-52.5	-56.3	3.6	0.00e+00	0	48	104	0	60	77294
2026-01-28 11:44:29.43	308.45	6.34	-52.9	-56.7	3.5	0.00e+00	0	48	104	0	60	81217
2026-01-28 11:44:30.44	308.26	6.29	-53.3	-57.1	3.5	0.00e+00	0	48	104	0	60	84396
2026-01-28 11:44:31.45	308.08	6.24	-53.3	-57.0	3.6	0.00e+00	0	48	104	0	60	83964
2026-01-28 11:44:32.46	307.90	6.19	-52.6	-56.5	3.6	0.00e+00	0	48	104	0	60	78646
2026-01-28 11:44:33.46	307.72	6.14	-52.7	-56.5	3.6	0.00e+00	0	48	104	0	60	79426
2026-01-28 11:44:34.47	307.54	6.09	-52.6	-56.5	3.6	0.00e+00	0	48	104	0	60	78752
2026-01-28 11:44:35.47	307.36	6.04	-52.7	-56.5	3.6	0.00e+00	0	48	104	0	60	79065
2026-01-28 11:44:36.48	307.19	5.99	-53.2	-57.0	3.6	0.00e+00	0	48	104	0	60	83952
2026-01-28 11:44:37.49	307.01	5.94	-54.4	-58.2	3.6	0.00e+00	0	48	104	0	60	96378
2026-01-28 11:44:38.49	306.83	5.89	-55.3	-58.8	3.6	0.00e+00	0	48	104	0	60	102567
2026-01-28 11:44:39.50	306.66	5.84	-56.0	-59.5	3.6	0.00e+00	0	48	104	0	60	112131
2026-01-28 11:44:40.51	306.48	5.79	-56.2	-60.0	3.6	0.00e+00	0	48	104	0	60	118232
2026-01-28 11:44:41.52	306.31	5.74	-55.6	-59.5	3.6	0.00e+00	0	48	104	0	60	111299
2026-01-28 11:44:42.52	306.14	5.69	-56.1	-59.7	3.6	0.00e+00	0	48	104	0	60	114453
2026-01-28 11:44:43.53	305.96	5.64	-56.0	-60.4	3.6	0.00e+00	0	48	104	0	60	123687
2026-01-28 11:44:44.54	305.79	5.59	-56.4	-60.1	3.6	0.00e+00	0	48	104	0	60	119925
2026-01-28 11:44:45.55	305.62	5.54	-57.0	-60.5	3.6	0.00e+00	0	48	104	0	60	125776
2026-01-28 11:44:46.56	305.45	5.49	-56.8	-60.5	3.6	0.00e+00	0	48	104	0	60	125192
2026-01-28 11:44:47.57	305.28	5.44	-56.7	-60.5	3.6	0.00e+00	0	48	104	0	60	124745
2026-01-28 11:44:48.58	305.11	5.39	-56.1	-60.1	3.6	0.00e+00	0	48	104	0	60	119053
2026-01-28 11:44:49.58	304.95	5.34	-56.9	-60.3	3.6	0.00e+00	0	48	104	0	60	123007
2026-01-28 11:44:50.59	304.78	5.29	-56.9	-60.6	3.6	0.00e+00	0	48	104	0	60	126366
2026-01-28 11:44:51.60	304.61	5.24	-56.9	-60.9	3.6	0.00e+00	0	48	104	0	60	130579
2026-01-28 11:44:52.61	304.44	5.19	-56.8	-60.8	3.6	0.00e+00	0	48	104	0	60	129432
2026-01-28 11:44:53.61	304.28	5.14	-55.8	-60.2	3.6	0.00e+00	0	48	104	0	60	120468
2026-01-28 11:44:54.62	304.12	5.09	-56.2	-60.4	3.6	0.00e+00	0	48	104	0	60	123258
2026-01-28 11:44:55.62	303.95	5.04	-56.7	-60.7	3.6	0.00e+00	0	48	104	0	60	127586
2026-01-28 11:44:56.63	303.79	4.99	-56.6	-60.6	3.6	0.00e+00	0	48	104	0	60	127092
2026-01-28 11:44:57.64	303.63	4.94	-56.7	-60.7	3.6	0.00e+00	0	48	104	0	60	128413
2026-01-28 11:44:58.65	303.47	4.88	-56.7	-60.7	3.6	0.00e+00	0	48	104	0	60	128861
2026-01-28 11:44:59.65	303.31	4.83	-56.8	-60.7	3.6	0.00e+00	0	48	104	0	60	128261
2026-01-28 11:45:00.66	303.15	4.78	-56.7	-60.7	3.6	0.00e+00	0	48	104	0	60	128392
2026-01-28 11:45:01.67	302.99	4.73	-56.8	-60.7	3.6	0.00e+00	0	48	104	0	60	128446
2026-01-28 11:45:02.68	302.83	4.68	-56.8	-60.8	3.6	0.00e+00	0	48	104	0	60	129646
2026-01-28 11:45:03.69	302.67	4.63	-56.8	-60.7	3.5	0.00e+00	0	48	104	0	60	128762
2026-01-28 11:45:04.69	302.52	4.58	-56.8	-60.8	3.6	0.00e+00	0	48	104	0	60	129565
2026-01-28 11:45:05.70	302.36	4.53	-56.8	-60.8	3.6	0.00e+00	0	48	104	0	60	129028
2026-01-28 11:45:06.71	302.20	4.47	-56.7	-60.8	3.6	0.00e+00	0	48	104	0	60	129650
2026-01-28 11:45:07.72	302.05	4.42	-56.8	-60.8	3.6	0.00e+00	0	48	104	0	60	129559
2026-01-28 11:45:08.72	301.90	4.37	-56.8	-60.7	3.6	0.00e+00	0	48	104	0	60	128822
2026-01-28 11:45:09.73	301.74	4.32	-56.8	-60.7	3.6	0.00e+00	0	48	104	0	60	128772
2026-01-28 11:45:10.73	301.59	4.27	-56.8	-60.7	3.6	0.00e+00	0	48	104	0	60	128507
2026-01-28 11:45:11.74	301.44	4.22	-56.8	-60.7	3.6	0.00e+00	0	48	104	0	60	128590
2026-01-28 11:45:12.74	301.29	4.17	-56.7	-60.7	3.6	0.00e+00	0	48	104	0	60	127904
2026-01-28 11:45:13.75	301.14	4.11	-56.7	-60.7	3.6	0.00e+00	0	48	104	0	60	128454
2026-01-28 11:45:14.75	300.99	4.06	-56.7	-60.7	3.6	0.00e+00	0	48	104	0	60	128174
2026-01-28 11:45:15.76	300.84	4.01	-56.6	-60.7	3.6	0.00e+00	0	48	104	0	60	128015
2026-01-28 11:45:16.77	300.69	3.96	-56.7	-60.7	3.5	0.00e+00	0	48	104	0	60	127657
2026-01-28 11:45:17.78	300.54	3.91	-56.6	-60.6	3.6	0.00e+00	0	48	104	0	60	126661
2026-01-28 11:45:18.79	300.39	3.86	-56.6	-60.6	3.6	0.00e+00	0	48	104	0	60	127336
2026-01-28 11:45:19.80	300.24	3.80	-56.6	-60.6	3.6	0.00e+00	0	48	104	0	60	126570
2026-01-28 11:45:20.80	300.10	3.75	-56.6	-60.6	3.6	0.00e+00	0	48	104	0	60	126797
2026-01-28 11:45:21.81	299.95	3.70	-56.6	-60.6	3.6	0.00e+00	0	48	104	0	60	127241
2026-01-28 11:45:22.82	299.81	3.65	-56.6	-60.6	3.6	0.00e+00	0	48	104	0	60	126960
2026-01-28 11:45:23.83	299.66	3.60	-56.6	-60.7	3.6	0.00e+00	0	48	104	0	60	128401
2026-01-28 11:45:24.84	299.52	3.55	-56.6	-60.6	3.6	0.00e+00	0	48	104	0	60	127209
2026-01-28 11:45:25.84	299.38	3.49	-56.6	-60.6	3.6	0.00e+00	0	48	104	0	60	126716
2026-01-28 11:45:26.84	299.24	3.44	-56.6	-60.6	3.6	0.00e+00	0	48	104	0	60	126865
2026-01-28 11:45:27.85	299.10	3.39	-56.6	-60.6	3.6	0.00e+00	0	48	104	0	60	126468
2026-01-28 11:45:28.85	298.96	3.34	-56.6	-60.6	3.6	0.00e+00	0	48	104	0	60	126696
2026-01-28 11:45:29.85	298.82	3.29	-56.6	-60.6	3.6	0.00e+00	0	48	104	0	60	126803
2026-01-28 11:45:30.85	298.68	3.24	-56.5	-60.6	3.6	0.00e+00	0	48	104	0	60	126531
2026-01-28 11:45:31.85	298.54	3.19	-56.5	-60.5	3.6	0.00e+00	0	48	104	0	60	125554
2026-01-28 11:45:32.86	298.40	3.13	-56.5	-60.5	3.6	0.00e+00	0	48	104	0	60	125143
2026-01-28 11:45:33.87	298.27	3.08	-56.5	-60.6	3.6	0.00e+00	0	48	104	0	60	126200
2026-01-28 11:45:34.88	298.13	3.03	-56.5	-60.5	3.6	0.00e+00	0	48	104	0	60	125099
2026-01-28 11:45:35.88	297.99	2.98	-56.5	-60.5	3.6	0.00e+00	0	48	104	0	60	125461
2026-01-28 11:45:36.89	297.86	2.93	-56.5	-60.5	3.6	0.00e+00	0	48	104	0	60	124932
2026-01-28 11:45:37.89	297.72	2.88	-56.5	-60.5	3.6	0.00e+00	0	48	104	0	60	125332
2026-01-28 11:45:38.90	297.59	2.82	-56.4	-60.5	3.6	0.00e+00	0	48	104	0	60	124628
2026-01-28 11:45:39.91	297.45	2.77	-56.4	-60.4	3.6	0.00e+00	0	48	104	0	60	124127
2026-01-28 11:45:40.92	297.32	2.72	-56.5	-60.5	3.6	0.00e+00	0	48	104	0	60	125181
2026-01-28 11:45:41.92	297.19	2.67	-56.4	-60.4	3.6	0.00e+00	0	48	104	0	60	123971
2026-01-28 11:45:42.92	297.06	2.62	-56.4	-60.4	3.6	0.00e+00	0	48	104	0	60	124311
2026-01-28 11:45:43.93	296.93	2.56	-56.4	-60.5	3.6	0.00e+00	0	48	104	0	60	124949
2026-01-28 11:45:44.94	296.79	2.51	-56.4	-60.4	3.6	0.00e+00	0	48	104	0	60	124283
2026-01-28 11:45:45.95	296.66	2.46	-56.4	-60.5	3.6	0.00e+00	0	48	104	0	60	124799
2026-01-28 11:45:46.96	296.53	2.41	-56.5	-60.4	3.6	0.00e+00	0	48	104	0	60	124572
2026-01-28 11:45:47.96	296.41	2.36	-56.4	-60.4	3.6	0.00e+00	0	48	104	0	60	124507
2026-01-28 11:45:48.97	296.28	2.31	-56.4	-60.5	3.6	0.00e+00	0	48	104	0	60	124875
2026-01-28 11:45:49.98	296.15	2.25	-56.4	-60.5	3.6	0.00e+00	0	48	104	0	60	124679
2026-01-28 11:45:50.98	296.02	2.20	-56.4	-60.4	3.6	0.00e+00	0	48	104	0	60	123789
2026-01-28 11:45:51.99	295.89	2.15	-56.4	-60.4	3.6	0.00e+00	0	48	104	0	60	124396
2026-01-28 11:45:53.00	295.77	2.10	-56.4	-60.4	3.6	0.00e+00	0	48	104	0	60	123968
2026-01-28 11:45:54.01	295.64	2.05	-56.4	-60.4	3.6	0.00e+00	0	48	104	0	60	124134
2026-01-28 11:45:55.02	295.52	2.00	-56.4	-60.4	3.6	0.00e+00	0	48	104	0	60	124225
2026-01-28 11:45:56.02	295.39	1.94	-56.4	-60.4	3.6	0.00e+00	0	48	104	0	60	123621
2026-01-28 11:45:57.03	295.27	1.89	-56.4	-60.5	3.6	0.00e+00	0	48	104	0	60	124698
2026-01-28 11:45:58.04	295.15	1.84	-56.4	-60.4	3.6	0.00e+00	0	48	104	0	60	124506
2026-01-28 11:45:59.05	295.02	1.79	-56.4	-60.4	3.6	0.00e+00	0	48	104	0	60	124021
2026-01-28 11:46:00.05	294.90	1.74	-56.4	-60.5	3.6	0.00e+00	0	48	104	0	60	124735
2026-01-28 11:46:01.05	294.78	1.69	-56.4	-60.5	3.6	0.00e+00	0	48	104	0	60	124869
2026-01-28 11:46:02.06	294.66	1.64	-56.4	-60.5	3.6	0.00e+00	0	48	104	0	60	124857
2026-01-28 11:46:03.06	294.54	1.58	-56.4	-60.5	3.6	0.00e+00	0	48	104	0	60	124880
2026-01-28 11:46:04.07	294.42	1.53	-56.4	-60.4	3.6	0.00e+00	0	48	104	0	60	124366
2026-01-28 11:46:05.08	294.30	1.48	-56.4	-60.5	3.6	0.00e+00	0	48	104	0	60	124685
2026-01-28 11:46:06.09	294.18	1.43	-56.4	-60.4	3.6	0.00e+00	0	48	104	0	60	124536
2026-01-28 11:46:07.10	294.06	1.38	-56.4	-60.5	3.6	0.00e+00	0	48	104	0	60	124905
2026-01-28 11:46:08.10	293.94	1.33	-56.4	-60.5	3.6	0.00e+00	0	48	104	0	60	124991
2026-01-28 11:46:09.11	293.83	1.28	-56.5	-60.5	3.6	0.00e+00	0	48	104	0	60	125728
2026-01-28 11:46:10.12	293.71	1.23	-56.5	-60.5	3.6	0.00e+00	0	48	104	0	60	125811
2026-01-28 11:46:11.13	293.59	1.17	-56.5	-60.5	3.6	0.00e+00	0	48	104	0	60	125121
2026-01-28 11:46:12.13	293.48	1.12	-56.5	-60.5	3.6	0.00e+00	0	48	104	0	60	125798
2026-01-28 11:46:13.14	293.36	1.07	-56.5	-60.5	3.6	0.00e+00	0	48	104	0	60	125293
2026-01-28 11:46:14.14	293.25	1.02	-56.5	-60.5	3.6	0.00e+00	0	48	104	0	60	125377
2026-01-28 11:46:15.15	293.13	0.97	-56.5	-60.5	3.6	0.00e+00	0	48	104	0	60	125808
2026-01-28 11:46:16.16	293.02	0.92	-56.6	-60.6	3.6	0.00e+00	0	48	104	0	60	126352
2026-01-28 11:46:17.16	292.91	0.87	-56.6	-60.5	3.6	0.00e+00	0	48	104	0	60	125464
2026-01-28 11:46:18.17	292.79	0.82	-56.6	-60.5	3.6	0.00e+00	0	48	104	0	60	125988
2026-01-28 11:46:19.18	292.68	0.77	-56.6	-60.5	3.6	0.00e+00	0	48	104	0	60	125682
2026-01-28 11:46:20.18	292.57	0.71	-56.5	-60.5	3.6	0.00e+00	0	48	104	0	60	125755
2026-01-28 11:46:21.19	292.46	0.66	-56.5	-60.5	3.6	0.00e+00	0	48	104	0	60	125920
2026-01-28 11:46:22.19	292.35	0.61	-56.5	-60.5	3.6	0.00e+00	0	48	104	0	60	125691
2026-01-28 11:46:23.20	292.24	0.56	-56.5	-60.5	3.6	0.00e+00	0	48	104	0	60	125522
2026-01-28 11:46:24.21	292.13	0.51	-56.6	-60.5	3.6	0.00e+00	0	48	104	0	60	125459
2026-01-28 11:46:25.22	292.02	0.46	-56.5	-60.5	3.6	0.00e+00	0	48	104	0	60	125573
2026-01-28 11:46:26.22	291.91	0.41	-56.5	-60.5	3.6	0.00e+00	0	48	104	0	60	125124
2026-01-28 11:46:27.23	291.80	0.36	-56.5	-60.5	3.6	0.00e+00	0	48	104	0	60	125554
2026-01-28 11:46:28.24	291.70	0.31	-56.5	-60.5	3.6	0.00e+00	0	48	104	0	60	124911
2026-01-28 11:46:29.25	291.59	0.26	-56.5	-60.5	3.6	0.00e+00	0	48	104	0	60	124987
2026-01-28 11:46:30.25	291.48	0.21	-56.4	-60.5	3.6	0.00e+00	0	48	104	0	60	125268
2026-01-28 11:46:31.26	291.38	0.16	-56.4	-60.5	3.6	0.00e+00	0	48	104	0	60	125615
2026-01-28 11:46:32.27	291.27	0.11	-56.4	-60.5	3.6	0.00e+00	0	48	104	0	60	125478
2026-01-28 11:46:33.28	291.16	0.05	-56.5	-60.5	3.5	0.00e+00	0	48	104	0	60	125807
2026-01-28 11:46:34.28	291.06	0.00	-56.4	-60.4	3.6	0.00e+00	0	48	104	0	60	124400
2026-01-28 11:46:35.29	290.95	-0.05	-56.4	-60.4	3.6	0.00e+00	0	48	104	0	60	124513

#Closed at: 2026-01-28 11:46:35
#Recorded file [0 MB]: D:/Data/35015_260128_144349.dat