passes_logs/2026/01/28/R3.2S-Naryan-Mar/R3.2S-Naryan-Mar__20260128_120712_AQUA_rec.log

#Pass ID: 20260128_120712_AQUA
#Satellite: AQUA
#Configuration: AQUA
#almurnet v.1.7.20240730
#Start time: 2026-01-28 12:07:14

#Version: 2.2.20231116
#Station: R3.2S-Naryan-Mar
#Location: 53.008057 lon 67.646978 lat
#TLE: 1 27424U 02022A   26027.63960626  .00001831  00000+0  37607-3 0  9998
#TLE: 2 27424  98.4102 354.2809 0001844  63.7090 108.5242 14.61867354262735

#Time	Az	El	Level	Level2	SNR	BER	BlckErr	Temp	State	Recorded	gain1	gain2
2026-01-28 12:07:14.32	206.71	0.07	-59.1	-74.6	3.5	1.52e+00	0	44	0	0	60	205325
2026-01-28 12:07:15.33	206.77	0.13	-54.9	-77.3	3.5	3.04e+01	0	45	104	0	60	279581
2026-01-28 12:07:16.34	206.84	0.19	-56.3	-77.5	3.5	3.04e+01	0	45	104	0	60	286177
2026-01-28 12:07:17.35	206.91	0.24	-56.7	-77.2	3.5	3.04e+01	0	45	104	0	60	274705
2026-01-28 12:07:18.35	206.98	0.30	-57.0	-77.3	3.5	3.04e+01	0	45	104	0	60	277596
2026-01-28 12:07:19.36	207.05	0.35	-57.3	-77.5	3.5	3.04e+01	0	45	104	0	60	286207
2026-01-28 12:07:20.37	207.12	0.41	-57.2	-77.5	3.5	3.04e+01	0	45	104	0	60	286690
2026-01-28 12:07:21.38	207.19	0.46	-57.8	-77.5	3.5	3.04e+01	0	45	104	0	60	285190
2026-01-28 12:07:22.38	207.26	0.52	-57.9	-77.6	3.5	3.04e+01	0	45	104	0	60	287302
2026-01-28 12:07:23.39	207.33	0.57	-57.6	-77.5	3.5	3.04e+01	0	45	104	0	60	283854
2026-01-28 12:07:24.39	207.40	0.63	-57.3	-77.5	3.5	3.04e+01	0	45	104	0	60	285017
2026-01-28 12:07:25.40	207.47	0.69	-57.2	-77.2	3.5	3.04e+01	0	45	104	0	60	274470
2026-01-28 12:07:26.41	207.54	0.74	-56.5	-77.0	3.5	3.04e+01	0	45	104	0	60	269641
2026-01-28 12:07:27.42	207.61	0.80	-56.0	-76.3	3.5	3.04e+01	0	45	104	0	60	247437
2026-01-28 12:07:28.42	207.68	0.85	-56.2	-76.3	3.5	3.04e+01	0	45	104	0	60	248547
2026-01-28 12:07:29.43	207.75	0.91	-56.0	-76.0	3.5	3.04e+01	0	45	104	0	60	240309
2026-01-28 12:07:30.44	207.82	0.97	-55.2	-75.4	3.5	3.04e+01	0	45	104	0	60	224084
2026-01-28 12:07:31.45	207.90	1.02	-55.0	-75.1	3.5	3.04e+01	0	45	104	0	60	216500
2026-01-28 12:07:32.46	207.97	1.08	-54.7	-75.1	3.5	3.04e+01	0	45	104	0	60	215860
2026-01-28 12:07:33.46	208.04	1.14	-54.7	-75.1	3.5	3.04e+01	0	45	104	0	60	216307
2026-01-28 12:07:34.47	208.11	1.19	-54.6	-75.0	3.5	3.04e+01	0	45	104	0	60	213325
2026-01-28 12:07:35.48	208.19	1.25	-54.7	-74.9	3.5	3.04e+01	0	45	104	0	60	212598
2026-01-28 12:07:36.49	208.26	1.31	-54.6	-75.0	3.5	3.04e+01	0	45	104	0	60	212917
2026-01-28 12:07:37.49	208.33	1.37	-54.6	-74.9	3.5	3.04e+01	0	45	104	0	60	210332
2026-01-28 12:07:38.50	208.41	1.42	-54.6	-74.8	3.5	3.04e+01	0	45	104	0	60	209942
2026-01-28 12:07:39.51	208.48	1.48	-54.6	-74.8	3.5	3.04e+01	0	45	104	0	60	209759
2026-01-28 12:07:40.51	208.56	1.54	-54.6	-74.8	3.5	3.04e+01	0	45	104	0	60	208258
2026-01-28 12:07:41.52	208.63	1.59	-54.6	-74.8	3.5	3.04e+01	0	45	104	0	60	208917
2026-01-28 12:07:42.52	208.71	1.65	-54.6	-74.8	3.5	3.04e+01	0	45	104	0	60	209838
2026-01-28 12:07:43.53	208.78	1.71	-54.6	-74.8	3.5	3.04e+01	0	45	104	0	60	207937
2026-01-28 12:07:44.53	208.86	1.77	-54.6	-74.9	3.5	3.04e+01	0	45	104	0	60	210632
2026-01-28 12:07:45.54	208.93	1.82	-54.5	-74.8	3.5	3.04e+01	0	45	104	0	60	209100
2026-01-28 12:07:46.55	209.01	1.88	-54.5	-74.9	3.5	3.04e+01	0	45	104	0	60	210311
2026-01-28 12:07:47.56	209.09	1.94	-54.5	-74.7	3.5	3.04e+01	0	45	104	0	60	207337
2026-01-28 12:07:48.57	209.17	2.00	-54.5	-74.8	3.5	3.04e+01	0	45	104	0	60	208105
2026-01-28 12:07:49.58	209.24	2.06	-54.5	-74.8	3.6	3.04e+01	0	45	104	0	60	209591
2026-01-28 12:07:50.58	209.32	2.12	-54.5	-74.7	3.5	3.04e+01	0	45	104	0	60	207024
2026-01-28 12:07:51.59	209.40	2.17	-54.5	-74.8	3.5	3.04e+01	0	45	104	0	60	209316
2026-01-28 12:07:52.60	209.48	2.23	-54.5	-74.7	3.5	3.04e+01	0	45	104	0	60	207231
2026-01-28 12:07:53.61	209.56	2.29	-54.5	-74.8	3.5	3.04e+01	0	45	104	0	60	208739
2026-01-28 12:07:54.61	209.64	2.35	-54.5	-74.9	3.5	3.04e+01	0	45	104	0	60	211159
2026-01-28 12:07:55.62	209.72	2.41	-54.5	-74.8	3.5	3.04e+01	0	45	104	0	60	207951
2026-01-28 12:07:56.63	209.80	2.47	-54.5	-74.7	3.5	3.04e+01	0	45	104	0	60	206652
2026-01-28 12:07:57.64	209.88	2.53	-54.5	-74.7	3.5	3.04e+01	0	45	104	0	60	206013
2026-01-28 12:07:58.64	209.96	2.59	-54.4	-74.8	3.5	3.04e+01	0	46	104	0	60	207895
2026-01-28 12:07:59.64	210.04	2.64	-54.5	-74.8	3.5	3.04e+01	0	45	104	0	60	208162
2026-01-28 12:08:00.65	210.12	2.70	-54.4	-74.7	3.5	3.04e+01	0	45	104	0	60	206570
2026-01-28 12:08:01.65	210.20	2.76	-54.4	-74.7	3.5	3.04e+01	0	45	104	0	60	207460
2026-01-28 12:08:02.66	210.28	2.82	-54.4	-74.7	3.5	3.04e+01	0	46	104	0	60	207458
2026-01-28 12:08:03.66	210.36	2.88	-54.4	-74.7	3.5	3.04e+01	0	45	104	0	60	206507
2026-01-28 12:08:04.67	210.44	2.94	-54.4	-74.8	3.5	3.04e+01	0	46	104	0	60	208652
2026-01-28 12:08:05.67	210.53	3.00	-54.4	-74.7	3.5	3.04e+01	0	46	104	0	60	207272
2026-01-28 12:08:06.69	210.61	3.06	-54.4	-74.6	3.5	3.04e+01	0	46	104	0	60	205220
2026-01-28 12:08:07.69	210.69	3.12	-54.4	-74.7	3.5	3.04e+01	0	46	104	0	60	205842
2026-01-28 12:08:08.70	210.78	3.18	-54.4	-74.5	3.5	3.04e+01	0	46	104	0	60	202912
2026-01-28 12:08:09.70	210.86	3.24	-54.4	-74.6	3.5	3.04e+01	0	46	104	0	60	205346
2026-01-28 12:08:10.71	210.95	3.30	-54.4	-74.6	3.5	3.04e+01	0	46	104	0	60	204503
2026-01-28 12:08:11.71	211.03	3.36	-54.4	-74.6	3.5	3.04e+01	0	46	104	0	60	204624
2026-01-28 12:08:12.71	211.12	3.42	-54.4	-74.5	3.5	3.04e+01	0	46	104	0	60	202184
2026-01-28 12:08:13.71	211.20	3.48	-54.3	-74.6	3.5	3.04e+01	0	46	104	0	60	204251
2026-01-28 12:08:14.71	211.29	3.54	-54.3	-74.6	3.5	3.04e+01	0	46	104	0	60	203390
2026-01-28 12:08:15.72	211.37	3.60	-54.3	-74.5	3.5	3.04e+01	0	46	104	0	60	201790
2026-01-28 12:08:16.73	211.46	3.66	-54.3	-74.5	3.5	3.04e+01	0	46	104	0	60	202358
2026-01-28 12:08:17.74	211.55	3.72	-54.3	-74.5	3.5	3.04e+01	0	46	104	0	60	201910
2026-01-28 12:08:18.74	211.64	3.78	-54.3	-74.6	3.5	3.04e+01	0	45	104	0	60	203493
2026-01-28 12:08:19.75	211.72	3.84	-54.3	-74.6	3.5	3.04e+01	0	46	104	0	60	203307
2026-01-28 12:08:20.76	211.81	3.91	-54.3	-74.5	3.5	3.04e+01	0	46	104	0	60	202412
2026-01-28 12:08:21.77	211.90	3.97	-54.3	-74.6	3.5	3.04e+01	0	46	104	0	60	204038
2026-01-28 12:08:22.78	211.99	4.03	-54.3	-74.5	3.5	3.04e+01	0	46	104	0	60	201667
2026-01-28 12:08:23.78	212.08	4.09	-54.3	-74.5	3.5	3.04e+01	0	45	104	0	60	202804
2026-01-28 12:08:24.79	212.17	4.15	-54.3	-74.4	3.5	3.04e+01	0	45	104	0	60	200692
2026-01-28 12:08:25.80	212.26	4.21	-54.3	-74.5	3.5	3.04e+01	0	46	104	0	60	200915
2026-01-28 12:08:26.80	212.35	4.28	-54.3	-74.5	3.5	3.04e+01	0	46	104	0	60	202174
2026-01-28 12:08:27.80	212.44	4.34	-54.3	-74.5	3.6	3.04e+01	0	46	104	0	60	202631
2026-01-28 12:08:28.81	212.53	4.40	-54.3	-74.4	3.5	3.04e+01	0	45	104	0	60	200279
2026-01-28 12:08:29.81	212.62	4.46	-54.3	-74.3	3.5	3.04e+01	0	46	104	0	60	198049
2026-01-28 12:08:30.82	212.72	4.52	-54.3	-74.3	3.5	3.04e+01	0	46	104	0	60	197220
2026-01-28 12:08:31.83	212.81	4.59	-54.2	-74.2	3.5	3.04e+01	0	46	104	0	60	196117
2026-01-28 12:08:32.84	212.90	4.65	-54.2	-74.3	3.5	3.04e+01	0	46	104	0	60	197445
2026-01-28 12:08:33.84	213.00	4.71	-54.2	-74.4	3.5	3.04e+01	0	46	104	0	60	200500
2026-01-28 12:08:34.85	213.09	4.77	-54.2	-74.2	3.5	3.04e+01	0	45	104	0	60	195299
2026-01-28 12:08:35.85	213.18	4.84	-54.2	-74.0	3.5	3.04e+01	0	46	104	0	60	190894
2026-01-28 12:08:36.86	213.28	4.90	-54.2	-73.9	3.5	3.04e+01	0	46	104	0	60	188804
2026-01-28 12:08:37.87	213.37	4.96	-54.2	-74.1	3.5	3.04e+01	0	45	104	0	60	193974
2026-01-28 12:08:38.88	213.47	5.02	-54.2	-74.1	3.5	3.04e+01	0	46	104	0	60	193964
2026-01-28 12:08:39.89	213.57	5.09	-54.2	-73.6	3.5	3.04e+01	0	46	104	0	60	181775
2026-01-28 12:08:40.90	213.66	5.15	-54.2	-72.6	3.6	3.04e+01	0	46	104	0	60	161907
2026-01-28 12:08:41.90	213.76	5.21	-54.2	-71.0	4.1	3.04e+01	0	46	104	0	60	135579
2026-01-28 12:08:42.90	213.86	5.28	-54.1	-70.1	4.6	3.04e+01	0	46	104	0	60	122047
2026-01-28 12:08:43.91	213.96	5.34	-54.1	-69.7	3.8	3.04e+01	0	46	104	0	60	116036
2026-01-28 12:08:44.92	214.05	5.41	-54.1	-68.7	5.1	3.04e+01	0	46	0	0	60	104055
2026-01-28 12:08:45.93	214.15	5.47	-54.0	-66.0	7.0	3.04e+01	0	46	0	1048576	60	76178
2026-01-28 12:08:46.93	214.25	5.53	-53.7	-63.0	10.5	3.04e+01	0	46	0	3145728	60	54027
2026-01-28 12:08:47.94	214.35	5.60	-53.0	-59.7	14.3	3.04e+01	0	46	0	4718592	60	36940
2026-01-28 12:08:48.95	214.45	5.66	-52.1	-57.1	17.1	3.04e+01	0	46	0	6815744	60	27199
2026-01-28 12:08:49.95	214.55	5.72	-51.2	-55.1	19.0	3.04e+01	0	46	0	8912896	60	21624
2026-01-28 12:08:50.96	214.65	5.79	-50.5	-53.8	20.3	3.04e+01	0	46	0	10485760	60	18572
2026-01-28 12:08:51.97	214.75	5.85	-49.9	-52.8	21.2	3.04e+01	0	46	0	12582912	60	16640
2026-01-28 12:08:52.97	214.86	5.92	-49.7	-52.6	21.4	3.04e+01	0	46	0	14155776	60	16165
2026-01-28 12:08:53.98	214.96	5.98	-49.8	-52.7	21.3	3.04e+01	0	46	0	16252928	60	16330
2026-01-28 12:08:54.99	215.06	6.05	-50.3	-53.5	20.5	3.04e+01	0	46	0	18350080	60	17969
2026-01-28 12:08:56.00	215.17	6.11	-53.1	-60.6	13.3	3.04e+01	0	46	0	19922944	60	40545
2026-01-28 12:08:57.01	215.27	6.18	-52.9	-58.9	14.8	3.04e+01	0	46	0	22020096	60	33572
2026-01-28 12:08:58.02	215.37	6.24	-52.9	-60.0	13.8	3.04e+01	0	46	0	23592960	60	37862
2026-01-28 12:08:59.02	215.48	6.31	-53.2	-59.2	14.9	3.04e+01	0	46	0	25690112	60	34780
2026-01-28 12:09:00.02	215.58	6.37	-54.2	-66.5	6.7	3.04e+01	0	46	0	27262976	60	80380
2026-01-28 12:09:01.03	215.69	6.44	-52.5	-57.7	16.9	3.04e+01	0	46	0	29360128	60	29139
2026-01-28 12:09:02.03	215.80	6.50	-51.1	-54.7	20.0	3.04e+01	0	46	0	31457280	60	20698
2026-01-28 12:09:03.04	215.90	6.57	-51.0	-54.4	20.0	3.04e+01	0	46	0	33030144	60	20049
2026-01-28 12:09:04.05	216.01	6.64	-50.7	-54.0	20.3	3.04e+01	0	46	0	35127296	60	19044
2026-01-28 12:09:05.06	216.12	6.70	-50.8	-54.1	20.4	3.04e+01	0	46	0	37224448	60	19320
2026-01-28 12:09:06.06	216.23	6.77	-50.4	-53.5	20.8	3.04e+01	0	46	0	38797312	60	17934
2026-01-28 12:09:07.07	216.34	6.83	-50.0	-52.7	21.6	3.04e+01	0	46	0	40894464	60	16470
2026-01-28 12:09:08.08	216.45	6.90	-49.5	-52.0	22.3	3.04e+01	0	46	0	42467328	60	15222
2026-01-28 12:09:09.08	216.55	6.97	-49.3	-51.8	22.6	3.04e+01	0	46	0	44564480	60	14764
2026-01-28 12:09:10.09	216.67	7.03	-49.0	-51.4	23.0	3.04e+01	0	46	0	46661632	60	14059
2026-01-28 12:09:11.10	216.78	7.10	-49.0	-51.3	23.2	3.04e+01	0	46	0	48234496	60	13924
2026-01-28 12:09:12.10	216.89	7.17	-49.0	-51.4	23.0	3.04e+01	0	46	0	50331648	60	14065
2026-01-28 12:09:13.11	217.00	7.23	-49.1	-51.4	23.1	3.04e+01	0	46	0	51904512	60	14207
2026-01-28 12:09:14.12	217.11	7.30	-48.9	-51.2	23.2	3.04e+01	0	46	0	54001664	60	13832
2026-01-28 12:09:15.13	217.23	7.37	-48.9	-51.2	23.1	3.04e+01	0	46	0	55574528	60	13818
2026-01-28 12:09:16.14	217.34	7.43	-48.9	-51.2	23.1	3.04e+01	0	46	0	57671680	60	13793
2026-01-28 12:09:17.14	217.45	7.50	-48.9	-51.2	22.8	3.04e+01	0	46	0	59768832	60	13880
2026-01-28 12:09:18.15	217.57	7.57	-48.8	-51.1	22.9	3.04e+01	0	46	0	61865984	60	13673
2026-01-28 12:09:19.16	217.68	7.64	-48.7	-51.0	22.9	3.04e+01	0	46	0	63438848	60	13569
2026-01-28 12:09:20.16	217.80	7.70	-48.8	-51.2	22.7	3.04e+01	0	46	0	65536000	60	13821
2026-01-28 12:09:21.16	217.92	7.77	-48.7	-51.0	22.8	3.04e+01	0	46	0	67108864	60	13572
2026-01-28 12:09:22.17	218.03	7.84	-48.7	-51.0	22.8	3.04e+01	0	46	0	69206016	60	13569
2026-01-28 12:09:23.17	218.15	7.90	-48.8	-51.2	22.7	3.04e+01	0	46	0	70778880	60	13768
2026-01-28 12:09:24.18	218.27	7.97	-48.8	-51.1	22.9	3.04e+01	0	46	0	72876032	60	13678
2026-01-28 12:09:25.18	218.39	8.04	-48.7	-51.0	23.1	3.04e+01	0	46	0	74973184	60	13488
2026-01-28 12:09:26.19	218.51	8.11	-48.7	-51.1	23.0	3.04e+01	0	46	0	76546048	60	13580
2026-01-28 12:09:27.20	218.63	8.18	-48.7	-51.1	23.0	3.04e+01	0	46	0	78643200	60	13587
2026-01-28 12:09:28.21	218.75	8.25	-48.7	-51.0	23.2	3.04e+01	0	46	0	80216064	60	13486
2026-01-28 12:09:29.21	218.87	8.31	-48.8	-51.1	23.2	3.04e+01	0	46	0	82313216	60	13619
2026-01-28 12:09:30.22	218.99	8.38	-48.8	-51.0	23.4	3.04e+01	0	46	0	83886080	60	13567
2026-01-28 12:09:31.23	219.11	8.45	-48.7	-50.9	23.4	3.04e+01	0	46	0	85983232	60	13349
2026-01-28 12:09:32.24	219.24	8.52	-48.6	-50.8	23.5	3.04e+01	0	46	0	88080384	60	13202
2026-01-28 12:09:33.24	219.36	8.59	-48.7	-50.8	23.6	3.04e+01	0	46	0	90177536	60	13208
2026-01-28 12:09:34.25	219.48	8.66	-48.7	-50.8	23.6	3.04e+01	0	46	0	91750400	60	13209
2026-01-28 12:09:35.26	219.61	8.73	-48.8	-50.9	23.5	3.04e+01	0	46	0	93847552	60	13376
2026-01-28 12:09:36.26	219.73	8.80	-48.8	-51.0	23.5	3.04e+01	0	46	0	95420416	60	13431
2026-01-28 12:09:37.27	219.86	8.87	-48.9	-51.0	23.5	3.04e+01	0	46	0	97517568	60	13558
2026-01-28 12:09:38.28	219.99	8.93	-48.8	-51.1	23.4	3.04e+01	0	46	0	99090432	60	13604
2026-01-28 12:09:39.28	220.11	9.00	-48.8	-51.0	23.3	3.04e+01	0	46	0	101187584	60	13571
2026-01-28 12:09:40.29	220.24	9.07	-48.6	-50.8	23.4	3.04e+01	0	46	0	103284736	60	13221
2026-01-28 12:09:41.30	220.37	9.14	-48.5	-50.8	23.3	3.04e+01	0	46	0	104857600	60	13193
2026-01-28 12:09:42.30	220.50	9.21	-48.6	-50.9	23.2	3.04e+01	0	46	0	106954752	60	13355
2026-01-28 12:09:43.31	220.63	9.28	-48.3	-50.7	22.8	3.04e+01	0	46	0	108527616	60	13112
2026-01-28 12:09:44.32	220.76	9.35	-48.2	-50.8	22.5	3.04e+01	0	46	0	110624768	60	13233
2026-01-28 12:09:45.33	220.89	9.42	-48.1	-50.9	22.2	3.04e+01	0	46	0	112197632	60	13312
2026-01-28 12:09:46.33	221.02	9.49	-48.0	-50.9	21.9	3.04e+01	0	46	0	114294784	60	13382
2026-01-28 12:09:47.34	221.15	9.56	-47.7	-50.8	21.7	3.04e+01	0	46	0	116391936	60	13179
2026-01-28 12:09:48.35	221.29	9.63	-47.5	-50.8	21.3	3.04e+01	0	46	0	118489088	60	13210
2026-01-28 12:09:49.36	221.42	9.70	-47.5	-50.9	21.1	3.04e+01	0	46	0	120061952	60	13317
2026-01-28 12:09:50.36	221.55	9.77	-47.4	-51.0	20.8	3.04e+01	0	46	0	122159104	60	13496
2026-01-28 12:09:51.37	221.69	9.85	-47.4	-50.9	20.9	3.04e+01	0	46	0	123731968	60	13396
2026-01-28 12:09:52.37	221.82	9.92	-47.6	-51.2	20.7	3.04e+01	0	46	0	125829120	60	13782
2026-01-28 12:09:53.37	221.96	9.99	-47.5	-50.9	21.1	3.04e+01	0	46	0	127401984	60	13307
2026-01-28 12:09:54.38	222.10	10.06	-47.6	-51.0	21.3	3.04e+01	0	46	0	129499136	60	13484
2026-01-28 12:09:55.38	222.23	10.13	-47.7	-50.9	21.4	3.04e+01	0	46	0	131596288	60	13390
2026-01-28 12:09:56.39	222.37	10.20	-47.7	-50.8	21.9	3.04e+01	0	46	0	133169152	60	13176
2026-01-28 12:09:57.39	222.51	10.27	-47.7	-50.7	22.3	3.04e+01	0	46	0	135266304	60	13032
2026-01-28 12:09:58.40	222.65	10.34	-47.8	-50.8	22.4	3.04e+01	0	46	0	136839168	60	13146
2026-01-28 12:09:59.40	222.79	10.41	-47.9	-50.7	22.5	3.04e+01	0	46	0	138936320	60	13107
2026-01-28 12:10:00.41	222.93	10.48	-48.1	-50.9	22.8	3.04e+01	0	46	0	140509184	60	13322
2026-01-28 12:10:01.42	223.08	10.56	-48.3	-50.9	22.9	3.04e+01	0	46	0	142606336	60	13360
2026-01-28 12:10:02.42	223.22	10.63	-48.5	-51.0	23.0	3.04e+01	0	46	0	144703488	60	13470
2026-01-28 12:10:03.43	223.36	10.70	-48.4	-50.8	23.3	3.04e+01	0	46	0	146276352	60	13177
2026-01-28 12:10:04.44	223.51	10.77	-48.5	-50.8	23.5	3.04e+01	0	46	0	148373504	60	13267
2026-01-28 12:10:05.44	223.65	10.84	-48.9	-51.0	23.8	3.04e+01	0	46	0	150470656	60	13515
2026-01-28 12:10:06.44	223.80	10.91	-48.9	-50.9	24.0	3.04e+01	0	46	0	152043520	60	13405
2026-01-28 12:10:07.45	223.94	10.99	-48.8	-50.8	24.2	3.04e+01	0	46	0	154140672	60	13224
2026-01-28 12:10:08.45	224.09	11.06	-48.8	-50.9	24.2	3.04e+01	0	46	0	155713536	60	13277
2026-01-28 12:10:09.46	224.24	11.13	-48.8	-50.9	24.2	3.04e+01	0	46	0	157810688	60	13278
2026-01-28 12:10:10.46	224.39	11.20	-48.7	-50.7	24.3	3.04e+01	0	46	0	159907840	60	13023
2026-01-28 12:10:11.46	224.53	11.27	-48.6	-50.7	24.1	3.04e+01	0	46	0	161480704	60	13054
2026-01-28 12:10:12.47	224.69	11.35	-48.8	-50.9	23.8	3.04e+01	0	46	0	163577856	60	13318
2026-01-28 12:10:13.47	224.84	11.42	-48.6	-50.7	24.1	3.04e+01	0	46	0	165150720	60	13028
2026-01-28 12:10:14.48	224.99	11.49	-48.6	-50.7	24.1	3.04e+01	0	46	0	167247872	60	13042
2026-01-28 12:10:15.49	225.14	11.56	-48.7	-50.9	23.9	3.04e+01	0	46	0	168820736	60	13293
2026-01-28 12:10:16.49	225.29	11.64	-48.6	-50.7	23.9	3.04e+01	0	46	0	170917888	60	13113
2026-01-28 12:10:17.50	225.45	11.71	-48.5	-50.7	24.0	3.04e+01	0	46	0	173015040	60	13007
2026-01-28 12:10:18.50	225.60	11.78	-48.6	-50.7	24.2	3.04e+01	0	46	0	174587904	60	12978
2026-01-28 12:10:19.51	225.76	11.85	-48.7	-50.8	24.3	3.04e+01	0	46	0	176685056	60	13198
2026-01-28 12:10:20.51	225.91	11.93	-48.8	-50.9	24.2	3.04e+01	0	46	0	178257920	60	13351
2026-01-28 12:10:21.52	226.07	12.00	-48.8	-51.0	24.3	3.04e+01	0	46	0	180355072	60	13535
2026-01-28 12:10:22.53	226.23	12.07	-48.7	-50.8	24.3	3.04e+01	0	46	0	181927936	60	13246
2026-01-28 12:10:23.54	226.39	12.15	-48.6	-50.8	24.2	3.04e+01	0	46	0	184025088	60	13198
2026-01-28 12:10:24.54	226.55	12.22	-48.4	-50.7	24.2	3.04e+01	0	46	0	186122240	60	13047
2026-01-28 12:10:25.55	226.71	12.29	-48.6	-50.8	24.1	3.04e+01	0	46	0	188219392	60	13192
2026-01-28 12:10:26.55	226.87	12.37	-48.6	-50.8	24.2	3.04e+01	0	46	0	189792256	60	13141
2026-01-28 12:10:27.56	227.03	12.44	-48.6	-50.7	24.3	3.04e+01	0	46	0	191889408	60	12968
2026-01-28 12:10:28.57	227.20	12.51	-48.6	-50.7	24.2	3.04e+01	0	46	0	193462272	60	12997
2026-01-28 12:10:29.57	227.36	12.59	-48.6	-50.6	24.2	3.04e+01	0	46	0	195559424	60	12930
2026-01-28 12:10:30.58	227.53	12.66	-48.6	-50.7	24.2	3.04e+01	0	46	0	197132288	60	13013
2026-01-28 12:10:31.58	227.69	12.73	-48.5	-50.5	24.3	3.04e+01	0	46	0	199229440	60	12803
2026-01-28 12:10:32.59	227.86	12.81	-48.5	-50.5	24.2	3.04e+01	0	46	0	201326592	60	12812
2026-01-28 12:10:33.59	228.02	12.88	-48.6	-50.6	24.4	3.04e+01	0	46	0	202899456	60	12891
2026-01-28 12:10:34.60	228.19	12.95	-48.6	-50.6	24.5	3.04e+01	0	46	0	204996608	60	12856
2026-01-28 12:10:35.61	228.36	13.03	-48.5	-50.5	24.6	3.04e+01	0	46	0	206569472	60	12749
2026-01-28 12:10:36.62	228.53	13.10	-48.6	-50.6	24.5	3.04e+01	0	46	0	208666624	60	12823
2026-01-28 12:10:37.62	228.70	13.17	-48.5	-50.5	24.7	3.04e+01	0	46	0	210239488	60	12736
2026-01-28 12:10:38.63	228.88	13.25	-48.5	-50.6	24.5	3.04e+01	0	46	0	212336640	60	12840
2026-01-28 12:10:39.64	229.05	13.32	-48.4	-50.4	24.6	3.04e+01	0	46	0	214433792	60	12659
2026-01-28 12:10:40.65	229.22	13.40	-48.3	-50.4	24.5	3.04e+01	0	46	0	216530944	60	12590
2026-01-28 12:10:41.66	229.40	13.47	-48.6	-50.7	24.3	3.04e+01	0	46	0	218103808	60	13003
2026-01-28 12:10:42.66	229.57	13.54	-48.5	-50.5	24.5	3.04e+01	0	46	0	220200960	60	12734
2026-01-28 12:10:43.66	229.75	13.62	-48.5	-50.4	24.6	3.04e+01	0	46	0	221773824	60	12616
2026-01-28 12:10:44.66	229.92	13.69	-48.6	-50.5	24.7	3.04e+01	0	46	0	223870976	60	12677
2026-01-28 12:10:45.67	230.10	13.76	-48.6	-50.4	24.9	3.04e+01	0	46	0	225443840	60	12664
2026-01-28 12:10:46.68	230.28	13.84	-48.7	-50.5	24.9	3.04e+01	0	46	0	227540992	60	12801
2026-01-28 12:10:47.69	230.46	13.91	-48.6	-50.4	25.0	3.04e+01	0	46	0	229638144	60	12634
2026-01-28 12:10:48.70	230.64	13.99	-48.6	-50.5	24.9	3.04e+01	0	46	0	231211008	60	12722
2026-01-28 12:10:49.70	230.83	14.06	-48.6	-50.5	24.7	3.04e+01	0	46	0	233308160	60	12764
2026-01-28 12:10:50.71	231.01	14.13	-48.6	-50.5	24.8	3.04e+01	0	46	0	234881024	60	12699
2026-01-28 12:10:51.72	231.19	14.21	-48.7	-50.6	24.7	3.04e+01	0	46	0	236978176	60	12895
2026-01-28 12:10:52.73	231.38	14.28	-48.7	-50.7	24.7	3.04e+01	0	46	0	238551040	60	12980
2026-01-28 12:10:53.74	231.57	14.36	-48.6	-50.6	24.9	3.04e+01	0	46	0	240648192	60	12870
2026-01-28 12:10:54.74	231.75	14.43	-48.5	-50.5	24.9	3.04e+01	0	46	0	242745344	60	12777
2026-01-28 12:10:55.75	231.94	14.50	-48.6	-50.7	24.8	3.04e+01	0	46	0	244842496	60	12990
2026-01-28 12:10:56.75	232.13	14.58	-48.5	-50.5	25.0	3.04e+01	0	46	0	246415360	60	12720
2026-01-28 12:10:57.76	232.32	14.65	-48.6	-50.5	24.9	3.04e+01	0	46	0	248512512	60	12766
2026-01-28 12:10:58.76	232.51	14.72	-48.6	-50.5	24.9	3.04e+01	0	46	0	250085376	60	12794
2026-01-28 12:10:59.76	232.70	14.80	-48.6	-50.5	24.9	3.04e+01	0	46	0	252182528	60	12718
2026-01-28 12:11:00.77	232.89	14.87	-48.6	-50.4	24.9	3.04e+01	0	46	0	253755392	60	12633
2026-01-28 12:11:01.77	233.08	14.94	-48.4	-50.3	25.0	3.04e+01	0	46	0	255852544	60	12385
2026-01-28 12:11:02.77	233.28	15.02	-48.5	-50.3	25.0	3.04e+01	0	46	0	257949696	60	12463
2026-01-28 12:11:03.78	233.47	15.09	-48.3	-50.2	25.1	3.04e+01	0	46	0	259522560	60	12324
2026-01-28 12:11:04.79	233.67	15.16	-48.4	-50.2	25.1	3.04e+01	0	46	0	261619712	60	12359
2026-01-28 12:11:05.79	233.86	15.24	-48.4	-50.2	25.2	3.04e+01	0	46	0	263192576	60	12380
2026-01-28 12:11:06.79	234.06	15.31	-48.6	-50.4	25.1	3.04e+01	0	46	0	265289728	60	12635
2026-01-28 12:11:07.80	234.26	15.38	-48.6	-50.4	25.0	3.04e+01	0	46	0	266862592	60	12655
2026-01-28 12:11:08.81	234.46	15.46	-48.5	-50.3	25.1	3.04e+01	0	46	0	268959744	60	12486
2026-01-28 12:11:09.81	234.66	15.53	-48.5	-50.3	25.2	3.04e+01	0	46	0	271056896	60	12489
2026-01-28 12:11:10.82	234.87	15.60	-48.6	-50.4	25.1	3.04e+01	0	46	0	272629760	60	12590
2026-01-28 12:11:11.82	235.07	15.67	-48.6	-50.4	25.1	3.04e+01	0	46	0	274726912	60	12567
2026-01-28 12:11:12.82	235.27	15.75	-48.5	-50.3	25.1	3.04e+01	0	46	0	276299776	60	12416
2026-01-28 12:11:13.82	235.48	15.82	-48.5	-50.3	25.2	3.04e+01	0	46	0	278396928	60	12425
2026-01-28 12:11:14.83	235.68	15.89	-48.4	-50.2	25.3	3.04e+01	0	46	0	280494080	60	12334
2026-01-28 12:11:15.84	235.89	15.96	-48.6	-50.4	25.2	3.04e+01	0	46	0	282066944	60	12606
2026-01-28 12:11:16.84	236.10	16.04	-48.4	-50.3	25.1	3.04e+01	0	46	0	284164096	60	12437
2026-01-28 12:11:17.85	236.31	16.11	-48.5	-50.4	25.0	3.04e+01	0	46	0	286261248	60	12531
2026-01-28 12:11:18.86	236.52	16.18	-48.6	-50.4	24.9	3.04e+01	0	46	0	287834112	60	12600
2026-01-28 12:11:19.86	236.73	16.25	-48.5	-50.3	25.2	3.04e+01	0	46	0	289931264	60	12388
2026-01-28 12:11:20.87	236.95	16.33	-48.3	-50.1	25.5	3.04e+01	0	46	0	291504128	60	12124
2026-01-28 12:11:21.87	237.16	16.40	-48.3	-50.0	25.4	3.04e+01	0	46	0	293601280	60	12039
2026-01-28 12:11:22.88	237.37	16.47	-48.3	-50.0	25.2	3.04e+01	0	46	0	295174144	60	12053
2026-01-28 12:11:23.88	237.59	16.54	-48.2	-50.0	25.1	3.04e+01	0	46	0	297271296	60	12099
2026-01-28 12:11:24.89	237.81	16.61	-48.2	-50.0	25.0	3.04e+01	0	46	0	299368448	60	12080
2026-01-28 12:11:25.90	238.03	16.68	-48.2	-50.0	25.0	3.04e+01	0	46	0	300941312	60	12051
2026-01-28 12:11:26.90	238.24	16.75	-48.2	-50.1	24.9	3.04e+01	0	46	0	303038464	60	12187
2026-01-28 12:11:27.91	238.47	16.83	-48.1	-50.1	24.9	3.04e+01	0	46	0	304611328	60	12109
2026-01-28 12:11:28.91	238.69	16.90	-48.1	-50.0	24.9	3.04e+01	0	46	0	306708480	60	12093
2026-01-28 12:11:29.92	238.91	16.97	-48.1	-50.1	25.0	3.04e+01	0	46	0	308805632	60	12163
2026-01-28 12:11:30.92	239.13	17.04	-48.2	-50.1	25.0	3.04e+01	0	46	0	310378496	60	12190
2026-01-28 12:11:31.93	239.36	17.11	-48.3	-50.1	25.1	3.04e+01	0	46	0	312475648	60	12224
2026-01-28 12:11:32.93	239.58	17.18	-48.4	-50.2	25.2	3.04e+01	0	46	0	314048512	60	12293
2026-01-28 12:11:33.94	239.81	17.25	-48.4	-50.2	25.2	3.04e+01	0	46	0	316145664	60	12286
2026-01-28 12:11:34.95	240.04	17.32	-48.3	-50.1	25.2	3.04e+01	0	46	0	318242816	60	12190
2026-01-28 12:11:35.95	240.27	17.39	-48.3	-50.1	25.1	3.04e+01	0	46	0	319815680	60	12160
2026-01-28 12:11:36.96	240.50	17.46	-48.2	-50.0	25.2	3.04e+01	0	46	0	321912832	60	12020
2026-01-28 12:11:37.96	240.73	17.52	-48.1	-49.9	25.2	3.04e+01	0	46	0	323485696	60	11920
2026-01-28 12:11:38.97	240.96	17.59	-48.1	-49.9	25.1	3.04e+01	0	46	0	325582848	60	11935
2026-01-28 12:11:39.98	241.19	17.66	-48.2	-50.0	25.0	3.04e+01	0	46	0	327680000	60	12072
2026-01-28 12:11:40.99	241.43	17.73	-48.2	-50.0	25.1	3.04e+01	0	46	0	329252864	60	12046
2026-01-28 12:11:42.00	241.67	17.80	-48.2	-50.1	24.9	3.04e+01	0	46	0	331350016	60	12191
2026-01-28 12:11:43.01	241.90	17.87	-48.1	-50.1	24.8	3.04e+01	0	46	0	332922880	60	12167
2026-01-28 12:11:44.01	242.14	17.94	-48.2	-50.1	24.7	3.04e+01	0	46	0	335020032	60	12219
2026-01-28 12:11:45.02	242.38	18.00	-47.9	-49.9	24.7	3.04e+01	0	46	0	337117184	60	11933
2026-01-28 12:11:46.03	242.62	18.07	-47.9	-50.0	24.5	3.04e+01	0	46	0	338690048	60	12020
2026-01-28 12:11:47.03	242.86	18.14	-47.9	-50.0	24.5	3.04e+01	0	46	0	340787200	60	12054
2026-01-28 12:11:48.04	243.10	18.20	-48.0	-50.0	24.6	3.04e+01	0	46	0	342884352	60	12061
2026-01-28 12:11:49.04	243.34	18.27	-47.9	-50.0	24.6	3.04e+01	0	46	0	344457216	60	12056
2026-01-28 12:11:50.05	243.59	18.34	-48.0	-50.0	24.6	3.04e+01	0	46	0	346554368	60	12081
2026-01-28 12:11:51.05	243.83	18.40	-48.0	-50.0	24.7	3.04e+01	0	46	0	348127232	60	12078
2026-01-28 12:11:52.06	244.08	18.47	-48.2	-50.2	24.5	3.04e+01	0	46	0	350224384	60	12347
2026-01-28 12:11:53.07	244.33	18.53	-48.6	-59.4	3.6	3.04e+01	0	46	104	350748672	60	35543
2026-01-28 12:11:54.08	244.58	18.60	-48.6	-59.3	3.5	3.04e+01	0	46	104	350748672	60	35199
2026-01-28 12:11:55.09	244.83	18.66	-48.6	-59.2	3.6	3.04e+01	0	46	104	350748672	60	34725
2026-01-28 12:11:56.09	245.08	18.73	-48.8	-59.4	3.5	3.04e+01	0	46	104	350748672	60	35493
2026-01-28 12:11:57.10	245.33	18.79	-52.6	-65.8	3.5	3.04e+01	0	46	104	350748672	60	74310
2026-01-28 12:11:58.11	245.59	18.85	-52.8	-65.8	3.4	3.04e+01	0	46	104	350748672	60	74551
2026-01-28 12:11:59.12	245.84	18.92	-56.0	-75.3	3.5	3.04e+01	0	46	104	350748672	60	222013
2026-01-28 12:12:00.12	246.09	18.98	-51.5	-63.3	3.6	3.04e+01	0	46	104	350748672	60	55467
2026-01-28 12:12:01.13	246.35	19.04	-52.4	-64.7	3.5	3.04e+01	0	46	104	350748672	60	65553
2026-01-28 12:12:02.14	246.61	19.11	-50.9	-62.4	3.5	3.04e+01	0	46	104	350748672	60	50019
2026-01-28 12:12:03.14	246.87	19.17	-50.9	-62.3	3.6	3.04e+01	0	46	104	350748672	60	49591
2026-01-28 12:12:04.15	247.13	19.23	-55.2	-75.3	3.5	3.04e+01	0	46	104	350748672	60	220712
2026-01-28 12:12:05.15	247.39	19.29	-53.5	-65.8	3.6	3.04e+01	0	46	104	350748672	60	73993
2026-01-28 12:12:06.16	247.65	19.35	-55.5	-72.4	3.5	3.04e+01	0	46	104	350748672	60	158844
2026-01-28 12:12:07.16	247.91	19.41	-53.8	-67.3	3.7	3.04e+01	0	46	104	350748672	60	88584
2026-01-28 12:12:08.17	248.18	19.47	-53.4	-67.3	3.8	3.04e+01	0	46	104	350748672	60	87990
2026-01-28 12:12:09.18	248.44	19.53	-52.7	-65.6	4.0	3.04e+01	0	46	104	350748672	60	72506
2026-01-28 12:12:10.18	248.71	19.59	-51.0	-62.4	4.0	3.04e+01	0	46	104	350748672	60	49904
2026-01-28 12:12:11.19	248.97	19.65	-50.5	-61.3	4.0	3.04e+01	0	46	104	350748672	60	44435
2026-01-28 12:12:12.20	249.24	19.71	-52.6	-64.3	3.9	3.04e+01	0	46	104	350748672	60	62269
2026-01-28 12:12:13.20	249.51	19.76	-55.3	-72.7	3.5	3.04e+01	0	46	104	350748672	60	164585
2026-01-28 12:12:14.21	249.78	19.82	-53.0	-65.3	3.5	3.04e+01	0	46	104	350748672	60	70369
2026-01-28 12:12:15.22	250.05	19.88	-55.4	-74.8	3.5	3.04e+01	0	46	104	350748672	60	208035
2026-01-28 12:12:16.23	250.33	19.93	-54.9	-69.4	3.5	3.04e+01	0	46	104	350748672	60	112498
2026-01-28 12:12:17.24	250.60	19.99	-51.8	-63.2	3.5	3.04e+01	0	46	104	350748672	60	55066
2026-01-28 12:12:18.25	250.88	20.04	-52.7	-64.4	3.5	3.04e+01	0	46	104	350748672	60	63092
2026-01-28 12:12:19.25	251.15	20.10	-52.5	-64.5	3.5	3.04e+01	0	46	104	350748672	60	63702
2026-01-28 12:12:20.26	251.43	20.15	-56.1	-74.8	3.5	3.04e+01	0	46	104	350748672	60	208393
2026-01-28 12:12:21.26	251.70	20.21	-53.8	-67.6	3.6	3.04e+01	0	46	104	350748672	60	90782
2026-01-28 12:12:22.26	251.98	20.26	-54.1	-68.4	3.5	3.04e+01	0	46	104	350748672	60	99763
2026-01-28 12:12:23.27	252.26	20.31	-54.5	-73.7	3.5	3.04e+01	0	46	104	350748672	60	183772
2026-01-28 12:12:24.27	252.54	20.36	-53.2	-66.5	3.5	3.04e+01	0	46	104	350748672	60	80260
2026-01-28 12:12:25.28	252.82	20.42	-50.4	-61.8	3.5	3.04e+01	0	46	104	350748672	60	46677
2026-01-28 12:12:26.28	253.10	20.47	-51.3	-63.3	3.5	3.04e+01	0	46	104	350748672	60	55568
2026-01-28 12:12:27.28	253.38	20.52	-51.2	-63.2	3.6	3.04e+01	0	46	104	350748672	60	54997
2026-01-28 12:12:28.29	253.67	20.57	-53.3	-72.9	3.6	3.04e+01	0	46	104	350748672	60	167455
2026-01-28 12:12:29.30	253.95	20.62	-53.1	-66.6	3.6	3.04e+01	0	46	104	350748672	60	81072
2026-01-28 12:12:30.30	254.24	20.67	-54.6	-70.3	3.5	3.04e+01	0	46	104	350748672	60	124307
2026-01-28 12:12:31.31	254.53	20.71	-56.2	-74.9	3.5	3.04e+01	0	46	104	350748672	60	212158
2026-01-28 12:12:32.32	254.81	20.76	-52.7	-67.3	3.5	3.04e+01	0	46	104	350748672	60	87716
2026-01-28 12:12:33.33	255.10	20.81	-50.9	-63.0	3.5	3.04e+01	0	46	104	350748672	60	53707
2026-01-28 12:12:34.33	255.39	20.86	-50.8	-62.6	3.5	3.04e+01	0	46	104	350748672	60	51491
2026-01-28 12:12:35.33	255.68	20.90	-51.1	-63.2	3.5	3.04e+01	0	46	104	350748672	60	55175
2026-01-28 12:12:36.34	255.97	20.95	-53.3	-73.7	3.6	3.04e+01	0	46	104	350748672	60	184148
2026-01-28 12:12:37.34	256.26	20.99	-52.8	-66.6	3.5	3.04e+01	0	46	104	350748672	60	81017
2026-01-28 12:12:38.35	256.56	21.03	-52.7	-70.7	3.5	3.04e+01	0	46	104	350748672	60	130784
2026-01-28 12:12:39.35	256.85	21.08	-53.1	-66.3	3.6	3.04e+01	0	46	104	350748672	60	78486
2026-01-28 12:12:40.35	257.14	21.12	-54.0	-68.8	3.5	3.04e+01	0	46	104	350748672	60	104597
2026-01-28 12:12:41.36	257.44	21.16	-52.0	-64.1	3.5	3.04e+01	0	46	104	350748672	60	61112
2026-01-28 12:12:42.36	257.73	21.20	-51.2	-62.7	3.5	3.04e+01	0	46	104	350748672	60	51720
2026-01-28 12:12:43.37	258.03	21.24	-50.8	-62.3	3.5	3.04e+01	0	46	104	350748672	60	49752
2026-01-28 12:12:44.37	258.33	21.28	-51.2	-63.1	3.5	3.04e+01	0	46	104	350748672	60	54508
2026-01-28 12:12:45.38	258.63	21.32	-54.6	-69.5	3.5	3.04e+01	0	46	104	350748672	60	113571
2026-01-28 12:12:46.39	258.93	21.36	-54.8	-70.3	3.5	3.04e+01	0	46	104	350748672	60	125027
2026-01-28 12:12:47.39	259.23	21.40	-55.0	-73.3	3.6	3.04e+01	0	46	104	350748672	60	176185
2026-01-28 12:12:48.40	259.53	21.44	-54.8	-70.2	3.5	3.04e+01	0	46	104	350748672	60	123159
2026-01-28 12:12:49.41	259.83	21.47	-54.2	-67.8	3.6	3.04e+01	0	46	104	350748672	60	93107
2026-01-28 12:12:50.41	260.13	21.51	-53.1	-65.5	3.5	3.04e+01	0	46	104	350748672	60	71808
2026-01-28 12:12:51.42	260.44	21.54	-52.9	-64.9	3.5	3.04e+01	0	46	104	350748672	60	66851
2026-01-28 12:12:52.43	260.74	21.58	-55.7	-73.9	3.5	3.04e+01	0	46	104	350748672	60	188701
2026-01-28 12:12:53.43	261.04	21.61	-55.5	-71.1	3.6	3.04e+01	0	46	104	350748672	60	136296
2026-01-28 12:12:54.43	261.35	21.65	-54.5	-69.6	3.5	3.04e+01	0	46	104	350748672	60	115359
2026-01-28 12:12:55.44	261.66	21.68	-51.7	-63.2	3.5	3.04e+01	0	46	104	350748672	60	55172
2026-01-28 12:12:56.45	261.96	21.71	-54.6	-68.4	3.5	3.04e+01	0	46	104	350748672	60	100242
2026-01-28 12:12:57.45	262.27	21.74	-50.6	-61.6	3.6	3.04e+01	0	46	104	350748672	60	45786
2026-01-28 12:12:58.46	262.58	21.77	-50.7	-61.9	3.5	3.04e+01	0	46	104	350748672	60	47302
2026-01-28 12:12:59.47	262.89	21.80	-49.8	-60.8	3.5	3.04e+01	0	46	104	350748672	60	41544
2026-01-28 12:13:00.47	263.19	21.83	-52.3	-64.8	3.5	3.04e+01	0	46	104	350748672	60	65968
2026-01-28 12:13:01.48	263.50	21.85	-54.3	-72.1	3.6	3.04e+01	0	46	104	350748672	60	153312
2026-01-28 12:13:02.48	263.81	21.88	-54.3	-68.7	3.5	3.04e+01	0	46	104	350748672	60	103977
2026-01-28 12:13:03.49	264.12	21.91	-54.2	-68.9	3.5	3.04e+01	0	46	104	350748672	60	106105
2026-01-28 12:13:04.50	264.44	21.93	-54.8	-70.4	3.5	3.04e+01	0	46	104	350748672	60	126205
2026-01-28 12:13:05.51	264.75	21.96	-51.9	-63.7	3.5	3.04e+01	0	46	104	350748672	60	58582
2026-01-28 12:13:06.52	265.06	21.98	-52.8	-65.3	3.5	3.04e+01	0	46	104	350748672	60	70066
2026-01-28 12:13:07.52	265.37	22.00	-51.5	-63.5	3.5	3.04e+01	0	46	104	350748672	60	56880
2026-01-28 12:13:08.53	265.69	22.03	-51.1	-63.3	3.5	3.04e+01	0	46	104	350748672	60	55936
2026-01-28 12:13:09.53	266.00	22.05	-54.0	-69.6	3.6	3.04e+01	0	46	104	350748672	60	115532
2026-01-28 12:13:10.54	266.31	22.07	-53.5	-68.9	3.5	3.04e+01	0	46	104	350748672	60	106545
2026-01-28 12:13:11.54	266.63	22.09	-51.4	-63.9	3.5	3.04e+01	0	46	104	350748672	60	59598
2026-01-28 12:13:12.54	266.94	22.10	-53.3	-70.8	3.5	3.04e+01	0	46	104	350748672	60	132301
2026-01-28 12:13:13.55	267.26	22.12	-52.8	-67.2	3.5	3.04e+01	0	46	104	350748672	60	86957
2026-01-28 12:13:14.56	267.57	22.14	-52.4	-65.7	3.5	3.04e+01	0	46	104	350748672	60	72938
2026-01-28 12:13:15.56	267.89	22.16	-51.0	-62.5	3.5	3.04e+01	0	46	104	350748672	60	50491
2026-01-28 12:13:16.56	268.20	22.17	-53.0	-65.1	3.5	3.04e+01	0	46	104	350748672	60	68431
2026-01-28 12:13:17.57	268.52	22.19	-50.7	-61.8	3.5	3.04e+01	0	46	104	350748672	60	46785
2026-01-28 12:13:18.57	268.83	22.20	-54.7	-71.1	3.5	3.04e+01	0	46	104	350748672	60	136262
2026-01-28 12:13:19.58	269.15	22.21	-51.2	-62.9	3.5	3.04e+01	0	46	104	350748672	60	53186
2026-01-28 12:13:20.58	269.47	22.22	-54.0	-69.3	3.5	3.04e+01	0	46	104	350748672	60	110451
2026-01-28 12:13:21.59	269.78	22.24	-51.9	-63.9	3.5	3.04e+01	0	46	104	350748672	60	59455
2026-01-28 12:13:22.60	270.10	22.25	-51.6	-63.5	3.5	3.04e+01	0	46	104	350748672	60	57133
2026-01-28 12:13:23.61	270.42	22.26	-52.2	-63.9	3.5	3.04e+01	0	46	104	350748672	60	59734
2026-01-28 12:13:24.62	270.74	22.26	-53.9	-67.0	3.5	3.04e+01	0	46	104	350748672	60	85026
2026-01-28 12:13:25.62	271.06	22.27	-50.0	-60.9	3.6	3.04e+01	0	46	104	350748672	60	42251
2026-01-28 12:13:26.63	271.38	22.28	-55.5	-71.1	3.5	3.04e+01	0	46	104	350748672	60	137043
2026-01-28 12:13:27.63	271.69	22.28	-51.3	-62.4	3.5	3.04e+01	0	46	104	350748672	60	50136
2026-01-28 12:13:28.64	272.01	22.29	-54.8	-68.8	3.5	3.04e+01	0	46	104	350748672	60	105020
2026-01-28 12:13:29.65	272.33	22.29	-51.5	-62.9	3.5	3.04e+01	0	46	104	350748672	60	53009
2026-01-28 12:13:30.65	272.65	22.30	-51.6	-63.1	3.5	3.04e+01	0	46	104	350748672	60	54638
2026-01-28 12:13:31.66	272.97	22.30	-52.2	-63.8	3.5	3.04e+01	0	46	104	350748672	60	58761
2026-01-28 12:13:32.66	273.29	22.30	-54.6	-69.1	3.5	3.04e+01	0	46	104	350748672	60	108481
2026-01-28 12:13:33.67	273.61	22.30	-49.6	-60.5	3.5	3.04e+01	0	46	104	350748672	60	40461
2026-01-28 12:13:34.68	273.93	22.30	-55.0	-71.8	3.5	3.04e+01	0	46	104	350748672	60	148075
2026-01-28 12:13:35.68	274.24	22.30	-51.1	-62.5	3.5	3.04e+01	0	46	104	350748672	60	50928
2026-01-28 12:13:36.69	274.56	22.30	-55.2	-71.1	3.5	3.04e+01	0	46	104	350748672	60	136519
2026-01-28 12:13:37.70	274.88	22.30	-52.6	-65.1	3.5	3.04e+01	0	46	104	350748672	60	68735
2026-01-28 12:13:38.71	275.20	22.29	-52.8	-65.6	3.5	3.04e+01	0	46	104	350748672	60	72538
2026-01-28 12:13:39.71	275.52	22.29	-51.5	-63.0	3.6	3.04e+01	0	46	104	350748672	60	53792
2026-01-28 12:13:40.72	275.84	22.28	-54.8	-69.9	3.5	3.04e+01	0	46	104	350748672	60	119480
2026-01-28 12:13:41.72	276.16	22.28	-49.4	-60.1	3.5	3.04e+01	0	46	104	350748672	60	38494
2026-01-28 12:13:42.73	276.48	22.27	-53.9	-71.2	3.5	3.04e+01	0	46	104	350748672	60	137922
2026-01-28 12:13:43.73	276.79	22.26	-51.3	-62.8	3.5	3.04e+01	0	46	104	350748672	60	52464
2026-01-28 12:13:44.73	277.11	22.25	-54.5	-69.5	3.5	3.04e+01	0	46	104	350748672	60	113363
2026-01-28 12:13:45.74	277.43	22.24	-51.7	-64.4	3.6	3.04e+01	0	46	104	350748672	60	63056
2026-01-28 12:13:46.75	277.74	22.23	-51.1	-63.7	3.5	3.04e+01	0	46	104	350748672	60	57948
2026-01-28 12:13:47.75	278.06	22.22	-52.1	-67.9	3.5	3.04e+01	0	46	104	350748672	60	94733
2026-01-28 12:13:48.76	278.38	22.21	-55.3	-74.2	3.5	3.04e+01	0	46	104	350748672	60	194835
2026-01-28 12:13:49.76	278.69	22.20	-50.0	-62.1	3.5	3.04e+01	0	46	104	350748672	60	48639
2026-01-28 12:13:50.76	279.01	22.18	-52.2	-71.3	3.6	3.04e+01	0	46	104	350748672	60	140476
2026-01-28 12:13:51.77	279.32	22.17	-51.7	-65.8	3.5	3.04e+01	0	46	104	350748672	60	74589
2026-01-28 12:13:52.77	279.64	22.15	-52.5	-68.1	3.5	3.04e+01	0	46	104	350748672	60	97130
2026-01-28 12:13:53.77	279.95	22.14	-50.4	-63.6	3.5	3.04e+01	0	46	104	350748672	60	57889
2026-01-28 12:13:54.78	280.27	22.12	-49.6	-62.4	3.5	3.04e+01	0	46	104	350748672	60	50049
2026-01-28 12:13:55.78	280.58	22.10	-50.9	-66.3	3.5	3.04e+01	0	46	104	350748672	60	78638
2026-01-28 12:13:56.79	280.90	22.08	-52.5	-72.9	3.5	3.04e+01	0	46	104	350748672	60	168333
2026-01-28 12:13:57.79	281.21	22.06	-48.4	-60.5	3.5	3.04e+01	0	46	104	350748672	60	40234
2026-01-28 12:13:58.79	281.52	22.04	-51.6	-70.2	3.6	3.04e+01	0	46	104	350748672	60	122760
2026-01-28 12:13:59.80	281.83	22.02	-49.9	-63.8	3.5	3.04e+01	0	46	104	350748672	60	59189
2026-01-28 12:14:00.81	282.15	22.00	-51.6	-70.0	3.6	3.04e+01	0	46	104	350748672	60	120667
2026-01-28 12:14:01.81	282.46	21.98	-50.7	-66.3	3.5	3.04e+01	0	46	104	350748672	60	78237
2026-01-28 12:14:02.82	282.77	21.95	-50.6	-65.6	3.5	3.04e+01	0	46	104	350748672	60	72855
2026-01-28 12:14:03.82	283.08	21.93	-49.9	-62.5	3.5	3.04e+01	0	46	104	350748672	60	50949
2026-01-28 12:14:04.83	283.39	21.90	-54.7	-73.8	3.5	3.04e+01	0	46	104	350748672	60	185738
2026-01-28 12:14:05.83	283.70	21.88	-49.5	-61.2	3.4	3.04e+01	0	46	104	350748672	60	43800
2026-01-28 12:14:06.82	284.00	21.85	-55.3	-72.3	3.5	3.04e+01	0	46	104	350748672	60	156670
2026-01-28 12:14:07.83	284.31	21.82	-51.9	-64.9	3.5	3.04e+01	0	46	104	350748672	60	66832
2026-01-28 12:14:08.83	284.62	21.79	-53.5	-71.1	3.5	3.04e+01	0	46	104	350748672	60	137120
2026-01-28 12:14:09.84	284.93	21.77	-53.0	-66.0	3.5	3.04e+01	0	46	104	350748672	60	76151
2026-01-28 12:14:10.84	285.23	21.74	-53.4	-66.5	3.5	3.04e+01	0	46	104	350748672	60	80343
2026-01-28 12:14:11.85	285.54	21.70	-52.0	-64.3	3.5	3.04e+01	0	46	104	350748672	60	62285
2026-01-28 12:14:12.85	285.85	21.67	-56.2	-74.7	3.5	3.04e+01	0	46	104	350748672	60	205662
2026-01-28 12:14:13.85	286.15	21.64	-52.7	-65.9	3.5	3.04e+01	0	46	104	350748672	60	74909
2026-01-28 12:14:14.86	286.45	21.61	-55.7	-73.4	3.5	3.04e+01	0	46	104	350748672	60	178523
2026-01-28 12:14:15.85	286.75	21.58	-54.1	-69.9	3.5	3.04e+01	0	46	104	350748672	60	118584
2026-01-28 12:14:16.86	287.06	21.54	-53.7	-68.6	3.5	3.04e+01	0	46	104	350748672	60	101832
2026-01-28 12:14:17.86	287.36	21.51	-51.4	-62.8	3.5	3.04e+01	0	46	104	350748672	60	52635
2026-01-28 12:14:18.87	287.66	21.47	-51.4	-62.8	3.5	3.04e+01	0	46	104	350748672	60	52707
2026-01-28 12:14:19.87	287.96	21.43	-53.9	-69.8	3.5	3.04e+01	0	46	104	350748672	60	117135
2026-01-28 12:14:20.88	288.26	21.40	-53.6	-71.9	3.6	3.04e+01	0	46	104	350748672	60	149346
2026-01-28 12:14:21.88	288.56	21.36	-53.6	-67.5	3.5	3.04e+01	0	46	104	350748672	60	90464
2026-01-28 12:14:22.88	288.86	21.32	-54.1	-74.0	3.5	3.04e+01	0	46	104	350748672	60	190149
2026-01-28 12:14:23.89	289.15	21.28	-52.8	-67.9	3.5	3.04e+01	0	46	104	350748672	60	94526
2026-01-28 12:14:24.89	289.45	21.24	-51.2	-64.0	3.5	3.04e+01	0	46	104	350748672	60	60335
2026-01-28 12:14:25.89	289.74	21.20	-49.6	-61.5	3.6	3.04e+01	0	46	104	350748672	60	45159
2026-01-28 12:14:26.90	290.04	21.16	-49.1	-61.0	3.5	3.04e+01	0	46	104	350748672	60	42908
2026-01-28 12:14:27.91	290.34	21.12	-53.0	-72.8	3.6	3.04e+01	0	46	104	350748672	60	165669
2026-01-28 12:14:28.92	290.63	21.07	-52.7	-72.2	3.6	3.04e+01	0	46	104	350748672	60	154965
2026-01-28 12:14:29.92	290.92	21.03	-51.1	-65.4	3.5	3.04e+01	0	46	104	350748672	60	70922
2026-01-28 12:14:30.93	291.22	20.99	-54.0	-73.5	3.6	3.04e+01	0	46	104	350748672	60	180488
2026-01-28 12:14:31.93	291.51	20.94	-52.6	-68.1	3.5	3.04e+01	0	47	104	350748672	60	96798
2026-01-28 12:14:32.94	291.80	20.90	-53.0	-70.8	3.5	3.04e+01	0	46	104	350748672	60	131731
2026-01-28 12:14:33.94	292.09	20.85	-52.0	-67.0	3.5	3.04e+01	0	46	104	350748672	60	85456
2026-01-28 12:14:34.95	292.37	20.81	-52.0	-66.7	3.5	3.04e+01	0	47	104	350748672	60	82034
2026-01-28 12:14:35.96	292.66	20.76	-53.7	-71.9	3.5	3.04e+01	0	46	104	350748672	60	149679
2026-01-28 12:14:36.96	292.95	20.71	-54.3	-72.5	3.5	3.04e+01	0	47	104	350748672	60	161062
2026-01-28 12:14:37.97	293.24	20.66	-52.1	-68.2	3.5	3.04e+01	0	46	104	350748672	60	98205
2026-01-28 12:14:38.98	293.52	20.61	-53.7	-73.4	3.6	3.04e+01	0	46	104	350748672	60	177283
2026-01-28 12:14:39.98	293.80	20.57	-54.5	-72.5	3.6	3.04e+01	0	46	104	350748672	60	160474
2026-01-28 12:14:40.99	294.09	20.52	-54.3	-70.9	3.5	3.04e+01	0	47	104	350748672	60	133909
2026-01-28 12:14:42.00	294.37	20.47	-53.4	-67.4	3.6	3.04e+01	0	46	104	350748672	60	88861
2026-01-28 12:14:43.00	294.65	20.41	-52.9	-66.4	3.5	3.04e+01	0	46	104	350748672	60	79438
2026-01-28 12:14:44.00	294.93	20.36	-55.4	-71.9	3.5	3.04e+01	0	46	104	350748672	60	149692
2026-01-28 12:14:45.01	295.21	20.31	-55.6	-72.9	3.5	3.04e+01	0	46	104	350748672	60	167290
2026-01-28 12:14:46.02	295.49	20.26	-54.2	-69.6	3.5	3.04e+01	0	46	104	350748672	60	115092
2026-01-28 12:14:47.02	295.76	20.21	-56.0	-75.2	3.6	3.04e+01	0	46	104	350748672	60	219272
2026-01-28 12:14:48.03	296.04	20.15	-54.6	-71.8	3.5	3.04e+01	0	46	104	350748672	60	147898
2026-01-28 12:14:49.04	296.32	20.10	-53.4	-66.7	3.6	3.04e+01	0	46	104	350748672	60	81903
2026-01-28 12:14:50.04	296.59	20.04	-51.7	-63.7	3.5	3.04e+01	0	46	104	350748672	60	58044
2026-01-28 12:14:51.05	296.86	19.99	-51.3	-63.2	3.5	3.04e+01	0	46	104	350748672	60	54979
2026-01-28 12:14:52.06	297.14	19.93	-56.0	-74.1	3.5	3.04e+01	0	46	104	350748672	60	192326
2026-01-28 12:14:53.06	297.41	19.88	-55.6	-72.4	3.5	3.04e+01	0	46	104	350748672	60	159329
2026-01-28 12:14:54.07	297.68	19.82	-54.8	-70.2	3.5	3.04e+01	0	46	104	350748672	60	122521
2026-01-28 12:14:55.08	297.95	19.76	-56.7	-75.4	3.5	3.04e+01	0	46	104	350748672	60	222854
2026-01-28 12:14:56.08	298.21	19.71	-55.4	-74.3	3.5	3.04e+01	0	46	104	350748672	60	197709
2026-01-28 12:14:57.09	298.48	19.65	-54.8	-70.7	3.5	3.04e+01	0	46	104	350748672	60	131123
2026-01-28 12:14:58.10	298.75	19.59	-53.1	-66.2	3.5	3.04e+01	0	46	104	350748672	60	77585
2026-01-28 12:14:59.11	299.01	19.53	-52.9	-65.9	3.5	3.04e+01	0	46	104	350748672	60	75140
2026-01-28 12:15:00.12	299.28	19.47	-55.2	-72.8	3.5	3.04e+01	0	46	104	350748672	60	166847
2026-01-28 12:15:01.12	299.54	19.41	-55.6	-73.0	3.5	3.04e+01	0	46	104	350748672	60	169170
2026-01-28 12:15:02.13	299.80	19.35	-55.1	-70.7	3.5	3.04e+01	0	46	104	350748672	60	130789
2026-01-28 12:15:03.13	300.06	19.29	-55.7	-74.6	3.5	3.04e+01	0	46	104	350748672	60	205340
2026-01-28 12:15:04.14	300.32	19.23	-56.5	-75.0	3.5	3.04e+01	0	46	104	350748672	60	213971
2026-01-28 12:15:05.14	300.58	19.17	-55.1	-69.2	3.5	3.04e+01	0	46	104	350748672	60	109811
2026-01-28 12:15:06.15	300.84	19.11	-54.3	-66.9	3.5	3.04e+01	0	46	104	350748672	60	84518
2026-01-28 12:15:07.15	301.09	19.05	-54.1	-66.9	3.5	3.04e+01	0	46	104	350748672	60	83900
2026-01-28 12:15:08.15	301.35	18.99	-54.9	-70.0	3.5	3.04e+01	0	46	104	350748672	60	120375
2026-01-28 12:15:09.16	301.60	18.92	-55.1	-72.4	3.5	3.04e+01	0	46	104	350748672	60	158227
2026-01-28 12:15:10.16	301.85	18.86	-55.0	-71.4	3.5	3.04e+01	0	46	104	350748672	60	141678
2026-01-28 12:15:11.17	302.11	18.80	-56.0	-75.1	3.5	3.04e+01	0	46	104	350748672	60	217119
2026-01-28 12:15:12.17	302.36	18.73	-54.7	-74.5	3.5	3.04e+01	0	46	104	350748672	60	201346
2026-01-28 12:15:13.18	302.61	18.67	-52.9	-67.1	3.5	3.04e+01	0	46	104	350748672	60	86402
2026-01-28 12:15:14.18	302.85	18.61	-53.1	-67.2	3.5	3.04e+01	0	46	104	350748672	60	86937
2026-01-28 12:15:15.19	303.10	18.54	-52.9	-66.2	3.5	3.04e+01	0	46	104	350748672	60	78053
2026-01-28 12:15:16.20	303.35	18.48	-55.4	-73.4	3.5	3.04e+01	0	46	104	350748672	60	178217
2026-01-28 12:15:17.21	303.60	18.41	-55.9	-74.4	3.5	3.04e+01	0	46	104	350748672	60	198735
2026-01-28 12:15:18.22	303.84	18.35	-55.9	-72.2	3.6	3.04e+01	0	46	104	350748672	60	155795
2026-01-28 12:15:19.22	304.08	18.28	-54.7	-71.9	3.5	3.04e+01	0	46	104	350748672	60	149312
2026-01-28 12:15:20.23	304.33	18.21	-55.1	-70.2	3.5	3.04e+01	0	46	104	350748672	60	123636
2026-01-28 12:15:21.24	304.57	18.15	-50.1	-61.3	3.5	3.04e+01	0	46	104	350748672	60	44284
2026-01-28 12:15:22.25	304.81	18.08	-49.2	-60.3	3.5	3.04e+01	0	46	104	350748672	60	39323
2026-01-28 12:15:23.25	305.05	18.01	-49.2	-60.2	3.5	3.04e+01	0	46	104	350748672	60	39000
2026-01-28 12:15:24.26	305.29	17.95	-55.0	-71.1	3.5	3.04e+01	0	46	104	350748672	60	135940
2026-01-28 12:15:25.26	305.52	17.88	-55.4	-71.8	3.6	3.04e+01	0	46	104	350748672	60	148281
2026-01-28 12:15:26.27	305.76	17.81	-54.6	-70.4	3.5	3.04e+01	0	46	104	350748672	60	125943
2026-01-28 12:15:27.28	305.99	17.74	-55.5	-74.7	3.5	3.04e+01	0	46	104	350748672	60	206446
2026-01-28 12:15:28.28	306.22	17.68	-54.9	-74.0	3.5	3.04e+01	0	46	104	350748672	60	189928
2026-01-28 12:15:29.29	306.46	17.61	-52.5	-64.8	3.5	3.04e+01	0	46	104	350748672	60	66355
2026-01-28 12:15:30.30	306.69	17.54	-53.2	-66.2	3.5	3.04e+01	0	46	104	350748672	60	77523
2026-01-28 12:15:31.31	306.92	17.47	-53.3	-66.4	3.5	3.04e+01	0	46	104	350748672	60	79233
2026-01-28 12:15:32.31	307.15	17.40	-55.6	-72.5	3.5	3.04e+01	0	46	104	350748672	60	161041
2026-01-28 12:15:33.32	307.38	17.33	-55.6	-74.6	3.5	3.04e+01	0	46	104	350748672	60	203627
2026-01-28 12:15:34.33	307.60	17.26	-56.0	-72.7	3.5	3.04e+01	0	46	104	350748672	60	164570
2026-01-28 12:15:35.34	307.83	17.19	-55.8	-72.2	3.5	3.04e+01	0	47	104	350748672	60	155697
2026-01-28 12:15:36.34	308.05	17.12	-55.8	-72.1	3.6	3.04e+01	0	46	104	350748672	60	153836
2026-01-28 12:15:37.34	308.28	17.05	-52.6	-64.3	3.5	3.04e+01	0	46	104	350748672	60	62602
2026-01-28 12:15:38.35	308.50	16.98	-51.8	-63.2	3.5	3.04e+01	0	46	104	350748672	60	55265
2026-01-28 12:15:39.35	308.72	16.91	-51.0	-62.2	3.5	3.04e+01	0	46	104	350748672	60	49255
2026-01-28 12:15:40.36	308.94	16.84	-54.8	-71.3	3.5	3.04e+01	0	46	104	350748672	60	140506
2026-01-28 12:15:41.37	309.16	16.77	-53.9	-67.5	3.6	3.04e+01	0	46	104	350748672	60	90543
2026-01-28 12:15:42.37	309.38	16.70	-55.0	-69.9	3.5	3.04e+01	0	46	104	350748672	60	118368
2026-01-28 12:15:43.37	309.59	16.63	-55.8	-73.8	3.5	3.04e+01	0	46	104	350748672	60	186469
2026-01-28 12:15:44.38	309.81	16.56	-54.8	-70.5	3.5	3.04e+01	0	46	104	350748672	60	126816
2026-01-28 12:15:45.38	310.03	16.49	-49.4	-60.4	3.6	3.04e+01	0	46	104	350748672	60	39628
2026-01-28 12:15:46.39	310.24	16.42	-49.6	-60.6	3.5	3.04e+01	0	46	104	350748672	60	40855
2026-01-28 12:15:47.40	310.45	16.35	-48.9	-59.6	3.6	3.04e+01	0	46	104	350748672	60	36356
2026-01-28 12:15:48.40	310.66	16.28	-55.9	-74.2	3.5	3.04e+01	0	46	104	350748672	60	194211
2026-01-28 12:15:49.41	310.88	16.20	-53.3	-65.9	3.5	3.04e+01	0	46	104	350748672	60	75274
2026-01-28 12:15:50.42	311.09	16.13	-54.7	-69.5	3.5	3.04e+01	0	46	104	350748672	60	113351
2026-01-28 12:15:51.42	311.29	16.06	-55.8	-74.6	3.6	3.04e+01	0	46	104	350748672	60	203658
2026-01-28 12:15:52.43	311.50	15.99	-55.4	-73.7	3.5	3.04e+01	0	46	104	350748672	60	184909
2026-01-28 12:15:53.44	311.71	15.92	-52.0	-63.7	3.5	3.04e+01	0	46	104	350748672	60	58470
2026-01-28 12:15:54.45	311.92	15.84	-52.2	-64.1	3.5	3.04e+01	0	46	104	350748672	60	61087
2026-01-28 12:15:55.46	312.12	15.77	-50.1	-61.1	3.5	3.04e+01	0	46	104	350748672	60	43429
2026-01-28 12:15:56.46	312.32	15.70	-55.4	-72.9	3.5	3.04e+01	0	46	104	350748672	60	168956
2026-01-28 12:15:57.47	312.53	15.63	-52.6	-65.0	3.5	3.04e+01	0	46	104	350748672	60	67523
2026-01-28 12:15:58.47	312.73	15.56	-55.1	-70.6	3.5	3.04e+01	0	46	104	350748672	60	129631
2026-01-28 12:15:59.48	312.93	15.48	-55.0	-70.6	3.6	3.04e+01	0	46	104	350748672	60	129141
2026-01-28 12:16:00.48	313.13	15.41	-55.3	-74.1	3.5	3.04e+01	0	46	104	350748672	60	192711
2026-01-28 12:16:01.49	313.33	15.34	-53.1	-66.3	3.5	3.04e+01	0	46	104	350748672	60	78214
2026-01-28 12:16:02.49	313.52	15.27	-53.0	-66.1	3.5	3.04e+01	0	46	104	350748672	60	76441
2026-01-28 12:16:03.50	313.72	15.19	-50.1	-61.1	3.6	3.04e+01	0	46	104	350748672	60	43265
2026-01-28 12:16:04.51	313.92	15.12	-55.7	-73.3	3.5	3.04e+01	0	46	104	350748672	60	176665
2026-01-28 12:16:05.52	314.11	15.05	-54.2	-68.0	3.6	3.04e+01	0	46	104	350748672	60	95065
2026-01-28 12:16:06.52	314.30	14.97	-54.9	-69.9	3.5	3.04e+01	0	47	104	350748672	60	118737
2026-01-28 12:16:07.53	314.50	14.90	-52.3	-64.1	3.5	3.04e+01	0	46	104	350748672	60	61044
2026-01-28 12:16:08.54	314.69	14.83	-55.1	-71.2	3.5	3.04e+01	0	46	104	350748672	60	138855
2026-01-28 12:16:09.54	314.88	14.75	-52.1	-63.8	3.5	3.04e+01	0	46	104	350748672	60	58685
2026-01-28 12:16:10.55	315.07	14.68	-51.7	-63.1	3.5	3.04e+01	0	46	104	350748672	60	54551
2026-01-28 12:16:11.55	315.26	14.61	-55.2	-71.0	3.5	3.04e+01	0	46	104	350748672	60	135143
2026-01-28 12:16:12.56	315.45	14.54	-50.0	-61.0	3.5	3.04e+01	0	46	104	350748672	60	42673
2026-01-28 12:16:13.56	315.63	14.46	-49.1	-59.9	3.5	3.04e+01	0	46	104	350748672	60	37437
2026-01-28 12:16:14.56	315.82	14.39	-53.4	-66.8	3.5	3.04e+01	0	46	104	350748672	60	83413
2026-01-28 12:16:15.57	316.00	14.32	-49.0	-59.8	3.5	3.04e+01	0	46	104	350748672	60	37269
2026-01-28 12:16:16.57	316.18	14.24	-53.2	-66.0	3.5	3.04e+01	0	46	104	350748672	60	75848
2026-01-28 12:16:17.58	316.37	14.17	-49.8	-60.8	3.5	3.04e+01	0	46	104	350748672	60	41578
2026-01-28 12:16:18.58	316.55	14.10	-49.6	-60.6	3.5	3.04e+01	0	46	104	350748672	60	40594
2026-01-28 12:16:19.59	316.73	14.02	-49.2	-60.0	3.5	3.04e+01	0	46	104	350748672	60	37872
2026-01-28 12:16:20.60	316.91	13.95	-54.3	-68.8	3.5	3.04e+01	0	46	104	350748672	60	105139
2026-01-28 12:16:21.60	317.09	13.88	-51.5	-63.2	3.5	3.04e+01	0	46	104	350748672	60	55215
2026-01-28 12:16:22.61	317.27	13.80	-54.8	-70.0	3.5	3.04e+01	0	46	104	350748672	60	120585
2026-01-28 12:16:23.62	317.45	13.73	-51.8	-63.5	3.5	3.04e+01	0	46	104	350748672	60	56871
2026-01-28 12:16:24.62	317.62	13.66	-55.3	-72.1	3.5	3.04e+01	0	46	104	350748672	60	153102
2026-01-28 12:16:25.63	317.80	13.58	-53.7	-67.0	3.5	3.04e+01	0	46	104	350748672	60	84710
2026-01-28 12:16:26.64	317.97	13.51	-53.6	-66.7	3.5	3.04e+01	0	46	104	350748672	60	82645
2026-01-28 12:16:27.64	318.15	13.44	-55.6	-74.2	3.5	3.04e+01	0	46	104	350748672	60	194652
2026-01-28 12:16:28.64	318.32	13.37	-50.3	-61.6	3.5	3.04e+01	0	46	104	350748672	60	45990
2026-01-28 12:16:29.65	318.49	13.29	-49.8	-60.8	3.5	3.04e+01	0	46	104	350748672	60	41738
2026-01-28 12:16:30.66	318.66	13.22	-54.5	-70.9	3.5	3.04e+01	0	47	104	350748672	60	132839
2026-01-28 12:16:31.67	318.83	13.15	-51.9	-63.9	3.5	3.04e+01	0	47	104	350748672	60	59565
2026-01-28 12:16:32.67	319.00	13.07	-54.8	-70.9	3.5	3.04e+01	0	46	104	350748672	60	133445
2026-01-28 12:16:33.68	319.17	13.00	-53.5	-67.2	3.5	3.04e+01	0	46	104	350748672	60	86954
2026-01-28 12:16:34.69	319.34	12.93	-53.2	-66.6	3.5	3.04e+01	0	47	104	350748672	60	80892
2026-01-28 12:16:35.69	319.51	12.85	-51.7	-63.9	3.5	3.04e+01	0	46	104	350748672	60	59515
2026-01-28 12:16:36.70	319.67	12.78	-53.6	-68.2	3.5	3.04e+01	0	47	104	350748672	60	97927
2026-01-28 12:16:37.70	319.84	12.71	-50.6	-62.2	3.5	3.04e+01	0	47	104	350748672	60	48791
2026-01-28 12:16:38.71	320.00	12.63	-53.9	-69.3	3.5	3.04e+01	0	46	104	350748672	60	110531
2026-01-28 12:16:39.71	320.16	12.56	-51.0	-62.7	3.5	3.04e+01	0	47	104	350748672	60	52011
2026-01-28 12:16:40.72	320.33	12.49	-53.3	-66.9	3.5	3.04e+01	0	46	104	350748672	60	84014
2026-01-28 12:16:41.73	320.49	12.42	-51.2	-63.0	3.5	3.04e+01	0	46	104	350748672	60	53981
2026-01-28 12:16:42.73	320.65	12.34	-51.3	-63.3	3.5	3.04e+01	0	46	104	350748672	60	55785
2026-01-28 12:16:43.73	320.81	12.27	-52.5	-65.8	3.5	3.04e+01	0	46	104	350748672	60	74011
2026-01-28 12:16:44.74	320.97	12.20	-54.3	-70.9	3.5	3.04e+01	0	46	104	350748672	60	134012
2026-01-28 12:16:45.75	321.13	12.13	-53.2	-66.9	3.5	3.04e+01	0	46	104	350748672	60	83956
2026-01-28 12:16:46.76	321.29	12.05	-54.4	-71.1	3.5	3.04e+01	0	46	104	350748672	60	136958
2026-01-28 12:16:47.76	321.44	11.98	-51.9	-64.3	3.5	3.04e+01	0	46	104	350748672	60	62652
2026-01-28 12:16:48.77	321.60	11.91	-53.9	-69.4	3.5	3.04e+01	0	46	104	350748672	60	111875
2026-01-28 12:16:49.77	321.75	11.84	-52.9	-66.1	3.5	3.04e+01	0	46	104	350748672	60	77218
2026-01-28 12:16:50.78	321.91	11.77	-53.0	-66.3	3.5	3.04e+01	0	46	104	350748672	60	78851
2026-01-28 12:16:51.79	322.06	11.69	-52.1	-65.4	3.5	3.04e+01	0	46	104	350748672	60	70915
2026-01-28 12:16:52.79	322.21	11.62	-53.5	-69.2	3.5	3.04e+01	0	46	104	350748672	60	110170
2026-01-28 12:16:53.80	322.37	11.55	-52.6	-66.0	3.5	3.04e+01	0	46	104	350748672	60	76265
2026-01-28 12:16:54.81	322.52	11.48	-54.3	-73.0	3.5	3.04e+01	0	46	104	350748672	60	169300
2026-01-28 12:16:55.82	322.67	11.40	-53.1	-67.4	3.5	3.04e+01	0	46	104	350748672	60	88688
2026-01-28 12:16:56.82	322.82	11.33	-54.2	-70.6	3.5	3.04e+01	0	46	104	350748672	60	129020
2026-01-28 12:16:57.83	322.97	11.26	-53.2	-68.0	3.5	3.04e+01	0	46	104	350748672	60	95470
2026-01-28 12:16:58.84	323.12	11.19	-53.3	-68.5	3.5	3.04e+01	0	46	104	350748672	60	101385
2026-01-28 12:16:59.85	323.26	11.12	-54.2	-71.0	3.5	3.04e+01	0	46	104	350748672	60	135722
2026-01-28 12:17:00.85	323.41	11.05	-54.6	-71.5	3.5	3.04e+01	0	46	104	350748672	60	143296
2026-01-28 12:17:01.85	323.55	10.98	-53.8	-70.1	3.5	3.04e+01	0	46	104	350748672	60	121818
2026-01-28 12:17:02.85	323.70	10.90	-54.4	-72.9	3.5	3.04e+01	0	46	104	350748672	60	168247
2026-01-28 12:17:03.86	323.84	10.83	-54.0	-70.0	3.5	3.04e+01	0	46	104	350748672	60	119780
2026-01-28 12:17:04.86	323.99	10.76	-53.7	-69.1	3.5	3.04e+01	0	46	104	350748672	60	108543
2026-01-28 12:17:05.86	324.13	10.69	-53.6	-68.1	3.5	3.04e+01	0	46	104	350748672	60	96999
2026-01-28 12:17:06.87	324.27	10.62	-53.7	-68.2	3.5	3.04e+01	0	46	104	350748672	60	98294
2026-01-28 12:17:07.87	324.41	10.55	-54.0	-70.8	3.5	3.04e+01	0	46	104	350748672	60	131824
2026-01-28 12:17:08.88	324.55	10.48	-54.3	-72.3	3.5	3.04e+01	0	46	104	350748672	60	156421
2026-01-28 12:17:09.88	324.69	10.41	-54.5	-71.4	3.5	3.04e+01	0	46	104	350748672	60	140887
2026-01-28 12:17:10.88	324.83	10.34	-54.7	-73.5	3.5	3.04e+01	0	46	104	350748672	60	179327
2026-01-28 12:17:11.89	324.97	10.27	-54.5	-71.0	3.5	3.04e+01	0	46	104	350748672	60	135230
2026-01-28 12:17:12.89	325.11	10.20	-54.2	-70.1	3.5	3.04e+01	0	46	104	350748672	60	121477
2026-01-28 12:17:13.89	325.25	10.13	-53.8	-69.6	3.5	3.04e+01	0	46	104	350748672	60	115252
2026-01-28 12:17:14.90	325.38	10.06	-53.7	-69.7	3.5	3.04e+01	0	46	104	350748672	60	116280
2026-01-28 12:17:15.91	325.52	9.99	-54.4	-71.8	3.5	3.04e+01	0	46	104	350748672	60	148321
2026-01-28 12:17:16.92	325.66	9.92	-54.8	-73.0	3.5	3.04e+01	0	46	104	350748672	60	170027
2026-01-28 12:17:17.92	325.79	9.85	-54.2	-71.4	3.5	3.04e+01	0	46	104	350748672	60	141868
2026-01-28 12:17:18.93	325.92	9.78	-54.8	-74.3	3.5	3.04e+01	0	46	104	350748672	60	197208
2026-01-28 12:17:19.94	326.06	9.71	-54.0	-71.4	3.5	3.04e+01	0	46	104	350748672	60	141584
2026-01-28 12:17:20.94	326.19	9.64	-54.1	-72.4	3.5	3.04e+01	0	46	104	350748672	60	159090
2026-01-28 12:17:21.95	326.32	9.57	-54.3	-71.7	3.5	3.04e+01	0	47	104	350748672	60	146844
2026-01-28 12:17:22.95	326.45	9.50	-54.4	-71.9	3.5	3.04e+01	0	46	104	350748672	60	149239
2026-01-28 12:17:23.96	326.58	9.43	-54.6	-74.4	3.5	3.04e+01	0	46	104	350748672	60	199726
2026-01-28 12:17:24.96	326.71	9.36	-54.8	-73.8	3.5	3.04e+01	0	47	104	350748672	60	187301
2026-01-28 12:17:25.97	326.84	9.29	-54.5	-73.2	3.5	3.04e+01	0	46	104	350748672	60	172932
2026-01-28 12:17:26.97	326.97	9.22	-54.7	-74.5	3.5	3.04e+01	0	47	104	350748672	60	201045
2026-01-28 12:17:27.98	327.10	9.15	-54.6	-72.9	3.5	3.04e+01	0	47	104	350748672	60	168223
2026-01-28 12:17:28.99	327.23	9.08	-54.6	-73.1	3.5	3.04e+01	0	47	104	350748672	60	172336
2026-01-28 12:17:29.99	327.35	9.01	-54.6	-72.9	3.5	3.04e+01	0	46	104	350748672	60	167563
2026-01-28 12:17:31.00	327.48	8.94	-54.6	-73.0	3.5	3.04e+01	0	47	104	350748672	60	170044
2026-01-28 12:17:32.01	327.61	8.88	-54.7	-74.5	3.5	3.04e+01	0	46	104	350748672	60	202079
2026-01-28 12:17:33.02	327.73	8.81	-54.9	-74.4	3.5	3.04e+01	0	47	104	350748672	60	200160
2026-01-28 12:17:34.02	327.86	8.74	-54.6	-74.0	3.5	3.04e+01	0	47	104	350748672	60	189626
2026-01-28 12:17:35.03	327.98	8.67	-54.7	-74.8	3.5	3.04e+01	0	46	104	350748672	60	208692
2026-01-28 12:17:36.03	328.10	8.60	-54.8	-73.6	3.5	3.04e+01	0	46	104	350748672	60	181411
2026-01-28 12:17:37.04	328.23	8.53	-54.7	-73.7	3.5	3.04e+01	0	46	104	350748672	60	184843
2026-01-28 12:17:38.04	328.35	8.47	-54.5	-73.8	3.5	3.04e+01	0	46	104	350748672	60	186585
2026-01-28 12:17:39.05	328.47	8.40	-54.3	-73.9	3.5	3.04e+01	0	46	104	350748672	60	188858
2026-01-28 12:17:40.06	328.59	8.33	-54.5	-74.7	3.5	3.04e+01	0	47	104	350748672	60	206736
2026-01-28 12:17:41.06	328.71	8.26	-54.7	-74.8	3.5	3.04e+01	0	47	104	350748672	60	209001
2026-01-28 12:17:42.07	328.83	8.19	-54.7	-74.5	3.5	3.04e+01	0	46	104	350748672	60	202687
2026-01-28 12:17:43.07	328.95	8.13	-54.8	-74.8	3.5	3.04e+01	0	47	104	350748672	60	209613
2026-01-28 12:17:44.07	329.07	8.06	-54.8	-74.8	3.5	3.04e+01	0	46	104	350748672	60	207909
2026-01-28 12:17:45.08	329.18	7.99	-54.6	-74.8	3.5	3.04e+01	0	46	104	350748672	60	208470
2026-01-28 12:17:46.09	329.30	7.93	-55.0	-74.8	3.5	3.04e+01	0	46	104	350748672	60	208255
2026-01-28 12:17:47.10	329.42	7.86	-54.5	-74.9	3.5	3.04e+01	0	46	104	350748672	60	210771
2026-01-28 12:17:48.10	329.54	7.79	-55.0	-74.9	3.5	3.04e+01	0	46	104	350748672	60	211872
2026-01-28 12:17:49.11	329.65	7.72	-54.5	-74.7	3.5	3.04e+01	0	46	104	350748672	60	206008
2026-01-28 12:17:50.12	329.77	7.66	-54.9	-74.9	3.5	3.04e+01	0	46	104	350748672	60	211769
2026-01-28 12:17:51.12	329.88	7.59	-54.5	-74.9	3.5	3.04e+01	0	46	104	350748672	60	210376
2026-01-28 12:17:52.13	330.00	7.52	-54.9	-74.8	3.5	3.04e+01	0	46	104	350748672	60	209839
2026-01-28 12:17:53.13	330.11	7.46	-54.5	-74.6	3.5	3.04e+01	0	46	104	350748672	60	203750
2026-01-28 12:17:54.14	330.22	7.39	-54.9	-75.0	3.5	3.04e+01	0	46	104	350748672	60	213380
2026-01-28 12:17:55.15	330.33	7.32	-54.7	-74.7	3.5	3.04e+01	0	46	104	350748672	60	207592
2026-01-28 12:17:56.16	330.45	7.26	-54.7	-74.9	3.5	3.04e+01	0	46	104	350748672	60	210940
2026-01-28 12:17:57.16	330.56	7.19	-54.5	-74.5	3.5	3.04e+01	0	46	104	350748672	60	202591
2026-01-28 12:17:58.17	330.67	7.13	-54.7	-75.0	3.5	3.04e+01	0	46	104	350748672	60	214387
2026-01-28 12:17:59.17	330.78	7.06	-54.7	-74.7	3.5	3.04e+01	0	46	104	350748672	60	206927
2026-01-28 12:18:00.18	330.89	7.00	-54.5	-74.8	3.5	3.04e+01	0	46	104	350748672	60	208527
2026-01-28 12:18:01.19	331.00	6.93	-54.3	-74.4	3.5	3.04e+01	0	46	104	350748672	60	199712
2026-01-28 12:18:02.20	331.11	6.86	-54.6	-75.0	3.5	3.04e+01	0	46	104	350748672	60	213056
2026-01-28 12:18:03.20	331.22	6.80	-54.3	-74.3	3.5	3.04e+01	0	47	104	350748672	60	197705
2026-01-28 12:18:04.21	331.32	6.73	-54.6	-74.6	3.5	3.04e+01	0	46	104	350748672	60	204355
2026-01-28 12:18:05.22	331.43	6.67	-54.4	-74.4	3.5	3.04e+01	0	46	104	350748672	60	198773
2026-01-28 12:18:06.22	331.54	6.60	-54.4	-74.4	3.5	3.04e+01	0	47	104	350748672	60	199973
2026-01-28 12:18:07.23	331.64	6.54	-54.3	-74.4	3.5	3.04e+01	0	47	104	350748672	60	199279
2026-01-28 12:18:08.24	331.75	6.47	-54.1	-74.2	3.5	3.04e+01	0	46	104	350748672	60	195192
2026-01-28 12:18:09.25	331.86	6.41	-54.5	-74.9	3.5	3.04e+01	0	47	104	350748672	60	212597
2026-01-28 12:18:10.25	331.96	6.34	-54.1	-74.1	3.5	3.04e+01	0	46	104	350748672	60	193515
2026-01-28 12:18:11.25	332.06	6.28	-53.8	-73.9	3.5	3.04e+01	0	47	104	350748672	60	189419
2026-01-28 12:18:12.25	332.17	6.21	-54.1	-74.2	3.5	3.04e+01	0	46	104	350748672	60	195156
2026-01-28 12:18:13.26	332.27	6.15	-54.1	-74.1	3.5	3.04e+01	0	46	104	350748672	60	193681
2026-01-28 12:18:14.26	332.37	6.09	-54.0	-74.0	3.5	3.04e+01	0	47	104	350748672	60	190313
2026-01-28 12:18:15.27	332.48	6.02	-53.9	-74.1	3.6	3.04e+01	0	46	104	350748672	60	192220
2026-01-28 12:18:16.27	332.58	5.96	-54.0	-74.9	3.5	3.04e+01	0	46	104	350748672	60	212045
2026-01-28 12:18:17.28	332.68	5.89	-54.3	-74.8	3.5	3.04e+01	0	47	104	350748672	60	210247
2026-01-28 12:18:18.29	332.78	5.83	-56.2	-76.3	3.5	3.04e+01	0	46	104	350748672	60	248304
2026-01-28 12:18:19.29	332.88	5.77	-56.1	-76.7	3.5	3.04e+01	0	47	104	350748672	60	261277
2026-01-28 12:18:20.30	332.98	5.70	-55.5	-75.9	3.5	3.04e+01	0	47	104	350748672	60	236763
2026-01-28 12:18:21.31	333.08	5.64	-55.8	-76.5	3.5	3.04e+01	0	47	104	350748672	60	253174
2026-01-28 12:18:22.31	333.18	5.58	-55.7	-76.9	3.5	3.04e+01	0	47	104	350748672	60	266006
2026-01-28 12:18:23.31	333.28	5.51	-57.1	-77.2	3.5	3.04e+01	0	46	104	350748672	60	276077
2026-01-28 12:18:24.32	333.38	5.45	-56.6	-77.4	3.5	3.04e+01	0	46	104	350748672	60	283330
2026-01-28 12:18:25.33	333.48	5.39	-57.4	-77.3	3.5	3.04e+01	0	46	104	350748672	60	278966
2026-01-28 12:18:26.33	333.57	5.32	-57.1	-77.3	3.5	3.04e+01	0	46	104	350748672	60	277374
2026-01-28 12:18:27.34	333.67	5.26	-56.7	-77.2	3.5	3.04e+01	0	46	104	350748672	60	275941
2026-01-28 12:18:28.34	333.77	5.20	-56.4	-77.5	3.5	3.04e+01	0	46	104	350748672	60	284365
2026-01-28 12:18:29.35	333.86	5.14	-56.7	-77.6	3.5	3.04e+01	0	46	104	350748672	60	288245
2026-01-28 12:18:30.35	333.96	5.07	-56.7	-77.5	3.5	3.04e+01	0	46	104	350748672	60	285266
2026-01-28 12:18:31.36	334.05	5.01	-57.6	-77.9	3.5	3.04e+01	0	47	104	350748672	60	297289
2026-01-28 12:18:32.36	334.15	4.95	-56.2	-77.9	3.5	3.04e+01	0	46	104	350748672	60	300124
2026-01-28 12:18:33.37	334.24	4.89	-55.6	-78.0	3.5	3.04e+01	0	46	104	350748672	60	300800
2026-01-28 12:18:34.37	334.34	4.82	-56.5	-77.9	3.5	3.04e+01	0	47	104	350748672	60	297648
2026-01-28 12:18:35.38	334.43	4.76	-56.5	-78.0	3.5	3.04e+01	0	47	104	350748672	60	301611
2026-01-28 12:18:36.38	334.52	4.70	-56.5	-77.9	3.5	3.04e+01	0	47	104	350748672	60	297344
