passes_logs/2026/01/28/R3.2S-Naryan-Mar/R3.2S-Naryan-Mar__20260128_224803_NOAA_20_JPSS-1_rec.log

#Pass ID: 20260128_224803_NOAA 20 (JPSS-1)
#Satellite: NOAA 20 (JPSS-1)
#Configuration: NOAA 20
#almurnet v.1.7.20240730
#Start time: 2026-01-28 22:48:05

#Version: 2.2.20231116
#Station: R3.2S-Naryan-Mar
#Location: 53.008057 lon 67.646978 lat
#TLE: 1 43013U 17073A   26027.80586608  .00000156  00000+0  94940-4 0  9998
#TLE: 2 43013  98.7647 328.6108 0000947  21.3465 338.7750 14.19541216424550

#Time	Az	El	Level	Level2	SNR	BER	BlckErr	Temp	State	Recorded	gain1	gain2
2026-01-28 22:48:05.94	21.49	0.13	-61.9	-77.0	3.3	1.54e+00	0	45	0	0	60	276265
2026-01-28 22:48:06.94	21.50	0.19	-61.8	-78.5	3.6	1.51e+00	0	45	104	0	60	328936
2026-01-28 22:48:07.94	21.52	0.25	-61.9	-78.4	3.6	1.51e+00	0	45	104	0	60	325484
2026-01-28 22:48:08.93	21.53	0.31	-62.2	-78.4	3.6	1.51e+00	0	45	104	0	60	326907
2026-01-28 22:48:09.94	21.55	0.37	-62.0	-78.5	3.6	1.51e+00	0	45	104	0	60	329402
2026-01-28 22:48:10.94	21.56	0.43	-62.0	-78.4	3.6	1.51e+00	0	45	104	0	60	326719
2026-01-28 22:48:11.95	21.58	0.49	-62.0	-78.3	3.6	1.51e+00	0	45	104	0	60	323566
2026-01-28 22:48:12.95	21.59	0.55	-61.6	-78.2	3.6	1.51e+00	0	45	104	0	60	316718
2026-01-28 22:48:13.96	21.61	0.61	-61.8	-78.1	3.6	1.51e+00	0	45	104	0	60	315009
2026-01-28 22:48:14.96	21.63	0.67	-61.5	-77.9	3.6	1.51e+00	0	45	104	0	60	307996
2026-01-28 22:48:15.97	21.64	0.73	-61.0	-77.6	3.5	1.51e+00	0	45	104	0	60	298088
2026-01-28 22:48:16.98	21.66	0.80	-58.7	-77.0	3.5	1.51e+00	0	45	104	0	60	276553
2026-01-28 22:48:17.98	21.67	0.86	-54.1	-74.3	3.6	1.51e+00	0	45	104	0	60	203177
2026-01-28 22:48:18.99	21.69	0.92	-60.3	-76.9	3.6	1.51e+00	0	45	104	0	60	273443
2026-01-28 22:48:20.00	21.71	0.98	-59.4	-76.6	3.6	1.51e+00	0	45	104	0	60	264436
2026-01-28 22:48:21.00	21.72	1.04	-57.9	-76.1	3.6	1.51e+00	0	45	104	0	60	251389
2026-01-28 22:48:22.01	21.74	1.10	-57.8	-76.2	3.6	1.51e+00	0	45	104	0	60	253939
2026-01-28 22:48:23.02	21.75	1.16	-57.7	-76.1	3.6	1.51e+00	0	45	104	0	60	251270
2026-01-28 22:48:24.03	21.77	1.23	-57.7	-76.1	3.6	1.51e+00	0	45	104	0	60	250616
2026-01-28 22:48:25.03	21.79	1.29	-57.7	-76.1	3.6	1.51e+00	0	45	104	0	60	248721
2026-01-28 22:48:26.04	21.80	1.35	-57.6	-75.9	3.6	1.51e+00	0	46	104	0	60	245098
2026-01-28 22:48:27.04	21.82	1.41	-57.7	-76.3	3.6	1.51e+00	0	45	104	0	60	255023
2026-01-28 22:48:28.05	21.84	1.48	-57.7	-76.2	3.6	1.51e+00	0	46	104	0	60	251586
2026-01-28 22:48:29.05	21.85	1.54	-57.6	-76.0	3.6	1.51e+00	0	45	104	0	60	246278
2026-01-28 22:48:30.06	21.87	1.60	-57.6	-75.9	3.6	1.51e+00	0	45	104	0	60	244247
2026-01-28 22:48:31.07	21.88	1.66	-57.6	-76.0	3.6	1.51e+00	0	45	104	0	60	247146
2026-01-28 22:48:32.08	21.90	1.73	-57.7	-76.3	3.6	1.51e+00	0	45	104	0	60	255088
2026-01-28 22:48:33.08	21.92	1.79	-57.7	-76.2	3.6	1.51e+00	0	45	104	0	60	252625
2026-01-28 22:48:34.09	21.93	1.85	-57.7	-76.1	3.6	1.51e+00	0	45	104	0	60	249904
2026-01-28 22:48:35.09	21.95	1.92	-57.7	-76.0	3.6	1.51e+00	0	45	104	0	60	247127
2026-01-28 22:48:36.10	21.97	1.98	-57.7	-76.1	3.5	1.51e+00	0	46	104	0	60	248890
2026-01-28 22:48:37.11	21.99	2.04	-57.7	-76.1	3.6	1.51e+00	0	45	104	0	60	248786
2026-01-28 22:48:38.12	22.00	2.11	-57.7	-75.9	3.6	1.51e+00	0	45	104	0	60	245707
2026-01-28 22:48:39.13	22.02	2.17	-57.7	-75.9	3.6	1.51e+00	0	46	104	0	60	244198
2026-01-28 22:48:40.14	22.04	2.24	-57.7	-75.8	3.6	1.51e+00	0	46	104	0	60	242917
2026-01-28 22:48:41.14	22.05	2.30	-57.6	-75.9	3.6	1.51e+00	0	46	104	0	60	244989
2026-01-28 22:48:42.15	22.07	2.37	-57.6	-76.0	3.6	1.51e+00	0	46	104	0	60	246556
2026-01-28 22:48:43.16	22.09	2.43	-57.6	-76.0	3.6	1.51e+00	0	45	104	0	60	246126
2026-01-28 22:48:44.17	22.11	2.50	-57.6	-76.1	3.6	1.51e+00	0	45	104	0	60	249429
2026-01-28 22:48:45.18	22.12	2.56	-57.7	-76.1	3.6	1.51e+00	0	46	104	0	60	250201
2026-01-28 22:48:46.18	22.14	2.63	-57.6	-75.8	3.6	1.51e+00	0	46	104	0	60	241264
2026-01-28 22:48:47.19	22.16	2.69	-57.7	-75.9	3.6	1.51e+00	0	46	104	0	60	243752
2026-01-28 22:48:48.20	22.17	2.76	-57.7	-76.2	3.6	1.51e+00	0	46	104	0	60	253166
2026-01-28 22:48:49.21	22.19	2.82	-57.6	-76.2	3.6	1.51e+00	0	46	104	0	60	252343
2026-01-28 22:48:50.22	22.21	2.89	-57.6	-75.8	3.6	1.51e+00	0	46	104	0	60	242181
2026-01-28 22:48:51.22	22.23	2.95	-57.7	-75.9	3.6	1.51e+00	0	46	104	0	60	244676
2026-01-28 22:48:52.22	22.24	3.02	-57.6	-75.9	3.6	1.51e+00	0	46	104	0	60	245564
2026-01-28 22:48:53.23	22.26	3.09	-57.6	-76.1	3.6	1.51e+00	0	45	104	0	60	248867
2026-01-28 22:48:54.24	22.28	3.15	-57.6	-76.1	3.6	1.51e+00	0	46	104	0	60	248808
2026-01-28 22:48:55.25	22.30	3.22	-57.7	-75.9	3.6	1.51e+00	0	45	104	0	60	245158
2026-01-28 22:48:56.26	22.32	3.29	-57.7	-75.9	3.6	1.51e+00	0	45	104	0	60	244781
2026-01-28 22:48:57.26	22.33	3.35	-57.7	-76.0	3.6	1.51e+00	0	46	104	0	60	246255
2026-01-28 22:48:58.26	22.35	3.42	-57.7	-75.9	3.6	1.51e+00	0	46	104	0	60	243625
2026-01-28 22:48:59.27	22.37	3.49	-57.7	-76.0	3.6	1.51e+00	0	46	104	0	60	246665
2026-01-28 22:49:00.28	22.39	3.55	-57.8	-75.9	3.6	1.51e+00	0	46	104	0	60	244797
2026-01-28 22:49:01.29	22.41	3.62	-57.7	-76.0	3.6	1.51e+00	0	46	104	0	60	248303
2026-01-28 22:49:02.30	22.43	3.69	-57.7	-75.9	3.6	1.51e+00	0	46	104	0	60	245724
2026-01-28 22:49:03.30	22.44	3.76	-57.8	-75.9	3.6	1.51e+00	0	46	104	0	60	244533
2026-01-28 22:49:04.31	22.46	3.82	-57.7	-75.9	3.6	1.51e+00	0	46	104	0	60	245728
2026-01-28 22:49:05.32	22.48	3.89	-57.8	-76.0	3.6	1.51e+00	0	46	104	0	60	246754
2026-01-28 22:49:06.33	22.50	3.96	-57.8	-75.9	3.6	1.51e+00	0	46	104	0	60	243748
2026-01-28 22:49:07.34	22.52	4.03	-57.7	-76.0	3.5	1.51e+00	0	46	104	0	60	246012
2026-01-28 22:49:08.34	22.54	4.10	-57.7	-75.9	3.6	1.51e+00	0	46	104	0	60	243045
2026-01-28 22:49:09.35	22.56	4.17	-57.7	-75.8	3.6	1.51e+00	0	46	104	0	60	242626
2026-01-28 22:49:10.36	22.57	4.24	-57.7	-76.0	3.6	1.51e+00	0	46	104	0	60	248002
2026-01-28 22:49:11.37	22.59	4.30	-57.8	-76.0	3.6	1.51e+00	0	46	104	0	60	247955
2026-01-28 22:49:12.37	22.61	4.37	-57.9	-76.0	3.6	1.51e+00	0	46	104	0	60	248609
2026-01-28 22:49:13.38	22.63	4.44	-57.9	-75.9	3.6	1.51e+00	0	46	104	0	60	244629
2026-01-28 22:49:14.38	22.65	4.51	-57.9	-75.9	3.6	1.51e+00	0	46	104	0	60	243157
2026-01-28 22:49:15.39	22.67	4.58	-57.9	-76.1	3.6	1.51e+00	0	46	104	0	60	248935
2026-01-28 22:49:16.39	22.69	4.65	-57.9	-76.1	3.6	1.51e+00	0	46	104	0	60	248893
2026-01-28 22:49:17.40	22.71	4.72	-57.8	-76.0	3.6	1.51e+00	0	46	104	0	60	247359
2026-01-28 22:49:18.41	22.73	4.79	-57.9	-76.1	3.6	1.51e+00	0	46	104	0	60	249817
2026-01-28 22:49:19.41	22.75	4.86	-57.9	-76.1	3.6	1.51e+00	0	46	104	0	60	250083
2026-01-28 22:49:20.41	22.77	4.93	-57.9	-75.9	3.5	1.51e+00	0	46	104	0	60	245536
2026-01-28 22:49:21.42	22.79	5.00	-57.9	-76.1	3.6	1.51e+00	0	46	104	0	60	251457
2026-01-28 22:49:22.43	22.81	5.08	-57.9	-76.0	3.6	1.51e+00	0	46	104	0	60	246602
2026-01-28 22:49:23.44	22.83	5.15	-57.9	-76.2	3.6	1.51e+00	0	46	104	0	60	251546
2026-01-28 22:49:24.45	22.85	5.22	-57.9	-75.9	3.6	1.51e+00	0	46	104	0	60	244844
2026-01-28 22:49:25.45	22.86	5.29	-57.9	-75.9	3.6	1.51e+00	0	46	104	0	60	245274
2026-01-28 22:49:26.46	22.88	5.36	-58.0	-76.1	3.6	1.51e+00	0	46	104	0	60	249332
2026-01-28 22:49:27.47	22.90	5.43	-58.0	-76.1	3.6	1.51e+00	0	46	104	0	60	249753
2026-01-28 22:49:28.48	22.93	5.51	-58.0	-76.0	3.6	1.51e+00	0	46	104	0	60	247519
2026-01-28 22:49:29.48	22.95	5.58	-58.0	-76.0	3.6	1.51e+00	0	46	104	0	60	246091
2026-01-28 22:49:30.49	22.97	5.65	-58.0	-76.1	3.6	1.51e+00	0	46	104	0	60	248826
2026-01-28 22:49:31.49	22.99	5.72	-58.0	-75.9	3.6	1.51e+00	0	46	104	0	60	244542
2026-01-28 22:49:32.50	23.01	5.80	-58.0	-75.9	3.6	1.51e+00	0	46	104	0	60	245166
2026-01-28 22:49:33.50	23.03	5.87	-58.1	-76.1	3.6	1.51e+00	0	46	104	0	60	249023
2026-01-28 22:49:34.51	23.05	5.94	-58.1	-75.9	3.6	1.51e+00	0	46	104	0	60	244703
2026-01-28 22:49:35.52	23.07	6.02	-58.1	-75.8	3.6	1.51e+00	0	46	104	0	60	240590
2026-01-28 22:49:36.53	23.09	6.09	-56.8	-75.4	3.6	1.51e+00	0	46	104	0	60	230489
2026-01-28 22:49:37.54	23.11	6.17	-60.4	-76.7	3.6	1.51e+00	0	46	104	0	60	269074
2026-01-28 22:49:38.54	23.13	6.24	-58.4	-76.0	3.6	1.51e+00	0	46	104	0	60	248578
2026-01-28 22:49:39.55	23.15	6.31	-56.6	-75.0	3.6	1.51e+00	0	46	104	0	60	221251
2026-01-28 22:49:40.56	23.17	6.39	-58.6	-75.8	3.6	1.51e+00	0	46	104	0	60	242717
2026-01-28 22:49:41.57	23.19	6.46	-58.1	-76.5	3.6	1.51e+00	0	46	104	0	60	261448
2026-01-28 22:49:42.58	23.22	6.54	-58.7	-76.2	3.6	1.51e+00	0	46	104	0	60	254194
2026-01-28 22:49:43.58	23.24	6.62	-58.7	-76.1	3.6	1.51e+00	0	46	104	0	60	251350
2026-01-28 22:49:44.59	23.26	6.69	-57.4	-75.5	3.6	1.51e+00	0	46	104	0	60	234324
2026-01-28 22:49:45.60	23.28	6.77	-59.6	-76.6	3.6	1.51e+00	0	46	104	0	60	263944
2026-01-28 22:49:46.61	23.30	6.84	-58.9	-76.4	3.6	1.51e+00	0	46	104	0	60	259805
2026-01-28 22:49:47.62	23.32	6.92	-59.3	-76.3	3.6	1.51e+00	0	46	104	0	60	257206
2026-01-28 22:49:48.62	23.34	7.00	-58.7	-76.2	3.6	1.51e+00	0	46	104	0	60	252420
2026-01-28 22:49:49.62	23.37	7.07	-55.9	-74.7	3.6	1.51e+00	0	46	104	0	60	213864
2026-01-28 22:49:50.63	23.39	7.15	-56.3	-74.9	3.6	1.51e+00	0	46	104	0	60	218069
2026-01-28 22:49:51.63	23.41	7.23	-56.4	-74.9	3.6	1.51e+00	0	46	104	0	60	218960
2026-01-28 22:49:52.63	23.43	7.30	-56.4	-75.3	3.6	1.51e+00	0	46	104	0	60	227410
2026-01-28 22:49:53.64	23.45	7.38	-59.6	-76.2	3.6	1.51e+00	0	46	104	0	60	253014
2026-01-28 22:49:54.64	23.48	7.46	-60.0	-76.6	3.6	1.51e+00	0	46	104	0	60	265086
2026-01-28 22:49:55.65	23.50	7.54	-59.1	-76.7	3.6	1.51e+00	0	46	104	0	60	268921
2026-01-28 22:49:56.66	23.52	7.61	-58.1	-76.3	3.6	1.51e+00	0	46	104	0	60	256038
2026-01-28 22:49:57.67	23.54	7.69	-58.5	-75.7	3.6	1.51e+00	0	46	104	0	60	239942
2026-01-28 22:49:58.68	23.57	7.77	-58.4	-75.4	3.6	1.51e+00	0	46	104	0	60	231048
2026-01-28 22:49:59.69	23.59	7.85	-58.6	-75.6	3.6	1.51e+00	0	46	104	0	60	234742
2026-01-28 22:50:00.70	23.61	7.93	-59.0	-76.1	3.6	1.51e+00	0	46	104	0	60	250932
2026-01-28 22:50:01.70	23.64	8.01	-58.3	-76.6	3.6	1.51e+00	0	46	104	0	60	264822
2026-01-28 22:50:02.71	23.66	8.09	-58.3	-76.5	3.6	1.51e+00	0	46	104	0	60	262796
2026-01-28 22:50:03.72	23.68	8.17	-59.2	-76.7	3.6	1.51e+00	0	46	104	0	60	267061
2026-01-28 22:50:04.72	23.71	8.25	-60.2	-76.9	3.6	1.51e+00	0	46	104	0	60	273384
2026-01-28 22:50:05.73	23.73	8.33	-58.3	-75.6	3.6	1.51e+00	0	46	104	0	60	235010
2026-01-28 22:50:06.73	23.75	8.41	-59.3	-76.1	3.6	1.51e+00	0	46	104	0	60	249860
2026-01-28 22:50:07.73	23.78	8.49	-58.2	-75.7	3.6	1.51e+00	0	46	104	0	60	239786
2026-01-28 22:50:08.74	23.80	8.57	-60.2	-76.3	3.6	1.51e+00	0	46	104	0	60	256635
2026-01-28 22:50:09.75	23.82	8.66	-60.2	-76.3	3.6	1.43e+00	0	46	104	0	60	255785
2026-01-28 22:50:10.76	23.85	8.74	-57.7	-76.0	3.6	1.51e+00	0	46	104	0	60	248546
2026-01-28 22:50:11.76	23.87	8.82	-60.3	-76.2	3.6	1.51e+00	0	46	104	0	60	254157
2026-01-28 22:50:12.77	23.90	8.90	-60.2	-76.6	3.6	1.51e+00	0	46	104	0	60	265215
2026-01-28 22:50:13.78	23.92	8.98	-59.9	-76.9	3.6	1.51e+00	0	46	104	0	60	275584
2026-01-28 22:50:14.78	23.94	9.07	-60.2	-76.4	3.6	1.51e+00	0	46	104	0	60	258110
2026-01-28 22:50:15.78	23.97	9.15	-60.2	-76.4	3.6	1.51e+00	0	46	104	0	60	258780
2026-01-28 22:50:16.79	23.99	9.23	-59.4	-76.4	3.6	1.51e+00	0	46	104	0	60	257602
2026-01-28 22:50:17.80	24.02	9.32	-59.9	-76.2	3.6	1.51e+00	0	46	104	0	60	252716
2026-01-28 22:50:18.81	24.04	9.40	-59.8	-76.2	3.6	1.51e+00	0	46	104	0	60	253374
2026-01-28 22:50:19.81	24.07	9.49	-59.8	-76.2	3.6	1.51e+00	0	46	104	0	60	253017
2026-01-28 22:50:20.82	24.09	9.57	-58.9	-76.7	3.6	1.51e+00	0	46	104	0	60	268716
2026-01-28 22:50:21.82	24.12	9.65	-59.8	-76.4	3.6	1.51e+00	0	46	104	0	60	260107
2026-01-28 22:50:22.83	24.14	9.74	-59.6	-76.6	3.6	1.51e+00	0	46	104	0	60	265413
2026-01-28 22:50:23.83	24.17	9.82	-59.7	-76.7	3.6	1.51e+00	0	46	104	0	60	269424
2026-01-28 22:50:24.84	24.19	9.91	-60.1	-76.4	3.6	1.51e+00	0	46	104	0	60	258078
2026-01-28 22:50:25.84	24.22	10.00	-60.0	-76.0	3.6	1.51e+00	0	46	104	0	60	248178
2026-01-28 22:50:26.85	24.25	10.08	-60.1	-76.3	3.6	1.51e+00	0	46	104	0	60	255644
2026-01-28 22:50:27.85	24.27	10.17	-60.0	-76.3	3.6	1.51e+00	0	46	104	0	60	254852
2026-01-28 22:50:28.86	24.30	10.26	-60.2	-75.8	3.6	1.51e+00	0	46	104	0	60	240404
2026-01-28 22:50:29.87	24.32	10.34	-60.2	-76.3	3.6	1.51e+00	0	46	104	0	60	255538
2026-01-28 22:50:30.88	24.35	10.43	-60.0	-76.4	3.6	1.51e+00	0	46	104	0	60	257404
2026-01-28 22:50:31.89	24.38	10.52	-60.0	-76.2	3.6	1.51e+00	0	46	104	0	60	254205
2026-01-28 22:50:32.89	24.40	10.61	-59.4	-76.4	3.6	1.51e+00	0	46	104	0	60	259498
2026-01-28 22:50:33.90	24.43	10.70	-60.2	-76.9	3.6	1.51e+00	0	46	104	0	60	274907
2026-01-28 22:50:34.91	24.46	10.79	-59.8	-76.2	3.6	1.51e+00	0	46	104	0	60	254161
2026-01-28 22:50:35.92	24.48	10.87	-60.3	-76.3	3.6	1.51e+00	0	46	104	0	60	256383
2026-01-28 22:50:36.92	24.51	10.96	-60.4	-76.0	3.6	1.51e+00	0	46	104	0	60	247945
2026-01-28 22:50:37.93	24.54	11.05	-60.2	-76.1	3.6	1.51e+00	0	46	104	0	60	249041
2026-01-28 22:50:38.94	24.57	11.14	-60.1	-76.0	3.6	1.51e+00	0	46	104	0	60	247089
2026-01-28 22:50:39.94	24.59	11.23	-59.8	-76.1	3.6	1.51e+00	0	46	104	0	60	250219
2026-01-28 22:50:40.95	24.62	11.32	-58.0	-76.7	3.6	1.51e+00	0	46	104	0	60	268982
2026-01-28 22:50:41.96	24.65	11.42	-59.6	-76.3	3.6	1.51e+00	0	46	104	0	60	257325
2026-01-28 22:50:42.97	24.68	11.51	-60.3	-76.8	3.6	1.51e+00	0	46	104	0	60	270967
2026-01-28 22:50:43.98	24.71	11.60	-60.2	-76.9	3.6	1.51e+00	0	46	104	0	60	275546
2026-01-28 22:50:44.98	24.73	11.69	-60.1	-76.0	3.6	1.51e+00	0	46	104	0	60	248137
2026-01-28 22:50:45.99	24.76	11.78	-59.8	-76.5	3.6	1.51e+00	0	46	104	0	60	260932
2026-01-28 22:50:47.00	24.79	11.88	-59.8	-76.4	3.6	1.51e+00	0	46	104	0	60	258818
2026-01-28 22:50:48.01	24.82	11.97	-60.0	-76.5	3.6	1.51e+00	0	46	104	0	60	261787
2026-01-28 22:50:49.02	24.85	12.06	-60.5	-76.8	3.6	1.51e+00	0	46	104	0	60	272079
2026-01-28 22:50:50.02	24.88	12.16	-60.5	-76.9	3.6	1.51e+00	0	46	104	0	60	274430
2026-01-28 22:50:51.03	24.91	12.25	-60.1	-76.9	3.6	1.51e+00	0	46	104	0	60	272898
2026-01-28 22:50:52.03	24.94	12.35	-60.5	-77.0	3.6	1.51e+00	0	46	104	0	60	277200
2026-01-28 22:50:53.04	24.97	12.44	-60.2	-76.1	3.6	1.51e+00	0	46	104	0	60	251005
2026-01-28 22:50:54.04	25.00	12.54	-60.2	-76.5	3.6	1.51e+00	0	46	104	0	60	260798
2026-01-28 22:50:55.05	25.03	12.63	-60.2	-76.5	3.6	1.51e+00	0	46	104	0	60	261586
2026-01-28 22:50:56.05	25.06	12.73	-60.2	-76.7	3.6	1.51e+00	0	46	104	0	60	267046
2026-01-28 22:50:57.05	25.09	12.82	-60.0	-76.8	3.6	1.51e+00	0	46	104	0	60	271341
2026-01-28 22:50:58.05	25.12	12.92	-59.9	-77.0	3.6	1.51e+00	0	46	104	0	60	276597
2026-01-28 22:50:59.05	25.15	13.02	-60.3	-76.1	3.6	1.51e+00	0	46	104	0	60	250010
2026-01-28 22:51:00.06	25.18	13.11	-60.2	-76.5	3.6	1.51e+00	0	46	104	0	60	262640
2026-01-28 22:51:01.06	25.21	13.21	-60.5	-76.2	3.6	1.51e+00	0	46	104	0	60	253390
2026-01-28 22:51:02.06	25.24	13.31	-60.5	-76.2	3.6	1.51e+00	0	46	104	0	60	251852
2026-01-28 22:51:03.07	25.27	13.41	-60.5	-76.3	3.6	1.51e+00	0	46	104	0	60	256416
2026-01-28 22:51:04.08	25.30	13.51	-60.5	-76.3	3.6	1.51e+00	0	46	104	0	60	256727
2026-01-28 22:51:05.09	25.33	13.61	-56.8	-76.2	3.6	1.51e+00	0	46	104	0	60	253266
2026-01-28 22:51:06.10	25.36	13.71	-60.0	-77.1	3.6	1.51e+00	0	46	104	0	60	279945
2026-01-28 22:51:07.10	25.40	13.81	-60.3	-76.1	3.6	1.51e+00	0	46	104	0	60	248763
2026-01-28 22:51:08.11	25.43	13.91	-60.2	-76.4	3.6	1.51e+00	0	46	104	0	60	259795
2026-01-28 22:51:09.11	25.46	14.01	-60.3	-76.4	3.6	1.51e+00	0	46	104	0	60	258106
2026-01-28 22:51:10.12	25.49	14.11	-60.3	-76.5	3.6	1.51e+00	0	46	104	0	60	260646
2026-01-28 22:51:11.12	25.53	14.21	-60.5	-76.6	3.6	1.51e+00	0	46	104	0	60	264695
2026-01-28 22:51:12.12	25.56	14.31	-60.6	-76.6	3.6	1.51e+00	0	46	104	0	60	263985
2026-01-28 22:51:13.12	25.59	14.41	-59.7	-76.6	3.6	1.51e+00	0	46	104	0	60	265050
2026-01-28 22:51:14.13	25.62	14.52	-60.5	-76.8	3.6	1.51e+00	0	46	104	0	60	272455
2026-01-28 22:51:15.13	25.66	14.62	-60.5	-77.0	3.6	1.51e+00	0	46	104	0	60	277072
2026-01-28 22:51:16.14	25.69	14.73	-60.0	-77.0	3.6	1.51e+00	0	46	104	0	60	278655
2026-01-28 22:51:17.14	25.72	14.83	-60.6	-76.1	3.6	1.51e+00	0	46	104	0	60	250032
2026-01-28 22:51:18.15	25.76	14.93	-59.8	-76.7	3.6	1.51e+00	0	46	104	0	60	266900
2026-01-28 22:51:19.16	25.79	15.04	-60.3	-76.3	3.6	1.51e+00	0	46	104	0	60	257094
2026-01-28 22:51:20.17	25.83	15.15	-60.4	-76.5	3.5	1.51e+00	0	46	104	0	60	262307
2026-01-28 22:51:21.17	25.86	15.25	-59.9	-76.9	3.6	1.51e+00	0	46	104	0	60	273478
2026-01-28 22:51:22.18	25.90	15.36	-60.5	-77.1	3.6	1.51e+00	0	46	104	0	60	279005
2026-01-28 22:51:23.19	25.93	15.47	-60.1	-76.2	3.6	1.51e+00	0	46	104	0	60	252242
2026-01-28 22:51:24.20	25.97	15.58	-60.7	-76.6	3.6	1.51e+00	0	46	104	0	60	265184
2026-01-28 22:51:25.21	26.00	15.68	-60.6	-76.4	3.6	1.51e+00	0	46	104	0	60	259391
2026-01-28 22:51:26.21	26.04	15.79	-60.2	-76.8	3.6	1.51e+00	0	46	104	0	60	271195
2026-01-28 22:51:27.22	26.08	15.90	-60.2	-76.6	3.6	1.51e+00	0	46	104	0	60	263835
2026-01-28 22:51:28.23	26.11	16.01	-60.2	-76.4	3.6	1.51e+00	0	46	104	0	60	260286
2026-01-28 22:51:29.23	26.15	16.12	-60.8	-77.1	3.6	1.51e+00	0	46	104	0	60	281664
2026-01-28 22:51:30.24	26.19	16.23	-60.6	-77.0	3.6	1.51e+00	0	46	104	0	60	278826
2026-01-28 22:51:31.24	26.22	16.34	-60.3	-76.3	3.6	1.51e+00	0	46	104	0	60	255425
2026-01-28 22:51:32.25	26.26	16.45	-60.7	-76.6	3.6	1.51e+00	0	46	104	0	60	263849
2026-01-28 22:51:33.26	26.30	16.57	-60.7	-76.4	3.5	1.51e+00	0	46	104	0	60	259784
2026-01-28 22:51:34.26	26.33	16.68	-60.3	-76.9	3.5	1.51e+00	0	46	104	0	60	274161
2026-01-28 22:51:35.26	26.37	16.79	-60.5	-76.7	3.6	1.51e+00	0	46	104	0	60	267502
2026-01-28 22:51:36.27	26.41	16.90	-60.5	-76.6	3.6	1.51e+00	0	46	104	0	60	266213
2026-01-28 22:51:37.27	26.45	17.02	-60.1	-76.4	3.6	1.51e+00	0	46	104	0	60	258522
2026-01-28 22:51:38.28	26.49	17.13	-60.1	-76.9	3.6	1.51e+00	0	46	104	0	60	274518
2026-01-28 22:51:39.29	26.53	17.25	-60.7	-76.6	3.6	1.51e+00	0	46	104	0	60	265299
2026-01-28 22:51:40.30	26.57	17.37	-60.1	-76.5	3.6	1.51e+00	0	46	104	0	60	261533
2026-01-28 22:51:41.31	26.61	17.48	-60.2	-76.7	3.6	1.51e+00	0	46	104	0	60	266594
2026-01-28 22:51:42.32	26.65	17.60	-60.7	-76.5	3.5	1.51e+00	0	46	104	0	60	262191
2026-01-28 22:51:43.32	26.69	17.72	-60.6	-76.4	3.6	1.51e+00	0	46	104	0	60	258816
2026-01-28 22:51:44.33	26.73	17.83	-60.3	-76.3	3.6	1.51e+00	0	46	104	0	60	257339
2026-01-28 22:51:45.34	26.77	17.95	-60.3	-76.9	3.6	1.51e+00	0	46	104	0	60	274627
2026-01-28 22:51:46.34	26.81	18.07	-60.6	-77.0	3.6	1.51e+00	0	46	104	0	60	277490
2026-01-28 22:51:47.35	26.85	18.19	-59.9	-76.1	3.6	1.51e+00	0	46	104	0	60	251105
2026-01-28 22:51:48.36	26.89	18.31	-60.8	-76.6	3.6	1.51e+00	0	46	104	0	60	264792
2026-01-28 22:51:49.36	26.93	18.43	-59.1	-75.9	3.6	1.51e+00	0	46	104	0	60	245001
2026-01-28 22:51:50.37	26.98	18.55	-60.0	-76.3	3.6	1.51e+00	0	46	104	0	60	256078
2026-01-28 22:51:51.37	27.02	18.67	-60.0	-76.5	3.6	1.51e+00	0	46	104	0	60	261044
2026-01-28 22:51:52.38	27.06	18.80	-59.9	-76.4	3.6	1.51e+00	0	46	104	0	60	258886
2026-01-28 22:51:53.38	27.10	18.92	-60.4	-77.0	3.6	1.51e+00	0	46	104	0	60	278547
2026-01-28 22:51:54.39	27.15	19.04	-60.3	-76.9	3.6	1.51e+00	0	46	104	0	60	273696
2026-01-28 22:51:55.40	27.19	19.17	-60.8	-77.1	3.6	1.51e+00	0	46	104	0	60	280970
2026-01-28 22:51:56.41	27.23	19.29	-60.8	-77.1	3.6	1.51e+00	0	46	104	0	60	280604
2026-01-28 22:51:57.42	27.28	19.42	-60.5	-76.3	3.6	1.51e+00	0	46	104	0	60	257115
2026-01-28 22:51:58.42	27.32	19.55	-60.3	-76.7	3.6	1.51e+00	0	46	104	0	60	268021
2026-01-28 22:51:59.43	27.37	19.67	-60.5	-76.6	3.6	1.51e+00	0	46	104	0	60	265786
2026-01-28 22:52:00.43	27.41	19.80	-60.5	-76.4	3.6	1.51e+00	0	46	104	0	60	260211
2026-01-28 22:52:01.44	27.46	19.93	-61.0	-77.2	3.6	1.51e+00	0	46	104	0	60	285078
2026-01-28 22:52:02.44	27.51	20.06	-60.8	-77.2	3.6	1.51e+00	0	46	104	0	60	282679
2026-01-28 22:52:03.46	27.55	20.19	-60.4	-76.4	3.6	1.51e+00	0	46	104	0	60	259243
2026-01-28 22:52:04.46	27.60	20.32	-60.0	-76.4	3.6	1.51e+00	0	46	104	0	60	259122
2026-01-28 22:52:05.47	27.65	20.45	-60.9	-76.5	3.6	1.51e+00	0	46	104	0	60	261836
2026-01-28 22:52:06.47	27.69	20.58	-60.5	-76.8	3.6	1.51e+00	0	46	104	0	60	269571
2026-01-28 22:52:07.48	27.74	20.71	-60.6	-76.6	3.6	1.51e+00	0	46	104	0	60	266113
2026-01-28 22:52:08.49	27.79	20.84	-60.8	-76.5	3.6	1.51e+00	0	46	104	0	60	262799
2026-01-28 22:52:09.49	27.84	20.98	-60.9	-77.1	3.6	1.51e+00	0	46	104	0	60	282132
2026-01-28 22:52:10.50	27.89	21.11	-60.9	-77.2	3.6	1.51e+00	0	46	104	0	60	284839
2026-01-28 22:52:11.50	27.94	21.25	-60.9	-76.7	3.6	1.51e+00	0	46	104	0	60	266565
2026-01-28 22:52:12.51	27.99	21.38	-60.1	-76.6	3.6	1.51e+00	0	46	104	0	60	265019
2026-01-28 22:52:13.52	28.04	21.52	-60.8	-76.4	3.6	1.51e+00	0	46	104	0	60	258981
2026-01-28 22:52:14.52	28.09	21.65	-60.8	-76.8	3.6	1.51e+00	0	46	104	0	60	272417
2026-01-28 22:52:15.53	28.14	21.79	-60.7	-76.7	3.6	1.51e+00	0	46	104	0	60	266637
2026-01-28 22:52:16.54	28.19	21.93	-60.7	-76.6	3.6	1.51e+00	0	46	104	0	60	266080
2026-01-28 22:52:17.55	28.24	22.07	-60.9	-77.0	3.6	1.51e+00	0	46	104	0	60	276339
2026-01-28 22:52:18.55	28.29	22.21	-60.9	-77.1	3.6	1.51e+00	0	46	104	0	60	280044
2026-01-28 22:52:19.56	28.35	22.35	-60.7	-77.2	3.6	1.51e+00	0	46	104	0	60	282548
2026-01-28 22:52:20.56	28.40	22.49	-60.7	-77.2	3.6	1.51e+00	0	46	104	0	60	284642
2026-01-28 22:52:21.57	28.45	22.63	-60.9	-76.6	3.6	1.51e+00	0	46	104	0	60	265341
2026-01-28 22:52:22.57	28.51	22.78	-60.9	-76.7	3.6	1.51e+00	0	46	104	0	60	266477
2026-01-28 22:52:23.58	28.56	22.92	-60.9	-76.7	3.6	1.51e+00	0	46	104	0	60	268935
2026-01-28 22:52:24.58	28.61	23.06	-60.8	-76.7	3.6	1.51e+00	0	46	104	0	60	267164
2026-01-28 22:52:25.59	28.67	23.21	-60.5	-77.2	3.6	1.51e+00	0	46	104	0	60	282376
2026-01-28 22:52:26.59	28.73	23.36	-60.5	-77.2	3.6	1.51e+00	0	47	104	0	60	283792
2026-01-28 22:52:27.60	28.78	23.50	-60.5	-77.1	3.6	1.51e+00	0	46	104	0	60	280828
2026-01-28 22:52:28.61	28.84	23.65	-60.6	-77.2	3.6	1.51e+00	0	46	104	0	60	283062
2026-01-28 22:52:29.62	28.90	23.80	-60.6	-76.9	3.6	1.51e+00	0	46	104	0	60	273866
2026-01-28 22:52:30.62	28.95	23.95	-60.7	-77.2	3.6	1.51e+00	0	46	104	0	60	285315
2026-01-28 22:52:31.63	29.01	24.10	-60.9	-77.2	3.6	1.51e+00	0	46	104	0	60	283635
2026-01-28 22:52:32.63	29.07	24.25	-60.9	-77.3	3.6	1.51e+00	0	46	104	0	60	286565
2026-01-28 22:52:33.64	29.13	24.40	-60.5	-76.6	3.6	1.51e+00	0	46	104	0	60	265807
2026-01-28 22:52:34.64	29.19	24.55	-60.5	-76.7	3.6	1.51e+00	0	46	104	0	60	267427
2026-01-28 22:52:35.65	29.25	24.71	-60.4	-76.6	3.6	1.51e+00	0	46	104	0	60	264521
2026-01-28 22:52:36.65	29.31	24.86	-60.6	-76.9	3.6	1.51e+00	0	46	104	0	60	275321
2026-01-28 22:52:37.66	29.37	25.02	-61.0	-77.2	3.6	1.51e+00	0	46	104	0	60	283890
2026-01-28 22:52:38.66	29.44	25.17	-61.0	-77.1	3.6	1.51e+00	0	46	104	0	60	280980
2026-01-28 22:52:39.66	29.50	25.33	-61.0	-77.4	3.6	1.51e+00	0	46	104	0	60	289563
2026-01-28 22:52:40.67	29.56	25.49	-61.0	-77.2	3.6	1.51e+00	0	46	104	0	60	282684
2026-01-28 22:52:41.68	29.62	25.65	-60.9	-76.6	3.6	1.51e+00	0	46	104	0	60	264023
2026-01-28 22:52:42.68	29.69	25.81	-60.9	-76.8	3.6	1.51e+00	0	46	104	0	60	272239
2026-01-28 22:52:43.69	29.75	25.97	-61.0	-76.7	3.6	1.51e+00	0	46	104	0	60	267074
2026-01-28 22:52:44.70	29.82	26.13	-61.0	-76.7	3.6	1.51e+00	0	46	104	0	60	269004
2026-01-28 22:52:45.71	29.89	26.29	-61.0	-77.2	3.6	1.51e+00	0	46	104	0	60	283179
2026-01-28 22:52:46.71	29.95	26.46	-60.9	-77.1	3.6	1.51e+00	0	46	104	0	60	280735
2026-01-28 22:52:47.72	30.02	26.62	-60.9	-77.3	3.6	1.51e+00	0	46	104	0	60	287193
2026-01-28 22:52:48.72	30.09	26.79	-60.7	-77.1	3.6	1.51e+00	0	46	104	0	60	281222
2026-01-28 22:52:49.73	30.16	26.95	-61.0	-76.6	3.6	1.51e+00	0	46	104	0	60	263858
2026-01-28 22:52:50.74	30.23	27.12	-61.0	-76.7	3.6	1.51e+00	0	46	104	0	60	267175
2026-01-28 22:52:51.74	30.30	27.29	-60.9	-76.6	3.6	1.51e+00	0	46	104	0	60	263816
2026-01-28 22:52:52.74	30.37	27.46	-60.6	-76.8	3.6	1.51e+00	0	46	104	0	60	271397
2026-01-28 22:52:53.75	30.44	27.63	-60.9	-77.1	3.6	1.51e+00	0	46	104	0	60	281677
2026-01-28 22:52:54.75	30.51	27.80	-60.9	-77.1	3.6	1.51e+00	0	46	104	0	60	281611
2026-01-28 22:52:55.76	30.59	27.97	-60.9	-77.3	3.6	1.51e+00	0	46	104	0	60	286787
2026-01-28 22:52:56.77	30.66	28.15	-60.9	-77.0	3.6	1.51e+00	0	46	104	0	60	277590
2026-01-28 22:52:57.77	30.73	28.32	-60.7	-76.5	3.6	1.51e+00	0	46	104	0	60	262579
2026-01-28 22:52:58.78	30.81	28.50	-60.8	-76.5	3.6	1.51e+00	0	46	104	0	60	263038
2026-01-28 22:52:59.78	30.89	28.68	-60.8	-76.6	3.6	1.51e+00	0	46	104	0	60	263679
2026-01-28 22:53:00.79	30.96	28.85	-60.9	-76.9	3.6	1.51e+00	0	46	104	0	60	274307
2026-01-28 22:53:01.80	31.04	29.03	-61.0	-77.3	3.6	1.51e+00	0	46	104	0	60	285993
2026-01-28 22:53:02.81	31.12	29.21	-61.0	-77.1	3.6	1.51e+00	0	46	104	0	60	280470
2026-01-28 22:53:03.81	31.20	29.39	-60.8	-77.3	3.6	1.51e+00	0	46	104	0	60	287847
2026-01-28 22:53:04.82	31.28	29.58	-60.9	-77.0	3.6	1.51e+00	0	46	104	0	60	277948
2026-01-28 22:53:05.82	31.36	29.76	-61.1	-77.3	3.6	1.51e+00	0	46	104	0	60	286085
2026-01-28 22:53:06.83	31.44	29.95	-60.8	-77.1	3.6	1.51e+00	0	46	104	0	60	281816
2026-01-28 22:53:07.84	31.53	30.13	-60.9	-77.3	3.6	1.51e+00	0	46	104	0	60	287352
2026-01-28 22:53:08.84	31.61	30.32	-60.8	-77.1	3.6	1.51e+00	0	46	104	0	60	281304
2026-01-28 22:53:09.85	31.70	30.51	-60.7	-77.1	3.6	1.51e+00	0	46	104	0	60	282169
2026-01-28 22:53:10.86	31.78	30.70	-60.9	-77.1	3.6	1.51e+00	0	46	104	0	60	280416
2026-01-28 22:53:11.86	31.87	30.89	-59.7	-77.1	3.6	1.51e+00	0	46	104	0	60	279268
2026-01-28 22:53:12.87	31.96	31.08	-60.9	-77.1	3.5	1.51e+00	0	46	104	0	60	281569
2026-01-28 22:53:13.88	32.04	31.27	-61.0	-77.3	3.6	1.51e+00	0	46	104	0	60	286050
2026-01-28 22:53:14.89	32.14	31.47	-59.4	-76.9	3.6	1.51e+00	0	46	104	0	60	274055
2026-01-28 22:53:15.90	32.23	31.66	-59.1	-76.8	3.6	1.51e+00	0	46	104	0	60	272549
2026-01-28 22:53:16.91	32.32	31.86	-60.6	-77.0	3.6	1.51e+00	0	46	104	0	60	276633
2026-01-28 22:53:17.91	32.41	32.06	-60.9	-77.2	3.6	1.51e+00	0	46	104	0	60	284973
2026-01-28 22:53:18.92	32.51	32.26	-58.8	-76.7	3.6	1.51e+00	0	46	104	0	60	268380
2026-01-28 22:53:19.93	32.60	32.46	-58.6	-76.6	3.6	1.51e+00	0	46	104	0	60	263835
2026-01-28 22:53:20.93	32.70	32.66	-59.1	-76.6	3.6	1.51e+00	0	46	104	0	60	266390
2026-01-28 22:53:21.94	32.79	32.86	-60.0	-77.0	3.6	1.51e+00	0	46	104	0	60	276045
2026-01-28 22:53:22.94	32.89	33.07	-58.8	-76.7	3.6	1.51e+00	0	46	104	0	60	268213
2026-01-28 22:53:23.95	32.99	33.27	-59.7	-77.0	3.6	1.51e+00	0	46	104	0	60	277377
2026-01-28 22:53:24.96	33.09	33.48	-59.1	-76.7	3.6	1.51e+00	0	46	104	0	60	267139
2026-01-28 22:53:25.96	33.20	33.69	-58.8	-76.5	3.6	1.51e+00	0	46	104	0	60	262711
2026-01-28 22:53:26.97	33.30	33.90	-59.9	-77.0	3.6	1.51e+00	0	46	104	0	60	277899
2026-01-28 22:53:27.97	33.40	34.11	-60.3	-77.2	3.6	1.51e+00	0	46	104	0	60	284758
2026-01-28 22:53:28.98	33.51	34.32	-58.6	-76.7	3.6	1.51e+00	0	46	104	0	60	268010
2026-01-28 22:53:29.98	33.62	34.53	-59.0	-76.8	3.6	1.51e+00	0	46	104	0	60	271080
2026-01-28 22:53:30.99	33.73	34.75	-58.6	-76.5	3.6	1.51e+00	0	46	104	0	60	260792
2026-01-28 22:53:32.00	33.84	34.96	-58.8	-76.6	3.6	1.51e+00	0	46	104	0	60	264261
2026-01-28 22:53:33.01	33.95	35.18	-60.4	-77.1	3.6	1.51e+00	0	46	104	0	60	281430
2026-01-28 22:53:34.02	34.06	35.40	-60.6	-77.3	3.6	1.51e+00	0	46	104	0	60	288078
2026-01-28 22:53:35.02	34.18	35.62	-60.5	-77.1	3.6	1.51e+00	0	46	104	0	60	281206
2026-01-28 22:53:36.03	34.29	35.84	-60.9	-77.2	3.6	1.51e+00	0	46	104	0	60	284811
2026-01-28 22:53:37.04	34.41	36.07	-60.9	-77.3	3.6	1.51e+00	0	46	104	0	60	286090
2026-01-28 22:53:38.05	34.53	36.29	-61.2	-77.4	3.6	1.51e+00	0	46	104	0	60	290770
2026-01-28 22:53:39.06	34.65	36.52	-61.0	-77.2	3.6	1.51e+00	0	46	104	0	60	283779
2026-01-28 22:53:40.06	34.77	36.75	-60.5	-77.3	3.6	1.51e+00	0	46	104	0	60	288759
2026-01-28 22:53:41.06	34.90	36.98	-61.2	-77.5	3.6	1.51e+00	0	47	104	0	60	292481
2026-01-28 22:53:42.07	35.02	37.21	-61.2	-77.4	3.6	1.51e+00	0	47	104	0	60	291417
2026-01-28 22:53:43.08	35.15	37.44	-60.8	-77.2	3.6	1.51e+00	0	46	104	0	60	284743
2026-01-28 22:53:44.08	35.28	37.67	-61.2	-77.4	3.6	1.51e+00	0	46	104	0	60	291483
2026-01-28 22:53:45.08	35.41	37.91	-61.2	-77.4	3.6	1.51e+00	0	46	104	0	60	290989
2026-01-28 22:53:46.09	35.54	38.14	-61.2	-77.4	3.6	1.51e+00	0	46	104	0	60	291895
2026-01-28 22:53:47.09	35.68	38.38	-61.2	-77.3	3.6	1.51e+00	0	46	104	0	60	288169
2026-01-28 22:53:48.09	35.81	38.62	-61.2	-77.5	3.6	1.51e+00	0	46	104	0	60	292353
2026-01-28 22:53:49.09	35.95	38.86	-61.2	-77.4	3.6	1.51e+00	0	46	104	0	60	291894
2026-01-28 22:53:50.10	36.09	39.10	-61.0	-77.4	3.6	1.51e+00	0	46	104	0	60	291722
2026-01-28 22:53:51.10	36.23	39.34	-61.3	-77.3	3.6	1.51e+00	0	47	104	0	60	287142
2026-01-28 22:53:52.11	36.38	39.59	-61.2	-77.4	3.5	1.51e+00	0	46	104	0	60	292096
2026-01-28 22:53:53.11	36.52	39.84	-61.1	-77.5	3.6	1.51e+00	0	46	104	0	60	292172
2026-01-28 22:53:54.12	36.67	40.09	-61.0	-77.4	3.6	1.51e+00	0	46	104	0	60	290074
2026-01-28 22:53:55.12	36.82	40.33	-61.2	-77.3	3.6	1.51e+00	0	46	104	0	60	286555
2026-01-28 22:53:56.13	36.98	40.59	-60.8	-77.5	3.6	1.51e+00	0	46	104	0	60	293140
2026-01-28 22:53:57.14	37.13	40.84	-61.0	-77.3	3.6	1.51e+00	0	46	104	0	60	287754
2026-01-28 22:53:58.14	37.29	41.09	-60.8	-77.3	3.6	1.51e+00	0	47	104	0	60	287129
2026-01-28 22:53:59.14	37.45	41.35	-60.8	-77.3	3.6	1.51e+00	0	46	104	0	60	288128
2026-01-28 22:54:00.15	37.62	41.61	-61.1	-77.5	3.6	1.51e+00	0	46	104	0	60	292511
2026-01-28 22:54:01.16	37.78	41.87	-60.8	-77.4	3.5	1.51e+00	0	47	104	0	60	289789
2026-01-28 22:54:02.16	37.95	42.13	-61.2	-77.5	3.6	1.51e+00	0	47	104	0	60	293279
2026-01-28 22:54:03.17	38.12	42.39	-61.0	-77.2	3.6	1.51e+00	0	46	104	0	60	283622
2026-01-28 22:54:04.17	38.29	42.66	-61.1	-77.6	3.6	1.51e+00	0	47	104	0	60	296216
2026-01-28 22:54:05.17	38.47	42.92	-61.3	-77.6	3.6	1.51e+00	0	46	104	0	60	295614
2026-01-28 22:54:06.18	38.65	43.19	-61.3	-77.4	3.6	1.51e+00	0	47	104	0	60	291244
2026-01-28 22:54:07.18	38.83	43.46	-61.1	-77.5	3.6	1.51e+00	0	46	104	0	60	292747
2026-01-28 22:54:08.19	39.02	43.73	-61.3	-77.6	3.6	1.51e+00	0	46	104	0	60	297882
2026-01-28 22:54:09.20	39.21	44.00	-61.3	-77.6	3.6	1.51e+00	0	47	104	0	60	296193
2026-01-28 22:54:10.20	39.40	44.28	-61.2	-77.5	3.6	1.51e+00	0	47	104	0	60	292839
2026-01-28 22:54:11.21	39.60	44.55	-61.3	-77.6	3.5	1.51e+00	0	46	104	0	60	296134
2026-01-28 22:54:12.22	39.79	44.83	-61.4	-77.6	3.6	1.51e+00	0	47	104	0	60	298486
2026-01-28 22:54:13.22	40.00	45.11	-61.2	-77.6	3.6	1.51e+00	0	47	104	0	60	296766
2026-01-28 22:54:14.23	40.20	45.39	-61.4	-77.5	3.6	1.51e+00	0	47	104	0	60	293027
2026-01-28 22:54:15.23	40.41	45.67	-61.4	-77.6	3.6	1.51e+00	0	47	104	0	60	297566
2026-01-28 22:54:16.24	40.62	45.96	-61.3	-77.6	3.6	1.51e+00	0	47	104	0	60	298457
2026-01-28 22:54:17.25	40.84	46.24	-61.3	-77.6	3.6	1.51e+00	0	47	104	0	60	295628
2026-01-28 22:54:18.25	41.06	46.53	-61.3	-77.4	3.6	1.51e+00	0	47	104	0	60	291195
2026-01-28 22:54:19.25	41.28	46.81	-61.3	-77.6	3.6	1.51e+00	0	47	104	0	60	297346
2026-01-28 22:54:20.26	41.51	47.10	-61.4	-77.7	3.6	1.51e+00	0	47	104	0	60	299533
2026-01-28 22:54:21.26	41.74	47.39	-61.4	-77.6	3.6	1.51e+00	0	46	104	0	60	297044
2026-01-28 22:54:22.27	41.98	47.69	-61.3	-77.5	3.6	1.51e+00	0	47	104	0	60	292302
2026-01-28 22:54:23.28	42.22	47.98	-61.5	-77.7	3.6	1.51e+00	0	46	104	0	60	299469
2026-01-28 22:54:24.29	42.47	48.28	-61.3	-77.6	3.6	1.51e+00	0	47	104	0	60	298888
2026-01-28 22:54:25.30	42.72	48.58	-61.3	-77.6	3.6	1.51e+00	0	46	104	0	60	297568
2026-01-28 22:54:26.30	42.98	48.88	-61.3	-77.5	3.6	1.51e+00	0	46	104	0	60	295227
2026-01-28 22:54:27.31	43.24	49.18	-61.3	-77.6	3.6	1.51e+00	0	46	104	0	60	298722
2026-01-28 22:54:28.32	43.51	49.48	-61.4	-77.8	3.6	1.51e+00	0	47	104	0	60	302565
2026-01-28 22:54:29.32	43.78	49.78	-61.4	-77.7	3.6	1.51e+00	0	47	104	0	60	298948
2026-01-28 22:54:30.33	44.05	50.09	-61.2	-77.4	3.6	1.51e+00	0	47	104	0	60	289400
2026-01-28 22:54:31.34	44.34	50.40	-61.4	-77.6	3.6	1.51e+00	0	47	104	0	60	298191
2026-01-28 22:54:32.34	44.62	50.70	-61.2	-77.6	3.6	1.51e+00	0	47	104	0	60	296923
2026-01-28 22:54:33.35	44.92	51.01	-61.3	-77.6	3.6	1.51e+00	0	47	104	0	60	296701
2026-01-28 22:54:34.35	45.21	51.32	-61.2	-77.2	3.6	1.51e+00	0	46	104	0	60	284897
2026-01-28 22:54:35.36	45.52	51.63	-61.2	-77.5	3.6	1.51e+00	0	47	104	0	60	292602
2026-01-28 22:54:36.37	45.83	51.94	-61.2	-77.6	3.6	1.51e+00	0	46	104	0	60	297432
2026-01-28 22:54:37.37	46.15	52.26	-61.2	-77.5	3.6	1.51e+00	0	46	104	0	60	292134
2026-01-28 22:54:38.38	46.48	52.57	-61.3	-77.1	3.6	1.51e+00	0	47	104	0	60	279686
2026-01-28 22:54:39.38	46.81	52.88	-61.2	-77.4	3.6	1.51e+00	0	46	104	0	60	291950
2026-01-28 22:54:40.39	47.15	53.20	-61.4	-77.6	3.6	1.51e+00	0	47	104	0	60	297732
2026-01-28 22:54:41.40	47.50	53.52	-61.5	-77.8	3.6	1.51e+00	0	47	104	0	60	302782
2026-01-28 22:54:42.41	47.85	53.84	-61.4	-77.2	3.6	1.51e+00	0	47	104	0	60	285406
2026-01-28 22:54:43.42	48.21	54.16	-61.5	-77.4	3.6	1.51e+00	0	47	104	0	60	290294
2026-01-28 22:54:44.42	48.58	54.48	-61.5	-77.5	3.6	1.51e+00	0	47	104	0	60	293195
2026-01-28 22:54:45.43	48.96	54.80	-61.6	-77.4	3.6	1.51e+00	0	47	104	0	60	291999
2026-01-28 22:54:46.44	49.35	55.13	-61.5	-77.7	3.6	1.51e+00	0	47	104	0	60	300699
2026-01-28 22:54:47.45	49.75	55.45	-61.6	-77.2	3.6	1.51e+00	0	47	104	0	60	283502
2026-01-28 22:54:48.45	50.15	55.77	-61.6	-77.9	3.6	1.51e+00	0	47	104	0	60	307946
2026-01-28 22:54:49.46	50.57	56.10	-61.6	-77.8	3.6	1.51e+00	0	47	104	0	60	304712
2026-01-28 22:54:50.47	50.99	56.42	-61.6	-77.6	3.6	1.51e+00	0	47	104	0	60	298182
2026-01-28 22:54:51.46	51.42	56.74	-61.6	-77.7	3.6	1.51e+00	0	47	104	0	60	301798
2026-01-28 22:54:52.47	51.87	57.07	-61.6	-77.8	3.6	1.51e+00	0	46	104	0	60	303331
2026-01-28 22:54:53.48	52.32	57.39	-61.6	-78.0	3.6	1.51e+00	0	47	104	0	60	310102
2026-01-28 22:54:54.48	52.79	57.72	-61.7	-77.8	3.6	1.51e+00	0	47	104	0	60	304827
2026-01-28 22:54:55.49	53.26	58.04	-61.7	-77.7	3.6	1.51e+00	0	47	104	0	60	301922
2026-01-28 22:54:56.50	53.76	58.37	-61.8	-78.1	3.6	1.51e+00	0	47	104	0	60	316364
2026-01-28 22:54:57.50	54.25	58.69	-61.8	-78.1	3.6	1.51e+00	0	47	104	0	60	314599
2026-01-28 22:54:58.51	54.77	59.02	-61.5	-77.7	3.6	1.51e+00	0	46	104	0	60	300840
2026-01-28 22:54:59.51	55.29	59.34	-61.8	-77.7	3.6	1.51e+00	0	47	104	0	60	302316
2026-01-28 22:55:00.49	55.81	59.66	-61.5	-78.1	3.6	1.51e+00	0	46	104	0	60	313829
2026-01-28 22:55:01.50	56.37	59.98	-61.6	-78.1	3.6	1.51e+00	0	47	104	0	60	315918
2026-01-28 22:55:02.51	56.94	60.30	-61.7	-77.7	3.6	1.51e+00	0	47	104	0	60	299366
2026-01-28 22:55:03.51	57.51	60.62	-61.7	-77.7	3.6	1.51e+00	0	46	104	0	60	301041
2026-01-28 22:55:04.52	58.11	60.95	-61.7	-78.1	3.6	1.51e+00	0	46	104	0	60	315748
2026-01-28 22:55:05.53	58.72	61.27	-61.7	-78.1	3.6	1.51e+00	0	46	104	0	60	316571
2026-01-28 22:55:06.54	59.35	61.59	-61.8	-77.8	3.6	1.51e+00	0	47	104	0	60	302737
2026-01-28 22:55:07.54	59.99	61.90	-62.0	-78.0	3.6	1.51e+00	0	46	104	0	60	311786
2026-01-28 22:55:08.54	60.64	62.21	-61.9	-78.4	3.6	1.51e+00	0	46	104	0	60	325303
2026-01-28 22:55:09.55	61.32	62.53	-61.8	-78.3	3.6	1.51e+00	0	46	104	0	60	322779
2026-01-28 22:55:10.55	62.01	62.84	-61.9	-78.3	3.6	1.51e+00	0	46	104	0	60	322429
2026-01-28 22:55:11.56	62.73	63.15	-61.9	-78.3	3.6	1.51e+00	0	46	104	0	60	322713
2026-01-28 22:55:12.57	63.46	63.46	-61.9	-78.2	3.6	1.51e+00	0	47	104	0	60	318119
2026-01-28 22:55:13.58	64.21	63.76	-61.8	-78.1	3.6	1.51e+00	0	47	104	0	60	315233
2026-01-28 22:55:14.58	64.97	64.06	-61.8	-78.3	3.6	1.51e+00	0	47	104	0	60	321800
2026-01-28 22:55:15.59	65.77	64.36	-61.9	-78.5	3.6	1.51e+00	0	47	104	0	60	331236
2026-01-28 22:55:16.60	66.58	64.66	-62.0	-78.3	3.6	1.51e+00	0	47	104	0	60	321519
2026-01-28 22:55:17.60	67.40	64.95	-61.9	-78.4	3.6	1.51e+00	0	47	104	0	60	324235
2026-01-28 22:55:18.61	68.26	65.24	-62.2	-78.6	3.6	1.51e+00	0	47	104	0	60	333738
2026-01-28 22:55:19.61	69.13	65.52	-62.1	-78.4	3.6	1.51e+00	0	47	104	0	60	324226
2026-01-28 22:55:20.62	70.03	65.80	-62.2	-78.2	3.6	1.51e+00	0	47	104	0	60	319586
2026-01-28 22:55:21.62	70.94	66.07	-62.2	-78.5	3.6	1.51e+00	0	46	104	0	60	331208
2026-01-28 22:55:22.62	71.88	66.34	-62.3	-78.7	3.6	1.51e+00	0	46	104	0	60	337309
2026-01-28 22:55:23.62	72.84	66.61	-62.2	-78.4	3.6	1.51e+00	0	47	104	0	60	325233
2026-01-28 22:55:24.63	73.83	66.87	-62.3	-78.2	3.6	1.51e+00	0	47	104	0	60	318612
2026-01-28 22:55:25.63	74.84	67.12	-62.2	-78.6	3.6	1.51e+00	0	46	104	0	60	335148
2026-01-28 22:55:26.64	75.89	67.37	-62.3	-78.6	3.6	1.51e+00	0	46	104	0	60	335011
2026-01-28 22:55:27.64	76.94	67.61	-62.4	-78.5	3.5	1.51e+00	0	47	104	0	60	329801
2026-01-28 22:55:28.65	78.04	67.85	-62.1	-78.4	3.6	1.51e+00	0	46	104	0	60	325877
2026-01-28 22:55:29.66	79.16	68.08	-62.2	-78.5	3.6	1.51e+00	0	47	104	0	60	330116
2026-01-28 22:55:30.67	80.30	68.30	-62.2	-78.5	3.6	1.51e+00	0	46	104	0	60	329903
2026-01-28 22:55:31.68	81.47	68.52	-61.9	-78.1	3.6	1.51e+00	0	47	104	0	60	315876
2026-01-28 22:55:32.69	82.66	68.73	-61.9	-78.2	3.6	1.51e+00	0	46	104	0	60	318548
2026-01-28 22:55:33.69	83.87	68.93	-62.0	-78.4	3.6	1.51e+00	0	46	104	0	60	327087
2026-01-28 22:55:34.70	85.11	69.12	-62.0	-78.5	3.6	1.51e+00	0	46	104	0	60	329207
2026-01-28 22:55:35.70	86.37	69.30	-61.8	-78.3	3.6	1.51e+00	0	47	104	0	60	323548
2026-01-28 22:55:36.71	87.66	69.47	-61.9	-78.5	3.6	1.51e+00	0	47	104	0	60	329265
2026-01-28 22:55:37.72	88.97	69.63	-62.0	-78.6	3.6	1.51e+00	0	46	104	0	60	334264
2026-01-28 22:55:38.72	90.30	69.79	-61.7	-78.4	3.6	1.51e+00	0	47	104	0	60	325437
2026-01-28 22:55:39.72	91.64	69.93	-61.6	-78.0	3.6	1.51e+00	0	46	104	0	60	312344
2026-01-28 22:55:40.73	93.02	70.06	-61.6	-78.2	3.6	1.51e+00	0	46	104	0	60	317644
2026-01-28 22:55:41.73	94.40	70.18	-61.8	-78.5	3.6	1.51e+00	0	46	104	0	60	328343
2026-01-28 22:55:42.74	95.81	70.30	-61.5	-78.3	3.6	1.51e+00	0	47	104	0	60	322697
2026-01-28 22:55:43.75	97.24	70.40	-61.6	-78.2	3.6	1.51e+00	0	46	104	0	60	318012
2026-01-28 22:55:44.76	98.69	70.49	-61.7	-78.5	3.6	1.51e+00	0	47	104	0	60	328225
2026-01-28 22:55:45.77	100.15	70.56	-61.7	-78.5	3.6	1.51e+00	0	46	104	0	60	331146
2026-01-28 22:55:46.78	101.62	70.63	-61.8	-78.3	3.6	1.51e+00	0	47	104	0	60	323339
2026-01-28 22:55:47.78	103.08	70.68	-61.8	-78.0	3.6	1.51e+00	0	47	104	0	60	310684
2026-01-28 22:55:48.79	104.57	70.73	-61.8	-78.4	3.6	1.51e+00	0	47	104	0	60	324646
2026-01-28 22:55:49.80	106.06	70.76	-61.9	-78.5	3.6	1.51e+00	0	46	104	0	60	330284
2026-01-28 22:55:50.81	107.56	70.77	-61.8	-78.4	3.6	1.51e+00	0	46	104	0	60	325437
2026-01-28 22:55:51.81	109.04	70.78	-61.6	-78.1	3.6	1.51e+00	0	47	104	0	60	315481
2026-01-28 22:55:52.82	110.54	70.77	-61.6	-78.2	3.6	1.51e+00	0	47	104	0	60	316813
2026-01-28 22:55:53.82	112.03	70.75	-61.7	-78.5	3.6	1.51e+00	0	46	104	0	60	329425
2026-01-28 22:55:54.82	113.50	70.72	-61.5	-78.3	3.6	1.51e+00	0	47	104	0	60	320522
2026-01-28 22:55:55.82	114.98	70.68	-61.5	-78.2	3.6	1.51e+00	0	46	104	0	60	317781
2026-01-28 22:55:56.83	116.46	70.63	-61.5	-78.1	3.6	1.51e+00	0	47	104	0	60	313580
2026-01-28 22:55:57.84	117.92	70.56	-61.6	-78.4	3.6	1.51e+00	0	47	104	0	60	324785
2026-01-28 22:55:58.84	119.37	70.48	-61.7	-78.3	3.6	1.51e+00	0	46	104	0	60	322084
2026-01-28 22:55:59.85	120.81	70.39	-61.5	-78.2	3.6	1.51e+00	0	47	104	0	60	318245
2026-01-28 22:56:00.86	122.24	70.29	-61.6	-78.4	3.6	1.51e+00	0	46	104	0	60	325984
2026-01-28 22:56:01.86	123.64	70.18	-61.7	-78.6	3.6	1.51e+00	0	47	104	0	60	331972
2026-01-28 22:56:02.87	125.04	70.05	-61.7	-78.4	3.6	1.51e+00	0	46	104	0	60	326630
2026-01-28 22:56:03.88	126.41	69.92	-61.8	-78.6	3.6	1.51e+00	0	46	104	0	60	331996
2026-01-28 22:56:04.89	127.77	69.78	-61.9	-78.8	3.6	1.51e+00	0	46	104	0	60	339648
2026-01-28 22:56:05.90	129.11	69.62	-62.0	-78.8	3.6	1.51e+00	0	47	104	0	60	340731
2026-01-28 22:56:06.90	130.41	69.46	-62.0	-78.5	3.6	1.51e+00	0	47	104	0	60	328370
2026-01-28 22:56:07.91	131.70	69.28	-62.1	-78.4	3.6	1.51e+00	0	47	104	0	60	327764
2026-01-28 22:56:08.92	132.96	69.10	-62.1	-78.7	3.6	1.51e+00	0	47	104	0	60	339011
2026-01-28 22:56:09.93	134.21	68.91	-62.2	-78.8	3.6	1.51e+00	0	47	104	0	60	341623
2026-01-28 22:56:10.93	135.41	68.71	-62.2	-78.5	3.6	1.51e+00	0	47	104	0	60	328517
2026-01-28 22:56:11.94	136.61	68.50	-62.4	-78.7	3.6	1.51e+00	0	47	104	0	60	338643
2026-01-28 22:56:12.95	137.77	68.29	-62.3	-78.6	3.6	1.51e+00	0	46	104	0	60	335253
2026-01-28 22:56:13.96	138.92	68.06	-62.4	-78.8	3.6	1.51e+00	0	47	104	0	60	340447
2026-01-28 22:56:14.96	140.02	67.83	-62.4	-78.5	3.6	1.51e+00	0	46	104	0	60	330218
2026-01-28 22:56:15.97	141.12	67.60	-62.4	-78.7	3.6	1.51e+00	0	47	104	0	60	338492
2026-01-28 22:56:16.98	142.18	67.35	-62.5	-78.8	3.6	1.51e+00	0	47	104	0	60	341077
2026-01-28 22:56:17.98	143.22	67.10	-62.3	-78.6	3.6	1.51e+00	0	47	104	0	60	335090
2026-01-28 22:56:18.98	144.22	66.85	-62.4	-78.6	3.6	1.51e+00	0	46	104	0	60	331755
2026-01-28 22:56:19.99	145.22	66.59	-62.4	-78.6	3.6	1.51e+00	0	46	104	0	60	334388
2026-01-28 22:56:21.00	146.19	66.32	-62.4	-78.6	3.6	1.51e+00	0	46	104	0	60	333826
2026-01-28 22:56:22.01	147.13	66.05	-62.3	-78.6	3.6	1.51e+00	0	46	104	0	60	333238
2026-01-28 22:56:23.01	148.04	65.77	-62.4	-78.5	3.6	1.51e+00	0	46	104	0	60	328533
2026-01-28 22:56:24.02	148.94	65.49	-62.5	-78.8	3.6	1.51e+00	0	46	104	0	60	340419
2026-01-28 22:56:25.03	149.82	65.20	-62.5	-78.8	3.6	1.51e+00	0	46	104	0	60	340895
2026-01-28 22:56:26.03	150.67	64.92	-62.5	-78.8	3.6	1.51e+00	0	47	104	0	60	339541
2026-01-28 22:56:27.04	151.50	64.62	-62.6	-78.5	3.6	1.51e+00	0	47	104	0	60	329156
2026-01-28 22:56:28.04	152.30	64.33	-62.5	-78.7	3.6	1.51e+00	0	47	104	0	60	338084
2026-01-28 22:56:29.05	153.09	64.03	-62.5	-78.8	3.6	1.51e+00	0	47	104	0	60	340965
2026-01-28 22:56:30.06	153.86	63.72	-62.4	-78.6	3.6	1.51e+00	0	46	104	0	60	333276
2026-01-28 22:56:31.06	154.61	63.42	-62.4	-78.1	3.6	1.51e+00	0	46	104	0	60	314963
2026-01-28 22:56:32.06	155.33	63.11	-62.4	-78.3	3.6	1.51e+00	0	47	104	0	60	320780
2026-01-28 22:56:33.07	156.04	62.80	-62.3	-78.4	3.6	1.51e+00	0	47	104	0	60	326865
2026-01-28 22:56:34.07	156.73	62.49	-62.3	-78.4	3.6	1.51e+00	0	47	104	0	60	326299
2026-01-28 22:56:35.08	157.41	62.18	-62.3	-78.1	3.6	1.51e+00	0	47	104	0	60	314020
2026-01-28 22:56:36.09	158.07	61.86	-62.2	-78.0	3.6	1.51e+00	0	47	104	0	60	309938
2026-01-28 22:56:37.09	158.71	61.55	-62.2	-77.9	3.6	1.51e+00	0	46	104	0	60	306363
2026-01-28 22:56:38.10	159.34	61.22	-62.2	-77.8	3.6	1.51e+00	0	47	104	0	60	303223
2026-01-28 22:56:39.11	159.95	60.90	-62.1	-77.9	3.6	1.51e+00	0	47	104	0	60	308029
2026-01-28 22:56:40.12	160.54	60.58	-62.2	-78.4	3.5	1.51e+00	0	47	104	0	60	324116
2026-01-28 22:56:41.12	161.12	60.26	-62.2	-78.4	3.6	1.51e+00	0	47	104	0	60	326055
2026-01-28 22:56:42.13	161.69	59.94	-62.2	-78.3	3.5	1.51e+00	0	47	104	0	60	321422
2026-01-28 22:56:43.13	162.23	59.61	-62.2	-77.6	3.6	1.51e+00	0	47	104	0	60	298619
2026-01-28 22:56:44.14	162.77	59.29	-62.2	-78.1	3.6	1.51e+00	0	47	104	0	60	315740
2026-01-28 22:56:45.14	163.30	58.96	-62.3	-78.2	3.6	1.51e+00	0	47	104	0	60	318744
2026-01-28 22:56:46.15	163.81	58.64	-62.2	-78.3	3.6	1.51e+00	0	46	104	0	60	321417
2026-01-28 22:56:47.16	164.31	58.31	-62.3	-78.5	3.6	1.51e+00	0	47	104	0	60	329297
2026-01-28 22:56:48.16	164.80	57.99	-62.2	-78.4	3.6	1.51e+00	0	47	104	0	60	326452
2026-01-28 22:56:49.17	165.27	57.66	-62.2	-78.2	3.6	1.51e+00	0	46	104	0	60	319152
2026-01-28 22:56:50.17	165.74	57.33	-62.2	-78.3	3.6	1.51e+00	0	46	104	0	60	322807
2026-01-28 22:56:51.18	166.19	57.01	-62.2	-78.4	3.5	1.51e+00	0	46	104	0	60	326141
2026-01-28 22:56:52.19	166.64	56.68	-62.2	-78.3	3.6	1.51e+00	0	46	104	0	60	323594
2026-01-28 22:56:53.19	167.07	56.36	-62.1	-77.9	3.6	1.51e+00	0	46	104	0	60	307457
2026-01-28 22:56:54.20	167.49	56.03	-62.1	-77.6	3.6	1.51e+00	0	46	104	0	60	298001
2026-01-28 22:56:55.21	167.91	55.71	-62.0	-77.9	3.6	1.51e+00	0	47	104	0	60	307731
2026-01-28 22:56:56.22	168.31	55.38	-62.1	-78.2	3.6	1.51e+00	0	47	104	0	60	319707
2026-01-28 22:56:57.23	168.71	55.06	-62.1	-78.3	3.6	1.51e+00	0	46	104	0	60	322627
2026-01-28 22:56:58.23	169.09	54.73	-62.1	-78.2	3.6	1.51e+00	0	46	104	0	60	318340
2026-01-28 22:56:59.24	169.47	54.41	-62.1	-77.7	3.6	1.51e+00	0	47	104	0	60	301603
2026-01-28 22:57:00.25	169.84	54.09	-62.1	-77.6	3.6	1.51e+00	0	46	104	0	60	297793
2026-01-28 22:57:01.25	170.20	53.77	-62.0	-77.3	3.6	1.51e+00	0	46	104	0	60	285792
2026-01-28 22:57:02.25	170.55	53.45	-62.0	-77.5	3.6	1.51e+00	0	46	104	0	60	293642
2026-01-28 22:57:03.26	170.90	53.13	-62.0	-78.1	3.6	1.51e+00	0	47	104	0	60	313090
2026-01-28 22:57:04.27	171.24	52.82	-62.0	-78.2	3.6	1.51e+00	0	47	104	0	60	319099
2026-01-28 22:57:05.28	171.57	52.50	-61.9	-78.1	3.6	1.51e+00	0	47	104	0	60	313616
2026-01-28 22:57:06.28	171.90	52.18	-61.8	-78.0	3.6	1.51e+00	0	47	104	0	60	310319
2026-01-28 22:57:07.29	172.22	51.87	-61.9	-77.6	3.6	1.51e+00	0	46	104	0	60	297066
2026-01-28 22:57:08.29	172.53	51.56	-61.8	-77.6	3.6	1.51e+00	0	47	104	0	60	295669
2026-01-28 22:57:09.30	172.83	51.24	-61.8	-77.6	3.6	1.51e+00	0	47	104	0	60	297863
2026-01-28 22:57:10.31	173.13	50.93	-61.8	-77.7	3.6	1.51e+00	0	47	104	0	60	302232
2026-01-28 22:57:11.31	173.42	50.63	-61.8	-78.0	3.6	1.51e+00	0	47	104	0	60	309891
2026-01-28 22:57:12.32	173.71	50.32	-61.8	-78.0	3.6	1.51e+00	0	47	104	0	60	310958
2026-01-28 22:57:13.33	173.99	50.01	-61.8	-78.1	3.6	1.51e+00	0	47	104	0	60	314872
2026-01-28 22:57:14.34	174.27	49.70	-61.8	-78.0	3.6	1.51e+00	0	46	104	0	60	311033
2026-01-28 22:57:15.35	174.54	49.40	-61.8	-77.9	3.6	1.51e+00	0	47	104	0	60	307906
2026-01-28 22:57:16.35	174.81	49.10	-61.7	-77.9	3.6	1.51e+00	0	47	104	0	60	308470
2026-01-28 22:57:17.36	175.07	48.79	-61.8	-78.1	3.6	1.51e+00	0	46	104	0	60	314772
2026-01-28 22:57:18.37	175.32	48.49	-61.8	-78.1	3.6	1.51e+00	0	46	104	0	60	313926
2026-01-28 22:57:19.37	175.57	48.20	-61.8	-78.0	3.6	1.51e+00	0	46	104	0	60	311670
2026-01-28 22:57:20.38	175.82	47.90	-61.8	-78.0	3.6	1.51e+00	0	47	104	0	60	312662
2026-01-28 22:57:21.39	176.06	47.60	-61.8	-78.1	3.6	1.51e+00	0	47	104	0	60	313742
2026-01-28 22:57:22.39	176.30	47.31	-61.7	-78.0	3.6	1.51e+00	0	47	104	0	60	312222
2026-01-28 22:57:23.40	176.53	47.02	-61.8	-77.8	3.6	1.51e+00	0	47	104	0	60	303149
2026-01-28 22:57:24.41	176.76	46.73	-61.7	-77.8	3.6	1.51e+00	0	47	104	0	60	304980
2026-01-28 22:57:25.41	176.98	46.44	-61.8	-78.1	3.6	1.51e+00	0	47	104	0	60	315512
2026-01-28 22:57:26.42	177.20	46.15	-61.7	-78.0	3.6	1.51e+00	0	47	104	0	60	311765
2026-01-28 22:57:27.42	177.42	45.87	-61.8	-77.9	3.6	1.51e+00	0	47	104	0	60	308221
2026-01-28 22:57:28.43	177.63	45.58	-61.7	-77.9	3.6	1.51e+00	0	47	104	0	60	307326
2026-01-28 22:57:29.44	177.84	45.30	-61.8	-78.1	3.6	1.51e+00	0	46	104	0	60	313497
2026-01-28 22:57:30.45	178.04	45.01	-61.7	-78.0	3.6	1.51e+00	0	47	104	0	60	310615
2026-01-28 22:57:31.46	178.25	44.73	-61.8	-77.6	3.6	1.51e+00	0	47	104	0	60	296810
2026-01-28 22:57:32.46	178.44	44.46	-61.7	-77.5	3.6	1.51e+00	0	47	104	0	60	293509
2026-01-28 22:57:33.47	178.64	44.18	-61.8	-78.0	3.6	1.51e+00	0	47	104	0	60	311017
2026-01-28 22:57:34.48	178.83	43.90	-61.6	-78.0	3.6	1.51e+00	0	47	104	0	60	309497
2026-01-28 22:57:35.48	179.02	43.63	-61.7	-77.7	3.6	1.51e+00	0	47	104	0	60	301561
2026-01-28 22:57:36.49	179.20	43.36	-61.7	-77.7	3.6	1.51e+00	0	47	104	0	60	301540
2026-01-28 22:57:37.50	179.39	43.09	-61.7	-77.7	3.6	1.51e+00	0	47	104	0	60	300798
2026-01-28 22:57:38.50	179.57	42.82	-61.7	-77.7	3.6	1.51e+00	0	47	104	0	60	301495
2026-01-28 22:57:39.51	179.74	42.55	-61.6	-77.7	3.6	1.51e+00	0	46	104	0	60	300213
2026-01-28 22:57:40.51	179.91	42.29	-61.4	-77.8	3.6	1.51e+00	0	47	104	0	60	303360
2026-01-28 22:57:41.52	180.09	42.03	-61.6	-77.6	3.6	1.51e+00	0	47	104	0	60	296414
2026-01-28 22:57:42.53	180.25	41.76	-61.5	-77.4	3.6	1.51e+00	0	46	104	0	60	290912
2026-01-28 22:57:43.54	180.42	41.50	-61.6	-78.0	3.6	1.51e+00	0	47	104	0	60	310277
2026-01-28 22:57:44.54	180.58	41.24	-61.6	-77.7	3.6	1.51e+00	0	47	104	0	60	300656
2026-01-28 22:57:45.55	180.74	40.99	-61.5	-77.7	3.6	1.51e+00	0	47	104	0	60	299387
2026-01-28 22:57:46.56	180.90	40.73	-61.5	-77.7	3.6	1.51e+00	0	47	104	0	60	300160
2026-01-28 22:57:47.57	181.06	40.47	-61.3	-77.4	3.6	1.51e+00	0	47	104	0	60	290253
2026-01-28 22:57:48.57	181.21	40.22	-61.5	-77.8	3.6	1.51e+00	0	47	104	0	60	304636
2026-01-28 22:57:49.58	181.36	39.97	-61.2	-77.5	3.6	1.51e+00	0	46	104	0	60	292954
2026-01-28 22:57:50.58	181.51	39.72	-61.2	-77.5	3.6	1.51e+00	0	47	104	0	60	294383
2026-01-28 22:57:51.58	181.65	39.48	-61.4	-77.5	3.6	1.51e+00	0	46	104	0	60	293540
2026-01-28 22:57:52.59	181.80	39.23	-61.1	-77.2	3.6	1.51e+00	0	47	104	0	60	283938
2026-01-28 22:57:53.60	181.94	38.99	-61.4	-77.7	3.6	1.51e+00	0	47	104	0	60	299556
2026-01-28 22:57:54.60	182.08	38.74	-61.1	-77.5	3.6	1.51e+00	0	46	104	0	60	295470
2026-01-28 22:57:55.60	182.22	38.50	-61.3	-77.3	3.6	1.51e+00	0	46	104	0	60	287897
2026-01-28 22:57:56.61	182.36	38.26	-61.1	-77.3	3.6	1.51e+00	0	46	104	0	60	285658
2026-01-28 22:57:57.62	182.49	38.02	-61.2	-77.6	3.6	1.51e+00	0	47	104	0	60	297490
2026-01-28 22:57:58.63	182.62	37.79	-61.1	-77.5	3.6	1.51e+00	0	46	104	0	60	294007
2026-01-28 22:57:59.64	182.75	37.55	-61.2	-77.4	3.6	1.51e+00	0	46	104	0	60	289177
2026-01-28 22:58:00.64	182.88	37.32	-61.1	-77.3	3.6	1.51e+00	0	47	104	0	60	288719
2026-01-28 22:58:01.65	183.01	37.08	-61.2	-77.6	3.6	1.51e+00	0	46	104	0	60	296156
2026-01-28 22:58:02.65	183.13	36.85	-61.1	-77.5	3.6	1.51e+00	0	47	104	0	60	293042
2026-01-28 22:58:03.66	183.26	36.62	-61.2	-77.2	3.6	1.51e+00	0	47	104	0	60	284446
2026-01-28 22:58:04.67	183.38	36.39	-61.0	-77.4	3.6	1.51e+00	0	47	104	0	60	290386
2026-01-28 22:58:05.67	183.50	36.17	-61.1	-77.5	3.6	1.51e+00	0	47	104	0	60	293096
2026-01-28 22:58:06.68	183.62	35.94	-61.1	-77.5	3.6	1.51e+00	0	46	104	0	60	292525
2026-01-28 22:58:07.69	183.74	35.72	-61.1	-77.2	3.6	1.51e+00	0	47	104	0	60	283667
2026-01-28 22:58:08.68	183.85	35.50	-61.1	-77.3	3.6	1.51e+00	0	47	104	0	60	287539
2026-01-28 22:58:09.69	183.96	35.28	-61.1	-77.5	3.6	1.51e+00	0	47	104	0	60	294936
2026-01-28 22:58:10.69	184.08	35.06	-61.0	-77.4	3.6	1.51e+00	0	46	104	0	60	291665
2026-01-28 22:58:11.69	184.19	34.84	-61.1	-77.3	3.5	1.51e+00	0	47	104	0	60	286476
2026-01-28 22:58:12.70	184.30	34.63	-61.0	-77.3	3.6	1.51e+00	0	46	104	0	60	287277
2026-01-28 22:58:13.70	184.40	34.41	-61.0	-77.4	3.6	1.51e+00	0	47	104	0	60	291583
2026-01-28 22:58:14.71	184.51	34.20	-61.0	-77.4	3.6	1.51e+00	0	46	104	0	60	289051
2026-01-28 22:58:15.71	184.62	33.98	-61.1	-77.2	3.6	1.51e+00	0	46	104	0	60	283000
2026-01-28 22:58:16.72	184.72	33.77	-61.0	-77.2	3.6	1.51e+00	0	46	104	0	60	284865
2026-01-28 22:58:17.73	184.83	33.56	-61.0	-77.4	3.6	1.51e+00	0	46	104	0	60	291745
2026-01-28 22:58:18.74	184.93	33.35	-61.0	-77.3	3.6	1.51e+00	0	46	104	0	60	288370
2026-01-28 22:58:19.74	185.03	33.15	-61.0	-77.2	3.6	1.51e+00	0	46	104	0	60	282991
2026-01-28 22:58:20.75	185.13	32.94	-61.0	-77.3	3.6	1.51e+00	0	46	104	0	60	288715
2026-01-28 22:58:21.76	185.23	32.73	-60.9	-77.4	3.6	1.51e+00	0	47	104	0	60	289227
2026-01-28 22:58:22.77	185.32	32.53	-61.0	-77.2	3.6	1.51e+00	0	47	104	0	60	285377
2026-01-28 22:58:23.78	185.42	32.33	-60.9	-77.0	3.6	1.51e+00	0	47	104	0	60	276711
2026-01-28 22:58:24.78	185.51	32.13	-61.0	-77.3	3.6	1.51e+00	0	47	104	0	60	286115
2026-01-28 22:58:25.79	185.61	31.93	-60.9	-77.3	3.6	1.51e+00	0	47	104	0	60	286252
2026-01-28 22:58:26.80	185.70	31.73	-60.9	-77.1	3.6	1.51e+00	0	47	104	0	60	282058
2026-01-28 22:58:27.80	185.79	31.53	-60.9	-76.9	3.6	1.51e+00	0	46	104	0	60	275401
2026-01-28 22:58:28.81	185.88	31.34	-60.8	-77.2	3.6	1.51e+00	0	47	104	0	60	284311
2026-01-28 22:58:29.82	185.97	31.14	-60.8	-77.2	3.6	1.51e+00	0	46	104	0	60	282689
2026-01-28 22:58:30.82	186.06	30.95	-60.8	-77.1	3.6	1.51e+00	0	47	104	0	60	279748
2026-01-28 22:58:31.83	186.15	30.76	-60.8	-76.9	3.6	1.51e+00	0	46	104	0	60	274941
2026-01-28 22:58:32.84	186.23	30.57	-60.7	-77.1	3.6	1.51e+00	0	46	104	0	60	281376
2026-01-28 22:58:33.85	186.32	30.37	-60.8	-77.1	3.6	1.51e+00	0	47	104	0	60	281596
2026-01-28 22:58:34.86	186.40	30.19	-60.9	-77.1	3.6	1.51e+00	0	47	104	0	60	281260
2026-01-28 22:58:35.86	186.49	30.00	-60.8	-76.9	3.6	1.51e+00	0	47	104	0	60	273107
2026-01-28 22:58:36.87	186.57	29.81	-60.8	-77.1	3.6	1.51e+00	0	47	104	0	60	282166
2026-01-28 22:58:37.88	186.65	29.63	-60.8	-77.1	3.6	1.51e+00	0	46	104	0	60	280900
2026-01-28 22:58:38.89	186.73	29.44	-60.8	-77.0	3.6	1.51e+00	0	47	104	0	60	277029
2026-01-28 22:58:39.89	186.81	29.26	-60.8	-76.8	3.6	1.51e+00	0	47	104	0	60	271500
2026-01-28 22:58:40.90	186.89	29.08	-60.8	-77.1	3.6	1.51e+00	0	47	104	0	60	280703
2026-01-28 22:58:41.91	186.97	28.90	-60.8	-77.1	3.6	1.51e+00	0	47	104	0	60	280285
2026-01-28 22:58:42.92	187.05	28.72	-60.7	-76.8	3.6	1.51e+00	0	47	104	0	60	272274
2026-01-28 22:58:43.92	187.12	28.54	-60.7	-76.5	3.6	1.51e+00	0	47	104	0	60	262735
2026-01-28 22:58:44.93	187.20	28.36	-60.7	-77.0	3.6	1.51e+00	0	47	104	0	60	278077
2026-01-28 22:58:45.94	187.28	28.18	-60.7	-77.0	3.6	1.51e+00	0	47	104	0	60	276289
2026-01-28 22:58:46.94	187.35	28.01	-60.6	-76.7	3.6	1.51e+00	0	47	104	0	60	266848
2026-01-28 22:58:47.95	187.42	27.84	-60.5	-76.4	3.6	1.51e+00	0	47	104	0	60	258994
2026-01-28 22:58:48.96	187.50	27.66	-60.7	-76.9	3.6	1.51e+00	0	47	104	0	60	273256
2026-01-28 22:58:49.96	187.57	27.49	-60.5	-76.8	3.6	1.51e+00	0	47	104	0	60	272427
2026-01-28 22:58:50.97	187.64	27.32	-60.5	-76.7	3.6	1.51e+00	0	46	104	0	60	266609
2026-01-28 22:58:51.98	187.71	27.15	-60.5	-76.4	3.6	1.51e+00	0	47	104	0	60	258824
2026-01-28 22:58:52.98	187.78	26.98	-60.6	-76.7	3.6	1.51e+00	0	47	104	0	60	268187
2026-01-28 22:58:53.99	187.85	26.81	-60.5	-76.8	3.6	1.51e+00	0	47	104	0	60	270097
2026-01-28 22:58:54.99	187.92	26.65	-60.5	-76.6	3.6	1.51e+00	0	47	104	0	60	265748
2026-01-28 22:58:55.99	187.98	26.48	-60.5	-76.4	3.6	1.51e+00	0	47	104	0	60	258072
2026-01-28 22:58:57.00	188.05	26.32	-60.5	-76.7	3.6	1.51e+00	0	46	104	0	60	268628
2026-01-28 22:58:58.01	188.12	26.15	-60.4	-76.8	3.6	1.51e+00	0	46	104	0	60	270409
2026-01-28 22:58:59.01	188.18	25.99	-60.5	-76.6	3.6	1.51e+00	0	47	104	0	60	265543
2026-01-28 22:59:00.01	188.25	25.83	-60.4	-76.2	3.6	1.51e+00	0	47	104	0	60	253198
2026-01-28 22:59:01.02	188.31	25.67	-60.3	-76.6	3.6	1.51e+00	0	46	104	0	60	264073
2026-01-28 22:59:02.03	188.38	25.51	-60.3	-76.7	3.6	1.51e+00	0	47	104	0	60	266441
2026-01-28 22:59:03.03	188.44	25.35	-60.4	-76.5	3.6	1.51e+00	0	47	104	0	60	263282
2026-01-28 22:59:04.04	188.50	25.19	-60.3	-76.1	3.6	1.51e+00	0	47	104	0	60	250821
2026-01-28 22:59:05.04	188.57	25.03	-60.3	-76.5	3.6	1.51e+00	0	46	104	0	60	262522
2026-01-28 22:59:06.05	188.63	24.87	-60.3	-76.6	3.6	1.51e+00	0	46	104	0	60	264042
2026-01-28 22:59:07.05	188.69	24.72	-60.3	-76.4	3.6	1.51e+00	0	46	104	0	60	259005
2026-01-28 22:59:08.06	188.75	24.56	-60.2	-76.0	3.6	1.51e+00	0	46	104	0	60	247922
2026-01-28 22:59:09.07	188.81	24.41	-60.2	-76.2	3.6	1.51e+00	0	46	104	0	60	252387
2026-01-28 22:59:10.08	188.87	24.26	-60.0	-76.4	3.6	1.51e+00	0	46	104	0	60	257656
2026-01-28 22:59:11.08	188.93	24.11	-60.1	-76.2	3.6	1.51e+00	0	46	104	0	60	253559
2026-01-28 22:59:12.09	188.99	23.95	-60.0	-75.8	3.6	1.51e+00	0	47	104	0	60	242474
2026-01-28 22:59:13.09	189.04	23.80	-60.0	-76.0	3.6	1.51e+00	0	47	104	0	60	247740
2026-01-28 22:59:14.10	189.10	23.65	-60.0	-76.3	3.6	1.51e+00	0	46	104	0	60	255939
2026-01-28 22:59:15.10	189.16	23.51	-60.0	-76.1	3.6	1.51e+00	0	47	104	0	60	249330
2026-01-28 22:59:16.11	189.21	23.36	-60.0	-75.8	3.6	1.51e+00	0	46	104	0	60	241414
2026-01-28 22:59:17.12	189.27	23.21	-60.0	-76.0	3.6	1.51e+00	0	47	104	0	60	247024
2026-01-28 22:59:18.12	189.32	23.06	-60.0	-76.3	3.6	1.51e+00	0	46	104	0	60	254538
2026-01-28 22:59:19.13	189.38	22.92	-60.0	-76.1	3.6	1.51e+00	0	47	104	0	60	250065
2026-01-28 22:59:20.14	189.43	22.77	-59.9	-75.7	3.6	1.51e+00	0	47	104	0	60	237968
2026-01-28 22:59:21.14	189.49	22.63	-60.0	-76.0	3.6	1.51e+00	0	47	104	0	60	245840
2026-01-28 22:59:22.15	189.54	22.49	-59.9	-76.2	3.6	1.51e+00	0	46	104	0	60	252018
2026-01-28 22:59:23.15	189.59	22.34	-60.0	-76.1	3.6	1.51e+00	0	47	104	0	60	251358
2026-01-28 22:59:24.16	189.65	22.20	-59.9	-75.7	3.6	1.51e+00	0	46	104	0	60	238103
2026-01-28 22:59:25.17	189.70	22.06	-60.0	-75.9	3.6	1.51e+00	0	47	104	0	60	243703
2026-01-28 22:59:26.17	189.75	21.92	-59.9	-76.2	3.6	1.51e+00	0	47	104	0	60	252640
2026-01-28 22:59:27.18	189.80	21.78	-59.9	-76.2	3.6	1.51e+00	0	46	104	0	60	252128
2026-01-28 22:59:28.19	189.85	21.64	-59.8	-75.6	3.6	1.51e+00	0	46	104	0	60	236287
2026-01-28 22:59:29.19	189.90	21.51	-59.9	-76.0	3.6	1.51e+00	0	47	104	0	60	246950
2026-01-28 22:59:30.20	189.95	21.37	-59.8	-76.1	3.6	1.51e+00	0	47	104	0	60	250137
2026-01-28 22:59:31.20	190.00	21.23	-59.9	-76.0	3.6	1.51e+00	0	46	104	0	60	247351
2026-01-28 22:59:32.21	190.05	21.10	-59.8	-75.7	3.6	1.51e+00	0	46	104	0	60	238409
2026-01-28 22:59:33.21	190.10	20.96	-59.8	-75.8	3.6	1.51e+00	0	46	104	0	60	242177
2026-01-28 22:59:34.21	190.15	20.83	-59.8	-76.0	3.6	1.51e+00	0	47	104	0	60	247420
2026-01-28 22:59:35.21	190.20	20.70	-59.8	-75.9	3.6	1.51e+00	0	46	104	0	60	245582
2026-01-28 22:59:36.22	190.24	20.56	-59.7	-75.5	3.6	1.51e+00	0	46	104	0	60	233087
2026-01-28 22:59:37.22	190.29	20.43	-59.7	-75.8	3.6	1.51e+00	0	46	104	0	60	241827
2026-01-28 22:59:38.23	190.34	20.30	-59.6	-75.9	3.6	1.51e+00	0	47	104	0	60	245261
2026-01-28 22:59:39.24	190.39	20.17	-59.7	-75.9	3.6	1.51e+00	0	47	104	0	60	243165
2026-01-28 22:59:40.24	190.43	20.04	-59.5	-75.3	3.6	1.51e+00	0	47	104	0	60	228036
2026-01-28 22:59:41.24	190.48	19.91	-59.7	-75.7	3.6	1.51e+00	0	47	104	0	60	238397
2026-01-28 22:59:42.25	190.52	19.78	-59.5	-75.8	3.6	1.51e+00	0	47	104	0	60	241716
2026-01-28 22:59:43.26	190.57	19.65	-59.6	-75.8	3.6	1.51e+00	0	47	104	0	60	241844
2026-01-28 22:59:44.27	190.61	19.52	-59.5	-75.4	3.6	1.51e+00	0	47	104	0	60	229917
2026-01-28 22:59:45.28	190.66	19.39	-59.6	-75.7	3.6	1.51e+00	0	46	104	0	60	238859
2026-01-28 22:59:46.29	190.70	19.27	-59.5	-75.8	3.6	1.51e+00	0	47	104	0	60	242374
2026-01-28 22:59:47.30	190.75	19.14	-59.5	-75.8	3.6	1.51e+00	0	47	104	0	60	241144
2026-01-28 22:59:48.30	190.79	19.02	-59.4	-75.4	3.6	1.51e+00	0	47	104	0	60	229453
2026-01-28 22:59:49.31	190.83	18.89	-59.6	-75.7	3.6	1.51e+00	0	47	104	0	60	237587
2026-01-28 22:59:50.32	190.87	18.77	-59.4	-75.8	3.6	1.51e+00	0	47	104	0	60	241425
2026-01-28 22:59:51.32	190.92	18.65	-59.5	-75.7	3.6	1.51e+00	0	46	104	0	60	239537
2026-01-28 22:59:52.33	190.96	18.52	-59.4	-75.4	3.6	1.51e+00	0	47	104	0	60	231283
2026-01-28 22:59:53.34	191.00	18.40	-59.5	-75.6	3.6	1.51e+00	0	47	104	0	60	236804
2026-01-28 22:59:54.35	191.04	18.28	-59.4	-75.8	3.6	1.51e+00	0	47	104	0	60	240468
2026-01-28 22:59:55.36	191.08	18.16	-59.4	-75.6	3.6	1.51e+00	0	46	104	0	60	236743
2026-01-28 22:59:56.37	191.13	18.04	-59.3	-75.3	3.6	1.51e+00	0	47	104	0	60	229311
2026-01-28 22:59:57.38	191.17	17.92	-59.4	-75.6	3.6	1.51e+00	0	47	104	0	60	235642
2026-01-28 22:59:58.38	191.21	17.80	-59.3	-75.6	3.6	1.51e+00	0	46	104	0	60	236782
2026-01-28 22:59:59.39	191.25	17.68	-59.3	-75.6	3.6	1.51e+00	0	46	104	0	60	235950
2026-01-28 23:00:00.40	191.29	17.56	-59.2	-75.3	3.6	1.51e+00	0	47	104	0	60	229050
2026-01-28 23:00:01.41	191.33	17.44	-59.3	-75.4	3.6	1.51e+00	0	47	104	0	60	232023
2026-01-28 23:00:02.42	191.37	17.32	-59.2	-75.5	3.6	1.51e+00	0	47	104	0	60	234218
2026-01-28 23:00:03.42	191.40	17.21	-59.2	-75.5	3.6	1.51e+00	0	47	104	0	60	233149
2026-01-28 23:00:04.43	191.44	17.09	-59.1	-75.2	3.6	1.51e+00	0	46	104	0	60	226553
2026-01-28 23:00:05.43	191.48	16.98	-59.2	-75.5	3.6	1.51e+00	0	47	104	0	60	232755
2026-01-28 23:00:06.44	191.52	16.86	-59.1	-75.5	3.6	1.51e+00	0	47	104	0	60	234353
2026-01-28 23:00:07.45	191.56	16.75	-59.1	-75.5	3.6	1.51e+00	0	47	104	0	60	233482
2026-01-28 23:00:08.45	191.60	16.63	-59.1	-75.2	3.6	1.51e+00	0	47	104	0	60	225789
2026-01-28 23:00:09.46	191.63	16.52	-59.2	-75.3	3.6	1.51e+00	0	47	104	0	60	228461
2026-01-28 23:00:10.46	191.67	16.41	-59.1	-75.4	3.6	1.51e+00	0	46	104	0	60	231772
2026-01-28 23:00:11.46	191.71	16.30	-59.1	-75.4	3.6	1.51e+00	0	46	104	0	60	230691
2026-01-28 23:00:12.47	191.74	16.18	-59.0	-75.2	3.6	1.51e+00	0	46	104	0	60	224228
2026-01-28 23:00:13.47	191.78	16.07	-59.1	-75.3	3.6	1.51e+00	0	46	104	0	60	228441
2026-01-28 23:00:14.48	191.82	15.96	-59.0	-75.4	3.6	1.51e+00	0	47	104	0	60	229866
2026-01-28 23:00:15.49	191.85	15.85	-59.0	-75.4	3.6	1.51e+00	0	46	104	0	60	230298
2026-01-28 23:00:16.49	191.89	15.74	-58.9	-75.1	3.6	1.51e+00	0	46	104	0	60	222780
2026-01-28 23:00:17.50	191.92	15.63	-59.1	-75.2	3.6	1.51e+00	0	46	104	0	60	226626
2026-01-28 23:00:18.50	191.96	15.53	-59.0	-75.3	3.6	1.51e+00	0	46	104	0	60	228665
2026-01-28 23:00:19.51	191.99	15.42	-59.0	-75.3	3.6	1.51e+00	0	47	104	0	60	227083
2026-01-28 23:00:20.52	192.03	15.31	-58.9	-75.1	3.6	1.51e+00	0	46	104	0	60	223335
2026-01-28 23:00:21.52	192.06	15.20	-59.0	-75.2	3.6	1.51e+00	0	47	104	0	60	225695
2026-01-28 23:00:22.53	192.10	15.09	-59.0	-75.3	3.6	1.51e+00	0	47	104	0	60	228490
