passes_logs/2026/01/28/R3.2S-Naryan-Mar/R3.2S-Naryan-Mar__20260128_144422_FENGYUN_3E_rec.log

#Pass ID: 20260128_144422_FENGYUN 3E
#Satellite: FENGYUN 3E
#Configuration: FENGYUN 3E
#almurnet v.1.7.20240730
#Start time: 2026-01-28 14:52:10

#Version: 2.2.20231116
#Station: R3.2S-Naryan-Mar
#Location: 53.008057 lon 67.646978 lat
#TLE: 1 49008U 21062A   26027.83084825  .00000170  00000+0  10081-3 0  9997
#TLE: 2 49008  98.7501  32.8098 0002509 114.2687 245.8752 14.19888158236667

#Time	Az	El	Level	Level2	SNR	BER	BlckErr	Temp	State	Recorded	gain1	gain2
2026-01-28 14:52:10.34	285.86	23.91	-55.7	-59.1	3.3	0.00e+00	0	47	0	0	60	106078
2026-01-28 14:52:11.34	286.14	23.88	-55.4	-73.3	3.6	8.45e-01	0	48	104	0	60	180532
2026-01-28 14:52:12.35	286.42	23.85	-56.8	-73.7	3.6	8.45e-01	0	48	104	0	60	190591
2026-01-28 14:52:13.36	286.70	23.82	-56.3	-74.0	3.6	8.45e-01	0	48	104	0	60	196378
2026-01-28 14:52:14.37	286.98	23.79	-55.8	-73.9	3.6	8.46e-01	0	48	104	0	60	193905
2026-01-28 14:52:15.37	287.26	23.76	-55.9	-74.0	3.6	8.46e-01	0	48	104	0	60	196502
2026-01-28 14:52:16.37	287.53	23.73	-56.3	-73.7	3.6	8.45e-01	0	48	104	0	60	190380
2026-01-28 14:52:17.38	287.81	23.69	-57.3	-73.6	3.6	8.44e-01	0	48	104	0	60	186628
2026-01-28 14:52:18.39	288.09	23.66	-58.3	-73.5	3.6	8.44e-01	0	48	104	0	60	185733
2026-01-28 14:52:19.39	288.36	23.63	-57.7	-73.4	3.6	8.45e-01	0	48	104	0	60	183314
2026-01-28 14:52:20.40	288.64	23.59	-58.9	-73.2	3.6	8.46e-01	0	48	104	0	60	178526
2026-01-28 14:52:21.41	288.91	23.56	-58.5	-73.3	3.6	8.45e-01	0	48	104	0	60	181668
2026-01-28 14:52:22.42	289.19	23.52	-60.0	-73.2	3.6	8.45e-01	0	48	104	0	60	179460
2026-01-28 14:52:23.42	289.46	23.48	-60.0	-73.3	3.6	8.45e-01	0	48	104	0	60	180346
2026-01-28 14:52:24.43	289.73	23.45	-60.0	-73.2	3.6	8.45e-01	0	48	104	0	60	179536
2026-01-28 14:52:25.43	290.00	23.41	-60.0	-73.2	3.6	8.45e-01	0	48	104	0	60	179114
2026-01-28 14:52:26.44	290.28	23.37	-60.0	-73.1	3.6	8.45e-01	0	48	104	0	60	177967
2026-01-28 14:52:27.44	290.54	23.33	-60.0	-73.2	3.6	8.46e-01	0	48	104	0	60	179965
2026-01-28 14:52:28.44	290.81	23.29	-60.0	-73.2	3.6	8.46e-01	0	48	104	0	60	178784
2026-01-28 14:52:29.45	291.08	23.25	-60.0	-73.2	3.6	8.44e-01	0	48	104	0	60	178957
2026-01-28 14:52:30.45	291.35	23.21	-60.0	-73.2	3.6	8.46e-01	0	48	104	0	60	178481
2026-01-28 14:52:31.46	291.62	23.17	-60.0	-73.2	3.6	8.46e-01	0	48	104	0	60	178845
2026-01-28 14:52:32.46	291.88	23.13	-60.0	-73.2	3.6	8.45e-01	0	48	104	0	60	178421
2026-01-28 14:52:33.47	292.15	23.09	-60.0	-73.2	3.6	8.45e-01	0	48	104	0	60	179585
2026-01-28 14:52:34.48	292.42	23.04	-60.0	-73.2	3.6	8.46e-01	0	48	104	0	60	178730
2026-01-28 14:52:35.48	292.68	23.00	-60.0	-73.2	3.6	8.46e-01	0	48	104	0	60	178595
2026-01-28 14:52:36.48	292.94	22.96	-60.0	-73.2	3.6	8.46e-01	0	48	104	0	60	179988
2026-01-28 14:52:37.49	293.21	22.91	-60.0	-73.2	3.6	8.45e-01	0	48	104	0	60	178400
2026-01-28 14:52:38.49	293.47	22.87	-60.0	-73.2	3.6	8.45e-01	0	48	104	0	60	178526
2026-01-28 14:52:39.50	293.73	22.82	-60.0	-73.1	3.6	8.45e-01	0	48	104	0	60	178001
2026-01-28 14:52:40.51	293.99	22.78	-60.0	-73.2	3.6	8.45e-01	0	48	104	0	60	179105
2026-01-28 14:52:41.51	294.25	22.73	-60.0	-73.0	3.6	8.46e-01	0	48	104	0	60	175836
2026-01-28 14:52:42.52	294.51	22.68	-59.9	-72.6	3.6	8.45e-01	0	48	104	0	60	168044
2026-01-28 14:52:43.53	294.77	22.63	-59.9	-72.3	3.6	8.46e-01	0	48	104	0	60	162294
2026-01-28 14:52:44.53	295.03	22.59	-59.9	-72.0	3.6	8.46e-01	0	48	104	0	60	156151
2026-01-28 14:52:45.54	295.29	22.54	-59.9	-72.1	3.6	8.45e-01	0	48	104	0	60	157765
2026-01-28 14:52:46.55	295.54	22.49	-59.9	-72.4	3.6	8.46e-01	0	48	104	0	60	163181
2026-01-28 14:52:47.55	295.80	22.44	-59.9	-72.8	3.6	8.44e-01	0	48	104	0	60	171792
2026-01-28 14:52:48.56	296.05	22.39	-59.9	-73.0	3.6	8.46e-01	0	48	104	0	60	175547
2026-01-28 14:52:49.56	296.31	22.34	-59.9	-73.1	3.6	8.45e-01	0	48	104	0	60	176539
2026-01-28 14:52:50.57	296.56	22.29	-59.9	-73.1	3.6	8.45e-01	0	48	104	0	60	176225
2026-01-28 14:52:51.57	296.81	22.24	-59.9	-73.1	3.6	8.46e-01	0	48	104	0	60	176728
2026-01-28 14:52:52.58	297.06	22.18	-59.9	-73.1	3.6	8.45e-01	0	48	104	0	60	177153
2026-01-28 14:52:53.59	297.32	22.13	-59.9	-73.0	3.6	8.45e-01	0	48	104	0	60	175274
2026-01-28 14:52:54.59	297.56	22.08	-59.9	-73.1	3.6	8.46e-01	0	48	104	0	60	177124
2026-01-28 14:52:55.60	297.81	22.03	-59.9	-73.0	3.6	8.46e-01	0	48	104	0	60	175299
2026-01-28 14:52:56.60	298.06	21.97	-59.9	-72.9	3.6	8.45e-01	0	48	104	0	60	173765
2026-01-28 14:52:57.61	298.31	21.92	-59.9	-73.1	3.6	8.45e-01	0	48	104	0	60	176068
2026-01-28 14:52:58.61	298.55	21.86	-59.9	-72.7	3.6	8.45e-01	0	48	104	0	60	169377
2026-01-28 14:52:59.62	298.80	21.81	-59.9	-72.7	3.6	8.45e-01	0	48	104	0	60	168786
2026-01-28 14:53:00.62	299.04	21.75	-59.9	-72.3	3.6	8.46e-01	0	48	104	0	60	162200
2026-01-28 14:53:01.63	299.29	21.70	-59.5	-68.2	4.6	8.35e-01	0	48	104	0	60	101241
2026-01-28 14:53:02.64	299.53	21.64	-59.1	-65.1	6.0	3.22e-01	0	48	0	3145728	60	70107
2026-01-28 14:53:03.65	299.78	21.58	-58.7	-63.7	7.6	1.77e-01	0	48	0	10485760	60	60010
2026-01-28 14:53:04.65	300.02	21.53	-55.7	-57.9	14.4	5.09e-04	0	48	0	17825792	60	30927
2026-01-28 14:53:05.66	300.26	21.47	-58.1	-70.5	3.4	2.95e-02	0	48	0	24117248	60	130843
2026-01-28 14:53:06.67	300.50	21.41	-58.2	-67.3	4.3	8.45e-01	0	48	104	24117248	60	90986
2026-01-28 14:53:07.68	300.74	21.35	-55.9	-58.6	12.5	8.16e-04	0	48	104	24117248	60	33521
2026-01-28 14:53:08.68	300.98	21.30	-57.8	-67.0	4.4	8.04e-01	0	47	0	1048576	60	88026
2026-01-28 14:53:09.68	301.21	21.24	-51.2	-52.2	20.0	2.52e-01	0	47	0	3145728	60	15904
2026-01-28 14:53:10.68	301.45	21.18	-52.2	-53.4	18.5	0.00e+00	0	47	0	10485760	60	18228
2026-01-28 14:53:11.69	301.68	21.12	-50.6	-51.5	20.0	0.00e+00	0	48	0	17825792	60	14783
2026-01-28 14:53:12.70	301.92	21.06	-50.9	-52.0	20.3	0.00e+00	0	47	0	25165824	60	15581
2026-01-28 14:53:13.70	302.15	21.00	-49.6	-50.6	21.6	0.00e+00	0	48	0	32505856	60	13327
2026-01-28 14:53:14.71	302.38	20.94	-48.6	-49.6	22.4	0.00e+00	0	47	0	38797312	60	11783
2026-01-28 14:53:15.71	302.61	20.88	-47.8	-48.8	23.1	0.00e+00	0	48	0	46137344	60	10812
2026-01-28 14:53:16.72	302.84	20.82	-47.8	-48.8	23.0	0.00e+00	0	47	0	53477376	60	10793
2026-01-28 14:53:17.73	303.07	20.76	-47.7	-48.8	23.0	0.00e+00	0	47	0	60817408	60	10736
2026-01-28 14:53:18.74	303.30	20.69	-47.3	-48.3	23.4	0.00e+00	0	47	0	68157440	60	10187
2026-01-28 14:53:19.74	303.53	20.63	-47.3	-48.2	23.4	0.00e+00	0	48	0	75497472	60	10127
2026-01-28 14:53:20.75	303.76	20.57	-47.3	-48.3	23.4	0.00e+00	0	47	0	82837504	60	10166
2026-01-28 14:53:21.76	303.99	20.51	-47.1	-48.0	23.6	0.00e+00	0	47	0	90177536	60	9868
2026-01-28 14:53:22.77	304.21	20.45	-47.0	-47.8	23.8	0.00e+00	0	47	0	97517568	60	9629
2026-01-28 14:53:23.78	304.44	20.38	-46.9	-47.7	23.9	0.00e+00	0	48	0	104857600	60	9490
2026-01-28 14:53:24.78	304.66	20.32	-47.0	-47.7	23.9	0.00e+00	0	48	0	112197632	60	9530
2026-01-28 14:53:25.78	304.88	20.26	-47.0	-47.8	23.8	0.00e+00	0	47	0	119537664	60	9565
2026-01-28 14:53:26.79	305.10	20.19	-47.1	-47.7	23.9	0.00e+00	0	48	0	126877696	60	9539
2026-01-28 14:53:27.80	305.33	20.13	-47.1	-47.7	23.9	0.00e+00	0	47	0	134217728	60	9558
2026-01-28 14:53:28.81	305.55	20.06	-47.2	-47.8	23.8	0.00e+00	0	47	0	141557760	60	9616
2026-01-28 14:53:29.81	305.76	20.00	-47.3	-48.0	23.7	0.00e+00	0	48	0	147849216	60	9833
2026-01-28 14:53:30.81	305.98	19.93	-47.4	-48.1	23.6	0.00e+00	0	47	0	155189248	60	9931
2026-01-28 14:53:31.82	306.20	19.87	-47.4	-48.2	23.5	0.00e+00	0	48	0	162529280	60	10037
2026-01-28 14:53:32.82	306.41	19.80	-47.5	-48.3	23.4	0.00e+00	0	47	0	169869312	60	10160
2026-01-28 14:53:33.83	306.63	19.74	-47.4	-48.2	23.4	0.00e+00	0	48	0	177209344	60	10097
2026-01-28 14:53:34.84	306.85	19.67	-47.5	-48.4	23.3	0.00e+00	0	47	0	184549376	60	10253
2026-01-28 14:53:35.85	307.06	19.61	-47.4	-48.3	23.3	0.00e+00	0	48	0	191889408	60	10230
2026-01-28 14:53:36.85	307.27	19.54	-47.3	-48.3	23.4	0.00e+00	0	47	0	199229440	60	10160
2026-01-28 14:53:37.86	307.48	19.47	-47.4	-48.4	23.3	0.00e+00	0	47	0	205520896	60	10273
2026-01-28 14:53:38.86	307.69	19.41	-47.2	-48.2	23.4	0.00e+00	0	47	0	213909504	60	10094
2026-01-28 14:53:39.87	307.91	19.34	-47.1	-48.1	23.5	0.00e+00	0	47	0	221249536	60	9970
2026-01-28 14:53:40.86	308.11	19.27	-47.3	-48.3	23.4	0.00e+00	0	48	0	228589568	60	10156
2026-01-28 14:53:41.87	308.32	19.21	-47.2	-48.2	23.5	0.00e+00	0	47	0	235929600	60	10073
2026-01-28 14:53:42.88	308.53	19.14	-47.3	-48.2	23.4	0.00e+00	0	47	0	243269632	60	10128
2026-01-28 14:53:43.89	308.74	19.07	-47.4	-48.2	23.4	0.00e+00	0	47	0	249561088	60	10110
2026-01-28 14:53:44.89	308.94	19.00	-47.4	-48.2	23.5	0.00e+00	0	47	0	256901120	60	10023
2026-01-28 14:53:45.89	309.14	18.94	-47.4	-48.2	23.5	0.00e+00	0	47	0	264241152	60	10016
2026-01-28 14:53:46.90	309.35	18.87	-47.5	-48.3	23.3	0.00e+00	0	47	0	271581184	60	10129
2026-01-28 14:53:47.90	309.55	18.80	-47.6	-48.3	23.4	0.00e+00	0	47	0	278921216	60	10178
2026-01-28 14:53:48.90	309.75	18.73	-47.7	-48.4	23.4	0.00e+00	0	47	0	286261248	60	10328
2026-01-28 14:53:49.90	309.95	18.67	-47.7	-48.5	23.3	0.00e+00	0	47	0	293601280	60	10413
2026-01-28 14:53:50.91	310.15	18.60	-47.9	-48.7	23.0	0.00e+00	0	47	0	300941312	60	10631
2026-01-28 14:53:51.92	310.35	18.53	-47.9	-48.7	23.2	0.00e+00	0	47	0	308281344	60	10639
2026-01-28 14:53:52.93	310.55	18.46	-47.9	-48.8	23.0	0.00e+00	0	47	0	314572800	60	10787
2026-01-28 14:53:53.94	310.75	18.39	-48.1	-48.9	23.0	0.00e+00	0	47	0	321912832	60	10979
2026-01-28 14:53:54.94	310.94	18.32	-48.0	-48.9	22.9	0.00e+00	0	47	0	329252864	60	10947
2026-01-28 14:53:55.95	311.14	18.25	-47.9	-48.8	23.0	0.00e+00	0	47	0	336592896	60	10840
2026-01-28 14:53:56.96	311.34	18.18	-47.9	-48.9	23.0	0.00e+00	0	47	0	344981504	60	10860
2026-01-28 14:53:57.97	311.53	18.11	-47.8	-48.8	23.0	0.00e+00	0	47	0	352321536	60	10817
2026-01-28 14:53:58.97	311.72	18.04	-47.7	-48.8	23.0	0.00e+00	0	47	0	358612992	60	10800
2026-01-28 14:53:59.98	311.92	17.97	-47.6	-48.7	23.1	0.00e+00	0	47	0	365953024	60	10716
2026-01-28 14:54:00.98	312.11	17.90	-47.7	-48.9	22.9	0.00e+00	0	47	0	373293056	60	10925
2026-01-28 14:54:01.99	312.30	17.83	-47.6	-48.8	23.1	0.00e+00	0	47	0	380633088	60	10761
2026-01-28 14:54:02.98	312.49	17.76	-47.8	-48.9	23.0	0.00e+00	0	47	0	387973120	60	10897
2026-01-28 14:54:03.99	312.68	17.69	-47.8	-48.8	23.1	0.00e+00	0	47	0	395313152	60	10835
2026-01-28 14:54:04.99	312.86	17.62	-47.9	-48.9	23.2	0.00e+00	0	47	0	402653184	60	10882
2026-01-28 14:54:05.99	313.05	17.55	-47.9	-48.8	23.2	0.00e+00	0	47	0	409993216	60	10791
2026-01-28 14:54:06.99	313.23	17.48	-48.0	-48.8	23.2	0.00e+00	0	47	0	416284672	60	10772
2026-01-28 14:54:07.99	313.42	17.41	-48.0	-48.8	23.2	0.00e+00	0	47	0	423624704	60	10798
2026-01-28 14:54:08.98	313.60	17.34	-48.1	-48.9	23.1	0.00e+00	0	47	0	430964736	60	10869
2026-01-28 14:54:09.97	313.78	17.27	-48.0	-48.8	23.2	0.00e+00	0	47	0	438304768	60	10809
2026-01-28 14:54:10.95	313.96	17.21	-47.9	-48.8	23.2	0.00e+00	0	47	0	444596224	60	10752
2026-01-28 14:54:11.94	314.14	17.14	-47.8	-48.8	23.1	0.00e+00	0	47	0	451936256	60	10791
2026-01-28 14:54:12.93	314.32	17.07	-47.8	-48.9	23.1	0.00e+00	0	47	0	459276288	60	10913
2026-01-28 14:54:13.93	314.50	17.00	-47.8	-49.0	23.0	0.00e+00	0	47	0	466616320	60	10998
2026-01-28 14:54:14.94	314.68	16.92	-47.8	-49.1	22.8	0.00e+00	0	47	0	473956352	60	11145
2026-01-28 14:54:15.93	314.85	16.85	-47.8	-49.2	22.7	0.00e+00	0	47	0	481296384	60	11319
2026-01-28 14:54:16.94	315.03	16.78	-47.9	-49.3	22.6	0.00e+00	0	47	0	488636416	60	11434
2026-01-28 14:54:17.94	315.21	16.71	-48.0	-49.4	22.5	0.00e+00	0	47	0	495976448	60	11607
2026-01-28 14:54:18.94	315.39	16.64	-48.0	-49.4	22.4	0.00e+00	0	47	0	502267904	60	11600
2026-01-28 14:54:19.93	315.56	16.57	-48.1	-49.5	22.3	0.00e+00	0	47	0	509607936	60	11637
2026-01-28 14:54:20.93	315.73	16.50	-48.1	-49.4	22.3	0.00e+00	0	47	0	516947968	60	11571
2026-01-28 14:54:21.92	315.90	16.43	-48.1	-49.3	22.4	0.00e+00	0	47	0	524288000	60	11489
2026-01-28 14:54:22.91	316.07	16.36	-48.2	-49.3	22.5	0.00e+00	0	47	0	531628032	60	11391
2026-01-28 14:54:23.92	316.25	16.29	-48.0	-49.0	22.7	0.00e+00	0	47	0	538968064	60	11078
2026-01-28 14:54:24.92	316.42	16.22	-48.0	-48.9	22.8	0.00e+00	0	47	0	546308096	60	10950
2026-01-28 14:54:25.92	316.59	16.15	-47.8	-48.8	22.9	0.00e+00	0	47	0	553648128	60	10821
2026-01-28 14:54:26.92	316.76	16.08	-47.8	-48.8	22.8	0.00e+00	0	47	0	559939584	60	10824
2026-01-28 14:54:27.92	316.93	16.00	-47.7	-48.8	22.9	0.00e+00	0	47	0	567279616	60	10754
2026-01-28 14:54:28.93	317.09	15.93	-47.6	-48.8	22.9	0.00e+00	0	47	0	574619648	60	10772
2026-01-28 14:54:29.94	317.26	15.86	-47.5	-48.7	22.8	0.00e+00	0	47	0	581959680	60	10712
2026-01-28 14:54:30.94	317.43	15.79	-47.5	-48.7	22.8	0.00e+00	0	47	0	589299712	60	10720
2026-01-28 14:54:31.95	317.60	15.72	-47.6	-48.9	22.7	0.00e+00	0	47	0	596639744	60	10952
2026-01-28 14:54:32.95	317.76	15.65	-47.5	-48.9	22.6	0.00e+00	0	47	0	603979776	60	10971
2026-01-28 14:54:33.96	317.93	15.58	-47.5	-49.0	22.6	0.00e+00	0	47	0	611319808	60	10995
2026-01-28 14:54:34.96	318.09	15.50	-47.6	-49.1	22.4	0.00e+00	0	47	0	618659840	60	11116
2026-01-28 14:54:35.97	318.25	15.43	-47.7	-49.2	22.4	0.00e+00	0	47	0	625999872	60	11243
2026-01-28 14:54:36.98	318.42	15.36	-47.9	-49.4	22.2	0.00e+00	0	47	0	633339904	60	11500
2026-01-28 14:54:37.98	318.58	15.29	-48.0	-49.4	22.1	0.00e+00	0	47	0	640679936	60	11625
2026-01-28 14:54:38.99	318.74	15.22	-48.3	-49.7	21.9	0.00e+00	0	47	0	648019968	60	11968
2026-01-28 14:54:40.00	318.90	15.15	-48.4	-49.8	21.8	0.00e+00	0	47	0	655360000	60	12085
2026-01-28 14:54:41.01	319.06	15.07	-48.5	-49.9	21.8	0.00e+00	0	47	0	662700032	60	12275
2026-01-28 14:54:42.02	319.22	15.00	-48.5	-49.9	21.7	0.00e+00	0	47	0	668991488	60	12245
2026-01-28 14:54:43.02	319.38	14.93	-48.6	-49.9	21.6	0.00e+00	0	47	0	676331520	60	12310
2026-01-28 14:54:44.03	319.53	14.86	-48.5	-49.8	21.8	0.00e+00	0	47	0	683671552	60	12132
2026-01-28 14:54:45.04	319.69	14.79	-48.3	-49.7	21.9	0.00e+00	0	47	0	691011584	60	11995
2026-01-28 14:54:46.04	319.85	14.72	-48.2	-49.6	22.0	0.00e+00	0	47	0	698351616	60	11876
2026-01-28 14:54:47.04	320.00	14.64	-48.0	-49.6	22.0	0.00e+00	0	47	0	705691648	60	11855
2026-01-28 14:54:48.05	320.16	14.57	-47.9	-49.6	22.0	0.00e+00	0	47	0	713031680	60	11808
2026-01-28 14:54:49.06	320.31	14.50	-47.8	-49.6	22.0	0.00e+00	0	47	0	720371712	60	11833
2026-01-28 14:54:50.06	320.46	14.43	-47.6	-49.6	22.0	0.00e+00	0	47	0	727711744	60	11831
2026-01-28 14:54:51.07	320.62	14.36	-47.5	-49.6	22.1	0.00e+00	0	47	0	735051776	60	11821
2026-01-28 14:54:52.08	320.77	14.29	-47.4	-49.6	21.9	0.00e+00	0	47	0	742391808	60	11842
2026-01-28 14:54:53.09	320.92	14.22	-47.5	-49.7	21.8	0.00e+00	0	47	0	749731840	60	11910
2026-01-28 14:54:54.09	321.07	14.14	-47.4	-49.7	21.8	0.00e+00	0	47	0	757071872	60	11913
2026-01-28 14:54:55.09	321.22	14.07	-47.7	-49.8	21.7	0.00e+00	0	47	0	764411904	60	12079
2026-01-28 14:54:56.10	321.37	14.00	-47.8	-49.9	21.5	0.00e+00	0	47	0	771751936	60	12271
2026-01-28 14:54:57.11	321.51	13.93	-48.2	-50.1	21.2	0.00e+00	0	47	0	778043392	60	12516
2026-01-28 14:54:58.11	321.66	13.86	-48.5	-50.3	21.0	0.00e+00	0	47	0	785383424	60	12872
2026-01-28 14:54:59.12	321.81	13.79	-48.9	-50.5	20.8	0.00e+00	0	47	0	792723456	60	13151
2026-01-28 14:55:00.13	321.96	13.72	-49.3	-50.8	20.4	0.00e+00	0	47	0	800063488	60	13553
2026-01-28 14:55:01.14	322.10	13.65	-49.7	-51.1	20.2	0.00e+00	0	47	0	807403520	60	13990
2026-01-28 14:55:02.14	322.24	13.58	-50.0	-51.4	19.8	0.00e+00	0	47	0	814743552	60	14479
2026-01-28 14:55:03.14	322.39	13.51	-50.3	-51.6	19.6	0.00e+00	0	47	0	822083584	60	14937
2026-01-28 14:55:04.15	322.53	13.43	-50.4	-51.8	19.2	0.00e+00	0	47	0	829423616	60	15325
2026-01-28 14:55:05.16	322.68	13.36	-50.4	-52.0	19.1	0.00e+00	0	47	0	835715072	60	15629
2026-01-28 14:55:06.16	322.82	13.29	-50.3	-52.2	18.9	0.00e+00	0	47	0	844103680	60	15917
2026-01-28 14:55:07.17	322.96	13.22	-50.1	-52.3	18.9	0.00e+00	0	47	0	851443712	60	16108
2026-01-28 14:55:08.18	323.10	13.15	-50.0	-52.4	18.7	0.00e+00	0	47	0	858783744	60	16258
2026-01-28 14:55:09.18	323.24	13.08	-50.0	-52.4	18.7	0.00e+00	0	47	0	866123776	60	16335
2026-01-28 14:55:10.18	323.38	13.01	-50.0	-52.5	18.5	0.00e+00	0	47	0	873463808	60	16585
2026-01-28 14:55:11.18	323.52	12.94	-50.1	-52.6	18.4	0.00e+00	0	47	0	879755264	60	16722
2026-01-28 14:55:12.19	323.65	12.87	-50.1	-52.6	18.3	0.00e+00	0	47	0	887095296	60	16778
2026-01-28 14:55:13.19	323.79	12.80	-50.2	-52.8	18.0	0.00e+00	0	47	0	894435328	60	17110
2026-01-28 14:55:14.20	323.93	12.73	-50.3	-52.8	17.9	0.00e+00	0	47	0	901775360	60	17186
2026-01-28 14:55:15.20	324.06	12.66	-50.4	-52.9	17.8	0.00e+00	0	47	0	909115392	60	17349
2026-01-28 14:55:16.22	324.20	12.59	-50.3	-52.9	17.8	0.00e+00	0	47	0	916455424	60	17273
2026-01-28 14:55:17.22	324.34	12.52	-50.4	-53.0	17.6	0.00e+00	0	47	0	923795456	60	17530
2026-01-28 14:55:18.23	324.47	12.45	-50.7	-53.2	17.5	0.00e+00	0	47	0	931135488	60	17984
2026-01-28 14:55:19.24	324.60	12.38	-50.9	-53.3	17.2	0.00e+00	0	47	0	938475520	60	18100
2026-01-28 14:55:20.25	324.74	12.31	-51.3	-53.6	16.9	0.00e+00	0	47	0	944766976	60	18696
2026-01-28 14:55:21.25	324.87	12.24	-51.5	-53.6	16.8	0.00e+00	0	47	0	952107008	60	18845
2026-01-28 14:55:22.26	325.00	12.17	-52.0	-53.9	16.5	0.00e+00	0	47	0	959447040	60	19375
2026-01-28 14:55:23.26	325.13	12.10	-52.3	-54.1	16.2	0.00e+00	0	47	0	967835648	60	19890
2026-01-28 14:55:24.26	325.26	12.03	-52.6	-54.4	15.9	0.00e+00	0	47	0	975175680	60	20678
2026-01-28 14:55:25.27	325.39	11.96	-52.8	-54.7	15.7	0.00e+00	0	47	0	982515712	60	21323
2026-01-28 14:55:26.27	325.52	11.89	-52.9	-55.0	15.3	0.00e+00	0	47	0	988807168	60	22001
2026-01-28 14:55:27.26	325.65	11.82	-52.8	-55.3	15.0	0.00e+00	0	47	0	996147200	60	22894
2026-01-28 14:55:28.27	325.78	11.75	-52.7	-55.6	14.7	0.00e+00	0	47	0	1003487232	60	23539
2026-01-28 14:55:29.27	325.91	11.68	-52.6	-55.8	14.5	1.10e-06	0	47	0	1010827264	60	24146
2026-01-28 14:55:30.28	326.03	11.61	-52.6	-56.1	14.1	3.40e-06	0	47	0	1018167296	60	25014
2026-01-28 14:55:31.29	326.16	11.54	-52.6	-56.4	13.9	5.70e-06	0	47	0	1025507328	60	25781
2026-01-28 14:55:32.29	326.29	11.47	-52.6	-56.6	13.6	9.10e-06	0	47	0	1032847360	60	26347
2026-01-28 14:55:33.30	326.41	11.41	-52.7	-56.8	13.3	1.02e-05	0	47	0	1040187392	60	27020
2026-01-28 14:55:34.31	326.54	11.34	-53.0	-57.0	13.0	3.08e-05	0	47	0	1046478848	60	27802
2026-01-28 14:55:35.31	326.66	11.27	-53.4	-57.3	12.7	7.89e-05	0	47	0	1053818880	60	28780
2026-01-28 14:55:36.32	326.79	11.20	-53.5	-57.6	12.3	1.15e-04	0	47	0	1061158912	60	29688
2026-01-28 14:55:37.33	326.91	11.13	-53.8	-57.8	12.1	2.31e-04	0	47	0	1068498944	60	30468
2026-01-28 14:55:38.33	327.03	11.06	-54.1	-58.1	11.8	5.46e-04	0	47	0	1075838976	60	31625
2026-01-28 14:55:39.34	327.15	10.99	-54.2	-58.4	11.4	8.10e-04	0	47	0	1083179008	60	32709
2026-01-28 14:55:40.34	327.27	10.92	-54.2	-58.6	11.2	1.31e-03	0	47	0	1090519040	60	33281
2026-01-28 14:55:41.35	327.40	10.86	-54.3	-58.9	10.9	2.43e-03	0	47	0	1097859072	60	34546
2026-01-28 14:55:42.36	327.52	10.79	-54.3	-59.2	10.5	3.80e-03	0	47	0	1105199104	60	35580
2026-01-28 14:55:43.37	327.64	10.72	-54.5	-59.5	10.1	6.01e-03	0	47	0	1112539136	60	36829
2026-01-28 14:55:44.38	327.76	10.65	-54.7	-59.7	9.9	8.29e-03	0	47	0	1119879168	60	37958
2026-01-28 14:55:45.38	327.88	10.58	-54.8	-59.9	9.6	1.26e-02	0	47	0	1127219200	60	38922
2026-01-28 14:55:46.39	327.99	10.51	-55.1	-60.2	9.3	1.65e-02	0	47	0	1134559232	60	39870
2026-01-28 14:55:47.40	328.11	10.45	-55.3	-60.4	9.0	2.18e-02	0	47	0	1141899264	60	41210
2026-01-28 14:55:48.40	328.23	10.38	-55.7	-60.8	8.7	3.38e-02	0	47	0	1149239296	60	42833
2026-01-28 14:55:49.41	328.35	10.31	-55.9	-61.0	8.3	4.48e-02	0	47	0	1155530752	60	44122
2026-01-28 14:55:50.41	328.46	10.24	-56.1	-61.3	8.0	6.42e-02	0	47	0	1162870784	60	45634
2026-01-28 14:55:51.42	328.58	10.18	-56.1	-61.5	7.7	7.85e-02	0	47	0	1170210816	60	46654
2026-01-28 14:55:52.43	328.69	10.11	-56.2	-61.7	7.4	1.02e-01	0	47	0	1177550848	60	47867
2026-01-28 14:55:53.44	328.81	10.04	-56.2	-62.1	7.1	1.39e-01	0	47	0	1184890880	60	50088
2026-01-28 14:55:54.44	328.92	9.97	-56.1	-62.4	6.7	1.80e-01	0	47	0	1192230912	60	51824
2026-01-28 14:55:55.45	329.04	9.91	-56.1	-62.7	6.3	2.30e-01	0	47	0	1199570944	60	53490
2026-01-28 14:55:56.45	329.15	9.84	-56.1	-62.9	6.1	2.75e-01	0	47	0	1206910976	60	54903
2026-01-28 14:55:57.46	329.26	9.77	-56.2	-63.2	5.8	3.39e-01	0	47	0	1214251008	60	56801
2026-01-28 14:55:58.47	329.38	9.70	-56.3	-63.6	5.5	5.35e-01	0	47	0	1220542464	60	59008
2026-01-28 14:55:59.48	329.49	9.64	-56.4	-63.8	5.2	6.98e-01	0	47	0	1224736768	60	60819
2026-01-28 14:56:00.48	329.60	9.57	-56.5	-64.2	4.9	7.46e-01	0	47	0	1225785344	60	63285
2026-01-28 14:56:01.48	329.71	9.50	-56.7	-64.4	4.7	7.68e-01	0	47	0	1226833920	60	65261
2026-01-28 14:56:02.48	329.82	9.44	-56.8	-64.8	4.4	7.94e-01	0	47	0	1226833920	60	68363
2026-01-28 14:56:03.49	329.93	9.37	-56.9	-65.2	4.2	8.10e-01	0	47	0	1226833920	60	71218
2026-01-28 14:56:04.50	330.04	9.30	-57.0	-65.6	4.0	8.24e-01	0	47	0	1226833920	60	74275
2026-01-28 14:56:05.51	330.15	9.24	-57.1	-66.0	3.9	8.29e-01	0	47	0	1226833920	60	77977
2026-01-28 14:56:06.52	330.26	9.17	-57.2	-66.3	3.8	8.33e-01	0	47	0	1226833920	60	80596
2026-01-28 14:56:07.52	330.36	9.11	-57.2	-68.0	3.9	8.39e-01	0	47	104	1226833920	60	98853
2026-01-28 14:56:08.53	330.47	9.04	-57.2	-68.3	3.8	8.42e-01	0	47	104	1226833920	60	101795
2026-01-28 14:56:09.53	330.58	8.97	-57.1	-68.7	3.7	8.43e-01	0	47	104	1226833920	60	106220
2026-01-28 14:56:10.54	330.69	8.91	-57.1	-69.0	3.7	8.43e-01	0	47	104	1226833920	60	110080
2026-01-28 14:56:11.55	330.79	8.84	-57.2	-69.2	3.7	8.44e-01	0	47	104	1226833920	60	113002
2026-01-28 14:56:12.56	330.90	8.78	-57.2	-69.4	3.6	8.45e-01	0	47	104	1226833920	60	115148
2026-01-28 14:56:13.56	331.00	8.71	-57.2	-69.6	3.6	8.45e-01	0	47	104	1226833920	60	118946
2026-01-28 14:56:14.57	331.11	8.64	-57.3	-69.8	3.6	8.45e-01	0	47	104	1226833920	60	121055
2026-01-28 14:56:15.57	331.21	8.58	-57.0	-70.8	3.6	8.45e-01	0	47	104	1226833920	60	135565
2026-01-28 14:56:16.58	331.32	8.51	-56.7	-71.3	3.6	8.45e-01	0	47	104	1226833920	60	143386
2026-01-28 14:56:17.58	331.42	8.45	-56.9	-70.7	3.6	8.45e-01	0	47	104	1226833920	60	134950
2026-01-28 14:56:18.59	331.52	8.38	-56.8	-70.6	3.6	8.44e-01	0	47	104	1226833920	60	132964
2026-01-28 14:56:19.59	331.62	8.32	-57.4	-70.6	3.6	8.45e-01	0	47	104	1226833920	60	133444
2026-01-28 14:56:20.60	331.73	8.25	-56.9	-70.8	3.6	8.46e-01	0	47	104	1226833920	60	136254
2026-01-28 14:56:21.61	331.83	8.19	-57.0	-70.9	3.6	8.45e-01	0	47	104	1226833920	60	138213
2026-01-28 14:56:22.61	331.93	8.12	-56.4	-71.3	3.6	8.46e-01	0	47	104	1226833920	60	143511
2026-01-28 14:56:23.62	332.03	8.06	-57.0	-71.1	3.6	8.44e-01	0	47	104	1226833920	60	141176
2026-01-28 14:56:24.64	332.13	7.99	-55.8	-71.4	3.6	8.46e-01	0	47	104	1226833920	60	145432
2026-01-28 14:56:25.64	332.23	7.93	-54.9	-71.6	3.6	8.45e-01	0	47	104	1226833920	60	148394
2026-01-28 14:56:26.65	332.33	7.87	-56.3	-71.5	3.6	8.45e-01	0	47	104	1226833920	60	147577
2026-01-28 14:56:27.66	332.43	7.80	-56.9	-71.3	3.6	8.46e-01	0	47	104	1226833920	60	144171
2026-01-28 14:56:28.67	332.53	7.74	-55.3	-71.5	3.6	8.45e-01	0	47	104	1226833920	60	146941
2026-01-28 14:56:29.67	332.63	7.67	-56.0	-71.5	3.6	8.46e-01	0	47	104	1226833920	60	147238
2026-01-28 14:56:30.67	332.73	7.61	-56.9	-71.4	3.6	8.45e-01	0	47	104	1226833920	60	145997
2026-01-28 14:56:31.68	332.82	7.54	-57.2	-71.4	3.6	8.46e-01	0	47	104	1226833920	60	145264
2026-01-28 14:56:32.68	332.92	7.48	-57.3	-71.5	3.6	8.46e-01	0	47	104	1226833920	60	148060
2026-01-28 14:56:33.69	333.02	7.42	-57.7	-71.3	3.6	8.45e-01	0	47	104	1226833920	60	143849
2026-01-28 14:56:34.69	333.11	7.35	-57.4	-71.1	3.6	8.46e-01	0	47	104	1226833920	60	140971
2026-01-28 14:56:35.69	333.21	7.29	-57.5	-71.2	3.5	8.45e-01	0	47	104	1226833920	60	141745
2026-01-28 14:56:36.70	333.30	7.23	-56.9	-70.9	3.6	8.45e-01	0	47	104	1226833920	60	138172
2026-01-28 14:56:37.71	333.40	7.16	-56.8	-71.0	3.6	8.45e-01	0	47	104	1226833920	60	139082
2026-01-28 14:56:38.72	333.50	7.10	-57.2	-71.1	3.6	8.45e-01	0	47	104	1226833920	60	140754
2026-01-28 14:56:39.73	333.59	7.04	-57.3	-71.5	3.6	8.46e-01	0	47	104	1226833920	60	146985
2026-01-28 14:56:40.74	333.68	6.97	-57.1	-71.1	3.6	8.45e-01	0	47	104	1226833920	60	140324
2026-01-28 14:56:41.74	333.78	6.91	-55.7	-70.5	3.6	8.45e-01	0	47	104	1226833920	60	130914
2026-01-28 14:56:42.75	333.87	6.85	-56.0	-70.7	3.6	8.45e-01	0	47	104	1226833920	60	134343
2026-01-28 14:56:43.76	333.96	6.78	-56.1	-70.8	3.6	8.44e-01	0	47	104	1226833920	60	135126
2026-01-28 14:56:44.76	334.06	6.72	-55.7	-70.5	3.6	8.46e-01	0	47	104	1226833920	60	130847
2026-01-28 14:56:45.76	334.15	6.66	-55.6	-70.6	3.6	8.46e-01	0	47	104	1226833920	60	133099
2026-01-28 14:56:46.77	334.24	6.60	-55.7	-70.3	3.6	8.44e-01	0	47	104	1226833920	60	128720
2026-01-28 14:56:47.77	334.33	6.53	-57.4	-70.9	3.6	8.45e-01	0	47	104	1226833920	60	137230
2026-01-28 14:56:48.77	334.42	6.47	-56.7	-70.9	3.6	8.46e-01	0	47	104	1226833920	60	136705
2026-01-28 14:56:49.78	334.51	6.41	-55.4	-70.5	3.6	8.44e-01	0	47	104	1226833920	60	131332
2026-01-28 14:56:50.79	334.60	6.35	-55.6	-71.2	3.6	8.45e-01	0	47	104	1226833920	60	142339
2026-01-28 14:56:51.79	334.69	6.29	-56.9	-70.8	3.6	8.45e-01	0	47	104	1226833920	60	135820
2026-01-28 14:56:52.80	334.78	6.22	-55.7	-70.6	3.6	8.46e-01	0	47	104	1226833920	60	132011
2026-01-28 14:56:53.81	334.87	6.16	-55.6	-70.5	3.6	8.46e-01	0	47	104	1226833920	60	131893
2026-01-28 14:56:54.81	334.96	6.10	-56.5	-70.0	3.6	8.46e-01	0	47	104	1226833920	60	124492
2026-01-28 14:56:55.82	335.05	6.04	-54.9	-70.5	3.6	8.46e-01	0	47	104	1226833920	60	131905
2026-01-28 14:56:56.83	335.14	5.98	-54.9	-71.2	3.6	8.45e-01	0	47	104	1226833920	60	142088
2026-01-28 14:56:57.84	335.22	5.92	-50.6	-71.2	3.6	8.46e-01	0	47	104	1226833920	60	142345
2026-01-28 14:56:58.85	335.31	5.85	-57.0	-72.1	3.6	8.44e-01	0	47	104	1226833920	60	158648
2026-01-28 14:56:59.86	335.40	5.79	-58.9	-73.1	3.6	8.46e-01	0	47	104	1226833920	60	177877
2026-01-28 14:57:00.86	335.49	5.73	-59.3	-73.5	3.6	8.45e-01	0	47	104	1226833920	60	185930
2026-01-28 14:57:01.87	335.57	5.67	-60.1	-73.5	3.6	8.45e-01	0	47	104	1226833920	60	185675
2026-01-28 14:57:02.88	335.66	5.61	-58.4	-73.6	3.6	8.46e-01	0	47	104	1226833920	60	187603
2026-01-28 14:57:03.88	335.74	5.55	-57.3	-73.9	3.6	8.44e-01	0	47	104	1226833920	60	195137
2026-01-28 14:57:04.89	335.83	5.49	-59.7	-74.0	3.6	8.45e-01	0	47	104	1226833920	60	195266
2026-01-28 14:57:05.89	335.91	5.43	-60.1	-73.9	3.6	8.44e-01	0	47	104	1226833920	60	194722
2026-01-28 14:57:06.90	336.00	5.37	-60.2	-74.3	3.6	8.46e-01	0	47	104	1226833920	60	203213
2026-01-28 14:57:07.91	336.08	5.30	-60.3	-74.5	3.6	8.45e-01	0	47	104	1226833920	60	209035
2026-01-28 14:57:08.91	336.17	5.24	-58.5	-74.3	3.6	8.45e-01	0	47	104	1226833920	60	202962
2026-01-28 14:57:09.92	336.25	5.18	-61.0	-74.3	3.6	8.44e-01	0	47	104	1226833920	60	204166
2026-01-28 14:57:10.93	336.33	5.12	-59.9	-74.6	3.6	8.46e-01	0	47	104	1226833920	60	210972
2026-01-28 14:57:11.94	336.42	5.06	-59.1	-74.5	3.6	8.45e-01	0	47	104	1226833920	60	208637
2026-01-28 14:57:12.94	336.50	5.00	-59.8	-74.9	3.6	8.45e-01	0	47	104	1226833920	60	217679
2026-01-28 14:57:13.96	336.58	4.94	-56.6	-74.5	3.6	8.46e-01	0	47	104	1226833920	60	207286
2026-01-28 14:57:14.96	336.67	4.88	-56.5	-74.4	3.6	8.46e-01	0	47	104	1226833920	60	205270
2026-01-28 14:57:15.97	336.75	4.82	-57.3	-74.3	3.6	8.46e-01	0	47	104	1226833920	60	202586
2026-01-28 14:57:16.98	336.83	4.76	-57.3	-74.1	3.6	8.43e-01	0	47	104	1226833920	60	197757
2026-01-28 14:57:17.99	336.91	4.70	-57.3	-74.1	3.6	8.45e-01	0	47	104	1226833920	60	198110
2026-01-28 14:57:18.99	336.99	4.64	-57.2	-74.1	3.6	8.45e-01	0	47	104	1226833920	60	198698
2026-01-28 14:57:20.01	337.07	4.58	-57.3	-74.1	3.6	8.45e-01	0	47	104	1226833920	60	199449
2026-01-28 14:57:21.01	337.15	4.52	-57.3	-74.2	3.6	8.46e-01	0	47	104	1226833920	60	199842
2026-01-28 14:57:22.02	337.23	4.46	-57.3	-74.1	3.6	8.45e-01	0	47	104	1226833920	60	199043
2026-01-28 14:57:23.03	337.31	4.40	-57.3	-74.2	3.6	8.45e-01	0	47	104	1226833920	60	200248
2026-01-28 14:57:24.04	337.39	4.35	-57.3	-74.1	3.6	8.45e-01	0	47	104	1226833920	60	198447
2026-01-28 14:57:25.04	337.47	4.29	-57.3	-74.2	3.6	8.46e-01	0	47	104	1226833920	60	200081
2026-01-28 14:57:26.05	337.55	4.23	-57.3	-74.2	3.6	8.45e-01	0	47	104	1226833920	60	200471
2026-01-28 14:57:27.05	337.63	4.17	-57.4	-74.1	3.6	8.45e-01	0	47	104	1226833920	60	199117
2026-01-28 14:57:28.06	337.71	4.11	-57.3	-74.2	3.6	8.44e-01	0	47	104	1226833920	60	200200
2026-01-28 14:57:29.06	337.78	4.05	-57.5	-74.1	3.6	8.47e-01	0	47	104	1226833920	60	198906
2026-01-28 14:57:30.07	337.86	3.99	-57.5	-74.1	3.6	8.44e-01	0	47	104	1226833920	60	199002
2026-01-28 14:57:31.08	337.94	3.93	-57.4	-74.1	3.6	8.45e-01	0	47	104	1226833920	60	198282
2026-01-28 14:57:32.09	338.02	3.88	-57.3	-74.1	3.6	8.45e-01	0	47	104	1226833920	60	197842
2026-01-28 14:57:33.10	338.09	3.82	-57.4	-74.1	3.7	8.44e-01	0	47	104	1226833920	60	197920
2026-01-28 14:57:34.10	338.17	3.76	-57.3	-74.1	3.6	8.45e-01	0	47	104	1226833920	60	198529
2026-01-28 14:57:35.11	338.25	3.70	-57.4	-74.0	3.6	8.45e-01	0	47	104	1226833920	60	197064
2026-01-28 14:57:36.12	338.32	3.64	-57.4	-74.1	3.6	8.46e-01	0	47	104	1226833920	60	198276
2026-01-28 14:57:37.13	338.40	3.58	-57.3	-74.1	3.6	8.46e-01	0	47	104	1226833920	60	197969
2026-01-28 14:57:38.13	338.47	3.53	-57.3	-74.0	3.6	8.45e-01	0	47	104	1226833920	60	196115
2026-01-28 14:57:39.14	338.55	3.47	-57.3	-74.1	3.6	8.46e-01	0	47	104	1226833920	60	198409
2026-01-28 14:57:40.15	338.62	3.41	-57.3	-74.1	3.6	8.45e-01	0	47	104	1226833920	60	198249
2026-01-28 14:57:41.15	338.70	3.35	-57.1	-74.0	3.6	8.45e-01	0	47	104	1226833920	60	196131
2026-01-28 14:57:42.15	338.77	3.30	-57.1	-74.1	3.6	8.46e-01	0	47	104	1226833920	60	197782
2026-01-28 14:57:43.16	338.84	3.24	-57.0	-74.1	3.6	8.46e-01	0	47	104	1226833920	60	198289
2026-01-28 14:57:44.17	338.92	3.18	-57.1	-74.0	3.6	8.45e-01	0	47	104	1226833920	60	196522
2026-01-28 14:57:45.17	338.99	3.12	-57.1	-74.0	3.6	8.45e-01	0	47	104	1226833920	60	196175
2026-01-28 14:57:46.18	339.06	3.07	-57.1	-74.0	3.6	8.46e-01	0	47	104	1226833920	60	195559
2026-01-28 14:57:47.19	339.14	3.01	-57.1	-74.1	3.6	8.45e-01	0	47	104	1226833920	60	197692
2026-01-28 14:57:48.19	339.21	2.95	-57.0	-74.1	3.6	8.46e-01	0	47	104	1226833920	60	197922
2026-01-28 14:57:49.20	339.28	2.89	-57.0	-74.0	3.6	8.46e-01	0	47	104	1226833920	60	196186
2026-01-28 14:57:50.21	339.35	2.84	-57.0	-74.0	3.6	8.44e-01	0	47	104	1226833920	60	196575
2026-01-28 14:57:51.21	339.43	2.78	-57.0	-74.0	3.6	8.46e-01	0	47	104	1226833920	60	196809
2026-01-28 14:57:52.22	339.50	2.72	-56.9	-74.0	3.6	8.45e-01	0	47	104	1226833920	60	195345
2026-01-28 14:57:53.22	339.57	2.67	-57.0	-73.9	3.6	8.45e-01	0	47	104	1226833920	60	194539
2026-01-28 14:57:54.23	339.64	2.61	-57.1	-73.9	3.6	8.44e-01	0	47	104	1226833920	60	195201
2026-01-28 14:57:55.23	339.71	2.55	-57.0	-74.0	3.6	8.45e-01	0	47	104	1226833920	60	195651
2026-01-28 14:57:56.24	339.78	2.50	-57.0	-74.0	3.6	8.45e-01	0	47	104	1226833920	60	195621
2026-01-28 14:57:57.25	339.85	2.44	-57.0	-73.9	3.6	8.46e-01	0	47	104	1226833920	60	195064
2026-01-28 14:57:58.25	339.92	2.39	-57.0	-73.9	3.6	8.45e-01	0	47	104	1226833920	60	194253
2026-01-28 14:57:59.26	339.99	2.33	-56.9	-74.0	3.6	8.44e-01	0	47	104	1226833920	60	196106
2026-01-28 14:58:00.27	340.06	2.27	-57.0	-73.9	3.6	8.45e-01	0	47	104	1226833920	60	194742
2026-01-28 14:58:01.28	340.13	2.22	-56.9	-74.0	3.6	8.46e-01	0	47	104	1226833920	60	195513
2026-01-28 14:58:02.28	340.20	2.16	-56.9	-73.9	3.6	8.45e-01	0	47	104	1226833920	60	194403
2026-01-28 14:58:03.29	340.27	2.10	-57.0	-73.9	3.6	8.45e-01	0	47	104	1226833920	60	194325
2026-01-28 14:58:04.29	340.34	2.05	-57.0	-73.9	3.6	8.45e-01	0	47	104	1226833920	60	193212
2026-01-28 14:58:05.30	340.40	1.99	-57.0	-74.0	3.6	8.45e-01	0	47	104	1226833920	60	195761
2026-01-28 14:58:06.31	340.47	1.94	-57.0	-74.0	3.6	8.45e-01	0	47	104	1226833920	60	196061
2026-01-28 14:58:07.31	340.54	1.88	-56.9	-74.0	3.6	8.45e-01	0	47	104	1226833920	60	195858
2026-01-28 14:58:08.32	340.61	1.83	-56.9	-74.0	3.5	8.46e-01	0	47	104	1226833920	60	195637
2026-01-28 14:58:09.33	340.68	1.77	-56.9	-74.0	3.6	8.46e-01	0	47	104	1226833920	60	196680
2026-01-28 14:58:10.33	340.74	1.72	-56.9	-73.9	3.6	8.44e-01	0	47	104	1226833920	60	194556
2026-01-28 14:58:11.33	340.81	1.66	-57.0	-74.0	3.6	8.46e-01	0	47	104	1226833920	60	196060
2026-01-28 14:58:12.34	340.88	1.61	-57.0	-73.9	3.6	8.46e-01	0	47	104	1226833920	60	194185
2026-01-28 14:58:13.35	340.94	1.55	-56.9	-73.9	3.6	8.47e-01	0	47	104	1226833920	60	193899
2026-01-28 14:58:14.35	341.01	1.50	-56.9	-73.9	3.6	8.46e-01	0	47	104	1226833920	60	193650
2026-01-28 14:58:15.35	341.07	1.44	-56.9	-74.0	3.6	8.46e-01	0	47	104	1226833920	60	195462
2026-01-28 14:58:16.35	341.14	1.39	-56.9	-73.9	3.6	8.45e-01	0	47	104	1226833920	60	194757
2026-01-28 14:58:17.36	341.20	1.33	-57.1	-74.0	3.6	8.46e-01	0	47	104	1226833920	60	195402
2026-01-28 14:58:18.36	341.27	1.28	-57.0	-74.0	3.6	8.46e-01	0	47	104	1226833920	60	196921
2026-01-28 14:58:19.37	341.34	1.22	-57.0	-74.0	3.6	8.45e-01	0	47	104	1226833920	60	195428
2026-01-28 14:58:20.38	341.40	1.17	-57.0	-74.0	3.6	8.45e-01	0	47	104	1226833920	60	196204
2026-01-28 14:58:21.39	341.47	1.11	-57.0	-73.9	3.6	8.45e-01	0	47	104	1226833920	60	194216
2026-01-28 14:58:22.40	341.53	1.06	-57.0	-73.9	3.6	8.45e-01	0	47	104	1226833920	60	194617
2026-01-28 14:58:23.41	341.59	1.00	-56.9	-73.8	3.6	8.46e-01	0	47	104	1226833920	60	192851
2026-01-28 14:58:24.41	341.66	0.95	-56.9	-73.9	3.6	8.46e-01	0	47	104	1226833920	60	194079
2026-01-28 14:58:25.42	341.72	0.90	-56.9	-73.9	3.6	8.45e-01	0	47	104	1226833920	60	195223
2026-01-28 14:58:26.42	341.79	0.84	-57.0	-73.9	3.6	8.46e-01	0	47	104	1226833920	60	193253
2026-01-28 14:58:27.43	341.85	0.79	-56.9	-73.8	3.6	8.46e-01	0	47	104	1226833920	60	192857
2026-01-28 14:58:28.44	341.91	0.73	-56.9	-73.9	3.6	8.46e-01	0	47	104	1226833920	60	193026
2026-01-28 14:58:29.44	341.97	0.68	-57.0	-73.8	3.6	8.46e-01	0	47	104	1226833920	60	192227
2026-01-28 14:58:30.44	342.04	0.63	-57.1	-73.8	3.6	8.45e-01	0	47	104	1226833920	60	191618
2026-01-28 14:58:31.45	342.10	0.57	-57.1	-73.9	3.6	8.45e-01	0	47	104	1226833920	60	194330
2026-01-28 14:58:32.45	342.16	0.52	-57.1	-73.9	3.6	8.44e-01	0	47	104	1226833920	60	194584
2026-01-28 14:58:33.46	342.22	0.46	-57.1	-73.9	3.6	8.44e-01	0	47	104	1226833920	60	194072
2026-01-28 14:58:34.47	342.29	0.41	-57.1	-73.8	3.6	8.46e-01	0	47	104	1226833920	60	192335
2026-01-28 14:58:35.48	342.35	0.36	-56.9	-73.7	3.6	8.45e-01	0	47	104	1226833920	60	190768
2026-01-28 14:58:36.49	342.41	0.30	-56.9	-73.8	3.6	8.45e-01	0	47	104	1226833920	60	191352
2026-01-28 14:58:37.49	342.47	0.25	-56.9	-73.7	3.6	8.44e-01	0	47	104	1226833920	60	190482
2026-01-28 14:58:38.49	342.53	0.20	-56.9	-73.7	3.6	8.46e-01	0	47	104	1226833920	60	190616
2026-01-28 14:58:39.50	342.59	0.14	-56.9	-73.7	3.6	8.46e-01	0	47	104	1226833920	60	190405
2026-01-28 14:58:40.51	342.65	0.09	-56.8	-73.7	3.6	8.45e-01	0	47	104	1226833920	60	190711
2026-01-28 14:58:41.52	342.71	0.04	-56.9	-73.9	3.6	8.45e-01	0	47	104	1226833920	60	194007

#Closed at: 2026-01-28 14:58:42
#Recorded file [1226 MB]: D:/Data/35015_260128_175611.dat