passes_logs/2026/01/28/R3.2S-Naryan-Mar/R3.2S-Naryan-Mar__20260128_094000_FENGYUN_3D_rec.log

#Pass ID: 20260128_094000_FENGYUN 3D
#Satellite: FENGYUN 3D
#Configuration: FENGYUN 3D
#almurnet v.1.7.20240730
#Start time: 2026-01-28 09:40:03

#Version: 2.2.20231116
#Station: R3.2S-Naryan-Mar
#Location: 53.008057 lon 67.646978 lat
#TLE: 1 43010U 17072A   26027.90082829  .00000305  00000+0  16579-3 0  9998
#TLE: 2 43010  98.9960 359.9183 0002511  88.1058 272.0405 14.19701796425082

#Time	Az	El	Level	Level2	SNR	BER	BlckErr	Temp	State	Recorded	gain1	gain2
2026-01-28 09:40:03.16	136.69	0.17	-59.6	-73.3	3.3	8.40e-01	0	45	0	0	60	181211
2026-01-28 09:40:04.16	136.68	0.23	-59.3	-74.5	3.6	8.45e-01	0	45	104	0	60	208106
2026-01-28 09:40:05.17	136.67	0.29	-59.3	-74.8	3.6	8.45e-01	0	45	104	0	60	215040
2026-01-28 09:40:06.17	136.65	0.35	-59.5	-74.2	3.6	8.45e-01	0	45	104	0	60	201956
2026-01-28 09:40:07.18	136.64	0.41	-60.2	-74.8	3.6	8.45e-01	0	45	104	0	60	215611
2026-01-28 09:40:08.19	136.63	0.48	-61.2	-75.3	3.6	8.45e-01	0	45	104	0	60	227614
2026-01-28 09:40:09.19	136.61	0.54	-61.6	-75.2	3.6	8.44e-01	0	45	104	0	60	224565
2026-01-28 09:40:10.19	136.60	0.60	-61.6	-75.1	3.6	8.46e-01	0	45	104	0	60	223931
2026-01-28 09:40:11.20	136.58	0.66	-61.5	-75.3	3.6	8.45e-01	0	45	104	0	60	226937
2026-01-28 09:40:12.20	136.57	0.72	-60.8	-74.7	3.6	8.46e-01	0	45	104	0	60	211690
2026-01-28 09:40:13.21	136.56	0.78	-59.8	-74.2	3.6	8.45e-01	0	45	104	0	60	200445
2026-01-28 09:40:14.22	136.54	0.84	-59.5	-73.7	3.6	8.45e-01	0	45	104	0	60	190687
2026-01-28 09:40:15.22	136.53	0.91	-59.5	-73.3	3.6	8.46e-01	0	45	104	0	60	180875
2026-01-28 09:40:16.23	136.51	0.97	-59.4	-73.1	3.6	8.44e-01	0	45	104	0	60	177604
2026-01-28 09:40:17.24	136.50	1.03	-58.5	-72.8	3.6	8.45e-01	0	45	104	0	60	171470
2026-01-28 09:40:18.24	136.48	1.09	-56.8	-71.8	3.6	8.45e-01	0	45	104	0	60	152256
2026-01-28 09:40:19.25	136.47	1.15	-56.8	-72.0	3.6	8.46e-01	0	45	104	0	60	156736
2026-01-28 09:40:20.25	136.46	1.22	-56.9	-72.0	3.6	8.45e-01	0	45	104	0	60	155576
2026-01-28 09:40:21.27	136.44	1.28	-56.9	-71.8	3.6	8.45e-01	0	45	104	0	60	152836
2026-01-28 09:40:22.27	136.43	1.34	-56.9	-71.8	3.6	8.46e-01	0	45	104	0	60	151709
2026-01-28 09:40:23.28	136.41	1.41	-56.9	-71.8	3.6	8.46e-01	0	45	104	0	60	152802
2026-01-28 09:40:24.29	136.40	1.47	-56.8	-71.9	3.6	8.45e-01	0	45	104	0	60	154685
2026-01-28 09:40:25.29	136.38	1.53	-56.8	-71.9	3.6	8.45e-01	0	45	104	0	60	154038
2026-01-28 09:40:26.29	136.37	1.59	-56.8	-71.6	3.6	8.45e-01	0	45	104	0	60	149656
2026-01-28 09:40:27.30	136.35	1.66	-56.8	-71.8	3.6	8.45e-01	0	45	104	0	60	153085
2026-01-28 09:40:28.31	136.34	1.72	-56.8	-71.8	3.6	8.46e-01	0	45	104	0	60	153134
2026-01-28 09:40:29.31	136.32	1.78	-56.9	-71.6	3.6	8.45e-01	0	45	104	0	60	149213
2026-01-28 09:40:30.32	136.31	1.85	-56.8	-71.8	3.6	8.44e-01	0	45	104	0	60	152692
2026-01-28 09:40:31.33	136.29	1.91	-56.8	-71.8	3.6	8.46e-01	0	45	104	0	60	151581
2026-01-28 09:40:32.33	136.28	1.98	-56.8	-71.8	3.6	8.45e-01	0	45	104	0	60	151944
2026-01-28 09:40:33.34	136.26	2.04	-56.8	-71.8	3.6	8.44e-01	0	46	104	0	60	152122
2026-01-28 09:40:34.35	136.25	2.11	-56.7	-71.7	3.6	8.46e-01	0	45	104	0	60	150756
2026-01-28 09:40:35.36	136.23	2.17	-56.6	-71.6	3.6	8.46e-01	0	46	104	0	60	149340
2026-01-28 09:40:36.37	136.21	2.24	-56.7	-71.6	3.6	8.44e-01	0	46	104	0	60	148726
2026-01-28 09:40:37.38	136.20	2.30	-56.7	-71.7	3.6	8.45e-01	0	46	104	0	60	149852
2026-01-28 09:40:38.38	136.18	2.37	-56.7	-71.8	3.6	8.46e-01	0	46	104	0	60	152069
2026-01-28 09:40:39.39	136.17	2.43	-56.7	-71.7	3.6	8.45e-01	0	46	104	0	60	150113
2026-01-28 09:40:40.39	136.15	2.50	-56.6	-71.8	3.5	8.46e-01	0	46	104	0	60	153047
2026-01-28 09:40:41.40	136.13	2.56	-56.6	-71.7	3.6	8.45e-01	0	46	104	0	60	150319
2026-01-28 09:40:42.40	136.12	2.63	-56.6	-71.7	3.6	8.46e-01	0	46	104	0	60	149890
2026-01-28 09:40:43.41	136.10	2.69	-56.6	-71.5	3.6	8.45e-01	0	46	104	0	60	147895
2026-01-28 09:40:44.42	136.08	2.76	-56.6	-71.4	3.6	8.46e-01	0	45	104	0	60	145407
2026-01-28 09:40:45.43	136.07	2.82	-56.6	-71.4	3.6	8.46e-01	0	46	104	0	60	145054
2026-01-28 09:40:46.43	136.05	2.89	-56.5	-71.3	3.6	8.45e-01	0	45	104	0	60	143820
2026-01-28 09:40:47.44	136.03	2.96	-56.6	-71.3	3.6	8.45e-01	0	46	104	0	60	144609
2026-01-28 09:40:48.45	136.02	3.02	-56.6	-71.3	3.6	8.45e-01	0	46	104	0	60	144538
2026-01-28 09:40:49.46	136.00	3.09	-56.5	-71.4	3.6	8.45e-01	0	46	104	0	60	145121
2026-01-28 09:40:50.47	135.98	3.16	-56.6	-71.5	3.6	8.45e-01	0	45	104	0	60	146463
2026-01-28 09:40:51.48	135.97	3.23	-56.6	-71.3	3.6	8.47e-01	0	46	104	0	60	144516
2026-01-28 09:40:52.48	135.95	3.29	-56.5	-71.4	3.6	8.45e-01	0	46	104	0	60	145326
2026-01-28 09:40:53.49	135.93	3.36	-56.6	-71.4	3.6	8.45e-01	0	45	104	0	60	145902
2026-01-28 09:40:54.50	135.92	3.43	-56.6	-71.5	3.6	8.45e-01	0	46	104	0	60	147317
2026-01-28 09:40:55.50	135.90	3.49	-56.5	-71.7	3.6	8.45e-01	0	45	104	0	60	151285
2026-01-28 09:40:56.50	135.88	3.56	-56.5	-71.7	3.6	8.45e-01	0	46	104	0	60	150189
2026-01-28 09:40:57.49	135.86	3.63	-56.5	-71.5	3.6	8.45e-01	0	46	104	0	60	147193
2026-01-28 09:40:58.50	135.85	3.70	-56.5	-71.5	3.6	8.46e-01	0	46	104	0	60	147932
2026-01-28 09:40:59.50	135.83	3.76	-56.4	-71.4	3.6	8.46e-01	0	46	104	0	60	146224
2026-01-28 09:41:00.50	135.81	3.83	-56.4	-71.3	3.6	8.45e-01	0	46	104	0	60	143728
2026-01-28 09:41:01.50	135.79	3.90	-56.4	-71.2	3.6	8.46e-01	0	46	104	0	60	141477
2026-01-28 09:41:02.51	135.77	3.97	-56.4	-70.7	3.6	8.45e-01	0	46	104	0	60	134893
2026-01-28 09:41:03.52	135.76	4.04	-56.4	-70.3	3.6	8.44e-01	0	46	104	0	60	128214
2026-01-28 09:41:04.52	135.74	4.11	-56.4	-69.9	3.6	8.44e-01	0	46	104	0	60	122312
2026-01-28 09:41:05.52	135.72	4.18	-56.4	-69.5	3.7	8.44e-01	0	46	104	0	60	116477
2026-01-28 09:41:06.53	135.70	4.25	-56.4	-69.0	3.6	8.43e-01	0	45	104	0	60	110645
2026-01-28 09:41:07.54	135.68	4.32	-56.3	-68.7	3.8	8.41e-01	0	46	104	0	60	106907
2026-01-28 09:41:08.55	135.66	4.39	-56.4	-68.5	3.9	8.44e-01	0	46	104	0	60	104658
2026-01-28 09:41:09.55	135.64	4.46	-56.3	-68.2	3.7	8.38e-01	0	46	104	0	60	101146
2026-01-28 09:41:10.55	135.63	4.53	-56.2	-66.6	4.0	8.36e-01	0	46	0	0	60	84230
2026-01-28 09:41:11.56	135.61	4.60	-56.1	-65.6	4.4	8.17e-01	0	46	0	0	60	74391
2026-01-28 09:41:12.57	135.59	4.67	-56.0	-64.2	5.3	7.47e-01	0	46	0	0	60	63560
2026-01-28 09:41:13.58	135.57	4.74	-55.6	-62.7	7.0	2.54e-01	0	46	0	5242880	60	53313
2026-01-28 09:41:14.59	135.55	4.81	-55.3	-61.2	8.7	5.48e-02	0	46	0	10485760	60	45208
2026-01-28 09:41:15.59	135.53	4.88	-54.8	-59.8	10.5	1.15e-02	0	46	0	16777216	60	38172
2026-01-28 09:41:16.59	135.51	4.95	-54.2	-58.3	12.1	1.69e-03	0	46	0	22020096	60	32282
2026-01-28 09:41:17.60	135.49	5.02	-53.6	-57.0	13.4	5.72e-05	0	46	0	28311552	60	27843
2026-01-28 09:41:18.61	135.47	5.09	-53.0	-55.9	14.6	1.10e-06	0	46	0	33554432	60	24553
2026-01-28 09:41:19.61	135.45	5.17	-52.4	-54.9	15.6	0.00e+00	0	46	0	38797312	60	21717
2026-01-28 09:41:20.62	135.43	5.24	-51.9	-54.1	16.4	0.00e+00	0	46	0	45088768	60	19933
2026-01-28 09:41:21.63	135.41	5.31	-51.5	-53.5	17.0	0.00e+00	0	46	0	50331648	60	18564
2026-01-28 09:41:22.63	135.39	5.38	-51.0	-53.0	17.6	0.00e+00	0	46	0	55574528	60	17413
2026-01-28 09:41:23.64	135.37	5.46	-50.8	-52.6	17.9	0.00e+00	0	46	0	61865984	60	16729
2026-01-28 09:41:24.65	135.35	5.53	-50.7	-52.5	18.0	0.00e+00	0	46	0	67108864	60	16441
2026-01-28 09:41:25.65	135.33	5.60	-50.7	-52.5	18.0	0.00e+00	0	45	0	72351744	60	16528
2026-01-28 09:41:26.66	135.31	5.68	-50.8	-52.6	17.9	0.00e+00	0	46	0	78643200	60	16730
2026-01-28 09:41:27.67	135.29	5.75	-51.1	-53.0	17.5	0.00e+00	0	46	0	83886080	60	17584
2026-01-28 09:41:28.67	135.27	5.82	-51.4	-53.5	17.0	0.00e+00	0	46	0	90177536	60	18601
2026-01-28 09:41:29.68	135.24	5.90	-52.0	-54.3	16.2	0.00e+00	0	46	0	95420416	60	20254
2026-01-28 09:41:30.68	135.22	5.97	-52.6	-55.2	15.3	0.00e+00	0	46	0	101711872	60	22518
2026-01-28 09:41:31.68	135.20	6.04	-53.1	-56.1	14.2	1.10e-06	0	46	0	106954752	60	24991
2026-01-28 09:41:32.69	135.18	6.12	-53.1	-56.5	7.9	1.10e-06	0	46	0	113246208	60	26102
2026-01-28 09:41:33.70	135.16	6.19	-52.2	-54.8	6.1	8.42e-01	0	45	104	113246208	60	21558
2026-01-28 09:41:34.70	135.14	6.27	-53.4	-56.8	9.8	1.10e-06	0	46	104	113246208	60	27025
2026-01-28 09:41:35.71	135.11	6.34	-52.3	-55.0	16.5	8.26e-01	0	46	104	113246208	60	21986
2026-01-28 09:41:36.72	135.09	6.42	-52.2	-54.6	9.1	5.18e-04	0	46	0	2097152	60	21099
2026-01-28 09:41:37.73	135.07	6.49	-56.6	-68.9	4.7	8.45e-01	0	46	104	2097152	60	108689
2026-01-28 09:41:38.73	135.05	6.57	-52.9	-55.6	15.2	1.10e-06	0	46	0	3145728	60	23505
2026-01-28 09:41:39.74	135.03	6.65	-52.1	-54.3	16.1	0.00e+00	0	46	0	9437184	60	20435
2026-01-28 09:41:40.75	135.00	6.72	-52.0	-54.2	16.5	0.00e+00	0	46	0	14680064	60	19985
2026-01-28 09:41:41.76	134.98	6.80	-51.4	-53.2	17.2	0.00e+00	0	46	0	20971520	60	17975
2026-01-28 09:41:42.77	134.96	6.88	-50.9	-52.6	18.0	0.00e+00	0	46	0	26214400	60	16646
2026-01-28 09:41:43.77	134.93	6.95	-50.7	-52.2	18.4	0.00e+00	0	46	0	32505856	60	16001
2026-01-28 09:41:44.78	134.91	7.03	-50.8	-52.2	18.5	0.00e+00	0	46	0	37748736	60	16046
2026-01-28 09:41:45.78	134.89	7.11	-50.6	-51.9	18.9	0.00e+00	0	46	0	42991616	60	15445
2026-01-28 09:41:46.79	134.87	7.18	-50.3	-51.7	19.2	0.00e+00	0	46	0	49283072	60	15017
2026-01-28 09:41:47.79	134.84	7.26	-50.3	-51.6	19.2	0.00e+00	0	46	0	54525952	60	14956
2026-01-28 09:41:48.80	134.82	7.34	-50.2	-51.5	19.3	0.00e+00	0	46	0	60817408	60	14796
2026-01-28 09:41:49.80	134.79	7.42	-50.3	-51.6	19.3	0.00e+00	0	46	0	66060288	60	14927
2026-01-28 09:41:50.81	134.77	7.50	-50.2	-51.5	19.4	0.00e+00	0	46	0	71303168	60	14722
2026-01-28 09:41:51.82	134.75	7.58	-50.2	-51.5	19.4	0.00e+00	0	46	0	77594624	60	14768
2026-01-28 09:41:52.83	134.72	7.65	-50.2	-51.5	19.5	0.00e+00	0	46	0	82837504	60	14779
2026-01-28 09:41:53.83	134.70	7.73	-50.3	-51.6	19.4	0.00e+00	0	46	0	88080384	60	14965
2026-01-28 09:41:54.84	134.67	7.81	-50.1	-51.4	19.4	0.00e+00	0	46	0	94371840	60	14602
2026-01-28 09:41:55.85	134.65	7.89	-49.9	-51.2	19.5	0.00e+00	0	46	0	99614720	60	14289
2026-01-28 09:41:56.86	134.62	7.97	-49.9	-51.2	19.5	0.00e+00	0	46	0	105906176	60	14258
2026-01-28 09:41:57.87	134.60	8.05	-49.9	-51.2	19.6	0.00e+00	0	46	0	111149056	60	14176
2026-01-28 09:41:58.87	134.57	8.13	-49.9	-51.2	19.5	0.00e+00	0	46	0	116391936	60	14170
2026-01-28 09:41:59.88	134.55	8.21	-49.9	-51.2	19.4	0.00e+00	0	46	0	122683392	60	14253
2026-01-28 09:42:00.89	134.52	8.30	-50.0	-51.3	19.4	0.00e+00	0	46	0	128974848	60	14373
2026-01-28 09:42:01.89	134.50	8.38	-50.0	-51.3	19.4	0.00e+00	0	46	0	134217728	60	14322
2026-01-28 09:42:02.89	134.47	8.46	-49.8	-51.1	19.7	0.00e+00	0	46	0	139460608	60	14043
2026-01-28 09:42:03.90	134.45	8.54	-49.8	-51.0	19.8	0.00e+00	0	46	0	145752064	60	13916
2026-01-28 09:42:04.90	134.42	8.62	-49.9	-51.1	19.8	0.00e+00	0	46	0	150994944	60	14014
2026-01-28 09:42:05.90	134.39	8.70	-49.8	-50.9	19.8	0.00e+00	0	46	0	156237824	60	13806
2026-01-28 09:42:06.91	134.37	8.79	-49.7	-50.9	20.0	0.00e+00	0	46	0	162529280	60	13748
2026-01-28 09:42:07.91	134.34	8.87	-49.8	-50.9	20.0	0.00e+00	0	46	0	167772160	60	13818
2026-01-28 09:42:08.92	134.31	8.95	-49.9	-51.1	20.0	0.00e+00	0	46	0	173015040	60	14070
2026-01-28 09:42:09.93	134.29	9.03	-49.7	-50.9	20.3	0.00e+00	0	46	0	179306496	60	13679
2026-01-28 09:42:10.94	134.26	9.12	-49.6	-50.8	20.3	0.00e+00	0	46	0	184549376	60	13562
2026-01-28 09:42:11.94	134.23	9.20	-49.6	-50.8	20.3	0.00e+00	0	46	0	190840832	60	13591
2026-01-28 09:42:12.95	134.20	9.29	-49.8	-51.0	20.2	0.00e+00	0	46	0	196083712	60	13825
2026-01-28 09:42:13.95	134.18	9.37	-49.6	-50.7	20.4	0.00e+00	0	46	0	201326592	60	13491
2026-01-28 09:42:14.96	134.15	9.45	-49.6	-50.7	20.4	0.00e+00	0	46	0	207618048	60	13482
2026-01-28 09:42:15.97	134.12	9.54	-49.6	-50.8	20.3	0.00e+00	0	46	0	212860928	60	13522
2026-01-28 09:42:16.98	134.09	9.63	-49.6	-50.7	20.4	0.00e+00	0	46	0	219152384	60	13480
2026-01-28 09:42:17.98	134.06	9.71	-49.5	-50.6	20.5	0.00e+00	0	46	0	224395264	60	13253
2026-01-28 09:42:18.99	134.04	9.80	-49.6	-50.6	20.5	0.00e+00	0	46	0	230686720	60	13320
2026-01-28 09:42:19.99	134.01	9.88	-49.7	-50.7	20.5	0.00e+00	0	46	0	235929600	60	13460
2026-01-28 09:42:21.00	133.98	9.97	-49.5	-50.6	20.6	0.00e+00	0	46	0	241172480	60	13207
2026-01-28 09:42:22.00	133.95	10.06	-49.5	-50.6	20.5	0.00e+00	0	46	0	247463936	60	13232
2026-01-28 09:42:23.01	133.92	10.14	-49.5	-50.5	20.7	0.00e+00	0	46	0	252706816	60	13144
2026-01-28 09:42:24.01	133.89	10.23	-49.5	-50.5	20.7	0.00e+00	0	46	0	257949696	60	13196
2026-01-28 09:42:25.02	133.86	10.32	-49.5	-50.6	20.7	0.00e+00	0	46	0	264241152	60	13227
2026-01-28 09:42:26.02	133.83	10.40	-49.6	-50.6	20.7	0.00e+00	0	46	0	269484032	60	13312
2026-01-28 09:42:27.03	133.80	10.49	-49.6	-50.7	20.7	0.00e+00	0	46	0	275775488	60	13359
2026-01-28 09:42:28.03	133.77	10.58	-49.5	-50.6	20.8	0.00e+00	0	46	0	281018368	60	13239
2026-01-28 09:42:29.04	133.74	10.67	-49.4	-50.5	20.8	0.00e+00	0	46	0	286261248	60	13053
2026-01-28 09:42:30.05	133.71	10.76	-49.4	-50.4	20.9	0.00e+00	0	46	0	292552704	60	13040
2026-01-28 09:42:31.06	133.68	10.85	-49.4	-50.4	20.9	0.00e+00	0	46	0	297795584	60	12966
2026-01-28 09:42:32.06	133.65	10.94	-49.4	-50.4	20.8	0.00e+00	0	46	0	303038464	60	12984
2026-01-28 09:42:33.06	133.62	11.03	-49.6	-50.7	20.7	0.00e+00	0	46	0	309329920	60	13373
2026-01-28 09:42:34.07	133.58	11.12	-49.3	-50.3	21.0	0.00e+00	0	46	0	314572800	60	12832
2026-01-28 09:42:35.08	133.55	11.21	-49.2	-50.2	21.0	0.00e+00	0	46	0	320864256	60	12743
2026-01-28 09:42:36.08	133.52	11.30	-49.2	-50.2	21.1	0.00e+00	0	46	0	326107136	60	12639
2026-01-28 09:42:37.09	133.49	11.39	-49.2	-50.2	21.2	0.00e+00	0	46	0	332398592	60	12711
2026-01-28 09:42:38.10	133.46	11.48	-49.3	-50.3	21.1	0.00e+00	0	46	0	337641472	60	12858
2026-01-28 09:42:39.11	133.42	11.58	-49.3	-50.3	21.2	0.00e+00	0	46	0	342884352	60	12789
2026-01-28 09:42:40.11	133.39	11.67	-49.1	-50.1	21.3	0.00e+00	0	46	0	349175808	60	12527
2026-01-28 09:42:41.11	133.36	11.76	-49.1	-50.0	21.4	0.00e+00	0	46	0	354418688	60	12434
2026-01-28 09:42:42.12	133.32	11.85	-49.0	-50.0	21.4	0.00e+00	0	46	0	360710144	60	12325
2026-01-28 09:42:43.13	133.29	11.95	-49.0	-49.9	21.5	0.00e+00	0	46	0	365953024	60	12278
2026-01-28 09:42:44.13	133.26	12.04	-49.0	-49.9	21.4	0.00e+00	0	46	0	371195904	60	12278
2026-01-28 09:42:45.14	133.22	12.13	-48.9	-49.8	21.4	0.00e+00	0	46	0	377487360	60	12158
2026-01-28 09:42:46.15	133.19	12.23	-48.9	-49.9	21.4	0.00e+00	0	46	0	382730240	60	12179
2026-01-28 09:42:47.15	133.15	12.32	-48.9	-49.8	21.5	0.00e+00	0	46	0	387973120	60	12118
2026-01-28 09:42:48.16	133.12	12.42	-48.9	-49.8	21.5	0.00e+00	0	46	0	394264576	60	12120
2026-01-28 09:42:49.17	133.08	12.52	-48.8	-49.8	21.6	0.00e+00	0	46	0	399507456	60	12067
2026-01-28 09:42:50.18	133.05	12.61	-48.7	-49.7	21.7	0.00e+00	0	46	0	405798912	60	11906
2026-01-28 09:42:51.19	133.01	12.71	-48.7	-49.6	21.7	0.00e+00	0	46	0	411041792	60	11872
2026-01-28 09:42:52.19	132.98	12.80	-48.7	-49.6	21.8	0.00e+00	0	46	0	417333248	60	11802
2026-01-28 09:42:53.20	132.94	12.90	-48.7	-49.6	21.7	0.00e+00	0	46	0	422576128	60	11858
2026-01-28 09:42:54.19	132.91	13.00	-48.6	-49.6	21.9	0.00e+00	0	46	0	427819008	60	11768
2026-01-28 09:42:55.20	132.87	13.10	-48.6	-49.5	21.8	0.00e+00	0	46	0	434110464	60	11716
2026-01-28 09:42:56.21	132.83	13.19	-48.6	-49.5	21.8	0.00e+00	0	46	0	439353344	60	11697
2026-01-28 09:42:57.22	132.79	13.29	-48.6	-49.6	21.7	0.00e+00	0	46	0	445644800	60	11786
2026-01-28 09:42:58.23	132.76	13.39	-48.7	-49.6	21.8	0.00e+00	0	46	0	450887680	60	11843
2026-01-28 09:42:59.24	132.72	13.49	-48.6	-49.5	21.9	0.00e+00	0	46	0	456130560	60	11656
2026-01-28 09:43:00.23	132.68	13.59	-48.7	-49.6	21.8	0.00e+00	0	46	0	462422016	60	11795
2026-01-28 09:43:01.24	132.64	13.69	-48.7	-49.6	21.9	0.00e+00	0	46	0	467664896	60	11793
2026-01-28 09:43:02.25	132.61	13.79	-48.6	-49.5	21.9	0.00e+00	0	46	0	472907776	60	11761
2026-01-28 09:43:03.25	132.57	13.89	-48.5	-49.4	22.0	0.00e+00	0	46	0	479199232	60	11559
2026-01-28 09:43:04.25	132.53	13.99	-48.3	-49.2	22.1	0.00e+00	0	46	0	484442112	60	11349
2026-01-28 09:43:05.26	132.49	14.09	-48.4	-49.3	22.1	0.00e+00	0	46	0	489684992	60	11383
2026-01-28 09:43:06.27	132.45	14.20	-48.3	-49.2	22.2	0.00e+00	0	46	0	495976448	60	11266
2026-01-28 09:43:07.27	132.41	14.30	-48.2	-49.1	22.3	0.00e+00	0	46	0	502267904	60	11143
2026-01-28 09:43:08.28	132.37	14.40	-48.3	-49.2	22.2	0.00e+00	0	46	0	507510784	60	11324
2026-01-28 09:43:09.29	132.33	14.51	-48.3	-49.1	22.3	0.00e+00	0	46	0	512753664	60	11198
2026-01-28 09:43:10.29	132.29	14.61	-48.1	-48.9	22.4	0.00e+00	0	46	0	519045120	60	10968
2026-01-28 09:43:11.30	132.25	14.71	-48.0	-48.9	22.4	0.00e+00	0	46	0	524288000	60	10913
2026-01-28 09:43:12.30	132.21	14.82	-48.1	-48.9	22.4	0.00e+00	0	46	0	530579456	60	10949
2026-01-28 09:43:13.31	132.16	14.92	-48.0	-48.8	22.5	0.00e+00	0	46	0	535822336	60	10805
2026-01-28 09:43:14.32	132.12	15.03	-47.9	-48.8	22.5	0.00e+00	0	46	0	541065216	60	10799
2026-01-28 09:43:15.32	132.08	15.13	-47.9	-48.7	22.7	0.00e+00	0	46	0	547356672	60	10658
2026-01-28 09:43:16.32	132.04	15.24	-47.8	-48.7	22.6	0.00e+00	0	46	0	552599552	60	10635
2026-01-28 09:43:17.33	131.99	15.35	-47.9	-48.8	22.5	0.00e+00	0	46	0	557842432	60	10776
2026-01-28 09:43:18.33	131.95	15.45	-48.0	-48.8	22.5	0.00e+00	0	46	0	564133888	60	10822
2026-01-28 09:43:19.34	131.91	15.56	-47.9	-48.7	22.6	0.00e+00	0	46	0	569376768	60	10667
2026-01-28 09:43:20.35	131.86	15.67	-47.8	-48.6	22.7	0.00e+00	0	46	0	574619648	60	10525
2026-01-28 09:43:21.35	131.82	15.78	-47.8	-48.7	22.7	0.00e+00	0	46	0	580911104	60	10629
2026-01-28 09:43:22.36	131.77	15.89	-47.7	-48.6	22.8	0.00e+00	0	46	0	586153984	60	10514
2026-01-28 09:43:23.37	131.73	16.00	-47.8	-48.6	22.8	0.00e+00	0	46	0	592445440	60	10544
2026-01-28 09:43:24.38	131.68	16.11	-47.7	-48.6	22.8	0.00e+00	0	46	0	597688320	60	10518
2026-01-28 09:43:25.38	131.64	16.22	-47.6	-48.4	22.9	0.00e+00	0	46	0	603979776	60	10363
2026-01-28 09:43:26.39	131.59	16.33	-47.6	-48.5	22.8	0.00e+00	0	46	0	609222656	60	10370
2026-01-28 09:43:27.40	131.54	16.44	-47.6	-48.4	22.8	0.00e+00	0	46	0	615514112	60	10347
2026-01-28 09:43:28.40	131.50	16.55	-47.5	-48.3	22.8	0.00e+00	0	46	0	620756992	60	10194
2026-01-28 09:43:29.41	131.45	16.67	-47.5	-48.3	22.8	0.00e+00	0	46	0	625999872	60	10246
2026-01-28 09:43:30.42	131.40	16.78	-47.5	-48.4	22.7	0.00e+00	0	46	0	632291328	60	10283
2026-01-28 09:43:31.42	131.35	16.89	-47.6	-48.4	22.8	0.00e+00	0	46	0	637534208	60	10321
2026-01-28 09:43:32.43	131.31	17.01	-47.4	-48.3	22.9	0.00e+00	0	46	0	642777088	60	10189
2026-01-28 09:43:33.43	131.26	17.12	-47.5	-48.4	22.8	0.00e+00	0	46	0	649068544	60	10326
2026-01-28 09:43:34.44	131.21	17.24	-47.6	-48.5	22.8	0.00e+00	0	46	0	654311424	60	10379
2026-01-28 09:43:35.44	131.16	17.35	-47.4	-48.2	23.0	0.00e+00	0	46	0	659554304	60	10128
2026-01-28 09:43:36.45	131.11	17.47	-47.4	-48.3	23.0	0.00e+00	0	46	0	665845760	60	10133
2026-01-28 09:43:37.46	131.06	17.59	-47.4	-48.2	22.9	0.00e+00	0	46	0	671088640	60	10112
2026-01-28 09:43:38.47	131.01	17.70	-47.4	-48.2	23.0	0.00e+00	0	46	0	677380096	60	10047
2026-01-28 09:43:39.47	130.96	17.82	-47.4	-48.2	23.0	0.00e+00	0	46	0	682622976	60	10072
2026-01-28 09:43:40.48	130.90	17.94	-47.4	-48.2	23.1	0.00e+00	0	46	0	688914432	60	10048
2026-01-28 09:43:41.49	130.85	18.06	-47.5	-48.3	23.1	0.00e+00	0	46	0	694157312	60	10178
2026-01-28 09:43:42.49	130.80	18.18	-47.5	-48.3	23.2	0.00e+00	0	46	0	700448768	60	10186
2026-01-28 09:43:43.49	130.75	18.30	-47.4	-48.2	23.3	0.00e+00	0	46	0	705691648	60	10035
2026-01-28 09:43:44.50	130.69	18.42	-47.4	-48.2	23.2	0.00e+00	0	46	0	710934528	60	10051
2026-01-28 09:43:45.51	130.64	18.54	-47.5	-48.3	23.1	0.00e+00	0	46	0	717225984	60	10180
2026-01-28 09:43:46.51	130.58	18.66	-47.4	-48.2	23.2	0.00e+00	0	46	0	722468864	60	10097
2026-01-28 09:43:47.51	130.53	18.78	-47.4	-48.2	23.1	0.00e+00	0	46	0	727711744	60	10100
2026-01-28 09:43:48.51	130.47	18.90	-47.4	-48.2	23.1	0.00e+00	0	46	0	734003200	60	10100
2026-01-28 09:43:49.51	130.42	19.03	-47.4	-48.2	23.2	0.00e+00	0	46	0	739246080	60	10113
2026-01-28 09:43:50.52	130.36	19.15	-47.4	-48.2	23.1	0.00e+00	0	46	0	744488960	60	10107
2026-01-28 09:43:51.51	130.31	19.27	-47.6	-48.4	23.0	0.00e+00	0	46	0	750780416	60	10291
2026-01-28 09:43:52.52	130.25	19.40	-47.7	-48.5	23.0	0.00e+00	0	46	0	756023296	60	10407
2026-01-28 09:43:53.52	130.19	19.52	-47.7	-48.5	23.0	0.00e+00	0	46	0	762314752	60	10406
2026-01-28 09:43:54.53	130.13	19.65	-47.4	-48.2	23.3	0.00e+00	0	46	0	767557632	60	10046
2026-01-28 09:43:55.54	130.07	19.78	-47.4	-48.2	23.4	0.00e+00	0	46	0	772800512	60	10086
2026-01-28 09:43:56.54	130.02	19.90	-47.5	-48.3	23.3	0.00e+00	0	46	0	779091968	60	10204
2026-01-28 09:43:57.55	129.96	20.03	-47.4	-48.2	23.4	0.00e+00	0	46	0	784334848	60	10035
2026-01-28 09:43:58.54	129.90	20.16	-47.3	-48.0	23.4	0.00e+00	0	46	0	789577728	60	9888
2026-01-28 09:43:59.54	129.84	20.29	-47.2	-48.0	23.4	0.00e+00	0	46	0	795869184	60	9866
2026-01-28 09:44:00.55	129.77	20.42	-47.2	-48.0	23.5	0.00e+00	0	46	0	801112064	60	9838
2026-01-28 09:44:01.55	129.71	20.55	-47.2	-48.0	23.6	0.00e+00	0	46	0	806354944	60	9799
2026-01-28 09:44:02.55	129.65	20.68	-47.1	-47.9	23.6	0.00e+00	0	46	0	812646400	60	9732
2026-01-28 09:44:03.55	129.59	20.81	-47.2	-48.0	23.5	0.00e+00	0	46	0	817889280	60	9871
2026-01-28 09:44:04.55	129.53	20.94	-47.1	-47.8	23.7	0.00e+00	0	46	0	824180736	60	9665
2026-01-28 09:44:05.56	129.46	21.08	-47.0	-47.8	23.7	0.00e+00	0	46	0	829423616	60	9587
2026-01-28 09:44:06.55	129.40	21.21	-47.0	-47.8	23.7	0.00e+00	0	46	0	834666496	60	9630
2026-01-28 09:44:07.56	129.33	21.34	-46.9	-47.7	23.7	0.00e+00	0	46	0	840957952	60	9521
2026-01-28 09:44:08.56	129.27	21.48	-46.9	-47.7	23.7	0.00e+00	0	46	0	846200832	60	9519
2026-01-28 09:44:09.57	129.20	21.61	-47.1	-47.9	23.7	0.00e+00	0	46	0	851443712	60	9710
2026-01-28 09:44:10.57	129.13	21.75	-46.9	-47.7	23.8	0.00e+00	0	46	0	857735168	60	9461
2026-01-28 09:44:11.57	129.06	21.89	-46.8	-47.6	24.0	0.00e+00	0	46	0	864026624	60	9374
2026-01-28 09:44:12.58	129.00	22.02	-46.9	-47.6	23.9	0.00e+00	0	46	0	869269504	60	9418
2026-01-28 09:44:13.59	128.93	22.16	-46.7	-47.5	24.1	0.00e+00	0	46	0	874512384	60	9242
2026-01-28 09:44:14.60	128.86	22.30	-46.5	-47.3	24.3	0.00e+00	0	46	0	880803840	60	9039
2026-01-28 09:44:15.60	128.79	22.44	-46.5	-47.2	24.2	0.00e+00	0	46	0	886046720	60	8995
2026-01-28 09:44:16.61	128.72	22.58	-46.5	-47.3	24.2	0.00e+00	0	46	0	891289600	60	9078
2026-01-28 09:44:17.62	128.64	22.73	-46.5	-47.2	24.3	0.00e+00	0	46	0	897581056	60	8956
2026-01-28 09:44:18.62	128.57	22.87	-46.4	-47.1	24.3	0.00e+00	0	46	0	902823936	60	8901
2026-01-28 09:44:19.62	128.50	23.01	-46.5	-47.3	24.3	0.00e+00	0	46	0	909115392	60	9029
2026-01-28 09:44:20.63	128.43	23.16	-46.6	-47.4	24.1	0.00e+00	0	46	0	914358272	60	9164
2026-01-28 09:44:21.64	128.35	23.30	-46.5	-47.2	24.3	0.00e+00	0	46	0	919601152	60	8946
2026-01-28 09:44:22.64	128.28	23.45	-46.5	-47.2	24.3	0.00e+00	0	46	0	925892608	60	8995
2026-01-28 09:44:23.64	128.20	23.59	-46.6	-47.3	24.2	0.00e+00	0	46	0	931135488	60	9082
2026-01-28 09:44:24.65	128.12	23.74	-46.6	-47.4	24.1	0.00e+00	0	46	0	936378368	60	9149
2026-01-28 09:44:25.66	128.05	23.89	-46.6	-47.3	24.1	0.00e+00	0	46	0	942669824	60	9124
2026-01-28 09:44:26.67	127.97	24.04	-46.7	-47.4	24.1	0.00e+00	0	46	0	947912704	60	9231
2026-01-28 09:44:27.67	127.89	24.18	-46.7	-47.5	24.1	0.00e+00	0	46	0	954204160	60	9259
2026-01-28 09:44:28.68	127.81	24.33	-46.8	-47.6	24.0	0.00e+00	0	46	0	959447040	60	9368
2026-01-28 09:44:29.69	127.73	24.49	-46.7	-47.4	24.1	0.00e+00	0	46	0	965738496	60	9230
2026-01-28 09:44:30.70	127.65	24.64	-46.5	-47.3	24.3	0.00e+00	0	46	0	970981376	60	9071
2026-01-28 09:44:31.70	127.56	24.79	-46.5	-47.2	24.3	0.00e+00	0	46	0	976224256	60	9011
2026-01-28 09:44:32.71	127.48	24.94	-46.4	-47.2	24.4	0.00e+00	0	46	0	982515712	60	8955
2026-01-28 09:44:33.72	127.40	25.10	-46.4	-47.1	24.4	0.00e+00	0	46	0	987758592	60	8889
2026-01-28 09:44:34.72	127.31	25.25	-46.4	-47.2	24.4	0.00e+00	0	46	0	994050048	60	8945
2026-01-28 09:44:35.72	127.23	25.41	-46.4	-47.2	24.4	0.00e+00	0	46	0	999292928	60	8946
2026-01-28 09:44:36.73	127.14	25.56	-46.5	-47.2	24.3	0.00e+00	0	46	0	1004535808	60	9009
2026-01-28 09:44:37.74	127.05	25.72	-46.2	-46.9	24.5	0.00e+00	0	46	0	1010827264	60	8667
2026-01-28 09:44:38.74	126.96	25.88	-46.1	-46.8	24.6	0.00e+00	0	46	0	1016070144	60	8580
2026-01-28 09:44:39.75	126.88	26.04	-46.1	-46.8	24.7	0.00e+00	0	46	0	1021313024	60	8556
2026-01-28 09:44:40.75	126.79	26.20	-46.0	-46.7	24.7	0.00e+00	0	46	0	1027604480	60	8481
2026-01-28 09:44:41.76	126.69	26.36	-46.1	-46.9	24.6	0.00e+00	0	46	0	1032847360	60	8630
2026-01-28 09:44:42.77	126.60	26.52	-46.1	-46.8	24.6	0.00e+00	0	46	0	1038090240	60	8601
2026-01-28 09:44:43.77	126.51	26.68	-46.1	-46.8	24.6	0.00e+00	0	46	0	1044381696	60	8601
2026-01-28 09:44:44.78	126.42	26.85	-46.1	-46.8	24.5	0.00e+00	0	46	0	1050673152	60	8577
2026-01-28 09:44:45.79	126.32	27.01	-46.1	-46.8	24.5	0.00e+00	0	46	0	1055916032	60	8600
2026-01-28 09:44:46.80	126.22	27.18	-46.2	-47.0	24.4	0.00e+00	0	46	0	1061158912	60	8765
2026-01-28 09:44:47.81	126.13	27.35	-46.1	-46.9	24.5	0.00e+00	0	46	0	1067450368	60	8653
2026-01-28 09:44:48.82	126.03	27.52	-46.2	-46.9	24.4	0.00e+00	0	46	0	1072693248	60	8718
2026-01-28 09:44:49.82	125.93	27.68	-46.2	-46.9	24.4	0.00e+00	0	46	0	1078984704	60	8711
2026-01-28 09:44:50.83	125.83	27.85	-46.1	-46.8	24.7	0.00e+00	0	46	0	1084227584	60	8546
2026-01-28 09:44:51.83	125.73	28.02	-46.0	-46.7	24.6	0.00e+00	0	46	0	1089470464	60	8500
2026-01-28 09:44:52.84	125.62	28.19	-45.9	-46.7	24.7	0.00e+00	0	46	0	1095761920	60	8425
2026-01-28 09:44:53.84	125.52	28.36	-45.9	-46.7	24.6	0.00e+00	0	46	0	1101004800	60	8440
2026-01-28 09:44:54.85	125.42	28.54	-46.0	-46.7	24.4	0.00e+00	0	46	0	1106247680	60	8509
2026-01-28 09:44:55.85	125.31	28.71	-45.9	-46.7	24.5	0.00e+00	0	46	0	1112539136	60	8457
2026-01-28 09:44:56.85	125.20	28.88	-46.1	-46.9	24.4	0.00e+00	0	46	0	1117782016	60	8685
2026-01-28 09:44:57.86	125.10	29.06	-46.0	-46.8	24.4	0.00e+00	0	46	0	1123024896	60	8562
2026-01-28 09:44:58.87	124.99	29.24	-46.1	-46.9	24.3	0.00e+00	0	46	0	1129316352	60	8637
2026-01-28 09:44:59.88	124.87	29.42	-46.2	-47.0	24.3	0.00e+00	0	46	0	1135607808	60	8759
2026-01-28 09:45:00.88	124.76	29.59	-46.1	-46.9	24.3	0.00e+00	0	46	0	1140850688	60	8671
2026-01-28 09:45:01.89	124.65	29.78	-46.1	-46.9	24.3	0.00e+00	0	46	0	1146093568	60	8671
2026-01-28 09:45:02.89	124.54	29.95	-46.1	-46.9	24.3	0.00e+00	0	46	0	1152385024	60	8655
2026-01-28 09:45:03.90	124.42	30.14	-46.0	-46.8	24.4	0.00e+00	0	46	0	1157627904	60	8555
2026-01-28 09:45:04.91	124.30	30.32	-46.0	-46.8	24.4	0.00e+00	0	46	0	1163919360	60	8584
2026-01-28 09:45:05.92	124.18	30.51	-45.9	-46.7	24.7	0.00e+00	0	46	0	1169162240	60	8486
2026-01-28 09:45:06.92	124.06	30.69	-45.9	-46.6	24.7	0.00e+00	0	46	0	1174405120	60	8418
2026-01-28 09:45:07.93	123.94	30.88	-45.8	-46.5	24.9	0.00e+00	0	46	0	1180696576	60	8293
2026-01-28 09:45:08.93	123.82	31.06	-45.8	-46.5	24.9	0.00e+00	0	46	0	1185939456	60	8325
2026-01-28 09:45:09.94	123.69	31.25	-45.9	-46.6	24.8	0.00e+00	0	46	0	1191182336	60	8423
2026-01-28 09:45:10.94	123.57	31.44	-45.8	-46.5	24.9	0.00e+00	0	46	0	1197473792	60	8289
2026-01-28 09:45:11.95	123.44	31.63	-45.8	-46.5	24.7	0.00e+00	0	46	0	1202716672	60	8308
2026-01-28 09:45:12.95	123.31	31.82	-45.8	-46.6	24.8	0.00e+00	0	46	0	1207959552	60	8339
2026-01-28 09:45:13.95	123.18	32.01	-45.7	-46.5	24.8	0.00e+00	0	46	0	1214251008	60	8273
2026-01-28 09:45:14.95	123.05	32.20	-45.7	-46.5	24.9	0.00e+00	0	46	0	1219493888	60	8292
2026-01-28 09:45:15.96	122.92	32.40	-45.6	-46.5	25.0	0.00e+00	0	46	0	1225785344	60	8238
2026-01-28 09:45:16.97	122.78	32.60	-45.6	-46.4	25.0	0.00e+00	0	46	0	1231028224	60	8154
2026-01-28 09:45:17.98	122.64	32.79	-45.5	-46.3	24.9	0.00e+00	0	46	0	1237319680	60	8066
2026-01-28 09:45:18.99	122.50	32.99	-45.5	-46.3	24.9	0.00e+00	0	46	0	1242562560	60	8134
2026-01-28 09:45:20.00	122.36	33.19	-45.5	-46.3	25.0	0.00e+00	0	46	0	1248854016	60	8115
2026-01-28 09:45:21.00	122.22	33.39	-45.6	-46.3	25.0	0.00e+00	0	46	0	1254096896	60	8128
2026-01-28 09:45:22.01	122.08	33.59	-45.5	-46.3	24.9	0.00e+00	0	46	0	1259339776	60	8076
2026-01-28 09:45:23.02	121.93	33.79	-45.5	-46.3	24.8	0.00e+00	0	46	0	1265631232	60	8137
2026-01-28 09:45:24.03	121.78	34.00	-45.6	-46.4	24.6	0.00e+00	0	46	0	1270874112	60	8231
2026-01-28 09:45:25.02	121.63	34.20	-45.7	-46.6	24.5	0.00e+00	0	46	0	1276116992	60	8337
2026-01-28 09:45:26.03	121.48	34.41	-45.7	-46.5	24.5	0.00e+00	0	46	0	1282408448	60	8319
2026-01-28 09:45:27.04	121.33	34.61	-45.6	-46.5	24.6	0.00e+00	0	46	0	1287651328	60	8259
2026-01-28 09:45:28.05	121.17	34.82	-45.7	-46.5	24.6	0.00e+00	0	46	0	1292894208	60	8323
2026-01-28 09:45:29.05	121.01	35.03	-45.6	-46.5	24.8	0.00e+00	0	46	0	1299185664	60	8257
2026-01-28 09:45:30.06	120.85	35.24	-45.6	-46.4	24.8	0.00e+00	0	46	0	1304428544	60	8195
2026-01-28 09:45:31.06	120.69	35.45	-45.6	-46.4	24.7	0.00e+00	0	46	0	1310720000	60	8225
2026-01-28 09:45:32.07	120.53	35.66	-45.6	-46.4	24.7	0.00e+00	0	46	0	1315962880	60	8191
2026-01-28 09:45:33.07	120.36	35.88	-45.7	-46.5	24.7	0.00e+00	0	46	0	1322254336	60	8274
2026-01-28 09:45:34.08	120.19	36.09	-45.7	-46.5	24.7	0.00e+00	0	46	0	1327497216	60	8322
2026-01-28 09:45:35.09	120.02	36.31	-45.6	-46.4	24.9	0.00e+00	0	46	0	1333788672	60	8178
2026-01-28 09:45:36.10	119.85	36.53	-45.6	-46.3	25.3	0.00e+00	0	46	0	1339031552	60	8136
2026-01-28 09:45:37.11	119.67	36.74	-45.8	-46.5	25.1	0.00e+00	0	46	0	1344274432	60	8305
2026-01-28 09:45:38.11	119.49	36.96	-45.8	-46.5	25.2	0.00e+00	0	46	0	1350565888	60	8324
2026-01-28 09:45:39.12	119.31	37.18	-45.8	-46.5	25.3	0.00e+00	0	46	0	1355808768	60	8317
2026-01-28 09:45:40.13	119.13	37.41	-45.7	-46.5	25.3	0.00e+00	0	46	0	1361051648	60	8257
2026-01-28 09:45:41.12	118.95	37.63	-45.8	-46.6	25.1	0.00e+00	0	46	0	1367343104	60	8358
2026-01-28 09:45:42.13	118.76	37.85	-45.7	-46.4	25.4	0.00e+00	0	46	0	1372585984	60	8186
2026-01-28 09:45:43.14	118.57	38.08	-45.7	-46.4	25.3	0.00e+00	0	46	0	1377828864	60	8221
2026-01-28 09:45:44.14	118.38	38.30	-45.7	-46.5	25.3	0.00e+00	0	46	0	1384120320	60	8258
2026-01-28 09:45:45.15	118.18	38.53	-45.8	-46.6	25.1	0.00e+00	0	46	0	1389363200	60	8383
2026-01-28 09:45:46.16	117.98	38.76	-45.8	-46.6	25.1	0.00e+00	0	46	0	1395654656	60	8393
2026-01-28 09:45:47.15	117.78	38.98	-45.8	-46.6	25.1	0.00e+00	0	46	0	1400897536	60	8421
2026-01-28 09:45:48.16	117.58	39.22	-45.9	-46.7	25.1	0.00e+00	0	46	0	1406140416	60	8470
2026-01-28 09:45:49.16	117.37	39.45	-45.9	-46.7	25.0	0.00e+00	0	46	0	1412431872	60	8475
2026-01-28 09:45:50.17	117.16	39.68	-46.0	-46.8	25.0	0.00e+00	0	46	0	1417674752	60	8584
2026-01-28 09:45:51.17	116.95	39.91	-45.9	-46.8	25.0	0.00e+00	0	46	0	1423966208	60	8571
2026-01-28 09:45:52.18	116.73	40.15	-45.9	-46.8	24.9	0.00e+00	0	46	0	1429209088	60	8561
2026-01-28 09:45:53.19	116.51	40.38	-46.1	-46.9	24.9	0.00e+00	0	46	0	1435500544	60	8685
2026-01-28 09:45:54.19	116.28	40.62	-46.0	-46.8	25.0	0.00e+00	0	46	0	1440743424	60	8605
2026-01-28 09:45:55.20	116.06	40.86	-45.9	-46.7	24.9	0.00e+00	0	46	0	1445986304	60	8514
2026-01-28 09:45:56.21	115.83	41.10	-46.1	-46.9	24.5	0.00e+00	0	46	0	1452277760	60	8684
2026-01-28 09:45:57.22	115.59	41.34	-46.1	-47.0	24.5	0.00e+00	0	46	0	1457520640	60	8780
2026-01-28 09:45:58.23	115.35	41.58	-46.2	-47.1	24.7	0.00e+00	0	46	0	1463812096	60	8837
2026-01-28 09:45:59.23	115.11	41.82	-46.0	-46.8	24.8	0.00e+00	0	46	0	1469054976	60	8582
2026-01-28 09:46:00.23	114.87	42.07	-46.1	-46.8	24.4	0.00e+00	0	46	0	1474297856	60	8608
2026-01-28 09:46:01.23	114.62	42.31	-46.0	-46.8	24.7	0.00e+00	0	46	0	1480589312	60	8536
2026-01-28 09:46:02.24	114.37	42.56	-46.2	-47.0	24.8	0.00e+00	0	46	0	1485832192	60	8748
2026-01-28 09:46:03.25	114.11	42.80	-46.2	-46.9	24.8	0.00e+00	0	46	0	1491075072	60	8681
2026-01-28 09:46:04.25	113.86	43.05	-46.2	-46.9	24.7	0.00e+00	0	46	0	1497366528	60	8695
2026-01-28 09:46:05.25	113.59	43.30	-46.4	-47.2	24.5	0.00e+00	0	46	0	1502609408	60	8941
2026-01-28 09:46:06.26	113.32	43.55	-46.5	-47.3	24.6	0.00e+00	0	46	0	1507852288	60	9104
2026-01-28 09:46:07.27	113.05	43.80	-46.5	-47.3	24.8	0.00e+00	0	46	0	1514143744	60	9077
2026-01-28 09:46:08.26	112.78	44.04	-46.4	-47.2	24.9	0.00e+00	0	46	0	1519386624	60	9013
2026-01-28 09:46:09.27	112.50	44.30	-46.5	-47.3	24.8	0.00e+00	0	46	0	1525678080	60	9091
2026-01-28 09:46:10.28	112.21	44.55	-46.4	-47.2	24.9	0.00e+00	0	46	0	1530920960	60	8990
2026-01-28 09:46:11.29	111.92	44.80	-46.3	-47.1	25.1	0.00e+00	0	46	0	1537212416	60	8845
2026-01-28 09:46:12.29	111.63	45.06	-46.1	-46.9	25.1	0.00e+00	0	46	0	1542455296	60	8685
2026-01-28 09:46:13.30	111.32	45.31	-46.0	-46.7	25.3	0.00e+00	0	46	0	1548746752	60	8502
2026-01-28 09:46:14.29	111.02	45.56	-45.9	-46.7	25.4	0.00e+00	0	46	0	1553989632	60	8454
2026-01-28 09:46:15.30	110.71	45.82	-46.1	-46.9	25.1	0.00e+00	0	46	0	1559232512	60	8651
2026-01-28 09:46:16.31	110.40	46.08	-46.4	-47.3	24.6	0.00e+00	0	46	0	1565523968	60	9066
2026-01-28 09:46:17.31	110.08	46.34	-46.7	-47.5	24.5	0.00e+00	0	46	0	1570766848	60	9310
2026-01-28 09:46:18.31	109.76	46.59	-46.6	-47.5	24.3	0.00e+00	0	46	0	1576009728	60	9327
2026-01-28 09:46:19.32	109.42	46.85	-46.5	-47.4	24.1	0.00e+00	0	46	0	1582301184	60	9202
2026-01-28 09:46:20.32	109.09	47.11	-46.5	-47.5	24.2	0.00e+00	0	46	0	1587544064	60	9244
2026-01-28 09:46:21.33	108.75	47.37	-46.4	-47.3	24.3	0.00e+00	0	46	0	1592786944	60	9084
2026-01-28 09:46:22.34	108.40	47.63	-46.5	-47.4	24.0	0.00e+00	0	46	0	1599078400	60	9204
2026-01-28 09:46:23.35	108.04	47.89	-46.8	-47.7	24.1	0.00e+00	0	46	0	1604321280	60	9506
2026-01-28 09:46:24.35	107.68	48.15	-46.8	-47.7	23.9	0.00e+00	0	46	0	1610612736	60	9543
2026-01-28 09:46:25.36	107.32	48.42	-46.6	-47.5	24.2	0.00e+00	0	46	0	1615855616	60	9285
2026-01-28 09:46:26.37	106.94	48.68	-46.5	-47.4	24.3	0.00e+00	0	46	0	1621098496	60	9144
2026-01-28 09:46:27.38	106.56	48.94	-46.7	-47.6	24.1	0.00e+00	0	46	0	1627389952	60	9444
2026-01-28 09:46:28.39	106.17	49.21	-47.0	-47.9	23.9	0.00e+00	0	46	0	1633681408	60	9744
2026-01-28 09:46:29.39	105.78	49.47	-47.1	-48.0	23.9	0.00e+00	0	46	0	1638924288	60	9837
2026-01-28 09:46:30.39	105.39	49.73	-47.1	-48.0	23.7	0.00e+00	0	46	0	1644167168	60	9898
2026-01-28 09:46:31.40	104.98	49.99	-47.1	-48.1	23.8	0.00e+00	0	46	0	1650458624	60	9903
2026-01-28 09:46:32.41	104.57	50.25	-47.2	-48.1	23.4	0.00e+00	0	46	0	1655701504	60	9992
2026-01-28 09:46:33.42	104.14	50.52	-46.9	-47.9	23.4	0.00e+00	0	46	0	1660944384	60	9678
2026-01-28 09:46:34.43	103.71	50.78	-46.8	-47.8	23.7	0.00e+00	0	46	0	1667235840	60	9570
2026-01-28 09:46:35.44	103.28	51.04	-47.0	-48.0	23.3	0.00e+00	0	46	0	1672478720	60	9844
2026-01-28 09:46:36.44	102.84	51.30	-47.1	-48.2	23.4	0.00e+00	0	46	0	1677721600	60	10016
2026-01-28 09:46:37.45	102.38	51.56	-47.0	-48.0	23.3	0.00e+00	0	46	0	1684013056	60	9856
2026-01-28 09:46:38.46	101.92	51.82	-47.2	-48.1	23.3	0.00e+00	0	46	0	1689255936	60	9961
2026-01-28 09:46:39.47	101.45	52.09	-47.1	-48.0	23.5	0.00e+00	0	46	0	1695547392	60	9829
2026-01-28 09:46:40.47	100.98	52.34	-47.0	-47.8	23.8	0.00e+00	0	46	0	1700790272	60	9649
2026-01-28 09:46:41.48	100.50	52.60	-47.1	-48.0	23.8	0.00e+00	0	46	0	1707081728	60	9804
2026-01-28 09:46:42.49	100.00	52.86	-47.1	-47.9	24.1	0.00e+00	0	46	0	1712324608	60	9736
2026-01-28 09:46:43.50	99.50	53.12	-47.0	-47.8	24.2	0.00e+00	0	46	0	1718616064	60	9644
2026-01-28 09:46:44.51	98.99	53.38	-47.1	-47.8	24.3	0.00e+00	0	46	0	1723858944	60	9626
2026-01-28 09:46:45.51	98.47	53.63	-47.3	-48.1	24.0	0.00e+00	0	46	0	1729101824	60	9929
2026-01-28 09:46:46.52	97.94	53.88	-47.4	-48.3	24.1	0.00e+00	0	46	0	1735393280	60	10143
2026-01-28 09:46:47.53	97.40	54.14	-47.6	-48.4	24.0	0.00e+00	0	46	0	1740636160	60	10312
2026-01-28 09:46:48.53	96.86	54.39	-47.4	-48.2	24.1	0.00e+00	0	46	0	1745879040	60	10120
2026-01-28 09:46:49.54	96.30	54.64	-47.1	-47.9	24.4	0.00e+00	0	46	0	1752170496	60	9722
2026-01-28 09:46:50.55	95.73	54.88	-46.9	-47.7	24.7	0.00e+00	0	46	0	1757413376	60	9488
2026-01-28 09:46:51.55	95.15	55.13	-47.1	-47.9	24.5	0.00e+00	0	46	0	1762656256	60	9703
2026-01-28 09:46:52.56	94.56	55.37	-47.2	-48.0	24.4	0.00e+00	0	46	0	1768947712	60	9891
2026-01-28 09:46:53.56	93.97	55.62	-47.3	-48.1	24.4	0.00e+00	0	46	0	1774190592	60	9956
2026-01-28 09:46:54.57	93.36	55.86	-47.3	-48.1	24.3	0.00e+00	0	46	0	1780482048	60	9923
2026-01-28 09:46:55.58	92.74	56.10	-47.2	-48.0	24.4	0.00e+00	0	46	0	1785724928	60	9822
2026-01-28 09:46:56.59	92.11	56.33	-47.0	-47.8	24.7	0.00e+00	0	46	0	1792016384	60	9626
2026-01-28 09:46:57.59	91.47	56.56	-46.8	-47.6	24.8	0.00e+00	0	46	0	1797259264	60	9382
2026-01-28 09:46:58.60	90.82	56.80	-46.8	-47.5	24.8	0.00e+00	0	46	0	1803550720	60	9328
2026-01-28 09:46:59.61	90.15	57.02	-47.0	-47.8	24.3	0.00e+00	0	46	0	1808793600	60	9659
2026-01-28 09:47:00.62	89.48	57.25	-47.0	-47.9	24.3	0.00e+00	0	46	0	1814036480	60	9705
2026-01-28 09:47:01.63	88.79	57.47	-46.9	-47.8	24.5	0.00e+00	0	46	0	1820327936	60	9595
2026-01-28 09:47:02.64	88.10	57.69	-46.9	-47.6	24.7	0.00e+00	0	46	0	1825570816	60	9429
2026-01-28 09:47:03.64	87.39	57.91	-47.2	-48.0	24.1	0.00e+00	0	46	0	1830813696	60	9861
2026-01-28 09:47:04.65	86.67	58.12	-47.2	-48.0	24.1	0.00e+00	0	46	0	1837105152	60	9871
2026-01-28 09:47:05.65	85.95	58.33	-47.1	-47.9	24.2	0.00e+00	0	46	0	1842348032	60	9737
2026-01-28 09:47:06.66	85.20	58.53	-47.1	-47.9	24.2	0.00e+00	0	46	0	1847590912	60	9727
2026-01-28 09:47:07.67	84.45	58.74	-47.3	-48.0	24.3	0.00e+00	0	46	0	1853882368	60	9873
2026-01-28 09:47:08.68	83.68	58.94	-47.1	-47.8	24.6	0.00e+00	0	46	0	1860173824	60	9645
2026-01-28 09:47:09.68	82.91	59.13	-46.7	-47.5	24.7	0.00e+00	0	46	0	1865416704	60	9312
2026-01-28 09:47:10.69	82.12	59.32	-47.0	-47.7	24.3	0.00e+00	0	46	0	1870659584	60	9467
2026-01-28 09:47:11.69	81.33	59.50	-47.4	-48.3	23.9	0.00e+00	0	46	0	1876951040	60	10158
2026-01-28 09:47:12.70	80.52	59.68	-47.7	-48.6	23.7	0.00e+00	0	46	0	1882193920	60	10541
2026-01-28 09:47:13.71	79.69	59.86	-47.7	-48.5	23.9	0.00e+00	0	46	0	1888485376	60	10463
2026-01-28 09:47:14.72	78.86	60.03	-47.8	-48.6	24.1	0.00e+00	0	46	0	1893728256	60	10517
2026-01-28 09:47:15.73	78.01	60.19	-47.7	-48.5	24.2	0.00e+00	0	46	0	1898971136	60	10476
2026-01-28 09:47:16.74	77.16	60.35	-47.8	-48.7	24.3	0.00e+00	0	46	0	1905262592	60	10615
2026-01-28 09:47:17.75	76.29	60.51	-47.2	-48.1	24.7	0.00e+00	0	46	0	1910505472	60	9921
2026-01-28 09:47:18.75	75.42	60.66	-46.9	-47.7	25.0	0.00e+00	0	46	0	1915748352	60	9476
2026-01-28 09:47:19.76	74.53	60.80	-47.3	-48.1	24.4	0.00e+00	0	46	0	1922039808	60	9975
2026-01-28 09:47:20.77	73.63	60.94	-47.2	-48.0	24.6	0.00e+00	0	46	0	1927282688	60	9846
2026-01-28 09:47:21.77	72.74	61.07	-46.7	-47.4	24.7	0.00e+00	0	46	0	1932525568	60	9197
2026-01-28 09:47:22.77	71.83	61.19	-46.5	-47.3	24.8	0.00e+00	0	46	0	1938817024	60	9101
2026-01-28 09:47:23.78	70.90	61.31	-46.8	-47.6	24.3	0.00e+00	0	46	0	1945108480	60	9410
2026-01-28 09:47:24.79	69.97	61.42	-47.2	-48.0	24.0	0.00e+00	0	46	0	1950351360	60	9898
2026-01-28 09:47:25.79	69.03	61.53	-46.8	-47.7	24.4	0.00e+00	0	46	0	1955594240	60	9516
2026-01-28 09:47:26.80	68.08	61.63	-46.4	-47.2	25.1	0.00e+00	0	46	0	1961885696	60	9008
2026-01-28 09:47:27.81	67.13	61.72	-46.4	-47.1	25.2	0.00e+00	0	46	0	1967128576	60	8923
2026-01-28 09:47:28.81	66.17	61.81	-46.2	-46.9	25.7	0.00e+00	0	46	0	1973420032	60	8673
2026-01-28 09:47:29.82	65.20	61.89	-46.1	-46.8	25.7	0.00e+00	0	46	0	1978662912	60	8618
2026-01-28 09:47:30.82	64.23	61.96	-46.2	-46.9	25.6	0.00e+00	0	46	0	1983905792	60	8666
2026-01-28 09:47:31.83	63.25	62.03	-46.4	-47.2	25.4	0.00e+00	0	46	0	1990197248	60	8943
2026-01-28 09:47:32.84	62.26	62.08	-46.3	-47.0	25.4	0.00e+00	0	46	0	1995440128	60	8784
2026-01-28 09:47:33.85	61.27	62.13	-46.1	-46.8	25.7	0.00e+00	0	46	0	2000683008	60	8615
2026-01-28 09:47:34.86	60.27	62.18	-45.9	-46.6	25.7	0.00e+00	0	46	0	2006974464	60	8363
2026-01-28 09:47:35.86	59.28	62.21	-46.1	-46.8	25.6	0.00e+00	0	46	0	2012217344	60	8573
2026-01-28 09:47:36.87	58.28	62.24	-45.9	-46.6	25.6	0.00e+00	0	46	0	2018508800	60	8423
2026-01-28 09:47:37.88	57.28	62.26	-45.8	-46.5	25.6	0.00e+00	0	46	0	2023751680	60	8263
2026-01-28 09:47:38.89	56.27	62.28	-45.8	-46.6	25.4	0.00e+00	0	46	0	2030043136	60	8354
2026-01-28 09:47:39.89	55.28	62.28	-45.9	-46.6	25.5	0.00e+00	0	46	0	2035286016	60	8367
2026-01-28 09:47:40.90	54.27	62.28	-46.0	-46.7	25.4	0.00e+00	0	46	0	2040528896	60	8505
2026-01-28 09:47:41.91	53.26	62.27	-46.0	-46.7	25.4	0.00e+00	0	46	0	2046820352	60	8457
2026-01-28 09:47:42.91	52.27	62.26	-45.6	-46.3	25.8	0.00e+00	0	46	0	2052063232	60	8113
2026-01-28 09:47:43.92	51.26	62.23	-45.9	-46.6	25.6	0.00e+00	0	46	0	2058354688	60	8362
2026-01-28 09:47:44.92	50.27	62.20	-45.9	-46.5	25.8	0.00e+00	0	46	0	2063597568	60	8307
2026-01-28 09:47:45.92	49.29	62.16	-45.6	-46.3	26.0	0.00e+00	0	46	0	2068840448	60	8057
2026-01-28 09:47:46.93	48.29	62.12	-45.8	-46.4	26.0	0.00e+00	0	46	0	2075131904	60	8183
2026-01-28 09:47:47.94	47.30	62.06	-46.1	-46.7	25.7	0.00e+00	0	46	0	2080374784	60	8506
2026-01-28 09:47:48.95	46.31	62.00	-46.1	-46.7	25.8	0.00e+00	0	46	0	2085617664	60	8463
2026-01-28 09:47:49.95	45.34	61.94	-46.3	-47.0	25.5	0.00e+00	0	46	0	2091909120	60	8788
2026-01-28 09:47:50.96	44.37	61.86	-46.5	-47.2	25.5	0.00e+00	0	46	0	2097152000	60	8962
2026-01-28 09:47:51.97	43.40	61.78	-46.2	-46.9	25.5	0.00e+00	0	46	0	2102394880	60	8658
2026-01-28 09:47:52.98	42.44	61.69	-46.0	-46.7	25.8	0.00e+00	0	46	0	2108686336	60	8468
2026-01-28 09:47:53.98	41.49	61.60	-46.1	-46.8	25.4	0.00e+00	0	46	0	2114977792	60	8590
2026-01-28 09:47:54.98	40.55	61.50	-46.3	-47.0	25.6	0.00e+00	0	46	0	2120220672	60	8797
2026-01-28 09:47:55.99	39.61	61.39	-46.2	-46.9	25.4	0.00e+00	0	46	0	2125463552	60	8708
2026-01-28 09:47:56.99	38.69	61.27	-46.1	-46.7	25.8	0.00e+00	0	46	0	2131755008	60	8460
2026-01-28 09:47:58.00	37.77	61.15	-46.2	-46.9	25.5	0.00e+00	0	46	0	2136997888	60	8642
2026-01-28 09:47:59.01	36.86	61.02	-46.7	-47.4	25.1	0.00e+00	0	46	0	2143289344	60	9235
2026-01-28 09:48:00.02	35.95	60.89	-47.0	-47.7	24.7	0.00e+00	0	46	0	2148532224	60	9517
2026-01-28 09:48:01.02	35.07	60.75	-46.8	-47.5	25.1	0.00e+00	0	46	0	2153775104	60	9338
2026-01-28 09:48:02.03	34.19	60.61	-46.6	-47.3	24.9	0.00e+00	0	46	0	2160066560	60	9101
2026-01-28 09:48:03.03	33.32	60.46	-46.5	-47.2	25.3	0.00e+00	0	46	0	2165309440	60	9012
2026-01-28 09:48:04.04	32.46	60.30	-46.5	-47.3	25.1	0.00e+00	0	46	0	2170552320	60	9063
2026-01-28 09:48:05.04	31.61	60.14	-46.5	-47.3	25.4	0.00e+00	0	46	0	2176843776	60	9040
2026-01-28 09:48:06.05	30.77	59.97	-46.8	-47.5	25.0	0.00e+00	0	46	0	2182086656	60	9318
2026-01-28 09:48:07.06	29.94	59.80	-46.8	-47.5	25.0	0.00e+00	0	46	0	2187329536	60	9328
2026-01-28 09:48:08.06	29.13	59.63	-46.6	-47.4	25.1	0.00e+00	0	46	0	2193620992	60	9164
2026-01-28 09:48:09.07	28.32	59.44	-46.4	-47.2	25.4	0.00e+00	0	46	0	2198863872	60	8938
2026-01-28 09:48:10.07	27.53	59.26	-46.6	-47.4	25.2	0.00e+00	0	46	0	2205155328	60	9211
2026-01-28 09:48:11.06	26.76	59.07	-47.0	-47.7	24.7	0.00e+00	0	46	0	2210398208	60	9534
2026-01-28 09:48:12.06	26.00	58.88	-47.0	-47.9	24.9	0.00e+00	0	46	0	2215641088	60	9674
2026-01-28 09:48:13.07	25.24	58.68	-46.9	-47.7	24.9	0.00e+00	0	46	0	2221932544	60	9480
2026-01-28 09:48:14.07	24.49	58.48	-46.9	-47.6	25.0	0.00e+00	0	46	0	2227175424	60	9399
2026-01-28 09:48:15.07	23.76	58.28	-46.5	-47.2	25.3	0.00e+00	0	46	0	2233466880	60	9015
2026-01-28 09:48:16.08	23.03	58.07	-46.6	-47.3	25.1	0.00e+00	0	46	0	2238709760	60	9091
2026-01-28 09:48:17.08	22.32	57.85	-46.6	-47.3	25.3	0.00e+00	0	46	0	2245001216	60	9089
2026-01-28 09:48:18.09	21.62	57.64	-46.7	-47.4	25.1	0.00e+00	0	46	0	2250244096	60	9147
2026-01-28 09:48:19.09	20.93	57.42	-46.9	-47.6	25.0	0.00e+00	0	46	0	2255486976	60	9348
2026-01-28 09:48:20.10	20.25	57.19	-47.0	-47.8	25.0	0.00e+00	0	46	0	2261778432	60	9648
2026-01-28 09:48:21.11	19.58	56.97	-47.0	-47.7	25.0	0.00e+00	0	46	0	2267021312	60	9544
2026-01-28 09:48:22.12	18.92	56.74	-46.8	-47.6	25.0	0.00e+00	0	46	0	2272264192	60	9411
2026-01-28 09:48:23.12	18.27	56.51	-47.5	-48.2	24.6	0.00e+00	0	46	0	2278555648	60	10047
2026-01-28 09:48:24.13	17.63	56.27	-47.5	-48.3	24.4	0.00e+00	0	46	0	2283798528	60	10158
2026-01-28 09:48:25.14	17.01	56.04	-47.2	-48.1	24.6	0.00e+00	0	46	0	2290089984	60	9928
2026-01-28 09:48:26.14	16.40	55.80	-46.8	-47.6	24.9	0.00e+00	0	46	0	2295332864	60	9403
2026-01-28 09:48:27.15	15.79	55.56	-46.7	-47.5	25.0	0.00e+00	0	46	0	2300575744	60	9273
2026-01-28 09:48:28.15	15.20	55.32	-46.8	-47.5	24.9	0.00e+00	0	46	0	2306867200	60	9327
2026-01-28 09:48:29.15	14.62	55.08	-46.7	-47.5	24.9	0.00e+00	0	46	0	2312110080	60	9266
2026-01-28 09:48:30.16	14.04	54.83	-46.4	-47.1	25.2	0.00e+00	0	46	0	2317352960	60	8901
2026-01-28 09:48:31.17	13.48	54.58	-46.4	-47.3	24.9	0.00e+00	0	46	0	2323644416	60	9032
2026-01-28 09:48:32.17	12.93	54.33	-46.8	-47.6	24.8	0.00e+00	0	46	0	2329935872	60	9426
2026-01-28 09:48:33.18	12.38	54.08	-47.0	-47.7	24.7	0.00e+00	0	46	0	2335178752	60	9510
2026-01-28 09:48:34.17	11.85	53.83	-47.0	-47.8	24.6	0.00e+00	0	46	0	2340421632	60	9628
2026-01-28 09:48:35.18	11.33	53.58	-46.8	-47.6	24.9	0.00e+00	0	46	0	2346713088	60	9346
2026-01-28 09:48:36.18	10.81	53.33	-46.6	-47.3	24.8	0.00e+00	0	46	0	2351955968	60	9068
2026-01-28 09:48:37.19	10.30	53.07	-46.6	-47.3	24.9	0.00e+00	0	46	0	2357198848	60	9122
2026-01-28 09:48:38.20	9.80	52.81	-46.5	-47.2	25.0	0.00e+00	0	46	0	2363490304	60	8962
2026-01-28 09:48:39.21	9.31	52.55	-46.5	-47.2	24.9	0.00e+00	0	46	0	2368733184	60	8936
2026-01-28 09:48:40.22	8.83	52.29	-46.5	-47.2	25.0	0.00e+00	0	46	0	2375024640	60	8998
2026-01-28 09:48:41.23	8.35	52.04	-46.7	-47.4	24.8	0.00e+00	0	46	0	2380267520	60	9199
2026-01-28 09:48:42.23	7.89	51.78	-46.7	-47.3	24.8	0.00e+00	0	46	0	2385510400	60	9111
2026-01-28 09:48:43.24	7.43	51.52	-46.6	-47.2	24.9	0.00e+00	0	46	0	2391801856	60	9019
2026-01-28 09:48:44.24	6.99	51.26	-46.6	-47.4	24.8	0.00e+00	0	46	0	2397044736	60	9165
2026-01-28 09:48:45.25	6.55	51.00	-46.6	-47.3	24.8	0.00e+00	0	46	0	2402287616	60	9112
2026-01-28 09:48:46.26	6.11	50.73	-46.6	-47.4	24.8	0.00e+00	0	46	0	2408579072	60	9189
2026-01-28 09:48:47.27	5.69	50.47	-46.4	-47.2	24.8	0.00e+00	0	46	0	2413821952	60	8972
2026-01-28 09:48:48.27	5.27	50.21	-46.2	-46.9	25.1	0.00e+00	0	46	0	2420113408	60	8718
2026-01-28 09:48:49.28	4.86	49.95	-46.0	-46.7	25.4	0.00e+00	0	46	0	2425356288	60	8469
2026-01-28 09:48:50.29	4.45	49.69	-46.1	-46.9	25.2	0.00e+00	0	46	0	2431647744	60	8624
2026-01-28 09:48:51.30	4.05	49.42	-46.2	-46.8	25.1	0.00e+00	0	46	0	2436890624	60	8603
2026-01-28 09:48:52.30	3.67	49.16	-46.1	-46.8	25.2	0.00e+00	0	46	0	2442133504	60	8541
2026-01-28 09:48:53.31	3.28	48.90	-46.0	-46.7	25.2	0.00e+00	0	46	0	2448424960	60	8504
2026-01-28 09:48:54.32	2.90	48.64	-45.8	-46.5	25.2	0.00e+00	0	46	0	2453667840	60	8300
2026-01-28 09:48:55.32	2.53	48.38	-45.7	-46.5	25.3	0.00e+00	0	46	0	2459959296	60	8246
2026-01-28 09:48:56.33	2.17	48.12	-45.8	-46.5	25.2	0.00e+00	0	46	0	2465202176	60	8315
2026-01-28 09:48:57.34	1.81	47.86	-45.7	-46.3	25.2	0.00e+00	0	46	0	2470445056	60	8109
2026-01-28 09:48:58.34	1.46	47.60	-45.6	-46.2	25.2	0.00e+00	0	46	0	2476736512	60	8031
2026-01-28 09:48:59.35	1.11	47.34	-45.4	-46.2	25.4	0.00e+00	0	46	0	2481979392	60	7987
2026-01-28 09:49:00.36	0.77	47.08	-45.3	-45.9	25.6	0.00e+00	0	46	0	2487222272	60	7732
2026-01-28 09:49:01.37	0.44	46.82	-45.2	-45.9	25.8	0.00e+00	0	46	0	2493513728	60	7762
2026-01-28 09:49:02.37	0.11	46.56	-45.3	-46.0	25.6	0.00e+00	0	46	0	2498756608	60	7840
2026-01-28 09:49:03.38	359.78	46.30	-45.4	-46.0	25.7	0.00e+00	0	46	0	2505048064	60	7776
2026-01-28 09:49:04.38	359.47	46.05	-45.4	-46.2	25.7	0.00e+00	0	46	0	2510290944	60	7969
2026-01-28 09:49:05.39	359.15	45.79	-45.4	-46.1	25.8	0.00e+00	0	46	0	2516582400	60	7915
2026-01-28 09:49:06.39	358.85	45.54	-45.3	-46.0	25.9	0.00e+00	0	46	0	2521825280	60	7819
2026-01-28 09:49:07.40	358.54	45.28	-45.3	-46.0	26.0	0.00e+00	0	46	0	2527068160	60	7861
2026-01-28 09:49:08.41	358.24	45.03	-45.5	-46.2	25.9	0.00e+00	0	46	0	2533359616	60	7984
2026-01-28 09:49:09.42	357.95	44.77	-45.5	-46.3	25.8	0.00e+00	0	46	0	2538602496	60	8062
2026-01-28 09:49:10.43	357.66	44.52	-45.6	-46.3	25.8	0.00e+00	0	46	0	2544893952	60	8052
2026-01-28 09:49:11.44	357.37	44.27	-45.6	-46.3	25.7	0.00e+00	0	46	0	2550136832	60	8125
2026-01-28 09:49:12.45	357.09	44.01	-45.6	-46.3	25.7	0.00e+00	0	46	0	2555379712	60	8113
2026-01-28 09:49:13.46	356.82	43.76	-45.5	-46.3	25.7	0.00e+00	0	46	0	2561671168	60	8102
2026-01-28 09:49:14.46	356.55	43.51	-45.4	-46.2	25.8	0.00e+00	0	46	0	2566914048	60	7989
2026-01-28 09:49:15.47	356.28	43.27	-45.2	-45.9	25.9	0.00e+00	0	46	0	2572156928	60	7744
2026-01-28 09:49:16.48	356.02	43.02	-45.1	-45.8	26.0	0.00e+00	0	46	0	2578448384	60	7640
2026-01-28 09:49:17.48	355.76	42.77	-45.2	-45.9	26.0	0.00e+00	0	46	0	2584739840	60	7762
2026-01-28 09:49:18.49	355.50	42.53	-45.3	-45.9	26.0	0.00e+00	0	46	0	2589982720	60	7738
2026-01-28 09:49:19.50	355.25	42.28	-45.4	-46.0	25.8	0.00e+00	0	46	0	2595225600	60	7814
2026-01-28 09:49:20.51	355.00	42.04	-45.4	-46.1	25.7	0.00e+00	0	46	0	2601517056	60	7914
2026-01-28 09:49:21.51	354.76	41.80	-45.4	-46.1	25.8	0.00e+00	0	46	0	2606759936	60	7908
2026-01-28 09:49:22.51	354.53	41.56	-45.2	-45.8	25.9	0.00e+00	0	46	0	2612002816	60	7634
2026-01-28 09:49:23.52	354.29	41.31	-45.2	-46.0	25.8	0.00e+00	0	46	0	2618294272	60	7784
2026-01-28 09:49:24.53	354.06	41.07	-45.3	-46.1	25.7	0.00e+00	0	46	0	2623537152	60	7900
2026-01-28 09:49:25.53	353.83	40.84	-45.5	-46.2	25.7	0.00e+00	0	46	0	2629828608	60	7976
2026-01-28 09:49:26.53	353.60	40.60	-45.5	-46.2	25.6	0.00e+00	0	46	0	2635071488	60	8019
2026-01-28 09:49:27.54	353.38	40.36	-45.5	-46.1	25.6	0.00e+00	0	46	0	2640314368	60	7909
2026-01-28 09:49:28.55	353.16	40.13	-45.5	-46.1	25.6	0.00e+00	0	46	0	2646605824	60	7915
2026-01-28 09:49:29.56	352.95	39.89	-45.5	-46.1	25.6	0.00e+00	0	46	0	2651848704	60	7951
2026-01-28 09:49:30.56	352.73	39.66	-45.5	-46.2	25.8	0.00e+00	0	46	0	2657091584	60	8019
2026-01-28 09:49:31.57	352.52	39.43	-45.5	-46.3	25.6	0.00e+00	0	46	0	2663383040	60	8055
2026-01-28 09:49:32.58	352.32	39.20	-45.3	-45.9	25.8	0.00e+00	0	46	0	2669674496	60	7729
2026-01-28 09:49:33.59	352.11	38.97	-45.1	-45.7	26.0	0.00e+00	0	46	0	2674917376	60	7546
2026-01-28 09:49:34.59	351.91	38.74	-45.1	-45.6	26.1	0.00e+00	0	46	0	2680160256	60	7508
2026-01-28 09:49:35.60	351.72	38.51	-45.1	-45.7	25.9	0.00e+00	0	46	0	2686451712	60	7544
2026-01-28 09:49:36.60	351.52	38.29	-45.2	-46.0	25.8	0.00e+00	0	46	0	2691694592	60	7782
2026-01-28 09:49:37.61	351.33	38.06	-45.4	-46.0	25.7	0.00e+00	0	46	0	2696937472	60	7859
2026-01-28 09:49:38.61	351.14	37.84	-45.4	-46.0	25.7	0.00e+00	0	46	0	2703228928	60	7849
2026-01-28 09:49:39.62	350.95	37.61	-45.4	-46.0	25.7	0.00e+00	0	46	0	2708471808	60	7849
2026-01-28 09:49:40.63	350.77	37.39	-45.2	-46.0	25.9	0.00e+00	0	46	0	2714763264	60	7811
2026-01-28 09:49:41.63	350.59	37.17	-45.2	-45.8	25.9	0.00e+00	0	46	0	2720006144	60	7604
2026-01-28 09:49:42.64	350.41	36.95	-45.1	-45.7	26.1	0.00e+00	0	46	0	2725249024	60	7534
2026-01-28 09:49:43.64	350.23	36.73	-45.2	-45.9	26.0	0.00e+00	0	46	0	2731540480	60	7711
2026-01-28 09:49:44.65	350.06	36.52	-45.2	-45.9	25.9	0.00e+00	0	46	0	2736783360	60	7744
2026-01-28 09:49:45.66	349.88	36.30	-45.3	-45.9	25.9	0.00e+00	0	46	0	2742026240	60	7731
2026-01-28 09:49:46.67	349.71	36.08	-45.1	-45.9	25.9	0.00e+00	0	46	0	2748317696	60	7711
2026-01-28 09:49:47.67	349.55	35.87	-45.0	-45.6	26.0	0.00e+00	0	46	0	2753560576	60	7499
2026-01-28 09:49:48.67	349.38	35.66	-44.9	-45.5	26.0	0.00e+00	0	46	0	2759852032	60	7403
2026-01-28 09:49:49.68	349.22	35.45	-44.9	-45.5	25.9	0.00e+00	0	46	0	2765094912	60	7385
2026-01-28 09:49:50.69	349.06	35.24	-44.9	-45.5	25.8	0.00e+00	0	46	0	2771386368	60	7392
2026-01-28 09:49:51.69	348.90	35.03	-45.0	-45.6	25.7	0.00e+00	0	46	0	2776629248	60	7450
2026-01-28 09:49:52.70	348.74	34.82	-45.2	-45.9	25.5	0.00e+00	0	46	0	2781872128	60	7772
2026-01-28 09:49:53.70	348.59	34.61	-45.3	-46.1	25.3	0.00e+00	0	46	0	2788163584	60	7877
2026-01-28 09:49:54.70	348.44	34.41	-45.2	-46.0	25.3	0.00e+00	0	46	0	2793406464	60	7803
2026-01-28 09:49:55.70	348.29	34.21	-45.1	-45.8	25.1	0.00e+00	0	46	0	2799697920	60	7681
2026-01-28 09:49:56.71	348.14	34.00	-45.1	-45.8	25.1	0.00e+00	0	46	0	2804940800	60	7618
2026-01-28 09:49:57.72	347.99	33.80	-45.0	-45.8	25.1	0.00e+00	0	46	0	2810183680	60	7682
2026-01-28 09:49:58.72	347.85	33.60	-44.9	-45.7	25.2	0.00e+00	0	46	0	2816475136	60	7551
2026-01-28 09:49:59.73	347.70	33.40	-44.9	-45.8	25.3	0.00e+00	0	46	0	2821718016	60	7640
2026-01-28 09:50:00.74	347.56	33.20	-45.0	-45.9	25.3	0.00e+00	0	46	0	2826960896	60	7705
2026-01-28 09:50:01.75	347.42	33.00	-45.0	-45.8	25.5	0.00e+00	0	46	0	2833252352	60	7659
2026-01-28 09:50:02.76	347.28	32.80	-45.0	-45.8	25.5	0.00e+00	0	46	0	2838495232	60	7652
2026-01-28 09:50:03.76	347.15	32.61	-45.0	-45.7	25.7	0.00e+00	0	46	0	2843738112	60	7530
2026-01-28 09:50:04.77	347.01	32.41	-45.1	-45.7	25.6	0.00e+00	0	46	0	2850029568	60	7575
2026-01-28 09:50:05.78	346.88	32.22	-45.2	-45.8	25.6	0.00e+00	0	46	0	2856321024	60	7632
2026-01-28 09:50:06.79	346.75	32.02	-45.2	-45.8	25.5	0.00e+00	0	46	0	2861563904	60	7657
2026-01-28 09:50:07.79	346.62	31.83	-45.2	-46.0	25.2	0.00e+00	0	46	0	2866806784	60	7801
2026-01-28 09:50:08.80	346.49	31.64	-45.3	-46.0	25.1	0.00e+00	0	46	0	2873098240	60	7802
2026-01-28 09:50:09.80	346.36	31.45	-45.3	-46.2	25.0	0.00e+00	0	46	0	2878341120	60	7978
2026-01-28 09:50:10.80	346.24	31.27	-45.3	-46.0	25.0	0.00e+00	0	46	0	2884632576	60	7847
2026-01-28 09:50:11.81	346.11	31.08	-45.3	-46.0	25.2	0.00e+00	0	46	0	2889875456	60	7795
2026-01-28 09:50:12.81	345.99	30.89	-45.4	-46.0	25.2	0.00e+00	0	46	0	2895118336	60	7828
2026-01-28 09:50:13.82	345.87	30.71	-45.3	-46.0	25.3	0.00e+00	0	46	0	2901409792	60	7785
2026-01-28 09:50:14.83	345.75	30.52	-45.4	-46.1	25.3	0.00e+00	0	46	0	2906652672	60	7869
2026-01-28 09:50:15.83	345.63	30.34	-45.5	-46.1	25.1	0.00e+00	0	46	0	2911895552	60	7946
2026-01-28 09:50:16.84	345.52	30.16	-45.5	-46.1	25.1	0.00e+00	0	46	0	2918187008	60	7893
2026-01-28 09:50:17.85	345.40	29.98	-45.7	-46.3	25.0	0.00e+00	0	46	0	2923429888	60	8125
2026-01-28 09:50:18.86	345.29	29.79	-45.6	-46.3	25.3	0.00e+00	0	46	0	2928672768	60	8057
2026-01-28 09:50:19.86	345.18	29.62	-45.5	-46.1	25.3	0.00e+00	0	46	0	2934964224	60	7927
2026-01-28 09:50:20.87	345.06	29.44	-45.6	-46.2	25.4	0.00e+00	0	46	0	2940207104	60	7969
2026-01-28 09:50:21.87	344.95	29.26	-45.4	-46.2	25.3	0.00e+00	0	46	0	2946498560	60	8021
2026-01-28 09:50:22.88	344.84	29.09	-45.5	-46.2	25.1	0.00e+00	0	46	0	2951741440	60	7991
2026-01-28 09:50:23.89	344.74	28.91	-45.5	-46.3	24.8	0.00e+00	0	46	0	2958032896	60	8131
2026-01-28 09:50:24.90	344.63	28.73	-45.4	-46.2	24.6	0.00e+00	0	46	0	2963275776	60	8004
2026-01-28 09:50:25.90	344.53	28.56	-45.5	-46.3	24.5	0.00e+00	0	46	0	2969567232	60	8094
2026-01-28 09:50:26.91	344.42	28.39	-45.4	-46.3	24.4	0.00e+00	0	46	0	2974810112	60	8051
2026-01-28 09:50:27.91	344.32	28.22	-45.4	-46.4	24.2	0.00e+00	0	46	0	2980052992	60	8195
2026-01-28 09:50:28.92	344.22	28.05	-45.5	-46.3	24.2	0.00e+00	0	46	0	2986344448	60	8070
2026-01-28 09:50:29.93	344.12	27.88	-45.4	-46.2	24.4	0.00e+00	0	46	0	2991587328	60	8023
2026-01-28 09:50:30.94	344.02	27.71	-45.5	-46.3	24.6	0.00e+00	0	46	0	2996830208	60	8103
2026-01-28 09:50:31.95	343.92	27.54	-45.5	-46.2	24.7	0.00e+00	0	46	0	3003121664	60	7999
2026-01-28 09:50:32.95	343.82	27.38	-45.6	-46.2	25.1	0.00e+00	0	46	0	3008364544	60	8021
2026-01-28 09:50:33.96	343.72	27.21	-45.5	-46.3	25.2	0.00e+00	0	46	0	3013607424	60	8070
2026-01-28 09:50:34.97	343.63	27.04	-45.5	-46.3	25.4	0.00e+00	0	46	0	3019898880	60	8097
2026-01-28 09:50:35.98	343.53	26.88	-45.4	-46.1	25.4	0.00e+00	0	46	0	3026190336	60	7870
2026-01-28 09:50:36.98	343.44	26.72	-45.4	-46.2	25.1	0.00e+00	0	46	0	3031433216	60	7982
2026-01-28 09:50:38.00	343.35	26.55	-45.3	-46.0	25.0	0.00e+00	0	46	0	3036676096	60	7850
2026-01-28 09:50:39.00	343.26	26.39	-45.3	-46.2	24.8	0.00e+00	0	46	0	3042967552	60	8016
2026-01-28 09:50:40.01	343.16	26.23	-45.2	-46.2	24.6	0.00e+00	0	46	0	3048210432	60	7964
2026-01-28 09:50:41.01	343.08	26.07	-45.2	-46.2	24.7	0.00e+00	0	46	0	3054501888	60	7984
2026-01-28 09:50:42.02	342.99	25.91	-45.3	-46.1	24.7	0.00e+00	0	46	0	3059744768	60	7919
2026-01-28 09:50:43.02	342.90	25.76	-45.4	-46.1	24.8	0.00e+00	0	46	0	3064987648	60	7931
2026-01-28 09:50:44.03	342.81	25.60	-45.5	-46.2	24.9	0.00e+00	0	46	0	3071279104	60	8012
2026-01-28 09:50:45.04	342.73	25.44	-45.7	-46.4	24.9	0.00e+00	0	46	0	3076521984	60	8169
2026-01-28 09:50:46.05	342.64	25.29	-45.6	-46.4	25.1	0.00e+00	0	46	0	3081764864	60	8207
2026-01-28 09:50:47.05	342.56	25.13	-45.7	-46.4	25.0	0.00e+00	0	46	0	3088056320	60	8146
2026-01-28 09:50:48.06	342.47	24.98	-45.8	-46.6	25.0	0.00e+00	0	46	0	3093299200	60	8340
2026-01-28 09:50:49.07	342.39	24.83	-46.0	-46.6	25.0	0.00e+00	0	46	0	3098542080	60	8388
2026-01-28 09:50:50.08	342.31	24.67	-45.8	-46.5	24.7	0.00e+00	0	46	0	3104833536	60	8267
2026-01-28 09:50:51.09	342.23	24.52	-45.9	-46.6	24.6	0.00e+00	0	46	0	3111124992	60	8366
2026-01-28 09:50:52.10	342.15	24.37	-46.0	-46.6	24.5	0.00e+00	0	46	0	3116367872	60	8408
2026-01-28 09:50:53.10	342.07	24.22	-46.0	-46.9	24.5	0.00e+00	0	46	0	3121610752	60	8627
2026-01-28 09:50:54.11	341.99	24.07	-46.0	-46.7	24.4	0.00e+00	0	46	0	3127902208	60	8451
2026-01-28 09:50:55.12	341.91	23.93	-45.9	-46.6	24.5	0.00e+00	0	46	0	3133145088	60	8376
2026-01-28 09:50:56.12	341.84	23.78	-46.0	-46.8	24.3	0.00e+00	0	46	0	3139436544	60	8576
2026-01-28 09:50:57.13	341.76	23.63	-45.8	-46.5	24.5	0.00e+00	0	46	0	3144679424	60	8241
2026-01-28 09:50:58.13	341.69	23.49	-45.8	-46.5	24.5	0.00e+00	0	46	0	3149922304	60	8258
2026-01-28 09:50:59.14	341.61	23.34	-45.7	-46.5	24.5	0.00e+00	0	46	0	3156213760	60	8236
2026-01-28 09:51:00.14	341.54	23.20	-45.8	-46.5	24.5	0.00e+00	0	46	0	3161456640	60	8318
2026-01-28 09:51:01.14	341.47	23.06	-45.8	-46.6	24.6	0.00e+00	0	46	0	3166699520	60	8350
2026-01-28 09:51:02.14	341.39	22.91	-45.8	-46.6	24.6	0.00e+00	0	46	0	3172990976	60	8343
2026-01-28 09:51:03.14	341.32	22.77	-45.8	-46.5	24.7	0.00e+00	0	46	0	3178233856	60	8267
2026-01-28 09:51:04.14	341.25	22.63	-45.9	-46.7	24.7	0.00e+00	0	46	0	3183476736	60	8442
2026-01-28 09:51:05.15	341.18	22.49	-46.0	-46.8	24.8	0.00e+00	0	46	0	3189768192	60	8571
2026-01-28 09:51:06.16	341.11	22.35	-46.1	-46.7	24.8	0.00e+00	0	46	0	3195011072	60	8511
2026-01-28 09:51:07.17	341.04	22.21	-46.1	-46.9	24.7	0.00e+00	0	46	0	3201302528	60	8663
2026-01-28 09:51:08.18	340.97	22.07	-46.1	-46.8	24.6	0.00e+00	0	46	0	3206545408	60	8595
2026-01-28 09:51:09.18	340.91	21.94	-46.3	-47.1	24.4	0.00e+00	0	46	0	3212836864	60	8861
2026-01-28 09:51:10.19	340.84	21.80	-46.2	-47.0	24.4	0.00e+00	0	46	0	3218079744	60	8816
2026-01-28 09:51:11.20	340.77	21.66	-46.4	-47.1	24.1	0.00e+00	0	46	0	3224371200	60	8845
2026-01-28 09:51:12.21	340.70	21.53	-46.4	-47.1	24.0	0.00e+00	0	46	0	3229614080	60	8913
2026-01-28 09:51:13.21	340.64	21.39	-46.3	-47.2	24.0	0.00e+00	0	46	0	3234856960	60	8987
2026-01-28 09:51:14.22	340.57	21.26	-46.3	-47.1	24.0	0.00e+00	0	46	0	3241148416	60	8896
2026-01-28 09:51:15.23	340.51	21.12	-46.3	-47.2	24.1	0.00e+00	0	46	0	3246391296	60	8949
2026-01-28 09:51:16.23	340.45	20.99	-46.3	-47.2	24.1	0.00e+00	0	46	0	3251634176	60	8987
2026-01-28 09:51:17.24	340.38	20.86	-46.3	-47.0	24.3	0.00e+00	0	46	0	3257925632	60	8742
2026-01-28 09:51:18.24	340.32	20.73	-46.2	-47.0	24.3	0.00e+00	0	46	0	3263168512	60	8727
2026-01-28 09:51:19.25	340.26	20.60	-46.2	-47.0	24.5	0.00e+00	0	46	0	3268411392	60	8797
2026-01-28 09:51:20.26	340.20	20.47	-46.2	-47.0	24.6	0.00e+00	0	46	0	3274702848	60	8800
2026-01-28 09:51:21.26	340.14	20.34	-46.2	-47.0	24.5	0.00e+00	0	46	0	3279945728	60	8788
2026-01-28 09:51:22.26	340.08	20.21	-46.2	-47.0	24.5	0.00e+00	0	46	0	3286237184	60	8787
2026-01-28 09:51:23.27	340.02	20.08	-46.1	-46.9	24.5	0.00e+00	0	46	0	3291480064	60	8674
2026-01-28 09:51:24.27	339.96	19.95	-46.0	-46.8	24.5	0.00e+00	0	46	0	3296722944	60	8524
2026-01-28 09:51:25.28	339.90	19.83	-46.0	-46.9	24.4	0.00e+00	0	46	0	3303014400	60	8686
2026-01-28 09:51:26.29	339.84	19.70	-46.2	-46.9	24.3	0.00e+00	0	46	0	3309305856	60	8698
2026-01-28 09:51:27.29	339.79	19.58	-46.2	-47.0	24.3	0.00e+00	0	46	0	3314548736	60	8790
2026-01-28 09:51:28.30	339.73	19.45	-46.2	-46.9	24.3	0.00e+00	0	46	0	3319791616	60	8656
2026-01-28 09:51:29.31	339.67	19.32	-46.2	-46.9	24.3	0.00e+00	0	46	0	3326083072	60	8666
2026-01-28 09:51:30.31	339.62	19.20	-46.3	-47.0	24.2	0.00e+00	0	46	0	3331325952	60	8766
2026-01-28 09:51:31.31	339.56	19.08	-46.4	-47.1	24.1	0.00e+00	0	46	0	3336568832	60	8830
