passes_logs/2026/01/28/R3.2S-Naryan-Mar/R3.2S-Naryan-Mar__20260128_112026_FENGYUN_3D_rec.log

#Pass ID: 20260128_112026_FENGYUN 3D
#Satellite: FENGYUN 3D
#Configuration: FENGYUN 3D
#almurnet v.1.7.20240730
#Start time: 2026-01-28 11:28:24

#Version: 2.2.20231116
#Station: R3.2S-Naryan-Mar
#Location: 53.008057 lon 67.646978 lat
#TLE: 1 43010U 17072A   26027.90082829  .00000305  00000+0  16579-3 0  9998
#TLE: 2 43010  98.9960 359.9183 0002511  88.1058 272.0405 14.19701796425082

#Time	Az	El	Level	Level2	SNR	BER	BlckErr	Temp	State	Recorded	gain1	gain2
2026-01-28 11:28:24.83	270.35	49.29	-56.0	-59.0	3.3	0.00e+00	0	48	0	0	60	105633
2026-01-28 11:28:25.83	270.96	49.22	-57.7	-74.9	3.6	8.45e-01	0	48	104	0	60	216927
2026-01-28 11:28:26.84	271.57	49.14	-57.3	-73.6	3.6	8.46e-01	0	48	104	0	60	187142
2026-01-28 11:28:27.84	272.17	49.06	-57.7	-73.8	3.5	8.46e-01	0	48	104	0	60	192626
2026-01-28 11:28:28.85	272.77	48.98	-58.4	-74.0	3.6	8.45e-01	0	48	104	0	60	195968
2026-01-28 11:28:29.86	273.38	48.90	-58.8	-74.7	3.6	8.45e-01	0	48	104	0	60	212010
2026-01-28 11:28:30.86	273.97	48.81	-61.2	-74.9	3.6	8.45e-01	0	48	104	0	60	218001
2026-01-28 11:28:31.87	274.57	48.72	-61.3	-74.8	3.6	8.45e-01	0	48	104	0	60	215633
2026-01-28 11:28:32.87	275.15	48.62	-61.3	-74.8	3.6	8.44e-01	0	48	104	0	60	215028
2026-01-28 11:28:33.87	275.73	48.53	-61.3	-74.8	3.5	8.45e-01	0	48	104	0	60	214456
2026-01-28 11:28:34.88	276.32	48.43	-61.2	-74.9	3.6	8.45e-01	0	48	104	0	60	217364
2026-01-28 11:28:35.88	276.89	48.32	-61.2	-74.8	3.6	8.45e-01	0	48	104	0	60	214133
2026-01-28 11:28:36.89	277.47	48.22	-61.2	-74.7	3.6	8.44e-01	0	48	104	0	60	213972
2026-01-28 11:28:37.90	278.04	48.11	-61.2	-74.8	3.6	8.45e-01	0	48	104	0	60	215627
2026-01-28 11:28:38.91	278.61	48.00	-61.2	-74.8	3.6	8.45e-01	0	48	104	0	60	215313
2026-01-28 11:28:39.91	279.17	47.88	-61.2	-74.7	3.6	8.46e-01	0	48	104	0	60	213502
2026-01-28 11:28:40.92	279.73	47.77	-61.2	-74.8	3.6	8.45e-01	0	48	104	0	60	214462
2026-01-28 11:28:41.93	280.29	47.65	-61.2	-74.7	3.6	8.45e-01	0	48	104	0	60	213627
2026-01-28 11:28:42.94	280.84	47.53	-61.2	-74.7	3.6	8.46e-01	0	48	104	0	60	213449
2026-01-28 11:28:43.95	281.39	47.40	-61.2	-74.8	3.6	8.45e-01	0	48	104	0	60	214320
2026-01-28 11:28:44.95	281.92	47.28	-61.2	-74.7	3.6	8.45e-01	0	48	104	0	60	212883
2026-01-28 11:28:45.96	282.46	47.15	-61.2	-74.7	3.6	8.45e-01	0	48	104	0	60	213712
2026-01-28 11:28:46.97	283.00	47.02	-61.2	-74.8	3.6	8.45e-01	0	48	104	0	60	215018
2026-01-28 11:28:47.98	283.53	46.88	-61.2	-74.8	3.6	8.45e-01	0	48	104	0	60	215170
2026-01-28 11:28:48.99	284.05	46.75	-61.2	-74.7	3.6	8.46e-01	0	48	104	0	60	213731
2026-01-28 11:28:49.99	284.57	46.61	-61.2	-74.7	3.6	8.45e-01	0	48	104	0	60	213632
2026-01-28 11:28:51.00	285.09	46.47	-61.2	-74.8	3.6	8.45e-01	0	48	104	0	60	215106
2026-01-28 11:28:52.01	285.60	46.33	-61.2	-74.7	3.6	8.45e-01	0	48	104	0	60	213684
2026-01-28 11:28:53.01	286.10	46.19	-61.2	-74.7	3.6	8.45e-01	0	48	104	0	60	213598
2026-01-28 11:28:54.02	286.60	46.04	-61.2	-74.7	3.6	8.44e-01	0	47	104	0	60	214023
2026-01-28 11:28:55.03	287.10	45.89	-61.2	-74.8	3.6	8.45e-01	0	48	104	0	60	215178
2026-01-28 11:28:56.04	287.59	45.74	-61.2	-74.8	3.6	8.45e-01	0	48	104	0	60	214990
2026-01-28 11:28:57.04	288.08	45.59	-61.2	-74.7	3.6	8.45e-01	0	48	104	0	60	211760
2026-01-28 11:28:58.04	288.56	45.44	-61.1	-74.7	3.6	8.44e-01	0	48	104	0	60	212255
2026-01-28 11:28:59.05	289.04	45.29	-61.2	-74.8	3.6	8.45e-01	0	47	104	0	60	214173
2026-01-28 11:29:00.05	289.51	45.14	-61.2	-74.7	3.6	8.45e-01	0	47	104	0	60	213118
2026-01-28 11:29:01.06	289.98	44.98	-61.1	-74.6	3.6	8.46e-01	0	47	104	0	60	209371
2026-01-28 11:29:02.07	290.45	44.82	-61.1	-74.5	3.6	8.45e-01	0	48	104	0	60	209054
2026-01-28 11:29:03.07	290.90	44.66	-61.2	-74.8	3.6	8.46e-01	0	48	104	0	60	215439
2026-01-28 11:29:04.08	291.36	44.50	-61.1	-74.8	3.6	8.45e-01	0	47	104	0	60	214799
2026-01-28 11:29:05.09	291.81	44.34	-61.1	-74.6	3.6	8.46e-01	0	47	104	0	60	210849
2026-01-28 11:29:06.10	292.26	44.17	-61.1	-74.6	3.6	8.44e-01	0	47	104	0	60	211098
2026-01-28 11:29:07.10	292.70	44.01	-61.1	-74.7	3.6	8.45e-01	0	48	104	0	60	212503
2026-01-28 11:29:08.10	293.13	43.85	-61.1	-74.7	3.6	8.45e-01	0	47	104	0	60	213152
2026-01-28 11:29:09.11	293.57	43.68	-61.1	-74.5	3.6	8.46e-01	0	47	104	0	60	208310
2026-01-28 11:29:10.12	293.99	43.51	-61.1	-74.6	3.6	8.45e-01	0	47	104	0	60	209816
2026-01-28 11:29:11.00	294.37	43.36	-61.1	-74.7	3.6	8.45e-01	0	47	104	0	60	211853
2026-01-28 11:29:12.15	294.85	43.17	-61.1	-73.9	3.6	8.44e-01	0	47	104	0	60	193113
2026-01-28 11:29:13.02	295.20	43.02	-61.0	-73.4	3.6	8.44e-01	0	47	104	0	60	183784
2026-01-28 11:29:14.16	295.67	42.83	-61.1	-73.7	3.6	8.44e-01	0	47	104	0	60	190273
2026-01-28 11:29:15.03	296.02	42.68	-61.1	-74.4	3.6	8.46e-01	0	47	104	0	60	206198
2026-01-28 11:29:16.17	296.48	42.49	-60.7	-69.6	4.8	8.38e-01	0	47	104	0	60	118942
2026-01-28 11:29:17.03	296.82	42.34	-59.8	-65.0	8.0	1.63e-01	0	47	0	2097152	60	69725
2026-01-28 11:29:18.17	297.26	42.14	-56.1	-58.1	15.9	3.82e-03	0	47	0	8388608	60	31333
2026-01-28 11:29:19.04	297.60	41.99	-50.4	-51.3	22.4	0.00e+00	0	47	0	13631488	60	14402
2026-01-28 11:29:20.19	298.04	41.79	-47.1	-47.9	25.2	0.00e+00	0	47	0	19922944	60	9708
2026-01-28 11:29:21.05	298.37	41.64	-60.4	-73.0	3.6	8.54e-01	0	47	104	23068672	60	175257
2026-01-28 11:29:22.20	298.80	41.44	-60.1	-66.7	7.1	5.32e-01	0	47	104	23068672	60	84755
2026-01-28 11:29:23.06	299.12	41.29	-57.2	-60.6	12.4	0.00e+00	0	47	0	1048576	60	41757
2026-01-28 11:29:24.20	299.53	41.09	-57.8	-64.7	8.4	3.52e-02	0	47	0	7340032	60	67445
2026-01-28 11:29:25.07	299.85	40.93	-58.4	-62.9	7.5	0.00e+00	0	47	0	12582912	60	54827
2026-01-28 11:29:26.22	300.26	40.73	-51.5	-52.5	18.4	2.41e-04	0	47	0	18874368	60	16592
2026-01-28 11:29:27.08	300.57	40.58	-52.6	-54.1	20.0	0.00e+00	0	47	0	24117248	60	19898
2026-01-28 11:29:28.23	300.97	40.37	-52.5	-54.1	19.7	0.00e+00	0	47	0	30408704	60	19902
2026-01-28 11:29:29.10	301.27	40.22	-52.2	-53.9	19.7	0.00e+00	0	47	0	34603008	60	19384
2026-01-28 11:29:30.24	301.66	40.01	-51.7	-53.2	19.7	0.00e+00	0	47	0	41943040	60	17945
2026-01-28 11:29:31.10	301.96	39.86	-51.5	-53.0	19.7	0.00e+00	0	47	0	46137344	60	17496
2026-01-28 11:29:32.25	302.34	39.66	-51.6	-53.2	20.0	0.00e+00	0	47	0	53477376	60	17809
2026-01-28 11:29:33.11	302.63	39.50	-51.4	-52.9	20.5	0.00e+00	0	47	0	57671680	60	17349
2026-01-28 11:29:34.26	303.01	39.30	-50.0	-51.1	21.9	0.00e+00	0	47	0	63963136	60	14044
2026-01-28 11:29:35.12	303.29	39.14	-49.1	-50.1	23.1	0.00e+00	0	47	0	69206016	60	12477
2026-01-28 11:29:36.27	303.66	38.94	-48.2	-49.0	24.1	0.00e+00	0	47	0	75497472	60	11004
2026-01-28 11:29:37.13	303.93	38.78	-47.7	-48.4	24.7	0.00e+00	0	47	0	80740352	60	10326
2026-01-28 11:29:38.28	304.29	38.58	-47.3	-48.0	24.9	0.00e+00	0	47	0	87031808	60	9839
2026-01-28 11:29:39.14	304.56	38.42	-47.4	-48.2	24.8	0.00e+00	0	47	0	92274688	60	10017
2026-01-28 11:29:40.30	304.92	38.22	-47.3	-48.0	25.1	0.00e+00	0	47	0	98566144	60	9789
2026-01-28 11:29:41.16	305.18	38.06	-47.3	-47.9	25.0	0.00e+00	0	47	0	102760448	60	9773
2026-01-28 11:29:42.31	305.53	37.86	-47.4	-48.0	25.0	0.00e+00	0	47	0	109051904	60	9882
2026-01-28 11:29:43.17	305.79	37.70	-47.1	-47.9	25.3	0.00e+00	0	47	0	114294784	60	9693
2026-01-28 11:29:44.32	306.12	37.50	-47.0	-47.7	25.4	0.00e+00	0	47	0	121634816	60	9488
2026-01-28 11:29:45.18	306.38	37.34	-46.7	-47.3	25.6	0.00e+00	0	47	0	125829120	60	9089
2026-01-28 11:29:46.33	306.71	37.14	-46.5	-47.2	25.6	0.00e+00	0	47	0	132120576	60	8972
2026-01-28 11:29:47.19	306.95	36.99	-46.3	-46.9	25.7	0.00e+00	0	47	0	137363456	60	8671
2026-01-28 11:29:48.34	307.28	36.78	-46.3	-46.9	25.6	0.00e+00	0	47	0	143654912	60	8714
2026-01-28 11:29:49.20	307.52	36.63	-46.4	-47.1	25.4	0.00e+00	0	47	0	147849216	60	8924
2026-01-28 11:29:50.35	307.84	36.42	-46.5	-47.2	25.3	0.00e+00	0	47	0	155189248	60	9022
2026-01-28 11:29:51.21	308.07	36.27	-46.5	-47.3	25.2	0.00e+00	0	47	0	160432128	60	9070
2026-01-28 11:29:52.36	308.38	36.07	-46.7	-47.4	25.3	0.00e+00	0	47	0	165675008	60	9134
2026-01-28 11:29:53.22	308.61	35.92	-46.7	-47.4	25.5	0.00e+00	0	47	0	170917888	60	9196
2026-01-28 11:29:54.36	308.92	35.72	-46.6	-47.4	25.6	0.00e+00	0	47	0	177209344	60	9219
2026-01-28 11:29:55.23	309.14	35.56	-46.6	-47.4	25.7	0.00e+00	0	47	0	182452224	60	9212
2026-01-28 11:29:56.37	309.44	35.36	-46.7	-47.3	25.7	0.00e+00	0	47	0	188743680	60	9084
2026-01-28 11:29:57.24	309.66	35.21	-46.7	-47.4	25.6	0.00e+00	0	47	0	193986560	60	9172
2026-01-28 11:29:58.39	309.95	35.01	-46.9	-47.6	25.4	0.00e+00	0	47	0	200278016	60	9426
2026-01-28 11:29:59.25	310.17	34.86	-46.9	-47.6	25.5	0.00e+00	0	47	0	204472320	60	9432
2026-01-28 11:30:00.40	310.46	34.66	-46.9	-47.5	25.4	0.00e+00	0	47	0	210763776	60	9344
2026-01-28 11:30:01.27	310.67	34.51	-46.9	-47.5	25.6	0.00e+00	0	47	0	216006656	60	9304
2026-01-28 11:30:02.42	310.95	34.31	-46.8	-47.4	25.5	0.00e+00	0	47	0	223346688	60	9190
2026-01-28 11:30:03.28	311.16	34.16	-46.7	-47.5	25.7	0.00e+00	0	47	0	227540992	60	9245
2026-01-28 11:30:04.43	311.43	33.96	-46.7	-47.3	25.7	0.00e+00	0	47	0	233832448	60	9091
2026-01-28 11:30:05.30	311.64	33.81	-46.6	-47.2	25.8	0.00e+00	0	47	0	239075328	60	9001
2026-01-28 11:30:06.45	311.90	33.61	-46.9	-47.5	25.5	0.00e+00	0	47	0	245366784	60	9301
2026-01-28 11:30:07.31	312.10	33.47	-47.0	-47.7	25.5	0.00e+00	0	47	0	249561088	60	9480
2026-01-28 11:30:08.46	312.37	33.27	-47.2	-47.9	25.3	0.00e+00	0	47	0	256901120	60	9741
2026-01-28 11:30:09.31	312.56	33.13	-47.2	-47.9	25.2	0.00e+00	0	47	0	262144000	60	9777
2026-01-28 11:30:10.46	312.82	32.93	-47.1	-47.9	24.9	0.00e+00	0	47	0	268435456	60	9703
2026-01-28 11:30:11.32	313.01	32.79	-47.1	-47.8	24.8	0.00e+00	0	47	0	272629760	60	9615
2026-01-28 11:30:12.47	313.26	32.59	-46.9	-47.7	24.7	0.00e+00	0	47	0	278921216	60	9509
2026-01-28 11:30:13.33	313.45	32.45	-46.8	-47.5	24.6	0.00e+00	0	47	0	284164096	60	9344
2026-01-28 11:30:14.49	313.70	32.25	-46.9	-47.7	24.6	0.00e+00	0	47	0	290455552	60	9520
2026-01-28 11:30:15.35	313.88	32.11	-47.0	-47.9	24.7	0.00e+00	0	47	0	295698432	60	9711
2026-01-28 11:30:16.50	314.12	31.92	-47.0	-47.8	24.8	0.00e+00	0	47	0	301989888	60	9662
2026-01-28 11:30:17.37	314.30	31.77	-47.0	-48.0	24.9	0.00e+00	0	47	0	307232768	60	9786
2026-01-28 11:30:18.52	314.54	31.58	-47.0	-47.8	25.1	0.00e+00	0	47	0	313524224	60	9600
2026-01-28 11:30:19.38	314.72	31.44	-47.0	-47.9	25.2	0.00e+00	0	47	0	317718528	60	9716
2026-01-28 11:30:20.53	314.95	31.25	-47.0	-47.8	25.3	0.00e+00	0	47	0	325058560	60	9664
2026-01-28 11:30:21.40	315.12	31.11	-47.0	-47.8	25.5	0.00e+00	0	47	0	329252864	60	9605
2026-01-28 11:30:22.55	315.35	30.92	-47.0	-47.8	25.5	0.00e+00	0	47	0	335544320	60	9603
2026-01-28 11:30:23.41	315.52	30.78	-47.0	-47.6	25.5	0.00e+00	0	47	0	340787200	60	9401
2026-01-28 11:30:24.56	315.74	30.59	-47.0	-47.7	25.5	0.00e+00	0	47	0	347078656	60	9547
2026-01-28 11:30:25.42	315.91	30.46	-47.0	-47.8	25.4	0.00e+00	0	47	0	352321536	60	9592
2026-01-28 11:30:26.57	316.13	30.27	-47.0	-47.8	25.4	0.00e+00	0	47	0	358612992	60	9584
2026-01-28 11:30:27.44	316.29	30.13	-47.0	-47.7	25.2	0.00e+00	0	47	0	363855872	60	9498
2026-01-28 11:30:28.59	316.51	29.95	-47.2	-47.8	25.2	0.00e+00	0	47	0	370147328	60	9647
2026-01-28 11:30:29.46	316.67	29.81	-47.3	-47.9	25.0	0.00e+00	0	47	0	374341632	60	9785
2026-01-28 11:30:30.61	316.88	29.63	-47.3	-48.0	24.9	0.00e+00	0	47	0	381681664	60	9896
2026-01-28 11:30:31.47	317.04	29.49	-47.4	-48.1	24.9	0.00e+00	0	47	0	385875968	60	10006
2026-01-28 11:30:32.62	317.24	29.31	-47.4	-48.2	25.0	0.00e+00	0	47	0	393216000	60	10103
2026-01-28 11:30:33.48	317.40	29.17	-47.3	-48.1	25.1	0.00e+00	0	47	0	397410304	60	9909
2026-01-28 11:30:34.63	317.60	28.99	-47.2	-48.1	25.2	0.00e+00	0	47	0	403701760	60	9925
2026-01-28 11:30:35.50	317.75	28.86	-47.1	-47.8	25.3	0.00e+00	0	47	0	408944640	60	9662
2026-01-28 11:30:36.65	317.95	28.68	-47.0	-47.8	25.2	0.00e+00	0	47	0	415236096	60	9647
2026-01-28 11:30:37.51	318.10	28.55	-46.9	-47.7	25.2	0.00e+00	0	47	0	419430400	60	9499
2026-01-28 11:30:38.66	318.29	28.37	-46.9	-47.7	25.1	0.00e+00	0	47	0	426770432	60	9468
2026-01-28 11:30:39.52	318.44	28.24	-47.0	-47.6	25.0	0.00e+00	0	47	0	432013312	60	9405
2026-01-28 11:30:40.67	318.63	28.06	-46.9	-47.5	25.0	0.00e+00	0	47	0	438304768	60	9291
2026-01-28 11:30:41.53	318.77	27.93	-46.8	-47.5	25.2	0.00e+00	0	47	0	442499072	60	9293
2026-01-28 11:30:42.68	318.96	27.76	-46.8	-47.4	25.2	0.00e+00	0	47	0	448790528	60	9161
2026-01-28 11:30:43.54	319.10	27.63	-46.8	-47.5	25.2	0.00e+00	0	47	0	454033408	60	9314
2026-01-28 11:30:44.69	319.28	27.45	-46.8	-47.6	25.3	0.00e+00	0	47	0	460324864	60	9399
2026-01-28 11:30:45.55	319.42	27.32	-46.9	-47.5	25.3	0.00e+00	0	47	0	465567744	60	9288
2026-01-28 11:30:46.70	319.60	27.15	-46.9	-47.6	25.3	0.00e+00	0	47	0	471859200	60	9422
2026-01-28 11:30:47.57	319.74	27.02	-46.9	-47.7	25.3	0.00e+00	0	47	0	477102080	60	9491
2026-01-28 11:30:48.72	319.92	26.85	-47.0	-47.6	25.2	0.00e+00	0	47	0	483393536	60	9370
2026-01-28 11:30:49.58	320.05	26.73	-47.0	-47.7	25.1	0.00e+00	0	47	0	487587840	60	9470
2026-01-28 11:30:50.74	320.23	26.56	-47.1	-47.8	25.0	0.00e+00	0	47	0	494927872	60	9581
2026-01-28 11:30:51.60	320.36	26.43	-47.2	-48.0	24.9	0.00e+00	0	47	0	499122176	60	9812
2026-01-28 11:30:52.76	320.53	26.26	-47.2	-48.0	24.8	0.00e+00	0	47	0	505413632	60	9833
2026-01-28 11:30:53.62	320.66	26.14	-47.1	-47.9	24.7	0.00e+00	0	47	0	510656512	60	9693
2026-01-28 11:30:54.77	320.83	25.97	-47.1	-47.9	24.8	0.00e+00	0	47	0	516947968	60	9727
2026-01-28 11:30:55.63	320.95	25.85	-47.0	-47.8	24.8	0.00e+00	0	47	0	522190848	60	9649
2026-01-28 11:30:56.78	321.12	25.68	-47.0	-47.9	24.7	0.00e+00	0	47	0	528482304	60	9756
2026-01-28 11:30:57.64	321.24	25.56	-47.0	-47.8	24.8	0.00e+00	0	47	0	533725184	60	9582
2026-01-28 11:30:58.79	321.40	25.40	-47.1	-47.8	24.6	0.00e+00	0	47	0	540016640	60	9636
2026-01-28 11:30:59.65	321.52	25.27	-47.2	-47.9	24.6	0.00e+00	0	47	0	544210944	60	9764
2026-01-28 11:31:00.80	321.68	25.11	-47.1	-48.0	24.7	0.00e+00	0	47	0	550502400	60	9790
2026-01-28 11:31:01.66	321.80	24.99	-47.1	-47.9	24.8	0.00e+00	0	47	0	555745280	60	9751
2026-01-28 11:31:02.80	321.96	24.83	-47.0	-47.8	24.8	0.00e+00	0	47	0	562036736	60	9601
2026-01-28 11:31:03.66	322.08	24.71	-47.0	-47.7	24.9	0.00e+00	0	47	0	567279616	60	9505
2026-01-28 11:31:04.81	322.23	24.55	-47.1	-47.8	24.9	0.00e+00	0	47	0	573571072	60	9607
2026-01-28 11:31:05.68	322.35	24.43	-47.1	-47.7	25.0	0.00e+00	0	47	0	578813952	60	9559
2026-01-28 11:31:06.83	322.50	24.28	-47.2	-48.0	24.9	0.00e+00	0	47	0	585105408	60	9801
2026-01-28 11:31:07.70	322.61	24.16	-47.1	-48.0	24.8	0.00e+00	0	47	0	589299712	60	9801
2026-01-28 11:31:08.85	322.76	24.00	-47.2	-48.0	24.7	0.00e+00	0	47	0	596639744	60	9855
2026-01-28 11:31:09.71	322.87	23.88	-47.2	-48.1	24.7	0.00e+00	0	47	0	601882624	60	9904
2026-01-28 11:31:10.87	323.02	23.73	-47.2	-48.0	24.5	0.00e+00	0	47	0	608174080	60	9885
2026-01-28 11:31:11.73	323.13	23.61	-47.2	-48.1	24.4	0.00e+00	0	47	0	612368384	60	9960
2026-01-28 11:31:12.88	323.27	23.46	-47.3	-48.2	24.4	0.00e+00	0	47	0	618659840	60	10044
2026-01-28 11:31:13.74	323.38	23.34	-47.4	-48.2	24.2	0.00e+00	0	47	0	623902720	60	10074
2026-01-28 11:31:14.88	323.52	23.19	-47.4	-48.2	24.3	0.00e+00	0	47	0	630194176	60	10026
2026-01-28 11:31:15.75	323.63	23.08	-47.5	-48.4	24.2	0.00e+00	0	47	0	635437056	60	10282
2026-01-28 11:31:16.90	323.77	22.92	-47.5	-48.2	24.2	0.00e+00	0	47	0	641728512	60	10123
2026-01-28 11:31:17.76	323.87	22.81	-47.6	-48.4	24.1	0.00e+00	0	47	0	646971392	60	10347
2026-01-28 11:31:18.91	324.01	22.66	-47.6	-48.4	24.2	0.00e+00	0	47	0	653262848	60	10254
2026-01-28 11:31:19.78	324.12	22.55	-47.7	-48.5	24.1	0.00e+00	0	47	0	657457152	60	10440
2026-01-28 11:31:20.93	324.25	22.40	-47.8	-48.5	24.0	0.00e+00	0	47	0	664797184	60	10460
2026-01-28 11:31:21.79	324.35	22.29	-47.8	-48.6	24.0	0.00e+00	0	47	0	668991488	60	10487
2026-01-28 11:31:22.94	324.48	22.14	-47.8	-48.7	24.1	0.00e+00	0	47	0	675282944	60	10672
2026-01-28 11:31:23.80	324.58	22.03	-47.8	-48.5	24.1	0.00e+00	0	47	0	680525824	60	10442
2026-01-28 11:31:24.95	324.71	21.88	-47.9	-48.5	24.1	0.00e+00	0	47	0	686817280	60	10466
2026-01-28 11:31:25.82	324.81	21.77	-47.9	-48.7	24.0	0.00e+00	0	47	0	692060160	60	10637
2026-01-28 11:31:26.96	324.94	21.63	-47.9	-48.7	24.1	0.00e+00	0	46	0	698351616	60	10660
2026-01-28 11:31:27.83	325.04	21.52	-47.9	-48.6	24.0	0.00e+00	0	47	0	703594496	60	10507
2026-01-28 11:31:28.98	325.17	21.38	-47.9	-48.6	24.0	0.00e+00	0	47	0	709885952	60	10559
2026-01-28 11:31:29.84	325.26	21.27	-47.9	-48.8	23.9	0.00e+00	0	47	0	714080256	60	10744
2026-01-28 11:31:30.99	325.39	21.13	-47.9	-48.7	23.9	0.00e+00	0	47	0	720371712	60	10626
2026-01-28 11:31:31.85	325.48	21.02	-48.0	-48.8	23.8	0.00e+00	0	47	0	725614592	60	10827
2026-01-28 11:31:33.00	325.60	20.88	-48.0	-48.9	23.8	0.00e+00	0	47	0	731906048	60	10870
2026-01-28 11:31:33.86	325.69	20.77	-48.0	-48.9	23.9	0.00e+00	0	47	0	737148928	60	10874
2026-01-28 11:31:35.01	325.81	20.63	-48.0	-48.7	23.9	0.00e+00	0	47	0	743440384	60	10690
2026-01-28 11:31:35.87	325.90	20.53	-48.0	-48.7	23.9	0.00e+00	0	47	0	748683264	60	10665
2026-01-28 11:31:37.02	326.02	20.39	-48.0	-48.8	23.9	0.00e+00	0	47	0	754974720	60	10782
2026-01-28 11:31:37.88	326.11	20.28	-48.1	-48.7	24.0	0.00e+00	0	47	0	759169024	60	10714
2026-01-28 11:31:39.03	326.23	20.15	-48.1	-48.9	23.8	0.00e+00	0	47	0	766509056	60	10974
2026-01-28 11:31:39.90	326.32	20.04	-48.1	-48.8	24.0	0.00e+00	0	47	0	770703360	60	10791
2026-01-28 11:31:41.04	326.43	19.91	-48.3	-49.1	23.8	0.00e+00	0	47	0	778043392	60	11134
2026-01-28 11:31:41.90	326.52	19.80	-48.2	-48.9	23.8	0.00e+00	0	47	0	782237696	60	10958
2026-01-28 11:31:43.06	326.64	19.67	-48.2	-49.1	23.7	0.00e+00	0	47	0	788529152	60	11136
2026-01-28 11:31:43.92	326.72	19.57	-48.2	-49.1	23.7	0.00e+00	0	46	0	793772032	60	11139
2026-01-28 11:31:45.07	326.83	19.43	-48.4	-49.3	23.5	0.00e+00	0	46	0	800063488	60	11368
2026-01-28 11:31:45.93	326.92	19.33	-48.4	-49.2	23.6	0.00e+00	0	47	0	805306368	60	11353
2026-01-28 11:31:47.08	327.03	19.20	-48.3	-49.1	23.5	0.00e+00	0	47	0	811597824	60	11176
2026-01-28 11:31:47.94	327.11	19.10	-48.3	-49.2	23.3	0.00e+00	0	47	0	816840704	60	11236
2026-01-28 11:31:49.09	327.22	18.97	-48.1	-48.9	23.4	0.00e+00	0	46	0	822083584	60	10893
2026-01-28 11:31:49.95	327.30	18.87	-48.2	-49.0	23.2	0.00e+00	0	47	0	827326464	60	11029
2026-01-28 11:31:51.10	327.41	18.73	-48.2	-49.0	23.2	0.00e+00	0	47	0	833617920	60	11036
2026-01-28 11:31:51.96	327.49	18.64	-48.1	-49.1	23.2	0.00e+00	0	47	0	838860800	60	11136
2026-01-28 11:31:53.12	327.60	18.51	-48.1	-49.1	23.2	0.00e+00	0	47	0	845152256	60	11109
2026-01-28 11:31:53.98	327.68	18.41	-48.2	-49.0	23.2	0.00e+00	0	47	0	850395136	60	11079
2026-01-28 11:31:55.13	327.78	18.28	-48.2	-49.1	23.2	0.00e+00	0	47	0	856686592	60	11136
2026-01-28 11:31:55.99	327.86	18.18	-48.3	-49.1	23.2	0.00e+00	0	47	0	860880896	60	11113
2026-01-28 11:31:57.14	327.96	18.05	-48.3	-49.2	23.2	0.00e+00	0	46	0	868220928	60	11331
2026-01-28 11:31:58.00	328.04	17.96	-48.4	-49.1	23.0	0.00e+00	0	46	0	872415232	60	11196
2026-01-28 11:31:59.15	328.14	17.83	-48.5	-49.2	22.8	0.00e+00	0	46	0	879755264	60	11321
2026-01-28 11:32:00.02	328.22	17.73	-48.5	-49.3	22.7	0.00e+00	0	47	0	883949568	60	11460
2026-01-28 11:32:01.17	328.32	17.61	-48.6	-49.5	22.4	0.00e+00	0	47	0	890241024	60	11694
2026-01-28 11:32:02.03	328.39	17.51	-48.7	-49.6	22.3	0.00e+00	0	47	0	895483904	60	11892
2026-01-28 11:32:03.18	328.49	17.39	-48.6	-49.5	22.2	0.00e+00	0	47	0	901775360	60	11635
2026-01-28 11:32:04.04	328.57	17.30	-48.7	-49.6	22.2	0.00e+00	0	46	0	907018240	60	11805
2026-01-28 11:32:05.19	328.66	17.17	-48.7	-49.6	22.3	0.00e+00	0	47	0	913309696	60	11841
2026-01-28 11:32:06.06	328.74	17.08	-48.8	-49.7	22.2	0.00e+00	0	47	0	918552576	60	12013
2026-01-28 11:32:07.21	328.83	16.95	-48.9	-49.7	22.1	0.00e+00	0	47	0	924844032	60	12001
2026-01-28 11:32:08.07	328.90	16.86	-49.0	-49.8	22.1	0.00e+00	0	47	0	929038336	60	12126
2026-01-28 11:32:09.22	329.00	16.74	-49.1	-50.0	22.0	0.00e+00	0	47	0	936378368	60	12388
2026-01-28 11:32:10.09	329.07	16.65	-49.1	-50.1	21.9	0.00e+00	0	47	0	940572672	60	12602
2026-01-28 11:32:11.23	329.16	16.53	-49.2	-50.2	21.9	0.00e+00	0	47	0	947912704	60	12738
2026-01-28 11:32:12.10	329.23	16.44	-49.3	-50.3	21.8	0.00e+00	0	47	0	952107008	60	12851
2026-01-28 11:32:13.25	329.33	16.31	-49.4	-50.3	21.7	0.00e+00	0	47	0	958398464	60	12819
2026-01-28 11:32:14.11	329.40	16.23	-49.4	-50.3	21.7	0.00e+00	0	47	0	963641344	60	12869
2026-01-28 11:32:15.26	329.49	16.11	-49.5	-50.5	21.5	0.00e+00	0	46	0	969932800	60	13141
2026-01-28 11:32:16.12	329.56	16.02	-49.6	-50.5	21.5	0.00e+00	0	47	0	975175680	60	13151
2026-01-28 11:32:17.27	329.65	15.90	-49.7	-50.8	21.2	0.00e+00	0	47	0	981467136	60	13628
2026-01-28 11:32:18.13	329.71	15.81	-49.8	-51.0	21.1	0.00e+00	0	47	0	986710016	60	13885
2026-01-28 11:32:19.28	329.80	15.69	-49.9	-51.0	20.9	0.00e+00	0	47	0	991952896	60	13952
2026-01-28 11:32:20.14	329.87	15.60	-50.0	-51.2	20.8	0.00e+00	0	47	0	997195776	60	14269
2026-01-28 11:32:21.30	329.96	15.49	-50.1	-51.4	20.6	0.00e+00	0	47	0	1003487232	60	14541
2026-01-28 11:32:22.16	330.02	15.40	-50.2	-51.5	20.5	0.00e+00	0	47	0	1008730112	60	14724
2026-01-28 11:32:23.31	330.11	15.28	-50.4	-51.5	20.4	0.00e+00	0	47	0	1015021568	60	14709
2026-01-28 11:32:24.17	330.17	15.20	-50.5	-51.8	20.2	0.00e+00	0	47	0	1020264448	60	15159
2026-01-28 11:32:25.32	330.26	15.08	-50.7	-51.8	19.8	0.00e+00	0	47	0	1026555904	60	15218
2026-01-28 11:32:26.18	330.32	15.00	-50.8	-51.9	19.5	0.00e+00	0	46	0	1030750208	60	15505
2026-01-28 11:32:27.33	330.41	14.88	-50.8	-52.1	18.9	0.00e+00	0	46	0	1038090240	60	15690
2026-01-28 11:32:28.19	330.47	14.80	-50.9	-52.4	18.6	0.00e+00	0	47	0	1042284544	60	16278
2026-01-28 11:32:29.34	330.55	14.68	-51.0	-52.5	18.2	0.00e+00	0	47	0	1049624576	60	16468
2026-01-28 11:32:30.20	330.62	14.60	-50.9	-52.5	18.0	0.00e+00	0	46	0	1053818880	60	16585
2026-01-28 11:32:31.36	330.70	14.48	-51.1	-52.7	17.8	0.00e+00	0	47	0	1060110336	60	16971
2026-01-28 11:32:32.22	330.76	14.40	-51.1	-52.9	17.6	0.00e+00	0	46	0	1065353216	60	17385
2026-01-28 11:32:33.38	330.84	14.29	-51.1	-53.2	17.3	0.00e+00	0	47	0	1071644672	60	17871
2026-01-28 11:32:34.23	330.90	14.20	-51.1	-53.3	17.2	0.00e+00	0	47	0	1076887552	60	18077
2026-01-28 11:32:35.38	330.98	14.09	-51.2	-53.5	16.9	0.00e+00	0	46	0	1083179008	60	18624
2026-01-28 11:32:36.24	331.04	14.01	-51.2	-53.7	16.7	0.00e+00	0	46	0	1088421888	60	19046
2026-01-28 11:32:37.39	331.12	13.90	-51.2	-53.9	16.5	0.00e+00	0	46	0	1094713344	60	19498
2026-01-28 11:32:38.25	331.18	13.82	-51.3	-54.2	16.2	0.00e+00	0	46	0	1098907648	60	20001
2026-01-28 11:32:39.40	331.26	13.71	-51.5	-54.4	15.9	0.00e+00	0	47	0	1105199104	60	20494
2026-01-28 11:32:40.27	331.32	13.63	-51.5	-54.6	15.8	0.00e+00	0	46	0	1110441984	60	20985
2026-01-28 11:32:41.42	331.40	13.52	-51.6	-54.8	15.4	0.00e+00	0	47	0	1117782016	60	21635
2026-01-28 11:32:42.28	331.46	13.44	-51.7	-55.0	15.0	0.00e+00	0	46	0	1121976320	60	22089
2026-01-28 11:32:43.43	331.53	13.33	-51.9	-55.3	14.7	0.00e+00	0	46	0	1128267776	60	22809
2026-01-28 11:32:44.29	331.59	13.25	-52.0	-55.5	14.5	0.00e+00	0	46	0	1133510656	60	23337
2026-01-28 11:32:45.44	331.67	13.14	-52.2	-55.8	14.3	1.10e-06	0	47	0	1139802112	60	24081
2026-01-28 11:32:46.30	331.72	13.06	-52.2	-56.0	14.0	5.70e-06	0	47	0	1143996416	60	24690
2026-01-28 11:32:47.45	331.80	12.96	-52.4	-56.4	13.7	5.70e-06	0	47	0	1151336448	60	25772
2026-01-28 11:32:48.32	331.85	12.88	-52.5	-56.6	13.7	6.80e-06	0	47	0	1156579328	60	26511
2026-01-28 11:32:49.47	331.93	12.77	-52.5	-56.9	13.4	1.37e-05	0	47	0	1161822208	60	27350
2026-01-28 11:32:50.33	331.98	12.69	-52.6	-57.1	13.2	3.77e-05	0	47	0	1167065088	60	28013
2026-01-28 11:32:51.48	332.06	12.59	-52.7	-57.4	12.9	6.63e-05	0	47	0	1173356544	60	28944
2026-01-28 11:32:52.34	332.11	12.51	-52.7	-57.6	12.5	9.61e-05	0	46	0	1178599424	60	29884
2026-01-28 11:32:53.49	332.18	12.40	-52.9	-57.9	12.1	2.52e-04	0	47	0	1184890880	60	30780
2026-01-28 11:32:54.35	332.24	12.33	-53.0	-58.1	11.8	5.07e-04	0	47	0	1190133760	60	31600
2026-01-28 11:32:55.50	332.31	12.22	-53.2	-58.4	11.3	1.14e-03	0	47	0	1196425216	60	32635
2026-01-28 11:32:56.37	332.36	12.14	-53.2	-58.7	10.8	1.95e-03	0	47	0	1200619520	60	33773
2026-01-28 11:32:57.52	332.43	12.04	-53.1	-59.0	10.2	5.80e-03	0	47	0	1207959552	60	34816
2026-01-28 11:32:58.38	332.49	11.97	-52.8	-59.1	9.8	9.65e-03	0	46	0	1212153856	60	35452
2026-01-28 11:32:59.53	332.56	11.86	-52.6	-59.4	9.2	1.75e-02	0	47	0	1219493888	60	36514
2026-01-28 11:33:00.40	332.61	11.79	-52.2	-59.5	8.7	3.41e-02	0	47	0	1223688192	60	37004
2026-01-28 11:33:01.55	332.68	11.69	-51.7	-59.8	8.0	5.44e-02	0	47	0	1229979648	60	38119
2026-01-28 11:33:02.41	332.73	11.61	-51.1	-59.9	7.5	9.42e-02	0	47	0	1235222528	60	38801
2026-01-28 11:33:03.56	332.80	11.51	-50.8	-60.1	7.1	1.29e-01	0	47	0	1241513984	60	39830
2026-01-28 11:33:04.42	332.85	11.43	-50.4	-60.3	6.7	1.74e-01	0	47	0	1246756864	60	40660
2026-01-28 11:33:05.57	332.92	11.33	-50.4	-60.6	6.5	2.20e-01	0	46	0	1253048320	60	42030
2026-01-28 11:33:06.44	332.97	11.26	-50.3	-60.9	6.3	2.50e-01	0	46	0	1258291200	60	43323
2026-01-28 11:33:07.58	333.03	11.16	-50.5	-61.2	6.1	2.89e-01	0	46	0	1264582656	60	44731
2026-01-28 11:33:08.44	333.08	11.09	-50.5	-61.4	6.0	3.19e-01	0	47	0	1268776960	60	45949
2026-01-28 11:33:09.59	333.15	10.99	-50.6	-61.7	5.8	3.57e-01	0	46	0	1275068416	60	47517
2026-01-28 11:33:10.45	333.20	10.91	-50.8	-61.9	5.6	3.95e-01	0	47	0	1280311296	60	48889
2026-01-28 11:33:11.60	333.27	10.82	-51.3	-62.3	5.5	5.20e-01	0	46	0	1286602752	60	51247
2026-01-28 11:33:12.46	333.31	10.74	-51.4	-62.5	5.3	6.14e-01	0	47	0	1289748480	60	52517
2026-01-28 11:33:13.61	333.38	10.64	-52.0	-63.0	5.2	7.07e-01	0	47	0	1292894208	60	55229
2026-01-28 11:33:14.48	333.43	10.57	-52.4	-63.3	5.1	7.19e-01	0	46	0	1293942784	60	57215
2026-01-28 11:33:15.62	333.49	10.48	-52.8	-63.7	4.9	7.47e-01	0	47	0	1294991360	60	60048
2026-01-28 11:33:16.48	333.54	10.40	-53.1	-64.0	4.7	7.57e-01	0	47	0	1296039936	60	62041
2026-01-28 11:33:17.64	333.60	10.31	-53.2	-64.3	4.5	7.85e-01	0	46	0	1296039936	60	64636
2026-01-28 11:33:18.50	333.65	10.23	-53.4	-64.7	4.3	7.98e-01	0	47	0	1296039936	60	67014
2026-01-28 11:33:19.65	333.71	10.14	-53.5	-65.1	4.1	8.14e-01	0	47	0	1296039936	60	70816
2026-01-28 11:33:20.52	333.76	10.07	-53.8	-65.5	4.0	8.23e-01	0	47	0	1296039936	60	74200
2026-01-28 11:33:21.67	333.82	9.97	-53.7	-65.9	3.9	8.30e-01	0	46	0	1296039936	60	76892
2026-01-28 11:33:22.54	333.87	9.90	-53.6	-66.1	3.7	8.31e-01	0	46	0	1296039936	60	79412
2026-01-28 11:33:23.69	333.93	9.81	-53.6	-67.5	3.8	8.42e-01	0	46	104	1296039936	60	92911
2026-01-28 11:33:24.55	333.98	9.74	-53.3	-67.9	3.8	8.43e-01	0	46	104	1296039936	60	97470
2026-01-28 11:33:25.70	334.04	9.64	-53.0	-68.2	3.7	8.44e-01	0	47	104	1296039936	60	100916
2026-01-28 11:33:26.56	334.08	9.57	-53.0	-68.3	3.6	8.44e-01	0	47	104	1296039936	60	101742
2026-01-28 11:33:27.71	334.14	9.48	-52.7	-68.5	3.6	8.45e-01	0	47	104	1296039936	60	104043
2026-01-28 11:33:28.57	334.19	9.41	-52.6	-68.3	3.6	8.44e-01	0	47	104	1296039936	60	101502
2026-01-28 11:33:29.72	334.25	9.32	-52.5	-68.3	3.6	8.45e-01	0	47	104	1296039936	60	102443
2026-01-28 11:33:30.58	334.29	9.25	-53.3	-69.5	3.6	8.44e-01	0	47	104	1296039936	60	117165
2026-01-28 11:33:31.73	334.35	9.15	-52.1	-68.6	3.6	8.45e-01	0	47	104	1296039936	60	104860
2026-01-28 11:33:32.59	334.40	9.09	-53.0	-69.1	3.6	8.45e-01	0	47	104	1296039936	60	112207
2026-01-28 11:33:33.74	334.45	8.99	-51.7	-68.7	3.6	8.44e-01	0	47	104	1296039936	60	106739
2026-01-28 11:33:34.61	334.50	8.93	-51.3	-68.4	3.6	8.44e-01	0	47	104	1296039936	60	103191
2026-01-28 11:33:35.76	334.56	8.83	-51.5	-68.6	3.6	8.45e-01	0	47	104	1296039936	60	105939
2026-01-28 11:33:36.62	334.60	8.77	-51.6	-68.4	3.6	8.46e-01	0	47	104	1296039936	60	103452
2026-01-28 11:33:37.77	334.66	8.68	-53.4	-70.9	3.6	8.44e-01	0	47	104	1296039936	60	137789
2026-01-28 11:33:38.63	334.70	8.61	-56.9	-71.9	3.6	8.46e-01	0	47	104	1296039936	60	153582
2026-01-28 11:33:39.78	334.76	8.52	-53.3	-71.1	3.6	8.46e-01	0	47	104	1296039936	60	139858
2026-01-28 11:33:40.65	334.80	8.45	-55.1	-71.7	3.6	8.45e-01	0	47	104	1296039936	60	150979
2026-01-28 11:33:41.79	334.85	8.36	-51.8	-69.8	3.5	8.45e-01	0	47	104	1296039936	60	120509
2026-01-28 11:33:42.66	334.90	8.29	-51.4	-69.0	3.6	8.44e-01	0	47	104	1296039936	60	110276
2026-01-28 11:33:43.81	334.95	8.21	-51.5	-68.8	3.6	8.43e-01	0	47	104	1296039936	60	107717
2026-01-28 11:33:44.66	334.99	8.14	-51.6	-70.0	3.6	8.42e-01	0	47	104	1296039936	60	124117
2026-01-28 11:33:45.81	335.05	8.05	-51.6	-68.7	3.6	8.45e-01	0	47	104	1296039936	60	106926
2026-01-28 11:33:46.67	335.09	7.99	-51.5	-68.9	3.6	8.44e-01	0	47	104	1296039936	60	108721
2026-01-28 11:33:47.82	335.14	7.90	-51.6	-69.3	3.6	8.44e-01	0	47	104	1296039936	60	114178
2026-01-28 11:33:48.68	335.18	7.83	-57.8	-71.5	3.6	8.44e-01	0	47	104	1296039936	60	148072
2026-01-28 11:33:49.83	335.24	7.74	-55.9	-71.6	3.6	8.45e-01	0	47	104	1296039936	60	149443
2026-01-28 11:33:50.69	335.28	7.68	-57.6	-71.4	3.6	8.45e-01	0	47	104	1296039936	60	146022
2026-01-28 11:33:51.84	335.33	7.59	-52.8	-69.0	3.6	8.45e-01	0	47	104	1296039936	60	110611
2026-01-28 11:33:52.70	335.37	7.53	-52.8	-70.1	3.6	8.44e-01	0	47	104	1296039936	60	126035
2026-01-28 11:33:53.85	335.43	7.44	-52.5	-69.0	3.6	8.43e-01	0	47	104	1296039936	60	110977
2026-01-28 11:33:54.71	335.46	7.38	-52.4	-69.7	3.6	8.43e-01	0	47	104	1296039936	60	119245
2026-01-28 11:33:55.86	335.52	7.29	-54.7	-70.8	3.6	8.44e-01	0	47	104	1296039936	60	135614
2026-01-28 11:33:56.73	335.56	7.23	-54.7	-69.7	3.6	8.44e-01	0	47	104	1296039936	60	120002
2026-01-28 11:33:57.88	335.61	7.14	-53.5	-69.8	3.6	8.44e-01	0	47	104	1296039936	60	121218
2026-01-28 11:33:58.74	335.65	7.08	-52.3	-69.4	3.6	8.45e-01	0	47	104	1296039936	60	115605
2026-01-28 11:33:59.89	335.70	6.99	-57.1	-71.0	3.6	8.43e-01	0	47	104	1296039936	60	139669
2026-01-28 11:34:00.75	335.74	6.93	-55.6	-70.6	3.6	8.45e-01	0	47	104	1296039936	60	133314
2026-01-28 11:34:01.90	335.79	6.84	-53.3	-69.0	3.6	8.44e-01	0	47	104	1296039936	60	110492
2026-01-28 11:34:02.76	335.83	6.78	-53.0	-69.8	3.6	8.44e-01	0	47	104	1296039936	60	121580
2026-01-28 11:34:03.91	335.88	6.70	-56.7	-70.9	3.6	8.44e-01	0	47	104	1296039936	60	137713
2026-01-28 11:34:04.76	335.92	6.63	-57.0	-70.8	3.6	8.44e-01	0	47	104	1296039936	60	136164
2026-01-28 11:34:05.91	335.97	6.55	-52.3	-70.1	3.6	8.45e-01	0	47	104	1296039936	60	125133
2026-01-28 11:34:06.77	336.00	6.49	-54.5	-70.4	3.6	8.45e-01	0	47	104	1296039936	60	129167
2026-01-28 11:34:07.92	336.05	6.41	-53.8	-70.2	3.6	8.44e-01	0	47	104	1296039936	60	127159
2026-01-28 11:34:08.78	336.09	6.34	-52.3	-70.1	3.6	8.45e-01	0	47	104	1296039936	60	125782
2026-01-28 11:34:09.93	336.14	6.26	-52.3	-69.8	3.6	8.44e-01	0	47	104	1296039936	60	121377
2026-01-28 11:34:10.79	336.18	6.20	-52.2	-69.6	3.6	8.44e-01	0	47	104	1296039936	60	117697
2026-01-28 11:34:11.93	336.22	6.12	-56.0	-70.9	3.6	8.45e-01	0	47	104	1296039936	60	137303
2026-01-28 11:34:12.79	336.26	6.06	-55.3	-70.5	3.6	8.45e-01	0	47	104	1296039936	60	131791
2026-01-28 11:34:13.94	336.31	5.97	-57.6	-71.4	3.6	8.45e-01	0	47	104	1296039936	60	145928
2026-01-28 11:34:14.81	336.35	5.91	-53.2	-70.3	3.6	8.45e-01	0	47	104	1296039936	60	128891
2026-01-28 11:34:15.96	336.39	5.83	-57.7	-72.1	3.6	8.46e-01	0	47	104	1296039936	60	158578
2026-01-28 11:34:16.82	336.43	5.77	-59.7	-73.6	3.6	8.46e-01	0	47	104	1296039936	60	187506
2026-01-28 11:34:17.97	336.48	5.69	-60.1	-74.0	3.6	8.46e-01	0	47	104	1296039936	60	195714
2026-01-28 11:34:18.83	336.51	5.63	-60.6	-74.1	3.6	8.45e-01	0	47	104	1296039936	60	199731
2026-01-28 11:34:19.98	336.56	5.55	-58.4	-73.8	3.6	8.46e-01	0	47	104	1296039936	60	191166
2026-01-28 11:34:20.84	336.60	5.49	-58.5	-73.9	3.6	8.45e-01	0	47	104	1296039936	60	194831
2026-01-28 11:34:22.00	336.64	5.41	-60.2	-74.2	3.6	8.44e-01	0	47	104	1296039936	60	200403
2026-01-28 11:34:22.86	336.68	5.35	-61.1	-74.5	3.6	8.46e-01	0	47	104	1296039936	60	207316
2026-01-28 11:34:24.01	336.72	5.27	-60.7	-74.5	3.6	8.45e-01	0	47	104	1296039936	60	207799
2026-01-28 11:34:24.87	336.76	5.21	-60.7	-74.6	3.6	8.44e-01	0	47	104	1296039936	60	210027
2026-01-28 11:34:26.02	336.81	5.13	-58.8	-74.0	3.6	8.45e-01	0	47	104	1296039936	60	195939
2026-01-28 11:34:26.88	336.84	5.07	-61.5	-74.9	3.6	8.44e-01	0	47	104	1296039936	60	217581
2026-01-28 11:34:28.03	336.89	4.99	-60.0	-74.6	3.6	8.45e-01	0	47	104	1296039936	60	211372
2026-01-28 11:34:28.90	336.92	4.93	-59.8	-74.6	3.6	8.44e-01	0	47	104	1296039936	60	210128
2026-01-28 11:34:30.05	336.97	4.85	-59.0	-74.5	3.6	8.45e-01	0	47	104	1296039936	60	208295
2026-01-28 11:34:30.91	337.00	4.79	-57.4	-73.6	3.6	8.46e-01	0	47	104	1296039936	60	186660
2026-01-28 11:34:32.06	337.04	4.71	-58.5	-74.2	3.6	8.44e-01	0	47	104	1296039936	60	201483
2026-01-28 11:34:32.93	337.08	4.66	-59.3	-74.6	3.6	8.45e-01	0	47	104	1296039936	60	210180
2026-01-28 11:34:34.08	337.12	4.58	-59.0	-74.4	3.6	8.45e-01	0	47	104	1296039936	60	204938
2026-01-28 11:34:34.94	337.16	4.52	-59.0	-74.3	3.6	8.46e-01	0	47	104	1296039936	60	202364
2026-01-28 11:34:36.09	337.20	4.44	-58.9	-74.2	3.6	8.46e-01	0	47	104	1296039936	60	200817
2026-01-28 11:34:36.95	337.23	4.38	-58.9	-74.2	3.6	8.46e-01	0	47	104	1296039936	60	201949
2026-01-28 11:34:38.09	337.28	4.31	-58.9	-74.3	3.6	8.45e-01	0	47	104	1296039936	60	202564
2026-01-28 11:34:38.96	337.31	4.25	-59.1	-74.3	3.6	8.45e-01	0	47	104	1296039936	60	204435
2026-01-28 11:34:40.11	337.35	4.17	-59.3	-74.6	3.6	8.46e-01	0	47	104	1296039936	60	210841
2026-01-28 11:34:40.97	337.39	4.11	-59.3	-74.4	3.6	8.46e-01	0	47	104	1296039936	60	206805
2026-01-28 11:34:42.11	337.43	4.04	-59.4	-74.7	3.6	8.45e-01	0	47	104	1296039936	60	213034
2026-01-28 11:34:42.98	337.46	3.98	-59.4	-74.8	3.6	8.45e-01	0	47	104	1296039936	60	215195
2026-01-28 11:34:44.13	337.50	3.91	-59.4	-74.6	3.6	8.45e-01	0	47	104	1296039936	60	210554
2026-01-28 11:34:44.99	337.54	3.85	-59.3	-74.7	3.6	8.46e-01	0	47	104	1296039936	60	213079
2026-01-28 11:34:46.14	337.58	3.77	-59.4	-74.7	3.6	8.45e-01	0	47	104	1296039936	60	212507
2026-01-28 11:34:47.01	337.61	3.72	-59.5	-74.5	3.6	8.46e-01	0	47	104	1296039936	60	206902
2026-01-28 11:34:48.16	337.65	3.64	-59.4	-74.7	3.6	8.45e-01	0	47	104	1296039936	60	211921
2026-01-28 11:34:49.02	337.68	3.58	-59.4	-74.7	3.6	8.45e-01	0	47	104	1296039936	60	211699
2026-01-28 11:34:50.17	337.73	3.51	-59.4	-74.7	3.6	8.45e-01	0	47	104	1296039936	60	212071
2026-01-28 11:34:51.04	337.76	3.45	-59.3	-74.5	3.6	8.45e-01	0	47	104	1296039936	60	209021
2026-01-28 11:34:52.18	337.80	3.38	-59.3	-74.5	3.6	8.45e-01	0	47	104	1296039936	60	207776
2026-01-28 11:34:53.04	337.83	3.32	-59.3	-74.5	3.6	8.46e-01	0	47	104	1296039936	60	208428
2026-01-28 11:34:54.19	337.87	3.25	-59.4	-74.4	3.6	8.45e-01	0	47	104	1296039936	60	206464
2026-01-28 11:34:55.05	337.90	3.19	-59.3	-74.6	3.6	8.45e-01	0	47	104	1296039936	60	210233
2026-01-28 11:34:56.21	337.94	3.12	-59.3	-74.6	3.6	8.45e-01	0	46	104	1296039936	60	209594
2026-01-28 11:34:57.07	337.97	3.06	-59.2	-74.4	3.6	8.45e-01	0	46	104	1296039936	60	206376
2026-01-28 11:34:58.22	338.01	2.99	-59.2	-74.6	3.6	8.45e-01	0	47	104	1296039936	60	209277
2026-01-28 11:34:59.08	338.04	2.93	-59.1	-74.5	3.6	8.45e-01	0	47	104	1296039936	60	208807
2026-01-28 11:35:00.23	338.08	2.86	-59.2	-74.4	3.6	8.45e-01	0	47	104	1296039936	60	205175
2026-01-28 11:35:01.09	338.11	2.81	-59.2	-74.4	3.6	8.45e-01	0	47	104	1296039936	60	206657
2026-01-28 11:35:02.24	338.15	2.73	-59.2	-74.4	3.6	8.44e-01	0	47	104	1296039936	60	205696
2026-01-28 11:35:03.10	338.18	2.68	-59.0	-74.3	3.6	8.45e-01	0	47	104	1296039936	60	203057
2026-01-28 11:35:04.25	338.22	2.61	-59.1	-74.3	3.6	8.45e-01	0	47	104	1296039936	60	203491
2026-01-28 11:35:05.11	338.25	2.55	-59.0	-74.2	3.6	8.46e-01	0	47	104	1296039936	60	201557
2026-01-28 11:35:06.26	338.29	2.48	-59.0	-74.4	3.6	8.44e-01	0	47	104	1296039936	60	204624
2026-01-28 11:35:07.13	338.32	2.42	-59.0	-74.5	3.6	8.46e-01	0	47	104	1296039936	60	207665
2026-01-28 11:35:08.27	338.36	2.35	-59.0	-74.3	3.6	8.45e-01	0	47	104	1296039936	60	204088
2026-01-28 11:35:09.13	338.39	2.30	-59.0	-74.5	3.6	8.44e-01	0	47	104	1296039936	60	207299
2026-01-28 11:35:10.28	338.43	2.23	-58.8	-74.3	3.6	8.44e-01	0	47	104	1296039936	60	202891
2026-01-28 11:35:11.15	338.46	2.17	-58.8	-74.2	3.6	8.46e-01	0	47	104	1296039936	60	201790
2026-01-28 11:35:12.30	338.50	2.10	-58.7	-74.2	3.6	8.44e-01	0	47	104	1296039936	60	201969
2026-01-28 11:35:13.16	338.52	2.05	-58.8	-74.2	3.6	8.45e-01	0	47	104	1296039936	60	200474
2026-01-28 11:35:14.31	338.56	1.98	-58.8	-74.4	3.6	8.45e-01	0	47	104	1296039936	60	204912
2026-01-28 11:35:15.18	338.59	1.92	-58.8	-74.3	3.6	8.44e-01	0	47	104	1296039936	60	203187
2026-01-28 11:35:16.32	338.63	1.85	-59.1	-74.2	3.6	8.45e-01	0	47	104	1296039936	60	201223
2026-01-28 11:35:17.19	338.66	1.80	-59.1	-74.3	3.6	8.45e-01	0	47	104	1296039936	60	203128
2026-01-28 11:35:18.34	338.70	1.73	-59.1	-74.3	3.6	8.45e-01	0	47	104	1296039936	60	203510
2026-01-28 11:35:19.20	338.72	1.68	-59.2	-74.2	3.6	8.45e-01	0	47	104	1296039936	60	200689
2026-01-28 11:35:20.36	338.76	1.61	-59.1	-74.5	3.6	8.44e-01	0	47	104	1296039936	60	206918
2026-01-28 11:35:21.22	338.79	1.55	-59.0	-74.4	3.6	8.45e-01	0	47	104	1296039936	60	204934
2026-01-28 11:35:22.37	338.83	1.48	-59.1	-74.4	3.6	8.45e-01	0	47	104	1296039936	60	204864
2026-01-28 11:35:23.23	338.85	1.43	-59.0	-74.3	3.6	8.45e-01	0	47	104	1296039936	60	204378
2026-01-28 11:35:24.38	338.89	1.36	-59.0	-74.2	3.6	8.46e-01	0	47	104	1296039936	60	200554
2026-01-28 11:35:25.25	338.92	1.31	-59.0	-74.3	3.6	8.46e-01	0	47	104	1296039936	60	202704
2026-01-28 11:35:26.39	338.96	1.24	-59.0	-74.2	3.6	8.45e-01	0	47	104	1296039936	60	200852
2026-01-28 11:35:27.25	338.98	1.19	-59.1	-74.2	3.6	8.45e-01	0	47	104	1296039936	60	200460
2026-01-28 11:35:28.40	339.02	1.12	-59.1	-74.5	3.6	8.45e-01	0	47	104	1296039936	60	207388
2026-01-28 11:35:29.26	339.05	1.07	-59.1	-74.4	3.6	8.44e-01	0	47	104	1296039936	60	205681
2026-01-28 11:35:30.41	339.08	1.00	-59.1	-74.3	3.6	8.45e-01	0	47	104	1296039936	60	204255
2026-01-28 11:35:31.27	339.11	0.95	-59.1	-74.5	3.6	8.44e-01	0	47	104	1296039936	60	208891
2026-01-28 11:35:32.42	339.15	0.88	-59.1	-74.4	3.6	8.45e-01	0	47	104	1296039936	60	205350
2026-01-28 11:35:33.28	339.17	0.83	-59.1	-74.3	3.6	8.45e-01	0	47	104	1296039936	60	202479
2026-01-28 11:35:34.44	339.21	0.76	-59.1	-74.1	3.6	8.45e-01	0	47	104	1296039936	60	199714
2026-01-28 11:35:35.30	339.23	0.71	-59.1	-74.3	3.6	8.45e-01	0	47	104	1296039936	60	203820
2026-01-28 11:35:36.45	339.27	0.64	-59.1	-74.2	3.6	8.45e-01	0	47	104	1296039936	60	201481
2026-01-28 11:35:37.32	339.30	0.59	-59.1	-74.2	3.6	8.44e-01	0	47	104	1296039936	60	200740
2026-01-28 11:35:38.46	339.33	0.52	-59.1	-74.4	3.6	8.46e-01	0	47	104	1296039936	60	206791
2026-01-28 11:35:39.33	339.36	0.47	-58.9	-74.4	3.6	8.46e-01	0	47	104	1296039936	60	205171
2026-01-28 11:35:40.48	339.39	0.40	-59.0	-74.3	3.6	8.45e-01	0	47	104	1296039936	60	204309
2026-01-28 11:35:41.34	339.42	0.35	-59.0	-74.3	3.6	8.46e-01	0	47	104	1296039936	60	203655
2026-01-28 11:35:42.49	339.45	0.28	-58.9	-74.4	3.6	8.45e-01	0	47	104	1296039936	60	206122
2026-01-28 11:35:43.35	339.48	0.23	-58.9	-74.0	3.5	8.46e-01	0	47	104	1296039936	60	196852
2026-01-28 11:35:44.50	339.51	0.17	-59.0	-74.2	3.6	8.46e-01	0	47	104	1296039936	60	201265
2026-01-28 11:35:45.36	339.54	0.12	-58.8	-74.5	3.6	8.45e-01	0	47	104	1296039936	60	208192
2026-01-28 11:35:46.51	339.57	0.05	-58.9	-74.2	3.6	8.45e-01	0	47	104	1296039936	60	200912

#Closed at: 2026-01-28 11:35:47
#Recorded file [1296 MB]: D:/Data/35015_260128_143344.dat