passes_logs/2026/01/28/R3.2S-Naryan-Mar/R3.2S-Naryan-Mar__20260128_081320_NOAA_21_JPSS-2_rec.log

#Pass ID: 20260128_081320_NOAA 21 (JPSS-2)
#Satellite: NOAA 21 (JPSS-2)
#Configuration: NOAA-21
#almurnet v.1.7.20240730
#Start time: 2026-01-28 08:22:45

#Version: 2.2.20231116
#Station: R3.2S-Naryan-Mar
#Location: 53.008057 lon 67.646978 lat
#TLE: 1 54234U 22150A   26027.55906748  .00000170  00000+0  10132-3 0  9996
#TLE: 2 54234  98.7510 328.3076 0000860 204.4692 155.6443 14.19540154166599

#Time	Az	El	Level	Level2	SNR	BER	BlckErr	Temp	State	Recorded	gain1	gain2
2026-01-28 08:22:45.15	338.74	46.96	-56.9	-60.0	3.4	0.00e+00	0	48	0	0	60	117953
2026-01-28 08:22:46.15	338.70	46.65	-62.4	-76.5	3.5	1.51e+00	0	48	104	0	60	253195
2026-01-28 08:22:47.16	338.66	46.33	-61.9	-76.0	3.5	1.51e+00	0	48	104	0	60	240822
2026-01-28 08:22:48.16	338.63	46.03	-62.1	-76.4	3.5	1.52e+00	0	48	104	0	60	251039
2026-01-28 08:22:49.17	338.59	45.72	-61.4	-76.3	3.5	1.52e+00	0	48	104	0	60	247817
2026-01-28 08:22:50.17	338.55	45.42	-62.6	-76.5	3.5	1.52e+00	0	48	104	0	60	253268
2026-01-28 08:22:51.17	338.51	45.12	-61.5	-74.0	4.5	1.52e+00	0	48	104	0	60	190157
2026-01-28 08:22:52.18	338.48	44.82	-61.9	-76.4	3.5	1.52e+00	0	48	104	0	60	250457
2026-01-28 08:22:53.19	338.44	44.52	-61.7	-76.0	3.5	1.52e+00	0	48	104	0	60	240530
2026-01-28 08:22:54.20	338.41	44.22	-61.3	-75.7	3.5	1.51e+00	0	48	104	0	60	231371
2026-01-28 08:22:55.21	338.37	43.93	-61.6	-75.9	3.5	1.52e+00	0	48	104	0	60	236750
2026-01-28 08:22:56.22	338.34	43.64	-61.6	-75.9	3.5	1.52e+00	0	48	104	0	60	237505
2026-01-28 08:22:57.23	338.31	43.35	-61.6	-75.8	3.5	1.52e+00	0	48	104	0	60	233847
2026-01-28 08:22:58.23	338.28	43.06	-61.5	-75.8	3.5	1.52e+00	0	48	104	0	60	233261
2026-01-28 08:22:59.24	338.25	42.78	-61.5	-75.8	3.5	1.52e+00	0	48	104	0	60	233903
2026-01-28 08:23:00.25	338.22	42.49	-61.5	-75.7	3.5	1.51e+00	0	48	104	0	60	231675
2026-01-28 08:23:01.25	338.19	42.22	-61.5	-75.7	3.5	1.52e+00	0	48	104	0	60	232617
2026-01-28 08:23:02.25	338.16	41.94	-61.5	-75.7	3.5	1.52e+00	0	48	104	0	60	233128
2026-01-28 08:23:03.26	338.13	41.66	-61.4	-75.7	3.5	1.52e+00	0	48	104	0	60	232361
2026-01-28 08:23:04.26	338.10	41.39	-61.4	-75.7	3.5	1.52e+00	0	48	104	0	60	230790
2026-01-28 08:23:05.27	338.07	41.12	-61.5	-75.6	3.5	1.51e+00	0	48	104	0	60	229742
2026-01-28 08:23:06.28	338.05	40.85	-61.4	-75.6	3.5	1.52e+00	0	48	104	0	60	229444
2026-01-28 08:23:07.29	338.02	40.58	-61.4	-75.6	3.5	1.52e+00	0	48	104	0	60	229482
2026-01-28 08:23:08.30	337.99	40.31	-61.4	-75.6	3.5	1.52e+00	0	48	104	0	60	230202
2026-01-28 08:23:09.30	337.97	40.05	-61.4	-75.5	3.5	1.52e+00	0	48	104	0	60	226511
2026-01-28 08:23:10.30	337.94	39.79	-61.4	-75.6	3.5	1.52e+00	0	48	104	0	60	229817
2026-01-28 08:23:11.31	337.92	39.53	-61.4	-75.5	3.5	1.52e+00	0	48	104	0	60	226275
2026-01-28 08:23:12.32	337.89	39.27	-61.4	-75.4	3.5	1.52e+00	0	48	104	0	60	222859
2026-01-28 08:23:13.33	337.87	39.01	-61.4	-75.5	3.5	1.52e+00	0	48	104	0	60	225855
2026-01-28 08:23:14.33	337.85	38.76	-61.4	-75.4	3.5	1.52e+00	0	48	104	0	60	224646
2026-01-28 08:23:15.34	337.82	38.51	-61.3	-75.4	3.5	1.52e+00	0	48	104	0	60	224253
2026-01-28 08:23:16.35	337.80	38.26	-61.3	-75.3	3.5	1.52e+00	0	48	104	0	60	221569
2026-01-28 08:23:17.35	337.78	38.01	-61.4	-75.2	3.5	1.52e+00	0	48	104	0	60	220083
2026-01-28 08:23:18.36	337.76	37.76	-61.3	-75.2	3.5	1.51e+00	0	48	104	0	60	218225
2026-01-28 08:23:19.37	337.74	37.52	-61.3	-75.1	3.5	1.52e+00	0	48	104	0	60	217385
2026-01-28 08:23:20.38	337.72	37.27	-61.3	-75.3	3.5	1.52e+00	0	48	104	0	60	221052
2026-01-28 08:23:21.39	337.69	37.03	-61.3	-75.5	3.5	1.52e+00	0	48	104	0	60	226510
2026-01-28 08:23:22.39	337.67	36.79	-61.3	-75.4	3.5	1.52e+00	0	48	104	0	60	223810
2026-01-28 08:23:23.40	337.66	36.55	-61.3	-75.5	3.5	1.52e+00	0	48	104	0	60	226395
2026-01-28 08:23:24.41	337.64	36.32	-61.3	-75.5	3.5	1.52e+00	0	48	104	0	60	227742
2026-01-28 08:23:25.42	337.62	36.08	-61.3	-75.4	3.5	1.52e+00	0	48	104	0	60	225004
2026-01-28 08:23:26.43	337.60	35.85	-61.3	-75.5	3.5	1.52e+00	0	48	104	0	60	225581
2026-01-28 08:23:27.43	337.58	35.62	-61.3	-75.4	3.5	1.52e+00	0	48	104	0	60	224290
2026-01-28 08:23:28.44	337.56	35.39	-61.3	-75.4	3.5	1.51e+00	0	48	104	0	60	224014
2026-01-28 08:23:29.44	337.54	35.16	-61.3	-75.4	3.5	1.52e+00	0	48	104	0	60	224295
2026-01-28 08:23:30.45	337.53	34.93	-61.3	-75.4	3.5	1.52e+00	0	48	104	0	60	223614
2026-01-28 08:23:31.46	337.51	34.71	-61.3	-75.2	3.5	1.52e+00	0	48	104	0	60	218769
2026-01-28 08:23:32.47	337.49	34.49	-61.2	-74.7	3.5	1.52e+00	0	48	104	0	60	207478
2026-01-28 08:23:33.47	337.47	34.27	-61.1	-73.4	3.5	1.51e+00	0	48	104	0	60	178848
2026-01-28 08:23:34.48	337.46	34.04	-61.0	-71.9	4.2	1.50e+00	0	48	104	0	60	148985
2026-01-28 08:23:35.49	337.44	33.83	-61.0	-71.4	4.4	1.31e+00	0	48	104	0	60	140821
2026-01-28 08:23:36.50	337.43	33.61	-60.3	-66.5	7.6	2.66e-01	0	47	0	1048576	60	80253
2026-01-28 08:23:37.51	337.41	33.39	-58.0	-61.2	13.6	2.10e-03	0	48	0	4194304	60	43474
2026-01-28 08:23:38.52	337.39	33.18	-55.1	-57.1	17.5	0.00e+00	0	48	0	7340032	60	27212
2026-01-28 08:23:39.52	337.38	32.97	-53.0	-54.5	19.8	0.00e+00	0	47	0	10485760	60	20197
2026-01-28 08:23:40.52	337.37	32.76	-60.4	-70.1	4.1	0.00e+00	0	47	0	13631488	60	121473
2026-01-28 08:23:41.52	337.35	32.55	-61.2	-75.0	3.5	1.52e+00	0	47	104	13631488	60	213096
2026-01-28 08:23:42.53	337.34	32.34	-55.4	-57.5	18.1	2.70e-01	0	47	104	13631488	60	28603
2026-01-28 08:23:43.53	337.32	32.14	-60.1	-67.2	7.6	1.45e+00	0	47	104	1048576	60	87170
2026-01-28 08:23:44.53	337.31	31.93	-55.7	-57.8	17.5	2.08e-01	0	47	0	1048576	60	29376
2026-01-28 08:23:45.54	337.29	31.73	-58.3	-62.0	13.1	7.40e-05	0	47	0	3145728	60	47813
2026-01-28 08:23:46.54	337.28	31.53	-56.5	-59.1	17.3	0.00e+00	0	47	0	6291456	60	34277
2026-01-28 08:23:47.55	337.27	31.33	-56.0	-58.2	17.2	0.00e+00	0	47	0	9437184	60	30963
2026-01-28 08:23:48.55	337.26	31.13	-55.8	-58.0	17.1	0.00e+00	0	47	0	12582912	60	30100
2026-01-28 08:23:49.56	337.24	30.93	-56.3	-58.5	16.5	0.00e+00	0	47	0	15728640	60	31976
2026-01-28 08:23:50.56	337.23	30.73	-56.3	-58.5	16.5	0.00e+00	0	47	0	18874368	60	31886
2026-01-28 08:23:51.57	337.22	30.54	-56.3	-58.4	16.5	0.00e+00	0	47	0	23068672	60	31777
2026-01-28 08:23:52.58	337.20	30.34	-55.9	-58.1	16.8	0.00e+00	0	47	0	26214400	60	30499
2026-01-28 08:23:53.58	337.19	30.15	-55.8	-57.9	16.9	0.00e+00	0	47	0	29360128	60	29955
2026-01-28 08:23:54.57	337.18	29.96	-56.1	-58.4	16.4	0.00e+00	0	47	0	32505856	60	31691
2026-01-28 08:23:55.58	337.17	29.77	-55.9	-58.3	16.3	0.00e+00	0	47	0	35651584	60	31363
2026-01-28 08:23:56.59	337.16	29.58	-54.9	-57.0	17.4	0.00e+00	0	47	0	38797312	60	26875
2026-01-28 08:23:57.59	337.15	29.40	-54.0	-56.0	18.1	0.00e+00	0	47	0	41943040	60	24066
2026-01-28 08:23:58.59	337.14	29.21	-53.4	-55.3	18.7	0.00e+00	0	47	0	45088768	60	22080
2026-01-28 08:23:59.59	337.13	29.03	-52.8	-54.6	19.2	0.00e+00	0	47	0	47185920	60	20430
2026-01-28 08:24:00.60	337.11	28.84	-52.5	-54.2	19.6	0.00e+00	0	47	0	50331648	60	19479
2026-01-28 08:24:01.60	337.10	28.66	-52.3	-53.9	19.8	0.00e+00	0	47	0	53477376	60	18906
2026-01-28 08:24:02.60	337.09	28.48	-52.2	-53.8	19.9	0.00e+00	0	47	0	56623104	60	18605
2026-01-28 08:24:03.61	337.08	28.30	-52.3	-53.9	19.8	0.00e+00	0	47	0	59768832	60	18865
2026-01-28 08:24:04.61	337.07	28.12	-52.4	-53.9	19.9	0.00e+00	0	47	0	62914560	60	18897
2026-01-28 08:24:05.62	337.06	27.94	-52.2	-53.8	20.0	0.00e+00	0	47	0	66060288	60	18557
2026-01-28 08:24:06.62	337.05	27.77	-52.3	-53.8	20.0	0.00e+00	0	47	0	69206016	60	18605
2026-01-28 08:24:07.63	337.04	27.59	-52.2	-53.7	20.2	0.00e+00	0	47	0	72351744	60	18428
2026-01-28 08:24:08.63	337.03	27.42	-52.0	-53.5	20.4	0.00e+00	0	47	0	75497472	60	17931
2026-01-28 08:24:09.63	337.02	27.24	-51.9	-53.3	20.7	0.00e+00	0	47	0	78643200	60	17549
2026-01-28 08:24:10.64	337.02	27.07	-51.8	-53.1	20.8	0.00e+00	0	47	0	81788928	60	17261
2026-01-28 08:24:11.65	337.01	26.90	-51.8	-53.2	20.7	0.00e+00	0	47	0	84934656	60	17396
2026-01-28 08:24:12.65	337.00	26.73	-51.5	-52.8	21.1	0.00e+00	0	47	0	88080384	60	16631
2026-01-28 08:24:13.66	336.99	26.56	-51.3	-52.6	21.3	0.00e+00	0	47	0	91226112	60	16250
2026-01-28 08:24:14.66	336.98	26.39	-51.4	-52.7	21.3	0.00e+00	0	47	0	94371840	60	16375
2026-01-28 08:24:15.67	336.97	26.22	-51.1	-52.4	21.5	0.00e+00	0	47	0	97517568	60	15779
2026-01-28 08:24:16.67	336.96	26.06	-51.1	-52.3	21.5	0.00e+00	0	47	0	100663296	60	15706
2026-01-28 08:24:17.68	336.96	25.89	-50.9	-52.2	21.6	0.00e+00	0	47	0	103809024	60	15495
2026-01-28 08:24:18.68	336.95	25.73	-50.7	-51.9	21.8	0.00e+00	0	47	0	106954752	60	14931
2026-01-28 08:24:19.69	336.94	25.57	-50.6	-51.9	21.9	0.00e+00	0	47	0	110100480	60	14900
2026-01-28 08:24:20.70	336.93	25.40	-50.6	-51.8	22.0	0.00e+00	0	47	0	113246208	60	14849
2026-01-28 08:24:21.71	336.92	25.24	-50.6	-51.8	22.0	0.00e+00	0	47	0	116391936	60	14774
2026-01-28 08:24:22.71	336.92	25.08	-50.7	-51.9	22.0	0.00e+00	0	47	0	119537664	60	14983
2026-01-28 08:24:23.71	336.91	24.92	-50.7	-52.0	21.8	0.00e+00	0	47	0	122683392	60	15136
2026-01-28 08:24:24.72	336.90	24.77	-50.6	-51.8	22.0	0.00e+00	0	47	0	125829120	60	14858
2026-01-28 08:24:25.72	336.89	24.61	-50.5	-51.7	22.0	0.00e+00	0	47	0	128974848	60	14669
2026-01-28 08:24:26.73	336.89	24.45	-50.5	-51.8	22.0	0.00e+00	0	47	0	132120576	60	14778
2026-01-28 08:24:27.73	336.88	24.30	-50.6	-51.9	22.0	0.00e+00	0	47	0	135266304	60	14950
2026-01-28 08:24:28.74	336.87	24.14	-50.8	-52.0	21.8	0.00e+00	0	47	0	138412032	60	15185
2026-01-28 08:24:29.74	336.87	23.99	-50.7	-52.0	21.9	0.00e+00	0	47	0	141557760	60	15120
2026-01-28 08:24:30.75	336.86	23.84	-50.8	-52.0	21.9	0.00e+00	0	47	0	144703488	60	15173
2026-01-28 08:24:31.76	336.85	23.68	-50.8	-52.1	21.8	0.00e+00	0	47	0	147849216	60	15276
2026-01-28 08:24:32.76	336.85	23.53	-50.9	-52.2	21.8	0.00e+00	0	47	0	150994944	60	15451
2026-01-28 08:24:33.77	336.84	23.38	-51.0	-52.2	21.5	0.00e+00	0	47	0	154140672	60	15558
2026-01-28 08:24:34.78	336.83	23.23	-51.0	-52.3	21.5	0.00e+00	0	47	0	157286400	60	15617
2026-01-28 08:24:35.78	336.83	23.09	-51.1	-52.4	21.3	0.00e+00	0	47	0	160432128	60	15846
2026-01-28 08:24:36.79	336.82	22.94	-51.1	-52.4	21.3	0.00e+00	0	47	0	163577856	60	15927
2026-01-28 08:24:37.79	336.81	22.79	-51.1	-52.5	21.2	0.00e+00	0	47	0	166723584	60	15987
2026-01-28 08:24:38.80	336.81	22.65	-51.0	-52.4	21.2	0.00e+00	0	47	0	169869312	60	15907
2026-01-28 08:24:39.81	336.80	22.50	-51.2	-52.6	21.2	0.00e+00	0	47	0	173015040	60	16172
2026-01-28 08:24:40.81	336.80	22.36	-51.2	-52.6	21.3	0.00e+00	0	47	0	176160768	60	16142
2026-01-28 08:24:41.82	336.79	22.21	-51.4	-52.7	21.3	0.00e+00	0	47	0	179306496	60	16469
2026-01-28 08:24:42.83	336.79	22.07	-51.4	-52.7	21.3	0.00e+00	0	47	0	182452224	60	16494
2026-01-28 08:24:43.83	336.78	21.93	-51.4	-52.7	21.3	0.00e+00	0	47	0	185597952	60	16440
2026-01-28 08:24:44.84	336.78	21.79	-51.5	-52.9	21.3	0.00e+00	0	47	0	188743680	60	16854
2026-01-28 08:24:45.84	336.77	21.65	-51.5	-52.8	21.3	0.00e+00	0	47	0	191889408	60	16596
2026-01-28 08:24:46.85	336.76	21.51	-51.3	-52.6	21.6	0.00e+00	0	47	0	195035136	60	16188
2026-01-28 08:24:47.86	336.76	21.37	-51.2	-52.5	21.6	0.00e+00	0	47	0	198180864	60	16046
2026-01-28 08:24:48.86	336.75	21.23	-51.3	-52.6	21.4	0.00e+00	0	47	0	201326592	60	16318
2026-01-28 08:24:49.87	336.75	21.09	-51.3	-52.6	21.5	0.00e+00	0	47	0	204472320	60	16195
2026-01-28 08:24:50.88	336.74	20.96	-51.2	-52.5	21.4	0.00e+00	0	47	0	207618048	60	16052
2026-01-28 08:24:51.89	336.74	20.82	-51.2	-52.6	21.0	0.00e+00	0	47	0	210763776	60	16241
2026-01-28 08:24:52.89	336.74	20.69	-51.2	-52.6	20.7	0.00e+00	0	47	0	213909504	60	16264
2026-01-28 08:24:53.90	336.73	20.55	-51.2	-52.6	20.5	0.00e+00	0	47	0	217055232	60	16308
2026-01-28 08:24:54.91	336.73	20.42	-51.1	-52.6	20.3	0.00e+00	0	47	0	220200960	60	16267
2026-01-28 08:24:55.92	336.72	20.29	-51.0	-52.5	20.1	0.00e+00	0	47	0	223346688	60	16114
2026-01-28 08:24:56.92	336.72	20.15	-51.0	-52.6	20.1	0.00e+00	0	47	0	226492416	60	16159
2026-01-28 08:24:57.92	336.71	20.02	-51.1	-52.7	20.1	0.00e+00	0	47	0	229638144	60	16415
2026-01-28 08:24:58.93	336.71	19.89	-51.1	-52.7	20.0	0.00e+00	0	47	0	232783872	60	16490
2026-01-28 08:24:59.94	336.70	19.76	-51.2	-52.8	19.9	0.00e+00	0	47	0	235929600	60	16600
2026-01-28 08:25:00.94	336.70	19.63	-51.2	-52.8	20.0	0.00e+00	0	47	0	239075328	60	16662
2026-01-28 08:25:01.95	336.70	19.50	-51.2	-52.8	20.1	0.00e+00	0	47	0	242221056	60	16568
2026-01-28 08:25:02.96	336.69	19.38	-51.2	-52.8	20.2	0.00e+00	0	47	0	245366784	60	16611
2026-01-28 08:25:03.97	336.69	19.25	-51.2	-52.8	20.3	0.00e+00	0	47	0	248512512	60	16601
2026-01-28 08:25:04.98	336.68	19.12	-51.3	-52.9	20.4	0.00e+00	0	47	0	251658240	60	16719
2026-01-28 08:25:05.98	336.68	18.99	-51.2	-52.9	20.5	0.00e+00	0	47	0	254803968	60	16721
2026-01-28 08:25:06.99	336.68	18.87	-51.3	-53.0	20.5	0.00e+00	0	47	0	257949696	60	16967
2026-01-28 08:25:07.99	336.67	18.75	-51.3	-53.0	20.5	0.00e+00	0	47	0	261095424	60	16997
2026-01-28 08:25:09.00	336.67	18.62	-51.4	-53.1	20.5	7.00e-07	0	47	0	264241152	60	17145
2026-01-28 08:25:10.00	336.67	18.50	-51.4	-53.1	20.5	0.00e+00	0	47	0	267386880	60	17181
2026-01-28 08:25:11.01	336.66	18.37	-51.5	-53.1	20.6	0.00e+00	0	47	0	270532608	60	17280
2026-01-28 08:25:12.01	336.66	18.25	-51.6	-53.2	20.5	0.00e+00	0	47	0	273678336	60	17370
2026-01-28 08:25:13.02	336.66	18.13	-51.6	-53.2	20.6	0.00e+00	0	47	0	276824064	60	17290
2026-01-28 08:25:14.03	336.65	18.01	-51.7	-53.2	20.5	0.00e+00	0	47	0	279969792	60	17404
2026-01-28 08:25:15.03	336.65	17.89	-51.9	-53.3	20.2	0.00e+00	0	47	0	283115520	60	17611
2026-01-28 08:25:16.04	336.65	17.77	-51.9	-53.3	20.2	0.00e+00	0	47	0	286261248	60	17646
2026-01-28 08:25:17.04	336.64	17.65	-51.9	-53.4	20.0	0.00e+00	0	47	0	289406976	60	17768
2026-01-28 08:25:18.05	336.64	17.53	-52.0	-53.5	19.7	0.00e+00	0	47	0	292552704	60	17932
2026-01-28 08:25:19.06	336.64	17.41	-52.0	-53.5	19.6	0.00e+00	0	47	0	295698432	60	18038
2026-01-28 08:25:20.07	336.63	17.29	-52.1	-53.6	19.5	0.00e+00	0	47	0	298844160	60	18297
2026-01-28 08:25:21.07	336.63	17.18	-52.0	-53.6	19.4	3.66e-05	0	47	0	301989888	60	18233
2026-01-28 08:25:22.08	336.63	17.06	-52.0	-53.7	19.2	0.00e+00	0	47	0	305135616	60	18410
2026-01-28 08:25:23.09	336.63	16.94	-52.1	-53.8	19.0	0.00e+00	0	47	0	308281344	60	18713
2026-01-28 08:25:24.10	336.62	16.83	-52.2	-53.9	18.9	0.00e+00	0	47	0	311427072	60	18853
2026-01-28 08:25:25.10	336.62	16.71	-52.1	-53.9	19.0	0.00e+00	0	47	0	314572800	60	18773
2026-01-28 08:25:26.11	336.62	16.60	-52.3	-54.0	19.0	0.00e+00	0	47	0	317718528	60	19030
2026-01-28 08:25:27.11	336.61	16.49	-52.3	-54.1	19.0	4.50e-06	0	47	0	320864256	60	19297
2026-01-28 08:25:28.12	336.61	16.37	-52.3	-54.1	18.9	0.00e+00	0	47	0	324009984	60	19391
2026-01-28 08:25:29.12	336.61	16.26	-52.4	-54.3	18.7	0.00e+00	0	47	0	327155712	60	19624
2026-01-28 08:25:30.13	336.61	16.15	-52.4	-54.3	18.7	0.00e+00	0	47	0	330301440	60	19783
2026-01-28 08:25:31.14	336.60	16.04	-52.5	-54.4	18.7	0.00e+00	0	47	0	333447168	60	20048
2026-01-28 08:25:32.15	336.60	15.92	-52.5	-54.6	18.5	0.00e+00	0	47	0	336592896	60	20318
2026-01-28 08:25:33.15	336.60	15.81	-52.6	-54.6	18.5	3.80e-06	0	47	0	339738624	60	20470
2026-01-28 08:25:34.16	336.60	15.70	-52.7	-54.8	18.4	0.00e+00	0	47	0	342884352	60	20959
2026-01-28 08:25:35.16	336.60	15.59	-52.9	-55.0	18.3	0.00e+00	0	47	0	346030080	60	21276
2026-01-28 08:25:36.17	336.59	15.49	-53.0	-55.1	18.2	0.00e+00	0	47	0	349175808	60	21541
2026-01-28 08:25:37.17	336.59	15.38	-53.1	-55.2	18.1	0.00e+00	0	47	0	352321536	60	21777
2026-01-28 08:25:38.17	336.59	15.27	-53.3	-55.3	18.0	0.00e+00	0	47	0	355467264	60	22186
2026-01-28 08:25:39.17	336.59	15.16	-53.5	-55.5	17.7	3.00e-06	0	47	0	358612992	60	22741
2026-01-28 08:25:40.18	336.59	15.05	-53.6	-55.6	17.6	0.00e+00	0	47	0	361758720	60	22955
2026-01-28 08:25:41.18	336.58	14.95	-53.8	-55.8	17.3	0.00e+00	0	47	0	364904448	60	23342
2026-01-28 08:25:42.19	336.58	14.84	-53.9	-55.9	16.9	0.00e+00	0	47	0	368050176	60	23786
2026-01-28 08:25:43.19	336.58	14.74	-54.0	-56.0	16.7	0.00e+00	0	47	0	371195904	60	24007
2026-01-28 08:25:44.20	336.58	14.63	-54.2	-56.3	16.4	0.00e+00	0	47	0	374341632	60	24725
2026-01-28 08:25:45.20	336.58	14.53	-54.2	-56.4	16.1	0.00e+00	0	47	0	377487360	60	25111
2026-01-28 08:25:46.21	336.57	14.42	-54.3	-56.6	15.8	0.00e+00	0	47	0	380633088	60	25752
2026-01-28 08:25:47.22	336.57	14.32	-54.5	-56.8	15.6	0.00e+00	0	47	0	383778816	60	26309
2026-01-28 08:25:48.23	336.57	14.21	-54.5	-56.9	15.4	0.00e+00	0	47	0	386924544	60	26725
2026-01-28 08:25:49.23	336.57	14.11	-54.7	-57.2	15.2	0.00e+00	0	47	0	390070272	60	27495
2026-01-28 08:25:50.24	336.57	14.01	-54.8	-57.3	15.1	7.00e-07	0	47	0	393216000	60	27960
2026-01-28 08:25:51.25	336.57	13.90	-54.8	-57.5	14.9	0.00e+00	0	47	0	396361728	60	28689
2026-01-28 08:25:52.26	336.57	13.80	-55.0	-57.7	14.6	0.00e+00	0	47	0	399507456	60	29218
2026-01-28 08:25:53.26	336.56	13.70	-55.0	-57.9	14.4	7.00e-07	0	47	0	402653184	60	30020
2026-01-28 08:25:54.27	336.56	13.60	-55.1	-58.2	14.0	7.00e-07	0	47	0	405798912	60	30960
2026-01-28 08:25:55.28	336.56	13.50	-55.2	-58.4	13.8	1.50e-06	0	47	0	408944640	60	31502
2026-01-28 08:25:56.29	336.56	13.40	-55.3	-58.5	13.6	7.60e-06	0	47	0	412090368	60	32140
2026-01-28 08:25:57.30	336.56	13.30	-55.4	-58.8	13.4	2.36e-05	0	47	0	415236096	60	32952
2026-01-28 08:25:58.30	336.56	13.20	-55.5	-59.0	13.1	1.67e-05	0	47	0	418381824	60	33796
2026-01-28 08:25:59.31	336.56	13.10	-55.6	-59.2	12.9	3.12e-05	0	47	0	421527552	60	34599
2026-01-28 08:26:00.32	336.56	13.00	-55.7	-59.4	12.7	5.11e-05	0	47	0	424673280	60	35514
2026-01-28 08:26:01.32	336.55	12.90	-55.8	-59.6	12.5	1.04e-04	0	47	0	427819008	60	36174
2026-01-28 08:26:02.33	336.55	12.81	-56.0	-59.8	12.2	1.88e-04	0	47	0	430964736	60	37302
2026-01-28 08:26:03.33	336.55	12.71	-56.1	-60.0	11.9	2.63e-04	0	47	0	434110464	60	38259
2026-01-28 08:26:04.34	336.55	12.61	-56.2	-60.3	11.7	4.78e-04	0	47	0	437256192	60	39537
2026-01-28 08:26:05.34	336.55	12.52	-56.4	-60.6	11.4	7.86e-04	0	47	0	440401920	60	40679
2026-01-28 08:26:06.35	336.55	12.42	-56.5	-60.8	11.2	1.29e-03	0	47	0	443547648	60	41644
2026-01-28 08:26:07.36	336.55	12.32	-56.7	-61.2	10.8	1.82e-03	0	47	0	446693376	60	43467
2026-01-28 08:26:08.36	336.55	12.23	-56.8	-61.3	10.6	2.80e-03	0	47	0	449839104	60	44243
2026-01-28 08:26:09.36	336.55	12.13	-56.8	-61.6	10.3	4.54e-03	0	47	0	452984832	60	45696
2026-01-28 08:26:10.37	336.55	12.04	-56.9	-61.9	9.9	7.17e-03	0	47	0	456130560	60	47399
2026-01-28 08:26:11.38	336.55	11.94	-56.9	-62.1	9.6	1.13e-02	0	47	0	459276288	60	48383
2026-01-28 08:26:12.39	336.54	11.85	-56.9	-62.4	9.2	1.83e-02	0	47	0	462422016	60	50165
2026-01-28 08:26:13.39	336.54	11.76	-56.9	-62.7	8.8	2.59e-02	0	47	0	465567744	60	51987
2026-01-28 08:26:14.40	336.54	11.66	-56.9	-63.0	8.5	3.52e-02	0	47	0	468713472	60	53705
2026-01-28 08:26:15.40	336.54	11.57	-56.9	-63.3	8.1	5.03e-02	0	47	0	471859200	60	55836
2026-01-28 08:26:16.41	336.54	11.48	-57.0	-63.6	7.9	6.61e-02	0	47	0	475004928	60	57638
2026-01-28 08:26:17.42	336.54	11.38	-57.1	-63.8	7.6	8.10e-02	0	47	0	478150656	60	59187
2026-01-28 08:26:18.42	336.54	11.29	-57.1	-64.2	7.3	1.11e-01	0	47	0	481296384	60	61405
2026-01-28 08:26:19.43	336.54	11.20	-57.3	-64.5	6.9	1.52e-01	0	47	0	484442112	60	63504
2026-01-28 08:26:20.43	336.54	11.11	-57.3	-64.8	6.4	2.39e-01	0	47	0	487587840	60	66096
2026-01-28 08:26:21.44	336.54	11.02	-57.2	-65.0	5.9	3.21e-01	0	47	0	490733568	60	67929
2026-01-28 08:26:22.45	336.54	10.93	-57.2	-66.4	3.9	5.77e-01	0	47	104	492830720	60	79388
2026-01-28 08:26:23.45	336.54	10.84	-57.0	-66.6	3.9	4.95e-01	0	47	104	492830720	60	81692
2026-01-28 08:26:24.45	336.54	10.75	-56.4	-66.7	4.8	6.58e-01	0	47	104	492830720	60	82750
2026-01-28 08:26:25.46	336.54	10.66	-55.9	-67.0	3.7	8.38e-01	0	47	104	492830720	60	85238
2026-01-28 08:26:26.46	336.54	10.57	-55.4	-67.2	4.3	1.32e+00	0	47	104	492830720	60	87131
2026-01-28 08:26:27.47	336.54	10.48	-54.4	-67.3	4.1	1.48e+00	0	47	104	492830720	60	88268
2026-01-28 08:26:28.47	336.54	10.39	-53.0	-68.1	3.7	1.50e+00	0	47	104	492830720	60	96160
2026-01-28 08:26:29.48	336.54	10.31	-52.8	-69.5	3.6	1.52e+00	0	47	104	492830720	60	113899
2026-01-28 08:26:30.48	336.54	10.22	-57.4	-69.4	4.0	9.77e-01	0	47	104	492830720	60	111926
2026-01-28 08:26:31.48	336.54	10.13	-55.7	-69.7	3.6	1.51e+00	0	47	104	492830720	60	115899
2026-01-28 08:26:32.49	336.54	10.04	-54.7	-70.1	3.6	1.51e+00	0	47	104	492830720	60	121079
2026-01-28 08:26:33.49	336.54	9.96	-54.1	-68.9	3.6	1.51e+00	0	47	104	492830720	60	106430
2026-01-28 08:26:34.50	336.54	9.87	-53.5	-68.6	3.6	1.51e+00	0	47	104	492830720	60	102316
2026-01-28 08:26:35.51	336.54	9.78	-53.1	-68.0	3.6	1.51e+00	0	47	104	492830720	60	95615
2026-01-28 08:26:36.51	336.54	9.70	-52.8	-69.2	3.8	1.51e+00	0	47	104	492830720	60	110043
2026-01-28 08:26:37.51	336.54	9.61	-53.2	-70.1	3.6	1.51e+00	0	47	104	492830720	60	122304
2026-01-28 08:26:38.52	336.54	9.53	-54.5	-71.8	3.5	1.52e+00	0	47	104	492830720	60	148406
2026-01-28 08:26:39.53	336.54	9.44	-55.5	-72.4	3.5	1.52e+00	0	47	104	492830720	60	158628
2026-01-28 08:26:40.54	336.54	9.36	-54.1	-70.0	3.8	1.51e+00	0	47	104	492830720	60	119888
2026-01-28 08:26:41.54	336.54	9.27	-53.1	-69.8	3.8	1.51e+00	0	47	104	492830720	60	117821
2026-01-28 08:26:42.55	336.54	9.19	-52.9	-69.6	3.8	1.51e+00	0	47	104	492830720	60	115298
2026-01-28 08:26:43.55	336.54	9.10	-52.6	-70.1	3.8	1.51e+00	0	47	104	492830720	60	121238
2026-01-28 08:26:44.56	336.54	9.02	-55.8	-72.3	3.5	1.52e+00	0	47	104	492830720	60	156891
2026-01-28 08:26:45.57	336.54	8.93	-55.2	-71.5	3.5	1.51e+00	0	47	104	492830720	60	143714
2026-01-28 08:26:46.57	336.54	8.85	-56.8	-72.4	3.6	1.52e+00	0	47	104	492830720	60	158432
2026-01-28 08:26:47.57	336.54	8.77	-54.8	-70.8	3.7	1.51e+00	0	47	104	492830720	60	131702
2026-01-28 08:26:48.58	336.54	8.69	-54.0	-71.3	3.6	1.51e+00	0	47	104	492830720	60	139638
2026-01-28 08:26:49.58	336.54	8.60	-55.0	-71.1	3.6	1.51e+00	0	47	104	492830720	60	135909
2026-01-28 08:26:50.59	336.54	8.52	-54.9	-71.2	3.6	1.51e+00	0	47	104	492830720	60	137904
2026-01-28 08:26:51.60	336.54	8.44	-54.7	-71.0	3.7	1.51e+00	0	47	104	492830720	60	134577
2026-01-28 08:26:52.60	336.54	8.36	-55.2	-70.9	3.6	1.51e+00	0	47	104	492830720	60	133564
2026-01-28 08:26:53.61	336.54	8.28	-56.4	-71.8	3.6	1.52e+00	0	47	104	492830720	60	148291
2026-01-28 08:26:54.62	336.54	8.20	-55.3	-71.1	3.6	1.51e+00	0	47	104	492830720	60	136278
2026-01-28 08:26:55.62	336.54	8.12	-55.6	-71.2	3.6	1.51e+00	0	47	104	492830720	60	138622
2026-01-28 08:26:56.63	336.54	8.03	-55.1	-71.3	3.6	1.51e+00	0	47	104	492830720	60	139902
2026-01-28 08:26:57.63	336.54	7.95	-55.3	-71.1	3.6	1.51e+00	0	47	104	492830720	60	136431
2026-01-28 08:26:58.64	336.54	7.87	-55.3	-71.2	3.7	1.51e+00	0	47	104	492830720	60	138473
2026-01-28 08:26:59.64	336.54	7.79	-55.2	-71.3	3.6	1.51e+00	0	47	104	492830720	60	140477
2026-01-28 08:27:00.65	336.54	7.72	-55.4	-71.0	3.7	1.51e+00	0	47	104	492830720	60	135379
2026-01-28 08:27:01.65	336.54	7.64	-55.9	-71.3	3.6	1.51e+00	0	47	104	492830720	60	139164
2026-01-28 08:27:02.65	336.54	7.56	-56.2	-71.4	3.6	1.51e+00	0	47	104	492830720	60	141227
2026-01-28 08:27:03.66	336.54	7.48	-55.8	-71.3	3.6	1.52e+00	0	47	104	492830720	60	139159
2026-01-28 08:27:04.66	336.54	7.40	-55.5	-71.2	3.6	1.51e+00	0	47	104	492830720	60	138632
2026-01-28 08:27:05.67	336.55	7.32	-55.5	-71.0	3.7	1.51e+00	0	47	104	492830720	60	135086
2026-01-28 08:27:06.67	336.55	7.24	-55.6	-71.3	3.6	1.51e+00	0	47	104	492830720	60	139238
2026-01-28 08:27:07.67	336.55	7.17	-55.7	-71.3	3.6	1.51e+00	0	47	104	492830720	60	139383
2026-01-28 08:27:08.68	336.55	7.09	-55.5	-71.1	3.7	1.51e+00	0	47	104	492830720	60	136650
2026-01-28 08:27:09.68	336.55	7.01	-55.2	-70.6	3.6	1.51e+00	0	47	104	492830720	60	129510
2026-01-28 08:27:10.69	336.55	6.93	-56.9	-71.7	3.5	1.52e+00	0	47	104	492830720	60	146637
2026-01-28 08:27:11.69	336.55	6.86	-55.9	-71.2	3.7	1.52e+00	0	47	104	492830720	60	137945
2026-01-28 08:27:12.70	336.55	6.78	-55.6	-71.1	3.7	1.51e+00	0	47	104	492830720	60	136879
2026-01-28 08:27:13.70	336.55	6.70	-55.6	-71.2	3.6	1.51e+00	0	47	104	492830720	60	137657
2026-01-28 08:27:14.70	336.55	6.63	-55.5	-71.0	3.6	1.51e+00	0	47	104	492830720	60	135374
2026-01-28 08:27:15.71	336.55	6.55	-55.3	-71.0	3.7	1.51e+00	0	47	104	492830720	60	135147
2026-01-28 08:27:16.72	336.55	6.48	-55.4	-71.2	3.6	1.51e+00	0	47	104	492830720	60	138512
2026-01-28 08:27:17.72	336.55	6.40	-55.2	-71.0	3.7	1.51e+00	0	47	104	492830720	60	135204
2026-01-28 08:27:18.73	336.56	6.33	-55.8	-70.9	3.6	1.51e+00	0	47	104	492830720	60	133513
2026-01-28 08:27:19.74	336.56	6.25	-56.8	-71.9	3.5	1.51e+00	0	47	104	492830720	60	148912
2026-01-28 08:27:20.75	336.56	6.18	-57.3	-72.2	3.5	1.51e+00	0	47	104	492830720	60	154686
2026-01-28 08:27:21.74	336.56	6.10	-57.0	-71.9	3.5	1.51e+00	0	47	104	492830720	60	149060
2026-01-28 08:27:22.75	336.56	6.03	-57.1	-72.1	3.5	1.51e+00	0	47	104	492830720	60	153107
2026-01-28 08:27:23.76	336.56	5.95	-55.6	-71.1	3.6	1.51e+00	0	47	104	492830720	60	137075
2026-01-28 08:27:24.76	336.56	5.88	-53.9	-71.0	3.7	1.51e+00	0	47	104	492830720	60	134604
2026-01-28 08:27:25.77	336.56	5.80	-58.9	-73.4	3.5	1.51e+00	0	47	104	492830720	60	178639
2026-01-28 08:27:26.78	336.56	5.73	-60.4	-74.8	3.5	1.52e+00	0	47	104	492830720	60	209970
2026-01-28 08:27:27.78	336.56	5.66	-61.0	-75.3	3.5	1.51e+00	0	47	104	492830720	60	222063
2026-01-28 08:27:28.79	336.57	5.58	-61.3	-75.3	3.5	1.51e+00	0	47	104	492830720	60	221922
2026-01-28 08:27:29.79	336.57	5.51	-60.0	-75.1	3.5	1.52e+00	0	47	104	492830720	60	215290
2026-01-28 08:27:30.80	336.57	5.44	-60.8	-75.4	3.5	1.52e+00	0	47	104	492830720	60	224525
2026-01-28 08:27:31.81	336.57	5.37	-61.3	-75.7	3.5	1.52e+00	0	47	104	492830720	60	231262
2026-01-28 08:27:32.82	336.57	5.29	-62.0	-75.9	3.5	1.52e+00	0	47	104	492830720	60	238563
2026-01-28 08:27:33.82	336.57	5.22	-61.6	-75.9	3.5	1.52e+00	0	47	104	492830720	60	238428
2026-01-28 08:27:34.83	336.57	5.15	-61.5	-75.8	3.5	1.52e+00	0	47	104	492830720	60	233431
2026-01-28 08:27:35.84	336.57	5.08	-60.6	-75.3	3.5	1.51e+00	0	47	104	492830720	60	221437
2026-01-28 08:27:36.84	336.57	5.01	-62.0	-76.0	3.5	1.51e+00	0	47	104	492830720	60	241202
2026-01-28 08:27:37.85	336.58	4.93	-61.7	-76.3	3.5	1.51e+00	0	47	104	492830720	60	247124
2026-01-28 08:27:38.86	336.58	4.86	-61.6	-76.3	3.5	1.52e+00	0	47	104	492830720	60	248035
2026-01-28 08:27:39.86	336.58	4.79	-61.1	-76.4	3.5	1.52e+00	0	47	104	492830720	60	251578
2026-01-28 08:27:40.87	336.58	4.72	-59.8	-75.5	3.5	1.52e+00	0	47	104	492830720	60	225358
2026-01-28 08:27:41.88	336.58	4.65	-60.3	-75.8	3.5	1.51e+00	0	47	104	492830720	60	234129
2026-01-28 08:27:42.88	336.58	4.58	-61.0	-76.2	3.5	1.52e+00	0	47	104	492830720	60	246100
2026-01-28 08:27:43.89	336.58	4.51	-61.0	-76.2	3.5	1.52e+00	0	47	104	492830720	60	245369
2026-01-28 08:27:44.90	336.58	4.44	-60.9	-76.1	3.5	1.51e+00	0	47	104	492830720	60	243665
2026-01-28 08:27:45.91	336.59	4.37	-60.9	-75.9	3.5	1.52e+00	0	47	104	492830720	60	238584
2026-01-28 08:27:46.92	336.59	4.30	-60.9	-76.0	3.5	1.52e+00	0	47	104	492830720	60	240898
2026-01-28 08:27:47.92	336.59	4.23	-60.9	-76.0	3.5	1.52e+00	0	47	104	492830720	60	241115
2026-01-28 08:27:48.93	336.59	4.16	-60.8	-76.0	3.5	1.52e+00	0	47	104	492830720	60	240298
2026-01-28 08:27:49.94	336.59	4.09	-60.9	-76.1	3.5	1.52e+00	0	47	104	492830720	60	243653
2026-01-28 08:27:50.95	336.59	4.02	-60.9	-76.1	3.5	1.51e+00	0	47	104	492830720	60	244012
2026-01-28 08:27:51.96	336.59	3.95	-60.9	-76.2	3.5	1.52e+00	0	47	104	492830720	60	244260
2026-01-28 08:27:52.96	336.60	3.88	-60.9	-76.1	3.5	1.51e+00	0	47	104	492830720	60	241456
2026-01-28 08:27:53.97	336.60	3.81	-60.9	-76.1	3.6	1.52e+00	0	47	104	492830720	60	242197
2026-01-28 08:27:54.98	336.60	3.75	-60.9	-76.3	3.5	1.51e+00	0	47	104	492830720	60	247073
2026-01-28 08:27:55.99	336.60	3.68	-60.9	-76.2	3.5	1.52e+00	0	47	104	492830720	60	245049
2026-01-28 08:27:56.99	336.60	3.61	-60.9	-76.1	3.5	1.51e+00	0	47	104	492830720	60	242570
2026-01-28 08:27:58.00	336.60	3.54	-60.9	-76.2	3.5	1.52e+00	0	47	104	492830720	60	244987
2026-01-28 08:27:59.01	336.60	3.47	-61.0	-76.2	3.5	1.51e+00	0	47	104	492830720	60	246462
2026-01-28 08:28:00.02	336.61	3.41	-61.0	-76.1	3.5	1.52e+00	0	47	104	492830720	60	242766
2026-01-28 08:28:01.02	336.61	3.34	-60.9	-76.2	3.5	1.52e+00	0	47	104	492830720	60	246355
2026-01-28 08:28:02.03	336.61	3.27	-60.9	-76.1	3.5	1.52e+00	0	47	104	492830720	60	243047
2026-01-28 08:28:03.04	336.61	3.20	-60.9	-76.1	3.5	1.52e+00	0	47	104	492830720	60	244121
2026-01-28 08:28:04.05	336.61	3.14	-61.0	-76.3	3.5	1.52e+00	0	47	104	492830720	60	249394
2026-01-28 08:28:05.06	336.61	3.07	-60.9	-76.1	3.5	1.52e+00	0	47	104	492830720	60	243578
2026-01-28 08:28:06.06	336.62	3.00	-60.9	-76.3	3.5	1.52e+00	0	47	104	492830720	60	247884
2026-01-28 08:28:07.07	336.62	2.94	-60.9	-76.2	3.5	1.52e+00	0	47	104	492830720	60	245574
2026-01-28 08:28:08.08	336.62	2.87	-60.9	-76.2	3.5	1.52e+00	0	47	104	492830720	60	245964
2026-01-28 08:28:09.08	336.62	2.80	-61.0	-76.3	3.5	1.51e+00	0	47	104	492830720	60	249773
2026-01-28 08:28:10.09	336.62	2.74	-60.9	-76.0	3.5	1.51e+00	0	47	104	492830720	60	239899
2026-01-28 08:28:11.09	336.62	2.67	-60.9	-76.1	3.5	1.52e+00	0	47	104	492830720	60	242653
2026-01-28 08:28:12.10	336.63	2.61	-60.9	-76.1	3.5	1.51e+00	0	47	104	492830720	60	242752
2026-01-28 08:28:13.11	336.63	2.54	-60.8	-76.0	3.5	1.51e+00	0	47	104	492830720	60	239424
2026-01-28 08:28:14.11	336.63	2.48	-60.9	-76.1	3.5	1.51e+00	0	47	104	492830720	60	241839
2026-01-28 08:28:15.12	336.63	2.41	-60.9	-76.0	3.5	1.52e+00	0	47	104	492830720	60	239157
2026-01-28 08:28:16.12	336.63	2.35	-60.8	-76.1	3.6	1.52e+00	0	47	104	492830720	60	243560
2026-01-28 08:28:17.13	336.63	2.28	-60.9	-76.1	3.5	1.51e+00	0	47	104	492830720	60	243735
2026-01-28 08:28:18.14	336.64	2.22	-60.8	-76.2	3.5	1.52e+00	0	47	104	492830720	60	244769
2026-01-28 08:28:19.14	336.64	2.15	-60.8	-76.2	3.5	1.52e+00	0	47	104	492830720	60	246226
2026-01-28 08:28:20.15	336.64	2.09	-60.9	-76.1	3.5	1.52e+00	0	47	104	492830720	60	242267
2026-01-28 08:28:21.16	336.64	2.02	-60.8	-76.1	3.5	1.52e+00	0	47	104	492830720	60	243168
2026-01-28 08:28:22.17	336.64	1.96	-60.8	-76.0	3.5	1.52e+00	0	47	104	492830720	60	239585
2026-01-28 08:28:23.17	336.65	1.89	-60.8	-76.0	3.5	1.52e+00	0	47	104	492830720	60	240575
2026-01-28 08:28:24.18	336.65	1.83	-60.8	-76.1	3.5	1.52e+00	0	47	104	492830720	60	243153
2026-01-28 08:28:25.19	336.65	1.77	-60.8	-76.1	3.5	1.51e+00	0	47	104	492830720	60	241834
2026-01-28 08:28:26.20	336.65	1.70	-60.8	-76.2	3.5	1.52e+00	0	47	104	492830720	60	245717
2026-01-28 08:28:27.20	336.65	1.64	-60.8	-76.0	3.5	1.52e+00	0	47	104	492830720	60	240651
2026-01-28 08:28:28.21	336.65	1.58	-60.8	-75.9	3.5	1.52e+00	0	47	104	492830720	60	238500
2026-01-28 08:28:29.21	336.66	1.51	-60.8	-76.0	3.5	1.52e+00	0	47	104	492830720	60	238792
2026-01-28 08:28:30.22	336.66	1.45	-60.8	-75.9	3.5	1.51e+00	0	47	104	492830720	60	237110
2026-01-28 08:28:31.22	336.66	1.39	-60.8	-76.2	3.5	1.52e+00	0	47	104	492830720	60	245167
2026-01-28 08:28:32.23	336.66	1.32	-60.9	-76.0	3.5	1.52e+00	0	47	104	492830720	60	240250
2026-01-28 08:28:33.24	336.66	1.26	-60.9	-76.0	3.5	1.51e+00	0	47	104	492830720	60	240210
2026-01-28 08:28:34.24	336.67	1.20	-60.9	-76.1	3.5	1.52e+00	0	47	104	492830720	60	243259
2026-01-28 08:28:35.25	336.67	1.14	-60.9	-76.0	3.5	1.52e+00	0	47	104	492830720	60	238976
2026-01-28 08:28:36.26	336.67	1.07	-60.9	-76.1	3.5	1.51e+00	0	47	104	492830720	60	243670
2026-01-28 08:28:37.27	336.67	1.01	-60.9	-75.9	3.5	1.51e+00	0	47	104	492830720	60	238208
2026-01-28 08:28:38.28	336.67	0.95	-60.9	-76.1	3.5	1.52e+00	0	47	104	492830720	60	241570
2026-01-28 08:28:39.28	336.68	0.89	-60.9	-76.2	3.5	1.52e+00	0	47	104	492830720	60	245571
2026-01-28 08:28:40.29	336.68	0.83	-60.9	-76.0	3.5	1.52e+00	0	47	104	492830720	60	238851
2026-01-28 08:28:41.30	336.68	0.77	-60.9	-76.1	3.5	1.52e+00	0	47	104	492830720	60	242909
2026-01-28 08:28:42.31	336.68	0.70	-60.9	-76.1	3.5	1.52e+00	0	47	104	492830720	60	242306
2026-01-28 08:28:43.32	336.68	0.64	-60.9	-75.9	3.6	1.52e+00	0	47	104	492830720	60	238454
2026-01-28 08:28:44.32	336.69	0.58	-61.0	-76.0	3.5	1.52e+00	0	47	104	492830720	60	240460
2026-01-28 08:28:45.33	336.69	0.52	-60.9	-76.0	3.5	1.52e+00	0	47	104	492830720	60	239888
2026-01-28 08:28:46.34	336.69	0.46	-60.9	-76.0	3.5	1.51e+00	0	47	104	492830720	60	239869
2026-01-28 08:28:47.35	336.69	0.40	-61.0	-76.1	3.5	1.52e+00	0	47	104	492830720	60	243777
2026-01-28 08:28:48.36	336.69	0.34	-61.0	-76.2	3.5	1.52e+00	0	47	104	492830720	60	244373
2026-01-28 08:28:49.36	336.70	0.28	-60.9	-76.1	3.5	1.51e+00	0	47	104	492830720	60	242924
2026-01-28 08:28:50.37	336.70	0.22	-60.9	-76.1	3.5	1.51e+00	0	47	104	492830720	60	243520
2026-01-28 08:28:51.38	336.70	0.16	-60.9	-75.9	3.5	1.52e+00	0	47	104	492830720	60	237631
2026-01-28 08:28:52.39	336.70	0.09	-60.9	-75.9	3.5	1.51e+00	0	47	104	492830720	60	236646
2026-01-28 08:28:53.39	336.71	0.04	-60.9	-76.1	3.5	1.51e+00	0	47	104	492830720	60	243044
2026-01-28 08:28:54.40	336.71	-0.03	-60.9	-76.0	3.5	1.52e+00	0	47	104	492830720	60	239496
2026-01-28 08:28:55.41	336.71	-0.09	-60.8	-75.8	3.5	1.52e+00	0	47	104	492830720	60	235905

#Closed at: 2026-01-28 08:28:55
#Recorded file [492 MB]: D:/Data/35015_260128_112623.dat