passes_logs/2026/01/28/R3.2S-Naryan-Mar/R3.2S-Naryan-Mar__20260128_155259_TY-40_rec.log

#Pass ID: 20260128_155259_TY-40
#Satellite: TY-40
#Configuration: TY-39
#almurnet v.1.7.20240730
#Start time: 2026-01-28 15:53:02

#Version: 2.2.20231116
#Station: R3.2S-Naryan-Mar
#Location: 53.008057 lon 67.646978 lat
#TLE: 1 56846U 23081A   26027.86322491  .00005171  00000-0  23026-3 0  9995
#TLE: 2 56846  97.3872 100.5479 0001461  75.1546 284.9852 15.21887283146669

#Time	Az	El	Level	Level2	SNR	BER	BlckErr	Temp	State	Recorded	gain1	gain2
2026-01-28 15:53:02.73	118.14	0.19	-56.8	-73.3	3.5	8.44e-01	0	43	0	0	60	180863
2026-01-28 15:53:03.74	118.08	0.25	-56.5	-60.7	3.5	0.00e+00	0	45	104	0	60	128066
2026-01-28 15:53:04.74	118.03	0.31	-56.7	-61.0	3.6	0.00e+00	0	45	104	0	60	132140
2026-01-28 15:53:05.75	117.97	0.38	-57.4	-61.2	3.6	0.00e+00	0	45	104	0	60	136519
2026-01-28 15:53:06.76	117.91	0.44	-57.3	-61.1	3.6	0.00e+00	0	45	104	0	60	134041
2026-01-28 15:53:07.76	117.86	0.50	-57.4	-61.3	3.6	0.00e+00	0	45	104	0	60	137699
2026-01-28 15:53:08.77	117.80	0.56	-57.2	-61.1	3.6	0.00e+00	0	45	104	0	60	134765
2026-01-28 15:53:09.78	117.74	0.63	-57.3	-61.0	3.6	0.00e+00	0	45	104	0	60	133173
2026-01-28 15:53:10.78	117.68	0.69	-56.8	-61.0	3.6	0.00e+00	0	45	104	0	60	132018
2026-01-28 15:53:11.79	117.62	0.75	-56.2	-60.5	3.6	0.00e+00	0	46	104	0	60	125105
2026-01-28 15:53:12.79	117.56	0.81	-57.1	-61.1	3.6	0.00e+00	0	46	104	0	60	134229
2026-01-28 15:53:13.78	117.51	0.88	-56.9	-60.8	3.6	0.00e+00	0	46	104	0	60	129152
2026-01-28 15:53:14.79	117.45	0.94	-56.2	-60.2	3.6	0.00e+00	0	46	104	0	60	121245
2026-01-28 15:53:15.79	117.39	1.00	-54.0	-59.2	3.6	0.00e+00	0	46	104	0	60	108379
2026-01-28 15:53:16.80	117.33	1.07	-52.3	-58.3	3.6	0.00e+00	0	46	104	0	60	97599
2026-01-28 15:53:17.81	117.27	1.13	-48.7	-55.5	3.6	0.00e+00	0	46	104	0	60	70573
2026-01-28 15:53:18.81	117.20	1.19	-48.2	-55.2	3.6	0.00e+00	0	46	104	0	60	68294
2026-01-28 15:53:19.82	117.14	1.26	-48.1	-55.2	3.6	0.00e+00	0	46	104	0	60	67699
2026-01-28 15:53:20.83	117.08	1.32	-48.0	-55.0	3.6	0.00e+00	0	46	104	0	60	66838
2026-01-28 15:53:21.84	117.02	1.39	-47.8	-55.0	3.6	0.00e+00	0	46	104	0	60	66185
2026-01-28 15:53:22.85	116.96	1.45	-47.7	-54.7	3.6	0.00e+00	0	46	104	0	60	64076
2026-01-28 15:53:23.86	116.89	1.52	-47.7	-54.8	3.6	0.00e+00	0	46	104	0	60	64937
2026-01-28 15:53:24.86	116.83	1.58	-47.7	-54.7	3.6	0.00e+00	0	46	104	0	60	64527
2026-01-28 15:53:25.87	116.77	1.65	-47.6	-54.6	3.6	0.00e+00	0	46	104	0	60	63849
2026-01-28 15:53:26.88	116.70	1.71	-47.6	-54.6	3.6	0.00e+00	0	46	104	0	60	63189
2026-01-28 15:53:27.88	116.64	1.78	-47.5	-54.5	3.6	0.00e+00	0	46	104	0	60	62468
2026-01-28 15:53:28.88	116.58	1.84	-47.4	-54.5	3.6	0.00e+00	0	46	104	0	60	62806
2026-01-28 15:53:29.89	116.51	1.91	-47.5	-54.5	3.6	0.00e+00	0	46	104	0	60	62816
2026-01-28 15:53:30.90	116.44	1.97	-47.4	-54.5	3.6	0.00e+00	0	46	104	0	60	62876
2026-01-28 15:53:31.90	116.38	2.04	-47.3	-54.4	3.6	0.00e+00	0	46	104	0	60	62044
2026-01-28 15:53:32.91	116.31	2.11	-47.4	-54.4	3.6	0.00e+00	0	46	104	0	60	62348
2026-01-28 15:53:33.91	116.25	2.17	-47.5	-54.5	3.6	0.00e+00	0	46	104	0	60	63149
2026-01-28 15:53:34.92	116.18	2.24	-47.5	-54.5	3.6	0.00e+00	0	46	104	0	60	62785
2026-01-28 15:53:35.92	116.11	2.31	-47.5	-54.6	3.6	0.00e+00	0	46	104	0	60	63401
2026-01-28 15:53:36.93	116.04	2.37	-47.6	-54.6	3.6	0.00e+00	0	46	104	0	60	63515
2026-01-28 15:53:37.94	115.98	2.44	-47.4	-54.4	3.6	0.00e+00	0	46	104	0	60	62273
2026-01-28 15:53:38.94	115.91	2.51	-47.5	-54.5	3.6	0.00e+00	0	46	104	0	60	62911
2026-01-28 15:53:39.95	115.84	2.57	-47.3	-54.4	3.6	0.00e+00	0	46	104	0	60	62003
2026-01-28 15:53:40.96	115.77	2.64	-47.3	-54.4	3.6	0.00e+00	0	46	104	0	60	61818
2026-01-28 15:53:41.96	115.70	2.71	-47.3	-54.3	3.6	0.00e+00	0	46	104	0	60	61631
2026-01-28 15:53:42.97	115.63	2.78	-47.3	-54.5	3.6	0.00e+00	0	47	104	0	60	62703
2026-01-28 15:53:43.97	115.56	2.85	-47.2	-54.3	3.6	0.00e+00	0	47	104	0	60	61511
2026-01-28 15:53:44.97	115.49	2.91	-47.3	-54.4	3.6	0.00e+00	0	47	104	0	60	61769
2026-01-28 15:53:45.97	115.42	2.98	-47.2	-54.4	3.6	0.00e+00	0	46	104	0	60	61857
2026-01-28 15:53:46.98	115.34	3.05	-47.1	-54.3	3.6	0.00e+00	0	46	104	0	60	61412
2026-01-28 15:53:47.98	115.27	3.12	-47.2	-54.3	3.6	0.00e+00	0	46	104	0	60	61287
2026-01-28 15:53:48.99	115.20	3.19	-47.3	-54.3	3.6	0.00e+00	0	47	104	0	60	61567
2026-01-28 15:53:50.00	115.12	3.26	-47.2	-54.4	3.6	0.00e+00	0	47	104	0	60	61896
2026-01-28 15:53:51.00	115.05	3.33	-47.2	-54.3	3.6	0.00e+00	0	47	104	0	60	61198
2026-01-28 15:53:52.01	114.98	3.40	-47.2	-54.3	3.6	0.00e+00	0	47	104	0	60	61206
2026-01-28 15:53:53.02	114.90	3.47	-47.2	-54.3	3.6	0.00e+00	0	47	104	0	60	61178
2026-01-28 15:53:54.02	114.83	3.54	-47.2	-54.3	3.6	0.00e+00	0	47	104	0	60	61148
2026-01-28 15:53:55.03	114.75	3.61	-47.2	-54.3	3.6	0.00e+00	0	47	104	0	60	61610
2026-01-28 15:53:56.04	114.67	3.68	-47.2	-54.3	3.6	0.00e+00	0	47	104	0	60	61162
2026-01-28 15:53:57.05	114.60	3.75	-47.5	-54.5	3.6	0.00e+00	0	47	104	0	60	62998
2026-01-28 15:53:58.05	114.52	3.82	-47.4	-54.4	3.6	0.00e+00	0	47	104	0	60	62361
2026-01-28 15:53:59.06	114.44	3.89	-47.4	-54.5	3.6	0.00e+00	0	47	104	0	60	62739
2026-01-28 15:54:00.07	114.36	3.96	-47.4	-54.5	3.6	0.00e+00	0	47	104	0	60	62818
2026-01-28 15:54:01.07	114.28	4.03	-47.4	-54.5	3.6	0.00e+00	0	47	104	0	60	62804
2026-01-28 15:54:02.08	114.20	4.11	-47.4	-54.4	3.6	0.00e+00	0	47	104	0	60	62444
2026-01-28 15:54:03.09	114.12	4.18	-47.2	-54.3	3.6	0.00e+00	0	47	104	0	60	61584
2026-01-28 15:54:04.10	114.04	4.25	-47.2	-54.4	3.6	0.00e+00	0	47	104	0	60	61879
2026-01-28 15:54:05.11	113.96	4.32	-47.2	-54.2	3.6	0.00e+00	0	47	104	0	60	60686
2026-01-28 15:54:06.11	113.88	4.40	-47.2	-54.3	3.6	0.00e+00	0	47	104	0	60	61383
2026-01-28 15:54:07.12	113.80	4.47	-47.2	-54.3	3.6	0.00e+00	0	47	104	0	60	61052
2026-01-28 15:54:08.12	113.72	4.54	-47.1	-54.2	3.6	0.00e+00	0	47	104	0	60	60939
2026-01-28 15:54:09.12	113.63	4.61	-47.1	-54.2	3.6	0.00e+00	0	47	104	0	60	60623
2026-01-28 15:54:10.13	113.55	4.69	-47.2	-54.2	3.6	0.00e+00	0	47	104	0	60	60733
2026-01-28 15:54:11.13	113.47	4.76	-47.1	-54.2	3.6	0.00e+00	0	47	104	0	60	60556
2026-01-28 15:54:12.14	113.38	4.83	-47.1	-54.2	3.6	0.00e+00	0	47	104	0	60	60896
2026-01-28 15:54:13.15	113.30	4.91	-47.1	-54.2	3.6	0.00e+00	0	47	104	0	60	60512
2026-01-28 15:54:14.15	113.21	4.98	-47.1	-54.3	3.6	0.00e+00	0	47	104	0	60	61204
2026-01-28 15:54:15.15	113.13	5.06	-47.1	-54.1	3.6	0.00e+00	0	47	104	0	60	60269
2026-01-28 15:54:16.16	113.04	5.13	-47.1	-54.2	3.6	0.00e+00	0	47	104	0	60	60507
2026-01-28 15:54:17.16	112.95	5.21	-47.0	-54.1	3.6	0.00e+00	0	47	104	0	60	60114
2026-01-28 15:54:18.17	112.86	5.28	-47.0	-54.1	3.6	0.00e+00	0	47	104	0	60	60006
2026-01-28 15:54:19.18	112.77	5.36	-47.0	-54.1	3.6	0.00e+00	0	47	104	0	60	60080
2026-01-28 15:54:20.18	112.68	5.43	-46.9	-53.9	3.6	0.00e+00	0	47	104	0	60	58707
2026-01-28 15:54:21.19	112.59	5.51	-47.0	-54.0	3.6	0.00e+00	0	47	104	0	60	59347
2026-01-28 15:54:22.19	112.50	5.59	-47.1	-54.2	3.6	0.00e+00	0	47	104	0	60	60824
2026-01-28 15:54:23.20	112.41	5.66	-47.0	-54.1	3.6	0.00e+00	0	47	104	0	60	59987
2026-01-28 15:54:24.21	112.32	5.74	-47.0	-54.1	3.6	0.00e+00	0	47	104	0	60	59943
2026-01-28 15:54:25.21	112.23	5.82	-47.1	-54.2	3.6	0.00e+00	0	47	104	0	60	60888
2026-01-28 15:54:26.22	112.13	5.89	-47.0	-54.1	3.6	0.00e+00	0	47	104	0	60	60286
2026-01-28 15:54:27.23	112.04	5.97	-47.2	-54.3	3.6	0.00e+00	0	47	104	0	60	61354
2026-01-28 15:54:28.24	111.95	6.05	-47.3	-54.3	3.6	0.00e+00	0	47	104	0	60	61300
2026-01-28 15:54:29.24	111.85	6.13	-52.4	-58.1	3.6	0.00e+00	0	47	104	0	60	94865
2026-01-28 15:54:30.25	111.76	6.20	-53.7	-58.3	3.6	0.00e+00	0	47	104	0	60	97426
2026-01-28 15:54:31.26	111.66	6.28	-45.5	-53.0	3.6	0.00e+00	0	47	104	0	60	52743
2026-01-28 15:54:32.26	111.56	6.36	-54.0	-58.4	3.6	0.00e+00	0	47	104	0	60	98709
2026-01-28 15:54:33.27	111.46	6.44	-47.2	-54.6	3.6	0.00e+00	0	47	104	0	60	63703
2026-01-28 15:54:34.27	111.37	6.52	-46.3	-53.9	3.6	0.00e+00	0	47	104	0	60	58513
2026-01-28 15:54:35.28	111.27	6.60	-46.7	-54.2	3.6	0.00e+00	0	47	104	0	60	60680
2026-01-28 15:54:36.29	111.17	6.68	-47.2	-54.5	3.6	0.00e+00	0	47	104	0	60	62509
2026-01-28 15:54:37.29	111.07	6.76	-54.5	-58.8	3.6	0.00e+00	0	47	104	0	60	102523
2026-01-28 15:54:38.29	110.97	6.84	-54.1	-58.6	3.6	0.00e+00	0	47	104	0	60	100207
2026-01-28 15:54:39.30	110.86	6.92	-51.4	-56.8	3.6	0.00e+00	0	47	104	0	60	81952
2026-01-28 15:54:40.31	110.76	7.00	-50.0	-56.3	3.6	0.00e+00	0	47	104	0	60	77435
2026-01-28 15:54:41.31	110.66	7.08	-49.9	-56.3	3.6	0.00e+00	0	47	104	0	60	76924
2026-01-28 15:54:42.32	110.55	7.16	-51.3	-57.0	3.6	0.00e+00	0	47	104	0	60	84235
2026-01-28 15:54:43.33	110.45	7.24	-52.3	-57.6	3.6	0.00e+00	0	47	104	0	60	89420
2026-01-28 15:54:44.34	110.34	7.33	-52.9	-57.8	3.6	0.00e+00	0	47	104	0	60	92314
2026-01-28 15:54:45.34	110.23	7.41	-54.4	-58.7	3.6	0.00e+00	0	47	104	0	60	101353
2026-01-28 15:54:46.35	110.13	7.49	-54.8	-59.0	3.6	0.00e+00	0	47	104	0	60	105921
2026-01-28 15:54:47.36	110.02	7.57	-54.3	-58.6	3.6	0.00e+00	0	47	104	0	60	100313
2026-01-28 15:54:48.37	109.91	7.66	-52.1	-57.8	3.6	0.00e+00	0	47	104	0	60	91745
2026-01-28 15:54:49.37	109.80	7.74	-54.5	-58.7	3.6	0.00e+00	0	47	104	0	60	101627
2026-01-28 15:54:50.37	109.69	7.82	-52.1	-57.8	3.6	0.00e+00	0	47	104	0	60	91430
2026-01-28 15:54:51.38	109.58	7.91	-52.0	-57.7	3.6	0.00e+00	0	47	104	0	60	90739
2026-01-28 15:54:52.38	109.47	7.99	-52.6	-58.0	3.6	0.00e+00	0	47	104	0	60	93679
2026-01-28 15:54:53.38	109.36	8.07	-54.7	-58.9	3.6	0.00e+00	0	47	104	0	60	103701
2026-01-28 15:54:54.39	109.24	8.16	-52.6	-58.0	3.6	0.00e+00	0	47	104	0	60	93790
2026-01-28 15:54:55.40	109.13	8.24	-54.8	-59.0	3.5	0.00e+00	0	47	104	0	60	105028
2026-01-28 15:54:56.41	109.01	8.33	-54.5	-58.8	3.6	0.00e+00	0	47	104	0	60	102546
2026-01-28 15:54:57.41	108.89	8.41	-52.7	-57.9	3.6	0.00e+00	0	47	104	0	60	92981
2026-01-28 15:54:58.42	108.78	8.50	-52.8	-58.0	3.6	0.00e+00	0	47	104	0	60	93849
2026-01-28 15:54:59.43	108.66	8.59	-53.6	-58.3	3.6	0.00e+00	0	47	104	0	60	97235
2026-01-28 15:55:00.44	108.54	8.67	-54.2	-58.6	3.6	0.00e+00	0	47	104	0	60	100163
2026-01-28 15:55:01.45	108.42	8.76	-55.4	-59.3	3.6	0.00e+00	0	47	104	0	60	109565
2026-01-28 15:55:02.46	108.30	8.85	-54.4	-58.7	3.6	0.00e+00	0	48	104	0	60	102349
2026-01-28 15:55:03.46	108.18	8.93	-54.1	-58.6	3.6	0.00e+00	0	47	104	0	60	101119
2026-01-28 15:55:04.47	108.05	9.02	-54.3	-58.9	3.6	0.00e+00	0	48	104	0	60	103672
2026-01-28 15:55:05.48	107.93	9.11	-54.9	-59.1	3.6	0.00e+00	0	47	104	0	60	106165
2026-01-28 15:55:06.48	107.81	9.20	-53.8	-58.6	3.6	0.00e+00	0	48	104	0	60	100692
2026-01-28 15:55:07.49	107.68	9.29	-55.2	-59.0	3.6	0.00e+00	0	47	104	0	60	105483
2026-01-28 15:55:08.49	107.55	9.38	-53.7	-58.5	3.6	0.00e+00	0	47	104	0	60	99184
2026-01-28 15:55:09.50	107.43	9.46	-55.4	-59.4	3.6	0.00e+00	0	47	104	0	60	110346
2026-01-28 15:55:10.51	107.30	9.55	-55.1	-59.2	3.6	0.00e+00	0	48	104	0	60	107391
2026-01-28 15:55:11.51	107.17	9.64	-55.0	-59.2	3.6	0.00e+00	0	48	104	0	60	107605
2026-01-28 15:55:12.51	107.04	9.73	-55.1	-59.2	3.6	0.00e+00	0	48	104	0	60	107942
2026-01-28 15:55:13.52	106.91	9.82	-55.1	-59.4	3.6	0.00e+00	0	48	104	0	60	110045
2026-01-28 15:55:14.53	106.77	9.91	-54.9	-59.2	3.5	0.00e+00	0	48	104	0	60	107606
2026-01-28 15:55:15.53	106.64	10.01	-53.8	-58.5	3.6	0.00e+00	0	48	104	0	60	99733
2026-01-28 15:55:16.54	106.51	10.10	-54.6	-59.0	3.6	0.00e+00	0	48	104	0	60	105225
2026-01-28 15:55:17.55	106.37	10.19	-55.5	-59.4	3.6	0.00e+00	0	48	104	0	60	110331
2026-01-28 15:55:18.56	106.23	10.28	-55.1	-59.2	3.6	0.00e+00	0	48	104	0	60	108344
2026-01-28 15:55:19.56	106.10	10.37	-55.1	-59.2	3.6	0.00e+00	0	48	104	0	60	108076
2026-01-28 15:55:20.57	105.96	10.47	-55.1	-59.3	3.6	0.00e+00	0	48	104	0	60	108581
2026-01-28 15:55:21.57	105.82	10.56	-55.4	-59.4	3.6	0.00e+00	0	48	104	0	60	110059
2026-01-28 15:55:22.57	105.68	10.65	-55.2	-59.3	3.6	0.00e+00	0	48	104	0	60	109042
2026-01-28 15:55:23.58	105.53	10.74	-54.7	-59.1	3.6	0.00e+00	0	48	104	0	60	106672
2026-01-28 15:55:24.59	105.39	10.84	-55.5	-59.4	3.6	0.00e+00	0	48	104	0	60	110594
2026-01-28 15:55:25.59	105.25	10.93	-55.4	-59.3	3.6	0.00e+00	0	48	104	0	60	109523
2026-01-28 15:55:26.59	105.10	11.03	-55.6	-59.5	3.6	0.00e+00	0	48	104	0	60	111642
2026-01-28 15:55:27.60	104.96	11.12	-55.3	-59.3	3.6	0.00e+00	0	48	104	0	60	109513
2026-01-28 15:55:28.61	104.81	11.22	-55.1	-59.3	3.6	0.00e+00	0	48	104	0	60	109541
2026-01-28 15:55:29.61	104.66	11.31	-55.4	-59.3	3.6	0.00e+00	0	48	104	0	60	108751
2026-01-28 15:55:30.61	104.51	11.41	-55.5	-59.4	3.6	0.00e+00	0	48	104	0	60	110779
2026-01-28 15:55:31.62	104.36	11.50	-55.1	-59.3	3.6	0.00e+00	0	48	104	0	60	108535
2026-01-28 15:55:32.63	104.20	11.60	-55.8	-59.6	3.6	0.00e+00	0	48	104	0	60	112705
2026-01-28 15:55:33.64	104.05	11.70	-55.5	-59.2	3.6	0.00e+00	0	48	104	0	60	107993
2026-01-28 15:55:34.65	103.89	11.80	-55.6	-59.4	3.6	0.00e+00	0	48	104	0	60	110432
2026-01-28 15:55:35.65	103.74	11.89	-55.8	-59.6	3.6	0.00e+00	0	48	104	0	60	113189
2026-01-28 15:55:36.66	103.58	11.99	-55.4	-59.3	3.5	0.00e+00	0	48	104	0	60	108844
2026-01-28 15:55:37.66	103.42	12.09	-55.3	-59.0	3.6	0.00e+00	0	48	104	0	60	105587
2026-01-28 15:55:38.67	103.26	12.19	-55.4	-59.1	3.6	0.00e+00	0	48	104	0	60	106162
2026-01-28 15:55:39.67	103.10	12.28	-55.4	-59.0	3.6	0.00e+00	0	48	104	0	60	105485
2026-01-28 15:55:40.68	102.93	12.38	-54.5	-58.8	3.6	0.00e+00	0	48	104	0	60	102542
2026-01-28 15:55:41.68	102.77	12.48	-54.6	-58.9	3.6	0.00e+00	0	48	104	0	60	103763
2026-01-28 15:55:42.69	102.60	12.58	-55.0	-59.0	3.6	0.00e+00	0	48	104	0	60	105628
2026-01-28 15:55:43.69	102.44	12.68	-55.1	-59.1	3.6	0.00e+00	0	48	104	0	60	107280
2026-01-28 15:55:44.70	102.27	12.78	-54.8	-58.9	3.6	0.00e+00	0	48	104	0	60	104594
2026-01-28 15:55:45.71	102.10	12.89	-54.4	-58.9	3.6	0.00e+00	0	48	104	0	60	103952
2026-01-28 15:55:46.71	101.93	12.99	-54.4	-58.8	3.6	0.00e+00	0	48	104	0	60	102766
2026-01-28 15:55:47.72	101.75	13.09	-54.4	-58.8	3.6	0.00e+00	0	48	104	0	60	103171
2026-01-28 15:55:48.73	101.58	13.19	-55.2	-59.3	3.6	0.00e+00	0	48	104	0	60	108560
2026-01-28 15:55:49.74	101.40	13.29	-55.5	-59.2	3.6	0.00e+00	0	48	104	0	60	108395
2026-01-28 15:55:50.74	101.23	13.39	-55.2	-59.1	3.6	0.00e+00	0	48	104	0	60	106914
2026-01-28 15:55:51.75	101.05	13.50	-55.6	-59.3	3.6	0.00e+00	0	48	104	0	60	109558
2026-01-28 15:55:52.76	100.87	13.60	-55.3	-59.2	3.6	0.00e+00	0	48	104	0	60	107766
2026-01-28 15:55:53.77	100.68	13.70	-55.2	-58.9	3.6	0.00e+00	0	48	104	0	60	104489
2026-01-28 15:55:54.78	100.50	13.81	-55.5	-59.2	3.6	0.00e+00	0	47	104	0	60	107877
2026-01-28 15:55:55.78	100.32	13.91	-55.4	-59.2	3.6	0.00e+00	0	48	104	0	60	107426
2026-01-28 15:55:56.79	100.13	14.02	-55.0	-58.8	3.6	0.00e+00	0	48	104	0	60	102947
2026-01-28 15:55:57.79	99.94	14.12	-54.8	-58.7	3.6	0.00e+00	0	48	104	0	60	101410
2026-01-28 15:55:58.79	99.75	14.23	-54.9	-58.6	3.6	0.00e+00	0	48	104	0	60	100218
2026-01-28 15:55:59.80	99.56	14.33	-55.1	-58.6	3.6	0.00e+00	0	48	104	0	60	100304
2026-01-28 15:56:00.81	99.37	14.44	-55.1	-58.3	3.6	0.00e+00	0	48	104	0	60	97622
2026-01-28 15:56:01.82	99.17	14.54	-55.0	-58.2	3.6	0.00e+00	0	48	104	0	60	95714
2026-01-28 15:56:02.82	98.98	14.65	-55.1	-58.5	3.6	0.00e+00	0	48	104	0	60	99121
2026-01-28 15:56:03.83	98.78	14.76	-54.8	-58.2	3.6	0.00e+00	0	48	104	0	60	96516
2026-01-28 15:56:04.84	98.58	14.86	-55.1	-58.4	3.6	0.00e+00	0	48	104	0	60	98108
2026-01-28 15:56:05.85	98.37	14.97	-55.1	-58.4	3.6	0.00e+00	0	48	104	0	60	98528
2026-01-28 15:56:06.86	98.17	15.08	-55.2	-58.3	3.6	0.00e+00	0	48	104	0	60	97529
2026-01-28 15:56:07.86	97.97	15.19	-54.4	-58.1	3.6	0.00e+00	0	48	104	0	60	95568
2026-01-28 15:56:08.87	97.76	15.30	-55.2	-58.7	3.6	0.00e+00	0	48	104	0	60	102031
2026-01-28 15:56:09.87	97.55	15.40	-54.8	-58.4	3.6	0.00e+00	0	48	104	0	60	98284
2026-01-28 15:56:10.88	97.34	15.51	-55.2	-58.7	3.6	0.00e+00	0	47	104	0	60	102338
2026-01-28 15:56:11.89	97.13	15.62	-55.5	-59.0	3.6	0.00e+00	0	48	104	0	60	105088
2026-01-28 15:56:12.89	96.91	15.73	-55.1	-58.6	3.6	0.00e+00	0	48	104	0	60	100737
2026-01-28 15:56:13.89	96.70	15.84	-55.2	-58.7	3.6	0.00e+00	0	48	104	0	60	101719
2026-01-28 15:56:14.90	96.48	15.95	-55.8	-59.3	3.6	0.00e+00	0	48	104	0	60	108889
2026-01-28 15:56:15.91	96.26	16.06	-55.0	-58.5	3.6	0.00e+00	0	48	104	0	60	99839
2026-01-28 15:56:16.91	96.04	16.17	-54.1	-57.5	3.5	0.00e+00	0	48	104	0	60	89043
2026-01-28 15:56:17.92	95.81	16.28	-54.0	-57.3	3.6	0.00e+00	0	48	104	0	60	86401
2026-01-28 15:56:18.92	95.59	16.39	-54.1	-57.2	3.6	0.00e+00	0	48	104	0	60	85845
2026-01-28 15:56:19.93	95.36	16.50	-54.2	-57.2	3.6	0.00e+00	0	48	104	0	60	86204
2026-01-28 15:56:20.93	95.13	16.61	-54.5	-57.8	3.6	0.00e+00	0	48	104	0	60	91545
2026-01-28 15:56:21.94	94.90	16.73	-55.1	-58.7	3.6	0.00e+00	0	48	104	0	60	101366
2026-01-28 15:56:22.95	94.67	16.84	-54.6	-57.5	3.6	0.00e+00	0	48	104	0	60	89038
2026-01-28 15:56:23.96	94.43	16.95	-54.8	-58.2	3.6	0.00e+00	0	48	104	0	60	96609
2026-01-28 15:56:24.97	94.19	17.06	-54.3	-57.3	3.6	0.00e+00	0	48	104	0	60	86226
2026-01-28 15:56:25.97	93.95	17.18	-54.3	-57.3	3.6	0.00e+00	0	48	104	0	60	86724
2026-01-28 15:56:26.98	93.71	17.29	-54.7	-57.6	3.6	0.00e+00	0	48	104	0	60	89756
2026-01-28 15:56:27.99	93.46	17.40	-54.8	-57.8	3.6	0.00e+00	0	48	104	0	60	91474
2026-01-28 15:56:29.00	93.22	17.52	-54.4	-58.2	3.6	0.00e+00	0	48	104	0	60	96086
2026-01-28 15:56:30.01	92.97	17.63	-54.3	-58.0	3.6	0.00e+00	0	48	104	0	60	94244
2026-01-28 15:56:31.01	92.72	17.74	-54.8	-58.5	3.6	0.00e+00	0	48	104	0	60	99260
2026-01-28 15:56:32.01	92.47	17.85	-54.5	-58.0	3.6	0.00e+00	0	48	104	0	60	93784
2026-01-28 15:56:33.02	92.21	17.97	-53.3	-56.8	3.6	0.00e+00	0	48	104	0	60	81506
2026-01-28 15:56:34.03	91.95	18.08	-53.1	-56.6	3.6	0.00e+00	0	48	104	0	60	79735
2026-01-28 15:56:35.03	91.69	18.20	-52.3	-56.1	3.6	0.00e+00	0	48	104	0	60	75498
2026-01-28 15:56:36.03	91.43	18.31	-52.1	-56.1	3.6	0.00e+00	0	48	104	0	60	75161
2026-01-28 15:56:37.04	91.17	18.43	-53.5	-57.2	3.6	0.00e+00	0	48	104	0	60	85287
2026-01-28 15:56:38.05	90.90	18.54	-52.7	-56.1	3.6	0.00e+00	0	48	104	0	60	75860
2026-01-28 15:56:39.06	90.63	18.65	-51.9	-55.9	3.6	0.00e+00	0	48	104	0	60	73965
2026-01-28 15:56:40.06	90.36	18.77	-52.7	-56.1	3.6	0.00e+00	0	48	104	0	60	75327
2026-01-28 15:56:41.07	90.08	18.88	-52.6	-56.4	3.6	0.00e+00	0	48	104	0	60	78029
2026-01-28 15:56:42.08	89.81	19.00	-52.2	-55.9	3.6	0.00e+00	0	48	104	0	60	73683
2026-01-28 15:56:43.08	89.53	19.11	-52.8	-56.1	3.6	0.00e+00	0	48	104	0	60	75795
2026-01-28 15:56:44.09	89.25	19.23	-53.4	-56.6	3.6	0.00e+00	0	48	104	0	60	80212
2026-01-28 15:56:45.10	88.96	19.34	-55.1	-58.3	3.6	0.00e+00	0	48	104	0	60	97220
2026-01-28 15:56:46.10	88.68	19.46	-54.3	-57.9	3.6	0.00e+00	0	48	104	0	60	93335
2026-01-28 15:56:47.11	88.39	19.57	-54.2	-57.3	3.6	0.00e+00	0	48	104	0	60	86740
2026-01-28 15:56:48.11	88.10	19.69	-55.9	-59.2	3.6	0.00e+00	0	48	104	0	60	108456
2026-01-28 15:56:49.12	87.81	19.80	-55.2	-58.3	3.6	0.00e+00	0	48	104	0	60	97745
2026-01-28 15:56:50.12	87.51	19.92	-55.3	-58.4	3.6	0.00e+00	0	48	104	0	60	98578
2026-01-28 15:56:51.13	87.21	20.03	-55.5	-58.6	3.6	0.00e+00	0	48	104	0	60	101285
2026-01-28 15:56:52.14	86.91	20.15	-55.4	-58.6	3.6	0.00e+00	0	48	104	0	60	100332
2026-01-28 15:56:53.15	86.60	20.26	-54.9	-58.4	3.6	0.00e+00	0	48	104	0	60	98592
2026-01-28 15:56:54.16	86.30	20.38	-54.4	-57.2	3.6	0.00e+00	0	48	104	0	60	85364
2026-01-28 15:56:55.16	85.99	20.49	-54.2	-57.4	3.6	0.00e+00	0	48	104	0	60	87411
2026-01-28 15:56:56.17	85.68	20.61	-54.9	-57.8	3.6	0.00e+00	0	48	104	0	60	91792
2026-01-28 15:56:57.18	85.36	20.72	-53.9	-57.3	3.6	0.00e+00	0	48	104	0	60	86639
2026-01-28 15:56:58.19	85.04	20.83	-54.1	-57.3	3.6	0.00e+00	0	48	104	0	60	86917
2026-01-28 15:56:59.20	84.72	20.95	-54.6	-57.9	3.6	0.00e+00	0	48	104	0	60	92637
2026-01-28 15:57:00.21	84.40	21.06	-54.9	-58.2	3.6	0.00e+00	0	48	104	0	60	96705
2026-01-28 15:57:01.21	84.07	21.18	-55.4	-59.3	3.6	0.00e+00	0	48	104	0	60	109257
2026-01-28 15:57:02.22	83.75	21.29	-55.0	-58.1	3.6	0.00e+00	0	48	104	0	60	95543
2026-01-28 15:57:03.22	83.42	21.40	-55.6	-59.4	3.6	0.00e+00	0	48	104	0	60	110273
2026-01-28 15:57:04.22	83.09	21.51	-55.0	-58.1	3.6	0.00e+00	0	48	104	0	60	95007
2026-01-28 15:57:05.23	82.75	21.62	-54.5	-57.5	3.6	0.00e+00	0	48	104	0	60	89112
2026-01-28 15:57:06.24	82.41	21.74	-55.0	-58.0	3.6	0.00e+00	0	48	104	0	60	94132
2026-01-28 15:57:07.25	82.07	21.85	-55.1	-58.3	3.6	0.00e+00	0	48	104	0	60	97749
2026-01-28 15:57:08.26	81.72	21.96	-55.3	-58.4	3.6	0.00e+00	0	48	104	0	60	98842
2026-01-28 15:57:09.25	81.38	22.07	-55.4	-58.9	3.6	0.00e+00	0	48	104	0	60	104316
2026-01-28 15:57:10.26	81.03	22.18	-55.0	-59.3	3.6	0.00e+00	0	48	104	0	60	109286
2026-01-28 15:57:11.27	80.67	22.29	-55.3	-58.8	3.6	0.00e+00	0	48	104	0	60	102481
2026-01-28 15:57:12.27	80.32	22.40	-55.9	-59.5	3.6	0.00e+00	0	48	104	0	60	111292
2026-01-28 15:57:13.28	79.96	22.51	-55.7	-59.1	3.6	0.00e+00	0	48	104	0	60	106953
2026-01-28 15:57:14.29	79.60	22.62	-55.4	-58.9	3.6	0.00e+00	0	48	104	0	60	103730
2026-01-28 15:57:15.29	79.23	22.72	-56.0	-59.7	3.6	0.00e+00	0	48	104	0	60	113717
2026-01-28 15:57:16.30	78.87	22.83	-55.5	-59.3	3.6	0.00e+00	0	48	104	0	60	109763
2026-01-28 15:57:17.30	78.50	22.94	-55.2	-59.0	3.6	0.00e+00	0	48	104	0	60	105405
2026-01-28 15:57:18.31	78.12	23.04	-56.3	-60.0	3.6	0.00e+00	0	48	104	0	60	117808
2026-01-28 15:57:19.31	77.75	23.15	-56.3	-60.2	3.6	0.00e+00	0	48	104	0	60	120578
2026-01-28 15:57:20.32	77.37	23.25	-56.2	-60.1	3.6	0.00e+00	0	48	104	0	60	119972
2026-01-28 15:57:21.33	76.99	23.36	-55.4	-59.6	3.6	0.00e+00	0	48	104	0	60	113204
2026-01-28 15:57:22.34	76.60	23.46	-56.1	-59.7	3.6	0.00e+00	0	48	104	0	60	114295
2026-01-28 15:57:23.34	76.22	23.56	-55.0	-59.2	3.6	0.00e+00	0	48	104	0	60	107805
2026-01-28 15:57:24.35	75.83	23.66	-55.5	-59.2	3.6	0.00e+00	0	48	104	0	60	107984
2026-01-28 15:57:25.36	75.43	23.77	-55.1	-58.8	3.6	0.00e+00	0	48	104	0	60	103619
2026-01-28 15:57:26.37	75.03	23.87	-54.9	-58.8	3.6	0.00e+00	0	48	104	0	60	102776
2026-01-28 15:57:27.38	74.63	23.96	-55.1	-58.9	3.6	0.00e+00	0	48	104	0	60	104347
2026-01-28 15:57:28.38	74.24	24.06	-55.5	-59.3	3.6	0.00e+00	0	48	104	0	60	108819
2026-01-28 15:57:29.39	73.83	24.16	-55.7	-59.7	3.6	0.00e+00	0	48	104	0	60	114877
2026-01-28 15:57:30.40	73.42	24.26	-55.8	-59.3	3.6	0.00e+00	0	48	104	0	60	108836
2026-01-28 15:57:31.41	73.01	24.35	-55.9	-59.7	3.6	0.00e+00	0	48	104	0	60	114094
2026-01-28 15:57:32.42	72.60	24.45	-56.0	-59.3	3.6	0.00e+00	0	48	104	0	60	109598
2026-01-28 15:57:33.42	72.18	24.54	-56.4	-59.6	3.6	0.00e+00	0	48	104	0	60	113098
2026-01-28 15:57:34.43	71.77	24.63	-56.3	-59.7	3.6	0.00e+00	0	48	104	0	60	114939
2026-01-28 15:57:35.43	71.35	24.72	-56.4	-59.7	3.6	0.00e+00	0	48	104	0	60	114082
2026-01-28 15:57:36.44	70.92	24.81	-55.7	-59.1	3.6	0.00e+00	0	48	104	0	60	106737
2026-01-28 15:57:37.44	70.50	24.90	-56.1	-59.8	3.6	0.00e+00	0	48	104	0	60	115180
2026-01-28 15:57:38.45	70.07	24.99	-56.1	-59.6	3.6	0.00e+00	0	48	104	0	60	113016
2026-01-28 15:57:39.45	69.64	25.07	-56.2	-59.5	3.5	0.00e+00	0	48	104	0	60	112316
2026-01-28 15:57:40.46	69.21	25.16	-56.3	-59.7	3.6	0.00e+00	0	48	104	0	60	114704
2026-01-28 15:57:41.46	68.77	25.24	-56.2	-60.0	3.6	0.00e+00	0	48	104	0	60	117784
2026-01-28 15:57:42.47	68.33	25.32	-56.4	-59.7	3.6	0.00e+00	0	48	104	0	60	114933
2026-01-28 15:57:43.47	67.89	25.40	-56.6	-59.9	3.6	0.00e+00	0	48	104	0	60	116369
2026-01-28 15:57:44.48	67.45	25.48	-56.0	-59.5	3.5	0.00e+00	0	48	104	0	60	111874
2026-01-28 15:57:45.48	67.00	25.56	-55.8	-59.2	3.6	0.00e+00	0	48	104	0	60	107819
2026-01-28 15:57:46.49	66.55	25.63	-56.3	-59.7	3.6	0.00e+00	0	48	104	0	60	114641
2026-01-28 15:57:47.50	66.10	25.71	-56.3	-59.7	3.6	0.00e+00	0	48	104	0	60	114961
2026-01-28 15:57:48.50	65.65	25.78	-56.1	-59.4	3.6	0.00e+00	0	48	104	0	60	109816
2026-01-28 15:57:49.51	65.19	25.85	-55.9	-59.3	3.5	0.00e+00	0	48	104	0	60	108680
2026-01-28 15:57:50.51	64.74	25.92	-55.6	-59.0	3.6	0.00e+00	0	48	104	0	60	104850
2026-01-28 15:57:51.52	64.28	25.99	-55.8	-59.0	3.6	0.00e+00	0	48	104	0	60	105532
2026-01-28 15:57:52.52	63.82	26.06	-55.8	-59.2	3.6	0.00e+00	0	48	104	0	60	107622
2026-01-28 15:57:53.53	63.35	26.12	-55.6	-59.2	3.5	0.00e+00	0	48	104	0	60	107759
2026-01-28 15:57:54.54	62.88	26.19	-55.8	-59.5	3.6	0.00e+00	0	48	104	0	60	112276
2026-01-28 15:57:55.54	62.42	26.25	-56.0	-59.5	3.6	0.00e+00	0	48	104	0	60	111128
2026-01-28 15:57:56.55	61.95	26.31	-56.0	-59.6	3.6	0.00e+00	0	48	104	0	60	112480
2026-01-28 15:57:57.55	61.48	26.37	-55.5	-59.2	3.6	0.00e+00	0	48	104	0	60	107548
2026-01-28 15:57:58.56	61.00	26.42	-55.9	-59.6	3.6	0.00e+00	0	48	104	0	60	113053
2026-01-28 15:57:59.56	60.53	26.48	-55.7	-59.5	3.5	0.00e+00	0	48	104	0	60	111174
2026-01-28 15:58:00.57	60.05	26.53	-53.7	-58.8	3.6	0.00e+00	0	48	104	0	60	102482
2026-01-28 15:58:01.57	59.57	26.58	-53.8	-58.7	3.6	0.00e+00	0	48	104	0	60	101475
2026-01-28 15:58:02.58	59.09	26.63	-54.1	-58.8	3.6	0.00e+00	0	48	104	0	60	102753
2026-01-28 15:58:03.59	58.60	26.68	-54.1	-58.8	3.6	0.00e+00	0	48	104	0	60	102689
2026-01-28 15:58:04.60	58.12	26.72	-54.7	-59.0	3.6	0.00e+00	0	48	104	0	60	104859
2026-01-28 15:58:05.61	57.63	26.76	-54.2	-59.0	3.6	0.00e+00	0	48	104	0	60	105144
2026-01-28 15:58:06.61	57.15	26.80	-55.2	-59.3	3.6	0.00e+00	0	48	104	0	60	109090
2026-01-28 15:58:07.62	56.66	26.84	-56.2	-59.6	3.6	0.00e+00	0	48	104	0	60	112691
2026-01-28 15:58:08.63	56.16	26.88	-56.5	-59.7	3.6	0.00e+00	0	48	104	0	60	114784
2026-01-28 15:58:09.63	55.68	26.91	-55.8	-59.5	3.6	0.00e+00	0	48	104	0	60	111190
2026-01-28 15:58:10.63	55.19	26.95	-55.9	-59.3	3.6	0.00e+00	0	48	104	0	60	109043
2026-01-28 15:58:11.64	54.69	26.98	-55.8	-59.3	3.6	0.00e+00	0	48	104	0	60	109660
2026-01-28 15:58:12.64	54.20	27.00	-55.1	-59.3	3.6	0.00e+00	0	48	104	0	60	108623
2026-01-28 15:58:13.65	53.70	27.03	-53.8	-58.6	3.6	0.00e+00	0	48	104	0	60	100845
2026-01-28 15:58:14.64	53.22	27.05	-55.1	-59.4	3.6	0.00e+00	0	48	104	0	60	109942
2026-01-28 15:58:15.65	52.72	27.08	-53.3	-58.8	3.6	0.00e+00	0	48	104	0	60	102571
2026-01-28 15:58:16.64	52.23	27.10	-53.3	-58.6	3.6	0.00e+00	0	48	104	0	60	100657
2026-01-28 15:58:17.65	51.73	27.11	-52.9	-58.3	3.6	0.00e+00	0	48	104	0	60	97273
2026-01-28 15:58:18.65	51.23	27.13	-53.1	-58.4	3.6	0.00e+00	0	48	104	0	60	97885
2026-01-28 15:58:19.66	50.73	27.14	-52.5	-58.2	3.6	0.00e+00	0	48	104	0	60	95702
2026-01-28 15:58:20.67	50.23	27.15	-54.3	-59.1	3.6	0.00e+00	0	48	104	0	60	106281
2026-01-28 15:58:21.68	49.73	27.16	-56.2	-59.8	3.6	0.00e+00	0	48	104	0	60	115488
2026-01-28 15:58:22.68	49.23	27.17	-56.1	-59.7	3.6	0.00e+00	0	48	104	0	60	114315
2026-01-28 15:58:23.69	48.73	27.17	-56.2	-59.6	3.6	0.00e+00	0	48	104	0	60	112732
2026-01-28 15:58:24.70	48.23	27.17	-55.2	-59.1	3.6	0.00e+00	0	48	104	0	60	106671
2026-01-28 15:58:25.70	47.73	27.17	-55.2	-58.8	3.6	0.00e+00	0	48	104	0	60	102670
2026-01-28 15:58:26.71	47.23	27.17	-54.9	-59.0	3.6	0.00e+00	0	48	104	0	60	105033
2026-01-28 15:58:27.71	46.73	27.17	-54.6	-58.9	3.6	0.00e+00	0	48	104	0	60	103921
2026-01-28 15:58:28.71	46.24	27.16	-55.1	-59.0	3.6	0.00e+00	0	48	104	0	60	105282
2026-01-28 15:58:29.72	45.74	27.15	-54.6	-58.9	3.6	0.00e+00	0	48	104	0	60	104816
2026-01-28 15:58:30.72	45.24	27.14	-55.8	-58.9	3.6	0.00e+00	0	48	104	0	60	104403
2026-01-28 15:58:31.73	44.74	27.13	-55.1	-58.5	3.6	0.00e+00	0	48	104	0	60	99110
2026-01-28 15:58:32.74	44.24	27.11	-55.7	-58.6	3.6	0.00e+00	0	48	104	0	60	101248
2026-01-28 15:58:33.74	43.74	27.09	-55.7	-59.1	3.6	0.00e+00	0	48	104	0	60	106744
2026-01-28 15:58:34.75	43.25	27.07	-55.3	-58.6	3.6	0.00e+00	0	48	104	0	60	100598
2026-01-28 15:58:35.75	42.75	27.05	-53.7	-58.1	3.6	0.00e+00	0	48	104	0	60	95023
2026-01-28 15:58:36.76	42.26	27.03	-54.2	-58.2	3.6	0.00e+00	0	48	104	0	60	96475
2026-01-28 15:58:37.77	41.76	27.00	-54.0	-58.2	3.6	0.00e+00	0	48	104	0	60	96703
2026-01-28 15:58:38.78	41.26	26.97	-53.5	-58.2	3.6	0.00e+00	0	48	104	0	60	95810
2026-01-28 15:58:39.79	40.77	26.94	-54.0	-58.4	3.6	0.00e+00	0	48	104	0	60	98056
2026-01-28 15:58:40.79	40.28	26.91	-54.3	-58.2	3.6	0.00e+00	0	48	104	0	60	95874
2026-01-28 15:58:41.80	39.79	26.87	-55.3	-58.2	3.6	0.00e+00	0	48	104	0	60	95647
2026-01-28 15:58:42.80	39.30	26.84	-54.3	-58.1	3.6	0.00e+00	0	48	104	0	60	95463
2026-01-28 15:58:43.80	38.82	26.80	-54.6	-58.3	3.5	0.00e+00	0	48	104	0	60	97675
2026-01-28 15:58:44.81	38.33	26.76	-54.4	-58.0	3.6	0.00e+00	0	48	104	0	60	93928
2026-01-28 15:58:45.81	37.85	26.71	-54.2	-57.9	3.6	0.00e+00	0	48	104	0	60	92689
2026-01-28 15:58:46.82	37.36	26.67	-54.5	-58.2	3.6	0.00e+00	0	48	104	0	60	96699
2026-01-28 15:58:47.82	36.89	26.62	-54.8	-58.5	3.6	0.00e+00	0	48	104	0	60	99976
2026-01-28 15:58:48.83	36.40	26.57	-55.0	-58.7	3.6	0.00e+00	0	48	104	0	60	102320
2026-01-28 15:58:49.83	35.93	26.52	-55.3	-58.2	3.6	0.00e+00	0	48	104	0	60	95656
2026-01-28 15:58:50.84	35.45	26.47	-55.0	-58.2	3.6	0.00e+00	0	48	104	0	60	95791
2026-01-28 15:58:51.85	34.97	26.41	-54.7	-58.3	3.6	0.00e+00	0	48	104	0	60	97808
2026-01-28 15:58:52.85	34.50	26.36	-53.7	-57.4	3.6	0.00e+00	0	48	104	0	60	87363
2026-01-28 15:58:53.86	34.03	26.30	-53.8	-57.4	3.5	0.00e+00	0	48	104	0	60	87527
2026-01-28 15:58:54.87	33.56	26.24	-53.4	-57.5	3.6	0.00e+00	0	48	104	0	60	88344
2026-01-28 15:58:55.88	33.09	26.18	-53.1	-57.6	3.6	0.00e+00	0	48	104	0	60	89481
2026-01-28 15:58:56.89	32.62	26.11	-54.1	-58.0	3.6	0.00e+00	0	48	104	0	60	93815
2026-01-28 15:58:57.89	32.16	26.05	-53.3	-57.9	3.6	0.00e+00	0	48	104	0	60	92880
2026-01-28 15:58:58.90	31.70	25.98	-53.7	-58.0	3.6	0.00e+00	0	48	104	0	60	93903
2026-01-28 15:58:59.91	31.24	25.91	-53.1	-57.7	3.6	0.00e+00	0	48	104	0	60	90630
2026-01-28 15:59:00.92	30.78	25.84	-53.2	-57.9	3.6	0.00e+00	0	48	104	0	60	92776
2026-01-28 15:59:01.92	30.33	25.77	-53.5	-57.9	3.6	0.00e+00	0	48	104	0	60	93071
2026-01-28 15:59:02.93	29.88	25.70	-54.4	-58.2	3.6	0.00e+00	0	48	104	0	60	96341
2026-01-28 15:59:03.93	29.43	25.62	-54.9	-58.4	3.6	0.00e+00	0	48	104	0	60	98360
2026-01-28 15:59:04.94	28.98	25.55	-54.4	-58.6	3.6	0.00e+00	0	48	104	0	60	101050
2026-01-28 15:59:05.95	28.53	25.47	-54.2	-58.9	3.6	0.00e+00	0	48	104	0	60	104720
2026-01-28 15:59:06.95	28.09	25.39	-54.2	-58.5	3.6	0.00e+00	0	48	104	0	60	99239
2026-01-28 15:59:07.96	27.65	25.31	-53.1	-58.1	3.6	0.00e+00	0	48	104	0	60	95578
2026-01-28 15:59:08.96	27.22	25.23	-53.1	-58.2	3.6	0.00e+00	0	48	104	0	60	95919
2026-01-28 15:59:09.97	26.78	25.14	-54.2	-58.9	3.6	0.00e+00	0	48	104	0	60	104081
2026-01-28 15:59:10.98	26.35	25.06	-54.2	-58.7	3.6	0.00e+00	0	48	104	0	60	102190
2026-01-28 15:59:11.99	25.92	24.97	-54.7	-58.7	3.6	0.00e+00	0	48	104	0	60	101858
2026-01-28 15:59:13.00	25.49	24.88	-54.2	-59.0	3.6	0.00e+00	0	48	104	0	60	105157
2026-01-28 15:59:14.01	25.06	24.80	-54.1	-58.9	3.6	0.00e+00	0	48	104	0	60	104167
2026-01-28 15:59:15.02	24.64	24.71	-54.6	-58.8	3.6	0.00e+00	0	48	104	0	60	102880
2026-01-28 15:59:16.02	24.22	24.61	-54.6	-59.2	3.6	0.00e+00	0	48	104	0	60	107878
2026-01-28 15:59:17.03	23.81	24.52	-55.4	-59.8	3.6	0.00e+00	0	48	104	0	60	115139
2026-01-28 15:59:18.03	23.39	24.43	-55.3	-59.7	3.6	0.00e+00	0	48	104	0	60	114246
2026-01-28 15:59:19.04	22.98	24.34	-54.8	-59.4	3.6	0.00e+00	0	48	104	0	60	109923
2026-01-28 15:59:20.05	22.57	24.24	-54.4	-59.3	3.6	0.00e+00	0	48	104	0	60	109146
2026-01-28 15:59:21.05	22.17	24.15	-53.5	-58.5	3.6	0.00e+00	0	48	104	0	60	99538
2026-01-28 15:59:22.06	21.77	24.05	-54.3	-58.8	3.6	0.00e+00	0	48	104	0	60	102556
2026-01-28 15:59:23.06	21.37	23.95	-54.9	-59.3	3.6	0.00e+00	0	48	104	0	60	109226
2026-01-28 15:59:24.07	20.97	23.85	-53.4	-58.4	3.6	0.00e+00	0	48	104	0	60	98321
2026-01-28 15:59:25.08	20.58	23.75	-54.7	-58.7	3.6	0.00e+00	0	48	104	0	60	101632
2026-01-28 15:59:26.09	20.18	23.65	-54.3	-58.6	3.6	0.00e+00	0	48	104	0	60	100374
2026-01-28 15:59:27.10	19.80	23.55	-53.1	-58.1	3.6	0.00e+00	0	48	104	0	60	95021
2026-01-28 15:59:28.10	19.41	23.45	-52.2	-57.3	3.6	0.00e+00	0	48	104	0	60	86516
2026-01-28 15:59:29.11	19.03	23.34	-52.4	-56.6	3.6	0.00e+00	0	48	104	0	60	80260
2026-01-28 15:59:30.12	18.65	23.24	-51.1	-56.9	3.6	0.00e+00	0	48	104	0	60	82972
2026-01-28 15:59:31.13	18.27	23.14	-51.7	-56.2	3.6	0.00e+00	0	48	104	0	60	76032
2026-01-28 15:59:32.13	17.90	23.03	-52.4	-56.7	3.6	0.00e+00	0	48	104	0	60	80771
2026-01-28 15:59:33.14	17.53	22.92	-50.6	-55.3	3.6	0.00e+00	0	48	104	0	60	69183
2026-01-28 15:59:34.14	17.16	22.82	-50.2	-55.2	3.6	0.00e+00	0	48	104	0	60	68450
2026-01-28 15:59:35.15	16.79	22.71	-51.0	-55.6	3.6	0.00e+00	0	48	104	0	60	71365
2026-01-28 15:59:36.15	16.43	22.61	-51.8	-56.0	3.6	0.00e+00	0	48	104	0	60	74758
2026-01-28 15:59:37.16	16.07	22.50	-52.9	-56.4	3.6	0.00e+00	0	48	104	0	60	77962
2026-01-28 15:59:38.17	15.71	22.39	-52.5	-56.8	3.6	0.00e+00	0	48	104	0	60	81591
2026-01-28 15:59:39.17	15.36	22.28	-52.1	-56.3	3.6	0.00e+00	0	48	104	0	60	76903
2026-01-28 15:59:40.18	15.01	22.17	-53.2	-57.2	3.6	0.00e+00	0	48	104	0	60	85521
2026-01-28 15:59:41.18	14.66	22.06	-52.4	-56.6	3.6	0.00e+00	0	48	104	0	60	80327
2026-01-28 15:59:42.19	14.32	21.95	-52.4	-56.7	3.6	0.00e+00	0	48	104	0	60	80722
2026-01-28 15:59:43.20	13.97	21.84	-52.9	-57.1	3.6	0.00e+00	0	48	104	0	60	84358
2026-01-28 15:59:44.20	13.63	21.73	-53.1	-57.2	3.6	0.00e+00	0	48	104	0	60	85303
2026-01-28 15:59:45.21	13.30	21.62	-52.9	-57.0	3.6	0.00e+00	0	48	104	0	60	83605
2026-01-28 15:59:46.22	12.96	21.50	-52.3	-56.5	3.5	0.00e+00	0	48	104	0	60	79362
2026-01-28 15:59:47.22	12.63	21.39	-53.1	-57.0	3.6	0.00e+00	0	48	104	0	60	83727
2026-01-28 15:59:48.23	12.30	21.28	-51.0	-54.9	3.6	0.00e+00	0	48	104	0	60	66074
2026-01-28 15:59:49.23	11.98	21.17	-52.7	-56.5	3.6	0.00e+00	0	48	104	0	60	79377
2026-01-28 15:59:50.24	11.65	21.06	-51.9	-55.4	3.6	0.00e+00	0	48	104	0	60	70041
2026-01-28 15:59:51.24	11.33	20.94	-52.1	-55.4	3.6	0.00e+00	0	48	104	0	60	69788
2026-01-28 15:59:52.25	11.01	20.83	-52.4	-55.8	3.6	0.00e+00	0	48	104	0	60	72747
2026-01-28 15:59:53.26	10.70	20.72	-52.8	-57.5	3.6	0.00e+00	0	48	104	0	60	89188
2026-01-28 15:59:54.26	10.39	20.60	-53.1	-57.5	3.6	0.00e+00	0	48	104	0	60	89065
2026-01-28 15:59:55.27	10.08	20.49	-53.6	-56.9	3.6	0.00e+00	0	48	104	0	60	82542
2026-01-28 15:59:56.27	9.77	20.38	-52.2	-56.0	3.6	0.00e+00	0	48	104	0	60	74482
2026-01-28 15:59:57.28	9.46	20.26	-54.5	-58.0	3.6	0.00e+00	0	48	104	0	60	93956
2026-01-28 15:59:58.28	9.16	20.15	-52.7	-56.7	3.6	0.00e+00	0	48	104	0	60	80586
2026-01-28 15:59:59.29	8.86	20.03	-52.9	-56.7	3.6	0.00e+00	0	48	104	0	60	81113
2026-01-28 16:00:00.29	8.57	19.92	-53.8	-57.1	3.6	0.00e+00	0	48	104	0	60	84386
2026-01-28 16:00:01.30	8.27	19.80	-54.3	-58.6	3.6	0.00e+00	0	48	104	0	60	101147
2026-01-28 16:00:02.31	7.98	19.69	-55.7	-59.3	3.6	0.00e+00	0	48	104	0	60	109592
2026-01-28 16:00:03.31	7.69	19.58	-52.8	-57.8	3.6	0.00e+00	0	48	104	0	60	92065
2026-01-28 16:00:04.32	7.40	19.46	-54.9	-58.5	3.6	0.00e+00	0	48	104	0	60	99897
2026-01-28 16:00:05.33	7.12	19.35	-54.3	-58.9	3.6	0.00e+00	0	48	104	0	60	104646
2026-01-28 16:00:06.33	6.84	19.23	-54.7	-59.0	3.6	0.00e+00	0	48	104	0	60	105558
2026-01-28 16:00:07.34	6.56	19.12	-55.6	-59.3	3.6	0.00e+00	0	48	104	0	60	108592
2026-01-28 16:00:08.34	6.28	19.00	-55.8	-59.4	3.6	0.00e+00	0	48	104	0	60	110055
2026-01-28 16:00:09.35	6.01	18.89	-54.3	-57.9	3.6	0.00e+00	0	48	104	0	60	92866
2026-01-28 16:00:10.35	5.74	18.78	-55.3	-59.2	3.6	0.00e+00	0	48	104	0	60	107569
2026-01-28 16:00:11.36	5.46	18.66	-54.5	-57.5	3.5	0.00e+00	0	48	104	0	60	89175
2026-01-28 16:00:12.36	5.20	18.55	-54.7	-57.7	3.6	0.00e+00	0	48	104	0	60	90597
2026-01-28 16:00:13.37	4.93	18.43	-54.3	-57.7	3.6	0.00e+00	0	48	104	0	60	90525
2026-01-28 16:00:14.38	4.67	18.32	-54.7	-57.7	3.6	0.00e+00	0	48	104	0	60	90335
2026-01-28 16:00:15.38	4.41	18.21	-55.0	-58.0	3.6	0.00e+00	0	48	104	0	60	93998
2026-01-28 16:00:16.39	4.15	18.09	-55.1	-58.2	3.6	0.00e+00	0	48	104	0	60	95979
2026-01-28 16:00:17.40	3.89	17.98	-55.0	-58.6	3.6	0.00e+00	0	48	104	0	60	100774
2026-01-28 16:00:18.40	3.64	17.87	-54.6	-58.5	3.6	0.00e+00	0	48	104	0	60	99123
2026-01-28 16:00:19.41	3.39	17.75	-54.6	-58.3	3.6	0.00e+00	0	48	104	0	60	97130
2026-01-28 16:00:20.42	3.14	17.64	-55.7	-59.4	3.6	0.00e+00	0	48	104	0	60	110251
2026-01-28 16:00:21.42	2.89	17.53	-54.6	-58.4	3.6	0.00e+00	0	48	104	0	60	97890
2026-01-28 16:00:22.42	2.65	17.42	-55.1	-58.5	3.6	0.00e+00	0	48	104	0	60	99727
2026-01-28 16:00:23.43	2.41	17.30	-55.3	-58.8	3.6	0.00e+00	0	49	104	0	60	103290
2026-01-28 16:00:24.44	2.16	17.19	-55.5	-59.0	3.6	0.00e+00	0	48	104	0	60	105440
2026-01-28 16:00:25.44	1.93	17.08	-55.7	-59.6	3.6	0.00e+00	0	48	104	0	60	113124
2026-01-28 16:00:26.44	1.69	16.97	-55.5	-59.6	3.6	0.00e+00	0	48	104	0	60	113632
2026-01-28 16:00:27.44	1.46	16.86	-55.3	-59.3	3.6	0.00e+00	0	48	104	0	60	109613
2026-01-28 16:00:28.44	1.23	16.75	-55.2	-59.3	3.6	0.00e+00	0	48	104	0	60	109256
2026-01-28 16:00:29.45	1.00	16.63	-55.8	-59.9	3.6	0.00e+00	0	48	104	0	60	116394
2026-01-28 16:00:30.46	0.77	16.52	-55.5	-59.6	3.6	0.00e+00	0	48	104	0	60	112971
2026-01-28 16:00:31.47	0.54	16.41	-55.5	-59.4	3.6	0.00e+00	0	49	104	0	60	110687
2026-01-28 16:00:32.48	0.31	16.30	-55.3	-59.1	3.6	0.00e+00	0	49	104	0	60	106600
2026-01-28 16:00:33.48	0.09	16.19	-55.5	-59.2	3.6	0.00e+00	0	48	104	0	60	107710
2026-01-28 16:00:34.49	359.87	16.08	-55.5	-59.4	3.6	0.00e+00	0	48	104	0	60	110940
2026-01-28 16:00:35.50	359.65	15.97	-55.4	-59.1	3.6	0.00e+00	0	48	104	0	60	106370
2026-01-28 16:00:36.51	359.44	15.86	-55.6	-59.2	3.5	0.00e+00	0	48	104	0	60	107974
2026-01-28 16:00:37.51	359.22	15.75	-55.3	-58.9	3.6	0.00e+00	0	48	104	0	60	103858
2026-01-28 16:00:38.52	359.01	15.64	-55.5	-59.2	3.5	0.00e+00	0	48	104	0	60	108034
2026-01-28 16:00:39.52	358.80	15.54	-55.7	-59.3	3.6	0.00e+00	0	48	104	0	60	108790
2026-01-28 16:00:40.52	358.59	15.43	-55.7	-59.4	3.6	0.00e+00	0	48	104	0	60	110157
2026-01-28 16:00:41.52	358.38	15.32	-55.0	-59.3	3.6	0.00e+00	0	48	104	0	60	109049
2026-01-28 16:00:42.52	358.18	15.21	-54.6	-59.1	3.6	0.00e+00	0	48	104	0	60	106386
2026-01-28 16:00:43.53	357.97	15.11	-55.6	-59.3	3.6	0.00e+00	0	48	104	0	60	108845
2026-01-28 16:00:44.54	357.77	15.00	-55.0	-59.3	3.6	0.00e+00	0	48	104	0	60	108684
2026-01-28 16:00:45.54	357.57	14.89	-55.7	-59.5	3.6	0.00e+00	0	48	104	0	60	111251
2026-01-28 16:00:46.55	357.37	14.79	-55.8	-59.5	3.6	0.00e+00	0	48	104	0	60	111830
2026-01-28 16:00:47.56	357.18	14.68	-55.7	-59.4	3.6	0.00e+00	0	48	104	0	60	110349
2026-01-28 16:00:48.56	356.98	14.57	-55.1	-59.1	3.6	0.00e+00	0	48	104	0	60	106070
2026-01-28 16:00:49.57	356.79	14.47	-54.1	-58.5	3.6	0.00e+00	0	48	104	0	60	99761
2026-01-28 16:00:50.58	356.59	14.36	-55.7	-59.4	3.6	0.00e+00	0	48	104	0	60	110527
2026-01-28 16:00:51.58	356.40	14.26	-55.8	-59.5	3.6	0.00e+00	0	48	104	0	60	112286
2026-01-28 16:00:52.59	356.22	14.15	-55.4	-59.2	3.6	0.00e+00	0	48	104	0	60	108494
2026-01-28 16:00:53.60	356.03	14.05	-53.9	-58.5	3.6	0.00e+00	0	48	104	0	60	99129
2026-01-28 16:00:54.60	355.84	13.95	-54.2	-58.5	3.6	0.00e+00	0	48	104	0	60	99773
2026-01-28 16:00:55.61	355.66	13.84	-54.7	-58.8	3.6	0.00e+00	0	48	104	0	60	102606
2026-01-28 16:00:56.62	355.48	13.74	-54.5	-58.8	3.6	0.00e+00	0	48	104	0	60	102858
2026-01-28 16:00:57.62	355.30	13.64	-54.9	-59.3	3.6	0.00e+00	0	48	104	0	60	108685
2026-01-28 16:00:58.62	355.12	13.53	-54.5	-58.9	3.6	0.00e+00	0	48	104	0	60	104190
2026-01-28 16:00:59.63	354.94	13.43	-54.4	-58.4	3.6	0.00e+00	0	48	104	0	60	97881
2026-01-28 16:01:00.63	354.76	13.33	-54.5	-58.5	3.6	0.00e+00	0	48	104	0	60	99088
2026-01-28 16:01:01.63	354.59	13.23	-54.7	-58.5	3.6	0.00e+00	0	48	104	0	60	100088
2026-01-28 16:01:02.64	354.42	13.13	-53.8	-58.0	3.6	0.00e+00	0	48	104	0	60	94180
2026-01-28 16:01:03.64	354.25	13.03	-53.5	-57.8	3.6	0.00e+00	0	48	104	0	60	92008
2026-01-28 16:01:04.65	354.07	12.93	-54.2	-58.2	3.6	0.00e+00	0	48	104	0	60	95723
2026-01-28 16:01:05.66	353.90	12.82	-53.8	-58.0	3.5	0.00e+00	0	49	104	0	60	94097
2026-01-28 16:01:06.66	353.74	12.72	-53.9	-58.1	3.6	0.00e+00	0	49	104	0	60	94920
2026-01-28 16:01:07.67	353.57	12.62	-54.0	-58.1	3.6	0.00e+00	0	48	104	0	60	95031
2026-01-28 16:01:08.68	353.41	12.53	-54.0	-58.1	3.6	0.00e+00	0	48	104	0	60	95485
2026-01-28 16:01:09.69	353.24	12.43	-53.8	-58.1	3.6	0.00e+00	0	49	104	0	60	94925
2026-01-28 16:01:10.69	353.08	12.33	-53.9	-58.1	3.6	0.00e+00	0	48	104	0	60	95039
2026-01-28 16:01:11.69	352.92	12.23	-54.2	-58.3	3.5	0.00e+00	0	48	104	0	60	97656
2026-01-28 16:01:12.70	352.76	12.13	-53.8	-58.1	3.6	0.00e+00	0	48	104	0	60	95228
2026-01-28 16:01:13.70	352.60	12.03	-53.9	-58.1	3.6	0.00e+00	0	48	104	0	60	94877
2026-01-28 16:01:14.71	352.45	11.94	-54.0	-58.3	3.6	0.00e+00	0	48	104	0	60	97569
2026-01-28 16:01:15.71	352.29	11.84	-54.5	-58.5	3.6	0.00e+00	0	48	104	0	60	99511
2026-01-28 16:01:16.72	352.14	11.74	-54.3	-58.4	3.6	0.00e+00	0	48	104	0	60	98530
2026-01-28 16:01:17.72	351.98	11.65	-54.0	-58.2	3.6	0.00e+00	0	49	104	0	60	96330
2026-01-28 16:01:18.73	351.83	11.55	-54.6	-58.5	3.6	0.00e+00	0	48	104	0	60	99783
2026-01-28 16:01:19.73	351.68	11.46	-54.9	-58.7	3.6	0.00e+00	0	48	104	0	60	101609
2026-01-28 16:01:20.73	351.53	11.36	-54.7	-58.5	3.6	0.00e+00	0	48	104	0	60	99959
2026-01-28 16:01:21.74	351.38	11.27	-54.4	-58.4	3.6	0.00e+00	0	49	104	0	60	98381
2026-01-28 16:01:22.75	351.24	11.17	-54.9	-58.7	3.6	0.00e+00	0	48	104	0	60	101423
2026-01-28 16:01:23.76	351.09	11.08	-53.5	-58.1	3.6	0.00e+00	0	48	104	0	60	95417
2026-01-28 16:01:24.77	350.94	10.98	-54.9	-58.6	3.6	0.00e+00	0	48	104	0	60	101069
2026-01-28 16:01:25.77	350.80	10.89	-54.8	-58.6	3.6	0.00e+00	0	48	104	0	60	101046
2026-01-28 16:01:26.78	350.66	10.79	-53.4	-58.0	3.6	0.00e+00	0	48	104	0	60	94117
2026-01-28 16:01:27.79	350.52	10.70	-53.3	-57.9	3.6	0.00e+00	0	48	104	0	60	93301
2026-01-28 16:01:28.80	350.38	10.61	-52.9	-57.8	3.6	0.00e+00	0	48	104	0	60	91841
2026-01-28 16:01:29.81	350.24	10.51	-54.8	-58.5	3.6	0.00e+00	0	48	104	0	60	99795
2026-01-28 16:01:30.81	350.10	10.42	-53.0	-58.0	3.6	0.00e+00	0	48	104	0	60	93874
2026-01-28 16:01:31.81	349.96	10.33	-54.4	-58.3	3.6	0.00e+00	0	48	104	0	60	97552
2026-01-28 16:01:32.82	349.83	10.24	-53.0	-57.9	3.6	0.00e+00	0	48	104	0	60	93385
2026-01-28 16:01:33.83	349.69	10.15	-53.2	-58.0	3.6	0.00e+00	0	48	104	0	60	94425
2026-01-28 16:01:34.84	349.56	10.06	-53.8	-58.2	3.6	0.00e+00	0	48	104	0	60	96319
2026-01-28 16:01:35.84	349.43	9.97	-54.1	-58.3	3.6	0.00e+00	0	48	104	0	60	96790
2026-01-28 16:01:36.85	349.29	9.88	-54.0	-58.2	3.6	0.00e+00	0	48	104	0	60	96433
2026-01-28 16:01:37.85	349.16	9.79	-54.4	-58.3	3.6	0.00e+00	0	48	104	0	60	97389
2026-01-28 16:01:38.86	349.03	9.70	-52.7	-57.8	3.6	0.00e+00	0	48	104	0	60	92084
2026-01-28 16:01:39.86	348.91	9.61	-54.0	-58.1	3.6	0.00e+00	0	48	104	0	60	95400
2026-01-28 16:01:40.87	348.78	9.52	-54.5	-58.4	3.6	0.00e+00	0	48	104	0	60	97957
2026-01-28 16:01:41.88	348.65	9.43	-54.4	-58.3	3.6	0.00e+00	0	48	104	0	60	97581
2026-01-28 16:01:42.88	348.53	9.34	-54.4	-58.3	3.6	0.00e+00	0	48	104	0	60	97237
2026-01-28 16:01:43.89	348.40	9.25	-54.6	-58.3	3.6	0.00e+00	0	48	104	0	60	97266
2026-01-28 16:01:44.90	348.28	9.16	-54.1	-58.1	3.6	0.00e+00	0	48	104	0	60	94980
2026-01-28 16:01:45.90	348.16	9.08	-54.6	-58.3	3.6	0.00e+00	0	48	104	0	60	96912
2026-01-28 16:01:46.90	348.03	8.99	-54.3	-58.2	3.6	0.00e+00	0	48	104	0	60	96487
2026-01-28 16:01:47.91	347.91	8.90	-53.8	-57.9	3.6	0.00e+00	0	48	104	0	60	93001
2026-01-28 16:01:48.91	347.79	8.82	-54.2	-58.2	3.6	0.00e+00	0	48	104	0	60	96240
2026-01-28 16:01:49.91	347.68	8.73	-54.5	-58.2	3.6	0.00e+00	0	48	104	0	60	95857
2026-01-28 16:01:50.91	347.56	8.65	-53.8	-58.0	3.6	0.00e+00	0	48	104	0	60	93571
2026-01-28 16:01:51.92	347.44	8.56	-54.1	-58.0	3.6	0.00e+00	0	48	104	0	60	93794
2026-01-28 16:01:52.93	347.32	8.47	-54.5	-58.2	3.6	0.00e+00	0	48	104	0	60	96478
2026-01-28 16:01:53.94	347.21	8.39	-54.5	-58.1	3.6	0.00e+00	0	48	104	0	60	94873
2026-01-28 16:01:54.95	347.09	8.30	-52.8	-57.5	3.6	0.00e+00	0	48	104	0	60	88996
2026-01-28 16:01:55.95	346.98	8.22	-47.1	-54.1	3.6	0.00e+00	0	48	104	0	60	60213
2026-01-28 16:01:56.96	346.87	8.14	-53.9	-57.9	3.6	0.00e+00	0	48	104	0	60	92977
2026-01-28 16:01:57.97	346.75	8.05	-48.6	-55.3	3.6	0.00e+00	0	48	104	0	60	68714
2026-01-28 16:01:58.97	346.64	7.97	-46.8	-53.9	3.6	0.00e+00	0	48	104	0	60	58696
2026-01-28 16:01:59.98	346.53	7.88	-46.5	-53.7	3.6	0.00e+00	0	48	104	0	60	56980
2026-01-28 16:02:00.98	346.42	7.80	-48.5	-55.4	3.6	0.00e+00	0	48	104	0	60	69460
2026-01-28 16:02:01.99	346.31	7.72	-53.9	-58.0	3.6	0.00e+00	0	48	104	0	60	93859
2026-01-28 16:02:02.99	346.21	7.64	-46.6	-53.7	3.6	0.00e+00	0	48	104	0	60	57301
2026-01-28 16:02:04.00	346.10	7.55	-47.3	-54.5	3.6	0.00e+00	0	48	104	0	60	62656
2026-01-28 16:02:05.00	345.99	7.47	-48.4	-55.1	3.6	0.00e+00	0	48	104	0	60	67431
2026-01-28 16:02:06.00	345.89	7.39	-46.8	-53.8	3.6	0.00e+00	0	48	104	0	60	58281
2026-01-28 16:02:07.01	345.78	7.31	-46.7	-53.8	3.6	0.00e+00	0	48	104	0	60	57850
2026-01-28 16:02:08.01	345.68	7.23	-46.7	-53.8	3.6	0.00e+00	0	48	104	0	60	57848
2026-01-28 16:02:09.02	345.57	7.15	-48.8	-55.5	3.6	0.00e+00	0	48	104	0	60	70492
2026-01-28 16:02:10.03	345.47	7.07	-47.5	-54.5	3.6	0.00e+00	0	48	104	0	60	63011
2026-01-28 16:02:11.03	345.37	6.99	-51.6	-56.9	3.5	0.00e+00	0	48	104	0	60	82666
2026-01-28 16:02:12.04	345.27	6.90	-51.7	-57.3	3.6	0.00e+00	0	48	104	0	60	86516
2026-01-28 16:02:13.05	345.17	6.82	-48.6	-55.3	3.6	0.00e+00	0	48	104	0	60	69197
2026-01-28 16:02:14.06	345.07	6.74	-48.0	-55.0	3.6	0.00e+00	0	48	104	0	60	66374
2026-01-28 16:02:15.07	344.97	6.66	-49.0	-55.6	3.6	0.00e+00	0	48	104	0	60	71287
2026-01-28 16:02:16.08	344.87	6.59	-49.2	-55.7	3.6	0.00e+00	0	48	104	0	60	71833
2026-01-28 16:02:17.08	344.77	6.51	-53.4	-57.4	3.5	0.00e+00	0	48	104	0	60	88007
2026-01-28 16:02:18.09	344.67	6.43	-47.4	-54.6	3.6	0.00e+00	0	48	104	0	60	63793
2026-01-28 16:02:19.09	344.58	6.35	-53.4	-57.9	3.6	0.00e+00	0	48	104	0	60	92378
2026-01-28 16:02:20.10	344.48	6.27	-51.0	-57.0	3.6	0.00e+00	0	48	104	0	60	83661
2026-01-28 16:02:21.10	344.39	6.19	-50.2	-56.3	3.6	0.00e+00	0	48	104	0	60	77451
2026-01-28 16:02:22.11	344.29	6.12	-48.4	-55.2	3.6	0.00e+00	0	48	104	0	60	67852
2026-01-28 16:02:23.12	344.20	6.04	-49.5	-55.8	3.6	0.00e+00	0	48	104	0	60	73212
2026-01-28 16:02:24.12	344.11	5.96	-50.4	-56.6	3.6	0.00e+00	0	48	104	0	60	80325
2026-01-28 16:02:25.13	344.01	5.88	-54.8	-58.7	3.6	0.00e+00	0	48	104	0	60	101651
2026-01-28 16:02:26.14	343.92	5.81	-54.5	-59.0	3.6	0.00e+00	0	48	104	0	60	106061
2026-01-28 16:02:27.15	343.83	5.73	-55.9	-59.8	3.6	0.00e+00	0	48	104	0	60	115146
2026-01-28 16:02:28.16	343.74	5.65	-55.1	-59.2	3.6	0.00e+00	0	48	104	0	60	108101
2026-01-28 16:02:29.16	343.65	5.58	-56.0	-60.0	3.6	0.00e+00	0	48	104	0	60	118088
2026-01-28 16:02:30.17	343.56	5.50	-55.9	-60.1	3.6	0.00e+00	0	48	104	0	60	119158
2026-01-28 16:02:31.17	343.47	5.43	-56.5	-60.3	3.6	0.00e+00	0	48	104	0	60	122138
2026-01-28 16:02:32.18	343.38	5.35	-56.4	-60.5	3.6	0.00e+00	0	48	104	0	60	124789
2026-01-28 16:02:33.19	343.30	5.28	-56.9	-60.7	3.6	0.00e+00	0	48	104	0	60	128380
2026-01-28 16:02:34.20	343.21	5.20	-56.5	-60.5	3.6	0.00e+00	0	48	104	0	60	125808
2026-01-28 16:02:35.20	343.12	5.13	-56.7	-60.6	3.6	0.00e+00	0	48	104	0	60	126886
2026-01-28 16:02:36.21	343.04	5.05	-55.8	-59.9	3.6	0.00e+00	0	48	104	0	60	116890
2026-01-28 16:02:37.21	342.95	4.98	-56.8	-60.6	3.6	0.00e+00	0	48	104	0	60	127247
2026-01-28 16:02:38.21	342.87	4.91	-56.8	-60.8	3.6	0.00e+00	0	48	104	0	60	129806
2026-01-28 16:02:39.22	342.79	4.83	-57.4	-61.5	3.6	0.00e+00	0	48	104	0	60	139928
2026-01-28 16:02:40.23	342.70	4.76	-56.6	-61.1	3.6	0.00e+00	0	48	104	0	60	133694
2026-01-28 16:02:41.24	342.62	4.69	-55.4	-60.2	3.6	0.00e+00	0	48	104	0	60	120552
2026-01-28 16:02:42.24	342.54	4.61	-55.6	-60.0	3.6	0.00e+00	0	48	104	0	60	118702
2026-01-28 16:02:43.25	342.45	4.54	-55.8	-60.0	3.6	0.00e+00	0	48	104	0	60	118695
2026-01-28 16:02:44.26	342.37	4.47	-55.7	-60.0	3.6	0.00e+00	0	49	104	0	60	117870
2026-01-28 16:02:45.26	342.29	4.39	-55.7	-60.0	3.6	0.00e+00	0	48	104	0	60	117809
2026-01-28 16:02:46.27	342.21	4.32	-55.6	-59.8	3.6	0.00e+00	0	49	104	0	60	115708
2026-01-28 16:02:47.28	342.13	4.25	-55.6	-59.8	3.6	0.00e+00	0	48	104	0	60	115898
2026-01-28 16:02:48.29	342.05	4.18	-55.5	-59.8	3.6	0.00e+00	0	48	104	0	60	115873
2026-01-28 16:02:49.30	341.97	4.11	-55.5	-59.8	3.6	0.00e+00	0	48	104	0	60	115277
2026-01-28 16:02:50.30	341.90	4.04	-55.6	-59.8	3.6	0.00e+00	0	49	104	0	60	115562
2026-01-28 16:02:51.31	341.82	3.96	-55.6	-59.8	3.6	0.00e+00	0	48	104	0	60	115812
2026-01-28 16:02:52.32	341.74	3.89	-55.6	-59.8	3.6	0.00e+00	0	48	104	0	60	115995
2026-01-28 16:02:53.33	341.66	3.82	-55.6	-59.8	3.6	0.00e+00	0	48	104	0	60	116048
2026-01-28 16:02:54.33	341.59	3.75	-55.6	-59.7	3.6	0.00e+00	0	48	104	0	60	114908
2026-01-28 16:02:55.34	341.51	3.68	-55.6	-59.8	3.6	0.00e+00	0	48	104	0	60	115563
2026-01-28 16:02:56.34	341.44	3.61	-55.6	-59.8	3.6	0.00e+00	0	48	104	0	60	116263
2026-01-28 16:02:57.35	341.36	3.54	-55.6	-59.8	3.6	0.00e+00	0	49	104	0	60	115957
2026-01-28 16:02:58.35	341.29	3.47	-55.5	-59.8	3.6	0.00e+00	0	48	104	0	60	115797
2026-01-28 16:02:59.36	341.22	3.40	-55.6	-59.8	3.6	0.00e+00	0	48	104	0	60	116184
2026-01-28 16:03:00.36	341.14	3.33	-55.5	-59.7	3.6	0.00e+00	0	48	104	0	60	114917
2026-01-28 16:03:01.37	341.07	3.26	-55.5	-59.8	3.5	0.00e+00	0	48	104	0	60	115412
2026-01-28 16:03:02.38	341.00	3.20	-55.6	-59.8	3.5	0.00e+00	0	48	104	0	60	115873
2026-01-28 16:03:03.39	340.93	3.13	-55.6	-59.8	3.6	0.00e+00	0	48	104	0	60	115691
2026-01-28 16:03:04.39	340.85	3.06	-55.5	-59.8	3.5	0.00e+00	0	48	104	0	60	115327
2026-01-28 16:03:05.40	340.78	2.99	-55.5	-59.8	3.6	0.00e+00	0	48	104	0	60	115589
2026-01-28 16:03:06.41	340.71	2.92	-55.5	-59.8	3.6	0.00e+00	0	48	104	0	60	115428
2026-01-28 16:03:07.42	340.64	2.85	-55.5	-59.8	3.6	0.00e+00	0	48	104	0	60	116165
2026-01-28 16:03:08.42	340.57	2.79	-55.6	-59.9	3.6	0.00e+00	0	48	104	0	60	116805
2026-01-28 16:03:09.43	340.50	2.72	-55.6	-59.8	3.6	0.00e+00	0	48	104	0	60	116008
2026-01-28 16:03:10.44	340.43	2.65	-55.6	-59.8	3.6	0.00e+00	0	48	104	0	60	116241
2026-01-28 16:03:11.44	340.37	2.58	-55.6	-59.8	3.6	0.00e+00	0	48	104	0	60	115574
2026-01-28 16:03:12.45	340.30	2.52	-55.6	-59.8	3.6	0.00e+00	0	48	104	0	60	115961
2026-01-28 16:03:13.46	340.23	2.45	-55.6	-59.8	3.6	0.00e+00	0	48	104	0	60	115705
2026-01-28 16:03:14.47	340.16	2.38	-55.5	-59.8	3.6	0.00e+00	0	48	104	0	60	115217
2026-01-28 16:03:15.47	340.10	2.32	-55.5	-59.8	3.6	0.00e+00	0	48	104	0	60	115158
2026-01-28 16:03:16.48	340.03	2.25	-55.5	-59.7	3.6	0.00e+00	0	49	104	0	60	114779
2026-01-28 16:03:17.48	339.96	2.18	-55.5	-59.7	3.6	0.00e+00	0	48	104	0	60	114428
2026-01-28 16:03:18.49	339.90	2.12	-55.5	-59.8	3.6	0.00e+00	0	48	104	0	60	115764
2026-01-28 16:03:19.50	339.83	2.05	-55.5	-59.8	3.6	0.00e+00	0	48	104	0	60	115288
2026-01-28 16:03:20.50	339.77	1.99	-55.5	-59.8	3.5	0.00e+00	0	48	104	0	60	115393
2026-01-28 16:03:21.51	339.70	1.92	-55.5	-59.9	3.6	0.00e+00	0	48	104	0	60	116429
2026-01-28 16:03:22.52	339.64	1.85	-55.5	-59.8	3.6	0.00e+00	0	48	104	0	60	115536
2026-01-28 16:03:23.53	339.58	1.79	-55.5	-59.8	3.6	0.00e+00	0	48	104	0	60	115428
2026-01-28 16:03:24.53	339.51	1.72	-55.5	-59.8	3.6	0.00e+00	0	48	104	0	60	115603
2026-01-28 16:03:25.54	339.45	1.66	-55.5	-59.8	3.6	0.00e+00	0	48	104	0	60	115578
2026-01-28 16:03:26.54	339.39	1.59	-55.5	-59.8	3.6	0.00e+00	0	48	104	0	60	115632
2026-01-28 16:03:27.55	339.33	1.53	-55.5	-59.8	3.6	0.00e+00	0	48	104	0	60	115608
2026-01-28 16:03:28.56	339.27	1.47	-55.4	-59.7	3.6	0.00e+00	0	48	104	0	60	114846
2026-01-28 16:03:29.56	339.20	1.40	-55.4	-59.8	3.6	0.00e+00	0	48	104	0	60	115116
2026-01-28 16:03:30.57	339.14	1.34	-55.4	-59.8	3.6	0.00e+00	0	48	104	0	60	115506
2026-01-28 16:03:31.58	339.08	1.27	-55.4	-59.7	3.6	0.00e+00	0	48	104	0	60	114364
2026-01-28 16:03:32.58	339.02	1.21	-55.4	-59.7	3.6	0.00e+00	0	48	104	0	60	114718
2026-01-28 16:03:33.59	338.96	1.15	-55.4	-59.7	3.6	0.00e+00	0	48	104	0	60	114308
2026-01-28 16:03:34.60	338.90	1.08	-55.4	-59.7	3.6	0.00e+00	0	49	104	0	60	114408
2026-01-28 16:03:35.60	338.84	1.02	-55.4	-59.7	3.6	0.00e+00	0	48	104	0	60	113806
2026-01-28 16:03:36.61	338.79	0.96	-55.4	-59.7	3.6	0.00e+00	0	48	104	0	60	114716
2026-01-28 16:03:37.61	338.73	0.89	-55.4	-59.7	3.6	0.00e+00	0	48	104	0	60	114786
2026-01-28 16:03:38.61	338.67	0.83	-55.4	-59.7	3.6	0.00e+00	0	49	104	0	60	114416
2026-01-28 16:03:39.61	338.61	0.77	-55.4	-59.7	3.6	0.00e+00	0	49	104	0	60	114292
2026-01-28 16:03:40.62	338.55	0.71	-55.4	-59.7	3.6	0.00e+00	0	48	104	0	60	114347
2026-01-28 16:03:41.62	338.50	0.64	-55.4	-59.7	3.6	0.00e+00	0	48	104	0	60	114509
2026-01-28 16:03:42.63	338.44	0.58	-55.4	-59.7	3.5	0.00e+00	0	48	104	0	60	114052
2026-01-28 16:03:43.64	338.38	0.52	-55.4	-59.7	3.6	0.00e+00	0	48	104	0	60	114017
2026-01-28 16:03:44.65	338.33	0.46	-55.5	-59.7	3.6	0.00e+00	0	48	104	0	60	114309
2026-01-28 16:03:45.65	338.27	0.40	-55.4	-59.7	3.6	0.00e+00	0	48	104	0	60	113763
2026-01-28 16:03:46.66	338.22	0.33	-55.4	-59.7	3.6	0.00e+00	0	48	104	0	60	114218
2026-01-28 16:03:47.66	338.16	0.27	-55.4	-59.7	3.6	0.00e+00	0	48	104	0	60	114652
2026-01-28 16:03:48.67	338.11	0.21	-55.4	-59.7	3.6	0.00e+00	0	48	104	0	60	114448
2026-01-28 16:03:49.68	338.05	0.15	-55.4	-59.7	3.5	0.00e+00	0	48	104	0	60	114443
2026-01-28 16:03:50.68	338.00	0.09	-55.5	-59.7	3.6	0.00e+00	0	48	104	0	60	114346
2026-01-28 16:03:51.68	337.94	0.03	-55.4	-59.7	3.6	0.00e+00	0	48	104	0	60	114716

#Closed at: 2026-01-28 16:03:52
#Recorded file [0 MB]: D:/Data/35015_260128_185630.dat