passes_logs/2026/01/28/R3.2S-Naryan-Mar/R3.2S-Naryan-Mar__20260128_144217_TY-42_rec.log

#Pass ID: 20260128_144217_TY-42
#Satellite: TY-42
#Configuration: TY-42
#almurnet v.1.7.20240730
#Start time: 2026-01-28 14:42:17

#Version: 2.2.20231116
#Station: R3.2S-Naryan-Mar
#Location: 53.008057 lon 67.646978 lat
#TLE: 1 64048U 25103A   26028.22870370  .00008010  00000-0  38191-3 0 09994
#TLE: 2 64048 097.4119 103.3979 0001765 093.5114 028.5586 15.19170123 38824

#Time	Az	El	Level	Level2	SNR	BER	BlckErr	Temp	State	Recorded	gain1	gain2
2026-01-28 14:42:17.77	85.59	0.03	-56.0	-59.1	3.3	0.00e+00	0	44	0	0	60	106157
2026-01-28 14:42:18.78	85.50	0.08	-56.6	-60.4	3.5	0.00e+00	0	45	104	0	60	124344
2026-01-28 14:42:19.78	85.41	0.13	-56.9	-61.0	3.6	0.00e+00	0	45	104	0	60	132461
2026-01-28 14:42:20.79	85.31	0.19	-56.3	-60.7	3.6	0.00e+00	0	45	104	0	60	128402
2026-01-28 14:42:21.80	85.22	0.24	-56.8	-61.1	3.6	0.00e+00	0	45	104	0	60	133988
2026-01-28 14:42:22.80	85.13	0.30	-57.0	-61.3	3.6	0.00e+00	0	45	104	0	60	138215
2026-01-28 14:42:23.81	85.03	0.35	-57.6	-61.5	3.6	0.00e+00	0	46	104	0	60	141017
2026-01-28 14:42:24.82	84.94	0.41	-57.6	-61.4	3.6	0.00e+00	0	46	104	0	60	139158
2026-01-28 14:42:25.82	84.84	0.46	-57.5	-61.5	3.6	0.00e+00	0	46	104	0	60	141122
2026-01-28 14:42:26.82	84.75	0.52	-57.1	-61.1	3.6	0.00e+00	0	46	104	0	60	134967
2026-01-28 14:42:27.83	84.65	0.57	-57.1	-61.0	3.6	0.00e+00	0	46	104	0	60	132437
2026-01-28 14:42:28.84	84.56	0.63	-56.4	-60.8	3.6	0.00e+00	0	46	104	0	60	129066
2026-01-28 14:42:29.85	84.46	0.68	-56.4	-60.8	3.6	0.00e+00	0	46	104	0	60	129507
2026-01-28 14:42:30.86	84.36	0.74	-57.3	-61.1	3.6	0.00e+00	0	46	104	0	60	134603
2026-01-28 14:42:31.86	84.27	0.79	-54.9	-59.8	3.6	0.00e+00	0	46	104	0	60	115781
2026-01-28 14:42:32.87	84.17	0.85	-56.6	-60.2	3.6	0.00e+00	0	46	104	0	60	121221
2026-01-28 14:42:33.88	84.07	0.90	-54.7	-58.2	3.6	0.00e+00	0	46	104	0	60	96689
2026-01-28 14:42:34.89	83.97	0.96	-55.7	-59.4	3.6	0.00e+00	0	46	104	0	60	110859
2026-01-28 14:42:35.89	83.87	1.01	-54.4	-58.0	3.6	0.00e+00	0	46	104	0	60	93703
2026-01-28 14:42:36.90	83.77	1.07	-54.3	-57.6	3.5	0.00e+00	0	46	104	0	60	89544
2026-01-28 14:42:37.90	83.67	1.12	-55.7	-58.8	3.6	0.00e+00	0	46	104	0	60	103451
2026-01-28 14:42:38.91	83.57	1.18	-55.9	-58.9	3.6	0.00e+00	0	46	104	0	60	104141
2026-01-28 14:42:39.92	83.47	1.24	-55.8	-59.2	3.6	0.00e+00	0	46	104	0	60	108410
2026-01-28 14:42:40.92	83.36	1.29	-55.4	-59.1	3.6	0.00e+00	0	46	104	0	60	106753
2026-01-28 14:42:41.93	83.26	1.35	-55.0	-59.3	3.6	0.00e+00	0	46	104	0	60	109424
2026-01-28 14:42:42.94	83.16	1.40	-55.0	-58.2	3.6	0.00e+00	0	46	104	0	60	95962
2026-01-28 14:42:43.95	83.05	1.46	-54.9	-58.0	3.6	0.00e+00	0	46	104	0	60	94154
2026-01-28 14:42:44.95	82.95	1.51	-54.9	-58.0	3.6	0.00e+00	0	46	104	0	60	93577
2026-01-28 14:42:45.96	82.85	1.57	-54.9	-57.9	3.6	0.00e+00	0	46	104	0	60	93163
2026-01-28 14:42:46.97	82.74	1.63	-54.8	-58.0	3.6	0.00e+00	0	46	104	0	60	93613
2026-01-28 14:42:47.97	82.64	1.68	-54.8	-57.9	3.6	0.00e+00	0	46	104	0	60	93031
2026-01-28 14:42:48.97	82.53	1.74	-54.8	-57.9	3.6	0.00e+00	0	46	104	0	60	92853
2026-01-28 14:42:49.98	82.42	1.80	-54.8	-57.8	3.6	0.00e+00	0	46	104	0	60	92333
2026-01-28 14:42:50.99	82.32	1.85	-54.8	-57.9	3.6	0.00e+00	0	46	104	0	60	92476
2026-01-28 14:42:52.00	82.21	1.91	-54.7	-57.8	3.6	0.00e+00	0	46	104	0	60	92326
2026-01-28 14:42:53.00	82.10	1.96	-54.7	-57.8	3.6	0.00e+00	0	46	104	0	60	92123
2026-01-28 14:42:54.01	81.99	2.02	-54.7	-57.8	3.6	0.00e+00	0	46	104	0	60	92342
2026-01-28 14:42:55.01	81.88	2.08	-54.7	-57.8	3.6	0.00e+00	0	46	104	0	60	92036
2026-01-28 14:42:56.02	81.77	2.13	-54.7	-57.8	3.6	0.00e+00	0	46	104	0	60	91720
2026-01-28 14:42:57.02	81.66	2.19	-54.7	-57.8	3.6	0.00e+00	0	46	104	0	60	91751
2026-01-28 14:42:58.03	81.55	2.25	-54.7	-57.8	3.6	0.00e+00	0	46	104	0	60	91817
2026-01-28 14:42:59.04	81.44	2.31	-54.7	-57.8	3.6	0.00e+00	0	46	104	0	60	91663
2026-01-28 14:43:00.04	81.33	2.36	-54.7	-57.8	3.6	0.00e+00	0	46	104	0	60	91672
2026-01-28 14:43:01.05	81.21	2.42	-54.7	-57.8	3.6	0.00e+00	0	46	104	0	60	91797
2026-01-28 14:43:02.05	81.10	2.48	-54.7	-57.8	3.6	0.00e+00	0	46	104	0	60	91339
2026-01-28 14:43:03.06	80.99	2.53	-54.7	-57.7	3.6	0.00e+00	0	46	104	0	60	90804
2026-01-28 14:43:04.07	80.87	2.59	-54.7	-57.8	3.6	0.00e+00	0	47	104	0	60	91468
2026-01-28 14:43:05.08	80.76	2.65	-54.7	-57.7	3.6	0.00e+00	0	47	104	0	60	91118
2026-01-28 14:43:06.09	80.64	2.71	-54.7	-57.8	3.6	0.00e+00	0	46	104	0	60	91427
2026-01-28 14:43:07.09	80.53	2.76	-54.7	-57.8	3.6	0.00e+00	0	46	104	0	60	91754
2026-01-28 14:43:08.10	80.41	2.82	-54.7	-57.8	3.6	0.00e+00	0	47	104	0	60	91368
2026-01-28 14:43:09.10	80.29	2.88	-54.7	-57.8	3.6	0.00e+00	0	47	104	0	60	91349
2026-01-28 14:43:10.11	80.17	2.94	-54.7	-57.8	3.6	0.00e+00	0	47	104	0	60	91792
2026-01-28 14:43:11.12	80.05	2.99	-54.6	-57.8	3.6	0.00e+00	0	47	104	0	60	91366
2026-01-28 14:43:12.12	79.94	3.05	-54.7	-57.7	3.6	0.00e+00	0	47	104	0	60	91307
2026-01-28 14:43:13.13	79.82	3.11	-54.7	-57.8	3.6	0.00e+00	0	47	104	0	60	91419
2026-01-28 14:43:14.13	79.70	3.17	-54.7	-57.8	3.6	0.00e+00	0	47	104	0	60	91585
2026-01-28 14:43:15.13	79.58	3.22	-54.6	-57.8	3.6	0.00e+00	0	47	104	0	60	91357
2026-01-28 14:43:16.14	79.45	3.28	-54.6	-57.7	3.6	0.00e+00	0	47	104	0	60	91315
2026-01-28 14:43:17.15	79.33	3.34	-54.6	-57.8	3.6	0.00e+00	0	47	104	0	60	91619
2026-01-28 14:43:18.15	79.21	3.40	-54.6	-57.7	3.6	0.00e+00	0	47	104	0	60	91254
2026-01-28 14:43:19.16	79.08	3.46	-54.6	-57.7	3.6	0.00e+00	0	47	104	0	60	91283
2026-01-28 14:43:20.17	78.96	3.52	-54.6	-57.7	3.6	0.00e+00	0	47	104	0	60	91224
2026-01-28 14:43:21.18	78.83	3.57	-54.6	-57.8	3.6	0.00e+00	0	47	104	0	60	91642
2026-01-28 14:43:22.18	78.71	3.63	-54.6	-57.7	3.6	0.00e+00	0	47	104	0	60	91019
2026-01-28 14:43:23.19	78.58	3.69	-54.6	-57.7	3.6	0.00e+00	0	47	104	0	60	90992
2026-01-28 14:43:24.19	78.46	3.75	-54.6	-57.7	3.6	0.00e+00	0	47	104	0	60	91297
2026-01-28 14:43:25.19	78.33	3.81	-54.6	-57.7	3.6	0.00e+00	0	47	104	0	60	91115
2026-01-28 14:43:26.19	78.20	3.87	-54.6	-57.8	3.6	0.00e+00	0	47	104	0	60	91387
2026-01-28 14:43:27.20	78.07	3.92	-54.6	-57.7	3.6	0.00e+00	0	47	104	0	60	91221
2026-01-28 14:43:28.21	77.94	3.98	-54.6	-57.7	3.6	0.00e+00	0	47	104	0	60	90975
2026-01-28 14:43:29.22	77.81	4.04	-54.6	-57.7	3.6	0.00e+00	0	47	104	0	60	91178
2026-01-28 14:43:30.22	77.68	4.10	-54.6	-57.7	3.6	0.00e+00	0	47	104	0	60	90423
2026-01-28 14:43:31.23	77.55	4.16	-54.6	-57.7	3.6	0.00e+00	0	47	104	0	60	90936
2026-01-28 14:43:32.24	77.42	4.22	-54.6	-57.7	3.6	0.00e+00	0	47	104	0	60	90439
2026-01-28 14:43:33.25	77.29	4.28	-54.6	-57.7	3.6	0.00e+00	0	47	104	0	60	91164
2026-01-28 14:43:34.25	77.15	4.34	-54.6	-57.7	3.6	0.00e+00	0	47	104	0	60	90377
2026-01-28 14:43:35.26	77.02	4.40	-54.6	-57.7	3.6	0.00e+00	0	47	104	0	60	90719
2026-01-28 14:43:36.27	76.88	4.46	-54.6	-57.7	3.6	0.00e+00	0	47	104	0	60	90766
2026-01-28 14:43:37.28	76.75	4.51	-54.6	-57.7	3.6	0.00e+00	0	47	104	0	60	90807
2026-01-28 14:43:38.29	76.61	4.57	-54.6	-57.7	3.6	0.00e+00	0	47	104	0	60	90777
2026-01-28 14:43:39.30	76.47	4.63	-54.6	-57.7	3.6	0.00e+00	0	47	104	0	60	90699
2026-01-28 14:43:40.30	76.34	4.69	-54.6	-57.7	3.6	0.00e+00	0	47	104	0	60	90552
2026-01-28 14:43:41.31	76.20	4.75	-54.5	-57.7	3.6	0.00e+00	0	47	104	0	60	90576
2026-01-28 14:43:42.31	76.06	4.81	-54.6	-57.7	3.6	0.00e+00	0	47	104	0	60	90945
2026-01-28 14:43:43.31	75.92	4.87	-54.6	-57.7	3.6	0.00e+00	0	47	104	0	60	91200
2026-01-28 14:43:44.31	75.78	4.93	-54.6	-57.7	3.6	0.00e+00	0	47	104	0	60	90912
2026-01-28 14:43:45.31	75.64	4.99	-54.6	-57.7	3.6	0.00e+00	0	47	104	0	60	90848
2026-01-28 14:43:46.31	75.50	5.05	-54.6	-57.7	3.6	0.00e+00	0	47	104	0	60	91013
2026-01-28 14:43:47.32	75.35	5.11	-54.6	-57.7	3.6	0.00e+00	0	47	104	0	60	90540
2026-01-28 14:43:48.32	75.21	5.17	-54.5	-57.7	3.6	0.00e+00	0	47	104	0	60	90622
2026-01-28 14:43:49.33	75.07	5.23	-54.6	-57.7	3.6	0.00e+00	0	47	104	0	60	90814
2026-01-28 14:43:50.34	74.92	5.29	-54.5	-57.7	3.6	0.00e+00	0	47	104	0	60	90516
2026-01-28 14:43:51.35	74.77	5.35	-54.5	-57.7	3.6	0.00e+00	0	47	104	0	60	90697
2026-01-28 14:43:52.36	74.63	5.41	-54.6	-57.7	3.6	0.00e+00	0	47	104	0	60	90553
2026-01-28 14:43:53.36	74.48	5.47	-54.6	-57.7	3.6	0.00e+00	0	47	104	0	60	90297
2026-01-28 14:43:54.37	74.33	5.53	-54.5	-57.7	3.6	0.00e+00	0	47	104	0	60	90565
2026-01-28 14:43:55.37	74.18	5.59	-54.5	-57.6	3.6	0.00e+00	0	47	104	0	60	90253
2026-01-28 14:43:56.38	74.03	5.65	-54.5	-57.7	3.6	0.00e+00	0	47	104	0	60	90428
2026-01-28 14:43:57.38	73.88	5.70	-54.5	-57.6	3.6	0.00e+00	0	47	104	0	60	90131
2026-01-28 14:43:58.39	73.73	5.77	-54.5	-57.7	3.6	0.00e+00	0	47	104	0	60	90327
2026-01-28 14:43:59.39	73.58	5.82	-54.5	-57.6	3.6	0.00e+00	0	47	104	0	60	89853
2026-01-28 14:44:00.40	73.43	5.88	-54.5	-57.6	3.6	0.00e+00	0	47	104	0	60	90273
2026-01-28 14:44:01.40	73.27	5.94	-54.5	-57.7	3.6	0.00e+00	0	47	104	0	60	90454
2026-01-28 14:44:02.41	73.12	6.00	-54.6	-57.7	3.6	0.00e+00	0	47	104	0	60	90528
2026-01-28 14:44:03.41	72.96	6.06	-54.3	-57.1	3.6	0.00e+00	0	47	104	0	60	84934
2026-01-28 14:44:04.41	72.81	6.12	-52.7	-55.7	3.6	0.00e+00	0	47	104	0	60	72478
2026-01-28 14:44:05.42	72.65	6.18	-53.3	-56.5	3.6	0.00e+00	0	47	104	0	60	79090
2026-01-28 14:44:06.42	72.49	6.24	-53.1	-56.1	3.6	0.00e+00	0	47	104	0	60	75167
2026-01-28 14:44:07.43	72.34	6.30	-53.2	-56.3	3.6	0.00e+00	0	47	104	0	60	77112
2026-01-28 14:44:08.43	72.18	6.36	-53.4	-56.3	3.6	0.00e+00	0	47	104	0	60	77412
2026-01-28 14:44:09.44	72.02	6.42	-55.1	-58.4	3.6	0.00e+00	0	47	104	0	60	98628
2026-01-28 14:44:10.45	71.85	6.48	-54.5	-57.6	3.6	0.00e+00	0	47	104	0	60	89563
2026-01-28 14:44:11.46	71.69	6.55	-53.0	-56.7	3.6	0.00e+00	0	47	104	0	60	80682
2026-01-28 14:44:12.46	71.53	6.60	-55.5	-59.1	3.6	0.00e+00	0	47	104	0	60	106112
2026-01-28 14:44:13.47	71.37	6.67	-54.4	-57.7	3.6	0.00e+00	0	48	104	0	60	90790
2026-01-28 14:44:14.47	71.20	6.72	-54.1	-57.0	3.6	0.00e+00	0	47	104	0	60	84136
2026-01-28 14:44:15.48	71.04	6.79	-54.8	-58.0	3.6	0.00e+00	0	47	104	0	60	93520
2026-01-28 14:44:16.49	70.87	6.85	-54.8	-58.1	3.6	0.00e+00	0	47	104	0	60	94685
2026-01-28 14:44:17.50	70.70	6.91	-54.6	-58.1	3.6	0.00e+00	0	47	104	0	60	95280
2026-01-28 14:44:18.50	70.53	6.97	-54.8	-58.5	3.6	0.00e+00	0	47	104	0	60	99756
2026-01-28 14:44:19.51	70.36	7.03	-55.2	-58.9	3.6	0.00e+00	0	47	104	0	60	104039
2026-01-28 14:44:20.52	70.19	7.09	-55.2	-58.5	3.6	0.00e+00	0	47	104	0	60	99361
2026-01-28 14:44:21.52	70.02	7.15	-54.8	-57.6	3.6	0.00e+00	0	47	104	0	60	89731
2026-01-28 14:44:22.52	69.85	7.21	-54.2	-58.1	3.6	0.00e+00	0	47	104	0	60	94915
2026-01-28 14:44:23.53	69.68	7.27	-54.4	-58.2	3.6	0.00e+00	0	47	104	0	60	96559
2026-01-28 14:44:24.54	69.51	7.33	-54.7	-57.6	3.6	0.00e+00	0	47	104	0	60	89568
2026-01-28 14:44:25.54	69.33	7.39	-54.3	-57.2	3.5	0.00e+00	0	47	104	0	60	86081
2026-01-28 14:44:26.55	69.16	7.45	-54.3	-57.7	3.6	0.00e+00	0	47	104	0	60	90697
2026-01-28 14:44:27.56	68.98	7.51	-53.8	-57.0	3.6	0.00e+00	0	48	104	0	60	83468
2026-01-28 14:44:28.57	68.80	7.57	-55.9	-59.4	3.6	0.00e+00	0	48	104	0	60	110086
2026-01-28 14:44:29.57	68.63	7.63	-54.7	-57.6	3.5	0.00e+00	0	47	104	0	60	89588
2026-01-28 14:44:30.58	68.45	7.69	-54.7	-58.2	3.5	0.00e+00	0	47	104	0	60	96534
2026-01-28 14:44:31.58	68.27	7.75	-54.7	-58.3	3.6	0.00e+00	0	47	104	0	60	97571
2026-01-28 14:44:32.59	68.09	7.81	-55.3	-58.7	3.6	0.00e+00	0	47	104	0	60	101661
2026-01-28 14:44:33.60	67.90	7.87	-54.6	-57.8	3.6	0.00e+00	0	48	104	0	60	91465
2026-01-28 14:44:34.60	67.72	7.92	-54.7	-57.7	3.6	0.00e+00	0	47	104	0	60	90572
2026-01-28 14:44:35.60	67.54	7.98	-55.0	-58.1	3.6	0.00e+00	0	47	104	0	60	94846
2026-01-28 14:44:36.61	67.36	8.04	-54.8	-57.8	3.6	0.00e+00	0	47	104	0	60	91613
2026-01-28 14:44:37.62	67.17	8.10	-55.1	-58.4	3.6	0.00e+00	0	47	104	0	60	98364
2026-01-28 14:44:38.62	66.98	8.16	-54.6	-57.8	3.6	0.00e+00	0	48	104	0	60	91544
2026-01-28 14:44:39.63	66.80	8.22	-52.6	-55.8	3.6	0.00e+00	0	48	104	0	60	72615
2026-01-28 14:44:40.64	66.61	8.28	-52.7	-55.8	3.6	0.00e+00	0	48	104	0	60	72715
2026-01-28 14:44:41.65	66.42	8.34	-54.1	-57.2	3.6	0.00e+00	0	48	104	0	60	86154
2026-01-28 14:44:42.66	66.23	8.40	-52.6	-56.1	3.6	0.00e+00	0	48	104	0	60	75928
2026-01-28 14:44:43.66	66.04	8.46	-53.9	-57.7	3.6	0.00e+00	0	48	104	0	60	90978
2026-01-28 14:44:44.67	65.84	8.52	-54.4	-58.4	3.6	0.00e+00	0	48	104	0	60	98723
2026-01-28 14:44:45.68	65.65	8.58	-54.7	-58.3	3.6	0.00e+00	0	48	104	0	60	97257
2026-01-28 14:44:46.69	65.46	8.64	-54.9	-58.2	3.6	0.00e+00	0	48	104	0	60	95742
2026-01-28 14:44:47.69	65.26	8.70	-54.6	-58.3	3.6	0.00e+00	0	47	104	0	60	97410
2026-01-28 14:44:48.70	65.06	8.75	-54.2	-57.9	3.6	0.00e+00	0	48	104	0	60	93212
2026-01-28 14:44:49.70	64.87	8.81	-55.1	-58.7	3.6	0.00e+00	0	48	104	0	60	102178
2026-01-28 14:44:50.71	64.67	8.87	-54.4	-58.4	3.6	0.00e+00	0	48	104	0	60	98564
2026-01-28 14:44:51.72	64.47	8.93	-51.8	-57.5	3.5	0.00e+00	0	48	104	0	60	88938
2026-01-28 14:44:52.73	64.27	8.99	-56.2	-59.7	3.6	0.00e+00	0	48	104	0	60	114901
2026-01-28 14:44:53.73	64.07	9.05	-51.5	-57.5	3.6	0.00e+00	0	47	104	0	60	88508
2026-01-28 14:44:54.74	63.87	9.11	-51.8	-57.6	3.6	0.00e+00	0	48	104	0	60	89566
2026-01-28 14:44:55.75	63.66	9.16	-52.3	-57.6	3.6	0.00e+00	0	48	104	0	60	90096
2026-01-28 14:44:56.75	63.46	9.22	-53.0	-57.9	3.6	0.00e+00	0	48	104	0	60	92804
2026-01-28 14:44:57.76	63.26	9.28	-53.6	-57.9	3.6	0.00e+00	0	47	104	0	60	92972
2026-01-28 14:44:58.77	63.05	9.34	-53.7	-57.7	3.6	0.00e+00	0	48	104	0	60	90281
2026-01-28 14:44:59.78	62.84	9.39	-53.2	-57.6	3.6	0.00e+00	0	48	104	0	60	90062
2026-01-28 14:45:00.78	62.63	9.45	-53.4	-57.5	3.6	0.00e+00	0	48	104	0	60	89219
2026-01-28 14:45:01.79	62.42	9.51	-52.7	-57.3	3.6	0.00e+00	0	48	104	0	60	86262
2026-01-28 14:45:02.80	62.21	9.57	-52.7	-56.5	3.6	0.00e+00	0	48	104	0	60	79239
2026-01-28 14:45:03.81	62.00	9.62	-51.5	-56.6	3.6	0.00e+00	0	48	104	0	60	80400
2026-01-28 14:45:04.81	61.79	9.68	-54.0	-57.7	3.6	0.00e+00	0	48	104	0	60	90344
2026-01-28 14:45:05.81	61.58	9.74	-50.2	-52.4	3.6	0.00e+00	0	48	104	0	60	49258
2026-01-28 14:45:06.82	61.36	9.79	-50.1	-52.6	3.6	0.00e+00	0	48	104	0	60	50346
2026-01-28 14:45:07.83	61.15	9.85	-52.2	-55.2	3.6	0.00e+00	0	48	104	0	60	68015
2026-01-28 14:45:08.83	60.93	9.91	-53.3	-56.3	3.6	0.00e+00	0	48	104	0	60	77717
2026-01-28 14:45:09.84	60.71	9.96	-54.4	-57.3	3.6	0.00e+00	0	48	104	0	60	87040
2026-01-28 14:45:10.85	60.50	10.02	-54.0	-57.4	3.6	0.00e+00	0	48	104	0	60	87891
2026-01-28 14:45:11.85	60.28	10.07	-50.4	-52.2	3.6	0.00e+00	0	48	104	0	60	47953
2026-01-28 14:45:12.86	60.06	10.13	-52.2	-56.0	3.6	0.00e+00	0	48	104	0	60	75037
2026-01-28 14:45:13.86	59.84	10.18	-51.2	-55.1	3.6	0.00e+00	0	48	104	0	60	67480
2026-01-28 14:45:14.87	59.61	10.24	-52.0	-55.7	3.6	0.00e+00	0	48	104	0	60	72473
2026-01-28 14:45:15.88	59.39	10.30	-51.1	-53.8	3.6	0.00e+00	0	48	104	0	60	58265
2026-01-28 14:45:16.88	59.17	10.35	-51.1	-53.6	3.6	0.00e+00	0	48	104	0	60	56665
2026-01-28 14:45:17.89	58.94	10.40	-50.7	-53.9	3.6	0.00e+00	0	48	104	0	60	58738
2026-01-28 14:45:18.90	58.71	10.46	-52.2	-56.2	3.6	0.00e+00	0	48	104	0	60	76341
2026-01-28 14:45:19.90	58.49	10.51	-50.4	-53.4	3.6	0.00e+00	0	48	104	0	60	55087
2026-01-28 14:45:20.91	58.26	10.57	-52.7	-56.3	3.5	0.00e+00	0	48	104	0	60	77364
2026-01-28 14:45:21.91	58.03	10.62	-54.0	-58.0	3.6	0.00e+00	0	48	104	0	60	93766
2026-01-28 14:45:22.92	57.80	10.67	-54.0	-57.9	3.6	0.00e+00	0	48	104	0	60	92689
2026-01-28 14:45:23.92	57.57	10.73	-53.2	-56.3	3.6	0.00e+00	0	48	104	0	60	76889
2026-01-28 14:45:24.92	57.34	10.78	-52.2	-55.0	3.6	0.00e+00	0	48	104	0	60	66659
2026-01-28 14:45:25.92	57.10	10.83	-54.7	-58.4	3.6	0.00e+00	0	48	104	0	60	98120
2026-01-28 14:45:26.93	56.87	10.88	-52.2	-54.4	3.6	0.00e+00	0	48	104	0	60	61778
2026-01-28 14:45:27.93	56.63	10.94	-54.3	-57.3	3.6	0.00e+00	0	48	104	0	60	86703
2026-01-28 14:45:28.94	56.40	10.99	-51.7	-53.9	3.6	0.00e+00	0	48	104	0	60	58591
2026-01-28 14:45:29.95	56.16	11.04	-51.4	-54.0	3.6	0.00e+00	0	48	104	0	60	58968
2026-01-28 14:45:30.95	55.92	11.09	-50.8	-53.7	3.5	0.00e+00	0	48	104	0	60	57026
2026-01-28 14:45:31.96	55.68	11.14	-51.2	-53.7	3.6	0.00e+00	0	48	104	0	60	56973
2026-01-28 14:45:32.97	55.44	11.19	-51.2	-54.3	3.6	0.00e+00	0	48	104	0	60	61091
2026-01-28 14:45:33.98	55.19	11.25	-53.0	-55.6	3.6	0.00e+00	0	48	104	0	60	71373
2026-01-28 14:45:34.98	54.95	11.30	-50.4	-52.4	3.6	0.00e+00	0	48	104	0	60	49344
2026-01-28 14:45:35.99	54.71	11.35	-51.5	-55.1	3.6	0.00e+00	0	48	104	0	60	67111
2026-01-28 14:45:36.99	54.46	11.39	-50.3	-52.4	3.6	0.00e+00	0	48	104	0	60	49297
2026-01-28 14:45:38.00	54.22	11.44	-51.6	-54.0	3.6	0.00e+00	0	48	104	0	60	59085
2026-01-28 14:45:39.00	53.97	11.49	-52.3	-54.7	3.6	0.00e+00	0	48	104	0	60	64523
2026-01-28 14:45:40.01	53.72	11.54	-53.6	-56.8	3.6	0.00e+00	0	48	104	0	60	82295
2026-01-28 14:45:41.02	53.47	11.59	-55.1	-58.0	3.6	0.00e+00	0	48	104	0	60	93736
2026-01-28 14:45:42.02	53.22	11.64	-52.2	-55.2	3.6	0.00e+00	0	48	104	0	60	67920
2026-01-28 14:45:43.02	52.98	11.69	-52.8	-56.1	3.6	0.00e+00	0	48	104	0	60	75608
2026-01-28 14:45:44.03	52.72	11.73	-50.7	-53.1	3.6	0.00e+00	0	48	104	0	60	53307
2026-01-28 14:45:45.03	52.47	11.78	-51.7	-55.0	3.6	0.00e+00	0	48	104	0	60	66357
2026-01-28 14:45:46.03	52.22	11.83	-50.6	-53.1	3.6	0.00e+00	0	48	104	0	60	53437
2026-01-28 14:45:47.04	51.96	11.87	-51.5	-54.5	3.6	0.00e+00	0	48	104	0	60	62865
2026-01-28 14:45:48.04	51.71	11.92	-53.9	-56.9	3.6	0.00e+00	0	48	104	0	60	82498
2026-01-28 14:45:49.05	51.45	11.97	-52.6	-56.5	3.6	0.00e+00	0	48	104	0	60	78836
2026-01-28 14:45:50.06	51.19	12.01	-52.9	-55.1	3.6	0.00e+00	0	48	104	0	60	67287
2026-01-28 14:45:51.07	50.93	12.06	-50.9	-52.9	3.6	0.00e+00	0	48	104	0	60	52178
2026-01-28 14:45:52.08	50.67	12.10	-53.4	-55.9	3.6	0.00e+00	0	48	104	0	60	73548
2026-01-28 14:45:53.08	50.41	12.15	-51.0	-52.9	3.5	0.00e+00	0	48	104	0	60	52019
2026-01-28 14:45:54.09	50.15	12.19	-50.8	-52.7	3.6	0.00e+00	0	48	104	0	60	50903
2026-01-28 14:45:55.10	49.89	12.23	-51.4	-53.5	3.6	0.00e+00	0	48	104	0	60	56026
2026-01-28 14:45:56.10	49.62	12.28	-51.2	-54.7	3.6	0.00e+00	0	48	104	0	60	64489
2026-01-28 14:45:57.11	49.36	12.32	-52.4	-55.2	3.5	0.00e+00	0	48	104	0	60	68143
2026-01-28 14:45:58.11	49.09	12.36	-51.7	-55.2	3.6	0.00e+00	0	48	104	0	60	67950
2026-01-28 14:45:59.11	48.83	12.40	-53.7	-56.5	3.6	0.00e+00	0	48	104	0	60	78866
2026-01-28 14:46:00.11	48.56	12.44	-51.6	-54.8	3.6	0.00e+00	0	48	104	0	60	64996
2026-01-28 14:46:01.11	48.30	12.48	-51.1	-54.5	3.6	0.00e+00	0	48	104	0	60	63157
2026-01-28 14:46:02.12	48.03	12.52	-51.9	-55.1	3.6	0.00e+00	0	48	104	0	60	67013
2026-01-28 14:46:03.12	47.76	12.56	-53.0	-55.8	3.6	0.00e+00	0	48	104	0	60	72935
2026-01-28 14:46:04.12	47.49	12.60	-51.8	-55.2	3.6	0.00e+00	0	48	104	0	60	68192
2026-01-28 14:46:05.13	47.22	12.64	-53.1	-55.9	3.6	0.00e+00	0	48	104	0	60	73523
2026-01-28 14:46:06.13	46.95	12.68	-52.5	-55.9	3.6	0.00e+00	0	48	104	0	60	74134
2026-01-28 14:46:07.14	46.67	12.72	-54.0	-56.8	3.6	0.00e+00	0	48	104	0	60	82225
2026-01-28 14:46:08.15	46.40	12.76	-52.8	-56.0	3.6	0.00e+00	0	48	104	0	60	74394
2026-01-28 14:46:09.16	46.12	12.79	-52.2	-55.3	3.6	0.00e+00	0	48	104	0	60	68856
2026-01-28 14:46:10.16	45.85	12.83	-52.9	-55.7	3.6	0.00e+00	0	48	104	0	60	72213
2026-01-28 14:46:11.17	45.57	12.87	-53.2	-56.1	3.6	0.00e+00	0	48	104	0	60	75178
2026-01-28 14:46:12.18	45.29	12.90	-54.4	-57.6	3.5	0.00e+00	0	48	104	0	60	89981
2026-01-28 14:46:13.18	45.02	12.94	-54.7	-57.7	3.6	0.00e+00	0	48	104	0	60	91307
2026-01-28 14:46:14.19	44.74	12.97	-54.4	-57.0	3.6	0.00e+00	0	48	104	0	60	84014
2026-01-28 14:46:15.19	44.46	13.01	-53.8	-56.5	3.6	0.00e+00	0	48	104	0	60	79240
2026-01-28 14:46:16.19	44.18	13.04	-54.3	-57.0	3.6	0.00e+00	0	48	104	0	60	84104
2026-01-28 14:46:17.20	43.90	13.07	-54.5	-57.8	3.6	0.00e+00	0	48	104	0	60	92362
2026-01-28 14:46:18.20	43.62	13.10	-55.0	-58.6	3.6	0.00e+00	0	48	104	0	60	100696
2026-01-28 14:46:19.21	43.33	13.14	-54.7	-58.5	3.6	0.00e+00	0	48	104	0	60	99874
2026-01-28 14:46:20.22	43.05	13.17	-54.2	-57.1	3.6	0.00e+00	0	48	104	0	60	84406
2026-01-28 14:46:21.23	42.76	13.20	-53.8	-57.1	3.6	0.00e+00	0	48	104	0	60	84876
2026-01-28 14:46:22.24	42.48	13.23	-53.9	-57.3	3.6	0.00e+00	0	48	104	0	60	86315
2026-01-28 14:46:23.24	42.19	13.26	-55.0	-58.0	3.6	0.00e+00	0	48	104	0	60	94352
2026-01-28 14:46:24.25	41.90	13.29	-54.9	-57.8	3.6	0.00e+00	0	48	104	0	60	91947
2026-01-28 14:46:25.26	41.62	13.32	-54.7	-57.9	3.5	0.00e+00	0	48	104	0	60	92679
2026-01-28 14:46:26.27	41.33	13.35	-53.6	-56.6	3.6	0.00e+00	0	48	104	0	60	80236
2026-01-28 14:46:27.28	41.04	13.37	-53.2	-56.2	3.6	0.00e+00	0	48	104	0	60	76695
2026-01-28 14:46:28.29	40.75	13.40	-53.4	-57.0	3.6	0.00e+00	0	48	104	0	60	83438
2026-01-28 14:46:29.29	40.46	13.43	-53.5	-56.7	3.6	0.00e+00	0	48	104	0	60	80775
2026-01-28 14:46:30.30	40.17	13.45	-54.2	-57.8	3.6	0.00e+00	0	48	104	0	60	91447
2026-01-28 14:46:31.31	39.88	13.48	-54.7	-57.5	3.6	0.00e+00	0	48	104	0	60	88907
2026-01-28 14:46:32.32	39.58	13.50	-52.7	-55.7	3.6	0.00e+00	0	48	104	0	60	72363
2026-01-28 14:46:33.33	39.29	13.53	-52.6	-56.2	3.6	0.00e+00	0	48	104	0	60	76104
2026-01-28 14:46:34.33	39.00	13.55	-53.7	-57.4	3.6	0.00e+00	0	48	104	0	60	87545
2026-01-28 14:46:35.34	38.71	13.57	-55.2	-58.5	3.6	0.00e+00	0	48	104	0	60	99921
2026-01-28 14:46:36.35	38.41	13.60	-53.7	-57.3	3.6	0.00e+00	0	48	104	0	60	86934
2026-01-28 14:46:37.35	38.12	13.62	-54.0	-56.9	3.6	0.00e+00	0	48	104	0	60	83228
2026-01-28 14:46:38.36	37.82	13.64	-53.9	-56.9	3.6	0.00e+00	0	48	104	0	60	82830
2026-01-28 14:46:39.37	37.53	13.66	-53.5	-56.5	3.6	0.00e+00	0	48	104	0	60	79457
2026-01-28 14:46:40.38	37.23	13.68	-53.3	-56.8	3.6	0.00e+00	0	48	104	0	60	82184
2026-01-28 14:46:41.39	36.93	13.70	-53.5	-56.3	3.6	0.00e+00	0	48	104	0	60	76860
2026-01-28 14:46:42.40	36.64	13.72	-53.7	-56.7	3.6	0.00e+00	0	48	104	0	60	80977
2026-01-28 14:46:43.41	36.34	13.73	-54.3	-57.1	3.6	0.00e+00	0	48	104	0	60	84688
2026-01-28 14:46:44.41	36.04	13.75	-53.6	-56.2	3.6	0.00e+00	0	48	104	0	60	76602
2026-01-28 14:46:45.42	35.74	13.77	-53.3	-56.6	3.6	0.00e+00	0	48	104	0	60	79676
2026-01-28 14:46:46.42	35.45	13.78	-53.4	-56.8	3.6	0.00e+00	0	48	104	0	60	81800
2026-01-28 14:46:47.42	35.15	13.80	-54.2	-57.2	3.6	0.00e+00	0	48	104	0	60	85301
2026-01-28 14:46:48.43	34.85	13.81	-54.0	-57.2	3.6	0.00e+00	0	48	104	0	60	85260
2026-01-28 14:46:49.44	34.55	13.83	-53.1	-56.5	3.5	0.00e+00	0	48	104	0	60	79310
2026-01-28 14:46:50.45	34.25	13.84	-54.3	-57.4	3.6	0.00e+00	0	48	104	0	60	88194
2026-01-28 14:46:51.46	33.95	13.85	-51.5	-56.3	3.6	0.00e+00	0	48	104	0	60	77698
2026-01-28 14:46:52.46	33.65	13.86	-52.8	-56.9	3.6	0.00e+00	0	48	104	0	60	82617
2026-01-28 14:46:53.47	33.35	13.87	-53.3	-57.3	3.6	0.00e+00	0	48	104	0	60	86352
2026-01-28 14:46:54.48	33.05	13.88	-53.2	-57.1	3.6	0.00e+00	0	48	104	0	60	84981
2026-01-28 14:46:55.49	32.75	13.89	-52.4	-56.7	3.6	0.00e+00	0	48	104	0	60	81207
2026-01-28 14:46:56.50	32.44	13.90	-52.8	-57.1	3.6	0.00e+00	0	48	104	0	60	84726
2026-01-28 14:46:57.50	32.14	13.91	-51.5	-56.5	3.6	0.00e+00	0	48	104	0	60	79443
2026-01-28 14:46:58.51	31.84	13.92	-54.8	-58.3	3.6	0.00e+00	0	48	104	0	60	97455
2026-01-28 14:46:59.52	31.54	13.93	-54.8	-58.2	3.6	0.00e+00	0	48	104	0	60	96576
2026-01-28 14:47:00.50	31.25	13.93	-52.7	-57.0	3.6	0.00e+00	0	48	104	0	60	83779
2026-01-28 14:47:01.51	30.94	13.94	-53.4	-57.8	3.6	0.00e+00	0	48	104	0	60	91901
2026-01-28 14:47:02.52	30.64	13.94	-53.7	-57.8	3.6	0.00e+00	0	48	104	0	60	91725
2026-01-28 14:47:03.52	30.34	13.95	-53.2	-57.3	3.6	0.00e+00	0	48	104	0	60	86213
2026-01-28 14:47:04.53	30.04	13.95	-54.3	-57.7	3.6	0.00e+00	0	48	104	0	60	91317
2026-01-28 14:47:05.54	29.73	13.95	-52.2	-57.4	3.6	0.00e+00	0	48	104	0	60	87579
2026-01-28 14:47:06.55	29.43	13.96	-52.6	-57.5	3.6	0.00e+00	0	48	104	0	60	88752
2026-01-28 14:47:07.55	29.13	13.96	-53.7	-57.9	3.6	0.00e+00	0	48	104	0	60	92934
2026-01-28 14:47:08.56	28.82	13.96	-54.4	-58.2	3.6	0.00e+00	0	48	104	0	60	96021
2026-01-28 14:47:09.57	28.52	13.96	-52.8	-57.5	3.6	0.00e+00	0	48	104	0	60	88492
2026-01-28 14:47:10.57	28.22	13.96	-53.1	-57.8	3.6	0.00e+00	0	48	104	0	60	92151
2026-01-28 14:47:11.58	27.92	13.96	-54.4	-57.7	3.6	0.00e+00	0	48	104	0	60	90503
2026-01-28 14:47:12.59	27.61	13.96	-52.5	-57.4	3.5	0.00e+00	0	48	104	0	60	87366
2026-01-28 14:47:13.60	27.31	13.95	-51.4	-57.1	3.6	0.00e+00	0	48	104	0	60	84387
2026-01-28 14:47:14.61	27.01	13.95	-53.8	-57.8	3.6	0.00e+00	0	48	104	0	60	91353
2026-01-28 14:47:15.62	26.70	13.95	-50.9	-56.6	3.6	0.00e+00	0	48	104	0	60	80279
2026-01-28 14:47:16.62	26.40	13.94	-51.4	-57.1	3.6	0.00e+00	0	48	104	0	60	84363
2026-01-28 14:47:17.63	26.10	13.94	-51.5	-56.9	3.6	0.00e+00	0	48	104	0	60	83037
2026-01-28 14:47:18.64	25.80	13.93	-52.3	-57.2	3.6	0.00e+00	0	48	104	0	60	85928
2026-01-28 14:47:19.64	25.50	13.92	-51.6	-55.7	3.6	0.00e+00	0	48	104	0	60	72173
2026-01-28 14:47:20.65	25.19	13.92	-48.5	-53.5	3.5	0.00e+00	0	48	104	0	60	56254
2026-01-28 14:47:21.64	24.90	13.91	-49.1	-54.0	3.6	0.00e+00	0	48	104	0	60	59087
2026-01-28 14:47:22.65	24.60	13.90	-50.1	-54.6	3.6	0.00e+00	0	48	104	0	60	63288
2026-01-28 14:47:23.66	24.29	13.89	-48.7	-53.7	3.6	0.00e+00	0	48	104	0	60	57037
2026-01-28 14:47:24.67	23.99	13.88	-49.9	-54.1	3.6	0.00e+00	0	48	104	0	60	60072
2026-01-28 14:47:25.67	23.69	13.87	-48.4	-53.0	3.6	0.00e+00	0	48	104	0	60	52639
2026-01-28 14:47:26.68	23.39	13.86	-48.4	-52.9	3.6	0.00e+00	0	48	104	0	60	52526
2026-01-28 14:47:27.69	23.09	13.85	-47.3	-52.4	3.6	0.00e+00	0	48	104	0	60	49506
2026-01-28 14:47:28.70	22.79	13.83	-49.1	-53.0	3.6	0.00e+00	0	48	104	0	60	52747
2026-01-28 14:47:29.71	22.49	13.82	-45.5	-51.6	3.6	0.00e+00	0	48	104	0	60	45177
2026-01-28 14:47:30.71	22.19	13.81	-48.0	-52.7	3.6	0.00e+00	0	48	104	0	60	51031
2026-01-28 14:47:31.72	21.89	13.79	-45.6	-51.7	3.6	0.00e+00	0	48	104	0	60	45340
2026-01-28 14:47:32.72	21.60	13.78	-45.6	-51.7	3.6	0.00e+00	0	48	104	0	60	45552
2026-01-28 14:47:33.73	21.30	13.76	-46.6	-52.3	3.6	0.00e+00	0	48	104	0	60	48642
2026-01-28 14:47:34.74	21.00	13.74	-47.8	-52.5	3.6	0.00e+00	0	48	104	0	60	49899
2026-01-28 14:47:35.74	20.70	13.73	-49.5	-54.1	3.6	0.00e+00	0	48	104	0	60	60119
2026-01-28 14:47:36.74	20.41	13.71	-52.5	-56.4	3.6	0.00e+00	0	48	104	0	60	78234
2026-01-28 14:47:37.75	20.11	13.69	-51.3	-55.1	3.6	0.00e+00	0	48	104	0	60	67435
2026-01-28 14:47:38.74	19.82	13.67	-50.6	-55.0	3.6	0.00e+00	0	48	104	0	60	66401
2026-01-28 14:47:39.75	19.53	13.65	-51.4	-55.0	3.6	0.00e+00	0	48	104	0	60	66645
2026-01-28 14:47:40.75	19.23	13.63	-51.1	-54.2	3.6	0.00e+00	0	48	104	0	60	60556
2026-01-28 14:47:41.76	18.94	13.61	-49.2	-53.4	3.6	0.00e+00	0	48	104	0	60	55366
2026-01-28 14:47:42.77	18.64	13.59	-48.9	-53.7	3.6	0.00e+00	0	48	104	0	60	56963
2026-01-28 14:47:43.78	18.35	13.57	-50.0	-54.7	3.6	0.00e+00	0	48	104	0	60	64000
2026-01-28 14:47:44.78	18.06	13.54	-51.8	-55.5	3.6	0.00e+00	0	48	104	0	60	70854
2026-01-28 14:47:45.79	17.76	13.52	-49.2	-54.4	3.6	0.00e+00	0	48	104	0	60	62194
2026-01-28 14:47:46.79	17.47	13.50	-49.8	-54.8	3.6	0.00e+00	0	48	104	0	60	64978
2026-01-28 14:47:47.80	17.18	13.47	-46.4	-53.5	3.6	0.00e+00	0	48	104	0	60	56026
2026-01-28 14:47:48.81	16.89	13.44	-49.9	-54.7	3.6	0.00e+00	0	48	104	0	60	64189
2026-01-28 14:47:49.82	16.60	13.42	-53.6	-56.7	3.6	0.00e+00	0	48	104	0	60	80686
2026-01-28 14:47:50.82	16.31	13.39	-44.1	-51.1	3.6	0.00e+00	0	48	104	0	60	42327
2026-01-28 14:47:51.83	16.02	13.37	-45.3	-52.0	3.6	0.00e+00	0	48	104	0	60	47129
2026-01-28 14:47:52.83	15.74	13.34	-52.3	-56.8	3.6	0.00e+00	0	48	104	0	60	81582
2026-01-28 14:47:53.84	15.45	13.31	-53.3	-58.0	3.6	0.00e+00	0	48	104	0	60	94235
2026-01-28 14:47:54.84	15.17	13.28	-51.4	-56.9	3.6	0.00e+00	0	48	104	0	60	82923
2026-01-28 14:47:55.85	14.88	13.25	-49.7	-55.2	3.6	0.00e+00	0	48	104	0	60	68136
2026-01-28 14:47:56.85	14.59	13.22	-53.4	-57.9	3.6	0.00e+00	0	48	104	0	60	92822
2026-01-28 14:47:57.86	14.31	13.19	-51.7	-57.0	3.6	0.00e+00	0	48	104	0	60	84177
2026-01-28 14:47:58.87	14.02	13.16	-50.3	-55.7	3.6	0.00e+00	0	48	104	0	60	72215
2026-01-28 14:47:59.87	13.74	13.13	-51.5	-56.7	3.6	0.00e+00	0	48	104	0	60	81374
2026-01-28 14:48:00.88	13.46	13.10	-54.2	-58.6	3.6	0.00e+00	0	48	104	0	60	101122
2026-01-28 14:48:01.89	13.18	13.06	-52.9	-57.5	3.6	0.00e+00	0	48	104	0	60	88750
2026-01-28 14:48:02.90	12.90	13.03	-54.4	-58.5	3.6	0.00e+00	0	48	104	0	60	100080
2026-01-28 14:48:03.90	12.62	13.00	-51.2	-56.4	3.6	0.00e+00	0	48	104	0	60	78040
2026-01-28 14:48:04.91	12.34	12.96	-52.8	-57.0	3.6	0.00e+00	0	48	104	0	60	83395
2026-01-28 14:48:05.92	12.06	12.93	-52.2	-56.3	3.6	0.00e+00	0	48	104	0	60	77337
2026-01-28 14:48:06.92	11.78	12.89	-50.5	-55.3	3.6	0.00e+00	0	48	104	0	60	69230
2026-01-28 14:48:07.93	11.50	12.86	-50.4	-55.4	3.6	0.00e+00	0	48	104	0	60	69545
2026-01-28 14:48:08.94	11.23	12.82	-51.8	-56.8	3.6	0.00e+00	0	48	104	0	60	81417
2026-01-28 14:48:09.94	10.95	12.78	-51.8	-57.5	3.6	0.00e+00	0	48	104	0	60	88447
2026-01-28 14:48:10.94	10.68	12.75	-53.3	-57.6	3.6	0.00e+00	0	48	104	0	60	89898
2026-01-28 14:48:11.94	10.41	12.71	-54.4	-58.4	3.6	0.00e+00	0	48	104	0	60	98323
2026-01-28 14:48:12.95	10.14	12.67	-53.0	-57.4	3.6	0.00e+00	0	48	104	0	60	88219
2026-01-28 14:48:13.95	9.87	12.63	-52.8	-57.2	3.6	0.00e+00	0	48	104	0	60	85485
2026-01-28 14:48:14.95	9.60	12.59	-54.2	-57.9	3.6	0.00e+00	0	48	104	0	60	93200
2026-01-28 14:48:15.96	9.33	12.55	-54.3	-58.1	3.6	0.00e+00	0	48	104	0	60	94712
2026-01-28 14:48:16.96	9.06	12.51	-52.8	-58.3	3.6	0.00e+00	0	48	104	0	60	96733
2026-01-28 14:48:17.97	8.79	12.47	-52.9	-57.4	3.6	0.00e+00	0	48	104	0	60	87456
2026-01-28 14:48:18.98	8.52	12.43	-53.8	-57.8	3.6	0.00e+00	0	48	104	0	60	92248
2026-01-28 14:48:19.99	8.25	12.39	-54.7	-58.4	3.6	0.00e+00	0	48	104	0	60	98595
2026-01-28 14:48:20.99	7.99	12.35	-52.3	-56.6	3.6	0.00e+00	0	48	104	0	60	80410
2026-01-28 14:48:22.00	7.73	12.31	-52.3	-56.5	3.6	0.00e+00	0	48	104	0	60	79173
2026-01-28 14:48:23.01	7.46	12.26	-52.4	-57.0	3.6	0.00e+00	0	48	104	0	60	83744
2026-01-28 14:48:24.02	7.20	12.22	-53.6	-57.8	3.6	0.00e+00	0	48	104	0	60	91461
2026-01-28 14:48:25.02	6.94	12.18	-53.3	-58.0	3.6	0.00e+00	0	48	104	0	60	94106
2026-01-28 14:48:26.02	6.68	12.13	-52.2	-57.1	3.6	0.00e+00	0	48	104	0	60	84786
2026-01-28 14:48:27.03	6.42	12.09	-54.0	-58.2	3.6	0.00e+00	0	48	104	0	60	96716
2026-01-28 14:48:28.03	6.16	12.04	-55.4	-59.0	3.6	0.00e+00	0	48	104	0	60	105656
2026-01-28 14:48:29.04	5.90	12.00	-54.6	-58.6	3.6	0.00e+00	0	48	104	0	60	100466
2026-01-28 14:48:30.04	5.65	11.95	-52.3	-57.7	3.5	0.00e+00	0	48	104	0	60	90588
2026-01-28 14:48:31.05	5.39	11.91	-53.8	-58.7	3.6	0.00e+00	0	48	104	0	60	102127
2026-01-28 14:48:32.06	5.13	11.86	-54.7	-59.2	3.6	0.00e+00	0	48	104	0	60	107774
2026-01-28 14:48:33.06	4.88	11.82	-52.7	-57.7	3.6	0.00e+00	0	48	104	0	60	91292
2026-01-28 14:48:34.07	4.63	11.77	-53.4	-58.5	3.6	0.00e+00	0	48	104	0	60	99434
2026-01-28 14:48:35.08	4.37	11.72	-55.1	-59.1	3.6	0.00e+00	0	48	104	0	60	106928
2026-01-28 14:48:36.09	4.12	11.67	-55.1	-58.8	3.6	0.00e+00	0	48	104	0	60	102709
2026-01-28 14:48:37.10	3.87	11.63	-54.6	-59.1	3.6	0.00e+00	0	48	104	0	60	106227
2026-01-28 14:48:38.10	3.62	11.58	-54.4	-58.6	3.6	0.00e+00	0	48	104	0	60	100717
2026-01-28 14:48:39.11	3.37	11.53	-55.3	-58.9	3.6	0.00e+00	0	48	104	0	60	104630
2026-01-28 14:48:40.12	3.13	11.48	-55.3	-58.9	3.6	0.00e+00	0	48	104	0	60	104707
2026-01-28 14:48:41.13	2.88	11.43	-55.5	-59.2	3.5	0.00e+00	0	48	104	0	60	107746
2026-01-28 14:48:42.13	2.63	11.38	-55.2	-59.1	3.6	0.00e+00	0	48	104	0	60	107040
2026-01-28 14:48:43.14	2.39	11.33	-54.5	-58.6	3.6	0.00e+00	0	48	104	0	60	100405
2026-01-28 14:48:44.15	2.15	11.28	-53.5	-58.6	3.6	0.00e+00	0	48	104	0	60	100270
2026-01-28 14:48:45.15	1.91	11.23	-53.7	-58.5	3.6	0.00e+00	0	48	104	0	60	99352
2026-01-28 14:48:46.15	1.67	11.18	-53.7	-58.4	3.6	0.00e+00	0	48	104	0	60	98924
2026-01-28 14:48:47.16	1.43	11.13	-54.3	-58.5	3.6	0.00e+00	0	48	104	0	60	99900
2026-01-28 14:48:48.17	1.19	11.08	-54.5	-58.6	3.6	0.00e+00	0	48	104	0	60	100558
2026-01-28 14:48:49.17	0.95	11.03	-52.4	-57.1	3.6	0.00e+00	0	48	104	0	60	84608
2026-01-28 14:48:50.18	0.71	10.98	-55.0	-58.9	3.6	0.00e+00	0	48	104	0	60	103886
2026-01-28 14:48:51.18	0.48	10.92	-52.3	-57.3	3.6	0.00e+00	0	48	104	0	60	86368
2026-01-28 14:48:52.19	0.24	10.87	-52.0	-57.3	3.6	0.00e+00	0	48	104	0	60	86993
2026-01-28 14:48:53.20	0.01	10.82	-53.0	-57.7	3.6	0.00e+00	0	48	104	0	60	90802
2026-01-28 14:48:54.21	359.77	10.77	-52.6	-57.5	3.6	0.00e+00	0	48	104	0	60	88495
2026-01-28 14:48:55.21	359.54	10.71	-52.3	-57.3	3.6	0.00e+00	0	48	104	0	60	87102
2026-01-28 14:48:56.22	359.31	10.66	-51.7	-57.1	3.6	0.00e+00	0	48	104	0	60	85199
2026-01-28 14:48:57.22	359.08	10.61	-52.5	-57.3	3.6	0.00e+00	0	48	104	0	60	86384
2026-01-28 14:48:58.23	358.85	10.55	-54.4	-58.6	3.6	0.00e+00	0	48	104	0	60	100387
2026-01-28 14:48:59.24	358.62	10.50	-51.9	-57.1	3.6	0.00e+00	0	48	104	0	60	85118
2026-01-28 14:49:00.24	358.40	10.45	-53.6	-57.7	3.6	0.00e+00	0	48	104	0	60	90573
2026-01-28 14:49:01.23	358.18	10.39	-50.8	-56.7	3.6	0.00e+00	0	48	104	0	60	80906
2026-01-28 14:49:02.24	357.95	10.34	-51.0	-56.7	3.5	0.00e+00	0	48	104	0	60	80605
2026-01-28 14:49:03.24	357.73	10.28	-52.3	-57.2	3.6	0.00e+00	0	48	104	0	60	85516
2026-01-28 14:49:04.25	357.51	10.23	-53.3	-57.5	3.6	0.00e+00	0	48	104	0	60	89063
2026-01-28 14:49:05.26	357.28	10.17	-53.4	-57.8	3.6	0.00e+00	0	48	104	0	60	91749
2026-01-28 14:49:06.27	357.06	10.12	-53.7	-58.1	3.6	0.00e+00	0	48	104	0	60	95475
2026-01-28 14:49:07.26	356.85	10.06	-54.0	-58.0	3.6	0.00e+00	0	48	104	0	60	93532
2026-01-28 14:49:08.27	356.63	10.01	-53.5	-57.9	3.6	0.00e+00	0	48	104	0	60	92618
2026-01-28 14:49:09.28	356.41	9.95	-53.5	-58.0	3.6	0.00e+00	0	48	104	0	60	94514
2026-01-28 14:49:10.29	356.19	9.89	-53.9	-58.1	3.6	0.00e+00	0	48	104	0	60	95248
2026-01-28 14:49:11.30	355.98	9.84	-53.5	-57.9	3.6	0.00e+00	0	48	104	0	60	92969
2026-01-28 14:49:12.30	355.76	9.78	-53.3	-57.8	3.6	0.00e+00	0	48	104	0	60	91676
2026-01-28 14:49:13.31	355.55	9.73	-54.2	-58.2	3.6	0.00e+00	0	48	104	0	60	95848
2026-01-28 14:49:14.32	355.34	9.67	-54.0	-58.1	3.6	0.00e+00	0	48	104	0	60	94572
2026-01-28 14:49:15.32	355.13	9.61	-54.5	-58.4	3.6	0.00e+00	0	48	104	0	60	98714
2026-01-28 14:49:16.33	354.92	9.56	-53.0	-57.8	3.5	0.00e+00	0	48	104	0	60	91789
2026-01-28 14:49:17.34	354.71	9.50	-53.7	-57.8	3.6	0.00e+00	0	48	104	0	60	91411
2026-01-28 14:49:18.34	354.50	9.44	-53.2	-57.9	3.6	0.00e+00	0	48	104	0	60	92447
2026-01-28 14:49:19.35	354.29	9.38	-53.1	-57.8	3.6	0.00e+00	0	48	104	0	60	91349
2026-01-28 14:49:20.36	354.09	9.33	-53.2	-57.7	3.6	0.00e+00	0	48	104	0	60	90924
2026-01-28 14:49:21.35	353.88	9.27	-52.8	-57.6	3.6	0.00e+00	0	48	104	0	60	89487
2026-01-28 14:49:22.36	353.68	9.21	-53.3	-57.7	3.6	0.00e+00	0	48	104	0	60	90565
2026-01-28 14:49:23.37	353.48	9.15	-54.0	-58.0	3.6	0.00e+00	0	48	104	0	60	94262
2026-01-28 14:49:24.38	353.27	9.10	-53.9	-57.9	3.6	0.00e+00	0	48	104	0	60	93257
2026-01-28 14:49:25.38	353.07	9.04	-53.2	-57.7	3.6	0.00e+00	0	48	104	0	60	90732
2026-01-28 14:49:26.39	352.87	8.98	-53.3	-57.9	3.6	0.00e+00	0	48	104	0	60	92405
2026-01-28 14:49:27.40	352.67	8.92	-53.9	-57.9	3.6	0.00e+00	0	48	104	0	60	93424
2026-01-28 14:49:28.40	352.48	8.86	-53.9	-58.0	3.6	0.00e+00	0	48	104	0	60	93879
2026-01-28 14:49:29.41	352.28	8.80	-52.9	-57.6	3.6	0.00e+00	0	48	104	0	60	89960
2026-01-28 14:49:30.41	352.08	8.75	-53.6	-57.9	3.6	0.00e+00	0	48	104	0	60	93141
2026-01-28 14:49:31.42	351.89	8.69	-53.9	-58.0	3.6	0.00e+00	0	48	104	0	60	93775
2026-01-28 14:49:32.42	351.69	8.63	-53.8	-58.0	3.5	0.00e+00	0	48	104	0	60	93480
2026-01-28 14:49:33.43	351.50	8.57	-52.8	-57.4	3.6	0.00e+00	0	48	104	0	60	88058
2026-01-28 14:49:34.44	351.31	8.51	-54.2	-58.3	3.6	0.00e+00	0	48	104	0	60	97219
2026-01-28 14:49:35.45	351.12	8.45	-52.2	-57.5	3.6	0.00e+00	0	48	104	0	60	89182
2026-01-28 14:49:36.45	350.93	8.39	-51.6	-57.2	3.6	0.00e+00	0	48	104	0	60	85353
2026-01-28 14:49:37.45	350.74	8.33	-52.8	-57.5	3.6	0.00e+00	0	48	104	0	60	89217
2026-01-28 14:49:38.45	350.55	8.28	-51.2	-56.8	3.6	0.00e+00	0	48	104	0	60	81581
2026-01-28 14:49:39.46	350.36	8.22	-51.5	-56.8	3.6	0.00e+00	0	48	104	0	60	82070
2026-01-28 14:49:40.46	350.18	8.16	-51.4	-56.8	3.6	0.00e+00	0	48	104	0	60	81400
2026-01-28 14:49:41.47	349.99	8.10	-50.4	-56.5	3.6	0.00e+00	0	48	104	0	60	79006
2026-01-28 14:49:42.48	349.81	8.04	-53.5	-57.6	3.6	0.00e+00	0	48	104	0	60	89378
2026-01-28 14:49:43.48	349.62	7.98	-53.5	-57.7	3.6	0.00e+00	0	48	104	0	60	90774
2026-01-28 14:49:44.49	349.44	7.92	-53.1	-57.4	3.6	0.00e+00	0	48	104	0	60	88199
2026-01-28 14:49:45.49	349.26	7.86	-48.8	-55.5	3.6	0.00e+00	0	48	104	0	60	70793
2026-01-28 14:49:46.50	349.08	7.80	-48.7	-55.5	3.6	0.00e+00	0	48	104	0	60	70104
2026-01-28 14:49:47.50	348.90	7.74	-47.9	-55.0	3.6	0.00e+00	0	48	104	0	60	66248
2026-01-28 14:49:48.51	348.72	7.68	-46.1	-53.6	3.6	0.00e+00	0	48	104	0	60	56754
2026-01-28 14:49:49.52	348.54	7.62	-46.3	-53.7	3.6	0.00e+00	0	48	104	0	60	57305
2026-01-28 14:49:50.52	348.37	7.56	-49.9	-56.0	3.6	0.00e+00	0	48	104	0	60	74712
2026-01-28 14:49:51.53	348.19	7.50	-46.4	-53.7	3.6	0.00e+00	0	48	104	0	60	57383
2026-01-28 14:49:52.54	348.01	7.44	-46.2	-53.7	3.6	0.00e+00	0	49	104	0	60	57238
2026-01-28 14:49:53.54	347.84	7.38	-46.6	-53.8	3.6	0.00e+00	0	48	104	0	60	57862
2026-01-28 14:49:54.55	347.67	7.32	-44.6	-52.5	3.6	0.00e+00	0	48	104	0	60	50174
2026-01-28 14:49:55.56	347.49	7.26	-44.7	-52.5	3.6	0.00e+00	0	48	104	0	60	49849
2026-01-28 14:49:56.56	347.32	7.20	-45.7	-53.0	3.6	0.00e+00	0	48	104	0	60	52990
2026-01-28 14:49:57.57	347.15	7.14	-46.2	-53.3	3.6	0.00e+00	0	48	104	0	60	54473
2026-01-28 14:49:58.57	346.98	7.08	-49.6	-55.8	3.6	0.00e+00	0	48	104	0	60	73262
2026-01-28 14:49:59.58	346.81	7.02	-47.1	-54.3	3.6	0.00e+00	0	48	104	0	60	61388
2026-01-28 14:50:00.59	346.65	6.96	-46.4	-53.8	3.6	0.00e+00	0	48	104	0	60	57866
2026-01-28 14:50:01.60	346.48	6.90	-47.9	-54.8	3.6	0.00e+00	0	48	104	0	60	65079
2026-01-28 14:50:02.60	346.31	6.84	-46.7	-54.0	3.6	0.00e+00	0	48	104	0	60	58970
2026-01-28 14:50:03.60	346.15	6.78	-47.1	-54.3	3.6	0.00e+00	0	48	104	0	60	61363
2026-01-28 14:50:04.61	345.98	6.72	-51.7	-57.0	3.6	0.00e+00	0	48	104	0	60	83392
2026-01-28 14:50:05.62	345.82	6.66	-48.6	-55.2	3.6	0.00e+00	0	48	104	0	60	68097
2026-01-28 14:50:06.62	345.66	6.60	-46.4	-53.7	3.6	0.00e+00	0	48	104	0	60	57249
2026-01-28 14:50:07.63	345.49	6.54	-46.8	-53.9	3.6	0.00e+00	0	48	104	0	60	58367
2026-01-28 14:50:08.63	345.33	6.48	-48.1	-54.8	3.6	0.00e+00	0	48	104	0	60	65054
2026-01-28 14:50:09.64	345.17	6.42	-48.8	-55.2	3.6	0.00e+00	0	48	104	0	60	68372
2026-01-28 14:50:10.64	345.01	6.36	-47.3	-54.2	3.6	0.00e+00	0	48	104	0	60	60339
2026-01-28 14:50:11.65	344.86	6.30	-47.4	-54.3	3.6	0.00e+00	0	48	104	0	60	61198
2026-01-28 14:50:12.66	344.70	6.24	-47.7	-54.7	3.6	0.00e+00	0	48	104	0	60	64443
2026-01-28 14:50:13.66	344.54	6.18	-47.6	-54.6	3.6	0.00e+00	0	48	104	0	60	63449
2026-01-28 14:50:14.67	344.38	6.12	-50.9	-56.5	3.6	0.00e+00	0	48	104	0	60	78782
2026-01-28 14:50:15.67	344.23	6.06	-48.7	-55.5	3.6	0.00e+00	0	48	104	0	60	70404
2026-01-28 14:50:16.68	344.07	6.00	-49.4	-56.0	3.6	0.00e+00	0	48	104	0	60	74430
2026-01-28 14:50:17.68	343.92	5.94	-54.6	-58.2	3.6	0.00e+00	0	48	104	0	60	95897
2026-01-28 14:50:18.69	343.77	5.88	-53.8	-58.7	3.6	0.00e+00	0	48	104	0	60	101540
2026-01-28 14:50:19.70	343.62	5.82	-55.8	-59.7	3.6	0.00e+00	0	48	104	0	60	114865
2026-01-28 14:50:20.71	343.46	5.76	-55.4	-59.3	3.6	0.00e+00	0	48	104	0	60	109412
2026-01-28 14:50:21.71	343.31	5.70	-55.7	-59.6	3.6	0.00e+00	0	48	104	0	60	112748
2026-01-28 14:50:22.71	343.17	5.65	-54.3	-59.1	3.6	0.00e+00	0	48	104	0	60	106150
2026-01-28 14:50:23.71	343.02	5.59	-55.7	-59.6	3.6	0.00e+00	0	48	104	0	60	112391
2026-01-28 14:50:24.72	342.87	5.53	-55.6	-59.8	3.6	0.00e+00	0	48	104	0	60	115254
2026-01-28 14:50:25.72	342.72	5.47	-56.7	-60.4	3.6	0.00e+00	0	48	104	0	60	123379
2026-01-28 14:50:26.73	342.58	5.41	-56.3	-60.2	3.6	0.00e+00	0	48	104	0	60	121546
2026-01-28 14:50:27.73	342.43	5.35	-56.3	-60.1	3.5	0.00e+00	0	48	104	0	60	120337
2026-01-28 14:50:28.75	342.28	5.29	-55.4	-59.6	3.6	0.00e+00	0	48	104	0	60	113215
2026-01-28 14:50:29.75	342.14	5.23	-56.3	-60.1	3.6	0.00e+00	0	48	104	0	60	119040
2026-01-28 14:50:30.76	342.00	5.17	-56.4	-60.4	3.6	0.00e+00	0	48	104	0	60	124284
2026-01-28 14:50:31.76	341.85	5.11	-57.1	-61.3	3.6	0.00e+00	0	48	104	0	60	137133
2026-01-28 14:50:32.77	341.71	5.05	-56.8	-61.3	3.6	0.00e+00	0	48	104	0	60	137396
2026-01-28 14:50:33.78	341.57	4.99	-55.6	-60.5	3.6	0.00e+00	0	48	104	0	60	124765
2026-01-28 14:50:34.79	341.43	4.93	-55.9	-60.4	3.6	0.00e+00	0	48	104	0	60	124145
2026-01-28 14:50:35.80	341.29	4.87	-56.3	-60.6	3.6	0.00e+00	0	48	104	0	60	127438
2026-01-28 14:50:36.81	341.15	4.81	-56.3	-60.7	3.6	0.00e+00	0	48	104	0	60	127795
2026-01-28 14:50:37.81	341.01	4.75	-56.2	-60.6	3.6	0.00e+00	0	48	104	0	60	126784
2026-01-28 14:50:38.82	340.87	4.69	-56.3	-60.7	3.6	0.00e+00	0	48	104	0	60	127787
2026-01-28 14:50:39.83	340.74	4.63	-56.3	-60.6	3.6	0.00e+00	0	48	104	0	60	126608
2026-01-28 14:50:40.84	340.60	4.57	-56.3	-60.6	3.6	0.00e+00	0	48	104	0	60	127060
2026-01-28 14:50:41.84	340.46	4.52	-56.3	-60.6	3.6	0.00e+00	0	48	104	0	60	126311
2026-01-28 14:50:42.85	340.33	4.46	-56.2	-60.6	3.6	0.00e+00	0	48	104	0	60	126080
2026-01-28 14:50:43.85	340.20	4.40	-56.2	-60.6	3.6	0.00e+00	0	49	104	0	60	126381
2026-01-28 14:50:44.86	340.06	4.34	-56.2	-60.5	3.6	0.00e+00	0	48	104	0	60	124906
2026-01-28 14:50:45.86	339.93	4.28	-56.2	-60.5	3.6	0.00e+00	0	48	104	0	60	125053
2026-01-28 14:50:46.87	339.80	4.22	-56.2	-60.5	3.6	0.00e+00	0	48	104	0	60	124858
2026-01-28 14:50:47.87	339.67	4.16	-56.1	-60.5	3.6	0.00e+00	0	48	104	0	60	124899
2026-01-28 14:50:48.87	339.54	4.10	-56.1	-60.5	3.6	0.00e+00	0	48	104	0	60	124663
2026-01-28 14:50:49.88	339.41	4.05	-56.1	-60.4	3.6	0.00e+00	0	48	104	0	60	124121
2026-01-28 14:50:50.89	339.28	3.99	-56.1	-60.4	3.6	0.00e+00	0	48	104	0	60	124003
2026-01-28 14:50:51.90	339.15	3.93	-56.1	-60.4	3.6	0.00e+00	0	48	104	0	60	124283
2026-01-28 14:50:52.90	339.02	3.87	-56.1	-60.4	3.6	0.00e+00	0	48	104	0	60	123872
2026-01-28 14:50:53.91	338.89	3.81	-56.1	-60.4	3.6	0.00e+00	0	48	104	0	60	124375
2026-01-28 14:50:54.92	338.77	3.75	-56.1	-60.5	3.6	0.00e+00	0	48	104	0	60	125004
2026-01-28 14:50:55.92	338.64	3.69	-56.1	-60.5	3.6	0.00e+00	0	48	104	0	60	124891
2026-01-28 14:50:56.92	338.52	3.64	-56.1	-60.5	3.6	0.00e+00	0	48	104	0	60	124624
2026-01-28 14:50:57.93	338.39	3.58	-56.1	-60.4	3.6	0.00e+00	0	48	104	0	60	123935
2026-01-28 14:50:58.93	338.27	3.52	-56.1	-60.4	3.6	0.00e+00	0	48	104	0	60	124317
2026-01-28 14:50:59.94	338.14	3.46	-56.1	-60.4	3.6	0.00e+00	0	49	104	0	60	123505
2026-01-28 14:51:00.94	338.02	3.40	-56.1	-60.4	3.6	0.00e+00	0	48	104	0	60	123693
2026-01-28 14:51:01.94	337.90	3.35	-56.0	-60.4	3.5	0.00e+00	0	48	104	0	60	123523
2026-01-28 14:51:02.95	337.78	3.29	-56.0	-60.4	3.6	0.00e+00	0	48	104	0	60	123358
2026-01-28 14:51:03.96	337.66	3.23	-56.0	-60.4	3.6	0.00e+00	0	48	104	0	60	123395
2026-01-28 14:51:04.96	337.54	3.17	-56.0	-60.3	3.6	0.00e+00	0	48	104	0	60	122657
2026-01-28 14:51:05.97	337.42	3.12	-56.0	-60.3	3.6	0.00e+00	0	48	104	0	60	122897
2026-01-28 14:51:06.98	337.30	3.06	-56.1	-60.4	3.6	0.00e+00	0	48	104	0	60	123490
2026-01-28 14:51:07.99	337.18	3.00	-56.0	-60.3	3.6	0.00e+00	0	48	104	0	60	122977
2026-01-28 14:51:09.00	337.06	2.94	-56.0	-60.3	3.6	0.00e+00	0	48	104	0	60	122754
2026-01-28 14:51:10.00	336.94	2.88	-56.0	-60.4	3.6	0.00e+00	0	48	104	0	60	123585
2026-01-28 14:51:11.01	336.83	2.83	-56.0	-60.3	3.6	0.00e+00	0	48	104	0	60	122888
2026-01-28 14:51:12.02	336.71	2.77	-55.9	-60.3	3.5	0.00e+00	0	48	104	0	60	121822
2026-01-28 14:51:13.03	336.59	2.71	-55.9	-60.2	3.6	0.00e+00	0	48	104	0	60	120491
2026-01-28 14:51:14.04	336.48	2.65	-55.8	-60.2	3.6	0.00e+00	0	48	104	0	60	121032
2026-01-28 14:51:15.04	336.37	2.60	-55.8	-60.2	3.6	0.00e+00	0	48	104	0	60	120697
2026-01-28 14:51:16.05	336.25	2.54	-55.8	-60.1	3.6	0.00e+00	0	48	104	0	60	119876
2026-01-28 14:51:17.06	336.14	2.48	-55.7	-60.0	3.5	0.00e+00	0	48	104	0	60	118953
2026-01-28 14:51:18.06	336.03	2.43	-55.8	-60.1	3.6	0.00e+00	0	48	104	0	60	119983
2026-01-28 14:51:19.07	335.91	2.37	-55.8	-60.1	3.6	0.00e+00	0	48	104	0	60	120148
2026-01-28 14:51:20.08	335.80	2.31	-55.8	-60.1	3.6	0.00e+00	0	48	104	0	60	119698
2026-01-28 14:51:21.09	335.69	2.26	-55.8	-60.1	3.6	0.00e+00	0	48	104	0	60	119802
2026-01-28 14:51:22.10	335.58	2.20	-55.8	-60.2	3.6	0.00e+00	0	48	104	0	60	120491
2026-01-28 14:51:23.10	335.47	2.14	-55.8	-60.2	3.6	0.00e+00	0	48	104	0	60	120789
2026-01-28 14:51:24.11	335.36	2.09	-55.8	-60.1	3.6	0.00e+00	0	48	104	0	60	119991
2026-01-28 14:51:25.12	335.25	2.03	-55.8	-60.2	3.6	0.00e+00	0	48	104	0	60	120540
2026-01-28 14:51:26.13	335.14	1.97	-55.8	-60.1	3.6	0.00e+00	0	48	104	0	60	119525
2026-01-28 14:51:27.13	335.04	1.92	-55.8	-60.1	3.6	0.00e+00	0	48	104	0	60	120091
2026-01-28 14:51:28.14	334.93	1.86	-55.8	-60.2	3.6	0.00e+00	0	48	104	0	60	120626
2026-01-28 14:51:29.15	334.82	1.80	-55.9	-60.1	3.6	0.00e+00	0	48	104	0	60	120196
2026-01-28 14:51:30.16	334.72	1.75	-55.9	-60.1	3.5	0.00e+00	0	48	104	0	60	119796
2026-01-28 14:51:31.16	334.61	1.69	-55.9	-60.1	3.6	0.00e+00	0	49	104	0	60	120208
2026-01-28 14:51:32.17	334.51	1.63	-55.8	-60.1	3.6	0.00e+00	0	48	104	0	60	120124
2026-01-28 14:51:33.17	334.40	1.58	-55.8	-60.1	3.6	0.00e+00	0	48	104	0	60	119503
2026-01-28 14:51:34.18	334.30	1.52	-55.8	-60.0	3.6	0.00e+00	0	48	104	0	60	118621
2026-01-28 14:51:35.18	334.20	1.47	-55.7	-60.1	3.6	0.00e+00	0	48	104	0	60	119230
2026-01-28 14:51:36.19	334.09	1.41	-55.8	-60.1	3.6	0.00e+00	0	48	104	0	60	119713
2026-01-28 14:51:37.20	333.99	1.35	-55.8	-60.0	3.6	0.00e+00	0	48	104	0	60	118668
2026-01-28 14:51:38.21	333.89	1.30	-55.8	-60.1	3.6	0.00e+00	0	48	104	0	60	119558
2026-01-28 14:51:39.22	333.79	1.24	-55.8	-60.1	3.6	0.00e+00	0	48	104	0	60	119219
2026-01-28 14:51:40.22	333.69	1.19	-55.8	-60.0	3.6	0.00e+00	0	48	104	0	60	118563
2026-01-28 14:51:41.23	333.59	1.13	-55.8	-60.1	3.6	0.00e+00	0	48	104	0	60	119051
2026-01-28 14:51:42.24	333.49	1.08	-55.9	-60.1	3.6	0.00e+00	0	48	104	0	60	119318
2026-01-28 14:51:43.24	333.39	1.02	-55.8	-60.1	3.6	0.00e+00	0	48	104	0	60	119644
2026-01-28 14:51:44.25	333.29	0.97	-55.8	-60.0	3.6	0.00e+00	0	48	104	0	60	118637
2026-01-28 14:51:45.26	333.19	0.91	-55.8	-60.0	3.6	0.00e+00	0	48	104	0	60	118689
2026-01-28 14:51:46.26	333.09	0.86	-55.8	-60.1	3.6	0.00e+00	0	48	104	0	60	119020
2026-01-28 14:51:47.27	332.99	0.80	-55.7	-60.0	3.6	0.00e+00	0	48	104	0	60	118281
2026-01-28 14:51:48.27	332.90	0.75	-55.7	-60.1	3.6	0.00e+00	0	48	104	0	60	119095
2026-01-28 14:51:49.27	332.80	0.69	-55.7	-60.0	3.6	0.00e+00	0	48	104	0	60	118749
2026-01-28 14:51:50.28	332.71	0.64	-55.7	-60.0	3.6	0.00e+00	0	48	104	0	60	118409
2026-01-28 14:51:51.28	332.61	0.58	-55.7	-60.0	3.6	0.00e+00	0	48	104	0	60	118849
2026-01-28 14:51:52.28	332.52	0.53	-55.7	-60.0	3.6	0.00e+00	0	48	104	0	60	118443
2026-01-28 14:51:53.29	332.42	0.47	-55.7	-60.0	3.6	0.00e+00	0	48	104	0	60	118010
2026-01-28 14:51:54.29	332.33	0.42	-55.7	-60.0	3.6	0.00e+00	0	48	104	0	60	117670
2026-01-28 14:51:55.30	332.23	0.36	-55.7	-60.0	3.6	0.00e+00	0	48	104	0	60	118420
2026-01-28 14:51:56.30	332.14	0.31	-55.7	-60.0	3.6	0.00e+00	0	48	104	0	60	117902
2026-01-28 14:51:57.31	332.05	0.26	-55.7	-60.0	3.6	0.00e+00	0	48	104	0	60	117828
2026-01-28 14:51:58.32	331.95	0.20	-55.7	-60.0	3.6	0.00e+00	0	48	104	0	60	118450
2026-01-28 14:51:59.32	331.86	0.15	-55.7	-59.9	3.6	0.00e+00	0	48	104	0	60	117609
2026-01-28 14:52:00.33	331.77	0.09	-55.6	-60.0	3.6	0.00e+00	0	48	104	0	60	117850
2026-01-28 14:52:01.33	331.68	0.04	-55.7	-60.0	3.6	0.00e+00	0	48	104	0	60	118107
2026-01-28 14:52:02.34	331.59	-0.02	-55.7	-60.0	3.6	0.00e+00	0	48	104	0	60	117767
2026-01-28 14:52:03.35	331.50	-0.07	-55.7	-60.0	3.6	0.00e+00	0	48	104	0	60	117822

#Closed at: 2026-01-28 14:52:04
#Recorded file [0 MB]: D:/Data/35015_260128_175052.dat