passes_logs/2026/01/28/R3.2S-Naryan-Mar/R3.2S-Naryan-Mar__20260128_172607_TY-40_rec.log

#Pass ID: 20260128_172607_TY-40
#Satellite: TY-40
#Configuration: TY-39
#almurnet v.1.7.20240730
#Start time: 2026-01-28 17:26:09

#Version: 2.2.20231116
#Station: R3.2S-Naryan-Mar
#Location: 53.008057 lon 67.646978 lat
#TLE: 1 56846U 23081A   26027.86322491  .00005171  00000-0  23026-3 0  9995
#TLE: 2 56846  97.3872 100.5479 0001461  75.1546 284.9852 15.21887283146669

#Time	Az	El	Level	Level2	SNR	BER	BlckErr	Temp	State	Recorded	gain1	gain2
2026-01-28 17:26:09.67	159.27	0.13	-55.8	-58.8	3.3	0.00e+00	0	44	0	0	60	103569
2026-01-28 17:26:10.67	159.27	0.20	-54.1	-58.7	3.6	0.00e+00	0	45	104	0	60	101489
2026-01-28 17:26:11.68	159.28	0.26	-55.0	-59.0	3.6	0.00e+00	0	45	104	0	60	105732
2026-01-28 17:26:12.68	159.29	0.33	-55.6	-59.3	3.5	0.00e+00	0	45	104	0	60	109316
2026-01-28 17:26:13.69	159.29	0.40	-55.9	-59.7	3.6	0.00e+00	0	45	104	0	60	114088
2026-01-28 17:26:14.70	159.30	0.46	-56.0	-59.8	3.6	0.00e+00	0	45	104	0	60	114971
2026-01-28 17:26:15.70	159.30	0.53	-56.0	-60.0	3.6	0.00e+00	0	45	104	0	60	118084
2026-01-28 17:26:16.71	159.31	0.59	-55.8	-60.0	3.6	0.00e+00	0	46	104	0	60	118153
2026-01-28 17:26:17.71	159.32	0.66	-56.2	-60.3	3.6	0.00e+00	0	45	104	0	60	121956
2026-01-28 17:26:18.71	159.32	0.73	-56.3	-60.6	3.5	0.00e+00	0	46	104	0	60	126628
2026-01-28 17:26:19.72	159.33	0.79	-55.9	-60.1	3.6	0.00e+00	0	46	104	0	60	119440
2026-01-28 17:26:20.73	159.33	0.86	-56.5	-60.6	3.6	0.00e+00	0	46	104	0	60	127200
2026-01-28 17:26:21.74	159.34	0.93	-56.7	-60.7	3.6	0.00e+00	0	46	104	0	60	128175
2026-01-28 17:26:22.74	159.35	0.99	-56.3	-60.3	3.6	0.00e+00	0	46	104	0	60	122008
2026-01-28 17:26:23.75	159.35	1.06	-56.6	-60.5	3.6	0.00e+00	0	46	104	0	60	125043
2026-01-28 17:26:24.76	159.36	1.13	-56.7	-60.5	3.5	0.00e+00	0	46	104	0	60	124895
2026-01-28 17:26:25.76	159.36	1.20	-56.3	-60.1	3.6	0.00e+00	0	46	104	0	60	119320
2026-01-28 17:26:26.77	159.37	1.27	-55.9	-59.6	3.6	0.00e+00	0	46	104	0	60	113337
2026-01-28 17:26:27.78	159.38	1.33	-55.5	-59.2	3.6	0.00e+00	0	46	104	0	60	107905
2026-01-28 17:26:28.78	159.38	1.40	-55.2	-58.9	3.6	0.00e+00	0	46	104	0	60	103960
2026-01-28 17:26:29.79	159.39	1.47	-55.2	-58.9	3.6	0.00e+00	0	46	104	0	60	104237
2026-01-28 17:26:30.80	159.40	1.54	-55.2	-58.9	3.6	0.00e+00	0	46	104	0	60	104084
2026-01-28 17:26:31.80	159.40	1.61	-55.2	-58.9	3.5	0.00e+00	0	46	104	0	60	104108
2026-01-28 17:26:32.81	159.41	1.68	-55.1	-58.8	3.6	0.00e+00	0	46	104	0	60	103136
2026-01-28 17:26:33.81	159.41	1.75	-55.1	-58.7	3.6	0.00e+00	0	46	104	0	60	102450
2026-01-28 17:26:34.81	159.42	1.82	-55.0	-58.8	3.6	0.00e+00	0	46	104	0	60	102533
2026-01-28 17:26:35.82	159.43	1.89	-55.0	-58.7	3.6	0.00e+00	0	46	104	0	60	101716
2026-01-28 17:26:36.83	159.43	1.96	-55.0	-58.6	3.6	0.00e+00	0	46	104	0	60	101198
2026-01-28 17:26:37.84	159.44	2.03	-54.9	-58.6	3.6	0.00e+00	0	46	104	0	60	101144
2026-01-28 17:26:38.84	159.45	2.10	-54.9	-58.6	3.6	0.00e+00	0	46	104	0	60	100601
2026-01-28 17:26:39.85	159.45	2.17	-54.9	-58.6	3.5	0.00e+00	0	46	104	0	60	100325
2026-01-28 17:26:40.86	159.46	2.24	-54.8	-58.5	3.6	0.00e+00	0	46	104	0	60	99921
2026-01-28 17:26:41.87	159.47	2.32	-54.8	-58.5	3.6	0.00e+00	0	46	104	0	60	99643
2026-01-28 17:26:42.87	159.47	2.39	-54.8	-58.5	3.6	0.00e+00	0	46	104	0	60	99501
2026-01-28 17:26:43.88	159.48	2.46	-54.8	-58.5	3.6	0.00e+00	0	46	104	0	60	99074
2026-01-28 17:26:44.89	159.49	2.53	-54.8	-58.5	3.6	0.00e+00	0	46	104	0	60	99625
2026-01-28 17:26:45.90	159.49	2.60	-54.8	-58.5	3.6	0.00e+00	0	46	104	0	60	99029
2026-01-28 17:26:46.90	159.50	2.68	-54.8	-58.5	3.6	0.00e+00	0	46	104	0	60	99109
2026-01-28 17:26:47.91	159.51	2.75	-54.7	-58.5	3.6	0.00e+00	0	46	104	0	60	99226
2026-01-28 17:26:48.91	159.51	2.82	-54.7	-58.5	3.6	0.00e+00	0	46	104	0	60	98989
2026-01-28 17:26:49.92	159.52	2.90	-54.8	-58.5	3.6	0.00e+00	0	46	104	0	60	99502
2026-01-28 17:26:50.92	159.53	2.97	-54.7	-58.4	3.6	0.00e+00	0	46	104	0	60	98803
2026-01-28 17:26:51.93	159.53	3.04	-54.8	-58.4	3.6	0.00e+00	0	46	104	0	60	98700
2026-01-28 17:26:52.93	159.54	3.12	-54.8	-58.4	3.6	0.00e+00	0	46	104	0	60	98396
2026-01-28 17:26:53.94	159.55	3.19	-54.7	-58.4	3.6	0.00e+00	0	46	104	0	60	98754
2026-01-28 17:26:54.94	159.55	3.27	-54.7	-58.5	3.6	0.00e+00	0	46	104	0	60	99106
2026-01-28 17:26:55.95	159.56	3.34	-54.7	-58.4	3.6	0.00e+00	0	46	104	0	60	98527
2026-01-28 17:26:56.96	159.57	3.42	-54.7	-58.5	3.5	0.00e+00	0	47	104	0	60	99154
2026-01-28 17:26:57.96	159.57	3.49	-54.7	-58.4	3.6	0.00e+00	0	47	104	0	60	98133
2026-01-28 17:26:58.97	159.58	3.57	-54.7	-58.4	3.6	0.00e+00	0	46	104	0	60	98868
2026-01-28 17:26:59.98	159.59	3.65	-54.7	-58.4	3.6	0.00e+00	0	47	104	0	60	98379
2026-01-28 17:27:00.99	159.59	3.72	-54.7	-58.4	3.6	0.00e+00	0	47	104	0	60	98761
2026-01-28 17:27:01.98	159.60	3.80	-54.7	-58.4	3.6	0.00e+00	0	47	104	0	60	98279
2026-01-28 17:27:02.98	159.61	3.88	-54.7	-58.4	3.6	0.00e+00	0	47	104	0	60	98916
2026-01-28 17:27:03.99	159.61	3.95	-54.7	-58.4	3.6	0.00e+00	0	47	104	0	60	98545
2026-01-28 17:27:05.00	159.62	4.03	-54.7	-58.4	3.6	0.00e+00	0	47	104	0	60	98482
2026-01-28 17:27:06.01	159.63	4.11	-54.7	-58.4	3.6	0.00e+00	0	47	104	0	60	98391
2026-01-28 17:27:07.02	159.63	4.19	-54.7	-58.4	3.6	0.00e+00	0	47	104	0	60	98424
2026-01-28 17:27:08.02	159.64	4.27	-54.7	-58.4	3.6	0.00e+00	0	47	104	0	60	97991
2026-01-28 17:27:09.03	159.65	4.34	-54.7	-58.4	3.6	0.00e+00	0	47	104	0	60	98183
2026-01-28 17:27:10.04	159.66	4.42	-54.7	-58.4	3.6	0.00e+00	0	47	104	0	60	98690
2026-01-28 17:27:11.05	159.66	4.50	-54.7	-58.4	3.6	0.00e+00	0	47	104	0	60	98078
2026-01-28 17:27:12.06	159.67	4.58	-54.7	-58.4	3.6	0.00e+00	0	47	104	0	60	98387
2026-01-28 17:27:13.06	159.68	4.66	-54.7	-58.4	3.6	0.00e+00	0	47	104	0	60	97944
2026-01-28 17:27:14.06	159.68	4.74	-54.7	-58.4	3.6	0.00e+00	0	47	104	0	60	97915
2026-01-28 17:27:15.07	159.69	4.82	-54.7	-58.4	3.6	0.00e+00	0	47	104	0	60	97851
2026-01-28 17:27:16.07	159.70	4.91	-54.7	-58.4	3.6	0.00e+00	0	47	104	0	60	98271
2026-01-28 17:27:17.08	159.71	4.99	-54.7	-58.3	3.6	0.00e+00	0	47	104	0	60	97407
2026-01-28 17:27:18.09	159.71	5.07	-54.6	-58.3	3.6	0.00e+00	0	47	104	0	60	97785
2026-01-28 17:27:19.10	159.72	5.15	-54.6	-58.4	3.6	0.00e+00	0	47	104	0	60	97857
2026-01-28 17:27:20.11	159.73	5.23	-54.6	-58.3	3.6	0.00e+00	0	47	104	0	60	97420
2026-01-28 17:27:21.11	159.74	5.32	-54.6	-58.4	3.6	0.00e+00	0	47	104	0	60	98049
2026-01-28 17:27:22.12	159.74	5.40	-54.6	-58.4	3.6	0.00e+00	0	47	104	0	60	98390
2026-01-28 17:27:23.13	159.75	5.48	-54.6	-58.3	3.6	0.00e+00	0	47	104	0	60	97504
2026-01-28 17:27:24.13	159.76	5.57	-54.6	-58.3	3.6	0.00e+00	0	47	104	0	60	97816
2026-01-28 17:27:25.14	159.77	5.65	-54.6	-58.4	3.6	0.00e+00	0	47	104	0	60	98177
2026-01-28 17:27:26.14	159.77	5.74	-54.6	-58.3	3.5	0.00e+00	0	47	104	0	60	97589
2026-01-28 17:27:27.15	159.78	5.82	-54.6	-58.4	3.6	0.00e+00	0	47	104	0	60	97855
2026-01-28 17:27:28.16	159.79	5.91	-54.6	-58.3	3.6	0.00e+00	0	47	104	0	60	97564
2026-01-28 17:27:29.17	159.80	5.99	-54.6	-58.3	3.6	0.00e+00	0	47	104	0	60	97139
2026-01-28 17:27:30.18	159.80	6.08	-54.6	-58.3	3.6	0.00e+00	0	47	104	0	60	97279
2026-01-28 17:27:31.18	159.81	6.17	-54.6	-58.4	3.6	0.00e+00	0	47	104	0	60	98931
2026-01-28 17:27:32.19	159.82	6.25	-54.8	-58.5	3.6	0.00e+00	0	47	104	0	60	99194
2026-01-28 17:27:33.20	159.83	6.34	-54.6	-58.3	3.6	0.00e+00	0	47	104	0	60	97172
2026-01-28 17:27:34.21	159.83	6.43	-54.7	-58.4	3.6	0.00e+00	0	47	104	0	60	98413
2026-01-28 17:27:35.21	159.84	6.52	-54.8	-58.4	3.6	0.00e+00	0	47	104	0	60	98723
2026-01-28 17:27:36.21	159.85	6.60	-54.9	-58.5	3.6	0.00e+00	0	47	104	0	60	99925
2026-01-28 17:27:37.21	159.86	6.69	-54.7	-58.4	3.6	0.00e+00	0	47	104	0	60	97980
2026-01-28 17:27:38.22	159.87	6.78	-54.6	-58.3	3.6	0.00e+00	0	47	104	0	60	97829
2026-01-28 17:27:39.23	159.87	6.87	-54.8	-58.5	3.6	0.00e+00	0	47	104	0	60	99602
2026-01-28 17:27:40.24	159.88	6.96	-54.9	-58.6	3.6	0.00e+00	0	47	104	0	60	100599
2026-01-28 17:27:41.25	159.89	7.05	-54.6	-58.3	3.6	0.00e+00	0	47	104	0	60	97456
2026-01-28 17:27:42.26	159.90	7.14	-54.6	-58.3	3.6	0.00e+00	0	47	104	0	60	97801
2026-01-28 17:27:43.26	159.91	7.24	-54.8	-58.6	3.6	0.00e+00	0	47	104	0	60	100258
2026-01-28 17:27:44.27	159.91	7.33	-54.8	-58.6	3.6	0.00e+00	0	47	104	0	60	100793
2026-01-28 17:27:45.28	159.92	7.42	-54.6	-58.4	3.5	0.00e+00	0	47	104	0	60	97873
2026-01-28 17:27:46.29	159.93	7.51	-54.7	-58.5	3.6	0.00e+00	0	47	104	0	60	99489
2026-01-28 17:27:47.28	159.94	7.60	-54.9	-58.6	3.6	0.00e+00	0	47	104	0	60	100952
2026-01-28 17:27:48.29	159.95	7.70	-54.8	-58.6	3.6	0.00e+00	0	47	104	0	60	100683
2026-01-28 17:27:49.30	159.96	7.79	-54.6	-58.4	3.6	0.00e+00	0	47	104	0	60	97865
2026-01-28 17:27:50.30	159.96	7.89	-54.7	-58.4	3.6	0.00e+00	0	47	104	0	60	98703
2026-01-28 17:27:51.31	159.97	7.98	-54.8	-58.5	3.6	0.00e+00	0	47	104	0	60	99737
2026-01-28 17:27:52.32	159.98	8.08	-54.9	-58.7	3.6	0.00e+00	0	47	104	0	60	101368
2026-01-28 17:27:53.32	159.99	8.17	-54.7	-58.4	3.6	0.00e+00	0	47	104	0	60	98079
2026-01-28 17:27:54.32	160.00	8.27	-54.7	-58.4	3.6	0.00e+00	0	47	104	0	60	98773
2026-01-28 17:27:55.33	160.01	8.37	-54.8	-58.5	3.6	0.00e+00	0	47	104	0	60	99907
2026-01-28 17:27:56.34	160.02	8.47	-55.0	-58.7	3.6	0.00e+00	0	47	104	0	60	102410
2026-01-28 17:27:57.34	160.02	8.56	-54.8	-58.5	3.6	0.00e+00	0	47	104	0	60	99535
2026-01-28 17:27:58.34	160.03	8.66	-54.7	-58.5	3.6	0.00e+00	0	47	104	0	60	98989
2026-01-28 17:27:59.35	160.04	8.76	-54.8	-58.6	3.6	0.00e+00	0	47	104	0	60	100800
2026-01-28 17:28:00.35	160.05	8.86	-55.0	-58.8	3.6	0.00e+00	0	47	104	0	60	102924
2026-01-28 17:28:01.36	160.06	8.96	-54.8	-58.5	3.6	0.00e+00	0	47	104	0	60	99971
2026-01-28 17:28:02.36	160.07	9.06	-54.8	-58.6	3.6	0.00e+00	0	47	104	0	60	100487
2026-01-28 17:28:03.36	160.08	9.16	-54.9	-58.6	3.6	0.00e+00	0	47	104	0	60	101208
2026-01-28 17:28:04.37	160.09	9.26	-55.0	-58.7	3.6	0.00e+00	0	47	104	0	60	101828
2026-01-28 17:28:05.37	160.09	9.36	-54.8	-58.5	3.6	0.00e+00	0	47	104	0	60	99700
2026-01-28 17:28:06.38	160.10	9.47	-54.9	-58.6	3.5	0.00e+00	0	47	104	0	60	100588
2026-01-28 17:28:07.39	160.11	9.57	-55.0	-58.7	3.6	0.00e+00	0	47	104	0	60	101998
2026-01-28 17:28:08.39	160.12	9.67	-55.0	-58.7	3.6	0.00e+00	0	47	104	0	60	101930
2026-01-28 17:28:09.39	160.13	9.78	-54.7	-58.5	3.6	0.00e+00	0	47	104	0	60	100000
2026-01-28 17:28:10.40	160.14	9.88	-54.9	-58.6	3.6	0.00e+00	0	47	104	0	60	101272
2026-01-28 17:28:11.40	160.15	9.99	-55.0	-58.7	3.6	0.00e+00	0	47	104	0	60	102091
2026-01-28 17:28:12.40	160.16	10.10	-55.0	-58.8	3.6	0.00e+00	0	47	104	0	60	102859
2026-01-28 17:28:13.40	160.17	10.20	-54.8	-58.6	3.6	0.00e+00	0	47	104	0	60	101086
2026-01-28 17:28:14.40	160.18	10.31	-54.9	-58.7	3.6	0.00e+00	0	47	104	0	60	101449
2026-01-28 17:28:15.41	160.19	10.42	-55.0	-58.8	3.6	0.00e+00	0	47	104	0	60	102774
2026-01-28 17:28:16.41	160.20	10.53	-55.1	-58.9	3.5	0.00e+00	0	47	104	0	60	103983
2026-01-28 17:28:17.41	160.21	10.63	-55.0	-58.7	3.6	0.00e+00	0	47	104	0	60	102035
2026-01-28 17:28:18.42	160.22	10.75	-54.9	-58.7	3.6	0.00e+00	0	47	104	0	60	102070
2026-01-28 17:28:19.43	160.23	10.86	-55.1	-58.8	3.6	0.00e+00	0	47	104	0	60	103428
2026-01-28 17:28:20.43	160.24	10.97	-55.1	-58.9	3.6	0.00e+00	0	47	104	0	60	104560
2026-01-28 17:28:21.43	160.24	11.08	-55.0	-58.7	3.6	0.00e+00	0	47	104	0	60	102262
2026-01-28 17:28:22.44	160.25	11.19	-55.0	-58.8	3.6	0.00e+00	0	47	104	0	60	103253
2026-01-28 17:28:23.44	160.26	11.30	-55.2	-58.9	3.6	0.00e+00	0	47	104	0	60	104081
2026-01-28 17:28:24.44	160.27	11.42	-55.2	-59.0	3.6	0.00e+00	0	47	104	0	60	105353
2026-01-28 17:28:25.44	160.28	11.53	-55.0	-58.8	3.6	0.00e+00	0	47	104	0	60	102479
2026-01-28 17:28:26.45	160.29	11.65	-55.1	-58.9	3.6	0.00e+00	0	47	104	0	60	103903
2026-01-28 17:28:27.46	160.31	11.77	-55.3	-59.0	3.6	0.00e+00	0	47	104	0	60	105124
2026-01-28 17:28:28.47	160.32	11.88	-55.3	-58.9	3.6	0.00e+00	0	48	104	0	60	104634
2026-01-28 17:28:29.47	160.33	12.00	-55.1	-58.9	3.6	0.00e+00	0	47	104	0	60	103681
2026-01-28 17:28:30.47	160.34	12.12	-55.2	-58.9	3.6	0.00e+00	0	47	104	0	60	104464
2026-01-28 17:28:31.48	160.35	12.24	-55.3	-59.0	3.6	0.00e+00	0	48	104	0	60	105915
2026-01-28 17:28:32.49	160.36	12.36	-55.3	-59.0	3.6	0.00e+00	0	47	104	0	60	105513
2026-01-28 17:28:33.50	160.37	12.48	-55.1	-58.8	3.6	0.00e+00	0	48	104	0	60	103561
2026-01-28 17:28:34.50	160.38	12.60	-55.2	-58.9	3.6	0.00e+00	0	48	104	0	60	104779
2026-01-28 17:28:35.51	160.39	12.72	-55.3	-59.0	3.6	0.00e+00	0	48	104	0	60	105911
2026-01-28 17:28:36.52	160.40	12.85	-55.3	-59.0	3.6	0.00e+00	0	48	104	0	60	105735
2026-01-28 17:28:37.53	160.41	12.97	-55.2	-59.0	3.6	0.00e+00	0	48	104	0	60	105202
2026-01-28 17:28:38.54	160.42	13.10	-55.3	-58.9	3.6	0.00e+00	0	47	104	0	60	104622
2026-01-28 17:28:39.54	160.43	13.22	-55.3	-59.1	3.6	0.00e+00	0	47	104	0	60	106302
2026-01-28 17:28:40.55	160.44	13.35	-55.4	-59.1	3.6	0.00e+00	0	48	104	0	60	106768
2026-01-28 17:28:41.56	160.46	13.48	-55.3	-59.0	3.6	0.00e+00	0	48	104	0	60	105648
2026-01-28 17:28:42.56	160.47	13.61	-55.3	-59.0	3.6	0.00e+00	0	48	104	0	60	105494
2026-01-28 17:28:43.57	160.48	13.74	-55.4	-59.2	3.6	0.00e+00	0	48	104	0	60	107293
2026-01-28 17:28:44.57	160.49	13.87	-55.4	-59.1	3.6	0.00e+00	0	47	104	0	60	106686
2026-01-28 17:28:45.58	160.50	14.00	-55.3	-59.0	3.6	0.00e+00	0	48	104	0	60	105047
2026-01-28 17:28:46.58	160.51	14.13	-55.3	-59.0	3.6	0.00e+00	0	48	104	0	60	105691
2026-01-28 17:28:47.59	160.52	14.26	-55.4	-59.2	3.6	0.00e+00	0	48	104	0	60	107452
2026-01-28 17:28:48.60	160.54	14.40	-55.4	-59.1	3.6	0.00e+00	0	48	104	0	60	106274
2026-01-28 17:28:49.60	160.55	14.53	-55.3	-59.0	3.6	0.00e+00	0	48	104	0	60	105988
2026-01-28 17:28:50.60	160.56	14.67	-55.4	-59.1	3.6	0.00e+00	0	48	104	0	60	106514
2026-01-28 17:28:51.61	160.57	14.81	-55.4	-59.1	3.6	0.00e+00	0	48	104	0	60	107262
2026-01-28 17:28:52.62	160.58	14.94	-55.4	-59.2	3.6	0.00e+00	0	48	104	0	60	107624
2026-01-28 17:28:53.63	160.60	15.08	-55.4	-59.1	3.6	0.00e+00	0	48	104	0	60	106626
2026-01-28 17:28:54.64	160.61	15.22	-55.4	-59.1	3.6	0.00e+00	0	48	104	0	60	106774
2026-01-28 17:28:55.64	160.62	15.36	-55.5	-59.2	3.6	0.00e+00	0	48	104	0	60	107666
2026-01-28 17:28:56.65	160.63	15.51	-55.5	-59.2	3.6	0.00e+00	0	48	104	0	60	108279
2026-01-28 17:28:57.66	160.65	15.65	-55.5	-59.2	3.6	0.00e+00	0	48	104	0	60	107556
2026-01-28 17:28:58.67	160.66	15.80	-55.5	-59.2	3.6	0.00e+00	0	48	104	0	60	107986
2026-01-28 17:28:59.67	160.67	15.94	-55.5	-59.2	3.6	0.00e+00	0	48	104	0	60	108251
2026-01-28 17:29:00.68	160.69	16.09	-55.6	-59.4	3.6	0.00e+00	0	48	104	0	60	110244
2026-01-28 17:29:01.69	160.70	16.24	-55.5	-59.2	3.6	0.00e+00	0	48	104	0	60	107986
2026-01-28 17:29:02.69	160.71	16.39	-55.6	-59.4	3.6	0.00e+00	0	48	104	0	60	109901
2026-01-28 17:29:03.70	160.72	16.54	-55.6	-59.3	3.6	0.00e+00	0	48	104	0	60	108969
2026-01-28 17:29:04.71	160.74	16.69	-55.6	-59.3	3.6	0.00e+00	0	48	104	0	60	109122
2026-01-28 17:29:05.72	160.75	16.84	-55.5	-59.3	3.6	0.00e+00	0	48	104	0	60	108964
2026-01-28 17:29:06.73	160.77	17.00	-55.6	-59.3	3.6	0.00e+00	0	48	104	0	60	108712
2026-01-28 17:29:07.73	160.78	17.15	-55.5	-59.2	3.6	0.00e+00	0	48	104	0	60	108503
2026-01-28 17:29:08.74	160.79	17.31	-55.6	-59.3	3.6	0.00e+00	0	48	104	0	60	109320
2026-01-28 17:29:09.75	160.81	17.47	-55.5	-59.3	3.6	0.00e+00	0	48	104	0	60	108610
2026-01-28 17:29:10.75	160.82	17.62	-55.6	-59.3	3.6	0.00e+00	0	48	104	0	60	109329
2026-01-28 17:29:11.76	160.84	17.78	-55.6	-59.4	3.6	0.00e+00	0	48	104	0	60	109913
2026-01-28 17:29:12.77	160.85	17.95	-55.6	-59.3	3.6	0.00e+00	0	48	104	0	60	109583
2026-01-28 17:29:13.77	160.86	18.11	-55.6	-59.4	3.6	0.00e+00	0	48	104	0	60	109917
2026-01-28 17:29:14.78	160.88	18.27	-55.6	-59.4	3.6	0.00e+00	0	48	104	0	60	110225
2026-01-28 17:29:15.78	160.89	18.44	-55.6	-59.4	3.6	0.00e+00	0	48	104	0	60	110268
2026-01-28 17:29:16.79	160.91	18.61	-55.7	-59.4	3.6	0.00e+00	0	48	104	0	60	110027
2026-01-28 17:29:17.80	160.92	18.78	-55.6	-59.4	3.6	0.00e+00	0	48	104	0	60	110587
2026-01-28 17:29:18.80	160.94	18.95	-55.7	-59.4	3.6	0.00e+00	0	48	104	0	60	110675
2026-01-28 17:29:19.81	160.95	19.12	-55.8	-59.5	3.6	0.00e+00	0	48	104	0	60	111855
2026-01-28 17:29:20.82	160.97	19.29	-55.7	-59.4	3.6	0.00e+00	0	48	104	0	60	110606
2026-01-28 17:29:21.82	160.99	19.47	-55.6	-59.4	3.6	0.00e+00	0	48	104	0	60	110455
2026-01-28 17:29:22.83	161.00	19.64	-55.8	-59.5	3.6	0.00e+00	0	48	104	0	60	112012
2026-01-28 17:29:23.84	161.02	19.82	-55.8	-59.6	3.5	0.00e+00	0	48	104	0	60	112486
2026-01-28 17:29:24.85	161.03	20.00	-55.7	-59.4	3.6	0.00e+00	0	48	104	0	60	110715
2026-01-28 17:29:25.86	161.05	20.18	-55.7	-59.5	3.6	0.00e+00	0	48	104	0	60	111504
2026-01-28 17:29:26.86	161.07	20.37	-55.7	-59.5	3.6	0.00e+00	0	48	104	0	60	111501
2026-01-28 17:29:27.87	161.08	20.55	-55.8	-59.5	3.6	0.00e+00	0	48	104	0	60	111890
2026-01-28 17:29:28.88	161.10	20.74	-55.8	-59.5	3.6	0.00e+00	0	48	104	0	60	112028
2026-01-28 17:29:29.88	161.12	20.93	-55.7	-59.5	3.6	0.00e+00	0	48	104	0	60	111323
2026-01-28 17:29:30.89	161.13	21.12	-55.7	-59.5	3.5	0.00e+00	0	48	104	0	60	111561
2026-01-28 17:29:31.90	161.15	21.31	-55.8	-59.5	3.6	0.00e+00	0	48	104	0	60	111936
2026-01-28 17:29:32.91	161.17	21.50	-55.8	-59.6	3.6	0.00e+00	0	48	104	0	60	112930
2026-01-28 17:29:33.92	161.19	21.70	-55.7	-59.4	3.6	0.00e+00	0	48	104	0	60	110232
2026-01-28 17:29:34.92	161.21	21.90	-55.8	-59.6	3.6	0.00e+00	0	48	104	0	60	112967
2026-01-28 17:29:35.93	161.22	22.09	-55.8	-59.6	3.6	0.00e+00	0	48	104	0	60	112610
2026-01-28 17:29:36.94	161.24	22.30	-55.8	-59.5	3.6	0.00e+00	0	48	104	0	60	111446
2026-01-28 17:29:37.95	161.26	22.50	-55.6	-59.4	3.6	0.00e+00	0	48	104	0	60	110484
2026-01-28 17:29:38.96	161.28	22.71	-55.8	-59.5	3.6	0.00e+00	0	48	104	0	60	112329
2026-01-28 17:29:39.96	161.30	22.91	-55.7	-59.5	3.6	0.00e+00	0	48	104	0	60	111373
2026-01-28 17:29:40.97	161.32	23.12	-55.8	-59.6	3.6	0.00e+00	0	48	104	0	60	113324
2026-01-28 17:29:41.98	161.34	23.34	-55.7	-59.5	3.6	0.00e+00	0	48	104	0	60	111760
2026-01-28 17:29:42.99	161.36	23.55	-55.9	-59.6	3.6	0.00e+00	0	48	104	0	60	113408
2026-01-28 17:29:44.00	161.38	23.77	-55.6	-59.5	3.6	0.00e+00	0	48	104	0	60	111228
2026-01-28 17:29:45.00	161.40	23.98	-55.9	-59.7	3.6	0.00e+00	0	48	104	0	60	113810
2026-01-28 17:29:46.01	161.42	24.20	-55.6	-59.5	3.6	0.00e+00	0	48	104	0	60	111375
2026-01-28 17:29:47.01	161.44	24.43	-55.8	-59.5	3.6	0.00e+00	0	48	104	0	60	112217
2026-01-28 17:29:48.02	161.46	24.65	-55.6	-59.4	3.6	0.00e+00	0	48	104	0	60	110292
2026-01-28 17:29:49.02	161.48	24.88	-55.8	-59.6	3.6	0.00e+00	0	48	104	0	60	112551
2026-01-28 17:29:50.03	161.50	25.11	-55.6	-59.5	3.6	0.00e+00	0	48	104	0	60	111208
2026-01-28 17:29:51.04	161.53	25.34	-55.7	-59.5	3.6	0.00e+00	0	48	104	0	60	111626
2026-01-28 17:29:52.04	161.55	25.57	-55.4	-59.2	3.6	0.00e+00	0	48	104	0	60	107858
2026-01-28 17:29:53.05	161.57	25.81	-55.7	-59.6	3.6	0.00e+00	0	48	104	0	60	112434
2026-01-28 17:29:54.06	161.59	26.05	-55.5	-59.3	3.6	0.00e+00	0	48	104	0	60	108860
2026-01-28 17:29:55.06	161.62	26.29	-55.6	-59.5	3.6	0.00e+00	0	48	104	0	60	111364
2026-01-28 17:29:56.07	161.64	26.54	-55.4	-59.2	3.6	0.00e+00	0	48	104	0	60	107679
2026-01-28 17:29:57.07	161.67	26.79	-55.8	-59.6	3.6	0.00e+00	0	48	104	0	60	112759
2026-01-28 17:29:58.08	161.69	27.04	-55.5	-59.3	3.6	0.00e+00	0	48	104	0	60	109176
2026-01-28 17:29:59.09	161.71	27.29	-55.6	-59.4	3.6	0.00e+00	0	48	104	0	60	109969
2026-01-28 17:30:00.09	161.74	27.55	-55.3	-59.1	3.6	0.00e+00	0	48	104	0	60	107247
2026-01-28 17:30:01.10	161.77	27.81	-55.7	-59.5	3.6	0.00e+00	0	48	104	0	60	111572
2026-01-28 17:30:02.11	161.79	28.07	-55.4	-59.2	3.6	0.00e+00	0	48	104	0	60	108424
2026-01-28 17:30:03.12	161.82	28.34	-55.4	-59.2	3.6	0.00e+00	0	48	104	0	60	108415
2026-01-28 17:30:04.13	161.84	28.60	-55.2	-59.1	3.6	0.00e+00	0	48	104	0	60	106851
2026-01-28 17:30:05.13	161.87	28.87	-55.7	-59.5	3.6	0.00e+00	0	48	104	0	60	111271
2026-01-28 17:30:06.14	161.90	29.15	-55.4	-59.3	3.6	0.00e+00	0	48	104	0	60	109675
2026-01-28 17:30:07.14	161.93	29.43	-55.5	-59.4	3.6	0.00e+00	0	48	104	0	60	109931
2026-01-28 17:30:08.15	161.95	29.71	-55.4	-59.3	3.6	0.00e+00	0	48	104	0	60	108841
2026-01-28 17:30:09.16	161.98	29.99	-55.7	-59.5	3.6	0.00e+00	0	48	104	0	60	111913
2026-01-28 17:30:10.16	162.01	30.28	-55.5	-59.5	3.6	0.00e+00	0	48	104	0	60	111318
2026-01-28 17:30:11.17	162.04	30.57	-55.6	-59.5	3.6	0.00e+00	0	48	104	0	60	111418
2026-01-28 17:30:12.17	162.07	30.86	-55.4	-59.3	3.6	0.00e+00	0	48	104	0	60	109694
2026-01-28 17:30:13.18	162.10	31.16	-55.6	-59.5	3.6	0.00e+00	0	48	104	0	60	111258
2026-01-28 17:30:14.18	162.13	31.46	-55.4	-59.3	3.6	0.00e+00	0	48	104	0	60	109477
2026-01-28 17:30:15.19	162.17	31.77	-55.7	-59.6	3.6	0.00e+00	0	48	104	0	60	112434
2026-01-28 17:30:16.20	162.20	32.08	-55.6	-59.6	3.6	0.00e+00	0	48	104	0	60	112558
2026-01-28 17:30:17.21	162.23	32.39	-55.7	-59.6	3.6	0.00e+00	0	48	104	0	60	112846
2026-01-28 17:30:18.21	162.27	32.71	-55.5	-59.5	3.6	0.00e+00	0	48	104	0	60	111535
2026-01-28 17:30:19.22	162.30	33.03	-55.7	-59.6	3.6	0.00e+00	0	48	104	0	60	113470
2026-01-28 17:30:20.23	162.34	33.36	-55.6	-59.6	3.6	0.00e+00	0	48	104	0	60	112810
2026-01-28 17:30:21.24	162.37	33.69	-55.7	-59.7	3.6	0.00e+00	0	48	104	0	60	113680
2026-01-28 17:30:22.24	162.41	34.02	-55.5	-59.5	3.6	0.00e+00	0	48	104	0	60	111806
2026-01-28 17:30:23.25	162.45	34.36	-55.6	-59.6	3.6	0.00e+00	0	48	104	0	60	112763
2026-01-28 17:30:24.26	162.48	34.70	-55.6	-59.5	3.6	0.00e+00	0	48	104	0	60	112267
2026-01-28 17:30:25.26	162.52	35.04	-55.8	-59.7	3.6	0.00e+00	0	48	104	0	60	114954
2026-01-28 17:30:26.26	162.56	35.39	-55.6	-59.6	3.6	0.00e+00	0	48	104	0	60	113000
2026-01-28 17:30:27.26	162.60	35.74	-55.7	-59.6	3.6	0.00e+00	0	48	104	0	60	113289
2026-01-28 17:30:28.26	162.64	36.10	-55.6	-59.6	3.6	0.00e+00	0	48	104	0	60	113124
2026-01-28 17:30:29.27	162.68	36.47	-55.8	-59.8	3.6	0.00e+00	0	48	104	0	60	115123
2026-01-28 17:30:30.28	162.73	36.84	-55.7	-59.6	3.6	0.00e+00	0	48	104	0	60	112919
2026-01-28 17:30:31.29	162.77	37.21	-55.5	-59.5	3.6	0.00e+00	0	48	104	0	60	111716
2026-01-28 17:30:32.30	162.82	37.59	-55.3	-59.3	3.6	0.00e+00	0	48	104	0	60	109431
2026-01-28 17:30:33.30	162.86	37.97	-55.5	-59.5	3.6	0.00e+00	0	48	104	0	60	112305
2026-01-28 17:30:34.31	162.91	38.36	-55.3	-59.3	3.6	0.00e+00	0	48	104	0	60	109688
2026-01-28 17:30:35.32	162.96	38.76	-55.3	-59.4	3.6	0.00e+00	0	48	104	0	60	109851
2026-01-28 17:30:36.32	163.01	39.16	-55.2	-59.3	3.6	0.00e+00	0	48	104	0	60	108800
2026-01-28 17:30:37.33	163.06	39.56	-55.4	-59.4	3.6	0.00e+00	0	48	104	0	60	110708
2026-01-28 17:30:38.34	163.11	39.97	-55.4	-59.4	3.6	0.00e+00	0	48	104	0	60	110565
2026-01-28 17:30:39.35	163.16	40.39	-55.3	-59.3	3.6	0.00e+00	0	48	104	0	60	109670
2026-01-28 17:30:40.35	163.22	40.81	-55.2	-59.3	3.6	0.00e+00	0	48	104	0	60	108665
2026-01-28 17:30:41.36	163.27	41.24	-55.4	-59.4	3.6	0.00e+00	0	48	104	0	60	110878
2026-01-28 17:30:42.36	163.33	41.66	-55.3	-59.4	3.6	0.00e+00	0	48	104	0	60	109798
2026-01-28 17:30:43.37	163.39	42.10	-55.0	-59.2	3.6	0.00e+00	0	48	104	0	60	107817
2026-01-28 17:30:44.38	163.45	42.55	-55.0	-59.2	3.6	0.00e+00	0	48	104	0	60	107799
2026-01-28 17:30:45.39	163.51	43.00	-55.2	-59.4	3.6	0.00e+00	0	48	104	0	60	109967
2026-01-28 17:30:46.39	163.57	43.45	-55.2	-59.2	3.6	0.00e+00	0	48	104	0	60	108432
2026-01-28 17:30:47.40	163.64	43.92	-54.9	-59.1	3.6	0.00e+00	0	48	104	0	60	106577
2026-01-28 17:30:48.41	163.71	44.39	-55.0	-59.2	3.6	0.00e+00	0	48	104	0	60	108372
2026-01-28 17:30:49.42	163.78	44.87	-55.1	-59.2	3.6	0.00e+00	0	48	104	0	60	108384
2026-01-28 17:30:50.43	163.85	45.35	-55.2	-59.4	3.6	0.00e+00	0	48	104	0	60	110509
2026-01-28 17:30:51.43	163.92	45.83	-55.0	-59.2	3.6	0.00e+00	0	48	104	0	60	108107
2026-01-28 17:30:52.44	164.00	46.33	-55.2	-59.4	3.6	0.00e+00	0	48	104	0	60	110027
2026-01-28 17:30:53.44	164.07	46.83	-55.3	-59.4	3.6	0.00e+00	0	48	104	0	60	110994
2026-01-28 17:30:54.44	164.15	47.33	-55.6	-59.8	3.5	0.00e+00	0	48	104	0	60	115210
2026-01-28 17:30:55.44	164.24	47.84	-55.1	-59.3	3.6	0.00e+00	0	48	104	0	60	109315
2026-01-28 17:30:56.45	164.32	48.37	-55.2	-59.4	3.6	0.00e+00	0	48	104	0	60	110771
2026-01-28 17:30:57.45	164.41	48.89	-55.0	-59.2	3.6	0.00e+00	0	48	104	0	60	108349
2026-01-28 17:30:58.45	164.50	49.42	-54.9	-59.1	3.6	0.00e+00	0	48	104	0	60	106452
2026-01-28 17:30:59.46	164.60	49.97	-55.5	-59.6	3.6	0.00e+00	0	48	104	0	60	112463
2026-01-28 17:31:00.46	164.70	50.51	-55.7	-59.7	3.6	0.00e+00	0	48	104	0	60	114420
2026-01-28 17:31:01.47	164.80	51.07	-55.0	-59.2	3.5	0.00e+00	0	48	104	0	60	107970
2026-01-28 17:31:02.47	164.91	51.63	-55.3	-59.3	3.6	0.00e+00	0	48	104	0	60	109305
2026-01-28 17:31:03.47	165.02	52.20	-55.4	-59.4	3.6	0.00e+00	0	48	104	0	60	110637
2026-01-28 17:31:04.47	165.13	52.77	-55.6	-59.5	3.6	0.00e+00	0	48	104	0	60	111878
2026-01-28 17:31:05.48	165.25	53.36	-55.1	-59.1	3.6	0.00e+00	0	48	104	0	60	106579
2026-01-28 17:31:06.49	165.37	53.96	-55.3	-59.2	3.6	0.00e+00	0	48	104	0	60	108529
2026-01-28 17:31:07.50	165.50	54.56	-55.4	-59.4	3.6	0.00e+00	0	48	104	0	60	110213
2026-01-28 17:31:08.50	165.64	55.17	-55.3	-59.3	3.6	0.00e+00	0	48	104	0	60	108693
2026-01-28 17:31:09.50	165.78	55.78	-54.6	-58.7	3.6	0.00e+00	0	48	104	0	60	101770
2026-01-28 17:31:10.51	165.92	56.40	-54.4	-58.6	3.6	0.00e+00	0	48	104	0	60	101256
2026-01-28 17:31:11.51	166.08	57.03	-54.6	-58.7	3.6	0.00e+00	0	48	104	0	60	102147
2026-01-28 17:31:12.52	166.24	57.67	-54.6	-58.8	3.6	0.00e+00	0	48	104	0	60	102626
2026-01-28 17:31:13.52	166.40	58.31	-54.7	-58.8	3.6	0.00e+00	0	48	104	0	60	103276
2026-01-28 17:31:14.53	166.58	58.97	-54.8	-58.8	3.6	0.00e+00	0	48	104	0	60	103549
2026-01-28 17:31:15.54	166.77	59.63	-55.4	-59.3	3.6	0.00e+00	0	48	104	0	60	109314
2026-01-28 17:31:16.54	166.96	60.30	-55.7	-59.7	3.6	0.00e+00	0	48	104	0	60	113852
2026-01-28 17:31:17.55	167.17	60.98	-55.2	-59.2	3.6	0.00e+00	0	48	104	0	60	107811
2026-01-28 17:31:18.56	167.39	61.66	-55.1	-59.1	3.6	0.00e+00	0	48	104	0	60	106928
2026-01-28 17:31:19.57	167.62	62.36	-55.1	-59.1	3.6	0.00e+00	0	48	104	0	60	106091
2026-01-28 17:31:20.58	167.86	63.06	-55.2	-59.2	3.6	0.00e+00	0	48	104	0	60	108030
2026-01-28 17:31:21.59	168.12	63.77	-55.3	-59.2	3.6	0.00e+00	0	48	104	0	60	108281
2026-01-28 17:31:22.59	168.39	64.47	-55.3	-59.2	3.6	0.00e+00	0	48	104	0	60	107371
2026-01-28 17:31:23.60	168.68	65.19	-55.8	-59.6	3.6	0.00e+00	0	48	104	0	60	112931
2026-01-28 17:31:24.61	169.00	65.92	-55.7	-59.5	3.6	0.00e+00	0	48	104	0	60	112000
2026-01-28 17:31:25.61	169.33	66.65	-55.6	-59.4	3.6	0.00e+00	0	48	104	0	60	110225
2026-01-28 17:31:26.62	169.68	67.39	-55.7	-59.4	3.6	0.00e+00	0	48	104	0	60	110600
2026-01-28 17:31:27.63	170.07	68.14	-55.8	-59.5	3.6	0.00e+00	0	48	104	0	60	112114
2026-01-28 17:31:28.64	170.48	68.89	-55.7	-59.5	3.6	0.00e+00	0	48	104	0	60	111121
2026-01-28 17:31:29.64	170.92	69.65	-55.7	-59.4	3.6	0.00e+00	0	48	104	0	60	110123
2026-01-28 17:31:30.65	171.41	70.41	-55.8	-59.5	3.6	0.00e+00	0	48	104	0	60	111915
2026-01-28 17:31:31.66	171.93	71.18	-55.9	-59.6	3.6	0.00e+00	0	48	104	0	60	112660
2026-01-28 17:31:32.65	172.49	71.94	-55.8	-59.5	3.6	0.00e+00	0	48	104	0	60	112088
2026-01-28 17:31:33.66	173.12	72.72	-55.5	-59.3	3.6	0.00e+00	0	48	104	0	60	109206
2026-01-28 17:31:34.67	173.81	73.50	-55.4	-59.2	3.6	0.00e+00	0	48	104	0	60	107823
2026-01-28 17:31:35.68	174.57	74.28	-55.6	-59.3	3.6	0.00e+00	0	48	104	0	60	109271
2026-01-28 17:31:36.68	175.40	75.06	-55.4	-59.2	3.6	0.00e+00	0	48	104	0	60	108211
2026-01-28 17:31:37.68	176.33	75.85	-55.1	-59.1	3.6	0.00e+00	0	48	104	0	60	106741
2026-01-28 17:31:38.68	177.38	76.63	-55.2	-59.1	3.6	0.00e+00	0	48	104	0	60	107259
2026-01-28 17:31:39.69	178.56	77.42	-55.2	-59.1	3.6	0.00e+00	0	48	104	0	60	106612
2026-01-28 17:31:40.69	179.90	78.20	-54.9	-59.0	3.6	0.00e+00	0	48	104	0	60	104859
2026-01-28 17:31:41.70	181.45	78.98	-54.5	-58.8	3.6	0.00e+00	0	48	104	0	60	103545
2026-01-28 17:31:42.71	183.24	79.76	-54.6	-58.9	3.6	0.00e+00	0	48	104	0	60	104184
2026-01-28 17:31:43.71	185.31	80.52	-54.7	-58.9	3.6	0.00e+00	0	48	104	0	60	103889
2026-01-28 17:31:44.72	187.76	81.28	-54.2	-58.8	3.6	0.00e+00	0	48	104	0	60	103087
2026-01-28 17:31:45.72	190.66	82.02	-54.1	-58.7	3.6	0.00e+00	0	48	104	0	60	101776
2026-01-28 17:31:46.73	194.18	82.74	-54.1	-58.7	3.6	0.00e+00	0	48	104	0	60	101525
2026-01-28 17:31:47.73	198.41	83.43	-54.1	-58.6	3.6	0.00e+00	0	48	104	0	60	100813
2026-01-28 17:31:48.74	203.66	84.07	-54.2	-58.8	3.6	0.00e+00	0	48	104	0	60	103344
2026-01-28 17:31:49.75	210.14	84.66	-54.4	-59.0	3.6	0.00e+00	0	48	104	0	60	105540
2026-01-28 17:31:50.75	218.01	85.16	-54.4	-58.9	3.6	0.00e+00	0	48	104	0	60	104734
2026-01-28 17:31:51.76	227.58	85.56	-54.4	-58.9	3.6	0.00e+00	0	48	104	0	60	104042
2026-01-28 17:31:52.77	238.63	85.80	-54.9	-59.3	3.6	0.00e+00	0	48	104	0	60	109734
2026-01-28 17:31:53.78	250.59	85.88	-55.4	-59.6	3.6	0.00e+00	0	48	104	0	60	113372
2026-01-28 17:31:54.78	262.35	85.78	-55.4	-59.5	3.6	0.00e+00	0	48	104	0	60	112310
2026-01-28 17:31:55.79	273.25	85.51	-55.4	-59.5	3.6	0.00e+00	0	48	104	0	60	111328
2026-01-28 17:31:56.80	282.61	85.10	-55.5	-59.5	3.6	0.00e+00	0	48	104	0	60	112040
2026-01-28 17:31:57.81	290.35	84.59	-54.9	-59.3	3.6	0.00e+00	0	48	104	0	60	109449
2026-01-28 17:31:58.82	296.65	83.99	-55.1	-59.3	3.6	0.00e+00	0	48	104	0	60	108818
2026-01-28 17:31:59.83	301.76	83.34	-54.7	-59.1	3.6	0.00e+00	0	48	104	0	60	106496
2026-01-28 17:32:00.83	305.88	82.65	-54.4	-58.9	3.5	0.00e+00	0	48	104	0	60	104783
2026-01-28 17:32:01.84	309.31	81.92	-54.5	-58.9	3.6	0.00e+00	0	48	104	0	60	104187
2026-01-28 17:32:02.84	312.13	81.19	-54.3	-58.8	3.6	0.00e+00	0	48	104	0	60	103606
2026-01-28 17:32:03.85	314.54	80.43	-54.2	-58.5	3.6	0.00e+00	0	48	104	0	60	99993
2026-01-28 17:32:04.85	316.56	79.66	-54.8	-58.9	3.6	0.00e+00	0	48	104	0	60	104761
2026-01-28 17:32:05.86	318.31	78.88	-55.0	-59.0	3.6	0.00e+00	0	48	104	0	60	104984
2026-01-28 17:32:06.87	319.83	78.10	-54.8	-58.9	3.6	0.00e+00	0	48	104	0	60	103855
2026-01-28 17:32:07.87	321.15	77.32	-54.8	-58.8	3.6	0.00e+00	0	48	104	0	60	103005
2026-01-28 17:32:08.88	322.32	76.53	-55.1	-59.1	3.6	0.00e+00	0	48	104	0	60	106130
2026-01-28 17:32:09.89	323.35	75.74	-55.4	-59.2	3.6	0.00e+00	0	48	104	0	60	107566
2026-01-28 17:32:10.89	324.27	74.96	-55.8	-59.5	3.5	0.00e+00	0	48	104	0	60	112336
2026-01-28 17:32:11.90	325.10	74.17	-56.2	-59.9	3.6	0.00e+00	0	48	104	0	60	116428
2026-01-28 17:32:12.91	325.85	73.39	-56.1	-60.1	3.6	0.00e+00	0	48	104	0	60	120081
2026-01-28 17:32:13.91	326.52	72.62	-55.9	-59.9	3.6	0.00e+00	0	48	104	0	60	116669
2026-01-28 17:32:14.92	327.14	71.84	-56.2	-60.1	3.6	0.00e+00	0	48	104	0	60	119618
2026-01-28 17:32:15.92	327.70	71.08	-55.9	-59.9	3.6	0.00e+00	0	48	104	0	60	117591
2026-01-28 17:32:16.93	328.21	70.31	-56.1	-60.0	3.6	0.00e+00	0	48	104	0	60	118939
2026-01-28 17:32:17.94	328.69	69.55	-55.9	-60.1	3.6	0.00e+00	0	48	104	0	60	119583
2026-01-28 17:32:18.94	329.13	68.80	-56.0	-59.9	3.6	0.00e+00	0	48	104	0	60	116864
2026-01-28 17:32:19.95	329.54	68.05	-56.0	-59.8	3.6	0.00e+00	0	48	104	0	60	116241
2026-01-28 17:32:20.95	329.91	67.31	-55.9	-59.9	3.6	0.00e+00	0	48	104	0	60	116524
2026-01-28 17:32:21.96	330.27	66.57	-55.9	-59.9	3.6	0.00e+00	0	48	104	0	60	116899
2026-01-28 17:32:22.97	330.60	65.84	-56.2	-59.9	3.6	0.00e+00	0	48	104	0	60	117372
2026-01-28 17:32:23.98	330.91	65.11	-56.4	-60.0	3.6	0.00e+00	0	48	104	0	60	118045
2026-01-28 17:32:24.98	331.19	64.40	-56.4	-60.0	3.6	0.00e+00	0	48	104	0	60	118628
2026-01-28 17:32:25.99	331.46	63.69	-56.3	-59.9	3.6	0.00e+00	0	48	104	0	60	117318
2026-01-28 17:32:26.99	331.72	62.99	-56.1	-59.8	3.6	0.00e+00	0	48	104	0	60	115236
2026-01-28 17:32:28.00	331.96	62.29	-55.4	-59.7	3.6	0.00e+00	0	48	104	0	60	114565
2026-01-28 17:32:29.01	332.19	61.60	-55.8	-59.6	3.6	0.00e+00	0	48	104	0	60	113388
2026-01-28 17:32:30.02	332.41	60.91	-55.4	-59.7	3.6	0.00e+00	0	48	104	0	60	114478
2026-01-28 17:32:31.02	332.61	60.25	-55.8	-59.9	3.6	0.00e+00	0	48	104	0	60	116837
2026-01-28 17:32:32.03	332.80	59.58	-56.2	-60.1	3.6	0.00e+00	0	48	104	0	60	119272
2026-01-28 17:32:33.04	332.99	58.92	-55.9	-59.9	3.6	0.00e+00	0	48	104	0	60	116628
2026-01-28 17:32:34.05	333.16	58.26	-55.8	-59.8	3.6	0.00e+00	0	48	104	0	60	115110
2026-01-28 17:32:35.05	333.33	57.62	-56.5	-60.2	3.6	0.00e+00	0	48	104	0	60	120724
2026-01-28 17:32:36.05	333.49	56.99	-56.0	-59.9	3.6	0.00e+00	0	48	104	0	60	116815
2026-01-28 17:32:37.06	333.64	56.36	-56.3	-60.1	3.6	0.00e+00	0	48	104	0	60	119573
2026-01-28 17:32:38.06	333.79	55.74	-56.0	-59.9	3.6	0.00e+00	0	48	104	0	60	117441
2026-01-28 17:32:39.06	333.93	55.13	-56.0	-60.0	3.6	0.00e+00	0	48	104	0	60	118453
2026-01-28 17:32:40.06	334.06	54.53	-55.8	-59.9	3.6	0.00e+00	0	48	104	0	60	117441
2026-01-28 17:32:41.07	334.19	53.93	-55.7	-59.8	3.6	0.00e+00	0	48	104	0	60	116163
2026-01-28 17:32:42.07	334.31	53.34	-55.9	-59.9	3.6	0.00e+00	0	48	104	0	60	117576
2026-01-28 17:32:43.08	334.43	52.76	-55.8	-59.9	3.6	0.00e+00	0	48	104	0	60	116664
2026-01-28 17:32:44.09	334.54	52.18	-55.9	-59.9	3.6	0.00e+00	0	48	104	0	60	117176
2026-01-28 17:32:45.10	334.65	51.61	-55.8	-59.9	3.6	0.00e+00	0	48	104	0	60	116401
2026-01-28 17:32:46.10	334.76	51.05	-56.1	-60.0	3.6	0.00e+00	0	48	104	0	60	118201
2026-01-28 17:32:47.11	334.86	50.50	-56.1	-60.0	3.6	0.00e+00	0	48	104	0	60	118954
2026-01-28 17:32:48.12	334.96	49.95	-56.2	-60.1	3.6	0.00e+00	0	48	104	0	60	119222
2026-01-28 17:32:49.12	335.06	49.41	-56.2	-60.1	3.6	0.00e+00	0	48	104	0	60	120067
2026-01-28 17:32:50.13	335.15	48.88	-56.3	-60.2	3.6	0.00e+00	0	48	104	0	60	120798
2026-01-28 17:32:51.14	335.24	48.35	-56.3	-60.2	3.6	0.00e+00	0	48	104	0	60	121198
2026-01-28 17:32:52.15	335.32	47.83	-56.1	-60.2	3.6	0.00e+00	0	48	104	0	60	120576
2026-01-28 17:32:53.15	335.40	47.32	-56.2	-60.1	3.6	0.00e+00	0	48	104	0	60	119689
2026-01-28 17:32:54.16	335.49	46.81	-56.0	-60.1	3.6	0.00e+00	0	48	104	0	60	119666
2026-01-28 17:32:55.16	335.56	46.32	-56.3	-60.3	3.6	0.00e+00	0	48	104	0	60	122113
2026-01-28 17:32:56.16	335.64	45.83	-56.2	-60.3	3.6	0.00e+00	0	48	104	0	60	122411
2026-01-28 17:32:57.17	335.71	45.34	-56.0	-60.2	3.6	0.00e+00	0	48	104	0	60	120796
2026-01-28 17:32:58.17	335.78	44.87	-56.3	-60.4	3.6	0.00e+00	0	48	104	0	60	124520
2026-01-28 17:32:59.18	335.85	44.39	-55.9	-60.0	3.6	0.00e+00	0	48	104	0	60	118472
2026-01-28 17:33:00.18	335.92	43.93	-56.4	-60.2	3.6	0.00e+00	0	48	104	0	60	120601
2026-01-28 17:33:01.19	335.98	43.47	-56.2	-60.2	3.6	0.00e+00	0	48	104	0	60	121702
2026-01-28 17:33:02.20	336.05	43.01	-56.3	-60.4	3.6	0.00e+00	0	48	104	0	60	123627
2026-01-28 17:33:03.21	336.11	42.56	-56.4	-60.1	3.6	0.00e+00	0	48	104	0	60	119327
2026-01-28 17:33:04.22	336.17	42.12	-55.9	-59.8	3.6	0.00e+00	0	48	104	0	60	115405
2026-01-28 17:33:05.22	336.23	41.68	-56.4	-60.2	3.6	0.00e+00	0	48	104	0	60	121505
2026-01-28 17:33:06.23	336.29	41.25	-56.2	-60.1	3.6	0.00e+00	0	48	104	0	60	120040
2026-01-28 17:33:07.24	336.34	40.83	-55.9	-59.9	3.6	0.00e+00	0	48	104	0	60	116424
2026-01-28 17:33:08.24	336.40	40.41	-55.9	-59.8	3.6	0.00e+00	0	48	104	0	60	116128
2026-01-28 17:33:09.25	336.45	40.00	-55.9	-59.8	3.6	0.00e+00	0	48	104	0	60	115849
2026-01-28 17:33:10.25	336.50	39.59	-56.1	-59.9	3.6	0.00e+00	0	48	104	0	60	116837
2026-01-28 17:33:11.26	336.55	39.19	-56.2	-60.1	3.6	0.00e+00	0	48	104	0	60	119047
2026-01-28 17:33:12.26	336.60	38.79	-56.2	-60.0	3.6	0.00e+00	0	48	104	0	60	118868
2026-01-28 17:33:13.27	336.65	38.40	-55.8	-59.7	3.6	0.00e+00	0	48	104	0	60	114514
2026-01-28 17:33:14.28	336.69	38.01	-56.3	-60.1	3.6	0.00e+00	0	48	104	0	60	119834
2026-01-28 17:33:15.28	336.74	37.63	-56.3	-60.1	3.6	0.00e+00	0	48	104	0	60	119504
2026-01-28 17:33:16.28	336.78	37.26	-55.9	-59.9	3.6	0.00e+00	0	48	104	0	60	117559
2026-01-28 17:33:17.28	336.83	36.89	-56.2	-59.9	3.6	0.00e+00	0	48	104	0	60	116907
2026-01-28 17:33:18.29	336.87	36.52	-56.2	-60.0	3.6	0.00e+00	0	48	104	0	60	117980
2026-01-28 17:33:19.30	336.91	36.15	-56.1	-60.1	3.6	0.00e+00	0	48	104	0	60	119918
2026-01-28 17:33:20.30	336.95	35.80	-56.2	-60.0	3.6	0.00e+00	0	48	104	0	60	118341
2026-01-28 17:33:21.31	337.00	35.44	-55.9	-59.9	3.6	0.00e+00	0	48	104	0	60	116671
2026-01-28 17:33:22.32	337.03	35.09	-55.9	-59.9	3.6	0.00e+00	0	48	104	0	60	116914
2026-01-28 17:33:23.32	337.07	34.75	-56.2	-60.0	3.6	0.00e+00	0	48	104	0	60	118754
2026-01-28 17:33:24.33	337.11	34.41	-55.7	-59.7	3.6	0.00e+00	0	48	104	0	60	113817
2026-01-28 17:33:25.34	337.15	34.07	-56.3	-60.1	3.6	0.00e+00	0	48	104	0	60	119626
2026-01-28 17:33:26.34	337.19	33.74	-55.7	-59.5	3.6	0.00e+00	0	48	104	0	60	112129
2026-01-28 17:33:27.35	337.22	33.42	-55.9	-59.9	3.6	0.00e+00	0	48	104	0	60	116671
2026-01-28 17:33:28.36	337.26	33.09	-56.0	-59.7	3.6	0.00e+00	0	48	104	0	60	113754
2026-01-28 17:33:29.36	337.29	32.77	-56.1	-59.9	3.6	0.00e+00	0	48	104	0	60	117213
2026-01-28 17:33:30.37	337.32	32.46	-55.7	-59.3	3.6	0.00e+00	0	48	104	0	60	109329
2026-01-28 17:33:31.37	337.36	32.15	-55.8	-59.7	3.6	0.00e+00	0	48	104	0	60	113893
2026-01-28 17:33:32.39	337.39	31.83	-55.7	-59.3	3.6	0.00e+00	0	48	104	0	60	109687
2026-01-28 17:33:33.39	337.42	31.53	-55.8	-59.7	3.6	0.00e+00	0	48	104	0	60	113671
2026-01-28 17:33:34.40	337.45	31.23	-55.5	-59.2	3.6	0.00e+00	0	48	104	0	60	108209
2026-01-28 17:33:35.41	337.49	30.93	-55.7	-59.4	3.6	0.00e+00	0	48	104	0	60	109953
2026-01-28 17:33:36.42	337.52	30.64	-55.6	-59.3	3.6	0.00e+00	0	48	104	0	60	109689
2026-01-28 17:33:37.42	337.55	30.35	-55.8	-59.5	3.6	0.00e+00	0	48	104	0	60	112328
2026-01-28 17:33:38.43	337.58	30.06	-55.5	-59.2	3.6	0.00e+00	0	48	104	0	60	108360
2026-01-28 17:33:39.44	337.60	29.78	-55.8	-59.5	3.6	0.00e+00	0	48	104	0	60	111331
2026-01-28 17:33:40.44	337.63	29.50	-55.5	-59.3	3.6	0.00e+00	0	48	104	0	60	109441
2026-01-28 17:33:41.44	337.66	29.23	-55.7	-59.4	3.6	0.00e+00	0	48	104	0	60	110582
2026-01-28 17:33:42.45	337.69	28.95	-55.2	-59.2	3.6	0.00e+00	0	48	104	0	60	107314
2026-01-28 17:33:43.45	337.72	28.68	-55.7	-59.6	3.6	0.00e+00	0	48	104	0	60	112491
2026-01-28 17:33:44.46	337.74	28.42	-55.5	-59.5	3.6	0.00e+00	0	48	104	0	60	112012
2026-01-28 17:33:45.47	337.77	28.15	-55.5	-59.3	3.6	0.00e+00	0	48	104	0	60	109237
2026-01-28 17:33:46.47	337.79	27.89	-55.4	-59.4	3.6	0.00e+00	0	48	104	0	60	110111
2026-01-28 17:33:47.47	337.82	27.64	-56.0	-59.9	3.6	0.00e+00	0	48	104	0	60	116447
2026-01-28 17:33:48.48	337.85	27.38	-56.0	-59.9	3.6	0.00e+00	0	48	104	0	60	116999
2026-01-28 17:33:49.49	337.87	27.13	-55.4	-59.4	3.6	0.00e+00	0	48	104	0	60	110290
2026-01-28 17:33:50.49	337.89	26.88	-55.5	-59.5	3.6	0.00e+00	0	48	104	0	60	112247
2026-01-28 17:33:51.50	337.92	26.63	-55.9	-59.8	3.6	0.00e+00	0	48	104	0	60	115499
2026-01-28 17:33:52.51	337.94	26.38	-55.7	-59.7	3.6	0.00e+00	0	48	104	0	60	114029
2026-01-28 17:33:53.51	337.97	26.14	-55.6	-59.6	3.6	0.00e+00	0	48	104	0	60	113294
2026-01-28 17:33:54.52	337.99	25.91	-55.9	-59.9	3.6	0.00e+00	0	48	104	0	60	116333
2026-01-28 17:33:55.52	338.01	25.67	-56.4	-60.1	3.6	0.00e+00	0	48	104	0	60	119733
2026-01-28 17:33:56.53	338.03	25.44	-56.4	-60.1	3.6	0.00e+00	0	48	104	0	60	119816
2026-01-28 17:33:57.53	338.06	25.21	-56.3	-60.0	3.6	0.00e+00	0	48	104	0	60	118061
2026-01-28 17:33:58.53	338.08	24.98	-56.3	-60.0	3.6	0.00e+00	0	48	104	0	60	118527
2026-01-28 17:33:59.54	338.10	24.75	-56.7	-60.2	3.6	0.00e+00	0	48	104	0	60	121617
2026-01-28 17:34:00.54	338.12	24.53	-56.2	-60.0	3.6	0.00e+00	0	48	104	0	60	118239
2026-01-28 17:34:01.54	338.14	24.31	-56.3	-60.1	3.6	0.00e+00	0	48	104	0	60	120283
2026-01-28 17:34:02.54	338.16	24.09	-56.0	-60.0	3.6	0.00e+00	0	48	104	0	60	117744
2026-01-28 17:34:03.54	338.18	23.87	-56.3	-60.1	3.6	0.00e+00	0	48	104	0	60	120104
2026-01-28 17:34:04.55	338.20	23.66	-56.0	-59.9	3.6	0.00e+00	0	48	104	0	60	117099
2026-01-28 17:34:05.56	338.22	23.44	-56.3	-60.1	3.6	0.00e+00	0	48	104	0	60	119452
2026-01-28 17:34:06.56	338.24	23.23	-55.8	-59.8	3.6	0.00e+00	0	48	104	0	60	115868
2026-01-28 17:34:07.56	338.26	23.03	-56.2	-60.1	3.6	0.00e+00	0	48	104	0	60	119218
2026-01-28 17:34:08.56	338.28	22.82	-55.4	-59.5	3.5	0.00e+00	0	48	104	0	60	112241
2026-01-28 17:34:09.57	338.30	22.62	-55.8	-59.8	3.6	0.00e+00	0	48	104	0	60	115030
2026-01-28 17:34:10.57	338.32	22.42	-55.2	-59.3	3.6	0.00e+00	0	48	104	0	60	109720
2026-01-28 17:34:11.58	338.34	22.21	-55.3	-59.5	3.6	0.00e+00	0	48	104	0	60	111395
2026-01-28 17:34:12.59	338.36	22.01	-55.2	-59.4	3.6	0.00e+00	0	48	104	0	60	109990
2026-01-28 17:34:13.59	338.38	21.82	-55.2	-59.3	3.6	0.00e+00	0	48	104	0	60	109568
2026-01-28 17:34:14.60	338.40	21.62	-55.3	-59.4	3.6	0.00e+00	0	48	104	0	60	110049
2026-01-28 17:34:15.60	338.41	21.43	-55.2	-59.3	3.5	0.00e+00	0	48	104	0	60	109366
2026-01-28 17:34:16.61	338.43	21.24	-55.3	-59.4	3.6	0.00e+00	0	48	104	0	60	110802
2026-01-28 17:34:17.62	338.45	21.05	-55.3	-59.4	3.6	0.00e+00	0	48	104	0	60	110765
2026-01-28 17:34:18.62	338.47	20.86	-55.4	-59.3	3.6	0.00e+00	0	48	104	0	60	109598
2026-01-28 17:34:19.63	338.48	20.68	-55.3	-59.4	3.6	0.00e+00	0	48	104	0	60	110252
2026-01-28 17:34:20.64	338.50	20.49	-55.5	-59.5	3.6	0.00e+00	0	48	104	0	60	111317
2026-01-28 17:34:21.64	338.52	20.31	-55.5	-59.5	3.6	0.00e+00	0	48	104	0	60	112337
2026-01-28 17:34:22.65	338.53	20.13	-55.5	-59.5	3.5	0.00e+00	0	48	104	0	60	111818
2026-01-28 17:34:23.66	338.55	19.95	-55.3	-59.4	3.6	0.00e+00	0	48	104	0	60	109895
2026-01-28 17:34:24.67	338.57	19.77	-55.4	-59.5	3.6	0.00e+00	0	48	104	0	60	111076
2026-01-28 17:34:25.68	338.58	19.59	-55.5	-59.5	3.6	0.00e+00	0	48	104	0	60	111995
2026-01-28 17:34:26.68	338.60	19.42	-55.5	-59.5	3.6	0.00e+00	0	48	104	0	60	111766
2026-01-28 17:34:27.69	338.61	19.25	-55.4	-59.4	3.6	0.00e+00	0	48	104	0	60	110398
2026-01-28 17:34:28.69	338.63	19.08	-55.6	-59.5	3.6	0.00e+00	0	48	104	0	60	111489
2026-01-28 17:34:29.69	338.65	18.91	-55.6	-59.5	3.6	0.00e+00	0	48	104	0	60	111900
2026-01-28 17:34:30.70	338.66	18.74	-55.6	-59.5	3.6	0.00e+00	0	48	104	0	60	111378
2026-01-28 17:34:31.71	338.68	18.57	-55.7	-59.5	3.6	0.00e+00	0	48	104	0	60	112070
2026-01-28 17:34:32.71	338.69	18.41	-55.6	-59.5	3.6	0.00e+00	0	48	104	0	60	111869
2026-01-28 17:34:33.72	338.71	18.24	-55.6	-59.6	3.6	0.00e+00	0	49	104	0	60	112636
2026-01-28 17:34:34.72	338.72	18.08	-55.6	-59.5	3.6	0.00e+00	0	48	104	0	60	111924
2026-01-28 17:34:35.72	338.74	17.92	-55.4	-59.4	3.6	0.00e+00	0	48	104	0	60	110777
2026-01-28 17:34:36.73	338.75	17.76	-55.6	-59.6	3.6	0.00e+00	0	48	104	0	60	112490
2026-01-28 17:34:37.73	338.77	17.60	-55.3	-59.5	3.6	0.00e+00	0	48	104	0	60	111106
2026-01-28 17:34:38.74	338.78	17.44	-55.6	-59.6	3.6	0.00e+00	0	48	104	0	60	112437
2026-01-28 17:34:39.74	338.79	17.29	-55.4	-59.5	3.6	0.00e+00	0	48	104	0	60	111290
2026-01-28 17:34:40.75	338.81	17.13	-55.5	-59.6	3.6	0.00e+00	0	48	104	0	60	112729
2026-01-28 17:34:41.76	338.82	16.98	-55.0	-59.2	3.6	0.00e+00	0	48	104	0	60	108274
2026-01-28 17:34:42.76	338.84	16.83	-54.9	-59.2	3.6	0.00e+00	0	48	104	0	60	108226
2026-01-28 17:34:43.77	338.85	16.68	-55.2	-59.4	3.6	0.00e+00	0	48	104	0	60	110319
2026-01-28 17:34:44.78	338.86	16.53	-54.4	-58.9	3.6	0.00e+00	0	48	104	0	60	104715
2026-01-28 17:34:45.78	338.88	16.38	-54.1	-58.9	3.6	0.00e+00	0	49	104	0	60	104133
2026-01-28 17:34:46.78	338.89	16.23	-55.2	-59.2	3.6	0.00e+00	0	48	104	0	60	107944
2026-01-28 17:34:47.79	338.90	16.08	-55.4	-59.3	3.5	0.00e+00	0	48	104	0	60	108978
2026-01-28 17:34:48.80	338.92	15.94	-55.3	-59.2	3.6	0.00e+00	0	48	104	0	60	107566
2026-01-28 17:34:49.80	338.93	15.79	-54.9	-58.8	3.6	0.00e+00	0	49	104	0	60	103476
2026-01-28 17:34:50.80	338.94	15.65	-55.1	-59.3	3.6	0.00e+00	0	48	104	0	60	109013
2026-01-28 17:34:51.81	338.96	15.51	-55.3	-59.1	3.6	0.00e+00	0	48	104	0	60	107026
2026-01-28 17:34:52.81	338.97	15.37	-54.7	-58.7	3.6	0.00e+00	0	48	104	0	60	101597
2026-01-28 17:34:53.82	338.98	15.23	-54.6	-58.6	3.6	0.00e+00	0	48	104	0	60	100943
2026-01-28 17:34:54.83	338.99	15.09	-54.5	-58.6	3.6	0.00e+00	0	48	104	0	60	100803
2026-01-28 17:34:55.84	339.01	14.95	-54.7	-58.7	3.6	0.00e+00	0	48	104	0	60	102232
2026-01-28 17:34:56.84	339.02	14.82	-54.0	-58.4	3.6	0.00e+00	0	48	104	0	60	98979
2026-01-28 17:34:57.85	339.03	14.68	-54.0	-58.4	3.6	0.00e+00	0	48	104	0	60	98968
2026-01-28 17:34:58.85	339.04	14.55	-54.4	-58.6	3.6	0.00e+00	0	48	104	0	60	100408
2026-01-28 17:34:59.86	339.06	14.41	-54.0	-58.5	3.6	0.00e+00	0	48	104	0	60	99378
2026-01-28 17:35:00.86	339.07	14.28	-54.7	-58.7	3.6	0.00e+00	0	48	104	0	60	102214
2026-01-28 17:35:01.87	339.08	14.15	-53.9	-58.4	3.6	0.00e+00	0	48	104	0	60	98765
2026-01-28 17:35:02.87	339.09	14.02	-53.8	-58.4	3.6	0.00e+00	0	48	104	0	60	98512
2026-01-28 17:35:03.88	339.10	13.89	-54.5	-58.6	3.6	0.00e+00	0	48	104	0	60	100534
2026-01-28 17:35:04.88	339.12	13.76	-54.6	-58.7	3.6	0.00e+00	0	48	104	0	60	101310
2026-01-28 17:35:05.89	339.13	13.63	-54.3	-58.6	3.6	0.00e+00	0	48	104	0	60	101214
2026-01-28 17:35:06.90	339.14	13.50	-53.5	-58.3	3.6	0.00e+00	0	48	104	0	60	97626
2026-01-28 17:35:07.90	339.15	13.37	-54.4	-58.3	3.6	0.00e+00	0	48	104	0	60	97552
2026-01-28 17:35:08.91	339.16	13.25	-54.0	-58.5	3.6	0.00e+00	0	48	104	0	60	99140
2026-01-28 17:35:09.91	339.17	13.12	-54.8	-58.6	3.6	0.00e+00	0	48	104	0	60	101009
2026-01-28 17:35:10.92	339.19	13.00	-54.6	-58.6	3.6	0.00e+00	0	48	104	0	60	100701
2026-01-28 17:35:11.93	339.20	12.88	-54.2	-58.1	3.6	0.00e+00	0	48	104	0	60	94945
2026-01-28 17:35:12.93	339.21	12.75	-54.0	-58.5	3.6	0.00e+00	0	48	104	0	60	98992
2026-01-28 17:35:13.94	339.22	12.63	-54.6	-58.4	3.6	0.00e+00	0	48	104	0	60	98590
2026-01-28 17:35:14.95	339.23	12.51	-54.7	-58.5	3.6	0.00e+00	0	48	104	0	60	99060
2026-01-28 17:35:15.95	339.24	12.39	-54.2	-58.1	3.6	0.00e+00	0	48	104	0	60	94923
2026-01-28 17:35:16.96	339.25	12.27	-54.6	-58.5	3.6	0.00e+00	0	48	104	0	60	99066
2026-01-28 17:35:17.97	339.26	12.15	-54.2	-58.2	3.6	0.00e+00	0	48	104	0	60	95922
2026-01-28 17:35:18.97	339.27	12.04	-54.5	-58.3	3.6	0.00e+00	0	48	104	0	60	97606
2026-01-28 17:35:19.98	339.28	11.92	-54.4	-58.2	3.6	0.00e+00	0	48	104	0	60	96704
2026-01-28 17:35:20.99	339.29	11.80	-54.2	-58.1	3.6	0.00e+00	0	48	104	0	60	94694
2026-01-28 17:35:22.00	339.31	11.69	-54.1	-58.0	3.6	0.00e+00	0	48	104	0	60	93811
2026-01-28 17:35:23.00	339.32	11.57	-54.5	-58.2	3.6	0.00e+00	0	48	104	0	60	96704
2026-01-28 17:35:24.00	339.33	11.46	-54.4	-58.3	3.5	0.00e+00	0	48	104	0	60	97140
2026-01-28 17:35:25.01	339.34	11.34	-53.8	-57.8	3.6	0.00e+00	0	48	104	0	60	92322
2026-01-28 17:35:26.01	339.35	11.23	-53.7	-57.8	3.6	0.00e+00	0	48	104	0	60	91400
2026-01-28 17:35:27.02	339.36	11.12	-54.5	-58.2	3.6	0.00e+00	0	48	104	0	60	96291
2026-01-28 17:35:28.03	339.37	11.01	-54.1	-58.1	3.5	0.00e+00	0	48	104	0	60	94730
2026-01-28 17:35:29.03	339.38	10.90	-54.1	-58.0	3.6	0.00e+00	0	48	104	0	60	94363
2026-01-28 17:35:30.04	339.39	10.79	-53.6	-57.8	3.6	0.00e+00	0	48	104	0	60	92141
2026-01-28 17:35:31.05	339.40	10.68	-54.3	-58.1	3.6	0.00e+00	0	48	104	0	60	94995
2026-01-28 17:35:32.06	339.41	10.57	-53.9	-58.0	3.6	0.00e+00	0	48	104	0	60	94137
2026-01-28 17:35:33.07	339.42	10.46	-54.0	-57.9	3.6	0.00e+00	0	48	104	0	60	93148
2026-01-28 17:35:34.08	339.43	10.35	-53.2	-57.7	3.6	0.00e+00	0	48	104	0	60	90773
2026-01-28 17:35:35.09	339.44	10.25	-54.1	-58.0	3.6	0.00e+00	0	48	104	0	60	93507
2026-01-28 17:35:36.10	339.45	10.14	-51.1	-56.8	3.6	0.00e+00	0	48	104	0	60	82082
2026-01-28 17:35:37.10	339.46	10.03	-54.0	-58.0	3.6	0.00e+00	0	48	104	0	60	93869
2026-01-28 17:35:38.11	339.47	9.93	-49.9	-55.9	3.6	0.00e+00	0	48	104	0	60	73980
2026-01-28 17:35:39.12	339.48	9.82	-51.1	-56.8	3.6	0.00e+00	0	48	104	0	60	82164
2026-01-28 17:35:40.13	339.49	9.72	-50.0	-56.2	3.6	0.00e+00	0	48	104	0	60	76103
2026-01-28 17:35:41.14	339.50	9.62	-48.7	-55.5	3.6	0.00e+00	0	48	104	0	60	70134
2026-01-28 17:35:42.14	339.51	9.51	-48.5	-55.3	3.6	0.00e+00	0	48	104	0	60	69172
2026-01-28 17:35:43.15	339.52	9.41	-48.7	-55.3	3.6	0.00e+00	0	48	104	0	60	68906
2026-01-28 17:35:44.16	339.53	9.31	-54.0	-57.9	3.6	0.00e+00	0	49	104	0	60	93283
2026-01-28 17:35:45.16	339.53	9.21	-51.2	-56.7	3.6	0.00e+00	0	48	104	0	60	81175
2026-01-28 17:35:46.17	339.54	9.11	-48.2	-55.3	3.6	0.00e+00	0	48	104	0	60	68690
2026-01-28 17:35:47.18	339.55	9.01	-52.9	-57.6	3.6	0.00e+00	0	48	104	0	60	89353
2026-01-28 17:35:48.19	339.56	8.91	-50.3	-56.2	3.6	0.00e+00	0	48	104	0	60	76344
2026-01-28 17:35:49.20	339.57	8.81	-49.4	-55.6	3.6	0.00e+00	0	48	104	0	60	71668
2026-01-28 17:35:50.21	339.58	8.71	-48.8	-55.3	3.6	0.00e+00	0	48	104	0	60	68758
2026-01-28 17:35:51.22	339.59	8.61	-51.9	-57.1	3.6	0.00e+00	0	48	104	0	60	84666
2026-01-28 17:35:52.22	339.60	8.52	-50.0	-56.2	3.6	0.00e+00	0	48	104	0	60	76725
2026-01-28 17:35:53.23	339.61	8.42	-48.1	-54.9	3.6	0.00e+00	0	49	104	0	60	65973
2026-01-28 17:35:54.24	339.62	8.32	-52.2	-57.2	3.6	0.00e+00	0	48	104	0	60	85862
2026-01-28 17:35:55.25	339.63	8.23	-51.9	-57.1	3.6	0.00e+00	0	49	104	0	60	84877
2026-01-28 17:35:56.25	339.64	8.13	-49.4	-55.6	3.6	0.00e+00	0	49	104	0	60	71671
2026-01-28 17:35:57.26	339.64	8.04	-48.6	-55.2	3.6	0.00e+00	0	49	104	0	60	67716
2026-01-28 17:35:58.27	339.65	7.94	-48.3	-55.0	3.6	0.00e+00	0	48	104	0	60	66900
2026-01-28 17:35:59.27	339.66	7.85	-52.5	-57.3	3.6	0.00e+00	0	48	104	0	60	86376
2026-01-28 17:36:00.28	339.67	7.75	-50.2	-56.1	3.6	0.00e+00	0	48	104	0	60	75515
2026-01-28 17:36:01.29	339.68	7.66	-49.4	-55.8	3.6	0.00e+00	0	48	104	0	60	72563
2026-01-28 17:36:02.29	339.69	7.57	-48.0	-54.9	3.6	0.00e+00	0	48	104	0	60	65794
2026-01-28 17:36:03.30	339.70	7.48	-48.9	-55.7	3.6	0.00e+00	0	49	104	0	60	71773
2026-01-28 17:36:04.31	339.71	7.38	-47.8	-55.0	3.6	0.00e+00	0	49	104	0	60	66198
2026-01-28 17:36:05.31	339.72	7.29	-47.9	-55.1	3.6	0.00e+00	0	48	104	0	60	67101
2026-01-28 17:36:06.32	339.72	7.20	-47.9	-55.1	3.6	0.00e+00	0	48	104	0	60	67373
2026-01-28 17:36:07.33	339.73	7.11	-49.4	-56.0	3.6	0.00e+00	0	48	104	0	60	74257
2026-01-28 17:36:08.33	339.74	7.02	-49.1	-55.6	3.6	0.00e+00	0	48	104	0	60	71020
2026-01-28 17:36:09.34	339.75	6.93	-52.3	-57.1	3.6	0.00e+00	0	48	104	0	60	84879
2026-01-28 17:36:10.34	339.76	6.84	-51.0	-56.5	3.6	0.00e+00	0	48	104	0	60	79101
2026-01-28 17:36:11.35	339.77	6.75	-48.9	-55.8	3.6	0.00e+00	0	48	104	0	60	72804
2026-01-28 17:36:12.35	339.77	6.67	-49.0	-55.5	3.6	0.00e+00	0	48	104	0	60	70288
2026-01-28 17:36:13.36	339.78	6.58	-49.1	-55.5	3.6	0.00e+00	0	48	104	0	60	70792
2026-01-28 17:36:14.37	339.79	6.49	-49.2	-55.6	3.6	0.00e+00	0	48	104	0	60	70929
2026-01-28 17:36:15.37	339.80	6.40	-52.5	-57.0	3.6	0.00e+00	0	48	104	0	60	83718
2026-01-28 17:36:16.38	339.81	6.32	-52.9	-57.4	3.6	0.00e+00	0	48	104	0	60	87467
2026-01-28 17:36:17.38	339.82	6.23	-49.9	-56.0	3.6	0.00e+00	0	48	104	0	60	74991
2026-01-28 17:36:18.39	339.82	6.14	-52.5	-57.0	3.6	0.00e+00	0	48	104	0	60	83500
2026-01-28 17:36:19.40	339.83	6.06	-49.0	-55.6	3.6	0.00e+00	0	48	104	0	60	71268
2026-01-28 17:36:20.40	339.84	5.97	-48.9	-55.5	3.6	0.00e+00	0	48	104	0	60	70137
2026-01-28 17:36:21.41	339.85	5.89	-53.0	-57.4	3.6	0.00e+00	0	48	104	0	60	87893
2026-01-28 17:36:22.42	339.86	5.80	-54.7	-58.7	3.6	0.00e+00	0	48	104	0	60	101846
2026-01-28 17:36:23.43	339.87	5.72	-55.3	-59.2	3.6	0.00e+00	0	48	104	0	60	107355
2026-01-28 17:36:24.44	339.87	5.64	-55.2	-59.3	3.6	0.00e+00	0	48	104	0	60	109514
2026-01-28 17:36:25.45	339.88	5.55	-55.6	-59.4	3.6	0.00e+00	0	48	104	0	60	110480
2026-01-28 17:36:26.45	339.89	5.47	-56.1	-60.1	3.6	0.00e+00	0	48	104	0	60	119556
2026-01-28 17:36:27.46	339.90	5.39	-55.7	-60.1	3.6	0.00e+00	0	48	104	0	60	120070
2026-01-28 17:36:28.47	339.91	5.30	-56.6	-60.5	3.6	0.00e+00	0	48	104	0	60	125041
2026-01-28 17:36:29.47	339.91	5.22	-56.4	-60.5	3.6	0.00e+00	0	48	104	0	60	125027
2026-01-28 17:36:30.48	339.92	5.14	-56.3	-60.2	3.6	0.00e+00	0	48	104	0	60	121769
2026-01-28 17:36:31.48	339.93	5.06	-56.2	-60.2	3.6	0.00e+00	0	48	104	0	60	120434
2026-01-28 17:36:32.48	339.94	4.98	-55.7	-59.9	3.6	0.00e+00	0	48	104	0	60	117149
2026-01-28 17:36:33.48	339.95	4.90	-56.8	-60.4	3.6	0.00e+00	0	48	104	0	60	123291
2026-01-28 17:36:34.49	339.95	4.82	-56.5	-60.3	3.6	0.00e+00	0	48	104	0	60	122525
2026-01-28 17:36:35.49	339.96	4.74	-57.0	-61.0	3.6	0.00e+00	0	48	104	0	60	133221
2026-01-28 17:36:36.50	339.97	4.66	-57.4	-61.6	3.6	0.00e+00	0	48	104	0	60	142744
2026-01-28 17:36:37.51	339.98	4.58	-55.4	-60.4	3.6	0.00e+00	0	48	104	0	60	124123
2026-01-28 17:36:38.52	339.98	4.50	-55.1	-59.9	3.6	0.00e+00	0	48	104	0	60	116339
2026-01-28 17:36:39.52	339.99	4.42	-56.0	-60.2	3.6	0.00e+00	0	48	104	0	60	121596
2026-01-28 17:36:40.53	340.00	4.34	-56.0	-60.3	3.6	0.00e+00	0	48	104	0	60	122413
2026-01-28 17:36:41.54	340.01	4.27	-56.0	-60.3	3.6	0.00e+00	0	48	104	0	60	122767
2026-01-28 17:36:42.55	340.01	4.19	-56.0	-60.3	3.6	0.00e+00	0	48	104	0	60	122859
2026-01-28 17:36:43.55	340.02	4.11	-56.0	-60.3	3.6	0.00e+00	0	48	104	0	60	122394
2026-01-28 17:36:44.56	340.03	4.03	-55.9	-60.2	3.6	0.00e+00	0	48	104	0	60	120764
2026-01-28 17:36:45.57	340.04	3.96	-55.9	-60.2	3.5	0.00e+00	0	48	104	0	60	120788
2026-01-28 17:36:46.57	340.05	3.88	-55.9	-60.2	3.5	0.00e+00	0	48	104	0	60	121371
2026-01-28 17:36:47.58	340.05	3.80	-55.9	-60.2	3.6	0.00e+00	0	48	104	0	60	121736
2026-01-28 17:36:48.59	340.06	3.73	-55.9	-60.2	3.6	0.00e+00	0	48	104	0	60	120785
2026-01-28 17:36:49.60	340.07	3.65	-55.9	-60.3	3.6	0.00e+00	0	48	104	0	60	122117
2026-01-28 17:36:50.60	340.08	3.57	-55.9	-60.2	3.6	0.00e+00	0	48	104	0	60	121463
2026-01-28 17:36:51.60	340.08	3.50	-55.9	-60.2	3.6	0.00e+00	0	48	104	0	60	120999
2026-01-28 17:36:52.61	340.09	3.42	-55.9	-60.2	3.6	0.00e+00	0	48	104	0	60	121011
2026-01-28 17:36:53.61	340.10	3.35	-56.0	-59.6	3.3	0.00e+00	0	49	104	0	60	112782
2026-01-28 17:36:54.62	340.10	3.28	-55.9	-60.2	3.6	0.00e+00	0	48	104	0	60	120981
2026-01-28 17:36:55.63	340.11	3.20	-55.9	-60.2	3.6	0.00e+00	0	48	104	0	60	121564
2026-01-28 17:36:56.64	340.12	3.13	-55.9	-60.2	3.6	0.00e+00	0	48	104	0	60	120777
2026-01-28 17:36:57.65	340.13	3.05	-55.9	-60.2	3.6	0.00e+00	0	48	104	0	60	120571
2026-01-28 17:36:58.66	340.13	2.98	-55.8	-60.1	3.6	0.00e+00	0	48	104	0	60	120223
2026-01-28 17:36:59.66	340.14	2.91	-55.9	-60.2	3.6	0.00e+00	0	48	104	0	60	120470
2026-01-28 17:37:00.67	340.15	2.83	-55.8	-60.1	3.6	0.00e+00	0	48	104	0	60	119963
2026-01-28 17:37:01.68	340.16	2.76	-55.8	-60.1	3.6	0.00e+00	0	48	104	0	60	119500
2026-01-28 17:37:02.69	340.16	2.69	-55.8	-60.1	3.6	0.00e+00	0	48	104	0	60	119905
2026-01-28 17:37:03.69	340.17	2.62	-55.8	-60.1	3.6	0.00e+00	0	48	104	0	60	119207
2026-01-28 17:37:04.70	340.18	2.54	-55.8	-60.1	3.6	0.00e+00	0	48	104	0	60	119155
2026-01-28 17:37:05.70	340.19	2.47	-55.8	-60.1	3.6	0.00e+00	0	48	104	0	60	119667
2026-01-28 17:37:06.70	340.19	2.40	-55.8	-60.1	3.6	0.00e+00	0	48	104	0	60	119908
2026-01-28 17:37:07.71	340.20	2.33	-55.8	-60.0	3.6	0.00e+00	0	48	104	0	60	118937
2026-01-28 17:37:08.72	340.21	2.26	-55.7	-60.0	3.6	0.00e+00	0	48	104	0	60	118801
2026-01-28 17:37:09.73	340.21	2.19	-55.7	-60.0	3.6	0.00e+00	0	48	104	0	60	118488
2026-01-28 17:37:10.73	340.22	2.12	-55.7	-60.0	3.6	0.00e+00	0	48	104	0	60	118539
2026-01-28 17:37:11.74	340.23	2.05	-55.7	-60.0	3.6	0.00e+00	0	48	104	0	60	118639
2026-01-28 17:37:12.75	340.23	1.98	-55.7	-60.1	3.6	0.00e+00	0	48	104	0	60	119648
2026-01-28 17:37:13.76	340.24	1.91	-55.7	-60.0	3.6	0.00e+00	0	48	104	0	60	118711
2026-01-28 17:37:14.77	340.25	1.84	-55.7	-60.0	3.6	0.00e+00	0	48	104	0	60	118827
2026-01-28 17:37:15.78	340.26	1.77	-55.7	-60.0	3.6	0.00e+00	0	48	104	0	60	118324
2026-01-28 17:37:16.78	340.26	1.70	-55.7	-60.0	3.6	0.00e+00	0	48	104	0	60	117783
2026-01-28 17:37:17.79	340.27	1.63	-55.7	-60.0	3.6	0.00e+00	0	48	104	0	60	118464
2026-01-28 17:37:18.79	340.28	1.56	-55.6	-60.0	3.5	0.00e+00	0	48	104	0	60	117973
2026-01-28 17:37:19.80	340.28	1.49	-55.5	-60.0	3.6	0.00e+00	0	48	104	0	60	117973
2026-01-28 17:37:20.81	340.29	1.42	-50.9	-57.5	3.6	0.00e+00	0	48	104	0	60	88298
2026-01-28 17:37:21.82	340.30	1.36	-55.5	-59.9	3.6	0.00e+00	0	48	104	0	60	116834
2026-01-28 17:37:22.82	340.30	1.29	-55.7	-60.0	3.6	0.00e+00	0	48	104	0	60	117949
2026-01-28 17:37:23.83	340.31	1.22	-55.7	-59.9	3.6	0.00e+00	0	48	104	0	60	117276
2026-01-28 17:37:24.84	340.32	1.15	-55.7	-60.0	3.6	0.00e+00	0	48	104	0	60	117924
2026-01-28 17:37:25.84	340.33	1.09	-55.7	-60.0	3.6	0.00e+00	0	48	104	0	60	117933
2026-01-28 17:37:26.85	340.33	1.02	-55.7	-60.0	3.6	0.00e+00	0	48	104	0	60	118319
2026-01-28 17:37:27.85	340.34	0.95	-55.7	-60.0	3.6	0.00e+00	0	48	104	0	60	118953
2026-01-28 17:37:28.86	340.35	0.89	-55.6	-59.9	3.6	0.00e+00	0	48	104	0	60	117539
2026-01-28 17:37:29.87	340.35	0.82	-55.6	-59.9	3.6	0.00e+00	0	48	104	0	60	117517
2026-01-28 17:37:30.87	340.36	0.75	-55.6	-59.9	3.5	0.00e+00	0	48	104	0	60	117147
2026-01-28 17:37:31.88	340.37	0.69	-55.6	-59.9	3.6	0.00e+00	0	48	104	0	60	116830
2026-01-28 17:37:32.89	340.37	0.62	-55.6	-60.0	3.6	0.00e+00	0	48	104	0	60	117806
2026-01-28 17:37:33.89	340.38	0.56	-55.6	-59.9	3.6	0.00e+00	0	48	104	0	60	117482
2026-01-28 17:37:34.90	340.39	0.49	-55.6	-60.0	3.6	0.00e+00	0	48	104	0	60	118229
2026-01-28 17:37:35.91	340.39	0.42	-55.7	-60.0	3.6	0.00e+00	0	48	104	0	60	118483
2026-01-28 17:37:36.92	340.40	0.36	-55.7	-60.0	3.6	0.00e+00	0	48	104	0	60	117916
2026-01-28 17:37:37.92	340.41	0.29	-55.7	-60.0	3.6	0.00e+00	0	48	104	0	60	117910
2026-01-28 17:37:38.93	340.41	0.23	-55.7	-60.0	3.6	0.00e+00	0	48	104	0	60	118187
2026-01-28 17:37:39.93	340.42	0.17	-55.7	-60.0	3.6	0.00e+00	0	48	104	0	60	117707
2026-01-28 17:37:40.94	340.43	0.10	-55.7	-60.0	3.6	0.00e+00	0	48	104	0	60	118219
2026-01-28 17:37:41.95	340.43	0.04	-55.7	-59.9	3.6	0.00e+00	0	48	104	0	60	116884
2026-01-28 17:37:42.96	340.44	-0.03	-55.6	-59.9	3.6	0.00e+00	0	48	104	0	60	116598
2026-01-28 17:37:43.96	340.45	-0.09	-55.6	-59.9	3.6	0.00e+00	0	48	104	0	60	116960

#Closed at: 2026-01-28 17:37:44
#Recorded file [0 MB]: D:/Data/35015_260128_203653.dat