passes_logs/2026/01/28/R3.2S-Naryan-Mar/R3.2S-Naryan-Mar__20260128_111615_TY-40_rec.log

#Pass ID: 20260128_111615_TY-40
#Satellite: TY-40
#Configuration: TY-39
#almurnet v.1.7.20240730
#Start time: 2026-01-28 11:16:20

#Version: 2.2.20231116
#Station: R3.2S-Naryan-Mar
#Location: 53.008057 lon 67.646978 lat
#TLE: 1 56846U 23081A   26027.60022461  .00005238  00000+0  23320-3 0  9991
#TLE: 2 56846  97.3872 100.2896 0001467  75.3792 284.7607 15.21884924146621

#Time	Az	El	Level	Level2	SNR	BER	BlckErr	Temp	State	Recorded	gain1	gain2
2026-01-28 11:16:20.17	31.74	0.26	-59.7	-77.3	3.5	1.51e+00	0	43	0	0	60	287858
2026-01-28 11:16:21.17	31.63	0.31	-56.8	-60.4	3.5	0.00e+00	0	45	104	0	60	124155
2026-01-28 11:16:22.17	31.53	0.36	-57.0	-60.9	3.6	0.00e+00	0	45	104	0	60	130686
2026-01-28 11:16:23.18	31.42	0.41	-56.6	-60.5	3.6	0.00e+00	0	45	104	0	60	125404
2026-01-28 11:16:24.19	31.31	0.46	-56.0	-60.0	3.5	0.00e+00	0	45	104	0	60	118706
2026-01-28 11:16:25.19	31.21	0.51	-55.2	-59.2	3.6	0.00e+00	0	45	104	0	60	107647
2026-01-28 11:16:26.20	31.10	0.57	-52.9	-58.1	3.5	0.00e+00	0	45	104	0	60	94779
2026-01-28 11:16:27.21	30.99	0.62	-53.3	-57.8	3.6	0.00e+00	0	45	104	0	60	92265
2026-01-28 11:16:28.21	30.88	0.67	-54.6	-58.6	3.6	0.00e+00	0	45	104	0	60	100432
2026-01-28 11:16:29.22	30.77	0.72	-51.4	-56.6	3.6	0.00e+00	0	45	104	0	60	79908
2026-01-28 11:16:30.23	30.66	0.77	-51.3	-55.8	3.6	0.00e+00	0	45	104	0	60	72712
2026-01-28 11:16:31.24	30.55	0.82	-47.6	-53.6	3.6	0.00e+00	0	46	104	0	60	56434
2026-01-28 11:16:32.24	30.44	0.87	-51.3	-55.7	3.6	0.00e+00	0	46	104	0	60	72460
2026-01-28 11:16:33.25	30.32	0.93	-50.1	-56.0	3.6	0.00e+00	0	45	104	0	60	74901
2026-01-28 11:16:34.26	30.21	0.98	-51.3	-56.8	3.6	0.00e+00	0	46	104	0	60	81929
2026-01-28 11:16:35.26	30.10	1.03	-51.4	-56.8	3.6	0.00e+00	0	46	104	0	60	81640
2026-01-28 11:16:36.27	29.99	1.08	-51.3	-56.8	3.6	0.00e+00	0	46	104	0	60	82025
2026-01-28 11:16:37.28	29.87	1.13	-51.4	-56.8	3.6	0.00e+00	0	46	104	0	60	81975
2026-01-28 11:16:38.28	29.76	1.19	-51.3	-56.7	3.6	0.00e+00	0	46	104	0	60	80838
2026-01-28 11:16:39.28	29.64	1.24	-51.3	-56.7	3.6	0.00e+00	0	46	104	0	60	80909
2026-01-28 11:16:40.29	29.53	1.29	-51.4	-56.7	3.6	0.00e+00	0	46	104	0	60	81130
2026-01-28 11:16:41.30	29.41	1.34	-51.3	-56.7	3.6	0.00e+00	0	46	104	0	60	80824
2026-01-28 11:16:42.30	29.30	1.39	-51.4	-56.7	3.6	0.00e+00	0	46	104	0	60	81262
2026-01-28 11:16:43.31	29.18	1.44	-51.5	-56.7	3.6	0.00e+00	0	46	104	0	60	81080
2026-01-28 11:16:44.32	29.06	1.50	-51.6	-56.8	3.6	0.00e+00	0	46	104	0	60	81952
2026-01-28 11:16:45.33	28.94	1.55	-51.6	-56.8	3.6	0.00e+00	0	46	104	0	60	82088
2026-01-28 11:16:46.33	28.82	1.60	-51.6	-56.8	3.6	0.00e+00	0	46	104	0	60	81654
2026-01-28 11:16:47.33	28.71	1.65	-51.5	-56.8	3.6	0.00e+00	0	46	104	0	60	81631
2026-01-28 11:16:48.33	28.59	1.70	-51.5	-56.8	3.6	0.00e+00	0	46	104	0	60	81711
2026-01-28 11:16:49.34	28.47	1.76	-51.5	-56.8	3.6	0.00e+00	0	46	104	0	60	81746
2026-01-28 11:16:50.35	28.34	1.81	-51.4	-56.7	3.6	0.00e+00	0	46	104	0	60	81052
2026-01-28 11:16:51.36	28.22	1.86	-51.4	-56.7	3.6	0.00e+00	0	46	104	0	60	80939
2026-01-28 11:16:52.36	28.10	1.91	-51.4	-56.7	3.6	0.00e+00	0	46	104	0	60	80680
2026-01-28 11:16:53.37	27.98	1.97	-51.4	-56.7	3.6	0.00e+00	0	46	104	0	60	80874
2026-01-28 11:16:54.38	27.85	2.02	-51.3	-56.6	3.6	0.00e+00	0	46	104	0	60	80386
2026-01-28 11:16:55.38	27.73	2.07	-51.2	-56.7	3.6	0.00e+00	0	46	104	0	60	80564
2026-01-28 11:16:56.39	27.61	2.12	-51.2	-56.6	3.6	0.00e+00	0	46	104	0	60	80379
2026-01-28 11:16:57.40	27.48	2.18	-51.1	-56.5	3.6	0.00e+00	0	46	104	0	60	79403
2026-01-28 11:16:58.41	27.36	2.23	-51.2	-56.6	3.6	0.00e+00	0	46	104	0	60	79822
2026-01-28 11:16:59.42	27.23	2.28	-51.2	-56.6	3.6	0.00e+00	0	46	104	0	60	80406
2026-01-28 11:17:00.43	27.10	2.33	-51.2	-56.6	3.6	0.00e+00	0	46	104	0	60	80065
2026-01-28 11:17:01.44	26.97	2.39	-51.1	-56.5	3.6	0.00e+00	0	46	104	0	60	79406
2026-01-28 11:17:02.44	26.85	2.44	-51.0	-56.5	3.6	0.00e+00	0	46	104	0	60	79422
2026-01-28 11:17:03.45	26.72	2.49	-51.0	-56.5	3.6	0.00e+00	0	46	104	0	60	78855
2026-01-28 11:17:04.45	26.59	2.54	-51.0	-56.5	3.6	0.00e+00	0	46	104	0	60	79369
2026-01-28 11:17:05.46	26.46	2.60	-51.0	-56.5	3.6	0.00e+00	0	46	104	0	60	79177
2026-01-28 11:17:06.46	26.33	2.65	-50.9	-56.5	3.6	0.00e+00	0	46	104	0	60	78767
2026-01-28 11:17:07.46	26.20	2.70	-51.0	-56.5	3.6	0.00e+00	0	46	104	0	60	79174
2026-01-28 11:17:08.47	26.07	2.75	-51.3	-56.6	3.6	0.00e+00	0	46	104	0	60	79821
2026-01-28 11:17:09.47	25.94	2.81	-51.3	-56.7	3.6	0.00e+00	0	46	104	0	60	80562
2026-01-28 11:17:10.48	25.80	2.86	-51.3	-56.6	3.6	0.00e+00	0	46	104	0	60	80429
2026-01-28 11:17:11.49	25.67	2.91	-51.3	-56.7	3.6	0.00e+00	0	46	104	0	60	80752
2026-01-28 11:17:12.49	25.54	2.96	-51.4	-56.7	3.6	0.00e+00	0	47	104	0	60	80533
2026-01-28 11:17:13.50	25.40	3.02	-51.4	-56.7	3.6	0.00e+00	0	46	104	0	60	80535
2026-01-28 11:17:14.51	25.27	3.07	-51.5	-56.7	3.6	0.00e+00	0	47	104	0	60	81245
2026-01-28 11:17:15.52	25.13	3.12	-51.5	-56.8	3.6	0.00e+00	0	47	104	0	60	81428
2026-01-28 11:17:16.52	24.99	3.17	-51.5	-56.7	3.6	0.00e+00	0	47	104	0	60	80949
2026-01-28 11:17:17.53	24.86	3.23	-51.5	-56.7	3.6	0.00e+00	0	46	104	0	60	80843
2026-01-28 11:17:18.53	24.72	3.28	-51.4	-56.7	3.6	0.00e+00	0	47	104	0	60	81082
2026-01-28 11:17:19.54	24.58	3.33	-51.5	-56.7	3.6	0.00e+00	0	47	104	0	60	81102
2026-01-28 11:17:20.55	24.44	3.38	-51.6	-56.8	3.6	0.00e+00	0	47	104	0	60	81699
2026-01-28 11:17:21.55	24.30	3.44	-51.6	-56.7	3.6	0.00e+00	0	47	104	0	60	81113
2026-01-28 11:17:22.56	24.16	3.49	-51.6	-56.7	3.6	0.00e+00	0	47	104	0	60	81134
2026-01-28 11:17:23.56	24.02	3.54	-51.6	-56.7	3.6	0.00e+00	0	47	104	0	60	80995
2026-01-28 11:17:24.57	23.88	3.59	-51.5	-56.7	3.6	0.00e+00	0	47	104	0	60	80752
2026-01-28 11:17:25.58	23.73	3.65	-51.5	-56.7	3.6	0.00e+00	0	47	104	0	60	80521
2026-01-28 11:17:26.59	23.59	3.70	-51.5	-56.7	3.6	0.00e+00	0	47	104	0	60	80598
2026-01-28 11:17:27.59	23.45	3.75	-51.5	-56.7	3.6	0.00e+00	0	47	104	0	60	81029
2026-01-28 11:17:28.60	23.30	3.81	-51.6	-56.7	3.6	0.00e+00	0	47	104	0	60	81182
2026-01-28 11:17:29.61	23.16	3.86	-51.6	-56.7	3.5	0.00e+00	0	47	104	0	60	80996
2026-01-28 11:17:30.62	23.01	3.91	-51.5	-56.7	3.6	0.00e+00	0	47	104	0	60	80654
2026-01-28 11:17:31.62	22.87	3.96	-51.7	-56.8	3.6	0.00e+00	0	47	104	0	60	81598
2026-01-28 11:17:32.63	22.72	4.02	-51.6	-56.7	3.6	0.00e+00	0	47	104	0	60	81028
2026-01-28 11:17:33.63	22.57	4.07	-51.6	-56.7	3.6	0.00e+00	0	47	104	0	60	81219
2026-01-28 11:17:34.64	22.42	4.12	-51.6	-56.8	3.6	0.00e+00	0	47	104	0	60	81426
2026-01-28 11:17:35.65	22.27	4.17	-51.6	-56.8	3.6	0.00e+00	0	47	104	0	60	81661
2026-01-28 11:17:36.66	22.12	4.23	-51.6	-56.8	3.6	0.00e+00	0	47	104	0	60	81519
2026-01-28 11:17:37.66	21.97	4.28	-51.6	-56.7	3.6	0.00e+00	0	47	104	0	60	80844
2026-01-28 11:17:38.66	21.82	4.33	-51.5	-56.6	3.6	0.00e+00	0	47	104	0	60	80425
2026-01-28 11:17:39.67	21.67	4.38	-51.4	-56.7	3.6	0.00e+00	0	47	104	0	60	80827
2026-01-28 11:17:40.67	21.52	4.44	-51.5	-56.6	3.6	0.00e+00	0	47	104	0	60	80225
2026-01-28 11:17:41.68	21.36	4.49	-51.3	-56.6	3.6	0.00e+00	0	47	104	0	60	79933
2026-01-28 11:17:42.68	21.21	4.54	-51.4	-56.7	3.6	0.00e+00	0	47	104	0	60	80511
2026-01-28 11:17:43.69	21.05	4.59	-51.3	-56.6	3.6	0.00e+00	0	47	104	0	60	79715
2026-01-28 11:17:44.70	20.90	4.65	-51.3	-56.6	3.6	0.00e+00	0	47	104	0	60	79651
2026-01-28 11:17:45.71	20.74	4.70	-51.2	-56.5	3.6	0.00e+00	0	47	104	0	60	79393
2026-01-28 11:17:46.72	20.58	4.75	-51.3	-56.6	3.6	0.00e+00	0	47	104	0	60	79652
2026-01-28 11:17:47.72	20.43	4.80	-51.3	-56.6	3.6	0.00e+00	0	47	104	0	60	79823
2026-01-28 11:17:48.73	20.27	4.86	-51.2	-56.5	3.6	0.00e+00	0	47	104	0	60	79305
2026-01-28 11:17:49.74	20.11	4.91	-51.2	-56.6	3.6	0.00e+00	0	47	104	0	60	79634
2026-01-28 11:17:50.75	19.95	4.96	-51.2	-56.5	3.6	0.00e+00	0	47	104	0	60	79503
2026-01-28 11:17:51.75	19.79	5.01	-51.2	-56.5	3.6	0.00e+00	0	47	104	0	60	79114
2026-01-28 11:17:52.76	19.62	5.07	-51.1	-56.5	3.6	0.00e+00	0	47	104	0	60	79406
2026-01-28 11:17:53.77	19.46	5.12	-51.2	-56.5	3.6	0.00e+00	0	47	104	0	60	79104
2026-01-28 11:17:54.78	19.30	5.17	-51.2	-56.5	3.6	0.00e+00	0	47	104	0	60	79383
2026-01-28 11:17:55.79	19.13	5.22	-51.1	-56.5	3.6	0.00e+00	0	47	104	0	60	78821
2026-01-28 11:17:56.79	18.97	5.27	-51.1	-56.5	3.6	0.00e+00	0	47	104	0	60	79000
2026-01-28 11:17:57.80	18.80	5.33	-51.1	-56.5	3.6	0.00e+00	0	47	104	0	60	79286
2026-01-28 11:17:58.80	18.64	5.38	-51.1	-56.5	3.6	0.00e+00	0	47	104	0	60	78762
2026-01-28 11:17:59.81	18.47	5.43	-51.1	-56.5	3.6	0.00e+00	0	47	104	0	60	78652
2026-01-28 11:18:00.81	18.30	5.48	-51.1	-56.4	3.6	0.00e+00	0	47	104	0	60	78455
2026-01-28 11:18:01.82	18.14	5.53	-51.0	-56.5	3.6	0.00e+00	0	47	104	0	60	78748
2026-01-28 11:18:02.83	17.97	5.58	-51.0	-56.5	3.6	0.00e+00	0	47	104	0	60	78779
2026-01-28 11:18:03.84	17.79	5.64	-50.9	-56.4	3.6	0.00e+00	0	47	104	0	60	77937
2026-01-28 11:18:04.85	17.62	5.69	-50.9	-56.4	3.6	0.00e+00	0	47	104	0	60	78273
2026-01-28 11:18:05.85	17.45	5.74	-50.9	-56.4	3.6	0.00e+00	0	47	104	0	60	78021
2026-01-28 11:18:06.87	17.28	5.79	-50.9	-56.4	3.6	0.00e+00	0	47	104	0	60	78166
2026-01-28 11:18:07.87	17.11	5.84	-50.9	-56.4	3.6	0.00e+00	0	47	104	0	60	77971
2026-01-28 11:18:08.87	16.93	5.89	-51.0	-56.4	3.6	0.00e+00	0	47	104	0	60	78133
2026-01-28 11:18:09.88	16.76	5.94	-50.9	-56.4	3.6	0.00e+00	0	47	104	0	60	78147
2026-01-28 11:18:10.88	16.58	6.00	-50.9	-56.4	3.6	0.00e+00	0	47	104	0	60	78079
2026-01-28 11:18:11.88	16.41	6.05	-50.6	-56.1	3.6	0.00e+00	0	47	104	0	60	75327
2026-01-28 11:18:12.88	16.23	6.10	-49.2	-54.6	3.6	0.00e+00	0	47	104	0	60	63532
2026-01-28 11:18:13.89	16.05	6.15	-52.8	-56.8	3.6	0.00e+00	0	47	104	0	60	81680
2026-01-28 11:18:14.89	15.88	6.20	-51.7	-55.4	3.6	0.00e+00	0	47	104	0	60	69501
2026-01-28 11:18:15.89	15.70	6.25	-49.2	-54.7	3.6	0.00e+00	0	47	104	0	60	64331
2026-01-28 11:18:16.89	15.52	6.30	-49.5	-54.8	3.6	0.00e+00	0	47	104	0	60	64889
2026-01-28 11:18:17.90	15.34	6.35	-50.6	-54.6	3.6	0.00e+00	0	47	104	0	60	63750
2026-01-28 11:18:18.90	15.16	6.40	-50.2	-54.2	3.6	0.00e+00	0	47	104	0	60	60989
2026-01-28 11:18:19.91	14.97	6.45	-49.4	-53.7	3.6	0.00e+00	0	47	104	0	60	57393
2026-01-28 11:18:20.91	14.79	6.50	-51.7	-55.7	3.6	0.00e+00	0	47	104	0	60	72494
2026-01-28 11:18:21.92	14.61	6.55	-50.5	-54.5	3.6	0.00e+00	0	47	104	0	60	63167
2026-01-28 11:18:22.93	14.42	6.60	-51.6	-54.9	3.6	0.00e+00	0	47	104	0	60	65768
2026-01-28 11:18:23.94	14.23	6.65	-49.1	-53.4	3.6	0.00e+00	0	47	104	0	60	55513
2026-01-28 11:18:24.94	14.05	6.70	-49.3	-53.6	3.6	0.00e+00	0	47	104	0	60	56339
2026-01-28 11:18:25.95	13.86	6.75	-49.3	-53.5	3.6	0.00e+00	0	47	104	0	60	56124
2026-01-28 11:18:26.95	13.67	6.80	-50.2	-54.0	3.6	0.00e+00	0	47	104	0	60	59508
2026-01-28 11:18:27.96	13.48	6.85	-53.6	-56.6	3.6	0.00e+00	0	47	104	0	60	79639
2026-01-28 11:18:28.96	13.30	6.90	-51.2	-56.4	3.6	0.00e+00	0	47	104	0	60	77798
2026-01-28 11:18:29.97	13.10	6.95	-53.7	-57.1	3.6	0.00e+00	0	47	104	0	60	84629
2026-01-28 11:18:30.98	12.91	7.00	-52.8	-57.4	3.6	0.00e+00	0	47	104	0	60	87392
2026-01-28 11:18:31.98	12.72	7.05	-51.5	-56.4	3.6	0.00e+00	0	47	104	0	60	78267
2026-01-28 11:18:32.99	12.53	7.09	-51.6	-56.4	3.6	0.00e+00	0	47	104	0	60	78488
2026-01-28 11:18:34.00	12.33	7.14	-52.0	-56.7	3.6	0.00e+00	0	47	104	0	60	80534
2026-01-28 11:18:35.00	12.14	7.19	-53.0	-57.2	3.6	0.00e+00	0	47	104	0	60	85422
2026-01-28 11:18:36.01	11.94	7.24	-51.8	-56.8	3.6	0.00e+00	0	47	104	0	60	82204
2026-01-28 11:18:37.01	11.75	7.29	-53.3	-58.1	3.6	0.00e+00	0	47	104	0	60	94646
2026-01-28 11:18:38.02	11.55	7.34	-53.0	-57.6	3.6	0.00e+00	0	47	104	0	60	89641
2026-01-28 11:18:39.03	11.35	7.39	-55.4	-59.0	3.6	0.00e+00	0	47	104	0	60	106025
2026-01-28 11:18:40.04	11.15	7.43	-53.3	-57.4	3.6	0.00e+00	0	47	104	0	60	88107
2026-01-28 11:18:41.05	10.95	7.48	-52.8	-57.2	3.6	0.00e+00	0	48	104	0	60	85539
2026-01-28 11:18:42.05	10.75	7.53	-53.5	-57.4	3.6	0.00e+00	0	48	104	0	60	87632
2026-01-28 11:18:43.06	10.55	7.58	-53.2	-57.4	3.6	0.00e+00	0	47	104	0	60	87296
2026-01-28 11:18:44.07	10.34	7.62	-54.2	-58.3	3.6	0.00e+00	0	48	104	0	60	96955
2026-01-28 11:18:45.07	10.14	7.67	-53.7	-57.8	3.6	0.00e+00	0	47	104	0	60	91434
2026-01-28 11:18:46.08	9.94	7.72	-54.3	-58.2	3.6	0.00e+00	0	47	104	0	60	96408
2026-01-28 11:18:47.09	9.73	7.76	-52.8	-57.7	3.6	0.00e+00	0	47	104	0	60	90716
2026-01-28 11:18:48.09	9.53	7.81	-53.3	-57.8	3.6	0.00e+00	0	47	104	0	60	91333
2026-01-28 11:18:49.09	9.32	7.86	-52.9	-57.5	3.6	0.00e+00	0	47	104	0	60	89235
2026-01-28 11:18:50.10	9.11	7.90	-52.9	-57.5	3.6	0.00e+00	0	47	104	0	60	88292
2026-01-28 11:18:51.11	8.91	7.95	-53.7	-57.8	3.6	0.00e+00	0	47	104	0	60	91322
2026-01-28 11:18:52.12	8.70	7.99	-53.7	-58.0	3.6	0.00e+00	0	47	104	0	60	94298
2026-01-28 11:18:53.12	8.49	8.04	-52.0	-57.6	3.6	0.00e+00	0	47	104	0	60	89250
2026-01-28 11:18:54.12	8.28	8.09	-54.0	-58.0	3.6	0.00e+00	0	47	104	0	60	94089
2026-01-28 11:18:55.13	8.07	8.13	-55.0	-58.6	3.6	0.00e+00	0	47	104	0	60	100339
2026-01-28 11:18:56.14	7.85	8.18	-53.9	-57.9	3.6	0.00e+00	0	47	104	0	60	92715
2026-01-28 11:18:57.15	7.64	8.22	-53.1	-58.0	3.6	0.00e+00	0	47	104	0	60	94228
2026-01-28 11:18:58.15	7.43	8.27	-53.7	-58.2	3.6	0.00e+00	0	47	104	0	60	96669
2026-01-28 11:18:59.16	7.21	8.31	-53.5	-58.1	3.6	0.00e+00	0	47	104	0	60	95610
2026-01-28 11:19:00.17	6.99	8.35	-54.2	-58.6	3.6	0.00e+00	0	48	104	0	60	100175
2026-01-28 11:19:01.18	6.78	8.40	-52.5	-57.8	3.6	0.00e+00	0	47	104	0	60	91677
2026-01-28 11:19:02.19	6.56	8.44	-53.8	-57.7	3.6	0.00e+00	0	47	104	0	60	90584
2026-01-28 11:19:03.19	6.34	8.49	-53.9	-58.3	3.6	0.00e+00	0	47	104	0	60	97524
2026-01-28 11:19:04.20	6.12	8.53	-53.0	-57.1	3.6	0.00e+00	0	47	104	0	60	84824
2026-01-28 11:19:05.21	5.90	8.57	-52.9	-57.1	3.6	0.00e+00	0	47	104	0	60	84889
2026-01-28 11:19:06.22	5.68	8.61	-53.3	-56.9	3.6	0.00e+00	0	47	104	0	60	82904
2026-01-28 11:19:07.22	5.46	8.66	-53.6	-57.0	3.6	0.00e+00	0	48	104	0	60	83782
2026-01-28 11:19:08.23	5.24	8.70	-52.2	-57.6	3.6	0.00e+00	0	48	104	0	60	89359
2026-01-28 11:19:09.23	5.02	8.74	-54.3	-58.5	3.6	0.00e+00	0	48	104	0	60	100012
2026-01-28 11:19:10.24	4.79	8.78	-52.9	-57.2	3.6	0.00e+00	0	48	104	0	60	85526
2026-01-28 11:19:11.25	4.57	8.82	-53.7	-57.4	3.6	0.00e+00	0	48	104	0	60	87452
2026-01-28 11:19:12.26	4.34	8.87	-53.1	-57.1	3.6	0.00e+00	0	48	104	0	60	84960
2026-01-28 11:19:13.27	4.11	8.91	-53.6	-57.3	3.6	0.00e+00	0	48	104	0	60	87079
2026-01-28 11:19:14.27	3.89	8.95	-53.8	-57.4	3.6	0.00e+00	0	48	104	0	60	87530
2026-01-28 11:19:15.28	3.66	8.99	-53.6	-57.3	3.6	0.00e+00	0	48	104	0	60	87108
2026-01-28 11:19:16.29	3.43	9.03	-54.1	-57.8	3.6	0.00e+00	0	48	104	0	60	91731
2026-01-28 11:19:17.29	3.20	9.07	-53.4	-57.6	3.6	0.00e+00	0	47	104	0	60	89674
2026-01-28 11:19:18.30	2.97	9.11	-52.4	-57.1	3.6	0.00e+00	0	48	104	0	60	85210
2026-01-28 11:19:19.31	2.74	9.15	-54.8	-58.9	3.6	0.00e+00	0	48	104	0	60	103807
2026-01-28 11:19:20.31	2.51	9.19	-53.8	-57.5	3.6	0.00e+00	0	48	104	0	60	88647
2026-01-28 11:19:21.31	2.28	9.22	-53.4	-57.5	3.6	0.00e+00	0	48	104	0	60	88224
2026-01-28 11:19:22.32	2.04	9.26	-52.9	-57.3	3.6	0.00e+00	0	48	104	0	60	87125
2026-01-28 11:19:23.32	1.81	9.30	-52.6	-57.2	3.5	0.00e+00	0	48	104	0	60	86205
2026-01-28 11:19:24.33	1.57	9.34	-55.0	-58.9	3.6	0.00e+00	0	48	104	0	60	103924
2026-01-28 11:19:25.34	1.34	9.38	-53.4	-57.7	3.6	0.00e+00	0	48	104	0	60	90988
2026-01-28 11:19:26.35	1.10	9.41	-53.8	-57.8	3.6	0.00e+00	0	48	104	0	60	92000
2026-01-28 11:19:27.36	0.86	9.45	-54.7	-58.7	3.6	0.00e+00	0	48	104	0	60	101305
2026-01-28 11:19:28.36	0.63	9.49	-52.7	-56.9	3.6	0.00e+00	0	48	104	0	60	82898
2026-01-28 11:19:29.37	0.39	9.52	-52.7	-57.0	3.6	0.00e+00	0	48	104	0	60	83430
2026-01-28 11:19:30.38	0.15	9.56	-53.2	-57.2	3.6	0.00e+00	0	48	104	0	60	86069
2026-01-28 11:19:31.39	359.91	9.59	-53.8	-57.6	3.6	0.00e+00	0	48	104	0	60	89305
2026-01-28 11:19:32.39	359.67	9.63	-53.3	-57.8	3.6	0.00e+00	0	48	104	0	60	91987
2026-01-28 11:19:33.40	359.43	9.66	-54.3	-58.2	3.6	0.00e+00	0	48	104	0	60	95661
2026-01-28 11:19:34.41	359.18	9.70	-53.6	-57.4	3.6	0.00e+00	0	48	104	0	60	87788
2026-01-28 11:19:35.41	358.94	9.73	-54.2	-57.8	3.6	0.00e+00	0	48	104	0	60	92025
2026-01-28 11:19:36.42	358.70	9.77	-53.6	-57.4	3.6	0.00e+00	0	48	104	0	60	88090
2026-01-28 11:19:37.42	358.45	9.80	-54.4	-57.9	3.6	0.00e+00	0	48	104	0	60	92752
2026-01-28 11:19:38.43	358.21	9.83	-54.2	-57.8	3.6	0.00e+00	0	48	104	0	60	91928
2026-01-28 11:19:39.43	357.96	9.87	-54.1	-57.8	3.6	0.00e+00	0	48	104	0	60	92198
2026-01-28 11:19:40.44	357.72	9.90	-54.0	-58.1	3.6	0.00e+00	0	48	104	0	60	94608
2026-01-28 11:19:41.44	357.47	9.93	-54.1	-58.1	3.6	0.00e+00	0	48	104	0	60	95309
2026-01-28 11:19:42.45	357.22	9.96	-53.7	-57.8	3.6	0.00e+00	0	48	104	0	60	91820
2026-01-28 11:19:43.46	356.97	9.99	-53.1	-57.8	3.6	0.00e+00	0	48	104	0	60	91534
2026-01-28 11:19:44.46	356.73	10.02	-53.5	-57.9	3.6	0.00e+00	0	48	104	0	60	92648
2026-01-28 11:19:45.47	356.47	10.05	-53.6	-57.6	3.6	0.00e+00	0	48	104	0	60	90197
2026-01-28 11:19:46.48	356.22	10.08	-54.1	-58.1	3.6	0.00e+00	0	48	104	0	60	94854
2026-01-28 11:19:47.49	355.97	10.11	-53.6	-57.8	3.6	0.00e+00	0	48	104	0	60	91394
2026-01-28 11:19:48.49	355.72	10.14	-52.5	-57.4	3.6	0.00e+00	0	48	104	0	60	87885
2026-01-28 11:19:49.49	355.47	10.17	-53.7	-57.8	3.6	0.00e+00	0	48	104	0	60	91781
2026-01-28 11:19:50.50	355.22	10.20	-53.6	-57.6	3.6	0.00e+00	0	48	104	0	60	90046
2026-01-28 11:19:51.51	354.96	10.23	-53.6	-57.8	3.6	0.00e+00	0	48	104	0	60	91679
2026-01-28 11:19:52.51	354.71	10.25	-53.0	-57.6	3.6	0.00e+00	0	48	104	0	60	89285
2026-01-28 11:19:53.52	354.46	10.28	-53.9	-57.8	3.6	0.00e+00	0	48	104	0	60	91922
2026-01-28 11:19:54.53	354.20	10.31	-53.8	-57.7	3.6	0.00e+00	0	48	104	0	60	91113
2026-01-28 11:19:55.54	353.94	10.34	-53.7	-57.8	3.6	0.00e+00	0	48	104	0	60	91701
2026-01-28 11:19:56.55	353.69	10.36	-52.9	-57.6	3.6	0.00e+00	0	48	104	0	60	89337
2026-01-28 11:19:57.55	353.43	10.39	-53.9	-57.9	3.6	0.00e+00	0	48	104	0	60	93228
2026-01-28 11:19:58.55	353.17	10.41	-53.9	-57.9	3.6	0.00e+00	0	48	104	0	60	92546
2026-01-28 11:19:59.56	352.92	10.44	-53.8	-57.8	3.6	0.00e+00	0	48	104	0	60	91885
2026-01-28 11:20:00.57	352.66	10.46	-53.3	-57.9	3.6	0.00e+00	0	48	104	0	60	92859
2026-01-28 11:20:01.58	352.40	10.48	-53.9	-58.1	3.6	0.00e+00	0	48	104	0	60	94879
2026-01-28 11:20:02.58	352.14	10.51	-54.0	-58.1	3.6	0.00e+00	0	48	104	0	60	94664
2026-01-28 11:20:03.59	351.88	10.53	-54.2	-58.0	3.6	0.00e+00	0	48	104	0	60	94411
2026-01-28 11:20:04.60	351.62	10.55	-52.9	-57.8	3.6	0.00e+00	0	48	104	0	60	91456
2026-01-28 11:20:05.60	351.36	10.57	-53.2	-57.7	3.6	0.00e+00	0	48	104	0	60	90430
2026-01-28 11:20:06.60	351.10	10.59	-54.0	-57.9	3.6	0.00e+00	0	48	104	0	60	93397
2026-01-28 11:20:07.61	350.83	10.62	-54.0	-57.9	3.6	0.00e+00	0	48	104	0	60	93244
2026-01-28 11:20:08.62	350.57	10.64	-52.7	-57.6	3.6	0.00e+00	0	48	104	0	60	89768
2026-01-28 11:20:09.62	350.31	10.66	-53.8	-57.9	3.6	0.00e+00	0	48	104	0	60	92590
2026-01-28 11:20:10.62	350.05	10.68	-54.3	-58.1	3.6	0.00e+00	0	48	104	0	60	94732
2026-01-28 11:20:11.63	349.78	10.69	-54.2	-58.1	3.6	0.00e+00	0	48	104	0	60	95602
2026-01-28 11:20:12.63	349.52	10.71	-54.0	-57.9	3.6	0.00e+00	0	48	104	0	60	93024
2026-01-28 11:20:13.63	349.26	10.73	-54.1	-58.0	3.6	0.00e+00	0	48	104	0	60	93653
2026-01-28 11:20:14.64	348.99	10.75	-54.4	-58.1	3.6	0.00e+00	0	48	104	0	60	95031
2026-01-28 11:20:15.65	348.72	10.77	-54.4	-58.1	3.6	0.00e+00	0	48	104	0	60	95004
2026-01-28 11:20:16.66	348.46	10.78	-54.4	-58.1	3.6	0.00e+00	0	48	104	0	60	94585
2026-01-28 11:20:17.67	348.19	10.80	-54.0	-57.9	3.6	0.00e+00	0	48	104	0	60	93441
2026-01-28 11:20:18.68	347.92	10.81	-54.1	-57.9	3.6	0.00e+00	0	48	104	0	60	93094
2026-01-28 11:20:19.68	347.66	10.83	-54.0	-58.0	3.6	0.00e+00	0	48	104	0	60	93510
2026-01-28 11:20:20.69	347.39	10.84	-53.7	-58.0	3.6	0.00e+00	0	48	104	0	60	93473
2026-01-28 11:20:21.69	347.12	10.86	-53.9	-57.9	3.6	0.00e+00	0	48	104	0	60	93431
2026-01-28 11:20:22.70	346.86	10.87	-54.4	-58.2	3.6	0.00e+00	0	48	104	0	60	95924
2026-01-28 11:20:23.71	346.59	10.88	-53.8	-58.0	3.6	0.00e+00	0	48	104	0	60	94114
2026-01-28 11:20:24.72	346.32	10.90	-53.5	-58.0	3.5	0.00e+00	0	48	104	0	60	93694
2026-01-28 11:20:25.72	346.05	10.91	-53.8	-58.0	3.6	0.00e+00	0	48	104	0	60	94232
2026-01-28 11:20:26.72	345.78	10.92	-54.4	-58.2	3.6	0.00e+00	0	48	104	0	60	96470
2026-01-28 11:20:27.73	345.51	10.93	-53.5	-57.9	3.6	0.00e+00	0	48	104	0	60	92498
2026-01-28 11:20:28.74	345.24	10.94	-53.3	-57.9	3.6	0.00e+00	0	48	104	0	60	92466
2026-01-28 11:20:29.74	344.97	10.95	-54.0	-58.0	3.6	0.00e+00	0	48	104	0	60	94213
2026-01-28 11:20:30.75	344.70	10.96	-54.0	-58.0	3.6	0.00e+00	0	48	104	0	60	94360
2026-01-28 11:20:31.76	344.43	10.97	-54.2	-58.0	3.6	0.00e+00	0	48	104	0	60	93917
2026-01-28 11:20:32.77	344.16	10.98	-54.2	-58.1	3.6	0.00e+00	0	48	104	0	60	94970
2026-01-28 11:20:33.78	343.89	10.99	-53.9	-57.8	3.6	0.00e+00	0	48	104	0	60	92351
2026-01-28 11:20:34.78	343.62	10.99	-53.9	-57.8	3.6	0.00e+00	0	48	104	0	60	92120
2026-01-28 11:20:35.79	343.35	11.00	-53.8	-57.9	3.6	0.00e+00	0	48	104	0	60	92540
2026-01-28 11:20:36.80	343.08	11.01	-54.4	-58.0	3.6	0.00e+00	0	48	104	0	60	94113
2026-01-28 11:20:37.81	342.80	11.01	-53.8	-57.9	3.6	0.00e+00	0	48	104	0	60	92702
2026-01-28 11:20:38.81	342.53	11.02	-53.3	-57.8	3.6	0.00e+00	0	48	104	0	60	91718
2026-01-28 11:20:39.82	342.26	11.02	-53.3	-57.8	3.6	0.00e+00	0	48	104	0	60	91841
2026-01-28 11:20:40.82	341.99	11.03	-53.3	-57.8	3.6	0.00e+00	0	48	104	0	60	91488
2026-01-28 11:20:41.83	341.72	11.03	-53.3	-57.8	3.6	0.00e+00	0	48	104	0	60	91698
2026-01-28 11:20:42.84	341.45	11.04	-53.7	-57.9	3.6	0.00e+00	0	48	104	0	60	93057
2026-01-28 11:20:43.84	341.18	11.04	-54.2	-58.0	3.5	0.00e+00	0	48	104	0	60	93936
2026-01-28 11:20:44.85	340.90	11.04	-54.0	-57.9	3.5	0.00e+00	0	48	104	0	60	92480
2026-01-28 11:20:45.86	340.63	11.04	-54.2	-57.9	3.6	0.00e+00	0	48	104	0	60	93088
2026-01-28 11:20:46.87	340.36	11.04	-54.2	-58.0	3.6	0.00e+00	0	48	104	0	60	93888
2026-01-28 11:20:47.87	340.09	11.04	-53.8	-57.8	3.6	0.00e+00	0	48	104	0	60	92330
2026-01-28 11:20:48.88	339.82	11.04	-52.6	-57.3	3.6	0.00e+00	0	48	104	0	60	86870
2026-01-28 11:20:49.88	339.55	11.04	-53.6	-57.8	3.6	0.00e+00	0	48	104	0	60	91437
2026-01-28 11:20:50.89	339.27	11.04	-53.6	-57.7	3.6	0.00e+00	0	48	104	0	60	91247
2026-01-28 11:20:51.89	339.00	11.04	-51.8	-57.2	3.6	0.00e+00	0	48	104	0	60	85467
2026-01-28 11:20:52.90	338.73	11.04	-51.6	-57.0	3.6	0.00e+00	0	48	104	0	60	84194
2026-01-28 11:20:53.91	338.46	11.04	-51.6	-56.9	3.6	0.00e+00	0	48	104	0	60	83152
2026-01-28 11:20:54.92	338.18	11.03	-51.5	-57.0	3.6	0.00e+00	0	48	104	0	60	83376
2026-01-28 11:20:55.92	337.91	11.03	-51.1	-56.6	3.6	0.00e+00	0	48	104	0	60	80304
2026-01-28 11:20:56.93	337.64	11.02	-51.1	-56.5	3.6	0.00e+00	0	48	104	0	60	79239
2026-01-28 11:20:57.94	337.37	11.02	-50.1	-56.1	3.6	0.00e+00	0	48	104	0	60	75141
2026-01-28 11:20:58.94	337.10	11.01	-49.8	-55.8	3.6	0.00e+00	0	48	104	0	60	72628
2026-01-28 11:20:59.95	336.83	11.01	-50.0	-56.0	3.6	0.00e+00	0	48	104	0	60	74677
2026-01-28 11:21:00.95	336.56	11.00	-50.1	-55.9	3.6	0.00e+00	0	48	104	0	60	74085
2026-01-28 11:21:01.96	336.29	11.00	-49.8	-55.7	3.6	0.00e+00	0	48	104	0	60	71839
2026-01-28 11:21:02.95	336.02	10.99	-49.7	-55.6	3.6	0.00e+00	0	48	104	0	60	71148
2026-01-28 11:21:03.96	335.75	10.98	-50.6	-56.2	3.6	0.00e+00	0	48	104	0	60	76165
2026-01-28 11:21:04.97	335.48	10.97	-51.6	-56.7	3.6	0.00e+00	0	48	104	0	60	81104
2026-01-28 11:21:05.98	335.20	10.96	-52.4	-56.9	3.6	0.00e+00	0	48	104	0	60	83279
2026-01-28 11:21:06.98	334.94	10.95	-51.8	-56.6	3.6	0.00e+00	0	48	104	0	60	80128
2026-01-28 11:21:07.99	334.67	10.94	-50.5	-56.2	3.6	0.00e+00	0	48	104	0	60	76725
2026-01-28 11:21:08.99	334.40	10.93	-50.5	-56.2	3.6	0.00e+00	0	48	104	0	60	76588
2026-01-28 11:21:10.00	334.13	10.92	-51.0	-56.4	3.6	0.00e+00	0	48	104	0	60	78568
2026-01-28 11:21:11.00	333.86	10.91	-51.4	-56.6	3.6	0.00e+00	0	48	104	0	60	80227
2026-01-28 11:21:12.01	333.59	10.90	-50.5	-56.0	3.6	0.00e+00	0	48	104	0	60	74265
2026-01-28 11:21:13.02	333.32	10.89	-50.6	-56.0	3.6	0.00e+00	0	48	104	0	60	75045
2026-01-28 11:21:14.02	333.05	10.87	-52.5	-57.3	3.6	0.00e+00	0	48	104	0	60	86344
2026-01-28 11:21:15.03	332.79	10.86	-50.4	-56.0	3.6	0.00e+00	0	48	104	0	60	74373
2026-01-28 11:21:16.04	332.52	10.85	-50.3	-56.1	3.6	0.00e+00	0	48	104	0	60	75316
2026-01-28 11:21:17.05	332.25	10.83	-50.1	-55.9	3.6	0.00e+00	0	48	104	0	60	73783
2026-01-28 11:21:18.05	331.98	10.82	-50.2	-55.8	3.6	0.00e+00	0	48	104	0	60	73273
2026-01-28 11:21:19.06	331.72	10.80	-50.5	-56.0	3.6	0.00e+00	0	48	104	0	60	74296
2026-01-28 11:21:20.06	331.45	10.78	-52.2	-57.0	3.6	0.00e+00	0	48	104	0	60	83640
2026-01-28 11:21:21.07	331.18	10.77	-53.9	-57.7	3.6	0.00e+00	0	48	104	0	60	90919
2026-01-28 11:21:22.08	330.92	10.75	-51.9	-56.8	3.6	0.00e+00	0	48	104	0	60	81565
2026-01-28 11:21:23.08	330.65	10.73	-53.1	-57.2	3.6	0.00e+00	0	48	104	0	60	85883
2026-01-28 11:21:24.09	330.39	10.72	-51.2	-56.5	3.6	0.00e+00	0	48	104	0	60	79003
2026-01-28 11:21:25.10	330.12	10.70	-51.3	-56.5	3.6	0.00e+00	0	48	104	0	60	79496
2026-01-28 11:21:26.11	329.86	10.68	-52.3	-57.0	3.6	0.00e+00	0	48	104	0	60	83360
2026-01-28 11:21:27.11	329.60	10.66	-52.6	-57.0	3.6	0.00e+00	0	48	104	0	60	84145
2026-01-28 11:21:28.12	329.33	10.64	-52.4	-57.1	3.6	0.00e+00	0	48	104	0	60	84322
2026-01-28 11:21:29.12	329.07	10.62	-54.0	-57.7	3.6	0.00e+00	0	48	104	0	60	91070
2026-01-28 11:21:30.13	328.81	10.60	-52.1	-56.9	3.6	0.00e+00	0	48	104	0	60	83151
2026-01-28 11:21:31.14	328.54	10.58	-52.7	-57.2	3.6	0.00e+00	0	48	104	0	60	85544
2026-01-28 11:21:32.14	328.28	10.55	-52.8	-57.2	3.6	0.00e+00	0	48	104	0	60	85557
2026-01-28 11:21:33.14	328.03	10.53	-52.5	-57.2	3.6	0.00e+00	0	48	104	0	60	85426
2026-01-28 11:21:34.15	327.76	10.51	-52.6	-57.2	3.6	0.00e+00	0	48	104	0	60	85450
2026-01-28 11:21:35.15	327.51	10.49	-52.9	-57.3	3.6	0.00e+00	0	48	104	0	60	87034
2026-01-28 11:21:36.15	327.25	10.46	-53.7	-57.7	3.6	0.00e+00	0	48	104	0	60	90689
2026-01-28 11:21:37.16	326.99	10.44	-54.1	-57.9	3.6	0.00e+00	0	48	104	0	60	92948
2026-01-28 11:21:38.17	326.73	10.41	-53.8	-57.8	3.6	0.00e+00	0	48	104	0	60	91532
2026-01-28 11:21:39.18	326.47	10.39	-53.7	-57.7	3.6	0.00e+00	0	48	104	0	60	91222
2026-01-28 11:21:40.19	326.21	10.36	-54.2	-58.0	3.6	0.00e+00	0	48	104	0	60	93633
2026-01-28 11:21:41.19	325.96	10.34	-53.8	-57.8	3.6	0.00e+00	0	48	104	0	60	91659
2026-01-28 11:21:42.20	325.70	10.31	-54.1	-57.8	3.6	0.00e+00	0	48	104	0	60	92182
2026-01-28 11:21:43.21	325.44	10.28	-53.9	-57.8	3.5	0.00e+00	0	48	104	0	60	92082
2026-01-28 11:21:44.22	325.19	10.26	-54.3	-58.0	3.6	0.00e+00	0	48	104	0	60	93765
2026-01-28 11:21:45.23	324.93	10.23	-54.0	-57.8	3.6	0.00e+00	0	48	104	0	60	92157
2026-01-28 11:21:46.24	324.68	10.20	-53.9	-57.8	3.6	0.00e+00	0	48	104	0	60	91676
2026-01-28 11:21:47.24	324.43	10.17	-54.2	-57.9	3.6	0.00e+00	0	48	104	0	60	93016
2026-01-28 11:21:48.24	324.18	10.15	-54.3	-58.0	3.6	0.00e+00	0	48	104	0	60	94028
2026-01-28 11:21:49.25	323.92	10.12	-53.8	-57.6	3.6	0.00e+00	0	48	104	0	60	89725
2026-01-28 11:21:50.25	323.67	10.09	-53.9	-57.8	3.6	0.00e+00	0	48	104	0	60	91971
2026-01-28 11:21:51.26	323.42	10.06	-54.0	-57.8	3.6	0.00e+00	0	48	104	0	60	92313
2026-01-28 11:21:52.27	323.17	10.03	-54.1	-57.9	3.6	0.00e+00	0	48	104	0	60	93107
2026-01-28 11:21:53.28	322.92	10.00	-53.7	-57.6	3.6	0.00e+00	0	48	104	0	60	89744
2026-01-28 11:21:54.29	322.67	9.96	-53.9	-57.8	3.6	0.00e+00	0	48	104	0	60	91501
2026-01-28 11:21:55.29	322.42	9.93	-53.7	-57.5	3.6	0.00e+00	0	48	104	0	60	89227
2026-01-28 11:21:56.30	322.18	9.90	-53.9	-57.6	3.6	0.00e+00	0	48	104	0	60	89843
2026-01-28 11:21:57.30	321.93	9.87	-53.7	-57.5	3.6	0.00e+00	0	48	104	0	60	88915
2026-01-28 11:21:58.31	321.68	9.84	-53.7	-57.6	3.6	0.00e+00	0	48	104	0	60	89483
2026-01-28 11:21:59.32	321.44	9.80	-53.5	-57.1	3.6	0.00e+00	0	48	104	0	60	84809
2026-01-28 11:22:00.33	321.19	9.77	-53.9	-57.5	3.6	0.00e+00	0	48	104	0	60	88897
2026-01-28 11:22:01.34	320.95	9.74	-54.0	-57.6	3.6	0.00e+00	0	48	104	0	60	90197
2026-01-28 11:22:02.34	320.71	9.70	-53.7	-57.4	3.6	0.00e+00	0	48	104	0	60	87807
2026-01-28 11:22:03.34	320.46	9.67	-54.0	-57.6	3.6	0.00e+00	0	48	104	0	60	90208
2026-01-28 11:22:04.34	320.22	9.63	-54.2	-57.7	3.6	0.00e+00	0	48	104	0	60	90571
2026-01-28 11:22:05.35	319.98	9.60	-53.6	-57.4	3.6	0.00e+00	0	48	104	0	60	87683
2026-01-28 11:22:06.35	319.74	9.56	-54.0	-57.7	3.6	0.00e+00	0	48	104	0	60	90972
2026-01-28 11:22:07.36	319.50	9.53	-53.4	-57.4	3.6	0.00e+00	0	48	104	0	60	87227
2026-01-28 11:22:08.37	319.26	9.49	-54.0	-57.6	3.6	0.00e+00	0	48	104	0	60	89453
2026-01-28 11:22:09.38	319.02	9.45	-53.5	-57.3	3.6	0.00e+00	0	48	104	0	60	86993
2026-01-28 11:22:10.38	318.79	9.42	-53.6	-57.3	3.6	0.00e+00	0	48	104	0	60	87105
2026-01-28 11:22:11.39	318.55	9.38	-53.4	-57.3	3.6	0.00e+00	0	48	104	0	60	86664
2026-01-28 11:22:12.39	318.32	9.34	-53.5	-57.0	3.6	0.00e+00	0	48	104	0	60	83956
2026-01-28 11:22:13.40	318.08	9.30	-53.7	-57.5	3.6	0.00e+00	0	48	104	0	60	88936
2026-01-28 11:22:14.41	317.84	9.27	-53.5	-57.3	3.6	0.00e+00	0	48	104	0	60	87136
2026-01-28 11:22:15.42	317.61	9.23	-53.7	-57.4	3.6	0.00e+00	0	48	104	0	60	88147
2026-01-28 11:22:16.43	317.38	9.19	-53.5	-57.0	3.6	0.00e+00	0	48	104	0	60	83465
2026-01-28 11:22:17.43	317.14	9.15	-53.4	-56.9	3.6	0.00e+00	0	48	104	0	60	82985
2026-01-28 11:22:18.44	316.91	9.11	-53.5	-57.0	3.6	0.00e+00	0	48	104	0	60	83630
2026-01-28 11:22:19.45	316.68	9.07	-53.5	-57.1	3.6	0.00e+00	0	48	104	0	60	84534
2026-01-28 11:22:20.45	316.45	9.03	-53.1	-56.6	3.6	0.00e+00	0	48	104	0	60	79817
2026-01-28 11:22:21.46	316.22	8.99	-53.7	-57.3	3.6	0.00e+00	0	48	104	0	60	87022
2026-01-28 11:22:22.47	315.99	8.95	-53.1	-56.9	3.6	0.00e+00	0	48	104	0	60	82503
2026-01-28 11:22:23.48	315.77	8.91	-53.3	-57.1	3.6	0.00e+00	0	48	104	0	60	85143
2026-01-28 11:22:24.48	315.54	8.87	-53.1	-56.6	3.6	0.00e+00	0	48	104	0	60	80018
2026-01-28 11:22:25.49	315.31	8.83	-53.1	-56.6	3.6	0.00e+00	0	48	104	0	60	80235
2026-01-28 11:22:26.49	315.09	8.79	-53.1	-56.7	3.6	0.00e+00	0	48	104	0	60	81218
2026-01-28 11:22:27.50	314.86	8.74	-53.2	-56.9	3.6	0.00e+00	0	48	104	0	60	82733
2026-01-28 11:22:28.50	314.64	8.70	-53.1	-56.6	3.6	0.00e+00	0	48	104	0	60	79640
2026-01-28 11:22:29.51	314.42	8.66	-52.9	-56.7	3.6	0.00e+00	0	48	104	0	60	80470
2026-01-28 11:22:30.52	314.20	8.62	-52.6	-56.4	3.6	0.00e+00	0	48	104	0	60	78522
2026-01-28 11:22:31.52	313.98	8.57	-52.3	-56.2	3.6	0.00e+00	0	48	104	0	60	76567
2026-01-28 11:22:32.53	313.76	8.53	-53.0	-56.7	3.6	0.00e+00	0	48	104	0	60	81330
2026-01-28 11:22:33.54	313.54	8.49	-52.2	-56.0	3.6	0.00e+00	0	48	104	0	60	74994
2026-01-28 11:22:34.55	313.32	8.44	-52.3	-56.1	3.6	0.00e+00	0	48	104	0	60	75708
2026-01-28 11:22:35.55	313.10	8.40	-52.7	-56.6	3.6	0.00e+00	0	48	104	0	60	79791
2026-01-28 11:22:36.55	312.88	8.36	-52.7	-56.8	3.6	0.00e+00	0	48	104	0	60	81585
2026-01-28 11:22:37.56	312.67	8.31	-53.2	-57.0	3.6	0.00e+00	0	48	104	0	60	84012
2026-01-28 11:22:38.57	312.45	8.27	-53.2	-57.0	3.6	0.00e+00	0	48	104	0	60	83825
2026-01-28 11:22:39.57	312.24	8.22	-52.8	-56.6	3.6	0.00e+00	0	48	104	0	60	80449
2026-01-28 11:22:40.57	312.03	8.18	-53.2	-57.1	3.5	0.00e+00	0	48	104	0	60	84652
2026-01-28 11:22:41.58	311.81	8.13	-52.9	-56.8	3.6	0.00e+00	0	48	104	0	60	82180
2026-01-28 11:22:42.59	311.60	8.09	-52.3	-56.3	3.6	0.00e+00	0	48	104	0	60	77040
2026-01-28 11:22:43.59	311.39	8.04	-52.0	-56.0	3.6	0.00e+00	0	48	104	0	60	74585
2026-01-28 11:22:44.60	311.18	8.00	-52.4	-56.4	3.6	0.00e+00	0	48	104	0	60	77828
2026-01-28 11:22:45.60	310.97	7.95	-51.6	-55.7	3.6	0.00e+00	0	48	104	0	60	71765
2026-01-28 11:22:46.61	310.76	7.91	-51.6	-55.6	3.6	0.00e+00	0	48	104	0	60	71051
2026-01-28 11:22:47.61	310.55	7.86	-51.8	-55.7	3.6	0.00e+00	0	48	104	0	60	72343
2026-01-28 11:22:48.62	310.35	7.81	-51.6	-55.5	3.6	0.00e+00	0	48	104	0	60	70830
2026-01-28 11:22:49.63	310.14	7.77	-51.7	-55.9	3.6	0.00e+00	0	48	104	0	60	73756
2026-01-28 11:22:50.63	309.94	7.72	-51.8	-55.8	3.6	0.00e+00	0	48	104	0	60	72646
2026-01-28 11:22:51.64	309.73	7.67	-51.8	-55.8	3.5	0.00e+00	0	48	104	0	60	72650
2026-01-28 11:22:52.65	309.53	7.63	-51.6	-55.6	3.6	0.00e+00	0	48	104	0	60	71414
2026-01-28 11:22:53.65	309.32	7.58	-51.8	-55.8	3.6	0.00e+00	0	48	104	0	60	72804
2026-01-28 11:22:54.65	309.12	7.53	-51.8	-55.7	3.6	0.00e+00	0	48	104	0	60	72390
2026-01-28 11:22:55.66	308.92	7.48	-51.8	-55.9	3.5	0.00e+00	0	48	104	0	60	73487
2026-01-28 11:22:56.67	308.72	7.44	-52.1	-56.0	3.6	0.00e+00	0	48	104	0	60	74993
2026-01-28 11:22:57.67	308.52	7.39	-52.0	-56.1	3.6	0.00e+00	0	48	104	0	60	75199
2026-01-28 11:22:58.68	308.32	7.34	-52.8	-56.8	3.6	0.00e+00	0	48	104	0	60	81856
2026-01-28 11:22:59.67	308.13	7.29	-52.0	-56.0	3.6	0.00e+00	0	48	104	0	60	74689
2026-01-28 11:23:00.67	307.93	7.24	-52.0	-56.0	3.6	0.00e+00	0	48	104	0	60	74632
2026-01-28 11:23:01.68	307.74	7.20	-52.2	-56.3	3.6	0.00e+00	0	48	104	0	60	77436
2026-01-28 11:23:02.69	307.54	7.15	-52.4	-56.5	3.6	0.00e+00	0	48	104	0	60	79191
2026-01-28 11:23:03.70	307.34	7.10	-51.8	-55.9	3.6	0.00e+00	0	48	104	0	60	73594
2026-01-28 11:23:04.70	307.15	7.05	-51.6	-55.7	3.6	0.00e+00	0	48	104	0	60	72007
2026-01-28 11:23:05.71	306.96	7.00	-52.4	-56.3	3.6	0.00e+00	0	48	104	0	60	77250
2026-01-28 11:23:06.71	306.77	6.95	-52.6	-56.6	3.6	0.00e+00	0	48	104	0	60	80423
2026-01-28 11:23:07.72	306.57	6.90	-52.6	-56.4	3.6	0.00e+00	0	48	104	0	60	78423
2026-01-28 11:23:08.72	306.39	6.85	-51.8	-55.8	3.6	0.00e+00	0	48	104	0	60	72652
2026-01-28 11:23:09.73	306.19	6.80	-51.9	-55.8	3.6	0.00e+00	0	48	104	0	60	72997
2026-01-28 11:23:10.74	306.01	6.75	-51.9	-55.9	3.6	0.00e+00	0	48	104	0	60	73545
2026-01-28 11:23:11.74	305.82	6.70	-51.5	-55.5	3.6	0.00e+00	0	48	104	0	60	70500
2026-01-28 11:23:12.75	305.63	6.65	-52.0	-55.9	3.6	0.00e+00	0	48	104	0	60	73748
2026-01-28 11:23:13.75	305.45	6.60	-52.8	-56.5	3.6	0.00e+00	0	48	104	0	60	79306
2026-01-28 11:23:14.76	305.26	6.55	-53.0	-56.9	3.6	0.00e+00	0	48	104	0	60	82722
2026-01-28 11:23:15.77	305.07	6.50	-53.0	-56.6	3.6	0.00e+00	0	48	104	0	60	80234
2026-01-28 11:23:16.78	304.89	6.45	-52.2	-56.0	3.6	0.00e+00	0	48	104	0	60	74856
2026-01-28 11:23:17.78	304.71	6.40	-52.0	-55.9	3.6	0.00e+00	0	48	104	0	60	73665
2026-01-28 11:23:18.79	304.52	6.35	-51.7	-55.7	3.6	0.00e+00	0	48	104	0	60	72516
2026-01-28 11:23:19.79	304.34	6.30	-50.0	-54.2	3.6	0.00e+00	0	48	104	0	60	60584
2026-01-28 11:23:20.80	304.16	6.25	-47.8	-52.3	3.6	0.00e+00	0	48	104	0	60	48649
2026-01-28 11:23:21.81	303.98	6.20	-51.7	-55.7	3.6	0.00e+00	0	48	104	0	60	71842
2026-01-28 11:23:22.82	303.80	6.15	-49.5	-53.7	3.6	0.00e+00	0	48	104	0	60	57523
2026-01-28 11:23:23.83	303.62	6.10	-47.9	-52.5	3.6	0.00e+00	0	48	104	0	60	50141
2026-01-28 11:23:24.83	303.45	6.05	-48.0	-52.5	3.6	0.00e+00	0	48	104	0	60	50034
2026-01-28 11:23:25.83	303.27	6.00	-48.9	-53.0	3.6	0.00e+00	0	48	104	0	60	52812
2026-01-28 11:23:26.84	303.09	5.94	-54.9	-58.7	3.6	0.00e+00	0	48	104	0	60	102432
2026-01-28 11:23:27.85	302.92	5.89	-55.3	-59.1	3.6	0.00e+00	0	48	104	0	60	107095
2026-01-28 11:23:28.86	302.74	5.84	-55.3	-59.0	3.6	0.00e+00	0	48	104	0	60	105902
2026-01-28 11:23:29.87	302.57	5.79	-54.2	-58.5	3.6	0.00e+00	0	48	104	0	60	99422
2026-01-28 11:23:30.88	302.40	5.74	-54.8	-58.7	3.6	0.00e+00	0	48	104	0	60	101740
2026-01-28 11:23:31.88	302.22	5.69	-55.9	-60.0	3.6	0.00e+00	0	48	104	0	60	118852
2026-01-28 11:23:32.88	302.05	5.64	-56.5	-60.3	3.6	0.00e+00	0	48	104	0	60	122661
2026-01-28 11:23:33.89	301.88	5.58	-56.9	-60.6	3.6	0.00e+00	0	48	104	0	60	127293
2026-01-28 11:23:34.90	301.71	5.53	-56.8	-60.5	3.6	0.00e+00	0	48	104	0	60	125009
2026-01-28 11:23:35.91	301.54	5.48	-56.2	-60.1	3.6	0.00e+00	0	48	104	0	60	119357
2026-01-28 11:23:36.91	301.38	5.43	-55.6	-59.5	3.5	0.00e+00	0	48	104	0	60	111126
2026-01-28 11:23:37.92	301.21	5.38	-55.3	-59.4	3.6	0.00e+00	0	48	104	0	60	110501
2026-01-28 11:23:38.93	301.04	5.32	-56.0	-59.6	3.6	0.00e+00	0	48	104	0	60	112989
2026-01-28 11:23:39.94	300.87	5.27	-56.3	-60.1	3.6	0.00e+00	0	48	104	0	60	119781
2026-01-28 11:23:40.94	300.71	5.22	-57.1	-61.0	3.6	0.00e+00	0	48	104	0	60	132010
2026-01-28 11:23:41.95	300.55	5.17	-56.4	-60.6	3.6	0.00e+00	0	48	104	0	60	126805
2026-01-28 11:23:42.95	300.38	5.12	-55.4	-59.9	3.5	0.00e+00	0	48	104	0	60	116366
2026-01-28 11:23:43.96	300.22	5.06	-55.7	-59.9	3.6	0.00e+00	0	48	104	0	60	116874
2026-01-28 11:23:44.96	300.06	5.01	-56.0	-60.2	3.6	0.00e+00	0	48	104	0	60	120521
2026-01-28 11:23:45.97	299.90	4.96	-56.0	-60.1	3.6	0.00e+00	0	48	104	0	60	120240
2026-01-28 11:23:46.97	299.74	4.91	-55.9	-60.1	3.6	0.00e+00	0	48	104	0	60	119679
2026-01-28 11:23:47.97	299.58	4.86	-55.9	-60.1	3.6	0.00e+00	0	48	104	0	60	119521
2026-01-28 11:23:48.98	299.42	4.80	-55.9	-60.0	3.6	0.00e+00	0	48	104	0	60	118693
2026-01-28 11:23:49.98	299.26	4.75	-55.8	-60.0	3.6	0.00e+00	0	48	104	0	60	118622
2026-01-28 11:23:50.99	299.10	4.70	-55.8	-60.1	3.6	0.00e+00	0	48	104	0	60	119028
2026-01-28 11:23:51.99	298.95	4.65	-55.9	-60.1	3.6	0.00e+00	0	48	104	0	60	119031
2026-01-28 11:23:53.00	298.79	4.59	-55.9	-60.1	3.6	0.00e+00	0	48	104	0	60	119139
2026-01-28 11:23:54.00	298.64	4.54	-55.8	-60.0	3.6	0.00e+00	0	48	104	0	60	118656
2026-01-28 11:23:55.01	298.48	4.49	-55.8	-60.0	3.6	0.00e+00	0	48	104	0	60	118914
2026-01-28 11:23:56.02	298.33	4.44	-55.8	-60.0	3.6	0.00e+00	0	48	104	0	60	118565
2026-01-28 11:23:57.02	298.17	4.38	-55.8	-60.0	3.6	0.00e+00	0	48	104	0	60	118426
2026-01-28 11:23:58.02	298.02	4.33	-55.8	-60.0	3.6	0.00e+00	0	48	104	0	60	118912
2026-01-28 11:23:59.03	297.87	4.28	-55.8	-60.0	3.6	0.00e+00	0	48	104	0	60	118536
2026-01-28 11:24:00.03	297.72	4.23	-55.8	-59.9	3.6	0.00e+00	0	48	104	0	60	117447
2026-01-28 11:24:01.03	297.57	4.17	-55.8	-60.0	3.6	0.00e+00	0	48	104	0	60	118091
2026-01-28 11:24:02.04	297.42	4.12	-55.7	-60.0	3.5	0.00e+00	0	48	104	0	60	117674
2026-01-28 11:24:03.04	297.27	4.07	-55.8	-60.0	3.6	0.00e+00	0	48	104	0	60	118019
2026-01-28 11:24:04.04	297.12	4.02	-55.8	-59.9	3.6	0.00e+00	0	48	104	0	60	117500
2026-01-28 11:24:05.05	296.97	3.96	-55.8	-60.0	3.6	0.00e+00	0	48	104	0	60	117949
2026-01-28 11:24:06.05	296.83	3.91	-55.8	-60.0	3.6	0.00e+00	0	48	104	0	60	118452
2026-01-28 11:24:07.05	296.68	3.86	-55.8	-60.0	3.6	0.00e+00	0	48	104	0	60	118364
2026-01-28 11:24:08.04	296.54	3.81	-55.8	-60.0	3.6	0.00e+00	0	48	104	0	60	118028
2026-01-28 11:24:09.05	296.39	3.75	-55.8	-59.9	3.6	0.00e+00	0	48	104	0	60	117427
2026-01-28 11:24:10.05	296.25	3.70	-55.8	-60.0	3.6	0.00e+00	0	48	104	0	60	118672
2026-01-28 11:24:11.06	296.11	3.65	-55.8	-60.0	3.6	0.00e+00	0	48	104	0	60	118737
2026-01-28 11:24:12.06	295.96	3.60	-55.8	-60.0	3.6	0.00e+00	0	48	104	0	60	118844
2026-01-28 11:24:13.07	295.82	3.54	-55.8	-60.0	3.6	0.00e+00	0	48	104	0	60	118286
2026-01-28 11:24:14.07	295.68	3.49	-55.8	-60.0	3.6	0.00e+00	0	48	104	0	60	117797
2026-01-28 11:24:15.08	295.54	3.44	-55.8	-60.0	3.6	0.00e+00	0	48	104	0	60	118269
2026-01-28 11:24:16.09	295.40	3.39	-55.8	-59.9	3.6	0.00e+00	0	48	104	0	60	117483
2026-01-28 11:24:17.09	295.26	3.33	-55.8	-59.9	3.6	0.00e+00	0	48	104	0	60	117522
2026-01-28 11:24:18.09	295.12	3.28	-55.8	-60.0	3.6	0.00e+00	0	48	104	0	60	118097
2026-01-28 11:24:19.10	294.98	3.23	-55.8	-60.0	3.6	0.00e+00	0	48	104	0	60	117923
2026-01-28 11:24:20.10	294.85	3.17	-55.8	-59.9	3.6	0.00e+00	0	48	104	0	60	117537
2026-01-28 11:24:21.10	294.71	3.12	-55.8	-59.9	3.6	0.00e+00	0	48	104	0	60	117499
2026-01-28 11:24:22.11	294.57	3.07	-55.8	-60.0	3.6	0.00e+00	0	48	104	0	60	117912
2026-01-28 11:24:23.12	294.44	3.02	-55.8	-60.0	3.6	0.00e+00	0	48	104	0	60	117806
2026-01-28 11:24:24.12	294.30	2.96	-55.8	-60.0	3.6	0.00e+00	0	48	104	0	60	118526
2026-01-28 11:24:25.13	294.17	2.91	-55.8	-60.0	3.6	0.00e+00	0	48	104	0	60	117880
2026-01-28 11:24:26.14	294.03	2.86	-55.8	-60.0	3.6	0.00e+00	0	48	104	0	60	118067
2026-01-28 11:24:27.14	293.90	2.81	-55.8	-60.0	3.6	0.00e+00	0	48	104	0	60	118386
2026-01-28 11:24:28.15	293.77	2.75	-55.8	-60.1	3.6	0.00e+00	0	48	104	0	60	119191
2026-01-28 11:24:29.16	293.63	2.70	-55.8	-60.0	3.6	0.00e+00	0	48	104	0	60	118447
2026-01-28 11:24:30.16	293.50	2.65	-55.8	-60.0	3.6	0.00e+00	0	48	104	0	60	118470
2026-01-28 11:24:31.17	293.37	2.60	-55.9	-60.1	3.6	0.00e+00	0	48	104	0	60	119179
2026-01-28 11:24:32.17	293.24	2.54	-55.9	-60.1	3.6	0.00e+00	0	48	104	0	60	119010
2026-01-28 11:24:33.18	293.11	2.49	-55.9	-60.0	3.6	0.00e+00	0	48	104	0	60	117988
2026-01-28 11:24:34.19	292.98	2.44	-55.9	-60.1	3.6	0.00e+00	0	48	104	0	60	119357
2026-01-28 11:24:35.19	292.86	2.39	-55.9	-60.1	3.6	0.00e+00	0	48	104	0	60	119066
2026-01-28 11:24:36.20	292.73	2.33	-55.9	-60.1	3.6	0.00e+00	0	48	104	0	60	119380
2026-01-28 11:24:37.21	292.60	2.28	-55.9	-60.0	3.6	0.00e+00	0	48	104	0	60	118642
2026-01-28 11:24:38.21	292.47	2.23	-55.9	-60.1	3.6	0.00e+00	0	48	104	0	60	119298
2026-01-28 11:24:39.21	292.35	2.18	-55.9	-60.1	3.6	0.00e+00	0	48	104	0	60	119138
2026-01-28 11:24:40.22	292.22	2.12	-55.9	-60.0	3.5	0.00e+00	0	48	104	0	60	118637
2026-01-28 11:24:41.22	292.10	2.07	-55.8	-60.0	3.6	0.00e+00	0	48	104	0	60	118622
2026-01-28 11:24:42.23	291.97	2.02	-55.9	-60.1	3.6	0.00e+00	0	48	104	0	60	119124
2026-01-28 11:24:43.23	291.85	1.97	-55.9	-60.0	3.6	0.00e+00	0	48	104	0	60	118392
2026-01-28 11:24:44.24	291.73	1.91	-55.9	-60.0	3.6	0.00e+00	0	48	104	0	60	118800
2026-01-28 11:24:45.25	291.60	1.86	-55.9	-60.0	3.6	0.00e+00	0	48	104	0	60	118849
2026-01-28 11:24:46.26	291.48	1.81	-55.9	-60.0	3.6	0.00e+00	0	48	104	0	60	118865
2026-01-28 11:24:47.27	291.36	1.76	-55.9	-60.0	3.6	0.00e+00	0	48	104	0	60	118303
2026-01-28 11:24:48.27	291.24	1.70	-55.9	-60.0	3.6	0.00e+00	0	48	104	0	60	118431
2026-01-28 11:24:49.28	291.12	1.65	-55.8	-60.0	3.6	0.00e+00	0	48	104	0	60	118951
2026-01-28 11:24:50.29	291.00	1.60	-55.8	-60.0	3.6	0.00e+00	0	48	104	0	60	118648
2026-01-28 11:24:51.29	290.88	1.55	-55.9	-60.0	3.6	0.00e+00	0	48	104	0	60	118314
2026-01-28 11:24:52.30	290.76	1.50	-55.8	-60.0	3.6	0.00e+00	0	48	104	0	60	118937
2026-01-28 11:24:53.31	290.64	1.44	-55.8	-60.0	3.6	0.00e+00	0	48	104	0	60	118079
2026-01-28 11:24:54.31	290.53	1.39	-55.8	-60.0	3.6	0.00e+00	0	48	104	0	60	118683
2026-01-28 11:24:55.32	290.41	1.34	-55.8	-60.0	3.6	0.00e+00	0	48	104	0	60	118294
2026-01-28 11:24:56.33	290.29	1.29	-55.8	-60.0	3.6	0.00e+00	0	48	104	0	60	118039
2026-01-28 11:24:57.34	290.17	1.24	-55.8	-60.0	3.6	0.00e+00	0	48	104	0	60	118579
2026-01-28 11:24:58.35	290.06	1.18	-55.8	-60.0	3.6	0.00e+00	0	48	104	0	60	118637
2026-01-28 11:24:59.35	289.94	1.13	-55.8	-60.0	3.6	0.00e+00	0	48	104	0	60	118248
2026-01-28 11:25:00.36	289.83	1.08	-55.8	-60.0	3.6	0.00e+00	0	48	104	0	60	118451
2026-01-28 11:25:01.36	289.72	1.03	-55.8	-60.0	3.6	0.00e+00	0	48	104	0	60	117923
2026-01-28 11:25:02.37	289.60	0.98	-55.8	-60.0	3.6	0.00e+00	0	48	104	0	60	118409
2026-01-28 11:25:03.38	289.49	0.92	-55.8	-60.0	3.6	0.00e+00	0	48	104	0	60	118053
2026-01-28 11:25:04.38	289.38	0.87	-55.8	-60.0	3.6	0.00e+00	0	48	104	0	60	117715
2026-01-28 11:25:05.39	289.27	0.82	-55.8	-60.0	3.6	0.00e+00	0	48	104	0	60	117769
2026-01-28 11:25:06.39	289.16	0.77	-55.8	-60.0	3.6	0.00e+00	0	48	104	0	60	118162
2026-01-28 11:25:07.40	289.04	0.72	-55.9	-60.0	3.6	0.00e+00	0	48	104	0	60	118268
2026-01-28 11:25:08.41	288.93	0.67	-55.8	-59.9	3.6	0.00e+00	0	48	104	0	60	117451
2026-01-28 11:25:09.42	288.82	0.61	-55.8	-60.0	3.6	0.00e+00	0	48	104	0	60	118373
2026-01-28 11:25:10.43	288.71	0.56	-55.8	-60.0	3.6	0.00e+00	0	48	104	0	60	118290
2026-01-28 11:25:11.43	288.61	0.51	-55.8	-60.0	3.6	0.00e+00	0	48	104	0	60	118095
2026-01-28 11:25:12.44	288.50	0.46	-55.8	-60.1	3.6	0.00e+00	0	48	104	0	60	119633
2026-01-28 11:25:13.44	288.39	0.41	-55.8	-60.0	3.6	0.00e+00	0	48	104	0	60	118955
2026-01-28 11:25:14.45	288.28	0.36	-55.8	-60.0	3.6	0.00e+00	0	48	104	0	60	118702
2026-01-28 11:25:15.45	288.18	0.31	-55.8	-60.0	3.6	0.00e+00	0	48	104	0	60	118463
2026-01-28 11:25:16.46	288.07	0.25	-55.8	-60.0	3.6	0.00e+00	0	48	104	0	60	118387
2026-01-28 11:25:17.47	287.96	0.20	-55.8	-60.0	3.6	0.00e+00	0	48	104	0	60	118471
2026-01-28 11:25:18.48	287.86	0.15	-55.8	-60.0	3.6	0.00e+00	0	48	104	0	60	118775
2026-01-28 11:25:19.49	287.75	0.10	-55.8	-60.0	3.6	0.00e+00	0	48	104	0	60	118864
2026-01-28 11:25:20.50	287.65	0.05	-55.8	-60.0	3.6	0.00e+00	0	48	104	0	60	118204
2026-01-28 11:25:21.50	287.54	-0.00	-55.8	-60.0	3.6	0.00e+00	0	48	104	0	60	118474
2026-01-28 11:25:22.51	287.44	-0.05	-55.8	-60.0	3.6	0.00e+00	0	48	104	0	60	118429
2026-01-28 11:25:23.52	287.34	-0.10	-55.8	-60.0	3.6	0.00e+00	0	48	104	0	60	118133

#Closed at: 2026-01-28 11:25:23
#Recorded file [0 MB]: D:/Data/35015_260128_141716.dat