passes_logs/2026/01/28/R3.2S-Naryan-Mar/R3.2S-Naryan-Mar__20260128_130238_FENGYUN_3E_rec.log

#Pass ID: 20260128_130238_FENGYUN 3E
#Satellite: FENGYUN 3E
#Configuration: FENGYUN 3E
#almurnet v.1.7.20240730
#Start time: 2026-01-28 13:02:43

#Version: 2.2.20231116
#Station: R3.2S-Naryan-Mar
#Location: 53.008057 lon 67.646978 lat
#TLE: 1 49008U 21062A   26027.83084825  .00000170  00000+0  10081-3 0  9997
#TLE: 2 49008  98.7501  32.8098 0002509 114.2687 245.8752 14.19888158236667

#Time	Az	El	Level	Level2	SNR	BER	BlckErr	Temp	State	Recorded	gain1	gain2
2026-01-28 13:02:43.24	164.30	0.30	-56.6	-59.4	3.4	0.00e+00	0	44	0	0	60	110799
2026-01-28 13:02:44.24	164.31	0.36	-61.1	-74.3	3.6	8.46e-01	0	46	104	0	60	204327
2026-01-28 13:02:45.24	164.33	0.42	-61.0	-74.2	3.6	8.45e-01	0	46	104	0	60	200992
2026-01-28 13:02:46.25	164.35	0.48	-61.0	-74.2	3.6	8.45e-01	0	46	104	0	60	201522
2026-01-28 13:02:47.25	164.36	0.54	-60.9	-74.0	3.6	8.46e-01	0	46	104	0	60	195828
2026-01-28 13:02:48.26	164.38	0.61	-60.7	-73.9	3.6	8.45e-01	0	46	104	0	60	193866
2026-01-28 13:02:49.27	164.39	0.67	-60.6	-73.8	3.6	8.44e-01	0	46	104	0	60	191581
2026-01-28 13:02:50.28	164.41	0.73	-60.9	-74.0	3.6	8.44e-01	0	46	104	0	60	197251
2026-01-28 13:02:51.29	164.42	0.79	-60.9	-74.0	3.6	8.45e-01	0	46	104	0	60	195705
2026-01-28 13:02:52.29	164.44	0.85	-60.5	-73.6	3.6	8.46e-01	0	46	104	0	60	188335
2026-01-28 13:02:53.30	164.45	0.91	-60.0	-73.1	3.6	8.46e-01	0	46	104	0	60	177216
2026-01-28 13:02:54.30	164.47	0.98	-59.6	-72.7	3.6	8.45e-01	0	46	104	0	60	168856
2026-01-28 13:02:55.31	164.49	1.04	-59.2	-72.3	3.6	8.46e-01	0	46	104	0	60	160933
2026-01-28 13:02:56.31	164.50	1.10	-58.9	-72.1	3.6	8.46e-01	0	46	104	0	60	157892
2026-01-28 13:02:57.31	164.52	1.16	-58.2	-71.5	3.6	8.45e-01	0	46	104	0	60	147123
2026-01-28 13:02:58.32	164.53	1.22	-57.7	-71.1	3.6	8.46e-01	0	46	104	0	60	140210
2026-01-28 13:02:59.33	164.55	1.29	-56.2	-70.6	3.6	8.45e-01	0	46	104	0	60	132732
2026-01-28 13:03:00.34	164.57	1.35	-56.0	-70.4	3.6	8.45e-01	0	46	104	0	60	129505
2026-01-28 13:03:01.34	164.58	1.41	-56.0	-70.3	3.6	8.46e-01	0	46	104	0	60	128350
2026-01-28 13:03:02.34	164.60	1.48	-55.9	-70.3	3.6	8.46e-01	0	46	104	0	60	127549
2026-01-28 13:03:03.34	164.61	1.54	-55.9	-70.2	3.6	8.46e-01	0	46	104	0	60	126742
2026-01-28 13:03:04.35	164.63	1.60	-55.8	-70.2	3.6	8.45e-01	0	46	104	0	60	126931
2026-01-28 13:03:05.36	164.65	1.67	-55.8	-70.2	3.6	8.45e-01	0	46	104	0	60	126224
2026-01-28 13:03:06.37	164.66	1.73	-55.9	-70.2	3.6	8.45e-01	0	46	104	0	60	126896
2026-01-28 13:03:07.37	164.68	1.79	-55.8	-70.1	3.6	8.45e-01	0	46	104	0	60	125736
2026-01-28 13:03:08.38	164.70	1.86	-55.8	-70.0	3.6	8.45e-01	0	46	104	0	60	124434
2026-01-28 13:03:09.39	164.71	1.92	-55.8	-70.1	3.6	8.45e-01	0	46	104	0	60	125265
2026-01-28 13:03:10.39	164.73	1.98	-55.8	-70.1	3.6	8.46e-01	0	46	104	0	60	125034
2026-01-28 13:03:11.40	164.75	2.05	-55.8	-70.1	3.6	8.45e-01	0	46	104	0	60	125243
2026-01-28 13:03:12.41	164.76	2.11	-55.8	-70.1	3.6	8.45e-01	0	46	104	0	60	125888
2026-01-28 13:03:13.41	164.78	2.18	-55.8	-70.1	3.6	8.46e-01	0	46	104	0	60	126012
2026-01-28 13:03:14.42	164.80	2.24	-55.8	-70.0	3.6	8.45e-01	0	46	104	0	60	124511
2026-01-28 13:03:15.42	164.81	2.31	-55.8	-70.0	3.6	8.44e-01	0	46	104	0	60	124552
2026-01-28 13:03:16.43	164.83	2.37	-55.8	-70.1	3.6	8.46e-01	0	46	104	0	60	124698
2026-01-28 13:03:17.44	164.85	2.44	-55.8	-70.0	3.6	8.45e-01	0	46	104	0	60	124494
2026-01-28 13:03:18.44	164.87	2.50	-55.8	-70.1	3.6	8.46e-01	0	46	104	0	60	125143
2026-01-28 13:03:19.45	164.88	2.57	-55.8	-70.0	3.6	8.45e-01	0	46	104	0	60	123789
2026-01-28 13:03:20.46	164.90	2.63	-55.7	-70.0	3.6	8.46e-01	0	46	104	0	60	123247
2026-01-28 13:03:21.47	164.92	2.70	-55.7	-70.0	3.6	8.45e-01	0	46	104	0	60	124207
2026-01-28 13:03:22.47	164.93	2.76	-55.7	-70.0	3.6	8.47e-01	0	46	104	0	60	123866
2026-01-28 13:03:23.48	164.95	2.83	-55.7	-70.0	3.6	8.45e-01	0	46	104	0	60	123276
2026-01-28 13:03:24.49	164.97	2.90	-55.7	-69.9	3.6	8.45e-01	0	46	104	0	60	122682
2026-01-28 13:03:25.50	164.99	2.96	-55.7	-70.0	3.6	8.46e-01	0	46	104	0	60	123466
2026-01-28 13:03:26.50	165.00	3.03	-55.7	-70.0	3.6	8.46e-01	0	46	104	0	60	123547
2026-01-28 13:03:27.50	165.02	3.10	-55.7	-70.1	3.6	8.45e-01	0	46	104	0	60	124993
2026-01-28 13:03:28.51	165.04	3.16	-55.7	-70.0	3.6	8.46e-01	0	46	104	0	60	123587
2026-01-28 13:03:29.51	165.06	3.23	-55.7	-69.9	3.6	8.45e-01	0	46	104	0	60	123128
2026-01-28 13:03:30.52	165.08	3.30	-55.7	-69.8	3.6	8.45e-01	0	47	104	0	60	120850
2026-01-28 13:03:31.52	165.09	3.36	-55.7	-69.7	3.6	8.45e-01	0	46	104	0	60	120085
2026-01-28 13:03:32.52	165.11	3.43	-55.7	-69.7	3.6	8.45e-01	0	46	104	0	60	119008
2026-01-28 13:03:33.53	165.13	3.50	-55.6	-69.5	3.6	8.44e-01	0	46	104	0	60	117560
2026-01-28 13:03:34.54	165.15	3.57	-55.6	-69.6	3.6	8.45e-01	0	47	104	0	60	117762
2026-01-28 13:03:35.55	165.17	3.64	-55.6	-69.6	3.6	8.45e-01	0	47	104	0	60	117976
2026-01-28 13:03:36.56	165.18	3.70	-55.6	-69.7	3.6	8.46e-01	0	46	104	0	60	119194
2026-01-28 13:03:37.56	165.20	3.77	-55.6	-69.8	3.6	8.45e-01	0	46	104	0	60	120652
2026-01-28 13:03:38.56	165.22	3.84	-55.6	-69.9	3.6	8.45e-01	0	47	104	0	60	122182
2026-01-28 13:03:39.57	165.24	3.91	-55.6	-69.9	3.6	8.45e-01	0	47	104	0	60	121985
2026-01-28 13:03:40.57	165.26	3.98	-55.6	-69.8	3.6	8.45e-01	0	46	104	0	60	121040
2026-01-28 13:03:41.58	165.28	4.05	-55.6	-69.6	3.6	8.44e-01	0	46	104	0	60	118954
2026-01-28 13:03:42.58	165.30	4.11	-55.5	-69.2	3.6	8.45e-01	0	46	104	0	60	113575
2026-01-28 13:03:43.58	165.31	4.18	-55.5	-69.0	3.6	8.44e-01	0	46	104	0	60	110820
2026-01-28 13:03:44.58	165.33	4.25	-55.5	-68.7	3.6	8.45e-01	0	46	104	0	60	106281
2026-01-28 13:03:45.59	165.35	4.32	-55.6	-68.6	3.6	8.44e-01	0	46	104	0	60	105493
2026-01-28 13:03:46.59	165.37	4.39	-55.6	-68.7	3.6	8.44e-01	0	47	104	0	60	106337
2026-01-28 13:03:47.60	165.39	4.46	-55.5	-68.6	3.6	8.45e-01	0	46	104	0	60	105443
2026-01-28 13:03:48.60	165.41	4.53	-55.5	-67.9	3.7	8.45e-01	0	46	104	0	60	97118
2026-01-28 13:03:49.61	165.43	4.60	-55.4	-65.0	3.8	8.39e-01	0	46	0	0	60	69979
2026-01-28 13:03:50.62	165.45	4.67	-55.1	-62.9	5.0	7.61e-01	0	47	0	0	60	54652
2026-01-28 13:03:51.62	165.47	4.74	-54.6	-61.0	7.0	2.23e-01	0	47	0	4194304	60	43793
2026-01-28 13:03:52.63	165.49	4.81	-54.0	-59.2	9.1	4.48e-02	0	46	0	11534336	60	35694
2026-01-28 13:03:53.63	165.51	4.89	-53.1	-57.3	11.0	5.62e-03	0	47	0	18874368	60	28720
2026-01-28 13:03:54.64	165.53	4.96	-52.3	-55.8	12.5	3.70e-04	0	46	0	26214400	60	24194
2026-01-28 13:03:55.64	165.55	5.03	-51.4	-54.4	13.6	8.00e-06	0	46	0	33554432	60	20676
2026-01-28 13:03:56.65	165.57	5.10	-50.3	-52.9	14.8	0.00e+00	0	46	0	41943040	60	17320
2026-01-28 13:03:57.66	165.59	5.17	-49.7	-52.0	15.4	0.00e+00	0	46	0	48234496	60	15670
2026-01-28 13:03:58.66	165.61	5.24	-49.1	-51.3	15.9	0.00e+00	0	46	0	55574528	60	14417
2026-01-28 13:03:59.67	165.63	5.32	-48.5	-50.6	16.4	0.00e+00	0	46	0	62914560	60	13202
2026-01-28 13:04:00.67	165.65	5.39	-48.1	-50.1	16.6	0.00e+00	0	46	0	70254592	60	12591
2026-01-28 13:04:01.68	165.67	5.46	-48.0	-49.9	16.8	0.00e+00	0	46	0	77594624	60	12316
2026-01-28 13:04:02.68	165.69	5.53	-47.8	-49.8	16.7	0.00e+00	0	46	0	84934656	60	12063
2026-01-28 13:04:03.68	165.71	5.61	-47.9	-49.9	16.7	0.00e+00	0	46	0	92274688	60	12226
2026-01-28 13:04:04.68	165.73	5.68	-48.2	-50.3	16.5	0.00e+00	0	46	0	99614720	60	12766
2026-01-28 13:04:05.69	165.75	5.75	-48.5	-50.7	16.2	0.00e+00	0	47	0	106954752	60	13353
2026-01-28 13:04:06.69	165.77	5.83	-49.0	-51.2	15.9	0.00e+00	0	46	0	113246208	60	14272
2026-01-28 13:04:07.69	165.79	5.90	-49.6	-51.9	15.5	0.00e+00	0	46	0	120586240	60	15504
2026-01-28 13:04:08.69	165.81	5.97	-50.4	-53.0	14.7	0.00e+00	0	47	0	127926272	60	17493
2026-01-28 13:04:09.69	165.83	6.05	-51.4	-54.4	13.5	1.02e-05	0	47	0	135266304	60	20572
2026-01-28 13:04:10.70	165.85	6.12	-55.3	-64.6	4.2	1.06e-03	0	46	0	142606336	60	66376
2026-01-28 13:04:11.70	165.87	6.20	-53.5	-58.2	5.8	7.69e-01	0	47	104	142606336	60	31871
2026-01-28 13:04:12.71	165.89	6.27	-53.3	-58.1	3.9	2.69e-04	0	46	104	142606336	60	31590
2026-01-28 13:04:13.71	165.91	6.35	-55.0	-67.5	3.6	8.44e-01	0	46	104	142606336	60	93430
2026-01-28 13:04:14.72	165.94	6.42	-50.4	-53.0	14.7	4.00e-03	0	46	104	142606336	60	17420
2026-01-28 13:04:15.72	165.96	6.50	-53.0	-56.9	11.9	2.01e-03	0	46	0	6291456	60	27448
2026-01-28 13:04:16.73	165.98	6.57	-51.5	-54.5	13.3	1.14e-05	0	46	0	13631488	60	20897
2026-01-28 13:04:17.73	166.00	6.65	-51.8	-55.0	13.2	2.05e-05	0	47	0	20971520	60	22155
2026-01-28 13:04:18.74	166.02	6.73	-51.6	-54.8	13.2	9.10e-06	0	47	0	28311552	60	21543
2026-01-28 13:04:19.74	166.04	6.80	-51.1	-53.8	14.0	3.40e-06	0	47	0	34603008	60	19297
2026-01-28 13:04:20.75	166.07	6.88	-50.5	-52.9	14.8	0.00e+00	0	46	0	42991616	60	17239
2026-01-28 13:04:21.76	166.09	6.96	-50.0	-52.0	15.4	0.00e+00	0	47	0	50331648	60	15683
2026-01-28 13:04:22.76	166.11	7.03	-49.4	-51.3	15.9	0.00e+00	0	47	0	57671680	60	14384
2026-01-28 13:04:23.77	166.13	7.11	-48.8	-50.6	16.3	0.00e+00	0	47	0	65011712	60	13202
2026-01-28 13:04:24.77	166.15	7.19	-48.7	-50.5	16.6	0.00e+00	0	47	0	72351744	60	13067
2026-01-28 13:04:25.78	166.18	7.27	-48.4	-50.2	16.6	0.00e+00	0	46	0	78643200	60	12649
2026-01-28 13:04:26.78	166.20	7.34	-48.1	-49.7	17.0	0.00e+00	0	46	0	85983232	60	11987
2026-01-28 13:04:27.79	166.22	7.42	-47.6	-49.2	17.2	0.00e+00	0	46	0	93323264	60	11259
2026-01-28 13:04:28.80	166.24	7.50	-47.6	-49.2	17.2	0.00e+00	0	47	0	100663296	60	11344
2026-01-28 13:04:29.80	166.27	7.58	-47.6	-49.2	17.4	0.00e+00	0	47	0	108003328	60	11236
2026-01-28 13:04:30.81	166.29	7.66	-47.7	-49.3	17.2	0.00e+00	0	47	0	115343360	60	11463
2026-01-28 13:04:31.81	166.31	7.74	-47.7	-49.4	17.1	0.00e+00	0	47	0	122683392	60	11539
2026-01-28 13:04:32.82	166.34	7.82	-47.3	-48.9	17.5	0.00e+00	0	47	0	130023424	60	10935
2026-01-28 13:04:33.82	166.36	7.90	-47.0	-48.5	17.7	0.00e+00	0	47	0	137363456	60	10469
2026-01-28 13:04:34.83	166.38	7.98	-47.1	-48.7	17.7	0.00e+00	0	47	0	143654912	60	10635
2026-01-28 13:04:35.84	166.41	8.06	-47.3	-48.8	17.4	0.00e+00	0	47	0	150994944	60	10838
2026-01-28 13:04:36.85	166.43	8.14	-47.2	-48.7	17.7	0.00e+00	0	46	0	158334976	60	10672
2026-01-28 13:04:37.86	166.45	8.22	-46.9	-48.4	17.8	0.00e+00	0	46	0	166723584	60	10292
2026-01-28 13:04:38.86	166.48	8.30	-46.9	-48.4	17.9	0.00e+00	0	47	0	174063616	60	10267
2026-01-28 13:04:39.87	166.50	8.38	-46.8	-48.3	17.9	0.00e+00	0	47	0	180355072	60	10189
2026-01-28 13:04:40.88	166.53	8.46	-46.9	-48.4	17.8	0.00e+00	0	47	0	187695104	60	10300
2026-01-28 13:04:41.89	166.55	8.55	-46.8	-48.3	18.0	0.00e+00	0	47	0	195035136	60	10138
2026-01-28 13:04:42.89	166.57	8.63	-46.7	-48.1	18.0	0.00e+00	0	46	0	202375168	60	9963
2026-01-28 13:04:43.90	166.60	8.71	-46.7	-48.2	18.1	0.00e+00	0	46	0	209715200	60	10029
2026-01-28 13:04:44.91	166.62	8.79	-46.5	-47.9	18.1	0.00e+00	0	46	0	217055232	60	9769
2026-01-28 13:04:45.92	166.65	8.88	-46.6	-48.0	18.3	0.00e+00	0	47	0	224395264	60	9859
2026-01-28 13:04:46.93	166.67	8.96	-46.5	-47.9	18.2	0.00e+00	0	47	0	231735296	60	9764
2026-01-28 13:04:47.94	166.70	9.04	-46.5	-47.8	18.1	0.00e+00	0	47	0	239075328	60	9671
2026-01-28 13:04:48.94	166.72	9.13	-47.1	-48.0	21.2	0.00e+00	0	46	0	245366784	60	9840
2026-01-28 13:04:49.95	166.75	9.21	-46.9	-47.8	21.3	0.00e+00	0	46	0	253755392	60	9573
2026-01-28 13:04:50.96	166.77	9.30	-47.0	-47.9	21.3	0.00e+00	0	47	0	261095424	60	9684
2026-01-28 13:04:51.96	166.80	9.38	-47.0	-47.8	21.3	0.00e+00	0	47	0	268435456	60	9637
2026-01-28 13:04:52.97	166.82	9.46	-47.0	-47.8	21.4	0.00e+00	0	47	0	275775488	60	9634
2026-01-28 13:04:53.98	166.85	9.55	-47.0	-47.9	21.4	0.00e+00	0	47	0	283115520	60	9728
2026-01-28 13:04:54.98	166.88	9.64	-46.9	-47.7	21.4	0.00e+00	0	46	0	289406976	60	9532
2026-01-28 13:04:55.99	166.90	9.72	-46.9	-47.8	21.5	0.00e+00	0	47	0	296747008	60	9590
2026-01-28 13:04:57.00	166.93	9.81	-47.0	-47.8	21.5	0.00e+00	0	47	0	304087040	60	9623
2026-01-28 13:04:58.01	166.95	9.89	-47.0	-47.8	21.5	0.00e+00	0	47	0	311427072	60	9657
2026-01-28 13:04:59.01	166.98	9.98	-47.1	-47.9	21.6	0.00e+00	0	47	0	318767104	60	9730
2026-01-28 13:05:00.01	167.01	10.07	-47.0	-47.8	21.6	0.00e+00	0	47	0	326107136	60	9664
2026-01-28 13:05:01.02	167.03	10.15	-47.0	-47.8	21.6	0.00e+00	0	47	0	333447168	60	9607
2026-01-28 13:05:02.03	167.06	10.24	-46.9	-47.8	21.6	0.00e+00	0	47	0	340787200	60	9605
2026-01-28 13:05:03.03	167.09	10.33	-46.8	-47.7	21.7	0.00e+00	0	47	0	348127232	60	9465
2026-01-28 13:05:04.04	167.11	10.42	-46.8	-47.7	21.7	0.00e+00	0	47	0	354418688	60	9483
2026-01-28 13:05:05.05	167.14	10.51	-46.8	-47.6	21.8	0.00e+00	0	47	0	361758720	60	9378
2026-01-28 13:05:06.06	167.17	10.60	-46.7	-47.5	21.8	0.00e+00	0	47	0	370147328	60	9305
2026-01-28 13:05:07.06	167.20	10.68	-46.8	-47.6	21.8	0.00e+00	0	46	0	377487360	60	9443
2026-01-28 13:05:08.07	167.22	10.77	-46.7	-47.5	21.8	0.00e+00	0	46	0	384827392	60	9314
2026-01-28 13:05:09.07	167.25	10.86	-46.7	-47.5	21.8	0.00e+00	0	46	0	392167424	60	9329
2026-01-28 13:05:10.08	167.28	10.95	-46.8	-47.6	21.9	0.00e+00	0	46	0	398458880	60	9388
2026-01-28 13:05:11.08	167.31	11.04	-46.6	-47.4	22.0	0.00e+00	0	46	0	405798912	60	9183
2026-01-28 13:05:12.09	167.34	11.13	-46.7	-47.5	21.9	0.00e+00	0	47	0	413138944	60	9318
2026-01-28 13:05:13.09	167.36	11.23	-46.6	-47.4	22.0	0.00e+00	0	46	0	420478976	60	9180
2026-01-28 13:05:14.10	167.39	11.32	-46.7	-47.5	22.0	0.00e+00	0	47	0	427819008	60	9301
2026-01-28 13:05:15.10	167.42	11.41	-46.6	-47.4	21.9	0.00e+00	0	46	0	435159040	60	9173
2026-01-28 13:05:16.11	167.45	11.50	-46.4	-47.2	22.2	0.00e+00	0	46	0	442499072	60	8937
2026-01-28 13:05:17.12	167.48	11.59	-46.5	-47.3	22.1	0.00e+00	0	46	0	449839104	60	9111
2026-01-28 13:05:18.13	167.51	11.69	-46.5	-47.2	22.1	0.00e+00	0	46	0	456130560	60	9025
2026-01-28 13:05:19.14	167.54	11.78	-46.6	-47.3	22.0	0.00e+00	0	46	0	463470592	60	9131
2026-01-28 13:05:20.14	167.57	11.87	-46.4	-47.2	22.3	0.00e+00	0	46	0	470810624	60	8940
2026-01-28 13:05:21.15	167.60	11.97	-46.6	-47.4	22.1	0.00e+00	0	46	0	478150656	60	9146
2026-01-28 13:05:22.16	167.63	12.06	-46.5	-47.2	22.1	0.00e+00	0	46	0	486539264	60	9024
2026-01-28 13:05:23.16	167.66	12.16	-46.2	-47.0	22.4	0.00e+00	0	46	0	493879296	60	8745
2026-01-28 13:05:24.16	167.69	12.25	-46.2	-47.0	22.4	0.00e+00	0	46	0	500170752	60	8758
2026-01-28 13:05:25.17	167.72	12.35	-46.1	-46.9	22.4	0.00e+00	0	46	0	507510784	60	8622
2026-01-28 13:05:26.17	167.75	12.44	-46.2	-47.0	22.3	0.00e+00	0	47	0	514850816	60	8732
2026-01-28 13:05:27.18	167.78	12.54	-46.1	-46.8	22.6	0.00e+00	0	47	0	522190848	60	8587
2026-01-28 13:05:28.18	167.81	12.63	-46.0	-46.7	22.5	0.00e+00	0	47	0	529530880	60	8467
2026-01-28 13:05:29.18	167.84	12.73	-46.1	-46.9	22.5	0.00e+00	0	47	0	536870912	60	8629
2026-01-28 13:05:30.19	167.87	12.83	-46.0	-46.7	22.7	0.00e+00	0	47	0	544210944	60	8516
2026-01-28 13:05:31.20	167.90	12.92	-46.1	-46.8	22.6	0.00e+00	0	47	0	551550976	60	8581
2026-01-28 13:05:32.21	167.93	13.02	-46.0	-46.7	22.7	0.00e+00	0	46	0	558891008	60	8464
2026-01-28 13:05:33.22	167.96	13.12	-45.9	-46.6	22.7	0.00e+00	0	46	0	565182464	60	8411
2026-01-28 13:05:34.22	168.00	13.22	-45.9	-46.7	22.7	0.00e+00	0	47	0	572522496	60	8440
2026-01-28 13:05:35.23	168.03	13.32	-45.9	-46.6	22.8	0.00e+00	0	46	0	579862528	60	8348
2026-01-28 13:05:36.24	168.06	13.42	-45.8	-46.5	22.8	0.00e+00	0	46	0	587202560	60	8318
2026-01-28 13:05:37.25	168.09	13.52	-45.9	-46.6	22.8	0.00e+00	0	47	0	594542592	60	8355
2026-01-28 13:05:38.25	168.13	13.62	-45.8	-46.5	22.8	0.00e+00	0	47	0	602931200	60	8312
2026-01-28 13:05:39.26	168.16	13.72	-45.9	-46.6	22.8	0.00e+00	0	46	0	609222656	60	8355
2026-01-28 13:05:40.27	168.19	13.82	-45.7	-46.4	23.0	0.00e+00	0	47	0	616562688	60	8183
2026-01-28 13:05:41.28	168.23	13.92	-45.7	-46.4	22.9	0.00e+00	0	47	0	623902720	60	8164
2026-01-28 13:05:42.28	168.26	14.02	-45.7	-46.4	23.1	0.00e+00	0	47	0	631242752	60	8148
2026-01-28 13:05:43.28	168.29	14.13	-45.6	-46.3	23.1	0.00e+00	0	47	0	638582784	60	8085
2026-01-28 13:05:44.29	168.33	14.23	-45.5	-46.2	23.1	0.00e+00	0	47	0	645922816	60	7995
2026-01-28 13:05:45.30	168.36	14.33	-45.5	-46.2	23.2	0.00e+00	0	47	0	653262848	60	7988
2026-01-28 13:05:46.30	168.39	14.44	-45.4	-46.1	23.1	0.00e+00	0	47	0	660602880	60	7934
2026-01-28 13:05:47.31	168.43	14.54	-45.7	-46.4	23.1	0.00e+00	0	46	0	667942912	60	8165
2026-01-28 13:05:48.32	168.46	14.65	-45.5	-46.2	23.1	0.00e+00	0	46	0	674234368	60	8035
2026-01-28 13:05:49.32	168.50	14.75	-45.6	-46.2	23.1	0.00e+00	0	47	0	681574400	60	8030
2026-01-28 13:05:50.33	168.53	14.86	-45.6	-46.3	23.0	0.00e+00	0	46	0	688914432	60	8083
2026-01-28 13:05:51.34	168.57	14.96	-45.5	-46.2	23.3	0.00e+00	0	46	0	696254464	60	7958
2026-01-28 13:05:52.34	168.61	15.07	-45.4	-46.1	23.3	0.00e+00	0	47	0	703594496	60	7865
2026-01-28 13:05:53.35	168.64	15.18	-45.3	-46.0	23.4	0.00e+00	0	47	0	711983104	60	7823
2026-01-28 13:05:54.36	168.68	15.28	-45.6	-46.2	23.2	0.00e+00	0	47	0	718274560	60	8034
2026-01-28 13:05:55.37	168.71	15.39	-45.5	-46.1	23.2	0.00e+00	0	46	0	725614592	60	7937
2026-01-28 13:05:56.38	168.75	15.50	-45.5	-46.2	23.2	0.00e+00	0	47	0	732954624	60	7962
2026-01-28 13:05:57.38	168.79	15.61	-45.5	-46.2	23.2	0.00e+00	0	47	0	740294656	60	8021
2026-01-28 13:05:58.39	168.82	15.72	-45.3	-46.0	23.4	0.00e+00	0	47	0	747634688	60	7835
2026-01-28 13:05:59.40	168.86	15.83	-45.4	-46.0	23.3	0.00e+00	0	47	0	754974720	60	7862
2026-01-28 13:06:00.40	168.90	15.94	-45.4	-46.0	23.4	0.00e+00	0	47	0	762314752	60	7859
2026-01-28 13:06:01.41	168.94	16.05	-45.5	-46.2	23.2	0.00e+00	0	46	0	769654784	60	7974
2026-01-28 13:06:02.42	168.98	16.16	-45.3	-46.0	23.4	0.00e+00	0	47	0	775946240	60	7773
2026-01-28 13:06:03.43	169.01	16.27	-45.2	-45.8	23.5	0.00e+00	0	47	0	783286272	60	7673
2026-01-28 13:06:04.43	169.05	16.38	-45.3	-46.0	23.3	0.00e+00	0	47	0	790626304	60	7830
2026-01-28 13:06:05.43	169.09	16.49	-45.5	-46.2	23.2	0.00e+00	0	47	0	797966336	60	7956
2026-01-28 13:06:06.44	169.13	16.61	-45.2	-45.9	23.6	0.00e+00	0	47	0	805306368	60	7706
2026-01-28 13:06:07.45	169.17	16.72	-45.3	-46.0	23.5	0.00e+00	0	46	0	813694976	60	7844
2026-01-28 13:06:08.46	169.21	16.84	-45.2	-45.8	23.5	0.00e+00	0	47	0	819986432	60	7663
2026-01-28 13:06:09.46	169.25	16.95	-45.3	-46.0	23.5	0.00e+00	0	47	0	827326464	60	7838
2026-01-28 13:06:10.47	169.29	17.07	-45.3	-45.9	23.5	0.00e+00	0	47	0	834666496	60	7759
2026-01-28 13:06:11.47	169.33	17.18	-45.4	-46.1	23.4	0.00e+00	0	46	0	842006528	60	7863
2026-01-28 13:06:12.47	169.37	17.30	-45.2	-45.9	23.6	0.00e+00	0	47	0	849346560	60	7703
2026-01-28 13:06:13.48	169.41	17.41	-45.2	-45.9	23.8	0.00e+00	0	46	0	856686592	60	7695
2026-01-28 13:06:14.49	169.45	17.53	-45.2	-45.9	23.5	0.00e+00	0	47	0	864026624	60	7710
2026-01-28 13:06:15.50	169.49	17.65	-45.2	-45.9	23.5	0.00e+00	0	47	0	871366656	60	7739
2026-01-28 13:06:16.50	169.54	17.77	-45.3	-46.0	23.5	0.00e+00	0	47	0	878706688	60	7798
2026-01-28 13:06:17.51	169.58	17.89	-45.2	-45.9	23.5	0.00e+00	0	46	0	884998144	60	7755
2026-01-28 13:06:18.52	169.62	18.01	-45.3	-45.9	23.5	0.00e+00	0	46	0	892338176	60	7763
2026-01-28 13:06:19.53	169.66	18.13	-45.2	-45.9	23.5	0.00e+00	0	46	0	899678208	60	7721
2026-01-28 13:06:20.54	169.71	18.25	-45.2	-45.9	23.6	0.00e+00	0	46	0	907018240	60	7697
2026-01-28 13:06:21.55	169.75	18.37	-45.3	-46.0	23.5	0.00e+00	0	46	0	914358272	60	7811
2026-01-28 13:06:22.55	169.79	18.49	-45.2	-45.9	23.5	0.00e+00	0	47	0	921698304	60	7687
2026-01-28 13:06:23.56	169.84	18.62	-45.2	-45.9	23.6	0.00e+00	0	46	0	929038336	60	7693
2026-01-28 13:06:24.57	169.88	18.74	-45.2	-45.9	23.7	0.00e+00	0	46	0	936378368	60	7707
2026-01-28 13:06:25.58	169.93	18.86	-45.2	-45.9	23.6	0.00e+00	0	47	0	943718400	60	7749
2026-01-28 13:06:26.58	169.97	18.99	-45.1	-45.8	23.7	0.00e+00	0	47	0	951058432	60	7602
2026-01-28 13:06:27.58	170.02	19.11	-45.0	-45.6	23.8	0.00e+00	0	47	0	958398464	60	7508
2026-01-28 13:06:28.59	170.06	19.24	-44.9	-45.6	23.9	0.00e+00	0	46	0	965738496	60	7453
2026-01-28 13:06:29.60	170.11	19.37	-45.0	-45.6	23.9	0.00e+00	0	47	0	973078528	60	7484
2026-01-28 13:06:30.61	170.16	19.49	-44.9	-45.5	24.0	0.00e+00	0	47	0	980418560	60	7407
2026-01-28 13:06:31.62	170.20	19.62	-44.9	-45.5	23.9	0.00e+00	0	46	0	986710016	60	7395
2026-01-28 13:06:32.62	170.25	19.75	-44.6	-45.2	24.2	0.00e+00	0	46	0	994050048	60	7158
2026-01-28 13:06:33.63	170.30	19.88	-44.6	-45.3	24.2	0.00e+00	0	47	0	1001390080	60	7194
2026-01-28 13:06:34.64	170.35	20.01	-44.7	-45.3	24.1	0.00e+00	0	46	0	1008730112	60	7240
2026-01-28 13:06:35.64	170.39	20.14	-44.5	-45.1	24.3	0.00e+00	0	47	0	1016070144	60	7080
2026-01-28 13:06:36.65	170.44	20.27	-44.5	-45.1	24.3	0.00e+00	0	47	0	1024458752	60	7042
2026-01-28 13:06:37.66	170.49	20.40	-44.4	-45.0	24.3	0.00e+00	0	47	0	1030750208	60	6989
2026-01-28 13:06:38.67	170.54	20.53	-44.4	-45.1	24.4	0.00e+00	0	47	0	1038090240	60	7026
2026-01-28 13:06:39.67	170.59	20.66	-44.6	-45.3	24.4	0.00e+00	0	47	0	1045430272	60	7192
2026-01-28 13:06:40.68	170.64	20.80	-44.4	-45.0	24.5	0.00e+00	0	46	0	1052770304	60	6970
2026-01-28 13:06:41.69	170.69	20.93	-44.4	-45.1	24.4	0.00e+00	0	47	0	1060110336	60	7026
2026-01-28 13:06:42.70	170.74	21.07	-44.5	-45.1	24.4	0.00e+00	0	47	0	1067450368	60	7033
2026-01-28 13:06:43.69	170.80	21.20	-44.3	-44.9	24.6	0.00e+00	0	47	0	1074790400	60	6874
2026-01-28 13:06:44.70	170.85	21.34	-44.4	-45.0	24.6	0.00e+00	0	46	0	1082130432	60	6952
2026-01-28 13:06:45.71	170.90	21.48	-44.3	-44.9	24.6	0.00e+00	0	46	0	1089470464	60	6924
2026-01-28 13:06:46.72	170.95	21.61	-44.3	-44.9	24.7	0.00e+00	0	47	0	1095761920	60	6915
2026-01-28 13:06:47.73	171.01	21.75	-44.4	-45.1	24.5	0.00e+00	0	46	0	1103101952	60	7014
2026-01-28 13:06:48.73	171.06	21.89	-44.6	-45.2	24.5	0.00e+00	0	46	0	1110441984	60	7103
2026-01-28 13:06:49.74	171.11	22.03	-44.6	-45.2	24.4	0.00e+00	0	47	0	1117782016	60	7141
2026-01-28 13:06:50.75	171.17	22.17	-44.7	-45.3	24.3	0.00e+00	0	46	0	1125122048	60	7204
2026-01-28 13:06:51.75	171.22	22.31	-44.8	-45.4	24.4	0.00e+00	0	47	0	1133510656	60	7315
2026-01-28 13:06:52.75	171.28	22.46	-44.7	-45.3	24.4	0.00e+00	0	47	0	1139802112	60	7213
2026-01-28 13:06:53.76	171.33	22.60	-44.8	-45.4	24.4	0.00e+00	0	47	0	1147142144	60	7288
2026-01-28 13:06:54.76	171.39	22.74	-44.7	-45.3	24.5	0.00e+00	0	46	0	1154482176	60	7189
2026-01-28 13:06:55.77	171.45	22.89	-44.8	-45.4	24.4	0.00e+00	0	46	0	1161822208	60	7330
2026-01-28 13:06:56.77	171.51	23.03	-44.8	-45.4	24.4	0.00e+00	0	47	0	1169162240	60	7311
2026-01-28 13:06:57.77	171.56	23.18	-44.7	-45.3	24.5	0.00e+00	0	47	0	1176502272	60	7228
2026-01-28 13:06:58.78	171.62	23.32	-44.7	-45.3	24.4	0.00e+00	0	47	0	1183842304	60	7243
2026-01-28 13:06:59.79	171.68	23.47	-44.7	-45.3	24.5	0.00e+00	0	47	0	1191182336	60	7231
2026-01-28 13:07:00.79	171.74	23.62	-44.6	-45.2	24.6	0.00e+00	0	47	0	1198522368	60	7120
2026-01-28 13:07:01.79	171.80	23.77	-44.8	-45.4	24.4	0.00e+00	0	47	0	1204813824	60	7313
2026-01-28 13:07:02.80	171.86	23.92	-44.7	-45.4	24.5	0.00e+00	0	47	0	1212153856	60	7267
2026-01-28 13:07:03.80	171.92	24.07	-44.7	-45.4	24.4	0.00e+00	0	47	0	1219493888	60	7276
2026-01-28 13:07:04.81	171.98	24.22	-44.7	-45.3	24.5	0.00e+00	0	46	0	1226833920	60	7212
2026-01-28 13:07:05.82	172.05	24.38	-44.8	-45.4	24.4	0.00e+00	0	47	0	1234173952	60	7282
2026-01-28 13:07:06.82	172.11	24.53	-44.8	-45.4	24.4	0.00e+00	0	46	0	1241513984	60	7324
2026-01-28 13:07:07.82	172.17	24.68	-44.6	-45.2	24.6	0.00e+00	0	47	0	1248854016	60	7140
2026-01-28 13:07:08.83	172.23	24.84	-44.6	-45.2	24.5	0.00e+00	0	47	0	1256194048	60	7169
2026-01-28 13:07:09.84	172.30	25.00	-44.6	-45.2	24.7	0.00e+00	0	47	0	1262485504	60	7140
2026-01-28 13:07:10.85	172.36	25.15	-44.6	-45.2	24.8	0.00e+00	0	47	0	1269825536	60	7128
2026-01-28 13:07:11.85	172.43	25.31	-44.5	-45.1	24.8	0.00e+00	0	46	0	1278214144	60	7077
2026-01-28 13:07:12.85	172.50	25.47	-44.3	-44.9	25.0	0.00e+00	0	46	0	1285554176	60	6907
2026-01-28 13:07:13.86	172.56	25.63	-44.4	-45.0	24.9	0.00e+00	0	47	0	1292894208	60	6955
2026-01-28 13:07:14.87	172.63	25.79	-44.3	-44.9	25.0	0.00e+00	0	47	0	1300234240	60	6882
2026-01-28 13:07:15.88	172.70	25.95	-44.2	-44.8	25.1	0.00e+00	0	47	0	1306525696	60	6840
2026-01-28 13:07:16.88	172.77	26.11	-44.1	-44.7	25.3	0.00e+00	0	47	0	1313865728	60	6735
2026-01-28 13:07:17.89	172.84	26.28	-44.2	-44.8	25.2	0.00e+00	0	47	0	1321205760	60	6826
2026-01-28 13:07:18.89	172.91	26.44	-44.1	-44.7	25.3	0.00e+00	0	46	0	1328545792	60	6728
2026-01-28 13:07:19.90	172.98	26.61	-44.0	-44.5	25.5	0.00e+00	0	46	0	1335885824	60	6614
2026-01-28 13:07:20.91	173.05	26.78	-44.0	-44.6	25.4	0.00e+00	0	46	0	1343225856	60	6631
2026-01-28 13:07:21.92	173.12	26.94	-44.1	-44.7	25.4	0.00e+00	0	46	0	1350565888	60	6734
2026-01-28 13:07:22.92	173.20	27.11	-44.1	-44.7	25.4	0.00e+00	0	46	0	1357905920	60	6735
2026-01-28 13:07:23.92	173.27	27.28	-44.1	-44.7	25.4	0.00e+00	0	46	0	1365245952	60	6701
2026-01-28 13:07:24.92	173.34	27.45	-44.2	-44.7	25.3	0.00e+00	0	47	0	1371537408	60	6760
2026-01-28 13:07:25.92	173.42	27.62	-44.1	-44.7	25.3	0.00e+00	0	46	0	1378877440	60	6747
2026-01-28 13:07:26.93	173.50	27.79	-44.2	-44.8	25.4	0.00e+00	0	46	0	1386217472	60	6799
2026-01-28 13:07:27.93	173.57	27.97	-44.3	-44.9	25.3	0.00e+00	0	47	0	1393557504	60	6859
2026-01-28 13:07:28.94	173.65	28.14	-44.3	-44.9	25.2	0.00e+00	0	47	0	1400897536	60	6896
2026-01-28 13:07:29.95	173.73	28.32	-44.3	-44.8	25.2	0.00e+00	0	47	0	1408237568	60	6844
2026-01-28 13:07:30.95	173.81	28.49	-44.3	-44.9	25.2	0.00e+00	0	46	0	1415577600	60	6913
2026-01-28 13:07:31.96	173.89	28.67	-44.4	-45.0	25.1	0.00e+00	0	46	0	1422917632	60	6981
2026-01-28 13:07:32.97	173.97	28.85	-44.5	-45.2	25.0	0.00e+00	0	47	0	1430257664	60	7090
2026-01-28 13:07:33.98	174.05	29.03	-44.5	-45.0	25.0	0.00e+00	0	46	0	1437597696	60	7002
2026-01-28 13:07:34.98	174.13	29.21	-44.3	-44.9	25.1	0.00e+00	0	46	0	1444937728	60	6895
2026-01-28 13:07:35.99	174.22	29.40	-44.4	-45.0	25.1	0.00e+00	0	47	0	1452277760	60	6996
2026-01-28 13:07:37.00	174.30	29.58	-44.4	-45.0	25.2	0.00e+00	0	46	0	1459617792	60	6981
2026-01-28 13:07:38.01	174.39	29.77	-44.1	-44.7	25.4	0.00e+00	0	47	0	1466957824	60	6709
2026-01-28 13:07:39.01	174.47	29.95	-44.2	-44.8	25.3	0.00e+00	0	46	0	1473249280	60	6818
2026-01-28 13:07:40.02	174.56	30.14	-44.4	-45.0	25.3	0.00e+00	0	47	0	1480589312	60	6940
2026-01-28 13:07:41.02	174.65	30.33	-44.4	-45.0	25.3	0.00e+00	0	47	0	1487929344	60	6964
2026-01-28 13:07:42.03	174.74	30.52	-44.3	-44.9	25.4	0.00e+00	0	47	0	1495269376	60	6891
2026-01-28 13:07:43.03	174.83	30.70	-44.4	-45.0	25.3	0.00e+00	0	47	0	1502609408	60	6937
2026-01-28 13:07:44.04	174.92	30.90	-44.6	-45.1	25.2	0.00e+00	0	47	0	1509949440	60	7084
2026-01-28 13:07:45.05	175.01	31.09	-44.8	-45.4	25.1	0.00e+00	0	47	0	1517289472	60	7265
2026-01-28 13:07:46.06	175.11	31.29	-44.7	-45.3	25.2	0.00e+00	0	47	0	1524629504	60	7227
2026-01-28 13:07:47.07	175.20	31.48	-44.8	-45.4	25.0	0.00e+00	0	47	0	1531969536	60	7320
2026-01-28 13:07:48.07	175.30	31.68	-44.8	-45.4	25.1	0.00e+00	0	47	0	1539309568	60	7282
2026-01-28 13:07:49.08	175.40	31.88	-44.7	-45.3	25.2	0.00e+00	0	46	0	1546649600	60	7243
2026-01-28 13:07:50.09	175.49	32.07	-44.8	-45.4	25.3	0.00e+00	0	47	0	1553989632	60	7255
2026-01-28 13:07:51.09	175.59	32.27	-44.6	-45.2	25.3	0.00e+00	0	47	0	1561329664	60	7155
2026-01-28 13:07:52.10	175.69	32.48	-44.6	-45.2	25.4	0.00e+00	0	46	0	1568669696	60	7118
2026-01-28 13:07:53.10	175.79	32.68	-44.5	-45.1	25.6	0.00e+00	0	46	0	1576009728	60	7045
2026-01-28 13:07:54.11	175.90	32.88	-44.4	-45.0	25.6	0.00e+00	0	47	0	1582301184	60	6975
2026-01-28 13:07:55.11	176.00	33.09	-44.4	-45.0	25.6	0.00e+00	0	47	0	1589641216	60	6949
2026-01-28 13:07:56.12	176.11	33.29	-44.5	-45.1	25.6	0.00e+00	0	47	0	1596981248	60	7010
2026-01-28 13:07:57.12	176.21	33.50	-44.7	-45.3	25.5	0.00e+00	0	46	0	1604321280	60	7191
2026-01-28 13:07:58.13	176.32	33.71	-44.7	-45.2	25.5	0.00e+00	0	46	0	1611661312	60	7156
2026-01-28 13:07:59.13	176.43	33.92	-44.9	-45.4	25.5	0.00e+00	0	47	0	1619001344	60	7337
2026-01-28 13:08:00.13	176.54	34.13	-44.8	-45.4	25.5	0.00e+00	0	47	0	1626341376	60	7299
2026-01-28 13:08:01.14	176.65	34.34	-44.9	-45.4	25.4	0.00e+00	0	47	0	1633681408	60	7334
2026-01-28 13:08:02.14	176.76	34.56	-44.9	-45.5	25.3	0.00e+00	0	47	0	1641021440	60	7378
2026-01-28 13:08:03.15	176.88	34.77	-44.9	-45.5	25.5	0.00e+00	0	46	0	1648361472	60	7341
2026-01-28 13:08:04.16	177.00	34.99	-44.9	-45.5	25.3	0.00e+00	0	47	0	1655701504	60	7385
2026-01-28 13:08:05.17	177.11	35.21	-45.1	-45.7	25.2	0.00e+00	0	47	0	1663041536	60	7538
2026-01-28 13:08:06.18	177.23	35.43	-45.0	-45.6	25.2	0.00e+00	0	46	0	1670381568	60	7508
2026-01-28 13:08:07.18	177.35	35.65	-45.0	-45.6	25.3	0.00e+00	0	47	0	1677721600	60	7431
2026-01-28 13:08:08.19	177.48	35.88	-45.2	-45.8	25.2	0.00e+00	0	47	0	1685061632	60	7640
2026-01-28 13:08:09.19	177.60	36.10	-45.1	-45.7	25.4	0.00e+00	0	47	0	1691353088	60	7547
2026-01-28 13:08:10.19	177.73	36.32	-45.1	-45.6	25.4	0.00e+00	0	47	0	1698693120	60	7489
2026-01-28 13:08:11.19	177.85	36.55	-45.1	-45.7	25.3	0.00e+00	0	47	0	1706033152	60	7566
2026-01-28 13:08:12.19	177.98	36.78	-45.3	-45.9	25.3	0.00e+00	0	47	0	1713373184	60	7704
2026-01-28 13:08:13.19	178.11	37.01	-45.2	-45.8	25.2	0.00e+00	0	47	0	1720713216	60	7651
2026-01-28 13:08:14.19	178.24	37.24	-45.3	-45.9	25.3	0.00e+00	0	47	0	1728053248	60	7690
2026-01-28 13:08:15.20	178.38	37.47	-45.3	-45.9	25.2	0.00e+00	0	47	0	1735393280	60	7692
2026-01-28 13:08:16.21	178.52	37.70	-45.2	-45.8	25.3	0.00e+00	0	47	0	1742733312	60	7655
2026-01-28 13:08:17.21	178.65	37.94	-45.3	-45.8	25.3	0.00e+00	0	47	0	1749024768	60	7680
2026-01-28 13:08:18.22	178.79	38.18	-45.2	-45.8	25.2	0.00e+00	0	47	0	1756364800	60	7654
2026-01-28 13:08:19.23	178.94	38.42	-45.3	-45.9	25.4	0.00e+00	0	47	0	1763704832	60	7694
2026-01-28 13:08:20.24	179.08	38.66	-45.2	-45.8	25.2	0.00e+00	0	47	0	1771044864	60	7642
2026-01-28 13:08:21.25	179.23	38.90	-45.5	-46.1	25.1	0.00e+00	0	47	0	1778384896	60	7869
2026-01-28 13:08:22.25	179.38	39.14	-45.3	-45.9	25.2	0.00e+00	0	47	0	1786773504	60	7726
2026-01-28 13:08:23.26	179.53	39.39	-45.3	-45.9	25.2	0.00e+00	0	47	0	1793064960	60	7766
2026-01-28 13:08:24.26	179.68	39.63	-45.5	-46.0	25.1	0.00e+00	0	47	0	1800404992	60	7861
2026-01-28 13:08:25.26	179.84	39.88	-45.6	-46.2	24.9	0.00e+00	0	47	0	1807745024	60	8021
2026-01-28 13:08:26.27	179.99	40.13	-45.5	-46.1	25.1	0.00e+00	0	47	0	1815085056	60	7864
2026-01-28 13:08:27.28	180.15	40.38	-45.5	-46.0	25.1	0.00e+00	0	46	0	1822425088	60	7859
2026-01-28 13:08:28.28	180.32	40.63	-45.4	-46.0	25.2	0.00e+00	0	47	0	1829765120	60	7823
2026-01-28 13:08:29.29	180.48	40.89	-45.4	-46.0	25.2	0.00e+00	0	47	0	1837105152	60	7815
2026-01-28 13:08:30.29	180.65	41.14	-45.2	-45.8	24.9	0.00e+00	0	47	0	1844445184	60	7615
2026-01-28 13:08:31.30	180.82	41.40	-45.5	-46.1	25.0	0.00e+00	0	47	0	1851785216	60	7904
2026-01-28 13:08:32.30	180.99	41.66	-45.8	-46.4	24.9	0.00e+00	0	47	0	1858076672	60	8149
2026-01-28 13:08:33.31	181.17	41.92	-45.5	-46.1	25.2	0.00e+00	0	47	0	1865416704	60	7907
2026-01-28 13:08:34.32	181.35	42.18	-45.4	-46.0	25.2	0.00e+00	0	47	0	1872756736	60	7783
2026-01-28 13:08:35.33	181.53	42.45	-45.5	-46.1	25.1	0.00e+00	0	46	0	1880096768	60	7895
2026-01-28 13:08:36.33	181.71	42.71	-45.3	-45.9	25.2	0.00e+00	0	47	0	1887436800	60	7744
2026-01-28 13:08:37.35	181.90	42.98	-45.4	-46.0	25.0	0.00e+00	0	47	0	1894776832	60	7827
2026-01-28 13:08:38.35	182.09	43.25	-45.7	-46.2	24.9	0.00e+00	0	47	0	1902116864	60	8042
2026-01-28 13:08:39.36	182.29	43.52	-46.0	-46.6	24.7	0.00e+00	0	47	0	1909456896	60	8372
2026-01-28 13:08:40.36	182.48	43.79	-46.2	-46.8	24.3	0.00e+00	0	47	0	1916796928	60	8580
2026-01-28 13:08:41.37	182.68	44.06	-46.3	-46.9	24.7	0.00e+00	0	46	0	1924136960	60	8695
2026-01-28 13:08:42.38	182.89	44.34	-46.3	-47.0	24.5	0.00e+00	0	46	0	1931476992	60	8739
2026-01-28 13:08:43.38	183.09	44.61	-46.5	-47.1	24.4	0.00e+00	0	47	0	1938817024	60	8894
2026-01-28 13:08:44.38	183.30	44.89	-46.3	-46.9	24.4	0.00e+00	0	47	0	1946157056	60	8706
2026-01-28 13:08:45.39	183.51	45.17	-46.6	-47.2	24.5	0.00e+00	0	47	0	1953497088	60	8971
2026-01-28 13:08:46.40	183.73	45.45	-46.2	-46.8	24.3	0.00e+00	0	47	0	1960837120	60	8573
2026-01-28 13:08:47.40	183.95	45.73	-46.5	-47.1	24.5	0.00e+00	0	47	0	1967128576	60	8882
2026-01-28 13:08:48.41	184.18	46.01	-46.4	-47.0	24.5	0.00e+00	0	47	0	1974468608	60	8813
2026-01-28 13:08:49.41	184.41	46.30	-46.4	-47.0	24.5	0.00e+00	0	47	0	1981808640	60	8803
2026-01-28 13:08:50.42	184.64	46.59	-46.7	-47.3	24.2	0.00e+00	0	47	0	1989148672	60	9117
2026-01-28 13:08:51.43	184.88	46.87	-46.4	-47.1	24.5	0.00e+00	0	47	0	1996488704	60	8823
2026-01-28 13:08:52.43	185.12	47.16	-46.9	-47.6	24.2	0.00e+00	0	47	0	2003828736	60	9377
2026-01-28 13:08:53.44	185.37	47.45	-47.1	-47.7	24.0	0.00e+00	0	47	0	2011168768	60	9513
2026-01-28 13:08:54.45	185.62	47.75	-46.7	-47.3	24.4	0.00e+00	0	47	0	2018508800	60	9117
2026-01-28 13:08:55.45	185.88	48.04	-46.8	-47.5	24.2	0.00e+00	0	47	0	2025848832	60	9250
2026-01-28 13:08:56.46	186.14	48.34	-46.8	-47.4	24.1	0.00e+00	0	47	0	2033188864	60	9213
2026-01-28 13:08:57.46	186.40	48.63	-47.0	-47.7	23.9	0.00e+00	0	47	0	2040528896	60	9455
2026-01-28 13:08:58.47	186.67	48.93	-47.1	-47.8	24.0	0.00e+00	0	46	0	2047868928	60	9577
2026-01-28 13:08:59.48	186.95	49.23	-47.1	-47.8	24.0	0.00e+00	0	47	0	2055208960	60	9596
2026-01-28 13:09:00.49	187.23	49.53	-47.3	-47.9	23.9	0.00e+00	0	47	0	2062548992	60	9743
2026-01-28 13:09:01.49	187.52	49.83	-47.5	-48.2	23.6	0.00e+00	0	47	0	2068840448	60	10016
2026-01-28 13:09:02.50	187.81	50.14	-47.6	-48.2	23.9	0.00e+00	0	47	0	2076180480	60	10087
2026-01-28 13:09:03.50	188.11	50.44	-47.3	-47.9	23.8	0.00e+00	0	47	0	2083520512	60	9722
2026-01-28 13:09:04.51	188.41	50.75	-47.0	-47.6	24.2	0.00e+00	0	47	0	2090860544	60	9393
2026-01-28 13:09:05.51	188.72	51.05	-46.9	-47.5	24.3	0.00e+00	0	47	0	2098200576	60	9316
2026-01-28 13:09:06.52	189.04	51.36	-46.6	-47.2	24.4	0.00e+00	0	47	0	2105540608	60	9011
2026-01-28 13:09:07.53	189.37	51.67	-47.4	-48.2	23.2	0.00e+00	0	47	0	2112880640	60	10013
2026-01-28 13:09:08.54	189.70	51.98	-47.3	-47.9	23.9	0.00e+00	0	47	0	2120220672	60	9733
2026-01-28 13:09:09.54	190.03	52.29	-47.4	-48.1	23.6	0.00e+00	0	47	0	2127560704	60	9914
2026-01-28 13:09:10.55	190.38	52.60	-47.1	-47.7	23.9	0.00e+00	0	47	0	2134900736	60	9554
2026-01-28 13:09:11.56	190.73	52.92	-47.1	-47.8	24.0	0.00e+00	0	46	0	2142240768	60	9568
2026-01-28 13:09:12.57	191.09	53.23	-47.1	-47.8	23.9	0.00e+00	0	47	0	2149580800	60	9563
2026-01-28 13:09:13.58	191.46	53.55	-47.4	-48.1	23.8	0.00e+00	0	47	0	2156920832	60	9908
2026-01-28 13:09:14.59	191.84	53.86	-47.4	-48.0	23.7	0.00e+00	0	47	0	2164260864	60	9882
2026-01-28 13:09:15.59	192.22	54.18	-47.2	-47.8	23.9	0.00e+00	0	47	0	2171600896	60	9631
2026-01-28 13:09:16.60	192.61	54.50	-47.2	-47.8	24.0	0.00e+00	0	47	0	2177892352	60	9617
2026-01-28 13:09:17.60	193.01	54.81	-47.0	-47.7	23.9	0.00e+00	0	47	0	2185232384	60	9467
2026-01-28 13:09:18.60	193.41	55.13	-47.0	-47.6	23.9	0.00e+00	0	47	0	2192572416	60	9406
2026-01-28 13:09:19.61	193.83	55.45	-47.1	-47.7	24.0	0.00e+00	0	47	0	2199912448	60	9553
2026-01-28 13:09:20.61	194.26	55.77	-47.2	-47.9	23.9	0.00e+00	0	46	0	2207252480	60	9720
2026-01-28 13:09:21.62	194.70	56.09	-47.2	-47.8	23.9	0.00e+00	0	47	0	2214592512	60	9632
2026-01-28 13:09:22.62	195.14	56.40	-47.1	-47.8	23.9	0.00e+00	0	47	0	2221932544	60	9606
2026-01-28 13:09:23.63	195.60	56.72	-47.0	-47.6	24.2	0.00e+00	0	47	0	2229272576	60	9400
2026-01-28 13:09:24.63	196.06	57.04	-47.3	-48.0	23.9	0.00e+00	0	47	0	2235564032	60	9803
2026-01-28 13:09:25.64	196.55	57.36	-47.3	-47.9	24.0	0.00e+00	0	47	0	2242904064	60	9743
2026-01-28 13:09:26.65	197.04	57.68	-47.1	-47.7	24.2	0.00e+00	0	46	0	2250244096	60	9548
2026-01-28 13:09:27.65	197.54	58.00	-46.9	-47.6	24.2	0.00e+00	0	47	0	2258632704	60	9346
2026-01-28 13:09:28.66	198.05	58.32	-47.1	-47.8	24.3	0.00e+00	0	47	0	2265972736	60	9621
2026-01-28 13:09:29.67	198.58	58.64	-47.3	-48.0	24.1	0.00e+00	0	47	0	2273312768	60	9807
2026-01-28 13:09:30.67	199.12	58.95	-47.2	-47.8	24.2	0.00e+00	0	47	0	2279604224	60	9611
2026-01-28 13:09:31.67	199.66	59.27	-47.4	-48.0	23.9	0.00e+00	0	47	0	2286944256	60	9847
2026-01-28 13:09:32.68	200.23	59.59	-47.1	-47.8	24.2	0.00e+00	0	47	0	2294284288	60	9583
2026-01-28 13:09:33.69	200.81	59.90	-47.1	-47.7	24.2	0.00e+00	0	47	0	2301624320	60	9512
2026-01-28 13:09:34.70	201.41	60.22	-47.4	-48.1	24.2	0.00e+00	0	47	0	2308964352	60	9927
2026-01-28 13:09:35.70	202.01	60.53	-47.4	-48.1	24.1	0.00e+00	0	47	0	2316304384	60	9924
2026-01-28 13:09:36.71	202.64	60.84	-47.5	-48.2	24.0	0.00e+00	0	47	0	2323644416	60	10022
2026-01-28 13:09:37.71	203.27	61.15	-47.5	-48.1	24.2	0.00e+00	0	47	0	2330984448	60	9985
2026-01-28 13:09:38.72	203.93	61.46	-47.5	-48.1	23.8	0.00e+00	0	47	0	2338324480	60	9960
2026-01-28 13:09:39.73	204.60	61.77	-47.3	-48.0	23.9	0.00e+00	0	47	0	2344615936	60	9826
2026-01-28 13:09:40.73	205.28	62.07	-47.3	-47.9	24.2	0.00e+00	0	47	0	2351955968	60	9719
2026-01-28 13:09:41.74	205.99	62.38	-47.3	-47.9	24.2	0.00e+00	0	47	0	2359296000	60	9736
2026-01-28 13:09:42.74	206.71	62.67	-47.1	-47.8	24.3	0.00e+00	0	47	0	2366636032	60	9576
2026-01-28 13:09:43.75	207.45	62.97	-47.0	-47.6	24.4	0.00e+00	0	47	0	2373976064	60	9432
2026-01-28 13:09:44.76	208.21	63.27	-46.9	-47.5	24.6	0.00e+00	0	47	0	2382364672	60	9305
2026-01-28 13:09:45.76	208.99	63.56	-46.3	-46.8	25.0	0.00e+00	0	47	0	2388656128	60	8587
2026-01-28 13:09:46.77	209.78	63.85	-46.3	-46.8	25.1	0.00e+00	0	47	0	2395996160	60	8610
2026-01-28 13:09:47.77	210.60	64.13	-46.4	-47.0	24.9	0.00e+00	0	47	0	2403336192	60	8746
2026-01-28 13:09:48.78	211.44	64.41	-46.4	-47.0	24.9	0.00e+00	0	47	0	2410676224	60	8793
2026-01-28 13:09:49.79	212.30	64.69	-46.3	-46.9	25.0	0.00e+00	0	47	0	2418016256	60	8659
2026-01-28 13:09:50.80	213.18	64.97	-46.4	-46.9	25.1	0.00e+00	0	47	0	2425356288	60	8698
2026-01-28 13:09:51.80	214.07	65.23	-46.1	-46.6	25.2	0.00e+00	0	47	0	2432696320	60	8421
2026-01-28 13:09:52.80	214.99	65.50	-46.0	-46.6	25.3	0.00e+00	0	47	0	2440036352	60	8386
2026-01-28 13:09:53.81	215.93	65.76	-46.0	-46.5	25.3	0.00e+00	0	47	0	2447376384	60	8327
2026-01-28 13:09:54.82	216.90	66.01	-46.1	-46.7	25.5	0.00e+00	0	47	0	2453667840	60	8475
2026-01-28 13:09:55.82	217.88	66.26	-45.8	-46.4	25.5	0.00e+00	0	47	0	2461007872	60	8169
2026-01-28 13:09:56.83	218.90	66.50	-45.6	-46.1	25.7	0.00e+00	0	46	0	2468347904	60	7941
2026-01-28 13:09:57.84	219.93	66.74	-45.5	-46.1	25.6	0.00e+00	0	47	0	2475687936	60	7872
2026-01-28 13:09:58.85	220.99	66.97	-45.9	-46.5	25.3	0.00e+00	0	47	0	2483027968	60	8275
2026-01-28 13:09:59.86	222.08	67.20	-46.0	-46.6	25.2	0.00e+00	0	46	0	2491416576	60	8395
2026-01-28 13:10:00.86	223.17	67.41	-46.1	-46.7	25.3	0.00e+00	0	47	0	2497708032	60	8434
2026-01-28 13:10:01.87	224.30	67.62	-46.3	-46.9	25.1	0.00e+00	0	47	0	2505048064	60	8629
2026-01-28 13:10:02.88	225.45	67.83	-46.3	-46.9	25.0	0.00e+00	0	47	0	2512388096	60	8659
2026-01-28 13:10:03.89	226.63	68.02	-46.5	-47.1	24.8	0.00e+00	0	46	0	2519728128	60	8854
2026-01-28 13:10:04.89	227.81	68.21	-46.4	-47.0	24.9	0.00e+00	0	46	0	2527068160	60	8801
2026-01-28 13:10:05.90	229.03	68.38	-46.2	-46.8	25.1	0.00e+00	0	47	0	2534408192	60	8571
2026-01-28 13:10:06.91	230.27	68.55	-46.3	-46.9	25.0	0.00e+00	0	46	0	2541748224	60	8700
2026-01-28 13:10:07.92	231.53	68.72	-46.5	-47.1	24.8	0.00e+00	0	46	0	2549088256	60	8898
2026-01-28 13:10:08.92	232.80	68.87	-46.5	-47.1	24.9	0.00e+00	0	47	0	2555379712	60	8908
2026-01-28 13:10:09.92	234.08	69.01	-46.3	-46.9	24.9	0.00e+00	0	47	0	2562719744	60	8682
2026-01-28 13:10:10.93	235.40	69.14	-46.0	-46.6	25.3	0.00e+00	0	47	0	2570059776	60	8394
2026-01-28 13:10:11.94	236.73	69.26	-46.2	-46.8	25.2	0.00e+00	0	47	0	2577399808	60	8618
2026-01-28 13:10:12.94	238.07	69.37	-46.2	-46.8	25.1	0.00e+00	0	46	0	2584739840	60	8584
2026-01-28 13:10:13.95	239.44	69.47	-46.3	-46.9	25.0	0.00e+00	0	47	0	2592079872	60	8709
2026-01-28 13:10:14.95	240.80	69.56	-46.6	-47.3	24.7	0.00e+00	0	46	0	2599419904	60	9051
2026-01-28 13:10:15.96	242.19	69.64	-46.5	-47.1	24.7	0.00e+00	0	47	0	2606759936	60	8900
2026-01-28 13:10:16.97	243.60	69.71	-46.5	-47.1	24.9	0.00e+00	0	46	0	2614099968	60	8904
2026-01-28 13:10:17.98	245.01	69.77	-46.5	-47.1	24.9	0.00e+00	0	47	0	2621440000	60	8920
2026-01-28 13:10:18.98	246.41	69.81	-46.6	-47.2	24.7	0.00e+00	0	46	0	2628780032	60	9006
2026-01-28 13:10:19.99	247.84	69.84	-46.4	-47.1	24.9	0.00e+00	0	46	0	2636120064	60	8861
2026-01-28 13:10:21.00	249.27	69.87	-46.3	-46.9	25.1	0.00e+00	0	47	0	2643460096	60	8689
2026-01-28 13:10:22.01	250.70	69.88	-46.2	-46.8	25.2	0.00e+00	0	46	0	2650800128	60	8612
2026-01-28 13:10:23.02	252.13	69.88	-46.4	-47.0	24.9	0.00e+00	0	46	0	2658140160	60	8770
2026-01-28 13:10:24.02	253.55	69.86	-46.6	-47.2	24.5	0.00e+00	0	47	0	2664431616	60	9009
2026-01-28 13:10:25.03	254.98	69.84	-46.7	-47.4	24.7	0.00e+00	0	47	0	2671771648	60	9172
2026-01-28 13:10:26.03	256.39	69.81	-46.7	-47.4	24.7	0.00e+00	0	47	0	2679111680	60	9173
2026-01-28 13:10:27.04	257.81	69.76	-46.4	-47.0	24.7	0.00e+00	0	47	0	2686451712	60	8798
2026-01-28 13:10:28.04	259.20	69.70	-46.2	-46.9	24.4	0.00e+00	0	47	0	2693791744	60	8674
2026-01-28 13:10:29.05	260.60	69.63	-46.3	-47.0	24.7	0.00e+00	0	47	0	2701131776	60	8773
2026-01-28 13:10:30.05	261.98	69.55	-46.3	-47.0	24.8	0.00e+00	0	46	0	2708471808	60	8791
2026-01-28 13:10:31.06	263.36	69.46	-46.3	-47.0	24.8	0.00e+00	0	47	0	2715811840	60	8800
2026-01-28 13:10:32.07	264.72	69.36	-46.3	-47.1	24.9	0.00e+00	0	47	0	2723151872	60	8864
2026-01-28 13:10:33.08	266.07	69.25	-46.3	-47.1	24.8	0.00e+00	0	46	0	2730491904	60	8861
2026-01-28 13:10:34.08	267.39	69.12	-46.4	-47.2	24.7	0.00e+00	0	47	0	2737831936	60	8956
2026-01-28 13:10:35.09	268.70	68.99	-46.4	-47.2	24.7	0.00e+00	0	46	0	2745171968	60	8950
2026-01-28 13:10:36.10	270.00	68.85	-46.3	-47.1	24.9	0.00e+00	0	46	0	2752512000	60	8880
2026-01-28 13:10:37.11	271.28	68.70	-46.3	-47.0	24.9	0.00e+00	0	47	0	2759852032	60	8772
2026-01-28 13:10:38.12	272.53	68.53	-46.2	-47.0	25.0	0.00e+00	0	46	0	2766143488	60	8728
2026-01-28 13:10:39.12	273.76	68.36	-46.2	-46.9	24.9	0.00e+00	0	47	0	2773483520	60	8628
2026-01-28 13:10:40.13	274.97	68.19	-46.0	-46.7	24.9	0.00e+00	0	46	0	2780823552	60	8480
2026-01-28 13:10:41.13	276.15	68.00	-46.2	-46.9	24.8	0.00e+00	0	47	0	2788163584	60	8650
2026-01-28 13:10:42.14	277.32	67.80	-46.4	-47.1	24.4	0.00e+00	0	47	0	2795503616	60	8875
2026-01-28 13:10:43.14	278.46	67.60	-46.3	-46.9	24.7	0.00e+00	0	46	0	2802843648	60	8698
2026-01-28 13:10:44.14	279.58	67.39	-46.1	-46.7	24.9	0.00e+00	0	47	0	2810183680	60	8491
2026-01-28 13:10:45.15	280.68	67.17	-45.8	-46.4	25.1	0.00e+00	0	46	0	2817523712	60	8193
2026-01-28 13:10:46.16	281.76	66.95	-46.0	-46.7	24.9	0.00e+00	0	46	0	2824863744	60	8429
2026-01-28 13:10:47.16	282.80	66.72	-46.2	-46.8	24.7	0.00e+00	0	47	0	2832203776	60	8611
2026-01-28 13:10:48.17	283.84	66.48	-46.1	-46.7	24.7	0.00e+00	0	47	0	2839543808	60	8507
2026-01-28 13:10:49.17	284.84	66.24	-46.1	-46.8	24.7	0.00e+00	0	47	0	2846883840	60	8526
2026-01-28 13:10:50.19	285.84	65.99	-46.1	-46.7	24.6	0.00e+00	0	46	0	2854223872	60	8502
2026-01-28 13:10:51.19	286.79	65.74	-46.0	-46.6	24.8	0.00e+00	0	46	0	2861563904	60	8394
2026-01-28 13:10:52.20	287.74	65.47	-45.9	-46.5	24.7	0.00e+00	0	46	0	2868903936	60	8282
2026-01-28 13:10:53.21	288.66	65.21	-46.1	-46.7	24.6	0.00e+00	0	47	0	2875195392	60	8459
2026-01-28 13:10:54.21	289.55	64.94	-46.2	-46.8	24.5	0.00e+00	0	47	0	2882535424	60	8619
2026-01-28 13:10:55.21	290.42	64.67	-46.5	-47.2	24.4	0.00e+00	0	47	0	2889875456	60	9000
2026-01-28 13:10:56.22	291.28	64.39	-46.6	-47.3	24.0	0.00e+00	0	47	0	2897215488	60	9099
2026-01-28 13:10:57.22	292.10	64.11	-46.6	-47.3	24.3	0.00e+00	0	47	0	2904555520	60	9121
2026-01-28 13:10:58.22	292.91	63.83	-46.4	-47.1	24.2	0.00e+00	0	46	0	2911895552	60	8882
2026-01-28 13:10:59.23	293.71	63.54	-46.5	-47.2	23.9	0.00e+00	0	47	0	2919235584	60	9016
2026-01-28 13:11:00.23	294.48	63.25	-46.4	-47.2	24.1	0.00e+00	0	47	0	2926575616	60	8947
2026-01-28 13:11:01.23	295.23	62.96	-46.6	-47.4	24.1	0.00e+00	0	47	0	2933915648	60	9158
2026-01-28 13:11:02.23	295.97	62.66	-46.8	-47.5	23.8	0.00e+00	0	46	0	2940207104	60	9313
2026-01-28 13:11:03.24	296.69	62.36	-47.1	-47.9	23.5	0.00e+00	0	47	0	2947547136	60	9687
2026-01-28 13:11:04.24	297.39	62.06	-47.0	-47.8	23.6	0.00e+00	0	47	0	2954887168	60	9590
2026-01-28 13:11:05.25	298.07	61.76	-46.9	-47.6	23.7	0.00e+00	0	47	0	2962227200	60	9424
2026-01-28 13:11:06.26	298.75	61.45	-47.0	-47.7	23.7	0.00e+00	0	47	0	2970615808	60	9555
2026-01-28 13:11:07.27	299.40	61.14	-46.9	-47.6	23.7	0.00e+00	0	47	0	2976907264	60	9434
2026-01-28 13:11:08.27	300.03	60.83	-47.1	-47.8	23.6	0.00e+00	0	46	0	2984247296	60	9641
2026-01-28 13:11:09.28	300.66	60.52	-47.0	-47.8	23.6	0.00e+00	0	47	0	2991587328	60	9607
2026-01-28 13:11:10.29	301.27	60.21	-47.0	-47.8	23.3	0.00e+00	0	47	0	2998927360	60	9625
2026-01-28 13:11:11.29	301.85	59.89	-47.3	-48.0	23.3	0.00e+00	0	47	0	3006267392	60	9826
2026-01-28 13:11:12.30	302.43	59.58	-47.4	-48.2	23.0	0.00e+00	0	47	0	3013607424	60	10071
2026-01-28 13:11:13.30	302.99	59.26	-47.6	-48.4	22.7	0.00e+00	0	46	0	3020947456	60	10277
2026-01-28 13:11:14.31	303.55	58.95	-47.4	-48.1	23.0	0.00e+00	0	46	0	3028287488	60	10004
2026-01-28 13:11:15.31	304.08	58.63	-47.4	-48.1	22.8	0.00e+00	0	46	0	3035627520	60	9963
2026-01-28 13:11:16.31	304.60	58.32	-47.4	-48.1	23.1	0.00e+00	0	47	0	3041918976	60	9900
2026-01-28 13:11:17.32	305.12	58.00	-47.4	-48.1	23.1	0.00e+00	0	46	0	3049259008	60	10012
2026-01-28 13:11:18.32	305.61	57.68	-47.3	-48.1	23.1	0.00e+00	0	46	0	3056599040	60	9910
2026-01-28 13:11:19.32	306.10	57.36	-47.2	-47.9	23.2	0.00e+00	0	47	0	3063939072	60	9760
2026-01-28 13:11:20.33	306.58	57.04	-47.0	-47.7	23.4	0.00e+00	0	47	0	3071279104	60	9553
2026-01-28 13:11:21.33	307.04	56.73	-47.0	-47.7	23.3	0.00e+00	0	47	0	3078619136	60	9549
2026-01-28 13:11:22.34	307.50	56.41	-47.0	-47.7	23.4	0.00e+00	0	46	0	3085959168	60	9553
2026-01-28 13:11:23.35	307.95	56.09	-47.1	-47.8	23.4	0.00e+00	0	47	0	3093299200	60	9606
2026-01-28 13:11:24.36	308.39	55.77	-46.9	-47.6	23.6	0.00e+00	0	47	0	3100639232	60	9441
2026-01-28 13:11:25.36	308.81	55.45	-46.9	-47.6	23.6	0.00e+00	0	47	0	3107979264	60	9395
2026-01-28 13:11:26.37	309.23	55.13	-46.8	-47.5	23.6	0.00e+00	0	47	0	3115319296	60	9257
2026-01-28 13:11:27.38	309.64	54.82	-47.0	-47.8	23.4	0.00e+00	0	47	0	3122659328	60	9584
2026-01-28 13:11:28.39	310.04	54.50	-47.0	-47.7	23.3	0.00e+00	0	47	0	3129999360	60	9558
2026-01-28 13:11:29.39	310.43	54.18	-47.0	-47.8	23.0	0.00e+00	0	47	0	3137339392	60	9579
2026-01-28 13:11:30.40	310.81	53.87	-46.9	-47.6	23.2	0.00e+00	0	47	0	3144679424	60	9440
2026-01-28 13:11:31.40	311.18	53.55	-47.0	-47.7	23.1	0.00e+00	0	47	0	3150970880	60	9520
2026-01-28 13:11:32.41	311.55	53.24	-46.9	-47.6	23.1	0.00e+00	0	47	0	3158310912	60	9431
2026-01-28 13:11:33.41	311.91	52.93	-47.1	-47.8	23.0	0.00e+00	0	47	0	3165650944	60	9603
2026-01-28 13:11:34.42	312.26	52.62	-47.1	-47.9	22.5	0.00e+00	0	46	0	3172990976	60	9715
2026-01-28 13:11:35.43	312.60	52.30	-47.1	-47.9	22.7	0.00e+00	0	47	0	3180331008	60	9676
2026-01-28 13:11:36.43	312.94	51.99	-46.8	-47.5	22.4	0.00e+00	0	47	0	3187671040	60	9344
2026-01-28 13:11:37.44	313.27	51.68	-47.0	-47.7	22.9	0.00e+00	0	47	0	3195011072	60	9480
2026-01-28 13:11:38.45	313.59	51.38	-47.0	-47.7	22.9	0.00e+00	0	47	0	3202351104	60	9515
2026-01-28 13:11:39.46	313.91	51.07	-47.1	-47.7	22.8	0.00e+00	0	47	0	3209691136	60	9541
2026-01-28 13:11:40.47	314.22	50.76	-47.1	-47.8	23.0	0.00e+00	0	47	0	3217031168	60	9582
2026-01-28 13:11:41.48	314.53	50.45	-47.0	-47.7	23.1	0.00e+00	0	47	0	3224371200	60	9519
2026-01-28 13:11:42.48	314.82	50.15	-47.0	-47.7	23.0	0.00e+00	0	47	0	3231711232	60	9497
2026-01-28 13:11:43.49	315.12	49.85	-47.1	-47.8	23.1	0.00e+00	0	46	0	3239051264	60	9658
2026-01-28 13:11:44.49	315.40	49.55	-47.1	-47.8	23.0	0.00e+00	0	46	0	3246391296	60	9629
2026-01-28 13:11:45.50	315.68	49.25	-47.2	-47.9	23.1	0.00e+00	0	46	0	3252682752	60	9775
2026-01-28 13:11:46.50	315.96	48.95	-47.3	-48.0	23.1	0.00e+00	0	46	0	3260022784	60	9875
2026-01-28 13:11:47.51	316.23	48.65	-47.3	-48.0	23.3	0.00e+00	0	47	0	3267362816	60	9835
2026-01-28 13:11:48.52	316.50	48.36	-47.3	-48.0	23.4	0.00e+00	0	47	0	3274702848	60	9845
2026-01-28 13:11:49.52	316.75	48.07	-47.2	-47.9	23.6	0.00e+00	0	47	0	3282042880	60	9688
2026-01-28 13:11:50.53	317.01	47.77	-46.9	-47.6	23.8	0.00e+00	0	47	0	3289382912	60	9432
2026-01-28 13:11:51.54	317.26	47.48	-46.5	-47.2	24.2	0.00e+00	0	47	0	3296722944	60	8989
2026-01-28 13:11:52.54	317.51	47.19	-46.4	-47.1	24.4	0.00e+00	0	47	0	3304062976	60	8907
2026-01-28 13:11:53.55	317.75	46.90	-46.4	-47.1	24.4	0.00e+00	0	47	0	3311403008	60	8881
2026-01-28 13:11:54.56	317.99	46.61	-46.5	-47.1	24.4	0.00e+00	0	47	0	3318743040	60	8884
2026-01-28 13:11:55.57	318.22	46.33	-46.6	-47.3	21.5	0.00e+00	0	47	0	3326083072	60	9064
2026-01-28 13:11:56.58	318.45	46.04	-46.1	-46.7	24.8	0.00e+00	0	47	0	3333423104	60	8462
2026-01-28 13:11:57.58	318.68	45.76	-45.9	-46.5	24.9	0.00e+00	0	47	0	3340763136	60	8263
2026-01-28 13:11:58.59	318.90	45.48	-45.9	-46.6	24.7	0.00e+00	0	47	0	3348103168	60	8333
2026-01-28 13:11:59.60	319.12	45.20	-45.9	-46.5	24.9	0.00e+00	0	47	0	3355443200	60	8300
2026-01-28 13:12:00.61	319.33	44.92	-46.1	-46.7	24.6	0.00e+00	0	46	0	3361734656	60	8471
2026-01-28 13:12:01.62	319.54	44.64	-46.0	-46.6	24.8	0.00e+00	0	47	0	3369074688	60	8342
2026-01-28 13:12:02.62	319.75	44.37	-46.0	-46.6	24.6	0.00e+00	0	47	0	3376414720	60	8400
2026-01-28 13:12:03.63	319.95	44.09	-46.2	-46.8	24.3	0.00e+00	0	47	0	3383754752	60	8568
2026-01-28 13:12:04.64	320.15	43.82	-45.8	-46.5	24.6	0.00e+00	0	47	0	3391094784	60	8242
2026-01-28 13:12:05.64	320.35	43.55	-45.6	-46.2	24.5	0.00e+00	0	47	0	3398434816	60	8029
2026-01-28 13:12:06.65	320.54	43.28	-45.5	-46.1	24.2	0.00e+00	0	47	0	3405774848	60	7923
2026-01-28 13:12:07.65	320.73	43.02	-45.6	-46.2	24.4	0.00e+00	0	47	0	3413114880	60	8028
2026-01-28 13:12:08.65	320.92	42.75	-45.6	-46.3	24.3	0.00e+00	0	46	0	3420454912	60	8083
2026-01-28 13:12:09.66	321.10	42.49	-45.9	-46.5	24.2	0.00e+00	0	47	0	3427794944	60	8313
2026-01-28 13:12:10.66	321.28	42.23	-45.7	-46.3	24.4	0.00e+00	0	46	0	3435134976	60	8115
2026-01-28 13:12:11.67	321.46	41.96	-45.8	-46.4	24.2	0.00e+00	0	46	0	3442475008	60	8182
2026-01-28 13:12:12.68	321.64	41.70	-45.8	-46.5	24.2	0.00e+00	0	47	0	3449815040	60	8243
2026-01-28 13:12:13.69	321.81	41.44	-45.8	-46.4	24.3	0.00e+00	0	46	0	3457155072	60	8202
2026-01-28 13:12:14.70	321.98	41.19	-45.7	-46.3	24.1	0.00e+00	0	47	0	3463446528	60	8124
2026-01-28 13:12:15.70	322.15	40.93	-45.7	-46.3	24.5	0.00e+00	0	47	0	3470786560	60	8126
2026-01-28 13:12:16.71	322.31	40.68	-45.6	-46.2	24.7	0.00e+00	0	47	0	3478126592	60	8029
2026-01-28 13:12:17.72	322.48	40.43	-45.6	-46.2	24.7	0.00e+00	0	46	0	3485466624	60	7955
2026-01-28 13:12:18.72	322.64	40.18	-45.5	-46.2	24.8	0.00e+00	0	46	0	3492806656	60	7961
2026-01-28 13:12:19.73	322.79	39.93	-45.6	-46.2	25.0	0.00e+00	0	46	0	3500146688	60	7976
2026-01-28 13:12:20.74	322.95	39.68	-45.6	-46.3	24.9	0.00e+00	0	46	0	3507486720	60	8046
2026-01-28 13:12:21.74	323.10	39.44	-45.7	-46.3	24.9	0.00e+00	0	46	0	3514826752	60	8108
2026-01-28 13:12:22.75	323.25	39.19	-45.8	-46.4	24.7	0.00e+00	0	47	0	3522166784	60	8180
2026-01-28 13:12:23.76	323.40	38.95	-45.7	-46.3	24.7	0.00e+00	0	47	0	3529506816	60	8129
2026-01-28 13:12:24.76	323.55	38.71	-45.7	-46.3	24.8	0.00e+00	0	46	0	3536846848	60	8112
2026-01-28 13:12:25.77	323.69	38.47	-45.6	-46.2	24.8	0.00e+00	0	47	0	3544186880	60	8013
2026-01-28 13:12:26.78	323.84	38.23	-45.6	-46.2	24.6	0.00e+00	0	46	0	3551526912	60	7986
2026-01-28 13:12:27.78	323.98	37.99	-45.4	-46.0	24.4	0.00e+00	0	46	0	3558866944	60	7854
2026-01-28 13:12:28.79	324.11	37.76	-45.3	-45.9	24.8	0.00e+00	0	47	0	3566206976	60	7733
2026-01-28 13:12:29.80	324.25	37.52	-45.2	-45.8	24.8	0.00e+00	0	47	0	3572498432	60	7671
2026-01-28 13:12:30.81	324.39	37.29	-45.1	-45.8	24.9	0.00e+00	0	46	0	3579838464	60	7611
2026-01-28 13:12:31.82	324.52	37.06	-45.1	-45.8	24.8	0.00e+00	0	47	0	3587178496	60	7610
2026-01-28 13:12:32.82	324.65	36.83	-45.2	-45.8	24.7	0.00e+00	0	46	0	3594518528	60	7665
2026-01-28 13:12:33.83	324.78	36.60	-45.2	-45.8	24.7	0.00e+00	0	46	0	3601858560	60	7646
2026-01-28 13:12:34.84	324.91	36.37	-45.1	-45.7	24.6	0.00e+00	0	46	0	3609198592	60	7578
2026-01-28 13:12:35.85	325.03	36.15	-45.2	-45.8	24.9	0.00e+00	0	46	0	3616538624	60	7608
2026-01-28 13:12:36.85	325.16	35.93	-45.4	-46.0	24.6	0.00e+00	0	46	0	3623878656	60	7795
2026-01-28 13:12:37.86	325.28	35.70	-45.4	-46.0	24.6	0.00e+00	0	47	0	3631218688	60	7822
2026-01-28 13:12:38.87	325.40	35.48	-45.5	-46.1	24.5	0.00e+00	0	47	0	3638558720	60	7940
2026-01-28 13:12:39.87	325.52	35.26	-45.5	-46.1	24.5	0.00e+00	0	46	0	3645898752	60	7921
2026-01-28 13:12:40.88	325.64	35.05	-45.5	-46.1	24.4	0.00e+00	0	47	0	3653238784	60	7936
2026-01-28 13:12:41.88	325.75	34.83	-45.5	-46.1	24.5	0.00e+00	0	46	0	3660578816	60	7902
2026-01-28 13:12:42.89	325.87	34.61	-45.4	-46.0	24.5	0.00e+00	0	47	0	3667918848	60	7837
2026-01-28 13:12:43.89	325.98	34.40	-45.4	-46.0	24.6	0.00e+00	0	47	0	3675258880	60	7819
2026-01-28 13:12:44.90	326.10	34.19	-45.3	-45.9	24.6	0.00e+00	0	47	0	3681550336	60	7725
2026-01-28 13:12:45.90	326.21	33.98	-45.2	-45.8	24.7	0.00e+00	0	47	0	3688890368	60	7663
2026-01-28 13:12:46.91	326.32	33.77	-45.3	-46.0	24.7	0.00e+00	0	47	0	3696230400	60	7777
2026-01-28 13:12:47.92	326.42	33.56	-45.2	-45.8	24.9	0.00e+00	0	47	0	3703570432	60	7625
2026-01-28 13:12:48.93	326.53	33.35	-45.1	-45.7	25.0	0.00e+00	0	47	0	3710910464	60	7523
2026-01-28 13:12:49.94	326.64	33.14	-45.1	-45.8	25.0	0.00e+00	0	46	0	3718250496	60	7604
2026-01-28 13:12:50.94	326.74	32.94	-45.0	-45.6	25.1	0.00e+00	0	46	0	3725590528	60	7502
2026-01-28 13:12:51.95	326.84	32.74	-45.1	-45.7	25.2	0.00e+00	0	47	0	3732930560	60	7560
2026-01-28 13:12:52.96	326.95	32.53	-45.1	-45.7	25.3	0.00e+00	0	47	0	3740270592	60	7547
2026-01-28 13:12:53.97	327.05	32.33	-45.0	-45.6	25.4	0.00e+00	0	47	0	3747610624	60	7455
2026-01-28 13:12:54.98	327.15	32.13	-45.0	-45.6	25.4	0.00e+00	0	47	0	3754950656	60	7439
2026-01-28 13:12:55.98	327.24	31.94	-44.9	-45.5	25.5	0.00e+00	0	46	0	3762290688	60	7392
2026-01-28 13:12:56.99	327.34	31.74	-45.0	-45.6	25.3	0.00e+00	0	46	0	3769630720	60	7489
2026-01-28 13:12:58.00	327.44	31.54	-45.0	-45.6	25.2	0.00e+00	0	47	0	3776970752	60	7465
2026-01-28 13:12:59.00	327.53	31.35	-45.0	-45.6	25.2	0.00e+00	0	47	0	3783262208	60	7453
2026-01-28 13:13:00.01	327.62	31.15	-45.2	-45.8	25.1	0.00e+00	0	47	0	3790602240	60	7602
2026-01-28 13:13:01.02	327.72	30.96	-45.1	-45.6	25.2	0.00e+00	0	47	0	3797942272	60	7496
2026-01-28 13:13:02.02	327.81	30.77	-45.0	-45.6	25.2	0.00e+00	0	47	0	3805282304	60	7455
2026-01-28 13:13:03.03	327.90	30.58	-45.2	-45.7	24.9	0.00e+00	0	47	0	3812622336	60	7591
2026-01-28 13:13:04.04	327.99	30.39	-45.1	-45.6	24.9	0.00e+00	0	47	0	3819962368	60	7486
2026-01-28 13:13:05.05	328.08	30.20	-45.1	-45.7	24.8	0.00e+00	0	47	0	3827302400	60	7511
2026-01-28 13:13:06.05	328.17	30.02	-45.2	-45.8	24.6	0.00e+00	0	47	0	3834642432	60	7665
2026-01-28 13:13:07.06	328.25	29.83	-45.2	-45.8	24.6	0.00e+00	0	46	0	3841982464	60	7627
2026-01-28 13:13:08.07	328.34	29.65	-45.1	-45.6	24.7	0.00e+00	0	47	0	3849322496	60	7504
2026-01-28 13:13:09.07	328.42	29.47	-45.1	-45.7	24.7	0.00e+00	0	46	0	3856662528	60	7594
2026-01-28 13:13:10.08	328.51	29.28	-45.1	-45.7	24.7	0.00e+00	0	47	0	3864002560	60	7587
2026-01-28 13:13:11.09	328.59	29.10	-45.2	-45.8	24.6	0.00e+00	0	46	0	3871342592	60	7626
2026-01-28 13:13:12.10	328.67	28.92	-45.2	-45.9	24.3	0.00e+00	0	47	0	3878682624	60	7686
2026-01-28 13:13:13.10	328.75	28.75	-45.2	-45.8	24.5	0.00e+00	0	47	0	3886022656	60	7630
2026-01-28 13:13:14.11	328.83	28.57	-45.2	-45.9	24.4	0.00e+00	0	47	0	3892314112	60	7700
2026-01-28 13:13:15.11	328.91	28.39	-45.2	-45.9	24.4	0.00e+00	0	47	0	3899654144	60	7701
2026-01-28 13:13:16.11	328.99	28.22	-45.3	-46.0	24.3	0.00e+00	0	47	0	3906994176	60	7815
2026-01-28 13:13:17.12	329.07	28.04	-45.3	-46.0	24.3	0.00e+00	0	47	0	3914334208	60	7777
2026-01-28 13:13:18.13	329.15	27.87	-45.4	-46.1	24.2	0.00e+00	0	47	0	3921674240	60	7897
2026-01-28 13:13:19.14	329.22	27.70	-45.4	-46.1	24.2	0.00e+00	0	47	0	3929014272	60	7883
2026-01-28 13:13:20.14	329.30	27.53	-45.5	-46.2	24.2	0.00e+00	0	47	0	3936354304	60	7992
2026-01-28 13:13:21.15	329.37	27.36	-45.7	-46.3	24.2	0.00e+00	0	47	0	3943694336	60	8084
2026-01-28 13:13:22.16	329.45	27.19	-45.7	-46.4	23.9	0.00e+00	0	47	0	3951034368	60	8150
2026-01-28 13:13:23.17	329.52	27.02	-45.8	-46.5	24.1	0.00e+00	0	47	0	3958374400	60	8244
2026-01-28 13:13:24.18	329.59	26.85	-45.7	-46.4	24.1	0.00e+00	0	47	0	3965714432	60	8174
2026-01-28 13:13:25.18	329.67	26.69	-46.0	-46.6	23.9	0.00e+00	0	46	0	3973054464	60	8384
2026-01-28 13:13:26.19	329.74	26.52	-45.9	-46.6	23.9	0.00e+00	0	47	0	3980394496	60	8363
2026-01-28 13:13:27.19	329.81	26.36	-46.1	-46.8	23.7	0.00e+00	0	47	0	3987734528	60	8539
2026-01-28 13:13:28.20	329.88	26.19	-45.9	-46.5	24.1	0.00e+00	0	47	0	3994025984	60	8290
2026-01-28 13:13:29.20	329.95	26.03	-45.9	-46.6	24.0	0.00e+00	0	46	0	4001366016	60	8334
2026-01-28 13:13:30.21	330.02	25.87	-45.8	-46.5	24.2	0.00e+00	0	46	0	4008706048	60	8249
2026-01-28 13:13:31.22	330.08	25.71	-45.8	-46.5	24.2	0.00e+00	0	47	0	4016046080	60	8239
2026-01-28 13:13:32.22	330.15	25.55	-45.8	-46.4	24.2	0.00e+00	0	47	0	4023386112	60	8192
2026-01-28 13:13:33.22	330.22	25.39	-45.8	-46.5	24.4	0.00e+00	0	47	0	4030726144	60	8255
2026-01-28 13:13:34.23	330.28	25.24	-45.7	-46.4	24.3	0.00e+00	0	47	0	4038066176	60	8158
2026-01-28 13:13:35.24	330.35	25.08	-45.6	-46.2	24.5	0.00e+00	0	47	0	4045406208	60	8031
2026-01-28 13:13:36.25	330.41	24.92	-45.6	-46.2	24.5	0.00e+00	0	47	0	4052746240	60	7999
2026-01-28 13:13:37.26	330.48	24.77	-45.6	-46.2	24.4	0.00e+00	0	47	0	4060086272	60	8037
2026-01-28 13:13:38.26	330.54	24.61	-45.7	-46.3	24.4	0.00e+00	0	46	0	4067426304	60	8138
2026-01-28 13:13:39.27	330.60	24.46	-45.6	-46.2	24.5	0.00e+00	0	47	0	4074766336	60	8009
2026-01-28 13:13:40.28	330.67	24.31	-45.5	-46.1	24.7	0.00e+00	0	47	0	4082106368	60	7882
2026-01-28 13:13:41.28	330.73	24.16	-45.4	-46.1	24.7	0.00e+00	0	47	0	4089446400	60	7863
2026-01-28 13:13:42.29	330.79	24.00	-45.4	-46.0	24.8	0.00e+00	0	47	0	4096786432	60	7842
2026-01-28 13:13:43.29	330.85	23.86	-45.4	-46.0	24.7	0.00e+00	0	46	0	4103077888	60	7822
2026-01-28 13:13:44.29	330.91	23.71	-45.5	-46.1	24.7	0.00e+00	0	46	0	4110417920	60	7888
2026-01-28 13:13:45.30	330.97	23.56	-45.4	-46.0	24.7	0.00e+00	0	46	0	4117757952	60	7824
2026-01-28 13:13:46.31	331.03	23.41	-45.3	-45.9	24.7	0.00e+00	0	47	0	4125097984	60	7766
2026-01-28 13:13:47.31	331.09	23.27	-45.3	-45.9	24.7	0.00e+00	0	47	0	4132438016	60	7765
2026-01-28 13:13:48.31	331.15	23.12	-45.4	-46.0	24.5	0.00e+00	0	46	0	4139778048	60	7795
2026-01-28 13:13:49.32	331.20	22.98	-45.5	-46.1	24.6	0.00e+00	0	46	0	4147118080	60	7896
2026-01-28 13:13:50.32	331.26	22.83	-45.4	-46.0	24.5	0.00e+00	0	46	0	4154458112	60	7834
2026-01-28 13:13:51.33	331.32	22.69	-45.4	-46.1	24.4	0.00e+00	0	46	0	4160749568	60	7871
2026-01-28 13:13:52.34	331.37	22.55	-45.5	-46.1	24.5	0.00e+00	0	47	0	4168089600	60	7888
2026-01-28 13:13:53.34	331.43	22.40	-45.5	-46.1	24.4	0.00e+00	0	47	0	4175429632	60	7945
2026-01-28 13:13:54.35	331.49	22.26	-45.6	-46.3	24.2	0.00e+00	0	47	0	4183818240	60	8051
2026-01-28 13:13:55.35	331.54	22.12	-45.7	-46.4	24.2	0.00e+00	0	47	0	4191158272	60	8147
2026-01-28 13:13:56.36	331.60	21.98	-45.6	-46.3	24.3	0.00e+00	0	47	0	4198498304	60	8076
2026-01-28 13:13:57.36	331.65	21.85	-45.7	-46.4	24.1	0.00e+00	0	46	0	4204789760	60	8176
2026-01-28 13:13:58.37	331.70	21.71	-45.8	-46.4	24.0	0.00e+00	0	47	0	4212129792	60	8200
2026-01-28 13:13:59.38	331.76	21.57	-45.8	-46.5	24.0	0.00e+00	0	47	0	4219469824	60	8241
2026-01-28 13:14:00.39	331.81	21.43	-45.9	-46.6	23.9	0.00e+00	0	47	0	4226809856	60	8384
2026-01-28 13:14:01.39	331.86	21.30	-46.0	-46.6	23.9	0.00e+00	0	47	0	4234149888	60	8414
2026-01-28 13:14:02.40	331.91	21.16	-46.0	-46.7	23.7	0.00e+00	0	47	0	4241489920	60	8444
2026-01-28 13:14:03.40	331.96	21.03	-46.1	-46.8	23.8	0.00e+00	0	46	0	4248829952	60	8558
2026-01-28 13:14:04.41	332.02	20.89	-46.1	-46.8	23.8	0.00e+00	0	47	0	4256169984	60	8545
2026-01-28 13:14:05.42	332.07	20.76	-46.2	-46.8	23.7	0.00e+00	0	47	0	4263510016	60	8603
2026-01-28 13:14:06.43	332.12	20.63	-46.2	-46.9	23.7	0.00e+00	0	47	0	4269801472	60	8673
2026-01-28 13:14:07.43	332.17	20.50	-46.3	-47.0	23.6	0.00e+00	0	47	0	4277141504	60	8734
2026-01-28 13:14:08.44	332.22	20.37	-46.3	-47.0	23.6	0.00e+00	0	46	0	4284481536	60	8801
2026-01-28 13:14:09.44	332.26	20.24	-46.3	-47.0	23.7	0.00e+00	0	47	0	4291821568	60	8743
2026-01-28 13:14:10.45	332.31	20.11	-46.3	-47.0	23.7	0.00e+00	0	47	0	4300210176	60	8788
