passes_logs/2026/01/28/R3.2S-Naryan-Mar/R3.2S-Naryan-Mar__20260128_174807_TY-42_rec.log

#Pass ID: 20260128_174807_TY-42
#Satellite: TY-42
#Configuration: TY-42
#almurnet v.1.7.20240730
#Start time: 2026-01-28 17:48:10

#Version: 2.2.20231116
#Station: R3.2S-Naryan-Mar
#Location: 53.008057 lon 67.646978 lat
#TLE: 1 64048U 25103A   26028.22870370  .00008010  00000-0  38191-3 0 09994
#TLE: 2 64048 097.4119 103.3979 0001765 093.5114 028.5586 15.19170123 38824

#Time	Az	El	Level	Level2	SNR	BER	BlckErr	Temp	State	Recorded	gain1	gain2
2026-01-28 17:48:10.35	164.78	0.15	-54.6	-58.3	3.3	0.00e+00	0	46	0	0	60	97199
2026-01-28 17:48:11.35	164.79	0.22	-57.2	-60.8	3.6	0.00e+00	0	46	104	0	60	129934
2026-01-28 17:48:12.36	164.81	0.28	-57.4	-61.0	3.6	0.00e+00	0	46	104	0	60	132443
2026-01-28 17:48:13.36	164.82	0.35	-57.4	-61.1	3.6	0.00e+00	0	46	104	0	60	133566
2026-01-28 17:48:14.37	164.84	0.41	-57.8	-61.4	3.6	0.00e+00	0	46	104	0	60	138775
2026-01-28 17:48:15.36	164.85	0.48	-57.9	-61.6	3.6	0.00e+00	0	46	104	0	60	141453
2026-01-28 17:48:16.37	164.87	0.54	-57.8	-61.5	3.6	0.00e+00	0	46	104	0	60	140953
2026-01-28 17:48:17.37	164.88	0.61	-57.6	-61.3	3.6	0.00e+00	0	46	104	0	60	137786
2026-01-28 17:48:18.38	164.90	0.67	-57.5	-61.3	3.6	0.00e+00	0	46	104	0	60	136723
2026-01-28 17:48:19.39	164.91	0.74	-57.4	-61.0	3.6	0.00e+00	0	46	104	0	60	132323
2026-01-28 17:48:20.40	164.93	0.81	-56.9	-60.6	3.6	0.00e+00	0	46	104	0	60	126638
2026-01-28 17:48:21.40	164.94	0.87	-56.8	-60.7	3.6	0.00e+00	0	46	104	0	60	127781
2026-01-28 17:48:22.41	164.96	0.94	-56.0	-59.6	3.6	0.00e+00	0	46	104	0	60	112632
2026-01-28 17:48:23.42	164.97	1.01	-56.0	-59.7	3.6	0.00e+00	0	46	104	0	60	114700
2026-01-28 17:48:24.42	164.99	1.07	-55.6	-59.4	3.6	0.00e+00	0	46	104	0	60	109870
2026-01-28 17:48:25.43	165.00	1.14	-54.8	-58.7	3.6	0.00e+00	0	46	104	0	60	101382
2026-01-28 17:48:26.43	165.02	1.21	-54.0	-57.9	3.6	0.00e+00	0	46	104	0	60	93136
2026-01-28 17:48:27.44	165.04	1.28	-53.9	-57.8	3.6	0.00e+00	0	46	104	0	60	92077
2026-01-28 17:48:28.45	165.05	1.35	-53.8	-57.7	3.6	0.00e+00	0	46	104	0	60	91224
2026-01-28 17:48:29.45	165.07	1.41	-53.8	-57.7	3.6	0.00e+00	0	46	104	0	60	91026
2026-01-28 17:48:30.45	165.08	1.48	-53.7	-57.7	3.6	0.00e+00	0	46	104	0	60	90983
2026-01-28 17:48:31.46	165.10	1.55	-53.7	-57.7	3.6	0.00e+00	0	46	104	0	60	90846
2026-01-28 17:48:32.46	165.12	1.62	-53.7	-57.6	3.6	0.00e+00	0	46	104	0	60	90237
2026-01-28 17:48:33.46	165.13	1.69	-53.7	-57.6	3.6	0.00e+00	0	46	104	0	60	90166
2026-01-28 17:48:34.47	165.15	1.76	-53.7	-57.6	3.6	0.00e+00	0	46	104	0	60	89938
2026-01-28 17:48:35.47	165.17	1.83	-53.6	-57.6	3.6	0.00e+00	0	46	104	0	60	89797
2026-01-28 17:48:36.48	165.18	1.90	-53.6	-57.6	3.6	0.00e+00	0	46	104	0	60	89634
2026-01-28 17:48:37.49	165.20	1.97	-53.6	-57.6	3.6	0.00e+00	0	46	104	0	60	89511
2026-01-28 17:48:38.49	165.22	2.04	-53.6	-57.5	3.6	0.00e+00	0	46	104	0	60	88971
2026-01-28 17:48:39.51	165.23	2.11	-53.6	-57.5	3.6	0.00e+00	0	47	104	0	60	88529
2026-01-28 17:48:40.51	165.25	2.18	-53.5	-57.5	3.6	0.00e+00	0	47	104	0	60	88614
2026-01-28 17:48:41.51	165.27	2.25	-53.5	-57.5	3.6	0.00e+00	0	47	104	0	60	88919
2026-01-28 17:48:42.52	165.28	2.32	-53.5	-57.5	3.6	0.00e+00	0	47	104	0	60	88902
2026-01-28 17:48:43.52	165.30	2.39	-53.5	-57.5	3.6	0.00e+00	0	47	104	0	60	88652
2026-01-28 17:48:44.53	165.32	2.46	-53.5	-57.5	3.6	0.00e+00	0	47	104	0	60	88447
2026-01-28 17:48:45.53	165.33	2.53	-53.5	-57.5	3.6	0.00e+00	0	47	104	0	60	88440
2026-01-28 17:48:46.54	165.35	2.61	-53.5	-57.5	3.6	0.00e+00	0	47	104	0	60	88532
2026-01-28 17:48:47.54	165.37	2.68	-53.5	-57.5	3.6	0.00e+00	0	47	104	0	60	88409
2026-01-28 17:48:48.55	165.39	2.75	-53.5	-57.4	3.6	0.00e+00	0	47	104	0	60	88143
2026-01-28 17:48:49.56	165.40	2.82	-53.5	-57.4	3.6	0.00e+00	0	47	104	0	60	87695
2026-01-28 17:48:50.57	165.42	2.90	-53.5	-57.4	3.6	0.00e+00	0	47	104	0	60	88003
2026-01-28 17:48:51.58	165.44	2.97	-53.5	-57.5	3.6	0.00e+00	0	47	104	0	60	88309
2026-01-28 17:48:52.58	165.46	3.04	-53.5	-57.4	3.6	0.00e+00	0	47	104	0	60	88211
2026-01-28 17:48:53.59	165.48	3.12	-53.5	-57.5	3.6	0.00e+00	0	47	104	0	60	88515
2026-01-28 17:48:54.60	165.49	3.19	-53.5	-57.5	3.6	0.00e+00	0	47	104	0	60	88676
2026-01-28 17:48:55.61	165.51	3.27	-53.5	-57.4	3.6	0.00e+00	0	47	104	0	60	87800
2026-01-28 17:48:56.62	165.53	3.34	-53.5	-57.5	3.6	0.00e+00	0	47	104	0	60	88607
2026-01-28 17:48:57.62	165.55	3.42	-53.5	-57.4	3.6	0.00e+00	0	47	104	0	60	87962
2026-01-28 17:48:58.63	165.57	3.49	-53.5	-57.4	3.6	0.00e+00	0	47	104	0	60	87783
2026-01-28 17:48:59.63	165.59	3.57	-53.5	-57.4	3.6	0.00e+00	0	47	104	0	60	88211
2026-01-28 17:49:00.64	165.60	3.64	-53.5	-57.4	3.6	0.00e+00	0	47	104	0	60	87491
2026-01-28 17:49:01.65	165.62	3.72	-53.5	-57.4	3.6	0.00e+00	0	47	104	0	60	87506
2026-01-28 17:49:02.65	165.64	3.79	-53.5	-57.5	3.6	0.00e+00	0	47	104	0	60	88245
2026-01-28 17:49:03.66	165.66	3.87	-53.5	-57.4	3.6	0.00e+00	0	47	104	0	60	88188
2026-01-28 17:49:04.67	165.68	3.95	-53.5	-57.4	3.6	0.00e+00	0	47	104	0	60	87917
2026-01-28 17:49:05.68	165.70	4.03	-53.5	-57.4	3.6	0.00e+00	0	47	104	0	60	87551
2026-01-28 17:49:06.68	165.72	4.10	-53.4	-57.4	3.6	0.00e+00	0	47	104	0	60	88168
2026-01-28 17:49:07.69	165.74	4.18	-53.4	-57.4	3.6	0.00e+00	0	47	104	0	60	87635
2026-01-28 17:49:08.70	165.76	4.26	-53.4	-57.4	3.6	0.00e+00	0	47	104	0	60	88049
2026-01-28 17:49:09.71	165.78	4.34	-53.4	-57.4	3.6	0.00e+00	0	47	104	0	60	87732
2026-01-28 17:49:10.72	165.80	4.42	-53.4	-57.4	3.6	0.00e+00	0	47	104	0	60	87620
2026-01-28 17:49:11.73	165.82	4.50	-53.4	-57.4	3.6	0.00e+00	0	47	104	0	60	87509
2026-01-28 17:49:12.74	165.84	4.57	-53.4	-57.4	3.6	0.00e+00	0	47	104	0	60	87979
2026-01-28 17:49:13.74	165.86	4.65	-53.4	-57.4	3.6	0.00e+00	0	47	104	0	60	87736
2026-01-28 17:49:14.75	165.88	4.73	-53.4	-57.4	3.6	0.00e+00	0	47	104	0	60	87747
2026-01-28 17:49:15.75	165.90	4.81	-53.4	-57.4	3.6	0.00e+00	0	47	104	0	60	87529
2026-01-28 17:49:16.76	165.92	4.89	-53.4	-57.4	3.6	0.00e+00	0	47	104	0	60	87361
2026-01-28 17:49:17.77	165.94	4.98	-53.4	-57.4	3.6	0.00e+00	0	47	104	0	60	87827
2026-01-28 17:49:18.77	165.96	5.06	-53.4	-57.3	3.6	0.00e+00	0	47	104	0	60	87008
2026-01-28 17:49:19.78	165.98	5.14	-53.4	-57.4	3.6	0.00e+00	0	47	104	0	60	87355
2026-01-28 17:49:20.78	166.00	5.22	-53.4	-57.4	3.6	0.00e+00	0	47	104	0	60	87628
2026-01-28 17:49:21.79	166.02	5.30	-53.4	-57.4	3.5	0.00e+00	0	47	104	0	60	87468
2026-01-28 17:49:22.80	166.04	5.38	-53.4	-57.3	3.6	0.00e+00	0	47	104	0	60	87145
2026-01-28 17:49:23.81	166.06	5.47	-53.4	-57.4	3.6	0.00e+00	0	47	104	0	60	87539
2026-01-28 17:49:24.81	166.09	5.55	-53.4	-57.4	3.6	0.00e+00	0	47	104	0	60	87591
2026-01-28 17:49:25.81	166.11	5.63	-53.4	-57.4	3.6	0.00e+00	0	47	104	0	60	87506
2026-01-28 17:49:26.82	166.13	5.72	-53.4	-57.3	3.6	0.00e+00	0	47	104	0	60	87080
2026-01-28 17:49:27.83	166.15	5.80	-53.4	-57.4	3.6	0.00e+00	0	47	104	0	60	87695
2026-01-28 17:49:28.84	166.17	5.89	-53.4	-57.4	3.6	0.00e+00	0	47	104	0	60	87252
2026-01-28 17:49:29.84	166.19	5.97	-53.4	-57.4	3.6	0.00e+00	0	47	104	0	60	87336
2026-01-28 17:49:30.85	166.22	6.06	-53.4	-57.4	3.6	0.00e+00	0	47	104	0	60	87387
2026-01-28 17:49:31.86	166.24	6.14	-53.4	-57.3	3.6	0.00e+00	0	47	104	0	60	86533
2026-01-28 17:49:32.86	166.26	6.23	-53.0	-57.2	3.6	0.00e+00	0	47	104	0	60	85688
2026-01-28 17:49:33.87	166.28	6.31	-53.7	-57.6	3.6	0.00e+00	0	47	104	0	60	89336
2026-01-28 17:49:34.87	166.31	6.40	-53.3	-57.4	3.6	0.00e+00	0	47	104	0	60	87768
2026-01-28 17:49:35.88	166.33	6.49	-53.4	-57.4	3.6	0.00e+00	0	47	104	0	60	87627
2026-01-28 17:49:36.88	166.35	6.57	-53.1	-57.2	3.6	0.00e+00	0	48	104	0	60	86180
2026-01-28 17:49:37.89	166.38	6.66	-53.6	-57.6	3.6	0.00e+00	0	47	104	0	60	90005
2026-01-28 17:49:38.90	166.40	6.75	-53.5	-57.6	3.6	0.00e+00	0	47	104	0	60	89506
2026-01-28 17:49:39.90	166.42	6.84	-53.4	-57.4	3.6	0.00e+00	0	47	104	0	60	87765
2026-01-28 17:49:40.91	166.45	6.93	-53.4	-57.3	3.6	0.00e+00	0	48	104	0	60	87116
2026-01-28 17:49:41.92	166.47	7.02	-53.6	-57.6	3.6	0.00e+00	0	47	104	0	60	89843
2026-01-28 17:49:42.93	166.49	7.11	-53.9	-57.8	3.6	0.00e+00	0	47	104	0	60	92059
2026-01-28 17:49:43.93	166.52	7.20	-53.5	-57.3	3.6	0.00e+00	0	47	104	0	60	87045
2026-01-28 17:49:44.94	166.54	7.29	-53.4	-57.4	3.6	0.00e+00	0	47	104	0	60	87376
2026-01-28 17:49:45.95	166.57	7.38	-53.4	-57.4	3.6	0.00e+00	0	47	104	0	60	87782
2026-01-28 17:49:46.95	166.59	7.47	-53.5	-57.3	3.6	0.00e+00	0	48	104	0	60	87080
2026-01-28 17:49:47.96	166.62	7.56	-53.4	-57.5	3.5	0.00e+00	0	47	104	0	60	89116
2026-01-28 17:49:48.97	166.64	7.66	-53.9	-57.8	3.6	0.00e+00	0	48	104	0	60	92092
2026-01-28 17:49:49.98	166.67	7.75	-53.5	-57.5	3.6	0.00e+00	0	47	104	0	60	88299
2026-01-28 17:49:50.98	166.69	7.84	-54.2	-58.0	3.6	0.00e+00	0	47	104	0	60	94068
2026-01-28 17:49:51.99	166.72	7.94	-53.5	-57.4	3.6	0.00e+00	0	48	104	0	60	87780
2026-01-28 17:49:53.00	166.74	8.03	-53.4	-57.4	3.6	0.00e+00	0	48	104	0	60	87392
2026-01-28 17:49:54.01	166.77	8.13	-53.4	-57.4	3.6	0.00e+00	0	47	104	0	60	87716
2026-01-28 17:49:55.02	166.79	8.22	-53.2	-57.4	3.6	0.00e+00	0	47	104	0	60	87476
2026-01-28 17:49:56.02	166.82	8.32	-54.1	-57.9	3.6	0.00e+00	0	48	104	0	60	93310
2026-01-28 17:49:57.03	166.85	8.42	-53.9	-57.9	3.6	0.00e+00	0	48	104	0	60	92905
2026-01-28 17:49:58.04	166.87	8.51	-54.0	-57.8	3.6	0.00e+00	0	48	104	0	60	91797
2026-01-28 17:49:59.05	166.90	8.61	-54.4	-58.2	3.6	0.00e+00	0	48	104	0	60	95846
2026-01-28 17:50:00.05	166.93	8.71	-53.5	-57.5	3.6	0.00e+00	0	47	104	0	60	88948
2026-01-28 17:50:01.04	166.95	8.80	-53.6	-57.6	3.6	0.00e+00	0	47	104	0	60	89973
2026-01-28 17:50:02.05	166.98	8.90	-53.8	-57.8	3.6	0.00e+00	0	47	104	0	60	91373
2026-01-28 17:50:03.05	167.01	9.00	-53.9	-57.8	3.6	0.00e+00	0	48	104	0	60	91381
2026-01-28 17:50:04.05	167.04	9.10	-54.2	-58.0	3.6	0.00e+00	0	48	104	0	60	94139
2026-01-28 17:50:05.06	167.06	9.20	-54.3	-58.1	3.6	0.00e+00	0	48	104	0	60	94623
2026-01-28 17:50:06.07	167.09	9.30	-54.1	-57.9	3.6	0.00e+00	0	48	104	0	60	93134
2026-01-28 17:50:07.07	167.12	9.40	-54.5	-58.2	3.6	0.00e+00	0	48	104	0	60	95671
2026-01-28 17:50:08.08	167.15	9.51	-54.1	-57.9	3.6	0.00e+00	0	48	104	0	60	92992
2026-01-28 17:50:09.08	167.18	9.61	-54.1	-57.9	3.6	0.00e+00	0	47	104	0	60	92865
2026-01-28 17:50:10.09	167.21	9.71	-54.5	-58.2	3.6	0.00e+00	0	47	104	0	60	95950
2026-01-28 17:50:11.09	167.23	9.81	-54.5	-58.1	3.6	0.00e+00	0	48	104	0	60	95183
2026-01-28 17:50:12.10	167.26	9.92	-54.2	-58.0	3.6	0.00e+00	0	47	104	0	60	94397
2026-01-28 17:50:13.11	167.29	10.02	-54.2	-57.9	3.6	0.00e+00	0	47	104	0	60	93409
2026-01-28 17:50:14.12	167.32	10.13	-54.6	-58.2	3.6	0.00e+00	0	48	104	0	60	96599
2026-01-28 17:50:15.12	167.35	10.23	-54.5	-58.2	3.6	0.00e+00	0	47	104	0	60	96015
2026-01-28 17:50:16.13	167.38	10.34	-54.4	-58.1	3.6	0.00e+00	0	48	104	0	60	95299
2026-01-28 17:50:17.14	167.41	10.45	-54.3	-58.0	3.6	0.00e+00	0	48	104	0	60	93930
2026-01-28 17:50:18.14	167.45	10.56	-54.5	-58.2	3.6	0.00e+00	0	48	104	0	60	96581
2026-01-28 17:50:19.15	167.48	10.66	-54.4	-58.2	3.6	0.00e+00	0	47	104	0	60	96246
2026-01-28 17:50:20.16	167.51	10.77	-54.5	-58.3	3.6	0.00e+00	0	47	104	0	60	96789
2026-01-28 17:50:21.16	167.54	10.88	-54.3	-58.0	3.6	0.00e+00	0	48	104	0	60	93808
2026-01-28 17:50:22.17	167.57	10.99	-54.6	-58.3	3.6	0.00e+00	0	48	104	0	60	97013
2026-01-28 17:50:23.18	167.60	11.10	-54.5	-58.3	3.6	0.00e+00	0	48	104	0	60	96779
2026-01-28 17:50:24.18	167.64	11.22	-54.6	-58.3	3.6	0.00e+00	0	48	104	0	60	97061
2026-01-28 17:50:25.18	167.67	11.33	-54.3	-58.0	3.6	0.00e+00	0	48	104	0	60	93727
2026-01-28 17:50:26.19	167.70	11.44	-54.5	-58.2	3.6	0.00e+00	0	48	104	0	60	96536
2026-01-28 17:50:27.19	167.73	11.55	-54.6	-58.3	3.6	0.00e+00	0	47	104	0	60	97133
2026-01-28 17:50:28.20	167.77	11.67	-54.5	-58.2	3.6	0.00e+00	0	48	104	0	60	96155
2026-01-28 17:50:29.21	167.80	11.78	-54.4	-58.0	3.6	0.00e+00	0	48	104	0	60	94399
2026-01-28 17:50:30.21	167.83	11.90	-54.6	-58.3	3.6	0.00e+00	0	48	104	0	60	97195
2026-01-28 17:50:31.22	167.87	12.02	-54.6	-58.2	3.5	0.00e+00	0	48	104	0	60	96366
2026-01-28 17:50:32.22	167.90	12.13	-54.5	-58.2	3.6	0.00e+00	0	48	104	0	60	96198
2026-01-28 17:50:33.23	167.94	12.25	-54.5	-58.2	3.6	0.00e+00	0	48	104	0	60	95800
2026-01-28 17:50:34.24	167.97	12.37	-54.6	-58.4	3.6	0.00e+00	0	48	104	0	60	98244
2026-01-28 17:50:35.25	168.01	12.49	-54.6	-58.2	3.6	0.00e+00	0	48	104	0	60	96367
2026-01-28 17:50:36.26	168.04	12.61	-54.5	-58.2	3.6	0.00e+00	0	48	104	0	60	96616
2026-01-28 17:50:37.27	168.08	12.73	-54.7	-58.9	3.6	0.00e+00	0	48	104	0	60	103880
2026-01-28 17:50:38.27	168.12	12.85	-54.7	-58.3	3.6	0.00e+00	0	48	104	0	60	97780
2026-01-28 17:50:39.27	168.15	12.97	-54.7	-58.3	3.6	0.00e+00	0	48	104	0	60	97029
2026-01-28 17:50:40.28	168.19	13.10	-54.6	-58.3	3.6	0.00e+00	0	48	104	0	60	97716
2026-01-28 17:50:41.29	168.23	13.22	-54.7	-58.3	3.6	0.00e+00	0	48	104	0	60	97609
2026-01-28 17:50:42.29	168.27	13.35	-54.7	-58.3	3.6	0.00e+00	0	48	104	0	60	96935
2026-01-28 17:50:43.29	168.30	13.47	-54.7	-58.3	3.6	0.00e+00	0	48	104	0	60	97544
2026-01-28 17:50:44.30	168.34	13.60	-54.6	-58.1	3.6	0.00e+00	0	48	104	0	60	95313
2026-01-28 17:50:45.30	168.38	13.72	-54.6	-58.2	3.6	0.00e+00	0	48	104	0	60	96299
2026-01-28 17:50:46.31	168.42	13.85	-54.7	-58.4	3.6	0.00e+00	0	48	104	0	60	98714
2026-01-28 17:50:47.31	168.46	13.98	-54.7	-58.3	3.6	0.00e+00	0	48	104	0	60	97648
2026-01-28 17:50:48.32	168.50	14.11	-54.5	-58.1	3.6	0.00e+00	0	48	104	0	60	94999
2026-01-28 17:50:49.33	168.54	14.24	-54.7	-58.4	3.6	0.00e+00	0	48	104	0	60	97939
2026-01-28 17:50:50.34	168.58	14.38	-54.6	-58.2	3.6	0.00e+00	0	48	104	0	60	96129
2026-01-28 17:50:51.35	168.62	14.51	-54.7	-58.4	3.5	0.00e+00	0	48	104	0	60	98876
2026-01-28 17:50:52.35	168.66	14.64	-54.4	-58.1	3.6	0.00e+00	0	48	104	0	60	94741
2026-01-28 17:50:53.36	168.70	14.78	-54.7	-58.3	3.6	0.00e+00	0	48	104	0	60	97549
2026-01-28 17:50:54.37	168.75	14.91	-54.7	-58.3	3.6	0.00e+00	0	48	104	0	60	97648
2026-01-28 17:50:55.37	168.79	15.05	-54.8	-58.6	3.6	0.00e+00	0	48	104	0	60	100326
2026-01-28 17:50:56.37	168.83	15.19	-54.6	-58.2	3.6	0.00e+00	0	48	104	0	60	96128
2026-01-28 17:50:57.38	168.87	15.32	-54.8	-58.4	3.6	0.00e+00	0	48	104	0	60	98291
2026-01-28 17:50:58.38	168.92	15.46	-54.8	-58.5	3.6	0.00e+00	0	48	104	0	60	99069
2026-01-28 17:50:59.38	168.96	15.60	-54.9	-58.5	3.6	0.00e+00	0	48	104	0	60	100100
2026-01-28 17:51:00.38	169.01	15.74	-54.9	-58.5	3.6	0.00e+00	0	48	104	0	60	99800
2026-01-28 17:51:01.39	169.05	15.89	-54.9	-58.6	3.6	0.00e+00	0	48	104	0	60	100334
2026-01-28 17:51:02.40	169.10	16.03	-54.9	-58.6	3.6	0.00e+00	0	48	104	0	60	100209
2026-01-28 17:51:03.40	169.14	16.18	-54.9	-58.6	3.6	0.00e+00	0	48	104	0	60	100348
2026-01-28 17:51:04.41	169.19	16.32	-55.0	-58.7	3.6	0.00e+00	0	48	104	0	60	101543
2026-01-28 17:51:05.41	169.24	16.47	-55.1	-58.8	3.6	0.00e+00	0	48	104	0	60	102686
2026-01-28 17:51:06.42	169.29	16.62	-54.8	-58.4	3.6	0.00e+00	0	48	104	0	60	98614
2026-01-28 17:51:07.43	169.33	16.77	-54.9	-58.6	3.6	0.00e+00	0	48	104	0	60	100223
2026-01-28 17:51:08.43	169.38	16.92	-55.0	-58.6	3.6	0.00e+00	0	48	104	0	60	100931
2026-01-28 17:51:09.44	169.43	17.07	-55.2	-58.9	3.6	0.00e+00	0	48	104	0	60	103868
2026-01-28 17:51:10.45	169.48	17.22	-54.9	-58.6	3.6	0.00e+00	0	48	104	0	60	100837
2026-01-28 17:51:11.45	169.53	17.37	-55.1	-58.8	3.6	0.00e+00	0	48	104	0	60	103240
2026-01-28 17:51:12.46	169.58	17.53	-55.1	-58.8	3.6	0.00e+00	0	48	104	0	60	102787
2026-01-28 17:51:13.46	169.63	17.69	-55.3	-58.9	3.6	0.00e+00	0	48	104	0	60	104444
2026-01-28 17:51:14.47	169.69	17.84	-55.1	-58.8	3.6	0.00e+00	0	48	104	0	60	102990
2026-01-28 17:51:15.48	169.74	18.00	-55.2	-58.9	3.6	0.00e+00	0	48	104	0	60	104636
2026-01-28 17:51:16.49	169.79	18.16	-55.3	-59.0	3.6	0.00e+00	0	48	104	0	60	105303
2026-01-28 17:51:17.49	169.85	18.33	-55.4	-59.1	3.6	0.00e+00	0	48	104	0	60	106320
2026-01-28 17:51:18.50	169.90	18.49	-55.3	-59.0	3.6	0.00e+00	0	48	104	0	60	104884
2026-01-28 17:51:19.50	169.95	18.65	-55.2	-58.9	3.6	0.00e+00	0	48	104	0	60	103951
2026-01-28 17:51:20.51	170.01	18.82	-55.4	-59.0	3.6	0.00e+00	0	48	104	0	60	105408
2026-01-28 17:51:21.52	170.07	18.99	-55.4	-59.1	3.6	0.00e+00	0	48	104	0	60	106502
2026-01-28 17:51:22.52	170.12	19.15	-55.2	-58.9	3.6	0.00e+00	0	48	104	0	60	104474
2026-01-28 17:51:23.52	170.18	19.32	-55.3	-58.9	3.6	0.00e+00	0	48	104	0	60	104840
2026-01-28 17:51:24.53	170.24	19.49	-55.4	-59.0	3.6	0.00e+00	0	48	104	0	60	105849
2026-01-28 17:51:25.54	170.30	19.67	-55.4	-59.1	3.6	0.00e+00	0	48	104	0	60	106595
2026-01-28 17:51:26.55	170.36	19.84	-55.3	-59.0	3.6	0.00e+00	0	48	104	0	60	105448
2026-01-28 17:51:27.55	170.42	20.02	-55.3	-59.0	3.6	0.00e+00	0	48	104	0	60	105857
2026-01-28 17:51:28.56	170.48	20.20	-55.5	-59.1	3.6	0.00e+00	0	48	104	0	60	106508
2026-01-28 17:51:29.57	170.54	20.38	-55.6	-59.2	3.5	0.00e+00	0	48	104	0	60	107767
2026-01-28 17:51:30.57	170.60	20.56	-55.5	-59.2	3.6	0.00e+00	0	48	104	0	60	107770
2026-01-28 17:51:31.58	170.67	20.74	-55.5	-59.2	3.6	0.00e+00	0	48	104	0	60	107461
2026-01-28 17:51:32.58	170.73	20.92	-55.7	-59.4	3.6	0.00e+00	0	48	104	0	60	110127
2026-01-28 17:51:33.59	170.80	21.11	-55.6	-59.2	3.6	0.00e+00	0	48	104	0	60	108195
2026-01-28 17:51:34.60	170.86	21.29	-55.6	-59.2	3.6	0.00e+00	0	48	104	0	60	108410
2026-01-28 17:51:35.60	170.93	21.48	-55.6	-59.3	3.6	0.00e+00	0	48	104	0	60	109009
2026-01-28 17:51:36.61	171.00	21.67	-55.6	-59.3	3.6	0.00e+00	0	48	104	0	60	109307
2026-01-28 17:51:37.62	171.07	21.87	-55.7	-59.4	3.6	0.00e+00	0	48	104	0	60	110624
2026-01-28 17:51:38.62	171.14	22.06	-55.7	-59.3	3.6	0.00e+00	0	48	104	0	60	109035
2026-01-28 17:51:39.63	171.21	22.26	-55.8	-59.5	3.6	0.00e+00	0	48	104	0	60	111172
2026-01-28 17:51:40.64	171.28	22.45	-55.7	-59.4	3.6	0.00e+00	0	48	104	0	60	110368
2026-01-28 17:51:41.65	171.35	22.66	-55.8	-59.4	3.6	0.00e+00	0	48	104	0	60	110257
2026-01-28 17:51:42.66	171.43	22.86	-55.8	-59.5	3.5	0.00e+00	0	48	104	0	60	111142
2026-01-28 17:51:43.66	171.50	23.06	-55.7	-59.4	3.6	0.00e+00	0	48	104	0	60	110163
2026-01-28 17:51:44.67	171.58	23.27	-55.7	-59.4	3.6	0.00e+00	0	48	104	0	60	110548
2026-01-28 17:51:45.67	171.65	23.47	-55.7	-59.4	3.6	0.00e+00	0	48	104	0	60	110852
2026-01-28 17:51:46.68	171.73	23.68	-55.8	-59.4	3.6	0.00e+00	0	48	104	0	60	110952
2026-01-28 17:51:47.69	171.81	23.89	-55.7	-59.4	3.5	0.00e+00	0	48	104	0	60	110975
2026-01-28 17:51:48.70	171.89	24.11	-55.7	-59.5	3.6	0.00e+00	0	48	104	0	60	111304
2026-01-28 17:51:49.70	171.97	24.32	-55.7	-59.5	3.6	0.00e+00	0	48	104	0	60	111782
2026-01-28 17:51:50.70	172.05	24.54	-55.8	-59.5	3.6	0.00e+00	0	48	104	0	60	111774
2026-01-28 17:51:51.71	172.13	24.76	-55.7	-59.4	3.6	0.00e+00	0	48	104	0	60	110559
2026-01-28 17:51:52.72	172.22	24.98	-55.8	-59.5	3.6	0.00e+00	0	48	104	0	60	112313
2026-01-28 17:51:53.72	172.30	25.21	-55.9	-59.7	3.6	0.00e+00	0	48	104	0	60	114725
2026-01-28 17:51:54.73	172.39	25.43	-55.8	-59.5	3.6	0.00e+00	0	48	104	0	60	111802
2026-01-28 17:51:55.74	172.48	25.66	-55.9	-59.6	3.6	0.00e+00	0	48	104	0	60	113430
2026-01-28 17:51:56.75	172.57	25.90	-56.2	-59.9	3.6	0.00e+00	0	48	104	0	60	117302
2026-01-28 17:51:57.76	172.66	26.13	-56.2	-59.9	3.6	0.00e+00	0	48	104	0	60	116856
2026-01-28 17:51:58.76	172.76	26.36	-56.2	-60.0	3.6	0.00e+00	0	48	104	0	60	117861
2026-01-28 17:51:59.77	172.85	26.60	-56.2	-59.8	3.6	0.00e+00	0	48	104	0	60	115363
2026-01-28 17:52:00.77	172.95	26.84	-56.2	-59.8	3.6	0.00e+00	0	48	104	0	60	116204
2026-01-28 17:52:01.77	173.04	27.08	-56.3	-60.0	3.6	0.00e+00	0	48	104	0	60	117678
2026-01-28 17:52:02.77	173.14	27.33	-56.3	-59.9	3.6	0.00e+00	0	48	104	0	60	117232
2026-01-28 17:52:03.77	173.24	27.58	-56.2	-59.9	3.6	0.00e+00	0	48	104	0	60	116714
2026-01-28 17:52:04.78	173.34	27.83	-56.2	-59.9	3.6	0.00e+00	0	48	104	0	60	116624
2026-01-28 17:52:05.79	173.45	28.08	-56.4	-60.1	3.6	0.00e+00	0	48	104	0	60	119789
2026-01-28 17:52:06.79	173.55	28.34	-56.4	-60.0	3.6	0.00e+00	0	48	104	0	60	118875
2026-01-28 17:52:07.80	173.66	28.60	-56.3	-60.0	3.6	0.00e+00	0	48	104	0	60	118224
2026-01-28 17:52:08.81	173.77	28.86	-56.4	-60.1	3.5	0.00e+00	0	48	104	0	60	119501
2026-01-28 17:52:09.82	173.88	29.13	-56.6	-60.2	3.6	0.00e+00	0	48	104	0	60	121095
2026-01-28 17:52:10.82	173.99	29.39	-56.6	-60.3	3.6	0.00e+00	0	48	104	0	60	122582
2026-01-28 17:52:11.83	174.11	29.67	-56.4	-60.0	3.6	0.00e+00	0	48	104	0	60	118753
2026-01-28 17:52:12.84	174.23	29.94	-56.5	-60.1	3.6	0.00e+00	0	48	104	0	60	119725
2026-01-28 17:52:13.85	174.35	30.22	-56.6	-60.3	3.6	0.00e+00	0	48	104	0	60	122322
2026-01-28 17:52:14.86	174.47	30.50	-56.6	-60.2	3.6	0.00e+00	0	48	104	0	60	121603
2026-01-28 17:52:15.86	174.59	30.78	-56.4	-60.1	3.6	0.00e+00	0	48	104	0	60	119475
2026-01-28 17:52:16.87	174.72	31.07	-56.6	-60.2	3.6	0.00e+00	0	48	104	0	60	121517
2026-01-28 17:52:17.87	174.84	31.36	-56.8	-60.4	3.6	0.00e+00	0	48	104	0	60	124565
2026-01-28 17:52:18.87	174.97	31.65	-56.7	-60.3	3.6	0.00e+00	0	48	104	0	60	122148
2026-01-28 17:52:19.88	175.11	31.94	-56.5	-60.1	3.6	0.00e+00	0	48	104	0	60	120322
2026-01-28 17:52:20.89	175.24	32.24	-56.6	-60.2	3.6	0.00e+00	0	48	104	0	60	121355
2026-01-28 17:52:21.89	175.38	32.54	-56.7	-60.3	3.6	0.00e+00	0	48	104	0	60	122754
2026-01-28 17:52:22.90	175.52	32.85	-56.6	-60.3	3.6	0.00e+00	0	48	104	0	60	122073
2026-01-28 17:52:23.91	175.67	33.16	-56.6	-60.3	3.6	0.00e+00	0	48	104	0	60	122151
2026-01-28 17:52:24.92	175.82	33.48	-56.7	-60.4	3.6	0.00e+00	0	48	104	0	60	123354
2026-01-28 17:52:25.92	175.96	33.79	-56.8	-60.5	3.6	0.00e+00	0	48	104	0	60	124810
2026-01-28 17:52:26.92	176.12	34.11	-56.8	-60.4	3.6	0.00e+00	0	48	104	0	60	124535
2026-01-28 17:52:27.93	176.27	34.43	-56.8	-60.5	3.6	0.00e+00	0	48	104	0	60	124739
2026-01-28 17:52:28.94	176.43	34.76	-56.9	-60.5	3.6	0.00e+00	0	48	104	0	60	125797
2026-01-28 17:52:29.95	176.60	35.10	-57.0	-60.6	3.6	0.00e+00	0	48	104	0	60	126880
2026-01-28 17:52:30.95	176.76	35.43	-56.9	-60.5	3.6	0.00e+00	0	48	104	0	60	126025
2026-01-28 17:52:31.96	176.93	35.77	-57.0	-60.7	3.6	0.00e+00	0	48	104	0	60	127896
2026-01-28 17:52:32.97	177.10	36.11	-57.1	-60.8	3.6	0.00e+00	0	48	104	0	60	129271
2026-01-28 17:52:33.98	177.28	36.46	-57.2	-60.9	3.6	0.00e+00	0	48	104	0	60	130673
2026-01-28 17:52:34.98	177.46	36.81	-57.1	-60.8	3.6	0.00e+00	0	48	104	0	60	129844
2026-01-28 17:52:35.99	177.65	37.17	-57.1	-60.7	3.6	0.00e+00	0	48	104	0	60	128108
2026-01-28 17:52:36.99	177.84	37.52	-57.1	-60.7	3.6	0.00e+00	0	48	104	0	60	128606
2026-01-28 17:52:38.00	178.03	37.89	-57.2	-60.8	3.6	0.00e+00	0	48	104	0	60	129599
2026-01-28 17:52:39.01	178.23	38.26	-57.1	-60.7	3.6	0.00e+00	0	48	104	0	60	128936
2026-01-28 17:52:40.01	178.43	38.63	-57.1	-60.8	3.6	0.00e+00	0	48	104	0	60	129629
2026-01-28 17:52:41.02	178.64	39.00	-57.1	-60.8	3.6	0.00e+00	0	48	104	0	60	129397
2026-01-28 17:52:42.03	178.85	39.39	-57.2	-60.8	3.5	0.00e+00	0	48	104	0	60	130314
2026-01-28 17:52:43.04	179.07	39.77	-57.2	-60.9	3.6	0.00e+00	0	48	104	0	60	131468
2026-01-28 17:52:44.04	179.29	40.16	-57.2	-60.8	3.6	0.00e+00	0	48	104	0	60	130230
2026-01-28 17:52:45.05	179.52	40.55	-57.2	-60.9	3.6	0.00e+00	0	48	104	0	60	131021
2026-01-28 17:52:46.06	179.76	40.95	-57.4	-61.0	3.6	0.00e+00	0	48	104	0	60	132548
2026-01-28 17:52:47.07	180.00	41.36	-57.3	-61.0	3.6	0.00e+00	0	48	104	0	60	132710
2026-01-28 17:52:48.08	180.25	41.77	-57.2	-61.0	3.6	0.00e+00	0	48	104	0	60	132015
2026-01-28 17:52:49.08	180.50	42.17	-57.1	-60.9	3.6	0.00e+00	0	48	104	0	60	130721
2026-01-28 17:52:50.09	180.76	42.59	-57.4	-61.1	3.6	0.00e+00	0	48	104	0	60	134069
2026-01-28 17:52:51.10	181.03	43.01	-57.1	-60.9	3.6	0.00e+00	0	48	104	0	60	130524
2026-01-28 17:52:52.10	181.30	43.44	-57.1	-60.9	3.6	0.00e+00	0	48	104	0	60	131690
2026-01-28 17:52:53.11	181.59	43.87	-57.1	-60.9	3.6	0.00e+00	0	48	104	0	60	130523
2026-01-28 17:52:54.12	181.88	44.31	-57.2	-61.0	3.6	0.00e+00	0	48	104	0	60	132784
2026-01-28 17:52:55.13	182.18	44.75	-56.8	-60.7	3.6	0.00e+00	0	48	104	0	60	127770
2026-01-28 17:52:56.13	182.48	45.19	-57.0	-60.8	3.6	0.00e+00	0	48	104	0	60	130056
2026-01-28 17:52:57.14	182.80	45.64	-56.7	-60.6	3.6	0.00e+00	0	48	104	0	60	126179
2026-01-28 17:52:58.14	183.12	46.09	-57.0	-60.8	3.6	0.00e+00	0	48	104	0	60	129335
2026-01-28 17:52:59.15	183.46	46.55	-56.7	-60.6	3.6	0.00e+00	0	48	104	0	60	126222
2026-01-28 17:53:00.16	183.81	47.01	-56.8	-60.6	3.6	0.00e+00	0	48	104	0	60	127258
2026-01-28 17:53:01.17	184.16	47.48	-56.6	-60.5	3.6	0.00e+00	0	48	104	0	60	125345
2026-01-28 17:53:02.17	184.53	47.95	-56.7	-60.6	3.6	0.00e+00	0	48	104	0	60	127001
2026-01-28 17:53:03.18	184.91	48.43	-56.7	-60.6	3.6	0.00e+00	0	48	104	0	60	126565
2026-01-28 17:53:04.19	185.30	48.91	-56.8	-60.7	3.6	0.00e+00	0	48	104	0	60	127745
2026-01-28 17:53:05.20	185.71	49.40	-56.9	-60.8	3.6	0.00e+00	0	48	104	0	60	129278
2026-01-28 17:53:06.21	186.12	49.89	-56.7	-60.6	3.6	0.00e+00	0	48	104	0	60	127099
2026-01-28 17:53:07.22	186.56	50.39	-57.1	-60.9	3.6	0.00e+00	0	48	104	0	60	131553
2026-01-28 17:53:08.22	187.00	50.89	-57.0	-60.8	3.6	0.00e+00	0	48	104	0	60	130275
2026-01-28 17:53:09.23	187.46	51.39	-57.1	-60.8	3.6	0.00e+00	0	48	104	0	60	130199
2026-01-28 17:53:10.24	187.94	51.90	-57.0	-60.9	3.6	0.00e+00	0	48	104	0	60	130744
2026-01-28 17:53:11.24	188.43	52.41	-57.2	-61.0	3.6	0.00e+00	0	48	104	0	60	132104
2026-01-28 17:53:12.25	188.94	52.92	-57.0	-60.8	3.6	0.00e+00	0	48	104	0	60	130350
2026-01-28 17:53:13.26	189.47	53.44	-57.1	-60.8	3.6	0.00e+00	0	48	104	0	60	130019
2026-01-28 17:53:14.26	190.02	53.96	-57.1	-60.9	3.6	0.00e+00	0	48	104	0	60	130869
2026-01-28 17:53:15.26	190.59	54.48	-57.0	-60.8	3.6	0.00e+00	0	48	104	0	60	130132
2026-01-28 17:53:16.27	191.18	55.01	-56.9	-60.7	3.6	0.00e+00	0	48	104	0	60	128943
2026-01-28 17:53:17.28	191.79	55.54	-56.9	-60.7	3.6	0.00e+00	0	48	104	0	60	127805
2026-01-28 17:53:18.29	192.43	56.08	-56.9	-60.7	3.6	0.00e+00	0	48	104	0	60	128807
2026-01-28 17:53:19.30	193.10	56.61	-56.8	-60.7	3.6	0.00e+00	0	48	104	0	60	127969
2026-01-28 17:53:20.30	193.78	57.15	-56.9	-60.7	3.6	0.00e+00	0	48	104	0	60	127585
2026-01-28 17:53:21.31	194.50	57.69	-56.6	-60.5	3.6	0.00e+00	0	48	104	0	60	125573
2026-01-28 17:53:22.32	195.25	58.23	-56.8	-60.7	3.6	0.00e+00	0	48	104	0	60	128057
2026-01-28 17:53:23.33	196.03	58.77	-56.8	-60.7	3.6	0.00e+00	0	48	104	0	60	127579
2026-01-28 17:53:24.33	196.84	59.31	-56.8	-60.6	3.6	0.00e+00	0	48	104	0	60	127026
2026-01-28 17:53:25.34	197.69	59.85	-56.7	-60.5	3.6	0.00e+00	0	48	104	0	60	125882
2026-01-28 17:53:26.34	198.56	60.38	-56.6	-60.5	3.6	0.00e+00	0	48	104	0	60	125649
2026-01-28 17:53:27.35	199.49	60.92	-57.0	-60.7	3.6	0.00e+00	0	48	104	0	60	128956
2026-01-28 17:53:28.36	200.45	61.46	-56.6	-60.5	3.6	0.00e+00	0	48	104	0	60	124826
2026-01-28 17:53:29.36	201.44	61.99	-56.8	-60.7	3.5	0.00e+00	0	48	104	0	60	127687
2026-01-28 17:53:30.37	202.50	62.53	-56.6	-60.5	3.6	0.00e+00	0	48	104	0	60	125813
2026-01-28 17:53:31.38	203.59	63.06	-57.1	-60.8	3.6	0.00e+00	0	48	104	0	60	130203
2026-01-28 17:53:32.38	204.73	63.57	-56.6	-60.5	3.6	0.00e+00	0	48	104	0	60	124640
2026-01-28 17:53:33.38	205.92	64.09	-56.7	-60.6	3.6	0.00e+00	0	48	104	0	60	126902
2026-01-28 17:53:34.39	207.17	64.60	-56.8	-60.6	3.6	0.00e+00	0	48	104	0	60	127390
2026-01-28 17:53:35.40	208.48	65.10	-56.9	-60.8	3.6	0.00e+00	0	48	104	0	60	129306
2026-01-28 17:53:36.41	209.86	65.60	-56.6	-60.6	3.6	0.00e+00	0	48	104	0	60	126065
2026-01-28 17:53:37.42	211.29	66.09	-56.8	-60.7	3.6	0.00e+00	0	48	104	0	60	127699
2026-01-28 17:53:38.42	212.78	66.56	-56.8	-60.7	3.6	0.00e+00	0	48	104	0	60	128395
2026-01-28 17:53:39.43	214.34	67.02	-57.0	-60.8	3.6	0.00e+00	0	48	104	0	60	129750
2026-01-28 17:53:40.43	215.96	67.47	-56.8	-60.6	3.6	0.00e+00	0	48	104	0	60	127148
2026-01-28 17:53:41.44	217.67	67.90	-56.8	-60.8	3.6	0.00e+00	0	48	104	0	60	129121
2026-01-28 17:53:42.44	219.44	68.31	-57.0	-60.8	3.6	0.00e+00	0	48	104	0	60	130130
2026-01-28 17:53:43.44	221.27	68.71	-56.9	-60.9	3.6	0.00e+00	0	48	104	0	60	131171
2026-01-28 17:53:44.45	223.20	69.09	-56.9	-60.8	3.6	0.00e+00	0	48	104	0	60	129838
2026-01-28 17:53:45.46	225.21	69.45	-56.9	-60.9	3.6	0.00e+00	0	48	104	0	60	131726
2026-01-28 17:53:46.46	227.27	69.79	-57.0	-61.0	3.6	0.00e+00	0	48	104	0	60	132135
2026-01-28 17:53:47.46	229.40	70.10	-56.9	-60.9	3.6	0.00e+00	0	48	104	0	60	131009
2026-01-28 17:53:48.47	231.62	70.39	-56.6	-60.8	3.6	0.00e+00	0	48	104	0	60	129562
2026-01-28 17:53:49.47	233.89	70.64	-56.6	-60.8	3.6	0.00e+00	0	48	104	0	60	129074
2026-01-28 17:53:50.48	236.24	70.88	-56.6	-60.7	3.6	0.00e+00	0	48	104	0	60	128913
2026-01-28 17:53:51.48	238.63	71.07	-56.2	-60.6	3.6	0.00e+00	0	48	104	0	60	126093
2026-01-28 17:53:52.49	241.09	71.25	-56.1	-60.5	3.6	0.00e+00	0	48	104	0	60	125332
2026-01-28 17:53:53.50	243.59	71.38	-55.5	-60.3	3.6	0.00e+00	0	48	104	0	60	121916
2026-01-28 17:53:54.50	246.10	71.49	-55.8	-60.4	3.6	0.00e+00	0	48	104	0	60	123213
2026-01-28 17:53:55.51	248.66	71.56	-55.3	-60.2	3.6	0.00e+00	0	48	104	0	60	121326
2026-01-28 17:53:56.52	251.24	71.59	-54.6	-59.9	3.6	0.00e+00	0	48	104	0	60	116601
2026-01-28 17:53:57.52	253.80	71.59	-54.3	-59.7	3.6	0.00e+00	0	48	104	0	60	114695
2026-01-28 17:53:58.53	256.38	71.56	-54.4	-59.7	3.6	0.00e+00	0	48	104	0	60	114109
2026-01-28 17:53:59.53	258.92	71.49	-54.0	-59.5	3.6	0.00e+00	0	48	104	0	60	111442
2026-01-28 17:54:00.54	261.46	71.39	-53.6	-59.3	3.6	0.00e+00	0	48	104	0	60	108844
2026-01-28 17:54:01.54	263.94	71.25	-53.3	-59.1	3.6	0.00e+00	0	48	104	0	60	106325
2026-01-28 17:54:02.55	266.40	71.08	-53.5	-59.2	3.5	0.00e+00	0	48	104	0	60	108023
2026-01-28 17:54:03.56	268.81	70.88	-53.3	-59.1	3.6	0.00e+00	0	48	104	0	60	106507
2026-01-28 17:54:04.56	271.14	70.65	-53.8	-59.2	3.6	0.00e+00	0	49	104	0	60	107714
2026-01-28 17:54:05.57	273.43	70.39	-54.1	-59.2	3.6	0.00e+00	0	48	104	0	60	107830
2026-01-28 17:54:06.57	275.63	70.11	-53.9	-59.1	3.6	0.00e+00	0	48	104	0	60	106929
2026-01-28 17:54:07.58	277.78	69.80	-54.9	-59.6	3.6	0.00e+00	0	48	104	0	60	112891
2026-01-28 17:54:08.58	279.84	69.46	-55.4	-59.6	3.6	0.00e+00	0	48	104	0	60	112957
2026-01-28 17:54:09.59	281.84	69.10	-55.4	-59.5	3.6	0.00e+00	0	48	104	0	60	111632
2026-01-28 17:54:10.59	283.76	68.73	-55.5	-59.7	3.6	0.00e+00	0	48	104	0	60	114095
2026-01-28 17:54:11.60	285.61	68.33	-55.4	-59.6	3.6	0.00e+00	0	48	104	0	60	113440
2026-01-28 17:54:12.61	287.39	67.91	-54.8	-59.3	3.6	0.00e+00	0	48	104	0	60	109212
2026-01-28 17:54:13.61	289.08	67.48	-54.5	-59.1	3.6	0.00e+00	0	48	104	0	60	106915
2026-01-28 17:54:14.62	290.72	67.03	-54.7	-59.2	3.6	0.00e+00	0	48	104	0	60	108399
2026-01-28 17:54:15.62	292.27	66.57	-53.9	-58.9	3.6	0.00e+00	0	48	104	0	60	104473
2026-01-28 17:54:16.63	293.77	66.10	-53.5	-58.6	3.6	0.00e+00	0	48	104	0	60	101021
2026-01-28 17:54:17.63	295.19	65.62	-53.9	-58.9	3.6	0.00e+00	0	48	104	0	60	103876
2026-01-28 17:54:18.64	296.56	65.12	-54.2	-59.2	3.6	0.00e+00	0	48	104	0	60	107503
2026-01-28 17:54:19.65	297.88	64.62	-55.3	-59.8	3.6	0.00e+00	0	48	104	0	60	115339
2026-01-28 17:54:20.66	299.13	64.11	-55.6	-59.9	3.6	0.00e+00	0	48	104	0	60	116551
2026-01-28 17:54:21.66	300.32	63.60	-55.7	-59.9	3.6	0.00e+00	0	48	104	0	60	117116
2026-01-28 17:54:22.67	301.47	63.08	-55.3	-59.8	3.6	0.00e+00	0	48	104	0	60	115576
2026-01-28 17:54:23.68	302.56	62.55	-55.3	-59.8	3.6	0.00e+00	0	48	104	0	60	115415
2026-01-28 17:54:24.68	303.61	62.02	-55.8	-59.9	3.6	0.00e+00	0	48	104	0	60	117213
2026-01-28 17:54:25.69	304.61	61.49	-56.0	-60.0	3.6	0.00e+00	0	48	104	0	60	117857
2026-01-28 17:54:26.70	305.57	60.95	-56.0	-60.0	3.6	0.00e+00	0	48	104	0	60	118746
2026-01-28 17:54:27.71	306.50	60.41	-56.6	-60.2	3.6	0.00e+00	0	48	104	0	60	121304
2026-01-28 17:54:28.72	307.38	59.87	-55.7	-59.9	3.6	0.00e+00	0	48	104	0	60	117395
2026-01-28 17:54:29.72	308.22	59.34	-55.6	-59.8	3.6	0.00e+00	0	48	104	0	60	116198
2026-01-28 17:54:30.73	309.03	58.79	-55.6	-59.8	3.5	0.00e+00	0	48	104	0	60	115546
2026-01-28 17:54:31.74	309.81	58.25	-55.0	-59.5	3.6	0.00e+00	0	48	104	0	60	111926
2026-01-28 17:54:32.75	310.56	57.71	-55.5	-59.9	3.6	0.00e+00	0	48	104	0	60	116794
2026-01-28 17:54:33.75	311.27	57.18	-55.7	-60.1	3.6	0.00e+00	0	48	104	0	60	119220
2026-01-28 17:54:34.76	311.97	56.64	-55.7	-60.1	3.6	0.00e+00	0	48	104	0	60	120044
2026-01-28 17:54:35.76	312.62	56.11	-55.7	-59.9	3.6	0.00e+00	0	48	104	0	60	116923
2026-01-28 17:54:36.76	313.26	55.59	-56.1	-60.0	3.6	0.00e+00	0	48	104	0	60	117775
2026-01-28 17:54:37.77	313.87	55.06	-55.7	-59.8	3.6	0.00e+00	0	48	104	0	60	116195
2026-01-28 17:54:38.78	314.47	54.53	-55.9	-59.8	3.6	0.00e+00	0	49	104	0	60	115287
2026-01-28 17:54:39.79	315.04	54.00	-56.3	-60.1	3.6	0.00e+00	0	48	104	0	60	119131
2026-01-28 17:54:40.79	315.58	53.49	-55.9	-60.0	3.6	0.00e+00	0	48	104	0	60	118037
2026-01-28 17:54:41.80	316.11	52.97	-55.7	-59.9	3.6	0.00e+00	0	49	104	0	60	116452
2026-01-28 17:54:42.81	316.63	52.45	-56.1	-59.8	3.6	0.00e+00	0	49	104	0	60	115609
2026-01-28 17:54:43.82	317.12	51.94	-56.2	-60.1	3.6	0.00e+00	0	49	104	0	60	119475
2026-01-28 17:54:44.82	317.60	51.44	-55.8	-60.2	3.6	0.00e+00	0	49	104	0	60	121262
2026-01-28 17:54:45.83	318.06	50.94	-55.8	-59.9	3.6	0.00e+00	0	49	104	0	60	117444
2026-01-28 17:54:46.84	318.51	50.44	-55.8	-60.0	3.5	0.00e+00	0	48	104	0	60	118794
2026-01-28 17:54:47.85	318.94	49.94	-56.1	-60.2	3.6	0.00e+00	0	48	104	0	60	121111
2026-01-28 17:54:48.85	319.35	49.46	-56.4	-60.3	3.6	0.00e+00	0	49	104	0	60	121787
2026-01-28 17:54:49.86	319.76	48.97	-56.1	-60.1	3.6	0.00e+00	0	48	104	0	60	120134
2026-01-28 17:54:50.86	320.14	48.50	-55.9	-60.2	3.6	0.00e+00	0	49	104	0	60	120691
2026-01-28 17:54:51.86	320.52	48.02	-56.7	-60.2	3.6	0.00e+00	0	48	104	0	60	121525
2026-01-28 17:54:52.87	320.89	47.55	-56.2	-60.0	3.6	0.00e+00	0	48	104	0	60	117873
2026-01-28 17:54:53.88	321.25	47.08	-56.5	-60.2	3.6	0.00e+00	0	49	104	0	60	120649
2026-01-28 17:54:54.88	321.59	46.62	-56.2	-60.0	3.6	0.00e+00	0	48	104	0	60	118296
2026-01-28 17:54:55.89	321.93	46.16	-56.2	-60.1	3.5	0.00e+00	0	48	104	0	60	119814
2026-01-28 17:54:56.90	322.25	45.71	-55.6	-59.7	3.6	0.00e+00	0	48	104	0	60	113734
2026-01-28 17:54:57.90	322.57	45.27	-56.1	-60.0	3.6	0.00e+00	0	49	104	0	60	118581
2026-01-28 17:54:58.91	322.88	44.82	-55.5	-59.6	3.6	0.00e+00	0	49	104	0	60	112816
2026-01-28 17:54:59.92	323.18	44.38	-55.8	-59.7	3.6	0.00e+00	0	48	104	0	60	114932
2026-01-28 17:55:00.92	323.46	43.95	-56.2	-59.9	3.6	0.00e+00	0	48	104	0	60	117506
2026-01-28 17:55:01.92	323.75	43.52	-55.5	-59.5	3.6	0.00e+00	0	48	104	0	60	112043
2026-01-28 17:55:02.93	324.02	43.10	-55.9	-59.5	3.6	0.00e+00	0	48	104	0	60	112226
2026-01-28 17:55:03.93	324.29	42.68	-56.7	-60.3	3.6	0.00e+00	0	48	104	0	60	122366
2026-01-28 17:55:04.94	324.55	42.26	-56.5	-60.1	3.6	0.00e+00	0	48	104	0	60	119927
2026-01-28 17:55:05.94	324.80	41.86	-56.6	-60.2	3.6	0.00e+00	0	49	104	0	60	121732
2026-01-28 17:55:06.95	325.05	41.45	-56.6	-60.4	3.6	0.00e+00	0	49	104	0	60	123778
2026-01-28 17:55:07.96	325.29	41.04	-56.3	-60.0	3.6	0.00e+00	0	48	104	0	60	118722
2026-01-28 17:55:08.95	325.52	40.65	-56.3	-60.2	3.6	0.00e+00	0	48	104	0	60	120463
2026-01-28 17:55:09.96	325.75	40.26	-56.3	-60.1	3.6	0.00e+00	0	48	104	0	60	120306
2026-01-28 17:55:10.96	325.98	39.87	-55.6	-59.3	3.6	0.00e+00	0	48	104	0	60	109107
2026-01-28 17:55:11.97	326.20	39.49	-56.5	-60.3	3.6	0.00e+00	0	48	104	0	60	121794
2026-01-28 17:55:12.97	326.41	39.11	-55.8	-59.7	3.5	0.00e+00	0	49	104	0	60	114552
2026-01-28 17:55:13.98	326.62	38.74	-55.2	-59.4	3.6	0.00e+00	0	49	104	0	60	110878
2026-01-28 17:55:14.99	326.82	38.36	-55.1	-59.4	3.6	0.00e+00	0	48	104	0	60	110339
2026-01-28 17:55:16.00	327.02	38.00	-54.6	-58.2	3.6	0.00e+00	0	48	104	0	60	96044
2026-01-28 17:55:17.00	327.21	37.64	-55.7	-60.0	3.5	0.00e+00	0	48	104	0	60	118733
2026-01-28 17:55:18.01	327.40	37.28	-55.1	-58.5	3.6	0.00e+00	0	48	104	0	60	98995
2026-01-28 17:55:19.02	327.59	36.92	-43.0	-44.1	3.5	0.00e+00	0	48	104	0	60	18883
2026-01-28 17:55:20.02	327.77	36.57	-54.9	-59.7	3.6	0.00e+00	0	48	104	0	60	114349
2026-01-28 17:55:21.03	327.95	36.22	-53.4	-56.1	3.6	0.00e+00	0	48	104	0	60	75924
2026-01-28 17:55:22.03	328.12	35.88	-45.3	-46.5	3.4	0.00e+00	0	48	104	0	60	24972
2026-01-28 17:55:23.04	328.29	35.54	-47.6	-48.9	3.5	0.00e+00	0	48	104	0	60	32957
2026-01-28 17:55:24.04	328.46	35.21	-49.5	-51.1	3.5	0.00e+00	0	48	104	0	60	42443
2026-01-28 17:55:25.04	328.62	34.88	-55.3	-59.6	3.6	0.00e+00	0	48	104	0	60	112352
2026-01-28 17:55:26.05	328.78	34.56	-46.2	-47.3	3.5	0.00e+00	0	48	104	0	60	27501
2026-01-28 17:55:27.05	328.93	34.23	-53.7	-56.1	3.6	0.00e+00	0	48	104	0	60	75584
2026-01-28 17:55:28.06	329.09	33.91	-55.0	-58.2	3.5	0.00e+00	0	48	104	0	60	95851
2026-01-28 17:55:29.06	329.24	33.60	-54.7	-57.9	3.5	0.00e+00	0	48	104	0	60	93426
2026-01-28 17:55:30.07	329.38	33.29	-50.6	-52.2	3.5	0.00e+00	0	48	104	0	60	48072
2026-01-28 17:55:31.07	329.53	32.98	-48.9	-50.4	3.5	0.00e+00	0	48	104	0	60	39014
2026-01-28 17:55:32.08	329.67	32.67	-54.1	-56.5	3.6	0.00e+00	0	48	104	0	60	78681
2026-01-28 17:55:33.09	329.81	32.37	-56.2	-59.7	3.6	0.00e+00	0	48	104	0	60	113990
2026-01-28 17:55:34.09	329.94	32.07	-56.3	-59.6	3.6	0.00e+00	0	48	104	0	60	113264
2026-01-28 17:55:35.10	330.08	31.78	-54.1	-56.5	3.6	0.00e+00	0	48	104	0	60	78943
2026-01-28 17:55:36.11	330.21	31.48	-55.9	-59.5	3.6	0.00e+00	0	48	104	0	60	111160
2026-01-28 17:55:37.11	330.34	31.20	-54.9	-57.7	3.6	0.00e+00	0	48	104	0	60	90597
2026-01-28 17:55:38.12	330.46	30.91	-54.9	-57.8	3.6	0.00e+00	0	48	104	0	60	92093
2026-01-28 17:55:39.12	330.59	30.63	-55.2	-58.4	3.6	0.00e+00	0	48	104	0	60	98347
2026-01-28 17:55:40.13	330.71	30.35	-56.0	-59.7	3.6	0.00e+00	0	48	104	0	60	114875
2026-01-28 17:55:41.14	330.83	30.07	-55.8	-59.5	3.6	0.00e+00	0	48	104	0	60	111279
2026-01-28 17:55:42.14	330.95	29.80	-55.9	-59.3	3.6	0.00e+00	0	48	104	0	60	108781
2026-01-28 17:55:43.15	331.06	29.53	-55.6	-59.6	3.6	0.00e+00	0	48	104	0	60	113048
2026-01-28 17:55:44.15	331.17	29.26	-56.0	-59.6	3.6	0.00e+00	0	48	104	0	60	112983
2026-01-28 17:55:45.16	331.29	29.00	-56.1	-59.9	3.6	0.00e+00	0	48	104	0	60	116557
2026-01-28 17:55:46.17	331.40	28.73	-55.5	-59.3	3.6	0.00e+00	0	48	104	0	60	109095
2026-01-28 17:55:47.18	331.51	28.47	-55.5	-59.5	3.6	0.00e+00	0	48	104	0	60	111950
2026-01-28 17:55:48.18	331.61	28.22	-55.8	-59.6	3.6	0.00e+00	0	49	104	0	60	113643
2026-01-28 17:55:49.19	331.72	27.97	-55.8	-59.7	3.6	0.00e+00	0	48	104	0	60	114299
2026-01-28 17:55:50.20	331.82	27.71	-55.8	-59.5	3.6	0.00e+00	0	48	104	0	60	111504
2026-01-28 17:55:51.21	331.92	27.46	-54.8	-59.0	3.6	0.00e+00	0	49	104	0	60	106056
2026-01-28 17:55:52.22	332.02	27.22	-55.5	-59.6	3.6	0.00e+00	0	48	104	0	60	112845
2026-01-28 17:55:53.22	332.12	26.98	-55.6	-59.5	3.6	0.00e+00	0	48	104	0	60	111164
2026-01-28 17:55:54.23	332.21	26.74	-55.4	-59.3	3.6	0.00e+00	0	49	104	0	60	109180
2026-01-28 17:55:55.24	332.31	26.50	-55.2	-59.1	3.6	0.00e+00	0	49	104	0	60	106980
2026-01-28 17:55:56.25	332.40	26.26	-55.5	-59.3	3.6	0.00e+00	0	49	104	0	60	109675
2026-01-28 17:55:57.25	332.49	26.03	-55.4	-59.2	3.6	0.00e+00	0	49	104	0	60	108354
2026-01-28 17:55:58.25	332.58	25.80	-55.1	-59.2	3.6	0.00e+00	0	49	104	0	60	108078
2026-01-28 17:55:59.26	332.67	25.57	-55.4	-59.4	3.6	0.00e+00	0	49	104	0	60	110166
2026-01-28 17:56:00.27	332.76	25.34	-54.8	-59.0	3.5	0.00e+00	0	49	104	0	60	104877
2026-01-28 17:56:01.26	332.84	25.12	-55.7	-59.5	3.5	0.00e+00	0	49	104	0	60	111477
2026-01-28 17:56:02.27	332.93	24.90	-55.6	-59.5	3.6	0.00e+00	0	48	104	0	60	111250
2026-01-28 17:56:03.28	333.01	24.68	-55.4	-59.5	3.6	0.00e+00	0	49	104	0	60	111904
2026-01-28 17:56:04.29	333.10	24.46	-55.2	-59.1	3.6	0.00e+00	0	49	104	0	60	106852
2026-01-28 17:56:05.30	333.18	24.25	-55.9	-59.7	3.6	0.00e+00	0	49	104	0	60	114718
2026-01-28 17:56:06.30	333.26	24.03	-55.1	-59.4	3.6	0.00e+00	0	49	104	0	60	110496
2026-01-28 17:56:07.31	333.34	23.82	-55.6	-59.5	3.6	0.00e+00	0	49	104	0	60	111147
2026-01-28 17:56:08.32	333.42	23.61	-55.4	-59.4	3.6	0.00e+00	0	49	104	0	60	110124
2026-01-28 17:56:09.32	333.49	23.41	-55.7	-59.6	3.6	0.00e+00	0	49	104	0	60	113003
2026-01-28 17:56:10.33	333.57	23.20	-55.4	-59.6	3.6	0.00e+00	0	49	104	0	60	112415
2026-01-28 17:56:11.34	333.64	23.00	-55.8	-59.4	3.6	0.00e+00	0	49	104	0	60	110888
2026-01-28 17:56:12.35	333.72	22.79	-55.5	-59.5	3.6	0.00e+00	0	49	104	0	60	112080
2026-01-28 17:56:13.36	333.79	22.59	-55.7	-59.6	3.6	0.00e+00	0	49	104	0	60	113213
2026-01-28 17:56:14.36	333.86	22.40	-55.9	-59.5	3.6	0.00e+00	0	49	104	0	60	112285
2026-01-28 17:56:15.37	333.93	22.20	-55.7	-59.4	3.6	0.00e+00	0	48	104	0	60	110950
2026-01-28 17:56:16.38	334.00	22.01	-55.7	-59.6	3.6	0.00e+00	0	48	104	0	60	112891
2026-01-28 17:56:17.38	334.07	21.82	-55.5	-59.5	3.6	0.00e+00	0	48	104	0	60	111396
2026-01-28 17:56:18.39	334.14	21.63	-55.5	-59.4	3.6	0.00e+00	0	48	104	0	60	110700
2026-01-28 17:56:19.40	334.21	21.44	-55.9	-59.5	3.6	0.00e+00	0	49	104	0	60	111907
2026-01-28 17:56:20.40	334.27	21.25	-55.8	-59.6	3.6	0.00e+00	0	48	104	0	60	112602
2026-01-28 17:56:21.41	334.34	21.07	-55.7	-59.5	3.6	0.00e+00	0	48	104	0	60	111152
2026-01-28 17:56:22.42	334.40	20.88	-56.1	-59.8	3.6	0.00e+00	0	49	104	0	60	115261
2026-01-28 17:56:23.43	334.47	20.70	-55.0	-59.2	3.6	0.00e+00	0	49	104	0	60	107579
2026-01-28 17:56:24.43	334.53	20.52	-55.8	-59.6	3.6	0.00e+00	0	48	104	0	60	112725
2026-01-28 17:56:25.44	334.59	20.34	-55.4	-59.2	3.6	0.00e+00	0	49	104	0	60	107912
2026-01-28 17:56:26.44	334.65	20.16	-55.8	-59.7	3.6	0.00e+00	0	49	104	0	60	113712
2026-01-28 17:56:27.45	334.72	19.99	-54.9	-59.3	3.6	0.00e+00	0	48	104	0	60	108825
2026-01-28 17:56:28.46	334.78	19.81	-55.9	-59.6	3.6	0.00e+00	0	48	104	0	60	112868
2026-01-28 17:56:29.47	334.84	19.64	-55.2	-59.2	3.6	0.00e+00	0	49	104	0	60	107566
2026-01-28 17:56:30.47	334.89	19.47	-54.5	-59.1	3.6	0.00e+00	0	48	104	0	60	106403
2026-01-28 17:56:31.48	334.95	19.30	-54.7	-59.3	3.6	0.00e+00	0	48	104	0	60	108554
2026-01-28 17:56:32.49	335.01	19.13	-55.1	-59.3	3.6	0.00e+00	0	48	104	0	60	108761
2026-01-28 17:56:33.50	335.07	18.96	-54.7	-59.1	3.6	0.00e+00	0	48	104	0	60	106640
2026-01-28 17:56:34.50	335.12	18.80	-54.9	-59.4	3.6	0.00e+00	0	48	104	0	60	109944
2026-01-28 17:56:35.51	335.18	18.63	-54.7	-59.3	3.6	0.00e+00	0	48	104	0	60	108904
2026-01-28 17:56:36.51	335.23	18.47	-55.0	-59.2	3.6	0.00e+00	0	48	104	0	60	108398
2026-01-28 17:56:37.52	335.29	18.31	-54.4	-59.2	3.6	0.00e+00	0	48	104	0	60	107323
2026-01-28 17:56:38.53	335.34	18.15	-55.4	-59.5	3.6	0.00e+00	0	49	104	0	60	112136
2026-01-28 17:56:39.54	335.39	17.99	-55.7	-59.5	3.6	0.00e+00	0	48	104	0	60	112034
2026-01-28 17:56:40.54	335.45	17.83	-54.5	-59.2	3.6	0.00e+00	0	49	104	0	60	107414
2026-01-28 17:56:41.55	335.50	17.68	-55.4	-59.3	3.6	0.00e+00	0	49	104	0	60	109084
2026-01-28 17:56:42.56	335.55	17.52	-55.6	-59.4	3.6	0.00e+00	0	49	104	0	60	110836
2026-01-28 17:56:43.57	335.60	17.37	-55.4	-59.3	3.6	0.00e+00	0	49	104	0	60	108761
2026-01-28 17:56:44.58	335.65	17.21	-55.7	-59.4	3.6	0.00e+00	0	49	104	0	60	110026
2026-01-28 17:56:45.58	335.70	17.06	-54.0	-58.5	3.6	0.00e+00	0	49	104	0	60	99884
2026-01-28 17:56:46.59	335.75	16.91	-54.2	-58.6	3.6	0.00e+00	0	48	104	0	60	100568
2026-01-28 17:56:47.58	335.80	16.77	-54.2	-58.6	3.6	0.00e+00	0	49	104	0	60	100438
2026-01-28 17:56:48.59	335.84	16.62	-54.3	-58.5	3.6	0.00e+00	0	49	104	0	60	99772
2026-01-28 17:56:49.60	335.89	16.47	-54.2	-58.5	3.6	0.00e+00	0	49	104	0	60	100111
2026-01-28 17:56:50.61	335.94	16.32	-54.3	-58.6	3.6	0.00e+00	0	49	104	0	60	101224
2026-01-28 17:56:51.62	335.99	16.18	-53.7	-58.4	3.6	0.00e+00	0	49	104	0	60	98039
2026-01-28 17:56:52.62	336.03	16.04	-54.0	-58.5	3.6	0.00e+00	0	49	104	0	60	99341
2026-01-28 17:56:53.63	336.08	15.89	-53.9	-58.6	3.6	0.00e+00	0	49	104	0	60	100259
2026-01-28 17:56:54.64	336.12	15.75	-54.0	-58.4	3.6	0.00e+00	0	49	104	0	60	98610
2026-01-28 17:56:55.64	336.17	15.61	-54.2	-58.5	3.6	0.00e+00	0	49	104	0	60	99794
2026-01-28 17:56:56.65	336.21	15.47	-54.5	-58.5	3.6	0.00e+00	0	49	104	0	60	100124
2026-01-28 17:56:57.65	336.26	15.33	-54.3	-58.2	3.6	0.00e+00	0	49	104	0	60	96365
2026-01-28 17:56:58.66	336.30	15.20	-54.5	-58.6	3.6	0.00e+00	0	49	104	0	60	100684
2026-01-28 17:56:59.67	336.34	15.06	-54.1	-58.6	3.6	0.00e+00	0	49	104	0	60	101151
2026-01-28 17:57:00.68	336.39	14.92	-54.8	-58.5	3.6	0.00e+00	0	49	104	0	60	99663
2026-01-28 17:57:01.68	336.43	14.79	-54.1	-58.1	3.6	0.00e+00	0	49	104	0	60	95062
2026-01-28 17:57:02.68	336.47	14.66	-54.7	-58.4	3.6	0.00e+00	0	49	104	0	60	98460
2026-01-28 17:57:03.69	336.51	14.52	-54.8	-58.6	3.6	0.00e+00	0	49	104	0	60	100574
2026-01-28 17:57:04.70	336.55	14.39	-54.0	-58.0	3.6	0.00e+00	0	49	104	0	60	94469
2026-01-28 17:57:05.70	336.59	14.26	-54.1	-58.1	3.6	0.00e+00	0	49	104	0	60	95588
2026-01-28 17:57:06.71	336.63	14.13	-53.8	-57.9	3.6	0.00e+00	0	49	104	0	60	93141
2026-01-28 17:57:07.72	336.67	14.00	-53.7	-58.0	3.6	0.00e+00	0	48	104	0	60	93780
2026-01-28 17:57:08.72	336.71	13.88	-54.3	-58.3	3.6	0.00e+00	0	48	104	0	60	97748
2026-01-28 17:57:09.73	336.75	13.75	-54.3	-58.2	3.6	0.00e+00	0	49	104	0	60	95771
2026-01-28 17:57:10.73	336.79	13.62	-54.0	-58.1	3.6	0.00e+00	0	48	104	0	60	95287
2026-01-28 17:57:11.74	336.83	13.50	-54.6	-58.3	3.6	0.00e+00	0	48	104	0	60	97529
2026-01-28 17:57:12.75	336.87	13.37	-54.0	-58.1	3.6	0.00e+00	0	48	104	0	60	94852
2026-01-28 17:57:13.75	336.90	13.25	-54.1	-58.1	3.6	0.00e+00	0	48	104	0	60	94752
2026-01-28 17:57:14.76	336.94	13.12	-54.6	-58.3	3.6	0.00e+00	0	48	104	0	60	97261
2026-01-28 17:57:15.77	336.98	13.00	-54.3	-58.1	3.6	0.00e+00	0	48	104	0	60	94777
2026-01-28 17:57:16.77	337.02	12.88	-54.3	-58.2	3.6	0.00e+00	0	48	104	0	60	96067
2026-01-28 17:57:17.78	337.05	12.76	-54.3	-58.1	3.6	0.00e+00	0	48	104	0	60	95074
2026-01-28 17:57:18.78	337.09	12.64	-54.1	-58.0	3.6	0.00e+00	0	48	104	0	60	94055
2026-01-28 17:57:19.78	337.12	12.52	-54.1	-58.0	3.6	0.00e+00	0	48	104	0	60	93818
2026-01-28 17:57:20.79	337.16	12.40	-54.0	-57.8	3.6	0.00e+00	0	48	104	0	60	91584
2026-01-28 17:57:21.80	337.19	12.29	-53.6	-57.6	3.6	0.00e+00	0	48	104	0	60	89582
2026-01-28 17:57:22.81	337.23	12.17	-54.1	-57.9	3.6	0.00e+00	0	48	104	0	60	93254
2026-01-28 17:57:23.81	337.26	12.05	-53.9	-57.8	3.6	0.00e+00	0	48	104	0	60	91532
2026-01-28 17:57:24.82	337.30	11.94	-54.0	-57.8	3.6	0.00e+00	0	48	104	0	60	92049
2026-01-28 17:57:25.82	337.33	11.82	-53.3	-57.5	3.6	0.00e+00	0	48	104	0	60	88404
2026-01-28 17:57:26.83	337.37	11.71	-54.0	-57.7	3.6	0.00e+00	0	48	104	0	60	91312
2026-01-28 17:57:27.84	337.40	11.59	-54.0	-57.7	3.6	0.00e+00	0	49	104	0	60	90575
2026-01-28 17:57:28.85	337.43	11.48	-53.0	-57.4	3.6	0.00e+00	0	48	104	0	60	87682
2026-01-28 17:57:29.86	337.47	11.37	-52.6	-57.2	3.6	0.00e+00	0	49	104	0	60	85391
2026-01-28 17:57:30.86	337.50	11.26	-50.0	-56.1	3.6	0.00e+00	0	49	104	0	60	75720
2026-01-28 17:57:31.87	337.53	11.15	-50.0	-56.1	3.6	0.00e+00	0	49	104	0	60	75157
2026-01-28 17:57:32.88	337.56	11.04	-50.3	-56.5	3.6	0.00e+00	0	49	104	0	60	79349
2026-01-28 17:57:33.89	337.60	10.93	-53.2	-57.5	3.6	0.00e+00	0	49	104	0	60	89170
2026-01-28 17:57:34.89	337.63	10.82	-52.0	-56.9	3.6	0.00e+00	0	48	104	0	60	83136
2026-01-28 17:57:35.90	337.66	10.71	-49.8	-56.2	3.6	0.00e+00	0	49	104	0	60	76174
2026-01-28 17:57:36.90	337.69	10.60	-54.1	-57.7	3.6	0.00e+00	0	49	104	0	60	90896
2026-01-28 17:57:37.91	337.72	10.50	-51.5	-56.7	3.6	0.00e+00	0	48	104	0	60	81054
2026-01-28 17:57:38.91	337.75	10.39	-49.6	-55.8	3.6	0.00e+00	0	48	104	0	60	73157
2026-01-28 17:57:39.92	337.78	10.28	-49.4	-55.7	3.6	0.00e+00	0	48	104	0	60	72526
2026-01-28 17:57:40.93	337.81	10.18	-49.5	-55.6	3.6	0.00e+00	0	48	104	0	60	71614
2026-01-28 17:57:41.94	337.84	10.07	-52.3	-57.3	3.6	0.00e+00	0	48	104	0	60	86419
2026-01-28 17:57:42.94	337.87	9.97	-49.7	-56.1	3.6	0.00e+00	0	48	104	0	60	75130
2026-01-28 17:57:43.94	337.90	9.87	-49.7	-55.8	3.6	0.00e+00	0	49	104	0	60	72650
2026-01-28 17:57:44.95	337.93	9.76	-49.6	-55.8	3.6	0.00e+00	0	49	104	0	60	73160
2026-01-28 17:57:45.95	337.96	9.66	-49.6	-56.1	3.6	0.00e+00	0	49	104	0	60	75288
2026-01-28 17:57:46.96	337.99	9.56	-49.9	-56.0	3.6	0.00e+00	0	48	104	0	60	74631
2026-01-28 17:57:47.97	338.02	9.46	-49.6	-55.7	3.5	0.00e+00	0	49	104	0	60	72307
2026-01-28 17:57:48.97	338.05	9.36	-49.9	-56.1	3.6	0.00e+00	0	49	104	0	60	75431
2026-01-28 17:57:49.98	338.08	9.26	-50.2	-56.2	3.6	0.00e+00	0	49	104	0	60	76725
2026-01-28 17:57:50.99	338.10	9.16	-47.8	-54.6	3.6	0.00e+00	0	49	104	0	60	63842
2026-01-28 17:57:52.00	338.13	9.06	-48.9	-55.4	3.6	0.00e+00	0	49	104	0	60	69824
2026-01-28 17:57:53.00	338.16	8.96	-47.0	-54.1	3.6	0.00e+00	0	49	104	0	60	59978
2026-01-28 17:57:54.01	338.19	8.86	-46.9	-54.1	3.6	0.00e+00	0	49	104	0	60	60118
2026-01-28 17:57:55.02	338.22	8.76	-46.7	-54.1	3.6	0.00e+00	0	49	104	0	60	59824
2026-01-28 17:57:56.03	338.24	8.67	-46.9	-54.2	3.6	0.00e+00	0	48	104	0	60	60976
2026-01-28 17:57:57.03	338.27	8.57	-49.3	-56.1	3.6	0.00e+00	0	48	104	0	60	75155
2026-01-28 17:57:58.04	338.30	8.47	-50.0	-56.3	3.6	0.00e+00	0	48	104	0	60	77040
2026-01-28 17:57:59.04	338.32	8.38	-50.8	-57.0	3.6	0.00e+00	0	49	104	0	60	83329
2026-01-28 17:58:00.05	338.35	8.28	-51.2	-57.0	3.6	0.00e+00	0	48	104	0	60	84167
2026-01-28 17:58:01.05	338.38	8.19	-47.3	-54.6	3.6	0.00e+00	0	48	104	0	60	63755
2026-01-28 17:58:02.06	338.40	8.10	-47.3	-54.6	3.6	0.00e+00	0	48	104	0	60	63297
2026-01-28 17:58:03.06	338.43	8.00	-48.1	-55.2	3.6	0.00e+00	0	48	104	0	60	67848
2026-01-28 17:58:04.07	338.45	7.91	-48.7	-55.6	3.5	0.00e+00	0	48	104	0	60	71151
2026-01-28 17:58:05.07	338.48	7.82	-47.8	-54.7	3.6	0.00e+00	0	48	104	0	60	64149
2026-01-28 17:58:06.08	338.50	7.72	-49.1	-55.5	3.6	0.00e+00	0	48	104	0	60	70175
2026-01-28 17:58:07.09	338.53	7.63	-52.5	-57.2	3.6	0.00e+00	0	48	104	0	60	86045
2026-01-28 17:58:08.10	338.56	7.54	-51.7	-57.2	3.6	0.00e+00	0	48	104	0	60	85588
2026-01-28 17:58:09.10	338.58	7.45	-47.7	-55.0	3.6	0.00e+00	0	48	104	0	60	66335
2026-01-28 17:58:10.11	338.61	7.36	-47.9	-55.1	3.6	0.00e+00	0	48	104	0	60	67059
2026-01-28 17:58:11.11	338.63	7.27	-48.9	-55.8	3.6	0.00e+00	0	48	104	0	60	72855
2026-01-28 17:58:12.12	338.65	7.18	-49.4	-56.0	3.6	0.00e+00	0	49	104	0	60	74417
2026-01-28 17:58:13.13	338.68	7.09	-52.2	-57.5	3.6	0.00e+00	0	48	104	0	60	89127
2026-01-28 17:58:14.13	338.70	7.00	-52.6	-57.2	3.6	0.00e+00	0	48	104	0	60	86021
2026-01-28 17:58:15.13	338.73	6.91	-48.1	-55.1	3.6	0.00e+00	0	48	104	0	60	67249
2026-01-28 17:58:16.14	338.75	6.82	-50.8	-56.8	3.6	0.00e+00	0	48	104	0	60	81758
2026-01-28 17:58:17.14	338.77	6.74	-46.9	-54.3	3.6	0.00e+00	0	48	104	0	60	61347
2026-01-28 17:58:18.15	338.80	6.65	-47.0	-54.3	3.6	0.00e+00	0	49	104	0	60	61375
2026-01-28 17:58:19.16	338.82	6.56	-47.6	-54.9	3.6	0.00e+00	0	49	104	0	60	65716
2026-01-28 17:58:20.17	338.85	6.47	-48.2	-55.3	3.6	0.00e+00	0	48	104	0	60	68559
2026-01-28 17:58:21.17	338.87	6.39	-52.1	-57.5	3.6	0.00e+00	0	48	104	0	60	88568
2026-01-28 17:58:22.18	338.89	6.30	-53.3	-57.6	3.6	0.00e+00	0	48	104	0	60	89486
2026-01-28 17:58:23.19	338.91	6.22	-49.9	-55.9	3.6	0.00e+00	0	49	104	0	60	73548
2026-01-28 17:58:24.20	338.94	6.13	-52.1	-56.8	3.6	0.00e+00	0	48	104	0	60	82187
2026-01-28 17:58:25.20	338.96	6.05	-49.8	-56.1	3.6	0.00e+00	0	48	104	0	60	75935
2026-01-28 17:58:26.21	338.98	5.96	-50.4	-56.3	3.5	0.00e+00	0	48	104	0	60	77553
2026-01-28 17:58:27.21	339.00	5.88	-54.7	-58.6	3.6	0.00e+00	0	48	104	0	60	100572
2026-01-28 17:58:28.22	339.03	5.79	-55.6	-59.3	3.6	0.00e+00	0	48	104	0	60	109717
2026-01-28 17:58:29.22	339.05	5.71	-55.4	-59.5	3.6	0.00e+00	0	48	104	0	60	112096
2026-01-28 17:58:30.23	339.07	5.63	-56.1	-59.6	3.6	0.00e+00	0	48	104	0	60	113501
2026-01-28 17:58:31.24	339.09	5.55	-55.7	-59.8	3.6	0.00e+00	0	49	104	0	60	114981
2026-01-28 17:58:32.25	339.11	5.46	-56.1	-60.1	3.6	0.00e+00	0	49	104	0	60	119527
2026-01-28 17:58:33.25	339.14	5.38	-56.5	-60.4	3.6	0.00e+00	0	48	104	0	60	123975
2026-01-28 17:58:34.26	339.16	5.30	-56.6	-60.4	3.6	0.00e+00	0	49	104	0	60	124281
2026-01-28 17:58:35.27	339.18	5.22	-56.8	-60.6	3.6	0.00e+00	0	49	104	0	60	126164
2026-01-28 17:58:36.28	339.20	5.14	-56.8	-60.7	3.6	0.00e+00	0	49	104	0	60	128230
2026-01-28 17:58:37.29	339.22	5.06	-56.0	-60.3	3.6	0.00e+00	0	49	104	0	60	122728
2026-01-28 17:58:38.30	339.24	4.98	-57.3	-60.8	3.6	0.00e+00	0	49	104	0	60	130002
2026-01-28 17:58:39.30	339.26	4.90	-57.1	-60.8	3.6	0.00e+00	0	49	104	0	60	129109
2026-01-28 17:58:40.31	339.28	4.82	-56.7	-60.8	3.6	0.00e+00	0	48	104	0	60	130312
2026-01-28 17:58:41.32	339.31	4.74	-57.6	-61.4	3.6	0.00e+00	0	48	104	0	60	139625
2026-01-28 17:58:42.33	339.33	4.66	-55.4	-60.6	3.6	0.00e+00	0	48	104	0	60	126067
2026-01-28 17:58:43.33	339.35	4.58	-54.9	-60.0	3.6	0.00e+00	0	48	104	0	60	117875
2026-01-28 17:58:44.34	339.37	4.50	-56.2	-60.6	3.6	0.00e+00	0	49	104	0	60	126254
2026-01-28 17:58:45.34	339.39	4.42	-56.3	-60.6	3.6	0.00e+00	0	48	104	0	60	126576
2026-01-28 17:58:46.35	339.41	4.34	-56.3	-60.6	3.6	0.00e+00	0	48	104	0	60	126694
2026-01-28 17:58:47.36	339.43	4.27	-56.2	-60.5	3.6	0.00e+00	0	48	104	0	60	125897
2026-01-28 17:58:48.36	339.45	4.19	-56.2	-60.5	3.6	0.00e+00	0	48	104	0	60	125136
2026-01-28 17:58:49.37	339.47	4.11	-56.2	-60.5	3.6	0.00e+00	0	48	104	0	60	124748
2026-01-28 17:58:50.37	339.49	4.04	-56.2	-60.5	3.6	0.00e+00	0	48	104	0	60	125200
2026-01-28 17:58:51.38	339.51	3.96	-56.2	-60.5	3.6	0.00e+00	0	48	104	0	60	125761
2026-01-28 17:58:52.38	339.53	3.88	-56.1	-60.4	3.6	0.00e+00	0	48	104	0	60	124524
2026-01-28 17:58:53.39	339.55	3.81	-56.1	-60.5	3.5	0.00e+00	0	48	104	0	60	125235
2026-01-28 17:58:54.40	339.56	3.73	-56.2	-60.5	3.6	0.00e+00	0	48	104	0	60	124851
2026-01-28 17:58:55.41	339.58	3.66	-56.1	-60.5	3.6	0.00e+00	0	48	104	0	60	125583
2026-01-28 17:58:56.41	339.60	3.58	-56.1	-60.4	3.6	0.00e+00	0	48	104	0	60	124133
2026-01-28 17:58:57.42	339.62	3.51	-56.1	-60.5	3.6	0.00e+00	0	48	104	0	60	125143
2026-01-28 17:58:58.43	339.64	3.43	-56.1	-60.4	3.6	0.00e+00	0	48	104	0	60	124422
2026-01-28 17:58:59.43	339.66	3.36	-56.1	-60.4	3.6	0.00e+00	0	48	104	0	60	124375
2026-01-28 17:59:00.44	339.68	3.28	-56.1	-60.4	3.6	0.00e+00	0	48	104	0	60	124297
2026-01-28 17:59:01.44	339.70	3.21	-56.1	-60.4	3.6	0.00e+00	0	49	104	0	60	124100
2026-01-28 17:59:02.45	339.72	3.14	-56.1	-60.4	3.6	0.00e+00	0	48	104	0	60	123911
2026-01-28 17:59:03.45	339.73	3.06	-56.1	-60.4	3.6	0.00e+00	0	48	104	0	60	123969
2026-01-28 17:59:04.45	339.75	2.99	-56.1	-60.4	3.6	0.00e+00	0	48	104	0	60	123363
2026-01-28 17:59:05.46	339.77	2.92	-56.1	-60.4	3.6	0.00e+00	0	48	104	0	60	123828
2026-01-28 17:59:06.46	339.79	2.85	-56.2	-60.5	3.6	0.00e+00	0	48	104	0	60	125430
2026-01-28 17:59:07.47	339.81	2.77	-56.2	-60.4	3.6	0.00e+00	0	48	104	0	60	124124
2026-01-28 17:59:08.48	339.83	2.70	-56.2	-60.4	3.6	0.00e+00	0	48	104	0	60	124029
2026-01-28 17:59:09.49	339.84	2.63	-56.2	-60.4	3.6	0.00e+00	0	48	104	0	60	124227
2026-01-28 17:59:10.50	339.86	2.56	-56.2	-60.4	3.6	0.00e+00	0	48	104	0	60	124083
2026-01-28 17:59:11.50	339.88	2.49	-56.1	-60.5	3.6	0.00e+00	0	48	104	0	60	124680
2026-01-28 17:59:12.51	339.90	2.42	-56.2	-60.4	3.6	0.00e+00	0	49	104	0	60	124103
2026-01-28 17:59:13.52	339.92	2.35	-56.0	-60.4	3.6	0.00e+00	0	48	104	0	60	123292
2026-01-28 17:59:14.52	339.93	2.28	-56.1	-60.4	3.6	0.00e+00	0	49	104	0	60	124184
2026-01-28 17:59:15.53	339.95	2.20	-56.1	-60.4	3.5	0.00e+00	0	49	104	0	60	123611
2026-01-28 17:59:16.54	339.97	2.13	-56.1	-60.4	3.6	0.00e+00	0	48	104	0	60	123972
2026-01-28 17:59:17.54	339.98	2.06	-56.1	-60.4	3.6	0.00e+00	0	49	104	0	60	123256
2026-01-28 17:59:18.54	340.00	2.00	-56.1	-60.4	3.6	0.00e+00	0	49	104	0	60	123771
2026-01-28 17:59:19.55	340.02	1.93	-56.0	-60.4	3.6	0.00e+00	0	49	104	0	60	123780
2026-01-28 17:59:20.55	340.04	1.86	-56.1	-60.3	3.6	0.00e+00	0	48	104	0	60	123108
2026-01-28 17:59:21.55	340.05	1.79	-56.1	-60.4	3.6	0.00e+00	0	48	104	0	60	123724
2026-01-28 17:59:22.56	340.07	1.72	-56.1	-60.4	3.6	0.00e+00	0	48	104	0	60	123630
2026-01-28 17:59:23.57	340.09	1.65	-56.0	-60.4	3.6	0.00e+00	0	48	104	0	60	124071
2026-01-28 17:59:24.57	340.10	1.58	-56.1	-60.4	3.6	0.00e+00	0	49	104	0	60	123221
2026-01-28 17:59:25.58	340.12	1.51	-56.0	-60.4	3.6	0.00e+00	0	48	104	0	60	123458
2026-01-28 17:59:26.59	340.14	1.45	-56.1	-60.3	3.6	0.00e+00	0	49	104	0	60	122927
2026-01-28 17:59:27.60	340.15	1.38	-56.1	-60.3	3.6	0.00e+00	0	48	104	0	60	122737
2026-01-28 17:59:28.60	340.17	1.31	-56.0	-60.3	3.6	0.00e+00	0	49	104	0	60	122921
2026-01-28 17:59:29.61	340.19	1.24	-56.0	-60.3	3.6	0.00e+00	0	49	104	0	60	123091
2026-01-28 17:59:30.62	340.20	1.18	-56.1	-60.4	3.6	0.00e+00	0	49	104	0	60	123549
2026-01-28 17:59:31.62	340.22	1.11	-56.0	-60.3	3.6	0.00e+00	0	49	104	0	60	122988
2026-01-28 17:59:32.63	340.24	1.04	-56.0	-60.4	3.6	0.00e+00	0	49	104	0	60	123685
2026-01-28 17:59:33.63	340.25	0.98	-56.0	-60.4	3.6	0.00e+00	0	49	104	0	60	123521
2026-01-28 17:59:34.64	340.27	0.91	-56.0	-60.4	3.5	0.00e+00	0	49	104	0	60	123651
2026-01-28 17:59:35.65	340.28	0.84	-56.1	-60.4	3.6	0.00e+00	0	48	104	0	60	123464
2026-01-28 17:59:36.65	340.30	0.78	-56.1	-60.4	3.6	0.00e+00	0	49	104	0	60	123811
2026-01-28 17:59:37.65	340.32	0.71	-56.1	-60.4	3.6	0.00e+00	0	49	104	0	60	123404
2026-01-28 17:59:38.66	340.33	0.65	-56.0	-60.3	3.6	0.00e+00	0	49	104	0	60	123095
2026-01-28 17:59:39.67	340.35	0.58	-56.1	-60.3	3.6	0.00e+00	0	49	104	0	60	123185
2026-01-28 17:59:40.68	340.36	0.52	-56.1	-60.3	3.6	0.00e+00	0	49	104	0	60	123043
2026-01-28 17:59:41.69	340.38	0.45	-56.0	-60.3	3.6	0.00e+00	0	49	104	0	60	122788
2026-01-28 17:59:42.70	340.40	0.39	-56.1	-60.4	3.5	0.00e+00	0	48	104	0	60	123607
2026-01-28 17:59:43.70	340.41	0.32	-56.1	-60.3	3.6	0.00e+00	0	49	104	0	60	122669
2026-01-28 17:59:44.71	340.43	0.26	-56.0	-60.4	3.6	0.00e+00	0	48	104	0	60	123227
2026-01-28 17:59:45.71	340.44	0.19	-56.1	-60.4	3.6	0.00e+00	0	48	104	0	60	124169
2026-01-28 17:59:46.72	340.46	0.13	-56.0	-60.3	3.6	0.00e+00	0	48	104	0	60	122946
2026-01-28 17:59:47.73	340.47	0.06	-56.0	-60.4	3.6	0.00e+00	0	48	104	0	60	123682
2026-01-28 17:59:48.74	340.49	-0.00	-56.1	-60.4	3.6	0.00e+00	0	49	104	0	60	123221
2026-01-28 17:59:49.74	340.50	-0.06	-56.1	-60.4	3.6	0.00e+00	0	49	104	0	60	123253
2026-01-28 17:59:50.75	340.52	-0.13	-56.0	-60.3	3.6	0.00e+00	0	49	104	0	60	123122

#Closed at: 2026-01-28 17:59:51
#Recorded file [0 MB]: D:/Data/35015_260128_205344.dat