passes_logs/2026/01/28/R3.2S-Naryan-Mar/R3.2S-Naryan-Mar__20260128_210729_NOAA_20_JPSS-1_rec.log

#Pass ID: 20260128_210729_NOAA 20 (JPSS-1)
#Satellite: NOAA 20 (JPSS-1)
#Configuration: NOAA 20
#almurnet v.1.7.20240730
#Start time: 2026-01-28 21:07:30

#Version: 2.2.20231116
#Station: R3.2S-Naryan-Mar
#Location: 53.008057 lon 67.646978 lat
#TLE: 1 43013U 17073A   26027.80586608  .00000156  00000+0  94940-4 0  9998
#TLE: 2 43013  98.7647 328.6108 0000947  21.3465 338.7750 14.19541216424550

#Time	Az	El	Level	Level2	SNR	BER	BlckErr	Temp	State	Recorded	gain1	gain2
2026-01-28 21:07:30.47	17.32	0.05	-62.0	-78.2	3.5	1.51e+00	0	44	0	0	60	319916
2026-01-28 21:07:31.47	17.38	0.10	-62.0	-78.5	3.6	1.51e+00	0	45	104	0	60	328577
2026-01-28 21:07:32.48	17.44	0.15	-62.0	-78.5	3.6	1.51e+00	0	45	104	0	60	328868
2026-01-28 21:07:33.48	17.50	0.21	-62.2	-78.6	3.6	1.51e+00	0	45	104	0	60	333599
2026-01-28 21:07:34.49	17.56	0.26	-62.0	-78.4	3.6	1.51e+00	0	45	104	0	60	326642
2026-01-28 21:07:35.49	17.62	0.31	-62.2	-78.6	3.6	1.51e+00	0	45	104	0	60	333411
2026-01-28 21:07:36.50	17.68	0.37	-62.1	-78.4	3.6	1.51e+00	0	45	104	0	60	326050
2026-01-28 21:07:37.51	17.74	0.42	-61.9	-78.2	3.6	1.51e+00	0	45	104	0	60	317980
2026-01-28 21:07:38.51	17.80	0.47	-61.5	-78.0	3.6	1.51e+00	0	45	104	0	60	312160
2026-01-28 21:07:39.52	17.87	0.53	-61.4	-77.9	3.6	1.51e+00	0	45	104	0	60	306319
2026-01-28 21:07:40.53	17.93	0.58	-61.0	-77.7	3.6	1.51e+00	0	45	104	0	60	301226
2026-01-28 21:07:41.54	17.99	0.63	-61.5	-77.8	3.6	1.51e+00	0	45	104	0	60	304101
2026-01-28 21:07:42.54	18.05	0.69	-60.8	-77.8	3.6	1.51e+00	0	45	104	0	60	303298
2026-01-28 21:07:43.55	18.11	0.74	-59.8	-77.5	3.6	1.51e+00	0	45	104	0	60	294621
2026-01-28 21:07:44.56	18.18	0.80	-55.5	-76.2	3.6	1.51e+00	0	45	104	0	60	253197
2026-01-28 21:07:45.57	18.24	0.85	-60.9	-77.4	3.6	1.51e+00	0	45	104	0	60	291534
2026-01-28 21:07:46.58	18.30	0.91	-60.2	-77.0	3.6	1.51e+00	0	45	104	0	60	277844
2026-01-28 21:07:47.58	18.37	0.96	-56.7	-75.8	3.6	1.51e+00	0	45	104	0	60	241344
2026-01-28 21:07:48.59	18.43	1.01	-56.6	-75.6	3.6	1.51e+00	0	45	104	0	60	235963
2026-01-28 21:07:49.60	18.49	1.07	-56.7	-75.7	3.6	1.51e+00	0	45	104	0	60	239213
2026-01-28 21:07:50.60	18.56	1.12	-56.6	-75.7	3.6	1.51e+00	0	45	104	0	60	238554
2026-01-28 21:07:51.61	18.62	1.18	-56.6	-75.9	3.6	1.51e+00	0	45	104	0	60	243770
2026-01-28 21:07:52.61	18.68	1.23	-56.7	-75.9	3.6	1.51e+00	0	45	104	0	60	243354
2026-01-28 21:07:53.62	18.75	1.29	-56.7	-75.8	3.6	1.51e+00	0	45	104	0	60	241716
2026-01-28 21:07:54.63	18.81	1.34	-56.6	-75.7	3.6	1.51e+00	0	45	104	0	60	238149
2026-01-28 21:07:55.64	18.88	1.40	-56.6	-75.8	3.6	1.51e+00	0	45	104	0	60	240769
2026-01-28 21:07:56.65	18.94	1.45	-56.4	-75.5	3.6	1.51e+00	0	45	104	0	60	232751
2026-01-28 21:07:57.66	19.01	1.51	-56.4	-75.6	3.6	1.51e+00	0	45	104	0	60	237208
2026-01-28 21:07:58.66	19.08	1.56	-56.5	-75.5	3.6	1.51e+00	0	45	104	0	60	233994
2026-01-28 21:07:59.67	19.14	1.62	-56.5	-75.6	3.6	1.51e+00	0	46	104	0	60	237315
2026-01-28 21:08:00.68	19.21	1.67	-56.5	-75.7	3.6	1.51e+00	0	45	104	0	60	239783
2026-01-28 21:08:01.69	19.27	1.73	-56.6	-75.7	3.6	1.51e+00	0	45	104	0	60	237632
2026-01-28 21:08:02.70	19.34	1.79	-56.6	-75.8	3.6	1.51e+00	0	45	104	0	60	241309
2026-01-28 21:08:03.70	19.41	1.84	-56.5	-75.6	3.6	1.51e+00	0	46	104	0	60	235444
2026-01-28 21:08:04.71	19.47	1.90	-56.5	-75.5	3.6	1.51e+00	0	46	104	0	60	234309
2026-01-28 21:08:05.71	19.54	1.95	-56.5	-75.5	3.6	1.51e+00	0	46	104	0	60	232445
2026-01-28 21:08:06.72	19.61	2.01	-56.4	-75.5	3.6	1.51e+00	0	46	104	0	60	233830
2026-01-28 21:08:07.73	19.68	2.06	-56.4	-75.5	3.6	1.51e+00	0	46	104	0	60	233747
2026-01-28 21:08:08.73	19.74	2.12	-56.5	-75.5	3.6	1.51e+00	0	46	104	0	60	233320
2026-01-28 21:08:09.73	19.81	2.18	-56.4	-75.7	3.6	1.51e+00	0	46	104	0	60	238468
2026-01-28 21:08:10.74	19.88	2.23	-56.4	-75.5	3.6	1.51e+00	0	46	104	0	60	233890
2026-01-28 21:08:11.74	19.95	2.29	-56.3	-75.4	3.6	1.51e+00	0	46	104	0	60	231879
2026-01-28 21:08:12.75	20.02	2.34	-56.2	-75.5	3.6	1.51e+00	0	46	104	0	60	232890
2026-01-28 21:08:13.75	20.09	2.40	-56.3	-75.3	3.6	1.51e+00	0	46	104	0	60	228740
2026-01-28 21:08:14.75	20.15	2.46	-56.3	-75.5	3.6	1.51e+00	0	46	104	0	60	234672
2026-01-28 21:08:15.75	20.22	2.51	-56.2	-75.5	3.6	1.51e+00	0	46	104	0	60	232656
2026-01-28 21:08:16.76	20.29	2.57	-56.2	-75.7	3.6	1.51e+00	0	46	104	0	60	238294
2026-01-28 21:08:17.77	20.36	2.63	-56.2	-75.7	3.6	1.51e+00	0	46	104	0	60	237694
2026-01-28 21:08:18.78	20.43	2.68	-56.2	-75.5	3.6	1.51e+00	0	46	104	0	60	232658
2026-01-28 21:08:19.79	20.50	2.74	-56.2	-75.5	3.6	1.51e+00	0	46	104	0	60	232587
2026-01-28 21:08:20.80	20.58	2.80	-56.2	-75.6	3.6	1.51e+00	0	46	104	0	60	236430
2026-01-28 21:08:21.80	20.65	2.85	-56.2	-75.4	3.6	1.51e+00	0	46	104	0	60	231537
2026-01-28 21:08:22.81	20.72	2.91	-56.2	-75.6	3.6	1.51e+00	0	46	104	0	60	235516
2026-01-28 21:08:23.81	20.79	2.97	-56.2	-75.3	3.6	1.51e+00	0	46	104	0	60	228693
2026-01-28 21:08:24.82	20.86	3.03	-56.1	-75.2	3.6	1.51e+00	0	45	104	0	60	226200
2026-01-28 21:08:25.82	20.93	3.08	-56.2	-75.6	3.6	1.51e+00	0	46	104	0	60	235322
2026-01-28 21:08:26.83	21.00	3.14	-56.2	-75.4	3.6	1.51e+00	0	46	104	0	60	231881
2026-01-28 21:08:27.84	21.08	3.20	-56.0	-75.2	3.6	1.51e+00	0	46	104	0	60	225468
2026-01-28 21:08:28.85	21.15	3.26	-56.0	-75.4	3.6	1.51e+00	0	46	104	0	60	229636
2026-01-28 21:08:29.84	21.22	3.31	-56.0	-75.2	3.6	1.51e+00	0	46	104	0	60	224885
2026-01-28 21:08:30.85	21.30	3.37	-55.9	-75.1	3.6	1.51e+00	0	46	104	0	60	222878
2026-01-28 21:08:31.86	21.37	3.43	-55.9	-75.2	3.5	1.51e+00	0	46	104	0	60	225506
2026-01-28 21:08:32.86	21.44	3.49	-55.9	-75.3	3.6	1.51e+00	0	46	104	0	60	227305
2026-01-28 21:08:33.87	21.52	3.54	-55.9	-75.3	3.6	1.51e+00	0	46	104	0	60	228575
2026-01-28 21:08:34.88	21.59	3.60	-55.8	-75.0	3.6	1.51e+00	0	46	104	0	60	219646
2026-01-28 21:08:35.89	21.67	3.66	-55.8	-75.0	3.6	1.51e+00	0	46	104	0	60	219426
2026-01-28 21:08:36.90	21.74	3.72	-55.7	-75.2	3.6	1.51e+00	0	46	104	0	60	224198
2026-01-28 21:08:37.90	21.82	3.78	-55.8	-75.0	3.6	1.51e+00	0	46	104	0	60	221315
2026-01-28 21:08:38.91	21.89	3.84	-55.9	-75.0	3.6	1.51e+00	0	46	104	0	60	220860
2026-01-28 21:08:39.92	21.97	3.90	-55.8	-75.3	3.6	1.51e+00	0	46	104	0	60	227337
2026-01-28 21:08:40.93	22.05	3.95	-55.7	-75.5	3.6	1.51e+00	0	46	104	0	60	232208
2026-01-28 21:08:41.94	22.12	4.01	-55.7	-75.3	3.6	1.51e+00	0	46	104	0	60	228374
2026-01-28 21:08:42.94	22.20	4.07	-55.7	-75.3	3.6	1.51e+00	0	46	104	0	60	228845
2026-01-28 21:08:43.94	22.28	4.13	-55.7	-75.4	3.6	1.51e+00	0	46	104	0	60	230856
2026-01-28 21:08:44.94	22.35	4.19	-55.8	-75.1	3.6	1.51e+00	0	46	104	0	60	223719
2026-01-28 21:08:45.94	22.43	4.25	-55.7	-75.2	3.6	1.51e+00	0	46	104	0	60	224314
2026-01-28 21:08:46.95	22.51	4.31	-55.6	-75.0	3.6	1.51e+00	0	46	104	0	60	221493
2026-01-28 21:08:47.96	22.59	4.37	-55.6	-75.0	3.6	1.51e+00	0	46	104	0	60	219633
2026-01-28 21:08:48.97	22.66	4.43	-55.6	-75.0	3.6	1.51e+00	0	46	104	0	60	219388
2026-01-28 21:08:49.97	22.74	4.49	-55.6	-75.0	3.6	1.51e+00	0	46	104	0	60	219718
2026-01-28 21:08:50.98	22.82	4.55	-55.6	-75.3	3.6	1.51e+00	0	46	104	0	60	228596
2026-01-28 21:08:51.99	22.90	4.61	-55.6	-75.4	3.6	1.51e+00	0	46	104	0	60	229512
2026-01-28 21:08:53.00	22.98	4.67	-55.6	-75.0	3.6	1.51e+00	0	46	104	0	60	221168
2026-01-28 21:08:54.01	23.06	4.73	-55.6	-75.1	3.6	1.51e+00	0	46	104	0	60	222726
2026-01-28 21:08:55.02	23.14	4.79	-55.6	-75.0	3.6	1.51e+00	0	46	104	0	60	220714
2026-01-28 21:08:56.02	23.22	4.84	-55.6	-74.9	3.6	1.51e+00	0	46	104	0	60	218066
2026-01-28 21:08:57.03	23.30	4.91	-55.6	-75.3	3.6	1.51e+00	0	46	104	0	60	229135
2026-01-28 21:08:58.04	23.39	4.97	-55.6	-75.1	3.6	1.51e+00	0	46	104	0	60	221816
2026-01-28 21:08:59.05	23.47	5.03	-55.6	-75.0	3.6	1.51e+00	0	46	104	0	60	220516
2026-01-28 21:09:00.05	23.55	5.09	-55.7	-75.2	3.6	1.51e+00	0	46	104	0	60	225497
2026-01-28 21:09:01.06	23.63	5.15	-55.7	-75.3	3.6	1.51e+00	0	46	104	0	60	228907
2026-01-28 21:09:02.07	23.71	5.21	-55.6	-75.2	3.6	1.51e+00	0	46	104	0	60	224203
2026-01-28 21:09:03.07	23.80	5.27	-55.6	-75.0	3.6	1.51e+00	0	46	104	0	60	220503
2026-01-28 21:09:04.08	23.88	5.33	-55.5	-75.0	3.6	1.51e+00	0	46	104	0	60	221080
2026-01-28 21:09:05.08	23.96	5.39	-55.4	-75.0	3.6	1.51e+00	0	46	104	0	60	220727
2026-01-28 21:09:06.08	24.05	5.45	-55.5	-75.0	3.6	1.51e+00	0	46	104	0	60	219064
2026-01-28 21:09:07.09	24.13	5.51	-55.4	-75.1	3.6	1.51e+00	0	46	104	0	60	222345
2026-01-28 21:09:08.10	24.21	5.57	-55.6	-75.4	3.6	1.51e+00	0	46	104	0	60	229582
2026-01-28 21:09:09.11	24.30	5.63	-55.5	-75.3	3.6	1.51e+00	0	46	104	0	60	228587
2026-01-28 21:09:10.12	24.39	5.70	-55.3	-74.9	3.6	1.51e+00	0	46	104	0	60	217332
2026-01-28 21:09:11.12	24.47	5.76	-55.3	-74.8	3.6	1.51e+00	0	46	104	0	60	216081
2026-01-28 21:09:12.12	24.56	5.82	-55.4	-74.6	3.6	1.51e+00	0	46	104	0	60	211213
2026-01-28 21:09:13.13	24.64	5.88	-55.3	-74.4	3.5	1.51e+00	0	46	104	0	60	205540
2026-01-28 21:09:14.14	24.73	5.94	-55.2	-74.2	3.6	1.51e+00	0	46	104	0	60	201079
2026-01-28 21:09:15.15	24.82	6.00	-55.2	-73.7	3.6	1.51e+00	0	46	104	0	60	189676
2026-01-28 21:09:16.15	24.90	6.06	-55.2	-73.6	3.6	1.51e+00	0	46	104	0	60	187926
2026-01-28 21:09:17.16	24.99	6.13	-58.7	-76.1	3.6	1.51e+00	0	46	104	0	60	249419
2026-01-28 21:09:18.16	25.08	6.19	-59.7	-76.3	3.6	1.51e+00	0	46	104	0	60	256854
2026-01-28 21:09:19.17	25.17	6.25	-58.7	-65.0	9.8	1.51e+00	0	46	104	0	60	69940
2026-01-28 21:09:20.17	25.25	6.31	-59.1	-75.7	3.6	1.50e+00	0	46	104	0	60	237614
2026-01-28 21:09:21.18	25.34	6.38	-55.0	-58.4	15.8	1.33e+00	0	46	104	0	60	32625
2026-01-28 21:09:22.19	25.43	6.44	-56.9	-60.9	13.9	0.00e+00	0	46	0	0	60	43514
2026-01-28 21:09:23.19	25.52	6.50	-57.7	-61.9	13.4	3.58e-05	0	46	0	2097152	60	48634
2026-01-28 21:09:24.20	25.61	6.56	-57.6	-61.4	14.0	5.30e-06	0	46	0	4194304	60	46201
2026-01-28 21:09:25.21	25.70	6.63	-57.5	-61.3	14.2	4.50e-06	0	46	0	6291456	60	45581
2026-01-28 21:09:26.21	25.79	6.69	-57.1	-60.5	15.1	0.00e+00	0	46	0	8388608	60	41295
2026-01-28 21:09:27.22	25.88	6.75	-56.7	-59.6	16.0	0.00e+00	0	46	0	9437184	60	37341
2026-01-28 21:09:28.23	25.98	6.82	-56.4	-59.1	16.6	0.00e+00	0	46	0	11534336	60	35319
2026-01-28 21:09:29.23	26.07	6.88	-56.0	-58.5	17.0	0.00e+00	0	46	0	13631488	60	33116
2026-01-28 21:09:30.24	26.16	6.94	-55.8	-58.2	17.3	0.00e+00	0	46	0	15728640	60	31926
2026-01-28 21:09:31.25	26.25	7.00	-55.7	-58.1	17.4	0.00e+00	0	46	0	17825792	60	31513
2026-01-28 21:09:32.26	26.35	7.07	-55.7	-58.1	17.3	0.00e+00	0	46	0	18874368	60	31539
2026-01-28 21:09:33.26	26.44	7.13	-55.5	-58.0	17.6	0.00e+00	0	46	0	20971520	60	31161
2026-01-28 21:09:34.27	26.53	7.20	-55.4	-57.8	17.7	0.00e+00	0	46	0	23068672	60	30582
2026-01-28 21:09:35.28	26.63	7.26	-55.2	-57.7	17.7	0.00e+00	0	46	0	25165824	60	30039
2026-01-28 21:09:36.28	26.72	7.32	-55.0	-57.7	17.6	0.00e+00	0	46	0	27262976	60	30017
2026-01-28 21:09:37.29	26.82	7.39	-54.9	-57.7	17.7	0.00e+00	0	46	0	28311552	60	30158
2026-01-28 21:09:38.30	26.91	7.45	-54.9	-57.5	17.8	0.00e+00	0	46	0	30408704	60	29475
2026-01-28 21:09:39.30	27.01	7.51	-54.7	-57.2	18.0	0.00e+00	0	46	0	32505856	60	28446
2026-01-28 21:09:40.31	27.10	7.58	-54.8	-57.2	17.9	0.00e+00	0	46	0	34603008	60	28532
2026-01-28 21:09:41.31	27.20	7.64	-54.9	-57.1	18.2	0.00e+00	0	46	0	36700160	60	28127
2026-01-28 21:09:42.32	27.30	7.71	-55.0	-57.1	18.3	0.00e+00	0	46	0	37748736	60	28108
2026-01-28 21:09:43.33	27.40	7.77	-55.1	-57.2	18.2	0.00e+00	0	46	0	39845888	60	28296
2026-01-28 21:09:44.34	27.49	7.84	-55.0	-57.1	18.4	0.00e+00	0	46	0	41943040	60	28132
2026-01-28 21:09:45.34	27.59	7.90	-55.0	-57.2	18.3	0.00e+00	0	46	0	44040192	60	28420
2026-01-28 21:09:46.34	27.69	7.97	-55.0	-57.2	18.3	0.00e+00	0	46	0	46137344	60	28369
2026-01-28 21:09:47.35	27.79	8.03	-54.9	-57.1	18.4	0.00e+00	0	46	0	47185920	60	28047
2026-01-28 21:09:48.36	27.89	8.10	-54.8	-57.1	18.3	0.00e+00	0	46	0	49283072	60	27950
2026-01-28 21:09:49.36	27.99	8.16	-54.7	-57.0	18.3	0.00e+00	0	46	0	51380224	60	27834
2026-01-28 21:09:50.36	28.09	8.23	-54.5	-57.1	18.1	0.00e+00	0	46	0	53477376	60	27969
2026-01-28 21:09:51.37	28.19	8.29	-54.5	-57.2	18.1	0.00e+00	0	46	0	54525952	60	28260
2026-01-28 21:09:52.38	28.29	8.36	-54.3	-57.1	18.1	0.00e+00	0	46	0	56623104	60	27999
2026-01-28 21:09:53.38	28.39	8.42	-54.3	-57.1	18.0	0.00e+00	0	46	0	58720256	60	28180
2026-01-28 21:09:54.39	28.49	8.49	-54.2	-57.1	18.0	0.00e+00	0	46	0	60817408	60	28114
2026-01-28 21:09:55.40	28.60	8.55	-54.4	-57.2	18.1	0.00e+00	0	46	0	62914560	60	28274
2026-01-28 21:09:56.41	28.70	8.62	-54.5	-57.2	18.2	0.00e+00	0	46	0	65011712	60	28282
2026-01-28 21:09:57.42	28.80	8.68	-54.5	-57.1	18.4	0.00e+00	0	46	0	66060288	60	27925
2026-01-28 21:09:58.42	28.91	8.75	-54.7	-57.1	18.3	0.00e+00	0	46	0	68157440	60	28187
2026-01-28 21:09:59.43	29.01	8.82	-54.7	-57.1	18.3	0.00e+00	0	46	0	70254592	60	28102
2026-01-28 21:10:00.44	29.11	8.88	-54.7	-57.1	18.3	0.00e+00	0	46	0	72351744	60	28000
2026-01-28 21:10:01.44	29.22	8.95	-54.7	-57.0	18.3	0.00e+00	0	46	0	74448896	60	27891
2026-01-28 21:10:02.45	29.33	9.02	-54.8	-57.0	18.4	0.00e+00	0	46	0	75497472	60	27764
2026-01-28 21:10:03.46	29.43	9.08	-55.0	-57.1	18.4	0.00e+00	0	46	0	77594624	60	27899
2026-01-28 21:10:04.46	29.54	9.15	-55.0	-57.0	18.5	0.00e+00	0	46	0	79691776	60	27790
2026-01-28 21:10:05.47	29.64	9.21	-55.0	-57.0	18.5	0.00e+00	0	46	0	81788928	60	27728
2026-01-28 21:10:06.48	29.75	9.28	-55.0	-57.0	18.5	0.00e+00	0	46	0	82837504	60	27814
2026-01-28 21:10:07.49	29.86	9.35	-55.0	-57.0	18.5	0.00e+00	0	46	0	84934656	60	27750
2026-01-28 21:10:08.49	29.97	9.42	-55.0	-57.0	18.5	0.00e+00	0	46	0	87031808	60	27874
2026-01-28 21:10:09.50	30.08	9.48	-55.0	-57.1	18.4	0.00e+00	0	46	0	89128960	60	28055
2026-01-28 21:10:10.51	30.19	9.55	-55.0	-57.0	18.6	0.00e+00	0	46	0	91226112	60	27821
2026-01-28 21:10:11.52	30.30	9.62	-55.1	-57.1	18.5	0.00e+00	0	46	0	93323264	60	28019
2026-01-28 21:10:12.53	30.41	9.68	-54.9	-56.9	18.6	0.00e+00	0	46	0	94371840	60	27519
2026-01-28 21:10:13.54	30.52	9.75	-54.6	-56.9	18.5	0.00e+00	0	46	0	96468992	60	27488
2026-01-28 21:10:14.54	30.63	9.82	-54.4	-57.1	18.3	0.00e+00	0	46	0	98566144	60	27907
2026-01-28 21:10:15.55	30.74	9.89	-54.4	-56.8	18.6	0.00e+00	0	46	0	100663296	60	27099
2026-01-28 21:10:16.56	30.85	9.95	-54.6	-56.9	18.6	0.00e+00	0	46	0	102760448	60	27474
2026-01-28 21:10:17.57	30.97	10.02	-54.6	-56.9	18.7	0.00e+00	0	46	0	103809024	60	27328
2026-01-28 21:10:18.58	31.08	10.09	-54.6	-56.8	18.8	0.00e+00	0	46	0	105906176	60	27034
2026-01-28 21:10:19.58	31.19	10.16	-54.6	-56.6	19.0	0.00e+00	0	46	0	108003328	60	26551
2026-01-28 21:10:20.59	31.31	10.23	-54.6	-56.5	19.1	0.00e+00	0	46	0	110100480	60	26290
2026-01-28 21:10:21.60	31.42	10.29	-54.6	-56.5	19.1	0.00e+00	0	46	0	112197632	60	26119
2026-01-28 21:10:22.61	31.54	10.36	-54.7	-56.6	18.9	0.00e+00	0	46	0	113246208	60	26414
2026-01-28 21:10:23.61	31.65	10.43	-54.7	-56.6	18.9	0.00e+00	0	46	0	115343360	60	26400
2026-01-28 21:10:24.62	31.77	10.50	-54.6	-56.5	19.1	0.00e+00	0	46	0	117440512	60	26047
2026-01-28 21:10:25.62	31.89	10.57	-54.7	-56.6	18.9	0.00e+00	0	46	0	119537664	60	26455
2026-01-28 21:10:26.63	32.01	10.64	-54.5	-56.4	19.3	0.00e+00	0	46	0	121634816	60	25753
2026-01-28 21:10:27.64	32.12	10.71	-54.4	-56.3	19.4	0.00e+00	0	46	0	122683392	60	25450
2026-01-28 21:10:28.64	32.24	10.77	-54.4	-56.3	19.4	0.00e+00	0	46	0	124780544	60	25449
2026-01-28 21:10:29.65	32.36	10.84	-54.4	-56.2	19.4	0.00e+00	0	46	0	126877696	60	25175
2026-01-28 21:10:30.65	32.48	10.91	-54.3	-56.1	19.4	0.00e+00	0	46	0	128974848	60	24954
2026-01-28 21:10:31.66	32.60	10.98	-54.2	-56.0	19.6	0.00e+00	0	46	0	131072000	60	24657
2026-01-28 21:10:32.67	32.72	11.05	-54.2	-55.9	19.6	0.00e+00	0	46	0	132120576	60	24455
2026-01-28 21:10:33.68	32.84	11.12	-54.2	-56.0	19.5	0.00e+00	0	46	0	134217728	60	24729
2026-01-28 21:10:34.68	32.96	11.19	-54.2	-56.1	19.4	0.00e+00	0	46	0	136314880	60	24909
2026-01-28 21:10:35.69	33.09	11.26	-54.3	-56.1	19.4	0.00e+00	0	46	0	138412032	60	25015
2026-01-28 21:10:36.70	33.21	11.33	-54.4	-56.2	19.4	0.00e+00	0	46	0	140509184	60	25283
2026-01-28 21:10:37.70	33.33	11.40	-54.4	-56.3	19.3	0.00e+00	0	46	0	141557760	60	25481
2026-01-28 21:10:38.70	33.45	11.46	-54.2	-56.1	19.5	0.00e+00	0	46	0	143654912	60	24868
2026-01-28 21:10:39.71	33.58	11.53	-54.4	-56.3	19.3	0.00e+00	0	46	0	145752064	60	25482
2026-01-28 21:10:40.71	33.70	11.60	-54.3	-56.1	19.4	0.00e+00	0	46	0	147849216	60	25113
2026-01-28 21:10:41.72	33.83	11.67	-54.3	-56.2	19.3	0.00e+00	0	46	0	149946368	60	25224
2026-01-28 21:10:42.72	33.95	11.74	-54.2	-56.1	19.4	0.00e+00	0	46	0	150994944	60	25023
2026-01-28 21:10:43.73	34.08	11.81	-54.2	-55.9	19.6	0.00e+00	0	46	0	153092096	60	24567
2026-01-28 21:10:44.73	34.21	11.88	-54.2	-55.9	19.7	0.00e+00	0	46	0	155189248	60	24336
2026-01-28 21:10:45.74	34.34	11.95	-54.1	-55.8	19.8	0.00e+00	0	46	0	157286400	60	24242
2026-01-28 21:10:46.74	34.46	12.02	-54.1	-55.8	19.8	0.00e+00	0	46	0	159383552	60	24218
2026-01-28 21:10:47.75	34.59	12.09	-54.2	-55.8	19.8	0.00e+00	0	46	0	160432128	60	24293
2026-01-28 21:10:48.76	34.72	12.16	-54.2	-55.8	19.9	0.00e+00	0	46	0	162529280	60	24278
2026-01-28 21:10:49.76	34.85	12.23	-54.3	-55.9	19.8	0.00e+00	0	46	0	164626432	60	24458
2026-01-28 21:10:50.77	34.98	12.31	-54.2	-55.9	19.7	0.00e+00	0	46	0	166723584	60	24539
2026-01-28 21:10:51.78	35.12	12.38	-54.4	-56.1	19.6	0.00e+00	0	46	0	167772160	60	25025
2026-01-28 21:10:52.78	35.25	12.45	-54.4	-56.1	19.6	0.00e+00	0	46	0	169869312	60	25073
2026-01-28 21:10:53.79	35.38	12.52	-54.5	-56.3	19.5	0.00e+00	0	46	0	171966464	60	25507
2026-01-28 21:10:54.80	35.51	12.59	-54.3	-56.1	19.6	0.00e+00	0	46	0	174063616	60	24908
2026-01-28 21:10:55.80	35.65	12.66	-54.2	-56.0	19.7	0.00e+00	0	46	0	176160768	60	24755
2026-01-28 21:10:56.81	35.78	12.73	-54.3	-56.1	19.7	0.00e+00	0	46	0	178257920	60	24865
2026-01-28 21:10:57.81	35.92	12.80	-54.1	-55.9	19.7	0.00e+00	0	46	0	179306496	60	24475
2026-01-28 21:10:58.82	36.05	12.87	-54.2	-56.0	19.8	0.00e+00	0	46	0	181403648	60	24605
2026-01-28 21:10:59.82	36.19	12.94	-54.1	-55.8	19.9	0.00e+00	0	46	0	183500800	60	24149
2026-01-28 21:11:00.82	36.33	13.01	-54.1	-55.7	19.8	0.00e+00	0	46	0	185597952	60	23980
2026-01-28 21:11:01.83	36.46	13.08	-54.1	-55.8	19.8	0.00e+00	0	46	0	187695104	60	24174
2026-01-28 21:11:02.84	36.60	13.16	-54.1	-55.8	19.8	0.00e+00	0	46	0	188743680	60	24105
2026-01-28 21:11:03.85	36.74	13.23	-54.2	-56.0	19.6	0.00e+00	0	46	0	190840832	60	24624
2026-01-28 21:11:04.85	36.88	13.30	-54.0	-55.7	19.7	0.00e+00	0	46	0	192937984	60	23998
2026-01-28 21:11:05.86	37.02	13.37	-54.1	-55.8	19.7	0.00e+00	0	46	0	195035136	60	24279
2026-01-28 21:11:06.87	37.16	13.44	-54.0	-55.7	19.8	0.00e+00	0	46	0	196083712	60	23999
2026-01-28 21:11:07.88	37.30	13.51	-54.1	-55.8	19.8	0.00e+00	0	46	0	198180864	60	24120
2026-01-28 21:11:08.88	37.45	13.58	-54.0	-55.7	19.8	0.00e+00	0	46	0	200278016	60	23914
2026-01-28 21:11:09.89	37.59	13.66	-53.9	-55.7	19.7	0.00e+00	0	46	0	202375168	60	23948
2026-01-28 21:11:10.89	37.73	13.73	-53.8	-55.7	19.7	0.00e+00	0	46	0	204472320	60	23908
2026-01-28 21:11:11.90	37.88	13.80	-53.9	-55.8	19.7	0.00e+00	0	46	0	206569472	60	24117
2026-01-28 21:11:12.90	38.02	13.87	-53.9	-55.7	19.7	0.00e+00	0	46	0	207618048	60	23887
2026-01-28 21:11:13.91	38.17	13.94	-53.9	-55.6	19.9	0.00e+00	0	46	0	209715200	60	23634
2026-01-28 21:11:14.91	38.31	14.01	-53.9	-55.5	20.1	0.00e+00	0	46	0	211812352	60	23311
2026-01-28 21:11:15.91	38.46	14.09	-53.9	-55.4	20.1	0.00e+00	0	46	0	213909504	60	23154
2026-01-28 21:11:16.92	38.61	14.16	-53.8	-55.4	20.2	0.00e+00	0	46	0	216006656	60	23130
2026-01-28 21:11:17.92	38.75	14.23	-53.9	-55.4	20.2	0.00e+00	0	46	0	217055232	60	23168
2026-01-28 21:11:18.93	38.90	14.30	-53.8	-55.3	20.3	0.00e+00	0	46	0	219152384	60	22852
2026-01-28 21:11:19.92	39.05	14.37	-53.9	-55.5	20.1	0.00e+00	0	46	0	221249536	60	23336
2026-01-28 21:11:20.93	39.20	14.45	-53.8	-55.4	20.2	0.00e+00	0	46	0	223346688	60	22994
2026-01-28 21:11:21.94	39.35	14.52	-53.7	-55.3	20.2	0.00e+00	0	46	0	224395264	60	22922
2026-01-28 21:11:22.95	39.51	14.59	-53.7	-55.4	20.2	0.00e+00	0	46	0	226492416	60	22956
2026-01-28 21:11:23.96	39.66	14.66	-53.8	-55.5	20.1	0.00e+00	0	46	0	228589568	60	23289
2026-01-28 21:11:24.96	39.81	14.74	-53.8	-55.5	20.1	0.00e+00	0	46	0	230686720	60	23305
2026-01-28 21:11:25.96	39.96	14.81	-53.9	-55.6	20.0	0.00e+00	0	46	0	232783872	60	23712
2026-01-28 21:11:26.97	40.12	14.88	-53.9	-55.6	20.1	0.00e+00	0	46	0	233832448	60	23560
2026-01-28 21:11:27.98	40.28	14.95	-54.0	-55.7	20.0	0.00e+00	0	46	0	235929600	60	23746
2026-01-28 21:11:28.98	40.43	15.02	-54.0	-55.7	20.0	0.00e+00	0	46	0	238026752	60	23950
2026-01-28 21:11:29.99	40.59	15.10	-54.0	-55.8	19.7	0.00e+00	0	46	0	240123904	60	24031
2026-01-28 21:11:30.99	40.74	15.17	-53.8	-55.5	20.1	0.00e+00	0	46	0	242221056	60	23217
2026-01-28 21:11:32.00	40.90	15.24	-53.9	-55.7	19.9	0.00e+00	0	46	0	244318208	60	23751
2026-01-28 21:11:33.00	41.06	15.31	-53.9	-55.5	20.1	0.00e+00	0	46	0	245366784	60	23312
2026-01-28 21:11:34.00	41.22	15.39	-53.9	-55.5	20.1	0.00e+00	0	46	0	247463936	60	23372
2026-01-28 21:11:35.01	41.38	15.46	-54.1	-55.7	20.0	0.00e+00	0	46	0	249561088	60	23770
2026-01-28 21:11:36.02	41.54	15.53	-54.2	-55.8	19.9	0.00e+00	0	46	0	251658240	60	24137
2026-01-28 21:11:37.02	41.70	15.60	-54.1	-55.8	19.9	0.00e+00	0	46	0	252706816	60	24135
2026-01-28 21:11:38.03	41.87	15.68	-54.1	-55.8	19.9	0.00e+00	0	46	0	254803968	60	24258
2026-01-28 21:11:39.04	42.03	15.75	-54.0	-55.7	20.1	0.00e+00	0	46	0	256901120	60	23846
2026-01-28 21:11:40.05	42.20	15.82	-54.0	-55.6	20.2	0.00e+00	0	46	0	258998272	60	23514
2026-01-28 21:11:41.06	42.36	15.89	-54.1	-55.6	20.1	0.00e+00	0	46	0	261095424	60	23722
2026-01-28 21:11:42.07	42.53	15.97	-54.0	-55.6	20.2	0.00e+00	0	46	0	262144000	60	23597
2026-01-28 21:11:43.07	42.70	16.04	-54.0	-55.6	20.2	0.00e+00	0	46	0	264241152	60	23484
2026-01-28 21:11:44.08	42.86	16.11	-54.0	-55.6	20.3	0.00e+00	0	46	0	266338304	60	23488
2026-01-28 21:11:45.09	43.03	16.18	-54.1	-55.7	20.1	0.00e+00	0	46	0	268435456	60	23840
2026-01-28 21:11:46.10	43.20	16.26	-54.1	-55.7	20.0	0.00e+00	0	46	0	270532608	60	23996
2026-01-28 21:11:47.10	43.37	16.33	-54.1	-55.8	19.9	0.00e+00	0	46	0	272629760	60	24135
2026-01-28 21:11:48.11	43.54	16.40	-54.1	-55.8	19.9	0.00e+00	0	46	0	273678336	60	24138
2026-01-28 21:11:49.11	43.71	16.47	-54.2	-55.8	20.1	0.00e+00	0	46	0	275775488	60	24065
2026-01-28 21:11:50.12	43.89	16.55	-54.2	-55.8	20.0	0.00e+00	0	46	0	277872640	60	24115
2026-01-28 21:11:51.12	44.06	16.62	-54.1	-55.7	20.1	0.00e+00	0	46	0	279969792	60	23955
2026-01-28 21:11:52.13	44.23	16.69	-53.7	-55.4	20.3	0.00e+00	0	46	0	281018368	60	23167
2026-01-28 21:11:53.13	44.41	16.76	-53.5	-55.3	20.3	0.00e+00	0	46	0	283115520	60	22897
2026-01-28 21:11:54.14	44.58	16.84	-53.6	-55.3	20.3	0.00e+00	0	46	0	285212672	60	22918
2026-01-28 21:11:55.15	44.76	16.91	-53.6	-55.3	20.3	0.00e+00	0	46	0	287309824	60	22922
2026-01-28 21:11:56.16	44.94	16.98	-53.5	-55.2	20.5	0.00e+00	0	46	0	289406976	60	22640
2026-01-28 21:11:57.17	45.12	17.05	-53.7	-55.3	20.4	0.00e+00	0	46	0	290455552	60	22722
2026-01-28 21:11:58.17	45.29	17.12	-53.7	-55.3	20.5	0.00e+00	0	46	0	292552704	60	22793
2026-01-28 21:11:59.18	45.47	17.20	-53.8	-55.3	20.5	0.00e+00	0	46	0	294649856	60	22866
2026-01-28 21:12:00.18	45.65	17.27	-53.8	-55.4	20.5	0.00e+00	0	46	0	296747008	60	22947
2026-01-28 21:12:01.19	45.84	17.34	-53.9	-55.4	20.4	0.00e+00	0	46	0	298844160	60	23145
2026-01-28 21:12:02.19	46.02	17.41	-53.7	-55.2	20.6	0.00e+00	0	46	0	300941312	60	22617
2026-01-28 21:12:03.19	46.20	17.48	-53.6	-55.1	20.8	0.00e+00	0	46	0	301989888	60	22356
2026-01-28 21:12:04.20	46.38	17.55	-53.4	-55.0	20.7	0.00e+00	0	46	0	304087040	60	22052
2026-01-28 21:12:05.21	46.57	17.63	-53.4	-55.0	20.6	0.00e+00	0	46	0	306184192	60	22023
2026-01-28 21:12:06.21	46.75	17.70	-53.3	-54.9	20.7	0.00e+00	0	46	0	308281344	60	21814
2026-01-28 21:12:07.22	46.94	17.77	-53.2	-54.8	20.9	0.00e+00	0	46	0	309329920	60	21481
2026-01-28 21:12:08.23	47.13	17.84	-53.3	-54.9	20.7	0.00e+00	0	46	0	311427072	60	21801
2026-01-28 21:12:09.24	47.32	17.91	-53.4	-55.0	20.7	0.00e+00	0	46	0	313524224	60	21933
2026-01-28 21:12:10.25	47.51	17.98	-53.6	-55.1	20.7	0.00e+00	0	46	0	315621376	60	22265
2026-01-28 21:12:11.25	47.70	18.05	-53.7	-55.2	20.6	0.00e+00	0	46	0	317718528	60	22484
2026-01-28 21:12:12.26	47.89	18.13	-53.6	-55.1	20.7	0.00e+00	0	46	0	318767104	60	22300
2026-01-28 21:12:13.27	48.08	18.20	-53.3	-55.1	20.6	0.00e+00	0	46	0	320864256	60	22219
2026-01-28 21:12:14.28	48.27	18.27	-53.2	-55.1	20.5	0.00e+00	0	46	0	322961408	60	22187
2026-01-28 21:12:15.29	48.47	18.34	-53.2	-55.0	20.7	0.00e+00	0	46	0	325058560	60	21952
2026-01-28 21:12:16.29	48.66	18.41	-52.9	-54.5	21.2	0.00e+00	0	46	0	327155712	60	20797
2026-01-28 21:12:17.30	48.86	18.48	-52.8	-54.3	21.3	0.00e+00	0	46	0	329252864	60	20332
2026-01-28 21:12:18.31	49.05	18.55	-52.8	-54.4	21.2	0.00e+00	0	46	0	330301440	60	20575
2026-01-28 21:12:19.32	49.25	18.62	-52.7	-54.5	21.1	0.00e+00	0	46	0	332398592	60	20786
2026-01-28 21:12:20.33	49.45	18.69	-52.6	-54.6	20.8	0.00e+00	0	46	0	334495744	60	21001
2026-01-28 21:12:21.33	49.65	18.76	-52.5	-54.8	20.4	0.00e+00	0	46	0	336592896	60	21457
2026-01-28 21:12:22.33	49.85	18.83	-52.5	-54.8	20.4	0.00e+00	0	46	0	337641472	60	21436
2026-01-28 21:12:23.34	50.05	18.90	-52.6	-54.8	20.4	0.00e+00	0	46	0	339738624	60	21482
2026-01-28 21:12:24.35	50.25	18.97	-52.9	-54.8	20.4	0.00e+00	0	46	0	341835776	60	21566
2026-01-28 21:12:25.36	50.45	19.04	-53.2	-54.7	21.0	0.00e+00	0	46	0	343932928	60	21252
2026-01-28 21:12:26.36	50.65	19.11	-53.2	-54.6	21.2	0.00e+00	0	46	0	346030080	60	20921
2026-01-28 21:12:27.37	50.86	19.18	-53.2	-54.5	21.3	0.00e+00	0	46	0	347078656	60	20903
2026-01-28 21:12:28.38	51.07	19.25	-53.2	-54.5	21.3	0.00e+00	0	46	0	349175808	60	20913
2026-01-28 21:12:29.38	51.27	19.32	-53.2	-54.6	21.3	0.00e+00	0	46	0	351272960	60	20947
2026-01-28 21:12:30.39	51.48	19.38	-53.2	-54.6	21.1	0.00e+00	0	46	0	353370112	60	21063
2026-01-28 21:12:31.40	51.69	19.45	-53.3	-54.7	21.0	0.00e+00	0	46	0	355467264	60	21363
2026-01-28 21:12:32.41	51.90	19.52	-53.4	-54.9	20.9	0.00e+00	0	46	0	357564416	60	21741
2026-01-28 21:12:33.42	52.11	19.59	-53.5	-55.0	20.8	0.00e+00	0	46	0	358612992	60	21996
2026-01-28 21:12:34.42	52.32	19.66	-53.5	-55.0	20.9	0.00e+00	0	46	0	360710144	60	21929
2026-01-28 21:12:35.42	52.53	19.72	-53.6	-55.1	20.8	0.00e+00	0	46	0	362807296	60	22164
2026-01-28 21:12:36.43	52.74	19.79	-53.5	-55.0	21.0	0.00e+00	0	46	0	364904448	60	21931
2026-01-28 21:12:37.44	52.95	19.86	-53.5	-54.9	20.9	0.00e+00	0	46	0	365953024	60	21871
2026-01-28 21:12:38.44	53.17	19.93	-53.5	-55.0	20.9	0.00e+00	0	46	0	368050176	60	21950
2026-01-28 21:12:39.45	53.38	19.99	-53.6	-55.1	20.7	0.00e+00	0	46	0	370147328	60	22253
2026-01-28 21:12:40.46	53.60	20.06	-53.8	-55.3	20.4	0.00e+00	0	46	0	372244480	60	22740
2026-01-28 21:12:41.47	53.82	20.13	-54.1	-55.6	20.2	0.00e+00	0	46	0	374341632	60	23705
2026-01-28 21:12:42.48	54.03	20.19	-54.0	-55.7	20.2	0.00e+00	0	46	0	375390208	60	23918
2026-01-28 21:12:43.48	54.25	20.26	-54.0	-56.0	19.9	0.00e+00	0	46	0	377487360	60	24613
2026-01-28 21:12:44.49	54.47	20.33	-54.0	-56.1	19.6	0.00e+00	0	46	0	379584512	60	25105
2026-01-28 21:12:45.50	54.69	20.39	-54.2	-56.1	19.8	0.00e+00	0	46	0	381681664	60	24883
2026-01-28 21:12:46.51	54.92	20.46	-54.4	-56.2	19.7	0.00e+00	0	46	0	383778816	60	25372
2026-01-28 21:12:47.52	55.14	20.52	-54.4	-56.1	19.9	0.00e+00	0	46	0	385875968	60	25023
2026-01-28 21:12:48.52	55.36	20.59	-54.4	-56.1	20.0	0.00e+00	0	46	0	386924544	60	24924
2026-01-28 21:12:49.53	55.59	20.65	-54.3	-56.1	19.8	0.00e+00	0	46	0	389021696	60	25140
2026-01-28 21:12:50.53	55.81	20.71	-54.4	-56.1	19.8	0.00e+00	0	46	0	391118848	60	25132
2026-01-28 21:12:51.53	56.03	20.78	-54.6	-56.3	19.8	0.00e+00	0	46	0	393216000	60	25664
2026-01-28 21:12:52.54	56.26	20.84	-54.7	-56.6	19.5	0.00e+00	0	46	0	395313152	60	26450
2026-01-28 21:12:53.55	56.49	20.91	-54.8	-56.8	19.4	0.00e+00	0	46	0	396361728	60	26989
2026-01-28 21:12:54.56	56.72	20.97	-55.1	-57.1	19.1	0.00e+00	0	46	0	398458880	60	28078
2026-01-28 21:12:55.56	56.95	21.03	-55.1	-57.3	19.0	0.00e+00	0	46	0	400556032	60	28568
2026-01-28 21:12:56.57	57.18	21.09	-55.2	-57.2	19.0	0.00e+00	0	46	0	402653184	60	28479
2026-01-28 21:12:57.58	57.41	21.16	-55.3	-57.2	19.0	0.00e+00	0	46	0	403701760	60	28528
2026-01-28 21:12:58.58	57.64	21.22	-55.1	-57.0	19.3	0.00e+00	0	46	0	405798912	60	27671
2026-01-28 21:12:59.59	57.88	21.28	-55.0	-56.9	19.4	0.00e+00	0	46	0	407896064	60	27445
2026-01-28 21:13:00.59	58.11	21.34	-54.8	-56.8	19.3	0.00e+00	0	46	0	409993216	60	27251
2026-01-28 21:13:01.60	58.35	21.40	-54.5	-56.9	19.2	0.00e+00	0	46	0	412090368	60	27317
2026-01-28 21:13:02.60	58.58	21.46	-54.5	-56.7	19.3	0.00e+00	0	46	0	414187520	60	26933
2026-01-28 21:13:03.61	58.82	21.52	-54.6	-56.5	19.7	0.00e+00	0	46	0	415236096	60	26169
2026-01-28 21:13:04.62	59.06	21.58	-54.5	-56.4	20.0	0.00e+00	0	46	0	417333248	60	25790
2026-01-28 21:13:05.63	59.30	21.64	-54.9	-56.6	20.0	0.00e+00	0	46	0	419430400	60	26345
2026-01-28 21:13:06.64	59.54	21.70	-55.0	-56.6	19.8	0.00e+00	0	46	0	421527552	60	26551
2026-01-28 21:13:07.64	59.78	21.76	-55.0	-56.6	20.1	0.00e+00	0	46	0	423624704	60	26428
2026-01-28 21:13:08.65	60.02	21.82	-55.0	-56.5	20.1	0.00e+00	0	46	0	424673280	60	26301
2026-01-28 21:13:09.66	60.27	21.88	-54.9	-56.5	20.2	0.00e+00	0	46	0	426770432	60	26189
2026-01-28 21:13:10.66	60.51	21.93	-54.9	-56.5	20.2	0.00e+00	0	46	0	428867584	60	26183
2026-01-28 21:13:11.66	60.75	21.99	-55.0	-56.5	20.2	0.00e+00	0	46	0	430964736	60	26233
2026-01-28 21:13:12.67	61.00	22.05	-54.9	-56.5	20.2	0.00e+00	0	46	0	432013312	60	26107
2026-01-28 21:13:13.68	61.24	22.11	-54.8	-56.4	20.4	0.00e+00	0	46	0	434110464	60	25797
2026-01-28 21:13:14.68	61.49	22.16	-54.8	-56.3	20.4	0.00e+00	0	46	0	436207616	60	25717
2026-01-28 21:13:15.68	61.73	22.22	-54.7	-56.3	20.4	0.00e+00	0	46	0	438304768	60	25704
2026-01-28 21:13:16.69	61.98	22.27	-54.6	-56.4	19.9	0.00e+00	0	46	0	440401920	60	25996
2026-01-28 21:13:17.70	62.23	22.33	-54.4	-56.5	19.9	0.00e+00	0	46	0	442499072	60	26104
2026-01-28 21:13:18.71	62.49	22.38	-54.4	-56.7	19.8	0.00e+00	0	46	0	443547648	60	26938
2026-01-28 21:13:19.71	62.74	22.43	-54.8	-57.0	19.6	0.00e+00	0	46	0	445644800	60	27757
2026-01-28 21:13:20.72	62.99	22.49	-55.5	-57.3	19.6	0.00e+00	0	46	0	447741952	60	28757
2026-01-28 21:13:21.73	63.24	22.54	-55.7	-57.5	19.5	0.00e+00	0	46	0	449839104	60	29292
2026-01-28 21:13:22.73	63.49	22.59	-55.8	-57.6	19.5	0.00e+00	0	46	0	451936256	60	29572
2026-01-28 21:13:23.74	63.75	22.65	-55.9	-57.7	19.3	0.00e+00	0	46	0	452984832	60	29974
2026-01-28 21:13:24.74	64.00	22.70	-55.8	-57.6	19.5	0.00e+00	0	46	0	455081984	60	29869
2026-01-28 21:13:25.75	64.26	22.75	-55.9	-57.6	19.5	0.00e+00	0	46	0	457179136	60	29892
2026-01-28 21:13:26.75	64.52	22.80	-55.8	-57.5	19.6	0.00e+00	0	46	0	459276288	60	29433
2026-01-28 21:13:27.76	64.78	22.85	-55.7	-57.4	19.7	0.00e+00	0	46	0	460324864	60	29187
2026-01-28 21:13:28.77	65.03	22.90	-55.7	-57.5	19.6	0.00e+00	0	46	0	462422016	60	29258
2026-01-28 21:13:29.78	65.30	22.95	-55.8	-57.5	19.7	0.00e+00	0	46	0	464519168	60	29311
2026-01-28 21:13:30.78	65.55	23.00	-56.2	-57.8	19.8	0.00e+00	0	46	0	466616320	60	30440
2026-01-28 21:13:31.79	65.82	23.05	-56.2	-57.9	19.7	0.00e+00	0	46	0	468713472	60	30631
2026-01-28 21:13:32.79	66.08	23.09	-55.8	-57.5	19.9	0.00e+00	0	46	0	470810624	60	29263
2026-01-28 21:13:33.80	66.34	23.14	-55.8	-57.5	19.9	0.00e+00	0	46	0	471859200	60	29221
2026-01-28 21:13:34.80	66.60	23.19	-56.2	-57.8	19.7	0.00e+00	0	46	0	473956352	60	30510
2026-01-28 21:13:35.81	66.87	23.23	-56.0	-57.7	19.8	0.00e+00	0	46	0	476053504	60	29973
2026-01-28 21:13:36.82	67.13	23.28	-56.1	-57.8	19.7	0.00e+00	0	46	0	478150656	60	30379
2026-01-28 21:13:37.83	67.40	23.32	-55.8	-57.5	19.8	0.00e+00	0	46	0	480247808	60	29455
2026-01-28 21:13:38.83	67.66	23.37	-55.8	-57.6	19.7	0.00e+00	0	46	0	481296384	60	29737
2026-01-28 21:13:39.84	67.93	23.41	-55.7	-57.4	19.7	0.00e+00	0	46	0	483393536	60	29186
2026-01-28 21:13:40.85	68.20	23.46	-55.6	-57.3	19.8	0.00e+00	0	46	0	485490688	60	28669
2026-01-28 21:13:41.86	68.47	23.50	-55.7	-57.3	19.9	0.00e+00	0	46	0	487587840	60	28774
2026-01-28 21:13:42.86	68.74	23.54	-55.9	-57.5	19.8	0.00e+00	0	46	0	488636416	60	29512
2026-01-28 21:13:43.86	69.01	23.58	-55.9	-57.6	19.7	0.00e+00	0	46	0	490733568	60	29699
2026-01-28 21:13:44.86	69.28	23.62	-55.9	-57.6	19.7	0.00e+00	0	46	0	492830720	60	29859
2026-01-28 21:13:45.87	69.55	23.66	-56.1	-57.9	19.5	0.00e+00	0	46	0	494927872	60	30602
2026-01-28 21:13:46.87	69.82	23.70	-56.3	-58.1	19.3	0.00e+00	0	46	0	497025024	60	31363
2026-01-28 21:13:47.88	70.09	23.74	-56.2	-58.0	19.3	0.00e+00	0	46	0	498073600	60	30957
2026-01-28 21:13:48.88	70.37	23.78	-56.4	-58.2	19.1	0.00e+00	0	46	0	500170752	60	31947
2026-01-28 21:13:49.88	70.64	23.82	-56.5	-58.4	18.9	0.00e+00	0	46	0	502267904	60	32572
2026-01-28 21:13:50.89	70.91	23.86	-56.4	-58.4	18.9	0.00e+00	0	46	0	504365056	60	32404
2026-01-28 21:13:51.89	71.19	23.89	-56.3	-58.1	19.0	0.00e+00	0	46	0	506462208	60	31660
2026-01-28 21:13:52.90	71.47	23.93	-56.2	-58.0	19.2	0.00e+00	0	46	0	508559360	60	31138
2026-01-28 21:13:53.91	71.74	23.97	-56.2	-58.0	19.3	0.00e+00	0	46	0	509607936	60	31016
2026-01-28 21:13:54.92	72.02	24.00	-56.3	-58.1	19.2	0.00e+00	0	46	0	511705088	60	31651
2026-01-28 21:13:55.92	72.30	24.04	-56.3	-58.0	19.4	0.00e+00	0	46	0	513802240	60	31180
2026-01-28 21:13:56.93	72.58	24.07	-56.3	-58.1	19.2	0.00e+00	0	46	0	515899392	60	31528
2026-01-28 21:13:57.93	72.86	24.10	-56.4	-58.1	19.3	0.00e+00	0	46	0	516947968	60	31637
2026-01-28 21:13:58.94	73.14	24.13	-56.4	-58.2	19.1	0.00e+00	0	46	0	519045120	60	31964
2026-01-28 21:13:59.94	73.42	24.17	-56.5	-58.3	18.9	0.00e+00	0	46	0	521142272	60	32390
2026-01-28 21:14:00.95	73.70	24.20	-56.5	-58.4	18.9	0.00e+00	0	46	0	523239424	60	32493
2026-01-28 21:14:01.95	73.98	24.23	-56.4	-58.3	19.1	0.00e+00	0	46	0	525336576	60	32308
2026-01-28 21:14:02.96	74.26	24.26	-56.3	-58.1	19.2	0.00e+00	0	46	0	526385152	60	31630
2026-01-28 21:14:03.96	74.54	24.29	-55.9	-57.7	19.6	0.00e+00	0	46	0	528482304	60	30200
2026-01-28 21:14:04.96	74.82	24.31	-55.6	-57.4	19.9	0.00e+00	0	46	0	530579456	60	29041
2026-01-28 21:14:05.96	75.10	24.34	-55.7	-57.4	19.8	0.00e+00	0	46	0	532676608	60	29140
2026-01-28 21:14:06.97	75.39	24.37	-55.4	-56.9	20.3	0.00e+00	0	46	0	534773760	60	27433
2026-01-28 21:14:07.98	75.67	24.39	-55.0	-56.4	20.7	0.00e+00	0	46	0	535822336	60	26034
2026-01-28 21:14:08.99	75.96	24.42	-55.0	-56.4	20.7	0.00e+00	0	46	0	537919488	60	25958
2026-01-28 21:14:10.00	76.25	24.45	-54.9	-56.5	20.6	0.00e+00	0	46	0	540016640	60	26039
2026-01-28 21:14:11.00	76.53	24.47	-55.0	-56.5	20.6	0.00e+00	0	46	0	542113792	60	26177
2026-01-28 21:14:12.01	76.82	24.49	-55.1	-56.6	20.5	0.00e+00	0	46	0	544210944	60	26608
2026-01-28 21:14:13.02	77.11	24.52	-55.2	-56.8	20.3	0.00e+00	0	46	0	545259520	60	27127
2026-01-28 21:14:14.01	77.39	24.54	-55.1	-56.7	20.3	0.00e+00	0	46	0	547356672	60	26772
2026-01-28 21:14:15.01	77.67	24.56	-55.2	-56.8	20.4	0.00e+00	0	46	0	549453824	60	26989
2026-01-28 21:14:16.02	77.96	24.58	-55.2	-56.8	20.4	0.00e+00	0	46	0	551550976	60	26965
2026-01-28 21:14:17.03	78.25	24.60	-55.1	-56.7	20.4	0.00e+00	0	46	0	553648128	60	26918
2026-01-28 21:14:18.03	78.54	24.62	-55.1	-56.7	20.4	0.00e+00	0	46	0	554696704	60	26872
2026-01-28 21:14:19.03	78.83	24.64	-55.2	-56.8	20.3	0.00e+00	0	46	0	556793856	60	27072
2026-01-28 21:14:20.03	79.11	24.65	-55.3	-57.0	20.1	0.00e+00	0	46	0	558891008	60	27707
2026-01-28 21:14:21.04	79.40	24.67	-55.5	-57.2	19.9	0.00e+00	0	46	0	560988160	60	28493
2026-01-28 21:14:22.04	79.69	24.69	-55.7	-57.5	19.6	0.00e+00	0	46	0	563085312	60	29355
2026-01-28 21:14:23.05	79.98	24.70	-55.8	-57.6	19.6	0.00e+00	0	46	0	564133888	60	29751
2026-01-28 21:14:24.06	80.27	24.72	-55.9	-57.7	19.6	0.00e+00	0	46	0	566231040	60	29937
2026-01-28 21:14:25.07	80.57	24.73	-55.9	-57.6	19.7	0.00e+00	0	46	0	568328192	60	29614
2026-01-28 21:14:26.07	80.86	24.74	-55.7	-57.4	19.7	0.00e+00	0	46	0	570425344	60	29208
2026-01-28 21:14:27.08	81.15	24.76	-55.5	-57.2	19.9	0.00e+00	0	46	0	571473920	60	28447
2026-01-28 21:14:28.09	81.44	24.77	-55.5	-57.2	19.9	0.00e+00	0	46	0	573571072	60	28512
2026-01-28 21:14:29.09	81.73	24.78	-55.6	-57.3	19.9	0.00e+00	0	46	0	575668224	60	28548
2026-01-28 21:14:30.09	82.02	24.79	-55.6	-57.2	20.0	0.00e+00	0	46	0	577765376	60	28438
2026-01-28 21:14:31.10	82.31	24.80	-55.7	-57.3	19.9	0.00e+00	0	46	0	579862528	60	28816
2026-01-28 21:14:32.10	82.60	24.81	-55.6	-57.2	20.0	0.00e+00	0	46	0	581959680	60	28416
2026-01-28 21:14:33.11	82.90	24.81	-55.5	-57.1	20.1	0.00e+00	0	46	0	583008256	60	27967
2026-01-28 21:14:34.12	83.19	24.82	-55.4	-56.9	20.2	0.00e+00	0	46	0	585105408	60	27509
2026-01-28 21:14:35.12	83.48	24.83	-55.3	-56.9	20.3	0.00e+00	0	46	0	587202560	60	27380
2026-01-28 21:14:36.12	83.77	24.83	-55.3	-56.8	20.3	0.00e+00	0	46	0	589299712	60	27262
2026-01-28 21:14:37.13	84.07	24.84	-56.5	-58.1	20.2	0.00e+00	0	46	0	591396864	60	31601
2026-01-28 21:14:38.14	84.36	24.84	-56.4	-57.9	20.3	0.00e+00	0	46	0	592445440	60	30805
2026-01-28 21:14:39.15	84.65	24.84	-56.3	-57.8	20.4	0.00e+00	0	46	0	594542592	60	30354
2026-01-28 21:14:40.15	84.95	24.85	-56.2	-57.8	20.4	0.00e+00	0	46	0	596639744	60	30281
2026-01-28 21:14:41.16	85.24	24.85	-56.3	-57.9	20.1	0.00e+00	0	46	0	598736896	60	30748
2026-01-28 21:14:42.17	85.53	24.85	-56.3	-58.0	20.0	0.00e+00	0	46	0	599785472	60	30955
2026-01-28 21:14:43.18	85.83	24.85	-56.3	-58.0	20.0	0.00e+00	0	46	0	601882624	60	31027
2026-01-28 21:14:44.18	86.12	24.85	-56.3	-58.0	19.9	0.00e+00	0	46	0	603979776	60	31060
2026-01-28 21:14:45.19	86.41	24.85	-56.4	-58.1	19.8	0.00e+00	0	46	0	606076928	60	31484
2026-01-28 21:14:46.20	86.71	24.84	-56.3	-58.0	19.8	0.00e+00	0	46	0	608174080	60	31216
2026-01-28 21:14:47.21	87.00	24.84	-56.2	-57.8	20.0	0.00e+00	0	46	0	610271232	60	30475
2026-01-28 21:14:48.22	87.30	24.84	-55.6	-57.2	20.6	0.00e+00	0	46	0	611319808	60	28308
2026-01-28 21:14:49.22	87.59	24.83	-55.5	-56.9	20.8	0.00e+00	0	46	0	613416960	60	27575
2026-01-28 21:14:50.22	87.88	24.83	-55.4	-56.9	20.8	0.00e+00	0	46	0	615514112	60	27292
2026-01-28 21:14:51.23	88.17	24.82	-55.3	-56.7	20.8	0.00e+00	0	46	0	617611264	60	26917
2026-01-28 21:14:52.23	88.46	24.81	-55.3	-56.7	21.0	0.00e+00	0	46	0	619708416	60	26830
2026-01-28 21:14:53.24	88.76	24.81	-55.4	-57.0	20.8	0.00e+00	0	46	0	620756992	60	27599
2026-01-28 21:14:54.25	89.05	24.80	-55.7	-57.3	20.3	0.00e+00	0	46	0	622854144	60	28758
2026-01-28 21:14:55.26	89.34	24.79	-56.2	-57.8	19.8	0.00e+00	0	46	0	624951296	60	30466
2026-01-28 21:14:56.27	89.64	24.78	-56.6	-58.3	19.4	0.00e+00	0	46	0	627048448	60	32272
2026-01-28 21:14:57.27	89.93	24.77	-56.7	-58.5	19.2	0.00e+00	0	46	0	628097024	60	32966
2026-01-28 21:14:58.28	90.22	24.76	-56.6	-58.4	19.3	0.00e+00	0	46	0	630194176	60	32508
2026-01-28 21:14:59.29	90.51	24.74	-56.5	-58.3	19.3	0.00e+00	0	46	0	632291328	60	32237
2026-01-28 21:15:00.30	90.80	24.73	-56.3	-58.1	19.3	0.00e+00	0	46	0	634388480	60	31619
2026-01-28 21:15:01.30	91.09	24.72	-56.3	-58.0	19.4	0.00e+00	0	46	0	636485632	60	31273
2026-01-28 21:15:02.31	91.38	24.70	-56.1	-57.8	19.7	0.00e+00	0	46	0	638582784	60	30447
2026-01-28 21:15:03.32	91.68	24.69	-55.8	-57.5	20.0	0.00e+00	0	46	0	639631360	60	29286
2026-01-28 21:15:04.32	91.96	24.67	-55.6	-57.2	20.4	0.00e+00	0	46	0	641728512	60	28236
2026-01-28 21:15:05.32	92.25	24.66	-55.3	-56.8	20.7	0.00e+00	0	46	0	643825664	60	26964
2026-01-28 21:15:06.33	92.54	24.64	-55.4	-56.9	20.6	0.00e+00	0	46	0	645922816	60	27290
2026-01-28 21:15:07.34	92.83	24.62	-55.4	-56.8	20.6	0.00e+00	0	46	0	648019968	60	27216
2026-01-28 21:15:08.34	93.12	24.60	-55.5	-57.0	20.4	0.00e+00	0	46	0	649068544	60	27800
2026-01-28 21:15:09.34	93.41	24.58	-55.6	-57.2	20.2	0.00e+00	0	46	0	651165696	60	28489
2026-01-28 21:15:10.35	93.70	24.56	-55.9	-57.5	19.9	0.00e+00	0	46	0	653262848	60	29544
2026-01-28 21:15:11.36	93.98	24.54	-56.1	-57.8	19.8	0.00e+00	0	46	0	655360000	60	30253
2026-01-28 21:15:12.37	94.27	24.52	-55.8	-57.5	20.0	0.00e+00	0	46	0	656408576	60	29329
2026-01-28 21:15:13.38	94.56	24.49	-55.7	-57.3	20.3	0.00e+00	0	46	0	658505728	60	28705
2026-01-28 21:15:14.38	94.85	24.47	-55.7	-57.3	20.2	0.00e+00	0	46	0	660602880	60	28807
2026-01-28 21:15:15.39	95.13	24.45	-55.8	-57.4	20.2	0.00e+00	0	46	0	662700032	60	28905
2026-01-28 21:15:16.40	95.42	24.42	-55.9	-57.5	20.1	0.00e+00	0	46	0	664797184	60	29403
2026-01-28 21:15:17.41	95.71	24.40	-55.9	-57.6	20.0	0.00e+00	0	46	0	666894336	60	29614
2026-01-28 21:15:18.41	95.99	24.37	-56.0	-57.7	19.9	0.00e+00	0	46	0	667942912	60	29965
2026-01-28 21:15:19.42	96.28	24.34	-55.8	-57.5	20.0	0.00e+00	0	46	0	670040064	60	29323
2026-01-28 21:15:20.43	96.56	24.32	-55.7	-57.3	20.2	0.00e+00	0	46	0	672137216	60	28576
2026-01-28 21:15:21.44	96.84	24.29	-55.5	-57.0	20.5	0.00e+00	0	46	0	674234368	60	27742
2026-01-28 21:15:22.43	97.12	24.26	-55.2	-56.6	20.8	0.00e+00	0	46	0	676331520	60	26530
2026-01-28 21:15:23.44	97.41	24.23	-55.2	-56.7	20.8	0.00e+00	0	46	0	677380096	60	26674
2026-01-28 21:15:24.45	97.69	24.20	-55.1	-56.6	20.9	0.00e+00	0	46	0	679477248	60	26355
2026-01-28 21:15:25.45	97.97	24.17	-55.1	-56.6	20.8	0.00e+00	0	46	0	681574400	60	26384
2026-01-28 21:15:26.46	98.25	24.14	-54.9	-56.3	21.0	0.00e+00	0	46	0	683671552	60	25730
2026-01-28 21:15:27.47	98.53	24.10	-54.8	-56.4	20.8	0.00e+00	0	46	0	684720128	60	25775
2026-01-28 21:15:28.48	98.81	24.07	-54.8	-56.3	20.8	0.00e+00	0	46	0	686817280	60	25616
2026-01-28 21:15:29.48	99.09	24.04	-54.6	-56.1	21.1	0.00e+00	0	46	0	688914432	60	25146
2026-01-28 21:15:30.49	99.37	24.00	-54.6	-56.2	21.0	0.00e+00	0	46	0	691011584	60	25289
2026-01-28 21:15:31.50	99.65	23.97	-54.7	-56.3	21.0	0.00e+00	0	46	0	693108736	60	25642
2026-01-28 21:15:32.51	99.93	23.93	-54.6	-56.1	21.1	0.00e+00	0	46	0	695205888	60	24964
2026-01-28 21:15:33.52	100.21	23.89	-54.4	-55.8	21.4	0.00e+00	0	46	0	696254464	60	24135
2026-01-28 21:15:34.52	100.48	23.86	-54.4	-55.7	21.5	0.00e+00	0	46	0	698351616	60	23991
2026-01-28 21:15:35.53	100.76	23.82	-54.4	-55.7	21.4	0.00e+00	0	46	0	700448768	60	23855
2026-01-28 21:15:36.54	101.03	23.78	-54.2	-55.5	21.5	0.00e+00	0	46	0	702545920	60	23403
2026-01-28 21:15:37.55	101.31	23.74	-54.0	-55.3	21.7	0.00e+00	0	46	0	704643072	60	22846
2026-01-28 21:15:38.55	101.58	23.70	-53.9	-55.2	21.8	0.00e+00	0	46	0	705691648	60	22442
2026-01-28 21:15:39.56	101.85	23.66	-53.9	-55.2	21.6	0.00e+00	0	46	0	707788800	60	22425
2026-01-28 21:15:40.56	102.12	23.62	-53.9	-55.2	21.5	0.00e+00	0	46	0	709885952	60	22494
2026-01-28 21:15:41.57	102.40	23.58	-53.8	-55.1	21.7	0.00e+00	0	46	0	711983104	60	22268
2026-01-28 21:15:42.58	102.67	23.54	-53.6	-54.9	21.9	0.00e+00	0	46	0	713031680	60	21692
2026-01-28 21:15:43.58	102.94	23.50	-53.5	-54.8	22.0	0.00e+00	0	46	0	715128832	60	21510
2026-01-28 21:15:44.59	103.21	23.45	-53.7	-55.0	21.8	0.00e+00	0	46	0	717225984	60	22065
2026-01-28 21:15:45.60	103.48	23.41	-53.6	-54.9	21.8	0.00e+00	0	46	0	719323136	60	21773
2026-01-28 21:15:46.61	103.75	23.37	-53.8	-55.2	21.5	0.00e+00	0	46	0	721420288	60	22488
2026-01-28 21:15:47.62	104.01	23.32	-53.7	-55.1	21.7	0.00e+00	0	46	0	723517440	60	22250
2026-01-28 21:15:48.62	104.28	23.28	-53.7	-55.0	21.7	0.00e+00	0	46	0	724566016	60	22032
2026-01-28 21:15:49.63	104.55	23.23	-53.7	-55.1	21.8	0.00e+00	0	46	0	726663168	60	22188
2026-01-28 21:15:50.63	104.81	23.19	-53.3	-54.6	22.1	0.00e+00	0	46	0	728760320	60	21040
2026-01-28 21:15:51.64	105.07	23.14	-53.2	-54.5	22.2	0.00e+00	0	46	0	730857472	60	20689
2026-01-28 21:15:52.64	105.34	23.09	-53.2	-54.4	22.2	0.00e+00	0	46	0	732954624	60	20679
2026-01-28 21:15:53.65	105.60	23.04	-53.6	-54.8	21.5	0.00e+00	0	46	0	734003200	60	21611
2026-01-28 21:15:54.66	105.86	22.99	-53.8	-55.1	21.5	0.00e+00	0	46	0	736100352	60	22399
2026-01-28 21:15:55.67	106.12	22.95	-54.1	-55.4	21.3	0.00e+00	0	46	0	738197504	60	23088
2026-01-28 21:15:56.68	106.38	22.90	-54.1	-55.5	21.3	0.00e+00	0	46	0	740294656	60	23226
2026-01-28 21:15:57.68	106.64	22.85	-53.9	-55.2	21.4	0.00e+00	0	46	0	741343232	60	22670
2026-01-28 21:15:58.69	106.90	22.80	-53.8	-55.1	21.6	0.00e+00	0	46	0	743440384	60	22250
2026-01-28 21:15:59.69	107.16	22.74	-53.5	-54.8	21.8	0.00e+00	0	46	0	745537536	60	21532
2026-01-28 21:16:00.70	107.42	22.69	-53.5	-54.7	21.8	0.00e+00	0	46	0	747634688	60	21386
2026-01-28 21:16:01.70	107.67	22.64	-53.3	-54.6	21.8	0.00e+00	0	46	0	749731840	60	20966
2026-01-28 21:16:02.71	107.93	22.59	-53.2	-54.5	22.0	0.00e+00	0	46	0	751828992	60	20903
2026-01-28 21:16:03.72	108.18	22.54	-53.3	-54.7	21.8	0.00e+00	0	46	0	752877568	60	21231
2026-01-28 21:16:04.72	108.43	22.48	-53.4	-54.8	21.6	0.00e+00	0	46	0	754974720	60	21531
2026-01-28 21:16:05.73	108.69	22.43	-53.6	-55.0	21.4	0.00e+00	0	46	0	757071872	60	21959
2026-01-28 21:16:06.74	108.94	22.37	-53.7	-55.0	21.3	0.00e+00	0	46	0	759169024	60	22138
2026-01-28 21:16:07.75	109.19	22.32	-53.9	-55.2	21.3	0.00e+00	0	46	0	761266176	60	22664
2026-01-28 21:16:08.76	109.44	22.26	-54.1	-55.6	21.1	0.00e+00	0	46	0	762314752	60	23478
2026-01-28 21:16:09.76	109.69	22.21	-54.4	-55.9	20.8	0.00e+00	0	46	0	764411904	60	24417
2026-01-28 21:16:10.77	109.94	22.15	-54.6	-56.1	20.6	0.00e+00	0	46	0	766509056	60	25135
2026-01-28 21:16:11.78	110.19	22.10	-54.8	-56.3	20.3	0.00e+00	0	46	0	768606208	60	25708
2026-01-28 21:16:12.78	110.44	22.04	-54.9	-56.5	20.3	0.00e+00	0	46	0	770703360	60	26051
2026-01-28 21:16:13.78	110.68	21.98	-54.8	-56.4	20.3	0.00e+00	0	46	0	771751936	60	25899
2026-01-28 21:16:14.79	110.93	21.93	-54.7	-56.3	20.5	0.00e+00	0	46	0	773849088	60	25615
2026-01-28 21:16:15.79	111.17	21.87	-54.8	-56.4	20.3	0.00e+00	0	46	0	775946240	60	25914
2026-01-28 21:16:16.80	111.41	21.81	-54.8	-56.5	20.2	0.00e+00	0	46	0	778043392	60	26073
2026-01-28 21:16:17.80	111.65	21.75	-54.8	-56.4	20.2	0.00e+00	0	46	0	780140544	60	25824
2026-01-28 21:16:18.81	111.90	21.69	-54.5	-56.1	20.5	0.00e+00	0	46	0	781189120	60	24999
2026-01-28 21:16:19.81	112.13	21.63	-54.3	-55.8	20.8	0.00e+00	0	46	0	783286272	60	24280
2026-01-28 21:16:20.82	112.37	21.57	-54.2	-55.7	20.9	0.00e+00	0	46	0	785383424	60	23753
2026-01-28 21:16:21.83	112.61	21.51	-54.2	-55.6	20.9	0.00e+00	0	46	0	787480576	60	23741
2026-01-28 21:16:22.84	112.85	21.45	-54.1	-55.6	20.9	0.00e+00	0	46	0	789577728	60	23523
2026-01-28 21:16:23.84	113.09	21.39	-54.1	-55.5	21.0	0.00e+00	0	46	0	790626304	60	23395
2026-01-28 21:16:24.85	113.33	21.33	-54.2	-55.6	21.0	0.00e+00	0	46	0	792723456	60	23682
2026-01-28 21:16:25.86	113.56	21.27	-54.2	-55.7	20.9	0.00e+00	0	46	0	794820608	60	23952
2026-01-28 21:16:26.86	113.79	21.21	-54.3	-55.9	20.7	0.00e+00	0	46	0	796917760	60	24318
2026-01-28 21:16:27.87	114.03	21.14	-54.4	-56.0	20.6	0.00e+00	0	46	0	797966336	60	24618
2026-01-28 21:16:28.88	114.26	21.08	-54.5	-56.0	20.5	0.00e+00	0	46	0	800063488	60	24851
2026-01-28 21:16:29.88	114.49	21.02	-54.4	-56.0	20.5	0.00e+00	0	46	0	802160640	60	24721
2026-01-28 21:16:30.89	114.72	20.96	-54.6	-56.2	20.4	0.00e+00	0	46	0	804257792	60	25201
2026-01-28 21:16:31.89	114.95	20.89	-54.5	-56.0	20.5	0.00e+00	0	46	0	806354944	60	24774
2026-01-28 21:16:32.90	115.18	20.83	-54.5	-56.1	20.4	0.00e+00	0	46	0	808452096	60	24910
2026-01-28 21:16:33.90	115.41	20.77	-54.4	-56.0	20.5	0.00e+00	0	46	0	809500672	60	24672
2026-01-28 21:16:34.91	115.63	20.70	-54.3	-55.9	20.5	0.00e+00	0	46	0	811597824	60	24417
2026-01-28 21:16:35.92	115.86	20.64	-54.3	-55.8	20.5	0.00e+00	0	46	0	813694976	60	24200
2026-01-28 21:16:36.92	116.08	20.57	-54.1	-55.6	20.7	0.00e+00	0	46	0	815792128	60	23721
2026-01-28 21:16:37.92	116.31	20.51	-54.0	-55.4	20.9	0.00e+00	0	46	0	817889280	60	23161
2026-01-28 21:16:38.93	116.53	20.44	-54.0	-55.5	20.9	0.00e+00	0	46	0	818937856	60	23292
2026-01-28 21:16:39.94	116.75	20.38	-54.1	-55.6	20.7	0.00e+00	0	46	0	821035008	60	23525
2026-01-28 21:16:40.95	116.98	20.31	-54.2	-55.7	20.7	0.00e+00	0	46	0	823132160	60	23835
2026-01-28 21:16:41.96	117.20	20.24	-54.2	-55.6	20.6	0.00e+00	0	46	0	825229312	60	23728
2026-01-28 21:16:42.96	117.42	20.18	-54.2	-55.7	20.7	0.00e+00	0	46	0	826277888	60	23913
2026-01-28 21:16:43.97	117.64	20.11	-54.1	-55.6	20.7	0.00e+00	0	46	0	828375040	60	23496
2026-01-28 21:16:44.97	117.85	20.04	-54.2	-55.7	20.7	0.00e+00	0	46	0	830472192	60	23878
2026-01-28 21:16:45.97	118.07	19.98	-54.1	-55.6	20.8	0.00e+00	0	46	0	832569344	60	23586
2026-01-28 21:16:46.98	118.28	19.91	-54.2	-55.7	20.6	0.00e+00	0	46	0	834666496	60	23907
2026-01-28 21:16:47.98	118.50	19.84	-54.2	-55.7	20.6	0.00e+00	0	46	0	835715072	60	23876
2026-01-28 21:16:48.99	118.71	19.77	-54.3	-55.8	20.6	0.00e+00	0	46	0	837812224	60	24023
2026-01-28 21:16:50.00	118.93	19.71	-54.4	-55.9	20.5	0.00e+00	0	46	0	839909376	60	24452
2026-01-28 21:16:51.00	119.14	19.64	-54.4	-55.9	20.5	0.00e+00	0	46	0	842006528	60	24465
2026-01-28 21:16:52.01	119.35	19.57	-54.5	-56.0	20.4	0.00e+00	0	46	0	844103680	60	24705
2026-01-28 21:16:53.02	119.56	19.50	-54.4	-55.9	20.5	0.00e+00	0	46	0	846200832	60	24479
2026-01-28 21:16:54.02	119.77	19.43	-54.4	-55.9	20.5	0.00e+00	0	46	0	847249408	60	24472
2026-01-28 21:16:55.03	119.98	19.36	-54.5	-56.0	20.3	0.00e+00	0	46	0	849346560	60	24800
2026-01-28 21:16:56.04	120.19	19.29	-54.8	-56.4	19.9	0.00e+00	0	46	0	851443712	60	25938
2026-01-28 21:16:57.05	120.39	19.22	-55.2	-56.9	19.5	0.00e+00	0	46	0	853540864	60	27369
2026-01-28 21:16:58.06	120.60	19.16	-55.4	-57.2	19.2	0.00e+00	0	46	0	854589440	60	28359
2026-01-28 21:16:59.06	120.80	19.09	-55.3	-57.1	19.3	0.00e+00	0	46	0	856686592	60	28195
2026-01-28 21:17:00.07	121.01	19.02	-55.1	-56.9	19.5	0.00e+00	0	46	0	858783744	60	27276
2026-01-28 21:17:01.08	121.21	18.95	-54.8	-56.4	20.0	0.00e+00	0	46	0	860880896	60	25836
2026-01-28 21:17:02.09	121.41	18.88	-54.5	-56.0	20.3	0.00e+00	0	46	0	862978048	60	24823
2026-01-28 21:17:03.09	121.61	18.81	-54.3	-55.7	20.6	0.00e+00	0	46	0	865075200	60	23963
2026-01-28 21:17:04.09	121.81	18.74	-54.4	-55.9	20.4	0.00e+00	0	46	0	866123776	60	24362
2026-01-28 21:17:05.10	122.01	18.67	-54.6	-56.2	20.1	0.00e+00	0	46	0	868220928	60	25355
2026-01-28 21:17:06.10	122.21	18.60	-55.0	-56.6	19.7	0.00e+00	0	46	0	870318080	60	26538
2026-01-28 21:17:07.10	122.41	18.52	-55.0	-56.7	19.6	0.00e+00	0	46	0	872415232	60	26927
2026-01-28 21:17:08.11	122.60	18.45	-55.1	-56.8	19.5	0.00e+00	0	46	0	874512384	60	27120
2026-01-28 21:17:09.12	122.80	18.38	-54.8	-56.5	19.7	0.00e+00	0	46	0	875560960	60	26224
2026-01-28 21:17:10.12	122.99	18.31	-54.8	-56.5	19.9	0.00e+00	0	46	0	877658112	60	26118
2026-01-28 21:17:11.13	123.19	18.24	-54.6	-56.2	20.1	0.00e+00	0	46	0	879755264	60	25252
2026-01-28 21:17:12.14	123.38	18.17	-54.7	-56.3	19.9	0.00e+00	0	46	0	881852416	60	25467
2026-01-28 21:17:13.15	123.58	18.10	-54.4	-56.0	20.2	0.00e+00	0	46	0	882900992	60	24687
2026-01-28 21:17:14.15	123.77	18.03	-54.6	-56.2	20.0	0.00e+00	0	46	0	884998144	60	25254
2026-01-28 21:17:15.16	123.96	17.95	-54.8	-56.4	19.8	0.00e+00	0	46	0	887095296	60	25960
2026-01-28 21:17:16.16	124.15	17.88	-55.0	-56.6	19.7	0.00e+00	0	46	0	889192448	60	26623
2026-01-28 21:17:17.17	124.34	17.81	-54.9	-56.6	19.8	0.00e+00	0	46	0	891289600	60	26378
2026-01-28 21:17:18.18	124.52	17.74	-54.7	-56.3	20.0	0.00e+00	0	46	0	892338176	60	25590
2026-01-28 21:17:19.18	124.71	17.67	-54.7	-56.3	20.1	0.00e+00	0	46	0	894435328	60	25560
2026-01-28 21:17:20.19	124.90	17.60	-54.6	-56.2	20.1	0.00e+00	0	46	0	896532480	60	25299
2026-01-28 21:17:21.19	125.08	17.52	-54.5	-56.1	20.2	0.00e+00	0	46	0	898629632	60	24877
2026-01-28 21:17:22.20	125.27	17.45	-54.5	-56.0	20.2	0.00e+00	0	46	0	900726784	60	24798
2026-01-28 21:17:23.21	125.45	17.38	-54.7	-56.4	20.0	0.00e+00	0	46	0	902823936	60	25758
2026-01-28 21:17:24.22	125.63	17.31	-54.9	-56.6	19.7	0.00e+00	0	46	0	903872512	60	26358
2026-01-28 21:17:25.22	125.82	17.23	-55.1	-56.9	19.3	0.00e+00	0	46	0	905969664	60	27307
2026-01-28 21:17:26.22	126.00	17.16	-55.0	-56.8	19.5	0.00e+00	0	46	0	908066816	60	27042
2026-01-28 21:17:27.22	126.17	17.09	-54.9	-56.6	19.7	0.00e+00	0	46	0	910163968	60	26516
2026-01-28 21:17:28.23	126.35	17.02	-54.6	-56.2	20.0	0.00e+00	0	46	0	911212544	60	25262
2026-01-28 21:17:29.24	126.53	16.94	-54.1	-55.5	20.6	0.00e+00	0	46	0	913309696	60	23451
2026-01-28 21:17:30.25	126.71	16.87	-53.8	-55.2	20.8	0.00e+00	0	46	0	915406848	60	22666
2026-01-28 21:17:31.25	126.89	16.80	-53.9	-55.3	20.8	0.00e+00	0	46	0	917504000	60	22851
2026-01-28 21:17:32.26	127.06	16.73	-54.0	-55.4	20.6	0.00e+00	0	46	0	919601152	60	23142
2026-01-28 21:17:33.26	127.24	16.65	-54.3	-55.9	20.2	0.00e+00	0	46	0	920649728	60	24312
2026-01-28 21:17:34.27	127.41	16.58	-54.7	-56.3	19.8	0.00e+00	0	46	0	922746880	60	25631
2026-01-28 21:17:35.28	127.59	16.51	-55.1	-56.9	19.2	0.00e+00	0	46	0	924844032	60	27347
2026-01-28 21:17:36.29	127.76	16.43	-55.4	-57.3	18.8	0.00e+00	0	46	0	926941184	60	28809
2026-01-28 21:17:37.30	127.93	16.36	-55.4	-57.3	18.7	0.00e+00	0	46	0	929038336	60	28799
2026-01-28 21:17:38.30	128.10	16.29	-55.3	-57.2	18.9	0.00e+00	0	46	0	931135488	60	28360
2026-01-28 21:17:39.31	128.28	16.22	-55.1	-56.9	19.2	0.00e+00	0	46	0	932184064	60	27529
2026-01-28 21:17:40.32	128.45	16.14	-55.1	-56.9	19.2	0.00e+00	0	46	0	934281216	60	27331
2026-01-28 21:17:41.32	128.61	16.07	-54.8	-56.6	19.6	0.00e+00	0	46	0	936378368	60	26379
2026-01-28 21:17:42.33	128.78	16.00	-54.4	-56.0	20.0	0.00e+00	0	46	0	938475520	60	24734
2026-01-28 21:17:43.33	128.95	15.92	-54.3	-55.9	20.1	0.00e+00	0	46	0	939524096	60	24389
2026-01-28 21:17:44.34	129.12	15.85	-54.4	-56.1	20.0	0.00e+00	0	46	0	941621248	60	24918
2026-01-28 21:17:45.34	129.28	15.78	-54.6	-56.3	19.7	0.00e+00	0	46	0	943718400	60	25576
2026-01-28 21:17:46.35	129.45	15.71	-54.7	-56.4	19.6	0.00e+00	0	46	0	945815552	60	25927
2026-01-28 21:17:47.36	129.61	15.63	-54.7	-56.4	19.5	0.00e+00	0	46	0	947912704	60	25975
2026-01-28 21:17:48.36	129.77	15.56	-54.7	-56.4	19.5	0.00e+00	0	46	0	948961280	60	26007
2026-01-28 21:17:49.36	129.93	15.49	-54.5	-56.2	19.7	0.00e+00	0	46	0	951058432	60	25376
2026-01-28 21:17:50.37	130.10	15.41	-54.3	-56.0	19.9	0.00e+00	0	46	0	953155584	60	24666
2026-01-28 21:17:51.38	130.26	15.34	-54.2	-55.8	20.0	0.00e+00	0	46	0	955252736	60	24022
2026-01-28 21:17:52.38	130.42	15.27	-54.2	-55.8	20.0	0.00e+00	0	46	0	957349888	60	24211
2026-01-28 21:17:53.39	130.58	15.19	-54.2	-55.8	20.0	0.00e+00	0	46	0	959447040	60	24167
2026-01-28 21:17:54.40	130.74	15.12	-54.3	-56.0	19.9	0.00e+00	0	46	0	960495616	60	24730
2026-01-28 21:17:55.40	130.89	15.05	-54.6	-56.3	19.6	0.00e+00	0	46	0	962592768	60	25653
2026-01-28 21:17:56.41	131.05	14.98	-54.8	-56.6	19.4	0.00e+00	0	46	0	964689920	60	26515
2026-01-28 21:17:57.42	131.21	14.90	-55.0	-56.8	19.1	0.00e+00	0	46	0	966787072	60	27113
2026-01-28 21:17:58.42	131.36	14.83	-54.9	-56.7	19.2	0.00e+00	0	46	0	967835648	60	26923
2026-01-28 21:17:59.43	131.52	14.76	-54.8	-56.6	19.4	0.00e+00	0	46	0	969932800	60	26397
2026-01-28 21:18:00.44	131.67	14.68	-54.7	-56.5	19.4	0.00e+00	0	46	0	972029952	60	26162
2026-01-28 21:18:01.44	131.83	14.61	-54.4	-56.1	19.7	0.00e+00	0	46	0	974127104	60	25103
2026-01-28 21:18:02.45	131.98	14.54	-54.4	-56.1	19.7	0.00e+00	0	46	0	976224256	60	25124
2026-01-28 21:18:03.46	132.13	14.47	-54.4	-56.1	19.7	0.00e+00	0	46	0	977272832	60	25058
2026-01-28 21:18:04.46	132.28	14.39	-54.3	-55.9	19.9	0.00e+00	0	46	0	979369984	60	24411
2026-01-28 21:18:05.47	132.44	14.32	-54.3	-56.0	19.8	0.00e+00	0	46	0	981467136	60	24624
2026-01-28 21:18:06.47	132.58	14.25	-54.4	-56.1	19.7	0.00e+00	0	46	0	983564288	60	25028
2026-01-28 21:18:07.48	132.73	14.18	-54.5	-56.2	19.6	0.00e+00	0	46	0	985661440	60	25232
2026-01-28 21:18:08.48	132.88	14.10	-54.6	-56.3	19.4	0.00e+00	0	46	0	986710016	60	25721
2026-01-28 21:18:09.48	133.03	14.03	-54.5	-56.3	19.4	0.00e+00	0	46	0	988807168	60	25535
2026-01-28 21:18:10.48	133.18	13.96	-54.6	-56.4	19.3	0.00e+00	0	46	0	990904320	60	25859
2026-01-28 21:18:11.49	133.32	13.89	-54.5	-56.3	19.4	0.00e+00	0	46	0	993001472	60	25593
2026-01-28 21:18:12.49	133.47	13.81	-54.4	-56.2	19.5	0.00e+00	0	46	0	995098624	60	25164
2026-01-28 21:18:13.49	133.61	13.74	-54.4	-56.1	19.5	0.00e+00	0	46	0	996147200	60	25111
2026-01-28 21:18:14.49	133.76	13.67	-54.3	-56.0	19.7	0.00e+00	0	46	0	998244352	60	24693
2026-01-28 21:18:15.50	133.90	13.60	-54.1	-55.8	19.8	0.00e+00	0	46	0	1000341504	60	24175
2026-01-28 21:18:16.50	134.04	13.53	-54.0	-55.7	19.9	0.00e+00	0	46	0	1002438656	60	23836
2026-01-28 21:18:17.51	134.18	13.45	-54.0	-55.7	20.0	0.00e+00	0	46	0	1004535808	60	23764
2026-01-28 21:18:18.52	134.33	13.38	-54.1	-55.7	19.9	0.00e+00	0	46	0	1005584384	60	23977
2026-01-28 21:18:19.53	134.47	13.31	-54.2	-55.8	20.0	0.00e+00	0	46	0	1007681536	60	24145
2026-01-28 21:18:20.53	134.61	13.24	-54.1	-55.8	19.9	0.00e+00	0	46	0	1009778688	60	24032
2026-01-28 21:18:21.54	134.75	13.17	-54.3	-56.0	19.7	0.00e+00	0	46	0	1011875840	60	24649
2026-01-28 21:18:22.54	134.89	13.09	-54.2	-55.8	19.7	0.00e+00	0	46	0	1013972992	60	24230
2026-01-28 21:18:23.55	135.03	13.02	-54.3	-56.0	19.5	0.00e+00	0	46	0	1015021568	60	24767
2026-01-28 21:18:24.55	135.16	12.95	-54.3	-56.0	19.6	0.00e+00	0	46	0	1017118720	60	24828
2026-01-28 21:18:25.56	135.30	12.88	-54.3	-56.1	19.5	0.00e+00	0	46	0	1019215872	60	24883
2026-01-28 21:18:26.57	135.44	12.81	-54.4	-56.1	19.4	0.00e+00	0	46	0	1021313024	60	25033
2026-01-28 21:18:27.58	135.57	12.74	-54.4	-56.1	19.5	0.00e+00	0	46	0	1023410176	60	25026
2026-01-28 21:18:28.58	135.71	12.66	-54.3	-56.1	19.5	0.00e+00	0	46	0	1024458752	60	24878
2026-01-28 21:18:29.58	135.84	12.59	-54.5	-56.3	19.3	0.00e+00	0	46	0	1026555904	60	25504
2026-01-28 21:18:30.59	135.98	12.52	-54.6	-56.4	19.2	0.00e+00	0	46	0	1028653056	60	25795
2026-01-28 21:18:31.60	136.11	12.45	-54.7	-56.5	19.0	0.00e+00	0	46	0	1030750208	60	26209
2026-01-28 21:18:32.60	136.24	12.38	-60.2	-74.5	3.6	6.00e-01	0	46	104	1031798784	60	207048
2026-01-28 21:18:33.61	136.38	12.31	-60.0	-75.8	3.6	1.51e+00	0	46	104	1031798784	60	242108
2026-01-28 21:18:34.61	136.51	12.24	-59.4	-76.1	3.6	1.51e+00	0	46	104	1031798784	60	249941
2026-01-28 21:18:35.62	136.64	12.17	-59.4	-76.1	3.6	1.51e+00	0	46	104	1031798784	60	249816
2026-01-28 21:18:36.63	136.77	12.10	-59.3	-76.0	3.6	1.51e+00	0	46	104	1031798784	60	248602
2026-01-28 21:18:37.64	136.90	12.02	-59.2	-75.8	3.6	1.51e+00	0	46	104	1031798784	60	241382
2026-01-28 21:18:38.65	137.03	11.95	-59.0	-75.4	3.6	1.51e+00	0	46	104	1031798784	60	230307
2026-01-28 21:18:39.66	137.16	11.88	-59.0	-75.3	3.6	1.51e+00	0	46	104	1031798784	60	229147
2026-01-28 21:18:40.66	137.29	11.81	-59.2	-75.9	3.6	1.51e+00	0	46	104	1031798784	60	245163
2026-01-28 21:18:41.67	137.41	11.74	-59.1	-75.6	3.6	1.51e+00	0	46	104	1031798784	60	236205
2026-01-28 21:18:42.68	137.54	11.67	-59.1	-75.6	3.6	1.51e+00	0	46	104	1031798784	60	236654
2026-01-28 21:18:43.68	137.67	11.60	-59.0	-75.4	3.6	1.51e+00	0	46	104	1031798784	60	231334
2026-01-28 21:18:44.69	137.79	11.53	-59.0	-75.4	3.6	1.51e+00	0	46	104	1031798784	60	230079
2026-01-28 21:18:45.69	137.92	11.46	-59.1	-75.7	3.6	1.51e+00	0	46	104	1031798784	60	237533
2026-01-28 21:18:46.70	138.04	11.39	-58.9	-75.5	3.6	1.51e+00	0	46	104	1031798784	60	232129
2026-01-28 21:18:47.71	138.17	11.32	-59.1	-75.7	3.6	1.51e+00	0	46	104	1031798784	60	238536
2026-01-28 21:18:48.72	138.29	11.25	-59.1	-75.7	3.6	1.51e+00	0	46	104	1031798784	60	238482
2026-01-28 21:18:49.72	138.41	11.18	-58.7	-75.3	3.5	1.51e+00	0	46	104	1031798784	60	227298
2026-01-28 21:18:50.73	138.53	11.11	-58.7	-75.3	3.6	1.51e+00	0	46	104	1031798784	60	227671
2026-01-28 21:18:51.74	138.66	11.04	-58.2	-74.8	3.6	1.51e+00	0	46	104	1031798784	60	216326
2026-01-28 21:18:52.75	138.78	10.97	-58.5	-75.2	3.6	1.51e+00	0	46	104	1031798784	60	225382
2026-01-28 21:18:53.76	138.90	10.90	-59.1	-75.6	3.6	1.51e+00	0	46	104	1031798784	60	235720
2026-01-28 21:18:54.76	139.02	10.83	-58.8	-75.4	3.6	1.51e+00	0	46	104	1031798784	60	230151
2026-01-28 21:18:55.77	139.14	10.76	-59.0	-75.5	3.6	1.51e+00	0	46	104	1031798784	60	232264
2026-01-28 21:18:56.78	139.26	10.69	-58.9	-75.3	3.6	1.51e+00	0	46	104	1031798784	60	228954
2026-01-28 21:18:57.79	139.38	10.62	-58.9	-75.4	3.6	1.51e+00	0	46	104	1031798784	60	230905
2026-01-28 21:18:58.80	139.49	10.55	-58.6	-75.2	3.6	1.51e+00	0	46	104	1031798784	60	226128
2026-01-28 21:18:59.80	139.61	10.49	-58.8	-75.2	3.6	1.51e+00	0	46	104	1031798784	60	225315
2026-01-28 21:19:00.81	139.73	10.42	-58.6	-75.1	3.6	1.51e+00	0	46	104	1031798784	60	223650
2026-01-28 21:19:01.82	139.84	10.35	-58.7	-75.2	3.6	1.51e+00	0	46	104	1031798784	60	224380
2026-01-28 21:19:02.83	139.96	10.28	-58.5	-75.1	3.6	1.51e+00	0	46	104	1031798784	60	223464
2026-01-28 21:19:03.83	140.08	10.21	-58.7	-75.0	3.6	1.51e+00	0	46	104	1031798784	60	221470
