passes_logs/2026/01/28/R3.2S-Naryan-Mar/R3.2S-Naryan-Mar__20260128_080055_FENGYUN_3D_rec.log

#Pass ID: 20260128_080055_FENGYUN 3D
#Satellite: FENGYUN 3D
#Configuration: FENGYUN 3D
#almurnet v.1.7.20240730
#Start time: 2026-01-28 08:03:42

#Version: 2.2.20231116
#Station: R3.2S-Naryan-Mar
#Location: 53.008057 lon 67.646978 lat
#TLE: 1 43010U 17072A   26027.90082829  .00000305  00000+0  16579-3 0  9998
#TLE: 2 43010  98.9960 359.9183 0002511  88.1058 272.0405 14.19701796425082

#Time	Az	El	Level	Level2	SNR	BER	BlckErr	Temp	State	Recorded	gain1	gain2
2026-01-28 08:03:42.84	89.18	11.00	-83.1	-79.0	2.5	0.00e+00	0	44	0	0	60	1048573
2026-01-28 08:03:43.86	89.08	11.08	-62.6	-76.2	3.6	8.44e-01	0	45	104	0	60	252574
2026-01-28 08:03:44.86	88.98	11.16	-62.4	-75.8	3.6	8.45e-01	0	45	104	0	60	242882
2026-01-28 08:03:45.87	88.88	11.24	-62.4	-75.8	3.6	8.45e-01	0	45	104	0	60	241181
2026-01-28 08:03:46.87	88.78	11.31	-62.3	-75.7	3.6	8.45e-01	0	45	104	0	60	239242
2026-01-28 08:03:47.87	88.68	11.39	-62.1	-75.6	3.6	8.46e-01	0	45	104	0	60	235006
2026-01-28 08:03:48.88	88.58	11.47	-62.0	-75.3	3.6	8.45e-01	0	45	104	0	60	227441
2026-01-28 08:03:49.88	88.48	11.55	-61.9	-75.3	3.6	8.45e-01	0	45	104	0	60	228183
2026-01-28 08:03:50.88	88.38	11.63	-61.4	-75.2	3.6	8.46e-01	0	45	104	0	60	224472
2026-01-28 08:03:51.88	88.28	11.70	-61.6	-75.2	3.6	8.45e-01	0	45	104	0	60	226674
2026-01-28 08:03:52.89	88.17	11.78	-61.8	-75.1	3.6	8.44e-01	0	46	104	0	60	222800
2026-01-28 08:03:53.89	88.07	11.86	-60.9	-74.8	3.6	8.47e-01	0	45	104	0	60	214320
2026-01-28 08:03:54.89	87.97	11.94	-61.6	-74.9	3.6	8.45e-01	0	45	104	0	60	218690
2026-01-28 08:03:55.89	87.86	12.02	-61.2	-74.9	3.6	8.45e-01	0	45	104	0	60	216999
2026-01-28 08:03:56.89	87.76	12.10	-61.4	-74.8	3.6	8.45e-01	0	45	104	0	60	214759
2026-01-28 08:03:57.89	87.65	12.18	-60.9	-74.5	3.6	8.44e-01	0	45	104	0	60	208680
2026-01-28 08:03:58.89	87.54	12.26	-60.9	-74.5	3.6	8.46e-01	0	45	104	0	60	209017
2026-01-28 08:03:59.90	87.44	12.34	-60.8	-74.3	3.6	8.45e-01	0	45	104	0	60	204052
2026-01-28 08:04:00.90	87.33	12.42	-60.7	-74.3	3.6	8.45e-01	0	46	104	0	60	202710
2026-01-28 08:04:01.90	87.22	12.50	-60.7	-74.3	3.6	8.45e-01	0	46	104	0	60	203551
2026-01-28 08:04:02.90	87.11	12.58	-60.7	-74.4	3.6	8.45e-01	0	45	104	0	60	205456
2026-01-28 08:04:03.91	87.00	12.66	-60.6	-74.2	3.6	8.44e-01	0	46	104	0	60	201598
2026-01-28 08:04:04.91	86.89	12.74	-60.6	-74.2	3.6	8.46e-01	0	46	104	0	60	200921
2026-01-28 08:04:05.91	86.78	12.82	-60.6	-74.1	3.6	8.46e-01	0	45	104	0	60	198481
2026-01-28 08:04:06.92	86.67	12.91	-60.6	-73.9	3.6	8.44e-01	0	45	104	0	60	194293
2026-01-28 08:04:07.92	86.56	12.99	-60.6	-73.9	3.6	8.45e-01	0	46	104	0	60	194245
2026-01-28 08:04:08.92	86.44	13.07	-60.5	-73.7	3.6	8.45e-01	0	46	104	0	60	189771
2026-01-28 08:04:09.92	86.33	13.15	-60.5	-73.7	3.6	8.45e-01	0	46	104	0	60	189126
2026-01-28 08:04:10.93	86.22	13.23	-60.5	-73.7	3.6	8.46e-01	0	46	104	0	60	190545
2026-01-28 08:04:11.93	86.10	13.31	-60.5	-73.8	3.6	8.45e-01	0	46	104	0	60	192211
2026-01-28 08:04:12.94	85.99	13.40	-60.5	-73.8	3.6	8.45e-01	0	45	104	0	60	192947
2026-01-28 08:04:13.95	85.87	13.48	-60.5	-74.0	3.6	8.45e-01	0	45	104	0	60	196900
2026-01-28 08:04:14.96	85.75	13.56	-60.5	-74.0	3.6	8.45e-01	0	45	104	0	60	197366
2026-01-28 08:04:15.96	85.63	13.64	-60.5	-73.9	3.6	8.45e-01	0	45	104	0	60	194677
2026-01-28 08:04:16.97	85.52	13.73	-60.4	-73.6	3.6	8.46e-01	0	45	104	0	60	188340
2026-01-28 08:04:17.98	85.40	13.81	-60.4	-73.2	3.6	8.45e-01	0	46	104	0	60	179618
2026-01-28 08:04:18.99	85.28	13.89	-60.4	-73.0	3.6	8.45e-01	0	46	104	0	60	175924
2026-01-28 08:04:20.00	85.15	13.98	-60.4	-73.0	3.6	8.45e-01	0	46	104	0	60	175693
2026-01-28 08:04:21.00	85.03	14.06	-60.4	-73.5	3.6	8.46e-01	0	46	104	0	60	185603
2026-01-28 08:04:22.01	84.91	14.15	-60.5	-73.9	3.6	8.46e-01	0	46	104	0	60	194329
2026-01-28 08:04:23.01	84.79	14.23	-60.4	-74.1	3.6	8.45e-01	0	46	104	0	60	197517
2026-01-28 08:04:24.01	84.67	14.31	-60.4	-74.0	3.6	8.46e-01	0	46	104	0	60	197000
2026-01-28 08:04:25.02	84.54	14.40	-60.4	-74.0	3.6	8.46e-01	0	46	104	0	60	196879
2026-01-28 08:04:26.02	84.42	14.48	-60.4	-73.8	3.6	8.46e-01	0	46	104	0	60	192105
2026-01-28 08:04:27.03	84.29	14.57	-60.3	-72.4	3.6	8.44e-01	0	46	104	0	60	162923
2026-01-28 08:04:28.03	84.17	14.65	-60.1	-70.2	4.2	8.37e-01	0	46	104	0	60	126852
2026-01-28 08:04:29.04	84.04	14.74	-59.9	-67.5	4.7	7.99e-01	0	46	0	0	60	93049
2026-01-28 08:04:30.05	83.91	14.82	-59.7	-66.6	5.4	7.17e-01	0	46	0	0	60	83709
2026-01-28 08:04:31.06	83.78	14.91	-59.2	-64.7	7.6	2.62e-01	0	46	0	5242880	60	67184
2026-01-28 08:04:32.07	83.65	14.99	-57.8	-61.2	11.7	2.18e-02	0	46	0	10485760	60	45213
2026-01-28 08:04:33.07	83.52	15.08	-55.5	-57.6	15.5	4.50e-06	0	46	0	16777216	60	29676
2026-01-28 08:04:34.08	83.39	15.16	-53.3	-54.7	18.3	0.00e+00	0	46	0	22020096	60	21312
2026-01-28 08:04:35.09	83.26	15.25	-51.6	-52.7	20.2	0.00e+00	0	46	0	27262976	60	16831
2026-01-28 08:04:36.10	83.13	15.34	-50.4	-51.4	21.2	0.00e+00	0	46	0	33554432	60	14547
2026-01-28 08:04:37.10	83.00	15.42	-50.0	-51.0	21.7	0.00e+00	0	46	0	38797312	60	13854
2026-01-28 08:04:38.11	82.86	15.51	-50.2	-51.2	21.5	0.00e+00	0	46	0	44040192	60	14146
2026-01-28 08:04:39.12	82.73	15.59	-50.9	-52.0	20.7	0.00e+00	0	46	0	50331648	60	15532
2026-01-28 08:04:40.12	82.59	15.68	-55.2	-57.0	16.1	0.00e+00	0	46	0	55574528	60	27683
2026-01-28 08:04:41.12	82.46	15.77	-54.9	-56.8	16.0	0.00e+00	0	46	0	60817408	60	27212
2026-01-28 08:04:42.13	82.32	15.85	-57.3	-60.5	12.3	1.10e-06	0	46	0	67108864	60	41438
2026-01-28 08:04:43.14	82.18	15.94	-59.3	-66.0	5.7	1.30e-01	0	46	0	72351744	60	78180
2026-01-28 08:04:44.14	82.04	16.03	-55.1	-57.1	16.9	2.66e-04	0	46	0	78643200	60	28214
2026-01-28 08:04:45.14	81.91	16.11	-52.9	-54.1	19.0	0.00e+00	0	46	0	83886080	60	19917
2026-01-28 08:04:46.14	81.77	16.20	-52.5	-53.8	19.3	0.00e+00	0	46	0	89128960	60	19105
2026-01-28 08:04:47.15	81.62	16.29	-51.6	-52.7	20.2	0.00e+00	0	46	0	95420416	60	16911
2026-01-28 08:04:48.16	81.48	16.38	-51.4	-52.4	20.6	0.00e+00	0	46	0	101711872	60	16308
2026-01-28 08:04:49.16	81.34	16.46	-51.3	-52.3	20.7	0.00e+00	0	46	0	106954752	60	16126
2026-01-28 08:04:50.17	81.20	16.55	-51.4	-52.4	20.6	0.00e+00	0	46	0	112197632	60	16418
2026-01-28 08:04:51.17	81.05	16.64	-50.7	-51.7	21.3	0.00e+00	0	46	0	118489088	60	15027
2026-01-28 08:04:52.18	80.91	16.73	-50.0	-50.9	22.0	0.00e+00	0	46	0	123731968	60	13698
2026-01-28 08:04:53.18	80.76	16.82	-49.5	-50.4	22.4	0.00e+00	0	46	0	128974848	60	12943
2026-01-28 08:04:54.19	80.61	16.91	-49.3	-50.2	22.5	0.00e+00	0	46	0	135266304	60	12682
2026-01-28 08:04:55.20	80.46	16.99	-49.4	-50.2	22.5	0.00e+00	0	46	0	140509184	60	12731
2026-01-28 08:04:56.20	80.32	17.08	-49.3	-50.1	22.6	0.00e+00	0	46	0	145752064	60	12603
2026-01-28 08:04:57.21	80.17	17.17	-49.2	-50.1	22.6	0.00e+00	0	46	0	152043520	60	12463
2026-01-28 08:04:58.21	80.02	17.26	-49.1	-50.0	22.7	0.00e+00	0	46	0	157286400	60	12336
2026-01-28 08:04:59.22	79.86	17.35	-49.1	-49.9	22.8	0.00e+00	0	46	0	163577856	60	12260
2026-01-28 08:05:00.23	79.71	17.44	-49.1	-50.0	23.1	0.00e+00	0	46	0	168820736	60	12345
2026-01-28 08:05:01.24	79.56	17.53	-49.0	-49.8	23.1	0.00e+00	0	46	0	174063616	60	12151
2026-01-28 08:05:02.25	79.40	17.62	-48.8	-49.7	23.2	0.00e+00	0	46	0	180355072	60	11981
2026-01-28 08:05:03.25	79.25	17.71	-48.9	-49.7	23.1	0.00e+00	0	46	0	185597952	60	12033
2026-01-28 08:05:04.25	79.09	17.80	-48.9	-49.7	23.1	0.00e+00	0	46	0	190840832	60	12005
2026-01-28 08:05:05.25	78.94	17.89	-49.0	-49.8	23.0	0.00e+00	0	46	0	197132288	60	12145
2026-01-28 08:05:06.26	78.78	17.98	-49.0	-49.9	23.2	0.00e+00	0	46	0	203423744	60	12187
2026-01-28 08:05:07.26	78.62	18.07	-49.0	-49.8	23.2	0.00e+00	0	46	0	208666624	60	12176
2026-01-28 08:05:08.27	78.46	18.16	-48.9	-49.7	23.3	0.00e+00	0	46	0	213909504	60	11975
2026-01-28 08:05:09.27	78.30	18.25	-48.9	-49.7	23.5	0.00e+00	0	46	0	220200960	60	11901
2026-01-28 08:05:10.27	78.14	18.33	-48.8	-49.6	23.4	0.00e+00	0	46	0	225443840	60	11856
2026-01-28 08:05:11.28	77.97	18.43	-48.8	-49.6	23.5	0.00e+00	0	46	0	230686720	60	11846
2026-01-28 08:05:12.29	77.81	18.52	-48.7	-49.5	23.5	0.00e+00	0	46	0	236978176	60	11707
2026-01-28 08:05:13.29	77.65	18.61	-48.6	-49.4	23.5	0.00e+00	0	46	0	242221056	60	11622
2026-01-28 08:05:14.30	77.48	18.70	-48.4	-49.3	23.6	0.00e+00	0	46	0	248512512	60	11387
2026-01-28 08:05:15.30	77.31	18.79	-48.4	-49.2	23.4	0.00e+00	0	46	0	253755392	60	11333
2026-01-28 08:05:16.31	77.15	18.88	-48.5	-49.3	23.4	0.00e+00	0	46	0	258998272	60	11486
2026-01-28 08:05:17.31	76.98	18.97	-48.5	-49.4	23.5	0.00e+00	0	46	0	265289728	60	11559
2026-01-28 08:05:18.31	76.81	19.06	-48.7	-49.5	23.6	0.00e+00	0	46	0	270532608	60	11742
2026-01-28 08:05:19.32	76.64	19.15	-48.8	-49.6	23.4	0.00e+00	0	46	0	275775488	60	11832
2026-01-28 08:05:20.33	76.46	19.24	-48.9	-49.6	23.4	0.00e+00	0	46	0	282066944	60	11899
2026-01-28 08:05:21.34	76.29	19.33	-48.9	-49.7	23.4	0.00e+00	0	46	0	287309824	60	11910
2026-01-28 08:05:22.33	76.12	19.42	-48.9	-49.6	23.4	0.00e+00	0	46	0	292552704	60	11899
2026-01-28 08:05:23.34	75.94	19.51	-48.9	-49.7	23.4	0.00e+00	0	46	0	298844160	60	12007
2026-01-28 08:05:24.35	75.77	19.60	-48.9	-49.7	23.4	0.00e+00	0	46	0	304087040	60	11918
2026-01-28 08:05:25.35	75.59	19.70	-48.8	-49.6	23.4	0.00e+00	0	46	0	310378496	60	11870
2026-01-28 08:05:26.35	75.41	19.79	-48.8	-49.5	23.6	0.00e+00	0	46	0	315621376	60	11727
2026-01-28 08:05:27.35	75.23	19.88	-48.8	-49.5	23.5	0.00e+00	0	46	0	321912832	60	11753
2026-01-28 08:05:28.36	75.05	19.97	-48.7	-49.5	23.6	0.00e+00	0	46	0	327155712	60	11654
2026-01-28 08:05:29.37	74.87	20.06	-48.7	-49.5	23.5	0.00e+00	0	46	0	333447168	60	11671
2026-01-28 08:05:30.37	74.69	20.15	-48.5	-49.3	23.8	0.00e+00	0	46	0	338690048	60	11396
2026-01-28 08:05:31.38	74.50	20.24	-48.5	-49.3	23.8	0.00e+00	0	46	0	343932928	60	11403
2026-01-28 08:05:32.38	74.32	20.33	-48.5	-49.3	23.7	0.00e+00	0	46	0	350224384	60	11445
2026-01-28 08:05:33.39	74.13	20.43	-48.5	-49.3	23.7	0.00e+00	0	46	0	355467264	60	11420
2026-01-28 08:05:34.39	73.95	20.52	-48.6	-49.4	23.8	0.00e+00	0	46	0	360710144	60	11512
2026-01-28 08:05:35.40	73.76	20.61	-48.6	-49.4	23.8	0.00e+00	0	46	0	367001600	60	11573
2026-01-28 08:05:36.40	73.57	20.70	-48.5	-49.3	23.9	0.00e+00	0	46	0	372244480	60	11404
2026-01-28 08:05:37.41	73.38	20.79	-48.6	-49.4	23.8	0.00e+00	0	46	0	377487360	60	11528
2026-01-28 08:05:38.41	73.19	20.88	-48.5	-49.3	23.8	0.00e+00	0	46	0	383778816	60	11423
2026-01-28 08:05:39.42	73.00	20.97	-48.5	-49.3	23.7	0.00e+00	0	46	0	389021696	60	11495
2026-01-28 08:05:40.43	72.80	21.07	-48.5	-49.3	23.7	0.00e+00	0	46	0	395313152	60	11440
2026-01-28 08:05:41.43	72.61	21.16	-48.5	-49.3	23.6	0.00e+00	0	46	0	400556032	60	11415
2026-01-28 08:05:42.43	72.41	21.25	-48.3	-49.1	23.8	0.00e+00	0	46	0	405798912	60	11191
2026-01-28 08:05:43.44	72.21	21.34	-48.2	-48.9	23.9	0.00e+00	0	46	0	412090368	60	10946
2026-01-28 08:05:44.44	72.02	21.43	-48.2	-49.0	24.0	0.00e+00	0	46	0	417333248	60	11030
2026-01-28 08:05:45.45	71.82	21.52	-48.3	-49.1	23.9	0.00e+00	0	46	0	423624704	60	11196
2026-01-28 08:05:46.46	71.61	21.61	-48.3	-49.0	23.9	0.00e+00	0	46	0	428867584	60	11103
2026-01-28 08:05:47.47	71.41	21.70	-48.2	-49.0	24.0	0.00e+00	0	46	0	435159040	60	10987
2026-01-28 08:05:48.47	71.21	21.79	-48.0	-48.8	24.1	0.00e+00	0	46	0	440401920	60	10778
2026-01-28 08:05:49.48	71.00	21.89	-48.1	-48.8	24.0	0.00e+00	0	46	0	445644800	60	10846
2026-01-28 08:05:50.48	70.80	21.98	-48.2	-48.9	24.1	0.00e+00	0	46	0	451936256	60	10941
2026-01-28 08:05:51.49	70.59	22.07	-47.8	-48.6	24.2	0.00e+00	0	46	0	457179136	60	10515
2026-01-28 08:05:52.50	70.38	22.16	-47.8	-48.5	24.3	0.00e+00	0	46	0	462422016	60	10475
2026-01-28 08:05:53.50	70.17	22.25	-47.8	-48.5	24.2	0.00e+00	0	46	0	468713472	60	10446
2026-01-28 08:05:54.51	69.96	22.34	-47.7	-48.4	24.4	0.00e+00	0	46	0	473956352	60	10351
2026-01-28 08:05:55.52	69.75	22.43	-47.9	-48.6	24.2	0.00e+00	0	46	0	480247808	60	10526
2026-01-28 08:05:56.52	69.54	22.52	-47.9	-48.7	24.2	0.00e+00	0	46	0	485490688	60	10654
2026-01-28 08:05:57.53	69.32	22.61	-48.0	-48.7	24.3	0.00e+00	0	46	0	490733568	60	10655
2026-01-28 08:05:58.53	69.11	22.70	-47.8	-48.6	24.4	0.00e+00	0	46	0	497025024	60	10507
2026-01-28 08:05:59.54	68.89	22.79	-47.8	-48.6	24.4	0.00e+00	0	46	0	502267904	60	10512
2026-01-28 08:06:00.54	68.67	22.88	-47.8	-48.6	24.5	0.00e+00	0	46	0	507510784	60	10495
2026-01-28 08:06:01.55	68.45	22.97	-47.9	-48.6	24.5	0.00e+00	0	46	0	513802240	60	10570
2026-01-28 08:06:02.56	68.23	23.06	-47.6	-48.3	24.7	0.00e+00	0	46	0	520093696	60	10214
2026-01-28 08:06:03.56	68.01	23.15	-47.6	-48.3	24.7	0.00e+00	0	46	0	525336576	60	10174
2026-01-28 08:06:04.56	67.78	23.24	-47.5	-48.2	24.6	0.00e+00	0	46	0	530579456	60	10108
2026-01-28 08:06:05.57	67.56	23.33	-47.6	-48.3	24.7	0.00e+00	0	46	0	536870912	60	10216
2026-01-28 08:06:06.57	67.33	23.42	-47.7	-48.4	24.7	0.00e+00	0	46	0	542113792	60	10300
2026-01-28 08:06:07.58	67.11	23.51	-47.7	-48.4	24.5	0.00e+00	0	46	0	547356672	60	10344
2026-01-28 08:06:08.59	66.88	23.59	-47.8	-48.5	24.5	0.00e+00	0	46	0	553648128	60	10420
2026-01-28 08:06:09.59	66.65	23.68	-47.8	-48.5	24.6	0.00e+00	0	46	0	558891008	60	10476
2026-01-28 08:06:10.59	66.42	23.77	-47.8	-48.5	24.7	0.00e+00	0	46	0	565182464	60	10404
2026-01-28 08:06:11.59	66.19	23.86	-47.7	-48.5	24.6	0.00e+00	0	46	0	570425344	60	10404
2026-01-28 08:06:12.59	65.95	23.94	-47.8	-48.6	24.6	0.00e+00	0	46	0	575668224	60	10506
2026-01-28 08:06:13.60	65.72	24.03	-47.9	-48.6	24.7	0.00e+00	0	46	0	581959680	60	10528
2026-01-28 08:06:14.61	65.48	24.12	-47.7	-48.4	24.7	0.00e+00	0	46	0	587202560	60	10319
2026-01-28 08:06:15.61	65.24	24.21	-47.7	-48.4	24.7	0.00e+00	0	46	0	592445440	60	10355
2026-01-28 08:06:16.61	65.01	24.29	-47.7	-48.4	24.7	0.00e+00	0	46	0	598736896	60	10306
2026-01-28 08:06:17.62	64.76	24.38	-47.7	-48.4	24.7	0.00e+00	0	46	0	603979776	60	10331
2026-01-28 08:06:18.62	64.52	24.47	-47.8	-48.5	24.7	0.00e+00	0	46	0	609222656	60	10396
2026-01-28 08:06:19.63	64.28	24.55	-47.9	-48.7	24.5	0.00e+00	0	46	0	615514112	60	10669
2026-01-28 08:06:20.63	64.04	24.64	-48.0	-48.7	24.4	0.00e+00	0	46	0	620756992	60	10722
2026-01-28 08:06:21.64	63.79	24.72	-48.1	-48.8	24.3	0.00e+00	0	46	0	627048448	60	10828
2026-01-28 08:06:22.65	63.54	24.81	-48.0	-48.8	24.4	0.00e+00	0	46	0	632291328	60	10827
2026-01-28 08:06:23.65	63.29	24.89	-47.9	-48.6	24.6	0.00e+00	0	46	0	637534208	60	10550
2026-01-28 08:06:24.65	63.05	24.98	-47.9	-48.6	24.6	0.00e+00	0	46	0	643825664	60	10529
2026-01-28 08:06:25.66	62.79	25.06	-47.7	-48.5	24.7	0.00e+00	0	46	0	650117120	60	10376
2026-01-28 08:06:26.67	62.54	25.15	-47.5	-48.2	24.8	0.00e+00	0	46	0	655360000	60	10122
2026-01-28 08:06:27.66	62.29	25.23	-47.5	-48.2	24.9	0.00e+00	0	46	0	660602880	60	10125
2026-01-28 08:06:28.67	62.03	25.31	-47.6	-48.4	24.8	0.00e+00	0	46	0	666894336	60	10253
2026-01-28 08:06:29.67	61.78	25.39	-47.6	-48.3	24.8	0.00e+00	0	46	0	672137216	60	10223
2026-01-28 08:06:30.68	61.52	25.48	-47.7	-48.4	24.9	0.00e+00	0	46	0	677380096	60	10325
2026-01-28 08:06:31.68	61.26	25.56	-47.6	-48.3	24.8	0.00e+00	0	46	0	683671552	60	10178
2026-01-28 08:06:32.69	61.00	25.64	-47.6	-48.4	24.5	0.00e+00	0	46	0	688914432	60	10267
2026-01-28 08:06:33.69	60.74	25.72	-47.4	-48.3	24.1	0.00e+00	0	46	0	694157312	60	10216
2026-01-28 08:06:34.70	60.47	25.80	-47.3	-48.2	24.2	0.00e+00	0	46	0	700448768	60	10098
2026-01-28 08:06:35.70	60.21	25.88	-47.4	-48.3	24.2	0.00e+00	0	46	0	705691648	60	10154
2026-01-28 08:06:36.70	59.95	25.96	-47.2	-48.0	24.4	0.00e+00	0	46	0	711983104	60	9803
2026-01-28 08:06:37.71	59.68	26.04	-47.1	-47.9	24.4	0.00e+00	0	46	0	717225984	60	9694
2026-01-28 08:06:38.71	59.41	26.12	-47.1	-47.9	24.4	0.00e+00	0	46	0	722468864	60	9713
2026-01-28 08:06:39.71	59.14	26.20	-47.1	-47.9	24.5	0.00e+00	0	46	0	728760320	60	9702
2026-01-28 08:06:40.72	58.87	26.27	-47.0	-47.7	24.8	0.00e+00	0	46	0	734003200	60	9559
2026-01-28 08:06:41.73	58.60	26.35	-46.8	-47.5	24.8	0.00e+00	0	46	0	739246080	60	9331
2026-01-28 08:06:42.73	58.32	26.43	-46.9	-47.6	25.1	0.00e+00	0	46	0	745537536	60	9430
2026-01-28 08:06:43.73	58.05	26.51	-47.0	-47.7	25.1	0.00e+00	0	46	0	750780416	60	9466
2026-01-28 08:06:44.73	57.77	26.58	-47.2	-47.8	24.9	0.00e+00	0	46	0	756023296	60	9671
2026-01-28 08:06:45.73	57.50	26.66	-47.2	-47.9	24.8	0.00e+00	0	46	0	762314752	60	9747
2026-01-28 08:06:46.74	57.22	26.73	-47.2	-47.9	25.0	0.00e+00	0	46	0	767557632	60	9701
2026-01-28 08:06:47.74	56.94	26.80	-47.1	-47.7	25.0	0.00e+00	0	46	0	773849088	60	9552
2026-01-28 08:06:48.75	56.65	26.88	-47.1	-47.8	24.9	0.00e+00	0	46	0	779091968	60	9657
2026-01-28 08:06:49.75	56.37	26.95	-46.9	-47.6	25.0	0.00e+00	0	46	0	784334848	60	9426
2026-01-28 08:06:50.75	56.09	27.02	-46.9	-47.6	24.9	0.00e+00	0	46	0	790626304	60	9401
2026-01-28 08:06:51.76	55.80	27.10	-46.9	-47.6	25.1	0.00e+00	0	46	0	796917760	60	9397
2026-01-28 08:06:52.77	55.51	27.17	-47.0	-47.8	25.0	0.00e+00	0	46	0	802160640	60	9576
2026-01-28 08:06:53.77	55.23	27.24	-47.3	-48.0	24.7	0.00e+00	0	46	0	807403520	60	9853
2026-01-28 08:06:54.77	54.94	27.31	-47.1	-47.9	24.9	0.00e+00	0	46	0	813694976	60	9720
2026-01-28 08:06:55.78	54.65	27.38	-47.0	-47.7	25.1	0.00e+00	0	46	0	818937856	60	9508
2026-01-28 08:06:56.79	54.35	27.45	-47.1	-47.8	25.0	0.00e+00	0	46	0	824180736	60	9591
2026-01-28 08:06:57.79	54.06	27.52	-47.1	-47.7	25.0	0.00e+00	0	46	0	830472192	60	9562
2026-01-28 08:06:58.79	53.77	27.58	-47.1	-47.8	24.9	0.00e+00	0	46	0	835715072	60	9627
2026-01-28 08:06:59.80	53.47	27.65	-47.2	-47.9	24.8	0.00e+00	0	46	0	840957952	60	9714
2026-01-28 08:07:00.81	53.17	27.72	-47.1	-47.9	24.9	0.00e+00	0	46	0	847249408	60	9744
2026-01-28 08:07:01.81	52.87	27.78	-46.8	-47.6	25.0	0.00e+00	0	46	0	852492288	60	9350
2026-01-28 08:07:02.81	52.58	27.85	-46.6	-47.3	25.1	0.00e+00	0	46	0	858783744	60	9095
2026-01-28 08:07:03.81	52.28	27.91	-46.5	-47.3	25.1	0.00e+00	0	46	0	864026624	60	9083
2026-01-28 08:07:04.81	51.98	27.97	-46.4	-47.2	25.2	0.00e+00	0	46	0	869269504	60	8934
2026-01-28 08:07:05.82	51.67	28.04	-46.3	-47.1	25.1	0.00e+00	0	46	0	875560960	60	8865
2026-01-28 08:07:06.82	51.37	28.10	-46.4	-47.2	25.0	0.00e+00	0	46	0	880803840	60	8959
2026-01-28 08:07:07.82	51.06	28.16	-46.5	-47.3	24.9	0.00e+00	0	46	0	886046720	60	9050
2026-01-28 08:07:08.83	50.76	28.22	-46.4	-47.2	24.8	0.00e+00	0	46	0	892338176	60	9013
2026-01-28 08:07:09.83	50.45	28.28	-46.4	-47.3	24.5	0.00e+00	0	46	0	897581056	60	9051
2026-01-28 08:07:10.84	50.14	28.34	-46.3	-47.1	24.6	0.00e+00	0	46	0	902823936	60	8907
2026-01-28 08:07:11.84	49.83	28.39	-46.3	-47.2	24.7	0.00e+00	0	46	0	909115392	60	8968
2026-01-28 08:07:12.85	49.52	28.45	-46.2	-47.0	24.8	0.00e+00	0	46	0	914358272	60	8813
2026-01-28 08:07:13.86	49.20	28.51	-46.0	-46.9	24.6	0.00e+00	0	46	0	920649728	60	8656
2026-01-28 08:07:14.87	48.89	28.56	-46.2	-47.0	24.5	0.00e+00	0	46	0	925892608	60	8819
2026-01-28 08:07:15.87	48.57	28.62	-46.2	-47.1	24.5	0.00e+00	0	46	0	932184064	60	8827
2026-01-28 08:07:16.88	48.26	28.67	-46.3	-47.1	24.6	0.00e+00	0	46	0	937426944	60	8901
2026-01-28 08:07:17.88	47.94	28.72	-46.2	-47.0	25.0	0.00e+00	0	46	0	943718400	60	8816
2026-01-28 08:07:18.89	47.62	28.78	-46.3	-47.1	25.1	0.00e+00	0	46	0	948961280	60	8822
2026-01-28 08:07:19.90	47.30	28.83	-46.2	-46.9	25.1	0.00e+00	0	46	0	954204160	60	8668
2026-01-28 08:07:20.90	46.98	28.88	-46.1	-46.8	25.2	0.00e+00	0	46	0	960495616	60	8616
2026-01-28 08:07:21.90	46.67	28.93	-45.9	-46.7	25.5	0.00e+00	0	46	0	965738496	60	8440
2026-01-28 08:07:22.91	46.34	28.97	-46.0	-46.7	25.7	0.00e+00	0	46	0	970981376	60	8432
2026-01-28 08:07:23.91	46.02	29.02	-46.1	-46.8	25.5	0.00e+00	0	46	0	977272832	60	8560
2026-01-28 08:07:24.92	45.70	29.07	-46.1	-46.9	25.3	0.00e+00	0	46	0	982515712	60	8655
2026-01-28 08:07:25.93	45.37	29.11	-46.0	-46.7	25.6	0.00e+00	0	46	0	987758592	60	8519
2026-01-28 08:07:26.93	45.05	29.16	-45.9	-46.7	25.5	0.00e+00	0	46	0	994050048	60	8429
2026-01-28 08:07:27.93	44.72	29.20	-45.8	-46.6	25.5	0.00e+00	0	46	0	999292928	60	8381
2026-01-28 08:07:28.94	44.39	29.24	-45.7	-46.5	25.5	0.00e+00	0	46	0	1005584384	60	8247
2026-01-28 08:07:29.94	44.06	29.28	-45.8	-46.5	25.3	0.00e+00	0	46	0	1010827264	60	8328
2026-01-28 08:07:30.95	43.73	29.32	-45.9	-46.7	25.0	0.00e+00	0	46	0	1016070144	60	8459
2026-01-28 08:07:31.95	43.41	29.36	-46.0	-46.9	24.8	0.00e+00	0	46	0	1022361600	60	8634
2026-01-28 08:07:32.97	43.07	29.40	-45.7	-46.6	25.1	0.00e+00	0	46	0	1028653056	60	8333
2026-01-28 08:07:33.97	42.74	29.44	-45.6	-46.4	25.3	0.00e+00	0	46	0	1033895936	60	8174
2026-01-28 08:07:34.98	42.41	29.48	-45.5	-46.3	25.0	0.00e+00	0	46	0	1039138816	60	8107
2026-01-28 08:07:35.99	42.07	29.51	-45.8	-46.6	24.8	0.00e+00	0	46	0	1045430272	60	8330
2026-01-28 08:07:36.99	41.74	29.55	-45.9	-46.8	24.9	0.00e+00	0	46	0	1050673152	60	8576
2026-01-28 08:07:38.00	41.40	29.58	-45.9	-46.8	24.9	0.00e+00	0	46	0	1055916032	60	8582
2026-01-28 08:07:39.00	41.07	29.61	-45.9	-46.8	24.8	0.00e+00	0	46	0	1062207488	60	8562
2026-01-28 08:07:40.00	40.74	29.64	-45.9	-46.7	24.7	0.00e+00	0	46	0	1067450368	60	8505
2026-01-28 08:07:41.01	40.40	29.67	-45.8	-46.6	25.0	0.00e+00	0	46	0	1072693248	60	8407
2026-01-28 08:07:42.02	40.06	29.70	-45.8	-46.6	25.0	0.00e+00	0	46	0	1078984704	60	8402
2026-01-28 08:07:43.03	39.72	29.73	-45.7	-46.6	25.1	0.00e+00	0	46	0	1084227584	60	8400
2026-01-28 08:07:44.03	39.38	29.76	-45.8	-46.7	25.0	0.00e+00	0	46	0	1090519040	60	8494
2026-01-28 08:07:45.04	39.04	29.78	-45.8	-46.7	25.2	0.00e+00	0	46	0	1095761920	60	8444
2026-01-28 08:07:46.05	38.70	29.81	-45.9	-46.8	25.3	0.00e+00	0	46	0	1101004800	60	8559
2026-01-28 08:07:47.05	38.37	29.83	-45.7	-46.5	25.2	0.00e+00	0	46	0	1107296256	60	8321
2026-01-28 08:07:48.06	38.02	29.85	-45.6	-46.5	25.2	0.00e+00	0	46	0	1113587712	60	8296
2026-01-28 08:07:49.07	37.68	29.87	-45.6	-46.4	25.4	0.00e+00	0	46	0	1118830592	60	8194
2026-01-28 08:07:50.07	37.34	29.89	-45.4	-46.3	25.4	0.00e+00	0	46	0	1124073472	60	8114
2026-01-28 08:07:51.08	37.00	29.91	-45.5	-46.3	25.3	0.00e+00	0	46	0	1130364928	60	8131
2026-01-28 08:07:52.09	36.66	29.93	-45.4	-46.3	25.1	0.00e+00	0	46	0	1135607808	60	8133
2026-01-28 08:07:53.10	36.31	29.95	-45.5	-46.5	25.0	0.00e+00	0	46	0	1140850688	60	8288
2026-01-28 08:07:54.10	35.97	29.96	-45.6	-46.6	24.8	0.00e+00	0	46	0	1147142144	60	8335
2026-01-28 08:07:55.11	35.63	29.98	-45.5	-46.5	24.6	0.00e+00	0	46	0	1152385024	60	8264
2026-01-28 08:07:56.12	35.28	29.99	-45.3	-46.2	24.7	0.00e+00	0	46	0	1157627904	60	8026
2026-01-28 08:07:57.13	34.94	30.00	-45.2	-46.1	24.7	0.00e+00	0	46	0	1163919360	60	7935
2026-01-28 08:07:58.13	34.59	30.01	-45.4	-46.2	24.5	0.00e+00	0	46	0	1169162240	60	8042
2026-01-28 08:07:59.14	34.25	30.02	-45.6	-46.4	24.6	0.00e+00	0	46	0	1175453696	60	8220
2026-01-28 08:08:00.14	33.91	30.03	-45.7	-46.5	24.9	0.00e+00	0	46	0	1180696576	60	8303
2026-01-28 08:08:01.15	33.56	30.04	-45.5	-46.3	25.2	0.00e+00	0	46	0	1185939456	60	8097
2026-01-28 08:08:02.16	33.21	30.05	-45.5	-46.2	25.6	0.00e+00	0	46	0	1192230912	60	8029
2026-01-28 08:08:03.16	32.87	30.05	-45.5	-46.2	25.9	0.00e+00	0	46	0	1198522368	60	7990
2026-01-28 08:08:04.17	32.52	30.06	-45.6	-46.3	25.8	0.00e+00	0	46	0	1203765248	60	8108
2026-01-28 08:08:05.17	32.18	30.06	-45.6	-46.3	25.9	0.00e+00	0	46	0	1209008128	60	8051
2026-01-28 08:08:06.18	31.83	30.06	-45.6	-46.2	26.0	0.00e+00	0	46	0	1215299584	60	8030
2026-01-28 08:08:07.18	31.49	30.06	-45.6	-46.2	26.0	0.00e+00	0	46	0	1220542464	60	8034
2026-01-28 08:08:08.19	31.15	30.06	-45.7	-46.3	25.9	0.00e+00	0	46	0	1225785344	60	8107
2026-01-28 08:08:09.19	30.80	30.06	-45.8	-46.5	25.9	0.00e+00	0	46	0	1232076800	60	8254
2026-01-28 08:08:10.20	30.46	30.06	-45.6	-46.3	25.8	0.00e+00	0	46	0	1237319680	60	8070
2026-01-28 08:08:11.20	30.11	30.05	-45.6	-46.3	25.9	0.00e+00	0	46	0	1242562560	60	8066
2026-01-28 08:08:12.20	29.77	30.05	-45.5	-46.2	25.8	0.00e+00	0	46	0	1248854016	60	8021
2026-01-28 08:08:13.20	29.43	30.04	-45.5	-46.3	25.8	0.00e+00	0	46	0	1254096896	60	8046
2026-01-28 08:08:14.20	29.09	30.03	-45.5	-46.2	25.3	0.00e+00	0	46	0	1260388352	60	8027
2026-01-28 08:08:15.20	28.74	30.02	-45.5	-46.2	25.6	0.00e+00	0	46	0	1265631232	60	8028
2026-01-28 08:08:16.21	28.40	30.01	-45.6	-46.4	25.3	0.00e+00	0	46	0	1270874112	60	8195
2026-01-28 08:08:17.21	28.06	30.00	-45.6	-46.4	25.3	0.00e+00	0	46	0	1277165568	60	8210
2026-01-28 08:08:18.22	27.71	29.99	-45.6	-46.4	25.4	0.00e+00	0	46	0	1282408448	60	8190
2026-01-28 08:08:19.23	27.37	29.98	-45.6	-46.4	25.3	0.00e+00	0	46	0	1287651328	60	8223
2026-01-28 08:08:20.23	27.02	29.96	-45.5	-46.4	25.1	0.00e+00	0	46	0	1293942784	60	8213
2026-01-28 08:08:21.24	26.68	29.95	-45.5	-46.3	25.3	0.00e+00	0	46	0	1299185664	60	8070
2026-01-28 08:08:22.25	26.34	29.93	-45.5	-46.4	25.3	0.00e+00	0	46	0	1305477120	60	8150
2026-01-28 08:08:23.25	26.00	29.91	-45.6	-46.5	25.2	0.00e+00	0	46	0	1310720000	60	8238
2026-01-28 08:08:24.25	25.66	29.89	-45.5	-46.5	24.9	0.00e+00	0	46	0	1315962880	60	8237
2026-01-28 08:08:25.25	25.32	29.87	-45.4	-46.4	24.9	0.00e+00	0	46	0	1322254336	60	8192
2026-01-28 08:08:26.25	24.98	29.85	-45.4	-46.4	25.1	0.00e+00	0	46	0	1328545792	60	8222
2026-01-28 08:08:27.26	24.64	29.83	-45.4	-46.4	25.2	0.00e+00	0	46	0	1333788672	60	8147
2026-01-28 08:08:28.27	24.30	29.81	-45.2	-46.2	25.3	0.00e+00	0	46	0	1339031552	60	7979
2026-01-28 08:08:29.27	23.96	29.78	-45.2	-46.0	25.5	0.00e+00	0	46	0	1345323008	60	7855
2026-01-28 08:08:30.28	23.62	29.75	-45.3	-46.1	25.6	0.00e+00	0	46	0	1350565888	60	7893
2026-01-28 08:08:31.28	23.28	29.73	-45.4	-46.2	25.8	0.00e+00	0	46	0	1355808768	60	7978
2026-01-28 08:08:32.29	22.94	29.70	-45.5	-46.3	25.9	0.00e+00	0	46	0	1362100224	60	8100
2026-01-28 08:08:33.29	22.61	29.67	-45.5	-46.2	25.9	0.00e+00	0	46	0	1367343104	60	8044
2026-01-28 08:08:34.30	22.27	29.64	-45.6	-46.3	25.8	0.00e+00	0	46	0	1372585984	60	8080
2026-01-28 08:08:35.31	21.93	29.61	-45.7	-46.4	25.9	0.00e+00	0	46	0	1378877440	60	8217
2026-01-28 08:08:36.31	21.60	29.58	-45.7	-46.4	25.8	0.00e+00	0	46	0	1384120320	60	8179
2026-01-28 08:08:37.31	21.27	29.54	-45.8	-46.5	25.7	0.00e+00	0	46	0	1390411776	60	8279
2026-01-28 08:08:38.32	20.93	29.51	-45.6	-46.4	25.9	0.00e+00	0	46	0	1395654656	60	8205
2026-01-28 08:08:39.32	20.60	29.47	-45.6	-46.4	25.8	0.00e+00	0	46	0	1400897536	60	8166
2026-01-28 08:08:40.33	20.27	29.44	-45.5	-46.3	25.8	0.00e+00	0	46	0	1407188992	60	8052
2026-01-28 08:08:41.34	19.94	29.40	-45.6	-46.3	25.7	0.00e+00	0	46	0	1412431872	60	8122
2026-01-28 08:08:42.34	19.61	29.36	-45.9	-46.7	25.6	0.00e+00	0	46	0	1417674752	60	8437
2026-01-28 08:08:43.35	19.28	29.32	-46.0	-46.8	25.3	0.00e+00	0	46	0	1423966208	60	8595
2026-01-28 08:08:44.35	18.95	29.28	-45.8	-46.5	25.5	0.00e+00	0	46	0	1430257664	60	8325
2026-01-28 08:08:45.36	18.62	29.24	-45.9	-46.6	25.3	0.00e+00	0	46	0	1435500544	60	8361
2026-01-28 08:08:46.36	18.29	29.20	-45.9	-46.7	25.4	0.00e+00	0	46	0	1440743424	60	8469
2026-01-28 08:08:47.36	17.97	29.15	-46.0	-46.7	25.4	0.00e+00	0	46	0	1447034880	60	8490
2026-01-28 08:08:48.37	17.64	29.11	-45.9	-46.7	25.3	0.00e+00	0	46	0	1452277760	60	8449
2026-01-28 08:08:49.37	17.32	29.06	-46.0	-46.7	25.3	0.00e+00	0	46	0	1457520640	60	8438
2026-01-28 08:08:50.38	17.00	29.02	-46.0	-46.8	25.2	0.00e+00	0	46	0	1463812096	60	8577
2026-01-28 08:08:51.38	16.68	28.97	-46.0	-46.7	25.1	0.00e+00	0	46	0	1469054976	60	8517
2026-01-28 08:08:52.39	16.35	28.92	-45.9	-46.8	24.9	0.00e+00	0	46	0	1475346432	60	8527
2026-01-28 08:08:53.39	16.03	28.87	-45.9	-46.6	24.8	0.00e+00	0	46	0	1480589312	60	8366
2026-01-28 08:08:54.40	15.71	28.82	-45.9	-46.6	25.0	0.00e+00	0	46	0	1485832192	60	8400
2026-01-28 08:08:55.41	15.39	28.77	-46.0	-46.6	25.3	0.00e+00	0	46	0	1492123648	60	8401
2026-01-28 08:08:56.41	15.08	28.72	-46.0	-46.7	25.6	0.00e+00	0	46	0	1497366528	60	8456
2026-01-28 08:08:57.42	14.76	28.67	-46.0	-46.7	25.6	0.00e+00	0	46	0	1502609408	60	8444
2026-01-28 08:08:58.43	14.44	28.61	-45.8	-46.5	25.6	0.00e+00	0	46	0	1508900864	60	8298
2026-01-28 08:08:59.43	14.13	28.56	-45.9	-46.7	25.6	0.00e+00	0	46	0	1514143744	60	8460
2026-01-28 08:09:00.44	13.81	28.50	-46.1	-46.8	25.5	0.00e+00	0	46	0	1519386624	60	8564
2026-01-28 08:09:01.44	13.50	28.45	-46.2	-46.9	25.5	0.00e+00	0	46	0	1525678080	60	8666
2026-01-28 08:09:02.44	13.19	28.39	-46.2	-46.8	25.4	0.00e+00	0	46	0	1530920960	60	8613
2026-01-28 08:09:03.45	12.88	28.33	-45.9	-46.7	25.2	0.00e+00	0	46	0	1537212416	60	8509
2026-01-28 08:09:04.45	12.58	28.27	-45.8	-46.7	25.2	0.00e+00	0	46	0	1542455296	60	8443
2026-01-28 08:09:05.46	12.27	28.21	-45.8	-46.5	25.4	0.00e+00	0	46	0	1548746752	60	8278
2026-01-28 08:09:06.47	11.96	28.15	-45.9	-46.7	25.4	0.00e+00	0	46	0	1553989632	60	8440
2026-01-28 08:09:07.47	11.66	28.09	-46.1	-46.7	25.3	0.00e+00	0	46	0	1560281088	60	8505
2026-01-28 08:09:08.47	11.35	28.03	-46.1	-46.8	25.5	0.00e+00	0	46	0	1565523968	60	8612
2026-01-28 08:09:09.47	11.05	27.97	-46.0	-46.8	25.6	0.00e+00	0	46	0	1570766848	60	8532
2026-01-28 08:09:10.48	10.75	27.91	-45.9	-46.6	25.4	0.00e+00	0	46	0	1577058304	60	8414
2026-01-28 08:09:11.49	10.45	27.84	-45.8	-46.6	25.2	0.00e+00	0	46	0	1582301184	60	8371
2026-01-28 08:09:12.49	10.15	27.78	-45.6	-46.5	24.5	0.00e+00	0	46	0	1587544064	60	8300
2026-01-28 08:09:13.49	9.85	27.71	-45.5	-46.5	24.3	0.00e+00	0	46	0	1593835520	60	8307
2026-01-28 08:09:14.50	9.55	27.65	-45.8	-46.8	24.2	0.00e+00	0	46	0	1599078400	60	8569
2026-01-28 08:09:15.51	9.26	27.58	-45.8	-46.7	24.7	0.00e+00	0	46	0	1604321280	60	8458
2026-01-28 08:09:16.51	8.97	27.51	-45.9	-46.7	25.1	0.00e+00	0	46	0	1610612736	60	8425
2026-01-28 08:09:17.52	8.67	27.44	-45.9	-46.8	25.2	0.00e+00	0	46	0	1615855616	60	8543
2026-01-28 08:09:18.52	8.38	27.38	-45.9	-46.7	25.4	0.00e+00	0	46	0	1622147072	60	8453
2026-01-28 08:09:19.53	8.09	27.31	-45.9	-46.7	25.3	0.00e+00	0	46	0	1627389952	60	8483
2026-01-28 08:09:20.54	7.80	27.23	-46.0	-46.7	25.6	0.00e+00	0	46	0	1632632832	60	8434
2026-01-28 08:09:21.54	7.51	27.16	-45.8	-46.4	25.6	0.00e+00	0	46	0	1638924288	60	8219
2026-01-28 08:09:22.55	7.22	27.09	-45.8	-46.4	25.6	0.00e+00	0	46	0	1644167168	60	8213
2026-01-28 08:09:23.55	6.94	27.02	-45.8	-46.5	25.5	0.00e+00	0	46	0	1650458624	60	8305
2026-01-28 08:09:24.56	6.65	26.95	-45.9	-46.6	25.5	0.00e+00	0	46	0	1655701504	60	8374
2026-01-28 08:09:25.56	6.37	26.88	-46.0	-46.6	25.5	0.00e+00	0	46	0	1661992960	60	8411
2026-01-28 08:09:26.57	6.09	26.80	-46.1	-46.7	25.4	0.00e+00	0	46	0	1667235840	60	8517
2026-01-28 08:09:27.58	5.81	26.73	-46.2	-46.8	25.3	0.00e+00	0	46	0	1672478720	60	8621
2026-01-28 08:09:28.58	5.53	26.65	-46.2	-46.8	25.3	0.00e+00	0	46	0	1678770176	60	8580
2026-01-28 08:09:29.58	5.26	26.58	-46.2	-46.9	25.3	0.00e+00	0	46	0	1684013056	60	8653
2026-01-28 08:09:30.58	4.98	26.50	-46.1	-46.8	25.5	0.00e+00	0	46	0	1689255936	60	8551
2026-01-28 08:09:31.59	4.71	26.43	-46.1	-46.9	25.5	0.00e+00	0	46	0	1695547392	60	8633
2026-01-28 08:09:32.59	4.43	26.35	-46.2	-46.8	25.4	0.00e+00	0	46	0	1700790272	60	8615
2026-01-28 08:09:33.60	4.16	26.27	-46.2	-46.9	25.3	0.00e+00	0	46	0	1707081728	60	8655
2026-01-28 08:09:34.60	3.89	26.19	-46.2	-46.9	25.3	0.00e+00	0	46	0	1712324608	60	8654
2026-01-28 08:09:35.60	3.62	26.12	-46.2	-47.0	25.3	0.00e+00	0	46	0	1717567488	60	8797
2026-01-28 08:09:36.60	3.36	26.04	-46.2	-47.0	25.2	0.00e+00	0	46	0	1723858944	60	8739
2026-01-28 08:09:37.60	3.09	25.96	-46.2	-46.8	25.2	0.00e+00	0	46	0	1729101824	60	8596
2026-01-28 08:09:38.60	2.83	25.88	-46.1	-46.8	25.4	0.00e+00	0	46	0	1734344704	60	8607
2026-01-28 08:09:39.61	2.56	25.80	-45.9	-46.7	25.5	0.00e+00	0	46	0	1740636160	60	8461
2026-01-28 08:09:40.62	2.30	25.72	-46.0	-46.6	25.4	0.00e+00	0	46	0	1745879040	60	8397
2026-01-28 08:09:41.62	2.04	25.64	-46.1	-46.9	25.2	0.00e+00	0	46	0	1751121920	60	8627
2026-01-28 08:09:42.62	1.78	25.56	-46.2	-46.9	25.0	0.00e+00	0	46	0	1757413376	60	8664
2026-01-28 08:09:43.63	1.52	25.47	-46.3	-47.1	24.9	0.00e+00	0	46	0	1762656256	60	8858
2026-01-28 08:09:44.63	1.26	25.39	-46.3	-47.0	24.9	0.00e+00	0	46	0	1768947712	60	8802
2026-01-28 08:09:45.64	1.01	25.31	-46.2	-46.9	25.0	0.00e+00	0	46	0	1774190592	60	8633
2026-01-28 08:09:46.65	0.75	25.23	-46.2	-46.9	25.0	0.00e+00	0	46	0	1779433472	60	8717
2026-01-28 08:09:47.65	0.50	25.14	-46.0	-46.8	25.2	0.00e+00	0	46	0	1785724928	60	8597
2026-01-28 08:09:48.66	0.25	25.06	-46.0	-46.7	25.2	0.00e+00	0	46	0	1792016384	60	8459
2026-01-28 08:09:49.67	359.99	24.97	-46.1	-46.8	25.2	0.00e+00	0	46	0	1797259264	60	8539
2026-01-28 08:09:50.67	359.75	24.89	-46.1	-46.7	25.2	0.00e+00	0	46	0	1802502144	60	8473
2026-01-28 08:09:51.68	359.50	24.81	-46.1	-46.8	25.2	0.00e+00	0	46	0	1808793600	60	8616
2026-01-28 08:09:52.69	359.25	24.72	-46.3	-46.9	25.2	0.00e+00	0	46	0	1814036480	60	8677
2026-01-28 08:09:53.69	359.01	24.64	-46.4	-47.1	25.1	0.00e+00	0	46	0	1819279360	60	8852
2026-01-28 08:09:54.69	358.76	24.55	-46.4	-47.1	25.0	0.00e+00	0	46	0	1825570816	60	8905
2026-01-28 08:09:55.70	358.52	24.46	-46.2	-47.0	25.0	0.00e+00	0	46	0	1830813696	60	8774
2026-01-28 08:09:56.71	358.28	24.38	-46.2	-46.9	24.9	0.00e+00	0	46	0	1836056576	60	8656
2026-01-28 08:09:57.72	358.04	24.29	-46.1	-46.9	25.0	0.00e+00	0	46	0	1842348032	60	8639
2026-01-28 08:09:58.73	357.80	24.20	-46.2	-46.8	24.9	0.00e+00	0	46	0	1847590912	60	8595
2026-01-28 08:09:59.73	357.56	24.12	-46.1	-46.9	24.9	0.00e+00	0	46	0	1853882368	60	8693
2026-01-28 08:10:00.74	357.32	24.03	-46.2	-46.8	25.0	0.00e+00	0	46	0	1859125248	60	8592
2026-01-28 08:10:01.75	357.09	23.94	-46.3	-47.0	24.8	0.00e+00	0	46	0	1864368128	60	8750
2026-01-28 08:10:02.75	356.86	23.86	-46.5	-47.1	24.7	0.00e+00	0	46	0	1870659584	60	8900
2026-01-28 08:10:03.76	356.62	23.77	-46.5	-47.2	24.6	0.00e+00	0	46	0	1876951040	60	9027
2026-01-28 08:10:04.77	356.39	23.68	-46.5	-47.2	24.6	0.00e+00	0	46	0	1882193920	60	8973
2026-01-28 08:10:05.78	356.16	23.59	-46.7	-47.5	24.5	0.00e+00	0	46	0	1887436800	60	9286
2026-01-28 08:10:06.78	355.93	23.50	-46.5	-47.1	24.6	0.00e+00	0	46	0	1893728256	60	8913
2026-01-28 08:10:07.79	355.71	23.41	-46.4	-47.0	24.8	0.00e+00	0	46	0	1898971136	60	8781
2026-01-28 08:10:08.80	355.48	23.32	-46.4	-47.1	24.9	0.00e+00	0	46	0	1904214016	60	8911
2026-01-28 08:10:09.80	355.26	23.24	-46.4	-47.1	24.8	0.00e+00	0	46	0	1910505472	60	8900
2026-01-28 08:10:10.80	355.04	23.15	-46.6	-47.2	24.8	0.00e+00	0	46	0	1915748352	60	9019
2026-01-28 08:10:11.80	354.82	23.06	-46.7	-47.4	24.7	0.00e+00	0	46	0	1920991232	60	9219
2026-01-28 08:10:12.81	354.60	22.97	-46.8	-47.4	24.7	0.00e+00	0	46	0	1927282688	60	9225
2026-01-28 08:10:13.82	354.38	22.88	-46.8	-47.6	24.6	0.00e+00	0	46	0	1932525568	60	9426
2026-01-28 08:10:14.83	354.16	22.79	-46.7	-47.4	24.8	0.00e+00	0	46	0	1938817024	60	9200
2026-01-28 08:10:15.83	353.94	22.70	-46.6	-47.3	24.8	0.00e+00	0	46	0	1944059904	60	9068
2026-01-28 08:10:16.84	353.73	22.61	-46.6	-47.3	24.7	0.00e+00	0	46	0	1949302784	60	9037
2026-01-28 08:10:17.84	353.51	22.52	-46.7	-47.5	24.7	0.00e+00	0	46	0	1955594240	60	9267
2026-01-28 08:10:18.85	353.30	22.43	-46.7	-47.4	24.7	0.00e+00	0	46	0	1960837120	60	9136
2026-01-28 08:10:19.85	353.09	22.34	-46.7	-47.3	24.7	0.00e+00	0	46	0	1966080000	60	9125
2026-01-28 08:10:20.85	352.88	22.25	-46.7	-47.4	24.8	0.00e+00	0	46	0	1972371456	60	9231
2026-01-28 08:10:21.86	352.67	22.16	-46.7	-47.5	24.7	0.00e+00	0	46	0	1978662912	60	9295
2026-01-28 08:10:22.87	352.46	22.07	-46.7	-47.4	24.7	0.00e+00	0	46	0	1983905792	60	9234
2026-01-28 08:10:23.87	352.26	21.98	-46.8	-47.5	24.7	0.00e+00	0	46	0	1989148672	60	9257
2026-01-28 08:10:24.88	352.05	21.89	-46.8	-47.6	24.7	0.00e+00	0	46	0	1995440128	60	9369
2026-01-28 08:10:25.88	351.85	21.80	-46.8	-47.6	24.6	0.00e+00	0	46	0	2000683008	60	9387
2026-01-28 08:10:26.89	351.64	21.70	-46.8	-47.5	24.7	0.00e+00	0	46	0	2005925888	60	9336
2026-01-28 08:10:27.90	351.44	21.61	-46.8	-47.4	24.6	0.00e+00	0	46	0	2012217344	60	9237
2026-01-28 08:10:28.90	351.24	21.52	-46.7	-47.4	24.7	0.00e+00	0	46	0	2017460224	60	9207
2026-01-28 08:10:29.91	351.04	21.43	-46.7	-47.5	24.7	0.00e+00	0	47	0	2023751680	60	9335
2026-01-28 08:10:30.91	350.85	21.34	-46.8	-47.5	24.6	0.00e+00	0	46	0	2028994560	60	9277
2026-01-28 08:10:31.92	350.65	21.25	-46.9	-47.5	24.5	0.00e+00	0	46	0	2034237440	60	9305
2026-01-28 08:10:32.93	350.45	21.16	-46.8	-47.6	24.5	0.00e+00	0	46	0	2040528896	60	9451
2026-01-28 08:10:33.93	350.26	21.07	-46.8	-47.7	24.4	0.00e+00	0	46	0	2045771776	60	9486
2026-01-28 08:10:34.94	350.06	20.98	-46.8	-47.5	24.5	0.00e+00	0	46	0	2051014656	60	9292
2026-01-28 08:10:35.94	349.87	20.89	-46.8	-47.5	24.5	0.00e+00	0	46	0	2057306112	60	9303
2026-01-28 08:10:36.95	349.68	20.79	-47.0	-47.7	24.4	0.00e+00	0	46	0	2062548992	60	9469
2026-01-28 08:10:37.96	349.49	20.70	-47.1	-47.9	24.4	0.00e+00	0	46	0	2068840448	60	9710
2026-01-28 08:10:38.96	349.30	20.61	-47.1	-47.9	24.4	0.00e+00	0	46	0	2074083328	60	9728
2026-01-28 08:10:39.97	349.11	20.52	-47.0	-47.7	24.3	0.00e+00	0	46	0	2080374784	60	9533
2026-01-28 08:10:40.97	348.93	20.43	-47.0	-47.7	24.5	0.00e+00	0	46	0	2085617664	60	9491
2026-01-28 08:10:41.98	348.74	20.34	-46.9	-47.6	24.5	0.00e+00	0	46	0	2090860544	60	9399
2026-01-28 08:10:42.98	348.56	20.25	-46.9	-47.7	24.5	0.00e+00	0	46	0	2097152000	60	9514
2026-01-28 08:10:43.99	348.38	20.16	-47.0	-47.6	24.5	0.00e+00	0	46	0	2102394880	60	9448
2026-01-28 08:10:44.99	348.20	20.06	-47.0	-47.7	24.3	0.00e+00	0	46	0	2108686336	60	9457
2026-01-28 08:10:45.99	348.02	19.97	-47.0	-47.7	24.3	0.00e+00	0	46	0	2113929216	60	9490
2026-01-28 08:10:47.00	347.83	19.88	-47.0	-47.7	24.3	0.00e+00	0	46	0	2119172096	60	9547
2026-01-28 08:10:48.01	347.66	19.79	-47.0	-47.8	24.3	0.00e+00	0	46	0	2125463552	60	9570
2026-01-28 08:10:49.01	347.48	19.70	-46.9	-47.7	24.4	0.00e+00	0	46	0	2130706432	60	9547
2026-01-28 08:10:50.01	347.30	19.61	-46.9	-47.7	24.5	0.00e+00	0	46	0	2135949312	60	9460
2026-01-28 08:10:51.02	347.13	19.52	-47.0	-47.6	24.4	0.00e+00	0	46	0	2142240768	60	9442
2026-01-28 08:10:52.03	346.95	19.43	-47.0	-47.7	24.3	0.00e+00	0	46	0	2147483648	60	9471
2026-01-28 08:10:53.04	346.78	19.34	-47.0	-47.8	24.4	0.00e+00	0	46	0	2152726528	60	9584
2026-01-28 08:10:54.04	346.61	19.25	-47.1	-47.9	24.2	0.00e+00	0	46	0	2159017984	60	9727
2026-01-28 08:10:55.05	346.43	19.16	-47.2	-47.9	24.2	0.00e+00	0	46	0	2164260864	60	9681
2026-01-28 08:10:56.05	346.26	19.07	-47.3	-48.0	23.9	0.00e+00	0	46	0	2170552320	60	9828
2026-01-28 08:10:57.05	346.10	18.98	-47.3	-48.2	23.9	0.00e+00	0	46	0	2175795200	60	10066
2026-01-28 08:10:58.05	345.93	18.89	-47.4	-48.1	23.7	0.00e+00	0	46	0	2181038080	60	10007
2026-01-28 08:10:59.05	345.76	18.80	-47.5	-48.3	23.8	0.00e+00	0	46	0	2187329536	60	10245
2026-01-28 08:11:00.06	345.60	18.70	-47.6	-48.3	23.7	0.00e+00	0	46	0	2193620992	60	10192
2026-01-28 08:11:01.07	345.43	18.61	-47.6	-48.4	23.7	0.00e+00	0	46	0	2198863872	60	10280
2026-01-28 08:11:02.08	345.27	18.52	-47.5	-48.4	23.7	0.00e+00	0	46	0	2204106752	60	10270
2026-01-28 08:11:03.08	345.10	18.43	-47.5	-48.3	23.8	0.00e+00	0	46	0	2210398208	60	10246
2026-01-28 08:11:04.08	344.94	18.34	-47.5	-48.2	23.8	0.00e+00	0	46	0	2215641088	60	10086
2026-01-28 08:11:05.08	344.78	18.25	-47.5	-48.2	23.8	0.00e+00	0	46	0	2220883968	60	10064
2026-01-28 08:11:06.09	344.62	18.16	-47.5	-48.3	23.8	0.00e+00	0	46	0	2227175424	60	10234
2026-01-28 08:11:07.10	344.46	18.07	-47.5	-48.3	23.7	0.00e+00	0	46	0	2232418304	60	10153
2026-01-28 08:11:08.11	344.30	17.98	-47.5	-48.3	23.8	0.00e+00	0	46	0	2237661184	60	10155
2026-01-28 08:11:09.11	344.14	17.90	-47.5	-48.2	23.8	0.00e+00	0	46	0	2243952640	60	10105
2026-01-28 08:11:10.12	343.99	17.81	-47.5	-48.3	23.8	0.00e+00	0	46	0	2249195520	60	10160
2026-01-28 08:11:11.12	343.83	17.72	-47.5	-48.3	23.7	0.00e+00	0	46	0	2255486976	60	10200
2026-01-28 08:11:12.12	343.68	17.63	-47.6	-48.4	23.7	0.00e+00	0	46	0	2260729856	60	10248
2026-01-28 08:11:13.13	343.52	17.54	-47.6	-48.3	23.7	0.00e+00	0	46	0	2265972736	60	10245
2026-01-28 08:11:14.14	343.37	17.45	-47.7	-48.5	23.6	0.00e+00	0	46	0	2272264192	60	10409
2026-01-28 08:11:15.15	343.22	17.36	-47.7	-48.4	23.6	0.00e+00	0	46	0	2277507072	60	10334
2026-01-28 08:11:16.15	343.07	17.27	-47.7	-48.5	23.5	0.00e+00	0	46	0	2282749952	60	10427
2026-01-28 08:11:17.15	342.92	17.18	-47.7	-48.4	23.4	0.00e+00	0	46	0	2289041408	60	10353
2026-01-28 08:11:18.16	342.77	17.09	-47.8	-48.6	23.3	0.00e+00	0	46	0	2295332864	60	10497
2026-01-28 08:11:19.17	342.62	17.01	-47.8	-48.7	23.3	0.00e+00	0	46	0	2300575744	60	10628
2026-01-28 08:11:20.17	342.47	16.92	-47.9	-48.8	23.2	0.00e+00	0	46	0	2305818624	60	10768
2026-01-28 08:11:21.18	342.33	16.83	-47.9	-48.8	23.2	0.00e+00	0	46	0	2312110080	60	10826
2026-01-28 08:11:22.19	342.18	16.74	-47.9	-48.7	23.1	0.00e+00	0	46	0	2317352960	60	10705
2026-01-28 08:11:23.19	342.04	16.65	-47.9	-48.8	23.2	0.00e+00	0	46	0	2322595840	60	10818
2026-01-28 08:11:24.19	341.89	16.57	-47.9	-48.7	23.1	0.00e+00	0	46	0	2328887296	60	10667
2026-01-28 08:11:25.19	341.75	16.48	-48.0	-48.8	23.1	0.00e+00	0	46	0	2334130176	60	10732
2026-01-28 08:11:26.20	341.61	16.39	-48.0	-48.8	23.0	0.00e+00	0	46	0	2340421632	60	10836
2026-01-28 08:11:27.20	341.47	16.30	-48.2	-49.0	22.9	0.00e+00	0	46	0	2345664512	60	11089
2026-01-28 08:11:28.21	341.33	16.22	-48.3	-49.1	22.6	0.00e+00	0	46	0	2350907392	60	11131
2026-01-28 08:11:29.22	341.19	16.13	-48.5	-49.3	22.3	0.00e+00	0	46	0	2357198848	60	11369
2026-01-28 08:11:30.23	341.05	16.04	-48.6	-49.4	22.1	0.00e+00	0	46	0	2362441728	60	11611
2026-01-28 08:11:31.23	340.91	15.96	-48.7	-49.5	22.0	0.00e+00	0	46	0	2367684608	60	11697
2026-01-28 08:11:32.24	340.77	15.87	-48.7	-49.7	21.9	0.00e+00	0	46	0	2373976064	60	12011
2026-01-28 08:11:33.25	340.64	15.78	-48.7	-49.7	21.8	0.00e+00	0	46	0	2379218944	60	11970
2026-01-28 08:11:34.26	340.50	15.69	-48.8	-49.7	21.6	0.00e+00	0	46	0	2385510400	60	11959
2026-01-28 08:11:35.26	340.37	15.61	-48.9	-49.8	21.3	0.00e+00	0	46	0	2390753280	60	12125
2026-01-28 08:11:36.27	340.23	15.52	-49.1	-50.0	21.1	0.00e+00	0	46	0	2397044736	60	12395
2026-01-28 08:11:37.28	340.10	15.44	-49.3	-50.3	20.9	0.00e+00	0	46	0	2402287616	60	12846
2026-01-28 08:11:38.28	339.97	15.35	-49.4	-50.6	20.5	0.00e+00	0	46	0	2407530496	60	13203
2026-01-28 08:11:39.28	339.84	15.26	-49.6	-50.8	20.2	0.00e+00	0	46	0	2413821952	60	13531
2026-01-28 08:11:40.29	339.70	15.18	-49.7	-50.9	20.1	0.00e+00	0	46	0	2419064832	60	13709
2026-01-28 08:11:41.29	339.58	15.09	-49.8	-51.1	19.8	0.00e+00	0	46	0	2425356288	60	14013
2026-01-28 08:11:42.30	339.45	15.01	-49.9	-51.1	19.6	0.00e+00	0	46	0	2430599168	60	14128
2026-01-28 08:11:43.31	339.32	14.92	-50.0	-51.4	19.2	0.00e+00	0	46	0	2435842048	60	14558
2026-01-28 08:11:44.31	339.19	14.84	-50.0	-51.6	19.0	0.00e+00	0	46	0	2442133504	60	14905
2026-01-28 08:11:45.32	339.06	14.75	-50.1	-51.6	18.8	0.00e+00	0	46	0	2447376384	60	14981
2026-01-28 08:11:46.32	338.94	14.67	-50.2	-51.8	18.6	0.00e+00	0	46	0	2452619264	60	15177
2026-01-28 08:11:47.33	338.81	14.58	-50.3	-51.9	18.5	0.00e+00	0	46	0	2458910720	60	15338
2026-01-28 08:11:48.33	338.69	14.50	-50.4	-51.9	18.4	0.00e+00	0	46	0	2464153600	60	15440
2026-01-28 08:11:49.33	338.56	14.42	-50.6	-52.1	18.3	0.00e+00	0	46	0	2469396480	60	15843
2026-01-28 08:11:50.33	338.44	14.33	-50.9	-52.4	18.0	0.00e+00	0	46	0	2475687936	60	16427
2026-01-28 08:11:51.34	338.32	14.25	-51.1	-52.6	17.7	0.00e+00	0	46	0	2480930816	60	16787
2026-01-28 08:11:52.34	338.20	14.16	-51.2	-52.7	17.6	0.00e+00	0	46	0	2487222272	60	16940
2026-01-28 08:11:53.35	338.07	14.08	-51.4	-52.9	17.4	0.00e+00	0	46	0	2492465152	60	17303
2026-01-28 08:11:54.36	337.95	14.00	-51.5	-53.1	17.2	0.00e+00	0	46	0	2498756608	60	17630
2026-01-28 08:11:55.36	337.83	13.91	-51.6	-53.1	17.2	0.00e+00	0	46	0	2503999488	60	17717
2026-01-28 08:11:56.36	337.71	13.83	-51.7	-53.4	17.0	0.00e+00	0	46	0	2510290944	60	18265
2026-01-28 08:11:57.37	337.60	13.75	-51.9	-53.6	16.7	0.00e+00	0	46	0	2515533824	60	18788
2026-01-28 08:11:58.37	337.48	13.67	-52.0	-53.8	16.5	0.00e+00	0	46	0	2520776704	60	19265
2026-01-28 08:11:59.38	337.36	13.58	-52.2	-54.0	16.3	0.00e+00	0	46	0	2527068160	60	19651
2026-01-28 08:12:00.39	337.24	13.50	-52.3	-54.3	16.0	0.00e+00	0	46	0	2532311040	60	20337
2026-01-28 08:12:01.39	337.13	13.42	-52.4	-54.5	15.8	0.00e+00	0	46	0	2537553920	60	20686
2026-01-28 08:12:02.40	337.01	13.34	-52.5	-54.7	15.5	0.00e+00	0	46	0	2543845376	60	21205
2026-01-28 08:12:03.40	336.90	13.25	-52.7	-54.9	15.3	0.00e+00	0	46	0	2549088256	60	21700
2026-01-28 08:12:04.41	336.79	13.17	-52.8	-55.1	14.9	0.00e+00	0	46	0	2554331136	60	22409
2026-01-28 08:12:05.41	336.67	13.09	-53.0	-55.4	14.7	0.00e+00	0	46	0	2560622592	60	23149
2026-01-28 08:12:06.42	336.56	13.01	-53.3	-55.8	14.4	1.10e-06	0	46	0	2565865472	60	24046
2026-01-28 08:12:07.42	336.45	12.93	-53.4	-56.0	14.1	3.40e-06	0	46	0	2572156928	60	24735
2026-01-28 08:12:08.42	336.34	12.85	-53.6	-56.3	13.8	4.50e-06	0	46	0	2577399808	60	25467
2026-01-28 08:12:09.43	336.23	12.77	-53.7	-56.4	13.5	1.02e-05	0	46	0	2582642688	60	25997
2026-01-28 08:12:10.43	336.12	12.69	-53.8	-56.6	13.3	3.66e-05	0	46	0	2588934144	60	26564
2026-01-28 08:12:11.44	336.01	12.60	-53.9	-56.8	13.0	7.20e-05	0	46	0	2594177024	60	27225
2026-01-28 08:12:12.44	335.90	12.52	-53.9	-57.1	12.7	7.89e-05	0	46	0	2599419904	60	27901
2026-01-28 08:12:13.45	335.79	12.44	-54.0	-57.3	12.3	1.41e-04	0	46	0	2605711360	60	28661
2026-01-28 08:12:14.45	335.68	12.36	-53.9	-57.6	11.9	3.94e-04	0	46	0	2612002816	60	29620
2026-01-28 08:12:15.46	335.58	12.28	-53.9	-57.8	11.6	8.09e-04	0	46	0	2617245696	60	30311
2026-01-28 08:12:16.47	335.47	12.20	-53.9	-58.1	11.2	1.32e-03	0	46	0	2622488576	60	31306
2026-01-28 08:12:17.48	335.36	12.12	-53.9	-58.3	10.9	2.47e-03	0	47	0	2628780032	60	32333
2026-01-28 08:12:18.48	335.26	12.04	-53.8	-58.6	10.6	3.37e-03	0	46	0	2634022912	60	33365
2026-01-28 08:12:19.49	335.15	11.96	-53.7	-58.7	10.3	5.40e-03	0	46	0	2639265792	60	33878
2026-01-28 08:12:20.49	335.05	11.89	-53.5	-59.0	9.9	9.29e-03	0	47	0	2645557248	60	34931
2026-01-28 08:12:21.50	334.95	11.81	-53.4	-59.3	9.6	1.60e-02	0	47	0	2650800128	60	36053
2026-01-28 08:12:22.50	334.84	11.73	-53.1	-59.5	9.0	2.39e-02	0	47	0	2657091584	60	36959
2026-01-28 08:12:23.51	334.74	11.65	-53.1	-59.6	8.8	3.29e-02	0	46	0	2662334464	60	37611
2026-01-28 08:12:24.52	334.64	11.57	-53.0	-59.8	8.4	4.91e-02	0	47	0	2667577344	60	38195
2026-01-28 08:12:25.52	334.54	11.49	-52.9	-59.9	8.2	5.97e-02	0	46	0	2673868800	60	38863
2026-01-28 08:12:26.52	334.44	11.41	-52.9	-60.1	7.8	8.05e-02	0	46	0	2679111680	60	39747
2026-01-28 08:12:27.53	334.34	11.33	-52.9	-60.4	7.6	9.99e-02	0	46	0	2684354560	60	40988
2026-01-28 08:12:28.54	334.24	11.26	-52.7	-60.5	7.3	1.14e-01	0	47	0	2690646016	60	41280
2026-01-28 08:12:29.53	334.14	11.18	-52.8	-60.7	7.1	1.43e-01	0	46	0	2695888896	60	42252
2026-01-28 08:12:30.54	334.04	11.10	-52.8	-60.9	6.9	1.62e-01	0	46	0	2701131776	60	43473
2026-01-28 08:12:31.54	333.94	11.02	-52.7	-61.1	6.7	1.96e-01	0	46	0	2707423232	60	44708
2026-01-28 08:12:32.55	333.85	10.95	-52.6	-61.4	6.5	2.23e-01	0	46	0	2712666112	60	45998
2026-01-28 08:12:33.56	333.75	10.87	-52.8	-61.6	6.3	2.56e-01	0	46	0	2718957568	60	47311
2026-01-28 08:12:34.56	333.65	10.79	-53.0	-62.0	6.1	2.87e-01	0	46	0	2724200448	60	49094
2026-01-28 08:12:35.57	333.56	10.72	-52.9	-62.1	5.9	3.33e-01	0	46	0	2730491904	60	50157
2026-01-28 08:12:36.58	333.46	10.64	-53.2	-62.4	5.7	3.80e-01	0	47	0	2735734784	60	51609
2026-01-28 08:12:37.58	333.37	10.56	-53.2	-62.7	5.5	4.40e-01	0	47	0	2740977664	60	53211
2026-01-28 08:12:38.59	333.27	10.49	-53.2	-62.8	5.3	5.52e-01	0	47	0	2746220544	60	53830
2026-01-28 08:12:39.59	333.18	10.41	-53.5	-62.9	5.3	6.89e-01	0	47	0	2748317696	60	54882
2026-01-28 08:12:40.60	333.09	10.33	-53.7	-63.1	5.1	7.11e-01	0	47	0	2750414848	60	56137
2026-01-28 08:12:41.60	332.99	10.26	-53.9	-63.4	5.0	7.27e-01	0	47	0	2752512000	60	57628
2026-01-28 08:12:42.60	332.90	10.18	-54.3	-63.6	4.9	7.48e-01	0	46	0	2753560576	60	59154
2026-01-28 08:12:43.61	332.81	10.11	-54.6	-63.8	4.7	7.59e-01	0	46	0	2753560576	60	60948
2026-01-28 08:12:44.61	332.72	10.03	-54.8	-64.1	4.6	7.79e-01	0	47	0	2754609152	60	63020
2026-01-28 08:12:45.62	332.63	9.96	-55.1	-64.4	4.4	7.91e-01	0	46	0	2754609152	60	65384
2026-01-28 08:12:46.63	332.54	9.88	-55.2	-64.7	4.3	8.06e-01	0	47	0	2754609152	60	67302
2026-01-28 08:12:47.63	332.45	9.81	-55.2	-64.7	4.3	8.08e-01	0	46	0	2754609152	60	67606
2026-01-28 08:12:48.64	332.36	9.73	-55.6	-65.1	4.1	8.14e-01	0	47	0	2754609152	60	70097
2026-01-28 08:12:49.64	332.27	9.66	-55.6	-65.1	4.1	8.20e-01	0	47	0	2754609152	60	70609
2026-01-28 08:12:50.65	332.18	9.58	-55.9	-65.4	4.1	8.24e-01	0	47	0	2754609152	60	72854
2026-01-28 08:12:51.66	332.09	9.51	-56.3	-65.7	3.9	8.28e-01	0	46	0	2754609152	60	75185
2026-01-28 08:12:52.67	332.01	9.43	-56.5	-65.9	3.8	8.32e-01	0	46	0	2754609152	60	77559
2026-01-28 08:12:53.67	331.92	9.36	-56.7	-66.2	3.8	8.34e-01	0	46	0	2754609152	60	80249
2026-01-28 08:12:54.68	331.83	9.29	-56.8	-67.7	4.0	8.41e-01	0	47	104	2754609152	60	94889
2026-01-28 08:12:55.69	331.75	9.21	-56.9	-67.9	3.7	8.38e-01	0	47	104	2754609152	60	97643
2026-01-28 08:12:56.69	331.66	9.14	-56.9	-68.1	3.7	8.41e-01	0	46	104	2754609152	60	99521
2026-01-28 08:12:57.70	331.58	9.06	-57.1	-68.1	3.7	8.42e-01	0	47	104	2754609152	60	99964
2026-01-28 08:12:58.71	331.49	8.99	-57.2	-68.5	3.7	8.43e-01	0	47	104	2754609152	60	104431
2026-01-28 08:12:59.71	331.41	8.92	-57.3	-68.8	3.7	8.44e-01	0	46	104	2754609152	60	107941
2026-01-28 08:13:00.72	331.32	8.84	-57.4	-69.0	3.7	8.43e-01	0	46	104	2754609152	60	110823
2026-01-28 08:13:01.73	331.24	8.77	-57.4	-69.2	3.6	8.45e-01	0	46	104	2754609152	60	112769
2026-01-28 08:13:02.74	331.16	8.70	-57.3	-69.3	3.6	8.45e-01	0	47	104	2754609152	60	113901
2026-01-28 08:13:03.74	331.07	8.63	-57.3	-69.3	3.6	8.45e-01	0	46	104	2754609152	60	114213
2026-01-28 08:13:04.75	330.99	8.55	-57.4	-70.4	3.6	8.44e-01	0	46	104	2754609152	60	130330
2026-01-28 08:13:05.75	330.91	8.48	-57.6	-70.1	3.6	8.46e-01	0	47	104	2754609152	60	125140
2026-01-28 08:13:06.76	330.83	8.41	-57.6	-70.8	3.6	8.45e-01	0	46	104	2754609152	60	135340
2026-01-28 08:13:07.76	330.75	8.34	-57.2	-69.4	3.6	8.45e-01	0	46	104	2754609152	60	116238
2026-01-28 08:13:08.76	330.67	8.27	-57.2	-69.9	3.6	8.46e-01	0	47	104	2754609152	60	122207
2026-01-28 08:13:09.77	330.59	8.20	-57.2	-69.7	3.6	8.46e-01	0	47	104	2754609152	60	119723
2026-01-28 08:13:10.78	330.51	8.12	-57.2	-69.9	3.6	8.45e-01	0	47	104	2754609152	60	122762
2026-01-28 08:13:11.79	330.43	8.05	-57.6	-70.7	3.6	8.45e-01	0	47	104	2754609152	60	134007
2026-01-28 08:13:12.80	330.35	7.98	-57.3	-70.7	3.5	8.45e-01	0	47	104	2754609152	60	134855
2026-01-28 08:13:13.80	330.27	7.91	-57.6	-70.7	3.6	8.45e-01	0	47	104	2754609152	60	133750
2026-01-28 08:13:14.81	330.19	7.84	-57.7	-70.5	3.6	8.45e-01	0	47	104	2754609152	60	131440
2026-01-28 08:13:15.81	330.12	7.77	-57.0	-70.7	3.6	8.46e-01	0	47	104	2754609152	60	134169
2026-01-28 08:13:16.82	330.04	7.70	-57.3	-70.6	3.6	8.46e-01	0	47	104	2754609152	60	133341
2026-01-28 08:13:17.82	329.96	7.63	-57.3	-70.6	3.6	8.45e-01	0	47	104	2754609152	60	132105
2026-01-28 08:13:18.83	329.89	7.56	-57.6	-70.7	3.6	8.46e-01	0	47	104	2754609152	60	133668
2026-01-28 08:13:19.84	329.81	7.49	-57.3	-70.7	3.6	8.45e-01	0	47	104	2754609152	60	134449
2026-01-28 08:13:20.84	329.74	7.42	-57.3	-70.6	3.6	8.46e-01	0	47	104	2754609152	60	133475
2026-01-28 08:13:21.85	329.66	7.35	-57.2	-70.7	3.6	8.47e-01	0	46	104	2754609152	60	134263
2026-01-28 08:13:22.85	329.59	7.28	-57.4	-70.8	3.6	8.46e-01	0	47	104	2754609152	60	135636
2026-01-28 08:13:23.86	329.51	7.21	-57.2	-70.6	3.6	8.46e-01	0	47	104	2754609152	60	133171
2026-01-28 08:13:24.86	329.44	7.14	-57.3	-70.6	3.6	8.45e-01	0	47	104	2754609152	60	132593
2026-01-28 08:13:25.87	329.36	7.07	-57.2	-70.7	3.6	8.45e-01	0	46	104	2754609152	60	134729
2026-01-28 08:13:26.87	329.29	7.00	-57.3	-70.8	3.6	8.45e-01	0	47	104	2754609152	60	135945
2026-01-28 08:13:27.87	329.22	6.93	-57.1	-70.6	3.6	8.46e-01	0	46	104	2754609152	60	132896
2026-01-28 08:13:28.88	329.14	6.86	-57.2	-70.6	3.6	8.45e-01	0	46	104	2754609152	60	132381
2026-01-28 08:13:29.88	329.07	6.79	-57.3	-70.8	3.6	8.45e-01	0	47	104	2754609152	60	135125
2026-01-28 08:13:30.89	329.00	6.72	-57.2	-70.8	3.6	8.45e-01	0	46	104	2754609152	60	136001
2026-01-28 08:13:31.89	328.93	6.66	-56.9	-70.5	3.6	8.44e-01	0	46	104	2754609152	60	130740
2026-01-28 08:13:32.90	328.86	6.59	-57.2	-70.5	3.6	8.44e-01	0	46	104	2754609152	60	131866
2026-01-28 08:13:33.90	328.79	6.52	-57.3	-70.7	3.6	8.46e-01	0	47	104	2754609152	60	134903
2026-01-28 08:13:34.90	328.72	6.45	-56.9	-70.9	3.6	8.46e-01	0	47	104	2754609152	60	136648
2026-01-28 08:13:35.91	328.65	6.38	-56.7	-70.3	3.6	8.45e-01	0	46	104	2754609152	60	128121
2026-01-28 08:13:36.91	328.58	6.32	-57.1	-70.4	3.6	8.45e-01	0	46	104	2754609152	60	129669
2026-01-28 08:13:37.91	328.51	6.25	-57.3	-70.7	3.6	8.45e-01	0	46	104	2754609152	60	134053
2026-01-28 08:13:38.91	328.44	6.18	-56.9	-70.7	3.6	8.46e-01	0	47	104	2754609152	60	133633
2026-01-28 08:13:39.91	328.37	6.12	-56.5	-70.1	3.6	8.46e-01	0	46	104	2754609152	60	125924
2026-01-28 08:13:40.92	328.30	6.05	-56.4	-70.0	3.6	8.45e-01	0	46	104	2754609152	60	123582
2026-01-28 08:13:41.92	328.23	5.98	-57.2	-70.7	3.5	8.45e-01	0	47	104	2754609152	60	134997
2026-01-28 08:13:42.93	328.17	5.91	-51.3	-68.7	3.6	8.46e-01	0	46	104	2754609152	60	106961
2026-01-28 08:13:43.93	328.10	5.85	-57.3	-71.7	3.6	8.46e-01	0	47	104	2754609152	60	149853
2026-01-28 08:13:44.94	328.03	5.78	-59.7	-73.2	3.6	8.46e-01	0	47	104	2754609152	60	179118
2026-01-28 08:13:45.95	327.96	5.71	-59.9	-73.4	3.6	8.45e-01	0	47	104	2754609152	60	182887
2026-01-28 08:13:46.95	327.90	5.65	-60.0	-73.7	3.6	8.45e-01	0	47	104	2754609152	60	188974
2026-01-28 08:13:47.96	327.83	5.58	-59.2	-73.6	3.6	8.44e-01	0	46	104	2754609152	60	187669
2026-01-28 08:13:48.96	327.77	5.52	-58.6	-73.7	3.6	8.45e-01	0	46	104	2754609152	60	188836
2026-01-28 08:13:49.96	327.70	5.45	-60.5	-74.0	3.6	8.46e-01	0	47	104	2754609152	60	196245
2026-01-28 08:13:50.97	327.64	5.38	-60.8	-74.1	3.6	8.46e-01	0	46	104	2754609152	60	199276
2026-01-28 08:13:51.97	327.57	5.32	-60.7	-74.2	3.6	8.45e-01	0	46	104	2754609152	60	201229
2026-01-28 08:13:52.97	327.51	5.25	-60.7	-74.2	3.6	8.46e-01	0	46	104	2754609152	60	200655
2026-01-28 08:13:53.98	327.44	5.19	-59.5	-74.1	3.6	8.44e-01	0	46	104	2754609152	60	197732
2026-01-28 08:13:54.98	327.38	5.12	-61.2	-74.6	3.6	8.46e-01	0	46	104	2754609152	60	209931
2026-01-28 08:13:55.99	327.31	5.06	-60.4	-74.7	3.6	8.46e-01	0	46	104	2754609152	60	212083
2026-01-28 08:13:56.99	327.25	4.99	-60.3	-74.6	3.6	8.46e-01	0	46	104	2754609152	60	209693
2026-01-28 08:13:58.00	327.19	4.93	-60.2	-74.9	3.6	8.46e-01	0	46	104	2754609152	60	217962
2026-01-28 08:13:59.00	327.13	4.86	-58.3	-74.4	3.6	8.45e-01	0	46	104	2754609152	60	205678
2026-01-28 08:14:00.01	327.06	4.80	-58.7	-74.2	3.6	8.44e-01	0	46	104	2754609152	60	200090
2026-01-28 08:14:01.01	327.00	4.73	-59.8	-74.7	3.6	8.45e-01	0	46	104	2754609152	60	211951
2026-01-28 08:14:02.02	326.94	4.67	-59.9	-74.6	3.6	8.45e-01	0	46	104	2754609152	60	210180
2026-01-28 08:14:03.02	326.88	4.60	-59.9	-74.9	3.6	8.46e-01	0	46	104	2754609152	60	216577
2026-01-28 08:14:04.03	326.82	4.54	-59.9	-74.9	3.6	8.45e-01	0	46	104	2754609152	60	216949
2026-01-28 08:14:05.03	326.76	4.47	-59.8	-74.7	3.6	8.46e-01	0	46	104	2754609152	60	212492
2026-01-28 08:14:06.04	326.69	4.41	-59.8	-74.6	3.6	8.46e-01	0	46	104	2754609152	60	211181
2026-01-28 08:14:07.04	326.63	4.35	-59.8	-74.6	3.6	8.45e-01	0	46	104	2754609152	60	211607
2026-01-28 08:14:08.05	326.57	4.28	-59.8	-74.9	3.6	8.46e-01	0	47	104	2754609152	60	217714
2026-01-28 08:14:09.06	326.51	4.22	-59.8	-74.7	3.6	8.45e-01	0	47	104	2754609152	60	211773
2026-01-28 08:14:10.07	326.45	4.16	-59.8	-74.7	3.6	8.45e-01	0	47	104	2754609152	60	211921
2026-01-28 08:14:11.08	326.39	4.09	-59.8	-74.8	3.6	8.46e-01	0	47	104	2754609152	60	214719
2026-01-28 08:14:12.08	326.34	4.03	-59.7	-74.6	3.6	8.44e-01	0	47	104	2754609152	60	211070
2026-01-28 08:14:13.09	326.28	3.96	-59.7	-74.6	3.6	8.45e-01	0	46	104	2754609152	60	211610
2026-01-28 08:14:14.10	326.22	3.90	-59.7	-74.7	3.6	8.45e-01	0	47	104	2754609152	60	212924
2026-01-28 08:14:15.11	326.16	3.84	-59.7	-74.6	3.6	8.46e-01	0	46	104	2754609152	60	209618
2026-01-28 08:14:16.11	326.10	3.78	-59.7	-74.6	3.6	8.47e-01	0	46	104	2754609152	60	210112
2026-01-28 08:14:17.12	326.04	3.71	-59.7	-74.8	3.5	8.44e-01	0	47	104	2754609152	60	214130
2026-01-28 08:14:18.13	325.99	3.65	-59.7	-74.6	3.6	8.46e-01	0	46	104	2754609152	60	209491
2026-01-28 08:14:19.14	325.93	3.59	-59.8	-74.7	3.6	8.47e-01	0	46	104	2754609152	60	212109
2026-01-28 08:14:20.15	325.87	3.52	-59.8	-74.8	3.6	8.45e-01	0	46	104	2754609152	60	215203
2026-01-28 08:14:21.16	325.81	3.46	-59.7	-74.6	3.6	8.45e-01	0	46	104	2754609152	60	210232
2026-01-28 08:14:22.16	325.76	3.40	-59.7	-74.7	3.6	8.45e-01	0	46	104	2754609152	60	213747
2026-01-28 08:14:23.17	325.70	3.34	-59.7	-74.6	3.6	8.44e-01	0	46	104	2754609152	60	209515
2026-01-28 08:14:24.18	325.64	3.28	-59.6	-74.7	3.6	8.45e-01	0	46	104	2754609152	60	212695
2026-01-28 08:14:25.19	325.59	3.21	-59.7	-74.5	3.6	8.45e-01	0	46	104	2754609152	60	208009
2026-01-28 08:14:26.19	325.53	3.15	-59.6	-74.5	3.6	8.46e-01	0	47	104	2754609152	60	209040
2026-01-28 08:14:27.20	325.48	3.09	-59.6	-74.6	3.6	8.45e-01	0	46	104	2754609152	60	209350
2026-01-28 08:14:28.20	325.42	3.03	-59.6	-74.7	3.6	8.45e-01	0	46	104	2754609152	60	213013
2026-01-28 08:14:29.21	325.37	2.97	-59.6	-74.7	3.6	8.45e-01	0	47	104	2754609152	60	212036
2026-01-28 08:14:30.21	325.31	2.91	-59.6	-74.6	3.6	8.43e-01	0	46	104	2754609152	60	211527
2026-01-28 08:14:31.22	325.26	2.84	-59.6	-74.5	3.6	8.45e-01	0	46	104	2754609152	60	208882
2026-01-28 08:14:32.23	325.21	2.78	-59.6	-74.6	3.5	8.45e-01	0	46	104	2754609152	60	211545
2026-01-28 08:14:33.24	325.15	2.72	-59.5	-74.6	3.6	8.46e-01	0	46	104	2754609152	60	211504
2026-01-28 08:14:34.25	325.10	2.66	-59.6	-74.5	3.5	8.45e-01	0	47	104	2754609152	60	208746
2026-01-28 08:14:35.26	325.04	2.60	-59.5	-74.6	3.6	8.45e-01	0	46	104	2754609152	60	211585
2026-01-28 08:14:36.27	324.99	2.54	-59.5	-74.6	3.6	8.46e-01	0	46	104	2754609152	60	210473
2026-01-28 08:14:37.27	324.94	2.48	-59.5	-74.6	3.6	8.44e-01	0	46	104	2754609152	60	210042
2026-01-28 08:14:38.28	324.89	2.42	-59.5	-74.6	3.6	8.45e-01	0	47	104	2754609152	60	209436
2026-01-28 08:14:39.28	324.83	2.36	-59.5	-74.6	3.6	8.44e-01	0	46	104	2754609152	60	211467
2026-01-28 08:14:40.29	324.78	2.30	-59.5	-74.7	3.5	8.46e-01	0	47	104	2754609152	60	212764
2026-01-28 08:14:41.30	324.73	2.24	-59.5	-74.5	3.6	8.44e-01	0	46	104	2754609152	60	209163
2026-01-28 08:14:42.31	324.68	2.18	-59.5	-74.4	3.6	8.46e-01	0	46	104	2754609152	60	204805
2026-01-28 08:14:43.31	324.63	2.12	-59.4	-74.4	3.6	8.45e-01	0	46	104	2754609152	60	206365
2026-01-28 08:14:44.32	324.58	2.06	-59.4	-74.5	3.6	8.45e-01	0	47	104	2754609152	60	208097
2026-01-28 08:14:45.32	324.52	2.00	-59.4	-74.4	3.6	8.46e-01	0	47	104	2754609152	60	206290
2026-01-28 08:14:46.33	324.47	1.94	-59.5	-74.5	3.6	8.46e-01	0	46	104	2754609152	60	208732
2026-01-28 08:14:47.34	324.42	1.88	-59.4	-74.4	3.6	8.45e-01	0	46	104	2754609152	60	206049
2026-01-28 08:14:48.35	324.37	1.82	-59.4	-74.7	3.6	8.45e-01	0	46	104	2754609152	60	213052
2026-01-28 08:14:49.36	324.32	1.76	-59.4	-74.5	3.6	8.45e-01	0	46	104	2754609152	60	209038
2026-01-28 08:14:50.36	324.27	1.70	-59.4	-74.6	3.6	8.46e-01	0	46	104	2754609152	60	209922
2026-01-28 08:14:51.37	324.22	1.64	-59.4	-74.7	3.6	8.44e-01	0	46	104	2754609152	60	211937
2026-01-28 08:14:52.38	324.17	1.58	-59.4	-74.4	3.6	8.44e-01	0	46	104	2754609152	60	206606
2026-01-28 08:14:53.39	324.12	1.52	-59.4	-74.6	3.6	8.46e-01	0	47	104	2754609152	60	210198
2026-01-28 08:14:54.39	324.07	1.46	-59.4	-74.5	3.6	8.45e-01	0	47	104	2754609152	60	208700
2026-01-28 08:14:55.40	324.03	1.40	-59.4	-74.4	3.6	8.45e-01	0	46	104	2754609152	60	205201
2026-01-28 08:14:56.41	323.98	1.35	-59.4	-74.5	3.6	8.45e-01	0	47	104	2754609152	60	207891
2026-01-28 08:14:57.42	323.93	1.29	-59.3	-74.5	3.6	8.46e-01	0	47	104	2754609152	60	207361
2026-01-28 08:14:58.43	323.88	1.23	-59.3	-74.3	3.6	8.45e-01	0	46	104	2754609152	60	203236
2026-01-28 08:14:59.43	323.83	1.17	-59.5	-74.5	3.6	8.46e-01	0	47	104	2754609152	60	207102
2026-01-28 08:15:00.44	323.78	1.11	-59.5	-74.3	3.6	8.45e-01	0	47	104	2754609152	60	204151
2026-01-28 08:15:01.44	323.74	1.05	-59.4	-74.4	3.6	8.46e-01	0	47	104	2754609152	60	206216
2026-01-28 08:15:02.45	323.69	1.00	-59.4	-74.5	3.6	8.45e-01	0	46	104	2754609152	60	209084
2026-01-28 08:15:03.46	323.64	0.94	-59.4	-74.3	3.6	8.44e-01	0	47	104	2754609152	60	204043
2026-01-28 08:15:04.47	323.60	0.88	-59.5	-74.5	3.6	8.45e-01	0	46	104	2754609152	60	206954
2026-01-28 08:15:05.47	323.55	0.82	-59.6	-74.3	3.6	8.45e-01	0	46	104	2754609152	60	202959
2026-01-28 08:15:06.48	323.50	0.76	-59.5	-74.3	3.6	8.44e-01	0	47	104	2754609152	60	204379
