passes_logs/2026/01/28/R3.2S-Naryan-Mar/R3.2S-Naryan-Mar__20260128_100358_TY-42_rec.log

#Pass ID: 20260128_100358_TY-42
#Satellite: TY-42
#Configuration: TY-42
#almurnet v.1.7.20240730
#Start time: 2026-01-28 10:04:01

#Version: 2.2.20231116
#Station: R3.2S-Naryan-Mar
#Location: 53.008057 lon 67.646978 lat
#TLE: 1 64048U 25103A   26027.88263889  .00008008  00000-0  38191-3 0 09993
#TLE: 2 64048 097.4119 103.0583 0001740 093.1169 297.5293 15.19162476 38770

#Time	Az	El	Level	Level2	SNR	BER	BlckErr	Temp	State	Recorded	gain1	gain2
2026-01-28 10:04:01.36	24.13	0.16	-56.9	-72.9	3.5	8.44e-01	0	44	0	0	60	172518
2026-01-28 10:04:02.36	24.06	0.22	-57.1	-60.9	3.6	0.00e+00	0	45	104	0	60	131132
2026-01-28 10:04:03.36	23.99	0.28	-57.6	-61.3	3.6	0.00e+00	0	45	104	0	60	137961
2026-01-28 10:04:04.37	23.92	0.34	-57.3	-61.4	3.5	0.00e+00	0	45	104	0	60	138476
2026-01-28 10:04:05.37	23.84	0.40	-56.8	-61.0	3.6	0.00e+00	0	45	104	0	60	133183
2026-01-28 10:04:06.38	23.77	0.45	-55.3	-59.6	3.6	0.00e+00	0	45	104	0	60	112350
2026-01-28 10:04:07.38	23.70	0.51	-54.4	-59.3	3.6	0.00e+00	0	46	104	0	60	109120
2026-01-28 10:04:08.39	23.62	0.57	-54.5	-59.0	3.6	0.00e+00	0	46	104	0	60	105382
2026-01-28 10:04:09.39	23.55	0.63	-53.9	-58.1	3.6	0.00e+00	0	46	104	0	60	95537
2026-01-28 10:04:10.40	23.47	0.69	-53.3	-58.2	3.6	0.00e+00	0	46	104	0	60	96376
2026-01-28 10:04:11.40	23.40	0.75	-49.4	-55.2	3.6	0.00e+00	0	46	104	0	60	68352
2026-01-28 10:04:12.41	23.32	0.81	-53.2	-56.7	3.6	0.00e+00	0	46	104	0	60	80881
2026-01-28 10:04:13.42	23.25	0.87	-48.9	-55.5	3.6	0.00e+00	0	46	104	0	60	70847
2026-01-28 10:04:14.42	23.17	0.93	-52.6	-56.2	3.6	0.00e+00	0	46	104	0	60	76512
2026-01-28 10:04:15.43	23.09	0.99	-48.3	-54.2	3.6	0.00e+00	0	46	104	0	60	60545
2026-01-28 10:04:16.44	23.01	1.05	-50.1	-55.4	3.6	0.00e+00	0	46	104	0	60	69598
2026-01-28 10:04:17.44	22.94	1.11	-50.0	-55.2	3.6	0.00e+00	0	46	104	0	60	68459
2026-01-28 10:04:18.45	22.86	1.17	-50.1	-55.2	3.6	0.00e+00	0	46	104	0	60	68470
2026-01-28 10:04:19.45	22.78	1.23	-50.1	-55.2	3.6	0.00e+00	0	46	104	0	60	68402
2026-01-28 10:04:20.46	22.70	1.29	-50.1	-55.2	3.6	0.00e+00	0	46	104	0	60	68468
2026-01-28 10:04:21.46	22.62	1.35	-50.2	-55.4	3.6	0.00e+00	0	46	104	0	60	69277
2026-01-28 10:04:22.47	22.54	1.41	-50.0	-55.3	3.6	0.00e+00	0	46	104	0	60	68616
2026-01-28 10:04:23.48	22.46	1.47	-49.7	-55.3	3.6	0.00e+00	0	46	104	0	60	68929
2026-01-28 10:04:24.48	22.38	1.53	-50.1	-55.3	3.6	0.00e+00	0	46	104	0	60	68902
2026-01-28 10:04:25.49	22.30	1.60	-50.0	-55.3	3.6	0.00e+00	0	46	104	0	60	68959
2026-01-28 10:04:26.49	22.22	1.66	-50.0	-55.3	3.6	0.00e+00	0	46	104	0	60	68756
2026-01-28 10:04:27.50	22.14	1.72	-50.0	-55.3	3.6	0.00e+00	0	46	104	0	60	68791
2026-01-28 10:04:28.51	22.05	1.78	-50.0	-55.3	3.6	0.00e+00	0	46	104	0	60	68825
2026-01-28 10:04:29.51	21.97	1.84	-49.9	-55.3	3.6	0.00e+00	0	46	104	0	60	68980
2026-01-28 10:04:30.52	21.89	1.90	-50.0	-55.2	3.6	0.00e+00	0	46	104	0	60	68360
2026-01-28 10:04:31.53	21.80	1.96	-50.0	-55.4	3.6	0.00e+00	0	46	104	0	60	69286
2026-01-28 10:04:32.54	21.72	2.03	-49.9	-55.3	3.6	0.00e+00	0	46	104	0	60	69015
2026-01-28 10:04:33.54	21.63	2.09	-49.9	-55.3	3.6	0.00e+00	0	46	104	0	60	68999
2026-01-28 10:04:34.55	21.55	2.15	-49.9	-55.3	3.6	0.00e+00	0	47	104	0	60	69010
2026-01-28 10:04:35.56	21.46	2.21	-50.1	-55.4	3.6	0.00e+00	0	47	104	0	60	69621
2026-01-28 10:04:36.57	21.37	2.28	-50.1	-55.4	3.6	0.00e+00	0	47	104	0	60	69375
2026-01-28 10:04:37.57	21.29	2.34	-50.1	-55.4	3.6	0.00e+00	0	47	104	0	60	69524
2026-01-28 10:04:38.57	21.20	2.40	-50.2	-55.5	3.6	0.00e+00	0	47	104	0	60	70279
2026-01-28 10:04:39.58	21.11	2.46	-50.2	-55.5	3.6	0.00e+00	0	47	104	0	60	70145
2026-01-28 10:04:40.58	21.02	2.53	-50.1	-55.5	3.6	0.00e+00	0	47	104	0	60	70171
2026-01-28 10:04:41.59	20.93	2.59	-50.2	-55.5	3.6	0.00e+00	0	47	104	0	60	70525
2026-01-28 10:04:42.59	20.85	2.65	-50.2	-55.5	3.6	0.00e+00	0	47	104	0	60	70323
2026-01-28 10:04:43.60	20.76	2.72	-50.1	-55.5	3.6	0.00e+00	0	47	104	0	60	70231
2026-01-28 10:04:44.61	20.66	2.78	-50.1	-55.5	3.6	0.00e+00	0	47	104	0	60	70258
2026-01-28 10:04:45.62	20.57	2.84	-50.2	-55.5	3.6	0.00e+00	0	47	104	0	60	70553
2026-01-28 10:04:46.63	20.48	2.91	-50.2	-55.5	3.6	0.00e+00	0	47	104	0	60	70700
2026-01-28 10:04:47.63	20.39	2.97	-50.3	-55.5	3.6	0.00e+00	0	47	104	0	60	70804
2026-01-28 10:04:48.64	20.30	3.04	-50.0	-55.5	3.6	0.00e+00	0	47	104	0	60	70753
2026-01-28 10:04:49.65	20.20	3.10	-50.2	-55.5	3.6	0.00e+00	0	46	104	0	60	70850
2026-01-28 10:04:50.65	20.11	3.16	-49.7	-55.5	3.6	0.00e+00	0	47	104	0	60	70707
2026-01-28 10:04:51.66	20.02	3.23	-50.2	-55.5	3.6	0.00e+00	0	47	104	0	60	70636
2026-01-28 10:04:52.67	19.92	3.29	-50.1	-55.4	3.6	0.00e+00	0	47	104	0	60	70028
2026-01-28 10:04:53.67	19.83	3.36	-50.0	-55.4	3.6	0.00e+00	0	47	104	0	60	69896
2026-01-28 10:04:54.68	19.73	3.42	-50.0	-55.4	3.6	0.00e+00	0	47	104	0	60	69958
2026-01-28 10:04:55.69	19.63	3.49	-49.9	-55.3	3.6	0.00e+00	0	47	104	0	60	69194
2026-01-28 10:04:56.70	19.54	3.55	-50.0	-55.4	3.5	0.00e+00	0	47	104	0	60	69352
2026-01-28 10:04:57.70	19.44	3.62	-50.2	-55.4	3.6	0.00e+00	0	47	104	0	60	69913
2026-01-28 10:04:58.71	19.34	3.69	-50.1	-55.4	3.6	0.00e+00	0	47	104	0	60	69550
2026-01-28 10:04:59.72	19.24	3.75	-50.2	-55.4	3.6	0.00e+00	0	47	104	0	60	69926
2026-01-28 10:05:00.72	19.14	3.82	-50.2	-55.5	3.6	0.00e+00	0	47	104	0	60	70676
2026-01-28 10:05:01.73	19.04	3.88	-49.9	-55.3	3.6	0.00e+00	0	47	104	0	60	68603
2026-01-28 10:05:02.74	18.94	3.95	-50.0	-55.4	3.6	0.00e+00	0	47	104	0	60	69473
2026-01-28 10:05:03.74	18.84	4.01	-50.0	-55.4	3.6	0.00e+00	0	47	104	0	60	69523
2026-01-28 10:05:04.75	18.74	4.08	-50.1	-55.4	3.6	0.00e+00	0	47	104	0	60	69597
2026-01-28 10:05:05.76	18.64	4.15	-50.1	-55.4	3.6	0.00e+00	0	47	104	0	60	69938
2026-01-28 10:05:06.76	18.53	4.21	-49.7	-55.5	3.6	0.00e+00	0	47	104	0	60	70083
2026-01-28 10:05:07.77	18.43	4.28	-50.2	-55.5	3.6	0.00e+00	0	47	104	0	60	70783
2026-01-28 10:05:08.78	18.33	4.35	-50.3	-55.5	3.6	0.00e+00	0	47	104	0	60	70826
2026-01-28 10:05:09.79	18.22	4.42	-50.3	-55.5	3.6	0.00e+00	0	47	104	0	60	70854
2026-01-28 10:05:10.79	18.12	4.48	-50.3	-55.6	3.6	0.00e+00	0	47	104	0	60	70949
2026-01-28 10:05:11.80	18.01	4.55	-50.2	-55.5	3.6	0.00e+00	0	47	104	0	60	70664
2026-01-28 10:05:12.80	17.90	4.62	-50.2	-55.5	3.6	0.00e+00	0	47	104	0	60	70604
2026-01-28 10:05:13.80	17.80	4.68	-50.1	-55.4	3.6	0.00e+00	0	47	104	0	60	70006
2026-01-28 10:05:14.81	17.69	4.75	-50.0	-55.5	3.6	0.00e+00	0	47	104	0	60	70234
2026-01-28 10:05:15.82	17.58	4.82	-49.6	-55.4	3.6	0.00e+00	0	47	104	0	60	69819
2026-01-28 10:05:16.83	17.47	4.89	-50.0	-55.5	3.6	0.00e+00	0	47	104	0	60	70241
2026-01-28 10:05:17.83	17.36	4.96	-50.1	-55.5	3.6	0.00e+00	0	47	104	0	60	70836
2026-01-28 10:05:18.84	17.25	5.02	-50.1	-55.4	3.6	0.00e+00	0	47	104	0	60	69989
2026-01-28 10:05:19.85	17.14	5.09	-50.2	-55.5	3.6	0.00e+00	0	47	104	0	60	70525
2026-01-28 10:05:20.86	17.03	5.16	-50.2	-55.6	3.6	0.00e+00	0	47	104	0	60	70980
2026-01-28 10:05:21.87	16.91	5.23	-50.2	-55.5	3.6	0.00e+00	0	47	104	0	60	70520
2026-01-28 10:05:22.87	16.80	5.30	-50.2	-55.5	3.6	0.00e+00	0	47	104	0	60	70510
2026-01-28 10:05:23.88	16.69	5.37	-50.0	-55.5	3.6	0.00e+00	0	47	104	0	60	70499
2026-01-28 10:05:24.88	16.57	5.44	-50.0	-55.5	3.5	0.00e+00	0	47	104	0	60	70219
2026-01-28 10:05:25.89	16.46	5.51	-50.0	-55.4	3.6	0.00e+00	0	47	104	0	60	70043
2026-01-28 10:05:26.89	16.34	5.58	-50.0	-55.5	3.6	0.00e+00	0	47	104	0	60	70589
2026-01-28 10:05:27.90	16.22	5.65	-50.3	-55.6	3.6	0.00e+00	0	47	104	0	60	71703
2026-01-28 10:05:28.91	16.11	5.72	-50.1	-55.6	3.6	0.00e+00	0	47	104	0	60	71039
2026-01-28 10:05:29.92	15.99	5.79	-50.2	-55.6	3.6	0.00e+00	0	47	104	0	60	71369
2026-01-28 10:05:30.92	15.87	5.86	-50.2	-55.5	3.6	0.00e+00	0	47	104	0	60	70814
2026-01-28 10:05:31.93	15.75	5.93	-49.8	-55.5	3.6	0.00e+00	0	47	104	0	60	70659
2026-01-28 10:05:32.94	15.63	6.00	-50.2	-55.6	3.6	0.00e+00	0	47	104	0	60	71078
2026-01-28 10:05:33.94	15.51	6.07	-49.4	-54.7	3.6	0.00e+00	0	47	104	0	60	64406
2026-01-28 10:05:34.94	15.39	6.14	-49.4	-54.6	3.6	0.00e+00	0	47	104	0	60	63638
2026-01-28 10:05:35.95	15.26	6.21	-50.7	-55.7	3.6	0.00e+00	0	47	104	0	60	71747
2026-01-28 10:05:36.96	15.14	6.28	-49.6	-54.7	3.6	0.00e+00	0	47	104	0	60	64505
2026-01-28 10:05:37.96	15.01	6.35	-48.5	-54.7	3.6	0.00e+00	0	47	104	0	60	64185
2026-01-28 10:05:38.97	14.89	6.42	-48.7	-53.9	3.6	0.00e+00	0	47	104	0	60	58351
2026-01-28 10:05:39.98	14.76	6.49	-49.3	-54.2	3.6	0.00e+00	0	47	104	0	60	60610
2026-01-28 10:05:40.98	14.64	6.57	-49.9	-54.7	3.6	0.00e+00	0	47	104	0	60	64000
2026-01-28 10:05:41.99	14.51	6.64	-53.5	-57.3	3.6	0.00e+00	0	47	104	0	60	86554
2026-01-28 10:05:42.99	14.38	6.71	-51.1	-56.2	3.6	0.00e+00	0	47	104	0	60	76098
2026-01-28 10:05:43.99	14.25	6.78	-49.0	-54.1	3.6	0.00e+00	0	47	104	0	60	60053
2026-01-28 10:05:45.00	14.12	6.85	-49.6	-55.6	3.6	0.00e+00	0	47	104	0	60	71021
2026-01-28 10:05:46.00	13.99	6.93	-48.3	-53.5	3.6	0.00e+00	0	47	104	0	60	56204
2026-01-28 10:05:47.01	13.86	7.00	-48.3	-53.6	3.6	0.00e+00	0	47	104	0	60	56473
2026-01-28 10:05:48.01	13.73	7.07	-48.9	-53.9	3.6	0.00e+00	0	47	104	0	60	58721
2026-01-28 10:05:49.02	13.59	7.14	-49.7	-54.4	3.5	0.00e+00	0	47	104	0	60	62323
2026-01-28 10:05:50.02	13.46	7.22	-48.9	-55.2	3.6	0.00e+00	0	47	104	0	60	67899
2026-01-28 10:05:51.03	13.32	7.29	-49.7	-55.4	3.6	0.00e+00	0	47	104	0	60	69946
2026-01-28 10:05:52.04	13.19	7.36	-51.1	-55.5	3.6	0.00e+00	0	47	104	0	60	70391
2026-01-28 10:05:53.05	13.05	7.44	-48.5	-54.9	3.5	0.00e+00	0	47	104	0	60	65971
2026-01-28 10:05:54.05	12.91	7.51	-53.3	-57.2	3.5	0.00e+00	0	47	104	0	60	85670
2026-01-28 10:05:55.06	12.78	7.58	-51.5	-54.5	3.6	0.00e+00	0	47	104	0	60	63093
2026-01-28 10:05:56.07	12.64	7.66	-48.5	-53.0	3.6	0.00e+00	0	47	104	0	60	53033
2026-01-28 10:05:57.08	12.49	7.73	-47.5	-52.7	3.6	0.00e+00	0	47	104	0	60	50895
2026-01-28 10:05:58.08	12.35	7.81	-51.3	-56.5	3.6	0.00e+00	0	47	104	0	60	79071
2026-01-28 10:05:59.09	12.21	7.88	-50.6	-56.1	3.6	0.00e+00	0	47	104	0	60	75549
2026-01-28 10:06:00.10	12.07	7.96	-51.9	-56.5	3.6	0.00e+00	0	47	104	0	60	79447
2026-01-28 10:06:01.11	11.92	8.03	-54.1	-57.4	3.6	0.00e+00	0	47	104	0	60	87994
2026-01-28 10:06:02.11	11.78	8.10	-47.7	-54.7	3.6	0.00e+00	0	47	104	0	60	63947
2026-01-28 10:06:03.12	11.63	8.18	-52.0	-56.3	3.6	0.00e+00	0	47	104	0	60	77592
2026-01-28 10:06:04.13	11.48	8.25	-52.6	-55.5	3.6	0.00e+00	0	47	104	0	60	70185
2026-01-28 10:06:05.14	11.34	8.33	-52.5	-55.3	3.6	0.00e+00	0	47	104	0	60	69267
2026-01-28 10:06:06.14	11.19	8.40	-51.5	-56.6	3.6	0.00e+00	0	47	104	0	60	80307
2026-01-28 10:06:07.15	11.04	8.48	-53.7	-58.1	3.6	0.00e+00	0	47	104	0	60	94549
2026-01-28 10:06:08.15	10.89	8.56	-51.2	-56.0	3.6	0.00e+00	0	47	104	0	60	74586
2026-01-28 10:06:09.16	10.74	8.63	-53.5	-57.8	3.6	0.00e+00	0	47	104	0	60	91365
2026-01-28 10:06:10.16	10.58	8.71	-53.7	-57.5	3.6	0.00e+00	0	48	104	0	60	88533
2026-01-28 10:06:11.17	10.43	8.78	-51.2	-56.3	3.6	0.00e+00	0	47	104	0	60	77205
2026-01-28 10:06:12.17	10.28	8.86	-52.1	-56.5	3.6	0.00e+00	0	47	104	0	60	79515
2026-01-28 10:06:13.17	10.12	8.93	-53.2	-57.0	3.6	0.00e+00	0	47	104	0	60	83745
2026-01-28 10:06:14.18	9.96	9.01	-54.3	-57.9	3.6	0.00e+00	0	48	104	0	60	93428
2026-01-28 10:06:15.17	9.81	9.09	-53.2	-57.2	3.6	0.00e+00	0	48	104	0	60	85928
2026-01-28 10:06:16.18	9.65	9.16	-51.1	-56.8	3.6	0.00e+00	0	48	104	0	60	81558
2026-01-28 10:06:17.19	9.49	9.24	-52.9	-57.8	3.6	0.00e+00	0	47	104	0	60	91557
2026-01-28 10:06:18.19	9.33	9.32	-52.1	-57.7	3.6	0.00e+00	0	48	104	0	60	90811
2026-01-28 10:06:19.20	9.17	9.39	-52.6	-56.5	3.6	0.00e+00	0	47	104	0	60	79172
2026-01-28 10:06:20.21	9.00	9.47	-53.4	-56.7	3.6	0.00e+00	0	48	104	0	60	80912
2026-01-28 10:06:21.22	8.84	9.55	-52.9	-56.7	3.6	0.00e+00	0	48	104	0	60	81039
2026-01-28 10:06:22.23	8.67	9.63	-52.3	-57.2	3.6	0.00e+00	0	48	104	0	60	85281
2026-01-28 10:06:23.23	8.50	9.70	-54.1	-58.0	3.6	0.00e+00	0	48	104	0	60	94517
2026-01-28 10:06:24.24	8.34	9.78	-52.7	-57.3	3.6	0.00e+00	0	48	104	0	60	86841
2026-01-28 10:06:25.25	8.17	9.86	-53.2	-57.8	3.6	0.00e+00	0	47	104	0	60	91339
2026-01-28 10:06:26.25	8.00	9.94	-53.1	-57.8	3.6	0.00e+00	0	47	104	0	60	92071
2026-01-28 10:06:27.26	7.83	10.02	-54.1	-57.7	3.6	0.00e+00	0	48	104	0	60	91250
2026-01-28 10:06:28.27	7.65	10.09	-53.2	-57.5	3.6	0.00e+00	0	47	104	0	60	88241
2026-01-28 10:06:29.27	7.48	10.17	-52.8	-57.0	3.6	0.00e+00	0	48	104	0	60	83968
2026-01-28 10:06:30.28	7.31	10.25	-53.5	-57.9	3.6	0.00e+00	0	48	104	0	60	92399
2026-01-28 10:06:31.28	7.13	10.33	-52.6	-57.8	3.6	0.00e+00	0	48	104	0	60	92099
2026-01-28 10:06:32.29	6.96	10.41	-53.5	-57.5	3.6	0.00e+00	0	48	104	0	60	88753
2026-01-28 10:06:33.29	6.78	10.49	-50.9	-57.2	3.6	0.00e+00	0	48	104	0	60	86017
2026-01-28 10:06:34.30	6.60	10.56	-53.7	-57.8	3.6	0.00e+00	0	48	104	0	60	91783
2026-01-28 10:06:35.31	6.42	10.64	-50.8	-57.1	3.6	0.00e+00	0	48	104	0	60	84958
2026-01-28 10:06:36.31	6.24	10.72	-51.8	-57.6	3.6	0.00e+00	0	48	104	0	60	89999
2026-01-28 10:06:37.32	6.05	10.80	-52.7	-58.0	3.6	0.00e+00	0	48	104	0	60	94034
2026-01-28 10:06:38.33	5.87	10.88	-54.2	-58.8	3.6	0.00e+00	0	48	104	0	60	103314
2026-01-28 10:06:39.33	5.69	10.96	-53.6	-58.2	3.6	0.00e+00	0	48	104	0	60	95759
2026-01-28 10:06:40.34	5.50	11.04	-52.4	-57.5	3.6	0.00e+00	0	48	104	0	60	88767
2026-01-28 10:06:41.35	5.31	11.12	-54.8	-58.7	3.6	0.00e+00	0	48	104	0	60	102216
2026-01-28 10:06:42.36	5.12	11.20	-54.2	-58.5	3.6	0.00e+00	0	48	104	0	60	99489
2026-01-28 10:06:43.36	4.93	11.28	-53.7	-57.9	3.6	0.00e+00	0	48	104	0	60	92574
2026-01-28 10:06:44.37	4.74	11.36	-53.0	-57.5	3.6	0.00e+00	0	48	104	0	60	88729
2026-01-28 10:06:45.38	4.55	11.44	-52.4	-57.1	3.6	0.00e+00	0	48	104	0	60	84535
2026-01-28 10:06:46.39	4.35	11.52	-55.1	-59.4	3.6	0.00e+00	0	48	104	0	60	109886
2026-01-28 10:06:47.40	4.15	11.60	-52.9	-57.9	3.6	0.00e+00	0	48	104	0	60	93173
2026-01-28 10:06:48.40	3.96	11.68	-54.8	-58.5	3.6	0.00e+00	0	48	104	0	60	99994
2026-01-28 10:06:49.41	3.76	11.76	-54.1	-58.8	3.6	0.00e+00	0	48	104	0	60	103241
2026-01-28 10:06:50.42	3.56	11.84	-55.3	-59.3	3.6	0.00e+00	0	48	104	0	60	108996
2026-01-28 10:06:51.43	3.36	11.92	-53.8	-57.0	3.6	0.00e+00	0	48	104	0	60	84154
2026-01-28 10:06:52.43	3.16	12.00	-53.3	-57.1	3.6	0.00e+00	0	48	104	0	60	84353
2026-01-28 10:06:53.43	2.96	12.08	-52.8	-57.0	3.6	0.00e+00	0	48	104	0	60	83376
2026-01-28 10:06:54.44	2.75	12.16	-55.3	-59.5	3.6	0.00e+00	0	48	104	0	60	111793
2026-01-28 10:06:55.45	2.54	12.24	-55.4	-59.1	3.6	0.00e+00	0	48	104	0	60	106451
2026-01-28 10:06:56.46	2.33	12.32	-55.3	-59.5	3.6	0.00e+00	0	48	104	0	60	112017
2026-01-28 10:06:57.46	2.13	12.40	-54.8	-59.1	3.6	0.00e+00	0	48	104	0	60	106504
2026-01-28 10:06:58.47	1.92	12.48	-52.4	-58.6	3.6	0.00e+00	0	48	104	0	60	100173
2026-01-28 10:06:59.48	1.70	12.56	-54.0	-58.1	3.6	0.00e+00	0	48	104	0	60	94721
2026-01-28 10:07:00.48	1.49	12.64	-53.9	-58.1	3.6	0.00e+00	0	48	104	0	60	95066
2026-01-28 10:07:01.49	1.28	12.72	-54.3	-57.9	3.6	0.00e+00	0	48	104	0	60	92743
2026-01-28 10:07:02.50	1.06	12.80	-53.7	-58.5	3.6	0.00e+00	0	48	104	0	60	99687
2026-01-28 10:07:03.51	0.84	12.88	-54.3	-58.0	3.6	0.00e+00	0	48	104	0	60	94497
2026-01-28 10:07:04.52	0.62	12.96	-54.8	-59.2	3.6	0.00e+00	0	48	104	0	60	107421
2026-01-28 10:07:05.52	0.40	13.04	-52.4	-58.0	3.6	0.00e+00	0	48	104	0	60	94058
2026-01-28 10:07:06.53	0.18	13.12	-54.2	-58.8	3.5	0.00e+00	0	48	104	0	60	102553
2026-01-28 10:07:07.54	359.96	13.20	-54.1	-58.1	3.6	0.00e+00	0	48	104	0	60	94663
2026-01-28 10:07:08.54	359.73	13.28	-54.6	-58.4	3.6	0.00e+00	0	48	104	0	60	98578
2026-01-28 10:07:09.55	359.51	13.36	-54.3	-58.3	3.6	0.00e+00	0	48	104	0	60	96779
2026-01-28 10:07:10.55	359.28	13.44	-54.5	-59.2	3.6	0.00e+00	0	48	104	0	60	107339
2026-01-28 10:07:11.56	359.05	13.52	-54.7	-58.4	3.5	0.00e+00	0	48	104	0	60	97922
2026-01-28 10:07:12.56	358.82	13.60	-54.5	-58.9	3.6	0.00e+00	0	48	104	0	60	104822
2026-01-28 10:07:13.57	358.59	13.68	-55.2	-58.9	3.6	0.00e+00	0	48	104	0	60	104194
2026-01-28 10:07:14.58	358.35	13.76	-54.5	-58.9	3.6	0.00e+00	0	48	104	0	60	103964
2026-01-28 10:07:15.58	358.12	13.84	-54.7	-58.6	3.6	0.00e+00	0	48	104	0	60	101086
2026-01-28 10:07:16.59	357.88	13.92	-54.4	-58.3	3.6	0.00e+00	0	48	104	0	60	97335
2026-01-28 10:07:17.60	357.64	14.00	-54.5	-57.7	3.6	0.00e+00	0	48	104	0	60	90626
2026-01-28 10:07:18.60	357.40	14.08	-55.3	-59.1	3.5	0.00e+00	0	48	104	0	60	106961
2026-01-28 10:07:19.61	357.16	14.16	-54.4	-57.6	3.6	0.00e+00	0	48	104	0	60	89323
2026-01-28 10:07:20.62	356.92	14.24	-54.2	-58.6	3.6	0.00e+00	0	48	104	0	60	100201
2026-01-28 10:07:21.63	356.67	14.32	-53.9	-57.5	3.6	0.00e+00	0	48	104	0	60	89188
2026-01-28 10:07:22.63	356.43	14.40	-55.0	-58.7	3.6	0.00e+00	0	48	104	0	60	102108
2026-01-28 10:07:23.64	356.18	14.48	-53.9	-57.7	3.6	0.00e+00	0	48	104	0	60	91078
2026-01-28 10:07:24.64	355.93	14.56	-54.1	-57.8	3.5	0.00e+00	0	48	104	0	60	92320
2026-01-28 10:07:25.64	355.68	14.63	-53.3	-57.9	3.6	0.00e+00	0	48	104	0	60	92737
2026-01-28 10:07:26.65	355.43	14.71	-54.1	-58.3	3.6	0.00e+00	0	48	104	0	60	97079
2026-01-28 10:07:27.66	355.18	14.79	-54.1	-58.4	3.6	0.00e+00	0	48	104	0	60	98083
2026-01-28 10:07:28.66	354.92	14.87	-54.8	-58.7	3.6	0.00e+00	0	48	104	0	60	102373
2026-01-28 10:07:29.67	354.66	14.95	-54.8	-58.4	3.6	0.00e+00	0	48	104	0	60	98628
2026-01-28 10:07:30.68	354.40	15.02	-54.2	-58.6	3.6	0.00e+00	0	48	104	0	60	100640
2026-01-28 10:07:31.68	354.14	15.10	-54.9	-58.5	3.6	0.00e+00	0	48	104	0	60	99848
2026-01-28 10:07:32.69	353.88	15.18	-54.0	-58.5	3.6	0.00e+00	0	48	104	0	60	100119
2026-01-28 10:07:33.70	353.62	15.26	-55.1	-58.8	3.6	0.00e+00	0	48	104	0	60	103488
2026-01-28 10:07:34.70	353.35	15.33	-54.8	-58.6	3.6	0.00e+00	0	48	104	0	60	100327
2026-01-28 10:07:35.70	353.09	15.41	-54.8	-58.5	3.6	0.00e+00	0	48	104	0	60	100101
2026-01-28 10:07:36.70	352.82	15.49	-55.0	-58.8	3.6	0.00e+00	0	48	104	0	60	102753
2026-01-28 10:07:37.71	352.55	15.56	-54.7	-58.4	3.6	0.00e+00	0	48	104	0	60	98887
2026-01-28 10:07:38.72	352.28	15.64	-54.5	-58.4	3.6	0.00e+00	0	48	104	0	60	98614
2026-01-28 10:07:39.73	352.00	15.71	-54.7	-58.5	3.6	0.00e+00	0	48	104	0	60	99499
2026-01-28 10:07:40.72	351.73	15.79	-54.6	-58.5	3.6	0.00e+00	0	48	104	0	60	99411
2026-01-28 10:07:41.73	351.45	15.86	-54.6	-58.6	3.6	0.00e+00	0	48	104	0	60	100632
2026-01-28 10:07:42.74	351.18	15.94	-54.7	-58.9	3.6	0.00e+00	0	48	104	0	60	103697
2026-01-28 10:07:43.74	350.90	16.01	-54.2	-58.3	3.6	0.00e+00	0	48	104	0	60	96789
2026-01-28 10:07:44.75	350.61	16.09	-54.8	-58.7	3.6	0.00e+00	0	48	104	0	60	102215
2026-01-28 10:07:45.75	350.33	16.16	-54.5	-58.6	3.6	0.00e+00	0	48	104	0	60	101150
2026-01-28 10:07:46.76	350.05	16.23	-54.9	-58.9	3.6	0.00e+00	0	48	104	0	60	104321
2026-01-28 10:07:47.77	349.76	16.31	-54.6	-58.7	3.6	0.00e+00	0	48	104	0	60	102302
2026-01-28 10:07:48.78	349.47	16.38	-53.2	-58.7	3.6	0.00e+00	0	48	104	0	60	102092
2026-01-28 10:07:49.78	349.18	16.45	-55.5	-59.3	3.6	0.00e+00	0	48	104	0	60	109034
2026-01-28 10:07:50.79	348.89	16.53	-54.3	-58.9	3.6	0.00e+00	0	48	104	0	60	104581
2026-01-28 10:07:51.79	348.60	16.60	-54.2	-59.0	3.6	0.00e+00	0	48	104	0	60	104910
2026-01-28 10:07:52.80	348.30	16.67	-55.4	-59.3	3.6	0.00e+00	0	48	104	0	60	108622
2026-01-28 10:07:53.80	348.01	16.74	-54.0	-58.8	3.6	0.00e+00	0	48	104	0	60	102858
2026-01-28 10:07:54.81	347.71	16.81	-54.8	-59.3	3.6	0.00e+00	0	48	104	0	60	109069
2026-01-28 10:07:55.81	347.41	16.88	-54.6	-59.2	3.5	0.00e+00	0	48	104	0	60	107771
2026-01-28 10:07:56.81	347.11	16.95	-55.2	-59.1	3.6	0.00e+00	0	48	104	0	60	107254
2026-01-28 10:07:57.82	346.81	17.02	-54.5	-59.1	3.6	0.00e+00	0	48	104	0	60	106672
2026-01-28 10:07:58.83	346.50	17.09	-54.6	-59.2	3.6	0.00e+00	0	48	104	0	60	107822
2026-01-28 10:07:59.84	346.19	17.15	-55.5	-59.5	3.6	0.00e+00	0	48	104	0	60	111798
2026-01-28 10:08:00.85	345.88	17.22	-55.8	-59.6	3.6	0.00e+00	0	48	104	0	60	113369
2026-01-28 10:08:01.86	345.57	17.29	-54.5	-58.9	3.5	0.00e+00	0	48	104	0	60	104009
2026-01-28 10:08:02.86	345.26	17.36	-55.6	-59.5	3.6	0.00e+00	0	48	104	0	60	111716
2026-01-28 10:08:03.86	344.95	17.42	-55.7	-59.6	3.6	0.00e+00	0	48	104	0	60	112562
2026-01-28 10:08:04.87	344.64	17.49	-55.2	-59.3	3.6	0.00e+00	0	48	104	0	60	108810
2026-01-28 10:08:05.88	344.32	17.55	-55.4	-59.6	3.6	0.00e+00	0	48	104	0	60	112651
2026-01-28 10:08:06.88	344.00	17.62	-54.1	-59.6	3.6	0.00e+00	0	48	104	0	60	113586
2026-01-28 10:08:07.89	343.68	17.68	-55.4	-59.4	3.6	0.00e+00	0	48	104	0	60	110731
2026-01-28 10:08:08.89	343.37	17.74	-55.4	-59.5	3.5	0.00e+00	0	48	104	0	60	111349
2026-01-28 10:08:09.90	343.04	17.81	-55.6	-59.6	3.5	0.00e+00	0	48	104	0	60	112651
2026-01-28 10:08:10.90	342.72	17.87	-55.9	-59.7	3.6	0.00e+00	0	48	104	0	60	114478
2026-01-28 10:08:11.90	342.40	17.93	-55.9	-59.7	3.6	0.00e+00	0	48	104	0	60	114668
2026-01-28 10:08:12.90	342.07	17.99	-55.8	-59.6	3.6	0.00e+00	0	48	104	0	60	112835
2026-01-28 10:08:13.90	341.75	18.05	-55.8	-59.6	3.6	0.00e+00	0	48	104	0	60	112644
2026-01-28 10:08:14.91	341.41	18.11	-55.6	-59.5	3.6	0.00e+00	0	48	104	0	60	111379
2026-01-28 10:08:15.91	341.08	18.16	-54.5	-59.6	3.6	0.00e+00	0	48	104	0	60	112855
2026-01-28 10:08:16.91	340.75	18.22	-55.4	-59.3	3.6	0.00e+00	0	48	104	0	60	109240
2026-01-28 10:08:17.92	340.42	18.28	-54.9	-59.2	3.6	0.00e+00	0	48	104	0	60	107754
2026-01-28 10:08:18.92	340.08	18.34	-55.2	-59.2	3.6	0.00e+00	0	48	104	0	60	108392
2026-01-28 10:08:19.93	339.75	18.39	-55.2	-59.2	3.6	0.00e+00	0	48	104	0	60	107799
2026-01-28 10:08:20.93	339.41	18.45	-55.3	-59.2	3.6	0.00e+00	0	48	104	0	60	107927
2026-01-28 10:08:21.94	339.07	18.50	-54.5	-59.0	3.6	0.00e+00	0	48	104	0	60	105030
2026-01-28 10:08:22.95	338.73	18.55	-53.7	-58.6	3.6	0.00e+00	0	48	104	0	60	100265
2026-01-28 10:08:23.95	338.38	18.61	-53.9	-58.7	3.6	0.00e+00	0	48	104	0	60	101934
2026-01-28 10:08:24.96	338.04	18.66	-53.3	-58.7	3.5	0.00e+00	0	48	104	0	60	102302
2026-01-28 10:08:25.96	337.70	18.71	-55.3	-59.5	3.6	0.00e+00	0	48	104	0	60	112203
2026-01-28 10:08:26.97	337.35	18.76	-53.2	-59.1	3.6	0.00e+00	0	48	104	0	60	106642
2026-01-28 10:08:27.98	337.00	18.81	-55.4	-59.5	3.6	0.00e+00	0	48	104	0	60	111780
2026-01-28 10:08:28.98	336.65	18.86	-54.1	-58.7	3.6	0.00e+00	0	48	104	0	60	102139
2026-01-28 10:08:29.99	336.30	18.90	-54.3	-58.6	3.6	0.00e+00	0	48	104	0	60	101109
2026-01-28 10:08:31.00	335.94	18.95	-53.3	-58.5	3.6	0.00e+00	0	48	104	0	60	99147
2026-01-28 10:08:31.99	335.60	18.99	-53.4	-58.4	3.6	0.00e+00	0	48	104	0	60	98704
2026-01-28 10:08:32.99	335.24	19.04	-53.8	-58.6	3.6	0.00e+00	0	48	104	0	60	100204
2026-01-28 10:08:34.00	334.89	19.08	-53.9	-59.1	3.6	0.00e+00	0	48	104	0	60	107181
2026-01-28 10:08:35.00	334.53	19.13	-53.5	-58.4	3.6	0.00e+00	0	48	104	0	60	98613
2026-01-28 10:08:36.01	334.17	19.17	-54.8	-59.2	3.6	0.00e+00	0	48	104	0	60	108176
2026-01-28 10:08:37.02	333.81	19.21	-55.2	-59.1	3.6	0.00e+00	0	48	104	0	60	106985
2026-01-28 10:08:38.02	333.45	19.25	-54.7	-59.4	3.6	0.00e+00	0	48	104	0	60	110474
2026-01-28 10:08:39.03	333.09	19.29	-54.7	-59.3	3.6	0.00e+00	0	48	104	0	60	109568
2026-01-28 10:08:40.03	332.73	19.33	-55.0	-59.3	3.5	0.00e+00	0	48	104	0	60	108978
2026-01-28 10:08:41.03	332.37	19.36	-54.8	-59.1	3.6	0.00e+00	0	48	104	0	60	107021
2026-01-28 10:08:42.05	332.00	19.40	-54.6	-58.7	3.6	0.00e+00	0	48	104	0	60	101890
2026-01-28 10:08:43.04	331.64	19.43	-53.8	-58.7	3.6	0.00e+00	0	48	104	0	60	102116
2026-01-28 10:08:44.05	331.27	19.47	-55.0	-59.1	3.6	0.00e+00	0	48	104	0	60	106096
2026-01-28 10:08:45.05	330.91	19.50	-54.3	-58.5	3.6	0.00e+00	0	48	104	0	60	99905
2026-01-28 10:08:46.05	330.54	19.53	-54.9	-59.0	3.6	0.00e+00	0	48	104	0	60	105096
2026-01-28 10:08:47.06	330.17	19.56	-54.9	-59.2	3.6	0.00e+00	0	48	104	0	60	108316
2026-01-28 10:08:48.06	329.80	19.59	-54.9	-58.9	3.6	0.00e+00	0	48	104	0	60	104782
2026-01-28 10:08:49.07	329.43	19.62	-54.7	-59.0	3.6	0.00e+00	0	48	104	0	60	105288
2026-01-28 10:08:50.08	329.06	19.65	-54.6	-59.6	3.6	0.00e+00	0	48	104	0	60	113047
2026-01-28 10:08:51.08	328.69	19.68	-55.0	-59.2	3.6	0.00e+00	0	48	104	0	60	108289
2026-01-28 10:08:52.09	328.31	19.70	-54.0	-59.1	3.6	0.00e+00	0	48	104	0	60	107228
2026-01-28 10:08:53.09	327.94	19.73	-55.6	-59.2	3.6	0.00e+00	0	48	104	0	60	107496
2026-01-28 10:08:54.10	327.57	19.75	-54.7	-58.7	3.6	0.00e+00	0	48	104	0	60	102197
2026-01-28 10:08:55.11	327.19	19.77	-55.9	-59.5	3.6	0.00e+00	0	48	104	0	60	111547
2026-01-28 10:08:56.12	326.81	19.79	-55.7	-59.3	3.6	0.00e+00	0	48	104	0	60	109027
2026-01-28 10:08:57.12	326.44	19.81	-55.6	-59.3	3.6	0.00e+00	0	48	104	0	60	108878
2026-01-28 10:08:58.13	326.06	19.83	-55.7	-59.4	3.6	0.00e+00	0	48	104	0	60	110786
2026-01-28 10:08:59.14	325.68	19.85	-55.9	-59.6	3.6	0.00e+00	0	48	104	0	60	112644
2026-01-28 10:09:00.15	325.30	19.87	-55.9	-59.5	3.6	0.00e+00	0	48	104	0	60	112143
2026-01-28 10:09:01.15	324.93	19.88	-55.6	-59.6	3.6	0.00e+00	0	48	104	0	60	112574
2026-01-28 10:09:02.15	324.55	19.90	-55.4	-59.2	3.6	0.00e+00	0	48	104	0	60	107573
2026-01-28 10:09:03.15	324.17	19.91	-55.1	-58.8	3.6	0.00e+00	0	48	104	0	60	102817
2026-01-28 10:09:04.16	323.79	19.92	-55.7	-59.4	3.6	0.00e+00	0	48	104	0	60	110226
2026-01-28 10:09:05.17	323.41	19.93	-55.2	-58.9	3.6	0.00e+00	0	48	104	0	60	104174
2026-01-28 10:09:06.18	323.03	19.94	-54.9	-58.6	3.6	0.00e+00	0	48	104	0	60	101211
2026-01-28 10:09:07.18	322.65	19.95	-55.0	-58.6	3.6	0.00e+00	0	48	104	0	60	101137
2026-01-28 10:09:08.19	322.27	19.96	-55.2	-58.8	3.6	0.00e+00	0	48	104	0	60	102998
2026-01-28 10:09:09.20	321.89	19.96	-55.3	-58.8	3.6	0.00e+00	0	48	104	0	60	103000
2026-01-28 10:09:10.21	321.50	19.97	-54.9	-59.1	3.6	0.00e+00	0	48	104	0	60	106215
2026-01-28 10:09:11.21	321.13	19.97	-55.0	-58.8	3.6	0.00e+00	0	48	104	0	60	103024
2026-01-28 10:09:12.22	320.74	19.97	-55.2	-59.0	3.6	0.00e+00	0	48	104	0	60	105696
2026-01-28 10:09:13.23	320.36	19.97	-55.1	-59.1	3.6	0.00e+00	0	48	104	0	60	106344
2026-01-28 10:09:14.24	319.98	19.97	-55.1	-58.8	3.6	0.00e+00	0	48	104	0	60	103023
2026-01-28 10:09:15.25	319.59	19.97	-54.9	-58.9	3.6	0.00e+00	0	48	104	0	60	104778
2026-01-28 10:09:16.26	319.21	19.97	-55.4	-59.3	3.6	0.00e+00	0	48	104	0	60	108784
2026-01-28 10:09:17.26	318.83	19.97	-55.1	-58.9	3.6	0.00e+00	0	48	104	0	60	104158
2026-01-28 10:09:18.27	318.45	19.96	-55.1	-59.0	3.6	0.00e+00	0	48	104	0	60	105735
2026-01-28 10:09:19.27	318.07	19.96	-55.0	-58.8	3.6	0.00e+00	0	48	104	0	60	103026
2026-01-28 10:09:20.28	317.69	19.95	-54.8	-58.8	3.6	0.00e+00	0	48	104	0	60	102601
2026-01-28 10:09:21.29	317.31	19.94	-55.2	-58.8	3.6	0.00e+00	0	48	104	0	60	102763
2026-01-28 10:09:22.29	316.93	19.93	-55.0	-58.8	3.6	0.00e+00	0	48	104	0	60	103309
2026-01-28 10:09:23.29	316.55	19.92	-55.2	-58.7	3.6	0.00e+00	0	48	104	0	60	102428
2026-01-28 10:09:24.29	316.17	19.91	-55.3	-59.0	3.6	0.00e+00	0	48	104	0	60	105038
2026-01-28 10:09:25.30	315.79	19.90	-55.2	-58.8	3.6	0.00e+00	0	48	104	0	60	102562
2026-01-28 10:09:26.30	315.42	19.88	-54.6	-58.7	3.6	0.00e+00	0	48	104	0	60	101890
2026-01-28 10:09:27.31	315.04	19.87	-55.2	-58.7	3.6	0.00e+00	0	48	104	0	60	102304
2026-01-28 10:09:28.31	314.66	19.85	-55.1	-59.0	3.6	0.00e+00	0	48	104	0	60	105143
2026-01-28 10:09:29.32	314.28	19.83	-54.9	-58.9	3.6	0.00e+00	0	48	104	0	60	104154
2026-01-28 10:09:30.33	313.90	19.81	-55.2	-58.9	3.6	0.00e+00	0	48	104	0	60	103972
2026-01-28 10:09:31.33	313.53	19.80	-54.8	-58.8	3.6	0.00e+00	0	48	104	0	60	103533
2026-01-28 10:09:32.34	313.15	19.77	-54.1	-58.4	3.6	0.00e+00	0	48	104	0	60	98481
2026-01-28 10:09:33.34	312.78	19.75	-55.1	-58.8	3.6	0.00e+00	0	48	104	0	60	102762
2026-01-28 10:09:34.34	312.40	19.73	-55.0	-58.9	3.6	0.00e+00	0	48	104	0	60	103965
2026-01-28 10:09:35.35	312.03	19.70	-54.9	-58.7	3.6	0.00e+00	0	48	104	0	60	101338
2026-01-28 10:09:36.35	311.66	19.68	-54.3	-58.6	3.6	0.00e+00	0	48	104	0	60	100236
2026-01-28 10:09:37.36	311.28	19.65	-55.3	-59.0	3.6	0.00e+00	0	48	104	0	60	105736
2026-01-28 10:09:38.37	310.91	19.62	-55.2	-58.9	3.5	0.00e+00	0	48	104	0	60	104703
2026-01-28 10:09:39.37	310.54	19.60	-55.4	-59.1	3.6	0.00e+00	0	48	104	0	60	106706
2026-01-28 10:09:40.37	310.17	19.57	-53.7	-58.9	3.6	0.00e+00	0	48	104	0	60	104159
2026-01-28 10:09:41.38	309.80	19.54	-54.7	-58.9	3.6	0.00e+00	0	48	104	0	60	104148
2026-01-28 10:09:42.39	309.43	19.50	-54.0	-59.1	3.6	0.00e+00	0	48	104	0	60	106336
2026-01-28 10:09:43.39	309.07	19.47	-54.0	-58.7	3.6	0.00e+00	0	48	104	0	60	101694
2026-01-28 10:09:44.40	308.70	19.44	-55.3	-59.2	3.6	0.00e+00	0	48	104	0	60	107703
2026-01-28 10:09:45.41	308.33	19.40	-54.1	-58.9	3.6	0.00e+00	0	48	104	0	60	103872
2026-01-28 10:09:46.42	307.96	19.36	-54.3	-58.8	3.6	0.00e+00	0	48	104	0	60	102694
2026-01-28 10:09:47.43	307.60	19.33	-54.7	-59.1	3.6	0.00e+00	0	48	104	0	60	106374
2026-01-28 10:09:48.43	307.24	19.29	-55.2	-59.1	3.6	0.00e+00	0	48	104	0	60	106182
2026-01-28 10:09:49.44	306.87	19.25	-53.5	-58.4	3.5	0.00e+00	0	48	104	0	60	98797
2026-01-28 10:09:50.44	306.52	19.21	-53.9	-58.7	3.6	0.00e+00	0	48	104	0	60	101744
2026-01-28 10:09:51.45	306.15	19.17	-53.6	-58.5	3.6	0.00e+00	0	48	104	0	60	99707
2026-01-28 10:09:52.45	305.80	19.13	-53.5	-58.5	3.6	0.00e+00	0	48	104	0	60	99136
2026-01-28 10:09:53.46	305.44	19.08	-53.4	-58.4	3.6	0.00e+00	0	48	104	0	60	98337
2026-01-28 10:09:54.46	305.08	19.04	-53.9	-58.8	3.6	0.00e+00	0	48	104	0	60	102960
2026-01-28 10:09:55.47	304.73	19.00	-54.6	-59.1	3.6	0.00e+00	0	48	104	0	60	106502
2026-01-28 10:09:56.48	304.37	18.95	-53.8	-58.6	3.6	0.00e+00	0	48	104	0	60	100771
2026-01-28 10:09:57.49	304.02	18.90	-55.1	-59.1	3.6	0.00e+00	0	48	104	0	60	106597
2026-01-28 10:09:58.49	303.67	18.86	-54.1	-58.7	3.6	0.00e+00	0	48	104	0	60	101890
2026-01-28 10:09:59.49	303.32	18.81	-54.1	-58.8	3.6	0.00e+00	0	48	104	0	60	102716
2026-01-28 10:10:00.50	302.97	18.76	-54.3	-58.9	3.6	0.00e+00	0	48	104	0	60	103754
2026-01-28 10:10:01.50	302.63	18.71	-54.3	-58.9	3.6	0.00e+00	0	48	104	0	60	104317
2026-01-28 10:10:02.51	302.28	18.66	-53.7	-58.4	3.6	0.00e+00	0	48	104	0	60	98049
2026-01-28 10:10:03.51	301.93	18.61	-54.6	-59.0	3.6	0.00e+00	0	48	104	0	60	105974
2026-01-28 10:10:04.52	301.59	18.55	-54.2	-58.6	3.6	0.00e+00	0	48	104	0	60	100959
2026-01-28 10:10:05.53	301.25	18.50	-53.8	-58.7	3.6	0.00e+00	0	48	104	0	60	102461
2026-01-28 10:10:06.54	300.90	18.45	-53.8	-58.4	3.6	0.00e+00	0	48	104	0	60	98207
2026-01-28 10:10:07.54	300.57	18.39	-53.9	-58.4	3.6	0.00e+00	0	48	104	0	60	98286
2026-01-28 10:10:08.54	300.23	18.34	-54.2	-58.8	3.6	0.00e+00	0	48	104	0	60	103573
2026-01-28 10:10:09.55	299.89	18.28	-54.3	-58.6	3.6	0.00e+00	0	48	104	0	60	100461
2026-01-28 10:10:10.55	299.56	18.22	-54.8	-58.9	3.6	0.00e+00	0	48	104	0	60	104683
2026-01-28 10:10:11.55	299.23	18.16	-55.1	-59.2	3.6	0.00e+00	0	48	104	0	60	108143
2026-01-28 10:10:12.55	298.90	18.11	-55.3	-59.3	3.6	0.00e+00	0	48	104	0	60	109191
2026-01-28 10:10:13.56	298.57	18.05	-55.6	-59.4	3.6	0.00e+00	0	48	104	0	60	110522
2026-01-28 10:10:14.57	298.24	17.99	-55.0	-59.2	3.6	0.00e+00	0	48	104	0	60	107317
2026-01-28 10:10:15.58	297.91	17.93	-55.7	-59.4	3.6	0.00e+00	0	48	104	0	60	110822
2026-01-28 10:10:16.59	297.58	17.86	-55.5	-59.5	3.6	0.00e+00	0	48	104	0	60	111238
2026-01-28 10:10:17.60	297.25	17.80	-55.2	-59.2	3.6	0.00e+00	0	48	104	0	60	108184
2026-01-28 10:10:18.60	296.93	17.74	-55.4	-59.4	3.6	0.00e+00	0	48	104	0	60	109924
2026-01-28 10:10:19.61	296.61	17.68	-55.3	-59.3	3.6	0.00e+00	0	48	104	0	60	109325
2026-01-28 10:10:20.62	296.29	17.61	-53.9	-58.3	3.5	0.00e+00	0	48	104	0	60	97413
2026-01-28 10:10:21.63	295.97	17.55	-53.4	-58.1	3.6	0.00e+00	0	48	104	0	60	94670
2026-01-28 10:10:22.63	295.65	17.48	-53.8	-58.3	3.6	0.00e+00	0	48	104	0	60	97460
2026-01-28 10:10:23.64	295.34	17.42	-53.4	-58.1	3.6	0.00e+00	0	48	104	0	60	94729
2026-01-28 10:10:24.64	295.02	17.35	-53.6	-58.2	3.6	0.00e+00	0	48	104	0	60	96231
2026-01-28 10:10:25.64	294.71	17.28	-54.2	-58.6	3.6	0.00e+00	0	48	104	0	60	101006
2026-01-28 10:10:26.64	294.41	17.22	-54.8	-59.0	3.6	0.00e+00	0	48	104	0	60	105063
2026-01-28 10:10:27.65	294.10	17.15	-53.8	-58.7	3.6	0.00e+00	0	48	104	0	60	101316
2026-01-28 10:10:28.66	293.79	17.08	-55.1	-59.2	3.6	0.00e+00	0	48	104	0	60	107891
2026-01-28 10:10:29.66	293.48	17.01	-54.2	-59.1	3.7	0.00e+00	0	48	104	0	60	106387
2026-01-28 10:10:30.67	293.18	16.94	-55.3	-59.3	3.6	0.00e+00	0	48	104	0	60	109554
2026-01-28 10:10:31.67	292.88	16.87	-55.4	-59.3	3.6	0.00e+00	0	48	104	0	60	109781
2026-01-28 10:10:32.67	292.58	16.80	-55.5	-59.4	3.6	0.00e+00	0	48	104	0	60	110701
2026-01-28 10:10:33.67	292.28	16.73	-55.2	-59.2	3.6	0.00e+00	0	48	104	0	60	108051
2026-01-28 10:10:34.68	291.98	16.66	-55.4	-59.3	3.6	0.00e+00	0	48	104	0	60	109778
2026-01-28 10:10:35.69	291.69	16.59	-55.0	-59.0	3.6	0.00e+00	0	48	104	0	60	105390
2026-01-28 10:10:36.70	291.39	16.52	-53.8	-58.1	3.6	0.00e+00	0	48	104	0	60	95032
2026-01-28 10:10:37.71	291.10	16.45	-53.5	-57.9	3.6	0.00e+00	0	48	104	0	60	92448
2026-01-28 10:10:38.71	290.81	16.37	-53.3	-57.8	3.6	0.00e+00	0	48	104	0	60	92166
2026-01-28 10:10:39.72	290.52	16.30	-52.8	-57.4	3.6	0.00e+00	0	48	104	0	60	88211
2026-01-28 10:10:40.72	290.23	16.23	-52.9	-57.6	3.6	0.00e+00	0	48	104	0	60	89728
2026-01-28 10:10:41.72	289.95	16.15	-53.7	-58.4	3.6	0.00e+00	0	48	104	0	60	98342
2026-01-28 10:10:42.73	289.66	16.08	-53.2	-57.9	3.6	0.00e+00	0	48	104	0	60	92923
2026-01-28 10:10:43.74	289.38	16.01	-53.2	-57.9	3.6	0.00e+00	0	48	104	0	60	93093
2026-01-28 10:10:44.75	289.10	15.93	-53.5	-58.1	3.6	0.00e+00	0	48	104	0	60	95197
2026-01-28 10:10:45.76	288.82	15.86	-53.7	-58.3	3.6	0.00e+00	0	48	104	0	60	97690
2026-01-28 10:10:46.76	288.54	15.78	-54.2	-58.8	3.6	0.00e+00	0	48	104	0	60	102738
2026-01-28 10:10:47.77	288.26	15.70	-53.1	-57.5	3.6	0.00e+00	0	48	104	0	60	89216
2026-01-28 10:10:48.78	287.99	15.63	-52.8	-57.2	3.6	0.00e+00	0	48	104	0	60	86052
2026-01-28 10:10:49.78	287.72	15.55	-51.7	-56.2	3.6	0.00e+00	0	48	104	0	60	76286
2026-01-28 10:10:50.78	287.45	15.48	-50.6	-55.4	3.6	0.00e+00	0	48	104	0	60	69654
2026-01-28 10:10:51.79	287.18	15.40	-52.0	-56.5	3.6	0.00e+00	0	48	104	0	60	79118
2026-01-28 10:10:52.79	286.91	15.32	-50.6	-55.3	3.6	0.00e+00	0	48	104	0	60	68746
2026-01-28 10:10:53.80	286.64	15.25	-52.4	-57.0	3.6	0.00e+00	0	48	104	0	60	83736
2026-01-28 10:10:54.81	286.38	15.17	-51.2	-56.2	3.6	0.00e+00	0	48	104	0	60	76081
2026-01-28 10:10:55.81	286.12	15.09	-50.8	-55.5	3.6	0.00e+00	0	48	104	0	60	70505
2026-01-28 10:10:56.82	285.86	15.01	-50.9	-55.7	3.6	0.00e+00	0	48	104	0	60	72056
2026-01-28 10:10:57.82	285.60	14.93	-50.8	-55.5	3.6	0.00e+00	0	48	104	0	60	70136
2026-01-28 10:10:58.82	285.34	14.86	-52.9	-57.2	3.6	0.00e+00	0	48	104	0	60	85307
2026-01-28 10:10:59.83	285.08	14.78	-53.0	-57.3	3.6	0.00e+00	0	48	104	0	60	87188
2026-01-28 10:11:00.83	284.83	14.70	-53.0	-57.1	3.6	0.00e+00	0	48	104	0	60	85106
2026-01-28 10:11:01.84	284.58	14.62	-50.7	-55.0	3.6	0.00e+00	0	48	104	0	60	66889
2026-01-28 10:11:02.84	284.33	14.54	-50.8	-55.2	3.6	0.00e+00	0	48	104	0	60	68176
2026-01-28 10:11:03.85	284.07	14.46	-50.5	-55.4	3.6	0.00e+00	0	48	104	0	60	70009
2026-01-28 10:11:04.85	283.83	14.38	-51.1	-55.8	3.6	0.00e+00	0	48	104	0	60	73145
2026-01-28 10:11:05.85	283.58	14.31	-52.7	-57.4	3.6	0.00e+00	0	48	104	0	60	88039
2026-01-28 10:11:06.86	283.34	14.23	-50.6	-55.1	3.6	0.00e+00	0	48	104	0	60	67648
2026-01-28 10:11:07.87	283.09	14.15	-50.6	-55.4	3.6	0.00e+00	0	48	104	0	60	69320
2026-01-28 10:11:08.88	282.85	14.07	-49.6	-54.2	3.6	0.00e+00	0	48	104	0	60	60926
2026-01-28 10:11:09.89	282.61	13.99	-51.6	-56.4	3.6	0.00e+00	0	48	104	0	60	78350
2026-01-28 10:11:10.90	282.37	13.91	-49.9	-54.9	3.6	0.00e+00	0	48	104	0	60	65730
2026-01-28 10:11:11.90	282.13	13.83	-50.2	-55.1	3.6	0.00e+00	0	48	104	0	60	67014
2026-01-28 10:11:12.91	281.89	13.75	-50.4	-55.3	3.6	0.00e+00	0	48	104	0	60	68779
2026-01-28 10:11:13.91	281.66	13.67	-50.4	-54.6	3.6	0.00e+00	0	48	104	0	60	63558
2026-01-28 10:11:14.92	281.43	13.59	-50.8	-55.1	3.6	0.00e+00	0	48	104	0	60	67317
2026-01-28 10:11:15.93	281.19	13.51	-50.2	-54.5	3.6	0.00e+00	0	48	104	0	60	62946
2026-01-28 10:11:16.94	280.96	13.42	-50.2	-55.1	3.6	0.00e+00	0	48	104	0	60	67612
2026-01-28 10:11:17.95	280.73	13.34	-50.3	-54.6	3.6	0.00e+00	0	48	104	0	60	63554
2026-01-28 10:11:18.96	280.51	13.26	-50.3	-54.5	3.6	0.00e+00	0	48	104	0	60	62560
2026-01-28 10:11:19.96	280.28	13.18	-50.1	-54.5	3.6	0.00e+00	0	48	104	0	60	62593
2026-01-28 10:11:20.97	280.06	13.10	-49.8	-54.4	3.6	0.00e+00	0	48	104	0	60	62185
2026-01-28 10:11:21.97	279.83	13.02	-51.9	-56.5	3.6	0.00e+00	0	48	104	0	60	79037
2026-01-28 10:11:22.98	279.61	12.94	-50.5	-54.9	3.6	0.00e+00	0	48	104	0	60	65894
2026-01-28 10:11:23.99	279.39	12.86	-50.4	-55.1	3.6	0.00e+00	0	48	104	0	60	67234
2026-01-28 10:11:24.99	279.18	12.78	-50.6	-55.1	3.6	0.00e+00	0	48	104	0	60	67405
2026-01-28 10:11:26.00	278.96	12.70	-50.4	-54.9	3.6	0.00e+00	0	48	104	0	60	65675
2026-01-28 10:11:27.01	278.74	12.62	-50.0	-54.5	3.6	0.00e+00	0	48	104	0	60	62651
2026-01-28 10:11:28.01	278.53	12.54	-49.6	-54.1	3.6	0.00e+00	0	48	104	0	60	59722
2026-01-28 10:11:29.02	278.32	12.46	-49.4	-54.2	3.6	0.00e+00	0	48	104	0	60	60415
2026-01-28 10:11:30.03	278.10	12.38	-52.0	-56.4	3.6	0.00e+00	0	48	104	0	60	77769
2026-01-28 10:11:31.03	277.90	12.30	-48.1	-52.4	3.6	0.00e+00	0	48	104	0	60	49480
2026-01-28 10:11:32.04	277.69	12.22	-50.9	-55.6	3.6	0.00e+00	0	48	104	0	60	71171
2026-01-28 10:11:33.04	277.48	12.14	-50.4	-54.6	3.6	0.00e+00	0	48	104	0	60	63563
2026-01-28 10:11:34.05	277.27	12.06	-49.7	-54.1	3.6	0.00e+00	0	48	104	0	60	59845
2026-01-28 10:11:35.05	277.07	11.98	-48.3	-52.6	3.6	0.00e+00	0	48	104	0	60	50434
2026-01-28 10:11:36.05	276.87	11.90	-49.0	-53.6	3.6	0.00e+00	0	48	104	0	60	56533
2026-01-28 10:11:37.06	276.67	11.82	-51.0	-55.5	3.6	0.00e+00	0	48	104	0	60	70256
2026-01-28 10:11:38.07	276.47	11.73	-47.2	-51.3	3.6	0.00e+00	0	48	104	0	60	43620
2026-01-28 10:11:39.08	276.27	11.65	-47.5	-51.8	3.6	0.00e+00	0	48	104	0	60	46220
2026-01-28 10:11:40.08	276.07	11.57	-51.5	-55.6	3.6	0.00e+00	0	48	104	0	60	71377
2026-01-28 10:11:41.09	275.87	11.49	-46.9	-51.4	3.6	0.00e+00	0	48	104	0	60	43808
2026-01-28 10:11:42.10	275.68	11.41	-52.8	-58.0	3.6	0.00e+00	0	48	104	0	60	93589
2026-01-28 10:11:43.10	275.48	11.33	-48.8	-53.5	3.6	0.00e+00	0	48	104	0	60	55941
2026-01-28 10:11:44.11	275.29	11.25	-50.5	-55.0	3.6	0.00e+00	0	48	104	0	60	66579
2026-01-28 10:11:45.12	275.10	11.17	-52.0	-56.6	3.6	0.00e+00	0	48	104	0	60	80082
2026-01-28 10:11:46.13	274.91	11.09	-45.2	-49.7	3.6	0.00e+00	0	48	104	0	60	36099
2026-01-28 10:11:47.13	274.72	11.01	-48.6	-53.7	3.6	0.00e+00	0	48	104	0	60	57192
2026-01-28 10:11:48.14	274.53	10.93	-48.9	-53.1	3.6	0.00e+00	0	48	104	0	60	53264
2026-01-28 10:11:49.15	274.35	10.86	-50.3	-55.2	3.6	0.00e+00	0	48	104	0	60	68020
2026-01-28 10:11:50.16	274.16	10.78	-46.7	-51.4	3.6	0.00e+00	0	48	104	0	60	43970
2026-01-28 10:11:51.16	273.98	10.70	-46.8	-51.8	3.7	0.00e+00	0	48	104	0	60	46050
2026-01-28 10:11:52.17	273.80	10.62	-48.9	-53.6	3.6	0.00e+00	0	48	104	0	60	56475
2026-01-28 10:11:53.18	273.61	10.54	-50.8	-55.4	3.6	0.00e+00	0	48	104	0	60	69652
2026-01-28 10:11:54.18	273.44	10.46	-46.4	-51.1	3.6	0.00e+00	0	48	104	0	60	42701
2026-01-28 10:11:55.19	273.26	10.38	-51.3	-55.9	3.6	0.00e+00	0	48	104	0	60	73462
2026-01-28 10:11:56.19	273.08	10.30	-47.8	-52.6	3.6	0.00e+00	0	48	104	0	60	50585
2026-01-28 10:11:57.20	272.90	10.22	-53.6	-58.1	3.6	0.00e+00	0	48	104	0	60	94540
2026-01-28 10:11:58.20	272.73	10.14	-48.1	-52.7	3.6	0.00e+00	0	48	104	0	60	51318
2026-01-28 10:11:59.21	272.55	10.07	-47.6	-52.4	3.6	0.00e+00	0	48	104	0	60	49430
2026-01-28 10:12:00.22	272.38	9.99	-48.2	-53.1	3.6	0.00e+00	0	48	104	0	60	53761
2026-01-28 10:12:01.23	272.21	9.91	-49.3	-54.4	3.6	0.00e+00	0	48	104	0	60	62238
2026-01-28 10:12:02.24	272.04	9.83	-54.0	-58.1	3.6	0.00e+00	0	48	104	0	60	94832
2026-01-28 10:12:03.25	271.87	9.75	-53.9	-58.1	3.6	0.00e+00	0	48	104	0	60	95210
2026-01-28 10:12:04.25	271.70	9.67	-53.6	-57.5	3.6	0.00e+00	0	48	104	0	60	88684
2026-01-28 10:12:05.26	271.53	9.60	-48.5	-53.1	3.6	0.00e+00	0	48	104	0	60	53504
2026-01-28 10:12:06.26	271.37	9.52	-54.1	-58.3	3.6	0.00e+00	0	48	104	0	60	96871
2026-01-28 10:12:07.27	271.20	9.44	-48.4	-52.7	3.6	0.00e+00	0	48	104	0	60	51185
2026-01-28 10:12:08.27	271.04	9.36	-48.2	-52.8	3.6	0.00e+00	0	48	104	0	60	51677
2026-01-28 10:12:09.28	270.87	9.29	-48.8	-53.2	3.6	0.00e+00	0	48	104	0	60	53945
2026-01-28 10:12:10.29	270.71	9.21	-50.1	-54.5	3.6	0.00e+00	0	48	104	0	60	62885
2026-01-28 10:12:11.29	270.55	9.13	-50.5	-54.7	3.6	0.00e+00	0	48	104	0	60	64039
2026-01-28 10:12:12.30	270.39	9.06	-49.5	-54.4	3.6	0.00e+00	0	48	104	0	60	62026
2026-01-28 10:12:13.31	270.23	8.98	-51.4	-55.6	3.6	0.00e+00	0	48	104	0	60	71207
2026-01-28 10:12:14.32	270.07	8.90	-48.9	-53.4	3.6	0.00e+00	0	48	104	0	60	55032
2026-01-28 10:12:15.32	269.92	8.82	-49.4	-53.7	3.6	0.00e+00	0	48	104	0	60	57245
2026-01-28 10:12:16.33	269.76	8.75	-49.5	-54.0	3.6	0.00e+00	0	48	104	0	60	59316
2026-01-28 10:12:17.34	269.61	8.67	-50.1	-54.9	3.6	0.00e+00	0	48	104	0	60	65776
2026-01-28 10:12:18.35	269.45	8.60	-51.1	-55.5	3.6	0.00e+00	0	48	104	0	60	70532
2026-01-28 10:12:19.35	269.30	8.52	-51.0	-55.9	3.6	0.00e+00	0	48	104	0	60	73823
2026-01-28 10:12:20.36	269.15	8.44	-50.5	-55.3	3.5	0.00e+00	0	48	104	0	60	69040
2026-01-28 10:12:21.36	269.00	8.37	-52.5	-57.1	3.6	0.00e+00	0	48	104	0	60	84922
2026-01-28 10:12:22.37	268.85	8.29	-49.8	-54.2	3.6	0.00e+00	0	48	104	0	60	60843
2026-01-28 10:12:23.37	268.70	8.22	-48.9	-53.6	3.6	0.00e+00	0	48	104	0	60	56568
2026-01-28 10:12:24.38	268.55	8.14	-49.6	-54.3	3.6	0.00e+00	0	48	104	0	60	61440
2026-01-28 10:12:25.38	268.41	8.07	-51.2	-55.9	3.6	0.00e+00	0	48	104	0	60	73596
2026-01-28 10:12:26.39	268.26	7.99	-54.0	-57.8	3.6	0.00e+00	0	48	104	0	60	91673
2026-01-28 10:12:27.39	268.12	7.92	-52.7	-57.3	3.6	0.00e+00	0	48	104	0	60	86532
2026-01-28 10:12:28.40	267.97	7.84	-52.9	-57.7	3.6	0.00e+00	0	48	104	0	60	90493
2026-01-28 10:12:29.40	267.83	7.77	-51.8	-56.3	3.6	0.00e+00	0	48	104	0	60	77565
2026-01-28 10:12:30.41	267.69	7.69	-53.1	-57.9	3.5	0.00e+00	0	48	104	0	60	92685
2026-01-28 10:12:31.41	267.55	7.62	-50.5	-55.1	3.6	0.00e+00	0	48	104	0	60	67218
2026-01-28 10:12:32.41	267.41	7.55	-49.8	-54.9	3.6	0.00e+00	0	48	104	0	60	65758
2026-01-28 10:12:33.41	267.27	7.47	-50.3	-55.4	3.6	0.00e+00	0	49	104	0	60	69887
2026-01-28 10:12:34.42	267.13	7.40	-49.6	-54.4	3.6	0.00e+00	0	48	104	0	60	62274
2026-01-28 10:12:35.42	266.99	7.33	-50.3	-55.3	3.6	0.00e+00	0	48	104	0	60	68648
2026-01-28 10:12:36.42	266.86	7.25	-50.2	-54.7	3.6	0.00e+00	0	48	104	0	60	63924
2026-01-28 10:12:37.43	266.72	7.18	-52.3	-57.0	3.5	0.00e+00	0	48	104	0	60	84105
2026-01-28 10:12:38.44	266.59	7.11	-48.9	-53.6	3.6	0.00e+00	0	48	104	0	60	56477
2026-01-28 10:12:39.45	266.45	7.03	-48.3	-53.0	3.6	0.00e+00	0	48	104	0	60	52610
2026-01-28 10:12:40.45	266.32	6.96	-48.5	-53.0	3.6	0.00e+00	0	48	104	0	60	52918
2026-01-28 10:12:41.46	266.19	6.89	-49.7	-54.4	3.6	0.00e+00	0	48	104	0	60	62183
2026-01-28 10:12:42.46	266.06	6.81	-50.9	-55.6	3.6	0.00e+00	0	48	104	0	60	71199
2026-01-28 10:12:43.47	265.92	6.74	-48.7	-53.1	3.6	0.00e+00	0	48	104	0	60	53450
2026-01-28 10:12:44.48	265.79	6.67	-48.3	-53.0	3.6	0.00e+00	0	48	104	0	60	53117
2026-01-28 10:12:45.48	265.67	6.60	-52.9	-56.8	3.6	0.00e+00	0	48	104	0	60	82177
2026-01-28 10:12:46.49	265.54	6.53	-48.6	-53.3	3.6	0.00e+00	0	48	104	0	60	54550
2026-01-28 10:12:47.49	265.41	6.45	-48.4	-52.9	3.6	0.00e+00	0	48	104	0	60	52267
2026-01-28 10:12:48.50	265.28	6.38	-48.4	-53.1	3.6	0.00e+00	0	48	104	0	60	53695
2026-01-28 10:12:49.51	265.16	6.31	-50.5	-55.3	3.6	0.00e+00	0	48	104	0	60	68697
2026-01-28 10:12:50.52	265.03	6.24	-51.5	-55.8	3.6	0.00e+00	0	48	104	0	60	73277
2026-01-28 10:12:51.52	264.91	6.17	-53.5	-57.4	3.6	0.00e+00	0	48	104	0	60	88080
2026-01-28 10:12:52.53	264.78	6.10	-49.8	-54.4	3.6	0.00e+00	0	48	104	0	60	62158
2026-01-28 10:12:53.53	264.66	6.03	-46.8	-51.3	3.6	0.00e+00	0	48	104	0	60	43331
2026-01-28 10:12:54.54	264.54	5.96	-51.4	-55.7	3.6	0.00e+00	0	48	104	0	60	71753
2026-01-28 10:12:55.54	264.42	5.88	-51.9	-56.5	3.6	0.00e+00	0	48	104	0	60	79420
2026-01-28 10:12:56.55	264.30	5.81	-54.1	-58.1	3.6	0.00e+00	0	48	104	0	60	94871
2026-01-28 10:12:57.56	264.18	5.74	-54.4	-59.1	3.6	0.00e+00	0	48	104	0	60	107011
2026-01-28 10:12:58.56	264.06	5.67	-53.6	-58.8	3.6	0.00e+00	0	48	104	0	60	102658
2026-01-28 10:12:59.57	263.94	5.60	-52.4	-56.9	3.6	0.00e+00	0	48	104	0	60	82860
2026-01-28 10:13:00.58	263.82	5.53	-53.9	-59.1	3.6	0.00e+00	0	48	104	0	60	106944
2026-01-28 10:13:01.58	263.71	5.46	-54.8	-59.5	3.6	0.00e+00	0	48	104	0	60	111502
2026-01-28 10:13:02.59	263.59	5.39	-53.8	-59.0	3.6	0.00e+00	0	48	104	0	60	105705
2026-01-28 10:13:03.59	263.47	5.33	-53.9	-58.9	3.6	0.00e+00	0	48	104	0	60	104537
2026-01-28 10:13:04.60	263.36	5.26	-52.8	-58.8	3.6	0.00e+00	0	48	104	0	60	103288
2026-01-28 10:13:05.60	263.25	5.19	-53.6	-59.2	3.6	0.00e+00	0	48	104	0	60	107321
2026-01-28 10:13:06.61	263.13	5.12	-52.9	-58.9	3.6	0.00e+00	0	48	104	0	60	104336
2026-01-28 10:13:07.62	263.02	5.05	-53.6	-59.5	3.6	0.00e+00	0	48	104	0	60	111333
2026-01-28 10:13:08.63	262.91	4.98	-53.3	-59.4	3.6	0.00e+00	0	48	104	0	60	109944
2026-01-28 10:13:09.64	262.80	4.91	-53.7	-59.6	3.6	0.00e+00	0	48	104	0	60	112363
2026-01-28 10:13:10.64	262.69	4.84	-54.2	-59.9	3.6	0.00e+00	0	48	104	0	60	116357
2026-01-28 10:13:11.65	262.58	4.77	-53.7	-59.4	3.6	0.00e+00	0	48	104	0	60	109836
2026-01-28 10:13:12.65	262.47	4.71	-53.5	-59.0	3.6	0.00e+00	0	48	104	0	60	105381
2026-01-28 10:13:13.66	262.36	4.64	-53.3	-59.3	3.6	0.00e+00	0	48	104	0	60	108557
2026-01-28 10:13:14.67	262.25	4.57	-55.3	-60.1	3.6	0.00e+00	0	48	104	0	60	119415
2026-01-28 10:13:15.68	262.14	4.50	-55.5	-60.3	3.6	0.00e+00	0	48	104	0	60	121892
2026-01-28 10:13:16.68	262.04	4.44	-55.7	-60.3	3.6	0.00e+00	0	48	104	0	60	122421
2026-01-28 10:13:17.68	261.93	4.37	-55.6	-60.3	3.6	0.00e+00	0	48	104	0	60	122038
2026-01-28 10:13:18.69	261.82	4.30	-55.7	-60.3	3.6	0.00e+00	0	48	104	0	60	121942
2026-01-28 10:13:19.70	261.72	4.23	-55.6	-60.2	3.6	0.00e+00	0	48	104	0	60	121376
2026-01-28 10:13:20.70	261.62	4.17	-55.2	-60.2	3.6	0.00e+00	0	48	104	0	60	121313
2026-01-28 10:13:21.71	261.51	4.10	-55.5	-60.2	3.6	0.00e+00	0	48	104	0	60	120954
2026-01-28 10:13:22.72	261.41	4.03	-54.7	-60.2	3.6	0.00e+00	0	48	104	0	60	120682
2026-01-28 10:13:23.73	261.31	3.97	-55.5	-60.2	3.6	0.00e+00	0	48	104	0	60	120405
2026-01-28 10:13:24.74	261.20	3.90	-55.3	-60.1	3.6	0.00e+00	0	48	104	0	60	120038
2026-01-28 10:13:25.74	261.10	3.83	-55.4	-60.1	3.6	0.00e+00	0	48	104	0	60	119746
2026-01-28 10:13:26.75	261.00	3.77	-55.2	-60.1	3.6	0.00e+00	0	48	104	0	60	119818
2026-01-28 10:13:27.75	260.90	3.70	-55.2	-60.2	3.6	0.00e+00	0	48	104	0	60	120597
2026-01-28 10:13:28.76	260.80	3.64	-55.4	-60.1	3.6	0.00e+00	0	48	104	0	60	119464
2026-01-28 10:13:29.77	260.70	3.57	-55.5	-60.1	3.6	0.00e+00	0	48	104	0	60	119076
2026-01-28 10:13:30.78	260.60	3.51	-55.4	-60.1	3.6	0.00e+00	0	48	104	0	60	119552
2026-01-28 10:13:31.78	260.51	3.44	-55.3	-60.0	3.6	0.00e+00	0	49	104	0	60	118518
2026-01-28 10:13:32.79	260.41	3.37	-55.3	-60.1	3.6	0.00e+00	0	49	104	0	60	119582
2026-01-28 10:13:33.80	260.31	3.31	-55.3	-60.1	3.6	0.00e+00	0	48	104	0	60	119666
2026-01-28 10:13:34.81	260.22	3.24	-55.4	-60.1	3.6	0.00e+00	0	48	104	0	60	119633
2026-01-28 10:13:35.81	260.12	3.18	-55.4	-60.0	3.6	0.00e+00	0	48	104	0	60	118867
2026-01-28 10:13:36.82	260.03	3.11	-55.4	-60.1	3.6	0.00e+00	0	48	104	0	60	119569
2026-01-28 10:13:37.83	259.93	3.05	-55.3	-60.1	3.6	0.00e+00	0	48	104	0	60	119623
2026-01-28 10:13:38.84	259.84	2.99	-55.2	-60.1	3.6	0.00e+00	0	48	104	0	60	119081
2026-01-28 10:13:39.84	259.75	2.92	-55.3	-60.0	3.6	0.00e+00	0	49	104	0	60	118872
2026-01-28 10:13:40.85	259.65	2.86	-54.6	-60.1	3.6	0.00e+00	0	48	104	0	60	119063
2026-01-28 10:13:41.85	259.56	2.79	-55.3	-60.0	3.6	0.00e+00	0	48	104	0	60	118588
2026-01-28 10:13:42.86	259.47	2.73	-55.2	-60.1	3.6	0.00e+00	0	48	104	0	60	119995
2026-01-28 10:13:43.86	259.38	2.67	-55.3	-60.1	3.6	0.00e+00	0	48	104	0	60	120023
2026-01-28 10:13:44.87	259.29	2.60	-55.5	-60.1	3.6	0.00e+00	0	48	104	0	60	120335
2026-01-28 10:13:45.87	259.20	2.54	-55.5	-60.1	3.6	0.00e+00	0	48	104	0	60	120245
2026-01-28 10:13:46.88	259.11	2.48	-55.5	-60.1	3.6	0.00e+00	0	48	104	0	60	120178
2026-01-28 10:13:47.88	259.02	2.41	-54.3	-60.1	3.6	0.00e+00	0	48	104	0	60	120019
2026-01-28 10:13:48.89	258.93	2.35	-55.5	-60.1	3.6	0.00e+00	0	48	104	0	60	119832
2026-01-28 10:13:49.89	258.84	2.29	-55.4	-60.1	3.6	0.00e+00	0	48	104	0	60	119672
2026-01-28 10:13:50.90	258.76	2.22	-55.5	-60.1	3.6	0.00e+00	0	48	104	0	60	119796
2026-01-28 10:13:51.90	258.67	2.16	-55.5	-60.1	3.6	0.00e+00	0	48	104	0	60	119634
2026-01-28 10:13:52.90	258.58	2.10	-55.6	-60.1	3.6	0.00e+00	0	48	104	0	60	119903
2026-01-28 10:13:53.90	258.50	2.04	-55.5	-60.1	3.6	0.00e+00	0	48	104	0	60	120106
2026-01-28 10:13:54.91	258.41	1.98	-55.4	-60.1	3.6	0.00e+00	0	48	104	0	60	120157
2026-01-28 10:13:55.91	258.33	1.91	-55.6	-60.2	3.6	0.00e+00	0	49	104	0	60	120633
2026-01-28 10:13:56.92	258.24	1.85	-55.4	-60.1	3.6	0.00e+00	0	48	104	0	60	120352
2026-01-28 10:13:57.93	258.16	1.79	-55.6	-60.2	3.6	0.00e+00	0	49	104	0	60	120576
2026-01-28 10:13:58.93	258.07	1.73	-54.2	-60.2	3.5	0.00e+00	0	48	104	0	60	120426
2026-01-28 10:13:59.94	257.99	1.67	-55.6	-60.1	3.6	0.00e+00	0	49	104	0	60	120238
2026-01-28 10:14:00.94	257.91	1.60	-55.6	-60.2	3.6	0.00e+00	0	49	104	0	60	120530
2026-01-28 10:14:01.94	257.83	1.54	-55.5	-60.1	3.6	0.00e+00	0	48	104	0	60	119789
2026-01-28 10:14:02.94	257.74	1.48	-55.3	-60.0	3.6	0.00e+00	0	48	104	0	60	118844
2026-01-28 10:14:03.95	257.66	1.42	-55.5	-60.0	3.6	0.00e+00	0	48	104	0	60	118622
2026-01-28 10:14:04.95	257.58	1.36	-55.4	-60.1	3.6	0.00e+00	0	48	104	0	60	119560
2026-01-28 10:14:05.96	257.50	1.30	-55.5	-60.2	3.6	0.00e+00	0	48	104	0	60	120413
2026-01-28 10:14:06.97	257.42	1.24	-55.5	-60.1	3.6	0.00e+00	0	48	104	0	60	120103
2026-01-28 10:14:07.98	257.34	1.18	-55.2	-60.1	3.6	0.00e+00	0	48	104	0	60	119272
2026-01-28 10:14:08.98	257.26	1.12	-55.3	-60.1	3.6	0.00e+00	0	49	104	0	60	119664
2026-01-28 10:14:09.98	257.18	1.06	-55.4	-60.1	3.6	0.00e+00	0	48	104	0	60	119458
2026-01-28 10:14:10.99	257.10	1.00	-55.4	-60.1	3.6	0.00e+00	0	49	104	0	60	119902
2026-01-28 10:14:11.99	257.03	0.94	-55.5	-60.1	3.6	0.00e+00	0	49	104	0	60	119624
2026-01-28 10:14:13.00	256.95	0.88	-55.3	-60.1	3.6	0.00e+00	0	49	104	0	60	119783
2026-01-28 10:14:14.00	256.87	0.82	-55.4	-60.1	3.6	0.00e+00	0	49	104	0	60	120032
2026-01-28 10:14:15.00	256.79	0.76	-55.6	-60.1	3.6	0.00e+00	0	49	104	0	60	119846
2026-01-28 10:14:16.01	256.72	0.70	-55.6	-60.1	3.6	0.00e+00	0	48	104	0	60	119760
2026-01-28 10:14:17.02	256.64	0.64	-55.5	-60.1	3.6	0.00e+00	0	48	104	0	60	119769
2026-01-28 10:14:18.03	256.57	0.58	-55.4	-60.2	3.6	0.00e+00	0	48	104	0	60	120421
2026-01-28 10:14:19.03	256.49	0.52	-55.4	-60.1	3.6	0.00e+00	0	48	104	0	60	119160
2026-01-28 10:14:20.04	256.42	0.46	-55.5	-60.1	3.6	0.00e+00	0	48	104	0	60	119699
2026-01-28 10:14:21.04	256.34	0.40	-54.9	-60.1	3.6	0.00e+00	0	48	104	0	60	119347
2026-01-28 10:14:22.04	256.27	0.34	-55.4	-60.1	3.6	0.00e+00	0	49	104	0	60	119505
2026-01-28 10:14:23.04	256.19	0.28	-55.5	-60.2	3.6	0.00e+00	0	48	104	0	60	120408
2026-01-28 10:14:24.05	256.12	0.22	-54.0	-60.1	3.6	0.00e+00	0	48	104	0	60	119382
2026-01-28 10:14:25.05	256.05	0.17	-55.3	-60.1	3.6	0.00e+00	0	48	104	0	60	119166
2026-01-28 10:14:26.05	255.98	0.11	-54.7	-60.1	3.6	0.00e+00	0	49	104	0	60	119962
2026-01-28 10:14:27.05	255.90	0.05	-55.5	-60.1	3.6	0.00e+00	0	48	104	0	60	119948
2026-01-28 10:14:28.06	255.83	-0.01	-55.5	-60.1	3.6	0.00e+00	0	48	104	0	60	120023
2026-01-28 10:14:29.07	255.76	-0.07	-55.3	-60.1	3.6	0.00e+00	0	49	104	0	60	119667
2026-01-28 10:14:30.08	255.69	-0.13	-55.5	-60.1	3.6	0.00e+00	0	48	104	0	60	119538

#Closed at: 2026-01-28 10:14:30
#Recorded file [0 MB]: D:/Data/35015_260128_131414.dat