passes_logs/2026/01/28/R3.2S-Naryan-Mar/R3.2S-Naryan-Mar__20260128_090348_NOAA_20_JPSS-1_rec.log

#Pass ID: 20260128_090348_NOAA 20 (JPSS-1)
#Satellite: NOAA 20 (JPSS-1)
#Configuration: NOAA 20
#almurnet v.1.7.20240730
#Start time: 2026-01-28 09:06:36

#Version: 2.2.20231116
#Station: R3.2S-Naryan-Mar
#Location: 53.008057 lon 67.646978 lat
#TLE: 1 43013U 17073A   26027.80586608  .00000156  00000+0  94940-4 0  9998
#TLE: 2 43013  98.7647 328.6108 0000947  21.3465 338.7750 14.19541216424550

#Time	Az	El	Level	Level2	SNR	BER	BlckErr	Temp	State	Recorded	gain1	gain2
2026-01-28 09:06:36.25	176.94	12.21	-58.8	-74.2	3.4	1.37e+00	0	45	0	0	60	200402
2026-01-28 09:06:37.25	176.99	12.31	-58.9	-75.6	3.6	1.51e+00	0	46	104	0	60	237147
2026-01-28 09:06:38.26	177.03	12.40	-58.9	-75.6	3.6	1.51e+00	0	46	104	0	60	235367
2026-01-28 09:06:39.26	177.08	12.49	-58.9	-75.6	3.6	1.51e+00	0	46	104	0	60	235460
2026-01-28 09:06:40.27	177.13	12.59	-58.9	-75.6	3.6	1.51e+00	0	46	104	0	60	236140
2026-01-28 09:06:41.27	177.18	12.68	-58.9	-75.6	3.6	1.51e+00	0	46	104	0	60	235970
2026-01-28 09:06:42.27	177.23	12.78	-58.9	-75.6	3.6	1.51e+00	0	46	104	0	60	235420
2026-01-28 09:06:43.27	177.28	12.87	-58.9	-75.5	3.6	1.51e+00	0	46	104	0	60	234278
2026-01-28 09:06:44.27	177.33	12.97	-58.9	-75.5	3.6	1.51e+00	0	46	104	0	60	233555
2026-01-28 09:06:45.27	177.38	13.06	-58.9	-75.5	3.6	1.51e+00	0	46	104	0	60	234188
2026-01-28 09:06:46.27	177.43	13.16	-58.9	-75.6	3.6	1.51e+00	0	46	104	0	60	234841
2026-01-28 09:06:47.26	177.48	13.25	-58.9	-75.5	3.6	1.51e+00	0	46	104	0	60	232080
2026-01-28 09:06:48.26	177.53	13.35	-58.9	-75.5	3.6	1.51e+00	0	46	104	0	60	234173
2026-01-28 09:06:49.26	177.58	13.45	-58.9	-75.5	3.6	1.51e+00	0	46	104	0	60	234296
2026-01-28 09:06:50.26	177.64	13.55	-58.8	-75.5	3.6	1.51e+00	0	46	104	0	60	233152
2026-01-28 09:06:51.26	177.69	13.64	-58.8	-75.5	3.6	1.51e+00	0	46	104	0	60	233555
2026-01-28 09:06:52.25	177.74	13.74	-58.8	-75.5	3.6	1.51e+00	0	46	104	0	60	233910
2026-01-28 09:06:53.25	177.79	13.84	-58.8	-75.6	3.6	1.51e+00	0	46	104	0	60	235087
2026-01-28 09:06:54.24	177.85	13.94	-58.8	-75.4	3.6	1.51e+00	0	46	104	0	60	232015
2026-01-28 09:06:55.24	177.90	14.04	-58.8	-75.5	3.6	1.51e+00	0	46	104	0	60	232367
2026-01-28 09:06:56.24	177.95	14.14	-58.8	-75.4	3.6	1.51e+00	0	46	104	0	60	231051
2026-01-28 09:06:57.23	178.01	14.23	-58.8	-75.4	3.6	1.51e+00	0	46	104	0	60	231126
2026-01-28 09:06:58.24	178.06	14.34	-58.8	-75.4	3.6	1.51e+00	0	47	104	0	60	229399
2026-01-28 09:06:59.24	178.12	14.44	-58.8	-75.4	3.6	1.51e+00	0	46	104	0	60	231401
2026-01-28 09:07:00.25	178.17	14.54	-58.8	-75.4	3.6	1.51e+00	0	46	104	0	60	231984
2026-01-28 09:07:01.25	178.23	14.64	-58.8	-75.5	3.6	1.51e+00	0	46	104	0	60	232822
2026-01-28 09:07:02.25	178.28	14.74	-58.8	-75.5	3.6	1.51e+00	0	46	104	0	60	233015
2026-01-28 09:07:03.25	178.34	14.84	-58.8	-75.4	3.6	1.51e+00	0	46	104	0	60	231632
2026-01-28 09:07:04.25	178.40	14.95	-58.8	-75.5	3.6	1.51e+00	0	46	104	0	60	232743
2026-01-28 09:07:05.24	178.45	15.05	-58.8	-75.5	3.6	1.51e+00	0	46	104	0	60	232103
2026-01-28 09:07:06.24	178.51	15.15	-58.8	-75.4	3.6	1.51e+00	0	46	104	0	60	231612
2026-01-28 09:07:07.24	178.57	15.26	-58.8	-75.4	3.6	1.51e+00	0	46	104	0	60	230234
2026-01-28 09:07:08.26	178.63	15.36	-58.8	-75.4	3.6	1.51e+00	0	46	104	0	60	229876
2026-01-28 09:07:09.25	178.68	15.47	-58.8	-75.3	3.6	1.51e+00	0	46	104	0	60	227916
2026-01-28 09:07:10.25	178.74	15.57	-58.8	-75.4	3.6	1.51e+00	0	46	104	0	60	229838
2026-01-28 09:07:11.25	178.80	15.68	-58.8	-75.4	3.6	1.51e+00	0	46	104	0	60	231978
2026-01-28 09:07:12.24	178.86	15.78	-58.8	-75.4	3.6	1.51e+00	0	47	104	0	60	230236
2026-01-28 09:07:13.24	178.92	15.89	-58.8	-75.0	3.6	1.51e+00	0	46	104	0	60	221184
2026-01-28 09:07:14.25	178.98	16.00	-58.8	-74.6	3.6	1.51e+00	0	47	104	0	60	210887
2026-01-28 09:07:15.24	179.04	16.10	-58.7	-74.2	3.6	1.51e+00	0	47	104	0	60	201824
2026-01-28 09:07:16.25	179.10	16.21	-58.8	-74.4	3.6	1.51e+00	0	47	104	0	60	205003
2026-01-28 09:07:17.25	179.17	16.32	-58.8	-74.8	3.6	1.51e+00	0	47	104	0	60	216339
2026-01-28 09:07:18.26	179.23	16.43	-58.8	-75.4	3.6	1.51e+00	0	46	104	0	60	229589
2026-01-28 09:07:19.25	179.29	16.54	-58.8	-75.2	3.6	1.51e+00	0	46	104	0	60	224620
2026-01-28 09:07:20.26	179.35	16.65	-58.8	-74.2	3.6	1.51e+00	0	46	104	0	60	201967
2026-01-28 09:07:21.26	179.42	16.76	-58.7	-73.1	3.6	1.50e+00	0	46	104	0	60	177398
2026-01-28 09:07:22.26	179.48	16.87	-58.7	-72.5	3.8	1.48e+00	0	46	104	0	60	165954
2026-01-28 09:07:23.26	179.55	16.98	-58.7	-72.0	4.0	1.49e+00	0	46	104	0	60	156528
2026-01-28 09:07:24.26	179.61	17.09	-58.5	-68.8	4.9	1.29e+00	0	46	0	0	60	108441
2026-01-28 09:07:25.25	179.67	17.20	-58.0	-65.2	8.6	1.36e-01	0	46	0	2097152	60	71323
2026-01-28 09:07:26.26	179.74	17.32	-57.1	-62.1	12.2	3.19e-03	0	46	0	4194304	60	49665
2026-01-28 09:07:27.25	179.81	17.43	-56.0	-59.5	15.0	1.14e-05	0	46	0	6291456	60	36800
2026-01-28 09:07:28.26	179.87	17.55	-54.8	-57.5	17.1	0.00e+00	0	46	0	8388608	60	29221
2026-01-28 09:07:29.26	179.94	17.66	-53.9	-56.0	18.5	0.00e+00	0	46	0	10485760	60	24618
2026-01-28 09:07:30.26	180.01	17.77	-53.3	-55.2	19.2	0.00e+00	0	46	0	11534336	60	22490
2026-01-28 09:07:31.26	180.08	17.89	-53.1	-55.0	19.4	0.00e+00	0	46	0	13631488	60	21966
2026-01-28 09:07:32.27	180.15	18.01	-53.5	-55.5	18.9	0.00e+00	0	46	0	15728640	60	23214
2026-01-28 09:07:33.26	180.21	18.12	-54.2	-56.4	17.9	0.00e+00	0	46	0	17825792	60	26031
2026-01-28 09:07:34.26	180.28	18.24	-54.8	-57.4	17.1	0.00e+00	0	46	0	19922944	60	29028
2026-01-28 09:07:35.26	180.35	18.35	-58.8	-75.1	3.6	1.49e+00	0	46	104	19922944	60	223148
2026-01-28 09:07:36.26	180.42	18.47	-56.2	-59.8	15.0	1.38e+00	0	46	104	19922944	60	38460
2026-01-28 09:07:37.25	180.49	18.59	-58.8	-72.3	3.6	4.38e-01	0	46	104	19922944	60	162098
2026-01-28 09:07:38.25	180.56	18.71	-58.8	-73.0	3.7	1.48e+00	0	46	104	19922944	60	175887
2026-01-28 09:07:39.24	180.64	18.83	-56.9	-61.5	12.6	2.58e-03	0	46	0	1048576	60	46489
2026-01-28 09:07:40.24	180.71	18.95	-54.9	-57.6	17.3	0.00e+00	0	46	0	3145728	60	29569
2026-01-28 09:07:41.24	180.78	19.07	-53.9	-56.0	18.2	0.00e+00	0	46	0	5242880	60	24822
2026-01-28 09:07:42.24	180.86	19.19	-54.1	-56.4	18.0	0.00e+00	0	46	0	6291456	60	25771
2026-01-28 09:07:43.24	180.93	19.31	-53.7	-55.8	18.7	0.00e+00	0	46	0	8388608	60	24028
2026-01-28 09:07:44.24	181.00	19.43	-53.5	-55.3	19.1	0.00e+00	0	46	0	10485760	60	22913
2026-01-28 09:07:45.24	181.08	19.55	-53.3	-55.1	19.4	0.00e+00	0	46	0	12582912	60	22218
2026-01-28 09:07:46.25	181.16	19.68	-53.1	-54.9	19.7	0.00e+00	0	46	0	13631488	60	21661
2026-01-28 09:07:47.25	181.23	19.80	-52.8	-54.4	20.2	0.00e+00	0	46	0	15728640	60	20482
2026-01-28 09:07:48.25	181.31	19.92	-52.4	-54.0	20.5	0.00e+00	0	46	0	17825792	60	19596
2026-01-28 09:07:49.26	181.39	20.05	-52.5	-54.1	20.4	0.00e+00	0	46	0	19922944	60	19784
2026-01-28 09:07:50.26	181.47	20.18	-52.5	-54.0	20.5	0.00e+00	0	46	0	22020096	60	19617
2026-01-28 09:07:51.27	181.55	20.30	-52.5	-54.1	20.5	0.00e+00	0	46	0	24117248	60	19818
2026-01-28 09:07:52.27	181.63	20.43	-52.5	-54.0	20.5	0.00e+00	0	46	0	25165824	60	19730
2026-01-28 09:07:53.27	181.71	20.56	-52.5	-54.0	20.6	0.00e+00	0	46	0	27262976	60	19607
2026-01-28 09:07:54.27	181.79	20.68	-52.4	-53.9	20.7	0.00e+00	0	46	0	29360128	60	19437
2026-01-28 09:07:55.28	181.87	20.81	-52.5	-54.0	20.7	0.00e+00	0	46	0	31457280	60	19571
2026-01-28 09:07:56.29	181.95	20.94	-52.3	-53.8	20.9	0.00e+00	0	46	0	33554432	60	19189
2026-01-28 09:07:57.29	182.03	21.07	-52.3	-53.8	20.9	0.00e+00	0	46	0	34603008	60	19091
2026-01-28 09:07:58.28	182.12	21.20	-52.2	-53.7	21.0	0.00e+00	0	46	0	36700160	60	18943
2026-01-28 09:07:59.28	182.20	21.33	-52.3	-53.8	20.9	0.00e+00	0	46	0	38797312	60	19141
2026-01-28 09:08:00.29	182.29	21.46	-52.1	-53.5	21.2	0.00e+00	0	46	0	40894464	60	18547
2026-01-28 09:08:01.29	182.37	21.60	-52.1	-53.4	21.3	0.00e+00	0	46	0	41943040	60	18424
2026-01-28 09:08:02.29	182.46	21.73	-52.1	-53.4	21.3	0.00e+00	0	46	0	44040192	60	18369
2026-01-28 09:08:03.29	182.54	21.86	-52.2	-53.5	21.3	0.00e+00	0	46	0	46137344	60	18643
2026-01-28 09:08:04.28	182.63	22.00	-52.1	-53.4	21.4	0.00e+00	0	46	0	48234496	60	18350
2026-01-28 09:08:05.29	182.72	22.13	-52.2	-53.6	21.3	0.00e+00	0	46	0	50331648	60	18697
2026-01-28 09:08:06.29	182.81	22.27	-52.1	-53.5	21.4	0.00e+00	0	46	0	51380224	60	18434
2026-01-28 09:08:07.29	182.90	22.40	-51.9	-53.2	21.6	0.00e+00	0	46	0	53477376	60	17970
2026-01-28 09:08:08.29	182.99	22.54	-51.8	-53.1	21.8	0.00e+00	0	46	0	55574528	60	17627
2026-01-28 09:08:09.30	183.08	22.68	-51.8	-53.1	21.8	0.00e+00	0	46	0	57671680	60	17680
2026-01-28 09:08:10.29	183.17	22.81	-51.9	-53.2	21.7	0.00e+00	0	46	0	59768832	60	17858
2026-01-28 09:08:11.29	183.27	22.95	-51.8	-53.1	21.9	0.00e+00	0	46	0	60817408	60	17609
2026-01-28 09:08:12.29	183.36	23.09	-51.7	-52.9	22.0	0.00e+00	0	46	0	62914560	60	17384
2026-01-28 09:08:13.29	183.45	23.23	-51.7	-52.9	22.1	0.00e+00	0	46	0	65011712	60	17335
2026-01-28 09:08:14.29	183.55	23.37	-51.7	-53.0	22.0	0.00e+00	0	46	0	67108864	60	17439
2026-01-28 09:08:15.29	183.64	23.51	-51.7	-52.9	22.1	0.00e+00	0	46	0	69206016	60	17326
2026-01-28 09:08:16.29	183.74	23.65	-51.8	-53.0	22.0	0.00e+00	0	46	0	70254592	60	17584
2026-01-28 09:08:17.29	183.84	23.80	-51.8	-53.0	22.2	0.00e+00	0	46	0	72351744	60	17535
2026-01-28 09:08:18.29	183.94	23.94	-51.8	-53.0	22.0	0.00e+00	0	46	0	74448896	60	17466
2026-01-28 09:08:19.29	184.04	24.08	-51.8	-53.1	22.1	0.00e+00	0	46	0	76546048	60	17651
2026-01-28 09:08:20.30	184.14	24.23	-51.8	-53.0	22.2	0.00e+00	0	46	0	77594624	60	17471
2026-01-28 09:08:21.30	184.24	24.38	-51.8	-53.1	22.0	0.00e+00	0	46	0	79691776	60	17651
2026-01-28 09:08:22.30	184.34	24.52	-51.9	-53.1	22.0	0.00e+00	0	46	0	81788928	60	17756
2026-01-28 09:08:23.30	184.44	24.67	-51.7	-52.9	22.2	0.00e+00	0	46	0	83886080	60	17350
2026-01-28 09:08:24.31	184.55	24.82	-51.7	-52.9	22.2	0.00e+00	0	46	0	85983232	60	17389
2026-01-28 09:08:25.31	184.65	24.97	-51.7	-52.9	22.3	0.00e+00	0	46	0	87031808	60	17303
2026-01-28 09:08:26.31	184.76	25.12	-51.6	-52.8	22.3	0.00e+00	0	46	0	89128960	60	17190
2026-01-28 09:08:27.31	184.87	25.27	-51.6	-52.8	22.4	0.00e+00	0	46	0	91226112	60	17018
2026-01-28 09:08:28.31	184.97	25.42	-51.6	-52.8	22.3	0.00e+00	0	46	0	93323264	60	17038
2026-01-28 09:08:29.31	185.08	25.57	-51.7	-52.9	22.3	0.00e+00	0	46	0	95420416	60	17376
2026-01-28 09:08:30.32	185.19	25.72	-51.7	-52.9	22.3	0.00e+00	0	46	0	96468992	60	17342
2026-01-28 09:08:31.32	185.30	25.87	-51.8	-53.0	22.2	0.00e+00	0	46	0	98566144	60	17595
2026-01-28 09:08:32.32	185.42	26.03	-51.9	-53.1	22.1	0.00e+00	0	46	0	100663296	60	17722
2026-01-28 09:08:33.32	185.53	26.18	-51.9	-53.2	22.1	0.00e+00	0	46	0	102760448	60	17831
2026-01-28 09:08:34.31	185.64	26.34	-52.0	-53.3	22.0	0.00e+00	0	46	0	104857600	60	18118
2026-01-28 09:08:35.31	185.76	26.49	-52.2	-53.4	21.9	0.00e+00	0	46	0	105906176	60	18396
2026-01-28 09:08:36.31	185.87	26.65	-52.3	-53.6	21.9	0.00e+00	0	46	0	108003328	60	18649
2026-01-28 09:08:37.31	185.99	26.81	-52.4	-53.7	21.8	0.00e+00	0	46	0	110100480	60	19060
2026-01-28 09:08:38.32	186.11	26.97	-52.4	-53.6	21.9	0.00e+00	0	46	0	112197632	60	18843
2026-01-28 09:08:39.33	186.23	27.13	-52.5	-53.8	21.7	0.00e+00	0	46	0	113246208	60	19260
2026-01-28 09:08:40.32	186.35	27.29	-52.6	-53.9	21.6	0.00e+00	0	46	0	115343360	60	19396
2026-01-28 09:08:41.33	186.47	27.45	-52.6	-53.9	21.6	0.00e+00	0	46	0	117440512	60	19386
2026-01-28 09:08:42.33	186.60	27.61	-52.6	-53.9	21.6	0.00e+00	0	47	0	119537664	60	19429
2026-01-28 09:08:43.32	186.72	27.77	-52.8	-54.1	21.2	0.00e+00	0	46	0	121634816	60	19859
2026-01-28 09:08:44.32	186.84	27.93	-52.8	-54.1	21.5	0.00e+00	0	46	0	122683392	60	19960
2026-01-28 09:08:45.32	186.97	28.10	-53.0	-54.4	21.2	0.00e+00	0	46	0	124780544	60	20539
2026-01-28 09:08:46.32	187.10	28.26	-53.1	-54.5	21.2	0.00e+00	0	46	0	126877696	60	20735
2026-01-28 09:08:47.32	187.23	28.43	-53.2	-54.7	21.0	0.00e+00	0	46	0	128974848	60	21223
2026-01-28 09:08:48.32	187.36	28.59	-53.4	-54.9	20.8	0.00e+00	0	46	0	131072000	60	21821
2026-01-28 09:08:49.32	187.49	28.76	-53.7	-55.3	20.5	0.00e+00	0	46	0	132120576	60	22687
2026-01-28 09:08:50.32	187.62	28.93	-53.9	-55.5	20.3	0.00e+00	0	46	0	134217728	60	23317
2026-01-28 09:08:51.33	187.76	29.10	-54.1	-55.8	20.0	0.00e+00	0	46	0	136314880	60	24045
2026-01-28 09:08:52.33	187.90	29.27	-54.3	-56.0	19.9	0.00e+00	0	46	0	138412032	60	24621
2026-01-28 09:08:53.34	188.03	29.44	-54.5	-56.2	19.6	0.00e+00	0	46	0	139460608	60	25291
2026-01-28 09:08:54.34	188.17	29.62	-54.5	-56.3	19.6	0.00e+00	0	46	0	141557760	60	25471
2026-01-28 09:08:55.35	188.31	29.79	-54.7	-56.5	19.3	0.00e+00	0	46	0	143654912	60	26292
2026-01-28 09:08:56.36	188.46	29.97	-54.9	-56.8	19.0	0.00e+00	0	46	0	145752064	60	27103
2026-01-28 09:08:57.36	188.60	30.14	-55.0	-57.0	18.8	0.00e+00	0	46	0	147849216	60	27825
2026-01-28 09:08:58.37	188.75	30.32	-55.2	-57.2	18.6	0.00e+00	0	46	0	149946368	60	28474
2026-01-28 09:08:59.37	188.89	30.49	-55.4	-57.6	18.4	0.00e+00	0	46	0	150994944	60	29555
2026-01-28 09:09:00.37	189.04	30.67	-55.6	-58.0	18.0	0.00e+00	0	46	0	153092096	60	30959
2026-01-28 09:09:01.36	189.19	30.85	-55.8	-58.2	17.7	0.00e+00	0	46	0	155189248	60	31953
2026-01-28 09:09:02.36	189.34	31.02	-56.0	-58.4	17.6	0.00e+00	0	46	0	157286400	60	32639
2026-01-28 09:09:03.36	189.49	31.20	-56.1	-58.6	17.5	0.00e+00	0	46	0	159383552	60	33355
2026-01-28 09:09:04.36	189.65	31.38	-56.3	-58.8	17.4	0.00e+00	0	46	0	160432128	60	34129
2026-01-28 09:09:05.37	189.80	31.57	-56.4	-58.9	17.2	0.00e+00	0	46	0	162529280	60	34702
2026-01-28 09:09:06.37	189.96	31.75	-56.5	-59.2	17.1	0.00e+00	0	46	0	164626432	60	35690
2026-01-28 09:09:07.38	190.12	31.94	-56.4	-59.0	17.2	0.00e+00	0	46	0	166723584	60	34744
2026-01-28 09:09:08.39	190.29	32.12	-56.3	-58.9	17.3	0.00e+00	0	46	0	167772160	60	34570
2026-01-28 09:09:09.39	190.45	32.31	-56.3	-58.8	17.4	0.00e+00	0	46	0	169869312	60	34155
2026-01-28 09:09:10.39	190.61	32.49	-56.2	-58.7	17.5	0.00e+00	0	47	0	171966464	60	33912
2026-01-28 09:09:11.39	190.78	32.68	-56.0	-58.3	17.9	0.00e+00	0	46	0	174063616	60	32095
2026-01-28 09:09:12.38	190.95	32.87	-55.9	-58.2	18.0	0.00e+00	0	46	0	176160768	60	31722
2026-01-28 09:09:13.39	191.12	33.06	-55.9	-58.2	18.1	0.00e+00	0	46	0	177209344	60	31703
2026-01-28 09:09:14.39	191.29	33.25	-55.6	-57.7	18.5	0.00e+00	0	46	0	179306496	60	30043
2026-01-28 09:09:15.39	191.47	33.44	-55.4	-57.4	18.9	0.00e+00	0	46	0	181403648	60	29047
2026-01-28 09:09:16.40	191.64	33.63	-55.3	-57.2	19.0	0.00e+00	0	46	0	183500800	60	28404
2026-01-28 09:09:17.40	191.82	33.82	-55.2	-57.1	19.0	0.00e+00	0	46	0	185597952	60	28068
2026-01-28 09:09:18.41	192.00	34.02	-55.2	-57.1	19.0	0.00e+00	0	46	0	186646528	60	27914
2026-01-28 09:09:19.42	192.19	34.21	-55.3	-57.3	18.9	0.00e+00	0	46	0	188743680	60	28593
2026-01-28 09:09:20.42	192.37	34.41	-55.5	-57.5	18.8	0.00e+00	0	46	0	190840832	60	29342
2026-01-28 09:09:21.42	192.56	34.60	-55.5	-57.5	18.8	0.00e+00	0	46	0	192937984	60	29278
2026-01-28 09:09:22.43	192.75	34.80	-55.6	-57.6	18.6	0.00e+00	0	46	0	195035136	60	29854
2026-01-28 09:09:23.43	192.94	35.00	-55.6	-57.6	18.5	0.00e+00	0	46	0	196083712	60	29797
2026-01-28 09:09:24.43	193.14	35.20	-55.5	-57.5	18.6	0.00e+00	0	46	0	198180864	60	29478
2026-01-28 09:09:25.42	193.33	35.40	-55.5	-57.5	18.6	0.00e+00	0	46	0	200278016	60	29534
2026-01-28 09:09:26.43	193.53	35.60	-55.6	-57.6	18.6	0.00e+00	0	46	0	202375168	60	29859
2026-01-28 09:09:27.43	193.73	35.80	-55.4	-57.5	18.7	0.00e+00	0	46	0	203423744	60	29318
2026-01-28 09:09:28.44	193.94	36.00	-55.3	-57.3	19.0	0.00e+00	0	46	0	205520896	60	28564
2026-01-28 09:09:29.44	194.14	36.21	-55.1	-56.9	19.4	0.00e+00	0	46	0	207618048	60	27342
2026-01-28 09:09:30.45	194.35	36.41	-55.2	-57.0	19.4	0.00e+00	0	46	0	209715200	60	27680
2026-01-28 09:09:31.46	194.57	36.62	-55.1	-56.9	19.4	0.00e+00	0	46	0	211812352	60	27512
2026-01-28 09:09:32.46	194.78	36.83	-54.9	-56.6	19.8	0.00e+00	0	46	0	213909504	60	26492
2026-01-28 09:09:33.47	195.00	37.04	-54.5	-56.2	20.2	0.00e+00	0	46	0	214958080	60	25213
2026-01-28 09:09:34.47	195.22	37.24	-54.7	-56.3	20.1	0.00e+00	0	46	0	217055232	60	25675
2026-01-28 09:09:35.48	195.44	37.45	-54.7	-56.3	20.2	0.00e+00	0	46	0	219152384	60	25721
2026-01-28 09:09:36.48	195.66	37.66	-54.7	-56.4	20.0	0.00e+00	0	46	0	221249536	60	25922
2026-01-28 09:09:37.47	195.89	37.87	-54.7	-56.4	20.0	0.00e+00	0	46	0	223346688	60	25754
2026-01-28 09:09:38.48	196.12	38.08	-54.9	-56.6	19.8	0.00e+00	0	46	0	224395264	60	26450
2026-01-28 09:09:39.48	196.35	38.29	-55.1	-56.8	19.5	0.00e+00	0	46	0	226492416	60	27181
2026-01-28 09:09:40.48	196.59	38.51	-55.1	-57.0	19.4	0.00e+00	0	46	0	228589568	60	27585
2026-01-28 09:09:41.49	196.83	38.72	-55.2	-57.0	19.4	0.00e+00	0	46	0	230686720	60	27778
2026-01-28 09:09:42.49	197.07	38.94	-55.0	-56.8	19.6	0.00e+00	0	46	0	231735296	60	27120
2026-01-28 09:09:43.50	197.32	39.15	-54.8	-56.5	19.9	0.00e+00	0	46	0	233832448	60	26141
2026-01-28 09:09:44.50	197.57	39.37	-54.5	-56.1	20.3	0.00e+00	0	46	0	235929600	60	25058
2026-01-28 09:09:45.51	197.83	39.59	-54.2	-55.7	20.6	0.00e+00	0	46	0	238026752	60	23893
2026-01-28 09:09:46.52	198.08	39.81	-54.2	-55.7	20.6	0.00e+00	0	46	0	240123904	60	23787
2026-01-28 09:09:47.52	198.34	40.02	-54.0	-55.5	20.8	0.00e+00	0	46	0	241172480	60	23218
2026-01-28 09:09:48.53	198.61	40.25	-53.7	-55.1	21.2	0.00e+00	0	46	0	243269632	60	22202
2026-01-28 09:09:49.54	198.87	40.47	-53.8	-55.2	21.2	0.00e+00	0	46	0	245366784	60	22525
2026-01-28 09:09:50.55	199.15	40.69	-53.7	-55.1	21.1	0.00e+00	0	46	0	247463936	60	22344
2026-01-28 09:09:51.55	199.42	40.91	-53.9	-55.4	20.9	0.00e+00	0	46	0	249561088	60	22965
2026-01-28 09:09:52.55	199.70	41.13	-54.1	-55.6	20.8	0.00e+00	0	46	0	250609664	60	23581
2026-01-28 09:09:53.54	199.97	41.35	-54.2	-55.7	20.7	0.00e+00	0	46	0	252706816	60	23813
2026-01-28 09:09:54.54	200.26	41.57	-54.1	-55.6	20.7	0.00e+00	0	46	0	254803968	60	23512
2026-01-28 09:09:55.55	200.55	41.80	-54.0	-55.5	20.7	0.00e+00	0	46	0	256901120	60	23406
2026-01-28 09:09:56.55	200.84	42.02	-53.9	-55.4	20.9	0.00e+00	0	46	0	257949696	60	23023
2026-01-28 09:09:57.55	201.14	42.24	-53.9	-55.4	20.9	0.00e+00	0	46	0	260046848	60	23003
2026-01-28 09:09:58.55	201.44	42.47	-54.0	-55.4	20.9	0.00e+00	0	46	0	262144000	60	23127
2026-01-28 09:09:59.56	201.74	42.70	-54.1	-55.5	20.8	0.00e+00	0	46	0	264241152	60	23439
2026-01-28 09:10:00.55	202.05	42.92	-54.0	-55.5	20.7	0.00e+00	0	46	0	266338304	60	23255
2026-01-28 09:10:01.55	202.36	43.15	-54.4	-55.9	20.4	0.00e+00	0	46	0	267386880	60	24539
2026-01-28 09:10:02.55	202.68	43.37	-54.5	-56.0	20.2	0.00e+00	0	46	0	269484032	60	24774
2026-01-28 09:10:03.55	203.00	43.60	-54.4	-56.0	20.4	0.00e+00	0	46	0	271581184	60	24650
2026-01-28 09:10:04.55	203.32	43.83	-54.5	-56.0	20.3	0.00e+00	0	46	0	273678336	60	24850
2026-01-28 09:10:05.55	203.66	44.05	-54.6	-56.2	20.1	0.00e+00	0	46	0	275775488	60	25172
2026-01-28 09:10:06.55	203.99	44.28	-54.5	-56.0	20.3	0.00e+00	0	46	0	276824064	60	24806
2026-01-28 09:10:07.55	204.33	44.51	-54.9	-56.5	19.8	0.00e+00	0	46	0	278921216	60	26275
2026-01-28 09:10:08.55	204.68	44.74	-55.1	-56.8	19.6	0.00e+00	0	46	0	281018368	60	27225
2026-01-28 09:10:09.55	205.02	44.97	-55.5	-57.4	18.8	0.00e+00	0	46	0	283115520	60	29090
2026-01-28 09:10:10.56	205.38	45.20	-55.7	-57.7	18.7	0.00e+00	0	46	0	285212672	60	29982
2026-01-28 09:10:11.56	205.74	45.43	-55.8	-57.9	18.4	0.00e+00	0	46	0	286261248	60	30617
2026-01-28 09:10:12.56	206.11	45.65	-55.9	-58.0	18.4	0.00e+00	0	46	0	288358400	60	31032
2026-01-28 09:10:13.57	206.48	45.88	-55.9	-58.0	18.5	0.00e+00	0	46	0	290455552	60	30959
2026-01-28 09:10:14.57	206.86	46.11	-55.8	-57.7	18.6	0.00e+00	0	46	0	292552704	60	30232
2026-01-28 09:10:15.56	207.23	46.34	-56.0	-58.1	18.3	0.00e+00	0	46	0	294649856	60	31657
2026-01-28 09:10:16.57	207.62	46.57	-56.2	-58.4	18.0	0.00e+00	0	46	0	295698432	60	32622
2026-01-28 09:10:17.56	208.01	46.80	-56.7	-59.2	17.3	0.00e+00	0	46	0	297795584	60	35648
2026-01-28 09:10:18.57	208.41	47.03	-57.2	-59.9	16.5	0.00e+00	0	46	0	299892736	60	38644
2026-01-28 09:10:19.57	208.82	47.25	-57.6	-60.7	15.8	0.00e+00	0	46	0	301989888	60	42364
2026-01-28 09:10:20.57	209.23	47.48	-58.0	-61.3	15.2	0.00e+00	0	46	0	304087040	60	45662
2026-01-28 09:10:21.58	209.65	47.71	-57.8	-60.9	15.6	0.00e+00	0	46	0	305135616	60	43426
2026-01-28 09:10:22.58	210.07	47.94	-57.5	-60.4	16.0	0.00e+00	0	46	0	307232768	60	41194
2026-01-28 09:10:23.58	210.50	48.17	-57.5	-60.4	16.2	0.00e+00	0	46	0	309329920	60	40992
2026-01-28 09:10:24.58	210.93	48.39	-57.7	-60.7	15.9	0.00e+00	0	46	0	311427072	60	42389
2026-01-28 09:10:25.57	211.37	48.61	-58.2	-61.6	15.0	0.00e+00	0	46	0	313524224	60	47130
2026-01-28 09:10:26.57	211.81	48.84	-58.5	-62.3	14.1	0.00e+00	0	46	0	314572800	60	51282
2026-01-28 09:10:27.56	212.26	49.06	-58.5	-62.3	14.2	3.80e-06	0	46	0	316669952	60	51183
2026-01-28 09:10:28.56	212.72	49.28	-58.2	-61.6	15.0	7.00e-07	0	46	0	318767104	60	47253
2026-01-28 09:10:29.56	213.19	49.51	-57.4	-60.1	16.6	0.00e+00	0	46	0	320864256	60	39757
2026-01-28 09:10:30.57	213.66	49.73	-56.8	-59.2	17.5	0.00e+00	0	46	0	321912832	60	35756
2026-01-28 09:10:31.57	214.14	49.95	-56.5	-58.7	18.0	0.00e+00	0	46	0	324009984	60	33923
2026-01-28 09:10:32.57	214.63	50.17	-56.6	-58.8	17.7	0.00e+00	0	46	0	326107136	60	34236
2026-01-28 09:10:33.57	215.12	50.39	-56.7	-59.1	17.6	0.00e+00	0	46	0	328204288	60	35191
2026-01-28 09:10:34.57	215.62	50.60	-56.9	-59.3	17.4	0.00e+00	0	46	0	330301440	60	36251
2026-01-28 09:10:35.57	216.13	50.82	-56.7	-59.0	17.8	0.00e+00	0	46	0	331350016	60	35106
2026-01-28 09:10:36.58	216.65	51.04	-56.1	-58.1	18.7	0.00e+00	0	46	0	333447168	60	31406
2026-01-28 09:10:37.58	217.17	51.25	-55.5	-57.3	19.3	0.00e+00	0	46	0	335544320	60	28753
2026-01-28 09:10:38.58	217.70	51.46	-55.0	-56.7	19.9	0.00e+00	0	46	0	337641472	60	26705
2026-01-28 09:10:39.58	218.24	51.67	-54.8	-56.4	20.3	0.00e+00	0	46	0	339738624	60	25862
2026-01-28 09:10:40.58	218.79	51.88	-54.6	-56.2	20.4	0.00e+00	0	46	0	340787200	60	25234
2026-01-28 09:10:41.58	219.34	52.08	-54.5	-56.1	20.5	0.00e+00	0	46	0	342884352	60	24949
2026-01-28 09:10:42.58	219.90	52.29	-54.8	-56.4	19.9	0.00e+00	0	46	0	344981504	60	25805
2026-01-28 09:10:43.58	220.47	52.49	-54.8	-56.4	20.2	0.00e+00	0	46	0	347078656	60	25846
2026-01-28 09:10:44.58	221.04	52.69	-54.5	-56.0	20.6	0.00e+00	0	46	0	349175808	60	24754
2026-01-28 09:10:45.58	221.62	52.89	-54.2	-55.7	20.8	0.00e+00	0	46	0	350224384	60	23946
2026-01-28 09:10:46.58	222.21	53.09	-54.2	-55.6	20.9	0.00e+00	0	46	0	352321536	60	23592
2026-01-28 09:10:47.59	222.82	53.28	-54.4	-55.9	20.7	0.00e+00	0	46	0	354418688	60	24314
2026-01-28 09:10:48.59	223.43	53.47	-54.6	-56.1	20.3	0.00e+00	0	46	0	356515840	60	25151
2026-01-28 09:10:49.59	224.04	53.66	-54.5	-56.0	20.4	0.00e+00	0	46	0	357564416	60	24729
2026-01-28 09:10:50.58	224.66	53.85	-53.9	-55.4	20.9	0.00e+00	0	46	0	359661568	60	23095
2026-01-28 09:10:51.59	225.29	54.03	-53.5	-54.8	21.5	0.00e+00	0	46	0	361758720	60	21521
2026-01-28 09:10:52.59	225.93	54.21	-53.5	-54.8	21.4	0.00e+00	0	46	0	363855872	60	21540
2026-01-28 09:10:53.59	226.58	54.39	-53.6	-55.0	21.3	0.00e+00	0	46	0	365953024	60	22002
2026-01-28 09:10:54.60	227.24	54.56	-53.9	-55.3	20.9	0.00e+00	0	46	0	367001600	60	22870
2026-01-28 09:10:55.60	227.90	54.74	-54.1	-55.6	20.6	0.00e+00	0	46	0	369098752	60	23696
2026-01-28 09:10:56.60	228.57	54.90	-54.2	-55.7	20.6	0.00e+00	0	46	0	371195904	60	23901
2026-01-28 09:10:57.60	229.25	55.07	-53.5	-54.9	21.4	0.00e+00	0	46	0	373293056	60	21773
2026-01-28 09:10:58.60	229.94	55.23	-53.1	-54.4	21.8	0.00e+00	0	46	0	375390208	60	20648
2026-01-28 09:10:59.60	230.63	55.39	-53.2	-54.5	21.7	0.00e+00	0	46	0	376438784	60	20791
2026-01-28 09:11:00.60	231.33	55.54	-53.6	-55.0	21.1	0.00e+00	0	46	0	378535936	60	22156
2026-01-28 09:11:01.60	232.04	55.69	-54.1	-55.7	20.6	0.00e+00	0	46	0	380633088	60	23776
2026-01-28 09:11:02.60	232.75	55.84	-54.3	-55.8	20.5	0.00e+00	0	46	0	382730240	60	24128
2026-01-28 09:11:03.60	233.48	55.98	-53.8	-55.3	21.0	0.00e+00	0	46	0	383778816	60	22752
2026-01-28 09:11:04.60	234.21	56.12	-53.6	-55.0	21.3	0.00e+00	0	46	0	385875968	60	22111
2026-01-28 09:11:05.60	234.95	56.25	-53.6	-54.9	21.2	0.00e+00	0	46	0	387973120	60	21901
2026-01-28 09:11:06.59	235.68	56.38	-53.7	-55.1	21.2	0.00e+00	0	46	0	390070272	60	22370
2026-01-28 09:11:07.59	236.44	56.51	-54.0	-55.5	20.9	0.00e+00	0	46	0	392167424	60	23225
2026-01-28 09:11:08.59	237.19	56.63	-54.1	-55.7	20.7	0.00e+00	0	46	0	393216000	60	23750
2026-01-28 09:11:09.59	237.96	56.75	-54.3	-55.8	20.5	0.00e+00	0	46	0	395313152	60	24236
2026-01-28 09:11:10.60	238.74	56.86	-54.1	-55.6	20.8	0.00e+00	0	46	0	397410304	60	23602
2026-01-28 09:11:11.60	239.51	56.97	-53.9	-55.4	20.9	0.00e+00	0	46	0	399507456	60	23024
2026-01-28 09:11:12.60	240.30	57.07	-54.0	-55.5	20.8	0.00e+00	0	46	0	401604608	60	23222
2026-01-28 09:11:13.60	241.09	57.17	-54.1	-55.7	20.6	0.00e+00	0	46	0	402653184	60	23814
2026-01-28 09:11:14.60	241.88	57.26	-54.3	-55.9	20.4	0.00e+00	0	46	0	404750336	60	24423
2026-01-28 09:11:15.60	242.68	57.35	-55.0	-56.8	19.4	0.00e+00	0	46	0	406847488	60	27146
2026-01-28 09:11:16.60	243.48	57.43	-55.4	-57.5	18.7	0.00e+00	0	46	0	408944640	60	29355
2026-01-28 09:11:17.60	244.29	57.50	-55.2	-57.2	19.0	0.00e+00	0	46	0	411041792	60	28512
2026-01-28 09:11:18.60	245.11	57.58	-55.3	-57.3	18.9	0.00e+00	0	46	0	412090368	60	28591
2026-01-28 09:11:19.60	245.92	57.64	-56.1	-58.5	17.7	0.00e+00	0	46	0	414187520	60	33089
2026-01-28 09:11:20.59	246.74	57.70	-56.5	-59.2	16.9	0.00e+00	0	46	0	416284672	60	35760
2026-01-28 09:11:21.60	247.57	57.76	-56.3	-59.0	17.1	0.00e+00	0	46	0	418381824	60	35069
2026-01-28 09:11:22.60	248.40	57.81	-55.9	-58.5	17.6	0.00e+00	0	46	0	419430400	60	32955
2026-01-28 09:11:23.61	249.24	57.85	-55.9	-58.4	17.8	0.00e+00	0	46	0	421527552	60	32507
2026-01-28 09:11:24.61	250.07	57.89	-55.6	-58.0	18.0	0.00e+00	0	46	0	423624704	60	31112
2026-01-28 09:11:25.61	250.91	57.93	-55.7	-58.2	17.6	0.00e+00	0	46	0	425721856	60	31936
2026-01-28 09:11:26.61	251.75	57.95	-56.1	-59.0	16.9	0.00e+00	0	46	0	427819008	60	35120
2026-01-28 09:11:27.62	252.59	57.98	-56.0	-59.0	17.1	0.00e+00	0	46	0	428867584	60	34776
2026-01-28 09:11:28.62	253.43	57.99	-55.5	-58.2	17.7	0.00e+00	0	46	0	430964736	60	31738
2026-01-28 09:11:29.62	254.28	58.00	-55.4	-58.0	17.6	0.00e+00	0	46	0	433061888	60	31018
2026-01-28 09:11:30.61	255.11	58.01	-55.9	-58.9	16.9	0.00e+00	0	46	0	435159040	60	34675
2026-01-28 09:11:31.62	255.96	58.01	-55.7	-58.9	16.9	0.00e+00	0	46	0	437256192	60	34446
2026-01-28 09:11:32.61	256.79	58.00	-55.5	-58.4	17.3	0.00e+00	0	46	0	438304768	60	32507
2026-01-28 09:11:33.61	257.63	57.99	-55.6	-58.7	17.1	0.00e+00	0	46	0	440401920	60	33547
2026-01-28 09:11:34.61	258.47	57.97	-55.3	-58.2	17.7	0.00e+00	0	46	0	442499072	60	31854
2026-01-28 09:11:35.61	259.31	57.95	-54.7	-57.3	18.5	0.00e+00	0	46	0	444596224	60	28792
2026-01-28 09:11:36.61	260.15	57.92	-54.3	-57.0	18.7	0.00e+00	0	46	0	445644800	60	27630
2026-01-28 09:11:37.61	260.98	57.88	-54.1	-56.6	19.0	0.00e+00	0	46	0	447741952	60	26572
2026-01-28 09:11:38.62	261.82	57.84	-53.5	-55.7	19.9	0.00e+00	0	46	0	449839104	60	23932
2026-01-28 09:11:39.62	262.65	57.80	-53.4	-55.6	20.0	0.00e+00	0	46	0	451936256	60	23708
2026-01-28 09:11:40.61	263.47	57.74	-53.9	-56.6	19.0	0.00e+00	0	46	0	454033408	60	26424
2026-01-28 09:11:41.61	264.30	57.69	-54.3	-57.4	18.5	0.00e+00	0	46	0	455081984	60	29013
2026-01-28 09:11:42.62	265.12	57.62	-53.8	-56.8	18.7	0.00e+00	0	46	0	457179136	60	27189
2026-01-28 09:11:43.62	265.94	57.56	-53.7	-56.8	18.8	0.00e+00	0	46	0	459276288	60	27104
2026-01-28 09:11:44.63	266.76	57.48	-54.1	-57.8	17.7	0.00e+00	0	46	0	461373440	60	30473
2026-01-28 09:11:45.63	267.57	57.40	-54.3	-59.0	16.3	0.00e+00	0	46	0	463470592	60	34763
2026-01-28 09:11:46.64	268.38	57.32	-54.4	-60.0	15.3	7.00e-07	0	46	0	464519168	60	39109
2026-01-28 09:11:47.64	269.17	57.23	-54.4	-60.8	14.3	0.00e+00	0	46	0	466616320	60	43091
2026-01-28 09:11:48.64	269.97	57.14	-54.2	-60.8	14.1	2.20e-06	0	46	0	468713472	60	43088
2026-01-28 09:11:49.65	270.76	57.04	-53.9	-60.3	14.4	7.00e-07	0	46	0	470810624	60	40615
2026-01-28 09:11:50.66	271.55	56.93	-53.8	-60.6	14.0	7.00e-07	0	46	0	472907776	60	41978
2026-01-28 09:11:51.66	272.32	56.82	-53.5	-59.9	14.5	1.50e-06	0	46	0	473956352	60	38807
2026-01-28 09:11:52.67	273.10	56.71	-53.1	-58.8	15.6	0.00e+00	0	46	0	476053504	60	34113
2026-01-28 09:11:53.67	273.86	56.59	-52.7	-58.1	16.0	0.00e+00	0	46	0	478150656	60	31621
2026-01-28 09:11:54.68	274.62	56.47	-52.7	-58.4	15.7	7.00e-07	0	46	0	480247808	60	32688
2026-01-28 09:11:55.69	275.38	56.34	-52.9	-58.9	15.1	0.00e+00	0	46	0	482344960	60	34510
2026-01-28 09:11:56.69	276.12	56.21	-52.8	-58.6	15.5	0.00e+00	0	46	0	483393536	60	33513
2026-01-28 09:11:57.70	276.86	56.07	-52.4	-57.4	16.8	0.00e+00	0	46	0	485490688	60	29176
2026-01-28 09:11:58.71	277.60	55.93	-52.3	-56.9	17.3	0.00e+00	0	46	0	487587840	60	27319
2026-01-28 09:11:59.72	278.32	55.78	-52.5	-56.5	17.8	0.00e+00	0	46	0	489684992	60	26281
2026-01-28 09:12:00.72	279.04	55.64	-52.7	-56.8	17.8	0.00e+00	0	46	0	491782144	60	27188
2026-01-28 09:12:01.73	279.75	55.48	-52.5	-55.9	18.9	0.00e+00	0	46	0	492830720	60	24521
2026-01-28 09:12:02.73	280.45	55.33	-52.1	-55.0	19.7	0.00e+00	0	46	0	494927872	60	21982
2026-01-28 09:12:03.74	281.14	55.17	-51.7	-54.2	20.6	0.00e+00	0	46	0	497025024	60	20179
2026-01-28 09:12:04.74	281.82	55.01	-51.4	-53.6	21.4	0.00e+00	0	46	0	499122176	60	18800
2026-01-28 09:12:05.74	282.50	54.84	-51.5	-53.6	21.5	0.00e+00	0	46	0	501219328	60	18774
2026-01-28 09:12:06.75	283.17	54.67	-51.2	-53.1	22.2	0.00e+00	0	46	0	502267904	60	17638
2026-01-28 09:12:07.75	283.83	54.50	-51.0	-52.6	22.8	0.00e+00	0	46	0	504365056	60	16705
2026-01-28 09:12:08.76	284.48	54.32	-50.7	-52.1	23.4	0.00e+00	0	46	0	506462208	60	15784
2026-01-28 09:12:09.76	285.13	54.14	-50.6	-51.9	23.7	0.00e+00	0	46	0	508559360	60	15386
2026-01-28 09:12:10.76	285.76	53.96	-50.6	-51.8	23.8	0.00e+00	0	46	0	510656512	60	15259
2026-01-28 09:12:11.77	286.39	53.77	-50.9	-52.2	23.4	0.00e+00	0	46	0	511705088	60	15885
2026-01-28 09:12:12.78	287.02	53.59	-50.9	-52.2	23.2	0.00e+00	0	46	0	513802240	60	16003
2026-01-28 09:12:13.79	287.63	53.39	-50.4	-51.8	23.5	0.00e+00	0	46	0	515899392	60	15244
2026-01-28 09:12:14.79	288.24	53.20	-50.2	-51.7	23.3	0.00e+00	0	46	0	517996544	60	15077
2026-01-28 09:12:15.80	288.84	53.01	-50.2	-51.9	22.8	0.00e+00	0	46	0	520093696	60	15384
2026-01-28 09:12:16.80	289.42	52.81	-50.4	-52.3	22.6	0.00e+00	0	46	0	521142272	60	16106
2026-01-28 09:12:17.81	290.01	52.61	-50.9	-53.1	21.8	0.00e+00	0	46	0	523239424	60	17726
2026-01-28 09:12:18.81	290.58	52.41	-51.2	-53.7	21.0	0.00e+00	0	46	0	525336576	60	18973
2026-01-28 09:12:19.82	291.15	52.20	-51.2	-53.9	20.5	0.00e+00	0	46	0	527433728	60	19485
2026-01-28 09:12:20.83	291.71	52.00	-50.9	-53.6	20.5	0.00e+00	0	46	0	529530880	60	18838
2026-01-28 09:12:21.83	292.25	51.79	-50.9	-53.9	20.1	0.00e+00	0	46	0	530579456	60	19408
2026-01-28 09:12:22.83	292.79	51.58	-51.6	-55.4	18.6	0.00e+00	0	46	0	532676608	60	22953
2026-01-28 09:12:23.83	293.33	51.37	-52.4	-57.0	17.1	0.00e+00	0	46	0	534773760	60	27773
2026-01-28 09:12:24.84	293.86	51.16	-52.8	-57.7	16.9	0.00e+00	0	46	0	536870912	60	30236
2026-01-28 09:12:25.83	294.37	50.95	-52.7	-56.6	18.2	0.00e+00	0	46	0	537919488	60	26460
2026-01-28 09:12:26.84	294.89	50.73	-52.7	-56.0	19.0	0.00e+00	0	46	0	540016640	60	24647
2026-01-28 09:12:27.84	295.39	50.52	-53.4	-56.6	18.3	0.00e+00	0	46	0	542113792	60	26393
2026-01-28 09:12:28.85	295.89	50.30	-54.8	-58.9	16.0	0.00e+00	0	46	0	544210944	60	34559
2026-01-28 09:12:29.86	296.39	50.08	-55.7	-61.2	13.9	0.00e+00	0	46	0	546308096	60	44838
2026-01-28 09:12:30.86	296.87	49.86	-55.0	-59.7	15.7	2.20e-06	0	46	0	548405248	60	37768
2026-01-28 09:12:31.87	297.35	49.64	-54.2	-57.8	17.5	0.00e+00	0	46	0	549453824	60	30281
2026-01-28 09:12:32.88	297.82	49.41	-54.2	-57.8	17.7	0.00e+00	0	46	0	551550976	60	30299
2026-01-28 09:12:33.89	298.29	49.19	-54.8	-58.7	16.9	0.00e+00	0	46	0	553648128	60	33586
2026-01-28 09:12:34.89	298.74	48.97	-55.4	-59.5	16.1	0.00e+00	0	46	0	555745280	60	36886
2026-01-28 09:12:35.90	299.20	48.74	-55.9	-60.1	15.6	0.00e+00	0	46	0	557842432	60	39759
2026-01-28 09:12:36.91	299.64	48.51	-55.7	-59.3	16.6	0.00e+00	0	46	0	558891008	60	36204
2026-01-28 09:12:37.91	300.08	48.29	-55.2	-58.3	17.5	0.00e+00	0	46	0	560988160	60	32273
2026-01-28 09:12:38.92	300.51	48.06	-55.1	-57.8	18.2	0.00e+00	0	46	0	563085312	60	30444
2026-01-28 09:12:39.92	300.94	47.84	-54.9	-57.5	18.7	0.00e+00	0	46	0	565182464	60	29365
2026-01-28 09:12:40.92	301.35	47.61	-55.8	-59.0	17.1	0.00e+00	0	46	0	566231040	60	34942
2026-01-28 09:12:41.93	301.77	47.38	-56.8	-61.2	15.0	0.00e+00	0	46	0	568328192	60	45116
2026-01-28 09:12:42.94	302.18	47.15	-56.7	-61.1	15.0	1.50e-06	0	46	0	570425344	60	44341
2026-01-28 09:12:43.95	302.58	46.92	-55.5	-59.1	16.7	0.00e+00	0	46	0	572522496	60	35438
2026-01-28 09:12:44.96	302.98	46.69	-54.8	-58.6	16.9	0.00e+00	0	46	0	574619648	60	33388
2026-01-28 09:12:45.96	303.37	46.47	-53.8	-57.9	17.4	0.00e+00	0	46	0	576716800	60	30695
2026-01-28 09:12:46.97	303.75	46.24	-54.1	-59.4	16.0	0.00e+00	0	46	0	577765376	60	36586
2026-01-28 09:12:47.98	304.14	46.01	-54.3	-60.1	15.6	0.00e+00	0	46	0	579862528	60	39513
2026-01-28 09:12:48.98	304.51	45.78	-54.8	-60.5	15.3	0.00e+00	0	46	0	581959680	60	41655
2026-01-28 09:12:49.99	304.88	45.55	-55.1	-59.5	16.5	0.00e+00	0	46	0	584056832	60	36882
2026-01-28 09:12:50.99	305.24	45.32	-55.1	-58.3	17.1	0.00e+00	0	46	0	586153984	60	32366
2026-01-28 09:12:52.00	305.60	45.09	-54.8	-57.6	17.9	0.00e+00	0	46	0	587202560	60	29563
2026-01-28 09:12:53.01	305.95	44.86	-54.7	-57.5	17.7	0.00e+00	0	46	0	589299712	60	29446
2026-01-28 09:12:54.01	306.30	44.63	-55.2	-58.4	17.1	0.00e+00	0	46	0	591396864	60	32763
2026-01-28 09:12:55.02	306.64	44.40	-55.7	-59.3	16.7	0.00e+00	0	46	0	593494016	60	36005
2026-01-28 09:12:56.02	306.98	44.18	-55.8	-59.1	17.1	0.00e+00	0	46	0	594542592	60	35180
2026-01-28 09:12:57.03	307.31	43.95	-55.9	-58.7	17.6	0.00e+00	0	46	0	596639744	60	33589
2026-01-28 09:12:58.04	307.65	43.72	-56.1	-58.4	17.7	0.00e+00	0	46	0	598736896	60	32598
2026-01-28 09:12:59.04	307.97	43.49	-56.4	-58.8	17.1	0.00e+00	0	46	0	600834048	60	33945
2026-01-28 09:13:00.04	308.29	43.27	-56.5	-59.2	16.9	0.00e+00	0	46	0	602931200	60	35730
2026-01-28 09:13:01.05	308.60	43.04	-55.6	-58.2	17.8	0.00e+00	0	46	0	603979776	60	31736
2026-01-28 09:13:02.05	308.91	42.82	-54.9	-57.3	18.7	0.00e+00	0	46	0	606076928	60	28805
2026-01-28 09:13:03.05	309.22	42.59	-54.8	-57.3	18.7	0.00e+00	0	46	0	608174080	60	28640
2026-01-28 09:13:04.05	309.52	42.37	-55.3	-58.3	17.7	0.00e+00	0	46	0	610271232	60	32046
2026-01-28 09:13:05.06	309.82	42.14	-56.2	-59.8	16.3	0.00e+00	0	46	0	612368384	60	38108
2026-01-28 09:13:06.07	310.11	41.92	-56.2	-59.4	16.4	0.00e+00	0	46	0	614465536	60	36646
2026-01-28 09:13:07.08	310.41	41.69	-55.3	-57.8	17.9	0.00e+00	0	46	0	615514112	60	30562
2026-01-28 09:13:08.08	310.69	41.47	-54.8	-57.0	18.5	0.00e+00	0	46	0	617611264	60	27873
2026-01-28 09:13:09.09	310.97	41.25	-54.8	-57.0	18.3	0.00e+00	0	46	0	619708416	60	27871
2026-01-28 09:13:10.09	311.25	41.03	-55.0	-57.5	17.9	0.00e+00	0	46	0	621805568	60	29427
2026-01-28 09:13:11.09	311.52	40.81	-55.3	-58.0	17.3	0.00e+00	0	46	0	622854144	60	31249
2026-01-28 09:13:12.09	311.79	40.59	-55.5	-58.6	17.1	0.00e+00	0	46	0	624951296	60	33236
2026-01-28 09:13:13.10	312.06	40.37	-55.7	-59.1	16.8	0.00e+00	0	46	0	627048448	60	35387
2026-01-28 09:13:14.11	312.33	40.15	-55.8	-59.4	16.5	0.00e+00	0	46	0	629145600	60	36762
2026-01-28 09:13:15.11	312.59	39.93	-55.7	-59.3	16.8	0.00e+00	0	46	0	631242752	60	36050
2026-01-28 09:13:16.12	312.85	39.71	-55.4	-58.4	17.6	0.00e+00	0	46	0	632291328	60	32471
2026-01-28 09:13:17.13	313.10	39.49	-55.3	-57.8	18.3	0.00e+00	0	46	0	634388480	60	30328
2026-01-28 09:13:18.13	313.35	39.28	-55.5	-57.7	18.3	0.00e+00	0	46	0	636485632	60	30043
2026-01-28 09:13:19.14	313.60	39.06	-55.3	-57.3	18.6	0.00e+00	0	46	0	638582784	60	28594
2026-01-28 09:13:20.15	313.85	38.85	-56.0	-58.5	17.1	0.00e+00	0	46	0	640679936	60	32967
2026-01-28 09:13:21.16	314.09	38.63	-56.8	-60.5	14.3	0.00e+00	0	46	0	641728512	60	41274
2026-01-28 09:13:22.16	314.32	38.42	-56.8	-61.0	14.0	1.29e-05	0	46	0	643825664	60	43739
2026-01-28 09:13:23.17	314.56	38.21	-55.9	-59.1	16.5	7.00e-07	0	46	0	645922816	60	35491
2026-01-28 09:13:24.18	314.79	38.00	-55.1	-57.7	18.0	0.00e+00	0	46	0	648019968	60	29894
2026-01-28 09:13:25.19	315.02	37.78	-54.8	-57.1	18.8	0.00e+00	0	46	0	650117120	60	28066
2026-01-28 09:13:26.19	315.25	37.58	-54.4	-56.5	19.3	0.00e+00	0	46	0	651165696	60	26286
2026-01-28 09:13:27.19	315.47	37.37	-55.0	-57.3	18.8	0.00e+00	0	46	0	653262848	60	28597
2026-01-28 09:13:28.19	315.69	37.16	-55.9	-58.6	17.5	0.00e+00	0	46	0	655360000	60	33275
2026-01-28 09:13:29.20	315.91	36.95	-56.7	-60.1	15.2	0.00e+00	0	46	0	657457152	60	39518
2026-01-28 09:13:30.21	316.13	36.75	-56.6	-60.1	14.3	1.50e-06	0	46	0	659554304	60	39564
2026-01-28 09:13:31.21	316.34	36.54	-55.7	-58.6	16.3	0.00e+00	0	46	0	660602880	60	33241
2026-01-28 09:13:32.22	316.55	36.34	-54.8	-57.3	18.0	0.00e+00	0	46	0	662700032	60	28569
2026-01-28 09:13:33.23	316.76	36.13	-54.1	-56.1	19.1	0.00e+00	0	46	0	664797184	60	25142
2026-01-28 09:13:34.23	316.96	35.93	-54.0	-55.9	19.9	0.00e+00	0	46	0	666894336	60	24403
2026-01-28 09:13:35.24	317.16	35.73	-54.0	-55.9	20.1	0.00e+00	0	46	0	668991488	60	24378
2026-01-28 09:13:36.25	317.36	35.53	-53.6	-55.3	20.6	0.00e+00	0	46	0	670040064	60	22915
2026-01-28 09:13:37.25	317.56	35.33	-53.6	-55.3	20.7	0.00e+00	0	46	0	672137216	60	22720
2026-01-28 09:13:38.26	317.76	35.13	-54.0	-55.8	20.3	0.00e+00	0	46	0	674234368	60	24055
2026-01-28 09:13:39.27	317.95	34.93	-54.7	-56.8	19.3	0.00e+00	0	46	0	676331520	60	27145
2026-01-28 09:13:40.27	318.14	34.73	-55.5	-57.9	18.2	0.00e+00	0	46	0	678428672	60	30832
2026-01-28 09:13:41.27	318.33	34.54	-56.0	-58.6	17.6	0.00e+00	0	46	0	679477248	60	33189
2026-01-28 09:13:42.28	318.52	34.34	-55.7	-58.1	18.1	0.00e+00	0	46	0	681574400	60	31533
2026-01-28 09:13:43.28	318.70	34.15	-55.3	-57.5	18.7	0.00e+00	0	46	0	683671552	60	29367
2026-01-28 09:13:44.28	318.88	33.95	-54.9	-57.0	19.2	0.00e+00	0	46	0	685768704	60	27693
2026-01-28 09:13:45.28	319.06	33.76	-54.5	-56.6	19.5	0.00e+00	0	46	0	687865856	60	26379
2026-01-28 09:13:46.29	319.24	33.57	-54.2	-56.4	19.8	0.00e+00	0	46	0	688914432	60	25811
2026-01-28 09:13:47.29	319.41	33.38	-54.2	-56.4	19.6	0.00e+00	0	46	0	691011584	60	25976
2026-01-28 09:13:48.29	319.58	33.19	-54.4	-56.7	19.5	0.00e+00	0	46	0	693108736	60	26858
2026-01-28 09:13:49.29	319.76	33.00	-54.6	-57.1	19.1	0.00e+00	0	46	0	695205888	60	28138
2026-01-28 09:13:50.30	319.93	32.81	-55.0	-57.6	18.5	0.00e+00	0	46	0	697303040	60	29800
2026-01-28 09:13:51.30	320.09	32.63	-55.1	-57.7	18.4	0.00e+00	0	46	0	698351616	60	30113
2026-01-28 09:13:52.30	320.26	32.44	-55.3	-57.9	18.1	0.00e+00	0	46	0	700448768	60	30788
2026-01-28 09:13:53.30	320.42	32.26	-55.6	-58.2	17.8	0.00e+00	0	46	0	702545920	60	31857
2026-01-28 09:13:54.30	320.58	32.07	-55.7	-58.3	17.7	0.00e+00	0	46	0	704643072	60	32234
2026-01-28 09:13:55.31	320.75	31.89	-55.9	-58.5	17.6	0.00e+00	0	46	0	706740224	60	32894
2026-01-28 09:13:56.31	320.90	31.71	-55.9	-58.5	17.6	0.00e+00	0	46	0	707788800	60	33005
2026-01-28 09:13:57.32	321.06	31.52	-56.0	-58.6	17.5	0.00e+00	0	46	0	709885952	60	33381
2026-01-28 09:13:58.33	321.22	31.34	-55.8	-58.4	17.8	0.00e+00	0	46	0	711983104	60	32552
2026-01-28 09:13:59.33	321.37	31.16	-55.6	-58.3	17.9	0.00e+00	0	46	0	714080256	60	32041
2026-01-28 09:14:00.33	321.52	30.99	-55.4	-57.9	18.2	0.00e+00	0	46	0	715128832	60	30642
2026-01-28 09:14:01.33	321.67	30.81	-55.2	-57.6	18.6	0.00e+00	0	46	0	717225984	60	29766
2026-01-28 09:14:02.33	321.82	30.63	-55.2	-57.4	18.8	0.00e+00	0	46	0	719323136	60	29046
2026-01-28 09:14:03.34	321.97	30.45	-54.9	-57.0	19.1	0.00e+00	0	46	0	721420288	60	27732
2026-01-28 09:14:04.34	322.11	30.28	-55.0	-57.0	19.1	0.00e+00	0	46	0	723517440	60	27778
2026-01-28 09:14:05.35	322.26	30.10	-55.1	-57.2	19.0	0.00e+00	0	46	0	724566016	60	28336
2026-01-28 09:14:06.36	322.40	29.93	-55.2	-57.5	18.7	0.00e+00	0	46	0	726663168	60	29236
2026-01-28 09:14:07.36	322.54	29.76	-55.1	-57.6	18.6	0.00e+00	0	46	0	728760320	60	29776
2026-01-28 09:14:08.36	322.68	29.59	-55.0	-57.8	18.2	0.00e+00	0	46	0	730857472	60	30491
2026-01-28 09:14:09.37	322.82	29.41	-54.8	-57.8	18.2	0.00e+00	0	46	0	732954624	60	30474
2026-01-28 09:14:10.37	322.96	29.24	-54.6	-57.8	18.3	0.00e+00	0	46	0	735051776	60	30257
2026-01-28 09:14:11.37	323.09	29.08	-54.7	-58.0	18.1	0.00e+00	0	46	0	736100352	60	30991
2026-01-28 09:14:12.37	323.23	28.91	-54.6	-57.7	18.3	0.00e+00	0	46	0	738197504	60	30213
2026-01-28 09:14:13.37	323.36	28.74	-54.5	-57.5	18.5	0.00e+00	0	46	0	740294656	60	29421
2026-01-28 09:14:14.38	323.49	28.57	-54.5	-57.4	18.7	0.00e+00	0	46	0	742391808	60	29055
2026-01-28 09:14:15.38	323.62	28.41	-54.5	-57.1	19.0	0.00e+00	0	46	0	743440384	60	28208
2026-01-28 09:14:16.38	323.75	28.24	-54.5	-56.9	19.2	0.00e+00	0	46	0	745537536	60	27547
2026-01-28 09:14:17.38	323.88	28.08	-54.7	-56.9	19.1	0.00e+00	0	46	0	747634688	60	27525
2026-01-28 09:14:18.38	324.00	27.92	-54.6	-56.7	19.4	0.00e+00	0	46	0	749731840	60	26690
2026-01-28 09:14:19.38	324.13	27.75	-54.7	-56.8	19.2	0.00e+00	0	46	0	751828992	60	27174
2026-01-28 09:14:20.39	324.25	27.59	-54.8	-56.9	19.1	0.00e+00	0	46	0	752877568	60	27360
2026-01-28 09:14:21.39	324.37	27.43	-55.0	-57.1	18.8	0.00e+00	0	46	0	754974720	60	27917
2026-01-28 09:14:22.39	324.49	27.27	-55.1	-57.2	18.7	0.00e+00	0	46	0	757071872	60	28230
2026-01-28 09:14:23.40	324.62	27.11	-55.2	-57.3	18.5	0.00e+00	0	46	0	759169024	60	28832
2026-01-28 09:14:24.40	324.73	26.95	-55.4	-57.5	18.5	0.00e+00	0	46	0	761266176	60	29296
2026-01-28 09:14:25.41	324.85	26.80	-55.5	-57.6	18.3	0.00e+00	0	46	0	762314752	60	29739
2026-01-28 09:14:26.41	324.97	26.64	-55.6	-57.8	18.2	0.00e+00	0	46	0	764411904	60	30365
2026-01-28 09:14:27.41	325.09	26.48	-55.5	-57.6	18.3	0.00e+00	0	46	0	766509056	60	29874
2026-01-28 09:14:28.43	325.20	26.33	-55.5	-57.7	18.2	0.00e+00	0	46	0	768606208	60	29933
2026-01-28 09:14:29.43	325.32	26.17	-55.5	-57.6	18.3	0.00e+00	0	46	0	769654784	60	29756
2026-01-28 09:14:30.44	325.43	26.02	-55.5	-57.6	18.3	0.00e+00	0	46	0	771751936	60	29880
2026-01-28 09:14:31.44	325.54	25.86	-55.5	-57.7	18.2	0.00e+00	0	46	0	773849088	60	30039
2026-01-28 09:14:32.45	325.65	25.71	-55.4	-57.5	18.4	0.00e+00	0	46	0	775946240	60	29390
2026-01-28 09:14:33.45	325.76	25.56	-55.4	-57.5	18.4	0.00e+00	0	46	0	778043392	60	29439
2026-01-28 09:14:34.46	325.87	25.41	-55.3	-57.4	18.5	0.00e+00	0	46	0	779091968	60	29089
2026-01-28 09:14:35.46	325.98	25.26	-55.1	-57.1	18.8	0.00e+00	0	46	0	781189120	60	27967
2026-01-28 09:14:36.46	326.08	25.11	-55.0	-57.0	18.8	0.00e+00	0	46	0	783286272	60	27760
2026-01-28 09:14:37.47	326.19	24.96	-54.7	-56.6	19.2	0.00e+00	0	46	0	785383424	60	26630
2026-01-28 09:14:38.47	326.29	24.81	-54.5	-56.5	19.3	0.00e+00	0	46	0	787480576	60	26143
2026-01-28 09:14:39.47	326.40	24.67	-54.2	-56.1	19.6	0.00e+00	0	46	0	789577728	60	24965
2026-01-28 09:14:40.48	326.50	24.52	-54.0	-55.8	19.9	0.00e+00	0	46	0	790626304	60	24137
2026-01-28 09:14:41.48	326.60	24.38	-53.8	-55.6	20.0	0.00e+00	0	46	0	792723456	60	23705
2026-01-28 09:14:42.49	326.70	24.23	-53.8	-55.6	20.0	0.00e+00	0	46	0	794820608	60	23676
2026-01-28 09:14:43.50	326.80	24.08	-53.8	-55.6	20.0	0.00e+00	0	46	0	796917760	60	23737
2026-01-28 09:14:44.51	326.90	23.94	-53.9	-55.7	20.0	0.00e+00	0	46	0	797966336	60	23867
2026-01-28 09:14:45.51	327.00	23.80	-53.9	-55.8	19.9	0.00e+00	0	46	0	800063488	60	24235
2026-01-28 09:14:46.52	327.10	23.66	-54.0	-56.0	19.7	0.00e+00	0	46	0	802160640	60	24791
2026-01-28 09:14:47.53	327.20	23.51	-54.2	-56.3	19.4	0.00e+00	0	46	0	804257792	60	25528
2026-01-28 09:14:48.54	327.30	23.37	-54.3	-56.5	19.1	0.00e+00	0	46	0	806354944	60	26258
2026-01-28 09:14:49.54	327.39	23.23	-54.4	-56.6	19.0	0.00e+00	0	46	0	807403520	60	26578
2026-01-28 09:14:50.55	327.48	23.09	-54.4	-56.8	19.0	0.00e+00	0	46	0	809500672	60	26980
2026-01-28 09:14:51.56	327.58	22.95	-54.5	-56.8	18.9	0.00e+00	0	46	0	811597824	60	27060
2026-01-28 09:14:52.56	327.67	22.82	-54.4	-56.7	19.0	0.00e+00	0	46	0	813694976	60	26800
2026-01-28 09:14:53.57	327.76	22.68	-54.4	-56.6	19.1	0.00e+00	0	46	0	815792128	60	26528
2026-01-28 09:14:54.58	327.86	22.54	-54.1	-56.2	19.5	0.00e+00	0	46	0	817889280	60	25346
2026-01-28 09:14:55.59	327.95	22.40	-54.0	-56.0	19.7	0.00e+00	0	46	0	818937856	60	24838
2026-01-28 09:14:56.59	328.04	22.27	-54.0	-56.0	19.7	0.00e+00	0	46	0	821035008	60	24834
2026-01-28 09:14:57.60	328.13	22.13	-53.6	-55.5	20.2	0.00e+00	0	46	0	823132160	60	23345
2026-01-28 09:14:58.61	328.21	22.00	-53.4	-55.3	20.3	0.00e+00	0	46	0	825229312	60	22753
2026-01-28 09:14:59.62	328.30	21.86	-53.4	-55.4	20.1	0.00e+00	0	46	0	826277888	60	22956
2026-01-28 09:15:00.62	328.39	21.73	-53.2	-55.1	20.4	0.00e+00	0	46	0	828375040	60	22396
2026-01-28 09:15:01.63	328.47	21.60	-53.2	-55.1	20.5	0.00e+00	0	46	0	830472192	60	22248
2026-01-28 09:15:02.64	328.56	21.47	-53.3	-55.2	20.4	0.00e+00	0	46	0	832569344	60	22521
2026-01-28 09:15:03.65	328.65	21.34	-53.4	-55.2	20.3	0.00e+00	0	46	0	834666496	60	22661
2026-01-28 09:15:04.66	328.73	21.20	-53.6	-55.4	20.2	0.00e+00	0	46	0	835715072	60	23148
2026-01-28 09:15:05.66	328.81	21.08	-53.7	-55.4	20.2	0.00e+00	0	46	0	837812224	60	23187
2026-01-28 09:15:06.67	328.90	20.95	-53.9	-55.6	20.1	0.00e+00	0	46	0	839909376	60	23523
2026-01-28 09:15:07.67	328.98	20.82	-53.9	-55.6	20.0	0.00e+00	0	46	0	842006528	60	23654
2026-01-28 09:15:08.67	329.06	20.69	-54.0	-55.7	19.8	0.00e+00	0	46	0	844103680	60	23881
2026-01-28 09:15:09.67	329.14	20.56	-53.8	-55.6	19.9	0.00e+00	0	46	0	846200832	60	23713
2026-01-28 09:15:10.67	329.22	20.44	-53.7	-55.8	19.6	0.00e+00	0	46	0	847249408	60	24046
2026-01-28 09:15:11.68	329.30	20.31	-53.6	-55.6	19.8	0.00e+00	0	46	0	849346560	60	23642
2026-01-28 09:15:12.68	329.38	20.19	-53.4	-55.5	19.8	0.00e+00	0	46	0	851443712	60	23389
2026-01-28 09:15:13.68	329.46	20.06	-53.2	-55.4	19.8	0.00e+00	0	46	0	853540864	60	23142
2026-01-28 09:15:14.68	329.53	19.94	-53.2	-55.5	19.8	0.00e+00	0	46	0	854589440	60	23209
2026-01-28 09:15:15.69	329.61	19.81	-53.0	-55.1	20.2	0.00e+00	0	46	0	856686592	60	22206
2026-01-28 09:15:16.70	329.69	19.69	-52.9	-54.9	20.4	0.00e+00	0	46	0	858783744	60	21735
2026-01-28 09:15:17.71	329.77	19.57	-53.0	-55.0	20.4	0.00e+00	0	46	0	860880896	60	21932
2026-01-28 09:15:18.71	329.84	19.45	-52.9	-54.7	20.7	0.00e+00	0	46	0	862978048	60	21352
2026-01-28 09:15:19.72	329.92	19.32	-53.0	-54.8	20.6	0.00e+00	0	46	0	864026624	60	21472
2026-01-28 09:15:20.73	329.99	19.20	-53.0	-54.7	20.8	0.00e+00	0	46	0	866123776	60	21214
2026-01-28 09:15:21.74	330.06	19.08	-52.8	-54.4	21.1	0.00e+00	0	46	0	868220928	60	20444
2026-01-28 09:15:22.75	330.14	18.96	-52.7	-54.1	21.2	0.00e+00	0	46	0	870318080	60	19910
2026-01-28 09:15:23.76	330.21	18.84	-52.7	-54.1	21.1	0.00e+00	0	46	0	872415232	60	19886
2026-01-28 09:15:24.76	330.28	18.72	-52.7	-54.2	21.0	0.00e+00	0	46	0	874512384	60	19985
2026-01-28 09:15:25.76	330.35	18.60	-52.5	-53.9	21.0	0.00e+00	0	46	0	875560960	60	19449
2026-01-28 09:15:26.77	330.43	18.49	-52.5	-54.0	20.9	0.00e+00	0	46	0	877658112	60	19543
2026-01-28 09:15:27.77	330.50	18.37	-52.4	-53.9	20.8	0.00e+00	0	46	0	879755264	60	19486
2026-01-28 09:15:28.77	330.57	18.25	-52.5	-54.1	20.6	0.00e+00	0	46	0	881852416	60	19960
2026-01-28 09:15:29.78	330.64	18.14	-52.5	-54.1	20.4	0.00e+00	0	46	0	882900992	60	19918
2026-01-28 09:15:30.78	330.71	18.02	-52.6	-54.3	20.3	0.00e+00	0	46	0	884998144	60	20309
2026-01-28 09:15:31.79	330.77	17.91	-52.3	-54.1	20.3	0.00e+00	0	46	0	887095296	60	19856
2026-01-28 09:15:32.79	330.84	17.79	-52.4	-54.3	20.1	0.00e+00	0	46	0	889192448	60	20290
2026-01-28 09:15:33.80	330.91	17.68	-52.3	-54.3	20.1	0.00e+00	0	46	0	891289600	60	20418
2026-01-28 09:15:34.81	330.98	17.56	-52.2	-54.5	20.0	0.00e+00	0	46	0	892338176	60	20692
2026-01-28 09:15:35.82	331.04	17.45	-52.2	-54.7	20.0	0.00e+00	0	46	0	894435328	60	21165
2026-01-28 09:15:36.82	331.11	17.34	-52.2	-54.9	19.8	0.00e+00	0	46	0	896532480	60	21678
2026-01-28 09:15:37.83	331.18	17.22	-52.2	-55.0	19.7	0.00e+00	0	46	0	898629632	60	22155
2026-01-28 09:15:38.83	331.24	17.11	-52.3	-55.3	19.5	0.00e+00	0	47	0	900726784	60	22786
2026-01-28 09:15:39.83	331.31	17.00	-52.4	-55.4	19.5	0.00e+00	0	46	0	901775360	60	23175
2026-01-28 09:15:40.84	331.37	16.89	-52.6	-55.7	19.2	0.00e+00	0	46	0	903872512	60	23876
2026-01-28 09:15:41.84	331.44	16.78	-52.9	-55.8	19.0	0.00e+00	0	46	0	905969664	60	24192
2026-01-28 09:15:42.85	331.50	16.67	-53.0	-55.9	18.9	0.00e+00	0	46	0	908066816	60	24490
2026-01-28 09:15:43.86	331.56	16.56	-53.2	-56.0	18.7	0.00e+00	0	46	0	910163968	60	24848
2026-01-28 09:15:44.87	331.63	16.45	-53.3	-56.2	18.6	0.00e+00	0	46	0	911212544	60	25249
2026-01-28 09:15:45.87	331.69	16.34	-53.4	-56.2	18.4	0.00e+00	0	46	0	913309696	60	25437
2026-01-28 09:15:46.88	331.75	16.24	-53.6	-56.4	18.1	0.00e+00	0	46	0	915406848	60	25762
2026-01-28 09:15:47.89	331.81	16.13	-53.7	-56.4	17.9	0.00e+00	0	46	0	917504000	60	25793
2026-01-28 09:15:48.89	331.87	16.02	-53.8	-56.5	17.6	0.00e+00	0	46	0	919601152	60	26189
2026-01-28 09:15:49.90	331.93	15.91	-53.8	-56.5	17.2	0.00e+00	0	46	0	920649728	60	26281
2026-01-28 09:15:50.91	331.99	15.81	-53.9	-56.7	17.0	0.00e+00	0	46	0	922746880	60	26780
2026-01-28 09:15:51.91	332.05	15.70	-53.7	-56.7	16.8	0.00e+00	0	46	0	924844032	60	26856
2026-01-28 09:15:52.92	332.11	15.60	-53.6	-56.7	16.7	0.00e+00	0	46	0	926941184	60	26905
2026-01-28 09:15:53.93	332.17	15.49	-53.5	-56.8	16.7	0.00e+00	0	46	0	929038336	60	26977
2026-01-28 09:15:54.94	332.23	15.39	-53.6	-56.8	16.8	0.00e+00	0	46	0	930086912	60	27148
2026-01-28 09:15:55.95	332.29	15.28	-53.5	-56.8	16.6	0.00e+00	0	46	0	932184064	60	27151
2026-01-28 09:15:56.96	332.35	15.18	-53.5	-56.9	16.6	0.00e+00	0	46	0	934281216	60	27392
2026-01-28 09:15:57.97	332.41	15.07	-53.5	-57.0	16.5	0.00e+00	0	46	0	936378368	60	27663
2026-01-28 09:15:58.97	332.46	14.97	-53.3	-57.1	16.3	0.00e+00	0	46	0	938475520	60	27989
2026-01-28 09:15:59.98	332.52	14.87	-53.2	-57.1	16.2	0.00e+00	0	46	0	939524096	60	28199
2026-01-28 09:16:00.99	332.58	14.76	-53.1	-57.2	15.9	0.00e+00	0	46	0	941621248	60	28547
2026-01-28 09:16:01.99	332.63	14.66	-53.1	-57.4	15.7	0.00e+00	0	46	0	943718400	60	28969
2026-01-28 09:16:03.00	332.69	14.56	-53.2	-57.6	15.5	0.00e+00	0	47	0	945815552	60	29770
2026-01-28 09:16:04.01	332.75	14.46	-53.4	-57.8	15.4	0.00e+00	0	46	0	947912704	60	30551
2026-01-28 09:16:05.01	332.80	14.36	-53.7	-58.0	15.4	0.00e+00	0	46	0	948961280	60	31182
2026-01-28 09:16:06.02	332.86	14.26	-54.0	-58.3	15.2	0.00e+00	0	46	0	951058432	60	32279
2026-01-28 09:16:07.03	332.91	14.16	-54.4	-58.6	15.1	0.00e+00	0	46	0	953155584	60	33434
2026-01-28 09:16:08.03	332.96	14.06	-54.7	-58.8	15.0	0.00e+00	0	46	0	955252736	60	34199
2026-01-28 09:16:09.04	333.02	13.96	-54.9	-59.1	14.9	0.00e+00	0	46	0	957349888	60	35225
2026-01-28 09:16:10.05	333.07	13.86	-55.2	-59.3	14.7	7.00e-07	0	46	0	958398464	60	36103
2026-01-28 09:16:11.06	333.13	13.76	-55.4	-59.6	14.4	0.00e+00	0	46	0	960495616	60	37232
2026-01-28 09:16:12.06	333.18	13.67	-55.6	-59.9	14.0	1.50e-06	0	47	0	962592768	60	38787
2026-01-28 09:16:13.07	333.23	13.57	-55.8	-60.2	13.7	4.50e-06	0	47	0	964689920	60	40011
2026-01-28 09:16:14.08	333.28	13.47	-55.9	-60.4	13.4	6.80e-06	0	46	0	966787072	60	41180
2026-01-28 09:16:15.08	333.34	13.38	-56.0	-60.7	13.0	1.98e-05	0	46	0	967835648	60	42526
2026-01-28 09:16:16.09	333.39	13.28	-56.0	-60.9	12.8	4.65e-05	0	47	0	969932800	60	43500
2026-01-28 09:16:17.10	333.44	13.18	-56.0	-61.2	12.4	1.55e-04	0	46	0	972029952	60	44873
2026-01-28 09:16:18.10	333.49	13.09	-56.0	-61.4	12.0	2.60e-04	0	46	0	974127104	60	45942
2026-01-28 09:16:19.11	333.54	12.99	-56.0	-61.7	11.6	4.77e-04	0	46	0	976224256	60	47498
2026-01-28 09:16:20.11	333.59	12.90	-56.1	-62.0	11.3	8.01e-04	0	47	0	977272832	60	49096
2026-01-28 09:16:21.11	333.64	12.80	-56.1	-62.1	10.9	1.61e-03	0	47	0	979369984	60	49990
2026-01-28 09:16:22.11	333.69	12.71	-56.1	-62.4	10.5	2.68e-03	0	47	0	981467136	60	51609
2026-01-28 09:16:23.12	333.74	12.62	-55.9	-62.6	10.2	4.73e-03	0	46	0	983564288	60	52808
2026-01-28 09:16:24.12	333.79	12.52	-55.8	-62.8	9.8	8.74e-03	0	46	0	985661440	60	54330
2026-01-28 09:16:25.13	333.84	12.43	-55.4	-63.0	9.3	1.55e-02	0	46	0	986710016	60	55659
2026-01-28 09:16:26.14	333.89	12.34	-54.9	-63.2	8.6	2.62e-02	0	47	0	988807168	60	56899
2026-01-28 09:16:27.15	333.94	12.24	-54.4	-63.4	8.0	4.39e-02	0	47	0	990904320	60	58087
2026-01-28 09:16:28.15	333.98	12.15	-53.9	-63.6	7.4	9.32e-02	0	47	0	993001472	60	59323
2026-01-28 09:16:29.16	334.03	12.06	-53.2	-63.6	6.9	1.39e-01	0	47	0	995098624	60	59305
2026-01-28 09:16:30.16	334.08	11.97	-52.8	-63.9	6.4	1.92e-01	0	46	0	996147200	60	61442
2026-01-28 09:16:31.16	334.13	11.88	-52.2	-64.0	5.9	2.73e-01	0	46	0	998244352	60	61860
2026-01-28 09:16:32.17	334.17	11.79	-52.2	-64.1	5.7	3.14e-01	0	46	0	1000341504	60	62581
2026-01-28 09:16:33.18	334.22	11.70	-51.8	-64.2	5.5	3.78e-01	0	46	0	1002438656	60	63887
2026-01-28 09:16:34.18	334.27	11.61	-51.6	-64.4	5.3	4.98e-01	0	46	0	1004535808	60	65287
2026-01-28 09:16:35.19	334.31	11.52	-51.5	-64.6	5.1	5.14e-01	0	46	0	1005584384	60	66784
2026-01-28 09:16:36.19	334.36	11.43	-51.4	-64.8	4.9	5.70e-01	0	46	0	1007681536	60	68438
2026-01-28 09:16:37.19	334.40	11.34	-51.2	-65.1	4.8	6.08e-01	0	46	0	1009778688	60	70269
2026-01-28 09:16:38.20	334.45	11.25	-50.9	-65.3	4.6	7.01e-01	0	46	0	1011875840	60	72023
2026-01-28 09:16:39.20	334.50	11.16	-50.9	-65.5	4.6	7.32e-01	0	46	0	1013972992	60	73739
2026-01-28 09:16:40.20	334.54	11.07	-50.9	-65.9	4.5	7.47e-01	0	47	0	1015021568	60	76874
2026-01-28 09:16:41.21	334.59	10.98	-50.9	-66.2	4.4	8.43e-01	0	46	0	1017118720	60	79671
2026-01-28 09:16:42.22	334.63	10.90	-51.0	-66.4	4.3	8.78e-01	0	46	0	1019215872	60	81952
2026-01-28 09:16:43.22	334.67	10.81	-51.0	-66.7	4.2	9.20e-01	0	46	0	1021313024	60	84422
2026-01-28 09:16:44.23	334.72	10.72	-51.1	-67.0	4.1	9.98e-01	0	47	0	1023410176	60	87404
2026-01-28 09:16:45.24	334.76	10.64	-51.2	-67.2	4.1	1.06e+00	0	47	0	1024458752	60	90187
2026-01-28 09:16:46.25	334.81	10.55	-51.4	-67.6	4.0	1.18e+00	0	47	0	1026555904	60	93842
2026-01-28 09:16:47.25	334.85	10.46	-51.1	-67.8	3.8	1.31e+00	0	46	0	1027604480	60	95759
2026-01-28 09:16:48.26	334.89	10.38	-51.1	-68.0	3.7	1.43e+00	0	46	0	1027604480	60	98007
2026-01-28 09:16:49.25	334.94	10.29	-51.0	-69.5	3.8	1.45e+00	0	46	104	1027604480	60	116724
2026-01-28 09:16:50.26	334.98	10.21	-50.9	-69.5	3.8	1.50e+00	0	46	104	1027604480	60	116819
2026-01-28 09:16:51.27	335.02	10.12	-50.7	-69.5	3.6	1.51e+00	0	46	104	1027604480	60	116823
2026-01-28 09:16:52.28	335.06	10.04	-50.3	-69.3	3.6	1.51e+00	0	46	104	1027604480	60	113977
2026-01-28 09:16:53.28	335.11	9.95	-50.5	-69.5	3.6	1.51e+00	0	46	104	1027604480	60	116582
2026-01-28 09:16:54.29	335.15	9.87	-50.2	-69.6	3.6	1.51e+00	0	46	104	1027604480	60	117891
2026-01-28 09:16:55.29	335.19	9.78	-51.3	-72.4	3.6	1.51e+00	0	46	104	1027604480	60	162771
2026-01-28 09:16:56.30	335.23	9.70	-51.0	-71.6	3.6	1.51e+00	0	46	104	1027604480	60	148211
2026-01-28 09:16:57.31	335.27	9.62	-50.9	-71.8	3.6	1.51e+00	0	46	104	1027604480	60	152881
2026-01-28 09:16:58.31	335.31	9.53	-53.3	-71.7	3.6	1.51e+00	0	46	104	1027604480	60	150167
2026-01-28 09:16:59.32	335.35	9.45	-50.4	-69.9	3.6	1.51e+00	0	46	104	1027604480	60	121998
2026-01-28 09:17:00.33	335.39	9.37	-50.3	-70.1	3.6	1.51e+00	0	46	104	1027604480	60	124996
2026-01-28 09:17:01.34	335.43	9.28	-49.8	-69.8	3.6	1.51e+00	0	47	104	1027604480	60	121329
2026-01-28 09:17:02.34	335.47	9.20	-51.4	-70.9	3.6	1.51e+00	0	46	104	1027604480	60	137440
2026-01-28 09:17:03.34	335.51	9.12	-54.0	-74.0	3.6	1.51e+00	0	46	104	1027604480	60	197129
2026-01-28 09:17:04.35	335.55	9.04	-49.3	-71.3	3.6	1.51e+00	0	47	104	1027604480	60	143660
2026-01-28 09:17:05.35	335.59	8.96	-52.3	-73.3	3.6	1.51e+00	0	46	104	1027604480	60	180219
2026-01-28 09:17:06.36	335.63	8.88	-49.7	-69.8	3.6	1.51e+00	0	46	104	1027604480	60	121092
2026-01-28 09:17:07.37	335.67	8.80	-48.8	-69.4	3.6	1.51e+00	0	46	104	1027604480	60	116035
2026-01-28 09:17:08.37	335.71	8.72	-48.8	-69.5	3.6	1.51e+00	0	46	104	1027604480	60	116874
2026-01-28 09:17:09.38	335.75	8.63	-48.9	-69.9	3.6	1.51e+00	0	46	104	1027604480	60	122688
2026-01-28 09:17:10.38	335.79	8.56	-52.6	-72.4	3.6	1.51e+00	0	46	104	1027604480	60	163227
2026-01-28 09:17:11.39	335.83	8.48	-53.7	-71.8	3.6	1.51e+00	0	46	104	1027604480	60	153259
2026-01-28 09:17:12.39	335.87	8.40	-50.2	-71.6	3.6	1.51e+00	0	46	104	1027604480	60	149217
2026-01-28 09:17:13.40	335.90	8.32	-54.2	-74.2	3.6	1.51e+00	0	47	104	1027604480	60	199824
2026-01-28 09:17:14.41	335.94	8.24	-49.5	-71.5	3.6	1.51e+00	0	46	104	1027604480	60	146927
2026-01-28 09:17:15.42	335.98	8.16	-50.1	-71.5	3.6	1.51e+00	0	47	104	1027604480	60	147454
2026-01-28 09:17:16.43	336.02	8.08	-50.2	-71.7	3.6	1.51e+00	0	46	104	1027604480	60	149858
2026-01-28 09:17:17.43	336.06	8.00	-50.6	-72.3	3.6	1.51e+00	0	46	104	1027604480	60	160827
2026-01-28 09:17:18.44	336.09	7.92	-52.1	-71.6	3.6	1.51e+00	0	46	104	1027604480	60	149770
2026-01-28 09:17:19.45	336.13	7.84	-52.2	-71.1	3.6	1.51e+00	0	46	104	1027604480	60	140278
2026-01-28 09:17:20.45	336.17	7.77	-53.7	-74.3	3.6	1.51e+00	0	46	104	1027604480	60	204121
2026-01-28 09:17:21.45	336.20	7.69	-53.9	-72.2	3.6	1.51e+00	0	46	104	1027604480	60	159397
2026-01-28 09:17:22.46	336.24	7.61	-52.5	-72.5	3.6	1.51e+00	0	46	104	1027604480	60	164918
2026-01-28 09:17:23.47	336.28	7.53	-52.1	-71.4	3.6	1.51e+00	0	46	104	1027604480	60	145880
2026-01-28 09:17:24.48	336.31	7.46	-52.2	-71.5	3.5	1.51e+00	0	46	104	1027604480	60	146642
2026-01-28 09:17:25.48	336.35	7.38	-51.8	-70.9	3.6	1.51e+00	0	46	104	1027604480	60	136974
2026-01-28 09:17:26.48	336.38	7.31	-54.6	-72.4	3.6	1.51e+00	0	46	104	1027604480	60	162851
2026-01-28 09:17:27.49	336.42	7.23	-52.8	-71.6	3.6	1.51e+00	0	46	104	1027604480	60	148227
2026-01-28 09:17:28.49	336.46	7.15	-52.7	-72.2	3.6	1.51e+00	0	47	104	1027604480	60	159456
2026-01-28 09:17:29.50	336.49	7.08	-52.7	-71.9	3.6	1.51e+00	0	46	104	1027604480	60	154600
2026-01-28 09:17:30.51	336.53	7.00	-53.5	-72.3	3.6	1.51e+00	0	47	104	1027604480	60	162337
2026-01-28 09:17:31.52	336.56	6.93	-52.4	-71.5	3.6	1.51e+00	0	46	104	1027604480	60	147245
2026-01-28 09:17:32.52	336.60	6.85	-52.3	-71.7	3.6	1.51e+00	0	46	104	1027604480	60	151245
2026-01-28 09:17:33.53	336.63	6.78	-52.0	-71.0	3.6	1.51e+00	0	46	104	1027604480	60	138827
2026-01-28 09:17:34.54	336.67	6.70	-55.0	-72.8	3.6	1.51e+00	0	46	104	1027604480	60	171331
2026-01-28 09:17:35.55	336.70	6.63	-54.2	-72.8	3.6	1.51e+00	0	46	104	1027604480	60	171526
2026-01-28 09:17:36.55	336.73	6.55	-53.4	-72.5	3.6	1.51e+00	0	46	104	1027604480	60	166008
2026-01-28 09:17:37.56	336.77	6.48	-54.3	-73.0	3.6	1.51e+00	0	46	104	1027604480	60	175225
2026-01-28 09:17:38.57	336.80	6.40	-52.2	-71.6	3.6	1.51e+00	0	46	104	1027604480	60	148415
2026-01-28 09:17:39.58	336.84	6.33	-52.2	-72.2	3.6	1.51e+00	0	46	104	1027604480	60	160248
2026-01-28 09:17:40.58	336.87	6.26	-52.1	-71.6	3.6	1.51e+00	0	46	104	1027604480	60	149505
2026-01-28 09:17:41.59	336.90	6.18	-52.1	-71.3	3.6	1.51e+00	0	46	104	1027604480	60	144661
2026-01-28 09:17:42.59	336.94	6.11	-55.1	-73.2	3.6	1.51e+00	0	46	104	1027604480	60	179736
2026-01-28 09:17:43.60	336.97	6.04	-55.2	-73.4	3.6	1.51e+00	0	46	104	1027604480	60	183342
2026-01-28 09:17:44.61	337.00	5.97	-53.6	-72.8	3.6	1.51e+00	0	46	104	1027604480	60	171491
2026-01-28 09:17:45.61	337.04	5.89	-51.3	-72.2	3.6	1.51e+00	0	46	104	1027604480	60	159587
2026-01-28 09:17:46.61	337.07	5.82	-56.4	-74.3	3.6	1.51e+00	0	46	104	1027604480	60	202414
2026-01-28 09:17:47.62	337.10	5.75	-59.5	-76.5	3.6	1.51e+00	0	46	104	1027604480	60	262800
2026-01-28 09:17:48.63	337.14	5.68	-59.6	-76.9	3.6	1.51e+00	0	46	104	1027604480	60	275187
2026-01-28 09:17:49.64	337.17	5.61	-60.3	-77.1	3.6	1.51e+00	0	46	104	1027604480	60	280941
2026-01-28 09:17:50.65	337.20	5.53	-58.2	-76.9	3.6	1.51e+00	0	46	104	1027604480	60	273334
2026-01-28 09:17:51.65	337.23	5.46	-57.6	-76.8	3.6	1.51e+00	0	46	104	1027604480	60	270957
2026-01-28 09:17:52.66	337.26	5.39	-60.1	-77.3	3.6	1.51e+00	0	46	104	1027604480	60	287911
2026-01-28 09:17:53.67	337.30	5.32	-60.9	-77.3	3.6	1.51e+00	0	46	104	1027604480	60	286674
2026-01-28 09:17:54.67	337.33	5.25	-60.3	-77.6	3.6	1.51e+00	0	46	104	1027604480	60	298015
2026-01-28 09:17:55.67	337.36	5.18	-60.8	-77.6	3.6	1.51e+00	0	47	104	1027604480	60	297875
2026-01-28 09:17:56.67	337.39	5.11	-58.3	-76.9	3.6	1.51e+00	0	46	104	1027604480	60	274978
