passes_logs/2026/01/28/R3.2S-Naryan-Mar/R3.2S-Naryan-Mar__20260128_102445_SUOMI_NPP_rec.log

#Pass ID: 20260128_102445_SUOMI NPP
#Satellite: SUOMI NPP
#Configuration: NPP
#almurnet v.1.7.20240730
#Start time: 2026-01-28 10:24:50

#Version: 2.2.20231116
#Station: R3.2S-Naryan-Mar
#Location: 53.008057 lon 67.646978 lat
#TLE: 1 37849U 11061A   26027.86188320  .00000172  00000+0  10275-3 0  9990
#TLE: 2 37849  98.7823 329.8005 0002088  41.4184 318.7150 14.19530883738530

#Time	Az	El	Level	Level2	SNR	BER	BlckErr	Temp	State	Recorded	gain1	gain2
2026-01-28 10:24:50.05	203.71	0.26	-55.5	-59.1	3.3	0.00e+00	0	44	0	0	60	107264
2026-01-28 10:24:51.06	203.76	0.32	-61.3	-78.4	3.6	1.51e+00	0	45	104	0	60	327538
2026-01-28 10:24:52.06	203.82	0.37	-61.3	-78.2	3.5	1.51e+00	0	45	104	0	60	317428
2026-01-28 10:24:53.07	203.88	0.43	-61.1	-78.1	3.6	1.51e+00	0	45	104	0	60	313888
2026-01-28 10:24:54.07	203.94	0.48	-61.4	-78.3	3.6	1.51e+00	0	45	104	0	60	320822
2026-01-28 10:24:55.08	204.00	0.54	-61.8	-78.5	3.6	1.51e+00	0	45	104	0	60	330519
2026-01-28 10:24:56.08	204.06	0.59	-61.5	-78.2	3.6	1.51e+00	0	45	104	0	60	320113
2026-01-28 10:24:57.09	204.12	0.65	-61.3	-78.0	3.6	1.51e+00	0	45	104	0	60	312981
2026-01-28 10:24:58.10	204.18	0.70	-61.1	-78.0	3.6	1.51e+00	0	45	104	0	60	311389
2026-01-28 10:24:59.10	204.23	0.76	-60.9	-77.8	3.6	1.51e+00	0	45	104	0	60	304253
2026-01-28 10:25:00.11	204.29	0.81	-60.2	-77.3	3.6	1.51e+00	0	45	104	0	60	288006
2026-01-28 10:25:01.11	204.35	0.87	-60.2	-77.3	3.6	1.51e+00	0	45	104	0	60	286860
2026-01-28 10:25:02.12	204.41	0.92	-60.0	-77.0	3.6	1.51e+00	0	45	104	0	60	276971
2026-01-28 10:25:03.13	204.48	0.98	-59.4	-76.3	3.6	1.51e+00	0	46	104	0	60	255613
2026-01-28 10:25:04.13	204.54	1.03	-58.7	-75.8	3.6	1.51e+00	0	45	104	0	60	240483
2026-01-28 10:25:05.14	204.60	1.09	-57.6	-74.9	3.6	1.51e+00	0	45	104	0	60	218985
2026-01-28 10:25:06.15	204.66	1.15	-57.6	-75.0	3.6	1.51e+00	0	45	104	0	60	219789
2026-01-28 10:25:07.15	204.72	1.20	-57.6	-75.0	3.6	1.51e+00	0	45	104	0	60	221304
2026-01-28 10:25:08.15	204.78	1.26	-57.5	-74.8	3.6	1.51e+00	0	45	104	0	60	215520
2026-01-28 10:25:09.15	204.84	1.31	-57.4	-75.0	3.6	1.51e+00	0	45	104	0	60	221318
2026-01-28 10:25:10.16	204.90	1.37	-57.4	-74.9	3.6	1.51e+00	0	46	104	0	60	218164
2026-01-28 10:25:11.17	204.97	1.43	-57.4	-74.7	3.6	1.51e+00	0	45	104	0	60	213109
2026-01-28 10:25:12.17	205.03	1.48	-57.4	-75.0	3.5	1.51e+00	0	45	104	0	60	220200
2026-01-28 10:25:13.17	205.09	1.54	-57.4	-74.9	3.6	1.51e+00	0	46	104	0	60	217282
2026-01-28 10:25:14.18	205.15	1.60	-57.4	-74.9	3.6	1.51e+00	0	45	104	0	60	218376
2026-01-28 10:25:15.19	205.22	1.65	-57.3	-74.8	3.6	1.51e+00	0	45	104	0	60	216240
2026-01-28 10:25:16.20	205.28	1.71	-57.3	-75.0	3.6	1.51e+00	0	46	104	0	60	219393
2026-01-28 10:25:17.20	205.34	1.77	-57.3	-74.7	3.6	1.51e+00	0	46	104	0	60	213587
2026-01-28 10:25:18.21	205.41	1.82	-57.3	-74.7	3.6	1.51e+00	0	46	104	0	60	211998
2026-01-28 10:25:19.22	205.47	1.88	-57.3	-74.6	3.6	1.51e+00	0	46	104	0	60	209245
2026-01-28 10:25:20.23	205.54	1.94	-57.2	-74.9	3.6	1.51e+00	0	45	104	0	60	217082
2026-01-28 10:25:21.23	205.60	1.99	-57.2	-74.6	3.6	1.51e+00	0	45	104	0	60	209726
2026-01-28 10:25:22.24	205.66	2.05	-57.2	-75.0	3.6	1.51e+00	0	46	104	0	60	219087
2026-01-28 10:25:23.25	205.73	2.11	-57.2	-74.7	3.6	1.51e+00	0	46	104	0	60	211923
2026-01-28 10:25:24.25	205.79	2.17	-57.2	-74.7	3.6	1.51e+00	0	45	104	0	60	212701
2026-01-28 10:25:25.25	205.86	2.22	-57.2	-74.5	3.6	1.51e+00	0	45	104	0	60	208880
2026-01-28 10:25:26.25	205.92	2.28	-57.2	-74.6	3.6	1.51e+00	0	46	104	0	60	210849
2026-01-28 10:25:27.26	205.99	2.34	-57.3	-74.7	3.6	1.51e+00	0	45	104	0	60	213224
2026-01-28 10:25:28.26	206.06	2.40	-57.1	-74.6	3.6	1.51e+00	0	46	104	0	60	209361
2026-01-28 10:25:29.27	206.12	2.45	-57.1	-74.7	3.6	1.51e+00	0	46	104	0	60	213836
2026-01-28 10:25:30.28	206.19	2.51	-57.1	-74.5	3.6	1.51e+00	0	46	104	0	60	207611
2026-01-28 10:25:31.29	206.26	2.57	-57.2	-74.6	3.6	1.51e+00	0	46	104	0	60	210678
2026-01-28 10:25:32.29	206.32	2.63	-57.1	-74.5	3.6	1.51e+00	0	46	104	0	60	209003
2026-01-28 10:25:33.30	206.39	2.69	-57.1	-74.6	3.6	1.51e+00	0	46	104	0	60	210087
2026-01-28 10:25:34.30	206.46	2.74	-57.1	-74.7	3.6	1.51e+00	0	46	104	0	60	213246
2026-01-28 10:25:35.31	206.53	2.80	-57.1	-74.6	3.6	1.51e+00	0	46	104	0	60	211056
2026-01-28 10:25:36.32	206.60	2.86	-57.1	-74.6	3.6	1.51e+00	0	46	104	0	60	210639
2026-01-28 10:25:37.33	206.66	2.92	-57.1	-74.7	3.6	1.51e+00	0	46	104	0	60	212884
2026-01-28 10:25:38.33	206.73	2.98	-57.1	-74.7	3.6	1.51e+00	0	46	104	0	60	212446
2026-01-28 10:25:39.34	206.80	3.04	-57.1	-74.5	3.6	1.51e+00	0	46	104	0	60	208988
2026-01-28 10:25:40.35	206.87	3.10	-57.1	-74.6	3.6	1.51e+00	0	46	104	0	60	209226
2026-01-28 10:25:41.35	206.94	3.16	-57.0	-74.5	3.6	1.51e+00	0	46	104	0	60	209080
2026-01-28 10:25:42.35	207.01	3.21	-57.1	-74.5	3.6	1.51e+00	0	46	104	0	60	208344
2026-01-28 10:25:43.36	207.08	3.27	-57.1	-74.6	3.6	1.51e+00	0	46	104	0	60	209275
2026-01-28 10:25:44.37	207.15	3.33	-57.1	-74.5	3.6	1.51e+00	0	46	104	0	60	209101
2026-01-28 10:25:45.37	207.22	3.39	-57.1	-74.7	3.6	1.51e+00	0	46	104	0	60	212721
2026-01-28 10:25:46.38	207.29	3.45	-57.0	-74.4	3.6	1.51e+00	0	46	104	0	60	204733
2026-01-28 10:25:47.39	207.36	3.51	-57.1	-74.5	3.6	1.51e+00	0	46	104	0	60	209024
2026-01-28 10:25:48.39	207.43	3.57	-57.2	-74.4	3.6	1.51e+00	0	46	104	0	60	206450
2026-01-28 10:25:49.40	207.50	3.63	-57.2	-74.6	3.6	1.51e+00	0	46	104	0	60	211518
2026-01-28 10:25:50.41	207.58	3.69	-57.1	-74.6	3.6	1.51e+00	0	46	104	0	60	210685
2026-01-28 10:25:51.42	207.65	3.75	-57.1	-74.6	3.6	1.51e+00	0	46	104	0	60	210011
2026-01-28 10:25:52.42	207.72	3.81	-57.1	-74.6	3.6	1.51e+00	0	46	104	0	60	211094
2026-01-28 10:25:53.43	207.79	3.87	-57.1	-74.4	3.6	1.51e+00	0	46	104	0	60	205453
2026-01-28 10:25:54.44	207.87	3.93	-57.1	-74.4	3.6	1.51e+00	0	46	104	0	60	206351
2026-01-28 10:25:55.45	207.94	3.99	-57.1	-74.7	3.6	1.51e+00	0	46	104	0	60	211703
2026-01-28 10:25:56.45	208.01	4.05	-57.1	-74.6	3.6	1.51e+00	0	46	104	0	60	209790
2026-01-28 10:25:57.46	208.09	4.11	-57.1	-74.4	3.6	1.51e+00	0	46	104	0	60	204758
2026-01-28 10:25:58.46	208.16	4.17	-57.1	-74.4	3.6	1.51e+00	0	46	104	0	60	206193
2026-01-28 10:25:59.47	208.24	4.23	-57.1	-74.3	3.6	1.51e+00	0	46	104	0	60	203006
2026-01-28 10:26:00.47	208.31	4.29	-57.2	-74.5	3.6	1.51e+00	0	46	104	0	60	208605
2026-01-28 10:26:01.48	208.39	4.35	-57.2	-74.6	3.6	1.51e+00	0	46	104	0	60	209270
2026-01-28 10:26:02.48	208.46	4.42	-57.2	-74.7	3.6	1.51e+00	0	46	104	0	60	212159
2026-01-28 10:26:03.49	208.54	4.48	-57.2	-74.7	3.6	1.51e+00	0	46	104	0	60	213489
2026-01-28 10:26:04.50	208.61	4.54	-57.2	-74.5	3.6	1.51e+00	0	46	104	0	60	208798
2026-01-28 10:26:05.50	208.69	4.60	-57.1	-74.5	3.6	1.51e+00	0	46	104	0	60	207091
2026-01-28 10:26:06.51	208.76	4.66	-57.1	-74.3	3.6	1.51e+00	0	46	104	0	60	204046
2026-01-28 10:26:07.52	208.84	4.72	-57.1	-74.3	3.6	1.51e+00	0	46	104	0	60	204245
2026-01-28 10:26:08.52	208.92	4.78	-57.1	-74.4	3.6	1.51e+00	0	46	104	0	60	204805
2026-01-28 10:26:09.53	209.00	4.85	-57.1	-74.3	3.6	1.51e+00	0	46	104	0	60	202951
2026-01-28 10:26:10.54	209.07	4.91	-57.1	-74.4	3.6	1.51e+00	0	46	104	0	60	205825
2026-01-28 10:26:11.55	209.15	4.97	-57.0	-74.6	3.6	1.51e+00	0	46	104	0	60	209785
2026-01-28 10:26:12.55	209.23	5.03	-57.1	-74.5	3.6	1.51e+00	0	46	104	0	60	207176
2026-01-28 10:26:13.56	209.31	5.09	-57.1	-74.0	3.6	1.51e+00	0	46	104	0	60	197357
2026-01-28 10:26:14.57	209.39	5.16	-57.0	-73.7	3.6	1.51e+00	0	46	104	0	60	190706
2026-01-28 10:26:15.58	209.47	5.22	-57.1	-73.7	3.6	1.51e+00	0	46	104	0	60	189336
2026-01-28 10:26:16.58	209.55	5.28	-57.0	-73.1	3.6	1.51e+00	0	46	104	0	60	176668
2026-01-28 10:26:17.59	209.63	5.34	-57.0	-72.2	3.6	1.51e+00	0	46	104	0	60	159572
2026-01-28 10:26:18.60	209.71	5.41	-56.9	-70.6	4.2	1.46e+00	0	46	104	0	60	132433
2026-01-28 10:26:19.61	209.79	5.47	-56.7	-67.0	5.5	6.09e-01	0	46	0	1048576	60	88171
2026-01-28 10:26:20.61	209.87	5.53	-56.5	-65.0	7.7	1.92e-01	0	46	0	3145728	60	69654
2026-01-28 10:26:21.62	209.95	5.59	-56.1	-63.1	10.1	3.31e-02	0	46	0	5242880	60	56198
2026-01-28 10:26:22.63	210.03	5.66	-55.7	-61.4	12.0	8.19e-04	0	46	0	7340032	60	45845
2026-01-28 10:26:23.64	210.11	5.72	-55.3	-60.2	13.2	7.32e-05	0	46	0	8388608	60	40159
2026-01-28 10:26:24.65	210.20	5.78	-54.8	-59.3	14.2	6.80e-06	0	46	0	10485760	60	35953
2026-01-28 10:26:25.66	210.28	5.85	-54.6	-58.7	14.7	0.00e+00	0	46	0	12582912	60	33696
2026-01-28 10:26:26.66	210.36	5.91	-54.3	-58.1	15.1	0.00e+00	0	46	0	14680064	60	31601
2026-01-28 10:26:27.67	210.45	5.97	-54.3	-57.9	15.4	0.00e+00	0	46	0	16777216	60	30932
2026-01-28 10:26:28.68	210.53	6.04	-54.5	-58.5	14.8	0.00e+00	0	46	0	18874368	60	32964
2026-01-28 10:26:29.69	210.61	6.10	-55.3	-59.4	11.2	0.00e+00	0	46	0	19922944	60	36364
2026-01-28 10:26:30.68	210.70	6.17	-57.9	-70.3	4.4	1.51e+00	0	46	104	20971520	60	128719
2026-01-28 10:26:31.69	210.78	6.23	-55.0	-59.1	12.2	1.08e+00	0	46	104	20971520	60	35156
2026-01-28 10:26:32.70	210.87	6.29	-57.3	-72.3	3.7	1.50e+00	0	46	104	20971520	60	161816
2026-01-28 10:26:33.71	210.95	6.36	-55.2	-59.0	15.9	1.51e+00	0	46	104	20971520	60	35019
2026-01-28 10:26:34.71	211.04	6.42	-55.1	-58.2	15.8	0.00e+00	0	46	0	20971520	60	31928
2026-01-28 10:26:35.71	211.12	6.49	-54.2	-56.8	17.0	0.00e+00	0	46	0	2097152	60	27207
2026-01-28 10:26:36.71	211.21	6.55	-54.2	-56.9	16.9	0.00e+00	0	46	0	4194304	60	27380
2026-01-28 10:26:37.72	211.30	6.62	-54.4	-57.2	16.6	0.00e+00	0	46	0	6291456	60	28508
2026-01-28 10:26:38.73	211.39	6.68	-54.1	-56.8	17.1	0.00e+00	0	46	0	8388608	60	27119
2026-01-28 10:26:39.74	211.47	6.75	-53.9	-56.5	17.3	0.00e+00	0	46	0	9437184	60	26215
2026-01-28 10:26:40.75	211.56	6.81	-53.8	-56.5	17.6	0.00e+00	0	46	0	11534336	60	26167
2026-01-28 10:26:41.75	211.65	6.88	-53.6	-56.2	17.9	0.00e+00	0	46	0	13631488	60	25357
2026-01-28 10:26:42.76	211.74	6.94	-53.6	-56.2	18.0	0.00e+00	0	46	0	15728640	60	25352
2026-01-28 10:26:43.76	211.83	7.01	-53.7	-56.4	17.9	0.00e+00	0	46	0	17825792	60	25818
2026-01-28 10:26:44.77	211.92	7.07	-53.6	-56.3	17.9	0.00e+00	0	46	0	19922944	60	25660
2026-01-28 10:26:45.78	212.01	7.14	-53.7	-56.4	17.9	0.00e+00	0	46	0	20971520	60	25748
2026-01-28 10:26:46.79	212.10	7.20	-53.8	-56.5	17.8	0.00e+00	0	46	0	23068672	60	26234
2026-01-28 10:26:47.79	212.19	7.27	-53.7	-56.3	17.9	0.00e+00	0	46	0	25165824	60	25458
2026-01-28 10:26:48.80	212.28	7.33	-53.9	-56.4	17.8	0.00e+00	0	46	0	27262976	60	25755
2026-01-28 10:26:49.81	212.37	7.40	-54.0	-56.5	17.7	0.00e+00	0	46	0	28311552	60	26103
2026-01-28 10:26:50.82	212.46	7.47	-54.0	-56.4	17.8	0.00e+00	0	46	0	30408704	60	25877
2026-01-28 10:26:51.83	212.56	7.53	-54.1	-56.5	17.7	0.00e+00	0	46	0	32505856	60	26327
2026-01-28 10:26:52.84	212.65	7.60	-54.1	-56.5	17.7	0.00e+00	0	46	0	34603008	60	26324
2026-01-28 10:26:53.84	212.74	7.67	-54.1	-56.5	17.7	0.00e+00	0	46	0	36700160	60	26072
2026-01-28 10:26:54.85	212.83	7.73	-54.0	-56.3	17.9	0.00e+00	0	46	0	37748736	60	25714
2026-01-28 10:26:55.85	212.93	7.80	-53.9	-56.2	18.0	0.00e+00	0	46	0	39845888	60	25325
2026-01-28 10:26:56.86	213.02	7.87	-53.9	-56.2	18.1	0.00e+00	0	46	0	41943040	60	25412
2026-01-28 10:26:57.87	213.12	7.93	-53.9	-56.2	18.0	0.00e+00	0	46	0	44040192	60	25265
2026-01-28 10:26:58.88	213.21	8.00	-53.8	-56.0	18.3	0.00e+00	0	46	0	46137344	60	24678
2026-01-28 10:26:59.89	213.31	8.07	-53.8	-56.0	18.3	0.00e+00	0	46	0	48234496	60	24781
2026-01-28 10:27:00.90	213.40	8.13	-53.8	-56.0	18.4	0.00e+00	0	46	0	49283072	60	24770
2026-01-28 10:27:01.90	213.50	8.20	-53.7	-55.9	18.5	0.00e+00	0	46	0	51380224	60	24532
2026-01-28 10:27:02.90	213.60	8.27	-53.7	-55.9	18.5	0.00e+00	0	46	0	53477376	60	24405
2026-01-28 10:27:03.91	213.69	8.34	-53.7	-56.0	18.5	0.00e+00	0	46	0	55574528	60	24697
2026-01-28 10:27:04.92	213.79	8.40	-53.6	-55.9	18.6	0.00e+00	0	46	0	56623104	60	24336
2026-01-28 10:27:05.92	213.89	8.47	-53.6	-55.7	18.6	0.00e+00	0	46	0	58720256	60	23943
2026-01-28 10:27:06.93	213.99	8.54	-53.8	-56.0	18.4	0.00e+00	0	46	0	60817408	60	24617
2026-01-28 10:27:07.94	214.09	8.61	-53.7	-55.9	18.3	0.00e+00	0	46	0	62914560	60	24456
2026-01-28 10:27:08.95	214.19	8.68	-53.7	-55.9	18.3	0.00e+00	0	46	0	65011712	60	24509
2026-01-28 10:27:09.95	214.29	8.74	-53.8	-56.0	18.3	0.00e+00	0	46	0	66060288	60	24771
2026-01-28 10:27:10.96	214.39	8.81	-53.7	-55.8	18.4	0.00e+00	0	46	0	68157440	60	24270
2026-01-28 10:27:11.97	214.49	8.88	-53.5	-55.6	18.8	0.00e+00	0	46	0	70254592	60	23533
2026-01-28 10:27:12.98	214.59	8.95	-53.6	-55.7	18.8	0.00e+00	0	46	0	72351744	60	23966
2026-01-28 10:27:13.98	214.69	9.02	-53.7	-55.9	18.6	0.00e+00	0	46	0	74448896	60	24311
2026-01-28 10:27:14.99	214.79	9.09	-53.7	-55.9	18.7	0.00e+00	0	46	0	76546048	60	24307
2026-01-28 10:27:16.00	214.90	9.16	-53.6	-55.8	18.8	0.00e+00	0	46	0	77594624	60	24112
2026-01-28 10:27:17.01	215.00	9.22	-53.5	-55.6	18.7	0.00e+00	0	46	0	79691776	60	23743
2026-01-28 10:27:18.02	215.10	9.29	-53.8	-55.9	18.6	0.00e+00	0	46	0	81788928	60	24561
2026-01-28 10:27:19.03	215.21	9.36	-53.5	-55.6	18.8	0.00e+00	0	46	0	83886080	60	23585
2026-01-28 10:27:20.03	215.31	9.43	-53.6	-55.6	18.8	0.00e+00	0	46	0	84934656	60	23686
2026-01-28 10:27:21.04	215.42	9.50	-53.6	-55.6	18.8	0.00e+00	0	46	0	87031808	60	23702
2026-01-28 10:27:22.04	215.52	9.57	-53.6	-55.6	18.9	0.00e+00	0	46	0	89128960	60	23603
2026-01-28 10:27:23.05	215.63	9.64	-53.7	-55.7	19.0	0.00e+00	0	46	0	91226112	60	23908
2026-01-28 10:27:24.05	215.73	9.71	-53.6	-55.6	19.0	0.00e+00	0	46	0	93323264	60	23526
2026-01-28 10:27:25.06	215.84	9.78	-53.4	-55.3	19.3	0.00e+00	0	46	0	94371840	60	22910
2026-01-28 10:27:26.06	215.95	9.85	-53.2	-55.0	19.4	0.00e+00	0	46	0	96468992	60	22150
2026-01-28 10:27:27.07	216.06	9.92	-53.4	-55.1	19.3	0.00e+00	0	46	0	98566144	60	22373
2026-01-28 10:27:28.07	216.16	9.99	-53.4	-55.2	19.5	0.00e+00	0	46	0	100663296	60	22419
2026-01-28 10:27:29.08	216.27	10.06	-53.3	-55.1	19.5	0.00e+00	0	46	0	102760448	60	22284
2026-01-28 10:27:30.08	216.38	10.13	-53.4	-55.2	19.4	0.00e+00	0	46	0	104857600	60	22581
2026-01-28 10:27:31.09	216.49	10.20	-53.5	-55.4	19.2	0.00e+00	0	46	0	105906176	60	23066
2026-01-28 10:27:32.10	216.60	10.27	-53.6	-55.4	19.2	0.00e+00	0	46	0	108003328	60	23164
2026-01-28 10:27:33.10	216.71	10.34	-53.8	-55.8	19.1	0.00e+00	0	46	0	110100480	60	24024
2026-01-28 10:27:34.11	216.82	10.41	-54.0	-56.0	18.9	0.00e+00	0	46	0	112197632	60	24687
2026-01-28 10:27:35.12	216.94	10.49	-54.0	-56.0	18.8	0.00e+00	0	46	0	113246208	60	24852
2026-01-28 10:27:36.12	217.05	10.56	-54.1	-56.1	18.7	0.00e+00	0	46	0	115343360	60	25003
2026-01-28 10:27:37.13	217.16	10.63	-54.3	-56.4	18.5	0.00e+00	0	46	0	117440512	60	25986
2026-01-28 10:27:38.14	217.28	10.70	-54.4	-56.5	18.4	0.00e+00	0	46	0	119537664	60	26101
2026-01-28 10:27:39.15	217.39	10.77	-54.3	-56.4	18.1	0.00e+00	0	46	0	121634816	60	25961
2026-01-28 10:27:40.15	217.50	10.84	-54.4	-56.5	18.5	0.00e+00	0	46	0	122683392	60	26221
2026-01-28 10:27:41.16	217.62	10.91	-54.3	-56.3	18.6	0.00e+00	0	46	0	124780544	60	25736
2026-01-28 10:27:42.16	217.73	10.98	-54.3	-56.3	18.8	0.00e+00	0	46	0	126877696	60	25569
2026-01-28 10:27:43.17	217.85	11.06	-54.3	-56.3	18.6	0.00e+00	0	46	0	128974848	60	25726
2026-01-28 10:27:44.18	217.97	11.13	-54.3	-56.3	18.8	0.00e+00	0	46	0	131072000	60	25657
2026-01-28 10:27:45.18	218.08	11.20	-54.3	-56.3	18.7	0.00e+00	0	46	0	133169152	60	25465
2026-01-28 10:27:46.19	218.20	11.27	-54.3	-56.3	18.8	0.00e+00	0	46	0	134217728	60	25681
2026-01-28 10:27:47.20	218.32	11.35	-54.1	-56.1	19.0	0.00e+00	0	46	0	136314880	60	24913
2026-01-28 10:27:48.20	218.44	11.42	-54.2	-56.1	19.0	0.00e+00	0	46	0	138412032	60	25001
2026-01-28 10:27:49.21	218.56	11.49	-54.0	-55.9	19.1	0.00e+00	0	46	0	140509184	60	24533
2026-01-28 10:27:50.22	218.68	11.56	-53.9	-55.7	19.3	0.00e+00	0	46	0	141557760	60	23917
2026-01-28 10:27:51.23	218.80	11.64	-53.9	-55.8	19.2	0.00e+00	0	46	0	143654912	60	24117
2026-01-28 10:27:52.23	218.92	11.71	-53.8	-55.7	19.2	0.00e+00	0	46	0	145752064	60	23823
2026-01-28 10:27:53.23	219.04	11.78	-53.9	-55.7	19.2	0.00e+00	0	46	0	147849216	60	23847
2026-01-28 10:27:54.24	219.17	11.85	-53.7	-55.5	19.4	0.00e+00	0	46	0	149946368	60	23232
2026-01-28 10:27:55.25	219.29	11.93	-53.8	-55.7	19.2	0.00e+00	0	46	0	150994944	60	23819
2026-01-28 10:27:56.25	219.41	12.00	-53.7	-55.4	19.5	0.00e+00	0	46	0	153092096	60	23167
2026-01-28 10:27:57.25	219.54	12.07	-53.6	-55.4	19.5	0.00e+00	0	46	0	155189248	60	23015
2026-01-28 10:27:58.26	219.66	12.15	-53.6	-55.4	19.6	0.00e+00	0	46	0	157286400	60	23082
2026-01-28 10:27:59.27	219.79	12.22	-53.6	-55.4	19.5	0.00e+00	0	46	0	159383552	60	23082
2026-01-28 10:28:00.28	219.91	12.29	-53.7	-55.5	19.4	0.00e+00	0	46	0	161480704	60	23362
2026-01-28 10:28:01.28	220.04	12.37	-53.6	-55.4	19.5	0.00e+00	0	46	0	162529280	60	23037
2026-01-28 10:28:02.29	220.17	12.44	-53.6	-55.4	19.4	0.00e+00	0	46	0	164626432	60	23018
2026-01-28 10:28:03.30	220.29	12.52	-53.6	-55.3	19.5	0.00e+00	0	46	0	166723584	60	22899
2026-01-28 10:28:04.30	220.42	12.59	-53.5	-55.3	19.5	0.00e+00	0	46	0	168820736	60	22719
2026-01-28 10:28:05.31	220.55	12.66	-53.5	-55.3	19.5	0.00e+00	0	46	0	169869312	60	22795
2026-01-28 10:28:06.32	220.68	12.74	-53.5	-55.3	19.5	0.00e+00	0	46	0	171966464	60	22831
2026-01-28 10:28:07.33	220.81	12.81	-53.6	-55.4	19.6	0.00e+00	0	46	0	174063616	60	22964
2026-01-28 10:28:08.34	220.94	12.89	-53.4	-55.1	19.9	0.00e+00	0	46	0	176160768	60	22196
2026-01-28 10:28:09.34	221.07	12.96	-53.6	-55.3	19.5	0.00e+00	0	46	0	178257920	60	22895
2026-01-28 10:28:10.35	221.21	13.04	-53.7	-55.5	19.5	0.00e+00	0	46	0	179306496	60	23328
2026-01-28 10:28:11.35	221.34	13.11	-53.6	-55.3	19.6	0.00e+00	0	46	0	181403648	60	22915
2026-01-28 10:28:12.35	221.47	13.19	-53.5	-55.3	19.7	0.00e+00	0	46	0	183500800	60	22687
2026-01-28 10:28:13.35	221.61	13.26	-53.6	-55.3	19.6	0.00e+00	0	46	0	185597952	60	22938
2026-01-28 10:28:14.36	221.74	13.33	-53.7	-55.5	19.6	0.00e+00	0	46	0	187695104	60	23268
2026-01-28 10:28:15.36	221.88	13.41	-53.6	-55.4	19.5	0.00e+00	0	46	0	188743680	60	23151
2026-01-28 10:28:16.37	222.01	13.48	-53.9	-55.7	19.2	0.00e+00	0	46	0	190840832	60	23984
2026-01-28 10:28:17.37	222.15	13.56	-54.0	-55.9	19.2	0.00e+00	0	46	0	192937984	60	24326
2026-01-28 10:28:18.37	222.28	13.63	-54.2	-56.2	19.0	0.00e+00	0	46	0	195035136	60	25270
2026-01-28 10:28:19.38	222.42	13.71	-54.2	-56.2	19.0	0.00e+00	0	46	0	197132288	60	25256
2026-01-28 10:28:20.39	222.56	13.79	-54.3	-56.3	18.8	0.00e+00	0	46	0	198180864	60	25655
2026-01-28 10:28:21.40	222.70	13.86	-54.5	-56.5	18.8	0.00e+00	0	46	0	200278016	60	26119
2026-01-28 10:28:22.40	222.84	13.94	-54.4	-56.4	18.8	0.00e+00	0	46	0	202375168	60	25955
2026-01-28 10:28:23.41	222.98	14.01	-54.5	-56.5	18.7	0.00e+00	0	46	0	204472320	60	26152
2026-01-28 10:28:24.42	223.12	14.09	-54.4	-56.4	18.9	0.00e+00	0	46	0	206569472	60	25873
2026-01-28 10:28:25.42	223.27	14.16	-54.4	-56.4	18.8	0.00e+00	0	46	0	207618048	60	25930
2026-01-28 10:28:26.42	223.41	14.24	-54.4	-56.4	18.8	0.00e+00	0	46	0	209715200	60	25750
2026-01-28 10:28:27.43	223.55	14.32	-54.4	-56.4	18.7	0.00e+00	0	46	0	211812352	60	25820
2026-01-28 10:28:28.43	223.70	14.39	-54.3	-56.3	18.8	0.00e+00	0	46	0	213909504	60	25555
2026-01-28 10:28:29.44	223.84	14.47	-53.9	-55.9	19.2	0.00e+00	0	46	0	216006656	60	24334
2026-01-28 10:28:30.44	223.99	14.54	-53.6	-55.4	19.6	0.00e+00	0	46	0	217055232	60	23090
2026-01-28 10:28:31.44	224.13	14.62	-53.6	-55.4	19.6	0.00e+00	0	46	0	219152384	60	22957
2026-01-28 10:28:32.44	224.28	14.70	-53.3	-55.1	19.7	0.00e+00	0	46	0	221249536	60	22169
2026-01-28 10:28:33.45	224.43	14.77	-53.2	-54.9	19.9	0.00e+00	0	46	0	223346688	60	21803
2026-01-28 10:28:34.45	224.57	14.85	-53.1	-54.8	19.5	0.00e+00	0	46	0	224395264	60	21527
2026-01-28 10:28:35.46	224.72	14.92	-53.2	-54.9	19.9	0.00e+00	0	46	0	226492416	60	21711
2026-01-28 10:28:36.46	224.87	15.00	-53.2	-54.9	20.0	0.00e+00	0	46	0	228589568	60	21830
2026-01-28 10:28:37.48	225.03	15.08	-53.1	-54.7	20.1	0.00e+00	0	46	0	230686720	60	21385
2026-01-28 10:28:38.48	225.18	15.15	-53.1	-54.8	20.1	0.00e+00	0	46	0	232783872	60	21481
2026-01-28 10:28:39.49	225.33	15.23	-52.9	-54.5	20.3	0.00e+00	0	46	0	234881024	60	20867
2026-01-28 10:28:40.50	225.48	15.31	-52.9	-54.5	20.3	0.00e+00	0	46	0	235929600	60	20858
2026-01-28 10:28:41.50	225.64	15.39	-52.7	-54.3	20.4	0.00e+00	0	46	0	238026752	60	20371
2026-01-28 10:28:42.51	225.79	15.46	-52.8	-54.4	20.4	0.00e+00	0	46	0	240123904	60	20646
2026-01-28 10:28:43.52	225.95	15.54	-52.6	-54.2	20.5	0.00e+00	0	46	0	242221056	60	20108
2026-01-28 10:28:44.52	226.10	15.62	-52.7	-54.3	20.5	0.00e+00	0	46	0	244318208	60	20402
2026-01-28 10:28:45.53	226.26	15.69	-52.8	-54.4	20.4	0.00e+00	0	46	0	245366784	60	20661
2026-01-28 10:28:46.53	226.42	15.77	-53.0	-54.6	20.2	0.00e+00	0	46	0	247463936	60	21069
2026-01-28 10:28:47.54	226.58	15.85	-52.9	-54.5	20.3	0.00e+00	0	46	0	249561088	60	20900
2026-01-28 10:28:48.55	226.74	15.93	-53.1	-54.7	20.1	0.00e+00	0	46	0	251658240	60	21389
2026-01-28 10:28:49.55	226.90	16.00	-53.1	-54.7	20.2	0.00e+00	0	46	0	252706816	60	21345
2026-01-28 10:28:50.56	227.06	16.08	-53.0	-54.7	20.3	0.00e+00	0	46	0	254803968	60	21277
2026-01-28 10:28:51.57	227.22	16.16	-53.3	-55.0	19.9	0.00e+00	0	46	0	256901120	60	22050
2026-01-28 10:28:52.57	227.38	16.23	-53.3	-55.0	20.2	0.00e+00	0	46	0	258998272	60	21994
2026-01-28 10:28:53.58	227.55	16.31	-53.6	-55.3	19.7	0.00e+00	0	46	0	261095424	60	22812
2026-01-28 10:28:54.58	227.71	16.39	-53.7	-55.3	19.7	0.00e+00	0	46	0	263192576	60	22938
2026-01-28 10:28:55.59	227.88	16.47	-53.6	-55.3	19.8	0.00e+00	0	46	0	264241152	60	22740
2026-01-28 10:28:56.59	228.04	16.54	-53.6	-55.2	19.9	0.00e+00	0	46	0	266338304	60	22604
2026-01-28 10:28:57.60	228.21	16.62	-53.6	-55.3	19.9	0.00e+00	0	46	0	268435456	60	22737
2026-01-28 10:28:58.60	228.38	16.70	-53.5	-55.2	19.9	0.00e+00	0	46	0	270532608	60	22531
2026-01-28 10:28:59.61	228.54	16.78	-53.2	-54.8	20.2	0.00e+00	0	46	0	272629760	60	21508
2026-01-28 10:29:00.61	228.71	16.85	-53.2	-54.8	20.3	0.00e+00	0	46	0	273678336	60	21478
2026-01-28 10:29:01.61	228.88	16.93	-53.1	-54.6	20.4	0.00e+00	0	46	0	275775488	60	20965
2026-01-28 10:29:02.62	229.05	17.01	-53.0	-54.5	20.6	0.00e+00	0	46	0	277872640	60	20861
2026-01-28 10:29:03.62	229.22	17.08	-52.8	-54.2	20.8	0.00e+00	0	46	0	279969792	60	20208
2026-01-28 10:29:04.62	229.40	17.16	-52.9	-54.4	20.6	0.00e+00	0	46	0	281018368	60	20501
2026-01-28 10:29:05.62	229.57	17.24	-52.8	-54.3	20.4	0.00e+00	0	46	0	283115520	60	20437
2026-01-28 10:29:06.63	229.74	17.32	-52.8	-54.4	20.4	0.00e+00	0	46	0	285212672	60	20451
2026-01-28 10:29:07.64	229.92	17.39	-52.9	-54.5	20.4	0.00e+00	0	46	0	287309824	60	20813
2026-01-28 10:29:08.65	230.10	17.47	-52.7	-54.2	20.8	0.00e+00	0	46	0	289406976	60	19992
2026-01-28 10:29:09.65	230.27	17.55	-52.6	-54.0	20.8	0.00e+00	0	46	0	290455552	60	19734
2026-01-28 10:29:10.66	230.45	17.63	-52.6	-54.0	21.0	0.00e+00	0	46	0	292552704	60	19576
2026-01-28 10:29:11.66	230.63	17.70	-52.4	-53.8	21.2	0.00e+00	0	46	0	294649856	60	19114
2026-01-28 10:29:12.67	230.81	17.78	-52.4	-53.7	21.1	0.00e+00	0	46	0	296747008	60	19063
2026-01-28 10:29:13.68	230.99	17.86	-52.6	-54.1	20.9	0.00e+00	0	46	0	298844160	60	19829
2026-01-28 10:29:14.69	231.17	17.94	-52.4	-53.8	21.1	0.00e+00	0	46	0	300941312	60	19280
2026-01-28 10:29:15.69	231.35	18.01	-52.6	-54.1	20.8	0.00e+00	0	46	0	301989888	60	19855
2026-01-28 10:29:16.70	231.54	18.09	-52.8	-54.3	20.6	0.00e+00	0	46	0	304087040	60	20376
2026-01-28 10:29:17.70	231.72	18.17	-52.8	-54.3	20.5	0.00e+00	0	46	0	306184192	60	20439
2026-01-28 10:29:18.71	231.91	18.24	-52.8	-54.3	20.6	0.00e+00	0	46	0	308281344	60	20354
2026-01-28 10:29:19.71	232.09	18.32	-52.7	-54.2	20.7	0.00e+00	0	46	0	309329920	60	20142
2026-01-28 10:29:20.72	232.28	18.40	-53.0	-54.5	20.6	0.00e+00	0	46	0	311427072	60	20752
2026-01-28 10:29:21.73	232.47	18.48	-52.8	-54.3	20.7	0.00e+00	0	46	0	313524224	60	20341
2026-01-28 10:29:22.74	232.66	18.55	-52.9	-54.4	20.7	0.00e+00	0	46	0	315621376	60	20556
2026-01-28 10:29:23.75	232.85	18.63	-53.0	-54.5	20.6	0.00e+00	0	46	0	317718528	60	20899
2026-01-28 10:29:24.75	233.04	18.71	-53.0	-54.6	20.4	0.00e+00	0	46	0	318767104	60	20949
2026-01-28 10:29:25.75	233.23	18.78	-53.2	-54.8	20.3	0.00e+00	0	46	0	320864256	60	21639
2026-01-28 10:29:26.76	233.42	18.86	-53.2	-54.8	20.3	0.00e+00	0	46	0	322961408	60	21497
2026-01-28 10:29:27.76	233.61	18.94	-53.5	-55.1	19.9	0.00e+00	0	46	0	325058560	60	22368
2026-01-28 10:29:28.77	233.81	19.01	-53.2	-54.8	20.2	0.00e+00	0	46	0	327155712	60	21595
2026-01-28 10:29:29.77	234.00	19.09	-53.0	-54.6	20.4	0.00e+00	0	46	0	329252864	60	20955
2026-01-28 10:29:30.78	234.20	19.17	-52.8	-54.4	20.6	0.00e+00	0	46	0	330301440	60	20445
2026-01-28 10:29:31.78	234.39	19.24	-52.8	-54.3	20.6	0.00e+00	0	46	0	332398592	60	20367
2026-01-28 10:29:32.79	234.59	19.32	-52.6	-54.1	20.8	0.00e+00	0	46	0	334495744	60	19806
2026-01-28 10:29:33.79	234.79	19.39	-52.7	-54.1	20.7	0.00e+00	0	46	0	336592896	60	19965
2026-01-28 10:29:34.80	234.99	19.47	-52.6	-54.0	20.7	0.00e+00	0	46	0	337641472	60	19692
2026-01-28 10:29:35.80	235.19	19.55	-52.6	-54.0	20.8	0.00e+00	0	46	0	339738624	60	19659
2026-01-28 10:29:36.81	235.39	19.62	-52.4	-53.8	20.9	0.00e+00	0	46	0	341835776	60	19192
2026-01-28 10:29:37.81	235.60	19.70	-52.2	-53.5	21.2	0.00e+00	0	46	0	343932928	60	18581
2026-01-28 10:29:38.82	235.80	19.77	-52.0	-53.3	21.3	0.00e+00	0	46	0	346030080	60	18135
2026-01-28 10:29:39.82	236.00	19.85	-52.1	-53.4	21.3	0.00e+00	0	46	0	347078656	60	18296
2026-01-28 10:29:40.83	236.21	19.92	-51.9	-53.2	21.5	0.00e+00	0	46	0	349175808	60	17935
2026-01-28 10:29:41.84	236.42	20.00	-51.6	-52.9	21.7	0.00e+00	0	46	0	351272960	60	17267
2026-01-28 10:29:42.84	236.63	20.07	-51.6	-52.9	21.7	0.00e+00	0	46	0	353370112	60	17308
2026-01-28 10:29:43.85	236.84	20.15	-51.5	-52.7	21.8	0.00e+00	0	46	0	355467264	60	16951
2026-01-28 10:29:44.86	237.05	20.22	-51.5	-52.7	21.8	0.00e+00	0	46	0	356515840	60	16885
2026-01-28 10:29:45.86	237.26	20.30	-51.3	-52.6	21.9	0.00e+00	0	46	0	358612992	60	16631
2026-01-28 10:29:46.87	237.47	20.37	-51.3	-52.5	22.0	0.00e+00	0	46	0	360710144	60	16459
2026-01-28 10:29:47.88	237.68	20.45	-51.3	-52.5	22.0	0.00e+00	0	46	0	362807296	60	16475
2026-01-28 10:29:48.88	237.89	20.52	-51.1	-52.3	22.2	0.00e+00	0	46	0	364904448	60	16208
2026-01-28 10:29:49.89	238.11	20.59	-51.1	-52.2	22.1	0.00e+00	0	46	0	365953024	60	16031
2026-01-28 10:29:50.89	238.33	20.67	-51.0	-52.2	22.2	0.00e+00	0	46	0	368050176	60	16018
2026-01-28 10:29:51.89	238.54	20.74	-51.1	-52.3	22.1	0.00e+00	0	46	0	370147328	60	16138
2026-01-28 10:29:52.90	238.76	20.81	-51.1	-52.3	22.1	0.00e+00	0	46	0	372244480	60	16192
2026-01-28 10:29:53.91	238.98	20.89	-51.4	-52.6	22.0	0.00e+00	0	46	0	374341632	60	16777
2026-01-28 10:29:54.91	239.20	20.96	-51.3	-52.6	22.0	0.00e+00	0	46	0	375390208	60	16636
2026-01-28 10:29:55.91	239.42	21.03	-51.4	-52.6	21.9	0.00e+00	0	46	0	377487360	60	16689
2026-01-28 10:29:56.92	239.64	21.10	-51.5	-52.7	21.8	0.00e+00	0	46	0	379584512	60	16871
2026-01-28 10:29:57.93	239.86	21.18	-51.5	-52.7	21.9	0.00e+00	0	46	0	381681664	60	16972
2026-01-28 10:29:58.93	240.09	21.25	-51.5	-52.7	21.9	0.00e+00	0	46	0	383778816	60	16999
2026-01-28 10:29:59.94	240.31	21.32	-51.6	-52.8	21.8	0.00e+00	0	46	0	384827392	60	17166
2026-01-28 10:30:00.95	240.54	21.39	-51.6	-52.8	21.8	0.00e+00	0	46	0	386924544	60	17111
2026-01-28 10:30:01.96	240.77	21.46	-51.5	-52.7	21.9	0.00e+00	0	46	0	389021696	60	16931
2026-01-28 10:30:02.97	241.00	21.53	-51.4	-52.6	22.0	0.00e+00	0	46	0	391118848	60	16697
2026-01-28 10:30:03.98	241.23	21.61	-51.6	-52.8	21.8	0.00e+00	0	46	0	393216000	60	17026
2026-01-28 10:30:04.99	241.46	21.68	-51.3	-52.4	22.1	0.00e+00	0	46	0	394264576	60	16419
2026-01-28 10:30:05.99	241.69	21.75	-51.2	-52.3	22.2	0.00e+00	0	46	0	396361728	60	16199
2026-01-28 10:30:07.00	241.92	21.82	-51.1	-52.3	22.2	0.00e+00	0	46	0	398458880	60	16125
2026-01-28 10:30:08.00	242.15	21.89	-51.2	-52.4	22.2	0.00e+00	0	46	0	400556032	60	16253
2026-01-28 10:30:09.00	242.38	21.95	-51.4	-52.6	22.0	0.00e+00	0	46	0	402653184	60	16761
2026-01-28 10:30:10.01	242.62	22.02	-51.6	-52.8	21.7	0.00e+00	0	46	0	403701760	60	17194
2026-01-28 10:30:11.01	242.85	22.09	-51.8	-53.1	21.6	0.00e+00	0	46	0	405798912	60	17716
2026-01-28 10:30:12.02	243.09	22.16	-51.9	-53.1	21.6	0.00e+00	0	46	0	407896064	60	17742
2026-01-28 10:30:13.02	243.33	22.23	-52.0	-53.3	21.5	0.00e+00	0	46	0	409993216	60	18135
2026-01-28 10:30:14.03	243.57	22.30	-51.7	-52.9	21.8	0.00e+00	0	46	0	412090368	60	17253
2026-01-28 10:30:15.03	243.81	22.36	-51.8	-53.1	21.8	0.00e+00	0	46	0	413138944	60	17628
2026-01-28 10:30:16.04	244.05	22.43	-51.9	-53.1	21.6	0.00e+00	0	46	0	415236096	60	17733
2026-01-28 10:30:17.05	244.29	22.50	-52.0	-53.3	21.5	0.00e+00	0	46	0	417333248	60	18091
2026-01-28 10:30:18.06	244.54	22.56	-52.1	-53.4	21.3	0.00e+00	0	46	0	419430400	60	18426
2026-01-28 10:30:19.06	244.78	22.63	-52.2	-53.5	21.3	0.00e+00	0	46	0	421527552	60	18612
2026-01-28 10:30:20.07	245.03	22.70	-52.0	-53.3	21.6	0.00e+00	0	46	0	422576128	60	18031
2026-01-28 10:30:21.08	245.27	22.76	-51.8	-53.1	21.8	0.00e+00	0	46	0	424673280	60	17629
2026-01-28 10:30:22.08	245.52	22.83	-51.7	-52.9	21.8	0.00e+00	0	46	0	426770432	60	17320
2026-01-28 10:30:23.09	245.77	22.89	-51.9	-53.1	21.7	0.00e+00	0	46	0	428867584	60	17673
2026-01-28 10:30:24.10	246.02	22.96	-52.1	-53.4	21.4	0.00e+00	0	46	0	430964736	60	18404
2026-01-28 10:30:25.10	246.27	23.02	-52.7	-54.1	20.8	0.00e+00	0	46	0	432013312	60	19806
2026-01-28 10:30:26.10	246.52	23.08	-52.7	-54.1	20.8	0.00e+00	0	46	0	434110464	60	19858
2026-01-28 10:30:27.11	246.77	23.15	-52.6	-53.9	21.0	0.00e+00	0	46	0	436207616	60	19508
2026-01-28 10:30:28.12	247.03	23.21	-52.4	-53.8	21.1	0.00e+00	0	46	0	438304768	60	19101
2026-01-28 10:30:29.13	247.28	23.27	-52.1	-53.4	21.4	0.00e+00	0	46	0	440401920	60	18231
2026-01-28 10:30:30.14	247.54	23.33	-51.7	-52.9	21.8	0.00e+00	0	46	0	441450496	60	17349
2026-01-28 10:30:31.15	247.79	23.40	-51.8	-53.0	21.7	0.00e+00	0	46	0	443547648	60	17511
2026-01-28 10:30:32.16	248.05	23.46	-52.0	-53.3	21.4	0.00e+00	0	46	0	445644800	60	18172
2026-01-28 10:30:33.16	248.31	23.52	-52.6	-53.9	21.0	0.00e+00	0	46	0	447741952	60	19509
2026-01-28 10:30:34.17	248.57	23.58	-52.8	-54.2	20.7	0.00e+00	0	46	0	449839104	60	20087
2026-01-28 10:30:35.18	248.83	23.64	-52.9	-54.3	20.6	0.00e+00	0	46	0	450887680	60	20387
2026-01-28 10:30:36.18	249.09	23.70	-52.9	-54.4	20.6	0.00e+00	0	46	0	452984832	60	20485
2026-01-28 10:30:37.19	249.35	23.75	-53.2	-54.6	20.5	0.00e+00	0	46	0	455081984	60	21114
2026-01-28 10:30:38.19	249.61	23.81	-53.4	-54.9	20.1	0.00e+00	0	46	0	457179136	60	21828
2026-01-28 10:30:39.20	249.88	23.87	-53.6	-55.2	20.0	0.00e+00	0	46	0	459276288	60	22461
2026-01-28 10:30:40.21	250.15	23.93	-54.0	-55.7	19.5	0.00e+00	0	46	0	460324864	60	23959
2026-01-28 10:30:41.21	250.41	23.98	-53.9	-55.6	19.5	0.00e+00	0	46	0	462422016	60	23643
2026-01-28 10:30:42.22	250.68	24.04	-53.7	-55.4	19.8	0.00e+00	0	46	0	464519168	60	22996
2026-01-28 10:30:43.22	250.94	24.09	-53.6	-55.2	19.9	0.00e+00	0	46	0	466616320	60	22549
2026-01-28 10:30:44.23	251.21	24.15	-53.4	-55.0	20.2	0.00e+00	0	46	0	468713472	60	22034
2026-01-28 10:30:45.23	251.48	24.20	-53.3	-54.9	20.1	0.00e+00	0	46	0	469762048	60	21763
2026-01-28 10:30:46.24	251.75	24.26	-53.3	-54.9	20.0	0.00e+00	0	46	0	471859200	60	21711
2026-01-28 10:30:47.24	252.02	24.31	-53.5	-55.1	19.8	0.00e+00	0	46	0	473956352	60	22362
2026-01-28 10:30:48.25	252.30	24.36	-53.9	-55.8	19.3	0.00e+00	0	46	0	476053504	60	24036
2026-01-28 10:30:49.26	252.57	24.42	-54.3	-56.2	18.9	0.00e+00	0	46	0	478150656	60	25252
2026-01-28 10:30:50.27	252.84	24.47	-54.5	-56.5	18.6	0.00e+00	0	46	0	479199232	60	26181
2026-01-28 10:30:51.27	253.12	24.52	-54.8	-56.8	18.2	0.00e+00	0	46	0	481296384	60	27194
2026-01-28 10:30:52.28	253.39	24.57	-54.7	-56.7	18.4	0.00e+00	0	46	0	483393536	60	26757
2026-01-28 10:30:53.28	253.67	24.62	-54.6	-56.6	18.4	0.00e+00	0	46	0	485490688	60	26542
2026-01-28 10:30:54.29	253.95	24.67	-54.1	-56.0	18.9	0.00e+00	0	46	0	487587840	60	24645
2026-01-28 10:30:55.30	254.23	24.72	-53.7	-55.4	19.5	0.00e+00	0	46	0	488636416	60	23152
2026-01-28 10:30:56.30	254.51	24.77	-53.5	-55.1	19.8	0.00e+00	0	46	0	490733568	60	22217
2026-01-28 10:30:57.30	254.78	24.81	-53.4	-55.0	19.8	0.00e+00	0	46	0	492830720	60	21940
2026-01-28 10:30:58.30	255.06	24.86	-53.8	-55.5	19.4	0.00e+00	0	46	0	494927872	60	23339
2026-01-28 10:30:59.31	255.34	24.91	-54.2	-56.1	19.0	0.00e+00	0	46	0	497025024	60	25026
2026-01-28 10:31:00.31	255.63	24.95	-54.8	-57.0	18.2	0.00e+00	0	46	0	498073600	60	27616
2026-01-28 10:31:01.31	255.91	25.00	-55.4	-57.8	17.3	0.00e+00	0	46	0	500170752	60	30389
2026-01-28 10:31:02.31	256.19	25.04	-55.8	-58.3	17.0	0.00e+00	0	46	0	502267904	60	32181
2026-01-28 10:31:03.32	256.48	25.09	-55.7	-58.2	17.3	0.00e+00	0	46	0	504365056	60	31667
2026-01-28 10:31:04.32	256.76	25.13	-55.4	-57.8	17.2	0.00e+00	0	46	0	506462208	60	30257
2026-01-28 10:31:05.33	257.05	25.17	-55.4	-57.7	17.4	0.00e+00	0	46	0	507510784	60	30148
2026-01-28 10:31:06.33	257.33	25.21	-55.3	-57.7	17.4	0.00e+00	0	46	0	509607936	60	30033
2026-01-28 10:31:07.33	257.62	25.25	-55.5	-57.9	17.4	0.00e+00	0	46	0	511705088	60	30787
2026-01-28 10:31:08.34	257.91	25.29	-55.3	-57.6	17.7	0.00e+00	0	46	0	513802240	60	29751
2026-01-28 10:31:09.35	258.20	25.33	-55.0	-57.2	18.0	0.00e+00	0	46	0	514850816	60	28240
2026-01-28 10:31:10.36	258.49	25.37	-54.6	-56.6	18.5	0.00e+00	0	46	0	516947968	60	26553
2026-01-28 10:31:11.36	258.78	25.41	-54.6	-56.6	18.5	0.00e+00	0	46	0	519045120	60	26390
2026-01-28 10:31:12.37	259.07	25.45	-54.6	-56.7	18.2	0.00e+00	0	46	0	521142272	60	26673
2026-01-28 10:31:13.37	259.36	25.49	-55.1	-57.4	17.7	0.00e+00	0	46	0	523239424	60	29176
2026-01-28 10:31:14.38	259.65	25.52	-55.5	-58.0	17.1	0.00e+00	0	46	0	525336576	60	31226
2026-01-28 10:31:15.38	259.94	25.56	-55.5	-58.1	17.0	0.00e+00	0	46	0	526385152	60	31410
2026-01-28 10:31:16.39	260.24	25.59	-55.3	-57.6	17.4	0.00e+00	0	46	0	528482304	60	29791
2026-01-28 10:31:17.39	260.53	25.63	-55.1	-57.3	17.8	0.00e+00	0	46	0	530579456	60	28574
2026-01-28 10:31:18.40	260.83	25.66	-55.1	-57.3	17.8	0.00e+00	0	46	0	532676608	60	28681
2026-01-28 10:31:19.40	261.12	25.69	-55.5	-57.9	17.2	0.00e+00	0	46	0	534773760	60	30720
2026-01-28 10:31:20.41	261.42	25.72	-55.9	-58.7	16.3	0.00e+00	0	46	0	535822336	60	33772
2026-01-28 10:31:21.42	261.72	25.75	-56.1	-59.0	16.2	0.00e+00	0	46	0	537919488	60	34730
2026-01-28 10:31:22.43	262.02	25.78	-55.7	-58.3	16.8	0.00e+00	0	46	0	540016640	60	32213
2026-01-28 10:31:23.44	262.31	25.81	-55.6	-58.1	17.0	0.00e+00	0	46	0	542113792	60	31419
2026-01-28 10:31:24.44	262.61	25.84	-54.8	-56.9	18.2	0.00e+00	0	46	0	543162368	60	27444
2026-01-28 10:31:25.45	262.91	25.87	-54.5	-56.5	18.6	0.00e+00	0	46	0	545259520	60	26173
2026-01-28 10:31:26.46	263.21	25.90	-54.3	-56.2	18.8	0.00e+00	0	46	0	547356672	60	25227
2026-01-28 10:31:27.46	263.51	25.92	-54.3	-56.2	18.8	0.00e+00	0	46	0	549453824	60	25252
2026-01-28 10:31:28.47	263.81	25.95	-54.3	-56.1	19.0	0.00e+00	0	46	0	551550976	60	25127
2026-01-28 10:31:29.48	264.11	25.97	-54.4	-56.3	18.7	0.00e+00	0	46	0	553648128	60	25698
2026-01-28 10:31:30.49	264.42	26.00	-54.6	-56.6	18.6	0.00e+00	0	46	0	554696704	60	26361
2026-01-28 10:31:31.50	264.72	26.02	-54.7	-56.8	18.2	0.00e+00	0	46	0	556793856	60	26952
2026-01-28 10:31:32.50	265.02	26.04	-54.7	-56.8	18.2	0.00e+00	0	46	0	558891008	60	27054
2026-01-28 10:31:33.51	265.32	26.06	-54.7	-56.8	18.2	0.00e+00	0	46	0	560988160	60	27010
2026-01-28 10:31:34.51	265.62	26.09	-55.0	-57.2	18.1	0.00e+00	0	46	0	563085312	60	28273
2026-01-28 10:31:35.52	265.93	26.11	-54.8	-56.9	18.3	0.00e+00	0	46	0	564133888	60	27472
2026-01-28 10:31:36.53	266.23	26.12	-54.7	-56.7	18.4	0.00e+00	0	46	0	566231040	60	26928
2026-01-28 10:31:37.53	266.53	26.14	-54.3	-56.2	18.9	0.00e+00	0	46	0	568328192	60	25193
2026-01-28 10:31:38.54	266.84	26.16	-54.2	-56.0	19.0	0.00e+00	0	46	0	570425344	60	24772
2026-01-28 10:31:39.55	267.15	26.18	-53.9	-55.7	19.4	0.00e+00	0	46	0	571473920	60	23760
2026-01-28 10:31:40.56	267.45	26.19	-53.8	-55.5	19.3	0.00e+00	0	46	0	573571072	60	23319
2026-01-28 10:31:41.57	267.76	26.21	-54.1	-55.9	19.2	0.00e+00	0	46	0	575668224	60	24507
2026-01-28 10:31:42.58	268.07	26.22	-54.5	-56.5	18.6	0.00e+00	0	46	0	577765376	60	26188
2026-01-28 10:31:43.59	268.37	26.23	-54.9	-57.0	18.2	0.00e+00	0	46	0	579862528	60	27769
2026-01-28 10:31:44.60	268.68	26.25	-54.8	-56.8	18.3	0.00e+00	0	46	0	581959680	60	27144
2026-01-28 10:31:45.60	268.98	26.26	-54.6	-56.5	18.7	0.00e+00	0	46	0	583008256	60	26228
2026-01-28 10:31:46.61	269.29	26.27	-54.2	-56.0	19.1	0.00e+00	0	46	0	585105408	60	24789
2026-01-28 10:31:47.61	269.60	26.28	-53.9	-55.7	19.4	0.00e+00	0	46	0	587202560	60	23805
2026-01-28 10:31:48.61	269.90	26.29	-54.0	-55.8	19.2	0.00e+00	0	46	0	589299712	60	24202
2026-01-28 10:31:49.61	270.21	26.29	-54.3	-56.2	18.8	0.00e+00	0	46	0	591396864	60	25340
2026-01-28 10:31:50.62	270.51	26.30	-54.6	-56.5	18.7	0.00e+00	0	46	0	592445440	60	26336
2026-01-28 10:31:51.63	270.82	26.31	-54.8	-56.8	18.4	0.00e+00	0	46	0	594542592	60	27230
2026-01-28 10:31:52.63	271.13	26.31	-54.5	-56.4	18.8	0.00e+00	0	46	0	596639744	60	25899
2026-01-28 10:31:53.64	271.44	26.32	-54.2	-56.1	19.1	0.00e+00	0	46	0	598736896	60	24962
2026-01-28 10:31:54.64	271.74	26.32	-54.1	-56.0	19.1	0.00e+00	0	46	0	599785472	60	24788
2026-01-28 10:31:55.64	272.05	26.32	-54.1	-56.2	18.9	0.00e+00	0	46	0	601882624	60	25192
2026-01-28 10:31:56.65	272.36	26.33	-54.1	-56.1	19.0	0.00e+00	0	46	0	603979776	60	24976
2026-01-28 10:31:57.66	272.66	26.33	-53.8	-55.6	19.4	0.00e+00	0	46	0	606076928	60	23742
2026-01-28 10:31:58.67	272.97	26.33	-53.5	-55.3	19.7	0.00e+00	0	46	0	608174080	60	22830
2026-01-28 10:31:59.67	273.28	26.33	-53.2	-54.9	20.1	0.00e+00	0	46	0	610271232	60	21866
2026-01-28 10:32:00.68	273.59	26.32	-52.8	-54.5	20.3	0.00e+00	0	46	0	611319808	60	20824
2026-01-28 10:32:01.69	273.90	26.32	-53.0	-54.8	20.0	0.00e+00	0	46	0	613416960	60	21484
2026-01-28 10:32:02.69	274.20	26.32	-53.3	-55.2	19.7	0.00e+00	0	46	0	615514112	60	22525
2026-01-28 10:32:03.69	274.51	26.32	-53.6	-55.7	19.3	0.00e+00	0	46	0	617611264	60	23839
2026-01-28 10:32:04.69	274.81	26.31	-53.5	-55.5	19.3	0.00e+00	0	46	0	619708416	60	23318
2026-01-28 10:32:05.70	275.12	26.30	-53.3	-55.2	19.7	0.00e+00	0	46	0	620756992	60	22519
2026-01-28 10:32:06.71	275.43	26.30	-53.2	-55.1	19.9	0.00e+00	0	46	0	622854144	60	22314
2026-01-28 10:32:07.71	275.73	26.29	-53.0	-54.9	19.9	0.00e+00	0	46	0	624951296	60	21771
2026-01-28 10:32:08.71	276.04	26.28	-53.2	-55.2	19.6	0.00e+00	0	46	0	627048448	60	22519
2026-01-28 10:32:09.71	276.34	26.27	-53.4	-55.5	19.3	0.00e+00	0	46	0	628097024	60	23407
2026-01-28 10:32:10.72	276.65	26.26	-53.5	-55.7	19.2	0.00e+00	0	46	0	630194176	60	23893
2026-01-28 10:32:11.73	276.96	26.25	-53.6	-55.9	19.0	0.00e+00	0	46	0	632291328	60	24416
2026-01-28 10:32:12.74	277.26	26.24	-53.5	-55.9	18.9	0.00e+00	0	46	0	634388480	60	24374
2026-01-28 10:32:13.74	277.57	26.23	-53.4	-55.9	18.9	0.00e+00	0	46	0	636485632	60	24553
2026-01-28 10:32:14.75	277.87	26.21	-53.5	-56.1	18.6	0.00e+00	0	46	0	637534208	60	25044
2026-01-28 10:32:15.76	278.18	26.20	-53.6	-56.5	18.1	0.00e+00	0	46	0	639631360	60	26205
2026-01-28 10:32:16.77	278.49	26.18	-53.7	-57.1	17.5	0.00e+00	0	46	0	641728512	60	28034
2026-01-28 10:32:17.77	278.79	26.17	-53.4	-56.7	17.6	0.00e+00	0	46	0	643825664	60	26736
2026-01-28 10:32:18.78	279.09	26.15	-53.2	-56.7	17.6	0.00e+00	0	46	0	645922816	60	26857
2026-01-28 10:32:19.79	279.40	26.13	-53.0	-56.6	17.5	0.00e+00	0	46	0	648019968	60	26413
2026-01-28 10:32:20.79	279.70	26.12	-52.5	-55.9	18.1	0.00e+00	0	46	0	649068544	60	24491
2026-01-28 10:32:21.80	280.01	26.10	-52.0	-55.1	18.8	0.00e+00	0	46	0	651165696	60	22261
2026-01-28 10:32:22.80	280.31	26.08	-51.5	-54.3	19.5	0.00e+00	0	46	0	653262848	60	20310
2026-01-28 10:32:23.80	280.61	26.06	-51.1	-53.8	19.8	0.00e+00	0	46	0	655360000	60	19209
2026-01-28 10:32:24.81	280.91	26.03	-51.2	-53.9	19.8	0.00e+00	0	46	0	656408576	60	19320
2026-01-28 10:32:25.81	281.21	26.01	-51.3	-54.0	19.7	0.00e+00	0	46	0	658505728	60	19580
2026-01-28 10:32:26.81	281.51	25.99	-51.5	-54.4	19.4	0.00e+00	0	46	0	660602880	60	20465
2026-01-28 10:32:27.82	281.81	25.96	-51.6	-54.4	19.3	0.00e+00	0	46	0	662700032	60	20628
2026-01-28 10:32:28.83	282.11	25.94	-51.5	-54.2	19.7	0.00e+00	0	46	0	664797184	60	19991
2026-01-28 10:32:29.84	282.41	25.91	-51.4	-53.9	20.1	0.00e+00	0	46	0	665845760	60	19353
2026-01-28 10:32:30.84	282.71	25.89	-51.4	-53.8	19.9	0.00e+00	0	46	0	667942912	60	19151
2026-01-28 10:32:31.85	283.01	25.86	-51.6	-53.9	19.8	0.00e+00	0	46	0	670040064	60	19514
2026-01-28 10:32:32.86	283.31	25.83	-51.9	-54.4	19.6	0.00e+00	0	46	0	672137216	60	20479
2026-01-28 10:32:33.87	283.61	25.80	-52.1	-54.3	19.7	0.00e+00	0	46	0	674234368	60	20430
2026-01-28 10:32:34.87	283.90	25.77	-52.0	-54.0	20.2	0.00e+00	0	46	0	676331520	60	19579
2026-01-28 10:32:35.88	284.20	25.74	-51.8	-53.6	20.7	0.00e+00	0	46	0	677380096	60	18825
2026-01-28 10:32:36.89	284.50	25.71	-51.7	-53.4	20.8	0.00e+00	0	46	0	679477248	60	18415
2026-01-28 10:32:37.89	284.79	25.68	-51.8	-53.4	21.0	0.00e+00	0	46	0	681574400	60	18344
2026-01-28 10:32:38.89	285.09	25.65	-51.8	-53.4	21.1	0.00e+00	0	46	0	683671552	60	18381
2026-01-28 10:32:39.90	285.38	25.61	-52.0	-53.6	20.8	0.00e+00	0	46	0	684720128	60	18690
2026-01-28 10:32:40.90	285.67	25.58	-52.4	-54.0	20.5	0.00e+00	0	46	0	686817280	60	19666
2026-01-28 10:32:41.91	285.97	25.54	-52.7	-54.4	20.0	0.00e+00	0	46	0	688914432	60	20668
2026-01-28 10:32:42.91	286.26	25.51	-52.9	-54.8	19.7	0.00e+00	0	46	0	691011584	60	21497
2026-01-28 10:32:43.92	286.55	25.47	-52.7	-54.6	19.8	0.00e+00	0	46	0	693108736	60	21038
2026-01-28 10:32:44.92	286.84	25.43	-52.5	-54.4	19.9	0.00e+00	0	46	0	694157312	60	20575
2026-01-28 10:32:45.93	287.13	25.40	-52.3	-54.4	19.5	0.00e+00	0	46	0	696254464	60	20580
2026-01-28 10:32:46.94	287.42	25.36	-52.2	-54.5	19.4	0.00e+00	0	46	0	698351616	60	20691
2026-01-28 10:32:47.95	287.71	25.32	-52.1	-54.5	19.2	0.00e+00	0	46	0	700448768	60	20869
2026-01-28 10:32:48.95	288.00	25.28	-52.0	-54.5	19.2	0.00e+00	0	46	0	702545920	60	20767
2026-01-28 10:32:49.97	288.29	25.24	-51.7	-54.1	19.6	0.00e+00	0	46	0	703594496	60	19907
2026-01-28 10:32:50.97	288.57	25.20	-51.1	-53.4	20.2	0.00e+00	0	46	0	705691648	60	18374
2026-01-28 10:32:51.98	288.86	25.16	-50.7	-52.8	20.8	0.00e+00	0	46	0	707788800	60	17124
2026-01-28 10:32:52.99	289.15	25.11	-50.5	-52.5	21.0	0.00e+00	0	46	0	709885952	60	16610
2026-01-28 10:32:53.99	289.43	25.07	-50.3	-52.4	21.3	0.00e+00	0	46	0	711983104	60	16258
2026-01-28 10:32:55.00	289.71	25.03	-50.4	-52.4	21.4	0.00e+00	0	46	0	713031680	60	16324
2026-01-28 10:32:56.01	290.00	24.98	-50.6	-52.7	21.2	0.00e+00	0	46	0	715128832	60	16867
2026-01-28 10:32:57.02	290.28	24.94	-50.6	-52.7	21.3	0.00e+00	0	46	0	717225984	60	16904
2026-01-28 10:32:58.03	290.56	24.89	-50.7	-52.7	21.4	0.00e+00	0	46	0	719323136	60	16941
2026-01-28 10:32:59.04	290.85	24.84	-50.9	-52.8	21.5	0.00e+00	0	46	0	721420288	60	17113
2026-01-28 10:33:00.03	291.12	24.80	-50.9	-52.6	21.7	0.00e+00	0	46	0	722468864	60	16792
2026-01-28 10:33:01.04	291.40	24.75	-50.9	-52.6	22.0	0.00e+00	0	46	0	724566016	60	16639
2026-01-28 10:33:02.05	291.68	24.70	-51.0	-52.4	22.0	0.00e+00	0	46	0	726663168	60	16427
2026-01-28 10:33:03.06	291.96	24.65	-51.2	-52.6	22.1	0.00e+00	0	46	0	728760320	60	16735
2026-01-28 10:33:04.07	292.24	24.60	-51.3	-52.7	22.0	0.00e+00	0	46	0	730857472	60	16812
2026-01-28 10:33:05.08	292.51	24.55	-51.6	-53.0	22.0	0.00e+00	0	46	0	732954624	60	17424
2026-01-28 10:33:06.08	292.78	24.50	-51.5	-52.8	22.1	0.00e+00	0	46	0	734003200	60	17074
2026-01-28 10:33:07.09	293.06	24.45	-51.3	-52.5	22.4	0.00e+00	0	46	0	736100352	60	16465
2026-01-28 10:33:08.10	293.33	24.40	-51.0	-52.2	22.4	0.00e+00	0	46	0	738197504	60	15925
2026-01-28 10:33:09.10	293.60	24.34	-51.0	-52.3	22.3	0.00e+00	0	46	0	740294656	60	16153
2026-01-28 10:33:10.11	293.88	24.29	-50.8	-52.2	22.3	0.00e+00	0	46	0	741343232	60	15880
2026-01-28 10:33:11.11	294.14	24.24	-51.0	-52.4	22.1	0.00e+00	0	46	0	743440384	60	16300
2026-01-28 10:33:12.11	294.41	24.18	-51.0	-52.5	21.7	0.00e+00	0	46	0	745537536	60	16576
2026-01-28 10:33:13.12	294.68	24.13	-50.8	-52.3	21.9	0.00e+00	0	46	0	747634688	60	16178
2026-01-28 10:33:14.13	294.95	24.07	-50.8	-52.4	21.7	0.00e+00	0	46	0	749731840	60	16327
2026-01-28 10:33:15.13	295.21	24.02	-50.7	-52.3	21.6	0.00e+00	0	46	0	750780416	60	16170
2026-01-28 10:33:16.13	295.48	23.96	-50.7	-52.3	21.7	0.00e+00	0	46	0	752877568	60	16186
2026-01-28 10:33:17.14	295.74	23.91	-50.7	-52.2	21.8	0.00e+00	0	46	0	754974720	60	15987
2026-01-28 10:33:18.15	296.01	23.85	-50.9	-52.4	21.8	0.00e+00	0	46	0	757071872	60	16313
2026-01-28 10:33:19.16	296.27	23.79	-50.9	-52.4	21.9	0.00e+00	0	46	0	759169024	60	16259
2026-01-28 10:33:20.16	296.53	23.73	-51.1	-52.6	21.8	0.00e+00	0	46	0	760217600	60	16634
2026-01-28 10:33:21.17	296.79	23.68	-51.3	-52.7	21.8	0.00e+00	0	46	0	762314752	60	16929
2026-01-28 10:33:22.18	297.05	23.62	-51.5	-52.9	21.7	0.00e+00	0	46	0	764411904	60	17369
2026-01-28 10:33:23.19	297.31	23.56	-51.4	-52.8	21.9	0.00e+00	0	46	0	766509056	60	17127
2026-01-28 10:33:24.19	297.57	23.50	-51.2	-52.6	21.8	0.00e+00	0	46	0	768606208	60	16664
2026-01-28 10:33:25.20	297.83	23.44	-51.0	-52.2	22.3	0.00e+00	0	46	0	769654784	60	16045
2026-01-28 10:33:26.20	298.08	23.38	-51.0	-52.3	22.3	0.00e+00	0	46	0	771751936	60	16144
2026-01-28 10:33:27.21	298.34	23.31	-51.2	-52.5	22.2	0.00e+00	0	46	0	773849088	60	16565
2026-01-28 10:33:28.21	298.59	23.25	-51.3	-52.6	22.2	0.00e+00	0	46	0	775946240	60	16779
2026-01-28 10:33:29.22	298.85	23.19	-51.2	-52.5	22.4	0.00e+00	0	46	0	778043392	60	16528
2026-01-28 10:33:30.23	299.10	23.13	-51.1	-52.4	22.3	0.00e+00	0	46	0	779091968	60	16311
2026-01-28 10:33:31.24	299.35	23.06	-51.0	-52.3	22.5	0.00e+00	0	46	0	781189120	60	16084
2026-01-28 10:33:32.25	299.60	23.00	-50.9	-52.2	22.4	0.00e+00	0	46	0	783286272	60	15971
2026-01-28 10:33:33.26	299.85	22.94	-51.0	-52.4	22.1	0.00e+00	0	46	0	785383424	60	16293
2026-01-28 10:33:34.26	300.10	22.87	-51.3	-52.8	21.7	0.00e+00	0	46	0	787480576	60	17077
2026-01-28 10:33:35.27	300.35	22.81	-51.6	-53.2	21.3	0.00e+00	0	46	0	789577728	60	17905
2026-01-28 10:33:36.27	300.59	22.74	-51.6	-53.2	21.1	0.00e+00	0	46	0	790626304	60	17830
2026-01-28 10:33:37.28	300.84	22.68	-51.9	-53.5	20.6	0.00e+00	0	46	0	792723456	60	18537
2026-01-28 10:33:38.29	301.08	22.61	-51.8	-53.3	20.9	0.00e+00	0	46	0	794820608	60	18191
2026-01-28 10:33:39.30	301.32	22.55	-51.7	-53.3	20.8	0.00e+00	0	46	0	796917760	60	18068
2026-01-28 10:33:40.30	301.57	22.48	-51.7	-53.2	21.1	0.00e+00	0	46	0	797966336	60	17836
2026-01-28 10:33:41.30	301.80	22.41	-51.7	-53.2	21.0	0.00e+00	0	46	0	800063488	60	17841
2026-01-28 10:33:42.31	302.05	22.35	-51.9	-53.3	21.1	0.00e+00	0	46	0	802160640	60	18162
2026-01-28 10:33:43.31	302.28	22.28	-52.1	-53.6	20.9	0.00e+00	0	46	0	804257792	60	18720
2026-01-28 10:33:44.32	302.52	22.21	-52.4	-53.9	20.8	0.00e+00	0	46	0	806354944	60	19443
2026-01-28 10:33:45.32	302.76	22.15	-52.5	-54.1	20.7	0.00e+00	0	46	0	807403520	60	19900
2026-01-28 10:33:46.32	302.99	22.08	-52.3	-53.9	20.9	0.00e+00	0	46	0	809500672	60	19415
2026-01-28 10:33:47.33	303.23	22.01	-52.2	-53.9	20.9	0.00e+00	0	46	0	811597824	60	19326
2026-01-28 10:33:48.33	303.46	21.94	-51.9	-53.6	21.1	0.00e+00	0	46	0	813694976	60	18670
2026-01-28 10:33:49.34	303.69	21.87	-51.6	-53.3	21.3	0.00e+00	0	46	0	815792128	60	18183
2026-01-28 10:33:50.34	303.92	21.80	-51.5	-53.3	21.2	0.00e+00	0	46	0	816840704	60	18100
2026-01-28 10:33:51.35	304.16	21.73	-51.8	-53.6	21.0	0.00e+00	0	46	0	818937856	60	18779
2026-01-28 10:33:52.35	304.38	21.66	-52.0	-53.9	20.7	0.00e+00	0	46	0	821035008	60	19478
2026-01-28 10:33:53.37	304.62	21.59	-52.4	-54.5	20.4	0.00e+00	0	46	0	823132160	60	20706
2026-01-28 10:33:54.37	304.84	21.52	-52.7	-54.8	20.1	0.00e+00	0	46	0	825229312	60	21610
2026-01-28 10:33:55.37	305.07	21.45	-52.9	-55.0	20.1	0.00e+00	0	46	0	826277888	60	21926
2026-01-28 10:33:56.38	305.29	21.38	-52.9	-54.8	20.3	0.00e+00	0	46	0	828375040	60	21577
2026-01-28 10:33:57.38	305.52	21.31	-52.5	-54.2	20.9	0.00e+00	0	46	0	830472192	60	20001
2026-01-28 10:33:58.39	305.74	21.24	-52.1	-53.6	21.4	0.00e+00	0	46	0	832569344	60	18718
2026-01-28 10:33:59.40	305.97	21.17	-51.9	-53.2	21.8	0.00e+00	0	46	0	834666496	60	17982
2026-01-28 10:34:00.40	306.19	21.09	-51.3	-52.5	22.3	0.00e+00	0	46	0	835715072	60	16592
2026-01-28 10:34:01.41	306.41	21.02	-51.4	-52.6	22.0	0.00e+00	0	46	0	837812224	60	16712
2026-01-28 10:34:02.41	306.63	20.95	-51.5	-52.8	21.9	0.00e+00	0	46	0	839909376	60	17012
2026-01-28 10:34:03.41	306.84	20.88	-51.9	-53.3	21.5	0.00e+00	0	46	0	842006528	60	18120
2026-01-28 10:34:04.41	307.06	20.81	-52.1	-53.6	21.3	0.00e+00	0	46	0	844103680	60	18712
2026-01-28 10:34:05.42	307.28	20.73	-52.2	-53.8	21.0	0.00e+00	0	46	0	845152256	60	19145
2026-01-28 10:34:06.43	307.49	20.66	-52.3	-54.1	20.8	0.00e+00	0	46	0	847249408	60	19891
2026-01-28 10:34:07.43	307.71	20.59	-52.5	-54.5	20.5	0.00e+00	0	46	0	849346560	60	20858
2026-01-28 10:34:08.43	307.92	20.51	-52.5	-54.7	20.3	0.00e+00	0	46	0	851443712	60	21330
2026-01-28 10:34:09.44	308.13	20.44	-52.4	-54.7	20.3	0.00e+00	0	46	0	853540864	60	21358
2026-01-28 10:34:10.44	308.34	20.37	-52.2	-54.7	20.4	0.00e+00	0	46	0	854589440	60	21346
2026-01-28 10:34:11.45	308.55	20.29	-52.1	-54.7	20.4	0.00e+00	0	46	0	856686592	60	21172
2026-01-28 10:34:12.46	308.77	20.22	-52.1	-54.6	20.4	0.00e+00	0	46	0	858783744	60	21091
2026-01-28 10:34:13.45	308.97	20.15	-52.0	-54.5	20.6	0.00e+00	0	46	0	860880896	60	20836
2026-01-28 10:34:14.46	309.18	20.07	-52.1	-54.4	20.6	0.00e+00	0	46	0	861929472	60	20451
2026-01-28 10:34:15.47	309.39	20.00	-52.2	-54.4	20.6	0.00e+00	0	46	0	864026624	60	20528
2026-01-28 10:34:16.47	309.59	19.92	-52.3	-54.1	20.8	0.00e+00	0	46	0	866123776	60	19916
2026-01-28 10:34:17.48	309.80	19.85	-52.6	-54.2	20.7	0.00e+00	0	46	0	868220928	60	20086
2026-01-28 10:34:18.49	310.00	19.77	-53.0	-54.5	20.4	0.00e+00	0	46	0	870318080	60	20786
2026-01-28 10:34:19.49	310.20	19.70	-53.1	-54.7	20.3	0.00e+00	0	46	0	872415232	60	21199
2026-01-28 10:34:20.50	310.41	19.62	-53.6	-55.3	19.7	0.00e+00	0	46	0	873463808	60	22861
2026-01-28 10:34:21.50	310.61	19.55	-53.6	-55.6	19.6	0.00e+00	0	46	0	875560960	60	23496
2026-01-28 10:34:22.50	310.80	19.47	-53.7	-55.8	19.4	0.00e+00	0	46	0	877658112	60	24193
2026-01-28 10:34:23.50	311.00	19.40	-53.3	-55.5	19.7	0.00e+00	0	46	0	879755264	60	23251
2026-01-28 10:34:24.51	311.20	19.32	-52.7	-54.6	20.5	0.00e+00	0	46	0	881852416	60	21141
2026-01-28 10:34:25.52	311.40	19.25	-52.2	-53.9	21.0	0.00e+00	0	46	0	882900992	60	19504
2026-01-28 10:34:26.53	311.60	19.17	-52.0	-53.6	21.3	0.00e+00	0	46	0	884998144	60	18788
2026-01-28 10:34:27.54	311.79	19.09	-51.9	-53.5	21.7	0.00e+00	0	46	0	887095296	60	18442
2026-01-28 10:34:28.54	311.98	19.02	-51.9	-53.4	21.6	0.00e+00	0	46	0	889192448	60	18225
2026-01-28 10:34:29.55	312.18	18.94	-52.4	-53.8	21.0	0.00e+00	0	46	0	890241024	60	19289
2026-01-28 10:34:30.56	312.37	18.87	-52.9	-54.5	20.3	0.00e+00	0	46	0	892338176	60	20775
2026-01-28 10:34:31.57	312.56	18.79	-53.0	-54.8	19.8	0.00e+00	0	46	0	894435328	60	21585
2026-01-28 10:34:32.57	312.75	18.71	-53.2	-55.4	19.0	0.00e+00	0	46	0	896532480	60	23014
2026-01-28 10:34:33.58	312.94	18.64	-52.8	-55.1	19.1	0.00e+00	0	46	0	898629632	60	22343
2026-01-28 10:34:34.59	313.13	18.56	-52.2	-54.6	19.3	0.00e+00	0	46	0	900726784	60	21077
2026-01-28 10:34:35.59	313.32	18.48	-52.1	-54.4	19.5	0.00e+00	0	46	0	901775360	60	20559
2026-01-28 10:34:36.59	313.50	18.41	-52.0	-54.1	20.0	0.00e+00	0	46	0	903872512	60	19908
2026-01-28 10:34:37.59	313.69	18.33	-52.3	-54.3	19.9	0.00e+00	0	46	0	905969664	60	20380
2026-01-28 10:34:38.60	313.88	18.25	-52.7	-54.6	20.0	0.00e+00	0	46	0	908066816	60	21007
2026-01-28 10:34:39.60	314.06	18.18	-53.1	-54.9	20.0	0.00e+00	0	46	0	910163968	60	21835
2026-01-28 10:34:40.60	314.24	18.10	-53.6	-55.5	19.6	0.00e+00	0	46	0	911212544	60	23342
2026-01-28 10:34:41.61	314.42	18.03	-53.8	-55.7	19.5	0.00e+00	0	46	0	913309696	60	23899
2026-01-28 10:34:42.62	314.61	17.95	-53.6	-55.5	19.7	0.00e+00	0	46	0	915406848	60	23410
2026-01-28 10:34:43.62	314.78	17.87	-53.3	-55.2	19.9	0.00e+00	0	46	0	917504000	60	22456
2026-01-28 10:34:44.63	314.96	17.80	-53.0	-54.9	20.0	0.00e+00	0	46	0	918552576	60	21656
2026-01-28 10:34:45.64	315.14	17.72	-52.6	-54.5	19.9	0.00e+00	0	46	0	920649728	60	20756
2026-01-28 10:34:46.65	315.32	17.64	-52.3	-54.2	20.0	0.00e+00	0	46	0	922746880	60	20101
2026-01-28 10:34:47.65	315.50	17.56	-52.2	-54.1	20.0	0.00e+00	0	46	0	924844032	60	19866
2026-01-28 10:34:48.66	315.68	17.49	-52.2	-54.3	19.6	0.00e+00	0	46	0	926941184	60	20360
2026-01-28 10:34:49.67	315.85	17.41	-51.9	-54.4	19.3	0.00e+00	0	46	0	929038336	60	20596
2026-01-28 10:34:50.68	316.03	17.33	-51.6	-54.3	19.2	0.00e+00	0	46	0	930086912	60	20417
2026-01-28 10:34:51.68	316.20	17.26	-51.5	-54.3	19.1	0.00e+00	0	46	0	932184064	60	20424
2026-01-28 10:34:52.69	316.37	17.18	-51.4	-54.3	19.2	0.00e+00	0	46	0	934281216	60	20364
2026-01-28 10:34:53.70	316.54	17.10	-51.3	-54.1	19.7	0.00e+00	0	46	0	936378368	60	19797
2026-01-28 10:34:54.70	316.71	17.03	-51.2	-53.9	19.9	0.00e+00	0	46	0	938475520	60	19471
2026-01-28 10:34:55.71	316.88	16.95	-51.2	-53.7	20.3	0.00e+00	0	46	0	939524096	60	18891
2026-01-28 10:34:56.71	317.05	16.87	-51.2	-53.5	20.5	0.00e+00	0	46	0	941621248	60	18595
2026-01-28 10:34:57.71	317.22	16.80	-51.5	-53.8	20.4	0.00e+00	0	46	0	943718400	60	19214
2026-01-28 10:34:58.72	317.39	16.72	-51.7	-54.1	20.2	0.00e+00	0	46	0	945815552	60	19875
2026-01-28 10:34:59.73	317.56	16.64	-51.8	-54.2	19.9	0.00e+00	0	46	0	946864128	60	20058
2026-01-28 10:35:00.74	317.72	16.56	-52.1	-54.9	19.5	0.00e+00	0	46	0	948961280	60	21771
2026-01-28 10:35:01.74	317.89	16.49	-52.2	-55.1	19.2	0.00e+00	0	46	0	951058432	60	22235
2026-01-28 10:35:02.75	318.05	16.41	-52.1	-55.3	18.8	0.00e+00	0	46	0	953155584	60	22716
2026-01-28 10:35:03.76	318.22	16.33	-52.0	-55.3	18.5	0.00e+00	0	46	0	955252736	60	22730
2026-01-28 10:35:04.77	318.38	16.26	-51.7	-54.8	18.7	0.00e+00	0	46	0	957349888	60	21566
2026-01-28 10:35:05.78	318.54	16.18	-51.6	-54.6	18.8	0.00e+00	0	46	0	958398464	60	20927
2026-01-28 10:35:06.78	318.70	16.10	-51.5	-54.3	18.8	0.00e+00	0	46	0	960495616	60	20309
2026-01-28 10:35:07.79	318.86	16.03	-51.2	-54.0	18.8	0.00e+00	0	46	0	962592768	60	19634
2026-01-28 10:35:08.80	319.02	15.95	-51.1	-54.1	18.6	0.00e+00	0	46	0	964689920	60	19884
2026-01-28 10:35:09.80	319.18	15.87	-50.9	-54.0	18.6	0.00e+00	0	46	0	966787072	60	19543
2026-01-28 10:35:10.80	319.34	15.80	-50.9	-54.2	18.5	0.00e+00	0	46	0	967835648	60	20195
2026-01-28 10:35:11.81	319.49	15.72	-50.9	-54.3	18.6	0.00e+00	0	46	0	969932800	60	20367
2026-01-28 10:35:12.82	319.65	15.64	-51.1	-54.5	18.7	0.00e+00	0	46	0	972029952	60	20721
2026-01-28 10:35:13.83	319.81	15.57	-51.1	-54.4	19.1	0.00e+00	0	46	0	974127104	60	20652
2026-01-28 10:35:14.84	319.96	15.49	-51.2	-54.3	19.4	0.00e+00	0	46	0	975175680	60	20436
2026-01-28 10:35:15.84	320.12	15.41	-51.2	-54.1	19.9	0.00e+00	0	46	0	977272832	60	19865
2026-01-28 10:35:16.85	320.27	15.34	-51.3	-54.2	19.8	0.00e+00	0	46	0	979369984	60	20060
2026-01-28 10:35:17.86	320.42	15.26	-51.4	-54.2	19.8	0.00e+00	0	46	0	981467136	60	20022
2026-01-28 10:35:18.87	320.58	15.19	-51.4	-54.2	19.7	0.00e+00	0	46	0	983564288	60	20189
2026-01-28 10:35:19.88	320.73	15.11	-51.3	-54.4	19.1	0.00e+00	0	46	0	985661440	60	20614
2026-01-28 10:35:20.88	320.88	15.03	-51.2	-54.9	18.3	0.00e+00	0	46	0	986710016	60	21724
2026-01-28 10:35:21.89	321.03	14.96	-51.1	-55.3	17.5	0.00e+00	0	46	0	988807168	60	22844
2026-01-28 10:35:22.90	321.18	14.88	-50.8	-55.9	16.6	0.00e+00	0	46	0	990904320	60	24460
2026-01-28 10:35:23.90	321.32	14.81	-50.5	-56.2	16.0	0.00e+00	0	46	0	993001472	60	25408
2026-01-28 10:35:24.91	321.47	14.73	-50.5	-56.5	15.5	0.00e+00	0	46	0	995098624	60	26073
2026-01-28 10:35:25.92	321.62	14.65	-50.4	-56.7	15.3	0.00e+00	0	46	0	996147200	60	26839
2026-01-28 10:35:26.92	321.76	14.58	-50.3	-56.7	15.2	0.00e+00	0	46	0	998244352	60	26733
2026-01-28 10:35:27.93	321.91	14.50	-50.4	-56.5	15.5	0.00e+00	0	46	0	1000341504	60	26216
2026-01-28 10:35:28.93	322.05	14.43	-50.6	-56.3	15.8	0.00e+00	0	46	0	1002438656	60	25501
2026-01-28 10:35:29.94	322.20	14.35	-50.6	-56.0	16.2	0.00e+00	0	46	0	1003487232	60	24815
2026-01-28 10:35:30.95	322.34	14.28	-50.8	-55.9	16.5	0.00e+00	0	46	0	1005584384	60	24527
2026-01-28 10:35:31.95	322.48	14.20	-51.1	-55.8	16.8	0.00e+00	0	46	0	1007681536	60	24259
2026-01-28 10:35:32.96	322.62	14.13	-51.4	-55.9	17.3	0.00e+00	0	46	0	1009778688	60	24328
2026-01-28 10:35:33.97	322.76	14.05	-51.6	-55.8	17.5	0.00e+00	0	46	0	1011875840	60	24206
2026-01-28 10:35:34.97	322.90	13.98	-51.8	-55.9	17.5	0.00e+00	0	46	0	1013972992	60	24576
2026-01-28 10:35:35.97	323.04	13.90	-52.0	-55.9	17.7	0.00e+00	0	46	0	1015021568	60	24415
2026-01-28 10:35:36.98	323.18	13.83	-52.2	-56.0	17.5	0.00e+00	0	46	0	1017118720	60	24688
2026-01-28 10:35:37.98	323.32	13.75	-51.9	-55.9	17.4	0.00e+00	0	46	0	1019215872	60	24310
2026-01-28 10:35:38.99	323.46	13.68	-51.8	-55.8	17.2	0.00e+00	0	46	0	1021313024	60	24279
2026-01-28 10:35:39.99	323.59	13.60	-51.6	-55.8	16.9	0.00e+00	0	46	0	1023410176	60	24070
2026-01-28 10:35:40.99	323.73	13.53	-51.5	-55.9	16.3	0.00e+00	0	46	0	1024458752	60	24336
2026-01-28 10:35:42.00	323.87	13.45	-51.1	-55.8	15.9	0.00e+00	0	46	0	1026555904	60	24049
2026-01-28 10:35:43.00	324.00	13.38	-50.9	-55.8	15.6	0.00e+00	0	46	0	1028653056	60	24199
2026-01-28 10:35:44.00	324.13	13.31	-50.8	-56.0	15.3	0.00e+00	0	46	0	1030750208	60	24703
2026-01-28 10:35:45.01	324.27	13.23	-50.7	-56.2	15.0	0.00e+00	0	46	0	1031798784	60	25293
2026-01-28 10:35:46.02	324.40	13.16	-50.7	-56.5	14.9	0.00e+00	0	46	0	1033895936	60	26112
2026-01-28 10:35:47.02	324.53	13.08	-50.9	-57.0	14.5	0.00e+00	0	46	0	1035993088	60	27883
2026-01-28 10:35:48.03	324.66	13.01	-51.1	-57.4	14.3	7.00e-07	0	46	0	1038090240	60	29193
2026-01-28 10:35:49.04	324.80	12.93	-51.5	-57.8	14.3	7.00e-07	0	46	0	1040187392	60	30434
2026-01-28 10:35:50.04	324.93	12.86	-51.9	-58.1	14.3	2.20e-06	0	46	0	1041235968	60	31628
2026-01-28 10:35:51.05	325.06	12.79	-52.4	-58.6	14.2	2.20e-06	0	46	0	1043333120	60	33309
2026-01-28 10:35:52.06	325.19	12.71	-53.0	-58.8	14.1	0.00e+00	0	46	0	1045430272	60	34291
2026-01-28 10:35:53.07	325.31	12.64	-53.6	-59.0	14.2	7.00e-07	0	46	0	1047527424	60	34758
2026-01-28 10:35:54.07	325.44	12.57	-54.4	-59.2	14.3	0.00e+00	0	46	0	1049624576	60	35699
2026-01-28 10:35:55.08	325.57	12.49	-54.9	-59.2	14.4	7.00e-07	0	46	0	1051721728	60	35930
2026-01-28 10:35:56.08	325.70	12.42	-55.1	-59.3	14.3	0.00e+00	0	46	0	1052770304	60	36070
2026-01-28 10:35:57.09	325.82	12.35	-55.2	-59.4	14.0	7.00e-07	0	46	0	1054867456	60	36359
2026-01-28 10:35:58.09	325.95	12.27	-54.9	-59.3	13.8	1.50e-06	0	46	0	1056964608	60	35977
2026-01-28 10:35:59.10	326.07	12.20	-54.7	-59.6	13.3	1.06e-05	0	46	0	1059061760	60	37205
2026-01-28 10:36:00.11	326.20	12.13	-54.3	-59.7	13.1	2.74e-05	0	46	0	1060110336	60	37677
2026-01-28 10:36:01.11	326.32	12.06	-53.9	-59.8	12.8	4.73e-05	0	46	0	1062207488	60	38317
2026-01-28 10:36:02.11	326.44	11.98	-53.8	-60.3	12.1	1.04e-04	0	46	0	1064304640	60	40629
2026-01-28 10:36:03.12	326.57	11.91	-53.5	-60.5	11.8	3.19e-04	0	46	0	1066401792	60	41457
2026-01-28 10:36:04.13	326.69	11.84	-53.5	-60.8	11.6	4.78e-04	0	46	0	1068498944	60	42763
2026-01-28 10:36:05.14	326.81	11.77	-53.7	-61.1	11.2	9.24e-04	0	46	0	1069547520	60	44533
2026-01-28 10:36:06.14	326.93	11.69	-53.9	-61.4	10.9	1.32e-03	0	46	0	1071644672	60	46203
2026-01-28 10:36:07.15	327.05	11.62	-54.2	-61.8	10.5	2.87e-03	0	46	0	1073741824	60	48345
2026-01-28 10:36:08.15	327.17	11.55	-54.5	-62.1	10.1	4.93e-03	0	46	0	1075838976	60	49893
2026-01-28 10:36:09.16	327.29	11.48	-54.4	-62.1	9.9	5.86e-03	0	46	0	1077936128	60	49717
2026-01-28 10:36:10.16	327.41	11.41	-54.4	-62.4	9.4	1.25e-02	0	46	0	1078984704	60	51629
2026-01-28 10:36:11.17	327.53	11.33	-54.3	-62.4	9.3	1.57e-02	0	46	0	1081081856	60	51613
2026-01-28 10:36:12.18	327.64	11.26	-54.3	-62.8	9.1	1.95e-02	0	46	0	1083179008	60	53810
2026-01-28 10:36:13.18	327.76	11.19	-54.6	-63.2	8.6	2.88e-02	0	46	0	1085276160	60	56955
2026-01-28 10:36:14.19	327.88	11.12	-54.7	-63.5	8.5	3.58e-02	0	46	0	1087373312	60	58348
2026-01-28 10:36:15.20	327.99	11.05	-54.9	-63.9	8.2	4.76e-02	0	46	0	1088421888	60	61060
2026-01-28 10:36:16.20	328.11	10.98	-55.2	-64.1	8.0	5.99e-02	0	46	0	1090519040	60	63019
2026-01-28 10:36:17.21	328.22	10.91	-55.3	-64.4	7.9	6.79e-02	0	46	0	1092616192	60	64918
