passes_logs/2026/01/28/R3.2S-Naryan-Mar/R3.2S-Naryan-Mar__20260128_233808_NOAA_21_JPSS-2_rec.log

#Pass ID: 20260128_233808_NOAA 21 (JPSS-2)
#Satellite: NOAA 21 (JPSS-2)
#Configuration: NOAA-21
#almurnet v.1.7.20240730
#Start time: 2026-01-28 23:38:11

#Version: 2.2.20231116
#Station: R3.2S-Naryan-Mar
#Location: 53.008057 lon 67.646978 lat
#TLE: 1 54234U 22150A   26027.77052245  .00000166  00000+0  99439-4 0  9997
#TLE: 2 54234  98.7510 328.5165 0000872 203.6403 156.4733 14.19540252166628

#Time	Az	El	Level	Level2	SNR	BER	BlckErr	Temp	State	Recorded	gain1	gain2
2026-01-28 23:38:11.20	24.61	0.16	-59.1	-73.3	3.3	1.54e+00	0	45	0	0	60	175393
2026-01-28 23:38:12.20	24.61	0.22	-60.6	-75.5	3.5	1.52e+00	0	45	104	0	60	226189
2026-01-28 23:38:13.20	24.60	0.28	-60.7	-75.6	3.5	1.52e+00	0	45	104	0	60	229799
2026-01-28 23:38:14.21	24.59	0.34	-61.0	-75.6	3.5	1.52e+00	0	45	104	0	60	230064
2026-01-28 23:38:15.22	24.59	0.40	-61.2	-75.8	3.5	1.52e+00	0	45	104	0	60	233806
2026-01-28 23:38:16.22	24.58	0.46	-61.2	-75.7	3.5	1.52e+00	0	45	104	0	60	233217
2026-01-28 23:38:17.23	24.58	0.52	-60.9	-75.3	3.5	1.52e+00	0	45	104	0	60	221597
2026-01-28 23:38:18.23	24.57	0.58	-60.6	-75.4	3.5	1.51e+00	0	45	104	0	60	223459
2026-01-28 23:38:19.24	24.56	0.64	-58.7	-75.1	3.7	1.52e+00	0	45	104	0	60	216628
2026-01-28 23:38:20.25	24.56	0.70	-59.1	-74.3	3.6	1.52e+00	0	45	104	0	60	196855
2026-01-28 23:38:21.26	24.55	0.76	-56.0	-72.5	3.7	1.52e+00	0	45	104	0	60	159543
2026-01-28 23:38:22.26	24.55	0.82	-57.6	-72.9	3.6	1.51e+00	0	45	104	0	60	168754
2026-01-28 23:38:23.27	24.54	0.89	-58.6	-74.8	3.7	1.51e+00	0	45	104	0	60	210062
2026-01-28 23:38:24.27	24.53	0.95	-57.9	-74.5	3.5	1.51e+00	0	45	104	0	60	202093
2026-01-28 23:38:25.28	24.53	1.01	-58.2	-74.2	3.5	1.51e+00	0	45	104	0	60	194834
2026-01-28 23:38:26.29	24.52	1.07	-56.9	-73.8	3.6	1.51e+00	0	45	104	0	60	185822
2026-01-28 23:38:27.29	24.51	1.13	-53.3	-70.8	3.8	1.51e+00	0	45	104	0	60	131817
2026-01-28 23:38:28.29	24.51	1.20	-53.3	-70.8	3.8	1.51e+00	0	45	104	0	60	132234
2026-01-28 23:38:29.30	24.50	1.26	-53.2	-70.9	3.8	1.51e+00	0	45	104	0	60	132978
2026-01-28 23:38:30.30	24.49	1.32	-53.3	-70.8	3.8	1.51e+00	0	45	104	0	60	132249
2026-01-28 23:38:31.31	24.49	1.38	-53.4	-70.9	3.8	1.51e+00	0	45	104	0	60	133455
2026-01-28 23:38:32.32	24.48	1.45	-53.2	-71.2	3.8	1.51e+00	0	45	104	0	60	138817
2026-01-28 23:38:33.32	24.47	1.51	-53.2	-71.2	3.8	1.51e+00	0	45	104	0	60	138569
2026-01-28 23:38:34.33	24.47	1.57	-53.1	-70.8	3.8	1.51e+00	0	45	104	0	60	131201
2026-01-28 23:38:35.34	24.46	1.64	-53.4	-71.0	3.8	1.51e+00	0	45	104	0	60	134314
2026-01-28 23:38:36.35	24.45	1.70	-53.5	-71.0	3.8	1.51e+00	0	45	104	0	60	134512
2026-01-28 23:38:37.35	24.45	1.76	-53.5	-70.9	3.8	1.51e+00	0	45	104	0	60	133752
2026-01-28 23:38:38.36	24.44	1.83	-53.4	-70.9	3.8	1.51e+00	0	45	104	0	60	133188
2026-01-28 23:38:39.36	24.43	1.89	-53.5	-71.1	3.8	1.51e+00	0	45	104	0	60	136962
2026-01-28 23:38:40.37	24.43	1.95	-53.4	-71.0	3.8	1.51e+00	0	46	104	0	60	134453
2026-01-28 23:38:41.37	24.42	2.02	-53.4	-71.4	3.8	1.51e+00	0	46	104	0	60	140698
2026-01-28 23:38:42.38	24.41	2.08	-53.3	-70.9	3.7	1.51e+00	0	45	104	0	60	133453
2026-01-28 23:38:43.39	24.40	2.15	-53.3	-71.0	3.8	1.51e+00	0	46	104	0	60	134312
2026-01-28 23:38:44.39	24.40	2.21	-53.2	-70.7	3.7	1.51e+00	0	45	104	0	60	130877
2026-01-28 23:38:45.40	24.39	2.28	-53.3	-70.7	3.8	1.51e+00	0	45	104	0	60	130670
2026-01-28 23:38:46.41	24.38	2.34	-53.4	-71.0	3.8	1.51e+00	0	45	104	0	60	135129
2026-01-28 23:38:47.41	24.37	2.41	-53.2	-71.1	3.7	1.51e+00	0	46	104	0	60	137312
2026-01-28 23:38:48.42	24.37	2.47	-53.4	-70.9	3.8	1.51e+00	0	46	104	0	60	133127
2026-01-28 23:38:49.43	24.36	2.54	-53.3	-71.3	3.8	1.51e+00	0	46	104	0	60	139305
2026-01-28 23:38:50.44	24.35	2.60	-53.3	-71.3	3.8	1.51e+00	0	45	104	0	60	139659
2026-01-28 23:38:51.44	24.34	2.67	-53.3	-70.8	3.8	1.51e+00	0	45	104	0	60	132332
2026-01-28 23:38:52.45	24.34	2.73	-53.4	-70.9	3.8	1.51e+00	0	46	104	0	60	134099
2026-01-28 23:38:53.46	24.33	2.80	-53.4	-70.9	3.8	1.51e+00	0	45	104	0	60	133346
2026-01-28 23:38:54.47	24.32	2.86	-53.4	-70.8	3.8	1.51e+00	0	46	104	0	60	131649
2026-01-28 23:38:55.47	24.31	2.93	-53.4	-70.9	3.8	1.51e+00	0	46	104	0	60	133922
2026-01-28 23:38:56.47	24.30	3.00	-53.3	-70.7	3.8	1.51e+00	0	46	104	0	60	130394
2026-01-28 23:38:57.48	24.30	3.06	-53.3	-70.8	3.7	1.51e+00	0	46	104	0	60	132438
2026-01-28 23:38:58.49	24.29	3.13	-53.3	-71.2	3.7	1.51e+00	0	45	104	0	60	138352
2026-01-28 23:38:59.49	24.28	3.20	-53.3	-71.3	3.8	1.51e+00	0	45	104	0	60	139883
2026-01-28 23:39:00.50	24.27	3.26	-53.6	-70.9	3.8	1.51e+00	0	46	104	0	60	133663
2026-01-28 23:39:01.50	24.26	3.33	-53.5	-70.8	3.8	1.51e+00	0	46	104	0	60	132270
2026-01-28 23:39:02.50	24.26	3.40	-53.5	-70.9	3.8	1.51e+00	0	46	104	0	60	133809
2026-01-28 23:39:03.51	24.25	3.46	-53.6	-71.2	3.7	1.51e+00	0	46	104	0	60	137740
2026-01-28 23:39:04.52	24.24	3.53	-53.4	-70.8	3.7	1.51e+00	0	46	104	0	60	131771
2026-01-28 23:39:05.53	24.23	3.60	-53.4	-71.0	3.8	1.51e+00	0	46	104	0	60	135360
2026-01-28 23:39:06.54	24.22	3.67	-53.6	-71.4	3.7	1.51e+00	0	46	104	0	60	141136
2026-01-28 23:39:07.54	24.21	3.74	-53.3	-71.2	3.8	1.51e+00	0	46	104	0	60	138672
2026-01-28 23:39:08.55	24.21	3.80	-53.3	-70.8	3.8	1.51e+00	0	46	104	0	60	132245
2026-01-28 23:39:09.56	24.20	3.87	-53.4	-70.8	3.8	1.51e+00	0	46	104	0	60	131381
2026-01-28 23:39:10.57	24.19	3.94	-53.4	-70.8	3.8	1.51e+00	0	46	104	0	60	131945
2026-01-28 23:39:11.57	24.18	4.01	-53.3	-71.2	3.7	1.51e+00	0	46	104	0	60	137660
2026-01-28 23:39:12.58	24.17	4.08	-53.3	-70.7	3.8	1.51e+00	0	46	104	0	60	129868
2026-01-28 23:39:13.59	24.16	4.15	-53.3	-70.7	3.8	1.51e+00	0	46	104	0	60	130879
2026-01-28 23:39:14.59	24.15	4.22	-53.2	-70.7	3.8	1.51e+00	0	46	104	0	60	130849
2026-01-28 23:39:15.59	24.14	4.29	-53.4	-70.8	3.7	1.51e+00	0	46	104	0	60	132665
2026-01-28 23:39:16.60	24.13	4.36	-53.2	-71.2	3.8	1.51e+00	0	46	104	0	60	137455
2026-01-28 23:39:17.61	24.12	4.43	-53.2	-70.7	3.8	1.51e+00	0	46	104	0	60	129933
2026-01-28 23:39:18.61	24.12	4.50	-53.3	-70.9	3.8	1.51e+00	0	46	104	0	60	133899
2026-01-28 23:39:19.61	24.11	4.57	-53.3	-70.9	3.7	1.51e+00	0	46	104	0	60	132864
2026-01-28 23:39:20.62	24.10	4.64	-53.3	-70.6	3.8	1.51e+00	0	46	104	0	60	129511
2026-01-28 23:39:21.62	24.09	4.71	-53.3	-70.7	3.7	1.51e+00	0	46	104	0	60	131058
2026-01-28 23:39:22.63	24.08	4.78	-53.3	-70.7	3.8	1.51e+00	0	46	104	0	60	130165
2026-01-28 23:39:23.64	24.07	4.85	-53.3	-71.2	3.8	1.51e+00	0	46	104	0	60	138588
2026-01-28 23:39:24.65	24.06	4.92	-53.3	-71.3	3.8	1.51e+00	0	46	104	0	60	139092
2026-01-28 23:39:25.65	24.05	4.99	-53.3	-70.8	3.7	1.51e+00	0	46	104	0	60	131206
2026-01-28 23:39:26.66	24.04	5.06	-53.3	-70.8	3.8	1.51e+00	0	46	104	0	60	132073
2026-01-28 23:39:27.67	24.03	5.13	-53.4	-71.1	3.8	1.51e+00	0	46	104	0	60	136897
2026-01-28 23:39:28.68	24.02	5.21	-53.3	-71.0	3.8	1.51e+00	0	46	104	0	60	135217
2026-01-28 23:39:29.68	24.01	5.28	-53.2	-70.7	3.8	1.51e+00	0	46	104	0	60	129722
2026-01-28 23:39:30.68	24.00	5.35	-53.3	-70.6	3.8	1.51e+00	0	46	104	0	60	128772
2026-01-28 23:39:31.69	23.99	5.42	-53.2	-70.7	3.8	1.51e+00	0	46	104	0	60	130821
2026-01-28 23:39:32.69	23.98	5.50	-53.2	-71.1	3.8	1.51e+00	0	46	104	0	60	136740
2026-01-28 23:39:33.70	23.97	5.57	-53.3	-71.1	3.7	1.51e+00	0	46	104	0	60	136478
2026-01-28 23:39:34.70	23.96	5.64	-53.3	-70.6	3.8	1.51e+00	0	46	104	0	60	129421
2026-01-28 23:39:35.71	23.95	5.71	-53.2	-70.9	3.8	1.51e+00	0	46	104	0	60	134037
2026-01-28 23:39:36.71	23.94	5.79	-53.3	-70.6	3.7	1.51e+00	0	46	104	0	60	129589
2026-01-28 23:39:37.72	23.93	5.86	-53.3	-70.6	3.8	1.51e+00	0	46	104	0	60	128346
2026-01-28 23:39:38.73	23.92	5.94	-53.2	-70.5	3.7	1.51e+00	0	46	104	0	60	127101
2026-01-28 23:39:39.73	23.91	6.01	-53.2	-70.5	3.8	1.51e+00	0	46	104	0	60	128054
2026-01-28 23:39:40.74	23.89	6.08	-53.2	-70.6	3.8	1.50e+00	0	46	104	0	60	128377
2026-01-28 23:39:41.75	23.88	6.16	-58.6	-72.9	3.5	1.51e+00	0	46	104	0	60	167371
2026-01-28 23:39:42.76	23.87	6.23	-49.8	-67.0	4.3	1.51e+00	0	46	104	0	60	85378
2026-01-28 23:39:43.76	23.86	6.31	-54.1	-71.5	3.9	1.50e+00	0	46	104	0	60	142300
2026-01-28 23:39:44.77	23.85	6.38	-52.7	-69.6	3.6	1.50e+00	0	46	104	0	60	114675
2026-01-28 23:39:45.77	23.84	6.46	-53.8	-71.1	3.7	1.51e+00	0	46	104	0	60	137056
2026-01-28 23:39:46.77	23.83	6.53	-53.8	-71.0	3.7	1.51e+00	0	46	104	0	60	134753
2026-01-28 23:39:47.78	23.82	6.61	-53.9	-71.0	3.8	1.51e+00	0	46	104	0	60	134507
2026-01-28 23:39:48.78	23.81	6.68	-57.5	-71.9	3.6	1.50e+00	0	46	104	0	60	150134
2026-01-28 23:39:49.79	23.79	6.76	-57.0	-72.7	3.6	1.52e+00	0	46	104	0	60	164511
2026-01-28 23:39:50.79	23.78	6.84	-56.1	-72.0	3.7	1.51e+00	0	46	104	0	60	152255
2026-01-28 23:39:51.78	23.77	6.91	-54.1	-70.9	3.8	1.50e+00	0	46	104	0	60	133396
2026-01-28 23:39:52.78	23.76	6.99	-50.1	-67.1	4.3	1.51e+00	0	46	104	0	60	85803
2026-01-28 23:39:53.77	23.75	7.06	-51.7	-70.0	3.9	1.50e+00	0	46	104	0	60	120273
2026-01-28 23:39:54.78	23.74	7.14	-51.6	-68.4	4.1	1.50e+00	0	46	104	0	60	100383
2026-01-28 23:39:55.79	23.72	7.22	-50.8	-68.9	4.0	1.50e+00	0	46	104	0	60	105406
2026-01-28 23:39:56.80	23.71	7.30	-52.7	-70.0	4.0	1.51e+00	0	46	104	0	60	120886
2026-01-28 23:39:57.80	23.70	7.38	-55.1	-73.2	3.5	1.51e+00	0	46	104	0	60	174859
2026-01-28 23:39:58.81	23.69	7.45	-58.3	-72.3	3.6	1.51e+00	0	46	104	0	60	156590
2026-01-28 23:39:59.82	23.67	7.53	-53.0	-71.0	3.8	1.51e+00	0	46	104	0	60	135272
2026-01-28 23:40:00.83	23.66	7.61	-53.2	-68.8	4.0	1.51e+00	0	46	104	0	60	105119
2026-01-28 23:40:01.83	23.65	7.69	-53.0	-68.5	4.0	1.51e+00	0	46	104	0	60	100776
2026-01-28 23:40:02.83	23.64	7.77	-52.8	-68.5	4.1	1.51e+00	0	46	104	0	60	101278
2026-01-28 23:40:03.84	23.62	7.85	-53.4	-68.8	4.0	1.51e+00	0	46	104	0	60	104487
2026-01-28 23:40:04.84	23.61	7.93	-54.8	-70.8	3.7	1.51e+00	0	46	104	0	60	132107
2026-01-28 23:40:05.85	23.60	8.01	-55.6	-72.4	3.6	1.51e+00	0	46	104	0	60	158443
2026-01-28 23:40:06.85	23.59	8.09	-55.8	-71.6	3.6	1.51e+00	0	46	104	0	60	144068
2026-01-28 23:40:07.86	23.57	8.17	-57.5	-74.0	3.5	1.51e+00	0	46	104	0	60	191631
2026-01-28 23:40:08.86	23.56	8.25	-53.4	-69.2	3.9	1.51e+00	0	46	104	0	60	109516
2026-01-28 23:40:09.87	23.55	8.33	-54.2	-69.4	3.9	1.51e+00	0	46	104	0	60	112342
2026-01-28 23:40:10.87	23.53	8.41	-52.9	-69.2	3.9	1.51e+00	0	46	104	0	60	110240
2026-01-28 23:40:11.88	23.52	8.49	-52.8	-69.4	3.9	1.51e+00	0	46	104	0	60	111894
2026-01-28 23:40:12.89	23.51	8.58	-51.4	-70.5	4.0	1.51e+00	0	46	104	0	60	127130
2026-01-28 23:40:13.90	23.49	8.66	-55.6	-71.1	3.9	1.51e+00	0	46	104	0	60	135818
2026-01-28 23:40:14.91	23.48	8.74	-56.6	-72.3	3.5	1.51e+00	0	46	104	0	60	157111
2026-01-28 23:40:15.92	23.46	8.82	-54.7	-72.8	3.6	1.51e+00	0	46	104	0	60	166234
2026-01-28 23:40:16.92	23.45	8.91	-58.6	-73.7	3.5	1.51e+00	0	46	104	0	60	183325
2026-01-28 23:40:17.93	23.44	8.99	-56.8	-73.4	3.5	1.52e+00	0	46	104	0	60	178589
2026-01-28 23:40:18.94	23.42	9.07	-56.0	-71.9	3.7	1.51e+00	0	46	104	0	60	150508
2026-01-28 23:40:19.94	23.41	9.16	-55.5	-71.1	3.9	1.51e+00	0	46	104	0	60	135833
2026-01-28 23:40:20.95	23.39	9.24	-56.8	-72.2	3.7	1.51e+00	0	46	104	0	60	155412
2026-01-28 23:40:21.95	23.38	9.32	-55.4	-73.3	3.5	1.51e+00	0	46	104	0	60	176892
2026-01-28 23:40:22.96	23.36	9.41	-56.0	-73.4	3.5	1.52e+00	0	46	104	0	60	177808
2026-01-28 23:40:23.96	23.35	9.49	-55.3	-71.1	3.8	1.51e+00	0	46	104	0	60	135870
2026-01-28 23:40:24.97	23.33	9.58	-55.4	-71.0	3.8	1.51e+00	0	46	104	0	60	134775
2026-01-28 23:40:25.98	23.32	9.66	-57.6	-71.8	3.7	1.51e+00	0	46	104	0	60	148351
2026-01-28 23:40:26.98	23.30	9.75	-54.9	-71.0	3.8	1.51e+00	0	46	104	0	60	135637
2026-01-28 23:40:27.99	23.29	9.84	-54.1	-71.0	3.8	1.51e+00	0	46	104	0	60	134829
2026-01-28 23:40:29.00	23.27	9.92	-55.7	-72.3	3.6	1.51e+00	0	46	104	0	60	156612
2026-01-28 23:40:30.00	23.26	10.01	-57.0	-74.0	3.5	1.52e+00	0	46	104	0	60	189639
2026-01-28 23:40:31.01	23.24	10.10	-57.8	-72.0	3.6	1.51e+00	0	46	104	0	60	151371
2026-01-28 23:40:32.02	23.23	10.18	-53.6	-72.7	3.7	1.51e+00	0	46	104	0	60	164768
2026-01-28 23:40:33.03	23.21	10.27	-57.1	-73.5	3.5	1.51e+00	0	46	104	0	60	180740
2026-01-28 23:40:34.04	23.19	10.36	-56.9	-71.2	3.7	1.51e+00	0	46	104	0	60	137845
2026-01-28 23:40:35.04	23.18	10.45	-55.8	-70.9	3.7	1.51e+00	0	46	104	0	60	133547
2026-01-28 23:40:36.05	23.16	10.54	-54.7	-70.7	3.8	1.51e+00	0	46	104	0	60	131143
2026-01-28 23:40:37.06	23.15	10.62	-52.0	-70.8	3.8	1.51e+00	0	46	104	0	60	131760
2026-01-28 23:40:38.07	23.13	10.71	-51.3	-70.3	4.1	1.51e+00	0	46	104	0	60	125234
2026-01-28 23:40:39.07	23.11	10.80	-53.2	-72.4	3.6	1.51e+00	0	46	104	0	60	158385
2026-01-28 23:40:40.08	23.10	10.89	-52.0	-71.7	3.8	1.51e+00	0	46	104	0	60	146010
2026-01-28 23:40:41.09	23.08	10.98	-48.1	-69.7	4.0	1.50e+00	0	46	104	0	60	116081
2026-01-28 23:40:42.09	23.06	11.07	-47.4	-69.1	4.1	1.50e+00	0	46	104	0	60	108513
2026-01-28 23:40:43.10	23.04	11.16	-47.7	-71.0	4.0	1.50e+00	0	46	104	0	60	134339
2026-01-28 23:40:44.11	23.03	11.26	-48.7	-72.5	3.7	1.51e+00	0	46	104	0	60	160623
2026-01-28 23:40:45.12	23.01	11.35	-48.4	-68.3	4.4	1.49e+00	0	46	104	0	60	98645
2026-01-28 23:40:46.13	22.99	11.44	-51.4	-71.4	3.9	1.51e+00	0	46	104	0	60	141583
2026-01-28 23:40:47.13	22.98	11.53	-49.2	-71.4	3.8	1.51e+00	0	46	104	0	60	141714
2026-01-28 23:40:48.14	22.96	11.62	-45.3	-66.6	4.2	1.49e+00	0	46	104	0	60	81591
2026-01-28 23:40:49.15	22.94	11.72	-55.3	-73.0	3.6	1.52e+00	0	46	104	0	60	170395
2026-01-28 23:40:50.16	22.92	11.81	-45.7	-67.6	4.4	1.50e+00	0	46	104	0	60	90769
2026-01-28 23:40:51.16	22.90	11.90	-44.7	-64.9	4.5	1.49e+00	0	46	104	0	60	66797
2026-01-28 23:40:52.17	22.88	12.00	-44.2	-65.3	4.3	1.48e+00	0	47	104	0	60	69651
2026-01-28 23:40:53.17	22.87	12.09	-44.0	-64.6	4.6	1.48e+00	0	46	104	0	60	64865
2026-01-28 23:40:54.17	22.85	12.18	-43.8	-64.1	4.6	1.48e+00	0	46	104	0	60	61312
2026-01-28 23:40:55.18	22.83	12.28	-44.0	-63.4	4.6	1.48e+00	0	46	104	0	60	55990
2026-01-28 23:40:56.18	22.81	12.37	-44.4	-63.3	4.6	1.48e+00	0	46	104	0	60	55923
2026-01-28 23:40:57.18	22.79	12.47	-44.9	-63.7	4.7	1.48e+00	0	46	104	0	60	58431
2026-01-28 23:40:58.19	22.77	12.57	-49.2	-67.6	4.4	1.49e+00	0	46	104	0	60	91228
2026-01-28 23:40:59.19	22.75	12.66	-47.1	-66.7	4.3	1.49e+00	0	46	104	0	60	81961
2026-01-28 23:41:00.20	22.73	12.76	-44.0	-62.7	4.5	1.49e+00	0	46	104	0	60	52155
2026-01-28 23:41:01.20	22.71	12.85	-48.2	-68.0	4.3	1.50e+00	0	46	104	0	60	95825
2026-01-28 23:41:02.21	22.69	12.95	-48.7	-71.9	3.8	1.51e+00	0	46	104	0	60	149540
2026-01-28 23:41:03.21	22.67	13.05	-44.2	-64.6	4.4	1.50e+00	0	46	104	0	60	64407
2026-01-28 23:41:04.22	22.65	13.15	-43.5	-63.4	4.6	1.49e+00	0	46	104	0	60	56465
2026-01-28 23:41:05.23	22.63	13.25	-43.3	-63.1	4.6	1.49e+00	0	46	104	0	60	54059
2026-01-28 23:41:06.24	22.61	13.35	-52.5	-69.1	4.1	1.50e+00	0	46	104	0	60	108139
2026-01-28 23:41:07.25	22.59	13.45	-55.4	-71.5	3.7	1.51e+00	0	46	104	0	60	143284
2026-01-28 23:41:08.25	22.57	13.55	-45.6	-67.1	4.4	1.49e+00	0	46	104	0	60	85824
2026-01-28 23:41:09.26	22.55	13.65	-45.3	-66.7	4.4	1.49e+00	0	46	104	0	60	81907
2026-01-28 23:41:10.27	22.53	13.75	-44.1	-62.3	4.6	1.49e+00	0	46	104	0	60	49495
2026-01-28 23:41:11.27	22.51	13.85	-45.1	-62.9	4.4	1.49e+00	0	46	104	0	60	53330
2026-01-28 23:41:12.28	22.49	13.95	-45.8	-63.5	4.4	1.49e+00	0	47	104	0	60	56659
2026-01-28 23:41:13.28	22.46	14.05	-47.1	-64.6	4.3	1.50e+00	0	47	104	0	60	64743
2026-01-28 23:41:14.29	22.44	14.15	-48.1	-66.8	4.1	1.49e+00	0	46	104	0	60	82815
2026-01-28 23:41:15.29	22.42	14.26	-48.5	-68.1	4.3	1.50e+00	0	46	104	0	60	96277
2026-01-28 23:41:16.30	22.40	14.36	-48.5	-66.6	4.2	1.50e+00	0	46	104	0	60	81072
2026-01-28 23:41:17.31	22.38	14.46	-48.5	-68.2	4.1	1.50e+00	0	46	104	0	60	97954
2026-01-28 23:41:18.32	22.35	14.57	-55.6	-74.5	3.6	1.51e+00	0	46	104	0	60	200960
2026-01-28 23:41:19.32	22.33	14.67	-46.2	-62.8	4.6	1.49e+00	0	46	104	0	60	52727
2026-01-28 23:41:20.33	22.31	14.78	-48.9	-65.1	4.4	1.50e+00	0	46	104	0	60	68643
2026-01-28 23:41:21.34	22.28	14.88	-48.2	-68.1	4.2	1.50e+00	0	46	104	0	60	96758
2026-01-28 23:41:22.34	22.26	14.99	-51.7	-67.0	3.9	1.50e+00	0	46	104	0	60	85349
2026-01-28 23:41:23.35	22.24	15.10	-54.8	-70.5	3.6	1.51e+00	0	46	104	0	60	127967
2026-01-28 23:41:24.35	22.21	15.20	-56.9	-71.8	3.6	1.51e+00	0	46	104	0	60	148549
2026-01-28 23:41:25.36	22.19	15.31	-58.1	-72.5	3.5	1.50e+00	0	46	104	0	60	160522
2026-01-28 23:41:26.37	22.17	15.42	-57.0	-73.1	3.6	1.52e+00	0	47	104	0	60	171566
2026-01-28 23:41:27.38	22.14	15.53	-56.1	-71.1	3.8	1.51e+00	0	46	104	0	60	136267
2026-01-28 23:41:28.39	22.12	15.63	-57.4	-73.1	3.6	1.51e+00	0	47	104	0	60	172698
2026-01-28 23:41:29.39	22.09	15.74	-56.7	-74.2	3.5	1.52e+00	0	46	104	0	60	194802
2026-01-28 23:41:30.39	22.07	15.85	-55.8	-73.4	3.5	1.51e+00	0	47	104	0	60	177965
2026-01-28 23:41:31.40	22.04	15.96	-53.7	-73.9	3.5	1.52e+00	0	46	104	0	60	188220
2026-01-28 23:41:32.40	22.02	16.07	-50.7	-70.7	3.9	1.51e+00	0	47	104	0	60	131066
2026-01-28 23:41:33.41	21.99	16.18	-57.2	-74.2	3.5	1.51e+00	0	46	104	0	60	196115
2026-01-28 23:41:34.42	21.97	16.30	-57.2	-72.4	3.5	1.51e+00	0	46	104	0	60	157780
2026-01-28 23:41:35.43	21.94	16.41	-56.0	-73.0	3.5	1.51e+00	0	46	104	0	60	169740
2026-01-28 23:41:36.43	21.91	16.52	-58.1	-74.1	3.6	1.51e+00	0	46	104	0	60	193327
2026-01-28 23:41:37.44	21.89	16.63	-52.0	-68.8	4.1	1.50e+00	0	46	104	0	60	105086
2026-01-28 23:41:38.44	21.86	16.75	-54.1	-70.1	4.0	1.50e+00	0	46	104	0	60	121007
2026-01-28 23:41:39.45	21.83	16.86	-55.5	-70.3	3.9	1.51e+00	0	46	104	0	60	123898
2026-01-28 23:41:40.46	21.81	16.98	-57.0	-72.7	3.5	1.51e+00	0	47	104	0	60	163443
2026-01-28 23:41:41.46	21.78	17.09	-54.7	-73.1	3.7	1.51e+00	0	47	104	0	60	172353
2026-01-28 23:41:42.47	21.75	17.21	-54.5	-71.7	3.7	1.51e+00	0	46	104	0	60	146015
2026-01-28 23:41:43.48	21.72	17.32	-59.1	-73.7	3.5	1.51e+00	0	47	104	0	60	184869
2026-01-28 23:41:44.49	21.69	17.44	-59.7	-74.1	3.5	1.51e+00	0	47	104	0	60	192787
2026-01-28 23:41:45.49	21.67	17.56	-55.9	-73.5	3.5	1.52e+00	0	47	104	0	60	179899
2026-01-28 23:41:46.50	21.64	17.68	-55.4	-72.7	3.5	1.51e+00	0	47	104	0	60	163762
2026-01-28 23:41:47.51	21.61	17.80	-55.7	-72.7	3.5	1.52e+00	0	47	104	0	60	164790
2026-01-28 23:41:48.52	21.58	17.92	-54.3	-71.9	3.6	1.51e+00	0	47	104	0	60	149790
2026-01-28 23:41:49.52	21.55	18.03	-53.9	-72.6	3.6	1.51e+00	0	46	104	0	60	162580
2026-01-28 23:41:50.53	21.52	18.16	-56.2	-73.4	3.6	1.51e+00	0	46	104	0	60	177621
2026-01-28 23:41:51.53	21.49	18.28	-58.1	-74.2	3.5	1.52e+00	0	46	104	0	60	195860
2026-01-28 23:41:52.54	21.46	18.40	-56.9	-74.0	3.5	1.51e+00	0	46	104	0	60	191559
2026-01-28 23:41:53.55	21.43	18.52	-54.6	-72.4	3.7	1.51e+00	0	46	104	0	60	157842
2026-01-28 23:41:54.56	21.40	18.64	-53.5	-71.8	3.7	1.51e+00	0	47	104	0	60	147615
2026-01-28 23:41:55.57	21.37	18.77	-53.5	-71.9	3.7	1.51e+00	0	47	104	0	60	149072
2026-01-28 23:41:56.57	21.33	18.89	-56.1	-73.6	3.5	1.51e+00	0	47	104	0	60	182841
2026-01-28 23:41:57.58	21.30	19.01	-54.3	-72.6	3.7	1.51e+00	0	47	104	0	60	162821
2026-01-28 23:41:58.59	21.27	19.14	-53.6	-72.3	3.7	1.51e+00	0	47	104	0	60	156330
2026-01-28 23:41:59.60	21.24	19.27	-58.1	-72.9	3.6	1.51e+00	0	47	104	0	60	168298
2026-01-28 23:42:00.61	21.21	19.39	-54.8	-72.1	3.8	1.51e+00	0	47	104	0	60	153888
2026-01-28 23:42:01.61	21.17	19.52	-53.1	-72.9	3.6	1.51e+00	0	47	104	0	60	168054
2026-01-28 23:42:02.62	21.14	19.65	-55.0	-72.2	3.8	1.51e+00	0	46	104	0	60	154745
2026-01-28 23:42:03.62	21.11	19.77	-55.6	-72.4	3.7	1.51e+00	0	46	104	0	60	158101
2026-01-28 23:42:04.62	21.07	19.90	-59.0	-74.6	3.6	1.52e+00	0	47	104	0	60	204248
2026-01-28 23:42:05.63	21.04	20.03	-58.7	-73.4	3.6	1.51e+00	0	47	104	0	60	176972
2026-01-28 23:42:06.64	21.00	20.16	-58.8	-74.1	3.5	1.51e+00	0	47	104	0	60	192855
2026-01-28 23:42:07.64	20.97	20.29	-55.4	-71.1	4.0	1.51e+00	0	47	104	0	60	135798
2026-01-28 23:42:08.65	20.93	20.43	-56.9	-71.8	3.7	1.51e+00	0	47	104	0	60	148030
2026-01-28 23:42:09.66	20.90	20.56	-57.0	-71.8	3.6	1.51e+00	0	46	104	0	60	147370
2026-01-28 23:42:10.67	20.86	20.69	-57.3	-71.1	3.7	1.51e+00	0	46	104	0	60	136184
2026-01-28 23:42:11.68	20.83	20.83	-56.6	-71.2	3.7	1.51e+00	0	47	104	0	60	137922
2026-01-28 23:42:12.69	20.79	20.96	-57.6	-72.1	3.7	1.51e+00	0	46	104	0	60	153682
2026-01-28 23:42:13.69	20.75	21.09	-54.1	-70.0	4.0	1.51e+00	0	47	104	0	60	120275
2026-01-28 23:42:14.70	20.71	21.23	-54.9	-70.2	3.8	1.51e+00	0	47	104	0	60	122721
2026-01-28 23:42:15.71	20.68	21.37	-56.9	-72.6	3.6	1.51e+00	0	47	104	0	60	162206
2026-01-28 23:42:16.71	20.64	21.50	-55.2	-69.7	3.8	1.51e+00	0	47	104	0	60	116491
2026-01-28 23:42:17.72	20.60	21.64	-57.5	-71.5	3.7	1.51e+00	0	47	104	0	60	142590
2026-01-28 23:42:18.72	20.56	21.78	-55.1	-69.9	3.8	1.51e+00	0	47	104	0	60	118893
2026-01-28 23:42:19.73	20.52	21.92	-55.0	-70.2	3.9	1.51e+00	0	47	104	0	60	123591
2026-01-28 23:42:20.72	20.48	22.06	-55.7	-73.0	3.7	1.51e+00	0	47	104	0	60	169329
2026-01-28 23:42:21.73	20.44	22.20	-55.4	-71.1	3.8	1.51e+00	0	46	104	0	60	136304
2026-01-28 23:42:22.73	20.40	22.34	-55.9	-70.4	3.8	1.51e+00	0	47	104	0	60	126515
2026-01-28 23:42:23.74	20.36	22.48	-54.3	-70.0	3.8	1.51e+00	0	47	104	0	60	120270
2026-01-28 23:42:24.75	20.32	22.63	-57.2	-70.9	3.6	1.51e+00	0	47	104	0	60	132676
2026-01-28 23:42:25.75	20.28	22.77	-55.6	-70.3	3.9	1.51e+00	0	47	104	0	60	124705
2026-01-28 23:42:26.76	20.24	22.92	-55.0	-70.4	3.9	1.51e+00	0	47	104	0	60	125649
2026-01-28 23:42:27.77	20.20	23.06	-55.7	-71.4	3.7	1.51e+00	0	47	104	0	60	141944
2026-01-28 23:42:28.78	20.15	23.21	-57.8	-73.6	3.6	1.51e+00	0	47	104	0	60	182626
2026-01-28 23:42:29.79	20.11	23.36	-54.1	-70.8	3.8	1.51e+00	0	47	104	0	60	131835
2026-01-28 23:42:30.80	20.07	23.51	-56.3	-71.8	3.9	1.51e+00	0	47	104	0	60	147993
2026-01-28 23:42:31.80	20.02	23.65	-59.0	-73.6	3.5	1.51e+00	0	47	104	0	60	182538
2026-01-28 23:42:32.81	19.98	23.80	-51.8	-69.2	4.0	1.51e+00	0	47	104	0	60	109130
2026-01-28 23:42:33.82	19.93	23.96	-51.5	-68.8	4.0	1.51e+00	0	47	104	0	60	104939
2026-01-28 23:42:34.82	19.89	24.11	-55.3	-71.2	3.6	1.51e+00	0	47	104	0	60	138213
2026-01-28 23:42:35.83	19.84	24.26	-57.8	-72.4	3.5	1.51e+00	0	47	104	0	60	157690
2026-01-28 23:42:36.84	19.79	24.41	-57.6	-69.6	3.6	1.51e+00	0	47	104	0	60	115448
2026-01-28 23:42:37.84	19.75	24.57	-56.2	-72.0	3.7	1.51e+00	0	47	104	0	60	150684
2026-01-28 23:42:38.85	19.70	24.72	-53.9	-71.5	3.8	1.51e+00	0	47	104	0	60	142911
2026-01-28 23:42:39.85	19.65	24.88	-59.3	-74.2	3.5	1.51e+00	0	46	104	0	60	195659
2026-01-28 23:42:40.86	19.60	25.03	-56.6	-71.7	3.6	1.51e+00	0	47	104	0	60	145629
2026-01-28 23:42:41.86	19.55	25.19	-56.9	-71.3	3.7	1.51e+00	0	46	104	0	60	139978
2026-01-28 23:42:42.87	19.50	25.35	-59.0	-72.4	3.6	1.51e+00	0	47	104	0	60	158035
2026-01-28 23:42:43.88	19.45	25.51	-59.1	-72.6	3.6	1.51e+00	0	47	104	0	60	163031
2026-01-28 23:42:44.88	19.40	25.67	-59.9	-73.9	3.5	1.51e+00	0	47	104	0	60	188025
2026-01-28 23:42:45.89	19.35	25.83	-58.1	-74.6	3.5	1.52e+00	0	47	104	0	60	204293
2026-01-28 23:42:46.90	19.30	25.99	-57.7	-73.3	3.5	1.51e+00	0	47	104	0	60	175402
2026-01-28 23:42:47.91	19.25	26.16	-55.4	-70.8	3.9	1.51e+00	0	46	104	0	60	132105
2026-01-28 23:42:48.91	19.19	26.32	-55.1	-71.0	3.7	1.51e+00	0	46	104	0	60	135180
2026-01-28 23:42:49.92	19.14	26.49	-55.0	-70.7	3.8	1.51e+00	0	46	104	0	60	129984
2026-01-28 23:42:50.92	19.09	26.65	-57.3	-71.5	3.6	1.51e+00	0	47	104	0	60	142706
2026-01-28 23:42:51.92	19.03	26.82	-59.5	-72.7	3.6	1.51e+00	0	47	104	0	60	163702
2026-01-28 23:42:52.93	18.98	26.99	-54.8	-74.1	3.6	1.51e+00	0	47	104	0	60	193073
2026-01-28 23:42:53.93	18.92	27.16	-53.7	-72.3	3.7	1.51e+00	0	47	104	0	60	157524
2026-01-28 23:42:54.93	18.86	27.33	-59.8	-74.4	3.5	1.52e+00	0	47	104	0	60	199560
2026-01-28 23:42:55.94	18.81	27.50	-57.7	-74.5	3.5	1.52e+00	0	47	104	0	60	202305
2026-01-28 23:42:56.95	18.75	27.67	-56.2	-72.0	3.8	1.51e+00	0	47	104	0	60	151466
2026-01-28 23:42:57.96	18.69	27.84	-55.6	-71.5	3.8	1.51e+00	0	46	104	0	60	142820
2026-01-28 23:42:58.97	18.63	28.02	-58.3	-73.1	3.6	1.51e+00	0	47	104	0	60	172481
2026-01-28 23:42:59.97	18.57	28.19	-59.4	-74.1	3.6	1.52e+00	0	47	104	0	60	192156
2026-01-28 23:43:00.98	18.51	28.37	-58.6	-74.3	3.5	1.51e+00	0	47	104	0	60	197574
2026-01-28 23:43:01.99	18.45	28.55	-53.3	-71.7	3.8	1.51e+00	0	47	104	0	60	145768
2026-01-28 23:43:03.00	18.38	28.73	-58.7	-74.0	3.5	1.52e+00	0	47	104	0	60	190250
2026-01-28 23:43:04.01	18.32	28.91	-57.5	-73.7	3.5	1.52e+00	0	47	104	0	60	185259
2026-01-28 23:43:05.01	18.26	29.09	-58.2	-72.4	3.6	1.51e+00	0	47	104	0	60	159423
2026-01-28 23:43:06.02	18.19	29.27	-58.1	-72.4	3.6	1.51e+00	0	47	104	0	60	158544
2026-01-28 23:43:07.03	18.13	29.46	-60.1	-73.9	3.5	1.51e+00	0	47	104	0	60	187497
2026-01-28 23:43:08.04	18.06	29.64	-60.2	-74.1	3.5	1.51e+00	0	47	104	0	60	193570
2026-01-28 23:43:09.05	17.99	29.83	-60.2	-74.7	3.5	1.52e+00	0	47	104	0	60	207533
2026-01-28 23:43:10.05	17.93	30.01	-58.4	-73.9	3.6	1.51e+00	0	47	104	0	60	187478
2026-01-28 23:43:11.06	17.86	30.20	-60.6	-74.7	3.5	1.52e+00	0	47	104	0	60	206962
2026-01-28 23:43:12.07	17.79	30.39	-60.3	-74.6	3.5	1.52e+00	0	47	104	0	60	203824
2026-01-28 23:43:13.07	17.72	30.58	-55.3	-71.5	3.8	1.51e+00	0	47	104	0	60	142648
2026-01-28 23:43:14.08	17.65	30.77	-54.8	-71.1	3.9	1.51e+00	0	47	104	0	60	137286
2026-01-28 23:43:15.09	17.57	30.97	-53.1	-70.0	4.1	1.50e+00	0	47	104	0	60	120688
2026-01-28 23:43:16.09	17.50	31.16	-52.7	-69.8	4.0	1.50e+00	0	47	104	0	60	117561
2026-01-28 23:43:17.10	17.43	31.36	-52.2	-69.9	3.9	1.50e+00	0	47	104	0	60	119361
2026-01-28 23:43:18.11	17.35	31.55	-56.2	-72.2	3.6	1.51e+00	0	47	104	0	60	154098
2026-01-28 23:43:19.12	17.27	31.75	-51.1	-70.1	4.0	1.51e+00	0	47	104	0	60	121277
2026-01-28 23:43:20.12	17.20	31.95	-54.8	-72.4	3.8	1.51e+00	0	47	104	0	60	158285
2026-01-28 23:43:21.13	17.12	32.15	-53.4	-71.4	3.8	1.50e+00	0	47	104	0	60	141675
2026-01-28 23:43:22.14	17.04	32.36	-52.5	-70.2	3.9	1.51e+00	0	47	104	0	60	123591
2026-01-28 23:43:23.15	16.96	32.56	-54.6	-71.8	3.7	1.51e+00	0	46	104	0	60	147169
2026-01-28 23:43:24.15	16.88	32.76	-57.6	-73.8	3.6	1.51e+00	0	47	104	0	60	185635
2026-01-28 23:43:25.16	16.80	32.97	-60.5	-74.6	3.5	1.52e+00	0	47	104	0	60	204173
2026-01-28 23:43:26.17	16.71	33.18	-50.6	-69.6	4.1	1.50e+00	0	47	104	0	60	115208
2026-01-28 23:43:27.18	16.63	33.39	-60.3	-74.5	3.5	1.52e+00	0	47	104	0	60	201509
2026-01-28 23:43:28.19	16.54	33.60	-54.2	-72.0	3.7	1.51e+00	0	47	104	0	60	151324
2026-01-28 23:43:29.20	16.46	33.81	-52.2	-70.3	3.9	1.51e+00	0	47	104	0	60	125083
2026-01-28 23:43:30.20	16.37	34.02	-51.4	-69.3	3.8	1.51e+00	0	47	104	0	60	110465
2026-01-28 23:43:31.21	16.28	34.23	-56.1	-72.7	3.6	1.51e+00	0	47	104	0	60	164144
2026-01-28 23:43:32.21	16.19	34.45	-58.1	-73.9	3.5	1.51e+00	0	47	104	0	60	187617
2026-01-28 23:43:33.22	16.10	34.67	-60.3	-74.8	3.5	1.51e+00	0	47	104	0	60	209190
2026-01-28 23:43:34.23	16.01	34.88	-60.3	-74.7	3.5	1.52e+00	0	47	104	0	60	207627
2026-01-28 23:43:35.24	15.91	35.11	-59.7	-74.6	3.5	1.52e+00	0	47	104	0	60	204071
2026-01-28 23:43:36.24	15.82	35.32	-60.3	-74.6	3.5	1.52e+00	0	47	104	0	60	204778
2026-01-28 23:43:37.25	15.72	35.55	-60.4	-74.5	3.5	1.52e+00	0	47	104	0	60	202833
2026-01-28 23:43:38.26	15.62	35.77	-60.5	-74.7	3.5	1.52e+00	0	47	104	0	60	206423
2026-01-28 23:43:39.26	15.52	36.00	-59.5	-74.1	3.5	1.51e+00	0	47	104	0	60	193783
2026-01-28 23:43:40.27	15.42	36.22	-60.4	-74.8	3.5	1.52e+00	0	47	104	0	60	209330
2026-01-28 23:43:41.28	15.32	36.45	-60.0	-74.4	3.5	1.52e+00	0	47	104	0	60	199207
2026-01-28 23:43:42.28	15.22	36.68	-59.6	-74.0	3.6	1.52e+00	0	47	104	0	60	190024
2026-01-28 23:43:43.29	15.11	36.92	-59.6	-73.7	3.5	1.52e+00	0	47	104	0	60	185147
2026-01-28 23:43:44.29	15.00	37.15	-59.5	-73.7	3.5	1.52e+00	0	47	104	0	60	185235
2026-01-28 23:43:45.29	14.90	37.38	-59.6	-74.4	3.5	1.51e+00	0	47	104	0	60	199194
2026-01-28 23:43:46.30	14.78	37.62	-59.6	-74.3	3.5	1.52e+00	0	47	104	0	60	197201
2026-01-28 23:43:47.31	14.67	37.86	-60.2	-74.3	3.5	1.52e+00	0	47	104	0	60	196465
2026-01-28 23:43:48.32	14.56	38.10	-59.3	-73.9	3.5	1.52e+00	0	47	104	0	60	188585
2026-01-28 23:43:49.32	14.44	38.33	-59.9	-74.3	3.5	1.51e+00	0	46	104	0	60	196426
2026-01-28 23:43:50.33	14.33	38.58	-59.9	-74.3	3.5	1.52e+00	0	46	104	0	60	196874
2026-01-28 23:43:51.33	14.21	38.82	-60.4	-74.7	3.5	1.52e+00	0	47	104	0	60	206834
2026-01-28 23:43:52.34	14.09	39.07	-59.9	-74.6	3.5	1.52e+00	0	47	104	0	60	203746
2026-01-28 23:43:53.35	13.96	39.32	-59.1	-73.8	3.5	1.52e+00	0	47	104	0	60	186847
2026-01-28 23:43:54.35	13.84	39.56	-59.3	-73.8	3.6	1.51e+00	0	47	104	0	60	186123
2026-01-28 23:43:55.35	13.71	39.81	-60.2	-74.7	3.5	1.52e+00	0	47	104	0	60	206404
2026-01-28 23:43:56.36	13.58	40.06	-59.5	-74.9	3.5	1.52e+00	0	47	104	0	60	211053
2026-01-28 23:43:57.36	13.45	40.32	-58.6	-73.6	3.6	1.51e+00	0	47	104	0	60	181960
2026-01-28 23:43:58.36	13.32	40.57	-59.0	-73.4	3.6	1.51e+00	0	47	104	0	60	177567
2026-01-28 23:43:59.36	13.19	40.83	-60.1	-74.1	3.6	1.52e+00	0	47	104	0	60	193324
2026-01-28 23:44:00.37	13.05	41.09	-60.1	-74.6	3.5	1.52e+00	0	47	104	0	60	204102
2026-01-28 23:44:01.38	12.91	41.35	-57.9	-74.1	3.6	1.51e+00	0	47	104	0	60	193516
2026-01-28 23:44:02.39	12.77	41.61	-60.1	-74.6	3.5	1.52e+00	0	47	104	0	60	205177
2026-01-28 23:44:03.39	12.62	41.87	-60.4	-74.9	3.5	1.52e+00	0	47	104	0	60	212028
2026-01-28 23:44:04.38	12.48	42.13	-58.7	-74.4	3.5	1.52e+00	0	47	104	0	60	199067
2026-01-28 23:44:05.39	12.33	42.40	-58.6	-74.3	3.5	1.52e+00	0	47	104	0	60	198246
2026-01-28 23:44:06.40	12.18	42.67	-58.7	-74.6	3.5	1.52e+00	0	47	104	0	60	203760
2026-01-28 23:44:07.40	12.02	42.94	-60.0	-74.9	3.5	1.52e+00	0	47	104	0	60	212685
2026-01-28 23:44:08.41	11.87	43.21	-61.1	-75.0	3.5	1.51e+00	0	47	104	0	60	214095
2026-01-28 23:44:09.42	11.71	43.49	-61.2	-75.1	3.5	1.52e+00	0	47	104	0	60	217265
2026-01-28 23:44:10.42	11.54	43.76	-60.9	-75.1	3.5	1.52e+00	0	47	104	0	60	216869
2026-01-28 23:44:11.42	11.38	44.04	-61.2	-75.2	3.5	1.52e+00	0	47	104	0	60	219386
2026-01-28 23:44:12.43	11.21	44.32	-60.0	-75.0	3.5	1.52e+00	0	47	104	0	60	214432
2026-01-28 23:44:13.44	11.04	44.60	-60.8	-75.2	3.5	1.52e+00	0	47	104	0	60	219936
2026-01-28 23:44:14.44	10.86	44.88	-59.3	-74.2	3.5	1.52e+00	0	47	104	0	60	196072
2026-01-28 23:44:15.44	10.69	45.16	-59.9	-74.4	3.6	1.52e+00	0	47	104	0	60	198845
2026-01-28 23:44:16.45	10.50	45.45	-60.6	-74.7	3.5	1.51e+00	0	47	104	0	60	206137
2026-01-28 23:44:17.45	10.32	45.74	-60.6	-74.8	3.5	1.52e+00	0	47	104	0	60	209400
2026-01-28 23:44:18.45	10.13	46.02	-60.2	-74.7	3.5	1.52e+00	0	46	104	0	60	205616
2026-01-28 23:44:19.46	9.94	46.32	-60.8	-74.9	3.5	1.52e+00	0	47	104	0	60	211552
2026-01-28 23:44:20.47	9.75	46.61	-60.8	-75.0	3.5	1.52e+00	0	47	104	0	60	213136
2026-01-28 23:44:21.47	9.55	46.90	-59.9	-74.8	3.5	1.52e+00	0	47	104	0	60	209845
2026-01-28 23:44:22.48	9.34	47.20	-60.5	-75.0	3.5	1.52e+00	0	47	104	0	60	214486
2026-01-28 23:44:23.48	9.14	47.50	-60.8	-75.1	3.5	1.52e+00	0	47	104	0	60	215445
2026-01-28 23:44:24.49	8.93	47.80	-60.5	-75.0	3.5	1.52e+00	0	47	104	0	60	214682
2026-01-28 23:44:25.50	8.71	48.10	-60.4	-74.7	3.5	1.51e+00	0	47	104	0	60	207159
2026-01-28 23:44:26.51	8.49	48.40	-60.4	-75.0	3.5	1.52e+00	0	47	104	0	60	213944
2026-01-28 23:44:27.51	8.27	48.70	-60.4	-75.0	3.5	1.52e+00	0	47	104	0	60	214516
2026-01-28 23:44:28.52	8.04	49.01	-60.4	-74.9	3.5	1.52e+00	0	47	104	0	60	210408
2026-01-28 23:44:29.53	7.80	49.32	-60.7	-74.9	3.5	1.51e+00	0	47	104	0	60	211967
2026-01-28 23:44:30.54	7.57	49.63	-60.6	-75.0	3.5	1.52e+00	0	47	104	0	60	212883
2026-01-28 23:44:31.54	7.32	49.94	-60.4	-74.8	3.5	1.51e+00	0	47	104	0	60	209969
2026-01-28 23:44:32.55	7.07	50.25	-60.2	-74.8	3.5	1.52e+00	0	47	104	0	60	210256
2026-01-28 23:44:33.55	6.82	50.57	-60.6	-75.0	3.5	1.52e+00	0	47	104	0	60	213168
2026-01-28 23:44:34.56	6.56	50.88	-59.7	-74.9	3.5	1.51e+00	0	47	104	0	60	210807
2026-01-28 23:44:35.56	6.30	51.20	-60.0	-74.7	3.5	1.52e+00	0	47	104	0	60	207078
2026-01-28 23:44:36.57	6.03	51.52	-59.8	-74.9	3.5	1.52e+00	0	47	104	0	60	211460
2026-01-28 23:44:37.58	5.75	51.84	-59.6	-74.8	3.5	1.52e+00	0	47	104	0	60	209494
2026-01-28 23:44:38.59	5.47	52.16	-60.1	-75.1	3.5	1.52e+00	0	47	104	0	60	216043
2026-01-28 23:44:39.60	5.18	52.49	-59.9	-75.2	3.5	1.51e+00	0	47	104	0	60	218220
2026-01-28 23:44:40.61	4.88	52.81	-59.6	-75.1	3.5	1.51e+00	0	47	104	0	60	216248
2026-01-28 23:44:41.61	4.58	53.13	-59.7	-75.2	3.5	1.52e+00	0	47	104	0	60	217992
2026-01-28 23:44:42.62	4.27	53.46	-59.8	-75.0	3.5	1.52e+00	0	47	104	0	60	213023
2026-01-28 23:44:43.63	3.96	53.79	-60.6	-74.9	3.5	1.52e+00	0	47	104	0	60	211391
2026-01-28 23:44:44.64	3.63	54.12	-60.5	-75.2	3.5	1.52e+00	0	47	104	0	60	218701
2026-01-28 23:44:45.65	3.30	54.45	-60.7	-75.2	3.5	1.52e+00	0	47	104	0	60	218034
2026-01-28 23:44:46.65	2.96	54.78	-60.5	-74.7	3.5	1.52e+00	0	47	104	0	60	205932
2026-01-28 23:44:47.66	2.61	55.12	-60.9	-74.6	3.5	1.52e+00	0	47	104	0	60	204888
2026-01-28 23:44:48.67	2.26	55.45	-60.7	-74.9	3.5	1.52e+00	0	47	104	0	60	212510
2026-01-28 23:44:49.67	1.90	55.79	-60.8	-75.1	3.5	1.52e+00	0	47	104	0	60	216317
2026-01-28 23:44:50.68	1.52	56.12	-61.0	-75.1	3.5	1.52e+00	0	47	104	0	60	216880
2026-01-28 23:44:51.68	1.14	56.46	-60.0	-74.6	3.5	1.52e+00	0	47	104	0	60	204973
2026-01-28 23:44:52.69	0.75	56.79	-60.7	-75.1	3.5	1.52e+00	0	47	104	0	60	216612
2026-01-28 23:44:53.69	0.35	57.13	-60.4	-75.1	3.5	1.51e+00	0	47	104	0	60	216969
2026-01-28 23:44:54.70	359.94	57.47	-58.8	-74.0	3.5	1.52e+00	0	47	104	0	60	190779
2026-01-28 23:44:55.71	359.52	57.81	-58.9	-74.0	3.5	1.52e+00	0	47	104	0	60	191705
2026-01-28 23:44:56.71	359.09	58.15	-60.3	-74.9	3.5	1.52e+00	0	47	104	0	60	212058
2026-01-28 23:44:57.72	358.64	58.49	-58.8	-74.2	3.6	1.51e+00	0	47	104	0	60	195020
2026-01-28 23:44:58.73	358.18	58.83	-60.2	-74.5	3.5	1.52e+00	0	47	104	0	60	201114
2026-01-28 23:44:59.74	357.71	59.17	-60.3	-75.1	3.5	1.52e+00	0	47	104	0	60	215922
2026-01-28 23:45:00.75	357.23	59.51	-60.7	-75.0	3.5	1.52e+00	0	47	104	0	60	214116
2026-01-28 23:45:01.76	356.74	59.86	-61.2	-74.8	3.5	1.52e+00	0	47	104	0	60	208997
2026-01-28 23:45:02.77	356.23	60.20	-61.0	-75.2	3.5	1.52e+00	0	47	104	0	60	219448
2026-01-28 23:45:03.77	355.71	60.54	-61.1	-75.2	3.5	1.52e+00	0	47	104	0	60	218455
2026-01-28 23:45:04.77	355.18	60.87	-61.3	-75.2	3.5	1.52e+00	0	47	104	0	60	218028
2026-01-28 23:45:05.78	354.63	61.21	-60.6	-74.7	3.5	1.52e+00	0	47	104	0	60	207643
2026-01-28 23:45:06.78	354.07	61.55	-61.3	-75.4	3.5	1.52e+00	0	47	104	0	60	223509
2026-01-28 23:45:07.79	353.49	61.89	-61.0	-75.3	3.5	1.52e+00	0	47	104	0	60	221254
2026-01-28 23:45:08.80	352.89	62.23	-59.9	-74.7	3.5	1.51e+00	0	47	104	0	60	205596
2026-01-28 23:45:09.80	352.28	62.56	-59.7	-74.8	3.5	1.52e+00	0	47	104	0	60	208394
2026-01-28 23:45:10.81	351.65	62.90	-59.4	-74.6	3.5	1.51e+00	0	47	104	0	60	205374
2026-01-28 23:45:11.82	351.00	63.23	-59.4	-74.5	3.6	1.52e+00	0	46	104	0	60	201866
2026-01-28 23:45:12.83	350.33	63.56	-60.4	-74.9	3.5	1.52e+00	0	47	104	0	60	210546
2026-01-28 23:45:13.84	349.64	63.90	-60.1	-75.2	3.5	1.52e+00	0	47	104	0	60	217894
2026-01-28 23:45:14.85	348.94	64.22	-60.0	-74.8	3.5	1.51e+00	0	47	104	0	60	208038
2026-01-28 23:45:15.85	348.21	64.55	-61.4	-74.8	3.5	1.51e+00	0	47	104	0	60	209041
2026-01-28 23:45:16.86	347.46	64.87	-60.3	-75.1	3.5	1.52e+00	0	46	104	0	60	216347
2026-01-28 23:45:17.87	346.69	65.19	-61.5	-75.4	3.5	1.52e+00	0	47	104	0	60	223785
2026-01-28 23:45:18.88	345.90	65.51	-61.4	-75.2	3.5	1.52e+00	0	47	104	0	60	219042
2026-01-28 23:45:19.88	345.09	65.83	-60.7	-74.9	3.5	1.52e+00	0	47	104	0	60	210306
2026-01-28 23:45:20.89	344.25	66.14	-61.3	-75.2	3.5	1.52e+00	0	47	104	0	60	219565
2026-01-28 23:45:21.89	343.39	66.44	-60.2	-75.2	3.5	1.52e+00	0	47	104	0	60	219976
2026-01-28 23:45:22.89	342.51	66.75	-60.9	-75.1	3.5	1.52e+00	0	47	104	0	60	217554
2026-01-28 23:45:23.90	341.59	67.05	-60.0	-74.8	3.5	1.52e+00	0	47	104	0	60	210148
2026-01-28 23:45:24.90	340.66	67.34	-60.6	-75.3	3.5	1.52e+00	0	47	104	0	60	220894
2026-01-28 23:45:25.91	339.69	67.63	-60.3	-75.2	3.5	1.52e+00	0	47	104	0	60	219771
2026-01-28 23:45:26.91	338.70	67.92	-58.9	-74.2	3.5	1.52e+00	0	47	104	0	60	195851
2026-01-28 23:45:27.92	337.67	68.20	-58.8	-74.1	3.6	1.52e+00	0	47	104	0	60	192760
2026-01-28 23:45:28.93	336.62	68.47	-59.9	-74.6	3.5	1.51e+00	0	47	104	0	60	204068
2026-01-28 23:45:29.94	335.53	68.74	-58.8	-74.5	3.5	1.52e+00	0	47	104	0	60	201777
2026-01-28 23:45:30.94	334.43	69.00	-59.8	-74.3	3.5	1.52e+00	0	47	104	0	60	197406
2026-01-28 23:45:31.95	333.29	69.26	-59.7	-74.7	3.5	1.51e+00	0	47	104	0	60	206526
2026-01-28 23:45:32.96	332.11	69.51	-59.9	-74.8	3.5	1.52e+00	0	47	104	0	60	209112
2026-01-28 23:45:33.96	330.92	69.75	-59.6	-74.7	3.5	1.52e+00	0	47	104	0	60	205574
2026-01-28 23:45:34.97	329.68	69.98	-59.8	-74.7	3.5	1.52e+00	0	47	104	0	60	205845
2026-01-28 23:45:35.97	328.43	70.20	-60.2	-74.9	3.5	1.51e+00	0	47	104	0	60	211220
2026-01-28 23:45:36.98	327.13	70.42	-59.5	-75.0	3.5	1.51e+00	0	47	104	0	60	214865
2026-01-28 23:45:37.99	325.81	70.62	-59.7	-74.3	3.5	1.52e+00	0	47	104	0	60	198362
2026-01-28 23:45:38.99	324.46	70.82	-60.0	-75.0	3.5	1.52e+00	0	47	104	0	60	213009
2026-01-28 23:45:40.00	323.08	71.01	-59.1	-74.5	3.5	1.51e+00	0	47	104	0	60	201012
2026-01-28 23:45:41.00	321.68	71.18	-58.9	-73.9	3.6	1.51e+00	0	47	104	0	60	188084
2026-01-28 23:45:42.00	320.25	71.35	-58.7	-73.7	3.6	1.51e+00	0	47	104	0	60	184768
2026-01-28 23:45:43.01	318.78	71.50	-58.2	-73.6	3.6	1.51e+00	0	47	104	0	60	181413
2026-01-28 23:45:44.02	317.28	71.65	-58.1	-73.7	3.6	1.51e+00	0	47	104	0	60	184784
2026-01-28 23:45:45.03	315.77	71.78	-56.8	-73.3	3.7	1.51e+00	0	47	104	0	60	176243
2026-01-28 23:45:46.04	314.23	71.90	-58.2	-73.9	3.6	1.51e+00	0	47	104	0	60	188398
2026-01-28 23:45:47.05	312.67	72.00	-56.6	-72.5	3.7	1.51e+00	0	47	104	0	60	160293
2026-01-28 23:45:48.05	311.10	72.10	-55.9	-72.4	3.7	1.51e+00	0	47	104	0	60	158068
2026-01-28 23:45:49.06	309.50	72.18	-55.9	-72.7	3.7	1.51e+00	0	47	104	0	60	163873
2026-01-28 23:45:50.07	307.89	72.25	-55.6	-72.1	3.7	1.51e+00	0	47	104	0	60	154016
2026-01-28 23:45:51.08	306.27	72.30	-55.4	-71.8	3.8	1.51e+00	0	47	104	0	60	147458
2026-01-28 23:45:52.08	304.66	72.34	-55.5	-72.0	3.8	1.51e+00	0	47	104	0	60	151869
2026-01-28 23:45:53.09	303.02	72.37	-55.5	-72.0	3.7	1.51e+00	0	47	104	0	60	152183
2026-01-28 23:45:54.10	301.38	72.39	-55.4	-72.5	3.8	1.51e+00	0	47	104	0	60	161178
2026-01-28 23:45:55.10	299.75	72.39	-57.2	-73.4	3.6	1.51e+00	0	47	104	0	60	177198
2026-01-28 23:45:56.11	298.10	72.37	-56.4	-72.9	3.7	1.51e+00	0	47	104	0	60	168265
2026-01-28 23:45:57.11	296.48	72.35	-55.9	-72.7	3.7	1.51e+00	0	47	104	0	60	163350
2026-01-28 23:45:58.12	294.85	72.30	-56.4	-73.0	3.6	1.51e+00	0	47	104	0	60	170362
2026-01-28 23:45:59.13	293.23	72.25	-58.0	-73.7	3.6	1.51e+00	0	47	104	0	60	183976
2026-01-28 23:46:00.13	291.63	72.18	-58.6	-74.2	3.6	1.52e+00	0	47	104	0	60	194464
2026-01-28 23:46:01.14	290.03	72.10	-58.0	-73.9	3.5	1.51e+00	0	47	104	0	60	189446
2026-01-28 23:46:02.15	288.45	72.01	-58.5	-74.3	3.5	1.52e+00	0	47	104	0	60	198159
2026-01-28 23:46:03.16	286.89	71.90	-58.6	-74.4	3.6	1.52e+00	0	47	104	0	60	199036
2026-01-28 23:46:04.17	285.35	71.78	-56.5	-72.8	3.6	1.51e+00	0	47	104	0	60	166879
2026-01-28 23:46:05.18	283.83	71.65	-58.3	-74.1	3.5	1.51e+00	0	47	104	0	60	193140
2026-01-28 23:46:06.18	282.35	71.51	-56.3	-72.6	3.7	1.51e+00	0	47	104	0	60	162751
2026-01-28 23:46:07.19	280.88	71.35	-56.0	-72.2	3.7	1.51e+00	0	47	104	0	60	155182
2026-01-28 23:46:08.19	279.45	71.19	-55.8	-72.0	3.7	1.51e+00	0	47	104	0	60	152146
2026-01-28 23:46:09.20	278.03	71.01	-55.7	-72.1	3.7	1.51e+00	0	47	104	0	60	153101
2026-01-28 23:46:10.21	276.64	70.83	-55.6	-72.5	3.7	1.51e+00	0	47	104	0	60	161343
2026-01-28 23:46:11.21	275.30	70.63	-55.7	-72.0	3.7	1.51e+00	0	47	104	0	60	151758
2026-01-28 23:46:12.22	273.97	70.42	-55.8	-72.3	3.8	1.51e+00	0	47	104	0	60	157163
2026-01-28 23:46:13.23	272.67	70.21	-55.6	-72.1	3.8	1.51e+00	0	47	104	0	60	153886
2026-01-28 23:46:14.24	271.40	69.98	-56.0	-72.4	3.7	1.51e+00	0	47	104	0	60	158328
2026-01-28 23:46:15.24	270.17	69.75	-55.9	-72.3	3.7	1.51e+00	0	47	104	0	60	156499
2026-01-28 23:46:16.25	268.97	69.51	-55.8	-72.4	3.7	1.51e+00	0	47	104	0	60	158441
2026-01-28 23:46:17.25	267.80	69.27	-56.7	-73.2	3.6	1.51e+00	0	47	104	0	60	174164
2026-01-28 23:46:18.26	266.66	69.01	-57.0	-73.2	3.5	1.51e+00	0	47	104	0	60	173823
2026-01-28 23:46:19.27	265.54	68.75	-56.4	-73.2	3.6	1.51e+00	0	47	104	0	60	173615
2026-01-28 23:46:20.28	264.45	68.48	-57.7	-74.1	3.5	1.51e+00	0	47	104	0	60	192165
2026-01-28 23:46:21.29	263.40	68.20	-57.4	-73.5	3.6	1.51e+00	0	47	104	0	60	179171
2026-01-28 23:46:22.29	262.38	67.92	-58.6	-73.6	3.5	1.51e+00	0	47	104	0	60	182051
2026-01-28 23:46:23.29	261.39	67.64	-57.6	-73.4	3.6	1.51e+00	0	47	104	0	60	177622
2026-01-28 23:46:24.30	260.42	67.35	-58.9	-74.5	3.5	1.52e+00	0	47	104	0	60	200852
2026-01-28 23:46:25.30	259.48	67.05	-58.7	-74.0	3.5	1.51e+00	0	47	104	0	60	191032
2026-01-28 23:46:26.31	258.56	66.75	-59.4	-74.4	3.5	1.52e+00	0	47	104	0	60	199972
2026-01-28 23:46:27.31	257.68	66.45	-59.5	-74.7	3.5	1.51e+00	0	47	104	0	60	205698
2026-01-28 23:46:28.31	256.82	66.14	-59.2	-74.5	3.5	1.52e+00	0	47	104	0	60	201855
2026-01-28 23:46:29.32	255.98	65.83	-59.9	-74.2	3.5	1.51e+00	0	47	104	0	60	195084
2026-01-28 23:46:30.33	255.16	65.51	-59.6	-74.5	3.5	1.52e+00	0	47	104	0	60	202831
2026-01-28 23:46:31.33	254.37	65.20	-60.0	-74.3	3.5	1.52e+00	0	47	104	0	60	196595
2026-01-28 23:46:32.33	253.60	64.88	-60.5	-74.8	3.5	1.52e+00	0	47	104	0	60	210225
2026-01-28 23:46:33.33	252.86	64.56	-60.4	-74.8	3.5	1.52e+00	0	47	104	0	60	209540
2026-01-28 23:46:34.34	252.13	64.23	-60.0	-74.2	3.5	1.52e+00	0	47	104	0	60	194948
2026-01-28 23:46:35.34	251.43	63.90	-60.1	-74.0	3.5	1.52e+00	0	47	104	0	60	190482
2026-01-28 23:46:36.35	250.74	63.57	-60.6	-74.1	3.5	1.51e+00	0	47	104	0	60	193137
2026-01-28 23:46:37.35	250.07	63.24	-60.4	-74.7	3.5	1.52e+00	0	47	104	0	60	206829
2026-01-28 23:46:38.36	249.42	62.91	-60.3	-74.9	3.5	1.52e+00	0	47	104	0	60	210297
2026-01-28 23:46:39.37	248.79	62.57	-60.6	-74.5	3.5	1.52e+00	0	47	104	0	60	202724
2026-01-28 23:46:40.37	248.18	62.24	-60.8	-74.8	3.5	1.52e+00	0	47	104	0	60	209984
2026-01-28 23:46:41.38	247.58	61.90	-60.8	-74.8	3.5	1.52e+00	0	47	104	0	60	210243
2026-01-28 23:46:42.38	247.00	61.56	-60.6	-74.5	3.5	1.52e+00	0	47	104	0	60	203069
2026-01-28 23:46:43.39	246.43	61.22	-60.6	-74.4	3.5	1.51e+00	0	47	104	0	60	199894
2026-01-28 23:46:44.40	245.88	60.88	-60.8	-74.4	3.5	1.52e+00	0	47	104	0	60	198988
2026-01-28 23:46:45.41	245.34	60.54	-60.5	-74.5	3.5	1.51e+00	0	47	104	0	60	202840
2026-01-28 23:46:46.41	244.82	60.20	-60.6	-74.7	3.5	1.52e+00	0	47	104	0	60	206884
2026-01-28 23:46:47.42	244.31	59.86	-60.6	-74.7	3.5	1.52e+00	0	47	104	0	60	206874
2026-01-28 23:46:48.42	243.82	59.52	-60.5	-74.3	3.5	1.51e+00	0	47	104	0	60	196935
2026-01-28 23:46:49.42	243.34	59.18	-60.7	-74.7	3.5	1.52e+00	0	47	104	0	60	206584
2026-01-28 23:46:50.43	242.87	58.83	-60.7	-74.5	3.5	1.52e+00	0	47	104	0	60	201447
2026-01-28 23:46:51.43	242.42	58.50	-60.7	-74.5	3.5	1.51e+00	0	47	104	0	60	200953
2026-01-28 23:46:52.44	241.97	58.15	-60.7	-74.3	3.5	1.51e+00	0	47	104	0	60	198142
2026-01-28 23:46:53.45	241.54	57.81	-60.7	-74.3	3.5	1.51e+00	0	47	104	0	60	197097
2026-01-28 23:46:54.45	241.12	57.47	-60.6	-74.6	3.5	1.52e+00	0	47	104	0	60	205349
2026-01-28 23:46:55.46	240.70	57.13	-60.6	-74.7	3.5	1.51e+00	0	47	104	0	60	206528
2026-01-28 23:46:56.46	240.30	56.80	-60.5	-74.4	3.5	1.52e+00	0	47	104	0	60	199766
2026-01-28 23:46:57.47	239.91	56.46	-60.7	-74.6	3.5	1.52e+00	0	47	104	0	60	205189
2026-01-28 23:46:58.48	239.52	56.12	-60.7	-74.4	3.5	1.52e+00	0	47	104	0	60	198568
2026-01-28 23:46:59.48	239.15	55.78	-60.6	-74.3	3.5	1.52e+00	0	47	104	0	60	196705
2026-01-28 23:47:00.49	238.79	55.45	-60.5	-74.2	3.5	1.52e+00	0	47	104	0	60	194417
2026-01-28 23:47:01.49	238.43	55.12	-60.6	-74.2	3.5	1.52e+00	0	47	104	0	60	195890
2026-01-28 23:47:02.50	238.08	54.78	-60.7	-74.7	3.5	1.52e+00	0	47	104	0	60	206135
2026-01-28 23:47:03.50	237.75	54.45	-60.7	-74.6	3.5	1.52e+00	0	47	104	0	60	204017
2026-01-28 23:47:04.51	237.41	54.12	-60.7	-74.7	3.5	1.52e+00	0	47	104	0	60	206262
2026-01-28 23:47:05.51	237.09	53.79	-60.6	-74.7	3.5	1.52e+00	0	47	104	0	60	206532
2026-01-28 23:47:06.53	236.77	53.46	-60.6	-74.5	3.5	1.52e+00	0	47	104	0	60	203046
2026-01-28 23:47:07.53	236.46	53.13	-60.6	-74.5	3.5	1.52e+00	0	47	104	0	60	202121
2026-01-28 23:47:08.54	236.16	52.80	-60.7	-74.6	3.5	1.52e+00	0	47	104	0	60	203923
2026-01-28 23:47:09.55	235.86	52.47	-60.6	-74.6	3.5	1.52e+00	0	47	104	0	60	205386
2026-01-28 23:47:10.55	235.57	52.15	-60.6	-74.6	3.5	1.51e+00	0	47	104	0	60	203806
2026-01-28 23:47:11.56	235.29	51.83	-60.6	-74.6	3.5	1.51e+00	0	47	104	0	60	203672
2026-01-28 23:47:12.57	235.01	51.51	-60.8	-74.8	3.5	1.52e+00	0	47	104	0	60	208818
2026-01-28 23:47:13.58	234.74	51.19	-60.9	-74.8	3.5	1.52e+00	0	47	104	0	60	209532
2026-01-28 23:47:14.59	234.47	50.87	-60.8	-74.8	3.5	1.51e+00	0	47	104	0	60	208005
2026-01-28 23:47:15.59	234.21	50.55	-60.8	-74.8	3.5	1.52e+00	0	47	104	0	60	208027
2026-01-28 23:47:16.60	233.96	50.24	-60.7	-74.8	3.5	1.51e+00	0	47	104	0	60	208155
2026-01-28 23:47:17.61	233.71	49.92	-60.7	-74.7	3.5	1.52e+00	0	47	104	0	60	206031
2026-01-28 23:47:18.61	233.47	49.61	-60.7	-74.6	3.5	1.51e+00	0	47	104	0	60	205228
2026-01-28 23:47:19.62	233.23	49.30	-60.7	-74.6	3.5	1.52e+00	0	47	104	0	60	204383
2026-01-28 23:47:20.63	232.99	48.99	-60.6	-74.6	3.5	1.52e+00	0	47	104	0	60	204217
2026-01-28 23:47:21.64	232.76	48.68	-60.7	-74.7	3.5	1.52e+00	0	47	104	0	60	207513
2026-01-28 23:47:22.64	232.54	48.38	-60.8	-74.8	3.5	1.52e+00	0	47	104	0	60	208092
2026-01-28 23:47:23.65	232.32	48.07	-60.8	-74.7	3.5	1.52e+00	0	47	104	0	60	206941
2026-01-28 23:47:24.65	232.10	47.77	-60.8	-74.8	3.5	1.52e+00	0	47	104	0	60	208584
2026-01-28 23:47:25.66	231.89	47.47	-60.9	-74.8	3.5	1.51e+00	0	47	104	0	60	209895
2026-01-28 23:47:26.67	231.68	47.17	-60.9	-74.9	3.5	1.52e+00	0	47	104	0	60	210373
2026-01-28 23:47:27.68	231.48	46.87	-60.8	-74.8	3.5	1.52e+00	0	47	104	0	60	208556
2026-01-28 23:47:28.69	231.28	46.58	-60.9	-74.8	3.5	1.52e+00	0	47	104	0	60	209037
2026-01-28 23:47:29.69	231.08	46.28	-60.8	-74.7	3.5	1.51e+00	0	47	104	0	60	207621
2026-01-28 23:47:30.70	230.89	45.99	-60.7	-74.7	3.5	1.52e+00	0	47	104	0	60	206349
2026-01-28 23:47:31.71	230.70	45.70	-60.7	-74.6	3.5	1.52e+00	0	47	104	0	60	205271
2026-01-28 23:47:32.71	230.52	45.41	-60.8	-74.5	3.5	1.52e+00	0	47	104	0	60	201088
2026-01-28 23:47:33.72	230.33	45.12	-60.8	-74.7	3.5	1.52e+00	0	47	104	0	60	206107
2026-01-28 23:47:34.72	230.16	44.84	-60.8	-74.6	3.5	1.52e+00	0	47	104	0	60	204992
2026-01-28 23:47:35.73	229.98	44.56	-60.9	-74.9	3.5	1.52e+00	0	47	104	0	60	211250
2026-01-28 23:47:36.73	229.81	44.28	-60.9	-74.8	3.5	1.52e+00	0	47	104	0	60	208223
2026-01-28 23:47:37.73	229.64	44.00	-60.9	-74.8	3.5	1.52e+00	0	47	104	0	60	210014
2026-01-28 23:47:38.74	229.47	43.72	-60.9	-74.8	3.5	1.52e+00	0	47	104	0	60	209695
2026-01-28 23:47:39.74	229.31	43.44	-60.9	-74.9	3.5	1.52e+00	0	47	104	0	60	210857
2026-01-28 23:47:40.75	229.15	43.17	-60.9	-74.7	3.5	1.52e+00	0	47	104	0	60	207346
2026-01-28 23:47:41.76	228.99	42.89	-61.0	-74.9	3.5	1.52e+00	0	47	104	0	60	210678
2026-01-28 23:47:42.76	228.84	42.62	-60.9	-74.8	3.5	1.52e+00	0	47	104	0	60	208278
2026-01-28 23:47:43.78	228.68	42.35	-61.0	-74.9	3.5	1.52e+00	0	47	104	0	60	211232
2026-01-28 23:47:44.78	228.53	42.08	-61.0	-74.7	3.5	1.52e+00	0	47	104	0	60	206427
2026-01-28 23:47:45.79	228.39	41.82	-61.0	-74.9	3.5	1.52e+00	0	47	104	0	60	211282
2026-01-28 23:47:46.80	228.24	41.55	-61.0	-74.5	3.5	1.52e+00	0	47	104	0	60	203085
2026-01-28 23:47:47.81	228.10	41.29	-61.0	-74.8	3.5	1.52e+00	0	47	104	0	60	209522
2026-01-28 23:47:48.81	227.96	41.03	-61.0	-74.6	3.5	1.52e+00	0	47	104	0	60	203874
2026-01-28 23:47:49.82	227.82	40.77	-60.9	-74.8	3.5	1.52e+00	0	47	104	0	60	208766
2026-01-28 23:47:50.82	227.69	40.51	-60.9	-74.6	3.5	1.52e+00	0	47	104	0	60	204655
2026-01-28 23:47:51.83	227.55	40.25	-60.8	-74.8	3.5	1.52e+00	0	47	104	0	60	207970
2026-01-28 23:47:52.83	227.42	40.00	-60.9	-74.6	3.5	1.52e+00	0	47	104	0	60	204468
2026-01-28 23:47:53.84	227.29	39.75	-60.7	-74.7	3.5	1.52e+00	0	47	104	0	60	207170
2026-01-28 23:47:54.84	227.17	39.50	-60.9	-74.7	3.5	1.51e+00	0	47	104	0	60	207372
2026-01-28 23:47:55.85	227.04	39.25	-60.8	-74.8	3.5	1.52e+00	0	47	104	0	60	209136
2026-01-28 23:47:56.85	226.92	39.00	-60.7	-74.6	3.5	1.52e+00	0	47	104	0	60	203975
2026-01-28 23:47:57.86	226.80	38.75	-60.6	-74.5	3.5	1.52e+00	0	47	104	0	60	201675
2026-01-28 23:47:58.87	226.68	38.51	-60.6	-74.5	3.5	1.52e+00	0	47	104	0	60	201340
2026-01-28 23:47:59.88	226.56	38.26	-60.7	-74.6	3.5	1.51e+00	0	47	104	0	60	204575
2026-01-28 23:48:00.89	226.44	38.02	-60.7	-74.5	3.5	1.51e+00	0	47	104	0	60	200862
2026-01-28 23:48:01.89	226.33	37.78	-60.5	-74.5	3.5	1.52e+00	0	47	104	0	60	201711
2026-01-28 23:48:02.90	226.22	37.54	-60.6	-74.2	3.5	1.52e+00	0	47	104	0	60	195015
2026-01-28 23:48:03.91	226.11	37.31	-60.5	-74.2	3.5	1.52e+00	0	47	104	0	60	195000
2026-01-28 23:48:04.92	226.00	37.07	-60.4	-73.7	3.5	1.52e+00	0	47	104	0	60	184118
2026-01-28 23:48:05.93	225.89	36.84	-60.4	-73.8	3.5	1.51e+00	0	47	104	0	60	185897
2026-01-28 23:48:06.93	225.78	36.60	-60.3	-73.3	3.5	1.51e+00	0	47	104	0	60	176462
2026-01-28 23:48:07.93	225.68	36.38	-60.4	-73.3	3.5	1.51e+00	0	47	104	0	60	176345
2026-01-28 23:48:08.93	225.58	36.15	-60.2	-74.3	3.5	1.52e+00	0	47	104	0	60	198467
2026-01-28 23:48:09.93	225.48	35.92	-60.3	-74.3	3.5	1.52e+00	0	47	104	0	60	198206
2026-01-28 23:48:10.94	225.38	35.69	-60.3	-74.1	3.5	1.51e+00	0	47	104	0	60	193289
2026-01-28 23:48:11.94	225.28	35.47	-60.2	-74.3	3.5	1.52e+00	0	47	104	0	60	196464
2026-01-28 23:48:12.95	225.18	35.25	-60.2	-73.5	3.5	1.52e+00	0	47	104	0	60	180834
2026-01-28 23:48:13.95	225.09	35.03	-60.2	-73.3	3.5	1.51e+00	0	47	104	0	60	176675
2026-01-28 23:48:14.95	224.99	34.81	-60.2	-73.5	3.5	1.51e+00	0	47	104	0	60	180482
2026-01-28 23:48:15.96	224.90	34.59	-60.3	-73.4	3.5	1.52e+00	0	47	104	0	60	178834
2026-01-28 23:48:16.96	224.81	34.37	-60.1	-74.0	3.5	1.52e+00	0	47	104	0	60	190501
2026-01-28 23:48:17.97	224.72	34.15	-60.1	-74.1	3.5	1.51e+00	0	47	104	0	60	192389
2026-01-28 23:48:18.98	224.63	33.94	-60.2	-74.2	3.5	1.52e+00	0	47	104	0	60	194892
2026-01-28 23:48:19.99	224.54	33.73	-60.0	-74.2	3.5	1.52e+00	0	47	104	0	60	194585
2026-01-28 23:48:21.00	224.45	33.51	-60.0	-73.2	3.5	1.52e+00	0	47	104	0	60	173529
2026-01-28 23:48:22.00	224.37	33.30	-60.0	-73.2	3.5	1.52e+00	0	47	104	0	60	173380
2026-01-28 23:48:23.01	224.28	33.09	-60.2	-73.3	3.5	1.52e+00	0	47	104	0	60	176252
2026-01-28 23:48:24.02	224.20	32.89	-60.2	-73.2	3.5	1.51e+00	0	47	104	0	60	174315
2026-01-28 23:48:25.02	224.12	32.68	-60.1	-74.0	3.5	1.52e+00	0	47	104	0	60	191076
2026-01-28 23:48:26.03	224.03	32.47	-59.9	-74.2	3.5	1.51e+00	0	47	104	0	60	194530
2026-01-28 23:48:27.03	223.95	32.27	-60.0	-73.1	3.5	1.52e+00	0	47	104	0	60	172063
2026-01-28 23:48:28.04	223.87	32.07	-60.0	-73.7	3.5	1.52e+00	0	47	104	0	60	184004
2026-01-28 23:48:29.04	223.80	31.87	-60.1	-73.1	3.5	1.51e+00	0	47	104	0	60	171667
2026-01-28 23:48:30.05	223.72	31.67	-60.1	-73.9	3.5	1.52e+00	0	47	104	0	60	189336
2026-01-28 23:48:31.05	223.64	31.47	-60.0	-73.6	3.5	1.52e+00	0	47	104	0	60	181877
2026-01-28 23:48:32.06	223.57	31.27	-60.0	-73.5	3.5	1.51e+00	0	47	104	0	60	180374
2026-01-28 23:48:33.07	223.49	31.08	-59.9	-74.2	3.5	1.52e+00	0	47	104	0	60	194651
2026-01-28 23:48:34.07	223.42	30.88	-60.1	-74.4	3.5	1.52e+00	0	47	104	0	60	198630
2026-01-28 23:48:35.08	223.35	30.69	-60.0	-73.2	3.5	1.52e+00	0	47	104	0	60	174386
2026-01-28 23:48:36.09	223.28	30.50	-60.1	-73.9	3.5	1.52e+00	0	47	104	0	60	187683
2026-01-28 23:48:37.09	223.21	30.31	-59.9	-73.0	3.5	1.52e+00	0	47	104	0	60	169989
2026-01-28 23:48:38.10	223.14	30.11	-60.0	-73.9	3.5	1.52e+00	0	47	104	0	60	187994
2026-01-28 23:48:39.11	223.07	29.93	-60.0	-73.6	3.5	1.52e+00	0	47	104	0	60	181981
2026-01-28 23:48:40.12	223.00	29.74	-60.0	-73.5	3.5	1.52e+00	0	47	104	0	60	180272
2026-01-28 23:48:41.13	222.93	29.55	-60.1	-74.2	3.5	1.52e+00	0	47	104	0	60	194439
2026-01-28 23:48:42.13	222.86	29.37	-60.2	-74.3	3.5	1.52e+00	0	47	104	0	60	198409
2026-01-28 23:48:43.14	222.80	29.18	-60.0	-73.1	3.5	1.51e+00	0	47	104	0	60	172765
2026-01-28 23:48:44.14	222.73	29.00	-60.2	-73.9	3.5	1.52e+00	0	47	104	0	60	187590
2026-01-28 23:48:45.15	222.67	28.82	-59.9	-72.7	3.5	1.51e+00	0	47	104	0	60	163672
2026-01-28 23:48:46.16	222.61	28.64	-59.9	-72.5	3.5	1.51e+00	0	47	104	0	60	161138
2026-01-28 23:48:47.17	222.54	28.46	-60.1	-72.7	3.6	1.51e+00	0	47	104	0	60	164407
2026-01-28 23:48:48.17	222.48	28.28	-60.1	-72.5	3.6	1.51e+00	0	47	104	0	60	160974
2026-01-28 23:48:49.18	222.42	28.10	-60.1	-73.4	3.5	1.52e+00	0	47	104	0	60	176982
2026-01-28 23:48:50.19	222.36	27.92	-60.0	-73.9	3.5	1.52e+00	0	47	104	0	60	188067
2026-01-28 23:48:51.20	222.30	27.75	-59.9	-73.8	3.5	1.52e+00	0	47	104	0	60	186849
2026-01-28 23:48:52.20	222.24	27.58	-59.9	-74.0	3.5	1.52e+00	0	47	104	0	60	190948
2026-01-28 23:48:53.21	222.18	27.40	-60.0	-73.2	3.5	1.52e+00	0	47	104	0	60	173393
2026-01-28 23:48:54.22	222.12	27.23	-60.0	-73.1	3.5	1.51e+00	0	47	104	0	60	171376
2026-01-28 23:48:55.23	222.07	27.06	-59.9	-73.1	3.5	1.51e+00	0	47	104	0	60	172085
2026-01-28 23:48:56.23	222.01	26.89	-59.8	-73.2	3.5	1.51e+00	0	47	104	0	60	173961
2026-01-28 23:48:57.24	221.95	26.72	-59.8	-73.5	3.5	1.51e+00	0	47	104	0	60	180256
2026-01-28 23:48:58.25	221.90	26.55	-59.8	-73.9	3.5	1.52e+00	0	47	104	0	60	188556
2026-01-28 23:48:59.26	221.84	26.38	-59.8	-72.4	3.5	1.51e+00	0	47	104	0	60	158246
2026-01-28 23:49:00.27	221.79	26.22	-60.0	-73.5	3.5	1.52e+00	0	47	104	0	60	180532
2026-01-28 23:49:01.28	221.73	26.05	-59.8	-71.3	4.0	1.51e+00	0	47	104	0	60	139243
2026-01-28 23:49:02.28	221.68	25.89	-59.9	-72.1	3.7	1.49e+00	0	47	104	0	60	152439
2026-01-28 23:49:03.29	221.63	25.73	-59.8	-71.2	3.9	1.49e+00	0	47	104	0	60	137754
2026-01-28 23:49:04.30	221.58	25.56	-59.7	-71.0	4.0	1.50e+00	0	47	104	0	60	135483
2026-01-28 23:49:05.31	221.53	25.40	-59.8	-72.9	3.5	1.52e+00	0	47	104	0	60	167775
2026-01-28 23:49:06.32	221.48	25.24	-59.9	-73.4	3.5	1.52e+00	0	47	104	0	60	177179
2026-01-28 23:49:07.33	221.43	25.08	-60.0	-73.9	3.5	1.52e+00	0	47	104	0	60	188301
2026-01-28 23:49:08.33	221.38	24.92	-59.8	-73.6	3.5	1.52e+00	0	47	104	0	60	182817
2026-01-28 23:49:09.34	221.33	24.77	-59.8	-73.1	3.5	1.51e+00	0	47	104	0	60	172227
2026-01-28 23:49:10.35	221.28	24.61	-59.9	-73.3	3.5	1.52e+00	0	47	104	0	60	175335
2026-01-28 23:49:11.36	221.23	24.45	-59.9	-73.5	3.5	1.52e+00	0	47	104	0	60	179140
2026-01-28 23:49:12.36	221.18	24.30	-59.9	-73.4	3.5	1.52e+00	0	47	104	0	60	177996
2026-01-28 23:49:13.37	221.14	24.15	-59.7	-73.2	3.5	1.51e+00	0	47	104	0	60	173099
2026-01-28 23:49:14.38	221.09	23.99	-59.6	-73.7	3.5	1.51e+00	0	47	104	0	60	183542
2026-01-28 23:49:15.38	221.04	23.84	-59.8	-72.8	3.5	1.51e+00	0	47	104	0	60	165956
2026-01-28 23:49:16.39	221.00	23.69	-59.9	-73.6	3.5	1.52e+00	0	47	104	0	60	181691
2026-01-28 23:49:17.40	220.95	23.54	-59.5	-71.2	3.6	1.51e+00	0	47	104	0	60	138144
2026-01-28 23:49:18.41	220.91	23.39	-59.5	-71.3	3.7	1.53e+00	0	47	104	0	60	140027
2026-01-28 23:49:19.41	220.86	23.24	-59.4	-71.2	3.8	1.50e+00	0	47	104	0	60	137766
2026-01-28 23:49:20.42	220.82	23.09	-59.6	-72.6	3.5	1.50e+00	0	47	104	0	60	161711
2026-01-28 23:49:21.42	220.78	22.95	-59.5	-72.6	3.5	1.51e+00	0	47	104	0	60	162790
2026-01-28 23:49:22.42	220.73	22.80	-59.4	-72.8	3.5	1.51e+00	0	47	104	0	60	166007
2026-01-28 23:49:23.43	220.69	22.66	-59.4	-73.0	3.5	1.52e+00	0	47	104	0	60	169965
2026-01-28 23:49:24.43	220.65	22.51	-59.3	-72.7	3.5	1.52e+00	0	47	104	0	60	164337
2026-01-28 23:49:25.44	220.61	22.37	-59.3	-72.2	3.5	1.51e+00	0	47	104	0	60	154772
2026-01-28 23:49:26.45	220.57	22.23	-59.2	-72.4	3.5	1.51e+00	0	47	104	0	60	158991
2026-01-28 23:49:27.45	220.53	22.09	-59.1	-72.2	3.5	1.51e+00	0	47	104	0	60	154665
2026-01-28 23:49:28.45	220.49	21.94	-59.2	-72.7	3.5	1.51e+00	0	47	104	0	60	164805
2026-01-28 23:49:29.46	220.45	21.80	-59.4	-72.7	3.5	1.51e+00	0	47	104	0	60	164171
2026-01-28 23:49:30.47	220.41	21.66	-59.4	-73.2	3.5	1.52e+00	0	47	104	0	60	173374
2026-01-28 23:49:31.47	220.37	21.53	-59.5	-73.2	3.5	1.52e+00	0	47	104	0	60	173549
2026-01-28 23:49:32.48	220.33	21.39	-59.4	-73.1	3.5	1.52e+00	0	47	104	0	60	171389
2026-01-28 23:49:33.49	220.29	21.25	-59.5	-73.0	3.5	1.52e+00	0	47	104	0	60	169858
2026-01-28 23:49:34.49	220.25	21.11	-59.5	-72.9	3.5	1.51e+00	0	47	104	0	60	168316
2026-01-28 23:49:35.49	220.21	20.98	-59.5	-72.4	3.5	1.51e+00	0	47	104	0	60	158710
2026-01-28 23:49:36.50	220.18	20.84	-59.5	-72.5	3.5	1.51e+00	0	47	104	0	60	161184
2026-01-28 23:49:37.50	220.14	20.71	-59.3	-72.8	3.5	1.52e+00	0	47	104	0	60	166894
2026-01-28 23:49:38.51	220.10	20.57	-59.3	-72.7	3.5	1.52e+00	0	47	104	0	60	164692
2026-01-28 23:49:39.52	220.07	20.44	-59.3	-72.4	3.5	1.51e+00	0	47	104	0	60	159259
2026-01-28 23:49:40.53	220.03	20.31	-59.3	-72.9	3.5	1.52e+00	0	47	104	0	60	168185
2026-01-28 23:49:41.54	220.00	20.17	-59.2	-70.0	4.1	1.46e+00	0	47	104	0	60	120804
2026-01-28 23:49:42.54	219.96	20.04	-59.2	-70.6	3.6	1.46e+00	0	47	104	0	60	128526
2026-01-28 23:49:43.55	219.92	19.91	-59.1	-70.2	4.0	1.46e+00	0	47	104	0	60	123748
2026-01-28 23:49:44.56	219.89	19.78	-59.2	-70.6	3.7	1.48e+00	0	47	104	0	60	128368
2026-01-28 23:49:45.57	219.86	19.65	-59.4	-72.6	3.5	1.51e+00	0	47	104	0	60	162983
2026-01-28 23:49:46.57	219.82	19.52	-59.2	-72.0	3.5	1.52e+00	0	47	104	0	60	151272
2026-01-28 23:49:47.58	219.79	19.40	-59.2	-72.8	3.5	1.52e+00	0	47	104	0	60	166167
2026-01-28 23:49:48.59	219.75	19.27	-59.2	-72.2	3.5	1.52e+00	0	47	104	0	60	155091
2026-01-28 23:49:49.59	219.72	19.14	-59.2	-72.8	3.5	1.51e+00	0	47	104	0	60	165619
2026-01-28 23:49:50.60	219.69	19.02	-59.3	-73.0	3.5	1.52e+00	0	47	104	0	60	169516
2026-01-28 23:49:51.60	219.66	18.89	-59.3	-73.0	3.5	1.52e+00	0	47	104	0	60	169127
2026-01-28 23:49:52.61	219.62	18.77	-59.3	-72.3	3.5	1.52e+00	0	47	104	0	60	156237
2026-01-28 23:49:53.61	219.59	18.64	-59.2	-72.7	3.5	1.51e+00	0	47	104	0	60	163870
2026-01-28 23:49:54.62	219.56	18.52	-59.1	-71.9	3.5	1.51e+00	0	47	104	0	60	149732
2026-01-28 23:49:55.63	219.53	18.40	-59.0	-72.8	3.5	1.52e+00	0	47	104	0	60	166134
2026-01-28 23:49:56.64	219.50	18.27	-59.2	-72.2	3.5	1.52e+00	0	47	104	0	60	154774
2026-01-28 23:49:57.64	219.47	18.15	-59.3	-72.5	3.5	1.51e+00	0	47	104	0	60	161072
2026-01-28 23:49:58.65	219.44	18.03	-59.2	-72.0	3.5	1.51e+00	0	47	104	0	60	152324
2026-01-28 23:49:59.65	219.41	17.91	-59.2	-71.6	3.5	1.51e+00	0	47	104	0	60	144010
2026-01-28 23:50:00.66	219.38	17.79	-59.1	-72.4	3.5	1.51e+00	0	47	104	0	60	158602
2026-01-28 23:50:01.67	219.35	17.67	-59.1	-72.9	3.5	1.52e+00	0	47	104	0	60	167266
2026-01-28 23:50:02.67	219.32	17.55	-59.0	-72.0	3.5	1.52e+00	0	47	104	0	60	150750
2026-01-28 23:50:03.68	219.29	17.43	-59.2	-72.6	3.5	1.52e+00	0	47	104	0	60	162232
2026-01-28 23:50:04.68	219.26	17.32	-59.2	-72.9	3.5	1.52e+00	0	47	104	0	60	168506
2026-01-28 23:50:05.69	219.23	17.20	-59.0	-70.8	3.8	1.50e+00	0	47	104	0	60	131451
2026-01-28 23:50:06.69	219.20	17.08	-59.0	-71.3	3.6	1.50e+00	0	47	104	0	60	139496
2026-01-28 23:50:07.70	219.17	16.97	-59.1	-71.3	3.7	1.50e+00	0	47	104	0	60	139240
2026-01-28 23:50:08.71	219.15	16.85	-59.0	-73.0	3.5	1.51e+00	0	47	104	0	60	169955
2026-01-28 23:50:09.72	219.12	16.73	-59.0	-72.6	3.5	1.52e+00	0	47	104	0	60	161429
2026-01-28 23:50:10.72	219.09	16.62	-58.9	-72.0	3.5	1.51e+00	0	47	104	0	60	152015
2026-01-28 23:50:11.73	219.06	16.51	-58.7	-72.5	3.5	1.52e+00	0	47	104	0	60	161355
2026-01-28 23:50:12.74	219.04	16.39	-58.9	-72.1	3.5	1.52e+00	0	47	104	0	60	153764
2026-01-28 23:50:13.75	219.01	16.28	-59.0	-72.2	3.5	1.52e+00	0	47	104	0	60	154866
2026-01-28 23:50:14.76	218.98	16.17	-59.0	-71.7	3.7	1.51e+00	0	47	104	0	60	146567
2026-01-28 23:50:15.77	218.96	16.05	-58.9	-71.5	3.5	1.51e+00	0	47	104	0	60	143084
2026-01-28 23:50:16.77	218.93	15.94	-58.8	-71.8	3.5	1.52e+00	0	47	104	0	60	148506
2026-01-28 23:50:17.78	218.90	15.83	-58.8	-72.4	3.5	1.52e+00	0	47	104	0	60	158380
2026-01-28 23:50:18.78	218.88	15.72	-58.7	-71.9	3.5	1.52e+00	0	47	104	0	60	149553
2026-01-28 23:50:19.79	218.85	15.61	-58.7	-72.6	3.5	1.51e+00	0	47	104	0	60	162926
2026-01-28 23:50:20.79	218.83	15.50	-58.7	-72.0	3.5	1.52e+00	0	47	104	0	60	151742
2026-01-28 23:50:21.80	218.80	15.39	-59.0	-72.2	3.5	1.52e+00	0	47	104	0	60	154574
2026-01-28 23:50:22.81	218.78	15.29	-59.0	-71.6	3.5	1.51e+00	0	47	104	0	60	145348
2026-01-28 23:50:23.81	218.75	15.18	-58.9	-71.5	3.5	1.51e+00	0	47	104	0	60	142430
2026-01-28 23:50:24.82	218.73	15.07	-58.7	-72.4	3.5	1.52e+00	0	47	104	0	60	158261
2026-01-28 23:50:25.82	218.70	14.96	-58.7	-72.4	3.5	1.51e+00	0	47	104	0	60	158582
2026-01-28 23:50:26.83	218.68	14.86	-58.7	-72.4	3.5	1.52e+00	0	47	104	0	60	157944
2026-01-28 23:50:27.83	218.66	14.75	-58.8	-72.7	3.5	1.52e+00	0	47	104	0	60	164809
