passes_logs/2026/01/28/R3.2S-Naryan-Mar/R3.2S-Naryan-Mar__20260128_084308_SUOMI_NPP_rec.log

#Pass ID: 20260128_084308_SUOMI NPP
#Satellite: SUOMI NPP
#Configuration: NPP
#almurnet v.1.7.20240730
#Start time: 2026-01-28 08:43:11

#Version: 2.2.20231116
#Station: R3.2S-Naryan-Mar
#Location: 53.008057 lon 67.646978 lat
#TLE: 1 37849U 11061A   26027.86188320  .00000172  00000+0  10275-3 0  9990
#TLE: 2 37849  98.7823 329.8005 0002088  41.4184 318.7150 14.19530883738530

#Time	Az	El	Level	Level2	SNR	BER	BlckErr	Temp	State	Recorded	gain1	gain2
2026-01-28 08:43:11.22	161.36	0.17	-56.4	-59.8	3.4	0.00e+00	0	45	0	0	60	115813
2026-01-28 08:43:12.22	161.37	0.23	-60.8	-78.7	3.6	1.51e+00	0	47	104	0	60	337436
2026-01-28 08:43:13.23	161.38	0.29	-62.1	-79.0	3.6	1.51e+00	0	46	104	0	60	349149
2026-01-28 08:43:14.24	161.40	0.35	-62.4	-79.2	3.6	1.51e+00	0	47	104	0	60	356965
2026-01-28 08:43:15.25	161.41	0.41	-62.3	-79.2	3.6	1.51e+00	0	47	104	0	60	357986
2026-01-28 08:43:16.25	161.42	0.47	-62.3	-79.0	3.6	1.51e+00	0	47	104	0	60	348859
2026-01-28 08:43:17.26	161.43	0.53	-62.4	-79.0	3.6	1.51e+00	0	47	104	0	60	351020
2026-01-28 08:43:18.27	161.44	0.60	-61.0	-78.5	3.6	1.51e+00	0	47	104	0	60	331377
2026-01-28 08:43:19.27	161.46	0.66	-61.5	-78.3	3.6	1.51e+00	0	47	104	0	60	321317
2026-01-28 08:43:20.28	161.47	0.72	-61.2	-77.8	3.6	1.51e+00	0	47	104	0	60	304304
2026-01-28 08:43:21.29	161.48	0.78	-60.8	-77.6	3.6	1.51e+00	0	47	104	0	60	297105
2026-01-28 08:43:22.30	161.49	0.84	-60.3	-77.0	3.6	1.51e+00	0	47	104	0	60	277639
2026-01-28 08:43:23.30	161.51	0.90	-59.8	-76.5	3.6	1.51e+00	0	47	104	0	60	261994
2026-01-28 08:43:24.31	161.52	0.97	-57.2	-76.0	3.6	1.51e+00	0	47	104	0	60	247602
2026-01-28 08:43:25.31	161.53	1.03	-58.3	-75.5	3.6	1.51e+00	0	47	104	0	60	232816
2026-01-28 08:43:26.31	161.54	1.09	-57.5	-74.9	3.6	1.51e+00	0	47	104	0	60	217921
2026-01-28 08:43:27.32	161.56	1.15	-57.3	-74.8	3.6	1.51e+00	0	47	104	0	60	215929
2026-01-28 08:43:28.33	161.57	1.22	-57.3	-74.8	3.6	1.51e+00	0	47	104	0	60	214171
2026-01-28 08:43:29.34	161.58	1.28	-57.3	-74.6	3.6	1.51e+00	0	47	104	0	60	210037
2026-01-28 08:43:30.34	161.60	1.34	-57.1	-74.6	3.6	1.51e+00	0	47	104	0	60	209843
2026-01-28 08:43:31.35	161.61	1.41	-57.2	-74.5	3.6	1.51e+00	0	47	104	0	60	207783
2026-01-28 08:43:32.36	161.62	1.47	-57.1	-74.5	3.6	1.51e+00	0	47	104	0	60	207216
2026-01-28 08:43:33.37	161.63	1.53	-57.1	-74.5	3.6	1.51e+00	0	47	104	0	60	208041
2026-01-28 08:43:34.38	161.65	1.60	-57.0	-74.4	3.6	1.51e+00	0	47	104	0	60	204611
2026-01-28 08:43:35.39	161.66	1.66	-57.1	-74.4	3.6	1.51e+00	0	47	104	0	60	206438
2026-01-28 08:43:36.40	161.67	1.72	-56.9	-74.3	3.6	1.51e+00	0	47	104	0	60	203478
2026-01-28 08:43:37.40	161.69	1.79	-57.1	-74.4	3.6	1.51e+00	0	47	104	0	60	205748
2026-01-28 08:43:38.41	161.70	1.85	-57.0	-74.5	3.6	1.51e+00	0	47	104	0	60	207010
2026-01-28 08:43:39.41	161.71	1.91	-56.8	-74.5	3.6	1.51e+00	0	47	104	0	60	207065
2026-01-28 08:43:40.42	161.73	1.98	-56.9	-74.3	3.6	1.51e+00	0	47	104	0	60	204256
2026-01-28 08:43:41.43	161.74	2.04	-56.9	-74.3	3.6	1.51e+00	0	47	104	0	60	203079
2026-01-28 08:43:42.44	161.75	2.11	-56.9	-74.2	3.6	1.51e+00	0	47	104	0	60	201495
2026-01-28 08:43:43.44	161.77	2.17	-56.9	-74.2	3.6	1.51e+00	0	47	104	0	60	201522
2026-01-28 08:43:44.44	161.78	2.24	-56.8	-74.2	3.6	1.51e+00	0	47	104	0	60	201240
2026-01-28 08:43:45.44	161.79	2.30	-56.8	-74.2	3.6	1.51e+00	0	47	104	0	60	201657
2026-01-28 08:43:46.45	161.81	2.37	-56.8	-74.2	3.6	1.51e+00	0	47	104	0	60	201016
2026-01-28 08:43:47.45	161.82	2.43	-56.8	-74.1	3.6	1.51e+00	0	47	104	0	60	198935
2026-01-28 08:43:48.46	161.83	2.50	-56.3	-74.1	3.6	1.51e+00	0	47	104	0	60	198948
2026-01-28 08:43:49.47	161.85	2.56	-56.8	-74.0	3.6	1.51e+00	0	47	104	0	60	197150
2026-01-28 08:43:50.47	161.86	2.63	-56.6	-74.0	3.6	1.51e+00	0	47	104	0	60	196743
2026-01-28 08:43:51.48	161.87	2.70	-56.7	-74.1	3.6	1.51e+00	0	47	104	0	60	198181
2026-01-28 08:43:52.49	161.89	2.76	-56.7	-74.1	3.6	1.51e+00	0	47	104	0	60	198373
2026-01-28 08:43:53.50	161.90	2.83	-56.7	-74.0	3.6	1.51e+00	0	47	104	0	60	196367
2026-01-28 08:43:54.50	161.91	2.89	-56.6	-74.1	3.6	1.51e+00	0	47	104	0	60	199145
2026-01-28 08:43:55.51	161.93	2.96	-56.6	-74.1	3.6	1.51e+00	0	47	104	0	60	198894
2026-01-28 08:43:56.51	161.94	3.03	-56.7	-74.0	3.6	1.51e+00	0	47	104	0	60	197388
2026-01-28 08:43:57.51	161.96	3.09	-56.7	-73.9	3.5	1.51e+00	0	47	104	0	60	193489
2026-01-28 08:43:58.52	161.97	3.16	-56.7	-74.0	3.6	1.51e+00	0	47	104	0	60	196693
2026-01-28 08:43:59.53	161.98	3.23	-56.7	-73.9	3.6	1.51e+00	0	47	104	0	60	195223
2026-01-28 08:44:00.53	162.00	3.30	-56.4	-73.9	3.6	1.51e+00	0	47	104	0	60	194629
2026-01-28 08:44:01.54	162.01	3.36	-56.7	-73.9	3.6	1.51e+00	0	47	104	0	60	193917
2026-01-28 08:44:02.54	162.03	3.43	-56.7	-73.9	3.6	1.51e+00	0	47	104	0	60	194828
2026-01-28 08:44:03.55	162.04	3.50	-56.7	-73.8	3.6	1.51e+00	0	47	104	0	60	192959
2026-01-28 08:44:04.55	162.06	3.57	-56.7	-73.9	3.6	1.51e+00	0	47	104	0	60	194594
2026-01-28 08:44:05.56	162.07	3.63	-56.7	-73.9	3.6	1.51e+00	0	47	104	0	60	194527
2026-01-28 08:44:06.57	162.08	3.70	-55.3	-73.9	3.6	1.51e+00	0	47	104	0	60	194921
2026-01-28 08:44:07.58	162.10	3.77	-56.6	-74.0	3.6	1.51e+00	0	47	104	0	60	195258
2026-01-28 08:44:08.58	162.11	3.84	-56.6	-73.9	3.6	1.51e+00	0	47	104	0	60	193819
2026-01-28 08:44:09.59	162.13	3.91	-56.6	-73.7	3.6	1.51e+00	0	47	104	0	60	189786
2026-01-28 08:44:10.59	162.14	3.98	-56.7	-73.5	3.6	1.51e+00	0	47	104	0	60	185514
2026-01-28 08:44:11.60	162.16	4.05	-56.6	-73.4	3.6	1.51e+00	0	47	104	0	60	183505
2026-01-28 08:44:12.61	162.17	4.12	-56.6	-73.3	3.6	1.51e+00	0	47	104	0	60	180433
2026-01-28 08:44:13.62	162.19	4.19	-56.6	-73.3	3.6	1.51e+00	0	47	104	0	60	181002
2026-01-28 08:44:14.62	162.20	4.26	-56.6	-73.3	3.6	1.51e+00	0	47	104	0	60	180384
2026-01-28 08:44:15.63	162.22	4.33	-56.4	-73.4	3.6	1.51e+00	0	47	104	0	60	183284
2026-01-28 08:44:16.64	162.23	4.40	-56.6	-73.3	3.6	1.51e+00	0	47	104	0	60	180528
2026-01-28 08:44:17.65	162.25	4.47	-56.5	-72.7	3.6	1.51e+00	0	47	104	0	60	168180
2026-01-28 08:44:18.66	162.26	4.54	-56.2	-71.5	3.8	1.51e+00	0	47	104	0	60	147129
2026-01-28 08:44:19.66	162.28	4.61	-56.4	-68.8	4.1	1.40e+00	0	47	0	0	60	107758
2026-01-28 08:44:20.67	162.29	4.68	-56.3	-66.8	5.1	7.09e-01	0	47	0	2097152	60	86018
2026-01-28 08:44:21.68	162.31	4.75	-56.1	-65.2	6.8	2.94e-01	0	47	0	3145728	60	71235
2026-01-28 08:44:22.69	162.32	4.82	-55.9	-63.7	8.5	1.06e-01	0	47	0	5242880	60	60136
2026-01-28 08:44:23.70	162.34	4.89	-55.5	-62.5	10.0	1.63e-02	0	47	0	7340032	60	52261
2026-01-28 08:44:24.71	162.35	4.97	-55.1	-61.5	11.0	3.65e-03	0	47	0	9437184	60	46801
2026-01-28 08:44:25.71	162.37	5.04	-54.9	-60.6	12.1	7.93e-04	0	47	0	11534336	60	41889
2026-01-28 08:44:26.72	162.38	5.11	-54.8	-59.8	13.1	2.88e-04	0	47	0	12582912	60	38120
2026-01-28 08:44:27.73	162.40	5.18	-54.6	-59.1	13.7	4.81e-04	0	47	0	14680064	60	35456
2026-01-28 08:44:28.74	162.42	5.25	-54.3	-58.6	14.2	1.71e-04	0	47	0	16777216	60	33432
2026-01-28 08:44:29.75	162.43	5.33	-54.2	-58.3	14.6	4.50e-06	0	47	0	18874368	60	32065
2026-01-28 08:44:30.75	162.45	5.40	-53.7	-58.1	14.7	3.49e-04	0	47	0	20971520	60	31559
2026-01-28 08:44:31.76	162.46	5.47	-54.1	-58.3	14.6	5.18e-05	0	47	0	23068672	60	32075
2026-01-28 08:44:32.77	162.48	5.55	-54.3	-58.5	14.3	6.10e-06	0	47	0	24117248	60	32784
2026-01-28 08:44:33.78	162.49	5.62	-54.3	-58.9	13.9	7.40e-05	0	47	0	26214400	60	34485
2026-01-28 08:44:34.78	162.51	5.69	-54.6	-59.4	13.3	2.36e-05	0	47	0	28311552	60	36491
2026-01-28 08:44:35.79	162.53	5.77	-54.7	-60.0	12.7	9.35e-04	0	47	0	30408704	60	39382
2026-01-28 08:44:36.79	162.54	5.84	-55.1	-60.9	11.7	5.22e-04	0	47	0	31457280	60	43312
2026-01-28 08:44:37.80	162.56	5.92	-55.4	-62.0	10.6	1.91e-03	0	47	0	33554432	60	49044
2026-01-28 08:44:38.81	162.58	5.99	-55.7	-63.2	9.1	8.19e-03	0	47	0	35651584	60	56578
2026-01-28 08:44:39.81	162.59	6.06	-56.3	-72.3	3.6	5.26e-01	0	47	104	37748736	60	162041
2026-01-28 08:44:40.81	162.61	6.14	-56.2	-71.5	4.7	1.51e+00	0	47	104	37748736	60	146864
2026-01-28 08:44:41.82	162.62	6.21	-55.8	-69.5	3.5	5.54e-04	0	47	0	37748736	60	116328
2026-01-28 08:44:42.83	162.64	6.29	-56.0	-72.3	3.6	1.51e+00	0	47	104	37748736	60	161834
2026-01-28 08:44:43.84	162.66	6.37	-53.9	-58.0	13.0	3.73e-01	0	47	0	37748736	60	31159
2026-01-28 08:44:44.84	162.67	6.44	-54.6	-60.1	12.9	1.09e-02	0	47	0	2097152	60	39427
2026-01-28 08:44:45.85	162.69	6.52	-54.0	-58.3	14.4	1.75e-05	0	47	0	3145728	60	32362
2026-01-28 08:44:46.85	162.71	6.59	-53.8	-58.0	14.6	6.33e-05	0	47	0	5242880	60	31188
2026-01-28 08:44:47.86	162.73	6.67	-53.0	-57.6	15.0	4.10e-04	0	47	0	7340032	60	29591
2026-01-28 08:44:48.87	162.74	6.75	-53.3	-57.2	15.6	3.32e-04	0	47	0	9437184	60	28408
2026-01-28 08:44:49.87	162.76	6.82	-53.5	-57.3	15.4	9.00e-05	0	47	0	10485760	60	28841
2026-01-28 08:44:50.88	162.78	6.90	-53.6	-57.6	15.3	3.80e-04	0	47	0	12582912	60	29803
2026-01-28 08:44:51.88	162.79	6.98	-53.5	-57.3	15.6	1.01e-04	0	47	0	14680064	60	28671
2026-01-28 08:44:52.89	162.81	7.05	-53.4	-57.1	15.9	2.89e-04	0	47	0	16777216	60	28005
2026-01-28 08:44:53.90	162.83	7.13	-53.3	-57.0	15.9	9.64e-04	0	47	0	18874368	60	27667
2026-01-28 08:44:54.90	162.85	7.21	-53.1	-56.6	16.4	4.39e-04	0	47	0	19922944	60	26559
2026-01-28 08:44:55.91	162.86	7.29	-53.2	-56.6	16.2	1.56e-04	0	47	0	22020096	60	26465
2026-01-28 08:44:56.91	162.88	7.37	-53.4	-56.7	16.2	5.42e-04	0	47	0	24117248	60	26804
2026-01-28 08:44:57.92	162.90	7.45	-53.3	-56.6	16.2	6.10e-06	0	47	0	26214400	60	26515
2026-01-28 08:44:58.93	162.92	7.52	-53.5	-56.8	16.1	4.87e-04	0	47	0	28311552	60	27124
2026-01-28 08:44:59.94	162.93	7.60	-52.9	-56.3	16.6	9.82e-04	0	47	0	30408704	60	25524
2026-01-28 08:45:00.93	162.95	7.68	-53.1	-56.2	16.7	1.10e-04	0	47	0	31457280	60	25220
2026-01-28 08:45:01.93	162.97	7.76	-53.2	-56.3	16.7	7.40e-05	0	47	0	33554432	60	25625
2026-01-28 08:45:02.94	162.99	7.84	-52.9	-56.2	16.7	6.07e-04	0	47	0	35651584	60	25401
2026-01-28 08:45:03.94	163.01	7.92	-53.4	-56.4	16.5	3.42e-04	0	47	0	37748736	60	25954
2026-01-28 08:45:04.95	163.02	8.00	-52.7	-56.1	16.8	4.30e-04	0	47	0	38797312	60	25124
2026-01-28 08:45:05.95	163.04	8.08	-53.0	-56.1	16.9	3.07e-04	0	47	0	40894464	60	25020
2026-01-28 08:45:06.96	163.06	8.16	-53.1	-56.1	16.9	2.96e-04	0	47	0	42991616	60	24973
2026-01-28 08:45:07.96	163.08	8.24	-52.7	-56.0	16.9	2.19e-04	0	47	0	45088768	60	24719
2026-01-28 08:45:08.97	163.10	8.33	-53.0	-56.0	16.9	2.08e-04	0	47	0	47185920	60	24848
2026-01-28 08:45:09.97	163.12	8.41	-52.8	-56.0	17.0	7.68e-04	0	47	0	48234496	60	24823
2026-01-28 08:45:10.97	163.13	8.49	-52.5	-55.8	17.3	5.26e-04	0	47	0	50331648	60	24098
2026-01-28 08:45:11.98	163.15	8.57	-53.0	-55.6	17.4	4.27e-04	0	47	0	52428800	60	23589
2026-01-28 08:45:12.99	163.17	8.65	-52.8	-55.3	17.7	2.12e-04	0	47	0	54525952	60	22844
2026-01-28 08:45:13.99	163.19	8.74	-52.8	-55.2	17.8	5.13e-04	0	47	0	56623104	60	22547
2026-01-28 08:45:15.00	163.21	8.82	-52.8	-55.3	17.7	4.50e-06	0	47	0	57671680	60	22791
2026-01-28 08:45:16.00	163.23	8.90	-52.7	-55.2	17.9	2.61e-04	0	47	0	59768832	60	22436
2026-01-28 08:45:17.00	163.25	8.99	-52.8	-55.2	17.9	5.30e-06	0	47	0	61865984	60	22594
2026-01-28 08:45:18.01	163.27	9.07	-52.9	-55.3	17.9	2.26e-04	0	47	0	63963136	60	22734
2026-01-28 08:45:19.01	163.29	9.15	-52.6	-55.2	17.8	7.85e-05	0	47	0	65011712	60	22595
2026-01-28 08:45:20.02	163.31	9.24	-52.7	-55.1	18.0	1.22e-05	0	47	0	67108864	60	22181
2026-01-28 08:45:21.02	163.33	9.32	-52.8	-55.0	18.1	2.20e-06	0	47	0	69206016	60	21932
2026-01-28 08:45:22.03	163.35	9.41	-52.8	-55.0	18.1	6.17e-05	0	47	0	71303168	60	21944
2026-01-28 08:45:23.03	163.36	9.49	-52.8	-55.1	18.1	1.37e-05	0	47	0	73400320	60	22219
2026-01-28 08:45:24.04	163.38	9.58	-52.8	-54.9	18.2	3.42e-04	0	47	0	75497472	60	21870
2026-01-28 08:45:25.04	163.40	9.67	-52.7	-54.8	18.3	5.80e-04	0	47	0	76546048	60	21634
2026-01-28 08:45:26.04	163.42	9.75	-52.7	-54.8	18.4	2.78e-04	0	47	0	78643200	60	21526
2026-01-28 08:45:27.05	163.44	9.84	-52.4	-54.7	18.4	1.14e-05	0	47	0	80740352	60	21359
2026-01-28 08:45:28.05	163.46	9.92	-52.6	-54.7	18.4	5.74e-04	0	47	0	82837504	60	21376
2026-01-28 08:45:29.06	163.49	10.01	-52.6	-54.7	18.4	9.92e-04	0	47	0	84934656	60	21305
2026-01-28 08:45:30.06	163.51	10.10	-52.2	-54.7	18.4	1.02e-03	0	47	0	85983232	60	21306
2026-01-28 08:45:31.07	163.53	10.19	-52.4	-54.6	18.6	3.45e-04	0	47	0	88080384	60	21133
2026-01-28 08:45:32.07	163.55	10.27	-52.4	-54.6	18.6	3.43e-05	0	47	0	90177536	60	20991
2026-01-28 08:45:33.07	163.57	10.36	-51.9	-54.4	18.7	0.00e+00	0	47	0	92274688	60	20574
2026-01-28 08:45:34.08	163.59	10.45	-52.0	-54.4	18.7	1.02e-03	0	47	0	93323264	60	20481
2026-01-28 08:45:35.09	163.61	10.54	-51.9	-54.3	18.9	1.00e-03	0	47	0	95420416	60	20323
2026-01-28 08:45:36.09	163.63	10.63	-52.1	-54.4	18.8	1.02e-03	0	47	0	97517568	60	20623
2026-01-28 08:45:37.10	163.65	10.72	-51.8	-54.4	18.8	1.04e-03	0	47	0	99614720	60	20476
2026-01-28 08:45:38.11	163.67	10.81	-52.2	-54.3	18.9	4.76e-04	0	47	0	101711872	60	20238
2026-01-28 08:45:39.11	163.69	10.90	-52.2	-54.2	19.1	2.32e-04	0	47	0	102760448	60	20001
2026-01-28 08:45:40.11	163.72	10.99	-51.7	-54.1	19.0	1.02e-03	0	47	0	104857600	60	19933
2026-01-28 08:45:41.12	163.74	11.08	-51.9	-54.4	18.8	8.83e-04	0	47	0	106954752	60	20503
2026-01-28 08:45:42.12	163.76	11.17	-52.1	-54.2	19.0	1.03e-03	0	47	0	109051904	60	20178
2026-01-28 08:45:43.13	163.78	11.26	-52.2	-54.2	19.0	8.18e-04	0	47	0	111149056	60	20055
2026-01-28 08:45:44.14	163.80	11.36	-52.1	-54.0	19.0	0.00e+00	0	47	0	113246208	60	19724
2026-01-28 08:45:45.14	163.82	11.45	-52.1	-54.0	19.1	0.00e+00	0	47	0	114294784	60	19732
2026-01-28 08:45:46.15	163.85	11.54	-51.9	-53.9	19.2	1.50e-06	0	47	0	116391936	60	19305
2026-01-28 08:45:47.15	163.87	11.63	-51.6	-53.9	19.2	2.94e-04	0	47	0	118489088	60	19424
2026-01-28 08:45:48.16	163.89	11.73	-52.0	-53.9	19.4	8.46e-05	0	47	0	120586240	60	19450
2026-01-28 08:45:49.17	163.91	11.82	-52.0	-53.9	19.3	1.60e-05	0	47	0	121634816	60	19392
2026-01-28 08:45:50.18	163.94	11.92	-51.9	-53.7	19.6	0.00e+00	0	47	0	123731968	60	18931
2026-01-28 08:45:51.19	163.96	12.01	-51.9	-53.7	19.4	0.00e+00	0	47	0	125829120	60	19008
2026-01-28 08:45:52.19	163.98	12.10	-51.8	-53.5	19.7	7.00e-07	0	47	0	127926272	60	18511
2026-01-28 08:45:53.19	164.01	12.20	-51.9	-53.6	19.7	0.00e+00	0	47	0	130023424	60	18821
2026-01-28 08:45:54.20	164.03	12.29	-51.9	-53.6	19.7	0.00e+00	0	47	0	131072000	60	18708
2026-01-28 08:45:55.20	164.05	12.39	-51.8	-53.5	19.7	0.00e+00	0	47	0	133169152	60	18447
2026-01-28 08:45:56.21	164.08	12.49	-51.7	-53.4	19.9	0.00e+00	0	47	0	135266304	60	18357
2026-01-28 08:45:57.21	164.10	12.58	-51.8	-53.4	19.8	0.00e+00	0	47	0	137363456	60	18408
2026-01-28 08:45:58.22	164.12	12.68	-51.6	-53.3	20.0	0.00e+00	0	47	0	139460608	60	18036
2026-01-28 08:45:59.23	164.15	12.78	-51.8	-53.6	19.8	0.00e+00	0	47	0	140509184	60	18672
2026-01-28 08:46:00.23	164.17	12.88	-51.7	-53.4	20.0	0.00e+00	0	47	0	142606336	60	18244
2026-01-28 08:46:01.24	164.20	12.97	-51.6	-53.3	20.0	0.00e+00	0	47	0	144703488	60	18197
2026-01-28 08:46:02.24	164.22	13.07	-51.7	-53.4	19.8	0.00e+00	0	47	0	146800640	60	18407
2026-01-28 08:46:03.25	164.24	13.17	-51.6	-53.3	20.0	0.00e+00	0	47	0	148897792	60	18161
2026-01-28 08:46:04.25	164.27	13.27	-51.4	-53.1	20.2	0.00e+00	0	47	0	149946368	60	17703
2026-01-28 08:46:05.26	164.29	13.37	-51.4	-53.1	20.3	0.00e+00	0	47	0	152043520	60	17683
2026-01-28 08:46:06.26	164.32	13.47	-51.4	-53.1	20.2	0.00e+00	0	46	0	154140672	60	17672
2026-01-28 08:46:07.27	164.34	13.57	-51.3	-52.9	20.3	0.00e+00	0	47	0	156237824	60	17320
2026-01-28 08:46:08.27	164.37	13.67	-51.3	-53.0	20.4	0.00e+00	0	47	0	158334976	60	17425
2026-01-28 08:46:09.27	164.39	13.77	-51.4	-53.1	20.2	0.00e+00	0	47	0	159383552	60	17709
2026-01-28 08:46:10.28	164.42	13.87	-51.4	-53.1	20.1	0.00e+00	0	47	0	161480704	60	17803
2026-01-28 08:46:11.28	164.44	13.98	-51.2	-52.9	20.3	0.00e+00	0	47	0	163577856	60	17206
2026-01-28 08:46:12.29	164.47	14.08	-51.2	-52.8	20.5	0.00e+00	0	47	0	165675008	60	17161
2026-01-28 08:46:13.30	164.50	14.18	-51.2	-52.8	20.4	0.00e+00	0	47	0	167772160	60	17045
2026-01-28 08:46:14.31	164.52	14.29	-51.3	-53.0	20.4	0.00e+00	0	46	0	168820736	60	17418
2026-01-28 08:46:15.31	164.55	14.39	-51.3	-53.0	20.2	0.00e+00	0	46	0	170917888	60	17427
2026-01-28 08:46:16.32	164.57	14.50	-51.3	-53.0	20.3	0.00e+00	0	46	0	173015040	60	17409
2026-01-28 08:46:17.33	164.60	14.60	-51.3	-52.8	20.4	0.00e+00	0	47	0	175112192	60	17196
2026-01-28 08:46:18.34	164.63	14.71	-51.2	-52.7	20.6	0.00e+00	0	46	0	177209344	60	17002
2026-01-28 08:46:19.33	164.65	14.81	-51.4	-52.9	20.5	0.00e+00	0	47	0	179306496	60	17320
2026-01-28 08:46:20.34	164.68	14.92	-51.1	-52.6	20.7	0.00e+00	0	46	0	180355072	60	16700
2026-01-28 08:46:21.34	164.71	15.02	-51.2	-52.7	20.7	0.00e+00	0	46	0	182452224	60	16819
2026-01-28 08:46:22.35	164.73	15.13	-51.1	-52.5	20.7	0.00e+00	0	46	0	184549376	60	16590
2026-01-28 08:46:23.35	164.76	15.24	-51.1	-52.6	20.7	0.00e+00	0	46	0	186646528	60	16723
2026-01-28 08:46:24.35	164.79	15.35	-50.9	-52.4	20.9	0.00e+00	0	46	0	187695104	60	16283
2026-01-28 08:46:25.36	164.82	15.46	-51.1	-52.5	20.8	0.00e+00	0	46	0	189792256	60	16608
2026-01-28 08:46:26.37	164.85	15.56	-51.1	-52.6	20.8	0.00e+00	0	47	0	191889408	60	16631
2026-01-28 08:46:27.38	164.87	15.67	-51.2	-52.6	20.8	0.00e+00	0	46	0	193986560	60	16764
2026-01-28 08:46:28.38	164.90	15.78	-51.1	-52.5	20.9	0.00e+00	0	47	0	196083712	60	16514
2026-01-28 08:46:29.39	164.93	15.90	-51.0	-52.4	21.0	0.00e+00	0	47	0	197132288	60	16349
2026-01-28 08:46:30.39	164.96	16.01	-51.0	-52.4	21.1	0.00e+00	0	47	0	199229440	60	16296
2026-01-28 08:46:31.40	164.99	16.12	-51.1	-52.5	21.0	0.00e+00	0	47	0	201326592	60	16505
2026-01-28 08:46:32.40	165.02	16.23	-51.2	-52.6	20.9	0.00e+00	0	47	0	203423744	60	16695
2026-01-28 08:46:33.40	165.05	16.34	-51.0	-52.4	21.1	0.00e+00	0	46	0	205520896	60	16331
2026-01-28 08:46:34.41	165.08	16.45	-50.9	-52.2	21.2	0.00e+00	0	47	0	206569472	60	15974
2026-01-28 08:46:35.41	165.11	16.57	-51.0	-52.4	21.1	0.00e+00	0	47	0	208666624	60	16300
2026-01-28 08:46:36.41	165.14	16.68	-51.1	-52.5	21.1	0.00e+00	0	47	0	210763776	60	16454
2026-01-28 08:46:37.42	165.17	16.80	-51.1	-52.5	21.0	0.00e+00	0	47	0	212860928	60	16567
2026-01-28 08:46:38.43	165.20	16.91	-51.2	-52.5	20.9	0.00e+00	0	47	0	213909504	60	16612
2026-01-28 08:46:39.43	165.23	17.03	-51.2	-52.7	20.8	0.00e+00	0	47	0	216006656	60	16837
2026-01-28 08:46:40.43	165.26	17.14	-51.3	-52.7	20.9	0.00e+00	0	47	0	218103808	60	16908
2026-01-28 08:46:41.44	165.29	17.26	-51.3	-52.7	20.9	0.00e+00	0	47	0	220200960	60	17000
2026-01-28 08:46:42.45	165.32	17.38	-51.2	-52.7	20.9	0.00e+00	0	46	0	222298112	60	16832
2026-01-28 08:46:43.45	165.35	17.50	-51.4	-52.9	20.7	0.00e+00	0	47	0	224395264	60	17278
2026-01-28 08:46:44.46	165.38	17.61	-51.4	-52.8	20.7	0.00e+00	0	46	0	225443840	60	17168
2026-01-28 08:46:45.46	165.41	17.73	-51.5	-53.0	20.6	0.00e+00	0	47	0	227540992	60	17564
2026-01-28 08:46:46.47	165.45	17.85	-51.3	-52.8	20.8	0.00e+00	0	47	0	229638144	60	17016
2026-01-28 08:46:47.48	165.48	17.97	-51.4	-52.8	20.7	0.00e+00	0	47	0	231735296	60	17151
2026-01-28 08:46:48.49	165.51	18.10	-51.4	-52.9	20.7	0.00e+00	0	47	0	233832448	60	17331
2026-01-28 08:46:49.49	165.54	18.22	-51.5	-53.0	20.6	0.00e+00	0	47	0	234881024	60	17481
2026-01-28 08:46:50.50	165.58	18.34	-51.6	-53.1	20.4	0.00e+00	0	47	0	236978176	60	17798
2026-01-28 08:46:51.51	165.61	18.46	-51.5	-53.1	20.5	0.00e+00	0	47	0	239075328	60	17633
2026-01-28 08:46:52.51	165.64	18.58	-51.6	-53.2	20.4	0.00e+00	0	47	0	241172480	60	17854
2026-01-28 08:46:53.52	165.68	18.71	-51.7	-53.3	20.4	0.00e+00	0	47	0	242221056	60	18089
2026-01-28 08:46:54.53	165.71	18.83	-51.7	-53.3	20.4	0.00e+00	0	47	0	244318208	60	18094
2026-01-28 08:46:55.54	165.74	18.96	-51.7	-53.3	20.3	0.00e+00	0	46	0	246415360	60	18096
2026-01-28 08:46:56.55	165.78	19.09	-51.9	-53.4	20.3	0.00e+00	0	47	0	248512512	60	18413
2026-01-28 08:46:57.55	165.81	19.21	-51.9	-53.6	20.2	0.00e+00	0	47	0	250609664	60	18652
2026-01-28 08:46:58.56	165.85	19.34	-51.9	-53.5	20.2	0.00e+00	0	46	0	252706816	60	18615
2026-01-28 08:46:59.57	165.88	19.47	-51.8	-53.4	20.3	0.00e+00	0	46	0	253755392	60	18349
2026-01-28 08:47:00.57	165.92	19.59	-52.2	-53.8	20.0	0.00e+00	0	46	0	255852544	60	19300
2026-01-28 08:47:01.57	165.95	19.72	-52.3	-54.0	19.8	0.00e+00	0	46	0	257949696	60	19628
2026-01-28 08:47:02.58	165.99	19.85	-52.3	-54.0	19.8	0.00e+00	0	47	0	260046848	60	19537
2026-01-28 08:47:03.59	166.03	19.98	-52.4	-54.2	19.4	0.00e+00	0	47	0	262144000	60	20111
2026-01-28 08:47:04.59	166.06	20.11	-52.4	-54.1	19.7	0.00e+00	0	47	0	263192576	60	19884
2026-01-28 08:47:05.59	166.10	20.24	-52.5	-54.3	19.6	0.00e+00	0	47	0	265289728	60	20307
2026-01-28 08:47:06.59	166.14	20.38	-52.7	-54.6	19.1	0.00e+00	0	47	0	267386880	60	20926
2026-01-28 08:47:07.59	166.17	20.51	-52.7	-54.5	19.3	0.00e+00	0	46	0	269484032	60	20720
2026-01-28 08:47:08.59	166.21	20.64	-52.9	-54.7	19.3	0.00e+00	0	46	0	270532608	60	21251
2026-01-28 08:47:09.60	166.25	20.78	-52.8	-54.6	19.3	0.00e+00	0	46	0	272629760	60	21148
2026-01-28 08:47:10.60	166.29	20.91	-53.0	-54.8	19.2	0.00e+00	0	46	0	274726912	60	21621
2026-01-28 08:47:11.61	166.33	21.05	-52.9	-54.8	19.3	0.00e+00	0	47	0	276824064	60	21500
2026-01-28 08:47:12.62	166.36	21.18	-53.0	-54.9	19.3	0.00e+00	0	47	0	278921216	60	21718
2026-01-28 08:47:13.62	166.40	21.32	-52.8	-54.6	19.5	0.00e+00	0	47	0	279969792	60	21090
2026-01-28 08:47:14.63	166.44	21.46	-53.1	-54.9	19.4	0.00e+00	0	47	0	282066944	60	21857
2026-01-28 08:47:15.63	166.48	21.60	-52.9	-54.7	19.5	0.00e+00	0	47	0	284164096	60	21256
2026-01-28 08:47:16.63	166.52	21.74	-53.0	-54.8	19.3	0.00e+00	0	46	0	286261248	60	21533
2026-01-28 08:47:17.63	166.56	21.88	-53.0	-54.8	19.5	0.00e+00	0	46	0	288358400	60	21451
2026-01-28 08:47:18.64	166.60	22.02	-52.9	-54.7	19.5	0.00e+00	0	46	0	290455552	60	21262
2026-01-28 08:47:19.65	166.64	22.16	-53.0	-54.7	19.5	0.00e+00	0	46	0	291504128	60	21303
2026-01-28 08:47:20.65	166.69	22.30	-53.0	-54.8	19.6	0.00e+00	0	46	0	293601280	60	21417
2026-01-28 08:47:21.65	166.73	22.44	-53.1	-54.9	19.4	0.00e+00	0	46	0	295698432	60	21755
2026-01-28 08:47:22.65	166.77	22.59	-53.1	-54.9	19.3	0.00e+00	0	46	0	297795584	60	21809
2026-01-28 08:47:23.65	166.81	22.73	-53.3	-55.2	19.0	0.00e+00	0	47	0	298844160	60	22508
2026-01-28 08:47:24.65	166.85	22.88	-53.1	-54.9	19.2	0.00e+00	0	47	0	300941312	60	21883
2026-01-28 08:47:25.66	166.90	23.02	-53.0	-54.9	19.4	0.00e+00	0	47	0	303038464	60	21740
2026-01-28 08:47:26.65	166.94	23.17	-53.3	-55.2	19.2	0.00e+00	0	46	0	305135616	60	22584
2026-01-28 08:47:27.66	166.98	23.32	-53.1	-55.0	19.2	0.00e+00	0	46	0	307232768	60	21967
2026-01-28 08:47:28.66	167.03	23.47	-53.1	-54.9	19.4	0.00e+00	0	46	0	308281344	60	21866
2026-01-28 08:47:29.67	167.07	23.62	-53.1	-54.9	19.4	0.00e+00	0	47	0	310378496	60	21736
2026-01-28 08:47:30.67	167.12	23.77	-52.8	-54.6	19.6	0.00e+00	0	46	0	312475648	60	20935
2026-01-28 08:47:31.68	167.16	23.92	-53.2	-55.0	19.5	0.00e+00	0	46	0	314572800	60	22013
2026-01-28 08:47:32.69	167.21	24.07	-53.2	-55.1	19.4	0.00e+00	0	46	0	316669952	60	22257
2026-01-28 08:47:33.69	167.26	24.23	-53.1	-54.9	19.4	0.00e+00	0	46	0	317718528	60	21889
2026-01-28 08:47:34.70	167.30	24.38	-53.2	-55.1	19.4	0.00e+00	0	46	0	319815680	60	22213
2026-01-28 08:47:35.70	167.35	24.53	-53.2	-55.0	19.3	0.00e+00	0	46	0	321912832	60	22041
2026-01-28 08:47:36.71	167.40	24.69	-53.1	-54.8	19.5	0.00e+00	0	46	0	324009984	60	21648
2026-01-28 08:47:37.71	167.45	24.85	-53.2	-55.1	19.6	0.00e+00	0	46	0	326107136	60	22240
2026-01-28 08:47:38.72	167.49	25.01	-53.2	-55.0	19.7	0.00e+00	0	46	0	327155712	60	21947
2026-01-28 08:47:39.71	167.54	25.16	-52.9	-54.6	19.9	0.00e+00	0	46	0	329252864	60	21013
2026-01-28 08:47:40.72	167.59	25.32	-53.0	-54.7	19.8	0.00e+00	0	46	0	331350016	60	21322
2026-01-28 08:47:41.72	167.64	25.48	-53.1	-54.8	19.7	0.00e+00	0	46	0	333447168	60	21540
2026-01-28 08:47:42.72	167.69	25.64	-52.8	-54.5	19.8	0.00e+00	0	46	0	334495744	60	20790
2026-01-28 08:47:43.73	167.74	25.81	-52.8	-54.4	20.0	0.00e+00	0	46	0	336592896	60	20597
2026-01-28 08:47:44.73	167.79	25.97	-53.0	-54.6	19.8	0.00e+00	0	46	0	338690048	60	21118
2026-01-28 08:47:45.74	167.85	26.14	-53.1	-54.8	19.7	0.00e+00	0	46	0	340787200	60	21482
2026-01-28 08:47:46.74	167.90	26.30	-53.2	-54.9	19.6	0.00e+00	0	46	0	342884352	60	21847
2026-01-28 08:47:47.75	167.95	26.47	-53.1	-54.8	19.7	0.00e+00	0	46	0	344981504	60	21643
2026-01-28 08:47:48.75	168.00	26.63	-53.1	-54.9	19.7	0.00e+00	0	46	0	346030080	60	21730
2026-01-28 08:47:49.76	168.06	26.80	-53.2	-54.9	19.6	0.00e+00	0	46	0	348127232	60	21879
2026-01-28 08:47:50.76	168.11	26.97	-53.2	-54.9	19.6	0.00e+00	0	46	0	350224384	60	21895
2026-01-28 08:47:51.77	168.17	27.14	-53.5	-55.3	19.4	0.00e+00	0	46	0	352321536	60	22803
2026-01-28 08:47:52.77	168.22	27.31	-53.1	-54.8	19.8	0.00e+00	0	46	0	354418688	60	21463
2026-01-28 08:47:53.78	168.28	27.49	-53.2	-54.9	19.8	0.00e+00	0	46	0	355467264	60	21756
2026-01-28 08:47:54.77	168.33	27.66	-53.1	-54.7	19.9	0.00e+00	0	46	0	357564416	60	21309
2026-01-28 08:47:55.78	168.39	27.83	-53.0	-54.7	20.0	0.00e+00	0	46	0	359661568	60	21231
2026-01-28 08:47:56.79	168.45	28.01	-52.9	-54.5	20.1	0.00e+00	0	46	0	361758720	60	20741
2026-01-28 08:47:57.80	168.51	28.19	-53.1	-54.7	20.0	0.00e+00	0	46	0	362807296	60	21288
2026-01-28 08:47:58.80	168.57	28.37	-53.2	-54.9	19.8	0.00e+00	0	46	0	364904448	60	21842
2026-01-28 08:47:59.80	168.63	28.55	-53.1	-54.8	19.8	0.00e+00	0	46	0	367001600	60	21487
2026-01-28 08:48:00.81	168.69	28.73	-53.4	-55.2	19.5	0.00e+00	0	46	0	369098752	60	22561
2026-01-28 08:48:01.81	168.75	28.91	-53.7	-55.5	19.2	0.00e+00	0	46	0	371195904	60	23424
2026-01-28 08:48:02.82	168.81	29.09	-53.6	-55.4	19.4	0.00e+00	0	46	0	372244480	60	23071
2026-01-28 08:48:03.82	168.87	29.27	-54.1	-56.0	18.9	0.00e+00	0	46	0	374341632	60	24862
2026-01-28 08:48:04.83	168.93	29.46	-54.3	-56.4	18.6	0.00e+00	0	47	0	376438784	60	25758
2026-01-28 08:48:05.83	169.00	29.65	-54.1	-56.1	18.9	0.00e+00	0	46	0	378535936	60	24953
2026-01-28 08:48:06.84	169.06	29.83	-54.3	-56.3	18.7	0.00e+00	0	46	0	380633088	60	25725
2026-01-28 08:48:07.85	169.13	30.02	-54.2	-56.2	18.9	0.00e+00	0	46	0	382730240	60	25213
2026-01-28 08:48:08.85	169.19	30.21	-54.5	-56.6	18.5	0.00e+00	0	46	0	383778816	60	26582
2026-01-28 08:48:09.85	169.26	30.40	-54.5	-56.6	18.3	0.00e+00	0	46	0	385875968	60	26541
2026-01-28 08:48:10.86	169.33	30.60	-54.6	-56.7	18.4	0.00e+00	0	46	0	387973120	60	26811
2026-01-28 08:48:11.86	169.39	30.79	-54.7	-56.8	18.2	0.00e+00	0	46	0	390070272	60	27110
2026-01-28 08:48:12.87	169.46	30.98	-55.0	-57.4	17.9	0.00e+00	0	46	0	391118848	60	28940
2026-01-28 08:48:13.87	169.53	31.18	-55.2	-57.6	17.6	0.00e+00	0	46	0	393216000	60	29872
2026-01-28 08:48:14.88	169.60	31.38	-55.2	-57.5	17.6	0.00e+00	0	46	0	395313152	60	29476
2026-01-28 08:48:15.88	169.67	31.57	-55.2	-57.7	17.3	0.00e+00	0	47	0	397410304	60	30020
2026-01-28 08:48:16.88	169.74	31.77	-55.2	-57.6	17.6	0.00e+00	0	46	0	399507456	60	29598
2026-01-28 08:48:17.89	169.82	31.98	-55.1	-57.4	17.7	0.00e+00	0	46	0	400556032	60	29176
2026-01-28 08:48:18.90	169.89	32.18	-55.7	-58.3	16.8	0.00e+00	0	46	0	402653184	60	32397
2026-01-28 08:48:19.90	169.96	32.38	-55.3	-57.7	17.4	0.00e+00	0	46	0	404750336	60	30103
2026-01-28 08:48:20.91	170.04	32.59	-55.1	-57.4	17.8	0.00e+00	0	46	0	406847488	60	28903
2026-01-28 08:48:21.92	170.12	32.80	-55.3	-57.6	17.6	0.00e+00	0	47	0	408944640	60	29880
2026-01-28 08:48:22.93	170.19	33.01	-55.1	-57.3	17.9	0.00e+00	0	46	0	409993216	60	28737
2026-01-28 08:48:23.93	170.27	33.21	-55.5	-57.8	17.5	0.00e+00	0	47	0	412090368	60	30492
2026-01-28 08:48:24.94	170.35	33.43	-55.2	-57.4	17.9	0.00e+00	0	46	0	414187520	60	29002
2026-01-28 08:48:25.94	170.43	33.64	-55.0	-57.1	18.1	0.00e+00	0	46	0	416284672	60	28141
2026-01-28 08:48:26.94	170.51	33.85	-54.8	-56.9	18.4	0.00e+00	0	46	0	418381824	60	27493
2026-01-28 08:48:27.95	170.59	34.07	-54.7	-56.7	18.7	0.00e+00	0	46	0	419430400	60	26869
2026-01-28 08:48:28.96	170.68	34.28	-54.7	-56.7	18.6	0.00e+00	0	46	0	421527552	60	26810
2026-01-28 08:48:29.96	170.76	34.50	-54.6	-56.5	18.7	0.00e+00	0	46	0	423624704	60	26100
2026-01-28 08:48:30.97	170.85	34.72	-54.8	-56.9	18.4	0.00e+00	0	46	0	425721856	60	27374
2026-01-28 08:48:31.98	170.93	34.94	-54.8	-56.8	18.9	0.00e+00	0	46	0	427819008	60	27107
2026-01-28 08:48:32.98	171.02	35.16	-54.6	-56.6	19.1	0.00e+00	0	46	0	428867584	60	26509
2026-01-28 08:48:33.99	171.11	35.39	-54.7	-56.7	18.8	0.00e+00	0	46	0	430964736	60	26750
2026-01-28 08:48:34.99	171.20	35.61	-54.5	-56.4	19.1	0.00e+00	0	46	0	433061888	60	25945
2026-01-28 08:48:35.99	171.29	35.84	-54.6	-56.6	18.7	0.00e+00	0	46	0	435159040	60	26400
2026-01-28 08:48:37.00	171.38	36.07	-54.7	-56.6	18.8	0.00e+00	0	46	0	437256192	60	26510
2026-01-28 08:48:38.00	171.47	36.30	-54.9	-57.0	18.8	0.00e+00	0	46	0	438304768	60	27650
2026-01-28 08:48:39.01	171.57	36.53	-55.0	-57.1	18.4	0.00e+00	0	46	0	440401920	60	27946
2026-01-28 08:48:40.00	171.66	36.76	-55.1	-57.3	18.2	0.00e+00	0	46	0	442499072	60	28589
2026-01-28 08:48:41.01	171.76	37.00	-55.5	-57.8	17.9	0.00e+00	0	46	0	444596224	60	30257
2026-01-28 08:48:42.01	171.86	37.23	-55.4	-57.6	18.0	0.00e+00	0	46	0	445644800	60	29802
2026-01-28 08:48:43.02	171.96	37.47	-55.9	-58.4	17.2	0.00e+00	0	46	0	447741952	60	32648
2026-01-28 08:48:44.02	172.06	37.71	-55.3	-57.5	18.2	0.00e+00	0	46	0	449839104	60	29410
2026-01-28 08:48:45.03	172.16	37.95	-55.2	-57.4	18.2	0.00e+00	0	46	0	451936256	60	28960
2026-01-28 08:48:46.03	172.27	38.19	-55.1	-57.2	18.5	0.00e+00	0	47	0	454033408	60	28229
2026-01-28 08:48:47.03	172.37	38.44	-55.1	-57.2	18.6	0.00e+00	0	46	0	456130560	60	28351
2026-01-28 08:48:48.04	172.48	38.68	-55.0	-57.1	18.7	0.00e+00	0	47	0	457179136	60	28013
2026-01-28 08:48:49.05	172.59	38.93	-55.0	-57.1	18.7	0.00e+00	0	46	0	459276288	60	27998
2026-01-28 08:48:50.05	172.70	39.18	-54.9	-56.9	18.9	0.00e+00	0	46	0	461373440	60	27324
2026-01-28 08:48:51.06	172.81	39.43	-54.4	-56.2	19.4	0.00e+00	0	46	0	463470592	60	25335
2026-01-28 08:48:52.06	172.93	39.69	-54.4	-56.3	19.4	0.00e+00	0	46	0	465567744	60	25445
2026-01-28 08:48:53.07	173.04	39.94	-54.6	-56.5	19.2	0.00e+00	0	46	0	466616320	60	26165
2026-01-28 08:48:54.07	173.16	40.20	-54.6	-56.5	19.1	0.00e+00	0	46	0	468713472	60	26119
2026-01-28 08:48:55.07	173.28	40.45	-55.1	-57.2	18.5	0.00e+00	0	47	0	470810624	60	28344
2026-01-28 08:48:56.07	173.40	40.71	-55.3	-57.6	18.3	0.00e+00	0	46	0	472907776	60	29736
2026-01-28 08:48:57.07	173.52	40.97	-55.7	-58.2	17.5	0.00e+00	0	46	0	473956352	60	31705
2026-01-28 08:48:58.07	173.65	41.24	-56.0	-58.6	17.2	0.00e+00	0	46	0	476053504	60	33374
2026-01-28 08:48:59.08	173.77	41.50	-56.0	-58.7	16.9	0.00e+00	0	46	0	478150656	60	33703
2026-01-28 08:49:00.08	173.90	41.77	-56.3	-59.0	16.9	0.00e+00	0	46	0	480247808	60	34964
2026-01-28 08:49:01.09	174.03	42.04	-56.3	-59.0	17.3	0.00e+00	0	46	0	482344960	60	34772
2026-01-28 08:49:02.10	174.17	42.31	-56.3	-59.0	17.4	0.00e+00	0	46	0	483393536	60	34754
2026-01-28 08:49:03.10	174.30	42.58	-55.8	-58.3	17.8	0.00e+00	0	46	0	485490688	60	32051
2026-01-28 08:49:04.10	174.44	42.85	-55.3	-57.5	18.6	0.00e+00	0	46	0	487587840	60	29269
2026-01-28 08:49:05.11	174.58	43.13	-54.8	-56.7	19.1	0.00e+00	0	46	0	489684992	60	26765
2026-01-28 08:49:06.11	174.72	43.41	-55.2	-57.2	18.8	0.00e+00	0	46	0	491782144	60	28458
2026-01-28 08:49:07.12	174.87	43.69	-54.4	-56.1	19.7	0.00e+00	0	46	0	492830720	60	25073
2026-01-28 08:49:08.12	175.01	43.97	-54.6	-56.3	19.4	0.00e+00	0	46	0	494927872	60	25736
2026-01-28 08:49:09.13	175.16	44.25	-54.9	-56.9	18.9	0.00e+00	0	46	0	497025024	60	27360
2026-01-28 08:49:10.13	175.32	44.54	-55.1	-57.1	18.7	0.00e+00	0	46	0	499122176	60	27932
2026-01-28 08:49:11.13	175.47	44.82	-55.5	-57.7	18.3	0.00e+00	0	46	0	501219328	60	29941
2026-01-28 08:49:12.14	175.63	45.11	-55.5	-57.7	18.1	0.00e+00	0	46	0	502267904	60	30136
2026-01-28 08:49:13.15	175.79	45.41	-56.0	-58.5	17.4	0.00e+00	0	46	0	504365056	60	33123
2026-01-28 08:49:14.15	175.95	45.70	-56.1	-58.6	17.5	0.00e+00	0	46	0	506462208	60	33223
2026-01-28 08:49:15.15	176.12	45.99	-56.6	-59.4	16.6	0.00e+00	0	46	0	508559360	60	36666
2026-01-28 08:49:16.15	176.29	46.29	-56.2	-58.6	17.4	0.00e+00	0	46	0	510656512	60	33470
2026-01-28 08:49:17.15	176.46	46.58	-56.0	-58.5	17.9	0.00e+00	0	46	0	511705088	60	32828
2026-01-28 08:49:18.15	176.63	46.88	-55.8	-58.1	18.0	0.00e+00	0	46	0	513802240	60	31654
2026-01-28 08:49:19.15	176.81	47.18	-56.1	-58.6	17.7	0.00e+00	0	46	0	515899392	60	33231
2026-01-28 08:49:20.14	176.99	47.48	-56.0	-58.6	17.4	0.00e+00	0	46	0	517996544	60	33327
2026-01-28 08:49:21.15	177.18	47.79	-56.0	-58.5	17.6	0.00e+00	0	46	0	520093696	60	32861
2026-01-28 08:49:22.15	177.37	48.10	-56.6	-59.5	16.7	0.00e+00	0	46	0	521142272	60	36981
2026-01-28 08:49:23.15	177.56	48.40	-55.8	-58.2	17.8	0.00e+00	0	46	0	523239424	60	31961
2026-01-28 08:49:24.15	177.76	48.71	-55.6	-57.9	18.1	0.00e+00	0	46	0	525336576	60	30753
2026-01-28 08:49:25.16	177.96	49.03	-55.3	-57.5	18.5	0.00e+00	0	46	0	527433728	60	29318
2026-01-28 08:49:26.16	178.16	49.34	-54.5	-56.3	19.6	0.00e+00	0	46	0	529530880	60	25580
2026-01-28 08:49:27.15	178.37	49.65	-54.4	-56.3	19.8	0.00e+00	0	46	0	530579456	60	25469
2026-01-28 08:49:28.16	178.58	49.98	-53.9	-55.6	20.1	0.00e+00	0	46	0	532676608	60	23631
2026-01-28 08:49:29.16	178.80	50.29	-53.9	-55.5	20.6	0.00e+00	0	46	0	534773760	60	23376
2026-01-28 08:49:30.17	179.03	50.62	-53.6	-55.2	20.6	0.00e+00	0	46	0	536870912	60	22560
2026-01-28 08:49:31.17	179.25	50.94	-53.6	-55.1	20.8	0.00e+00	0	46	0	537919488	60	22198
2026-01-28 08:49:32.18	179.49	51.27	-53.5	-55.0	20.8	0.00e+00	0	46	0	540016640	60	22070
2026-01-28 08:49:33.18	179.72	51.60	-53.5	-55.0	21.0	0.00e+00	0	46	0	542113792	60	22059
2026-01-28 08:49:34.18	179.96	51.92	-52.7	-54.0	21.9	0.00e+00	0	46	0	544210944	60	19614
2026-01-28 08:49:35.18	180.21	52.25	-52.6	-53.9	21.8	0.00e+00	0	46	0	546308096	60	19331
2026-01-28 08:49:36.18	180.46	52.58	-52.1	-53.3	22.4	0.00e+00	0	46	0	547356672	60	18148
2026-01-28 08:49:37.18	180.72	52.92	-52.0	-53.2	22.5	0.00e+00	0	46	0	549453824	60	17858
2026-01-28 08:49:38.19	180.99	53.26	-51.9	-53.1	22.5	0.00e+00	0	46	0	551550976	60	17603
2026-01-28 08:49:39.19	181.26	53.59	-52.1	-53.3	22.4	0.00e+00	0	46	0	553648128	60	18090
2026-01-28 08:49:40.19	181.53	53.93	-51.8	-52.9	22.6	0.00e+00	0	46	0	555745280	60	17347
2026-01-28 08:49:41.19	181.82	54.27	-51.5	-52.6	22.8	0.00e+00	0	46	0	556793856	60	16807
2026-01-28 08:49:42.19	182.10	54.61	-51.4	-52.5	23.0	0.00e+00	0	46	0	558891008	60	16431
2026-01-28 08:49:43.19	182.40	54.95	-51.4	-52.5	22.9	0.00e+00	0	46	0	560988160	60	16434
2026-01-28 08:49:44.19	182.70	55.30	-51.1	-52.2	23.0	0.00e+00	0	46	0	563085312	60	15948
2026-01-28 08:49:45.19	183.01	55.64	-50.9	-51.9	23.3	0.00e+00	0	47	0	565182464	60	15493
2026-01-28 08:49:46.19	183.33	55.99	-51.1	-52.2	23.1	0.00e+00	0	46	0	566231040	60	16002
2026-01-28 08:49:47.19	183.66	56.34	-50.9	-52.0	23.2	0.00e+00	0	47	0	568328192	60	15598
2026-01-28 08:49:48.19	183.99	56.69	-50.8	-51.9	23.3	0.00e+00	0	46	0	570425344	60	15347
2026-01-28 08:49:49.20	184.34	57.04	-51.1	-52.1	23.1	0.00e+00	0	46	0	572522496	60	15843
2026-01-28 08:49:50.20	184.69	57.39	-51.0	-52.1	23.2	0.00e+00	0	46	0	573571072	60	15760
2026-01-28 08:49:51.20	185.05	57.75	-50.9	-51.9	23.3	0.00e+00	0	46	0	575668224	60	15436
2026-01-28 08:49:52.20	185.42	58.10	-50.7	-51.7	23.4	0.00e+00	0	46	0	577765376	60	15037
2026-01-28 08:49:53.20	185.80	58.46	-50.6	-51.6	23.4	0.00e+00	0	46	0	579862528	60	14965
2026-01-28 08:49:54.21	186.20	58.82	-51.3	-52.4	22.9	0.00e+00	0	46	0	581959680	60	16258
2026-01-28 08:49:55.21	186.60	59.17	-52.0	-53.3	21.9	0.00e+00	0	46	0	583008256	60	18097
2026-01-28 08:49:56.21	187.01	59.53	-53.2	-54.7	21.2	0.00e+00	0	46	0	585105408	60	21315
2026-01-28 08:49:57.20	187.43	59.89	-52.8	-54.2	21.5	0.00e+00	0	46	0	587202560	60	20001
2026-01-28 08:49:58.21	187.87	60.25	-51.7	-52.8	22.6	0.00e+00	0	46	0	589299712	60	17196
2026-01-28 08:49:59.20	188.31	60.60	-51.2	-52.3	23.1	0.00e+00	0	46	0	591396864	60	16119
2026-01-28 08:50:00.21	188.78	60.97	-51.2	-52.3	23.1	0.00e+00	0	46	0	592445440	60	16205
2026-01-28 08:50:01.21	189.25	61.33	-51.3	-52.4	22.8	0.00e+00	0	46	0	594542592	60	16295
2026-01-28 08:50:02.21	189.74	61.69	-51.3	-52.5	22.9	0.00e+00	0	46	0	596639744	60	16449
2026-01-28 08:50:03.22	190.25	62.05	-51.1	-52.2	23.1	0.00e+00	0	46	0	598736896	60	15999
2026-01-28 08:50:04.22	190.76	62.41	-51.1	-52.2	23.1	0.00e+00	0	46	0	599785472	60	15934
2026-01-28 08:50:05.22	191.29	62.78	-51.3	-52.4	22.8	0.00e+00	0	46	0	601882624	60	16418
2026-01-28 08:50:06.22	191.84	63.14	-51.3	-52.4	22.8	0.00e+00	0	46	0	603979776	60	16413
2026-01-28 08:50:07.22	192.41	63.50	-51.8	-53.1	22.3	0.00e+00	0	46	0	606076928	60	17667
2026-01-28 08:50:08.22	192.99	63.86	-51.9	-53.2	22.3	0.00e+00	0	46	0	608174080	60	17901
2026-01-28 08:50:09.22	193.59	64.21	-51.2	-52.3	23.0	0.00e+00	0	46	0	609222656	60	16217
2026-01-28 08:50:10.22	194.21	64.57	-50.5	-51.5	23.7	0.00e+00	0	46	0	611319808	60	14716
2026-01-28 08:50:11.21	194.84	64.93	-50.2	-51.3	23.7	0.00e+00	0	46	0	613416960	60	14323
2026-01-28 08:50:12.21	195.50	65.28	-50.9	-52.0	23.1	0.00e+00	0	46	0	615514112	60	15654
2026-01-28 08:50:13.22	196.19	65.64	-51.9	-53.1	22.3	0.00e+00	0	46	0	617611264	60	17696
2026-01-28 08:50:14.21	196.88	65.99	-52.0	-53.2	22.3	0.00e+00	0	46	0	618659840	60	17840
2026-01-28 08:50:15.21	197.61	66.34	-52.4	-53.7	21.8	0.00e+00	0	46	0	620756992	60	18925
2026-01-28 08:50:16.22	198.37	66.69	-52.4	-53.7	21.8	0.00e+00	0	46	0	622854144	60	18891
2026-01-28 08:50:17.22	199.14	67.04	-52.1	-53.3	22.3	0.00e+00	0	46	0	624951296	60	18142
2026-01-28 08:50:18.22	199.94	67.39	-52.7	-54.0	21.9	0.00e+00	0	46	0	627048448	60	19666
2026-01-28 08:50:19.22	200.77	67.73	-54.0	-55.6	20.3	0.00e+00	0	46	0	628097024	60	23714
2026-01-28 08:50:20.21	201.61	68.06	-55.0	-57.1	18.9	0.00e+00	0	46	0	630194176	60	28112
2026-01-28 08:50:21.21	202.50	68.40	-54.9	-56.8	19.3	0.00e+00	0	46	0	632291328	60	27208
2026-01-28 08:50:22.21	203.41	68.73	-54.2	-55.8	20.0	0.00e+00	0	46	0	634388480	60	24259
2026-01-28 08:50:23.21	204.35	69.06	-54.0	-55.6	20.6	0.00e+00	0	46	0	635437056	60	23598
2026-01-28 08:50:24.21	205.33	69.38	-54.4	-56.2	19.7	0.00e+00	0	46	0	637534208	60	25346
2026-01-28 08:50:25.21	206.34	69.70	-54.2	-56.0	20.3	0.00e+00	0	46	0	639631360	60	24612
2026-01-28 08:50:26.21	207.38	70.01	-53.6	-55.2	20.8	0.00e+00	0	46	0	641728512	60	22426
2026-01-28 08:50:27.21	208.46	70.32	-54.2	-55.9	20.1	0.00e+00	0	46	0	643825664	60	24548
2026-01-28 08:50:28.20	209.56	70.62	-55.2	-57.3	18.7	0.00e+00	0	46	0	644874240	60	28777
2026-01-28 08:50:29.20	210.71	70.92	-55.6	-58.1	17.7	0.00e+00	0	46	0	646971392	60	31435
2026-01-28 08:50:30.20	211.90	71.21	-55.9	-58.5	17.8	0.00e+00	0	47	0	649068544	60	33137
2026-01-28 08:50:31.19	213.12	71.49	-55.6	-58.2	18.3	0.00e+00	0	46	0	651165696	60	31859
2026-01-28 08:50:32.19	214.39	71.77	-54.6	-56.6	19.5	0.00e+00	0	46	0	653262848	60	26507
2026-01-28 08:50:33.19	215.69	72.03	-53.6	-55.3	20.6	0.00e+00	0	46	0	654311424	60	22859
2026-01-28 08:50:34.19	217.04	72.29	-53.5	-55.3	20.5	0.00e+00	0	46	0	656408576	60	22864
2026-01-28 08:50:35.19	218.43	72.54	-53.5	-55.3	20.5	0.00e+00	0	46	0	658505728	60	22858
2026-01-28 08:50:36.19	219.87	72.78	-53.5	-55.3	20.5	0.00e+00	0	46	0	660602880	60	22890
2026-01-28 08:50:37.19	221.34	73.02	-53.4	-55.2	20.7	0.00e+00	0	46	0	661651456	60	22629
2026-01-28 08:50:38.19	222.86	73.24	-52.9	-54.6	20.9	0.00e+00	0	47	0	663748608	60	20995
2026-01-28 08:50:39.18	224.40	73.44	-52.7	-54.3	21.2	0.00e+00	0	46	0	665845760	60	20417
2026-01-28 08:50:40.18	226.00	73.64	-52.7	-54.6	21.0	0.00e+00	0	47	0	667942912	60	20940
2026-01-28 08:50:41.18	227.63	73.83	-53.2	-55.2	20.5	0.00e+00	0	47	0	670040064	60	22605
2026-01-28 08:50:42.18	229.31	74.00	-53.2	-55.1	20.5	0.00e+00	0	47	0	671088640	60	22214
2026-01-28 08:50:43.18	231.02	74.16	-53.1	-55.1	20.3	0.00e+00	0	47	0	673185792	60	22380
2026-01-28 08:50:44.17	232.75	74.31	-52.2	-54.1	21.2	0.00e+00	0	47	0	675282944	60	19906
2026-01-28 08:50:45.18	234.54	74.44	-51.5	-53.2	21.8	0.00e+00	0	46	0	677380096	60	17987
2026-01-28 08:50:46.18	236.35	74.56	-51.8	-53.8	21.5	0.00e+00	0	47	0	679477248	60	19211
2026-01-28 08:50:47.18	238.19	74.66	-52.8	-55.3	20.0	0.00e+00	0	46	0	680525824	60	22737
2026-01-28 08:50:48.17	240.03	74.75	-53.3	-56.3	19.0	0.00e+00	0	46	0	682622976	60	25494
2026-01-28 08:50:49.17	241.91	74.82	-53.2	-56.5	18.6	0.00e+00	0	47	0	684720128	60	26099
2026-01-28 08:50:50.18	243.83	74.88	-52.7	-55.8	19.1	0.00e+00	0	46	0	686817280	60	24257
2026-01-28 08:50:51.18	245.74	74.92	-51.9	-54.7	20.0	0.00e+00	0	46	0	688914432	60	21315
2026-01-28 08:50:52.18	247.65	74.95	-52.0	-55.0	19.4	0.00e+00	0	47	0	689963008	60	22118
2026-01-28 08:50:53.19	249.60	74.95	-51.6	-54.4	20.1	0.00e+00	0	47	0	692060160	60	20639
2026-01-28 08:50:54.18	251.50	74.95	-50.9	-53.5	20.4	0.00e+00	0	47	0	694157312	60	18452
2026-01-28 08:50:55.19	253.44	74.92	-51.1	-54.0	20.1	0.00e+00	0	47	0	696254464	60	19591
2026-01-28 08:50:56.20	255.37	74.88	-51.4	-54.6	19.1	0.00e+00	0	46	0	697303040	60	21158
2026-01-28 08:50:57.20	257.26	74.83	-51.5	-54.8	19.2	0.00e+00	0	47	0	699400192	60	21454
2026-01-28 08:50:58.20	259.14	74.75	-51.2	-54.3	19.5	0.00e+00	0	47	0	701497344	60	20329
2026-01-28 08:50:59.20	261.01	74.67	-50.7	-53.6	20.1	0.00e+00	0	47	0	703594496	60	18758
2026-01-28 08:51:00.20	262.84	74.56	-50.7	-53.5	19.9	0.00e+00	0	47	0	705691648	60	18596
2026-01-28 08:51:01.20	264.65	74.45	-51.7	-55.6	18.2	0.00e+00	0	47	0	706740224	60	23501
2026-01-28 08:51:02.21	266.45	74.31	-51.9	-55.8	18.0	0.00e+00	0	47	0	708837376	60	24263
2026-01-28 08:51:03.22	268.21	74.16	-51.7	-55.2	18.7	0.00e+00	0	47	0	710934528	60	22602
2026-01-28 08:51:04.23	269.94	74.00	-52.2	-56.2	17.9	0.00e+00	0	47	0	713031680	60	25209
2026-01-28 08:51:05.23	271.62	73.83	-52.5	-56.4	17.9	0.00e+00	0	47	0	715128832	60	25897
2026-01-28 08:51:06.24	273.27	73.64	-52.9	-56.7	17.6	0.00e+00	0	46	0	717225984	60	26908
2026-01-28 08:51:07.25	274.88	73.44	-53.6	-57.9	16.8	0.00e+00	0	46	0	718274560	60	30907
2026-01-28 08:51:08.26	276.45	73.23	-54.0	-58.0	17.0	0.00e+00	0	47	0	720371712	60	31039
2026-01-28 08:51:09.26	277.96	73.01	-53.7	-56.8	18.5	0.00e+00	0	47	0	722468864	60	27078
2026-01-28 08:51:10.27	279.45	72.78	-53.8	-56.7	18.7	0.00e+00	0	47	0	724566016	60	26649
2026-01-28 08:51:11.28	280.89	72.53	-53.9	-56.6	18.6	0.00e+00	0	47	0	725614592	60	26507
2026-01-28 08:51:12.28	282.28	72.28	-53.6	-56.1	19.3	0.00e+00	0	47	0	727711744	60	25094
2026-01-28 08:51:13.29	283.64	72.02	-53.6	-56.3	18.8	0.00e+00	0	47	0	729808896	60	25734
2026-01-28 08:51:14.29	284.95	71.75	-54.1	-57.7	17.4	0.00e+00	0	46	0	731906048	60	30014
2026-01-28 08:51:15.30	286.22	71.47	-54.5	-59.1	16.1	0.00e+00	0	47	0	734003200	60	35441
2026-01-28 08:51:16.30	287.45	71.19	-54.2	-59.1	15.7	0.00e+00	0	47	0	735051776	60	35438
2026-01-28 08:51:17.31	288.65	70.90	-53.8	-58.9	15.8	0.00e+00	0	47	0	737148928	60	34455
2026-01-28 08:51:18.31	289.79	70.60	-53.4	-58.0	16.7	0.00e+00	0	46	0	739246080	60	30980
2026-01-28 08:51:19.32	290.91	70.30	-52.8	-56.9	17.8	0.00e+00	0	47	0	741343232	60	27402
2026-01-28 08:51:20.32	291.99	69.99	-51.9	-55.2	19.0	0.00e+00	0	47	0	743440384	60	22435
2026-01-28 08:51:21.33	293.04	69.67	-50.5	-55.0	13.2	0.00e+00	0	46	0	744488960	60	22058
2026-01-28 08:51:22.34	294.05	69.35	-50.8	-55.4	14.7	2.28e-03	0	47	0	746586112	60	22943
2026-01-28 08:51:23.35	295.03	69.02	-52.2	-56.0	17.8	0.00e+00	0	46	0	748683264	60	24596
2026-01-28 08:51:24.35	295.97	68.69	-52.9	-57.6	16.5	0.00e+00	0	47	0	750780416	60	29580
2026-01-28 08:51:25.36	296.89	68.36	-53.4	-58.9	15.4	0.00e+00	0	46	0	752877568	60	34383
2026-01-28 08:51:26.37	297.77	68.02	-52.8	-56.9	17.8	0.00e+00	0	46	0	753926144	60	27536
2026-01-28 08:51:27.37	298.62	67.68	-52.1	-55.4	19.0	0.00e+00	0	46	0	756023296	60	23201
2026-01-28 08:51:28.38	299.45	67.34	-53.1	-57.2	17.2	0.00e+00	0	46	0	758120448	60	28393
2026-01-28 08:51:29.39	300.26	66.99	-53.6	-58.0	16.8	0.00e+00	0	46	0	760217600	60	31130
2026-01-28 08:51:30.39	301.02	66.64	-53.7	-57.7	17.5	0.00e+00	0	46	0	762314752	60	30055
2026-01-28 08:51:31.40	301.78	66.29	-52.6	-55.2	20.2	0.00e+00	0	46	0	763363328	60	22448
2026-01-28 08:51:32.41	302.50	65.93	-51.6	-53.4	21.3	0.00e+00	0	46	0	765460480	60	18287
2026-01-28 08:51:33.41	303.20	65.58	-51.1	-52.7	21.9	0.00e+00	0	47	0	767557632	60	16940
2026-01-28 08:51:34.42	303.88	65.22	-52.0	-53.9	21.0	0.00e+00	0	47	0	769654784	60	19386
2026-01-28 08:51:35.43	304.54	64.87	-52.4	-54.7	20.1	0.00e+00	0	46	0	771751936	60	21262
2026-01-28 08:51:36.43	305.18	64.51	-52.1	-54.1	20.9	0.00e+00	0	46	0	772800512	60	19889
2026-01-28 08:51:37.43	305.79	64.15	-51.0	-52.6	22.1	0.00e+00	0	46	0	774897664	60	16799
2026-01-28 08:51:38.44	306.40	63.79	-50.6	-52.0	22.6	0.00e+00	0	46	0	776994816	60	15683
2026-01-28 08:51:39.45	306.98	63.43	-50.8	-52.2	22.4	0.00e+00	0	46	0	779091968	60	16015
2026-01-28 08:51:40.45	307.54	63.07	-50.4	-51.6	23.0	0.00e+00	0	46	0	781189120	60	14865
2026-01-28 08:51:41.45	308.08	62.71	-50.0	-51.1	23.4	0.00e+00	0	46	0	782237696	60	14091
2026-01-28 08:51:42.45	308.61	62.35	-50.3	-51.5	23.2	0.00e+00	0	46	0	784334848	60	14757
2026-01-28 08:51:43.47	309.13	61.98	-51.1	-52.6	22.3	0.00e+00	0	46	0	786432000	60	16622
2026-01-28 08:51:44.47	309.63	61.62	-51.3	-52.9	21.9	0.00e+00	0	46	0	788529152	60	17314
2026-01-28 08:51:45.48	310.12	61.26	-51.6	-53.5	21.3	0.00e+00	0	47	0	790626304	60	18585
2026-01-28 08:51:46.48	310.59	60.90	-51.3	-53.2	21.5	0.00e+00	0	47	0	791674880	60	17829
2026-01-28 08:51:47.48	311.05	60.54	-50.7	-52.3	22.3	0.00e+00	0	46	0	793772032	60	16152
2026-01-28 08:51:48.48	311.49	60.18	-50.0	-51.5	22.6	0.00e+00	0	47	0	795869184	60	14699
2026-01-28 08:51:49.49	311.93	59.82	-49.9	-51.4	22.3	0.00e+00	0	47	0	797966336	60	14578
2026-01-28 08:51:50.50	312.35	59.46	-50.3	-52.1	21.8	0.00e+00	0	47	0	800063488	60	15764
2026-01-28 08:51:51.51	312.76	59.10	-51.3	-53.5	20.4	0.00e+00	0	46	0	801112064	60	18562
2026-01-28 08:51:52.51	313.16	58.74	-51.8	-54.2	20.8	0.00e+00	0	47	0	803209216	60	20012
2026-01-28 08:51:53.52	313.55	58.38	-51.3	-53.3	21.3	0.00e+00	0	46	0	805306368	60	18031
2026-01-28 08:51:54.53	313.93	58.03	-50.9	-52.6	22.2	0.00e+00	0	46	0	807403520	60	16746
2026-01-28 08:51:55.54	314.30	57.67	-50.1	-51.5	22.5	0.00e+00	0	46	0	809500672	60	14738
2026-01-28 08:51:56.54	314.66	57.32	-50.7	-52.1	22.0	0.00e+00	0	46	0	810549248	60	15817
2026-01-28 08:51:57.55	315.01	56.96	-51.4	-53.0	21.4	0.00e+00	0	46	0	812646400	60	17551
2026-01-28 08:51:58.56	315.36	56.61	-51.6	-53.2	21.5	0.00e+00	0	47	0	814743552	60	17988
2026-01-28 08:51:59.57	315.69	56.26	-50.9	-52.4	22.4	0.00e+00	0	46	0	816840704	60	16252
2026-01-28 08:52:00.57	316.02	55.91	-50.3	-51.5	23.1	0.00e+00	0	46	0	818937856	60	14784
2026-01-28 08:52:01.58	316.34	55.56	-50.5	-51.7	23.3	0.00e+00	0	47	0	819986432	60	15016
2026-01-28 08:52:02.59	316.65	55.22	-50.7	-51.9	22.9	0.00e+00	0	47	0	822083584	60	15359
2026-01-28 08:52:03.60	316.95	54.87	-51.1	-52.4	22.4	0.00e+00	0	46	0	824180736	60	16409
2026-01-28 08:52:04.60	317.24	54.53	-51.6	-53.2	21.8	0.00e+00	0	46	0	826277888	60	17984
2026-01-28 08:52:05.60	317.53	54.19	-52.1	-54.1	20.9	0.00e+00	0	47	0	828375040	60	19933
2026-01-28 08:52:06.61	317.81	53.85	-52.3	-54.4	20.7	0.00e+00	0	46	0	829423616	60	20661
2026-01-28 08:52:07.61	318.09	53.51	-51.9	-53.7	21.4	0.00e+00	0	47	0	831520768	60	18867
2026-01-28 08:52:08.61	318.35	53.18	-51.1	-52.5	22.3	0.00e+00	0	47	0	833617920	60	16532
2026-01-28 08:52:09.61	318.62	52.84	-51.0	-52.3	22.2	0.00e+00	0	47	0	835715072	60	16167
2026-01-28 08:52:10.61	318.87	52.51	-51.8	-53.5	21.0	0.00e+00	0	46	0	836763648	60	18472
2026-01-28 08:52:11.62	319.13	52.18	-52.8	-55.0	19.6	0.00e+00	0	46	0	838860800	60	22111
2026-01-28 08:52:12.63	319.37	51.85	-52.2	-54.3	20.3	0.00e+00	0	46	0	840957952	60	20322
2026-01-28 08:52:13.63	319.61	51.52	-51.5	-53.3	21.2	0.00e+00	0	47	0	843055104	60	18176
2026-01-28 08:52:14.64	319.85	51.20	-51.5	-53.3	21.4	0.00e+00	0	47	0	845152256	60	18132
2026-01-28 08:52:15.65	320.08	50.87	-52.1	-53.9	20.9	0.00e+00	0	47	0	847249408	60	19389
2026-01-28 08:52:16.66	320.31	50.54	-52.4	-54.2	20.9	0.00e+00	0	47	0	848297984	60	20063
2026-01-28 08:52:17.67	320.53	50.22	-52.4	-54.1	20.9	0.00e+00	0	47	0	850395136	60	19761
2026-01-28 08:52:18.68	320.75	49.90	-52.8	-54.6	20.4	0.00e+00	0	47	0	852492288	60	21061
2026-01-28 08:52:19.68	320.96	49.59	-54.0	-56.3	19.0	0.00e+00	0	47	0	854589440	60	25643
2026-01-28 08:52:20.69	321.17	49.27	-54.4	-57.0	18.5	0.00e+00	0	46	0	856686592	60	27613
2026-01-28 08:52:21.69	321.37	48.96	-54.3	-56.6	19.0	0.00e+00	0	46	0	857735168	60	26453
2026-01-28 08:52:22.69	321.57	48.65	-53.8	-55.6	20.1	0.00e+00	0	47	0	859832320	60	23693
2026-01-28 08:52:23.70	321.77	48.34	-53.4	-55.0	21.0	0.00e+00	0	46	0	861929472	60	22116
2026-01-28 08:52:24.71	321.96	48.03	-52.8	-54.3	21.0	0.00e+00	0	46	0	864026624	60	20215
2026-01-28 08:52:25.71	322.15	47.72	-53.5	-55.3	20.0	0.00e+00	0	46	0	865075200	60	22743
2026-01-28 08:52:26.72	322.33	47.42	-55.2	-58.0	17.4	0.00e+00	0	47	0	867172352	60	30965
2026-01-28 08:52:27.73	322.51	47.11	-56.1	-59.7	15.6	0.00e+00	0	47	0	869269504	60	37929
2026-01-28 08:52:28.73	322.69	46.81	-56.6	-61.0	14.5	3.00e-06	0	47	0	871366656	60	43990
2026-01-28 08:52:29.74	322.87	46.51	-55.9	-59.8	16.1	0.00e+00	0	47	0	873463808	60	38238
2026-01-28 08:52:30.74	323.04	46.22	-54.7	-57.7	17.7	0.00e+00	0	46	0	875560960	60	29949
2026-01-28 08:52:31.75	323.21	45.92	-53.3	-55.6	19.5	0.00e+00	0	47	0	876609536	60	23580
2026-01-28 08:52:32.76	323.37	45.63	-53.3	-55.5	19.3	0.00e+00	0	47	0	878706688	60	23440
2026-01-28 08:52:33.77	323.53	45.34	-53.0	-55.2	19.4	0.00e+00	0	47	0	880803840	60	22614
2026-01-28 08:52:34.77	323.69	45.05	-54.0	-56.8	17.8	0.00e+00	0	47	0	882900992	60	27113
2026-01-28 08:52:35.78	323.85	44.76	-54.9	-58.3	16.4	0.00e+00	0	46	0	884998144	60	32203
2026-01-28 08:52:36.79	324.00	44.47	-55.2	-59.0	15.6	0.00e+00	0	47	0	886046720	60	34983
2026-01-28 08:52:37.79	324.16	44.19	-55.2	-59.1	15.7	0.00e+00	0	46	0	888143872	60	35318
2026-01-28 08:52:38.80	324.30	43.91	-54.6	-57.8	17.1	0.00e+00	0	47	0	890241024	60	30384
2026-01-28 08:52:39.80	324.45	43.63	-54.3	-57.6	17.5	0.00e+00	0	47	0	892338176	60	29627
2026-01-28 08:52:40.81	324.59	43.35	-53.7	-56.6	18.7	0.00e+00	0	46	0	893386752	60	26463
2026-01-28 08:52:41.81	324.73	43.08	-53.8	-55.8	19.4	0.00e+00	0	46	0	895483904	60	24049
2026-01-28 08:52:42.81	324.87	42.80	-54.0	-55.7	19.8	0.00e+00	0	47	0	897581056	60	23953
2026-01-28 08:52:43.82	325.01	42.53	-53.2	-54.7	20.7	0.00e+00	0	47	0	899678208	60	21293
2026-01-28 08:52:44.83	325.15	42.26	-52.9	-54.4	20.9	0.00e+00	0	47	0	901775360	60	20470
2026-01-28 08:52:45.83	325.28	41.99	-52.5	-53.9	21.5	0.00e+00	0	47	0	902823936	60	19345
2026-01-28 08:52:46.84	325.41	41.72	-53.0	-54.6	20.9	0.00e+00	0	47	0	904921088	60	20962
2026-01-28 08:52:47.84	325.54	41.46	-53.3	-54.9	20.6	0.00e+00	0	47	0	907018240	60	21830
2026-01-28 08:52:48.85	325.66	41.19	-54.0	-55.8	19.8	0.00e+00	0	47	0	909115392	60	24111
2026-01-28 08:52:49.86	325.79	40.93	-54.7	-56.9	18.9	0.00e+00	0	46	0	911212544	60	27314
2026-01-28 08:52:50.87	325.91	40.67	-54.2	-56.1	19.5	0.00e+00	0	46	0	913309696	60	25061
2026-01-28 08:52:51.87	326.03	40.41	-53.5	-55.2	20.2	0.00e+00	0	46	0	914358272	60	22618
2026-01-28 08:52:52.88	326.15	40.15	-53.1	-54.7	20.6	0.00e+00	0	47	0	916455424	60	21314
2026-01-28 08:52:53.89	326.27	39.90	-52.3	-53.8	21.2	0.00e+00	0	47	0	918552576	60	19218
2026-01-28 08:52:54.90	326.38	39.64	-51.9	-53.3	21.6	0.00e+00	0	47	0	920649728	60	18206
2026-01-28 08:52:55.90	326.49	39.39	-52.0	-53.6	21.4	0.00e+00	0	47	0	921698304	60	18658
2026-01-28 08:52:56.90	326.61	39.14	-52.5	-54.2	21.1	0.00e+00	0	46	0	923795456	60	20188
2026-01-28 08:52:57.90	326.71	38.90	-52.5	-54.4	20.7	0.00e+00	0	46	0	925892608	60	20452
2026-01-28 08:52:58.91	326.82	38.65	-53.4	-55.8	19.4	0.00e+00	0	47	0	927989760	60	24223
2026-01-28 08:52:59.92	326.93	38.40	-54.0	-57.1	18.5	0.00e+00	0	46	0	930086912	60	27962
2026-01-28 08:53:00.93	327.04	38.16	-54.2	-57.6	18.0	0.00e+00	0	46	0	931135488	60	29877
2026-01-28 08:53:01.93	327.14	37.92	-53.8	-57.0	18.8	0.00e+00	0	47	0	933232640	60	27660
2026-01-28 08:53:02.94	327.24	37.68	-53.3	-56.0	19.7	0.00e+00	0	46	0	935329792	60	24802
2026-01-28 08:53:03.95	327.34	37.44	-52.5	-54.6	21.1	0.00e+00	0	47	0	937426944	60	21014
2026-01-28 08:53:04.95	327.44	37.21	-52.4	-54.3	21.4	0.00e+00	0	46	0	939524096	60	20214
2026-01-28 08:53:05.96	327.54	36.97	-52.1	-53.7	21.7	0.00e+00	0	46	0	941621248	60	18982
2026-01-28 08:53:06.97	327.64	36.74	-51.9	-53.4	22.0	0.00e+00	0	47	0	942669824	60	18391
2026-01-28 08:53:07.98	327.74	36.50	-52.3	-53.8	21.5	0.00e+00	0	46	0	944766976	60	19146
2026-01-28 08:53:08.98	327.83	36.27	-52.6	-54.2	21.2	0.00e+00	0	47	0	946864128	60	19986
2026-01-28 08:53:09.98	327.92	36.05	-52.8	-54.4	21.0	0.00e+00	0	47	0	948961280	60	20608
2026-01-28 08:53:10.99	328.01	35.82	-53.1	-54.8	20.8	0.00e+00	0	47	0	950009856	60	21527
2026-01-28 08:53:11.99	328.10	35.59	-53.4	-55.1	20.5	0.00e+00	0	47	0	952107008	60	22313
2026-01-28 08:53:13.00	328.19	35.37	-53.7	-55.4	20.1	0.00e+00	0	47	0	954204160	60	23176
2026-01-28 08:53:14.00	328.28	35.15	-53.8	-55.7	19.8	0.00e+00	0	46	0	956301312	60	23917
2026-01-28 08:53:15.01	328.37	34.93	-54.4	-56.6	19.0	0.00e+00	0	47	0	958398464	60	26641
2026-01-28 08:53:16.02	328.45	34.71	-54.9	-57.8	18.1	0.00e+00	0	47	0	959447040	60	30270
2026-01-28 08:53:17.03	328.54	34.49	-55.3	-58.7	17.3	0.00e+00	0	47	0	961544192	60	33660
2026-01-28 08:53:18.03	328.62	34.27	-55.6	-59.8	16.1	0.00e+00	0	47	0	963641344	60	38405
2026-01-28 08:53:19.04	328.71	34.05	-55.6	-60.2	15.7	0.00e+00	0	47	0	965738496	60	39867
2026-01-28 08:53:20.05	328.79	33.84	-55.5	-60.0	16.2	0.00e+00	0	47	0	967835648	60	39346
2026-01-28 08:53:21.05	328.87	33.63	-55.2	-59.1	17.0	0.00e+00	0	47	0	969932800	60	35491
2026-01-28 08:53:22.06	328.95	33.42	-55.1	-58.5	17.5	0.00e+00	0	47	0	970981376	60	33042
2026-01-28 08:53:23.06	329.03	33.21	-54.6	-57.2	18.7	0.00e+00	0	47	0	973078528	60	28472
2026-01-28 08:53:24.07	329.11	33.00	-54.4	-56.8	18.9	0.00e+00	0	47	0	975175680	60	27047
2026-01-28 08:53:25.08	329.18	32.79	-54.3	-56.4	19.5	0.00e+00	0	46	0	977272832	60	25800
2026-01-28 08:53:26.08	329.26	32.59	-54.3	-56.1	19.7	0.00e+00	0	47	0	978321408	60	25013
2026-01-28 08:53:27.09	329.33	32.38	-54.6	-56.5	19.4	0.00e+00	0	46	0	980418560	60	26161
2026-01-28 08:53:28.09	329.41	32.18	-54.5	-56.3	19.5	0.00e+00	0	46	0	982515712	60	25630
2026-01-28 08:53:29.10	329.48	31.98	-54.3	-56.1	19.5	0.00e+00	0	46	0	984612864	60	25151
2026-01-28 08:53:30.10	329.55	31.78	-54.5	-56.5	19.2	0.00e+00	0	47	0	986710016	60	26090
2026-01-28 08:53:31.11	329.63	31.58	-54.6	-56.6	19.1	0.00e+00	0	46	0	987758592	60	26446
2026-01-28 08:53:32.11	329.70	31.38	-54.9	-57.0	18.7	0.00e+00	0	46	0	989855744	60	27776
2026-01-28 08:53:33.12	329.77	31.19	-55.1	-57.3	18.4	0.00e+00	0	46	0	991952896	60	28618
2026-01-28 08:53:34.12	329.84	30.99	-55.2	-57.3	18.4	0.00e+00	0	46	0	994050048	60	28718
2026-01-28 08:53:35.13	329.90	30.80	-55.4	-57.6	18.2	0.00e+00	0	47	0	996147200	60	29664
2026-01-28 08:53:36.14	329.97	30.61	-55.3	-57.5	18.3	0.00e+00	0	47	0	998244352	60	29539
2026-01-28 08:53:37.14	330.04	30.42	-55.1	-57.3	18.6	0.00e+00	0	47	0	999292928	60	28739
2026-01-28 08:53:38.15	330.11	30.22	-54.8	-56.9	18.8	0.00e+00	0	47	0	1001390080	60	27514
2026-01-28 08:53:39.15	330.17	30.04	-54.5	-56.6	19.1	0.00e+00	0	46	0	1003487232	60	26431
2026-01-28 08:53:40.16	330.24	29.85	-54.3	-56.3	19.4	0.00e+00	0	46	0	1005584384	60	25567
2026-01-28 08:53:41.17	330.30	29.66	-54.2	-56.2	19.5	0.00e+00	0	46	0	1006632960	60	25221
2026-01-28 08:53:42.17	330.36	29.48	-54.4	-56.6	19.1	0.00e+00	0	46	0	1008730112	60	26497
2026-01-28 08:53:43.18	330.43	29.29	-54.5	-56.8	19.0	0.00e+00	0	46	0	1010827264	60	27009
2026-01-28 08:53:44.17	330.49	29.11	-54.4	-56.8	18.6	0.00e+00	0	46	0	1012924416	60	27255
2026-01-28 08:53:45.17	330.55	28.93	-54.1	-56.6	19.0	0.00e+00	0	47	0	1015021568	60	26375
2026-01-28 08:53:46.17	330.61	28.75	-53.9	-56.3	19.1	0.00e+00	0	46	0	1016070144	60	25724
2026-01-28 08:53:47.18	330.67	28.57	-53.7	-56.3	19.0	0.00e+00	0	46	0	1018167296	60	25723
2026-01-28 08:53:48.18	330.73	28.40	-53.6	-56.3	19.2	0.00e+00	0	47	0	1020264448	60	25692
2026-01-28 08:53:49.18	330.79	28.22	-53.2	-55.6	19.7	0.00e+00	0	46	0	1022361600	60	23623
2026-01-28 08:53:50.19	330.85	28.04	-53.2	-55.4	19.9	0.00e+00	0	47	0	1024458752	60	23181
2026-01-28 08:53:51.20	330.90	27.87	-53.3	-55.4	20.0	0.00e+00	0	46	0	1025507328	60	23030
2026-01-28 08:53:52.20	330.96	27.69	-53.0	-54.8	20.5	0.00e+00	0	46	0	1027604480	60	21565
2026-01-28 08:53:53.21	331.02	27.52	-53.3	-55.0	20.5	0.00e+00	0	47	0	1029701632	60	22116
2026-01-28 08:53:54.21	331.07	27.35	-53.3	-54.9	20.6	0.00e+00	0	47	0	1031798784	60	21721
2026-01-28 08:53:55.21	331.13	27.18	-53.0	-54.4	21.0	0.00e+00	0	46	0	1033895936	60	20607
2026-01-28 08:53:56.22	331.18	27.01	-52.7	-54.1	21.2	0.00e+00	0	47	0	1034944512	60	19955
2026-01-28 08:53:57.23	331.24	26.84	-52.8	-54.3	20.9	0.00e+00	0	47	0	1037041664	60	20312
2026-01-28 08:53:58.23	331.29	26.67	-52.9	-54.4	20.9	0.00e+00	0	46	0	1039138816	60	20655
2026-01-28 08:53:59.23	331.34	26.51	-53.0	-54.5	20.8	0.00e+00	0	47	0	1041235968	60	20799
2026-01-28 08:54:00.24	331.40	26.34	-53.1	-54.7	20.6	0.00e+00	0	46	0	1043333120	60	21317
2026-01-28 08:54:01.24	331.45	26.18	-53.4	-55.0	20.3	0.00e+00	0	46	0	1044381696	60	22036
2026-01-28 08:54:02.24	331.50	26.02	-53.7	-55.5	19.9	0.00e+00	0	46	0	1046478848	60	23317
2026-01-28 08:54:03.25	331.55	25.85	-54.0	-55.8	19.6	0.00e+00	0	46	0	1048576000	60	24056
2026-01-28 08:54:04.25	331.60	25.69	-54.0	-55.9	19.5	0.00e+00	0	47	0	1050673152	60	24404
2026-01-28 08:54:05.26	331.65	25.53	-54.3	-56.3	19.2	0.00e+00	0	46	0	1052770304	60	25551
2026-01-28 08:54:06.26	331.70	25.37	-54.1	-56.1	19.5	0.00e+00	0	46	0	1053818880	60	24904
2026-01-28 08:54:07.26	331.75	25.21	-53.9	-55.9	19.6	0.00e+00	0	46	0	1055916032	60	24386
2026-01-28 08:54:08.27	331.80	25.05	-53.7	-55.6	19.8	0.00e+00	0	46	0	1058013184	60	23704
2026-01-28 08:54:09.27	331.85	24.90	-53.6	-55.6	19.9	0.00e+00	0	46	0	1060110336	60	23574
2026-01-28 08:54:10.28	331.90	24.74	-53.5	-55.6	19.9	0.00e+00	0	46	0	1062207488	60	23557
2026-01-28 08:54:11.28	331.95	24.59	-53.1	-55.0	20.6	0.00e+00	0	46	0	1063256064	60	21966
2026-01-28 08:54:12.29	331.99	24.43	-53.0	-54.8	20.6	0.00e+00	0	46	0	1065353216	60	21645
2026-01-28 08:54:13.29	332.04	24.28	-52.8	-54.5	20.9	0.00e+00	0	46	0	1067450368	60	20729
2026-01-28 08:54:14.30	332.09	24.13	-52.8	-54.3	21.0	0.00e+00	0	46	0	1069547520	60	20400
2026-01-28 08:54:15.30	332.13	23.98	-52.9	-54.4	20.9	0.00e+00	0	46	0	1070596096	60	20643
2026-01-28 08:54:16.30	332.18	23.83	-52.9	-54.4	20.8	0.00e+00	0	46	0	1072693248	60	20578
2026-01-28 08:54:17.31	332.22	23.68	-52.4	-53.9	20.9	0.00e+00	0	46	0	1074790400	60	19333
2026-01-28 08:54:18.31	332.27	23.53	-52.3	-53.8	21.0	0.00e+00	0	46	0	1076887552	60	19141
2026-01-28 08:54:19.32	332.31	23.38	-52.3	-53.7	21.0	0.00e+00	0	46	0	1078984704	60	19034
2026-01-28 08:54:20.32	332.36	23.23	-52.3	-53.8	20.9	0.00e+00	0	47	0	1080033280	60	19243
2026-01-28 08:54:21.33	332.40	23.08	-52.0	-53.4	21.2	0.00e+00	0	47	0	1082130432	60	18276
2026-01-28 08:54:22.33	332.45	22.94	-52.3	-53.8	20.9	0.00e+00	0	46	0	1084227584	60	19203
2026-01-28 08:54:23.34	332.49	22.79	-52.2	-53.6	21.2	0.00e+00	0	46	0	1086324736	60	18818
2026-01-28 08:54:24.34	332.53	22.65	-52.2	-53.6	21.3	0.00e+00	0	46	0	1088421888	60	18782
2026-01-28 08:54:25.35	332.57	22.51	-52.3	-53.8	21.3	0.00e+00	0	46	0	1090519040	60	19080
2026-01-28 08:54:26.35	332.62	22.36	-52.4	-53.9	21.3	0.00e+00	0	46	0	1091567616	60	19365
2026-01-28 08:54:27.36	332.66	22.22	-52.3	-53.8	21.2	0.00e+00	0	46	0	1093664768	60	19276
2026-01-28 08:54:28.37	332.70	22.08	-52.3	-53.9	21.2	0.00e+00	0	46	0	1095761920	60	19441
2026-01-28 08:54:29.37	332.74	21.94	-52.2	-53.9	21.1	0.00e+00	0	46	0	1097859072	60	19449
2026-01-28 08:54:30.38	332.78	21.80	-52.4	-54.4	20.7	0.00e+00	0	46	0	1098907648	60	20545
2026-01-28 08:54:31.38	332.82	21.66	-52.4	-54.5	20.6	0.00e+00	0	46	0	1101004800	60	20694
2026-01-28 08:54:32.39	332.86	21.52	-52.5	-54.5	20.6	0.00e+00	0	46	0	1103101952	60	20853
2026-01-28 08:54:33.39	332.90	21.39	-52.5	-54.5	20.6	0.00e+00	0	46	0	1105199104	60	20822
2026-01-28 08:54:34.39	332.94	21.25	-52.8	-54.8	20.4	0.00e+00	0	47	0	1107296256	60	21487
2026-01-28 08:54:35.39	332.98	21.12	-52.8	-54.6	20.6	0.00e+00	0	46	0	1108344832	60	21015
2026-01-28 08:54:36.40	333.02	20.98	-52.8	-54.5	20.7	0.00e+00	0	46	0	1110441984	60	20738
