passes_logs/2026/01/28/R3.2S-Naryan-Mar/R3.2S-Naryan-Mar__20260128_204653_SUOMI_NPP_rec.log

#Pass ID: 20260128_204653_SUOMI NPP
#Satellite: SUOMI NPP
#Configuration: NPP
#almurnet v.1.7.20240730
#Start time: 2026-01-28 20:46:56

#Version: 2.2.20231116
#Station: R3.2S-Naryan-Mar
#Location: 53.008057 lon 67.646978 lat
#TLE: 1 37849U 11061A   26027.86188320  .00000172  00000+0  10275-3 0  9990
#TLE: 2 37849  98.7823 329.8005 0002088  41.4184 318.7150 14.19530883738530

#Time	Az	El	Level	Level2	SNR	BER	BlckErr	Temp	State	Recorded	gain1	gain2
2026-01-28 20:46:56.95	16.92	0.15	-60.8	-76.5	3.3	1.54e+00	0	45	0	0	60	261074
2026-01-28 20:46:57.95	16.99	0.20	-61.4	-78.2	3.6	1.51e+00	0	45	104	0	60	317393
2026-01-28 20:46:58.95	17.06	0.25	-61.2	-78.3	3.6	1.51e+00	0	45	104	0	60	323024
2026-01-28 20:46:59.96	17.13	0.30	-60.2	-78.2	3.6	1.51e+00	0	45	104	0	60	320261
2026-01-28 20:47:00.97	17.21	0.35	-60.2	-78.1	3.6	1.51e+00	0	45	104	0	60	313955
2026-01-28 20:47:01.98	17.28	0.40	-60.9	-78.3	3.6	1.51e+00	0	45	104	0	60	322067
2026-01-28 20:47:02.98	17.35	0.45	-61.0	-77.8	3.6	1.51e+00	0	45	104	0	60	303822
2026-01-28 20:47:03.99	17.42	0.50	-56.5	-74.9	3.6	1.51e+00	0	45	104	0	60	217526
2026-01-28 20:47:04.99	17.50	0.55	-55.1	-75.2	3.6	1.51e+00	0	45	104	0	60	225189
2026-01-28 20:47:06.00	17.57	0.60	-59.3	-77.0	3.6	1.51e+00	0	45	104	0	60	275909
2026-01-28 20:47:07.00	17.64	0.65	-54.4	-73.8	3.6	1.51e+00	0	45	104	0	60	190888
2026-01-28 20:47:08.01	17.72	0.70	-52.5	-74.0	3.6	1.51e+00	0	45	104	0	60	195590
2026-01-28 20:47:09.02	17.79	0.76	-57.5	-76.7	3.5	1.51e+00	0	45	104	0	60	269086
2026-01-28 20:47:10.02	17.86	0.81	-59.4	-77.0	3.6	1.51e+00	0	45	104	0	60	277691
2026-01-28 20:47:11.03	17.94	0.86	-52.6	-73.5	3.6	1.51e+00	0	45	104	0	60	185367
2026-01-28 20:47:12.04	18.01	0.91	-51.8	-73.9	3.6	1.51e+00	0	45	104	0	60	194437
2026-01-28 20:47:13.05	18.09	0.96	-51.9	-73.7	3.6	1.51e+00	0	45	104	0	60	190019
2026-01-28 20:47:14.05	18.16	1.01	-51.7	-74.2	3.6	1.51e+00	0	45	104	0	60	200612
2026-01-28 20:47:15.06	18.24	1.06	-51.8	-73.8	3.6	1.51e+00	0	45	104	0	60	190940
2026-01-28 20:47:16.07	18.31	1.11	-51.6	-73.6	3.6	1.51e+00	0	45	104	0	60	188065
2026-01-28 20:47:17.08	18.39	1.16	-51.6	-73.6	3.6	1.51e+00	0	45	104	0	60	188533
2026-01-28 20:47:18.08	18.47	1.22	-51.6	-74.3	3.6	1.51e+00	0	45	104	0	60	202389
2026-01-28 20:47:19.09	18.54	1.27	-51.5	-74.3	3.6	1.51e+00	0	45	104	0	60	202124
2026-01-28 20:47:20.10	18.62	1.32	-51.6	-73.6	3.6	1.51e+00	0	45	104	0	60	186838
2026-01-28 20:47:21.10	18.70	1.37	-51.7	-73.7	3.6	1.51e+00	0	45	104	0	60	189554
2026-01-28 20:47:22.10	18.77	1.42	-51.8	-73.9	3.6	1.51e+00	0	45	104	0	60	194208
2026-01-28 20:47:23.11	18.85	1.47	-51.3	-73.5	3.6	1.51e+00	0	45	104	0	60	186092
2026-01-28 20:47:24.11	18.93	1.52	-51.3	-73.5	3.6	1.51e+00	0	45	104	0	60	184426
2026-01-28 20:47:25.12	19.00	1.58	-51.3	-73.4	3.6	1.51e+00	0	45	104	0	60	184093
2026-01-28 20:47:26.12	19.08	1.63	-51.3	-73.4	3.6	1.51e+00	0	45	104	0	60	183217
2026-01-28 20:47:27.12	19.16	1.68	-51.3	-74.0	3.6	1.51e+00	0	45	104	0	60	196959
2026-01-28 20:47:28.14	19.24	1.73	-51.3	-73.7	3.6	1.51e+00	0	46	104	0	60	190272
2026-01-28 20:47:29.14	19.32	1.78	-51.7	-74.3	3.6	1.51e+00	0	45	104	0	60	203512
2026-01-28 20:47:30.15	19.40	1.83	-51.8	-73.9	3.6	1.51e+00	0	45	104	0	60	193607
2026-01-28 20:47:31.16	19.48	1.89	-51.9	-73.8	3.6	1.51e+00	0	45	104	0	60	191662
2026-01-28 20:47:32.16	19.55	1.94	-51.9	-73.6	3.6	1.51e+00	0	45	104	0	60	187850
2026-01-28 20:47:33.17	19.63	1.99	-52.0	-73.7	3.6	1.51e+00	0	45	104	0	60	189521
2026-01-28 20:47:34.17	19.71	2.04	-51.9	-73.9	3.6	1.51e+00	0	45	104	0	60	195033
2026-01-28 20:47:35.18	19.79	2.09	-51.9	-74.2	3.6	1.51e+00	0	45	104	0	60	200352
2026-01-28 20:47:36.18	19.87	2.15	-51.9	-74.3	3.6	1.51e+00	0	45	104	0	60	204112
2026-01-28 20:47:37.19	19.96	2.20	-51.9	-73.8	3.5	1.51e+00	0	45	104	0	60	192747
2026-01-28 20:47:38.19	20.04	2.25	-51.8	-73.7	3.6	1.51e+00	0	45	104	0	60	188743
2026-01-28 20:47:39.20	20.12	2.30	-51.8	-73.7	3.6	1.51e+00	0	45	104	0	60	189564
2026-01-28 20:47:40.21	20.20	2.36	-51.8	-73.6	3.6	1.51e+00	0	45	104	0	60	187434
2026-01-28 20:47:41.21	20.28	2.41	-51.7	-73.9	3.6	1.51e+00	0	45	104	0	60	193877
2026-01-28 20:47:42.22	20.36	2.46	-51.8	-73.6	3.6	1.51e+00	0	45	104	0	60	187927
2026-01-28 20:47:43.22	20.45	2.51	-51.8	-73.6	3.6	1.51e+00	0	45	104	0	60	187216
2026-01-28 20:47:44.23	20.53	2.57	-51.7	-74.2	3.6	1.51e+00	0	45	104	0	60	200960
2026-01-28 20:47:45.24	20.61	2.62	-51.8	-74.2	3.6	1.51e+00	0	45	104	0	60	201487
2026-01-28 20:47:46.25	20.70	2.67	-51.9	-73.6	3.6	1.51e+00	0	46	104	0	60	188025
2026-01-28 20:47:47.26	20.78	2.73	-51.6	-73.7	3.6	1.51e+00	0	46	104	0	60	189290
2026-01-28 20:47:48.26	20.86	2.78	-51.6	-73.7	3.6	1.51e+00	0	45	104	0	60	189352
2026-01-28 20:47:49.27	20.95	2.83	-51.6	-73.7	3.6	1.51e+00	0	46	104	0	60	189621
2026-01-28 20:47:50.28	21.03	2.88	-51.6	-73.4	3.6	1.51e+00	0	45	104	0	60	184138
2026-01-28 20:47:51.29	21.12	2.94	-51.7	-73.7	3.6	1.51e+00	0	46	104	0	60	190261
2026-01-28 20:47:52.29	21.20	2.99	-51.7	-74.1	3.6	1.51e+00	0	46	104	0	60	198831
2026-01-28 20:47:53.30	21.29	3.04	-51.7	-74.2	3.6	1.51e+00	0	46	104	0	60	200282
2026-01-28 20:47:54.30	21.37	3.10	-51.8	-73.7	3.6	1.51e+00	0	46	104	0	60	189699
2026-01-28 20:47:55.31	21.46	3.15	-51.8	-73.6	3.6	1.51e+00	0	46	104	0	60	188392
2026-01-28 20:47:56.32	21.54	3.20	-51.7	-73.6	3.6	1.51e+00	0	46	104	0	60	186924
2026-01-28 20:47:57.32	21.63	3.26	-51.8	-74.0	3.6	1.51e+00	0	46	104	0	60	196240
2026-01-28 20:47:58.33	21.72	3.31	-52.0	-74.1	3.6	1.51e+00	0	46	104	0	60	198380
2026-01-28 20:47:59.34	21.80	3.36	-51.7	-73.7	3.6	1.51e+00	0	46	104	0	60	190072
2026-01-28 20:48:00.34	21.89	3.42	-51.7	-73.6	3.6	1.51e+00	0	46	104	0	60	186996
2026-01-28 20:48:01.35	21.98	3.47	-51.8	-73.6	3.6	1.51e+00	0	46	104	0	60	187447
2026-01-28 20:48:02.36	22.07	3.52	-51.6	-74.1	3.6	1.51e+00	0	46	104	0	60	198698
2026-01-28 20:48:03.36	22.15	3.58	-51.8	-73.5	3.6	1.51e+00	0	46	104	0	60	186024
2026-01-28 20:48:04.37	22.24	3.63	-51.7	-73.8	3.6	1.51e+00	0	46	104	0	60	191029
2026-01-28 20:48:05.38	22.33	3.69	-51.8	-74.0	3.6	1.51e+00	0	46	104	0	60	196202
2026-01-28 20:48:06.39	22.42	3.74	-51.9	-74.0	3.6	1.51e+00	0	46	104	0	60	195386
2026-01-28 20:48:07.40	22.51	3.79	-51.8	-73.8	3.6	1.51e+00	0	46	104	0	60	192203
2026-01-28 20:48:08.40	22.60	3.85	-51.9	-73.6	3.6	1.51e+00	0	46	104	0	60	186994
2026-01-28 20:48:09.41	22.69	3.90	-52.0	-74.2	3.6	1.51e+00	0	46	104	0	60	199922
2026-01-28 20:48:10.41	22.78	3.96	-52.0	-74.2	3.6	1.51e+00	0	46	104	0	60	201624
2026-01-28 20:48:11.41	22.87	4.01	-52.1	-73.9	3.5	1.51e+00	0	46	104	0	60	194848
2026-01-28 20:48:12.41	22.96	4.06	-52.1	-74.1	3.6	1.51e+00	0	46	104	0	60	199401
2026-01-28 20:48:13.42	23.05	4.12	-52.1	-74.0	3.6	1.51e+00	0	46	104	0	60	195975
2026-01-28 20:48:14.42	23.14	4.17	-52.1	-74.2	3.6	1.51e+00	0	46	104	0	60	200244
2026-01-28 20:48:15.42	23.24	4.23	-52.2	-74.0	3.5	1.51e+00	0	46	104	0	60	195247
2026-01-28 20:48:16.43	23.33	4.28	-52.3	-74.3	3.6	1.51e+00	0	46	104	0	60	203010
2026-01-28 20:48:17.44	23.42	4.34	-52.3	-74.0	3.6	1.51e+00	0	46	104	0	60	195529
2026-01-28 20:48:18.45	23.51	4.39	-52.4	-74.4	3.6	1.51e+00	0	46	104	0	60	205817
2026-01-28 20:48:19.45	23.61	4.44	-52.3	-74.4	3.6	1.51e+00	0	46	104	0	60	205989
2026-01-28 20:48:20.46	23.70	4.50	-52.3	-73.9	3.6	1.51e+00	0	46	104	0	60	195055
2026-01-28 20:48:21.46	23.79	4.55	-52.3	-73.8	3.6	1.51e+00	0	46	104	0	60	191522
2026-01-28 20:48:22.47	23.89	4.61	-52.2	-73.8	3.6	1.51e+00	0	46	104	0	60	191724
2026-01-28 20:48:23.47	23.98	4.66	-52.1	-73.9	3.6	1.51e+00	0	46	104	0	60	193857
2026-01-28 20:48:24.48	24.08	4.72	-52.2	-73.9	3.5	1.51e+00	0	46	104	0	60	194483
2026-01-28 20:48:25.48	24.17	4.77	-52.3	-74.1	3.5	1.51e+00	0	46	104	0	60	197775
2026-01-28 20:48:26.49	24.27	4.83	-52.2	-73.8	3.6	1.51e+00	0	46	104	0	60	192843
2026-01-28 20:48:27.50	24.36	4.88	-52.2	-74.3	3.6	1.51e+00	0	46	104	0	60	204177
2026-01-28 20:48:28.50	24.46	4.94	-52.1	-73.7	3.6	1.51e+00	0	46	104	0	60	190175
2026-01-28 20:48:29.50	24.56	4.99	-52.0	-74.2	3.6	1.51e+00	0	46	104	0	60	201215
2026-01-28 20:48:30.51	24.65	5.05	-52.1	-73.8	3.6	1.51e+00	0	46	104	0	60	192583
2026-01-28 20:48:31.52	24.75	5.10	-52.1	-73.9	3.6	1.51e+00	0	46	104	0	60	193787
2026-01-28 20:48:32.53	24.85	5.16	-52.1	-73.8	3.6	1.51e+00	0	46	104	0	60	191198
2026-01-28 20:48:33.54	24.95	5.21	-52.1	-74.1	3.6	1.51e+00	0	46	104	0	60	199473
2026-01-28 20:48:34.54	25.05	5.27	-51.9	-73.6	3.6	1.51e+00	0	46	104	0	60	186776
2026-01-28 20:48:35.55	25.14	5.32	-51.8	-74.2	3.6	1.51e+00	0	46	104	0	60	200856
2026-01-28 20:48:36.56	25.24	5.38	-51.8	-74.2	3.6	1.51e+00	0	46	104	0	60	200793
2026-01-28 20:48:37.57	25.34	5.43	-51.9	-73.7	3.6	1.51e+00	0	46	104	0	60	190310
2026-01-28 20:48:38.58	25.44	5.49	-51.8	-73.6	3.6	1.51e+00	0	46	104	0	60	186621
2026-01-28 20:48:39.58	25.54	5.55	-51.9	-73.6	3.6	1.51e+00	0	46	104	0	60	187651
2026-01-28 20:48:40.59	25.64	5.60	-51.9	-73.9	3.6	1.51e+00	0	46	104	0	60	195025
2026-01-28 20:48:41.59	25.74	5.66	-51.9	-73.6	3.6	1.51e+00	0	46	104	0	60	188028
2026-01-28 20:48:42.60	25.85	5.71	-52.0	-74.6	3.6	1.51e+00	0	46	104	0	60	210552
2026-01-28 20:48:43.60	25.95	5.77	-52.0	-74.2	3.6	1.51e+00	0	46	104	0	60	200229
2026-01-28 20:48:44.61	26.05	5.82	-51.9	-74.0	3.6	1.51e+00	0	46	104	0	60	197337
2026-01-28 20:48:45.61	26.15	5.88	-51.9	-73.7	3.6	1.51e+00	0	46	104	0	60	189214
2026-01-28 20:48:46.62	26.25	5.93	-51.9	-73.2	3.6	1.51e+00	0	46	104	0	60	179342
2026-01-28 20:48:47.63	26.36	5.99	-52.0	-73.0	3.6	1.51e+00	0	46	104	0	60	174273
2026-01-28 20:48:48.64	26.46	6.05	-52.2	-73.5	3.6	1.51e+00	0	46	104	0	60	184468
2026-01-28 20:48:49.64	26.56	6.10	-51.4	-72.1	3.6	1.51e+00	0	46	104	0	60	157813
2026-01-28 20:48:50.65	26.67	6.16	-52.3	-74.6	3.6	1.51e+00	0	46	104	0	60	211548
2026-01-28 20:48:51.66	26.77	6.22	-53.4	-69.3	4.1	6.23e-02	0	46	104	0	60	113955
2026-01-28 20:48:52.66	26.88	6.27	-52.4	-63.5	5.3	1.51e+00	0	46	104	0	60	58858
2026-01-28 20:48:53.67	26.98	6.33	-54.5	-59.8	12.7	7.00e-07	0	46	104	0	60	38360
2026-01-28 20:48:54.68	27.09	6.38	-52.9	-63.0	7.3	6.22e-02	0	46	0	1048576	60	55186
2026-01-28 20:48:55.69	27.20	6.44	-52.6	-62.3	8.3	7.28e-02	0	46	0	3145728	60	51262
2026-01-28 20:48:56.70	27.30	6.50	-52.5	-61.7	8.8	2.36e-02	0	46	0	5242880	60	47735
2026-01-28 20:48:57.71	27.41	6.55	-52.7	-62.2	9.9	1.43e-02	0	46	0	7340032	60	50257
2026-01-28 20:48:58.71	27.52	6.61	-52.1	-61.1	11.3	4.24e-03	0	46	0	8388608	60	44532
2026-01-28 20:48:59.72	27.63	6.67	-51.3	-60.0	11.9	6.64e-04	0	46	0	10485760	60	39336
2026-01-28 20:49:00.73	27.73	6.72	-50.5	-59.4	12.3	2.23e-04	0	46	0	12582912	60	36414
2026-01-28 20:49:01.72	27.84	6.78	-50.1	-58.7	12.3	1.49e-04	0	46	0	14680064	60	33873
2026-01-28 20:49:02.73	27.95	6.83	-50.0	-58.5	12.5	1.02e-04	0	46	0	16777216	60	33043
2026-01-28 20:49:03.74	28.06	6.89	-50.7	-58.5	13.1	3.43e-05	0	46	0	17825792	60	33067
2026-01-28 20:49:04.75	28.17	6.95	-51.4	-58.1	14.5	0.00e+00	0	46	0	19922944	60	31385
2026-01-28 20:49:05.75	28.28	7.00	-54.0	-58.5	16.3	0.00e+00	0	46	0	22020096	60	32955
2026-01-28 20:49:06.76	28.39	7.06	-54.8	-58.4	16.2	0.00e+00	0	46	0	24117248	60	32660
2026-01-28 20:49:07.77	28.50	7.12	-53.3	-58.0	15.3	0.00e+00	0	46	0	26214400	60	31156
2026-01-28 20:49:08.78	28.61	7.18	-51.4	-57.8	14.0	0.00e+00	0	46	0	28311552	60	30490
2026-01-28 20:49:09.79	28.73	7.23	-50.7	-57.1	14.4	2.20e-06	0	46	0	29360128	60	27917
2026-01-28 20:49:10.79	28.84	7.29	-50.2	-56.6	14.4	7.00e-07	0	46	0	31457280	60	26548
2026-01-28 20:49:11.80	28.95	7.35	-49.7	-56.3	14.5	0.00e+00	0	46	0	33554432	60	25649
2026-01-28 20:49:12.80	29.06	7.40	-49.9	-56.6	14.7	0.00e+00	0	46	0	35651584	60	26412
2026-01-28 20:49:13.81	29.18	7.46	-50.1	-56.4	15.1	0.00e+00	0	46	0	36700160	60	25909
2026-01-28 20:49:14.82	29.29	7.52	-51.4	-56.4	16.2	0.00e+00	0	46	0	38797312	60	25995
2026-01-28 20:49:15.82	29.40	7.57	-52.3	-56.6	16.6	0.00e+00	0	46	0	40894464	60	26572
2026-01-28 20:49:16.83	29.52	7.63	-53.6	-56.7	16.8	0.00e+00	0	46	0	42991616	60	26936
2026-01-28 20:49:17.83	29.63	7.69	-53.7	-56.8	16.5	0.00e+00	0	46	0	45088768	60	27146
2026-01-28 20:49:18.84	29.75	7.75	-54.2	-56.9	16.9	0.00e+00	0	46	0	46137344	60	27367
2026-01-28 20:49:19.84	29.87	7.80	-54.5	-56.9	17.6	0.00e+00	0	46	0	48234496	60	27546
2026-01-28 20:49:20.84	29.98	7.86	-54.4	-56.8	17.9	0.00e+00	0	46	0	50331648	60	27152
2026-01-28 20:49:21.85	30.10	7.92	-54.1	-57.0	17.5	0.00e+00	0	46	0	52428800	60	27638
2026-01-28 20:49:22.85	30.22	7.97	-53.8	-56.9	17.2	0.00e+00	0	46	0	54525952	60	27331
2026-01-28 20:49:23.86	30.33	8.03	-53.4	-56.9	16.4	0.00e+00	0	46	0	56623104	60	27397
2026-01-28 20:49:24.87	30.45	8.09	-53.4	-56.9	16.3	0.00e+00	0	46	0	57671680	60	27420
2026-01-28 20:49:25.88	30.57	8.15	-53.7	-56.7	16.8	0.00e+00	0	46	0	59768832	60	26768
2026-01-28 20:49:26.88	30.69	8.20	-54.3	-56.8	17.6	0.00e+00	0	46	0	61865984	60	27260
2026-01-28 20:49:27.89	30.81	8.26	-54.1	-57.0	18.1	0.00e+00	0	46	0	63963136	60	27723
2026-01-28 20:49:28.89	30.93	8.32	-53.6	-56.8	18.2	0.00e+00	0	46	0	65011712	60	27225
2026-01-28 20:49:29.90	31.05	8.37	-53.2	-57.0	18.0	0.00e+00	0	46	0	67108864	60	27597
2026-01-28 20:49:30.91	31.17	8.43	-53.0	-57.0	17.8	0.00e+00	0	46	0	69206016	60	27686
2026-01-28 20:49:31.91	31.29	8.49	-53.2	-57.0	17.9	0.00e+00	0	46	0	71303168	60	27775
2026-01-28 20:49:32.92	31.41	8.55	-53.0	-57.1	17.8	0.00e+00	0	46	0	73400320	60	27987
2026-01-28 20:49:33.92	31.54	8.60	-52.4	-57.0	16.8	0.00e+00	0	46	0	74448896	60	27848
2026-01-28 20:49:34.93	31.66	8.66	-52.0	-56.9	16.7	0.00e+00	0	46	0	76546048	60	27464
2026-01-28 20:49:35.93	31.78	8.72	-51.4	-56.8	15.7	0.00e+00	0	46	0	78643200	60	27214
2026-01-28 20:49:36.94	31.91	8.78	-51.6	-56.8	15.9	0.00e+00	0	46	0	80740352	60	27045
2026-01-28 20:49:37.95	32.03	8.84	-52.5	-56.8	16.3	0.00e+00	0	46	0	82837504	60	27028
2026-01-28 20:49:38.96	32.16	8.89	-53.4	-56.9	16.9	0.00e+00	0	46	0	83886080	60	27531
2026-01-28 20:49:39.96	32.28	8.95	-53.7	-56.9	17.2	0.00e+00	0	46	0	85983232	60	27568
2026-01-28 20:49:40.97	32.41	9.01	-53.1	-57.1	16.6	0.00e+00	0	46	0	88080384	60	27935
2026-01-28 20:49:41.98	32.53	9.07	-52.4	-56.6	16.6	0.00e+00	0	46	0	90177536	60	26497
2026-01-28 20:49:42.99	32.66	9.12	-52.2	-56.7	16.3	0.00e+00	0	46	0	92274688	60	26742
2026-01-28 20:49:44.00	32.79	9.18	-52.6	-56.7	16.4	0.00e+00	0	46	0	93323264	60	26944
2026-01-28 20:49:45.01	32.91	9.24	-52.9	-56.5	17.2	0.00e+00	0	46	0	95420416	60	26079
2026-01-28 20:49:46.02	33.04	9.30	-53.4	-56.4	17.6	0.00e+00	0	46	0	97517568	60	25741
2026-01-28 20:49:47.02	33.17	9.36	-53.6	-56.2	17.9	0.00e+00	0	46	0	99614720	60	25336
2026-01-28 20:49:48.03	33.30	9.41	-53.7	-56.1	18.1	0.00e+00	0	46	0	101711872	60	24882
2026-01-28 20:49:49.04	33.43	9.47	-53.8	-56.1	18.1	0.00e+00	0	46	0	102760448	60	24916
2026-01-28 20:49:50.04	33.56	9.53	-54.0	-56.2	18.1	0.00e+00	0	46	0	104857600	60	25158
2026-01-28 20:49:51.04	33.69	9.59	-54.0	-56.1	18.2	0.00e+00	0	46	0	106954752	60	24990
2026-01-28 20:49:52.04	33.82	9.64	-53.8	-55.9	18.8	0.00e+00	0	46	0	109051904	60	24557
2026-01-28 20:49:53.05	33.95	9.70	-53.6	-56.2	18.3	0.00e+00	0	46	0	111149056	60	25361
2026-01-28 20:49:54.06	34.08	9.76	-53.2	-56.2	17.9	0.00e+00	0	46	0	112197632	60	25422
2026-01-28 20:49:55.07	34.22	9.82	-53.1	-56.5	17.8	0.00e+00	0	46	0	114294784	60	26079
2026-01-28 20:49:56.07	34.35	9.88	-53.9	-56.3	18.2	0.00e+00	0	46	0	116391936	60	25569
2026-01-28 20:49:57.08	34.48	9.93	-53.9	-56.3	18.1	0.00e+00	0	46	0	118489088	60	25629
2026-01-28 20:49:58.08	34.62	9.99	-53.8	-56.3	18.3	0.00e+00	0	46	0	120586240	60	25499
2026-01-28 20:49:59.09	34.75	10.05	-53.1	-56.2	17.8	0.00e+00	0	46	0	121634816	60	25274
2026-01-28 20:50:00.10	34.89	10.11	-53.1	-56.3	17.9	0.00e+00	0	46	0	123731968	60	25712
2026-01-28 20:50:01.10	35.02	10.16	-53.4	-56.4	18.0	0.00e+00	0	46	0	125829120	60	25809
2026-01-28 20:50:02.11	35.16	10.22	-53.2	-56.3	17.9	0.00e+00	0	46	0	127926272	60	25613
2026-01-28 20:50:03.12	35.29	10.28	-52.4	-56.2	17.3	0.00e+00	0	46	0	130023424	60	25326
2026-01-28 20:50:04.12	35.43	10.34	-52.3	-56.3	16.9	0.00e+00	0	46	0	131072000	60	25670
2026-01-28 20:50:05.13	35.57	10.40	-51.8	-56.4	16.7	0.00e+00	0	46	0	133169152	60	25752
2026-01-28 20:50:06.14	35.71	10.45	-52.0	-56.3	17.1	0.00e+00	0	46	0	135266304	60	25590
2026-01-28 20:50:07.14	35.85	10.51	-53.1	-56.5	17.7	0.00e+00	0	46	0	137363456	60	26325
2026-01-28 20:50:08.15	35.98	10.57	-53.7	-56.2	18.6	0.00e+00	0	46	0	139460608	60	25185
2026-01-28 20:50:09.15	36.12	10.63	-53.9	-56.4	18.6	0.00e+00	0	46	0	140509184	60	25770
2026-01-28 20:50:10.16	36.26	10.68	-53.7	-56.3	18.7	0.00e+00	0	46	0	142606336	60	25554
2026-01-28 20:50:11.17	36.41	10.74	-53.9	-56.4	18.5	0.00e+00	0	46	0	144703488	60	25958
2026-01-28 20:50:12.18	36.55	10.80	-53.9	-56.2	18.8	0.00e+00	0	46	0	146800640	60	25182
2026-01-28 20:50:13.18	36.69	10.86	-54.2	-56.2	18.8	0.00e+00	0	46	0	148897792	60	25384
2026-01-28 20:50:14.19	36.83	10.92	-54.3	-56.4	18.5	0.00e+00	0	46	0	149946368	60	25800
2026-01-28 20:50:15.20	36.98	10.97	-54.3	-56.3	18.3	0.00e+00	0	46	0	152043520	60	25617
2026-01-28 20:50:16.21	37.12	11.03	-54.2	-56.4	17.9	0.00e+00	0	46	0	154140672	60	25758
2026-01-28 20:50:17.22	37.26	11.09	-53.5	-56.3	17.2	0.00e+00	0	46	0	156237824	60	25630
2026-01-28 20:50:18.22	37.41	11.15	-52.9	-56.6	16.6	0.00e+00	0	46	0	158334976	60	26406
2026-01-28 20:50:19.23	37.55	11.20	-52.6	-56.4	16.8	0.00e+00	0	46	0	159383552	60	25847
2026-01-28 20:50:20.24	37.70	11.26	-52.8	-56.3	17.2	0.00e+00	0	46	0	161480704	60	25693
2026-01-28 20:50:21.25	37.85	11.32	-53.1	-56.1	17.9	0.00e+00	0	46	0	163577856	60	25071
2026-01-28 20:50:22.25	37.99	11.38	-53.4	-56.0	18.3	0.00e+00	0	46	0	165675008	60	24700
2026-01-28 20:50:23.26	38.14	11.44	-53.8	-56.0	18.8	0.00e+00	0	46	0	167772160	60	24588
2026-01-28 20:50:24.26	38.29	11.49	-53.8	-55.8	19.1	0.00e+00	0	46	0	169869312	60	24103
2026-01-28 20:50:25.27	38.44	11.55	-53.9	-56.0	18.9	0.00e+00	0	46	0	170917888	60	24599
2026-01-28 20:50:26.28	38.59	11.61	-53.7	-55.8	19.0	0.00e+00	0	46	0	173015040	60	24204
2026-01-28 20:50:27.28	38.73	11.66	-53.5	-55.9	18.6	0.00e+00	0	46	0	175112192	60	24356
2026-01-28 20:50:28.28	38.88	11.72	-53.3	-55.8	18.6	0.00e+00	0	46	0	177209344	60	24100
2026-01-28 20:50:29.29	39.03	11.78	-53.2	-56.0	18.1	0.00e+00	0	46	0	178257920	60	24777
2026-01-28 20:50:30.29	39.18	11.84	-53.2	-56.0	18.1	0.00e+00	0	46	0	180355072	60	24625
2026-01-28 20:50:31.30	39.34	11.89	-53.1	-55.8	18.4	0.00e+00	0	46	0	182452224	60	24068
2026-01-28 20:50:32.30	39.49	11.95	-53.2	-55.7	18.9	0.00e+00	0	46	0	184549376	60	23871
2026-01-28 20:50:33.31	39.64	12.01	-53.2	-55.4	19.5	0.00e+00	0	46	0	186646528	60	23134
2026-01-28 20:50:34.32	39.80	12.06	-53.1	-55.2	19.7	0.00e+00	0	46	0	187695104	60	22666
2026-01-28 20:50:35.33	39.95	12.12	-53.0	-55.0	20.0	0.00e+00	0	46	0	189792256	60	22125
2026-01-28 20:50:36.33	40.10	12.18	-52.8	-54.9	19.7	0.00e+00	0	46	0	191889408	60	21878
2026-01-28 20:50:37.34	40.26	12.24	-52.5	-54.8	19.5	0.00e+00	0	46	0	193986560	60	21473
2026-01-28 20:50:38.34	40.42	12.29	-52.5	-54.9	19.3	0.00e+00	0	46	0	196083712	60	21705
2026-01-28 20:50:39.34	40.57	12.35	-52.7	-55.1	19.4	0.00e+00	0	46	0	197132288	60	22411
2026-01-28 20:50:40.35	40.73	12.41	-52.8	-55.2	19.5	0.00e+00	0	46	0	199229440	60	22492
2026-01-28 20:50:41.35	40.89	12.46	-53.2	-55.5	19.5	0.00e+00	0	46	0	201326592	60	23306
2026-01-28 20:50:42.35	41.04	12.52	-53.4	-55.5	19.4	0.00e+00	0	46	0	203423744	60	23303
2026-01-28 20:50:43.36	41.20	12.57	-53.6	-55.6	19.2	0.00e+00	0	46	0	205520896	60	23678
2026-01-28 20:50:44.37	41.36	12.63	-53.8	-55.7	18.9	0.00e+00	0	46	0	207618048	60	23996
2026-01-28 20:50:45.37	41.52	12.69	-53.8	-55.8	18.9	0.00e+00	0	46	0	208666624	60	24023
2026-01-28 20:50:46.37	41.68	12.74	-53.8	-55.7	18.9	0.00e+00	0	46	0	210763776	60	23767
2026-01-28 20:50:47.38	41.84	12.80	-53.8	-55.7	19.1	0.00e+00	0	46	0	212860928	60	23844
2026-01-28 20:50:48.39	42.00	12.86	-53.7	-55.6	19.4	0.00e+00	0	46	0	214958080	60	23615
2026-01-28 20:50:49.40	42.17	12.91	-53.6	-55.5	19.6	0.00e+00	0	46	0	216006656	60	23289
2026-01-28 20:50:50.41	42.33	12.97	-53.8	-55.7	19.7	0.00e+00	0	46	0	218103808	60	23929
2026-01-28 20:50:51.41	42.49	13.02	-53.5	-55.3	19.7	0.00e+00	0	46	0	220200960	60	22912
2026-01-28 20:50:52.41	42.66	13.08	-53.6	-55.5	19.7	0.00e+00	0	46	0	222298112	60	23354
2026-01-28 20:50:53.42	42.82	13.14	-53.8	-55.6	19.6	0.00e+00	0	46	0	224395264	60	23702
2026-01-28 20:50:54.41	42.98	13.19	-53.7	-55.4	19.8	0.00e+00	0	46	0	225443840	60	23100
2026-01-28 20:50:55.42	43.15	13.25	-53.7	-55.5	19.6	0.00e+00	0	46	0	227540992	60	23232
2026-01-28 20:50:56.42	43.32	13.30	-53.9	-55.9	19.2	0.00e+00	0	46	0	229638144	60	24417
2026-01-28 20:50:57.42	43.48	13.36	-54.0	-56.0	19.2	0.00e+00	0	46	0	231735296	60	24765
2026-01-28 20:50:58.43	43.65	13.41	-54.1	-56.1	19.2	0.00e+00	0	46	0	233832448	60	24900
2026-01-28 20:50:59.43	43.82	13.47	-54.3	-56.1	19.3	0.00e+00	0	46	0	234881024	60	25054
2026-01-28 20:51:00.44	43.99	13.52	-54.3	-56.0	19.4	0.00e+00	0	46	0	236978176	60	24677
2026-01-28 20:51:01.43	44.16	13.58	-54.2	-56.0	19.4	0.00e+00	0	46	0	239075328	60	24597
2026-01-28 20:51:02.43	44.32	13.63	-54.1	-55.9	19.4	0.00e+00	0	46	0	241172480	60	24384
2026-01-28 20:51:03.43	44.49	13.69	-54.1	-55.9	19.4	0.00e+00	0	46	0	242221056	60	24320
2026-01-28 20:51:04.44	44.67	13.74	-54.2	-56.0	19.1	0.00e+00	0	46	0	244318208	60	24706
2026-01-28 20:51:05.45	44.84	13.80	-54.1	-56.0	18.9	0.00e+00	0	46	0	246415360	60	24663
2026-01-28 20:51:06.46	45.01	13.85	-53.8	-55.7	19.0	0.00e+00	0	46	0	248512512	60	23971
2026-01-28 20:51:07.47	45.19	13.91	-53.7	-55.7	19.2	0.00e+00	0	46	0	250609664	60	23955
2026-01-28 20:51:08.47	45.36	13.96	-53.4	-55.6	19.4	0.00e+00	0	46	0	252706816	60	23574
2026-01-28 20:51:09.48	45.53	14.01	-53.3	-55.4	19.6	0.00e+00	0	46	0	253755392	60	23140
2026-01-28 20:51:10.48	45.71	14.07	-53.3	-55.5	19.5	0.00e+00	0	46	0	255852544	60	23426
2026-01-28 20:51:11.49	45.88	14.12	-53.5	-55.6	19.5	0.00e+00	0	46	0	257949696	60	23696
2026-01-28 20:51:12.50	46.06	14.18	-53.4	-55.4	19.6	0.00e+00	0	46	0	260046848	60	22991
2026-01-28 20:51:13.50	46.24	14.23	-53.3	-55.3	19.4	0.00e+00	0	46	0	262144000	60	22811
2026-01-28 20:51:14.50	46.41	14.28	-53.3	-55.5	19.2	0.00e+00	0	46	0	263192576	60	23451
2026-01-28 20:51:15.51	46.59	14.34	-53.4	-55.8	18.9	0.00e+00	0	46	0	265289728	60	24178
2026-01-28 20:51:16.52	46.77	14.39	-53.2	-55.7	19.0	0.00e+00	0	46	0	267386880	60	23975
2026-01-28 20:51:17.52	46.95	14.44	-53.0	-55.6	19.2	0.00e+00	0	46	0	269484032	60	23656
2026-01-28 20:51:18.52	47.13	14.50	-53.2	-55.8	19.3	0.00e+00	0	46	0	270532608	60	24139
2026-01-28 20:51:19.52	47.31	14.55	-53.4	-55.7	19.5	0.00e+00	0	46	0	272629760	60	23924
2026-01-28 20:51:20.53	47.49	14.60	-53.4	-55.7	19.6	0.00e+00	0	46	0	274726912	60	23824
2026-01-28 20:51:21.54	47.67	14.65	-53.6	-55.7	19.5	0.00e+00	0	46	0	276824064	60	23781
2026-01-28 20:51:22.55	47.86	14.71	-53.7	-55.9	19.0	0.00e+00	0	46	0	278921216	60	24328
2026-01-28 20:51:23.56	48.04	14.76	-53.6	-55.9	18.8	0.00e+00	0	46	0	279969792	60	24470
2026-01-28 20:51:24.57	48.23	14.81	-53.5	-56.2	18.2	0.00e+00	0	46	0	282066944	60	25442
2026-01-28 20:51:25.57	48.41	14.86	-53.7	-56.6	18.0	0.00e+00	0	46	0	284164096	60	26413
2026-01-28 20:51:26.58	48.60	14.91	-53.7	-56.6	17.7	0.00e+00	0	46	0	286261248	60	26554
2026-01-28 20:51:27.59	48.78	14.97	-54.0	-56.8	18.5	0.00e+00	0	46	0	288358400	60	27064
2026-01-28 20:51:28.59	48.97	15.02	-54.6	-56.6	18.9	0.00e+00	0	46	0	290455552	60	26367
2026-01-28 20:51:29.59	49.15	15.07	-54.4	-56.3	18.9	0.00e+00	0	46	0	291504128	60	25622
2026-01-28 20:51:30.60	49.34	15.12	-54.0	-56.2	18.8	0.00e+00	0	46	0	293601280	60	25379
2026-01-28 20:51:31.60	49.53	15.17	-53.0	-56.2	18.6	0.00e+00	0	46	0	295698432	60	25243
2026-01-28 20:51:32.61	49.72	15.22	-52.6	-56.1	18.8	0.00e+00	0	46	0	297795584	60	25059
2026-01-28 20:51:33.61	49.91	15.27	-52.9	-56.2	19.0	0.00e+00	0	46	0	298844160	60	25407
2026-01-28 20:51:34.62	50.10	15.32	-53.4	-56.0	19.1	0.00e+00	0	46	0	300941312	60	24856
2026-01-28 20:51:35.63	50.29	15.37	-53.7	-56.2	18.9	0.00e+00	0	46	0	303038464	60	25198
2026-01-28 20:51:36.64	50.48	15.42	-53.6	-56.1	18.6	0.00e+00	0	46	0	305135616	60	25098
2026-01-28 20:51:37.65	50.67	15.47	-53.4	-56.0	18.2	0.00e+00	0	46	0	307232768	60	24713
2026-01-28 20:51:38.66	50.87	15.52	-53.1	-56.2	17.4	0.00e+00	0	46	0	308281344	60	25434
2026-01-28 20:51:39.66	51.06	15.57	-52.7	-56.3	17.0	0.00e+00	0	46	0	310378496	60	25477
2026-01-28 20:51:40.67	51.25	15.62	-52.8	-56.5	16.9	0.00e+00	0	46	0	312475648	60	26112
2026-01-28 20:51:41.68	51.45	15.67	-53.5	-56.4	17.7	0.00e+00	0	46	0	314572800	60	25943
2026-01-28 20:51:42.68	51.64	15.72	-54.6	-57.0	18.2	0.00e+00	0	46	0	316669952	60	27750
2026-01-28 20:51:43.69	51.84	15.77	-54.7	-56.9	18.6	0.00e+00	0	46	0	318767104	60	27318
2026-01-28 20:51:44.69	52.03	15.81	-54.8	-56.9	18.5	0.00e+00	0	46	0	319815680	60	27506
2026-01-28 20:51:45.70	52.23	15.86	-54.6	-56.7	18.7	0.00e+00	0	46	0	321912832	60	26667
2026-01-28 20:51:46.71	52.43	15.91	-54.4	-56.3	19.2	0.00e+00	0	46	0	324009984	60	25669
2026-01-28 20:51:47.72	52.63	15.96	-54.1	-56.4	18.8	0.00e+00	0	46	0	326107136	60	25993
2026-01-28 20:51:48.73	52.83	16.01	-52.9	-56.1	18.4	0.00e+00	0	46	0	327155712	60	25042
2026-01-28 20:51:49.73	53.03	16.05	-52.2	-56.3	17.5	0.00e+00	0	46	0	329252864	60	25495
2026-01-28 20:51:50.73	53.23	16.10	-51.4	-56.4	16.8	0.00e+00	0	46	0	331350016	60	25905
2026-01-28 20:51:51.74	53.43	16.15	-51.0	-56.7	16.1	0.00e+00	0	46	0	333447168	60	26936
2026-01-28 20:51:52.75	53.63	16.19	-50.7	-56.9	15.6	0.00e+00	0	46	0	335544320	60	27394
2026-01-28 20:51:53.76	53.83	16.24	-50.9	-57.0	15.2	0.00e+00	0	46	0	336592896	60	27806
2026-01-28 20:51:54.76	54.03	16.29	-51.5	-57.0	16.5	0.00e+00	0	46	0	338690048	60	27841
2026-01-28 20:51:55.77	54.24	16.33	-52.5	-57.0	17.1	0.00e+00	0	46	0	340787200	60	27655
2026-01-28 20:51:56.77	54.44	16.38	-53.4	-56.7	17.7	0.00e+00	0	46	0	342884352	60	26934
2026-01-28 20:51:57.78	54.65	16.42	-54.2	-56.8	18.1	0.00e+00	0	46	0	344981504	60	27182
2026-01-28 20:51:58.78	54.85	16.47	-54.8	-57.2	18.4	0.00e+00	0	46	0	347078656	60	28354
2026-01-28 20:51:59.79	55.06	16.51	-54.9	-57.4	18.2	0.00e+00	0	46	0	348127232	60	28969
2026-01-28 20:52:00.80	55.26	16.56	-54.7	-57.3	18.0	0.00e+00	0	46	0	350224384	60	28737
2026-01-28 20:52:01.81	55.47	16.60	-54.7	-57.4	17.6	0.00e+00	0	46	0	352321536	60	28960
2026-01-28 20:52:02.80	55.67	16.64	-54.8	-57.2	18.0	0.00e+00	0	46	0	354418688	60	28475
2026-01-28 20:52:03.81	55.88	16.69	-54.8	-57.3	18.1	0.00e+00	0	46	0	355467264	60	28592
2026-01-28 20:52:04.82	56.09	16.73	-54.6	-56.7	18.9	0.00e+00	0	46	0	357564416	60	26651
2026-01-28 20:52:05.82	56.30	16.77	-54.3	-56.2	19.5	0.00e+00	0	46	0	359661568	60	25274
2026-01-28 20:52:06.83	56.51	16.82	-54.4	-56.4	19.3	0.00e+00	0	46	0	361758720	60	25760
2026-01-28 20:52:07.84	56.72	16.86	-54.5	-56.4	19.2	0.00e+00	0	46	0	363855872	60	25987
2026-01-28 20:52:08.84	56.93	16.90	-54.2	-56.6	18.9	0.00e+00	0	46	0	364904448	60	26383
2026-01-28 20:52:09.85	57.14	16.94	-54.4	-56.9	18.7	0.00e+00	0	46	0	367001600	60	27569
2026-01-28 20:52:10.85	57.35	16.99	-53.5	-56.8	18.5	0.00e+00	0	46	0	369098752	60	27207
2026-01-28 20:52:11.86	57.57	17.03	-53.2	-56.8	18.0	0.00e+00	0	46	0	371195904	60	27055
2026-01-28 20:52:12.87	57.78	17.07	-53.9	-56.6	18.0	0.00e+00	0	46	0	373293056	60	26602
2026-01-28 20:52:13.88	57.99	17.11	-53.4	-56.4	18.6	0.00e+00	0	46	0	375390208	60	25945
2026-01-28 20:52:14.88	58.21	17.15	-52.8	-56.2	18.6	0.00e+00	0	46	0	376438784	60	25351
2026-01-28 20:52:15.89	58.42	17.19	-53.0	-55.8	19.1	0.00e+00	0	46	0	378535936	60	24179
2026-01-28 20:52:16.89	58.64	17.23	-53.3	-55.6	19.6	0.00e+00	0	46	0	380633088	60	23485
2026-01-28 20:52:17.90	58.85	17.27	-54.1	-55.8	19.9	0.00e+00	0	46	0	382730240	60	24297
2026-01-28 20:52:18.90	59.07	17.31	-54.5	-56.3	19.8	0.00e+00	0	46	0	383778816	60	25536
2026-01-28 20:52:19.91	59.29	17.35	-54.5	-56.4	19.3	0.00e+00	0	46	0	385875968	60	25909
2026-01-28 20:52:20.92	59.51	17.38	-54.9	-56.8	19.0	0.00e+00	0	46	0	387973120	60	27113
2026-01-28 20:52:21.93	59.72	17.42	-55.0	-57.0	19.0	0.00e+00	0	46	0	390070272	60	27645
2026-01-28 20:52:22.93	59.94	17.46	-54.6	-56.6	18.8	0.00e+00	0	46	0	392167424	60	26504
2026-01-28 20:52:23.94	60.16	17.50	-54.2	-56.7	18.4	0.00e+00	0	46	0	393216000	60	26712
2026-01-28 20:52:24.94	60.38	17.53	-53.8	-56.8	18.5	0.00e+00	0	46	0	395313152	60	27074
2026-01-28 20:52:25.95	60.60	17.57	-53.0	-56.9	17.7	0.00e+00	0	46	0	397410304	60	27358
2026-01-28 20:52:26.95	60.82	17.61	-52.6	-56.7	17.5	0.00e+00	0	46	0	399507456	60	26658
2026-01-28 20:52:27.96	61.04	17.64	-53.3	-56.9	17.5	0.00e+00	0	46	0	401604608	60	27558
2026-01-28 20:52:28.97	61.26	17.68	-52.9	-56.6	18.1	0.00e+00	0	46	0	403701760	60	26383
2026-01-28 20:52:29.97	61.49	17.71	-54.3	-56.3	19.7	0.00e+00	0	46	0	404750336	60	25447
2026-01-28 20:52:30.98	61.71	17.75	-54.4	-56.2	20.1	0.00e+00	0	46	0	406847488	60	25367
2026-01-28 20:52:31.99	61.93	17.78	-54.5	-56.1	20.2	0.00e+00	0	46	0	408944640	60	25124
2026-01-28 20:52:32.99	62.16	17.82	-54.5	-56.0	20.4	0.00e+00	0	46	0	411041792	60	24666
2026-01-28 20:52:34.00	62.38	17.85	-54.6	-56.1	20.2	0.00e+00	0	46	0	412090368	60	25086
2026-01-28 20:52:35.01	62.61	17.89	-54.6	-56.3	19.9	0.00e+00	0	46	0	414187520	60	25607
2026-01-28 20:52:36.01	62.83	17.92	-54.8	-56.7	19.8	0.00e+00	0	46	0	416284672	60	26778
2026-01-28 20:52:37.02	63.06	17.95	-55.0	-56.8	19.7	0.00e+00	0	46	0	418381824	60	27022
2026-01-28 20:52:38.03	63.28	17.98	-55.3	-57.1	19.3	0.00e+00	0	46	0	420478976	60	27929
2026-01-28 20:52:39.04	63.51	18.02	-53.8	-56.7	17.9	0.00e+00	0	46	0	421527552	60	26944
2026-01-28 20:52:40.04	63.74	18.05	-52.6	-56.6	17.5	0.00e+00	0	46	0	423624704	60	26580
2026-01-28 20:52:41.05	63.97	18.08	-51.6	-56.5	17.9	0.00e+00	0	46	0	425721856	60	26176
2026-01-28 20:52:42.06	64.19	18.11	-52.0	-56.4	18.1	0.00e+00	0	46	0	427819008	60	25821
2026-01-28 20:52:43.06	64.42	18.14	-54.2	-56.5	19.8	0.00e+00	0	46	0	429916160	60	26138
2026-01-28 20:52:44.07	64.65	18.17	-54.7	-56.5	20.0	0.00e+00	0	46	0	432013312	60	26093
2026-01-28 20:52:45.07	64.88	18.20	-54.6	-56.3	20.1	0.00e+00	0	46	0	433061888	60	25446
2026-01-28 20:52:46.08	65.11	18.23	-54.5	-56.3	20.0	0.00e+00	0	46	0	435159040	60	25685
2026-01-28 20:52:47.09	65.34	18.26	-54.2	-56.1	20.0	0.00e+00	0	46	0	437256192	60	25068
2026-01-28 20:52:48.09	65.57	18.29	-54.3	-56.0	20.4	0.00e+00	0	46	0	439353344	60	24792
2026-01-28 20:52:49.10	65.80	18.31	-54.8	-56.7	20.2	0.00e+00	0	46	0	440401920	60	26698
2026-01-28 20:52:50.11	66.04	18.34	-54.6	-56.5	20.3	0.00e+00	0	46	0	442499072	60	26038
2026-01-28 20:52:51.12	66.27	18.37	-55.1	-56.9	20.0	0.00e+00	0	46	0	444596224	60	27322
2026-01-28 20:52:52.12	66.50	18.39	-55.3	-57.0	19.9	0.00e+00	0	46	0	446693376	60	27885
2026-01-28 20:52:53.12	66.73	18.42	-55.4	-57.1	19.9	0.00e+00	0	46	0	448790528	60	27951
2026-01-28 20:52:54.13	66.96	18.45	-54.8	-56.5	20.3	0.00e+00	0	46	0	449839104	60	26319
2026-01-28 20:52:55.13	67.20	18.47	-54.5	-56.2	20.7	0.00e+00	0	46	0	451936256	60	25178
2026-01-28 20:52:56.14	67.43	18.50	-54.8	-56.3	20.6	0.00e+00	0	46	0	454033408	60	25554
2026-01-28 20:52:57.15	67.67	18.52	-54.9	-56.4	20.5	0.00e+00	0	46	0	456130560	60	25925
2026-01-28 20:52:58.16	67.90	18.55	-55.0	-56.9	20.0	0.00e+00	0	46	0	458227712	60	27351
2026-01-28 20:52:59.17	68.14	18.57	-55.1	-57.2	19.4	0.00e+00	0	46	0	460324864	60	28430
2026-01-28 20:53:00.17	68.37	18.59	-55.6	-57.7	19.2	0.00e+00	0	46	0	461373440	60	30018
2026-01-28 20:53:01.15	68.60	18.61	-55.7	-57.6	19.3	0.00e+00	0	46	0	463470592	60	29766
2026-01-28 20:53:02.16	68.84	18.64	-55.4	-57.5	19.3	0.00e+00	0	46	0	465567744	60	29243
2026-01-28 20:53:03.17	69.08	18.66	-55.4	-57.0	19.9	0.00e+00	0	46	0	467664896	60	27592
2026-01-28 20:53:04.17	69.31	18.68	-55.5	-57.2	19.7	0.00e+00	0	46	0	468713472	60	28283
2026-01-28 20:53:05.18	69.55	18.70	-55.4	-57.1	19.5	0.00e+00	0	46	0	470810624	60	28199
2026-01-28 20:53:06.19	69.79	18.72	-55.5	-57.4	19.0	0.00e+00	0	46	0	472907776	60	29078
2026-01-28 20:53:07.20	70.03	18.74	-55.5	-57.6	18.9	0.00e+00	0	46	0	475004928	60	29750
2026-01-28 20:53:08.20	70.26	18.76	-55.6	-57.8	18.8	0.00e+00	0	46	0	477102080	60	30517
2026-01-28 20:53:09.21	70.50	18.78	-55.6	-57.8	18.8	0.00e+00	0	46	0	478150656	60	30259
2026-01-28 20:53:10.21	70.74	18.80	-55.5	-57.5	19.3	0.00e+00	0	46	0	480247808	60	29292
2026-01-28 20:53:11.22	70.98	18.82	-55.6	-57.4	19.2	0.00e+00	0	46	0	482344960	60	29101
2026-01-28 20:53:12.22	71.22	18.83	-55.6	-57.6	19.2	0.00e+00	0	46	0	484442112	60	29553
2026-01-28 20:53:13.23	71.46	18.85	-55.8	-57.8	19.0	0.00e+00	0	46	0	486539264	60	30444
2026-01-28 20:53:14.24	71.70	18.87	-56.0	-58.0	18.9	0.00e+00	0	46	0	487587840	60	30961
2026-01-28 20:53:15.24	71.94	18.88	-56.0	-58.1	18.6	0.00e+00	0	46	0	489684992	60	31611
2026-01-28 20:53:16.25	72.18	18.90	-56.0	-58.1	18.6	0.00e+00	0	46	0	491782144	60	31538
2026-01-28 20:53:17.25	72.42	18.91	-55.9	-58.0	18.8	0.00e+00	0	46	0	493879296	60	30967
2026-01-28 20:53:18.26	72.66	18.93	-55.8	-57.6	19.1	0.00e+00	0	46	0	495976448	60	29834
2026-01-28 20:53:19.27	72.90	18.94	-55.7	-57.6	19.2	0.00e+00	0	46	0	497025024	60	29619
2026-01-28 20:53:20.27	73.14	18.96	-55.5	-57.4	19.5	0.00e+00	0	46	0	499122176	60	28955
2026-01-28 20:53:21.28	73.38	18.97	-55.6	-57.4	19.4	0.00e+00	0	46	0	501219328	60	29190
2026-01-28 20:53:22.29	73.62	18.98	-55.9	-57.8	19.1	0.00e+00	0	46	0	503316480	60	30248
2026-01-28 20:53:23.30	73.87	19.00	-55.9	-57.8	19.2	0.00e+00	0	46	0	505413632	60	30458
2026-01-28 20:53:24.31	74.11	19.01	-55.8	-57.8	18.9	0.00e+00	0	46	0	506462208	60	30495
2026-01-28 20:53:25.31	74.35	19.02	-55.8	-57.7	19.0	0.00e+00	0	46	0	508559360	60	30184
2026-01-28 20:53:26.32	74.59	19.03	-55.9	-57.8	19.2	0.00e+00	0	46	0	510656512	60	30566
2026-01-28 20:53:27.32	74.83	19.04	-55.9	-57.8	19.1	0.00e+00	0	46	0	512753664	60	30325
2026-01-28 20:53:28.33	75.08	19.05	-56.0	-57.9	19.0	0.00e+00	0	46	0	514850816	60	30716
2026-01-28 20:53:29.33	75.32	19.06	-56.3	-58.3	18.6	0.00e+00	0	46	0	515899392	60	32149
2026-01-28 20:53:30.34	75.56	19.07	-56.3	-58.2	18.6	0.00e+00	0	46	0	517996544	60	31927
2026-01-28 20:53:31.35	75.81	19.08	-56.1	-57.9	19.1	0.00e+00	0	46	0	520093696	60	30878
2026-01-28 20:53:32.36	76.05	19.09	-56.0	-57.9	19.1	0.00e+00	0	46	0	522190848	60	30621
2026-01-28 20:53:33.37	76.29	19.09	-55.8	-57.6	19.4	0.00e+00	0	46	0	524288000	60	29733
2026-01-28 20:53:34.38	76.54	19.10	-55.6	-57.4	19.4	0.00e+00	0	46	0	525336576	60	29201
2026-01-28 20:53:35.38	76.78	19.11	-55.6	-57.6	19.3	0.00e+00	0	46	0	527433728	60	29611
2026-01-28 20:53:36.39	77.02	19.11	-55.6	-57.7	19.2	0.00e+00	0	46	0	529530880	60	29983
2026-01-28 20:53:37.40	77.27	19.12	-55.6	-57.8	18.8	0.00e+00	0	46	0	531628032	60	30536
2026-01-28 20:53:38.41	77.51	19.12	-55.8	-58.0	18.6	0.00e+00	0	46	0	533725184	60	31126
2026-01-28 20:53:39.41	77.76	19.13	-56.1	-58.3	18.3	0.00e+00	0	46	0	534773760	60	32295
2026-01-28 20:53:40.42	78.00	19.13	-56.1	-58.3	18.7	0.00e+00	0	46	0	536870912	60	32056
2026-01-28 20:53:41.42	78.24	19.13	-56.2	-58.4	18.4	0.00e+00	0	46	0	538968064	60	32524
2026-01-28 20:53:42.43	78.49	19.14	-56.0	-58.1	18.6	0.00e+00	0	46	0	541065216	60	31551
2026-01-28 20:53:43.43	78.73	19.14	-55.9	-58.1	18.4	0.00e+00	0	46	0	543162368	60	31375
2026-01-28 20:53:44.43	78.97	19.14	-55.9	-58.0	18.6	0.00e+00	0	46	0	544210944	60	30984
2026-01-28 20:53:45.43	79.22	19.14	-56.1	-58.2	18.5	0.00e+00	0	46	0	546308096	60	31864
2026-01-28 20:53:46.43	79.46	19.14	-56.0	-58.2	18.2	0.00e+00	0	46	0	548405248	60	31893
2026-01-28 20:53:47.44	79.70	19.14	-55.7	-57.9	18.7	0.00e+00	0	46	0	550502400	60	30603
2026-01-28 20:53:48.44	79.95	19.14	-55.6	-57.7	18.9	0.00e+00	0	46	0	552599552	60	30099
2026-01-28 20:53:49.44	80.19	19.14	-55.4	-57.3	19.6	0.00e+00	0	46	0	553648128	60	28597
2026-01-28 20:53:50.45	80.44	19.14	-55.4	-57.2	19.5	0.00e+00	0	46	0	555745280	60	28501
2026-01-28 20:53:51.45	80.68	19.14	-56.7	-58.4	19.6	0.00e+00	0	46	0	557842432	60	32693
2026-01-28 20:53:52.46	80.92	19.14	-56.7	-58.5	19.2	0.00e+00	0	46	0	559939584	60	32909
2026-01-28 20:53:53.47	81.17	19.13	-56.8	-58.7	18.8	0.00e+00	0	46	0	562036736	60	33792
2026-01-28 20:53:54.47	81.41	19.13	-56.9	-58.9	18.7	0.00e+00	0	46	0	563085312	60	34419
2026-01-28 20:53:55.47	81.65	19.13	-56.9	-58.9	18.5	0.00e+00	0	46	0	565182464	60	34430
2026-01-28 20:53:56.47	81.90	19.12	-56.7	-58.7	18.9	0.00e+00	0	46	0	567279616	60	33788
2026-01-28 20:53:57.48	82.14	19.12	-56.5	-58.7	18.6	0.00e+00	0	46	0	569376768	60	33663
2026-01-28 20:53:58.48	82.38	19.11	-56.4	-58.5	18.7	0.00e+00	0	46	0	571473920	60	33140
2026-01-28 20:53:59.48	82.62	19.11	-56.4	-58.7	18.9	0.00e+00	0	46	0	572522496	60	33693
2026-01-28 20:54:00.49	82.87	19.10	-56.4	-58.7	18.5	0.00e+00	0	46	0	574619648	60	33838
2026-01-28 20:54:01.49	83.11	19.09	-56.3	-58.5	18.6	0.00e+00	0	46	0	576716800	60	33042
2026-01-28 20:54:02.50	83.36	19.09	-56.3	-58.4	19.0	0.00e+00	0	46	0	578813952	60	32453
2026-01-28 20:54:03.50	83.60	19.08	-56.1	-58.2	19.0	0.00e+00	0	46	0	580911104	60	31754
2026-01-28 20:54:04.50	83.84	19.07	-56.1	-58.1	19.0	0.00e+00	0	46	0	581959680	60	31519
2026-01-28 20:54:05.51	84.08	19.06	-56.0	-58.0	19.3	0.00e+00	0	46	0	584056832	60	31192
2026-01-28 20:54:06.51	84.32	19.05	-56.1	-58.2	19.2	0.00e+00	0	46	0	586153984	60	31754
2026-01-28 20:54:07.52	84.57	19.04	-56.0	-58.0	19.2	0.00e+00	0	46	0	588251136	60	31286
2026-01-28 20:54:08.52	84.81	19.03	-55.9	-58.0	19.2	0.00e+00	0	46	0	589299712	60	31088
2026-01-28 20:54:09.53	85.05	19.02	-55.9	-58.0	19.2	0.00e+00	0	46	0	591396864	60	31218
2026-01-28 20:54:10.54	85.30	19.01	-55.7	-57.8	19.4	0.00e+00	0	46	0	593494016	60	30384
2026-01-28 20:54:11.55	85.54	19.00	-55.8	-57.8	19.4	0.00e+00	0	46	0	595591168	60	30352
2026-01-28 20:54:12.56	85.78	18.99	-55.6	-57.6	19.7	0.00e+00	0	46	0	597688320	60	29688
2026-01-28 20:54:13.56	86.02	18.97	-55.4	-57.3	19.8	0.00e+00	0	46	0	598736896	60	28602
2026-01-28 20:54:14.57	86.26	18.96	-55.1	-57.0	19.4	0.00e+00	0	46	0	600834048	60	27640
2026-01-28 20:54:15.57	86.50	18.95	-55.0	-56.9	19.4	0.00e+00	0	46	0	602931200	60	27442
2026-01-28 20:54:16.58	86.75	18.93	-55.0	-57.0	19.5	0.00e+00	0	46	0	605028352	60	27584
2026-01-28 20:54:17.58	86.99	18.92	-55.0	-57.0	19.8	0.00e+00	0	46	0	607125504	60	27731
2026-01-28 20:54:18.59	87.23	18.90	-55.3	-57.3	19.1	0.00e+00	0	46	0	609222656	60	28650
2026-01-28 20:54:19.59	87.47	18.89	-55.4	-57.4	19.1	0.00e+00	0	46	0	610271232	60	28881
2026-01-28 20:54:20.59	87.71	18.87	-55.6	-57.5	19.3	0.00e+00	0	46	0	612368384	60	29409
2026-01-28 20:54:21.59	87.94	18.85	-55.6	-57.4	19.5	0.00e+00	0	46	0	614465536	60	29169
2026-01-28 20:54:22.60	88.18	18.84	-55.7	-57.5	19.6	0.00e+00	0	46	0	616562688	60	29221
2026-01-28 20:54:23.61	88.43	18.82	-55.8	-57.5	19.5	0.00e+00	0	46	0	617611264	60	29456
2026-01-28 20:54:24.62	88.67	18.80	-55.6	-57.4	19.6	0.00e+00	0	46	0	619708416	60	28923
2026-01-28 20:54:25.62	88.90	18.78	-55.9	-57.6	19.3	0.00e+00	0	46	0	621805568	60	29764
2026-01-28 20:54:26.63	89.14	18.76	-56.0	-57.8	19.3	0.00e+00	0	46	0	623902720	60	30480
2026-01-28 20:54:27.64	89.38	18.74	-55.8	-57.6	19.3	0.00e+00	0	46	0	625999872	60	29785
2026-01-28 20:54:28.65	89.62	18.72	-55.8	-57.7	19.4	0.00e+00	0	46	0	627048448	60	29911
2026-01-28 20:54:29.65	89.86	18.70	-55.6	-57.5	19.2	0.00e+00	0	46	0	629145600	60	29337
2026-01-28 20:54:30.66	90.10	18.68	-55.3	-57.2	19.3	0.00e+00	0	46	0	631242752	60	28237
2026-01-28 20:54:31.66	90.33	18.66	-55.4	-57.2	19.3	0.00e+00	0	46	0	633339904	60	28452
2026-01-28 20:54:32.67	90.57	18.64	-55.6	-57.5	19.4	0.00e+00	0	46	0	635437056	60	29357
2026-01-28 20:54:33.68	90.81	18.62	-55.9	-57.9	19.2	0.00e+00	0	46	0	637534208	60	30616
2026-01-28 20:54:34.68	91.04	18.60	-56.2	-58.1	18.8	0.00e+00	0	46	0	638582784	60	31599
2026-01-28 20:54:35.69	91.28	18.57	-56.4	-58.4	18.6	0.00e+00	0	46	0	640679936	60	32623
2026-01-28 20:54:36.70	91.51	18.55	-56.3	-58.3	18.6	0.00e+00	0	46	0	642777088	60	32158
2026-01-28 20:54:37.70	91.75	18.52	-56.1	-58.1	18.7	0.00e+00	0	46	0	644874240	60	31592
2026-01-28 20:54:38.70	91.98	18.50	-55.8	-57.7	19.0	0.00e+00	0	46	0	645922816	60	30193
2026-01-28 20:54:39.71	92.22	18.48	-55.3	-57.2	19.3	0.00e+00	0	46	0	648019968	60	28359
2026-01-28 20:54:40.72	92.45	18.45	-55.0	-56.7	19.8	0.00e+00	0	46	0	650117120	60	26945
2026-01-28 20:54:41.73	92.69	18.42	-55.0	-56.7	19.9	0.00e+00	0	46	0	652214272	60	26864
2026-01-28 20:54:42.74	92.92	18.40	-54.8	-56.6	20.1	0.00e+00	0	46	0	654311424	60	26374
2026-01-28 20:54:43.74	93.15	18.37	-54.8	-56.6	19.8	0.00e+00	0	46	0	655360000	60	26519
2026-01-28 20:54:44.75	93.38	18.34	-55.0	-56.8	19.5	0.00e+00	0	46	0	657457152	60	27072
2026-01-28 20:54:45.75	93.61	18.32	-55.0	-56.8	19.7	0.00e+00	0	46	0	659554304	60	27030
2026-01-28 20:54:46.76	93.85	18.29	-54.9	-56.7	19.9	0.00e+00	0	46	0	661651456	60	26684
2026-01-28 20:54:47.77	94.08	18.26	-54.8	-56.6	19.7	0.00e+00	0	46	0	663748608	60	26391
2026-01-28 20:54:48.78	94.31	18.23	-54.4	-56.1	20.0	0.00e+00	0	46	0	665845760	60	25075
2026-01-28 20:54:49.78	94.54	18.20	-54.2	-55.9	20.6	0.00e+00	0	46	0	666894336	60	24318
2026-01-28 20:54:50.79	94.77	18.17	-53.9	-55.6	20.8	0.00e+00	0	46	0	668991488	60	23539
2026-01-28 20:54:51.80	95.00	18.14	-53.9	-55.7	20.3	0.00e+00	0	46	0	671088640	60	24015
2026-01-28 20:54:52.81	95.23	18.11	-54.1	-55.9	20.3	0.00e+00	0	46	0	673185792	60	24517
2026-01-28 20:54:53.81	95.46	18.08	-54.4	-56.3	19.8	0.00e+00	0	46	0	674234368	60	25566
2026-01-28 20:54:54.82	95.69	18.05	-54.6	-56.5	19.9	0.00e+00	0	46	0	676331520	60	26155
2026-01-28 20:54:55.82	95.91	18.02	-54.8	-56.6	19.9	0.00e+00	0	46	0	678428672	60	26561
2026-01-28 20:54:56.83	96.14	17.99	-54.7	-56.4	20.2	0.00e+00	0	46	0	680525824	60	25955
2026-01-28 20:54:57.83	96.37	17.95	-54.6	-56.3	20.3	0.00e+00	0	46	0	682622976	60	25449
2026-01-28 20:54:58.83	96.59	17.92	-54.3	-56.0	20.5	0.00e+00	0	46	0	683671552	60	24789
2026-01-28 20:54:59.84	96.82	17.89	-54.0	-55.8	20.6	0.00e+00	0	46	0	685768704	60	24034
2026-01-28 20:55:00.84	97.04	17.86	-53.8	-55.6	20.7	0.00e+00	0	46	0	687865856	60	23655
2026-01-28 20:55:01.85	97.27	17.82	-53.7	-55.7	20.5	0.00e+00	0	46	0	689963008	60	23804
2026-01-28 20:55:02.86	97.49	17.79	-53.9	-55.9	20.1	0.00e+00	0	46	0	692060160	60	24366
2026-01-28 20:55:03.86	97.72	17.75	-54.1	-56.0	20.0	0.00e+00	0	46	0	693108736	60	24802
2026-01-28 20:55:04.86	97.94	17.72	-54.3	-56.1	20.2	0.00e+00	0	46	0	695205888	60	24955
2026-01-28 20:55:05.87	98.16	17.68	-54.3	-55.9	20.5	0.00e+00	0	46	0	697303040	60	24563
2026-01-28 20:55:06.88	98.39	17.65	-54.3	-55.9	20.5	0.00e+00	0	46	0	699400192	60	24490
2026-01-28 20:55:07.89	98.61	17.61	-54.4	-55.9	20.6	0.00e+00	0	46	0	701497344	60	24506
2026-01-28 20:55:08.89	98.83	17.57	-54.3	-55.9	20.6	0.00e+00	0	46	0	702545920	60	24476
2026-01-28 20:55:09.89	99.05	17.54	-54.3	-56.1	20.2	0.00e+00	0	46	0	704643072	60	24891
2026-01-28 20:55:10.90	99.27	17.50	-54.3	-56.1	19.8	0.00e+00	0	46	0	706740224	60	25118
2026-01-28 20:55:11.91	99.49	17.46	-54.4	-56.4	19.4	0.00e+00	0	46	0	708837376	60	25851
2026-01-28 20:55:12.92	99.71	17.42	-54.3	-56.3	19.4	0.00e+00	0	46	0	710934528	60	25582
2026-01-28 20:55:13.92	99.93	17.39	-54.4	-56.4	19.6	0.00e+00	0	46	0	711983104	60	25780
2026-01-28 20:55:14.93	100.15	17.35	-54.4	-56.2	20.0	0.00e+00	0	46	0	714080256	60	25431
2026-01-28 20:55:15.94	100.36	17.31	-54.2	-56.0	20.3	0.00e+00	0	46	0	716177408	60	24665
2026-01-28 20:55:16.94	100.58	17.27	-54.1	-56.0	20.2	0.00e+00	0	46	0	718274560	60	24673
2026-01-28 20:55:17.95	100.80	17.23	-54.1	-56.1	20.1	0.00e+00	0	46	0	720371712	60	24900
2026-01-28 20:55:18.96	101.01	17.19	-54.1	-56.2	19.6	0.00e+00	0	46	0	721420288	60	25302
2026-01-28 20:55:19.96	101.23	17.15	-54.2	-56.3	19.4	0.00e+00	0	46	0	723517440	60	25729
2026-01-28 20:55:20.97	101.44	17.11	-54.1	-56.2	19.5	0.00e+00	0	46	0	725614592	60	25369
2026-01-28 20:55:21.97	101.66	17.07	-54.0	-56.1	19.8	0.00e+00	0	46	0	727711744	60	25063
2026-01-28 20:55:22.98	101.87	17.03	-54.0	-56.0	19.8	0.00e+00	0	46	0	729808896	60	24863
2026-01-28 20:55:23.99	102.09	16.99	-54.1	-56.1	19.9	0.00e+00	0	46	0	730857472	60	24988
2026-01-28 20:55:24.99	102.30	16.94	-54.5	-56.5	19.6	0.00e+00	0	46	0	732954624	60	26259
2026-01-28 20:55:25.99	102.51	16.90	-54.8	-56.9	19.4	0.00e+00	0	46	0	735051776	60	27296
2026-01-28 20:55:27.00	102.72	16.86	-55.1	-57.3	19.1	0.00e+00	0	46	0	737148928	60	28577
2026-01-28 20:55:28.00	102.93	16.82	-55.1	-57.2	19.1	0.00e+00	0	46	0	739246080	60	28258
2026-01-28 20:55:29.01	103.14	16.77	-55.3	-57.5	18.8	0.00e+00	0	46	0	740294656	60	29232
2026-01-28 20:55:30.02	103.35	16.73	-55.2	-57.1	19.1	0.00e+00	0	46	0	742391808	60	28220
2026-01-28 20:55:31.03	103.56	16.69	-55.1	-57.0	19.2	0.00e+00	0	46	0	744488960	60	27887
2026-01-28 20:55:32.03	103.77	16.64	-55.0	-56.9	19.4	0.00e+00	0	46	0	746586112	60	27520
2026-01-28 20:55:33.04	103.98	16.60	-54.9	-56.7	19.6	0.00e+00	0	46	0	748683264	60	26691
2026-01-28 20:55:34.05	104.19	16.56	-54.9	-56.8	19.6	0.00e+00	0	46	0	749731840	60	27028
2026-01-28 20:55:35.05	104.39	16.51	-54.8	-56.6	19.8	0.00e+00	0	46	0	751828992	60	26498
2026-01-28 20:55:36.06	104.60	16.47	-54.5	-56.2	19.9	0.00e+00	0	46	0	753926144	60	25392
2026-01-28 20:55:37.06	104.80	16.42	-54.6	-56.2	19.8	0.00e+00	0	46	0	756023296	60	25371
2026-01-28 20:55:38.07	105.01	16.38	-54.5	-56.1	20.1	0.00e+00	0	46	0	758120448	60	24868
2026-01-28 20:55:39.08	105.21	16.33	-54.5	-56.0	20.2	0.00e+00	0	46	0	759169024	60	24784
2026-01-28 20:55:40.09	105.42	16.28	-54.4	-55.9	20.2	0.00e+00	0	46	0	761266176	60	24469
2026-01-28 20:55:41.09	105.62	16.24	-54.5	-56.1	20.0	0.00e+00	0	46	0	763363328	60	24907
2026-01-28 20:55:42.10	105.82	16.19	-54.6	-56.3	19.9	0.00e+00	0	46	0	765460480	60	25466
2026-01-28 20:55:43.11	106.03	16.14	-54.8	-56.6	19.5	0.00e+00	0	46	0	767557632	60	26421
2026-01-28 20:55:44.11	106.23	16.10	-55.1	-57.1	19.0	0.00e+00	0	46	0	768606208	60	27967
2026-01-28 20:55:45.12	106.43	16.05	-55.5	-57.6	18.6	0.00e+00	0	46	0	770703360	60	29647
2026-01-28 20:55:46.13	106.63	16.00	-55.7	-57.9	18.3	0.00e+00	0	46	0	772800512	60	30756
2026-01-28 20:55:47.14	106.83	15.95	-55.9	-58.3	18.0	0.00e+00	0	46	0	774897664	60	32091
2026-01-28 20:55:48.14	107.03	15.91	-55.9	-58.4	17.9	0.00e+00	0	46	0	776994816	60	32595
2026-01-28 20:55:49.15	107.23	15.86	-56.0	-58.7	17.6	0.00e+00	0	46	0	778043392	60	33610
2026-01-28 20:55:50.16	107.42	15.81	-55.5	-58.1	18.1	0.00e+00	0	46	0	780140544	60	31361
2026-01-28 20:55:51.17	107.62	15.76	-55.4	-57.9	17.9	0.00e+00	0	46	0	782237696	60	30837
2026-01-28 20:55:52.18	107.82	15.71	-55.0	-57.5	18.0	0.00e+00	0	46	0	784334848	60	29444
2026-01-28 20:55:53.18	108.01	15.66	-54.7	-57.2	18.0	0.00e+00	0	46	0	786432000	60	28453
2026-01-28 20:55:54.19	108.21	15.61	-54.6	-57.2	18.1	0.00e+00	0	46	0	787480576	60	28344
2026-01-28 20:55:55.19	108.40	15.57	-54.3	-56.8	18.6	0.00e+00	0	46	0	789577728	60	26967
2026-01-28 20:55:56.21	108.60	15.51	-54.2	-56.6	19.0	0.00e+00	0	46	0	791674880	60	26577
2026-01-28 20:55:57.21	108.79	15.47	-54.1	-56.3	19.5	0.00e+00	0	46	0	793772032	60	25669
2026-01-28 20:55:58.22	108.98	15.41	-54.1	-56.1	19.6	0.00e+00	0	46	0	795869184	60	25141
2026-01-28 20:55:59.22	109.18	15.36	-54.1	-56.1	19.7	0.00e+00	0	46	0	796917760	60	24866
2026-01-28 20:56:00.23	109.37	15.31	-54.4	-56.3	19.4	0.00e+00	0	46	0	799014912	60	25696
2026-01-28 20:56:01.23	109.56	15.26	-54.8	-56.6	19.3	0.00e+00	0	46	0	801112064	60	26610
2026-01-28 20:56:02.24	109.75	15.21	-55.1	-57.0	18.9	0.00e+00	0	46	0	803209216	60	27720
2026-01-28 20:56:03.25	109.94	15.16	-55.6	-57.7	18.3	0.00e+00	0	46	0	805306368	60	29895
2026-01-28 20:56:04.24	110.12	15.11	-55.8	-58.0	18.2	0.00e+00	0	46	0	806354944	60	31164
2026-01-28 20:56:05.25	110.31	15.06	-55.7	-57.8	18.3	0.00e+00	0	46	0	808452096	60	30459
2026-01-28 20:56:06.26	110.50	15.01	-55.9	-58.1	18.0	0.00e+00	0	46	0	810549248	60	31547
2026-01-28 20:56:07.27	110.69	14.96	-55.6	-57.7	18.3	0.00e+00	0	46	0	812646400	60	30117
2026-01-28 20:56:08.27	110.87	14.90	-55.2	-57.2	18.8	0.00e+00	0	46	0	814743552	60	28465
2026-01-28 20:56:09.27	111.06	14.85	-55.0	-56.9	19.2	0.00e+00	0	46	0	815792128	60	27320
2026-01-28 20:56:10.28	111.25	14.80	-55.0	-56.8	19.1	0.00e+00	0	46	0	817889280	60	27153
2026-01-28 20:56:11.29	111.43	14.75	-55.0	-56.9	19.1	0.00e+00	0	46	0	819986432	60	27299
2026-01-28 20:56:12.30	111.62	14.70	-55.1	-57.0	19.0	0.00e+00	0	46	0	822083584	60	27655
2026-01-28 20:56:13.30	111.80	14.64	-55.1	-57.0	19.0	0.00e+00	0	46	0	824180736	60	27707
2026-01-28 20:56:14.30	111.98	14.59	-54.9	-56.7	19.2	0.00e+00	0	46	0	825229312	60	26918
2026-01-28 20:56:15.31	112.16	14.54	-54.8	-56.6	19.3	0.00e+00	0	46	0	827326464	60	26397
2026-01-28 20:56:16.32	112.34	14.48	-54.7	-56.4	19.5	0.00e+00	0	46	0	829423616	60	25890
2026-01-28 20:56:17.33	112.53	14.43	-54.6	-56.3	19.6	0.00e+00	0	46	0	831520768	60	25522
2026-01-28 20:56:18.34	112.71	14.38	-54.6	-56.3	19.5	0.00e+00	0	46	0	833617920	60	25723
2026-01-28 20:56:19.34	112.88	14.32	-54.6	-56.2	19.7	0.00e+00	0	46	0	834666496	60	25430
2026-01-28 20:56:20.35	113.06	14.27	-54.8	-56.6	19.3	0.00e+00	0	46	0	836763648	60	26407
2026-01-28 20:56:21.36	113.24	14.22	-54.9	-56.7	19.2	0.00e+00	0	46	0	838860800	60	26892
2026-01-28 20:56:22.36	113.42	14.16	-55.2	-57.1	18.8	0.00e+00	0	46	0	840957952	60	28088
2026-01-28 20:56:23.37	113.60	14.11	-55.4	-57.4	18.6	0.00e+00	0	46	0	843055104	60	29117
2026-01-28 20:56:24.38	113.77	14.05	-55.2	-57.1	18.9	0.00e+00	0	46	0	844103680	60	27915
2026-01-28 20:56:25.39	113.95	14.00	-55.0	-56.9	19.0	0.00e+00	0	46	0	846200832	60	27483
2026-01-28 20:56:26.39	114.12	13.94	-54.9	-56.7	19.1	0.00e+00	0	46	0	848297984	60	26938
2026-01-28 20:56:27.40	114.30	13.89	-54.7	-56.5	19.3	0.00e+00	0	46	0	850395136	60	26200
2026-01-28 20:56:28.41	114.47	13.83	-54.7	-56.4	19.4	0.00e+00	0	46	0	852492288	60	25960
2026-01-28 20:56:29.41	114.65	13.78	-54.6	-56.3	19.5	0.00e+00	0	46	0	853540864	60	25537
2026-01-28 20:56:30.42	114.82	13.72	-54.7	-56.4	19.4	0.00e+00	0	46	0	855638016	60	25873
2026-01-28 20:56:31.42	114.99	13.67	-54.7	-56.4	19.5	0.00e+00	0	46	0	857735168	60	25784
2026-01-28 20:56:32.43	115.16	13.61	-54.7	-56.4	19.5	0.00e+00	0	46	0	859832320	60	25906
2026-01-28 20:56:33.44	115.33	13.56	-54.7	-56.4	19.4	0.00e+00	0	46	0	861929472	60	25947
2026-01-28 20:56:34.44	115.50	13.50	-54.7	-56.5	19.3	0.00e+00	0	46	0	862978048	60	26114
2026-01-28 20:56:35.45	115.67	13.45	-54.8	-56.6	19.2	0.00e+00	0	46	0	865075200	60	26443
2026-01-28 20:56:36.45	115.84	13.39	-54.8	-56.5	19.3	0.00e+00	0	46	0	867172352	60	26328
2026-01-28 20:56:37.46	116.01	13.34	-54.7	-56.5	19.3	0.00e+00	0	46	0	869269504	60	26103
2026-01-28 20:56:38.47	116.18	13.28	-54.8	-56.5	19.3	0.00e+00	0	46	0	871366656	60	26282
2026-01-28 20:56:39.48	116.35	13.22	-54.8	-56.5	19.4	0.00e+00	0	46	0	872415232	60	26167
2026-01-28 20:56:40.48	116.51	13.17	-54.9	-56.6	19.2	0.00e+00	0	46	0	874512384	60	26584
2026-01-28 20:56:41.49	116.68	13.11	-54.8	-56.6	19.3	0.00e+00	0	46	0	876609536	60	26436
2026-01-28 20:56:42.50	116.84	13.06	-54.9	-56.7	19.0	0.00e+00	0	46	0	878706688	60	26937
2026-01-28 20:56:43.51	117.01	13.00	-54.9	-56.8	19.1	0.00e+00	0	46	0	880803840	60	26983
2026-01-28 20:56:44.51	117.17	12.94	-54.6	-56.3	19.4	0.00e+00	0	46	0	881852416	60	25473
2026-01-28 20:56:45.51	117.34	12.89	-54.5	-56.2	19.6	0.00e+00	0	46	0	883949568	60	25250
2026-01-28 20:56:46.52	117.50	12.83	-54.3	-55.9	19.8	0.00e+00	0	46	0	886046720	60	24428
2026-01-28 20:56:47.52	117.66	12.77	-54.1	-55.7	20.0	0.00e+00	0	46	0	888143872	60	23783
2026-01-28 20:56:48.52	117.82	12.72	-54.0	-55.5	20.1	0.00e+00	0	46	0	890241024	60	23388
2026-01-28 20:56:49.53	117.98	12.66	-53.9	-55.4	20.3	0.00e+00	0	46	0	891289600	60	23004
2026-01-28 20:56:50.54	118.14	12.60	-53.9	-55.5	20.1	0.00e+00	0	46	0	893386752	60	23292
2026-01-28 20:56:51.55	118.30	12.55	-54.1	-55.7	20.0	0.00e+00	0	46	0	895483904	60	23758
2026-01-28 20:56:52.55	118.46	12.49	-54.1	-55.7	19.8	0.00e+00	0	46	0	897581056	60	23901
2026-01-28 20:56:53.56	118.62	12.43	-54.3	-56.0	19.5	0.00e+00	0	46	0	899678208	60	24842
2026-01-28 20:56:54.57	118.78	12.38	-54.6	-56.4	19.2	0.00e+00	0	46	0	900726784	60	25966
2026-01-28 20:56:55.58	118.94	12.32	-54.6	-56.4	19.0	0.00e+00	0	46	0	902823936	60	25942
2026-01-28 20:56:56.59	119.10	12.26	-54.7	-56.5	19.2	0.00e+00	0	46	0	904921088	60	26151
2026-01-28 20:56:57.60	119.25	12.20	-54.6	-56.4	19.2	0.00e+00	0	46	0	907018240	60	25757
2026-01-28 20:56:58.61	119.41	12.15	-54.4	-56.1	19.5	0.00e+00	0	46	0	909115392	60	24885
2026-01-28 20:56:59.62	119.56	12.09	-54.3	-56.0	19.7	0.00e+00	0	46	0	910163968	60	24710
2026-01-28 20:57:00.62	119.72	12.03	-54.0	-55.6	19.9	0.00e+00	0	46	0	912261120	60	23739
2026-01-28 20:57:01.63	119.87	11.97	-53.8	-55.4	20.0	0.00e+00	0	46	0	914358272	60	22990
2026-01-28 20:57:02.64	120.03	11.92	-53.8	-55.4	20.0	0.00e+00	0	46	0	916455424	60	23002
2026-01-28 20:57:03.65	120.18	11.86	-53.8	-55.3	20.1	0.00e+00	0	46	0	918552576	60	22918
2026-01-28 20:57:04.64	120.33	11.80	-53.9	-55.5	19.8	0.00e+00	0	46	0	919601152	60	23311
2026-01-28 20:57:05.64	120.48	11.74	-54.0	-55.7	19.7	0.00e+00	0	46	0	921698304	60	23812
2026-01-28 20:57:06.65	120.63	11.69	-54.3	-56.0	19.4	0.00e+00	0	46	0	923795456	60	24804
2026-01-28 20:57:07.66	120.78	11.63	-54.2	-56.0	19.4	0.00e+00	0	46	0	925892608	60	24738
2026-01-28 20:57:08.66	120.93	11.57	-54.5	-56.4	19.3	0.00e+00	0	46	0	926941184	60	25813
2026-01-28 20:57:09.66	121.08	11.51	-54.3	-56.0	19.4	0.00e+00	0	46	0	929038336	60	24793
2026-01-28 20:57:10.67	121.23	11.46	-54.3	-56.0	19.5	0.00e+00	0	46	0	931135488	60	24745
2026-01-28 20:57:11.68	121.38	11.40	-54.2	-56.0	19.3	0.00e+00	0	46	0	933232640	60	24647
2026-01-28 20:57:12.69	121.53	11.34	-54.2	-56.0	19.4	0.00e+00	0	46	0	935329792	60	24618
2026-01-28 20:57:13.70	121.67	11.28	-54.3	-56.0	19.3	0.00e+00	0	46	0	937426944	60	24740
2026-01-28 20:57:14.70	121.82	11.22	-54.2	-55.9	19.4	0.00e+00	0	46	0	938475520	60	24454
2026-01-28 20:57:15.71	121.97	11.17	-54.3	-56.1	19.3	0.00e+00	0	46	0	940572672	60	24899
2026-01-28 20:57:16.72	122.11	11.11	-54.6	-56.5	18.9	0.00e+00	0	46	0	942669824	60	26163
2026-01-28 20:57:17.73	122.26	11.05	-54.8	-56.8	18.6	0.00e+00	0	46	0	944766976	60	27045
2026-01-28 20:57:18.73	122.40	10.99	-55.0	-57.1	18.4	0.00e+00	0	46	0	946864128	60	27993
2026-01-28 20:57:19.74	122.55	10.93	-55.2	-57.3	18.2	0.00e+00	0	46	0	947912704	60	28582
2026-01-28 20:57:20.74	122.69	10.87	-55.3	-57.4	18.1	0.00e+00	0	46	0	950009856	60	29039
2026-01-28 20:57:21.75	122.83	10.82	-55.1	-57.1	18.4	0.00e+00	0	46	0	952107008	60	28132
2026-01-28 20:57:22.75	122.97	10.76	-55.0	-57.0	18.5	0.00e+00	0	46	0	954204160	60	27763
2026-01-28 20:57:23.76	123.12	10.70	-54.8	-56.7	18.8	0.00e+00	0	46	0	955252736	60	26777
2026-01-28 20:57:24.76	123.26	10.64	-54.6	-56.5	18.9	0.00e+00	0	46	0	957349888	60	26142
2026-01-28 20:57:25.76	123.40	10.58	-54.6	-56.4	19.0	0.00e+00	0	46	0	959447040	60	25968
2026-01-28 20:57:26.76	123.53	10.53	-54.5	-56.3	19.1	0.00e+00	0	46	0	961544192	60	25699
2026-01-28 20:57:27.77	123.67	10.47	-54.6	-56.4	19.1	0.00e+00	0	46	0	963641344	60	25974
2026-01-28 20:57:28.77	123.81	10.41	-54.7	-56.6	18.8	0.00e+00	0	46	0	965738496	60	26397
2026-01-28 20:57:29.78	123.95	10.35	-54.6	-56.5	18.7	0.00e+00	0	46	0	966787072	60	26142
2026-01-28 20:57:30.79	124.09	10.29	-54.7	-56.6	18.8	0.00e+00	0	46	0	968884224	60	26584
2026-01-28 20:57:31.79	124.23	10.24	-54.7	-56.6	18.7	0.00e+00	0	46	0	970981376	60	26388
2026-01-28 20:57:32.79	124.36	10.18	-54.8	-56.8	18.7	0.00e+00	0	46	0	973078528	60	26964
2026-01-28 20:57:33.80	124.50	10.12	-54.5	-56.4	19.0	0.00e+00	0	46	0	975175680	60	25928
2026-01-28 20:57:34.81	124.64	10.06	-54.5	-56.4	18.9	0.00e+00	0	46	0	976224256	60	25804
2026-01-28 20:57:35.81	124.77	10.00	-54.5	-56.3	19.0	0.00e+00	0	46	0	978321408	60	25685
2026-01-28 20:57:36.81	124.90	9.95	-54.3	-56.2	19.1	0.00e+00	0	46	0	980418560	60	25218
2026-01-28 20:57:37.81	125.04	9.89	-54.2	-56.0	19.2	0.00e+00	0	46	0	982515712	60	24762
2026-01-28 20:57:38.82	125.17	9.83	-54.2	-55.9	19.2	0.00e+00	0	46	0	983564288	60	24488
2026-01-28 20:57:39.82	125.30	9.77	-54.3	-56.1	19.2	0.00e+00	0	46	0	985661440	60	24976
2026-01-28 20:57:40.83	125.44	9.71	-54.5	-56.3	18.9	0.00e+00	0	46	0	987758592	60	25508
2026-01-28 20:57:41.83	125.57	9.65	-54.5	-56.3	18.8	0.00e+00	0	46	0	989855744	60	25534
2026-01-28 20:57:42.84	125.70	9.60	-54.6	-56.5	18.7	0.00e+00	0	46	0	991952896	60	26209
2026-01-28 20:57:43.84	125.83	9.54	-54.8	-56.7	18.5	0.00e+00	0	46	0	993001472	60	26942
2026-01-28 20:57:44.85	125.96	9.48	-54.8	-56.9	18.4	0.00e+00	0	46	0	995098624	60	27273
2026-01-28 20:57:45.85	126.09	9.42	-54.6	-56.6	18.5	0.00e+00	0	46	0	997195776	60	26561
2026-01-28 20:57:46.86	126.22	9.36	-54.6	-56.6	18.5	0.00e+00	0	46	0	999292928	60	26388
2026-01-28 20:57:47.86	126.35	9.31	-54.6	-56.5	18.6	0.00e+00	0	46	0	1001390080	60	26333
2026-01-28 20:57:48.86	126.48	9.25	-54.5	-56.4	18.6	0.00e+00	0	46	0	1003487232	60	26013
2026-01-28 20:57:49.87	126.61	9.19	-54.4	-56.3	18.9	0.00e+00	0	46	0	1004535808	60	25590
2026-01-28 20:57:50.87	126.73	9.13	-54.4	-56.3	19.0	0.00e+00	0	46	0	1006632960	60	25495
2026-01-28 20:57:51.88	126.86	9.07	-54.3	-56.2	19.0	0.00e+00	0	46	0	1008730112	60	25347
2026-01-28 20:57:52.88	126.99	9.02	-54.4	-56.3	18.9	0.00e+00	0	46	0	1010827264	60	25511
2026-01-28 20:57:53.88	127.11	8.96	-54.5	-56.3	18.8	0.00e+00	0	46	0	1011875840	60	25691
2026-01-28 20:57:54.89	127.24	8.90	-54.7	-56.6	18.6	0.00e+00	0	46	0	1013972992	60	26631
2026-01-28 20:57:55.89	127.36	8.84	-54.8	-56.9	18.3	0.00e+00	0	46	0	1016070144	60	27266
2026-01-28 20:57:56.90	127.49	8.78	-54.9	-56.9	18.3	0.00e+00	0	46	0	1018167296	60	27521
2026-01-28 20:57:57.90	127.61	8.73	-54.9	-57.0	18.1	0.00e+00	0	46	0	1020264448	60	27781
2026-01-28 20:57:58.91	127.74	8.67	-55.0	-57.1	18.1	0.00e+00	0	46	0	1021313024	60	28050
2026-01-28 20:57:59.92	127.86	8.61	-54.9	-57.0	18.2	0.00e+00	0	46	0	1023410176	60	27742
2026-01-28 20:58:00.93	127.98	8.55	-54.8	-56.8	18.4	0.00e+00	0	46	0	1025507328	60	27109
2026-01-28 20:58:01.93	128.11	8.49	-54.6	-56.6	18.6	0.00e+00	0	46	0	1027604480	60	26482
2026-01-28 20:58:02.94	128.23	8.43	-54.4	-56.3	18.7	0.00e+00	0	46	0	1029701632	60	25731
2026-01-28 20:58:03.95	128.35	8.38	-54.3	-56.2	18.9	0.00e+00	0	46	0	1030750208	60	25192
2026-01-28 20:58:04.96	128.47	8.32	-54.1	-55.8	19.2	0.00e+00	0	46	0	1032847360	60	24281
2026-01-28 20:58:05.97	128.59	8.26	-54.0	-55.7	19.3	0.00e+00	0	46	0	1034944512	60	24008
2026-01-28 20:58:06.97	128.71	8.20	-54.0	-55.7	19.4	0.00e+00	0	46	0	1037041664	60	23819
2026-01-28 20:58:07.97	128.83	8.15	-54.0	-55.7	19.3	0.00e+00	0	46	0	1039138816	60	23953
2026-01-28 20:58:08.97	128.95	8.09	-54.2	-56.0	19.1	0.00e+00	0	46	0	1041235968	60	24655
2026-01-28 20:58:09.98	129.07	8.03	-54.3	-56.1	19.0	0.00e+00	0	46	0	1042284544	60	24952
2026-01-28 20:58:10.99	129.19	7.97	-54.6	-56.5	18.6	0.00e+00	0	46	0	1044381696	60	26122
2026-01-28 20:58:11.98	129.30	7.92	-54.8	-56.8	18.3	0.00e+00	0	46	0	1046478848	60	27168
2026-01-28 20:58:12.99	129.42	7.86	-54.9	-57.0	18.1	0.00e+00	0	46	0	1048576000	60	27730
2026-01-28 20:58:13.99	129.54	7.80	-55.2	-57.5	17.6	0.00e+00	0	46	0	1049624576	60	29327
2026-01-28 20:58:14.99	129.65	7.74	-55.3	-57.6	17.4	0.00e+00	0	46	0	1051721728	60	29796
2026-01-28 20:58:16.00	129.77	7.69	-55.4	-57.8	17.2	0.00e+00	0	46	0	1053818880	60	30443
2026-01-28 20:58:17.00	129.88	7.63	-55.5	-58.0	17.0	0.00e+00	0	46	0	1055916032	60	31020
2026-01-28 20:58:18.01	130.00	7.57	-55.5	-57.9	17.0	0.00e+00	0	46	0	1058013184	60	30931
2026-01-28 20:58:19.02	130.12	7.51	-55.6	-58.2	16.7	0.00e+00	0	46	0	1059061760	60	31851
2026-01-28 20:58:20.03	130.23	7.45	-55.5	-58.1	16.8	0.00e+00	0	46	0	1061158912	60	31520
2026-01-28 20:58:21.04	130.34	7.40	-55.6	-58.3	16.6	0.00e+00	0	46	0	1063256064	60	32238
2026-01-28 20:58:22.04	130.46	7.34	-55.7	-58.5	16.4	0.00e+00	0	46	0	1065353216	60	32837
2026-01-28 20:58:23.05	130.57	7.28	-55.8	-58.7	16.2	0.00e+00	0	46	0	1067450368	60	33636
2026-01-28 20:58:24.06	130.68	7.23	-56.0	-59.0	16.0	0.00e+00	0	46	0	1068498944	60	34854
2026-01-28 20:58:25.06	130.80	7.17	-56.2	-59.4	15.7	0.00e+00	0	46	0	1070596096	60	36448
2026-01-28 20:58:26.06	130.91	7.11	-56.3	-59.5	15.3	0.00e+00	0	46	0	1072693248	60	36980
2026-01-28 20:58:27.07	131.02	7.05	-56.5	-59.8	14.9	0.00e+00	0	46	0	1074790400	60	38435
2026-01-28 20:58:28.08	131.13	7.00	-56.4	-59.8	15.2	0.00e+00	0	46	0	1076887552	60	38113
2026-01-28 20:58:29.09	131.24	6.94	-56.3	-59.6	15.3	0.00e+00	0	46	0	1077936128	60	37254
2026-01-28 20:58:30.10	131.35	6.88	-56.5	-59.8	15.0	0.00e+00	0	46	0	1080033280	60	38385
2026-01-28 20:58:31.10	131.46	6.83	-56.3	-59.4	15.5	0.00e+00	0	46	0	1082130432	60	36753
2026-01-28 20:58:32.11	131.57	6.77	-56.1	-59.2	15.7	0.00e+00	0	46	0	1084227584	60	35722
2026-01-28 20:58:33.12	131.68	6.71	-56.0	-59.0	15.9	0.00e+00	0	46	0	1086324736	60	34900
