passes_logs/2026/01/28/R3.2S-Naryan-Mar/R3.2S-Naryan-Mar__20260128_201703_NOAA_21_JPSS-2_rec.log

#Pass ID: 20260128_201703_NOAA 21 (JPSS-2)
#Satellite: NOAA 21 (JPSS-2)
#Configuration: NOAA-21
#almurnet v.1.7.20240730
#Start time: 2026-01-28 20:17:06

#Version: 2.2.20231116
#Station: R3.2S-Naryan-Mar
#Location: 53.008057 lon 67.646978 lat
#TLE: 1 54234U 22150A   26027.77052245  .00000166  00000+0  99439-4 0  9997
#TLE: 2 54234  98.7510 328.5165 0000872 203.6403 156.4733 14.19540252166628

#Time	Az	El	Level	Level2	SNR	BER	BlckErr	Temp	State	Recorded	gain1	gain2
2026-01-28 20:17:06.96	16.42	0.14	-56.0	-59.4	3.3	0.00e+00	0	44	0	0	60	109816
2026-01-28 20:17:07.96	16.50	0.18	-61.7	-76.1	3.5	1.52e+00	0	45	104	0	60	242796
2026-01-28 20:17:08.96	16.58	0.23	-60.3	-75.6	3.5	1.51e+00	0	45	104	0	60	228398
2026-01-28 20:17:09.97	16.66	0.28	-60.7	-75.6	3.5	1.52e+00	0	45	104	0	60	229227
2026-01-28 20:17:10.97	16.74	0.32	-60.9	-75.8	3.5	1.52e+00	0	45	104	0	60	235081
2026-01-28 20:17:11.98	16.83	0.37	-61.2	-75.7	3.5	1.52e+00	0	45	104	0	60	232673
2026-01-28 20:17:12.99	16.91	0.42	-57.1	-72.6	3.9	1.51e+00	0	45	104	0	60	161503
2026-01-28 20:17:13.99	16.99	0.46	-55.3	-72.0	3.8	1.51e+00	0	45	104	0	60	151896
2026-01-28 20:17:14.99	17.08	0.51	-59.7	-74.8	3.7	1.51e+00	0	46	104	0	60	209734
2026-01-28 20:17:16.00	17.16	0.56	-54.6	-70.3	4.1	1.51e+00	0	46	104	0	60	124686
2026-01-28 20:17:17.00	17.24	0.61	-52.8	-71.0	3.7	1.51e+00	0	46	104	0	60	134353
2026-01-28 20:17:18.01	17.33	0.65	-57.2	-73.2	3.6	1.50e+00	0	46	104	0	60	174763
2026-01-28 20:17:19.01	17.41	0.70	-59.2	-74.1	3.5	1.52e+00	0	46	104	0	60	192457
2026-01-28 20:17:20.01	17.49	0.75	-53.5	-71.6	3.6	1.51e+00	0	46	104	0	60	145215
2026-01-28 20:17:21.02	17.58	0.79	-58.8	-73.5	3.5	1.52e+00	0	46	104	0	60	180545
2026-01-28 20:17:22.02	17.66	0.84	-58.9	-73.5	3.5	1.52e+00	0	46	104	0	60	179793
2026-01-28 20:17:23.03	17.75	0.89	-58.8	-73.5	3.5	1.52e+00	0	46	104	0	60	179098
2026-01-28 20:17:24.03	17.83	0.93	-58.8	-73.4	3.5	1.52e+00	0	46	104	0	60	177316
2026-01-28 20:17:25.04	17.92	0.98	-58.8	-73.4	3.5	1.51e+00	0	46	104	0	60	177604
2026-01-28 20:17:26.04	18.01	1.03	-58.8	-73.5	3.5	1.52e+00	0	46	104	0	60	179447
2026-01-28 20:17:27.04	18.09	1.07	-58.8	-73.4	3.5	1.52e+00	0	46	104	0	60	178279
2026-01-28 20:17:28.05	18.18	1.12	-58.8	-73.3	3.5	1.52e+00	0	46	104	0	60	176624
2026-01-28 20:17:29.06	18.26	1.17	-58.7	-73.3	3.5	1.51e+00	0	46	104	0	60	176726
2026-01-28 20:17:30.06	18.35	1.22	-58.8	-73.4	3.5	1.52e+00	0	46	104	0	60	178050
2026-01-28 20:17:31.07	18.44	1.26	-58.7	-73.3	3.5	1.52e+00	0	46	104	0	60	176469
2026-01-28 20:17:32.08	18.53	1.31	-58.7	-73.3	3.5	1.52e+00	0	46	104	0	60	175850
2026-01-28 20:17:33.09	18.61	1.36	-58.6	-73.3	3.5	1.52e+00	0	46	104	0	60	176790
2026-01-28 20:17:34.09	18.70	1.41	-58.6	-73.2	3.5	1.52e+00	0	45	104	0	60	174714
2026-01-28 20:17:35.10	18.79	1.45	-58.6	-73.3	3.5	1.51e+00	0	46	104	0	60	175857
2026-01-28 20:17:36.10	18.88	1.50	-58.5	-73.2	3.5	1.52e+00	0	46	104	0	60	173693
2026-01-28 20:17:37.11	18.97	1.55	-58.6	-73.3	3.5	1.52e+00	0	46	104	0	60	175318
2026-01-28 20:17:38.11	19.06	1.60	-58.6	-73.2	3.5	1.52e+00	0	46	104	0	60	174729
2026-01-28 20:17:39.12	19.15	1.64	-58.6	-73.2	3.5	1.52e+00	0	46	104	0	60	174780
2026-01-28 20:17:40.12	19.23	1.69	-58.5	-73.2	3.5	1.52e+00	0	46	104	0	60	174045
2026-01-28 20:17:41.13	19.32	1.74	-58.6	-73.2	3.5	1.52e+00	0	46	104	0	60	174891
2026-01-28 20:17:42.14	19.41	1.79	-58.6	-73.1	3.5	1.52e+00	0	46	104	0	60	172765
2026-01-28 20:17:43.15	19.51	1.83	-58.5	-73.1	3.5	1.52e+00	0	46	104	0	60	171768
2026-01-28 20:17:44.16	19.60	1.88	-58.6	-73.2	3.5	1.52e+00	0	46	104	0	60	173389
2026-01-28 20:17:45.16	19.69	1.93	-58.6	-73.1	3.5	1.52e+00	0	46	104	0	60	172520
2026-01-28 20:17:46.17	19.78	1.98	-58.6	-73.2	3.5	1.52e+00	0	46	104	0	60	174178
2026-01-28 20:17:47.18	19.87	2.02	-58.5	-73.2	3.5	1.52e+00	0	46	104	0	60	174582
2026-01-28 20:17:48.19	19.96	2.07	-58.6	-73.2	3.5	1.51e+00	0	46	104	0	60	173190
2026-01-28 20:17:49.20	20.05	2.12	-58.6	-73.2	3.5	1.52e+00	0	46	104	0	60	173725
2026-01-28 20:17:50.21	20.15	2.17	-58.5	-73.2	3.5	1.51e+00	0	46	104	0	60	174764
2026-01-28 20:17:51.22	20.24	2.22	-58.6	-73.2	3.5	1.51e+00	0	46	104	0	60	173049
2026-01-28 20:17:52.22	20.33	2.26	-58.6	-73.2	3.5	1.51e+00	0	46	104	0	60	173812
2026-01-28 20:17:53.23	20.43	2.31	-58.5	-73.2	3.5	1.52e+00	0	46	104	0	60	174660
2026-01-28 20:17:54.24	20.52	2.36	-58.6	-73.2	3.5	1.51e+00	0	46	104	0	60	173505
2026-01-28 20:17:55.25	20.61	2.41	-58.5	-73.2	3.5	1.51e+00	0	46	104	0	60	174365
2026-01-28 20:17:56.26	20.71	2.46	-58.6	-73.1	3.5	1.52e+00	0	46	104	0	60	172804
2026-01-28 20:17:57.26	20.80	2.50	-58.6	-73.1	3.5	1.52e+00	0	46	104	0	60	172282
2026-01-28 20:17:58.27	20.90	2.55	-58.6	-73.2	3.5	1.52e+00	0	46	104	0	60	174022
2026-01-28 20:17:59.27	20.99	2.60	-58.6	-73.2	3.5	1.52e+00	0	46	104	0	60	174528
2026-01-28 20:18:00.28	21.09	2.65	-58.6	-73.2	3.5	1.52e+00	0	46	104	0	60	172913
2026-01-28 20:18:01.29	21.18	2.70	-58.6	-73.1	3.5	1.52e+00	0	46	104	0	60	172132
2026-01-28 20:18:02.29	21.28	2.74	-58.6	-73.2	3.5	1.52e+00	0	46	104	0	60	174210
2026-01-28 20:18:03.30	21.37	2.79	-58.5	-73.1	3.5	1.52e+00	0	46	104	0	60	172718
2026-01-28 20:18:04.30	21.47	2.84	-58.6	-73.2	3.5	1.52e+00	0	46	104	0	60	174864
2026-01-28 20:18:05.31	21.57	2.89	-58.6	-73.2	3.5	1.52e+00	0	46	104	0	60	173681
2026-01-28 20:18:06.31	21.66	2.93	-58.6	-73.1	3.5	1.51e+00	0	46	104	0	60	172066
2026-01-28 20:18:07.32	21.76	2.98	-58.6	-73.2	3.5	1.52e+00	0	46	104	0	60	174291
2026-01-28 20:18:08.32	21.86	3.03	-58.5	-73.2	3.5	1.52e+00	0	46	104	0	60	174743
2026-01-28 20:18:09.32	21.96	3.08	-58.5	-73.2	3.5	1.52e+00	0	46	104	0	60	173746
2026-01-28 20:18:10.33	22.05	3.13	-58.6	-73.2	3.5	1.51e+00	0	46	104	0	60	173860
2026-01-28 20:18:11.33	22.15	3.17	-58.6	-73.2	3.5	1.52e+00	0	46	104	0	60	173522
2026-01-28 20:18:12.34	22.25	3.22	-58.6	-73.1	3.5	1.52e+00	0	46	104	0	60	172776
2026-01-28 20:18:13.34	22.35	3.27	-58.6	-73.3	3.5	1.51e+00	0	46	104	0	60	175070
2026-01-28 20:18:14.35	22.45	3.32	-58.6	-73.2	3.5	1.52e+00	0	46	104	0	60	174122
2026-01-28 20:18:15.36	22.55	3.37	-58.6	-73.1	3.5	1.52e+00	0	46	104	0	60	172465
2026-01-28 20:18:16.37	22.65	3.42	-58.6	-73.1	3.5	1.52e+00	0	46	104	0	60	171819
2026-01-28 20:18:17.38	22.75	3.47	-58.6	-73.0	3.5	1.51e+00	0	46	104	0	60	170653
2026-01-28 20:18:18.39	22.85	3.51	-58.6	-73.0	3.5	1.52e+00	0	46	104	0	60	170770
2026-01-28 20:18:19.39	22.95	3.56	-58.6	-73.1	3.5	1.52e+00	0	46	104	0	60	172560
2026-01-28 20:18:20.40	23.05	3.61	-58.6	-73.1	3.5	1.52e+00	0	46	104	0	60	171985
2026-01-28 20:18:21.41	23.16	3.66	-58.6	-73.2	3.5	1.52e+00	0	46	104	0	60	173340
2026-01-28 20:18:22.42	23.26	3.71	-58.6	-73.1	3.5	1.52e+00	0	46	104	0	60	172513
2026-01-28 20:18:23.42	23.36	3.76	-58.6	-73.2	3.5	1.52e+00	0	46	104	0	60	173116
2026-01-28 20:18:24.43	23.46	3.80	-58.6	-73.2	3.5	1.52e+00	0	46	104	0	60	173518
2026-01-28 20:18:25.44	23.57	3.85	-58.6	-73.1	3.5	1.52e+00	0	46	104	0	60	172620
2026-01-28 20:18:26.44	23.67	3.90	-58.5	-73.2	3.5	1.52e+00	0	46	104	0	60	173734
2026-01-28 20:18:27.45	23.77	3.95	-58.5	-73.1	3.5	1.51e+00	0	46	104	0	60	171533
2026-01-28 20:18:28.45	23.87	4.00	-58.5	-73.1	3.5	1.52e+00	0	46	104	0	60	172531
2026-01-28 20:18:29.46	23.98	4.05	-58.5	-73.1	3.5	1.52e+00	0	46	104	0	60	171871
2026-01-28 20:18:30.46	24.08	4.09	-58.5	-73.1	3.5	1.52e+00	0	46	104	0	60	171221
2026-01-28 20:18:31.47	24.19	4.14	-58.5	-73.1	3.5	1.52e+00	0	46	104	0	60	171283
2026-01-28 20:18:32.48	24.29	4.19	-58.5	-73.0	3.5	1.52e+00	0	46	104	0	60	170584
2026-01-28 20:18:33.49	24.40	4.24	-58.5	-73.0	3.5	1.52e+00	0	46	104	0	60	170748
2026-01-28 20:18:34.49	24.51	4.29	-58.6	-73.1	3.5	1.52e+00	0	46	104	0	60	171569
2026-01-28 20:18:35.50	24.61	4.34	-58.6	-73.1	3.5	1.52e+00	0	46	104	0	60	171533
2026-01-28 20:18:36.51	24.72	4.39	-58.6	-73.1	3.5	1.52e+00	0	46	104	0	60	171737
2026-01-28 20:18:37.52	24.83	4.43	-58.6	-73.1	3.5	1.51e+00	0	46	104	0	60	170966
2026-01-28 20:18:38.52	24.93	4.48	-58.6	-73.0	3.5	1.52e+00	0	46	104	0	60	170622
2026-01-28 20:18:39.53	25.04	4.53	-58.6	-73.1	3.5	1.51e+00	0	46	104	0	60	172832
2026-01-28 20:18:40.54	25.15	4.58	-58.6	-73.1	3.5	1.52e+00	0	46	104	0	60	172334
2026-01-28 20:18:41.54	25.26	4.63	-58.6	-73.2	3.5	1.51e+00	0	46	104	0	60	173022
2026-01-28 20:18:42.55	25.36	4.68	-58.7	-73.2	3.5	1.52e+00	0	46	104	0	60	173561
2026-01-28 20:18:43.56	25.47	4.73	-58.7	-73.1	3.5	1.52e+00	0	46	104	0	60	172566
2026-01-28 20:18:44.57	25.58	4.77	-58.6	-73.2	3.5	1.52e+00	0	46	104	0	60	173612
2026-01-28 20:18:45.57	25.69	4.82	-58.7	-73.1	3.5	1.52e+00	0	46	104	0	60	172668
2026-01-28 20:18:46.58	25.80	4.87	-58.7	-73.2	3.5	1.52e+00	0	46	104	0	60	173819
2026-01-28 20:18:47.58	25.91	4.92	-58.7	-73.1	3.5	1.52e+00	0	46	104	0	60	171390
2026-01-28 20:18:48.58	26.02	4.97	-58.7	-73.2	3.5	1.52e+00	0	46	104	0	60	173106
2026-01-28 20:18:49.59	26.13	5.02	-58.7	-73.2	3.5	1.52e+00	0	46	104	0	60	173029
2026-01-28 20:18:50.59	26.24	5.07	-58.7	-73.1	3.5	1.52e+00	0	46	104	0	60	171505
2026-01-28 20:18:51.60	26.36	5.11	-58.7	-73.1	3.5	1.52e+00	0	46	104	0	60	171591
2026-01-28 20:18:52.61	26.47	5.16	-58.7	-73.1	3.5	1.52e+00	0	46	104	0	60	172606
2026-01-28 20:18:53.62	26.58	5.21	-58.7	-73.1	3.5	1.52e+00	0	46	104	0	60	172794
2026-01-28 20:18:54.62	26.69	5.26	-58.7	-73.0	3.5	1.52e+00	0	47	104	0	60	170447
2026-01-28 20:18:55.63	26.81	5.31	-58.7	-73.1	3.5	1.51e+00	0	46	104	0	60	171314
2026-01-28 20:18:56.64	26.92	5.36	-58.7	-73.1	3.5	1.52e+00	0	46	104	0	60	172135
2026-01-28 20:18:57.65	27.04	5.41	-58.6	-73.0	3.5	1.52e+00	0	46	104	0	60	170533
2026-01-28 20:18:58.66	27.15	5.46	-58.6	-72.9	3.5	1.52e+00	0	46	104	0	60	167665
2026-01-28 20:18:59.66	27.26	5.50	-58.6	-73.0	3.5	1.52e+00	0	46	104	0	60	170731
2026-01-28 20:19:00.67	27.38	5.55	-58.6	-73.1	3.5	1.52e+00	0	46	104	0	60	172325
2026-01-28 20:19:01.68	27.50	5.60	-58.6	-73.1	3.5	1.52e+00	0	46	104	0	60	172510
2026-01-28 20:19:02.68	27.61	5.65	-58.6	-73.0	3.5	1.51e+00	0	46	104	0	60	169692
2026-01-28 20:19:03.69	27.73	5.70	-58.6	-73.2	3.5	1.52e+00	0	46	104	0	60	172943
2026-01-28 20:19:04.70	27.84	5.75	-58.6	-73.2	3.5	1.52e+00	0	46	104	0	60	173098
2026-01-28 20:19:05.70	27.96	5.80	-58.6	-73.0	3.5	1.52e+00	0	46	104	0	60	170003
2026-01-28 20:19:06.71	28.08	5.84	-58.6	-72.7	3.5	1.52e+00	0	46	104	0	60	163342
2026-01-28 20:19:07.72	28.19	5.89	-58.5	-72.3	3.5	1.52e+00	0	46	104	0	60	155957
2026-01-28 20:19:08.73	28.31	5.94	-58.5	-71.7	3.5	1.51e+00	0	46	104	0	60	146465
2026-01-28 20:19:09.74	28.43	5.99	-58.4	-71.4	3.5	1.51e+00	0	46	104	0	60	141777
2026-01-28 20:19:10.75	28.55	6.04	-52.8	-70.1	3.9	1.51e+00	0	47	104	0	60	121214
2026-01-28 20:19:11.75	28.67	6.09	-52.2	-70.0	3.9	1.51e+00	0	46	104	0	60	120960
2026-01-28 20:19:12.76	28.79	6.14	-55.2	-70.5	3.6	1.51e+00	0	46	104	0	60	127436
2026-01-28 20:19:13.77	28.91	6.19	-51.5	-66.1	3.8	1.31e+00	0	46	104	0	60	77213
2026-01-28 20:19:14.78	29.03	6.23	-54.1	-57.2	4.9	1.51e+00	0	46	104	0	60	27664
2026-01-28 20:19:15.78	29.15	6.28	-51.2	-56.9	12.0	0.00e+00	0	46	104	0	60	26605
2026-01-28 20:19:16.79	29.27	6.33	-51.6	-60.9	8.3	1.01e-01	0	46	0	2097152	60	42333
2026-01-28 20:19:17.79	29.39	6.38	-53.1	-60.4	9.6	1.95e-02	0	46	0	5242880	60	40047
2026-01-28 20:19:18.79	29.51	6.43	-53.9	-60.5	9.9	1.35e-02	0	46	0	8388608	60	40086
2026-01-28 20:19:19.80	29.63	6.48	-53.8	-59.4	11.0	2.55e-03	0	46	0	11534336	60	35608
2026-01-28 20:19:20.80	29.76	6.52	-53.4	-58.7	11.5	9.38e-04	0	46	0	14680064	60	32596
2026-01-28 20:19:21.81	29.88	6.57	-52.9	-57.9	11.9	3.47e-04	0	46	0	17825792	60	29863
2026-01-28 20:19:22.82	30.00	6.62	-52.4	-57.5	12.2	1.98e-04	0	47	0	20971520	60	28393
2026-01-28 20:19:23.83	30.13	6.67	-51.7	-56.8	12.6	8.62e-05	0	46	0	24117248	60	26289
2026-01-28 20:19:24.83	30.25	6.72	-50.7	-55.7	13.8	1.44e-05	0	46	0	27262976	60	23281
2026-01-28 20:19:25.83	30.37	6.77	-50.5	-54.9	15.3	0.00e+00	0	47	0	30408704	60	21263
2026-01-28 20:19:26.84	30.50	6.81	-51.1	-54.6	17.1	0.00e+00	0	46	0	33554432	60	20333
2026-01-28 20:19:27.85	30.63	6.86	-51.9	-54.3	17.9	0.00e+00	0	47	0	36700160	60	19826
2026-01-28 20:19:28.85	30.75	6.91	-52.5	-54.4	17.4	0.00e+00	0	46	0	39845888	60	20033
2026-01-28 20:19:29.86	30.88	6.96	-52.2	-54.3	16.9	0.00e+00	0	46	0	42991616	60	19732
2026-01-28 20:19:30.86	31.00	7.01	-51.8	-54.3	16.0	0.00e+00	0	46	0	46137344	60	19790
2026-01-28 20:19:31.86	31.13	7.05	-51.5	-54.3	15.8	0.00e+00	0	46	0	49283072	60	19840
2026-01-28 20:19:32.86	31.26	7.10	-51.3	-54.1	16.5	0.00e+00	0	46	0	52428800	60	19298
2026-01-28 20:19:33.87	31.38	7.15	-51.7	-54.2	17.1	0.00e+00	0	46	0	55574528	60	19425
2026-01-28 20:19:34.87	31.51	7.20	-52.1	-54.1	17.7	0.00e+00	0	46	0	58720256	60	19202
2026-01-28 20:19:35.88	31.64	7.25	-52.1	-53.9	18.0	0.00e+00	0	46	0	61865984	60	18905
2026-01-28 20:19:36.89	31.77	7.30	-51.8	-53.8	17.8	0.00e+00	0	46	0	65011712	60	18532
2026-01-28 20:19:37.90	31.90	7.34	-51.5	-53.8	17.6	0.00e+00	0	46	0	68157440	60	18579
2026-01-28 20:19:38.90	32.03	7.39	-51.2	-53.7	17.6	0.00e+00	0	46	0	71303168	60	18444
2026-01-28 20:19:39.91	32.16	7.44	-51.1	-53.6	17.9	0.00e+00	0	46	0	74448896	60	18299
2026-01-28 20:19:40.92	32.29	7.49	-51.5	-53.6	18.3	0.00e+00	0	46	0	77594624	60	18294
2026-01-28 20:19:41.93	32.42	7.54	-51.9	-53.7	18.0	0.00e+00	0	46	0	80740352	60	18354
2026-01-28 20:19:42.94	32.55	7.58	-51.8	-53.7	17.3	0.00e+00	0	46	0	83886080	60	18401
2026-01-28 20:19:43.94	32.68	7.63	-51.1	-53.6	16.7	0.00e+00	0	47	0	87031808	60	18122
2026-01-28 20:19:44.95	32.82	7.68	-50.8	-53.5	16.5	0.00e+00	0	46	0	90177536	60	18101
2026-01-28 20:19:45.96	32.95	7.73	-50.6	-53.5	16.4	0.00e+00	0	46	0	93323264	60	18011
2026-01-28 20:19:46.97	33.08	7.77	-50.8	-53.7	16.5	0.00e+00	0	46	0	96468992	60	18329
2026-01-28 20:19:47.97	33.21	7.82	-50.8	-53.5	15.7	0.00e+00	0	46	0	99614720	60	18015
2026-01-28 20:19:48.98	33.35	7.87	-50.5	-53.5	15.2	0.00e+00	0	46	0	102760448	60	18001
2026-01-28 20:19:49.99	33.48	7.92	-50.0	-53.4	14.7	0.00e+00	0	46	0	105906176	60	17858
2026-01-28 20:19:50.99	33.62	7.97	-49.5	-53.3	14.8	0.00e+00	0	46	0	109051904	60	17667
2026-01-28 20:19:52.00	33.75	8.01	-49.4	-53.3	15.2	7.00e-07	0	46	0	112197632	60	17603
2026-01-28 20:19:53.01	33.89	8.06	-49.5	-53.3	15.5	0.00e+00	0	46	0	115343360	60	17611
2026-01-28 20:19:54.01	34.02	8.11	-49.8	-53.3	16.1	0.00e+00	0	46	0	118489088	60	17594
2026-01-28 20:19:55.02	34.16	8.16	-49.9	-53.3	16.1	0.00e+00	0	46	0	121634816	60	17512
2026-01-28 20:19:56.02	34.30	8.20	-50.0	-53.3	15.8	0.00e+00	0	46	0	124780544	60	17505
2026-01-28 20:19:57.03	34.44	8.25	-49.8	-53.1	15.9	0.00e+00	0	46	0	127926272	60	17285
2026-01-28 20:19:58.04	34.57	8.30	-50.2	-53.3	16.3	0.00e+00	0	46	0	131072000	60	17522
2026-01-28 20:19:59.05	34.71	8.34	-50.6	-53.4	17.0	0.00e+00	0	46	0	134217728	60	17713
2026-01-28 20:20:00.06	34.85	8.39	-51.2	-53.4	18.2	0.00e+00	0	46	0	137363456	60	17727
2026-01-28 20:20:01.06	34.99	8.44	-51.2	-53.3	18.5	0.00e+00	0	46	0	140509184	60	17649
2026-01-28 20:20:02.07	35.13	8.49	-51.1	-53.3	18.5	0.00e+00	0	47	0	143654912	60	17581
2026-01-28 20:20:03.08	35.27	8.53	-51.1	-53.4	18.3	0.00e+00	0	47	0	146800640	60	17697
2026-01-28 20:20:04.09	35.41	8.58	-51.2	-53.3	18.6	0.00e+00	0	46	0	149946368	60	17620
2026-01-28 20:20:05.09	35.55	8.63	-51.2	-53.2	18.5	0.00e+00	0	46	0	153092096	60	17372
2026-01-28 20:20:06.10	35.69	8.67	-51.5	-53.4	18.7	0.00e+00	0	46	0	156237824	60	17738
2026-01-28 20:20:07.11	35.83	8.72	-51.6	-53.4	18.8	0.00e+00	0	46	0	159383552	60	17765
2026-01-28 20:20:08.11	35.97	8.77	-51.4	-53.4	18.7	0.00e+00	0	46	0	162529280	60	17742
2026-01-28 20:20:09.12	36.12	8.81	-51.0	-53.2	18.4	0.00e+00	0	46	0	165675008	60	17443
2026-01-28 20:20:10.12	36.26	8.86	-51.2	-53.2	18.7	0.00e+00	0	46	0	168820736	60	17373
2026-01-28 20:20:11.13	36.40	8.91	-51.3	-53.1	18.5	0.00e+00	0	46	0	171966464	60	17252
2026-01-28 20:20:12.14	36.55	8.95	-51.0	-53.1	17.7	0.00e+00	0	46	0	175112192	60	17218
2026-01-28 20:20:13.15	36.69	9.00	-49.9	-53.0	16.3	0.00e+00	0	46	0	178257920	60	16965
2026-01-28 20:20:14.16	36.84	9.05	-49.1	-53.0	15.5	0.00e+00	0	46	0	181403648	60	16922
2026-01-28 20:20:15.16	36.98	9.09	-48.8	-53.0	15.1	0.00e+00	0	46	0	184549376	60	17038
2026-01-28 20:20:16.17	37.13	9.14	-49.2	-52.9	15.9	0.00e+00	0	46	0	187695104	60	16862
2026-01-28 20:20:17.18	37.27	9.18	-49.4	-53.0	16.2	0.00e+00	0	46	0	190840832	60	17051
2026-01-28 20:20:18.19	37.42	9.23	-50.0	-53.1	16.7	0.00e+00	0	46	0	193986560	60	17178
2026-01-28 20:20:19.19	37.57	9.28	-50.5	-53.0	17.2	0.00e+00	0	46	0	197132288	60	16953
2026-01-28 20:20:20.20	37.72	9.32	-50.6	-52.9	17.8	0.00e+00	0	46	0	200278016	60	16756
2026-01-28 20:20:21.21	37.86	9.37	-51.2	-53.0	18.8	0.00e+00	0	46	0	203423744	60	16911
2026-01-28 20:20:22.21	38.01	9.41	-51.3	-53.0	19.2	0.00e+00	0	46	0	206569472	60	17047
2026-01-28 20:20:23.22	38.16	9.46	-51.5	-53.1	19.5	0.00e+00	0	46	0	209715200	60	17109
2026-01-28 20:20:24.23	38.31	9.50	-51.1	-53.0	19.0	0.00e+00	0	46	0	212860928	60	17024
2026-01-28 20:20:25.23	38.46	9.55	-51.1	-53.0	18.9	0.00e+00	0	46	0	216006656	60	17048
2026-01-28 20:20:26.24	38.61	9.60	-51.0	-53.0	19.2	0.00e+00	0	46	0	219152384	60	17058
2026-01-28 20:20:27.24	38.76	9.64	-51.3	-53.1	19.4	0.00e+00	0	46	0	222298112	60	17203
2026-01-28 20:20:28.25	38.91	9.69	-51.2	-53.0	19.4	0.00e+00	0	47	0	225443840	60	16901
2026-01-28 20:20:29.25	39.06	9.73	-51.3	-53.0	19.1	0.00e+00	0	46	0	228589568	60	16942
2026-01-28 20:20:30.26	39.21	9.78	-51.2	-52.9	19.1	0.00e+00	0	46	0	231735296	60	16722
2026-01-28 20:20:31.27	39.37	9.82	-51.3	-52.9	19.4	0.00e+00	0	46	0	234881024	60	16808
2026-01-28 20:20:32.28	39.52	9.87	-51.4	-53.0	19.4	0.00e+00	0	46	0	238026752	60	16920
2026-01-28 20:20:33.29	39.67	9.91	-51.4	-53.0	19.2	0.00e+00	0	46	0	241172480	60	16923
2026-01-28 20:20:34.29	39.83	9.95	-51.0	-52.7	18.8	0.00e+00	0	46	0	244318208	60	16471
2026-01-28 20:20:35.30	39.98	10.00	-51.1	-52.8	18.9	0.00e+00	0	46	0	247463936	60	16609
2026-01-28 20:20:36.31	40.14	10.04	-51.1	-52.8	18.9	0.00e+00	0	46	0	250609664	60	16598
2026-01-28 20:20:37.32	40.29	10.09	-51.2	-52.9	19.0	0.00e+00	0	46	0	253755392	60	16748
2026-01-28 20:20:38.32	40.45	10.13	-51.0	-52.9	18.8	0.00e+00	0	46	0	256901120	60	16839
2026-01-28 20:20:39.33	40.60	10.18	-50.9	-53.1	18.4	0.00e+00	0	46	0	260046848	60	17150
2026-01-28 20:20:40.34	40.76	10.22	-50.7	-53.1	18.3	0.00e+00	0	46	0	263192576	60	17150
2026-01-28 20:20:41.35	40.92	10.27	-50.7	-53.2	18.5	0.00e+00	0	46	0	266338304	60	17311
2026-01-28 20:20:42.35	41.07	10.31	-50.7	-53.0	18.5	0.00e+00	0	46	0	269484032	60	17070
2026-01-28 20:20:43.36	41.23	10.35	-50.8	-53.0	18.4	0.00e+00	0	46	0	272629760	60	16944
2026-01-28 20:20:44.36	41.39	10.40	-50.8	-53.0	18.3	0.00e+00	0	46	0	275775488	60	16972
2026-01-28 20:20:45.37	41.55	10.44	-50.9	-52.9	18.4	0.00e+00	0	46	0	278921216	60	16873
2026-01-28 20:20:46.38	41.71	10.48	-50.8	-52.7	19.1	0.00e+00	0	46	0	282066944	60	16486
2026-01-28 20:20:47.39	41.87	10.53	-50.9	-52.8	19.5	0.00e+00	0	46	0	285212672	60	16515
2026-01-28 20:20:48.40	42.03	10.57	-50.9	-52.7	19.6	0.00e+00	0	47	0	288358400	60	16339
2026-01-28 20:20:49.40	42.19	10.61	-51.0	-52.7	19.5	0.00e+00	0	46	0	291504128	60	16509
2026-01-28 20:20:50.41	42.35	10.66	-51.1	-52.7	19.7	0.00e+00	0	46	0	294649856	60	16486
2026-01-28 20:20:51.42	42.51	10.70	-51.2	-52.8	19.7	0.00e+00	0	46	0	297795584	60	16645
2026-01-28 20:20:52.42	42.67	10.74	-51.3	-52.9	19.6	0.00e+00	0	46	0	300941312	60	16703
2026-01-28 20:20:53.43	42.83	10.78	-51.3	-52.9	19.6	0.00e+00	0	46	0	304087040	60	16841
2026-01-28 20:20:54.44	43.00	10.83	-51.4	-53.1	19.4	0.00e+00	0	47	0	307232768	60	17144
2026-01-28 20:20:55.44	43.16	10.87	-51.2	-52.9	19.5	0.00e+00	0	46	0	310378496	60	16807
2026-01-28 20:20:56.44	43.32	10.91	-51.2	-53.0	19.5	0.00e+00	0	46	0	313524224	60	16944
2026-01-28 20:20:57.45	43.49	10.95	-51.0	-52.7	19.7	0.00e+00	0	47	0	316669952	60	16446
2026-01-28 20:20:58.46	43.65	10.99	-51.1	-52.7	19.8	0.00e+00	0	46	0	319815680	60	16474
2026-01-28 20:20:59.46	43.82	11.03	-51.0	-52.6	19.9	0.00e+00	0	46	0	322961408	60	16166
2026-01-28 20:21:00.47	43.98	11.08	-50.9	-52.6	19.4	0.00e+00	0	47	0	326107136	60	16142
2026-01-28 20:21:01.48	44.15	11.12	-50.6	-52.3	19.1	0.00e+00	0	46	0	329252864	60	15670
2026-01-28 20:21:02.48	44.31	11.16	-50.5	-52.4	18.9	0.00e+00	0	46	0	332398592	60	15806
2026-01-28 20:21:03.49	44.48	11.20	-50.6	-52.4	19.4	0.00e+00	0	46	0	335544320	60	15822
2026-01-28 20:21:04.49	44.65	11.24	-50.8	-52.4	19.7	0.00e+00	0	47	0	338690048	60	15932
2026-01-28 20:21:05.50	44.82	11.28	-50.8	-52.4	19.9	0.00e+00	0	46	0	341835776	60	15824
2026-01-28 20:21:06.51	44.99	11.32	-50.9	-52.5	19.9	0.00e+00	0	47	0	344981504	60	15989
2026-01-28 20:21:07.52	45.16	11.36	-50.9	-52.5	19.9	0.00e+00	0	47	0	348127232	60	15967
2026-01-28 20:21:08.52	45.32	11.40	-51.0	-52.6	19.8	0.00e+00	0	47	0	351272960	60	16253
2026-01-28 20:21:09.52	45.49	11.44	-51.0	-52.6	19.8	0.00e+00	0	47	0	354418688	60	16136
2026-01-28 20:21:10.53	45.66	11.48	-51.1	-52.7	19.6	0.00e+00	0	47	0	357564416	60	16352
2026-01-28 20:21:11.53	45.83	11.52	-51.3	-52.9	19.2	0.00e+00	0	46	0	360710144	60	16703
2026-01-28 20:21:12.54	46.00	11.56	-51.2	-52.9	19.2	0.00e+00	0	46	0	363855872	60	16704
2026-01-28 20:21:13.54	46.17	11.60	-51.3	-52.9	19.1	0.00e+00	0	46	0	367001600	60	16827
2026-01-28 20:21:14.55	46.35	11.64	-51.3	-52.8	19.2	0.00e+00	0	46	0	370147328	60	16699
2026-01-28 20:21:15.56	46.52	11.68	-51.2	-52.7	19.3	0.00e+00	0	46	0	373293056	60	16418
2026-01-28 20:21:16.56	46.69	11.72	-51.2	-52.8	19.2	0.00e+00	0	46	0	376438784	60	16574
2026-01-28 20:21:17.57	46.86	11.76	-51.2	-52.8	19.3	0.00e+00	0	46	0	379584512	60	16602
2026-01-28 20:21:18.58	47.04	11.80	-51.1	-52.7	19.4	0.00e+00	0	46	0	382730240	60	16361
2026-01-28 20:21:19.58	47.21	11.84	-51.1	-52.7	19.3	0.00e+00	0	47	0	385875968	60	16337
2026-01-28 20:21:20.58	47.39	11.87	-51.1	-52.6	19.3	0.00e+00	0	46	0	389021696	60	16226
2026-01-28 20:21:21.59	47.56	11.91	-51.2	-52.7	19.2	0.00e+00	0	47	0	392167424	60	16417
2026-01-28 20:21:22.60	47.74	11.95	-51.1	-52.6	19.4	0.00e+00	0	47	0	395313152	60	16234
2026-01-28 20:21:23.61	47.91	11.99	-51.1	-52.7	19.4	0.00e+00	0	47	0	398458880	60	16424
2026-01-28 20:21:24.62	48.09	12.03	-51.3	-52.9	19.3	0.00e+00	0	47	0	401604608	60	16806
2026-01-28 20:21:25.62	48.27	12.06	-51.2	-52.9	19.2	0.00e+00	0	47	0	404750336	60	16726
2026-01-28 20:21:26.62	48.44	12.10	-51.0	-52.7	19.4	0.00e+00	0	47	0	407896064	60	16334
2026-01-28 20:21:27.63	48.62	12.14	-50.8	-52.5	19.5	0.00e+00	0	46	0	411041792	60	16002
2026-01-28 20:21:28.64	48.80	12.18	-50.8	-52.4	19.6	0.00e+00	0	46	0	414187520	60	15901
2026-01-28 20:21:29.65	48.98	12.21	-50.8	-52.4	19.8	0.00e+00	0	47	0	417333248	60	15770
2026-01-28 20:21:30.66	49.16	12.25	-50.9	-52.4	19.8	0.00e+00	0	47	0	420478976	60	15926
2026-01-28 20:21:31.66	49.34	12.29	-51.0	-52.4	19.8	0.00e+00	0	47	0	423624704	60	15938
2026-01-28 20:21:32.67	49.52	12.32	-50.9	-52.4	19.9	0.00e+00	0	47	0	426770432	60	15834
2026-01-28 20:21:33.68	49.70	12.36	-50.6	-52.2	19.7	0.00e+00	0	47	0	429916160	60	15576
2026-01-28 20:21:34.68	49.88	12.39	-50.5	-52.2	19.3	0.00e+00	0	47	0	433061888	60	15572
2026-01-28 20:21:35.69	50.06	12.43	-50.4	-52.3	19.1	0.00e+00	0	47	0	436207616	60	15722
2026-01-28 20:21:36.70	50.24	12.46	-50.4	-52.4	19.0	0.00e+00	0	47	0	439353344	60	15777
2026-01-28 20:21:37.71	50.42	12.50	-50.4	-52.3	19.1	0.00e+00	0	47	0	442499072	60	15634
2026-01-28 20:21:38.72	50.61	12.53	-50.5	-52.2	19.1	0.00e+00	0	46	0	445644800	60	15536
2026-01-28 20:21:39.72	50.79	12.57	-50.4	-52.3	18.9	0.00e+00	0	47	0	448790528	60	15622
2026-01-28 20:21:40.73	50.97	12.60	-50.3	-52.3	18.9	0.00e+00	0	46	0	451936256	60	15628
2026-01-28 20:21:41.74	51.16	12.64	-50.3	-52.4	18.8	0.00e+00	0	46	0	455081984	60	15779
2026-01-28 20:21:42.75	51.34	12.67	-50.3	-52.2	18.8	0.00e+00	0	47	0	458227712	60	15492
2026-01-28 20:21:43.76	51.53	12.71	-50.8	-52.4	19.7	0.00e+00	0	47	0	461373440	60	15826
2026-01-28 20:21:44.76	51.71	12.74	-50.8	-52.3	19.8	0.00e+00	0	47	0	464519168	60	15729
2026-01-28 20:21:45.77	51.90	12.77	-50.9	-52.4	19.5	0.00e+00	0	47	0	467664896	60	15858
2026-01-28 20:21:46.77	52.08	12.81	-50.6	-52.4	18.6	0.00e+00	0	46	0	470810624	60	15845
2026-01-28 20:21:47.78	52.27	12.84	-50.5	-52.4	18.5	0.00e+00	0	46	0	473956352	60	15813
2026-01-28 20:21:48.78	52.45	12.87	-50.7	-52.5	19.1	0.00e+00	0	46	0	477102080	60	16039
2026-01-28 20:21:49.79	52.64	12.90	-50.8	-52.4	19.6	0.00e+00	0	47	0	480247808	60	15924
2026-01-28 20:21:50.80	52.83	12.94	-50.8	-52.3	19.9	0.00e+00	0	47	0	483393536	60	15747
2026-01-28 20:21:51.80	53.01	12.97	-50.8	-52.4	19.8	0.00e+00	0	47	0	486539264	60	15832
2026-01-28 20:21:52.82	53.20	13.00	-50.6	-52.3	19.9	0.00e+00	0	46	0	489684992	60	15597
2026-01-28 20:21:53.82	53.39	13.03	-50.6	-52.2	20.0	0.00e+00	0	47	0	492830720	60	15570
2026-01-28 20:21:54.83	53.58	13.06	-50.7	-52.1	20.1	0.00e+00	0	47	0	495976448	60	15348
2026-01-28 20:21:55.84	53.77	13.09	-50.6	-52.2	20.0	0.00e+00	0	47	0	499122176	60	15508
2026-01-28 20:21:56.85	53.96	13.13	-50.5	-52.2	19.8	0.00e+00	0	47	0	502267904	60	15523
2026-01-28 20:21:57.86	54.15	13.16	-50.7	-52.3	19.7	0.00e+00	0	47	0	505413632	60	15728
2026-01-28 20:21:58.86	54.34	13.19	-50.8	-52.3	19.9	0.00e+00	0	46	0	508559360	60	15661
2026-01-28 20:21:59.87	54.53	13.22	-51.0	-52.5	19.8	0.00e+00	0	47	0	511705088	60	16045
2026-01-28 20:22:00.88	54.72	13.25	-50.9	-52.5	19.7	0.00e+00	0	47	0	514850816	60	15968
2026-01-28 20:22:01.89	54.92	13.28	-50.6	-52.2	19.8	0.00e+00	0	47	0	517996544	60	15522
2026-01-28 20:22:02.90	55.11	13.31	-50.7	-52.3	20.0	0.00e+00	0	47	0	521142272	60	15741
2026-01-28 20:22:03.90	55.30	13.33	-50.8	-52.4	20.0	0.00e+00	0	47	0	524288000	60	15786
2026-01-28 20:22:04.90	55.49	13.36	-50.7	-52.3	19.8	0.00e+00	0	47	0	527433728	60	15679
2026-01-28 20:22:05.91	55.69	13.39	-50.5	-52.4	19.1	0.00e+00	0	47	0	530579456	60	15808
2026-01-28 20:22:06.92	55.88	13.42	-50.5	-52.5	19.0	0.00e+00	0	47	0	533725184	60	16074
2026-01-28 20:22:07.92	56.07	13.45	-49.9	-52.4	18.6	0.00e+00	0	47	0	536870912	60	15772
2026-01-28 20:22:08.93	56.27	13.48	-49.2	-52.4	17.4	0.00e+00	0	47	0	540016640	60	15941
2026-01-28 20:22:09.93	56.46	13.50	-48.6	-52.3	16.5	0.00e+00	0	46	0	543162368	60	15711
2026-01-28 20:22:10.94	56.66	13.53	-49.0	-52.2	17.1	0.00e+00	0	47	0	546308096	60	15489
2026-01-28 20:22:11.95	56.85	13.56	-49.9	-52.3	18.5	0.00e+00	0	47	0	549453824	60	15660
2026-01-28 20:22:12.96	57.05	13.58	-50.3	-52.4	18.9	0.00e+00	0	47	0	552599552	60	15787
2026-01-28 20:22:13.96	57.24	13.61	-49.8	-52.2	17.8	0.00e+00	0	46	0	555745280	60	15574
2026-01-28 20:22:14.97	57.44	13.64	-50.2	-52.1	18.6	0.00e+00	0	46	0	558891008	60	15361
2026-01-28 20:22:15.97	57.64	13.66	-50.5	-52.1	20.1	0.00e+00	0	47	0	562036736	60	15320
2026-01-28 20:22:16.98	57.83	13.69	-50.5	-52.1	20.0	0.00e+00	0	47	0	565182464	60	15320
2026-01-28 20:22:17.98	58.03	13.71	-50.4	-52.1	19.2	0.00e+00	0	47	0	568328192	60	15262
2026-01-28 20:22:18.99	58.23	13.74	-50.3	-52.1	18.2	0.00e+00	0	47	0	571473920	60	15408
2026-01-28 20:22:20.00	58.43	13.76	-50.7	-52.3	19.0	0.00e+00	0	47	0	574619648	60	15614
2026-01-28 20:22:21.00	58.62	13.79	-50.7	-52.2	20.2	0.00e+00	0	47	0	577765376	60	15535
2026-01-28 20:22:22.01	58.82	13.81	-50.2	-52.2	19.4	0.00e+00	0	47	0	580911104	60	15454
2026-01-28 20:22:23.01	59.02	13.84	-50.7	-52.3	20.1	0.00e+00	0	47	0	584056832	60	15589
2026-01-28 20:22:24.02	59.22	13.86	-50.8	-52.3	20.2	0.00e+00	0	47	0	587202560	60	15736
2026-01-28 20:22:25.03	59.42	13.88	-50.5	-52.2	20.3	0.00e+00	0	47	0	590348288	60	15522
2026-01-28 20:22:26.04	59.62	13.91	-50.3	-52.3	19.4	0.00e+00	0	46	0	593494016	60	15595
2026-01-28 20:22:27.04	59.82	13.93	-49.9	-52.1	18.3	0.00e+00	0	47	0	596639744	60	15333
2026-01-28 20:22:28.05	60.02	13.95	-49.4	-52.1	18.1	0.00e+00	0	47	0	599785472	60	15336
2026-01-28 20:22:29.06	60.22	13.97	-49.3	-52.2	17.8	0.00e+00	0	47	0	602931200	60	15506
2026-01-28 20:22:30.07	60.42	13.99	-50.2	-52.3	18.9	0.00e+00	0	47	0	606076928	60	15640
2026-01-28 20:22:31.08	60.62	14.02	-50.8	-52.4	19.9	0.00e+00	0	47	0	609222656	60	15800
2026-01-28 20:22:32.09	60.83	14.04	-51.1	-52.6	20.3	0.00e+00	0	46	0	612368384	60	16205
2026-01-28 20:22:33.09	61.03	14.06	-50.9	-52.6	19.6	0.00e+00	0	47	0	615514112	60	16173
2026-01-28 20:22:34.10	61.23	14.08	-51.0	-52.6	20.0	0.00e+00	0	47	0	618659840	60	16161
2026-01-28 20:22:35.11	61.43	14.10	-50.9	-52.5	19.7	0.00e+00	0	47	0	621805568	60	16092
2026-01-28 20:22:36.12	61.64	14.12	-50.9	-52.6	18.9	0.00e+00	0	47	0	624951296	60	16264
2026-01-28 20:22:37.12	61.84	14.14	-50.8	-52.7	19.3	0.00e+00	0	47	0	628097024	60	16426
2026-01-28 20:22:38.13	62.04	14.16	-50.4	-52.7	18.5	0.00e+00	0	47	0	631242752	60	16474
2026-01-28 20:22:39.13	62.24	14.18	-49.9	-52.7	17.9	0.00e+00	0	47	0	634388480	60	16474
2026-01-28 20:22:40.13	62.45	14.19	-49.7	-52.7	17.0	0.00e+00	0	47	0	637534208	60	16338
2026-01-28 20:22:41.14	62.65	14.21	-49.3	-52.8	16.6	0.00e+00	0	46	0	640679936	60	16519
2026-01-28 20:22:42.15	62.86	14.23	-51.2	-52.7	20.2	0.00e+00	0	46	0	643825664	60	16373
2026-01-28 20:22:43.15	63.06	14.25	-51.2	-52.7	20.3	0.00e+00	0	47	0	646971392	60	16380
2026-01-28 20:22:44.15	63.26	14.27	-51.2	-52.6	20.5	0.00e+00	0	47	0	650117120	60	16280
2026-01-28 20:22:45.16	63.47	14.28	-51.3	-52.7	20.5	0.00e+00	0	47	0	653262848	60	16425
2026-01-28 20:22:46.16	63.67	14.30	-51.2	-52.8	20.2	0.00e+00	0	46	0	656408576	60	16608
2026-01-28 20:22:47.17	63.88	14.32	-51.5	-53.0	20.0	0.00e+00	0	47	0	659554304	60	16967
2026-01-28 20:22:48.18	64.08	14.33	-51.5	-53.0	20.2	0.00e+00	0	47	0	662700032	60	16939
2026-01-28 20:22:49.19	64.29	14.35	-51.1	-53.0	18.9	0.00e+00	0	46	0	665845760	60	16993
2026-01-28 20:22:50.19	64.50	14.36	-50.1	-52.9	16.7	0.00e+00	0	47	0	668991488	60	16764
2026-01-28 20:22:51.20	64.70	14.38	-49.4	-53.0	16.4	0.00e+00	0	46	0	672137216	60	16928
2026-01-28 20:22:52.20	64.91	14.39	-49.9	-53.1	17.3	0.00e+00	0	46	0	675282944	60	17200
2026-01-28 20:22:53.21	65.11	14.41	-51.2	-53.3	19.2	0.00e+00	0	47	0	678428672	60	17500
2026-01-28 20:22:54.21	65.32	14.42	-51.9	-53.4	20.2	0.00e+00	0	46	0	681574400	60	17727
2026-01-28 20:22:55.21	65.53	14.44	-52.0	-53.5	20.1	0.00e+00	0	47	0	684720128	60	18001
2026-01-28 20:22:56.22	65.73	14.45	-52.1	-53.7	19.5	0.00e+00	0	46	0	687865856	60	18488
2026-01-28 20:22:57.23	65.94	14.46	-51.8	-53.5	19.9	0.00e+00	0	47	0	691011584	60	17935
2026-01-28 20:22:58.24	66.15	14.47	-52.1	-53.7	19.9	0.00e+00	0	46	0	694157312	60	18410
2026-01-28 20:22:59.24	66.36	14.49	-51.6	-53.4	19.5	0.00e+00	0	47	0	697303040	60	17722
2026-01-28 20:23:00.25	66.56	14.50	-52.2	-53.9	19.5	0.00e+00	0	47	0	700448768	60	18747
2026-01-28 20:23:01.25	66.77	14.51	-52.3	-53.8	19.8	0.00e+00	0	46	0	703594496	60	18647
2026-01-28 20:23:02.26	66.98	14.52	-52.3	-53.9	19.7	0.00e+00	0	47	0	706740224	60	18837
2026-01-28 20:23:03.26	67.19	14.53	-52.2	-53.9	19.7	0.00e+00	0	47	0	709885952	60	18757
2026-01-28 20:23:04.27	67.40	14.54	-52.2	-53.9	19.7	0.00e+00	0	46	0	713031680	60	18742
2026-01-28 20:23:05.28	67.61	14.55	-51.9	-53.6	19.6	0.00e+00	0	46	0	716177408	60	18191
2026-01-28 20:23:06.29	67.82	14.56	-51.7	-53.3	19.9	0.00e+00	0	47	0	719323136	60	17690
2026-01-28 20:23:07.29	68.02	14.57	-51.8	-53.4	19.9	0.00e+00	0	46	0	722468864	60	17838
2026-01-28 20:23:08.31	68.24	14.58	-51.8	-53.3	20.0	0.00e+00	0	47	0	725614592	60	17600
2026-01-28 20:23:09.31	68.44	14.59	-51.6	-53.1	19.8	0.00e+00	0	47	0	728760320	60	17211
2026-01-28 20:23:10.32	68.65	14.60	-51.9	-53.3	20.2	0.00e+00	0	47	0	731906048	60	17666
2026-01-28 20:23:11.33	68.86	14.61	-52.0	-53.4	20.1	0.00e+00	0	46	0	735051776	60	17818
2026-01-28 20:23:12.33	69.07	14.62	-51.9	-53.5	20.2	0.00e+00	0	47	0	738197504	60	18017
2026-01-28 20:23:13.34	69.28	14.62	-52.0	-53.5	20.1	0.00e+00	0	47	0	741343232	60	18094
2026-01-28 20:23:14.33	69.49	14.63	-52.1	-53.7	20.1	0.00e+00	0	47	0	744488960	60	18346
2026-01-28 20:23:15.34	69.70	14.64	-52.0	-53.6	20.0	0.00e+00	0	47	0	747634688	60	18211
2026-01-28 20:23:16.35	69.91	14.64	-52.1	-53.7	19.9	0.00e+00	0	47	0	750780416	60	18338
2026-01-28 20:23:17.36	70.12	14.65	-52.1	-53.6	19.9	0.00e+00	0	47	0	753926144	60	18284
2026-01-28 20:23:18.37	70.33	14.66	-52.0	-53.4	20.2	0.00e+00	0	47	0	757071872	60	17784
2026-01-28 20:23:19.38	70.54	14.66	-51.9	-53.3	20.4	0.00e+00	0	47	0	760217600	60	17583
2026-01-28 20:23:20.38	70.75	14.67	-52.0	-53.4	20.3	0.00e+00	0	47	0	763363328	60	17828
2026-01-28 20:23:21.39	70.96	14.67	-52.0	-53.6	20.0	0.00e+00	0	47	0	766509056	60	18163
2026-01-28 20:23:22.40	71.17	14.68	-51.9	-53.6	19.9	0.00e+00	0	47	0	769654784	60	18230
2026-01-28 20:23:23.40	71.38	14.68	-51.9	-53.5	19.8	0.00e+00	0	47	0	772800512	60	18094
2026-01-28 20:23:24.41	71.59	14.68	-52.0	-53.5	20.2	0.00e+00	0	47	0	775946240	60	17984
2026-01-28 20:23:25.41	71.80	14.69	-52.2	-53.7	20.0	0.00e+00	0	47	0	779091968	60	18367
2026-01-28 20:23:26.42	72.01	14.69	-52.5	-53.9	19.8	0.00e+00	0	47	0	782237696	60	18902
2026-01-28 20:23:27.42	72.22	14.69	-52.4	-54.0	19.4	0.00e+00	0	46	0	785383424	60	18983
2026-01-28 20:23:28.43	72.44	14.69	-52.0	-53.8	19.1	0.00e+00	0	47	0	788529152	60	18658
2026-01-28 20:23:29.44	72.65	14.70	-52.0	-53.8	19.8	0.00e+00	0	47	0	791674880	60	18553
2026-01-28 20:23:30.44	72.86	14.70	-51.8	-53.4	20.1	0.00e+00	0	46	0	794820608	60	17759
2026-01-28 20:23:31.45	73.07	14.70	-51.7	-53.3	19.9	0.00e+00	0	47	0	797966336	60	17622
2026-01-28 20:23:32.45	73.28	14.70	-51.7	-53.4	20.0	0.00e+00	0	47	0	801112064	60	17723
2026-01-28 20:23:33.46	73.49	14.70	-51.7	-53.3	19.8	0.00e+00	0	47	0	804257792	60	17658
2026-01-28 20:23:34.46	73.70	14.70	-51.5	-53.3	19.4	0.00e+00	0	46	0	807403520	60	17580
2026-01-28 20:23:35.47	73.91	14.70	-51.6	-53.3	19.7	0.00e+00	0	47	0	810549248	60	17592
2026-01-28 20:23:36.48	74.12	14.70	-51.6	-53.2	20.1	0.00e+00	0	46	0	813694976	60	17297
2026-01-28 20:23:37.49	74.33	14.70	-51.6	-53.2	20.3	0.00e+00	0	46	0	816840704	60	17317
2026-01-28 20:23:38.49	74.54	14.70	-51.7	-53.2	20.0	0.00e+00	0	47	0	819986432	60	17392
2026-01-28 20:23:39.50	74.75	14.69	-51.6	-53.1	20.1	0.00e+00	0	47	0	823132160	60	17189
2026-01-28 20:23:40.51	74.97	14.69	-51.7	-53.1	20.7	0.00e+00	0	47	0	826277888	60	17129
2026-01-28 20:23:41.52	75.18	14.69	-51.8	-53.2	20.5	0.00e+00	0	47	0	829423616	60	17293
2026-01-28 20:23:42.52	75.39	14.69	-51.6	-53.2	20.0	0.00e+00	0	47	0	832569344	60	17416
2026-01-28 20:23:43.53	75.60	14.68	-51.6	-53.2	20.0	0.00e+00	0	47	0	835715072	60	17363
2026-01-28 20:23:44.52	75.81	14.68	-51.7	-53.3	20.1	0.00e+00	0	46	0	838860800	60	17608
2026-01-28 20:23:45.53	76.02	14.68	-51.8	-53.4	20.3	0.00e+00	0	46	0	842006528	60	17705
2026-01-28 20:23:46.53	76.23	14.67	-51.9	-53.4	20.2	0.00e+00	0	47	0	845152256	60	17862
2026-01-28 20:23:47.54	76.44	14.67	-51.9	-53.4	20.0	0.00e+00	0	47	0	848297984	60	17776
2026-01-28 20:23:48.54	76.65	14.66	-51.8	-53.3	19.9	0.00e+00	0	47	0	851443712	60	17641
2026-01-28 20:23:49.55	76.86	14.66	-51.8	-53.3	20.0	0.00e+00	0	47	0	854589440	60	17684
2026-01-28 20:23:50.54	77.06	14.65	-52.0	-53.5	20.0	0.00e+00	0	47	0	857735168	60	18018
2026-01-28 20:23:51.55	77.28	14.64	-52.1	-53.5	19.8	0.00e+00	0	47	0	860880896	60	18060
2026-01-28 20:23:52.56	77.49	14.64	-51.9	-53.4	19.8	0.00e+00	0	47	0	864026624	60	17885
2026-01-28 20:23:53.57	77.70	14.63	-52.0	-53.5	20.0	0.00e+00	0	47	0	867172352	60	18003
2026-01-28 20:23:54.57	77.91	14.62	-52.0	-53.6	19.9	0.00e+00	0	46	0	870318080	60	18159
2026-01-28 20:23:55.56	78.11	14.62	-52.0	-53.5	19.8	0.00e+00	0	47	0	873463808	60	18076
2026-01-28 20:23:56.57	78.32	14.61	-52.2	-53.6	20.2	0.00e+00	0	47	0	876609536	60	18202
2026-01-28 20:23:57.57	78.53	14.60	-52.1	-53.6	20.0	0.00e+00	0	47	0	879755264	60	18135
2026-01-28 20:23:58.58	78.74	14.59	-53.3	-54.8	20.0	0.00e+00	0	47	0	882900992	60	21015
2026-01-28 20:23:59.58	78.95	14.58	-53.2	-54.8	20.1	0.00e+00	0	47	0	886046720	60	20864
2026-01-28 20:24:00.59	79.16	14.57	-53.2	-54.7	19.9	0.00e+00	0	47	0	889192448	60	20708
2026-01-28 20:24:01.59	79.37	14.57	-53.2	-54.8	19.9	0.00e+00	0	47	0	892338176	60	20830
2026-01-28 20:24:02.59	79.57	14.56	-53.2	-54.7	20.0	0.00e+00	0	46	0	895483904	60	20780
2026-01-28 20:24:03.59	79.78	14.55	-53.2	-54.7	19.9	0.00e+00	0	47	0	898629632	60	20758
2026-01-28 20:24:04.60	79.99	14.53	-53.3	-54.9	19.9	0.00e+00	0	46	0	901775360	60	21091
2026-01-28 20:24:05.60	80.20	14.52	-53.2	-54.7	20.2	0.00e+00	0	47	0	904921088	60	20702
2026-01-28 20:24:06.60	80.41	14.51	-53.3	-54.8	20.2	0.00e+00	0	47	0	908066816	60	20827
2026-01-28 20:24:07.60	80.61	14.50	-53.2	-54.7	20.2	0.00e+00	0	47	0	911212544	60	20642
2026-01-28 20:24:08.61	80.82	14.49	-53.1	-54.6	20.1	0.00e+00	0	47	0	914358272	60	20494
2026-01-28 20:24:09.62	81.03	14.48	-52.9	-54.6	19.8	0.00e+00	0	47	0	917504000	60	20419
2026-01-28 20:24:10.62	81.24	14.46	-52.8	-54.6	19.9	0.00e+00	0	47	0	920649728	60	20420
2026-01-28 20:24:11.63	81.45	14.45	-52.8	-54.7	19.9	0.00e+00	0	46	0	923795456	60	20667
2026-01-28 20:24:12.63	81.65	14.44	-52.9	-54.8	19.7	0.00e+00	0	47	0	926941184	60	20878
2026-01-28 20:24:13.64	81.86	14.42	-52.9	-54.7	19.5	0.00e+00	0	47	0	930086912	60	20575
2026-01-28 20:24:14.65	82.07	14.41	-53.1	-54.8	19.7	0.00e+00	0	47	0	932184064	60	20797
2026-01-28 20:24:15.65	82.27	14.40	-52.9	-54.6	20.1	0.00e+00	0	47	0	935329792	60	20403
2026-01-28 20:24:16.66	82.48	14.38	-53.1	-54.7	20.2	0.00e+00	0	46	0	938475520	60	20617
2026-01-28 20:24:17.66	82.69	14.37	-53.3	-54.8	20.1	0.00e+00	0	46	0	941621248	60	20964
2026-01-28 20:24:18.67	82.89	14.35	-53.3	-54.8	19.9	0.00e+00	0	47	0	945815552	60	20905
2026-01-28 20:24:19.67	83.10	14.33	-53.4	-54.9	20.0	0.00e+00	0	47	0	948961280	60	21177
2026-01-28 20:24:20.68	83.31	14.32	-53.4	-54.9	20.0	0.00e+00	0	46	0	952107008	60	21188
2026-01-28 20:24:21.69	83.51	14.30	-53.3	-54.8	20.0	0.00e+00	0	47	0	955252736	60	20838
2026-01-28 20:24:22.70	83.72	14.28	-53.1	-54.6	19.8	0.00e+00	0	47	0	958398464	60	20513
2026-01-28 20:24:23.71	83.92	14.27	-53.1	-54.7	19.9	0.00e+00	0	47	0	961544192	60	20563
2026-01-28 20:24:24.72	84.13	14.25	-52.8	-54.4	20.0	0.00e+00	0	47	0	964689920	60	19944
2026-01-28 20:24:25.73	84.34	14.23	-52.7	-54.4	19.9	0.00e+00	0	47	0	967835648	60	19906
2026-01-28 20:24:26.74	84.54	14.21	-52.4	-54.2	19.5	0.00e+00	0	47	0	970981376	60	19502
2026-01-28 20:24:27.74	84.74	14.20	-52.2	-54.0	19.5	0.00e+00	0	47	0	974127104	60	19165
2026-01-28 20:24:28.75	84.95	14.18	-52.2	-54.2	19.7	0.00e+00	0	47	0	977272832	60	19432
2026-01-28 20:24:29.76	85.15	14.16	-52.2	-54.1	19.6	0.00e+00	0	47	0	979369984	60	19382
2026-01-28 20:24:30.76	85.36	14.14	-52.2	-54.0	19.6	0.00e+00	0	47	0	982515712	60	19168
2026-01-28 20:24:31.77	85.56	14.12	-52.4	-54.2	19.8	0.00e+00	0	47	0	985661440	60	19403
2026-01-28 20:24:32.78	85.76	14.10	-52.4	-54.0	20.3	0.00e+00	0	47	0	989855744	60	19169
2026-01-28 20:24:33.79	85.97	14.08	-52.5	-54.0	20.4	0.00e+00	0	47	0	993001472	60	19117
2026-01-28 20:24:34.79	86.17	14.06	-52.5	-54.0	20.3	0.00e+00	0	47	0	996147200	60	19140
2026-01-28 20:24:35.80	86.37	14.04	-52.6	-54.0	20.2	0.00e+00	0	47	0	999292928	60	19118
2026-01-28 20:24:36.81	86.57	14.02	-52.5	-54.0	20.2	0.00e+00	0	46	0	1002438656	60	19028
2026-01-28 20:24:37.82	86.78	14.00	-52.5	-54.0	20.1	0.00e+00	0	46	0	1005584384	60	19155
2026-01-28 20:24:38.83	86.98	13.97	-52.4	-54.0	19.9	0.00e+00	0	46	0	1008730112	60	19158
2026-01-28 20:24:39.83	87.18	13.95	-52.4	-54.0	19.9	0.00e+00	0	47	0	1011875840	60	19109
2026-01-28 20:24:40.84	87.38	13.93	-52.3	-54.0	19.9	0.00e+00	0	46	0	1015021568	60	19039
2026-01-28 20:24:41.85	87.58	13.91	-52.3	-54.1	20.0	0.00e+00	0	47	0	1018167296	60	19181
2026-01-28 20:24:42.86	87.78	13.88	-52.2	-53.9	20.2	0.00e+00	0	47	0	1021313024	60	18950
2026-01-28 20:24:43.86	87.98	13.86	-52.2	-53.9	20.3	0.00e+00	0	47	0	1024458752	60	18877
2026-01-28 20:24:44.87	88.18	13.84	-52.3	-53.8	20.4	0.00e+00	0	47	0	1027604480	60	18705
2026-01-28 20:24:45.88	88.38	13.81	-52.4	-53.9	20.4	0.00e+00	0	47	0	1030750208	60	18838
2026-01-28 20:24:46.89	88.58	13.79	-52.5	-53.9	20.4	0.00e+00	0	47	0	1033895936	60	18938
2026-01-28 20:24:47.89	88.78	13.76	-52.5	-54.0	20.2	0.00e+00	0	47	0	1037041664	60	18987
2026-01-28 20:24:48.90	88.98	13.74	-52.5	-54.0	20.3	0.00e+00	0	47	0	1040187392	60	18982
2026-01-28 20:24:49.91	89.18	13.71	-52.5	-54.0	20.3	0.00e+00	0	47	0	1043333120	60	19057
2026-01-28 20:24:50.90	89.37	13.69	-52.4	-53.9	20.3	0.00e+00	0	47	0	1046478848	60	18868
2026-01-28 20:24:51.91	89.57	13.66	-52.3	-53.9	20.2	0.00e+00	0	47	0	1049624576	60	18791
2026-01-28 20:24:52.92	89.77	13.64	-52.4	-54.0	20.1	0.00e+00	0	47	0	1052770304	60	18977
2026-01-28 20:24:53.92	89.96	13.61	-52.3	-53.9	20.0	0.00e+00	0	47	0	1055916032	60	18906
2026-01-28 20:24:54.93	90.16	13.58	-52.4	-54.0	20.0	0.00e+00	0	47	0	1059061760	60	18986
2026-01-28 20:24:55.94	90.36	13.56	-52.5	-54.1	20.0	0.00e+00	0	47	0	1062207488	60	19212
2026-01-28 20:24:56.94	90.55	13.53	-52.5	-54.0	20.1	0.00e+00	0	47	0	1065353216	60	19106
2026-01-28 20:24:57.95	90.75	13.50	-52.5	-54.1	20.1	0.00e+00	0	47	0	1068498944	60	19233
2026-01-28 20:24:58.96	90.94	13.48	-52.5	-54.0	20.0	0.00e+00	0	47	0	1071644672	60	19066
2026-01-28 20:24:59.97	91.14	13.45	-52.4	-54.0	19.9	0.00e+00	0	47	0	1073741824	60	19070
2026-01-28 20:25:00.98	91.33	13.42	-52.5	-54.1	19.6	0.00e+00	0	47	0	1077936128	60	19233
2026-01-28 20:25:01.98	91.53	13.39	-52.4	-54.0	19.6	0.00e+00	0	47	0	1081081856	60	19109
2026-01-28 20:25:02.99	91.72	13.36	-52.4	-54.0	19.8	0.00e+00	0	47	0	1084227584	60	19049
2026-01-28 20:25:04.00	91.91	13.33	-52.4	-54.0	19.8	0.00e+00	0	47	0	1087373312	60	19115
2026-01-28 20:25:05.00	92.11	13.30	-52.3	-53.9	19.9	0.00e+00	0	47	0	1090519040	60	18860
2026-01-28 20:25:06.01	92.30	13.27	-52.3	-53.9	20.1	0.00e+00	0	47	0	1093664768	60	18757
2026-01-28 20:25:07.01	92.49	13.24	-52.3	-53.8	20.1	0.00e+00	0	47	0	1096810496	60	18562
2026-01-28 20:25:08.02	92.68	13.21	-52.4	-53.9	20.1	0.00e+00	0	47	0	1099956224	60	18880
2026-01-28 20:25:09.03	92.88	13.18	-52.3	-53.9	20.2	0.00e+00	0	47	0	1103101952	60	18773
2026-01-28 20:25:10.03	93.06	13.15	-52.2	-53.9	20.2	0.00e+00	0	47	0	1106247680	60	18804
2026-01-28 20:25:11.04	93.26	13.12	-52.0	-53.8	20.1	0.00e+00	0	47	0	1109393408	60	18626
2026-01-28 20:25:12.05	93.45	13.09	-51.9	-53.7	20.2	0.00e+00	0	46	0	1112539136	60	18361
2026-01-28 20:25:13.05	93.64	13.06	-52.0	-53.8	20.0	0.00e+00	0	47	0	1115684864	60	18600
2026-01-28 20:25:14.05	93.82	13.03	-52.0	-53.6	19.6	0.00e+00	0	46	0	1118830592	60	18300
2026-01-28 20:25:15.06	94.01	13.00	-52.0	-53.7	19.2	0.00e+00	0	47	0	1120927744	60	18460
2026-01-28 20:25:16.07	94.20	12.97	-52.1	-53.8	19.1	0.00e+00	0	47	0	1124073472	60	18722
2026-01-28 20:25:17.08	94.39	12.93	-52.2	-53.9	19.3	0.00e+00	0	47	0	1128267776	60	18786
2026-01-28 20:25:18.09	94.58	12.90	-52.3	-54.0	19.5	0.00e+00	0	47	0	1131413504	60	18972
2026-01-28 20:25:19.09	94.77	12.87	-52.4	-54.0	19.8	0.00e+00	0	47	0	1134559232	60	19020
2026-01-28 20:25:20.10	94.96	12.84	-52.3	-53.8	20.0	0.00e+00	0	46	0	1137704960	60	18549
2026-01-28 20:25:21.10	95.14	12.80	-52.3	-53.7	20.1	0.00e+00	0	47	0	1140850688	60	18491
2026-01-28 20:25:22.11	95.33	12.77	-52.2	-53.6	20.1	0.00e+00	0	47	0	1143996416	60	18300
2026-01-28 20:25:23.11	95.51	12.74	-52.2	-53.7	20.0	0.00e+00	0	47	0	1147142144	60	18489
2026-01-28 20:25:24.11	95.70	12.70	-52.1	-53.5	20.2	0.00e+00	0	47	0	1150287872	60	18064
2026-01-28 20:25:25.12	95.88	12.67	-52.1	-53.6	20.1	0.00e+00	0	47	0	1153433600	60	18147
2026-01-28 20:25:26.12	96.07	12.63	-52.1	-53.5	20.2	0.00e+00	0	47	0	1156579328	60	18094
2026-01-28 20:25:27.12	96.25	12.60	-52.0	-53.5	20.3	0.00e+00	0	47	0	1159725056	60	18000
2026-01-28 20:25:28.13	96.43	12.57	-52.0	-53.5	20.2	0.00e+00	0	47	0	1162870784	60	18005
2026-01-28 20:25:29.14	96.62	12.53	-52.0	-53.5	20.2	0.00e+00	0	47	0	1166016512	60	18032
2026-01-28 20:25:30.15	96.80	12.49	-52.0	-53.6	20.2	0.00e+00	0	47	0	1168113664	60	18143
2026-01-28 20:25:31.15	96.98	12.46	-52.1	-53.6	20.1	0.00e+00	0	47	0	1171259392	60	18197
2026-01-28 20:25:32.16	97.17	12.42	-52.1	-53.7	19.8	0.00e+00	0	47	0	1174405120	60	18341
2026-01-28 20:25:33.17	97.35	12.39	-52.2	-53.8	19.6	0.00e+00	0	47	0	1177550848	60	18574
2026-01-28 20:25:34.18	97.53	12.35	-52.1	-53.6	19.7	0.00e+00	0	47	0	1181745152	60	18262
2026-01-28 20:25:35.18	97.71	12.32	-52.1	-53.6	19.7	0.00e+00	0	47	0	1184890880	60	18204
2026-01-28 20:25:36.18	97.89	12.28	-52.1	-53.7	19.6	0.00e+00	0	47	0	1188036608	60	18403
2026-01-28 20:25:37.19	98.07	12.24	-52.1	-53.8	19.6	0.00e+00	0	47	0	1191182336	60	18579
2026-01-28 20:25:38.20	98.25	12.21	-52.0	-53.7	19.7	0.00e+00	0	47	0	1194328064	60	18475
2026-01-28 20:25:39.21	98.43	12.17	-52.0	-53.7	19.9	0.00e+00	0	47	0	1197473792	60	18342
2026-01-28 20:25:40.21	98.61	12.13	-51.9	-53.6	20.0	0.00e+00	0	47	0	1200619520	60	18311
2026-01-28 20:25:41.22	98.79	12.09	-52.0	-53.8	20.0	0.00e+00	0	47	0	1203765248	60	18611
2026-01-28 20:25:42.22	98.96	12.06	-51.9	-53.7	20.0	0.00e+00	0	47	0	1206910976	60	18502
2026-01-28 20:25:43.22	99.14	12.02	-52.0	-53.8	19.9	0.00e+00	0	47	0	1210056704	60	18652
2026-01-28 20:25:44.23	99.32	11.98	-52.0	-53.8	19.8	0.00e+00	0	47	0	1213202432	60	18565
2026-01-28 20:25:45.24	99.50	11.94	-52.1	-53.9	19.6	0.00e+00	0	47	0	1215299584	60	18747
2026-01-28 20:25:46.25	99.67	11.91	-52.0	-53.9	19.6	0.00e+00	0	47	0	1218445312	60	18801
2026-01-28 20:25:47.26	99.85	11.87	-52.0	-53.9	19.6	0.00e+00	0	47	0	1221591040	60	18857
2026-01-28 20:25:48.27	100.02	11.83	-52.1	-54.0	19.6	0.00e+00	0	47	0	1224736768	60	19039
2026-01-28 20:25:49.27	100.20	11.79	-52.1	-54.0	19.4	0.00e+00	0	47	0	1228931072	60	19068
2026-01-28 20:25:50.28	100.37	11.75	-52.1	-54.1	19.1	0.00e+00	0	47	0	1232076800	60	19244
2026-01-28 20:25:51.29	100.55	11.71	-51.9	-53.9	18.9	0.00e+00	0	47	0	1235222528	60	18949
2026-01-28 20:25:52.30	100.72	11.67	-51.9	-54.1	18.8	0.00e+00	0	47	0	1238368256	60	19182
2026-01-28 20:25:53.30	100.89	11.63	-51.8	-54.0	18.7	0.00e+00	0	47	0	1241513984	60	19071
2026-01-28 20:25:54.31	101.07	11.59	-51.7	-53.9	18.6	0.00e+00	0	47	0	1244659712	60	18905
2026-01-28 20:25:55.32	101.24	11.55	-51.9	-54.0	18.4	0.00e+00	0	47	0	1247805440	60	19112
2026-01-28 20:25:56.33	101.41	11.51	-51.7	-53.8	18.6	0.00e+00	0	47	0	1250951168	60	18689
2026-01-28 20:25:57.33	101.58	11.47	-51.8	-53.8	18.7	0.00e+00	0	47	0	1254096896	60	18731
2026-01-28 20:25:58.33	101.75	11.43	-51.9	-53.9	19.1	0.00e+00	0	46	0	1257242624	60	18758
2026-01-28 20:25:59.34	101.92	11.39	-52.0	-53.9	19.4	0.00e+00	0	47	0	1260388352	60	18741
2026-01-28 20:26:00.35	102.09	11.35	-52.2	-54.0	19.5	0.00e+00	0	47	0	1263534080	60	19030
2026-01-28 20:26:01.35	102.26	11.31	-52.2	-53.9	19.5	0.00e+00	0	47	0	1265631232	60	18876
2026-01-28 20:26:02.36	102.43	11.27	-52.3	-54.0	19.1	0.00e+00	0	47	0	1268776960	60	19144
2026-01-28 20:26:03.37	102.60	11.23	-52.2	-53.9	19.1	0.00e+00	0	46	0	1271922688	60	18902
2026-01-28 20:26:04.38	102.77	11.19	-52.1	-53.8	19.3	0.00e+00	0	47	0	1276116992	60	18642
2026-01-28 20:26:05.38	102.94	11.15	-52.1	-53.9	19.3	0.00e+00	0	46	0	1279262720	60	18803
2026-01-28 20:26:06.39	103.10	11.10	-52.2	-53.9	19.5	0.00e+00	0	46	0	1282408448	60	18906
2026-01-28 20:26:07.40	103.27	11.06	-52.2	-53.9	19.4	0.00e+00	0	47	0	1285554176	60	18894
2026-01-28 20:26:08.41	103.44	11.02	-52.2	-54.0	19.1	0.00e+00	0	47	0	1288699904	60	18987
2026-01-28 20:26:09.42	103.60	10.98	-52.3	-54.0	19.0	0.00e+00	0	47	0	1291845632	60	19121
2026-01-28 20:26:10.42	103.77	10.94	-52.2	-53.9	19.0	0.00e+00	0	47	0	1294991360	60	18954
2026-01-28 20:26:11.43	103.93	10.89	-52.2	-54.0	19.0	0.00e+00	0	47	0	1298137088	60	19074
2026-01-28 20:26:12.43	104.10	10.85	-52.3	-54.1	18.8	0.00e+00	0	47	0	1301282816	60	19191
2026-01-28 20:26:13.44	104.26	10.81	-52.2	-54.0	19.0	0.00e+00	0	47	0	1304428544	60	19029
2026-01-28 20:26:14.45	104.43	10.77	-52.1	-53.9	19.1	0.00e+00	0	47	0	1307574272	60	18799
2026-01-28 20:26:15.45	104.59	10.72	-52.1	-53.9	19.1	0.00e+00	0	47	0	1309671424	60	18844
2026-01-28 20:26:16.46	104.75	10.68	-52.3	-54.1	18.9	0.00e+00	0	47	0	1312817152	60	19191
2026-01-28 20:26:17.47	104.91	10.64	-52.4	-54.2	18.8	0.00e+00	0	47	0	1315962880	60	19479
2026-01-28 20:26:18.48	105.08	10.59	-52.2	-54.0	18.9	0.00e+00	0	47	0	1320157184	60	19062
2026-01-28 20:26:19.48	105.24	10.55	-52.2	-54.1	18.6	0.00e+00	0	47	0	1323302912	60	19206
2026-01-28 20:26:20.49	105.40	10.51	-51.9	-53.9	18.3	0.00e+00	0	47	0	1326448640	60	18931
2026-01-28 20:26:21.50	105.56	10.46	-51.9	-54.0	17.9	0.00e+00	0	47	0	1329594368	60	19016
2026-01-28 20:26:22.51	105.72	10.42	-51.8	-54.0	17.6	0.00e+00	0	47	0	1332740096	60	19087
2026-01-28 20:26:23.52	105.88	10.38	-51.8	-54.1	17.6	0.00e+00	0	47	0	1335885824	60	19362
2026-01-28 20:26:24.53	106.04	10.33	-51.8	-54.1	18.2	0.00e+00	0	47	0	1339031552	60	19313
2026-01-28 20:26:25.53	106.19	10.29	-51.8	-54.1	18.4	0.00e+00	0	47	0	1342177280	60	19309
2026-01-28 20:26:26.54	106.35	10.24	-51.8	-54.1	18.4	0.00e+00	0	47	0	1345323008	60	19360
2026-01-28 20:26:27.54	106.51	10.20	-51.9	-54.2	18.2	0.00e+00	0	47	0	1348468736	60	19406
2026-01-28 20:26:28.55	106.67	10.15	-51.9	-54.2	18.0	0.00e+00	0	47	0	1351614464	60	19461
2026-01-28 20:26:29.55	106.82	10.11	-51.9	-54.1	18.2	0.00e+00	0	47	0	1354760192	60	19372
2026-01-28 20:26:30.56	106.98	10.07	-51.8	-54.1	18.4	0.00e+00	0	47	0	1357905920	60	19305
2026-01-28 20:26:31.56	107.13	10.02	-51.8	-54.2	18.2	0.00e+00	0	47	0	1360003072	60	19449
2026-01-28 20:26:32.57	107.29	9.98	-51.7	-54.1	17.9	0.00e+00	0	47	0	1364197376	60	19221
2026-01-28 20:26:33.57	107.44	9.93	-51.7	-54.1	17.7	0.00e+00	0	47	0	1367343104	60	19286
2026-01-28 20:26:34.58	107.60	9.89	-51.7	-54.1	17.7	0.00e+00	0	47	0	1370488832	60	19385
2026-01-28 20:26:35.58	107.75	9.84	-51.6	-54.2	17.9	0.00e+00	0	47	0	1373634560	60	19417
2026-01-28 20:26:36.59	107.91	9.80	-51.7	-54.2	18.1	0.00e+00	0	47	0	1376780288	60	19428
2026-01-28 20:26:37.60	108.06	9.75	-51.8	-54.3	18.4	0.00e+00	0	47	0	1379926016	60	19641
2026-01-28 20:26:38.60	108.21	9.71	-51.9	-54.3	18.6	0.00e+00	0	47	0	1383071744	60	19737
2026-01-28 20:26:39.61	108.36	9.66	-52.0	-54.3	18.7	0.00e+00	0	47	0	1386217472	60	19744
2026-01-28 20:26:40.62	108.51	9.62	-52.0	-54.3	18.6	0.00e+00	0	47	0	1389363200	60	19748
2026-01-28 20:26:41.63	108.67	9.57	-52.1	-54.3	18.5	0.00e+00	0	47	0	1392508928	60	19704
2026-01-28 20:26:42.63	108.82	9.52	-52.3	-54.4	18.1	0.00e+00	0	47	0	1395654656	60	20058
2026-01-28 20:26:43.64	108.97	9.48	-52.3	-54.4	18.1	0.00e+00	0	47	0	1398800384	60	20075
2026-01-28 20:26:44.65	109.12	9.43	-52.4	-54.5	18.2	0.00e+00	0	47	0	1401946112	60	20244
2026-01-28 20:26:45.65	109.27	9.39	-52.3	-54.5	18.4	0.00e+00	0	47	0	1405091840	60	20229
2026-01-28 20:26:46.66	109.41	9.34	-52.4	-54.6	18.5	0.00e+00	0	47	0	1407188992	60	20411
2026-01-28 20:26:47.66	109.56	9.29	-52.3	-54.6	18.3	0.00e+00	0	47	0	1410334720	60	20465
2026-01-28 20:26:48.67	109.71	9.25	-51.9	-54.6	17.5	0.00e+00	0	47	0	1414529024	60	20459
2026-01-28 20:26:49.68	109.86	9.20	-51.4	-54.5	16.6	0.00e+00	0	46	0	1417674752	60	20131
2026-01-28 20:26:50.68	110.01	9.16	-51.1	-54.5	16.0	0.00e+00	0	47	0	1420820480	60	20209
2026-01-28 20:26:51.69	110.15	9.11	-50.9	-54.5	16.1	0.00e+00	0	47	0	1423966208	60	20139
2026-01-28 20:26:52.70	110.30	9.06	-50.7	-54.6	15.9	0.00e+00	0	46	0	1427111936	60	20465
2026-01-28 20:26:53.70	110.44	9.02	-50.6	-54.5	16.2	0.00e+00	0	46	0	1430257664	60	20259
2026-01-28 20:26:54.71	110.59	8.97	-50.7	-54.7	16.3	0.00e+00	0	46	0	1433403392	60	20676
2026-01-28 20:26:55.72	110.73	8.92	-50.9	-54.5	16.7	0.00e+00	0	47	0	1436549120	60	20311
2026-01-28 20:26:56.72	110.88	8.88	-50.9	-54.4	16.8	0.00e+00	0	47	0	1439694848	60	20068
2026-01-28 20:26:57.73	111.02	8.83	-51.0	-54.4	16.8	0.00e+00	0	47	0	1442840576	60	20001
2026-01-28 20:26:58.74	111.17	8.78	-51.2	-54.5	16.7	0.00e+00	0	47	0	1445986304	60	20132
2026-01-28 20:26:59.75	111.31	8.73	-51.2	-54.4	16.8	0.00e+00	0	46	0	1449132032	60	19890
2026-01-28 20:27:00.76	111.45	8.69	-51.3	-54.5	16.9	0.00e+00	0	47	0	1452277760	60	20092
2026-01-28 20:27:01.76	111.59	8.64	-51.1	-54.4	16.9	0.00e+00	0	47	0	1454374912	60	20059
2026-01-28 20:27:02.77	111.74	8.59	-51.1	-54.5	17.2	0.00e+00	0	47	0	1457520640	60	20287
2026-01-28 20:27:03.77	111.88	8.55	-51.2	-54.5	17.4	0.00e+00	0	47	0	1461714944	60	20182
2026-01-28 20:27:04.78	112.02	8.50	-51.4	-54.5	17.7	0.00e+00	0	47	0	1464860672	60	20191
2026-01-28 20:27:05.78	112.16	8.45	-51.6	-54.4	18.0	0.00e+00	0	47	0	1468006400	60	20003
2026-01-28 20:27:06.79	112.30	8.40	-51.8	-54.4	18.1	0.00e+00	0	47	0	1471152128	60	20074
2026-01-28 20:27:07.79	112.44	8.36	-51.9	-54.5	18.1	0.00e+00	0	47	0	1474297856	60	20165
2026-01-28 20:27:08.80	112.58	8.31	-52.0	-54.4	18.3	0.00e+00	0	47	0	1477443584	60	20011
2026-01-28 20:27:09.81	112.72	8.26	-52.1	-54.5	18.3	0.00e+00	0	47	0	1480589312	60	20182
2026-01-28 20:27:10.82	112.85	8.21	-52.0	-54.4	18.3	0.00e+00	0	47	0	1483735040	60	19901
2026-01-28 20:27:11.82	112.99	8.17	-52.0	-54.5	18.2	0.00e+00	0	47	0	1486880768	60	20119
2026-01-28 20:27:12.83	113.13	8.12	-52.1	-54.6	18.1	0.00e+00	0	47	0	1490026496	60	20327
2026-01-28 20:27:13.84	113.27	8.07	-52.2	-54.5	18.2	0.00e+00	0	47	0	1493172224	60	20244
2026-01-28 20:27:14.85	113.40	8.02	-52.1	-54.5	18.4	0.00e+00	0	47	0	1496317952	60	20117
2026-01-28 20:27:15.85	113.54	7.97	-52.2	-54.4	18.4	0.00e+00	0	47	0	1499463680	60	20025
2026-01-28 20:27:16.86	113.67	7.93	-52.3	-54.4	18.5	0.00e+00	0	47	0	1501560832	60	19858
2026-01-28 20:27:17.86	113.81	7.88	-52.4	-54.5	18.5	0.00e+00	0	47	0	1504706560	60	20118
2026-01-28 20:27:18.87	113.94	7.83	-52.6	-54.5	18.4	0.00e+00	0	47	0	1507852288	60	20165
2026-01-28 20:27:19.87	114.08	7.78	-52.7	-54.5	18.2	0.00e+00	0	47	0	1510998016	60	20262
2026-01-28 20:27:20.88	114.21	7.73	-52.7	-54.6	18.3	0.00e+00	0	47	0	1515192320	60	20403
2026-01-28 20:27:21.88	114.34	7.69	-52.6	-54.6	18.2	0.00e+00	0	47	0	1518338048	60	20385
2026-01-28 20:27:22.89	114.48	7.64	-52.5	-54.5	18.3	0.00e+00	0	47	0	1521483776	60	20122
2026-01-28 20:27:23.90	114.61	7.59	-52.5	-54.5	18.1	0.00e+00	0	47	0	1524629504	60	20252
2026-01-28 20:27:24.90	114.74	7.54	-52.5	-54.6	17.9	0.00e+00	0	47	0	1527775232	60	20322
2026-01-28 20:27:25.91	114.87	7.49	-52.2	-54.4	17.4	0.00e+00	0	47	0	1530920960	60	20012
2026-01-28 20:27:26.91	115.01	7.44	-52.1	-54.4	17.2	0.00e+00	0	47	0	1534066688	60	19930
2026-01-28 20:27:27.92	115.14	7.40	-52.3	-54.6	17.2	0.00e+00	0	47	0	1537212416	60	20314
2026-01-28 20:27:28.93	115.27	7.35	-52.1	-54.4	17.0	0.00e+00	0	47	0	1540358144	60	20051
2026-01-28 20:27:29.94	115.40	7.30	-52.2	-54.5	17.1	0.00e+00	0	47	0	1543503872	60	20283
2026-01-28 20:27:30.94	115.53	7.25	-52.2	-54.6	17.3	0.00e+00	0	47	0	1546649600	60	20342
2026-01-28 20:27:31.95	115.66	7.20	-52.3	-54.7	17.3	0.00e+00	0	47	0	1548746752	60	20764
2026-01-28 20:27:32.96	115.79	7.15	-52.2	-54.8	17.3	0.00e+00	0	47	0	1551892480	60	20814
2026-01-28 20:27:33.97	115.92	7.10	-52.3	-54.8	17.4	0.00e+00	0	47	0	1555038208	60	20815
2026-01-28 20:27:34.97	116.04	7.06	-52.4	-54.9	17.1	0.00e+00	0	46	0	1558183936	60	21143
2026-01-28 20:27:35.97	116.17	7.01	-52.3	-55.0	16.4	0.00e+00	0	47	0	1562378240	60	21414
2026-01-28 20:27:36.97	116.30	6.96	-52.3	-54.9	16.1	0.00e+00	0	47	0	1565523968	60	21180
2026-01-28 20:27:37.98	116.42	6.91	-52.5	-54.9	16.2	0.00e+00	0	47	0	1568669696	60	21199
2026-01-28 20:27:38.98	116.55	6.86	-52.4	-55.0	16.0	0.00e+00	0	47	0	1571815424	60	21293
2026-01-28 20:27:39.99	116.68	6.81	-52.4	-55.0	15.9	0.00e+00	0	47	0	1574961152	60	21297
2026-01-28 20:27:40.99	116.80	6.77	-52.5	-55.0	16.1	0.00e+00	0	47	0	1578106880	60	21420
2026-01-28 20:27:41.99	116.92	6.72	-52.4	-55.0	16.1	0.00e+00	0	47	0	1581252608	60	21411
2026-01-28 20:27:43.00	117.05	6.67	-52.5	-55.1	16.5	0.00e+00	0	47	0	1584398336	60	21692
2026-01-28 20:27:44.01	117.17	6.62	-52.6	-55.2	16.9	0.00e+00	0	47	0	1587544064	60	21791
2026-01-28 20:27:45.02	117.30	6.57	-52.7	-55.3	16.9	0.00e+00	0	47	0	1590689792	60	22163
2026-01-28 20:27:46.02	117.42	6.52	-52.7	-55.3	17.1	0.00e+00	0	47	0	1593835520	60	22104
2026-01-28 20:27:47.03	117.55	6.47	-52.9	-55.3	17.3	0.00e+00	0	47	0	1595932672	60	22082
2026-01-28 20:27:48.04	117.67	6.42	-52.9	-55.4	17.2	0.00e+00	0	47	0	1599078400	60	22344
2026-01-28 20:27:49.04	117.79	6.37	-52.9	-55.4	17.1	0.00e+00	0	47	0	1602224128	60	22519
2026-01-28 20:27:50.04	117.91	6.33	-52.9	-55.5	16.9	0.00e+00	0	47	0	1605369856	60	22624
2026-01-28 20:27:51.05	118.03	6.28	-52.9	-55.5	16.6	0.00e+00	0	47	0	1608515584	60	22648
2026-01-28 20:27:52.05	118.15	6.23	-53.0	-55.5	16.5	0.00e+00	0	47	0	1611661312	60	22615
2026-01-28 20:27:53.05	118.27	6.18	-52.9	-55.4	16.6	0.00e+00	0	47	0	1614807040	60	22427
2026-01-28 20:27:54.05	118.39	6.13	-52.7	-55.3	16.4	0.00e+00	0	46	0	1617952768	60	22208
2026-01-28 20:27:55.06	118.51	6.08	-52.7	-55.5	16.2	0.00e+00	0	47	0	1621098496	60	22687
2026-01-28 20:27:56.07	118.64	6.03	-52.5	-55.4	16.5	0.00e+00	0	47	0	1624244224	60	22395
2026-01-28 20:27:57.08	118.75	5.98	-59.5	-73.5	3.5	1.34e+00	0	47	104	1627389952	60	180093
2026-01-28 20:27:58.08	118.87	5.93	-60.0	-74.3	3.5	1.51e+00	0	47	104	1627389952	60	198389
2026-01-28 20:27:59.09	118.99	5.89	-60.2	-74.6	3.5	1.52e+00	0	47	104	1627389952	60	205012
2026-01-28 20:28:00.09	119.11	5.84	-60.9	-75.0	3.5	1.52e+00	0	47	104	1627389952	60	212857
2026-01-28 20:28:01.10	119.23	5.79	-61.2	-75.3	3.5	1.52e+00	0	47	104	1627389952	60	222718
2026-01-28 20:28:02.11	119.35	5.74	-61.3	-75.4	3.5	1.52e+00	0	47	104	1627389952	60	223295
2026-01-28 20:28:03.12	119.46	5.69	-61.6	-75.6	3.5	1.52e+00	0	47	104	1627389952	60	229028
2026-01-28 20:28:04.12	119.58	5.64	-62.0	-76.0	3.5	1.52e+00	0	47	104	1627389952	60	239739
2026-01-28 20:28:05.13	119.70	5.59	-62.3	-76.3	3.5	1.52e+00	0	47	104	1627389952	60	249643
2026-01-28 20:28:06.14	119.81	5.54	-62.5	-76.4	3.5	1.52e+00	0	47	104	1627389952	60	252011
2026-01-28 20:28:07.14	119.93	5.49	-62.7	-76.7	3.5	1.51e+00	0	47	104	1627389952	60	259213
2026-01-28 20:28:08.15	120.04	5.44	-62.7	-76.8	3.5	1.52e+00	0	47	104	1627389952	60	263156
2026-01-28 20:28:09.15	120.16	5.39	-63.0	-77.1	3.5	1.51e+00	0	47	104	1627389952	60	273574
2026-01-28 20:28:10.16	120.27	5.35	-62.5	-77.0	3.5	1.52e+00	0	47	104	1627389952	60	268001
2026-01-28 20:28:11.16	120.38	5.30	-60.9	-76.6	3.5	1.51e+00	0	47	104	1627389952	60	258000
2026-01-28 20:28:12.16	120.50	5.25	-59.0	-75.7	3.6	1.51e+00	0	47	104	1627389952	60	231302
2026-01-28 20:28:13.16	120.61	5.20	-59.2	-75.4	3.6	1.51e+00	0	47	104	1627389952	60	223360
2026-01-28 20:28:14.17	120.72	5.15	-60.8	-76.1	3.5	1.52e+00	0	47	104	1627389952	60	243607
2026-01-28 20:28:15.18	120.84	5.10	-60.4	-75.9	3.5	1.52e+00	0	47	104	1627389952	60	237703
2026-01-28 20:28:16.18	120.95	5.05	-60.4	-75.6	3.5	1.52e+00	0	47	104	1627389952	60	229162
2026-01-28 20:28:17.18	121.06	5.00	-60.4	-75.7	3.5	1.51e+00	0	47	104	1627389952	60	233108
2026-01-28 20:28:18.19	121.17	4.95	-60.4	-75.7	3.5	1.52e+00	0	47	104	1627389952	60	231316
2026-01-28 20:28:19.20	121.28	4.90	-60.3	-75.6	3.6	1.51e+00	0	47	104	1627389952	60	228774
2026-01-28 20:28:20.21	121.39	4.86	-60.3	-75.7	3.6	1.51e+00	0	47	104	1627389952	60	231357
2026-01-28 20:28:21.21	121.50	4.81	-60.3	-75.7	3.5	1.51e+00	0	47	104	1627389952	60	232650
2026-01-28 20:28:22.22	121.61	4.76	-60.3	-75.6	3.5	1.51e+00	0	47	104	1627389952	60	229531
2026-01-28 20:28:23.22	121.72	4.71	-60.3	-75.8	3.5	1.52e+00	0	47	104	1627389952	60	234336
2026-01-28 20:28:24.23	121.83	4.66	-60.3	-75.8	3.5	1.52e+00	0	47	104	1627389952	60	233354
2026-01-28 20:28:25.23	121.94	4.61	-60.3	-75.6	3.5	1.52e+00	0	47	104	1627389952	60	229425
2026-01-28 20:28:26.24	122.05	4.56	-60.3	-75.6	3.5	1.52e+00	0	47	104	1627389952	60	228120
2026-01-28 20:28:27.25	122.16	4.51	-60.3	-75.7	3.6	1.51e+00	0	46	104	1627389952	60	231654
2026-01-28 20:28:28.25	122.27	4.46	-60.4	-75.6	3.5	1.52e+00	0	47	104	1627389952	60	230545
2026-01-28 20:28:29.26	122.38	4.41	-60.4	-75.6	3.5	1.52e+00	0	47	104	1627389952	60	230329
2026-01-28 20:28:30.26	122.48	4.37	-60.4	-75.6	3.6	1.52e+00	0	47	104	1627389952	60	228792
2026-01-28 20:28:31.27	122.59	4.32	-60.4	-75.8	3.5	1.51e+00	0	47	104	1627389952	60	235232
2026-01-28 20:28:32.28	122.70	4.27	-60.5	-75.8	3.5	1.52e+00	0	47	104	1627389952	60	233997
2026-01-28 20:28:33.28	122.80	4.22	-60.4	-75.7	3.5	1.52e+00	0	47	104	1627389952	60	231523
2026-01-28 20:28:34.29	122.91	4.17	-60.5	-75.6	3.5	1.52e+00	0	47	104	1627389952	60	229886
2026-01-28 20:28:35.30	123.01	4.12	-60.5	-75.8	3.6	1.52e+00	0	47	104	1627389952	60	234926
2026-01-28 20:28:36.30	123.12	4.07	-60.5	-75.7	3.6	1.52e+00	0	47	104	1627389952	60	232026
2026-01-28 20:28:37.31	123.22	4.02	-60.4	-75.5	3.6	1.51e+00	0	47	104	1627389952	60	227477
2026-01-28 20:28:38.32	123.33	3.97	-60.4	-75.6	3.5	1.52e+00	0	47	104	1627389952	60	228769
2026-01-28 20:28:39.33	123.43	3.92	-60.4	-75.8	3.5	1.52e+00	0	47	104	1627389952	60	234693
2026-01-28 20:28:40.33	123.54	3.88	-60.4	-75.7	3.5	1.51e+00	0	47	104	1627389952	60	230909
2026-01-28 20:28:41.34	123.64	3.83	-60.4	-75.7	3.6	1.51e+00	0	47	104	1627389952	60	233121
