passes_logs/2026/01/22/R2M6_AANII_01/R2M6_AANII_01__20260122_164114_FENGYUN_3E_rec.log

#Pass ID: 20260122_164114_FENGYUN 3E
#Satellite: FENGYUN 3E
#Configuration: FENGYUN 3E
#almurnet v.1.7.20240730
#Start time: 2026-01-22 16:41:15

#Version: 2.2.20231116
#Station: R2M6_AANII_01
#Location: 30.233357 lon 59.946436 lat
#TLE: 1 49008U 21062A   26021.55921410  .00000414  00000+0  21575-3 0  9991
#TLE: 2 49008  98.7483  26.6103 0002287 125.5068 234.6322 14.19887394235776

#Time	Az	El	Level	Level2	SNR	BER	BlckErr	Temp	State	Recorded	gain1	gain2
2026-01-22 16:41:15.33	231.14	7.05	-28.0	-29.3	5.6	7.29e-01	0	42	0	0	16	4192
2026-01-22 16:41:16.33	231.26	7.11	-28.8	-30.8	5.5	7.42e-01	0	42	104	0	17	4542
2026-01-22 16:41:17.33	231.38	7.16	-28.6	-30.2	10.8	1.85e-03	0	42	0	0	17	4363
2026-01-22 16:41:18.33	231.51	7.21	-28.5	-30.2	10.9	2.45e-03	0	42	0	7340032	17	4347
2026-01-22 16:41:19.34	231.63	7.26	-28.2	-29.4	11.5	1.45e-03	0	42	0	14680064	17	4105
2026-01-22 16:41:20.34	231.75	7.32	-28.3	-29.5	11.4	9.28e-04	0	42	0	22020096	17	4144
2026-01-22 16:41:21.33	231.87	7.37	-27.4	-29.0	11.0	6.55e-04	0	42	0	28311552	16	4335
2026-01-22 16:41:22.33	232.00	7.42	-28.3	-30.0	11.4	1.20e-03	0	42	0	35651584	16	4376
2026-01-22 16:41:23.33	232.12	7.47	-27.8	-29.3	11.8	3.49e-04	0	42	0	42991616	15	4298
2026-01-22 16:41:24.34	232.24	7.53	-27.3	-28.8	12.6	1.76e-04	0	42	0	50331648	14	4265
2026-01-22 16:41:25.33	232.37	7.58	-27.3	-28.8	12.6	8.58e-05	0	42	0	57671680	14	4246
2026-01-22 16:41:26.34	232.49	7.63	-27.0	-28.4	13.1	3.31e-05	0	42	0	65011712	13	4251
2026-01-22 16:41:27.34	232.62	7.68	-26.9	-28.3	13.2	1.17e-03	0	42	0	72351744	13	4211
2026-01-22 16:41:28.35	232.74	7.74	-26.8	-28.1	13.4	2.05e-05	0	42	0	79691776	13	4159
2026-01-22 16:41:29.36	232.87	7.79	-26.8	-28.1	13.3	2.17e-05	0	42	0	85983232	13	4183
2026-01-22 16:41:30.36	233.00	7.84	-27.0	-28.0	13.1	3.20e-05	0	42	0	93323264	14	4026
2026-01-22 16:41:31.37	233.13	7.90	-26.7	-27.8	13.5	1.48e-05	0	42	0	100663296	13	4096
2026-01-22 16:41:32.37	233.25	7.95	-26.7	-27.7	13.6	1.24e-03	0	42	0	108003328	13	4064
2026-01-22 16:41:33.38	233.38	8.00	-26.6	-27.6	13.7	5.70e-06	0	42	0	115343360	13	4036
2026-01-22 16:41:34.38	233.51	8.05	-26.8	-27.9	13.5	1.50e-04	0	42	0	122683392	13	4125
2026-01-22 16:41:35.39	233.64	8.11	-27.0	-28.4	13.2	1.27e-03	0	42	0	130023424	13	4255
2026-01-22 16:41:36.39	233.77	8.16	-27.0	-28.5	13.1	2.40e-05	0	42	0	137363456	13	4288
2026-01-22 16:41:37.39	233.90	8.21	-27.1	-28.1	13.1	2.13e-04	0	42	0	144703488	14	4067
2026-01-22 16:41:38.39	234.03	8.26	-27.1	-28.3	13.0	2.63e-05	0	42	0	152043520	14	4116
2026-01-22 16:41:39.40	234.16	8.32	-27.2	-28.6	12.8	1.36e-03	0	42	0	159383552	14	4198
2026-01-22 16:41:40.40	234.29	8.37	-27.1	-28.2	13.0	2.14e-04	0	42	0	166723584	14	4083
2026-01-22 16:41:41.39	234.42	8.42	-27.1	-28.1	13.1	1.47e-03	0	42	0	173015040	14	4057
2026-01-22 16:41:42.40	234.55	8.47	-27.0	-28.5	13.1	1.34e-03	0	43	0	180355072	13	4286
2026-01-22 16:41:43.41	234.69	8.53	-27.0	-28.0	13.2	2.05e-04	0	43	0	187695104	14	4025
2026-01-22 16:41:44.41	234.82	8.58	-26.8	-28.1	13.4	1.24e-03	0	43	0	195035136	13	4166
2026-01-22 16:41:45.42	234.95	8.63	-26.8	-28.1	13.4	1.01e-03	0	43	0	202375168	13	4157
2026-01-22 16:41:46.43	235.09	8.68	-26.6	-27.7	13.6	1.14e-04	0	43	0	209715200	13	4041
2026-01-22 16:41:47.43	235.22	8.74	-26.5	-27.3	13.8	2.75e-04	0	43	0	217055232	13	3959
2026-01-22 16:41:48.43	235.36	8.79	-26.4	-27.2	13.9	4.50e-06	0	43	0	224395264	13	3929
2026-01-22 16:41:49.43	235.49	8.84	-26.4	-27.1	14.0	0.00e+00	0	43	0	231735296	13	3892
2026-01-22 16:41:50.44	235.63	8.89	-26.3	-27.5	14.1	3.78e-04	0	43	0	239075328	12	4107
2026-01-22 16:41:51.44	235.76	8.94	-26.3	-27.5	14.1	0.00e+00	0	43	0	246415360	12	4099
2026-01-22 16:41:52.45	235.90	9.00	-26.4	-27.6	14.0	4.50e-06	0	43	0	252706816	12	4143
2026-01-22 16:41:53.45	236.04	9.05	-26.3	-27.4	14.1	2.20e-06	0	43	0	260046848	12	4075
2026-01-22 16:41:54.46	236.18	9.10	-26.3	-27.5	14.1	1.10e-03	0	43	0	267386880	12	4106
2026-01-22 16:41:55.46	236.32	9.15	-26.4	-27.6	14.0	1.10e-06	0	43	0	274726912	12	4142
2026-01-22 16:41:56.46	236.45	9.20	-26.3	-27.4	14.2	1.10e-06	0	43	0	282066944	12	4070
2026-01-22 16:41:57.46	236.59	9.26	-26.4	-27.5	14.1	1.67e-03	0	43	0	289406976	12	4124
2026-01-22 16:41:58.46	236.73	9.31	-26.4	-27.5	14.1	2.20e-06	0	43	0	296747008	12	4111
2026-01-22 16:41:59.46	236.87	9.36	-26.3	-27.5	14.1	0.00e+00	0	43	0	304087040	12	4098
2026-01-22 16:42:00.46	237.01	9.41	-26.2	-27.1	14.3	1.95e-03	0	43	0	311427072	12	4001
2026-01-22 16:42:01.46	237.15	9.46	-26.1	-27.0	14.4	2.20e-06	0	43	0	317718528	12	3974
2026-01-22 16:42:02.47	237.30	9.52	-26.1	-27.0	14.4	2.09e-03	0	43	0	325058560	12	3967
2026-01-22 16:42:03.48	237.44	9.57	-26.1	-26.9	14.4	0.00e+00	0	43	0	332398592	12	3958
2026-01-22 16:42:04.48	237.58	9.62	-26.1	-27.0	14.4	1.10e-06	0	43	0	339738624	12	3984
2026-01-22 16:42:05.49	237.72	9.67	-26.1	-26.9	14.5	1.10e-06	0	43	0	347078656	12	3943
2026-01-22 16:42:06.49	237.87	9.72	-26.1	-27.0	14.4	0.00e+00	0	43	0	354418688	12	3974
2026-01-22 16:42:07.50	238.01	9.77	-26.1	-27.0	14.4	0.00e+00	0	43	0	361758720	12	3971
2026-01-22 16:42:08.49	238.16	9.83	-26.2	-27.1	14.3	0.00e+00	0	43	0	369098752	12	4012
2026-01-22 16:42:09.50	238.30	9.88	-26.2	-27.1	14.3	1.10e-06	0	43	0	376438784	12	4011
2026-01-22 16:42:10.50	238.45	9.93	-26.1	-27.0	14.4	0.00e+00	0	43	0	383778816	12	3981
2026-01-22 16:42:11.50	238.59	9.98	-26.2	-27.0	14.4	0.00e+00	0	43	0	391118848	12	3990
2026-01-22 16:42:12.50	238.74	10.03	-26.1	-26.9	14.5	0.00e+00	0	43	0	398458880	12	3947
2026-01-22 16:42:13.49	238.88	10.08	-26.1	-26.8	14.5	0.00e+00	0	43	0	404750336	12	3931
2026-01-22 16:42:14.50	239.03	10.13	-26.1	-26.9	14.4	0.00e+00	0	43	0	412090368	12	3955
2026-01-22 16:42:15.50	239.18	10.18	-26.2	-27.1	14.4	2.20e-06	0	43	0	419430400	12	3995
2026-01-22 16:42:16.50	239.33	10.23	-26.4	-27.6	14.1	0.00e+00	0	43	0	426770432	12	4120
2026-01-22 16:42:17.50	239.48	10.29	-26.4	-27.6	14.1	2.20e-06	0	43	0	434110464	12	4141
2026-01-22 16:42:18.51	239.63	10.34	-26.4	-27.6	14.1	2.20e-06	0	43	0	441450496	12	4144
2026-01-22 16:42:19.52	239.78	10.39	-26.6	-27.9	13.9	2.20e-06	0	43	0	448790528	12	4224
2026-01-22 16:42:20.52	239.93	10.44	-26.5	-27.8	14.0	1.10e-06	0	43	0	456130560	12	4181
2026-01-22 16:42:21.53	240.08	10.49	-26.4	-27.2	14.0	5.70e-06	0	43	0	463470592	13	3916
2026-01-22 16:42:22.53	240.23	10.54	-26.4	-27.1	14.1	0.00e+00	0	43	0	470810624	13	3899
2026-01-22 16:42:23.52	240.38	10.59	-26.3	-27.4	14.2	0.00e+00	0	43	0	477102080	12	4075
2026-01-22 16:42:24.53	240.53	10.64	-26.1	-27.0	14.4	1.10e-06	0	43	0	484442112	12	3984
2026-01-22 16:42:25.52	240.68	10.69	-26.2	-27.0	14.4	2.20e-06	0	43	0	491782144	12	3987
2026-01-22 16:42:26.53	240.84	10.74	-26.1	-26.9	14.5	0.00e+00	0	43	0	499122176	12	3940
2026-01-22 16:42:27.52	240.99	10.79	-26.1	-26.9	14.5	1.10e-06	0	43	0	506462208	12	3952
2026-01-22 16:42:28.52	241.15	10.84	-26.0	-26.6	14.7	1.10e-06	0	43	0	513802240	12	3872
2026-01-22 16:42:29.52	241.30	10.89	-26.0	-27.1	14.8	0.00e+00	0	43	0	521142272	11	4086
2026-01-22 16:42:30.52	241.46	10.94	-25.9	-27.1	14.8	0.00e+00	0	43	0	527433728	11	4092
2026-01-22 16:42:31.52	241.61	10.99	-25.9	-27.0	14.8	0.00e+00	0	43	0	534773760	11	4078
2026-01-22 16:42:32.53	241.77	11.04	-25.9	-27.0	14.8	1.10e-06	0	43	0	542113792	11	4086
2026-01-22 16:42:33.53	241.93	11.09	-25.9	-26.9	14.9	0.00e+00	0	43	0	549453824	11	4044
2026-01-22 16:42:34.54	242.08	11.14	-25.9	-26.9	14.9	0.00e+00	0	43	0	556793856	11	4050
2026-01-22 16:42:35.54	242.24	11.19	-25.9	-26.9	14.9	0.00e+00	0	43	0	564133888	11	4057
2026-01-22 16:42:36.54	242.40	11.24	-25.9	-26.9	14.9	0.00e+00	0	43	0	571473920	11	4057
2026-01-22 16:42:37.54	242.56	11.29	-25.9	-26.9	14.9	0.00e+00	0	43	0	578813952	11	4056
2026-01-22 16:42:38.55	242.72	11.34	-26.0	-27.1	14.8	0.00e+00	0	43	0	586153984	11	4098
2026-01-22 16:42:39.55	242.88	11.39	-25.9	-26.9	14.9	0.00e+00	0	43	0	593494016	11	4055
2026-01-22 16:42:40.55	243.04	11.44	-26.0	-27.1	14.8	0.00e+00	0	43	0	600834048	11	4100
2026-01-22 16:42:41.56	243.20	11.49	-26.0	-27.1	14.8	0.00e+00	0	43	0	608174080	11	4093
2026-01-22 16:42:42.56	243.36	11.53	-25.9	-26.9	14.9	0.00e+00	0	44	0	614465536	11	4055
2026-01-22 16:42:43.56	243.52	11.58	-25.8	-26.7	15.0	0.00e+00	0	44	0	621805568	11	4004
2026-01-22 16:42:44.56	243.69	11.63	-25.8	-26.7	15.0	2.20e-06	0	44	0	629145600	11	4008
2026-01-22 16:42:45.57	243.85	11.68	-25.8	-26.7	15.0	0.00e+00	0	44	0	636485632	11	4008
2026-01-22 16:42:46.58	244.02	11.73	-26.0	-27.1	14.9	0.00e+00	0	44	0	643825664	11	4095
2026-01-22 16:42:47.58	244.18	11.78	-25.9	-26.4	14.9	0.00e+00	0	44	0	651165696	12	3836
2026-01-22 16:42:48.59	244.35	11.83	-25.7	-26.1	15.0	0.00e+00	0	43	0	658505728	12	3750
2026-01-22 16:42:49.59	244.51	11.87	-25.8	-26.8	15.0	0.00e+00	0	44	0	665845760	11	4023
2026-01-22 16:42:50.60	244.68	11.92	-25.8	-26.8	15.0	0.00e+00	0	43	0	673185792	11	4026
2026-01-22 16:42:51.60	244.84	11.97	-25.8	-26.7	15.0	0.00e+00	0	44	0	680525824	11	4013
2026-01-22 16:42:52.60	245.01	12.02	-25.9	-26.8	15.0	0.00e+00	0	43	0	687865856	11	4035
2026-01-22 16:42:53.61	245.18	12.06	-25.8	-26.6	15.1	0.00e+00	0	43	0	694157312	11	3983
2026-01-22 16:42:54.61	245.35	12.11	-25.9	-27.0	14.9	0.00e+00	0	44	0	701497344	11	4081
2026-01-22 16:42:55.62	245.52	12.16	-25.8	-26.8	15.0	0.00e+00	0	44	0	708837376	11	4024
2026-01-22 16:42:56.62	245.69	12.21	-25.7	-26.5	15.2	0.00e+00	0	44	0	716177408	11	3941
2026-01-22 16:42:57.62	245.86	12.25	-25.6	-26.3	15.3	0.00e+00	0	44	0	723517440	11	3907
2026-01-22 16:42:58.62	246.02	12.30	-25.7	-26.4	15.2	0.00e+00	0	43	0	730857472	11	3925
2026-01-22 16:42:59.62	246.20	12.35	-25.7	-26.4	15.2	0.00e+00	0	44	0	738197504	11	3930
2026-01-22 16:43:00.63	246.37	12.39	-24.8	-25.6	15.2	0.00e+00	0	44	0	745537536	11	3949
2026-01-22 16:43:01.63	246.54	12.44	-25.6	-26.7	11.4	0.00e+00	0	44	0	752877568	10	4104
2026-01-22 16:43:02.63	246.71	12.49	-25.6	-26.3	14.9	0.00e+00	0	44	0	760217600	11	3896
2026-01-22 16:43:03.63	246.88	12.53	-25.7	-26.5	15.2	0.00e+00	0	44	0	767557632	11	3945
2026-01-22 16:43:04.64	247.06	12.58	-25.6	-26.4	15.3	0.00e+00	0	44	0	774897664	11	3917
2026-01-22 16:43:05.64	247.23	12.63	-25.6	-26.2	15.4	0.00e+00	0	44	0	781189120	11	3878
2026-01-22 16:43:06.64	247.40	12.67	-25.6	-26.3	15.3	0.00e+00	0	44	0	788529152	11	3905
2026-01-22 16:43:07.65	247.58	12.72	-25.6	-26.3	15.3	1.82e-03	0	44	0	795869184	11	3898
2026-01-22 16:43:08.65	247.76	12.76	-25.5	-26.6	15.4	0.00e+00	0	44	0	803209216	10	4084
2026-01-22 16:43:09.66	247.93	12.81	-25.5	-26.5	15.5	0.00e+00	0	44	0	810549248	10	4057
2026-01-22 16:43:10.66	248.11	12.85	-25.6	-26.7	15.4	2.68e-03	0	44	0	817889280	10	4105
2026-01-22 16:43:11.65	248.28	12.90	-25.8	-26.7	15.1	0.00e+00	0	44	0	825229312	11	3999
2026-01-22 16:43:12.67	248.46	12.94	-25.7	-26.5	15.2	9.15e-04	0	44	0	832569344	11	3938
2026-01-22 16:43:13.67	248.64	12.99	-25.7	-26.4	15.2	0.00e+00	0	44	0	838860800	11	3930
2026-01-22 16:43:14.67	248.82	13.03	-25.7	-26.5	15.2	0.00e+00	0	44	0	846200832	11	3955
2026-01-22 16:43:15.67	249.00	13.08	-25.6	-26.2	15.4	1.01e-03	0	44	0	853540864	11	3876
2026-01-22 16:43:16.67	249.18	13.12	-25.5	-26.6	15.4	0.00e+00	0	44	0	860880896	10	4072
2026-01-22 16:43:17.68	249.36	13.16	-25.4	-26.4	15.5	3.23e-03	0	44	0	868220928	10	4025
2026-01-22 16:43:18.67	249.54	13.21	-25.4	-26.3	15.6	4.13e-04	0	44	0	875560960	10	4005
2026-01-22 16:43:19.68	249.72	13.25	-25.4	-26.2	15.7	2.48e-03	0	44	0	882900992	10	3983
2026-01-22 16:43:20.68	249.90	13.29	-25.2	-25.9	15.9	1.87e-03	0	44	0	890241024	10	3908
2026-01-22 16:43:21.68	250.08	13.34	-25.3	-26.1	15.7	0.00e+00	0	44	0	897581056	10	3945
2026-01-22 16:43:22.68	250.26	13.38	-25.3	-26.1	15.7	1.12e-03	0	44	0	904921088	10	3954
2026-01-22 16:43:23.69	250.45	13.42	-25.4	-26.2	15.7	1.02e-03	0	44	0	912261120	10	3982
2026-01-22 16:43:24.70	250.63	13.47	-25.3	-26.1	15.7	8.58e-05	0	44	0	919601152	10	3965
2026-01-22 16:43:25.70	250.82	13.51	-25.2	-26.0	15.8	1.40e-03	0	44	0	925892608	10	3918
2026-01-22 16:43:26.70	251.00	13.55	-25.3	-26.2	15.7	1.85e-03	0	44	0	933232640	10	3972
2026-01-22 16:43:27.70	251.19	13.59	-25.2	-25.8	15.9	3.12e-04	0	44	0	940572672	10	3886
2026-01-22 16:43:28.71	251.37	13.63	-25.1	-25.6	16.0	2.16e-03	0	44	0	947912704	10	3840
2026-01-22 16:43:29.71	251.56	13.68	-25.2	-25.9	15.8	2.38e-03	0	44	0	955252736	10	3908
2026-01-22 16:43:30.71	251.74	13.72	-25.1	-25.8	15.9	7.57e-04	0	44	0	962592768	10	3865
2026-01-22 16:43:31.72	251.93	13.76	-25.1	-25.6	16.0	2.39e-03	0	44	0	969932800	10	3831
2026-01-22 16:43:32.72	252.12	13.80	-25.1	-25.7	16.0	2.17e-03	0	44	0	977272832	10	3847
2026-01-22 16:43:33.72	252.31	13.84	-25.1	-26.1	16.0	7.94e-04	0	44	0	984612864	9	4064
2026-01-22 16:43:34.73	252.50	13.88	-25.2	-25.9	15.9	0.00e+00	0	44	0	991952896	10	3897
2026-01-22 16:43:35.72	252.69	13.92	-25.3	-26.1	15.8	2.50e-03	0	44	0	998244352	10	3944
2026-01-22 16:43:36.73	252.88	13.96	-25.2	-26.0	15.8	0.00e+00	0	44	0	1006632960	10	3915
2026-01-22 16:43:37.73	253.07	14.00	-25.2	-25.9	15.9	2.44e-03	0	44	0	1012924416	10	3910
2026-01-22 16:43:38.73	253.26	14.04	-25.0	-25.5	16.1	0.00e+00	0	44	0	1020264448	10	3811
2026-01-22 16:43:39.73	253.45	14.08	-25.0	-25.9	16.2	0.00e+00	0	44	0	1027604480	9	3997
2026-01-22 16:43:40.74	253.64	14.12	-24.9	-25.8	16.2	2.28e-03	0	44	0	1034944512	9	3984
2026-01-22 16:43:41.74	253.83	14.16	-25.0	-25.9	16.1	0.00e+00	0	44	0	1042284544	9	4013
2026-01-22 16:43:42.75	254.03	14.20	-25.0	-26.0	16.1	0.00e+00	0	44	0	1049624576	9	4023
2026-01-22 16:43:43.75	254.22	14.24	-25.1	-25.7	16.0	0.00e+00	0	44	0	1056964608	10	3842
2026-01-22 16:43:44.76	254.41	14.27	-25.3	-26.2	15.7	0.00e+00	0	44	0	1064304640	10	3972
2026-01-22 16:43:45.75	254.61	14.31	-25.3	-26.0	15.8	8.19e-04	0	44	0	1070596096	10	3943
2026-01-22 16:43:46.76	254.80	14.35	-25.2	-25.9	15.9	0.00e+00	0	44	0	1077936128	10	3912
2026-01-22 16:43:47.76	255.00	14.39	-25.3	-26.1	15.8	0.00e+00	0	44	0	1085276160	10	3953
2026-01-22 16:43:48.76	255.19	14.42	-25.2	-25.8	15.9	0.00e+00	0	44	0	1092616192	10	3882
2026-01-22 16:43:49.76	255.39	14.46	-25.1	-25.7	16.0	0.00e+00	0	44	0	1099956224	10	3860
2026-01-22 16:43:50.75	255.58	14.50	-25.1	-25.7	16.0	0.00e+00	0	44	0	1107296256	10	3861
2026-01-22 16:43:51.75	255.78	14.53	-25.1	-25.7	16.0	0.00e+00	0	44	0	1114636288	10	3862
2026-01-22 16:43:52.75	255.97	14.57	-25.2	-25.9	15.9	0.00e+00	0	44	0	1121976320	10	3895
2026-01-22 16:43:53.76	256.17	14.61	-25.2	-25.9	15.9	0.00e+00	0	44	0	1129316352	10	3893
2026-01-22 16:43:54.76	256.37	14.64	-25.2	-25.8	15.9	0.00e+00	0	44	0	1135607808	10	3879
2026-01-22 16:43:55.77	256.57	14.68	-25.2	-25.9	15.9	0.00e+00	0	44	0	1142947840	10	3900
2026-01-22 16:43:56.77	256.77	14.71	-25.1	-25.7	16.0	0.00e+00	0	44	0	1150287872	10	3864
2026-01-22 16:43:57.77	256.97	14.75	-25.1	-25.7	16.0	0.00e+00	0	44	0	1157627904	10	3863
2026-01-22 16:43:58.77	257.17	14.78	-25.1	-25.6	16.1	0.00e+00	0	44	0	1164967936	10	3827
2026-01-22 16:43:59.78	257.37	14.82	-25.1	-25.7	16.0	0.00e+00	0	44	0	1172307968	10	3863
2026-01-22 16:44:00.78	257.57	14.85	-25.1	-25.6	16.1	0.00e+00	0	44	0	1179648000	10	3821
2026-01-22 16:44:01.78	257.77	14.88	-25.0	-25.4	16.2	0.00e+00	0	44	0	1186988032	10	3779
2026-01-22 16:44:02.79	257.98	14.92	-25.0	-25.9	16.1	0.00e+00	0	44	0	1194328064	9	4003
2026-01-22 16:44:03.79	258.18	14.95	-24.9	-25.8	16.2	0.00e+00	0	44	0	1201668096	9	3972
2026-01-22 16:44:04.79	258.38	14.98	-24.9	-25.7	16.3	0.00e+00	0	44	0	1209008128	9	3960
2026-01-22 16:44:05.79	258.58	15.02	-25.0	-25.9	16.1	0.00e+00	0	44	0	1216348160	9	4003
2026-01-22 16:44:06.79	258.79	15.05	-24.9	-25.8	16.2	0.00e+00	0	44	0	1222639616	9	3973
2026-01-22 16:44:07.80	258.99	15.08	-25.0	-25.9	16.1	0.00e+00	0	44	0	1229979648	9	4020
2026-01-22 16:44:08.80	259.20	15.11	-25.0	-25.5	16.1	0.00e+00	0	44	0	1237319680	10	3803
2026-01-22 16:44:09.80	259.40	15.14	-25.1	-26.1	16.1	0.00e+00	0	44	0	1244659712	9	4053
2026-01-22 16:44:10.81	259.61	15.18	-25.1	-25.7	16.1	0.00e+00	0	44	0	1251999744	10	3845
2026-01-22 16:44:11.81	259.81	15.21	-25.0	-25.6	16.1	0.00e+00	0	44	0	1259339776	10	3826
2026-01-22 16:44:12.81	260.02	15.24	-25.2	-25.9	15.9	0.00e+00	0	44	0	1266679808	10	3908
2026-01-22 16:44:13.81	260.22	15.27	-25.0	-25.4	16.2	0.00e+00	0	44	0	1274019840	10	3785
2026-01-22 16:44:14.82	260.43	15.30	-24.9	-25.7	16.3	0.00e+00	0	44	0	1280311296	9	3949
2026-01-22 16:44:15.82	260.64	15.33	-24.9	-25.8	16.2	0.00e+00	0	44	0	1287651328	9	3990
2026-01-22 16:44:16.82	260.85	15.36	-24.9	-25.8	16.2	0.00e+00	0	44	0	1294991360	9	3993
2026-01-22 16:44:17.82	261.05	15.39	-24.9	-25.7	16.3	0.00e+00	0	44	0	1302331392	9	3971
2026-01-22 16:44:18.82	261.26	15.41	-24.9	-25.8	16.2	0.00e+00	0	44	0	1309671424	9	3989
2026-01-22 16:44:19.83	261.47	15.44	-25.0	-26.0	16.1	0.00e+00	0	44	0	1317011456	9	4035
2026-01-22 16:44:20.83	261.68	15.47	-25.2	-25.9	15.9	0.00e+00	0	44	0	1324351488	10	3915
2026-01-22 16:44:21.84	261.89	15.50	-25.5	-26.6	15.5	0.00e+00	0	44	0	1331691520	10	4071
2026-01-22 16:44:22.84	262.10	15.53	-25.3	-26.1	15.8	0.00e+00	0	44	0	1339031552	10	3967
2026-01-22 16:44:23.85	262.31	15.55	-25.0	-25.4	16.2	0.00e+00	0	44	0	1346371584	10	3787
2026-01-22 16:44:24.85	262.52	15.58	-24.8	-25.0	16.4	0.00e+00	0	44	0	1353711616	10	3696
2026-01-22 16:44:25.85	262.74	15.61	-24.7	-25.4	16.5	0.00e+00	0	44	0	1361051648	9	3886
2026-01-22 16:44:26.86	262.95	15.63	-24.7	-25.3	16.5	0.00e+00	0	44	0	1367343104	9	3862
2026-01-22 16:44:27.86	263.16	15.66	-24.7	-25.3	16.5	0.00e+00	0	44	0	1374683136	9	3857
2026-01-22 16:44:28.87	263.37	15.68	-24.6	-25.2	16.6	0.00e+00	0	44	0	1382023168	9	3834
2026-01-22 16:44:29.86	263.58	15.71	-24.6	-25.2	16.6	0.00e+00	0	44	0	1389363200	9	3840
2026-01-22 16:44:30.87	263.80	15.73	-24.7	-25.4	16.4	0.00e+00	0	44	0	1396703232	9	3889
2026-01-22 16:44:31.88	264.01	15.76	-24.7	-25.4	16.4	0.00e+00	0	44	0	1404043264	9	3906
2026-01-22 16:44:32.88	264.23	15.78	-24.7	-25.4	16.2	0.00e+00	0	44	0	1411383296	9	3887
2026-01-22 16:44:33.88	264.44	15.80	-24.9	-25.8	15.9	1.37e-05	0	44	0	1418723328	9	4002
2026-01-22 16:44:34.89	264.65	15.83	-24.8	-25.7	16.1	0.00e+00	0	44	0	1426063360	9	3970
2026-01-22 16:44:35.89	264.87	15.85	-24.9	-25.9	16.0	0.00e+00	0	44	0	1433403392	9	4015
2026-01-22 16:44:36.90	265.09	15.87	-24.9	-25.8	16.0	2.20e-06	0	44	0	1440743424	9	4005
2026-01-22 16:44:37.90	265.30	15.89	-24.8	-25.7	16.1	2.20e-06	0	44	0	1448083456	9	3967
2026-01-22 16:44:38.91	265.52	15.92	-24.8	-25.6	16.0	4.50e-06	0	44	0	1454374912	9	3947
2026-01-22 16:44:39.91	265.73	15.94	-24.8	-25.5	16.1	5.70e-06	0	44	0	1461714944	9	3923
2026-01-22 16:44:40.91	265.95	15.96	-24.7	-25.4	16.3	0.00e+00	0	44	0	1469054976	9	3882
2026-01-22 16:44:41.91	266.16	15.98	-24.9	-25.7	16.1	0.00e+00	0	44	0	1476395008	9	3975
2026-01-22 16:44:42.91	266.38	16.00	-24.8	-25.5	16.2	6.80e-06	0	44	0	1483735040	9	3909
2026-01-22 16:44:43.91	266.60	16.02	-24.7	-25.4	16.2	1.10e-06	0	44	0	1491075072	9	3890
2026-01-22 16:44:44.92	266.82	16.04	-24.7	-25.4	16.2	2.20e-06	0	44	0	1498415104	9	3899
2026-01-22 16:44:45.93	267.03	16.06	-24.8	-25.6	16.1	1.53e-03	0	44	0	1505755136	9	3941
2026-01-22 16:44:46.93	267.25	16.08	-24.9	-25.7	16.1	0.00e+00	0	44	0	1513095168	9	3981
2026-01-22 16:44:47.94	267.47	16.10	-25.0	-26.1	15.9	0.00e+00	0	44	0	1520435200	9	4059
2026-01-22 16:44:48.94	267.69	16.11	-24.9	-25.7	16.1	0.00e+00	0	44	0	1527775232	9	3967
2026-01-22 16:44:49.94	267.91	16.13	-24.8	-25.5	16.3	0.00e+00	0	44	0	1534066688	9	3916
2026-01-22 16:44:50.94	268.12	16.15	-24.8	-25.5	16.2	5.70e-06	0	44	0	1541406720	9	3917
2026-01-22 16:44:51.94	268.34	16.17	-24.9	-25.9	16.0	2.20e-06	0	44	0	1548746752	9	4019
2026-01-22 16:44:52.95	268.56	16.18	-24.7	-25.3	16.3	1.10e-06	0	44	0	1556086784	9	3875
2026-01-22 16:44:53.95	268.78	16.20	-24.6	-25.2	16.4	0.00e+00	0	44	0	1563426816	9	3841
2026-01-22 16:44:54.95	269.00	16.21	-24.7	-25.3	16.3	0.00e+00	0	44	0	1570766848	9	3859
2026-01-22 16:44:55.94	269.22	16.23	-24.7	-25.3	16.6	6.37e-04	0	44	0	1578106880	9	3866
2026-01-22 16:44:56.95	269.44	16.24	-24.8	-25.5	16.4	0.00e+00	0	44	0	1585446912	9	3921
2026-01-22 16:44:57.95	269.66	16.26	-24.8	-25.5	16.4	0.00e+00	0	44	0	1592786944	9	3911
2026-01-22 16:44:58.95	269.88	16.27	-24.7	-25.4	16.5	1.40e-03	0	44	0	1599078400	9	3875
2026-01-22 16:44:59.95	270.10	16.29	-24.8	-25.5	16.4	0.00e+00	0	44	0	1606418432	9	3909
2026-01-22 16:45:00.96	270.32	16.30	-24.7	-25.4	16.5	1.02e-03	0	44	0	1613758464	9	3883
2026-01-22 16:45:01.96	270.54	16.31	-24.6	-25.1	16.6	6.05e-04	0	44	0	1621098496	9	3824
2026-01-22 16:45:02.97	270.77	16.33	-24.6	-25.2	16.6	0.00e+00	0	44	0	1628438528	9	3827
2026-01-22 16:45:03.96	270.99	16.34	-24.7	-25.2	16.5	2.75e-04	0	44	0	1635778560	9	3845
2026-01-22 16:45:04.97	271.21	16.35	-24.7	-25.4	16.5	0.00e+00	0	44	0	1643118592	9	3874
2026-01-22 16:45:05.97	271.43	16.36	-24.7	-25.4	16.5	0.00e+00	0	44	0	1650458624	9	3879
2026-01-22 16:45:06.97	271.65	16.37	-24.8	-25.5	16.4	1.07e-03	0	44	0	1656750080	9	3918
2026-01-22 16:45:07.98	271.88	16.38	-24.8	-25.5	16.4	1.09e-03	0	44	0	1665138688	9	3908
2026-01-22 16:45:08.99	272.10	16.39	-24.8	-25.5	16.4	5.26e-05	0	44	0	1672478720	9	3907
2026-01-22 16:45:09.99	272.32	16.40	-24.9	-25.7	16.4	2.59e-04	0	44	0	1678770176	9	3948
2026-01-22 16:45:10.99	272.54	16.41	-25.0	-26.0	16.2	1.14e-03	0	44	0	1686110208	9	4034
2026-01-22 16:45:11.99	272.76	16.42	-24.8	-25.5	16.5	9.04e-05	0	44	0	1693450240	9	3898
2026-01-22 16:45:12.99	272.99	16.43	-24.7	-25.3	16.6	1.19e-03	0	44	0	1700790272	9	3855
2026-01-22 16:45:14.00	273.21	16.44	-24.6	-25.0	16.7	1.42e-03	0	44	0	1708130304	9	3797
2026-01-22 16:45:15.01	273.44	16.45	-24.6	-25.2	16.6	0.00e+00	0	44	0	1715470336	9	3827
2026-01-22 16:45:16.01	273.66	16.45	-24.6	-25.1	16.6	1.63e-03	0	44	0	1722810368	9	3823
2026-01-22 16:45:17.02	273.88	16.46	-24.6	-25.2	16.6	1.54e-03	0	44	0	1730150400	9	3829
2026-01-22 16:45:18.02	274.11	16.47	-24.9	-25.8	16.3	0.00e+00	0	44	0	1737490432	9	3981
2026-01-22 16:45:19.02	274.33	16.47	-24.7	-25.4	16.5	8.95e-04	0	44	0	1743781888	9	3874
2026-01-22 16:45:20.02	274.55	16.48	-24.7	-25.3	16.6	0.00e+00	0	44	0	1751121920	9	3847
2026-01-22 16:45:21.03	274.78	16.48	-24.7	-25.4	16.5	0.00e+00	0	44	0	1759510528	9	3881
2026-01-22 16:45:22.04	275.00	16.49	-24.9	-25.8	16.3	0.00e+00	0	44	0	1765801984	9	3993
2026-01-22 16:45:23.03	275.22	16.49	-25.1	-25.7	16.1	0.00e+00	0	44	0	1773142016	10	3849
2026-01-22 16:45:24.04	275.45	16.50	-25.0	-25.5	16.2	1.49e-04	0	44	0	1780482048	10	3800
2026-01-22 16:45:25.04	275.67	16.50	-25.0	-26.0	16.2	0.00e+00	0	44	0	1787822080	9	4035
2026-01-22 16:45:26.04	275.90	16.51	-25.1	-26.1	16.1	0.00e+00	0	44	0	1795162112	9	4065
2026-01-22 16:45:27.05	276.12	16.51	-25.0	-25.9	16.2	0.00e+00	0	44	0	1802502144	9	4001
2026-01-22 16:45:28.05	276.34	16.51	-25.1	-26.1	16.1	0.00e+00	0	44	0	1809842176	9	4059
2026-01-22 16:45:29.05	276.57	16.51	-25.0	-25.9	16.2	0.00e+00	0	44	0	1817182208	9	4012
2026-01-22 16:45:30.05	276.79	16.51	-25.2	-25.9	16.0	0.00e+00	0	44	0	1824522240	10	3904
2026-01-22 16:45:31.05	277.01	16.52	-25.7	-26.5	15.4	0.00e+00	0	44	0	1830813696	11	3945
2026-01-22 16:45:32.06	277.24	16.52	-25.3	-26.1	15.8	0.00e+00	0	44	0	1838153728	10	3948
2026-01-22 16:45:33.06	277.46	16.52	-25.8	-26.8	15.2	0.00e+00	0	44	0	1845493760	11	4011
2026-01-22 16:45:34.07	277.69	16.52	-25.3	-25.7	15.8	0.00e+00	0	44	0	1852833792	11	3745
2026-01-22 16:45:35.08	277.91	16.52	-24.9	-25.3	16.3	0.00e+00	0	44	0	1860173824	10	3762
2026-01-22 16:45:36.09	278.14	16.51	-24.7	-24.8	16.5	0.00e+00	0	44	0	1867513856	10	3666
2026-01-22 16:45:37.09	278.36	16.51	-24.6	-25.2	16.6	0.00e+00	0	44	0	1874853888	9	3850
2026-01-22 16:45:38.10	278.59	16.51	-24.6	-25.3	16.5	0.00e+00	0	44	0	1882193920	9	3867
2026-01-22 16:45:39.10	278.81	16.51	-24.7	-25.3	16.5	0.00e+00	0	44	0	1889533952	9	3869
2026-01-22 16:45:40.10	279.04	16.51	-24.6	-25.1	16.6	0.00e+00	0	44	0	1896873984	9	3830
2026-01-22 16:45:41.10	279.26	16.50	-24.5	-25.0	16.6	0.00e+00	0	44	0	1904214016	9	3806
2026-01-22 16:45:42.11	279.48	16.50	-24.6	-25.6	16.6	0.00e+00	0	44	0	1910505472	8	4038
2026-01-22 16:45:43.11	279.71	16.50	-24.5	-25.4	16.6	0.00e+00	0	44	0	1917845504	8	4012
2026-01-22 16:45:44.12	279.93	16.49	-24.6	-25.0	16.6	0.00e+00	0	44	0	1925185536	9	3806
2026-01-22 16:45:45.12	280.16	16.49	-24.6	-25.2	16.6	0.00e+00	0	44	0	1932525568	9	3843
2026-01-22 16:45:46.13	280.38	16.48	-24.9	-25.7	16.3	0.00e+00	0	44	0	1939865600	9	3972
2026-01-22 16:45:47.13	280.60	16.48	-24.8	-25.5	16.4	0.00e+00	0	44	0	1947205632	9	3916
2026-01-22 16:45:48.14	280.83	16.47	-24.8	-25.6	16.4	0.00e+00	0	44	0	1954545664	9	3931
2026-01-22 16:45:49.13	281.05	16.47	-24.8	-25.7	16.3	0.00e+00	0	44	0	1961885696	9	3955
2026-01-22 16:45:50.13	281.27	16.46	-24.9	-25.7	16.3	0.00e+00	0	44	0	1969225728	9	3967
2026-01-22 16:45:51.14	281.50	16.45	-24.9	-25.8	16.3	0.00e+00	0	44	0	1976565760	9	3992
2026-01-22 16:45:52.14	281.72	16.44	-24.9	-25.9	16.2	0.00e+00	0	44	0	1983905792	9	4011
2026-01-22 16:45:53.14	281.94	16.44	-25.0	-25.9	16.2	0.00e+00	0	44	0	1991245824	9	4012
2026-01-22 16:45:54.14	282.16	16.43	-24.9	-25.7	16.3	0.00e+00	0	44	0	1997537280	9	3966
2026-01-22 16:45:55.15	282.39	16.42	-24.9	-25.9	16.2	0.00e+00	0	44	0	2004877312	9	4005
2026-01-22 16:45:56.15	282.61	16.41	-24.8	-25.6	16.4	0.00e+00	0	44	0	2012217344	9	3943
2026-01-22 16:45:57.16	282.83	16.40	-24.8	-25.7	16.4	0.00e+00	0	44	0	2019557376	9	3949
2026-01-22 16:45:58.16	283.05	16.39	-25.1	-25.8	16.0	0.00e+00	0	44	0	2026897408	10	3881
2026-01-22 16:45:59.17	283.28	16.38	-25.0	-25.4	16.3	0.00e+00	0	44	0	2034237440	10	3779
2026-01-22 16:46:00.18	283.50	16.37	-24.8	-25.1	16.4	0.00e+00	0	44	0	2041577472	10	3706
2026-01-22 16:46:01.18	283.72	16.36	-24.8	-25.4	16.5	0.00e+00	0	44	0	2048917504	9	3896
2026-01-22 16:46:02.19	283.95	16.35	-24.8	-25.4	16.5	0.00e+00	0	44	0	2056257536	9	3894
2026-01-22 16:46:03.20	284.17	16.33	-24.9	-25.7	16.3	0.00e+00	0	44	0	2063597568	9	3951
2026-01-22 16:46:04.20	284.39	16.32	-24.7	-25.4	16.5	0.00e+00	0	44	0	2070937600	9	3874
2026-01-22 16:46:05.20	284.61	16.31	-24.9	-25.8	16.3	0.00e+00	0	44	0	2077229056	9	3968
2026-01-22 16:46:06.20	284.83	16.30	-24.8	-25.6	16.4	0.00e+00	0	44	0	2084569088	9	3927
2026-01-22 16:46:07.20	285.05	16.28	-24.8	-25.6	16.4	0.00e+00	0	44	0	2091909120	9	3918
2026-01-22 16:46:08.20	285.27	16.27	-24.9	-25.7	16.3	0.00e+00	0	44	0	2099249152	9	3958
2026-01-22 16:46:09.21	285.49	16.25	-24.8	-25.5	16.5	0.00e+00	0	44	0	2106589184	9	3905
2026-01-22 16:46:10.22	285.71	16.24	-24.8	-25.6	16.4	0.00e+00	0	44	0	2113929216	9	3924
2026-01-22 16:46:11.22	285.93	16.22	-24.8	-25.5	16.4	0.00e+00	0	44	0	2121269248	9	3916
2026-01-22 16:46:12.23	286.15	16.21	-24.7	-25.4	16.5	0.00e+00	0	44	0	2128609280	9	3885
2026-01-22 16:46:13.22	286.37	16.19	-24.8	-25.5	16.5	0.00e+00	0	44	0	2135949312	9	3896
2026-01-22 16:46:14.23	286.59	16.18	-24.8	-25.4	16.5	0.00e+00	0	44	0	2143289344	9	3882
2026-01-22 16:46:15.24	286.81	16.16	-24.7	-25.3	16.5	0.00e+00	0	44	0	2150629376	9	3869
2026-01-22 16:46:16.24	287.03	16.14	-24.1	-24.8	13.8	0.00e+00	0	44	0	2157969408	9	3924
2026-01-22 16:46:17.24	287.25	16.13	-24.8	-25.9	14.8	0.00e+00	0	44	0	2164260864	8	4122
2026-01-22 16:46:18.24	287.46	16.11	-24.8	-25.6	16.1	0.00e+00	0	44	0	2171600896	9	3920
2026-01-22 16:46:19.24	287.68	16.09	-24.8	-25.5	16.4	0.00e+00	0	44	0	2178940928	9	3900
2026-01-22 16:46:20.24	287.90	16.07	-24.8	-25.5	16.4	0.00e+00	0	44	0	2186280960	9	3905
2026-01-22 16:46:21.24	288.11	16.05	-24.8	-25.6	16.3	1.84e-03	0	44	0	2193620992	9	3932
2026-01-22 16:46:22.24	288.33	16.03	-24.9	-25.8	16.3	0.00e+00	0	44	0	2200961024	9	3986
2026-01-22 16:46:23.24	288.55	16.01	-24.9	-25.7	16.3	0.00e+00	0	44	0	2208301056	9	3965
2026-01-22 16:46:24.24	288.76	15.99	-25.0	-26.0	16.2	1.75e-03	0	44	0	2215641088	9	4020
2026-01-22 16:46:25.24	288.98	15.97	-24.8	-25.6	16.3	0.00e+00	0	44	0	2222981120	9	3933
2026-01-22 16:46:26.25	289.20	15.95	-24.9	-25.7	16.3	0.00e+00	0	44	0	2229272576	9	3951
2026-01-22 16:46:27.25	289.41	15.93	-25.0	-25.8	16.3	0.00e+00	0	44	0	2236612608	9	3986
2026-01-22 16:46:28.26	289.63	15.91	-24.9	-25.8	16.3	0.00e+00	0	44	0	2243952640	9	3976
2026-01-22 16:46:29.26	289.84	15.89	-25.0	-26.0	16.2	0.00e+00	0	44	0	2251292672	9	4022
2026-01-22 16:46:30.26	290.06	15.87	-25.1	-25.7	16.1	0.00e+00	0	44	0	2258632704	10	3855
2026-01-22 16:46:31.26	290.27	15.84	-25.2	-25.9	16.0	1.60e-03	0	44	0	2265972736	10	3893
2026-01-22 16:46:32.27	290.48	15.82	-25.3	-26.0	15.9	0.00e+00	0	44	0	2273312768	10	3928
2026-01-22 16:46:33.27	290.70	15.80	-25.2	-26.0	15.9	0.00e+00	0	44	0	2280652800	10	3927
2026-01-22 16:46:34.28	290.91	15.77	-25.2	-25.8	16.0	1.60e-03	0	44	0	2287992832	10	3886
2026-01-22 16:46:35.28	291.12	15.75	-25.2	-25.9	16.0	0.00e+00	0	44	0	2294284288	10	3906
2026-01-22 16:46:36.28	291.34	15.72	-25.3	-26.0	15.9	1.57e-03	0	44	0	2302672896	10	3935
2026-01-22 16:46:37.27	291.55	15.70	-25.1	-25.7	16.1	1.53e-03	0	44	0	2308964352	10	3838
2026-01-22 16:46:38.27	291.76	15.68	-25.0	-25.5	16.2	0.00e+00	0	44	0	2316304384	10	3803
2026-01-22 16:46:39.28	291.97	15.65	-25.1	-25.7	16.1	1.56e-03	0	44	0	2323644416	10	3843
2026-01-22 16:46:40.28	292.18	15.62	-25.0	-25.5	16.2	1.48e-03	0	44	0	2330984448	10	3810
2026-01-22 16:46:41.28	292.39	15.60	-25.1	-25.6	16.1	3.43e-05	0	44	0	2338324480	10	3835
2026-01-22 16:46:42.29	292.60	15.57	-25.2	-25.8	16.0	1.46e-03	0	44	0	2345664512	10	3865
2026-01-22 16:46:43.29	292.81	15.54	-25.2	-26.0	15.9	1.69e-03	0	44	0	2353004544	10	3909
2026-01-22 16:46:44.30	293.03	15.52	-25.1	-26.1	16.1	3.04e-04	0	44	0	2360344576	9	4039
2026-01-22 16:46:45.30	293.23	15.49	-25.0	-25.9	16.2	1.98e-03	0	44	0	2367684608	9	4014
2026-01-22 16:46:46.31	293.44	15.46	-25.1	-25.6	16.1	1.95e-03	0	44	0	2373976064	10	3819
2026-01-22 16:46:47.31	293.65	15.43	-25.0	-25.9	16.2	3.59e-04	0	44	0	2381316096	9	4006
2026-01-22 16:46:48.32	293.86	15.41	-25.0	-25.9	16.2	0.00e+00	0	44	0	2388656128	9	3997
2026-01-22 16:46:49.33	294.07	15.38	-24.9	-25.8	16.3	1.64e-03	0	44	0	2395996160	9	3979
2026-01-22 16:46:50.34	294.28	15.35	-25.0	-26.0	16.1	0.00e+00	0	44	0	2403336192	9	4035
2026-01-22 16:46:51.34	294.49	15.32	-24.9	-25.8	16.2	1.50e-03	0	44	0	2410676224	9	3985
2026-01-22 16:46:52.34	294.69	15.29	-25.1	-26.1	16.1	0.00e+00	0	44	0	2418016256	9	4058
2026-01-22 16:46:53.35	294.90	15.26	-25.2	-25.8	16.0	0.00e+00	0	44	0	2425356288	10	3881
2026-01-22 16:46:54.35	295.11	15.23	-25.2	-25.9	16.0	1.47e-03	0	44	0	2432696320	10	3887
2026-01-22 16:46:55.36	295.31	15.20	-25.2	-26.0	15.9	0.00e+00	0	44	0	2440036352	10	3915
2026-01-22 16:46:56.36	295.52	15.17	-25.3	-26.2	15.8	0.00e+00	0	44	0	2447376384	10	3963
2026-01-22 16:46:57.37	295.72	15.14	-25.3	-26.1	15.9	0.00e+00	0	44	0	2454716416	10	3941
2026-01-22 16:46:58.38	295.93	15.10	-25.3	-26.1	15.8	0.00e+00	0	44	0	2462056448	10	3961
2026-01-22 16:46:59.38	296.13	15.07	-25.1	-25.8	16.0	0.00e+00	0	44	0	2469396480	10	3869
2026-01-22 16:47:00.39	296.34	15.04	-25.2	-26.0	15.9	0.00e+00	0	44	0	2476736512	10	3911
2026-01-22 16:47:01.40	296.54	15.01	-25.1	-25.8	16.0	0.00e+00	0	44	0	2483027968	10	3862
2026-01-22 16:47:02.40	296.74	14.98	-25.2	-25.9	15.9	0.00e+00	0	44	0	2490368000	10	3898
2026-01-22 16:47:03.41	296.95	14.94	-25.4	-26.3	15.7	0.00e+00	0	44	0	2497708032	10	4006
2026-01-22 16:47:04.41	297.15	14.91	-25.5	-26.6	15.5	0.00e+00	0	44	0	2505048064	10	4080
2026-01-22 16:47:05.42	297.35	14.88	-25.4	-26.3	15.7	0.00e+00	0	44	0	2512388096	10	3993
2026-01-22 16:47:06.42	297.55	14.84	-25.4	-26.4	15.3	2.05e-05	0	44	0	2519728128	10	4037
2026-01-22 16:47:07.43	297.75	14.81	-25.3	-26.2	15.3	1.41e-04	0	44	0	2527068160	10	3989
2026-01-22 16:47:08.43	297.95	14.77	-25.2	-25.9	15.4	3.17e-04	0	44	0	2534408192	10	3903
2026-01-22 16:47:09.43	298.15	14.74	-25.1	-25.7	15.6	9.26e-05	0	44	0	2541748224	10	3863
2026-01-22 16:47:10.44	298.35	14.70	-25.3	-26.1	15.7	2.20e-06	0	44	0	2549088256	10	3949
2026-01-22 16:47:11.43	298.55	14.67	-25.4	-26.3	15.6	2.20e-06	0	44	0	2556428288	10	3994
2026-01-22 16:47:12.43	298.74	14.63	-25.5	-26.6	15.4	0.00e+00	0	44	0	2562719744	10	4086
2026-01-22 16:47:13.43	298.94	14.60	-25.7	-26.4	15.3	2.20e-06	0	44	0	2570059776	11	3925
2026-01-22 16:47:14.43	299.14	14.56	-25.4	-25.9	15.5	1.10e-06	0	44	0	2577399808	11	3809
2026-01-22 16:47:15.43	299.33	14.53	-25.3	-26.1	15.6	0.00e+00	0	44	0	2584739840	10	3957
2026-01-22 16:47:16.43	299.53	14.49	-25.2	-25.9	15.7	3.40e-06	0	44	0	2592079872	10	3895
2026-01-22 16:47:17.44	299.73	14.45	-25.2	-25.9	15.5	3.77e-05	0	44	0	2599419904	10	3900
2026-01-22 16:47:18.44	299.92	14.42	-25.2	-25.9	15.5	2.28e-05	0	44	0	2606759936	10	3906
2026-01-22 16:47:19.45	300.12	14.38	-25.2	-26.0	15.4	4.92e-05	0	44	0	2614099968	10	3919
2026-01-22 16:47:20.45	300.31	14.34	-25.3	-26.0	15.4	8.12e-05	0	44	0	2621440000	10	3938
2026-01-22 16:47:21.45	300.50	14.31	-25.3	-26.1	15.4	4.80e-05	0	44	0	2627731456	10	3969
2026-01-22 16:47:22.46	300.70	14.27	-25.4	-26.3	15.3	3.77e-05	0	44	0	2635071488	10	4001
2026-01-22 16:47:23.46	300.89	14.23	-25.5	-26.6	15.1	7.20e-05	0	44	0	2642411520	10	4072
2026-01-22 16:47:24.45	301.08	14.19	-25.5	-26.2	15.1	6.63e-05	0	44	0	2649751552	11	3878
2026-01-22 16:47:25.46	301.27	14.15	-25.6	-26.3	15.0	1.53e-04	0	44	0	2657091584	11	3891
2026-01-22 16:47:26.45	301.46	14.11	-25.6	-26.3	15.2	1.14e-05	0	44	0	2664431616	11	3904
2026-01-22 16:47:27.45	301.65	14.07	-25.5	-26.2	15.3	1.10e-06	0	44	0	2671771648	11	3877
2026-01-22 16:47:28.46	301.84	14.04	-25.4	-26.1	14.9	3.86e-04	0	44	0	2679111680	11	3859
2026-01-22 16:47:29.46	302.03	14.00	-25.3	-25.9	14.4	1.21e-02	0	44	0	2685403136	11	3842
2026-01-22 16:47:30.46	302.22	13.96	-25.4	-25.9	14.4	1.63e-02	0	44	0	2692743168	11	3839
2026-01-22 16:47:31.46	302.41	13.92	-25.5	-26.2	15.4	0.00e+00	0	44	0	2700083200	11	3861
2026-01-22 16:47:32.46	302.60	13.88	-25.5	-26.1	15.4	1.10e-06	0	44	0	2707423232	11	3859
2026-01-22 16:47:33.47	302.79	13.84	-25.5	-26.6	15.4	0.00e+00	0	44	0	2714763264	10	4088
2026-01-22 16:47:34.47	302.97	13.80	-25.5	-26.5	15.5	0.00e+00	0	44	0	2722103296	10	4059
2026-01-22 16:47:35.48	303.16	13.75	-25.6	-26.7	15.4	0.00e+00	0	44	0	2729443328	10	4103
2026-01-22 16:47:36.48	303.35	13.71	-25.6	-26.2	15.4	0.00e+00	0	44	0	2736783360	11	3875
2026-01-22 16:47:37.48	303.53	13.67	-25.5	-26.0	15.6	0.00e+00	0	44	0	2744123392	11	3814
2026-01-22 16:47:38.49	303.72	13.63	-25.5	-26.0	15.5	0.00e+00	0	44	0	2751463424	11	3824
2026-01-22 16:47:39.49	303.91	13.59	-25.4	-25.9	15.5	0.00e+00	0	44	0	2758803456	11	3792
2026-01-22 16:47:40.48	304.09	13.55	-25.5	-26.0	15.6	0.00e+00	0	44	0	2766143488	11	3812
2026-01-22 16:47:41.49	304.27	13.51	-25.4	-25.9	15.6	0.00e+00	0	44	0	2772434944	11	3804
2026-01-22 16:47:42.49	304.46	13.46	-25.4	-26.4	15.6	0.00e+00	0	44	0	2779774976	10	4028
2026-01-22 16:47:43.49	304.64	13.42	-25.5	-26.6	15.5	0.00e+00	0	44	0	2787115008	10	4082
2026-01-22 16:47:44.48	304.82	13.38	-25.7	-26.6	15.2	0.00e+00	0	44	0	2794455040	11	3965
2026-01-22 16:47:45.48	305.00	13.34	-25.7	-26.6	15.2	0.00e+00	0	44	0	2801795072	11	3961
2026-01-22 16:47:46.49	305.18	13.29	-25.6	-26.2	15.4	0.00e+00	0	44	0	2809135104	11	3883
2026-01-22 16:47:47.49	305.36	13.25	-25.5	-26.1	15.5	0.00e+00	0	44	0	2816475136	11	3843
2026-01-22 16:47:48.50	305.54	13.21	-25.5	-26.5	15.5	0.00e+00	0	44	0	2823815168	10	4043
2026-01-22 16:47:49.50	305.72	13.16	-25.5	-26.6	15.5	0.00e+00	0	44	0	2831155200	10	4085
2026-01-22 16:47:50.51	305.90	13.12	-25.7	-26.5	15.3	0.00e+00	0	44	0	2837446656	11	3932
2026-01-22 16:47:51.51	306.08	13.08	-25.7	-26.5	15.3	0.00e+00	0	44	0	2844786688	11	3945
2026-01-22 16:47:52.52	306.26	13.03	-25.7	-26.4	15.3	1.10e-06	0	44	0	2852126720	11	3911
2026-01-22 16:47:53.52	306.44	12.99	-25.7	-26.5	15.2	0.00e+00	0	44	0	2859466752	11	3936
2026-01-22 16:47:54.52	306.61	12.94	-25.5	-26.2	14.9	0.00e+00	0	44	0	2866806784	11	3931
2026-01-22 16:47:55.51	306.79	12.90	-25.7	-26.6	15.0	0.00e+00	0	44	0	2874146816	11	3972
2026-01-22 16:47:56.51	306.96	12.85	-25.8	-26.7	14.2	0.00e+00	0	44	0	2881486848	11	3998
2026-01-22 16:47:57.52	307.14	12.81	-25.8	-26.8	15.1	1.61e-03	0	44	0	2888826880	11	4029
2026-01-22 16:47:58.52	307.32	12.77	-26.0	-27.1	14.9	0.00e+00	0	44	0	2895118336	11	4085
2026-01-22 16:47:59.52	307.49	12.72	-26.0	-27.2	14.8	0.00e+00	0	44	0	2902458368	11	4131
2026-01-22 16:48:00.52	307.66	12.67	-25.9	-26.9	15.0	0.00e+00	0	44	0	2909798400	11	4046
2026-01-22 16:48:01.53	307.84	12.63	-25.8	-26.8	15.1	0.00e+00	0	44	0	2917138432	11	4018
2026-01-22 16:48:02.53	308.01	12.58	-25.9	-26.9	15.0	1.04e-03	0	44	0	2924478464	11	4046
2026-01-22 16:48:03.54	308.18	12.54	-25.9	-26.9	15.0	0.00e+00	0	44	0	2931818496	11	4056
2026-01-22 16:48:04.54	308.35	12.49	-25.9	-26.9	15.0	5.95e-05	0	44	0	2939158528	11	4050
2026-01-22 16:48:05.54	308.53	12.45	-25.9	-26.9	15.0	8.49e-04	0	44	0	2946498560	11	4048
2026-01-22 16:48:06.54	308.70	12.40	-25.8	-26.7	15.1	0.00e+00	0	44	0	2953838592	11	4007
2026-01-22 16:48:07.55	308.87	12.35	-25.8	-26.7	15.1	1.94e-04	0	44	0	2961178624	11	3998
2026-01-22 16:48:08.55	309.04	12.31	-25.8	-26.6	15.1	0.00e+00	0	44	0	2968518656	11	3979
2026-01-22 16:48:09.55	309.21	12.26	-25.8	-26.6	15.2	1.40e-03	0	44	0	2975858688	11	3982
2026-01-22 16:48:10.56	309.38	12.21	-25.8	-26.6	15.2	2.16e-04	0	44	0	2982150144	11	3971
2026-01-22 16:48:11.56	309.54	12.17	-25.8	-26.7	15.1	0.00e+00	0	44	0	2989490176	11	3984
2026-01-22 16:48:12.56	309.71	12.12	-25.9	-26.8	15.1	1.68e-03	0	44	0	2996830208	11	4019
2026-01-22 16:48:13.57	309.88	12.07	-25.9	-26.9	15.0	1.59e-04	0	44	0	3004170240	11	4041
2026-01-22 16:48:14.57	310.05	12.03	-25.9	-27.0	14.9	1.60e-03	0	44	0	3011510272	11	4063
2026-01-22 16:48:15.57	310.21	11.98	-26.0	-27.1	14.9	1.52e-03	0	44	0	3018850304	11	4102
2026-01-22 16:48:16.57	310.38	11.93	-26.0	-27.1	14.9	1.75e-04	0	44	0	3026190336	11	4106
2026-01-22 16:48:17.58	310.54	11.88	-26.0	-27.1	14.8	1.20e-03	0	44	0	3033530368	11	4107
2026-01-22 16:48:18.58	310.71	11.84	-26.0	-27.1	14.9	1.05e-03	0	44	0	3040870400	11	4100
2026-01-22 16:48:19.58	310.87	11.79	-26.0	-27.1	14.8	1.57e-04	0	44	0	3048210432	11	4110
2026-01-22 16:48:20.59	311.04	11.74	-26.0	-27.2	14.8	1.05e-03	0	44	0	3055550464	11	4129
2026-01-22 16:48:21.59	311.20	11.69	-26.0	-27.1	14.9	0.00e+00	0	44	0	3061841920	11	4085
2026-01-22 16:48:22.59	311.36	11.64	-26.1	-27.3	14.7	1.75e-04	0	44	0	3069181952	11	4135
2026-01-22 16:48:23.59	311.52	11.60	-26.0	-27.2	14.8	0.00e+00	0	44	0	3076521984	11	4112
2026-01-22 16:48:24.59	311.68	11.55	-26.0	-27.1	14.8	1.35e-03	0	44	0	3083862016	11	4106
2026-01-22 16:48:25.59	311.84	11.50	-26.0	-27.2	14.8	1.80e-04	0	44	0	3091202048	11	4109
2026-01-22 16:48:26.60	312.00	11.45	-26.1	-27.3	14.8	0.00e+00	0	44	0	3098542080	11	4147
2026-01-22 16:48:27.60	312.16	11.40	-26.2	-27.0	14.5	1.42e-03	0	44	0	3105882112	12	3969
2026-01-22 16:48:28.60	312.32	11.35	-26.3	-27.2	14.4	0.00e+00	0	44	0	3113222144	12	4028
2026-01-22 16:48:29.61	312.48	11.30	-26.1	-27.0	14.6	0.00e+00	0	44	0	3120562176	12	3960
2026-01-22 16:48:30.61	312.64	11.25	-26.2	-27.1	14.5	1.55e-03	0	44	0	3126853632	12	4001
2026-01-22 16:48:31.62	312.80	11.21	-26.3	-27.3	14.4	0.00e+00	0	44	0	3134193664	12	4046
2026-01-22 16:48:32.61	312.96	11.16	-26.3	-27.3	14.4	1.47e-03	0	44	0	3141533696	12	4038
2026-01-22 16:48:33.61	313.11	11.11	-26.2	-27.2	14.5	2.20e-06	0	44	0	3148873728	12	4009
2026-01-22 16:48:34.62	313.27	11.06	-26.2	-27.2	14.4	1.10e-06	0	44	0	3156213760	12	4030
2026-01-22 16:48:35.62	313.42	11.01	-26.4	-27.5	14.3	1.35e-03	0	44	0	3163553792	12	4090
2026-01-22 16:48:36.62	313.58	10.96	-26.3	-27.4	14.3	0.00e+00	0	44	0	3170893824	12	4069
2026-01-22 16:48:37.62	313.73	10.91	-26.1	-27.0	14.5	0.00e+00	0	44	0	3178233856	12	3967
2026-01-22 16:48:38.63	313.89	10.86	-26.1	-26.8	14.6	0.00e+00	0	44	0	3185573888	12	3924
2026-01-22 16:48:39.64	314.04	10.81	-26.1	-26.8	14.6	0.00e+00	0	44	0	3192913920	12	3914
2026-01-22 16:48:40.64	314.20	10.76	-26.0	-26.7	14.7	0.00e+00	0	44	0	3200253952	12	3885
2026-01-22 16:48:41.65	314.35	10.71	-26.1	-26.8	14.6	0.00e+00	0	44	0	3207593984	12	3914
2026-01-22 16:48:42.65	314.50	10.66	-26.2	-27.0	14.5	0.00e+00	0	44	0	3213885440	12	3979
2026-01-22 16:48:43.65	314.65	10.61	-26.1	-26.9	14.5	0.00e+00	0	44	0	3221225472	12	3947
2026-01-22 16:48:44.66	314.81	10.56	-26.1	-26.9	14.6	1.10e-06	0	44	0	3228565504	12	3938
2026-01-22 16:48:45.67	314.96	10.51	-26.2	-27.0	14.5	0.00e+00	0	44	0	3235905536	12	3974
2026-01-22 16:48:46.66	315.11	10.46	-26.2	-27.2	14.4	0.00e+00	0	44	0	3243245568	12	4020
2026-01-22 16:48:47.66	315.26	10.41	-26.3	-27.3	14.3	0.00e+00	0	44	0	3250585600	12	4052
2026-01-22 16:48:48.67	315.41	10.36	-26.4	-27.7	14.1	1.10e-06	0	44	0	3257925632	12	4147
2026-01-22 16:48:49.67	315.55	10.31	-26.5	-27.9	14.0	3.40e-06	0	44	0	3265265664	12	4202
2026-01-22 16:48:50.67	315.70	10.26	-26.5	-27.8	14.0	2.20e-06	0	44	0	3271557120	12	4187
2026-01-22 16:48:51.68	315.85	10.21	-26.5	-27.7	14.0	2.20e-06	0	44	0	3279945728	12	4161
2026-01-22 16:48:52.69	316.00	10.16	-26.6	-27.9	13.9	5.70e-06	0	44	0	3287285760	12	4213
2026-01-22 16:48:53.69	316.15	10.11	-26.5	-27.9	14.0	2.20e-06	0	44	0	3293577216	12	4196
2026-01-22 16:48:54.69	316.29	10.06	-26.7	-27.6	13.8	1.10e-06	0	44	0	3300917248	13	4031
2026-01-22 16:48:55.70	316.44	10.00	-27.0	-28.4	13.4	6.80e-06	0	44	0	3308257280	13	4233
2026-01-22 16:48:56.70	316.58	9.95	-26.9	-27.7	13.6	1.71e-05	0	44	0	3315597312	14	3936
2026-01-22 16:48:57.71	316.73	9.90	-26.6	-27.5	13.9	4.50e-06	0	44	0	3322937344	13	3996
2026-01-22 16:48:58.71	316.87	9.85	-26.4	-27.1	14.1	2.20e-06	0	44	0	3330277376	13	3885
2026-01-22 16:48:59.72	317.02	9.80	-26.4	-27.6	14.1	3.40e-06	0	44	0	3337617408	12	4137
2026-01-22 16:49:00.72	317.16	9.75	-26.4	-27.5	14.2	1.10e-06	0	44	0	3344957440	12	4100
2026-01-22 16:49:01.72	317.30	9.70	-26.3	-27.3	14.3	0.00e+00	0	44	0	3352297472	12	4059
2026-01-22 16:49:02.72	317.45	9.65	-26.1	-27.0	14.5	1.10e-06	0	44	0	3358588928	12	3972
2026-01-22 16:49:03.71	317.59	9.60	-26.2	-27.0	14.4	1.10e-06	0	44	0	3365928960	12	3978
2026-01-22 16:49:04.71	317.73	9.55	-26.1	-27.0	14.4	1.10e-06	0	44	0	3373268992	12	3979
2026-01-22 16:49:05.71	317.87	9.49	-26.1	-26.8	14.6	0.00e+00	0	44	0	3380609024	12	3921
2026-01-22 16:49:06.71	318.01	9.44	-26.1	-27.0	14.5	1.10e-06	0	44	0	3387949056	12	3978
2026-01-22 16:49:07.72	318.15	9.39	-26.2	-27.2	14.3	0.00e+00	0	44	0	3395289088	12	4022
2026-01-22 16:49:08.72	318.29	9.34	-26.4	-27.6	14.1	1.10e-06	0	44	0	3402629120	12	4118
2026-01-22 16:49:09.73	318.43	9.29	-26.5	-27.9	14.0	1.10e-06	0	44	0	3409969152	12	4201
2026-01-22 16:49:10.73	318.57	9.24	-26.6	-27.6	13.8	2.20e-06	0	44	0	3417309184	13	4033
2026-01-22 16:49:11.73	318.70	9.19	-26.7	-27.8	13.7	3.40e-06	0	44	0	3424649216	13	4073
2026-01-22 16:49:12.73	318.84	9.13	-26.8	-28.0	13.6	8.00e-06	0	44	0	3431989248	13	4125
2026-01-22 16:49:13.74	318.98	9.08	-26.9	-28.3	13.4	1.02e-05	0	44	0	3439329280	13	4216
2026-01-22 16:49:14.75	319.12	9.03	-26.9	-28.3	13.4	1.14e-05	0	44	0	3445620736	13	4227
2026-01-22 16:49:15.75	319.25	8.98	-27.2	-28.3	13.1	1.02e-05	0	44	0	3452960768	14	4100
2026-01-22 16:49:16.75	319.39	8.93	-27.1	-28.3	13.1	3.77e-05	0	44	0	3460300800	14	4098
2026-01-22 16:49:17.75	319.52	8.88	-27.0	-27.8	13.4	1.71e-05	0	44	0	3467640832	14	3985
2026-01-22 16:49:18.76	319.66	8.82	-26.8	-28.1	13.5	1.25e-05	0	44	0	3474980864	13	4147
2026-01-22 16:49:19.76	319.79	8.77	-26.9	-28.2	13.4	9.10e-06	0	44	0	3482320896	13	4194
2026-01-22 16:49:20.76	319.93	8.72	-26.9	-28.1	13.5	9.10e-06	0	44	0	3489660928	13	4166
2026-01-22 16:49:21.77	320.06	8.67	-26.8	-28.0	13.5	8.00e-06	0	44	0	3497000960	13	4141
2026-01-22 16:49:22.78	320.19	8.62	-26.9	-28.3	13.4	1.14e-05	0	44	0	3504340992	13	4209
2026-01-22 16:49:23.78	320.33	8.56	-27.1	-28.6	13.2	1.71e-05	0	44	0	3511681024	13	4303
2026-01-22 16:49:24.79	320.46	8.51	-27.0	-28.0	13.3	1.94e-05	0	44	0	3519021056	14	4019
2026-01-22 16:49:25.79	320.59	8.46	-26.8	-27.5	13.5	1.48e-05	0	44	0	3525312512	14	3900
2026-01-22 16:49:26.80	320.72	8.41	-26.8	-28.1	13.5	4.50e-06	0	44	0	3532652544	13	4150
2026-01-22 16:49:27.80	320.85	8.36	-26.8	-28.1	13.5	9.10e-06	0	44	0	3539992576	13	4159
2026-01-22 16:49:28.81	320.99	8.30	-26.9	-28.3	13.3	1.60e-05	0	44	0	3547332608	13	4223
2026-01-22 16:49:29.80	321.11	8.25	-26.1	-27.3	13.0	1.37e-05	0	44	0	3554672640	13	4156
2026-01-22 16:49:30.81	321.24	8.20	-26.7	-27.8	13.6	2.20e-06	0	44	0	3562012672	13	4089
2026-01-22 16:49:31.82	321.37	8.15	-26.6	-27.6	13.5	2.20e-06	0	44	0	3569352704	13	4020
2026-01-22 16:49:32.82	321.50	8.10	-26.7	-27.7	13.6	8.00e-06	0	44	0	3576692736	13	4069
2026-01-22 16:49:33.83	321.63	8.04	-26.7	-27.8	13.6	6.80e-06	0	44	0	3584032768	13	4080
2026-01-22 16:49:34.83	321.76	7.99	-26.8	-28.0	13.5	4.50e-06	0	44	0	3591372800	13	4146
2026-01-22 16:49:35.83	321.88	7.94	-26.6	-27.7	13.7	1.54e-03	0	44	0	3597664256	13	4043
2026-01-22 16:49:36.83	322.01	7.89	-26.5	-27.3	13.9	2.20e-06	0	44	0	3606052864	13	3960
2026-01-22 16:49:37.84	322.14	7.84	-26.5	-27.9	13.8	1.20e-03	0	44	0	3612344320	12	4202
2026-01-22 16:49:38.84	322.26	7.78	-26.6	-27.6	13.7	4.50e-06	0	44	0	3619684352	13	4036
2026-01-22 16:49:39.84	322.39	7.73	-26.8	-28.0	13.5	3.54e-05	0	44	0	3627024384	13	4126
2026-01-22 16:49:40.85	322.51	7.68	-26.8	-27.9	13.5	1.13e-03	0	44	0	3634364416	13	4114
2026-01-22 16:49:41.85	322.64	7.63	-26.8	-27.9	13.5	1.48e-05	0	44	0	3641704448	13	4105
2026-01-22 16:49:42.85	322.76	7.58	-26.9	-28.3	13.3	1.01e-04	0	44	0	3649044480	13	4208
2026-01-22 16:49:43.86	322.89	7.52	-26.9	-28.3	13.3	1.37e-03	0	44	0	3656384512	13	4202
2026-01-22 16:49:44.86	323.01	7.47	-27.0	-28.5	13.1	1.51e-03	0	44	0	3663724544	13	4266
2026-01-22 16:49:45.87	323.13	7.42	-26.9	-28.3	13.3	1.30e-04	0	44	0	3670016000	13	4205
2026-01-22 16:49:46.88	323.26	7.37	-27.1	-28.6	13.1	1.80e-03	0	44	0	3678404608	13	4311
2026-01-22 16:49:47.88	323.38	7.31	-27.0	-28.6	13.1	1.79e-03	0	44	0	3685744640	13	4286
2026-01-22 16:49:48.89	323.50	7.26	-27.1	-28.2	13.0	1.32e-04	0	44	0	3692036096	14	4095
2026-01-22 16:49:49.89	323.62	7.21	-27.3	-28.6	12.8	1.85e-03	0	44	0	3699376128	14	4197
2026-01-22 16:49:50.89	323.74	7.16	-27.2	-28.4	12.9	2.08e-03	0	44	0	3706716160	14	4148
2026-01-22 16:49:51.90	323.86	7.10	-27.4	-28.8	12.7	4.11e-05	0	44	0	3714056192	14	4259
2026-01-22 16:49:52.90	323.98	7.05	-33.0	-42.1	3.8	8.46e-01	0	44	104	3718250496	25	10333
2026-01-22 16:49:53.90	324.10	7.00	-33.4	-43.2	3.8	8.47e-01	0	44	104	3718250496	26	11113
2026-01-22 16:49:54.90	324.22	6.95	-33.6	-43.2	3.8	8.45e-01	0	44	104	3718250496	27	10806

#Closed at: 2026-01-22 16:49:55
#Recorded file [3718 MB]: D:/data/31010_260122_194117.dat