passes_logs/2026/01/22/R2M6_AANII_01/R2M6_AANII_01__20260122_001411_NOAA_21_JPSS-2_rec.log

#Pass ID: 20260122_001411_NOAA 21 (JPSS-2)
#Satellite: NOAA 21 (JPSS-2)
#Configuration: NOAA 21
#almurnet v.1.7.20240730
#Start time: 2026-01-22 00:14:12

#Version: 2.2.20231116
#Station: R2M6_AANII_01
#Location: 30.233357 lon 59.946436 lat
#TLE: 1 54234U 22150A   26020.93347024  .00000206  00000+0  11859-3 0  9994
#TLE: 2 54234  98.7506 321.7615 0000627 245.8100 114.3011 14.19536899165654

#Time	Az	El	Level	Level2	SNR	BER	BlckErr	Temp	State	Recorded	gain1	gain2
2026-01-22 00:14:12.97	18.67	7.13	-30.8	-36.6	4.5	1.42e+00	0	42	0	0	21	6958
2026-01-22 00:14:13.97	18.68	7.20	-30.8	-36.5	4.5	1.42e+00	0	42	104	0	21	6937
2026-01-22 00:14:14.97	18.69	7.28	-30.9	-35.8	7.7	8.93e-02	0	42	0	0	21	6386
2026-01-22 00:14:15.98	18.70	7.36	-30.9	-36.1	7.5	9.24e-02	0	42	0	3145728	21	6560
2026-01-22 00:14:16.98	18.71	7.44	-30.8	-35.7	7.8	8.73e-02	0	42	0	6291456	21	6299
2026-01-22 00:14:17.99	18.72	7.52	-30.7	-35.3	8.1	6.82e-02	0	42	0	9437184	21	6112
2026-01-22 00:14:18.99	18.73	7.59	-30.6	-35.0	8.4	5.23e-02	0	42	0	12582912	21	5942
2026-01-22 00:14:19.99	18.74	7.67	-30.8	-35.4	8.1	5.03e-02	0	42	0	15728640	21	6127
2026-01-22 00:14:20.99	18.75	7.75	-30.5	-34.6	8.7	3.99e-02	0	42	0	18874368	21	5737
2026-01-22 00:14:22.00	18.76	7.83	-30.4	-34.0	9.1	2.68e-02	0	42	0	22020096	21	5498
2026-01-22 00:14:23.00	18.77	7.91	-29.9	-33.2	10.0	1.10e-02	0	42	0	24117248	20	5258
2026-01-22 00:14:24.01	18.78	7.99	-29.6	-32.7	10.8	3.05e-03	0	42	0	27262976	19	5151
2026-01-22 00:14:25.02	18.79	8.07	-29.4	-32.6	11.2	1.99e-03	0	42	0	30408704	18	5232
2026-01-22 00:14:26.02	18.80	8.15	-29.0	-31.7	11.8	1.32e-03	0	42	0	34603008	18	4894
2026-01-22 00:14:27.02	18.81	8.23	-28.8	-31.5	12.2	2.49e-04	0	42	0	37748736	17	4926
2026-01-22 00:14:28.02	18.82	8.31	-28.6	-31.0	12.5	6.55e-04	0	42	0	40894464	17	4750
2026-01-22 00:14:29.02	18.83	8.39	-28.4	-31.2	12.7	6.23e-04	0	42	0	44040192	16	4938
2026-01-22 00:14:30.03	18.84	8.47	-28.5	-30.9	12.6	8.92e-05	0	42	0	47185920	17	4731
2026-01-22 00:14:31.03	18.85	8.56	-28.6	-31.1	12.5	6.58e-04	0	42	0	49283072	17	4793
2026-01-22 00:14:32.03	18.86	8.64	-28.7	-31.4	12.3	6.94e-04	0	42	0	52428800	17	4883
2026-01-22 00:14:33.03	18.87	8.72	-28.5	-30.9	12.6	1.19e-04	0	42	0	55574528	17	4738
2026-01-22 00:14:34.04	18.88	8.80	-28.4	-31.1	12.8	6.05e-04	0	42	0	58720256	16	4917
2026-01-22 00:14:35.04	18.89	8.88	-28.5	-30.9	12.6	7.24e-05	0	43	0	61865984	17	4720
2026-01-22 00:14:36.05	18.90	8.97	-28.7	-31.2	12.4	9.68e-05	0	43	0	65011712	17	4839
2026-01-22 00:14:37.05	18.91	9.05	-28.4	-30.7	12.8	6.28e-04	0	43	0	68157440	17	4661
2026-01-22 00:14:38.06	18.92	9.13	-28.6	-31.0	12.6	6.19e-04	0	43	0	71303168	17	4764
2026-01-22 00:14:39.06	18.93	9.22	-28.5	-30.8	12.7	6.94e-05	0	42	0	74448896	17	4689
2026-01-22 00:14:40.06	18.94	9.30	-28.2	-30.6	13.1	4.27e-05	0	43	0	77594624	16	4748
2026-01-22 00:14:41.05	18.95	9.39	-28.3	-30.9	13.0	3.20e-05	0	43	0	80740352	16	4822
2026-01-22 00:14:42.06	18.96	9.47	-28.4	-31.1	12.9	4.95e-05	0	43	0	83886080	16	4900
2026-01-22 00:14:43.06	18.97	9.55	-28.3	-30.8	13.0	5.93e-04	0	42	0	87031808	16	4816
2026-01-22 00:14:44.07	18.98	9.64	-28.2	-30.4	13.3	5.57e-04	0	43	0	90177536	16	4684
2026-01-22 00:14:45.07	18.99	9.73	-28.1	-30.3	13.4	1.06e-05	0	42	0	93323264	16	4629
2026-01-22 00:14:46.07	19.00	9.81	-28.1	-30.3	13.3	1.52e-05	0	43	0	96468992	16	4646
2026-01-22 00:14:47.07	19.01	9.90	-28.2	-30.6	13.2	1.98e-05	0	43	0	99614720	16	4728
2026-01-22 00:14:48.07	19.02	9.98	-28.3	-30.7	13.1	2.97e-05	0	43	0	102760448	16	4782
2026-01-22 00:14:49.08	19.03	10.07	-28.0	-30.1	13.5	5.29e-04	0	43	0	105906176	16	4581
2026-01-22 00:14:50.09	19.05	10.16	-28.0	-30.1	13.5	6.10e-06	0	43	0	109051904	16	4584
2026-01-22 00:14:51.08	19.06	10.24	-27.9	-30.4	13.5	9.10e-06	0	43	0	112197632	15	4802
2026-01-22 00:14:52.09	19.07	10.33	-27.9	-30.4	13.5	1.22e-05	0	43	0	115343360	15	4793
2026-01-22 00:14:53.09	19.08	10.42	-27.9	-30.3	13.5	7.00e-07	0	43	0	118489088	15	4775
2026-01-22 00:14:54.10	19.09	10.51	-28.0	-30.5	13.4	8.30e-06	0	43	0	121634816	15	4820
2026-01-22 00:14:55.11	19.10	10.60	-27.8	-30.2	13.6	6.80e-06	0	43	0	124780544	15	4738
2026-01-22 00:14:56.11	19.11	10.69	-27.8	-30.1	13.7	1.22e-05	0	43	0	127926272	15	4701
2026-01-22 00:14:57.11	19.12	10.78	-27.8	-30.2	13.6	5.30e-06	0	43	0	131072000	15	4741
2026-01-22 00:14:58.11	19.13	10.86	-27.8	-30.2	13.6	1.29e-05	0	43	0	134217728	15	4734
2026-01-22 00:14:59.12	19.15	10.95	-27.8	-30.2	13.7	5.32e-04	0	43	0	137363456	15	4717
2026-01-22 00:15:00.12	19.16	11.04	-27.9	-30.4	13.5	7.60e-06	0	43	0	140509184	15	4786
2026-01-22 00:15:01.12	19.17	11.13	-27.8	-30.2	13.7	9.10e-06	0	43	0	143654912	15	4710
2026-01-22 00:15:02.12	19.18	11.23	-27.7	-29.9	13.8	7.00e-07	0	43	0	146800640	15	4640
2026-01-22 00:15:03.13	19.19	11.32	-27.7	-30.0	13.8	5.30e-06	0	43	0	149946368	15	4651
2026-01-22 00:15:04.13	19.20	11.41	-27.8	-30.2	13.7	3.80e-06	0	43	0	153092096	15	4730
2026-01-22 00:15:05.13	19.21	11.50	-27.7	-29.9	13.9	3.00e-06	0	43	0	156237824	15	4623
2026-01-22 00:15:06.13	19.23	11.59	-27.7	-29.9	13.8	1.50e-06	0	43	0	159383552	15	4633
2026-01-22 00:15:07.13	19.24	11.68	-27.7	-29.8	13.9	3.00e-06	0	43	0	162529280	15	4597
2026-01-22 00:15:08.13	19.25	11.78	-27.9	-30.3	13.6	1.14e-05	0	43	0	165675008	15	4746
2026-01-22 00:15:09.14	19.26	11.87	-27.7	-29.8	13.9	6.80e-06	0	43	0	168820736	15	4595
2026-01-22 00:15:10.15	19.27	11.96	-27.6	-29.5	14.1	2.20e-06	0	43	0	171966464	15	4507
2026-01-22 00:15:11.15	19.28	12.06	-27.5	-29.4	14.2	1.50e-06	0	43	0	175112192	15	4459
2026-01-22 00:15:12.16	19.30	12.15	-27.4	-29.6	14.4	4.50e-06	0	43	0	178257920	14	4642
2026-01-22 00:15:13.16	19.31	12.25	-27.4	-29.5	14.4	0.00e+00	0	43	0	181403648	14	4625
2026-01-22 00:15:14.16	19.32	12.34	-27.3	-29.4	14.5	0.00e+00	0	43	0	184549376	14	4569
2026-01-22 00:15:15.16	19.33	12.44	-27.3	-29.3	14.5	7.00e-07	0	43	0	187695104	14	4566
2026-01-22 00:15:16.16	19.34	12.53	-27.2	-29.2	14.6	0.00e+00	0	43	0	190840832	14	4533
2026-01-22 00:15:17.16	19.36	12.63	-27.2	-29.2	14.6	0.00e+00	0	43	0	193986560	14	4529
2026-01-22 00:15:18.16	19.37	12.73	-27.3	-29.4	14.5	0.00e+00	0	43	0	197132288	14	4569
2026-01-22 00:15:19.16	19.38	12.82	-26.7	-28.6	14.7	0.00e+00	0	43	0	200278016	14	4459
2026-01-22 00:15:20.17	19.39	12.92	-27.2	-29.1	14.7	7.00e-07	0	43	0	203423744	14	4490
2026-01-22 00:15:21.17	19.40	13.02	-27.3	-29.3	13.2	3.69e-03	0	43	0	206569472	14	4546
2026-01-22 00:15:22.17	19.42	13.12	-27.2	-29.1	14.7	2.77e-04	0	43	0	209715200	14	4477
2026-01-22 00:15:23.18	19.43	13.21	-27.1	-28.9	14.9	0.00e+00	0	43	0	212860928	14	4418
2026-01-22 00:15:24.19	19.44	13.31	-27.0	-28.8	14.9	0.00e+00	0	43	0	216006656	14	4399
2026-01-22 00:15:25.19	19.45	13.41	-27.1	-29.0	14.8	0.00e+00	0	43	0	219152384	14	4465
2026-01-22 00:15:26.19	19.47	13.51	-27.0	-28.8	14.9	4.11e-03	0	43	0	222298112	14	4391
2026-01-22 00:15:27.19	19.48	13.61	-27.0	-28.8	14.9	3.99e-03	0	43	0	225443840	14	4392
2026-01-22 00:15:28.19	19.49	13.71	-27.1	-28.8	14.9	0.00e+00	0	43	0	228589568	14	4411
2026-01-22 00:15:29.20	19.50	13.81	-27.1	-28.8	14.9	0.00e+00	0	43	0	231735296	14	4404
2026-01-22 00:15:30.20	19.52	13.92	-27.0	-28.8	14.9	0.00e+00	0	43	0	234881024	14	4392
2026-01-22 00:15:31.21	19.53	14.02	-27.2	-29.1	14.7	2.27e-04	0	43	0	238026752	14	4493
2026-01-22 00:15:32.21	19.54	14.12	-27.1	-28.8	14.9	3.59e-03	0	43	0	241172480	14	4406
2026-01-22 00:15:33.21	19.56	14.22	-27.1	-29.0	14.8	3.95e-03	0	43	0	244318208	14	4444
2026-01-22 00:15:34.21	19.57	14.32	-27.2	-29.1	14.8	0.00e+00	0	43	0	247463936	14	4475
2026-01-22 00:15:35.21	19.58	14.43	-27.1	-28.9	14.9	0.00e+00	0	43	0	250609664	14	4423
2026-01-22 00:15:36.22	19.59	14.53	-27.0	-28.7	15.0	3.81e-03	0	43	0	253755392	14	4378
2026-01-22 00:15:37.22	19.61	14.64	-27.1	-29.0	14.8	1.62e-04	0	44	0	256901120	14	4464
2026-01-22 00:15:38.22	19.62	14.74	-27.1	-28.9	14.9	3.87e-03	0	43	0	260046848	14	4421
2026-01-22 00:15:39.23	19.63	14.85	-27.0	-28.7	15.0	3.52e-03	0	43	0	263192576	14	4379
2026-01-22 00:15:40.23	19.65	14.95	-27.1	-28.9	14.9	1.76e-04	0	43	0	266338304	14	4426
2026-01-22 00:15:41.23	19.66	15.06	-27.1	-28.8	15.0	3.51e-03	0	43	0	269484032	14	4398
2026-01-22 00:15:42.24	19.67	15.17	-27.1	-28.9	14.9	3.98e-03	0	43	0	272629760	14	4442
2026-01-22 00:15:43.25	19.69	15.27	-27.0	-28.7	15.0	1.72e-04	0	43	0	275775488	14	4361
2026-01-22 00:15:44.26	19.70	15.38	-27.1	-28.9	14.9	3.94e-03	0	43	0	278921216	14	4424
2026-01-22 00:15:45.26	19.72	15.49	-27.2	-29.2	14.8	3.89e-03	0	44	0	282066944	14	4510
2026-01-22 00:15:46.27	19.73	15.60	-27.1	-29.0	14.9	1.84e-04	0	44	0	285212672	14	4453
2026-01-22 00:15:47.27	19.74	15.71	-27.2	-29.2	14.8	3.86e-03	0	44	0	288358400	14	4499
2026-01-22 00:15:48.27	19.76	15.82	-27.2	-29.1	14.8	3.61e-03	0	44	0	291504128	14	4480
2026-01-22 00:15:49.27	19.77	15.93	-27.1	-29.0	14.9	1.73e-04	0	43	0	294649856	14	4444
2026-01-22 00:15:50.27	19.79	16.04	-27.2	-29.1	14.8	0.00e+00	0	43	0	297795584	14	4479
2026-01-22 00:15:51.28	19.80	16.15	-27.2	-29.0	14.9	1.50e-06	0	44	0	300941312	14	4460
2026-01-22 00:15:52.27	19.81	16.26	-27.2	-29.0	14.9	1.46e-04	0	44	0	304087040	14	4462
2026-01-22 00:15:53.27	19.83	16.37	-27.3	-29.3	14.8	4.14e-03	0	44	0	307232768	14	4531
2026-01-22 00:15:54.28	19.84	16.49	-27.3	-29.3	14.7	3.84e-03	0	44	0	310378496	14	4544
2026-01-22 00:15:55.28	19.86	16.60	-27.3	-29.2	14.8	0.00e+00	0	44	0	313524224	14	4526
2026-01-22 00:15:56.28	19.87	16.71	-27.3	-29.4	14.7	0.00e+00	0	44	0	316669952	14	4571
2026-01-22 00:15:57.28	19.89	16.83	-27.3	-29.3	14.7	3.63e-03	0	44	0	319815680	14	4555
2026-01-22 00:15:58.28	19.90	16.94	-27.4	-29.5	14.6	5.11e-05	0	44	0	322961408	14	4602
2026-01-22 00:15:59.29	19.91	17.06	-27.3	-29.4	14.7	7.00e-07	0	44	0	325058560	14	4569
2026-01-22 00:16:00.29	19.93	17.17	-27.4	-29.5	14.7	0.00e+00	0	44	0	328204288	14	4589
2026-01-22 00:16:01.29	19.94	17.29	-27.5	-29.7	14.5	0.00e+00	0	44	0	331350016	14	4660
2026-01-22 00:16:02.30	19.96	17.41	-27.3	-29.4	14.7	0.00e+00	0	44	0	334495744	14	4582
2026-01-22 00:16:03.29	19.97	17.52	-27.2	-29.2	14.8	3.82e-03	0	44	0	337641472	14	4503
2026-01-22 00:16:04.29	19.99	17.64	-27.3	-29.3	14.8	0.00e+00	0	44	0	340787200	14	4539
2026-01-22 00:16:05.29	20.00	17.76	-27.3	-29.2	14.8	0.00e+00	0	44	0	343932928	14	4512
2026-01-22 00:16:06.29	20.02	17.88	-27.3	-29.4	14.7	0.00e+00	0	44	0	347078656	14	4556
2026-01-22 00:16:07.29	20.04	18.00	-27.2	-29.1	14.9	0.00e+00	0	44	0	350224384	14	4475
2026-01-22 00:16:08.29	20.05	18.12	-27.2	-29.0	15.0	3.59e-03	0	44	0	353370112	14	4453
2026-01-22 00:16:09.29	20.07	18.24	-27.2	-29.2	14.9	0.00e+00	0	44	0	356515840	14	4502
2026-01-22 00:16:10.29	20.08	18.36	-27.1	-28.9	15.0	0.00e+00	0	44	0	359661568	14	4423
2026-01-22 00:16:11.29	20.10	18.48	-27.2	-29.0	15.0	0.00e+00	0	44	0	362807296	14	4450
2026-01-22 00:16:12.30	20.11	18.60	-27.2	-29.2	14.9	0.00e+00	0	44	0	365953024	14	4504
2026-01-22 00:16:13.30	20.13	18.73	-27.2	-29.0	15.0	7.40e-05	0	43	0	369098752	14	4445
2026-01-22 00:16:14.30	20.15	18.85	-27.2	-29.1	14.9	0.00e+00	0	44	0	372244480	14	4469
2026-01-22 00:16:15.31	20.16	18.98	-27.1	-29.0	15.0	0.00e+00	0	44	0	375390208	14	4434
2026-01-22 00:16:16.31	20.18	19.10	-27.2	-29.0	15.0	0.00e+00	0	44	0	378535936	14	4447
2026-01-22 00:16:17.32	20.19	19.23	-27.3	-29.2	14.9	0.00e+00	0	44	0	381681664	14	4512
2026-01-22 00:16:18.32	20.21	19.35	-27.1	-28.9	15.0	0.00e+00	0	44	0	384827392	14	4431
2026-01-22 00:16:19.32	20.23	19.48	-27.1	-28.7	15.2	6.62e-04	0	44	0	387973120	14	4375
2026-01-22 00:16:20.32	20.24	19.61	-27.1	-28.9	15.1	0.00e+00	0	44	0	391118848	14	4414
2026-01-22 00:16:21.33	20.26	19.74	-27.1	-28.9	15.1	0.00e+00	0	44	0	394264576	14	4417
2026-01-22 00:16:22.32	20.28	19.86	-27.0	-28.7	15.2	7.00e-07	0	44	0	397410304	14	4350
2026-01-22 00:16:23.32	20.29	19.99	-27.0	-28.7	15.2	0.00e+00	0	44	0	400556032	14	4365
2026-01-22 00:16:24.33	20.31	20.13	-27.0	-28.6	15.2	6.55e-04	0	44	0	403701760	14	4344
2026-01-22 00:16:25.33	20.33	20.26	-26.9	-28.4	15.4	0.00e+00	0	44	0	406847488	14	4272
2026-01-22 00:16:26.33	20.35	20.39	-26.8	-28.8	15.4	0.00e+00	0	44	0	409993216	13	4490
2026-01-22 00:16:27.33	20.36	20.52	-26.8	-28.7	15.5	0.00e+00	0	44	0	413138944	13	4481
2026-01-22 00:16:28.34	20.38	20.65	-26.8	-28.8	15.5	0.00e+00	0	44	0	416284672	13	4488
2026-01-22 00:16:29.34	20.40	20.79	-26.7	-28.5	15.6	0.00e+00	0	44	0	419430400	13	4418
2026-01-22 00:16:30.35	20.42	20.92	-26.7	-28.5	15.6	7.07e-04	0	44	0	422576128	13	4413
2026-01-22 00:16:31.35	20.44	21.06	-26.7	-28.4	15.6	0.00e+00	0	44	0	425721856	13	4394
2026-01-22 00:16:32.36	20.45	21.20	-26.6	-28.3	15.7	0.00e+00	0	44	0	428867584	13	4345
2026-01-22 00:16:33.36	20.47	21.33	-26.6	-28.3	15.7	0.00e+00	0	44	0	432013312	13	4347
2026-01-22 00:16:34.37	20.49	21.47	-26.6	-28.2	15.8	6.68e-04	0	44	0	435159040	13	4337
2026-01-22 00:16:35.37	20.51	21.61	-26.7	-28.4	15.7	0.00e+00	0	44	0	438304768	13	4371
2026-01-22 00:16:36.37	20.53	21.75	-26.8	-28.8	15.5	5.80e-04	0	44	0	441450496	13	4487
2026-01-22 00:16:37.37	20.55	21.89	-26.9	-28.8	15.5	0.00e+00	0	44	0	444596224	13	4493
2026-01-22 00:16:38.37	20.56	22.03	-26.8	-28.6	15.6	0.00e+00	0	44	0	447741952	13	4428
2026-01-22 00:16:39.37	20.58	22.17	-26.7	-28.5	15.6	6.43e-04	0	44	0	450887680	13	4421
2026-01-22 00:16:40.37	20.60	22.31	-26.8	-28.6	15.6	6.20e-04	0	44	0	454033408	13	4424
2026-01-22 00:16:41.37	20.62	22.45	-26.8	-28.7	15.5	0.00e+00	0	44	0	457179136	13	4455
2026-01-22 00:16:42.37	20.64	22.60	-26.7	-28.5	15.7	0.00e+00	0	44	0	460324864	13	4398
2026-01-22 00:16:43.38	20.66	22.74	-26.8	-28.6	15.6	0.00e+00	0	44	0	463470592	13	4442
2026-01-22 00:16:44.38	20.68	22.89	-26.6	-28.2	15.8	0.00e+00	0	44	0	466616320	13	4319
2026-01-22 00:16:45.38	20.70	23.03	-26.3	-28.1	16.1	5.42e-04	0	44	0	469762048	12	4415
2026-01-22 00:16:46.39	20.72	23.18	-26.2	-27.8	16.3	5.53e-04	0	44	0	472907776	12	4316
2026-01-22 00:16:47.40	20.74	23.33	-26.1	-27.6	16.4	0.00e+00	0	44	0	476053504	12	4270
2026-01-22 00:16:48.40	20.76	23.48	-26.1	-27.5	16.5	0.00e+00	0	44	0	479199232	12	4243
2026-01-22 00:16:49.40	20.78	23.63	-26.0	-27.4	16.5	5.07e-04	0	44	0	482344960	12	4224
2026-01-22 00:16:50.41	20.80	23.78	-25.9	-27.2	16.6	0.00e+00	0	44	0	485490688	12	4166
2026-01-22 00:16:51.40	20.82	23.93	-25.9	-27.1	16.7	4.73e-04	0	44	0	488636416	12	4143
2026-01-22 00:16:52.40	20.84	24.08	-26.0	-27.2	16.6	4.96e-04	0	44	0	491782144	12	4179
2026-01-22 00:16:53.40	20.86	24.24	-26.0	-27.4	16.6	0.00e+00	0	44	0	494927872	12	4210
2026-01-22 00:16:54.41	20.88	24.39	-26.0	-27.3	16.6	4.83e-04	0	44	0	498073600	12	4199
2026-01-22 00:16:55.41	20.91	24.55	-26.0	-27.4	16.6	5.11e-04	0	44	0	501219328	12	4209
2026-01-22 00:16:56.41	20.93	24.70	-26.0	-27.4	16.6	0.00e+00	0	44	0	504365056	12	4219
2026-01-22 00:16:57.41	20.95	24.86	-26.1	-27.5	16.5	4.64e-04	0	44	0	507510784	12	4255
2026-01-22 00:16:58.41	20.97	25.02	-26.1	-27.6	16.5	4.91e-04	0	44	0	510656512	12	4280
2026-01-22 00:16:59.42	20.99	25.18	-26.1	-27.7	16.4	0.00e+00	0	44	0	513802240	12	4283
2026-01-22 00:17:00.42	21.01	25.34	-26.2	-27.9	16.3	4.52e-04	0	44	0	516947968	12	4350
2026-01-22 00:17:01.42	21.04	25.50	-26.3	-28.1	16.2	4.84e-04	0	44	0	520093696	12	4397
2026-01-22 00:17:02.42	21.06	25.66	-26.4	-28.2	16.2	0.00e+00	0	44	0	523239424	12	4429
2026-01-22 00:17:03.43	21.08	25.82	-26.5	-28.4	16.0	4.26e-04	0	44	0	526385152	12	4505
2026-01-22 00:17:04.43	21.11	25.98	-26.6	-28.3	13.5	0.00e+00	0	44	0	529530880	13	4343
2026-01-22 00:17:05.44	21.13	26.15	-26.8	-28.5	13.5	0.00e+00	0	44	0	532676608	13	4405
2026-01-22 00:17:06.45	21.15	26.32	-26.7	-28.3	15.8	3.37e-04	0	44	0	535822336	13	4359
2026-01-22 00:17:07.46	21.18	26.49	-26.7	-28.4	15.8	3.23e-04	0	44	0	538968064	13	4386
2026-01-22 00:17:08.45	21.20	26.65	-26.9	-28.8	15.6	0.00e+00	0	44	0	542113792	13	4486
2026-01-22 00:17:09.46	21.22	26.82	-26.9	-28.7	15.6	0.00e+00	0	44	0	545259520	13	4472
2026-01-22 00:17:10.47	21.25	26.99	-26.9	-28.9	15.6	2.46e-04	0	44	0	548405248	13	4507
2026-01-22 00:17:11.47	21.27	27.16	-27.0	-29.0	15.5	0.00e+00	0	44	0	551550976	13	4547
2026-01-22 00:17:12.47	21.30	27.33	-27.0	-28.7	15.4	2.15e-04	0	44	0	554696704	14	4339
2026-01-22 00:17:13.48	21.32	27.51	-27.2	-29.0	15.2	1.79e-04	0	44	0	557842432	14	4434
2026-01-22 00:17:14.48	21.35	27.68	-27.2	-29.0	15.2	3.06e-03	0	44	0	560988160	14	4444
2026-01-22 00:17:15.47	21.37	27.86	-27.2	-28.9	15.3	0.00e+00	0	44	0	564133888	14	4412
2026-01-22 00:17:16.48	21.40	28.03	-27.3	-29.2	15.2	3.01e-03	0	44	0	567279616	14	4483
2026-01-22 00:17:17.49	21.42	28.21	-27.3	-29.2	15.1	0.00e+00	0	44	0	570425344	14	4505
2026-01-22 00:17:18.49	21.45	28.39	-27.5	-29.6	15.0	1.26e-04	0	44	0	573571072	14	4602
2026-01-22 00:17:19.49	21.48	28.57	-27.7	-29.7	14.6	2.78e-03	0	44	0	576716800	15	4519
2026-01-22 00:17:20.50	21.50	28.75	-27.7	-29.7	14.6	2.81e-03	0	44	0	578813952	15	4522
2026-01-22 00:17:21.50	21.53	28.94	-27.5	-29.2	14.9	0.00e+00	0	44	0	581959680	15	4392
2026-01-22 00:17:22.51	21.56	29.12	-27.5	-29.2	14.9	8.69e-05	0	44	0	585105408	15	4374
2026-01-22 00:17:23.51	21.58	29.30	-27.4	-29.5	15.0	0.00e+00	0	44	0	588251136	14	4572
2026-01-22 00:17:24.52	21.61	29.49	-27.4	-29.6	15.0	0.00e+00	0	44	0	591396864	14	4611
2026-01-22 00:17:25.52	21.64	29.68	-27.4	-29.5	15.1	2.50e-03	0	44	0	595591168	14	4569
2026-01-22 00:17:26.53	21.67	29.87	-27.4	-29.6	15.0	2.33e-03	0	44	0	598736896	14	4606
2026-01-22 00:17:27.53	21.70	30.06	-27.5	-29.1	15.0	0.00e+00	0	44	0	601882624	15	4353
2026-01-22 00:17:28.53	21.73	30.25	-27.2	-29.0	15.3	2.30e-03	0	44	0	603979776	14	4441
2026-01-22 00:17:29.53	21.75	30.44	-27.0	-28.6	15.6	2.12e-03	0	44	0	607125504	14	4309
2026-01-22 00:17:30.52	21.78	30.63	-26.9	-28.3	15.7	0.00e+00	0	44	0	610271232	14	4245
2026-01-22 00:17:31.52	21.81	30.83	-26.8	-28.7	15.8	1.91e-03	0	44	0	613416960	13	4446
2026-01-22 00:17:32.52	21.84	31.02	-26.8	-28.7	15.8	1.65e-03	0	44	0	616562688	13	4448
2026-01-22 00:17:33.53	21.87	31.22	-26.7	-28.3	16.0	0.00e+00	0	44	0	619708416	13	4337
2026-01-22 00:17:34.53	21.90	31.42	-26.7	-28.3	16.0	1.44e-03	0	44	0	622854144	13	4330
2026-01-22 00:17:35.54	21.94	31.62	-26.8	-28.5	15.9	1.50e-03	0	44	0	625999872	13	4391
2026-01-22 00:17:36.54	21.97	31.82	-27.0	-29.0	15.6	0.00e+00	0	44	0	629145600	13	4537
2026-01-22 00:17:37.54	22.00	32.02	-27.2	-29.1	15.3	9.97e-04	0	44	0	632291328	14	4453
2026-01-22 00:17:38.54	22.03	32.23	-27.4	-29.4	15.2	0.00e+00	0	44	0	635437056	14	4532
2026-01-22 00:17:39.54	22.06	32.43	-27.3	-29.1	15.3	0.00e+00	0	44	0	638582784	14	4463
2026-01-22 00:17:40.54	22.09	32.64	-27.5	-29.1	15.0	9.06e-04	0	44	0	641728512	15	4357
2026-01-22 00:17:41.55	22.13	32.85	-27.3	-29.3	15.2	9.53e-04	0	44	0	644874240	14	4502
2026-01-22 00:17:42.55	22.16	33.06	-27.2	-29.0	15.4	0.00e+00	0	44	0	648019968	14	4428
2026-01-22 00:17:43.55	22.19	33.27	-27.2	-29.0	15.4	0.00e+00	0	44	0	651165696	14	4440
2026-01-22 00:17:44.55	22.23	33.48	-27.3	-29.2	15.3	0.00e+00	0	44	0	654311424	14	4479
2026-01-22 00:17:45.55	22.26	33.70	-27.3	-29.3	15.2	0.00e+00	0	44	0	657457152	14	4506
2026-01-22 00:17:46.55	22.30	33.91	-27.4	-29.5	15.1	1.66e-03	0	44	0	660602880	14	4568
2026-01-22 00:17:47.55	22.33	34.13	-27.6	-29.5	14.9	1.47e-03	0	44	0	663748608	15	4446
2026-01-22 00:17:48.55	22.37	34.35	-27.7	-29.7	14.7	0.00e+00	0	44	0	666894336	15	4521
2026-01-22 00:17:49.56	22.41	34.57	-27.6	-29.5	14.9	0.00e+00	0	44	0	670040064	15	4456
2026-01-22 00:17:50.56	22.44	34.79	-27.6	-29.4	14.9	1.23e-03	0	44	0	673185792	15	4438
2026-01-22 00:17:51.56	22.48	35.01	-27.8	-29.7	14.7	2.20e-06	0	44	0	676331520	15	4528
2026-01-22 00:17:52.57	22.52	35.24	-27.9	-30.1	14.5	0.00e+00	0	44	0	679477248	15	4629
2026-01-22 00:17:53.57	22.56	35.47	-27.9	-30.2	14.5	7.00e-07	0	44	0	682622976	15	4654
2026-01-22 00:17:54.58	22.59	35.70	-28.2	-30.4	14.3	7.00e-07	0	44	0	685768704	16	4589
2026-01-22 00:17:55.58	22.63	35.93	-28.2	-30.1	14.4	1.50e-06	0	44	0	688914432	16	4521
2026-01-22 00:17:56.58	22.67	36.16	-28.4	-30.8	14.0	1.50e-06	0	44	0	692060160	16	4729
2026-01-22 00:17:57.58	22.71	36.39	-28.5	-30.4	14.0	2.20e-06	0	44	0	695205888	17	4480
2026-01-22 00:17:58.58	22.75	36.62	-28.5	-30.3	14.0	3.00e-06	0	44	0	698351616	17	4473
2026-01-22 00:17:59.58	22.79	36.86	-28.5	-30.8	14.0	0.00e+00	0	44	0	701497344	16	4734
2026-01-22 00:18:00.58	22.84	37.10	-28.6	-30.7	13.8	6.80e-06	0	44	0	704643072	17	4591
2026-01-22 00:18:01.58	22.88	37.34	-28.7	-31.0	13.6	6.80e-06	0	44	0	707788800	17	4682
2026-01-22 00:18:02.58	22.92	37.58	-28.8	-31.1	13.6	7.60e-06	0	44	0	710934528	17	4700
2026-01-22 00:18:03.58	22.96	37.82	-28.7	-30.8	13.7	4.50e-06	0	44	0	714080256	17	4611
2026-01-22 00:18:04.59	23.01	38.07	-28.7	-31.0	13.6	8.30e-06	0	44	0	717225984	17	4666
2026-01-22 00:18:05.60	23.05	38.32	-28.7	-31.0	13.6	9.10e-06	0	44	0	720371712	17	4666
2026-01-22 00:18:06.60	23.10	38.57	-28.8	-31.1	13.6	9.10e-06	0	44	0	723517440	17	4690
2026-01-22 00:18:07.60	23.14	38.82	-28.7	-30.9	13.7	4.50e-06	0	44	0	726663168	17	4641
2026-01-22 00:18:08.60	23.19	39.07	-28.5	-30.5	13.9	6.10e-06	0	44	0	729808896	17	4519
2026-01-22 00:18:09.61	23.24	39.33	-28.4	-30.1	14.1	7.00e-07	0	44	0	732954624	17	4407
2026-01-22 00:18:10.61	23.29	39.58	-28.4	-30.1	14.2	7.00e-07	0	44	0	736100352	17	4399
2026-01-22 00:18:11.62	23.33	39.84	-28.4	-30.2	14.2	7.00e-07	0	44	0	739246080	17	4420
2026-01-22 00:18:12.63	23.38	40.11	-28.6	-30.6	13.9	3.80e-06	0	44	0	742391808	17	4549
2026-01-22 00:18:13.64	23.43	40.37	-28.7	-30.8	13.8	2.20e-06	0	44	0	745537536	17	4624
2026-01-22 00:18:14.64	23.48	40.63	-28.8	-31.2	13.6	8.30e-06	0	44	0	748683264	17	4726
2026-01-22 00:18:15.65	23.54	40.90	-28.9	-31.4	13.4	6.80e-06	0	44	0	751828992	17	4814
2026-01-22 00:18:16.65	23.59	41.17	-29.0	-31.2	13.3	1.67e-05	0	44	0	754974720	18	4620
2026-01-22 00:18:17.65	23.64	41.44	-29.3	-31.8	12.9	3.35e-05	0	44	0	758120448	18	4798
2026-01-22 00:18:18.65	23.70	41.71	-29.4	-32.0	12.8	6.33e-05	0	44	0	761266176	18	4890
2026-01-22 00:18:19.66	23.75	41.99	-29.4	-32.1	12.7	8.62e-05	0	44	0	764411904	18	4925
2026-01-22 00:18:20.66	23.81	42.26	-29.5	-31.8	12.6	9.68e-05	0	44	0	767557632	19	4712
2026-01-22 00:18:21.66	23.86	42.54	-29.7	-32.3	12.3	1.56e-04	0	44	0	770703360	19	4885
2026-01-22 00:18:22.67	23.92	42.82	-29.8	-32.6	12.1	2.81e-04	0	44	0	773849088	19	4986
2026-01-22 00:18:23.67	23.98	43.10	-29.8	-32.7	12.0	2.39e-04	0	44	0	776994816	19	5013
2026-01-22 00:18:24.68	24.04	43.39	-29.8	-32.7	12.1	3.43e-04	0	44	0	780140544	19	5004
2026-01-22 00:18:25.68	24.10	43.68	-30.0	-32.6	11.8	4.43e-04	0	44	0	783286272	20	4866
2026-01-22 00:18:26.69	24.16	43.97	-30.0	-32.7	11.7	5.43e-04	0	44	0	786432000	20	4921
2026-01-22 00:18:27.70	24.22	44.26	-30.0	-32.7	11.6	6.68e-04	0	44	0	789577728	20	4921
2026-01-22 00:18:28.70	24.29	44.55	-30.1	-33.0	11.5	8.92e-04	0	44	0	792723456	20	5012
2026-01-22 00:18:29.71	24.35	44.85	-30.2	-33.1	11.4	8.07e-04	0	44	0	795869184	20	5068
2026-01-22 00:18:30.71	24.42	45.15	-30.0	-32.7	11.6	6.89e-04	0	44	0	799014912	20	4926
2026-01-22 00:18:31.72	24.49	45.45	-29.9	-32.5	11.8	5.46e-04	0	44	0	802160640	20	4845
2026-01-22 00:18:32.72	24.55	45.75	-29.8	-32.1	12.1	3.97e-04	0	44	0	805306368	20	4703
2026-01-22 00:18:33.73	24.62	46.06	-29.9	-32.5	11.9	3.02e-04	0	44	0	808452096	20	4859
2026-01-22 00:18:34.73	24.70	46.36	-29.9	-32.4	11.9	4.30e-04	0	44	0	811597824	20	4804
2026-01-22 00:18:35.73	24.77	46.67	-29.9	-32.4	11.9	3.42e-04	0	44	0	814743552	20	4820
2026-01-22 00:18:36.73	24.84	46.98	-30.0	-32.8	11.7	5.68e-04	0	44	0	817889280	20	4938
2026-01-22 00:18:37.74	24.92	47.30	-30.0	-32.6	11.8	5.41e-04	0	44	0	821035008	20	4871
2026-01-22 00:18:38.74	24.99	47.61	-29.6	-31.8	12.3	2.38e-04	0	44	0	824180736	20	4596
2026-01-22 00:18:39.74	25.07	47.93	-29.4	-31.1	12.7	1.01e-04	0	44	0	827326464	20	4404
2026-01-22 00:18:40.74	25.15	48.25	-29.2	-31.1	13.1	3.43e-05	0	44	0	830472192	19	4490
2026-01-22 00:18:41.74	25.23	48.57	-29.1	-30.8	13.3	1.44e-05	0	44	0	833617920	19	4400
2026-01-22 00:18:42.76	25.31	48.90	-29.2	-31.1	13.1	2.89e-05	0	44	0	836763648	19	4482
2026-01-22 00:18:43.76	25.40	49.23	-29.0	-30.5	13.5	1.83e-05	0	44	0	839909376	19	4310
2026-01-22 00:18:44.76	25.48	49.56	-28.7	-30.4	13.9	6.80e-06	0	44	0	843055104	18	4368
2026-01-22 00:18:45.76	25.57	49.89	-28.6	-30.1	14.1	3.00e-06	0	44	0	846200832	18	4289
2026-01-22 00:18:46.77	25.66	50.22	-28.7	-30.3	14.0	3.00e-06	0	44	0	849346560	18	4332
2026-01-22 00:18:47.77	25.75	50.56	-28.6	-30.5	14.1	2.20e-06	0	44	0	852492288	17	4506
2026-01-22 00:18:48.78	25.85	50.90	-28.4	-30.1	14.3	3.75e-04	0	44	0	855638016	17	4385
2026-01-22 00:18:49.78	25.94	51.24	-28.3	-29.8	14.4	7.00e-07	0	44	0	858783744	17	4293
2026-01-22 00:18:50.78	26.04	51.59	-28.3	-29.9	14.5	0.00e+00	0	44	0	861929472	17	4333
2026-01-22 00:18:51.78	26.14	51.93	-28.3	-29.9	14.5	0.00e+00	0	44	0	865075200	17	4334
2026-01-22 00:18:52.79	26.24	52.28	-28.3	-29.9	14.5	0.00e+00	0	44	0	868220928	17	4315
2026-01-22 00:18:53.79	26.35	52.63	-28.4	-30.0	14.4	0.00e+00	0	44	0	871366656	17	4355
2026-01-22 00:18:54.79	26.46	52.99	-28.1	-29.4	14.8	7.00e-07	0	44	0	874512384	17	4186
2026-01-22 00:18:55.79	26.56	53.34	-27.8	-29.3	15.1	0.00e+00	0	44	0	877658112	16	4259
2026-01-22 00:18:56.79	26.68	53.70	-27.6	-28.9	15.4	0.00e+00	0	44	0	879755264	16	4143
2026-01-22 00:18:57.79	26.79	54.06	-27.6	-28.8	15.4	0.00e+00	0	44	0	882900992	16	4132
2026-01-22 00:18:58.79	26.91	54.42	-27.5	-28.6	15.5	0.00e+00	0	44	0	886046720	16	4059
2026-01-22 00:18:59.79	27.03	54.79	-27.7	-28.9	15.4	0.00e+00	0	44	0	889192448	16	4157
2026-01-22 00:19:00.80	27.15	55.16	-27.6	-28.8	15.4	0.00e+00	0	44	0	892338176	16	4132
2026-01-22 00:19:01.80	27.28	55.53	-27.5	-28.6	15.5	0.00e+00	0	44	0	895483904	16	4074
2026-01-22 00:19:02.80	27.41	55.90	-27.5	-28.6	15.6	0.00e+00	0	44	0	898629632	16	4066
2026-01-22 00:19:03.81	27.55	56.28	-27.7	-29.1	15.2	0.00e+00	0	44	0	901775360	16	4217
2026-01-22 00:19:04.81	27.68	56.66	-27.8	-29.2	15.2	0.00e+00	0	44	0	904921088	16	4246
2026-01-22 00:19:05.81	27.82	57.04	-27.6	-28.9	15.4	0.00e+00	0	44	0	908066816	16	4157
2026-01-22 00:19:06.82	27.97	57.42	-27.3	-28.2	15.7	0.00e+00	0	44	0	911212544	16	3980
2026-01-22 00:19:07.82	28.12	57.81	-26.9	-27.7	16.2	0.00e+00	0	44	0	914358272	15	3941
2026-01-22 00:19:08.82	28.27	58.20	-26.8	-27.6	16.2	0.00e+00	0	44	0	917504000	15	3915
2026-01-22 00:19:09.82	28.43	58.58	-27.0	-28.0	16.0	1.43e-04	0	44	0	920649728	15	4028
2026-01-22 00:19:10.82	28.59	58.98	-26.8	-27.9	16.3	1.56e-04	0	44	0	923795456	14	4106
2026-01-22 00:19:11.83	28.76	59.37	-26.7	-27.7	16.4	0.00e+00	0	44	0	926941184	14	4050
2026-01-22 00:19:12.83	28.93	59.77	-26.7	-27.9	16.4	1.32e-04	0	44	0	930086912	14	4106
2026-01-22 00:19:13.84	29.11	60.17	-26.5	-27.3	16.7	8.01e-05	0	44	0	933232640	14	3954
2026-01-22 00:19:14.84	29.29	60.57	-26.4	-27.1	16.8	0.00e+00	0	44	0	936378368	14	3904
2026-01-22 00:19:15.85	29.48	60.98	-26.4	-27.2	16.7	4.57e-05	0	44	0	939524096	14	3926
2026-01-22 00:19:16.85	29.68	61.39	-26.2	-27.2	17.0	2.97e-05	0	44	0	942669824	13	4030
2026-01-22 00:19:17.86	29.88	61.80	-25.9	-26.6	17.3	0.00e+00	0	44	0	945815552	13	3871
2026-01-22 00:19:18.86	30.09	62.21	-25.8	-26.8	17.5	0.00e+00	0	44	0	948961280	12	4033
2026-01-22 00:19:19.87	30.30	62.63	-25.7	-26.7	17.5	0.00e+00	0	44	0	952107008	12	4021
2026-01-22 00:19:20.87	30.52	63.04	-25.6	-26.5	17.6	0.00e+00	0	44	0	955252736	12	3980
2026-01-22 00:19:21.87	30.75	63.46	-25.7	-26.6	17.6	0.00e+00	0	44	0	958398464	12	3994
2026-01-22 00:19:22.87	30.99	63.88	-25.7	-26.5	17.7	0.00e+00	0	44	0	961544192	12	3960
2026-01-22 00:19:23.88	31.24	64.30	-25.7	-26.6	17.6	0.00e+00	0	44	0	964689920	12	3994
2026-01-22 00:19:24.88	31.50	64.72	-25.7	-26.6	17.6	5.26e-05	0	44	0	967835648	12	3983
2026-01-22 00:19:25.87	31.76	65.14	-25.7	-26.6	17.6	1.07e-04	0	44	0	970981376	12	3991
2026-01-22 00:19:26.88	32.04	65.58	-25.9	-27.0	17.4	0.00e+00	0	44	0	974127104	12	4089
2026-01-22 00:19:27.88	32.32	66.00	-25.9	-27.1	17.4	0.00e+00	0	44	0	977272832	12	4110
2026-01-22 00:19:28.88	32.62	66.43	-26.0	-27.6	17.4	0.00e+00	0	44	0	980418560	11	4367
2026-01-22 00:19:29.88	32.93	66.87	-25.5	-26.7	17.9	0.00e+00	0	44	0	983564288	11	4118
2026-01-22 00:19:30.88	33.25	67.30	-25.5	-26.6	17.9	7.59e-04	0	44	0	986710016	11	4090
2026-01-22 00:19:31.88	33.59	67.73	-25.7	-27.2	17.7	0.00e+00	0	44	0	989855744	11	4239
2026-01-22 00:19:32.89	33.94	68.18	-25.7	-27.1	17.7	0.00e+00	0	44	0	993001472	11	4219
2026-01-22 00:19:33.90	34.31	68.62	-26.0	-27.2	17.3	0.00e+00	0	44	0	996147200	12	4141
2026-01-22 00:19:34.90	34.69	69.06	-25.9	-27.0	17.4	0.00e+00	0	44	0	999292928	12	4100
2026-01-22 00:19:35.90	35.09	69.50	-25.8	-26.7	17.6	0.00e+00	0	44	0	1002438656	12	4011
2026-01-22 00:19:36.91	35.52	69.94	-25.7	-26.6	17.7	0.00e+00	0	44	0	1005584384	12	3981
2026-01-22 00:19:37.91	35.95	70.39	-26.0	-27.6	17.4	0.00e+00	0	44	0	1008730112	11	4362
2026-01-22 00:19:38.91	36.42	70.83	-25.7	-27.1	17.7	5.30e-06	0	44	0	1011875840	11	4224
2026-01-22 00:19:39.91	36.90	71.27	-25.6	-26.9	17.8	0.00e+00	0	44	0	1015021568	11	4172
2026-01-22 00:19:40.90	37.40	71.72	-25.8	-27.3	17.6	4.38e-04	0	44	0	1018167296	11	4277
2026-01-22 00:19:41.91	37.94	72.17	-25.6	-26.9	17.9	0.00e+00	0	44	0	1021313024	11	4178
2026-01-22 00:19:42.91	38.51	72.61	-25.5	-26.7	17.9	0.00e+00	0	44	0	1024458752	11	4123
2026-01-22 00:19:43.91	39.10	73.06	-25.7	-27.1	17.7	0.00e+00	0	44	0	1027604480	11	4207
2026-01-22 00:19:44.91	39.73	73.50	-25.4	-26.3	18.1	4.50e-06	0	44	0	1030750208	11	4021
2026-01-22 00:19:45.91	40.39	73.95	-25.4	-26.3	18.1	0.00e+00	0	44	0	1033895936	11	4027
2026-01-22 00:19:46.91	41.10	74.39	-25.7	-27.1	17.8	0.00e+00	0	44	0	1037041664	11	4213
2026-01-22 00:19:47.91	41.85	74.84	-25.4	-26.5	18.0	3.00e-06	0	44	0	1040187392	11	4055
2026-01-22 00:19:48.91	42.64	75.28	-25.4	-26.5	18.1	0.00e+00	0	44	0	1043333120	11	4057
2026-01-22 00:19:49.91	43.49	75.72	-25.7	-27.1	17.8	0.00e+00	0	44	0	1046478848	11	4208
2026-01-22 00:19:50.92	44.40	76.17	-25.9	-27.5	17.5	0.00e+00	0	44	0	1049624576	11	4312
2026-01-22 00:19:51.92	45.36	76.61	-25.9	-27.1	17.4	0.00e+00	0	44	0	1052770304	12	4106
2026-01-22 00:19:52.93	46.40	77.04	-26.3	-27.8	16.9	0.00e+00	0	44	0	1055916032	12	4287
2026-01-22 00:19:53.93	47.50	77.48	-26.2	-27.7	17.0	7.00e-07	0	44	0	1059061760	12	4278
2026-01-22 00:19:54.93	48.68	77.91	-26.2	-27.6	17.1	0.00e+00	0	44	0	1062207488	12	4257
2026-01-22 00:19:55.93	49.95	78.33	-26.0	-27.3	17.3	0.00e+00	0	44	0	1065353216	12	4168
2026-01-22 00:19:56.94	51.34	78.75	-26.1	-27.5	17.1	0.00e+00	0	44	0	1068498944	12	4216
2026-01-22 00:19:57.93	52.80	79.16	-25.8	-26.8	17.5	0.00e+00	0	44	0	1071644672	12	4042
2026-01-22 00:19:58.94	54.41	79.57	-26.0	-27.2	17.4	0.00e+00	0	44	0	1074790400	12	4131
2026-01-22 00:19:59.94	56.14	79.97	-26.1	-27.4	17.3	0.00e+00	0	44	0	1077936128	12	4193
2026-01-22 00:20:00.94	58.01	80.36	-25.9	-27.0	17.5	0.00e+00	0	44	0	1081081856	12	4083
2026-01-22 00:20:01.94	60.04	80.75	-26.2	-27.7	17.2	0.00e+00	0	44	0	1084227584	12	4279
2026-01-22 00:20:02.94	62.24	81.11	-26.2	-27.8	17.1	0.00e+00	0	44	0	1087373312	12	4285
2026-01-22 00:20:03.94	64.63	81.47	-26.0	-27.3	17.4	0.00e+00	0	44	0	1090519040	12	4151
2026-01-22 00:20:04.95	67.25	81.81	-25.7	-26.5	17.8	0.00e+00	0	44	0	1093664768	12	3945
2026-01-22 00:20:05.95	70.07	82.13	-25.8	-26.8	17.7	0.00e+00	0	44	0	1096810496	12	4022
2026-01-22 00:20:06.95	73.13	82.44	-26.1	-27.4	17.2	0.00e+00	0	44	0	1099956224	12	4197
2026-01-22 00:20:07.95	76.43	82.72	-26.3	-27.8	17.1	0.00e+00	0	44	0	1103101952	12	4301
2026-01-22 00:20:08.96	80.02	82.97	-25.9	-27.1	17.6	0.00e+00	0	44	0	1106247680	12	4097
2026-01-22 00:20:09.96	83.83	83.20	-26.2	-27.6	17.3	0.00e+00	0	44	0	1109393408	12	4230
2026-01-22 00:20:10.96	87.89	83.39	-26.5	-27.8	16.9	0.00e+00	0	44	0	1111490560	13	4177
2026-01-22 00:20:11.96	92.17	83.55	-26.7	-28.2	16.7	0.00e+00	0	44	0	1114636288	13	4294
2026-01-22 00:20:12.96	96.63	83.67	-26.8	-28.4	16.6	0.00e+00	0	44	0	1117782016	13	4341
2026-01-22 00:20:13.96	101.25	83.75	-27.0	-28.8	16.4	0.00e+00	0	44	0	1120927744	13	4451
2026-01-22 00:20:14.96	105.96	83.80	-26.9	-28.7	16.4	0.00e+00	0	44	0	1124073472	13	4424
2026-01-22 00:20:15.97	110.75	83.79	-26.9	-28.7	16.5	0.00e+00	0	44	0	1127219200	13	4424
2026-01-22 00:20:16.97	115.45	83.75	-27.1	-28.5	16.3	0.00e+00	0	44	0	1130364928	14	4257
2026-01-22 00:20:17.97	120.06	83.67	-27.5	-29.0	15.8	0.00e+00	0	44	0	1133510656	15	4276
2026-01-22 00:20:18.98	124.57	83.54	-27.5	-28.9	15.9	0.00e+00	0	44	0	1136656384	15	4263
2026-01-22 00:20:19.98	128.83	83.38	-28.3	-30.2	14.9	0.00e+00	0	44	0	1139802112	16	4521
2026-01-22 00:20:20.99	132.91	83.18	-27.7	-29.0	15.5	0.00e+00	0	44	0	1142947840	16	4180
2026-01-22 00:20:22.00	136.74	82.95	-26.8	-27.5	16.5	0.00e+00	0	44	0	1146093568	15	3891
2026-01-22 00:20:23.00	140.28	82.70	-26.3	-26.9	17.1	0.00e+00	0	44	0	1149239296	14	3855
2026-01-22 00:20:24.01	143.60	82.41	-26.4	-27.1	17.0	0.00e+00	0	44	0	1152385024	14	3897
2026-01-22 00:20:25.01	146.64	82.11	-26.6	-27.6	16.8	0.00e+00	0	44	0	1155530752	14	4027
2026-01-22 00:20:26.01	149.44	81.78	-26.8	-28.0	16.5	0.00e+00	0	44	0	1158676480	14	4108
2026-01-22 00:20:27.01	152.02	81.44	-26.8	-28.0	16.5	0.00e+00	0	44	0	1161822208	14	4111
2026-01-22 00:20:28.02	154.42	81.08	-27.0	-28.4	16.4	0.00e+00	0	44	0	1164967936	14	4231
2026-01-22 00:20:29.02	156.61	80.71	-27.0	-28.3	16.4	0.00e+00	0	44	0	1168113664	14	4196
2026-01-22 00:20:30.02	158.63	80.33	-26.5	-27.2	17.0	0.00e+00	0	44	0	1171259392	14	3913
2026-01-22 00:20:31.02	160.49	79.94	-26.5	-27.7	17.0	0.00e+00	0	44	0	1174405120	13	4147
2026-01-22 00:20:32.03	162.22	79.53	-26.3	-27.4	17.1	0.00e+00	0	44	0	1177550848	13	4068
2026-01-22 00:20:33.04	163.82	79.12	-25.6	-26.3	18.0	0.00e+00	0	44	0	1180696576	12	3892
2026-01-22 00:20:34.04	165.29	78.71	-25.5	-26.5	18.1	0.00e+00	0	44	0	1183842304	11	4065
2026-01-22 00:20:35.03	166.63	78.29	-26.0	-27.2	17.5	0.00e+00	0	44	0	1186988032	12	4126
2026-01-22 00:20:36.04	167.91	77.86	-26.0	-27.2	17.5	0.00e+00	0	44	0	1190133760	12	4124
2026-01-22 00:20:37.04	169.09	77.43	-26.0	-27.2	17.4	0.00e+00	0	44	0	1193279488	12	4141
2026-01-22 00:20:38.04	170.18	77.00	-26.5	-27.8	16.8	0.00e+00	0	44	0	1196425216	13	4184
2026-01-22 00:20:39.05	171.22	76.56	-26.4	-27.6	16.1	0.00e+00	0	44	0	1199570944	13	4172
2026-01-22 00:20:40.06	172.18	76.11	-25.9	-27.0	16.4	0.00e+00	0	44	0	1202716672	12	4074
2026-01-22 00:20:41.05	173.07	75.68	-26.3	-27.8	17.1	0.00e+00	0	44	0	1205862400	12	4297
2026-01-22 00:20:42.06	173.92	75.23	-27.1	-28.6	16.3	0.00e+00	0	44	0	1209008128	14	4275
2026-01-22 00:20:43.06	174.71	74.79	-27.0	-28.4	16.3	2.03e-04	0	44	0	1212153856	14	4224
2026-01-22 00:20:44.06	175.45	74.34	-26.8	-28.0	16.4	0.00e+00	0	44	0	1215299584	14	4140
2026-01-22 00:20:45.06	176.15	73.90	-27.0	-28.3	16.3	0.00e+00	0	44	0	1218445312	14	4219
2026-01-22 00:20:46.06	176.81	73.45	-26.5	-27.8	16.9	0.00e+00	0	44	0	1221591040	13	4178
2026-01-22 00:20:47.06	177.44	73.00	-26.3	-27.4	17.1	6.10e-06	0	44	0	1224736768	13	4088
2026-01-22 00:20:48.06	178.03	72.56	-26.2	-27.1	17.3	6.40e-05	0	44	0	1227882496	13	4010
2026-01-22 00:20:49.06	178.59	72.11	-26.4	-27.5	17.0	0.00e+00	0	44	0	1231028224	13	4116
2026-01-22 00:20:50.07	179.13	71.66	-26.5	-27.9	16.8	0.00e+00	0	44	0	1234173952	13	4208
2026-01-22 00:20:51.07	179.64	71.21	-26.1	-26.9	17.3	0.00e+00	0	44	0	1237319680	13	3960
2026-01-22 00:20:52.07	180.12	70.77	-25.6	-26.3	17.9	0.00e+00	0	44	0	1240465408	12	3914
2026-01-22 00:20:53.07	180.57	70.32	-25.6	-26.4	17.9	4.50e-06	0	44	0	1243611136	12	3924
2026-01-22 00:20:54.08	181.02	69.87	-26.0	-27.3	17.4	0.00e+00	0	44	0	1246756864	12	4157
2026-01-22 00:20:55.08	181.43	69.43	-26.5	-28.2	17.0	0.00e+00	0	44	0	1249902592	12	4407
2026-01-22 00:20:56.08	181.83	68.99	-26.8	-28.5	16.5	3.00e-06	0	44	0	1253048320	13	4376
2026-01-22 00:20:57.08	182.21	68.55	-26.7	-28.3	16.6	0.00e+00	0	44	0	1256194048	13	4313
2026-01-22 00:20:58.09	182.58	68.11	-26.6	-28.1	16.8	0.00e+00	0	44	0	1259339776	13	4255
2026-01-22 00:20:59.10	182.93	67.67	-26.8	-28.5	16.5	0.00e+00	0	44	0	1262485504	13	4370
2026-01-22 00:21:00.10	183.27	67.23	-26.4	-27.7	17.0	6.25e-05	0	44	0	1265631232	13	4147
2026-01-22 00:21:01.11	183.59	66.79	-26.1	-26.8	17.2	0.00e+00	0	44	0	1268776960	13	3935
2026-01-22 00:21:02.12	183.90	66.35	-26.3	-27.3	16.9	2.20e-06	0	44	0	1271922688	13	4056
2026-01-22 00:21:03.11	184.19	65.93	-26.7	-28.2	16.6	1.01e-04	0	44	0	1275068416	13	4282
2026-01-22 00:21:04.11	184.48	65.50	-26.7	-28.3	16.5	4.11e-05	0	44	0	1278214144	13	4332
2026-01-22 00:21:05.12	184.75	65.07	-25.9	-26.4	17.5	0.00e+00	0	44	0	1281359872	13	3842
2026-01-22 00:21:06.13	185.02	64.64	-25.6	-26.3	17.9	1.06e-05	0	44	0	1284505600	12	3924
2026-01-22 00:21:07.12	185.27	64.22	-25.8	-26.7	17.6	2.21e-05	0	44	0	1287651328	12	4013
2026-01-22 00:21:08.12	185.52	63.79	-25.6	-26.4	17.7	0.00e+00	0	44	0	1290797056	12	3930
2026-01-22 00:21:09.12	185.75	63.38	-25.4	-26.0	17.8	1.37e-05	0	44	0	1293942784	12	3825
2026-01-22 00:21:10.12	185.98	62.96	-26.0	-27.2	17.2	4.42e-05	0	44	0	1297088512	12	4144
2026-01-22 00:21:11.12	186.20	62.54	-26.8	-28.4	16.5	0.00e+00	0	44	0	1300234240	13	4340
2026-01-22 00:21:12.12	186.42	62.13	-27.5	-29.4	15.7	1.03e-04	0	44	0	1303379968	14	4523
2026-01-22 00:21:13.12	186.62	61.72	-27.2	-28.8	15.9	9.46e-05	0	44	0	1306525696	14	4331
2026-01-22 00:21:14.12	186.82	61.31	-26.7	-27.8	16.5	0.00e+00	0	44	0	1309671424	14	4079
2026-01-22 00:21:15.13	187.02	60.90	-26.4	-27.0	17.0	9.00e-05	0	44	0	1312817152	14	3876
2026-01-22 00:21:16.13	187.21	60.49	-26.0	-26.8	17.3	0.00e+00	0	44	0	1315962880	13	3927
2026-01-22 00:21:17.13	187.39	60.09	-26.3	-27.4	17.0	0.00e+00	0	44	0	1319108608	13	4071
2026-01-22 00:21:18.14	187.57	59.69	-26.6	-28.1	16.7	1.01e-04	0	44	0	1322254336	13	4273
2026-01-22 00:21:19.14	187.74	59.29	-27.0	-28.8	16.2	6.94e-05	0	44	0	1325400064	13	4469
2026-01-22 00:21:20.14	187.90	58.90	-27.0	-28.5	16.2	0.00e+00	0	44	0	1328545792	14	4256
2026-01-22 00:21:21.15	188.07	58.50	-27.4	-29.4	15.7	0.00e+00	0	44	0	1331691520	14	4509
2026-01-22 00:21:22.15	188.22	58.11	-27.6	-29.4	15.4	0.00e+00	0	44	0	1334837248	15	4399
2026-01-22 00:21:23.15	188.38	57.72	-27.4	-28.8	15.8	0.00e+00	0	44	0	1337982976	15	4229
2026-01-22 00:21:24.16	188.53	57.33	-26.9	-27.6	16.4	0.00e+00	0	44	0	1341128704	15	3927
2026-01-22 00:21:25.16	188.67	56.95	-26.7	-27.6	16.7	1.22e-05	0	44	0	1344274432	14	4029
2026-01-22 00:21:26.16	188.81	56.57	-27.2	-28.8	16.0	0.00e+00	0	44	0	1347420160	14	4351
2026-01-22 00:21:27.15	188.95	56.19	-27.8	-29.8	15.2	0.00e+00	0	44	0	1350565888	15	4524
2026-01-22 00:21:28.16	189.08	55.81	-28.6	-30.6	14.3	7.00e-07	0	44	0	1353711616	17	4513
2026-01-22 00:21:29.15	189.21	55.44	-28.7	-30.8	14.2	0.00e+00	0	44	0	1356857344	17	4567
2026-01-22 00:21:30.15	189.33	55.07	-28.7	-30.9	14.1	1.86e-04	0	44	0	1360003072	17	4614
2026-01-22 00:21:31.16	189.46	54.70	-28.3	-29.8	14.7	1.50e-06	0	44	0	1362100224	17	4297
2026-01-22 00:21:32.16	189.58	54.33	-28.0	-29.2	15.1	0.00e+00	0	44	0	1365245952	17	4125
2026-01-22 00:21:33.16	189.70	53.97	-28.1	-29.3	15.1	7.00e-07	0	44	0	1368391680	17	4133
2026-01-22 00:21:34.16	189.81	53.61	-28.2	-29.6	14.8	9.30e-05	0	44	0	1371537408	17	4238
2026-01-22 00:21:35.16	189.92	53.25	-28.1	-29.3	15.1	0.00e+00	0	44	0	1374683136	17	4143
2026-01-22 00:21:36.17	190.03	52.89	-28.0	-29.1	15.2	0.00e+00	0	44	0	1377828864	17	4107
2026-01-22 00:21:37.17	190.14	52.54	-28.3	-29.9	14.7	0.00e+00	0	44	0	1382023168	17	4322
2026-01-22 00:21:38.17	190.24	52.18	-28.6	-30.4	14.3	0.00e+00	0	44	0	1385168896	17	4470
2026-01-22 00:21:39.18	190.35	51.83	-28.8	-31.0	14.0	7.00e-07	0	44	0	1387266048	17	4660
2026-01-22 00:21:40.18	190.45	51.48	-29.1	-31.1	13.7	6.80e-06	0	44	0	1390411776	18	4573
2026-01-22 00:21:41.18	190.54	51.14	-29.0	-30.9	13.8	3.80e-06	0	44	0	1393557504	18	4505
2026-01-22 00:21:42.18	190.64	50.80	-28.9	-30.8	13.8	3.80e-06	0	44	0	1396703232	18	4464
2026-01-22 00:21:43.18	190.73	50.46	-29.3	-31.8	13.1	1.52e-05	0	44	0	1399848960	18	4797
2026-01-22 00:21:44.19	190.82	50.12	-29.4	-32.1	13.1	3.12e-05	0	44	0	1402994688	18	4876
2026-01-22 00:21:45.19	190.91	49.78	-29.7	-32.3	12.7	5.95e-05	0	44	0	1406140416	19	4829
2026-01-22 00:21:46.19	191.00	49.45	-29.7	-32.3	12.7	5.18e-05	0	44	0	1409286144	19	4848
2026-01-22 00:21:47.19	191.08	49.12	-29.6	-32.1	12.9	7.55e-05	0	44	0	1412431872	19	4755
2026-01-22 00:21:48.20	191.17	48.79	-29.4	-31.4	13.2	2.51e-05	0	44	0	1415577600	19	4559
2026-01-22 00:21:49.21	191.25	48.46	-29.2	-31.5	13.5	1.37e-05	0	44	0	1418723328	18	4693
2026-01-22 00:21:50.21	191.33	48.14	-29.4	-32.0	13.2	1.98e-05	0	44	0	1421869056	18	4841
2026-01-22 00:21:51.21	191.41	47.82	-29.8	-32.4	12.6	5.11e-05	0	44	0	1425014784	19	4870
2026-01-22 00:21:52.21	191.49	47.50	-30.1	-32.8	12.0	2.14e-04	0	44	0	1428160512	20	4898
2026-01-22 00:21:53.21	191.56	47.19	-30.4	-33.5	11.5	7.98e-04	0	44	0	1431306240	20	5161
2026-01-22 00:21:54.21	191.64	46.87	-30.2	-33.0	11.7	5.73e-04	0	44	0	1434451968	20	4969
2026-01-22 00:21:55.21	191.71	46.56	-30.3	-33.2	11.7	7.08e-04	0	44	0	1437597696	20	5057
2026-01-22 00:21:56.20	191.78	46.26	-29.8	-32.0	12.4	1.67e-04	0	44	0	1440743424	20	4629
2026-01-22 00:21:57.21	191.85	45.95	-29.4	-31.0	13.0	5.03e-05	0	44	0	1443889152	20	4314
2026-01-22 00:21:58.22	191.92	45.64	-29.3	-31.3	13.2	2.36e-05	0	44	0	1447034880	19	4529
2026-01-22 00:21:59.22	191.99	45.34	-29.5	-31.6	13.0	3.35e-05	0	44	0	1450180608	19	4615
2026-01-22 00:22:00.22	192.06	45.04	-29.8	-32.3	12.6	6.56e-05	0	44	0	1453326336	19	4852
2026-01-22 00:22:01.22	192.12	44.74	-30.1	-32.7	12.0	2.44e-04	0	44	0	1456472064	20	4879
2026-01-22 00:22:02.23	192.19	44.44	-30.1	-32.9	11.9	5.03e-04	0	44	0	1459617792	20	4966
2026-01-22 00:22:03.23	192.25	44.15	-30.1	-32.8	11.9	3.97e-04	0	44	0	1462763520	20	4925
2026-01-22 00:22:04.24	192.31	43.85	-30.0	-32.6	12.1	3.62e-04	0	44	0	1465909248	20	4847
2026-01-22 00:22:05.24	192.37	43.56	-30.0	-32.6	12.0	2.90e-04	0	44	0	1469054976	20	4852
2026-01-22 00:22:06.24	192.43	43.28	-30.1	-32.7	12.0	3.48e-04	0	44	0	1472200704	20	4890
2026-01-22 00:22:07.24	192.49	42.99	-30.2	-33.0	11.8	5.23e-04	0	44	0	1475346432	20	4971
2026-01-22 00:22:08.24	192.55	42.71	-30.1	-32.8	11.9	3.57e-04	0	44	0	1478492160	20	4906
2026-01-22 00:22:09.24	192.61	42.43	-30.2	-33.0	11.8	3.44e-04	0	44	0	1481637888	20	4976
2026-01-22 00:22:10.24	192.66	42.15	-30.3	-33.4	11.4	7.17e-04	0	44	0	1484783616	20	5149
2026-01-22 00:22:11.24	192.72	41.87	-30.2	-33.2	11.6	9.20e-04	0	44	0	1487929344	20	5041
2026-01-22 00:22:12.24	192.77	41.60	-30.2	-33.1	11.6	6.28e-04	0	44	0	1491075072	20	5018
2026-01-22 00:22:13.24	192.83	41.33	-30.4	-33.6	11.3	1.10e-03	0	44	0	1494220800	20	5221
2026-01-22 00:22:14.24	192.88	41.06	-30.3	-33.3	11.5	1.12e-03	0	44	0	1497366528	20	5089
2026-01-22 00:22:15.24	192.93	40.79	-30.0	-32.4	12.1	4.02e-04	0	44	0	1500512256	20	4785
2026-01-22 00:22:16.24	192.98	40.52	-29.8	-32.4	12.5	1.52e-04	0	44	0	1503657984	19	4892
2026-01-22 00:22:17.24	193.03	40.26	-29.8	-32.6	12.4	1.54e-04	0	44	0	1506803712	19	4947
2026-01-22 00:22:18.25	193.08	39.99	-30.0	-32.5	12.1	3.03e-04	0	44	0	1509949440	20	4799
2026-01-22 00:22:19.25	193.13	39.73	-29.8	-32.6	12.4	1.99e-04	0	44	0	1513095168	19	4940
2026-01-22 00:22:20.25	193.18	39.47	-29.7	-32.2	12.6	1.16e-04	0	44	0	1516240896	19	4823
2026-01-22 00:22:21.26	193.23	39.21	-29.5	-31.7	13.0	6.02e-05	0	44	0	1519386624	19	4648
2026-01-22 00:22:22.26	193.28	38.96	-29.1	-31.1	13.6	1.29e-05	0	44	0	1522532352	18	4575
2026-01-22 00:22:23.26	193.32	38.70	-29.0	-30.9	13.7	6.10e-06	0	44	0	1525678080	18	4508
2026-01-22 00:22:24.26	193.37	38.45	-29.1	-31.2	13.6	1.22e-05	0	44	0	1528823808	18	4577
2026-01-22 00:22:25.26	193.41	38.20	-28.8	-31.0	13.9	3.80e-06	0	44	0	1531969536	17	4659
2026-01-22 00:22:26.26	193.46	37.96	-29.1	-31.3	13.4	9.90e-06	0	44	0	1535115264	18	4644
2026-01-22 00:22:27.25	193.50	37.71	-29.3	-31.6	13.3	2.36e-05	0	44	0	1538260992	18	4730
2026-01-22 00:22:28.26	193.54	37.47	-28.8	-30.5	13.9	3.80e-06	0	44	0	1541406720	18	4402
2026-01-22 00:22:29.26	193.58	37.22	-28.6	-30.0	14.2	1.50e-06	0	44	0	1544552448	18	4256
2026-01-22 00:22:30.27	193.63	36.98	-28.7	-30.8	14.0	2.20e-06	0	44	0	1547698176	17	4596
2026-01-22 00:22:31.27	193.67	36.74	-29.1	-31.3	13.4	6.10e-06	0	44	0	1550843904	18	4638
2026-01-22 00:22:32.27	193.71	36.50	-29.3	-31.8	13.2	2.05e-05	0	44	0	1553989632	18	4787
2026-01-22 00:22:33.27	193.75	36.27	-29.0	-31.1	13.6	8.30e-06	0	44	0	1557135360	18	4555
2026-01-22 00:22:34.27	193.79	36.04	-28.7	-30.7	14.1	3.80e-06	0	44	0	1560281088	17	4558
2026-01-22 00:22:35.28	193.83	35.80	-28.5	-30.3	14.3	1.50e-06	0	44	0	1563426816	17	4450
2026-01-22 00:22:36.28	193.87	35.57	-28.7	-30.7	14.1	1.50e-06	0	44	0	1566572544	17	4570
2026-01-22 00:22:37.29	193.90	35.34	-28.9	-31.4	13.6	6.10e-06	0	44	0	1569718272	17	4785
2026-01-22 00:22:38.30	193.94	35.11	-28.9	-31.3	13.7	9.90e-06	0	44	0	1572864000	17	4765
2026-01-22 00:22:39.30	193.98	34.89	-28.9	-31.2	13.7	2.20e-06	0	44	0	1576009728	17	4735
2026-01-22 00:22:40.31	194.02	34.66	-28.8	-31.1	13.7	3.80e-06	0	44	0	1579155456	17	4707
2026-01-22 00:22:41.31	194.05	34.44	-28.9	-31.3	13.1	2.20e-06	0	44	0	1582301184	17	4741
2026-01-22 00:22:42.32	194.09	34.21	-28.9	-31.2	12.5	1.14e-05	0	44	0	1585446912	17	4736
2026-01-22 00:22:43.32	194.12	33.99	-28.6	-30.7	14.0	3.80e-06	0	44	0	1588592640	17	4555
2026-01-22 00:22:44.33	194.16	33.77	-28.5	-30.8	14.3	7.00e-07	0	44	0	1591738368	16	4699
2026-01-22 00:22:45.33	194.19	33.56	-28.3	-30.5	14.5	1.50e-06	0	44	0	1594884096	16	4608
2026-01-22 00:22:46.33	194.23	33.34	-28.0	-29.8	14.9	0.00e+00	0	44	0	1598029824	16	4396
2026-01-22 00:22:47.34	194.26	33.13	-27.8	-29.7	15.0	3.30e-03	0	44	0	1601175552	15	4512
2026-01-22 00:22:48.34	194.30	32.92	-27.7	-29.6	15.0	0.00e+00	0	44	0	1604321280	15	4463
2026-01-22 00:22:49.34	194.33	32.71	-27.5	-29.1	15.3	0.00e+00	0	44	0	1607467008	15	4340
2026-01-22 00:22:50.34	194.36	32.50	-27.6	-29.2	15.2	0.00e+00	0	44	0	1610612736	15	4370
2026-01-22 00:22:51.34	194.39	32.29	-27.7	-29.6	15.0	0.00e+00	0	44	0	1613758464	15	4484
2026-01-22 00:22:52.35	194.42	32.08	-27.6	-29.4	15.1	0.00e+00	0	44	0	1615855616	15	4413
2026-01-22 00:22:53.35	194.46	31.88	-27.6	-29.3	15.1	3.71e-03	0	44	0	1619001344	15	4387
2026-01-22 00:22:54.36	194.49	31.67	-27.6	-29.3	15.1	7.00e-07	0	44	0	1622147072	15	4398
2026-01-22 00:22:55.37	194.52	31.47	-27.5	-29.2	15.2	0.00e+00	0	44	0	1626341376	15	4353
2026-01-22 00:22:56.37	194.55	31.27	-27.5	-29.1	15.2	2.24e-03	0	44	0	1629487104	15	4338
2026-01-22 00:22:57.38	194.58	31.07	-27.5	-29.2	15.2	3.41e-03	0	44	0	1632632832	15	4352
2026-01-22 00:22:58.38	194.61	30.87	-27.6	-29.3	15.2	0.00e+00	0	44	0	1635778560	15	4392
2026-01-22 00:22:59.39	194.64	30.67	-27.6	-29.2	15.2	3.49e-03	0	44	0	1637875712	15	4374
2026-01-22 00:23:00.39	194.67	30.48	-27.6	-29.3	15.1	0.00e+00	0	44	0	1641021440	15	4391
2026-01-22 00:23:01.39	194.70	30.28	-27.6	-29.4	15.1	0.00e+00	0	44	0	1644167168	15	4405
2026-01-22 00:23:02.40	194.73	30.09	-27.6	-29.4	15.1	3.86e-03	0	44	0	1647312896	15	4416
2026-01-22 00:23:03.41	194.75	29.90	-27.6	-29.4	15.1	3.78e-03	0	44	0	1650458624	15	4411
2026-01-22 00:23:04.41	194.78	29.71	-27.7	-29.6	14.9	0.00e+00	0	44	0	1653604352	15	4490
2026-01-22 00:23:05.41	194.81	29.52	-28.0	-30.2	14.6	3.97e-03	0	44	0	1656750080	15	4671
2026-01-22 00:23:06.41	194.84	29.33	-28.2	-30.2	14.5	3.84e-03	0	44	0	1659895808	16	4529
2026-01-22 00:23:07.41	194.86	29.15	-28.1	-30.0	14.6	0.00e+00	0	44	0	1663041536	16	4466
2026-01-22 00:23:08.41	194.89	28.96	-28.0	-29.8	14.7	3.52e-03	0	44	0	1666187264	16	4428
2026-01-22 00:23:09.41	194.92	28.78	-27.8	-29.8	14.8	4.16e-03	0	44	0	1669332992	15	4553
2026-01-22 00:23:10.41	194.94	28.60	-27.7	-29.7	14.9	1.50e-06	0	44	0	1672478720	15	4500
2026-01-22 00:23:11.41	194.97	28.41	-27.5	-29.0	15.2	3.90e-03	0	44	0	1675624448	15	4318
2026-01-22 00:23:12.42	195.00	28.23	-27.2	-29.0	15.5	4.05e-03	0	44	0	1678770176	14	4415
2026-01-22 00:23:13.42	195.02	28.05	-27.1	-28.7	15.7	1.51e-04	0	44	0	1681915904	14	4326
2026-01-22 00:23:14.42	195.05	27.88	-27.1	-28.7	15.7	4.05e-03	0	44	0	1685061632	14	4327
2026-01-22 00:23:15.42	195.07	27.70	-27.0	-28.6	15.7	3.57e-03	0	44	0	1688207360	14	4303
2026-01-22 00:23:16.43	195.10	27.52	-26.7	-27.8	16.2	0.00e+00	0	44	0	1691353088	14	4080
2026-01-22 00:23:17.43	195.12	27.35	-26.4	-27.8	16.4	3.68e-03	0	44	0	1694498816	13	4200
2026-01-22 00:23:18.43	195.15	27.17	-26.5	-28.3	16.4	3.99e-03	0	44	0	1697644544	12	4443
2026-01-22 00:23:19.43	195.17	27.00	-26.5	-27.9	16.3	2.02e-04	0	44	0	1700790272	13	4231
2026-01-22 00:23:20.44	195.19	26.83	-26.5	-27.9	16.4	1.60e-03	0	44	0	1703936000	13	4229
2026-01-22 00:23:21.44	195.22	26.66	-26.6	-28.0	16.3	0.00e+00	0	44	0	1707081728	13	4265
2026-01-22 00:23:22.44	195.24	26.49	-26.5	-27.9	16.3	0.00e+00	0	44	0	1710227456	13	4236
2026-01-22 00:23:23.44	195.26	26.32	-26.6	-28.0	16.3	3.91e-03	0	44	0	1713373184	13	4264
2026-01-22 00:23:24.45	195.29	26.15	-26.5	-28.0	16.3	3.49e-03	0	44	0	1716518912	13	4245
2026-01-22 00:23:25.45	195.31	25.99	-26.4	-28.3	16.4	0.00e+00	0	44	0	1719664640	12	4447
2026-01-22 00:23:26.45	195.33	25.82	-26.4	-28.3	16.4	0.00e+00	0	44	0	1722810368	12	4451
2026-01-22 00:23:27.46	195.36	25.66	-26.6	-28.1	16.2	0.00e+00	0	44	0	1725956096	13	4294
2026-01-22 00:23:28.47	195.38	25.49	-26.6	-28.2	16.1	0.00e+00	0	44	0	1729101824	13	4326
2026-01-22 00:23:29.47	195.40	25.33	-26.7	-28.4	16.0	3.89e-03	0	44	0	1732247552	13	4367
2026-01-22 00:23:30.48	195.42	25.17	-26.8	-28.6	15.9	0.00e+00	0	44	0	1735393280	13	4411
2026-01-22 00:23:31.48	195.44	25.01	-26.8	-28.6	15.9	0.00e+00	0	44	0	1738539008	13	4438
2026-01-22 00:23:32.48	195.46	24.85	-26.8	-28.6	15.9	0.00e+00	0	44	0	1741684736	13	4427
2026-01-22 00:23:33.48	195.49	24.69	-26.9	-28.8	15.8	0.00e+00	0	44	0	1744830464	13	4495
2026-01-22 00:23:34.49	195.51	24.53	-26.9	-28.8	15.8	0.00e+00	0	44	0	1747976192	13	4495
2026-01-22 00:23:35.49	195.53	24.38	-26.8	-28.7	15.9	0.00e+00	0	44	0	1751121920	13	4448
2026-01-22 00:23:36.49	195.55	24.22	-27.0	-28.6	15.6	7.00e-07	0	44	0	1754267648	14	4311
2026-01-22 00:23:37.50	195.57	24.07	-27.2	-29.0	15.4	0.00e+00	0	44	0	1757413376	14	4422
2026-01-22 00:23:38.50	195.59	23.91	-27.3	-29.1	15.3	0.00e+00	0	44	0	1760559104	14	4467
2026-01-22 00:23:39.51	195.61	23.76	-27.0	-28.5	15.6	0.00e+00	0	44	0	1763704832	14	4291
2026-01-22 00:23:40.52	195.63	23.61	-26.9	-28.4	15.7	0.00e+00	0	44	0	1766850560	14	4254
2026-01-22 00:23:41.51	195.65	23.46	-27.0	-28.5	15.7	0.00e+00	0	44	0	1769996288	14	4286
2026-01-22 00:23:42.51	195.67	23.31	-27.0	-28.6	15.6	0.00e+00	0	44	0	1773142016	14	4318
2026-01-22 00:23:43.52	195.69	23.16	-27.1	-28.8	15.5	0.00e+00	0	44	0	1776287744	14	4376
2026-01-22 00:23:44.53	195.71	23.01	-27.1	-28.8	15.5	0.00e+00	0	44	0	1779433472	14	4365
2026-01-22 00:23:45.53	195.73	22.86	-27.1	-28.8	15.5	0.00e+00	0	44	0	1782579200	14	4364
2026-01-22 00:23:46.53	195.75	22.71	-27.1	-28.7	15.5	0.00e+00	0	44	0	1785724928	14	4354
2026-01-22 00:23:47.54	195.77	22.57	-27.2	-28.9	15.4	0.00e+00	0	44	0	1788870656	14	4409
2026-01-22 00:23:48.55	195.79	22.42	-27.3	-29.2	15.2	0.00e+00	0	44	0	1792016384	14	4488
2026-01-22 00:23:49.54	195.80	22.28	-27.1	-28.9	15.4	0.00e+00	0	44	0	1795162112	14	4399
2026-01-22 00:23:50.54	195.82	22.13	-27.1	-28.8	15.4	0.00e+00	0	44	0	1798307840	14	4383
2026-01-22 00:23:51.54	195.84	21.99	-27.1	-28.8	15.4	0.00e+00	0	44	0	1801453568	14	4370
2026-01-22 00:23:52.54	195.86	21.85	-27.0	-28.6	15.5	0.00e+00	0	44	0	1804599296	14	4313
2026-01-22 00:23:53.54	195.88	21.71	-27.1	-28.7	15.4	0.00e+00	0	44	0	1807745024	14	4357
2026-01-22 00:23:54.54	195.90	21.57	-27.2	-29.1	15.2	0.00e+00	0	44	0	1810890752	14	4460
2026-01-22 00:23:55.54	195.91	21.43	-27.2	-29.1	15.3	0.00e+00	0	44	0	1814036480	14	4466
2026-01-22 00:23:56.55	195.93	21.29	-27.0	-28.6	15.5	2.53e-04	0	44	0	1817182208	14	4310
2026-01-22 00:23:57.55	195.95	21.15	-26.9	-28.8	15.7	0.00e+00	0	44	0	1820327936	13	4476
2026-01-22 00:23:58.55	195.97	21.02	-26.9	-28.9	15.6	0.00e+00	0	44	0	1823473664	13	4518
2026-01-22 00:23:59.55	195.98	20.88	-27.0	-28.7	15.5	0.00e+00	0	44	0	1826619392	14	4336
2026-01-22 00:24:00.55	196.00	20.74	-27.1	-28.7	15.4	0.00e+00	0	44	0	1829765120	14	4354
2026-01-22 00:24:01.56	196.02	20.61	-27.0	-28.7	15.5	1.99e-04	0	44	0	1832910848	14	4340
2026-01-22 00:24:02.56	196.04	20.47	-27.1	-28.7	15.4	2.14e-04	0	44	0	1836056576	14	4359
2026-01-22 00:24:03.56	196.05	20.34	-27.1	-28.7	15.4	0.00e+00	0	44	0	1839202304	14	4359
2026-01-22 00:24:04.57	196.07	20.21	-27.1	-28.9	15.4	0.00e+00	0	44	0	1842348032	14	4391
2026-01-22 00:24:05.58	196.09	20.07	-27.2	-29.1	15.2	1.62e-04	0	44	0	1845493760	14	4465
2026-01-22 00:24:06.58	196.10	19.94	-27.5	-29.7	14.9	0.00e+00	0	44	0	1848639488	14	4631
2026-01-22 00:24:07.58	196.12	19.81	-27.4	-28.9	15.0	2.23e-04	0	44	0	1851785216	15	4302
2026-01-22 00:24:08.58	196.14	19.68	-27.7	-29.6	14.7	2.32e-04	0	44	0	1854930944	15	4493
2026-01-22 00:24:09.59	196.15	19.55	-27.7	-29.7	14.6	7.00e-07	0	44	0	1858076672	15	4520
2026-01-22 00:24:10.59	196.17	19.42	-27.6	-29.4	14.7	2.06e-04	0	44	0	1861222400	15	4442
2026-01-22 00:24:11.59	196.18	19.30	-27.8	-29.9	14.5	1.76e-04	0	44	0	1864368128	15	4597
2026-01-22 00:24:12.59	196.20	19.17	-27.6	-29.4	14.8	0.00e+00	0	44	0	1867513856	15	4443
2026-01-22 00:24:13.59	196.22	19.04	-27.7	-29.6	14.7	1.32e-04	0	44	0	1870659584	15	4492
2026-01-22 00:24:14.60	196.23	18.91	-27.8	-29.9	14.5	1.14e-05	0	44	0	1873805312	15	4581
2026-01-22 00:24:15.60	196.25	18.79	-27.8	-30.0	14.4	0.00e+00	0	44	0	1876951040	15	4607
2026-01-22 00:24:16.60	196.26	18.66	-27.6	-29.5	14.7	6.56e-05	0	44	0	1880096768	15	4476
2026-01-22 00:24:17.61	196.28	18.54	-27.4	-29.0	14.9	3.05e-05	0	44	0	1883242496	15	4334
2026-01-22 00:24:18.62	196.29	18.42	-27.3	-28.7	15.1	0.00e+00	0	44	0	1886388224	15	4239
2026-01-22 00:24:19.62	196.31	18.29	-27.3	-28.8	15.0	2.20e-06	0	44	0	1889533952	15	4275
2026-01-22 00:24:20.62	196.32	18.17	-27.3	-28.8	15.1	0.00e+00	0	44	0	1892679680	15	4264
2026-01-22 00:24:21.63	196.34	18.05	-27.4	-28.9	15.0	0.00e+00	0	44	0	1895825408	15	4295
2026-01-22 00:24:22.63	196.35	17.93	-27.3	-28.9	15.0	0.00e+00	0	44	0	1898971136	15	4284
2026-01-22 00:24:23.63	196.37	17.81	-27.3	-28.7	15.1	0.00e+00	0	44	0	1902116864	15	4241
2026-01-22 00:24:24.63	196.38	17.69	-27.3	-28.8	15.0	0.00e+00	0	44	0	1905262592	15	4273
2026-01-22 00:24:25.64	196.40	17.57	-27.4	-29.5	14.9	0.00e+00	0	44	0	1908408320	14	4576
2026-01-22 00:24:26.63	196.41	17.45	-27.4	-29.5	14.9	0.00e+00	0	44	0	1911554048	14	4590
2026-01-22 00:24:27.64	196.43	17.33	-27.4	-29.6	14.9	0.00e+00	0	44	0	1913651200	14	4613
2026-01-22 00:24:28.64	196.44	17.21	-27.4	-29.6	14.9	7.00e-07	0	44	0	1916796928	14	4601
2026-01-22 00:24:29.64	196.46	17.10	-27.5	-29.7	14.8	0.00e+00	0	44	0	1919942656	14	4646
2026-01-22 00:24:30.64	196.47	16.98	-27.6	-29.5	14.6	0.00e+00	0	44	0	1923088384	15	4473
2026-01-22 00:24:31.64	196.48	16.86	-26.6	-28.5	14.4	2.20e-06	0	44	0	1926234112	15	4473
2026-01-22 00:24:32.65	196.50	16.75	-27.5	-29.8	13.9	7.00e-07	0	44	0	1929379840	14	4666
2026-01-22 00:24:33.66	196.51	16.63	-27.5	-29.3	14.7	0.00e+00	0	44	0	1932525568	15	4413
2026-01-22 00:24:34.66	196.53	16.52	-27.5	-29.2	14.6	0.00e+00	0	44	0	1935671296	15	4385
2026-01-22 00:24:35.67	196.54	16.40	-27.6	-29.4	14.6	0.00e+00	0	44	0	1938817024	15	4441
2026-01-22 00:24:36.67	196.55	16.29	-27.5	-29.3	14.7	0.00e+00	0	44	0	1941962752	15	4423
2026-01-22 00:24:37.68	196.57	16.18	-27.5	-29.2	14.8	1.97e-03	0	44	0	1945108480	15	4376
2026-01-22 00:24:38.68	196.58	16.06	-27.5	-29.7	14.7	0.00e+00	0	44	0	1948254208	14	4650
2026-01-22 00:24:39.68	196.59	15.95	-27.6	-29.4	14.6	0.00e+00	0	44	0	1951399936	15	4449
2026-01-22 00:24:40.68	196.61	15.84	-27.5	-29.3	14.7	0.00e+00	0	44	0	1954545664	15	4415
2026-01-22 00:24:41.69	196.62	15.73	-27.5	-29.7	14.7	2.60e-03	0	44	0	1957691392	14	4651
2026-01-22 00:24:42.69	196.63	15.62	-27.6	-29.5	14.6	7.00e-07	0	44	0	1960837120	15	4480
2026-01-22 00:24:43.70	196.65	15.51	-27.5	-29.4	14.6	2.71e-03	0	44	0	1963982848	15	4436
2026-01-22 00:24:44.70	196.66	15.40	-27.5	-29.2	14.7	0.00e+00	0	44	0	1967128576	15	4396
2026-01-22 00:24:45.70	196.67	15.29	-27.5	-29.1	14.8	7.00e-07	0	44	0	1970274304	15	4366
2026-01-22 00:24:46.70	196.69	15.18	-27.4	-29.6	14.8	2.91e-03	0	44	0	1973420032	14	4618
2026-01-22 00:24:47.71	196.70	15.07	-27.5	-29.6	14.8	3.06e-03	0	44	0	1976565760	14	4629
2026-01-22 00:24:48.71	196.71	14.97	-27.6	-29.4	14.6	7.00e-07	0	44	0	1979711488	15	4448
2026-01-22 00:24:49.72	196.72	14.86	-27.8	-29.9	14.3	3.22e-03	0	44	0	1982857216	15	4603
2026-01-22 00:24:50.73	196.74	14.75	-27.7	-29.8	14.4	1.50e-06	0	44	0	1986002944	15	4573
2026-01-22 00:24:51.73	196.75	14.65	-27.5	-29.3	14.6	0.00e+00	0	44	0	1989148672	15	4410
2026-01-22 00:24:52.74	196.76	14.54	-27.5	-29.3	14.7	3.36e-03	0	44	0	1992294400	15	4406
2026-01-22 00:24:53.74	196.77	14.44	-27.5	-29.3	14.6	3.32e-03	0	44	0	1995440128	15	4426
2026-01-22 00:24:54.74	196.79	14.33	-27.5	-29.3	14.6	7.00e-07	0	44	0	1998585856	15	4427
2026-01-22 00:24:55.73	196.80	14.23	-27.7	-29.6	14.4	0.00e+00	0	44	0	2001731584	15	4517
2026-01-22 00:24:56.73	196.81	14.12	-27.6	-29.6	14.5	3.67e-03	0	44	0	2004877312	15	4504
2026-01-22 00:24:57.73	196.82	14.02	-27.7	-29.7	14.4	0.00e+00	0	44	0	2008023040	15	4526
2026-01-22 00:24:58.73	196.84	13.92	-27.6	-29.6	14.4	3.87e-03	0	44	0	2011168768	15	4518
2026-01-22 00:24:59.74	196.85	13.82	-27.6	-29.4	14.5	3.73e-03	0	44	0	2014314496	15	4450
2026-01-22 00:25:00.74	196.86	13.71	-27.5	-29.4	14.6	0.00e+00	0	44	0	2017460224	15	4443
2026-01-22 00:25:01.75	196.87	13.61	-27.5	-29.3	14.6	3.61e-03	0	44	0	2020605952	15	4406
2026-01-22 00:25:02.76	196.88	13.51	-27.6	-29.5	14.5	3.37e-03	0	44	0	2023751680	15	4471
2026-01-22 00:25:03.76	196.90	13.41	-27.5	-29.3	14.5	0.00e+00	0	44	0	2026897408	15	4432
2026-01-22 00:25:04.77	196.91	13.31	-27.4	-29.6	14.7	3.39e-03	0	44	0	2030043136	14	4628
2026-01-22 00:25:05.77	196.92	13.21	-27.4	-29.6	14.7	7.00e-07	0	44	0	2033188864	14	4626
2026-01-22 00:25:06.77	196.93	13.11	-27.5	-29.3	14.6	7.00e-07	0	44	0	2036334592	15	4425
2026-01-22 00:25:07.77	196.94	13.01	-27.7	-29.9	14.3	3.86e-03	0	44	0	2039480320	15	4587
2026-01-22 00:25:08.77	196.95	12.91	-27.6	-29.4	14.5	3.77e-03	0	44	0	2042626048	15	4465
2026-01-22 00:25:09.78	196.97	12.81	-27.6	-29.4	14.5	0.00e+00	0	44	0	2045771776	15	4451
2026-01-22 00:25:10.79	196.98	12.71	-27.7	-29.7	14.3	2.13e-05	0	44	0	2048917504	15	4529
2026-01-22 00:25:11.79	196.99	12.62	-27.7	-29.7	14.3	7.00e-07	0	44	0	2052063232	15	4543
2026-01-22 00:25:12.79	197.00	12.52	-27.7	-29.7	14.3	1.50e-06	0	44	0	2055208960	15	4541
2026-01-22 00:25:13.79	197.01	12.42	-27.7	-29.7	14.3	3.44e-03	0	44	0	2058354688	15	4529
2026-01-22 00:25:14.80	197.02	12.33	-27.7	-29.8	14.2	3.80e-03	0	44	0	2061500416	15	4585
2026-01-22 00:25:15.80	197.03	12.23	-27.8	-30.0	14.1	7.00e-07	0	44	0	2064646144	15	4641
2026-01-22 00:25:16.81	197.04	12.14	-27.9	-30.2	14.0	2.20e-06	0	44	0	2067791872	15	4684
2026-01-22 00:25:17.82	197.06	12.04	-27.8	-29.9	14.2	3.00e-06	0	44	0	2070937600	15	4610
2026-01-22 00:25:18.83	197.07	11.94	-27.6	-29.5	14.4	7.00e-07	0	44	0	2074083328	15	4500
2026-01-22 00:25:19.83	197.08	11.85	-27.7	-29.6	14.3	3.71e-03	0	44	0	2077229056	15	4530
2026-01-22 00:25:20.83	197.09	11.76	-27.7	-29.9	14.2	1.50e-06	0	44	0	2080374784	15	4603
2026-01-22 00:25:21.83	197.10	11.66	-27.7	-29.8	14.2	0.00e+00	0	44	0	2083520512	15	4585
2026-01-22 00:25:22.84	197.11	11.57	-27.6	-29.5	14.4	7.00e-07	0	44	0	2086666240	15	4493
2026-01-22 00:25:23.85	197.12	11.47	-27.6	-29.5	14.4	7.00e-07	0	44	0	2089811968	15	4486
2026-01-22 00:25:24.85	197.13	11.38	-27.6	-29.6	14.3	7.00e-07	0	44	0	2092957696	15	4524
2026-01-22 00:25:25.85	197.14	11.29	-27.6	-29.5	14.4	1.50e-06	0	44	0	2096103424	15	4474
2026-01-22 00:25:26.86	197.15	11.20	-27.7	-29.7	14.3	7.00e-07	0	44	0	2099249152	15	4536
2026-01-22 00:25:27.86	197.16	11.11	-27.7	-29.8	14.2	1.50e-06	0	44	0	2102394880	15	4575
2026-01-22 00:25:28.86	197.17	11.01	-27.6	-29.6	14.3	2.20e-06	0	44	0	2105540608	15	4517
2026-01-22 00:25:29.87	197.18	10.92	-27.8	-30.0	14.0	3.00e-06	0	44	0	2108686336	15	4650
2026-01-22 00:25:30.87	197.20	10.83	-27.8	-30.0	14.0	3.00e-06	0	44	0	2111832064	15	4639
2026-01-22 00:25:31.87	197.21	10.74	-27.8	-30.0	14.1	2.20e-06	0	44	0	2114977792	15	4634
2026-01-22 00:25:32.88	197.22	10.65	-27.9	-30.3	13.9	5.30e-06	0	44	0	2118123520	15	4726
2026-01-22 00:25:33.88	197.23	10.56	-27.9	-30.2	13.9	3.80e-06	0	44	0	2121269248	15	4712
2026-01-22 00:25:34.88	197.24	10.47	-28.0	-30.4	13.8	2.20e-06	0	44	0	2124414976	15	4771
2026-01-22 00:25:35.88	197.25	10.38	-28.2	-30.4	13.7	6.80e-06	0	44	0	2127560704	16	4636
2026-01-22 00:25:36.88	197.26	10.30	-28.1	-30.3	13.7	3.00e-06	0	44	0	2130706432	16	4602
2026-01-22 00:25:37.88	197.27	10.21	-28.3	-30.5	13.6	6.10e-06	0	44	0	2133852160	16	4690
2026-01-22 00:25:38.89	197.28	10.12	-28.2	-30.5	13.6	9.10e-06	0	44	0	2136997888	16	4682
