passes_logs/2026/01/22/R2M6_AANII_01/R2M6_AANII_01__20260122_230532_NOAA_20_JPSS-1_rec.log

#Pass ID: 20260122_230532_NOAA 20 (JPSS-1)
#Satellite: NOAA 20 (JPSS-1)
#Configuration: NOAA 20
#almurnet v.1.7.20240730
#Start time: 2026-01-22 23:05:32

#Version: 2.2.20231116
#Station: R2M6_AANII_01
#Location: 30.233357 lon 59.946436 lat
#TLE: 1 43013U 17073A   26022.44900781  .00000193  00000+0  11233-3 0  9999
#TLE: 2 43013  98.7645 323.3100 0001197  28.8413 331.2829 14.19538802423792

#Time	Az	El	Level	Level2	SNR	BER	BlckErr	Temp	State	Recorded	gain1	gain2
2026-01-22 23:05:32.99	26.54	7.04	-31.7	-37.7	5.1	1.21e+00	0	42	0	0	23	7144
2026-01-22 23:05:33.98	26.61	7.11	-32.3	-39.8	4.6	1.34e+00	0	42	104	0	25	8458
2026-01-22 23:05:34.98	26.69	7.18	-32.2	-38.7	6.9	2.38e-01	0	42	0	0	25	7624
2026-01-22 23:05:35.98	26.76	7.25	-32.3	-39.3	6.5	2.12e-01	0	41	0	1048576	25	8092
2026-01-22 23:05:36.99	26.84	7.32	-32.2	-38.6	7.1	1.80e-01	0	42	0	3145728	25	7548
2026-01-22 23:05:37.99	26.91	7.39	-32.0	-37.7	7.8	1.10e-01	0	42	0	5242880	25	6921
2026-01-22 23:05:38.98	26.99	7.46	-31.9	-37.5	8.4	6.77e-02	0	42	0	7340032	24	6863
2026-01-22 23:05:39.99	27.07	7.53	-31.6	-36.4	9.2	2.74e-02	0	42	0	8388608	24	6274
2026-01-22 23:05:40.99	27.14	7.60	-31.4	-35.6	9.8	1.31e-02	0	42	0	10485760	24	5849
2026-01-22 23:05:41.99	27.22	7.66	-31.3	-35.6	10.3	6.92e-03	0	42	0	12582912	23	5919
2026-01-22 23:05:43.00	27.30	7.74	-31.1	-35.0	10.8	3.35e-03	0	42	0	14680064	23	5628
2026-01-22 23:05:44.00	27.37	7.80	-31.0	-34.7	10.9	2.24e-03	0	42	0	16777216	23	5506
2026-01-22 23:05:45.01	27.45	7.88	-31.0	-34.5	11.2	1.93e-03	0	42	0	17825792	23	5405
2026-01-22 23:05:46.01	27.53	7.95	-30.9	-34.4	11.3	1.22e-03	0	42	0	19922944	23	5357
2026-01-22 23:05:47.00	27.61	8.02	-31.0	-34.7	11.0	1.41e-03	0	42	0	22020096	23	5485
2026-01-22 23:05:48.00	27.69	8.09	-31.2	-35.4	10.5	2.05e-03	0	42	0	24117248	23	5813
2026-01-22 23:05:49.00	27.77	8.16	-31.0	-34.6	11.1	2.49e-03	0	42	0	26214400	23	5440
2026-01-22 23:05:50.01	27.85	8.23	-30.8	-34.0	11.5	9.52e-04	0	42	0	27262976	23	5199
2026-01-22 23:05:51.00	27.93	8.30	-30.7	-34.0	11.9	4.42e-04	0	42	0	29360128	22	5312
2026-01-22 23:05:52.01	28.01	8.37	-30.7	-34.3	11.7	4.24e-04	0	42	0	31457280	22	5400
2026-01-22 23:05:53.01	28.09	8.44	-30.9	-34.9	11.2	1.05e-03	0	42	0	33554432	22	5703
2026-01-22 23:05:54.02	28.17	8.51	-30.9	-34.7	11.5	9.68e-04	0	42	0	35651584	22	5601
2026-01-22 23:05:55.02	28.25	8.59	-30.9	-34.8	11.4	1.07e-03	0	42	0	36700160	22	5637
2026-01-22 23:05:56.02	28.34	8.66	-30.9	-34.6	11.5	9.73e-04	0	42	0	38797312	22	5538
2026-01-22 23:05:57.03	28.42	8.73	-30.8	-34.5	11.6	7.35e-04	0	42	0	40894464	22	5488
2026-01-22 23:05:58.03	28.50	8.80	-30.8	-34.4	11.7	6.88e-04	0	42	0	42991616	22	5455
2026-01-22 23:05:59.03	28.58	8.87	-30.8	-34.4	11.7	6.68e-04	0	42	0	45088768	22	5461
2026-01-22 23:06:00.03	28.67	8.95	-31.0	-35.1	11.2	1.26e-03	0	42	0	46137344	22	5773
2026-01-22 23:06:01.04	28.75	9.02	-30.8	-34.4	11.6	9.09e-04	0	42	0	48234496	22	5460
2026-01-22 23:06:02.04	28.84	9.09	-30.6	-33.9	12.1	4.28e-04	0	42	0	50331648	22	5240
2026-01-22 23:06:03.04	28.92	9.16	-30.5	-33.9	12.4	2.84e-04	0	42	0	52428800	21	5331
2026-01-22 23:06:04.03	29.01	9.24	-30.6	-34.3	12.1	2.10e-04	0	42	0	53477376	21	5523
2026-01-22 23:06:05.04	29.09	9.31	-30.5	-33.9	12.4	2.66e-04	0	42	0	55574528	21	5333
2026-01-22 23:06:06.04	29.18	9.38	-30.5	-34.1	12.3	1.50e-04	0	42	0	57671680	21	5425
2026-01-22 23:06:07.04	29.26	9.46	-30.6	-34.2	12.2	1.91e-04	0	43	0	59768832	21	5487
2026-01-22 23:06:08.04	29.35	9.53	-30.5	-34.0	12.3	1.73e-04	0	42	0	61865984	21	5381
2026-01-22 23:06:09.05	29.44	9.61	-30.5	-33.9	12.5	1.29e-04	0	42	0	62914560	21	5327
2026-01-22 23:06:10.05	29.53	9.68	-30.4	-33.8	12.5	9.84e-05	0	43	0	65011712	21	5278
2026-01-22 23:06:11.06	29.62	9.75	-30.4	-33.6	12.6	9.30e-05	0	42	0	67108864	21	5230
2026-01-22 23:06:12.06	29.70	9.83	-30.5	-33.8	12.5	1.20e-04	0	43	0	69206016	21	5296
2026-01-22 23:06:13.06	29.79	9.90	-30.4	-33.5	12.7	8.62e-05	0	43	0	71303168	21	5180
2026-01-22 23:06:14.07	29.88	9.98	-30.4	-33.5	12.8	6.17e-05	0	43	0	72351744	21	5178
2026-01-22 23:06:15.07	29.97	10.05	-30.4	-33.7	12.6	9.76e-05	0	43	0	74448896	21	5265
2026-01-22 23:06:16.07	30.06	10.13	-30.6	-34.1	12.3	1.23e-04	0	43	0	76546048	21	5421
2026-01-22 23:06:17.08	30.15	10.20	-30.5	-33.9	12.4	1.14e-04	0	43	0	78643200	21	5345
2026-01-22 23:06:18.08	30.25	10.28	-30.4	-33.6	12.7	9.46e-05	0	43	0	80740352	21	5194
2026-01-22 23:06:19.09	30.34	10.36	-30.4	-33.6	12.8	6.63e-05	0	43	0	81788928	21	5199
2026-01-22 23:06:20.09	30.43	10.43	-30.4	-33.7	12.7	7.93e-05	0	43	0	83886080	21	5260
2026-01-22 23:06:21.10	30.52	10.51	-30.4	-33.7	12.7	7.62e-05	0	43	0	85983232	21	5239
2026-01-22 23:06:22.10	30.62	10.58	-30.5	-33.9	12.5	8.77e-05	0	43	0	88080384	21	5337
2026-01-22 23:06:23.11	30.71	10.66	-30.4	-34.0	12.8	7.40e-05	0	43	0	90177536	20	5478
2026-01-22 23:06:24.11	30.80	10.74	-30.4	-34.1	12.7	7.17e-05	0	43	0	91226112	20	5531
2026-01-22 23:06:25.11	30.90	10.81	-30.4	-34.2	12.6	8.23e-05	0	43	0	93323264	20	5545
2026-01-22 23:06:26.12	30.99	10.89	-30.4	-34.0	12.9	7.62e-05	0	43	0	95420416	20	5471
2026-01-22 23:06:27.12	31.09	10.97	-30.4	-34.2	12.7	5.87e-05	0	43	0	97517568	20	5561
2026-01-22 23:06:28.12	31.19	11.05	-30.5	-33.8	12.5	8.85e-05	0	43	0	99614720	21	5294
2026-01-22 23:06:29.13	31.28	11.12	-30.4	-33.5	12.8	7.70e-05	0	43	0	100663296	21	5168
2026-01-22 23:06:30.14	31.38	11.20	-30.2	-33.6	13.1	3.50e-05	0	43	0	102760448	20	5300
2026-01-22 23:06:31.15	31.48	11.28	-30.4	-34.0	12.9	5.18e-05	0	43	0	104857600	20	5470
2026-01-22 23:06:32.15	31.58	11.36	-30.2	-33.6	13.2	3.96e-05	0	43	0	106954752	20	5289
2026-01-22 23:06:33.15	31.67	11.44	-30.2	-33.4	13.3	3.50e-05	0	43	0	109051904	20	5228
2026-01-22 23:06:34.15	31.77	11.51	-30.2	-33.6	13.2	2.51e-05	0	43	0	110100480	20	5300
2026-01-22 23:06:35.16	31.87	11.59	-30.3	-33.7	13.1	1.90e-05	0	43	0	112197632	20	5350
2026-01-22 23:06:36.16	31.97	11.67	-30.3	-33.8	13.1	3.81e-05	0	43	0	114294784	20	5396
2026-01-22 23:06:37.16	32.07	11.75	-30.0	-33.3	13.1	2.28e-05	0	43	0	116391936	20	5271
2026-01-22 23:06:38.16	32.17	11.83	-30.1	-33.2	13.3	1.83e-05	0	43	0	118489088	20	5162
2026-01-22 23:06:39.16	32.27	11.91	-30.1	-33.3	13.3	1.22e-05	0	43	0	119537664	20	5198
2026-01-22 23:06:40.17	32.38	11.99	-30.1	-33.2	13.2	1.52e-05	0	43	0	121634816	20	5158
2026-01-22 23:06:41.17	32.48	12.07	-30.1	-33.3	13.2	1.67e-05	0	43	0	123731968	20	5176
2026-01-22 23:06:42.18	32.58	12.15	-30.0	-33.0	13.5	7.60e-06	0	43	0	125829120	20	5089
2026-01-22 23:06:43.18	32.69	12.23	-30.1	-33.2	13.4	1.22e-05	0	43	0	126877696	20	5150
2026-01-22 23:06:44.19	32.79	12.31	-30.2	-33.5	13.3	1.67e-05	0	43	0	128974848	20	5275
2026-01-22 23:06:45.19	32.90	12.39	-30.1	-33.2	13.4	1.60e-05	0	43	0	131072000	20	5162
2026-01-22 23:06:46.20	33.00	12.47	-30.2	-33.5	13.2	2.21e-05	0	43	0	133169152	20	5264
2026-01-22 23:06:47.20	33.11	12.55	-30.2	-33.4	13.3	3.11e-04	0	43	0	135266304	20	5244
2026-01-22 23:06:48.21	33.21	12.63	-30.2	-33.4	13.4	1.60e-05	0	43	0	136314880	20	5206
2026-01-22 23:06:49.21	33.32	12.71	-30.2	-33.5	13.3	2.28e-05	0	43	0	138412032	20	5254
2026-01-22 23:06:50.22	33.43	12.80	-30.3	-33.7	13.1	1.22e-05	0	43	0	140509184	20	5357
2026-01-22 23:06:51.22	33.54	12.88	-30.4	-34.1	12.9	5.34e-05	0	43	0	142606336	20	5516
2026-01-22 23:06:52.22	33.65	12.96	-30.5	-33.9	12.7	6.10e-05	0	43	0	144703488	21	5302
2026-01-22 23:06:53.23	33.76	13.04	-30.4	-33.6	12.9	6.02e-05	0	43	0	145752064	21	5193
2026-01-22 23:06:54.23	33.86	13.12	-30.5	-33.7	12.9	4.73e-05	0	43	0	147849216	21	5218
2026-01-22 23:06:55.23	33.97	13.20	-30.5	-33.8	12.8	5.79e-05	0	43	0	149946368	21	5269
2026-01-22 23:06:56.24	34.09	13.29	-30.5	-33.8	12.8	5.87e-05	0	43	0	152043520	21	5279
2026-01-22 23:06:57.24	34.20	13.37	-30.6	-34.1	12.6	6.86e-05	0	43	0	154140672	21	5381
2026-01-22 23:06:58.24	34.31	13.45	-30.5	-33.8	12.8	1.99e-04	0	43	0	155189248	21	5255
2026-01-22 23:06:59.24	34.42	13.53	-30.4	-33.5	13.0	5.72e-05	0	43	0	157286400	21	5129
2026-01-22 23:07:00.23	34.53	13.62	-30.4	-33.5	13.0	4.42e-05	0	43	0	159383552	21	5141
2026-01-22 23:07:01.24	34.65	13.70	-30.4	-33.4	13.1	8.62e-05	0	43	0	161480704	21	5091
2026-01-22 23:07:02.23	34.76	13.78	-30.4	-33.6	13.0	6.48e-05	0	43	0	163577856	21	5163
2026-01-22 23:07:03.24	34.88	13.87	-30.5	-33.7	13.0	5.41e-05	0	43	0	164626432	21	5195
2026-01-22 23:07:04.25	34.99	13.95	-30.3	-33.3	13.2	2.82e-05	0	43	0	166723584	21	5047
2026-01-22 23:07:05.26	35.11	14.04	-30.4	-33.5	13.0	3.05e-05	0	43	0	168820736	21	5146
2026-01-22 23:07:06.26	35.23	14.12	-30.3	-33.2	13.2	2.21e-05	0	43	0	170917888	21	5031
2026-01-22 23:07:07.27	35.35	14.21	-30.3	-33.1	13.4	1.98e-05	0	43	0	173015040	21	4990
2026-01-22 23:07:08.27	35.47	14.29	-30.4	-33.4	13.2	2.36e-05	0	43	0	174063616	21	5087
2026-01-22 23:07:09.28	35.59	14.38	-30.4	-33.4	13.1	2.59e-05	0	43	0	176160768	21	5105
2026-01-22 23:07:10.28	35.70	14.46	-30.5	-33.6	13.1	2.89e-05	0	43	0	178257920	21	5173
2026-01-22 23:07:11.29	35.83	14.55	-30.6	-33.9	12.8	4.88e-05	0	43	0	180355072	21	5290
2026-01-22 23:07:12.29	35.95	14.63	-30.5	-33.9	12.9	5.18e-05	0	43	0	181403648	21	5269
2026-01-22 23:07:13.29	36.07	14.72	-30.7	-34.2	12.7	4.88e-05	0	43	0	183500800	21	5413
2026-01-22 23:07:14.30	36.19	14.80	-30.7	-34.3	12.6	1.17e-04	0	43	0	185597952	21	5436
2026-01-22 23:07:15.30	36.31	14.89	-30.6	-33.9	12.8	6.33e-05	0	43	0	187695104	21	5302
2026-01-22 23:07:16.29	36.44	14.97	-30.4	-33.6	13.1	4.04e-05	0	43	0	189792256	21	5153
2026-01-22 23:07:17.30	36.56	15.06	-30.4	-33.4	13.2	2.13e-05	0	43	0	191889408	21	5087
2026-01-22 23:07:18.30	36.69	15.15	-30.4	-33.4	13.2	2.44e-05	0	43	0	192937984	21	5101
2026-01-22 23:07:19.30	36.81	15.23	-30.4	-33.3	13.3	1.52e-05	0	43	0	195035136	21	5054
2026-01-22 23:07:20.31	36.94	15.32	-30.5	-33.6	13.1	2.67e-05	0	43	0	197132288	21	5171
2026-01-22 23:07:21.32	37.07	15.41	-30.3	-33.2	13.4	2.28e-05	0	43	0	199229440	21	5010
2026-01-22 23:07:22.32	37.19	15.50	-30.4	-33.3	13.3	2.13e-05	0	43	0	200278016	21	5059
2026-01-22 23:07:23.33	37.32	15.58	-30.4	-33.5	13.2	9.91e-05	0	43	0	202375168	21	5103
2026-01-22 23:07:24.33	37.45	15.67	-30.4	-33.4	13.2	2.05e-05	0	43	0	204472320	21	5092
2026-01-22 23:07:25.34	37.58	15.76	-30.5	-33.6	13.1	9.38e-05	0	43	0	206569472	21	5169
2026-01-22 23:07:26.34	37.71	15.85	-30.5	-33.7	13.1	4.11e-05	0	43	0	208666624	21	5196
2026-01-22 23:07:27.34	37.85	15.93	-30.5	-33.8	13.0	3.81e-05	0	43	0	209715200	21	5218
2026-01-22 23:07:28.34	37.98	16.02	-30.4	-33.4	13.3	2.05e-05	0	43	0	211812352	21	5086
2026-01-22 23:07:29.35	38.11	16.11	-30.4	-33.3	13.3	1.52e-05	0	43	0	213909504	21	5026
2026-01-22 23:07:30.35	38.25	16.20	-30.3	-33.2	13.4	1.75e-05	0	43	0	216006656	21	4992
2026-01-22 23:07:31.35	38.38	16.29	-30.3	-33.1	13.5	1.14e-05	0	43	0	218103808	21	4952
2026-01-22 23:07:32.35	38.52	16.38	-30.3	-33.1	13.5	1.22e-05	0	44	0	219152384	21	4979
2026-01-22 23:07:33.35	38.65	16.47	-30.4	-33.2	13.4	1.75e-05	0	43	0	221249536	21	5012
2026-01-22 23:07:34.35	38.79	16.56	-30.3	-33.1	13.4	1.06e-05	0	43	0	223346688	21	4979
2026-01-22 23:07:35.35	38.92	16.65	-30.4	-33.4	13.3	1.44e-05	0	43	0	225443840	21	5076
2026-01-22 23:07:36.35	39.06	16.73	-30.4	-33.5	13.3	2.36e-05	0	44	0	227540992	21	5098
2026-01-22 23:07:37.35	39.20	16.82	-30.3	-33.0	13.6	1.52e-05	0	43	0	228589568	21	4910
2026-01-22 23:07:38.36	39.34	16.91	-30.2	-32.9	13.7	8.30e-06	0	43	0	230686720	21	4888
2026-01-22 23:07:39.36	39.48	17.00	-30.2	-32.8	13.7	4.50e-06	0	44	0	232783872	21	4866
2026-01-22 23:07:40.36	39.63	17.10	-30.2	-32.7	13.7	3.80e-06	0	43	0	234881024	21	4828
2026-01-22 23:07:41.37	39.77	17.19	-30.2	-32.8	13.7	1.50e-06	0	43	0	236978176	21	4858
2026-01-22 23:07:42.37	39.91	17.28	-30.3	-33.0	13.6	1.06e-05	0	43	0	238026752	21	4926
2026-01-22 23:07:43.37	40.06	17.37	-30.3	-33.1	13.6	7.60e-06	0	43	0	240123904	21	4951
2026-01-22 23:07:44.37	40.20	17.46	-30.3	-33.2	13.5	6.80e-06	0	43	0	242221056	21	4987
2026-01-22 23:07:45.37	40.35	17.55	-30.4	-33.3	13.5	1.44e-05	0	43	0	244318208	21	5022
2026-01-22 23:07:46.38	40.49	17.64	-30.4	-33.3	13.4	1.75e-05	0	43	0	245366784	21	5038
2026-01-22 23:07:47.38	40.64	17.73	-30.4	-33.2	13.5	1.22e-05	0	43	0	247463936	21	4998
2026-01-22 23:07:48.38	40.79	17.82	-30.3	-33.0	13.6	3.80e-06	0	44	0	249561088	21	4906
2026-01-22 23:07:49.39	40.94	17.92	-30.3	-33.1	13.6	6.80e-06	0	43	0	251658240	21	4948
2026-01-22 23:07:50.39	41.09	18.01	-30.3	-33.1	13.6	2.05e-05	0	43	0	253755392	21	4957
2026-01-22 23:07:51.39	41.24	18.10	-30.1	-32.5	13.9	4.50e-06	0	43	0	254803968	21	4756
2026-01-22 23:07:52.39	41.39	18.19	-30.1	-32.4	14.0	6.80e-06	0	43	0	256901120	21	4708
2026-01-22 23:07:53.40	41.55	18.29	-30.1	-32.4	14.1	3.00e-06	0	43	0	258998272	21	4707
2026-01-22 23:07:54.40	41.70	18.38	-30.1	-32.5	14.0	0.00e+00	0	43	0	261095424	21	4756
2026-01-22 23:07:55.40	41.85	18.47	-30.2	-32.7	13.8	8.30e-06	0	44	0	263192576	21	4807
2026-01-22 23:07:56.41	42.01	18.57	-30.1	-32.5	14.0	5.30e-06	0	44	0	264241152	21	4748
2026-01-22 23:07:57.41	42.17	18.66	-30.0	-32.3	14.1	1.50e-06	0	44	0	266338304	21	4688
2026-01-22 23:07:58.42	42.33	18.75	-30.0	-32.3	14.1	7.00e-07	0	44	0	268435456	21	4680
2026-01-22 23:07:59.42	42.48	18.85	-30.0	-32.1	14.2	1.50e-06	0	44	0	270532608	21	4612
2026-01-22 23:08:00.42	42.64	18.94	-29.8	-31.7	14.5	7.00e-07	0	44	0	272629760	21	4490
2026-01-22 23:08:01.43	42.81	19.03	-29.7	-32.1	14.6	3.00e-06	0	43	0	273678336	20	4703
2026-01-22 23:08:02.43	42.97	19.13	-29.6	-31.8	14.8	1.50e-06	0	43	0	275775488	20	4601
2026-01-22 23:08:03.43	43.13	19.22	-29.7	-31.8	14.8	0.00e+00	0	44	0	277872640	20	4628
2026-01-22 23:08:04.43	43.29	19.31	-29.7	-31.9	14.7	1.50e-06	0	44	0	279969792	20	4629
2026-01-22 23:08:05.44	43.46	19.41	-29.5	-31.5	15.0	0.00e+00	0	44	0	282066944	20	4520
2026-01-22 23:08:06.44	43.62	19.50	-29.5	-31.3	15.1	0.00e+00	0	43	0	283115520	20	4462
2026-01-22 23:08:07.44	43.79	19.60	-29.5	-31.4	15.0	0.00e+00	0	43	0	285212672	20	4490
2026-01-22 23:08:08.44	43.95	19.69	-29.5	-31.5	15.0	0.00e+00	0	44	0	287309824	20	4521
2026-01-22 23:08:09.45	44.12	19.79	-29.5	-31.4	15.0	0.00e+00	0	43	0	289406976	20	4501
2026-01-22 23:08:10.46	44.29	19.88	-29.5	-31.5	15.0	0.00e+00	0	44	0	291504128	20	4503
2026-01-22 23:08:11.45	44.46	19.98	-29.4	-31.2	15.2	7.00e-07	0	43	0	292552704	20	4425
2026-01-22 23:08:12.45	44.63	20.07	-29.5	-31.3	15.1	7.00e-07	0	43	0	294649856	20	4452
2026-01-22 23:08:13.45	44.81	20.17	-29.5	-31.4	15.1	0.00e+00	0	44	0	296747008	20	4469
2026-01-22 23:08:14.46	44.98	20.26	-29.5	-31.4	15.1	0.00e+00	0	44	0	298844160	20	4469
2026-01-22 23:08:15.45	45.15	20.36	-29.5	-31.4	15.0	0.00e+00	0	44	0	300941312	20	4486
2026-01-22 23:08:16.45	45.33	20.45	-29.5	-31.4	15.0	0.00e+00	0	44	0	301989888	20	4486
2026-01-22 23:08:17.45	45.50	20.55	-29.5	-31.5	15.0	0.00e+00	0	44	0	304087040	20	4511
2026-01-22 23:08:18.46	45.68	20.65	-29.6	-31.6	15.0	0.00e+00	0	44	0	306184192	20	4529
2026-01-22 23:08:19.46	45.86	20.74	-29.5	-31.4	15.1	0.00e+00	0	44	0	308281344	20	4467
2026-01-22 23:08:20.46	46.04	20.84	-29.4	-31.2	15.1	0.00e+00	0	44	0	309329920	20	4425
2026-01-22 23:08:21.45	46.22	20.93	-29.4	-31.2	15.2	0.00e+00	0	43	0	311427072	20	4428
2026-01-22 23:08:22.46	46.40	21.03	-29.4	-31.7	15.3	0.00e+00	0	44	0	313524224	19	4672
2026-01-22 23:08:23.46	46.59	21.12	-29.4	-31.6	15.3	7.00e-07	0	44	0	315621376	19	4642
2026-01-22 23:08:24.46	46.77	21.22	-29.3	-31.5	15.4	0.00e+00	0	43	0	317718528	19	4591
2026-01-22 23:08:25.47	46.96	21.32	-29.5	-31.8	15.1	0.00e+00	0	44	0	318767104	19	4716
2026-01-22 23:08:26.47	47.14	21.41	-29.5	-31.8	15.2	0.00e+00	0	44	0	320864256	19	4717
2026-01-22 23:08:27.48	47.33	21.51	-29.4	-31.7	15.0	0.00e+00	0	44	0	322961408	19	4661
2026-01-22 23:08:28.48	47.52	21.61	-29.6	-32.0	14.9	0.00e+00	0	44	0	325058560	19	4775
2026-01-22 23:08:29.49	47.71	21.71	-29.6	-32.0	15.0	0.00e+00	0	43	0	327155712	19	4786
2026-01-22 23:08:30.48	47.90	21.80	-29.5	-31.8	15.3	0.00e+00	0	43	0	328204288	19	4690
2026-01-22 23:08:31.48	48.09	21.90	-29.4	-31.7	15.3	0.00e+00	0	44	0	330301440	19	4663
2026-01-22 23:08:32.49	48.29	22.00	-29.4	-31.7	15.3	0.00e+00	0	44	0	332398592	19	4667
2026-01-22 23:08:33.49	48.48	22.09	-29.3	-31.4	15.4	0.00e+00	0	44	0	334495744	19	4585
2026-01-22 23:08:34.49	48.68	22.19	-29.2	-31.6	15.6	0.00e+00	0	44	0	336592896	18	4759
2026-01-22 23:08:35.49	48.87	22.29	-29.2	-31.6	15.6	0.00e+00	0	44	0	337641472	18	4757
2026-01-22 23:08:36.49	49.07	22.38	-29.1	-31.5	15.7	3.08e-04	0	44	0	339738624	18	4705
2026-01-22 23:08:37.50	49.27	22.48	-29.1	-31.5	15.7	0.00e+00	0	44	0	341835776	18	4703
2026-01-22 23:08:38.50	49.47	22.58	-29.2	-31.6	15.6	0.00e+00	0	44	0	343932928	18	4765
2026-01-22 23:08:39.50	49.67	22.67	-29.3	-31.8	15.5	3.20e-05	0	44	0	346030080	18	4812
2026-01-22 23:08:40.51	49.88	22.77	-29.3	-31.8	15.5	0.00e+00	0	44	0	347078656	18	4819
2026-01-22 23:08:41.51	50.08	22.87	-29.3	-31.8	15.6	0.00e+00	0	44	0	349175808	18	4810
2026-01-22 23:08:42.51	50.29	22.96	-29.3	-31.9	15.6	2.20e-06	0	44	0	351272960	18	4826
2026-01-22 23:08:43.52	50.50	23.06	-29.3	-31.8	15.6	0.00e+00	0	43	0	353370112	18	4812
2026-01-22 23:08:44.52	50.71	23.16	-29.2	-31.7	15.7	0.00e+00	0	44	0	354418688	18	4760
2026-01-22 23:08:45.52	50.91	23.26	-29.4	-32.0	15.4	0.00e+00	0	44	0	356515840	18	4881
2026-01-22 23:08:46.52	51.12	23.35	-29.4	-31.6	15.3	0.00e+00	0	44	0	358612992	19	4630
2026-01-22 23:08:47.53	51.34	23.45	-29.4	-31.5	15.5	0.00e+00	0	43	0	360710144	19	4591
2026-01-22 23:08:48.53	51.55	23.55	-29.4	-31.5	15.4	0.00e+00	0	44	0	362807296	19	4604
2026-01-22 23:08:49.54	51.77	23.65	-29.4	-31.5	15.4	8.30e-06	0	44	0	363855872	19	4604
2026-01-22 23:08:50.54	51.98	23.74	-29.5	-31.8	15.3	0.00e+00	0	44	0	365953024	19	4686
2026-01-22 23:08:51.54	52.20	23.84	-29.4	-31.6	15.3	0.00e+00	0	44	0	368050176	19	4646
2026-01-22 23:08:52.54	52.42	23.93	-29.5	-31.7	15.3	2.07e-04	0	44	0	370147328	19	4675
2026-01-22 23:08:53.54	52.64	24.03	-29.4	-31.7	15.3	0.00e+00	0	44	0	372244480	19	4654
2026-01-22 23:08:54.55	52.86	24.13	-29.5	-31.7	15.3	1.82e-04	0	44	0	373293056	19	4670
2026-01-22 23:08:55.55	53.08	24.23	-29.6	-32.1	15.1	0.00e+00	0	44	0	375390208	19	4796
2026-01-22 23:08:56.55	53.30	24.32	-29.6	-32.0	15.2	0.00e+00	0	44	0	377487360	19	4754
2026-01-22 23:08:57.55	53.53	24.42	-29.4	-32.0	15.5	1.17e-04	0	44	0	379584512	18	4875
2026-01-22 23:08:58.55	53.76	24.51	-29.4	-32.0	15.4	0.00e+00	0	44	0	381681664	18	4878
2026-01-22 23:08:59.56	53.99	24.61	-29.5	-31.8	15.2	0.00e+00	0	44	0	382730240	19	4697
2026-01-22 23:09:00.54	54.21	24.70	-29.7	-32.3	15.0	7.62e-05	0	44	0	384827392	19	4870
2026-01-22 23:09:01.54	54.44	24.80	-29.8	-32.5	14.9	4.34e-05	0	44	0	386924544	19	4918
2026-01-22 23:09:02.54	54.67	24.90	-29.7	-32.3	14.9	0.00e+00	0	44	0	389021696	19	4854
2026-01-22 23:09:03.55	54.91	24.99	-29.8	-32.5	14.9	0.00e+00	0	44	0	391118848	19	4921
2026-01-22 23:09:04.55	55.14	25.09	-29.8	-32.7	14.8	0.00e+00	0	44	0	392167424	19	4989
2026-01-22 23:09:05.56	55.38	25.18	-29.8	-32.7	14.7	0.00e+00	0	44	0	394264576	19	4996
2026-01-22 23:09:06.56	55.62	25.28	-29.9	-32.9	14.6	7.00e-07	0	44	0	396361728	19	5080
2026-01-22 23:09:07.55	55.85	25.37	-30.0	-33.0	14.6	0.00e+00	0	43	0	398458880	19	5106
2026-01-22 23:09:08.56	56.09	25.47	-29.9	-32.4	14.5	0.00e+00	0	44	0	399507456	20	4803
2026-01-22 23:09:09.56	56.34	25.56	-30.2	-33.1	14.1	0.00e+00	0	44	0	401604608	20	5030
2026-01-22 23:09:10.56	56.58	25.66	-30.1	-33.0	14.2	1.50e-06	0	44	0	403701760	20	5004
2026-01-22 23:09:11.57	56.82	25.75	-30.1	-32.9	14.3	1.50e-06	0	44	0	405798912	20	4972
2026-01-22 23:09:12.57	57.07	25.85	-30.2	-33.2	14.1	7.00e-07	0	44	0	407896064	20	5064
2026-01-22 23:09:13.58	57.32	25.94	-30.2	-33.2	14.0	3.80e-06	0	44	0	408944640	20	5085
2026-01-22 23:09:14.58	57.57	26.03	-30.3	-33.3	14.0	7.00e-07	0	44	0	411041792	20	5120
2026-01-22 23:09:15.59	57.82	26.13	-30.3	-33.4	14.0	6.80e-06	0	44	0	413138944	20	5131
2026-01-22 23:09:16.60	58.07	26.22	-30.5	-33.8	13.7	3.80e-06	0	44	0	415236096	20	5295
2026-01-22 23:09:17.60	58.33	26.31	-30.5	-33.4	13.6	7.60e-06	0	44	0	417333248	21	5031
2026-01-22 23:09:18.60	58.58	26.41	-30.5	-33.3	13.7	8.30e-06	0	44	0	418381824	21	4992
2026-01-22 23:09:19.60	58.84	26.50	-30.3	-33.0	13.9	4.50e-06	0	44	0	420478976	21	4874
2026-01-22 23:09:20.61	59.10	26.59	-30.3	-32.8	14.1	0.00e+00	0	44	0	422576128	21	4809
2026-01-22 23:09:21.61	59.36	26.68	-30.4	-33.0	13.9	4.57e-05	0	44	0	424673280	21	4894
2026-01-22 23:09:22.61	59.62	26.77	-30.3	-32.9	13.9	5.41e-05	0	44	0	426770432	21	4854
2026-01-22 23:09:23.62	59.88	26.87	-30.3	-32.9	14.0	5.30e-06	0	44	0	427819008	21	4854
2026-01-22 23:09:24.61	60.14	26.96	-30.5	-33.3	13.7	2.08e-04	0	44	0	429916160	21	4995
2026-01-22 23:09:25.62	60.41	27.05	-30.7	-34.0	13.2	3.79e-04	0	44	0	432013312	21	5268
2026-01-22 23:09:26.62	60.67	27.14	-30.9	-34.6	12.9	4.65e-05	0	44	0	434110464	21	5492
2026-01-22 23:09:27.62	60.94	27.23	-31.1	-34.6	12.6	7.70e-04	0	44	0	436207616	22	5380
2026-01-22 23:09:28.62	61.21	27.32	-31.3	-35.3	12.0	1.15e-03	0	44	0	437256192	22	5683
2026-01-22 23:09:29.62	61.48	27.40	-31.3	-35.3	12.0	4.00e-04	0	44	0	439353344	22	5690
2026-01-22 23:09:30.63	61.76	27.49	-31.2	-35.0	12.2	2.49e-04	0	44	0	441450496	22	5574
2026-01-22 23:09:31.63	62.03	27.58	-31.2	-34.9	12.4	9.22e-04	0	44	0	443547648	22	5503
2026-01-22 23:09:32.63	62.30	27.67	-31.1	-34.7	12.5	1.68e-04	0	44	0	445644800	22	5424
2026-01-22 23:09:33.64	62.58	27.76	-31.2	-34.8	12.4	1.27e-04	0	44	0	446693376	22	5454
2026-01-22 23:09:34.65	62.86	27.85	-31.1	-34.7	12.5	1.28e-04	0	44	0	448790528	22	5415
2026-01-22 23:09:35.65	63.14	27.93	-31.1	-34.6	12.6	1.27e-04	0	44	0	450887680	22	5375
2026-01-22 23:09:36.65	63.42	28.02	-31.1	-34.7	12.5	2.05e-04	0	44	0	452984832	22	5409
2026-01-22 23:09:37.66	63.71	28.10	-31.2	-34.9	12.4	1.49e-04	0	44	0	454033408	22	5528
2026-01-22 23:09:38.66	63.99	28.19	-31.2	-34.8	12.4	2.01e-04	0	44	0	456130560	22	5491
2026-01-22 23:09:39.66	64.28	28.27	-31.2	-34.9	12.3	4.13e-04	0	44	0	458227712	22	5504
2026-01-22 23:09:40.66	64.57	28.36	-31.1	-34.7	12.5	1.48e-04	0	44	0	460324864	22	5420
2026-01-22 23:09:41.66	64.85	28.44	-31.1	-34.5	12.7	1.15e-04	0	44	0	462422016	22	5345
2026-01-22 23:09:42.66	65.14	28.52	-31.1	-34.5	12.6	1.09e-04	0	44	0	463470592	22	5371
2026-01-22 23:09:43.67	65.44	28.61	-31.2	-34.8	12.5	1.39e-04	0	44	0	465567744	22	5483
2026-01-22 23:09:44.67	65.73	28.69	-31.2	-34.9	12.4	1.56e-04	0	44	0	467664896	22	5503
2026-01-22 23:09:45.67	66.02	28.77	-31.2	-34.8	12.4	1.40e-04	0	44	0	469762048	22	5464
2026-01-22 23:09:46.68	66.32	28.85	-31.1	-34.6	12.6	1.26e-04	0	44	0	471859200	22	5383
2026-01-22 23:09:47.68	66.62	28.93	-30.9	-34.1	12.9	4.95e-05	0	44	0	472907776	22	5196
2026-01-22 23:09:48.68	66.92	29.01	-30.9	-34.1	12.9	5.95e-05	0	44	0	475004928	22	5199
2026-01-22 23:09:49.68	67.22	29.09	-31.0	-34.3	12.8	4.95e-05	0	44	0	477102080	22	5262
2026-01-22 23:09:50.69	67.52	29.17	-30.8	-33.8	13.0	4.42e-05	0	44	0	479199232	22	5079
2026-01-22 23:09:51.68	67.82	29.25	-30.8	-33.7	13.2	3.20e-05	0	44	0	481296384	22	5030
2026-01-22 23:09:52.69	68.13	29.32	-30.8	-33.7	13.2	1.83e-05	0	44	0	482344960	22	5024
2026-01-22 23:09:53.70	68.44	29.40	-30.9	-34.0	13.0	1.90e-05	0	44	0	484442112	22	5138
2026-01-22 23:09:54.70	68.75	29.48	-31.1	-34.5	12.7	6.71e-05	0	44	0	486539264	22	5325
2026-01-22 23:09:55.70	69.06	29.55	-31.1	-34.7	12.5	6.86e-05	0	44	0	488636416	22	5406
2026-01-22 23:09:56.71	69.37	29.63	-31.2	-34.9	12.4	1.33e-04	0	44	0	490733568	22	5486
2026-01-22 23:09:57.71	69.68	29.70	-31.2	-34.7	12.5	1.27e-04	0	44	0	491782144	22	5428
2026-01-22 23:09:58.71	69.99	29.77	-31.2	-34.8	12.5	1.27e-04	0	44	0	493879296	22	5437
2026-01-22 23:09:59.70	70.31	29.85	-31.1	-34.6	12.7	1.17e-04	0	44	0	495976448	22	5357
2026-01-22 23:10:00.70	70.62	29.92	-31.1	-34.7	12.5	8.16e-05	0	44	0	498073600	22	5397
2026-01-22 23:10:01.70	70.94	29.99	-31.2	-35.0	12.4	1.32e-04	0	44	0	499122176	22	5520
2026-01-22 23:10:02.70	71.26	30.06	-31.4	-35.4	12.0	1.92e-04	0	44	0	501219328	22	5732
2026-01-22 23:10:03.70	71.58	30.13	-31.6	-35.5	11.7	4.42e-04	0	44	0	503316480	23	5643
2026-01-22 23:10:04.70	71.90	30.19	-31.8	-36.3	11.1	1.30e-03	0	44	0	505413632	23	5999
2026-01-22 23:10:05.71	72.22	30.26	-32.0	-36.4	10.6	2.72e-03	0	44	0	507510784	24	5984
2026-01-22 23:10:06.71	72.55	30.33	-32.1	-36.9	10.3	4.68e-03	0	44	0	508559360	24	6202
2026-01-22 23:10:07.71	72.87	30.40	-32.3	-37.2	10.0	7.28e-03	0	44	0	510656512	24	6388
2026-01-22 23:10:08.72	73.20	30.46	-32.3	-37.4	9.8	7.90e-03	0	44	0	512753664	24	6495
2026-01-22 23:10:09.72	73.53	30.53	-32.4	-37.6	9.6	1.17e-02	0	44	0	514850816	24	6608
2026-01-22 23:10:10.73	73.86	30.59	-32.3	-37.4	9.9	9.88e-03	0	44	0	516947968	24	6469
2026-01-22 23:10:11.73	74.19	30.65	-32.2	-36.9	10.2	6.43e-03	0	44	0	517996544	24	6224
2026-01-22 23:10:12.72	74.52	30.71	-32.1	-36.8	10.3	5.61e-03	0	44	0	520093696	24	6184
2026-01-22 23:10:13.73	74.86	30.77	-32.1	-36.8	10.2	4.83e-03	0	44	0	522190848	24	6198
2026-01-22 23:10:14.73	75.19	30.83	-32.0	-36.5	10.6	4.21e-03	0	44	0	524288000	24	5997
2026-01-22 23:10:15.74	75.53	30.89	-32.1	-36.7	10.3	3.82e-03	0	44	0	526385152	24	6124
2026-01-22 23:10:16.74	75.87	30.95	-32.1	-36.7	10.4	4.80e-03	0	44	0	527433728	24	6144
2026-01-22 23:10:17.74	76.21	31.01	-32.2	-37.0	10.2	5.70e-03	0	44	0	529530880	24	6262
2026-01-22 23:10:18.74	76.55	31.06	-32.1	-36.9	10.3	5.55e-03	0	44	0	531628032	24	6201
2026-01-22 23:10:19.74	76.89	31.12	-32.0	-36.4	10.6	3.79e-03	0	44	0	533725184	24	5969
2026-01-22 23:10:20.75	77.23	31.17	-31.9	-36.2	10.8	3.39e-03	0	44	0	535822336	24	5871
2026-01-22 23:10:21.75	77.57	31.22	-31.8	-35.9	11.0	1.95e-03	0	44	0	536870912	24	5732
2026-01-22 23:10:22.76	77.92	31.28	-31.9	-36.1	10.8	2.44e-03	0	44	0	538968064	24	5852
2026-01-22 23:10:23.76	78.26	31.33	-32.0	-36.5	10.5	3.16e-03	0	44	0	541065216	24	6042
2026-01-22 23:10:24.77	78.61	31.38	-31.9	-36.2	10.8	3.13e-03	0	44	0	543162368	24	5871
2026-01-22 23:10:25.77	78.96	31.43	-31.9	-36.2	10.8	2.47e-03	0	44	0	545259520	24	5872
2026-01-22 23:10:26.78	79.31	31.48	-32.0	-36.5	10.5	2.72e-03	0	44	0	546308096	24	6014
2026-01-22 23:10:27.78	79.66	31.52	-32.0	-36.4	10.6	3.59e-03	0	44	0	548405248	24	5959
2026-01-22 23:10:28.79	80.01	31.57	-32.0	-36.6	10.5	4.31e-03	0	44	0	550502400	24	6055
2026-01-22 23:10:29.79	80.36	31.61	-32.2	-37.0	10.2	4.58e-03	0	44	0	552599552	24	6264
2026-01-22 23:10:30.79	80.72	31.66	-32.0	-36.4	10.6	6.31e-03	0	44	0	554696704	24	5976
2026-01-22 23:10:31.79	81.07	31.70	-31.7	-35.5	11.2	1.77e-03	0	44	0	555745280	24	5580
2026-01-22 23:10:32.80	81.43	31.74	-31.5	-34.9	11.7	7.90e-04	0	44	0	557842432	24	5288
2026-01-22 23:10:33.80	81.78	31.78	-31.4	-34.5	11.9	4.20e-04	0	44	0	559939584	24	5157
2026-01-22 23:10:34.80	82.13	31.82	-31.4	-34.6	11.9	3.74e-04	0	44	0	562036736	24	5196
2026-01-22 23:10:35.80	82.49	31.86	-31.5	-34.7	11.8	4.20e-04	0	44	0	563085312	24	5225
2026-01-22 23:10:36.81	82.85	31.89	-31.5	-34.8	11.8	4.42e-04	0	44	0	565182464	24	5245
2026-01-22 23:10:37.81	83.21	31.93	-31.6	-34.9	11.7	4.37e-04	0	44	0	567279616	24	5316
2026-01-22 23:10:38.81	83.57	31.96	-31.4	-34.6	11.9	4.16e-04	0	44	0	569376768	24	5172
2026-01-22 23:10:39.82	83.93	32.00	-31.4	-34.4	12.1	3.00e-04	0	44	0	571473920	24	5082
2026-01-22 23:10:40.82	84.29	32.03	-31.3	-34.2	12.2	2.85e-04	0	44	0	572522496	24	5036
2026-01-22 23:10:41.82	84.65	32.06	-31.5	-34.6	11.9	3.21e-04	0	44	0	574619648	24	5195
2026-01-22 23:10:42.83	85.02	32.09	-31.5	-34.8	11.8	4.27e-04	0	44	0	576716800	24	5256
2026-01-22 23:10:43.83	85.38	32.12	-31.7	-35.4	11.3	7.13e-04	0	44	0	578813952	24	5518
2026-01-22 23:10:44.84	85.74	32.14	-31.9	-36.0	10.9	1.77e-03	0	44	0	580911104	24	5781
2026-01-22 23:10:45.85	86.11	32.17	-32.1	-36.6	10.4	3.21e-03	0	44	0	581959680	24	6069
2026-01-22 23:10:46.85	86.47	32.19	-32.0	-36.3	10.7	3.42e-03	0	44	0	584056832	24	5920
2026-01-22 23:10:47.85	86.84	32.22	-31.9	-35.9	11.0	2.61e-03	0	44	0	586153984	24	5717
2026-01-22 23:10:48.85	87.20	32.24	-31.8	-35.6	11.2	1.48e-03	0	44	0	588251136	24	5582
2026-01-22 23:10:49.86	87.57	32.26	-31.6	-35.1	11.6	8.35e-04	0	44	0	590348288	24	5354
2026-01-22 23:10:50.86	87.94	32.28	-31.6	-35.0	11.6	5.79e-04	0	44	0	591396864	24	5342
2026-01-22 23:10:51.86	88.30	32.30	-31.4	-34.4	12.1	3.99e-04	0	44	0	593494016	24	5089
2026-01-22 23:10:52.87	88.67	32.31	-31.4	-34.3	12.2	2.33e-04	0	44	0	595591168	24	5052
2026-01-22 23:10:53.88	89.04	32.33	-31.4	-34.3	12.1	2.49e-04	0	44	0	597688320	24	5060
2026-01-22 23:10:54.88	89.41	32.34	-31.4	-34.4	12.1	2.07e-04	0	44	0	599785472	24	5094
2026-01-22 23:10:55.89	89.78	32.36	-31.4	-34.3	12.2	1.93e-04	0	44	0	600834048	24	5050
2026-01-22 23:10:56.90	90.15	32.37	-31.4	-34.5	12.1	2.50e-04	0	44	0	602931200	24	5120
2026-01-22 23:10:57.90	90.52	32.38	-31.4	-34.4	12.0	2.71e-04	0	44	0	605028352	24	5101
2026-01-22 23:10:58.91	90.89	32.39	-31.3	-34.5	12.4	1.96e-04	0	44	0	607125504	23	5236
2026-01-22 23:10:59.91	91.26	32.40	-31.3	-34.5	12.3	1.68e-04	0	44	0	609222656	23	5218
2026-01-22 23:11:00.91	91.63	32.40	-31.2	-34.3	12.5	1.61e-04	0	44	0	610271232	23	5161
2026-01-22 23:11:01.91	92.00	32.41	-31.1	-34.1	12.6	8.46e-05	0	44	0	612368384	23	5088
2026-01-22 23:11:02.92	92.37	32.41	-31.2	-34.4	12.4	1.65e-04	0	44	0	614465536	23	5203
2026-01-22 23:11:03.92	92.74	32.42	-31.3	-34.7	12.2	1.74e-04	0	44	0	616562688	23	5318
2026-01-22 23:11:04.92	93.11	32.42	-31.5	-35.4	11.7	2.64e-04	0	44	0	618659840	23	5595
2026-01-22 23:11:05.93	93.48	32.42	-31.5	-35.4	11.6	6.44e-04	0	44	0	619708416	23	5631
2026-01-22 23:11:06.93	93.85	32.42	-31.5	-35.4	11.7	7.99e-04	0	44	0	621805568	23	5600
2026-01-22 23:11:07.93	94.22	32.41	-31.4	-35.1	11.9	5.26e-04	0	44	0	623902720	23	5472
2026-01-22 23:11:08.93	94.59	32.41	-31.3	-34.8	12.1	3.57e-04	0	44	0	625999872	23	5340
2026-01-22 23:11:09.94	94.96	32.40	-31.2	-34.5	12.3	3.15e-04	0	44	0	628097024	23	5227
2026-01-22 23:11:10.94	95.33	32.40	-31.3	-34.6	12.2	1.85e-04	0	44	0	629145600	23	5262
2026-01-22 23:11:11.94	95.70	32.39	-31.5	-35.2	11.8	3.54e-04	0	44	0	631242752	23	5523
2026-01-22 23:11:12.94	96.07	32.38	-31.6	-35.6	11.6	5.98e-04	0	44	0	633339904	23	5671
2026-01-22 23:11:13.95	96.44	32.37	-31.7	-35.8	11.4	7.48e-04	0	44	0	635437056	23	5774
2026-01-22 23:11:14.95	96.81	32.36	-31.9	-36.5	11.0	1.48e-03	0	44	0	636485632	23	6131
2026-01-22 23:11:15.95	97.18	32.35	-32.0	-36.4	10.7	2.85e-03	0	44	0	638582784	24	5951
2026-01-22 23:11:16.95	97.54	32.33	-32.1	-36.7	10.4	3.77e-03	0	44	0	640679936	24	6100
2026-01-22 23:11:17.95	97.91	32.32	-32.1	-36.6	10.4	4.12e-03	0	44	0	642777088	24	6087
2026-01-22 23:11:18.95	98.28	32.30	-31.9	-36.1	10.8	2.48e-03	0	44	0	644874240	24	5803
2026-01-22 23:11:19.96	98.65	32.28	-31.8	-35.8	11.0	1.89e-03	0	44	0	645922816	24	5696
2026-01-22 23:11:20.95	99.01	32.26	-31.8	-35.6	11.2	1.49e-03	0	44	0	648019968	24	5586
2026-01-22 23:11:21.96	99.38	32.24	-31.9	-36.0	10.9	1.59e-03	0	44	0	650117120	24	5759
2026-01-22 23:11:22.96	99.75	32.22	-31.9	-35.9	11.0	1.94e-03	0	44	0	652214272	24	5738
2026-01-22 23:11:23.95	100.11	32.20	-32.0	-36.4	10.6	2.31e-03	0	44	0	654311424	24	5966
2026-01-22 23:11:24.95	100.47	32.18	-32.1	-36.7	10.3	3.66e-03	0	44	0	655360000	24	6132
2026-01-22 23:11:25.95	100.83	32.15	-32.2	-37.1	10.0	7.18e-03	0	44	0	657457152	24	6344
2026-01-22 23:11:26.95	101.20	32.12	-32.3	-37.3	9.9	7.64e-03	0	44	0	659554304	24	6428
2026-01-22 23:11:27.95	101.56	32.10	-32.2	-37.1	10.1	7.19e-03	0	44	0	661651456	24	6340
2026-01-22 23:11:28.95	101.92	32.07	-32.1	-36.9	10.2	6.31e-03	0	44	0	663748608	24	6213
2026-01-22 23:11:29.95	102.28	32.04	-32.2	-37.0	10.1	6.09e-03	0	44	0	664797184	24	6304
2026-01-22 23:11:30.96	102.65	32.01	-32.2	-37.2	10.0	7.29e-03	0	44	0	666894336	24	6370
2026-01-22 23:11:31.96	103.01	31.97	-32.1	-36.9	10.2	7.21e-03	0	44	0	668991488	24	6198
2026-01-22 23:11:32.96	103.37	31.94	-32.3	-37.3	9.9	7.97e-03	0	44	0	671088640	24	6424
2026-01-22 23:11:33.97	103.73	31.90	-32.3	-37.3	9.9	8.78e-03	0	44	0	672137216	24	6442
2026-01-22 23:11:34.97	104.09	31.87	-32.4	-38.0	9.4	1.26e-02	0	44	0	674234368	24	6800
2026-01-22 23:11:35.98	104.45	31.83	-32.3	-37.5	9.8	1.11e-02	0	44	0	676331520	24	6526
2026-01-22 23:11:36.98	104.80	31.79	-32.3	-37.3	9.9	9.77e-03	0	44	0	678428672	24	6417
2026-01-22 23:11:37.98	105.16	31.75	-32.2	-37.0	10.1	7.47e-03	0	44	0	680525824	24	6292
2026-01-22 23:11:38.98	105.51	31.71	-32.2	-37.2	9.9	7.65e-03	0	44	0	681574400	24	6392
2026-01-22 23:11:39.98	105.87	31.67	-32.1	-36.7	10.4	5.88e-03	0	44	0	683671552	24	6122
2026-01-22 23:11:40.99	106.22	31.63	-32.1	-36.8	10.3	4.81e-03	0	44	0	685768704	24	6158
2026-01-22 23:11:41.99	106.57	31.58	-32.0	-36.6	10.4	4.88e-03	0	44	0	687865856	24	6068
2026-01-22 23:11:42.99	106.92	31.54	-32.2	-37.0	10.1	5.33e-03	0	44	0	689963008	24	6249
2026-01-22 23:11:44.00	107.28	31.49	-31.9	-35.9	10.9	3.60e-03	0	44	0	691011584	24	5734
2026-01-22 23:11:45.00	107.63	31.44	-31.6	-35.2	11.4	1.26e-03	0	44	0	693108736	24	5435
2026-01-22 23:11:46.00	107.97	31.39	-31.5	-34.9	11.6	7.65e-04	0	44	0	695205888	24	5306
2026-01-22 23:11:47.01	108.32	31.34	-31.7	-35.6	11.1	1.21e-03	0	44	0	697303040	24	5608
2026-01-22 23:11:48.01	108.67	31.29	-31.9	-36.1	10.7	2.35e-03	0	44	0	699400192	24	5840
2026-01-22 23:11:49.01	109.01	31.24	-31.8	-35.8	11.0	2.47e-03	0	44	0	700448768	24	5717
2026-01-22 23:11:50.01	109.36	31.19	-31.9	-36.1	10.8	2.58e-03	0	44	0	702545920	24	5816
2026-01-22 23:11:51.02	109.70	31.13	-31.9	-36.0	10.8	2.48e-03	0	44	0	704643072	24	5803
2026-01-22 23:11:52.03	110.05	31.08	-32.0	-36.5	10.4	3.30e-03	0	44	0	706740224	24	6061
2026-01-22 23:11:53.03	110.39	31.02	-31.9	-36.3	10.6	3.93e-03	0	44	0	708837376	24	5912
2026-01-22 23:11:54.04	110.73	30.97	-32.1	-36.9	10.1	4.45e-03	0	44	0	709885952	24	6252
2026-01-22 23:11:55.04	111.07	30.91	-31.8	-35.9	10.9	4.18e-03	0	44	0	711983104	24	5731
2026-01-22 23:11:56.05	111.41	30.85	-31.6	-35.2	11.4	1.18e-03	0	44	0	714080256	24	5446
2026-01-22 23:11:57.05	111.74	30.79	-31.5	-34.8	11.6	6.81e-04	0	44	0	716177408	24	5275
2026-01-22 23:11:58.06	112.08	30.73	-31.4	-34.6	11.8	4.43e-04	0	44	0	718274560	24	5205
2026-01-22 23:11:59.06	112.41	30.67	-31.5	-34.6	11.8	5.01e-04	0	44	0	719323136	24	5201
2026-01-22 23:12:00.06	112.75	30.60	-31.3	-34.3	12.1	2.88e-04	0	44	0	721420288	24	5050
2026-01-22 23:12:01.07	113.08	30.54	-31.4	-34.4	12.0	2.99e-04	0	44	0	723517440	24	5111
2026-01-22 23:12:02.07	113.41	30.48	-31.5	-34.8	11.7	4.65e-04	0	44	0	725614592	24	5270
2026-01-22 23:12:03.07	113.74	30.41	-31.7	-35.5	11.1	1.07e-03	0	44	0	726663168	24	5574
2026-01-22 23:12:04.08	114.07	30.35	-31.9	-36.3	10.6	2.75e-03	0	44	0	728760320	24	5950
2026-01-22 23:12:05.09	114.39	30.28	-32.1	-36.9	10.1	4.89e-03	0	44	0	730857472	24	6225
2026-01-22 23:12:06.09	114.72	30.21	-32.1	-36.9	10.1	7.60e-03	0	44	0	732954624	24	6272
2026-01-22 23:12:07.10	115.04	30.14	-32.0	-36.4	10.5	5.02e-03	0	44	0	735051776	24	5996
2026-01-22 23:12:08.10	115.37	30.07	-31.8	-35.9	10.8	3.17e-03	0	44	0	737148928	24	5783
2026-01-22 23:12:09.10	115.69	30.00	-31.7	-35.6	11.0	1.96e-03	0	44	0	738197504	24	5632
2026-01-22 23:12:10.10	116.00	29.93	-31.8	-35.9	10.8	2.31e-03	0	44	0	740294656	24	5768
2026-01-22 23:12:11.11	116.32	29.86	-31.6	-35.3	11.2	1.76e-03	0	44	0	742391808	24	5504
2026-01-22 23:12:12.11	116.64	29.79	-31.5	-35.1	11.3	1.12e-03	0	44	0	744488960	24	5448
2026-01-22 23:12:13.12	116.96	29.71	-31.6	-35.1	11.3	9.74e-04	0	44	0	745537536	24	5446
2026-01-22 23:12:14.12	117.27	29.64	-31.7	-35.6	11.0	1.52e-03	0	44	0	747634688	24	5630
2026-01-22 23:12:15.12	117.58	29.56	-31.7	-35.6	10.9	2.02e-03	0	44	0	749731840	24	5647
2026-01-22 23:12:16.12	117.89	29.49	-31.7	-35.6	11.0	1.84e-03	0	44	0	751828992	24	5635
2026-01-22 23:12:17.12	118.20	29.41	-31.8	-36.0	10.7	2.66e-03	0	44	0	753926144	24	5837
2026-01-22 23:12:18.13	118.51	29.34	-31.9	-36.2	10.6	3.33e-03	0	44	0	754974720	24	5912
2026-01-22 23:12:19.13	118.82	29.26	-32.0	-36.7	10.1	4.47e-03	0	44	0	757071872	24	6188
2026-01-22 23:12:20.14	119.12	29.18	-32.0	-36.7	10.2	7.13e-03	0	44	0	759169024	24	6177
2026-01-22 23:12:21.14	119.43	29.10	-31.9	-36.3	10.4	5.14e-03	0	44	0	761266176	24	5983
2026-01-22 23:12:22.15	119.73	29.02	-31.8	-36.0	10.7	3.23e-03	0	44	0	763363328	24	5813
2026-01-22 23:12:23.15	120.03	28.94	-31.8	-35.8	10.8	2.98e-03	0	44	0	764411904	24	5756
2026-01-22 23:12:24.16	120.33	28.86	-31.7	-35.6	10.9	2.19e-03	0	44	0	766509056	24	5677
2026-01-22 23:12:25.17	120.63	28.78	-31.6	-35.4	11.1	1.92e-03	0	44	0	768606208	24	5574
2026-01-22 23:12:26.18	120.93	28.70	-31.5	-35.1	11.3	1.59e-03	0	44	0	770703360	24	5442
2026-01-22 23:12:27.18	121.23	28.61	-31.3	-34.5	11.7	6.28e-04	0	44	0	772800512	24	5168
2026-01-22 23:12:28.19	121.52	28.53	-31.2	-34.5	12.1	3.40e-04	0	44	0	773849088	23	5249
2026-01-22 23:12:29.19	121.81	28.45	-31.0	-34.0	12.5	1.57e-04	0	44	0	775946240	23	5063
2026-01-22 23:12:30.20	122.10	28.36	-31.2	-34.4	12.2	2.59e-04	0	44	0	778043392	23	5217
2026-01-22 23:12:31.19	122.39	28.28	-31.1	-34.1	12.4	1.53e-04	0	44	0	780140544	23	5111
2026-01-22 23:12:32.20	122.68	28.19	-31.1	-34.2	12.3	1.63e-04	0	44	0	782237696	23	5163
2026-01-22 23:12:33.20	122.96	28.11	-31.3	-34.9	11.8	4.23e-04	0	44	0	783286272	23	5441
2026-01-22 23:12:34.20	123.25	28.02	-31.3	-34.7	11.9	3.58e-04	0	44	0	785383424	23	5360
2026-01-22 23:12:35.20	123.53	27.94	-31.3	-34.9	11.8	4.39e-04	0	44	0	787480576	23	5438
2026-01-22 23:12:36.20	123.81	27.85	-31.3	-34.9	11.8	4.03e-04	0	44	0	789577728	23	5448
2026-01-22 23:12:37.21	124.09	27.76	-31.5	-35.5	11.3	9.89e-04	0	44	0	791674880	23	5709
2026-01-22 23:12:38.20	124.37	27.67	-31.7	-36.1	11.0	1.52e-03	0	44	0	792723456	23	5959
2026-01-22 23:12:39.20	124.64	27.59	-31.8	-36.4	10.7	2.54e-03	0	44	0	794820608	23	6113
2026-01-22 23:12:40.20	124.92	27.50	-31.6	-35.8	11.1	1.86e-03	0	44	0	796917760	23	5832
2026-01-22 23:12:41.20	125.19	27.41	-31.1	-34.2	12.2	5.05e-04	0	44	0	799014912	23	5165
2026-01-22 23:12:42.21	125.47	27.32	-30.7	-33.7	12.9	1.04e-04	0	44	0	800063488	22	5053
2026-01-22 23:12:43.21	125.74	27.23	-30.5	-33.0	13.4	2.28e-05	0	44	0	802160640	22	4810
2026-01-22 23:12:44.21	126.01	27.14	-30.6	-33.4	13.2	2.36e-05	0	44	0	804257792	22	4948
2026-01-22 23:12:45.21	126.27	27.05	-30.6	-33.3	13.2	2.44e-05	0	44	0	806354944	22	4915
2026-01-22 23:12:46.22	126.54	26.96	-30.9	-34.2	12.6	4.80e-05	0	44	0	808452096	22	5272
2026-01-22 23:12:47.21	126.80	26.87	-30.9	-34.1	12.6	1.72e-04	0	44	0	809500672	22	5239
2026-01-22 23:12:48.21	127.07	26.78	-30.7	-33.7	12.9	1.91e-04	0	44	0	811597824	22	5049
2026-01-22 23:12:49.21	127.33	26.68	-30.6	-33.4	13.1	3.73e-05	0	44	0	813694976	22	4968
2026-01-22 23:12:50.21	127.59	26.59	-30.5	-33.1	13.3	1.17e-04	0	44	0	815792128	22	4851
2026-01-22 23:12:51.21	127.85	26.50	-30.4	-33.3	13.5	1.15e-04	0	44	0	817889280	21	5020
2026-01-22 23:12:52.21	128.10	26.41	-30.7	-34.2	12.9	1.37e-05	0	44	0	818937856	21	5388
2026-01-22 23:12:53.22	128.36	26.31	-31.4	-35.7	11.5	3.08e-04	0	44	0	821035008	22	5900
2026-01-22 23:12:54.22	128.62	26.22	-31.7	-36.4	10.6	2.67e-03	0	44	0	823132160	23	6124
2026-01-22 23:12:55.22	128.87	26.13	-31.9	-36.7	10.3	5.16e-03	0	44	0	825229312	23	6320
2026-01-22 23:12:56.22	129.12	26.03	-31.6	-35.9	11.0	3.93e-03	0	44	0	827326464	23	5883
2026-01-22 23:12:57.22	129.37	25.94	-31.2	-34.5	12.0	1.12e-03	0	44	0	828375040	23	5288
2026-01-22 23:12:58.23	129.62	25.84	-31.1	-34.3	12.1	2.31e-04	0	44	0	830472192	23	5179
2026-01-22 23:12:59.22	129.86	25.75	-31.1	-34.3	12.1	4.06e-04	0	44	0	832569344	23	5189
2026-01-22 23:13:00.23	130.11	25.65	-31.3	-35.5	11.6	5.55e-04	0	44	0	834666496	22	5825
2026-01-22 23:13:01.23	130.36	25.56	-31.5	-35.6	11.2	1.34e-03	0	44	0	836763648	23	5757
2026-01-22 23:13:02.24	130.60	25.46	-31.2	-34.7	11.8	1.08e-03	0	44	0	837812224	23	5365
2026-01-22 23:13:03.24	130.84	25.37	-30.9	-33.7	12.5	4.69e-04	0	44	0	839909376	23	4984
2026-01-22 23:13:04.24	131.08	25.27	-30.5	-33.1	13.3	2.51e-05	0	44	0	842006528	22	4842
2026-01-22 23:13:05.25	131.32	25.18	-30.3	-32.9	13.7	2.02e-04	0	44	0	844103680	21	4887
2026-01-22 23:13:06.25	131.56	25.08	-30.3	-33.1	13.6	1.15e-04	0	44	0	846200832	21	4947
2026-01-22 23:13:07.25	131.79	24.98	-30.7	-34.1	12.9	1.22e-05	0	44	0	847249408	21	5346
2026-01-22 23:13:08.26	132.03	24.89	-30.9	-34.8	12.4	8.08e-05	0	44	0	849346560	21	5629
2026-01-22 23:13:09.27	132.27	24.79	-31.2	-35.1	11.9	4.32e-04	0	44	0	851443712	22	5656
2026-01-22 23:13:10.27	132.50	24.69	-31.0	-34.5	12.3	3.22e-04	0	44	0	853540864	22	5389
2026-01-22 23:13:11.27	132.73	24.60	-30.5	-33.1	13.2	4.80e-05	0	44	0	854589440	22	4880
2026-01-22 23:13:12.27	132.96	24.50	-30.1	-32.7	13.7	1.82e-04	0	44	0	856686592	21	4809
2026-01-22 23:13:13.28	133.18	24.40	-30.1	-32.6	13.8	4.50e-06	0	44	0	858783744	21	4783
2026-01-22 23:13:14.28	133.41	24.31	-30.2	-32.8	13.7	4.50e-06	0	44	0	860880896	21	4840
2026-01-22 23:13:15.28	133.63	24.21	-30.4	-33.3	13.3	1.52e-05	0	44	0	862978048	21	5032
2026-01-22 23:13:16.29	133.86	24.11	-30.5	-33.7	13.1	1.52e-05	0	44	0	864026624	21	5211
2026-01-22 23:13:17.29	134.08	24.01	-30.6	-33.9	12.9	4.88e-05	0	44	0	866123776	21	5289
2026-01-22 23:13:18.30	134.30	23.92	-30.3	-33.3	13.3	2.51e-05	0	44	0	868220928	21	5043
2026-01-22 23:13:19.29	134.52	23.82	-30.0	-32.4	13.9	9.90e-06	0	44	0	870318080	21	4758
2026-01-22 23:13:20.29	134.74	23.72	-29.8	-32.4	14.2	3.54e-04	0	44	0	872415232	20	4870
2026-01-22 23:13:21.29	134.96	23.63	-29.8	-32.9	14.2	1.50e-06	0	44	0	873463808	19	5152
2026-01-22 23:13:22.29	135.17	23.53	-29.8	-32.9	14.3	1.50e-06	0	44	0	875560960	19	5135
2026-01-22 23:13:23.30	135.39	23.43	-29.9	-33.2	14.0	2.77e-04	0	44	0	877658112	19	5264
2026-01-22 23:13:24.30	135.60	23.33	-30.1	-33.4	13.5	9.90e-06	0	44	0	879755264	20	5224
2026-01-22 23:13:25.31	135.81	23.23	-30.3	-33.8	13.2	3.12e-05	0	44	0	881852416	20	5391
2026-01-22 23:13:26.31	136.02	23.14	-30.1	-33.4	13.5	1.60e-05	0	44	0	882900992	20	5233
2026-01-22 23:13:27.32	136.23	23.04	-29.9	-32.9	13.8	1.44e-05	0	44	0	884998144	20	5052
2026-01-22 23:13:28.33	136.44	22.94	-29.8	-32.4	14.1	3.00e-06	0	44	0	887095296	20	4871
2026-01-22 23:13:29.33	136.65	22.84	-29.7	-32.1	14.3	1.50e-06	0	44	0	889192448	20	4781
2026-01-22 23:13:30.34	136.85	22.74	-29.7	-32.2	14.2	7.00e-07	0	44	0	891289600	20	4810
2026-01-22 23:13:31.34	137.06	22.65	-29.6	-31.9	14.4	1.50e-06	0	44	0	892338176	20	4699
2026-01-22 23:13:32.34	137.26	22.55	-29.7	-32.7	14.2	1.50e-06	0	44	0	894435328	19	5099
2026-01-22 23:13:33.34	137.46	22.45	-29.8	-33.0	14.1	3.00e-06	0	44	0	896532480	19	5186
2026-01-22 23:13:34.34	137.66	22.35	-29.8	-33.1	14.1	7.00e-07	0	44	0	898629632	19	5213
2026-01-22 23:13:35.34	137.86	22.26	-29.8	-33.0	14.0	2.20e-06	0	44	0	900726784	19	5175
2026-01-22 23:13:36.34	138.06	22.16	-29.8	-33.0	14.0	1.50e-06	0	44	0	901775360	19	5184
2026-01-22 23:13:37.34	138.25	22.06	-29.8	-32.9	14.1	0.00e+00	0	44	0	903872512	19	5155
2026-01-22 23:13:38.34	138.45	21.96	-29.7	-32.5	14.4	0.00e+00	0	44	0	905969664	19	5003
2026-01-22 23:13:39.34	138.64	21.87	-29.7	-32.5	14.4	0.00e+00	0	44	0	908066816	19	4975
2026-01-22 23:13:40.33	138.83	21.77	-29.7	-32.5	14.4	7.00e-07	0	44	0	909115392	19	4979
2026-01-22 23:13:41.34	139.03	21.67	-29.7	-32.5	14.4	1.50e-06	0	44	0	911212544	19	4992
2026-01-22 23:13:42.35	139.22	21.57	-29.7	-32.7	14.3	3.00e-06	0	44	0	913309696	19	5055
2026-01-22 23:13:43.35	139.41	21.48	-29.6	-32.4	14.4	1.50e-06	0	44	0	915406848	19	4949
2026-01-22 23:13:44.35	139.60	21.38	-29.4	-31.8	14.8	7.00e-07	0	44	0	917504000	19	4759
2026-01-22 23:13:45.35	139.78	21.28	-29.3	-32.0	15.0	1.50e-06	0	44	0	918552576	18	4946
2026-01-22 23:13:46.36	139.97	21.18	-29.3	-32.1	14.9	0.00e+00	0	44	0	920649728	18	4983
2026-01-22 23:13:47.36	140.16	21.09	-29.1	-31.6	15.2	0.00e+00	0	44	0	922746880	18	4828
2026-01-22 23:13:48.37	140.34	20.99	-29.0	-31.3	15.4	0.00e+00	0	44	0	924844032	18	4716
2026-01-22 23:13:49.36	140.52	20.89	-29.0	-31.3	15.3	0.00e+00	0	44	0	926941184	18	4720
2026-01-22 23:13:50.37	140.70	20.80	-29.1	-31.5	15.2	0.00e+00	0	44	0	927989760	18	4792
2026-01-22 23:13:51.37	140.88	20.70	-29.1	-31.6	15.2	1.50e-06	0	44	0	930086912	18	4808
2026-01-22 23:13:52.37	141.06	20.60	-29.1	-31.6	15.2	0.00e+00	0	44	0	932184064	18	4824
2026-01-22 23:13:53.37	141.24	20.51	-29.1	-31.8	15.0	0.00e+00	0	44	0	934281216	18	4873
2026-01-22 23:13:54.37	141.42	20.41	-29.1	-31.6	15.1	0.00e+00	0	44	0	936378368	18	4829
2026-01-22 23:13:55.37	141.59	20.31	-29.2	-31.8	14.0	7.00e-07	0	44	0	937426944	18	4880
2026-01-22 23:13:56.38	141.77	20.22	-29.2	-31.8	14.7	0.00e+00	0	44	0	939524096	18	4889
2026-01-22 23:13:57.38	141.94	20.12	-29.2	-31.9	15.0	0.00e+00	0	44	0	941621248	18	4909
2026-01-22 23:13:58.38	142.12	20.03	-29.1	-31.6	15.1	1.32e-03	0	44	0	943718400	18	4801
2026-01-22 23:13:59.38	142.29	19.93	-29.3	-32.0	14.9	0.00e+00	0	44	0	945815552	18	4933
2026-01-22 23:14:00.39	142.46	19.83	-29.3	-32.2	14.8	0.00e+00	0	44	0	946864128	18	5010
2026-01-22 23:14:01.39	142.63	19.74	-29.3	-32.1	14.9	0.00e+00	0	44	0	948961280	18	4966
2026-01-22 23:14:02.40	142.80	19.64	-29.4	-32.4	14.7	1.52e-03	0	44	0	951058432	18	5052
2026-01-22 23:14:03.40	142.97	19.55	-29.5	-32.2	14.5	7.00e-07	0	44	0	953155584	19	4886
2026-01-22 23:14:04.41	143.14	19.45	-29.7	-32.6	14.3	7.00e-07	0	44	0	954204160	19	5011
2026-01-22 23:14:05.41	143.30	19.36	-29.8	-33.0	14.0	1.60e-03	0	44	0	956301312	19	5165
2026-01-22 23:14:06.40	143.46	19.26	-29.9	-33.2	13.8	4.50e-06	0	44	0	958398464	19	5278
2026-01-22 23:14:07.41	143.63	19.17	-29.9	-33.1	13.9	3.80e-06	0	44	0	960495616	19	5212
2026-01-22 23:14:08.41	143.79	19.07	-29.8	-32.9	14.0	3.80e-06	0	44	0	962592768	19	5137
2026-01-22 23:14:09.41	143.95	18.98	-29.8	-33.0	13.9	3.00e-06	0	44	0	963641344	19	5187
2026-01-22 23:14:10.42	144.12	18.88	-29.9	-33.3	13.7	3.80e-06	0	44	0	965738496	19	5306
2026-01-22 23:14:11.42	144.28	18.79	-29.9	-33.1	13.8	7.60e-06	0	44	0	967835648	19	5252
2026-01-22 23:14:12.43	144.44	18.69	-30.0	-33.4	13.6	6.10e-06	0	44	0	969932800	19	5346
2026-01-22 23:14:13.43	144.59	18.60	-30.1	-33.4	13.1	1.85e-03	0	44	0	972029952	20	5252
2026-01-22 23:14:14.43	144.75	18.51	-30.1	-33.4	13.1	3.35e-05	0	44	0	973078528	20	5267
2026-01-22 23:14:15.44	144.91	18.41	-30.1	-33.3	13.2	2.59e-05	0	44	0	975175680	20	5244
2026-01-22 23:14:16.45	145.06	18.32	-30.1	-33.3	13.2	1.70e-03	0	44	0	977272832	20	5238
2026-01-22 23:14:17.45	145.22	18.22	-30.0	-33.3	13.1	2.44e-05	0	44	0	979369984	20	5261
2026-01-22 23:14:18.45	145.37	18.13	-30.1	-33.5	13.0	3.43e-05	0	44	0	981467136	20	5315
2026-01-22 23:14:19.45	145.52	18.04	-30.0	-33.3	13.1	1.86e-03	0	44	0	982515712	20	5236
2026-01-22 23:14:20.46	145.68	17.94	-30.0	-33.1	13.2	1.94e-03	0	44	0	984612864	20	5152
2026-01-22 23:14:21.46	145.83	17.85	-29.9	-33.0	13.3	1.52e-05	0	44	0	986710016	20	5117
2026-01-22 23:14:22.46	145.97	17.76	-29.9	-33.4	13.5	2.25e-03	0	44	0	988807168	19	5366
2026-01-22 23:14:23.46	146.12	17.67	-30.0	-33.5	13.4	2.04e-03	0	44	0	990904320	19	5415
2026-01-22 23:14:24.46	146.27	17.57	-30.2	-33.5	13.0	1.83e-05	0	44	0	991952896	20	5298
2026-01-22 23:14:25.47	146.42	17.48	-30.3	-33.9	12.7	5.72e-05	0	44	0	994050048	20	5445
2026-01-22 23:14:26.47	146.57	17.39	-30.4	-34.1	12.5	2.42e-03	0	44	0	996147200	20	5548
2026-01-22 23:14:27.48	146.71	17.30	-30.4	-33.9	12.4	2.00e-04	0	44	0	998244352	21	5336
2026-01-22 23:14:28.48	146.86	17.21	-30.3	-34.0	12.6	1.27e-04	0	44	0	1000341504	20	5493
2026-01-22 23:14:29.48	147.00	17.11	-30.3	-34.0	12.6	2.33e-03	0	44	0	1001390080	20	5519
2026-01-22 23:14:30.48	147.14	17.02	-30.4	-34.3	12.4	1.79e-04	0	44	0	1003487232	20	5629
2026-01-22 23:14:31.48	147.28	16.93	-30.4	-34.4	12.3	2.48e-03	0	44	0	1005584384	20	5668
2026-01-22 23:14:32.48	147.42	16.84	-30.4	-34.5	12.3	2.30e-03	0	44	0	1007681536	20	5718
2026-01-22 23:14:33.49	147.57	16.75	-30.5	-34.1	12.1	2.16e-04	0	44	0	1009778688	21	5472
2026-01-22 23:14:34.49	147.70	16.66	-30.6	-34.5	11.9	2.55e-03	0	44	0	1010827264	21	5644
2026-01-22 23:14:35.50	147.84	16.57	-30.7	-34.8	11.6	2.00e-03	0	44	0	1012924416	21	5789
2026-01-22 23:14:36.51	147.98	16.48	-30.8	-35.2	11.3	8.85e-04	0	44	0	1015021568	21	5963
2026-01-22 23:14:37.50	148.12	16.39	-30.9	-35.6	11.0	4.62e-03	0	44	0	1017118720	21	6184
2026-01-22 23:14:38.51	148.26	16.30	-30.9	-35.6	11.0	3.93e-03	0	44	0	1018167296	21	6168
2026-01-22 23:14:39.51	148.39	16.21	-31.1	-35.9	10.4	3.85e-03	0	44	0	1020264448	22	6230
2026-01-22 23:14:40.51	148.53	16.12	-31.1	-35.8	10.5	8.46e-03	0	44	0	1022361600	22	6152
2026-01-22 23:14:41.51	148.66	16.03	-30.8	-35.2	11.2	4.39e-03	0	44	0	1024458752	21	5968
2026-01-22 23:14:42.52	148.79	15.94	-30.5	-34.2	11.9	8.55e-04	0	44	0	1026555904	21	5547
2026-01-22 23:14:43.53	148.93	15.85	-30.2	-34.0	12.4	2.39e-03	0	44	0	1027604480	20	5552
2026-01-22 23:14:44.53	149.06	15.76	-30.1	-33.6	12.7	2.50e-03	0	44	0	1029701632	20	5407
2026-01-22 23:14:45.53	149.19	15.67	-30.0	-33.5	12.8	1.21e-04	0	44	0	1031798784	20	5369
2026-01-22 23:14:46.54	149.32	15.59	-30.0	-33.4	12.9	2.46e-03	0	44	0	1033895936	20	5300
2026-01-22 23:14:47.54	149.45	15.50	-30.0	-33.3	12.9	2.36e-03	0	44	0	1035993088	20	5264
2026-01-22 23:14:48.55	149.58	15.41	-30.0	-33.5	12.8	1.25e-04	0	44	0	1037041664	20	5346
2026-01-22 23:14:49.55	149.71	15.32	-30.1	-33.7	12.6	8.01e-05	0	44	0	1039138816	20	5465
2026-01-22 23:14:50.55	149.83	15.23	-30.2	-33.9	12.4	2.28e-03	0	44	0	1041235968	20	5532
2026-01-22 23:14:51.56	149.96	15.15	-30.3	-34.2	12.2	2.62e-04	0	44	0	1043333120	20	5677
2026-01-22 23:14:52.56	150.09	15.06	-30.3	-34.3	12.1	2.48e-03	0	44	0	1045430272	20	5723
2026-01-22 23:14:53.56	150.21	14.97	-30.2	-34.2	12.2	2.66e-04	0	44	0	1046478848	20	5668
2026-01-22 23:14:54.56	150.34	14.88	-30.3	-34.3	12.1	5.29e-04	0	44	0	1048576000	20	5716
2026-01-22 23:14:55.56	150.46	14.80	-30.2	-34.2	12.2	2.85e-03	0	44	0	1050673152	20	5654
2026-01-22 23:14:56.57	150.58	14.71	-30.3	-34.3	12.0	2.35e-04	0	44	0	1052770304	20	5724
2026-01-22 23:14:57.57	150.71	14.62	-30.3	-34.2	12.2	4.87e-04	0	44	0	1054867456	20	5649
2026-01-22 23:14:58.58	150.83	14.54	-30.0	-33.4	12.6	2.67e-03	0	44	0	1055916032	20	5347
2026-01-22 23:14:59.58	150.95	14.45	-30.0	-33.3	12.7	9.61e-05	0	44	0	1058013184	20	5318
2026-01-22 23:15:00.58	151.07	14.37	-29.9	-33.2	12.8	7.32e-05	0	44	0	1060110336	20	5265
2026-01-22 23:15:01.58	151.19	14.28	-30.0	-33.8	12.8	2.42e-03	0	44	0	1062207488	19	5613
2026-01-22 23:15:02.58	151.31	14.20	-30.0	-33.4	12.7	7.09e-05	0	44	0	1064304640	20	5336
2026-01-22 23:15:03.58	151.42	14.11	-30.0	-33.4	12.6	7.78e-05	0	44	0	1065353216	20	5346
2026-01-22 23:15:04.58	151.54	14.03	-30.2	-34.0	12.2	1.07e-04	0	44	0	1067450368	20	5602
2026-01-22 23:15:05.59	151.66	13.94	-30.1	-34.0	12.2	2.76e-03	0	44	0	1069547520	20	5593
2026-01-22 23:15:06.60	151.78	13.85	-30.2	-34.2	12.0	2.48e-04	0	44	0	1071644672	20	5732
2026-01-22 23:15:07.60	151.89	13.77	-30.3	-34.6	11.7	5.82e-04	0	44	0	1072693248	20	5902
2026-01-22 23:15:08.61	152.01	13.69	-30.3	-34.7	11.6	2.99e-03	0	44	0	1074790400	20	5945
2026-01-22 23:15:09.61	152.12	13.60	-30.3	-34.7	11.7	5.55e-04	0	44	0	1076887552	20	5939
2026-01-22 23:15:10.62	152.24	13.52	-30.3	-34.6	11.7	6.51e-04	0	44	0	1078984704	20	5890
2026-01-22 23:15:11.62	152.35	13.43	-30.2	-34.2	12.0	3.86e-04	0	44	0	1081081856	20	5731
2026-01-22 23:15:12.62	152.46	13.35	-30.2	-34.2	12.0	4.72e-04	0	44	0	1082130432	20	5697
2026-01-22 23:15:13.63	152.58	13.27	-30.1	-34.0	12.1	2.28e-04	0	44	0	1084227584	20	5639
2026-01-22 23:15:14.63	152.69	13.18	-29.9	-33.5	12.5	2.12e-04	0	44	0	1086324736	20	5399
2026-01-22 23:15:15.63	152.80	13.10	-29.8	-33.0	12.8	1.09e-04	0	44	0	1088421888	20	5205
2026-01-22 23:15:16.63	152.91	13.02	-29.8	-33.5	12.9	4.50e-05	0	44	0	1090519040	19	5495
2026-01-22 23:15:17.63	153.02	12.94	-29.9	-33.8	12.7	7.55e-05	0	44	0	1091567616	19	5645
2026-01-22 23:15:18.64	153.13	12.85	-29.8	-33.6	12.8	9.46e-05	0	44	0	1093664768	19	5555
2026-01-22 23:15:19.63	153.23	12.77	-29.6	-33.1	13.1	4.19e-05	0	44	0	1095761920	19	5361
2026-01-22 23:15:20.63	153.34	12.69	-29.7	-33.3	13.0	2.74e-05	0	44	0	1097859072	19	5458
2026-01-22 23:15:21.64	153.45	12.61	-29.7	-33.4	12.9	4.34e-05	0	44	0	1099956224	19	5482
2026-01-22 23:15:22.64	153.56	12.53	-29.8	-33.6	12.8	5.03e-05	0	44	0	1101004800	19	5572
2026-01-22 23:15:23.64	153.66	12.44	-30.0	-34.0	12.5	1.17e-04	0	44	0	1103101952	19	5726
2026-01-22 23:15:24.65	153.77	12.36	-30.1	-34.0	12.2	1.89e-04	0	44	0	1105199104	20	5602
2026-01-22 23:15:25.65	153.87	12.28	-30.2	-34.1	12.1	2.43e-04	0	44	0	1107296256	20	5636
2026-01-22 23:15:26.65	153.98	12.20	-30.1	-33.8	12.3	1.69e-04	0	44	0	1109393408	20	5511
2026-01-22 23:15:27.66	154.08	12.12	-30.0	-33.7	12.3	2.12e-04	0	44	0	1110441984	20	5462
2026-01-22 23:15:28.66	154.18	12.04	-30.2	-34.1	12.1	1.96e-04	0	44	0	1112539136	20	5649
2026-01-22 23:15:29.67	154.29	11.96	-30.2	-34.1	12.1	2.95e-04	0	44	0	1114636288	20	5637
2026-01-22 23:15:30.67	154.39	11.88	-30.1	-34.0	12.1	2.57e-04	0	44	0	1116733440	20	5598
2026-01-22 23:15:31.67	154.49	11.80	-30.2	-34.0	12.1	3.04e-04	0	44	0	1117782016	20	5637
2026-01-22 23:15:32.67	154.59	11.72	-30.1	-34.0	12.1	2.93e-04	0	44	0	1119879168	20	5639
2026-01-22 23:15:33.68	154.69	11.64	-30.2	-34.3	11.9	3.33e-04	0	44	0	1121976320	20	5735
2026-01-22 23:15:34.68	154.79	11.56	-30.1	-34.1	12.0	4.07e-04	0	44	0	1124073472	20	5656
2026-01-22 23:15:35.68	154.89	11.48	-30.1	-34.0	12.1	2.30e-04	0	44	0	1126170624	20	5632
2026-01-22 23:15:36.69	154.99	11.40	-29.5	-33.6	11.8	3.86e-04	0	44	0	1128267776	20	5784
2026-01-22 23:15:37.70	155.09	11.32	-29.2	-33.3	11.6	4.16e-04	0	44	0	1129316352	20	5709
2026-01-22 23:15:38.70	155.19	11.24	-30.1	-33.8	12.1	2.10e-04	0	44	0	1131413504	20	5532
2026-01-22 23:15:39.71	155.29	11.16	-30.0	-33.5	11.9	2.04e-04	0	44	0	1133510656	20	5386
2026-01-22 23:15:40.71	155.39	11.08	-30.1	-33.7	11.4	1.78e-04	0	44	0	1135607808	20	5480
2026-01-22 23:15:41.72	155.48	11.01	-30.0	-33.7	12.3	1.61e-04	0	44	0	1136656384	20	5451
2026-01-22 23:15:42.72	155.58	10.93	-30.0	-33.6	12.3	1.86e-04	0	44	0	1138753536	20	5414
2026-01-22 23:15:43.72	155.67	10.85	-30.0	-33.4	12.4	2.21e-03	0	44	0	1140850688	20	5368
2026-01-22 23:15:44.73	155.77	10.77	-30.0	-33.5	12.4	9.84e-05	0	44	0	1142947840	20	5393
2026-01-22 23:15:45.73	155.86	10.69	-29.9	-33.5	12.5	1.56e-04	0	44	0	1145044992	20	5397
2026-01-22 23:15:46.74	155.96	10.62	-29.9	-33.5	12.4	2.50e-03	0	44	0	1146093568	20	5408
2026-01-22 23:15:47.74	156.05	10.54	-30.0	-33.8	12.2	2.19e-04	0	44	0	1148190720	20	5546
2026-01-22 23:15:48.75	156.15	10.46	-30.0	-33.6	12.3	2.16e-04	0	44	0	1150287872	20	5501
2026-01-22 23:15:49.75	156.24	10.39	-29.9	-33.6	12.3	1.73e-04	0	44	0	1152385024	20	5501
2026-01-22 23:15:50.74	156.33	10.31	-29.9	-33.7	12.2	2.94e-04	0	44	0	1154482176	20	5520
2026-01-22 23:15:51.75	156.42	10.23	-29.9	-33.6	12.2	1.60e-04	0	44	0	1155530752	20	5507
2026-01-22 23:15:52.76	156.51	10.16	-30.1	-34.0	11.9	2.49e-04	0	44	0	1157627904	20	5685
2026-01-22 23:15:53.77	156.61	10.08	-30.0	-33.9	12.1	3.75e-04	0	44	0	1159725056	20	5608
2026-01-22 23:15:54.77	156.70	10.00	-30.1	-33.9	12.1	2.70e-04	0	44	0	1161822208	20	5602
2026-01-22 23:15:55.77	156.79	9.93	-30.1	-34.1	12.0	2.56e-04	0	44	0	1163919360	20	5649
2026-01-22 23:15:56.77	156.88	9.85	-30.2	-34.1	12.0	2.91e-04	0	44	0	1164967936	20	5664
2026-01-22 23:15:57.77	156.96	9.78	-30.2	-34.2	11.9	2.68e-03	0	44	0	1167065088	20	5685
2026-01-22 23:15:58.78	157.05	9.70	-30.3	-34.3	11.9	4.11e-04	0	44	0	1169162240	20	5716
2026-01-22 23:15:59.78	157.14	9.63	-30.5	-34.9	11.4	5.35e-04	0	44	0	1171259392	20	5999
2026-01-22 23:16:00.79	157.23	9.55	-30.4	-34.8	11.5	3.12e-03	0	44	0	1173356544	20	5931
2026-01-22 23:16:01.79	157.32	9.48	-30.3	-34.5	11.6	2.75e-03	0	44	0	1174405120	20	5827
2026-01-22 23:16:02.79	157.40	9.40	-30.3	-34.5	11.7	5.69e-04	0	44	0	1176502272	20	5811
2026-01-22 23:16:03.79	157.49	9.33	-30.4	-34.7	11.5	2.77e-03	0	44	0	1178599424	20	5909
2026-01-22 23:16:04.79	157.58	9.25	-30.4	-34.7	11.5	2.86e-03	0	44	0	1180696576	20	5907
2026-01-22 23:16:05.80	157.66	9.18	-30.4	-34.9	11.4	7.19e-04	0	44	0	1182793728	20	6024
2026-01-22 23:16:06.79	157.75	9.11	-30.4	-34.8	11.4	1.04e-03	0	44	0	1183842304	20	5970
2026-01-22 23:16:07.80	157.83	9.03	-30.4	-34.9	11.3	3.25e-03	0	44	0	1185939456	20	6019
2026-01-22 23:16:08.80	157.92	8.96	-30.4	-35.0	11.3	1.18e-03	0	44	0	1188036608	20	6073
2026-01-22 23:16:09.80	158.00	8.89	-30.4	-35.1	11.2	1.50e-03	0	44	0	1190133760	20	6125
2026-01-22 23:16:10.81	158.09	8.81	-30.5	-35.1	11.1	3.67e-03	0	44	0	1191182336	20	6143
2026-01-22 23:16:11.81	158.17	8.74	-30.7	-35.2	10.7	2.33e-03	0	44	0	1193279488	21	6082
2026-01-22 23:16:12.82	158.25	8.67	-30.6	-34.9	10.9	5.05e-03	0	44	0	1195376640	21	5912
2026-01-22 23:16:13.82	158.33	8.59	-30.5	-34.6	11.2	1.58e-03	0	44	0	1197473792	21	5756
2026-01-22 23:16:14.82	158.42	8.52	-30.5	-34.5	11.3	1.27e-03	0	44	0	1199570944	21	5720
2026-01-22 23:16:15.82	158.50	8.45	-30.5	-34.6	11.1	3.72e-03	0	44	0	1200619520	21	5780
2026-01-22 23:16:16.83	158.58	8.38	-30.6	-35.0	10.9	1.70e-03	0	44	0	1202716672	21	5943
2026-01-22 23:16:17.83	158.66	8.30	-30.6	-35.0	10.9	2.46e-03	0	44	0	1204813824	21	5946
2026-01-22 23:16:18.83	158.74	8.23	-30.6	-35.1	10.8	4.84e-03	0	44	0	1206910976	21	6017
2026-01-22 23:16:19.84	158.82	8.16	-30.7	-35.5	10.5	5.77e-03	0	44	0	1209008128	21	6209
2026-01-22 23:16:20.84	158.90	8.09	-30.6	-35.1	10.8	3.42e-03	0	44	0	1210056704	21	6002
2026-01-22 23:16:21.84	158.98	8.02	-30.6	-35.1	10.7	5.04e-03	0	44	0	1212153856	21	6027
2026-01-22 23:16:22.84	159.06	7.95	-30.7	-35.3	10.6	5.12e-03	0	44	0	1214251008	21	6097
2026-01-22 23:16:23.84	159.14	7.87	-30.6	-35.0	10.8	3.22e-03	0	44	0	1216348160	21	5965
2026-01-22 23:16:24.85	159.22	7.80	-30.6	-35.1	10.8	5.12e-03	0	44	0	1218445312	21	6003
2026-01-22 23:16:25.85	159.29	7.73	-30.6	-35.1	10.7	5.15e-03	0	44	0	1219493888	21	6014
2026-01-22 23:16:26.86	159.37	7.66	-30.6	-35.2	10.7	2.98e-03	0	44	0	1221591040	21	6089
2026-01-22 23:16:27.86	159.45	7.59	-30.6	-35.3	10.5	6.66e-03	0	44	0	1223688192	21	6162
2026-01-22 23:16:28.87	159.53	7.52	-30.6	-35.4	10.4	6.17e-03	0	44	0	1225785344	21	6222
2026-01-22 23:16:29.87	159.60	7.45	-30.7	-35.5	10.3	4.77e-03	0	44	0	1227882496	21	6313
2026-01-22 23:16:30.87	159.68	7.38	-30.6	-35.5	10.3	7.01e-03	0	44	0	1228931072	21	6335
2026-01-22 23:16:31.87	159.75	7.31	-30.7	-35.8	10.0	9.73e-03	0	44	0	1231028224	21	6505
2026-01-22 23:16:32.88	159.83	7.24	-30.6	-35.6	10.1	8.85e-03	0	44	0	1233125376	21	6405
2026-01-22 23:16:33.88	159.91	7.17	-30.6	-35.7	10.0	9.57e-03	0	44	0	1235222528	21	6453
2026-01-22 23:16:34.88	159.98	7.10	-30.8	-36.2	9.7	1.02e-02	0	44	0	1237319680	21	6708
2026-01-22 23:16:35.89	160.05	7.03	-32.1	-46.4	3.8	1.31e+00	0	44	104	1237319680	25	18731
2026-01-22 23:16:36.88	160.13	6.96	-33.1	-47.4	3.8	1.49e+00	0	44	104	1237319680	26	18667

#Closed at: 2026-01-22 23:16:37
#Recorded file [1237 MB]: D:/data/31010_260123_020534.dat