passes_logs/2026/01/22/R2M6_AANII_01/R2M6_AANII_01__20260122_131510_FENGYUN_3D_rec.log

#Pass ID: 20260122_131510_FENGYUN 3D
#Satellite: FENGYUN 3D
#Configuration: FENGYUN 3D
#almurnet v.1.7.20240730
#Start time: 2026-01-22 13:21:26

#Version: 2.2.20231116
#Station: R2M6_AANII_01
#Location: 30.233357 lon 59.946436 lat
#TLE: 1 43010U 17072A   26021.48744220  .00000253  00000+0  14133-3 0  9991
#TLE: 2 43010  98.9948 353.4037 0002485  97.2578 262.8880 14.19697766424177

#Time	Az	El	Level	Level2	SNR	BER	BlckErr	Temp	State	Recorded	gain1	gain2
2026-01-22 13:21:26.11	276.83	41.92	-34.1	-53.5	3.8	7.44e-01	0	43	0	0	29	33560
2026-01-22 13:21:27.09	277.30	41.85	-34.1	-44.8	3.8	8.46e-01	0	43	104	0	29	12298
2026-01-22 13:21:28.09	277.78	41.78	-34.1	-44.8	3.8	8.46e-01	0	43	104	0	29	12287
2026-01-22 13:21:29.09	278.25	41.70	-34.1	-44.8	3.8	8.47e-01	0	43	104	0	29	12338
2026-01-22 13:21:30.10	278.73	41.62	-34.1	-44.8	3.8	8.46e-01	0	43	104	0	29	12310
2026-01-22 13:21:31.10	279.19	41.54	-34.1	-44.8	3.8	8.47e-01	0	43	104	0	29	12298
2026-01-22 13:21:32.11	279.67	41.46	-34.1	-44.7	3.8	8.46e-01	0	43	104	0	29	12268
2026-01-22 13:21:33.11	280.13	41.38	-34.1	-44.8	3.8	8.46e-01	0	43	104	0	29	12306
2026-01-22 13:21:34.12	280.60	41.29	-34.0	-44.7	3.8	8.46e-01	0	43	104	0	29	12301
2026-01-22 13:21:35.13	281.06	41.20	-34.1	-44.6	3.8	8.47e-01	0	43	104	0	29	12147
2026-01-22 13:21:36.13	281.52	41.11	-34.1	-44.7	3.8	8.45e-01	0	43	104	0	29	12177
2026-01-22 13:21:37.14	281.97	41.02	-34.1	-44.6	3.8	8.45e-01	0	43	104	0	29	12181
2026-01-22 13:21:38.14	282.42	40.93	-34.1	-44.6	3.8	8.46e-01	0	43	104	0	29	12180
2026-01-22 13:21:39.14	282.87	40.83	-34.0	-44.6	3.8	8.46e-01	0	43	104	0	29	12177
2026-01-22 13:21:40.15	283.32	40.74	-34.0	-44.7	3.8	8.47e-01	0	43	104	0	29	12209
2026-01-22 13:21:41.15	283.77	40.64	-34.0	-44.7	3.8	8.46e-01	0	43	104	0	29	12246
2026-01-22 13:21:42.16	284.21	40.54	-34.0	-44.7	3.8	8.45e-01	0	43	104	0	29	12232
2026-01-22 13:21:43.17	284.66	40.44	-34.1	-44.8	3.8	8.46e-01	0	43	104	0	29	12335
2026-01-22 13:21:44.17	285.09	40.33	-34.2	-44.9	3.8	8.46e-01	0	43	104	0	29	12425
2026-01-22 13:21:45.17	285.52	40.23	-34.2	-44.9	3.8	8.47e-01	0	43	104	0	29	12405
2026-01-22 13:21:46.17	285.95	40.12	-34.1	-44.9	3.8	8.46e-01	0	43	104	0	29	12417
2026-01-22 13:21:47.18	286.38	40.02	-34.2	-44.9	3.8	8.47e-01	0	43	104	0	29	12346
2026-01-22 13:21:48.18	286.81	39.91	-34.1	-44.8	3.8	8.46e-01	0	43	104	0	29	12330
2026-01-22 13:21:49.19	287.23	39.80	-34.1	-44.8	3.8	8.45e-01	0	43	104	0	29	12266
2026-01-22 13:21:50.19	287.65	39.69	-34.1	-44.8	3.8	8.46e-01	0	43	104	0	29	12265
2026-01-22 13:21:51.20	288.07	39.57	-34.1	-44.6	3.8	8.46e-01	0	43	104	0	29	12121
2026-01-22 13:21:52.21	288.49	39.46	-34.1	-44.7	3.8	8.47e-01	0	43	104	0	29	12261
2026-01-22 13:21:53.21	288.90	39.34	-34.0	-44.6	3.8	8.47e-01	0	43	104	0	29	12097
2026-01-22 13:21:54.21	289.31	39.23	-33.9	-43.9	3.8	8.45e-01	0	43	104	0	29	11358
2026-01-22 13:21:55.22	289.72	39.11	-33.9	-43.8	3.8	8.46e-01	0	43	104	0	29	11267
2026-01-22 13:21:56.23	290.12	38.99	-33.9	-43.8	3.8	8.45e-01	0	43	104	0	29	11210
2026-01-22 13:21:57.23	290.52	38.87	-33.9	-43.8	3.8	8.45e-01	0	43	104	0	29	11351
2026-01-22 13:21:58.24	290.92	38.75	-33.9	-44.0	3.8	8.47e-01	0	43	104	0	29	11517
2026-01-22 13:21:59.24	291.31	38.63	-33.9	-44.2	3.8	8.47e-01	0	43	104	0	29	11752
2026-01-22 13:22:00.24	291.70	38.51	-33.9	-44.3	3.8	8.45e-01	0	43	104	0	29	11922
2026-01-22 13:22:01.24	292.09	38.38	-33.9	-44.2	3.8	8.46e-01	0	43	104	0	29	11773
2026-01-22 13:22:02.24	292.47	38.26	-33.9	-43.9	3.8	8.47e-01	0	43	104	0	29	11448
2026-01-22 13:22:03.24	292.85	38.13	-33.8	-43.6	3.8	8.46e-01	0	43	104	0	29	11048
2026-01-22 13:22:04.24	293.23	38.01	-33.8	-43.4	3.8	8.45e-01	0	43	104	0	29	10840
2026-01-22 13:22:05.24	293.60	37.88	-33.8	-43.5	3.8	8.46e-01	0	43	104	0	29	10980
2026-01-22 13:22:06.25	293.98	37.75	-33.8	-43.8	3.8	8.46e-01	0	43	104	0	29	11333
2026-01-22 13:22:07.26	294.35	37.62	-33.8	-43.2	3.8	8.45e-01	0	43	104	0	29	10650
2026-01-22 13:22:08.26	294.72	37.49	-33.5	-41.9	3.9	8.44e-01	0	43	104	0	28	9393
2026-01-22 13:22:09.26	295.08	37.36	-33.3	-40.1	4.4	8.41e-01	0	43	104	0	28	7856
2026-01-22 13:22:10.27	295.45	37.23	-33.2	-39.5	4.8	8.13e-01	0	43	0	0	27	7465
2026-01-22 13:22:11.28	295.81	37.09	-32.9	-38.2	5.4	7.41e-01	0	43	0	0	27	6667
2026-01-22 13:22:12.28	296.16	36.96	-32.6	-37.5	6.1	4.18e-01	0	43	0	3145728	26	6299
2026-01-22 13:22:13.29	296.52	36.82	-32.2	-36.6	6.9	2.08e-01	0	43	0	8388608	25	5935
2026-01-22 13:22:14.29	296.87	36.69	-32.0	-35.6	7.5	1.30e-01	0	43	0	14680064	25	5507
2026-01-22 13:22:15.29	297.21	36.56	-31.9	-35.3	7.7	1.02e-01	0	43	0	19922944	25	5340
2026-01-22 13:22:16.30	297.56	36.42	-31.8	-35.0	7.9	9.44e-02	0	43	0	25165824	25	5226
2026-01-22 13:22:17.30	297.90	36.28	-30.9	-33.6	9.6	3.86e-02	0	43	0	31457280	23	4869
2026-01-22 13:22:18.30	298.24	36.15	-29.1	-30.8	12.7	4.03e-04	0	43	0	36700160	19	4371
2026-01-22 13:22:19.31	298.58	36.01	-27.0	-28.0	15.3	0.00e+00	0	43	0	42991616	15	4050
2026-01-22 13:22:20.31	298.91	35.87	-26.3	-27.0	16.1	0.00e+00	0	43	0	48234496	14	3897
2026-01-22 13:22:21.31	299.24	35.74	-26.4	-27.1	16.1	0.00e+00	0	43	0	53477376	14	3911
2026-01-22 13:22:22.31	299.57	35.60	-26.5	-27.4	15.9	0.00e+00	0	43	0	59768832	14	3986
2026-01-22 13:22:23.31	299.89	35.46	-26.3	-26.9	16.2	0.00e+00	0	43	0	65011712	14	3870
2026-01-22 13:22:24.31	300.21	35.32	-26.3	-27.3	16.2	0.00e+00	0	43	0	70254592	13	4069
2026-01-22 13:22:25.31	300.53	35.18	-26.3	-27.5	16.2	0.00e+00	0	43	0	76546048	13	4110
2026-01-22 13:22:26.32	300.85	35.04	-26.2	-27.2	16.3	0.00e+00	0	43	0	81788928	13	4032
2026-01-22 13:22:27.32	301.16	34.90	-25.5	-26.2	17.1	0.00e+00	0	43	0	88080384	12	3912
2026-01-22 13:22:28.32	301.47	34.76	-25.0	-25.6	17.8	0.00e+00	0	43	0	93323264	11	3854
2026-01-22 13:22:29.32	301.78	34.62	-24.4	-24.8	18.4	0.00e+00	0	43	0	98566144	10	3791
2026-01-22 13:22:30.32	302.09	34.48	-23.8	-24.0	19.1	0.00e+00	0	43	0	104857600	9	3709
2026-01-22 13:22:31.32	302.39	34.34	-23.2	-23.8	19.7	0.00e+00	0	43	0	110100480	7	3852
2026-01-22 13:22:32.33	302.69	34.19	-22.9	-23.1	20.0	0.00e+00	0	43	0	115343360	7	3708
2026-01-22 13:22:33.33	302.99	34.05	-22.8	-23.4	20.1	0.00e+00	0	43	0	121634816	6	3876
2026-01-22 13:22:34.32	303.28	33.91	-22.8	-23.5	20.1	0.00e+00	0	43	0	126877696	6	3906
2026-01-22 13:22:35.32	303.57	33.77	-22.9	-23.7	20.0	0.00e+00	0	43	0	132120576	6	3947
2026-01-22 13:22:36.33	303.87	33.63	-22.9	-23.8	19.9	0.00e+00	0	43	0	138412032	6	3964
2026-01-22 13:22:37.34	304.16	33.48	-22.8	-23.6	20.0	0.00e+00	0	43	0	143654912	6	3914
2026-01-22 13:22:38.34	304.44	33.34	-22.9	-23.6	20.0	0.00e+00	0	43	0	149946368	6	3934
2026-01-22 13:22:39.34	304.73	33.20	-23.0	-23.9	19.8	0.00e+00	0	43	0	155189248	6	4003
2026-01-22 13:22:40.35	305.01	33.06	-22.9	-23.7	19.9	0.00e+00	0	43	0	160432128	6	3938
2026-01-22 13:22:41.35	305.29	32.91	-22.9	-23.7	20.0	0.00e+00	0	43	0	166723584	6	3940
2026-01-22 13:22:42.36	305.56	32.77	-22.9	-23.8	19.9	1.10e-06	0	43	0	171966464	6	3966
2026-01-22 13:22:43.37	305.84	32.63	-23.0	-23.9	19.8	0.00e+00	0	43	0	178257920	6	3999
2026-01-22 13:22:44.37	306.11	32.48	-23.2	-24.3	19.6	0.00e+00	0	43	0	183500800	6	4088
2026-01-22 13:22:45.37	306.38	32.34	-23.2	-24.3	19.6	0.00e+00	0	43	0	188743680	6	4104
2026-01-22 13:22:46.37	306.65	32.20	-23.3	-24.6	19.4	0.00e+00	0	43	0	195035136	6	4184
2026-01-22 13:22:47.38	306.91	32.06	-23.2	-24.4	19.6	0.00e+00	0	43	0	200278016	6	4116
2026-01-22 13:22:48.38	307.17	31.91	-23.1	-24.2	19.7	0.00e+00	0	43	0	205520896	6	4065
2026-01-22 13:22:49.38	307.43	31.77	-23.0	-24.0	19.8	0.00e+00	0	43	0	211812352	6	4023
2026-01-22 13:22:50.39	307.69	31.63	-22.9	-23.8	19.9	1.10e-06	0	43	0	217055232	6	3972
2026-01-22 13:22:51.39	307.95	31.49	-22.9	-23.7	19.9	0.00e+00	0	43	0	223346688	6	3956
2026-01-22 13:22:52.39	308.20	31.34	-23.0	-23.8	19.8	0.00e+00	0	43	0	228589568	6	3982
2026-01-22 13:22:53.39	308.45	31.20	-23.0	-23.8	19.8	0.00e+00	0	43	0	233832448	6	3976
2026-01-22 13:22:54.40	308.70	31.06	-23.1	-24.1	19.7	0.00e+00	0	43	0	240123904	6	4038
2026-01-22 13:22:55.40	308.95	30.92	-23.2	-24.4	19.5	0.00e+00	0	43	0	245366784	6	4132
2026-01-22 13:22:56.41	309.19	30.77	-23.4	-24.7	19.4	0.00e+00	0	43	0	251658240	6	4205
2026-01-22 13:22:57.40	309.43	30.63	-23.5	-24.9	19.3	0.00e+00	0	43	0	256901120	6	4255
2026-01-22 13:22:58.41	309.67	30.49	-23.5	-24.5	19.2	0.00e+00	0	43	0	262144000	7	4033
2026-01-22 13:22:59.41	309.91	30.35	-23.5	-24.4	19.3	0.00e+00	0	43	0	268435456	7	4011
2026-01-22 13:23:00.41	310.15	30.21	-23.5	-24.5	19.2	0.00e+00	0	43	0	273678336	7	4030
2026-01-22 13:23:01.42	310.38	30.07	-23.4	-24.3	19.3	0.00e+00	0	43	0	278921216	7	3989
2026-01-22 13:23:02.42	310.62	29.93	-23.2	-23.9	19.5	0.00e+00	0	43	0	285212672	7	3893
2026-01-22 13:23:03.42	310.85	29.79	-23.2	-23.8	19.6	0.00e+00	0	43	0	290455552	7	3858
2026-01-22 13:23:04.43	311.08	29.64	-23.2	-23.8	19.6	0.00e+00	0	43	0	296747008	7	3873
2026-01-22 13:23:05.43	311.30	29.50	-23.2	-23.9	19.5	0.00e+00	0	43	0	301989888	7	3885
2026-01-22 13:23:06.43	311.53	29.36	-23.3	-24.1	19.4	0.00e+00	0	43	0	307232768	7	3927
2026-01-22 13:23:07.44	311.75	29.22	-23.3	-24.2	19.4	0.00e+00	0	43	0	313524224	7	3953
2026-01-22 13:23:08.44	311.97	29.08	-23.3	-24.0	19.5	0.00e+00	0	43	0	318767104	7	3909
2026-01-22 13:23:09.45	312.19	28.94	-23.3	-24.0	19.4	0.00e+00	0	43	0	324009984	7	3925
2026-01-22 13:23:10.46	312.41	28.80	-23.3	-24.0	19.5	0.00e+00	0	43	0	330301440	7	3909
2026-01-22 13:23:11.47	312.63	28.66	-23.2	-23.8	19.5	0.00e+00	0	43	0	335544320	7	3879
2026-01-22 13:23:12.47	312.84	28.53	-23.3	-24.1	19.4	0.00e+00	0	43	0	341835776	7	3941
2026-01-22 13:23:13.48	313.05	28.39	-23.3	-24.1	19.4	0.00e+00	0	43	0	347078656	7	3941
2026-01-22 13:23:14.48	313.26	28.25	-23.1	-23.7	19.6	0.00e+00	0	43	0	352321536	7	3848
2026-01-22 13:23:15.48	313.47	28.11	-23.1	-23.7	19.6	0.00e+00	0	43	0	358612992	7	3832
2026-01-22 13:23:16.48	313.67	27.98	-23.1	-23.7	19.6	0.00e+00	0	43	0	363855872	7	3841
2026-01-22 13:23:17.49	313.88	27.84	-23.2	-23.9	19.5	0.00e+00	0	43	0	370147328	7	3898
2026-01-22 13:23:18.49	314.08	27.70	-23.3	-24.0	19.4	0.00e+00	0	43	0	375390208	7	3913
2026-01-22 13:23:19.50	314.28	27.56	-23.3	-24.1	19.4	0.00e+00	0	43	0	380633088	7	3936
2026-01-22 13:23:20.50	314.48	27.43	-23.3	-24.1	19.4	0.00e+00	0	43	0	386924544	7	3943
2026-01-22 13:23:21.50	314.68	27.29	-23.3	-24.1	19.4	0.00e+00	0	43	0	392167424	7	3941
2026-01-22 13:23:22.51	314.88	27.16	-23.4	-24.2	19.3	0.00e+00	0	43	0	398458880	7	3963
2026-01-22 13:23:23.52	315.07	27.02	-23.3	-24.1	19.4	0.00e+00	0	43	0	403701760	7	3936
2026-01-22 13:23:24.52	315.27	26.88	-23.3	-24.0	19.4	0.00e+00	0	43	0	408944640	7	3901
2026-01-22 13:23:25.52	315.46	26.75	-23.2	-23.8	19.5	0.00e+00	0	43	0	415236096	7	3873
2026-01-22 13:23:26.52	315.65	26.62	-23.1	-23.7	19.6	0.00e+00	0	43	0	420478976	7	3836
2026-01-22 13:23:27.52	315.83	26.48	-23.2	-23.8	19.5	0.00e+00	0	43	0	425721856	7	3854
2026-01-22 13:23:28.52	316.02	26.35	-23.3	-24.0	19.4	0.00e+00	0	43	0	432013312	7	3899
2026-01-22 13:23:29.53	316.21	26.22	-23.4	-24.2	19.3	0.00e+00	0	43	0	437256192	7	3950
2026-01-22 13:23:30.53	316.39	26.08	-23.5	-24.5	19.2	0.00e+00	0	43	0	443547648	7	4033
2026-01-22 13:23:31.54	316.57	25.95	-23.6	-24.7	19.1	0.00e+00	0	43	0	448790528	7	4080
2026-01-22 13:23:32.55	316.76	25.82	-23.5	-24.5	19.1	0.00e+00	0	43	0	454033408	7	4042
2026-01-22 13:23:33.55	316.93	25.69	-23.6	-24.6	19.1	0.00e+00	0	43	0	460324864	7	4071
2026-01-22 13:23:34.55	317.11	25.56	-23.5	-24.6	19.1	0.00e+00	0	43	0	465567744	7	4055
2026-01-22 13:23:35.56	317.29	25.42	-23.5	-24.5	19.2	0.00e+00	0	43	0	471859200	7	4033
2026-01-22 13:23:36.56	317.46	25.29	-23.6	-24.7	19.1	0.00e+00	0	43	0	477102080	7	4077
2026-01-22 13:23:37.56	317.64	25.16	-23.6	-24.6	19.1	0.00e+00	0	43	0	482344960	7	4061
2026-01-22 13:23:38.55	317.81	25.04	-23.5	-24.4	19.2	0.00e+00	0	43	0	487587840	7	4019
2026-01-22 13:23:39.56	317.98	24.90	-23.6	-24.6	19.1	0.00e+00	0	43	0	493879296	7	4059
2026-01-22 13:23:40.56	318.15	24.78	-23.6	-24.7	19.0	0.00e+00	0	43	0	499122176	7	4078
2026-01-22 13:23:41.56	318.31	24.65	-23.6	-24.7	19.0	0.00e+00	0	43	0	505413632	7	4074
2026-01-22 13:23:42.57	318.48	24.52	-23.7	-24.8	18.9	0.00e+00	0	43	0	510656512	7	4107
2026-01-22 13:23:43.58	318.65	24.39	-23.6	-24.8	19.0	0.00e+00	0	43	0	516947968	7	4100
2026-01-22 13:23:44.58	318.81	24.26	-23.5	-24.5	19.1	0.00e+00	0	43	0	522190848	7	4026
2026-01-22 13:23:45.59	318.98	24.13	-23.5	-24.4	19.1	0.00e+00	0	43	0	527433728	7	4014
2026-01-22 13:23:46.59	319.14	24.01	-23.6	-24.6	19.1	0.00e+00	0	43	0	533725184	7	4052
2026-01-22 13:23:47.59	319.30	23.88	-23.6	-24.6	19.1	0.00e+00	0	43	0	538968064	7	4057
2026-01-22 13:23:48.59	319.46	23.76	-23.5	-24.5	19.1	0.00e+00	0	43	0	544210944	7	4032
2026-01-22 13:23:49.60	319.62	23.63	-23.6	-24.7	19.0	0.00e+00	0	43	0	550502400	7	4071
2026-01-22 13:23:50.61	319.77	23.50	-23.7	-24.8	19.0	0.00e+00	0	43	0	555745280	7	4096
2026-01-22 13:23:51.61	319.93	23.38	-23.8	-25.0	18.8	0.00e+00	0	43	0	562036736	7	4167
2026-01-22 13:23:52.61	320.08	23.26	-23.8	-25.1	18.8	0.00e+00	0	43	0	567279616	7	4193
2026-01-22 13:23:53.62	320.24	23.13	-23.9	-25.3	18.7	0.00e+00	0	43	0	572522496	7	4234
2026-01-22 13:23:54.62	320.39	23.01	-23.9	-25.3	18.7	0.00e+00	0	43	0	578813952	7	4243
2026-01-22 13:23:55.62	320.54	22.89	-23.8	-25.2	18.7	0.00e+00	0	43	0	584056832	7	4207
2026-01-22 13:23:56.62	320.69	22.76	-23.9	-25.3	18.7	0.00e+00	0	43	0	590348288	7	4225
2026-01-22 13:23:57.62	320.83	22.64	-24.0	-25.4	18.6	0.00e+00	0	43	0	595591168	7	4266
2026-01-22 13:23:58.62	320.98	22.52	-24.0	-25.0	18.6	0.00e+00	0	43	0	600834048	8	4046
2026-01-22 13:23:59.63	321.13	22.40	-24.0	-25.0	18.6	0.00e+00	0	43	0	607125504	8	4053
2026-01-22 13:24:00.63	321.27	22.28	-24.0	-25.1	18.5	0.00e+00	0	43	0	612368384	8	4065
2026-01-22 13:24:01.64	321.42	22.15	-24.1	-25.1	18.5	0.00e+00	0	43	0	617611264	8	4078
2026-01-22 13:24:02.64	321.56	22.03	-24.1	-25.3	18.4	0.00e+00	0	43	0	623902720	8	4108
2026-01-22 13:24:03.65	321.70	21.91	-24.2	-25.5	18.3	0.00e+00	0	43	0	629145600	8	4170
2026-01-22 13:24:04.66	321.84	21.79	-24.2	-25.5	18.3	0.00e+00	0	43	0	635437056	8	4180
2026-01-22 13:24:05.66	321.98	21.67	-24.2	-25.5	18.3	0.00e+00	0	43	0	640679936	8	4175
2026-01-22 13:24:06.67	322.12	21.55	-24.3	-25.6	18.2	0.00e+00	0	43	0	645922816	8	4196
2026-01-22 13:24:07.67	322.26	21.44	-24.3	-25.7	18.2	0.00e+00	0	43	0	652214272	8	4229
2026-01-22 13:24:08.67	322.40	21.32	-24.4	-25.8	18.1	0.00e+00	0	43	0	657457152	8	4250
2026-01-22 13:24:09.68	322.53	21.20	-24.4	-25.9	18.1	0.00e+00	0	43	0	663748608	8	4261
2026-01-22 13:24:10.68	322.67	21.08	-24.4	-25.9	18.1	0.00e+00	0	43	0	668991488	8	4280
2026-01-22 13:24:11.69	322.80	20.97	-24.4	-25.8	18.1	0.00e+00	0	43	0	674234368	8	4257
2026-01-22 13:24:12.69	322.93	20.85	-24.5	-25.7	17.9	0.00e+00	0	43	0	680525824	9	4097
2026-01-22 13:24:13.70	323.07	20.73	-24.8	-26.2	17.7	0.00e+00	0	43	0	685768704	9	4222
2026-01-22 13:24:14.70	323.20	20.62	-24.7	-26.0	17.7	0.00e+00	0	43	0	691011584	9	4188
2026-01-22 13:24:15.70	323.33	20.50	-24.5	-25.7	17.9	0.00e+00	0	43	0	697303040	9	4103
2026-01-22 13:24:16.71	323.46	20.39	-24.5	-25.5	18.0	0.00e+00	0	43	0	702545920	9	4069
2026-01-22 13:24:17.72	323.59	20.27	-24.5	-25.7	17.9	0.00e+00	0	43	0	708837376	9	4102
2026-01-22 13:24:18.72	323.71	20.16	-24.6	-25.9	17.8	0.00e+00	0	43	0	714080256	9	4159
2026-01-22 13:24:19.72	323.84	20.04	-24.8	-26.2	17.6	0.00e+00	0	43	0	719323136	9	4224
2026-01-22 13:24:20.72	323.96	19.93	-24.8	-26.1	17.7	0.00e+00	0	43	0	725614592	9	4224
2026-01-22 13:24:21.72	324.09	19.82	-24.8	-26.2	17.6	0.00e+00	0	43	0	730857472	9	4232
2026-01-22 13:24:22.73	324.21	19.71	-24.9	-26.4	17.5	0.00e+00	0	43	0	737148928	9	4300
2026-01-22 13:24:23.73	324.33	19.59	-24.9	-26.4	17.5	0.00e+00	0	43	0	742391808	9	4309
2026-01-22 13:24:24.73	324.45	19.48	-24.9	-26.5	17.4	0.00e+00	0	43	0	747634688	9	4309
2026-01-22 13:24:25.73	324.58	19.37	-24.9	-26.4	17.5	0.00e+00	0	43	0	753926144	9	4293
2026-01-22 13:24:26.74	324.70	19.26	-24.9	-26.4	17.5	0.00e+00	0	43	0	759169024	9	4291
2026-01-22 13:24:27.75	324.82	19.15	-25.0	-26.6	17.4	0.00e+00	0	43	0	764411904	9	4345
2026-01-22 13:24:28.75	324.93	19.04	-24.9	-26.0	17.5	0.00e+00	0	43	0	770703360	10	4076
2026-01-22 13:24:29.75	325.05	18.93	-24.7	-25.6	17.6	0.00e+00	0	43	0	775946240	10	3990
2026-01-22 13:24:30.76	325.17	18.82	-24.8	-25.7	17.6	0.00e+00	0	43	0	782237696	10	3995
2026-01-22 13:24:31.76	325.28	18.71	-24.7	-25.6	17.7	0.00e+00	0	43	0	787480576	10	3973
2026-01-22 13:24:32.76	325.40	18.60	-24.7	-25.6	17.6	0.00e+00	0	43	0	792723456	10	3988
2026-01-22 13:24:33.77	325.51	18.49	-24.7	-25.5	17.7	0.00e+00	0	43	0	799014912	10	3953
2026-01-22 13:24:34.78	325.63	18.38	-24.7	-25.5	17.7	0.00e+00	0	43	0	804257792	10	3956
2026-01-22 13:24:35.79	325.74	18.28	-24.7	-25.5	17.6	0.00e+00	0	43	0	810549248	10	3965
2026-01-22 13:24:36.79	325.85	18.17	-24.7	-25.6	17.6	0.00e+00	0	43	0	815792128	10	3976
2026-01-22 13:24:37.80	325.97	18.06	-24.7	-25.6	17.6	0.00e+00	0	43	0	821035008	10	3980
2026-01-22 13:24:38.80	326.08	17.95	-24.8	-25.6	17.6	0.00e+00	0	43	0	827326464	10	3988
2026-01-22 13:24:39.80	326.19	17.85	-24.8	-25.8	17.5	0.00e+00	0	43	0	832569344	10	4027
2026-01-22 13:24:40.81	326.30	17.74	-24.8	-25.8	17.5	0.00e+00	0	43	0	838860800	10	4017
2026-01-22 13:24:41.81	326.40	17.64	-25.0	-26.1	17.3	0.00e+00	0	43	0	844103680	10	4094
2026-01-22 13:24:42.82	326.51	17.53	-24.9	-26.0	17.4	0.00e+00	0	43	0	849346560	10	4078
2026-01-22 13:24:43.83	326.62	17.43	-24.9	-25.9	17.4	0.00e+00	0	43	0	855638016	10	4059
2026-01-22 13:24:44.83	326.73	17.32	-24.9	-26.1	17.3	0.00e+00	0	43	0	860880896	10	4087
2026-01-22 13:24:45.83	326.83	17.22	-24.9	-26.0	17.3	2.20e-06	0	43	0	866123776	10	4087
2026-01-22 13:24:46.83	326.93	17.11	-25.0	-26.2	17.3	0.00e+00	0	43	0	872415232	10	4118
2026-01-22 13:24:47.83	327.04	17.01	-25.0	-26.2	17.3	0.00e+00	0	43	0	877658112	10	4122
2026-01-22 13:24:48.83	327.14	16.91	-25.1	-26.4	17.1	0.00e+00	0	43	0	883949568	10	4180
2026-01-22 13:24:49.84	327.25	16.81	-25.1	-26.4	17.2	0.00e+00	0	43	0	889192448	10	4168
2026-01-22 13:24:50.85	327.35	16.70	-25.2	-26.6	17.0	0.00e+00	0	43	0	894435328	10	4230
2026-01-22 13:24:51.85	327.45	16.60	-25.2	-26.6	17.0	0.00e+00	0	43	0	900726784	10	4244
2026-01-22 13:24:52.85	327.55	16.50	-25.3	-26.7	16.9	1.10e-06	0	43	0	905969664	10	4269
2026-01-22 13:24:53.85	327.65	16.40	-25.3	-26.8	16.9	0.00e+00	0	43	0	911212544	10	4299
2026-01-22 13:24:54.85	327.75	16.30	-25.3	-26.9	16.8	2.20e-06	0	43	0	917504000	10	4318
2026-01-22 13:24:55.86	327.85	16.20	-25.4	-27.1	16.7	0.00e+00	0	43	0	922746880	10	4375
2026-01-22 13:24:56.86	327.95	16.10	-25.5	-26.7	16.6	0.00e+00	0	43	0	929038336	11	4161
2026-01-22 13:24:57.86	328.04	16.00	-25.7	-27.1	16.4	0.00e+00	0	43	0	934281216	11	4269
2026-01-22 13:24:58.87	328.14	15.90	-25.6	-26.9	16.5	0.00e+00	0	43	0	939524096	11	4215
2026-01-22 13:24:59.88	328.24	15.80	-25.5	-26.9	16.6	0.00e+00	0	43	0	945815552	11	4206
2026-01-22 13:25:00.88	328.33	15.70	-25.7	-27.1	16.4	0.00e+00	0	43	0	951058432	11	4269
2026-01-22 13:25:01.88	328.43	15.60	-25.6	-27.0	16.5	0.00e+00	0	43	0	957349888	11	4227
2026-01-22 13:25:02.89	328.52	15.50	-25.6	-26.9	16.5	0.00e+00	0	43	0	962592768	11	4213
2026-01-22 13:25:03.89	328.62	15.41	-25.7	-27.2	16.3	0.00e+00	0	43	0	967835648	11	4292
2026-01-22 13:25:04.90	328.71	15.31	-25.6	-27.1	16.4	0.00e+00	0	43	0	974127104	11	4246
2026-01-22 13:25:05.90	328.80	15.21	-25.6	-26.9	16.5	0.00e+00	0	43	0	979369984	11	4210
2026-01-22 13:25:06.90	328.90	15.11	-25.5	-26.9	16.5	0.00e+00	0	43	0	984612864	11	4194
2026-01-22 13:25:07.91	328.99	15.02	-25.6	-26.9	16.5	0.00e+00	0	43	0	990904320	11	4198
2026-01-22 13:25:08.91	329.08	14.92	-25.7	-27.2	16.3	0.00e+00	0	43	0	996147200	11	4271
2026-01-22 13:25:09.91	329.17	14.82	-25.6	-27.0	16.4	0.00e+00	0	43	0	1002438656	11	4227
2026-01-22 13:25:10.92	329.26	14.73	-25.6	-27.0	16.4	0.00e+00	0	43	0	1007681536	11	4235
2026-01-22 13:25:11.92	329.35	14.63	-25.6	-27.0	16.4	0.00e+00	0	43	0	1012924416	11	4231
2026-01-22 13:25:12.92	329.44	14.54	-25.8	-27.3	16.2	0.00e+00	0	43	0	1019215872	11	4316
2026-01-22 13:25:13.93	329.53	14.44	-25.7	-27.2	16.3	0.00e+00	0	43	0	1024458752	11	4288
2026-01-22 13:25:14.94	329.61	14.35	-25.8	-27.5	16.2	0.00e+00	0	43	0	1030750208	11	4347
2026-01-22 13:25:15.94	329.70	14.25	-25.7	-27.2	16.3	0.00e+00	0	43	0	1035993088	11	4291
2026-01-22 13:25:16.95	329.79	14.16	-25.8	-27.4	16.2	0.00e+00	0	43	0	1041235968	11	4348
2026-01-22 13:25:17.95	329.88	14.07	-25.8	-27.5	16.1	0.00e+00	0	43	0	1047527424	11	4355
2026-01-22 13:25:18.95	329.96	13.97	-25.9	-27.6	16.1	0.00e+00	0	43	0	1052770304	11	4388
2026-01-22 13:25:19.95	330.05	13.88	-25.9	-27.6	16.0	0.00e+00	0	43	0	1058013184	11	4391
2026-01-22 13:25:20.95	330.13	13.79	-25.9	-27.8	16.0	0.00e+00	0	43	0	1064304640	11	4440
2026-01-22 13:25:21.96	330.22	13.70	-25.9	-27.7	16.0	0.00e+00	0	43	0	1069547520	11	4416
2026-01-22 13:25:22.95	330.30	13.61	-26.0	-27.8	15.9	0.00e+00	0	43	0	1074790400	11	4441
2026-01-22 13:25:23.96	330.38	13.51	-26.1	-27.5	15.7	0.00e+00	0	43	0	1081081856	12	4268
2026-01-22 13:25:24.96	330.46	13.42	-26.3	-28.0	15.5	0.00e+00	0	43	0	1086324736	12	4389
2026-01-22 13:25:25.96	330.55	13.33	-26.2	-27.7	15.6	0.00e+00	0	43	0	1092616192	12	4323
2026-01-22 13:25:26.97	330.63	13.24	-26.0	-27.5	15.7	0.00e+00	0	43	0	1097859072	12	4248
2026-01-22 13:25:27.98	330.71	13.15	-26.2	-27.8	15.6	0.00e+00	0	43	0	1104150528	12	4337
2026-01-22 13:25:28.98	330.79	13.06	-26.1	-27.7	15.6	0.00e+00	0	43	0	1109393408	12	4311
2026-01-22 13:25:29.99	330.87	12.97	-26.2	-27.9	15.5	0.00e+00	0	43	0	1114636288	12	4357
2026-01-22 13:25:30.99	330.95	12.88	-26.4	-28.4	15.2	0.00e+00	0	43	0	1120927744	12	4509
2026-01-22 13:25:32.00	331.03	12.79	-26.3	-28.0	15.5	0.00e+00	0	43	0	1126170624	12	4385
2026-01-22 13:25:33.01	331.11	12.70	-26.0	-27.5	15.7	0.00e+00	0	43	0	1132462080	12	4252
2026-01-22 13:25:34.01	331.19	12.61	-26.0	-27.3	15.8	0.00e+00	0	43	0	1137704960	12	4213
2026-01-22 13:25:35.02	331.27	12.52	-26.0	-27.4	15.7	0.00e+00	0	43	0	1142947840	12	4237
2026-01-22 13:25:36.01	331.35	12.44	-26.0	-27.5	15.7	0.00e+00	0	43	0	1149239296	12	4252
2026-01-22 13:25:37.02	331.42	12.35	-26.1	-27.5	15.7	0.00e+00	0	43	0	1154482176	12	4269
2026-01-22 13:25:38.02	331.50	12.26	-26.3	-28.0	15.4	0.00e+00	0	43	0	1159725056	12	4386
2026-01-22 13:25:39.02	331.58	12.17	-26.1	-27.7	15.5	0.00e+00	0	43	0	1166016512	12	4329
2026-01-22 13:25:40.03	331.65	12.08	-26.3	-28.0	15.4	0.00e+00	0	43	0	1171259392	12	4402
2026-01-22 13:25:41.03	331.73	12.00	-26.2	-27.8	15.5	0.00e+00	0	43	0	1177550848	12	4342
2026-01-22 13:25:42.04	331.80	11.91	-26.2	-28.0	15.4	0.00e+00	0	43	0	1182793728	12	4392
2026-01-22 13:25:43.04	331.88	11.83	-26.3	-28.1	15.3	0.00e+00	0	43	0	1188036608	12	4419
2026-01-22 13:25:44.05	331.95	11.74	-26.3	-28.1	15.3	0.00e+00	0	43	0	1194328064	12	4422
2026-01-22 13:25:45.05	332.03	11.65	-26.3	-28.1	15.3	0.00e+00	0	43	0	1199570944	12	4430
2026-01-22 13:25:46.05	332.10	11.57	-26.3	-28.2	15.3	1.10e-06	0	43	0	1204813824	12	4451
2026-01-22 13:25:47.06	332.17	11.48	-26.4	-28.4	15.1	0.00e+00	0	43	0	1211105280	12	4523
2026-01-22 13:25:48.05	332.25	11.40	-26.4	-28.3	15.2	0.00e+00	0	43	0	1216348160	12	4476
2026-01-22 13:25:49.06	332.32	11.31	-26.4	-28.3	15.2	0.00e+00	0	43	0	1222639616	12	4478
2026-01-22 13:25:50.06	332.39	11.23	-26.4	-28.2	15.2	0.00e+00	0	43	0	1227882496	12	4461
2026-01-22 13:25:51.07	332.46	11.14	-26.5	-28.1	15.0	0.00e+00	0	43	0	1233125376	13	4304
2026-01-22 13:25:52.07	332.53	11.06	-26.4	-27.9	15.1	0.00e+00	0	43	0	1239416832	13	4253
2026-01-22 13:25:53.08	332.60	10.98	-26.4	-27.8	15.2	1.10e-06	0	43	0	1244659712	13	4236
2026-01-22 13:25:54.08	332.67	10.89	-26.5	-28.1	15.0	0.00e+00	0	43	0	1250951168	13	4307
2026-01-22 13:25:55.09	332.74	10.81	-26.4	-27.9	15.1	3.40e-06	0	43	0	1256194048	13	4257
2026-01-22 13:25:56.09	332.81	10.73	-26.5	-28.0	15.0	0.00e+00	0	43	0	1261436928	13	4281
2026-01-22 13:25:57.09	332.88	10.64	-26.5	-28.0	15.0	0.00e+00	0	43	0	1267728384	13	4275
2026-01-22 13:25:58.09	332.95	10.56	-26.5	-28.0	15.0	0.00e+00	0	43	0	1272971264	13	4275
2026-01-22 13:25:59.10	333.02	10.48	-26.6	-28.2	14.9	0.00e+00	0	43	0	1278214144	13	4341
2026-01-22 13:26:00.10	333.09	10.40	-26.5	-28.0	15.0	1.10e-06	0	43	0	1284505600	13	4295
2026-01-22 13:26:01.10	333.16	10.32	-26.7	-28.4	14.7	5.70e-06	0	43	0	1289748480	13	4404
2026-01-22 13:26:02.11	333.22	10.23	-26.5	-28.0	15.0	2.20e-06	0	43	0	1296039936	13	4295
2026-01-22 13:26:03.11	333.29	10.15	-26.5	-27.9	15.1	4.50e-06	0	43	0	1301282816	13	4258
2026-01-22 13:26:04.12	333.36	10.07	-26.5	-28.1	15.0	3.40e-06	0	43	0	1306525696	13	4311
2026-01-22 13:26:05.12	333.43	9.99	-26.5	-28.0	15.0	0.00e+00	0	43	0	1312817152	13	4288
2026-01-22 13:26:06.12	333.49	9.91	-26.5	-28.1	14.9	0.00e+00	0	43	0	1318060032	13	4322
2026-01-22 13:26:07.13	333.56	9.83	-26.6	-28.3	14.8	1.10e-06	0	43	0	1324351488	13	4384
2026-01-22 13:26:08.13	333.62	9.75	-26.6	-28.2	14.8	1.10e-06	0	43	0	1329594368	13	4345
2026-01-22 13:26:09.13	333.69	9.67	-26.5	-28.1	14.9	2.20e-06	0	43	0	1334837248	13	4328
2026-01-22 13:26:10.14	333.75	9.59	-26.6	-28.2	14.9	1.10e-06	0	43	0	1341128704	13	4336
2026-01-22 13:26:11.14	333.82	9.51	-26.6	-28.3	14.8	0.00e+00	0	43	0	1346371584	13	4364
2026-01-22 13:26:12.14	333.88	9.43	-26.7	-28.4	14.7	3.40e-06	0	43	0	1351614464	13	4398
2026-01-22 13:26:13.15	333.95	9.35	-26.6	-28.3	14.8	2.20e-06	0	43	0	1357905920	13	4384
2026-01-22 13:26:14.15	334.01	9.27	-26.6	-28.4	14.7	1.10e-06	0	43	0	1363148800	13	4394
2026-01-22 13:26:15.16	334.07	9.19	-26.6	-28.3	14.7	1.10e-06	0	43	0	1369440256	13	4378
2026-01-22 13:26:16.16	334.13	9.12	-26.7	-28.5	14.6	0.00e+00	0	43	0	1374683136	13	4443
2026-01-22 13:26:17.17	334.20	9.04	-26.7	-28.4	14.7	0.00e+00	0	43	0	1380974592	13	4418
2026-01-22 13:26:18.18	334.26	8.96	-26.8	-28.7	14.5	0.00e+00	0	43	0	1386217472	13	4491
2026-01-22 13:26:19.18	334.32	8.88	-26.7	-28.5	14.6	1.10e-06	0	43	0	1391460352	13	4435
2026-01-22 13:26:20.18	334.38	8.80	-26.8	-28.9	14.4	3.40e-06	0	43	0	1397751808	13	4539
2026-01-22 13:26:21.18	334.44	8.73	-26.8	-28.8	14.4	1.10e-06	0	43	0	1402994688	13	4512
2026-01-22 13:26:22.19	334.51	8.65	-26.9	-29.0	14.3	2.20e-06	0	43	0	1408237568	13	4575
2026-01-22 13:26:23.19	334.57	8.57	-27.1	-28.8	14.1	3.40e-06	0	43	0	1414529024	14	4418
2026-01-22 13:26:24.19	334.63	8.50	-27.2	-29.2	13.9	4.50e-06	0	43	0	1419771904	14	4525
2026-01-22 13:26:25.18	334.69	8.42	-27.3	-29.3	13.8	1.14e-05	0	43	0	1425014784	14	4559
2026-01-22 13:26:26.19	334.75	8.34	-27.2	-29.1	13.9	2.20e-06	0	43	0	1431306240	14	4501
2026-01-22 13:26:27.19	334.81	8.27	-27.1	-29.0	14.0	1.14e-05	0	43	0	1436549120	14	4469
2026-01-22 13:26:28.19	334.87	8.19	-27.2	-29.1	13.9	8.00e-06	0	43	0	1442840576	14	4498
2026-01-22 13:26:29.19	334.92	8.12	-27.2	-29.1	13.9	4.50e-06	0	43	0	1448083456	14	4481
2026-01-22 13:26:30.20	334.98	8.04	-27.2	-29.1	13.9	3.40e-06	0	43	0	1453326336	14	4488
2026-01-22 13:26:31.20	335.04	7.97	-27.0	-28.8	14.1	2.20e-06	0	43	0	1459617792	14	4394
2026-01-22 13:26:32.21	335.10	7.89	-27.0	-28.6	14.2	2.20e-06	0	43	0	1464860672	14	4360
2026-01-22 13:26:33.21	335.16	7.82	-26.9	-28.6	14.2	6.80e-06	0	43	0	1471152128	14	4338
2026-01-22 13:26:34.21	335.22	7.74	-27.0	-28.7	14.1	2.20e-06	0	43	0	1476395008	14	4382
2026-01-22 13:26:35.21	335.27	7.67	-27.0	-28.8	14.1	1.10e-06	0	43	0	1481637888	14	4415
2026-01-22 13:26:36.21	335.33	7.59	-27.2	-29.2	13.9	5.70e-06	0	43	0	1487929344	14	4521
2026-01-22 13:26:37.22	335.39	7.52	-27.2	-29.2	13.8	1.02e-05	0	43	0	1493172224	14	4524
2026-01-22 13:26:38.22	335.44	7.45	-27.3	-29.5	13.6	1.25e-05	0	43	0	1498415104	14	4629
2026-01-22 13:26:39.22	335.50	7.37	-27.3	-29.5	13.6	2.17e-05	0	43	0	1504706560	14	4618
2026-01-22 13:26:40.22	335.55	7.30	-27.3	-29.4	13.7	1.25e-05	0	44	0	1509949440	14	4576
2026-01-22 13:26:41.22	335.61	7.23	-27.3	-29.5	13.6	1.37e-05	0	43	0	1516240896	14	4606
2026-01-22 13:26:42.23	335.67	7.15	-27.5	-29.5	13.2	2.40e-05	0	43	0	1521483776	15	4520
2026-01-22 13:26:43.23	335.72	7.08	-27.8	-30.1	13.0	2.51e-05	0	43	0	1526726656	15	4702
2026-01-22 13:26:44.23	335.78	7.01	-33.2	-44.5	3.8	8.46e-01	0	43	104	1527775232	26	13134
2026-01-22 13:26:45.23	335.83	6.94	-33.5	-44.6	3.8	8.46e-01	0	43	104	1527775232	27	12902

#Closed at: 2026-01-22 13:26:45
#Recorded file [1527 MB]: D:/data/31010_260122_162209.dat