passes_logs/2026/01/22/R2M6_AANII_01/R2M6_AANII_01__20260122_103641_SUOMI_NPP_rec.log

#Pass ID: 20260122_103641_SUOMI NPP
#Satellite: SUOMI NPP
#Configuration: NPP
#almurnet v.1.7.20240730
#Start time: 2026-01-22 10:36:42

#Version: 2.2.20231116
#Station: R2M6_AANII_01
#Location: 30.233357 lon 59.946436 lat
#TLE: 1 37849U 11061A   26021.51818991  .00000201  00000+0  11636-3 0  9995
#TLE: 2 37849  98.7819 323.5108 0002300  52.3548 307.7836 14.19527793737637

#Time	Az	El	Level	Level2	SNR	BER	BlckErr	Temp	State	Recorded	gain1	gain2
2026-01-22 10:36:42.28	166.85	7.07	-31.7	-37.2	4.6	1.37e+00	0	41	0	0	24	6779
2026-01-22 10:36:43.28	166.87	7.15	-31.7	-37.2	4.6	1.37e+00	0	42	104	0	24	6777
2026-01-22 10:36:44.28	166.89	7.23	-31.7	-37.1	6.4	2.48e-01	0	41	0	0	24	6649
2026-01-22 10:36:45.29	166.91	7.30	-31.7	-36.9	6.6	2.10e-01	0	42	0	1048576	24	6578
2026-01-22 10:36:46.29	166.92	7.38	-31.7	-37.1	6.5	2.30e-01	0	42	0	3145728	24	6703
2026-01-22 10:36:47.30	166.94	7.46	-31.8	-37.4	6.2	2.67e-01	0	42	0	5242880	24	6899
2026-01-22 10:36:48.31	166.96	7.54	-31.8	-37.4	6.3	2.69e-01	0	42	0	7340032	24	6840
2026-01-22 10:36:49.31	166.97	7.62	-31.8	-37.7	6.1	3.01e-01	0	42	0	9437184	24	7039
2026-01-22 10:36:50.31	166.99	7.70	-31.8	-37.4	6.3	2.98e-01	0	42	0	10485760	24	6852
2026-01-22 10:36:51.31	167.01	7.78	-31.9	-37.8	6.0	2.73e-01	0	42	0	12582912	24	7112
2026-01-22 10:36:52.31	167.03	7.86	-32.0	-38.3	5.7	3.91e-01	0	42	0	14680064	24	7448
2026-01-22 10:36:53.31	167.04	7.94	-31.9	-37.9	6.0	3.74e-01	0	42	0	16777216	24	7201
2026-01-22 10:36:54.32	167.06	8.02	-31.8	-37.1	6.5	2.74e-01	0	42	0	17825792	24	6665
2026-01-22 10:36:55.32	167.08	8.10	-31.8	-37.0	6.6	2.20e-01	0	42	0	19922944	24	6597
2026-01-22 10:36:56.32	167.10	8.18	-31.7	-36.9	6.7	2.04e-01	0	42	0	22020096	24	6523
2026-01-22 10:36:57.33	167.12	8.26	-31.7	-36.6	6.9	1.79e-01	0	42	0	24117248	24	6351
2026-01-22 10:36:58.34	167.13	8.34	-31.7	-36.7	6.9	1.64e-01	0	42	0	26214400	24	6374
2026-01-22 10:36:59.34	167.15	8.43	-31.8	-37.0	6.7	2.02e-01	0	42	0	28311552	24	6571
2026-01-22 10:37:00.35	167.17	8.51	-31.7	-36.4	7.0	1.75e-01	0	42	0	29360128	24	6242
2026-01-22 10:37:01.35	167.19	8.59	-31.5	-35.9	7.4	1.30e-01	0	42	0	31457280	24	5965
2026-01-22 10:37:02.35	167.21	8.67	-31.4	-35.1	8.0	7.71e-02	0	42	0	33554432	24	5525
2026-01-22 10:37:03.36	167.23	8.76	-31.2	-35.0	8.5	4.86e-02	0	42	0	35651584	23	5578
2026-01-22 10:37:04.36	167.24	8.84	-31.1	-34.4	9.0	2.98e-02	0	42	0	36700160	23	5260
2026-01-22 10:37:05.36	167.26	8.92	-30.9	-33.8	9.5	1.55e-02	0	42	0	38797312	23	5005
2026-01-22 10:37:06.37	167.28	9.01	-30.8	-33.5	9.7	1.12e-02	0	42	0	40894464	23	4889
2026-01-22 10:37:07.37	167.30	9.09	-30.8	-34.0	9.8	9.75e-03	0	42	0	42991616	22	5172
2026-01-22 10:37:08.37	167.32	9.17	-30.8	-33.8	9.8	8.14e-03	0	42	0	45088768	22	5115
2026-01-22 10:37:09.38	167.34	9.26	-30.9	-34.3	9.5	1.36e-02	0	42	0	46137344	22	5306
2026-01-22 10:37:10.37	167.36	9.34	-30.7	-33.4	10.2	9.19e-03	0	42	0	48234496	22	4919
2026-01-22 10:37:11.38	167.38	9.43	-30.6	-33.1	10.4	5.61e-03	0	42	0	50331648	22	4831
2026-01-22 10:37:12.38	167.40	9.51	-30.5	-32.7	10.7	3.90e-03	0	42	0	52428800	22	4670
2026-01-22 10:37:13.39	167.42	9.60	-30.5	-32.9	10.6	2.93e-03	0	42	0	54525952	22	4742
2026-01-22 10:37:14.39	167.44	9.68	-30.5	-32.8	10.7	3.28e-03	0	42	0	55574528	22	4704
2026-01-22 10:37:15.40	167.46	9.77	-30.4	-32.5	10.9	2.06e-03	0	42	0	57671680	22	4589
2026-01-22 10:37:16.40	167.48	9.86	-30.5	-32.8	10.7	2.67e-03	0	42	0	59768832	22	4707
2026-01-22 10:37:17.41	167.50	9.94	-30.6	-33.1	10.5	3.28e-03	0	42	0	61865984	22	4792
2026-01-22 10:37:18.42	167.52	10.03	-30.5	-32.7	10.8	3.11e-03	0	42	0	63963136	22	4650
2026-01-22 10:37:19.42	167.54	10.12	-30.6	-33.0	10.7	2.83e-03	0	42	0	65011712	22	4750
2026-01-22 10:37:20.42	167.56	10.21	-30.7	-33.2	10.5	5.37e-03	0	42	0	67108864	22	4835
2026-01-22 10:37:21.43	167.58	10.30	-30.6	-32.9	10.7	3.95e-03	0	42	0	69206016	22	4723
2026-01-22 10:37:22.42	167.60	10.38	-30.6	-32.9	10.7	2.91e-03	0	43	0	71303168	22	4734
2026-01-22 10:37:23.43	167.62	10.47	-30.6	-32.9	10.7	3.34e-03	0	42	0	73400320	22	4721
2026-01-22 10:37:24.43	167.64	10.56	-30.5	-32.7	10.8	2.81e-03	0	42	0	74448896	22	4650
2026-01-22 10:37:25.44	167.66	10.65	-30.6	-32.9	10.7	2.77e-03	0	43	0	76546048	22	4721
2026-01-22 10:37:26.44	167.68	10.74	-30.6	-33.0	10.7	3.02e-03	0	43	0	78643200	22	4722
2026-01-22 10:37:27.45	167.70	10.83	-30.6	-33.0	10.7	2.70e-03	0	43	0	80740352	22	4722
2026-01-22 10:37:28.45	167.72	10.92	-30.7	-33.3	10.5	4.19e-03	0	43	0	82837504	22	4829
2026-01-22 10:37:29.46	167.74	11.01	-30.5	-32.6	11.0	2.31e-03	0	43	0	83886080	22	4577
2026-01-22 10:37:30.47	167.76	11.10	-30.4	-32.2	11.3	1.21e-03	0	43	0	85983232	22	4453
2026-01-22 10:37:31.47	167.79	11.19	-30.2	-32.1	11.7	7.97e-04	0	43	0	88080384	21	4496
2026-01-22 10:37:32.48	167.81	11.29	-30.1	-31.7	12.1	3.40e-04	0	43	0	90177536	21	4355
2026-01-22 10:37:33.48	167.83	11.38	-30.0	-31.6	12.0	3.35e-04	0	43	0	92274688	21	4330
2026-01-22 10:37:34.48	167.85	11.47	-30.0	-31.5	12.1	2.91e-04	0	43	0	93323264	21	4296
2026-01-22 10:37:35.48	167.87	11.56	-30.0	-31.5	12.2	2.30e-04	0	43	0	95420416	21	4311
2026-01-22 10:37:36.49	167.89	11.66	-29.9	-31.4	12.2	2.55e-04	0	43	0	97517568	21	4271
2026-01-22 10:37:37.49	167.92	11.75	-29.9	-31.4	12.2	2.03e-04	0	43	0	99614720	21	4260
2026-01-22 10:37:38.49	167.94	11.84	-29.9	-31.3	12.3	1.93e-04	0	43	0	101711872	21	4230
2026-01-22 10:37:39.49	167.96	11.94	-29.7	-31.4	12.5	1.01e-04	0	43	0	102760448	20	4375
2026-01-22 10:37:40.49	167.98	12.03	-29.7	-31.5	12.5	1.26e-04	0	43	0	104857600	20	4415
2026-01-22 10:37:41.49	168.01	12.13	-29.7	-31.4	12.5	1.21e-04	0	43	0	106954752	20	4393
2026-01-22 10:37:42.50	168.03	12.22	-29.7	-31.5	12.5	1.16e-04	0	43	0	109051904	20	4413
2026-01-22 10:37:43.50	168.05	12.32	-29.8	-31.8	12.4	1.57e-04	0	43	0	110100480	20	4508
2026-01-22 10:37:44.50	168.07	12.41	-29.6	-31.2	12.7	1.13e-04	0	43	0	112197632	20	4316
2026-01-22 10:37:45.50	168.10	12.51	-29.4	-30.7	13.0	5.72e-05	0	43	0	114294784	20	4166
2026-01-22 10:37:46.51	168.12	12.61	-29.3	-30.4	13.2	2.67e-05	0	43	0	116391936	20	4092
2026-01-22 10:37:47.50	168.14	12.70	-29.3	-30.9	13.3	2.21e-05	0	43	0	118489088	19	4317
2026-01-22 10:37:48.51	168.17	12.80	-29.2	-30.7	13.4	1.14e-05	0	43	0	119537664	19	4244
2026-01-22 10:37:49.51	168.19	12.90	-29.2	-30.7	13.4	1.83e-05	0	43	0	121634816	19	4240
2026-01-22 10:37:50.51	168.21	13.00	-29.2	-30.7	13.5	1.37e-05	0	43	0	123731968	19	4236
2026-01-22 10:37:51.52	168.24	13.09	-29.1	-30.4	13.7	7.60e-06	0	43	0	125829120	19	4152
2026-01-22 10:37:52.52	168.26	13.19	-29.1	-30.2	13.7	9.90e-06	0	43	0	127926272	19	4113
2026-01-22 10:37:53.52	168.29	13.29	-29.1	-30.2	13.7	9.10e-06	0	43	0	128974848	19	4108
2026-01-22 10:37:54.52	168.31	13.39	-29.1	-30.3	13.7	3.80e-06	0	43	0	131072000	19	4120
2026-01-22 10:37:55.53	168.33	13.49	-29.2	-30.3	13.7	9.10e-06	0	43	0	133169152	19	4128
2026-01-22 10:37:56.53	168.36	13.59	-29.2	-30.5	13.6	6.10e-06	0	43	0	135266304	19	4172
2026-01-22 10:37:57.54	168.38	13.69	-29.1	-30.1	13.9	3.80e-06	0	43	0	137363456	19	4042
2026-01-22 10:37:58.54	168.41	13.80	-29.2	-30.3	13.7	7.00e-07	0	43	0	138412032	19	4114
2026-01-22 10:37:59.54	168.43	13.90	-29.3	-30.5	13.7	4.50e-06	0	43	0	140509184	19	4170
2026-01-22 10:38:00.54	168.46	14.00	-29.2	-30.3	13.8	1.50e-06	0	43	0	142606336	19	4084
2026-01-22 10:38:01.54	168.48	14.10	-29.2	-30.4	13.8	3.00e-06	0	43	0	144703488	19	4124
2026-01-22 10:38:02.55	168.51	14.21	-29.2	-30.4	13.8	4.50e-06	0	43	0	146800640	19	4118
2026-01-22 10:38:03.55	168.54	14.31	-29.4	-30.7	13.6	5.30e-06	0	43	0	147849216	19	4218
2026-01-22 10:38:04.56	168.56	14.41	-29.4	-30.9	13.4	1.14e-05	0	43	0	149946368	19	4263
2026-01-22 10:38:05.57	168.59	14.52	-29.3	-30.6	13.7	1.06e-05	0	43	0	152043520	19	4162
2026-01-22 10:38:06.57	168.61	14.62	-29.2	-30.3	13.8	6.80e-06	0	43	0	154140672	19	4091
2026-01-22 10:38:07.58	168.64	14.73	-29.3	-30.5	13.8	6.10e-06	0	43	0	156237824	19	4131
2026-01-22 10:38:08.59	168.67	14.84	-29.2	-30.3	13.9	1.50e-06	0	43	0	157286400	19	4069
2026-01-22 10:38:09.59	168.69	14.94	-29.3	-30.4	13.8	9.10e-06	0	43	0	159383552	19	4107
2026-01-22 10:38:10.59	168.72	15.05	-29.0	-29.8	14.2	2.20e-06	0	43	0	161480704	19	3928
2026-01-22 10:38:11.59	168.75	15.16	-29.2	-30.2	14.0	4.50e-06	0	43	0	163577856	19	4051
2026-01-22 10:38:12.59	168.77	15.26	-29.2	-30.3	13.9	4.50e-06	0	43	0	164626432	19	4080
2026-01-22 10:38:13.58	168.80	15.37	-29.3	-30.5	13.8	3.00e-06	0	43	0	166723584	19	4115
2026-01-22 10:38:14.59	168.83	15.48	-29.2	-30.3	13.9	3.00e-06	0	43	0	168820736	19	4057
2026-01-22 10:38:15.59	168.86	15.59	-29.3	-30.4	13.8	2.20e-06	0	43	0	170917888	19	4109
2026-01-22 10:38:16.59	168.88	15.70	-29.3	-30.4	13.9	7.60e-06	0	43	0	173015040	19	4105
2026-01-22 10:38:17.60	168.91	15.81	-29.4	-30.7	13.7	6.80e-06	0	43	0	174063616	19	4173
2026-01-22 10:38:18.61	168.94	15.92	-29.3	-30.5	13.9	2.20e-06	0	43	0	176160768	19	4103
2026-01-22 10:38:19.61	168.97	16.03	-29.4	-30.5	13.9	4.50e-06	0	43	0	178257920	19	4115
2026-01-22 10:38:20.61	169.00	16.14	-29.4	-30.5	13.9	1.50e-06	0	43	0	180355072	19	4107
2026-01-22 10:38:21.62	169.03	16.26	-29.3	-30.3	14.0	1.50e-06	0	43	0	182452224	19	4040
2026-01-22 10:38:22.62	169.05	16.37	-29.2	-30.1	14.2	7.00e-07	0	43	0	183500800	19	3985
2026-01-22 10:38:23.63	169.08	16.48	-29.2	-30.0	14.2	7.00e-07	0	43	0	185597952	19	3950
2026-01-22 10:38:24.63	169.11	16.60	-29.5	-30.7	13.8	3.80e-06	0	43	0	187695104	19	4157
2026-01-22 10:38:25.64	169.14	16.71	-29.5	-30.8	13.8	6.10e-06	0	43	0	189792256	19	4164
2026-01-22 10:38:26.63	169.17	16.82	-29.3	-30.2	14.2	7.00e-07	0	43	0	191889408	19	4011
2026-01-22 10:38:27.63	169.20	16.94	-29.2	-29.9	14.3	4.50e-06	0	43	0	192937984	19	3918
2026-01-22 10:38:28.63	169.23	17.05	-29.2	-29.9	14.3	1.50e-06	0	43	0	195035136	19	3909
2026-01-22 10:38:29.64	169.26	17.17	-29.2	-30.1	14.2	7.00e-07	0	43	0	197132288	19	3973
2026-01-22 10:38:30.64	169.29	17.29	-29.2	-30.1	14.2	7.60e-06	0	43	0	199229440	19	3979
2026-01-22 10:38:31.63	169.32	17.40	-29.2	-30.0	14.2	1.50e-06	0	43	0	201326592	19	3958
2026-01-22 10:38:32.64	169.35	17.52	-29.3	-30.2	14.1	2.20e-06	0	43	0	202375168	19	4008
2026-01-22 10:38:33.65	169.39	17.64	-29.2	-30.0	14.3	3.00e-06	0	43	0	204472320	19	3954
2026-01-22 10:38:34.65	169.42	17.76	-29.4	-30.4	14.0	1.50e-06	0	43	0	206569472	19	4068
2026-01-22 10:38:35.66	169.45	17.88	-29.3	-30.4	14.0	3.00e-06	0	43	0	208666624	19	4058
2026-01-22 10:38:36.66	169.48	18.00	-29.5	-30.8	13.8	5.30e-06	0	43	0	209715200	19	4162
2026-01-22 10:38:37.67	169.51	18.12	-29.5	-30.7	13.8	3.80e-06	0	43	0	211812352	19	4153
2026-01-22 10:38:38.67	169.55	18.24	-29.5	-30.8	13.8	7.00e-07	0	43	0	213909504	19	4181
2026-01-22 10:38:39.67	169.58	18.37	-29.5	-30.8	13.8	3.00e-06	0	43	0	216006656	19	4187
2026-01-22 10:38:40.67	169.61	18.49	-29.6	-31.0	13.7	7.60e-06	0	43	0	218103808	19	4227
2026-01-22 10:38:41.68	169.64	18.61	-29.6	-31.0	13.7	7.60e-06	0	43	0	220200960	19	4246
2026-01-22 10:38:42.68	169.68	18.74	-29.7	-31.3	13.5	4.50e-06	0	43	0	221249536	19	4323
2026-01-22 10:38:43.68	169.71	18.86	-29.7	-31.4	13.5	8.30e-06	0	43	0	223346688	19	4341
2026-01-22 10:38:44.69	169.74	18.99	-29.6	-30.9	13.7	1.37e-05	0	43	0	225443840	19	4197
2026-01-22 10:38:45.69	169.78	19.11	-29.7	-31.2	13.6	1.22e-05	0	43	0	227540992	19	4279
2026-01-22 10:38:46.68	169.81	19.24	-29.8	-31.4	13.4	1.29e-05	0	43	0	228589568	19	4367
2026-01-22 10:38:47.69	169.85	19.37	-29.8	-31.4	13.4	9.90e-06	0	43	0	230686720	19	4371
2026-01-22 10:38:48.69	169.88	19.49	-29.7	-31.3	13.5	1.37e-05	0	43	0	232783872	19	4337
2026-01-22 10:38:49.69	169.92	19.62	-29.8	-31.7	13.3	1.06e-05	0	43	0	234881024	19	4451
2026-01-22 10:38:50.69	169.95	19.75	-29.8	-31.5	13.4	2.36e-05	0	43	0	236978176	19	4396
2026-01-22 10:38:51.69	169.99	19.88	-29.8	-31.6	13.3	1.14e-05	0	44	0	238026752	19	4398
2026-01-22 10:38:52.70	170.02	20.01	-30.0	-32.0	13.2	1.67e-05	0	43	0	240123904	19	4532
2026-01-22 10:38:53.70	170.06	20.14	-29.9	-31.4	13.1	3.12e-05	0	44	0	242221056	20	4269
2026-01-22 10:38:54.71	170.10	20.27	-30.1	-31.9	12.7	5.79e-05	0	43	0	244318208	20	4442
2026-01-22 10:38:55.71	170.13	20.41	-30.2	-32.2	12.6	6.33e-05	0	43	0	246415360	20	4517
2026-01-22 10:38:56.72	170.17	20.54	-30.2	-32.1	12.7	8.23e-05	0	44	0	247463936	20	4475
2026-01-22 10:38:57.72	170.21	20.67	-30.1	-32.0	12.7	6.33e-05	0	44	0	249561088	20	4475
2026-01-22 10:38:58.73	170.24	20.81	-30.3	-32.5	12.4	1.30e-04	0	43	0	251658240	20	4643
2026-01-22 10:38:59.73	170.28	20.94	-30.2	-32.2	12.6	1.36e-04	0	43	0	253755392	20	4540
2026-01-22 10:39:00.74	170.32	21.08	-30.3	-32.3	12.5	8.69e-05	0	43	0	255852544	20	4574
2026-01-22 10:39:01.74	170.36	21.22	-30.3	-32.4	12.5	9.76e-05	0	43	0	256901120	20	4581
2026-01-22 10:39:02.74	170.40	21.35	-30.4	-32.6	12.4	1.14e-04	0	43	0	258998272	20	4660
2026-01-22 10:39:03.74	170.44	21.49	-30.3	-32.4	12.5	1.56e-04	0	43	0	261095424	20	4598
2026-01-22 10:39:04.74	170.48	21.63	-30.1	-31.8	12.9	6.94e-05	0	43	0	263192576	20	4378
2026-01-22 10:39:05.74	170.52	21.77	-30.0	-31.5	13.0	3.81e-05	0	44	0	265289728	20	4297
2026-01-22 10:39:06.75	170.56	21.91	-30.1	-31.8	12.9	6.02e-05	0	44	0	266338304	20	4388
2026-01-22 10:39:07.75	170.60	22.05	-30.1	-31.9	12.8	5.49e-05	0	43	0	268435456	20	4425
2026-01-22 10:39:08.76	170.64	22.19	-30.2	-32.1	12.7	7.62e-05	0	43	0	270532608	20	4479
2026-01-22 10:39:09.76	170.68	22.34	-30.2	-32.2	12.6	7.40e-05	0	44	0	272629760	20	4516
2026-01-22 10:39:10.77	170.72	22.48	-30.2	-32.3	12.6	1.06e-04	0	43	0	273678336	20	4553
2026-01-22 10:39:11.77	170.76	22.62	-30.5	-32.9	12.2	1.78e-04	0	44	0	275775488	20	4766
2026-01-22 10:39:12.77	170.80	22.77	-30.6	-32.9	11.8	2.95e-04	0	44	0	277872640	21	4670
2026-01-22 10:39:13.78	170.85	22.92	-30.4	-32.3	12.3	1.83e-04	0	44	0	279969792	21	4466
2026-01-22 10:39:14.79	170.89	23.06	-30.4	-32.1	12.3	1.63e-04	0	44	0	282066944	21	4407
2026-01-22 10:39:15.79	170.93	23.21	-30.4	-32.1	12.4	2.24e-04	0	44	0	283115520	21	4387
2026-01-22 10:39:16.80	170.98	23.36	-30.3	-31.8	12.5	1.91e-04	0	44	0	285212672	21	4299
2026-01-22 10:39:17.80	171.02	23.51	-30.4	-32.0	12.5	1.04e-04	0	44	0	287309824	21	4363
2026-01-22 10:39:18.80	171.07	23.66	-30.3	-31.8	12.6	8.01e-05	0	44	0	289406976	21	4298
2026-01-22 10:39:19.80	171.11	23.81	-30.0	-31.1	13.1	5.11e-05	0	43	0	291504128	21	4078
2026-01-22 10:39:20.81	171.16	23.96	-30.0	-31.0	13.1	3.35e-05	0	44	0	292552704	21	4050
2026-01-22 10:39:21.81	171.20	24.12	-30.0	-30.9	13.1	1.98e-05	0	44	0	294649856	21	4017
2026-01-22 10:39:22.80	171.25	24.27	-29.9	-30.7	13.4	1.37e-05	0	44	0	296747008	21	3945
2026-01-22 10:39:23.81	171.29	24.42	-30.2	-31.5	12.8	3.20e-05	0	44	0	298844160	21	4176
2026-01-22 10:39:24.81	171.34	24.58	-30.0	-30.9	13.1	4.50e-05	0	44	0	300941312	21	4001
2026-01-22 10:39:25.82	171.39	24.74	-30.0	-30.9	13.3	3.05e-05	0	44	0	301989888	21	4011
2026-01-22 10:39:26.82	171.44	24.89	-30.1	-31.3	13.0	4.57e-05	0	44	0	304087040	21	4119
2026-01-22 10:39:27.83	171.48	25.05	-29.9	-30.8	13.3	2.89e-05	0	44	0	306184192	21	3987
2026-01-22 10:39:28.83	171.53	25.21	-30.1	-31.2	13.0	2.36e-05	0	43	0	308281344	21	4110
2026-01-22 10:39:29.83	171.58	25.37	-29.8	-30.5	13.5	2.67e-05	0	44	0	310378496	21	3885
2026-01-22 10:39:30.83	171.63	25.53	-29.8	-30.8	13.6	5.30e-06	0	43	0	311427072	20	4078
2026-01-22 10:39:31.84	171.68	25.69	-29.8	-30.9	13.6	3.80e-06	0	43	0	313524224	20	4091
2026-01-22 10:39:32.84	171.73	25.86	-29.7	-30.6	13.8	1.14e-05	0	43	0	315621376	20	4003
2026-01-22 10:39:33.84	171.78	26.02	-30.0	-31.4	13.3	1.52e-05	0	44	0	317718528	20	4260
2026-01-22 10:39:34.84	171.83	26.18	-29.9	-31.4	13.3	1.98e-05	0	44	0	319815680	20	4242
2026-01-22 10:39:35.84	171.89	26.35	-29.8	-30.9	13.5	2.67e-05	0	43	0	320864256	20	4106
2026-01-22 10:39:36.84	171.94	26.52	-29.8	-31.1	13.5	8.30e-06	0	44	0	322961408	20	4151
2026-01-22 10:39:37.83	171.99	26.68	-29.9	-31.3	13.3	1.90e-05	0	44	0	325058560	20	4234
2026-01-22 10:39:38.83	172.05	26.85	-30.1	-31.8	12.9	3.96e-05	0	44	0	327155712	20	4389
2026-01-22 10:39:39.84	172.10	27.02	-30.1	-31.7	13.1	1.90e-05	0	43	0	329252864	20	4344
2026-01-22 10:39:40.85	172.15	27.19	-30.2	-32.0	12.8	2.74e-05	0	44	0	330301440	20	4445
2026-01-22 10:39:41.85	172.21	27.36	-29.9	-31.3	13.4	4.95e-05	0	44	0	332398592	20	4219
2026-01-22 10:39:42.85	172.27	27.54	-29.7	-30.7	13.8	1.44e-05	0	44	0	334495744	20	4023
2026-01-22 10:39:43.86	172.32	27.71	-30.0	-31.5	13.2	9.10e-06	0	44	0	336592896	20	4262
2026-01-22 10:39:44.86	172.38	27.89	-29.7	-30.7	13.8	6.80e-06	0	44	0	337641472	20	4025
2026-01-22 10:39:45.87	172.44	28.07	-29.8	-30.9	13.7	6.10e-06	0	44	0	339738624	20	4085
2026-01-22 10:39:46.87	172.49	28.24	-29.7	-30.7	13.7	1.14e-05	0	44	0	341835776	20	4041
2026-01-22 10:39:47.87	172.55	28.42	-29.6	-30.5	13.9	1.06e-05	0	44	0	343932928	20	3987
2026-01-22 10:39:48.87	172.61	28.60	-29.7	-30.7	13.7	7.60e-06	0	44	0	346030080	20	4023
2026-01-22 10:39:49.88	172.67	28.78	-29.9	-31.1	13.5	9.10e-06	0	44	0	347078656	20	4161
2026-01-22 10:39:50.88	172.73	28.96	-30.0	-31.4	13.3	2.28e-05	0	44	0	349175808	20	4245
2026-01-22 10:39:51.88	172.79	29.15	-30.0	-31.6	13.2	2.44e-05	0	44	0	351272960	20	4311
2026-01-22 10:39:52.88	172.86	29.33	-30.3	-32.3	12.7	6.02e-05	0	44	0	353370112	20	4553
2026-01-22 10:39:53.88	172.92	29.51	-30.4	-32.7	12.4	1.01e-04	0	44	0	355467264	20	4690
2026-01-22 10:39:54.88	172.98	29.70	-30.3	-31.8	12.8	6.40e-05	0	44	0	356515840	21	4268
2026-01-22 10:39:55.88	173.05	29.89	-30.5	-32.3	12.3	1.53e-04	0	44	0	358612992	21	4437
2026-01-22 10:39:56.89	173.11	30.08	-30.5	-32.2	12.4	2.25e-04	0	44	0	360710144	21	4427
2026-01-22 10:39:57.89	173.18	30.27	-30.6	-32.8	12.0	7.01e-05	0	43	0	362807296	21	4620
2026-01-22 10:39:58.90	173.24	30.46	-30.8	-33.2	11.8	3.21e-04	0	44	0	364904448	21	4752
2026-01-22 10:39:59.89	173.31	30.65	-30.6	-32.8	12.1	3.97e-04	0	44	0	365953024	21	4613
2026-01-22 10:40:00.90	173.38	30.85	-30.9	-33.7	11.4	4.69e-04	0	44	0	368050176	21	4953
2026-01-22 10:40:01.90	173.44	31.04	-31.1	-33.6	11.1	1.76e-03	0	44	0	370147328	22	4820
2026-01-22 10:40:02.91	173.51	31.24	-31.3	-34.2	10.7	2.40e-03	0	44	0	372244480	22	5043
2026-01-22 10:40:03.91	173.58	31.44	-31.3	-34.4	10.4	4.22e-03	0	44	0	374341632	22	5139
2026-01-22 10:40:04.91	173.66	31.64	-31.5	-34.6	10.1	4.58e-03	0	44	0	375390208	23	5133
2026-01-22 10:40:05.92	173.73	31.84	-31.5	-34.7	10.1	9.41e-03	0	44	0	377487360	23	5164
2026-01-22 10:40:06.93	173.80	32.04	-31.5	-34.4	10.2	7.70e-03	0	44	0	379584512	23	5062
2026-01-22 10:40:07.93	173.87	32.24	-31.7	-35.4	9.5	6.95e-03	0	44	0	381681664	23	5476
2026-01-22 10:40:08.94	173.95	32.45	-31.4	-34.1	10.4	8.32e-03	0	44	0	383778816	23	4936
2026-01-22 10:40:09.94	174.02	32.65	-31.4	-34.2	10.3	4.54e-03	0	44	0	384827392	23	4967
2026-01-22 10:40:10.95	174.10	32.86	-31.6	-34.6	10.1	5.52e-03	0	44	0	386924544	23	5141
2026-01-22 10:40:11.94	174.18	33.07	-31.1	-33.3	11.0	3.58e-03	0	44	0	389021696	23	4605
2026-01-22 10:40:12.95	174.25	33.28	-31.2	-33.6	10.9	1.66e-03	0	44	0	391118848	23	4722
2026-01-22 10:40:13.95	174.33	33.49	-30.9	-32.6	11.6	2.53e-03	0	44	0	392167424	23	4385
2026-01-22 10:40:14.95	174.41	33.70	-31.0	-32.9	11.4	7.11e-04	0	44	0	394264576	23	4465
2026-01-22 10:40:15.95	174.49	33.92	-30.7	-32.5	12.0	3.77e-04	0	44	0	396361728	22	4417
2026-01-22 10:40:16.95	174.58	34.13	-30.4	-31.7	12.6	1.96e-04	0	44	0	398458880	22	4136
2026-01-22 10:40:17.96	174.66	34.35	-30.2	-31.5	13.0	8.08e-05	0	44	0	400556032	21	4178
2026-01-22 10:40:18.97	174.74	34.57	-30.3	-31.7	12.8	3.43e-05	0	44	0	401604608	21	4235
2026-01-22 10:40:19.97	174.83	34.79	-30.3	-31.7	12.9	6.17e-05	0	44	0	403701760	21	4240
2026-01-22 10:40:20.97	174.91	35.01	-30.3	-31.7	12.9	5.72e-05	0	44	0	405798912	21	4229
2026-01-22 10:40:21.98	175.00	35.24	-30.2	-31.5	13.0	4.04e-05	0	44	0	407896064	21	4160
2026-01-22 10:40:22.98	175.09	35.46	-30.3	-31.7	12.9	5.03e-05	0	44	0	409993216	21	4227
2026-01-22 10:40:23.98	175.18	35.69	-30.2	-31.4	13.0	5.49e-05	0	44	0	411041792	21	4164
2026-01-22 10:40:24.98	175.27	35.91	-30.5	-32.4	12.4	6.79e-05	0	44	0	413138944	21	4468
2026-01-22 10:40:25.98	175.36	36.14	-30.5	-32.2	12.6	1.22e-04	0	44	0	415236096	21	4405
2026-01-22 10:40:26.98	175.46	36.37	-30.6	-32.6	12.3	6.94e-05	0	44	0	417333248	21	4545
2026-01-22 10:40:27.99	175.55	36.61	-30.6	-32.5	12.4	2.53e-04	0	44	0	419430400	21	4502
2026-01-22 10:40:28.99	175.65	36.84	-30.7	-32.9	12.1	4.73e-04	0	44	0	420478976	21	4628
2026-01-22 10:40:29.99	175.74	37.07	-31.0	-33.7	11.5	3.22e-04	0	44	0	422576128	21	4960
2026-01-22 10:40:31.00	175.84	37.31	-31.0	-33.5	11.4	6.31e-04	0	44	0	424673280	22	4761
2026-01-22 10:40:32.00	175.94	37.55	-31.3	-34.3	10.7	1.24e-03	0	44	0	426770432	22	5080
2026-01-22 10:40:33.00	176.04	37.79	-31.3	-33.9	10.7	3.55e-03	0	44	0	428867584	23	4826
2026-01-22 10:40:34.01	176.15	38.03	-31.6	-34.8	10.0	5.60e-03	0	44	0	429916160	23	5198
2026-01-22 10:40:35.01	176.25	38.28	-31.3	-33.8	10.7	5.78e-03	0	44	0	432013312	23	4778
2026-01-22 10:40:36.01	176.36	38.52	-31.1	-33.0	11.3	2.24e-03	0	44	0	434110464	23	4492
2026-01-22 10:40:37.01	176.47	38.77	-31.0	-32.7	11.6	9.98e-04	0	44	0	436207616	23	4402
2026-01-22 10:40:38.01	176.57	39.02	-31.0	-32.8	11.6	1.27e-03	0	44	0	437256192	23	4417
2026-01-22 10:40:39.01	176.68	39.26	-31.1	-32.9	11.4	5.27e-04	0	44	0	439353344	23	4451
2026-01-22 10:40:40.02	176.80	39.52	-30.9	-32.4	11.8	4.74e-04	0	44	0	441450496	23	4278
2026-01-22 10:40:41.02	176.91	39.77	-30.6	-32.0	12.4	1.91e-04	0	44	0	443547648	22	4240
2026-01-22 10:40:42.03	177.03	40.03	-30.6	-32.1	12.4	1.74e-04	0	44	0	445644800	22	4269
2026-01-22 10:40:43.03	177.15	40.29	-30.7	-32.3	12.3	2.05e-04	0	44	0	446693376	22	4334
2026-01-22 10:40:44.02	177.26	40.54	-31.1	-33.5	11.3	6.75e-04	0	44	0	448790528	22	4764
2026-01-22 10:40:45.02	177.38	40.80	-30.9	-33.1	11.7	1.10e-03	0	44	0	450887680	22	4601
2026-01-22 10:40:46.03	177.51	41.07	-31.0	-33.2	11.6	5.62e-04	0	44	0	452984832	22	4645
2026-01-22 10:40:47.03	177.63	41.33	-31.2	-33.8	11.3	1.05e-03	0	44	0	455081984	22	4840
2026-01-22 10:40:48.02	177.76	41.59	-31.3	-33.8	10.9	2.69e-03	0	44	0	456130560	23	4775
2026-01-22 10:40:49.03	177.89	41.86	-31.4	-34.0	10.6	3.58e-03	0	44	0	458227712	23	4872
2026-01-22 10:40:50.03	178.02	42.13	-31.4	-33.9	10.8	2.78e-03	0	44	0	460324864	23	4817
2026-01-22 10:40:51.04	178.16	42.40	-31.5	-34.3	10.4	4.13e-03	0	44	0	462422016	23	4987
2026-01-22 10:40:52.04	178.29	42.68	-31.5	-34.3	10.5	4.01e-03	0	44	0	464519168	23	4960
2026-01-22 10:40:53.05	178.43	42.95	-30.8	-32.7	12.0	6.80e-04	0	44	0	465567744	22	4475
2026-01-22 10:40:54.05	178.57	43.23	-30.7	-32.3	12.3	6.26e-04	0	44	0	467664896	22	4341
2026-01-22 10:40:55.05	178.71	43.51	-30.8	-32.5	12.1	1.20e-04	0	44	0	469762048	22	4393
2026-01-22 10:40:56.06	178.86	43.79	-30.6	-31.9	12.5	7.93e-05	0	44	0	471859200	22	4214
2026-01-22 10:40:57.06	179.01	44.07	-30.3	-31.7	13.0	4.57e-05	0	44	0	473956352	21	4224
2026-01-22 10:40:58.07	179.16	44.36	-30.7	-32.9	12.2	1.33e-04	0	44	0	475004928	21	4605
2026-01-22 10:40:59.07	179.31	44.64	-30.6	-32.6	12.4	3.73e-04	0	44	0	477102080	21	4522
2026-01-22 10:41:00.06	179.46	44.93	-31.2	-33.9	11.1	8.61e-04	0	44	0	479199232	22	4892
2026-01-22 10:41:01.07	179.62	45.22	-31.4	-34.5	10.7	1.32e-03	0	44	0	481296384	22	5140
2026-01-22 10:41:02.07	179.78	45.51	-31.3	-34.2	10.8	1.06e-03	0	44	0	482344960	22	5009
2026-01-22 10:41:03.08	179.95	45.81	-31.5	-34.2	10.5	4.14e-03	0	44	0	484442112	23	4924
2026-01-22 10:41:04.08	180.12	46.10	-31.4	-34.0	10.8	3.73e-03	0	44	0	486539264	23	4835
2026-01-22 10:41:05.09	180.29	46.40	-31.4	-34.0	10.7	3.21e-03	0	44	0	488636416	23	4867
2026-01-22 10:41:06.09	180.46	46.70	-31.5	-34.3	10.6	2.58e-03	0	44	0	490733568	23	4959
2026-01-22 10:41:07.10	180.64	47.00	-31.5	-34.3	10.5	3.32e-03	0	44	0	492830720	23	4965
2026-01-22 10:41:08.10	180.82	47.31	-31.1	-33.2	11.3	1.99e-03	0	44	0	493879296	23	4560
2026-01-22 10:41:09.10	181.00	47.61	-31.2	-33.3	11.3	1.57e-03	0	44	0	495976448	23	4588
2026-01-22 10:41:10.10	181.19	47.92	-30.9	-32.4	11.7	8.85e-04	0	44	0	498073600	23	4301
2026-01-22 10:41:11.11	181.38	48.23	-31.2	-33.3	11.3	8.98e-04	0	44	0	500170752	23	4584
2026-01-22 10:41:12.11	181.57	48.54	-31.1	-32.9	11.4	1.57e-03	0	44	0	501219328	23	4446
2026-01-22 10:41:13.11	181.77	48.85	-30.9	-32.4	11.9	3.46e-04	0	44	0	503316480	23	4295
2026-01-22 10:41:14.11	181.97	49.16	-30.5	-31.9	12.5	3.03e-04	0	44	0	505413632	22	4182
2026-01-22 10:41:15.12	182.18	49.48	-30.6	-31.9	12.6	1.06e-04	0	44	0	507510784	22	4211
2026-01-22 10:41:16.12	182.39	49.80	-30.4	-31.4	12.9	1.10e-04	0	44	0	509607936	22	4053
2026-01-22 10:41:17.13	182.61	50.12	-30.1	-31.3	13.3	1.98e-05	0	44	0	510656512	21	4098
2026-01-22 10:41:18.12	182.83	50.44	-29.9	-30.7	13.7	1.37e-05	0	44	0	512753664	21	3942
2026-01-22 10:41:19.13	183.05	50.76	-30.0	-30.8	13.6	6.10e-06	0	44	0	514850816	21	3963
2026-01-22 10:41:20.13	183.28	51.09	-29.9	-31.0	13.9	7.00e-07	0	44	0	516947968	20	4103
2026-01-22 10:41:21.13	183.51	51.41	-29.4	-29.7	14.7	0.00e+00	0	44	0	519045120	20	3730
2026-01-22 10:41:22.14	183.76	51.75	-29.1	-29.5	15.1	0.00e+00	0	44	0	520093696	19	3756
2026-01-22 10:41:23.15	184.00	52.08	-29.2	-29.7	14.8	0.00e+00	0	44	0	522190848	19	3817
2026-01-22 10:41:24.15	184.25	52.41	-29.3	-30.0	14.8	0.00e+00	0	44	0	524288000	19	3900
2026-01-22 10:41:25.15	184.51	52.74	-29.1	-29.6	15.1	7.00e-07	0	44	0	526385152	19	3796
2026-01-22 10:41:26.16	184.77	53.08	-28.6	-28.8	15.9	0.00e+00	0	44	0	528482304	18	3669
2026-01-22 10:41:27.16	185.04	53.42	-28.2	-28.3	16.3	0.00e+00	0	44	0	529530880	17	3650
2026-01-22 10:41:28.17	185.31	53.76	-28.1	-28.2	16.5	0.00e+00	0	44	0	531628032	17	3618
2026-01-22 10:41:29.17	185.59	54.10	-27.7	-27.5	17.1	0.00e+00	0	44	0	533725184	16	3551
2026-01-22 10:41:30.17	185.88	54.44	-27.4	-27.1	17.6	0.00e+00	0	44	0	535822336	16	3447
2026-01-22 10:41:31.17	186.17	54.78	-27.3	-26.7	17.6	0.00e+00	0	44	0	537919488	16	3359
2026-01-22 10:41:32.17	186.47	55.13	-27.0	-26.6	17.7	0.00e+00	0	44	0	538968064	15	3436
2026-01-22 10:41:33.16	186.77	55.47	-27.1	-26.7	17.7	0.00e+00	0	44	0	541065216	15	3460
2026-01-22 10:41:34.16	187.09	55.82	-27.0	-26.5	17.6	0.00e+00	0	44	0	543162368	15	3424
2026-01-22 10:41:35.16	187.41	56.17	-27.0	-26.6	17.8	0.00e+00	0	44	0	545259520	15	3447
2026-01-22 10:41:36.16	187.74	56.52	-26.9	-26.3	17.8	0.00e+00	0	44	0	546308096	15	3374
2026-01-22 10:41:37.16	188.08	56.87	-27.1	-26.8	17.7	0.00e+00	0	44	0	548405248	15	3474
2026-01-22 10:41:38.16	188.43	57.22	-27.0	-26.7	17.8	0.00e+00	0	44	0	550502400	15	3454
2026-01-22 10:41:39.16	188.79	57.57	-27.2	-27.0	17.6	0.00e+00	0	44	0	552599552	15	3529
2026-01-22 10:41:40.17	189.16	57.93	-27.1	-26.8	17.7	0.00e+00	0	44	0	554696704	15	3469
2026-01-22 10:41:41.17	189.53	58.29	-27.0	-26.6	17.8	0.00e+00	0	44	0	555745280	15	3446
2026-01-22 10:41:42.17	189.92	58.65	-27.2	-27.1	17.5	0.00e+00	0	44	0	557842432	15	3544
2026-01-22 10:41:43.18	190.32	59.01	-28.0	-28.8	16.6	0.00e+00	0	44	0	559939584	15	3964
2026-01-22 10:41:44.19	190.73	59.37	-28.6	-29.3	16.0	0.00e+00	0	44	0	562036736	17	3887
2026-01-22 10:41:45.19	191.15	59.73	-29.1	-29.9	15.3	0.00e+00	0	44	0	564133888	18	3959
2026-01-22 10:41:46.19	191.58	60.09	-28.4	-28.3	16.2	0.00e+00	0	44	0	565182464	18	3555
2026-01-22 10:41:47.19	192.02	60.45	-27.9	-27.6	16.9	0.00e+00	0	44	0	567279616	17	3486
2026-01-22 10:41:48.20	192.48	60.81	-27.7	-27.6	17.2	0.00e+00	0	44	0	569376768	16	3569
2026-01-22 10:41:49.20	192.95	61.18	-28.0	-28.4	16.8	0.00e+00	0	44	0	571473920	16	3750
2026-01-22 10:41:50.20	193.43	61.54	-27.9	-28.1	17.0	0.00e+00	0	44	0	573571072	16	3672
2026-01-22 10:41:51.20	193.92	61.90	-28.0	-28.2	16.9	0.00e+00	0	44	0	574619648	16	3703
2026-01-22 10:41:52.20	194.44	62.26	-27.6	-27.3	17.3	0.00e+00	0	44	0	576716800	16	3501
2026-01-22 10:41:53.20	194.96	62.62	-27.8	-27.9	17.1	0.00e+00	0	44	0	578813952	16	3621
2026-01-22 10:41:54.21	195.51	62.99	-27.5	-27.2	17.4	0.00e+00	0	44	0	580911104	16	3478
2026-01-22 10:41:55.21	196.07	63.35	-27.8	-27.8	17.1	0.00e+00	0	44	0	583008256	16	3610
2026-01-22 10:41:56.22	196.65	63.71	-28.3	-29.1	16.5	0.00e+00	0	44	0	584056832	16	3925
2026-01-22 10:41:57.22	197.24	64.08	-28.4	-28.7	16.4	0.00e+00	0	44	0	586153984	17	3724
2026-01-22 10:41:58.22	197.86	64.44	-27.5	-27.0	17.5	3.00e-06	0	44	0	588251136	16	3429
2026-01-22 10:41:59.23	198.49	64.80	-26.7	-26.3	18.3	0.00e+00	0	44	0	590348288	14	3448
2026-01-22 10:42:00.23	199.15	65.16	-26.9	-26.8	18.2	0.00e+00	0	44	0	591396864	14	3551
2026-01-22 10:42:01.23	199.82	65.51	-28.0	-28.7	16.8	0.00e+00	0	44	0	593494016	15	3936
2026-01-22 10:42:02.23	200.51	65.87	-28.3	-29.1	16.6	0.00e+00	0	44	0	595591168	16	3910
2026-01-22 10:42:03.23	201.23	66.22	-28.5	-28.9	16.2	0.00e+00	0	44	0	597688320	17	3785
2026-01-22 10:42:04.23	201.97	66.57	-28.8	-29.2	15.9	0.00e+00	0	44	0	599785472	18	3758
2026-01-22 10:42:05.24	202.75	66.92	-28.7	-28.9	16.1	0.00e+00	0	44	0	600834048	18	3676
2026-01-22 10:42:06.24	203.54	67.27	-28.4	-28.2	16.5	0.00e+00	0	44	0	602931200	18	3504
2026-01-22 10:42:07.24	204.36	67.61	-29.2	-30.0	15.5	0.00e+00	0	44	0	605028352	18	3966
2026-01-22 10:42:08.24	205.20	67.95	-30.3	-31.9	13.6	3.80e-06	0	44	0	607125504	20	4335
2026-01-22 10:42:09.24	206.08	68.29	-30.8	-32.8	12.7	6.02e-05	0	44	0	609222656	21	4541
2026-01-22 10:42:10.24	206.98	68.63	-30.4	-31.8	13.4	3.96e-05	0	44	0	610271232	21	4217
2026-01-22 10:42:11.24	207.92	68.96	-29.7	-30.4	14.5	4.50e-06	0	44	0	612368384	20	3902
2026-01-22 10:42:12.25	208.89	69.29	-30.0	-31.2	14.0	7.00e-07	0	44	0	614465536	20	4136
2026-01-22 10:42:13.25	209.90	69.61	-30.1	-31.3	14.0	3.80e-06	0	44	0	616562688	20	4170
2026-01-22 10:42:14.25	210.93	69.93	-29.5	-29.9	14.8	2.20e-06	0	44	0	618659840	20	3776
2026-01-22 10:42:15.26	212.01	70.24	-29.9	-31.0	14.3	0.00e+00	0	44	0	619708416	20	4075
2026-01-22 10:42:16.26	213.12	70.55	-30.8	-32.7	12.8	9.90e-06	0	44	0	621805568	21	4494
2026-01-22 10:42:17.27	214.27	70.85	-31.3	-33.6	11.8	1.64e-04	0	44	0	623902720	22	4722
2026-01-22 10:42:18.27	215.45	71.14	-31.4	-33.4	11.4	1.06e-03	0	44	0	625999872	23	4578
2026-01-22 10:42:19.27	216.67	71.43	-31.3	-33.3	11.8	3.99e-04	0	44	0	628097024	23	4518
2026-01-22 10:42:20.28	217.95	71.71	-31.0	-32.8	12.3	1.92e-04	0	44	0	629145600	22	4434
2026-01-22 10:42:21.28	219.25	71.98	-30.4	-31.2	13.5	2.44e-05	0	44	0	631242752	22	3948
2026-01-22 10:42:22.29	220.60	72.25	-30.2	-31.1	13.9	7.60e-06	0	44	0	633339904	21	3999
2026-01-22 10:42:23.29	221.99	72.50	-30.7	-32.4	13.0	4.50e-06	0	44	0	635437056	21	4383
2026-01-22 10:42:24.29	223.41	72.74	-30.7	-32.5	12.9	3.50e-05	0	44	0	637534208	21	4434
2026-01-22 10:42:25.29	224.88	72.98	-30.5	-31.8	13.5	1.75e-05	0	44	0	638582784	21	4220
2026-01-22 10:42:26.29	226.39	73.20	-30.5	-32.0	13.3	3.05e-05	0	44	0	640679936	21	4258
2026-01-22 10:42:27.30	227.96	73.42	-29.9	-30.3	14.3	8.30e-06	0	44	0	642777088	21	3792
2026-01-22 10:42:28.30	229.56	73.62	-29.9	-30.9	14.2	1.50e-06	0	44	0	644874240	20	4047
2026-01-22 10:42:29.30	231.19	73.81	-30.0	-31.1	14.2	2.20e-06	0	44	0	646971392	20	4081
2026-01-22 10:42:30.30	232.86	73.99	-30.2	-31.7	13.8	2.20e-06	0	44	0	648019968	20	4272
2026-01-22 10:42:31.31	234.59	74.15	-30.5	-32.1	13.2	9.90e-06	0	44	0	650117120	21	4296
2026-01-22 10:42:32.31	236.34	74.30	-30.5	-32.0	13.2	5.64e-05	0	44	0	652214272	21	4274
2026-01-22 10:42:33.31	238.12	74.44	-29.4	-29.6	15.0	3.00e-06	0	44	0	654311424	20	3681
2026-01-22 10:42:34.32	239.94	74.56	-29.1	-29.4	15.6	7.00e-07	0	44	0	655360000	19	3721
2026-01-22 10:42:35.32	241.78	74.67	-30.0	-31.5	14.3	7.00e-07	0	44	0	657457152	19	4287
2026-01-22 10:42:36.32	243.65	74.76	-30.8	-32.7	12.9	1.75e-05	0	44	0	659554304	21	4480
2026-01-22 10:42:37.33	245.55	74.83	-30.9	-32.7	12.5	1.29e-04	0	44	0	661651456	22	4397
2026-01-22 10:42:38.32	247.43	74.89	-30.3	-30.9	13.6	9.10e-06	0	44	0	663748608	22	3855
2026-01-22 10:42:39.33	249.37	74.94	-30.1	-30.9	14.0	3.00e-06	0	44	0	664797184	21	3946
2026-01-22 10:42:40.33	251.29	74.96	-30.0	-30.6	14.2	1.50e-06	0	44	0	666894336	21	3868
2026-01-22 10:42:41.33	253.22	74.98	-29.9	-30.9	14.3	7.00e-07	0	44	0	668991488	20	4046
2026-01-22 10:42:42.33	255.15	74.97	-29.5	-29.8	15.0	0.00e+00	0	44	0	671088640	20	3743
2026-01-22 10:42:43.33	257.08	74.95	-29.7	-30.9	14.6	0.00e+00	0	44	0	673185792	19	4126
2026-01-22 10:42:44.33	259.00	74.91	-30.2	-31.8	13.7	0.00e+00	0	44	0	674234368	20	4304
2026-01-22 10:42:45.33	260.91	74.86	-30.5	-32.0	13.3	2.89e-05	0	44	0	676331520	21	4260
2026-01-22 10:42:46.32	262.78	74.79	-30.2	-31.0	13.9	4.50e-06	0	44	0	678428672	21	3980
2026-01-22 10:42:47.33	264.67	74.70	-29.1	-29.4	15.6	7.00e-07	0	44	0	680525824	19	3712
2026-01-22 10:42:48.34	266.53	74.60	-28.7	-28.9	16.1	0.00e+00	0	44	0	682622976	18	3685
2026-01-22 10:42:49.33	268.34	74.48	-29.6	-30.6	14.9	0.00e+00	0	44	0	683671552	19	4034
2026-01-22 10:42:50.34	270.15	74.35	-30.4	-32.2	13.5	5.30e-06	0	44	0	685768704	20	4416
2026-01-22 10:42:51.34	271.90	74.21	-30.1	-31.4	13.9	8.30e-06	0	44	0	687865856	20	4167
2026-01-22 10:42:52.34	273.63	74.05	-30.4	-32.3	13.4	6.10e-06	0	44	0	689963008	20	4464
2026-01-22 10:42:53.35	275.33	73.88	-31.3	-33.6	11.9	2.89e-04	0	44	0	692060160	22	4738
2026-01-22 10:42:54.35	276.98	73.69	-31.2	-33.6	11.8	2.27e-04	0	44	0	693108736	22	4709
2026-01-22 10:42:55.35	278.58	73.50	-31.8	-34.9	10.5	1.96e-03	0	44	0	695205888	23	5135
2026-01-22 10:42:56.36	280.17	73.28	-32.2	-35.7	9.6	1.13e-02	0	44	0	697303040	24	5407
2026-01-22 10:42:57.36	281.69	73.07	-31.4	-33.0	11.5	5.54e-03	0	44	0	699400192	24	4343
2026-01-22 10:42:58.36	283.18	72.83	-30.8	-32.2	12.8	2.69e-04	0	44	0	700448768	22	4233
2026-01-22 10:42:59.36	284.62	72.59	-30.5	-31.5	13.2	2.13e-05	0	44	0	702545920	22	4034
2026-01-22 10:43:00.36	286.02	72.34	-30.3	-31.3	13.7	3.58e-05	0	44	0	704643072	21	4054
2026-01-22 10:43:01.37	287.39	72.08	-30.2	-31.3	13.7	1.50e-06	0	44	0	706740224	21	4053
2026-01-22 10:43:02.36	288.69	71.82	-31.2	-33.5	11.9	2.28e-04	0	44	0	708837376	22	4698
2026-01-22 10:43:03.37	289.98	71.54	-32.1	-35.5	9.6	7.88e-03	0	44	0	709885952	24	5303
2026-01-22 10:43:04.38	291.22	71.25	-32.3	-36.1	9.1	2.16e-02	0	44	0	711983104	24	5623
2026-01-22 10:43:05.38	292.42	70.96	-31.9	-34.7	10.3	7.04e-03	0	44	0	714080256	24	4963
2026-01-22 10:43:06.38	293.58	70.67	-31.9	-34.6	10.4	7.55e-03	0	44	0	716177408	24	4919
2026-01-22 10:43:07.39	294.71	70.36	-31.6	-33.9	10.9	2.58e-03	0	44	0	718274560	24	4661
2026-01-22 10:43:08.39	295.79	70.05	-31.7	-34.3	10.6	1.79e-03	0	44	0	719323136	24	4809
2026-01-22 10:43:09.39	296.83	69.74	-31.7	-34.2	10.6	5.33e-03	0	44	0	721420288	24	4786
2026-01-22 10:43:10.40	297.86	69.42	-31.6	-33.8	11.0	1.52e-03	0	44	0	723517440	24	4617
2026-01-22 10:43:11.40	298.83	69.09	-31.9	-34.8	10.0	3.25e-03	0	44	0	725614592	24	5010
2026-01-22 10:43:12.40	299.78	68.76	-32.2	-35.9	9.3	1.49e-02	0	44	0	727711744	24	5527
2026-01-22 10:43:13.40	300.70	68.43	-32.9	-38.2	7.1	8.41e-02	0	44	0	728760320	25	6674
2026-01-22 10:43:14.40	301.58	68.10	-32.3	-35.7	8.9	8.38e-02	0	44	0	730857472	25	5333
2026-01-22 10:43:15.41	302.45	67.75	-31.9	-34.2	10.3	1.13e-02	0	44	0	732954624	25	4705
2026-01-22 10:43:16.41	303.27	67.41	-32.0	-35.3	9.7	7.41e-03	0	44	0	735051776	24	5220
2026-01-22 10:43:17.41	304.07	67.07	-32.7	-37.4	7.7	2.84e-02	0	44	0	737148928	25	6202
2026-01-22 10:43:18.42	304.86	66.72	-32.8	-38.0	7.3	1.28e-01	0	44	0	738197504	25	6539
2026-01-22 10:43:19.42	305.61	66.37	-31.8	-33.9	10.5	1.53e-02	0	44	0	740294656	25	4591
2026-01-22 10:43:20.43	306.34	66.01	-30.4	-31.2	13.3	7.93e-05	0	44	0	742391808	22	3953
2026-01-22 10:43:21.43	307.04	65.66	-29.6	-30.1	14.7	5.30e-06	0	44	0	744488960	20	3819
2026-01-22 10:43:22.43	307.72	65.30	-29.9	-31.0	14.1	1.50e-06	0	44	0	746586112	20	4074
2026-01-22 10:43:23.43	308.38	64.95	-30.8	-32.9	12.6	2.36e-05	0	44	0	747634688	21	4592
2026-01-22 10:43:24.44	309.03	64.59	-31.1	-33.3	12.0	2.64e-04	0	44	0	749731840	22	4621
2026-01-22 10:43:25.44	309.65	64.23	-30.2	-31.2	13.6	9.38e-05	0	44	0	751828992	21	4036
2026-01-22 10:43:26.45	310.25	63.86	-30.0	-30.6	13.9	4.50e-06	0	44	0	753926144	21	3879
2026-01-22 10:43:27.45	310.84	63.50	-30.3	-31.5	13.3	3.28e-05	0	44	0	754974720	21	4127
2026-01-22 10:43:28.45	311.40	63.14	-29.7	-30.3	14.5	5.30e-06	0	44	0	757071872	20	3888
2026-01-22 10:43:29.46	311.95	62.78	-28.8	-28.6	15.8	0.00e+00	0	44	0	759169024	19	3532
2026-01-22 10:43:30.46	312.48	62.42	-28.3	-28.6	16.4	0.00e+00	0	44	0	761266176	17	3700
2026-01-22 10:43:31.46	313.00	62.06	-28.8	-29.6	15.8	0.00e+00	0	44	0	763363328	17	3975
2026-01-22 10:43:32.46	313.50	61.70	-29.4	-30.7	14.8	0.00e+00	0	44	0	764411904	18	4172
2026-01-22 10:43:33.47	313.99	61.33	-29.8	-31.1	14.3	0.00e+00	0	44	0	766509056	19	4197
2026-01-22 10:43:34.48	314.47	60.97	-29.8	-30.6	14.2	2.20e-06	0	44	0	768606208	20	3978
2026-01-22 10:43:35.47	314.92	60.61	-28.8	-28.7	15.7	0.00e+00	0	44	0	770703360	19	3544
2026-01-22 10:43:36.48	315.38	60.25	-28.1	-28.1	16.6	0.00e+00	0	44	0	772800512	17	3596
2026-01-22 10:43:37.48	315.81	59.89	-28.5	-28.9	16.2	0.00e+00	0	44	0	773849088	17	3790
2026-01-22 10:43:38.48	316.23	59.53	-28.8	-29.7	15.7	0.00e+00	0	44	0	775946240	17	4001
2026-01-22 10:43:39.48	316.64	59.17	-29.5	-30.6	14.6	0.00e+00	0	44	0	778043392	19	4050
2026-01-22 10:43:40.48	317.04	58.82	-30.1	-31.7	13.5	0.00e+00	0	44	0	780140544	20	4302
2026-01-22 10:43:41.49	317.44	58.46	-29.8	-30.7	14.1	2.28e-05	0	44	0	782237696	20	3993
2026-01-22 10:43:42.48	317.81	58.11	-28.1	-28.1	16.5	0.00e+00	0	44	0	783286272	17	3588
2026-01-22 10:43:43.49	318.19	57.75	-26.9	-26.4	17.9	0.00e+00	0	44	0	785383424	15	3379
2026-01-22 10:43:44.49	318.55	57.39	-27.2	-26.9	17.6	0.00e+00	0	44	0	787480576	15	3502
2026-01-22 10:43:45.50	318.90	57.04	-28.4	-29.3	16.2	0.00e+00	0	44	0	789577728	16	3993
2026-01-22 10:43:46.49	319.24	56.69	-29.1	-29.9	15.2	0.00e+00	0	44	0	791674880	18	3966
2026-01-22 10:43:47.50	319.58	56.34	-28.8	-29.2	15.7	0.00e+00	0	44	0	792723456	18	3766
2026-01-22 10:43:48.50	319.90	55.99	-28.2	-28.3	16.4	0.00e+00	0	44	0	794820608	17	3648
2026-01-22 10:43:49.50	320.22	55.65	-28.3	-28.5	16.3	0.00e+00	0	44	0	796917760	17	3691
2026-01-22 10:43:50.50	320.53	55.30	-28.0	-27.8	16.7	0.00e+00	0	44	0	799014912	17	3523
2026-01-22 10:43:51.50	320.83	54.96	-28.1	-28.0	16.6	0.00e+00	0	44	0	800063488	17	3565
2026-01-22 10:43:52.51	321.13	54.61	-28.6	-29.3	15.9	0.00e+00	0	44	0	802160640	17	3907
2026-01-22 10:43:53.52	321.42	54.27	-29.7	-30.9	14.4	0.00e+00	0	44	0	804257792	19	4137
2026-01-22 10:43:54.52	321.70	53.93	-30.1	-31.6	13.4	2.20e-06	0	44	0	806354944	20	4286
2026-01-22 10:43:55.53	321.98	53.59	-29.7	-30.6	14.1	9.90e-06	0	44	0	808452096	20	3978
2026-01-22 10:43:56.54	322.25	53.25	-28.5	-28.5	15.9	0.00e+00	0	44	0	810549248	18	3599
2026-01-22 10:43:57.54	322.51	52.91	-27.8	-27.4	16.9	0.00e+00	0	44	0	811597824	17	3417
2026-01-22 10:43:58.54	322.77	52.58	-28.4	-28.7	16.2	0.00e+00	0	44	0	813694976	17	3733
2026-01-22 10:43:59.55	323.02	52.25	-29.1	-29.9	15.3	0.00e+00	0	44	0	815792128	18	3949
2026-01-22 10:44:00.55	323.27	51.92	-29.1	-30.1	15.1	0.00e+00	0	44	0	817889280	18	4008
2026-01-22 10:44:01.55	323.51	51.59	-28.6	-28.8	15.8	0.00e+00	0	44	0	818937856	18	3668
2026-01-22 10:44:02.55	323.75	51.26	-28.9	-29.5	15.4	0.00e+00	0	44	0	821035008	18	3864
2026-01-22 10:44:03.55	323.98	50.94	-29.2	-30.3	15.0	0.00e+00	0	44	0	823132160	18	4075
2026-01-22 10:44:04.55	324.20	50.62	-29.3	-30.4	14.9	0.00e+00	0	44	0	825229312	18	4096
2026-01-22 10:44:05.56	324.42	50.29	-29.0	-29.7	15.3	0.00e+00	0	44	0	827326464	18	3891
2026-01-22 10:44:06.56	324.64	49.98	-29.4	-30.7	14.8	0.00e+00	0	44	0	828375040	18	4179
2026-01-22 10:44:07.56	324.85	49.66	-30.2	-31.9	13.4	5.30e-06	0	44	0	830472192	20	4371
2026-01-22 10:44:08.56	325.06	49.35	-31.1	-33.4	11.3	1.84e-04	0	44	0	832569344	22	4723
2026-01-22 10:44:09.57	325.27	49.03	-31.5	-34.4	10.4	1.73e-03	0	44	0	834666496	23	5010
2026-01-22 10:44:10.57	325.47	48.72	-31.0	-32.6	11.8	9.73e-04	0	44	0	836763648	23	4345
2026-01-22 10:44:11.58	325.66	48.41	-30.1	-31.1	13.5	4.80e-05	0	44	0	837812224	21	4047
2026-01-22 10:44:12.58	325.86	48.10	-29.9	-30.6	13.8	6.10e-06	0	44	0	839909376	21	3895
2026-01-22 10:44:13.58	326.04	47.79	-30.5	-32.3	12.7	3.43e-05	0	44	0	842006528	21	4404
2026-01-22 10:44:14.58	326.23	47.49	-31.8	-35.2	9.9	1.73e-03	0	44	0	844103680	23	5326
2026-01-22 10:44:15.59	326.41	47.18	-32.4	-37.3	7.9	2.30e-02	0	44	0	846200832	24	6333
2026-01-22 10:44:16.59	326.59	46.88	-32.5	-37.2	7.4	8.62e-02	0	44	0	847249408	25	6189
2026-01-22 10:44:17.59	326.76	46.59	-32.4	-36.6	7.9	8.56e-02	0	44	0	849346560	25	5873
2026-01-22 10:44:18.59	326.93	46.29	-31.9	-34.7	9.4	3.42e-02	0	44	0	851443712	25	4973
2026-01-22 10:44:19.59	327.10	46.00	-31.2	-33.2	11.2	7.09e-03	0	44	0	853540864	23	4563
2026-01-22 10:44:20.60	327.27	45.70	-30.4	-31.4	12.9	2.05e-04	0	44	0	855638016	22	4036
2026-01-22 10:44:21.60	327.43	45.41	-29.9	-30.6	13.7	1.06e-05	0	44	0	856686592	21	3900
2026-01-22 10:44:22.60	327.59	45.12	-30.4	-32.1	12.8	9.10e-06	0	44	0	858783744	21	4338
2026-01-22 10:44:23.60	327.75	44.83	-30.9	-33.3	11.9	2.25e-04	0	44	0	860880896	21	4775
2026-01-22 10:44:24.60	327.90	44.55	-31.2	-33.8	11.2	1.18e-03	0	44	0	862978048	22	4846
2026-01-22 10:44:25.60	328.05	44.27	-31.6	-34.5	10.4	1.68e-03	0	44	0	864026624	23	5056
2026-01-22 10:44:26.60	328.20	43.98	-31.9	-35.8	9.4	1.06e-02	0	44	0	866123776	23	5609
2026-01-22 10:44:27.61	328.35	43.70	-31.8	-35.4	9.6	1.23e-02	0	44	0	868220928	23	5442
2026-01-22 10:44:28.61	328.49	43.42	-31.8	-35.2	9.8	7.13e-03	0	44	0	870318080	23	5373
2026-01-22 10:44:29.61	328.63	43.15	-31.5	-34.2	10.6	1.10e-02	0	44	0	872415232	23	4932
2026-01-22 10:44:30.62	328.77	42.87	-31.0	-32.8	11.6	9.22e-04	0	44	0	873463808	23	4414
2026-01-22 10:44:31.62	328.91	42.60	-30.7	-32.2	12.3	3.44e-04	0	44	0	875560960	22	4308
2026-01-22 10:44:32.62	329.04	42.33	-30.3	-31.2	12.9	7.09e-05	0	44	0	877658112	22	3994
2026-01-22 10:44:33.62	329.17	42.06	-30.3	-31.6	13.0	5.03e-05	0	44	0	879755264	21	4203
2026-01-22 10:44:34.62	329.30	41.79	-30.1	-31.2	13.4	1.90e-05	0	44	0	881852416	21	4056
2026-01-22 10:44:35.63	329.43	41.53	-29.9	-30.6	13.7	5.30e-06	0	44	0	882900992	21	3906
2026-01-22 10:44:36.62	329.56	41.27	-30.5	-32.1	12.7	3.73e-05	0	44	0	884998144	21	4359
2026-01-22 10:44:37.62	329.68	41.01	-31.1	-33.5	11.4	5.02e-04	0	44	0	887095296	22	4766
2026-01-22 10:44:38.62	329.80	40.75	-31.2	-33.9	11.2	2.54e-03	0	44	0	889192448	22	4915
2026-01-22 10:44:39.62	329.92	40.49	-30.8	-32.7	11.9	1.06e-03	0	44	0	890241024	22	4458
2026-01-22 10:44:40.62	330.04	40.23	-30.4	-31.5	12.8	3.49e-04	0	44	0	892338176	22	4072
2026-01-22 10:44:41.62	330.16	39.98	-29.6	-30.3	14.1	3.80e-06	0	44	0	894435328	20	3918
2026-01-22 10:44:42.62	330.27	39.72	-29.2	-29.9	14.8	2.20e-06	0	44	0	896532480	19	3871
2026-01-22 10:44:43.63	330.39	39.47	-29.0	-29.4	15.0	7.00e-07	0	44	0	898629632	19	3739
2026-01-22 10:44:44.63	330.50	39.22	-29.3	-30.1	14.7	7.00e-07	0	44	0	900726784	19	3935
2026-01-22 10:44:45.63	330.61	38.97	-29.7	-31.2	13.9	1.50e-06	0	44	0	901775360	19	4252
2026-01-22 10:44:46.64	330.72	38.73	-30.4	-32.6	12.7	1.29e-05	0	44	0	903872512	20	4615
2026-01-22 10:44:47.64	330.82	38.48	-30.8	-33.2	11.9	5.39e-04	0	44	0	905969664	21	4748
2026-01-22 10:44:48.64	330.93	38.24	-31.4	-34.5	10.7	1.31e-03	0	44	0	908066816	22	5142
2026-01-22 10:44:49.64	331.03	38.00	-31.6	-34.6	10.1	6.05e-03	0	44	0	909115392	23	5121
2026-01-22 10:44:50.64	331.13	37.76	-31.1	-33.1	11.2	2.67e-03	0	44	0	911212544	23	4546
2026-01-22 10:44:51.64	331.24	37.52	-31.0	-33.0	11.4	8.86e-04	0	44	0	913309696	23	4484
2026-01-22 10:44:52.64	331.33	37.28	-30.6	-32.2	12.1	8.15e-04	0	44	0	915406848	22	4324
2026-01-22 10:44:53.63	331.43	37.05	-30.0	-30.8	13.4	1.13e-04	0	44	0	917504000	21	3975
2026-01-22 10:44:54.64	331.53	36.82	-29.9	-30.8	13.5	1.06e-05	0	44	0	918552576	21	3960
2026-01-22 10:44:55.64	331.62	36.59	-29.8	-31.0	13.6	5.30e-06	0	44	0	920649728	20	4123
2026-01-22 10:44:56.65	331.72	36.35	-29.9	-31.1	13.6	3.80e-06	0	44	0	922746880	20	4143
2026-01-22 10:44:57.64	331.81	36.13	-30.1	-31.7	13.2	1.37e-05	0	44	0	924844032	20	4347
2026-01-22 10:44:58.65	331.90	35.90	-30.3	-32.3	12.8	5.41e-05	0	44	0	926941184	20	4511
2026-01-22 10:44:59.65	331.99	35.67	-30.2	-32.1	12.9	5.64e-05	0	44	0	927989760	20	4455
2026-01-22 10:45:00.66	332.08	35.45	-30.5	-32.7	12.5	3.58e-05	0	44	0	930086912	20	4663
2026-01-22 10:45:01.66	332.17	35.22	-30.7	-33.0	11.9	2.84e-04	0	44	0	932184064	21	4673
2026-01-22 10:45:02.67	332.26	35.00	-30.9	-33.4	11.7	2.06e-04	0	44	0	934281216	21	4809
2026-01-22 10:45:03.68	332.35	34.78	-31.1	-33.7	11.1	1.29e-03	0	44	0	935329792	22	4842
2026-01-22 10:45:04.68	332.43	34.56	-31.4	-34.6	10.5	4.46e-03	0	44	0	937426944	22	5207
2026-01-22 10:45:05.68	332.51	34.35	-31.9	-36.0	9.0	1.30e-02	0	44	0	939524096	23	5774
2026-01-22 10:45:06.68	332.60	34.13	-32.1	-36.1	8.6	3.70e-02	0	44	0	941621248	24	5704
2026-01-22 10:45:07.68	332.68	33.92	-32.2	-36.8	8.0	5.18e-02	0	44	0	943718400	24	6103
2026-01-22 10:45:08.68	332.76	33.71	-32.2	-36.8	8.0	7.37e-02	0	44	0	945815552	24	6080
2026-01-22 10:45:09.68	332.84	33.50	-31.7	-34.8	9.5	2.43e-02	0	44	0	946864128	24	5120
2026-01-22 10:45:10.69	332.92	33.28	-31.7	-34.8	9.5	1.44e-02	0	44	0	948961280	24	5110
2026-01-22 10:45:11.69	332.99	33.08	-31.3	-33.4	10.6	6.71e-03	0	44	0	951058432	24	4580
2026-01-22 10:45:12.70	333.07	32.87	-30.9	-32.5	11.5	1.09e-03	0	44	0	953155584	23	4338
2026-01-22 10:45:13.70	333.15	32.66	-30.7	-32.3	12.0	4.85e-04	0	44	0	954204160	22	4363
2026-01-22 10:45:14.71	333.22	32.46	-30.2	-31.6	12.8	1.42e-04	0	44	0	956301312	21	4212
2026-01-22 10:45:15.71	333.30	32.26	-30.1	-31.2	13.1	4.11e-05	0	44	0	958398464	21	4105
2026-01-22 10:45:16.72	333.37	32.05	-29.9	-30.8	13.3	1.83e-05	0	44	0	960495616	21	3977
2026-01-22 10:45:17.73	333.44	31.85	-30.2	-31.4	13.0	3.28e-05	0	44	0	962592768	21	4173
2026-01-22 10:45:18.73	333.52	31.65	-30.0	-31.1	13.2	2.59e-05	0	44	0	963641344	21	4048
2026-01-22 10:45:19.73	333.59	31.46	-30.5	-32.3	12.4	2.21e-05	0	44	0	965738496	21	4435
2026-01-22 10:45:20.74	333.66	31.26	-30.3	-31.9	12.5	1.17e-04	0	44	0	967835648	21	4309
2026-01-22 10:45:21.75	333.73	31.06	-30.4	-32.1	12.5	1.35e-04	0	44	0	969932800	21	4391
2026-01-22 10:45:22.75	333.79	30.87	-30.6	-32.8	12.0	3.36e-04	0	44	0	972029952	21	4618
2026-01-22 10:45:23.75	333.86	30.68	-30.4	-32.1	12.5	2.64e-04	0	44	0	973078528	21	4366
2026-01-22 10:45:24.75	333.93	30.48	-30.3	-31.8	12.7	9.76e-05	0	44	0	975175680	21	4277
2026-01-22 10:45:25.75	333.99	30.30	-30.4	-32.2	12.4	1.35e-04	0	44	0	977272832	21	4402
2026-01-22 10:45:26.75	334.06	30.11	-30.4	-32.0	12.5	1.17e-04	0	44	0	979369984	21	4342
2026-01-22 10:45:27.76	334.12	29.92	-29.9	-30.8	13.3	4.04e-05	0	44	0	981467136	21	3990
2026-01-22 10:45:28.76	334.19	29.73	-30.3	-31.8	12.7	6.02e-05	0	44	0	982515712	21	4280
2026-01-22 10:45:29.76	334.25	29.55	-30.3	-31.7	12.7	1.03e-04	0	44	0	984612864	21	4278
2026-01-22 10:45:30.76	334.31	29.36	-30.3	-31.9	12.6	7.24e-05	0	44	0	986710016	21	4317
2026-01-22 10:45:31.76	334.38	29.18	-30.4	-32.2	12.3	1.43e-04	0	44	0	988807168	21	4422
2026-01-22 10:45:32.76	334.44	29.00	-30.5	-32.3	12.3	1.68e-04	0	44	0	990904320	21	4471
2026-01-22 10:45:33.76	334.50	28.82	-30.2	-31.6	12.7	1.13e-04	0	44	0	991952896	21	4223
2026-01-22 10:45:34.77	334.56	28.64	-30.3	-31.9	12.6	1.58e-04	0	44	0	994050048	21	4322
2026-01-22 10:45:35.77	334.62	28.46	-29.9	-30.8	13.2	5.03e-05	0	44	0	996147200	21	3992
2026-01-22 10:45:36.77	334.68	28.28	-30.2	-31.5	12.8	2.21e-05	0	44	0	998244352	21	4191
2026-01-22 10:45:37.77	334.73	28.11	-30.0	-31.0	13.1	4.04e-05	0	44	0	999292928	21	4036
2026-01-22 10:45:38.77	334.79	27.93	-29.6	-30.5	13.8	8.30e-06	0	44	0	1001390080	20	3989
2026-01-22 10:45:39.78	334.85	27.76	-29.4	-29.9	14.1	3.80e-06	0	44	0	1003487232	20	3823
2026-01-22 10:45:40.78	334.91	27.59	-29.4	-30.0	14.2	7.00e-07	0	44	0	1005584384	20	3832
2026-01-22 10:45:41.78	334.96	27.41	-29.2	-29.8	14.6	0.00e+00	0	44	0	1007681536	19	3876
2026-01-22 10:45:42.78	335.02	27.24	-28.9	-29.0	15.1	0.00e+00	0	44	0	1009778688	19	3656
2026-01-22 10:45:43.79	335.07	27.07	-29.0	-29.5	14.8	0.00e+00	0	44	0	1010827264	19	3774
2026-01-22 10:45:44.79	335.13	26.91	-28.6	-28.9	15.4	0.00e+00	0	44	0	1012924416	18	3726
2026-01-22 10:45:45.79	335.18	26.74	-28.6	-28.7	15.5	0.00e+00	0	44	0	1015021568	18	3682
2026-01-22 10:45:46.79	335.23	26.57	-28.7	-29.2	15.3	0.00e+00	0	44	0	1017118720	18	3806
2026-01-22 10:45:47.79	335.28	26.41	-28.9	-29.5	15.1	0.00e+00	0	44	0	1018167296	18	3876
2026-01-22 10:45:48.79	335.34	26.24	-29.1	-30.1	14.7	0.00e+00	0	44	0	1020264448	18	4036
2026-01-22 10:45:49.80	335.39	26.08	-29.4	-30.9	14.2	7.00e-07	0	44	0	1022361600	18	4282
2026-01-22 10:45:50.80	335.44	25.92	-29.7	-31.3	13.7	0.00e+00	0	44	0	1024458752	19	4312
2026-01-22 10:45:51.81	335.49	25.75	-30.1	-31.7	12.9	1.06e-05	0	44	0	1026555904	20	4373
2026-01-22 10:45:52.81	335.54	25.59	-30.2	-32.0	12.7	4.11e-05	0	44	0	1027604480	20	4467
2026-01-22 10:45:53.82	335.59	25.43	-30.2	-32.0	12.8	6.56e-05	0	44	0	1029701632	20	4466
2026-01-22 10:45:54.82	335.64	25.27	-30.3	-32.6	12.4	9.15e-05	0	44	0	1031798784	20	4652
2026-01-22 10:45:55.83	335.69	25.11	-30.2	-32.3	12.6	9.84e-05	0	44	0	1033895936	20	4554
2026-01-22 10:45:56.83	335.74	24.96	-30.0	-31.6	12.9	6.02e-05	0	44	0	1035993088	20	4326
2026-01-22 10:45:57.83	335.79	24.80	-29.7	-30.8	13.5	2.59e-05	0	44	0	1037041664	20	4084
2026-01-22 10:45:58.84	335.83	24.64	-29.8	-31.1	13.3	1.14e-05	0	44	0	1039138816	20	4160
2026-01-22 10:45:59.84	335.88	24.49	-29.2	-29.9	14.5	4.50e-06	0	44	0	1041235968	19	3892
2026-01-22 10:46:00.83	335.93	24.34	-28.8	-28.9	15.1	0.00e+00	0	44	0	1043333120	19	3648
2026-01-22 10:46:01.83	335.97	24.19	-28.7	-29.2	15.2	0.00e+00	0	44	0	1045430272	18	3806
2026-01-22 10:46:02.83	336.02	24.04	-28.5	-28.7	15.5	0.00e+00	0	44	0	1046478848	18	3669
2026-01-22 10:46:03.84	336.07	23.88	-28.3	-28.3	15.7	0.00e+00	0	44	0	1048576000	18	3568
2026-01-22 10:46:04.85	336.11	23.73	-28.3	-28.8	15.8	0.00e+00	0	44	0	1050673152	17	3799
2026-01-22 10:46:05.85	336.16	23.58	-28.2	-28.4	15.9	0.00e+00	0	44	0	1052770304	17	3696
2026-01-22 10:46:06.85	336.20	23.44	-28.0	-28.1	16.1	0.00e+00	0	44	0	1054867456	17	3610
2026-01-22 10:46:07.86	336.24	23.29	-28.1	-28.3	16.0	0.00e+00	0	44	0	1055916032	17	3668
2026-01-22 10:46:08.87	336.29	23.14	-28.3	-28.6	15.8	0.00e+00	0	44	0	1058013184	17	3737
2026-01-22 10:46:09.88	336.33	22.99	-28.1	-28.1	16.1	0.00e+00	0	44	0	1060110336	17	3629
2026-01-22 10:46:10.88	336.37	22.85	-28.1	-28.3	16.0	0.00e+00	0	44	0	1062207488	17	3660
2026-01-22 10:46:11.89	336.42	22.70	-28.1	-28.2	16.0	0.00e+00	0	44	0	1064304640	17	3639
2026-01-22 10:46:12.89	336.46	22.56	-28.2	-28.4	15.9	0.00e+00	0	44	0	1065353216	17	3702
2026-01-22 10:46:13.89	336.50	22.42	-28.4	-29.0	15.5	0.00e+00	0	44	0	1067450368	17	3841
2026-01-22 10:46:14.90	336.54	22.28	-28.4	-28.9	15.6	0.00e+00	0	44	0	1069547520	17	3807
2026-01-22 10:46:15.89	336.58	22.14	-28.3	-28.8	15.6	7.00e-07	0	44	0	1071644672	17	3794
2026-01-22 10:46:16.89	336.62	22.00	-28.7	-29.6	15.2	0.00e+00	0	44	0	1072693248	17	4009
2026-01-22 10:46:17.89	336.66	21.86	-28.7	-29.6	15.2	0.00e+00	0	44	0	1074790400	17	4005
2026-01-22 10:46:18.89	336.70	21.72	-28.9	-30.3	14.8	0.00e+00	0	44	0	1076887552	17	4197
2026-01-22 10:46:19.89	336.74	21.58	-29.1	-30.3	14.4	7.00e-07	0	44	0	1078984704	18	4112
2026-01-22 10:46:20.90	336.78	21.44	-29.3	-30.8	14.1	1.50e-06	0	44	0	1081081856	18	4272
2026-01-22 10:46:21.90	336.82	21.31	-29.4	-31.0	14.0	1.50e-06	0	44	0	1082130432	18	4311
2026-01-22 10:46:22.91	336.86	21.17	-29.4	-31.0	14.0	1.50e-06	0	44	0	1084227584	18	4337
2026-01-22 10:46:23.91	336.90	21.04	-29.3	-30.8	14.1	0.00e+00	0	44	0	1086324736	18	4273
2026-01-22 10:46:24.91	336.94	20.90	-29.2	-30.4	14.4	3.00e-06	0	44	0	1088421888	18	4154
2026-01-22 10:46:25.91	336.98	20.77	-29.2	-30.4	14.3	7.00e-07	0	44	0	1090519040	18	4132
2026-01-22 10:46:26.91	337.01	20.64	-28.9	-29.8	14.7	1.50e-06	0	44	0	1091567616	18	3969
2026-01-22 10:46:27.91	337.05	20.50	-28.6	-29.0	15.2	7.00e-07	0	44	0	1093664768	18	3768
2026-01-22 10:46:28.92	337.09	20.37	-28.4	-28.5	15.5	0.00e+00	0	44	0	1095761920	18	3644
2026-01-22 10:46:29.93	337.13	20.24	-28.5	-28.6	15.4	0.00e+00	0	44	0	1097859072	18	3651
2026-01-22 10:46:30.93	337.16	20.11	-28.5	-28.6	15.4	7.00e-07	0	44	0	1099956224	18	3651
2026-01-22 10:46:31.93	337.20	19.98	-28.4	-28.4	15.5	0.00e+00	0	44	0	1101004800	18	3620
2026-01-22 10:46:32.94	337.24	19.85	-28.2	-28.5	15.8	0.00e+00	0	44	0	1103101952	17	3717
2026-01-22 10:46:33.94	337.27	19.72	-28.1	-28.2	15.9	0.00e+00	0	44	0	1105199104	17	3638
2026-01-22 10:46:34.94	337.31	19.59	-28.0	-28.0	16.1	0.00e+00	0	44	0	1107296256	17	3588
2026-01-22 10:46:35.95	337.34	19.47	-28.1	-28.2	15.9	0.00e+00	0	44	0	1109393408	17	3640
2026-01-22 10:46:36.95	337.38	19.34	-28.1	-28.2	15.9	0.00e+00	0	44	0	1110441984	17	3639
2026-01-22 10:46:37.95	337.41	19.22	-27.8	-27.6	16.2	0.00e+00	0	44	0	1112539136	17	3513
2026-01-22 10:46:38.96	337.45	19.09	-27.8	-28.0	16.3	0.00e+00	0	44	0	1114636288	16	3678
2026-01-22 10:46:39.96	337.48	18.97	-27.9	-28.2	16.1	0.00e+00	0	44	0	1116733440	16	3734
2026-01-22 10:46:40.96	337.51	18.84	-27.9	-28.2	16.2	0.00e+00	0	44	0	1117782016	16	3733
2026-01-22 10:46:41.97	337.55	18.72	-27.9	-28.4	16.1	0.00e+00	0	44	0	1119879168	16	3781
2026-01-22 10:46:42.97	337.58	18.60	-28.0	-28.6	15.9	0.00e+00	0	44	0	1121976320	16	3846
2026-01-22 10:46:43.97	337.62	18.47	-28.3	-29.3	15.6	0.00e+00	0	44	0	1124073472	16	4017
2026-01-22 10:46:44.98	337.65	18.35	-28.3	-29.3	15.5	0.00e+00	0	44	0	1126170624	16	4016
2026-01-22 10:46:45.98	337.68	18.23	-28.5	-29.6	15.3	7.00e-07	0	44	0	1128267776	16	4115
2026-01-22 10:46:46.99	337.71	18.11	-28.5	-29.4	15.2	0.00e+00	0	44	0	1129316352	17	3951
2026-01-22 10:46:47.99	337.75	17.99	-28.6	-29.4	15.1	0.00e+00	0	44	0	1131413504	17	3966
2026-01-22 10:46:49.00	337.78	17.87	-28.7	-29.8	14.9	0.00e+00	0	44	0	1133510656	17	4075
2026-01-22 10:46:50.00	337.81	17.75	-28.8	-30.0	14.8	7.00e-07	0	44	0	1135607808	17	4127
2026-01-22 10:46:50.99	337.84	17.64	-28.9	-30.2	14.6	0.00e+00	0	44	0	1136656384	17	4198
2026-01-22 10:46:51.99	337.87	17.52	-29.0	-30.5	14.5	2.20e-06	0	44	0	1138753536	17	4280
2026-01-22 10:46:52.99	337.90	17.40	-28.9	-29.8	14.5	0.00e+00	0	44	0	1140850688	18	3990
2026-01-22 10:46:53.99	337.94	17.29	-29.1	-30.3	14.3	0.00e+00	0	44	0	1142947840	18	4139
2026-01-22 10:46:55.00	337.97	17.17	-29.2	-30.5	14.1	7.00e-07	0	44	0	1145044992	18	4191
2026-01-22 10:46:56.00	338.00	17.06	-29.2	-30.5	14.1	6.80e-06	0	44	0	1146093568	18	4192
2026-01-22 10:46:57.00	338.03	16.94	-29.2	-30.6	14.1	1.50e-06	0	44	0	1148190720	18	4210
2026-01-22 10:46:58.00	338.06	16.83	-29.3	-30.8	13.9	1.50e-06	0	44	0	1150287872	18	4284
2026-01-22 10:46:59.01	338.09	16.71	-29.3	-30.8	14.0	1.50e-06	0	44	0	1152385024	18	4277
2026-01-22 10:47:00.01	338.12	16.60	-29.3	-30.8	13.9	2.20e-06	0	44	0	1154482176	18	4287
2026-01-22 10:47:01.01	338.15	16.49	-29.4	-30.6	13.7	5.30e-06	0	44	0	1155530752	19	4131
2026-01-22 10:47:02.02	338.18	16.38	-29.4	-30.7	13.7	5.30e-06	0	44	0	1157627904	19	4143
2026-01-22 10:47:03.02	338.21	16.26	-29.5	-30.9	13.6	9.90e-06	0	44	0	1159725056	19	4210
2026-01-22 10:47:04.03	338.24	16.15	-29.5	-30.8	13.6	6.10e-06	0	44	0	1161822208	19	4179
2026-01-22 10:47:05.02	338.27	16.04	-29.3	-30.3	13.9	3.80e-06	0	44	0	1162870784	19	4038
2026-01-22 10:47:06.02	338.29	15.93	-29.3	-30.2	14.0	1.50e-06	0	44	0	1164967936	19	4024
2026-01-22 10:47:07.03	338.32	15.82	-29.3	-30.4	13.8	3.80e-06	0	44	0	1167065088	19	4085
2026-01-22 10:47:08.03	338.35	15.72	-29.5	-30.8	13.5	1.06e-05	0	44	0	1169162240	19	4204
2026-01-22 10:47:09.03	338.38	15.61	-29.4	-30.6	13.7	5.30e-06	0	44	0	1171259392	19	4145
2026-01-22 10:47:10.04	338.41	15.50	-29.3	-30.3	13.9	2.20e-06	0	44	0	1173356544	19	4037
2026-01-22 10:47:11.04	338.44	15.39	-29.3	-30.2	13.9	3.00e-06	0	44	0	1174405120	19	4020
2026-01-22 10:47:12.04	338.46	15.28	-29.3	-30.3	13.9	4.50e-06	0	44	0	1176502272	19	4044
2026-01-22 10:47:13.04	338.49	15.18	-29.3	-30.4	13.8	3.00e-06	0	44	0	1178599424	19	4061
2026-01-22 10:47:14.05	338.52	15.07	-29.4	-30.5	13.7	7.60e-06	0	44	0	1180696576	19	4102
2026-01-22 10:47:15.06	338.55	14.96	-29.4	-30.7	13.6	6.10e-06	0	44	0	1181745152	19	4154
2026-01-22 10:47:16.07	338.57	14.86	-29.5	-31.0	13.4	1.06e-05	0	44	0	1183842304	19	4268
2026-01-22 10:47:17.06	338.60	14.75	-29.5	-30.9	13.4	9.90e-06	0	44	0	1185939456	19	4234
2026-01-22 10:47:18.07	338.63	14.65	-29.7	-31.5	13.1	2.05e-05	0	44	0	1188036608	19	4414
2026-01-22 10:47:19.08	338.65	14.54	-29.7	-31.3	13.2	2.21e-05	0	44	0	1190133760	19	4365
2026-01-22 10:47:20.08	338.68	14.44	-29.7	-31.3	13.2	2.05e-05	0	44	0	1191182336	19	4366
2026-01-22 10:47:21.08	338.71	14.34	-29.8	-31.7	12.9	3.28e-05	0	44	0	1193279488	19	4483
2026-01-22 10:47:22.08	338.73	14.24	-29.8	-31.6	12.9	3.89e-05	0	44	0	1195376640	19	4463
2026-01-22 10:47:23.09	338.76	14.13	-30.0	-32.2	12.5	7.17e-05	0	44	0	1197473792	19	4666
2026-01-22 10:47:24.10	338.78	14.03	-29.9	-32.1	12.6	9.15e-05	0	44	0	1199570944	19	4641
2026-01-22 10:47:25.10	338.81	13.93	-30.1	-32.0	12.3	1.38e-04	0	44	0	1200619520	20	4523
2026-01-22 10:47:26.10	338.84	13.83	-30.2	-32.5	11.9	2.78e-04	0	44	0	1202716672	20	4696
2026-01-22 10:47:27.11	338.86	13.73	-30.2	-32.5	11.9	3.16e-04	0	44	0	1204813824	20	4687
2026-01-22 10:47:28.11	338.89	13.63	-30.4	-33.1	11.5	5.74e-04	0	44	0	1206910976	20	4894
2026-01-22 10:47:29.11	338.91	13.53	-30.5	-32.9	11.3	9.44e-04	0	44	0	1209008128	21	4726
2026-01-22 10:47:30.11	338.94	13.43	-30.5	-32.8	11.3	1.11e-03	0	44	0	1210056704	21	4731
2026-01-22 10:47:31.12	338.96	13.33	-30.6	-33.3	10.9	1.31e-03	0	44	0	1212153856	21	4919
2026-01-22 10:47:32.12	338.99	13.23	-30.5	-33.1	11.1	1.79e-03	0	44	0	1214251008	21	4815
2026-01-22 10:47:33.12	339.01	13.13	-30.7	-33.4	10.7	1.90e-03	0	44	0	1216348160	21	4951
2026-01-22 10:47:34.12	339.03	13.04	-30.7	-33.6	10.7	2.75e-03	0	44	0	1218445312	21	5014
2026-01-22 10:47:35.13	339.06	12.94	-30.7	-33.6	10.7	3.22e-03	0	44	0	1219493888	21	5025
2026-01-22 10:47:36.13	339.08	12.84	-30.7	-33.7	10.6	3.59e-03	0	44	0	1221591040	21	5076
2026-01-22 10:47:37.12	339.11	12.75	-30.7	-33.6	10.7	3.68e-03	0	44	0	1223688192	21	5025
2026-01-22 10:47:38.13	339.13	12.65	-30.7	-33.7	10.6	3.26e-03	0	44	0	1225785344	21	5059
2026-01-22 10:47:39.12	339.15	12.56	-30.7	-33.5	10.8	2.44e-03	0	44	0	1226833920	21	4975
2026-01-22 10:47:40.12	339.18	12.46	-30.7	-33.5	10.7	2.52e-03	0	44	0	1228931072	21	4999
2026-01-22 10:47:41.13	339.20	12.36	-30.7	-33.5	10.7	3.44e-03	0	44	0	1231028224	21	4998
2026-01-22 10:47:42.14	339.23	12.27	-30.6	-33.3	10.9	2.10e-03	0	44	0	1233125376	21	4903
2026-01-22 10:47:43.15	339.25	12.17	-30.6	-33.4	10.7	2.32e-03	0	44	0	1235222528	21	4961
2026-01-22 10:47:44.14	339.27	12.08	-30.5	-33.1	11.1	1.75e-03	0	44	0	1236271104	21	4824
2026-01-22 10:47:45.14	339.30	11.99	-30.6	-33.2	10.9	2.17e-03	0	44	0	1238368256	21	4863
2026-01-22 10:47:46.15	339.32	11.89	-30.6	-33.2	10.9	2.21e-03	0	44	0	1240465408	21	4887
2026-01-22 10:47:47.15	339.34	11.80	-30.4	-32.7	11.3	1.98e-03	0	44	0	1242562560	21	4683
2026-01-22 10:47:48.15	339.36	11.71	-30.4	-32.7	11.3	1.14e-03	0	44	0	1244659712	21	4676
2026-01-22 10:47:49.16	339.39	11.62	-30.5	-33.1	11.0	1.64e-03	0	44	0	1245708288	21	4851
2026-01-22 10:47:50.16	339.41	11.52	-30.4	-32.8	11.2	1.74e-03	0	44	0	1247805440	21	4733
2026-01-22 10:47:51.17	339.43	11.43	-30.4	-32.8	11.2	1.20e-03	0	44	0	1249902592	21	4708
2026-01-22 10:47:52.17	339.45	11.34	-30.6	-33.2	10.9	1.69e-03	0	44	0	1251999744	21	4866
2026-01-22 10:47:53.17	339.48	11.25	-30.5	-33.0	11.0	1.78e-03	0	44	0	1254096896	21	4806
2026-01-22 10:47:54.18	339.50	11.16	-30.4	-32.8	11.2	1.35e-03	0	44	0	1255145472	21	4723
2026-01-22 10:47:55.18	339.52	11.07	-30.4	-32.7	11.2	1.50e-03	0	44	0	1257242624	21	4705
2026-01-22 10:47:56.19	339.54	10.98	-30.4	-32.7	11.3	1.51e-03	0	44	0	1259339776	21	4677
2026-01-22 10:47:57.19	339.56	10.89	-30.3	-32.3	11.5	1.04e-03	0	44	0	1261436928	21	4552
2026-01-22 10:47:58.20	339.59	10.80	-30.3	-32.3	11.5	9.57e-04	0	44	0	1263534080	21	4550
2026-01-22 10:47:59.20	339.61	10.71	-30.2	-32.0	11.8	6.60e-04	0	44	0	1264582656	21	4442
2026-01-22 10:48:00.21	339.63	10.62	-30.0	-31.5	12.0	5.02e-04	0	44	0	1266679808	21	4293
2026-01-22 10:48:01.21	339.65	10.53	-29.8	-30.9	12.4	2.02e-04	0	44	0	1268776960	21	4104
2026-01-22 10:48:02.22	339.67	10.45	-29.8	-31.3	12.4	9.91e-05	0	44	0	1270874112	20	4308
2026-01-22 10:48:03.22	339.69	10.36	-29.8	-31.5	12.3	1.52e-04	0	44	0	1272971264	20	4380
2026-01-22 10:48:04.22	339.71	10.27	-29.6	-30.9	12.7	1.11e-04	0	44	0	1274019840	20	4172
2026-01-22 10:48:05.23	339.73	10.18	-29.7	-31.0	12.7	6.71e-05	0	44	0	1276116992	20	4204
2026-01-22 10:48:06.24	339.75	10.10	-29.7	-31.1	12.6	8.85e-05	0	44	0	1278214144	20	4239
2026-01-22 10:48:07.24	339.78	10.01	-29.6	-30.8	12.9	5.64e-05	0	44	0	1280311296	20	4134
