passes_logs/2026/01/22/R2M6_AANII_01/R2M6_AANII_01__20260122_022433_SUOMI_NPP_rec.log

#Pass ID: 20260122_022433_SUOMI NPP
#Satellite: SUOMI NPP
#Configuration: NPP
#almurnet v.1.7.20240730
#Start time: 2026-01-22 02:24:34

#Version: 2.2.20231116
#Station: R2M6_AANII_01
#Location: 30.233357 lon 59.946436 lat
#TLE: 1 37849U 11061A   26021.51818991  .00000201  00000+0  11636-3 0  9995
#TLE: 2 37849  98.7819 323.5108 0002300  52.3548 307.7836 14.19527793737637

#Time	Az	El	Level	Level2	SNR	BER	BlckErr	Temp	State	Recorded	gain1	gain2
2026-01-22 02:24:34.32	10.11	7.07	-32.5	-39.8	4.2	1.43e+00	0	42	0	0	25	8317
2026-01-22 02:24:35.32	10.01	7.14	-32.3	-38.7	4.4	1.38e+00	0	42	104	0	25	7451
2026-01-22 02:24:36.32	9.92	7.20	-32.4	-38.6	5.7	4.35e-01	0	42	0	0	25	7362
2026-01-22 02:24:37.32	9.83	7.26	-32.4	-39.1	5.7	4.05e-01	0	42	0	1048576	24	7839
2026-01-22 02:24:38.32	9.73	7.33	-32.4	-38.9	5.9	3.88e-01	0	42	0	3145728	24	7628
2026-01-22 02:24:39.33	9.64	7.39	-32.4	-39.0	5.8	3.58e-01	0	42	0	5242880	24	7679
2026-01-22 02:24:40.34	9.54	7.45	-32.4	-39.1	5.7	4.22e-01	0	42	0	7340032	24	7756
2026-01-22 02:24:41.34	9.44	7.52	-32.3	-38.6	6.1	3.59e-01	0	42	0	9437184	24	7411
2026-01-22 02:24:42.34	9.35	7.58	-32.1	-37.5	6.7	2.40e-01	0	42	0	10485760	24	6685
2026-01-22 02:24:43.34	9.25	7.65	-32.0	-36.6	7.5	1.57e-01	0	42	0	12582912	24	6151
2026-01-22 02:24:44.34	9.15	7.71	-31.7	-35.7	8.2	6.55e-02	0	42	0	14680064	24	5662
2026-01-22 02:24:45.35	9.05	7.77	-31.6	-35.4	8.8	3.60e-02	0	42	0	16777216	23	5606
2026-01-22 02:24:46.35	8.96	7.84	-31.3	-34.6	9.5	2.08e-02	0	42	0	17825792	23	5218
2026-01-22 02:24:47.36	8.86	7.90	-31.2	-34.0	10.0	9.94e-03	0	42	0	19922944	23	4962
2026-01-22 02:24:48.36	8.76	7.97	-31.1	-34.1	10.2	6.20e-03	0	42	0	22020096	22	5106
2026-01-22 02:24:49.37	8.66	8.03	-31.1	-34.1	10.3	5.64e-03	0	42	0	24117248	22	5096
2026-01-22 02:24:50.37	8.56	8.10	-31.1	-34.1	10.3	5.06e-03	0	42	0	26214400	22	5091
2026-01-22 02:24:51.37	8.46	8.16	-31.0	-33.8	10.5	4.04e-03	0	42	0	28311552	22	4964
2026-01-22 02:24:52.37	8.36	8.22	-31.0	-33.8	10.5	3.81e-03	0	42	0	29360128	22	4981
2026-01-22 02:24:53.38	8.25	8.29	-31.0	-33.8	10.5	3.84e-03	0	42	0	31457280	22	4978
2026-01-22 02:24:54.38	8.15	8.35	-30.9	-33.4	10.8	2.78e-03	0	43	0	33554432	22	4815
2026-01-22 02:24:55.38	8.05	8.42	-30.9	-33.5	10.8	2.62e-03	0	42	0	35651584	22	4847
2026-01-22 02:24:56.38	7.95	8.48	-31.0	-33.7	10.6	3.01e-03	0	43	0	36700160	22	4922
2026-01-22 02:24:57.38	7.84	8.55	-30.9	-33.4	10.8	2.60e-03	0	43	0	38797312	22	4811
2026-01-22 02:24:58.38	7.74	8.61	-31.0	-33.8	10.6	2.72e-03	0	43	0	40894464	22	4971
2026-01-22 02:24:59.39	7.63	8.68	-31.0	-33.7	10.6	3.83e-03	0	42	0	42991616	22	4918
2026-01-22 02:25:00.40	7.53	8.74	-30.8	-33.0	11.1	2.00e-03	0	43	0	45088768	22	4667
2026-01-22 02:25:01.40	7.42	8.81	-30.7	-32.9	11.2	1.36e-03	0	43	0	46137344	22	4608
2026-01-22 02:25:02.40	7.32	8.87	-30.7	-32.6	11.4	1.15e-03	0	43	0	48234496	22	4512
2026-01-22 02:25:03.41	7.21	8.94	-30.7	-32.9	11.3	1.07e-03	0	43	0	50331648	22	4610
2026-01-22 02:25:04.41	7.10	9.01	-30.8	-33.0	11.2	1.33e-03	0	43	0	52428800	22	4647
2026-01-22 02:25:05.41	7.00	9.07	-30.8	-33.0	11.2	1.34e-03	0	43	0	54525952	22	4633
2026-01-22 02:25:06.41	6.89	9.14	-30.8	-33.0	11.2	1.17e-03	0	43	0	55574528	22	4663
2026-01-22 02:25:07.42	6.78	9.20	-30.9	-33.3	11.0	1.49e-03	0	43	0	57671680	22	4746
2026-01-22 02:25:08.42	6.67	9.27	-30.9	-33.2	11.1	1.79e-03	0	43	0	59768832	22	4739
2026-01-22 02:25:09.42	6.56	9.33	-30.9	-33.2	11.1	1.87e-03	0	43	0	61865984	22	4722
2026-01-22 02:25:10.42	6.45	9.40	-30.9	-33.3	11.1	1.76e-03	0	43	0	63963136	22	4742
2026-01-22 02:25:11.42	6.34	9.47	-30.9	-33.3	11.0	2.19e-03	0	43	0	65011712	22	4770
2026-01-22 02:25:12.43	6.23	9.53	-30.9	-33.2	11.1	1.96e-03	0	43	0	67108864	22	4720
2026-01-22 02:25:13.43	6.12	9.60	-30.9	-33.5	10.9	1.82e-03	0	43	0	69206016	22	4826
2026-01-22 02:25:14.44	6.01	9.66	-31.1	-34.1	10.5	3.83e-03	0	43	0	71303168	22	5049
2026-01-22 02:25:15.44	5.89	9.73	-30.9	-33.3	11.0	2.34e-03	0	43	0	73400320	22	4740
2026-01-22 02:25:16.44	5.78	9.80	-30.9	-33.2	11.1	1.46e-03	0	43	0	74448896	22	4721
2026-01-22 02:25:17.45	5.67	9.86	-30.9	-33.5	11.0	1.67e-03	0	43	0	76546048	22	4816
2026-01-22 02:25:18.46	5.55	9.93	-30.9	-33.4	11.0	1.96e-03	0	43	0	78643200	22	4801
2026-01-22 02:25:19.46	5.44	10.00	-31.0	-33.8	10.7	2.21e-03	0	43	0	80740352	22	4948
2026-01-22 02:25:20.46	5.32	10.06	-31.1	-34.1	10.5	3.32e-03	0	43	0	81788928	22	5050
2026-01-22 02:25:21.47	5.21	10.13	-31.1	-33.9	10.6	3.64e-03	0	43	0	83886080	22	4967
2026-01-22 02:25:22.47	5.09	10.20	-31.2	-34.1	10.5	3.22e-03	0	43	0	85983232	22	5072
2026-01-22 02:25:23.47	4.97	10.26	-31.0	-33.6	10.8	3.14e-03	0	43	0	88080384	22	4864
2026-01-22 02:25:24.48	4.85	10.33	-31.0	-33.7	10.8	3.03e-03	0	43	0	90177536	22	4904
2026-01-22 02:25:25.48	4.74	10.40	-31.1	-34.0	10.6	3.95e-03	0	43	0	91226112	22	5014
2026-01-22 02:25:26.49	4.62	10.46	-31.1	-33.9	10.7	4.77e-03	0	43	0	93323264	22	4965
2026-01-22 02:25:27.48	4.50	10.53	-31.0	-33.5	10.9	2.59e-03	0	43	0	95420416	22	4820
2026-01-22 02:25:28.48	4.38	10.60	-31.0	-33.5	11.0	2.06e-03	0	43	0	97517568	22	4799
2026-01-22 02:25:29.48	4.26	10.67	-30.9	-33.4	11.1	1.81e-03	0	43	0	99614720	22	4762
2026-01-22 02:25:30.49	4.14	10.73	-31.0	-33.5	10.9	1.62e-03	0	43	0	100663296	22	4833
2026-01-22 02:25:31.49	4.02	10.80	-31.0	-33.5	11.0	2.18e-03	0	43	0	102760448	22	4815
2026-01-22 02:25:32.50	3.89	10.87	-31.0	-33.7	10.9	2.20e-03	0	43	0	104857600	22	4900
2026-01-22 02:25:33.50	3.77	10.93	-31.0	-33.7	10.9	3.17e-03	0	43	0	106954752	22	4878
2026-01-22 02:25:34.51	3.65	11.00	-31.0	-33.5	11.0	2.18e-03	0	43	0	109051904	22	4826
2026-01-22 02:25:35.51	3.53	11.07	-31.0	-33.5	10.9	2.37e-03	0	43	0	110100480	22	4811
2026-01-22 02:25:36.52	3.40	11.14	-31.0	-33.6	10.9	2.38e-03	0	43	0	112197632	22	4868
2026-01-22 02:25:37.52	3.28	11.21	-31.0	-33.4	11.1	2.04e-03	0	43	0	114294784	22	4777
2026-01-22 02:25:38.52	3.15	11.27	-31.1	-33.8	10.8	2.78e-03	0	43	0	116391936	22	4922
2026-01-22 02:25:39.52	3.02	11.34	-31.0	-33.6	10.9	2.74e-03	0	43	0	118489088	22	4852
2026-01-22 02:25:40.52	2.90	11.41	-30.8	-33.0	11.4	1.45e-03	0	43	0	119537664	22	4610
2026-01-22 02:25:41.53	2.77	11.48	-30.8	-33.1	11.4	9.92e-04	0	43	0	121634816	22	4646
2026-01-22 02:25:42.53	2.64	11.54	-30.8	-33.0	11.4	1.03e-03	0	44	0	123731968	22	4635
2026-01-22 02:25:43.53	2.51	11.61	-30.8	-32.9	11.5	1.19e-03	0	43	0	125829120	22	4599
2026-01-22 02:25:44.54	2.38	11.68	-30.8	-32.9	11.5	8.05e-04	0	43	0	127926272	22	4593
2026-01-22 02:25:45.53	2.26	11.75	-30.9	-33.1	11.3	9.97e-04	0	44	0	128974848	22	4644
2026-01-22 02:25:46.54	2.12	11.82	-30.9	-33.2	11.3	1.22e-03	0	44	0	131072000	22	4683
2026-01-22 02:25:47.54	1.99	11.88	-30.9	-33.1	11.3	1.29e-03	0	43	0	133169152	22	4661
2026-01-22 02:25:48.53	1.86	11.95	-30.8	-32.9	11.5	9.64e-04	0	43	0	135266304	22	4563
2026-01-22 02:25:49.54	1.73	12.02	-30.8	-32.7	11.6	9.40e-04	0	43	0	136314880	22	4528
2026-01-22 02:25:50.54	1.60	12.09	-30.7	-32.6	11.7	6.69e-04	0	44	0	138412032	22	4479
2026-01-22 02:25:51.53	1.47	12.16	-30.7	-33.1	11.7	6.74e-04	0	44	0	140509184	21	4734
2026-01-22 02:25:52.54	1.33	12.22	-30.6	-32.8	11.9	6.88e-04	0	44	0	142606336	21	4630
2026-01-22 02:25:53.54	1.20	12.29	-30.7	-33.0	11.8	4.21e-04	0	43	0	144703488	21	4698
2026-01-22 02:25:54.54	1.06	12.36	-30.6	-32.9	11.9	6.32e-04	0	44	0	145752064	21	4657
2026-01-22 02:25:55.54	0.93	12.43	-30.6	-32.8	11.9	5.58e-04	0	44	0	147849216	21	4648
2026-01-22 02:25:56.54	0.79	12.50	-30.7	-33.1	11.7	5.00e-04	0	44	0	149946368	21	4746
2026-01-22 02:25:57.54	0.65	12.56	-30.8	-33.3	11.6	1.20e-03	0	44	0	152043520	21	4825
2026-01-22 02:25:58.55	0.51	12.63	-30.7	-33.2	11.7	6.65e-04	0	44	0	154140672	21	4771
2026-01-22 02:25:59.55	0.38	12.70	-30.7	-33.1	11.8	6.26e-04	0	44	0	155189248	21	4758
2026-01-22 02:26:00.56	0.24	12.77	-30.8	-33.5	11.5	9.44e-04	0	44	0	157286400	21	4896
2026-01-22 02:26:01.56	0.10	12.84	-30.8	-33.3	11.6	1.17e-03	0	44	0	159383552	21	4801
2026-01-22 02:26:02.56	359.96	12.91	-30.6	-32.9	11.9	5.19e-04	0	44	0	161480704	21	4667
2026-01-22 02:26:03.57	359.81	12.98	-30.6	-32.9	11.9	6.06e-04	0	44	0	163577856	21	4671
2026-01-22 02:26:04.57	359.67	13.05	-30.6	-32.8	11.9	7.50e-04	0	43	0	164626432	21	4647
2026-01-22 02:26:05.58	359.53	13.11	-30.8	-33.3	11.6	4.77e-04	0	44	0	166723584	21	4826
2026-01-22 02:26:06.58	359.39	13.18	-30.8	-33.4	11.6	1.10e-03	0	44	0	168820736	21	4836
2026-01-22 02:26:07.59	359.24	13.25	-30.6	-32.9	12.0	7.51e-04	0	44	0	170917888	21	4678
2026-01-22 02:26:08.60	359.10	13.32	-30.6	-32.7	12.1	2.83e-04	0	44	0	173015040	21	4582
2026-01-22 02:26:09.61	358.95	13.39	-30.5	-32.5	12.2	5.16e-04	0	44	0	174063616	21	4519
2026-01-22 02:26:10.61	358.80	13.46	-30.4	-32.2	12.4	5.65e-04	0	44	0	176160768	21	4432
2026-01-22 02:26:11.60	358.66	13.53	-30.4	-32.3	12.3	1.92e-04	0	44	0	178257920	21	4467
2026-01-22 02:26:12.61	358.51	13.60	-30.4	-32.3	12.3	2.07e-04	0	44	0	180355072	21	4477
2026-01-22 02:26:13.61	358.36	13.66	-30.4	-32.2	12.4	5.87e-04	0	44	0	181403648	21	4424
2026-01-22 02:26:14.62	358.21	13.73	-30.5	-32.5	12.1	2.11e-04	0	44	0	183500800	21	4550
2026-01-22 02:26:15.62	358.06	13.80	-30.6	-32.8	12.1	2.69e-04	0	44	0	185597952	21	4635
2026-01-22 02:26:16.62	357.91	13.87	-30.6	-32.8	12.0	4.78e-04	0	44	0	187695104	21	4648
2026-01-22 02:26:17.63	357.76	13.94	-30.6	-32.9	11.9	3.35e-04	0	44	0	189792256	21	4690
2026-01-22 02:26:18.63	357.61	14.01	-30.6	-32.9	11.9	4.51e-04	0	44	0	191889408	21	4659
2026-01-22 02:26:19.63	357.46	14.08	-30.7	-33.2	11.7	6.26e-04	0	44	0	192937984	21	4787
2026-01-22 02:26:20.63	357.30	14.14	-30.7	-33.1	11.8	5.19e-04	0	44	0	195035136	21	4746
2026-01-22 02:26:21.63	357.15	14.21	-30.6	-32.9	12.0	1.04e-03	0	44	0	197132288	21	4678
2026-01-22 02:26:22.64	357.00	14.28	-30.7	-33.0	11.9	3.77e-04	0	44	0	199229440	21	4712
2026-01-22 02:26:23.64	356.84	14.35	-30.6	-32.9	11.9	3.62e-04	0	44	0	200278016	21	4682
2026-01-22 02:26:24.64	356.68	14.42	-30.7	-32.9	11.9	7.49e-04	0	44	0	202375168	21	4667
2026-01-22 02:26:25.65	356.53	14.49	-30.6	-32.8	12.1	2.94e-04	0	44	0	204472320	21	4625
2026-01-22 02:26:26.66	356.37	14.56	-30.7	-33.0	11.9	4.19e-04	0	44	0	206569472	21	4693
2026-01-22 02:26:27.66	356.21	14.63	-30.6	-32.9	12.0	1.20e-03	0	44	0	208666624	21	4659
2026-01-22 02:26:28.66	356.05	14.69	-30.5	-32.5	12.2	1.01e-03	0	44	0	209715200	21	4531
2026-01-22 02:26:29.67	355.89	14.76	-30.6	-32.8	12.1	2.20e-04	0	44	0	211812352	21	4627
2026-01-22 02:26:30.67	355.73	14.83	-30.6	-32.7	12.1	2.94e-04	0	44	0	213909504	21	4606
2026-01-22 02:26:31.67	355.57	14.90	-30.7	-33.1	11.8	1.21e-03	0	44	0	216006656	21	4743
2026-01-22 02:26:32.67	355.41	14.97	-30.7	-33.2	11.8	4.39e-04	0	44	0	218103808	21	4758
2026-01-22 02:26:33.68	355.24	15.04	-30.9	-33.5	11.6	5.48e-04	0	44	0	219152384	21	4888
2026-01-22 02:26:34.68	355.08	15.10	-30.8	-33.3	11.7	1.91e-03	0	44	0	221249536	21	4803
2026-01-22 02:26:35.68	354.92	15.17	-30.9	-33.6	11.5	8.35e-04	0	44	0	223346688	21	4924
2026-01-22 02:26:36.69	354.75	15.24	-31.1	-33.7	11.1	1.30e-03	0	44	0	225443840	22	4871
2026-01-22 02:26:37.69	354.58	15.31	-31.2	-34.1	10.8	2.13e-03	0	44	0	227540992	22	5033
2026-01-22 02:26:38.70	354.42	15.38	-31.2	-34.2	10.8	2.59e-03	0	44	0	228589568	22	5059
2026-01-22 02:26:39.70	354.25	15.44	-31.2	-34.0	10.9	2.44e-03	0	44	0	230686720	22	4974
2026-01-22 02:26:40.70	354.08	15.51	-31.1	-33.9	10.9	2.08e-03	0	44	0	232783872	22	4936
2026-01-22 02:26:41.71	353.91	15.58	-31.2	-33.9	10.9	1.98e-03	0	44	0	234881024	22	4963
2026-01-22 02:26:42.71	353.74	15.65	-31.0	-33.6	11.2	1.52e-03	0	44	0	236978176	22	4814
2026-01-22 02:26:43.72	353.57	15.72	-31.0	-33.5	11.2	9.79e-04	0	44	0	238026752	22	4799
2026-01-22 02:26:44.72	353.40	15.78	-31.2	-34.2	10.8	1.98e-03	0	44	0	240123904	22	5045
2026-01-22 02:26:45.72	353.23	15.85	-31.2	-33.9	11.0	2.15e-03	0	44	0	242221056	22	4954
2026-01-22 02:26:46.73	353.05	15.92	-31.0	-33.4	11.4	1.06e-03	0	44	0	244318208	22	4730
2026-01-22 02:26:47.74	352.88	15.99	-31.0	-33.5	11.3	1.09e-03	0	44	0	246415360	22	4797
2026-01-22 02:26:48.73	352.71	16.05	-31.1	-33.7	11.2	1.25e-03	0	44	0	247463936	22	4851
2026-01-22 02:26:49.74	352.53	16.12	-31.2	-33.9	11.0	1.89e-03	0	44	0	249561088	22	4953
2026-01-22 02:26:50.74	352.35	16.19	-31.0	-33.5	11.3	1.37e-03	0	44	0	251658240	22	4794
2026-01-22 02:26:51.74	352.18	16.25	-31.0	-33.5	11.3	1.02e-03	0	44	0	253755392	22	4771
2026-01-22 02:26:52.75	352.00	16.32	-31.0	-33.4	11.3	9.99e-04	0	44	0	254803968	22	4757
2026-01-22 02:26:53.75	351.82	16.39	-30.9	-33.0	11.7	7.09e-04	0	44	0	256901120	22	4597
2026-01-22 02:26:54.75	351.64	16.46	-30.8	-33.2	11.9	4.78e-04	0	44	0	258998272	21	4748
2026-01-22 02:26:55.75	351.46	16.52	-30.7	-33.0	12.0	3.65e-04	0	44	0	261095424	21	4691
2026-01-22 02:26:56.76	351.28	16.59	-31.1	-33.6	11.2	7.69e-04	0	44	0	263192576	22	4825
2026-01-22 02:26:57.75	351.10	16.65	-31.2	-34.1	10.9	1.60e-03	0	44	0	264241152	22	4992
2026-01-22 02:26:58.76	350.92	16.72	-31.4	-34.5	10.6	1.65e-03	0	44	0	266338304	22	5194
2026-01-22 02:26:59.76	350.73	16.79	-31.4	-34.8	10.4	5.02e-03	0	44	0	268435456	22	5305
2026-01-22 02:27:00.77	350.55	16.85	-31.4	-34.7	10.5	3.80e-03	0	44	0	270532608	22	5273
2026-01-22 02:27:01.76	350.36	16.92	-31.6	-34.8	10.0	5.69e-03	0	44	0	272629760	23	5216
2026-01-22 02:27:02.77	350.18	16.99	-31.7	-35.0	9.9	8.59e-03	0	44	0	273678336	23	5280
2026-01-22 02:27:03.78	349.99	17.05	-31.6	-34.8	10.1	6.86e-03	0	44	0	275775488	23	5180
2026-01-22 02:27:04.78	349.80	17.12	-31.5	-34.5	10.3	5.42e-03	0	44	0	277872640	23	5076
2026-01-22 02:27:05.78	349.61	17.18	-31.5	-34.3	10.4	5.00e-03	0	44	0	279969792	23	5005
2026-01-22 02:27:06.78	349.43	17.25	-31.5	-34.5	10.3	5.50e-03	0	44	0	282066944	23	5058
2026-01-22 02:27:07.77	349.24	17.31	-31.4	-34.2	10.6	3.83e-03	0	44	0	283115520	23	4928
2026-01-22 02:27:08.78	349.05	17.38	-31.5	-34.4	10.5	3.21e-03	0	44	0	285212672	23	5012
2026-01-22 02:27:09.77	348.86	17.44	-31.3	-33.9	10.8	3.78e-03	0	44	0	287309824	23	4821
2026-01-22 02:27:10.78	348.66	17.51	-31.3	-34.2	10.9	2.08e-03	0	44	0	289406976	22	5041
2026-01-22 02:27:11.78	348.47	17.57	-31.6	-34.8	10.1	3.52e-03	0	44	0	291504128	23	5183
2026-01-22 02:27:12.78	348.28	17.63	-31.3	-33.7	10.9	6.59e-03	0	44	0	292552704	23	4760
2026-01-22 02:27:13.78	348.08	17.70	-31.0	-33.4	11.5	8.91e-04	0	44	0	294649856	22	4715
2026-01-22 02:27:14.78	347.89	17.76	-30.7	-32.5	12.1	5.17e-04	0	44	0	296747008	22	4428
2026-01-22 02:27:15.79	347.69	17.83	-30.6	-32.1	12.4	2.00e-04	0	44	0	298844160	22	4280
2026-01-22 02:27:16.79	347.49	17.89	-30.7	-33.0	12.1	2.28e-04	0	44	0	299892736	21	4674
2026-01-22 02:27:17.80	347.29	17.95	-30.8	-33.2	11.9	3.83e-04	0	44	0	301989888	21	4765
2026-01-22 02:27:18.81	347.09	18.02	-30.7	-33.1	12.0	4.87e-04	0	44	0	304087040	21	4722
2026-01-22 02:27:19.81	346.89	18.08	-30.5	-32.5	12.3	3.34e-04	0	44	0	306184192	21	4530
2026-01-22 02:27:20.81	346.69	18.14	-30.1	-31.8	12.6	1.04e-04	0	44	0	308281344	21	4388
2026-01-22 02:27:21.81	346.49	18.20	-30.2	-31.9	12.6	7.70e-05	0	44	0	309329920	21	4396
2026-01-22 02:27:22.80	346.29	18.27	-30.1	-31.3	13.2	3.81e-05	0	44	0	311427072	21	4119
2026-01-22 02:27:23.80	346.08	18.33	-30.1	-31.3	13.1	2.97e-05	0	44	0	313524224	21	4129
2026-01-22 02:27:24.81	345.88	18.39	-30.2	-32.0	13.0	3.12e-05	0	44	0	315621376	20	4427
2026-01-22 02:27:25.81	345.67	18.45	-30.3	-32.3	12.9	2.28e-05	0	44	0	317718528	20	4528
2026-01-22 02:27:26.81	345.47	18.51	-30.2	-32.2	12.9	4.80e-05	0	44	0	318767104	20	4496
2026-01-22 02:27:27.81	345.26	18.57	-30.3	-32.2	12.9	2.97e-05	0	44	0	320864256	20	4498
2026-01-22 02:27:28.82	345.05	18.64	-30.5	-32.8	12.7	5.87e-05	0	44	0	322961408	20	4689
2026-01-22 02:27:29.81	344.85	18.70	-30.1	-31.3	13.0	5.64e-05	0	44	0	325058560	21	4131
2026-01-22 02:27:30.82	344.64	18.76	-29.9	-30.7	13.6	8.30e-06	0	44	0	327155712	21	3936
2026-01-22 02:27:31.82	344.43	18.82	-29.7	-30.6	14.0	2.20e-06	0	44	0	328204288	20	3992
2026-01-22 02:27:32.82	344.22	18.88	-29.6	-30.3	14.3	3.80e-06	0	44	0	330301440	20	3915
2026-01-22 02:27:33.82	344.00	18.94	-29.6	-30.3	14.2	6.40e-05	0	44	0	332398592	20	3927
2026-01-22 02:27:34.83	343.79	19.00	-29.6	-30.4	14.2	7.00e-07	0	44	0	334495744	20	3940
2026-01-22 02:27:35.83	343.58	19.06	-29.6	-30.4	14.2	2.20e-06	0	44	0	336592896	20	3940
2026-01-22 02:27:36.83	343.36	19.11	-29.5	-30.2	14.3	7.00e-07	0	44	0	337641472	20	3880
2026-01-22 02:27:37.84	343.15	19.17	-29.6	-30.5	14.0	1.50e-06	0	44	0	339738624	20	3972
2026-01-22 02:27:38.84	342.93	19.23	-29.6	-30.3	14.2	1.50e-06	0	44	0	341835776	20	3923
2026-01-22 02:27:39.84	342.71	19.29	-29.5	-30.1	14.3	7.00e-07	0	44	0	343932928	20	3857
2026-01-22 02:27:40.84	342.50	19.35	-29.5	-30.2	14.2	1.50e-06	0	44	0	346030080	20	3881
2026-01-22 02:27:41.84	342.28	19.40	-29.6	-30.4	14.1	1.50e-06	0	44	0	347078656	20	3945
2026-01-22 02:27:42.85	342.06	19.46	-29.8	-31.0	13.8	3.00e-06	0	44	0	349175808	20	4104
2026-01-22 02:27:43.85	341.84	19.52	-30.0	-31.4	13.5	5.30e-06	0	44	0	351272960	20	4243
2026-01-22 02:27:44.85	341.62	19.57	-30.1	-31.6	13.3	1.14e-05	0	44	0	353370112	20	4315
2026-01-22 02:27:45.86	341.39	19.63	-30.0	-31.5	13.4	1.06e-05	0	44	0	354418688	20	4283
2026-01-22 02:27:46.86	341.17	19.69	-29.8	-31.1	13.8	1.29e-05	0	44	0	356515840	20	4138
2026-01-22 02:27:47.87	340.95	19.74	-29.9	-31.2	13.7	5.41e-05	0	44	0	358612992	20	4166
2026-01-22 02:27:48.87	340.72	19.80	-29.6	-30.3	14.2	5.30e-06	0	44	0	360710144	20	3924
2026-01-22 02:27:49.88	340.49	19.85	-29.6	-30.3	14.2	0.00e+00	0	44	0	362807296	20	3912
2026-01-22 02:27:50.88	340.27	19.91	-29.7	-30.5	14.1	6.48e-05	0	44	0	363855872	20	3977
2026-01-22 02:27:51.88	340.04	19.96	-29.9	-31.1	13.7	3.12e-05	0	44	0	365953024	20	4154
2026-01-22 02:27:52.88	339.82	20.01	-29.8	-31.0	13.8	5.30e-06	0	44	0	368050176	20	4110
2026-01-22 02:27:53.89	339.59	20.07	-29.7	-30.6	14.0	1.50e-06	0	44	0	370147328	20	3994
2026-01-22 02:27:54.89	339.36	20.12	-29.7	-30.5	14.1	7.00e-07	0	44	0	372244480	20	3979
2026-01-22 02:27:55.89	339.13	20.17	-29.5	-30.1	14.4	7.00e-07	0	44	0	373293056	20	3851
2026-01-22 02:27:56.90	338.89	20.23	-29.4	-29.9	14.5	7.00e-07	0	44	0	375390208	20	3810
2026-01-22 02:27:57.91	338.66	20.28	-29.6	-30.3	14.3	0.00e+00	0	44	0	377487360	20	3893
2026-01-22 02:27:58.90	338.43	20.33	-29.4	-29.9	14.6	0.00e+00	0	44	0	379584512	20	3789
2026-01-22 02:27:59.91	338.20	20.38	-29.3	-30.0	14.9	1.50e-06	0	44	0	381681664	19	3913
2026-01-22 02:28:00.90	337.96	20.43	-29.5	-30.6	14.5	2.52e-04	0	44	0	382730240	19	4089
2026-01-22 02:28:01.91	337.73	20.48	-29.5	-30.6	14.5	0.00e+00	0	44	0	384827392	19	4067
2026-01-22 02:28:02.91	337.49	20.53	-29.5	-31.0	14.6	0.00e+00	0	44	0	386924544	18	4273
2026-01-22 02:28:03.92	337.25	20.58	-29.3	-30.4	14.9	0.00e+00	0	44	0	389021696	18	4112
2026-01-22 02:28:04.92	337.02	20.63	-29.1	-30.0	15.1	0.00e+00	0	44	0	391118848	18	3989
2026-01-22 02:28:05.93	336.78	20.68	-29.0	-29.8	15.3	4.04e-04	0	44	0	392167424	18	3944
2026-01-22 02:28:06.93	336.54	20.73	-29.0	-29.8	15.3	0.00e+00	0	44	0	394264576	18	3939
2026-01-22 02:28:07.93	336.30	20.78	-29.1	-30.1	15.1	0.00e+00	0	44	0	396361728	18	4009
2026-01-22 02:28:08.94	336.06	20.82	-29.4	-30.7	14.8	5.11e-05	0	44	0	398458880	18	4185
2026-01-22 02:28:09.94	335.82	20.87	-29.4	-30.7	14.8	7.00e-07	0	44	0	400556032	18	4187
2026-01-22 02:28:10.94	335.58	20.92	-29.4	-30.7	14.8	0.00e+00	0	44	0	401604608	18	4179
2026-01-22 02:28:11.94	335.34	20.96	-29.3	-30.4	15.0	3.34e-04	0	44	0	403701760	18	4104
2026-01-22 02:28:12.94	335.09	21.01	-29.2	-30.3	15.0	5.44e-04	0	44	0	405798912	18	4091
2026-01-22 02:28:13.95	334.85	21.05	-29.3	-30.4	15.0	0.00e+00	0	44	0	407896064	18	4098
2026-01-22 02:28:14.94	334.61	21.10	-29.2	-30.2	15.1	8.02e-04	0	44	0	408944640	18	4057
2026-01-22 02:28:15.95	334.36	21.14	-29.3	-30.5	14.9	5.71e-04	0	44	0	411041792	18	4143
2026-01-22 02:28:16.95	334.11	21.19	-29.4	-30.9	14.7	0.00e+00	0	44	0	413138944	18	4238
2026-01-22 02:28:17.96	333.86	21.23	-29.6	-30.8	14.4	3.07e-04	0	44	0	415236096	19	4112
2026-01-22 02:28:18.96	333.62	21.27	-29.5	-30.5	14.6	2.37e-04	0	44	0	417333248	19	4045
2026-01-22 02:28:19.96	333.37	21.31	-29.3	-30.0	15.0	0.00e+00	0	44	0	418381824	19	3889
2026-01-22 02:28:20.96	333.12	21.35	-29.2	-30.3	15.0	0.00e+00	0	44	0	420478976	18	4077
2026-01-22 02:28:21.97	332.87	21.40	-29.0	-29.7	15.4	4.64e-04	0	44	0	422576128	18	3896
2026-01-22 02:28:22.97	332.62	21.44	-28.9	-29.4	15.6	0.00e+00	0	44	0	424673280	18	3841
2026-01-22 02:28:23.98	332.37	21.48	-28.9	-30.1	15.5	6.87e-04	0	44	0	426770432	17	4104
2026-01-22 02:28:24.98	332.12	21.52	-28.9	-30.0	15.5	7.98e-04	0	44	0	427819008	17	4087
2026-01-22 02:28:25.98	331.87	21.56	-29.1	-29.9	15.3	0.00e+00	0	44	0	429916160	18	3977
2026-01-22 02:28:26.99	331.61	21.59	-29.2	-30.2	15.1	6.34e-04	0	44	0	432013312	18	4054
2026-01-22 02:28:27.99	331.36	21.63	-29.1	-30.0	15.2	5.19e-04	0	44	0	434110464	18	3980
2026-01-22 02:28:28.99	331.10	21.67	-28.8	-29.2	15.7	0.00e+00	0	44	0	436207616	18	3789
2026-01-22 02:28:29.99	330.85	21.71	-28.9	-29.9	15.6	4.76e-04	0	44	0	437256192	17	4047
2026-01-22 02:28:31.00	330.59	21.74	-28.6	-29.4	15.9	6.17e-04	0	44	0	439353344	17	3912
2026-01-22 02:28:32.00	330.34	21.78	-28.6	-29.3	15.9	0.00e+00	0	44	0	441450496	17	3894
2026-01-22 02:28:33.01	330.08	21.81	-28.9	-30.0	15.5	9.92e-04	0	44	0	443547648	17	4084
2026-01-22 02:28:34.00	329.83	21.85	-28.9	-30.1	15.4	1.14e-03	0	44	0	445644800	17	4111
2026-01-22 02:28:35.01	329.57	21.88	-29.2	-30.3	15.1	0.00e+00	0	44	0	446693376	18	4056
2026-01-22 02:28:36.01	329.31	21.92	-29.3	-30.3	15.0	1.13e-03	0	44	0	448790528	18	4080
2026-01-22 02:28:37.01	329.05	21.95	-29.6	-30.6	14.5	1.12e-03	0	44	0	450887680	19	4072
2026-01-22 02:28:38.01	328.79	21.98	-29.6	-30.7	14.5	1.50e-06	0	44	0	452984832	19	4078
2026-01-22 02:28:39.01	328.53	22.01	-29.9	-31.4	14.1	4.00e-04	0	44	0	454033408	19	4286
2026-01-22 02:28:40.01	328.27	22.04	-29.8	-31.2	14.2	1.65e-04	0	44	0	456130560	19	4243
2026-01-22 02:28:41.02	328.01	22.07	-29.9	-31.2	13.8	1.50e-06	0	44	0	458227712	20	4143
2026-01-22 02:28:42.02	327.75	22.10	-30.1	-31.7	13.4	1.12e-04	0	44	0	460324864	20	4324
2026-01-22 02:28:43.01	327.49	22.13	-30.5	-32.7	12.9	1.89e-04	0	44	0	462422016	20	4623
2026-01-22 02:28:44.02	327.23	22.16	-30.6	-32.6	12.6	9.46e-05	0	44	0	464519168	21	4505
2026-01-22 02:28:45.03	326.96	22.19	-30.7	-32.7	12.5	1.32e-04	0	44	0	465567744	21	4557
2026-01-22 02:28:46.03	326.70	22.22	-30.5	-32.3	12.7	4.13e-04	0	44	0	467664896	21	4422
2026-01-22 02:28:47.03	326.43	22.25	-30.3	-31.7	13.1	6.40e-05	0	44	0	469762048	21	4227
2026-01-22 02:28:48.03	326.17	22.27	-30.2	-32.0	13.3	3.32e-04	0	44	0	471859200	20	4396
2026-01-22 02:28:49.03	325.91	22.30	-30.0	-31.4	13.7	6.10e-06	0	44	0	472907776	20	4213
2026-01-22 02:28:50.03	325.64	22.32	-29.9	-31.2	13.8	8.30e-06	0	44	0	475004928	20	4153
2026-01-22 02:28:51.03	325.38	22.35	-30.1	-31.7	13.5	3.23e-04	0	44	0	477102080	20	4326
2026-01-22 02:28:52.03	325.11	22.37	-30.3	-32.2	13.1	2.13e-05	0	44	0	479199232	20	4486
2026-01-22 02:28:53.03	324.85	22.39	-30.2	-31.9	13.3	2.44e-05	0	44	0	481296384	20	4384
2026-01-22 02:28:54.03	324.58	22.42	-30.2	-31.9	13.3	1.27e-04	0	44	0	482344960	20	4387
2026-01-22 02:28:55.03	324.31	22.44	-30.2	-31.9	13.3	1.37e-05	0	44	0	484442112	20	4397
2026-01-22 02:28:56.04	324.04	22.46	-30.1	-31.7	13.4	1.52e-05	0	44	0	486539264	20	4312
2026-01-22 02:28:57.05	323.77	22.48	-30.1	-31.6	13.5	2.21e-05	0	44	0	488636416	20	4279
2026-01-22 02:28:58.05	323.51	22.50	-30.0	-31.4	13.7	7.60e-06	0	44	0	490733568	20	4222
2026-01-22 02:28:59.06	323.23	22.52	-30.3	-32.2	13.2	2.21e-05	0	44	0	491782144	20	4471
2026-01-22 02:29:00.06	322.97	22.54	-30.3	-32.2	13.2	2.82e-05	0	44	0	493879296	20	4465
2026-01-22 02:29:01.06	322.70	22.55	-30.7	-32.8	12.4	6.33e-05	0	44	0	495976448	21	4590
2026-01-22 02:29:02.07	322.43	22.57	-30.6	-32.4	12.7	9.30e-05	0	44	0	498073600	21	4449
2026-01-22 02:29:03.07	322.16	22.59	-30.8	-33.1	12.2	1.89e-04	0	44	0	499122176	21	4688
2026-01-22 02:29:04.07	321.89	22.60	-30.6	-32.4	12.7	2.23e-04	0	44	0	501219328	21	4449
2026-01-22 02:29:05.07	321.62	22.62	-30.4	-32.0	12.9	8.46e-05	0	44	0	503316480	21	4313
2026-01-22 02:29:06.08	321.34	22.63	-30.3	-31.7	13.2	3.05e-05	0	44	0	505413632	21	4214
2026-01-22 02:29:07.09	321.07	22.65	-30.4	-32.4	13.0	4.82e-04	0	44	0	507510784	20	4530
2026-01-22 02:29:08.10	320.80	22.66	-30.5	-32.2	12.8	4.19e-05	0	44	0	509607936	21	4400
2026-01-22 02:29:09.10	320.53	22.67	-30.5	-32.4	12.6	9.15e-05	0	44	0	510656512	21	4450
2026-01-22 02:29:10.10	320.26	22.69	-30.7	-32.9	12.3	1.66e-04	0	44	0	512753664	21	4619
2026-01-22 02:29:11.10	319.98	22.70	-31.0	-33.3	11.7	2.72e-04	0	44	0	514850816	22	4655
2026-01-22 02:29:12.11	319.71	22.71	-30.9	-33.4	12.0	3.74e-04	0	44	0	516947968	21	4801
2026-01-22 02:29:13.11	319.44	22.72	-31.1	-33.5	11.6	6.09e-04	0	44	0	517996544	22	4754
2026-01-22 02:29:14.12	319.16	22.73	-31.3	-34.2	10.9	1.43e-03	0	44	0	520093696	22	5030
2026-01-22 02:29:15.13	318.89	22.73	-31.2	-33.7	11.5	3.41e-03	0	44	0	522190848	22	4805
2026-01-22 02:29:16.13	318.62	22.74	-31.0	-33.1	11.9	5.65e-04	0	44	0	524288000	22	4609
2026-01-22 02:29:17.14	318.34	22.75	-31.0	-33.1	11.9	3.83e-04	0	44	0	526385152	22	4606
2026-01-22 02:29:18.14	318.07	22.76	-31.1	-33.5	11.5	2.26e-03	0	44	0	527433728	22	4755
2026-01-22 02:29:19.15	317.79	22.76	-31.1	-33.5	11.6	6.18e-04	0	44	0	529530880	22	4738
2026-01-22 02:29:20.15	317.52	22.77	-31.1	-33.5	11.5	4.95e-04	0	44	0	531628032	22	4763
2026-01-22 02:29:21.16	317.25	22.77	-31.3	-34.2	11.1	1.12e-03	0	44	0	533725184	22	5023
2026-01-22 02:29:22.17	316.97	22.77	-31.3	-34.3	10.9	1.57e-03	0	44	0	535822336	22	5072
2026-01-22 02:29:23.16	316.70	22.78	-31.2	-33.9	11.2	1.46e-03	0	44	0	536870912	22	4919
2026-01-22 02:29:24.17	316.42	22.78	-31.1	-33.6	11.4	9.63e-04	0	44	0	538968064	22	4785
2026-01-22 02:29:25.17	316.15	22.78	-31.0	-33.3	11.7	2.33e-03	0	44	0	541065216	22	4664
2026-01-22 02:29:26.17	315.88	22.78	-30.8	-32.7	12.1	3.02e-04	0	44	0	543162368	22	4473
2026-01-22 02:29:27.18	315.60	22.78	-30.7	-32.9	12.3	1.84e-04	0	44	0	545259520	21	4624
2026-01-22 02:29:28.18	315.33	22.78	-30.4	-31.9	12.9	8.31e-05	0	44	0	546308096	21	4286
2026-01-22 02:29:29.19	315.05	22.78	-30.5	-32.2	12.7	6.10e-05	0	44	0	548405248	21	4389
2026-01-22 02:29:30.19	314.78	22.78	-30.7	-32.8	12.4	1.27e-04	0	44	0	550502400	21	4590
2026-01-22 02:29:31.19	314.51	22.77	-30.5	-32.2	12.7	8.85e-05	0	44	0	552599552	21	4394
2026-01-22 02:29:32.19	314.24	22.77	-30.3	-31.8	13.0	5.11e-05	0	44	0	554696704	21	4253
2026-01-22 02:29:33.19	313.96	22.76	-30.3	-32.2	13.1	2.36e-05	0	44	0	555745280	20	4480
2026-01-22 02:29:34.19	313.69	22.76	-30.4	-32.6	12.8	4.57e-05	0	44	0	557842432	20	4609
2026-01-22 02:29:35.19	313.42	22.75	-30.5	-32.3	12.7	7.24e-05	0	44	0	559939584	21	4417
2026-01-22 02:29:36.19	313.15	22.75	-30.3	-31.9	12.9	6.56e-05	0	44	0	562036736	21	4283
2026-01-22 02:29:37.20	312.87	22.74	-30.3	-31.8	13.0	3.66e-05	0	44	0	564133888	21	4270
2026-01-22 02:29:38.21	312.60	22.73	-30.3	-31.8	12.9	3.58e-05	0	44	0	565182464	21	4256
2026-01-22 02:29:39.21	312.32	22.72	-30.3	-31.8	13.0	3.28e-05	0	44	0	567279616	21	4251
2026-01-22 02:29:40.21	312.05	22.71	-30.3	-31.7	13.1	4.27e-05	0	44	0	569376768	21	4225
2026-01-22 02:29:41.21	311.78	22.71	-30.3	-31.6	13.1	4.04e-05	0	44	0	571473920	21	4200
2026-01-22 02:29:42.22	311.50	22.69	-30.5	-32.2	12.8	5.56e-05	0	44	0	572522496	21	4378
2026-01-22 02:29:43.22	311.23	22.68	-30.2	-31.3	13.4	2.21e-05	0	44	0	574619648	21	4097
2026-01-22 02:29:44.22	310.96	22.67	-30.0	-31.0	13.6	7.60e-06	0	44	0	576716800	21	4009
2026-01-22 02:29:45.23	310.69	22.66	-29.8	-30.8	14.0	5.30e-06	0	44	0	578813952	20	4040
2026-01-22 02:29:46.23	310.42	22.65	-29.6	-30.4	14.2	1.50e-06	0	44	0	580911104	20	3934
2026-01-22 02:29:47.22	310.15	22.63	-29.6	-30.4	14.3	7.00e-07	0	44	0	583008256	20	3921
2026-01-22 02:29:48.23	309.88	22.62	-29.8	-30.8	14.0	1.50e-06	0	44	0	584056832	20	4046
2026-01-22 02:29:49.23	309.61	22.60	-29.9	-31.0	13.9	7.00e-07	0	44	0	586153984	20	4106
2026-01-22 02:29:50.24	309.33	22.59	-30.1	-31.6	13.5	6.80e-06	0	44	0	588251136	20	4290
2026-01-22 02:29:51.24	309.06	22.57	-30.0	-31.5	13.5	1.06e-05	0	44	0	590348288	20	4273
2026-01-22 02:29:52.24	308.80	22.55	-30.0	-31.3	13.7	3.00e-06	0	44	0	591396864	20	4171
2026-01-22 02:29:53.25	308.52	22.53	-29.9	-31.2	13.7	6.10e-06	0	44	0	593494016	20	4144
2026-01-22 02:29:54.25	308.26	22.51	-29.4	-29.9	14.5	1.50e-06	0	44	0	595591168	20	3778
2026-01-22 02:29:55.24	307.99	22.50	-29.5	-29.9	14.5	7.00e-07	0	44	0	597688320	20	3795
2026-01-22 02:29:56.24	307.72	22.48	-29.5	-30.1	14.5	7.00e-07	0	44	0	599785472	20	3846
2026-01-22 02:29:57.25	307.45	22.45	-29.5	-30.1	14.5	0.00e+00	0	44	0	600834048	20	3829
2026-01-22 02:29:58.25	307.18	22.43	-29.4	-29.7	14.7	0.00e+00	0	44	0	602931200	20	3738
2026-01-22 02:29:59.26	306.91	22.41	-29.3	-29.6	14.8	0.00e+00	0	44	0	605028352	20	3720
2026-01-22 02:30:00.26	306.65	22.39	-29.3	-29.6	14.8	7.00e-07	0	44	0	607125504	20	3708
2026-01-22 02:30:01.26	306.38	22.37	-29.2	-29.7	15.1	2.20e-06	0	44	0	609222656	19	3811
2026-01-22 02:30:02.26	306.12	22.34	-29.1	-29.5	15.2	0.00e+00	0	44	0	610271232	19	3770
2026-01-22 02:30:03.26	305.85	22.32	-29.1	-29.6	15.1	0.00e+00	0	44	0	612368384	19	3791
2026-01-22 02:30:04.26	305.59	22.29	-29.0	-29.3	15.3	1.50e-06	0	44	0	614465536	19	3710
2026-01-22 02:30:05.27	305.32	22.27	-29.0	-29.2	15.3	0.00e+00	0	44	0	616562688	19	3694
2026-01-22 02:30:06.28	305.05	22.24	-29.1	-29.4	15.3	0.00e+00	0	44	0	618659840	19	3736
2026-01-22 02:30:07.28	304.79	22.21	-29.0	-29.3	15.3	0.00e+00	0	44	0	619708416	19	3726
2026-01-22 02:30:08.28	304.53	22.19	-29.1	-29.4	15.2	0.00e+00	0	44	0	621805568	19	3743
2026-01-22 02:30:09.28	304.26	22.16	-29.2	-29.8	15.0	7.00e-07	0	44	0	623902720	19	3841
2026-01-22 02:30:10.28	304.00	22.13	-29.3	-30.1	14.8	2.20e-06	0	44	0	625999872	19	3927
2026-01-22 02:30:11.28	303.74	22.10	-29.3	-30.0	14.9	1.50e-06	0	44	0	628097024	19	3890
2026-01-22 02:30:12.28	303.48	22.07	-29.1	-29.6	15.1	0.00e+00	0	44	0	629145600	19	3789
2026-01-22 02:30:13.28	303.22	22.04	-29.3	-30.1	14.8	0.00e+00	0	44	0	631242752	19	3922
2026-01-22 02:30:14.29	302.96	22.01	-29.3	-29.9	15.0	0.00e+00	0	44	0	633339904	19	3874
2026-01-22 02:30:15.29	302.70	21.97	-29.1	-29.4	15.2	0.00e+00	0	44	0	635437056	19	3740
2026-01-22 02:30:16.30	302.43	21.94	-28.8	-29.2	15.7	7.00e-07	0	44	0	636485632	18	3768
2026-01-22 02:30:17.29	302.18	21.91	-28.9	-29.4	15.5	3.50e-05	0	44	0	638582784	18	3840
2026-01-22 02:30:18.30	301.92	21.88	-28.9	-29.4	15.5	0.00e+00	0	44	0	640679936	18	3825
2026-01-22 02:30:19.30	301.66	21.84	-28.9	-29.6	15.5	2.20e-06	0	44	0	642777088	18	3870
2026-01-22 02:30:20.30	301.40	21.81	-28.8	-29.3	15.6	0.00e+00	0	44	0	644874240	18	3798
2026-01-22 02:30:21.31	301.15	21.77	-29.1	-30.0	15.1	0.00e+00	0	44	0	645922816	18	3999
2026-01-22 02:30:22.31	300.89	21.73	-29.3	-30.5	14.8	1.50e-06	0	44	0	648019968	18	4133
2026-01-22 02:30:23.32	300.63	21.70	-29.5	-31.0	14.6	0.00e+00	0	44	0	650117120	18	4265
2026-01-22 02:30:24.32	300.38	21.66	-29.6	-30.8	14.3	2.74e-05	0	44	0	652214272	19	4143
2026-01-22 02:30:25.33	300.12	21.62	-29.7	-31.0	14.2	7.00e-07	0	44	0	654311424	19	4187
2026-01-22 02:30:26.33	299.87	21.59	-29.4	-30.2	14.7	1.50e-06	0	44	0	655360000	19	3951
2026-01-22 02:30:27.34	299.61	21.55	-29.4	-30.9	14.6	4.28e-04	0	44	0	657457152	18	4241
2026-01-22 02:30:28.34	299.36	21.51	-29.4	-30.2	14.7	0.00e+00	0	44	0	659554304	19	3954
2026-01-22 02:30:29.34	299.11	21.47	-29.2	-30.3	14.9	0.00e+00	0	44	0	661651456	18	4087
2026-01-22 02:30:30.35	298.86	21.43	-29.4	-30.8	14.6	3.46e-04	0	44	0	663748608	18	4231
2026-01-22 02:30:31.36	298.60	21.39	-29.5	-30.6	14.4	7.00e-07	0	44	0	664797184	19	4073
2026-01-22 02:30:32.35	298.36	21.34	-29.7	-31.1	14.2	2.20e-06	0	44	0	666894336	19	4220
2026-01-22 02:30:33.36	298.11	21.30	-29.7	-30.9	14.2	1.50e-06	0	44	0	668991488	19	4162
2026-01-22 02:30:34.37	297.86	21.26	-30.0	-31.3	13.6	7.60e-06	0	44	0	671088640	20	4200
2026-01-22 02:30:35.37	297.61	21.22	-30.0	-31.3	13.6	1.14e-05	0	44	0	673185792	20	4184
2026-01-22 02:30:36.38	297.36	21.17	-30.2	-32.0	13.2	1.75e-05	0	44	0	674234368	20	4432
2026-01-22 02:30:37.38	297.11	21.13	-30.3	-32.1	13.1	3.12e-05	0	44	0	676331520	20	4463
2026-01-22 02:30:38.39	296.87	21.09	-30.4	-32.6	12.8	6.48e-05	0	44	0	678428672	20	4617
2026-01-22 02:30:39.39	296.62	21.04	-30.4	-32.5	12.8	7.01e-05	0	44	0	680525824	20	4588
2026-01-22 02:30:40.39	296.38	21.00	-30.4	-32.4	12.9	5.34e-05	0	44	0	682622976	20	4548
2026-01-22 02:30:41.39	296.14	20.95	-30.3	-32.3	12.9	7.24e-05	0	44	0	683671552	20	4509
2026-01-22 02:30:42.39	295.89	20.90	-30.2	-31.9	13.2	5.34e-05	0	44	0	685768704	20	4395
2026-01-22 02:30:43.40	295.65	20.86	-30.0	-31.6	13.4	1.83e-05	0	44	0	687865856	20	4287
2026-01-22 02:30:44.40	295.41	20.81	-30.1	-31.6	13.3	1.67e-05	0	44	0	689963008	20	4314
2026-01-22 02:30:45.39	295.17	20.76	-30.1	-31.6	13.3	2.28e-05	0	44	0	692060160	20	4306
2026-01-22 02:30:46.39	294.93	20.72	-30.0	-31.5	13.5	1.22e-05	0	44	0	693108736	20	4257
2026-01-22 02:30:47.40	294.69	20.67	-30.1	-31.7	13.2	1.83e-05	0	44	0	695205888	20	4334
2026-01-22 02:30:48.40	294.45	20.62	-30.3	-32.1	13.0	3.50e-05	0	44	0	697303040	20	4475
2026-01-22 02:30:49.40	294.22	20.57	-30.4	-32.5	12.7	4.65e-05	0	44	0	699400192	20	4612
2026-01-22 02:30:50.41	293.98	20.52	-30.3	-32.4	12.8	5.95e-05	0	44	0	700448768	20	4578
2026-01-22 02:30:51.42	293.74	20.47	-30.2	-32.1	13.0	1.52e-04	0	44	0	702545920	20	4463
2026-01-22 02:30:52.43	293.50	20.42	-30.2	-32.1	13.0	3.73e-05	0	44	0	704643072	20	4450
2026-01-22 02:30:53.43	293.27	20.37	-30.2	-32.1	13.0	2.61e-04	0	44	0	706740224	20	4466
2026-01-22 02:30:54.44	293.03	20.31	-30.1	-31.8	13.3	3.57e-04	0	44	0	708837376	20	4371
2026-01-22 02:30:55.45	292.80	20.26	-29.9	-31.2	13.6	1.14e-05	0	44	0	709885952	20	4174
2026-01-22 02:30:56.46	292.56	20.21	-29.8	-31.4	13.9	6.40e-04	0	44	0	711983104	19	4312
2026-01-22 02:30:57.46	292.33	20.16	-29.7	-31.1	14.0	8.57e-04	0	44	0	714080256	19	4242
2026-01-22 02:30:58.47	292.10	20.10	-29.7	-31.2	13.9	7.00e-07	0	44	0	716177408	19	4268
2026-01-22 02:30:59.47	291.87	20.05	-29.8	-31.4	13.8	9.67e-04	0	44	0	718274560	19	4327
2026-01-22 02:31:00.47	291.64	20.00	-29.8	-31.5	13.8	5.79e-04	0	44	0	719323136	19	4354
2026-01-22 02:31:01.47	291.42	19.94	-30.0	-31.6	13.3	1.14e-05	0	44	0	721420288	20	4295
2026-01-22 02:31:02.47	291.19	19.89	-30.2	-32.0	13.1	9.51e-04	0	44	0	723517440	20	4431
2026-01-22 02:31:03.47	290.96	19.84	-30.2	-32.1	13.0	1.20e-03	0	44	0	725614592	20	4458
2026-01-22 02:31:04.47	290.74	19.78	-30.3	-32.4	12.8	4.27e-05	0	44	0	727711744	20	4572
2026-01-22 02:31:05.47	290.51	19.73	-30.6	-32.7	12.3	1.65e-03	0	44	0	728760320	21	4568
2026-01-22 02:31:06.48	290.29	19.67	-30.6	-32.8	12.3	1.84e-03	0	44	0	730857472	21	4614
2026-01-22 02:31:07.48	290.07	19.61	-30.7	-32.9	12.0	3.10e-04	0	44	0	732954624	21	4670
2026-01-22 02:31:08.47	289.85	19.56	-30.5	-32.6	12.3	1.37e-03	0	44	0	735051776	21	4543
2026-01-22 02:31:09.48	289.62	19.50	-30.6	-32.7	12.2	6.42e-04	0	44	0	737148928	21	4580
2026-01-22 02:31:10.48	289.40	19.44	-30.5	-32.5	12.3	1.52e-04	0	44	0	738197504	21	4504
2026-01-22 02:31:11.49	289.18	19.39	-30.6	-32.6	12.4	2.15e-04	0	44	0	740294656	21	4554
2026-01-22 02:31:12.49	288.96	19.33	-30.8	-33.3	11.7	4.14e-04	0	44	0	742391808	21	4794
2026-01-22 02:31:13.49	288.74	19.27	-31.1	-33.7	11.1	1.03e-03	0	44	0	744488960	22	4887
2026-01-22 02:31:14.49	288.53	19.21	-31.3	-34.5	10.6	2.59e-03	0	44	0	746586112	22	5181
2026-01-22 02:31:15.49	288.31	19.15	-31.4	-34.3	10.3	6.61e-03	0	44	0	747634688	23	5024
2026-01-22 02:31:16.49	288.10	19.10	-31.4	-34.4	10.2	5.46e-03	0	44	0	749731840	23	5058
2026-01-22 02:31:17.50	287.88	19.04	-31.3	-33.9	10.5	3.52e-03	0	44	0	751828992	23	4880
2026-01-22 02:31:18.50	287.67	18.98	-31.2	-34.1	10.8	3.24e-03	0	44	0	753926144	22	5045
2026-01-22 02:31:19.50	287.45	18.92	-31.0	-33.5	11.3	1.95e-03	0	44	0	754974720	22	4784
2026-01-22 02:31:20.50	287.24	18.86	-30.6	-32.2	12.2	7.19e-04	0	44	0	757071872	22	4322
2026-01-22 02:31:21.50	287.03	18.80	-30.1	-31.2	13.1	6.86e-05	0	44	0	759169024	21	4120
2026-01-22 02:31:22.50	286.82	18.74	-29.9	-30.7	13.5	1.22e-05	0	44	0	761266176	21	3959
2026-01-22 02:31:23.50	286.61	18.68	-29.7	-30.6	13.8	6.80e-06	0	44	0	763363328	20	4011
2026-01-22 02:31:24.50	286.40	18.62	-29.5	-30.2	14.1	2.20e-06	0	44	0	764411904	20	3887
2026-01-22 02:31:25.50	286.19	18.55	-29.3	-29.6	14.4	1.50e-06	0	44	0	766509056	20	3748
2026-01-22 02:31:26.51	285.99	18.49	-29.3	-30.2	14.3	1.94e-04	0	44	0	768606208	19	3995
2026-01-22 02:31:27.51	285.78	18.43	-29.4	-31.1	14.2	2.70e-04	0	44	0	770703360	18	4330
2026-01-22 02:31:28.51	285.57	18.37	-29.4	-30.9	14.3	1.50e-06	0	44	0	772800512	18	4281
2026-01-22 02:31:29.52	285.37	18.31	-29.5	-31.1	14.2	3.13e-04	0	44	0	773849088	18	4339
2026-01-22 02:31:30.52	285.16	18.25	-29.7	-31.1	13.9	2.43e-04	0	44	0	775946240	19	4239
2026-01-22 02:31:31.52	284.96	18.18	-29.9	-31.6	13.6	6.10e-06	0	44	0	778043392	19	4405
2026-01-22 02:31:32.52	284.76	18.12	-29.9	-31.8	13.5	7.60e-06	0	44	0	780140544	19	4460
2026-01-22 02:31:33.53	284.56	18.06	-30.0	-31.7	13.2	2.51e-04	0	44	0	782237696	20	4337
2026-01-22 02:31:34.52	284.36	17.99	-29.8	-31.1	13.5	1.52e-05	0	44	0	783286272	20	4166
2026-01-22 02:31:35.52	284.16	17.93	-29.7	-31.3	13.8	8.30e-06	0	44	0	785383424	19	4304
2026-01-22 02:31:36.52	283.96	17.87	-29.8	-31.3	13.7	6.10e-06	0	44	0	787480576	19	4318
2026-01-22 02:31:37.52	283.76	17.80	-29.9	-31.8	13.5	8.30e-06	0	45	0	789577728	19	4450
2026-01-22 02:31:38.53	283.56	17.74	-30.0	-31.5	13.2	2.05e-05	0	44	0	791674880	20	4298
2026-01-22 02:31:39.53	283.37	17.68	-30.0	-31.6	13.2	1.52e-05	0	44	0	792723456	20	4319
2026-01-22 02:31:40.54	283.17	17.61	-30.2	-32.2	12.8	3.66e-05	0	44	0	794820608	20	4505
2026-01-22 02:31:41.54	282.98	17.55	-30.3	-32.5	12.6	7.17e-05	0	44	0	796917760	20	4609
2026-01-22 02:31:42.54	282.78	17.48	-30.6	-32.7	12.0	3.29e-04	0	45	0	799014912	21	4613
2026-01-22 02:31:43.55	282.59	17.42	-30.8	-33.4	11.5	4.66e-04	0	44	0	800063488	21	4861
2026-01-22 02:31:44.56	282.40	17.35	-31.0	-33.4	11.2	2.94e-03	0	44	0	802160640	22	4772
2026-01-22 02:31:45.55	282.21	17.29	-30.7	-33.2	11.7	8.54e-04	0	44	0	804257792	21	4774
2026-01-22 02:31:46.55	282.02	17.22	-30.7	-33.3	11.7	4.42e-04	0	44	0	806354944	21	4832
2026-01-22 02:31:47.55	281.83	17.16	-30.6	-32.7	12.1	9.28e-04	0	44	0	808452096	21	4600
2026-01-22 02:31:48.56	281.64	17.09	-30.5	-32.5	12.1	2.35e-04	0	44	0	809500672	21	4546
2026-01-22 02:31:49.55	281.45	17.03	-30.4	-32.2	12.4	2.58e-04	0	44	0	811597824	21	4421
2026-01-22 02:31:50.55	281.26	16.96	-30.0	-31.7	13.1	6.56e-05	0	44	0	813694976	20	4356
2026-01-22 02:31:51.55	281.08	16.89	-29.9	-31.4	13.3	2.23e-04	0	44	0	815792128	20	4252
2026-01-22 02:31:52.55	280.89	16.83	-29.8	-31.1	13.4	5.30e-06	0	44	0	817889280	20	4164
2026-01-22 02:31:53.55	280.71	16.76	-29.8	-31.4	13.6	1.44e-05	0	44	0	818937856	19	4367
2026-01-22 02:31:54.55	280.52	16.70	-29.7	-31.3	13.6	2.01e-04	0	44	0	821035008	19	4332
2026-01-22 02:31:55.55	280.34	16.63	-29.7	-31.1	13.8	6.10e-06	0	44	0	823132160	19	4273
2026-01-22 02:31:56.55	280.16	16.56	-29.5	-30.9	13.9	8.30e-06	0	44	0	825229312	19	4190
2026-01-22 02:31:57.56	279.98	16.50	-29.5	-30.8	14.0	3.80e-06	0	44	0	827326464	19	4179
2026-01-22 02:31:58.56	279.80	16.43	-29.6	-31.0	13.9	6.80e-06	0	44	0	828375040	19	4223
2026-01-22 02:31:59.56	279.62	16.36	-29.7	-31.2	13.8	3.00e-06	0	44	0	830472192	19	4281
2026-01-22 02:32:00.56	279.44	16.30	-29.9	-31.7	13.4	1.22e-05	0	44	0	832569344	19	4441
2026-01-22 02:32:01.57	279.26	16.23	-30.0	-31.7	13.0	1.67e-05	0	44	0	834666496	20	4361
2026-01-22 02:32:02.58	279.08	16.16	-30.3	-32.5	12.5	1.03e-04	0	44	0	836763648	20	4646
2026-01-22 02:32:03.58	278.90	16.09	-30.4	-32.8	12.2	1.93e-04	0	44	0	837812224	20	4734
2026-01-22 02:32:04.59	278.73	16.03	-30.3	-32.7	12.3	1.71e-04	0	44	0	839909376	20	4701
2026-01-22 02:32:05.59	278.55	15.96	-30.4	-32.9	12.2	1.69e-04	0	44	0	842006528	20	4770
2026-01-22 02:32:06.60	278.38	15.89	-30.3	-32.6	12.4	1.94e-04	0	44	0	844103680	20	4683
2026-01-22 02:32:07.60	278.20	15.82	-30.3	-32.4	12.6	1.92e-04	0	44	0	845152256	20	4607
2026-01-22 02:32:08.60	278.03	15.75	-30.2	-32.2	12.7	7.40e-05	0	44	0	847249408	20	4529
2026-01-22 02:32:09.61	277.86	15.69	-30.2	-32.2	12.7	7.62e-05	0	44	0	849346560	20	4523
2026-01-22 02:32:10.61	277.69	15.62	-30.2	-32.0	12.8	5.03e-05	0	44	0	851443712	20	4463
2026-01-22 02:32:11.60	277.52	15.55	-30.2	-32.1	12.7	6.33e-05	0	44	0	853540864	20	4502
2026-01-22 02:32:12.61	277.35	15.48	-30.2	-32.2	12.6	9.76e-05	0	44	0	854589440	20	4537
2026-01-22 02:32:13.61	277.18	15.42	-30.3	-32.4	12.5	1.14e-04	0	44	0	856686592	20	4621
2026-01-22 02:32:14.62	277.01	15.35	-30.4	-32.8	12.2	1.27e-04	0	44	0	858783744	20	4763
2026-01-22 02:32:15.62	276.84	15.28	-30.4	-32.4	12.1	2.83e-04	0	44	0	860880896	21	4509
2026-01-22 02:32:16.63	276.68	15.21	-30.2	-31.8	12.6	1.59e-04	0	44	0	862978048	21	4328
2026-01-22 02:32:17.64	276.51	15.14	-30.2	-31.6	12.7	8.08e-05	0	44	0	864026624	21	4266
2026-01-22 02:32:18.64	276.34	15.07	-30.1	-31.5	12.8	6.94e-05	0	44	0	866123776	21	4223
2026-01-22 02:32:19.64	276.18	15.00	-30.0	-31.2	13.0	3.50e-05	0	44	0	868220928	21	4105
2026-01-22 02:32:20.64	276.02	14.94	-30.0	-31.0	13.1	3.96e-05	0	44	0	870318080	21	4051
2026-01-22 02:32:21.64	275.86	14.87	-30.0	-31.1	13.0	2.82e-05	0	44	0	872415232	21	4098
2026-01-22 02:32:22.65	275.69	14.80	-29.9	-30.8	13.3	2.21e-05	0	44	0	873463808	21	3999
2026-01-22 02:32:23.64	275.53	14.73	-29.7	-30.7	13.6	1.60e-05	0	44	0	875560960	20	4061
2026-01-22 02:32:24.64	275.37	14.66	-29.8	-31.5	13.5	6.10e-06	0	44	0	877658112	19	4370
2026-01-22 02:32:25.65	275.21	14.59	-29.7	-31.3	13.6	1.06e-05	0	44	0	879755264	19	4334
2026-01-22 02:32:26.65	275.05	14.52	-29.7	-31.3	13.6	1.22e-05	0	44	0	881852416	19	4327
2026-01-22 02:32:27.65	274.90	14.46	-29.7	-31.4	13.6	8.30e-06	0	44	0	882900992	19	4344
2026-01-22 02:32:28.65	274.74	14.39	-28.8	-30.4	13.6	5.30e-06	0	44	0	884998144	19	4316
2026-01-22 02:32:29.65	274.58	14.32	-28.7	-29.9	14.0	2.20e-06	0	44	0	887095296	19	4115
2026-01-22 02:32:30.66	274.43	14.25	-29.2	-30.4	14.5	0.00e+00	0	44	0	889192448	18	4143
2026-01-22 02:32:31.66	274.27	14.18	-29.1	-30.1	14.1	0.00e+00	0	44	0	890241024	18	4038
2026-01-22 02:32:32.66	274.12	14.11	-29.0	-30.0	13.8	1.54e-03	0	44	0	892338176	18	4026
2026-01-22 02:32:33.66	273.96	14.04	-29.0	-29.9	14.8	0.00e+00	0	45	0	894435328	18	3982
2026-01-22 02:32:34.67	273.81	13.97	-28.9	-30.2	14.2	0.00e+00	0	44	0	896532480	17	4172
2026-01-22 02:32:35.67	273.66	13.91	-29.0	-30.0	14.7	1.33e-03	0	44	0	898629632	18	4035
2026-01-22 02:32:36.68	273.50	13.84	-29.2	-30.5	14.4	0.00e+00	0	44	0	900726784	18	4164
2026-01-22 02:32:37.68	273.35	13.77	-29.4	-30.8	14.2	0.00e+00	0	44	0	901775360	18	4273
2026-01-22 02:32:38.69	273.20	13.70	-29.6	-30.9	13.8	6.80e-06	0	44	0	903872512	19	4209
2026-01-22 02:32:39.70	273.05	13.63	-29.7	-31.3	13.6	6.80e-06	0	44	0	905969664	19	4336
2026-01-22 02:32:40.70	272.90	13.56	-29.9	-31.9	13.3	1.29e-05	0	44	0	908066816	19	4497
2026-01-22 02:32:41.70	272.76	13.49	-30.0	-31.5	13.0	3.12e-05	0	44	0	909115392	20	4312
2026-01-22 02:32:42.69	272.61	13.42	-30.0	-31.7	12.9	2.82e-05	0	44	0	911212544	20	4366
2026-01-22 02:32:43.69	272.46	13.36	-30.0	-31.7	12.9	5.72e-05	0	44	0	913309696	20	4346
2026-01-22 02:32:44.70	272.32	13.29	-30.0	-31.7	12.9	4.42e-05	0	44	0	915406848	20	4382
2026-01-22 02:32:45.70	272.17	13.22	-30.1	-31.9	12.7	5.03e-05	0	44	0	917504000	20	4433
2026-01-22 02:32:46.70	272.03	13.15	-29.9	-31.4	13.1	2.14e-03	0	44	0	918552576	20	4264
2026-01-22 02:32:47.70	271.88	13.08	-29.7	-31.3	13.6	1.44e-05	0	44	0	920649728	19	4309
2026-01-22 02:32:48.70	271.74	13.01	-29.6	-31.0	13.7	6.80e-06	0	44	0	922746880	19	4228
2026-01-22 02:32:49.71	271.60	12.94	-29.6	-31.0	13.7	1.91e-03	0	44	0	924844032	19	4227
2026-01-22 02:32:50.71	271.46	12.87	-29.7	-31.2	13.6	9.10e-06	0	44	0	926941184	19	4285
2026-01-22 02:32:51.72	271.31	12.80	-29.6	-30.9	13.8	7.60e-06	0	44	0	927989760	19	4187
2026-01-22 02:32:52.72	271.17	12.74	-29.4	-31.1	14.0	1.35e-03	0	44	0	930086912	18	4336
2026-01-22 02:32:53.73	271.03	12.67	-29.7	-31.1	13.7	9.13e-04	0	44	0	932184064	19	4263
2026-01-22 02:32:54.73	270.89	12.60	-29.9	-31.8	13.2	6.10e-06	0	44	0	934281216	19	4485
2026-01-22 02:32:55.73	270.76	12.53	-30.0	-31.8	12.9	4.88e-05	0	44	0	936378368	20	4390
2026-01-22 02:32:56.73	270.62	12.46	-30.1	-31.8	12.8	3.66e-04	0	44	0	937426944	20	4414
2026-01-22 02:32:57.74	270.48	12.39	-30.1	-32.0	12.7	8.46e-05	0	44	0	939524096	20	4459
2026-01-22 02:32:58.75	270.34	12.32	-30.2	-32.1	12.6	1.11e-04	0	44	0	941621248	20	4517
2026-01-22 02:32:59.75	270.21	12.26	-30.3	-32.6	12.3	8.84e-04	0	44	0	943718400	20	4671
2026-01-22 02:33:00.75	270.07	12.19	-30.3	-32.5	12.3	2.11e-04	0	44	0	945815552	20	4648
2026-01-22 02:33:01.75	269.94	12.12	-30.4	-32.7	12.2	1.27e-04	0	44	0	946864128	20	4718
2026-01-22 02:33:02.76	269.80	12.05	-30.3	-32.5	12.3	2.71e-04	0	44	0	948961280	20	4632
2026-01-22 02:33:03.76	269.67	11.98	-30.1	-32.1	12.6	1.27e-04	0	44	0	951058432	20	4509
2026-01-22 02:33:04.77	269.53	11.91	-30.1	-32.1	12.6	1.63e-03	0	44	0	953155584	20	4507
2026-01-22 02:33:05.77	269.40	11.84	-30.1	-32.1	12.6	1.17e-04	0	44	0	954204160	20	4491
2026-01-22 02:33:06.78	269.27	11.78	-30.3	-32.5	12.3	1.34e-04	0	44	0	956301312	20	4661
2026-01-22 02:33:07.78	269.14	11.71	-29.9	-31.5	12.9	2.12e-03	0	44	0	958398464	20	4326
2026-01-22 02:33:08.78	269.01	11.64	-29.8	-31.7	13.2	3.35e-05	0	44	0	960495616	19	4453
2026-01-22 02:33:09.79	268.88	11.57	-29.6	-31.1	13.6	1.60e-05	0	44	0	962592768	19	4281
2026-01-22 02:33:10.79	268.75	11.50	-29.4	-30.6	13.9	2.02e-03	0	44	0	963641344	19	4112
2026-01-22 02:33:11.80	268.62	11.44	-29.4	-31.0	14.0	2.08e-03	0	44	0	965738496	18	4318
2026-01-22 02:33:12.79	268.49	11.37	-29.2	-30.5	14.3	0.00e+00	0	44	0	967835648	18	4163
2026-01-22 02:33:13.79	268.37	11.30	-29.3	-30.8	14.1	2.07e-03	0	44	0	969932800	18	4264
2026-01-22 02:33:14.80	268.24	11.23	-29.2	-30.5	14.3	2.15e-03	0	44	0	972029952	18	4172
2026-01-22 02:33:15.80	268.11	11.16	-29.4	-31.1	14.0	7.00e-07	0	44	0	973078528	18	4346
2026-01-22 02:33:16.79	267.99	11.10	-29.6	-31.1	13.6	2.19e-03	0	44	0	975175680	19	4250
2026-01-22 02:33:17.80	267.86	11.03	-29.8	-31.7	13.2	2.23e-03	0	44	0	977272832	19	4456
2026-01-22 02:33:18.80	267.74	10.96	-29.9	-32.0	13.0	5.18e-05	0	44	0	979369984	19	4562
2026-01-22 02:33:19.80	267.62	10.89	-30.0	-31.8	12.7	5.34e-05	0	44	0	981467136	20	4416
2026-01-22 02:33:20.81	267.49	10.83	-30.4	-32.8	12.0	2.45e-03	0	44	0	982515712	20	4758
2026-01-22 02:33:21.82	267.37	10.76	-30.3	-32.7	12.0	3.50e-04	0	44	0	984612864	20	4737
2026-01-22 02:33:22.82	267.25	10.69	-30.5	-32.7	11.7	2.67e-04	0	44	0	986710016	21	4627
2026-01-22 02:33:23.82	267.13	10.62	-30.4	-32.9	11.9	1.25e-03	0	44	0	988807168	20	4779
2026-01-22 02:33:24.82	267.01	10.56	-30.2	-32.4	12.3	2.99e-04	0	44	0	990904320	20	4603
2026-01-22 02:33:25.82	266.89	10.49	-30.1	-31.9	12.5	5.52e-04	0	44	0	991952896	20	4461
2026-01-22 02:33:26.83	266.76	10.42	-29.9	-31.5	12.8	3.84e-04	0	44	0	994050048	20	4311
2026-01-22 02:33:27.83	266.65	10.35	-30.0	-31.6	12.8	6.33e-05	0	44	0	996147200	20	4346
2026-01-22 02:33:28.83	266.53	10.29	-29.9	-31.5	12.8	3.90e-04	0	44	0	998244352	20	4323
2026-01-22 02:33:29.84	266.41	10.22	-29.9	-32.0	12.9	1.13e-04	0	44	0	1000341504	19	4563
2026-01-22 02:33:30.84	266.29	10.15	-29.9	-31.8	13.0	4.80e-05	0	44	0	1001390080	19	4503
2026-01-22 02:33:31.84	266.17	10.09	-30.1	-32.0	12.5	1.54e-03	0	44	0	1003487232	20	4482
2026-01-22 02:33:32.84	266.06	10.02	-30.0	-31.8	12.5	1.72e-03	0	44	0	1005584384	20	4434
2026-01-22 02:33:33.84	265.94	9.95	-30.0	-31.8	12.6	8.77e-05	0	44	0	1007681536	20	4431
2026-01-22 02:33:34.85	265.83	9.89	-30.0	-32.0	12.5	1.79e-03	0	44	0	1008730112	20	4486
2026-01-22 02:33:35.85	265.71	9.82	-30.0	-31.8	12.6	1.82e-03	0	44	0	1010827264	20	4419
2026-01-22 02:33:36.85	265.60	9.75	-30.1	-32.2	12.3	1.36e-04	0	44	0	1012924416	20	4550
2026-01-22 02:33:37.85	265.48	9.69	-30.2	-32.3	12.2	1.78e-03	0	44	0	1015021568	20	4606
2026-01-22 02:33:38.86	265.37	9.62	-30.2	-32.3	12.2	1.38e-03	0	44	0	1017118720	20	4617
2026-01-22 02:33:39.86	265.26	9.55	-30.2	-32.4	12.2	1.86e-04	0	44	0	1018167296	20	4642
2026-01-22 02:33:40.87	265.15	9.49	-30.3	-32.7	12.0	6.82e-04	0	44	0	1020264448	20	4723
2026-01-22 02:33:41.87	265.03	9.42	-30.4	-32.5	11.8	1.06e-03	0	44	0	1022361600	21	4555
2026-01-22 02:33:42.87	264.92	9.36	-30.6	-32.9	11.4	6.27e-04	0	44	0	1024458752	21	4722
2026-01-22 02:33:43.87	264.81	9.29	-30.6	-33.2	11.2	2.27e-03	0	45	0	1026555904	21	4838
2026-01-22 02:33:44.86	264.70	9.22	-30.8	-33.6	11.0	3.11e-03	0	44	0	1027604480	21	4973
2026-01-22 02:33:45.86	264.59	9.16	-30.6	-33.2	11.2	1.87e-03	0	45	0	1029701632	21	4824
2026-01-22 02:33:46.87	264.48	9.09	-30.5	-32.8	11.5	3.79e-03	0	44	0	1031798784	21	4687
2026-01-22 02:33:47.87	264.38	9.03	-30.5	-32.9	11.4	3.21e-03	0	44	0	1033895936	21	4709
2026-01-22 02:33:48.88	264.27	8.96	-30.5	-32.8	11.5	8.06e-04	0	45	0	1035993088	21	4681
2026-01-22 02:33:49.88	264.16	8.90	-30.5	-32.6	11.6	2.94e-03	0	44	0	1037041664	21	4630
2026-01-22 02:33:50.89	264.05	8.83	-30.5	-32.6	11.6	7.73e-04	0	45	0	1039138816	21	4626
2026-01-22 02:33:51.90	263.94	8.76	-30.5	-32.7	11.6	7.98e-04	0	44	0	1041235968	21	4646
2026-01-22 02:33:52.90	263.84	8.70	-30.6	-33.1	11.3	2.99e-03	0	44	0	1043333120	21	4794
2026-01-22 02:33:53.91	263.73	8.63	-30.6	-33.1	11.2	3.62e-03	0	44	0	1045430272	21	4793
2026-01-22 02:33:54.91	263.63	8.57	-30.6	-33.2	11.2	1.14e-03	0	44	0	1046478848	21	4833
2026-01-22 02:33:55.92	263.52	8.50	-30.7	-33.4	11.0	4.03e-03	0	45	0	1048576000	21	4938
2026-01-22 02:33:56.92	263.42	8.44	-30.7	-33.4	11.0	4.44e-03	0	44	0	1050673152	21	4911
2026-01-22 02:33:57.93	263.31	8.37	-30.8	-33.9	10.6	3.07e-03	0	44	0	1052770304	21	5137
2026-01-22 02:33:58.94	263.21	8.31	-30.9	-34.1	10.5	5.29e-03	0	45	0	1054867456	21	5196
2026-01-22 02:33:59.94	263.11	8.24	-31.0	-33.9	10.3	6.42e-03	0	44	0	1055916032	22	5055
2026-01-22 02:34:00.94	263.00	8.18	-31.1	-34.5	9.8	8.33e-03	0	44	0	1058013184	22	5268
2026-01-22 02:34:01.95	262.90	8.11	-31.1	-34.4	9.9	1.09e-02	0	44	0	1060110336	22	5236
2026-01-22 02:34:02.95	262.80	8.05	-31.1	-34.3	9.9	9.29e-03	0	44	0	1062207488	22	5218
2026-01-22 02:34:03.95	262.70	7.98	-31.0	-34.1	10.1	7.39e-03	0	44	0	1064304640	22	5114
2026-01-22 02:34:04.96	262.60	7.92	-31.1	-34.2	9.9	7.26e-03	0	44	0	1065353216	22	5187
2026-01-22 02:34:05.96	262.50	7.85	-30.9	-33.5	10.5	7.00e-03	0	45	0	1067450368	22	4886
2026-01-22 02:34:06.96	262.40	7.79	-30.7	-33.1	10.8	3.29e-03	0	45	0	1069547520	22	4708
2026-01-22 02:34:07.95	262.30	7.73	-30.6	-32.8	11.0	2.01e-03	0	44	0	1071644672	22	4603
2026-01-22 02:34:08.96	262.20	7.66	-30.6	-32.7	11.1	1.52e-03	0	44	0	1072693248	22	4566
2026-01-22 02:34:09.97	262.10	7.60	-30.6	-32.7	11.1	1.64e-03	0	44	0	1074790400	22	4563
2026-01-22 02:34:10.97	262.01	7.53	-30.4	-32.1	11.5	1.00e-03	0	44	0	1076887552	22	4361
2026-01-22 02:34:11.97	261.91	7.47	-30.4	-32.2	11.4	7.91e-04	0	44	0	1078984704	22	4392
2026-01-22 02:34:12.98	261.81	7.41	-30.4	-32.1	11.5	9.25e-04	0	44	0	1081081856	22	4356
2026-01-22 02:34:13.98	261.71	7.34	-30.4	-32.1	11.5	7.05e-04	0	44	0	1083179008	22	4366
2026-01-22 02:34:14.99	261.62	7.28	-30.5	-32.3	11.3	1.02e-03	0	45	0	1084227584	22	4456
2026-01-22 02:34:15.99	261.52	7.21	-30.4	-32.1	11.5	1.07e-03	0	44	0	1086324736	22	4376
2026-01-22 02:34:16.99	261.43	7.15	-30.5	-32.4	11.2	1.11e-03	0	45	0	1088421888	22	4491
2026-01-22 02:34:17.99	261.33	7.09	-30.7	-32.9	10.8	2.20e-03	0	44	0	1090519040	22	4680
2026-01-22 02:34:19.00	261.24	7.02	-33.2	-45.4	3.8	1.49e+00	0	44	104	1090519040	26	14662
2026-01-22 02:34:20.01	261.14	6.96	-33.5	-45.7	3.8	1.49e+00	0	45	104	1090519040	27	14696

#Closed at: 2026-01-22 02:34:20
#Recorded file [1090 MB]: D:/data/31010_260122_052436.dat