passes_logs/2026/01/22/R2M6_AANII_01/R2M6_AANII_01__20260122_032209_FENGYUN_3D_rec.log

#Pass ID: 20260122_032209_FENGYUN 3D
#Satellite: FENGYUN 3D
#Configuration: FENGYUN 3D
#almurnet v.1.7.20240730
#Start time: 2026-01-22 03:22:08

#Version: 2.2.20231116
#Station: R2M6_AANII_01
#Location: 30.233357 lon 59.946436 lat
#TLE: 1 43010U 17072A   26021.48744220  .00000253  00000+0  14133-3 0  9991
#TLE: 2 43010  98.9948 353.4037 0002485  97.2578 262.8880 14.19697766424177

#Time	Az	El	Level	Level2	SNR	BER	BlckErr	Temp	State	Recorded	gain1	gain2
2026-01-22 03:22:08.58	14.48	6.94	-30.7	-35.0	5.0	8.02e-01	0	42	0	0	21	5886
2026-01-22 03:22:09.58	14.44	7.01	-30.7	-34.9	5.0	8.02e-01	0	42	104	0	21	5833
2026-01-22 03:22:10.58	14.39	7.08	-30.7	-34.9	7.9	6.17e-02	0	42	0	0	21	5830
2026-01-22 03:22:11.58	14.35	7.16	-30.6	-34.6	8.1	5.20e-02	0	42	0	5242880	21	5679
2026-01-22 03:22:12.59	14.30	7.23	-30.6	-34.4	8.3	3.72e-02	0	42	0	10485760	21	5616
2026-01-22 03:22:13.60	14.26	7.31	-30.5	-34.2	8.5	4.61e-02	0	42	0	16777216	21	5503
2026-01-22 03:22:14.60	14.21	7.38	-30.3	-34.0	8.9	2.53e-02	0	42	0	22020096	20	5542
2026-01-22 03:22:15.60	14.17	7.46	-30.3	-34.1	8.9	2.20e-02	0	42	0	28311552	20	5554
2026-01-22 03:22:16.60	14.12	7.53	-30.1	-33.4	9.3	2.05e-02	0	42	0	33554432	20	5292
2026-01-22 03:22:17.61	14.07	7.61	-29.6	-32.1	10.3	5.30e-03	0	42	0	38797312	20	4793
2026-01-22 03:22:18.61	14.03	7.69	-29.2	-31.6	11.1	1.75e-03	0	42	0	45088768	19	4704
2026-01-22 03:22:19.61	13.98	7.76	-28.8	-30.5	11.8	4.08e-04	0	42	0	50331648	19	4357
2026-01-22 03:22:20.61	13.93	7.84	-28.8	-31.4	11.8	1.93e-04	0	42	0	55574528	17	4871
2026-01-22 03:22:21.61	13.88	7.91	-28.7	-31.3	11.9	4.36e-04	0	42	0	61865984	17	4835
2026-01-22 03:22:22.62	13.84	7.99	-28.6	-31.0	12.1	1.67e-04	0	42	0	67108864	17	4720
2026-01-22 03:22:23.62	13.79	8.07	-28.8	-31.5	11.8	2.69e-04	0	42	0	73400320	17	4903
2026-01-22 03:22:24.63	13.74	8.15	-28.7	-31.3	11.9	3.24e-04	0	42	0	78643200	17	4821
2026-01-22 03:22:25.62	13.69	8.22	-28.5	-30.7	12.3	1.51e-04	0	42	0	83886080	17	4640
2026-01-22 03:22:26.63	13.64	8.30	-28.3	-30.1	12.6	6.40e-05	0	42	0	90177536	17	4464
2026-01-22 03:22:27.63	13.59	8.38	-28.2	-30.0	12.8	4.34e-05	0	42	0	95420416	17	4407
2026-01-22 03:22:28.63	13.54	8.46	-28.2	-30.5	12.8	2.74e-05	0	42	0	101711872	16	4674
2026-01-22 03:22:29.63	13.49	8.53	-28.5	-31.1	12.4	6.06e-05	0	42	0	106954752	16	4867
2026-01-22 03:22:30.63	13.44	8.61	-28.3	-30.2	12.6	1.06e-04	0	42	0	112197632	17	4487
2026-01-22 03:22:31.63	13.39	8.69	-27.9	-29.3	13.2	1.25e-05	0	42	0	117440512	17	4211
2026-01-22 03:22:32.63	13.34	8.77	-27.6	-29.1	13.7	5.70e-06	0	42	0	123731968	16	4252
2026-01-22 03:22:33.63	13.29	8.85	-27.4	-28.5	14.0	1.10e-06	0	42	0	128974848	16	4096
2026-01-22 03:22:34.64	13.24	8.93	-27.1	-28.3	14.2	1.10e-06	0	42	0	135266304	15	4166
2026-01-22 03:22:35.64	13.19	9.01	-27.1	-28.9	14.2	2.20e-06	0	42	0	140509184	14	4423
2026-01-22 03:22:36.65	13.14	9.09	-27.1	-28.9	14.2	1.10e-06	0	43	0	146800640	14	4438
2026-01-22 03:22:37.65	13.08	9.17	-27.1	-28.8	14.3	0.00e+00	0	42	0	152043520	14	4394
2026-01-22 03:22:38.66	13.03	9.25	-27.1	-28.9	14.2	0.00e+00	0	42	0	157286400	14	4413
2026-01-22 03:22:39.65	12.98	9.33	-27.0	-28.6	14.4	0.00e+00	0	43	0	163577856	14	4351
2026-01-22 03:22:40.66	12.93	9.41	-27.0	-28.7	14.3	0.00e+00	0	43	0	168820736	14	4368
2026-01-22 03:22:41.66	12.87	9.49	-27.0	-28.7	14.4	0.00e+00	0	43	0	174063616	14	4354
2026-01-22 03:22:42.65	12.82	9.57	-27.1	-28.8	14.3	0.00e+00	0	43	0	180355072	14	4397
2026-01-22 03:22:43.66	12.77	9.65	-27.3	-29.4	13.9	1.10e-06	0	43	0	185597952	14	4578
2026-01-22 03:22:44.66	12.71	9.73	-27.3	-29.4	14.0	0.00e+00	0	43	0	190840832	14	4555
2026-01-22 03:22:45.66	12.66	9.81	-27.1	-28.9	14.3	1.10e-06	0	43	0	197132288	14	4413
2026-01-22 03:22:46.66	12.60	9.90	-26.9	-28.4	14.6	0.00e+00	0	43	0	202375168	14	4282
2026-01-22 03:22:47.66	12.55	9.98	-26.9	-28.9	14.5	0.00e+00	0	43	0	208666624	13	4529
2026-01-22 03:22:48.67	12.49	10.06	-27.0	-29.1	14.4	0.00e+00	0	43	0	213909504	13	4594
2026-01-22 03:22:49.67	12.43	10.14	-26.9	-28.9	14.5	1.10e-06	0	43	0	219152384	13	4553
2026-01-22 03:22:50.67	12.38	10.23	-26.8	-28.8	14.6	0.00e+00	0	43	0	225443840	13	4502
2026-01-22 03:22:51.68	12.32	10.31	-26.9	-28.9	14.5	0.00e+00	0	43	0	230686720	13	4554
2026-01-22 03:22:52.69	12.26	10.40	-26.8	-28.8	14.6	0.00e+00	0	43	0	236978176	13	4516
2026-01-22 03:22:53.69	12.21	10.48	-26.9	-28.9	14.5	0.00e+00	0	43	0	242221056	13	4526
2026-01-22 03:22:54.69	12.15	10.56	-26.9	-28.8	14.6	0.00e+00	0	43	0	247463936	13	4519
2026-01-22 03:22:55.69	12.09	10.65	-27.1	-28.9	14.3	1.10e-06	0	43	0	253755392	14	4413
2026-01-22 03:22:56.70	12.03	10.73	-27.0	-28.7	14.4	0.00e+00	0	43	0	258998272	14	4368
2026-01-22 03:22:57.70	11.97	10.82	-26.7	-28.1	14.8	1.10e-06	0	43	0	264241152	14	4198
2026-01-22 03:22:58.71	11.91	10.90	-26.6	-27.7	15.0	0.00e+00	0	43	0	270532608	14	4098
2026-01-22 03:22:59.71	11.85	10.99	-26.6	-28.2	15.0	0.00e+00	0	43	0	275775488	13	4333
2026-01-22 03:23:00.71	11.79	11.07	-26.7	-28.4	14.2	0.00e+00	0	43	0	282066944	13	4397
2026-01-22 03:23:01.71	11.73	11.16	-26.7	-28.4	14.1	0.00e+00	0	43	0	287309824	13	4386
2026-01-22 03:23:02.71	11.67	11.25	-26.6	-28.3	14.9	0.00e+00	0	43	0	292552704	13	4372
2026-01-22 03:23:03.72	11.61	11.33	-26.7	-28.5	14.7	0.00e+00	0	43	0	298844160	13	4421
2026-01-22 03:23:04.73	11.55	11.42	-26.7	-28.4	14.8	2.29e-04	0	43	0	304087040	13	4399
2026-01-22 03:23:05.73	11.49	11.51	-26.6	-28.2	15.0	0.00e+00	0	43	0	310378496	13	4337
2026-01-22 03:23:06.74	11.42	11.60	-26.5	-28.1	15.0	0.00e+00	0	43	0	315621376	13	4315
2026-01-22 03:23:07.75	11.36	11.68	-26.6	-28.2	15.0	0.00e+00	0	43	0	320864256	13	4339
2026-01-22 03:23:08.75	11.30	11.77	-26.6	-28.3	14.9	0.00e+00	0	43	0	327155712	13	4374
2026-01-22 03:23:09.76	11.23	11.86	-26.6	-28.2	15.0	2.61e-04	0	43	0	332398592	13	4330
2026-01-22 03:23:10.76	11.17	11.95	-26.5	-28.0	15.2	0.00e+00	0	43	0	337641472	13	4272
2026-01-22 03:23:11.75	11.11	12.04	-26.5	-27.9	15.2	0.00e+00	0	43	0	343932928	13	4254
2026-01-22 03:23:12.76	11.04	12.13	-26.5	-28.0	15.1	0.00e+00	0	43	0	349175808	13	4294
2026-01-22 03:23:13.76	10.98	12.21	-26.5	-27.9	15.2	0.00e+00	0	43	0	355467264	13	4262
2026-01-22 03:23:14.76	10.91	12.30	-26.4	-27.8	15.2	0.00e+00	0	43	0	360710144	13	4238
2026-01-22 03:23:15.76	10.85	12.39	-26.5	-27.9	15.2	0.00e+00	0	43	0	365953024	13	4249
2026-01-22 03:23:16.77	10.78	12.48	-26.6	-28.2	15.1	2.10e-04	0	43	0	372244480	13	4342
2026-01-22 03:23:17.78	10.71	12.58	-26.6	-28.1	15.1	0.00e+00	0	43	0	377487360	13	4321
2026-01-22 03:23:18.78	10.64	12.67	-26.4	-27.8	15.3	1.48e-04	0	43	0	383778816	13	4215
2026-01-22 03:23:19.79	10.58	12.76	-26.3	-27.6	15.4	0.00e+00	0	43	0	389021696	13	4165
2026-01-22 03:23:20.80	10.51	12.85	-26.4	-27.7	15.4	0.00e+00	0	43	0	394264576	13	4195
2026-01-22 03:23:21.80	10.44	12.94	-26.3	-28.0	15.5	2.07e-04	0	43	0	400556032	12	4386
2026-01-22 03:23:22.80	10.37	13.03	-26.3	-28.1	15.5	0.00e+00	0	43	0	405798912	12	4407
2026-01-22 03:23:23.81	10.30	13.13	-26.2	-27.8	15.6	0.00e+00	0	43	0	411041792	12	4334
2026-01-22 03:23:24.81	10.23	13.22	-26.1	-27.6	15.7	0.00e+00	0	43	0	417333248	12	4282
2026-01-22 03:23:25.81	10.16	13.31	-26.1	-27.7	15.7	1.57e-04	0	43	0	422576128	12	4303
2026-01-22 03:23:26.82	10.09	13.41	-26.2	-27.9	15.5	0.00e+00	0	43	0	428867584	12	4366
2026-01-22 03:23:27.82	10.02	13.50	-26.2	-27.7	15.6	1.20e-04	0	43	0	434110464	12	4307
2026-01-22 03:23:28.82	9.95	13.59	-26.1	-27.5	15.8	8.12e-05	0	43	0	439353344	12	4251
2026-01-22 03:23:29.82	9.87	13.69	-26.1	-27.5	15.8	0.00e+00	0	43	0	445644800	12	4261
2026-01-22 03:23:30.82	9.80	13.78	-26.0	-27.4	15.9	4.57e-05	0	43	0	450887680	12	4221
2026-01-22 03:23:31.82	9.73	13.87	-26.0	-27.3	15.9	0.00e+00	0	43	0	456130560	12	4209
2026-01-22 03:23:32.82	9.65	13.97	-26.1	-27.6	15.8	0.00e+00	0	44	0	462422016	12	4274
2026-01-22 03:23:33.83	9.58	14.07	-26.0	-27.3	15.9	5.03e-05	0	43	0	467664896	12	4198
2026-01-22 03:23:34.83	9.50	14.16	-25.9	-27.2	16.0	6.80e-06	0	43	0	473956352	12	4165
2026-01-22 03:23:35.83	9.43	14.26	-25.9	-27.2	16.0	0.00e+00	0	44	0	479199232	12	4162
2026-01-22 03:23:36.84	9.35	14.35	-26.0	-27.3	15.9	0.00e+00	0	43	0	484442112	12	4209
2026-01-22 03:23:37.85	9.28	14.45	-26.0	-27.4	15.9	0.00e+00	0	43	0	490733568	12	4211
2026-01-22 03:23:38.85	9.20	14.55	-26.0	-27.3	16.0	0.00e+00	0	43	0	495976448	12	4190
2026-01-22 03:23:39.85	9.12	14.65	-26.0	-27.3	16.0	0.00e+00	0	44	0	502267904	12	4198
2026-01-22 03:23:40.85	9.04	14.74	-25.7	-26.8	16.3	0.00e+00	0	43	0	507510784	12	4067
2026-01-22 03:23:41.85	8.97	14.84	-25.8	-26.8	16.2	0.00e+00	0	43	0	512753664	12	4076
2026-01-22 03:23:42.85	8.89	14.94	-26.0	-27.3	16.0	0.00e+00	0	44	0	519045120	12	4189
2026-01-22 03:23:43.85	8.81	15.04	-25.9	-27.1	16.1	0.00e+00	0	43	0	524288000	12	4135
2026-01-22 03:23:44.85	8.73	15.14	-25.8	-26.8	16.2	0.00e+00	0	44	0	529530880	12	4076
2026-01-22 03:23:45.84	8.65	15.24	-25.8	-26.9	16.2	0.00e+00	0	43	0	535822336	12	4095
2026-01-22 03:23:46.85	8.57	15.34	-25.8	-26.8	16.2	0.00e+00	0	44	0	541065216	12	4066
2026-01-22 03:23:47.85	8.48	15.44	-25.7	-26.8	16.2	0.00e+00	0	44	0	546308096	12	4068
2026-01-22 03:23:48.86	8.40	15.54	-25.8	-26.9	16.2	0.00e+00	0	44	0	552599552	12	4099
2026-01-22 03:23:49.86	8.32	15.64	-25.7	-26.7	16.3	0.00e+00	0	44	0	557842432	12	4028
2026-01-22 03:23:50.86	8.23	15.74	-25.6	-26.6	16.4	0.00e+00	0	44	0	564133888	12	4006
2026-01-22 03:23:51.87	8.15	15.84	-25.7	-26.6	16.4	0.00e+00	0	44	0	569376768	12	4022
2026-01-22 03:23:52.87	8.07	15.94	-25.6	-26.5	16.5	0.00e+00	0	43	0	574619648	12	3983
2026-01-22 03:23:53.87	7.98	16.04	-25.6	-26.5	16.5	0.00e+00	0	44	0	580911104	12	3991
2026-01-22 03:23:54.88	7.89	16.15	-25.7	-26.8	16.3	0.00e+00	0	44	0	586153984	12	4054
2026-01-22 03:23:55.88	7.81	16.25	-25.6	-26.4	16.5	0.00e+00	0	44	0	592445440	12	3969
2026-01-22 03:23:56.89	7.72	16.36	-25.7	-26.7	16.4	0.00e+00	0	44	0	597688320	12	4039
2026-01-22 03:23:57.90	7.63	16.46	-25.6	-26.5	16.5	0.00e+00	0	44	0	602931200	12	3975
2026-01-22 03:23:58.90	7.54	16.56	-25.4	-26.1	16.7	0.00e+00	0	44	0	609222656	12	3887
2026-01-22 03:23:59.90	7.45	16.67	-25.4	-25.9	16.8	0.00e+00	0	44	0	614465536	12	3853
2026-01-22 03:24:00.89	7.36	16.77	-25.4	-26.1	16.7	0.00e+00	0	44	0	619708416	12	3889
2026-01-22 03:24:01.89	7.27	16.88	-25.4	-26.0	16.8	0.00e+00	0	43	0	625999872	12	3870
2026-01-22 03:24:02.89	7.18	16.98	-25.4	-26.0	16.7	0.00e+00	0	44	0	631242752	12	3874
2026-01-22 03:24:03.90	7.09	17.09	-25.3	-25.9	16.8	0.00e+00	0	44	0	637534208	12	3841
2026-01-22 03:24:04.90	7.00	17.20	-25.3	-25.8	16.9	0.00e+00	0	44	0	642777088	12	3819
2026-01-22 03:24:05.90	6.91	17.30	-25.3	-25.9	16.8	0.00e+00	0	44	0	648019968	12	3850
2026-01-22 03:24:06.90	6.81	17.41	-25.3	-26.3	17.0	0.00e+00	0	44	0	654311424	11	4048
2026-01-22 03:24:07.90	6.72	17.52	-25.3	-26.3	17.0	0.00e+00	0	44	0	659554304	11	4050
2026-01-22 03:24:08.91	6.62	17.62	-25.3	-26.2	17.0	0.00e+00	0	44	0	664797184	11	4026
2026-01-22 03:24:09.91	6.53	17.73	-25.3	-26.3	17.0	0.00e+00	0	44	0	671088640	11	4042
2026-01-22 03:24:10.91	6.43	17.84	-25.4	-26.5	16.9	0.00e+00	0	44	0	676331520	11	4085
2026-01-22 03:24:11.92	6.33	17.95	-25.3	-26.3	17.0	0.00e+00	0	44	0	681574400	11	4035
2026-01-22 03:24:12.92	6.23	18.06	-25.1	-26.0	17.1	0.00e+00	0	44	0	687865856	11	3955
2026-01-22 03:24:13.92	6.13	18.17	-25.2	-26.0	17.1	0.00e+00	0	44	0	693108736	11	3978
2026-01-22 03:24:14.92	6.04	18.28	-25.2	-26.0	17.2	0.00e+00	0	44	0	699400192	11	3964
2026-01-22 03:24:15.93	5.93	18.39	-25.4	-26.4	16.9	0.00e+00	0	44	0	704643072	11	4078
2026-01-22 03:24:16.93	5.83	18.50	-25.2	-26.1	17.1	0.00e+00	0	44	0	710934528	11	3994
2026-01-22 03:24:17.93	5.73	18.61	-25.1	-25.9	17.2	0.00e+00	0	44	0	716177408	11	3936
2026-01-22 03:24:18.93	5.63	18.73	-25.1	-25.8	17.2	0.00e+00	0	44	0	721420288	11	3924
2026-01-22 03:24:19.93	5.53	18.84	-25.2	-26.2	17.1	0.00e+00	0	44	0	727711744	11	4008
2026-01-22 03:24:20.93	5.42	18.95	-25.1	-25.9	17.2	0.00e+00	0	44	0	732954624	11	3948
2026-01-22 03:24:21.92	5.32	19.06	-25.1	-25.8	17.3	0.00e+00	0	44	0	738197504	11	3932
2026-01-22 03:24:22.93	5.21	19.18	-25.2	-26.1	17.1	0.00e+00	0	44	0	744488960	11	3983
2026-01-22 03:24:23.93	5.10	19.29	-25.1	-25.9	17.3	0.00e+00	0	44	0	749731840	11	3933
2026-01-22 03:24:24.93	5.00	19.40	-25.1	-26.0	17.2	0.00e+00	0	44	0	754974720	11	3966
2026-01-22 03:24:25.94	4.89	19.52	-25.0	-25.6	17.4	0.00e+00	0	44	0	761266176	11	3864
2026-01-22 03:24:26.94	4.78	19.64	-24.8	-25.3	17.6	0.00e+00	0	44	0	766509056	11	3802
2026-01-22 03:24:27.94	4.67	19.75	-24.9	-25.4	17.6	0.00e+00	0	44	0	772800512	11	3812
2026-01-22 03:24:28.95	4.56	19.87	-24.9	-25.5	17.5	0.00e+00	0	44	0	778043392	11	3845
2026-01-22 03:24:29.95	4.45	19.98	-24.8	-25.6	17.7	0.00e+00	0	44	0	783286272	10	3985
2026-01-22 03:24:30.96	4.33	20.10	-24.6	-25.3	17.8	1.10e-06	0	44	0	789577728	10	3906
2026-01-22 03:24:31.96	4.22	20.22	-24.7	-25.5	17.8	0.00e+00	0	44	0	794820608	10	3938
2026-01-22 03:24:32.97	4.10	20.34	-24.6	-25.3	17.9	0.00e+00	0	44	0	800063488	10	3896
2026-01-22 03:24:33.97	3.99	20.46	-24.7	-25.5	17.8	0.00e+00	0	44	0	806354944	10	3942
2026-01-22 03:24:34.96	3.87	20.57	-24.7	-25.5	17.8	0.00e+00	0	44	0	811597824	10	3956
2026-01-22 03:24:35.96	3.76	20.69	-24.8	-25.6	17.7	0.00e+00	0	44	0	817889280	10	3981
2026-01-22 03:24:36.97	3.64	20.81	-24.7	-25.5	17.8	0.00e+00	0	44	0	823132160	10	3948
2026-01-22 03:24:37.96	3.52	20.93	-24.7	-25.6	17.7	0.00e+00	0	44	0	828375040	10	3972
2026-01-22 03:24:38.96	3.40	21.05	-24.8	-25.7	17.7	0.00e+00	0	44	0	834666496	10	3990
2026-01-22 03:24:39.96	3.28	21.17	-24.8	-25.6	17.7	0.00e+00	0	44	0	839909376	10	3984
2026-01-22 03:24:40.96	3.16	21.29	-24.8	-25.8	17.6	0.00e+00	0	44	0	845152256	10	4028
2026-01-22 03:24:41.97	3.03	21.42	-24.7	-25.5	17.8	0.00e+00	0	44	0	851443712	10	3958
2026-01-22 03:24:42.97	2.91	21.54	-24.8	-25.8	17.6	0.00e+00	0	44	0	856686592	10	4022
2026-01-22 03:24:43.98	2.78	21.66	-24.5	-25.2	17.9	0.00e+00	0	44	0	862978048	10	3868
2026-01-22 03:24:44.99	2.66	21.79	-24.3	-24.7	18.2	0.00e+00	0	44	0	868220928	10	3765
2026-01-22 03:24:45.99	2.53	21.91	-24.2	-25.0	18.3	0.00e+00	0	44	0	873463808	9	3943
2026-01-22 03:24:47.00	2.40	22.03	-24.2	-24.9	18.4	0.00e+00	0	44	0	879755264	9	3900
2026-01-22 03:24:48.00	2.27	22.16	-24.2	-25.0	18.3	0.00e+00	0	44	0	884998144	9	3933
2026-01-22 03:24:49.01	2.14	22.28	-24.3	-25.2	18.2	0.00e+00	0	44	0	891289600	9	3993
2026-01-22 03:24:50.01	2.01	22.41	-24.5	-25.5	18.0	0.00e+00	0	44	0	896532480	9	4050
2026-01-22 03:24:51.02	1.88	22.54	-24.3	-25.1	18.3	0.00e+00	0	44	0	901775360	9	3960
2026-01-22 03:24:52.02	1.74	22.66	-24.3	-25.1	18.3	0.00e+00	0	44	0	908066816	9	3948
2026-01-22 03:24:53.02	1.61	22.79	-24.2	-25.0	18.3	0.00e+00	0	44	0	913309696	9	3947
2026-01-22 03:24:54.03	1.47	22.92	-24.4	-25.4	18.1	0.00e+00	0	44	0	918552576	9	4029
2026-01-22 03:24:55.03	1.33	23.05	-24.3	-25.2	18.2	0.00e+00	0	44	0	924844032	9	3997
2026-01-22 03:24:56.03	1.20	23.17	-24.6	-25.8	17.9	0.00e+00	0	44	0	930086912	9	4138
2026-01-22 03:24:57.03	1.06	23.30	-24.4	-25.3	18.2	0.00e+00	0	44	0	936378368	9	4021
2026-01-22 03:24:58.04	0.92	23.43	-24.2	-24.9	18.4	0.00e+00	0	44	0	941621248	9	3917
2026-01-22 03:24:59.04	0.77	23.56	-24.1	-24.8	18.5	0.00e+00	0	44	0	946864128	9	3881
2026-01-22 03:25:00.04	0.63	23.69	-24.1	-24.8	18.4	0.00e+00	0	44	0	953155584	9	3900
2026-01-22 03:25:01.05	0.49	23.82	-23.9	-24.4	18.7	0.00e+00	0	44	0	958398464	9	3797
2026-01-22 03:25:02.05	0.34	23.95	-23.8	-24.1	18.8	0.00e+00	0	44	0	964689920	9	3726
2026-01-22 03:25:03.05	0.20	24.08	-23.8	-24.1	18.8	0.00e+00	0	44	0	969932800	9	3720
2026-01-22 03:25:04.06	0.05	24.22	-23.6	-24.3	19.0	0.00e+00	0	44	0	975175680	8	3864
2026-01-22 03:25:05.06	359.90	24.35	-23.7	-24.4	18.9	0.00e+00	0	44	0	981467136	8	3902
2026-01-22 03:25:06.06	359.75	24.48	-23.7	-24.3	19.0	0.00e+00	0	44	0	986710016	8	3876
2026-01-22 03:25:07.05	359.60	24.61	-23.7	-24.5	18.9	0.00e+00	0	44	0	991952896	8	3912
2026-01-22 03:25:08.05	359.44	24.75	-23.9	-24.8	18.7	0.00e+00	0	44	0	998244352	8	3989
2026-01-22 03:25:09.05	359.29	24.88	-23.9	-24.7	18.8	0.00e+00	0	44	0	1003487232	8	3977
2026-01-22 03:25:10.05	359.14	25.01	-24.0	-24.9	18.6	0.00e+00	0	44	0	1008730112	8	4029
2026-01-22 03:25:11.06	358.98	25.15	-23.9	-24.8	18.7	0.00e+00	0	44	0	1015021568	8	4005
2026-01-22 03:25:12.06	358.82	25.28	-23.9	-24.9	18.6	0.00e+00	0	44	0	1020264448	8	4022
2026-01-22 03:25:13.06	358.66	25.42	-24.0	-25.0	18.6	0.00e+00	0	44	0	1026555904	8	4044
2026-01-22 03:25:14.06	358.50	25.56	-24.1	-25.3	18.5	0.00e+00	0	44	0	1031798784	8	4114
2026-01-22 03:25:15.07	358.33	25.69	-24.0	-24.9	18.7	0.00e+00	0	44	0	1037041664	8	4028
2026-01-22 03:25:16.07	358.17	25.83	-24.0	-24.9	18.7	0.00e+00	0	44	0	1043333120	8	4027
2026-01-22 03:25:17.08	358.00	25.97	-23.8	-24.6	18.8	0.00e+00	0	44	0	1048576000	8	3944
2026-01-22 03:25:18.08	357.84	26.11	-23.8	-24.5	18.9	0.00e+00	0	44	0	1054867456	8	3927
2026-01-22 03:25:19.09	357.67	26.25	-23.8	-24.7	18.8	0.00e+00	0	44	0	1060110336	8	3968
2026-01-22 03:25:20.10	357.50	26.39	-23.8	-24.6	18.9	0.00e+00	0	44	0	1065353216	8	3939
2026-01-22 03:25:21.10	357.32	26.53	-24.2	-25.4	18.4	0.00e+00	0	44	0	1071644672	8	4138
2026-01-22 03:25:22.10	357.15	26.67	-23.9	-24.7	18.8	0.00e+00	0	44	0	1076887552	8	3983
2026-01-22 03:25:23.10	356.98	26.81	-23.6	-24.2	19.1	0.00e+00	0	44	0	1082130432	8	3849
2026-01-22 03:25:24.10	356.80	26.95	-23.5	-23.9	19.2	0.00e+00	0	44	0	1088421888	8	3789
2026-01-22 03:25:25.11	356.62	27.09	-23.5	-24.0	19.2	0.00e+00	0	44	0	1093664768	8	3807
2026-01-22 03:25:26.11	356.44	27.23	-23.5	-24.0	19.2	0.00e+00	0	44	0	1099956224	8	3798
2026-01-22 03:25:27.11	356.26	27.37	-23.5	-23.9	19.2	0.00e+00	0	44	0	1105199104	8	3785
2026-01-22 03:25:28.11	356.08	27.51	-23.6	-24.1	19.1	0.00e+00	0	44	0	1110441984	8	3832
2026-01-22 03:25:29.12	355.89	27.66	-23.4	-23.8	19.2	0.00e+00	0	44	0	1116733440	8	3769
2026-01-22 03:25:30.12	355.71	27.80	-23.4	-23.7	19.3	0.00e+00	0	44	0	1121976320	8	3744
2026-01-22 03:25:31.12	355.52	27.94	-23.4	-23.7	19.3	0.00e+00	0	44	0	1127219200	8	3741
2026-01-22 03:25:32.13	355.33	28.09	-23.4	-23.8	19.3	0.00e+00	0	44	0	1133510656	8	3764
2026-01-22 03:25:33.13	355.14	28.23	-23.4	-23.7	19.4	0.00e+00	0	44	0	1138753536	8	3746
2026-01-22 03:25:34.14	354.94	28.38	-23.6	-24.1	19.2	0.00e+00	0	44	0	1145044992	8	3834
2026-01-22 03:25:35.15	354.75	28.53	-23.4	-23.8	19.3	0.00e+00	0	44	0	1150287872	8	3755
2026-01-22 03:25:36.15	354.55	28.67	-23.4	-23.8	19.3	0.00e+00	0	44	0	1155530752	8	3770
2026-01-22 03:25:37.16	354.35	28.82	-23.5	-23.9	19.2	0.00e+00	0	44	0	1161822208	8	3788
2026-01-22 03:25:38.16	354.15	28.96	-23.4	-23.9	19.3	0.00e+00	0	44	0	1167065088	8	3773
2026-01-22 03:25:39.16	353.95	29.11	-23.5	-24.0	19.2	0.00e+00	0	44	0	1173356544	8	3798
2026-01-22 03:25:40.16	353.74	29.26	-23.4	-23.8	19.3	0.00e+00	0	44	0	1178599424	8	3752
2026-01-22 03:25:41.17	353.54	29.41	-23.3	-23.6	19.4	0.00e+00	0	44	0	1183842304	8	3712
2026-01-22 03:25:42.17	353.33	29.55	-23.2	-23.9	19.5	0.00e+00	0	44	0	1190133760	7	3897
2026-01-22 03:25:43.17	353.12	29.70	-23.1	-23.7	19.6	0.00e+00	0	44	0	1195376640	7	3847
2026-01-22 03:25:44.17	352.91	29.85	-23.2	-23.8	19.5	0.00e+00	0	44	0	1200619520	7	3865
2026-01-22 03:25:45.18	352.69	30.00	-23.1	-23.7	18.8	0.00e+00	0	44	0	1206910976	7	3846
2026-01-22 03:25:46.17	352.48	30.15	-23.2	-23.9	19.5	0.00e+00	0	44	0	1212153856	7	3889
2026-01-22 03:25:47.18	352.26	30.30	-23.2	-23.9	19.5	0.00e+00	0	44	0	1218445312	7	3879
2026-01-22 03:25:48.18	352.04	30.45	-23.1	-23.7	19.6	0.00e+00	0	44	0	1223688192	7	3833
2026-01-22 03:25:49.19	351.81	30.60	-23.1	-23.7	19.6	0.00e+00	0	44	0	1228931072	7	3828
2026-01-22 03:25:50.19	351.59	30.75	-22.9	-23.2	19.8	0.00e+00	0	44	0	1235222528	7	3725
2026-01-22 03:25:51.20	351.36	30.90	-22.9	-23.7	19.8	0.00e+00	0	44	0	1240465408	6	3943
2026-01-22 03:25:52.20	351.13	31.05	-22.9	-23.7	19.8	0.00e+00	0	44	0	1246756864	6	3953
2026-01-22 03:25:53.21	350.90	31.20	-22.8	-23.6	19.9	0.00e+00	0	44	0	1251999744	6	3927
2026-01-22 03:25:54.21	350.67	31.35	-23.0	-23.9	19.8	0.00e+00	0	44	0	1257242624	6	3993
2026-01-22 03:25:55.22	350.43	31.51	-23.0	-24.0	19.7	0.00e+00	0	44	0	1263534080	6	4015
2026-01-22 03:25:56.22	350.20	31.66	-23.1	-24.2	19.6	0.00e+00	0	44	0	1268776960	6	4073
2026-01-22 03:25:57.22	349.96	31.81	-23.1	-24.1	19.7	1.74e-04	0	44	0	1274019840	6	4050
2026-01-22 03:25:58.23	349.71	31.96	-23.1	-24.2	19.6	0.00e+00	0	44	0	1280311296	6	4067
2026-01-22 03:25:59.23	349.47	32.12	-23.3	-24.5	19.5	0.00e+00	0	44	0	1285554176	6	4137
2026-01-22 03:26:00.24	349.22	32.27	-23.3	-24.6	19.4	0.00e+00	0	44	0	1291845632	6	4181
2026-01-22 03:26:01.24	348.97	32.42	-23.3	-24.5	19.5	1.92e-04	0	44	0	1297088512	6	4143
2026-01-22 03:26:02.24	348.72	32.57	-23.2	-24.4	19.5	0.00e+00	0	44	0	1302331392	6	4126
2026-01-22 03:26:03.24	348.47	32.73	-23.1	-24.2	19.6	0.00e+00	0	44	0	1308622848	6	4080
2026-01-22 03:26:04.25	348.21	32.88	-23.3	-24.5	19.5	2.71e-04	0	44	0	1313865728	6	4147
2026-01-22 03:26:05.25	347.95	33.04	-23.2	-24.4	19.5	0.00e+00	0	44	0	1320157184	6	4120
2026-01-22 03:26:06.26	347.69	33.19	-23.3	-24.5	19.5	2.89e-04	0	44	0	1325400064	6	4143
2026-01-22 03:26:07.27	347.42	33.34	-23.3	-24.6	19.4	0.00e+00	0	44	0	1330642944	6	4172
2026-01-22 03:26:08.27	347.16	33.50	-23.1	-24.1	19.7	0.00e+00	0	44	0	1336934400	6	4035
2026-01-22 03:26:09.27	346.89	33.65	-23.0	-24.0	19.8	0.00e+00	0	44	0	1342177280	6	4017
2026-01-22 03:26:10.27	346.62	33.80	-23.1	-24.1	19.7	0.00e+00	0	44	0	1347420160	6	4042
2026-01-22 03:26:11.28	346.34	33.96	-23.1	-24.1	19.7	0.00e+00	0	44	0	1353711616	6	4049
2026-01-22 03:26:12.28	346.06	34.11	-23.3	-24.5	19.5	0.00e+00	0	44	0	1358954496	6	4141
2026-01-22 03:26:13.28	345.79	34.27	-23.4	-24.8	19.4	6.52e-05	0	44	0	1365245952	6	4212
2026-01-22 03:26:14.28	345.50	34.42	-23.2	-24.2	19.6	0.00e+00	0	44	0	1370488832	6	4084
2026-01-22 03:26:15.29	345.22	34.58	-23.1	-24.1	19.7	3.08e-05	0	44	0	1375731712	6	4042
2026-01-22 03:26:16.29	344.93	34.73	-23.0	-24.0	19.7	0.00e+00	0	44	0	1382023168	6	4021
2026-01-22 03:26:17.30	344.64	34.88	-23.1	-24.1	19.7	0.00e+00	0	44	0	1387266048	6	4051
2026-01-22 03:26:18.30	344.34	35.04	-23.0	-23.8	19.8	0.00e+00	0	44	0	1393557504	6	3984
2026-01-22 03:26:19.31	344.05	35.19	-23.1	-24.1	19.7	0.00e+00	0	44	0	1398800384	6	4050
2026-01-22 03:26:20.31	343.75	35.34	-23.0	-24.0	19.8	0.00e+00	0	44	0	1404043264	6	4011
2026-01-22 03:26:21.31	343.45	35.50	-23.1	-24.1	19.7	0.00e+00	0	44	0	1410334720	6	4049
2026-01-22 03:26:22.32	343.14	35.65	-23.1	-24.0	19.7	3.40e-06	0	44	0	1415577600	6	4034
2026-01-22 03:26:23.33	342.83	35.81	-23.1	-24.2	19.7	0.00e+00	0	44	0	1421869056	6	4062
2026-01-22 03:26:24.34	342.52	35.96	-23.0	-23.8	19.9	9.04e-05	0	44	0	1427111936	6	3973
2026-01-22 03:26:25.34	342.21	36.11	-23.0	-23.8	19.9	1.44e-04	0	44	0	1432354816	6	3979
2026-01-22 03:26:26.35	341.89	36.26	-23.0	-23.9	19.8	0.00e+00	0	44	0	1438646272	6	3990
2026-01-22 03:26:27.36	341.56	36.42	-23.0	-23.9	19.8	2.12e-04	0	44	0	1443889152	6	3984
2026-01-22 03:26:28.36	341.24	36.57	-23.0	-23.8	19.8	2.10e-04	0	44	0	1449132032	6	3979
2026-01-22 03:26:29.36	340.92	36.72	-22.9	-23.7	19.9	0.00e+00	0	44	0	1455423488	6	3942
2026-01-22 03:26:30.36	340.59	36.87	-22.9	-23.6	20.0	1.99e-04	0	44	0	1460666368	6	3924
2026-01-22 03:26:31.36	340.26	37.02	-22.9	-23.6	20.0	1.94e-04	0	44	0	1466957824	6	3930
2026-01-22 03:26:32.36	339.93	37.17	-22.8	-23.5	20.0	0.00e+00	0	44	0	1472200704	6	3908
2026-01-22 03:26:33.37	339.59	37.32	-22.9	-23.8	19.9	1.48e-04	0	44	0	1477443584	6	3965
2026-01-22 03:26:34.37	339.25	37.47	-23.0	-23.9	19.8	1.25e-04	0	44	0	1483735040	6	3991
2026-01-22 03:26:35.37	338.90	37.62	-22.9	-23.8	19.9	0.00e+00	0	44	0	1488977920	6	3982
2026-01-22 03:26:36.37	338.56	37.76	-22.9	-23.8	19.9	7.78e-05	0	44	0	1494220800	6	3967
2026-01-22 03:26:37.38	338.20	37.91	-22.8	-23.6	20.0	3.43e-05	0	44	0	1500512256	6	3926
2026-01-22 03:26:38.38	337.85	38.06	-22.9	-23.7	19.9	0.00e+00	0	44	0	1505755136	6	3953
2026-01-22 03:26:39.39	337.49	38.21	-23.1	-24.0	19.8	9.61e-05	0	44	0	1512046592	6	4030
2026-01-22 03:26:40.40	337.13	38.35	-23.3	-24.5	19.5	1.17e-04	0	44	0	1517289472	6	4137
2026-01-22 03:26:41.40	336.77	38.50	-23.3	-24.5	19.5	0.00e+00	0	44	0	1522532352	6	4149
2026-01-22 03:26:42.40	336.40	38.64	-23.3	-24.6	19.5	4.23e-05	0	44	0	1528823808	6	4161
2026-01-22 03:26:43.41	336.03	38.79	-23.2	-24.3	19.6	0.00e+00	0	44	0	1534066688	6	4093
2026-01-22 03:26:44.42	335.65	38.93	-23.2	-24.3	19.6	0.00e+00	0	44	0	1540358144	6	4090
2026-01-22 03:26:45.42	335.28	39.07	-23.2	-24.3	19.6	0.00e+00	0	44	0	1545601024	6	4100
2026-01-22 03:26:46.41	334.90	39.21	-23.1	-24.2	19.7	0.00e+00	0	44	0	1550843904	6	4067
2026-01-22 03:26:47.42	334.51	39.35	-23.1	-24.0	19.7	0.00e+00	0	44	0	1557135360	6	4022
2026-01-22 03:26:48.42	334.13	39.49	-23.1	-24.1	19.7	0.00e+00	0	44	0	1562378240	6	4036
2026-01-22 03:26:49.42	333.74	39.63	-23.0	-23.9	19.8	0.00e+00	0	44	0	1567621120	6	3999
2026-01-22 03:26:50.42	333.35	39.76	-23.1	-24.1	19.7	0.00e+00	0	44	0	1573912576	6	4039
2026-01-22 03:26:51.42	332.95	39.90	-23.2	-24.3	19.6	0.00e+00	0	44	0	1579155456	6	4093
2026-01-22 03:26:52.43	332.55	40.04	-23.3	-24.5	19.5	1.18e-04	0	44	0	1584398336	6	4148
2026-01-22 03:26:53.43	332.15	40.17	-23.2	-24.2	19.7	0.00e+00	0	44	0	1590689792	6	4077
2026-01-22 03:26:54.43	331.74	40.30	-22.9	-23.7	19.9	1.13e-04	0	44	0	1595932672	6	3951
2026-01-22 03:26:55.43	331.33	40.43	-22.9	-23.6	20.0	0.00e+00	0	44	0	1602224128	6	3936
2026-01-22 03:26:56.44	330.91	40.57	-22.8	-23.6	20.0	0.00e+00	0	44	0	1607467008	6	3916
2026-01-22 03:26:57.45	330.49	40.70	-22.7	-23.3	20.1	0.00e+00	0	44	0	1613758464	6	3848
2026-01-22 03:26:58.45	330.08	40.82	-22.7	-23.4	20.1	0.00e+00	0	44	0	1619001344	6	3867
2026-01-22 03:26:59.45	329.65	40.95	-22.8	-23.4	20.1	0.00e+00	0	44	0	1624244224	6	3887
2026-01-22 03:27:00.45	329.23	41.08	-22.8	-23.4	20.1	0.00e+00	0	44	0	1630535680	6	3891
2026-01-22 03:27:01.46	328.79	41.20	-22.8	-23.5	20.0	0.00e+00	0	44	0	1635778560	6	3895
2026-01-22 03:27:02.46	328.36	41.32	-22.8	-23.4	20.1	0.00e+00	0	44	0	1641021440	6	3886
2026-01-22 03:27:03.47	327.92	41.45	-22.8	-24.1	19.9	0.00e+00	0	44	0	1647312896	5	4161
2026-01-22 03:27:04.46	327.49	41.56	-22.8	-24.0	20.0	3.33e-04	0	44	0	1652555776	5	4132
2026-01-22 03:27:05.46	327.04	41.68	-22.8	-24.1	20.0	0.00e+00	0	44	0	1658847232	5	4158
2026-01-22 03:27:06.47	326.59	41.80	-22.9	-24.1	19.9	2.72e-04	0	44	0	1664090112	5	4166
2026-01-22 03:27:07.47	326.15	41.91	-22.8	-24.0	20.0	0.00e+00	0	44	0	1669332992	5	4131
2026-01-22 03:27:08.48	325.69	42.03	-22.9	-24.1	19.9	0.00e+00	0	44	0	1675624448	5	4167
2026-01-22 03:27:09.48	325.23	42.14	-22.8	-24.0	20.0	0.00e+00	0	44	0	1680867328	5	4142
2026-01-22 03:27:10.48	324.78	42.25	-22.9	-24.2	19.9	0.00e+00	0	44	0	1687158784	5	4173
2026-01-22 03:27:11.48	324.31	42.36	-22.8	-24.0	20.0	0.00e+00	0	44	0	1692401664	5	4140
2026-01-22 03:27:12.49	323.84	42.46	-22.6	-23.6	20.2	0.00e+00	0	44	0	1697644544	5	4034
2026-01-22 03:27:13.49	323.38	42.57	-22.6	-23.5	20.3	0.00e+00	0	44	0	1703936000	5	4010
2026-01-22 03:27:14.50	322.90	42.67	-22.6	-23.6	20.2	0.00e+00	0	44	0	1709178880	5	4022
2026-01-22 03:27:15.50	322.43	42.77	-22.6	-23.5	20.3	0.00e+00	0	44	0	1714421760	5	4006
2026-01-22 03:27:16.51	321.95	42.87	-22.5	-23.4	20.3	0.00e+00	0	44	0	1720713216	5	3981
2026-01-22 03:27:17.51	321.47	42.97	-22.6	-23.6	20.2	0.00e+00	0	44	0	1725956096	5	4036
2026-01-22 03:27:18.52	320.98	43.06	-22.7	-23.8	20.1	0.00e+00	0	44	0	1732247552	5	4098
2026-01-22 03:27:19.53	320.49	43.16	-22.8	-23.9	20.1	0.00e+00	0	44	0	1737490432	5	4120
2026-01-22 03:27:20.53	320.00	43.25	-22.9	-24.2	19.9	0.00e+00	0	44	0	1743781888	5	4184
2026-01-22 03:27:21.53	319.51	43.33	-23.0	-24.3	19.9	0.00e+00	0	44	0	1749024768	5	4214
2026-01-22 03:27:22.54	319.01	43.42	-22.8	-23.6	20.0	0.00e+00	0	44	0	1754267648	6	3912
2026-01-22 03:27:23.53	318.52	43.50	-22.7	-23.2	20.2	0.00e+00	0	44	0	1760559104	6	3828
2026-01-22 03:27:24.54	318.01	43.59	-22.7	-23.2	20.2	0.00e+00	0	44	0	1765801984	6	3827
2026-01-22 03:27:25.53	317.52	43.66	-22.7	-23.3	20.2	0.00e+00	0	44	0	1771044864	6	3852
2026-01-22 03:27:26.54	317.01	43.74	-22.6	-23.1	20.2	0.00e+00	0	44	0	1777336320	6	3808
2026-01-22 03:27:27.54	316.50	43.82	-22.6	-23.1	20.3	0.00e+00	0	44	0	1782579200	6	3797
2026-01-22 03:27:28.54	315.99	43.89	-22.7	-23.3	20.2	0.00e+00	0	44	0	1787822080	6	3849
2026-01-22 03:27:29.54	315.48	43.96	-22.7	-23.3	20.1	0.00e+00	0	44	0	1794113536	6	3859
2026-01-22 03:27:30.54	314.97	44.02	-22.9	-23.6	20.0	0.00e+00	0	44	0	1799356416	6	3935
2026-01-22 03:27:31.54	314.45	44.09	-23.0	-23.8	19.9	0.00e+00	0	44	0	1805647872	6	3985
2026-01-22 03:27:32.54	313.94	44.15	-22.9	-23.7	20.0	0.00e+00	0	44	0	1810890752	6	3944
2026-01-22 03:27:33.55	313.41	44.21	-22.8	-23.5	20.1	0.00e+00	0	44	0	1816133632	6	3899
2026-01-22 03:27:34.55	312.89	44.27	-22.7	-23.2	20.2	0.00e+00	0	44	0	1822425088	6	3827
2026-01-22 03:27:35.55	312.37	44.32	-22.8	-23.4	20.1	0.00e+00	0	44	0	1827667968	6	3878
2026-01-22 03:27:36.55	311.84	44.37	-22.7	-23.3	20.2	0.00e+00	0	44	0	1832910848	6	3861
2026-01-22 03:27:37.56	311.31	44.42	-22.6	-23.1	20.2	0.00e+00	0	44	0	1839202304	6	3812
2026-01-22 03:27:38.56	310.78	44.47	-22.7	-23.2	20.2	0.00e+00	0	44	0	1844445184	6	3832
2026-01-22 03:27:39.57	310.25	44.52	-22.7	-23.3	20.2	0.00e+00	0	44	0	1849688064	6	3848
2026-01-22 03:27:40.56	309.72	44.56	-22.7	-23.4	20.2	0.00e+00	0	44	0	1855979520	6	3868
2026-01-22 03:27:41.57	309.18	44.60	-22.6	-23.1	20.3	0.00e+00	0	44	0	1861222400	6	3809
2026-01-22 03:27:42.57	308.65	44.63	-22.6	-23.1	20.3	0.00e+00	0	44	0	1867513856	6	3796
2026-01-22 03:27:43.57	308.11	44.66	-22.6	-23.1	20.3	0.00e+00	0	44	0	1872756736	6	3811
2026-01-22 03:27:44.58	307.57	44.69	-22.7	-23.4	20.1	0.00e+00	0	44	0	1879048192	6	3876
2026-01-22 03:27:45.58	307.03	44.72	-22.7	-23.3	20.2	0.00e+00	0	44	0	1884291072	6	3863
2026-01-22 03:27:46.58	306.50	44.75	-22.8	-23.4	20.1	0.00e+00	0	44	0	1889533952	6	3887
2026-01-22 03:27:47.59	305.95	44.77	-22.7	-23.2	20.2	0.00e+00	0	44	0	1895825408	6	3836
2026-01-22 03:27:48.59	305.41	44.79	-22.8	-23.4	20.1	0.00e+00	0	44	0	1901068288	6	3879
2026-01-22 03:27:49.59	304.87	44.80	-22.8	-23.4	20.1	0.00e+00	0	44	0	1906311168	6	3891
2026-01-22 03:27:50.60	304.33	44.82	-22.6	-23.1	20.3	0.00e+00	0	44	0	1912602624	6	3812
2026-01-22 03:27:51.59	303.79	44.83	-22.7	-23.3	20.2	0.00e+00	0	44	0	1917845504	6	3848
2026-01-22 03:27:52.60	303.24	44.84	-22.7	-23.2	20.2	0.00e+00	0	44	0	1923088384	6	3840
2026-01-22 03:27:53.59	302.71	44.84	-22.5	-22.9	20.4	0.00e+00	0	44	0	1929379840	6	3773
2026-01-22 03:27:54.60	302.16	44.84	-22.7	-23.2	20.2	0.00e+00	0	44	0	1934622720	6	3830
2026-01-22 03:27:55.60	301.62	44.84	-22.6	-23.1	20.3	0.00e+00	0	44	0	1940914176	6	3804
2026-01-22 03:27:56.60	301.08	44.84	-22.4	-22.7	20.5	0.00e+00	0	44	0	1946157056	6	3729
2026-01-22 03:27:57.60	300.53	44.83	-22.4	-22.7	20.5	0.00e+00	0	44	0	1951399936	6	3716
2026-01-22 03:27:58.60	299.99	44.82	-22.5	-23.0	20.4	0.00e+00	0	44	0	1957691392	6	3779
2026-01-22 03:27:59.61	299.45	44.81	-22.7	-23.2	20.2	0.00e+00	0	44	0	1962934272	6	3842
2026-01-22 03:28:00.61	298.91	44.79	-22.4	-22.7	20.5	0.00e+00	0	44	0	1968177152	6	3720
2026-01-22 03:28:01.61	298.37	44.78	-22.3	-23.0	20.6	0.00e+00	0	44	0	1974468608	5	3885
2026-01-22 03:28:02.61	297.83	44.75	-22.4	-23.1	20.5	0.00e+00	0	44	0	1979711488	5	3915
2026-01-22 03:28:03.62	297.28	44.73	-22.7	-23.8	20.2	0.00e+00	0	44	0	1984954368	5	4077
2026-01-22 03:28:04.63	296.74	44.70	-22.5	-23.5	20.3	0.00e+00	0	44	0	1991245824	5	4001
2026-01-22 03:28:05.63	296.20	44.67	-22.2	-22.8	20.6	0.00e+00	0	44	0	1996488704	5	3842
2026-01-22 03:28:06.64	295.66	44.64	-22.1	-22.5	20.8	0.00e+00	0	44	0	2002780160	5	3767
2026-01-22 03:28:07.64	295.13	44.61	-22.4	-23.2	20.5	0.00e+00	0	44	0	2008023040	5	3935
2026-01-22 03:28:08.65	294.59	44.57	-22.4	-23.2	20.5	0.00e+00	0	44	0	2014314496	5	3937
2026-01-22 03:28:09.64	294.06	44.53	-22.3	-23.0	20.5	0.00e+00	0	44	0	2019557376	5	3895
2026-01-22 03:28:10.65	293.52	44.49	-22.5	-23.4	20.4	0.00e+00	0	44	0	2024800256	5	3979
2026-01-22 03:28:11.65	292.99	44.44	-22.8	-24.0	20.0	0.00e+00	0	44	0	2031091712	5	4138
2026-01-22 03:28:12.66	292.46	44.39	-22.8	-24.1	20.0	0.00e+00	0	44	0	2036334592	5	4148
2026-01-22 03:28:13.66	291.94	44.34	-22.8	-23.9	20.1	0.00e+00	0	44	0	2041577472	5	4108
2026-01-22 03:28:14.66	291.41	44.29	-22.6	-23.6	20.3	0.00e+00	0	44	0	2047868928	5	4028
2026-01-22 03:28:15.66	290.89	44.23	-22.6	-23.5	20.3	0.00e+00	0	44	0	2053111808	5	4011
2026-01-22 03:28:16.66	290.37	44.17	-22.6	-23.6	20.2	0.00e+00	0	44	0	2058354688	5	4048
2026-01-22 03:28:17.67	289.84	44.11	-22.8	-24.1	20.0	0.00e+00	0	44	0	2064646144	5	4148
2026-01-22 03:28:18.67	289.33	44.04	-22.7	-23.7	20.2	0.00e+00	0	44	0	2069889024	5	4068
2026-01-22 03:28:19.68	288.81	43.98	-22.6	-23.6	20.3	0.00e+00	0	44	0	2076180480	5	4036
2026-01-22 03:28:20.68	288.30	43.91	-22.7	-23.9	20.1	0.00e+00	0	44	0	2081423360	5	4095
2026-01-22 03:28:21.69	287.78	43.84	-22.5	-23.4	20.3	0.00e+00	0	44	0	2087714816	5	3992
2026-01-22 03:28:22.70	287.27	43.76	-22.4	-23.2	20.4	0.00e+00	0	44	0	2092957696	5	3931
2026-01-22 03:28:23.70	286.76	43.69	-22.5	-23.3	20.4	0.00e+00	0	44	0	2098200576	5	3967
2026-01-22 03:28:24.71	286.25	43.61	-22.3	-22.9	19.7	0.00e+00	0	44	0	2104492032	5	3859
2026-01-22 03:28:25.71	285.75	43.53	-22.3	-22.9	20.6	0.00e+00	0	44	0	2109734912	5	3860
2026-01-22 03:28:26.72	285.25	43.44	-22.5	-23.3	19.8	0.00e+00	0	44	0	2114977792	5	3959
2026-01-22 03:28:27.72	284.76	43.36	-22.4	-23.1	19.8	0.00e+00	0	44	0	2121269248	5	3932
2026-01-22 03:28:28.73	284.26	43.27	-22.4	-23.1	20.5	0.00e+00	0	44	0	2126512128	5	3922
2026-01-22 03:28:29.73	283.77	43.18	-22.6	-23.6	20.2	0.00e+00	0	44	0	2132803584	5	4037
2026-01-22 03:28:30.72	283.29	43.09	-22.6	-23.5	20.3	2.63e-05	0	44	0	2138046464	5	4002
2026-01-22 03:28:31.72	282.80	42.99	-22.4	-23.3	20.4	0.00e+00	0	44	0	2143289344	5	3954
2026-01-22 03:28:32.72	282.32	42.90	-22.4	-23.1	20.5	0.00e+00	0	44	0	2149580800	5	3918
2026-01-22 03:28:33.73	281.84	42.80	-22.4	-23.1	20.5	0.00e+00	0	44	0	2154823680	5	3910
2026-01-22 03:28:34.73	281.36	42.70	-22.2	-22.8	20.6	0.00e+00	0	44	0	2161115136	5	3858
2026-01-22 03:28:35.74	280.88	42.60	-22.3	-22.9	20.6	0.00e+00	0	44	0	2166358016	5	3857
2026-01-22 03:28:36.74	280.41	42.49	-22.2	-22.7	20.7	0.00e+00	0	44	0	2171600896	5	3814
2026-01-22 03:28:37.75	279.94	42.39	-22.2	-22.8	20.6	0.00e+00	0	44	0	2177892352	5	3848
2026-01-22 03:28:38.75	279.48	42.28	-22.2	-22.8	20.6	0.00e+00	0	44	0	2183135232	5	3848
2026-01-22 03:28:39.75	279.02	42.17	-22.2	-22.8	20.6	6.98e-05	0	44	0	2188378112	5	3849
2026-01-22 03:28:40.75	278.56	42.06	-22.2	-22.8	20.6	0.00e+00	0	44	0	2194669568	5	3848
2026-01-22 03:28:41.76	278.10	41.94	-22.3	-22.9	20.5	5.70e-06	0	44	0	2199912448	5	3878
2026-01-22 03:28:42.76	277.65	41.83	-22.4	-23.2	20.4	0.00e+00	0	44	0	2205155328	5	3935
2026-01-22 03:28:43.76	277.21	41.71	-22.5	-23.3	20.4	0.00e+00	0	44	0	2211446784	5	3971
2026-01-22 03:28:44.77	276.76	41.59	-22.5	-23.5	20.3	8.58e-05	0	44	0	2216689664	5	4007
2026-01-22 03:28:45.77	276.32	41.47	-22.4	-23.2	20.4	0.00e+00	0	44	0	2222981120	5	3949
2026-01-22 03:28:46.77	275.88	41.35	-22.3	-23.0	20.5	0.00e+00	0	44	0	2228224000	5	3899
2026-01-22 03:28:47.77	275.44	41.23	-22.4	-23.1	20.5	0.00e+00	0	44	0	2233466880	5	3902
2026-01-22 03:28:48.77	275.01	41.11	-22.4	-23.1	20.5	0.00e+00	0	44	0	2239758336	5	3913
2026-01-22 03:28:49.77	274.59	40.98	-22.5	-23.3	20.3	0.00e+00	0	44	0	2245001216	5	3971
2026-01-22 03:28:50.77	274.16	40.86	-22.5	-23.4	20.3	0.00e+00	0	44	0	2250244096	5	3989
2026-01-22 03:28:51.78	273.74	40.73	-22.4	-23.1	20.5	2.10e-04	0	44	0	2256535552	5	3909
2026-01-22 03:28:52.79	273.31	40.60	-22.4	-23.2	20.4	0.00e+00	0	44	0	2261778432	5	3945
2026-01-22 03:28:53.79	272.90	40.47	-22.5	-23.3	20.3	2.24e-04	0	44	0	2268069888	5	3975
2026-01-22 03:28:54.79	272.49	40.33	-22.7	-23.8	20.1	0.00e+00	0	44	0	2273312768	5	4076
2026-01-22 03:28:55.80	272.08	40.20	-22.8	-24.1	20.0	0.00e+00	0	44	0	2278555648	5	4152
2026-01-22 03:28:56.81	271.67	40.07	-22.6	-23.7	20.1	0.00e+00	0	44	0	2284847104	5	4052
2026-01-22 03:28:57.80	271.27	39.93	-22.6	-23.6	20.2	1.14e-05	0	44	0	2290089984	5	4042
2026-01-22 03:28:58.81	270.87	39.79	-22.8	-23.9	20.0	0.00e+00	0	44	0	2296381440	5	4119
2026-01-22 03:28:59.81	270.48	39.66	-22.7	-23.8	20.1	2.40e-05	0	44	0	2301624320	5	4078
2026-01-22 03:29:00.81	270.08	39.52	-22.6	-23.5	20.2	6.17e-05	0	44	0	2306867200	5	4017
2026-01-22 03:29:01.80	269.70	39.38	-22.6	-23.7	20.2	0.00e+00	0	44	0	2313158656	5	4048
2026-01-22 03:29:02.81	269.31	39.24	-22.4	-23.2	20.4	1.48e-04	0	44	0	2318401536	5	3941
2026-01-22 03:29:03.81	268.93	39.10	-22.7	-23.7	20.1	1.53e-04	0	44	0	2323644416	5	4055
2026-01-22 03:29:04.81	268.55	38.96	-22.6	-23.5	20.2	0.00e+00	0	44	0	2329935872	5	4007
2026-01-22 03:29:05.81	268.18	38.82	-22.4	-23.2	20.4	1.70e-04	0	44	0	2335178752	5	3928
2026-01-22 03:29:06.81	267.81	38.67	-22.4	-23.1	20.4	1.94e-04	0	44	0	2340421632	5	3919
2026-01-22 03:29:07.81	267.44	38.53	-22.5	-23.4	20.3	0.00e+00	0	44	0	2346713088	5	3979
2026-01-22 03:29:08.81	267.08	38.38	-22.5	-23.4	20.3	2.20e-06	0	44	0	2351955968	5	3989
2026-01-22 03:29:09.81	266.72	38.24	-22.6	-23.6	20.1	2.63e-04	0	44	0	2358247424	5	4047
2026-01-22 03:29:10.82	266.35	38.09	-22.4	-23.2	20.3	0.00e+00	0	44	0	2363490304	5	3949
2026-01-22 03:29:11.82	266.00	37.94	-22.3	-23.0	20.5	2.87e-04	0	44	0	2368733184	5	3895
2026-01-22 03:29:12.82	265.65	37.80	-22.4	-23.2	20.3	4.02e-04	0	44	0	2375024640	5	3933
2026-01-22 03:29:13.83	265.30	37.65	-22.4	-23.2	20.4	0.00e+00	0	44	0	2380267520	5	3936
2026-01-22 03:29:14.83	264.95	37.50	-22.5	-23.3	20.3	3.11e-04	0	44	0	2386558976	5	3964
2026-01-22 03:29:15.84	264.60	37.35	-22.6	-23.7	20.1	2.40e-04	0	44	0	2391801856	5	4058
2026-01-22 03:29:16.84	264.27	37.20	-22.7	-23.8	20.1	0.00e+00	0	44	0	2397044736	5	4076
2026-01-22 03:29:17.85	263.93	37.05	-22.7	-23.8	20.0	1.12e-04	0	44	0	2403336192	5	4094
2026-01-22 03:29:18.84	263.60	36.90	-22.7	-23.9	20.0	0.00e+00	0	44	0	2408579072	5	4109
2026-01-22 03:29:19.85	263.26	36.75	-22.5	-23.4	20.2	0.00e+00	0	44	0	2413821952	5	3988
2026-01-22 03:29:20.86	262.93	36.59	-22.3	-23.0	20.4	0.00e+00	0	44	0	2420113408	5	3903
2026-01-22 03:29:21.86	262.61	36.44	-22.4	-23.1	20.4	1.34e-04	0	44	0	2425356288	5	3908
2026-01-22 03:29:22.86	262.29	36.29	-22.3	-22.9	20.5	0.00e+00	0	44	0	2431647744	5	3879
2026-01-22 03:29:23.87	261.97	36.14	-22.4	-23.8	20.3	4.83e-04	0	44	0	2436890624	4	4189
2026-01-22 03:29:24.88	261.65	35.98	-22.3	-23.0	20.4	0.00e+00	0	44	0	2443182080	5	3887
2026-01-22 03:29:25.88	261.34	35.83	-22.3	-23.0	20.4	0.00e+00	0	44	0	2448424960	5	3889
2026-01-22 03:29:26.89	261.03	35.68	-22.4	-23.3	20.3	0.00e+00	0	44	0	2453667840	5	3965
2026-01-22 03:29:27.90	260.72	35.52	-22.3	-23.5	20.4	7.14e-04	0	44	0	2459959296	4	4124
2026-01-22 03:29:28.90	260.42	35.37	-22.3	-23.5	20.4	0.00e+00	0	44	0	2465202176	4	4132
2026-01-22 03:29:29.91	260.11	35.21	-22.3	-23.5	20.4	0.00e+00	0	44	0	2470445056	4	4136
2026-01-22 03:29:30.91	259.82	35.06	-22.5	-23.8	20.2	5.55e-04	0	44	0	2476736512	4	4210
2026-01-22 03:29:31.91	259.52	34.90	-22.4	-23.1	20.4	0.00e+00	0	44	0	2481979392	5	3922
2026-01-22 03:29:32.91	259.23	34.75	-22.4	-23.1	20.3	2.27e-04	0	44	0	2487222272	5	3921
2026-01-22 03:29:33.92	258.94	34.60	-22.4	-23.2	20.3	0.00e+00	0	44	0	2493513728	5	3937
2026-01-22 03:29:34.92	258.65	34.44	-22.3	-23.0	20.4	0.00e+00	0	44	0	2498756608	5	3889
2026-01-22 03:29:35.92	258.37	34.29	-22.5	-23.4	20.2	0.00e+00	0	44	0	2505048064	5	3983
2026-01-22 03:29:36.93	258.09	34.13	-22.3	-23.0	20.4	0.00e+00	0	44	0	2510290944	5	3906
2026-01-22 03:29:37.93	257.81	33.98	-22.2	-22.8	20.5	0.00e+00	0	44	0	2516582400	5	3843
2026-01-22 03:29:38.93	257.53	33.82	-22.2	-22.8	20.5	0.00e+00	0	44	0	2521825280	5	3848
2026-01-22 03:29:39.93	257.26	33.67	-22.3	-22.9	20.5	0.00e+00	0	44	0	2527068160	5	3866
2026-01-22 03:29:40.94	256.99	33.51	-22.4	-23.2	20.3	0.00e+00	0	44	0	2533359616	5	3939
2026-01-22 03:29:41.94	256.72	33.36	-22.4	-23.2	20.3	0.00e+00	0	44	0	2538602496	5	3934
2026-01-22 03:29:42.95	256.45	33.20	-22.5	-23.3	20.2	0.00e+00	0	44	0	2543845376	5	3977
2026-01-22 03:29:43.95	256.19	33.05	-22.7	-23.9	19.9	0.00e+00	0	44	0	2550136832	5	4104
2026-01-22 03:29:44.95	255.93	32.90	-22.5	-23.5	20.1	0.00e+00	0	44	0	2555379712	5	4005
2026-01-22 03:29:45.96	255.67	32.74	-22.4	-23.2	20.3	0.00e+00	0	44	0	2560622592	5	3942
2026-01-22 03:29:46.96	255.42	32.59	-22.4	-23.1	20.3	0.00e+00	0	44	0	2566914048	5	3924
2026-01-22 03:29:47.97	255.16	32.43	-22.6	-23.5	20.1	0.00e+00	0	44	0	2572156928	5	4010
2026-01-22 03:29:48.97	254.91	32.28	-22.4	-23.2	20.3	2.15e-04	0	44	0	2578448384	5	3936
2026-01-22 03:29:49.97	254.66	32.13	-22.6	-23.5	20.0	0.00e+00	0	44	0	2583691264	5	4017
2026-01-22 03:29:50.98	254.42	31.97	-22.6	-23.7	20.0	0.00e+00	0	44	0	2589982720	5	4061
2026-01-22 03:29:51.98	254.17	31.82	-22.7	-23.8	19.9	0.00e+00	0	44	0	2595225600	5	4094
2026-01-22 03:29:52.98	253.93	31.67	-22.8	-24.1	19.8	0.00e+00	0	44	0	2600468480	5	4158
2026-01-22 03:29:53.99	253.69	31.51	-22.5	-23.5	20.1	0.00e+00	0	44	0	2606759936	5	4010
2026-01-22 03:29:54.99	253.45	31.36	-22.4	-23.3	20.2	0.00e+00	0	44	0	2612002816	5	3955
2026-01-22 03:29:55.99	253.22	31.21	-22.6	-23.5	20.1	0.00e+00	0	44	0	2617245696	5	4013
2026-01-22 03:29:56.99	252.99	31.06	-22.6	-23.6	20.1	0.00e+00	0	44	0	2623537152	5	4036
2026-01-22 03:29:57.99	252.76	30.91	-22.9	-24.2	19.8	0.00e+00	0	44	0	2628780032	5	4186
2026-01-22 03:29:59.00	252.53	30.76	-22.9	-24.2	19.7	3.40e-06	0	44	0	2634022912	5	4194
2026-01-22 03:30:00.00	252.30	30.60	-23.2	-24.4	19.4	0.00e+00	0	44	0	2640314368	6	4115
2026-01-22 03:30:01.01	252.08	30.45	-23.1	-24.2	19.5	0.00e+00	0	44	0	2645557248	6	4087
2026-01-22 03:30:02.01	251.86	30.30	-23.1	-24.2	19.6	4.50e-06	0	44	0	2651848704	6	4067
2026-01-22 03:30:03.01	251.64	30.15	-23.2	-24.4	19.4	0.00e+00	0	44	0	2657091584	6	4117
2026-01-22 03:30:04.02	251.42	30.00	-23.1	-24.2	19.5	0.00e+00	0	44	0	2662334464	6	4066
2026-01-22 03:30:05.02	251.20	29.85	-23.1	-24.1	19.5	0.00e+00	0	44	0	2668625920	6	4061
2026-01-22 03:30:06.02	250.99	29.70	-23.2	-24.3	19.5	0.00e+00	0	44	0	2673868800	6	4095
2026-01-22 03:30:07.03	250.78	29.55	-22.8	-23.6	19.8	0.00e+00	0	44	0	2679111680	6	3921
2026-01-22 03:30:08.03	250.57	29.41	-22.8	-23.4	19.9	5.70e-06	0	44	0	2685403136	6	3884
2026-01-22 03:30:09.03	250.36	29.26	-22.9	-23.7	19.8	0.00e+00	0	44	0	2690646016	6	3950
2026-01-22 03:30:10.03	250.16	29.11	-22.8	-23.5	19.8	0.00e+00	0	44	0	2696937472	6	3910
2026-01-22 03:30:11.04	249.95	28.96	-22.9	-23.7	19.7	4.50e-06	0	44	0	2702180352	6	3956
2026-01-22 03:30:12.04	249.75	28.81	-22.9	-23.7	19.7	0.00e+00	0	44	0	2707423232	6	3954
2026-01-22 03:30:13.04	249.55	28.67	-23.1	-24.1	19.5	0.00e+00	0	44	0	2713714688	6	4047
2026-01-22 03:30:14.05	249.35	28.52	-23.0	-23.9	19.6	4.50e-06	0	44	0	2718957568	6	4006
2026-01-22 03:30:15.05	249.15	28.38	-23.0	-24.0	19.6	0.00e+00	0	44	0	2725249024	6	4035
2026-01-22 03:30:16.05	248.96	28.23	-23.1	-24.2	19.5	0.00e+00	0	44	0	2730491904	6	4076
2026-01-22 03:30:17.06	248.77	28.08	-23.2	-24.3	19.4	0.00e+00	0	44	0	2735734784	6	4100
2026-01-22 03:30:18.06	248.57	27.94	-23.2	-24.4	19.4	0.00e+00	0	44	0	2742026240	6	4119
2026-01-22 03:30:19.06	248.39	27.80	-23.2	-24.3	19.4	0.00e+00	0	44	0	2747269120	6	4092
2026-01-22 03:30:20.05	248.20	27.65	-23.3	-24.6	19.3	0.00e+00	0	44	0	2752512000	6	4162
2026-01-22 03:30:21.06	248.01	27.51	-23.2	-24.3	19.4	0.00e+00	0	44	0	2758803456	6	4092
2026-01-22 03:30:22.06	247.83	27.37	-23.1	-24.2	19.5	0.00e+00	0	44	0	2764046336	6	4067
2026-01-22 03:30:23.06	247.65	27.22	-23.2	-24.3	19.4	5.70e-06	0	44	0	2770337792	6	4103
2026-01-22 03:30:24.06	247.47	27.08	-23.5	-24.9	19.1	0.00e+00	0	44	0	2775580672	6	4252
2026-01-22 03:30:25.07	247.29	26.94	-23.6	-24.7	19.0	0.00e+00	0	44	0	2780823552	7	4085
2026-01-22 03:30:26.07	247.11	26.80	-23.6	-24.8	18.9	0.00e+00	0	44	0	2787115008	7	4102
2026-01-22 03:30:27.08	246.93	26.65	-23.8	-25.1	18.8	0.00e+00	0	44	0	2792357888	7	4172
2026-01-22 03:30:28.07	246.76	26.52	-23.6	-24.7	18.9	0.00e+00	0	44	0	2797600768	7	4092
2026-01-22 03:30:29.07	246.59	26.38	-23.6	-24.7	18.9	0.00e+00	0	44	0	2803892224	7	4092
2026-01-22 03:30:30.07	246.42	26.24	-23.6	-24.7	19.0	0.00e+00	0	44	0	2809135104	7	4075
2026-01-22 03:30:31.08	246.24	26.10	-23.9	-25.3	18.6	0.00e+00	0	44	0	2815426560	7	4232
2026-01-22 03:30:32.08	246.08	25.96	-23.6	-24.7	18.9	0.00e+00	0	44	0	2820669440	7	4086
2026-01-22 03:30:33.09	245.91	25.82	-23.4	-24.3	19.1	0.00e+00	0	44	0	2825912320	7	3982
2026-01-22 03:30:34.09	245.74	25.68	-23.4	-24.2	19.1	0.00e+00	0	44	0	2832203776	7	3970
2026-01-22 03:30:35.10	245.58	25.54	-23.4	-24.4	19.1	0.00e+00	0	44	0	2837446656	7	4002
2026-01-22 03:30:36.10	245.41	25.41	-23.5	-24.5	19.0	0.00e+00	0	44	0	2843738112	7	4043
2026-01-22 03:30:37.10	245.25	25.27	-23.4	-24.7	19.1	0.00e+00	0	44	0	2848980992	6	4202
2026-01-22 03:30:38.11	245.09	25.13	-23.3	-24.7	19.2	0.00e+00	0	44	0	2854223872	6	4187
2026-01-22 03:30:39.11	244.94	25.00	-23.4	-24.7	19.1	0.00e+00	0	44	0	2860515328	6	4188
2026-01-22 03:30:40.11	244.78	24.86	-23.3	-24.5	19.2	0.00e+00	0	44	0	2865758208	6	4153
2026-01-22 03:30:41.10	244.62	24.73	-23.2	-24.5	19.3	0.00e+00	0	44	0	2871001088	6	4138
2026-01-22 03:30:42.11	244.47	24.59	-23.4	-24.8	19.1	0.00e+00	0	44	0	2877292544	6	4230
2026-01-22 03:30:43.11	244.32	24.46	-23.3	-24.5	19.2	0.00e+00	0	44	0	2882535424	6	4164
2026-01-22 03:30:44.11	244.17	24.33	-23.2	-24.5	19.2	0.00e+00	0	44	0	2887778304	6	4139
2026-01-22 03:30:45.11	244.02	24.19	-23.3	-24.6	19.2	0.00e+00	0	44	0	2894069760	6	4176
2026-01-22 03:30:46.12	243.86	24.06	-23.2	-24.4	19.3	0.00e+00	0	44	0	2899312640	6	4118
2026-01-22 03:30:47.12	243.72	23.93	-23.2	-24.3	19.3	0.00e+00	0	44	0	2905604096	6	4109
2026-01-22 03:30:48.12	243.57	23.80	-23.3	-24.5	19.2	0.00e+00	0	44	0	2910846976	6	4151
2026-01-22 03:30:49.13	243.42	23.67	-23.2	-24.4	19.3	0.00e+00	0	44	0	2917138432	6	4117
2026-01-22 03:30:50.14	243.28	23.53	-23.1	-24.2	19.3	0.00e+00	0	44	0	2922381312	6	4084
2026-01-22 03:30:51.14	243.14	23.40	-23.2	-24.3	19.3	0.00e+00	0	44	0	2927624192	6	4100
2026-01-22 03:30:52.15	242.99	23.27	-23.2	-24.3	19.3	0.00e+00	0	44	0	2933915648	6	4104
2026-01-22 03:30:53.15	242.85	23.14	-23.3	-24.6	19.1	0.00e+00	0	44	0	2939158528	6	4174
2026-01-22 03:30:54.16	242.71	23.01	-23.3	-24.6	19.1	0.00e+00	0	44	0	2944401408	6	4180
2026-01-22 03:30:55.16	242.58	22.89	-23.6	-24.6	18.8	0.00e+00	0	44	0	2950692864	7	4069
2026-01-22 03:30:56.16	242.44	22.76	-23.7	-24.9	18.7	0.00e+00	0	44	0	2955935744	7	4146
2026-01-22 03:30:57.17	242.30	22.63	-23.9	-25.3	18.5	0.00e+00	0	44	0	2961178624	7	4239
2026-01-22 03:30:58.17	242.17	22.50	-23.8	-25.1	18.6	0.00e+00	0	44	0	2967470080	7	4182
2026-01-22 03:30:59.17	242.03	22.38	-23.7	-25.0	18.6	0.00e+00	0	44	0	2972712960	7	4159
2026-01-22 03:31:00.18	241.90	22.25	-23.8	-25.1	18.6	0.00e+00	0	44	0	2979004416	7	4191
2026-01-22 03:31:01.18	241.77	22.13	-23.7	-25.0	18.6	0.00e+00	0	44	0	2984247296	7	4157
2026-01-22 03:31:02.19	241.64	22.00	-23.8	-25.1	18.6	0.00e+00	0	44	0	2990538752	7	4188
2026-01-22 03:31:03.19	241.51	21.87	-23.9	-25.4	18.4	0.00e+00	0	44	0	2995781632	7	4260
2026-01-22 03:31:04.19	241.38	21.75	-23.8	-25.2	18.5	1.10e-06	0	44	0	3001024512	7	4211
2026-01-22 03:31:05.20	241.25	21.63	-24.1	-25.3	18.2	0.00e+00	0	44	0	3007315968	8	4129
2026-01-22 03:31:06.20	241.13	21.50	-24.4	-25.8	18.0	0.00e+00	0	44	0	3012558848	8	4266
2026-01-22 03:31:07.21	241.00	21.38	-24.1	-25.3	18.2	4.50e-06	0	44	0	3017801728	8	4125
2026-01-22 03:31:08.22	240.88	21.26	-23.9	-24.9	18.4	0.00e+00	0	44	0	3024093184	8	4037
2026-01-22 03:31:09.23	240.75	21.13	-23.9	-24.8	18.5	0.00e+00	0	44	0	3029336064	8	4007
2026-01-22 03:31:10.23	240.63	21.01	-23.9	-24.8	18.5	0.00e+00	0	44	0	3035627520	8	3997
2026-01-22 03:31:11.23	240.51	20.89	-23.9	-24.9	18.4	0.00e+00	0	44	0	3040870400	8	4021
2026-01-22 03:31:12.24	240.39	20.77	-24.0	-25.0	18.4	0.00e+00	0	44	0	3046113280	8	4053
2026-01-22 03:31:13.24	240.27	20.65	-23.7	-24.5	18.6	0.00e+00	0	44	0	3052404736	8	3927
2026-01-22 03:31:14.24	240.15	20.53	-23.8	-24.6	18.6	0.00e+00	0	44	0	3057647616	8	3936
2026-01-22 03:31:15.24	240.03	20.41	-23.8	-25.1	18.5	0.00e+00	0	44	0	3063939072	7	4188
2026-01-22 03:31:16.25	239.92	20.29	-23.8	-25.1	18.5	0.00e+00	0	44	0	3069181952	7	4186
2026-01-22 03:31:17.25	239.80	20.17	-23.9	-25.2	18.4	0.00e+00	0	44	0	3074424832	7	4223
2026-01-22 03:31:18.26	239.69	20.05	-24.0	-25.5	18.3	0.00e+00	0	44	0	3080716288	7	4302
2026-01-22 03:31:19.27	239.57	19.94	-24.1	-25.2	18.2	0.00e+00	0	44	0	3085959168	8	4111
2026-01-22 03:31:20.27	239.46	19.82	-23.6	-24.9	17.6	0.00e+00	0	44	0	3091202048	8	4200
2026-01-22 03:31:21.28	239.35	19.70	-24.3	-25.7	18.0	0.00e+00	0	44	0	3097493504	8	4242
2026-01-22 03:31:22.28	239.24	19.58	-24.4	-26.0	17.8	0.00e+00	0	44	0	3102736384	8	4305
2026-01-22 03:31:23.29	239.12	19.47	-24.4	-26.0	17.8	0.00e+00	0	44	0	3109027840	8	4309
2026-01-22 03:31:24.30	239.01	19.35	-24.7	-26.0	17.6	1.85e-04	0	44	0	3114270720	9	4180
2026-01-22 03:31:25.30	238.91	19.24	-24.8	-26.2	17.4	0.00e+00	0	44	0	3119513600	9	4237
2026-01-22 03:31:26.30	238.80	19.12	-24.5	-25.7	17.7	0.00e+00	0	44	0	3125805056	9	4117
2026-01-22 03:31:27.30	238.69	19.01	-24.4	-25.4	17.8	0.00e+00	0	44	0	3131047936	9	4048
2026-01-22 03:31:28.31	238.59	18.89	-24.4	-25.4	17.8	0.00e+00	0	44	0	3137339392	9	4048
2026-01-22 03:31:29.31	238.48	18.78	-24.5	-25.5	17.8	0.00e+00	0	44	0	3142582272	9	4070
2026-01-22 03:31:30.31	238.38	18.67	-24.5	-25.6	17.7	0.00e+00	0	44	0	3147825152	9	4099
2026-01-22 03:31:31.32	238.27	18.56	-24.6	-25.8	17.6	0.00e+00	0	44	0	3154116608	9	4128
2026-01-22 03:31:32.32	238.17	18.44	-24.5	-25.7	17.7	0.00e+00	0	44	0	3159359488	9	4112
2026-01-22 03:31:33.33	238.07	18.33	-24.7	-26.1	17.5	1.43e-04	0	44	0	3165650944	9	4203
2026-01-22 03:31:34.33	237.97	18.22	-24.8	-26.3	17.3	0.00e+00	0	44	0	3170893824	9	4280
2026-01-22 03:31:35.34	237.86	18.11	-24.8	-26.3	17.3	1.62e-04	0	44	0	3176136704	9	4272
2026-01-22 03:31:36.34	237.76	18.00	-25.0	-26.6	17.1	0.00e+00	0	44	0	3182428160	9	4359
2026-01-22 03:31:37.34	237.67	17.89	-25.2	-26.5	17.0	0.00e+00	0	44	0	3187671040	10	4211
2026-01-22 03:31:38.34	237.57	17.78	-25.3	-26.9	16.7	1.72e-04	0	44	0	3192913920	10	4317
2026-01-22 03:31:39.34	237.47	17.67	-25.2	-26.6	16.9	0.00e+00	0	44	0	3199205376	10	4234
2026-01-22 03:31:40.34	237.37	17.56	-25.1	-26.5	16.9	0.00e+00	0	44	0	3204448256	10	4213
2026-01-22 03:31:41.35	237.28	17.45	-25.2	-26.5	16.9	0.00e+00	0	44	0	3210739712	10	4217
2026-01-22 03:31:42.36	237.18	17.34	-25.3	-26.7	16.8	2.17e-04	0	44	0	3215982592	10	4272
2026-01-22 03:31:43.35	237.09	17.24	-25.5	-26.7	16.5	0.00e+00	0	44	0	3221225472	11	4155
2026-01-22 03:31:44.35	236.99	17.13	-25.1	-26.0	16.9	0.00e+00	0	44	0	3227516928	11	3972
2026-01-22 03:31:45.35	236.90	17.02	-24.9	-26.1	17.2	2.14e-04	0	44	0	3232759808	10	4095
2026-01-22 03:31:46.35	236.81	16.92	-24.9	-26.0	17.2	0.00e+00	0	44	0	3238002688	10	4086
2026-01-22 03:31:47.36	236.71	16.81	-24.9	-26.0	17.2	1.92e-04	0	44	0	3244294144	10	4095
2026-01-22 03:31:48.36	236.62	16.70	-24.9	-25.9	17.2	0.00e+00	0	44	0	3249537024	10	4071
2026-01-22 03:31:49.36	236.53	16.60	-24.9	-26.1	17.1	0.00e+00	0	44	0	3254779904	10	4104
2026-01-22 03:31:50.36	236.44	16.50	-24.8	-25.9	17.2	0.00e+00	0	44	0	3261071360	10	4049
2026-01-22 03:31:51.36	236.35	16.39	-24.9	-26.0	17.2	0.00e+00	0	44	0	3266314240	10	4078
2026-01-22 03:31:52.36	236.26	16.29	-24.9	-26.1	17.1	0.00e+00	0	44	0	3272605696	10	4099
2026-01-22 03:31:53.36	236.18	16.18	-24.9	-26.0	17.1	0.00e+00	0	44	0	3277848576	10	4091
2026-01-22 03:31:54.36	236.09	16.08	-25.0	-26.1	17.1	1.98e-04	0	44	0	3283091456	10	4114
2026-01-22 03:31:55.37	236.00	15.98	-25.1	-26.3	17.0	0.00e+00	0	44	0	3289382912	10	4168
2026-01-22 03:31:56.38	235.91	15.87	-25.2	-26.6	16.8	1.86e-04	0	44	0	3294625792	10	4241
2026-01-22 03:31:57.38	235.83	15.77	-25.0	-26.3	17.0	0.00e+00	0	44	0	3300917248	10	4157
2026-01-22 03:31:58.38	235.74	15.67	-25.1	-26.4	17.0	0.00e+00	0	44	0	3306160128	10	4178
2026-01-22 03:31:59.38	235.66	15.57	-25.1	-26.4	16.9	2.17e-04	0	44	0	3311403008	10	4186
2026-01-22 03:32:00.38	235.58	15.47	-25.2	-26.6	16.8	2.39e-04	0	44	0	3317694464	10	4246
2026-01-22 03:32:01.38	235.49	15.37	-25.2	-26.6	16.8	0.00e+00	0	44	0	3322937344	10	4227
2026-01-22 03:32:02.39	235.41	15.26	-25.2	-26.6	16.8	0.00e+00	0	44	0	3328180224	10	4224
2026-01-22 03:32:03.39	235.33	15.16	-25.2	-26.7	16.7	1.82e-04	0	44	0	3334471680	10	4260
2026-01-22 03:32:04.39	235.25	15.06	-25.2	-26.6	16.8	0.00e+00	0	44	0	3339714560	10	4239
2026-01-22 03:32:05.40	235.16	14.96	-25.3	-26.8	16.7	1.79e-04	0	44	0	3346006016	10	4277
2026-01-22 03:32:06.41	235.08	14.86	-25.3	-26.9	16.6	1.80e-04	0	44	0	3351248896	10	4316
2026-01-22 03:32:07.41	235.00	14.77	-25.3	-26.9	16.6	0.00e+00	0	44	0	3356491776	10	4311
2026-01-22 03:32:08.41	234.92	14.67	-25.4	-27.0	16.5	7.20e-05	0	44	0	3362783232	10	4357
2026-01-22 03:32:09.41	234.85	14.57	-25.4	-27.1	16.5	0.00e+00	0	44	0	3368026112	10	4377
2026-01-22 03:32:10.41	234.77	14.47	-25.5	-26.8	16.4	0.00e+00	0	44	0	3373268992	11	4175
2026-01-22 03:32:11.41	234.69	14.37	-25.4	-26.6	16.5	0.00e+00	0	44	0	3379560448	11	4129
2026-01-22 03:32:12.42	234.61	14.28	-25.4	-26.6	16.5	0.00e+00	0	44	0	3384803328	11	4131
2026-01-22 03:32:13.42	234.54	14.18	-25.5	-26.9	16.3	0.00e+00	0	44	0	3390046208	11	4212
2026-01-22 03:32:14.43	234.46	14.08	-25.6	-27.0	16.2	0.00e+00	0	44	0	3396337664	11	4242
2026-01-22 03:32:15.43	234.38	13.99	-25.6	-27.1	16.2	1.10e-06	0	44	0	3401580544	11	4277
2026-01-22 03:32:16.44	234.31	13.89	-25.6	-27.2	16.1	0.00e+00	0	44	0	3407872000	11	4287
2026-01-22 03:32:17.45	234.23	13.79	-25.6	-27.0	16.2	0.00e+00	0	44	0	3413114880	11	4251
2026-01-22 03:32:18.45	234.16	13.70	-25.7	-27.2	16.1	1.10e-06	0	44	0	3419406336	11	4286
2026-01-22 03:32:19.45	234.08	13.61	-25.6	-27.1	16.1	0.00e+00	0	44	0	3424649216	11	4263
2026-01-22 03:32:20.45	234.01	13.51	-25.7	-27.2	16.1	0.00e+00	0	44	0	3429892096	11	4292
2026-01-22 03:32:21.46	233.94	13.42	-25.7	-27.3	16.0	1.10e-06	0	44	0	3436183552	11	4330
2026-01-22 03:32:22.45	233.87	13.32	-25.7	-27.2	16.1	0.00e+00	0	44	0	3441426432	11	4278
2026-01-22 03:32:23.45	233.79	13.23	-25.8	-27.4	15.9	0.00e+00	0	44	0	3446669312	11	4353
2026-01-22 03:32:24.45	233.72	13.14	-25.9	-27.6	15.8	1.10e-06	0	44	0	3452960768	11	4399
2026-01-22 03:32:25.46	233.65	13.04	-25.7	-27.2	16.1	0.00e+00	0	44	0	3458203648	11	4287
2026-01-22 03:32:26.46	233.58	12.95	-25.7	-27.1	16.1	0.00e+00	0	44	0	3463446528	11	4276
2026-01-22 03:32:27.47	233.51	12.86	-25.7	-27.1	16.1	0.00e+00	0	44	0	3469737984	11	4272
2026-01-22 03:32:28.47	233.44	12.77	-25.7	-27.3	16.0	1.10e-06	0	44	0	3474980864	11	4312
2026-01-22 03:32:29.48	233.37	12.67	-25.8	-27.4	15.9	0.00e+00	0	44	0	3481272320	11	4334
2026-01-22 03:32:30.49	233.30	12.58	-25.7	-27.3	16.0	0.00e+00	0	44	0	3486515200	11	4326
2026-01-22 03:32:31.49	233.24	12.49	-25.8	-27.4	15.9	0.00e+00	0	44	0	3492806656	11	4351
2026-01-22 03:32:32.50	233.17	12.40	-25.8	-27.5	15.9	0.00e+00	0	44	0	3498049536	11	4373
2026-01-22 03:32:33.50	233.10	12.31	-25.8	-27.6	15.8	9.10e-06	0	44	0	3503292416	11	4388
2026-01-22 03:32:34.50	233.03	12.22	-25.9	-27.6	15.8	0.00e+00	0	44	0	3509583872	11	4411
2026-01-22 03:32:35.51	232.97	12.13	-25.9	-27.7	15.7	7.78e-05	0	44	0	3514826752	11	4430
2026-01-22 03:32:36.52	232.90	12.04	-25.9	-27.2	15.6	9.04e-05	0	44	0	3520069632	12	4180
2026-01-22 03:32:37.53	232.83	11.95	-25.8	-27.1	15.7	0.00e+00	0	44	0	3526361088	12	4151
2026-01-22 03:32:38.53	232.77	11.86	-25.8	-27.0	15.8	0.00e+00	0	44	0	3531603968	12	4129
2026-01-22 03:32:39.54	232.70	11.77	-25.7	-26.9	15.8	0.00e+00	0	44	0	3537895424	12	4098
2026-01-22 03:32:40.54	232.64	11.68	-25.8	-27.0	15.7	0.00e+00	0	44	0	3543138304	12	4146
2026-01-22 03:32:41.54	232.57	11.59	-25.8	-27.0	15.7	0.00e+00	0	44	0	3548381184	12	4147
2026-01-22 03:32:42.54	232.51	11.51	-25.8	-26.9	15.7	9.38e-05	0	44	0	3554672640	12	4119
2026-01-22 03:32:43.54	232.45	11.42	-25.9	-27.3	15.6	0.00e+00	0	44	0	3559915520	12	4201
2026-01-22 03:32:44.54	232.39	11.33	-25.9	-27.3	15.5	1.34e-04	0	44	0	3566206976	12	4223
2026-01-22 03:32:45.55	232.32	11.24	-25.8	-27.0	15.7	0.00e+00	0	44	0	3571449856	12	4141
2026-01-22 03:32:46.56	232.26	11.16	-25.8	-27.1	15.6	0.00e+00	0	44	0	3576692736	12	4155
2026-01-22 03:32:47.56	232.20	11.07	-25.9	-27.3	15.5	9.10e-06	0	44	0	3582984192	12	4214
2026-01-22 03:32:48.57	232.14	10.98	-25.8	-27.0	15.7	0.00e+00	0	44	0	3588227072	12	4141
2026-01-22 03:32:49.57	232.08	10.90	-25.9	-27.3	15.5	0.00e+00	0	44	0	3593469952	12	4209
2026-01-22 03:32:50.58	232.02	10.81	-25.9	-27.2	15.5	0.00e+00	0	44	0	3599761408	12	4198
2026-01-22 03:32:51.58	231.96	10.73	-26.0	-27.5	15.4	0.00e+00	0	44	0	3605004288	12	4264
2026-01-22 03:32:52.58	231.90	10.64	-26.0	-27.6	15.3	0.00e+00	0	44	0	3611295744	12	4283
2026-01-22 03:32:53.59	231.84	10.55	-26.0	-27.5	15.4	0.00e+00	0	44	0	3616538624	12	4273
2026-01-22 03:32:54.59	231.78	10.47	-26.0	-27.4	15.4	0.00e+00	0	44	0	3621781504	12	4259
2026-01-22 03:32:55.59	231.72	10.39	-26.2	-28.0	15.1	0.00e+00	0	44	0	3628072960	12	4404
2026-01-22 03:32:56.59	231.66	10.30	-26.3	-28.1	15.0	0.00e+00	0	44	0	3633315840	12	4446
2026-01-22 03:32:57.59	231.60	10.22	-26.2	-27.8	15.2	0.00e+00	0	44	0	3639607296	12	4352
2026-01-22 03:32:58.60	231.54	10.13	-26.1	-27.7	15.3	0.00e+00	0	44	0	3644850176	12	4324
2026-01-22 03:32:59.61	231.49	10.05	-26.1	-27.8	15.2	0.00e+00	0	44	0	3650093056	12	4354
2026-01-22 03:33:00.61	231.43	9.97	-26.3	-28.1	15.1	0.00e+00	0	44	0	3656384512	12	4451
2026-01-22 03:33:01.61	231.37	9.88	-26.3	-28.2	15.0	0.00e+00	0	44	0	3661627392	12	4476
2026-01-22 03:33:02.61	231.32	9.80	-26.4	-28.3	14.9	0.00e+00	0	44	0	3666870272	12	4503
2026-01-22 03:33:03.61	231.26	9.72	-26.4	-28.3	14.9	0.00e+00	0	44	0	3673161728	12	4493
2026-01-22 03:33:04.62	231.20	9.64	-26.5	-28.6	14.7	0.00e+00	0	44	0	3678404608	12	4576
2026-01-22 03:33:05.62	231.15	9.56	-26.8	-28.7	14.3	0.00e+00	0	44	0	3683647488	13	4503
2026-01-22 03:33:06.62	231.09	9.47	-26.7	-28.6	14.4	1.10e-06	0	44	0	3689938944	13	4462
2026-01-22 03:33:07.62	231.04	9.39	-26.7	-28.7	14.4	0.00e+00	0	44	0	3695181824	13	4494
2026-01-22 03:33:08.63	230.99	9.31	-26.7	-28.6	14.4	0.00e+00	0	44	0	3701473280	13	4469
2026-01-22 03:33:09.63	230.93	9.23	-26.6	-28.3	14.6	0.00e+00	0	44	0	3706716160	13	4378
2026-01-22 03:33:10.64	230.88	9.15	-26.6	-28.3	14.5	0.00e+00	0	44	0	3713007616	13	4388
2026-01-22 03:33:11.64	230.82	9.07	-26.5	-28.2	14.6	0.00e+00	0	44	0	3718250496	13	4350
2026-01-22 03:33:12.64	230.77	8.99	-26.7	-28.5	14.4	0.00e+00	0	44	0	3723493376	13	4439
2026-01-22 03:33:13.64	230.72	8.91	-26.5	-28.2	14.6	0.00e+00	0	44	0	3729784832	13	4362
2026-01-22 03:33:14.65	230.67	8.83	-26.5	-28.2	14.6	0.00e+00	0	44	0	3735027712	13	4352
2026-01-22 03:33:15.65	230.61	8.75	-26.3	-27.7	14.9	0.00e+00	0	44	0	3740270592	13	4222
2026-01-22 03:33:16.66	230.56	8.67	-26.4	-28.0	14.7	0.00e+00	0	44	0	3746562048	13	4295
2026-01-22 03:33:17.67	230.51	8.59	-26.4	-27.8	14.8	8.00e-06	0	44	0	3751804928	13	4257
2026-01-22 03:33:18.67	230.46	8.51	-26.4	-27.9	14.7	1.10e-06	0	45	0	3757047808	13	4276
2026-01-22 03:33:19.68	230.41	8.43	-26.4	-28.0	14.6	0.00e+00	0	44	0	3763339264	13	4302
2026-01-22 03:33:20.68	230.36	8.35	-26.5	-28.1	14.6	0.00e+00	0	44	0	3768582144	13	4324
2026-01-22 03:33:21.68	230.31	8.28	-26.6	-28.2	14.5	0.00e+00	0	44	0	3774873600	13	4368
2026-01-22 03:33:22.68	230.26	8.20	-26.5	-28.2	14.5	1.10e-06	0	44	0	3780116480	13	4363
2026-01-22 03:33:23.69	230.21	8.12	-26.4	-28.0	14.6	2.20e-06	0	44	0	3786407936	13	4311
2026-01-22 03:33:24.69	230.16	8.04	-26.4	-28.0	14.6	0.00e+00	0	44	0	3791650816	13	4297
2026-01-22 03:33:25.70	230.11	7.96	-26.5	-28.1	14.5	0.00e+00	0	44	0	3796893696	13	4348
2026-01-22 03:33:26.70	230.06	7.89	-26.6	-28.3	14.4	2.20e-06	0	44	0	3803185152	13	4383
2026-01-22 03:33:27.71	230.01	7.81	-26.8	-28.7	14.2	0.00e+00	0	44	0	3808428032	13	4507
2026-01-22 03:33:28.71	229.96	7.73	-26.6	-28.4	14.3	0.00e+00	0	44	0	3813670912	13	4434
2026-01-22 03:33:29.71	229.91	7.66	-26.6	-28.3	14.4	3.40e-06	0	44	0	3819962368	13	4386
2026-01-22 03:33:30.71	229.86	7.58	-26.5	-28.3	14.4	0.00e+00	0	44	0	3825205248	13	4382
2026-01-22 03:33:31.71	229.82	7.51	-26.5	-28.2	14.4	0.00e+00	0	44	0	3830448128	13	4378
2026-01-22 03:33:32.72	229.77	7.43	-26.7	-28.5	14.2	0.00e+00	0	44	0	3836739584	13	4454
2026-01-22 03:33:33.72	229.72	7.35	-26.7	-28.5	14.2	0.00e+00	0	44	0	3841982464	13	4453
2026-01-22 03:33:34.72	229.67	7.28	-26.7	-28.6	14.2	1.10e-06	0	45	0	3848273920	13	4481
2026-01-22 03:33:35.73	229.63	7.20	-26.7	-28.7	14.1	2.20e-06	0	44	0	3853516800	13	4510
2026-01-22 03:33:36.73	229.58	7.13	-26.7	-28.5	14.2	1.10e-06	0	44	0	3859808256	13	4466
