passes_logs/2026/01/22/R2M6_AANII_01/R2M6_AANII_01__20260122_105728_NOAA_20_JPSS-1_rec.log

#Pass ID: 20260122_105728_NOAA 20 (JPSS-1)
#Satellite: NOAA 20 (JPSS-1)
#Configuration: NOAA 20
#almurnet v.1.7.20240730
#Start time: 2026-01-22 10:57:28

#Version: 2.2.20231116
#Station: R2M6_AANII_01
#Location: 30.233357 lon 59.946436 lat
#TLE: 1 43013U 17073A   26021.46221703  .00000173  00000+0  10299-3 0  9999
#TLE: 2 43013  98.7644 322.3335 0001238  29.7597 330.3649 14.19538314423652

#Time	Az	El	Level	Level2	SNR	BER	BlckErr	Temp	State	Recorded	gain1	gain2
2026-01-22 10:57:28.87	180.15	7.03	-30.4	-34.6	5.5	1.18e+00	0	41	0	0	21	5820
2026-01-22 10:57:29.87	180.19	7.11	-31.1	-36.6	5.2	1.24e+00	0	41	104	0	22	6807
2026-01-22 10:57:30.87	180.23	7.18	-31.0	-36.0	9.4	2.54e-02	0	41	0	0	22	6425
2026-01-22 10:57:31.87	180.27	7.26	-31.0	-36.2	9.2	1.70e-02	0	41	0	1048576	22	6553
2026-01-22 10:57:32.88	180.31	7.33	-31.0	-36.1	9.3	1.85e-02	0	41	0	3145728	22	6461
2026-01-22 10:57:33.89	180.35	7.41	-30.8	-35.4	9.9	1.23e-02	0	41	0	5242880	22	6075
2026-01-22 10:57:34.89	180.39	7.49	-30.6	-34.5	10.6	4.48e-03	0	41	0	7340032	22	5668
2026-01-22 10:57:35.89	180.44	7.56	-30.5	-34.1	10.9	2.74e-03	0	41	0	9437184	22	5483
2026-01-22 10:57:36.89	180.48	7.64	-30.3	-34.1	11.3	1.62e-03	0	42	0	10485760	21	5582
2026-01-22 10:57:37.89	180.52	7.72	-30.4	-34.3	11.1	1.26e-03	0	42	0	12582912	21	5644
2026-01-22 10:57:38.89	180.56	7.80	-30.3	-34.2	11.2	1.39e-03	0	41	0	14680064	21	5624
2026-01-22 10:57:39.89	180.60	7.87	-30.4	-34.2	11.2	1.15e-03	0	42	0	16777216	21	5613
2026-01-22 10:57:40.90	180.65	7.95	-30.3	-33.9	11.5	1.39e-03	0	42	0	17825792	21	5475
2026-01-22 10:57:41.89	180.69	8.03	-30.3	-34.1	11.4	1.15e-03	0	42	0	19922944	21	5549
2026-01-22 10:57:42.89	180.73	8.11	-30.2	-33.8	11.6	8.33e-04	0	42	0	22020096	21	5430
2026-01-22 10:57:43.90	180.78	8.19	-30.1	-33.7	11.6	7.86e-04	0	42	0	24117248	21	5439
2026-01-22 10:57:44.90	180.82	8.26	-30.2	-33.8	11.6	5.53e-04	0	42	0	26214400	21	5430
2026-01-22 10:57:45.90	180.86	8.34	-30.3	-34.1	11.3	9.02e-04	0	42	0	27262976	21	5576
2026-01-22 10:57:46.91	180.91	8.42	-30.2	-33.8	11.6	7.77e-04	0	42	0	29360128	21	5412
2026-01-22 10:57:47.92	180.95	8.50	-30.2	-33.5	11.8	6.50e-04	0	42	0	31457280	21	5316
2026-01-22 10:57:48.92	181.00	8.58	-30.1	-33.3	11.9	5.02e-04	0	42	0	33554432	21	5232
2026-01-22 10:57:49.92	181.04	8.66	-30.1	-33.3	12.0	3.21e-04	0	42	0	35651584	21	5226
2026-01-22 10:57:50.92	181.09	8.74	-30.1	-33.2	12.1	3.58e-04	0	42	0	36700160	21	5183
2026-01-22 10:57:51.92	181.13	8.82	-30.2	-33.6	11.8	3.71e-04	0	42	0	38797312	21	5322
2026-01-22 10:57:52.92	181.18	8.90	-30.1	-33.4	11.9	5.64e-04	0	42	0	40894464	21	5254
2026-01-22 10:57:53.92	181.22	8.99	-29.9	-33.0	12.2	2.47e-04	0	42	0	42991616	21	5104
2026-01-22 10:57:54.92	181.27	9.07	-29.9	-33.4	12.3	2.06e-04	0	42	0	45088768	20	5351
2026-01-22 10:57:55.93	181.32	9.15	-30.0	-33.5	12.2	1.79e-04	0	42	0	46137344	20	5403
2026-01-22 10:57:56.94	181.36	9.23	-30.0	-33.4	12.3	1.80e-04	0	42	0	48234496	20	5357
2026-01-22 10:57:57.94	181.41	9.31	-29.9	-33.3	12.4	1.65e-04	0	42	0	50331648	20	5312
2026-01-22 10:57:58.94	181.46	9.39	-30.1	-33.7	12.1	2.89e-04	0	42	0	52428800	20	5479
2026-01-22 10:57:59.94	181.50	9.48	-30.0	-33.5	12.3	4.23e-04	0	42	0	54525952	20	5388
2026-01-22 10:58:00.94	181.55	9.56	-30.1	-33.8	12.1	2.11e-04	0	42	0	55574528	20	5501
2026-01-22 10:58:01.94	181.60	9.64	-29.9	-33.4	12.3	2.56e-04	0	42	0	57671680	20	5371
2026-01-22 10:58:02.95	181.65	9.73	-29.9	-33.2	12.5	2.59e-04	0	42	0	59768832	20	5265
2026-01-22 10:58:03.95	181.69	9.81	-29.9	-33.3	12.4	2.72e-04	0	42	0	61865984	20	5303
2026-01-22 10:58:04.95	181.74	9.89	-29.9	-33.2	12.5	1.08e-04	0	42	0	62914560	20	5251
2026-01-22 10:58:05.96	181.79	9.98	-29.9	-33.2	12.5	2.11e-04	0	42	0	65011712	20	5258
2026-01-22 10:58:06.96	181.84	10.06	-30.0	-33.5	12.2	1.73e-04	0	42	0	67108864	20	5404
2026-01-22 10:58:07.96	181.89	10.15	-29.9	-33.3	12.5	1.62e-04	0	42	0	69206016	20	5286
2026-01-22 10:58:08.97	181.94	10.23	-29.9	-33.2	12.5	1.20e-04	0	42	0	71303168	20	5272
2026-01-22 10:58:09.97	181.99	10.32	-30.0	-33.4	12.4	2.33e-04	0	43	0	73400320	20	5333
2026-01-22 10:58:10.97	182.04	10.40	-30.0	-33.3	12.5	3.12e-04	0	42	0	74448896	20	5301
2026-01-22 10:58:11.98	182.09	10.49	-30.0	-33.5	12.4	1.54e-04	0	43	0	76546048	20	5361
2026-01-22 10:58:12.98	182.14	10.58	-29.9	-33.3	12.4	1.46e-04	0	43	0	78643200	20	5334
2026-01-22 10:58:13.99	182.19	10.66	-30.0	-33.5	12.3	1.65e-04	0	42	0	80740352	20	5385
2026-01-22 10:58:14.98	182.24	10.75	-30.1	-33.8	12.2	2.51e-04	0	42	0	81788928	20	5495
2026-01-22 10:58:15.99	182.29	10.84	-30.0	-33.5	12.4	1.69e-04	0	43	0	83886080	20	5358
2026-01-22 10:58:16.99	182.35	10.92	-29.9	-33.3	12.6	2.50e-04	0	43	0	85983232	20	5277
2026-01-22 10:58:18.00	182.40	11.01	-30.0	-33.4	12.5	1.16e-04	0	43	0	88080384	20	5349
2026-01-22 10:58:19.01	182.45	11.10	-30.0	-33.5	12.4	4.33e-04	0	43	0	90177536	20	5377
2026-01-22 10:58:20.01	182.50	11.19	-30.0	-33.4	12.4	4.47e-04	0	43	0	91226112	20	5335
2026-01-22 10:58:21.02	182.56	11.28	-30.0	-33.3	12.6	1.23e-04	0	43	0	93323264	20	5287
2026-01-22 10:58:22.02	182.61	11.37	-30.1	-33.6	12.3	2.49e-04	0	43	0	95420416	20	5412
2026-01-22 10:58:23.03	182.66	11.45	-30.0	-33.4	12.5	2.05e-04	0	42	0	97517568	20	5317
2026-01-22 10:58:24.03	182.72	11.54	-30.0	-33.4	12.4	1.18e-04	0	43	0	99614720	20	5356
2026-01-22 10:58:25.04	182.77	11.63	-30.1	-33.7	12.3	1.51e-04	0	43	0	100663296	20	5461
2026-01-22 10:58:26.04	182.83	11.72	-30.0	-33.5	12.5	1.48e-04	0	43	0	102760448	20	5354
2026-01-22 10:58:27.04	182.88	11.81	-30.0	-33.4	12.5	4.29e-04	0	43	0	104857600	20	5318
2026-01-22 10:58:28.04	182.94	11.90	-30.0	-33.4	12.5	1.95e-04	0	43	0	106954752	20	5320
2026-01-22 10:58:29.05	182.99	12.00	-30.1	-33.7	12.4	4.74e-04	0	43	0	109051904	20	5427
2026-01-22 10:58:30.04	183.05	12.09	-30.0	-33.5	12.5	1.23e-04	0	43	0	110100480	20	5356
2026-01-22 10:58:31.04	183.10	12.18	-30.1	-33.5	12.4	1.26e-04	0	43	0	112197632	20	5382
2026-01-22 10:58:32.04	183.16	12.27	-30.2	-33.9	12.2	1.52e-04	0	43	0	114294784	20	5528
2026-01-22 10:58:33.05	183.22	12.36	-30.1	-33.6	12.4	3.51e-04	0	43	0	116391936	20	5424
2026-01-22 10:58:34.06	183.27	12.46	-30.0	-33.3	12.6	1.42e-04	0	43	0	118489088	20	5298
2026-01-22 10:58:35.06	183.33	12.55	-29.9	-33.2	12.7	9.07e-05	0	43	0	119537664	20	5260
2026-01-22 10:58:36.06	183.39	12.64	-29.9	-33.2	12.6	2.97e-04	0	43	0	121634816	20	5233
2026-01-22 10:58:37.07	183.45	12.73	-29.9	-33.0	12.8	3.04e-04	0	43	0	123731968	20	5158
2026-01-22 10:58:38.07	183.50	12.83	-30.0	-33.5	12.5	9.30e-05	0	43	0	125829120	20	5351
2026-01-22 10:58:39.07	183.56	12.92	-29.9	-33.0	12.8	2.14e-04	0	43	0	127926272	20	5155
2026-01-22 10:58:40.08	183.62	13.02	-29.7	-32.6	13.1	4.58e-04	0	43	0	128974848	20	5008
2026-01-22 10:58:41.09	183.68	13.11	-29.7	-32.5	13.2	2.36e-05	0	43	0	131072000	20	4962
2026-01-22 10:58:42.09	183.74	13.21	-29.6	-32.4	13.2	2.67e-05	0	43	0	133169152	20	4967
2026-01-22 10:58:43.09	183.80	13.30	-29.7	-32.5	13.3	1.37e-05	0	43	0	135266304	20	4955
2026-01-22 10:58:44.08	183.86	13.40	-29.7	-32.6	13.2	2.05e-05	0	43	0	136314880	20	4996
2026-01-22 10:58:45.08	183.92	13.49	-29.9	-33.0	12.9	2.89e-05	0	43	0	138412032	20	5143
2026-01-22 10:58:46.08	183.98	13.59	-29.8	-32.7	13.2	3.05e-04	0	43	0	140509184	20	5031
2026-01-22 10:58:47.08	184.05	13.69	-29.9	-33.0	12.9	2.27e-04	0	43	0	142606336	20	5144
2026-01-22 10:58:48.08	184.11	13.78	-29.8	-32.7	13.2	3.35e-05	0	43	0	144703488	20	5015
2026-01-22 10:58:49.09	184.17	13.88	-29.7	-32.5	13.3	1.88e-04	0	43	0	145752064	20	4952
2026-01-22 10:58:50.09	184.23	13.98	-29.7	-32.4	13.4	1.60e-04	0	43	0	147849216	20	4920
2026-01-22 10:58:51.10	184.30	14.08	-29.7	-32.4	13.3	1.56e-04	0	43	0	149946368	20	4927
2026-01-22 10:58:52.10	184.36	14.18	-29.7	-32.6	13.2	1.90e-05	0	43	0	152043520	20	4979
2026-01-22 10:58:53.11	184.42	14.28	-29.7	-32.4	13.3	2.37e-04	0	43	0	154140672	20	4914
2026-01-22 10:58:54.12	184.49	14.38	-29.6	-32.4	13.3	1.75e-05	0	43	0	155189248	20	4947
2026-01-22 10:58:55.12	184.55	14.48	-29.8	-32.7	13.1	2.51e-05	0	43	0	157286400	20	5041
2026-01-22 10:58:56.13	184.62	14.58	-29.7	-32.3	13.4	2.51e-05	0	43	0	159383552	20	4891
2026-01-22 10:58:57.14	184.69	14.68	-29.6	-32.1	13.6	3.94e-04	0	43	0	161480704	20	4806
2026-01-22 10:58:58.14	184.75	14.78	-29.6	-32.1	13.6	1.06e-04	0	43	0	163577856	20	4812
2026-01-22 10:58:59.14	184.82	14.88	-29.7	-32.4	13.4	3.91e-04	0	43	0	164626432	20	4903
2026-01-22 10:59:00.15	184.89	14.99	-29.5	-32.0	13.7	5.30e-06	0	43	0	166723584	20	4781
2026-01-22 10:59:01.15	184.95	15.09	-29.6	-32.2	13.5	3.80e-06	0	43	0	168820736	20	4859
2026-01-22 10:59:02.15	185.02	15.19	-29.7	-32.5	13.4	1.33e-04	0	43	0	170917888	20	4939
2026-01-22 10:59:03.16	185.09	15.29	-29.5	-32.0	13.7	1.30e-04	0	43	0	173015040	20	4759
2026-01-22 10:59:04.16	185.16	15.40	-29.5	-31.8	13.9	9.61e-05	0	43	0	174063616	20	4703
2026-01-22 10:59:05.16	185.23	15.50	-29.4	-32.2	13.9	3.80e-06	0	43	0	176160768	19	4955
2026-01-22 10:59:06.16	185.30	15.60	-29.5	-32.3	14.0	2.82e-05	0	43	0	178257920	19	4955
2026-01-22 10:59:07.16	185.37	15.71	-29.5	-32.4	13.8	1.54e-04	0	43	0	180355072	19	5028
2026-01-22 10:59:08.16	185.44	15.81	-29.5	-32.2	14.0	5.87e-05	0	43	0	181403648	19	4928
2026-01-22 10:59:09.17	185.51	15.92	-29.4	-32.1	14.0	1.30e-04	0	43	0	183500800	19	4911
2026-01-22 10:59:10.18	185.58	16.03	-29.5	-32.3	13.9	2.29e-04	0	43	0	185597952	19	4964
2026-01-22 10:59:11.18	185.65	16.13	-29.3	-32.2	13.8	3.00e-06	0	43	0	187695104	19	5019
2026-01-22 10:59:12.18	185.73	16.24	-29.4	-32.1	14.0	2.20e-06	0	43	0	189792256	19	4926
2026-01-22 10:59:13.19	185.80	16.35	-29.5	-32.2	14.0	2.20e-06	0	43	0	191889408	19	4938
2026-01-22 10:59:14.20	185.87	16.46	-29.5	-32.4	13.9	6.63e-05	0	43	0	192937984	19	4993
2026-01-22 10:59:15.20	185.95	16.56	-29.6	-32.6	13.8	1.48e-04	0	43	0	195035136	19	5076
2026-01-22 10:59:16.21	186.02	16.67	-29.5	-32.3	13.9	1.93e-04	0	43	0	197132288	19	4987
2026-01-22 10:59:17.21	186.10	16.78	-29.4	-32.0	14.2	2.20e-06	0	43	0	199229440	19	4864
2026-01-22 10:59:18.21	186.17	16.89	-29.3	-31.8	14.3	0.00e+00	0	43	0	200278016	19	4803
2026-01-22 10:59:19.21	186.25	17.00	-29.4	-31.9	14.2	1.65e-04	0	43	0	202375168	19	4818
2026-01-22 10:59:20.21	186.32	17.11	-29.3	-31.8	14.4	3.75e-04	0	43	0	204472320	19	4785
2026-01-22 10:59:21.22	186.40	17.22	-29.2	-31.5	14.5	7.00e-07	0	43	0	206569472	19	4696
2026-01-22 10:59:22.22	186.48	17.33	-29.3	-31.7	14.4	7.00e-07	0	43	0	208666624	19	4752
2026-01-22 10:59:23.23	186.56	17.45	-29.2	-31.5	14.5	3.20e-05	0	43	0	209715200	19	4697
2026-01-22 10:59:24.23	186.64	17.56	-29.2	-31.6	14.5	1.46e-04	0	43	0	211812352	19	4707
2026-01-22 10:59:25.23	186.72	17.67	-29.2	-31.5	14.6	7.00e-07	0	43	0	213909504	19	4675
2026-01-22 10:59:26.23	186.80	17.78	-29.2	-31.5	14.5	1.11e-04	0	43	0	216006656	19	4683
2026-01-22 10:59:27.23	186.88	17.90	-29.2	-31.4	14.6	2.15e-04	0	43	0	218103808	19	4662
2026-01-22 10:59:28.24	186.96	18.01	-29.2	-31.4	14.6	0.00e+00	0	43	0	219152384	19	4666
2026-01-22 10:59:29.24	187.04	18.12	-29.1	-31.4	14.6	0.00e+00	0	43	0	221249536	19	4651
2026-01-22 10:59:30.24	187.12	18.24	-29.1	-31.3	14.6	1.50e-06	0	43	0	223346688	19	4636
2026-01-22 10:59:31.24	187.20	18.35	-29.1	-31.4	14.6	0.00e+00	0	43	0	225443840	19	4652
2026-01-22 10:59:32.24	187.29	18.47	-29.0	-31.1	14.8	0.00e+00	0	43	0	227540992	19	4554
2026-01-22 10:59:33.23	187.37	18.58	-29.0	-31.0	14.9	2.62e-04	0	43	0	228589568	19	4519
2026-01-22 10:59:34.23	187.45	18.70	-29.0	-31.0	14.8	8.39e-05	0	43	0	230686720	19	4543
2026-01-22 10:59:35.24	187.54	18.82	-29.1	-31.2	14.8	1.50e-06	0	43	0	232783872	19	4591
2026-01-22 10:59:36.24	187.63	18.94	-29.1	-31.3	14.7	2.72e-04	0	43	0	234881024	19	4630
2026-01-22 10:59:37.23	187.71	19.05	-29.1	-31.2	14.8	3.48e-04	0	43	0	236978176	19	4587
2026-01-22 10:59:38.23	187.80	19.17	-29.1	-31.2	14.8	5.11e-05	0	43	0	238026752	19	4578
2026-01-22 10:59:39.23	187.89	19.29	-29.2	-31.4	14.7	7.00e-07	0	43	0	240123904	19	4634
2026-01-22 10:59:40.23	187.98	19.41	-29.2	-31.6	14.6	2.08e-04	0	43	0	242221056	19	4700
2026-01-22 10:59:41.24	188.06	19.53	-29.1	-31.2	14.8	2.20e-06	0	43	0	244318208	19	4606
2026-01-22 10:59:42.24	188.15	19.65	-29.2	-31.4	14.7	7.00e-07	0	43	0	245366784	19	4664
2026-01-22 10:59:43.24	188.24	19.78	-29.0	-31.1	14.9	0.00e+00	0	43	0	247463936	19	4536
2026-01-22 10:59:44.25	188.34	19.90	-29.0	-31.3	15.1	2.49e-04	0	44	0	249561088	18	4714
2026-01-22 10:59:45.25	188.43	20.02	-28.9	-31.2	15.2	7.78e-05	0	43	0	251658240	18	4687
2026-01-22 10:59:46.26	188.52	20.14	-28.9	-31.2	15.1	2.28e-05	0	43	0	253755392	18	4702
2026-01-22 10:59:47.27	188.62	20.27	-29.0	-31.4	15.0	0.00e+00	0	43	0	254803968	18	4771
2026-01-22 10:59:48.27	188.71	20.39	-29.1	-31.6	14.9	0.00e+00	0	44	0	256901120	18	4823
2026-01-22 10:59:49.26	188.80	20.52	-28.9	-31.1	15.2	1.07e-04	0	43	0	258998272	18	4659
2026-01-22 10:59:50.27	188.90	20.64	-28.8	-30.9	15.4	3.27e-04	0	43	0	261095424	18	4579
2026-01-22 10:59:51.27	189.00	20.77	-28.8	-30.9	15.3	0.00e+00	0	43	0	263192576	18	4594
2026-01-22 10:59:52.27	189.09	20.89	-28.7	-30.8	15.4	0.00e+00	0	43	0	264241152	18	4570
2026-01-22 10:59:53.27	189.19	21.02	-28.7	-30.7	15.5	2.22e-04	0	43	0	266338304	18	4529
2026-01-22 10:59:54.28	189.29	21.15	-28.7	-30.8	15.4	7.17e-05	0	43	0	268435456	18	4567
2026-01-22 10:59:55.28	189.39	21.28	-28.8	-31.0	15.3	1.11e-04	0	43	0	270532608	18	4627
2026-01-22 10:59:56.29	189.49	21.41	-28.7	-30.7	15.4	1.11e-04	0	43	0	272629760	18	4553
2026-01-22 10:59:57.28	189.59	21.53	-28.6	-30.6	15.6	6.80e-06	0	44	0	273678336	18	4504
2026-01-22 10:59:58.29	189.69	21.66	-28.6	-30.4	15.6	7.00e-07	0	43	0	275775488	18	4472
2026-01-22 10:59:59.29	189.79	21.79	-28.6	-30.5	15.6	0.00e+00	0	44	0	277872640	18	4473
2026-01-22 11:00:00.30	189.90	21.93	-28.5	-30.2	15.8	1.22e-04	0	43	0	279969792	18	4390
2026-01-22 11:00:01.30	190.00	22.06	-28.5	-30.1	15.8	7.47e-05	0	43	0	282066944	18	4373
2026-01-22 11:00:02.30	190.11	22.19	-28.5	-30.2	15.8	3.00e-06	0	43	0	283115520	18	4403
2026-01-22 11:00:03.30	190.21	22.32	-28.4	-30.2	15.8	1.11e-04	0	43	0	285212672	18	4407
2026-01-22 11:00:04.31	190.32	22.46	-28.7	-30.6	15.5	0.00e+00	0	43	0	287309824	18	4515
2026-01-22 11:00:05.32	190.43	22.59	-28.4	-30.1	15.9	0.00e+00	0	44	0	289406976	18	4337
2026-01-22 11:00:06.32	190.54	22.73	-28.4	-30.4	16.0	3.80e-06	0	44	0	291504128	17	4550
2026-01-22 11:00:07.33	190.65	22.86	-28.4	-30.4	16.0	2.51e-05	0	44	0	292552704	17	4542
2026-01-22 11:00:08.33	190.76	23.00	-28.3	-30.2	16.2	0.00e+00	0	43	0	294649856	17	4476
2026-01-22 11:00:09.33	190.87	23.13	-28.2	-30.0	16.2	0.00e+00	0	44	0	296747008	17	4433
2026-01-22 11:00:10.33	190.98	23.27	-28.3	-30.1	16.2	2.68e-04	0	44	0	298844160	17	4441
2026-01-22 11:00:11.32	191.09	23.41	-28.2	-30.0	16.3	1.91e-04	0	44	0	300941312	17	4408
2026-01-22 11:00:12.33	191.21	23.54	-28.3	-30.2	16.1	7.00e-07	0	44	0	301989888	17	4474
2026-01-22 11:00:13.34	191.33	23.68	-28.3	-30.2	16.2	4.04e-05	0	43	0	304087040	17	4461
2026-01-22 11:00:14.34	191.44	23.82	-28.4	-30.4	16.0	0.00e+00	0	44	0	306184192	17	4540
2026-01-22 11:00:15.34	191.56	23.96	-28.5	-30.6	16.0	0.00e+00	0	43	0	308281344	17	4590
2026-01-22 11:00:16.35	191.68	24.11	-28.5	-30.5	16.0	0.00e+00	0	43	0	309329920	17	4564
2026-01-22 11:00:17.35	191.80	24.25	-28.5	-30.7	15.9	8.39e-05	0	43	0	311427072	17	4641
2026-01-22 11:00:18.36	191.92	24.39	-28.6	-30.9	15.8	0.00e+00	0	44	0	313524224	17	4698
2026-01-22 11:00:19.36	192.04	24.53	-28.6	-30.9	15.8	0.00e+00	0	43	0	315621376	17	4679
2026-01-22 11:00:20.37	192.16	24.68	-28.5	-30.8	15.6	3.79e-04	0	43	0	317718528	17	4731
2026-01-22 11:00:21.37	192.29	24.82	-28.7	-31.2	15.6	0.00e+00	0	44	0	318767104	17	4772
2026-01-22 11:00:22.37	192.41	24.96	-28.7	-31.1	15.6	0.00e+00	0	44	0	320864256	17	4746
2026-01-22 11:00:23.38	192.54	25.11	-28.8	-31.3	15.6	1.77e-04	0	44	0	322961408	17	4802
2026-01-22 11:00:24.38	192.66	25.26	-28.8	-31.4	15.4	3.05e-05	0	44	0	325058560	17	4862
2026-01-22 11:00:25.37	192.79	25.40	-28.9	-31.6	15.4	2.97e-05	0	44	0	327155712	17	4905
2026-01-22 11:00:26.38	192.92	25.55	-28.9	-31.7	15.3	0.00e+00	0	44	0	328204288	17	4939
2026-01-22 11:00:27.38	193.05	25.70	-29.0	-31.8	15.2	1.19e-04	0	43	0	330301440	17	4988
2026-01-22 11:00:28.39	193.18	25.85	-29.1	-31.6	15.1	0.00e+00	0	44	0	332398592	18	4811
2026-01-22 11:00:29.39	193.32	26.00	-29.2	-31.8	15.0	7.00e-07	0	44	0	334495744	18	4871
2026-01-22 11:00:30.39	193.45	26.15	-29.2	-31.8	15.1	0.00e+00	0	44	0	336592896	18	4853
2026-01-22 11:00:31.39	193.59	26.30	-29.2	-31.9	15.0	3.12e-04	0	44	0	337641472	18	4890
2026-01-22 11:00:32.39	193.72	26.45	-29.3	-32.1	14.9	1.50e-06	0	44	0	339738624	18	4962
2026-01-22 11:00:33.40	193.86	26.60	-29.4	-32.3	14.7	1.41e-04	0	44	0	341835776	18	5046
2026-01-22 11:00:34.40	194.00	26.75	-29.5	-32.1	14.6	0.00e+00	0	44	0	343932928	19	4858
2026-01-22 11:00:35.41	194.14	26.91	-29.6	-32.4	14.4	0.00e+00	0	44	0	346030080	19	4968
2026-01-22 11:00:36.41	194.28	27.06	-29.7	-32.5	14.3	7.17e-05	0	44	0	347078656	19	4984
2026-01-22 11:00:37.42	194.43	27.22	-29.7	-32.6	14.3	3.64e-04	0	44	0	349175808	19	5007
2026-01-22 11:00:38.42	194.57	27.37	-29.8	-32.7	14.2	1.50e-06	0	44	0	351272960	19	5056
2026-01-22 11:00:39.42	194.72	27.53	-29.8	-32.8	14.1	3.00e-06	0	44	0	353370112	19	5108
2026-01-22 11:00:40.42	194.86	27.68	-29.8	-32.9	14.1	1.52e-04	0	44	0	355467264	19	5137
2026-01-22 11:00:41.42	195.01	27.84	-29.9	-33.0	14.0	2.01e-04	0	44	0	356515840	19	5185
2026-01-22 11:00:42.42	195.16	28.00	-30.0	-33.3	13.8	2.08e-04	0	44	0	358612992	19	5281
2026-01-22 11:00:43.42	195.31	28.16	-30.0	-32.9	13.7	1.83e-05	0	44	0	360710144	20	5033
2026-01-22 11:00:44.42	195.46	28.32	-30.0	-33.0	13.6	1.37e-05	0	44	0	362807296	20	5056
2026-01-22 11:00:45.42	195.62	28.48	-30.1	-33.2	13.5	1.22e-05	0	44	0	363855872	20	5147
2026-01-22 11:00:46.43	195.78	28.64	-30.2	-33.5	13.3	4.73e-05	0	44	0	365953024	20	5262
2026-01-22 11:00:47.43	195.93	28.80	-30.2	-33.5	13.3	3.75e-04	0	43	0	368050176	20	5267
2026-01-22 11:00:48.43	196.09	28.96	-30.2	-33.6	13.2	1.75e-05	0	44	0	370147328	20	5280
2026-01-22 11:00:49.44	196.25	29.13	-30.3	-33.6	13.2	2.28e-05	0	44	0	372244480	20	5289
2026-01-22 11:00:50.44	196.42	29.29	-30.2	-33.8	13.0	2.09e-04	0	44	0	373293056	20	5445
2026-01-22 11:00:51.44	196.58	29.45	-30.5	-33.9	12.8	5.03e-05	0	44	0	375390208	21	5301
2026-01-22 11:00:52.45	196.75	29.62	-30.6	-34.2	12.5	9.68e-05	0	44	0	377487360	21	5430
2026-01-22 11:00:53.45	196.91	29.79	-30.8	-34.6	12.3	4.36e-04	0	43	0	379584512	21	5579
2026-01-22 11:00:54.46	197.08	29.95	-30.9	-35.0	12.0	4.22e-04	0	44	0	381681664	21	5755
2026-01-22 11:00:55.46	197.25	30.12	-31.1	-35.1	11.6	6.45e-04	0	44	0	382730240	22	5698
2026-01-22 11:00:56.47	197.43	30.29	-31.2	-35.5	11.3	9.06e-04	0	44	0	384827392	22	5854
2026-01-22 11:00:57.47	197.60	30.46	-31.3	-35.6	11.2	1.34e-03	0	44	0	386924544	22	5925
2026-01-22 11:00:58.48	197.78	30.63	-31.2	-35.5	11.3	1.29e-03	0	44	0	389021696	22	5872
2026-01-22 11:00:59.48	197.95	30.80	-31.2	-35.3	11.5	9.80e-04	0	44	0	391118848	22	5785
2026-01-22 11:01:00.48	198.13	30.97	-31.1	-35.1	11.6	9.02e-04	0	44	0	392167424	22	5713
2026-01-22 11:01:01.48	198.31	31.14	-31.0	-35.1	11.5	7.12e-04	0	44	0	394264576	22	5760
2026-01-22 11:01:02.49	198.50	31.32	-31.1	-35.1	11.6	7.65e-04	0	44	0	396361728	22	5675
2026-01-22 11:01:03.49	198.68	31.49	-31.0	-34.8	11.8	6.59e-04	0	44	0	398458880	22	5579
2026-01-22 11:01:04.49	198.87	31.66	-31.0	-34.8	11.9	8.58e-04	0	44	0	400556032	22	5550
2026-01-22 11:01:05.50	199.06	31.84	-31.1	-34.9	11.8	4.32e-04	0	44	0	401604608	22	5596
2026-01-22 11:01:06.50	199.25	32.01	-31.0	-34.7	11.9	4.49e-04	0	44	0	403701760	22	5520
2026-01-22 11:01:07.50	199.44	32.19	-30.8	-34.3	12.1	7.38e-04	0	43	0	405798912	22	5446
2026-01-22 11:01:08.51	199.64	32.37	-30.8	-34.1	12.3	2.59e-04	0	44	0	407896064	22	5289
2026-01-22 11:01:09.52	199.84	32.55	-30.7	-33.7	12.7	1.05e-04	0	44	0	409993216	22	5103
2026-01-22 11:01:10.52	200.04	32.72	-30.4	-33.1	13.0	4.90e-04	0	44	0	411041792	22	4878
2026-01-22 11:01:11.52	200.24	32.90	-30.3	-33.2	13.3	2.00e-04	0	44	0	413138944	21	5023
2026-01-22 11:01:12.52	200.44	33.08	-30.3	-33.0	13.4	3.55e-04	0	44	0	415236096	21	4960
2026-01-22 11:01:13.52	200.65	33.26	-30.2	-32.8	13.5	7.60e-06	0	44	0	417333248	21	4872
2026-01-22 11:01:14.53	200.86	33.44	-30.2	-32.9	13.5	1.14e-05	0	44	0	419430400	21	4924
2026-01-22 11:01:15.53	201.07	33.62	-30.2	-32.9	13.5	1.44e-05	0	44	0	420478976	21	4902
2026-01-22 11:01:16.53	201.28	33.80	-30.3	-33.2	13.3	2.13e-05	0	43	0	422576128	21	5000
2026-01-22 11:01:17.52	201.49	33.99	-30.4	-33.3	13.2	2.97e-05	0	44	0	424673280	21	5053
2026-01-22 11:01:18.53	201.71	34.17	-30.2	-33.1	13.3	1.60e-05	0	44	0	426770432	21	4999
2026-01-22 11:01:19.53	201.93	34.35	-30.3	-33.1	13.3	7.40e-05	0	44	0	427819008	21	4980
2026-01-22 11:01:20.53	202.15	34.54	-30.3	-33.1	13.3	3.10e-04	0	44	0	429916160	21	4994
2026-01-22 11:01:21.54	202.38	34.72	-30.2	-33.0	13.5	2.05e-05	0	44	0	432013312	21	4935
2026-01-22 11:01:22.54	202.61	34.91	-30.2	-32.9	13.6	8.23e-05	0	44	0	434110464	21	4891
2026-01-22 11:01:23.55	202.84	35.10	-30.1	-32.6	13.7	2.68e-04	0	44	0	436207616	21	4793
2026-01-22 11:01:24.56	203.07	35.29	-30.1	-32.5	13.8	1.62e-04	0	44	0	437256192	21	4768
2026-01-22 11:01:25.56	203.31	35.47	-30.2	-32.8	13.6	6.80e-06	0	44	0	439353344	21	4871
2026-01-22 11:01:26.57	203.55	35.66	-30.1	-32.5	13.8	3.80e-06	0	44	0	441450496	21	4778
2026-01-22 11:01:27.57	203.79	35.85	-30.0	-32.4	13.8	3.42e-04	0	44	0	443547648	21	4735
2026-01-22 11:01:28.57	204.03	36.04	-30.0	-32.3	13.9	1.50e-06	0	44	0	445644800	21	4686
2026-01-22 11:01:29.58	204.28	36.23	-30.0	-32.4	13.9	1.69e-04	0	44	0	446693376	21	4733
2026-01-22 11:01:30.58	204.53	36.42	-30.0	-32.2	14.0	1.60e-04	0	44	0	448790528	21	4665
2026-01-22 11:01:31.58	204.78	36.61	-29.9	-32.1	14.1	7.00e-07	0	44	0	450887680	21	4628
2026-01-22 11:01:32.59	205.04	36.80	-29.9	-32.0	14.2	1.50e-06	0	44	0	452984832	21	4580
2026-01-22 11:01:33.58	205.29	36.99	-29.8	-32.2	14.4	0.00e+00	0	44	0	455081984	20	4767
2026-01-22 11:01:34.59	205.55	37.19	-29.6	-31.7	14.7	1.20e-04	0	44	0	456130560	20	4604
2026-01-22 11:01:35.59	205.82	37.38	-29.4	-31.4	14.9	0.00e+00	0	44	0	458227712	20	4484
2026-01-22 11:01:36.59	206.08	37.57	-29.4	-31.4	14.8	7.00e-07	0	44	0	460324864	20	4528
2026-01-22 11:01:37.59	206.35	37.77	-29.5	-31.5	14.7	1.51e-04	0	44	0	462422016	20	4552
2026-01-22 11:01:38.60	206.63	37.96	-29.6	-31.7	14.6	7.00e-07	0	44	0	464519168	20	4617
2026-01-22 11:01:39.61	206.90	38.16	-29.4	-31.3	14.9	0.00e+00	0	44	0	465567744	20	4482
2026-01-22 11:01:40.61	207.18	38.35	-29.4	-31.8	15.0	1.64e-04	0	44	0	467664896	19	4725
2026-01-22 11:01:41.61	207.47	38.55	-29.3	-31.5	15.2	1.36e-04	0	44	0	469762048	19	4628
2026-01-22 11:01:42.62	207.75	38.74	-29.2	-31.2	15.3	0.00e+00	0	44	0	471859200	19	4543
2026-01-22 11:01:43.62	208.04	38.94	-29.1	-31.1	15.4	0.00e+00	0	44	0	473956352	19	4504
2026-01-22 11:01:44.62	208.34	39.14	-29.2	-31.2	15.4	2.13e-05	0	44	0	475004928	19	4525
2026-01-22 11:01:45.62	208.63	39.33	-29.1	-31.0	15.5	1.04e-04	0	44	0	477102080	19	4469
2026-01-22 11:01:46.62	208.93	39.53	-29.0	-30.6	15.7	0.00e+00	0	44	0	479199232	19	4357
2026-01-22 11:01:47.63	209.24	39.73	-29.0	-30.8	15.6	9.90e-06	0	44	0	481296384	19	4404
2026-01-22 11:01:48.63	209.54	39.92	-28.9	-30.7	15.6	0.00e+00	0	44	0	482344960	19	4407
2026-01-22 11:01:49.62	209.85	40.12	-29.0	-30.8	15.6	0.00e+00	0	44	0	484442112	19	4412
2026-01-22 11:01:50.62	210.17	40.32	-29.1	-30.9	15.6	2.82e-05	0	44	0	486539264	19	4427
2026-01-22 11:01:51.63	210.49	40.52	-29.2	-31.1	15.4	1.98e-05	0	44	0	488636416	19	4501
2026-01-22 11:01:52.63	210.81	40.71	-29.1	-31.1	15.5	2.20e-06	0	44	0	490733568	19	4485
2026-01-22 11:01:53.64	211.14	40.91	-29.2	-31.1	15.5	0.00e+00	0	44	0	491782144	19	4500
2026-01-22 11:01:54.64	211.47	41.11	-29.0	-30.8	15.7	2.13e-04	0	44	0	493879296	19	4397
2026-01-22 11:01:55.65	211.80	41.31	-29.2	-31.2	15.4	0.00e+00	0	44	0	495976448	19	4539
2026-01-22 11:01:56.65	212.14	41.51	-29.3	-31.4	15.3	0.00e+00	0	44	0	498073600	19	4604
2026-01-22 11:01:57.66	212.49	41.71	-29.5	-31.8	15.1	2.08e-04	0	44	0	500170752	19	4734
2026-01-22 11:01:58.66	212.83	41.90	-29.4	-31.8	15.1	0.00e+00	0	44	0	501219328	19	4716
2026-01-22 11:01:59.67	213.19	42.10	-29.5	-31.9	15.0	3.80e-06	0	44	0	503316480	19	4738
2026-01-22 11:02:00.68	213.54	42.30	-29.5	-31.8	15.0	0.00e+00	0	44	0	505413632	19	4732
2026-01-22 11:02:01.68	213.90	42.50	-29.5	-32.0	15.0	7.00e-07	0	44	0	507510784	19	4799
2026-01-22 11:02:02.68	214.27	42.70	-29.5	-32.0	14.9	6.17e-05	0	44	0	509607936	19	4773
2026-01-22 11:02:03.68	214.63	42.89	-29.7	-32.4	14.7	7.00e-07	0	44	0	510656512	19	4933
2026-01-22 11:02:04.69	215.01	43.09	-29.8	-32.7	14.6	0.00e+00	0	44	0	512753664	19	5020
2026-01-22 11:02:05.69	215.39	43.29	-29.9	-33.0	14.3	2.20e-06	0	44	0	514850816	19	5147
2026-01-22 11:02:06.70	215.77	43.49	-29.9	-32.6	14.2	7.00e-07	0	44	0	516947968	20	4889
2026-01-22 11:02:07.70	216.16	43.68	-30.1	-32.9	14.0	1.20e-04	0	44	0	519045120	20	4993
2026-01-22 11:02:08.69	216.54	43.87	-30.0	-32.8	14.1	3.00e-06	0	44	0	520093696	20	4971
2026-01-22 11:02:09.69	216.94	44.07	-30.1	-33.0	14.0	2.28e-05	0	44	0	522190848	20	5026
2026-01-22 11:02:10.69	217.34	44.26	-30.0	-32.9	14.0	1.69e-04	0	44	0	524288000	20	4983
2026-01-22 11:02:11.70	217.75	44.46	-30.1	-33.2	13.9	6.79e-05	0	44	0	526385152	20	5089
2026-01-22 11:02:12.71	218.16	44.65	-30.2	-33.3	13.8	3.00e-06	0	44	0	528482304	20	5149
2026-01-22 11:02:13.71	218.58	44.84	-30.6	-33.8	13.2	1.06e-05	0	44	0	529530880	21	5226
2026-01-22 11:02:14.72	219.00	45.04	-30.9	-34.6	12.6	1.66e-04	0	44	0	531628032	21	5552
2026-01-22 11:02:15.72	219.43	45.23	-31.1	-34.7	12.2	1.27e-04	0	44	0	533725184	22	5494
2026-01-22 11:02:16.73	219.86	45.42	-31.0	-34.5	12.4	3.52e-04	0	44	0	535822336	22	5409
2026-01-22 11:02:17.72	220.29	45.61	-30.8	-33.9	12.8	2.07e-04	0	44	0	537919488	22	5176
2026-01-22 11:02:18.72	220.73	45.79	-30.7	-33.8	12.9	6.79e-05	0	44	0	538968064	22	5100
2026-01-22 11:02:19.73	221.18	45.98	-30.9	-34.3	12.5	8.54e-05	0	43	0	541065216	22	5309
2026-01-22 11:02:20.73	221.63	46.17	-31.2	-35.0	12.1	1.87e-04	0	44	0	543162368	22	5578
2026-01-22 11:02:21.73	222.09	46.35	-31.5	-35.6	11.3	6.03e-04	0	44	0	545259520	23	5752
2026-01-22 11:02:22.73	222.55	46.54	-31.6	-35.9	11.1	1.64e-03	0	44	0	546308096	23	5897
2026-01-22 11:02:23.73	223.01	46.72	-31.4	-35.2	11.5	8.57e-04	0	44	0	548405248	23	5555
2026-01-22 11:02:24.73	223.49	46.90	-31.1	-34.4	12.1	6.00e-04	0	44	0	550502400	23	5235
2026-01-22 11:02:25.74	223.97	47.08	-31.1	-34.4	12.2	1.62e-04	0	44	0	552599552	23	5224
2026-01-22 11:02:26.74	224.45	47.26	-30.9	-33.6	12.7	1.19e-04	0	44	0	554696704	23	4923
2026-01-22 11:02:27.74	224.94	47.44	-30.9	-34.2	12.7	3.77e-04	0	44	0	555745280	22	5249
2026-01-22 11:02:28.75	225.44	47.62	-31.1	-34.8	12.3	2.59e-04	0	44	0	557842432	22	5495
2026-01-22 11:02:29.75	225.94	47.79	-31.3	-35.5	11.8	2.20e-04	0	44	0	559939584	22	5797
2026-01-22 11:02:30.75	226.44	47.96	-31.5	-35.9	11.4	8.41e-04	0	44	0	562036736	22	6003
2026-01-22 11:02:31.75	226.95	48.13	-31.3	-35.3	11.9	6.90e-04	0	44	0	564133888	22	5720
2026-01-22 11:02:32.75	227.47	48.30	-30.9	-34.2	12.7	4.26e-04	0	44	0	565182464	22	5244
2026-01-22 11:02:33.75	227.99	48.47	-30.8	-33.8	12.9	4.80e-05	0	44	0	567279616	22	5095
2026-01-22 11:02:34.75	228.52	48.63	-30.7	-33.6	13.1	8.46e-05	0	44	0	569376768	22	5023
2026-01-22 11:02:35.76	229.05	48.80	-30.6	-33.3	13.2	3.43e-05	0	44	0	571473920	22	4930
2026-01-22 11:02:36.76	229.59	48.96	-30.6	-33.3	13.3	3.43e-05	0	44	0	573571072	22	4914
2026-01-22 11:02:37.76	230.14	49.12	-30.7	-33.6	13.0	2.44e-05	0	44	0	574619648	22	5032
2026-01-22 11:02:38.77	230.69	49.28	-30.6	-33.2	13.3	2.32e-04	0	44	0	576716800	22	4875
2026-01-22 11:02:39.77	231.24	49.43	-30.2	-32.8	13.9	1.56e-04	0	44	0	578813952	21	4827
2026-01-22 11:02:40.78	231.81	49.58	-29.9	-32.0	14.4	7.00e-07	0	44	0	580911104	21	4589
2026-01-22 11:02:41.78	232.38	49.73	-29.8	-32.3	14.5	3.68e-04	0	44	0	583008256	20	4776
2026-01-22 11:02:42.78	232.95	49.88	-29.9	-32.5	14.4	7.00e-07	0	44	0	584056832	20	4843
2026-01-22 11:02:43.78	233.53	50.03	-30.3	-33.6	13.7	3.00e-06	0	44	0	586153984	20	5243
2026-01-22 11:02:44.79	234.11	50.17	-30.0	-32.6	14.3	3.46e-04	0	44	0	588251136	20	4892
2026-01-22 11:02:45.79	234.70	50.31	-29.5	-31.4	15.0	1.14e-04	0	44	0	590348288	20	4483
2026-01-22 11:02:46.80	235.30	50.45	-29.1	-30.8	15.8	0.00e+00	0	44	0	591396864	19	4396
2026-01-22 11:02:47.80	235.90	50.58	-29.2	-31.0	15.7	0.00e+00	0	44	0	593494016	19	4453
2026-01-22 11:02:48.80	236.50	50.71	-29.2	-31.2	15.5	0.00e+00	0	44	0	595591168	19	4545
2026-01-22 11:02:49.80	237.11	50.84	-29.4	-31.5	15.4	9.15e-05	0	44	0	597688320	19	4622
2026-01-22 11:02:50.81	237.73	50.97	-29.4	-31.7	15.3	0.00e+00	0	44	0	599785472	19	4666
2026-01-22 11:02:51.80	238.34	51.09	-29.6	-32.0	15.1	7.00e-07	0	44	0	600834048	19	4766
2026-01-22 11:02:52.80	238.97	51.21	-29.5	-31.8	15.2	0.00e+00	0	44	0	602931200	19	4690
2026-01-22 11:02:53.81	239.60	51.32	-29.1	-31.1	15.5	3.18e-04	0	44	0	605028352	19	4527
2026-01-22 11:02:54.81	240.24	51.44	-29.2	-31.0	15.7	1.98e-04	0	44	0	607125504	19	4453
2026-01-22 11:02:55.82	240.88	51.55	-29.3	-31.3	15.5	0.00e+00	0	44	0	609222656	19	4530
2026-01-22 11:02:56.82	241.52	51.65	-29.3	-31.2	15.6	1.65e-04	0	44	0	610271232	19	4511
2026-01-22 11:02:57.83	242.18	51.75	-29.6	-32.1	15.1	4.55e-04	0	44	0	612368384	19	4783
2026-01-22 11:02:58.82	242.82	51.85	-29.6	-32.2	15.0	2.76e-04	0	44	0	614465536	19	4835
2026-01-22 11:02:59.83	243.49	51.95	-29.5	-32.0	15.1	7.00e-07	0	44	0	616562688	19	4793
2026-01-22 11:03:00.83	244.15	52.04	-29.3	-31.4	15.4	0.00e+00	0	44	0	618659840	19	4610
2026-01-22 11:03:01.84	244.82	52.13	-29.4	-31.6	15.4	1.67e-04	0	44	0	619708416	19	4625
2026-01-22 11:03:02.84	245.48	52.21	-29.2	-31.2	15.6	0.00e+00	0	44	0	621805568	19	4512
2026-01-22 11:03:03.85	246.16	52.29	-29.3	-31.3	15.6	0.00e+00	0	44	0	623902720	19	4537
2026-01-22 11:03:04.85	246.84	52.37	-29.3	-31.3	15.5	1.72e-04	0	44	0	625999872	19	4535
2026-01-22 11:03:05.85	247.51	52.44	-29.0	-30.6	15.9	0.00e+00	0	44	0	628097024	19	4334
2026-01-22 11:03:06.85	248.20	52.51	-29.0	-30.7	15.9	4.42e-05	0	44	0	629145600	19	4357
2026-01-22 11:03:07.86	248.89	52.57	-29.3	-31.3	15.5	0.00e+00	0	44	0	631242752	19	4548
2026-01-22 11:03:08.86	249.57	52.63	-29.7	-32.3	15.0	0.00e+00	0	44	0	633339904	19	4856
2026-01-22 11:03:09.86	250.26	52.68	-29.5	-31.8	15.2	1.50e-06	0	44	0	635437056	19	4690
2026-01-22 11:03:10.87	250.96	52.74	-29.1	-30.9	15.7	0.00e+00	0	44	0	637534208	19	4437
2026-01-22 11:03:11.87	251.66	52.78	-29.1	-30.8	15.8	6.56e-05	0	44	0	638582784	19	4390
2026-01-22 11:03:12.87	252.35	52.83	-29.4	-31.5	15.5	7.00e-07	0	44	0	640679936	19	4598
2026-01-22 11:03:13.87	253.05	52.87	-29.3	-31.3	15.5	0.00e+00	0	44	0	642777088	19	4543
2026-01-22 11:03:14.87	253.75	52.90	-29.6	-32.0	15.1	1.21e-04	0	44	0	644874240	19	4776
2026-01-22 11:03:15.87	254.45	52.93	-29.4	-31.6	15.3	1.57e-04	0	44	0	646971392	19	4635
2026-01-22 11:03:16.88	255.17	52.96	-29.1	-30.9	15.7	0.00e+00	0	44	0	648019968	19	4408
2026-01-22 11:03:17.88	255.87	52.98	-28.8	-30.3	16.1	0.00e+00	0	44	0	650117120	19	4243
2026-01-22 11:03:18.89	256.58	52.99	-29.1	-31.3	15.8	0.00e+00	0	44	0	652214272	18	4676
2026-01-22 11:03:19.90	257.29	53.01	-29.2	-31.6	15.7	0.00e+00	0	44	0	654311424	18	4738
2026-01-22 11:03:20.90	258.00	53.02	-29.2	-31.7	15.6	1.51e-04	0	44	0	655360000	18	4765
2026-01-22 11:03:21.90	258.71	53.02	-28.9	-30.8	16.1	3.12e-05	0	44	0	657457152	18	4487
2026-01-22 11:03:22.90	259.41	53.02	-28.7	-30.3	16.4	5.79e-05	0	44	0	659554304	18	4353
2026-01-22 11:03:23.90	260.12	53.01	-28.6	-30.1	16.6	1.11e-04	0	44	0	661651456	18	4294
2026-01-22 11:03:24.91	260.83	53.00	-28.9	-30.8	16.2	0.00e+00	0	44	0	663748608	18	4484
2026-01-22 11:03:25.92	261.55	52.99	-28.6	-30.2	16.5	3.96e-05	0	44	0	664797184	18	4329
2026-01-22 11:03:26.92	262.25	52.97	-28.4	-29.6	16.9	7.00e-07	0	44	0	666894336	18	4142
2026-01-22 11:03:27.92	262.96	52.95	-28.2	-29.8	17.0	3.00e-06	0	44	0	668991488	17	4298
2026-01-22 11:03:28.93	263.66	52.92	-28.4	-30.3	16.7	3.35e-05	0	44	0	671088640	17	4457
2026-01-22 11:03:29.93	264.37	52.89	-28.6	-30.9	16.3	0.00e+00	0	44	0	673185792	17	4664
2026-01-22 11:03:30.93	265.07	52.86	-28.9	-30.9	16.1	0.00e+00	0	44	0	674234368	18	4514
2026-01-22 11:03:31.93	265.76	52.82	-28.9	-30.8	16.2	4.42e-05	0	44	0	676331520	18	4480
2026-01-22 11:03:32.93	266.46	52.77	-28.7	-30.4	16.4	0.00e+00	0	44	0	678428672	18	4368
2026-01-22 11:03:33.93	267.15	52.73	-28.8	-30.7	16.3	7.00e-07	0	44	0	680525824	18	4463
2026-01-22 11:03:34.94	267.85	52.67	-28.8	-30.7	16.2	0.00e+00	0	44	0	682622976	18	4467
2026-01-22 11:03:35.94	268.54	52.62	-28.7	-30.3	16.5	0.00e+00	0	44	0	683671552	18	4338
2026-01-22 11:03:36.95	269.23	52.56	-28.5	-29.9	16.7	0.00e+00	0	44	0	685768704	18	4218
2026-01-22 11:03:37.95	269.92	52.49	-28.6	-30.2	16.5	1.09e-04	0	44	0	687865856	18	4309
2026-01-22 11:03:38.95	270.60	52.42	-28.6	-30.1	16.6	0.00e+00	0	44	0	689963008	18	4287
2026-01-22 11:03:39.96	271.28	52.35	-29.3	-31.9	15.6	0.00e+00	0	44	0	692060160	18	4840
2026-01-22 11:03:40.97	271.96	52.27	-29.1	-31.4	15.7	1.33e-04	0	44	0	693108736	18	4700
2026-01-22 11:03:41.97	272.63	52.19	-28.9	-30.9	16.1	1.32e-04	0	44	0	695205888	18	4535
2026-01-22 11:03:42.98	273.30	52.11	-28.9	-31.0	16.0	0.00e+00	0	44	0	697303040	18	4555
2026-01-22 11:03:43.98	273.96	52.02	-29.2	-31.7	15.6	3.00e-06	0	44	0	699400192	18	4789
2026-01-22 11:03:44.98	274.62	51.93	-29.4	-32.1	15.3	7.85e-05	0	44	0	701497344	18	4924
2026-01-22 11:03:45.99	275.28	51.83	-29.9	-32.8	14.7	0.00e+00	0	44	0	702545920	19	5050
2026-01-22 11:03:46.99	275.93	51.73	-29.7	-32.3	14.9	0.00e+00	0	44	0	704643072	19	4877
2026-01-22 11:03:47.99	276.58	51.63	-29.7	-32.5	14.8	5.30e-06	0	44	0	706740224	19	4922
2026-01-22 11:03:48.99	277.22	51.52	-30.4	-33.8	13.6	2.20e-06	0	44	0	708837376	20	5329
2026-01-22 11:03:49.99	277.85	51.41	-30.6	-33.9	13.2	1.14e-05	0	44	0	709885952	21	5247
2026-01-22 11:03:50.99	278.48	51.30	-31.2	-35.0	12.1	1.05e-04	0	44	0	711983104	22	5619
2026-01-22 11:03:51.99	279.11	51.18	-30.9	-34.2	12.7	3.92e-04	0	44	0	714080256	22	5260
2026-01-22 11:03:53.00	279.74	51.06	-30.6	-33.1	13.4	2.44e-05	0	44	0	716177408	22	4840
2026-01-22 11:03:54.00	280.36	50.94	-30.5	-32.9	13.6	2.21e-04	0	44	0	718274560	22	4771
2026-01-22 11:03:55.01	280.97	50.81	-30.9	-34.0	12.9	1.47e-04	0	44	0	719323136	22	5168
2026-01-22 11:03:56.00	281.57	50.69	-31.3	-35.4	11.9	2.91e-04	0	44	0	721420288	22	5724
2026-01-22 11:03:57.01	282.18	50.56	-31.4	-35.6	11.7	6.09e-04	0	44	0	723517440	22	5844
2026-01-22 11:03:58.01	282.78	50.42	-31.0	-34.3	12.7	4.10e-04	0	44	0	725614592	22	5289
2026-01-22 11:03:59.02	283.38	50.28	-30.6	-33.5	13.1	2.97e-04	0	44	0	727711744	22	5021
2026-01-22 11:04:00.02	283.96	50.14	-31.0	-34.5	12.5	5.26e-05	0	44	0	728760320	22	5342
2026-01-22 11:04:01.02	284.54	50.00	-31.6	-35.5	11.4	2.06e-04	0	44	0	730857472	23	5696
2026-01-22 11:04:02.02	285.12	49.86	-31.7	-36.1	11.0	2.25e-03	0	44	0	732954624	23	5976
2026-01-22 11:04:03.03	285.69	49.71	-31.5	-35.3	11.5	1.43e-03	0	44	0	735051776	23	5635
2026-01-22 11:04:04.02	286.25	49.56	-31.3	-34.8	12.0	4.51e-04	0	44	0	737148928	23	5354
2026-01-22 11:04:05.02	286.81	49.41	-31.6	-35.8	11.3	7.61e-04	0	44	0	738197504	23	5817
2026-01-22 11:04:06.02	287.36	49.25	-32.0	-36.5	10.3	2.72e-03	0	44	0	740294656	24	6049
2026-01-22 11:04:07.02	287.91	49.10	-32.5	-37.9	8.9	1.69e-02	0	44	0	742391808	25	6685
2026-01-22 11:04:08.02	288.45	48.94	-32.0	-36.0	10.3	1.76e-02	0	44	0	744488960	25	5694
2026-01-22 11:04:09.03	288.99	48.77	-31.6	-35.1	11.4	1.25e-03	0	44	0	746586112	24	5413
2026-01-22 11:04:10.03	289.52	48.61	-31.7	-35.6	11.0	1.13e-03	0	44	0	747634688	24	5619
2026-01-22 11:04:11.03	290.04	48.45	-32.1	-36.8	10.2	4.04e-03	0	44	0	749731840	24	6178
2026-01-22 11:04:12.03	290.56	48.28	-31.9	-36.2	10.6	3.85e-03	0	44	0	751828992	24	5890
2026-01-22 11:04:13.04	291.08	48.11	-31.8	-35.7	11.0	2.12e-03	0	44	0	753926144	24	5642
2026-01-22 11:04:14.04	291.59	47.94	-31.8	-36.0	10.8	2.33e-03	0	44	0	754974720	24	5801
2026-01-22 11:04:15.04	292.09	47.77	-31.8	-35.7	11.0	2.28e-03	0	44	0	757071872	24	5662
2026-01-22 11:04:16.04	292.59	47.59	-31.8	-36.0	10.8	2.75e-03	0	44	0	759169024	24	5805
2026-01-22 11:04:17.04	293.08	47.42	-31.9	-36.2	10.6	2.94e-03	0	44	0	761266176	24	5882
2026-01-22 11:04:18.04	293.57	47.24	-31.7	-35.6	11.1	1.89e-03	0	44	0	763363328	24	5609
2026-01-22 11:04:19.04	294.05	47.06	-31.4	-34.5	11.7	9.45e-04	0	44	0	764411904	24	5180
2026-01-22 11:04:20.04	294.52	46.88	-31.1	-34.2	12.4	1.77e-04	0	44	0	766509056	23	5119
2026-01-22 11:04:21.04	294.99	46.70	-31.1	-34.0	12.5	1.33e-04	0	44	0	768606208	23	5072
2026-01-22 11:04:22.04	295.46	46.52	-31.2	-34.3	12.4	1.20e-04	0	44	0	770703360	23	5153
2026-01-22 11:04:23.05	295.92	46.34	-31.1	-34.2	12.4	1.85e-04	0	44	0	772800512	23	5121
2026-01-22 11:04:24.05	296.37	46.15	-31.3	-34.8	12.0	3.35e-04	0	44	0	773849088	23	5386
2026-01-22 11:04:25.05	296.82	45.97	-31.7	-36.0	11.1	9.96e-04	0	44	0	775946240	23	5902
2026-01-22 11:04:26.05	297.27	45.78	-31.8	-36.3	11.0	2.29e-03	0	44	0	778043392	23	6035
2026-01-22 11:04:27.06	297.71	45.59	-31.6	-35.6	11.4	1.44e-03	0	44	0	780140544	23	5742
2026-01-22 11:04:28.06	298.14	45.40	-31.2	-34.5	12.1	6.89e-04	0	44	0	782237696	23	5285
2026-01-22 11:04:29.06	298.57	45.22	-31.1	-34.1	12.3	1.84e-04	0	44	0	783286272	23	5116
2026-01-22 11:04:30.07	299.00	45.02	-31.4	-34.9	11.9	2.88e-04	0	44	0	785383424	23	5420
2026-01-22 11:04:31.07	299.41	44.83	-31.1	-34.2	12.3	3.85e-04	0	44	0	787480576	23	5143
2026-01-22 11:04:32.08	299.83	44.64	-31.0	-33.8	12.6	2.36e-04	0	44	0	789577728	23	4973
2026-01-22 11:04:33.08	300.24	44.45	-31.1	-34.1	12.4	2.72e-04	0	44	0	791674880	23	5093
2026-01-22 11:04:34.08	300.64	44.26	-31.2	-34.5	12.2	1.54e-04	0	44	0	792723456	23	5236
2026-01-22 11:04:35.08	301.04	44.06	-31.1	-34.2	12.3	3.00e-04	0	44	0	794820608	23	5148
2026-01-22 11:04:36.08	301.43	43.87	-31.0	-34.0	12.5	9.46e-05	0	44	0	796917760	23	5049
2026-01-22 11:04:37.08	301.82	43.67	-31.2	-34.4	12.1	1.65e-04	0	44	0	799014912	23	5223
2026-01-22 11:04:38.08	302.20	43.48	-31.2	-34.5	12.1	2.00e-04	0	44	0	800063488	23	5302
2026-01-22 11:04:39.08	302.58	43.29	-31.4	-35.0	11.7	4.05e-04	0	44	0	802160640	23	5464
2026-01-22 11:04:40.09	302.96	43.09	-30.9	-33.6	12.7	1.53e-04	0	44	0	804257792	23	4907
2026-01-22 11:04:41.10	303.34	42.89	-30.6	-33.3	13.3	5.56e-05	0	44	0	806354944	22	4883
2026-01-22 11:04:42.10	303.70	42.70	-30.5	-33.0	13.5	1.85e-04	0	44	0	808452096	22	4798
2026-01-22 11:04:43.11	304.07	42.50	-30.8	-34.0	12.8	3.96e-05	0	44	0	809500672	22	5147
2026-01-22 11:04:44.12	304.43	42.30	-31.1	-34.7	12.3	1.20e-04	0	44	0	811597824	22	5457
2026-01-22 11:04:45.12	304.78	42.10	-31.5	-35.5	11.3	5.84e-04	0	44	0	813694976	23	5706
2026-01-22 11:04:46.12	305.13	41.91	-31.2	-34.7	11.8	9.05e-04	0	44	0	815792128	23	5424
2026-01-22 11:04:47.13	305.48	41.71	-31.3	-34.7	12.0	3.60e-04	0	44	0	817889280	23	5354
2026-01-22 11:04:48.13	305.82	41.51	-31.2	-34.4	12.1	3.45e-04	0	44	0	818937856	23	5232
2026-01-22 11:04:49.14	306.16	41.31	-31.1	-34.2	12.3	2.00e-04	0	44	0	821035008	23	5124
2026-01-22 11:04:50.14	306.49	41.12	-31.1	-34.3	12.3	3.50e-04	0	44	0	823132160	23	5189
2026-01-22 11:04:51.14	306.82	40.92	-31.4	-35.2	11.6	3.43e-04	0	44	0	825229312	23	5571
2026-01-22 11:04:52.14	307.14	40.72	-31.8	-36.3	10.8	1.39e-03	0	44	0	827326464	23	6080
2026-01-22 11:04:53.15	307.47	40.52	-32.2	-37.3	9.7	8.08e-03	0	44	0	828375040	24	6485
2026-01-22 11:04:54.15	307.78	40.33	-32.7	-38.8	8.1	3.98e-02	0	44	0	830472192	25	7311
2026-01-22 11:04:55.16	308.10	40.13	-32.8	-39.6	7.5	9.00e-02	0	44	0	832569344	25	7805
2026-01-22 11:04:56.16	308.41	39.93	-32.5	-38.7	8.0	9.11e-02	0	44	0	834666496	25	7357
2026-01-22 11:04:57.17	308.72	39.74	-32.3	-37.3	9.2	3.26e-02	0	44	0	836763648	25	6418
2026-01-22 11:04:58.17	309.02	39.54	-32.2	-36.7	9.7	1.29e-02	0	44	0	837812224	25	6076
2026-01-22 11:04:59.17	309.32	39.35	-32.3	-37.1	9.5	1.30e-02	0	44	0	839909376	25	6244
2026-01-22 11:05:00.17	309.61	39.15	-32.5	-38.0	8.7	2.47e-02	0	44	0	842006528	25	6777
2026-01-22 11:05:01.17	309.90	38.96	-32.9	-39.9	7.3	7.54e-02	0	44	0	844103680	25	8024
2026-01-22 11:05:02.17	310.19	38.76	-32.9	-39.9	7.2	1.60e-01	0	44	0	846200832	25	8106
2026-01-22 11:05:03.18	310.48	38.57	-32.2	-36.9	9.5	2.97e-02	0	44	0	847249408	25	6180
2026-01-22 11:05:04.19	310.76	38.37	-31.3	-34.7	11.7	1.97e-03	0	44	0	849346560	23	5365
2026-01-22 11:05:05.19	311.04	38.18	-30.7	-33.5	13.0	8.31e-05	0	44	0	851443712	22	4969
2026-01-22 11:05:06.19	311.31	37.98	-30.7	-33.4	13.2	1.90e-05	0	44	0	853540864	22	4937
2026-01-22 11:05:07.19	311.58	37.79	-31.2	-35.0	12.0	3.24e-04	0	44	0	855638016	22	5593
2026-01-22 11:05:08.19	311.85	37.60	-31.9	-37.0	10.2	2.02e-03	0	44	0	856686592	23	6422
2026-01-22 11:05:09.20	312.12	37.41	-32.5	-38.5	8.7	1.27e-02	0	44	0	858783744	24	7206
2026-01-22 11:05:10.20	312.38	37.21	-32.6	-38.6	8.2	7.31e-02	0	44	0	860880896	25	7175
2026-01-22 11:05:11.21	312.64	37.02	-31.9	-35.9	10.2	1.96e-02	0	44	0	862978048	25	5692
2026-01-22 11:05:12.21	312.90	36.83	-31.1	-34.1	12.2	1.71e-03	0	44	0	864026624	23	5123
2026-01-22 11:05:13.21	313.15	36.64	-30.5	-33.0	13.4	1.67e-05	0	44	0	866123776	22	4797
2026-01-22 11:05:14.21	313.40	36.45	-30.3	-33.1	13.6	9.10e-06	0	44	0	868220928	21	4936
2026-01-22 11:05:15.22	313.65	36.26	-30.6	-33.7	13.2	3.38e-04	0	44	0	870318080	21	5183
2026-01-22 11:05:16.22	313.90	36.07	-31.2	-35.1	11.9	2.72e-04	0	44	0	872415232	22	5631
2026-01-22 11:05:17.23	314.14	35.88	-32.1	-37.0	9.8	4.31e-03	0	44	0	874512384	24	6364
2026-01-22 11:05:18.23	314.38	35.70	-32.6	-38.6	8.2	3.22e-02	0	44	0	875560960	25	7197
2026-01-22 11:05:19.24	314.62	35.51	-32.1	-36.7	9.5	4.06e-02	0	44	0	877658112	25	6103
2026-01-22 11:05:20.25	314.86	35.32	-31.3	-34.8	11.7	1.67e-03	0	44	0	879755264	23	5383
2026-01-22 11:05:21.26	315.09	35.13	-30.6	-33.3	13.1	7.01e-05	0	44	0	881852416	22	4917
2026-01-22 11:05:22.25	315.32	34.95	-30.4	-32.7	13.5	2.08e-04	0	44	0	882900992	22	4704
2026-01-22 11:05:23.25	315.54	34.77	-30.5	-33.6	13.2	1.21e-04	0	44	0	884998144	21	5129
2026-01-22 11:05:24.25	315.77	34.58	-30.6	-33.7	13.2	2.05e-05	0	44	0	887095296	21	5171
2026-01-22 11:05:25.25	315.99	34.40	-31.2	-35.0	11.9	9.68e-05	0	44	0	889192448	22	5608
2026-01-22 11:05:26.25	316.21	34.22	-31.8	-36.6	10.4	1.28e-03	0	44	0	891289600	23	6283
2026-01-22 11:05:27.25	316.42	34.04	-32.2	-37.6	9.3	1.49e-02	0	44	0	892338176	24	6689
2026-01-22 11:05:28.25	316.64	33.85	-32.1	-37.0	9.7	1.64e-02	0	44	0	894435328	24	6375
2026-01-22 11:05:29.25	316.85	33.67	-31.7	-35.7	10.7	7.11e-03	0	44	0	896532480	24	5694
2026-01-22 11:05:30.25	317.06	33.49	-31.2	-34.7	11.8	7.18e-04	0	44	0	898629632	23	5343
2026-01-22 11:05:31.26	317.27	33.31	-31.0	-34.0	12.3	2.36e-04	0	44	0	900726784	23	5090
2026-01-22 11:05:32.26	317.47	33.14	-31.0	-34.0	12.3	5.19e-04	0	44	0	901775360	23	5062
2026-01-22 11:05:33.26	317.67	32.96	-31.2	-35.0	11.9	3.33e-04	0	44	0	903872512	22	5573
2026-01-22 11:05:34.27	317.88	32.78	-31.0	-34.5	12.3	1.87e-04	0	44	0	905969664	22	5386
2026-01-22 11:05:35.27	318.08	32.60	-31.4	-35.6	11.6	2.91e-04	0	44	0	908066816	22	5865
2026-01-22 11:05:36.28	318.27	32.42	-31.8	-36.8	10.3	2.21e-03	0	44	0	910163968	23	6346
2026-01-22 11:05:37.28	318.47	32.25	-32.2	-37.5	9.2	1.31e-02	0	44	0	911212544	24	6693
2026-01-22 11:05:38.28	318.66	32.07	-32.6	-38.6	8.1	5.12e-02	0	44	0	913309696	25	7208
2026-01-22 11:05:39.28	318.85	31.90	-32.6	-38.6	8.1	6.63e-02	0	44	0	915406848	25	7204
2026-01-22 11:05:40.29	319.04	31.73	-32.5	-38.1	8.4	5.43e-02	0	44	0	917504000	25	6893
2026-01-22 11:05:41.29	319.23	31.55	-32.0	-36.2	9.9	1.56e-02	0	44	0	919601152	25	5834
2026-01-22 11:05:42.28	319.41	31.38	-31.7	-35.6	10.8	5.25e-03	0	44	0	920649728	24	5652
2026-01-22 11:05:43.28	319.59	31.21	-31.3	-34.8	11.7	1.48e-03	0	44	0	922746880	23	5413
2026-01-22 11:05:44.29	319.77	31.04	-31.1	-34.5	11.9	5.71e-04	0	44	0	924844032	23	5304
2026-01-22 11:05:45.30	319.95	30.87	-31.3	-34.8	11.7	8.54e-04	0	44	0	926941184	23	5393
2026-01-22 11:05:46.30	320.13	30.70	-31.2	-34.6	11.8	7.88e-04	0	44	0	927989760	23	5343
2026-01-22 11:05:47.31	320.31	30.53	-31.3	-35.1	11.5	9.67e-04	0	44	0	930086912	23	5522
2026-01-22 11:05:48.32	320.48	30.36	-31.6	-35.9	10.9	1.92e-03	0	44	0	932184064	23	5892
2026-01-22 11:05:49.32	320.66	30.20	-31.8	-36.7	10.4	3.44e-03	0	44	0	934281216	23	6285
2026-01-22 11:05:50.32	320.83	30.03	-31.9	-37.1	10.0	7.00e-03	0	44	0	936378368	23	6501
2026-01-22 11:05:51.32	320.99	29.86	-31.8	-36.9	10.0	7.65e-03	0	44	0	937426944	23	6482
2026-01-22 11:05:52.33	321.16	29.70	-31.7	-36.3	10.6	5.62e-03	0	44	0	939524096	23	6107
2026-01-22 11:05:53.33	321.33	29.53	-31.5	-35.5	11.2	2.74e-03	0	44	0	941621248	23	5728
2026-01-22 11:05:54.33	321.49	29.37	-31.3	-35.0	11.5	1.11e-03	0	44	0	943718400	23	5506
2026-01-22 11:05:55.33	321.65	29.21	-31.1	-34.5	12.0	6.40e-04	0	44	0	945815552	23	5279
2026-01-22 11:05:56.34	321.81	29.04	-31.2	-34.5	11.9	3.11e-04	0	44	0	946864128	23	5286
2026-01-22 11:05:57.34	321.97	28.88	-31.3	-34.9	11.6	7.60e-04	0	44	0	948961280	23	5451
2026-01-22 11:05:58.34	322.13	28.72	-30.9	-34.3	12.4	4.35e-04	0	44	0	951058432	22	5297
2026-01-22 11:05:59.34	322.28	28.56	-30.9	-34.2	12.5	5.84e-04	0	44	0	953155584	22	5274
2026-01-22 11:06:00.35	322.44	28.40	-30.9	-34.3	12.4	1.31e-04	0	44	0	955252736	22	5311
2026-01-22 11:06:01.34	322.59	28.25	-30.9	-34.4	12.2	1.44e-04	0	44	0	956301312	22	5385
2026-01-22 11:06:02.34	322.74	28.09	-31.1	-34.9	11.8	7.38e-04	0	44	0	958398464	22	5626
2026-01-22 11:06:03.35	322.89	27.93	-31.2	-35.0	11.8	8.17e-04	0	44	0	960495616	22	5617
2026-01-22 11:06:04.35	323.04	27.77	-31.2	-35.2	11.7	4.75e-04	0	44	0	962592768	22	5713
2026-01-22 11:06:05.35	323.19	27.62	-31.1	-35.1	11.8	1.63e-03	0	44	0	964689920	22	5661
2026-01-22 11:06:06.35	323.33	27.46	-31.1	-34.8	12.0	1.55e-03	0	44	0	965738496	22	5530
2026-01-22 11:06:07.35	323.48	27.31	-31.0	-34.6	12.1	3.07e-04	0	44	0	967835648	22	5453
2026-01-22 11:06:08.36	323.62	27.15	-31.1	-34.7	12.0	2.44e-04	0	44	0	969932800	22	5504
2026-01-22 11:06:09.36	323.76	27.00	-31.0	-34.7	12.1	1.09e-03	0	44	0	972029952	22	5494
2026-01-22 11:06:10.36	323.90	26.85	-30.9	-34.2	12.4	3.28e-04	0	44	0	973078528	22	5289
2026-01-22 11:06:11.36	324.04	26.70	-30.9	-34.3	12.3	2.20e-04	0	44	0	975175680	22	5325
2026-01-22 11:06:12.37	324.18	26.55	-30.6	-33.5	12.8	9.68e-05	0	44	0	977272832	22	5024
2026-01-22 11:06:13.38	324.32	26.39	-30.4	-33.3	13.3	2.74e-05	0	44	0	979369984	21	5052
2026-01-22 11:06:14.38	324.45	26.24	-30.5	-33.6	13.1	2.74e-05	0	44	0	981467136	21	5148
2026-01-22 11:06:15.37	324.58	26.10	-30.5	-33.5	13.2	1.10e-04	0	44	0	982515712	21	5125
2026-01-22 11:06:16.37	324.72	25.95	-30.6	-33.8	13.0	9.36e-04	0	44	0	984612864	21	5236
2026-01-22 11:06:17.37	324.85	25.80	-30.7	-34.2	12.7	6.89e-04	0	44	0	986710016	21	5386
2026-01-22 11:06:18.37	324.98	25.66	-30.8	-34.5	12.5	1.17e-04	0	44	0	988807168	21	5501
2026-01-22 11:06:19.37	325.11	25.51	-31.0	-35.0	12.1	5.41e-04	0	44	0	990904320	21	5744
2026-01-22 11:06:20.38	325.24	25.36	-31.0	-34.8	11.9	6.23e-04	0	44	0	991952896	22	5528
2026-01-22 11:06:21.37	325.36	25.22	-31.0	-34.7	12.0	3.05e-04	0	44	0	994050048	22	5514
2026-01-22 11:06:22.38	325.49	25.07	-31.0	-34.7	12.0	3.13e-04	0	44	0	996147200	22	5519
2026-01-22 11:06:23.38	325.61	24.93	-30.9	-34.2	12.3	2.67e-04	0	44	0	998244352	22	5305
2026-01-22 11:06:24.39	325.74	24.79	-30.7	-33.8	12.6	1.65e-04	0	44	0	1000341504	22	5133
2026-01-22 11:06:25.40	325.86	24.64	-30.6	-33.6	12.8	8.31e-05	0	44	0	1001390080	22	5038
2026-01-22 11:06:26.40	325.98	24.50	-30.6	-33.5	12.8	6.33e-05	0	44	0	1003487232	22	5009
2026-01-22 11:06:27.40	326.10	24.36	-30.6	-33.6	12.8	8.06e-04	0	44	0	1005584384	22	5076
2026-01-22 11:06:28.41	326.22	24.22	-30.7	-33.7	12.7	1.13e-04	0	44	0	1007681536	22	5073
2026-01-22 11:06:29.41	326.34	24.08	-30.3	-32.7	13.3	1.11e-04	0	44	0	1009778688	22	4729
2026-01-22 11:06:30.41	326.46	23.94	-30.0	-32.3	13.9	9.90e-06	0	44	0	1010827264	21	4699
2026-01-22 11:06:31.40	326.57	23.80	-29.9	-32.5	14.1	7.00e-07	0	44	0	1012924416	20	4851
2026-01-22 11:06:32.41	326.69	23.66	-29.8	-32.3	14.2	4.08e-04	0	44	0	1015021568	20	4808
2026-01-22 11:06:33.41	326.80	23.53	-29.9	-32.5	14.1	3.77e-04	0	44	0	1017118720	20	4852
2026-01-22 11:06:34.41	326.92	23.39	-30.0	-32.7	14.0	1.50e-06	0	44	0	1018167296	20	4939
2026-01-22 11:06:35.40	327.03	23.26	-30.0	-32.7	14.0	1.30e-04	0	44	0	1020264448	20	4932
2026-01-22 11:06:36.41	327.14	23.12	-30.0	-32.9	13.8	3.28e-05	0	44	0	1022361600	20	5015
2026-01-22 11:06:37.40	327.25	22.99	-30.1	-33.2	13.7	2.55e-04	0	44	0	1024458752	20	5111
2026-01-22 11:06:38.40	327.36	22.85	-30.2	-33.2	13.6	4.50e-06	0	44	0	1026555904	20	5134
2026-01-22 11:06:39.41	327.47	22.72	-30.3	-33.5	13.4	1.52e-05	0	44	0	1027604480	20	5244
2026-01-22 11:06:40.41	327.58	22.58	-30.3	-33.5	13.4	1.37e-05	0	44	0	1029701632	20	5229
2026-01-22 11:06:41.42	327.69	22.45	-30.3	-33.7	13.3	3.87e-04	0	44	0	1031798784	20	5334
2026-01-22 11:06:42.42	327.79	22.32	-30.4	-33.9	13.2	2.01e-04	0	44	0	1033895936	20	5386
2026-01-22 11:06:43.42	327.90	22.19	-30.3	-33.7	13.3	1.29e-05	0	44	0	1035993088	20	5328
2026-01-22 11:06:44.43	328.00	22.06	-30.4	-34.0	13.1	2.13e-05	0	44	0	1037041664	20	5422
2026-01-22 11:06:45.43	328.11	21.93	-30.4	-33.8	13.2	4.22e-04	0	44	0	1039138816	20	5366
2026-01-22 11:06:46.43	328.21	21.80	-30.3	-33.6	13.3	9.46e-05	0	44	0	1041235968	20	5291
2026-01-22 11:06:47.44	328.31	21.67	-30.3	-33.7	13.3	2.97e-05	0	44	0	1043333120	20	5298
2026-01-22 11:06:48.44	328.41	21.54	-30.2	-33.4	13.4	1.44e-05	0	44	0	1045430272	20	5203
2026-01-22 11:06:49.44	328.51	21.41	-30.0	-33.3	13.2	4.09e-04	0	44	0	1046478848	20	5268
2026-01-22 11:06:50.44	328.61	21.28	-30.2	-33.5	13.4	4.18e-04	0	44	0	1048576000	20	5240
2026-01-22 11:06:51.45	328.71	21.16	-30.2	-33.4	13.4	1.44e-05	0	44	0	1050673152	20	5207
2026-01-22 11:06:52.45	328.81	21.03	-30.3	-33.6	13.3	2.78e-04	0	44	0	1052770304	20	5285
2026-01-22 11:06:53.44	328.91	20.91	-30.1	-33.3	13.4	2.49e-04	0	44	0	1054867456	20	5176
2026-01-22 11:06:54.44	329.00	20.78	-30.2	-33.3	13.5	2.97e-04	0	44	0	1055916032	20	5175
2026-01-22 11:06:55.45	329.10	20.66	-30.2	-33.5	13.4	2.21e-05	0	44	0	1058013184	20	5237
2026-01-22 11:06:56.46	329.20	20.53	-30.3	-33.7	13.2	1.32e-04	0	44	0	1060110336	20	5338
2026-01-22 11:06:57.46	329.29	20.41	-30.4	-34.0	13.0	3.28e-05	0	44	0	1062207488	20	5457
2026-01-22 11:06:58.47	329.38	20.28	-30.4	-34.2	12.8	4.07e-04	0	44	0	1064304640	20	5546
2026-01-22 11:06:59.47	329.48	20.16	-30.4	-33.9	12.5	1.18e-04	0	44	0	1065353216	21	5396
2026-01-22 11:07:00.47	329.57	20.04	-30.8	-34.5	12.2	3.46e-04	0	44	0	1067450368	21	5554
2026-01-22 11:07:01.47	329.66	19.92	-30.8	-34.6	12.2	1.65e-04	0	44	0	1069547520	21	5585
2026-01-22 11:07:02.47	329.75	19.80	-30.8	-34.8	12.1	6.87e-04	0	44	0	1071644672	21	5662
2026-01-22 11:07:03.48	329.84	19.68	-30.7	-34.3	12.4	4.11e-04	0	44	0	1072693248	21	5473
2026-01-22 11:07:04.48	329.93	19.56	-30.7	-34.2	12.5	4.00e-04	0	44	0	1074790400	21	5438
2026-01-22 11:07:05.48	330.02	19.44	-30.6	-34.0	12.6	9.15e-05	0	44	0	1076887552	21	5355
2026-01-22 11:07:06.49	330.11	19.32	-30.5	-33.8	12.7	2.57e-04	0	44	0	1078984704	21	5292
2026-01-22 11:07:07.49	330.20	19.20	-30.1	-33.4	12.7	4.94e-04	0	44	0	1081081856	21	5241
2026-01-22 11:07:08.49	330.28	19.08	-30.4	-33.6	12.9	6.48e-05	0	44	0	1082130432	21	5186
2026-01-22 11:07:09.49	330.37	18.97	-30.3	-33.3	13.1	3.73e-05	0	44	0	1084227584	21	5061
2026-01-22 11:07:10.50	330.46	18.85	-30.2	-33.1	13.2	2.74e-05	0	44	0	1086324736	21	5002
2026-01-22 11:07:11.50	330.54	18.73	-30.2	-32.9	13.3	6.07e-04	0	44	0	1088421888	21	4913
2026-01-22 11:07:12.50	330.62	18.62	-30.2	-32.9	13.3	1.90e-05	0	44	0	1090519040	21	4939
2026-01-22 11:07:13.51	330.71	18.50	-30.1	-32.8	13.4	1.29e-05	0	44	0	1091567616	21	4880
2026-01-22 11:07:14.51	330.79	18.39	-30.0	-32.9	13.6	2.27e-04	0	44	0	1093664768	20	5030
2026-01-22 11:07:15.51	330.87	18.27	-29.9	-32.8	13.7	5.99e-04	0	44	0	1095761920	20	4980
2026-01-22 11:07:16.52	330.96	18.16	-29.8	-32.5	13.9	6.10e-06	0	44	0	1097859072	20	4881
2026-01-22 11:07:17.53	331.04	18.04	-29.8	-32.4	13.9	1.50e-06	0	44	0	1099956224	20	4851
2026-01-22 11:07:18.53	331.12	17.93	-29.8	-32.3	13.9	2.20e-06	0	44	0	1101004800	20	4835
2026-01-22 11:07:19.53	331.20	17.82	-29.7	-32.2	14.0	3.34e-04	0	44	0	1103101952	20	4795
2026-01-22 11:07:20.54	331.28	17.71	-29.8	-32.3	13.9	1.36e-04	0	44	0	1105199104	20	4828
2026-01-22 11:07:21.55	331.36	17.59	-29.8	-32.3	14.0	3.00e-06	0	44	0	1107296256	20	4824
2026-01-22 11:07:22.55	331.44	17.48	-29.9	-32.6	13.7	6.80e-06	0	44	0	1109393408	20	4912
2026-01-22 11:07:23.54	331.52	17.37	-29.9	-32.7	13.7	4.50e-06	0	44	0	1110441984	20	4967
2026-01-22 11:07:24.55	331.59	17.26	-29.9	-32.6	13.8	5.60e-04	0	44	0	1112539136	20	4914
2026-01-22 11:07:25.55	331.67	17.15	-29.9	-32.7	13.6	2.01e-04	0	44	0	1114636288	20	4989
2026-01-22 11:07:26.56	331.75	17.04	-30.0	-32.9	13.5	1.14e-05	0	44	0	1116733440	20	5030
2026-01-22 11:07:27.56	331.82	16.94	-30.0	-33.0	13.5	1.52e-05	0	44	0	1117782016	20	5074
2026-01-22 11:07:28.57	331.90	16.83	-29.9	-33.0	13.3	4.17e-04	0	44	0	1119879168	20	5153
2026-01-22 11:07:29.58	331.98	16.72	-30.1	-33.3	13.3	1.77e-04	0	44	0	1121976320	20	5176
2026-01-22 11:07:30.58	332.05	16.61	-30.1	-33.3	13.3	2.13e-05	0	44	0	1124073472	20	5197
2026-01-22 11:07:31.59	332.13	16.50	-30.1	-33.3	13.3	2.28e-05	0	44	0	1126170624	20	5196
2026-01-22 11:07:32.60	332.20	16.39	-30.1	-33.3	13.2	7.17e-04	0	44	0	1128267776	20	5208
2026-01-22 11:07:33.60	332.27	16.29	-30.1	-33.4	13.2	2.36e-05	0	44	0	1129316352	20	5225
2026-01-22 11:07:34.61	332.35	16.18	-30.1	-33.3	13.2	2.36e-05	0	44	0	1131413504	20	5202
2026-01-22 11:07:35.61	332.42	16.08	-30.1	-33.4	13.2	1.98e-05	0	44	0	1133510656	20	5236
2026-01-22 11:07:36.61	332.49	15.97	-30.1	-33.4	13.1	4.34e-04	0	44	0	1135607808	20	5243
2026-01-22 11:07:37.61	332.56	15.87	-30.1	-33.2	13.3	4.31e-04	0	44	0	1136656384	20	5148
2026-01-22 11:07:38.62	332.63	15.76	-30.1	-33.3	13.2	1.83e-05	0	44	0	1138753536	20	5204
2026-01-22 11:07:39.63	332.70	15.66	-30.1	-33.3	13.2	4.07e-04	0	44	0	1140850688	20	5205
2026-01-22 11:07:40.63	332.77	15.56	-30.2	-33.6	13.0	2.28e-05	0	44	0	1142947840	20	5318
2026-01-22 11:07:41.63	332.84	15.45	-30.2	-33.5	13.0	5.23e-04	0	44	0	1145044992	20	5293
2026-01-22 11:07:42.63	332.91	15.35	-30.1	-33.4	13.1	2.36e-05	0	44	0	1146093568	20	5225
2026-01-22 11:07:43.64	332.98	15.25	-30.3	-33.8	12.8	5.37e-04	0	44	0	1148190720	20	5413
2026-01-22 11:07:44.65	333.05	15.15	-30.3	-33.7	12.9	7.78e-05	0	44	0	1150287872	20	5359
2026-01-22 11:07:45.64	333.11	15.05	-30.2	-33.7	12.9	4.61e-04	0	44	0	1152385024	20	5348
2026-01-22 11:07:46.65	333.18	14.94	-30.2	-33.7	12.9	5.79e-04	0	44	0	1154482176	20	5372
2026-01-22 11:07:47.65	333.25	14.84	-30.1	-33.4	13.0	7.27e-04	0	44	0	1155530752	20	5263
2026-01-22 11:07:48.66	333.31	14.74	-30.2	-33.5	13.0	3.12e-05	0	44	0	1157627904	20	5281
2026-01-22 11:07:49.66	333.38	14.64	-30.1	-33.6	12.9	5.27e-04	0	44	0	1159725056	20	5344
2026-01-22 11:07:50.67	333.45	14.54	-30.0	-33.5	12.7	7.49e-04	0	44	0	1161822208	20	5386
2026-01-22 11:07:51.68	333.51	14.44	-30.3	-33.8	12.8	7.47e-05	0	44	0	1163919360	20	5422
2026-01-22 11:07:52.68	333.58	14.34	-30.4	-34.2	12.5	9.53e-05	0	44	0	1164967936	20	5576
2026-01-22 11:07:53.68	333.64	14.25	-30.4	-34.3	12.4	1.40e-04	0	44	0	1167065088	20	5631
2026-01-22 11:07:54.68	333.70	14.15	-30.5	-34.2	12.2	1.80e-03	0	44	0	1169162240	21	5455
2026-01-22 11:07:55.68	333.77	14.05	-30.8	-34.9	11.6	2.84e-04	0	44	0	1171259392	21	5793
2026-01-22 11:07:56.69	333.83	13.95	-30.8	-34.8	11.6	7.19e-04	0	44	0	1173356544	21	5762
2026-01-22 11:07:57.69	333.89	13.86	-30.6	-34.5	11.9	1.14e-03	0	44	0	1174405120	21	5586
2026-01-22 11:07:58.66	333.95	13.76	-30.5	-34.2	12.1	1.40e-03	0	44	0	1176502272	21	5463
2026-01-22 11:07:59.67	334.02	13.67	-30.6	-34.4	12.0	3.20e-04	0	44	0	1178599424	21	5567
2026-01-22 11:08:00.67	334.08	13.57	-30.7	-34.7	11.7	4.44e-04	0	44	0	1180696576	21	5698
2026-01-22 11:08:01.68	334.14	13.48	-30.7	-34.7	11.8	1.29e-03	0	44	0	1182793728	21	5693
2026-01-22 11:08:02.68	334.20	13.38	-30.7	-34.8	11.6	6.58e-04	0	44	0	1183842304	21	5761
2026-01-22 11:08:03.69	334.26	13.29	-30.9	-35.1	11.4	7.52e-04	0	44	0	1185939456	21	5903
2026-01-22 11:08:04.70	334.32	13.19	-30.8	-35.0	11.5	8.44e-04	0	44	0	1188036608	21	5821
2026-01-22 11:08:05.71	334.38	13.10	-30.7	-34.8	11.6	1.47e-03	0	44	0	1190133760	21	5760
2026-01-22 11:08:06.70	334.44	13.00	-30.8	-34.9	11.5	1.02e-03	0	44	0	1192230912	21	5804
2026-01-22 11:08:07.71	334.50	12.91	-30.8	-35.0	11.5	1.21e-03	0	44	0	1193279488	21	5833
2026-01-22 11:08:08.72	334.56	12.81	-30.8	-35.2	11.2	1.55e-03	0	44	0	1195376640	21	5916
2026-01-22 11:08:09.72	334.62	12.72	-31.0	-35.2	10.9	1.55e-03	0	44	0	1197473792	22	5851
2026-01-22 11:08:10.72	334.67	12.63	-31.0	-35.1	11.1	2.22e-03	0	44	0	1199570944	22	5760
2026-01-22 11:08:11.72	334.73	12.54	-30.8	-34.4	11.5	1.84e-03	0	44	0	1201668096	22	5486
2026-01-22 11:08:12.73	334.79	12.45	-30.7	-34.0	11.8	7.22e-04	0	44	0	1202716672	22	5302
2026-01-22 11:08:13.73	334.85	12.35	-30.6	-33.9	11.9	3.81e-04	0	44	0	1204813824	22	5275
2026-01-22 11:08:14.74	334.90	12.26	-30.6	-34.0	11.8	4.55e-04	0	44	0	1206910976	22	5310
2026-01-22 11:08:15.74	334.96	12.17	-30.7	-34.2	11.6	1.25e-03	0	44	0	1209008128	22	5413
2026-01-22 11:08:16.74	335.02	12.08	-30.6	-34.0	11.8	4.99e-04	0	44	0	1210056704	22	5287
2026-01-22 11:08:17.74	335.07	11.99	-30.6	-33.7	12.0	3.38e-04	0	44	0	1212153856	22	5192
2026-01-22 11:08:18.74	335.13	11.90	-30.5	-33.7	12.0	3.17e-04	0	44	0	1214251008	22	5189
2026-01-22 11:08:19.75	335.18	11.81	-30.4	-34.0	12.0	1.32e-03	0	44	0	1216348160	21	5445
2026-01-22 11:08:20.75	335.24	11.72	-30.5	-34.0	12.1	2.79e-04	0	44	0	1218445312	21	5426
2026-01-22 11:08:21.76	335.29	11.63	-30.5	-34.2	11.9	2.91e-04	0	44	0	1220542464	21	5520
2026-01-22 11:08:22.76	335.35	11.55	-30.5	-34.1	11.9	4.51e-04	0	44	0	1221591040	21	5451
2026-01-22 11:08:23.77	335.40	11.46	-30.3	-33.7	12.3	4.60e-04	0	44	0	1223688192	21	5290
2026-01-22 11:08:24.77	335.45	11.37	-30.3	-33.5	12.4	7.12e-04	0	44	0	1225785344	21	5202
2026-01-22 11:08:25.77	335.51	11.28	-30.3	-33.4	12.5	1.14e-04	0	44	0	1227882496	21	5178
2026-01-22 11:08:26.77	335.56	11.19	-30.2	-33.4	12.4	8.33e-04	0	44	0	1228931072	21	5228
2026-01-22 11:08:27.78	335.61	11.11	-30.4	-33.7	12.3	1.58e-04	0	44	0	1231028224	21	5313
2026-01-22 11:08:28.78	335.67	11.02	-30.3	-33.7	12.3	9.84e-04	0	44	0	1233125376	21	5294
2026-01-22 11:08:29.78	335.72	10.93	-30.2	-33.3	12.5	1.69e-04	0	44	0	1235222528	21	5172
2026-01-22 11:08:30.77	335.77	10.85	-30.2	-33.4	12.5	1.32e-03	0	44	0	1237319680	21	5179
2026-01-22 11:08:31.78	335.82	10.76	-30.3	-33.5	12.4	1.24e-04	0	44	0	1238368256	21	5210
2026-01-22 11:08:32.78	335.87	10.68	-30.2	-33.4	12.4	3.13e-04	0	44	0	1240465408	21	5184
2026-01-22 11:08:33.79	335.92	10.59	-30.3	-33.8	12.1	1.47e-03	0	44	0	1242562560	21	5353
2026-01-22 11:08:34.79	335.97	10.51	-30.3	-33.7	12.2	2.44e-04	0	44	0	1244659712	21	5326
2026-01-22 11:08:35.80	336.03	10.42	-30.4	-33.9	12.1	2.25e-04	0	44	0	1246756864	21	5386
2026-01-22 11:08:36.80	336.08	10.34	-30.4	-33.9	12.0	7.46e-04	0	44	0	1247805440	21	5422
2026-01-22 11:08:37.81	336.13	10.25	-30.4	-34.1	11.8	2.09e-03	0	44	0	1249902592	21	5519
2026-01-22 11:08:38.81	336.18	10.17	-30.5	-34.2	11.8	5.61e-04	0	44	0	1251999744	21	5532
2026-01-22 11:08:39.80	336.23	10.08	-30.5	-34.4	11.7	4.79e-04	0	44	0	1254096896	21	5588
2026-01-22 11:08:40.81	336.27	10.00	-30.6	-34.4	11.7	6.25e-04	0	44	0	1256194048	21	5603
2026-01-22 11:08:41.81	336.32	9.92	-30.6	-34.6	11.5	3.53e-03	0	44	0	1257242624	21	5708
2026-01-22 11:08:42.81	336.37	9.83	-30.6	-34.6	11.5	9.34e-04	0	44	0	1259339776	21	5710
2026-01-22 11:08:43.82	336.42	9.75	-30.7	-34.8	11.3	9.60e-04	0	44	0	1261436928	21	5815
2026-01-22 11:08:44.82	336.47	9.67	-30.7	-34.8	11.3	2.62e-03	0	44	0	1263534080	21	5784
2026-01-22 11:08:45.82	336.52	9.59	-30.7	-35.0	11.2	1.74e-03	0	44	0	1265631232	21	5877
2026-01-22 11:08:46.82	336.56	9.50	-30.8	-35.4	10.9	1.88e-03	0	44	0	1266679808	21	6065
2026-01-22 11:08:47.82	336.61	9.42	-30.8	-35.4	10.9	2.36e-03	0	44	0	1268776960	21	6073
2026-01-22 11:08:48.82	336.66	9.34	-30.9	-35.5	10.8	4.47e-03	0	44	0	1270874112	21	6115
2026-01-22 11:08:49.82	336.71	9.26	-31.1	-35.6	10.4	3.41e-03	0	44	0	1272971264	22	6089
2026-01-22 11:08:50.82	336.75	9.18	-31.2	-36.2	9.9	7.59e-03	0	44	0	1274019840	22	6381
2026-01-22 11:08:51.82	336.80	9.10	-31.1	-36.0	10.0	8.85e-03	0	44	0	1276116992	22	6288
2026-01-22 11:08:52.82	336.85	9.02	-31.3	-36.4	9.8	1.01e-02	0	44	0	1278214144	22	6480
2026-01-22 11:08:53.83	336.89	8.94	-31.2	-36.1	9.9	9.28e-03	0	44	0	1280311296	22	6353
