passes_logs/2026/01/22/R2M6_AANII_01/R2M6_AANII_01__20260122_015444_NOAA_21_JPSS-2_rec.log

#Pass ID: 20260122_015444_NOAA 21 (JPSS-2)
#Satellite: NOAA 21 (JPSS-2)
#Configuration: NOAA 21
#almurnet v.1.7.20240730
#Start time: 2026-01-22 01:54:45

#Version: 2.2.20231116
#Station: R2M6_AANII_01
#Location: 30.233357 lon 59.946436 lat
#TLE: 1 54234U 22150A   26020.93347024  .00000206  00000+0  11859-3 0  9994
#TLE: 2 54234  98.7506 321.7615 0000627 245.8100 114.3011 14.19536899165654

#Time	Az	El	Level	Level2	SNR	BER	BlckErr	Temp	State	Recorded	gain1	gain2
2026-01-22 01:54:45.74	11.46	7.06	-31.8	-38.2	4.3	1.44e+00	0	44	0	0	23	7570
2026-01-22 01:54:46.74	11.38	7.13	-31.5	-37.0	4.5	1.42e+00	0	44	104	0	23	6810
2026-01-22 01:54:47.75	11.30	7.20	-31.4	-36.5	7.5	1.08e-01	0	44	0	0	22	6466
2026-01-22 01:54:48.76	11.23	7.27	-31.4	-36.4	7.7	9.05e-02	0	44	0	3145728	22	6415
2026-01-22 01:54:49.76	11.15	7.34	-31.4	-36.4	7.7	8.91e-02	0	44	0	6291456	22	6402
2026-01-22 01:54:50.76	11.07	7.40	-31.5	-36.6	7.5	1.02e-01	0	44	0	9437184	22	6522
2026-01-22 01:54:51.76	11.00	7.47	-31.6	-36.7	7.1	1.35e-01	0	44	0	12582912	23	6468
2026-01-22 01:54:52.76	10.92	7.54	-31.5	-36.2	7.5	1.31e-01	0	44	0	15728640	23	6175
2026-01-22 01:54:53.76	10.84	7.61	-31.2	-35.5	8.3	6.54e-02	0	44	0	18874368	22	5938
2026-01-22 01:54:54.77	10.76	7.68	-30.8	-34.2	9.3	2.25e-02	0	44	0	22020096	22	5360
2026-01-22 01:54:55.77	10.68	7.75	-30.4	-33.6	10.0	9.26e-03	0	44	0	24117248	21	5219
2026-01-22 01:54:56.77	10.60	7.82	-30.0	-33.0	10.8	3.42e-03	0	44	0	27262976	20	5106
2026-01-22 01:54:57.77	10.52	7.89	-29.7	-32.2	11.3	1.43e-03	0	44	0	30408704	20	4798
2026-01-22 01:54:58.77	10.44	7.96	-29.5	-32.0	11.9	1.01e-03	0	44	0	33554432	19	4809
2026-01-22 01:54:59.77	10.36	8.03	-29.1	-31.2	12.5	7.57e-04	0	44	0	36700160	19	4544
2026-01-22 01:55:00.78	10.28	8.10	-29.0	-30.7	12.8	6.10e-05	0	44	0	39845888	19	4406
2026-01-22 01:55:01.78	10.20	8.17	-28.8	-30.9	13.0	6.08e-04	0	44	0	42991616	18	4568
2026-01-22 01:55:02.78	10.12	8.24	-28.8	-31.3	13.0	4.11e-05	0	44	0	46137344	17	4810
2026-01-22 01:55:03.78	10.04	8.31	-28.8	-31.4	13.0	4.19e-05	0	44	0	49283072	17	4832
2026-01-22 01:55:04.79	9.95	8.38	-28.8	-31.3	13.0	6.55e-04	0	44	0	52428800	17	4803
2026-01-22 01:55:05.79	9.87	8.45	-28.8	-31.4	13.0	5.09e-04	0	44	0	55574528	17	4828
2026-01-22 01:55:06.80	9.79	8.52	-28.8	-31.3	13.1	4.34e-05	0	44	0	58720256	17	4798
2026-01-22 01:55:07.80	9.70	8.60	-28.8	-31.2	13.1	2.89e-05	0	44	0	61865984	17	4782
2026-01-22 01:55:08.80	9.62	8.67	-28.9	-31.5	13.0	2.36e-05	0	44	0	65011712	17	4859
2026-01-22 01:55:09.81	9.53	8.74	-28.7	-31.2	13.2	4.50e-05	0	44	0	68157440	17	4753
2026-01-22 01:55:10.81	9.45	8.81	-28.8	-31.3	13.1	4.80e-04	0	44	0	71303168	17	4783
2026-01-22 01:55:11.81	9.36	8.88	-29.0	-31.7	12.8	6.05e-04	0	44	0	74448896	17	4926
2026-01-22 01:55:12.81	9.28	8.95	-28.9	-31.0	13.0	5.34e-05	0	44	0	77594624	18	4598
2026-01-22 01:55:13.82	9.19	9.03	-28.7	-30.6	13.3	2.28e-05	0	44	0	80740352	18	4456
2026-01-22 01:55:14.82	9.10	9.10	-28.6	-30.9	13.4	1.60e-05	0	43	0	83886080	17	4654
2026-01-22 01:55:15.82	9.01	9.17	-28.6	-30.8	13.4	1.90e-05	0	44	0	87031808	17	4643
2026-01-22 01:55:16.81	8.93	9.24	-28.6	-30.7	13.4	4.33e-04	0	44	0	90177536	17	4614
2026-01-22 01:55:17.81	8.84	9.31	-28.6	-30.8	13.4	1.60e-05	0	44	0	93323264	17	4627
2026-01-22 01:55:18.81	8.75	9.39	-28.6	-30.7	13.5	9.10e-06	0	44	0	96468992	17	4607
2026-01-22 01:55:19.82	8.66	9.46	-28.7	-31.0	13.3	1.44e-05	0	44	0	99614720	17	4701
2026-01-22 01:55:20.82	8.57	9.53	-28.6	-30.8	13.4	3.10e-04	0	44	0	102760448	17	4645
2026-01-22 01:55:21.83	8.48	9.61	-28.5	-30.6	13.6	8.30e-06	0	44	0	105906176	17	4559
2026-01-22 01:55:22.84	8.39	9.68	-28.5	-30.5	13.6	9.10e-06	0	44	0	109051904	17	4537
2026-01-22 01:55:23.84	8.30	9.75	-28.5	-30.6	13.6	1.29e-05	0	44	0	112197632	17	4562
2026-01-22 01:55:24.84	8.21	9.83	-28.4	-30.4	13.7	5.30e-06	0	44	0	115343360	17	4495
2026-01-22 01:55:25.84	8.11	9.90	-28.6	-30.7	13.5	1.22e-05	0	44	0	118489088	17	4610
2026-01-22 01:55:26.84	8.02	9.97	-28.5	-30.5	13.6	4.58e-04	0	44	0	121634816	17	4549
2026-01-22 01:55:27.85	7.93	10.05	-28.4	-30.2	13.8	7.60e-06	0	44	0	124780544	17	4453
2026-01-22 01:55:28.85	7.83	10.12	-28.5	-31.0	13.7	3.00e-06	0	44	0	127926272	16	4798
2026-01-22 01:55:29.85	7.74	10.20	-28.4	-30.2	13.8	4.50e-06	0	44	0	131072000	17	4455
2026-01-22 01:55:30.85	7.65	10.27	-28.3	-30.1	13.9	4.50e-06	0	44	0	134217728	17	4415
2026-01-22 01:55:31.86	7.55	10.35	-28.5	-30.4	13.7	4.50e-06	0	44	0	137363456	17	4511
2026-01-22 01:55:32.86	7.45	10.42	-28.4	-30.3	13.8	6.80e-06	0	44	0	140509184	17	4467
2026-01-22 01:55:33.86	7.36	10.50	-28.4	-30.3	13.8	1.50e-06	0	44	0	143654912	17	4460
2026-01-22 01:55:34.86	7.26	10.57	-28.4	-30.2	13.8	6.10e-06	0	44	0	146800640	17	4459
2026-01-22 01:55:35.87	7.16	10.65	-28.4	-30.2	13.9	1.50e-06	0	44	0	149946368	17	4434
2026-01-22 01:55:36.88	7.07	10.72	-28.4	-30.3	13.8	4.50e-06	0	44	0	153092096	17	4474
2026-01-22 01:55:37.88	6.97	10.80	-28.6	-30.7	13.5	1.29e-05	0	44	0	156237824	17	4596
2026-01-22 01:55:38.88	6.87	10.87	-28.4	-30.3	13.8	9.10e-06	0	44	0	159383552	17	4478
2026-01-22 01:55:39.88	6.77	10.95	-28.3	-30.0	14.0	4.50e-06	0	44	0	162529280	17	4387
2026-01-22 01:55:40.88	6.67	11.02	-28.3	-30.0	14.0	2.20e-06	0	44	0	165675008	17	4369
2026-01-22 01:55:41.87	6.57	11.10	-28.3	-29.9	14.0	3.80e-06	0	44	0	168820736	17	4362
2026-01-22 01:55:42.88	6.47	11.18	-28.3	-29.9	14.1	3.80e-06	0	44	0	171966464	17	4349
2026-01-22 01:55:43.88	6.37	11.25	-28.2	-29.9	14.1	3.00e-06	0	44	0	175112192	17	4349
2026-01-22 01:55:44.87	6.27	11.33	-28.3	-29.9	14.1	3.00e-06	0	44	0	178257920	17	4360
2026-01-22 01:55:45.87	6.17	11.40	-28.4	-30.3	13.8	5.30e-06	0	44	0	181403648	17	4470
2026-01-22 01:55:46.87	6.06	11.48	-28.3	-30.0	14.0	4.50e-06	0	44	0	184549376	17	4374
2026-01-22 01:55:47.87	5.96	11.56	-28.2	-30.2	14.2	2.20e-06	0	44	0	187695104	16	4552
2026-01-22 01:55:48.87	5.86	11.63	-28.2	-30.3	14.1	0.00e+00	0	44	0	190840832	16	4567
2026-01-22 01:55:49.87	5.75	11.71	-28.2	-30.2	14.2	1.50e-06	0	44	0	193986560	16	4560
2026-01-22 01:55:50.87	5.65	11.79	-28.2	-30.3	14.1	1.50e-06	0	44	0	197132288	16	4591
2026-01-22 01:55:51.87	5.54	11.87	-28.3	-30.6	13.9	3.00e-06	0	44	0	200278016	16	4685
2026-01-22 01:55:52.87	5.43	11.94	-28.3	-30.6	14.0	2.20e-06	0	44	0	203423744	16	4659
2026-01-22 01:55:53.86	5.33	12.02	-28.3	-30.5	14.0	7.00e-07	0	44	0	206569472	16	4641
2026-01-22 01:55:54.86	5.22	12.10	-28.3	-30.6	14.0	7.00e-07	0	44	0	209715200	16	4669
2026-01-22 01:55:55.86	5.11	12.18	-28.2	-30.3	14.1	7.00e-07	0	44	0	212860928	16	4593
2026-01-22 01:55:56.86	5.00	12.25	-28.4	-30.7	13.9	6.10e-06	0	44	0	216006656	16	4698
2026-01-22 01:55:57.85	4.90	12.33	-28.3	-30.4	14.1	1.50e-06	0	44	0	219152384	16	4613
2026-01-22 01:55:58.86	4.79	12.41	-28.1	-30.1	14.3	7.00e-07	0	44	0	222298112	16	4508
2026-01-22 01:55:59.85	4.68	12.49	-28.1	-29.9	14.4	7.00e-07	0	45	0	225443840	16	4472
2026-01-22 01:56:00.85	4.56	12.57	-28.2	-30.2	14.3	3.00e-06	0	44	0	228589568	16	4537
2026-01-22 01:56:01.85	4.45	12.65	-28.1	-30.0	14.4	0.00e+00	0	44	0	230686720	16	4487
2026-01-22 01:56:02.84	4.34	12.72	-28.0	-29.7	14.5	7.00e-07	0	44	0	233832448	16	4413
2026-01-22 01:56:03.83	4.23	12.80	-28.0	-29.8	14.5	0.00e+00	0	45	0	236978176	16	4441
2026-01-22 01:56:04.83	4.12	12.88	-27.9	-29.6	14.6	7.00e-07	0	44	0	240123904	16	4369
2026-01-22 01:56:05.83	4.00	12.96	-27.9	-29.5	14.7	7.00e-07	0	44	0	243269632	16	4352
2026-01-22 01:56:06.83	3.89	13.04	-27.9	-29.6	14.7	7.00e-07	0	44	0	246415360	16	4353
2026-01-22 01:56:07.83	3.77	13.12	-27.9	-29.5	14.7	1.50e-06	0	44	0	249561088	16	4336
2026-01-22 01:56:08.83	3.66	13.20	-28.0	-29.7	14.6	0.00e+00	0	45	0	252706816	16	4389
2026-01-22 01:56:09.83	3.54	13.28	-28.0	-29.9	14.5	7.00e-07	0	44	0	255852544	16	4445
2026-01-22 01:56:10.83	3.42	13.36	-28.2	-30.2	14.4	0.00e+00	0	44	0	258998272	16	4535
2026-01-22 01:56:11.84	3.30	13.44	-28.1	-30.0	14.4	1.50e-06	0	44	0	262144000	16	4495
2026-01-22 01:56:12.84	3.18	13.52	-28.1	-30.0	14.4	0.00e+00	0	44	0	265289728	16	4484
2026-01-22 01:56:13.84	3.07	13.60	-28.1	-30.1	14.4	7.00e-07	0	44	0	268435456	16	4509
2026-01-22 01:56:14.85	2.94	13.68	-28.0	-29.9	14.5	0.00e+00	0	45	0	271581184	16	4449
2026-01-22 01:56:15.85	2.82	13.77	-28.0	-29.9	14.5	0.00e+00	0	44	0	274726912	16	4444
2026-01-22 01:56:16.86	2.70	13.85	-28.2	-30.1	14.4	0.00e+00	0	44	0	277872640	16	4518
2026-01-22 01:56:17.86	2.58	13.93	-28.0	-29.8	14.6	0.00e+00	0	44	0	281018368	16	4431
2026-01-22 01:56:18.86	2.46	14.01	-28.0	-29.9	14.5	0.00e+00	0	44	0	284164096	16	4443
2026-01-22 01:56:19.86	2.33	14.09	-28.0	-29.7	14.7	7.00e-07	0	45	0	287309824	16	4384
2026-01-22 01:56:20.87	2.21	14.17	-28.0	-29.7	14.6	0.00e+00	0	45	0	290455552	16	4389
2026-01-22 01:56:21.87	2.08	14.25	-28.0	-29.8	14.6	0.00e+00	0	44	0	293601280	16	4417
2026-01-22 01:56:22.87	1.96	14.34	-28.0	-29.8	14.6	7.00e-07	0	44	0	296747008	16	4406
2026-01-22 01:56:23.87	1.83	14.42	-28.1	-29.9	14.5	7.00e-07	0	45	0	299892736	16	4441
2026-01-22 01:56:24.88	1.70	14.50	-28.2	-30.2	14.4	7.00e-07	0	44	0	303038464	16	4529
2026-01-22 01:56:25.89	1.57	14.58	-28.1	-29.9	14.6	0.00e+00	0	45	0	306184192	16	4433
2026-01-22 01:56:26.89	1.45	14.67	-28.0	-29.7	14.7	7.00e-07	0	44	0	309329920	16	4386
2026-01-22 01:56:27.90	1.31	14.75	-28.0	-29.8	14.6	0.00e+00	0	45	0	312475648	16	4420
2026-01-22 01:56:28.90	1.18	14.83	-28.2	-30.1	14.4	0.00e+00	0	45	0	315621376	16	4521
2026-01-22 01:56:29.91	1.05	14.92	-28.1	-29.9	14.5	0.00e+00	0	45	0	318767104	16	4461
2026-01-22 01:56:30.91	0.92	15.00	-28.2	-30.3	14.4	7.00e-07	0	45	0	321912832	16	4552
2026-01-22 01:56:31.92	0.79	15.08	-28.1	-30.1	14.5	0.00e+00	0	45	0	325058560	16	4502
2026-01-22 01:56:32.91	0.66	15.16	-28.0	-29.7	14.7	0.00e+00	0	45	0	328204288	16	4399
2026-01-22 01:56:33.92	0.52	15.25	-27.9	-29.5	14.8	0.00e+00	0	45	0	331350016	16	4323
2026-01-22 01:56:34.92	0.39	15.33	-27.8	-29.8	14.7	0.00e+00	0	45	0	334495744	15	4541
2026-01-22 01:56:35.93	0.25	15.42	-27.8	-29.8	14.8	0.00e+00	0	45	0	337641472	15	4526
2026-01-22 01:56:36.93	0.11	15.50	-27.8	-29.8	14.7	7.00e-07	0	45	0	340787200	15	4544
2026-01-22 01:56:37.94	359.98	15.58	-27.9	-30.2	14.6	0.00e+00	0	45	0	343932928	15	4648
2026-01-22 01:56:38.94	359.84	15.67	-27.8	-29.9	14.7	0.00e+00	0	45	0	347078656	15	4561
2026-01-22 01:56:39.95	359.70	15.75	-27.8	-29.8	14.8	0.00e+00	0	45	0	350224384	15	4535
2026-01-22 01:56:40.95	359.56	15.84	-27.9	-30.1	14.6	0.00e+00	0	45	0	353370112	15	4637
2026-01-22 01:56:41.95	359.42	15.92	-27.9	-30.0	14.7	0.00e+00	0	45	0	356515840	15	4587
2026-01-22 01:56:42.95	359.28	16.01	-28.0	-30.2	14.6	0.00e+00	0	45	0	359661568	15	4667
2026-01-22 01:56:43.95	359.14	16.09	-28.1	-30.0	14.6	1.50e-06	0	45	0	362807296	16	4473
2026-01-22 01:56:44.96	358.99	16.18	-28.1	-30.0	14.6	0.00e+00	0	45	0	365953024	16	4460
2026-01-22 01:56:45.96	358.85	16.26	-28.2	-30.2	14.4	2.20e-06	0	45	0	369098752	16	4540
2026-01-22 01:56:46.96	358.71	16.35	-28.1	-29.9	14.6	7.00e-07	0	45	0	372244480	16	4454
2026-01-22 01:56:47.96	358.56	16.43	-28.0	-29.8	14.7	1.50e-06	0	44	0	375390208	16	4416
2026-01-22 01:56:48.96	358.42	16.52	-28.1	-29.9	14.6	0.00e+00	0	45	0	378535936	16	4443
2026-01-22 01:56:49.97	358.27	16.60	-27.8	-29.9	14.8	1.50e-06	0	45	0	381681664	15	4564
2026-01-22 01:56:50.97	358.12	16.69	-27.9	-30.1	14.7	7.00e-07	0	45	0	384827392	15	4610
2026-01-22 01:56:51.97	357.97	16.77	-27.7	-29.6	15.0	0.00e+00	0	45	0	387973120	15	4473
2026-01-22 01:56:52.98	357.82	16.86	-27.6	-29.4	15.1	0.00e+00	0	45	0	391118848	15	4415
2026-01-22 01:56:53.98	357.67	16.94	-27.7	-29.6	15.0	0.00e+00	0	45	0	394264576	15	4478
2026-01-22 01:56:54.99	357.52	17.03	-27.7	-29.5	15.0	0.00e+00	0	45	0	397410304	15	4446
2026-01-22 01:56:55.99	357.37	17.12	-27.8	-29.7	14.9	0.00e+00	0	45	0	400556032	15	4504
2026-01-22 01:56:56.99	357.21	17.20	-27.8	-29.8	14.9	7.00e-07	0	45	0	403701760	15	4536
2026-01-22 01:56:57.99	357.06	17.29	-27.9	-30.0	14.7	0.00e+00	0	45	0	406847488	15	4602
2026-01-22 01:56:59.00	356.90	17.37	-27.8	-29.8	14.8	0.00e+00	0	45	0	409993216	15	4539
2026-01-22 01:57:00.00	356.75	17.46	-27.8	-29.7	15.0	0.00e+00	0	45	0	413138944	15	4494
2026-01-22 01:57:01.01	356.59	17.55	-27.9	-29.9	13.9	7.00e-07	0	45	0	416284672	15	4565
2026-01-22 01:57:02.01	356.43	17.63	-27.8	-29.7	13.5	0.00e+00	0	44	0	419430400	15	4508
2026-01-22 01:57:03.02	356.27	17.72	-27.7	-29.5	15.1	0.00e+00	0	45	0	422576128	15	4437
2026-01-22 01:57:04.03	356.11	17.81	-27.8	-29.7	14.8	0.00e+00	0	45	0	425721856	15	4488
2026-01-22 01:57:05.03	355.95	17.89	-27.6	-29.4	15.1	0.00e+00	0	45	0	428867584	15	4400
2026-01-22 01:57:06.03	355.79	17.98	-27.8	-29.7	14.9	0.00e+00	0	45	0	432013312	15	4512
2026-01-22 01:57:07.03	355.63	18.07	-27.6	-29.3	15.2	2.22e-03	0	45	0	435159040	15	4393
2026-01-22 01:57:08.03	355.47	18.15	-27.7	-29.5	15.1	0.00e+00	0	45	0	438304768	15	4427
2026-01-22 01:57:09.04	355.30	18.24	-27.8	-29.9	14.9	7.00e-07	0	45	0	441450496	15	4546
2026-01-22 01:57:10.04	355.14	18.33	-27.7	-29.5	15.1	0.00e+00	0	45	0	444596224	15	4451
2026-01-22 01:57:11.03	354.97	18.41	-27.6	-29.4	15.1	0.00e+00	0	45	0	447741952	15	4427
2026-01-22 01:57:12.04	354.80	18.50	-27.7	-29.5	15.1	0.00e+00	0	45	0	450887680	15	4441
2026-01-22 01:57:13.03	354.64	18.59	-27.6	-29.3	15.2	0.00e+00	0	45	0	454033408	15	4390
2026-01-22 01:57:14.03	354.47	18.67	-27.6	-29.3	15.2	0.00e+00	0	45	0	457179136	15	4392
2026-01-22 01:57:15.03	354.30	18.76	-27.6	-29.2	15.3	0.00e+00	0	45	0	459276288	15	4357
2026-01-22 01:57:16.04	354.13	18.85	-27.7	-29.5	15.1	0.00e+00	0	45	0	463470592	15	4439
2026-01-22 01:57:17.04	353.96	18.94	-27.5	-29.5	15.4	1.93e-03	0	45	0	466616320	14	4559
2026-01-22 01:57:18.05	353.78	19.02	-27.4	-29.3	15.5	0.00e+00	0	45	0	469762048	14	4496
2026-01-22 01:57:19.05	353.61	19.11	-27.5	-29.6	15.3	0.00e+00	0	45	0	472907776	14	4566
2026-01-22 01:57:20.06	353.43	19.20	-27.5	-29.1	15.4	0.00e+00	0	45	0	476053504	15	4324
2026-01-22 01:57:21.06	353.26	19.29	-27.6	-29.3	15.2	0.00e+00	0	45	0	479199232	15	4381
2026-01-22 01:57:22.06	353.08	19.37	-27.5	-29.5	15.4	1.84e-03	0	45	0	482344960	14	4545
2026-01-22 01:57:23.07	352.90	19.46	-27.4	-29.3	15.5	1.69e-03	0	45	0	484442112	14	4501
2026-01-22 01:57:24.07	352.72	19.55	-27.4	-29.3	15.5	0.00e+00	0	45	0	487587840	14	4488
2026-01-22 01:57:25.07	352.54	19.64	-27.5	-29.5	15.4	0.00e+00	0	45	0	490733568	14	4545
2026-01-22 01:57:26.06	352.36	19.72	-27.3	-29.2	15.6	1.58e-03	0	45	0	493879296	14	4459
2026-01-22 01:57:27.07	352.18	19.81	-27.5	-29.5	15.4	0.00e+00	0	45	0	497025024	14	4548
2026-01-22 01:57:28.07	352.00	19.90	-27.3	-29.1	15.6	1.53e-03	0	45	0	500170752	14	4447
2026-01-22 01:57:29.07	351.81	19.98	-27.3	-29.1	15.6	1.46e-03	0	45	0	503316480	14	4446
2026-01-22 01:57:30.07	351.63	20.07	-27.3	-29.0	15.7	0.00e+00	0	45	0	506462208	14	4418
2026-01-22 01:57:31.08	351.44	20.16	-27.4	-29.3	15.6	1.08e-03	0	45	0	509607936	14	4483
2026-01-22 01:57:32.08	351.25	20.25	-27.3	-29.2	15.6	7.22e-04	0	45	0	512753664	14	4460
2026-01-22 01:57:33.08	351.06	20.33	-27.3	-29.1	15.7	0.00e+00	0	45	0	515899392	14	4445
2026-01-22 01:57:34.09	350.87	20.42	-27.4	-29.3	15.5	5.15e-04	0	45	0	519045120	14	4505
2026-01-22 01:57:35.09	350.68	20.51	-27.5	-29.5	15.5	4.92e-04	0	45	0	522190848	14	4546
2026-01-22 01:57:36.09	350.49	20.60	-27.3	-29.1	15.7	0.00e+00	0	45	0	525336576	14	4449
2026-01-22 01:57:37.10	350.29	20.68	-27.3	-29.1	15.7	4.60e-04	0	45	0	528482304	14	4445
2026-01-22 01:57:38.11	350.10	20.77	-27.3	-29.2	15.6	5.17e-04	0	45	0	531628032	14	4457
2026-01-22 01:57:39.11	349.90	20.86	-27.6	-29.4	15.3	0.00e+00	0	45	0	534773760	15	4401
2026-01-22 01:57:40.12	349.71	20.95	-27.9	-30.1	14.8	6.81e-04	0	45	0	537919488	15	4613
2026-01-22 01:57:41.12	349.51	21.03	-28.1	-30.0	14.8	0.00e+00	0	45	0	541065216	16	4463
2026-01-22 01:57:42.12	349.31	21.12	-28.2	-30.3	14.6	1.50e-06	0	45	0	544210944	16	4545
2026-01-22 01:57:43.12	349.11	21.21	-28.1	-30.0	14.8	5.04e-04	0	45	0	547356672	16	4452
2026-01-22 01:57:44.12	348.91	21.29	-28.1	-30.0	14.8	4.43e-04	0	45	0	550502400	16	4450
2026-01-22 01:57:45.13	348.71	21.38	-28.1	-30.0	14.8	0.00e+00	0	45	0	553648128	16	4472
2026-01-22 01:57:46.13	348.50	21.47	-28.0	-29.8	14.9	0.00e+00	0	45	0	556793856	16	4396
2026-01-22 01:57:47.13	348.30	21.55	-28.4	-30.6	14.4	2.05e-04	0	45	0	559939584	16	4640
2026-01-22 01:57:48.13	348.09	21.64	-28.0	-29.6	15.1	0.00e+00	0	45	0	563085312	16	4329
2026-01-22 01:57:49.14	347.88	21.73	-27.6	-28.8	15.5	8.69e-05	0	45	0	566231040	16	4129
2026-01-22 01:57:50.14	347.68	21.81	-27.4	-28.3	15.8	7.78e-05	0	45	0	569376768	16	3989
2026-01-22 01:57:51.15	347.47	21.90	-27.1	-28.2	15.9	0.00e+00	0	45	0	572522496	15	4074
2026-01-22 01:57:52.16	347.25	21.99	-27.0	-28.0	16.1	0.00e+00	0	45	0	575668224	15	4014
2026-01-22 01:57:53.16	347.04	22.07	-27.0	-28.0	16.0	0.00e+00	0	45	0	578813952	15	4036
2026-01-22 01:57:54.16	346.83	22.16	-27.1	-28.2	15.9	0.00e+00	0	45	0	581959680	15	4078
2026-01-22 01:57:55.16	346.62	22.24	-27.0	-27.9	16.1	0.00e+00	0	45	0	585105408	15	4010
2026-01-22 01:57:56.16	346.40	22.33	-27.0	-27.9	16.1	0.00e+00	0	45	0	588251136	15	4008
2026-01-22 01:57:57.17	346.18	22.41	-27.1	-28.2	16.0	0.00e+00	0	45	0	591396864	15	4068
2026-01-22 01:57:58.17	345.97	22.50	-27.0	-27.9	16.1	0.00e+00	0	45	0	594542592	15	4007
2026-01-22 01:57:59.16	345.75	22.58	-27.0	-28.0	16.1	0.00e+00	0	45	0	597688320	15	4023
2026-01-22 01:58:00.17	345.53	22.67	-27.0	-28.0	16.1	0.00e+00	0	45	0	600834048	15	4016
2026-01-22 01:58:01.16	345.31	22.75	-27.0	-28.0	16.1	0.00e+00	0	45	0	603979776	15	4020
2026-01-22 01:58:02.17	345.09	22.84	-27.1	-28.1	16.0	0.00e+00	0	45	0	607125504	15	4050
2026-01-22 01:58:03.18	344.86	22.92	-26.9	-27.7	16.2	0.00e+00	0	45	0	610271232	15	3945
2026-01-22 01:58:04.18	344.64	23.01	-26.9	-27.8	16.2	0.00e+00	0	44	0	613416960	15	3971
2026-01-22 01:58:05.19	344.41	23.09	-26.9	-27.7	16.2	0.00e+00	0	45	0	616562688	15	3958
2026-01-22 01:58:06.19	344.18	23.17	-27.0	-28.1	16.0	0.00e+00	0	45	0	619708416	15	4042
2026-01-22 01:58:07.19	343.95	23.26	-27.3	-28.5	15.8	0.00e+00	0	45	0	622854144	15	4164
2026-01-22 01:58:08.20	343.72	23.34	-27.3	-28.5	15.8	0.00e+00	0	45	0	625999872	15	4172
2026-01-22 01:58:09.21	343.49	23.42	-27.2	-28.3	15.9	0.00e+00	0	45	0	629145600	15	4100
2026-01-22 01:58:10.21	343.26	23.51	-27.2	-28.3	15.9	0.00e+00	0	45	0	632291328	15	4105
2026-01-22 01:58:11.21	343.02	23.59	-27.2	-28.4	15.8	0.00e+00	0	45	0	635437056	15	4135
2026-01-22 01:58:12.21	342.79	23.67	-27.1	-28.1	16.0	0.00e+00	0	45	0	638582784	15	4051
2026-01-22 01:58:13.21	342.55	23.75	-27.0	-27.9	16.1	0.00e+00	0	45	0	641728512	15	4011
2026-01-22 01:58:14.21	342.32	23.83	-27.1	-28.1	16.0	0.00e+00	0	44	0	644874240	15	4051
2026-01-22 01:58:15.21	342.08	23.91	-27.1	-28.2	16.0	0.00e+00	0	45	0	648019968	15	4070
2026-01-22 01:58:16.21	341.84	24.00	-27.0	-27.8	16.2	0.00e+00	0	45	0	651165696	15	3983
2026-01-22 01:58:17.21	341.60	24.08	-26.9	-27.7	16.2	0.00e+00	0	45	0	654311424	15	3950
2026-01-22 01:58:18.21	341.36	24.16	-26.9	-27.8	16.2	0.00e+00	0	45	0	657457152	15	3964
2026-01-22 01:58:19.22	341.11	24.24	-26.9	-28.3	16.2	0.00e+00	0	45	0	660602880	14	4200
2026-01-22 01:58:20.23	340.86	24.32	-27.0	-28.4	16.2	0.00e+00	0	44	0	663748608	14	4231
2026-01-22 01:58:21.23	340.62	24.40	-27.0	-28.5	16.1	0.00e+00	0	45	0	666894336	14	4274
2026-01-22 01:58:22.23	340.37	24.48	-26.9	-28.3	16.2	0.00e+00	0	45	0	670040064	14	4214
2026-01-22 01:58:23.24	340.12	24.56	-27.0	-28.5	16.1	0.00e+00	0	45	0	673185792	14	4254
2026-01-22 01:58:24.23	339.87	24.63	-27.1	-28.7	16.0	0.00e+00	0	45	0	676331520	14	4306
2026-01-22 01:58:25.24	339.62	24.71	-27.2	-28.9	15.9	0.00e+00	0	45	0	679477248	14	4370
2026-01-22 01:58:26.24	339.37	24.79	-27.2	-29.0	15.8	0.00e+00	0	45	0	682622976	14	4397
2026-01-22 01:58:27.25	339.11	24.87	-27.2	-29.0	15.8	7.00e-07	0	44	0	685768704	14	4395
2026-01-22 01:58:28.25	338.86	24.94	-27.2	-28.9	15.9	0.00e+00	0	45	0	688914432	14	4365
2026-01-22 01:58:29.24	338.60	25.02	-27.3	-29.2	15.7	0.00e+00	0	45	0	692060160	14	4454
2026-01-22 01:58:30.24	338.35	25.10	-27.4	-29.4	15.6	0.00e+00	0	45	0	695205888	14	4518
2026-01-22 01:58:31.25	338.09	25.17	-27.4	-29.3	15.7	0.00e+00	0	44	0	698351616	14	4476
2026-01-22 01:58:32.25	337.83	25.25	-27.4	-29.2	15.7	0.00e+00	0	45	0	701497344	14	4474
2026-01-22 01:58:33.25	337.57	25.32	-27.4	-29.4	15.6	0.00e+00	0	45	0	704643072	14	4518
2026-01-22 01:58:34.25	337.30	25.40	-27.3	-29.2	15.7	0.00e+00	0	45	0	707788800	14	4459
2026-01-22 01:58:35.26	337.04	25.47	-27.3	-29.2	15.7	0.00e+00	0	45	0	710934528	14	4463
2026-01-22 01:58:36.26	336.77	25.54	-27.5	-29.4	15.6	0.00e+00	0	45	0	714080256	14	4527
2026-01-22 01:58:37.26	336.51	25.62	-27.4	-29.4	15.6	0.00e+00	0	45	0	717225984	14	4518
2026-01-22 01:58:38.26	336.24	25.69	-27.6	-29.2	15.4	0.00e+00	0	45	0	720371712	15	4353
2026-01-22 01:58:39.27	335.97	25.76	-27.4	-28.8	15.7	0.00e+00	0	45	0	723517440	15	4230
2026-01-22 01:58:40.27	335.70	25.83	-27.2	-29.0	15.8	0.00e+00	0	44	0	726663168	14	4399
2026-01-22 01:58:41.27	335.43	25.90	-27.2	-29.0	15.8	0.00e+00	0	45	0	729808896	14	4388
2026-01-22 01:58:42.28	335.16	25.97	-27.4	-29.3	15.7	0.00e+00	0	45	0	732954624	14	4490
2026-01-22 01:58:43.28	334.88	26.04	-27.2	-28.9	15.9	0.00e+00	0	45	0	736100352	14	4356
2026-01-22 01:58:44.28	334.61	26.11	-27.3	-29.0	15.8	0.00e+00	0	45	0	738197504	14	4397
2026-01-22 01:58:45.28	334.33	26.18	-27.4	-29.3	15.7	0.00e+00	0	45	0	741343232	14	4479
2026-01-22 01:58:46.28	334.06	26.25	-27.4	-29.4	15.6	0.00e+00	0	45	0	744488960	14	4512
2026-01-22 01:58:47.29	333.77	26.32	-27.6	-29.2	15.5	0.00e+00	0	45	0	747634688	15	4347
2026-01-22 01:58:48.28	333.50	26.38	-27.7	-29.5	15.3	0.00e+00	0	45	0	750780416	15	4416
2026-01-22 01:58:49.28	333.22	26.45	-27.5	-29.0	15.6	0.00e+00	0	45	0	753926144	15	4285
2026-01-22 01:58:50.28	332.94	26.52	-27.5	-29.4	15.6	0.00e+00	0	45	0	757071872	14	4525
2026-01-22 01:58:51.28	332.65	26.58	-27.6	-29.2	15.4	0.00e+00	0	45	0	760217600	15	4347
2026-01-22 01:58:52.29	332.37	26.65	-27.7	-29.5	15.3	0.00e+00	0	45	0	763363328	15	4417
2026-01-22 01:58:53.29	332.08	26.71	-27.5	-29.1	15.5	0.00e+00	0	45	0	766509056	15	4311
2026-01-22 01:58:54.30	331.79	26.77	-27.4	-28.9	15.6	0.00e+00	0	45	0	769654784	15	4268
2026-01-22 01:58:55.30	331.51	26.84	-27.4	-29.4	15.6	0.00e+00	0	45	0	772800512	14	4508
2026-01-22 01:58:56.30	331.22	26.90	-27.4	-29.3	15.7	0.00e+00	0	45	0	775946240	14	4482
2026-01-22 01:58:57.31	330.92	26.96	-27.3	-29.2	15.7	0.00e+00	0	45	0	779091968	14	4453
2026-01-22 01:58:58.31	330.63	27.02	-27.2	-29.0	15.8	0.00e+00	0	45	0	782237696	14	4386
2026-01-22 01:58:59.32	330.34	27.08	-27.4	-29.3	15.7	0.00e+00	0	45	0	785383424	14	4490
2026-01-22 01:59:00.33	330.04	27.14	-27.5	-29.1	15.5	0.00e+00	0	45	0	788529152	15	4308
2026-01-22 01:59:01.33	329.75	27.20	-27.3	-28.7	15.8	0.00e+00	0	45	0	791674880	15	4199
2026-01-22 01:59:02.33	329.45	27.26	-27.3	-28.5	15.8	0.00e+00	0	45	0	794820608	15	4159
2026-01-22 01:59:03.33	329.16	27.32	-27.2	-28.4	15.9	0.00e+00	0	45	0	797966336	15	4123
2026-01-22 01:59:04.33	328.86	27.37	-27.1	-28.3	16.0	0.00e+00	0	45	0	801112064	15	4094
2026-01-22 01:59:05.34	328.56	27.43	-27.2	-28.3	16.0	0.00e+00	0	44	0	804257792	15	4090
2026-01-22 01:59:06.34	328.26	27.48	-27.2	-28.4	15.9	0.00e+00	0	45	0	807403520	15	4137
2026-01-22 01:59:07.34	327.96	27.54	-27.1	-28.1	16.1	0.00e+00	0	45	0	810549248	15	4038
2026-01-22 01:59:08.35	327.65	27.59	-27.0	-28.0	16.2	0.00e+00	0	45	0	813694976	15	4010
2026-01-22 01:59:09.35	327.35	27.64	-27.1	-28.2	16.0	0.00e+00	0	45	0	816840704	15	4077
2026-01-22 01:59:10.35	327.05	27.70	-27.1	-28.7	16.0	0.00e+00	0	45	0	819986432	14	4319
2026-01-22 01:59:11.35	326.74	27.75	-27.1	-28.6	16.1	0.00e+00	0	45	0	823132160	14	4279
2026-01-22 01:59:12.35	326.44	27.80	-27.0	-28.5	16.1	0.00e+00	0	44	0	826277888	14	4264
2026-01-22 01:59:13.35	326.13	27.85	-27.2	-28.9	15.9	0.00e+00	0	45	0	829423616	14	4361
2026-01-22 01:59:14.36	325.82	27.90	-27.3	-29.0	15.9	0.00e+00	0	45	0	832569344	14	4400
2026-01-22 01:59:15.36	325.51	27.94	-27.3	-29.1	15.1	0.00e+00	0	44	0	835715072	14	4433
2026-01-22 01:59:16.37	325.20	27.99	-27.2	-28.9	14.9	0.00e+00	0	45	0	838860800	14	4386
2026-01-22 01:59:17.37	324.89	28.04	-27.2	-28.8	15.9	0.00e+00	0	45	0	842006528	14	4349
2026-01-22 01:59:18.38	324.58	28.08	-27.2	-28.8	15.7	9.26e-04	0	45	0	845152256	14	4346
2026-01-22 01:59:19.38	324.26	28.13	-27.2	-28.8	15.9	0.00e+00	0	45	0	848297984	14	4338
2026-01-22 01:59:20.38	323.95	28.17	-27.2	-28.9	15.9	0.00e+00	0	45	0	851443712	14	4377
2026-01-22 01:59:21.38	323.64	28.21	-27.2	-28.8	15.9	0.00e+00	0	45	0	854589440	14	4350
2026-01-22 01:59:22.38	323.32	28.25	-27.1	-28.7	16.0	0.00e+00	0	45	0	857735168	14	4308
2026-01-22 01:59:23.39	323.00	28.29	-27.2	-28.9	15.9	0.00e+00	0	45	0	860880896	14	4370
2026-01-22 01:59:24.39	322.69	28.33	-27.4	-29.3	15.7	0.00e+00	0	45	0	864026624	14	4480
2026-01-22 01:59:25.39	322.37	28.37	-27.4	-29.2	15.7	0.00e+00	0	45	0	867172352	14	4463
2026-01-22 01:59:26.40	322.05	28.41	-27.6	-29.3	15.4	0.00e+00	0	45	0	870318080	15	4382
2026-01-22 01:59:27.40	321.73	28.45	-27.7	-29.5	15.3	0.00e+00	0	45	0	873463808	15	4438
2026-01-22 01:59:28.40	321.41	28.48	-27.7	-29.6	15.3	7.76e-04	0	45	0	876609536	15	4450
2026-01-22 01:59:29.40	321.09	28.52	-27.7	-29.5	15.3	0.00e+00	0	45	0	879755264	15	4440
2026-01-22 01:59:30.40	320.77	28.55	-27.7	-29.6	15.2	1.25e-03	0	44	0	882900992	15	4454
2026-01-22 01:59:31.40	320.45	28.59	-27.6	-29.3	15.4	0.00e+00	0	45	0	886046720	15	4361
2026-01-22 01:59:32.41	320.12	28.62	-27.7	-29.6	15.3	0.00e+00	0	45	0	889192448	15	4442
2026-01-22 01:59:33.41	319.80	28.65	-28.0	-29.6	15.1	5.34e-04	0	45	0	892338176	16	4336
2026-01-22 01:59:34.42	319.47	28.68	-28.0	-29.6	15.1	5.16e-04	0	45	0	895483904	16	4336
2026-01-22 01:59:35.42	319.15	28.71	-28.1	-29.9	15.0	0.00e+00	0	45	0	898629632	16	4411
2026-01-22 01:59:36.43	318.82	28.74	-27.6	-29.3	15.4	0.00e+00	0	45	0	901775360	15	4376
2026-01-22 01:59:37.42	318.50	28.76	-27.6	-29.2	15.5	0.00e+00	0	45	0	904921088	15	4335
2026-01-22 01:59:38.42	318.18	28.79	-27.5	-29.0	15.6	0.00e+00	0	45	0	908066816	15	4283
2026-01-22 01:59:39.42	317.85	28.82	-27.5	-29.1	15.5	1.67e-03	0	45	0	911212544	15	4318
2026-01-22 01:59:40.43	317.52	28.84	-27.8	-29.6	15.2	1.16e-03	0	45	0	914358272	15	4468
2026-01-22 01:59:41.43	317.19	28.86	-27.8	-29.8	15.1	7.00e-07	0	45	0	917504000	15	4527
2026-01-22 01:59:42.43	316.86	28.89	-28.0	-29.7	15.1	0.00e+00	0	45	0	920649728	16	4377
2026-01-22 01:59:43.44	316.53	28.91	-27.7	-29.5	15.3	1.16e-03	0	45	0	923795456	15	4416
2026-01-22 01:59:44.44	316.20	28.93	-27.6	-29.3	15.4	0.00e+00	0	45	0	926941184	15	4359
2026-01-22 01:59:45.44	315.88	28.95	-27.5	-29.1	15.5	8.43e-04	0	45	0	930086912	15	4320
2026-01-22 01:59:46.44	315.55	28.96	-27.6	-29.3	15.5	6.04e-04	0	45	0	933232640	15	4358
2026-01-22 01:59:47.44	315.22	28.98	-27.4	-28.9	15.6	0.00e+00	0	45	0	936378368	15	4261
2026-01-22 01:59:48.44	314.89	29.00	-27.3	-28.7	15.8	2.01e-04	0	45	0	939524096	15	4191
2026-01-22 01:59:49.45	314.55	29.01	-27.4	-28.9	15.6	1.52e-05	0	45	0	942669824	15	4255
2026-01-22 01:59:50.45	314.22	29.03	-27.5	-28.9	15.6	0.00e+00	0	45	0	945815552	15	4274
2026-01-22 01:59:51.45	313.89	29.04	-27.4	-28.9	15.6	3.28e-05	0	45	0	948961280	15	4249
2026-01-22 01:59:52.45	313.56	29.05	-27.4	-28.9	15.6	6.86e-05	0	45	0	952107008	15	4261
2026-01-22 01:59:53.45	313.23	29.06	-27.4	-28.9	15.6	0.00e+00	0	45	0	955252736	15	4263
2026-01-22 01:59:54.45	312.90	29.07	-27.4	-28.8	15.7	2.69e-04	0	45	0	958398464	15	4233
2026-01-22 01:59:55.45	312.56	29.08	-27.4	-29.3	15.7	3.43e-04	0	45	0	961544192	14	4473
2026-01-22 01:59:56.46	312.23	29.09	-27.3	-29.1	15.8	0.00e+00	0	45	0	964689920	14	4438
2026-01-22 01:59:57.45	311.90	29.09	-27.2	-28.8	16.0	7.47e-04	0	45	0	967835648	14	4341
2026-01-22 01:59:58.45	311.57	29.10	-27.1	-28.6	16.1	0.00e+00	0	45	0	970981376	14	4283
2026-01-22 01:59:59.46	311.23	29.10	-27.2	-28.9	15.9	0.00e+00	0	45	0	974127104	14	4381
2026-01-22 02:00:00.47	310.90	29.10	-27.4	-29.4	15.7	1.02e-03	0	45	0	977272832	14	4506
2026-01-22 02:00:01.47	310.56	29.11	-27.5	-29.5	15.6	4.85e-04	0	45	0	980418560	14	4533
2026-01-22 02:00:02.47	310.23	29.11	-27.5	-29.1	15.5	0.00e+00	0	45	0	983564288	15	4326
2026-01-22 02:00:03.49	309.89	29.11	-27.6	-29.2	15.5	0.00e+00	0	45	0	986710016	15	4345
2026-01-22 02:00:04.48	309.56	29.10	-27.5	-29.0	15.5	4.92e-04	0	45	0	989855744	15	4299
2026-01-22 02:00:05.49	309.23	29.10	-27.5	-29.0	15.6	0.00e+00	0	45	0	993001472	15	4287
2026-01-22 02:00:06.50	308.89	29.10	-27.5	-29.1	15.5	7.41e-04	0	45	0	996147200	15	4305
2026-01-22 02:00:07.51	308.56	29.09	-27.4	-28.9	15.6	5.61e-04	0	45	0	999292928	15	4251
2026-01-22 02:00:08.51	308.22	29.09	-27.2	-28.5	15.9	0.00e+00	0	45	0	1002438656	15	4152
2026-01-22 02:00:09.52	307.89	29.08	-27.2	-29.0	15.9	0.00e+00	0	45	0	1005584384	14	4391
2026-01-22 02:00:10.51	307.56	29.07	-27.3	-29.1	15.8	0.00e+00	0	45	0	1008730112	14	4440
2026-01-22 02:00:11.51	307.23	29.06	-27.5	-29.5	15.6	0.00e+00	0	45	0	1011875840	14	4544
2026-01-22 02:00:12.50	306.90	29.06	-27.7	-29.4	15.3	0.00e+00	0	45	0	1013972992	15	4406
2026-01-22 02:00:13.50	306.57	29.04	-27.6	-29.3	15.4	0.00e+00	0	44	0	1017118720	15	4365
2026-01-22 02:00:14.50	306.24	29.03	-27.4	-28.8	15.7	0.00e+00	0	45	0	1020264448	15	4244
2026-01-22 02:00:15.50	305.90	29.02	-27.3	-29.2	15.8	0.00e+00	0	45	0	1023410176	14	4446
2026-01-22 02:00:16.50	305.57	29.00	-27.3	-29.1	15.8	2.22e-03	0	45	0	1026555904	14	4416
2026-01-22 02:00:17.51	305.24	28.99	-27.4	-29.2	15.7	0.00e+00	0	45	0	1029701632	14	4471
2026-01-22 02:00:18.51	304.91	28.97	-27.5	-29.4	15.6	0.00e+00	0	45	0	1032847360	14	4529
2026-01-22 02:00:19.52	304.58	28.96	-27.6	-29.2	15.5	0.00e+00	0	45	0	1035993088	15	4349
2026-01-22 02:00:20.52	304.25	28.94	-27.5	-29.1	15.5	0.00e+00	0	45	0	1039138816	15	4309
2026-01-22 02:00:21.52	303.92	28.92	-27.5	-29.1	15.5	2.30e-04	0	45	0	1042284544	15	4310
2026-01-22 02:00:22.52	303.59	28.90	-27.5	-29.0	15.6	0.00e+00	0	45	0	1045430272	15	4279
2026-01-22 02:00:23.52	303.26	28.88	-27.5	-29.1	15.5	0.00e+00	0	44	0	1048576000	15	4318
2026-01-22 02:00:24.53	302.93	28.85	-27.5	-29.2	15.5	0.00e+00	0	45	0	1051721728	15	4334
2026-01-22 02:00:25.53	302.60	28.83	-27.5	-29.1	15.6	0.00e+00	0	45	0	1054867456	15	4307
2026-01-22 02:00:26.53	302.28	28.80	-27.5	-29.1	15.5	0.00e+00	0	45	0	1058013184	15	4307
2026-01-22 02:00:27.54	301.95	28.78	-27.4	-28.8	15.7	0.00e+00	0	45	0	1061158912	15	4227
2026-01-22 02:00:28.53	301.62	28.75	-27.4	-28.8	15.6	0.00e+00	0	45	0	1064304640	15	4239
2026-01-22 02:00:29.53	301.30	28.72	-27.4	-28.8	15.6	0.00e+00	0	45	0	1067450368	15	4238
2026-01-22 02:00:30.53	300.97	28.70	-27.1	-28.2	15.9	0.00e+00	0	45	0	1070596096	15	4081
2026-01-22 02:00:31.54	300.65	28.67	-27.0	-27.9	16.1	0.00e+00	0	44	0	1073741824	15	3996
2026-01-22 02:00:32.54	300.32	28.63	-27.1	-28.1	16.1	0.00e+00	0	45	0	1076887552	15	4037
2026-01-22 02:00:33.54	300.00	28.60	-27.3	-28.6	15.8	0.00e+00	0	45	0	1080033280	15	4177
2026-01-22 02:00:34.54	299.68	28.57	-27.4	-28.7	15.7	0.00e+00	0	45	0	1083179008	15	4217
2026-01-22 02:00:35.55	299.35	28.54	-27.3	-28.7	15.7	0.00e+00	0	45	0	1086324736	15	4208
2026-01-22 02:00:36.55	299.03	28.50	-27.4	-28.7	15.7	0.00e+00	0	45	0	1089470464	15	4214
2026-01-22 02:00:37.55	298.71	28.47	-27.4	-28.8	15.7	0.00e+00	0	45	0	1092616192	15	4235
2026-01-22 02:00:38.56	298.39	28.43	-27.3	-28.6	15.7	0.00e+00	0	45	0	1095761920	15	4192
2026-01-22 02:00:39.56	298.07	28.39	-27.4	-28.8	15.6	0.00e+00	0	45	0	1098907648	15	4245
2026-01-22 02:00:40.57	297.75	28.35	-27.5	-29.2	15.4	0.00e+00	0	44	0	1102053376	15	4341
2026-01-22 02:00:41.57	297.43	28.31	-27.6	-29.2	15.4	0.00e+00	0	45	0	1105199104	15	4340
2026-01-22 02:00:42.57	297.12	28.27	-27.5	-29.0	15.5	0.00e+00	0	45	0	1108344832	15	4293
2026-01-22 02:00:43.58	296.80	28.23	-27.5	-29.1	15.5	0.00e+00	0	45	0	1111490560	15	4308
2026-01-22 02:00:44.58	296.48	28.19	-27.5	-29.0	15.5	0.00e+00	0	45	0	1114636288	15	4297
2026-01-22 02:00:45.59	296.17	28.15	-27.5	-29.5	15.5	0.00e+00	0	45	0	1117782016	14	4537
2026-01-22 02:00:46.59	295.85	28.10	-27.6	-29.3	15.3	7.00e-07	0	45	0	1120927744	15	4381
2026-01-22 02:00:47.60	295.54	28.06	-28.2	-30.1	14.8	0.00e+00	0	45	0	1124073472	16	4495
2026-01-22 02:00:48.60	295.23	28.01	-28.2	-30.1	14.7	0.00e+00	0	45	0	1127219200	16	4498
2026-01-22 02:00:49.61	294.91	27.96	-27.9	-29.3	15.2	0.00e+00	0	45	0	1130364928	16	4271
2026-01-22 02:00:50.61	294.60	27.92	-27.6	-28.7	15.5	0.00e+00	0	45	0	1133510656	16	4109
2026-01-22 02:00:51.62	294.29	27.87	-27.3	-28.6	15.7	0.00e+00	0	45	0	1136656384	15	4187
2026-01-22 02:00:52.62	293.98	27.82	-27.3	-29.0	15.8	7.00e-07	0	45	0	1139802112	14	4415
2026-01-22 02:00:53.62	293.68	27.77	-27.3	-29.0	15.7	0.00e+00	0	45	0	1142947840	14	4410
2026-01-22 02:00:54.62	293.37	27.72	-27.6	-29.2	15.4	0.00e+00	0	45	0	1146093568	15	4355
2026-01-22 02:00:55.63	293.06	27.67	-27.6	-29.3	15.3	7.00e-07	0	45	0	1149239296	15	4376
2026-01-22 02:00:56.63	292.76	27.62	-27.5	-29.2	15.4	0.00e+00	0	45	0	1152385024	15	4338
2026-01-22 02:00:57.64	292.45	27.56	-27.5	-29.2	15.4	0.00e+00	0	45	0	1155530752	15	4337
2026-01-22 02:00:58.64	292.15	27.51	-27.6	-29.4	15.3	0.00e+00	0	45	0	1158676480	15	4400
2026-01-22 02:00:59.64	291.85	27.45	-27.7	-29.4	15.3	0.00e+00	0	45	0	1161822208	15	4414
2026-01-22 02:01:00.65	291.55	27.40	-27.6	-29.2	15.4	0.00e+00	0	45	0	1164967936	15	4349
2026-01-22 02:01:01.65	291.25	27.34	-27.5	-29.1	15.4	0.00e+00	0	45	0	1168113664	15	4323
2026-01-22 02:01:02.66	290.95	27.28	-27.6	-29.2	15.4	0.00e+00	0	45	0	1171259392	15	4363
2026-01-22 02:01:03.66	290.65	27.23	-27.5	-29.0	15.5	0.00e+00	0	45	0	1174405120	15	4290
2026-01-22 02:01:04.67	290.36	27.17	-27.3	-28.6	15.7	0.00e+00	0	45	0	1177550848	15	4174
2026-01-22 02:01:05.67	290.06	27.11	-27.4	-28.7	15.6	0.00e+00	0	45	0	1180696576	15	4225
2026-01-22 02:01:06.67	289.77	27.05	-27.4	-28.9	15.6	0.00e+00	0	45	0	1183842304	15	4260
2026-01-22 02:01:07.67	289.48	26.99	-27.4	-28.9	15.5	0.00e+00	0	45	0	1186988032	15	4254
2026-01-22 02:01:08.67	289.19	26.93	-27.5	-29.0	15.4	0.00e+00	0	45	0	1190133760	15	4299
2026-01-22 02:01:09.67	288.90	26.86	-27.5	-29.1	15.4	0.00e+00	0	45	0	1193279488	15	4336
2026-01-22 02:01:10.67	288.61	26.80	-27.7	-29.5	15.2	0.00e+00	0	45	0	1196425216	15	4447
2026-01-22 02:01:11.67	288.32	26.74	-27.5	-29.2	15.4	0.00e+00	0	45	0	1199570944	15	4348
2026-01-22 02:01:12.67	288.03	26.68	-27.4	-28.8	15.5	0.00e+00	0	45	0	1202716672	15	4252
2026-01-22 02:01:13.67	287.75	26.61	-27.5	-29.0	15.4	0.00e+00	0	45	0	1205862400	15	4291
2026-01-22 02:01:14.67	287.46	26.55	-27.5	-29.1	15.4	0.00e+00	0	45	0	1209008128	15	4337
2026-01-22 02:01:15.68	287.18	26.48	-27.5	-29.2	15.3	7.00e-07	0	45	0	1212153856	15	4347
2026-01-22 02:01:16.67	286.90	26.41	-27.4	-28.8	15.6	0.00e+00	0	45	0	1215299584	15	4233
2026-01-22 02:01:17.67	286.62	26.35	-27.2	-28.4	15.8	0.00e+00	0	45	0	1218445312	15	4122
2026-01-22 02:01:18.68	286.34	26.28	-27.2	-28.4	15.8	0.00e+00	0	45	0	1221591040	15	4135
2026-01-22 02:01:19.68	286.06	26.21	-27.1	-28.1	15.9	0.00e+00	0	45	0	1224736768	15	4068
2026-01-22 02:01:20.68	285.78	26.14	-26.9	-27.7	16.1	0.00e+00	0	45	0	1227882496	15	3963
2026-01-22 02:01:21.68	285.50	26.07	-26.8	-28.0	16.2	0.00e+00	0	45	0	1231028224	14	4129
2026-01-22 02:01:22.68	285.23	26.00	-26.8	-28.1	16.2	0.00e+00	0	45	0	1234173952	14	4153
2026-01-22 02:01:23.67	284.96	25.93	-26.9	-28.2	16.1	0.00e+00	0	45	0	1237319680	14	4183
2026-01-22 02:01:24.68	284.68	25.86	-27.2	-28.8	15.8	0.00e+00	0	45	0	1240465408	14	4364
2026-01-22 02:01:25.68	284.41	25.79	-27.4	-29.3	15.5	0.00e+00	0	45	0	1242562560	14	4491
2026-01-22 02:01:26.68	284.14	25.72	-27.5	-29.1	15.3	0.00e+00	0	45	0	1245708288	15	4338
2026-01-22 02:01:27.69	283.87	25.65	-27.6	-29.3	15.2	0.00e+00	0	45	0	1249902592	15	4392
2026-01-22 02:01:28.70	283.60	25.57	-27.5	-29.1	15.3	0.00e+00	0	45	0	1253048320	15	4325
2026-01-22 02:01:29.71	283.33	25.50	-26.6	-28.1	15.2	0.00e+00	0	45	0	1256194048	15	4300
2026-01-22 02:01:30.71	283.07	25.42	-27.3	-29.2	15.2	0.00e+00	0	45	0	1259339776	14	4491
2026-01-22 02:01:31.71	282.81	25.35	-27.1	-28.6	15.9	0.00e+00	0	45	0	1262485504	14	4306
2026-01-22 02:01:32.71	282.54	25.28	-27.1	-28.7	15.6	0.00e+00	0	45	0	1265631232	14	4332
2026-01-22 02:01:33.71	282.28	25.20	-27.3	-29.2	15.5	0.00e+00	0	45	0	1267728384	14	4463
2026-01-22 02:01:34.71	282.02	25.12	-27.3	-29.0	15.6	0.00e+00	0	45	0	1270874112	14	4417
2026-01-22 02:01:35.71	281.76	25.05	-27.2	-28.9	15.7	0.00e+00	0	45	0	1274019840	14	4379
2026-01-22 02:01:36.71	281.51	24.97	-27.2	-29.0	15.7	0.00e+00	0	45	0	1277165568	14	4406
2026-01-22 02:01:37.71	281.25	24.90	-27.2	-29.0	15.7	0.00e+00	0	45	0	1280311296	14	4398
2026-01-22 02:01:38.71	281.00	24.82	-27.2	-28.9	15.7	0.00e+00	0	45	0	1283457024	14	4370
2026-01-22 02:01:39.71	280.74	24.74	-27.0	-28.5	15.9	0.00e+00	0	45	0	1286602752	14	4259
2026-01-22 02:01:40.72	280.49	24.66	-26.9	-28.2	16.1	0.00e+00	0	45	0	1289748480	14	4185
2026-01-22 02:01:41.72	280.24	24.58	-27.0	-28.4	16.0	0.00e+00	0	45	0	1292894208	14	4241
2026-01-22 02:01:42.73	279.98	24.50	-27.0	-28.4	16.0	0.00e+00	0	45	0	1296039936	14	4249
2026-01-22 02:01:43.74	279.73	24.42	-27.2	-28.9	15.7	0.00e+00	0	45	0	1299185664	14	4365
2026-01-22 02:01:44.74	279.49	24.34	-27.3	-29.2	15.5	7.00e-07	0	45	0	1302331392	14	4461
2026-01-22 02:01:45.74	279.24	24.26	-27.5	-29.2	15.2	0.00e+00	0	45	0	1305477120	15	4360
2026-01-22 02:01:46.74	278.99	24.18	-27.8	-29.8	14.9	0.00e+00	0	45	0	1308622848	15	4526
2026-01-22 02:01:47.74	278.75	24.10	-27.7	-29.5	15.1	0.00e+00	0	45	0	1311768576	15	4432
2026-01-22 02:01:48.74	278.51	24.02	-27.3	-28.6	15.5	0.00e+00	0	45	0	1314914304	15	4199
2026-01-22 02:01:49.75	278.27	23.94	-27.1	-28.2	15.8	0.00e+00	0	45	0	1318060032	15	4081
2026-01-22 02:01:50.75	278.03	23.86	-27.0	-27.9	16.0	1.29e-04	0	45	0	1321205760	15	4015
2026-01-22 02:01:51.76	277.79	23.78	-27.2	-28.4	15.7	1.65e-04	0	45	0	1324351488	15	4133
2026-01-22 02:01:52.76	277.55	23.70	-27.0	-27.9	15.9	0.00e+00	0	45	0	1327497216	15	4010
2026-01-22 02:01:53.76	277.31	23.61	-27.0	-28.4	16.0	0.00e+00	0	45	0	1330642944	14	4248
2026-01-22 02:01:54.77	277.08	23.53	-27.1	-28.7	15.8	0.00e+00	0	45	0	1333788672	14	4322
2026-01-22 02:01:55.77	276.84	23.45	-27.1	-28.8	15.8	0.00e+00	0	45	0	1336934400	14	4341
2026-01-22 02:01:56.77	276.61	23.36	-27.2	-28.8	15.7	4.28e-04	0	45	0	1340080128	14	4358
2026-01-22 02:01:57.78	276.38	23.28	-27.2	-28.9	15.6	4.68e-04	0	45	0	1343225856	14	4395
2026-01-22 02:01:58.79	276.14	23.20	-27.2	-28.9	15.6	0.00e+00	0	45	0	1346371584	14	4392
2026-01-22 02:01:59.79	275.92	23.11	-27.3	-29.1	15.6	0.00e+00	0	45	0	1349517312	14	4439
2026-01-22 02:02:00.79	275.69	23.03	-27.1	-28.6	15.8	1.02e-03	0	45	0	1352663040	14	4303
2026-01-22 02:02:01.80	275.46	22.94	-26.8	-28.1	16.1	0.00e+00	0	45	0	1355808768	14	4166
2026-01-22 02:02:02.80	275.24	22.86	-26.7	-27.9	16.2	4.44e-04	0	45	0	1358954496	14	4101
2026-01-22 02:02:03.81	275.01	22.77	-26.8	-28.0	16.1	2.97e-05	0	45	0	1362100224	14	4151
2026-01-22 02:02:04.81	274.79	22.69	-26.8	-28.1	16.1	0.00e+00	0	45	0	1365245952	14	4175
2026-01-22 02:02:05.82	274.56	22.60	-27.0	-28.4	15.9	0.00e+00	0	45	0	1368391680	14	4248
2026-01-22 02:02:06.82	274.34	22.52	-27.1	-28.6	15.8	1.91e-04	0	45	0	1371537408	14	4309
2026-01-22 02:02:07.82	274.12	22.43	-27.2	-28.9	15.7	0.00e+00	0	45	0	1374683136	14	4383
2026-01-22 02:02:08.82	273.91	22.35	-27.1	-28.8	15.7	1.49e-03	0	45	0	1377828864	14	4354
2026-01-22 02:02:09.83	273.69	22.26	-27.1	-28.7	15.8	1.90e-03	0	45	0	1380974592	14	4317
2026-01-22 02:02:10.83	273.47	22.18	-27.0	-28.5	15.9	0.00e+00	0	45	0	1384120320	14	4273
2026-01-22 02:02:11.84	273.26	22.09	-26.9	-28.7	16.0	3.09e-03	0	45	0	1387266048	13	4443
2026-01-22 02:02:12.83	273.05	22.00	-26.8	-28.5	16.1	3.30e-03	0	45	0	1390411776	13	4402
2026-01-22 02:02:13.83	272.84	21.92	-26.8	-28.5	16.1	0.00e+00	0	45	0	1393557504	13	4395
2026-01-22 02:02:14.83	272.63	21.83	-26.9	-28.7	16.0	1.85e-04	0	45	0	1396703232	13	4443
2026-01-22 02:02:15.84	272.41	21.75	-27.0	-29.0	15.8	0.00e+00	0	45	0	1399848960	13	4527
2026-01-22 02:02:16.84	272.21	21.66	-27.1	-28.6	15.8	0.00e+00	0	45	0	1402994688	14	4317
2026-01-22 02:02:17.84	272.00	21.57	-27.3	-29.1	15.5	9.26e-04	0	45	0	1406140416	14	4448
2026-01-22 02:02:18.85	271.79	21.48	-27.3	-29.1	15.5	2.30e-04	0	45	0	1409286144	14	4453
2026-01-22 02:02:19.85	271.59	21.40	-27.4	-29.3	15.4	0.00e+00	0	45	0	1412431872	14	4510
2026-01-22 02:02:20.85	271.38	21.31	-27.3	-29.1	15.5	0.00e+00	0	45	0	1415577600	14	4442
2026-01-22 02:02:21.85	271.18	21.22	-27.2	-29.0	15.5	0.00e+00	0	45	0	1418723328	14	4416
2026-01-22 02:02:22.86	270.98	21.14	-27.2	-28.9	15.6	7.00e-07	0	45	0	1421869056	14	4400
2026-01-22 02:02:23.86	270.78	21.05	-27.2	-28.9	15.6	5.60e-04	0	45	0	1425014784	14	4395
2026-01-22 02:02:24.86	270.58	20.96	-27.1	-28.6	15.8	0.00e+00	0	45	0	1428160512	14	4308
2026-01-22 02:02:25.87	270.38	20.87	-27.1	-28.8	15.7	0.00e+00	0	45	0	1431306240	14	4358
2026-01-22 02:02:26.87	270.18	20.79	-27.1	-28.7	15.7	0.00e+00	0	45	0	1434451968	14	4335
2026-01-22 02:02:27.87	269.99	20.70	-27.2	-29.0	15.6	2.65e-03	0	45	0	1437597696	14	4402
2026-01-22 02:02:28.87	269.79	20.61	-27.3	-29.2	15.4	0.00e+00	0	45	0	1440743424	14	4488
2026-01-22 02:02:29.87	269.60	20.52	-27.5	-29.1	15.2	0.00e+00	0	45	0	1443889152	15	4344
2026-01-22 02:02:30.87	269.41	20.44	-27.8	-29.7	14.8	0.00e+00	0	45	0	1447034880	15	4520
2026-01-22 02:02:31.87	269.22	20.35	-27.9	-30.1	14.6	0.00e+00	0	45	0	1450180608	15	4645
2026-01-22 02:02:32.87	269.03	20.26	-27.7	-29.7	14.8	0.00e+00	0	45	0	1453326336	15	4505
2026-01-22 02:02:33.88	268.84	20.17	-27.4	-29.0	15.2	3.38e-03	0	45	0	1456472064	15	4318
2026-01-22 02:02:34.88	268.65	20.09	-27.2	-28.5	15.4	0.00e+00	0	45	0	1459617792	15	4182
2026-01-22 02:02:35.89	268.46	20.00	-27.2	-28.9	15.6	0.00e+00	0	45	0	1462763520	14	4375
2026-01-22 02:02:36.89	268.28	19.91	-27.0	-28.4	15.8	0.00e+00	0	45	0	1465909248	14	4246
2026-01-22 02:02:37.90	268.09	19.82	-27.0	-28.4	15.8	7.00e-07	0	45	0	1469054976	14	4261
2026-01-22 02:02:38.89	267.91	19.74	-27.1	-28.7	15.6	0.00e+00	0	45	0	1472200704	14	4340
2026-01-22 02:02:39.90	267.72	19.65	-27.1	-28.6	15.7	0.00e+00	0	45	0	1475346432	14	4318
2026-01-22 02:02:40.90	267.54	19.56	-27.1	-28.6	15.7	0.00e+00	0	45	0	1478492160	14	4319
2026-01-22 02:02:41.90	267.36	19.47	-27.2	-28.9	15.5	7.00e-07	0	45	0	1481637888	14	4390
2026-01-22 02:02:42.91	267.18	19.38	-27.1	-28.8	15.6	0.00e+00	0	45	0	1484783616	14	4357
2026-01-22 02:02:43.92	267.00	19.29	-27.1	-28.8	15.6	0.00e+00	0	45	0	1487929344	14	4370
2026-01-22 02:02:44.91	266.83	19.21	-27.1	-28.6	15.6	0.00e+00	0	45	0	1491075072	14	4319
2026-01-22 02:02:45.92	266.65	19.12	-27.0	-28.5	15.7	0.00e+00	0	45	0	1494220800	14	4289
2026-01-22 02:02:46.92	266.47	19.03	-27.0	-28.5	15.7	0.00e+00	0	45	0	1497366528	14	4288
2026-01-22 02:02:47.92	266.30	18.94	-27.2	-28.9	15.5	0.00e+00	0	45	0	1500512256	14	4397
2026-01-22 02:02:48.92	266.13	18.86	-27.0	-28.4	15.8	0.00e+00	0	45	0	1503657984	14	4247
2026-01-22 02:02:49.93	265.95	18.77	-26.8	-28.0	16.0	0.00e+00	0	45	0	1506803712	14	4134
2026-01-22 02:02:50.93	265.78	18.68	-26.7	-28.4	16.0	0.00e+00	0	45	0	1509949440	13	4347
2026-01-22 02:02:51.93	265.61	18.59	-26.8	-28.5	16.0	0.00e+00	0	45	0	1513095168	13	4393
2026-01-22 02:02:52.93	265.44	18.51	-26.9	-28.8	15.8	0.00e+00	0	45	0	1516240896	13	4477
2026-01-22 02:02:53.94	265.27	18.42	-26.8	-28.6	15.9	0.00e+00	0	45	0	1518338048	13	4423
2026-01-22 02:02:54.94	265.10	18.33	-26.9	-28.7	15.8	0.00e+00	0	45	0	1521483776	13	4461
2026-01-22 02:02:55.94	264.94	18.24	-26.9	-28.7	15.9	0.00e+00	0	45	0	1524629504	13	4448
2026-01-22 02:02:56.94	264.77	18.16	-27.0	-29.0	15.7	0.00e+00	0	45	0	1527775232	13	4525
2026-01-22 02:02:57.94	264.61	18.07	-27.0	-28.6	15.7	0.00e+00	0	45	0	1530920960	14	4297
2026-01-22 02:02:58.94	264.45	17.98	-27.3	-29.3	15.3	0.00e+00	0	45	0	1534066688	14	4507
2026-01-22 02:02:59.94	264.28	17.90	-27.2	-29.0	15.4	9.10e-06	0	45	0	1538260992	14	4416
2026-01-22 02:03:00.93	264.12	17.81	-27.2	-28.9	15.4	0.00e+00	0	45	0	1540358144	14	4406
2026-01-22 02:03:01.93	263.96	17.72	-27.2	-28.9	15.4	0.00e+00	0	45	0	1543503872	14	4407
2026-01-22 02:03:02.94	263.80	17.64	-27.1	-28.8	15.5	0.00e+00	0	45	0	1546649600	14	4364
2026-01-22 02:03:03.94	263.64	17.55	-27.1	-28.8	15.5	0.00e+00	0	45	0	1549795328	14	4371
2026-01-22 02:03:04.95	263.48	17.46	-27.2	-29.0	15.4	0.00e+00	0	45	0	1552941056	14	4431
2026-01-22 02:03:05.95	263.33	17.38	-27.3	-29.1	15.3	9.10e-06	0	45	0	1556086784	14	4457
2026-01-22 02:03:06.95	263.17	17.29	-27.2	-29.0	15.4	0.00e+00	0	45	0	1559232512	14	4419
2026-01-22 02:03:07.95	263.02	17.20	-27.3	-29.3	15.2	0.00e+00	0	45	0	1562378240	14	4513
2026-01-22 02:03:08.96	262.86	17.12	-27.3	-29.3	15.2	1.22e-05	0	45	0	1565523968	14	4516
2026-01-22 02:03:09.96	262.71	17.03	-27.4	-29.4	15.1	0.00e+00	0	45	0	1568669696	14	4548
2026-01-22 02:03:10.96	262.55	16.95	-27.4	-29.4	15.1	0.00e+00	0	45	0	1571815424	14	4537
2026-01-22 02:03:11.96	262.40	16.86	-27.7	-29.7	14.7	9.10e-06	0	45	0	1574961152	15	4505
2026-01-22 02:03:12.97	262.25	16.77	-27.6	-29.3	14.9	0.00e+00	0	45	0	1578106880	15	4412
2026-01-22 02:03:13.97	262.10	16.69	-27.4	-28.9	15.1	0.00e+00	0	45	0	1581252608	15	4297
2026-01-22 02:03:14.98	261.95	16.60	-27.3	-29.3	15.2	6.10e-06	0	45	0	1584398336	14	4528
2026-01-22 02:03:15.99	261.80	16.51	-27.4	-29.6	15.0	0.00e+00	0	45	0	1587544064	14	4590
2026-01-22 02:03:16.99	261.65	16.43	-27.5	-29.2	15.0	0.00e+00	0	45	0	1590689792	15	4372
2026-01-22 02:03:17.99	261.51	16.34	-27.6	-29.3	14.9	0.00e+00	0	45	0	1593835520	15	4415
2026-01-22 02:03:18.99	261.36	16.26	-27.5	-29.2	14.9	7.00e-07	0	45	0	1596981248	15	4379
2026-01-22 02:03:19.99	261.22	16.17	-27.5	-29.2	14.9	0.00e+00	0	45	0	1600126976	15	4368
2026-01-22 02:03:20.99	261.07	16.09	-27.5	-29.2	14.9	9.90e-06	0	45	0	1603272704	15	4368
2026-01-22 02:03:21.99	260.93	16.00	-27.7	-29.6	14.7	0.00e+00	0	45	0	1606418432	15	4478
2026-01-22 02:03:23.00	260.79	15.92	-27.4	-29.0	15.0	0.00e+00	0	45	0	1609564160	15	4304
2026-01-22 02:03:24.00	260.65	15.83	-27.4	-29.4	15.1	7.00e-07	0	45	0	1612709888	14	4528
2026-01-22 02:03:25.01	260.50	15.75	-27.4	-29.4	15.1	0.00e+00	0	45	0	1615855616	14	4531
2026-01-22 02:03:26.01	260.37	15.66	-27.5	-29.6	14.9	0.00e+00	0	45	0	1619001344	14	4612
2026-01-22 02:03:27.01	260.23	15.58	-27.5	-29.6	14.9	7.00e-07	0	45	0	1622147072	14	4610
2026-01-22 02:03:28.01	260.09	15.50	-27.3	-29.3	15.1	0.00e+00	0	45	0	1625292800	14	4521
2026-01-22 02:03:29.02	259.95	15.41	-27.4	-29.4	15.1	0.00e+00	0	45	0	1628438528	14	4536
2026-01-22 02:03:30.02	259.81	15.33	-27.3	-29.3	15.1	0.00e+00	0	45	0	1631584256	14	4511
2026-01-22 02:03:31.02	259.68	15.24	-27.4	-29.4	15.0	0.00e+00	0	45	0	1634729984	14	4547
2026-01-22 02:03:32.03	259.54	15.16	-27.5	-29.2	14.9	0.00e+00	0	45	0	1637875712	15	4377
2026-01-22 02:03:33.03	259.41	15.07	-27.7	-29.6	14.7	0.00e+00	0	45	0	1641021440	15	4481
2026-01-22 02:03:34.03	259.27	14.99	-27.6	-29.5	14.7	0.00e+00	0	45	0	1644167168	15	4468
2026-01-22 02:03:35.04	259.14	14.91	-27.7	-29.8	14.5	0.00e+00	0	45	0	1647312896	15	4548
2026-01-22 02:03:36.04	259.01	14.82	-27.7	-29.6	14.6	1.50e-06	0	45	0	1650458624	15	4504
2026-01-22 02:03:37.04	258.88	14.74	-27.7	-29.6	14.6	7.00e-07	0	45	0	1653604352	15	4501
2026-01-22 02:03:38.04	258.75	14.66	-27.8	-29.8	14.5	7.00e-07	0	45	0	1656750080	15	4568
2026-01-22 02:03:39.04	258.62	14.58	-27.5	-29.2	14.8	0.00e+00	0	45	0	1659895808	15	4391
2026-01-22 02:03:40.05	258.49	14.49	-27.5	-29.7	14.8	0.00e+00	0	45	0	1663041536	14	4632
2026-01-22 02:03:41.05	258.36	14.41	-27.4	-29.0	15.0	7.00e-07	0	45	0	1666187264	15	4320
2026-01-22 02:03:42.06	258.23	14.33	-27.6	-29.4	14.7	0.00e+00	0	45	0	1669332992	15	4443
2026-01-22 02:03:43.06	258.10	14.24	-27.5	-29.2	14.8	0.00e+00	0	45	0	1672478720	15	4387
2026-01-22 02:03:44.07	257.97	14.16	-27.5	-29.1	14.9	7.00e-07	0	45	0	1675624448	15	4350
2026-01-22 02:03:45.07	257.85	14.08	-27.6	-29.4	14.7	2.20e-06	0	45	0	1678770176	15	4423
2026-01-22 02:03:46.08	257.72	14.00	-27.6	-29.5	14.6	0.00e+00	0	45	0	1681915904	15	4467
2026-01-22 02:03:47.09	257.60	13.91	-27.8	-29.8	14.4	0.00e+00	0	45	0	1685061632	15	4570
2026-01-22 02:03:48.10	257.47	13.83	-27.9	-30.0	14.3	1.50e-06	0	45	0	1688207360	15	4632
2026-01-22 02:03:49.10	257.35	13.75	-27.9	-30.2	14.2	2.20e-06	0	45	0	1691353088	15	4678
2026-01-22 02:03:50.10	257.23	13.67	-27.4	-29.6	13.5	1.50e-06	0	45	0	1694498816	16	4635
2026-01-22 02:03:51.11	257.11	13.59	-28.3	-30.6	12.8	4.50e-06	0	45	0	1697644544	16	4667
2026-01-22 02:03:52.11	256.99	13.51	-28.2	-30.2	14.0	1.50e-06	0	45	0	1700790272	16	4559
2026-01-22 02:03:53.12	256.86	13.43	-28.0	-29.9	13.4	2.20e-06	0	45	0	1703936000	16	4467
2026-01-22 02:03:54.12	256.75	13.34	-27.8	-29.8	14.2	7.00e-07	0	45	0	1707081728	15	4570
2026-01-22 02:03:55.12	256.63	13.26	-27.7	-29.8	14.4	0.00e+00	0	45	0	1710227456	15	4550
2026-01-22 02:03:56.12	256.51	13.18	-27.8	-30.0	14.3	7.00e-07	0	45	0	1713373184	15	4606
2026-01-22 02:03:57.12	256.39	13.10	-27.8	-29.8	14.4	7.00e-07	0	45	0	1716518912	15	4575
2026-01-22 02:03:58.12	256.28	13.02	-27.9	-30.2	14.2	0.00e+00	0	45	0	1719664640	15	4684
2026-01-22 02:03:59.13	256.16	12.94	-27.7	-29.6	14.6	2.65e-03	0	45	0	1722810368	15	4483
2026-01-22 02:04:00.13	256.04	12.86	-27.5	-29.6	14.8	0.00e+00	0	45	0	1725956096	14	4604
2026-01-22 02:04:01.13	255.93	12.78	-27.4	-29.5	14.9	7.00e-07	0	45	0	1729101824	14	4566
2026-01-22 02:04:02.13	255.81	12.70	-27.4	-29.5	14.8	0.00e+00	0	45	0	1732247552	14	4583
2026-01-22 02:04:03.14	255.70	12.62	-27.4	-29.5	14.8	7.00e-07	0	45	0	1735393280	14	4576
2026-01-22 02:04:04.14	255.59	12.54	-27.5	-29.2	14.7	7.00e-07	0	45	0	1738539008	15	4381
2026-01-22 02:04:05.14	255.47	12.47	-27.6	-29.4	14.6	0.00e+00	0	45	0	1741684736	15	4442
2026-01-22 02:04:06.14	255.36	12.39	-27.7	-29.6	14.5	7.00e-07	0	45	0	1744830464	15	4502
2026-01-22 02:04:07.14	255.25	12.31	-27.7	-29.8	14.4	0.00e+00	0	45	0	1747976192	15	4570
2026-01-22 02:04:08.15	255.14	12.23	-27.9	-30.1	14.2	0.00e+00	0	45	0	1751121920	15	4651
2026-01-22 02:04:09.15	255.03	12.15	-28.2	-30.3	13.9	7.16e-04	0	45	0	1754267648	16	4609
2026-01-22 02:04:10.15	254.92	12.07	-28.3	-30.5	13.8	9.10e-06	0	45	0	1757413376	16	4670
2026-01-22 02:04:11.15	254.81	11.99	-28.2	-30.3	13.9	1.08e-03	0	45	0	1760559104	16	4584
2026-01-22 02:04:12.16	254.70	11.91	-28.2	-30.4	13.8	5.30e-06	0	45	0	1763704832	16	4627
2026-01-22 02:04:13.16	254.60	11.84	-28.4	-30.8	13.6	7.60e-06	0	45	0	1766850560	16	4760
2026-01-22 02:04:14.17	254.49	11.76	-28.2	-30.4	13.8	2.48e-03	0	45	0	1769996288	16	4620
2026-01-22 02:04:15.17	254.38	11.68	-28.2	-30.4	13.8	3.05e-03	0	45	0	1773142016	16	4622
2026-01-22 02:04:16.17	254.28	11.60	-28.3	-30.5	13.7	9.10e-06	0	45	0	1776287744	16	4670
2026-01-22 02:04:17.18	254.17	11.53	-27.9	-30.1	14.1	1.37e-05	0	45	0	1779433472	15	4652
2026-01-22 02:04:18.18	254.07	11.45	-27.6	-29.5	14.4	7.00e-07	0	45	0	1782579200	15	4491
2026-01-22 02:04:19.19	253.96	11.37	-27.7	-29.7	14.4	1.50e-06	0	45	0	1785724928	15	4523
2026-01-22 02:04:20.19	253.86	11.29	-27.7	-29.6	14.4	3.40e-03	0	45	0	1788870656	15	4499
2026-01-22 02:04:21.19	253.75	11.22	-27.6	-29.5	14.5	3.37e-03	0	45	0	1792016384	15	4464
2026-01-22 02:04:22.20	253.65	11.14	-27.6	-29.4	14.5	0.00e+00	0	45	0	1795162112	15	4458
2026-01-22 02:04:23.20	253.55	11.06	-27.7	-29.7	14.3	6.10e-06	0	45	0	1798307840	15	4542
2026-01-22 02:04:24.20	253.45	10.99	-27.6	-29.5	14.4	3.41e-03	0	45	0	1801453568	15	4481
2026-01-22 02:04:25.20	253.35	10.91	-27.8	-29.8	14.2	7.00e-07	0	45	0	1804599296	15	4577
2026-01-22 02:04:26.20	253.25	10.83	-27.8	-29.9	14.1	3.09e-03	0	45	0	1807745024	15	4612
2026-01-22 02:04:27.20	253.15	10.76	-27.9	-30.2	14.0	2.91e-03	0	45	0	1810890752	15	4706
2026-01-22 02:04:28.20	253.05	10.68	-28.1	-30.2	13.9	3.00e-06	0	45	0	1814036480	16	4563
2026-01-22 02:04:29.20	252.95	10.61	-28.2	-30.4	13.8	2.24e-03	0	45	0	1817182208	16	4633
2026-01-22 02:04:30.21	252.85	10.53	-28.2	-30.3	13.8	1.48e-03	0	45	0	1819279360	16	4604
2026-01-22 02:04:31.21	252.75	10.46	-28.4	-30.8	13.5	1.22e-05	0	45	0	1822425088	16	4754
2026-01-22 02:04:32.22	252.66	10.38	-28.4	-30.8	13.5	5.73e-04	0	45	0	1825570816	16	4778
2026-01-22 02:04:33.23	252.56	10.31	-28.5	-31.0	13.4	4.86e-04	0	45	0	1828716544	16	4840
2026-01-22 02:04:34.24	252.46	10.23	-28.4	-30.9	13.5	1.14e-05	0	45	0	1831862272	16	4781
2026-01-22 02:04:35.24	252.37	10.16	-28.4	-30.9	13.4	2.19e-04	0	45	0	1835008000	16	4807
2026-01-22 02:04:36.24	252.27	10.08	-28.4	-30.9	13.4	1.29e-05	0	45	0	1838153728	16	4800
2026-01-22 02:04:37.24	252.18	10.01	-28.4	-30.9	13.4	1.98e-05	0	45	0	1842348032	16	4804
2026-01-22 02:04:38.25	252.08	9.93	-28.4	-30.8	13.5	2.21e-05	0	45	0	1844445184	16	4769
2026-01-22 02:04:39.25	251.99	9.86	-28.4	-30.8	13.4	1.52e-05	0	45	0	1847590912	16	4759
2026-01-22 02:04:40.25	251.90	9.78	-28.5	-31.1	13.2	1.52e-05	0	45	0	1850736640	16	4857
2026-01-22 02:04:41.25	251.80	9.71	-28.5	-30.7	13.2	3.58e-05	0	45	0	1853882368	17	4626
2026-01-22 02:04:42.26	251.71	9.64	-28.7	-31.0	13.0	1.94e-04	0	45	0	1857028096	17	4726
2026-01-22 02:04:43.26	251.62	9.56	-28.5	-30.6	13.2	2.44e-05	0	45	0	1860173824	17	4589
2026-01-22 02:04:44.26	251.53	9.49	-28.5	-30.5	13.3	1.52e-05	0	45	0	1863319552	17	4576
2026-01-22 02:04:45.27	251.44	9.41	-28.5	-30.6	13.2	9.10e-06	0	45	0	1866465280	17	4588
2026-01-22 02:04:46.27	251.35	9.34	-28.4	-30.5	13.3	1.90e-05	0	45	0	1869611008	17	4549
2026-01-22 02:04:47.27	251.26	9.27	-28.5	-30.6	13.2	2.70e-04	0	45	0	1872756736	17	4604
2026-01-22 02:04:48.27	251.17	9.20	-28.5	-30.7	13.1	1.03e-04	0	45	0	1875902464	17	4636
2026-01-22 02:04:49.27	251.08	9.12	-28.6	-30.8	13.1	3.43e-05	0	45	0	1879048192	17	4656
2026-01-22 02:04:50.27	250.99	9.05	-28.6	-31.0	13.0	3.20e-05	0	45	0	1882193920	17	4717
2026-01-22 02:04:51.28	250.90	8.98	-28.6	-31.0	13.0	4.94e-04	0	45	0	1885339648	17	4719
2026-01-22 02:04:52.28	250.81	8.91	-28.7	-31.2	12.8	5.03e-05	0	45	0	1888485376	17	4781
2026-01-22 02:04:53.29	250.72	8.83	-28.6	-31.0	12.9	2.27e-04	0	45	0	1891631104	17	4735
2026-01-22 02:04:54.29	250.64	8.76	-28.8	-31.4	12.7	5.49e-05	0	45	0	1894776832	17	4861
2026-01-22 02:04:55.30	250.55	8.69	-28.8	-31.3	12.7	6.94e-05	0	45	0	1897922560	17	4821
2026-01-22 02:04:56.30	250.47	8.62	-28.9	-31.5	12.6	7.55e-05	0	45	0	1901068288	17	4907
2026-01-22 02:04:57.30	250.38	8.55	-29.0	-31.5	12.3	2.04e-04	0	45	0	1904214016	18	4772
2026-01-22 02:04:58.31	250.29	8.47	-28.9	-31.1	12.5	1.23e-04	0	45	0	1907359744	18	4654
2026-01-22 02:04:59.31	250.21	8.40	-28.9	-31.7	12.5	1.29e-04	0	45	0	1910505472	17	4975
2026-01-22 02:05:00.32	250.13	8.33	-29.0	-31.9	12.3	1.45e-04	0	45	0	1913651200	17	5025
2026-01-22 02:05:01.32	250.04	8.26	-29.0	-31.4	12.3	1.65e-04	0	45	0	1916796928	18	4763
2026-01-22 02:05:02.33	249.96	8.19	-29.1	-31.6	12.3	1.80e-04	0	45	0	1919942656	18	4803
2026-01-22 02:05:03.33	249.87	8.12	-29.1	-31.6	12.2	2.39e-04	0	45	0	1923088384	18	4811
2026-01-22 02:05:04.34	249.79	8.05	-29.1	-31.6	12.2	2.36e-04	0	45	0	1926234112	18	4840
2026-01-22 02:05:05.35	249.71	7.98	-29.1	-31.6	12.2	2.16e-04	0	45	0	1929379840	18	4830
2026-01-22 02:05:06.36	249.63	7.91	-29.1	-31.7	12.1	2.10e-04	0	45	0	1932525568	18	4855
2026-01-22 02:05:07.36	249.55	7.84	-29.2	-31.9	11.9	3.77e-04	0	45	0	1935671296	18	4945
2026-01-22 02:05:08.36	249.46	7.77	-29.1	-31.6	12.1	2.82e-04	0	45	0	1938817024	18	4832
2026-01-22 02:05:09.36	249.38	7.70	-29.0	-31.6	12.2	1.99e-04	0	45	0	1941962752	18	4816
2026-01-22 02:05:10.36	249.30	7.63	-29.1	-31.6	12.1	2.46e-04	0	45	0	1945108480	18	4838
2026-01-22 02:05:11.36	249.23	7.56	-29.1	-31.8	12.0	2.73e-04	0	45	0	1948254208	18	4907
2026-01-22 02:05:12.35	249.15	7.49	-29.2	-32.0	11.8	6.16e-04	0	45	0	1951399936	18	4963
2026-01-22 02:05:13.36	249.07	7.42	-29.2	-32.1	11.8	4.81e-04	0	45	0	1954545664	18	5012
2026-01-22 02:05:14.36	248.99	7.35	-29.2	-31.9	11.9	3.90e-04	0	45	0	1957691392	18	4949
2026-01-22 02:05:15.36	248.91	7.28	-29.2	-32.0	11.8	4.60e-04	0	45	0	1960837120	18	4987
2026-01-22 02:05:16.36	248.83	7.21	-29.3	-32.4	11.5	6.40e-04	0	45	0	1963982848	18	5110
2026-01-22 02:05:17.36	248.76	7.14	-29.3	-32.3	11.6	9.07e-04	0	45	0	1967128576	18	5085
2026-01-22 02:05:18.37	248.68	7.07	-31.8	-38.2	6.4	1.55e-03	0	45	0	1970274304	23	7469
2026-01-22 02:05:19.36	248.60	7.01	-33.2	-45.3	3.8	1.49e+00	0	45	104	1970274304	26	14479

#Closed at: 2026-01-22 02:05:20
#Recorded file [1970 MB]: D:/data/31010_260122_045447.dat