passes_logs/2026/01/22/R2M6_AANII_01/R2M6_AANII_01__20260122_004355_SUOMI_NPP_rec.log

#Pass ID: 20260122_004355_SUOMI NPP
#Satellite: SUOMI NPP
#Configuration: NPP
#almurnet v.1.7.20240730
#Start time: 2026-01-22 00:43:55

#Version: 2.2.20231116
#Station: R2M6_AANII_01
#Location: 30.233357 lon 59.946436 lat
#TLE: 1 37849U 11061A   26021.51818991  .00000201  00000+0  11636-3 0  9995
#TLE: 2 37849  98.7819 323.5108 0002300  52.3548 307.7836 14.19527793737637

#Time	Az	El	Level	Level2	SNR	BER	BlckErr	Temp	State	Recorded	gain1	gain2
2026-01-22 00:43:55.37	16.64	7.00	-32.0	-37.1	5.0	1.30e+00	0	41	0	0	23	6452
2026-01-22 00:43:56.37	16.62	7.07	-32.2	-37.8	4.7	1.35e+00	0	42	104	0	24	6849
2026-01-22 00:43:57.37	16.61	7.15	-32.1	-37.2	7.2	1.86e-01	0	42	0	0	24	6419
2026-01-22 00:43:58.37	16.60	7.23	-32.1	-37.1	7.4	1.02e-01	0	42	0	1048576	24	6369
2026-01-22 00:43:59.38	16.58	7.30	-32.2	-37.2	7.2	1.39e-01	0	42	0	3145728	24	6436
2026-01-22 00:44:00.39	16.57	7.38	-32.0	-36.5	7.8	8.56e-02	0	42	0	5242880	24	6010
2026-01-22 00:44:01.39	16.56	7.46	-31.9	-36.0	8.3	5.44e-02	0	42	0	7340032	24	5744
2026-01-22 00:44:02.39	16.54	7.54	-31.8	-35.8	8.8	3.87e-02	0	42	0	9437184	23	5747
2026-01-22 00:44:03.39	16.53	7.62	-31.8	-36.0	8.7	3.38e-02	0	42	0	10485760	23	5805
2026-01-22 00:44:04.40	16.52	7.70	-31.8	-36.0	8.7	3.32e-02	0	42	0	12582912	23	5817
2026-01-22 00:44:05.40	16.50	7.78	-31.7	-35.5	9.0	2.66e-02	0	42	0	14680064	23	5580
2026-01-22 00:44:06.40	16.49	7.85	-31.7	-35.4	9.2	2.43e-02	0	42	0	16777216	23	5529
2026-01-22 00:44:07.40	16.48	7.93	-31.6	-35.1	9.4	2.16e-02	0	42	0	17825792	23	5392
2026-01-22 00:44:08.41	16.46	8.01	-31.7	-35.3	9.3	1.57e-02	0	42	0	19922944	23	5455
2026-01-22 00:44:09.40	16.45	8.09	-31.7	-35.6	9.1	2.34e-02	0	42	0	22020096	23	5592
2026-01-22 00:44:10.41	16.43	8.17	-31.7	-35.2	9.4	2.05e-02	0	42	0	24117248	23	5430
2026-01-22 00:44:11.42	16.42	8.26	-31.7	-35.4	9.2	2.02e-02	0	42	0	26214400	23	5533
2026-01-22 00:44:12.42	16.41	8.34	-31.7	-35.4	9.1	2.27e-02	0	42	0	27262976	23	5531
2026-01-22 00:44:13.42	16.39	8.42	-31.7	-35.4	9.3	1.85e-02	0	42	0	29360128	23	5489
2026-01-22 00:44:14.42	16.38	8.50	-31.7	-35.5	9.2	1.83e-02	0	42	0	31457280	23	5546
2026-01-22 00:44:15.43	16.36	8.58	-31.7	-35.3	9.4	1.65e-02	0	42	0	33554432	23	5438
2026-01-22 00:44:16.43	16.35	8.66	-31.8	-35.6	9.1	1.50e-02	0	43	0	35651584	23	5614
2026-01-22 00:44:17.43	16.33	8.74	-31.8	-35.6	9.2	2.48e-02	0	42	0	36700160	23	5608
2026-01-22 00:44:18.43	16.32	8.83	-31.7	-35.5	9.2	1.92e-02	0	42	0	38797312	23	5543
2026-01-22 00:44:19.44	16.30	8.91	-31.9	-36.0	8.9	2.97e-02	0	43	0	40894464	23	5772
2026-01-22 00:44:20.44	16.29	8.99	-31.8	-35.8	9.1	2.27e-02	0	42	0	42991616	23	5677
2026-01-22 00:44:21.44	16.27	9.07	-31.9	-36.2	8.8	2.45e-02	0	43	0	45088768	23	5856
2026-01-22 00:44:22.44	16.26	9.16	-32.0	-35.9	8.6	4.38e-02	0	43	0	46137344	24	5663
2026-01-22 00:44:23.44	16.24	9.24	-31.9	-35.4	8.9	3.57e-02	0	43	0	48234496	24	5415
2026-01-22 00:44:24.45	16.22	9.33	-31.7	-35.4	9.4	2.02e-02	0	43	0	50331648	23	5479
2026-01-22 00:44:25.45	16.21	9.41	-31.7	-35.2	9.6	1.38e-02	0	42	0	52428800	23	5381
2026-01-22 00:44:26.46	16.19	9.49	-31.6	-34.9	9.8	1.20e-02	0	43	0	54525952	23	5246
2026-01-22 00:44:27.46	16.18	9.58	-31.8	-35.3	9.5	1.31e-02	0	43	0	55574528	23	5442
2026-01-22 00:44:28.46	16.16	9.66	-31.8	-35.3	9.5	1.80e-02	0	43	0	57671680	23	5425
2026-01-22 00:44:29.46	16.14	9.75	-31.6	-34.9	9.9	8.74e-03	0	43	0	59768832	23	5237
2026-01-22 00:44:30.47	16.13	9.84	-31.6	-34.9	9.8	9.44e-03	0	43	0	61865984	23	5243
2026-01-22 00:44:31.47	16.11	9.92	-30.9	-34.0	9.9	9.06e-03	0	43	0	63963136	23	5183
2026-01-22 00:44:32.47	16.09	10.01	-31.5	-34.3	10.2	5.47e-03	0	43	0	65011712	23	5004
2026-01-22 00:44:33.48	16.08	10.09	-31.4	-34.6	10.1	4.18e-03	0	43	0	67108864	22	5185
2026-01-22 00:44:34.48	16.06	10.18	-31.4	-34.5	9.9	4.20e-03	0	43	0	69206016	22	5138
2026-01-22 00:44:35.48	16.04	10.27	-31.3	-34.1	10.8	2.67e-03	0	43	0	71303168	22	4985
2026-01-22 00:44:36.48	16.03	10.36	-31.2	-33.9	10.9	2.13e-03	0	43	0	73400320	22	4922
2026-01-22 00:44:37.49	16.01	10.44	-31.1	-33.6	11.1	1.42e-03	0	43	0	74448896	22	4788
2026-01-22 00:44:38.48	15.99	10.53	-31.0	-33.8	11.4	1.04e-03	0	43	0	76546048	21	4971
2026-01-22 00:44:39.48	15.97	10.62	-31.0	-33.6	11.6	1.03e-03	0	43	0	78643200	21	4904
2026-01-22 00:44:40.48	15.96	10.71	-31.0	-33.6	11.5	7.24e-04	0	43	0	80740352	21	4900
2026-01-22 00:44:41.48	15.94	10.80	-31.1	-33.4	11.4	1.01e-03	0	43	0	81788928	22	4734
2026-01-22 00:44:42.48	15.92	10.89	-31.0	-33.7	11.5	3.69e-03	0	43	0	83886080	21	4918
2026-01-22 00:44:43.48	15.90	10.97	-31.0	-33.7	11.5	7.36e-04	0	43	0	85983232	21	4931
2026-01-22 00:44:44.49	15.88	11.07	-30.9	-33.0	11.7	6.43e-04	0	43	0	88080384	22	4555
2026-01-22 00:44:45.48	15.87	11.15	-30.9	-33.5	11.8	5.97e-04	0	43	0	90177536	21	4837
2026-01-22 00:44:46.49	15.85	11.25	-31.0	-33.6	11.6	5.09e-04	0	43	0	91226112	21	4870
2026-01-22 00:44:47.49	15.83	11.34	-30.9	-33.5	11.7	6.15e-04	0	43	0	93323264	21	4851
2026-01-22 00:44:48.49	15.81	11.43	-30.7	-33.3	11.6	4.81e-04	0	43	0	95420416	21	4865
2026-01-22 00:44:49.51	15.79	11.52	-31.2	-33.7	11.2	3.91e-03	0	43	0	97517568	22	4842
2026-01-22 00:44:50.51	15.77	11.61	-31.2	-33.7	11.2	1.54e-03	0	43	0	99614720	22	4817
2026-01-22 00:44:51.51	15.75	11.71	-31.1	-33.5	11.3	1.03e-03	0	43	0	100663296	22	4755
2026-01-22 00:44:52.52	15.73	11.80	-31.0	-33.3	11.5	7.12e-04	0	43	0	102760448	22	4672
2026-01-22 00:44:53.52	15.71	11.89	-31.1	-33.4	11.5	1.06e-03	0	43	0	104857600	22	4722
2026-01-22 00:44:54.52	15.69	11.98	-31.0	-33.3	11.6	7.13e-04	0	43	0	106954752	22	4652
2026-01-22 00:44:55.53	15.67	12.08	-30.9	-33.4	11.8	6.04e-04	0	43	0	109051904	21	4821
2026-01-22 00:44:56.53	15.65	12.17	-30.9	-33.5	11.8	9.71e-04	0	43	0	110100480	21	4823
2026-01-22 00:44:57.54	15.63	12.27	-30.9	-33.5	11.8	5.93e-04	0	43	0	112197632	21	4824
2026-01-22 00:44:58.54	15.61	12.36	-31.0	-33.5	11.8	6.15e-04	0	43	0	114294784	21	4844
2026-01-22 00:44:59.55	15.59	12.46	-31.0	-33.7	11.7	1.21e-03	0	43	0	116391936	21	4907
2026-01-22 00:45:00.55	15.57	12.55	-31.0	-33.3	11.6	3.30e-03	0	43	0	118489088	22	4670
2026-01-22 00:45:01.56	15.55	12.65	-31.1	-33.4	11.5	8.75e-04	0	43	0	119537664	22	4711
2026-01-22 00:45:02.56	15.53	12.75	-31.0	-33.2	11.6	6.63e-04	0	43	0	121634816	22	4643
2026-01-22 00:45:03.56	15.51	12.84	-30.8	-33.1	12.1	2.97e-03	0	43	0	123731968	21	4694
2026-01-22 00:45:04.57	15.49	12.94	-30.8	-33.2	12.0	3.00e-03	0	43	0	125829120	21	4720
2026-01-22 00:45:05.57	15.47	13.04	-30.9	-33.4	11.9	2.98e-04	0	43	0	127926272	21	4798
2026-01-22 00:45:06.58	15.45	13.14	-30.9	-33.4	11.9	3.63e-03	0	43	0	128974848	21	4797
2026-01-22 00:45:07.58	15.42	13.23	-31.2	-33.6	11.4	3.46e-03	0	43	0	131072000	22	4776
2026-01-22 00:45:08.58	15.40	13.33	-31.1	-33.3	11.6	9.54e-04	0	43	0	133169152	22	4672
2026-01-22 00:45:09.59	15.38	13.43	-31.0	-33.6	11.8	3.54e-03	0	43	0	135266304	21	4853
2026-01-22 00:45:10.59	15.36	13.53	-31.0	-33.0	11.8	2.94e-03	0	43	0	136314880	22	4557
2026-01-22 00:45:11.59	15.34	13.63	-31.1	-33.4	11.6	1.03e-03	0	43	0	138412032	22	4688
2026-01-22 00:45:12.59	15.31	13.73	-31.1	-33.3	11.7	8.67e-04	0	43	0	140509184	22	4639
2026-01-22 00:45:13.60	15.29	13.83	-31.1	-33.5	11.6	3.42e-03	0	43	0	142606336	22	4719
2026-01-22 00:45:14.60	15.27	13.93	-31.1	-33.3	11.7	1.17e-03	0	43	0	144703488	22	4667
2026-01-22 00:45:15.61	15.24	14.04	-31.0	-33.1	11.8	3.24e-03	0	43	0	145752064	22	4573
2026-01-22 00:45:16.62	15.22	14.14	-30.8	-33.2	12.1	2.91e-03	0	43	0	147849216	21	4702
2026-01-22 00:45:17.62	15.20	14.24	-30.8	-33.0	12.2	6.97e-04	0	43	0	149946368	21	4640
2026-01-22 00:45:18.62	15.17	14.34	-30.7	-32.8	12.4	2.67e-03	0	44	0	152043520	21	4556
2026-01-22 00:45:19.62	15.15	14.45	-30.7	-32.7	12.5	2.38e-03	0	43	0	154140672	21	4523
2026-01-22 00:45:20.63	15.12	14.55	-30.7	-32.6	12.5	6.47e-04	0	43	0	155189248	21	4486
2026-01-22 00:45:21.63	15.10	14.65	-30.6	-32.4	12.7	2.40e-03	0	44	0	157286400	21	4428
2026-01-22 00:45:22.64	15.08	14.76	-30.6	-32.3	12.8	2.61e-03	0	43	0	159383552	21	4387
2026-01-22 00:45:23.64	15.05	14.86	-30.6	-32.4	12.7	5.52e-04	0	43	0	161480704	21	4425
2026-01-22 00:45:24.65	15.03	14.97	-30.6	-32.5	12.6	2.89e-03	0	44	0	163577856	21	4471
2026-01-22 00:45:25.65	15.00	15.08	-30.8	-33.0	12.3	2.66e-03	0	43	0	164626432	21	4639
2026-01-22 00:45:26.65	14.98	15.18	-30.8	-32.9	12.4	3.78e-04	0	44	0	166723584	21	4600
2026-01-22 00:45:27.65	14.95	15.29	-30.7	-32.6	12.6	2.86e-03	0	44	0	168820736	21	4483
2026-01-22 00:45:28.66	14.92	15.40	-30.7	-32.7	12.5	2.44e-03	0	44	0	170917888	21	4536
2026-01-22 00:45:29.66	14.90	15.50	-30.7	-32.6	12.6	3.36e-04	0	44	0	173015040	21	4480
2026-01-22 00:45:30.67	14.87	15.61	-30.5	-32.2	12.9	2.63e-03	0	44	0	174063616	21	4354
2026-01-22 00:45:31.66	14.85	15.72	-30.5	-32.2	12.9	2.64e-03	0	44	0	176160768	21	4365
2026-01-22 00:45:32.67	14.82	15.83	-30.6	-32.3	12.8	2.99e-04	0	44	0	178257920	21	4396
2026-01-22 00:45:33.67	14.79	15.94	-30.5	-32.1	12.9	2.95e-04	0	44	0	180355072	21	4341
2026-01-22 00:45:34.67	14.76	16.05	-30.4	-32.2	13.2	2.46e-03	0	44	0	182452224	20	4449
2026-01-22 00:45:35.68	14.74	16.16	-30.3	-32.2	13.2	2.75e-04	0	44	0	183500800	20	4443
2026-01-22 00:45:36.68	14.71	16.27	-30.4	-32.2	13.3	3.24e-04	0	43	0	185597952	20	4445
2026-01-22 00:45:37.69	14.68	16.39	-30.2	-31.9	13.5	1.29e-03	0	44	0	187695104	20	4344
2026-01-22 00:45:38.69	14.65	16.50	-30.3	-32.0	13.4	5.24e-04	0	44	0	189792256	20	4392
2026-01-22 00:45:39.69	14.63	16.61	-30.3	-32.0	13.3	2.34e-03	0	44	0	191889408	20	4394
2026-01-22 00:45:40.70	14.60	16.72	-30.3	-32.0	13.4	1.67e-05	0	44	0	192937984	20	4384
2026-01-22 00:45:41.70	14.57	16.84	-30.2	-31.8	13.5	5.07e-04	0	44	0	195035136	20	4329
2026-01-22 00:45:42.70	14.54	16.95	-30.2	-31.7	13.6	2.49e-03	0	44	0	197132288	20	4301
2026-01-22 00:45:43.70	14.51	17.07	-30.1	-31.6	13.7	9.10e-06	0	44	0	199229440	20	4244
2026-01-22 00:45:44.71	14.48	17.18	-30.1	-31.5	13.8	2.55e-04	0	44	0	200278016	20	4227
2026-01-22 00:45:45.71	14.45	17.30	-30.1	-31.5	13.7	2.68e-03	0	44	0	202375168	20	4210
2026-01-22 00:45:46.71	14.42	17.41	-30.2	-31.7	13.6	3.80e-06	0	44	0	204472320	20	4279
2026-01-22 00:45:47.71	14.39	17.53	-30.2	-31.7	13.6	2.61e-04	0	43	0	206569472	20	4291
2026-01-22 00:45:48.70	14.36	17.65	-30.1	-31.5	13.8	2.42e-03	0	44	0	208666624	20	4229
2026-01-22 00:45:49.71	14.33	17.76	-30.1	-31.5	13.8	2.50e-03	0	44	0	209715200	20	4225
2026-01-22 00:45:50.72	14.30	17.88	-30.1	-31.4	13.8	2.30e-04	0	44	0	211812352	20	4197
2026-01-22 00:45:51.72	14.27	18.00	-30.1	-31.4	13.8	2.25e-04	0	44	0	213909504	20	4204
2026-01-22 00:45:52.72	14.23	18.12	-30.1	-31.4	13.8	2.37e-03	0	44	0	216006656	20	4198
2026-01-22 00:45:53.72	14.20	18.24	-30.1	-31.4	13.9	2.03e-04	0	44	0	218103808	20	4194
2026-01-22 00:45:54.73	14.17	18.36	-30.1	-31.5	13.8	2.12e-04	0	44	0	219152384	20	4216
2026-01-22 00:45:55.74	14.14	18.49	-30.1	-31.4	13.9	1.50e-06	0	44	0	221249536	20	4185
2026-01-22 00:45:56.74	14.10	18.61	-30.1	-31.4	13.9	2.20e-06	0	44	0	223346688	20	4182
2026-01-22 00:45:57.75	14.07	18.73	-30.2	-31.6	13.7	2.33e-04	0	44	0	225443840	20	4260
2026-01-22 00:45:58.76	14.04	18.86	-30.2	-31.8	13.6	3.80e-06	0	44	0	227540992	20	4306
2026-01-22 00:45:59.76	14.00	18.98	-30.1	-31.5	13.8	4.97e-04	0	44	0	228589568	20	4220
2026-01-22 00:46:00.76	13.97	19.10	-30.1	-31.4	13.9	2.58e-04	0	44	0	230686720	20	4180
2026-01-22 00:46:01.77	13.94	19.23	-30.1	-31.4	13.9	3.80e-06	0	44	0	232783872	20	4181
2026-01-22 00:46:02.77	13.90	19.35	-30.2	-31.8	13.7	2.81e-04	0	44	0	234881024	20	4305
2026-01-22 00:46:03.78	13.87	19.48	-30.1	-31.5	13.8	6.10e-06	0	44	0	236978176	20	4207
2026-01-22 00:46:04.78	13.83	19.61	-30.0	-31.1	14.1	6.80e-06	0	44	0	238026752	20	4096
2026-01-22 00:46:05.78	13.79	19.74	-30.1	-31.3	14.0	3.49e-04	0	44	0	240123904	20	4164
2026-01-22 00:46:06.78	13.76	19.86	-30.1	-31.5	13.9	2.20e-06	0	44	0	242221056	20	4212
2026-01-22 00:46:07.78	13.72	19.99	-30.1	-31.5	13.8	3.80e-06	0	44	0	244318208	20	4225
2026-01-22 00:46:08.77	13.69	20.12	-30.1	-31.3	13.9	3.41e-04	0	44	0	246415360	20	4165
2026-01-22 00:46:09.78	13.65	20.25	-30.2	-31.6	13.8	3.41e-04	0	44	0	247463936	20	4251
2026-01-22 00:46:10.78	13.61	20.38	-30.2	-31.8	13.7	7.60e-06	0	44	0	249561088	20	4308
2026-01-22 00:46:11.79	13.57	20.51	-30.3	-31.8	13.7	3.09e-04	0	44	0	251658240	20	4316
2026-01-22 00:46:12.79	13.54	20.65	-30.3	-32.0	13.6	3.12e-04	0	44	0	253755392	20	4354
2026-01-22 00:46:13.80	13.50	20.78	-30.3	-31.5	13.6	1.14e-05	0	44	0	254803968	21	4115
2026-01-22 00:46:14.80	13.46	20.91	-30.3	-32.0	13.6	2.52e-04	0	44	0	256901120	20	4372
2026-01-22 00:46:15.80	13.42	21.05	-30.2	-31.7	13.8	2.23e-04	0	44	0	258998272	20	4274
2026-01-22 00:46:16.81	13.38	21.18	-30.1	-31.4	13.9	6.80e-06	0	44	0	261095424	20	4191
2026-01-22 00:46:17.81	13.34	21.32	-30.1	-31.4	13.9	2.20e-06	0	44	0	263192576	20	4177
2026-01-22 00:46:18.82	13.30	21.46	-30.2	-31.7	13.7	1.83e-04	0	44	0	264241152	20	4284
2026-01-22 00:46:19.82	13.26	21.59	-30.0	-31.1	14.0	2.20e-06	0	44	0	266338304	20	4092
2026-01-22 00:46:20.82	13.22	21.73	-29.9	-30.8	13.7	1.50e-06	0	44	0	268435456	20	4018
2026-01-22 00:46:21.82	13.18	21.87	-30.0	-31.2	14.0	1.85e-04	0	44	0	270532608	20	4119
2026-01-22 00:46:22.82	13.13	22.01	-30.0	-31.1	14.2	0.00e+00	0	44	0	272629760	20	4099
2026-01-22 00:46:23.82	13.09	22.15	-29.2	-30.2	14.3	2.15e-04	0	44	0	273678336	20	4045
2026-01-22 00:46:24.82	13.05	22.29	-29.9	-31.3	14.5	0.00e+00	0	44	0	275775488	19	4222
2026-01-22 00:46:25.82	13.01	22.43	-29.9	-30.8	14.4	1.50e-06	0	44	0	277872640	20	3994
2026-01-22 00:46:26.83	12.96	22.57	-30.0	-31.0	14.2	2.20e-04	0	44	0	279969792	20	4046
2026-01-22 00:46:27.83	12.92	22.72	-29.8	-31.1	14.6	7.00e-07	0	44	0	282066944	19	4183
2026-01-22 00:46:28.83	12.87	22.86	-29.7	-30.7	14.7	0.00e+00	0	44	0	283115520	19	4058
2026-01-22 00:46:29.84	12.83	23.01	-29.7	-30.7	14.8	2.01e-04	0	44	0	285212672	19	4052
2026-01-22 00:46:30.84	12.78	23.15	-29.7	-30.7	14.8	2.07e-03	0	44	0	287309824	19	4054
2026-01-22 00:46:31.85	12.74	23.30	-29.9	-31.2	14.6	0.00e+00	0	44	0	289406976	19	4185
2026-01-22 00:46:32.85	12.69	23.45	-29.5	-30.3	15.1	2.28e-04	0	44	0	291504128	19	3939
2026-01-22 00:46:33.86	12.64	23.59	-29.4	-30.6	15.2	2.24e-04	0	44	0	292552704	18	4112
2026-01-22 00:46:34.86	12.60	23.74	-29.6	-30.4	15.0	3.28e-05	0	44	0	294649856	19	3974
2026-01-22 00:46:35.86	12.55	23.89	-29.4	-30.6	15.2	0.00e+00	0	44	0	296747008	18	4134
2026-01-22 00:46:36.87	12.50	24.04	-29.3	-30.4	15.2	1.98e-04	0	44	0	298844160	18	4057
2026-01-22 00:46:37.86	12.45	24.19	-29.5	-30.4	15.1	3.28e-05	0	44	0	300941312	19	3961
2026-01-22 00:46:38.87	12.40	24.35	-29.7	-30.7	14.8	0.00e+00	0	44	0	301989888	19	4056
2026-01-22 00:46:39.87	12.35	24.50	-30.0	-31.4	14.5	9.15e-05	0	44	0	304087040	19	4262
2026-01-22 00:46:40.87	12.30	24.65	-30.0	-31.4	14.4	3.05e-05	0	44	0	306184192	19	4252
2026-01-22 00:46:41.87	12.25	24.81	-30.2	-31.5	14.0	1.99e-03	0	44	0	308281344	20	4196
2026-01-22 00:46:42.87	12.20	24.96	-30.3	-31.9	13.8	5.30e-06	0	44	0	309329920	20	4314
2026-01-22 00:46:43.87	12.15	25.12	-30.3	-31.8	13.7	1.50e-06	0	44	0	311427072	20	4291
2026-01-22 00:46:44.87	12.10	25.28	-30.5	-32.0	13.3	2.20e-03	0	44	0	313524224	21	4246
2026-01-22 00:46:45.86	12.04	25.43	-30.5	-31.9	13.4	2.08e-03	0	44	0	315621376	21	4232
2026-01-22 00:46:46.86	11.99	25.59	-30.3	-31.4	13.7	9.90e-06	0	44	0	317718528	21	4069
2026-01-22 00:46:47.87	11.94	25.75	-30.4	-32.2	13.6	1.65e-03	0	44	0	318767104	20	4422
2026-01-22 00:46:48.88	11.88	25.92	-30.3	-31.7	13.9	1.57e-03	0	44	0	320864256	20	4260
2026-01-22 00:46:49.88	11.83	26.08	-30.3	-31.9	13.8	2.20e-06	0	44	0	322961408	20	4301
2026-01-22 00:46:50.88	11.77	26.24	-30.2	-31.6	14.0	1.27e-04	0	44	0	325058560	20	4232
2026-01-22 00:46:51.87	11.71	26.40	-30.2	-31.6	14.0	1.78e-03	0	44	0	327155712	20	4231
2026-01-22 00:46:52.88	11.66	26.57	-30.6	-32.0	13.5	2.20e-06	0	44	0	328204288	21	4261
2026-01-22 00:46:53.88	11.60	26.74	-30.9	-32.9	12.8	9.99e-05	0	44	0	330301440	21	4548
2026-01-22 00:46:54.88	11.54	26.90	-30.7	-32.4	13.2	2.04e-03	0	44	0	332398592	21	4390
2026-01-22 00:46:55.88	11.48	27.07	-31.2	-33.2	12.4	6.48e-05	0	44	0	334495744	22	4544
2026-01-22 00:46:56.88	11.42	27.24	-30.9	-32.8	12.9	6.17e-05	0	44	0	336592896	21	4523
2026-01-22 00:46:57.89	11.36	27.41	-30.9	-33.1	12.7	5.64e-05	0	44	0	337641472	21	4594
2026-01-22 00:46:58.89	11.30	27.58	-31.1	-33.1	12.4	1.50e-04	0	44	0	339738624	22	4511
2026-01-22 00:46:59.90	11.24	27.75	-31.2	-33.1	12.4	2.07e-03	0	44	0	341835776	22	4523
2026-01-22 00:47:00.90	11.17	27.93	-31.4	-34.0	11.8	2.17e-04	0	44	0	343932928	22	4825
2026-01-22 00:47:01.91	11.11	28.10	-31.6	-33.9	11.5	6.56e-04	0	44	0	346030080	23	4710
2026-01-22 00:47:02.91	11.05	28.28	-31.3	-33.6	12.2	2.66e-03	0	44	0	347078656	22	4688
2026-01-22 00:47:03.91	10.98	28.45	-31.2	-33.2	12.3	2.25e-03	0	44	0	349175808	22	4549
2026-01-22 00:47:04.92	10.91	28.63	-30.7	-31.8	13.3	3.81e-05	0	44	0	351272960	22	4098
2026-01-22 00:47:05.92	10.85	28.81	-30.6	-32.2	13.3	1.90e-03	0	44	0	353370112	21	4308
2026-01-22 00:47:06.92	10.78	28.99	-30.8	-32.5	13.1	1.97e-03	0	44	0	355467264	21	4421
2026-01-22 00:47:07.92	10.71	29.17	-30.6	-32.2	13.4	1.67e-05	0	44	0	356515840	21	4311
2026-01-22 00:47:08.93	10.64	29.35	-30.8	-32.6	13.1	1.91e-03	0	44	0	358612992	21	4453
2026-01-22 00:47:09.93	10.57	29.54	-31.0	-32.6	12.8	1.97e-03	0	44	0	360710144	22	4340
2026-01-22 00:47:10.93	10.50	29.72	-31.0	-32.7	12.7	9.91e-05	0	44	0	362807296	22	4362
2026-01-22 00:47:11.93	10.43	29.91	-31.4	-33.9	11.8	2.05e-03	0	44	0	363855872	22	4799
2026-01-22 00:47:12.93	10.36	30.09	-31.2	-33.3	12.3	1.82e-03	0	44	0	365953024	22	4572
2026-01-22 00:47:13.93	10.29	30.28	-31.2	-33.2	12.4	1.68e-04	0	44	0	368050176	22	4532
2026-01-22 00:47:14.93	10.21	30.47	-31.2	-33.3	12.3	2.62e-04	0	44	0	370147328	22	4565
2026-01-22 00:47:15.93	10.14	30.66	-31.1	-33.0	12.6	1.21e-03	0	44	0	372244480	22	4481
2026-01-22 00:47:16.94	10.06	30.85	-31.0	-32.8	12.7	4.80e-05	0	44	0	373293056	22	4396
2026-01-22 00:47:17.94	9.99	31.04	-31.0	-33.2	12.7	1.12e-03	0	44	0	375390208	21	4634
2026-01-22 00:47:18.94	9.91	31.23	-31.0	-32.6	12.8	1.08e-03	0	44	0	377487360	22	4351
2026-01-22 00:47:19.95	9.83	31.43	-31.3	-33.4	12.3	1.04e-04	0	44	0	379584512	22	4613
2026-01-22 00:47:20.95	9.75	31.63	-31.3	-33.6	12.2	1.28e-03	0	44	0	381681664	22	4678
2026-01-22 00:47:21.95	9.67	31.82	-31.6	-33.8	11.7	4.37e-04	0	44	0	382730240	23	4651
2026-01-22 00:47:22.96	9.59	32.02	-31.8	-33.9	11.2	2.39e-03	0	44	0	384827392	24	4623
2026-01-22 00:47:23.96	9.50	32.22	-32.0	-34.6	10.8	3.72e-03	0	44	0	386924544	24	4870
2026-01-22 00:47:24.96	9.42	32.42	-32.1	-34.8	10.6	3.96e-03	0	44	0	389021696	24	4960
2026-01-22 00:47:25.96	9.34	32.63	-32.1	-35.0	10.5	4.12e-03	0	44	0	391118848	24	5026
2026-01-22 00:47:26.97	9.25	32.83	-32.0	-34.7	10.7	5.16e-03	0	44	0	392167424	24	4915
2026-01-22 00:47:27.97	9.16	33.04	-32.2	-35.3	10.3	4.95e-03	0	44	0	394264576	24	5132
2026-01-22 00:47:28.97	9.07	33.24	-32.1	-34.9	10.6	4.19e-03	0	44	0	396361728	24	4981
2026-01-22 00:47:29.96	8.98	33.45	-32.2	-35.4	10.1	5.89e-03	0	44	0	398458880	24	5204
2026-01-22 00:47:30.96	8.89	33.66	-32.2	-35.4	10.2	1.01e-02	0	44	0	399507456	24	5176
2026-01-22 00:47:31.96	8.80	33.87	-32.5	-35.8	9.5	8.21e-03	0	44	0	401604608	25	5258
2026-01-22 00:47:32.97	8.71	34.08	-32.5	-35.7	9.5	1.37e-02	0	44	0	403701760	25	5248
2026-01-22 00:47:33.96	8.61	34.29	-32.5	-35.7	9.5	2.00e-02	0	44	0	405798912	25	5253
2026-01-22 00:47:34.97	8.52	34.51	-32.4	-35.4	9.8	1.51e-02	0	44	0	407896064	25	5098
2026-01-22 00:47:35.96	8.42	34.72	-32.4	-36.0	9.8	9.77e-03	0	44	0	408944640	24	5439
2026-01-22 00:47:36.96	8.32	34.94	-32.0	-34.7	10.7	6.40e-03	0	44	0	411041792	24	4912
2026-01-22 00:47:37.97	8.22	35.16	-31.9	-34.4	11.0	2.77e-03	0	44	0	413138944	24	4774
2026-01-22 00:47:38.97	8.12	35.38	-32.0	-34.5	10.8	4.17e-03	0	44	0	415236096	24	4845
2026-01-22 00:47:39.97	8.02	35.60	-31.9	-34.9	10.9	2.06e-03	0	44	0	417333248	23	5070
2026-01-22 00:47:40.97	7.92	35.82	-32.1	-34.9	10.6	2.86e-03	0	44	0	418381824	24	4965
2026-01-22 00:47:41.98	7.81	36.05	-32.4	-35.9	9.9	1.08e-02	0	44	0	420478976	24	5385
2026-01-22 00:47:42.98	7.70	36.27	-32.5	-35.9	9.5	1.33e-02	0	44	0	422576128	25	5327
2026-01-22 00:47:43.98	7.59	36.50	-32.7	-36.6	8.9	1.37e-02	0	44	0	424673280	25	5649
2026-01-22 00:47:44.98	7.48	36.73	-32.3	-35.2	10.0	1.17e-02	0	44	0	426770432	25	5023
2026-01-22 00:47:45.98	7.37	36.96	-32.0	-34.8	10.7	5.85e-03	0	44	0	427819008	24	4948
2026-01-22 00:47:46.99	7.26	37.19	-31.8	-34.1	11.1	3.04e-03	0	44	0	429916160	24	4667
2026-01-22 00:47:47.99	7.14	37.42	-31.5	-33.6	11.8	1.99e-03	0	44	0	432013312	23	4583
2026-01-22 00:47:48.99	7.03	37.66	-31.3	-33.6	12.3	1.72e-03	0	44	0	434110464	22	4656
2026-01-22 00:47:49.99	6.91	37.89	-31.1	-33.2	12.4	1.30e-04	0	44	0	436207616	22	4591
2026-01-22 00:47:51.00	6.79	38.13	-31.6	-33.7	11.8	1.29e-03	0	44	0	437256192	23	4618
2026-01-22 00:47:52.00	6.66	38.37	-31.2	-32.7	12.5	1.72e-03	0	44	0	439353344	23	4279
2026-01-22 00:47:53.00	6.54	38.61	-31.3	-33.0	12.2	1.59e-04	0	44	0	441450496	23	4378
2026-01-22 00:47:54.01	6.41	38.86	-31.5	-33.6	11.9	2.46e-04	0	44	0	443547648	23	4574
2026-01-22 00:47:55.01	6.28	39.10	-31.5	-33.4	12.0	1.76e-03	0	44	0	444596224	23	4516
2026-01-22 00:47:56.01	6.15	39.35	-31.7	-34.0	11.6	5.94e-04	0	44	0	446693376	23	4708
2026-01-22 00:47:57.02	6.02	39.60	-31.8	-34.5	11.3	1.34e-03	0	44	0	448790528	23	4899
2026-01-22 00:47:58.02	5.89	39.85	-31.6	-33.9	11.8	5.92e-04	0	44	0	450887680	23	4673
2026-01-22 00:47:59.02	5.75	40.10	-31.4	-33.2	12.2	2.78e-04	0	44	0	452984832	23	4436
2026-01-22 00:48:00.02	5.61	40.35	-31.0	-32.6	13.0	1.11e-04	0	44	0	454033408	22	4324
2026-01-22 00:48:01.02	5.47	40.60	-31.1	-32.9	12.8	1.53e-04	0	44	0	456130560	22	4422
2026-01-22 00:48:02.02	5.33	40.86	-31.4	-33.7	12.2	1.81e-04	0	44	0	458227712	22	4675
2026-01-22 00:48:03.03	5.18	41.11	-31.5	-33.6	11.8	4.44e-04	0	44	0	460324864	23	4571
2026-01-22 00:48:04.02	5.04	41.37	-31.5	-33.5	12.0	3.82e-04	0	44	0	462422016	23	4514
2026-01-22 00:48:05.03	4.88	41.63	-31.4	-33.2	12.2	2.14e-04	0	44	0	463470592	23	4439
2026-01-22 00:48:06.03	4.73	41.89	-31.6	-33.7	11.9	1.47e-03	0	44	0	465567744	23	4602
2026-01-22 00:48:07.04	4.58	42.16	-31.5	-33.5	12.0	3.38e-04	0	44	0	467664896	23	4514
2026-01-22 00:48:08.04	4.42	42.42	-31.7	-34.0	11.7	1.92e-04	0	44	0	469762048	23	4700
2026-01-22 00:48:09.03	4.26	42.69	-31.9	-34.8	11.1	7.02e-04	0	44	0	471859200	23	4997
2026-01-22 00:48:10.04	4.09	42.96	-32.0	-34.9	11.0	1.17e-03	0	44	0	472907776	23	5071
2026-01-22 00:48:11.04	3.93	43.23	-32.1	-34.8	10.8	2.96e-03	0	44	0	475004928	24	4908
2026-01-22 00:48:12.05	3.76	43.50	-32.2	-35.2	10.5	4.10e-03	0	44	0	477102080	24	5109
2026-01-22 00:48:13.06	3.58	43.78	-31.8	-34.1	11.3	4.78e-03	0	44	0	479199232	24	4653
2026-01-22 00:48:14.06	3.41	44.05	-32.1	-34.8	10.7	1.95e-03	0	44	0	481296384	24	4916
2026-01-22 00:48:15.06	3.23	44.33	-32.0	-34.5	10.9	2.37e-03	0	44	0	482344960	24	4803
2026-01-22 00:48:16.06	3.05	44.61	-32.2	-35.2	10.4	3.24e-03	0	44	0	484442112	24	5082
2026-01-22 00:48:17.06	2.87	44.89	-31.6	-33.3	11.8	8.21e-04	0	44	0	486539264	24	4374
2026-01-22 00:48:18.06	2.68	45.17	-31.4	-33.3	12.1	2.66e-04	0	44	0	488636416	23	4451
2026-01-22 00:48:19.07	2.48	45.45	-31.2	-33.1	12.6	1.44e-04	0	44	0	489684992	22	4491
2026-01-22 00:48:20.07	2.29	45.74	-31.0	-32.7	12.9	4.42e-05	0	44	0	491782144	22	4339
2026-01-22 00:48:21.08	2.09	46.03	-31.4	-33.7	12.2	9.84e-05	0	44	0	493879296	22	4690
2026-01-22 00:48:22.08	1.89	46.31	-31.3	-33.0	12.4	2.18e-04	0	44	0	495976448	23	4364
2026-01-22 00:48:23.08	1.68	46.60	-31.4	-33.1	12.3	1.97e-04	0	44	0	498073600	23	4402
2026-01-22 00:48:24.09	1.47	46.90	-31.4	-33.2	12.2	3.70e-04	0	44	0	499122176	23	4414
2026-01-22 00:48:25.08	1.26	47.19	-31.5	-33.4	12.1	3.23e-04	0	44	0	501219328	23	4489
2026-01-22 00:48:26.09	1.04	47.48	-31.2	-32.7	12.6	1.19e-04	0	44	0	503316480	23	4267
2026-01-22 00:48:27.09	0.81	47.78	-30.6	-31.4	13.8	1.52e-05	0	44	0	505413632	22	3972
2026-01-22 00:48:28.09	0.59	48.08	-30.3	-31.2	14.1	7.60e-06	0	44	0	507510784	21	4003
2026-01-22 00:48:29.09	0.36	48.38	-30.8	-32.1	13.2	7.60e-06	0	44	0	508559360	22	4171
2026-01-22 00:48:30.09	0.12	48.68	-30.8	-32.6	13.3	1.14e-05	0	44	0	510656512	21	4409
2026-01-22 00:48:31.09	359.88	48.98	-30.9	-32.7	13.1	2.97e-05	0	44	0	512753664	21	4456
2026-01-22 00:48:32.09	359.64	49.28	-30.6	-31.5	13.7	3.28e-05	0	44	0	514850816	22	3993
2026-01-22 00:48:33.09	359.39	49.59	-30.3	-31.3	14.1	5.30e-06	0	44	0	516947968	21	4023
2026-01-22 00:48:34.09	359.13	49.89	-30.2	-31.4	14.4	7.00e-07	0	44	0	517996544	20	4149
2026-01-22 00:48:35.09	358.87	50.20	-30.5	-31.8	13.5	2.20e-06	0	44	0	520093696	21	4163
2026-01-22 00:48:36.09	358.60	50.51	-30.6	-32.1	13.0	7.00e-07	0	44	0	522190848	21	4268
2026-01-22 00:48:37.09	358.33	50.82	-30.4	-31.4	14.0	2.20e-06	0	44	0	524288000	21	4061
2026-01-22 00:48:38.09	358.05	51.13	-30.2	-31.6	13.4	6.10e-06	0	44	0	526385152	20	4200
2026-01-22 00:48:39.09	357.77	51.45	-30.5	-32.2	13.4	1.50e-06	0	44	0	527433728	20	4408
2026-01-22 00:48:40.09	357.48	51.76	-30.5	-31.7	13.8	0.00e+00	0	44	0	529530880	21	4155
2026-01-22 00:48:41.09	357.18	52.08	-30.4	-32.1	13.8	3.80e-06	0	44	0	531628032	20	4367
2026-01-22 00:48:42.10	356.88	52.40	-30.7	-32.3	13.5	2.20e-06	0	44	0	533725184	21	4307
2026-01-22 00:48:43.10	356.57	52.72	-30.4	-31.4	14.1	9.90e-06	0	44	0	534773760	21	4038
2026-01-22 00:48:44.11	356.25	53.04	-30.0	-30.9	14.7	9.51e-04	0	44	0	536870912	20	3987
2026-01-22 00:48:45.11	355.93	53.36	-30.0	-31.3	14.8	0.00e+00	0	44	0	538968064	19	4205
2026-01-22 00:48:46.11	355.60	53.68	-29.2	-29.4	15.9	0.00e+00	0	44	0	541065216	19	3685
2026-01-22 00:48:47.11	355.26	54.01	-29.4	-30.0	15.6	0.00e+00	0	44	0	543162368	19	3843
2026-01-22 00:48:48.12	354.91	54.33	-29.9	-31.2	14.9	0.00e+00	0	44	0	544210944	19	4165
2026-01-22 00:48:49.12	354.56	54.66	-30.1	-31.3	14.4	0.00e+00	0	44	0	546308096	20	4111
2026-01-22 00:48:50.12	354.19	54.98	-30.0	-30.9	14.7	0.00e+00	0	44	0	548405248	20	3987
2026-01-22 00:48:51.13	353.82	55.31	-29.5	-30.3	15.3	9.66e-04	0	44	0	550502400	19	3918
2026-01-22 00:48:52.13	353.44	55.64	-29.4	-29.8	15.7	0.00e+00	0	44	0	552599552	19	3800
2026-01-22 00:48:53.13	353.05	55.97	-29.7	-30.6	15.2	0.00e+00	0	44	0	553648128	19	4009
2026-01-22 00:48:54.13	352.66	56.30	-30.4	-32.1	13.9	1.49e-03	0	44	0	555745280	20	4355
2026-01-22 00:48:55.14	352.24	56.63	-30.7	-32.4	13.4	9.90e-06	0	44	0	557842432	21	4343
2026-01-22 00:48:56.14	351.83	56.96	-30.6	-32.0	13.6	1.52e-05	0	44	0	559939584	21	4225
2026-01-22 00:48:57.14	351.40	57.29	-30.6	-32.1	13.6	6.10e-06	0	44	0	562036736	21	4269
2026-01-22 00:48:58.15	350.96	57.63	-31.1	-32.9	12.8	2.59e-05	0	44	0	563085312	22	4409
2026-01-22 00:48:59.15	350.51	57.96	-30.8	-32.4	13.4	1.14e-05	0	44	0	565182464	21	4348
2026-01-22 00:49:00.15	350.05	58.29	-30.5	-31.7	13.9	1.52e-05	0	44	0	567279616	21	4130
2026-01-22 00:49:01.16	349.57	58.62	-30.5	-31.7	13.9	5.30e-06	0	44	0	569376768	21	4122
2026-01-22 00:49:02.16	349.08	58.95	-30.4	-31.9	14.0	1.51e-03	0	44	0	571473920	20	4283
2026-01-22 00:49:03.16	348.59	59.28	-30.6	-32.0	13.7	5.30e-06	0	44	0	572522496	21	4235
2026-01-22 00:49:04.16	348.08	59.62	-30.6	-31.9	13.6	1.06e-05	0	44	0	574619648	21	4215
2026-01-22 00:49:05.16	347.55	59.95	-30.5	-31.8	13.8	4.26e-04	0	44	0	576716800	21	4181
2026-01-22 00:49:06.15	347.02	60.27	-30.5	-31.7	14.0	4.95e-05	0	44	0	578813952	21	4141
2026-01-22 00:49:07.16	346.47	60.61	-30.7	-32.2	13.5	4.50e-06	0	44	0	579862528	21	4296
2026-01-22 00:49:08.16	345.90	60.93	-31.1	-32.8	12.9	6.55e-04	0	44	0	581959680	22	4386
2026-01-22 00:49:09.17	345.32	61.27	-31.1	-32.9	12.8	1.08e-03	0	44	0	584056832	22	4419
2026-01-22 00:49:10.17	344.72	61.59	-31.0	-32.4	13.1	3.20e-05	0	44	0	586153984	22	4275
2026-01-22 00:49:11.18	344.10	61.92	-30.7	-32.1	13.6	1.35e-03	0	44	0	588251136	21	4273
2026-01-22 00:49:12.18	343.47	62.25	-30.5	-31.7	13.9	1.35e-03	0	44	0	590348288	21	4132
2026-01-22 00:49:13.18	342.83	62.57	-30.2	-31.0	14.3	7.00e-07	0	44	0	591396864	21	3951
2026-01-22 00:49:14.18	342.16	62.89	-30.0	-31.0	14.7	0.00e+00	0	44	0	593494016	20	4045
2026-01-22 00:49:15.19	341.47	63.21	-29.6	-29.9	15.2	1.88e-04	0	44	0	595591168	20	3737
2026-01-22 00:49:16.19	340.77	63.53	-29.3	-29.7	15.7	0.00e+00	0	44	0	597688320	19	3776
2026-01-22 00:49:17.19	340.05	63.84	-29.4	-29.9	15.7	0.00e+00	0	44	0	598736896	19	3809
2026-01-22 00:49:18.19	339.32	64.16	-29.8	-30.6	14.8	4.49e-04	0	44	0	600834048	20	3917
2026-01-22 00:49:19.20	338.55	64.47	-29.9	-30.7	14.7	0.00e+00	0	44	0	602931200	20	3945
2026-01-22 00:49:20.20	337.77	64.78	-29.5	-29.6	15.4	3.58e-04	0	44	0	605028352	20	3663
2026-01-22 00:49:21.20	336.97	65.08	-29.5	-30.1	15.5	0.00e+00	0	44	0	607125504	19	3871
2026-01-22 00:49:22.20	336.14	65.38	-29.9	-31.2	14.8	0.00e+00	0	44	0	608174080	19	4167
2026-01-22 00:49:23.20	335.29	65.68	-30.8	-32.8	13.1	2.10e-04	0	44	0	610271232	21	4483
2026-01-22 00:49:24.20	334.42	65.97	-31.4	-33.8	12.0	3.90e-04	0	44	0	612368384	22	4757
2026-01-22 00:49:25.20	333.53	66.26	-31.8	-34.5	11.4	1.31e-03	0	44	0	614465536	23	4917
2026-01-22 00:49:26.21	332.60	66.55	-31.9	-34.8	11.1	1.98e-03	0	44	0	616562688	23	5037
2026-01-22 00:49:27.21	331.66	66.83	-32.2	-35.3	10.4	4.87e-03	0	44	0	617611264	24	5181
2026-01-22 00:49:28.22	330.68	67.11	-32.1	-35.0	10.5	7.32e-03	0	44	0	619708416	24	5034
2026-01-22 00:49:29.22	329.69	67.37	-31.9	-34.2	11.0	2.38e-03	0	44	0	621805568	24	4731
2026-01-22 00:49:30.22	328.67	67.64	-31.3	-32.9	12.3	1.13e-03	0	44	0	623902720	23	4340
2026-01-22 00:49:31.23	327.61	67.90	-30.9	-31.8	13.1	1.48e-04	0	44	0	625999872	23	3985
2026-01-22 00:49:32.23	326.54	68.15	-30.3	-30.7	14.1	2.85e-04	0	44	0	627048448	22	3787
2026-01-22 00:49:33.24	325.43	68.40	-30.2	-30.9	14.3	1.83e-04	0	44	0	629145600	21	3916
2026-01-22 00:49:34.24	324.30	68.64	-30.8	-32.6	13.2	6.80e-06	0	44	0	631242752	21	4418
2026-01-22 00:49:35.24	323.15	68.87	-30.9	-32.4	13.1	6.63e-05	0	44	0	633339904	22	4263
2026-01-22 00:49:36.24	321.96	69.09	-30.8	-32.0	13.3	5.11e-05	0	44	0	635437056	22	4147
2026-01-22 00:49:37.24	320.76	69.31	-30.9	-32.2	13.1	4.88e-05	0	44	0	636485632	22	4223
2026-01-22 00:49:38.24	319.52	69.51	-31.6	-34.0	11.8	2.75e-04	0	44	0	638582784	23	4750
2026-01-22 00:49:39.25	318.24	69.71	-31.1	-32.5	12.6	2.36e-04	0	44	0	640679936	23	4197
2026-01-22 00:49:40.25	316.96	69.90	-30.1	-30.6	14.4	9.10e-06	0	44	0	642777088	21	3828
2026-01-22 00:49:41.25	315.64	70.08	-30.4	-31.6	14.0	3.05e-05	0	44	0	643825664	21	4108
2026-01-22 00:49:42.25	314.30	70.25	-31.4	-33.8	12.2	1.34e-04	0	44	0	645922816	22	4749
2026-01-22 00:49:43.26	312.92	70.41	-31.3	-33.1	12.3	2.36e-04	0	44	0	648019968	23	4399
2026-01-22 00:49:44.27	311.52	70.57	-31.2	-32.8	12.5	8.08e-05	0	44	0	650117120	23	4311
2026-01-22 00:49:45.26	310.13	70.70	-31.2	-32.7	12.5	1.93e-04	0	44	0	652214272	23	4278
2026-01-22 00:49:46.27	308.68	70.83	-31.2	-32.6	12.8	8.92e-05	0	44	0	653262848	23	4228
2026-01-22 00:49:47.26	307.25	70.95	-31.8	-34.4	11.4	2.65e-04	0	44	0	655360000	23	4877
2026-01-22 00:49:48.26	305.78	71.05	-32.0	-34.7	10.8	7.84e-04	0	44	0	657457152	24	4912
2026-01-22 00:49:49.27	304.28	71.15	-32.3	-35.5	10.1	6.27e-03	0	44	0	659554304	24	5228
2026-01-22 00:49:50.26	302.79	71.23	-32.9	-37.3	8.4	2.98e-02	0	45	0	661651456	25	6031
2026-01-22 00:49:51.27	301.27	71.30	-32.7	-36.5	8.9	4.91e-02	0	44	0	662700032	25	5592
2026-01-22 00:49:52.27	299.74	71.35	-31.4	-32.7	12.1	8.78e-04	0	44	0	664797184	24	4183
2026-01-22 00:49:53.28	298.19	71.40	-31.1	-32.5	12.7	1.63e-04	0	44	0	666894336	23	4199
2026-01-22 00:49:54.28	296.66	71.43	-31.5	-33.6	12.0	7.72e-04	0	44	0	668991488	23	4571
2026-01-22 00:49:55.27	295.13	71.45	-31.8	-34.6	11.1	1.39e-03	0	44	0	671088640	23	4957
2026-01-22 00:49:56.27	293.58	71.45	-31.7	-34.2	11.5	4.26e-04	0	44	0	672137216	23	4777
2026-01-22 00:49:57.28	292.02	71.45	-31.9	-34.2	11.1	1.58e-03	0	44	0	674234368	24	4717
2026-01-22 00:49:58.28	290.48	71.43	-31.7	-33.7	11.5	1.14e-03	0	44	0	676331520	24	4518
2026-01-22 00:49:59.28	288.94	71.40	-31.4	-32.8	12.1	3.17e-04	0	44	0	678428672	24	4232
2026-01-22 00:50:00.29	287.39	71.35	-31.4	-33.2	12.1	3.66e-04	0	44	0	680525824	23	4435
2026-01-22 00:50:01.30	285.85	71.29	-31.6	-33.9	11.8	4.67e-04	0	44	0	681574400	23	4669
2026-01-22 00:50:02.30	284.34	71.22	-31.5	-33.7	11.6	1.05e-03	0	44	0	683671552	23	4623
2026-01-22 00:50:03.31	282.83	71.14	-31.6	-33.9	11.7	2.77e-04	0	44	0	685768704	23	4692
2026-01-22 00:50:04.30	281.36	71.04	-31.5	-33.7	11.8	5.58e-04	0	44	0	687865856	23	4626
2026-01-22 00:50:05.31	279.88	70.94	-31.5	-33.7	11.9	2.40e-03	0	44	0	688914432	23	4597
2026-01-22 00:50:06.31	278.43	70.82	-31.7	-34.3	11.5	4.42e-04	0	44	0	691011584	23	4843
2026-01-22 00:50:07.32	276.98	70.69	-32.1	-34.9	10.7	1.80e-03	0	44	0	693108736	24	4975
2026-01-22 00:50:08.32	275.58	70.55	-32.1	-35.1	10.5	6.02e-03	0	44	0	695205888	24	5071
2026-01-22 00:50:09.32	274.19	70.40	-31.6	-33.6	11.7	8.44e-04	0	44	0	697303040	24	4491
2026-01-22 00:50:10.32	272.83	70.24	-31.6	-33.2	11.7	5.41e-04	0	44	0	698351616	24	4373
2026-01-22 00:50:11.33	271.48	70.06	-31.4	-33.4	12.0	8.05e-04	0	44	0	700448768	23	4498
2026-01-22 00:50:12.34	270.15	69.88	-31.6	-33.9	11.7	5.04e-04	0	44	0	702545920	23	4664
2026-01-22 00:50:13.33	268.88	69.69	-31.5	-33.6	12.0	7.43e-04	0	44	0	704643072	23	4564
2026-01-22 00:50:14.33	267.62	69.49	-31.2	-32.7	12.4	2.61e-04	0	44	0	706740224	23	4283
2026-01-22 00:50:15.34	266.37	69.28	-31.4	-33.7	12.2	1.26e-04	0	45	0	707788800	22	4699
2026-01-22 00:50:16.34	265.16	69.07	-32.0	-34.7	10.7	2.66e-03	0	45	0	709885952	24	4890
2026-01-22 00:50:17.35	263.97	68.84	-31.6	-33.3	11.9	9.51e-04	0	44	0	711983104	24	4391
2026-01-22 00:50:18.35	262.82	68.61	-31.3	-33.3	12.4	2.32e-04	0	44	0	714080256	22	4579
2026-01-22 00:50:19.36	261.68	68.37	-30.7	-31.8	13.5	1.22e-05	0	44	0	716177408	22	4085
2026-01-22 00:50:20.36	260.59	68.12	-30.5	-31.8	13.7	2.20e-06	0	44	0	717225984	21	4182
2026-01-22 00:50:21.36	259.51	67.87	-30.8	-32.7	13.2	8.30e-06	0	44	0	719323136	21	4465
2026-01-22 00:50:22.37	258.46	67.60	-30.6	-31.5	13.6	2.28e-05	0	44	0	721420288	22	4006
2026-01-22 00:50:23.38	257.43	67.34	-30.8	-32.6	13.2	1.60e-05	0	44	0	723517440	21	4442
2026-01-22 00:50:24.38	256.44	67.07	-31.2	-33.2	12.4	1.01e-04	0	44	0	725614592	22	4540
2026-01-22 00:50:25.38	255.47	66.79	-30.6	-31.6	13.6	5.41e-05	0	44	0	726663168	22	4021
2026-01-22 00:50:26.39	254.52	66.51	-30.2	-31.1	14.2	9.10e-06	0	44	0	728760320	21	3969
2026-01-22 00:50:27.39	253.61	66.22	-30.3	-31.3	14.1	5.30e-06	0	44	0	730857472	21	4027
2026-01-22 00:50:28.40	252.71	65.93	-30.2	-30.9	14.2	2.20e-06	0	44	0	732954624	21	3928
2026-01-22 00:50:29.40	251.84	65.63	-30.3	-31.8	13.9	2.20e-06	0	44	0	735051776	20	4283
2026-01-22 00:50:30.40	251.00	65.34	-30.4	-31.6	13.8	2.20e-06	0	44	0	736100352	21	4112
2026-01-22 00:50:31.40	250.17	65.03	-29.5	-30.1	14.4	3.00e-06	0	44	0	738197504	20	3847
2026-01-22 00:50:32.40	249.37	64.73	-29.2	-30.0	15.4	1.56e-04	0	44	0	740294656	18	3955
2026-01-22 00:50:33.40	248.59	64.42	-29.6	-30.5	14.9	0.00e+00	0	44	0	742391808	19	3984
2026-01-22 00:50:34.41	247.83	64.11	-30.3	-31.8	12.8	7.00e-07	0	44	0	743440384	20	4270
2026-01-22 00:50:35.41	247.09	63.79	-29.8	-30.9	14.3	2.20e-06	0	44	0	745537536	19	4106
2026-01-22 00:50:36.40	246.38	63.48	-29.5	-30.2	15.3	0.00e+00	0	44	0	747634688	19	3909
2026-01-22 00:50:37.40	245.68	63.16	-30.1	-31.2	14.3	0.00e+00	0	44	0	749731840	20	4094
2026-01-22 00:50:38.41	244.99	62.84	-29.6	-30.6	15.1	1.50e-06	0	44	0	751828992	19	4013
2026-01-22 00:50:39.42	244.33	62.51	-29.8	-30.9	14.9	0.00e+00	0	44	0	753926144	19	4091
2026-01-22 00:50:40.42	243.68	62.19	-30.2	-31.6	14.1	3.80e-06	0	44	0	754974720	20	4209
2026-01-22 00:50:41.42	243.05	61.86	-29.7	-30.7	15.0	2.20e-06	0	44	0	757071872	19	4053
2026-01-22 00:50:42.43	242.44	61.54	-29.6	-30.4	15.1	0.00e+00	0	44	0	759169024	19	3972
2026-01-22 00:50:43.43	241.84	61.21	-29.7	-30.6	15.1	1.52e-03	0	45	0	761266176	19	4018
2026-01-22 00:50:44.43	241.26	60.88	-29.3	-30.2	15.6	0.00e+00	0	44	0	762314752	18	4004
2026-01-22 00:50:45.44	240.69	60.55	-29.2	-29.9	15.7	0.00e+00	0	44	0	764411904	18	3930
2026-01-22 00:50:46.44	240.14	60.22	-29.3	-30.3	15.6	5.95e-04	0	44	0	766509056	18	4026
2026-01-22 00:50:47.44	239.61	59.88	-29.9	-31.2	14.8	1.50e-06	0	44	0	768606208	19	4202
2026-01-22 00:50:48.44	239.09	59.55	-29.7	-30.3	14.8	0.00e+00	0	44	0	770703360	20	3854
2026-01-22 00:50:49.44	238.58	59.22	-29.6	-30.4	15.2	0.00e+00	0	44	0	771751936	19	3957
2026-01-22 00:50:50.45	238.08	58.89	-29.7	-30.7	15.1	8.62e-05	0	44	0	773849088	19	4036
2026-01-22 00:50:51.45	237.59	58.55	-30.4	-32.1	13.8	2.20e-06	0	44	0	775946240	20	4370
2026-01-22 00:50:52.45	237.12	58.22	-30.7	-32.5	13.2	2.36e-05	0	44	0	778043392	21	4431
2026-01-22 00:50:53.45	236.66	57.89	-30.5	-31.9	13.5	6.38e-04	0	44	0	780140544	21	4235
2026-01-22 00:50:54.46	236.21	57.55	-30.8	-32.3	13.0	6.79e-05	0	44	0	781189120	22	4252
2026-01-22 00:50:55.45	235.78	57.23	-30.3	-31.4	13.9	6.80e-06	0	44	0	783286272	21	4061
2026-01-22 00:50:56.46	235.35	56.89	-30.4	-32.1	13.6	3.00e-06	0	44	0	785383424	20	4386
2026-01-22 00:50:57.46	234.93	56.56	-30.2	-31.6	14.0	2.20e-06	0	44	0	787480576	20	4220
2026-01-22 00:50:58.46	234.52	56.23	-30.1	-31.3	14.2	0.00e+00	0	44	0	788529152	20	4135
2026-01-22 00:50:59.47	234.12	55.90	-29.8	-30.9	14.9	0.00e+00	0	44	0	790626304	19	4111
2026-01-22 00:51:00.47	233.73	55.57	-29.8	-31.0	14.8	0.00e+00	0	44	0	792723456	19	4134
2026-01-22 00:51:01.47	233.35	55.24	-29.4	-30.1	15.2	9.97e-04	0	44	0	794820608	19	3882
2026-01-22 00:51:02.47	232.99	54.91	-29.2	-30.0	15.7	0.00e+00	0	44	0	796917760	18	3947
2026-01-22 00:51:03.47	232.62	54.59	-29.0	-29.5	15.9	0.00e+00	0	44	0	797966336	18	3817
2026-01-22 00:51:04.47	232.27	54.26	-29.0	-29.5	15.9	2.07e-04	0	44	0	800063488	18	3817
2026-01-22 00:51:05.47	231.93	53.93	-28.8	-29.2	16.2	2.56e-04	0	44	0	802160640	18	3744
2026-01-22 00:51:06.47	231.59	53.61	-29.8	-31.0	14.8	0.00e+00	0	44	0	804257792	19	4142
2026-01-22 00:51:07.47	231.26	53.29	-30.6	-32.1	13.4	9.48e-04	0	44	0	806354944	21	4304
2026-01-22 00:51:08.47	230.93	52.97	-30.2	-31.2	13.9	1.26e-03	0	44	0	807403520	21	4041
2026-01-22 00:51:09.47	230.62	52.65	-29.2	-29.6	15.5	0.00e+00	0	44	0	809500672	19	3768
2026-01-22 00:51:10.48	230.31	52.32	-28.9	-30.1	15.2	8.52e-04	0	44	0	811597824	18	4138
2026-01-22 00:51:11.49	230.00	52.00	-30.0	-31.2	14.0	6.14e-04	0	44	0	813694976	20	4118
2026-01-22 00:51:12.49	229.71	51.69	-30.3	-32.0	13.7	5.30e-06	0	45	0	815792128	20	4367
2026-01-22 00:51:13.49	229.42	51.37	-30.5	-32.4	13.4	3.73e-04	0	44	0	816840704	20	4480
2026-01-22 00:51:14.49	229.13	51.06	-30.6	-32.3	13.2	1.57e-04	0	44	0	818937856	21	4355
2026-01-22 00:51:15.49	228.86	50.74	-31.3	-33.8	11.8	9.00e-05	0	44	0	821035008	22	4788
2026-01-22 00:51:16.50	228.58	50.43	-31.8	-34.6	10.8	1.14e-03	0	44	0	823132160	23	5022
2026-01-22 00:51:17.50	228.32	50.12	-31.6	-34.1	11.3	1.74e-03	0	44	0	825229312	23	4823
2026-01-22 00:51:18.51	228.05	49.81	-31.4	-33.4	11.8	5.94e-04	0	44	0	826277888	23	4554
2026-01-22 00:51:19.51	227.80	49.50	-31.2	-32.8	12.0	5.75e-04	0	44	0	828375040	23	4348
2026-01-22 00:51:20.51	227.55	49.19	-30.7	-32.0	13.1	3.06e-04	0	44	0	830472192	22	4174
2026-01-22 00:51:21.51	227.30	48.89	-29.6	-30.2	14.7	1.50e-06	0	44	0	832569344	20	3825
2026-01-22 00:51:22.52	227.06	48.58	-29.0	-29.0	15.8	4.50e-06	0	44	0	833617920	19	3615
2026-01-22 00:51:23.51	226.83	48.29	-29.0	-29.1	15.8	3.80e-06	0	44	0	835715072	19	3635
2026-01-22 00:51:24.52	226.59	47.98	-29.0	-29.1	15.9	0.00e+00	0	44	0	837812224	19	3626
2026-01-22 00:51:25.52	226.37	47.68	-28.9	-28.9	15.9	1.50e-06	0	44	0	839909376	19	3577
2026-01-22 00:51:26.53	226.14	47.39	-29.0	-29.6	15.9	1.67e-05	0	44	0	842006528	18	3852
2026-01-22 00:51:27.54	225.92	47.09	-29.1	-29.8	15.7	0.00e+00	0	44	0	844103680	18	3909
2026-01-22 00:51:28.54	225.71	46.79	-29.9	-31.2	14.6	4.95e-05	0	45	0	845152256	19	4211
2026-01-22 00:51:29.54	225.50	46.50	-30.0	-31.1	14.1	1.22e-05	0	45	0	847249408	20	4095
2026-01-22 00:51:30.55	225.29	46.21	-29.6	-30.2	14.9	7.00e-07	0	44	0	849346560	20	3823
2026-01-22 00:51:31.56	225.09	45.92	-29.7	-30.3	14.7	0.00e+00	0	44	0	851443712	20	3871
2026-01-22 00:51:32.57	224.89	45.63	-30.4	-32.1	13.6	1.50e-06	0	44	0	852492288	20	4399
2026-01-22 00:51:33.57	224.69	45.34	-31.3	-33.7	11.8	5.60e-04	0	44	0	854589440	22	4741
2026-01-22 00:51:34.58	224.50	45.06	-31.5	-33.8	11.3	1.20e-03	0	44	0	856686592	23	4689
2026-01-22 00:51:35.58	224.31	44.78	-31.5	-34.0	11.2	1.09e-03	0	44	0	858783744	23	4752
2026-01-22 00:51:36.58	224.13	44.50	-31.5	-33.9	11.4	6.75e-04	0	44	0	860880896	23	4720
2026-01-22 00:51:37.58	223.95	44.22	-31.6	-34.2	11.2	1.31e-03	0	44	0	861929472	23	4837
2026-01-22 00:51:38.58	223.77	43.94	-31.5	-33.7	11.5	1.45e-03	0	44	0	864026624	23	4678
2026-01-22 00:51:39.58	223.60	43.67	-31.3	-33.2	11.8	9.48e-04	0	44	0	866123776	23	4504
2026-01-22 00:51:40.59	223.42	43.39	-31.4	-33.7	11.6	7.96e-04	0	44	0	868220928	23	4648
2026-01-22 00:51:41.59	223.25	43.12	-31.9	-35.1	10.5	3.14e-03	0	44	0	870318080	23	5200
2026-01-22 00:51:42.59	223.09	42.85	-31.5	-33.9	11.4	1.24e-03	0	44	0	871366656	23	4745
2026-01-22 00:51:43.60	222.92	42.58	-32.0	-34.8	10.5	1.64e-03	0	44	0	873463808	24	5015
2026-01-22 00:51:44.61	222.76	42.31	-32.1	-35.3	9.9	6.98e-03	0	44	0	875560960	24	5221
2026-01-22 00:51:45.61	222.60	42.04	-32.2	-35.8	9.6	8.65e-03	0	44	0	877658112	24	5437
2026-01-22 00:51:46.61	222.45	41.78	-32.3	-36.2	9.3	1.85e-02	0	44	0	879755264	24	5633
2026-01-22 00:51:47.62	222.29	41.51	-32.6	-36.9	8.3	4.78e-02	0	44	0	880803840	25	5906
2026-01-22 00:51:48.63	222.14	41.25	-32.4	-35.9	9.1	2.72e-02	0	44	0	882900992	25	5404
2026-01-22 00:51:49.63	221.99	40.99	-32.1	-34.8	9.9	7.59e-03	0	44	0	884998144	25	4915
2026-01-22 00:51:50.64	221.85	40.73	-31.5	-33.3	11.4	1.12e-03	0	44	0	887095296	24	4451
2026-01-22 00:51:51.64	221.71	40.48	-31.7	-34.1	10.9	6.61e-04	0	44	0	889192448	24	4716
2026-01-22 00:51:52.65	221.56	40.22	-31.4	-33.1	11.6	2.08e-03	0	44	0	890241024	24	4364
2026-01-22 00:51:53.64	221.43	39.97	-31.0	-32.5	12.3	4.15e-04	0	44	0	892338176	23	4247
2026-01-22 00:51:54.65	221.29	39.72	-31.2	-33.0	12.0	2.14e-04	0	44	0	894435328	23	4408
2026-01-22 00:51:55.64	221.16	39.47	-31.3	-33.3	11.8	2.94e-04	0	44	0	896532480	23	4519
2026-01-22 00:51:56.65	221.02	39.22	-31.7	-34.3	11.1	6.58e-04	0	44	0	898629632	23	4909
2026-01-22 00:51:57.65	220.89	38.98	-31.6	-34.2	11.1	1.26e-03	0	44	0	899678208	23	4857
2026-01-22 00:51:58.66	220.76	38.73	-31.6	-34.2	11.0	1.67e-03	0	44	0	901775360	23	4844
2026-01-22 00:51:59.66	220.64	38.49	-31.1	-32.6	12.2	8.73e-04	0	45	0	903872512	23	4274
2026-01-22 00:52:00.66	220.51	38.25	-31.2	-32.9	12.1	2.70e-04	0	44	0	905969664	23	4398
2026-01-22 00:52:01.66	220.39	38.01	-31.0	-32.3	12.4	2.14e-04	0	44	0	907018240	23	4192
2026-01-22 00:52:02.67	220.27	37.77	-31.4	-33.5	11.6	5.11e-04	0	44	0	909115392	23	4595
2026-01-22 00:52:03.67	220.15	37.53	-30.7	-31.9	13.1	3.01e-04	0	44	0	911212544	22	4142
2026-01-22 00:52:04.67	220.03	37.30	-30.5	-31.3	13.4	1.18e-04	0	44	0	913309696	22	3978
2026-01-22 00:52:05.68	219.92	37.06	-30.3	-31.4	13.6	1.58e-04	0	44	0	915406848	21	4101
2026-01-22 00:52:06.68	219.81	36.83	-30.2	-31.3	13.7	8.30e-06	0	44	0	917504000	21	4048
2026-01-22 00:52:07.68	219.69	36.60	-30.0	-30.6	14.1	1.43e-04	0	44	0	918552576	21	3871
2026-01-22 00:52:08.69	219.58	36.37	-30.5	-31.8	13.4	1.56e-04	0	44	0	920649728	21	4221
2026-01-22 00:52:09.69	219.47	36.14	-30.4	-31.7	13.5	2.05e-05	0	44	0	922746880	21	4191
2026-01-22 00:52:10.69	219.37	35.91	-30.0	-30.8	14.1	9.10e-06	0	44	0	924844032	21	3910
2026-01-22 00:52:11.70	219.26	35.69	-29.7	-30.3	14.7	1.40e-04	0	44	0	925892608	20	3881
2026-01-22 00:52:12.70	219.16	35.46	-29.6	-30.0	14.8	7.00e-07	0	44	0	927989760	20	3787
2026-01-22 00:52:13.70	219.05	35.24	-29.7	-30.9	14.7	3.73e-05	0	44	0	930086912	19	4108
2026-01-22 00:52:14.70	218.95	35.02	-29.5	-30.4	15.0	3.73e-05	0	44	0	932184064	19	3984
2026-01-22 00:52:15.70	218.85	34.80	-29.9	-31.3	14.4	2.20e-06	0	44	0	934281216	19	4246
2026-01-22 00:52:16.71	218.75	34.58	-30.3	-31.9	13.7	1.20e-04	0	44	0	935329792	20	4339
2026-01-22 00:52:17.72	218.65	34.37	-30.9	-33.2	12.4	2.51e-05	0	44	0	937426944	21	4680
2026-01-22 00:52:18.72	218.56	34.15	-31.5	-34.4	11.3	4.90e-04	0	44	0	939524096	22	5007
2026-01-22 00:52:19.73	218.46	33.94	-31.5	-34.0	11.2	1.23e-03	0	44	0	941621248	23	4765
2026-01-22 00:52:20.73	218.37	33.72	-31.4	-33.5	11.6	1.50e-03	0	44	0	943718400	23	4581
2026-01-22 00:52:21.73	218.28	33.51	-31.1	-32.7	12.2	1.84e-04	0	44	0	944766976	23	4333
2026-01-22 00:52:22.74	218.19	33.30	-31.0	-32.7	12.4	3.65e-04	0	44	0	946864128	22	4417
2026-01-22 00:52:23.73	218.10	33.10	-31.0	-32.9	12.4	2.89e-04	0	44	0	948961280	22	4471
2026-01-22 00:52:24.73	218.01	32.89	-31.2	-33.5	11.9	2.85e-04	0	44	0	951058432	22	4685
2026-01-22 00:52:25.73	217.92	32.69	-31.2	-33.5	11.9	5.61e-04	0	44	0	953155584	22	4675
2026-01-22 00:52:26.73	217.84	32.48	-31.1	-33.3	12.0	6.96e-04	0	44	0	954204160	22	4621
2026-01-22 00:52:27.73	217.75	32.28	-31.0	-32.8	12.4	6.27e-04	0	44	0	956301312	22	4440
2026-01-22 00:52:28.74	217.67	32.08	-30.7	-32.1	12.8	1.08e-04	0	44	0	958398464	22	4209
2026-01-22 00:52:29.73	217.58	31.88	-30.6	-31.7	13.1	4.95e-05	0	44	0	960495616	22	4101
2026-01-22 00:52:30.74	217.50	31.68	-30.6	-32.4	13.0	3.05e-05	0	45	0	962592768	21	4399
2026-01-22 00:52:31.74	217.42	31.48	-30.6	-32.3	13.0	3.56e-04	0	44	0	963641344	21	4362
2026-01-22 00:52:32.74	217.34	31.29	-30.9	-33.2	12.5	7.85e-05	0	45	0	965738496	21	4675
2026-01-22 00:52:33.74	217.26	31.09	-31.1	-33.3	12.0	3.17e-04	0	44	0	967835648	22	4605
2026-01-22 00:52:34.75	217.18	30.90	-31.6	-34.3	11.0	5.40e-04	0	45	0	969932800	23	4915
2026-01-22 00:52:35.76	217.11	30.70	-31.5	-34.1	11.1	2.18e-03	0	45	0	970981376	23	4808
2026-01-22 00:52:36.76	217.03	30.51	-31.7	-34.6	10.7	1.92e-03	0	44	0	973078528	23	5035
2026-01-22 00:52:37.76	216.95	30.32	-31.7	-34.6	10.7	1.78e-03	0	44	0	975175680	23	5040
2026-01-22 00:52:38.77	216.88	30.13	-31.6	-34.4	10.8	2.41e-03	0	44	0	977272832	23	4951
2026-01-22 00:52:39.78	216.81	29.94	-31.8	-34.9	10.5	2.63e-03	0	44	0	979369984	23	5151
2026-01-22 00:52:40.78	216.73	29.75	-31.8	-35.1	10.4	3.90e-03	0	44	0	981467136	23	5227
2026-01-22 00:52:41.79	216.66	29.57	-31.8	-35.1	10.4	3.75e-03	0	44	0	982515712	23	5208
2026-01-22 00:52:42.79	216.59	29.38	-31.9	-35.2	10.2	8.71e-03	0	44	0	984612864	23	5292
2026-01-22 00:52:43.80	216.52	29.20	-31.9	-35.3	10.2	5.50e-03	0	45	0	986710016	23	5315
2026-01-22 00:52:44.79	216.45	29.02	-32.2	-35.8	9.4	7.54e-03	0	44	0	988807168	24	5483
2026-01-22 00:52:45.80	216.38	28.84	-32.3	-36.4	9.0	2.74e-02	0	44	0	989855744	24	5760
2026-01-22 00:52:46.80	216.32	28.66	-32.3	-36.3	9.2	2.95e-02	0	44	0	991952896	24	5703
2026-01-22 00:52:47.80	216.25	28.48	-32.1	-35.4	9.7	1.44e-02	0	45	0	994050048	24	5280
2026-01-22 00:52:48.80	216.18	28.30	-31.9	-35.5	10.1	8.68e-03	0	45	0	996147200	23	5409
2026-01-22 00:52:49.81	216.12	28.12	-31.8	-35.1	10.3	9.36e-03	0	44	0	998244352	23	5245
2026-01-22 00:52:50.82	216.05	27.95	-31.9	-35.1	9.9	5.87e-03	0	45	0	999292928	24	5151
2026-01-22 00:52:51.82	215.99	27.77	-32.0	-35.4	9.7	1.34e-02	0	44	0	1001390080	24	5284
2026-01-22 00:52:52.83	215.93	27.60	-32.0	-35.6	10.2	1.08e-02	0	44	0	1003487232	23	5448
2026-01-22 00:52:53.84	215.86	27.42	-31.7	-34.7	10.5	3.66e-03	0	44	0	1005584384	23	5090
2026-01-22 00:52:54.84	215.80	27.25	-31.7	-34.7	10.6	2.78e-03	0	44	0	1007681536	23	5070
2026-01-22 00:52:55.85	215.74	27.08	-31.6	-34.4	10.9	5.07e-03	0	44	0	1008730112	23	4944
2026-01-22 00:52:56.85	215.68	26.91	-31.6	-34.4	10.8	3.61e-03	0	44	0	1010827264	23	4979
2026-01-22 00:52:57.86	215.62	26.74	-31.4	-33.7	11.3	2.38e-03	0	44	0	1012924416	23	4718
2026-01-22 00:52:58.86	215.56	26.58	-31.5	-34.4	11.2	3.63e-03	0	44	0	1015021568	22	5069
2026-01-22 00:52:59.86	215.50	26.41	-31.3	-33.4	11.4	1.09e-03	0	44	0	1017118720	23	4609
2026-01-22 00:53:00.86	215.45	26.25	-30.9	-32.7	12.2	3.16e-03	0	44	0	1018167296	22	4446
2026-01-22 00:53:01.85	215.39	26.08	-30.6	-32.3	12.9	6.14e-04	0	45	0	1020264448	21	4398
2026-01-22 00:53:02.86	215.33	25.92	-30.5	-32.1	13.0	1.31e-04	0	45	0	1022361600	21	4329
2026-01-22 00:53:03.86	215.28	25.76	-30.4	-32.2	13.3	2.33e-03	0	44	0	1024458752	20	4460
2026-01-22 00:53:04.87	215.22	25.59	-30.2	-31.8	13.6	2.58e-03	0	44	0	1026555904	20	4326
2026-01-22 00:53:05.87	215.17	25.43	-30.4	-32.2	13.2	1.26e-04	0	44	0	1027604480	20	4461
2026-01-22 00:53:06.87	215.11	25.27	-30.2	-31.9	13.4	1.97e-03	0	44	0	1029701632	20	4370
2026-01-22 00:53:07.88	215.06	25.11	-30.4	-32.3	13.2	2.45e-03	0	44	0	1031798784	20	4468
2026-01-22 00:53:08.88	215.01	24.96	-30.5	-32.3	13.0	1.08e-04	0	44	0	1033895936	21	4387
2026-01-22 00:53:09.89	214.95	24.80	-30.6	-32.5	12.8	1.75e-03	0	45	0	1035993088	21	4447
2026-01-22 00:53:10.88	214.90	24.64	-30.8	-33.0	12.4	2.09e-03	0	45	0	1037041664	21	4631
2026-01-22 00:53:11.89	214.85	24.49	-31.2	-33.6	11.7	8.08e-04	0	45	0	1039138816	22	4741
2026-01-22 00:53:12.89	214.80	24.33	-31.4	-34.3	11.2	2.66e-03	0	44	0	1041235968	22	5013
2026-01-22 00:53:13.89	214.75	24.18	-31.6	-34.4	10.7	3.10e-03	0	44	0	1043333120	23	4981
2026-01-22 00:53:14.90	214.70	24.03	-31.8	-35.0	10.2	5.08e-03	0	44	0	1044381696	23	5249
2026-01-22 00:53:15.90	214.65	23.88	-31.7	-34.7	10.5	5.04e-03	0	44	0	1046478848	23	5096
2026-01-22 00:53:16.91	214.60	23.73	-31.8	-35.1	10.0	6.22e-03	0	45	0	1048576000	23	5284
2026-01-22 00:53:17.91	214.55	23.58	-31.7	-34.8	10.3	6.52e-03	0	44	0	1050673152	23	5162
2026-01-22 00:53:18.91	214.51	23.43	-31.6	-34.6	10.6	3.36e-03	0	44	0	1052770304	23	5048
2026-01-22 00:53:19.91	214.46	23.28	-31.4	-34.3	11.1	3.52e-03	0	44	0	1053818880	22	5049
2026-01-22 00:53:20.92	214.41	23.13	-31.4	-34.3	11.1	1.20e-03	0	44	0	1055916032	22	5017
2026-01-22 00:53:21.93	214.37	22.98	-31.3	-34.1	11.2	2.81e-03	0	44	0	1058013184	22	4956
2026-01-22 00:53:22.92	214.32	22.84	-31.3	-33.9	11.4	9.13e-04	0	45	0	1060110336	22	4871
2026-01-22 00:53:23.93	214.27	22.69	-31.5	-34.6	10.9	1.49e-03	0	44	0	1062207488	22	5140
2026-01-22 00:53:24.93	214.23	22.55	-31.2	-33.2	11.5	3.80e-03	0	45	0	1063256064	23	4552
2026-01-22 00:53:25.94	214.18	22.41	-31.0	-33.1	11.9	5.09e-04	0	44	0	1065353216	22	4595
2026-01-22 00:53:26.94	214.14	22.26	-31.2	-33.6	11.6	7.51e-04	0	44	0	1067450368	22	4751
2026-01-22 00:53:27.94	214.10	22.12	-31.2	-33.7	11.5	2.72e-03	0	45	0	1069547520	22	4798
2026-01-22 00:53:28.94	214.05	21.98	-31.2	-33.8	11.5	9.05e-04	0	44	0	1071644672	22	4842
2026-01-22 00:53:29.94	214.01	21.84	-31.4	-34.2	11.1	1.34e-03	0	44	0	1072693248	22	5019
2026-01-22 00:53:30.95	213.97	21.70	-31.1	-33.5	11.6	3.34e-03	0	45	0	1074790400	22	4755
2026-01-22 00:53:31.95	213.93	21.56	-31.2	-33.8	11.4	2.82e-03	0	44	0	1076887552	22	4839
2026-01-22 00:53:32.94	213.89	21.43	-31.1	-33.5	11.6	7.15e-04	0	44	0	1078984704	22	4740
2026-01-22 00:53:33.95	213.84	21.29	-31.3	-34.2	11.1	1.37e-03	0	45	0	1081081856	22	5002
2026-01-22 00:53:34.95	213.80	21.15	-31.2	-33.7	11.4	3.15e-03	0	44	0	1082130432	22	4826
2026-01-22 00:53:35.95	213.76	21.02	-31.2	-33.8	11.4	8.26e-04	0	44	0	1084227584	22	4848
2026-01-22 00:53:36.95	213.72	20.88	-31.0	-33.2	11.8	7.67e-04	0	44	0	1086324736	22	4630
2026-01-22 00:53:37.95	213.68	20.75	-30.7	-32.9	12.3	2.10e-03	0	44	0	1088421888	21	4610
2026-01-22 00:53:38.95	213.64	20.61	-30.8	-33.1	12.1	2.42e-04	0	44	0	1089470464	21	4688
2026-01-22 00:53:39.95	213.61	20.48	-30.8	-33.0	12.2	1.87e-04	0	44	0	1091567616	21	4658
2026-01-22 00:53:40.94	213.57	20.35	-30.8	-33.0	12.1	1.88e-04	0	45	0	1093664768	21	4675
2026-01-22 00:53:41.94	213.53	20.22	-30.7	-32.8	12.3	2.22e-04	0	45	0	1095761920	21	4602
2026-01-22 00:53:42.94	213.49	20.09	-30.7	-32.8	12.3	1.55e-04	0	45	0	1097859072	21	4599
2026-01-22 00:53:43.95	213.45	19.96	-30.6	-32.5	12.5	1.88e-04	0	45	0	1098907648	21	4475
2026-01-22 00:53:44.95	213.42	19.83	-30.6	-32.5	12.5	1.36e-04	0	45	0	1101004800	21	4495
2026-01-22 00:53:45.95	213.38	19.70	-30.6	-32.6	12.5	2.17e-03	0	45	0	1103101952	21	4512
2026-01-22 00:53:46.95	213.34	19.57	-30.6	-32.6	12.4	8.62e-05	0	45	0	1105199104	21	4522
2026-01-22 00:53:47.95	213.31	19.44	-30.5	-32.3	12.6	8.01e-05	0	44	0	1107296256	21	4420
2026-01-22 00:53:48.95	213.27	19.32	-30.6	-32.7	12.4	1.89e-03	0	45	0	1108344832	21	4550
2026-01-22 00:53:49.95	213.24	19.19	-30.4	-32.1	12.8	8.62e-05	0	44	0	1110441984	21	4343
2026-01-22 00:53:50.96	213.20	19.06	-30.4	-31.9	12.9	6.17e-05	0	44	0	1112539136	21	4279
2026-01-22 00:53:51.96	213.17	18.94	-30.3	-32.2	13.0	4.04e-05	0	44	0	1114636288	20	4481
2026-01-22 00:53:52.96	213.13	18.81	-30.3	-32.3	13.0	1.77e-03	0	44	0	1116733440	20	4497
2026-01-22 00:53:53.97	213.10	18.69	-30.4	-32.4	12.9	4.11e-05	0	44	0	1117782016	20	4536
2026-01-22 00:53:54.97	213.06	18.57	-30.2	-31.8	13.3	3.35e-05	0	44	0	1119879168	20	4350
2026-01-22 00:53:55.97	213.03	18.44	-30.3	-32.1	13.1	2.05e-05	0	44	0	1121976320	20	4440
2026-01-22 00:53:56.97	213.00	18.32	-30.3	-32.1	13.1	2.59e-05	0	45	0	1124073472	20	4463
2026-01-22 00:53:57.98	212.96	18.20	-30.3	-32.3	12.9	2.21e-05	0	44	0	1126170624	20	4515
2026-01-22 00:53:58.98	212.93	18.08	-30.5	-32.6	12.7	5.95e-05	0	44	0	1127219200	20	4635
2026-01-22 00:53:59.99	212.90	17.96	-30.5	-32.3	12.6	7.62e-05	0	45	0	1129316352	21	4432
2026-01-22 00:54:01.00	212.86	17.84	-30.5	-32.4	12.5	9.46e-05	0	45	0	1131413504	21	4469
2026-01-22 00:54:02.00	212.83	17.72	-30.6	-32.5	12.4	1.23e-04	0	45	0	1133510656	21	4513
2026-01-22 00:54:03.00	212.80	17.60	-30.5	-32.4	12.5	1.19e-04	0	44	0	1134559232	21	4471
2026-01-22 00:54:04.00	212.77	17.48	-30.9	-33.5	11.7	3.34e-04	0	44	0	1136656384	21	4844
2026-01-22 00:54:05.00	212.74	17.36	-30.9	-33.6	11.6	6.17e-04	0	45	0	1138753536	21	4898
2026-01-22 00:54:06.00	212.71	17.25	-31.1	-33.5	11.3	6.58e-04	0	44	0	1140850688	22	4766
2026-01-22 00:54:07.00	212.68	17.13	-31.0	-33.5	11.4	9.97e-04	0	44	0	1142947840	22	4757
2026-01-22 00:54:08.00	212.65	17.02	-31.2	-33.9	11.1	1.22e-03	0	45	0	1143996416	22	4902
2026-01-22 00:54:09.00	212.62	16.90	-30.9	-33.1	11.6	1.29e-03	0	44	0	1146093568	22	4627
2026-01-22 00:54:10.01	212.59	16.79	-30.9	-33.6	11.6	7.06e-04	0	44	0	1148190720	21	4883
2026-01-22 00:54:11.01	212.56	16.67	-31.1	-33.6	11.3	1.09e-03	0	45	0	1150287872	22	4795
2026-01-22 00:54:12.01	212.53	16.56	-31.0	-33.4	11.3	9.47e-04	0	44	0	1152385024	22	4755
2026-01-22 00:54:13.01	212.50	16.44	-31.0	-33.4	11.4	9.07e-04	0	45	0	1153433600	22	4751
2026-01-22 00:54:14.02	212.47	16.33	-31.2	-33.9	11.1	1.76e-03	0	44	0	1155530752	22	4912
2026-01-22 00:54:15.02	212.44	16.22	-30.9	-33.1	11.6	1.06e-03	0	44	0	1157627904	22	4642
2026-01-22 00:54:16.02	212.41	16.11	-30.8	-33.3	11.6	5.82e-04	0	44	0	1159725056	21	4799
2026-01-22 00:54:17.02	212.38	16.00	-30.8	-33.3	11.7	5.14e-04	0	44	0	1161822208	21	4815
2026-01-22 00:54:18.03	212.36	15.88	-30.7	-33.1	11.9	5.23e-04	0	44	0	1162870784	21	4720
2026-01-22 00:54:19.03	212.33	15.77	-30.7	-33.0	11.9	3.81e-04	0	44	0	1164967936	21	4696
2026-01-22 00:54:20.03	212.30	15.67	-30.9	-33.5	11.7	4.30e-04	0	45	0	1167065088	21	4856
2026-01-22 00:54:21.04	212.27	15.56	-30.8	-33.3	11.7	5.98e-04	0	44	0	1169162240	21	4785
2026-01-22 00:54:22.04	212.25	15.45	-31.0	-33.8	11.4	8.38e-04	0	45	0	1171259392	21	4997
2026-01-22 00:54:23.04	212.22	15.34	-30.8	-33.3	11.7	6.56e-04	0	44	0	1172307968	21	4791
2026-01-22 00:54:24.04	212.19	15.23	-30.8	-33.2	11.8	1.01e-03	0	44	0	1174405120	21	4749
2026-01-22 00:54:25.04	212.17	15.12	-30.9	-33.7	11.4	7.06e-04	0	44	0	1176502272	21	4970
2026-01-22 00:54:26.04	212.14	15.02	-31.0	-33.4	11.3	8.05e-04	0	45	0	1178599424	22	4753
2026-01-22 00:54:27.04	212.11	14.91	-31.1	-33.7	11.1	1.02e-03	0	44	0	1179648000	22	4872
2026-01-22 00:54:28.04	212.09	14.81	-31.2	-34.0	10.8	2.49e-03	0	44	0	1181745152	22	4996
2026-01-22 00:54:29.04	212.06	14.70	-31.2	-34.1	10.7	3.32e-03	0	44	0	1183842304	22	5042
2026-01-22 00:54:30.05	212.04	14.59	-31.3	-34.5	10.4	3.71e-03	0	44	0	1185939456	22	5181
2026-01-22 00:54:31.05	212.01	14.49	-31.4	-34.8	10.2	6.65e-03	0	45	0	1188036608	22	5332
2026-01-22 00:54:32.05	211.99	14.39	-31.3	-34.3	10.5	4.89e-03	0	44	0	1189085184	22	5129
2026-01-22 00:54:33.06	211.96	14.28	-31.3	-34.6	10.3	4.94e-03	0	44	0	1191182336	22	5254
2026-01-22 00:54:34.06	211.94	14.18	-31.5	-34.6	9.9	9.30e-03	0	45	0	1193279488	23	5162
2026-01-22 00:54:35.06	211.91	14.08	-31.5	-34.8	9.8	9.96e-03	0	44	0	1195376640	23	5238
2026-01-22 00:54:36.06	211.89	13.97	-31.6	-34.9	9.7	1.15e-02	0	44	0	1197473792	23	5281
2026-01-22 00:54:37.06	211.86	13.87	-31.6	-35.0	9.7	1.27e-02	0	45	0	1198522368	23	5341
2026-01-22 00:54:38.06	211.84	13.77	-31.7	-35.4	9.4	1.35e-02	0	44	0	1200619520	23	5494
2026-01-22 00:54:39.06	211.82	13.67	-31.7	-35.3	9.5	1.22e-02	0	44	0	1202716672	23	5453
2026-01-22 00:54:40.06	211.79	13.57	-31.5	-34.8	9.8	1.01e-02	0	44	0	1204813824	23	5231
2026-01-22 00:54:41.06	211.77	13.47	-31.5	-34.6	9.9	8.55e-03	0	44	0	1206910976	23	5157
2026-01-22 00:54:42.05	211.75	13.37	-31.5	-35.1	9.9	8.98e-03	0	44	0	1207959552	22	5480
2026-01-22 00:54:43.05	211.72	13.27	-31.4	-34.8	10.1	8.22e-03	0	45	0	1210056704	22	5348
2026-01-22 00:54:44.05	211.70	13.17	-31.2	-34.4	10.5	5.36e-03	0	45	0	1212153856	22	5153
2026-01-22 00:54:45.06	211.68	13.07	-31.2	-34.2	10.6	4.07e-03	0	45	0	1214251008	22	5066
2026-01-22 00:54:46.06	211.66	12.97	-31.2	-34.1	10.6	3.22e-03	0	44	0	1215299584	22	5039
2026-01-22 00:54:47.07	211.63	12.88	-31.0	-33.7	10.9	2.28e-03	0	45	0	1217396736	22	4873
2026-01-22 00:54:48.07	211.61	12.78	-30.8	-33.0	11.4	1.67e-03	0	45	0	1219493888	22	4622
2026-01-22 00:54:49.08	211.59	12.68	-30.7	-33.3	11.6	1.21e-03	0	44	0	1221591040	21	4808
2026-01-22 00:54:50.09	211.57	12.58	-30.7	-33.0	11.7	7.78e-04	0	44	0	1223688192	21	4725
2026-01-22 00:54:51.09	211.55	12.49	-30.7	-33.3	11.5	9.18e-04	0	44	0	1224736768	21	4832
2026-01-22 00:54:52.10	211.52	12.39	-30.8	-33.5	11.3	1.17e-03	0	44	0	1226833920	21	4908
2026-01-22 00:54:53.09	211.50	12.29	-30.6	-32.9	11.7	8.06e-04	0	45	0	1228931072	21	4689
2026-01-22 00:54:54.09	211.48	12.20	-30.5	-32.5	12.1	3.92e-04	0	44	0	1231028224	21	4538
2026-01-22 00:54:55.09	211.46	12.11	-30.6	-32.8	11.9	3.27e-04	0	44	0	1233125376	21	4636
2026-01-22 00:54:56.10	211.44	12.01	-30.7	-33.1	11.6	5.81e-04	0	45	0	1234173952	21	4762
2026-01-22 00:54:57.10	211.42	11.92	-30.4	-32.4	12.1	4.29e-04	0	44	0	1236271104	21	4503
2026-01-22 00:54:58.10	211.40	11.82	-30.4	-32.3	12.2	2.08e-04	0	45	0	1238368256	21	4461
2026-01-22 00:54:59.10	211.38	11.73	-30.5	-32.7	11.9	2.73e-04	0	44	0	1240465408	21	4609
2026-01-22 00:55:00.10	211.36	11.64	-30.4	-32.2	12.2	2.03e-04	0	44	0	1242562560	21	4442
2026-01-22 00:55:01.10	211.34	11.54	-30.3	-31.9	12.4	1.56e-04	0	45	0	1243611136	21	4345
2026-01-22 00:55:02.10	211.32	11.45	-30.2	-31.8	12.5	1.29e-04	0	44	0	1245708288	21	4313
2026-01-22 00:55:03.10	211.30	11.36	-30.2	-31.7	12.5	1.24e-04	0	44	0	1247805440	21	4301
2026-01-22 00:55:04.10	211.28	11.27	-30.4	-32.3	12.1	1.61e-04	0	44	0	1249902592	21	4488
2026-01-22 00:55:05.10	211.26	11.18	-30.2	-31.8	12.4	1.66e-04	0	44	0	1251999744	21	4318
2026-01-22 00:55:06.11	211.24	11.08	-30.2	-31.7	12.5	1.34e-04	0	44	0	1253048320	21	4285
2026-01-22 00:55:07.12	211.22	10.99	-30.3	-32.0	12.3	1.20e-04	0	44	0	1255145472	21	4374
2026-01-22 00:55:08.12	211.20	10.90	-30.2	-31.7	12.5	1.09e-04	0	44	0	1257242624	21	4270
2026-01-22 00:55:09.12	211.18	10.81	-30.3	-32.0	12.2	1.73e-04	0	44	0	1259339776	21	4395
2026-01-22 00:55:10.13	211.16	10.72	-30.3	-32.1	12.2	2.11e-04	0	44	0	1261436928	21	4418
2026-01-22 00:55:11.13	211.14	10.63	-30.3	-32.0	12.2	1.78e-04	0	44	0	1262485504	21	4400
2026-01-22 00:55:12.13	211.12	10.54	-30.6	-32.9	11.6	4.54e-04	0	44	0	1264582656	21	4707
2026-01-22 00:55:13.13	211.11	10.46	-30.4	-32.5	11.9	4.38e-04	0	44	0	1266679808	21	4548
2026-01-22 00:55:14.13	211.09	10.37	-30.5	-32.7	11.8	4.07e-04	0	45	0	1268776960	21	4623
2026-01-22 00:55:15.14	211.07	10.28	-30.7	-33.3	11.3	9.68e-04	0	45	0	1269825536	21	4846
2026-01-22 00:55:16.13	211.05	10.19	-30.6	-32.9	11.6	7.80e-04	0	45	0	1271922688	21	4688
2026-01-22 00:55:17.14	211.03	10.10	-30.6	-33.0	11.5	6.55e-04	0	45	0	1274019840	21	4722
2026-01-22 00:55:18.14	211.02	10.02	-30.7	-33.3	11.3	1.04e-03	0	45	0	1276116992	21	4858
2026-01-22 00:55:19.14	211.00	9.93	-30.8	-33.6	11.1	1.36e-03	0	44	0	1278214144	21	4973
2026-01-22 00:55:20.15	210.98	9.84	-30.8	-33.5	11.2	1.36e-03	0	44	0	1279262720	21	4914
2026-01-22 00:55:21.15	210.96	9.76	-30.7	-33.5	11.2	1.14e-03	0	44	0	1281359872	21	4916
2026-01-22 00:55:22.15	210.95	9.67	-30.8	-33.5	11.2	1.30e-03	0	44	0	1283457024	21	4926
2026-01-22 00:55:23.15	210.93	9.58	-30.7	-33.4	11.2	1.34e-03	0	44	0	1285554176	21	4887
2026-01-22 00:55:24.15	210.91	9.50	-30.8	-33.5	11.1	1.36e-03	0	44	0	1287651328	21	4938
