passes_logs/2026/01/22/R2M6_AANII_01/R2M6_AANII_01__20260122_114832_NOAA_21_JPSS-2_rec.log

#Pass ID: 20260122_114832_NOAA 21 (JPSS-2)
#Satellite: NOAA 21 (JPSS-2)
#Configuration: NOAA 21
#almurnet v.1.7.20240730
#Start time: 2026-01-22 11:48:33

#Version: 2.2.20231116
#Station: R2M6_AANII_01
#Location: 30.233357 lon 59.946436 lat
#TLE: 1 54234U 22150A   26021.42686626  .00000211  00000+0  12107-3 0  9996
#TLE: 2 54234  98.7506 322.2490 0000636 241.9299 118.1812 14.19537149165725

#Time	Az	El	Level	Level2	SNR	BER	BlckErr	Temp	State	Recorded	gain1	gain2
2026-01-22 11:48:33.80	208.71	7.08	-29.2	-32.3	4.9	1.30e+00	0	43	0	0	19	5188
2026-01-22 11:48:34.80	208.80	7.14	-29.8	-33.6	4.8	1.37e+00	0	43	104	0	20	5581
2026-01-22 11:48:35.80	208.89	7.21	-29.9	-33.2	9.9	9.39e-03	0	43	0	0	20	5283
2026-01-22 11:48:36.80	208.98	7.27	-30.1	-33.9	9.5	1.27e-02	0	43	0	3145728	20	5556
2026-01-22 11:48:37.81	209.07	7.34	-30.0	-33.5	9.8	1.30e-02	0	43	0	6291456	20	5372
2026-01-22 11:48:38.81	209.16	7.41	-29.7	-32.7	10.3	5.89e-03	0	43	0	9437184	20	5076
2026-01-22 11:48:39.81	209.25	7.47	-29.5	-32.0	10.8	3.58e-03	0	43	0	12582912	20	4817
2026-01-22 11:48:40.81	209.34	7.54	-29.3	-31.5	11.2	1.83e-03	0	43	0	15728640	20	4642
2026-01-22 11:48:41.81	209.43	7.60	-29.2	-31.6	11.5	9.41e-04	0	43	0	18874368	19	4761
2026-01-22 11:48:42.81	209.52	7.67	-29.2	-31.7	11.5	7.44e-04	0	43	0	22020096	19	4798
2026-01-22 11:48:43.82	209.61	7.74	-29.2	-31.7	11.5	7.88e-04	0	43	0	24117248	19	4780
2026-01-22 11:48:44.82	209.71	7.80	-29.2	-31.7	11.5	7.66e-04	0	43	0	27262976	19	4783
2026-01-22 11:48:45.82	209.80	7.87	-29.4	-32.2	11.1	1.18e-03	0	43	0	30408704	19	4977
2026-01-22 11:48:46.83	209.89	7.94	-29.3	-32.0	11.3	1.27e-03	0	43	0	33554432	19	4896
2026-01-22 11:48:47.84	209.99	8.01	-29.1	-31.4	11.7	6.50e-04	0	43	0	36700160	19	4693
2026-01-22 11:48:48.84	210.08	8.07	-29.0	-31.2	11.9	4.53e-04	0	43	0	39845888	19	4620
2026-01-22 11:48:49.84	210.18	8.14	-29.0	-31.0	12.0	3.54e-04	0	43	0	42991616	19	4557
2026-01-22 11:48:50.85	210.27	8.21	-29.0	-31.2	11.9	3.90e-04	0	43	0	46137344	19	4614
2026-01-22 11:48:51.85	210.37	8.28	-29.0	-31.1	12.0	3.97e-04	0	43	0	49283072	19	4588
2026-01-22 11:48:52.85	210.46	8.34	-29.1	-31.3	11.8	4.20e-04	0	43	0	52428800	19	4664
2026-01-22 11:48:53.86	210.56	8.41	-29.0	-31.0	12.0	3.47e-04	0	43	0	55574528	19	4555
2026-01-22 11:48:54.87	210.66	8.48	-28.8	-30.9	12.4	1.91e-04	0	43	0	58720256	18	4637
2026-01-22 11:48:55.87	210.75	8.55	-28.9	-31.2	12.2	1.90e-04	0	43	0	61865984	18	4722
2026-01-22 11:48:56.88	210.85	8.62	-28.8	-31.1	12.3	2.01e-04	0	43	0	65011712	18	4681
2026-01-22 11:48:57.88	210.95	8.68	-28.6	-30.6	12.7	1.01e-04	0	43	0	68157440	18	4512
2026-01-22 11:48:58.89	211.05	8.75	-28.5	-30.4	12.8	8.69e-05	0	43	0	71303168	18	4447
2026-01-22 11:48:59.90	211.15	8.82	-28.5	-30.4	12.8	6.48e-05	0	43	0	74448896	18	4452
2026-01-22 11:49:00.89	211.25	8.89	-28.5	-30.4	12.8	4.80e-05	0	43	0	77594624	18	4443
2026-01-22 11:49:01.89	211.35	8.96	-28.5	-30.2	12.9	4.80e-05	0	43	0	80740352	18	4407
2026-01-22 11:49:02.90	211.45	9.03	-28.4	-30.0	13.1	4.04e-05	0	43	0	83886080	18	4326
2026-01-22 11:49:03.91	211.55	9.10	-28.5	-30.3	12.8	4.27e-05	0	43	0	87031808	18	4431
2026-01-22 11:49:04.90	211.65	9.17	-28.4	-30.1	13.0	4.27e-05	0	43	0	90177536	18	4355
2026-01-22 11:49:05.91	211.75	9.24	-28.3	-29.8	13.2	2.67e-05	0	43	0	93323264	18	4270
2026-01-22 11:49:06.91	211.85	9.30	-28.3	-29.8	13.2	1.98e-05	0	43	0	96468992	18	4263
2026-01-22 11:49:07.92	211.96	9.37	-28.2	-30.0	13.3	2.44e-05	0	43	0	99614720	17	4439
2026-01-22 11:49:08.92	212.06	9.44	-28.2	-29.9	13.4	1.14e-05	0	43	0	102760448	17	4415
2026-01-22 11:49:09.93	212.16	9.51	-28.1	-29.8	13.5	1.06e-05	0	43	0	105906176	17	4382
2026-01-22 11:49:10.94	212.27	9.58	-28.1	-29.9	13.4	1.06e-05	0	43	0	109051904	17	4391
2026-01-22 11:49:11.94	212.37	9.65	-28.1	-29.7	13.6	6.80e-06	0	43	0	112197632	17	4339
2026-01-22 11:49:12.95	212.48	9.72	-28.1	-29.7	13.6	5.30e-06	0	43	0	115343360	17	4347
2026-01-22 11:49:13.96	212.58	9.79	-28.0	-29.6	13.6	9.10e-06	0	43	0	118489088	17	4324
2026-01-22 11:49:14.96	212.69	9.86	-28.0	-29.6	13.7	4.50e-06	0	43	0	121634816	17	4312
2026-01-22 11:49:15.97	212.80	9.94	-28.1	-29.7	13.6	8.30e-06	0	43	0	124780544	17	4351
2026-01-22 11:49:16.97	212.90	10.01	-28.0	-29.5	13.7	4.50e-06	0	43	0	127926272	17	4291
2026-01-22 11:49:17.98	213.01	10.08	-28.0	-29.4	13.8	1.06e-05	0	43	0	131072000	17	4253
2026-01-22 11:49:18.98	213.12	10.15	-28.0	-29.5	13.7	3.00e-06	0	43	0	134217728	17	4289
2026-01-22 11:49:19.98	213.23	10.22	-27.9	-29.3	13.9	1.50e-06	0	43	0	137363456	17	4218
2026-01-22 11:49:20.98	213.34	10.29	-27.9	-29.4	13.8	8.30e-06	0	43	0	140509184	17	4252
2026-01-22 11:49:21.99	213.45	10.36	-27.9	-29.3	13.9	3.80e-06	0	43	0	143654912	17	4228
2026-01-22 11:49:22.98	213.56	10.43	-27.8	-29.1	14.0	2.20e-06	0	43	0	146800640	17	4179
2026-01-22 11:49:23.99	213.67	10.50	-27.9	-29.2	13.9	5.30e-06	0	43	0	149946368	17	4200
2026-01-22 11:49:24.99	213.78	10.57	-27.9	-29.2	13.9	0.00e+00	0	43	0	153092096	17	4208
2026-01-22 11:49:26.00	213.89	10.65	-28.0	-29.4	13.8	3.00e-06	0	43	0	156237824	17	4254
2026-01-22 11:49:27.00	214.00	10.72	-27.9	-29.2	13.9	4.50e-06	0	43	0	159383552	17	4209
2026-01-22 11:49:28.01	214.12	10.79	-27.8	-29.1	14.0	3.00e-06	0	43	0	162529280	17	4154
2026-01-22 11:49:29.01	214.23	10.86	-27.9	-29.2	14.0	2.20e-06	0	43	0	165675008	17	4195
2026-01-22 11:49:30.02	214.34	10.93	-27.8	-29.1	14.1	3.80e-06	0	43	0	168820736	17	4152
2026-01-22 11:49:31.02	214.46	11.00	-27.9	-29.2	14.0	3.00e-06	0	43	0	171966464	17	4192
2026-01-22 11:49:32.03	214.57	11.08	-27.8	-29.4	14.1	7.00e-07	0	43	0	175112192	16	4368
2026-01-22 11:49:33.03	214.69	11.15	-27.8	-29.4	14.1	2.20e-06	0	43	0	178257920	16	4358
2026-01-22 11:49:34.04	214.80	11.22	-27.7	-29.2	14.3	1.50e-06	0	43	0	181403648	16	4294
2026-01-22 11:49:35.03	214.92	11.29	-27.7	-29.2	14.3	7.00e-07	0	43	0	184549376	16	4296
2026-01-22 11:49:36.03	215.04	11.37	-27.7	-29.4	14.2	7.00e-07	0	43	0	187695104	16	4343
2026-01-22 11:49:37.04	215.15	11.44	-27.8	-29.6	14.1	3.00e-06	0	43	0	190840832	16	4394
2026-01-22 11:49:38.04	215.27	11.51	-27.8	-29.4	14.2	2.20e-06	0	43	0	193986560	16	4348
2026-01-22 11:49:39.03	215.39	11.58	-27.8	-29.4	14.2	1.50e-06	0	43	0	197132288	16	4355
2026-01-22 11:49:40.04	215.51	11.66	-27.9	-29.8	14.0	7.00e-07	0	43	0	200278016	16	4467
2026-01-22 11:49:41.04	215.63	11.73	-27.8	-29.5	14.1	1.50e-06	0	43	0	203423744	16	4377
2026-01-22 11:49:42.04	215.75	11.80	-27.8	-29.4	14.2	7.00e-07	0	43	0	206569472	16	4348
2026-01-22 11:49:43.04	215.87	11.88	-27.7	-29.4	14.2	7.00e-07	0	44	0	209715200	16	4345
2026-01-22 11:49:44.04	215.99	11.95	-27.9	-29.7	14.0	0.00e+00	0	43	0	212860928	16	4441
2026-01-22 11:49:45.04	216.11	12.02	-27.8	-29.4	14.2	0.00e+00	0	44	0	216006656	16	4348
2026-01-22 11:49:46.05	216.24	12.10	-27.9	-29.8	14.0	3.80e-06	0	43	0	219152384	16	4477
2026-01-22 11:49:47.05	216.36	12.17	-27.7	-29.3	14.3	2.20e-06	0	44	0	222298112	16	4324
2026-01-22 11:49:48.05	216.48	12.24	-27.6	-29.1	14.4	7.00e-07	0	43	0	225443840	16	4253
2026-01-22 11:49:49.05	216.61	12.32	-27.6	-28.9	14.6	1.50e-06	0	43	0	228589568	16	4206
2026-01-22 11:49:50.04	216.73	12.39	-27.6	-29.1	14.4	1.50e-06	0	43	0	231735296	16	4260
2026-01-22 11:49:51.05	216.86	12.47	-27.5	-28.8	14.6	0.00e+00	0	43	0	234881024	16	4171
2026-01-22 11:49:52.04	216.98	12.54	-27.4	-28.5	14.7	0.00e+00	0	43	0	238026752	16	4111
2026-01-22 11:49:53.04	217.11	12.61	-27.3	-28.4	14.8	7.00e-07	0	44	0	241172480	16	4069
2026-01-22 11:49:54.04	217.23	12.69	-27.4	-28.5	14.8	0.00e+00	0	43	0	244318208	16	4087
2026-01-22 11:49:55.05	217.36	12.76	-27.4	-28.6	14.7	0.00e+00	0	44	0	247463936	16	4114
2026-01-22 11:49:56.05	217.49	12.84	-27.3	-28.4	14.8	0.00e+00	0	43	0	250609664	16	4077
2026-01-22 11:49:57.05	217.62	12.91	-27.3	-28.3	14.9	0.00e+00	0	43	0	253755392	16	4043
2026-01-22 11:49:58.05	217.75	12.99	-27.2	-28.5	14.9	0.00e+00	0	44	0	256901120	15	4217
2026-01-22 11:49:59.06	217.88	13.06	-27.1	-28.4	15.0	7.00e-07	0	44	0	260046848	15	4176
2026-01-22 11:50:00.06	218.01	13.14	-27.2	-28.6	14.8	0.00e+00	0	43	0	263192576	15	4248
2026-01-22 11:50:01.07	218.15	13.21	-27.1	-28.5	14.9	0.00e+00	0	44	0	266338304	15	4216
2026-01-22 11:50:02.07	218.28	13.29	-27.3	-28.8	14.7	1.50e-06	0	44	0	269484032	15	4283
2026-01-22 11:50:03.08	218.41	13.36	-27.3	-28.8	14.7	7.00e-07	0	43	0	272629760	15	4289
2026-01-22 11:50:04.08	218.55	13.44	-27.3	-28.9	14.7	0.00e+00	0	44	0	275775488	15	4325
2026-01-22 11:50:05.08	218.68	13.51	-27.3	-28.9	14.7	0.00e+00	0	44	0	278921216	15	4327
2026-01-22 11:50:06.09	218.82	13.59	-27.4	-29.2	14.6	0.00e+00	0	44	0	282066944	15	4399
2026-01-22 11:50:07.09	218.95	13.67	-27.4	-29.1	14.6	0.00e+00	0	44	0	285212672	15	4380
2026-01-22 11:50:08.10	219.09	13.74	-27.5	-29.3	14.5	7.00e-07	0	44	0	288358400	15	4424
2026-01-22 11:50:09.11	219.23	13.82	-27.7	-29.7	14.3	7.00e-07	0	44	0	291504128	15	4559
2026-01-22 11:50:10.11	219.37	13.89	-27.4	-29.2	14.6	0.00e+00	0	43	0	294649856	15	4399
2026-01-22 11:50:11.11	219.50	13.97	-27.4	-29.2	14.6	7.00e-07	0	44	0	297795584	15	4391
2026-01-22 11:50:12.12	219.64	14.05	-27.3	-28.9	14.7	0.00e+00	0	44	0	300941312	15	4323
2026-01-22 11:50:13.12	219.78	14.12	-27.4	-29.2	14.6	0.00e+00	0	44	0	304087040	15	4402
2026-01-22 11:50:14.12	219.92	14.20	-27.4	-29.2	14.6	7.00e-07	0	44	0	307232768	15	4395
2026-01-22 11:50:15.13	220.07	14.28	-27.5	-29.2	14.6	7.00e-07	0	44	0	310378496	15	4414
2026-01-22 11:50:16.13	220.21	14.35	-27.6	-29.5	14.4	1.50e-06	0	44	0	313524224	15	4494
2026-01-22 11:50:17.14	220.35	14.43	-27.4	-29.2	14.6	7.00e-07	0	44	0	316669952	15	4397
2026-01-22 11:50:18.14	220.50	14.51	-27.4	-29.1	14.7	0.00e+00	0	44	0	319815680	15	4374
2026-01-22 11:50:19.14	220.64	14.58	-27.4	-29.1	14.7	0.00e+00	0	43	0	322961408	15	4378
2026-01-22 11:50:20.14	220.78	14.66	-27.4	-29.1	14.7	0.00e+00	0	44	0	325058560	15	4383
2026-01-22 11:50:21.14	220.93	14.74	-27.4	-29.2	14.6	0.00e+00	0	44	0	328204288	15	4391
2026-01-22 11:50:22.14	221.08	14.81	-27.4	-29.1	14.7	7.00e-07	0	44	0	331350016	15	4377
2026-01-22 11:50:23.14	221.22	14.89	-27.4	-29.2	14.6	5.30e-06	0	44	0	334495744	15	4400
2026-01-22 11:50:24.14	221.37	14.97	-27.4	-29.2	14.7	1.50e-06	0	44	0	337641472	15	4389
2026-01-22 11:50:25.14	221.52	15.04	-27.4	-29.2	14.6	1.50e-06	0	44	0	340787200	15	4392
2026-01-22 11:50:26.14	221.67	15.12	-27.4	-29.1	14.7	7.00e-07	0	44	0	343932928	15	4381
2026-01-22 11:50:27.14	221.82	15.20	-27.4	-29.2	14.6	7.00e-07	0	44	0	347078656	15	4388
2026-01-22 11:50:28.15	221.97	15.27	-27.4	-29.2	14.7	0.00e+00	0	44	0	350224384	15	4391
2026-01-22 11:50:29.15	222.12	15.35	-27.5	-29.2	14.7	2.20e-06	0	44	0	353370112	15	4389
2026-01-22 11:50:30.16	222.27	15.43	-27.4	-29.0	14.8	0.00e+00	0	44	0	356515840	15	4339
2026-01-22 11:50:31.16	222.43	15.51	-27.4	-29.1	14.7	0.00e+00	0	44	0	359661568	15	4358
2026-01-22 11:50:32.17	222.58	15.58	-27.4	-29.0	14.8	0.00e+00	0	44	0	362807296	15	4321
2026-01-22 11:50:33.17	222.74	15.66	-27.4	-29.0	14.8	0.00e+00	0	44	0	365953024	15	4337
2026-01-22 11:50:34.18	222.89	15.74	-27.4	-29.0	14.8	0.00e+00	0	44	0	369098752	15	4326
2026-01-22 11:50:35.19	223.05	15.82	-27.5	-29.2	14.7	1.50e-06	0	44	0	372244480	15	4380
2026-01-22 11:50:36.19	223.21	15.90	-27.4	-29.1	14.7	0.00e+00	0	44	0	375390208	15	4369
2026-01-22 11:50:37.19	223.36	15.97	-27.6	-29.5	14.5	0.00e+00	0	44	0	378535936	15	4474
2026-01-22 11:50:38.18	223.52	16.05	-27.6	-29.4	14.6	7.00e-07	0	44	0	381681664	15	4450
2026-01-22 11:50:39.18	223.68	16.13	-27.6	-29.4	14.6	0.00e+00	0	44	0	384827392	15	4455
2026-01-22 11:50:40.19	223.84	16.21	-27.6	-29.6	14.5	7.00e-07	0	44	0	387973120	15	4509
2026-01-22 11:50:41.18	224.00	16.28	-27.6	-29.6	14.5	8.30e-06	0	44	0	391118848	15	4501
2026-01-22 11:50:42.18	224.16	16.36	-27.7	-29.8	14.3	0.00e+00	0	44	0	394264576	15	4573
2026-01-22 11:50:43.18	224.32	16.44	-27.7	-29.8	14.4	0.00e+00	0	44	0	397410304	15	4564
2026-01-22 11:50:44.19	224.49	16.52	-27.8	-29.9	14.3	2.20e-06	0	44	0	400556032	15	4595
2026-01-22 11:50:45.20	224.65	16.60	-27.8	-29.9	14.3	7.00e-07	0	44	0	403701760	15	4596
2026-01-22 11:50:46.20	224.82	16.67	-27.8	-30.0	14.3	0.00e+00	0	44	0	406847488	15	4619
2026-01-22 11:50:47.20	224.99	16.75	-27.9	-30.3	14.1	7.00e-07	0	44	0	409993216	15	4724
2026-01-22 11:50:48.21	225.15	16.83	-28.1	-30.2	14.0	3.00e-06	0	44	0	413138944	16	4588
2026-01-22 11:50:49.22	225.32	16.91	-28.0	-30.0	14.2	2.20e-06	0	44	0	416284672	16	4497
2026-01-22 11:50:50.22	225.49	16.99	-28.0	-29.8	14.3	0.00e+00	0	44	0	419430400	16	4436
2026-01-22 11:50:51.23	225.66	17.07	-28.0	-29.9	14.2	3.00e-06	0	44	0	422576128	16	4475
2026-01-22 11:50:52.23	225.83	17.14	-28.0	-29.8	14.3	0.00e+00	0	44	0	425721856	16	4454
2026-01-22 11:50:53.23	226.00	17.22	-28.0	-29.8	14.3	1.50e-06	0	44	0	428867584	16	4440
2026-01-22 11:50:54.24	226.17	17.30	-27.9	-29.6	14.4	0.00e+00	0	44	0	432013312	16	4397
2026-01-22 11:50:55.24	226.35	17.38	-27.9	-29.7	14.4	2.20e-06	0	44	0	435159040	16	4402
2026-01-22 11:50:56.24	226.52	17.46	-28.0	-29.8	14.3	7.00e-07	0	44	0	438304768	16	4446
2026-01-22 11:50:57.25	226.70	17.54	-27.9	-29.6	14.4	0.00e+00	0	44	0	441450496	16	4392
2026-01-22 11:50:58.25	226.87	17.61	-27.9	-29.6	14.5	7.00e-07	0	44	0	444596224	16	4396
2026-01-22 11:50:59.26	227.05	17.69	-27.9	-29.8	14.4	1.50e-06	0	44	0	447741952	16	4434
2026-01-22 11:51:00.25	227.22	17.77	-28.1	-30.0	14.2	1.50e-06	0	44	0	450887680	16	4503
2026-01-22 11:51:01.25	227.40	17.85	-28.1	-30.2	14.1	7.00e-07	0	44	0	454033408	16	4563
2026-01-22 11:51:02.25	227.58	17.93	-28.0	-29.8	14.3	7.00e-07	0	44	0	457179136	16	4448
2026-01-22 11:51:03.26	227.76	18.00	-27.9	-29.7	14.5	0.00e+00	0	44	0	460324864	16	4401
2026-01-22 11:51:04.27	227.94	18.08	-27.9	-29.7	14.4	7.00e-07	0	44	0	463470592	16	4412
2026-01-22 11:51:05.27	228.13	18.16	-27.9	-29.7	14.5	1.50e-06	0	44	0	466616320	16	4404
2026-01-22 11:51:06.28	228.31	18.24	-28.0	-29.8	14.4	0.00e+00	0	44	0	469762048	16	4426
2026-01-22 11:51:07.28	228.49	18.32	-28.0	-29.8	14.4	7.00e-07	0	44	0	472907776	16	4444
2026-01-22 11:51:08.29	228.68	18.40	-27.9	-29.5	14.6	0.00e+00	0	44	0	476053504	16	4350
2026-01-22 11:51:09.29	228.86	18.47	-27.8	-29.5	14.6	0.00e+00	0	44	0	479199232	16	4346
2026-01-22 11:51:10.30	229.05	18.55	-27.8	-29.4	14.6	0.00e+00	0	44	0	482344960	16	4322
2026-01-22 11:51:11.30	229.24	18.63	-27.7	-29.2	14.7	0.00e+00	0	44	0	485490688	16	4269
2026-01-22 11:51:12.30	229.43	18.71	-27.8	-29.3	14.7	0.00e+00	0	44	0	488636416	16	4295
2026-01-22 11:51:13.30	229.61	18.78	-27.9	-29.5	14.5	0.00e+00	0	44	0	491782144	16	4359
2026-01-22 11:51:14.30	229.80	18.86	-27.8	-29.5	14.6	7.00e-07	0	44	0	494927872	16	4353
2026-01-22 11:51:15.31	230.00	18.94	-27.9	-29.6	14.5	0.00e+00	0	44	0	498073600	16	4389
2026-01-22 11:51:16.31	230.19	19.02	-27.8	-29.3	14.7	1.50e-06	0	44	0	501219328	16	4307
2026-01-22 11:51:17.32	230.38	19.10	-27.8	-29.4	14.6	0.00e+00	0	44	0	504365056	16	4324
2026-01-22 11:51:18.32	230.58	19.17	-27.8	-29.3	14.7	7.00e-07	0	44	0	507510784	16	4293
2026-01-22 11:51:19.32	230.77	19.25	-27.8	-29.3	14.7	0.00e+00	0	44	0	510656512	16	4295
2026-01-22 11:51:20.32	230.97	19.33	-27.8	-29.3	14.7	7.00e-07	0	44	0	513802240	16	4309
2026-01-22 11:51:21.33	231.16	19.40	-27.8	-29.4	14.7	0.00e+00	0	44	0	516947968	16	4322
2026-01-22 11:51:22.34	231.36	19.48	-27.9	-29.7	14.5	0.00e+00	0	44	0	520093696	16	4406
2026-01-22 11:51:23.34	231.56	19.56	-27.7	-29.2	14.7	0.00e+00	0	44	0	523239424	16	4267
2026-01-22 11:51:24.34	231.76	19.64	-27.6	-29.0	14.9	7.00e-07	0	44	0	526385152	16	4209
2026-01-22 11:51:25.34	231.96	19.71	-27.6	-29.0	14.9	3.00e-06	0	44	0	529530880	16	4206
2026-01-22 11:51:26.34	232.16	19.79	-27.6	-29.0	14.9	0.00e+00	0	44	0	532676608	16	4212
2026-01-22 11:51:27.35	232.37	19.87	-27.5	-28.7	15.1	0.00e+00	0	44	0	535822336	16	4138
2026-01-22 11:51:28.36	232.57	19.94	-27.5	-28.6	15.2	0.00e+00	0	44	0	538968064	16	4096
2026-01-22 11:51:29.36	232.77	20.02	-27.6	-28.9	15.0	7.00e-07	0	44	0	542113792	16	4184
2026-01-22 11:51:30.36	232.98	20.09	-27.4	-28.5	15.3	0.00e+00	0	44	0	545259520	16	4057
2026-01-22 11:51:31.37	233.19	20.17	-27.1	-28.2	15.5	0.00e+00	0	44	0	548405248	15	4098
2026-01-22 11:51:32.37	233.40	20.25	-27.1	-28.2	15.5	0.00e+00	0	44	0	551550976	15	4111
2026-01-22 11:51:33.38	233.61	20.32	-27.1	-28.3	15.4	0.00e+00	0	44	0	554696704	15	4139
2026-01-22 11:51:34.38	233.81	20.40	-27.1	-28.2	15.4	2.20e-06	0	44	0	557842432	15	4095
2026-01-22 11:51:35.38	234.02	20.47	-27.0	-28.1	15.5	0.00e+00	0	44	0	560988160	15	4080
2026-01-22 11:51:36.39	234.24	20.55	-27.0	-28.0	15.6	0.00e+00	0	44	0	564133888	15	4041
2026-01-22 11:51:37.39	234.45	20.62	-26.9	-27.8	15.7	3.80e-06	0	44	0	567279616	15	4008
2026-01-22 11:51:38.40	234.66	20.70	-27.0	-27.9	15.6	0.00e+00	0	44	0	570425344	15	4030
2026-01-22 11:51:39.41	234.88	20.77	-27.2	-28.5	15.3	0.00e+00	0	44	0	573571072	15	4175
2026-01-22 11:51:40.41	235.10	20.85	-27.0	-28.0	15.6	4.50e-06	0	44	0	576716800	15	4061
2026-01-22 11:51:41.42	235.31	20.92	-26.7	-27.9	16.0	0.00e+00	0	44	0	579862528	14	4118
2026-01-22 11:51:42.43	235.53	21.00	-26.5	-27.5	16.2	0.00e+00	0	44	0	583008256	14	4011
2026-01-22 11:51:43.44	235.75	21.07	-26.8	-28.1	15.9	0.00e+00	0	44	0	586153984	14	4163
2026-01-22 11:51:44.43	235.97	21.15	-26.9	-28.2	15.8	0.00e+00	0	44	0	589299712	14	4203
2026-01-22 11:51:45.43	236.19	21.22	-26.7	-27.8	16.0	0.00e+00	0	44	0	592445440	14	4088
2026-01-22 11:51:46.44	236.41	21.29	-26.6	-27.5	16.2	0.00e+00	0	44	0	595591168	14	4031
2026-01-22 11:51:47.44	236.64	21.37	-26.5	-27.4	16.3	0.00e+00	0	44	0	598736896	14	3984
2026-01-22 11:51:48.44	236.86	21.44	-26.6	-27.5	16.2	0.00e+00	0	44	0	601882624	14	4028
2026-01-22 11:51:49.45	237.09	21.51	-26.5	-27.5	16.2	0.00e+00	0	44	0	605028352	14	4029
2026-01-22 11:51:50.45	237.31	21.58	-26.6	-27.7	16.1	0.00e+00	0	44	0	608174080	14	4067
2026-01-22 11:51:51.46	237.54	21.66	-26.6	-27.6	16.1	0.00e+00	0	44	0	611319808	14	4055
2026-01-22 11:51:52.46	237.77	21.73	-26.8	-28.1	15.9	0.00e+00	0	44	0	614465536	14	4189
2026-01-22 11:51:53.46	238.00	21.80	-26.9	-28.2	15.8	0.00e+00	0	44	0	617611264	14	4204
2026-01-22 11:51:54.47	238.23	21.87	-26.7	-27.8	16.0	0.00e+00	0	44	0	620756992	14	4090
2026-01-22 11:51:55.48	238.46	21.94	-26.6	-27.6	16.1	0.00e+00	0	44	0	623902720	14	4055
2026-01-22 11:51:56.48	238.69	22.01	-26.6	-27.7	16.1	0.00e+00	0	44	0	627048448	14	4062
2026-01-22 11:51:57.48	238.93	22.08	-26.6	-27.7	16.1	0.00e+00	0	44	0	630194176	14	4071
2026-01-22 11:51:58.49	239.16	22.16	-26.6	-27.5	16.2	0.00e+00	0	44	0	633339904	14	4033
2026-01-22 11:51:59.49	239.40	22.23	-26.6	-27.7	16.1	0.00e+00	0	44	0	636485632	14	4066
2026-01-22 11:52:00.50	239.63	22.30	-26.7	-27.8	16.0	0.00e+00	0	44	0	639631360	14	4102
2026-01-22 11:52:01.50	239.87	22.36	-26.7	-27.8	16.1	0.00e+00	0	44	0	642777088	14	4095
2026-01-22 11:52:02.50	240.11	22.43	-26.6	-27.7	16.1	0.00e+00	0	44	0	645922816	14	4083
2026-01-22 11:52:03.50	240.35	22.50	-26.5	-27.3	16.3	0.00e+00	0	44	0	649068544	14	3975
2026-01-22 11:52:04.51	240.59	22.57	-26.4	-27.3	16.4	0.00e+00	0	44	0	652214272	14	3957
2026-01-22 11:52:05.51	240.83	22.64	-26.4	-27.2	16.4	0.00e+00	0	44	0	655360000	14	3956
2026-01-22 11:52:06.51	241.07	22.71	-26.4	-27.2	16.4	0.00e+00	0	44	0	658505728	14	3946
2026-01-22 11:52:07.52	241.32	22.77	-26.5	-27.3	16.3	0.00e+00	0	44	0	661651456	14	3977
2026-01-22 11:52:08.52	241.56	22.84	-26.5	-27.4	16.3	0.00e+00	0	44	0	664797184	14	3984
2026-01-22 11:52:09.52	241.81	22.91	-26.5	-27.4	16.3	0.00e+00	0	44	0	667942912	14	3996
2026-01-22 11:52:10.53	242.05	22.98	-26.5	-27.4	16.3	0.00e+00	0	44	0	671088640	14	3994
2026-01-22 11:52:11.53	242.30	23.04	-26.5	-27.5	16.2	0.00e+00	0	44	0	673185792	14	4024
2026-01-22 11:52:12.54	242.55	23.11	-26.6	-27.6	16.2	0.00e+00	0	44	0	676331520	14	4037
2026-01-22 11:52:13.54	242.80	23.17	-26.6	-27.5	16.2	0.00e+00	0	44	0	679477248	14	4030
2026-01-22 11:52:14.54	243.05	23.24	-26.6	-27.6	16.2	0.00e+00	0	44	0	682622976	14	4036
2026-01-22 11:52:15.54	243.30	23.30	-26.6	-27.5	16.2	7.00e-07	0	44	0	685768704	14	4031
2026-01-22 11:52:16.55	243.56	23.37	-26.7	-27.7	16.1	0.00e+00	0	44	0	688914432	14	4074
2026-01-22 11:52:17.55	243.81	23.43	-26.6	-27.6	16.2	0.00e+00	0	44	0	692060160	14	4052
2026-01-22 11:52:18.55	244.06	23.49	-26.8	-28.0	16.0	0.00e+00	0	44	0	696254464	14	4143
2026-01-22 11:52:19.55	244.32	23.55	-26.8	-28.0	16.0	7.00e-07	0	44	0	698351616	14	4158
2026-01-22 11:52:20.56	244.58	23.62	-26.6	-27.6	16.2	0.00e+00	0	44	0	701497344	14	4033
2026-01-22 11:52:21.56	244.83	23.68	-26.5	-27.5	16.3	0.00e+00	0	44	0	704643072	14	4014
2026-01-22 11:52:22.56	245.09	23.74	-26.5	-27.4	16.3	0.00e+00	0	44	0	707788800	14	3992
2026-01-22 11:52:23.56	245.35	23.80	-26.5	-27.5	16.3	0.00e+00	0	44	0	710934528	14	4014
2026-01-22 11:52:24.56	245.61	23.86	-26.5	-27.5	16.3	9.10e-06	0	44	0	714080256	14	4015
2026-01-22 11:52:25.57	245.87	23.92	-26.6	-27.6	16.2	0.00e+00	0	44	0	717225984	14	4037
2026-01-22 11:52:26.57	246.14	23.98	-26.5	-27.5	16.2	0.00e+00	0	44	0	720371712	14	4021
2026-01-22 11:52:27.58	246.40	24.04	-26.7	-27.8	16.1	0.00e+00	0	44	0	723517440	14	4087
2026-01-22 11:52:28.58	246.66	24.10	-26.7	-27.8	16.1	0.00e+00	0	44	0	726663168	14	4106
2026-01-22 11:52:29.57	246.93	24.16	-26.7	-27.7	16.1	0.00e+00	0	44	0	729808896	14	4078
2026-01-22 11:52:30.58	247.20	24.22	-26.7	-27.9	16.0	0.00e+00	0	44	0	732954624	14	4132
2026-01-22 11:52:31.59	247.46	24.27	-26.8	-28.2	15.9	0.00e+00	0	44	0	736100352	14	4188
2026-01-22 11:52:32.59	247.73	24.33	-26.9	-28.3	15.9	0.00e+00	0	44	0	739246080	14	4216
2026-01-22 11:52:33.60	248.00	24.39	-26.8	-28.1	15.9	5.30e-06	0	44	0	742391808	14	4186
2026-01-22 11:52:34.60	248.27	24.44	-27.0	-28.5	15.7	0.00e+00	0	44	0	745537536	14	4274
2026-01-22 11:52:35.60	248.54	24.50	-27.0	-28.6	15.7	0.00e+00	0	44	0	748683264	14	4317
2026-01-22 11:52:36.60	248.81	24.55	-27.0	-28.4	15.8	7.00e-07	0	44	0	751828992	14	4260
2026-01-22 11:52:37.60	249.09	24.60	-27.0	-28.6	15.7	0.00e+00	0	44	0	754974720	14	4299
2026-01-22 11:52:38.61	249.36	24.66	-27.1	-28.7	15.6	0.00e+00	0	44	0	758120448	14	4346
2026-01-22 11:52:39.61	249.64	24.71	-27.2	-28.9	15.5	3.00e-06	0	44	0	761266176	14	4408
2026-01-22 11:52:40.61	249.91	24.76	-27.2	-28.9	15.5	0.00e+00	0	44	0	764411904	14	4393
2026-01-22 11:52:41.60	250.18	24.81	-27.3	-29.1	15.4	0.00e+00	0	44	0	767557632	14	4448
2026-01-22 11:52:42.61	250.46	24.86	-27.1	-28.7	15.6	0.00e+00	0	44	0	770703360	14	4324
2026-01-22 11:52:43.61	250.74	24.91	-26.9	-28.3	15.9	0.00e+00	0	44	0	773849088	14	4214
2026-01-22 11:52:44.62	251.02	24.96	-26.9	-28.3	15.9	0.00e+00	0	44	0	776994816	14	4213
2026-01-22 11:52:45.62	251.30	25.01	-27.1	-28.8	15.6	7.00e-07	0	44	0	780140544	14	4353
2026-01-22 11:52:46.62	251.58	25.06	-27.4	-29.4	15.3	0.00e+00	0	44	0	783286272	14	4528
2026-01-22 11:52:47.63	251.87	25.11	-27.4	-29.4	15.3	0.00e+00	0	44	0	786432000	14	4534
2026-01-22 11:52:48.63	252.15	25.16	-27.3	-29.3	15.3	0.00e+00	0	44	0	789577728	14	4499
2026-01-22 11:52:49.63	252.43	25.20	-27.2	-29.1	15.4	0.00e+00	0	44	0	792723456	14	4447
2026-01-22 11:52:50.63	252.71	25.25	-27.3	-29.1	15.5	0.00e+00	0	44	0	795869184	14	4455
2026-01-22 11:52:51.63	253.00	25.29	-27.1	-28.8	15.6	0.00e+00	0	44	0	799014912	14	4350
2026-01-22 11:52:52.64	253.29	25.34	-27.2	-29.0	15.5	0.00e+00	0	44	0	802160640	14	4420
2026-01-22 11:52:53.64	253.57	25.38	-27.2	-28.9	15.6	0.00e+00	0	44	0	805306368	14	4383
2026-01-22 11:52:54.65	253.86	25.43	-27.0	-28.4	15.8	0.00e+00	0	44	0	808452096	14	4262
2026-01-22 11:52:55.64	254.14	25.47	-26.9	-28.2	15.9	0.00e+00	0	44	0	811597824	14	4207
2026-01-22 11:52:56.65	254.44	25.51	-27.0	-28.4	15.8	0.00e+00	0	44	0	814743552	14	4259
2026-01-22 11:52:57.64	254.72	25.55	-26.9	-28.4	15.8	0.00e+00	0	44	0	817889280	14	4257
2026-01-22 11:52:58.65	255.01	25.59	-27.0	-28.5	15.8	0.00e+00	0	44	0	821035008	14	4269
2026-01-22 11:52:59.65	255.30	25.63	-27.0	-28.5	15.8	0.00e+00	0	44	0	824180736	14	4291
2026-01-22 11:53:00.66	255.60	25.67	-26.9	-28.3	15.9	0.00e+00	0	44	0	827326464	14	4235
2026-01-22 11:53:01.66	255.89	25.71	-26.9	-28.2	15.9	0.00e+00	0	44	0	830472192	14	4202
2026-01-22 11:53:02.67	256.18	25.75	-26.9	-28.3	15.8	0.00e+00	0	44	0	833617920	14	4235
2026-01-22 11:53:03.67	256.48	25.79	-27.1	-28.7	15.6	0.00e+00	0	44	0	836763648	14	4336
2026-01-22 11:53:04.67	256.77	25.82	-27.0	-28.5	15.7	0.00e+00	0	44	0	839909376	14	4294
2026-01-22 11:53:05.68	257.07	25.86	-27.1	-28.8	15.5	0.00e+00	0	44	0	843055104	14	4377
2026-01-22 11:53:06.68	257.36	25.89	-27.0	-28.6	15.7	0.00e+00	0	44	0	846200832	14	4316
2026-01-22 11:53:07.69	257.66	25.93	-26.8	-28.2	16.0	0.00e+00	0	44	0	849346560	14	4193
2026-01-22 11:53:08.69	257.96	25.96	-26.8	-28.1	16.0	0.00e+00	0	44	0	852492288	14	4165
2026-01-22 11:53:09.69	258.25	25.99	-26.8	-28.1	16.0	0.00e+00	0	44	0	855638016	14	4169
2026-01-22 11:53:10.70	258.55	26.02	-26.9	-28.4	15.8	0.00e+00	0	44	0	858783744	14	4249
2026-01-22 11:53:11.70	258.85	26.05	-27.2	-29.0	15.5	0.00e+00	0	44	0	861929472	14	4418
2026-01-22 11:53:12.70	259.15	26.08	-27.1	-28.8	15.6	0.00e+00	0	44	0	865075200	14	4368
2026-01-22 11:53:13.71	259.45	26.11	-26.9	-28.4	15.8	0.00e+00	0	44	0	868220928	14	4245
2026-01-22 11:53:14.71	259.75	26.14	-26.9	-28.3	15.8	0.00e+00	0	44	0	871366656	14	4241
2026-01-22 11:53:15.72	260.05	26.17	-26.9	-28.4	15.8	0.00e+00	0	44	0	874512384	14	4253
2026-01-22 11:53:16.72	260.35	26.20	-26.9	-28.3	15.9	0.00e+00	0	44	0	877658112	14	4226
2026-01-22 11:53:17.73	260.66	26.22	-27.0	-28.5	15.8	0.00e+00	0	44	0	880803840	14	4284
2026-01-22 11:53:18.73	260.96	26.25	-26.9	-28.3	15.8	0.00e+00	0	44	0	883949568	14	4230
2026-01-22 11:53:19.74	261.27	26.27	-26.7	-27.9	16.1	7.00e-07	0	44	0	887095296	14	4127
2026-01-22 11:53:20.74	261.57	26.30	-26.6	-27.6	16.2	0.00e+00	0	44	0	890241024	14	4057
2026-01-22 11:53:21.75	261.87	26.32	-26.6	-27.6	16.2	0.00e+00	0	44	0	893386752	14	4049
2026-01-22 11:53:22.76	262.18	26.34	-26.5	-27.4	16.4	0.00e+00	0	44	0	896532480	14	3979
2026-01-22 11:53:23.76	262.48	26.36	-26.4	-27.2	16.4	0.00e+00	0	44	0	899678208	14	3950
2026-01-22 11:53:24.77	262.79	26.38	-26.5	-27.4	16.4	0.00e+00	0	44	0	902823936	14	3988
2026-01-22 11:53:25.78	263.10	26.40	-26.6	-27.7	16.2	0.00e+00	0	44	0	905969664	14	4059
2026-01-22 11:53:26.78	263.40	26.42	-26.6	-27.6	16.3	0.00e+00	0	44	0	909115392	14	4039
2026-01-22 11:53:27.79	263.71	26.44	-26.7	-27.8	16.2	0.00e+00	0	44	0	912261120	14	4083
2026-01-22 11:53:28.79	264.02	26.46	-26.7	-27.7	16.2	0.00e+00	0	44	0	915406848	14	4072
2026-01-22 11:53:29.78	264.32	26.47	-26.7	-27.7	16.2	7.00e-07	0	44	0	918552576	14	4079
2026-01-22 11:53:30.79	264.63	26.49	-26.8	-28.0	16.0	0.00e+00	0	44	0	921698304	14	4154
2026-01-22 11:53:31.80	264.94	26.50	-26.8	-28.1	16.0	0.00e+00	0	44	0	924844032	14	4181
2026-01-22 11:53:32.80	265.24	26.52	-26.8	-28.2	15.9	0.00e+00	0	44	0	927989760	14	4190
2026-01-22 11:53:33.81	265.55	26.53	-26.9	-28.3	15.9	0.00e+00	0	44	0	931135488	14	4234
2026-01-22 11:53:34.81	265.86	26.54	-27.1	-28.7	15.7	0.00e+00	0	44	0	934281216	14	4322
2026-01-22 11:53:35.81	266.17	26.55	-26.9	-28.2	15.9	3.80e-06	0	44	0	937426944	14	4196
2026-01-22 11:53:36.82	266.48	26.56	-26.7	-27.8	16.2	0.00e+00	0	44	0	940572672	14	4081
2026-01-22 11:53:37.82	266.78	26.57	-26.6	-27.7	16.2	0.00e+00	0	44	0	943718400	14	4056
2026-01-22 11:53:38.82	267.09	26.58	-26.7	-27.8	16.1	4.50e-06	0	44	0	946864128	14	4090
2026-01-22 11:53:39.82	267.40	26.59	-26.9	-28.3	15.9	0.00e+00	0	44	0	950009856	14	4231
2026-01-22 11:53:40.83	267.71	26.59	-26.8	-28.1	16.0	0.00e+00	0	44	0	953155584	14	4159
2026-01-22 11:53:41.83	268.02	26.60	-26.6	-27.6	16.2	0.00e+00	0	44	0	956301312	14	4052
2026-01-22 11:53:42.84	268.33	26.60	-26.5	-27.4	16.4	0.00e+00	0	44	0	959447040	14	3988
2026-01-22 11:53:43.85	268.64	26.61	-26.6	-27.5	16.3	0.00e+00	0	44	0	962592768	14	4022
2026-01-22 11:53:44.85	268.95	26.61	-26.6	-27.6	16.3	2.20e-06	0	44	0	965738496	14	4038
2026-01-22 11:53:45.85	269.26	26.61	-26.8	-28.0	16.1	0.00e+00	0	44	0	968884224	14	4133
2026-01-22 11:53:46.86	269.57	26.61	-26.7	-27.8	16.1	0.00e+00	0	44	0	972029952	14	4101
2026-01-22 11:53:47.87	269.88	26.61	-26.6	-27.6	16.2	0.00e+00	0	44	0	975175680	14	4043
2026-01-22 11:53:48.86	270.19	26.61	-26.5	-27.5	16.3	0.00e+00	0	44	0	978321408	14	4011
2026-01-22 11:53:49.87	270.50	26.61	-26.6	-27.5	16.3	0.00e+00	0	44	0	981467136	14	4027
2026-01-22 11:53:50.87	270.80	26.61	-26.5	-27.3	16.4	0.00e+00	0	44	0	984612864	14	3968
2026-01-22 11:53:51.87	271.11	26.61	-26.4	-27.2	16.4	0.00e+00	0	44	0	987758592	14	3946
2026-01-22 11:53:52.87	271.42	26.60	-26.5	-27.3	16.4	0.00e+00	0	44	0	990904320	14	3967
2026-01-22 11:53:53.88	271.73	26.60	-26.5	-27.5	16.3	1.50e-06	0	44	0	994050048	14	4007
2026-01-22 11:53:54.88	272.04	26.59	-26.5	-27.4	16.4	0.00e+00	0	44	0	997195776	14	3979
2026-01-22 11:53:55.88	272.35	26.59	-26.5	-27.4	16.3	0.00e+00	0	44	0	999292928	14	3994
2026-01-22 11:53:56.88	272.66	26.58	-26.6	-27.7	16.2	0.00e+00	0	44	0	1002438656	14	4061
2026-01-22 11:53:57.88	272.96	26.57	-26.4	-27.1	16.5	0.00e+00	0	44	0	1005584384	14	3924
2026-01-22 11:53:58.88	273.27	26.56	-26.3	-26.9	16.6	0.00e+00	0	44	0	1008730112	14	3874
2026-01-22 11:53:59.89	273.58	26.55	-26.3	-27.3	16.7	0.00e+00	0	44	0	1011875840	13	4076
2026-01-22 11:54:00.89	273.89	26.54	-26.2	-27.1	16.7	0.00e+00	0	44	0	1015021568	13	4028
2026-01-22 11:54:01.90	274.20	26.53	-26.3	-27.3	16.7	0.00e+00	0	44	0	1018167296	13	4079
2026-01-22 11:54:02.90	274.50	26.52	-26.6	-28.1	16.3	0.00e+00	0	44	0	1021313024	13	4278
2026-01-22 11:54:03.90	274.81	26.50	-26.5	-27.9	16.3	0.00e+00	0	44	0	1024458752	13	4224
2026-01-22 11:54:04.91	275.12	26.49	-26.4	-27.7	16.5	0.00e+00	0	44	0	1027604480	13	4172
2026-01-22 11:54:05.90	275.42	26.47	-26.4	-27.6	16.5	0.00e+00	0	44	0	1030750208	13	4151
2026-01-22 11:54:06.91	275.73	26.46	-26.4	-27.7	16.5	0.00e+00	0	44	0	1033895936	13	4169
2026-01-22 11:54:07.92	276.04	26.44	-26.4	-27.6	16.5	0.00e+00	0	44	0	1037041664	13	4156
2026-01-22 11:54:08.92	276.34	26.42	-26.4	-27.7	16.4	0.00e+00	0	44	0	1040187392	13	4172
2026-01-22 11:54:09.92	276.65	26.41	-26.5	-27.9	16.4	0.00e+00	0	44	0	1043333120	13	4222
2026-01-22 11:54:10.93	276.95	26.39	-26.4	-27.6	16.5	0.00e+00	0	44	0	1046478848	13	4145
2026-01-22 11:54:11.93	277.26	26.37	-26.3	-27.5	16.6	0.00e+00	0	44	0	1049624576	13	4111
2026-01-22 11:54:12.93	277.56	26.34	-26.4	-27.6	16.5	0.00e+00	0	44	0	1052770304	13	4159
2026-01-22 11:54:13.93	277.86	26.32	-26.4	-27.8	16.4	0.00e+00	0	44	0	1055916032	13	4190
2026-01-22 11:54:14.94	278.17	26.30	-26.5	-28.0	16.3	0.00e+00	0	44	0	1059061760	13	4244
2026-01-22 11:54:15.95	278.47	26.28	-26.6	-28.0	16.3	0.00e+00	0	44	0	1062207488	13	4256
2026-01-22 11:54:16.95	278.78	26.25	-26.5	-27.9	16.3	0.00e+00	0	44	0	1065353216	13	4232
2026-01-22 11:54:17.95	279.08	26.23	-26.6	-28.2	16.2	0.00e+00	0	44	0	1068498944	13	4296
2026-01-22 11:54:18.95	279.38	26.20	-26.5	-27.9	16.3	0.00e+00	0	44	0	1071644672	13	4227
2026-01-22 11:54:19.96	279.68	26.17	-26.5	-27.8	16.4	0.00e+00	0	44	0	1074790400	13	4197
2026-01-22 11:54:20.96	279.98	26.15	-26.5	-27.9	16.3	0.00e+00	0	44	0	1077936128	13	4233
2026-01-22 11:54:21.96	280.28	26.12	-26.3	-27.5	16.6	0.00e+00	0	44	0	1081081856	13	4120
2026-01-22 11:54:22.96	280.58	26.09	-26.4	-27.6	16.5	0.00e+00	0	44	0	1084227584	13	4156
2026-01-22 11:54:23.97	280.88	26.06	-26.3	-27.5	16.6	0.00e+00	0	44	0	1087373312	13	4117
2026-01-22 11:54:24.97	281.18	26.03	-26.4	-27.6	16.5	0.00e+00	0	44	0	1090519040	13	4148
2026-01-22 11:54:25.96	281.47	26.00	-26.4	-27.7	16.5	0.00e+00	0	44	0	1093664768	13	4162
2026-01-22 11:54:26.97	281.77	25.97	-26.5	-27.9	16.4	0.00e+00	0	44	0	1096810496	13	4223
2026-01-22 11:54:27.97	282.06	25.93	-26.5	-27.9	16.3	0.00e+00	0	44	0	1099956224	13	4232
2026-01-22 11:54:28.97	282.36	25.90	-26.6	-28.2	16.2	0.00e+00	0	44	0	1103101952	13	4297
2026-01-22 11:54:29.97	282.65	25.86	-26.6	-28.0	16.2	0.00e+00	0	44	0	1106247680	13	4270
2026-01-22 11:54:30.98	282.95	25.83	-26.5	-28.0	16.3	0.00e+00	0	44	0	1109393408	13	4246
2026-01-22 11:54:31.98	283.24	25.79	-26.6	-28.0	16.3	0.00e+00	0	44	0	1112539136	13	4262
2026-01-22 11:54:32.97	283.53	25.76	-26.4	-27.7	16.4	0.00e+00	0	44	0	1115684864	13	4184
2026-01-22 11:54:33.98	283.83	25.72	-26.3	-27.5	16.5	0.00e+00	0	44	0	1118830592	13	4129
2026-01-22 11:54:34.99	284.12	25.68	-26.4	-27.7	16.5	0.00e+00	0	44	0	1121976320	13	4162
2026-01-22 11:54:35.99	284.41	25.64	-26.3	-27.5	16.6	0.00e+00	0	44	0	1125122048	13	4117
2026-01-22 11:54:36.99	284.70	25.60	-26.4	-27.7	16.4	0.00e+00	0	44	0	1128267776	13	4176
2026-01-22 11:54:37.99	284.99	25.56	-26.4	-27.7	16.4	0.00e+00	0	44	0	1131413504	13	4176
2026-01-22 11:54:38.99	285.28	25.52	-26.6	-28.1	16.2	0.00e+00	0	44	0	1134559232	13	4291
2026-01-22 11:54:40.00	285.57	25.48	-26.5	-28.0	16.3	7.00e-07	0	44	0	1137704960	13	4253
2026-01-22 11:54:41.01	285.86	25.44	-26.7	-28.3	16.1	0.00e+00	0	44	0	1140850688	13	4337
2026-01-22 11:54:42.01	286.14	25.39	-26.6	-28.0	16.3	0.00e+00	0	44	0	1143996416	13	4267
2026-01-22 11:54:43.01	286.43	25.35	-26.5	-27.8	16.4	0.00e+00	0	44	0	1147142144	13	4208
2026-01-22 11:54:44.02	286.72	25.31	-26.5	-27.9	16.3	0.00e+00	0	44	0	1150287872	13	4224
2026-01-22 11:54:45.03	287.00	25.26	-26.7	-28.3	16.1	0.00e+00	0	44	0	1153433600	13	4342
2026-01-22 11:54:46.03	287.28	25.22	-26.6	-28.1	16.2	0.00e+00	0	44	0	1156579328	13	4270
2026-01-22 11:54:47.02	287.56	25.17	-26.5	-27.9	16.4	0.00e+00	0	44	0	1159725056	13	4232
2026-01-22 11:54:48.02	287.84	25.12	-26.5	-27.9	16.3	0.00e+00	0	44	0	1162870784	13	4230
2026-01-22 11:54:49.02	288.12	25.08	-26.5	-27.9	16.3	0.00e+00	0	44	0	1166016512	13	4225
2026-01-22 11:54:50.03	288.41	25.03	-26.5	-28.0	16.3	0.00e+00	0	44	0	1169162240	13	4244
2026-01-22 11:54:51.03	288.69	24.98	-26.6	-28.1	16.2	0.00e+00	0	44	0	1172307968	13	4269
2026-01-22 11:54:52.03	288.96	24.93	-26.8	-28.5	16.0	0.00e+00	0	44	0	1175453696	13	4378
2026-01-22 11:54:53.03	289.24	24.88	-26.6	-28.2	16.2	0.00e+00	0	44	0	1178599424	13	4302
2026-01-22 11:54:54.03	289.52	24.83	-26.7	-28.2	16.1	0.00e+00	0	44	0	1181745152	13	4321
2026-01-22 11:54:55.04	289.79	24.78	-26.7	-28.4	16.1	0.00e+00	0	44	0	1184890880	13	4353
2026-01-22 11:54:56.04	290.07	24.73	-26.8	-28.5	16.0	0.00e+00	0	44	0	1188036608	13	4383
2026-01-22 11:54:57.04	290.34	24.67	-26.6	-28.2	16.2	0.00e+00	0	44	0	1191182336	13	4297
2026-01-22 11:54:58.05	290.62	24.62	-26.6	-28.1	16.2	0.00e+00	0	44	0	1194328064	13	4291
2026-01-22 11:54:59.06	290.89	24.57	-26.7	-28.3	16.1	0.00e+00	0	44	0	1197473792	13	4331
2026-01-22 11:55:00.07	291.16	24.51	-26.6	-28.1	16.2	0.00e+00	0	44	0	1200619520	13	4292
2026-01-22 11:55:01.07	291.43	24.46	-26.5	-27.9	16.3	0.00e+00	0	44	0	1203765248	13	4239
2026-01-22 11:55:02.07	291.70	24.40	-26.6	-28.0	16.2	0.00e+00	0	44	0	1206910976	13	4261
2026-01-22 11:55:03.08	291.97	24.35	-26.5	-27.9	16.3	0.00e+00	0	44	0	1210056704	13	4215
2026-01-22 11:55:04.09	292.24	24.29	-26.6	-28.1	16.2	0.00e+00	0	44	0	1213202432	13	4273
2026-01-22 11:55:05.09	292.51	24.23	-26.4	-27.7	16.4	0.00e+00	0	44	0	1216348160	13	4182
2026-01-22 11:55:06.09	292.77	24.18	-26.4	-27.7	16.4	0.00e+00	0	44	0	1219493888	13	4181
2026-01-22 11:55:07.09	293.04	24.12	-26.5	-27.9	16.3	0.00e+00	0	44	0	1222639616	13	4215
2026-01-22 11:55:08.10	293.30	24.06	-26.5	-28.0	16.3	0.00e+00	0	44	0	1225785344	13	4243
2026-01-22 11:55:09.11	293.57	24.00	-26.7	-28.3	16.1	0.00e+00	0	44	0	1228931072	13	4331
2026-01-22 11:55:10.11	293.83	23.94	-26.8	-28.5	16.0	0.00e+00	0	44	0	1232076800	13	4379
2026-01-22 11:55:11.12	294.09	23.88	-26.9	-28.8	15.8	0.00e+00	0	44	0	1235222528	13	4470
2026-01-22 11:55:12.12	294.35	23.82	-26.8	-28.5	16.0	7.00e-07	0	44	0	1238368256	13	4383
2026-01-22 11:55:13.12	294.61	23.76	-26.7	-28.4	16.0	0.00e+00	0	44	0	1241513984	13	4367
2026-01-22 11:55:14.13	294.87	23.70	-26.7	-28.4	16.0	0.00e+00	0	44	0	1244659712	13	4368
2026-01-22 11:55:15.14	295.13	23.64	-26.8	-28.5	16.0	0.00e+00	0	44	0	1247805440	13	4386
2026-01-22 11:55:16.14	295.38	23.58	-26.6	-28.1	16.2	0.00e+00	0	44	0	1250951168	13	4286
2026-01-22 11:55:17.15	295.64	23.51	-26.7	-28.3	16.1	0.00e+00	0	44	0	1254096896	13	4340
2026-01-22 11:55:18.16	295.90	23.45	-26.5	-27.9	16.3	0.00e+00	0	44	0	1257242624	13	4218
2026-01-22 11:55:19.16	296.15	23.39	-26.5	-27.8	16.3	0.00e+00	0	44	0	1260388352	13	4209
2026-01-22 11:55:20.16	296.40	23.32	-26.6	-28.1	16.2	0.00e+00	0	44	0	1263534080	13	4273
2026-01-22 11:55:21.15	296.65	23.26	-26.5	-27.9	16.3	0.00e+00	0	44	0	1266679808	13	4217
2026-01-22 11:55:22.16	296.90	23.20	-26.5	-27.9	16.3	0.00e+00	0	44	0	1269825536	13	4230
2026-01-22 11:55:23.15	297.14	23.13	-26.6	-28.1	16.2	0.00e+00	0	44	0	1272971264	13	4271
2026-01-22 11:55:24.15	297.39	23.07	-26.4	-27.7	16.4	0.00e+00	0	44	0	1275068416	13	4183
2026-01-22 11:55:25.15	297.64	23.00	-26.4	-27.7	16.4	0.00e+00	0	44	0	1278214144	13	4168
2026-01-22 11:55:26.15	297.88	22.94	-26.5	-27.9	16.2	0.00e+00	0	44	0	1281359872	13	4242
2026-01-22 11:55:27.15	298.13	22.87	-26.5	-27.9	16.3	0.00e+00	0	44	0	1284505600	13	4223
2026-01-22 11:55:28.15	298.37	22.80	-26.6	-28.1	16.1	0.00e+00	0	44	0	1287651328	13	4294
2026-01-22 11:55:29.15	298.61	22.74	-26.6	-28.1	16.2	0.00e+00	0	44	0	1290797056	13	4282
2026-01-22 11:55:30.16	298.86	22.67	-26.8	-28.5	15.9	0.00e+00	0	44	0	1294991360	13	4404
2026-01-22 11:55:31.16	299.10	22.60	-26.9	-28.9	15.8	0.00e+00	0	44	0	1297088512	13	4496
2026-01-22 11:55:32.17	299.34	22.53	-26.8	-28.6	15.9	0.00e+00	0	44	0	1300234240	13	4410
2026-01-22 11:55:33.17	299.57	22.47	-26.8	-28.5	15.9	0.00e+00	0	44	0	1303379968	13	4400
2026-01-22 11:55:34.17	299.81	22.40	-26.9	-28.7	15.8	0.00e+00	0	44	0	1306525696	13	4445
2026-01-22 11:55:35.17	300.05	22.33	-26.7	-28.4	16.0	0.00e+00	0	44	0	1309671424	13	4375
2026-01-22 11:55:36.17	300.28	22.26	-26.7	-28.4	16.0	0.00e+00	0	44	0	1312817152	13	4370
2026-01-22 11:55:37.17	300.52	22.19	-26.8	-28.5	15.9	7.00e-07	0	44	0	1315962880	13	4399
2026-01-22 11:55:38.18	300.75	22.12	-26.7	-28.4	16.0	0.00e+00	0	44	0	1319108608	13	4356
2026-01-22 11:55:39.17	300.98	22.05	-26.8	-28.5	15.9	0.00e+00	0	44	0	1322254336	13	4395
2026-01-22 11:55:40.17	301.21	21.98	-26.9	-28.9	15.7	0.00e+00	0	44	0	1325400064	13	4499
2026-01-22 11:55:41.18	301.44	21.91	-26.7	-28.4	16.0	0.00e+00	0	44	0	1328545792	13	4369
2026-01-22 11:55:42.18	301.67	21.84	-26.6	-28.1	16.2	0.00e+00	0	44	0	1331691520	13	4271
2026-01-22 11:55:43.18	301.90	21.77	-26.6	-28.0	16.2	0.00e+00	0	44	0	1334837248	13	4256
2026-01-22 11:55:44.19	302.13	21.70	-26.8	-28.5	15.9	0.00e+00	0	44	0	1337982976	13	4385
2026-01-22 11:55:45.19	302.36	21.63	-26.7	-28.4	16.0	0.00e+00	0	44	0	1341128704	13	4359
2026-01-22 11:55:46.20	302.58	21.55	-26.8	-28.5	15.9	0.00e+00	0	44	0	1344274432	13	4384
2026-01-22 11:55:47.20	302.81	21.48	-26.8	-28.5	15.9	0.00e+00	0	44	0	1347420160	13	4395
2026-01-22 11:55:48.21	303.03	21.41	-26.8	-28.6	15.8	0.00e+00	0	44	0	1350565888	13	4426
2026-01-22 11:55:49.22	303.25	21.34	-26.9	-28.7	15.8	3.00e-06	0	44	0	1353711616	13	4458
2026-01-22 11:55:50.22	303.47	21.26	-26.9	-28.7	15.8	0.00e+00	0	44	0	1356857344	13	4458
2026-01-22 11:55:51.22	303.69	21.19	-26.8	-28.7	15.8	0.00e+00	0	44	0	1360003072	13	4444
2026-01-22 11:55:52.23	303.92	21.12	-26.8	-28.7	15.8	5.30e-06	0	44	0	1363148800	13	4439
2026-01-22 11:55:53.24	304.13	21.04	-26.9	-28.8	15.8	0.00e+00	0	44	0	1366294528	13	4484
2026-01-22 11:55:54.24	304.35	20.97	-27.1	-28.8	15.5	0.00e+00	0	44	0	1369440256	14	4361
2026-01-22 11:55:55.23	304.56	20.90	-27.3	-29.2	15.3	0.00e+00	0	44	0	1372585984	14	4478
2026-01-22 11:55:56.23	304.78	20.82	-27.0	-28.5	15.6	0.00e+00	0	44	0	1375731712	14	4282
2026-01-22 11:55:57.24	304.99	20.75	-26.8	-28.1	15.9	0.00e+00	0	44	0	1378877440	14	4171
2026-01-22 11:55:58.24	305.21	20.67	-26.8	-28.0	15.9	0.00e+00	0	44	0	1382023168	14	4150
2026-01-22 11:55:59.24	305.42	20.60	-26.8	-28.1	15.9	0.00e+00	0	44	0	1385168896	14	4171
2026-01-22 11:56:00.24	305.63	20.53	-26.9	-28.3	15.7	0.00e+00	0	44	0	1388314624	14	4236
2026-01-22 11:56:01.24	305.84	20.45	-26.9	-28.4	15.7	1.50e-06	0	44	0	1391460352	14	4250
2026-01-22 11:56:02.24	306.05	20.38	-27.1	-28.9	15.4	0.00e+00	0	44	0	1394606080	14	4386
2026-01-22 11:56:03.24	306.25	20.30	-26.9	-28.3	15.7	0.00e+00	0	44	0	1397751808	14	4244
2026-01-22 11:56:04.25	306.46	20.23	-26.8	-28.0	15.9	0.00e+00	0	44	0	1400897536	14	4160
2026-01-22 11:56:05.25	306.67	20.15	-26.7	-27.9	16.0	0.00e+00	0	44	0	1404043264	14	4137
2026-01-22 11:56:06.25	306.87	20.07	-26.8	-28.0	15.9	0.00e+00	0	44	0	1407188992	14	4162
2026-01-22 11:56:07.25	307.08	20.00	-26.7	-27.9	16.0	0.00e+00	0	44	0	1410334720	14	4123
2026-01-22 11:56:08.25	307.28	19.92	-26.8	-28.0	15.9	0.00e+00	0	44	0	1413480448	14	4165
2026-01-22 11:56:09.25	307.48	19.85	-26.8	-28.1	15.9	0.00e+00	0	44	0	1416626176	14	4168
2026-01-22 11:56:10.25	307.68	19.77	-26.8	-28.2	15.8	0.00e+00	0	44	0	1419771904	14	4204
2026-01-22 11:56:11.26	307.88	19.70	-26.9	-28.2	15.8	0.00e+00	0	44	0	1422917632	14	4209
2026-01-22 11:56:12.27	308.08	19.62	-26.9	-28.3	15.7	0.00e+00	0	44	0	1426063360	14	4235
2026-01-22 11:56:13.27	308.28	19.54	-27.0	-28.4	15.6	0.00e+00	0	44	0	1429209088	14	4267
2026-01-22 11:56:14.28	308.48	19.47	-27.1	-28.8	15.5	0.00e+00	0	44	0	1432354816	14	4357
2026-01-22 11:56:15.28	308.68	19.39	-27.1	-28.8	15.5	0.00e+00	0	44	0	1435500544	14	4358
2026-01-22 11:56:16.28	308.87	19.31	-27.1	-28.6	15.5	0.00e+00	0	44	0	1438646272	14	4320
2026-01-22 11:56:17.28	309.06	19.24	-27.1	-28.7	15.5	0.00e+00	0	44	0	1441792000	14	4351
2026-01-22 11:56:18.29	309.26	19.16	-27.1	-28.8	15.4	0.00e+00	0	44	0	1444937728	14	4375
2026-01-22 11:56:19.29	309.45	19.08	-27.1	-28.7	15.5	0.00e+00	0	44	0	1448083456	14	4346
2026-01-22 11:56:20.30	309.64	19.01	-27.2	-29.0	15.3	0.00e+00	0	44	0	1451229184	14	4436
2026-01-22 11:56:21.30	309.83	18.93	-27.1	-28.7	15.5	0.00e+00	0	44	0	1454374912	14	4349
2026-01-22 11:56:22.30	310.02	18.85	-27.0	-28.6	15.5	0.00e+00	0	44	0	1457520640	14	4319
2026-01-22 11:56:23.31	310.21	18.78	-27.0	-28.6	15.5	0.00e+00	0	44	0	1460666368	14	4315
2026-01-22 11:56:24.32	310.40	18.70	-27.1	-28.7	15.5	0.00e+00	0	44	0	1463812096	14	4340
2026-01-22 11:56:25.32	310.59	18.62	-27.0	-28.5	15.6	0.00e+00	0	44	0	1466957824	14	4296
2026-01-22 11:56:26.31	310.77	18.54	-27.1	-28.8	15.5	0.00e+00	0	44	0	1470103552	14	4356
2026-01-22 11:56:27.31	310.96	18.47	-27.2	-28.9	15.4	0.00e+00	0	44	0	1473249280	14	4387
2026-01-22 11:56:28.31	311.14	18.39	-27.1	-28.8	15.4	7.00e-07	0	44	0	1476395008	14	4369
2026-01-22 11:56:29.31	311.32	18.31	-27.3	-29.1	15.3	0.00e+00	0	44	0	1479540736	14	4458
2026-01-22 11:56:30.31	311.51	18.24	-27.0	-28.6	15.5	0.00e+00	0	44	0	1482686464	14	4304
2026-01-22 11:56:31.31	311.69	18.16	-26.9	-28.4	15.7	0.00e+00	0	44	0	1485832192	14	4249
2026-01-22 11:56:32.31	311.87	18.08	-26.9	-28.3	15.7	0.00e+00	0	44	0	1488977920	14	4237
2026-01-22 11:56:33.32	312.05	18.00	-26.9	-28.3	15.7	0.00e+00	0	44	0	1492123648	14	4239
2026-01-22 11:56:34.33	312.23	17.93	-26.9	-28.3	15.7	0.00e+00	0	44	0	1495269376	14	4239
2026-01-22 11:56:35.33	312.41	17.85	-27.0	-28.4	15.6	0.00e+00	0	44	0	1498415104	14	4266
2026-01-22 11:56:36.33	312.58	17.77	-27.0	-28.6	15.5	0.00e+00	0	44	0	1501560832	14	4320
2026-01-22 11:56:37.34	312.76	17.69	-27.1	-28.8	15.4	0.00e+00	0	44	0	1504706560	14	4372
2026-01-22 11:56:38.33	312.93	17.62	-27.2	-29.0	15.3	0.00e+00	0	44	0	1507852288	14	4415
2026-01-22 11:56:39.34	313.11	17.54	-27.2	-28.9	15.4	0.00e+00	0	44	0	1510998016	14	4397
2026-01-22 11:56:40.35	313.28	17.46	-27.2	-29.0	15.3	0.00e+00	0	44	0	1514143744	14	4431
2026-01-22 11:56:41.35	313.45	17.38	-27.2	-29.0	15.3	0.00e+00	0	44	0	1517289472	14	4437
2026-01-22 11:56:42.35	313.63	17.31	-27.2	-29.0	15.3	0.00e+00	0	44	0	1520435200	14	4445
2026-01-22 11:56:43.35	313.80	17.23	-27.2	-28.9	15.3	0.00e+00	0	44	0	1523580928	14	4408
2026-01-22 11:56:44.36	313.97	17.15	-27.2	-29.0	15.3	0.00e+00	0	44	0	1526726656	14	4431
2026-01-22 11:56:45.35	314.13	17.07	-27.2	-29.1	15.3	7.00e-07	0	44	0	1528823808	14	4444
2026-01-22 11:56:46.36	314.30	17.00	-27.3	-29.3	15.1	0.00e+00	0	44	0	1533018112	14	4512
2026-01-22 11:56:47.36	314.47	16.92	-27.4	-29.4	15.1	0.00e+00	0	44	0	1536163840	14	4541
2026-01-22 11:56:48.37	314.64	16.84	-27.5	-29.1	14.9	0.00e+00	0	44	0	1539309568	15	4355
2026-01-22 11:56:49.36	314.80	16.76	-27.4	-29.0	15.0	0.00e+00	0	44	0	1542455296	15	4322
2026-01-22 11:56:50.36	314.97	16.69	-27.4	-29.0	15.0	0.00e+00	0	44	0	1545601024	15	4311
2026-01-22 11:56:51.37	315.13	16.61	-27.4	-29.0	15.0	0.00e+00	0	44	0	1548746752	15	4320
2026-01-22 11:56:52.37	315.30	16.53	-27.4	-29.0	15.0	0.00e+00	0	44	0	1550843904	15	4313
2026-01-22 11:56:53.37	315.46	16.45	-27.5	-29.1	14.9	0.00e+00	0	44	0	1553989632	15	4348
2026-01-22 11:56:54.37	315.62	16.38	-27.4	-28.9	15.0	0.00e+00	0	44	0	1557135360	15	4298
2026-01-22 11:56:55.37	315.78	16.30	-27.5	-29.2	14.9	0.00e+00	0	44	0	1560281088	15	4374
2026-01-22 11:56:56.38	315.94	16.22	-27.6	-29.3	14.8	7.00e-07	0	44	0	1563426816	15	4417
2026-01-22 11:56:57.38	316.10	16.15	-27.6	-29.5	14.7	0.00e+00	0	44	0	1566572544	15	4467
2026-01-22 11:56:58.39	316.26	16.07	-27.7	-29.7	14.6	7.00e-07	0	44	0	1569718272	15	4520
2026-01-22 11:56:59.39	316.42	15.99	-27.5	-29.2	14.8	0.00e+00	0	44	0	1572864000	15	4380
2026-01-22 11:57:00.39	316.57	15.91	-27.5	-29.1	14.9	7.00e-07	0	44	0	1576009728	15	4350
2026-01-22 11:57:01.40	316.73	15.84	-27.5	-29.1	14.8	0.00e+00	0	44	0	1579155456	15	4362
2026-01-22 11:57:02.40	316.89	15.76	-27.6	-29.3	14.7	0.00e+00	0	44	0	1582301184	15	4416
2026-01-22 11:57:03.40	317.04	15.68	-27.6	-29.5	14.7	0.00e+00	0	44	0	1585446912	15	4459
2026-01-22 11:57:04.41	317.19	15.61	-27.7	-29.8	14.5	1.50e-06	0	44	0	1588592640	15	4544
2026-01-22 11:57:05.41	317.35	15.53	-27.6	-29.5	14.7	0.00e+00	0	44	0	1591738368	15	4460
2026-01-22 11:57:06.41	317.50	15.45	-27.6	-29.4	14.7	0.00e+00	0	44	0	1594884096	15	4436
2026-01-22 11:57:07.42	317.65	15.38	-27.5	-29.3	14.7	0.00e+00	0	44	0	1598029824	15	4417
2026-01-22 11:57:08.41	317.80	15.30	-27.6	-29.4	14.6	0.00e+00	0	44	0	1601175552	15	4447
2026-01-22 11:57:09.41	317.95	15.22	-27.5	-29.3	14.7	7.00e-07	0	44	0	1604321280	15	4403
2026-01-22 11:57:10.42	318.10	15.15	-27.5	-29.1	14.8	0.00e+00	0	44	0	1607467008	15	4367
2026-01-22 11:57:11.43	318.25	15.07	-27.5	-29.2	14.8	0.00e+00	0	44	0	1610612736	15	4379
2026-01-22 11:57:12.44	318.40	14.99	-27.5	-29.2	14.8	7.00e-07	0	44	0	1613758464	15	4381
2026-01-22 11:57:13.44	318.55	14.92	-27.5	-29.3	14.7	0.00e+00	0	44	0	1616904192	15	4412
2026-01-22 11:57:14.45	318.69	14.84	-27.6	-29.5	14.6	0.00e+00	0	44	0	1620049920	15	4470
2026-01-22 11:57:15.45	318.84	14.76	-27.7	-29.6	14.5	7.00e-07	0	44	0	1623195648	15	4513
2026-01-22 11:57:16.45	318.98	14.69	-27.8	-30.0	14.3	1.50e-06	0	44	0	1626341376	15	4620
2026-01-22 11:57:17.45	319.13	14.61	-27.9	-30.1	14.2	7.00e-07	0	44	0	1629487104	15	4669
2026-01-22 11:57:18.46	319.27	14.54	-27.9	-30.2	14.2	7.00e-07	0	44	0	1632632832	15	4684
2026-01-22 11:57:19.46	319.41	14.46	-27.9	-30.3	14.1	3.00e-06	0	44	0	1635778560	15	4704
2026-01-22 11:57:20.46	319.56	14.38	-27.9	-30.2	14.1	2.20e-06	0	44	0	1638924288	15	4696
2026-01-22 11:57:21.46	319.70	14.31	-28.0	-30.3	14.1	2.20e-06	0	44	0	1642070016	15	4713
2026-01-22 11:57:22.47	319.84	14.23	-28.0	-30.4	14.0	2.20e-06	0	44	0	1645215744	15	4743
2026-01-22 11:57:23.48	319.98	14.16	-28.3	-30.6	13.8	6.80e-06	0	44	0	1648361472	16	4678
2026-01-22 11:57:24.48	320.12	14.08	-28.3	-30.7	13.7	6.10e-06	0	44	0	1651507200	16	4712
2026-01-22 11:57:25.49	320.26	14.01	-28.0	-29.9	14.2	4.50e-06	0	44	0	1654652928	16	4484
2026-01-22 11:57:26.49	320.40	13.93	-27.9	-29.7	14.3	7.00e-07	0	44	0	1657798656	16	4404
2026-01-22 11:57:27.49	320.53	13.85	-27.9	-29.5	14.4	7.00e-07	0	44	0	1660944384	16	4365
2026-01-22 11:57:28.50	320.67	13.78	-27.8	-29.4	14.5	1.50e-06	0	44	0	1664090112	16	4324
2026-01-22 11:57:29.50	320.81	13.70	-27.8	-29.5	14.5	7.00e-07	0	44	0	1667235840	16	4349
2026-01-22 11:57:30.50	320.94	13.63	-27.8	-29.4	14.5	0.00e+00	0	44	0	1670381568	16	4310
2026-01-22 11:57:31.51	321.08	13.55	-27.8	-29.3	14.5	7.00e-07	0	44	0	1673527296	16	4292
2026-01-22 11:57:32.51	321.21	13.48	-27.7	-29.2	14.6	0.00e+00	0	44	0	1676673024	16	4268
2026-01-22 11:57:33.52	321.34	13.40	-27.8	-29.3	14.5	0.00e+00	0	44	0	1679818752	16	4295
2026-01-22 11:57:34.52	321.48	13.33	-27.9	-29.5	14.4	0.00e+00	0	44	0	1682964480	16	4357
2026-01-22 11:57:35.53	321.61	13.25	-27.8	-29.4	14.4	7.00e-07	0	44	0	1686110208	16	4339
2026-01-22 11:57:36.52	321.74	13.18	-27.9	-29.6	14.3	1.50e-06	0	44	0	1689255936	16	4381
2026-01-22 11:57:37.52	321.87	13.11	-28.0	-30.0	14.1	3.00e-06	0	44	0	1692401664	16	4490
2026-01-22 11:57:38.53	322.00	13.03	-28.1	-30.1	14.0	3.00e-06	0	44	0	1695547392	16	4546
2026-01-22 11:57:39.53	322.13	12.96	-28.2	-30.2	14.0	3.80e-06	0	44	0	1698693120	16	4577
2026-01-22 11:57:40.54	322.26	12.88	-28.2	-30.4	13.9	3.80e-06	0	44	0	1701838848	16	4613
2026-01-22 11:57:41.54	322.39	12.81	-28.2	-30.3	13.9	1.50e-06	0	44	0	1704984576	16	4615
2026-01-22 11:57:42.55	322.52	12.74	-28.3	-30.6	13.7	6.80e-06	0	44	0	1708130304	16	4679
2026-01-22 11:57:43.55	322.64	12.66	-28.3	-30.6	13.7	9.90e-06	0	44	0	1711276032	16	4693
2026-01-22 11:57:44.56	322.77	12.59	-28.3	-30.5	13.7	5.30e-06	0	44	0	1714421760	16	4672
2026-01-22 11:57:45.56	322.90	12.51	-28.3	-30.6	13.7	6.80e-06	0	44	0	1717567488	16	4683
2026-01-22 11:57:46.56	323.02	12.44	-28.3	-30.6	13.7	4.50e-06	0	44	0	1720713216	16	4699
2026-01-22 11:57:47.56	323.15	12.37	-28.3	-30.7	13.6	7.60e-06	0	44	0	1723858944	16	4717
2026-01-22 11:57:48.56	323.27	12.30	-28.3	-30.7	13.6	9.10e-06	0	44	0	1727004672	16	4734
2026-01-22 11:57:49.57	323.39	12.22	-28.5	-31.0	13.4	1.06e-05	0	44	0	1730150400	16	4814
2026-01-22 11:57:50.57	323.52	12.15	-28.4	-30.4	13.5	1.44e-05	0	44	0	1733296128	17	4541
2026-01-22 11:57:51.57	323.64	12.08	-28.3	-30.0	13.7	9.90e-06	0	44	0	1736441856	17	4409
2026-01-22 11:57:52.57	323.76	12.00	-28.1	-29.7	13.9	1.50e-06	0	44	0	1739587584	17	4319
2026-01-22 11:57:53.58	323.88	11.93	-28.1	-29.7	13.9	3.00e-06	0	44	0	1742733312	17	4306
2026-01-22 11:57:54.58	324.00	11.86	-28.1	-29.7	13.9	3.00e-06	0	44	0	1745879040	17	4308
2026-01-22 11:57:55.59	324.12	11.79	-28.2	-29.8	13.8	0.00e+00	0	44	0	1749024768	17	4336
2026-01-22 11:57:56.59	324.24	11.71	-28.2	-29.8	13.8	4.50e-06	0	44	0	1752170496	17	4341
2026-01-22 11:57:57.59	324.36	11.64	-28.2	-29.9	13.8	1.50e-06	0	44	0	1755316224	17	4361
2026-01-22 11:57:58.60	324.48	11.57	-28.3	-30.0	13.7	3.80e-06	0	44	0	1758461952	17	4403
2026-01-22 11:57:59.60	324.60	11.50	-28.3	-30.1	13.6	1.06e-05	0	44	0	1761607680	17	4434
2026-01-22 11:58:00.61	324.71	11.42	-28.3	-30.2	13.6	6.80e-06	0	44	0	1764753408	17	4467
2026-01-22 11:58:01.62	324.83	11.35	-28.2	-30.0	13.7	6.10e-06	0	44	0	1767899136	17	4398
2026-01-22 11:58:02.63	324.95	11.28	-28.2	-30.0	13.7	3.80e-06	0	44	0	1771044864	17	4403
2026-01-22 11:58:03.63	325.06	11.21	-28.4	-30.3	13.5	4.50e-06	0	44	0	1774190592	17	4481
2026-01-22 11:58:04.64	325.18	11.14	-28.2	-30.0	13.7	6.80e-06	0	44	0	1777336320	17	4397
2026-01-22 11:58:05.65	325.29	11.06	-28.2	-29.8	13.8	6.10e-06	0	44	0	1780482048	17	4354
2026-01-22 11:58:06.65	325.41	10.99	-28.2	-29.8	13.8	2.20e-06	0	44	0	1783627776	17	4357
2026-01-22 11:58:07.65	325.52	10.92	-28.2	-29.8	13.8	6.10e-06	0	44	0	1786773504	17	4361
2026-01-22 11:58:08.65	325.63	10.85	-28.2	-30.0	13.7	4.50e-06	0	44	0	1789919232	17	4391
2026-01-22 11:58:09.65	325.75	10.78	-28.2	-30.0	13.7	6.10e-06	0	44	0	1793064960	17	4392
2026-01-22 11:58:10.66	325.86	10.71	-28.2	-30.0	13.6	6.10e-06	0	44	0	1796210688	17	4399
2026-01-22 11:58:11.66	325.97	10.64	-28.4	-30.3	13.4	6.10e-06	0	44	0	1799356416	17	4500
2026-01-22 11:58:12.65	326.08	10.57	-28.4	-30.3	13.5	1.06e-05	0	44	0	1802502144	17	4488
2026-01-22 11:58:13.66	326.19	10.50	-28.3	-30.1	13.6	7.60e-06	0	44	0	1805647872	17	4432
2026-01-22 11:58:14.66	326.30	10.43	-28.3	-30.1	13.6	6.80e-06	0	44	0	1808793600	17	4431
2026-01-22 11:58:15.67	326.41	10.36	-28.3	-30.1	13.6	7.60e-06	0	44	0	1811939328	17	4438
2026-01-22 11:58:16.67	326.52	10.29	-28.3	-30.1	13.6	1.06e-05	0	44	0	1815085056	17	4432
2026-01-22 11:58:17.68	326.63	10.22	-28.3	-30.0	13.6	7.60e-06	0	44	0	1818230784	17	4416
2026-01-22 11:58:18.68	326.73	10.15	-28.3	-30.1	13.5	1.22e-05	0	44	0	1821376512	17	4455
2026-01-22 11:58:19.68	326.84	10.08	-28.3	-30.2	13.5	1.29e-05	0	44	0	1824522240	17	4465
2026-01-22 11:58:20.68	326.95	10.01	-28.2	-29.9	13.7	1.06e-05	0	44	0	1827667968	17	4374
2026-01-22 11:58:21.68	327.05	9.94	-28.3	-30.0	13.6	9.90e-06	0	44	0	1830813696	17	4421
2026-01-22 11:58:22.68	327.16	9.87	-28.2	-30.0	13.6	5.30e-06	0	44	0	1833959424	17	4417
2026-01-22 11:58:23.68	327.26	9.80	-28.3	-30.1	13.5	6.80e-06	0	44	0	1837105152	17	4436
2026-01-22 11:58:24.68	327.37	9.73	-28.3	-30.2	13.5	1.29e-05	0	44	0	1840250880	17	4460
2026-01-22 11:58:25.68	327.47	9.66	-28.4	-30.4	13.3	9.90e-06	0	44	0	1843396608	17	4514
2026-01-22 11:58:26.68	327.58	9.59	-28.3	-30.2	13.4	2.05e-05	0	44	0	1846542336	17	4483
2026-01-22 11:58:27.68	327.68	9.52	-28.4	-30.3	13.3	1.67e-05	0	44	0	1849688064	17	4507
2026-01-22 11:58:28.69	327.78	9.45	-28.4	-30.3	13.4	1.90e-05	0	44	0	1851785216	17	4507
2026-01-22 11:58:29.68	327.88	9.39	-28.5	-30.6	13.2	1.52e-05	0	44	0	1854930944	17	4585
2026-01-22 11:58:30.69	327.99	9.32	-28.5	-30.6	13.2	1.98e-05	0	44	0	1858076672	17	4611
2026-01-22 11:58:31.69	328.09	9.25	-28.6	-30.8	13.1	2.28e-05	0	44	0	1861222400	17	4659
2026-01-22 11:58:32.69	328.19	9.18	-28.6	-30.9	13.0	4.04e-05	0	44	0	1864368128	17	4690
2026-01-22 11:58:33.69	328.29	9.11	-28.7	-31.2	12.9	4.95e-05	0	44	0	1867513856	17	4780
2026-01-22 11:58:34.70	328.39	9.04	-28.7	-31.1	12.9	5.87e-05	0	44	0	1870659584	17	4747
2026-01-22 11:58:35.70	328.49	8.98	-28.7	-31.1	12.9	5.03e-05	0	44	0	1873805312	17	4760
2026-01-22 11:58:36.70	328.59	8.91	-28.6	-31.0	13.0	4.04e-05	0	44	0	1876951040	17	4719
2026-01-22 11:58:37.71	328.69	8.84	-28.7	-31.2	12.8	4.34e-05	0	44	0	1880096768	17	4794
2026-01-22 11:58:38.71	328.79	8.77	-28.6	-31.0	12.9	5.11e-05	0	44	0	1883242496	17	4737
2026-01-22 11:58:39.72	328.89	8.70	-28.6	-30.9	13.0	4.27e-05	0	44	0	1886388224	17	4680
2026-01-22 11:58:40.72	328.98	8.64	-28.7	-31.1	12.8	5.87e-05	0	44	0	1889533952	17	4769
2026-01-22 11:58:41.72	329.08	8.57	-28.6	-31.0	12.9	5.26e-05	0	44	0	1892679680	17	4720
2026-01-22 11:58:42.72	329.18	8.50	-28.6	-31.0	12.9	4.65e-05	0	44	0	1895825408	17	4724
2026-01-22 11:58:43.73	329.27	8.44	-28.6	-31.0	12.9	5.79e-05	0	44	0	1898971136	17	4735
2026-01-22 11:58:44.73	329.37	8.37	-28.6	-30.9	13.0	3.66e-05	0	44	0	1902116864	17	4702
2026-01-22 11:58:45.73	329.47	8.30	-28.7	-31.2	12.7	9.00e-05	0	44	0	1905262592	17	4806
2026-01-22 11:58:46.73	329.56	8.24	-28.8	-31.3	12.7	8.85e-05	0	44	0	1908408320	17	4833
2026-01-22 11:58:47.73	329.65	8.17	-28.8	-31.5	12.5	8.01e-05	0	44	0	1911554048	17	4901
2026-01-22 11:58:48.74	329.75	8.10	-28.8	-31.5	12.5	1.17e-04	0	44	0	1914699776	17	4892
2026-01-22 11:58:49.75	329.84	8.03	-28.8	-31.5	12.5	1.12e-04	0	44	0	1917845504	17	4895
2026-01-22 11:58:50.76	329.94	7.97	-28.8	-31.5	12.4	1.39e-04	0	44	0	1920991232	17	4901
2026-01-22 11:58:51.76	330.03	7.90	-28.8	-31.5	12.5	1.10e-04	0	44	0	1924136960	17	4891
2026-01-22 11:58:52.77	330.12	7.84	-28.9	-31.8	12.3	1.70e-04	0	44	0	1927282688	17	5007
2026-01-22 11:58:53.77	330.22	7.77	-28.9	-31.3	12.3	1.81e-04	0	44	0	1930428416	18	4725
2026-01-22 11:58:54.78	330.31	7.70	-28.9	-31.3	12.4	1.95e-04	0	44	0	1933574144	18	4722
2026-01-22 11:58:55.78	330.40	7.64	-28.9	-31.1	12.4	1.25e-04	0	44	0	1936719872	18	4655
2026-01-22 11:58:56.79	330.49	7.57	-29.0	-31.5	12.1	2.30e-04	0	44	0	1939865600	18	4788
2026-01-22 11:58:57.79	330.58	7.51	-29.0	-31.4	12.2	1.81e-04	0	44	0	1943011328	18	4774
2026-01-22 11:58:58.79	330.67	7.44	-29.0	-31.5	12.1	2.45e-04	0	44	0	1946157056	18	4801
2026-01-22 11:58:59.79	330.76	7.38	-29.2	-32.1	11.8	4.20e-04	0	44	0	1949302784	18	5007
2026-01-22 11:59:00.79	330.85	7.31	-29.2	-32.1	11.8	5.74e-04	0	44	0	1952448512	18	5009
2026-01-22 11:59:01.78	330.94	7.25	-29.4	-32.5	11.5	7.51e-04	0	44	0	1955594240	18	5146
2026-01-22 11:59:02.79	331.03	7.18	-29.2	-32.1	11.6	7.48e-04	0	44	0	1958739968	18	5011
2026-01-22 11:59:03.80	331.12	7.12	-29.1	-31.9	11.7	5.40e-04	0	44	0	1961885696	18	4927
2026-01-22 11:59:04.80	331.21	7.05	-29.6	-34.5	3.9	7.54e-01	0	44	104	1963982848	21	6322
2026-01-22 11:59:05.80	331.29	6.99	-33.4	-45.7	3.8	1.49e+00	0	44	104	1963982848	26	14776
2026-01-22 11:59:06.81	331.38	6.92	-33.7	-45.7	3.8	1.49e+00	0	44	104	1963982848	27	14367
2026-01-22 11:59:07.81	331.47	6.86	-33.8	-46.0	3.8	1.49e+00	0	44	104	1963982848	27	14582

#Closed at: 2026-01-22 11:59:08
#Recorded file [1963 MB]: D:/data/31010_260122_144835.dat