passes_logs/2026/01/22/R2M6_AANII_01/R2M6_AANII_01__20260122_050540_FENGYUN_3E_rec.log

#Pass ID: 20260122_050540_FENGYUN 3E
#Satellite: FENGYUN 3E
#Configuration: FENGYUN 3E
#almurnet v.1.7.20240730
#Start time: 2026-01-22 05:11:19

#Version: 2.2.20231116
#Station: R2M6_AANII_01
#Location: 30.233357 lon 59.946436 lat
#TLE: 1 49008U 21062A   26021.55921410  .00000414  00000+0  21575-3 0  9991
#TLE: 2 49008  98.7483  26.6103 0002287 125.5068 234.6322 14.19887394235776

#Time	Az	El	Level	Level2	SNR	BER	BlckErr	Temp	State	Recorded	gain1	gain2
2026-01-22 05:11:19.13	314.64	61.56	-33.7	-44.9	3.8	8.46e-01	0	44	0	0	27	13150
2026-01-22 05:11:20.13	313.72	61.69	-34.0	-42.9	3.8	8.45e-01	0	44	104	0	29	9975
2026-01-22 05:11:21.13	312.79	61.82	-34.0	-42.9	3.8	8.46e-01	0	44	104	0	29	10036
2026-01-22 05:11:22.13	311.85	61.94	-34.0	-42.9	3.8	8.47e-01	0	44	104	0	29	10057
2026-01-22 05:11:23.13	310.90	62.06	-34.0	-42.9	3.8	8.46e-01	0	44	104	0	29	10001
2026-01-22 05:11:24.14	309.93	62.17	-34.0	-42.8	3.8	8.45e-01	0	44	104	0	29	9965
2026-01-22 05:11:25.14	308.97	62.27	-34.0	-42.9	3.8	8.45e-01	0	44	104	0	29	10011
2026-01-22 05:11:26.14	307.99	62.36	-34.0	-42.8	3.8	8.47e-01	0	44	104	0	29	9960
2026-01-22 05:11:27.15	307.00	62.45	-33.9	-42.8	3.8	8.46e-01	0	44	104	0	29	10048
2026-01-22 05:11:28.16	306.00	62.53	-34.0	-42.9	3.8	8.46e-01	0	44	104	0	29	10021
2026-01-22 05:11:29.16	305.00	62.60	-33.9	-42.8	3.8	8.46e-01	0	44	104	0	29	9996
2026-01-22 05:11:30.16	304.00	62.67	-33.9	-42.8	3.8	8.45e-01	0	44	104	0	29	9968
2026-01-22 05:11:31.16	303.00	62.73	-33.9	-42.7	3.8	8.46e-01	0	44	104	0	29	9917
2026-01-22 05:11:32.16	301.99	62.78	-33.9	-42.7	3.8	8.46e-01	0	44	104	0	29	9923
2026-01-22 05:11:33.16	300.97	62.82	-33.9	-42.7	3.8	8.46e-01	0	45	104	0	29	9941
2026-01-22 05:11:34.16	299.95	62.86	-34.0	-42.9	3.8	8.46e-01	0	45	104	0	29	10029
2026-01-22 05:11:35.17	298.92	62.89	-34.0	-42.9	3.8	8.46e-01	0	44	104	0	29	10028
2026-01-22 05:11:36.17	297.90	62.91	-34.0	-42.9	3.8	8.46e-01	0	44	104	0	29	10019
2026-01-22 05:11:37.18	296.86	62.92	-34.0	-42.8	3.8	8.46e-01	0	44	104	0	29	9939
2026-01-22 05:11:38.18	295.84	62.92	-34.0	-42.9	3.8	8.47e-01	0	44	104	0	29	9992
2026-01-22 05:11:39.18	294.81	62.92	-34.0	-43.0	3.8	8.46e-01	0	44	104	0	29	10054
2026-01-22 05:11:40.19	293.78	62.91	-34.0	-42.9	3.8	8.46e-01	0	44	104	0	29	10005
2026-01-22 05:11:41.19	292.75	62.89	-34.0	-42.9	3.8	8.46e-01	0	44	104	0	29	10021
2026-01-22 05:11:42.19	291.73	62.87	-34.0	-42.8	3.8	8.46e-01	0	44	104	0	29	9980
2026-01-22 05:11:43.19	290.71	62.83	-33.9	-42.8	3.8	8.46e-01	0	44	104	0	29	9958
2026-01-22 05:11:44.19	289.69	62.79	-33.9	-42.7	3.8	8.46e-01	0	44	104	0	29	9894
2026-01-22 05:11:45.19	288.68	62.74	-34.0	-42.8	3.8	8.46e-01	0	44	104	0	29	9938
2026-01-22 05:11:46.19	287.67	62.69	-33.9	-42.8	3.8	8.46e-01	0	44	104	0	29	9949
2026-01-22 05:11:47.20	286.66	62.62	-33.9	-42.8	3.8	8.46e-01	0	44	104	0	29	10006
2026-01-22 05:11:48.20	285.66	62.55	-33.9	-42.7	3.8	8.45e-01	0	44	104	0	29	9910
2026-01-22 05:11:49.20	284.67	62.48	-33.9	-42.6	3.8	8.45e-01	0	44	104	0	29	9806
2026-01-22 05:11:50.20	283.68	62.39	-33.9	-42.6	3.8	8.47e-01	0	44	104	0	29	9769
2026-01-22 05:11:51.21	282.70	62.30	-33.9	-42.6	3.8	8.45e-01	0	44	104	0	29	9766
2026-01-22 05:11:52.21	281.73	62.20	-33.9	-42.4	3.8	8.46e-01	0	44	104	0	29	9645
2026-01-22 05:11:53.21	280.76	62.09	-33.9	-42.8	3.8	8.46e-01	0	44	104	0	28	10118
2026-01-22 05:11:54.22	279.80	61.98	-33.9	-42.8	3.8	8.46e-01	0	44	104	0	28	10098
2026-01-22 05:11:55.22	278.86	61.86	-33.9	-42.9	3.8	8.46e-01	0	44	104	0	28	10176
2026-01-22 05:11:56.22	277.92	61.73	-33.9	-42.7	3.8	8.47e-01	0	44	104	0	28	9929
2026-01-22 05:11:57.22	277.00	61.60	-33.8	-42.1	3.8	8.48e-01	0	44	104	0	28	9374
2026-01-22 05:11:58.22	276.08	61.46	-33.8	-42.1	3.8	8.47e-01	0	44	104	0	28	9380
2026-01-22 05:11:59.23	275.17	61.32	-33.9	-42.8	3.8	8.46e-01	0	44	104	0	28	10054
2026-01-22 05:12:00.23	274.27	61.17	-33.9	-43.1	3.8	8.46e-01	0	44	104	0	28	10369
2026-01-22 05:12:01.23	273.39	61.01	-33.9	-42.9	3.8	8.45e-01	0	44	104	0	28	10215
2026-01-22 05:12:02.23	272.52	60.85	-33.8	-42.5	3.8	8.47e-01	0	44	104	0	28	9772
2026-01-22 05:12:03.24	271.65	60.68	-33.8	-42.4	3.8	8.46e-01	0	44	104	0	28	9720
2026-01-22 05:12:04.23	270.81	60.51	-33.8	-42.5	3.8	8.47e-01	0	44	104	0	28	9780
2026-01-22 05:12:05.23	269.97	60.34	-33.8	-42.0	3.8	8.46e-01	0	44	104	0	28	9346
2026-01-22 05:12:06.23	269.14	60.15	-33.7	-41.8	3.8	8.46e-01	0	44	104	0	28	9159
2026-01-22 05:12:07.23	268.33	59.97	-33.5	-40.2	3.9	8.46e-01	0	44	104	0	28	7810
2026-01-22 05:12:08.24	267.52	59.77	-33.0	-37.5	4.9	8.12e-01	0	44	104	0	27	6053
2026-01-22 05:12:09.24	266.73	59.58	-32.1	-35.1	6.6	2.49e-01	0	44	0	3145728	25	5128
2026-01-22 05:12:10.24	265.95	59.38	-31.8	-34.8	7.1	1.55e-01	0	44	0	10485760	24	5073
2026-01-22 05:12:11.24	265.18	59.17	-30.4	-31.8	9.7	5.47e-02	0	44	0	17825792	22	4221
2026-01-22 05:12:12.25	264.42	58.96	-26.7	-27.1	14.8	1.10e-06	0	44	0	25165824	14	3757
2026-01-22 05:12:13.25	263.68	58.75	-25.2	-25.3	16.7	0.00e+00	0	44	0	32505856	11	3627
2026-01-22 05:12:14.26	262.94	58.53	-25.3	-25.5	16.6	0.00e+00	0	44	0	39845888	11	3687
2026-01-22 05:12:15.26	262.22	58.32	-25.6	-26.1	16.2	0.00e+00	0	44	0	47185920	11	3814
2026-01-22 05:12:16.27	261.51	58.09	-25.7	-26.3	16.1	0.00e+00	0	44	0	54525952	11	3874
2026-01-22 05:12:17.27	260.81	57.87	-26.1	-26.7	15.5	0.00e+00	0	44	0	60817408	12	3876
2026-01-22 05:12:18.27	260.13	57.64	-25.9	-26.3	15.8	0.00e+00	0	44	0	68157440	12	3768
2026-01-22 05:12:19.28	259.45	57.40	-25.5	-25.5	16.3	0.00e+00	0	44	0	75497472	12	3579
2026-01-22 05:12:20.28	258.79	57.17	-25.3	-25.6	16.5	0.00e+00	0	44	0	82837504	11	3707
2026-01-22 05:12:21.28	258.14	56.93	-25.4	-25.8	16.4	0.00e+00	0	44	0	90177536	11	3757
2026-01-22 05:12:22.29	257.50	56.69	-25.5	-26.0	16.3	0.00e+00	0	44	0	97517568	11	3803
2026-01-22 05:12:23.29	256.87	56.45	-25.7	-26.5	16.0	0.00e+00	0	44	0	104857600	11	3913
2026-01-22 05:12:24.29	256.26	56.20	-25.0	-24.9	16.8	0.00e+00	0	44	0	112197632	11	3543
2026-01-22 05:12:25.29	255.65	55.96	-24.6	-24.6	17.3	0.00e+00	0	44	0	119537664	10	3574
2026-01-22 05:12:26.29	255.06	55.71	-24.5	-24.4	17.3	0.00e+00	0	44	0	126877696	10	3534
2026-01-22 05:12:27.30	254.47	55.46	-24.6	-24.6	17.3	0.00e+00	0	44	0	134217728	10	3579
2026-01-22 05:12:28.29	253.90	55.21	-24.6	-24.6	17.2	0.00e+00	0	44	0	141557760	10	3588
2026-01-22 05:12:29.29	253.34	54.96	-24.4	-24.5	17.5	0.00e+00	0	44	0	147849216	9	3661
2026-01-22 05:12:30.29	252.79	54.70	-24.4	-24.5	17.5	0.00e+00	0	44	0	155189248	9	3655
2026-01-22 05:12:31.30	252.24	54.44	-24.4	-24.6	17.5	0.00e+00	0	44	0	162529280	9	3691
2026-01-22 05:12:32.30	251.70	54.19	-24.8	-25.4	17.1	0.00e+00	0	44	0	169869312	9	3866
2026-01-22 05:12:33.30	251.18	53.93	-24.8	-25.5	16.9	0.00e+00	0	44	0	177209344	9	3888
2026-01-22 05:12:34.29	250.67	53.67	-24.9	-25.7	16.9	0.00e+00	0	44	0	184549376	9	3949
2026-01-22 05:12:35.30	250.16	53.41	-24.6	-25.1	17.2	0.00e+00	0	44	0	191889408	9	3796
2026-01-22 05:12:36.30	249.66	53.14	-24.7	-25.3	17.1	0.00e+00	0	44	0	199229440	9	3850
2026-01-22 05:12:37.30	249.18	52.88	-24.7	-25.3	17.1	0.00e+00	0	44	0	206569472	9	3839
2026-01-22 05:12:38.31	248.69	52.62	-24.7	-25.2	17.1	0.00e+00	0	44	0	212860928	9	3819
2026-01-22 05:12:39.31	248.22	52.35	-24.7	-25.2	17.1	0.00e+00	0	44	0	220200960	9	3835
2026-01-22 05:12:40.32	247.76	52.09	-24.8	-25.5	17.0	0.00e+00	0	44	0	227540992	9	3889
2026-01-22 05:12:41.32	247.30	51.82	-24.9	-25.7	16.8	0.00e+00	0	44	0	234881024	9	3944
2026-01-22 05:12:42.32	246.86	51.56	-25.3	-26.0	16.4	0.00e+00	0	44	0	242221056	10	3922
2026-01-22 05:12:43.32	246.42	51.29	-24.9	-25.2	16.9	0.00e+00	0	44	0	249561088	10	3708
2026-01-22 05:12:44.32	245.99	51.03	-24.8	-25.0	17.0	0.00e+00	0	44	0	256901120	10	3663
2026-01-22 05:12:45.32	245.57	50.76	-24.8	-25.0	17.0	0.00e+00	0	44	0	264241152	10	3666
2026-01-22 05:12:46.32	245.15	50.49	-25.0	-25.4	16.7	0.00e+00	0	44	0	270532608	10	3778
2026-01-22 05:12:47.32	244.75	50.23	-24.8	-25.1	16.9	0.00e+00	0	44	0	277872640	10	3698
2026-01-22 05:12:48.33	244.34	49.96	-24.4	-24.0	17.5	0.00e+00	0	44	0	285212672	10	3465
2026-01-22 05:12:49.32	243.95	49.70	-24.0	-23.7	17.9	0.00e+00	0	44	0	292552704	9	3502
2026-01-22 05:12:50.33	243.56	49.43	-24.0	-23.7	17.9	0.00e+00	0	44	0	299892736	9	3483
2026-01-22 05:12:51.33	243.18	49.16	-24.0	-23.8	17.8	0.00e+00	0	44	0	307232768	9	3510
2026-01-22 05:12:52.33	242.81	48.90	-23.9	-24.1	18.0	0.00e+00	0	44	0	314572800	8	3659
2026-01-22 05:12:53.32	242.45	48.63	-24.3	-24.9	17.5	0.00e+00	0	44	0	321912832	8	3867
2026-01-22 05:12:54.32	242.09	48.37	-24.5	-24.8	17.3	0.00e+00	0	44	0	329252864	9	3734
2026-01-22 05:12:55.32	241.73	48.11	-24.3	-24.3	17.5	0.00e+00	0	44	0	335544320	9	3625
2026-01-22 05:12:56.32	241.38	47.84	-24.2	-24.1	17.6	0.00e+00	0	44	0	342884352	9	3573
2026-01-22 05:12:57.32	241.04	47.58	-24.2	-24.2	17.6	0.00e+00	0	44	0	350224384	9	3598
2026-01-22 05:12:58.32	240.70	47.32	-24.4	-24.6	17.4	0.00e+00	0	44	0	357564416	9	3690
2026-01-22 05:12:59.33	240.37	47.05	-24.1	-24.0	17.7	0.00e+00	0	44	0	364904448	9	3560
2026-01-22 05:13:00.33	240.04	46.79	-24.0	-23.7	17.8	0.00e+00	0	44	0	372244480	9	3500
2026-01-22 05:13:01.32	239.73	46.53	-23.9	-23.6	17.9	0.00e+00	0	44	0	379584512	9	3480
2026-01-22 05:13:02.32	239.41	46.27	-23.9	-24.0	18.0	0.00e+00	0	44	0	386924544	8	3649
2026-01-22 05:13:03.32	239.10	46.01	-24.0	-24.2	17.9	0.00e+00	0	44	0	393216000	8	3707
2026-01-22 05:13:04.33	238.80	45.75	-24.2	-24.7	17.4	0.00e+00	0	45	0	400556032	8	3822
2026-01-22 05:13:05.33	238.50	45.49	-23.8	-23.9	17.9	0.00e+00	0	44	0	407896064	8	3643
2026-01-22 05:13:06.33	238.20	45.23	-23.6	-23.5	18.2	0.00e+00	0	45	0	415236096	8	3553
2026-01-22 05:13:07.33	237.91	44.98	-23.5	-23.1	18.3	0.00e+00	0	44	0	422576128	8	3465
2026-01-22 05:13:08.34	237.62	44.72	-23.3	-23.4	18.5	0.00e+00	0	44	0	429916160	7	3620
2026-01-22 05:13:09.34	237.34	44.46	-23.3	-23.3	18.5	0.00e+00	0	45	0	437256192	7	3609
2026-01-22 05:13:10.34	237.07	44.21	-23.4	-23.6	18.4	0.00e+00	0	45	0	444596224	7	3660
2026-01-22 05:13:11.34	236.80	43.96	-23.5	-23.8	18.3	1.10e-06	0	45	0	451936256	7	3707
2026-01-22 05:13:12.35	236.53	43.70	-23.2	-23.1	18.6	0.00e+00	0	45	0	459276288	7	3566
2026-01-22 05:13:13.35	236.26	43.45	-23.1	-22.8	18.7	0.00e+00	0	45	0	466616320	7	3500
2026-01-22 05:13:14.35	236.00	43.20	-23.0	-22.6	18.9	3.40e-06	0	45	0	473956352	7	3452
2026-01-22 05:13:15.35	235.75	42.95	-22.9	-22.9	18.8	0.00e+00	0	45	0	480247808	6	3627
2026-01-22 05:13:16.35	235.50	42.70	-22.8	-22.8	19.0	0.00e+00	0	44	0	487587840	6	3604
2026-01-22 05:13:17.36	235.25	42.45	-22.9	-23.0	18.9	0.00e+00	0	45	0	494927872	6	3629
2026-01-22 05:13:18.36	235.01	42.21	-23.0	-23.2	18.8	0.00e+00	0	45	0	502267904	6	3682
2026-01-22 05:13:19.36	234.77	41.96	-23.1	-23.3	18.7	0.00e+00	0	45	0	509607936	6	3705
2026-01-22 05:13:20.36	234.53	41.72	-23.0	-23.3	18.7	0.00e+00	0	45	0	516947968	6	3703
2026-01-22 05:13:21.36	234.30	41.47	-23.0	-23.2	18.8	0.00e+00	0	45	0	524288000	6	3675
2026-01-22 05:13:22.37	234.07	41.23	-23.0	-23.1	18.8	0.00e+00	0	45	0	531628032	6	3667
2026-01-22 05:13:23.37	233.84	40.99	-23.0	-23.1	18.8	0.00e+00	0	45	0	538968064	6	3668
2026-01-22 05:13:24.37	233.62	40.75	-23.1	-23.4	18.7	0.00e+00	0	45	0	545259520	6	3721
2026-01-22 05:13:25.38	233.40	40.51	-22.9	-23.1	18.4	0.00e+00	0	45	0	552599552	6	3659
2026-01-22 05:13:26.37	233.19	40.27	-23.1	-23.5	18.6	0.00e+00	0	45	0	559939584	6	3747
2026-01-22 05:13:27.37	232.97	40.04	-23.3	-23.7	18.5	0.00e+00	0	45	0	567279616	6	3807
2026-01-22 05:13:28.38	232.76	39.80	-23.2	-23.7	18.5	0.00e+00	0	45	0	574619648	6	3805
2026-01-22 05:13:29.37	232.56	39.57	-23.3	-23.8	18.4	0.00e+00	0	44	0	581959680	6	3830
2026-01-22 05:13:30.38	232.35	39.33	-23.3	-23.9	18.4	0.00e+00	0	45	0	589299712	6	3836
2026-01-22 05:13:31.38	232.15	39.10	-23.3	-23.7	18.5	0.00e+00	0	45	0	596639744	6	3803
2026-01-22 05:13:32.39	231.95	38.87	-23.2	-23.7	18.5	0.00e+00	0	45	0	603979776	6	3801
2026-01-22 05:13:33.39	231.76	38.64	-23.2	-23.6	18.5	0.00e+00	0	45	0	611319808	6	3777
2026-01-22 05:13:34.39	231.57	38.41	-23.3	-23.9	18.4	0.00e+00	0	45	0	618659840	6	3830
2026-01-22 05:13:35.38	231.38	38.18	-23.4	-24.0	18.3	0.00e+00	0	44	0	624951296	6	3857
2026-01-22 05:13:36.39	231.19	37.95	-23.3	-23.8	18.4	0.00e+00	0	45	0	632291328	6	3819
2026-01-22 05:13:37.39	231.01	37.73	-23.3	-23.7	18.5	0.00e+00	0	44	0	639631360	6	3808
2026-01-22 05:13:38.39	230.83	37.51	-23.2	-23.6	18.5	0.00e+00	0	44	0	646971392	6	3769
2026-01-22 05:13:39.39	230.65	37.28	-23.3	-23.9	18.4	0.00e+00	0	45	0	654311424	6	3833
2026-01-22 05:13:40.40	230.47	37.06	-23.5	-24.2	18.2	0.00e+00	0	45	0	661651456	6	3915
2026-01-22 05:13:41.39	230.30	36.84	-23.5	-24.2	18.2	0.00e+00	0	45	0	668991488	6	3920
2026-01-22 05:13:42.40	230.12	36.62	-23.9	-24.7	17.7	0.00e+00	0	45	0	676331520	7	3919
2026-01-22 05:13:43.40	229.96	36.40	-24.1	-24.5	17.6	0.00e+00	0	45	0	683671552	8	3764
2026-01-22 05:13:44.40	229.79	36.19	-23.8	-23.8	18.0	0.00e+00	0	45	0	689963008	8	3619
2026-01-22 05:13:45.41	229.62	35.97	-23.5	-23.2	18.2	0.00e+00	0	45	0	697303040	8	3498
2026-01-22 05:13:46.41	229.46	35.75	-23.2	-23.2	18.3	0.00e+00	0	44	0	704643072	7	3582
2026-01-22 05:13:47.41	229.30	35.54	-23.1	-23.0	18.6	0.00e+00	0	45	0	711983104	7	3542
2026-01-22 05:13:48.41	229.14	35.33	-22.9	-22.6	18.8	0.00e+00	0	45	0	719323136	7	3456
2026-01-22 05:13:49.41	228.98	35.12	-22.7	-22.6	18.9	0.00e+00	0	45	0	726663168	6	3554
2026-01-22 05:13:50.41	228.83	34.91	-22.8	-22.8	18.9	0.00e+00	0	45	0	734003200	6	3604
2026-01-22 05:13:51.41	228.68	34.70	-22.8	-22.8	18.7	0.00e+00	0	44	0	741343232	6	3596
2026-01-22 05:13:52.42	228.53	34.49	-22.5	-22.3	19.2	0.00e+00	0	45	0	748683264	6	3482
2026-01-22 05:13:53.41	228.38	34.29	-22.5	-22.1	19.2	0.00e+00	0	45	0	754974720	6	3463
2026-01-22 05:13:54.42	228.23	34.08	-22.5	-22.1	19.2	0.00e+00	0	45	0	762314752	6	3459
2026-01-22 05:13:55.42	228.09	33.87	-22.5	-22.2	19.2	0.00e+00	0	45	0	769654784	6	3476
2026-01-22 05:13:56.42	227.95	33.67	-22.5	-22.2	19.2	0.00e+00	0	45	0	776994816	6	3464
2026-01-22 05:13:57.43	227.80	33.47	-22.6	-22.3	19.2	0.00e+00	0	45	0	784334848	6	3490
2026-01-22 05:13:58.44	227.66	33.27	-22.7	-22.6	19.0	0.00e+00	0	45	0	791674880	6	3565
2026-01-22 05:13:59.44	227.53	33.07	-22.8	-22.7	18.9	0.00e+00	0	45	0	799014912	6	3584
2026-01-22 05:14:00.44	227.39	32.87	-22.7	-22.6	19.0	0.00e+00	0	45	0	806354944	6	3547
2026-01-22 05:14:01.44	227.26	32.67	-22.8	-22.7	19.0	0.00e+00	0	45	0	813694976	6	3572
2026-01-22 05:14:02.44	227.12	32.47	-22.8	-22.9	18.8	0.00e+00	0	45	0	821035008	6	3613
2026-01-22 05:14:03.44	226.99	32.28	-22.9	-23.1	18.8	0.00e+00	0	45	0	828375040	6	3654
2026-01-22 05:14:04.45	226.86	32.08	-23.0	-23.2	18.7	0.00e+00	0	45	0	834666496	6	3681
2026-01-22 05:14:05.45	226.73	31.89	-23.0	-23.2	18.7	0.00e+00	0	45	0	842006528	6	3682
2026-01-22 05:14:06.46	226.61	31.70	-23.0	-23.3	18.5	0.00e+00	0	44	0	849346560	6	3713
2026-01-22 05:14:07.46	226.48	31.51	-23.1	-23.4	18.5	0.00e+00	0	45	0	856686592	6	3737
2026-01-22 05:14:08.46	226.36	31.32	-23.1	-23.4	18.5	0.00e+00	0	45	0	864026624	6	3738
2026-01-22 05:14:09.47	226.24	31.13	-23.1	-23.5	18.5	0.00e+00	0	45	0	871366656	6	3747
2026-01-22 05:14:10.47	226.12	30.94	-22.9	-23.1	18.7	0.00e+00	0	45	0	878706688	6	3658
2026-01-22 05:14:11.48	226.00	30.75	-22.9	-23.0	18.8	0.00e+00	0	45	0	886046720	6	3647
2026-01-22 05:14:12.48	225.88	30.57	-22.9	-23.0	18.7	0.00e+00	0	45	0	893386752	6	3644
2026-01-22 05:14:13.47	225.76	30.38	-22.9	-23.0	18.8	0.00e+00	0	44	0	899678208	6	3633
2026-01-22 05:14:14.48	225.65	30.20	-23.0	-23.2	18.7	0.00e+00	0	45	0	907018240	6	3679
2026-01-22 05:14:15.48	225.54	30.02	-23.0	-23.2	18.6	0.00e+00	0	45	0	915406848	6	3692
2026-01-22 05:14:16.49	225.42	29.83	-23.0	-23.2	18.6	0.00e+00	0	45	0	921698304	6	3687
2026-01-22 05:14:17.48	225.31	29.65	-23.0	-23.3	18.6	0.00e+00	0	45	0	929038336	6	3713
2026-01-22 05:14:18.48	225.20	29.48	-23.1	-23.5	18.5	0.00e+00	0	45	0	936378368	6	3761
2026-01-22 05:14:19.49	225.09	29.30	-23.1	-23.5	18.5	0.00e+00	0	45	0	943718400	6	3748
2026-01-22 05:14:20.49	224.99	29.12	-23.2	-23.6	18.4	0.00e+00	0	45	0	951058432	6	3781
2026-01-22 05:14:21.49	224.88	28.94	-23.2	-23.7	18.3	0.00e+00	0	45	0	958398464	6	3809
2026-01-22 05:14:22.49	224.78	28.77	-23.2	-23.6	18.4	0.00e+00	0	44	0	965738496	6	3778
2026-01-22 05:14:23.50	224.67	28.59	-23.2	-23.7	18.3	0.00e+00	0	45	0	973078528	6	3803
2026-01-22 05:14:24.50	224.57	28.42	-23.2	-23.6	18.4	0.00e+00	0	45	0	979369984	6	3789
2026-01-22 05:14:25.51	224.47	28.24	-23.0	-23.2	18.5	1.10e-06	0	45	0	986710016	6	3696
2026-01-22 05:14:26.51	224.37	28.07	-23.0	-23.2	18.6	0.00e+00	0	45	0	994050048	6	3681
2026-01-22 05:14:27.51	224.27	27.90	-23.0	-23.2	18.6	0.00e+00	0	45	0	1001390080	6	3677
2026-01-22 05:14:28.51	224.17	27.73	-23.1	-23.4	18.5	1.10e-06	0	45	0	1008730112	6	3735
2026-01-22 05:14:29.51	224.07	27.56	-23.2	-23.6	18.4	0.00e+00	0	45	0	1016070144	6	3776
2026-01-22 05:14:30.51	223.98	27.40	-23.1	-23.3	18.5	0.00e+00	0	44	0	1023410176	6	3710
2026-01-22 05:14:31.51	223.88	27.23	-23.1	-23.3	18.5	0.00e+00	0	45	0	1030750208	6	3720
2026-01-22 05:14:32.51	223.79	27.06	-23.2	-23.5	18.4	0.00e+00	0	45	0	1038090240	6	3762
2026-01-22 05:14:33.51	223.70	26.90	-23.2	-23.7	18.3	0.00e+00	0	45	0	1044381696	6	3812
2026-01-22 05:14:34.52	223.60	26.73	-23.4	-24.0	18.2	2.20e-06	0	44	0	1051721728	6	3863
2026-01-22 05:14:35.52	223.51	26.57	-23.4	-24.1	18.1	0.00e+00	0	45	0	1059061760	6	3905
2026-01-22 05:14:36.52	223.42	26.41	-23.4	-24.1	18.1	0.00e+00	0	45	0	1066401792	6	3892
2026-01-22 05:14:37.52	223.34	26.25	-23.5	-24.3	18.0	0.00e+00	0	45	0	1073741824	6	3941
2026-01-22 05:14:38.52	223.25	26.09	-23.5	-24.3	18.0	0.00e+00	0	45	0	1081081856	6	3946
2026-01-22 05:14:39.52	223.16	25.93	-23.4	-24.2	18.1	0.00e+00	0	45	0	1088421888	6	3910
2026-01-22 05:14:40.52	223.07	25.77	-23.5	-24.2	18.0	0.00e+00	0	45	0	1095761920	6	3921
2026-01-22 05:14:41.52	222.99	25.61	-23.4	-24.2	18.1	0.00e+00	0	45	0	1103101952	6	3915
2026-01-22 05:14:42.51	222.91	25.46	-23.4	-24.0	18.1	0.00e+00	0	45	0	1109393408	6	3883
2026-01-22 05:14:43.51	222.82	25.30	-23.4	-24.0	18.1	0.00e+00	0	45	0	1116733440	6	3877
2026-01-22 05:14:44.52	222.74	25.15	-23.3	-23.8	18.2	0.00e+00	0	45	0	1124073472	6	3835
2026-01-22 05:14:45.52	222.66	24.99	-23.3	-23.9	18.2	0.00e+00	0	45	0	1131413504	6	3862
2026-01-22 05:14:46.52	222.57	24.84	-23.3	-23.9	18.2	0.00e+00	0	44	0	1138753536	6	3851
2026-01-22 05:14:47.52	222.49	24.69	-23.2	-23.6	18.3	0.00e+00	0	45	0	1146093568	6	3792
2026-01-22 05:14:48.52	222.42	24.53	-23.2	-23.7	18.3	0.00e+00	0	45	0	1153433600	6	3798
2026-01-22 05:14:49.53	222.34	24.38	-23.2	-23.7	18.3	0.00e+00	0	45	0	1160773632	6	3797
2026-01-22 05:14:50.53	222.26	24.23	-23.2	-23.6	18.3	0.00e+00	0	45	0	1168113664	6	3774
2026-01-22 05:14:51.53	222.18	24.08	-23.2	-23.6	18.3	0.00e+00	0	45	0	1174405120	6	3775
2026-01-22 05:14:52.53	222.10	23.93	-23.3	-23.9	18.2	0.00e+00	0	45	0	1181745152	6	3838
2026-01-22 05:14:53.53	222.03	23.79	-23.3	-23.8	18.2	0.00e+00	0	45	0	1189085184	6	3830
2026-01-22 05:14:54.54	221.95	23.64	-23.2	-23.6	18.3	0.00e+00	0	45	0	1196425216	6	3780
2026-01-22 05:14:55.54	221.88	23.49	-23.1	-23.5	18.3	0.00e+00	0	45	0	1203765248	6	3757
2026-01-22 05:14:56.55	221.80	23.34	-23.2	-23.7	18.2	0.00e+00	0	45	0	1211105280	6	3810
2026-01-22 05:14:57.54	221.73	23.20	-23.2	-23.7	18.3	0.00e+00	0	45	0	1218445312	6	3802
2026-01-22 05:14:58.55	221.66	23.06	-23.1	-23.5	18.3	0.00e+00	0	45	0	1225785344	6	3767
2026-01-22 05:14:59.55	221.59	22.91	-23.3	-23.8	18.2	0.00e+00	0	44	0	1233125376	6	3828
2026-01-22 05:15:00.55	221.52	22.77	-23.3	-23.8	18.2	0.00e+00	0	45	0	1240465408	6	3816
2026-01-22 05:15:01.56	221.45	22.63	-23.2	-23.6	18.3	0.00e+00	0	45	0	1247805440	6	3771
2026-01-22 05:15:02.56	221.38	22.49	-23.2	-23.6	18.3	0.00e+00	0	45	0	1254096896	6	3788
2026-01-22 05:15:03.56	221.31	22.35	-23.2	-23.7	18.3	0.00e+00	0	45	0	1261436928	6	3805
2026-01-22 05:15:04.57	221.24	22.20	-23.2	-23.7	18.2	0.00e+00	0	45	0	1268776960	6	3793
2026-01-22 05:15:05.58	221.17	22.06	-23.3	-23.9	18.1	0.00e+00	0	45	0	1276116992	6	3858
2026-01-22 05:15:06.58	221.11	21.93	-23.4	-24.0	18.1	0.00e+00	0	45	0	1283457024	6	3860
2026-01-22 05:15:07.59	221.04	21.79	-23.5	-24.2	17.9	0.00e+00	0	45	0	1290797056	6	3922
2026-01-22 05:15:08.59	220.97	21.65	-23.4	-24.1	18.0	0.00e+00	0	45	0	1298137088	6	3894
2026-01-22 05:15:09.59	220.91	21.52	-23.5	-24.2	18.0	0.00e+00	0	44	0	1305477120	6	3913
2026-01-22 05:15:10.60	220.84	21.38	-23.5	-24.2	17.9	0.00e+00	0	45	0	1312817152	6	3923
2026-01-22 05:15:11.60	220.78	21.24	-23.5	-24.4	17.9	0.00e+00	0	45	0	1320157184	6	3961
2026-01-22 05:15:12.61	220.71	21.11	-23.6	-24.0	17.8	0.00e+00	0	45	0	1327497216	7	3762
2026-01-22 05:15:13.61	220.65	20.98	-23.7	-24.1	17.7	0.00e+00	0	45	0	1333788672	7	3792
2026-01-22 05:15:14.60	220.59	20.84	-23.7	-24.1	17.7	0.00e+00	0	45	0	1341128704	7	3797
2026-01-22 05:15:15.60	220.53	20.71	-23.7	-24.1	17.7	0.00e+00	0	45	0	1348468736	7	3795
2026-01-22 05:15:16.60	220.47	20.58	-23.7	-24.2	17.7	1.10e-06	0	44	0	1355808768	7	3809
2026-01-22 05:15:17.61	220.41	20.45	-23.7	-24.2	17.7	0.00e+00	0	45	0	1363148800	7	3817
2026-01-22 05:15:18.61	220.35	20.32	-23.7	-24.2	17.6	0.00e+00	0	45	0	1370488832	7	3815
2026-01-22 05:15:19.62	220.29	20.19	-23.7	-24.2	17.6	0.00e+00	0	45	0	1377828864	7	3821
2026-01-22 05:15:20.62	220.23	20.06	-23.8	-24.5	17.5	0.00e+00	0	45	0	1385168896	7	3885
2026-01-22 05:15:21.62	220.17	19.93	-23.9	-24.5	17.5	0.00e+00	0	45	0	1392508928	7	3890
2026-01-22 05:15:22.63	220.11	19.80	-23.7	-24.3	17.6	0.00e+00	0	45	0	1398800384	7	3831
2026-01-22 05:15:23.63	220.05	19.68	-23.8	-24.4	17.6	0.00e+00	0	45	0	1406140416	7	3859
2026-01-22 05:15:24.62	220.00	19.55	-23.8	-24.3	17.6	0.00e+00	0	45	0	1413480448	7	3846
2026-01-22 05:15:25.63	219.94	19.43	-23.8	-24.4	17.5	0.00e+00	0	45	0	1420820480	7	3869
2026-01-22 05:15:26.63	219.88	19.30	-23.8	-24.5	17.5	0.00e+00	0	45	0	1428160512	7	3885
2026-01-22 05:15:27.64	219.83	19.17	-23.9	-24.7	17.4	4.50e-06	0	45	0	1435500544	7	3932
2026-01-22 05:15:28.64	219.77	19.05	-23.9	-24.7	17.4	0.00e+00	0	45	0	1442840576	7	3917
2026-01-22 05:15:29.65	219.72	18.93	-23.9	-24.7	17.3	0.00e+00	0	45	0	1450180608	7	3923
2026-01-22 05:15:30.65	219.67	18.80	-24.0	-24.9	17.2	0.00e+00	0	45	0	1457520640	7	3974
2026-01-22 05:15:31.65	219.61	18.68	-24.0	-24.8	17.3	0.00e+00	0	45	0	1464860672	7	3956
2026-01-22 05:15:32.65	219.56	18.56	-24.0	-24.8	17.3	0.00e+00	0	45	0	1472200704	7	3943
2026-01-22 05:15:33.65	219.51	18.44	-24.0	-24.9	17.2	1.10e-06	0	45	0	1479540736	7	3990
2026-01-22 05:15:34.66	219.45	18.32	-24.1	-24.6	17.2	0.00e+00	0	45	0	1485832192	8	3803
2026-01-22 05:15:35.66	219.40	18.20	-24.1	-24.6	17.1	0.00e+00	0	45	0	1493172224	8	3798
2026-01-22 05:15:36.66	219.35	18.08	-24.2	-24.7	17.1	2.20e-06	0	45	0	1500512256	8	3815
2026-01-22 05:15:37.66	219.30	17.96	-24.2	-24.8	17.0	0.00e+00	0	45	0	1507852288	8	3852
2026-01-22 05:15:38.66	219.25	17.84	-24.2	-24.8	17.0	0.00e+00	0	44	0	1515192320	8	3856
2026-01-22 05:15:39.67	219.20	17.72	-24.3	-24.9	16.9	2.20e-06	0	45	0	1522532352	8	3879
2026-01-22 05:15:40.67	219.15	17.61	-24.3	-25.0	16.9	0.00e+00	0	45	0	1529872384	8	3909
2026-01-22 05:15:41.68	219.10	17.49	-24.3	-25.1	16.9	0.00e+00	0	45	0	1537212416	8	3910
2026-01-22 05:15:42.67	219.05	17.37	-24.3	-25.0	16.9	0.00e+00	0	45	0	1543503872	8	3902
2026-01-22 05:15:43.67	219.00	17.26	-24.4	-25.2	16.8	0.00e+00	0	45	0	1550843904	8	3947
2026-01-22 05:15:44.67	218.95	17.14	-24.5	-25.4	16.7	0.00e+00	0	45	0	1558183936	8	3989
2026-01-22 05:15:45.68	218.91	17.03	-24.5	-25.4	16.7	0.00e+00	0	45	0	1565523968	8	4007
2026-01-22 05:15:46.68	218.86	16.91	-24.6	-25.6	16.5	0.00e+00	0	45	0	1572864000	8	4036
2026-01-22 05:15:47.69	218.81	16.80	-24.6	-25.5	16.6	0.00e+00	0	45	0	1580204032	8	4029
2026-01-22 05:15:48.69	218.76	16.69	-24.6	-25.1	16.5	0.00e+00	0	45	0	1587544064	9	3828
2026-01-22 05:15:49.70	218.72	16.57	-24.8	-25.6	16.3	0.00e+00	0	45	0	1594884096	9	3922
2026-01-22 05:15:50.70	218.67	16.46	-24.8	-25.5	16.3	0.00e+00	0	45	0	1602224128	9	3916
2026-01-22 05:15:51.70	218.63	16.35	-24.9	-25.8	16.2	0.00e+00	0	45	0	1609564160	9	3974
2026-01-22 05:15:52.71	218.58	16.24	-24.8	-25.5	16.3	0.00e+00	0	45	0	1616904192	9	3922
2026-01-22 05:15:53.71	218.54	16.13	-24.8	-25.4	16.4	0.00e+00	0	45	0	1624244224	9	3896
2026-01-22 05:15:54.71	218.49	16.02	-24.7	-25.4	16.4	0.00e+00	0	45	0	1630535680	9	3894
2026-01-22 05:15:55.71	218.45	15.91	-24.7	-25.3	16.4	0.00e+00	0	45	0	1637875712	9	3874
2026-01-22 05:15:56.71	218.40	15.80	-24.8	-25.5	16.3	0.00e+00	0	45	0	1645215744	9	3920
2026-01-22 05:15:57.71	218.36	15.69	-24.8	-25.6	16.3	0.00e+00	0	45	0	1652555776	9	3927
2026-01-22 05:15:58.71	218.32	15.58	-24.8	-25.5	16.3	0.00e+00	0	45	0	1659895808	9	3917
2026-01-22 05:15:59.72	218.27	15.47	-24.8	-25.7	16.2	0.00e+00	0	45	0	1667235840	9	3952
2026-01-22 05:16:00.72	218.23	15.37	-24.8	-25.5	16.3	0.00e+00	0	45	0	1674575872	9	3927
2026-01-22 05:16:01.72	218.19	15.26	-24.8	-25.5	16.3	0.00e+00	0	45	0	1681915904	9	3920
2026-01-22 05:16:02.72	218.15	15.15	-24.8	-25.6	16.2	0.00e+00	0	45	0	1689255936	9	3935
2026-01-22 05:16:03.72	218.11	15.05	-24.8	-25.7	16.2	0.00e+00	0	45	0	1695547392	9	3950
2026-01-22 05:16:04.73	218.06	14.94	-24.9	-25.8	16.1	0.00e+00	0	45	0	1702887424	9	3979
2026-01-22 05:16:05.73	218.02	14.84	-25.1	-26.2	15.9	0.00e+00	0	45	0	1710227456	9	4086
2026-01-22 05:16:06.72	217.98	14.73	-25.4	-26.3	15.5	0.00e+00	0	45	0	1717567488	10	4010
2026-01-22 05:16:07.73	217.94	14.63	-25.3	-26.2	15.6	0.00e+00	0	45	0	1724907520	10	3982
2026-01-22 05:16:08.73	217.90	14.53	-25.1	-25.8	15.9	0.00e+00	0	45	0	1732247552	10	3874
2026-01-22 05:16:09.73	217.86	14.42	-25.1	-25.6	15.9	0.00e+00	0	45	0	1739587584	10	3842
2026-01-22 05:16:10.73	217.82	14.32	-25.1	-25.7	15.9	0.00e+00	0	45	0	1746927616	10	3855
2026-01-22 05:16:11.73	217.78	14.22	-25.1	-25.7	15.7	0.00e+00	0	45	0	1753219072	10	3862
2026-01-22 05:16:12.73	217.75	14.12	-25.1	-25.8	15.8	0.00e+00	0	45	0	1760559104	10	3881
2026-01-22 05:16:13.73	217.71	14.01	-25.2	-25.8	15.8	0.00e+00	0	45	0	1767899136	10	3888
2026-01-22 05:16:14.72	217.67	13.91	-25.2	-25.8	15.7	0.00e+00	0	45	0	1775239168	10	3899
2026-01-22 05:16:15.73	217.63	13.81	-25.2	-26.0	15.7	0.00e+00	0	45	0	1782579200	10	3921
2026-01-22 05:16:16.73	217.59	13.71	-25.2	-26.0	15.7	0.00e+00	0	45	0	1789919232	10	3934
2026-01-22 05:16:17.73	217.56	13.61	-25.3	-26.1	15.6	0.00e+00	0	45	0	1797259264	10	3967
2026-01-22 05:16:18.74	217.52	13.51	-25.3	-26.2	15.6	0.00e+00	0	45	0	1804599296	10	3982
2026-01-22 05:16:19.74	217.48	13.41	-25.3	-26.3	15.5	0.00e+00	0	45	0	1811939328	10	3998
2026-01-22 05:16:20.74	217.45	13.31	-25.5	-26.5	15.3	0.00e+00	0	45	0	1819279360	10	4064
2026-01-22 05:16:21.74	217.41	13.22	-25.4	-26.5	15.4	0.00e+00	0	45	0	1826619392	10	4055
2026-01-22 05:16:22.75	217.37	13.12	-25.4	-26.4	15.4	0.00e+00	0	45	0	1833959424	10	4047
2026-01-22 05:16:23.76	217.34	13.02	-25.5	-26.5	15.3	0.00e+00	0	45	0	1840250880	10	4065
2026-01-22 05:16:24.75	217.30	12.92	-25.5	-26.7	15.2	0.00e+00	0	45	0	1847590912	10	4117
2026-01-22 05:16:25.75	217.27	12.83	-25.5	-26.2	15.2	0.00e+00	0	45	0	1854930944	11	3878
2026-01-22 05:16:26.75	217.23	12.73	-25.5	-26.1	15.3	0.00e+00	0	45	0	1862270976	11	3862
2026-01-22 05:16:27.76	217.20	12.63	-25.5	-26.2	15.2	0.00e+00	0	45	0	1869611008	11	3887
2026-01-22 05:16:28.75	217.16	12.54	-25.6	-26.2	15.2	0.00e+00	0	45	0	1876951040	11	3895
2026-01-22 05:16:29.75	217.13	12.44	-25.6	-26.3	15.1	0.00e+00	0	45	0	1884291072	11	3904
2026-01-22 05:16:30.75	217.09	12.35	-25.7	-26.5	15.0	0.00e+00	0	45	0	1891631104	11	3966
2026-01-22 05:16:31.76	217.06	12.25	-25.6	-26.4	15.1	0.00e+00	0	45	0	1897922560	11	3929
2026-01-22 05:16:32.77	217.03	12.16	-25.6	-26.4	15.0	0.00e+00	0	45	0	1905262592	11	3936
2026-01-22 05:16:33.77	216.99	12.06	-25.6	-26.4	15.1	0.00e+00	0	45	0	1912602624	11	3926
2026-01-22 05:16:34.77	216.96	11.97	-25.7	-26.6	15.0	0.00e+00	0	45	0	1919942656	11	3971
2026-01-22 05:16:35.78	216.93	11.87	-25.7	-26.5	15.0	0.00e+00	0	45	0	1927282688	11	3954
2026-01-22 05:16:36.79	216.89	11.78	-25.6	-26.4	15.0	0.00e+00	0	45	0	1934622720	11	3925
2026-01-22 05:16:37.78	216.86	11.69	-25.7	-26.6	14.9	0.00e+00	0	45	0	1941962752	11	3979
2026-01-22 05:16:38.78	216.83	11.60	-25.6	-26.4	15.0	0.00e+00	0	45	0	1949302784	11	3935
2026-01-22 05:16:39.79	216.80	11.50	-25.7	-26.6	14.9	0.00e+00	0	45	0	1956642816	11	3974
2026-01-22 05:16:40.80	216.76	11.41	-25.6	-26.4	15.0	0.00e+00	0	45	0	1963982848	11	3934
2026-01-22 05:16:41.81	216.73	11.32	-25.6	-26.4	15.0	0.00e+00	0	45	0	1971322880	11	3920
2026-01-22 05:16:42.81	216.70	11.23	-25.6	-26.4	15.0	0.00e+00	0	45	0	1978662912	11	3932
2026-01-22 05:16:43.81	216.67	11.14	-25.7	-26.5	14.9	0.00e+00	0	45	0	1984954368	11	3947
2026-01-22 05:16:44.82	216.64	11.05	-25.6	-26.4	15.0	0.00e+00	0	45	0	1992294400	11	3941
2026-01-22 05:16:45.82	216.61	10.96	-25.6	-26.4	15.0	1.10e-06	0	45	0	1999634432	11	3944
2026-01-22 05:16:46.82	216.58	10.87	-25.8	-26.7	14.8	0.00e+00	0	45	0	2006974464	11	4001
2026-01-22 05:16:47.82	216.55	10.78	-25.7	-26.5	14.9	1.10e-06	0	45	0	2014314496	11	3966
2026-01-22 05:16:48.83	216.52	10.69	-25.7	-26.5	14.9	0.00e+00	0	45	0	2021654528	11	3955
2026-01-22 05:16:49.83	216.49	10.60	-25.7	-26.6	14.8	1.10e-06	0	45	0	2028994560	11	3983
2026-01-22 05:16:50.83	216.46	10.51	-25.7	-26.5	14.9	0.00e+00	0	45	0	2036334592	11	3968
2026-01-22 05:16:51.83	216.43	10.43	-25.7	-26.6	14.8	0.00e+00	0	45	0	2043674624	11	3982
2026-01-22 05:16:52.84	216.40	10.34	-25.7	-26.6	14.8	0.00e+00	0	45	0	2051014656	11	3974
2026-01-22 05:16:53.85	216.37	10.25	-25.8	-26.7	14.8	0.00e+00	0	45	0	2058354688	11	4001
2026-01-22 05:16:54.84	216.34	10.16	-25.8	-26.8	14.7	0.00e+00	0	45	0	2065694720	11	4034
2026-01-22 05:16:55.85	216.31	10.07	-25.8	-26.8	14.7	1.10e-06	0	45	0	2071986176	11	4023
2026-01-22 05:16:56.85	216.28	9.99	-25.8	-26.7	14.7	0.00e+00	0	45	0	2079326208	11	4018
2026-01-22 05:16:57.85	216.25	9.90	-25.9	-26.9	14.6	0.00e+00	0	45	0	2086666240	11	4055
2026-01-22 05:16:58.86	216.22	9.82	-25.9	-26.9	14.6	0.00e+00	0	45	0	2094006272	11	4060
2026-01-22 05:16:59.86	216.20	9.73	-26.0	-27.1	14.5	0.00e+00	0	45	0	2101346304	11	4110
2026-01-22 05:17:00.86	216.17	9.64	-25.9	-27.0	14.6	0.00e+00	0	45	0	2108686336	11	4076
2026-01-22 05:17:01.86	216.14	9.56	-26.0	-27.1	14.5	0.00e+00	0	45	0	2116026368	11	4124
2026-01-22 05:17:02.86	216.11	9.47	-26.0	-27.2	14.4	0.00e+00	0	45	0	2123366400	11	4143
2026-01-22 05:17:03.86	216.09	9.39	-26.0	-27.3	14.4	0.00e+00	0	45	0	2129657856	11	4169
2026-01-22 05:17:04.86	216.06	9.31	-26.0	-26.8	14.3	0.00e+00	0	45	0	2136997888	12	3939
2026-01-22 05:17:05.86	216.03	9.22	-26.1	-27.1	14.1	0.00e+00	0	45	0	2144337920	12	3999
2026-01-22 05:17:06.86	216.00	9.14	-26.1	-26.9	14.3	0.00e+00	0	45	0	2151677952	12	3956
2026-01-22 05:17:07.87	215.98	9.05	-26.0	-26.8	14.3	3.40e-06	0	45	0	2159017984	12	3932
2026-01-22 05:17:08.87	215.95	8.97	-26.1	-26.9	14.2	0.00e+00	0	45	0	2166358016	12	3969
2026-01-22 05:17:09.88	215.93	8.89	-26.2	-27.3	14.0	1.10e-06	0	45	0	2173698048	12	4065
2026-01-22 05:17:10.88	215.90	8.81	-26.1	-27.1	14.1	5.70e-06	0	45	0	2181038080	12	4002
2026-01-22 05:17:11.89	215.87	8.72	-26.1	-27.1	14.1	2.20e-06	0	45	0	2188378112	12	4019
2026-01-22 05:17:12.88	215.85	8.64	-26.3	-27.4	13.9	2.20e-06	0	45	0	2195718144	12	4104
2026-01-22 05:17:13.89	215.82	8.56	-26.2	-27.3	14.0	6.80e-06	0	45	0	2203058176	12	4067
2026-01-22 05:17:14.90	215.80	8.48	-26.3	-27.4	13.9	1.10e-06	0	45	0	2210398208	12	4081
2026-01-22 05:17:15.90	215.77	8.40	-26.3	-27.4	13.9	6.80e-06	0	45	0	2216689664	12	4085
2026-01-22 05:17:16.90	215.74	8.31	-26.3	-27.3	13.9	5.70e-06	0	45	0	2224029696	12	4080
2026-01-22 05:17:17.90	215.72	8.23	-26.3	-27.3	13.9	4.50e-06	0	45	0	2231369728	12	4080
2026-01-22 05:17:18.90	215.69	8.15	-26.3	-27.5	13.8	5.70e-06	0	45	0	2238709760	12	4120
2026-01-22 05:17:19.90	215.67	8.07	-26.3	-27.5	13.8	6.80e-06	0	45	0	2246049792	12	4115
2026-01-22 05:17:20.91	215.65	7.99	-26.3	-27.6	13.7	5.70e-06	0	45	0	2253389824	12	4141
2026-01-22 05:17:21.92	215.62	7.91	-26.3	-27.5	13.8	8.00e-06	0	45	0	2260729856	12	4123
2026-01-22 05:17:22.93	215.60	7.83	-26.5	-27.9	13.5	1.02e-05	0	45	0	2268069888	12	4224
2026-01-22 05:17:23.93	215.57	7.75	-26.4	-27.6	13.7	1.25e-05	0	45	0	2274361344	12	4155
2026-01-22 05:17:24.93	215.55	7.67	-26.4	-27.6	13.7	1.14e-05	0	45	0	2281701376	12	4155
2026-01-22 05:17:25.93	215.52	7.60	-26.4	-27.7	13.6	1.02e-05	0	45	0	2290089984	12	4187
2026-01-22 05:17:26.94	215.50	7.52	-26.6	-28.1	13.3	1.83e-05	0	45	0	2296381440	12	4289
2026-01-22 05:17:27.94	215.48	7.44	-26.5	-27.4	13.5	1.37e-05	0	45	0	2303721472	13	3997
2026-01-22 05:17:28.95	215.45	7.36	-26.4	-27.1	13.6	9.10e-06	0	45	0	2311061504	13	3927
2026-01-22 05:17:29.96	215.43	7.28	-26.5	-27.4	13.5	1.60e-05	0	45	0	2318401536	13	3991
2026-01-22 05:17:30.96	215.41	7.20	-26.5	-27.3	13.5	1.02e-05	0	45	0	2325741568	13	3981
2026-01-22 05:17:31.96	215.38	7.13	-26.4	-27.3	13.5	1.48e-05	0	45	0	2333081600	13	3975
2026-01-22 05:17:32.96	215.36	7.05	-32.8	-42.3	3.8	8.46e-01	0	45	104	2336227328	25	10799
2026-01-22 05:17:33.96	215.34	6.97	-33.2	-42.8	3.8	8.47e-01	0	45	104	2336227328	26	10872
2026-01-22 05:17:34.96	215.32	6.90	-33.5	-43.5	3.8	8.46e-01	0	45	104	2336227328	26	11312

#Closed at: 2026-01-22 05:17:35
#Recorded file [2336 MB]: D:/data/31010_260122_081208.dat