passes_logs/2026/01/22/R2M6_AANII_01/R2M6_AANII_01__20260122_113333_AQUA_rec.log

#Pass ID: 20260122_113333_AQUA
#Satellite: AQUA
#Configuration: AQUA
#almurnet v.1.7.20240730
#Start time: 2026-01-22 11:33:35

#Version: 2.2.20231116
#Station: R2M6_AANII_01
#Location: 30.233357 lon 59.946436 lat
#TLE: 1 27424U 02022A   26021.53721517  .00002456  00000+0  50140-3 0  9996
#TLE: 2 27424  98.4098 348.0744 0002012  70.1009  46.1672 14.61843091261845

#Time	Az	El	Level	Level2	SNR	BER	BlckErr	Temp	State	Recorded	gain1	gain2
2026-01-22 11:33:35.26	143.44	7.13	-30.8	-36.9	5.1	7.09e-01	0	41	0	0	23	7304
2026-01-22 11:33:36.26	143.41	7.21	-30.8	-37.1	5.0	7.09e-01	0	41	104	0	23	7416
2026-01-22 11:33:37.26	143.38	7.29	-30.9	-36.7	13.8	6.09e-01	0	41	0	0	23	7057
2026-01-22 11:33:38.27	143.34	7.37	-31.0	-37.2	13.4	6.08e-01	0	41	0	1572864	23	7405
2026-01-22 11:33:39.27	143.31	7.46	-30.7	-36.3	14.0	6.07e-01	0	41	0	3670016	23	6891
2026-01-22 11:33:40.28	143.28	7.54	-30.5	-35.6	14.5	6.09e-01	0	41	0	5242880	23	6531
2026-01-22 11:33:41.28	143.25	7.62	-30.3	-35.7	14.8	6.08e-01	0	41	0	7340032	22	6737
2026-01-22 11:33:42.28	143.21	7.70	-30.2	-35.6	14.8	6.08e-01	0	41	0	9437184	22	6704
2026-01-22 11:33:43.28	143.18	7.79	-30.2	-35.5	15.0	6.08e-01	0	41	0	11010048	22	6597
2026-01-22 11:33:44.28	143.15	7.87	-30.0	-34.7	15.6	6.08e-01	0	42	0	13107200	22	6152
2026-01-22 11:33:45.28	143.11	7.96	-29.9	-34.1	16.0	6.08e-01	0	41	0	14680064	22	5866
2026-01-22 11:33:46.28	143.08	8.04	-29.8	-34.1	16.5	6.07e-01	0	42	0	16777216	21	5920
2026-01-22 11:33:47.29	143.04	8.13	-29.9	-34.5	16.1	6.06e-01	0	42	0	18350080	21	6162
2026-01-22 11:33:48.29	143.01	8.21	-29.7	-33.9	16.6	6.07e-01	0	42	0	20447232	21	5823
2026-01-22 11:33:49.29	142.97	8.30	-29.7	-33.6	16.9	6.06e-01	0	42	0	22544384	21	5623
2026-01-22 11:33:50.29	142.94	8.38	-29.8	-33.6	17.0	6.06e-01	0	42	0	24117248	21	5604
2026-01-22 11:33:51.29	142.90	8.47	-29.8	-33.6	17.1	6.05e-01	0	42	0	26214400	21	5549
2026-01-22 11:33:52.30	142.87	8.55	-29.8	-33.5	17.1	6.07e-01	0	42	0	27787264	21	5533
2026-01-22 11:33:53.31	142.83	8.64	-29.9	-33.7	17.0	6.06e-01	0	42	0	29884416	21	5613
2026-01-22 11:33:54.31	142.80	8.73	-29.9	-33.9	16.9	6.06e-01	0	42	0	31457280	21	5688
2026-01-22 11:33:55.31	142.76	8.82	-29.9	-33.7	17.1	6.06e-01	0	42	0	33554432	21	5552
2026-01-22 11:33:56.32	142.72	8.90	-29.9	-33.5	17.3	6.04e-01	0	42	0	35651584	21	5455
2026-01-22 11:33:57.33	142.69	8.99	-29.9	-33.4	17.4	6.06e-01	0	42	0	37224448	21	5405
2026-01-22 11:33:58.33	142.65	9.08	-29.9	-33.4	17.4	6.07e-01	0	42	0	39321600	21	5435
2026-01-22 11:33:59.33	142.61	9.17	-29.9	-33.7	17.2	6.06e-01	0	42	0	41418752	21	5531
2026-01-22 11:34:00.33	142.57	9.26	-29.9	-33.5	17.3	6.05e-01	0	42	0	42991616	21	5444
2026-01-22 11:34:01.34	142.54	9.35	-30.0	-33.7	17.2	6.06e-01	0	42	0	45088768	21	5541
2026-01-22 11:34:02.34	142.50	9.44	-30.0	-33.9	17.1	6.05e-01	0	42	0	46661632	21	5634
2026-01-22 11:34:03.35	142.46	9.53	-30.0	-33.7	17.2	6.08e-01	0	42	0	48758784	21	5543
2026-01-22 11:34:04.35	142.42	9.62	-30.0	-33.8	17.2	6.08e-01	0	42	0	50331648	21	5586
2026-01-22 11:34:05.36	142.38	9.71	-29.9	-33.5	17.4	6.08e-01	0	42	0	52428800	21	5437
2026-01-22 11:34:06.35	142.34	9.80	-30.0	-33.7	17.3	6.04e-01	0	42	0	54525952	21	5557
2026-01-22 11:34:07.36	142.30	9.89	-30.0	-33.8	17.2	6.06e-01	0	42	0	56098816	21	5586
2026-01-22 11:34:08.36	142.26	9.99	-29.8	-33.4	17.5	6.05e-01	0	42	0	58195968	21	5390
2026-01-22 11:34:09.37	142.22	10.08	-29.7	-33.0	17.7	6.05e-01	0	42	0	59768832	21	5249
2026-01-22 11:34:10.37	142.18	10.17	-29.7	-33.0	17.8	6.07e-01	0	42	0	61865984	21	5258
2026-01-22 11:34:11.37	142.14	10.26	-29.8	-33.2	17.7	6.07e-01	0	42	0	63963136	21	5325
2026-01-22 11:34:12.38	142.10	10.36	-29.7	-33.0	17.8	6.09e-01	0	42	0	65536000	21	5246
2026-01-22 11:34:13.38	142.06	10.45	-29.7	-32.9	17.9	6.08e-01	0	42	0	67633152	21	5203
2026-01-22 11:34:14.38	142.02	10.55	-29.6	-32.8	17.9	6.03e-01	0	42	0	69206016	21	5198
2026-01-22 11:34:15.38	141.98	10.64	-29.7	-32.9	17.8	6.07e-01	0	42	0	71303168	21	5243
2026-01-22 11:34:16.38	141.93	10.74	-29.6	-32.6	18.0	6.04e-01	0	42	0	73400320	21	5122
2026-01-22 11:34:17.38	141.89	10.83	-29.5	-32.4	18.2	6.04e-01	0	42	0	74973184	21	5042
2026-01-22 11:34:18.37	141.85	10.93	-29.5	-32.4	18.2	6.07e-01	0	42	0	77070336	21	5031
2026-01-22 11:34:19.37	141.81	11.02	-29.5	-32.4	18.2	6.04e-01	0	42	0	78643200	21	5030
2026-01-22 11:34:20.37	141.76	11.12	-29.4	-32.3	18.2	6.06e-01	0	42	0	80740352	21	4999
2026-01-22 11:34:21.37	141.72	11.21	-29.4	-32.3	18.2	6.05e-01	0	42	0	82313216	21	5031
2026-01-22 11:34:22.37	141.67	11.31	-29.4	-32.3	18.2	6.07e-01	0	42	0	84410368	21	5033
2026-01-22 11:34:23.37	141.63	11.41	-29.4	-32.6	18.3	6.06e-01	0	42	0	86507520	20	5218
2026-01-22 11:34:24.37	141.59	11.51	-29.3	-32.5	18.4	6.06e-01	0	42	0	88080384	20	5189
2026-01-22 11:34:25.38	141.54	11.61	-29.4	-32.6	18.4	6.04e-01	0	42	0	90177536	20	5215
2026-01-22 11:34:26.38	141.49	11.71	-29.4	-32.7	18.4	6.04e-01	0	42	0	91750400	20	5242
2026-01-22 11:34:27.39	141.45	11.81	-29.3	-32.4	18.5	6.08e-01	0	42	0	93847552	20	5147
2026-01-22 11:34:28.39	141.40	11.91	-29.3	-32.4	18.6	6.06e-01	0	42	0	95420416	20	5122
2026-01-22 11:34:29.39	141.36	12.01	-29.3	-32.4	18.5	6.06e-01	0	42	0	97517568	20	5130
2026-01-22 11:34:30.40	141.31	12.11	-29.4	-32.5	18.5	6.05e-01	0	43	0	99614720	20	5175
2026-01-22 11:34:31.40	141.26	12.21	-29.4	-32.6	18.4	6.06e-01	0	43	0	101187584	20	5223
2026-01-22 11:34:32.40	141.21	12.31	-29.4	-32.5	18.6	6.06e-01	0	42	0	103284736	20	5148
2026-01-22 11:34:33.40	141.17	12.41	-29.4	-32.6	18.5	6.07e-01	0	43	0	104857600	20	5186
2026-01-22 11:34:34.40	141.12	12.51	-29.2	-32.1	18.8	6.06e-01	0	43	0	106954752	20	5024
2026-01-22 11:34:35.40	141.07	12.62	-29.1	-32.0	18.8	6.07e-01	0	43	0	108527616	20	5002
2026-01-22 11:34:36.40	141.02	12.72	-29.1	-31.9	18.8	6.06e-01	0	43	0	110624768	20	5002
2026-01-22 11:34:37.41	140.97	12.83	-29.0	-31.8	18.9	6.07e-01	0	43	0	112721920	20	4962
2026-01-22 11:34:38.41	140.92	12.93	-29.1	-32.1	18.7	6.08e-01	0	43	0	114294784	20	5062
2026-01-22 11:34:39.41	140.87	13.03	-29.2	-32.4	18.5	6.07e-01	0	43	0	116391936	20	5196
2026-01-22 11:34:40.41	140.82	13.14	-29.0	-32.2	18.5	6.07e-01	0	43	0	118489088	20	5201
2026-01-22 11:34:41.41	140.77	13.25	-29.1	-32.2	18.7	6.04e-01	0	43	0	120061952	20	5152
2026-01-22 11:34:42.41	140.72	13.35	-29.0	-32.1	18.7	6.08e-01	0	43	0	122159104	20	5127
2026-01-22 11:34:43.42	140.66	13.46	-29.2	-32.4	18.6	6.06e-01	0	43	0	123731968	20	5244
2026-01-22 11:34:44.42	140.61	13.57	-29.1	-32.5	18.5	6.07e-01	0	43	0	125829120	20	5280
2026-01-22 11:34:45.43	140.56	13.68	-29.2	-32.6	18.5	6.06e-01	0	43	0	127401984	20	5299
2026-01-22 11:34:46.43	140.50	13.78	-29.3	-32.7	18.4	6.04e-01	0	43	0	129499136	20	5354
2026-01-22 11:34:47.43	140.45	13.89	-29.3	-32.5	18.6	6.07e-01	0	43	0	131596288	20	5213
2026-01-22 11:34:48.44	140.39	14.00	-29.3	-32.3	18.8	6.06e-01	0	43	0	133169152	20	5120
2026-01-22 11:34:49.44	140.34	14.11	-29.3	-32.4	18.8	6.05e-01	0	43	0	135266304	20	5145
2026-01-22 11:34:50.44	140.29	14.22	-29.4	-32.5	18.7	6.06e-01	0	43	0	136839168	20	5167
2026-01-22 11:34:51.44	140.23	14.33	-29.3	-32.4	18.7	6.06e-01	0	43	0	138936320	20	5163
2026-01-22 11:34:52.44	140.17	14.44	-29.5	-32.8	18.5	6.06e-01	0	43	0	140509184	20	5301
2026-01-22 11:34:53.44	140.12	14.56	-29.5	-32.8	18.6	6.08e-01	0	43	0	142606336	20	5274
2026-01-22 11:34:54.44	140.06	14.67	-29.2	-32.2	18.9	6.05e-01	0	43	0	144703488	20	5093
2026-01-22 11:34:55.44	140.00	14.78	-29.1	-32.0	19.0	6.06e-01	0	43	0	146276352	20	5028
2026-01-22 11:34:56.45	139.94	14.90	-29.1	-31.9	19.1	6.06e-01	0	43	0	148373504	20	4973
2026-01-22 11:34:57.45	139.89	15.01	-29.1	-32.0	19.1	6.05e-01	0	43	0	149946368	20	4984
2026-01-22 11:34:58.46	139.83	15.13	-29.1	-31.9	19.2	6.08e-01	0	43	0	152043520	20	4937
2026-01-22 11:34:59.46	139.77	15.24	-29.1	-31.9	19.2	6.07e-01	0	43	0	154140672	20	4948
2026-01-22 11:35:00.47	139.71	15.36	-29.2	-31.9	19.2	6.08e-01	0	43	0	155713536	20	4951
2026-01-22 11:35:01.48	139.64	15.48	-29.1	-31.7	19.4	6.07e-01	0	43	0	157810688	20	4838
2026-01-22 11:35:02.48	139.58	15.59	-29.1	-31.7	19.4	6.05e-01	0	43	0	159383552	20	4835
2026-01-22 11:35:03.49	139.52	15.71	-29.2	-31.9	19.3	6.07e-01	0	43	0	161480704	20	4895
2026-01-22 11:35:04.49	139.46	15.83	-29.3	-32.0	19.2	6.07e-01	0	43	0	163577856	20	4936
2026-01-22 11:35:05.49	139.40	15.95	-29.2	-32.0	19.2	6.07e-01	0	43	0	165150720	20	4939
2026-01-22 11:35:06.49	139.33	16.07	-29.3	-32.1	19.2	6.04e-01	0	43	0	167247872	20	4985
2026-01-22 11:35:07.49	139.27	16.19	-29.3	-32.1	19.2	6.06e-01	0	43	0	168820736	20	4983
2026-01-22 11:35:08.50	139.20	16.31	-29.2	-32.0	19.3	6.05e-01	0	43	0	170917888	20	4950
2026-01-22 11:35:09.50	139.14	16.43	-29.2	-32.1	19.2	6.08e-01	0	43	0	172490752	20	5002
2026-01-22 11:35:10.51	139.07	16.56	-29.3	-32.2	19.1	6.07e-01	0	43	0	174587904	20	5040
2026-01-22 11:35:11.50	139.01	16.68	-29.3	-32.3	19.0	6.06e-01	0	43	0	176685056	20	5089
2026-01-22 11:35:12.50	138.94	16.80	-29.2	-31.9	19.3	6.05e-01	0	43	0	178257920	20	4930
2026-01-22 11:35:13.51	138.87	16.93	-29.1	-31.7	19.5	6.06e-01	0	43	0	180355072	20	4846
2026-01-22 11:35:14.52	138.80	17.05	-29.2	-31.8	19.4	6.10e-01	0	43	0	181927936	20	4867
2026-01-22 11:35:15.52	138.74	17.18	-29.2	-31.8	19.4	6.06e-01	0	43	0	184025088	20	4856
2026-01-22 11:35:16.53	138.67	17.30	-29.2	-31.8	19.4	6.07e-01	0	43	0	186122240	20	4879
2026-01-22 11:35:17.53	138.60	17.43	-29.2	-31.9	19.4	6.06e-01	0	43	0	187695104	20	4898
2026-01-22 11:35:18.53	138.53	17.56	-29.2	-31.9	19.4	6.06e-01	0	43	0	189792256	20	4906
2026-01-22 11:35:19.53	138.45	17.68	-29.2	-31.9	19.4	6.04e-01	0	43	0	191365120	20	4882
2026-01-22 11:35:20.54	138.38	17.81	-29.3	-32.0	19.4	6.05e-01	0	43	0	193462272	20	4928
2026-01-22 11:35:21.55	138.31	17.95	-29.3	-32.0	19.3	6.06e-01	0	43	0	195559424	20	4950
2026-01-22 11:35:22.55	138.23	18.08	-29.3	-32.2	19.3	6.06e-01	0	43	0	197132288	20	5001
2026-01-22 11:35:23.54	138.16	18.20	-29.3	-32.2	19.3	6.03e-01	0	43	0	199229440	20	5006
2026-01-22 11:35:24.55	138.09	18.34	-29.3	-32.1	19.3	6.07e-01	0	43	0	200802304	20	4997
2026-01-22 11:35:25.55	138.01	18.47	-29.3	-32.2	19.3	6.07e-01	0	43	0	202899456	20	5001
2026-01-22 11:35:26.56	137.93	18.60	-29.4	-32.2	19.3	6.06e-01	0	43	0	204472320	20	4991
2026-01-22 11:35:27.56	137.86	18.74	-29.3	-32.1	19.4	6.07e-01	0	43	0	206569472	20	4965
2026-01-22 11:35:28.56	137.78	18.87	-29.5	-32.4	19.2	6.06e-01	0	43	0	208666624	20	5073
2026-01-22 11:35:29.56	137.70	19.01	-29.6	-32.7	19.1	6.07e-01	0	43	0	210239488	20	5145
2026-01-22 11:35:30.56	137.62	19.14	-29.6	-32.6	19.1	6.08e-01	0	43	0	212336640	20	5111
2026-01-22 11:35:31.57	137.54	19.28	-29.5	-32.4	19.3	6.05e-01	0	43	0	213909504	20	5029
2026-01-22 11:35:32.58	137.46	19.42	-29.5	-32.3	19.3	6.07e-01	0	43	0	216006656	20	4993
2026-01-22 11:35:33.59	137.38	19.56	-29.5	-32.3	19.3	6.07e-01	0	43	0	218103808	20	5000
2026-01-22 11:35:34.58	137.30	19.70	-29.5	-32.3	19.4	6.04e-01	0	43	0	219676672	20	4990
2026-01-22 11:35:35.58	137.21	19.84	-29.5	-32.4	19.3	6.04e-01	0	43	0	221773824	20	5031
2026-01-22 11:35:36.58	137.13	19.98	-29.4	-32.3	19.4	6.07e-01	0	43	0	223346688	20	4988
2026-01-22 11:35:37.58	137.04	20.12	-29.3	-32.0	19.6	6.08e-01	0	43	0	225443840	20	4888
2026-01-22 11:35:38.58	136.96	20.26	-29.3	-31.9	19.6	6.07e-01	0	43	0	227016704	20	4858
2026-01-22 11:35:39.58	136.87	20.40	-29.4	-32.1	19.6	6.07e-01	0	43	0	229113856	20	4919
2026-01-22 11:35:40.58	136.79	20.55	-29.5	-32.4	19.3	6.03e-01	0	43	0	231211008	20	5040
2026-01-22 11:35:41.57	136.70	20.69	-29.7	-32.8	19.1	6.05e-01	0	43	0	232783872	20	5189
2026-01-22 11:35:42.57	136.61	20.84	-29.7	-33.0	19.0	6.04e-01	0	43	0	234881024	20	5223
2026-01-22 11:35:43.58	136.52	20.98	-29.8	-33.1	19.0	6.07e-01	0	43	0	236453888	20	5271
2026-01-22 11:35:44.58	136.43	21.13	-29.7	-33.0	19.0	6.06e-01	0	43	0	238551040	20	5247
2026-01-22 11:35:45.58	136.33	21.28	-29.8	-33.1	19.0	6.07e-01	0	43	0	240648192	20	5263
2026-01-22 11:35:46.58	136.24	21.43	-29.9	-33.4	18.8	6.05e-01	0	43	0	242221056	20	5386
2026-01-22 11:35:47.59	136.15	21.58	-29.8	-33.1	18.9	6.08e-01	0	43	0	244318208	20	5298
2026-01-22 11:35:48.59	136.05	21.73	-29.8	-33.1	18.9	6.06e-01	0	43	0	245891072	20	5283
2026-01-22 11:35:49.59	135.96	21.88	-29.8	-33.0	19.0	6.06e-01	0	43	0	247988224	20	5238
2026-01-22 11:35:50.59	135.86	22.04	-29.6	-32.6	19.3	6.04e-01	0	43	0	249561088	20	5071
2026-01-22 11:35:51.60	135.76	22.19	-29.5	-32.4	19.4	6.06e-01	0	43	0	251658240	20	5020
2026-01-22 11:35:52.60	135.66	22.35	-29.5	-32.4	19.4	6.06e-01	0	43	0	253755392	20	5045
2026-01-22 11:35:53.61	135.56	22.50	-29.5	-32.6	19.3	6.08e-01	0	43	0	255328256	20	5098
2026-01-22 11:35:54.61	135.46	22.66	-29.7	-33.0	19.0	6.07e-01	0	43	0	257425408	20	5275
2026-01-22 11:35:55.61	135.36	22.82	-29.7	-33.1	18.9	6.07e-01	0	44	0	258998272	20	5299
2026-01-22 11:35:56.61	135.25	22.97	-29.6	-32.8	19.2	6.06e-01	0	43	0	261095424	20	5180
2026-01-22 11:35:57.61	135.15	23.13	-29.6	-32.7	19.2	6.06e-01	0	43	0	263192576	20	5140
2026-01-22 11:35:58.62	135.04	23.29	-29.7	-32.8	19.2	6.06e-01	0	43	0	264765440	20	5171
2026-01-22 11:35:59.62	134.94	23.46	-29.7	-32.8	19.2	6.06e-01	0	43	0	266862592	20	5172
2026-01-22 11:36:00.62	134.83	23.62	-29.8	-33.1	19.1	6.08e-01	0	43	0	268435456	20	5263
2026-01-22 11:36:01.62	134.72	23.78	-29.7	-33.0	19.1	6.07e-01	0	43	0	270532608	20	5238
2026-01-22 11:36:02.62	134.61	23.95	-29.8	-33.1	19.0	6.06e-01	0	43	0	272629760	20	5293
2026-01-22 11:36:03.62	134.50	24.11	-29.7	-32.9	19.0	6.05e-01	0	43	0	274202624	20	5213
2026-01-22 11:36:04.63	134.38	24.28	-29.6	-32.7	19.2	6.08e-01	0	43	0	276299776	20	5132
2026-01-22 11:36:05.63	134.27	24.45	-29.6	-32.5	19.3	6.07e-01	0	43	0	277872640	20	5061
2026-01-22 11:36:06.63	134.15	24.61	-29.5	-32.3	19.3	6.05e-01	0	43	0	279969792	20	4993
2026-01-22 11:36:07.64	134.03	24.78	-29.5	-32.3	19.3	6.04e-01	0	43	0	281542656	20	4974
2026-01-22 11:36:08.65	133.91	24.96	-29.5	-32.2	19.4	6.08e-01	0	43	0	283639808	20	4957
2026-01-22 11:36:09.65	133.79	25.13	-29.6	-32.4	19.6	6.08e-01	0	43	0	285736960	20	4982
2026-01-22 11:36:10.65	133.67	25.30	-29.6	-32.4	19.6	6.06e-01	0	43	0	287309824	20	4999
2026-01-22 11:36:11.66	133.55	25.48	-29.6	-32.6	19.5	6.06e-01	0	43	0	289406976	20	5036
2026-01-22 11:36:12.66	133.43	25.65	-29.6	-32.6	19.6	6.08e-01	0	43	0	290979840	20	5034
2026-01-22 11:36:13.66	133.30	25.83	-29.7	-32.6	19.5	6.06e-01	0	43	0	293076992	20	5025
2026-01-22 11:36:14.66	133.17	26.00	-29.7	-32.5	19.6	6.07e-01	0	43	0	295174144	20	5018
2026-01-22 11:36:15.66	133.05	26.18	-29.7	-32.8	19.4	6.07e-01	0	43	0	296747008	20	5091
2026-01-22 11:36:16.67	132.91	26.36	-29.6	-32.4	19.7	6.07e-01	0	44	0	298844160	20	4963
2026-01-22 11:36:17.66	132.78	26.54	-29.5	-32.0	19.9	6.05e-01	0	44	0	300417024	20	4813
2026-01-22 11:36:18.66	132.65	26.72	-29.3	-31.7	20.1	6.09e-01	0	43	0	302514176	20	4709
2026-01-22 11:36:19.67	132.51	26.91	-29.4	-31.7	20.1	6.07e-01	0	43	0	304087040	20	4735
2026-01-22 11:36:20.68	132.38	27.09	-29.3	-31.6	20.2	6.04e-01	0	44	0	306184192	20	4694
2026-01-22 11:36:21.68	132.24	27.28	-29.4	-31.9	20.0	6.05e-01	0	43	0	308281344	20	4781
2026-01-22 11:36:22.69	132.10	27.47	-29.4	-31.9	20.0	6.06e-01	0	43	0	309854208	20	4787
2026-01-22 11:36:23.69	131.96	27.65	-29.4	-31.9	20.0	6.06e-01	0	43	0	311951360	20	4800
2026-01-22 11:36:24.69	131.81	27.84	-29.3	-31.5	20.3	6.08e-01	0	43	0	313524224	20	4666
2026-01-22 11:36:25.69	131.67	28.03	-29.2	-31.3	20.4	6.05e-01	0	43	0	315621376	20	4588
2026-01-22 11:36:26.70	131.52	28.22	-29.2	-31.3	20.4	6.06e-01	0	43	0	317718528	20	4586
2026-01-22 11:36:27.70	131.37	28.42	-29.2	-31.2	20.5	6.07e-01	0	44	0	319291392	20	4550
2026-01-22 11:36:28.71	131.22	28.61	-29.2	-31.2	20.5	6.07e-01	0	43	0	321388544	20	4551
2026-01-22 11:36:29.70	131.07	28.80	-29.3	-31.5	20.3	6.06e-01	0	43	0	322961408	20	4647
2026-01-22 11:36:30.71	130.91	29.00	-29.2	-31.4	20.4	6.06e-01	0	43	0	325058560	20	4603
2026-01-22 11:36:31.71	130.75	29.20	-29.1	-31.1	20.5	6.05e-01	0	43	0	327155712	20	4533
2026-01-22 11:36:32.71	130.60	29.40	-29.1	-31.1	20.6	6.05e-01	0	43	0	328728576	20	4518
2026-01-22 11:36:33.72	130.43	29.60	-29.2	-31.3	20.4	6.08e-01	0	43	0	330825728	20	4589
2026-01-22 11:36:34.72	130.27	29.80	-29.1	-31.1	20.6	6.06e-01	0	43	0	332398592	20	4524
2026-01-22 11:36:35.72	130.11	30.00	-29.1	-31.1	20.6	6.05e-01	0	43	0	334495744	20	4528
2026-01-22 11:36:36.72	129.94	30.20	-29.2	-31.2	20.5	6.05e-01	0	43	0	336068608	20	4571
2026-01-22 11:36:37.73	129.77	30.41	-29.1	-31.1	20.6	6.06e-01	0	43	0	338165760	20	4511
2026-01-22 11:36:38.72	129.60	30.61	-29.1	-31.1	20.7	6.06e-01	0	43	0	340262912	20	4505
2026-01-22 11:36:39.73	129.42	30.82	-29.1	-31.1	20.6	6.03e-01	0	43	0	341835776	20	4519
2026-01-22 11:36:40.73	129.25	31.03	-29.2	-31.2	20.6	6.04e-01	0	43	0	343932928	20	4546
2026-01-22 11:36:41.74	129.06	31.24	-29.2	-31.3	20.5	6.05e-01	0	43	0	345505792	20	4581
2026-01-22 11:36:42.74	128.88	31.45	-29.2	-31.3	20.5	6.06e-01	0	44	0	347602944	20	4575
2026-01-22 11:36:43.75	128.70	31.67	-29.3	-31.4	20.5	6.03e-01	0	43	0	349175808	20	4610
2026-01-22 11:36:44.75	128.51	31.88	-29.1	-31.1	20.6	6.05e-01	0	43	0	351272960	20	4507
2026-01-22 11:36:45.75	128.32	32.10	-29.0	-30.8	20.8	6.08e-01	0	43	0	353370112	20	4433
2026-01-22 11:36:46.76	128.13	32.32	-29.1	-31.1	20.7	6.05e-01	0	43	0	354942976	20	4502
2026-01-22 11:36:47.76	127.94	32.53	-29.2	-31.3	20.5	6.05e-01	0	43	0	357040128	20	4587
2026-01-22 11:36:48.77	127.74	32.75	-29.3	-31.5	20.5	6.07e-01	0	43	0	359137280	20	4634
2026-01-22 11:36:49.76	127.54	32.97	-29.3	-31.6	20.4	6.07e-01	0	43	0	360710144	20	4652
2026-01-22 11:36:50.76	127.34	33.19	-29.5	-32.0	20.2	6.05e-01	0	43	0	362807296	20	4779
2026-01-22 11:36:51.77	127.13	33.42	-29.5	-32.1	20.1	6.03e-01	0	43	0	364380160	20	4814
2026-01-22 11:36:52.78	126.92	33.65	-29.6	-32.2	20.0	6.06e-01	0	43	0	366477312	20	4878
2026-01-22 11:36:53.78	126.71	33.87	-29.4	-31.8	20.3	6.06e-01	0	43	0	368050176	20	4734
2026-01-22 11:36:54.79	126.49	34.10	-29.4	-31.7	20.3	6.04e-01	0	43	0	370147328	20	4715
2026-01-22 11:36:55.80	126.27	34.33	-29.6	-32.2	20.1	6.06e-01	0	43	0	372244480	20	4861
2026-01-22 11:36:56.81	126.05	34.56	-29.8	-32.7	19.8	6.06e-01	0	43	0	373817344	20	5032
2026-01-22 11:36:57.81	125.82	34.79	-30.2	-33.2	19.2	6.05e-01	0	43	0	375914496	21	5097
2026-01-22 11:36:58.81	125.59	35.03	-30.2	-33.2	19.2	6.07e-01	0	44	0	377487360	21	5100
2026-01-22 11:36:59.82	125.36	35.26	-30.3	-33.4	19.0	6.05e-01	0	43	0	379584512	21	5193
2026-01-22 11:37:00.82	125.13	35.50	-30.4	-33.7	18.9	6.07e-01	0	44	0	381681664	21	5282
2026-01-22 11:37:01.82	124.89	35.73	-30.2	-33.3	19.1	6.07e-01	0	43	0	383254528	21	5140
2026-01-22 11:37:02.83	124.65	35.97	-30.2	-33.1	19.2	6.05e-01	0	43	0	385351680	21	5070
2026-01-22 11:37:03.83	124.40	36.21	-30.3	-33.4	19.1	6.06e-01	0	43	0	386924544	21	5155
2026-01-22 11:37:04.83	124.15	36.45	-30.4	-33.9	18.8	6.05e-01	0	43	0	389021696	21	5342
2026-01-22 11:37:05.83	123.90	36.69	-30.8	-34.5	18.1	6.06e-01	0	43	0	391118848	22	5463
2026-01-22 11:37:06.84	123.64	36.94	-30.9	-34.5	18.2	6.07e-01	0	44	0	392691712	22	5464
2026-01-22 11:37:07.84	123.38	37.18	-30.5	-33.6	18.7	6.04e-01	0	43	0	394788864	22	5125
2026-01-22 11:37:08.84	123.11	37.43	-30.3	-33.1	19.0	6.08e-01	0	43	0	396361728	22	4951
2026-01-22 11:37:09.84	122.84	37.67	-30.5	-33.5	18.8	6.07e-01	0	43	0	398458880	22	5082
2026-01-22 11:37:10.84	122.57	37.92	-30.6	-33.8	18.6	6.06e-01	0	43	0	400031744	22	5200
2026-01-22 11:37:11.85	122.29	38.17	-30.8	-34.3	18.3	6.07e-01	0	43	0	402128896	22	5402
2026-01-22 11:37:12.86	122.01	38.42	-30.7	-34.1	18.4	6.06e-01	0	43	0	404226048	22	5331
2026-01-22 11:37:13.86	121.72	38.67	-30.6	-33.8	18.6	6.05e-01	0	43	0	405798912	22	5217
2026-01-22 11:37:14.86	121.43	38.93	-30.7	-34.0	18.5	6.07e-01	0	43	0	407896064	22	5265
2026-01-22 11:37:15.86	121.13	39.18	-30.8	-34.4	18.2	6.06e-01	0	44	0	409468928	22	5425
2026-01-22 11:37:16.86	120.83	39.43	-30.8	-34.2	18.3	6.08e-01	0	43	0	411566080	22	5361
2026-01-22 11:37:17.86	120.53	39.69	-30.8	-34.3	18.3	6.05e-01	0	43	0	413663232	22	5379
2026-01-22 11:37:18.87	120.21	39.95	-31.0	-34.9	17.9	6.05e-01	0	43	0	415236096	22	5615
2026-01-22 11:37:19.87	119.90	40.21	-31.2	-35.1	17.5	6.05e-01	0	43	0	417333248	23	5618
2026-01-22 11:37:20.87	119.58	40.46	-31.0	-34.3	18.0	6.05e-01	0	43	0	418906112	23	5271
2026-01-22 11:37:21.87	119.25	40.72	-30.8	-33.9	18.3	6.07e-01	0	44	0	421003264	23	5119
2026-01-22 11:37:22.87	118.92	40.98	-31.3	-35.1	17.5	6.08e-01	0	43	0	423100416	23	5594
2026-01-22 11:37:23.87	118.58	41.24	-31.3	-35.2	17.4	6.05e-01	0	44	0	424673280	23	5647
2026-01-22 11:37:24.88	118.24	41.51	-31.1	-34.7	17.8	6.07e-01	0	43	0	426770432	23	5418
2026-01-22 11:37:25.89	117.89	41.77	-31.3	-35.2	17.5	6.08e-01	0	43	0	428343296	23	5634
2026-01-22 11:37:26.89	117.53	42.04	-31.1	-34.7	17.8	6.09e-01	0	44	0	430440448	23	5414
2026-01-22 11:37:27.89	117.17	42.30	-30.9	-34.0	18.2	6.05e-01	0	44	0	432013312	23	5149
2026-01-22 11:37:28.90	116.80	42.57	-30.6	-33.3	18.7	6.07e-01	0	43	0	434110464	23	4898
2026-01-22 11:37:29.90	116.43	42.84	-30.8	-33.6	18.5	6.07e-01	0	44	0	436207616	23	5003
2026-01-22 11:37:30.91	116.05	43.11	-30.8	-33.8	18.4	6.07e-01	0	44	0	437780480	23	5064
2026-01-22 11:37:31.91	115.66	43.37	-30.5	-32.9	18.9	6.05e-01	0	44	0	439877632	23	4760
2026-01-22 11:37:32.92	115.26	43.64	-30.6	-33.4	18.7	6.07e-01	0	43	0	441450496	23	4923
2026-01-22 11:37:33.91	114.87	43.91	-30.5	-32.8	19.0	6.08e-01	0	43	0	443547648	23	4735
2026-01-22 11:37:34.92	114.46	44.18	-30.6	-33.2	18.8	6.04e-01	0	43	0	445644800	23	4869
2026-01-22 11:37:35.93	114.04	44.45	-30.7	-33.5	18.6	6.05e-01	0	43	0	447217664	23	4952
2026-01-22 11:37:36.93	113.62	44.72	-30.3	-32.8	19.3	6.07e-01	0	43	0	449314816	22	4816
2026-01-22 11:37:37.93	113.19	44.99	-30.2	-32.6	19.5	6.05e-01	0	44	0	450887680	22	4768
2026-01-22 11:37:38.94	112.76	45.26	-30.4	-33.3	19.1	6.09e-01	0	43	0	452984832	22	4989
2026-01-22 11:37:39.94	112.31	45.53	-30.4	-33.3	19.0	6.07e-01	0	44	0	454557696	22	4993
2026-01-22 11:37:40.94	111.86	45.80	-30.5	-33.4	18.9	6.08e-01	0	43	0	456654848	22	5045
2026-01-22 11:37:41.95	111.40	46.07	-30.3	-32.9	19.3	6.07e-01	0	43	0	458752000	22	4872
2026-01-22 11:37:42.96	110.93	46.34	-30.4	-33.1	19.1	6.04e-01	0	44	0	460324864	22	4942
2026-01-22 11:37:43.95	110.46	46.61	-30.5	-33.6	18.9	6.06e-01	0	44	0	462422016	22	5109
2026-01-22 11:37:44.96	109.97	46.88	-30.5	-33.5	18.9	6.09e-01	0	43	0	463994880	22	5093
2026-01-22 11:37:45.96	109.48	47.14	-30.3	-32.9	19.2	6.07e-01	0	43	0	466092032	22	4874
2026-01-22 11:37:46.97	108.98	47.41	-30.4	-33.2	19.1	6.06e-01	0	44	0	468189184	22	4973
2026-01-22 11:37:47.97	108.47	47.68	-30.8	-34.3	18.4	6.08e-01	0	43	0	469762048	22	5394
2026-01-22 11:37:48.97	107.95	47.95	-30.5	-33.4	19.0	6.07e-01	0	44	0	471859200	22	5029
2026-01-22 11:37:49.97	107.42	48.21	-30.3	-33.0	19.2	6.08e-01	0	44	0	473432064	22	4889
2026-01-22 11:37:50.97	106.89	48.47	-30.6	-33.7	18.8	6.07e-01	0	43	0	475529216	22	5163
2026-01-22 11:37:51.98	106.34	48.74	-30.6	-33.8	18.7	6.05e-01	0	43	0	477626368	22	5195
2026-01-22 11:37:52.98	105.78	49.00	-30.4	-33.2	19.1	6.05e-01	0	43	0	479199232	22	4968
2026-01-22 11:37:53.98	105.22	49.26	-30.5	-33.4	19.1	6.06e-01	0	44	0	481296384	22	5034
2026-01-22 11:37:54.99	104.64	49.52	-30.7	-34.1	18.6	6.09e-01	0	44	0	482869248	22	5298
2026-01-22 11:37:56.00	104.05	49.78	-30.7	-33.9	18.7	6.05e-01	0	44	0	484966400	22	5228
2026-01-22 11:37:57.00	103.45	50.04	-30.5	-33.5	18.9	6.06e-01	0	44	0	486539264	22	5060
2026-01-22 11:37:58.00	102.85	50.29	-30.9	-34.5	18.4	6.05e-01	0	43	0	488636416	22	5451
2026-01-22 11:37:58.91	102.29	50.52	-30.9	-34.5	18.4	6.05e-01	0	44	0	490733568	22	5437
2026-01-22 11:37:59.93	101.65	50.77	-30.5	-33.4	19.1	6.03e-01	0	44	0	492306432	22	5018
2026-01-22 11:38:00.93	101.01	51.02	-30.5	-33.3	19.1	6.06e-01	0	44	0	494403584	22	4990
2026-01-22 11:38:01.94	100.36	51.27	-31.0	-34.8	18.2	6.08e-01	0	43	0	496500736	22	5597
2026-01-22 11:38:02.95	99.70	51.51	-30.6	-33.7	18.8	6.07e-01	0	44	0	498073600	22	5145
2026-01-22 11:38:03.95	99.03	51.75	-30.3	-33.0	19.3	6.05e-01	0	44	0	500170752	22	4880
2026-01-22 11:38:04.95	98.35	51.99	-30.1	-32.4	19.6	6.08e-01	0	43	0	501743616	22	4697
2026-01-22 11:38:05.96	97.66	52.23	-30.4	-33.3	19.2	6.07e-01	0	43	0	503840768	22	4984
2026-01-22 11:38:06.96	96.96	52.46	-30.3	-32.9	19.4	6.07e-01	0	44	0	505413632	22	4851
2026-01-22 11:38:07.97	96.24	52.69	-29.9	-31.9	20.0	6.06e-01	0	44	0	507510784	22	4503
2026-01-22 11:38:08.96	95.52	52.91	-29.9	-31.9	20.0	6.04e-01	0	43	0	509607936	22	4509
2026-01-22 11:38:09.96	94.79	53.13	-30.0	-32.2	19.8	6.07e-01	0	44	0	511180800	22	4608
2026-01-22 11:38:10.96	94.04	53.34	-29.8	-32.0	20.2	6.06e-01	0	44	0	513277952	21	4662
2026-01-22 11:38:11.97	93.28	53.56	-30.0	-32.7	19.7	6.07e-01	0	44	0	514850816	21	4910
2026-01-22 11:38:12.98	92.50	53.77	-30.0	-32.5	19.9	6.04e-01	0	43	0	516947968	21	4828
2026-01-22 11:38:13.98	91.72	53.97	-29.9	-32.3	20.0	6.06e-01	0	44	0	519045120	21	4755
2026-01-22 11:38:14.98	90.94	54.17	-29.9	-32.4	19.9	6.06e-01	0	44	0	520617984	21	4809
2026-01-22 11:38:15.98	90.13	54.36	-29.9	-32.3	20.0	6.05e-01	0	43	0	522715136	21	4757
2026-01-22 11:38:16.99	89.31	54.56	-29.9	-32.5	19.9	6.07e-01	0	43	0	524288000	21	4828
2026-01-22 11:38:17.99	88.49	54.74	-29.9	-32.4	19.9	6.06e-01	0	43	0	526385152	21	4788
2026-01-22 11:38:18.99	87.66	54.92	-30.1	-32.9	19.6	6.05e-01	0	44	0	527958016	21	4967
2026-01-22 11:38:19.99	86.82	55.09	-29.8	-32.0	20.1	6.06e-01	0	43	0	530055168	21	4671
2026-01-22 11:38:21.00	85.95	55.26	-30.1	-33.0	19.7	6.07e-01	0	44	0	532152320	21	4989
2026-01-22 11:38:22.00	85.09	55.42	-30.2	-33.1	19.5	6.08e-01	0	43	0	533725184	21	5016
2026-01-22 11:38:23.00	84.22	55.58	-29.9	-32.5	19.9	6.08e-01	0	43	0	535822336	21	4806
2026-01-22 11:38:24.01	83.32	55.73	-30.4	-33.7	19.2	6.05e-01	0	43	0	537395200	21	5226
2026-01-22 11:38:25.01	82.43	55.87	-30.4	-33.6	19.3	6.06e-01	0	44	0	539492352	21	5196
2026-01-22 11:38:26.01	81.53	56.01	-30.3	-33.3	19.4	6.05e-01	0	44	0	541589504	21	5106
2026-01-22 11:38:27.01	80.62	56.14	-30.7	-33.8	18.8	6.05e-01	0	44	0	543162368	22	5172
2026-01-22 11:38:28.01	79.70	56.26	-30.5	-33.3	19.2	6.08e-01	0	43	0	545259520	22	4970
2026-01-22 11:38:29.02	78.76	56.38	-30.3	-32.9	19.4	6.05e-01	0	44	0	546832384	22	4850
2026-01-22 11:38:30.02	77.83	56.49	-30.4	-33.1	19.3	6.06e-01	0	43	0	548929536	22	4923
2026-01-22 11:38:31.03	76.88	56.59	-30.5	-33.5	19.0	6.07e-01	0	44	0	551026688	22	5038
2026-01-22 11:38:32.03	75.93	56.69	-30.3	-32.8	19.5	6.06e-01	0	44	0	552599552	22	4815
2026-01-22 11:38:33.03	74.97	56.77	-30.6	-33.6	19.0	6.06e-01	0	43	0	554696704	22	5084
2026-01-22 11:38:34.04	74.00	56.85	-30.4	-33.0	19.4	6.06e-01	0	44	0	556269568	22	4866
2026-01-22 11:38:35.04	73.03	56.93	-30.5	-33.4	19.1	6.07e-01	0	44	0	558366720	22	5016
2026-01-22 11:38:36.05	72.05	56.99	-30.5	-33.4	19.1	6.06e-01	0	44	0	559939584	22	5013
2026-01-22 11:38:37.05	71.08	57.05	-30.5	-33.4	19.1	6.05e-01	0	43	0	562036736	22	5031
2026-01-22 11:38:38.06	70.09	57.10	-30.6	-33.5	19.0	6.06e-01	0	44	0	564133888	22	5053
2026-01-22 11:38:39.07	69.10	57.14	-30.6	-33.6	19.0	6.09e-01	0	44	0	565706752	22	5089
2026-01-22 11:38:40.06	68.12	57.17	-30.7	-33.9	18.8	6.08e-01	0	44	0	567803904	22	5199
2026-01-22 11:38:41.07	67.12	57.19	-30.4	-33.1	19.3	6.07e-01	0	44	0	569901056	22	4898
2026-01-22 11:38:42.07	66.14	57.21	-30.7	-34.0	18.6	6.04e-01	0	43	0	571473920	22	5261
2026-01-22 11:38:43.07	65.15	57.22	-30.3	-33.0	19.3	6.06e-01	0	44	0	573571072	22	4919
2026-01-22 11:38:44.08	64.15	57.22	-30.7	-33.9	18.7	6.04e-01	0	44	0	575143936	22	5239
2026-01-22 11:38:45.08	63.16	57.21	-30.3	-32.7	19.5	6.05e-01	0	43	0	577241088	22	4766
2026-01-22 11:38:46.08	62.17	57.19	-30.7	-33.9	18.8	6.08e-01	0	44	0	578813952	22	5196
2026-01-22 11:38:47.08	61.18	57.17	-30.4	-33.2	19.2	6.07e-01	0	44	0	580911104	22	4953
2026-01-22 11:38:48.08	60.20	57.14	-30.0	-32.0	20.0	6.06e-01	0	43	0	583008256	22	4527
2026-01-22 11:38:49.09	59.21	57.09	-30.7	-33.8	18.9	6.08e-01	0	44	0	584581120	22	5156
2026-01-22 11:38:50.09	58.23	57.05	-30.4	-33.1	19.2	6.07e-01	0	44	0	586678272	22	4925
2026-01-22 11:38:51.09	57.25	56.99	-30.0	-32.0	20.0	6.08e-01	0	44	0	588251136	22	4525
2026-01-22 11:38:52.09	56.28	56.93	-30.8	-34.1	18.7	6.07e-01	0	43	0	590348288	22	5295
2026-01-22 11:38:53.10	55.31	56.85	-30.5	-33.2	19.2	6.04e-01	0	43	0	591921152	22	4950
2026-01-22 11:38:54.11	54.34	56.77	-30.1	-32.4	19.7	6.06e-01	0	44	0	594018304	22	4663
2026-01-22 11:38:55.10	53.39	56.69	-30.7	-34.0	18.7	6.04e-01	0	43	0	596115456	22	5242
2026-01-22 11:38:56.10	52.44	56.59	-30.7	-33.8	18.8	6.08e-01	0	44	0	597688320	22	5166
2026-01-22 11:38:57.11	51.49	56.49	-30.4	-33.0	19.3	6.05e-01	0	43	0	599785472	22	4879
2026-01-22 11:38:58.11	50.56	56.38	-30.7	-34.0	18.8	6.05e-01	0	44	0	601358336	22	5234
2026-01-22 11:38:59.12	49.62	56.26	-30.6	-33.6	19.0	6.07e-01	0	44	0	603455488	22	5074
2026-01-22 11:39:00.12	48.71	56.14	-30.2	-32.5	19.6	6.07e-01	0	44	0	605552640	22	4699
2026-01-22 11:39:01.13	47.79	56.01	-30.2	-32.6	19.6	6.05e-01	0	44	0	607125504	22	4753
2026-01-22 11:39:02.13	46.89	55.87	-30.5	-33.3	19.1	6.05e-01	0	43	0	609222656	22	4998
2026-01-22 11:39:03.13	46.00	55.73	-30.6	-33.7	18.9	6.07e-01	0	43	0	610795520	22	5124
2026-01-22 11:39:04.14	45.10	55.58	-30.3	-32.7	19.4	6.08e-01	0	43	0	612892672	22	4787
2026-01-22 11:39:05.14	44.23	55.42	-30.1	-32.2	19.8	6.05e-01	0	44	0	614989824	22	4623
2026-01-22 11:39:06.14	43.37	55.26	-30.1	-32.3	19.7	6.06e-01	0	44	0	616562688	22	4655
2026-01-22 11:39:07.15	42.51	55.09	-30.2	-32.6	19.5	6.08e-01	0	43	0	618659840	22	4747
2026-01-22 11:39:08.15	41.67	54.92	-30.5	-33.4	19.1	6.06e-01	0	43	0	620232704	22	5009
2026-01-22 11:39:09.15	40.83	54.74	-29.9	-31.8	20.0	6.06e-01	0	44	0	622329856	22	4483
2026-01-22 11:39:10.15	40.01	54.55	-29.9	-32.5	19.9	6.05e-01	0	43	0	623902720	21	4814
2026-01-22 11:39:11.16	39.20	54.36	-30.3	-33.4	19.3	6.06e-01	0	44	0	625999872	21	5143
2026-01-22 11:39:12.16	38.40	54.17	-29.5	-31.2	20.5	6.03e-01	0	44	0	628097024	21	4421
2026-01-22 11:39:13.16	37.61	53.97	-29.7	-31.8	20.3	6.04e-01	0	44	0	629669888	21	4585
2026-01-22 11:39:14.17	36.82	53.77	-29.9	-32.4	19.9	6.07e-01	0	44	0	631767040	21	4788
2026-01-22 11:39:15.18	36.05	53.56	-29.4	-31.2	20.7	6.07e-01	0	44	0	633339904	21	4396
2026-01-22 11:39:16.18	35.30	53.34	-29.8	-32.0	20.2	6.08e-01	0	44	0	635437056	21	4648
2026-01-22 11:39:17.18	34.55	53.13	-29.5	-31.4	20.6	6.05e-01	0	43	0	637534208	21	4452
2026-01-22 11:39:18.18	33.82	52.91	-29.2	-31.1	20.9	6.09e-01	0	43	0	639107072	20	4489
2026-01-22 11:39:19.18	33.10	52.69	-28.9	-30.4	21.4	6.06e-01	0	44	0	641204224	20	4282
2026-01-22 11:39:20.18	32.39	52.46	-29.0	-31.1	21.4	6.07e-01	0	43	0	642777088	19	4584
2026-01-22 11:39:21.18	31.69	52.23	-29.4	-32.0	20.8	6.05e-01	0	43	0	644874240	19	4880
2026-01-22 11:39:22.18	31.00	52.00	-29.1	-31.3	21.2	6.07e-01	0	44	0	646971392	19	4654
2026-01-22 11:39:23.18	30.32	51.76	-29.1	-31.3	21.2	6.06e-01	0	44	0	648544256	19	4645
2026-01-22 11:39:24.19	29.65	51.52	-29.3	-31.8	21.0	6.07e-01	0	43	0	650641408	19	4819
2026-01-22 11:39:25.19	29.00	51.28	-29.0	-31.1	21.3	6.05e-01	0	44	0	652214272	19	4590
2026-01-22 11:39:26.20	28.35	51.03	-29.4	-32.0	20.8	6.09e-01	0	44	0	654311424	19	4864
2026-01-22 11:39:27.20	27.71	50.78	-29.4	-32.0	20.9	6.06e-01	0	44	0	655884288	19	4857
2026-01-22 11:39:28.21	27.08	50.53	-29.0	-31.1	21.3	6.03e-01	0	43	0	657981440	19	4585
2026-01-22 11:39:29.20	26.48	50.28	-29.5	-32.3	20.7	6.06e-01	0	44	0	660078592	19	4976
2026-01-22 11:39:30.21	25.87	50.03	-29.7	-32.5	20.1	6.08e-01	0	43	0	661651456	20	4928
2026-01-22 11:39:31.21	25.28	49.77	-29.3	-31.4	20.8	6.05e-01	0	43	0	663748608	20	4571
2026-01-22 11:39:32.21	24.69	49.52	-29.1	-30.8	21.2	6.07e-01	0	43	0	665321472	20	4389
2026-01-22 11:39:33.21	24.12	49.26	-29.4	-31.6	20.7	6.06e-01	0	44	0	667418624	20	4645
2026-01-22 11:39:34.21	23.56	49.00	-29.3	-31.5	20.7	6.04e-01	0	43	0	668991488	20	4596
2026-01-22 11:39:35.21	23.01	48.74	-29.6	-32.0	20.4	6.06e-01	0	43	0	671088640	20	4780
2026-01-22 11:39:36.22	22.46	48.48	-29.2	-31.1	21.0	6.06e-01	0	44	0	673185792	20	4487
2026-01-22 11:39:37.22	21.92	48.21	-29.0	-30.6	21.2	6.07e-01	0	44	0	674758656	20	4340
2026-01-22 11:39:38.22	21.40	47.95	-29.1	-30.9	21.1	6.05e-01	0	43	0	676855808	20	4434
2026-01-22 11:39:39.23	20.88	47.68	-29.4	-31.7	20.6	6.06e-01	0	43	0	678428672	20	4664
2026-01-22 11:39:40.23	20.37	47.42	-29.2	-31.0	21.0	6.09e-01	0	44	0	680525824	20	4459
2026-01-22 11:39:41.24	19.87	47.15	-29.4	-31.6	20.6	6.05e-01	0	43	0	682622976	20	4653
2026-01-22 11:39:42.24	19.38	46.88	-29.3	-31.5	20.7	6.05e-01	0	43	0	684195840	20	4591
2026-01-22 11:39:43.24	18.90	46.61	-29.0	-30.5	21.2	6.08e-01	0	44	0	686292992	20	4312
2026-01-22 11:39:44.25	18.42	46.34	-29.1	-30.8	21.2	6.07e-01	0	44	0	687865856	20	4385
2026-01-22 11:39:45.25	17.95	46.08	-29.4	-31.5	20.7	6.05e-01	0	44	0	689963008	20	4622
2026-01-22 11:39:46.25	17.50	45.81	-29.2	-31.2	20.9	6.06e-01	0	44	0	692060160	20	4517
2026-01-22 11:39:47.25	17.05	45.54	-29.1	-30.8	21.1	6.08e-01	0	44	0	693633024	20	4406
2026-01-22 11:39:48.25	16.61	45.27	-29.2	-31.0	20.9	6.05e-01	0	44	0	695730176	20	4464
2026-01-22 11:39:49.25	16.18	45.00	-29.2	-31.0	21.0	6.07e-01	0	44	0	697303040	20	4460
2026-01-22 11:39:50.25	15.75	44.74	-29.3	-31.4	20.8	6.06e-01	0	44	0	699400192	20	4571
2026-01-22 11:39:51.25	15.33	44.47	-29.4	-31.6	20.6	6.07e-01	0	44	0	700973056	20	4645
2026-01-22 11:39:52.25	14.92	44.20	-29.3	-31.4	20.8	6.07e-01	0	44	0	703070208	20	4565
2026-01-22 11:39:53.25	14.51	43.93	-29.4	-31.7	20.5	6.07e-01	0	44	0	705167360	20	4674
2026-01-22 11:39:54.25	14.12	43.67	-29.6	-32.2	20.3	6.07e-01	0	44	0	706740224	20	4829
2026-01-22 11:39:55.25	13.73	43.40	-29.8	-32.7	20.0	6.06e-01	0	44	0	708837376	20	4998
2026-01-22 11:39:56.26	13.34	43.13	-30.3	-33.4	19.3	6.05e-01	0	44	0	710410240	21	5135
2026-01-22 11:39:57.26	12.96	42.87	-30.2	-33.1	19.4	6.06e-01	0	44	0	712507392	21	5026
2026-01-22 11:39:58.27	12.58	42.60	-29.9	-32.2	19.9	6.06e-01	0	44	0	714604544	21	4735
2026-01-22 11:39:59.27	12.22	42.34	-30.1	-32.8	19.6	6.05e-01	0	44	0	716177408	21	4930
2026-01-22 11:40:00.28	11.86	42.07	-30.4	-33.7	19.1	6.07e-01	0	44	0	718274560	21	5241
2026-01-22 11:40:01.28	11.50	41.81	-30.3	-33.5	19.2	6.07e-01	0	44	0	719847424	21	5167
2026-01-22 11:40:02.29	11.15	41.54	-30.4	-33.7	19.0	6.08e-01	0	44	0	721944576	21	5254
2026-01-22 11:40:03.29	10.81	41.28	-30.6	-33.8	18.7	6.07e-01	0	44	0	723517440	22	5191
2026-01-22 11:40:04.30	10.47	41.02	-30.9	-34.5	18.2	6.03e-01	0	44	0	725614592	22	5441
2026-01-22 11:40:05.30	10.14	40.76	-30.2	-32.7	19.3	6.07e-01	0	44	0	727711744	22	4767
2026-01-22 11:40:06.30	9.82	40.50	-30.1	-32.4	19.6	6.05e-01	0	44	0	729284608	22	4674
2026-01-22 11:40:07.30	9.50	40.24	-30.4	-33.2	19.1	6.08e-01	0	43	0	731381760	22	4966
2026-01-22 11:40:08.31	9.18	39.99	-30.6	-33.8	18.6	6.07e-01	0	44	0	732954624	22	5192
2026-01-22 11:40:09.31	8.87	39.73	-30.6	-33.7	18.7	6.05e-01	0	44	0	735051776	22	5125
2026-01-22 11:40:10.31	8.57	39.48	-30.6	-33.7	18.7	6.10e-01	0	44	0	737148928	22	5155
2026-01-22 11:40:11.31	8.27	39.22	-30.8	-34.2	18.4	6.10e-01	0	44	0	738721792	22	5349
2026-01-22 11:40:12.32	7.97	38.97	-30.8	-34.3	18.3	6.09e-01	0	44	0	740818944	22	5374
2026-01-22 11:40:13.32	7.68	38.72	-30.7	-33.9	18.6	6.04e-01	0	43	0	742391808	22	5225
2026-01-22 11:40:14.32	7.39	38.47	-30.6	-33.7	18.7	6.06e-01	0	44	0	744488960	22	5153
2026-01-22 11:40:15.32	7.11	38.22	-30.6	-33.8	18.6	6.08e-01	0	44	0	746586112	22	5199
2026-01-22 11:40:16.33	6.83	37.97	-30.6	-33.8	18.6	6.03e-01	0	43	0	748158976	22	5195
2026-01-22 11:40:17.33	6.56	37.72	-30.9	-34.4	18.2	6.05e-01	0	44	0	750256128	22	5423
2026-01-22 11:40:18.34	6.29	37.48	-31.6	-35.6	17.8	6.05e-01	0	44	0	751828992	23	5730
2026-01-22 11:40:19.34	6.03	37.23	-31.1	-34.7	17.7	6.06e-01	0	44	0	753926144	23	5416
2026-01-22 11:40:20.34	5.77	36.99	-30.5	-32.9	18.8	6.07e-01	0	44	0	755499008	23	4754
2026-01-22 11:40:21.34	5.51	36.75	-30.0	-32.1	19.7	6.06e-01	0	44	0	757596160	22	4592
2026-01-22 11:40:22.34	5.26	36.51	-30.1	-32.5	19.4	6.07e-01	0	44	0	759693312	22	4723
2026-01-22 11:40:23.34	5.01	36.27	-30.4	-33.2	19.0	6.08e-01	0	43	0	761266176	22	4983
2026-01-22 11:40:24.34	4.77	36.03	-30.5	-33.5	18.8	6.08e-01	0	44	0	763363328	22	5071
2026-01-22 11:40:25.35	4.52	35.79	-30.4	-33.2	18.9	6.04e-01	0	44	0	764936192	22	4980
2026-01-22 11:40:26.35	4.29	35.56	-30.1	-32.3	19.5	6.06e-01	0	44	0	767033344	22	4669
2026-01-22 11:40:27.35	4.05	35.32	-30.0	-32.1	19.6	6.08e-01	0	44	0	769130496	22	4607
2026-01-22 11:40:28.36	3.82	35.09	-30.0	-32.3	19.6	6.07e-01	0	44	0	770703360	22	4655
2026-01-22 11:40:29.36	3.59	34.86	-30.0	-32.3	19.5	6.09e-01	0	44	0	772800512	22	4668
2026-01-22 11:40:30.37	3.37	34.62	-29.8	-32.3	19.8	6.07e-01	0	44	0	774373376	21	4759
2026-01-22 11:40:31.38	3.15	34.39	-29.7	-31.8	20.0	6.06e-01	0	44	0	776470528	21	4622
2026-01-22 11:40:32.38	2.93	34.17	-29.5	-31.5	20.2	6.06e-01	0	44	0	778567680	21	4521
2026-01-22 11:40:33.38	2.72	33.94	-29.5	-31.4	20.3	6.05e-01	0	44	0	780140544	21	4488
2026-01-22 11:40:34.39	2.50	33.71	-29.5	-31.5	20.2	6.07e-01	0	44	0	782237696	21	4508
2026-01-22 11:40:35.38	2.30	33.49	-29.5	-31.4	20.2	6.07e-01	0	44	0	783810560	21	4491
2026-01-22 11:40:36.39	2.09	33.27	-29.4	-31.7	20.4	6.06e-01	0	44	0	785907712	20	4692
2026-01-22 11:40:37.39	1.89	33.05	-29.4	-31.8	20.3	6.05e-01	0	44	0	787480576	20	4741
2026-01-22 11:40:38.39	1.69	32.83	-29.4	-31.7	20.4	6.06e-01	0	44	0	789577728	20	4696
2026-01-22 11:40:39.38	1.50	32.61	-29.4	-31.7	20.3	6.09e-01	0	44	0	791674880	20	4708
2026-01-22 11:40:40.38	1.30	32.40	-29.5	-32.0	20.2	6.08e-01	0	44	0	793247744	20	4792
2026-01-22 11:40:41.39	1.11	32.18	-29.6	-32.1	20.1	6.07e-01	0	44	0	795344896	20	4843
2026-01-22 11:40:42.39	0.92	31.96	-29.3	-31.5	20.4	6.09e-01	0	44	0	796917760	20	4630
2026-01-22 11:40:43.39	0.74	31.75	-29.1	-30.9	20.8	6.04e-01	0	43	0	799014912	20	4445
2026-01-22 11:40:44.39	0.55	31.54	-29.0	-30.7	20.9	6.06e-01	0	44	0	800587776	20	4391
2026-01-22 11:40:45.40	0.37	31.33	-29.0	-30.7	20.9	6.07e-01	0	44	0	802684928	20	4389
2026-01-22 11:40:46.40	0.19	31.12	-29.0	-30.8	20.8	6.08e-01	0	44	0	804782080	20	4423
2026-01-22 11:40:47.40	0.02	30.91	-29.1	-31.1	20.7	6.08e-01	0	44	0	806354944	20	4509
2026-01-22 11:40:48.40	359.84	30.71	-29.1	-31.1	20.6	6.04e-01	0	44	0	808452096	20	4529
2026-01-22 11:40:49.41	359.67	30.50	-29.1	-31.0	20.7	6.08e-01	0	44	0	810024960	20	4487
2026-01-22 11:40:50.41	359.50	30.29	-29.2	-31.2	20.6	6.07e-01	0	44	0	812122112	20	4553
2026-01-22 11:40:51.40	359.34	30.09	-29.1	-31.1	20.6	6.07e-01	0	44	0	814219264	20	4533
2026-01-22 11:40:52.41	359.17	29.89	-29.1	-30.9	20.7	6.07e-01	0	43	0	815792128	20	4471
2026-01-22 11:40:53.41	359.01	29.69	-29.1	-31.1	20.6	6.07e-01	0	43	0	817889280	20	4513
2026-01-22 11:40:54.42	358.85	29.49	-29.2	-31.1	20.6	6.03e-01	0	44	0	819462144	20	4513
2026-01-22 11:40:55.42	358.69	29.29	-29.1	-31.1	20.7	6.05e-01	0	44	0	821559296	20	4495
2026-01-22 11:40:56.42	358.53	29.10	-29.1	-31.1	20.7	6.07e-01	0	44	0	823656448	20	4508
2026-01-22 11:40:57.42	358.38	28.90	-29.3	-31.4	20.4	6.07e-01	0	44	0	825229312	20	4611
2026-01-22 11:40:58.42	358.23	28.71	-29.3	-31.6	20.4	6.06e-01	0	44	0	827326464	20	4663
2026-01-22 11:40:59.43	358.08	28.51	-29.3	-31.6	20.3	6.05e-01	0	44	0	828899328	20	4679
2026-01-22 11:41:00.43	357.93	28.32	-29.1	-31.1	20.6	6.08e-01	0	43	0	830996480	20	4508
2026-01-22 11:41:01.43	357.78	28.13	-29.1	-30.9	20.7	6.04e-01	0	44	0	832569344	20	4466
2026-01-22 11:41:02.43	357.64	27.94	-29.1	-31.1	20.7	6.07e-01	0	44	0	834666496	20	4510
2026-01-22 11:41:03.44	357.49	27.75	-29.3	-31.4	20.5	6.04e-01	0	43	0	836763648	20	4598
2026-01-22 11:41:04.44	357.35	27.57	-29.5	-31.9	20.1	6.05e-01	0	43	0	838336512	20	4766
2026-01-22 11:41:05.45	357.21	27.38	-29.6	-32.2	19.9	6.06e-01	0	44	0	840433664	20	4865
2026-01-22 11:41:06.45	357.07	27.20	-29.6	-32.1	20.0	6.07e-01	0	44	0	842006528	20	4851
2026-01-22 11:41:07.46	356.94	27.01	-29.6	-32.2	19.9	6.06e-01	0	44	0	844103680	20	4872
2026-01-22 11:41:08.46	356.80	26.83	-29.6	-32.3	19.9	6.02e-01	0	44	0	845676544	20	4900
2026-01-22 11:41:09.47	356.67	26.65	-29.6	-32.4	19.8	6.00e-01	0	44	0	847773696	20	4936
2026-01-22 11:41:10.47	356.54	26.47	-29.6	-32.3	19.8	6.01e-01	0	44	0	849870848	20	4908
2026-01-22 11:41:11.47	356.41	26.29	-29.6	-32.3	19.8	6.03e-01	0	44	0	851443712	20	4909
2026-01-22 11:41:12.47	356.28	26.11	-29.6	-32.2	19.9	6.01e-01	0	44	0	853540864	20	4879
2026-01-22 11:41:13.48	356.15	25.93	-29.4	-31.7	20.1	6.02e-01	0	44	0	855638016	20	4712
2026-01-22 11:41:14.48	356.03	25.76	-29.3	-31.6	20.2	6.01e-01	0	43	0	857210880	20	4668
2026-01-22 11:41:15.48	355.90	25.58	-29.4	-31.7	20.2	6.01e-01	0	44	0	859308032	20	4717
2026-01-22 11:41:16.48	355.78	25.41	-29.4	-31.8	20.1	6.03e-01	0	44	0	860880896	20	4743
2026-01-22 11:41:17.48	355.66	25.24	-29.4	-31.9	20.1	5.99e-01	0	43	0	862978048	20	4766
2026-01-22 11:41:18.49	355.54	25.07	-29.5	-31.9	20.1	6.00e-01	0	44	0	864550912	20	4774
2026-01-22 11:41:19.49	355.42	24.90	-29.4	-31.9	20.1	6.02e-01	0	44	0	866648064	20	4750
2026-01-22 11:41:20.50	355.31	24.73	-29.6	-32.1	19.9	6.00e-01	0	44	0	868745216	20	4847
2026-01-22 11:41:21.50	355.19	24.56	-29.6	-32.2	19.8	6.00e-01	0	44	0	870318080	20	4884
2026-01-22 11:41:22.51	355.08	24.39	-29.7	-32.6	19.6	6.03e-01	0	44	0	872415232	20	4998
2026-01-22 11:41:23.51	354.96	24.22	-29.8	-32.9	19.4	6.02e-01	0	44	0	873988096	20	5100
2026-01-22 11:41:24.52	354.85	24.06	-29.9	-33.0	19.3	6.01e-01	0	43	0	876085248	20	5140
2026-01-22 11:41:25.52	354.74	23.90	-29.8	-32.9	19.4	6.01e-01	0	44	0	878182400	20	5130
2026-01-22 11:41:26.52	354.63	23.73	-30.0	-33.3	19.1	6.02e-01	0	44	0	879755264	20	5273
2026-01-22 11:41:27.52	354.53	23.57	-30.0	-33.2	19.2	6.02e-01	0	44	0	881852416	20	5238
2026-01-22 11:41:28.53	354.42	23.41	-29.9	-33.0	19.3	6.03e-01	0	44	0	883425280	20	5153
2026-01-22 11:41:29.54	354.31	23.25	-29.9	-33.0	19.3	6.03e-01	0	44	0	885522432	20	5166
2026-01-22 11:41:30.54	354.21	23.09	-30.1	-33.5	19.1	6.05e-01	0	44	0	887619584	20	5331
2026-01-22 11:41:31.55	354.10	22.93	-30.0	-32.8	19.1	6.00e-01	0	44	0	889192448	21	4984
2026-01-22 11:41:32.55	354.00	22.77	-29.8	-32.3	19.4	6.07e-01	0	44	0	891289600	21	4815
2026-01-22 11:41:33.55	353.90	22.62	-29.7	-32.0	19.6	6.03e-01	0	44	0	892862464	21	4712
2026-01-22 11:41:34.55	353.80	22.46	-29.7	-32.1	19.6	6.01e-01	0	44	0	894959616	21	4723
2026-01-22 11:41:35.55	353.70	22.31	-29.7	-32.0	19.6	6.05e-01	0	44	0	896532480	21	4705
2026-01-22 11:41:36.55	353.61	22.16	-29.7	-32.1	19.5	5.99e-01	0	44	0	898629632	21	4727
2026-01-22 11:41:37.55	353.51	22.00	-29.7	-32.2	19.5	6.02e-01	0	44	0	900726784	21	4762
2026-01-22 11:41:38.56	353.42	21.85	-29.8	-32.3	19.4	6.05e-01	0	44	0	902299648	21	4810
2026-01-22 11:41:39.57	353.32	21.70	-29.8	-32.4	19.3	6.02e-01	0	44	0	904396800	21	4828
2026-01-22 11:41:40.57	353.23	21.55	-29.7	-32.2	19.5	6.01e-01	0	44	0	905969664	21	4767
2026-01-22 11:41:41.58	353.13	21.40	-29.7	-32.1	19.5	6.03e-01	0	44	0	908066816	21	4741
2026-01-22 11:41:42.57	353.04	21.25	-29.7	-32.1	19.5	6.06e-01	0	44	0	910163968	21	4743
2026-01-22 11:41:43.57	352.95	21.11	-29.8	-32.4	19.3	6.02e-01	0	44	0	911736832	21	4848
2026-01-22 11:41:44.58	352.86	20.96	-29.8	-32.4	19.3	6.03e-01	0	44	0	913833984	21	4838
2026-01-22 11:41:45.58	352.77	20.81	-29.7	-32.0	19.5	6.02e-01	0	44	0	915406848	21	4706
2026-01-22 11:41:46.58	352.69	20.67	-29.6	-31.9	19.5	6.01e-01	0	44	0	917504000	21	4692
2026-01-22 11:41:47.59	352.60	20.53	-29.7	-32.1	19.5	6.03e-01	0	44	0	919076864	21	4739
2026-01-22 11:41:48.59	352.51	20.38	-29.8	-32.2	19.4	6.04e-01	0	44	0	921174016	21	4796
2026-01-22 11:41:49.59	352.43	20.24	-29.8	-32.3	19.3	6.01e-01	0	44	0	923271168	21	4808
2026-01-22 11:41:50.59	352.34	20.10	-29.8	-32.2	19.4	6.00e-01	0	44	0	924844032	21	4794
2026-01-22 11:41:51.59	352.26	19.96	-29.9	-32.5	19.2	6.02e-01	0	44	0	926941184	21	4890
2026-01-22 11:41:52.59	352.18	19.82	-29.8	-32.4	19.3	6.02e-01	0	44	0	928514048	21	4836
2026-01-22 11:41:53.59	352.10	19.68	-29.7	-32.2	19.4	6.02e-01	0	44	0	930611200	21	4799
2026-01-22 11:41:54.59	352.02	19.54	-29.8	-32.3	19.3	6.04e-01	0	44	0	932708352	21	4825
2026-01-22 11:41:55.59	351.94	19.41	-29.9	-32.6	19.1	6.03e-01	0	44	0	934281216	21	4916
2026-01-22 11:41:56.59	351.86	19.27	-29.8	-32.3	19.3	6.02e-01	0	44	0	936378368	21	4838
2026-01-22 11:41:57.60	351.78	19.13	-29.7	-32.0	19.5	6.02e-01	0	44	0	937951232	21	4735
2026-01-22 11:41:58.61	351.70	19.00	-29.6	-31.9	19.6	6.00e-01	0	44	0	940048384	21	4692
2026-01-22 11:41:59.61	351.62	18.86	-29.7	-32.1	19.5	6.04e-01	0	44	0	941621248	21	4753
2026-01-22 11:42:00.62	351.54	18.73	-29.7	-32.0	19.5	6.02e-01	0	44	0	943718400	21	4726
2026-01-22 11:42:01.62	351.47	18.60	-29.6	-31.9	19.5	6.04e-01	0	44	0	945815552	21	4697
2026-01-22 11:42:02.63	351.39	18.46	-29.7	-32.1	19.4	6.04e-01	0	44	0	947388416	21	4771
2026-01-22 11:42:03.63	351.32	18.33	-29.7	-32.1	19.5	6.02e-01	0	44	0	949485568	21	4743
2026-01-22 11:42:04.63	351.25	18.20	-29.6	-31.8	19.6	6.04e-01	0	44	0	951058432	21	4669
2026-01-22 11:42:05.63	351.17	18.07	-29.6	-31.8	19.6	6.03e-01	0	44	0	953155584	21	4666
2026-01-22 11:42:06.62	351.10	17.95	-29.5	-31.7	19.6	6.01e-01	0	44	0	955252736	21	4630
2026-01-22 11:42:07.62	351.03	17.82	-29.5	-31.7	19.7	6.03e-01	0	44	0	956825600	21	4616
2026-01-22 11:42:08.63	350.96	17.69	-29.6	-31.9	19.5	6.03e-01	0	44	0	958922752	21	4702
2026-01-22 11:42:09.63	350.89	17.56	-29.6	-32.0	19.4	6.03e-01	0	44	0	960495616	21	4721
2026-01-22 11:42:10.62	350.82	17.44	-29.6	-32.0	19.5	6.04e-01	0	44	0	962592768	21	4718
2026-01-22 11:42:11.63	350.75	17.31	-29.7	-32.1	19.4	6.00e-01	0	44	0	964689920	21	4748
2026-01-22 11:42:12.63	350.68	17.19	-29.8	-32.4	19.2	6.03e-01	0	44	0	966262784	21	4840
2026-01-22 11:42:13.63	350.62	17.06	-29.7	-32.2	19.3	6.02e-01	0	44	0	968359936	21	4791
2026-01-22 11:42:14.64	350.55	16.94	-29.7	-32.0	19.4	6.02e-01	0	43	0	969932800	21	4735
2026-01-22 11:42:15.64	350.48	16.81	-29.6	-32.0	19.4	6.03e-01	0	44	0	972029952	21	4719
2026-01-22 11:42:16.64	350.42	16.69	-29.6	-32.0	19.4	6.03e-01	0	44	0	973602816	21	4713
2026-01-22 11:42:17.64	350.35	16.57	-29.8	-32.4	19.2	6.03e-01	0	44	0	975699968	21	4856
2026-01-22 11:42:18.65	350.29	16.45	-29.7	-32.3	19.2	6.03e-01	0	44	0	977797120	21	4818
2026-01-22 11:42:19.65	350.22	16.33	-29.6	-31.9	19.5	6.03e-01	0	44	0	979369984	21	4696
2026-01-22 11:42:20.66	350.16	16.21	-29.6	-31.8	19.5	6.01e-01	0	44	0	981467136	21	4671
2026-01-22 11:42:21.65	350.10	16.09	-29.6	-31.9	19.5	6.03e-01	0	44	0	983040000	21	4683
2026-01-22 11:42:22.65	350.04	15.97	-29.6	-31.8	19.5	6.02e-01	0	44	0	985137152	21	4672
2026-01-22 11:42:23.66	349.97	15.85	-29.6	-31.8	19.5	6.06e-01	0	44	0	986710016	21	4678
2026-01-22 11:42:24.66	349.91	15.73	-29.6	-31.8	19.5	6.01e-01	0	44	0	988807168	21	4679
2026-01-22 11:42:25.66	349.85	15.62	-29.6	-31.9	19.4	6.00e-01	0	44	0	990904320	21	4702
2026-01-22 11:42:26.67	349.79	15.50	-29.6	-31.9	19.4	6.03e-01	0	44	0	992477184	21	4708
2026-01-22 11:42:27.68	349.73	15.38	-29.6	-32.0	19.3	6.04e-01	0	44	0	994574336	21	4750
2026-01-22 11:42:28.68	349.67	15.27	-29.6	-32.0	19.4	6.00e-01	0	44	0	996147200	21	4726
2026-01-22 11:42:29.67	349.62	15.16	-29.6	-32.0	19.4	6.01e-01	0	44	0	998244352	21	4755
2026-01-22 11:42:30.67	349.56	15.04	-29.7	-32.2	19.2	6.04e-01	0	44	0	1000341504	21	4801
2026-01-22 11:42:31.67	349.50	14.93	-29.6	-32.1	19.2	6.00e-01	0	44	0	1001914368	21	4763
2026-01-22 11:42:32.67	349.44	14.82	-29.7	-32.1	19.2	6.02e-01	0	44	0	1004011520	21	4778
2026-01-22 11:42:33.68	349.39	14.70	-29.7	-32.2	19.2	5.98e-01	0	44	0	1005584384	21	4807
2026-01-22 11:42:34.68	349.33	14.59	-29.7	-32.2	19.2	6.01e-01	0	44	0	1007681536	21	4810
2026-01-22 11:42:35.69	349.28	14.48	-29.6	-32.1	19.2	6.05e-01	0	43	0	1009778688	21	4777
2026-01-22 11:42:36.69	349.22	14.37	-29.7	-32.2	19.2	6.03e-01	0	44	0	1011351552	21	4798
2026-01-22 11:42:37.69	349.17	14.26	-29.6	-32.1	19.2	6.03e-01	0	44	0	1013448704	21	4772
2026-01-22 11:42:38.69	349.11	14.15	-29.6	-32.0	19.3	6.03e-01	0	44	0	1015021568	21	4731
2026-01-22 11:42:39.70	349.06	14.04	-29.6	-32.0	19.2	6.00e-01	0	44	0	1017118720	21	4748
2026-01-22 11:42:40.70	349.01	13.93	-29.7	-32.1	19.2	6.00e-01	0	44	0	1018691584	21	4793
2026-01-22 11:42:41.70	348.95	13.82	-29.6	-32.0	19.2	6.03e-01	0	44	0	1020788736	21	4752
2026-01-22 11:42:42.71	348.90	13.71	-29.6	-32.1	19.2	6.07e-01	0	44	0	1022885888	21	4790
2026-01-22 11:42:43.70	348.85	13.61	-29.8	-32.5	19.0	6.00e-01	0	44	0	1024458752	21	4916
2026-01-22 11:42:44.71	348.80	13.50	-29.7	-32.3	19.0	6.02e-01	0	44	0	1026555904	21	4847
2026-01-22 11:42:45.72	348.75	13.39	-29.6	-32.1	19.2	6.03e-01	0	44	0	1028128768	21	4786
2026-01-22 11:42:46.72	348.70	13.29	-29.7	-32.2	19.1	6.03e-01	0	44	0	1030225920	21	4808
2026-01-22 11:42:47.72	348.65	13.18	-29.7	-32.2	19.1	6.01e-01	0	44	0	1032323072	21	4820
2026-01-22 11:42:48.72	348.60	13.08	-29.8	-32.5	18.9	6.03e-01	0	44	0	1033895936	21	4912
2026-01-22 11:42:49.72	348.55	12.97	-29.7	-32.4	19.0	6.04e-01	0	44	0	1035993088	21	4887
2026-01-22 11:42:50.73	348.50	12.87	-29.8	-32.5	18.9	6.04e-01	0	44	0	1037565952	21	4934
2026-01-22 11:42:51.73	348.45	12.77	-29.9	-32.8	18.7	6.06e-01	0	44	0	1039663104	21	5030
2026-01-22 11:42:52.73	348.40	12.66	-29.8	-32.5	18.9	6.02e-01	0	44	0	1041235968	21	4924
2026-01-22 11:42:53.74	348.35	12.56	-29.7	-32.3	19.0	6.05e-01	0	44	0	1043333120	21	4854
2026-01-22 11:42:54.73	348.31	12.46	-29.7	-32.2	19.1	6.00e-01	0	44	0	1045430272	21	4820
2026-01-22 11:42:55.74	348.26	12.36	-29.7	-32.2	19.0	6.04e-01	0	44	0	1047003136	21	4833
2026-01-22 11:42:56.74	348.21	12.26	-29.7	-32.3	19.0	6.04e-01	0	44	0	1049100288	21	4863
2026-01-22 11:42:57.74	348.17	12.16	-29.8	-32.6	18.8	6.03e-01	0	44	0	1050673152	21	4980
2026-01-22 11:42:58.75	348.12	12.06	-29.7	-32.3	18.9	6.01e-01	0	44	0	1052770304	21	4859
2026-01-22 11:42:59.75	348.07	11.96	-29.6	-32.1	19.0	5.99e-01	0	44	0	1054867456	21	4798
2026-01-22 11:43:00.75	348.03	11.86	-29.6	-32.2	19.1	6.03e-01	0	44	0	1056440320	21	4810
2026-01-22 11:43:01.75	347.98	11.76	-29.6	-32.1	19.0	6.00e-01	0	44	0	1058537472	21	4799
2026-01-22 11:43:02.76	347.94	11.66	-29.7	-32.4	18.9	6.02e-01	0	44	0	1060110336	21	4891
2026-01-22 11:43:03.77	347.89	11.56	-29.6	-32.1	19.0	6.00e-01	0	44	0	1062207488	21	4809
2026-01-22 11:43:04.77	347.85	11.46	-29.7	-32.2	19.0	6.02e-01	0	43	0	1064304640	21	4840
2026-01-22 11:43:05.77	347.81	11.37	-29.6	-32.2	19.0	6.02e-01	0	44	0	1065877504	21	4824
2026-01-22 11:43:06.77	347.76	11.27	-29.7	-32.3	18.9	6.03e-01	0	44	0	1067974656	21	4868
2026-01-22 11:43:07.77	347.72	11.17	-29.8	-32.6	18.7	6.03e-01	0	44	0	1069547520	21	4982
2026-01-22 11:43:08.78	347.68	11.08	-29.8	-32.6	18.7	6.03e-01	0	44	0	1071644672	21	4968
2026-01-22 11:43:09.78	347.64	10.98	-29.9	-32.8	18.6	6.03e-01	0	44	0	1073217536	21	5055
2026-01-22 11:43:10.78	347.60	10.89	-29.8	-32.6	18.7	6.05e-01	0	44	0	1075314688	21	4989
2026-01-22 11:43:11.78	347.55	10.79	-29.9	-33.0	18.4	6.02e-01	0	44	0	1077411840	21	5126
2026-01-22 11:43:12.79	347.51	10.70	-29.9	-32.8	18.6	6.00e-01	0	43	0	1078984704	21	5057
2026-01-22 11:43:13.80	347.47	10.60	-29.9	-32.9	18.5	6.01e-01	0	44	0	1081081856	21	5084
2026-01-22 11:43:14.80	347.43	10.51	-30.0	-33.1	18.4	6.01e-01	0	44	0	1082654720	21	5174
2026-01-22 11:43:15.80	347.39	10.42	-29.9	-32.8	18.5	6.04e-01	0	44	0	1084751872	21	5067
2026-01-22 11:43:16.80	347.35	10.32	-29.8	-32.7	18.6	6.02e-01	0	44	0	1086324736	21	5029
2026-01-22 11:43:17.80	347.31	10.23	-29.8	-32.8	18.6	5.98e-01	0	44	0	1088421888	21	5042
2026-01-22 11:43:18.81	347.27	10.14	-29.9	-33.1	18.4	6.02e-01	0	44	0	1090519040	21	5162
2026-01-22 11:43:19.80	347.23	10.05	-29.9	-33.0	18.3	6.04e-01	0	44	0	1092091904	21	5137
2026-01-22 11:43:20.80	347.20	9.96	-29.9	-32.9	18.4	5.99e-01	0	44	0	1094189056	21	5094
2026-01-22 11:43:21.80	347.16	9.87	-29.8	-32.8	18.6	6.03e-01	0	44	0	1095761920	21	5042
2026-01-22 11:43:22.81	347.12	9.78	-29.8	-32.8	18.5	6.01e-01	0	44	0	1097859072	21	5056
2026-01-22 11:43:23.82	347.08	9.68	-30.0	-33.2	18.3	6.02e-01	0	44	0	1099956224	21	5191
2026-01-22 11:43:24.82	347.04	9.59	-29.9	-33.1	18.3	6.02e-01	0	44	0	1101529088	21	5169
2026-01-22 11:43:25.82	347.01	9.51	-29.9	-33.1	18.3	6.01e-01	0	44	0	1103626240	21	5164
2026-01-22 11:43:26.82	346.97	9.42	-30.1	-33.5	18.0	6.04e-01	0	44	0	1105199104	21	5330
2026-01-22 11:43:27.83	346.93	9.33	-30.0	-33.4	18.1	6.05e-01	0	44	0	1107296256	21	5285
2026-01-22 11:43:28.83	346.89	9.24	-30.1	-33.5	18.0	6.01e-01	0	44	0	1109393408	21	5327
2026-01-22 11:43:29.84	346.86	9.15	-30.0	-33.3	18.1	6.02e-01	0	44	0	1110966272	21	5271
2026-01-22 11:43:30.83	346.82	9.06	-30.1	-33.4	18.0	6.02e-01	0	44	0	1113063424	21	5308
2026-01-22 11:43:31.83	346.79	8.98	-30.1	-33.5	18.0	6.03e-01	0	44	0	1114636288	21	5349
2026-01-22 11:43:32.83	346.75	8.89	-30.2	-34.0	17.7	6.02e-01	0	44	0	1116733440	21	5533
2026-01-22 11:43:33.83	346.72	8.80	-30.2	-33.8	17.8	6.00e-01	0	44	0	1118306304	21	5460
2026-01-22 11:43:34.83	346.68	8.72	-30.1	-33.7	17.8	6.00e-01	0	44	0	1120403456	21	5405
2026-01-22 11:43:35.84	346.65	8.63	-30.2	-33.8	17.8	6.02e-01	0	44	0	1122500608	21	5461
2026-01-22 11:43:36.84	346.61	8.54	-30.4	-34.3	17.4	6.03e-01	0	44	0	1124073472	21	5695
2026-01-22 11:43:37.84	346.58	8.46	-30.2	-33.9	17.6	6.02e-01	0	44	0	1126170624	21	5507
2026-01-22 11:43:38.84	346.54	8.37	-30.1	-33.6	17.8	6.02e-01	0	44	0	1127743488	21	5397
2026-01-22 11:43:39.84	346.51	8.29	-30.1	-33.5	17.9	6.04e-01	0	44	0	1129840640	21	5364
2026-01-22 11:43:40.84	346.48	8.20	-30.1	-33.6	17.8	6.02e-01	0	44	0	1131413504	21	5410
2026-01-22 11:43:41.85	346.44	8.12	-30.2	-34.0	17.6	6.04e-01	0	44	0	1133510656	21	5553
2026-01-22 11:43:42.85	346.41	8.03	-30.1	-33.7	17.7	6.04e-01	0	44	0	1135607808	21	5450
2026-01-22 11:43:43.85	346.38	7.95	-30.1	-33.8	17.7	6.02e-01	0	44	0	1137180672	21	5468
2026-01-22 11:43:44.85	346.35	7.87	-30.2	-33.8	17.6	6.03e-01	0	44	0	1139277824	21	5497
2026-01-22 11:43:45.85	346.31	7.78	-30.3	-34.2	17.4	6.03e-01	0	44	0	1140850688	21	5641
2026-01-22 11:43:46.85	346.28	7.70	-30.2	-33.9	17.6	6.01e-01	0	44	0	1142947840	21	5514
2026-01-22 11:43:47.85	346.25	7.62	-30.2	-33.9	17.6	6.01e-01	0	44	0	1145044992	21	5507
2026-01-22 11:43:48.85	346.22	7.54	-30.2	-34.0	17.4	6.02e-01	0	44	0	1146617856	21	5590
2026-01-22 11:43:49.85	346.19	7.45	-30.3	-34.3	17.3	6.07e-01	0	44	0	1148715008	21	5709
2026-01-22 11:43:50.86	346.16	7.37	-30.3	-34.2	17.3	6.01e-01	0	44	0	1150287872	21	5671
2026-01-22 11:43:51.86	346.12	7.29	-30.4	-34.6	17.0	6.02e-01	0	44	0	1152385024	21	5837
2026-01-22 11:43:52.87	346.09	7.21	-30.3	-34.2	17.3	6.02e-01	0	44	0	1153957888	21	5642
2026-01-22 11:43:53.86	346.06	7.13	-30.2	-34.1	17.3	6.03e-01	0	44	0	1156055040	21	5630
2026-01-22 11:43:54.86	346.03	7.05	-33.2	-46.1	4.3	7.31e-01	0	44	104	1157103616	27	15866
2026-01-22 11:43:55.87	346.00	6.97	-33.7	-52.1	3.8	7.46e-01	0	44	104	1157103616	28	30056
2026-01-22 11:43:56.87	345.97	6.89	-33.9	-53.2	3.8	7.45e-01	0	44	104	1157103616	28	33337

#Closed at: 2026-01-22 11:43:57
#Recorded file [1157 MB]: D:/data/31010_260122_143337.dat