passes_logs/2026/01/22/R2M6_AANII_01/R2M6_AANII_01__20260122_014148_FENGYUN_3D_rec.log

#Pass ID: 20260122_014148_FENGYUN 3D
#Satellite: FENGYUN 3D
#Configuration: FENGYUN 3D
#almurnet v.1.7.20240730
#Start time: 2026-01-22 01:41:48

#Version: 2.2.20231116
#Station: R2M6_AANII_01
#Location: 30.233357 lon 59.946436 lat
#TLE: 1 43010U 17072A   26021.48744220  .00000253  00000+0  14133-3 0  9991
#TLE: 2 43010  98.9948 353.4037 0002485  97.2578 262.8880 14.19697766424177

#Time	Az	El	Level	Level2	SNR	BER	BlckErr	Temp	State	Recorded	gain1	gain2
2026-01-22 01:41:48.17	23.05	6.99	-28.7	-31.3	5.6	7.77e-01	0	42	0	0	17	4889
2026-01-22 01:41:49.16	23.09	7.07	-29.7	-33.0	5.3	7.86e-01	0	42	104	0	19	5280
2026-01-22 01:41:50.16	23.14	7.14	-29.7	-33.0	9.7	8.55e-03	0	42	0	0	19	5266
2026-01-22 01:41:51.16	23.18	7.22	-29.4	-32.3	10.2	4.61e-03	0	42	0	5242880	19	4994
2026-01-22 01:41:52.17	23.23	7.29	-29.6	-32.8	9.9	7.63e-03	0	42	0	11534336	19	5208
2026-01-22 01:41:53.17	23.28	7.37	-29.3	-31.9	10.5	4.36e-03	0	42	0	16777216	19	4872
2026-01-22 01:41:54.17	23.32	7.44	-29.0	-31.2	11.0	2.00e-03	0	42	0	22020096	19	4629
2026-01-22 01:41:55.17	23.37	7.52	-28.8	-31.6	11.4	1.18e-03	0	42	0	28311552	17	4966
2026-01-22 01:41:56.18	23.42	7.59	-28.7	-31.2	11.6	7.83e-04	0	42	0	33554432	17	4833
2026-01-22 01:41:57.18	23.47	7.67	-28.6	-31.2	11.6	5.45e-04	0	42	0	38797312	17	4845
2026-01-22 01:41:58.17	23.51	7.74	-28.5	-31.2	11.9	5.42e-04	0	42	0	45088768	16	4960
2026-01-22 01:41:59.18	23.56	7.82	-28.1	-30.3	12.5	4.22e-04	0	42	0	50331648	16	4644
2026-01-22 01:42:00.19	23.61	7.90	-27.9	-29.9	12.7	5.49e-05	0	42	0	55574528	16	4528
2026-01-22 01:42:01.19	23.66	7.97	-27.7	-29.3	13.1	3.58e-04	0	42	0	61865984	16	4342
2026-01-22 01:42:02.19	23.71	8.05	-27.5	-29.5	13.1	3.73e-04	0	42	0	67108864	15	4525
2026-01-22 01:42:03.19	23.75	8.13	-27.5	-29.4	13.2	1.37e-05	0	42	0	73400320	15	4484
2026-01-22 01:42:04.20	23.80	8.20	-27.4	-29.8	13.3	8.00e-06	0	42	0	78643200	14	4723
2026-01-22 01:42:05.20	23.85	8.28	-27.8	-30.1	12.8	3.97e-04	0	43	0	83886080	15	4698
2026-01-22 01:42:06.20	23.90	8.36	-28.3	-30.8	12.2	1.29e-04	0	42	0	90177536	16	4801
2026-01-22 01:42:07.20	23.95	8.44	-27.9	-29.7	12.9	3.97e-04	0	43	0	95420416	16	4475
2026-01-22 01:42:08.20	24.00	8.51	-27.4	-29.2	13.3	3.74e-04	0	43	0	100663296	15	4446
2026-01-22 01:42:09.19	24.05	8.59	-27.0	-28.4	13.9	4.50e-06	0	43	0	106954752	15	4199
2026-01-22 01:42:10.19	24.10	8.67	-26.8	-28.3	14.2	3.42e-04	0	43	0	112197632	14	4283
2026-01-22 01:42:11.20	24.15	8.75	-26.7	-28.0	14.4	0.00e+00	0	43	0	117440512	14	4188
2026-01-22 01:42:12.20	24.20	8.83	-26.5	-27.7	14.6	0.00e+00	0	43	0	123731968	14	4115
2026-01-22 01:42:13.20	24.25	8.91	-26.6	-28.3	14.5	0.00e+00	0	43	0	128974848	13	4397
2026-01-22 01:42:14.21	24.31	8.99	-26.5	-28.0	14.6	3.99e-04	0	43	0	135266304	13	4312
2026-01-22 01:42:15.21	24.36	9.07	-26.6	-28.4	14.5	0.00e+00	0	43	0	140509184	13	4410
2026-01-22 01:42:16.21	24.41	9.15	-26.4	-28.4	14.7	3.80e-04	0	43	0	145752064	12	4525
2026-01-22 01:42:17.22	24.46	9.23	-26.6	-28.3	14.5	4.45e-04	0	43	0	152043520	13	4386
2026-01-22 01:42:18.22	24.51	9.31	-26.8	-28.7	14.3	1.10e-06	0	43	0	157286400	13	4512
2026-01-22 01:42:19.22	24.57	9.39	-26.4	-27.9	13.5	5.01e-04	0	43	0	163577856	14	4327
2026-01-22 01:42:20.23	24.62	9.47	-26.8	-28.2	14.3	0.00e+00	0	43	0	168820736	14	4235
2026-01-22 01:42:21.22	24.67	9.55	-26.7	-28.4	14.2	2.20e-06	0	43	0	174063616	13	4422
2026-01-22 01:42:22.23	24.73	9.63	-26.8	-28.7	14.3	0.00e+00	0	43	0	180355072	13	4505
2026-01-22 01:42:23.23	24.78	9.71	-26.7	-28.5	14.4	2.20e-06	0	43	0	185597952	13	4435
2026-01-22 01:42:24.22	24.83	9.79	-26.7	-28.5	14.4	0.00e+00	0	43	0	190840832	13	4438
2026-01-22 01:42:25.23	24.89	9.88	-26.9	-28.9	14.2	0.00e+00	0	43	0	197132288	13	4560
2026-01-22 01:42:26.23	24.94	9.96	-26.7	-28.6	14.4	5.93e-04	0	43	0	202375168	13	4456
2026-01-22 01:42:27.23	25.00	10.04	-26.7	-28.7	14.3	0.00e+00	0	43	0	208666624	13	4486
2026-01-22 01:42:28.23	25.05	10.12	-26.6	-28.3	14.5	4.93e-04	0	43	0	213909504	13	4394
2026-01-22 01:42:29.23	25.11	10.21	-26.6	-28.2	14.6	0.00e+00	0	43	0	219152384	13	4361
2026-01-22 01:42:30.23	25.17	10.29	-26.5	-28.1	14.7	0.00e+00	0	43	0	225443840	13	4318
2026-01-22 01:42:31.23	25.22	10.37	-26.4	-28.4	14.8	3.09e-04	0	43	0	230686720	12	4539
2026-01-22 01:42:32.24	25.28	10.46	-26.4	-28.4	14.8	0.00e+00	0	43	0	235929600	12	4539
2026-01-22 01:42:33.24	25.33	10.54	-26.4	-28.5	14.8	0.00e+00	0	43	0	242221056	12	4550
2026-01-22 01:42:34.25	25.39	10.63	-26.9	-28.9	14.2	2.84e-04	0	43	0	247463936	13	4564
2026-01-22 01:42:35.26	25.45	10.71	-27.1	-29.0	13.9	5.63e-04	0	43	0	252706816	14	4474
2026-01-22 01:42:36.27	25.51	10.80	-26.7	-28.0	14.5	2.92e-04	0	43	0	258998272	14	4189
2026-01-22 01:42:37.27	25.57	10.88	-26.4	-27.7	14.9	0.00e+00	0	43	0	264241152	13	4226
2026-01-22 01:42:38.27	25.62	10.97	-26.1	-27.8	15.2	0.00e+00	0	43	0	270532608	12	4350
2026-01-22 01:42:39.27	25.68	11.05	-26.0	-27.5	15.4	0.00e+00	0	43	0	275775488	12	4281
2026-01-22 01:42:40.28	25.74	11.14	-26.0	-27.4	15.4	1.59e-04	0	43	0	282066944	12	4240
2026-01-22 01:42:41.28	25.80	11.23	-26.0	-27.5	15.4	0.00e+00	0	43	0	287309824	12	4281
2026-01-22 01:42:42.28	25.86	11.31	-26.0	-27.5	15.4	0.00e+00	0	43	0	292552704	12	4276
2026-01-22 01:42:43.28	25.92	11.40	-26.1	-27.8	15.2	1.54e-04	0	43	0	298844160	12	4346
2026-01-22 01:42:44.28	25.98	11.49	-26.2	-27.9	15.1	0.00e+00	0	43	0	304087040	12	4394
2026-01-22 01:42:45.29	26.04	11.57	-26.0	-27.5	15.4	1.43e-04	0	43	0	309329920	12	4280
2026-01-22 01:42:46.28	26.10	11.66	-25.8	-27.1	15.6	8.23e-05	0	43	0	315621376	12	4154
2026-01-22 01:42:47.29	26.16	11.75	-25.8	-27.6	15.7	0.00e+00	0	43	0	320864256	11	4395
2026-01-22 01:42:48.29	26.22	11.84	-25.8	-27.6	15.7	1.10e-04	0	44	0	326107136	11	4402
2026-01-22 01:42:49.29	26.29	11.93	-25.8	-27.5	15.8	1.43e-04	0	43	0	332398592	11	4380
2026-01-22 01:42:50.29	26.35	12.02	-25.8	-27.6	15.7	0.00e+00	0	43	0	337641472	11	4396
2026-01-22 01:42:51.30	26.41	12.11	-25.8	-27.5	15.8	1.53e-04	0	44	0	343932928	11	4362
2026-01-22 01:42:52.29	26.47	12.19	-25.8	-27.4	15.8	1.94e-04	0	44	0	349175808	11	4351
2026-01-22 01:42:53.29	26.54	12.28	-25.8	-27.4	15.8	0.00e+00	0	44	0	354418688	11	4362
2026-01-22 01:42:54.30	26.60	12.37	-25.7	-27.2	16.0	2.06e-04	0	44	0	360710144	11	4287
2026-01-22 01:42:55.30	26.66	12.46	-25.7	-27.3	15.9	2.08e-04	0	44	0	365953024	11	4327
2026-01-22 01:42:56.30	26.73	12.55	-25.9	-27.6	15.7	0.00e+00	0	43	0	371195904	11	4408
2026-01-22 01:42:57.30	26.79	12.65	-25.8	-27.5	15.8	2.20e-04	0	43	0	377487360	11	4370
2026-01-22 01:42:58.31	26.86	12.74	-25.9	-27.7	15.7	1.91e-04	0	43	0	382730240	11	4421
2026-01-22 01:42:59.31	26.92	12.83	-25.9	-27.7	15.7	0.00e+00	0	43	0	387973120	11	4429
2026-01-22 01:43:00.32	26.99	12.92	-26.0	-27.3	15.5	2.17e-04	0	43	0	394264576	12	4225
2026-01-22 01:43:01.31	27.06	13.01	-26.1	-27.7	15.4	1.97e-04	0	44	0	399507456	12	4313
2026-01-22 01:43:02.32	27.12	13.11	-26.2	-28.0	15.2	0.00e+00	0	43	0	405798912	12	4400
2026-01-22 01:43:03.32	27.19	13.20	-26.0	-27.6	15.5	0.00e+00	0	44	0	411041792	12	4281
2026-01-22 01:43:04.32	27.26	13.29	-26.2	-28.0	15.2	1.85e-04	0	43	0	417333248	12	4410
2026-01-22 01:43:05.33	27.32	13.39	-26.3	-28.1	15.2	0.00e+00	0	44	0	422576128	12	4434
2026-01-22 01:43:06.34	27.39	13.48	-26.0	-27.5	15.5	1.70e-04	0	44	0	427819008	12	4271
2026-01-22 01:43:07.33	27.46	13.58	-25.8	-27.1	15.7	1.37e-04	0	44	0	434110464	12	4163
2026-01-22 01:43:08.33	27.53	13.67	-25.8	-27.5	15.9	0.00e+00	0	44	0	439353344	11	4368
2026-01-22 01:43:09.34	27.60	13.77	-25.9	-27.8	15.7	1.38e-04	0	44	0	444596224	11	4448
2026-01-22 01:43:10.34	27.67	13.86	-26.1	-27.7	15.4	0.00e+00	0	44	0	450887680	12	4316
2026-01-22 01:43:11.34	27.74	13.96	-26.1	-27.7	15.4	0.00e+00	0	44	0	456130560	12	4324
2026-01-22 01:43:12.34	27.81	14.05	-25.8	-27.0	15.8	0.00e+00	0	43	0	461373440	12	4133
2026-01-22 01:43:13.34	27.88	14.15	-25.6	-27.0	16.1	8.00e-06	0	44	0	467664896	11	4234
2026-01-22 01:43:14.34	27.95	14.24	-25.4	-26.7	16.3	0.00e+00	0	44	0	472907776	11	4152
2026-01-22 01:43:15.35	28.03	14.34	-25.4	-26.6	16.4	0.00e+00	0	44	0	479199232	11	4124
2026-01-22 01:43:16.35	28.10	14.44	-25.3	-27.0	16.4	0.00e+00	0	44	0	484442112	10	4354
2026-01-22 01:43:17.35	28.17	14.54	-25.3	-26.9	16.5	0.00e+00	0	44	0	489684992	10	4329
2026-01-22 01:43:18.35	28.24	14.64	-25.4	-27.2	16.3	0.00e+00	0	44	0	495976448	10	4404
2026-01-22 01:43:19.35	28.32	14.73	-25.2	-26.7	16.6	0.00e+00	0	44	0	501219328	10	4266
2026-01-22 01:43:20.35	28.39	14.83	-25.1	-26.4	16.8	0.00e+00	0	44	0	506462208	10	4199
2026-01-22 01:43:21.35	28.47	14.93	-25.1	-26.3	16.8	0.00e+00	0	44	0	512753664	10	4178
2026-01-22 01:43:22.36	28.54	15.03	-25.1	-26.4	16.8	0.00e+00	0	44	0	517996544	10	4197
2026-01-22 01:43:23.36	28.62	15.13	-25.0	-26.3	16.9	0.00e+00	0	44	0	523239424	10	4158
2026-01-22 01:43:24.38	28.70	15.23	-25.1	-26.4	16.8	0.00e+00	0	44	0	529530880	10	4190
2026-01-22 01:43:25.38	28.77	15.33	-25.2	-26.6	16.7	0.00e+00	0	44	0	534773760	10	4246
2026-01-22 01:43:26.38	28.85	15.43	-25.1	-26.5	16.7	0.00e+00	0	44	0	541065216	10	4214
2026-01-22 01:43:27.38	28.93	15.54	-25.1	-26.5	16.8	0.00e+00	0	44	0	546308096	10	4210
2026-01-22 01:43:28.38	29.00	15.64	-25.1	-26.5	16.8	0.00e+00	0	44	0	552599552	10	4210
2026-01-22 01:43:29.39	29.08	15.74	-25.1	-26.5	16.8	0.00e+00	0	44	0	557842432	10	4207
2026-01-22 01:43:30.39	29.16	15.84	-24.9	-26.0	17.0	0.00e+00	0	44	0	563085312	10	4085
2026-01-22 01:43:31.39	29.24	15.95	-24.9	-26.0	17.0	0.00e+00	0	44	0	569376768	10	4083
2026-01-22 01:43:32.39	29.32	16.05	-24.9	-26.5	17.0	0.00e+00	0	44	0	574619648	9	4340
2026-01-22 01:43:33.40	29.40	16.15	-24.9	-26.5	17.0	0.00e+00	0	44	0	579862528	9	4341
2026-01-22 01:43:34.39	29.48	16.26	-25.2	-26.7	16.7	0.00e+00	0	44	0	586153984	10	4258
2026-01-22 01:43:35.39	29.57	16.36	-25.3	-26.9	16.6	0.00e+00	0	44	0	591396864	10	4322
2026-01-22 01:43:36.39	29.65	16.47	-25.0	-26.3	16.9	0.00e+00	0	44	0	596639744	10	4162
2026-01-22 01:43:37.39	29.73	16.57	-24.9	-26.0	17.1	0.00e+00	0	44	0	602931200	10	4081
2026-01-22 01:43:38.40	29.81	16.68	-24.7	-25.6	17.2	0.00e+00	0	44	0	608174080	10	3992
2026-01-22 01:43:39.40	29.90	16.78	-24.7	-25.6	17.3	0.00e+00	0	44	0	614465536	10	3976
2026-01-22 01:43:40.41	29.98	16.89	-24.7	-26.1	17.3	0.00e+00	0	44	0	619708416	9	4212
2026-01-22 01:43:41.41	30.07	17.00	-24.7	-26.0	17.3	0.00e+00	0	44	0	624951296	9	4208
2026-01-22 01:43:42.42	30.15	17.11	-24.7	-26.0	17.4	0.00e+00	0	44	0	631242752	9	4182
2026-01-22 01:43:43.42	30.24	17.21	-24.7	-26.0	17.4	0.00e+00	0	44	0	636485632	9	4186
2026-01-22 01:43:44.42	30.33	17.32	-24.7	-26.1	17.3	0.00e+00	0	44	0	642777088	9	4210
2026-01-22 01:43:45.42	30.41	17.43	-24.5	-25.7	17.5	0.00e+00	0	44	0	648019968	9	4116
2026-01-22 01:43:46.42	30.50	17.54	-24.5	-25.6	17.6	0.00e+00	0	44	0	653262848	9	4096
2026-01-22 01:43:47.43	30.59	17.65	-24.4	-25.5	17.6	0.00e+00	0	44	0	659554304	9	4059
2026-01-22 01:43:48.43	30.68	17.76	-24.5	-25.6	17.6	0.00e+00	0	44	0	664797184	9	4100
2026-01-22 01:43:49.42	30.77	17.87	-23.7	-24.8	17.5	0.00e+00	0	44	0	670040064	9	4068
2026-01-22 01:43:50.42	30.86	17.98	-24.4	-25.4	17.7	0.00e+00	0	44	0	676331520	9	4055
2026-01-22 01:43:51.42	30.95	18.09	-24.4	-25.9	14.6	0.00e+00	0	44	0	681574400	8	4279
2026-01-22 01:43:52.42	31.04	18.20	-24.4	-25.8	15.1	0.00e+00	0	44	0	687865856	8	4272
2026-01-22 01:43:53.43	31.14	18.31	-24.3	-25.8	17.7	0.00e+00	0	44	0	693108736	8	4267
2026-01-22 01:43:54.43	31.23	18.43	-24.4	-25.8	17.4	0.00e+00	0	44	0	698351616	8	4273
2026-01-22 01:43:55.43	31.32	18.54	-24.5	-26.0	17.6	0.00e+00	0	44	0	704643072	8	4320
2026-01-22 01:43:56.44	31.42	18.65	-24.4	-26.0	17.7	0.00e+00	0	44	0	709885952	8	4302
2026-01-22 01:43:57.44	31.51	18.77	-24.3	-25.8	17.8	0.00e+00	0	44	0	715128832	8	4253
2026-01-22 01:43:58.45	31.61	18.88	-24.4	-26.0	17.7	0.00e+00	0	44	0	721420288	8	4301
2026-01-22 01:43:59.46	31.71	19.00	-24.4	-25.9	17.7	0.00e+00	0	44	0	726663168	8	4282
2026-01-22 01:44:00.46	31.80	19.11	-24.3	-25.8	17.8	0.00e+00	0	44	0	732954624	8	4247
2026-01-22 01:44:01.46	31.90	19.23	-24.3	-25.7	17.8	0.00e+00	0	44	0	738197504	8	4231
2026-01-22 01:44:02.47	32.00	19.35	-24.3	-25.6	17.8	0.00e+00	0	44	0	743440384	8	4216
2026-01-22 01:44:03.48	32.10	19.46	-24.4	-25.8	17.8	0.00e+00	0	44	0	749731840	8	4265
2026-01-22 01:44:04.48	32.20	19.58	-24.4	-25.3	17.8	6.91e-04	0	44	0	754974720	9	4025
2026-01-22 01:44:05.47	32.30	19.70	-24.2	-24.9	18.0	0.00e+00	0	44	0	761266176	9	3932
2026-01-22 01:44:06.47	32.40	19.81	-24.1	-25.2	18.1	5.57e-04	0	44	0	766509056	8	4110
2026-01-22 01:44:07.47	32.50	19.93	-24.1	-25.4	18.0	0.00e+00	0	44	0	771751936	8	4150
2026-01-22 01:44:08.48	32.61	20.05	-24.1	-25.4	18.0	0.00e+00	0	44	0	778043392	8	4150
2026-01-22 01:44:09.48	32.71	20.17	-24.1	-25.3	18.0	3.27e-04	0	44	0	783286272	8	4140
2026-01-22 01:44:10.48	32.81	20.29	-24.1	-25.4	18.0	0.00e+00	0	44	0	788529152	8	4147
2026-01-22 01:44:11.48	32.92	20.41	-24.1	-25.2	18.1	0.00e+00	0	44	0	794820608	8	4114
2026-01-22 01:44:12.49	33.03	20.53	-24.1	-25.2	18.1	0.00e+00	0	44	0	800063488	8	4105
2026-01-22 01:44:13.50	33.13	20.66	-24.0	-25.1	18.2	3.56e-04	0	44	0	806354944	8	4080
2026-01-22 01:44:14.51	33.24	20.78	-24.1	-25.2	18.1	0.00e+00	0	44	0	811597824	8	4105
2026-01-22 01:44:15.51	33.35	20.90	-24.0	-25.2	18.2	0.00e+00	0	44	0	816840704	8	4095
2026-01-22 01:44:16.52	33.46	21.03	-24.0	-25.1	18.2	4.99e-04	0	44	0	823132160	8	4068
2026-01-22 01:44:17.52	33.57	21.15	-23.9	-24.9	18.3	0.00e+00	0	44	0	828375040	8	4032
2026-01-22 01:44:18.52	33.68	21.27	-23.8	-25.2	18.4	4.77e-04	0	44	0	834666496	7	4212
2026-01-22 01:44:19.52	33.80	21.40	-23.8	-25.2	18.4	0.00e+00	0	44	0	839909376	7	4214
2026-01-22 01:44:20.52	33.91	21.52	-23.9	-25.3	18.3	0.00e+00	0	44	0	845152256	7	4233
2026-01-22 01:44:21.52	34.02	21.65	-24.0	-25.5	18.2	0.00e+00	0	44	0	851443712	7	4297
2026-01-22 01:44:22.52	34.14	21.77	-24.2	-25.6	18.0	3.17e-04	0	44	0	856686592	8	4202
2026-01-22 01:44:23.53	34.25	21.90	-24.5	-26.0	17.7	0.00e+00	0	44	0	861929472	8	4323
2026-01-22 01:44:24.53	34.37	22.03	-24.6	-25.9	17.5	4.84e-04	0	44	0	868220928	9	4168
2026-01-22 01:44:25.53	34.49	22.16	-24.6	-25.8	17.6	3.27e-04	0	44	0	873463808	9	4144
2026-01-22 01:44:26.54	34.61	22.29	-24.3	-25.2	17.9	0.00e+00	0	44	0	879755264	9	3999
2026-01-22 01:44:27.54	34.72	22.41	-24.1	-24.8	18.1	4.74e-04	0	44	0	884998144	9	3900
2026-01-22 01:44:28.54	34.84	22.54	-24.0	-25.1	18.2	2.69e-04	0	44	0	890241024	8	4089
2026-01-22 01:44:29.54	34.97	22.67	-24.0	-25.1	18.2	1.23e-04	0	44	0	896532480	8	4089
2026-01-22 01:44:30.55	35.09	22.81	-24.1	-25.3	18.1	2.48e-04	0	44	0	901775360	8	4121
2026-01-22 01:44:31.56	35.21	22.94	-24.1	-25.3	18.1	2.31e-04	0	44	0	907018240	8	4123
2026-01-22 01:44:32.56	35.34	23.07	-23.8	-24.6	18.5	2.86e-05	0	44	0	913309696	8	3966
2026-01-22 01:44:33.57	35.46	23.20	-23.6	-24.2	18.7	1.85e-04	0	44	0	918552576	8	3865
2026-01-22 01:44:34.57	35.59	23.33	-23.4	-24.4	18.8	1.65e-04	0	44	0	924844032	7	4017
2026-01-22 01:44:35.58	35.72	23.47	-23.4	-24.3	18.9	0.00e+00	0	44	0	930086912	7	3997
2026-01-22 01:44:36.58	35.85	23.60	-23.4	-24.2	18.9	2.54e-04	0	44	0	935329792	7	3973
2026-01-22 01:44:37.59	35.98	23.74	-23.4	-24.2	18.9	1.90e-04	0	44	0	941621248	7	3976
2026-01-22 01:44:38.59	36.11	23.87	-23.6	-24.7	18.7	7.09e-05	0	44	0	946864128	7	4080
2026-01-22 01:44:39.59	36.24	24.01	-23.5	-24.6	18.8	3.32e-04	0	44	0	953155584	7	4057
2026-01-22 01:44:40.59	36.37	24.14	-23.3	-24.2	19.0	2.54e-04	0	44	0	958398464	7	3960
2026-01-22 01:44:41.59	36.50	24.28	-23.3	-24.1	19.0	2.04e-04	0	44	0	963641344	7	3947
2026-01-22 01:44:42.59	36.64	24.42	-23.3	-24.1	19.0	2.39e-04	0	44	0	969932800	7	3947
2026-01-22 01:44:43.60	36.78	24.55	-23.3	-24.1	19.0	2.08e-04	0	44	0	975175680	7	3948
2026-01-22 01:44:44.60	36.91	24.69	-23.3	-24.1	19.0	1.52e-04	0	44	0	980418560	7	3953
2026-01-22 01:44:45.60	37.05	24.83	-23.2	-24.0	19.1	2.48e-04	0	44	0	986710016	7	3913
2026-01-22 01:44:46.60	37.19	24.97	-23.2	-23.8	19.2	1.13e-04	0	44	0	991952896	7	3868
2026-01-22 01:44:47.61	37.33	25.11	-23.2	-23.9	19.1	6.29e-05	0	44	0	997195776	7	3907
2026-01-22 01:44:48.61	37.47	25.25	-23.2	-23.9	19.2	1.60e-04	0	44	0	1003487232	7	3887
2026-01-22 01:44:49.61	37.62	25.39	-23.1	-23.7	19.2	0.00e+00	0	44	0	1008730112	7	3857
2026-01-22 01:44:50.62	37.76	25.53	-23.1	-23.6	19.3	1.60e-05	0	44	0	1015021568	7	3826
2026-01-22 01:44:51.61	37.91	25.67	-23.1	-23.6	19.3	1.53e-04	0	44	0	1020264448	7	3818
2026-01-22 01:44:52.62	38.05	25.82	-23.2	-23.9	19.2	1.53e-04	0	44	0	1025507328	7	3884
2026-01-22 01:44:53.62	38.20	25.96	-23.2	-23.8	19.2	0.00e+00	0	45	0	1031798784	7	3863
2026-01-22 01:44:54.62	38.35	26.11	-23.1	-23.6	19.3	0.00e+00	0	44	0	1037041664	7	3813
2026-01-22 01:44:55.63	38.50	26.25	-23.0	-23.5	19.4	1.48e-04	0	44	0	1043333120	7	3803
2026-01-22 01:44:56.62	38.65	26.39	-23.1	-23.5	19.4	0.00e+00	0	44	0	1048576000	7	3806
2026-01-22 01:44:57.62	38.81	26.54	-23.1	-23.7	19.3	1.49e-04	0	44	0	1053818880	7	3837
2026-01-22 01:44:58.63	38.96	26.69	-23.1	-23.6	19.3	0.00e+00	0	44	0	1060110336	7	3822
2026-01-22 01:44:59.63	39.12	26.83	-23.0	-23.4	19.4	0.00e+00	0	44	0	1065353216	7	3778
2026-01-22 01:45:00.64	39.28	26.98	-23.0	-24.0	19.4	1.45e-04	0	44	0	1070596096	6	4029
2026-01-22 01:45:01.64	39.44	27.13	-23.0	-24.0	19.4	0.00e+00	0	44	0	1076887552	6	4025
2026-01-22 01:45:02.64	39.60	27.28	-23.0	-24.0	19.4	0.00e+00	0	44	0	1082130432	6	4029
2026-01-22 01:45:03.65	39.76	27.43	-23.0	-24.0	19.4	0.00e+00	0	44	0	1088421888	6	4040
2026-01-22 01:45:04.65	39.93	27.58	-23.0	-24.1	19.3	3.31e-05	0	44	0	1093664768	6	4040
2026-01-22 01:45:05.66	40.09	27.73	-23.1	-24.1	19.3	0.00e+00	0	44	0	1098907648	6	4052
2026-01-22 01:45:06.66	40.26	27.88	-23.0	-24.0	19.4	4.11e-05	0	44	0	1105199104	6	4022
2026-01-22 01:45:07.67	40.43	28.03	-22.9	-23.8	19.5	0.00e+00	0	44	0	1110441984	6	3975
2026-01-22 01:45:08.67	40.60	28.18	-23.0	-23.8	19.5	0.00e+00	0	44	0	1116733440	6	3988
2026-01-22 01:45:09.67	40.77	28.34	-22.9	-23.7	19.5	0.00e+00	0	44	0	1121976320	6	3958
2026-01-22 01:45:10.67	40.94	28.49	-22.9	-23.8	19.5	0.00e+00	0	44	0	1127219200	6	3978
2026-01-22 01:45:11.67	41.12	28.64	-23.2	-24.3	19.3	0.00e+00	0	44	0	1133510656	6	4094
2026-01-22 01:45:12.67	41.29	28.80	-23.0	-24.0	19.4	0.00e+00	0	44	0	1138753536	6	4034
2026-01-22 01:45:13.68	41.47	28.95	-23.0	-23.9	19.5	1.14e-05	0	44	0	1143996416	6	3997
2026-01-22 01:45:14.68	41.65	29.11	-22.9	-23.8	19.5	0.00e+00	0	44	0	1150287872	6	3980
2026-01-22 01:45:15.69	41.83	29.27	-23.0	-24.1	19.4	0.00e+00	0	44	0	1155530752	6	4041
2026-01-22 01:45:16.69	42.02	29.42	-23.0	-23.9	19.5	0.00e+00	0	44	0	1161822208	6	4005
2026-01-22 01:45:17.69	42.20	29.58	-23.0	-23.8	19.5	0.00e+00	0	44	0	1167065088	6	3991
2026-01-22 01:45:18.69	42.39	29.74	-23.0	-23.9	19.5	0.00e+00	0	44	0	1172307968	6	4003
2026-01-22 01:45:19.70	42.58	29.90	-22.9	-23.8	19.6	0.00e+00	0	44	0	1178599424	6	3980
2026-01-22 01:45:20.70	42.77	30.06	-22.9	-23.7	19.6	0.00e+00	0	44	0	1183842304	6	3950
2026-01-22 01:45:21.71	42.96	30.22	-22.9	-23.8	19.6	0.00e+00	0	44	0	1189085184	6	3978
2026-01-22 01:45:22.71	43.15	30.38	-23.0	-24.0	19.5	0.00e+00	0	44	0	1195376640	6	4026
2026-01-22 01:45:23.72	43.35	30.54	-23.2	-24.3	19.3	0.00e+00	0	44	0	1200619520	6	4092
2026-01-22 01:45:24.72	43.55	30.70	-23.1	-24.2	19.4	0.00e+00	0	44	0	1206910976	6	4073
2026-01-22 01:45:25.72	43.75	30.86	-23.0	-24.0	19.5	0.00e+00	0	44	0	1212153856	6	4021
2026-01-22 01:45:26.73	43.95	31.02	-23.0	-24.0	19.5	0.00e+00	0	44	0	1217396736	6	4017
2026-01-22 01:45:27.74	44.16	31.19	-23.2	-24.4	19.3	0.00e+00	0	44	0	1223688192	6	4133
2026-01-22 01:45:28.74	44.36	31.35	-23.1	-24.2	19.4	0.00e+00	0	44	0	1228931072	6	4076
2026-01-22 01:45:29.74	44.57	31.51	-23.2	-24.3	19.3	0.00e+00	0	45	0	1235222528	6	4107
2026-01-22 01:45:30.74	44.78	31.68	-23.0	-24.0	19.4	0.00e+00	0	44	0	1240465408	6	4032
2026-01-22 01:45:31.75	44.99	31.84	-22.9	-23.7	19.6	0.00e+00	0	44	0	1245708288	6	3959
2026-01-22 01:45:32.75	45.21	32.01	-22.9	-23.7	19.6	0.00e+00	0	44	0	1251999744	6	3960
2026-01-22 01:45:33.76	45.42	32.18	-22.8	-23.6	19.7	0.00e+00	0	44	0	1257242624	6	3933
2026-01-22 01:45:34.76	45.64	32.34	-22.8	-23.6	19.7	0.00e+00	0	44	0	1262485504	6	3931
2026-01-22 01:45:35.77	45.86	32.51	-23.0	-24.0	19.5	0.00e+00	0	44	0	1268776960	6	4026
2026-01-22 01:45:36.76	46.09	32.68	-23.3	-24.5	19.2	0.00e+00	0	44	0	1274019840	6	4155
2026-01-22 01:45:37.77	46.31	32.84	-23.3	-24.5	19.2	0.00e+00	0	45	0	1280311296	6	4139
2026-01-22 01:45:38.77	46.54	33.01	-23.2	-24.4	19.3	0.00e+00	0	44	0	1285554176	6	4117
2026-01-22 01:45:39.78	46.77	33.18	-23.2	-24.5	19.3	0.00e+00	0	44	0	1290797056	6	4139
2026-01-22 01:45:40.78	47.00	33.35	-23.2	-24.3	19.4	0.00e+00	0	44	0	1297088512	6	4096
2026-01-22 01:45:41.78	47.24	33.52	-23.1	-24.1	19.5	0.00e+00	0	44	0	1302331392	6	4050
2026-01-22 01:45:42.78	47.47	33.69	-23.2	-24.3	19.4	0.00e+00	0	44	0	1308622848	6	4104
2026-01-22 01:45:43.78	47.71	33.86	-23.0	-24.0	19.5	0.00e+00	0	44	0	1313865728	6	4031
2026-01-22 01:45:44.78	47.95	34.03	-23.2	-24.3	19.4	0.00e+00	0	44	0	1319108608	6	4102
2026-01-22 01:45:45.78	48.20	34.20	-23.0	-24.0	19.5	0.00e+00	0	45	0	1325400064	6	4024
2026-01-22 01:45:46.79	48.45	34.37	-22.8	-23.6	19.7	0.00e+00	0	44	0	1330642944	6	3935
2026-01-22 01:45:47.79	48.69	34.55	-22.8	-23.5	19.8	0.00e+00	0	44	0	1335885824	6	3920
2026-01-22 01:45:48.80	48.95	34.72	-22.9	-23.8	19.6	0.00e+00	0	44	0	1342177280	6	3971
2026-01-22 01:45:49.80	49.20	34.89	-22.9	-23.7	19.7	0.00e+00	0	44	0	1347420160	6	3945
2026-01-22 01:45:50.80	49.46	35.06	-23.0	-23.9	19.6	0.00e+00	0	44	0	1352663040	6	4009
2026-01-22 01:45:51.80	49.72	35.24	-22.9	-23.6	19.7	0.00e+00	0	44	0	1358954496	6	3939
2026-01-22 01:45:52.80	49.98	35.41	-22.7	-23.3	19.9	0.00e+00	0	44	0	1364197376	6	3860
2026-01-22 01:45:53.80	50.25	35.58	-22.7	-23.2	19.9	0.00e+00	0	44	0	1370488832	6	3846
2026-01-22 01:45:54.81	50.52	35.76	-22.6	-23.0	20.0	0.00e+00	0	44	0	1375731712	6	3796
2026-01-22 01:45:55.82	50.79	35.94	-22.6	-23.2	20.0	0.00e+00	0	44	0	1382023168	6	3828
2026-01-22 01:45:56.82	51.06	36.11	-22.6	-23.2	20.0	0.00e+00	0	44	0	1387266048	6	3826
2026-01-22 01:45:57.82	51.34	36.28	-22.7	-23.4	19.8	0.00e+00	0	44	0	1392508928	6	3886
2026-01-22 01:45:58.82	51.62	36.46	-22.8	-23.6	19.7	0.00e+00	0	44	0	1398800384	6	3937
2026-01-22 01:45:59.83	51.91	36.64	-22.9	-23.7	19.7	0.00e+00	0	44	0	1404043264	6	3964
2026-01-22 01:46:00.83	52.19	36.81	-22.8	-23.5	19.9	0.00e+00	0	44	0	1409286144	6	3897
2026-01-22 01:46:01.83	52.48	36.99	-22.7	-23.3	19.8	0.00e+00	0	44	0	1415577600	6	3862
2026-01-22 01:46:02.84	52.77	37.16	-22.8	-23.5	19.8	0.00e+00	0	44	0	1420820480	6	3906
2026-01-22 01:46:03.85	53.07	37.34	-22.6	-23.0	20.1	0.00e+00	0	44	0	1426063360	6	3799
2026-01-22 01:46:04.85	53.37	37.52	-22.5	-22.9	20.1	0.00e+00	0	44	0	1432354816	6	3770
2026-01-22 01:46:05.85	53.67	37.69	-22.7	-23.3	19.9	0.00e+00	0	44	0	1437597696	6	3854
2026-01-22 01:46:06.85	53.97	37.87	-22.6	-23.2	20.0	0.00e+00	0	44	0	1443889152	6	3834
2026-01-22 01:46:07.85	54.28	38.04	-22.6	-23.1	20.0	0.00e+00	0	44	0	1449132032	6	3820
2026-01-22 01:46:08.85	54.59	38.22	-22.7	-23.3	19.9	0.00e+00	0	44	0	1454374912	6	3860
2026-01-22 01:46:09.85	54.91	38.40	-22.6	-23.1	20.0	0.00e+00	0	44	0	1460666368	6	3815
2026-01-22 01:46:10.85	55.22	38.57	-22.4	-22.8	20.2	0.00e+00	0	44	0	1465909248	6	3740
2026-01-22 01:46:11.85	55.55	38.75	-22.4	-22.7	20.3	0.00e+00	0	44	0	1471152128	6	3722
2026-01-22 01:46:12.85	55.87	38.92	-22.3	-22.5	20.3	0.00e+00	0	44	0	1477443584	6	3679
2026-01-22 01:46:13.86	56.20	39.10	-22.3	-22.6	20.3	3.20e-05	0	44	0	1482686464	6	3693
2026-01-22 01:46:14.86	56.53	39.28	-22.6	-23.2	20.0	0.00e+00	0	44	0	1487929344	6	3828
2026-01-22 01:46:15.87	56.87	39.45	-22.7	-23.3	20.0	0.00e+00	0	44	0	1494220800	6	3857
2026-01-22 01:46:16.87	57.21	39.63	-22.8	-23.5	19.9	0.00e+00	0	44	0	1499463680	6	3903
2026-01-22 01:46:17.87	57.55	39.80	-22.7	-23.3	19.9	9.15e-05	0	44	0	1505755136	6	3872
2026-01-22 01:46:18.87	57.90	39.98	-22.7	-23.2	20.0	0.00e+00	0	44	0	1510998016	6	3849
2026-01-22 01:46:19.88	58.25	40.15	-22.4	-22.6	20.3	1.60e-05	0	44	0	1517289472	6	3706
2026-01-22 01:46:20.88	58.60	40.33	-22.3	-22.5	20.4	5.14e-05	0	44	0	1522532352	6	3673
2026-01-22 01:46:21.88	58.96	40.50	-22.6	-23.0	20.1	0.00e+00	0	44	0	1527775232	6	3800
2026-01-22 01:46:22.88	59.32	40.67	-22.6	-23.2	20.0	7.32e-05	0	44	0	1534066688	6	3837
2026-01-22 01:46:23.88	59.69	40.85	-22.8	-23.5	19.9	0.00e+00	0	44	0	1539309568	6	3900
2026-01-22 01:46:24.88	60.06	41.02	-22.6	-23.1	20.0	0.00e+00	0	44	0	1544552448	6	3820
2026-01-22 01:46:25.88	60.43	41.19	-22.6	-23.2	20.0	1.18e-04	0	44	0	1550843904	6	3836
2026-01-22 01:46:26.89	60.81	41.37	-22.8	-23.5	19.9	1.28e-04	0	44	0	1556086784	6	3897
2026-01-22 01:46:27.89	61.19	41.54	-22.7	-23.4	19.9	0.00e+00	0	44	0	1561329664	6	3879
2026-01-22 01:46:28.90	61.58	41.71	-22.5	-22.9	20.2	0.00e+00	0	44	0	1567621120	6	3774
2026-01-22 01:46:29.91	61.97	41.88	-22.5	-22.8	20.2	5.03e-05	0	44	0	1572864000	6	3751
2026-01-22 01:46:30.91	62.36	42.05	-22.7	-23.2	20.0	0.00e+00	0	44	0	1579155456	6	3847
2026-01-22 01:46:31.91	62.76	42.22	-22.7	-23.2	20.0	6.40e-05	0	44	0	1584398336	6	3841
2026-01-22 01:46:32.92	63.16	42.39	-22.7	-23.3	20.0	6.52e-05	0	44	0	1590689792	6	3861
2026-01-22 01:46:33.92	63.57	42.55	-22.7	-23.3	19.9	0.00e+00	0	44	0	1595932672	6	3865
2026-01-22 01:46:34.92	63.98	42.72	-22.9	-23.8	19.7	6.80e-06	0	44	0	1601175552	6	3965
2026-01-22 01:46:35.92	64.39	42.88	-23.0	-23.9	19.7	0.00e+00	0	44	0	1607467008	6	3987
2026-01-22 01:46:36.93	64.81	43.05	-23.2	-24.4	19.5	0.00e+00	0	44	0	1612709888	6	4112
2026-01-22 01:46:37.93	65.23	43.21	-22.9	-23.7	19.8	0.00e+00	0	44	0	1617952768	6	3963
2026-01-22 01:46:38.93	65.66	43.37	-22.7	-23.3	20.0	0.00e+00	0	45	0	1624244224	6	3869
2026-01-22 01:46:39.94	66.10	43.54	-22.8	-23.5	19.9	0.00e+00	0	44	0	1629487104	6	3896
2026-01-22 01:46:40.94	66.53	43.70	-22.8	-23.5	19.9	2.20e-06	0	44	0	1635778560	6	3897
2026-01-22 01:46:41.94	66.97	43.86	-22.9	-23.8	19.8	3.20e-05	0	44	0	1641021440	6	3975
2026-01-22 01:46:42.94	67.41	44.01	-22.8	-23.4	19.9	0.00e+00	0	44	0	1646264320	6	3887
2026-01-22 01:46:43.95	67.86	44.17	-22.8	-23.5	19.9	2.97e-05	0	44	0	1652555776	6	3903
2026-01-22 01:46:44.95	68.32	44.33	-23.1	-24.1	19.6	0.00e+00	0	44	0	1657798656	6	4045
2026-01-22 01:46:45.95	68.77	44.48	-23.1	-24.2	19.6	0.00e+00	0	44	0	1663041536	6	4067
2026-01-22 01:46:46.95	69.23	44.63	-23.2	-24.3	19.5	0.00e+00	0	44	0	1669332992	6	4090
2026-01-22 01:46:47.95	69.70	44.78	-23.2	-24.3	19.5	0.00e+00	0	44	0	1674575872	6	4096
2026-01-22 01:46:48.96	70.17	44.93	-23.1	-24.3	19.4	0.00e+00	0	44	0	1679818752	6	4095
2026-01-22 01:46:49.95	70.64	45.08	-23.3	-24.7	19.2	0.00e+00	0	44	0	1686110208	6	4193
2026-01-22 01:46:50.96	71.13	45.23	-23.1	-24.3	19.4	0.00e+00	0	44	0	1691353088	6	4099
2026-01-22 01:46:51.96	71.61	45.37	-23.1	-24.3	19.4	1.48e-05	0	44	0	1697644544	6	4109
2026-01-22 01:46:52.97	72.10	45.52	-23.4	-24.8	19.1	3.31e-05	0	44	0	1702887424	6	4253
2026-01-22 01:46:53.97	72.59	45.66	-23.1	-24.2	19.4	0.00e+00	0	44	0	1709178880	6	4099
2026-01-22 01:46:54.98	73.09	45.80	-23.0	-23.9	19.6	0.00e+00	0	45	0	1714421760	6	4007
2026-01-22 01:46:55.98	73.59	45.94	-23.1	-24.1	19.5	4.50e-06	0	44	0	1719664640	6	4067
2026-01-22 01:46:56.99	74.10	46.07	-23.3	-24.6	19.2	0.00e+00	0	44	0	1725956096	6	4182
2026-01-22 01:46:58.00	74.62	46.21	-23.7	-25.0	18.8	0.00e+00	0	44	0	1731198976	7	4162
2026-01-22 01:46:59.00	75.13	46.34	-23.6	-24.8	18.9	0.00e+00	0	44	0	1736441856	7	4130
2026-01-22 01:47:00.00	75.65	46.47	-24.0	-25.1	18.5	0.00e+00	0	45	0	1742733312	8	4088
2026-01-22 01:47:01.01	76.18	46.60	-23.4	-23.7	19.2	0.00e+00	0	45	0	1747976192	8	3757
2026-01-22 01:47:02.01	76.70	46.72	-22.7	-23.3	19.9	0.00e+00	0	45	0	1753219072	6	3867
2026-01-22 01:47:03.01	77.23	46.85	-22.4	-22.8	20.1	0.00e+00	0	44	0	1759510528	6	3743
2026-01-22 01:47:04.01	77.77	46.97	-22.7	-23.3	19.9	0.00e+00	0	44	0	1764753408	6	3868
2026-01-22 01:47:05.01	78.31	47.09	-22.8	-23.6	19.7	0.00e+00	0	44	0	1771044864	6	3940
2026-01-22 01:47:06.02	78.85	47.20	-22.7	-23.3	19.9	0.00e+00	0	45	0	1776287744	6	3877
2026-01-22 01:47:07.02	79.40	47.32	-22.7	-23.4	19.8	0.00e+00	0	44	0	1782579200	6	3899
2026-01-22 01:47:08.03	79.96	47.43	-22.8	-23.6	19.7	0.00e+00	0	44	0	1787822080	6	3951
2026-01-22 01:47:09.03	80.51	47.54	-22.7	-23.4	19.8	0.00e+00	0	44	0	1793064960	6	3883
2026-01-22 01:47:10.03	81.07	47.64	-22.7	-23.4	19.9	0.00e+00	0	44	0	1799356416	6	3883
2026-01-22 01:47:11.03	81.63	47.75	-23.1	-24.2	19.4	0.00e+00	0	45	0	1804599296	6	4083
2026-01-22 01:47:12.03	82.20	47.85	-23.1	-24.2	19.5	0.00e+00	0	44	0	1809842176	6	4077
2026-01-22 01:47:13.04	82.77	47.95	-23.2	-24.5	19.3	0.00e+00	0	44	0	1816133632	6	4148
2026-01-22 01:47:14.04	83.34	48.04	-23.2	-24.4	19.4	0.00e+00	0	44	0	1821376512	6	4134
2026-01-22 01:47:15.05	83.93	48.13	-23.2	-24.5	19.3	0.00e+00	0	44	0	1826619392	6	4152
2026-01-22 01:47:16.05	84.51	48.22	-23.1	-24.2	19.4	0.00e+00	0	44	0	1832910848	6	4079
2026-01-22 01:47:17.05	85.09	48.31	-23.1	-24.2	19.4	0.00e+00	0	44	0	1838153728	6	4096
2026-01-22 01:47:18.06	85.68	48.39	-23.3	-24.7	19.2	0.00e+00	0	45	0	1844445184	6	4204
2026-01-22 01:47:19.05	86.26	48.47	-23.4	-24.9	19.1	0.00e+00	0	44	0	1849688064	6	4249
2026-01-22 01:47:20.06	86.86	48.55	-23.0	-23.9	19.6	0.00e+00	0	44	0	1854930944	6	3997
2026-01-22 01:47:21.07	87.46	48.63	-22.9	-23.9	19.6	0.00e+00	0	44	0	1861222400	6	4002
2026-01-22 01:47:22.07	88.06	48.70	-23.1	-24.2	19.4	0.00e+00	0	45	0	1866465280	6	4085
2026-01-22 01:47:23.07	88.66	48.76	-23.1	-24.1	19.5	0.00e+00	0	44	0	1872756736	6	4070
2026-01-22 01:47:24.08	89.27	48.83	-22.9	-23.8	19.7	0.00e+00	0	45	0	1877999616	6	3977
2026-01-22 01:47:25.08	89.88	48.89	-23.2	-24.3	19.4	0.00e+00	0	44	0	1883242496	6	4107
2026-01-22 01:47:26.08	90.49	48.95	-23.0	-23.9	19.6	0.00e+00	0	45	0	1889533952	6	4011
2026-01-22 01:47:27.09	91.10	49.00	-23.0	-24.1	19.5	0.00e+00	0	44	0	1894776832	6	4070
2026-01-22 01:47:28.09	91.71	49.05	-23.3	-24.5	19.3	0.00e+00	0	44	0	1900019712	6	4176
2026-01-22 01:47:29.09	92.33	49.10	-22.9	-23.8	19.7	0.00e+00	0	44	0	1906311168	6	3982
2026-01-22 01:47:30.10	92.95	49.15	-22.8	-23.5	19.8	0.00e+00	0	45	0	1911554048	6	3923
2026-01-22 01:47:31.10	93.57	49.19	-22.9	-23.7	19.7	0.00e+00	0	45	0	1917845504	6	3963
2026-01-22 01:47:32.10	94.19	49.22	-22.9	-23.8	19.7	0.00e+00	0	44	0	1923088384	6	3983
2026-01-22 01:47:33.11	94.82	49.26	-22.9	-23.8	19.6	0.00e+00	0	45	0	1928331264	6	4000
2026-01-22 01:47:34.11	95.44	49.29	-22.9	-23.8	19.7	0.00e+00	0	44	0	1934622720	6	3983
2026-01-22 01:47:35.12	96.07	49.32	-22.6	-23.2	20.0	0.00e+00	0	44	0	1939865600	6	3836
2026-01-22 01:47:36.12	96.69	49.34	-22.7	-23.3	19.9	0.00e+00	0	45	0	1946157056	6	3861
2026-01-22 01:47:37.12	97.32	49.36	-23.0	-24.0	19.6	0.00e+00	0	44	0	1951399936	6	4040
2026-01-22 01:47:38.13	97.95	49.37	-23.3	-24.7	19.2	0.00e+00	0	44	0	1956642816	6	4227
2026-01-22 01:47:39.14	98.58	49.39	-23.2	-24.4	19.3	0.00e+00	0	44	0	1962934272	6	4148
2026-01-22 01:47:40.14	99.21	49.40	-22.8	-23.7	19.7	0.00e+00	0	45	0	1968177152	6	3961
2026-01-22 01:47:41.14	99.84	49.40	-23.0	-23.9	19.6	0.00e+00	0	44	0	1973420032	6	4022
2026-01-22 01:47:42.14	100.47	49.40	-23.2	-24.5	19.3	0.00e+00	0	44	0	1979711488	6	4160
2026-01-22 01:47:43.14	101.09	49.40	-23.1	-24.1	19.5	0.00e+00	0	45	0	1984954368	6	4062
2026-01-22 01:47:44.14	101.72	49.39	-23.0	-24.0	19.6	0.00e+00	0	45	0	1991245824	6	4034
2026-01-22 01:47:45.14	102.35	49.39	-23.1	-24.2	19.5	0.00e+00	0	44	0	1996488704	6	4092
2026-01-22 01:47:46.14	102.98	49.37	-23.0	-24.0	19.5	0.00e+00	0	45	0	2001731584	6	4046
2026-01-22 01:47:47.15	103.61	49.36	-23.0	-23.9	19.6	0.00e+00	0	44	0	2008023040	6	4014
2026-01-22 01:47:48.15	104.23	49.34	-23.0	-23.9	19.6	0.00e+00	0	44	0	2013265920	6	4017
2026-01-22 01:47:49.15	104.86	49.31	-22.9	-23.9	19.6	0.00e+00	0	44	0	2018508800	6	4006
2026-01-22 01:47:50.15	105.48	49.28	-22.9	-23.8	19.6	0.00e+00	0	45	0	2024800256	6	3997
2026-01-22 01:47:51.16	106.11	49.25	-23.0	-24.0	19.6	0.00e+00	0	45	0	2030043136	6	4039
2026-01-22 01:47:52.16	106.73	49.22	-22.9	-23.8	19.7	0.00e+00	0	45	0	2035286016	6	3980
2026-01-22 01:47:53.17	107.36	49.18	-22.9	-23.8	19.7	0.00e+00	0	44	0	2041577472	6	3983
2026-01-22 01:47:54.18	107.98	49.14	-23.0	-23.9	19.6	0.00e+00	0	45	0	2046820352	6	4015
2026-01-22 01:47:55.18	108.60	49.09	-22.9	-23.9	19.7	0.00e+00	0	44	0	2053111808	6	4000
2026-01-22 01:47:56.18	109.21	49.05	-23.1	-24.2	19.5	0.00e+00	0	44	0	2058354688	6	4082
2026-01-22 01:47:57.18	109.83	49.00	-23.1	-24.2	19.5	0.00e+00	0	45	0	2064646144	6	4083
2026-01-22 01:47:58.18	110.44	48.94	-22.9	-23.8	19.7	0.00e+00	0	44	0	2069889024	6	3995
2026-01-22 01:47:59.18	111.04	48.88	-22.8	-23.5	19.8	0.00e+00	0	45	0	2075131904	6	3920
2026-01-22 01:48:00.18	111.65	48.82	-22.7	-23.4	19.9	0.00e+00	0	45	0	2081423360	6	3896
2026-01-22 01:48:01.19	112.26	48.75	-22.6	-23.2	19.9	0.00e+00	0	45	0	2086666240	6	3854
2026-01-22 01:48:02.19	112.86	48.69	-22.6	-23.2	20.0	0.00e+00	0	44	0	2091909120	6	3858
2026-01-22 01:48:03.20	113.46	48.61	-22.7	-23.4	19.9	0.00e+00	0	45	0	2098200576	6	3896
2026-01-22 01:48:04.20	114.06	48.54	-22.8	-23.6	19.8	0.00e+00	0	45	0	2103443456	6	3936
2026-01-22 01:48:05.20	114.65	48.46	-22.7	-23.3	20.0	0.00e+00	0	45	0	2108686336	6	3860
2026-01-22 01:48:06.20	115.24	48.38	-22.8	-23.6	19.8	0.00e+00	0	45	0	2114977792	6	3936
2026-01-22 01:48:07.21	115.83	48.30	-23.1	-24.2	19.5	0.00e+00	0	45	0	2120220672	6	4096
2026-01-22 01:48:08.21	116.42	48.21	-23.4	-24.9	19.1	0.00e+00	0	44	0	2126512128	6	4258
2026-01-22 01:48:09.22	117.00	48.12	-23.0	-24.1	19.5	0.00e+00	0	45	0	2131755008	6	4060
2026-01-22 01:48:10.22	117.58	48.03	-22.7	-23.4	19.9	0.00e+00	0	44	0	2138046464	6	3894
2026-01-22 01:48:11.23	118.16	47.93	-22.9	-23.8	19.7	1.10e-06	0	44	0	2143289344	6	3979
2026-01-22 01:48:12.23	118.73	47.83	-23.2	-24.4	19.4	0.00e+00	0	45	0	2148532224	6	4135
2026-01-22 01:48:13.23	119.30	47.73	-23.2	-24.3	19.5	0.00e+00	0	45	0	2154823680	6	4120
2026-01-22 01:48:14.23	119.86	47.63	-23.2	-24.3	19.4	1.10e-06	0	44	0	2160066560	6	4124
2026-01-22 01:48:15.23	120.42	47.52	-23.0	-24.1	19.5	0.00e+00	0	45	0	2165309440	6	4055
2026-01-22 01:48:16.24	120.98	47.41	-23.1	-24.2	19.5	0.00e+00	0	44	0	2171600896	6	4070
2026-01-22 01:48:17.25	121.53	47.30	-23.2	-24.3	19.5	0.00e+00	0	45	0	2176843776	6	4114
2026-01-22 01:48:18.25	122.08	47.18	-23.1	-24.2	19.5	0.00e+00	0	45	0	2182086656	6	4082
2026-01-22 01:48:19.25	122.62	47.07	-23.2	-24.4	19.3	0.00e+00	0	45	0	2188378112	6	4144
2026-01-22 01:48:20.25	123.16	46.95	-23.5	-25.0	19.1	0.00e+00	0	44	0	2193620992	6	4301
2026-01-22 01:48:21.25	123.70	46.83	-23.6	-24.7	19.0	0.00e+00	0	44	0	2199912448	7	4098
2026-01-22 01:48:22.25	124.23	46.70	-23.1	-23.6	19.5	0.00e+00	0	44	0	2205155328	7	3839
2026-01-22 01:48:23.25	124.75	46.58	-22.7	-23.3	19.9	0.00e+00	0	44	0	2210398208	6	3861
2026-01-22 01:48:24.26	125.28	46.45	-22.7	-23.4	19.9	0.00e+00	0	45	0	2216689664	6	3892
2026-01-22 01:48:25.26	125.80	46.32	-22.9	-23.7	19.7	0.00e+00	0	44	0	2221932544	6	3970
2026-01-22 01:48:26.26	126.31	46.18	-22.9	-23.7	19.7	0.00e+00	0	44	0	2227175424	6	3968
2026-01-22 01:48:27.26	126.82	46.05	-22.8	-23.6	19.8	0.00e+00	0	44	0	2233466880	6	3943
2026-01-22 01:48:28.27	127.33	45.91	-23.0	-23.9	19.6	0.00e+00	0	44	0	2238709760	6	4016
2026-01-22 01:48:29.28	127.84	45.77	-23.0	-24.1	19.5	0.00e+00	0	44	0	2245001216	6	4060
2026-01-22 01:48:30.29	128.34	45.63	-23.0	-24.0	19.5	0.00e+00	0	45	0	2250244096	6	4046
2026-01-22 01:48:31.29	128.83	45.49	-23.0	-24.0	19.6	0.00e+00	0	44	0	2255486976	6	4041
2026-01-22 01:48:32.29	129.32	45.35	-23.1	-24.2	19.5	0.00e+00	0	45	0	2261778432	6	4090
2026-01-22 01:48:33.29	129.80	45.20	-23.1	-24.3	19.4	0.00e+00	0	45	0	2267021312	6	4113
2026-01-22 01:48:34.29	130.28	45.05	-23.2	-24.3	19.4	0.00e+00	0	44	0	2273312768	6	4118
2026-01-22 01:48:35.29	130.76	44.90	-23.0	-24.0	19.5	1.10e-06	0	45	0	2278555648	6	4045
2026-01-22 01:48:36.30	131.23	44.75	-22.9	-23.7	19.7	0.00e+00	0	44	0	2283798528	6	3968
2026-01-22 01:48:37.30	131.70	44.60	-22.9	-23.7	19.7	0.00e+00	0	45	0	2290089984	6	3969
2026-01-22 01:48:38.30	132.16	44.45	-23.0	-24.0	19.5	0.00e+00	0	45	0	2295332864	6	4040
2026-01-22 01:48:39.30	132.62	44.29	-23.0	-24.0	19.5	0.00e+00	0	45	0	2300575744	6	4045
2026-01-22 01:48:40.31	133.07	44.14	-23.2	-24.5	19.3	0.00e+00	0	44	0	2306867200	6	4163
2026-01-22 01:48:41.31	133.52	43.98	-23.3	-24.6	19.2	0.00e+00	0	45	0	2312110080	6	4186
2026-01-22 01:48:42.32	133.97	43.82	-23.3	-24.6	19.3	0.00e+00	0	45	0	2318401536	6	4180
2026-01-22 01:48:43.32	134.41	43.66	-23.3	-24.6	19.2	0.00e+00	0	45	0	2323644416	6	4186
2026-01-22 01:48:44.33	134.85	43.50	-23.2	-24.4	19.3	6.98e-05	0	45	0	2328887296	6	4138
2026-01-22 01:48:45.33	135.28	43.33	-23.2	-24.4	19.3	0.00e+00	0	45	0	2335178752	6	4129
2026-01-22 01:48:46.33	135.70	43.17	-23.2	-24.4	19.3	0.00e+00	0	45	0	2340421632	6	4149
2026-01-22 01:48:47.34	136.13	43.01	-23.1	-24.1	19.4	0.00e+00	0	45	0	2346713088	6	4075
2026-01-22 01:48:48.34	136.55	42.84	-23.0	-24.0	19.5	0.00e+00	0	45	0	2351955968	6	4035
2026-01-22 01:48:49.35	136.97	42.67	-22.8	-23.7	19.6	0.00e+00	0	44	0	2357198848	6	3964
2026-01-22 01:48:50.35	137.38	42.51	-22.9	-23.7	19.6	0.00e+00	0	44	0	2363490304	6	3969
2026-01-22 01:48:51.35	137.78	42.34	-22.9	-23.9	19.5	0.00e+00	0	45	0	2368733184	6	4009
2026-01-22 01:48:52.35	138.18	42.17	-22.9	-23.8	19.6	0.00e+00	0	45	0	2373976064	6	3987
2026-01-22 01:48:53.36	138.58	42.00	-23.1	-24.1	19.4	0.00e+00	0	45	0	2380267520	6	4067
2026-01-22 01:48:54.37	138.98	41.83	-23.4	-24.8	19.1	0.00e+00	0	45	0	2385510400	6	4235
2026-01-22 01:48:55.37	139.37	41.66	-23.4	-24.3	19.0	0.00e+00	0	45	0	2391801856	7	4016
2026-01-22 01:48:56.37	139.75	41.49	-23.1	-23.6	19.4	0.00e+00	0	45	0	2397044736	7	3836
2026-01-22 01:48:57.38	140.14	41.31	-22.9	-23.2	19.6	0.00e+00	0	44	0	2402287616	7	3743
2026-01-22 01:48:58.39	140.52	41.14	-22.7	-23.5	19.7	0.00e+00	0	45	0	2408579072	6	3907
2026-01-22 01:48:59.39	140.89	40.97	-22.9	-23.7	19.6	0.00e+00	0	45	0	2413821952	6	3973
2026-01-22 01:49:00.39	141.26	40.79	-23.0	-24.0	19.5	0.00e+00	0	45	0	2420113408	6	4052
2026-01-22 01:49:01.40	141.63	40.62	-23.0	-24.1	19.4	0.00e+00	0	45	0	2425356288	6	4075
2026-01-22 01:49:02.40	141.99	40.44	-23.0	-24.1	19.4	0.00e+00	0	44	0	2430599168	6	4068
2026-01-22 01:49:03.40	142.35	40.27	-22.6	-23.1	19.9	0.00e+00	0	44	0	2436890624	6	3821
2026-01-22 01:49:04.41	142.70	40.09	-22.3	-22.6	20.2	0.00e+00	0	44	0	2442133504	6	3713
2026-01-22 01:49:05.41	143.05	39.92	-22.3	-22.6	20.2	0.00e+00	0	44	0	2447376384	6	3712
2026-01-22 01:49:06.41	143.40	39.74	-22.5	-22.9	20.0	0.00e+00	0	44	0	2453667840	6	3776
2026-01-22 01:49:07.42	143.75	39.56	-22.6	-23.2	19.9	0.00e+00	0	44	0	2458910720	6	3851
2026-01-22 01:49:08.42	144.08	39.39	-22.7	-23.5	19.8	0.00e+00	0	44	0	2465202176	6	3914
2026-01-22 01:49:09.42	144.42	39.21	-22.6	-23.3	19.8	0.00e+00	0	45	0	2470445056	6	3873
2026-01-22 01:49:10.42	144.75	39.03	-22.6	-23.1	19.9	0.00e+00	0	44	0	2475687936	6	3826
2026-01-22 01:49:11.42	145.08	38.86	-22.6	-23.3	19.8	0.00e+00	0	44	0	2481979392	6	3862
2026-01-22 01:49:12.43	145.41	38.68	-22.8	-23.5	19.7	0.00e+00	0	45	0	2487222272	6	3928
2026-01-22 01:49:13.43	145.73	38.50	-22.9	-23.8	19.6	0.00e+00	0	45	0	2493513728	6	3985
2026-01-22 01:49:14.44	146.05	38.32	-23.0	-24.0	19.5	0.00e+00	0	45	0	2498756608	6	4047
2026-01-22 01:49:15.45	146.37	38.15	-22.8	-23.7	19.6	0.00e+00	0	45	0	2503999488	6	3976
2026-01-22 01:49:16.45	146.68	37.97	-22.7	-23.4	19.7	0.00e+00	0	45	0	2510290944	6	3914
2026-01-22 01:49:17.45	146.98	37.79	-22.7	-23.4	19.7	0.00e+00	0	45	0	2515533824	6	3901
2026-01-22 01:49:18.46	147.29	37.61	-22.7	-23.4	19.7	0.00e+00	0	44	0	2520776704	6	3901
2026-01-22 01:49:19.47	147.60	37.44	-22.5	-23.0	19.9	0.00e+00	0	45	0	2527068160	6	3809
2026-01-22 01:49:20.46	147.89	37.26	-22.5	-23.5	19.9	0.00e+00	0	45	0	2532311040	5	4037
2026-01-22 01:49:21.46	148.19	37.08	-22.8	-24.1	19.6	0.00e+00	0	45	0	2537553920	5	4171
2026-01-22 01:49:22.47	148.48	36.91	-22.8	-24.1	19.6	0.00e+00	0	45	0	2543845376	5	4189
2026-01-22 01:49:23.48	148.77	36.73	-22.8	-24.1	19.6	0.00e+00	0	44	0	2549088256	5	4176
2026-01-22 01:49:24.48	149.06	36.55	-22.9	-24.3	19.5	0.00e+00	0	45	0	2555379712	5	4222
2026-01-22 01:49:25.48	149.34	36.38	-22.9	-24.3	19.5	0.00e+00	0	44	0	2560622592	5	4239
2026-01-22 01:49:26.48	149.62	36.20	-22.9	-24.4	19.5	0.00e+00	0	45	0	2566914048	5	4256
2026-01-22 01:49:27.49	149.90	36.02	-22.9	-24.3	19.5	0.00e+00	0	45	0	2572156928	5	4237
2026-01-22 01:49:28.49	150.17	35.85	-22.9	-24.4	19.5	0.00e+00	0	45	0	2577399808	5	4253
2026-01-22 01:49:29.49	150.44	35.67	-23.2	-24.5	19.2	0.00e+00	0	45	0	2583691264	6	4154
2026-01-22 01:49:30.49	150.71	35.50	-23.1	-24.2	19.3	0.00e+00	0	44	0	2588934144	6	4101
2026-01-22 01:49:31.49	150.97	35.32	-22.6	-23.2	19.8	0.00e+00	0	45	0	2594177024	6	3850
2026-01-22 01:49:32.50	151.24	35.15	-22.5	-23.4	20.0	0.00e+00	0	44	0	2600468480	5	4003
2026-01-22 01:49:33.50	151.50	34.97	-22.4	-23.3	16.1	0.00e+00	0	45	0	2605711360	5	3973
2026-01-22 01:49:34.50	151.76	34.80	-22.5	-23.5	16.8	0.00e+00	0	45	0	2610954240	5	4038
2026-01-22 01:49:35.50	152.01	34.63	-22.6	-23.8	19.7	0.00e+00	0	44	0	2617245696	5	4108
2026-01-22 01:49:36.50	152.26	34.45	-22.7	-24.0	19.6	4.63e-04	0	44	0	2622488576	5	4151
2026-01-22 01:49:37.51	152.51	34.28	-22.8	-24.0	19.6	0.00e+00	0	45	0	2628780032	5	4176
2026-01-22 01:49:38.51	152.76	34.11	-22.8	-24.1	19.6	0.00e+00	0	44	0	2634022912	5	4175
2026-01-22 01:49:39.50	153.00	33.94	-22.8	-24.1	19.6	0.00e+00	0	45	0	2639265792	5	4175
2026-01-22 01:49:40.51	153.24	33.77	-22.8	-24.2	19.5	0.00e+00	0	45	0	2645557248	5	4200
2026-01-22 01:49:41.51	153.48	33.59	-22.8	-24.2	19.5	1.10e-06	0	44	0	2650800128	5	4200
2026-01-22 01:49:42.51	153.72	33.42	-22.8	-24.2	19.5	0.00e+00	0	44	0	2656043008	5	4208
2026-01-22 01:49:43.51	153.95	33.25	-22.9	-24.3	19.5	1.97e-04	0	45	0	2662334464	5	4228
2026-01-22 01:49:44.52	154.19	33.08	-22.9	-24.4	19.4	1.02e-05	0	45	0	2667577344	5	4257
2026-01-22 01:49:45.52	154.42	32.91	-22.8	-24.2	19.5	1.79e-04	0	45	0	2673868800	5	4209
2026-01-22 01:49:46.52	154.64	32.74	-22.9	-24.3	19.4	0.00e+00	0	45	0	2679111680	5	4247
2026-01-22 01:49:47.53	154.87	32.57	-23.0	-24.4	19.4	0.00e+00	0	44	0	2685403136	5	4272
2026-01-22 01:49:48.53	155.09	32.41	-23.0	-24.0	19.4	2.41e-04	0	45	0	2690646016	6	4039
2026-01-22 01:49:49.54	155.31	32.24	-23.0	-23.9	19.4	0.00e+00	0	44	0	2695888896	6	4028
2026-01-22 01:49:50.54	155.53	32.07	-22.9	-23.8	19.5	0.00e+00	0	44	0	2702180352	6	4007
2026-01-22 01:49:51.55	155.75	31.90	-22.8	-23.7	19.6	0.00e+00	0	44	0	2707423232	6	3958
2026-01-22 01:49:52.55	155.96	31.74	-22.9	-23.9	19.4	3.18e-04	0	44	0	2712666112	6	4013
2026-01-22 01:49:53.55	156.17	31.57	-23.0	-24.0	19.3	0.00e+00	0	44	0	2718957568	6	4053
2026-01-22 01:49:54.56	156.39	31.41	-23.1	-24.3	19.2	0.00e+00	0	44	0	2724200448	6	4126
2026-01-22 01:49:55.56	156.59	31.24	-23.2	-24.5	19.1	2.49e-04	0	45	0	2729443328	6	4176
2026-01-22 01:49:56.56	156.80	31.08	-23.3	-24.7	19.0	0.00e+00	0	45	0	2735734784	6	4225
2026-01-22 01:49:57.56	157.00	30.91	-23.5	-24.5	18.8	3.00e-04	0	44	0	2740977664	7	4063
2026-01-22 01:49:58.56	157.20	30.75	-23.3	-24.2	19.0	0.00e+00	0	45	0	2747269120	7	3987
2026-01-22 01:49:59.56	157.40	30.59	-23.4	-24.3	18.9	6.63e-05	0	44	0	2752512000	7	4012
2026-01-22 01:50:00.57	157.60	30.43	-23.5	-24.5	18.8	3.19e-04	0	45	0	2758803456	7	4067
2026-01-22 01:50:01.57	157.80	30.27	-23.3	-24.2	18.9	3.15e-04	0	45	0	2764046336	7	4002
2026-01-22 01:50:02.57	157.99	30.11	-23.4	-24.4	18.9	2.20e-06	0	45	0	2769289216	7	4036
2026-01-22 01:50:03.58	158.18	29.94	-23.4	-24.4	18.9	3.49e-04	0	45	0	2775580672	7	4045
2026-01-22 01:50:04.58	158.37	29.78	-23.2	-24.0	19.1	3.25e-04	0	45	0	2780823552	7	3944
2026-01-22 01:50:05.58	158.56	29.63	-23.2	-24.0	19.1	1.28e-04	0	45	0	2786066432	7	3926
2026-01-22 01:50:06.59	158.75	29.47	-23.1	-24.3	19.1	4.93e-04	0	44	0	2792357888	6	4127
2026-01-22 01:50:07.59	158.93	29.31	-23.0	-24.1	19.3	3.34e-04	0	44	0	2797600768	6	4074
2026-01-22 01:50:08.60	159.12	29.15	-23.0	-24.1	19.3	2.08e-04	0	45	0	2802843648	6	4073
2026-01-22 01:50:09.60	159.30	28.99	-23.1	-24.2	19.2	6.57e-04	0	44	0	2809135104	6	4100
2026-01-22 01:50:10.60	159.48	28.84	-23.1	-24.2	19.2	5.31e-04	0	44	0	2814377984	6	4094
2026-01-22 01:50:11.60	159.65	28.68	-23.2	-24.5	19.0	1.84e-04	0	45	0	2820669440	6	4181
2026-01-22 01:50:12.60	159.83	28.53	-23.3	-24.6	19.0	7.83e-04	0	45	0	2825912320	6	4208
2026-01-22 01:50:13.61	160.01	28.37	-23.1	-24.3	19.2	6.56e-04	0	44	0	2831155200	6	4129
2026-01-22 01:50:14.61	160.18	28.22	-23.1	-24.3	19.1	1.56e-04	0	45	0	2837446656	6	4129
2026-01-22 01:50:15.61	160.35	28.06	-23.2	-24.4	19.1	7.70e-04	0	44	0	2842689536	6	4143
2026-01-22 01:50:16.61	160.52	27.91	-23.2	-24.4	19.1	5.69e-04	0	44	0	2847932416	6	4147
2026-01-22 01:50:17.62	160.69	27.76	-23.1	-24.3	19.1	0.00e+00	0	44	0	2854223872	6	4131
2026-01-22 01:50:18.63	160.86	27.61	-23.1	-24.3	19.1	7.51e-04	0	45	0	2859466752	6	4125
2026-01-22 01:50:19.64	161.02	27.45	-23.1	-24.2	19.2	0.00e+00	0	44	0	2865758208	6	4083
2026-01-22 01:50:20.64	161.18	27.30	-23.1	-24.3	19.2	2.68e-04	0	45	0	2871001088	6	4116
2026-01-22 01:50:21.65	161.35	27.15	-23.0	-24.1	19.3	4.50e-06	0	45	0	2876243968	6	4071
2026-01-22 01:50:22.65	161.51	27.00	-23.0	-24.0	19.3	5.27e-04	0	45	0	2882535424	6	4056
2026-01-22 01:50:23.65	161.67	26.85	-23.2	-24.5	19.1	3.00e-04	0	45	0	2887778304	6	4168
2026-01-22 01:50:24.65	161.82	26.71	-23.1	-24.3	19.1	2.20e-06	0	44	0	2894069760	6	4125
2026-01-22 01:50:25.66	161.98	26.56	-23.0	-24.1	19.2	6.84e-04	0	44	0	2899312640	6	4085
2026-01-22 01:50:26.66	162.14	26.41	-23.1	-24.2	19.2	0.00e+00	0	45	0	2904555520	6	4102
2026-01-22 01:50:27.66	162.29	26.26	-23.1	-24.3	19.1	1.15e-03	0	45	0	2910846976	6	4126
2026-01-22 01:50:28.66	162.44	26.12	-23.2	-24.4	19.1	0.00e+00	0	44	0	2916089856	6	4161
2026-01-22 01:50:29.67	162.59	25.97	-23.1	-24.3	19.1	3.43e-04	0	45	0	2921332736	6	4126
2026-01-22 01:50:30.67	162.74	25.83	-23.1	-24.2	19.2	0.00e+00	0	44	0	2927624192	6	4089
2026-01-22 01:50:31.67	162.89	25.69	-23.1	-24.2	19.2	0.00e+00	0	44	0	2932867072	6	4084
2026-01-22 01:50:32.67	163.04	25.54	-23.1	-24.2	19.2	2.61e-04	0	45	0	2939158528	6	4097
2026-01-22 01:50:33.68	163.18	25.40	-23.2	-24.5	19.0	0.00e+00	0	44	0	2944401408	6	4167
2026-01-22 01:50:34.68	163.33	25.26	-23.4	-24.9	18.8	2.96e-04	0	44	0	2949644288	6	4274
2026-01-22 01:50:35.68	163.47	25.11	-23.5	-24.6	18.7	0.00e+00	0	44	0	2955935744	7	4084
2026-01-22 01:50:36.68	163.61	24.97	-23.6	-24.9	18.6	2.83e-04	0	45	0	2961178624	7	4141
2026-01-22 01:50:37.69	163.75	24.83	-23.7	-24.9	18.5	0.00e+00	0	44	0	2967470080	7	4160
2026-01-22 01:50:38.69	163.89	24.69	-23.7	-25.0	18.5	0.00e+00	0	45	0	2972712960	7	4192
2026-01-22 01:50:39.69	164.03	24.55	-23.8	-25.2	18.4	0.00e+00	0	45	0	2977955840	7	4229
2026-01-22 01:50:40.69	164.17	24.41	-23.8	-25.2	18.4	0.00e+00	0	45	0	2984247296	7	4239
2026-01-22 01:50:41.69	164.30	24.28	-24.0	-25.2	18.2	5.32e-04	0	44	0	2989490176	8	4133
2026-01-22 01:50:42.70	164.44	24.14	-24.1	-25.4	18.1	0.00e+00	0	44	0	2994733056	8	4175
2026-01-22 01:50:43.70	164.57	24.00	-23.9	-24.9	18.3	0.00e+00	0	44	0	3001024512	8	4059
2026-01-22 01:50:44.70	164.70	23.86	-23.6	-24.9	18.5	0.00e+00	0	44	0	3006267392	7	4166
2026-01-22 01:50:45.69	164.83	23.73	-23.6	-24.8	18.6	0.00e+00	0	44	0	3011510272	7	4130
2026-01-22 01:50:46.69	164.96	23.60	-23.7	-25.0	18.5	0.00e+00	0	44	0	3017801728	7	4190
2026-01-22 01:50:47.70	165.09	23.46	-23.6	-24.8	18.6	0.00e+00	0	44	0	3023044608	7	4123
2026-01-22 01:50:48.70	165.22	23.33	-23.6	-24.8	18.6	4.54e-04	0	45	0	3029336064	7	4146
2026-01-22 01:50:49.70	165.35	23.19	-23.8	-25.2	18.4	0.00e+00	0	44	0	3034578944	7	4225
2026-01-22 01:50:50.71	165.47	23.06	-23.8	-25.2	18.4	0.00e+00	0	44	0	3039821824	7	4230
2026-01-22 01:50:51.71	165.60	22.93	-23.6	-24.9	18.5	0.00e+00	0	44	0	3046113280	7	4149
2026-01-22 01:50:52.72	165.72	22.79	-23.7	-24.9	18.5	0.00e+00	0	44	0	3051356160	7	4166
2026-01-22 01:50:53.72	165.84	22.66	-23.8	-25.2	18.3	0.00e+00	0	44	0	3057647616	7	4246
2026-01-22 01:50:54.73	165.97	22.53	-24.1	-25.5	18.0	0.00e+00	0	44	0	3062890496	8	4193
2026-01-22 01:50:55.74	166.09	22.40	-24.1	-25.5	18.0	0.00e+00	0	45	0	3068133376	8	4201
2026-01-22 01:50:56.74	166.21	22.27	-24.3	-25.8	17.8	0.00e+00	0	44	0	3074424832	8	4298
2026-01-22 01:50:57.74	166.33	22.14	-24.3	-25.8	17.8	0.00e+00	0	45	0	3079667712	8	4296
2026-01-22 01:50:58.75	166.45	22.01	-24.2	-25.6	17.9	0.00e+00	0	45	0	3084910592	8	4241
2026-01-22 01:50:59.75	166.56	21.88	-24.2	-25.6	17.9	0.00e+00	0	45	0	3091202048	8	4226
2026-01-22 01:51:00.75	166.68	21.75	-24.2	-25.6	17.9	0.00e+00	0	45	0	3096444928	8	4222
2026-01-22 01:51:01.75	166.79	21.63	-24.3	-25.8	17.8	0.00e+00	0	45	0	3102736384	8	4285
2026-01-22 01:51:02.76	166.91	21.50	-24.2	-25.6	17.9	0.00e+00	0	44	0	3107979264	8	4231
2026-01-22 01:51:03.77	167.02	21.37	-24.1	-25.4	18.0	0.00e+00	0	45	0	3113222144	8	4175
2026-01-22 01:51:04.77	167.13	21.25	-24.0	-25.3	18.1	0.00e+00	0	44	0	3119513600	8	4140
2026-01-22 01:51:05.77	167.25	21.12	-24.2	-25.5	18.0	0.00e+00	0	44	0	3124756480	8	4193
2026-01-22 01:51:06.77	167.36	21.00	-24.0	-25.2	18.1	0.00e+00	0	44	0	3131047936	8	4123
2026-01-22 01:51:07.77	167.47	20.87	-24.0	-25.1	18.2	0.00e+00	0	44	0	3136290816	8	4084
2026-01-22 01:51:08.77	167.57	20.75	-24.0	-25.2	18.1	0.00e+00	0	44	0	3141533696	8	4125
2026-01-22 01:51:09.78	167.68	20.62	-24.0	-25.1	18.2	0.00e+00	0	44	0	3147825152	8	4092
2026-01-22 01:51:10.78	167.79	20.50	-24.2	-25.5	18.0	0.00e+00	0	44	0	3153068032	8	4195
2026-01-22 01:51:11.78	167.90	20.38	-24.1	-25.4	18.0	0.00e+00	0	44	0	3158310912	8	4159
2026-01-22 01:51:12.78	168.00	20.26	-24.1	-25.3	18.1	0.00e+00	0	44	0	3164602368	8	4137
2026-01-22 01:51:13.79	168.11	20.14	-24.1	-25.4	18.0	0.00e+00	0	44	0	3169845248	8	4172
2026-01-22 01:51:14.79	168.21	20.02	-24.1	-25.4	18.0	0.00e+00	0	44	0	3176136704	8	4174
2026-01-22 01:51:15.80	168.32	19.90	-24.2	-25.6	17.9	0.00e+00	0	44	0	3181379584	8	4224
2026-01-22 01:51:16.80	168.42	19.78	-24.4	-25.9	17.8	0.00e+00	0	45	0	3186622464	8	4306
2026-01-22 01:51:17.80	168.52	19.66	-24.4	-25.9	17.7	0.00e+00	0	44	0	3192913920	8	4309
2026-01-22 01:51:18.80	168.62	19.54	-24.4	-26.0	17.7	0.00e+00	0	44	0	3198156800	8	4317
2026-01-22 01:51:19.80	168.72	19.42	-24.3	-25.8	17.8	0.00e+00	0	45	0	3203399680	8	4286
2026-01-22 01:51:20.81	168.82	19.30	-24.4	-25.9	17.7	0.00e+00	0	45	0	3209691136	8	4312
2026-01-22 01:51:21.81	168.92	19.19	-24.4	-26.0	17.7	0.00e+00	0	45	0	3214934016	8	4321
2026-01-22 01:51:22.82	169.02	19.07	-24.5	-25.8	17.5	0.00e+00	0	44	0	3221225472	9	4156
2026-01-22 01:51:23.83	169.12	18.95	-24.8	-26.4	17.2	0.00e+00	0	44	0	3226468352	9	4304
2026-01-22 01:51:24.83	169.21	18.84	-24.7	-26.1	17.4	0.00e+00	0	44	0	3231711232	9	4223
2026-01-22 01:51:25.84	169.31	18.72	-24.5	-25.7	17.6	0.00e+00	0	45	0	3238002688	9	4140
2026-01-22 01:51:26.84	169.40	18.60	-24.4	-25.5	17.6	0.00e+00	0	45	0	3243245568	9	4092
2026-01-22 01:51:27.84	169.50	18.49	-24.4	-26.1	15.9	0.00e+00	0	44	0	3249537024	8	4349
2026-01-22 01:51:28.85	169.59	18.38	-24.4	-26.1	17.6	0.00e+00	0	44	0	3254779904	8	4344
2026-01-22 01:51:29.85	169.69	18.26	-24.6	-25.9	17.2	0.00e+00	0	44	0	3260022784	9	4184
2026-01-22 01:51:30.86	169.78	18.15	-24.8	-26.3	17.1	0.00e+00	0	44	0	3266314240	9	4289
2026-01-22 01:51:31.86	169.87	18.04	-24.7	-26.2	17.3	0.00e+00	0	44	0	3271557120	9	4265
2026-01-22 01:51:32.86	169.96	17.92	-24.9	-26.5	17.1	0.00e+00	0	44	0	3276800000	9	4350
2026-01-22 01:51:33.86	170.05	17.81	-24.8	-26.3	17.2	0.00e+00	0	44	0	3283091456	9	4298
2026-01-22 01:51:34.86	170.14	17.70	-24.8	-26.3	17.2	0.00e+00	0	44	0	3288334336	9	4283
2026-01-22 01:51:35.86	170.23	17.59	-24.9	-26.5	17.1	3.40e-06	0	44	0	3293577216	9	4336
2026-01-22 01:51:36.86	170.32	17.48	-24.9	-26.6	17.0	1.98e-04	0	44	0	3299868672	9	4384
2026-01-22 01:51:37.87	170.41	17.37	-24.9	-26.6	17.0	0.00e+00	0	44	0	3305111552	9	4370
2026-01-22 01:51:38.87	170.50	17.26	-25.1	-26.4	16.9	6.91e-04	0	45	0	3311403008	10	4204
2026-01-22 01:51:39.87	170.58	17.15	-25.3	-26.8	16.7	0.00e+00	0	45	0	3316645888	10	4317
2026-01-22 01:51:40.87	170.67	17.04	-25.1	-26.4	16.9	0.00e+00	0	44	0	3322937344	10	4214
2026-01-22 01:51:41.87	170.75	16.93	-25.0	-26.3	16.9	0.00e+00	0	44	0	3328180224	10	4170
2026-01-22 01:51:42.87	170.84	16.83	-25.0	-26.3	16.9	0.00e+00	0	44	0	3333423104	10	4176
2026-01-22 01:51:43.88	170.92	16.72	-25.0	-26.3	16.9	0.00e+00	0	44	0	3339714560	10	4184
2026-01-22 01:51:44.88	171.01	16.61	-25.2	-26.6	16.8	1.10e-06	0	44	0	3344957440	10	4266
2026-01-22 01:51:45.89	171.09	16.50	-25.1	-26.4	16.9	3.76e-04	0	44	0	3350200320	10	4206
2026-01-22 01:51:46.89	171.17	16.40	-25.0	-26.2	16.9	0.00e+00	0	45	0	3356491776	10	4165
2026-01-22 01:51:47.89	171.26	16.29	-25.0	-26.4	16.9	3.03e-04	0	44	0	3361734656	10	4207
2026-01-22 01:51:48.89	171.34	16.19	-25.0	-26.4	16.9	2.87e-04	0	45	0	3366977536	10	4196
2026-01-22 01:51:49.90	171.42	16.08	-25.1	-26.6	16.7	0.00e+00	0	44	0	3373268992	10	4265
2026-01-22 01:51:50.90	171.50	15.98	-25.2	-26.8	16.6	2.96e-04	0	44	0	3378511872	10	4317
2026-01-22 01:51:51.91	171.58	15.87	-25.3	-26.9	16.6	0.00e+00	0	44	0	3384803328	10	4355
2026-01-22 01:51:52.91	171.66	15.77	-25.3	-27.1	16.5	0.00e+00	0	44	0	3390046208	10	4393
2026-01-22 01:51:53.91	171.74	15.67	-25.4	-27.2	16.4	0.00e+00	0	45	0	3395289088	10	4424
2026-01-22 01:51:54.93	171.82	15.56	-25.4	-27.3	16.3	2.73e-04	0	45	0	3401580544	10	4455
2026-01-22 01:51:55.92	171.90	15.46	-25.5	-27.0	16.3	0.00e+00	0	45	0	3406823424	11	4256
2026-01-22 01:51:56.93	171.97	15.36	-25.7	-27.5	16.0	2.88e-04	0	45	0	3413114880	11	4389
2026-01-22 01:51:57.93	172.05	15.26	-25.6	-27.2	16.1	2.97e-04	0	44	0	3418357760	11	4317
2026-01-22 01:51:58.93	172.13	15.15	-25.6	-27.2	16.1	0.00e+00	0	45	0	3423600640	11	4320
2026-01-22 01:51:59.94	172.20	15.05	-25.7	-27.4	16.0	3.02e-04	0	45	0	3429892096	11	4369
2026-01-22 01:52:00.95	172.28	14.95	-25.9	-27.8	15.8	3.33e-04	0	45	0	3435134976	11	4483
2026-01-22 01:52:01.95	172.35	14.85	-25.8	-27.6	15.1	0.00e+00	0	45	0	3440377856	11	4435
2026-01-22 01:52:02.96	172.43	14.75	-25.8	-27.5	14.7	3.31e-04	0	44	0	3446669312	11	4405
2026-01-22 01:52:03.96	172.50	14.65	-25.8	-27.6	15.9	3.27e-04	0	44	0	3451912192	11	4429
2026-01-22 01:52:04.96	172.58	14.55	-25.7	-27.4	15.6	0.00e+00	0	44	0	3458203648	11	4368
2026-01-22 01:52:05.96	172.65	14.45	-25.9	-27.7	15.7	0.00e+00	0	45	0	3463446528	11	4468
2026-01-22 01:52:06.97	172.72	14.35	-25.8	-27.6	15.9	3.29e-04	0	44	0	3469737984	11	4415
2026-01-22 01:52:07.97	172.79	14.26	-25.7	-27.4	16.0	5.32e-04	0	44	0	3474980864	11	4370
2026-01-22 01:52:08.97	172.87	14.16	-25.8	-27.6	15.9	3.20e-04	0	44	0	3480223744	11	4418
2026-01-22 01:52:09.97	172.94	14.06	-25.7	-27.4	16.0	0.00e+00	0	45	0	3486515200	11	4366
2026-01-22 01:52:10.97	173.01	13.96	-25.8	-27.5	15.9	0.00e+00	0	45	0	3491758080	11	4400
2026-01-22 01:52:11.98	173.08	13.87	-25.7	-27.4	16.0	3.03e-04	0	45	0	3497000960	11	4370
2026-01-22 01:52:12.97	173.15	13.77	-25.8	-27.5	15.9	0.00e+00	0	45	0	3503292416	11	4405
2026-01-22 01:52:13.97	173.22	13.68	-25.8	-27.5	15.9	0.00e+00	0	45	0	3508535296	11	4392
2026-01-22 01:52:14.98	173.29	13.58	-25.8	-27.6	15.9	2.69e-04	0	45	0	3513778176	11	4417
2026-01-22 01:52:15.99	173.36	13.48	-25.7	-27.5	15.9	2.93e-04	0	44	0	3520069632	11	4381
2026-01-22 01:52:16.99	173.42	13.39	-25.8	-27.5	15.9	2.54e-04	0	44	0	3525312512	11	4402
2026-01-22 01:52:18.00	173.49	13.29	-25.8	-27.5	15.9	0.00e+00	0	45	0	3531603968	11	4390
2026-01-22 01:52:19.01	173.56	13.20	-25.8	-27.6	15.8	3.02e-04	0	44	0	3536846848	11	4412
2026-01-22 01:52:20.01	173.63	13.10	-25.8	-27.6	15.9	2.89e-04	0	45	0	3542089728	11	4404
2026-01-22 01:52:21.02	173.70	13.01	-25.9	-27.7	15.8	3.22e-04	0	45	0	3548381184	11	4435
2026-01-22 01:52:22.02	173.76	12.92	-25.9	-27.7	15.8	0.00e+00	0	45	0	3553624064	11	4434
2026-01-22 01:52:23.03	173.83	12.82	-25.9	-27.7	15.8	0.00e+00	0	44	0	3559915520	11	4458
2026-01-22 01:52:24.03	173.89	12.73	-26.0	-27.4	15.6	2.82e-04	0	45	0	3565158400	12	4261
2026-01-22 01:52:25.03	173.96	12.64	-26.1	-27.8	15.4	0.00e+00	0	44	0	3570401280	12	4354
2026-01-22 01:52:26.03	174.02	12.55	-26.2	-28.0	15.2	3.43e-04	0	44	0	3576692736	12	4431
2026-01-22 01:52:27.03	174.09	12.45	-26.2	-27.9	15.3	3.16e-04	0	45	0	3581935616	12	4379
2026-01-22 01:52:28.04	174.15	12.36	-26.0	-27.5	15.5	0.00e+00	0	44	0	3587178496	12	4288
2026-01-22 01:52:29.04	174.21	12.27	-26.0	-27.5	15.5	3.49e-04	0	45	0	3593469952	12	4281
2026-01-22 01:52:30.05	174.28	12.18	-26.2	-27.9	15.3	0.00e+00	0	44	0	3598712832	12	4375
2026-01-22 01:52:31.05	174.34	12.09	-26.3	-28.2	15.1	0.00e+00	0	44	0	3605004288	12	4472
2026-01-22 01:52:32.05	174.40	12.00	-26.3	-28.2	15.1	1.14e-05	0	44	0	3610247168	12	4469
2026-01-22 01:52:33.06	174.47	11.91	-26.3	-28.1	15.2	3.25e-04	0	44	0	3615490048	12	4439
2026-01-22 01:52:34.07	174.53	11.82	-26.6	-28.2	14.8	1.10e-06	0	45	0	3621781504	13	4369
2026-01-22 01:52:35.07	174.59	11.73	-26.3	-27.7	15.1	3.18e-04	0	45	0	3627024384	13	4232
2026-01-22 01:52:36.07	174.65	11.64	-26.3	-28.1	15.1	3.18e-04	0	44	0	3633315840	12	4451
2026-01-22 01:52:37.07	174.71	11.55	-26.3	-28.2	15.1	0.00e+00	0	44	0	3638558720	12	4467
2026-01-22 01:52:38.08	174.77	11.46	-26.2	-28.0	15.2	3.51e-04	0	44	0	3643801600	12	4409
2026-01-22 01:52:39.08	174.83	11.38	-26.1	-27.7	15.3	3.08e-04	0	45	0	3650093056	12	4342
2026-01-22 01:52:40.09	174.89	11.29	-26.1	-27.7	15.3	0.00e+00	0	44	0	3655335936	12	4327
2026-01-22 01:52:41.09	174.95	11.20	-26.2	-27.9	15.2	3.41e-04	0	45	0	3660578816	12	4401
2026-01-22 01:52:42.08	175.01	11.11	-26.1	-27.7	15.3	2.99e-04	0	44	0	3666870272	12	4344
2026-01-22 01:52:43.09	175.07	11.03	-26.2	-27.9	15.2	0.00e+00	0	45	0	3672113152	12	4400
2026-01-22 01:52:44.09	175.13	10.94	-26.3	-28.2	15.0	3.17e-04	0	45	0	3678404608	12	4469
2026-01-22 01:52:45.09	175.18	10.85	-26.1	-27.8	15.2	2.92e-04	0	45	0	3683647488	12	4369
2026-01-22 01:52:46.10	175.24	10.77	-26.2	-27.9	15.2	0.00e+00	0	45	0	3688890368	12	4393
2026-01-22 01:52:47.10	175.30	10.68	-26.2	-28.0	15.1	3.42e-04	0	45	0	3695181824	12	4434
2026-01-22 01:52:48.10	175.36	10.60	-26.4	-28.5	14.9	3.27e-04	0	45	0	3700424704	12	4562
2026-01-22 01:52:49.10	175.41	10.51	-26.4	-28.4	14.9	0.00e+00	0	44	0	3705667584	12	4526
2026-01-22 01:52:50.11	175.47	10.42	-26.5	-28.5	14.8	2.94e-04	0	45	0	3711959040	12	4577
2026-01-22 01:52:51.11	175.53	10.34	-26.4	-28.5	14.9	3.02e-04	0	45	0	3717201920	12	4557
2026-01-22 01:52:52.11	175.58	10.26	-26.5	-28.2	14.8	0.00e+00	0	44	0	3722444800	13	4360
2026-01-22 01:52:53.12	175.64	10.17	-26.6	-28.4	14.6	0.00e+00	0	45	0	3728736256	13	4413
2026-01-22 01:52:54.12	175.69	10.09	-26.5	-28.2	14.7	3.19e-04	0	45	0	3733979136	13	4360
2026-01-22 01:52:55.12	175.75	10.00	-26.6	-28.3	14.6	0.00e+00	0	44	0	3740270592	13	4398
2026-01-22 01:52:56.12	175.80	9.92	-26.7	-28.5	14.5	3.10e-04	0	44	0	3745513472	13	4461
2026-01-22 01:52:57.13	175.86	9.84	-26.7	-28.6	14.5	3.42e-04	0	45	0	3751804928	13	4473
2026-01-22 01:52:58.13	175.91	9.75	-26.8	-28.9	14.3	0.00e+00	0	45	0	3757047808	13	4560
2026-01-22 01:52:59.13	175.96	9.67	-26.7	-28.6	14.4	3.32e-04	0	45	0	3762290688	13	4487
2026-01-22 01:53:00.14	176.02	9.59	-26.6	-28.4	14.6	0.00e+00	0	45	0	3768582144	13	4429
2026-01-22 01:53:01.13	176.07	9.51	-26.5	-28.1	14.7	0.00e+00	0	44	0	3773825024	13	4336
2026-01-22 01:53:02.14	176.12	9.42	-26.5	-28.2	14.7	0.00e+00	0	44	0	3779067904	13	4359
2026-01-22 01:53:03.14	176.18	9.34	-26.7	-28.5	14.5	3.28e-04	0	44	0	3785359360	13	4459
2026-01-22 01:53:04.15	176.23	9.26	-26.6	-28.3	14.6	0.00e+00	0	44	0	3790602240	13	4391
2026-01-22 01:53:05.15	176.28	9.18	-26.5	-28.2	14.6	0.00e+00	0	44	0	3795845120	13	4377
2026-01-22 01:53:06.15	176.33	9.10	-26.5	-28.2	14.6	3.35e-04	0	44	0	3802136576	13	4377
2026-01-22 01:53:07.16	176.38	9.02	-26.7	-28.5	14.5	0.00e+00	0	45	0	3807379456	13	4451
2026-01-22 01:53:08.17	176.44	8.94	-26.1	-27.7	14.5	3.60e-04	0	45	0	3813670912	13	4317
2026-01-22 01:53:09.17	176.49	8.86	-26.7	-29.1	13.3	2.20e-06	0	45	0	3818913792	12	4737
2026-01-22 01:53:10.16	176.54	8.78	-26.6	-28.4	14.5	0.00e+00	0	45	0	3824156672	13	4426
2026-01-22 01:53:11.17	176.59	8.70	-26.6	-28.4	14.2	0.00e+00	0	45	0	3830448128	13	4417
2026-01-22 01:53:12.17	176.64	8.62	-26.6	-28.4	14.5	0.00e+00	0	44	0	3835691008	13	4427
2026-01-22 01:53:13.17	176.69	8.54	-26.6	-28.4	14.5	0.00e+00	0	44	0	3841982464	13	4438
2026-01-22 01:53:14.18	176.74	8.46	-26.7	-28.6	14.4	1.10e-06	0	45	0	3847225344	13	4485
2026-01-22 01:53:15.18	176.79	8.38	-26.7	-28.5	14.4	3.94e-04	0	45	0	3852468224	13	4474
2026-01-22 01:53:16.19	176.84	8.30	-26.7	-28.7	14.3	0.00e+00	0	44	0	3858759680	13	4529
2026-01-22 01:53:17.19	176.89	8.22	-26.7	-28.7	14.2	4.19e-04	0	45	0	3864002560	13	4530
2026-01-22 01:53:18.19	176.93	8.15	-26.9	-29.0	14.1	9.14e-04	0	44	0	3869245440	13	4615
