passes_logs/2026/01/22/R2M6_AANII_01/R2M6_AANII_01__20260122_221548_NOAA_21_JPSS-2_rec.log

#Pass ID: 20260122_221548_NOAA 21 (JPSS-2)
#Satellite: NOAA 21 (JPSS-2)
#Configuration: NOAA 21
#almurnet v.1.7.20240730
#Start time: 2026-01-22 22:15:47

#Version: 2.2.20231116
#Station: R2M6_AANII_01
#Location: 30.233357 lon 59.946436 lat
#TLE: 1 54234U 22150A   26022.41365820  .00000211  00000+0  12084-3 0  9990
#TLE: 2 54234  98.7507 323.2240 0000658 234.5287 125.5828 14.19537645165864

#Time	Az	El	Level	Level2	SNR	BER	BlckErr	Temp	State	Recorded	gain1	gain2
2026-01-22 22:15:47.42	35.98	6.96	-31.2	-36.4	4.5	1.41e+00	0	42	0	0	23	6539
2026-01-22 22:15:48.42	36.10	7.02	-31.0	-35.6	4.6	1.39e+00	0	41	104	0	23	6101
2026-01-22 22:15:49.42	36.22	7.07	-31.1	-35.1	8.1	6.62e-02	0	42	0	0	23	5714
2026-01-22 22:15:50.42	36.34	7.12	-31.1	-35.0	8.2	5.89e-02	0	42	0	3145728	23	5685
2026-01-22 22:15:51.43	36.46	7.17	-31.1	-35.0	8.2	5.37e-02	0	42	0	6291456	23	5672
2026-01-22 22:15:52.43	36.58	7.22	-31.1	-35.0	8.1	6.33e-02	0	41	0	9437184	23	5687
2026-01-22 22:15:53.43	36.70	7.27	-31.1	-34.9	8.3	5.23e-02	0	42	0	12582912	23	5620
2026-01-22 22:15:54.43	36.82	7.33	-31.1	-35.1	8.1	5.44e-02	0	42	0	15728640	23	5714
2026-01-22 22:15:55.43	36.94	7.38	-31.0	-34.8	8.4	6.12e-02	0	41	0	18874368	23	5549
2026-01-22 22:15:56.44	37.07	7.43	-30.6	-34.0	9.3	2.28e-02	0	42	0	22020096	22	5299
2026-01-22 22:15:57.44	37.19	7.48	-30.3	-33.1	10.0	8.97e-03	0	42	0	24117248	22	4928
2026-01-22 22:15:58.45	37.32	7.53	-29.9	-32.4	10.8	2.69e-03	0	42	0	27262976	21	4784
2026-01-22 22:15:59.44	37.44	7.58	-29.5	-31.8	11.5	1.11e-03	0	42	0	30408704	20	4693
2026-01-22 22:16:00.45	37.56	7.64	-29.3	-31.2	12.0	5.05e-04	0	42	0	33554432	20	4485
2026-01-22 22:16:01.45	37.69	7.69	-29.3	-31.7	12.0	2.49e-04	0	42	0	36700160	19	4756
2026-01-22 22:16:02.45	37.81	7.74	-29.4	-32.0	11.9	4.16e-04	0	42	0	39845888	19	4830
2026-01-22 22:16:03.46	37.94	7.79	-29.3	-31.7	12.1	3.11e-04	0	42	0	42991616	19	4728
2026-01-22 22:16:04.46	38.07	7.84	-29.3	-31.6	12.1	3.52e-04	0	42	0	46137344	19	4699
2026-01-22 22:16:05.46	38.19	7.89	-29.2	-31.4	12.2	2.04e-04	0	42	0	49283072	19	4643
2026-01-22 22:16:06.47	38.32	7.94	-29.2	-31.4	12.3	2.08e-04	0	42	0	52428800	19	4645
2026-01-22 22:16:07.47	38.45	8.00	-29.3	-31.7	12.1	2.56e-04	0	42	0	55574528	19	4732
2026-01-22 22:16:08.47	38.58	8.05	-29.3	-31.7	12.1	2.91e-04	0	42	0	58720256	19	4729
2026-01-22 22:16:09.47	38.71	8.10	-29.4	-31.8	12.0	2.70e-04	0	42	0	61865984	19	4780
2026-01-22 22:16:10.47	38.83	8.15	-29.4	-32.0	11.9	5.72e-04	0	42	0	65011712	19	4847
2026-01-22 22:16:11.48	38.96	8.20	-29.2	-31.4	12.3	2.81e-04	0	42	0	68157440	19	4649
2026-01-22 22:16:12.47	39.09	8.25	-29.0	-30.9	12.6	1.10e-04	0	42	0	71303168	19	4488
2026-01-22 22:16:13.48	39.22	8.30	-28.9	-30.7	12.8	6.10e-05	0	42	0	74448896	19	4397
2026-01-22 22:16:14.49	39.36	8.36	-28.9	-30.5	12.9	6.40e-05	0	42	0	77594624	19	4355
2026-01-22 22:16:15.49	39.49	8.41	-28.9	-30.7	12.8	6.79e-05	0	42	0	80740352	19	4400
2026-01-22 22:16:16.49	39.62	8.46	-29.0	-30.9	12.7	8.77e-05	0	42	0	83886080	19	4466
2026-01-22 22:16:17.49	39.75	8.51	-28.9	-30.7	12.8	6.10e-05	0	42	0	87031808	19	4409
2026-01-22 22:16:18.49	39.88	8.56	-28.9	-30.5	12.9	5.34e-05	0	42	0	90177536	19	4361
2026-01-22 22:16:19.50	40.02	8.61	-28.9	-30.6	12.9	4.95e-05	0	43	0	93323264	19	4375
2026-01-22 22:16:20.50	40.15	8.66	-28.9	-30.7	12.8	5.95e-05	0	42	0	96468992	19	4411
2026-01-22 22:16:21.50	40.28	8.71	-29.0	-30.9	12.7	7.32e-05	0	42	0	99614720	19	4453
2026-01-22 22:16:22.50	40.42	8.77	-28.9	-30.6	12.8	5.11e-05	0	42	0	102760448	19	4368
2026-01-22 22:16:23.51	40.55	8.82	-29.0	-30.8	12.7	7.01e-05	0	42	0	105906176	19	4431
2026-01-22 22:16:24.51	40.69	8.87	-28.9	-30.6	12.8	8.23e-05	0	42	0	109051904	19	4381
2026-01-22 22:16:25.51	40.82	8.92	-28.7	-30.6	13.2	2.51e-05	0	42	0	112197632	18	4473
2026-01-22 22:16:26.51	40.96	8.97	-28.7	-30.6	13.2	2.05e-05	0	43	0	115343360	18	4466
2026-01-22 22:16:27.52	41.10	9.02	-28.7	-30.7	13.1	2.44e-05	0	43	0	118489088	18	4502
2026-01-22 22:16:28.52	41.23	9.07	-28.7	-30.7	13.1	3.50e-05	0	42	0	121634816	18	4489
2026-01-22 22:16:29.52	41.37	9.12	-28.6	-30.3	13.4	1.90e-05	0	42	0	124780544	18	4394
2026-01-22 22:16:30.53	41.51	9.17	-28.5	-30.2	13.5	1.67e-05	0	43	0	127926272	18	4351
2026-01-22 22:16:31.53	41.65	9.23	-28.6	-30.3	13.4	1.60e-05	0	42	0	131072000	18	4379
2026-01-22 22:16:32.53	41.79	9.28	-28.6	-30.3	13.3	1.90e-05	0	43	0	134217728	18	4398
2026-01-22 22:16:33.54	41.93	9.33	-28.6	-30.3	13.4	1.37e-05	0	43	0	137363456	18	4381
2026-01-22 22:16:34.53	42.07	9.38	-28.6	-30.4	13.3	1.52e-05	0	42	0	140509184	18	4410
2026-01-22 22:16:35.54	42.21	9.43	-28.7	-30.5	13.3	1.83e-05	0	43	0	143654912	18	4433
2026-01-22 22:16:36.54	42.35	9.48	-28.8	-30.7	13.1	2.13e-05	0	43	0	146800640	18	4514
2026-01-22 22:16:37.55	42.49	9.53	-28.7	-30.7	13.2	2.51e-05	0	43	0	149946368	18	4497
2026-01-22 22:16:38.55	42.63	9.58	-28.6	-30.2	13.4	1.29e-05	0	43	0	153092096	18	4363
2026-01-22 22:16:39.55	42.77	9.63	-28.5	-30.2	13.5	9.10e-06	0	43	0	156237824	18	4335
2026-01-22 22:16:40.55	42.92	9.68	-28.5	-30.1	13.5	9.90e-06	0	43	0	159383552	18	4315
2026-01-22 22:16:41.56	43.06	9.73	-28.5	-30.1	13.6	6.80e-06	0	43	0	162529280	18	4306
2026-01-22 22:16:42.56	43.20	9.78	-28.6	-30.2	13.5	9.10e-06	0	43	0	165675008	18	4350
2026-01-22 22:16:43.56	43.35	9.83	-28.5	-30.1	13.5	1.06e-05	0	43	0	168820736	18	4332
2026-01-22 22:16:44.56	43.49	9.88	-28.4	-29.9	13.7	5.30e-06	0	43	0	171966464	18	4259
2026-01-22 22:16:45.57	43.64	9.93	-28.5	-30.1	13.5	6.10e-06	0	43	0	175112192	18	4322
2026-01-22 22:16:46.57	43.78	9.98	-28.6	-30.3	13.4	1.29e-05	0	43	0	178257920	18	4376
2026-01-22 22:16:47.57	43.93	10.03	-28.5	-30.2	13.5	1.52e-05	0	43	0	181403648	18	4345
2026-01-22 22:16:48.57	44.07	10.08	-28.6	-30.2	13.5	7.60e-06	0	43	0	184549376	18	4343
2026-01-22 22:16:49.57	44.22	10.13	-28.5	-30.1	13.5	6.10e-06	0	43	0	187695104	18	4334
2026-01-22 22:16:50.58	44.37	10.18	-28.6	-30.2	13.5	9.90e-06	0	43	0	190840832	18	4362
2026-01-22 22:16:51.59	44.52	10.23	-28.5	-30.5	13.6	6.80e-06	0	43	0	193986560	17	4555
2026-01-22 22:16:52.59	44.67	10.28	-28.3	-30.1	13.8	3.80e-06	0	43	0	197132288	17	4432
2026-01-22 22:16:53.59	44.82	10.33	-28.3	-30.1	13.9	1.50e-06	0	43	0	200278016	17	4412
2026-01-22 22:16:54.59	44.97	10.38	-28.3	-29.9	14.0	1.50e-06	0	43	0	203423744	17	4369
2026-01-22 22:16:55.59	45.11	10.43	-28.3	-29.9	13.9	5.30e-06	0	43	0	206569472	17	4365
2026-01-22 22:16:56.59	45.26	10.48	-28.2	-29.8	14.0	1.50e-06	0	43	0	209715200	17	4342
2026-01-22 22:16:57.60	45.42	10.53	-28.2	-29.7	14.1	1.50e-06	0	43	0	212860928	17	4316
2026-01-22 22:16:58.60	45.57	10.58	-28.3	-30.0	13.9	3.80e-06	0	43	0	216006656	17	4385
2026-01-22 22:16:59.60	45.72	10.63	-28.3	-30.1	13.9	3.80e-06	0	43	0	219152384	17	4411
2026-01-22 22:17:00.60	45.87	10.68	-28.3	-30.0	14.0	7.60e-06	0	43	0	222298112	17	4389
2026-01-22 22:17:01.61	46.03	10.73	-28.3	-30.1	13.9	6.10e-06	0	43	0	225443840	17	4419
2026-01-22 22:17:02.61	46.18	10.78	-28.2	-29.9	14.0	3.00e-06	0	43	0	228589568	17	4365
2026-01-22 22:17:03.61	46.33	10.83	-28.4	-30.3	13.8	3.80e-06	0	43	0	231735296	17	4471
2026-01-22 22:17:04.61	46.49	10.87	-28.5	-30.6	13.6	8.30e-06	0	43	0	234881024	17	4585
2026-01-22 22:17:05.62	46.64	10.92	-28.5	-30.5	13.6	8.30e-06	0	43	0	238026752	17	4549
2026-01-22 22:17:06.62	46.80	10.97	-28.5	-30.5	13.7	5.30e-06	0	43	0	241172480	17	4532
2026-01-22 22:17:07.63	46.96	11.02	-28.5	-30.5	13.7	5.30e-06	0	43	0	244318208	17	4525
2026-01-22 22:17:08.63	47.11	11.07	-28.5	-30.7	13.6	9.90e-06	0	43	0	247463936	17	4590
2026-01-22 22:17:09.64	47.27	11.12	-28.5	-30.6	13.6	4.50e-06	0	43	0	250609664	17	4582
2026-01-22 22:17:10.64	47.43	11.17	-28.4	-30.3	13.8	1.50e-06	0	43	0	253755392	17	4489
2026-01-22 22:17:11.64	47.58	11.22	-28.3	-30.1	13.9	1.07e-04	0	43	0	256901120	17	4414
2026-01-22 22:17:12.65	47.74	11.26	-28.3	-30.0	14.0	1.95e-04	0	43	0	260046848	17	4387
2026-01-22 22:17:13.65	47.90	11.31	-28.3	-30.0	14.0	7.00e-07	0	43	0	263192576	17	4383
2026-01-22 22:17:14.64	48.06	11.36	-28.3	-30.0	14.0	3.80e-06	0	43	0	266338304	17	4404
2026-01-22 22:17:15.65	48.22	11.41	-28.3	-30.1	13.9	3.00e-06	0	43	0	269484032	17	4430
2026-01-22 22:17:16.66	48.38	11.46	-28.3	-30.1	14.0	3.00e-06	0	43	0	272629760	17	4405
2026-01-22 22:17:17.66	48.54	11.50	-28.4	-30.4	13.8	7.39e-04	0	43	0	275775488	17	4502
2026-01-22 22:17:18.66	48.71	11.55	-28.4	-30.9	13.8	6.10e-06	0	43	0	277872640	16	4771
2026-01-22 22:17:19.67	48.87	11.60	-28.5	-31.0	13.7	3.00e-06	0	43	0	281018368	16	4790
2026-01-22 22:17:20.68	49.03	11.65	-28.7	-31.0	13.4	1.22e-05	0	43	0	285212672	17	4689
2026-01-22 22:17:21.68	49.20	11.69	-28.6	-30.8	13.5	3.84e-04	0	43	0	288358400	17	4629
2026-01-22 22:17:22.68	49.36	11.74	-28.5	-30.6	13.6	5.30e-06	0	43	0	291504128	17	4571
2026-01-22 22:17:23.69	49.52	11.79	-28.6	-30.7	13.6	1.20e-04	0	43	0	294649856	17	4601
2026-01-22 22:17:24.69	49.69	11.83	-28.6	-30.8	13.5	1.08e-04	0	43	0	297795584	17	4624
2026-01-22 22:17:25.70	49.85	11.88	-28.7	-30.9	13.5	1.29e-05	0	43	0	300941312	17	4666
2026-01-22 22:17:26.70	50.02	11.93	-28.7	-30.9	13.5	4.11e-05	0	43	0	303038464	17	4663
2026-01-22 22:17:27.71	50.19	11.97	-28.7	-30.9	13.5	4.19e-05	0	43	0	306184192	17	4655
2026-01-22 22:17:28.70	50.35	12.02	-28.8	-31.1	13.3	1.29e-05	0	43	0	309329920	17	4737
2026-01-22 22:17:29.71	50.52	12.07	-29.0	-31.6	13.0	7.70e-05	0	43	0	312475648	17	4907
2026-01-22 22:17:30.70	50.69	12.11	-29.2	-31.8	12.6	1.33e-04	0	43	0	315621376	18	4857
2026-01-22 22:17:31.71	50.86	12.16	-29.1	-31.5	12.8	8.54e-05	0	43	0	318767104	18	4756
2026-01-22 22:17:32.71	51.02	12.20	-28.8	-30.8	13.3	7.32e-05	0	43	0	321912832	18	4511
2026-01-22 22:17:33.71	51.19	12.25	-28.5	-30.1	13.7	1.30e-04	0	43	0	325058560	18	4303
2026-01-22 22:17:34.71	51.36	12.29	-28.3	-29.6	14.0	7.00e-07	0	43	0	328204288	18	4165
2026-01-22 22:17:35.72	51.53	12.34	-28.4	-29.6	14.0	2.54e-04	0	43	0	331350016	18	4169
2026-01-22 22:17:36.73	51.71	12.39	-28.3	-30.0	14.1	2.95e-04	0	43	0	334495744	17	4375
2026-01-22 22:17:37.73	51.88	12.43	-28.2	-29.8	14.2	3.80e-06	0	43	0	337641472	17	4319
2026-01-22 22:17:38.73	52.05	12.48	-28.2	-29.9	14.2	3.76e-04	0	43	0	340787200	17	4340
2026-01-22 22:17:39.74	52.22	12.52	-28.3	-29.9	14.1	3.62e-04	0	43	0	343932928	17	4362
2026-01-22 22:17:40.74	52.39	12.57	-28.4	-30.2	14.0	2.20e-06	0	43	0	347078656	17	4442
2026-01-22 22:17:41.75	52.57	12.61	-28.4	-30.2	14.0	1.50e-06	0	43	0	350224384	17	4455
2026-01-22 22:17:42.76	52.74	12.66	-28.5	-30.4	13.8	3.29e-04	0	43	0	353370112	17	4516
2026-01-22 22:17:43.76	52.92	12.70	-28.5	-30.6	13.7	1.50e-06	0	43	0	356515840	17	4559
2026-01-22 22:17:44.77	53.09	12.74	-28.5	-30.6	13.7	1.60e-05	0	43	0	359661568	17	4574
2026-01-22 22:17:45.77	53.27	12.79	-28.5	-30.6	13.7	3.00e-06	0	43	0	362807296	17	4563
2026-01-22 22:17:46.77	53.44	12.83	-28.6	-30.7	13.7	7.60e-06	0	43	0	365953024	17	4599
2026-01-22 22:17:47.79	53.62	12.88	-28.5	-30.4	13.8	7.60e-06	0	44	0	369098752	17	4508
2026-01-22 22:17:48.79	53.80	12.92	-28.3	-30.1	14.0	5.07e-04	0	43	0	372244480	17	4417
2026-01-22 22:17:49.78	53.98	12.96	-28.4	-30.1	14.0	2.20e-06	0	43	0	375390208	17	4418
2026-01-22 22:17:50.79	54.15	13.01	-28.4	-30.2	14.0	2.20e-06	0	43	0	378535936	17	4433
2026-01-22 22:17:51.79	54.33	13.05	-28.3	-30.1	14.1	7.00e-07	0	43	0	381681664	17	4406
2026-01-22 22:17:52.79	54.51	13.09	-28.3	-30.1	14.1	4.50e-06	0	43	0	384827392	17	4398
2026-01-22 22:17:53.80	54.69	13.13	-28.4	-30.2	14.0	2.20e-06	0	43	0	387973120	17	4443
2026-01-22 22:17:54.81	54.87	13.18	-28.4	-30.3	13.9	3.80e-06	0	43	0	391118848	17	4476
2026-01-22 22:17:55.82	55.05	13.22	-28.4	-30.3	13.9	1.50e-06	0	43	0	394264576	17	4464
2026-01-22 22:17:56.82	55.24	13.26	-28.5	-30.4	13.9	4.50e-06	0	43	0	397410304	17	4508
2026-01-22 22:17:57.82	55.42	13.30	-28.4	-30.3	13.9	7.00e-07	0	43	0	400556032	17	4456
2026-01-22 22:17:58.83	55.60	13.34	-28.4	-30.3	14.0	3.80e-06	0	43	0	403701760	17	4471
2026-01-22 22:17:59.83	55.78	13.39	-28.5	-30.5	13.8	8.30e-06	0	43	0	406847488	17	4543
2026-01-22 22:18:00.84	55.97	13.43	-28.4	-30.2	14.0	1.50e-06	0	43	0	409993216	17	4440
2026-01-22 22:18:01.83	56.15	13.47	-28.2	-29.8	14.3	2.20e-06	0	43	0	413138944	17	4316
2026-01-22 22:18:02.83	56.33	13.51	-28.2	-30.2	14.3	0.00e+00	0	44	0	416284672	16	4550
2026-01-22 22:18:03.84	56.52	13.55	-28.1	-30.0	14.4	0.00e+00	0	44	0	419430400	16	4479
2026-01-22 22:18:04.84	56.70	13.59	-28.1	-29.9	14.5	0.00e+00	0	44	0	422576128	16	4465
2026-01-22 22:18:05.84	56.89	13.63	-28.1	-29.9	14.5	7.00e-07	0	44	0	425721856	16	4465
2026-01-22 22:18:06.85	57.07	13.67	-28.2	-30.2	14.3	0.00e+00	0	43	0	428867584	16	4553
2026-01-22 22:18:07.85	57.26	13.71	-28.2	-30.2	14.3	7.00e-07	0	43	0	432013312	16	4536
2026-01-22 22:18:08.84	57.44	13.75	-28.2	-30.3	14.2	7.00e-07	0	44	0	435159040	16	4588
2026-01-22 22:18:09.85	57.63	13.79	-28.2	-30.3	14.3	7.00e-07	0	44	0	438304768	16	4565
2026-01-22 22:18:10.85	57.82	13.83	-28.3	-30.5	14.2	2.20e-06	0	44	0	441450496	16	4629
2026-01-22 22:18:11.86	58.01	13.87	-28.2	-30.4	14.2	1.50e-06	0	44	0	444596224	16	4593
2026-01-22 22:18:12.86	58.20	13.91	-28.3	-30.4	14.2	1.50e-06	0	44	0	447741952	16	4619
2026-01-22 22:18:13.87	58.39	13.94	-28.2	-30.2	14.3	7.00e-07	0	43	0	450887680	16	4543
2026-01-22 22:18:14.87	58.58	13.98	-28.2	-30.2	14.4	7.00e-07	0	44	0	454033408	16	4538
2026-01-22 22:18:15.88	58.77	14.02	-28.2	-30.1	14.3	7.00e-07	0	44	0	457179136	16	4528
2026-01-22 22:18:16.89	58.96	14.06	-28.0	-29.7	14.6	0.00e+00	0	43	0	460324864	16	4408
2026-01-22 22:18:17.89	59.15	14.10	-27.9	-29.5	14.7	0.00e+00	0	43	0	463470592	16	4343
2026-01-22 22:18:18.89	59.35	14.13	-27.9	-29.6	14.7	0.00e+00	0	44	0	466616320	16	4364
2026-01-22 22:18:19.90	59.54	14.17	-27.9	-29.6	14.7	0.00e+00	0	44	0	469762048	16	4362
2026-01-22 22:18:20.91	59.73	14.21	-27.9	-29.6	14.7	0.00e+00	0	43	0	472907776	16	4371
2026-01-22 22:18:21.91	59.93	14.24	-28.0	-29.8	14.5	0.00e+00	0	44	0	476053504	16	4429
2026-01-22 22:18:22.91	60.12	14.28	-28.1	-29.9	14.5	0.00e+00	0	44	0	479199232	16	4467
2026-01-22 22:18:23.91	60.31	14.32	-28.2	-30.2	14.3	0.00e+00	0	43	0	482344960	16	4544
2026-01-22 22:18:24.92	60.51	14.35	-28.4	-30.7	14.1	7.00e-07	0	44	0	485490688	16	4693
2026-01-22 22:18:25.93	60.70	14.39	-28.3	-30.4	14.2	3.80e-06	0	44	0	488636416	16	4603
2026-01-22 22:18:26.93	60.90	14.42	-28.2	-30.2	14.4	0.00e+00	0	43	0	491782144	16	4536
2026-01-22 22:18:27.94	61.10	14.46	-28.2	-30.2	14.4	1.50e-06	0	43	0	494927872	16	4546
2026-01-22 22:18:28.94	61.29	14.49	-28.1	-30.0	14.5	1.50e-06	0	44	0	498073600	16	4474
2026-01-22 22:18:29.94	61.49	14.53	-28.1	-29.9	14.5	0.00e+00	0	43	0	501219328	16	4456
2026-01-22 22:18:30.95	61.69	14.56	-28.1	-29.9	14.5	0.00e+00	0	44	0	504365056	16	4467
2026-01-22 22:18:31.95	61.89	14.60	-28.0	-29.7	14.7	2.20e-06	0	44	0	507510784	16	4390
2026-01-22 22:18:32.95	62.08	14.63	-28.1	-30.0	14.5	0.00e+00	0	44	0	510656512	16	4490
2026-01-22 22:18:33.96	62.28	14.66	-27.9	-29.6	14.7	0.00e+00	0	44	0	513802240	16	4364
2026-01-22 22:18:34.96	62.48	14.70	-27.8	-29.4	14.8	0.00e+00	0	44	0	516947968	16	4318
2026-01-22 22:18:35.96	62.68	14.73	-27.8	-29.7	14.7	7.00e-07	0	44	0	520093696	15	4528
2026-01-22 22:18:36.97	62.88	14.76	-27.7	-29.7	14.8	0.00e+00	0	44	0	523239424	15	4499
2026-01-22 22:18:37.97	63.08	14.80	-27.7	-29.6	14.8	0.00e+00	0	44	0	526385152	15	4494
2026-01-22 22:18:38.97	63.28	14.83	-27.8	-29.9	14.7	0.00e+00	0	44	0	529530880	15	4565
2026-01-22 22:18:39.98	63.49	14.86	-27.9	-30.1	14.5	2.20e-06	0	43	0	532676608	15	4645
2026-01-22 22:18:40.99	63.69	14.89	-27.8	-29.9	14.6	2.28e-03	0	44	0	535822336	15	4584
2026-01-22 22:18:41.99	63.89	14.92	-27.8	-29.9	14.7	7.00e-07	0	44	0	538968064	15	4577
2026-01-22 22:18:42.99	64.09	14.95	-27.8	-29.9	14.7	0.00e+00	0	44	0	542113792	15	4585
2026-01-22 22:18:43.99	64.29	14.98	-28.2	-30.2	14.4	7.00e-07	0	44	0	545259520	16	4537
2026-01-22 22:18:44.99	64.50	15.01	-27.9	-30.1	14.5	1.50e-06	0	44	0	548405248	15	4635
2026-01-22 22:18:46.00	64.70	15.05	-28.3	-30.4	14.3	7.00e-07	0	44	0	551550976	16	4586
2026-01-22 22:18:47.00	64.91	15.07	-28.0	-29.9	14.6	7.00e-07	0	44	0	554696704	16	4448
2026-01-22 22:18:48.00	65.11	15.10	-27.8	-29.8	14.7	0.00e+00	0	44	0	557842432	15	4548
2026-01-22 22:18:49.00	65.31	15.13	-27.6	-29.5	14.9	0.00e+00	0	44	0	560988160	15	4451
2026-01-22 22:18:50.00	65.52	15.16	-27.7	-29.5	14.9	7.00e-07	0	44	0	564133888	15	4460
2026-01-22 22:18:51.01	65.73	15.19	-27.5	-29.2	15.1	1.44e-03	0	44	0	567279616	15	4380
2026-01-22 22:18:52.01	65.93	15.22	-27.6	-29.3	15.0	0.00e+00	0	44	0	570425344	15	4400
2026-01-22 22:18:53.02	66.14	15.25	-27.7	-29.6	14.8	0.00e+00	0	44	0	573571072	15	4492
2026-01-22 22:18:54.02	66.35	15.27	-27.9	-30.0	14.6	0.00e+00	0	44	0	576716800	15	4617
2026-01-22 22:18:55.03	66.56	15.30	-27.7	-29.7	14.8	0.00e+00	0	44	0	579862528	15	4521
2026-01-22 22:18:56.04	66.76	15.33	-27.7	-29.7	14.8	1.15e-03	0	44	0	583008256	15	4520
2026-01-22 22:18:57.04	66.97	15.36	-27.8	-29.8	14.7	1.22e-03	0	44	0	586153984	15	4560
2026-01-22 22:18:58.05	67.18	15.38	-27.9	-30.1	14.6	0.00e+00	0	44	0	589299712	15	4653
2026-01-22 22:18:59.05	67.39	15.41	-27.8	-29.8	14.7	0.00e+00	0	44	0	592445440	15	4558
2026-01-22 22:19:00.06	67.60	15.43	-28.0	-30.3	14.5	7.31e-04	0	44	0	595591168	15	4693
2026-01-22 22:19:01.06	67.81	15.46	-27.7	-29.6	14.8	0.00e+00	0	44	0	598736896	15	4487
2026-01-22 22:19:02.06	68.02	15.48	-27.6	-29.5	15.0	4.71e-04	0	44	0	601882624	15	4444
2026-01-22 22:19:03.07	68.23	15.51	-27.6	-29.4	15.0	6.81e-04	0	44	0	605028352	15	4424
2026-01-22 22:19:04.07	68.44	15.53	-27.7	-29.5	14.9	0.00e+00	0	44	0	608174080	15	4462
2026-01-22 22:19:05.07	68.65	15.56	-27.8	-29.7	14.8	8.36e-04	0	44	0	611319808	15	4522
2026-01-22 22:19:06.08	68.86	15.58	-27.9	-30.2	14.5	9.15e-04	0	44	0	614465536	15	4657
2026-01-22 22:19:07.08	69.07	15.60	-27.8	-29.7	14.8	0.00e+00	0	44	0	617611264	15	4528
2026-01-22 22:19:08.08	69.29	15.63	-27.7	-29.7	14.8	7.70e-04	0	44	0	620756992	15	4515
2026-01-22 22:19:09.08	69.50	15.65	-27.7	-29.6	14.8	4.89e-04	0	44	0	623902720	15	4493
2026-01-22 22:19:10.08	69.71	15.67	-27.8	-29.8	14.7	0.00e+00	0	44	0	627048448	15	4538
2026-01-22 22:19:11.08	69.92	15.69	-27.9	-30.2	14.5	4.99e-04	0	44	0	630194176	15	4666
2026-01-22 22:19:12.08	70.13	15.72	-27.8	-30.0	14.6	7.90e-04	0	44	0	633339904	15	4601
2026-01-22 22:19:13.09	70.35	15.74	-27.9	-30.0	14.6	7.00e-07	0	44	0	636485632	15	4615
2026-01-22 22:19:14.09	70.56	15.76	-27.9	-30.2	14.5	1.04e-04	0	44	0	639631360	15	4678
2026-01-22 22:19:15.10	70.78	15.78	-28.1	-30.1	14.4	1.50e-06	0	44	0	642777088	16	4505
2026-01-22 22:19:16.10	70.99	15.80	-28.2	-30.3	14.3	1.50e-06	0	44	0	645922816	16	4566
2026-01-22 22:19:17.10	71.20	15.82	-28.3	-30.4	14.2	1.01e-03	0	44	0	649068544	16	4616
2026-01-22 22:19:18.10	71.42	15.84	-28.2	-30.2	14.3	7.12e-04	0	44	0	651165696	16	4547
2026-01-22 22:19:19.10	71.63	15.86	-28.4	-30.7	14.1	7.00e-07	0	44	0	654311424	16	4684
2026-01-22 22:19:20.11	71.85	15.88	-28.0	-29.7	14.6	2.20e-06	0	44	0	657457152	16	4400
2026-01-22 22:19:21.10	72.06	15.89	-27.8	-29.2	15.0	0.00e+00	0	44	0	660602880	16	4259
2026-01-22 22:19:22.10	72.28	15.91	-27.6	-28.9	15.1	0.00e+00	0	44	0	663748608	16	4173
2026-01-22 22:19:23.10	72.49	15.93	-27.6	-28.9	15.1	1.98e-04	0	44	0	666894336	16	4171
2026-01-22 22:19:24.10	72.71	15.95	-27.8	-29.3	14.9	0.00e+00	0	44	0	670040064	16	4286
2026-01-22 22:19:25.11	72.93	15.96	-27.7	-29.2	15.0	7.00e-07	0	44	0	673185792	16	4245
2026-01-22 22:19:26.11	73.14	15.98	-27.8	-29.4	14.9	7.00e-07	0	44	0	676331520	16	4307
2026-01-22 22:19:27.12	73.36	16.00	-27.7	-29.0	15.1	3.75e-04	0	44	0	679477248	16	4197
2026-01-22 22:19:28.12	73.58	16.01	-27.6	-28.9	15.2	0.00e+00	0	44	0	682622976	16	4165
2026-01-22 22:19:29.12	73.80	16.03	-27.7	-29.0	15.1	0.00e+00	0	44	0	685768704	16	4192
2026-01-22 22:19:30.12	74.01	16.04	-27.6	-28.8	15.2	0.00e+00	0	44	0	688914432	16	4132
2026-01-22 22:19:31.12	74.23	16.06	-27.6	-28.9	15.2	0.00e+00	0	44	0	692060160	16	4157
2026-01-22 22:19:32.12	74.45	16.07	-27.8	-29.3	14.9	7.00e-07	0	44	0	695205888	16	4287
2026-01-22 22:19:33.13	74.67	16.09	-28.0	-29.7	14.7	0.00e+00	0	44	0	698351616	16	4405
2026-01-22 22:19:34.14	74.89	16.10	-28.0	-29.7	14.7	7.00e-07	0	44	0	701497344	16	4410
2026-01-22 22:19:35.14	75.11	16.11	-28.1	-30.0	14.6	7.00e-07	0	44	0	704643072	16	4469
2026-01-22 22:19:36.14	75.33	16.12	-28.0	-29.8	14.6	0.00e+00	0	44	0	707788800	16	4434
2026-01-22 22:19:37.14	75.54	16.14	-28.0	-29.9	14.6	0.00e+00	0	44	0	710934528	16	4440
2026-01-22 22:19:38.15	75.77	16.15	-28.0	-29.8	14.6	7.00e-07	0	44	0	714080256	16	4420
2026-01-22 22:19:39.15	75.98	16.16	-28.2	-30.2	14.4	0.00e+00	0	44	0	717225984	16	4527
2026-01-22 22:19:40.15	76.20	16.17	-28.0	-29.9	14.6	0.00e+00	0	44	0	720371712	16	4444
2026-01-22 22:19:41.16	76.42	16.18	-28.0	-29.8	14.6	7.00e-07	0	44	0	723517440	16	4418
2026-01-22 22:19:42.15	76.64	16.19	-28.1	-30.0	14.5	7.00e-07	0	44	0	726663168	16	4472
2026-01-22 22:19:43.16	76.86	16.20	-28.1	-30.0	14.5	0.00e+00	0	44	0	729808896	16	4476
2026-01-22 22:19:44.16	77.08	16.21	-28.1	-30.1	14.4	0.00e+00	0	44	0	732954624	16	4519
2026-01-22 22:19:45.16	77.30	16.22	-28.1	-30.0	14.5	7.00e-07	0	44	0	736100352	16	4482
2026-01-22 22:19:46.17	77.53	16.23	-28.1	-30.1	14.5	7.00e-07	0	44	0	739246080	16	4513
2026-01-22 22:19:47.18	77.75	16.24	-27.9	-29.5	14.8	0.00e+00	0	44	0	742391808	16	4326
2026-01-22 22:19:48.18	77.97	16.25	-27.8	-29.2	15.0	4.50e-06	0	44	0	745537536	16	4255
2026-01-22 22:19:49.18	78.19	16.25	-27.8	-29.3	14.9	0.00e+00	0	44	0	748683264	16	4286
2026-01-22 22:19:50.18	78.41	16.26	-27.8	-29.3	14.9	0.00e+00	0	44	0	751828992	16	4278
2026-01-22 22:19:51.18	78.63	16.27	-27.7	-29.5	14.9	0.00e+00	0	44	0	754974720	15	4467
2026-01-22 22:19:52.19	78.85	16.27	-27.6	-29.3	15.0	0.00e+00	0	44	0	758120448	15	4409
2026-01-22 22:19:53.19	79.07	16.28	-27.6	-29.3	15.0	0.00e+00	0	44	0	761266176	15	4406
2026-01-22 22:19:54.20	79.30	16.29	-27.5	-29.2	15.1	7.00e-07	0	44	0	764411904	15	4374
2026-01-22 22:19:55.21	79.52	16.29	-27.6	-29.3	15.0	0.00e+00	0	44	0	767557632	15	4390
2026-01-22 22:19:56.21	79.74	16.30	-27.7	-29.6	14.9	0.00e+00	0	44	0	770703360	15	4477
2026-01-22 22:19:57.21	79.96	16.30	-27.6	-29.4	14.9	0.00e+00	0	44	0	773849088	15	4441
2026-01-22 22:19:58.21	80.18	16.30	-27.7	-29.6	14.9	0.00e+00	0	44	0	776994816	15	4487
2026-01-22 22:19:59.22	80.41	16.31	-27.7	-29.6	14.8	0.00e+00	0	44	0	780140544	15	4504
2026-01-22 22:20:00.22	80.63	16.31	-27.8	-29.9	14.7	1.50e-06	0	44	0	783286272	15	4583
2026-01-22 22:20:01.22	80.85	16.31	-27.7	-29.7	14.8	0.00e+00	0	44	0	786432000	15	4508
2026-01-22 22:20:02.22	81.07	16.32	-27.7	-29.5	14.9	7.00e-07	0	44	0	789577728	15	4474
2026-01-22 22:20:03.23	81.29	16.32	-27.7	-29.6	14.9	0.00e+00	0	44	0	792723456	15	4490
2026-01-22 22:20:04.24	81.52	16.32	-27.6	-29.5	14.9	0.00e+00	0	44	0	795869184	15	4454
2026-01-22 22:20:05.24	81.74	16.32	-27.6	-29.5	14.9	0.00e+00	0	44	0	799014912	15	4459
2026-01-22 22:20:06.25	81.96	16.32	-27.7	-29.7	14.8	0.00e+00	0	44	0	802160640	15	4522
2026-01-22 22:20:07.26	82.19	16.32	-27.7	-29.7	14.8	7.00e-07	0	44	0	805306368	15	4523
2026-01-22 22:20:08.26	82.41	16.32	-27.8	-29.9	14.7	7.00e-07	0	44	0	808452096	15	4562
2026-01-22 22:20:09.27	82.63	16.32	-27.8	-29.9	14.7	1.50e-06	0	44	0	811597824	15	4573
2026-01-22 22:20:10.27	82.85	16.32	-27.6	-29.4	15.0	0.00e+00	0	44	0	814743552	15	4429
2026-01-22 22:20:11.28	83.08	16.32	-27.5	-29.3	15.0	0.00e+00	0	44	0	817889280	15	4401
2026-01-22 22:20:12.29	83.30	16.32	-27.5	-29.3	15.0	7.00e-07	0	44	0	821035008	15	4389
2026-01-22 22:20:13.29	83.52	16.31	-27.5	-29.3	15.0	0.00e+00	0	44	0	824180736	15	4391
2026-01-22 22:20:14.29	83.74	16.31	-27.7	-29.7	14.7	0.00e+00	0	44	0	827326464	15	4534
2026-01-22 22:20:15.29	83.96	16.31	-27.7	-29.6	14.9	0.00e+00	0	44	0	830472192	15	4477
2026-01-22 22:20:16.29	84.19	16.30	-27.6	-29.4	14.9	0.00e+00	0	44	0	833617920	15	4443
2026-01-22 22:20:17.30	84.41	16.30	-27.6	-29.4	14.9	0.00e+00	0	44	0	836763648	15	4443
2026-01-22 22:20:18.30	84.63	16.30	-27.6	-29.5	14.9	0.00e+00	0	44	0	839909376	15	4451
2026-01-22 22:20:19.30	84.85	16.29	-27.6	-29.5	14.8	0.00e+00	0	44	0	843055104	15	4475
2026-01-22 22:20:20.31	85.07	16.29	-27.7	-29.6	14.8	0.00e+00	0	44	0	846200832	15	4489
2026-01-22 22:20:21.30	85.29	16.28	-27.7	-29.6	14.8	0.00e+00	0	44	0	849346560	15	4485
2026-01-22 22:20:22.31	85.52	16.28	-27.8	-29.8	14.7	0.00e+00	0	44	0	852492288	15	4554
2026-01-22 22:20:23.31	85.74	16.27	-27.8	-29.8	14.7	0.00e+00	0	44	0	855638016	15	4557
2026-01-22 22:20:24.32	85.96	16.26	-27.8	-29.9	14.6	0.00e+00	0	44	0	858783744	15	4595
2026-01-22 22:20:25.32	86.18	16.26	-27.8	-29.9	14.7	0.00e+00	0	44	0	861929472	15	4568
2026-01-22 22:20:26.33	86.40	16.25	-27.7	-29.7	14.8	0.00e+00	0	44	0	865075200	15	4525
2026-01-22 22:20:27.34	86.63	16.24	-27.7	-29.6	14.8	0.00e+00	0	44	0	868220928	15	4501
2026-01-22 22:20:28.34	86.85	16.23	-27.7	-29.7	14.8	0.00e+00	0	44	0	871366656	15	4527
2026-01-22 22:20:29.34	87.07	16.22	-27.8	-29.7	14.8	5.49e-05	0	44	0	874512384	15	4525
2026-01-22 22:20:30.35	87.29	16.21	-27.8	-29.8	14.7	7.00e-07	0	44	0	877658112	15	4533
2026-01-22 22:20:31.35	87.51	16.20	-27.8	-30.0	14.6	9.10e-06	0	44	0	880803840	15	4598
2026-01-22 22:20:32.36	87.73	16.20	-27.9	-30.0	14.6	7.00e-07	0	44	0	883949568	15	4613
2026-01-22 22:20:33.36	87.95	16.18	-27.8	-30.0	14.6	0.00e+00	0	44	0	887095296	15	4599
2026-01-22 22:20:34.35	88.17	16.17	-27.7	-29.7	14.7	2.36e-05	0	44	0	890241024	15	4533
2026-01-22 22:20:35.36	88.39	16.16	-27.8	-29.8	14.7	8.30e-06	0	44	0	893386752	15	4546
2026-01-22 22:20:36.37	88.61	16.15	-27.8	-29.9	14.7	2.20e-06	0	44	0	896532480	15	4566
2026-01-22 22:20:37.36	88.83	16.14	-27.6	-29.4	15.0	0.00e+00	0	44	0	899678208	15	4422
2026-01-22 22:20:38.37	89.05	16.13	-27.5	-29.2	15.0	0.00e+00	0	44	0	902823936	15	4377
2026-01-22 22:20:39.37	89.27	16.12	-27.6	-29.4	14.9	0.00e+00	0	44	0	905969664	15	4433
2026-01-22 22:20:40.37	89.49	16.10	-27.5	-29.3	15.0	2.30e-04	0	44	0	909115392	15	4402
2026-01-22 22:20:41.38	89.71	16.09	-27.6	-29.5	14.9	2.89e-04	0	44	0	912261120	15	4459
2026-01-22 22:20:42.38	89.93	16.07	-27.6	-29.4	15.0	7.00e-07	0	44	0	915406848	15	4422
2026-01-22 22:20:43.38	90.14	16.06	-27.5	-29.2	15.0	1.40e-04	0	44	0	918552576	15	4379
2026-01-22 22:20:44.39	90.36	16.05	-27.5	-29.2	15.1	2.85e-04	0	44	0	921698304	15	4379
2026-01-22 22:20:45.39	90.58	16.03	-27.5	-29.2	15.0	0.00e+00	0	44	0	924844032	15	4361
2026-01-22 22:20:46.39	90.80	16.02	-27.6	-29.4	14.9	3.46e-04	0	44	0	927989760	15	4425
2026-01-22 22:20:47.39	91.02	16.00	-27.6	-29.5	14.9	3.04e-04	0	44	0	931135488	15	4458
2026-01-22 22:20:48.39	91.23	15.98	-27.7	-29.8	14.7	0.00e+00	0	44	0	934281216	15	4539
2026-01-22 22:20:49.38	91.45	15.97	-27.8	-29.9	14.6	1.79e-04	0	44	0	937426944	15	4588
2026-01-22 22:20:50.39	91.67	15.95	-27.7	-29.8	14.7	1.47e-04	0	44	0	940572672	15	4536
2026-01-22 22:20:51.38	91.88	15.93	-27.6	-29.5	14.8	0.00e+00	0	44	0	943718400	15	4466
2026-01-22 22:20:52.39	92.10	15.92	-27.7	-29.6	14.8	1.41e-04	0	44	0	946864128	15	4503
2026-01-22 22:20:53.39	92.32	15.90	-27.7	-29.7	14.7	0.00e+00	0	44	0	948961280	15	4537
2026-01-22 22:20:54.40	92.53	15.88	-27.6	-29.4	14.9	0.00e+00	0	44	0	952107008	15	4431
2026-01-22 22:20:55.40	92.75	15.86	-27.7	-29.7	14.7	2.75e-04	0	44	0	955252736	15	4519
2026-01-22 22:20:56.40	92.96	15.84	-27.8	-30.0	14.6	3.83e-04	0	44	0	958398464	15	4601
2026-01-22 22:20:57.41	93.18	15.82	-27.8	-29.9	14.6	0.00e+00	0	44	0	961544192	15	4585
2026-01-22 22:20:58.41	93.39	15.80	-27.9	-30.1	14.5	0.00e+00	0	44	0	964689920	15	4631
2026-01-22 22:20:59.42	93.61	15.78	-27.8	-29.9	14.6	7.00e-07	0	44	0	967835648	15	4575
2026-01-22 22:21:00.42	93.83	15.76	-27.7	-29.7	14.7	7.00e-07	0	44	0	972029952	15	4519
2026-01-22 22:21:01.43	94.04	15.74	-27.7	-29.7	14.8	1.19e-04	0	44	0	974127104	15	4515
2026-01-22 22:21:02.44	94.26	15.72	-27.6	-29.4	14.9	2.83e-04	0	44	0	977272832	15	4441
2026-01-22 22:21:03.45	94.47	15.70	-27.5	-29.3	15.0	0.00e+00	0	44	0	980418560	15	4388
2026-01-22 22:21:04.45	94.68	15.68	-27.5	-29.1	15.1	0.00e+00	0	44	0	983564288	15	4350
2026-01-22 22:21:05.45	94.90	15.65	-27.5	-29.1	15.1	0.00e+00	0	44	0	986710016	15	4355
2026-01-22 22:21:06.45	95.11	15.63	-27.4	-29.1	15.1	0.00e+00	0	44	0	989855744	15	4331
2026-01-22 22:21:07.46	95.32	15.61	-27.4	-29.1	15.1	0.00e+00	0	44	0	993001472	15	4336
2026-01-22 22:21:08.46	95.53	15.58	-27.4	-29.0	15.1	0.00e+00	0	44	0	996147200	15	4323
2026-01-22 22:21:09.46	95.75	15.56	-27.4	-29.0	15.1	0.00e+00	0	44	0	999292928	15	4313
2026-01-22 22:21:10.47	95.96	15.54	-27.4	-29.0	15.1	7.00e-07	0	44	0	1002438656	15	4327
2026-01-22 22:21:11.47	96.17	15.51	-27.5	-29.1	15.0	0.00e+00	0	44	0	1005584384	15	4353
2026-01-22 22:21:12.48	96.38	15.49	-27.4	-28.9	15.2	0.00e+00	0	44	0	1008730112	15	4288
2026-01-22 22:21:13.48	96.59	15.46	-27.5	-29.2	15.0	0.00e+00	0	44	0	1011875840	15	4380
2026-01-22 22:21:14.49	96.80	15.44	-27.5	-29.2	15.0	0.00e+00	0	44	0	1015021568	15	4382
2026-01-22 22:21:15.49	97.01	15.41	-27.4	-29.0	15.1	0.00e+00	0	44	0	1018167296	15	4322
2026-01-22 22:21:16.50	97.22	15.38	-27.5	-29.1	15.1	0.00e+00	0	44	0	1021313024	15	4348
2026-01-22 22:21:17.50	97.43	15.36	-27.5	-29.2	15.0	0.00e+00	0	44	0	1024458752	15	4383
2026-01-22 22:21:18.51	97.64	15.33	-27.6	-29.3	14.9	0.00e+00	0	44	0	1027604480	15	4409
2026-01-22 22:21:19.51	97.85	15.30	-27.5	-29.2	14.9	0.00e+00	0	44	0	1030750208	15	4387
2026-01-22 22:21:20.52	98.06	15.28	-27.5	-29.1	15.1	0.00e+00	0	44	0	1033895936	15	4343
2026-01-22 22:21:21.52	98.27	15.25	-27.5	-29.2	15.0	0.00e+00	0	44	0	1037041664	15	4366
2026-01-22 22:21:22.52	98.47	15.22	-27.5	-29.1	15.0	0.00e+00	0	44	0	1040187392	15	4332
2026-01-22 22:21:23.52	98.68	15.19	-27.6	-29.4	14.9	0.00e+00	0	44	0	1043333120	15	4434
2026-01-22 22:21:24.52	98.89	15.16	-27.7	-29.6	14.8	0.00e+00	0	44	0	1046478848	15	4479
2026-01-22 22:21:25.52	99.09	15.14	-27.6	-29.4	14.9	0.00e+00	0	44	0	1049624576	15	4429
2026-01-22 22:21:26.52	99.30	15.11	-27.5	-29.3	14.9	0.00e+00	0	44	0	1052770304	15	4399
2026-01-22 22:21:27.53	99.50	15.08	-27.6	-29.4	14.8	7.00e-07	0	44	0	1055916032	15	4434
2026-01-22 22:21:28.53	99.71	15.05	-27.6	-29.3	14.9	0.00e+00	0	44	0	1059061760	15	4415
2026-01-22 22:21:29.53	99.91	15.02	-27.6	-29.4	14.8	0.00e+00	0	44	0	1062207488	15	4447
2026-01-22 22:21:30.53	100.12	14.99	-27.6	-29.4	14.8	0.00e+00	0	44	0	1065353216	15	4442
2026-01-22 22:21:31.53	100.32	14.96	-27.5	-29.2	14.9	0.00e+00	0	44	0	1068498944	15	4376
2026-01-22 22:21:32.53	100.52	14.92	-27.3	-28.8	15.2	0.00e+00	0	44	0	1071644672	15	4258
2026-01-22 22:21:33.53	100.72	14.89	-27.3	-28.8	15.2	0.00e+00	0	44	0	1074790400	15	4264
2026-01-22 22:21:34.54	100.93	14.86	-27.3	-28.8	15.2	0.00e+00	0	44	0	1077936128	15	4278
2026-01-22 22:21:35.54	101.13	14.83	-27.4	-29.1	15.0	0.00e+00	0	44	0	1081081856	15	4333
2026-01-22 22:21:36.54	101.33	14.80	-27.4	-29.0	15.0	7.00e-07	0	44	0	1084227584	15	4332
2026-01-22 22:21:37.55	101.53	14.76	-27.4	-29.1	15.0	0.00e+00	0	44	0	1087373312	15	4343
2026-01-22 22:21:38.55	101.73	14.73	-27.5	-29.1	15.0	0.00e+00	0	44	0	1090519040	15	4345
2026-01-22 22:21:39.55	101.93	14.70	-27.4	-28.9	15.1	0.00e+00	0	44	0	1093664768	15	4284
2026-01-22 22:21:40.56	102.14	14.66	-27.5	-29.1	15.0	0.00e+00	0	44	0	1096810496	15	4345
2026-01-22 22:21:41.56	102.33	14.63	-27.4	-29.0	15.0	0.00e+00	0	44	0	1099956224	15	4328
2026-01-22 22:21:42.56	102.53	14.60	-27.4	-29.0	15.0	0.00e+00	0	44	0	1103101952	15	4315
2026-01-22 22:21:43.56	102.73	14.56	-27.5	-29.1	15.0	0.00e+00	0	44	0	1106247680	15	4354
2026-01-22 22:21:44.56	102.93	14.53	-27.3	-28.9	15.1	0.00e+00	0	44	0	1109393408	15	4282
2026-01-22 22:21:45.56	103.13	14.49	-27.3	-28.7	15.2	0.00e+00	0	44	0	1112539136	15	4236
2026-01-22 22:21:46.57	103.32	14.46	-27.4	-29.0	15.0	0.00e+00	0	44	0	1115684864	15	4331
2026-01-22 22:21:47.57	103.52	14.42	-27.4	-29.0	15.0	0.00e+00	0	44	0	1118830592	15	4316
2026-01-22 22:21:48.58	103.72	14.39	-27.3	-28.8	15.2	0.00e+00	0	44	0	1121976320	15	4264
2026-01-22 22:21:49.58	103.91	14.35	-27.3	-28.8	15.1	0.00e+00	0	44	0	1125122048	15	4268
2026-01-22 22:21:50.59	104.11	14.32	-27.5	-29.1	15.0	0.00e+00	0	44	0	1128267776	15	4356
2026-01-22 22:21:51.60	104.31	14.28	-27.5	-29.2	14.9	0.00e+00	0	44	0	1131413504	15	4374
2026-01-22 22:21:52.60	104.50	14.24	-27.5	-29.2	14.9	0.00e+00	0	44	0	1134559232	15	4386
2026-01-22 22:21:53.60	104.70	14.21	-27.6	-29.5	14.8	0.00e+00	0	44	0	1137704960	15	4455
2026-01-22 22:21:54.60	104.89	14.17	-27.6	-29.5	14.7	0.00e+00	0	44	0	1140850688	15	4473
2026-01-22 22:21:55.61	105.08	14.13	-27.6	-29.6	14.7	3.00e-06	0	44	0	1143996416	15	4484
2026-01-22 22:21:56.60	105.27	14.09	-27.8	-29.8	14.5	7.00e-07	0	44	0	1147142144	15	4570
2026-01-22 22:21:57.61	105.47	14.06	-27.8	-30.0	14.4	7.00e-07	0	44	0	1150287872	15	4614
2026-01-22 22:21:58.61	105.66	14.02	-27.7	-29.7	14.6	7.00e-07	0	44	0	1153433600	15	4544
2026-01-22 22:21:59.61	105.85	13.98	-27.7	-29.8	14.6	7.00e-07	0	44	0	1156579328	15	4547
2026-01-22 22:22:00.61	106.04	13.94	-27.6	-29.6	14.7	1.50e-06	0	44	0	1159725056	15	4486
2026-01-22 22:22:01.61	106.23	13.90	-27.6	-29.5	14.7	1.06e-05	0	44	0	1162870784	15	4467
2026-01-22 22:22:02.61	106.42	13.86	-27.6	-29.5	14.7	7.00e-07	0	44	0	1166016512	15	4465
2026-01-22 22:22:03.62	106.61	13.82	-27.8	-29.8	14.5	7.00e-07	0	44	0	1169162240	15	4553
2026-01-22 22:22:04.62	106.80	13.79	-27.8	-29.9	14.4	1.22e-05	0	44	0	1172307968	15	4596
2026-01-22 22:22:05.62	106.99	13.75	-27.9	-30.1	14.4	1.50e-06	0	44	0	1175453696	15	4650
2026-01-22 22:22:06.62	107.17	13.71	-27.9	-30.1	14.3	7.00e-07	0	44	0	1178599424	15	4635
2026-01-22 22:22:07.62	107.36	13.67	-28.0	-30.3	14.3	4.50e-06	0	44	0	1181745152	15	4710
2026-01-22 22:22:08.63	107.55	13.63	-28.1	-30.2	14.2	0.00e+00	0	44	0	1184890880	16	4546
2026-01-22 22:22:09.63	107.73	13.59	-28.0	-29.9	14.3	2.23e-04	0	44	0	1188036608	16	4473
2026-01-22 22:22:10.63	107.92	13.54	-28.1	-30.0	14.3	1.44e-05	0	44	0	1191182336	16	4506
2026-01-22 22:22:11.64	108.11	13.50	-28.1	-30.1	14.2	0.00e+00	0	44	0	1194328064	16	4523
2026-01-22 22:22:12.64	108.29	13.46	-28.1	-30.1	14.2	1.50e-06	0	44	0	1197473792	16	4523
2026-01-22 22:22:13.65	108.48	13.42	-28.0	-30.0	14.3	2.28e-04	0	44	0	1200619520	16	4482
2026-01-22 22:22:14.66	108.66	13.38	-27.9	-29.7	14.5	0.00e+00	0	44	0	1203765248	16	4399
2026-01-22 22:22:15.66	108.85	13.34	-27.8	-29.4	14.6	0.00e+00	0	44	0	1206910976	16	4330
2026-01-22 22:22:16.66	109.03	13.30	-27.8	-29.5	14.6	0.00e+00	0	44	0	1210056704	16	4331
2026-01-22 22:22:17.66	109.21	13.25	-27.9	-29.5	14.6	0.00e+00	0	44	0	1213202432	16	4339
2026-01-22 22:22:18.67	109.39	13.21	-27.9	-29.5	14.6	7.00e-07	0	44	0	1216348160	16	4342
2026-01-22 22:22:19.67	109.57	13.17	-27.8	-29.5	14.6	1.50e-06	0	44	0	1219493888	16	4336
2026-01-22 22:22:20.68	109.76	13.13	-27.9	-29.7	14.5	1.50e-06	0	44	0	1222639616	16	4394
2026-01-22 22:22:21.69	109.94	13.08	-28.0	-29.7	14.4	7.00e-07	0	44	0	1225785344	16	4415
2026-01-22 22:22:22.69	110.12	13.04	-28.1	-30.0	14.3	9.90e-06	0	44	0	1228931072	16	4479
2026-01-22 22:22:23.69	110.30	13.00	-28.1	-30.1	14.2	7.00e-07	0	44	0	1232076800	16	4526
2026-01-22 22:22:24.70	110.48	12.95	-28.2	-30.3	14.1	1.98e-05	0	44	0	1235222528	16	4577
2026-01-22 22:22:25.70	110.65	12.91	-28.2	-30.3	14.1	9.10e-06	0	44	0	1238368256	16	4597
2026-01-22 22:22:26.70	110.83	12.87	-28.2	-30.2	14.2	1.50e-06	0	44	0	1241513984	16	4551
2026-01-22 22:22:27.71	111.01	12.82	-28.2	-30.2	14.1	1.22e-05	0	44	0	1244659712	16	4556
2026-01-22 22:22:28.72	111.19	12.78	-28.1	-30.2	14.2	2.89e-05	0	44	0	1247805440	16	4539
2026-01-22 22:22:29.72	111.36	12.73	-28.3	-30.5	14.0	5.30e-06	0	44	0	1249902592	16	4635
2026-01-22 22:22:30.72	111.54	12.69	-28.2	-30.2	14.1	1.03e-04	0	44	0	1254096896	16	4549
2026-01-22 22:22:31.73	111.72	12.64	-28.2	-30.4	14.0	1.42e-04	0	44	0	1257242624	16	4624
2026-01-22 22:22:32.74	111.89	12.60	-28.2	-30.2	14.1	1.50e-06	0	44	0	1260388352	16	4561
2026-01-22 22:22:33.74	112.07	12.55	-28.2	-30.3	14.1	2.27e-04	0	44	0	1263534080	16	4586
2026-01-22 22:22:34.74	112.24	12.51	-28.3	-30.6	13.8	1.96e-04	0	44	0	1266679808	16	4694
2026-01-22 22:22:35.74	112.41	12.46	-28.3	-30.6	13.9	3.80e-06	0	44	0	1269825536	16	4675
2026-01-22 22:22:36.75	112.59	12.42	-28.2	-30.4	14.0	1.25e-04	0	44	0	1272971264	16	4627
2026-01-22 22:22:37.76	112.76	12.37	-28.3	-30.5	13.9	0.00e+00	0	44	0	1275068416	16	4666
2026-01-22 22:22:38.76	112.93	12.33	-28.3	-30.7	13.8	3.80e-06	0	44	0	1278214144	16	4703
2026-01-22 22:22:39.77	113.10	12.28	-28.5	-30.6	13.6	6.10e-06	0	44	0	1281359872	17	4572
2026-01-22 22:22:40.77	113.27	12.23	-28.4	-30.4	13.7	9.10e-06	0	44	0	1284505600	17	4511
2026-01-22 22:22:41.78	113.45	12.19	-28.3	-30.1	13.9	2.20e-06	0	44	0	1288699904	17	4436
2026-01-22 22:22:42.78	113.62	12.14	-28.3	-30.0	13.9	7.00e-07	0	44	0	1291845632	17	4400
2026-01-22 22:22:43.79	113.79	12.10	-28.3	-30.0	13.9	6.10e-06	0	44	0	1294991360	17	4398
2026-01-22 22:22:44.79	113.95	12.05	-28.3	-30.0	13.9	5.30e-06	0	44	0	1297088512	17	4405
2026-01-22 22:22:45.79	114.12	12.00	-28.3	-30.1	13.9	2.20e-06	0	44	0	1300234240	17	4419
2026-01-22 22:22:46.79	114.29	11.96	-28.3	-30.1	13.9	3.00e-06	0	44	0	1303379968	17	4410
2026-01-22 22:22:47.79	114.46	11.91	-28.3	-30.2	13.8	3.80e-06	0	44	0	1306525696	17	4440
2026-01-22 22:22:48.79	114.62	11.86	-28.4	-30.3	13.7	4.50e-06	0	44	0	1309671424	17	4482
2026-01-22 22:22:49.80	114.79	11.81	-28.3	-30.0	13.8	6.10e-06	0	44	0	1312817152	17	4409
2026-01-22 22:22:50.80	114.95	11.77	-28.3	-30.1	13.8	3.80e-06	0	44	0	1315962880	17	4416
2026-01-22 22:22:51.81	115.12	11.72	-28.3	-30.0	13.9	4.50e-06	0	44	0	1319108608	17	4397
2026-01-22 22:22:52.82	115.29	11.67	-28.3	-30.2	13.8	3.00e-06	0	44	0	1322254336	17	4450
2026-01-22 22:22:53.82	115.45	11.62	-28.4	-30.3	13.7	6.80e-06	0	44	0	1325400064	17	4497
2026-01-22 22:22:54.83	115.61	11.58	-28.4	-30.4	13.6	1.14e-05	0	44	0	1328545792	17	4527
2026-01-22 22:22:55.83	115.78	11.53	-28.4	-30.4	13.6	8.30e-06	0	44	0	1331691520	17	4523
2026-01-22 22:22:56.84	115.94	11.48	-28.5	-30.5	13.5	3.00e-06	0	44	0	1334837248	17	4562
2026-01-22 22:22:57.84	116.10	11.43	-28.4	-30.3	13.6	8.30e-06	0	44	0	1337982976	17	4496
2026-01-22 22:22:58.84	116.26	11.38	-28.5	-30.5	13.5	6.10e-06	0	44	0	1341128704	17	4560
2026-01-22 22:22:59.84	116.42	11.34	-28.5	-30.6	13.5	1.37e-05	0	44	0	1344274432	17	4582
2026-01-22 22:23:00.84	116.58	11.29	-28.4	-30.4	13.6	2.21e-05	0	44	0	1347420160	17	4529
2026-01-22 22:23:01.84	116.74	11.24	-28.5	-30.6	13.5	1.37e-05	0	44	0	1350565888	17	4567
2026-01-22 22:23:02.84	116.90	11.19	-28.5	-30.5	13.5	5.30e-06	0	44	0	1353711616	17	4541
2026-01-22 22:23:03.85	117.06	11.14	-28.5	-30.5	13.5	1.44e-05	0	44	0	1356857344	17	4552
2026-01-22 22:23:04.85	117.22	11.09	-28.6	-30.8	13.3	1.29e-05	0	44	0	1360003072	17	4655
2026-01-22 22:23:05.85	117.38	11.04	-28.5	-30.6	13.4	1.60e-05	0	44	0	1363148800	17	4576
2026-01-22 22:23:06.84	117.53	11.00	-28.5	-30.6	13.4	1.37e-05	0	44	0	1366294528	17	4591
2026-01-22 22:23:07.85	117.69	10.95	-28.5	-30.6	13.4	9.90e-06	0	44	0	1369440256	17	4576
2026-01-22 22:23:08.85	117.85	10.90	-28.5	-30.7	13.4	9.90e-06	0	44	0	1372585984	17	4610
2026-01-22 22:23:09.85	118.00	10.85	-28.6	-30.8	13.3	3.28e-05	0	44	0	1375731712	17	4638
2026-01-22 22:23:10.85	118.16	10.80	-28.6	-30.8	13.2	1.06e-05	0	44	0	1378877440	17	4658
2026-01-22 22:23:11.86	118.31	10.75	-28.7	-31.0	13.1	2.44e-05	0	44	0	1382023168	17	4717
2026-01-22 22:23:12.86	118.47	10.70	-28.7	-31.2	13.0	3.05e-05	0	44	0	1385168896	17	4775
2026-01-22 22:23:13.86	118.62	10.65	-28.6	-31.0	13.1	2.59e-05	0	44	0	1388314624	17	4710
2026-01-22 22:23:14.86	118.77	10.60	-28.6	-30.9	13.2	2.89e-05	0	44	0	1391460352	17	4691
2026-01-22 22:23:15.86	118.93	10.55	-28.6	-31.0	13.1	3.05e-05	0	44	0	1394606080	17	4716
2026-01-22 22:23:16.86	119.08	10.50	-28.8	-31.4	12.9	4.50e-05	0	44	0	1397751808	17	4851
2026-01-22 22:23:17.86	119.23	10.45	-28.7	-31.3	13.0	4.27e-05	0	44	0	1400897536	17	4805
2026-01-22 22:23:18.87	119.38	10.40	-28.9	-31.5	12.8	5.26e-05	0	44	0	1404043264	17	4884
2026-01-22 22:23:19.87	119.53	10.35	-28.7	-31.1	13.1	3.35e-05	0	44	0	1407188992	17	4749
2026-01-22 22:23:20.87	119.68	10.30	-28.5	-30.7	13.3	1.60e-05	0	44	0	1410334720	17	4608
2026-01-22 22:23:21.88	119.83	10.25	-28.5	-30.7	13.3	1.52e-05	0	44	0	1413480448	17	4609
2026-01-22 22:23:22.88	119.98	10.20	-28.5	-30.8	13.2	2.44e-05	0	44	0	1416626176	17	4647
2026-01-22 22:23:23.88	120.13	10.15	-28.5	-30.6	13.3	1.90e-05	0	44	0	1419771904	17	4595
2026-01-22 22:23:24.89	120.28	10.10	-28.6	-30.8	13.2	2.44e-05	0	44	0	1422917632	17	4636
2026-01-22 22:23:25.89	120.43	10.05	-28.5	-30.6	13.3	1.98e-05	0	44	0	1426063360	17	4597
2026-01-22 22:23:26.89	120.57	10.00	-28.5	-30.5	13.4	9.90e-06	0	44	0	1429209088	17	4550
2026-01-22 22:23:27.90	120.72	9.95	-28.5	-30.6	13.4	1.67e-05	0	44	0	1432354816	17	4582
2026-01-22 22:23:28.91	120.87	9.90	-28.5	-30.7	13.3	1.52e-05	0	44	0	1435500544	17	4608
2026-01-22 22:23:29.91	121.01	9.85	-28.5	-30.5	13.4	1.44e-05	0	44	0	1438646272	17	4554
2026-01-22 22:23:30.91	121.16	9.79	-28.6	-30.9	13.2	1.60e-05	0	44	0	1441792000	17	4668
2026-01-22 22:23:31.91	121.30	9.74	-28.5	-30.6	13.3	2.21e-05	0	44	0	1444937728	17	4582
2026-01-22 22:23:32.92	121.45	9.69	-28.5	-30.7	13.3	1.83e-05	0	44	0	1448083456	17	4612
2026-01-22 22:23:33.93	121.59	9.64	-28.5	-30.5	13.4	1.44e-05	0	44	0	1451229184	17	4561
2026-01-22 22:23:34.93	121.74	9.59	-28.6	-30.9	13.2	3.58e-05	0	44	0	1454374912	17	4667
2026-01-22 22:23:35.93	121.88	9.54	-28.5	-30.6	13.3	1.60e-05	0	44	0	1457520640	17	4593
2026-01-22 22:23:36.94	122.02	9.49	-28.5	-30.6	13.3	1.67e-05	0	44	0	1460666368	17	4585
2026-01-22 22:23:37.94	122.17	9.44	-28.5	-30.5	13.3	1.29e-05	0	44	0	1463812096	17	4574
2026-01-22 22:23:38.94	122.31	9.39	-28.5	-30.6	13.3	2.28e-05	0	44	0	1466957824	17	4607
2026-01-22 22:23:39.95	122.45	9.33	-28.5	-30.7	13.2	1.60e-05	0	44	0	1470103552	17	4638
2026-01-22 22:23:40.95	122.59	9.28	-28.7	-31.1	13.0	2.82e-05	0	44	0	1473249280	17	4743
2026-01-22 22:23:41.96	122.73	9.23	-28.6	-30.8	13.1	3.58e-05	0	44	0	1476395008	17	4665
2026-01-22 22:23:42.97	122.87	9.18	-28.5	-30.6	13.2	1.52e-05	0	44	0	1479540736	17	4605
2026-01-22 22:23:43.98	123.01	9.13	-28.6	-31.0	13.0	1.67e-05	0	44	0	1482686464	17	4707
2026-01-22 22:23:44.98	123.15	9.08	-28.6	-30.9	13.1	3.43e-05	0	44	0	1485832192	17	4688
2026-01-22 22:23:45.98	123.29	9.02	-28.7	-31.1	12.9	3.43e-05	0	44	0	1488977920	17	4755
2026-01-22 22:23:46.99	123.43	8.97	-28.7	-31.0	13.0	4.50e-05	0	44	0	1492123648	17	4742
2026-01-22 22:23:48.00	123.56	8.92	-28.7	-31.2	12.9	1.60e-04	0	44	0	1495269376	17	4793
2026-01-22 22:23:49.00	123.70	8.87	-28.7	-31.1	12.9	1.61e-04	0	44	0	1498415104	17	4763
2026-01-22 22:23:50.00	123.84	8.82	-28.8	-31.5	12.7	6.10e-05	0	44	0	1501560832	17	4902
2026-01-22 22:23:51.01	123.97	8.77	-28.8	-31.4	12.7	6.40e-05	0	44	0	1504706560	17	4849
2026-01-22 22:23:52.01	124.11	8.71	-28.9	-31.8	12.5	7.70e-05	0	44	0	1507852288	17	4985
2026-01-22 22:23:53.01	124.24	8.66	-28.9	-31.7	12.5	1.33e-04	0	44	0	1510998016	17	4981
2026-01-22 22:23:54.01	124.38	8.61	-29.1	-31.7	12.2	3.07e-04	0	44	0	1514143744	18	4864
2026-01-22 22:23:55.01	124.51	8.56	-29.2	-32.0	12.0	2.50e-04	0	44	0	1517289472	18	4978
2026-01-22 22:23:56.02	124.64	8.51	-29.1	-31.8	12.2	3.00e-04	0	44	0	1520435200	18	4876
2026-01-22 22:23:57.02	124.78	8.46	-29.0	-31.5	12.3	2.89e-04	0	44	0	1523580928	18	4790
2026-01-22 22:23:58.02	124.91	8.40	-29.0	-31.5	12.4	2.42e-04	0	44	0	1526726656	18	4785
2026-01-22 22:23:59.03	125.04	8.35	-29.1	-31.8	12.1	2.08e-04	0	44	0	1529872384	18	4894
2026-01-22 22:24:00.04	125.18	8.30	-29.1	-31.7	12.2	3.59e-04	0	44	0	1533018112	18	4873
2026-01-22 22:24:01.03	125.30	8.25	-29.1	-31.7	12.2	2.32e-04	0	44	0	1536163840	18	4872
2026-01-22 22:24:02.03	125.44	8.20	-29.1	-31.8	12.1	2.49e-04	0	44	0	1539309568	18	4910
2026-01-22 22:24:03.04	125.57	8.14	-29.1	-31.8	12.1	4.32e-04	0	44	0	1542455296	18	4914
2026-01-22 22:24:04.04	125.70	8.09	-29.3	-32.2	11.8	4.82e-04	0	44	0	1545601024	18	5040
2026-01-22 22:24:05.04	125.83	8.04	-29.1	-31.8	12.1	2.78e-04	0	44	0	1548746752	18	4888
2026-01-22 22:24:06.05	125.96	7.99	-29.0	-31.5	12.3	2.67e-04	0	44	0	1551892480	18	4796
2026-01-22 22:24:07.05	126.08	7.94	-28.9	-31.3	12.4	1.46e-04	0	44	0	1555038208	18	4710
2026-01-22 22:24:08.06	126.21	7.88	-29.0	-31.5	12.3	1.81e-04	0	44	0	1558183936	18	4784
2026-01-22 22:24:09.06	126.34	7.83	-29.0	-31.4	12.3	1.86e-04	0	44	0	1561329664	18	4759
2026-01-22 22:24:10.07	126.47	7.78	-29.1	-31.6	12.2	2.00e-04	0	44	0	1564475392	18	4839
2026-01-22 22:24:11.07	126.59	7.73	-29.0	-31.4	12.3	1.83e-04	0	44	0	1567621120	18	4764
2026-01-22 22:24:12.08	126.72	7.67	-29.0	-31.5	12.3	1.67e-04	0	44	0	1570766848	18	4788
2026-01-22 22:24:13.07	126.85	7.62	-29.0	-31.4	12.3	4.03e-04	0	44	0	1573912576	18	4765
2026-01-22 22:24:14.08	126.97	7.57	-29.1	-31.8	12.0	2.31e-04	0	44	0	1577058304	18	4884
2026-01-22 22:24:15.08	127.10	7.52	-28.9	-31.3	12.3	4.97e-04	0	44	0	1580204032	18	4736
2026-01-22 22:24:16.08	127.22	7.47	-29.1	-31.7	12.1	2.77e-04	0	44	0	1583349760	18	4872
2026-01-22 22:24:17.08	127.35	7.41	-28.9	-31.4	12.3	1.43e-04	0	44	0	1586495488	18	4759
2026-01-22 22:24:18.09	127.47	7.36	-29.0	-31.6	12.1	2.50e-04	0	44	0	1589641216	18	4840
2026-01-22 22:24:19.09	127.59	7.31	-29.1	-31.7	12.1	3.50e-04	0	44	0	1592786944	18	4861
2026-01-22 22:24:20.10	127.72	7.26	-29.1	-31.7	12.1	2.91e-04	0	44	0	1595932672	18	4872
2026-01-22 22:24:21.10	127.84	7.20	-29.1	-31.8	12.0	3.74e-04	0	44	0	1598029824	18	4894
2026-01-22 22:24:22.10	127.96	7.15	-29.1	-31.9	11.9	3.07e-04	0	44	0	1601175552	18	4931
2026-01-22 22:24:23.11	128.08	7.10	-29.3	-32.3	11.6	6.07e-04	0	44	0	1604321280	18	5091
2026-01-22 22:24:24.12	128.21	7.05	-29.2	-32.2	11.7	5.71e-04	0	44	0	1607467008	18	5045
2026-01-22 22:24:25.12	128.33	7.00	-33.2	-45.2	3.8	1.49e+00	0	44	104	1608515584	26	14278
2026-01-22 22:24:26.12	128.45	6.94	-33.5	-45.5	3.8	1.49e+00	0	44	104	1608515584	27	14285
2026-01-22 22:24:27.13	128.57	6.89	-33.9	-46.1	3.8	1.49e+00	0	44	104	1608515584	27	14800

#Closed at: 2026-01-22 22:24:27
#Recorded file [1608 MB]: D:/data/31010_260123_011549.dat