passes_logs/2026/01/22/R2M6_AANII_01/R2M6_AANII_01__20260122_082821_NOAA_21_JPSS-2_rec.log

#Pass ID: 20260122_082821_NOAA 21 (JPSS-2)
#Satellite: NOAA 21 (JPSS-2)
#Configuration: NOAA 21
#almurnet v.1.7.20240730
#Start time: 2026-01-22 08:28:20

#Version: 2.2.20231116
#Station: R2M6_AANII_01
#Location: 30.233357 lon 59.946436 lat
#TLE: 1 54234U 22150A   26021.42686626  .00000211  00000+0  12107-3 0  9996
#TLE: 2 54234  98.7506 322.2490 0000636 241.9299 118.1812 14.19537149165725

#Time	Az	El	Level	Level2	SNR	BER	BlckErr	Temp	State	Recorded	gain1	gain2
2026-01-22 08:28:20.78	103.06	6.97	-31.3	-37.7	4.2	1.45e+00	0	40	0	0	23	7486
2026-01-22 08:28:21.79	102.97	7.04	-30.4	-35.4	4.6	1.40e+00	0	40	104	0	21	6363
2026-01-22 08:28:22.79	102.89	7.10	-30.3	-34.0	8.8	3.61e-02	0	41	0	0	21	5539
2026-01-22 08:28:23.79	102.80	7.17	-30.3	-34.0	8.8	3.03e-02	0	41	0	3145728	21	5565
2026-01-22 08:28:24.80	102.71	7.24	-30.3	-34.2	8.7	3.39e-02	0	41	0	6291456	21	5609
2026-01-22 08:28:25.81	102.62	7.30	-30.1	-34.0	9.1	2.46e-02	0	41	0	9437184	20	5661
2026-01-22 08:28:26.82	102.52	7.37	-30.3	-34.7	8.7	2.80e-02	0	41	0	12582912	20	5946
2026-01-22 08:28:27.82	102.43	7.43	-30.3	-34.7	8.7	3.45e-02	0	41	0	15728640	20	5946
2026-01-22 08:28:28.83	102.34	7.50	-30.4	-35.2	8.3	4.09e-02	0	41	0	18874368	20	6220
2026-01-22 08:28:29.83	102.25	7.57	-30.3	-34.2	8.7	4.07e-02	0	41	0	22020096	21	5608
2026-01-22 08:28:30.83	102.16	7.63	-29.9	-33.1	9.5	1.65e-02	0	41	0	24117248	21	5168
2026-01-22 08:28:31.84	102.07	7.70	-29.6	-32.5	10.3	6.21e-03	0	41	0	28311552	20	5022
2026-01-22 08:28:32.83	101.97	7.76	-29.3	-31.6	10.9	3.58e-03	0	41	0	30408704	20	4704
2026-01-22 08:28:33.84	101.88	7.83	-29.0	-31.2	11.6	1.03e-03	0	41	0	34603008	19	4659
2026-01-22 08:28:34.84	101.79	7.90	-28.8	-30.7	11.9	3.84e-04	0	41	0	37748736	19	4502
2026-01-22 08:28:35.84	101.69	7.96	-28.7	-30.9	12.1	2.72e-04	0	41	0	40894464	18	4644
2026-01-22 08:28:36.84	101.60	8.03	-28.7	-31.1	12.0	3.42e-04	0	41	0	44040192	18	4704
2026-01-22 08:28:37.85	101.50	8.10	-28.9	-31.3	11.8	4.24e-04	0	41	0	47185920	18	4794
2026-01-22 08:28:38.85	101.41	8.16	-28.8	-31.1	11.9	4.77e-04	0	41	0	49283072	18	4732
2026-01-22 08:28:39.85	101.31	8.23	-28.6	-30.7	12.2	2.15e-04	0	41	0	52428800	18	4567
2026-01-22 08:28:40.85	101.21	8.30	-28.4	-30.8	12.5	1.34e-03	0	41	0	55574528	17	4712
2026-01-22 08:28:41.86	101.12	8.36	-28.5	-30.9	12.4	1.41e-04	0	41	0	58720256	17	4778
2026-01-22 08:28:42.86	101.02	8.43	-28.4	-30.7	12.5	1.20e-04	0	41	0	61865984	17	4690
2026-01-22 08:28:43.86	100.92	8.50	-28.5	-30.9	12.3	1.72e-04	0	41	0	65011712	17	4765
2026-01-22 08:28:44.87	100.82	8.57	-28.1	-30.1	12.8	5.66e-04	0	41	0	68157440	17	4512
2026-01-22 08:28:45.87	100.72	8.63	-28.1	-29.9	13.0	2.82e-05	0	41	0	71303168	17	4421
2026-01-22 08:28:46.87	100.62	8.70	-27.9	-29.5	13.3	2.82e-05	0	41	0	74448896	17	4313
2026-01-22 08:28:47.88	100.52	8.77	-28.0	-29.6	13.3	1.60e-05	0	41	0	77594624	17	4339
2026-01-22 08:28:48.87	100.42	8.84	-28.0	-29.7	13.2	3.66e-05	0	41	0	80740352	17	4375
2026-01-22 08:28:49.87	100.32	8.90	-28.2	-30.1	12.9	3.66e-05	0	41	0	83886080	17	4527
2026-01-22 08:28:50.88	100.22	8.97	-28.1	-29.9	13.1	3.89e-05	0	41	0	87031808	17	4440
2026-01-22 08:28:51.88	100.12	9.04	-28.0	-29.7	13.2	3.28e-05	0	41	0	90177536	17	4367
2026-01-22 08:28:52.89	100.02	9.11	-27.8	-29.3	13.5	1.29e-05	0	42	0	93323264	17	4252
2026-01-22 08:28:53.89	99.92	9.18	-27.9	-29.3	13.5	6.80e-06	0	41	0	96468992	17	4244
2026-01-22 08:28:54.89	99.81	9.24	-27.8	-29.7	13.6	7.60e-06	0	41	0	99614720	16	4463
2026-01-22 08:28:55.89	99.71	9.31	-27.9	-29.9	13.5	1.14e-05	0	41	0	102760448	16	4516
2026-01-22 08:28:56.90	99.60	9.38	-28.0	-30.1	13.4	1.52e-05	0	42	0	105906176	16	4578
2026-01-22 08:28:57.91	99.50	9.45	-28.0	-30.1	13.4	1.60e-05	0	41	0	109051904	16	4592
2026-01-22 08:28:58.92	99.39	9.52	-27.9	-29.8	13.5	1.06e-05	0	42	0	112197632	16	4512
2026-01-22 08:28:59.93	99.29	9.59	-27.9	-29.9	13.5	2.82e-05	0	42	0	115343360	16	4539
2026-01-22 08:29:00.93	99.18	9.66	-27.9	-29.9	13.5	8.30e-06	0	42	0	118489088	16	4517
2026-01-22 08:29:01.93	99.07	9.73	-27.9	-30.0	13.4	9.10e-06	0	42	0	121634816	16	4565
2026-01-22 08:29:02.92	98.97	9.80	-28.0	-30.2	13.3	1.37e-05	0	42	0	124780544	16	4622
2026-01-22 08:29:03.92	98.86	9.87	-28.0	-30.1	13.4	9.08e-04	0	42	0	127926272	16	4584
2026-01-22 08:29:04.92	98.75	9.93	-28.0	-30.2	13.4	1.37e-05	0	42	0	131072000	16	4614
2026-01-22 08:29:05.93	98.64	10.00	-28.0	-30.2	13.3	1.90e-05	0	42	0	134217728	16	4622
2026-01-22 08:29:06.93	98.53	10.07	-27.9	-29.8	13.5	1.90e-05	0	42	0	137363456	16	4517
2026-01-22 08:29:07.94	98.42	10.14	-28.0	-30.1	13.4	9.90e-06	0	42	0	140509184	16	4592
2026-01-22 08:29:08.94	98.31	10.21	-27.9	-30.1	13.3	1.06e-05	0	42	0	143654912	16	4628
2026-01-22 08:29:09.94	98.20	10.28	-28.2	-30.7	13.1	3.20e-05	0	42	0	146800640	16	4783
2026-01-22 08:29:10.95	98.09	10.35	-28.1	-30.4	13.3	2.36e-05	0	42	0	149946368	16	4677
2026-01-22 08:29:11.95	97.98	10.42	-27.9	-29.9	13.6	8.30e-06	0	42	0	153092096	16	4534
2026-01-22 08:29:12.96	97.87	10.49	-27.8	-29.7	13.7	1.14e-05	0	42	0	156237824	16	4475
2026-01-22 08:29:13.96	97.75	10.56	-28.0	-30.0	13.6	7.60e-06	0	42	0	159383552	16	4541
2026-01-22 08:29:14.97	97.64	10.63	-27.7	-29.4	13.9	4.50e-06	0	42	0	162529280	16	4383
2026-01-22 08:29:15.98	97.52	10.71	-27.9	-29.9	13.7	4.50e-06	0	42	0	165675008	16	4521
2026-01-22 08:29:16.98	97.41	10.78	-27.8	-29.7	13.8	4.50e-06	0	42	0	168820736	16	4462
2026-01-22 08:29:17.98	97.29	10.85	-28.0	-30.0	13.6	9.90e-06	0	42	0	171966464	16	4563
2026-01-22 08:29:18.99	97.18	10.92	-27.9	-29.9	13.7	4.50e-06	0	42	0	175112192	16	4501
2026-01-22 08:29:19.99	97.06	10.99	-27.8	-29.5	14.0	3.00e-06	0	42	0	178257920	16	4378
2026-01-22 08:29:20.99	96.94	11.06	-27.6	-29.2	14.2	3.00e-06	0	42	0	181403648	16	4290
2026-01-22 08:29:22.00	96.83	11.13	-27.7	-29.3	14.1	7.00e-07	0	42	0	184549376	16	4347
2026-01-22 08:29:23.00	96.71	11.20	-27.4	-29.2	14.3	8.62e-05	0	42	0	187695104	15	4430
2026-01-22 08:29:24.00	96.59	11.27	-27.5	-29.4	14.2	7.00e-07	0	42	0	190840832	15	4480
2026-01-22 08:29:25.00	96.47	11.34	-27.5	-29.5	14.1	2.20e-06	0	42	0	193986560	15	4499
2026-01-22 08:29:26.01	96.35	11.41	-27.4	-29.2	14.3	1.50e-06	0	42	0	197132288	15	4413
2026-01-22 08:29:27.01	96.23	11.49	-27.5	-29.4	14.1	7.00e-07	0	42	0	200278016	15	4483
2026-01-22 08:29:28.01	96.11	11.56	-27.5	-29.4	14.2	0.00e+00	0	42	0	203423744	15	4480
2026-01-22 08:29:29.02	95.98	11.63	-27.5	-29.4	14.2	0.00e+00	0	42	0	206569472	15	4476
2026-01-22 08:29:30.02	95.86	11.70	-27.7	-29.8	13.9	3.80e-06	0	42	0	209715200	15	4598
2026-01-22 08:29:31.03	95.74	11.77	-27.6	-29.8	14.0	1.50e-06	0	42	0	212860928	15	4591
2026-01-22 08:29:32.04	95.61	11.84	-27.4	-29.5	13.9	7.60e-06	0	42	0	216006656	15	4588
2026-01-22 08:29:33.05	95.49	11.92	-27.6	-29.6	14.1	3.80e-06	0	42	0	219152384	15	4531
2026-01-22 08:29:34.05	95.36	11.99	-27.5	-29.3	14.3	2.20e-06	0	42	0	222298112	15	4437
2026-01-22 08:29:35.06	95.24	12.06	-27.5	-29.4	14.3	0.00e+00	0	42	0	225443840	15	4457
2026-01-22 08:29:36.06	95.11	12.13	-27.7	-29.8	14.0	1.50e-06	0	42	0	228589568	15	4591
2026-01-22 08:29:37.07	94.98	12.20	-27.5	-29.3	14.3	1.50e-06	0	42	0	231735296	15	4446
2026-01-22 08:29:38.07	94.86	12.28	-27.6	-29.6	14.1	2.65e-04	0	42	0	234881024	15	4545
2026-01-22 08:29:39.07	94.73	12.35	-27.5	-29.3	14.3	0.00e+00	0	42	0	238026752	15	4428
2026-01-22 08:29:40.08	94.60	12.42	-27.3	-29.0	14.6	0.00e+00	0	42	0	241172480	15	4354
2026-01-22 08:29:41.08	94.47	12.49	-27.4	-29.2	14.4	7.00e-07	0	42	0	244318208	15	4412
2026-01-22 08:29:42.08	94.34	12.57	-27.4	-29.2	14.4	6.88e-04	0	42	0	247463936	15	4406
2026-01-22 08:29:43.08	94.21	12.64	-27.5	-29.5	14.3	7.00e-07	0	42	0	250609664	15	4490
2026-01-22 08:29:44.08	94.08	12.71	-27.7	-29.8	14.1	1.50e-06	0	42	0	253755392	15	4603
2026-01-22 08:29:45.08	93.95	12.78	-27.5	-29.5	14.3	7.00e-07	0	42	0	256901120	15	4487
2026-01-22 08:29:46.09	93.82	12.86	-27.4	-29.2	14.5	7.00e-07	0	42	0	260046848	15	4400
2026-01-22 08:29:47.10	93.68	12.93	-27.1	-28.9	14.2	2.20e-06	0	42	0	263192576	15	4424
2026-01-22 08:29:48.10	93.55	13.00	-27.4	-29.2	14.5	2.20e-06	0	42	0	266338304	15	4393
2026-01-22 08:29:49.10	93.41	13.08	-27.6	-29.5	14.4	0.00e+00	0	42	0	269484032	15	4480
2026-01-22 08:29:50.10	93.28	13.15	-27.7	-29.8	14.1	7.00e-07	0	42	0	272629760	15	4587
2026-01-22 08:29:51.11	93.14	13.22	-27.2	-29.0	14.5	1.50e-06	0	42	0	275775488	15	4396
2026-01-22 08:29:52.12	93.00	13.30	-27.4	-29.1	14.6	0.00e+00	0	42	0	278921216	15	4367
2026-01-22 08:29:53.12	92.87	13.37	-27.5	-29.4	14.4	7.00e-07	0	42	0	282066944	15	4469
2026-01-22 08:29:54.12	92.73	13.44	-27.6	-29.7	14.2	2.20e-06	0	42	0	285212672	15	4557
2026-01-22 08:29:55.13	92.59	13.52	-27.6	-29.5	14.4	7.00e-07	0	42	0	288358400	15	4501
2026-01-22 08:29:56.13	92.45	13.59	-27.5	-29.2	14.6	0.00e+00	0	42	0	291504128	15	4408
2026-01-22 08:29:57.14	92.31	13.66	-27.6	-29.4	14.4	6.80e-06	0	42	0	294649856	15	4471
2026-01-22 08:29:58.14	92.17	13.74	-27.5	-29.4	14.4	7.00e-07	0	42	0	297795584	15	4475
2026-01-22 08:29:59.14	92.03	13.81	-27.5	-29.3	14.5	1.50e-06	0	42	0	300941312	15	4437
2026-01-22 08:30:00.14	91.89	13.88	-27.4	-29.2	14.6	0.00e+00	0	43	0	304087040	15	4400
2026-01-22 08:30:01.15	91.74	13.96	-27.5	-29.4	14.5	1.90e-05	0	42	0	307232768	15	4453
2026-01-22 08:30:02.15	91.60	14.03	-27.4	-29.1	14.7	7.00e-07	0	42	0	310378496	15	4379
2026-01-22 08:30:03.15	91.45	14.10	-27.5	-29.3	14.5	7.00e-07	0	42	0	313524224	15	4446
2026-01-22 08:30:04.15	91.31	14.18	-27.6	-29.5	14.5	1.50e-06	0	42	0	316669952	15	4471
2026-01-22 08:30:05.16	91.16	14.25	-27.6	-29.4	14.5	0.00e+00	0	42	0	319815680	15	4458
2026-01-22 08:30:06.16	91.02	14.32	-27.6	-29.6	14.5	9.90e-06	0	42	0	322961408	15	4500
2026-01-22 08:30:07.16	90.87	14.40	-27.6	-29.6	14.4	1.50e-06	0	42	0	326107136	15	4514
2026-01-22 08:30:08.17	90.72	14.47	-27.7	-29.7	14.4	1.50e-06	0	42	0	329252864	15	4533
2026-01-22 08:30:09.17	90.57	14.55	-27.7	-29.7	14.4	3.00e-06	0	42	0	332398592	15	4541
2026-01-22 08:30:10.17	90.42	14.62	-27.7	-29.8	14.3	7.69e-04	0	42	0	335544320	15	4607
2026-01-22 08:30:11.17	90.27	14.69	-27.9	-30.2	14.1	2.20e-06	0	42	0	338690048	15	4710
2026-01-22 08:30:12.17	90.12	14.77	-27.6	-29.5	14.5	2.20e-06	0	42	0	341835776	15	4505
2026-01-22 08:30:13.18	89.97	14.84	-27.5	-29.3	14.6	0.00e+00	0	43	0	344981504	15	4419
2026-01-22 08:30:14.18	89.82	14.91	-27.4	-29.2	14.7	0.00e+00	0	42	0	348127232	15	4382
2026-01-22 08:30:15.18	89.66	14.99	-27.5	-29.2	14.7	0.00e+00	0	43	0	350224384	15	4380
2026-01-22 08:30:16.17	89.51	15.06	-27.4	-29.1	14.8	0.00e+00	0	42	0	353370112	15	4345
2026-01-22 08:30:17.17	89.36	15.14	-27.5	-29.2	14.7	0.00e+00	0	43	0	356515840	15	4393
2026-01-22 08:30:18.18	89.20	15.21	-27.5	-29.3	14.7	0.00e+00	0	42	0	359661568	15	4406
2026-01-22 08:30:19.18	89.04	15.28	-27.5	-29.3	14.7	0.00e+00	0	43	0	362807296	15	4422
2026-01-22 08:30:20.19	88.89	15.36	-27.7	-29.8	14.4	0.00e+00	0	43	0	367001600	15	4554
2026-01-22 08:30:21.19	88.73	15.43	-27.6	-29.4	14.6	7.00e-07	0	42	0	370147328	15	4457
2026-01-22 08:30:22.20	88.57	15.51	-27.5	-29.3	14.7	0.00e+00	0	43	0	372244480	15	4443
2026-01-22 08:30:23.20	88.41	15.58	-27.6	-29.4	14.7	0.00e+00	0	42	0	375390208	15	4447
2026-01-22 08:30:24.21	88.25	15.66	-27.6	-29.4	14.7	7.00e-07	0	43	0	378535936	15	4436
2026-01-22 08:30:25.21	88.09	15.73	-27.5	-29.4	14.7	1.76e-03	0	43	0	381681664	15	4439
2026-01-22 08:30:26.22	87.92	15.80	-27.6	-29.6	14.5	0.00e+00	0	43	0	384827392	15	4505
2026-01-22 08:30:27.23	87.76	15.88	-27.4	-29.1	14.8	0.00e+00	0	42	0	387973120	15	4349
2026-01-22 08:30:28.23	87.60	15.95	-27.4	-29.0	14.9	0.00e+00	0	42	0	391118848	15	4341
2026-01-22 08:30:29.23	87.43	16.03	-27.4	-29.0	14.9	7.78e-04	0	43	0	394264576	15	4329
2026-01-22 08:30:30.24	87.26	16.10	-27.5	-29.2	14.8	0.00e+00	0	43	0	397410304	15	4393
2026-01-22 08:30:31.24	87.10	16.17	-27.4	-29.0	14.9	0.00e+00	0	43	0	400556032	15	4343
2026-01-22 08:30:32.24	86.93	16.25	-27.5	-29.3	14.7	0.00e+00	0	43	0	403701760	15	4414
2026-01-22 08:30:33.25	86.76	16.32	-27.5	-29.3	14.7	7.00e-07	0	43	0	406847488	15	4421
2026-01-22 08:30:34.25	86.60	16.40	-27.5	-29.4	14.7	0.00e+00	0	43	0	409993216	15	4466
2026-01-22 08:30:35.25	86.43	16.47	-27.5	-29.2	14.8	0.00e+00	0	43	0	413138944	15	4386
2026-01-22 08:30:36.26	86.25	16.54	-27.5	-29.3	14.8	0.00e+00	0	43	0	416284672	15	4407
2026-01-22 08:30:37.26	86.08	16.62	-27.5	-29.3	14.8	7.00e-07	0	43	0	419430400	15	4405
2026-01-22 08:30:38.27	85.91	16.69	-27.3	-28.9	15.0	7.00e-07	0	43	0	422576128	15	4293
2026-01-22 08:30:39.28	85.74	16.77	-27.2	-28.7	15.1	0.00e+00	0	42	0	425721856	15	4235
2026-01-22 08:30:40.28	85.56	16.84	-27.2	-28.6	15.2	0.00e+00	0	43	0	428867584	15	4209
2026-01-22 08:30:41.28	85.39	16.91	-27.2	-28.7	15.1	0.00e+00	0	43	0	432013312	15	4235
2026-01-22 08:30:42.28	85.21	16.99	-27.2	-28.5	15.2	0.00e+00	0	43	0	435159040	15	4195
2026-01-22 08:30:43.28	85.04	17.06	-27.3	-28.7	15.1	0.00e+00	0	43	0	438304768	15	4238
2026-01-22 08:30:44.29	84.86	17.13	-27.4	-28.9	15.0	1.56e-04	0	43	0	441450496	15	4315
2026-01-22 08:30:45.29	84.68	17.21	-27.4	-28.9	15.0	0.00e+00	0	43	0	444596224	15	4306
2026-01-22 08:30:46.30	84.50	17.28	-27.3	-28.8	15.1	0.00e+00	0	43	0	447741952	15	4285
2026-01-22 08:30:47.30	84.32	17.35	-27.3	-28.7	15.1	0.00e+00	0	43	0	450887680	15	4248
2026-01-22 08:30:48.29	84.14	17.43	-27.1	-28.8	15.3	6.83e-04	0	43	0	454033408	14	4383
2026-01-22 08:30:49.30	83.96	17.50	-27.0	-28.6	15.5	0.00e+00	0	43	0	457179136	14	4316
2026-01-22 08:30:50.30	83.78	17.57	-26.9	-28.4	15.6	0.00e+00	0	43	0	460324864	14	4263
2026-01-22 08:30:51.31	83.59	17.64	-26.9	-28.4	15.6	0.00e+00	0	43	0	463470592	14	4269
2026-01-22 08:30:52.31	83.41	17.72	-26.9	-28.3	15.7	0.00e+00	0	42	0	466616320	14	4246
2026-01-22 08:30:53.31	83.22	17.79	-26.9	-28.3	15.6	0.00e+00	0	43	0	469762048	14	4262
2026-01-22 08:30:54.32	83.04	17.86	-26.9	-28.3	15.7	0.00e+00	0	43	0	472907776	14	4228
2026-01-22 08:30:55.32	82.85	17.94	-26.9	-28.4	15.6	0.00e+00	0	43	0	476053504	14	4275
2026-01-22 08:30:56.33	82.66	18.01	-26.9	-28.4	15.6	0.00e+00	0	43	0	479199232	14	4278
2026-01-22 08:30:57.33	82.47	18.08	-27.0	-28.7	15.5	0.00e+00	0	43	0	482344960	14	4357
2026-01-22 08:30:58.33	82.28	18.15	-27.1	-28.7	15.5	0.00e+00	0	43	0	485490688	14	4355
2026-01-22 08:30:59.33	82.09	18.22	-27.1	-28.9	15.4	7.00e-07	0	43	0	488636416	14	4395
2026-01-22 08:31:00.32	81.90	18.30	-27.0	-28.6	15.5	0.00e+00	0	43	0	491782144	14	4316
2026-01-22 08:31:01.32	81.71	18.37	-27.0	-28.6	15.5	0.00e+00	0	43	0	494927872	14	4323
2026-01-22 08:31:02.33	81.52	18.44	-27.1	-28.7	15.5	7.00e-07	0	43	0	498073600	14	4351
2026-01-22 08:31:03.33	81.32	18.51	-27.1	-28.9	15.4	3.47e-04	0	43	0	501219328	14	4397
2026-01-22 08:31:04.34	81.13	18.58	-27.3	-29.2	15.2	0.00e+00	0	43	0	504365056	14	4481
2026-01-22 08:31:05.34	80.93	18.65	-27.4	-29.5	15.0	0.00e+00	0	43	0	507510784	14	4594
2026-01-22 08:31:06.34	80.73	18.72	-27.4	-29.5	15.0	7.00e-07	0	43	0	510656512	14	4584
2026-01-22 08:31:07.35	80.54	18.80	-27.4	-29.4	15.1	0.00e+00	0	43	0	513802240	14	4563
2026-01-22 08:31:08.35	80.34	18.87	-27.3	-29.3	15.2	7.00e-07	0	43	0	516947968	14	4519
2026-01-22 08:31:09.35	80.14	18.94	-27.2	-29.1	15.3	0.00e+00	0	43	0	520093696	14	4470
2026-01-22 08:31:10.35	79.94	19.01	-27.3	-29.2	15.2	7.00e-07	0	43	0	523239424	14	4504
2026-01-22 08:31:11.35	79.74	19.08	-27.4	-29.4	15.1	5.30e-06	0	43	0	526385152	14	4560
2026-01-22 08:31:12.36	79.53	19.15	-27.5	-29.2	15.0	0.00e+00	0	43	0	529530880	15	4367
2026-01-22 08:31:13.37	79.33	19.22	-27.3	-28.7	15.2	0.00e+00	0	43	0	532676608	15	4248
2026-01-22 08:31:14.37	79.12	19.29	-27.2	-28.5	15.3	1.50e-06	0	43	0	535822336	15	4192
2026-01-22 08:31:15.37	78.92	19.36	-27.2	-28.5	15.4	0.00e+00	0	43	0	538968064	15	4191
2026-01-22 08:31:16.38	78.71	19.43	-27.0	-28.3	15.3	0.00e+00	0	43	0	542113792	15	4182
2026-01-22 08:31:17.39	78.50	19.50	-27.1	-28.4	15.4	0.00e+00	0	43	0	545259520	15	4151
2026-01-22 08:31:18.40	78.29	19.57	-27.1	-28.4	15.4	0.00e+00	0	43	0	548405248	15	4152
2026-01-22 08:31:19.40	78.08	19.64	-27.2	-28.5	15.4	0.00e+00	0	43	0	551550976	15	4184
2026-01-22 08:31:20.40	77.87	19.70	-27.2	-28.5	15.4	0.00e+00	0	43	0	554696704	15	4173
2026-01-22 08:31:21.40	77.66	19.77	-27.0	-28.1	15.6	0.00e+00	0	43	0	557842432	15	4069
2026-01-22 08:31:22.40	77.45	19.84	-27.1	-28.8	15.5	9.46e-05	0	43	0	560988160	14	4384
2026-01-22 08:31:23.40	77.24	19.91	-27.1	-28.9	15.5	6.10e-06	0	43	0	564133888	14	4389
2026-01-22 08:31:24.40	77.02	19.97	-27.1	-28.8	15.5	0.00e+00	0	43	0	567279616	14	4368
2026-01-22 08:31:25.41	76.81	20.04	-27.1	-28.8	15.5	0.00e+00	0	43	0	570425344	14	4370
2026-01-22 08:31:26.42	76.59	20.11	-27.2	-28.9	15.4	7.00e-07	0	43	0	573571072	14	4412
2026-01-22 08:31:27.43	76.37	20.18	-27.2	-29.0	15.4	0.00e+00	0	43	0	576716800	14	4426
2026-01-22 08:31:28.44	76.15	20.24	-27.0	-28.6	15.6	0.00e+00	0	43	0	579862528	14	4319
2026-01-22 08:31:29.45	75.93	20.31	-27.0	-28.5	15.7	0.00e+00	0	43	0	583008256	14	4277
2026-01-22 08:31:30.45	75.71	20.38	-27.0	-28.6	15.6	0.00e+00	0	43	0	586153984	14	4327
2026-01-22 08:31:31.46	75.49	20.44	-26.8	-28.5	15.5	0.00e+00	0	43	0	589299712	14	4343
2026-01-22 08:31:32.46	75.27	20.51	-27.2	-29.0	15.4	0.00e+00	0	43	0	592445440	14	4419
2026-01-22 08:31:33.46	75.05	20.57	-27.2	-29.0	15.4	0.00e+00	0	43	0	595591168	14	4422
2026-01-22 08:31:34.46	74.82	20.64	-27.0	-28.6	15.6	0.00e+00	0	43	0	598736896	14	4308
2026-01-22 08:31:35.46	74.60	20.70	-26.9	-28.4	15.7	0.00e+00	0	43	0	601882624	14	4265
2026-01-22 08:31:36.46	74.37	20.77	-27.0	-28.5	15.7	0.00e+00	0	43	0	605028352	14	4288
2026-01-22 08:31:37.47	74.15	20.83	-27.0	-28.6	15.7	0.00e+00	0	43	0	608174080	14	4305
2026-01-22 08:31:38.47	73.92	20.90	-27.0	-28.6	15.7	0.00e+00	0	43	0	611319808	14	4305
2026-01-22 08:31:39.46	73.69	20.96	-27.0	-28.6	15.6	0.00e+00	0	43	0	614465536	14	4317
2026-01-22 08:31:40.47	73.46	21.02	-26.8	-28.2	15.9	0.00e+00	0	43	0	617611264	14	4198
2026-01-22 08:31:41.47	73.23	21.09	-26.7	-27.9	16.0	0.00e+00	0	43	0	620756992	14	4130
2026-01-22 08:31:42.47	73.00	21.15	-26.8	-28.0	15.9	0.00e+00	0	43	0	623902720	14	4163
2026-01-22 08:31:43.48	72.77	21.21	-26.8	-28.0	16.0	0.00e+00	0	43	0	627048448	14	4154
2026-01-22 08:31:44.48	72.54	21.27	-26.8	-28.0	16.0	0.00e+00	0	43	0	630194176	14	4159
2026-01-22 08:31:45.48	72.30	21.33	-26.8	-28.0	16.0	0.00e+00	0	43	0	633339904	14	4154
2026-01-22 08:31:46.49	72.07	21.39	-26.7	-27.9	16.1	0.00e+00	0	43	0	636485632	14	4119
2026-01-22 08:31:47.49	71.83	21.46	-26.8	-28.0	16.0	0.00e+00	0	43	0	639631360	14	4143
2026-01-22 08:31:48.49	71.60	21.52	-26.8	-28.0	16.0	0.00e+00	0	43	0	642777088	14	4151
2026-01-22 08:31:49.49	71.36	21.58	-26.8	-28.0	16.0	0.00e+00	0	43	0	645922816	14	4146
2026-01-22 08:31:50.49	71.12	21.63	-26.5	-27.9	15.8	0.00e+00	0	43	0	649068544	14	4208
2026-01-22 08:31:51.50	70.88	21.69	-27.0	-28.5	15.7	0.00e+00	0	43	0	652214272	14	4288
2026-01-22 08:31:52.50	70.64	21.75	-27.0	-28.6	15.6	0.00e+00	0	43	0	655360000	14	4315
2026-01-22 08:31:53.51	70.40	21.81	-27.1	-28.7	15.6	0.00e+00	0	43	0	658505728	14	4327
2026-01-22 08:31:54.51	70.16	21.87	-27.2	-29.0	15.5	2.50e-04	0	43	0	661651456	14	4417
2026-01-22 08:31:55.51	69.91	21.93	-27.2	-28.9	15.5	0.00e+00	0	43	0	664797184	14	4398
2026-01-22 08:31:56.52	69.67	21.98	-27.2	-29.0	15.5	0.00e+00	0	43	0	667942912	14	4428
2026-01-22 08:31:57.52	69.42	22.04	-27.3	-29.2	15.3	0.00e+00	0	43	0	671088640	14	4494
2026-01-22 08:31:58.52	69.18	22.10	-27.2	-29.0	15.5	7.00e-07	0	43	0	673185792	14	4422
2026-01-22 08:31:59.53	68.93	22.15	-27.0	-28.6	15.7	0.00e+00	0	43	0	676331520	14	4304
2026-01-22 08:32:00.53	68.68	22.21	-27.0	-28.5	15.7	0.00e+00	0	43	0	679477248	14	4283
2026-01-22 08:32:01.54	68.43	22.26	-27.0	-28.5	15.7	0.00e+00	0	43	0	683671552	14	4281
2026-01-22 08:32:02.54	68.18	22.32	-27.1	-28.7	15.7	0.00e+00	0	43	0	686817280	14	4326
2026-01-22 08:32:03.55	67.93	22.37	-26.9	-28.4	15.8	0.00e+00	0	43	0	689963008	14	4263
2026-01-22 08:32:04.55	67.68	22.43	-26.8	-28.1	16.0	0.00e+00	0	43	0	693108736	14	4166
2026-01-22 08:32:05.56	67.43	22.48	-26.7	-27.9	16.1	0.00e+00	0	43	0	696254464	14	4135
2026-01-22 08:32:06.57	67.17	22.53	-26.7	-27.9	16.1	0.00e+00	0	43	0	698351616	14	4120
2026-01-22 08:32:07.57	66.92	22.58	-26.7	-27.7	16.2	0.00e+00	0	43	0	701497344	14	4074
2026-01-22 08:32:08.57	66.66	22.63	-26.7	-27.8	16.1	0.00e+00	0	43	0	704643072	14	4103
2026-01-22 08:32:09.58	66.41	22.69	-26.8	-28.0	16.0	0.00e+00	0	43	0	707788800	14	4145
2026-01-22 08:32:10.58	66.15	22.74	-26.8	-28.2	15.9	0.00e+00	0	43	0	710934528	14	4190
2026-01-22 08:32:11.59	65.89	22.79	-26.9	-28.3	15.9	0.00e+00	0	43	0	715128832	14	4240
2026-01-22 08:32:12.58	65.64	22.84	-27.0	-28.6	15.7	7.00e-07	0	43	0	718274560	14	4304
2026-01-22 08:32:13.59	65.38	22.88	-26.9	-28.4	15.8	2.33e-04	0	43	0	720371712	14	4270
2026-01-22 08:32:14.59	65.12	22.93	-26.9	-28.2	15.9	0.00e+00	0	43	0	723517440	14	4215
2026-01-22 08:32:15.59	64.86	22.98	-26.9	-28.4	15.8	0.00e+00	0	43	0	726663168	14	4256
2026-01-22 08:32:16.59	64.60	23.03	-27.0	-28.5	15.7	0.00e+00	0	43	0	729808896	14	4294
2026-01-22 08:32:17.59	64.34	23.07	-26.9	-28.4	15.9	0.00e+00	0	43	0	732954624	14	4240
2026-01-22 08:32:18.59	64.08	23.12	-26.8	-28.0	16.1	0.00e+00	0	43	0	736100352	14	4145
2026-01-22 08:32:19.60	63.81	23.17	-26.8	-28.1	16.0	0.00e+00	0	43	0	739246080	14	4184
2026-01-22 08:32:20.60	63.55	23.21	-26.8	-28.1	16.0	0.00e+00	0	43	0	742391808	14	4181
2026-01-22 08:32:21.60	63.28	23.26	-27.0	-28.5	15.8	0.00e+00	0	43	0	745537536	14	4270
2026-01-22 08:32:22.60	63.02	23.30	-26.9	-28.3	15.9	0.00e+00	0	43	0	748683264	14	4236
2026-01-22 08:32:23.60	62.75	23.34	-26.9	-28.2	16.0	0.00e+00	0	43	0	751828992	14	4195
2026-01-22 08:32:24.60	62.48	23.38	-26.8	-28.2	16.0	0.00e+00	0	43	0	754974720	14	4188
2026-01-22 08:32:25.60	62.22	23.43	-26.8	-28.2	16.0	0.00e+00	0	43	0	758120448	14	4189
2026-01-22 08:32:26.60	61.95	23.47	-26.8	-28.1	16.0	0.00e+00	0	43	0	761266176	14	4179
2026-01-22 08:32:27.59	61.68	23.51	-26.6	-27.7	16.2	0.00e+00	0	43	0	764411904	14	4066
2026-01-22 08:32:28.60	61.41	23.55	-26.5	-28.1	16.2	4.96e-04	0	43	0	767557632	13	4281
2026-01-22 08:32:29.60	61.14	23.59	-26.6	-28.1	16.2	0.00e+00	0	43	0	770703360	13	4286
2026-01-22 08:32:30.61	60.87	23.63	-26.7	-28.3	16.1	0.00e+00	0	43	0	773849088	13	4338
2026-01-22 08:32:31.62	60.59	23.67	-26.7	-28.3	16.2	0.00e+00	0	43	0	776994816	13	4333
2026-01-22 08:32:32.62	60.32	23.70	-26.6	-28.2	16.2	5.84e-04	0	43	0	780140544	13	4306
2026-01-22 08:32:33.63	60.05	23.74	-26.7	-28.4	16.1	0.00e+00	0	43	0	783286272	13	4374
2026-01-22 08:32:34.63	59.77	23.78	-26.7	-28.5	16.1	0.00e+00	0	43	0	786432000	13	4385
2026-01-22 08:32:35.63	59.50	23.81	-26.8	-28.6	16.0	0.00e+00	0	43	0	789577728	13	4420
2026-01-22 08:32:36.64	59.22	23.85	-26.8	-28.6	16.0	0.00e+00	0	43	0	792723456	13	4436
2026-01-22 08:32:37.64	58.95	23.88	-26.8	-28.7	16.0	0.00e+00	0	43	0	795869184	13	4441
2026-01-22 08:32:38.65	58.67	23.92	-26.8	-28.6	16.0	0.00e+00	0	43	0	799014912	13	4412
2026-01-22 08:32:39.64	58.39	23.95	-26.7	-28.4	16.1	0.00e+00	0	43	0	802160640	13	4382
2026-01-22 08:32:40.64	58.12	23.98	-26.8	-28.5	16.1	0.00e+00	0	43	0	805306368	13	4388
2026-01-22 08:32:41.65	57.84	24.01	-26.7	-28.2	16.2	0.00e+00	0	43	0	808452096	13	4319
2026-01-22 08:32:42.66	57.56	24.04	-26.6	-28.1	16.3	0.00e+00	0	43	0	811597824	13	4275
2026-01-22 08:32:43.66	57.28	24.07	-26.6	-28.2	16.3	0.00e+00	0	43	0	814743552	13	4295
2026-01-22 08:32:44.66	57.00	24.10	-26.7	-28.3	16.2	0.00e+00	0	43	0	817889280	13	4326
2026-01-22 08:32:45.66	56.72	24.13	-26.8	-28.5	16.0	0.00e+00	0	43	0	821035008	13	4398
2026-01-22 08:32:46.66	56.44	24.16	-26.7	-28.2	16.2	0.00e+00	0	43	0	824180736	13	4322
2026-01-22 08:32:47.67	56.16	24.19	-26.5	-27.8	16.4	0.00e+00	0	43	0	827326464	13	4206
2026-01-22 08:32:48.68	55.87	24.21	-26.5	-27.8	16.4	0.00e+00	0	43	0	830472192	13	4204
2026-01-22 08:32:49.67	55.59	24.24	-26.4	-27.7	16.5	0.00e+00	0	43	0	833617920	13	4184
2026-01-22 08:32:50.67	55.31	24.27	-26.5	-27.8	16.4	0.00e+00	0	43	0	836763648	13	4207
2026-01-22 08:32:51.67	55.03	24.29	-26.4	-27.6	16.5	0.00e+00	0	43	0	839909376	13	4158
2026-01-22 08:32:52.67	54.75	24.31	-26.3	-27.4	16.6	0.00e+00	0	43	0	843055104	13	4102
2026-01-22 08:32:53.67	54.46	24.34	-26.2	-27.3	16.7	0.00e+00	0	43	0	846200832	13	4063
2026-01-22 08:32:54.68	54.18	24.36	-26.2	-27.2	16.7	0.00e+00	0	43	0	849346560	13	4054
2026-01-22 08:32:55.68	53.89	24.38	-26.2	-27.1	16.8	0.00e+00	0	43	0	852492288	13	4027
2026-01-22 08:32:56.68	53.61	24.40	-26.2	-27.3	16.7	0.00e+00	0	43	0	855638016	13	4068
2026-01-22 08:32:57.69	53.32	24.42	-26.3	-27.5	16.6	1.44e-05	0	43	0	858783744	13	4112
2026-01-22 08:32:58.70	53.03	24.44	-26.4	-27.6	16.6	0.00e+00	0	43	0	861929472	13	4140
2026-01-22 08:32:59.71	52.74	24.46	-26.4	-27.7	16.5	0.00e+00	0	43	0	865075200	13	4178
2026-01-22 08:33:00.71	52.46	24.48	-26.5	-27.9	16.4	1.29e-05	0	43	0	868220928	13	4221
2026-01-22 08:33:01.71	52.17	24.49	-26.5	-28.0	16.3	0.00e+00	0	43	0	871366656	13	4241
2026-01-22 08:33:02.71	51.88	24.51	-26.6	-28.1	16.2	0.00e+00	0	43	0	874512384	13	4281
2026-01-22 08:33:03.72	51.59	24.52	-26.6	-28.2	16.2	0.00e+00	0	43	0	877658112	13	4298
2026-01-22 08:33:04.72	51.31	24.54	-26.5	-28.0	16.3	0.00e+00	0	43	0	880803840	13	4247
2026-01-22 08:33:05.73	51.02	24.55	-26.5	-27.9	16.3	0.00e+00	0	43	0	883949568	13	4240
2026-01-22 08:33:06.73	50.73	24.57	-26.7	-28.2	16.2	0.00e+00	0	43	0	887095296	13	4315
2026-01-22 08:33:07.73	50.44	24.58	-26.6	-28.2	16.2	0.00e+00	0	43	0	890241024	13	4313
2026-01-22 08:33:08.74	50.15	24.59	-26.7	-28.2	16.2	0.00e+00	0	43	0	893386752	13	4312
2026-01-22 08:33:09.75	49.86	24.60	-26.8	-28.6	16.0	0.00e+00	0	43	0	896532480	13	4404
2026-01-22 08:33:10.76	49.57	24.61	-26.7	-28.3	16.1	0.00e+00	0	43	0	899678208	13	4351
2026-01-22 08:33:11.77	49.28	24.62	-26.6	-28.1	16.3	0.00e+00	0	43	0	902823936	13	4289
2026-01-22 08:33:12.77	48.99	24.63	-26.7	-28.3	16.1	0.00e+00	0	43	0	905969664	13	4336
2026-01-22 08:33:13.78	48.70	24.63	-26.7	-28.3	16.2	0.00e+00	0	43	0	909115392	13	4343
2026-01-22 08:33:14.79	48.41	24.64	-26.7	-28.4	16.1	0.00e+00	0	43	0	912261120	13	4355
2026-01-22 08:33:15.79	48.12	24.65	-26.6	-28.1	16.3	0.00e+00	0	43	0	915406848	13	4291
2026-01-22 08:33:16.79	47.83	24.65	-26.3	-27.8	16.3	0.00e+00	0	43	0	918552576	13	4260
2026-01-22 08:33:17.79	47.54	24.66	-26.7	-28.2	16.2	0.00e+00	0	43	0	921698304	13	4311
2026-01-22 08:33:18.80	47.25	24.66	-26.6	-28.2	16.2	0.00e+00	0	43	0	924844032	13	4310
2026-01-22 08:33:19.80	46.96	24.66	-26.7	-28.3	16.2	0.00e+00	0	43	0	927989760	13	4331
2026-01-22 08:33:20.81	46.66	24.66	-26.7	-28.4	16.2	0.00e+00	0	43	0	931135488	13	4350
2026-01-22 08:33:21.82	46.37	24.67	-26.7	-28.3	16.1	0.00e+00	0	43	0	934281216	13	4337
2026-01-22 08:33:22.83	46.08	24.67	-26.9	-28.7	15.9	0.00e+00	0	43	0	937426944	13	4463
2026-01-22 08:33:23.83	45.79	24.67	-26.9	-28.7	16.0	0.00e+00	0	43	0	940572672	13	4450
2026-01-22 08:33:24.84	45.50	24.66	-26.8	-28.6	16.0	0.00e+00	0	43	0	943718400	13	4425
2026-01-22 08:33:25.85	45.21	24.66	-26.8	-28.6	16.0	0.00e+00	0	43	0	946864128	13	4420
2026-01-22 08:33:26.85	44.92	24.66	-27.0	-28.9	15.8	0.00e+00	0	43	0	950009856	13	4502
2026-01-22 08:33:27.85	44.63	24.66	-26.8	-28.1	16.0	0.00e+00	0	43	0	953155584	14	4176
2026-01-22 08:33:28.86	44.34	24.65	-26.8	-28.2	16.0	2.43e-04	0	43	0	956301312	14	4204
2026-01-22 08:33:29.86	44.05	24.65	-27.2	-28.9	15.6	0.00e+00	0	43	0	959447040	14	4402
2026-01-22 08:33:30.86	43.76	24.64	-27.1	-28.7	15.7	0.00e+00	0	43	0	962592768	14	4332
2026-01-22 08:33:31.87	43.47	24.63	-27.0	-28.4	15.9	0.00e+00	0	43	0	965738496	14	4254
2026-01-22 08:33:32.87	43.18	24.62	-26.8	-28.0	16.1	0.00e+00	0	43	0	968884224	14	4155
2026-01-22 08:33:33.88	42.89	24.62	-26.7	-27.8	16.2	0.00e+00	0	43	0	972029952	14	4087
2026-01-22 08:33:34.88	42.60	24.61	-26.6	-27.7	16.3	0.00e+00	0	43	0	975175680	14	4059
2026-01-22 08:33:35.88	42.31	24.60	-26.1	-27.4	16.3	0.00e+00	0	43	0	978321408	13	4218
2026-01-22 08:33:36.88	42.02	24.59	-26.3	-27.6	16.6	0.00e+00	0	43	0	981467136	13	4140
2026-01-22 08:33:37.89	41.73	24.57	-26.4	-27.7	16.5	0.00e+00	0	43	0	984612864	13	4169
2026-01-22 08:33:38.90	41.44	24.56	-26.6	-28.1	16.3	0.00e+00	0	43	0	987758592	13	4277
2026-01-22 08:33:39.90	41.15	24.55	-26.4	-27.6	16.5	0.00e+00	0	43	0	990904320	13	4150
2026-01-22 08:33:40.90	40.87	24.53	-26.2	-27.3	16.7	0.00e+00	0	43	0	994050048	13	4078
2026-01-22 08:33:41.91	40.58	24.52	-26.2	-27.2	16.8	0.00e+00	0	43	0	997195776	13	4036
2026-01-22 08:33:42.91	40.29	24.50	-26.2	-27.2	16.7	0.00e+00	0	43	0	1000341504	13	4052
2026-01-22 08:33:43.92	40.00	24.49	-26.3	-27.5	16.6	0.00e+00	0	43	0	1003487232	13	4118
2026-01-22 08:33:44.92	39.72	24.47	-26.4	-27.6	16.5	0.00e+00	0	43	0	1006632960	13	4144
2026-01-22 08:33:45.91	39.43	24.45	-26.5	-27.8	16.4	0.00e+00	0	43	0	1009778688	13	4204
2026-01-22 08:33:46.91	39.15	24.43	-26.5	-28.0	16.3	0.00e+00	0	43	0	1012924416	13	4250
2026-01-22 08:33:47.92	38.86	24.41	-26.5	-28.0	16.4	1.31e-04	0	43	0	1016070144	13	4248
2026-01-22 08:33:48.92	38.58	24.39	-26.4	-27.7	16.5	0.00e+00	0	43	0	1019215872	13	4173
2026-01-22 08:33:49.92	38.29	24.37	-26.4	-27.8	16.4	0.00e+00	0	43	0	1021313024	13	4190
2026-01-22 08:33:50.93	38.00	24.35	-26.6	-28.1	16.3	0.00e+00	0	43	0	1024458752	13	4279
2026-01-22 08:33:51.93	37.72	24.33	-26.5	-27.8	16.4	0.00e+00	0	43	0	1027604480	13	4206
2026-01-22 08:33:52.93	37.44	24.31	-26.3	-27.5	16.5	0.00e+00	0	43	0	1030750208	13	4123
2026-01-22 08:33:53.94	37.15	24.28	-26.4	-27.6	16.5	0.00e+00	0	43	0	1034944512	13	4149
2026-01-22 08:33:54.94	36.87	24.26	-26.4	-27.7	16.4	0.00e+00	0	43	0	1038090240	13	4181
2026-01-22 08:33:55.94	36.59	24.23	-26.6	-28.1	16.2	0.00e+00	0	43	0	1041235968	13	4290
2026-01-22 08:33:56.95	36.31	24.20	-26.5	-27.9	16.4	0.00e+00	0	43	0	1044381696	13	4228
2026-01-22 08:33:57.95	36.03	24.18	-26.6	-28.1	16.3	0.00e+00	0	43	0	1046478848	13	4277
2026-01-22 08:33:58.96	35.74	24.15	-26.6	-28.2	16.2	0.00e+00	0	43	0	1049624576	13	4305
2026-01-22 08:33:59.97	35.46	24.12	-26.8	-28.6	16.0	0.00e+00	0	43	0	1052770304	13	4417
2026-01-22 08:34:00.98	35.18	24.09	-26.9	-28.8	15.8	0.00e+00	0	43	0	1055916032	13	4490
2026-01-22 08:34:01.98	34.90	24.06	-26.9	-28.9	15.8	0.00e+00	0	43	0	1059061760	13	4503
2026-01-22 08:34:02.98	34.62	24.03	-26.9	-28.8	15.9	0.00e+00	0	43	0	1062207488	13	4490
2026-01-22 08:34:03.99	34.34	24.00	-26.9	-28.8	15.8	0.00e+00	0	43	0	1066401792	13	4489
2026-01-22 08:34:04.99	34.07	23.97	-27.1	-28.8	15.6	0.00e+00	0	43	0	1068498944	14	4357
2026-01-22 08:34:06.00	33.79	23.94	-27.3	-29.2	15.3	0.00e+00	0	43	0	1071644672	14	4484
2026-01-22 08:34:07.00	33.51	23.90	-27.0	-28.4	15.8	0.00e+00	0	43	0	1074790400	14	4267
2026-01-22 08:34:08.00	33.24	23.87	-26.8	-28.1	16.0	0.00e+00	0	43	0	1077936128	14	4171
2026-01-22 08:34:09.01	32.96	23.84	-26.8	-28.1	16.0	0.00e+00	0	43	0	1081081856	14	4166
2026-01-22 08:34:10.00	32.69	23.80	-26.8	-28.1	16.0	0.00e+00	0	43	0	1084227584	14	4182
2026-01-22 08:34:11.01	32.41	23.76	-26.8	-28.0	16.0	0.00e+00	0	43	0	1087373312	14	4152
2026-01-22 08:34:12.01	32.14	23.73	-26.8	-28.1	15.9	0.00e+00	0	43	0	1090519040	14	4182
2026-01-22 08:34:13.01	31.87	23.69	-26.9	-28.4	15.8	0.00e+00	0	43	0	1093664768	14	4254
2026-01-22 08:34:14.02	31.59	23.65	-26.8	-28.0	16.0	1.50e-06	0	43	0	1096810496	14	4155
2026-01-22 08:34:15.02	31.32	23.61	-26.7	-27.7	16.1	0.00e+00	0	43	0	1099956224	14	4079
2026-01-22 08:34:16.03	31.05	23.57	-26.1	-27.6	16.1	1.14e-05	0	43	0	1103101952	13	4275
2026-01-22 08:34:17.04	30.78	23.53	-26.6	-28.1	16.2	0.00e+00	0	43	0	1106247680	13	4282
2026-01-22 08:34:18.04	30.51	23.49	-26.6	-28.0	16.3	0.00e+00	0	43	0	1109393408	13	4259
2026-01-22 08:34:19.04	30.24	23.45	-26.7	-28.4	16.1	0.00e+00	0	43	0	1112539136	13	4360
2026-01-22 08:34:20.05	29.97	23.41	-26.7	-28.3	16.1	0.00e+00	0	43	0	1115684864	13	4342
2026-01-22 08:34:21.05	29.70	23.37	-26.8	-28.6	15.9	0.00e+00	0	43	0	1118830592	13	4427
2026-01-22 08:34:22.06	29.44	23.33	-26.7	-28.4	16.0	0.00e+00	0	43	0	1121976320	13	4379
2026-01-22 08:34:23.06	29.17	23.28	-26.8	-28.6	15.9	0.00e+00	0	43	0	1125122048	13	4411
2026-01-22 08:34:24.06	28.91	23.24	-26.8	-28.5	16.0	0.00e+00	0	43	0	1128267776	13	4385
2026-01-22 08:34:25.06	28.64	23.20	-26.8	-28.5	16.0	0.00e+00	0	43	0	1131413504	13	4410
2026-01-22 08:34:26.06	28.38	23.15	-26.9	-28.7	15.9	0.00e+00	0	43	0	1134559232	13	4450
2026-01-22 08:34:27.07	28.12	23.10	-26.8	-28.6	15.9	0.00e+00	0	43	0	1137704960	13	4410
2026-01-22 08:34:28.07	27.86	23.06	-26.8	-28.6	15.9	0.00e+00	0	43	0	1140850688	13	4427
2026-01-22 08:34:29.07	27.60	23.01	-26.8	-28.7	15.9	0.00e+00	0	43	0	1143996416	13	4437
2026-01-22 08:34:30.07	27.34	22.96	-26.7	-28.3	16.1	0.00e+00	0	43	0	1147142144	13	4329
2026-01-22 08:34:31.08	27.07	22.92	-26.6	-28.2	16.1	0.00e+00	0	43	0	1150287872	13	4313
2026-01-22 08:34:32.08	26.82	22.87	-26.8	-28.5	15.9	0.00e+00	0	43	0	1153433600	13	4400
2026-01-22 08:34:33.08	26.56	22.82	-26.7	-28.4	16.0	9.76e-05	0	43	0	1156579328	13	4364
2026-01-22 08:34:34.08	26.30	22.77	-26.9	-28.7	15.8	0.00e+00	0	43	0	1159725056	13	4463
2026-01-22 08:34:35.09	26.05	22.72	-26.6	-28.2	16.1	2.82e-05	0	43	0	1162870784	13	4318
2026-01-22 08:34:36.09	25.79	22.67	-26.6	-28.0	16.2	0.00e+00	0	43	0	1166016512	13	4265
2026-01-22 08:34:37.10	25.54	22.62	-26.6	-28.2	16.1	0.00e+00	0	43	0	1169162240	13	4328
2026-01-22 08:34:38.11	25.28	22.56	-26.7	-28.3	16.0	0.00e+00	0	43	0	1172307968	13	4333
2026-01-22 08:34:39.11	25.03	22.51	-26.7	-28.4	16.0	0.00e+00	0	43	0	1175453696	13	4379
2026-01-22 08:34:40.12	24.77	22.46	-26.8	-28.6	15.9	0.00e+00	0	43	0	1178599424	13	4430
2026-01-22 08:34:41.12	24.52	22.41	-26.8	-28.5	15.9	0.00e+00	0	43	0	1181745152	13	4409
2026-01-22 08:34:42.12	24.27	22.35	-26.8	-28.7	15.9	0.00e+00	0	43	0	1184890880	13	4445
2026-01-22 08:34:43.12	24.03	22.30	-26.8	-28.5	15.9	0.00e+00	0	43	0	1188036608	13	4402
2026-01-22 08:34:44.13	23.78	22.24	-26.8	-28.5	16.0	0.00e+00	0	43	0	1191182336	13	4392
2026-01-22 08:34:45.13	23.53	22.19	-26.6	-28.1	16.1	0.00e+00	0	43	0	1194328064	13	4289
2026-01-22 08:34:46.13	23.28	22.13	-26.7	-28.4	16.0	0.00e+00	0	43	0	1197473792	13	4368
2026-01-22 08:34:47.13	23.04	22.08	-27.0	-28.5	15.6	0.00e+00	0	43	0	1200619520	14	4294
2026-01-22 08:34:48.13	22.79	22.02	-26.9	-28.2	15.8	0.00e+00	0	43	0	1203765248	14	4204
2026-01-22 08:34:49.14	22.55	21.97	-26.8	-28.0	15.9	0.00e+00	0	43	0	1206910976	14	4161
2026-01-22 08:34:50.14	22.31	21.91	-26.8	-28.2	15.9	0.00e+00	0	43	0	1210056704	14	4201
2026-01-22 08:34:51.14	22.06	21.85	-26.9	-28.4	15.7	0.00e+00	0	43	0	1213202432	14	4252
2026-01-22 08:34:52.15	21.82	21.79	-26.9	-28.2	15.8	0.00e+00	0	43	0	1216348160	14	4208
2026-01-22 08:34:53.16	21.58	21.73	-26.9	-28.2	15.8	0.00e+00	0	43	0	1219493888	14	4209
2026-01-22 08:34:54.16	21.34	21.68	-26.9	-28.3	15.8	1.36e-04	0	43	0	1222639616	14	4227
2026-01-22 08:34:55.17	21.10	21.62	-26.9	-28.3	15.7	0.00e+00	0	43	0	1225785344	14	4232
2026-01-22 08:34:56.17	20.86	21.56	-26.6	-27.7	16.0	0.00e+00	0	43	0	1228931072	14	4072
2026-01-22 08:34:57.16	20.63	21.50	-26.6	-27.5	16.2	0.00e+00	0	43	0	1232076800	14	4032
2026-01-22 08:34:58.16	20.40	21.44	-26.7	-27.8	16.0	0.00e+00	0	43	0	1235222528	14	4094
2026-01-22 08:34:59.16	20.16	21.38	-26.8	-28.1	15.9	0.00e+00	0	43	0	1238368256	14	4173
2026-01-22 08:35:00.17	19.93	21.32	-26.9	-28.4	15.7	0.00e+00	0	43	0	1241513984	14	4248
2026-01-22 08:35:01.17	19.69	21.25	-26.9	-28.2	15.8	0.00e+00	0	43	0	1244659712	14	4212
2026-01-22 08:35:02.17	19.46	21.19	-26.9	-28.4	15.7	0.00e+00	0	43	0	1247805440	14	4256
2026-01-22 08:35:03.17	19.23	21.13	-26.8	-28.1	15.9	0.00e+00	0	43	0	1250951168	14	4184
2026-01-22 08:35:04.18	19.00	21.07	-26.8	-28.0	15.9	0.00e+00	0	43	0	1254096896	14	4148
2026-01-22 08:35:05.18	18.77	21.01	-26.8	-28.1	15.9	0.00e+00	0	43	0	1257242624	14	4164
2026-01-22 08:35:06.20	18.54	20.94	-26.6	-27.5	16.2	0.00e+00	0	43	0	1260388352	14	4025
2026-01-22 08:35:07.20	18.31	20.88	-26.7	-27.8	16.0	0.00e+00	0	43	0	1263534080	14	4098
2026-01-22 08:35:08.21	18.09	20.81	-26.9	-28.4	15.7	0.00e+00	0	43	0	1266679808	14	4248
2026-01-22 08:35:09.21	17.86	20.75	-26.9	-28.3	15.8	0.00e+00	0	43	0	1269825536	14	4227
2026-01-22 08:35:10.21	17.64	20.69	-27.2	-29.0	15.4	0.00e+00	0	43	0	1272971264	14	4429
2026-01-22 08:35:11.21	17.41	20.62	-27.0	-28.6	15.6	0.00e+00	0	43	0	1276116992	14	4320
2026-01-22 08:35:12.21	17.19	20.56	-27.1	-28.8	15.5	0.00e+00	0	43	0	1279262720	14	4379
2026-01-22 08:35:13.22	16.97	20.49	-27.1	-28.8	15.5	0.00e+00	0	43	0	1282408448	14	4362
2026-01-22 08:35:14.22	16.75	20.43	-27.2	-28.9	15.4	0.00e+00	0	43	0	1285554176	14	4400
2026-01-22 08:35:15.23	16.53	20.36	-27.1	-28.8	15.5	0.00e+00	0	43	0	1288699904	14	4373
2026-01-22 08:35:16.22	16.31	20.29	-27.1	-28.7	15.5	0.00e+00	0	43	0	1291845632	14	4351
2026-01-22 08:35:17.23	16.09	20.23	-27.0	-28.6	15.6	0.00e+00	0	43	0	1294991360	14	4313
2026-01-22 08:35:18.24	15.88	20.16	-27.1	-28.7	15.5	0.00e+00	0	43	0	1298137088	14	4355
2026-01-22 08:35:19.24	15.66	20.09	-27.1	-28.7	15.5	0.00e+00	0	43	0	1301282816	14	4354
2026-01-22 08:35:20.25	15.44	20.03	-27.2	-29.1	15.3	0.00e+00	0	43	0	1304428544	14	4441
2026-01-22 08:35:21.25	15.23	19.96	-27.0	-28.6	15.6	0.00e+00	0	43	0	1307574272	14	4307
2026-01-22 08:35:22.25	15.02	19.89	-26.8	-28.1	15.6	0.00e+00	0	43	0	1310720000	14	4179
2026-01-22 08:35:23.26	14.80	19.82	-26.6	-27.7	16.0	0.00e+00	0	43	0	1313865728	14	4074
2026-01-22 08:35:24.26	14.59	19.76	-26.6	-27.6	16.0	0.00e+00	0	43	0	1317011456	14	4037
2026-01-22 08:35:25.26	14.38	19.69	-26.6	-27.7	15.9	0.00e+00	0	43	0	1320157184	14	4084
2026-01-22 08:35:26.26	14.18	19.62	-26.7	-28.0	15.8	0.00e+00	0	43	0	1323302912	14	4138
2026-01-22 08:35:27.27	13.97	19.55	-26.7	-27.9	15.8	0.00e+00	0	43	0	1326448640	14	4125
2026-01-22 08:35:28.27	13.76	19.48	-26.8	-28.2	15.7	0.00e+00	0	43	0	1329594368	14	4203
2026-01-22 08:35:29.27	13.55	19.41	-26.8	-28.2	15.7	0.00e+00	0	43	0	1332740096	14	4207
2026-01-22 08:35:30.28	13.35	19.34	-27.0	-28.5	15.5	2.02e-04	0	43	0	1335885824	14	4289
2026-01-22 08:35:31.28	13.14	19.27	-27.0	-28.5	15.6	0.00e+00	0	43	0	1339031552	14	4282
2026-01-22 08:35:32.29	12.94	19.20	-27.0	-28.5	15.5	0.00e+00	0	43	0	1342177280	14	4291
2026-01-22 08:35:33.29	12.74	19.13	-26.8	-28.2	15.8	0.00e+00	0	43	0	1345323008	14	4205
2026-01-22 08:35:34.29	12.54	19.06	-26.7	-27.9	15.9	0.00e+00	0	43	0	1348468736	14	4121
2026-01-22 08:35:35.30	12.33	18.99	-26.7	-27.8	15.9	0.00e+00	0	43	0	1351614464	14	4105
2026-01-22 08:35:36.30	12.14	18.92	-26.7	-27.8	15.9	0.00e+00	0	43	0	1354760192	14	4103
2026-01-22 08:35:37.30	11.94	18.85	-26.5	-27.5	16.0	0.00e+00	0	43	0	1357905920	14	4036
2026-01-22 08:35:38.30	11.74	18.78	-26.5	-27.5	16.1	0.00e+00	0	43	0	1361051648	14	4019
2026-01-22 08:35:39.30	11.54	18.71	-26.6	-27.6	16.0	0.00e+00	0	43	0	1364197376	14	4044
2026-01-22 08:35:40.31	11.35	18.64	-26.6	-28.2	15.9	7.00e-07	0	43	0	1367343104	13	4320
2026-01-22 08:35:41.31	11.15	18.57	-26.7	-28.5	15.8	3.79e-04	0	43	0	1369440256	13	4390
2026-01-22 08:35:42.32	10.96	18.50	-26.8	-28.6	15.8	0.00e+00	0	43	0	1372585984	13	4420
2026-01-22 08:35:43.32	10.76	18.43	-26.9	-28.8	15.7	0.00e+00	0	43	0	1375731712	13	4493
2026-01-22 08:35:44.32	10.57	18.36	-26.8	-28.7	15.7	0.00e+00	0	43	0	1378877440	13	4460
2026-01-22 08:35:45.32	10.38	18.28	-26.9	-28.9	15.6	0.00e+00	0	43	0	1382023168	13	4508
2026-01-22 08:35:46.33	10.19	18.21	-26.9	-28.9	15.4	0.00e+00	0	43	0	1385168896	13	4514
2026-01-22 08:35:47.33	10.00	18.14	-26.9	-28.7	15.5	0.00e+00	0	43	0	1388314624	13	4464
2026-01-22 08:35:48.34	9.81	18.07	-27.0	-29.0	15.3	0.00e+00	0	43	0	1392508928	13	4534
2026-01-22 08:35:49.33	9.63	18.00	-27.2	-29.0	15.1	0.00e+00	0	43	0	1394606080	14	4425
2026-01-22 08:35:50.33	9.44	17.93	-27.3	-29.3	14.9	0.00e+00	0	43	0	1397751808	14	4524
2026-01-22 08:35:51.33	9.25	17.85	-27.2	-28.9	15.1	0.00e+00	0	43	0	1400897536	14	4407
2026-01-22 08:35:52.33	9.07	17.78	-27.1	-28.8	15.2	0.00e+00	0	43	0	1404043264	14	4368
2026-01-22 08:35:53.34	8.88	17.71	-27.1	-28.8	15.2	0.00e+00	0	43	0	1407188992	14	4380
2026-01-22 08:35:54.35	8.70	17.64	-27.3	-29.2	15.0	0.00e+00	0	43	0	1410334720	14	4479
2026-01-22 08:35:55.35	8.52	17.56	-27.4	-29.5	14.8	7.00e-07	0	43	0	1413480448	14	4566
2026-01-22 08:35:56.35	8.34	17.49	-27.3	-29.4	14.8	0.00e+00	0	43	0	1416626176	14	4544
2026-01-22 08:35:57.36	8.16	17.42	-27.4	-29.5	14.7	7.00e-07	0	43	0	1419771904	14	4574
2026-01-22 08:35:58.37	7.97	17.34	-27.2	-29.1	14.9	0.00e+00	0	43	0	1422917632	14	4460
2026-01-22 08:35:59.38	7.79	17.27	-27.2	-29.0	14.9	7.00e-07	0	43	0	1426063360	14	4449
2026-01-22 08:36:00.37	7.62	17.20	-27.2	-29.0	14.9	0.00e+00	0	43	0	1429209088	14	4438
2026-01-22 08:36:01.38	7.44	17.12	-27.2	-29.0	14.9	0.00e+00	0	43	0	1432354816	14	4447
2026-01-22 08:36:02.38	7.27	17.05	-27.3	-29.3	14.9	0.00e+00	0	43	0	1435500544	14	4515
2026-01-22 08:36:03.38	7.09	16.98	-27.2	-28.9	15.1	0.00e+00	0	43	0	1438646272	14	4411
2026-01-22 08:36:04.38	6.92	16.91	-27.2	-28.9	15.1	0.00e+00	0	43	0	1441792000	14	4410
2026-01-22 08:36:05.38	6.74	16.83	-27.2	-29.0	15.1	0.00e+00	0	43	0	1444937728	14	4429
2026-01-22 08:36:06.38	6.57	16.76	-27.2	-29.1	15.1	0.00e+00	0	43	0	1448083456	14	4459
2026-01-22 08:36:07.38	6.40	16.69	-27.3	-29.2	15.1	0.00e+00	0	43	0	1451229184	14	4485
2026-01-22 08:36:08.38	6.23	16.61	-27.3	-29.2	15.0	5.26e-05	0	43	0	1454374912	14	4500
2026-01-22 08:36:09.39	6.06	16.54	-26.8	-28.8	14.9	0.00e+00	0	43	0	1457520640	14	4509
2026-01-22 08:36:10.39	5.89	16.46	-27.4	-29.5	14.9	0.00e+00	0	43	0	1460666368	14	4570
2026-01-22 08:36:11.40	5.72	16.39	-27.4	-29.5	14.8	0.00e+00	0	43	0	1463812096	14	4591
2026-01-22 08:36:12.40	5.55	16.32	-27.4	-29.5	14.9	0.00e+00	0	43	0	1466957824	14	4576
2026-01-22 08:36:13.40	5.39	16.24	-27.4	-29.4	15.0	0.00e+00	0	43	0	1470103552	14	4546
2026-01-22 08:36:14.41	5.22	16.17	-27.4	-29.5	14.9	0.00e+00	0	43	0	1473249280	14	4569
2026-01-22 08:36:15.41	5.06	16.10	-27.4	-29.4	14.9	7.00e-07	0	43	0	1476395008	14	4563
2026-01-22 08:36:16.41	4.89	16.02	-27.5	-29.2	14.7	0.00e+00	0	43	0	1479540736	15	4379
2026-01-22 08:36:17.41	4.73	15.95	-27.4	-28.9	14.8	1.50e-06	0	43	0	1482686464	15	4305
2026-01-22 08:36:18.42	4.57	15.88	-27.3	-28.8	14.8	0.00e+00	0	43	0	1485832192	15	4284
2026-01-22 08:36:19.43	4.40	15.80	-27.4	-28.9	14.7	0.00e+00	0	43	0	1488977920	15	4305
2026-01-22 08:36:20.43	4.24	15.73	-27.4	-28.9	14.7	7.00e-07	0	43	0	1492123648	15	4298
2026-01-22 08:36:21.43	4.08	15.65	-27.3	-28.8	14.7	0.00e+00	0	43	0	1495269376	15	4269
2026-01-22 08:36:22.44	3.92	15.58	-27.3	-28.9	14.7	0.00e+00	0	43	0	1498415104	15	4284
2026-01-22 08:36:23.44	3.76	15.51	-27.4	-28.9	14.6	1.50e-06	0	43	0	1501560832	15	4306
2026-01-22 08:36:24.45	3.60	15.43	-27.3	-28.8	14.7	0.00e+00	0	43	0	1504706560	15	4277
2026-01-22 08:36:25.46	3.45	15.36	-27.4	-28.9	14.7	0.00e+00	0	43	0	1507852288	15	4300
2026-01-22 08:36:26.46	3.29	15.28	-27.4	-29.1	14.6	0.00e+00	0	43	0	1510998016	15	4346
2026-01-22 08:36:27.47	3.13	15.21	-27.6	-29.4	14.5	2.65e-04	0	43	0	1514143744	15	4436
2026-01-22 08:36:28.48	2.98	15.14	-27.6	-29.5	14.4	1.63e-04	0	43	0	1517289472	15	4472
2026-01-22 08:36:29.48	2.83	15.06	-27.6	-29.4	14.5	1.50e-06	0	43	0	1520435200	15	4453
2026-01-22 08:36:30.49	2.67	14.99	-27.6	-29.4	14.5	2.20e-06	0	43	0	1523580928	15	4448
2026-01-22 08:36:31.50	2.52	14.91	-27.5	-29.2	14.6	0.00e+00	0	43	0	1526726656	15	4392
2026-01-22 08:36:32.50	2.37	14.84	-27.5	-29.3	14.6	1.50e-06	0	43	0	1529872384	15	4427
2026-01-22 08:36:33.50	2.22	14.77	-27.6	-29.5	14.5	7.00e-07	0	43	0	1533018112	15	4473
2026-01-22 08:36:34.51	2.07	14.69	-27.6	-29.4	14.5	1.50e-06	0	43	0	1536163840	15	4441
2026-01-22 08:36:35.51	1.92	14.62	-27.4	-29.0	14.7	0.00e+00	0	43	0	1539309568	15	4331
2026-01-22 08:36:36.51	1.77	14.55	-27.4	-29.0	14.6	0.00e+00	0	43	0	1542455296	15	4343
2026-01-22 08:36:37.51	1.62	14.47	-27.5	-29.2	14.6	0.00e+00	0	43	0	1545601024	15	4377
2026-01-22 08:36:38.51	1.48	14.40	-27.6	-29.5	14.5	1.50e-06	0	43	0	1548746752	15	4471
2026-01-22 08:36:39.52	1.33	14.32	-27.7	-29.7	14.3	0.00e+00	0	43	0	1551892480	15	4535
2026-01-22 08:36:40.53	1.18	14.25	-27.8	-30.0	14.2	7.00e-07	0	43	0	1555038208	15	4609
2026-01-22 08:36:41.54	1.04	14.18	-27.9	-30.1	14.1	7.00e-07	0	43	0	1558183936	15	4667
2026-01-22 08:36:42.54	0.89	14.10	-27.8	-30.0	14.2	7.00e-07	0	43	0	1561329664	15	4611
2026-01-22 08:36:43.55	0.75	14.03	-27.8	-30.0	14.2	3.80e-06	0	43	0	1564475392	15	4638
2026-01-22 08:36:44.55	0.61	13.96	-27.8	-30.1	14.1	7.00e-07	0	43	0	1567621120	15	4649
2026-01-22 08:36:45.56	0.46	13.88	-27.9	-30.1	14.1	4.50e-06	0	43	0	1570766848	15	4679
2026-01-22 08:36:46.57	0.32	13.81	-27.8	-30.1	14.1	3.64e-04	0	43	0	1573912576	15	4667
2026-01-22 08:36:47.57	0.18	13.74	-27.8	-30.0	14.2	1.75e-04	0	43	0	1577058304	15	4624
2026-01-22 08:36:48.57	0.04	13.66	-27.7	-29.8	14.3	2.20e-06	0	43	0	1580204032	15	4583
2026-01-22 08:36:49.58	359.90	13.59	-27.8	-30.0	14.1	0.00e+00	0	43	0	1583349760	15	4646
2026-01-22 08:36:50.58	359.76	13.52	-27.8	-30.0	14.2	2.20e-06	0	43	0	1586495488	15	4628
2026-01-22 08:36:51.58	359.63	13.44	-27.6	-29.5	14.4	7.00e-07	0	43	0	1589641216	15	4491
2026-01-22 08:36:52.58	359.49	13.37	-27.6	-29.5	14.5	0.00e+00	0	43	0	1592786944	15	4475
2026-01-22 08:36:53.59	359.35	13.30	-27.6	-29.6	14.4	1.50e-06	0	43	0	1595932672	15	4511
2026-01-22 08:36:54.58	359.22	13.23	-27.8	-29.9	14.2	1.50e-06	0	43	0	1599078400	15	4591
2026-01-22 08:36:55.58	359.08	13.15	-27.8	-30.1	14.1	7.00e-07	0	43	0	1602224128	15	4653
2026-01-22 08:36:56.58	358.95	13.08	-27.9	-30.3	14.0	2.20e-06	0	43	0	1605369856	15	4728
2026-01-22 08:36:57.58	358.82	13.01	-28.2	-30.3	13.8	4.50e-06	0	43	0	1608515584	16	4608
2026-01-22 08:36:58.59	358.68	12.94	-28.3	-30.6	13.7	6.80e-06	0	43	0	1611661312	16	4701
2026-01-22 08:36:59.59	358.55	12.86	-28.3	-30.7	13.6	9.90e-06	0	43	0	1614807040	16	4720
2026-01-22 08:37:00.60	358.42	12.79	-28.3	-30.7	13.6	7.60e-06	0	43	0	1617952768	16	4733
2026-01-22 08:37:01.60	358.29	12.72	-28.4	-30.8	13.5	5.30e-06	0	43	0	1621098496	16	4774
2026-01-22 08:37:02.61	358.16	12.65	-28.3	-30.6	13.6	6.10e-06	0	43	0	1624244224	16	4699
2026-01-22 08:37:03.61	358.03	12.57	-28.1	-30.2	13.9	3.80e-06	0	43	0	1627389952	16	4562
2026-01-22 08:37:04.61	357.90	12.50	-28.0	-29.9	14.1	7.00e-07	0	43	0	1630535680	16	4474
2026-01-22 08:37:05.62	357.77	12.43	-28.0	-29.9	14.0	1.50e-06	0	43	0	1633681408	16	4486
2026-01-22 08:37:06.62	357.64	12.36	-27.9	-29.8	14.1	1.50e-06	0	43	0	1636827136	16	4444
2026-01-22 08:37:07.62	357.52	12.28	-27.9	-29.7	14.2	7.00e-07	0	43	0	1639972864	16	4419
2026-01-22 08:37:08.61	357.39	12.21	-27.9	-29.8	14.1	1.50e-06	0	43	0	1643118592	16	4441
2026-01-22 08:37:09.61	357.27	12.14	-27.9	-29.8	14.1	7.00e-07	0	43	0	1646264320	16	4451
2026-01-22 08:37:10.61	357.14	12.07	-27.9	-29.7	14.1	3.80e-06	0	43	0	1649410048	16	4429
2026-01-22 08:37:11.61	357.02	12.00	-28.0	-29.9	14.0	1.50e-06	0	43	0	1652555776	16	4488
2026-01-22 08:37:12.61	356.90	11.93	-28.1	-30.1	13.9	3.00e-06	0	43	0	1655701504	16	4534
2026-01-22 08:37:13.62	356.77	11.86	-28.1	-30.1	13.8	5.30e-06	0	43	0	1658847232	16	4535
2026-01-22 08:37:14.63	356.65	11.78	-28.1	-30.2	13.8	8.30e-06	0	43	0	1661992960	16	4585
2026-01-22 08:37:15.63	356.53	11.71	-28.2	-30.3	13.7	3.08e-04	0	43	0	1665138688	16	4616
2026-01-22 08:37:16.63	356.41	11.64	-28.2	-30.5	13.6	1.14e-05	0	43	0	1668284416	16	4665
2026-01-22 08:37:17.63	356.29	11.57	-28.2	-30.4	13.6	1.60e-05	0	43	0	1670381568	16	4625
2026-01-22 08:37:18.64	356.16	11.50	-28.2	-30.3	13.7	6.10e-06	0	43	0	1674575872	16	4618
2026-01-22 08:37:19.65	356.04	11.43	-28.2	-30.5	13.6	7.60e-06	0	43	0	1677721600	16	4664
2026-01-22 08:37:20.65	355.93	11.36	-28.1	-30.2	13.7	7.60e-06	0	43	0	1680867328	16	4582
2026-01-22 08:37:21.65	355.81	11.29	-27.9	-29.7	14.0	2.20e-06	0	43	0	1684013056	16	4425
2026-01-22 08:37:22.66	355.69	11.21	-27.8	-29.5	14.1	1.50e-06	0	43	0	1687158784	16	4370
2026-01-22 08:37:23.66	355.57	11.14	-27.9	-29.6	14.1	2.20e-06	0	43	0	1690304512	16	4394
2026-01-22 08:37:24.66	355.46	11.07	-27.7	-29.3	14.3	1.89e-04	0	43	0	1692401664	16	4297
2026-01-22 08:37:25.66	355.34	11.00	-27.4	-29.1	14.4	1.50e-06	0	43	0	1695547392	15	4381
2026-01-22 08:37:26.67	355.22	10.93	-27.4	-29.1	14.5	7.00e-07	0	43	0	1698693120	15	4361
2026-01-22 08:37:27.67	355.11	10.86	-27.5	-29.3	14.3	2.20e-06	0	43	0	1701838848	15	4433
2026-01-22 08:37:28.67	355.00	10.79	-27.7	-29.8	14.1	7.00e-07	0	43	0	1704984576	15	4571
2026-01-22 08:37:29.66	354.88	10.72	-27.8	-29.9	14.0	5.30e-06	0	43	0	1708130304	15	4608
2026-01-22 08:37:30.67	354.77	10.65	-27.9	-30.3	13.8	2.20e-06	0	43	0	1711276032	15	4744
2026-01-22 08:37:31.68	354.66	10.58	-28.2	-30.5	13.6	7.60e-06	0	43	0	1714421760	16	4665
2026-01-22 08:37:32.69	354.54	10.51	-28.4	-30.8	13.4	1.52e-05	0	43	0	1717567488	16	4783
2026-01-22 08:37:33.69	354.43	10.44	-28.4	-30.9	13.3	1.90e-05	0	43	0	1720713216	16	4826
2026-01-22 08:37:34.69	354.32	10.37	-28.6	-30.9	13.0	2.74e-04	0	43	0	1723858944	17	4692
2026-01-22 08:37:35.70	354.21	10.30	-28.9	-31.6	12.6	8.16e-05	0	43	0	1727004672	17	4920
2026-01-22 08:37:36.71	354.10	10.23	-28.8	-31.5	12.6	1.17e-04	0	43	0	1730150400	17	4902
2026-01-22 08:37:37.71	353.99	10.16	-28.7	-31.2	12.8	6.63e-05	0	43	0	1733296128	17	4785
2026-01-22 08:37:38.72	353.88	10.09	-28.6	-31.0	12.9	4.88e-05	0	43	0	1736441856	17	4736
2026-01-22 08:37:39.72	353.77	10.02	-28.6	-31.0	12.9	4.95e-05	0	43	0	1739587584	17	4732
2026-01-22 08:37:40.73	353.66	9.95	-28.5	-30.7	13.0	3.58e-05	0	43	0	1742733312	17	4645
2026-01-22 08:37:41.73	353.56	9.89	-28.6	-30.9	12.9	4.42e-05	0	43	0	1745879040	17	4706
2026-01-22 08:37:42.74	353.45	9.82	-28.4	-30.5	13.1	3.66e-05	0	43	0	1749024768	17	4579
2026-01-22 08:37:43.73	353.34	9.75	-28.2	-30.6	13.4	3.55e-04	0	43	0	1752170496	16	4702
2026-01-22 08:37:44.73	353.24	9.68	-28.2	-30.5	13.4	6.80e-06	0	43	0	1755316224	16	4693
2026-01-22 08:37:45.73	353.13	9.61	-28.4	-30.8	13.3	1.37e-05	0	43	0	1758461952	16	4779
2026-01-22 08:37:46.73	353.03	9.54	-28.2	-30.5	13.5	2.44e-05	0	43	0	1761607680	16	4676
2026-01-22 08:37:47.73	352.93	9.47	-28.1	-30.3	13.6	6.10e-06	0	43	0	1764753408	16	4614
2026-01-22 08:37:48.74	352.82	9.40	-28.3	-30.6	13.4	9.90e-06	0	43	0	1767899136	16	4725
2026-01-22 08:37:49.74	352.72	9.34	-28.3	-30.7	13.4	1.29e-05	0	43	0	1771044864	16	4741
2026-01-22 08:37:50.75	352.62	9.27	-28.3	-30.6	13.4	2.21e-05	0	43	0	1774190592	16	4723
2026-01-22 08:37:51.75	352.51	9.20	-28.3	-30.8	13.3	2.13e-05	0	43	0	1777336320	16	4786
2026-01-22 08:37:52.76	352.41	9.13	-28.3	-30.9	13.2	2.59e-05	0	43	0	1780482048	16	4817
2026-01-22 08:37:53.76	352.31	9.06	-28.6	-31.0	12.9	2.44e-05	0	43	0	1783627776	17	4728
2026-01-22 08:37:54.77	352.21	9.00	-28.6	-30.9	12.9	6.02e-05	0	43	0	1786773504	17	4715
2026-01-22 08:37:55.77	352.11	8.93	-28.5	-30.8	13.0	2.97e-05	0	43	0	1789919232	17	4659
2026-01-22 08:37:56.77	352.01	8.86	-28.5	-30.8	12.9	3.73e-05	0	43	0	1793064960	17	4675
2026-01-22 08:37:57.77	351.91	8.79	-28.7	-31.1	12.7	6.79e-05	0	43	0	1796210688	17	4782
2026-01-22 08:37:58.77	351.81	8.73	-28.7	-31.2	12.7	6.79e-05	0	43	0	1799356416	17	4797
2026-01-22 08:37:59.77	351.71	8.66	-28.8	-31.4	12.6	8.39e-05	0	43	0	1802502144	17	4859
2026-01-22 08:38:00.77	351.62	8.59	-28.8	-31.5	12.5	1.17e-04	0	43	0	1805647872	17	4916
2026-01-22 08:38:01.77	351.52	8.52	-28.8	-31.4	12.6	1.07e-04	0	43	0	1808793600	17	4862
2026-01-22 08:38:02.78	351.42	8.46	-28.7	-31.3	12.6	9.70e-04	0	44	0	1811939328	17	4869
2026-01-22 08:38:03.78	351.33	8.39	-28.7	-31.2	12.6	7.55e-05	0	44	0	1815085056	17	4821
2026-01-22 08:38:04.79	351.23	8.32	-28.8	-31.4	12.5	1.11e-04	0	43	0	1818230784	17	4889
2026-01-22 08:38:05.79	351.13	8.26	-28.7	-31.2	12.7	9.53e-05	0	43	0	1821376512	17	4809
2026-01-22 08:38:06.80	351.04	8.19	-28.7	-31.3	12.6	8.46e-05	0	43	0	1824522240	17	4828
2026-01-22 08:38:07.79	350.95	8.12	-28.8	-31.5	12.4	1.29e-04	0	43	0	1827667968	17	4924
2026-01-22 08:38:08.80	350.85	8.06	-28.7	-31.3	12.6	1.22e-04	0	43	0	1830813696	17	4844
2026-01-22 08:38:09.80	350.76	7.99	-28.6	-31.0	12.8	6.86e-05	0	43	0	1833959424	17	4730
2026-01-22 08:38:10.80	350.66	7.92	-28.5	-30.7	12.9	4.57e-05	0	44	0	1837105152	17	4637
2026-01-22 08:38:11.81	350.57	7.86	-28.5	-30.8	12.9	3.43e-05	0	43	0	1840250880	17	4666
2026-01-22 08:38:12.82	350.48	7.79	-28.5	-30.8	12.9	4.57e-05	0	43	0	1843396608	17	4680
2026-01-22 08:38:13.82	350.39	7.73	-28.6	-30.9	12.8	5.03e-05	0	43	0	1846542336	17	4721
2026-01-22 08:38:14.82	350.29	7.66	-28.5	-30.8	12.8	6.33e-05	0	44	0	1849688064	17	4693
2026-01-22 08:38:15.83	350.20	7.59	-28.6	-30.9	12.8	4.11e-05	0	43	0	1852833792	17	4704
2026-01-22 08:38:16.83	350.11	7.53	-28.6	-31.1	12.7	5.95e-05	0	43	0	1855979520	17	4766
2026-01-22 08:38:17.83	350.02	7.46	-28.7	-31.2	12.6	9.30e-05	0	43	0	1859125248	17	4831
2026-01-22 08:38:18.83	349.93	7.40	-28.8	-31.4	12.4	1.28e-04	0	43	0	1862270976	17	4893
2026-01-22 08:38:19.84	349.84	7.33	-28.9	-31.7	12.2	2.11e-04	0	44	0	1865416704	17	4985
2026-01-22 08:38:20.84	349.75	7.27	-28.9	-31.7	12.3	1.91e-04	0	43	0	1868562432	17	4973
2026-01-22 08:38:21.85	349.67	7.20	-28.9	-31.9	12.1	2.15e-04	0	43	0	1871708160	17	5070
2026-01-22 08:38:22.85	349.58	7.14	-29.0	-31.7	12.0	3.24e-04	0	43	0	1874853888	18	4862
2026-01-22 08:38:23.86	349.49	7.07	-32.6	-42.2	3.9	1.33e+00	0	43	104	1876951040	25	10798
2026-01-22 08:38:24.86	349.40	7.01	-33.2	-45.0	3.8	1.49e+00	0	43	104	1876951040	26	14015

#Closed at: 2026-01-22 08:38:25
#Recorded file [1876 MB]: D:/data/31010_260122_112822.dat