passes_logs/2026/01/22/R2M6_AANII_01/R2M6_AANII_01__20260122_010434_NOAA_20_JPSS-1_rec.log

#Pass ID: 20260122_010434_NOAA 20 (JPSS-1)
#Satellite: NOAA 20 (JPSS-1)
#Configuration: NOAA 20
#almurnet v.1.7.20240730
#Start time: 2026-01-22 01:04:35

#Version: 2.2.20231116
#Station: R2M6_AANII_01
#Location: 30.233357 lon 59.946436 lat
#TLE: 1 43013U 17073A   26021.46221703  .00000173  00000+0  10299-3 0  9999
#TLE: 2 43013  98.7644 322.3335 0001238  29.7597 330.3649 14.19538314423652

#Time	Az	El	Level	Level2	SNR	BER	BlckErr	Temp	State	Recorded	gain1	gain2
2026-01-22 01:04:35.67	14.69	7.08	-31.7	-37.3	5.2	1.24e+00	0	42	0	0	23	6847
2026-01-22 01:04:36.67	14.66	7.16	-31.6	-37.1	5.3	1.24e+00	0	42	104	0	23	6741
2026-01-22 01:04:37.67	14.62	7.23	-31.7	-37.1	9.1	2.04e-02	0	42	0	0	23	6704
2026-01-22 01:04:38.68	14.58	7.31	-31.5	-36.6	9.4	2.19e-02	0	42	0	1048576	23	6464
2026-01-22 01:04:39.67	14.55	7.39	-31.5	-36.8	9.7	1.62e-02	0	42	0	3145728	22	6659
2026-01-22 01:04:40.67	14.51	7.46	-31.5	-36.8	9.7	1.09e-02	0	42	0	5242880	22	6646
2026-01-22 01:04:41.67	14.48	7.54	-31.6	-36.8	9.4	1.07e-02	0	42	0	7340032	23	6525
2026-01-22 01:04:42.67	14.44	7.62	-31.6	-36.6	9.5	2.26e-02	0	42	0	8388608	23	6454
2026-01-22 01:04:43.68	14.40	7.69	-31.3	-36.3	10.1	9.92e-03	0	42	0	10485760	22	6354
2026-01-22 01:04:44.68	14.37	7.77	-31.1	-35.3	10.9	4.18e-03	0	42	0	12582912	22	5876
2026-01-22 01:04:45.68	14.33	7.85	-30.8	-35.1	11.4	4.42e-03	0	42	0	14680064	21	5890
2026-01-22 01:04:46.68	14.29	7.93	-30.7	-34.7	11.7	1.14e-03	0	42	0	16777216	21	5692
2026-01-22 01:04:47.68	14.26	8.00	-30.5	-34.0	12.2	3.05e-03	0	42	0	17825792	21	5412
2026-01-22 01:04:48.68	14.22	8.08	-30.4	-34.1	12.5	2.94e-03	0	42	0	19922944	20	5564
2026-01-22 01:04:49.68	14.18	8.16	-30.4	-34.2	12.5	4.87e-04	0	42	0	22020096	20	5571
2026-01-22 01:04:50.68	14.14	8.24	-30.3	-34.0	12.6	2.87e-03	0	42	0	24117248	20	5492
2026-01-22 01:04:51.69	14.10	8.32	-30.3	-33.9	12.6	1.05e-04	0	42	0	26214400	20	5473
2026-01-22 01:04:52.69	14.07	8.40	-30.4	-34.1	12.5	5.35e-04	0	42	0	27262976	20	5544
2026-01-22 01:04:53.69	14.03	8.47	-30.3	-34.0	12.6	2.66e-03	0	42	0	29360128	20	5485
2026-01-22 01:04:54.69	13.99	8.55	-30.4	-34.1	12.5	2.73e-03	0	42	0	31457280	20	5537
2026-01-22 01:04:55.69	13.95	8.63	-30.4	-34.1	12.6	4.97e-04	0	42	0	33554432	20	5533
2026-01-22 01:04:56.70	13.91	8.71	-30.4	-34.2	12.5	2.98e-03	0	43	0	35651584	20	5561
2026-01-22 01:04:57.70	13.87	8.79	-30.4	-34.1	12.6	3.00e-03	0	43	0	36700160	20	5545
2026-01-22 01:04:58.71	13.83	8.88	-30.2	-33.7	12.8	4.01e-04	0	42	0	38797312	20	5382
2026-01-22 01:04:59.71	13.79	8.96	-30.2	-33.6	12.9	2.86e-03	0	43	0	40894464	20	5340
2026-01-22 01:05:00.71	13.75	9.04	-30.2	-33.6	12.9	2.66e-03	0	43	0	42991616	20	5320
2026-01-22 01:05:01.71	13.71	9.12	-30.3	-33.8	12.8	4.80e-04	0	43	0	45088768	20	5406
2026-01-22 01:05:02.71	13.67	9.20	-30.3	-33.9	12.7	2.81e-03	0	43	0	46137344	20	5456
2026-01-22 01:05:03.72	13.63	9.28	-30.4	-34.3	12.5	3.13e-03	0	43	0	48234496	20	5596
2026-01-22 01:05:04.73	13.58	9.36	-30.4	-33.6	12.6	5.16e-04	0	43	0	50331648	21	5226
2026-01-22 01:05:05.73	13.54	9.45	-30.3	-33.8	12.8	3.20e-04	0	43	0	52428800	20	5410
2026-01-22 01:05:06.74	13.50	9.53	-30.3	-33.9	12.8	3.00e-03	0	43	0	54525952	20	5421
2026-01-22 01:05:07.75	13.46	9.61	-30.2	-33.6	13.0	4.26e-04	0	43	0	55574528	20	5333
2026-01-22 01:05:08.75	13.41	9.70	-30.2	-33.6	13.0	2.60e-03	0	43	0	57671680	20	5334
2026-01-22 01:05:09.76	13.37	9.78	-30.3	-33.7	13.0	2.62e-03	0	43	0	59768832	20	5357
2026-01-22 01:05:10.76	13.33	9.86	-30.2	-33.5	13.1	5.13e-04	0	43	0	61865984	20	5278
2026-01-22 01:05:11.76	13.28	9.95	-30.1	-33.4	13.2	2.63e-03	0	43	0	62914560	20	5212
2026-01-22 01:05:12.76	13.24	10.03	-30.1	-33.4	13.2	2.43e-04	0	43	0	65011712	20	5226
2026-01-22 01:05:13.77	13.20	10.11	-30.1	-33.4	13.2	3.98e-04	0	43	0	67108864	20	5226
2026-01-22 01:05:14.77	13.15	10.20	-30.2	-33.4	13.2	2.80e-03	0	43	0	69206016	20	5236
2026-01-22 01:05:15.77	13.11	10.28	-30.2	-33.5	13.1	8.31e-05	0	43	0	71303168	20	5278
2026-01-22 01:05:16.78	13.06	10.37	-30.3	-33.7	13.0	4.19e-05	0	43	0	73400320	20	5344
2026-01-22 01:05:17.78	13.02	10.45	-30.2	-33.6	13.0	2.74e-03	0	43	0	74448896	20	5323
2026-01-22 01:05:18.79	12.97	10.54	-30.2	-33.6	13.1	2.51e-03	0	43	0	76546048	20	5301
2026-01-22 01:05:19.79	12.93	10.63	-30.2	-33.6	13.1	2.51e-05	0	43	0	78643200	20	5301
2026-01-22 01:05:20.80	12.88	10.71	-30.3	-33.7	13.0	2.48e-03	0	43	0	80740352	20	5353
2026-01-22 01:05:21.80	12.84	10.80	-30.2	-33.6	13.1	2.73e-03	0	43	0	81788928	20	5299
2026-01-22 01:05:22.81	12.79	10.89	-30.3	-33.8	13.0	3.66e-05	0	43	0	83886080	20	5397
2026-01-22 01:05:23.82	12.74	10.98	-30.2	-33.6	13.1	2.59e-04	0	43	0	85983232	20	5302
2026-01-22 01:05:24.82	12.69	11.06	-30.2	-33.4	13.3	2.76e-03	0	43	0	88080384	20	5223
2026-01-22 01:05:25.82	12.65	11.15	-30.1	-33.3	13.3	2.13e-05	0	43	0	90177536	20	5182
2026-01-22 01:05:26.83	12.60	11.24	-30.1	-33.4	13.3	2.36e-04	0	43	0	91226112	20	5206
2026-01-22 01:05:27.83	12.55	11.33	-30.1	-33.3	13.4	2.65e-04	0	43	0	93323264	20	5183
2026-01-22 01:05:28.84	12.50	11.42	-30.2	-33.3	13.3	3.31e-04	0	43	0	95420416	20	5197
2026-01-22 01:05:29.84	12.45	11.50	-30.1	-33.2	13.4	1.60e-05	0	43	0	97517568	20	5142
2026-01-22 01:05:30.84	12.40	11.59	-30.1	-33.3	13.4	3.00e-04	0	43	0	99614720	20	5176
2026-01-22 01:05:31.85	12.36	11.68	-30.2	-33.5	13.2	3.04e-04	0	43	0	100663296	20	5277
2026-01-22 01:05:32.85	12.31	11.77	-30.1	-33.3	13.4	2.28e-05	0	43	0	102760448	20	5176
2026-01-22 01:05:33.86	12.26	11.86	-30.1	-33.1	13.5	3.36e-04	0	43	0	104857600	20	5107
2026-01-22 01:05:34.86	12.21	11.95	-30.1	-33.2	13.5	8.30e-06	0	43	0	106954752	20	5124
2026-01-22 01:05:35.86	12.15	12.05	-30.0	-33.0	13.6	2.90e-03	0	43	0	109051904	20	5079
2026-01-22 01:05:36.86	12.10	12.14	-30.0	-33.0	13.6	9.90e-06	0	43	0	110100480	20	5048
2026-01-22 01:05:37.87	12.05	12.23	-30.1	-33.0	13.6	6.80e-06	0	43	0	112197632	20	5081
2026-01-22 01:05:38.86	12.00	12.32	-30.2	-33.4	13.4	2.55e-03	0	43	0	114294784	20	5197
2026-01-22 01:05:39.87	11.95	12.41	-30.1	-33.1	13.5	7.60e-06	0	43	0	116391936	20	5105
2026-01-22 01:05:40.87	11.90	12.50	-30.0	-33.0	13.6	5.30e-06	0	43	0	118489088	20	5050
2026-01-22 01:05:41.87	11.84	12.60	-30.0	-32.9	13.7	2.23e-04	0	43	0	119537664	20	5029
2026-01-22 01:05:42.87	11.79	12.69	-30.1	-33.2	13.5	1.29e-05	0	43	0	121634816	20	5131
2026-01-22 01:05:43.88	11.74	12.78	-30.1	-33.1	13.6	1.75e-05	0	43	0	123731968	20	5102
2026-01-22 01:05:44.88	11.68	12.88	-30.1	-33.0	13.6	1.65e-04	0	43	0	125829120	20	5065
2026-01-22 01:05:45.88	11.63	12.97	-30.0	-33.0	13.7	1.56e-04	0	43	0	127926272	20	5056
2026-01-22 01:05:46.88	11.58	13.06	-30.1	-33.1	13.6	8.30e-06	0	43	0	128974848	20	5079
2026-01-22 01:05:47.89	11.52	13.16	-30.1	-33.3	13.5	1.47e-04	0	43	0	131072000	20	5158
2026-01-22 01:05:48.89	11.46	13.25	-30.1	-33.1	13.6	1.66e-04	0	44	0	133169152	20	5106
2026-01-22 01:05:49.88	11.41	13.35	-30.0	-33.0	13.7	5.30e-06	0	43	0	135266304	20	5047
2026-01-22 01:05:50.89	11.35	13.44	-30.1	-33.1	13.6	8.30e-06	0	43	0	136314880	20	5087
2026-01-22 01:05:51.89	11.30	13.54	-30.1	-33.2	13.5	1.52e-04	0	43	0	138412032	20	5141
2026-01-22 01:05:52.90	11.24	13.64	-30.1	-33.1	13.6	6.10e-06	0	43	0	140509184	20	5095
2026-01-22 01:05:53.90	11.18	13.73	-30.0	-32.9	13.7	6.10e-06	0	43	0	142606336	20	5032
2026-01-22 01:05:54.90	11.13	13.83	-30.1	-33.0	13.7	1.79e-04	0	43	0	144703488	20	5065
2026-01-22 01:05:55.90	11.07	13.93	-30.2	-33.3	13.5	6.10e-06	0	43	0	145752064	20	5146
2026-01-22 01:05:56.90	11.01	14.03	-30.0	-33.0	13.7	1.14e-05	0	43	0	147849216	20	5039
2026-01-22 01:05:57.91	10.95	14.12	-29.9	-32.5	14.0	3.00e-06	0	44	0	149946368	20	4881
2026-01-22 01:05:58.91	10.89	14.22	-29.9	-32.6	14.0	3.00e-06	0	43	0	152043520	20	4887
2026-01-22 01:05:59.91	10.83	14.32	-30.0	-33.2	14.0	1.83e-04	0	44	0	154140672	19	5238
2026-01-22 01:06:00.91	10.77	14.42	-29.9	-32.5	14.1	7.00e-07	0	44	0	155189248	20	4874
2026-01-22 01:06:01.91	10.71	14.52	-29.9	-32.5	14.1	7.00e-07	0	43	0	157286400	20	4878
2026-01-22 01:06:02.90	10.65	14.62	-29.9	-33.1	14.1	1.51e-04	0	43	0	159383552	19	5183
2026-01-22 01:06:03.90	10.59	14.72	-29.9	-33.1	14.1	1.50e-06	0	43	0	161480704	19	5172
2026-01-22 01:06:04.91	10.53	14.82	-29.9	-33.0	14.2	1.50e-06	0	44	0	163577856	19	5149
2026-01-22 01:06:05.92	10.46	14.92	-29.9	-33.1	14.1	1.62e-04	0	44	0	164626432	19	5175
2026-01-22 01:06:06.93	10.40	15.02	-30.0	-32.8	13.9	2.20e-06	0	44	0	166723584	20	4979
2026-01-22 01:06:07.92	10.34	15.13	-30.2	-33.4	13.6	3.80e-06	0	44	0	168820736	20	5179
2026-01-22 01:06:08.93	10.27	15.23	-30.1	-33.0	13.8	3.80e-06	0	44	0	170917888	20	5051
2026-01-22 01:06:09.93	10.21	15.33	-30.1	-33.1	13.7	1.88e-04	0	44	0	173015040	20	5080
2026-01-22 01:06:10.94	10.15	15.44	-30.2	-33.4	13.5	4.50e-06	0	44	0	174063616	20	5190
2026-01-22 01:06:11.94	10.08	15.54	-30.2	-33.3	13.6	9.10e-06	0	44	0	176160768	20	5146
2026-01-22 01:06:12.94	10.01	15.64	-30.2	-33.4	13.6	1.59e-04	0	44	0	178257920	20	5163
2026-01-22 01:06:13.95	9.95	15.75	-30.2	-33.2	13.7	2.26e-03	0	44	0	180355072	20	5115
2026-01-22 01:06:14.96	9.88	15.85	-30.3	-33.6	13.4	9.10e-06	0	44	0	181403648	20	5272
2026-01-22 01:06:15.96	9.81	15.96	-30.5	-33.7	13.0	2.51e-05	0	44	0	183500800	21	5210
2026-01-22 01:06:16.96	9.75	16.06	-30.3	-33.7	13.4	2.52e-03	0	44	0	185597952	20	5288
2026-01-22 01:06:17.96	9.68	16.17	-30.1	-33.1	13.8	5.30e-06	0	44	0	187695104	20	5092
2026-01-22 01:06:18.96	9.61	16.27	-30.0	-32.7	14.0	2.20e-06	0	44	0	189792256	20	4937
2026-01-22 01:06:19.96	9.54	16.38	-30.1	-33.1	13.8	4.50e-06	0	44	0	190840832	20	5052
2026-01-22 01:06:20.96	9.47	16.49	-30.0	-32.8	14.0	2.12e-03	0	44	0	192937984	20	4967
2026-01-22 01:06:21.97	9.40	16.60	-30.1	-32.9	13.9	1.50e-06	0	44	0	195035136	20	5017
2026-01-22 01:06:22.97	9.33	16.70	-30.0	-32.8	14.0	3.00e-06	0	43	0	197132288	20	4955
2026-01-22 01:06:23.97	9.26	16.81	-29.9	-32.6	14.1	2.36e-03	0	44	0	199229440	20	4895
2026-01-22 01:06:24.97	9.19	16.92	-30.0	-32.7	14.1	1.61e-04	0	44	0	200278016	20	4919
2026-01-22 01:06:25.97	9.12	17.03	-29.9	-32.6	14.1	4.50e-06	0	44	0	202375168	20	4898
2026-01-22 01:06:26.98	9.04	17.14	-30.0	-32.7	14.1	2.28e-03	0	44	0	204472320	20	4921
2026-01-22 01:06:27.97	8.97	17.25	-29.9	-32.6	14.2	1.22e-04	0	44	0	206569472	20	4880
2026-01-22 01:06:28.98	8.90	17.36	-29.9	-33.0	14.3	7.00e-07	0	44	0	208666624	19	5149
2026-01-22 01:06:29.98	8.82	17.47	-29.9	-33.0	14.3	1.50e-06	0	44	0	209715200	19	5133
2026-01-22 01:06:30.98	8.75	17.58	-30.0	-32.6	14.1	3.20e-05	0	44	0	211812352	20	4902
2026-01-22 01:06:31.99	8.67	17.70	-30.1	-33.0	13.9	2.09e-03	0	44	0	213909504	20	5027
2026-01-22 01:06:32.99	8.59	17.81	-29.9	-32.6	14.2	1.50e-06	0	44	0	216006656	20	4883
2026-01-22 01:06:33.99	8.52	17.92	-29.9	-32.4	14.3	3.89e-05	0	44	0	218103808	20	4817
2026-01-22 01:06:35.00	8.44	18.04	-29.9	-32.9	14.4	2.32e-03	0	44	0	219152384	19	5077
2026-01-22 01:06:36.00	8.36	18.15	-29.9	-32.8	14.4	0.00e+00	0	44	0	221249536	19	5068
2026-01-22 01:06:37.00	8.28	18.26	-30.0	-33.1	14.3	1.50e-06	0	44	0	223346688	19	5174
2026-01-22 01:06:38.01	8.20	18.38	-29.9	-32.9	14.4	2.30e-03	0	44	0	225443840	19	5082
2026-01-22 01:06:39.01	8.12	18.50	-29.8	-32.7	14.5	2.05e-03	0	44	0	226492416	19	5016
2026-01-22 01:06:40.02	8.04	18.61	-29.8	-32.7	14.5	7.00e-07	0	44	0	228589568	19	5034
2026-01-22 01:06:41.02	7.96	18.73	-29.9	-33.0	14.4	2.03e-03	0	44	0	230686720	19	5118
2026-01-22 01:06:42.02	7.88	18.84	-29.8	-32.7	14.5	2.35e-03	0	44	0	232783872	19	5030
2026-01-22 01:06:43.03	7.80	18.96	-29.9	-32.8	14.4	1.31e-04	0	44	0	234881024	19	5060
2026-01-22 01:06:44.04	7.71	19.08	-29.9	-32.6	14.3	2.33e-03	0	44	0	236978176	20	4866
2026-01-22 01:06:45.04	7.63	19.20	-29.8	-32.7	14.5	2.22e-03	0	44	0	238026752	19	5007
2026-01-22 01:06:46.05	7.54	19.32	-29.8	-32.6	14.6	1.17e-04	0	44	0	240123904	19	4985
2026-01-22 01:06:47.06	7.46	19.44	-29.8	-32.7	14.5	0.00e+00	0	44	0	242221056	19	5033
2026-01-22 01:06:48.05	7.37	19.56	-29.8	-32.7	14.6	2.02e-03	0	44	0	244318208	19	5026
2026-01-22 01:06:49.05	7.29	19.68	-29.9	-32.8	14.5	1.18e-04	0	44	0	245366784	19	5053
2026-01-22 01:06:50.05	7.20	19.80	-30.0	-32.7	14.2	2.06e-03	0	44	0	247463936	20	4919
2026-01-22 01:06:51.06	7.11	19.92	-30.2	-33.3	13.9	2.33e-03	0	44	0	249561088	20	5111
2026-01-22 01:06:52.06	7.02	20.04	-30.0	-32.7	14.2	1.40e-04	0	44	0	251658240	20	4906
2026-01-22 01:06:53.06	6.93	20.17	-29.9	-32.9	14.5	2.33e-03	0	44	0	253755392	19	5079
2026-01-22 01:06:54.06	6.84	20.29	-29.9	-32.6	14.2	2.22e-03	0	44	0	254803968	20	4934
2026-01-22 01:06:55.07	6.75	20.41	-30.2	-33.3	13.8	8.46e-05	0	44	0	256901120	20	5124
2026-01-22 01:06:56.07	6.66	20.54	-29.9	-32.6	14.2	2.18e-03	0	44	0	258998272	20	4932
2026-01-22 01:06:57.07	6.57	20.66	-30.1	-32.9	14.1	1.99e-03	0	44	0	261095424	20	4983
2026-01-22 01:06:58.06	6.47	20.78	-30.2	-33.3	13.8	1.90e-05	0	44	0	263192576	20	5138
2026-01-22 01:06:59.06	6.38	20.91	-30.1	-33.0	14.1	2.00e-03	0	44	0	264241152	20	4999
2026-01-22 01:07:00.07	6.28	21.04	-30.1	-32.8	14.2	2.26e-03	0	44	0	266338304	20	4947
2026-01-22 01:07:01.07	6.19	21.16	-30.1	-32.9	14.1	1.22e-05	0	44	0	268435456	20	4966
2026-01-22 01:07:02.07	6.09	21.29	-30.1	-32.9	14.0	2.25e-03	0	44	0	270532608	20	4988
2026-01-22 01:07:03.08	5.99	21.42	-30.3	-33.5	13.7	2.24e-03	0	44	0	272629760	20	5185
2026-01-22 01:07:04.08	5.90	21.55	-30.1	-33.0	14.1	5.56e-05	0	44	0	273678336	20	5011
2026-01-22 01:07:05.08	5.80	21.68	-30.0	-32.8	14.2	7.17e-04	0	44	0	275775488	20	4930
2026-01-22 01:07:06.08	5.70	21.80	-30.0	-32.6	14.3	2.02e-03	0	44	0	277872640	20	4875
2026-01-22 01:07:07.08	5.60	21.93	-30.1	-32.8	14.2	6.10e-06	0	44	0	279969792	20	4934
2026-01-22 01:07:08.09	5.49	22.07	-30.1	-32.9	14.2	1.38e-04	0	44	0	282066944	20	4964
2026-01-22 01:07:09.09	5.39	22.20	-30.2	-33.1	14.0	2.29e-03	0	44	0	283115520	20	5061
2026-01-22 01:07:10.09	5.29	22.33	-30.2	-33.1	14.1	6.80e-06	0	44	0	285212672	20	5040
2026-01-22 01:07:11.10	5.18	22.46	-30.2	-33.1	14.0	2.35e-03	0	44	0	287309824	20	5045
2026-01-22 01:07:12.09	5.08	22.59	-30.3	-33.4	13.8	3.00e-06	0	44	0	289406976	20	5156
2026-01-22 01:07:13.10	4.97	22.73	-30.2	-33.2	14.0	3.20e-05	0	44	0	290455552	20	5083
2026-01-22 01:07:14.10	4.86	22.86	-30.3	-33.3	13.9	2.18e-03	0	44	0	292552704	20	5120
2026-01-22 01:07:15.10	4.76	23.00	-30.4	-33.7	13.7	1.90e-04	0	44	0	294649856	20	5260
2026-01-22 01:07:16.10	4.65	23.13	-30.4	-33.6	13.7	1.52e-05	0	44	0	296747008	20	5219
2026-01-22 01:07:17.11	4.54	23.27	-30.4	-33.7	13.6	2.08e-03	0	44	0	298844160	20	5286
2026-01-22 01:07:18.11	4.43	23.40	-30.6	-33.7	13.3	2.46e-03	0	44	0	299892736	21	5161
2026-01-22 01:07:19.11	4.31	23.54	-30.8	-34.3	12.9	2.36e-05	0	44	0	301989888	21	5407
2026-01-22 01:07:20.11	4.20	23.68	-30.8	-34.2	13.0	2.44e-03	0	44	0	304087040	21	5335
2026-01-22 01:07:21.12	4.09	23.82	-30.8	-34.2	13.0	2.35e-03	0	44	0	306184192	21	5339
2026-01-22 01:07:22.12	3.97	23.96	-30.8	-34.4	12.9	4.50e-05	0	44	0	308281344	21	5417
2026-01-22 01:07:23.12	3.85	24.10	-30.9	-34.6	12.8	5.18e-05	0	44	0	309329920	21	5508
2026-01-22 01:07:24.12	3.74	24.23	-30.8	-34.4	12.9	2.18e-03	0	44	0	311427072	21	5436
2026-01-22 01:07:25.12	3.62	24.38	-30.9	-34.7	12.7	5.49e-05	0	44	0	313524224	21	5536
2026-01-22 01:07:26.13	3.50	24.52	-31.0	-34.5	12.5	1.57e-04	0	44	0	315621376	22	5355
2026-01-22 01:07:27.13	3.38	24.66	-31.2	-34.9	12.3	2.63e-03	0	44	0	317718528	22	5511
2026-01-22 01:07:28.14	3.25	24.80	-31.1	-34.5	12.5	1.68e-04	0	44	0	318767104	22	5370
2026-01-22 01:07:29.15	3.13	24.95	-31.0	-34.3	12.7	8.16e-05	0	44	0	320864256	22	5291
2026-01-22 01:07:30.15	3.01	25.09	-31.0	-34.3	12.7	8.77e-05	0	44	0	322961408	22	5283
2026-01-22 01:07:31.15	2.88	25.24	-31.1	-34.6	12.5	1.04e-04	0	44	0	325058560	22	5408
2026-01-22 01:07:32.15	2.76	25.38	-31.1	-34.7	12.4	1.12e-04	0	44	0	327155712	22	5423
2026-01-22 01:07:33.15	2.63	25.53	-31.3	-35.3	12.0	2.34e-04	0	44	0	328204288	22	5663
2026-01-22 01:07:34.16	2.50	25.67	-31.2	-34.9	12.3	2.50e-04	0	44	0	330301440	22	5522
2026-01-22 01:07:35.16	2.37	25.82	-31.2	-34.7	12.4	2.32e-03	0	44	0	332398592	22	5446
2026-01-22 01:07:36.16	2.24	25.97	-31.2	-34.9	12.3	1.66e-04	0	44	0	334495744	22	5529
2026-01-22 01:07:37.16	2.10	26.12	-31.3	-35.0	12.2	2.42e-04	0	44	0	335544320	22	5567
2026-01-22 01:07:38.17	1.97	26.27	-31.3	-35.1	12.2	2.62e-03	0	44	0	337641472	22	5610
2026-01-22 01:07:39.17	1.83	26.42	-31.4	-35.5	11.9	2.88e-04	0	44	0	339738624	22	5770
2026-01-22 01:07:40.16	1.70	26.56	-31.4	-35.5	11.9	3.84e-04	0	44	0	341835776	22	5774
2026-01-22 01:07:41.17	1.56	26.72	-31.4	-35.4	12.0	4.16e-04	0	44	0	343932928	22	5722
2026-01-22 01:07:42.18	1.42	26.87	-31.5	-35.2	11.8	6.08e-04	0	44	0	346030080	23	5512
2026-01-22 01:07:43.17	1.28	27.02	-31.6	-35.6	11.5	7.34e-04	0	44	0	347078656	23	5682
2026-01-22 01:07:44.17	1.14	27.17	-31.5	-35.3	11.7	6.20e-04	0	44	0	349175808	23	5551
2026-01-22 01:07:45.17	1.00	27.33	-31.6	-35.6	11.5	9.15e-04	0	44	0	351272960	23	5689
2026-01-22 01:07:46.18	0.85	27.48	-31.5	-35.4	11.6	5.81e-04	0	44	0	353370112	23	5609
2026-01-22 01:07:47.18	0.70	27.64	-31.7	-35.7	11.5	6.08e-04	0	44	0	354418688	23	5759
2026-01-22 01:07:48.17	0.56	27.79	-31.6	-35.5	11.6	6.81e-04	0	44	0	356515840	23	5670
2026-01-22 01:07:49.18	0.41	27.95	-31.6	-35.5	11.6	6.29e-04	0	44	0	358612992	23	5640
2026-01-22 01:07:50.18	0.26	28.10	-31.6	-35.6	11.6	9.86e-04	0	44	0	360710144	23	5681
2026-01-22 01:07:51.18	0.11	28.26	-31.6	-35.6	11.5	7.89e-04	0	44	0	362807296	23	5701
2026-01-22 01:07:52.19	359.95	28.42	-31.5	-35.4	11.7	6.39e-04	0	44	0	363855872	23	5602
2026-01-22 01:07:53.19	359.80	28.58	-31.5	-35.4	11.7	5.03e-04	0	44	0	365953024	23	5605
2026-01-22 01:07:54.19	359.64	28.74	-31.6	-35.5	11.7	6.06e-04	0	44	0	368050176	23	5630
2026-01-22 01:07:55.20	359.48	28.90	-31.5	-35.2	11.8	4.58e-04	0	44	0	370147328	23	5539
2026-01-22 01:07:56.20	359.32	29.06	-31.3	-35.2	12.2	2.30e-04	0	44	0	372244480	22	5623
2026-01-22 01:07:57.20	359.16	29.22	-31.3	-35.1	12.3	1.89e-04	0	44	0	373293056	22	5579
2026-01-22 01:07:58.20	358.99	29.38	-31.3	-35.0	12.3	1.81e-04	0	44	0	375390208	22	5548
2026-01-22 01:07:59.21	358.83	29.55	-31.2	-34.9	12.4	1.63e-04	0	44	0	377487360	22	5511
2026-01-22 01:08:00.22	358.66	29.71	-31.3	-35.0	12.3	2.32e-04	0	44	0	379584512	22	5553
2026-01-22 01:08:01.22	358.49	29.88	-31.2	-34.7	12.5	1.98e-04	0	44	0	381681664	22	5422
2026-01-22 01:08:02.23	358.32	30.04	-31.1	-34.5	12.7	2.45e-03	0	44	0	382730240	22	5330
2026-01-22 01:08:03.23	358.15	30.21	-31.2	-34.7	12.6	7.09e-05	0	44	0	384827392	22	5403
2026-01-22 01:08:04.23	357.97	30.38	-31.1	-34.6	12.6	9.07e-05	0	44	0	386924544	22	5385
2026-01-22 01:08:05.23	357.80	30.54	-31.2	-34.7	12.5	1.16e-04	0	44	0	389021696	22	5428
2026-01-22 01:08:06.23	357.62	30.71	-31.3	-35.0	12.4	2.83e-04	0	44	0	391118848	22	5530
2026-01-22 01:08:07.23	357.44	30.88	-31.4	-35.4	12.1	1.86e-04	0	44	0	392167424	22	5698
2026-01-22 01:08:08.24	357.26	31.05	-31.4	-35.3	12.1	2.59e-04	0	44	0	394264576	22	5657
2026-01-22 01:08:09.24	357.08	31.22	-31.4	-35.3	12.2	3.33e-04	0	44	0	396361728	22	5660
2026-01-22 01:08:10.25	356.89	31.39	-31.4	-35.5	12.1	2.94e-04	0	44	0	398458880	22	5738
2026-01-22 01:08:11.26	356.70	31.56	-31.4	-35.0	12.0	2.77e-04	0	44	0	399507456	23	5435
2026-01-22 01:08:12.26	356.51	31.73	-31.6	-35.5	11.7	3.76e-04	0	44	0	401604608	23	5639
2026-01-22 01:08:13.27	356.32	31.91	-31.7	-35.9	11.4	2.91e-03	0	44	0	403701760	23	5814
2026-01-22 01:08:14.27	356.12	32.08	-31.6	-35.5	11.7	8.70e-04	0	44	0	405798912	23	5619
2026-01-22 01:08:15.27	355.93	32.25	-31.6	-35.4	11.8	5.80e-04	0	44	0	407896064	23	5572
2026-01-22 01:08:16.27	355.73	32.42	-31.6	-35.5	11.7	2.09e-03	0	44	0	408944640	23	5647
2026-01-22 01:08:17.28	355.53	32.60	-31.6	-35.6	11.7	2.17e-03	0	44	0	411041792	23	5664
2026-01-22 01:08:18.28	355.33	32.78	-31.6	-35.5	11.7	6.64e-04	0	44	0	413138944	23	5637
2026-01-22 01:08:19.28	355.12	32.95	-31.7	-35.8	11.5	1.79e-03	0	44	0	415236096	23	5759
2026-01-22 01:08:20.28	354.92	33.13	-31.7	-35.7	11.6	2.03e-03	0	44	0	417333248	23	5705
2026-01-22 01:08:21.28	354.71	33.30	-31.6	-35.5	11.7	7.80e-04	0	44	0	418381824	23	5627
2026-01-22 01:08:22.28	354.50	33.48	-31.6	-35.6	11.6	6.16e-04	0	44	0	420478976	23	5664
2026-01-22 01:08:23.29	354.28	33.66	-31.7	-35.9	11.4	2.26e-03	0	44	0	422576128	23	5822
2026-01-22 01:08:24.29	354.07	33.84	-31.8	-36.2	11.2	1.35e-03	0	44	0	424673280	23	5953
2026-01-22 01:08:25.29	353.85	34.02	-31.8	-36.1	11.3	1.61e-03	0	44	0	426770432	23	5912
2026-01-22 01:08:26.30	353.62	34.20	-31.8	-36.0	11.4	2.58e-03	0	44	0	427819008	23	5853
2026-01-22 01:08:27.30	353.40	34.38	-31.9	-36.5	10.9	1.65e-03	0	44	0	429916160	23	6105
2026-01-22 01:08:28.30	353.18	34.56	-31.9	-36.3	11.1	1.34e-03	0	44	0	432013312	23	5990
2026-01-22 01:08:29.30	352.95	34.74	-31.9	-36.3	11.1	1.62e-03	0	44	0	434110464	23	5995
2026-01-22 01:08:30.30	352.72	34.92	-31.9	-36.3	11.2	1.81e-03	0	44	0	436207616	23	5996
2026-01-22 01:08:31.31	352.48	35.11	-31.8	-36.1	11.3	2.81e-03	0	44	0	437256192	23	5902
2026-01-22 01:08:32.31	352.24	35.29	-31.7	-35.8	11.5	1.09e-03	0	44	0	439353344	23	5779
2026-01-22 01:08:33.31	352.01	35.48	-31.7	-35.8	11.5	8.36e-04	0	44	0	441450496	23	5761
2026-01-22 01:08:34.31	351.76	35.66	-31.7	-35.8	11.5	2.25e-03	0	44	0	443547648	23	5782
2026-01-22 01:08:35.31	351.52	35.84	-31.6	-35.5	11.7	1.99e-03	0	44	0	444596224	23	5618
2026-01-22 01:08:36.32	351.27	36.03	-31.5	-35.1	12.0	3.49e-04	0	44	0	446693376	23	5444
2026-01-22 01:08:37.32	351.02	36.22	-31.4	-35.3	12.2	1.71e-03	0	44	0	448790528	22	5661
2026-01-22 01:08:38.32	350.77	36.40	-31.4	-35.2	12.3	1.91e-03	0	44	0	450887680	22	5603
2026-01-22 01:08:39.32	350.51	36.59	-31.3	-35.0	12.4	1.75e-04	0	44	0	452984832	22	5527
2026-01-22 01:08:40.32	350.25	36.77	-31.3	-35.0	12.4	2.05e-03	0	44	0	454033408	22	5515
2026-01-22 01:08:41.32	349.99	36.96	-31.5	-35.5	12.1	2.12e-03	0	44	0	456130560	22	5715
2026-01-22 01:08:42.32	349.72	37.15	-31.7	-35.7	11.6	6.26e-04	0	44	0	458227712	23	5728
2026-01-22 01:08:43.32	349.46	37.34	-31.7	-35.9	11.5	2.75e-03	0	44	0	460324864	23	5802
2026-01-22 01:08:44.33	349.18	37.52	-31.9	-36.5	11.1	2.98e-03	0	44	0	462422016	23	6087
2026-01-22 01:08:45.33	348.91	37.71	-31.9	-36.4	11.1	1.82e-03	0	44	0	463470592	23	6027
2026-01-22 01:08:46.33	348.63	37.90	-31.7	-35.8	11.5	1.18e-03	0	44	0	465567744	23	5732
2026-01-22 01:08:47.33	348.35	38.09	-31.7	-35.6	11.7	1.11e-03	0	44	0	467664896	23	5674
2026-01-22 01:08:48.33	348.06	38.28	-31.7	-35.8	11.6	6.74e-04	0	44	0	469762048	23	5774
2026-01-22 01:08:49.32	347.78	38.47	-31.8	-36.0	11.4	9.35e-04	0	44	0	471859200	23	5834
2026-01-22 01:08:50.33	347.49	38.66	-31.8	-36.0	11.4	1.12e-03	0	44	0	472907776	23	5838
2026-01-22 01:08:51.33	347.19	38.85	-31.8	-35.9	11.5	8.10e-04	0	44	0	475004928	23	5792
2026-01-22 01:08:52.33	346.89	39.04	-31.7	-35.7	11.7	1.57e-03	0	44	0	477102080	23	5688
2026-01-22 01:08:53.34	346.59	39.23	-31.8	-36.0	11.4	1.97e-03	0	44	0	479199232	23	5846
2026-01-22 01:08:54.33	346.29	39.42	-31.9	-36.3	11.2	1.43e-03	0	44	0	481296384	23	5981
2026-01-22 01:08:55.33	345.98	39.61	-31.9	-36.1	11.3	2.62e-03	0	44	0	482344960	23	5904
2026-01-22 01:08:56.32	345.67	39.80	-31.9	-36.2	11.3	2.48e-03	0	44	0	484442112	23	5947
2026-01-22 01:08:57.33	345.35	39.99	-31.9	-36.3	11.3	1.31e-03	0	44	0	486539264	23	5961
2026-01-22 01:08:58.33	345.03	40.18	-31.7	-35.8	11.6	2.32e-03	0	44	0	488636416	23	5746
2026-01-22 01:08:59.34	344.70	40.37	-31.6	-35.3	11.8	2.38e-03	0	44	0	489684992	23	5542
2026-01-22 01:09:00.35	344.37	40.56	-31.6	-35.5	11.9	3.96e-04	0	44	0	491782144	23	5594
2026-01-22 01:09:01.35	344.04	40.75	-31.8	-35.9	11.6	2.76e-03	0	44	0	493879296	23	5794
2026-01-22 01:09:02.36	343.70	40.95	-31.7	-35.8	11.6	3.16e-03	0	44	0	495976448	23	5753
2026-01-22 01:09:03.36	343.36	41.14	-31.6	-35.3	11.9	7.57e-04	0	44	0	498073600	23	5538
2026-01-22 01:09:04.36	343.02	41.33	-31.5	-35.1	12.1	3.06e-04	0	44	0	499122176	23	5447
2026-01-22 01:09:05.36	342.67	41.52	-31.6	-35.2	12.0	2.38e-03	0	44	0	501219328	23	5495
2026-01-22 01:09:06.36	342.32	41.71	-31.7	-35.5	11.9	5.70e-04	0	44	0	503316480	23	5618
2026-01-22 01:09:07.37	341.96	41.90	-31.8	-36.1	11.4	8.83e-04	0	44	0	505413632	23	5891
2026-01-22 01:09:08.37	341.60	42.09	-32.0	-36.2	11.0	3.83e-03	0	44	0	507510784	24	5808
2026-01-22 01:09:09.37	341.23	42.28	-32.1	-36.4	10.8	3.06e-03	0	44	0	508559360	24	5940
2026-01-22 01:09:10.37	340.86	42.46	-32.1	-36.6	10.7	2.81e-03	0	44	0	510656512	24	6036
2026-01-22 01:09:11.37	340.49	42.65	-32.2	-36.7	10.6	2.97e-03	0	44	0	512753664	24	6078
2026-01-22 01:09:12.38	340.11	42.84	-32.2	-37.0	10.4	3.49e-03	0	44	0	514850816	24	6198
2026-01-22 01:09:13.38	339.73	43.03	-32.2	-36.7	10.6	5.13e-03	0	44	0	516947968	24	6073
2026-01-22 01:09:14.38	339.34	43.21	-32.0	-36.2	11.0	2.51e-03	0	44	0	517996544	24	5819
2026-01-22 01:09:15.39	338.94	43.40	-31.7	-35.2	11.7	9.32e-04	0	44	0	520093696	24	5381
2026-01-22 01:09:16.40	338.54	43.59	-31.8	-35.8	11.6	2.01e-03	0	44	0	522190848	23	5750
2026-01-22 01:09:17.40	338.14	43.77	-31.7	-35.8	11.7	4.94e-04	0	44	0	524288000	23	5742
2026-01-22 01:09:18.40	337.74	43.96	-31.8	-36.1	11.5	6.97e-04	0	44	0	526385152	23	5859
2026-01-22 01:09:19.41	337.32	44.14	-31.8	-36.1	11.5	2.06e-03	0	44	0	527433728	23	5867
2026-01-22 01:09:20.41	336.91	44.32	-31.8	-36.2	11.3	1.71e-03	0	44	0	529530880	23	5917
2026-01-22 01:09:21.41	336.49	44.51	-31.8	-36.1	11.4	1.05e-03	0	44	0	531628032	23	5870
2026-01-22 01:09:22.42	336.06	44.69	-31.9	-36.3	11.3	9.25e-04	0	44	0	533725184	23	5980
2026-01-22 01:09:23.42	335.63	44.87	-32.2	-36.8	10.6	2.32e-03	0	44	0	535822336	24	6120
2026-01-22 01:09:24.42	335.20	45.05	-32.3	-37.1	10.3	4.18e-03	0	44	0	536870912	24	6286
2026-01-22 01:09:25.42	334.76	45.22	-32.2	-36.9	10.5	5.80e-03	0	44	0	538968064	24	6168
2026-01-22 01:09:26.43	334.31	45.40	-32.2	-36.8	10.6	5.44e-03	0	44	0	541065216	24	6115
2026-01-22 01:09:27.43	333.86	45.58	-32.1	-36.3	10.9	2.75e-03	0	44	0	543162368	24	5884
2026-01-22 01:09:28.43	333.40	45.75	-32.0	-36.1	11.1	1.96e-03	0	44	0	545259520	24	5787
2026-01-22 01:09:29.44	332.94	45.93	-32.1	-36.3	10.9	1.61e-03	0	44	0	546308096	24	5882
2026-01-22 01:09:30.44	332.47	46.10	-31.9	-35.9	11.2	2.20e-03	0	44	0	548405248	24	5679
2026-01-22 01:09:31.44	332.00	46.27	-31.7	-35.7	11.7	6.16e-04	0	44	0	550502400	23	5690
2026-01-22 01:09:32.45	331.53	46.44	-31.7	-35.7	11.7	9.31e-04	0	44	0	552599552	23	5713
2026-01-22 01:09:33.46	331.04	46.60	-31.7	-35.8	11.7	5.03e-04	0	44	0	553648128	23	5745
2026-01-22 01:09:34.46	330.56	46.77	-31.7	-35.7	11.6	5.07e-04	0	44	0	555745280	23	5727
2026-01-22 01:09:35.46	330.06	46.93	-31.7	-35.7	11.7	4.84e-04	0	44	0	557842432	23	5711
2026-01-22 01:09:36.46	329.57	47.10	-31.8	-36.0	11.6	4.95e-04	0	44	0	559939584	23	5816
2026-01-22 01:09:37.46	329.07	47.26	-31.8	-36.0	11.5	1.75e-03	0	44	0	562036736	23	5859
2026-01-22 01:09:38.46	328.56	47.41	-31.7	-35.6	11.8	6.79e-04	0	44	0	563085312	23	5653
2026-01-22 01:09:39.46	328.05	47.57	-31.2	-34.3	12.7	1.62e-04	0	44	0	565182464	23	5118
2026-01-22 01:09:40.46	327.53	47.73	-30.8	-33.6	13.5	1.83e-05	0	44	0	567279616	22	4975
2026-01-22 01:09:41.46	327.01	47.88	-30.7	-33.8	13.7	9.90e-06	0	44	0	569376768	21	5148
2026-01-22 01:09:42.47	326.48	48.03	-31.0	-34.6	13.1	1.98e-05	0	44	0	571473920	21	5462
2026-01-22 01:09:43.46	325.96	48.18	-31.2	-34.8	12.7	5.11e-05	0	44	0	572522496	22	5410
2026-01-22 01:09:44.46	325.42	48.32	-31.2	-34.7	12.8	1.81e-03	0	44	0	574619648	22	5378
2026-01-22 01:09:45.46	324.88	48.47	-31.3	-35.1	12.6	1.05e-04	0	44	0	576716800	22	5521
2026-01-22 01:09:46.47	324.32	48.61	-31.5	-35.1	12.2	1.20e-04	0	44	0	578813952	23	5431
2026-01-22 01:09:47.48	323.77	48.75	-31.8	-35.8	11.7	4.14e-04	0	44	0	580911104	23	5722
2026-01-22 01:09:48.48	323.21	48.89	-32.0	-36.6	11.2	1.08e-03	0	44	0	581959680	23	6090
2026-01-22 01:09:49.48	322.65	49.02	-32.1	-36.6	10.8	1.85e-03	0	44	0	584056832	24	5995
2026-01-22 01:09:50.49	322.07	49.15	-32.1	-36.5	10.8	3.95e-03	0	44	0	586153984	24	5949
2026-01-22 01:09:51.49	321.50	49.28	-32.1	-36.3	11.0	1.92e-03	0	44	0	588251136	24	5875
2026-01-22 01:09:52.50	320.92	49.41	-31.9	-35.9	11.3	1.55e-03	0	44	0	590348288	24	5665
2026-01-22 01:09:53.50	320.34	49.53	-31.8	-36.0	11.6	9.39e-04	0	45	0	591396864	23	5832
2026-01-22 01:09:54.50	319.75	49.65	-31.8	-35.9	11.6	6.96e-04	0	44	0	593494016	23	5792
2026-01-22 01:09:55.50	319.16	49.77	-31.9	-36.1	11.5	9.42e-04	0	44	0	595591168	23	5875
2026-01-22 01:09:56.50	318.56	49.89	-31.9	-36.2	11.4	1.02e-03	0	44	0	597688320	23	5933
2026-01-22 01:09:57.51	317.96	50.00	-31.9	-36.2	11.4	8.44e-04	0	44	0	598736896	23	5930
2026-01-22 01:09:58.51	317.35	50.11	-32.0	-36.1	11.1	1.25e-03	0	44	0	600834048	24	5761
2026-01-22 01:09:59.51	316.75	50.21	-32.3	-37.0	10.5	3.56e-03	0	44	0	602931200	24	6179
2026-01-22 01:10:00.52	316.13	50.32	-32.2	-36.8	10.4	3.70e-03	0	44	0	605028352	24	6116
2026-01-22 01:10:01.52	315.51	50.41	-32.2	-36.7	10.5	3.26e-03	0	44	0	607125504	24	6082
2026-01-22 01:10:02.53	314.88	50.51	-32.2	-36.7	10.7	2.77e-03	0	44	0	608174080	24	6072
2026-01-22 01:10:03.53	314.26	50.60	-32.1	-36.4	10.9	3.01e-03	0	44	0	610271232	24	5922
2026-01-22 01:10:04.53	313.63	50.69	-31.9	-35.9	11.2	2.55e-03	0	44	0	612368384	24	5692
2026-01-22 01:10:05.54	312.99	50.78	-31.7	-35.2	11.8	6.61e-04	0	44	0	614465536	24	5358
2026-01-22 01:10:06.54	312.35	50.86	-31.6	-35.2	12.2	3.19e-04	0	44	0	616562688	23	5469
2026-01-22 01:10:07.55	311.71	50.94	-31.4	-35.3	12.4	2.30e-04	0	44	0	617611264	22	5628
2026-01-22 01:10:08.55	311.06	51.01	-31.1	-34.4	13.0	6.71e-05	0	44	0	619708416	22	5259
2026-01-22 01:10:09.54	310.43	51.08	-30.8	-33.6	13.5	2.51e-05	0	44	0	621805568	22	4962
2026-01-22 01:10:10.54	309.78	51.15	-30.4	-32.9	14.3	4.50e-06	0	44	0	623902720	21	4822
2026-01-22 01:10:11.55	309.12	51.21	-30.3	-32.6	14.4	0.00e+00	0	44	0	625999872	21	4720
2026-01-22 01:10:12.55	308.46	51.27	-30.4	-33.4	14.3	7.00e-07	0	44	0	627048448	20	5085
2026-01-22 01:10:13.55	307.81	51.32	-30.4	-33.5	14.2	6.10e-06	0	44	0	629145600	20	5151
2026-01-22 01:10:14.56	307.14	51.37	-30.2	-33.0	14.5	0.00e+00	0	44	0	631242752	20	4979
2026-01-22 01:10:15.56	306.48	51.42	-30.2	-33.0	14.6	7.90e-04	0	44	0	633339904	20	4951
2026-01-22 01:10:16.56	305.82	51.47	-30.0	-32.5	14.9	0.00e+00	0	44	0	635437056	20	4792
2026-01-22 01:10:17.56	305.15	51.50	-30.0	-32.4	14.9	0.00e+00	0	44	0	636485632	20	4757
2026-01-22 01:10:18.56	304.48	51.54	-29.9	-32.3	15.0	0.00e+00	0	44	0	638582784	20	4715
2026-01-22 01:10:19.55	303.82	51.57	-29.9	-32.6	15.2	9.70e-04	0	44	0	640679936	19	4915
2026-01-22 01:10:20.56	303.15	51.60	-29.7	-32.2	15.4	0.00e+00	0	44	0	642777088	19	4807
2026-01-22 01:10:21.56	302.48	51.62	-29.6	-31.9	15.6	0.00e+00	0	44	0	643825664	19	4692
2026-01-22 01:10:22.56	301.80	51.64	-29.4	-31.9	15.9	4.68e-04	0	44	0	645922816	18	4795
2026-01-22 01:10:23.56	301.13	51.65	-29.2	-31.4	16.2	0.00e+00	0	44	0	648019968	18	4640
2026-01-22 01:10:24.56	300.46	51.66	-29.4	-31.9	15.9	0.00e+00	0	44	0	650117120	18	4818
2026-01-22 01:10:25.56	299.78	51.67	-29.6	-32.0	15.6	1.02e-04	0	44	0	652214272	19	4716
2026-01-22 01:10:26.55	299.12	51.67	-29.4	-31.5	15.9	0.00e+00	0	44	0	653262848	19	4559
2026-01-22 01:10:27.56	298.44	51.67	-29.1	-30.7	16.3	0.00e+00	0	44	0	655360000	19	4334
2026-01-22 01:10:28.56	297.76	51.67	-29.1	-30.6	16.4	0.00e+00	0	44	0	657457152	19	4300
2026-01-22 01:10:29.56	297.09	51.66	-29.2	-30.9	16.3	0.00e+00	0	44	0	659554304	19	4393
2026-01-22 01:10:30.57	296.41	51.64	-29.4	-31.3	16.0	0.00e+00	0	44	0	661651456	19	4510
2026-01-22 01:10:31.57	295.74	51.62	-29.5	-31.8	15.6	0.00e+00	0	44	0	662700032	19	4655
2026-01-22 01:10:32.56	295.07	51.60	-29.7	-32.1	15.5	0.00e+00	0	44	0	664797184	19	4773
2026-01-22 01:10:33.56	294.40	51.57	-29.7	-32.2	15.4	1.33e-04	0	44	0	666894336	19	4799
2026-01-22 01:10:34.55	293.74	51.54	-29.6	-31.8	15.6	0.00e+00	0	44	0	668991488	19	4656
2026-01-22 01:10:35.56	293.07	51.51	-29.6	-32.0	15.5	0.00e+00	0	44	0	670040064	19	4739
2026-01-22 01:10:36.57	292.39	51.47	-29.6	-31.9	15.6	3.04e-04	0	44	0	672137216	19	4695
2026-01-22 01:10:37.57	291.73	51.43	-29.6	-31.9	15.6	2.07e-04	0	44	0	674234368	19	4684
2026-01-22 01:10:38.57	291.07	51.38	-29.7	-32.2	15.4	0.00e+00	0	44	0	676331520	19	4780
2026-01-22 01:10:39.58	290.40	51.33	-29.8	-32.5	15.2	4.02e-04	0	44	0	678428672	19	4910
2026-01-22 01:10:40.58	289.74	51.27	-29.9	-32.7	15.1	6.10e-04	0	44	0	680525824	19	4976
2026-01-22 01:10:41.59	289.08	51.22	-29.8	-32.5	15.2	0.00e+00	0	44	0	681574400	19	4887
2026-01-22 01:10:42.59	288.43	51.15	-29.9	-32.7	15.1	6.65e-04	0	44	0	683671552	19	4946
2026-01-22 01:10:43.60	287.77	51.09	-30.0	-32.4	14.9	4.57e-04	0	44	0	685768704	20	4762
2026-01-22 01:10:44.60	287.13	51.02	-29.9	-32.1	15.1	0.00e+00	0	44	0	687865856	20	4661
2026-01-22 01:10:45.60	286.48	50.94	-29.7	-31.8	15.2	0.00e+00	0	44	0	688914432	20	4560
2026-01-22 01:10:46.61	285.84	50.86	-29.9	-32.1	15.1	1.35e-04	0	44	0	691011584	20	4657
2026-01-22 01:10:47.60	285.21	50.78	-29.9	-32.2	15.0	0.00e+00	0	44	0	693108736	20	4679
2026-01-22 01:10:48.61	284.57	50.70	-30.2	-32.9	14.6	8.25e-04	0	44	0	695205888	20	4911
2026-01-22 01:10:49.61	283.94	50.61	-30.1	-32.8	14.7	1.14e-03	0	44	0	697303040	20	4883
2026-01-22 01:10:50.62	283.30	50.52	-30.0	-32.4	14.9	7.00e-07	0	44	0	698351616	20	4746
2026-01-22 01:10:51.61	282.69	50.42	-30.0	-32.9	14.9	2.04e-04	0	44	0	700448768	19	5043
2026-01-22 01:10:52.62	282.06	50.32	-30.0	-32.6	14.8	3.08e-04	0	44	0	702545920	20	4819
2026-01-22 01:10:53.62	281.45	50.22	-30.1	-32.8	14.7	0.00e+00	0	44	0	704643072	20	4904
2026-01-22 01:10:54.62	280.84	50.12	-30.2	-32.9	14.6	2.22e-03	0	44	0	706740224	20	4955
2026-01-22 01:10:55.62	280.23	50.01	-30.3	-33.4	14.3	2.31e-03	0	44	0	707788800	20	5108
2026-01-22 01:10:56.63	279.63	49.90	-30.6	-33.7	13.8	7.60e-06	0	44	0	709885952	21	5110
2026-01-22 01:10:57.64	279.02	49.78	-31.0	-34.6	13.2	2.24e-03	0	44	0	711983104	21	5450
2026-01-22 01:10:58.64	278.43	49.66	-31.2	-34.6	12.8	1.96e-03	0	44	0	714080256	22	5357
2026-01-22 01:10:59.64	277.84	49.54	-31.3	-34.9	12.5	1.02e-04	0	44	0	716177408	22	5474
2026-01-22 01:11:00.64	277.26	49.42	-31.1	-34.4	13.0	1.68e-03	0	44	0	717225984	22	5263
2026-01-22 01:11:01.65	276.68	49.29	-31.1	-34.4	12.9	1.82e-03	0	44	0	719323136	22	5267
2026-01-22 01:11:02.65	276.10	49.16	-31.0	-34.3	13.1	4.19e-05	0	44	0	721420288	22	5215
2026-01-22 01:11:03.65	275.53	49.03	-31.3	-35.0	12.6	1.89e-03	0	44	0	723517440	22	5513
2026-01-22 01:11:04.65	274.97	48.90	-31.6	-35.4	12.0	1.84e-03	0	44	0	725614592	23	5554
2026-01-22 01:11:05.66	274.41	48.76	-31.8	-36.1	11.4	5.00e-04	0	44	0	726663168	23	5911
2026-01-22 01:11:06.66	273.85	48.62	-31.8	-36.1	11.4	1.15e-03	0	44	0	728760320	23	5883
2026-01-22 01:11:07.67	273.30	48.48	-31.9	-36.4	11.2	2.36e-03	0	44	0	730857472	23	6040
2026-01-22 01:11:08.67	272.76	48.34	-31.9	-36.4	11.1	1.05e-03	0	44	0	732954624	23	6056
2026-01-22 01:11:09.68	272.21	48.19	-31.8	-36.0	11.5	1.03e-03	0	44	0	735051776	23	5821
2026-01-22 01:11:10.68	271.68	48.04	-31.5	-35.1	12.1	4.68e-04	0	44	0	736100352	23	5435
2026-01-22 01:11:11.69	271.15	47.89	-31.2	-34.2	12.7	1.31e-04	0	44	0	738197504	23	5105
2026-01-22 01:11:12.69	270.62	47.73	-31.2	-34.8	12.7	1.88e-03	0	44	0	740294656	22	5407
2026-01-22 01:11:13.70	270.10	47.58	-31.4	-35.2	12.4	1.15e-04	0	44	0	742391808	22	5603
2026-01-22 01:11:14.71	269.58	47.42	-31.6	-35.3	12.0	2.21e-04	0	44	0	743440384	23	5532
2026-01-22 01:11:15.71	269.07	47.26	-31.5	-35.0	12.1	2.35e-03	0	44	0	745537536	23	5419
2026-01-22 01:11:16.71	268.57	47.10	-31.3	-35.0	12.5	1.19e-04	0	44	0	747634688	22	5521
2026-01-22 01:11:17.71	268.08	46.94	-31.1	-34.5	12.9	7.93e-05	0	44	0	749731840	22	5296
2026-01-22 01:11:18.71	267.58	46.77	-31.0	-34.2	13.0	1.44e-03	0	44	0	751828992	22	5205
2026-01-22 01:11:19.71	267.10	46.61	-31.0	-34.2	13.1	3.89e-05	0	44	0	753926144	22	5207
2026-01-22 01:11:20.72	266.61	46.44	-31.0	-34.0	13.2	1.72e-04	0	44	0	754974720	22	5135
2026-01-22 01:11:21.71	266.14	46.27	-31.0	-34.2	13.1	2.82e-05	0	44	0	757071872	22	5212
2026-01-22 01:11:22.71	265.67	46.10	-31.4	-35.3	12.3	7.09e-05	0	44	0	759169024	22	5646
2026-01-22 01:11:23.71	265.20	45.93	-31.6	-35.5	11.9	1.00e-03	0	44	0	761266176	23	5612
2026-01-22 01:11:24.71	264.74	45.76	-31.7	-35.8	11.6	6.68e-04	0	44	0	762314752	23	5747
2026-01-22 01:11:25.72	264.28	45.58	-31.7	-35.6	11.7	4.95e-04	0	44	0	764411904	23	5674
2026-01-22 01:11:26.73	263.82	45.40	-31.5	-35.0	12.1	1.41e-03	0	44	0	766509056	23	5409
2026-01-22 01:11:27.73	263.38	45.23	-31.5	-35.1	12.1	2.07e-04	0	44	0	768606208	23	5439
2026-01-22 01:11:28.73	262.94	45.05	-31.4	-35.3	12.3	3.12e-04	0	44	0	770703360	22	5643
2026-01-22 01:11:29.73	262.50	44.87	-31.5	-35.1	12.1	1.42e-04	0	44	0	771751936	23	5447
2026-01-22 01:11:30.73	262.07	44.69	-31.7	-35.8	11.6	4.66e-04	0	44	0	773849088	23	5737
2026-01-22 01:11:31.73	261.65	44.51	-31.8	-36.0	11.4	2.27e-03	0	44	0	775946240	23	5836
2026-01-22 01:11:32.74	261.22	44.33	-32.1	-36.4	10.7	1.02e-03	0	44	0	778043392	24	5940
2026-01-22 01:11:33.74	260.80	44.14	-32.1	-36.5	10.8	3.33e-03	0	44	0	780140544	24	5991
2026-01-22 01:11:34.74	260.39	43.96	-31.8	-35.6	11.4	1.91e-03	0	44	0	781189120	24	5562
2026-01-22 01:11:35.74	259.98	43.77	-31.5	-35.0	12.1	5.48e-04	0	44	0	783286272	23	5431
2026-01-22 01:11:36.75	259.58	43.59	-31.2	-34.3	12.6	1.97e-03	0	44	0	785383424	23	5141
2026-01-22 01:11:37.75	259.18	43.40	-31.2	-34.7	12.7	4.88e-04	0	44	0	787480576	22	5417
2026-01-22 01:11:38.75	258.79	43.22	-31.1	-34.6	12.8	4.92e-04	0	44	0	789577728	22	5356
2026-01-22 01:11:39.75	258.40	43.03	-31.1	-34.4	12.9	9.61e-05	0	44	0	790626304	22	5273
2026-01-22 01:11:40.75	258.02	42.84	-30.7	-33.9	13.5	1.83e-04	0	44	0	792723456	21	5184
2026-01-22 01:11:41.75	257.64	42.65	-30.6	-33.5	13.7	1.04e-04	0	44	0	794820608	21	5045
2026-01-22 01:11:42.75	257.26	42.46	-30.6	-33.5	13.7	3.00e-06	0	44	0	796917760	21	5046
2026-01-22 01:11:43.76	256.89	42.27	-30.5	-33.4	13.8	1.23e-04	0	45	0	797966336	21	4998
2026-01-22 01:11:44.76	256.52	42.08	-30.6	-33.5	13.7	1.56e-04	0	44	0	800063488	21	5052
2026-01-22 01:11:45.76	256.16	41.90	-30.6	-33.7	13.6	5.30e-06	0	44	0	802160640	21	5137
2026-01-22 01:11:46.76	255.80	41.71	-30.6	-33.6	13.6	9.90e-06	0	44	0	804257792	21	5083
2026-01-22 01:11:47.77	255.45	41.51	-30.7	-33.9	13.5	2.18e-04	0	44	0	806354944	21	5205
2026-01-22 01:11:48.78	255.09	41.32	-30.9	-34.4	13.1	1.14e-05	0	44	0	807403520	21	5384
2026-01-22 01:11:49.77	254.75	41.13	-31.1	-34.4	12.8	2.89e-05	0	44	0	809500672	22	5290
2026-01-22 01:11:50.77	254.41	40.94	-31.2	-34.8	12.6	3.01e-04	0	44	0	811597824	22	5454
2026-01-22 01:11:51.78	254.07	40.75	-31.2	-34.7	12.5	9.76e-05	0	44	0	813694976	22	5410
2026-01-22 01:11:52.78	253.74	40.56	-31.2	-34.9	12.5	2.39e-04	0	44	0	815792128	22	5475
2026-01-22 01:11:53.78	253.41	40.37	-31.5	-35.7	11.9	4.08e-04	0	44	0	816840704	22	5828
2026-01-22 01:11:54.78	253.08	40.18	-31.5	-35.3	11.8	5.48e-04	0	44	0	818937856	23	5572
2026-01-22 01:11:55.78	252.76	39.98	-31.7	-35.8	11.5	9.23e-04	0	44	0	821035008	23	5765
2026-01-22 01:11:56.79	252.44	39.79	-31.8	-36.1	11.3	9.87e-04	0	44	0	823132160	23	5924
2026-01-22 01:11:57.80	252.12	39.60	-31.8	-36.3	11.1	1.78e-03	0	44	0	825229312	23	6018
2026-01-22 01:11:58.79	251.82	39.41	-31.9	-36.1	10.9	3.06e-03	0	44	0	826277888	24	5818
2026-01-22 01:11:59.80	251.51	39.22	-31.8	-35.8	11.1	2.52e-03	0	44	0	828375040	24	5674
2026-01-22 01:12:00.80	251.20	39.03	-30.7	-34.7	11.5	8.78e-04	0	44	0	830472192	23	5705
2026-01-22 01:12:01.81	250.90	38.83	-31.5	-35.7	11.8	5.08e-04	0	44	0	832569344	22	5852
2026-01-22 01:12:02.82	250.60	38.64	-31.8	-36.1	11.1	6.89e-04	0	44	0	834666496	23	5938
2026-01-22 01:12:03.82	250.31	38.45	-32.0	-36.7	10.8	5.05e-03	0	44	0	835715072	23	6189
2026-01-22 01:12:04.82	250.02	38.26	-32.0	-36.4	10.7	2.73e-03	0	44	0	837812224	24	5935
2026-01-22 01:12:05.82	249.74	38.07	-32.0	-36.3	10.6	3.32e-03	0	44	0	839909376	24	5911
2026-01-22 01:12:06.82	249.45	37.88	-32.2	-36.9	10.3	4.39e-03	0	44	0	842006528	24	6210
2026-01-22 01:12:07.83	249.17	37.69	-32.1	-36.7	10.4	5.45e-03	0	44	0	844103680	24	6132
2026-01-22 01:12:08.83	248.90	37.50	-32.1	-36.7	10.4	4.29e-03	0	44	0	845152256	24	6124
2026-01-22 01:12:09.83	248.63	37.31	-32.1	-36.7	10.4	4.17e-03	0	44	0	847249408	24	6095
2026-01-22 01:12:10.84	248.35	37.12	-32.3	-37.4	9.8	7.26e-03	0	44	0	849346560	24	6503
2026-01-22 01:12:11.84	248.09	36.93	-32.3	-37.4	9.8	9.24e-03	0	44	0	851443712	24	6498
2026-01-22 01:12:12.84	247.82	36.75	-32.4	-37.6	9.7	1.15e-02	0	44	0	852492288	24	6613
2026-01-22 01:12:13.85	247.56	36.56	-32.3	-37.3	10.0	1.15e-02	0	45	0	854589440	24	6409
2026-01-22 01:12:14.85	247.31	36.37	-32.2	-37.0	10.1	1.01e-02	0	44	0	856686592	24	6281
2026-01-22 01:12:15.86	247.05	36.18	-32.2	-37.0	10.1	6.09e-03	0	44	0	858783744	24	6268
2026-01-22 01:12:16.86	246.80	36.00	-32.2	-37.0	10.1	6.18e-03	0	44	0	860880896	24	6272
2026-01-22 01:12:17.86	246.55	35.81	-32.3	-37.4	9.8	1.13e-02	0	44	0	861929472	24	6495
2026-01-22 01:12:18.87	246.30	35.62	-32.2	-36.9	10.2	1.01e-02	0	44	0	864026624	24	6240
2026-01-22 01:12:19.87	246.06	35.44	-31.9	-36.7	10.7	4.16e-03	0	44	0	866123776	23	6211
2026-01-22 01:12:20.87	245.82	35.26	-31.8	-36.3	11.0	5.07e-03	0	44	0	868220928	23	6039
2026-01-22 01:12:21.88	245.58	35.07	-31.7	-36.0	11.2	4.66e-03	0	44	0	870318080	23	5910
2026-01-22 01:12:22.87	245.35	34.89	-31.8	-36.2	11.1	1.21e-03	0	44	0	871366656	23	5984
2026-01-22 01:12:23.88	245.11	34.70	-31.8	-36.1	11.1	1.39e-03	0	44	0	873463808	23	5945
2026-01-22 01:12:24.88	244.88	34.52	-31.7	-35.9	11.3	3.88e-03	0	44	0	875560960	23	5820
2026-01-22 01:12:25.88	244.66	34.34	-31.6	-35.6	11.5	1.29e-03	0	44	0	877658112	23	5690
2026-01-22 01:12:26.88	244.43	34.16	-31.6	-35.6	11.4	8.23e-04	0	44	0	879755264	23	5721
2026-01-22 01:12:27.89	244.21	33.98	-31.6	-35.6	11.5	3.20e-03	0	44	0	880803840	23	5706
2026-01-22 01:12:28.89	243.99	33.80	-31.6	-35.6	11.5	9.84e-04	0	44	0	882900992	23	5699
2026-01-22 01:12:29.89	243.77	33.62	-31.6	-35.7	11.5	3.44e-03	0	44	0	884998144	23	5737
2026-01-22 01:12:30.89	243.56	33.44	-31.5	-35.3	11.7	6.38e-04	0	44	0	887095296	23	5584
2026-01-22 01:12:31.89	243.35	33.26	-31.4	-34.9	12.0	7.11e-04	0	44	0	889192448	23	5412
2026-01-22 01:12:32.90	243.14	33.08	-31.3	-35.2	12.1	2.90e-03	0	44	0	890241024	22	5621
2026-01-22 01:12:33.90	242.93	32.91	-31.2	-35.0	12.3	2.20e-04	0	44	0	892338176	22	5541
2026-01-22 01:12:34.90	242.72	32.73	-31.2	-34.8	12.4	1.42e-04	0	44	0	894435328	22	5473
2026-01-22 01:12:35.90	242.52	32.55	-31.2	-34.9	12.3	1.49e-03	0	44	0	896532480	22	5533
2026-01-22 01:12:36.91	242.32	32.38	-31.3	-35.1	12.2	1.01e-03	0	44	0	897581056	22	5578
2026-01-22 01:12:37.92	242.12	32.20	-31.5	-35.7	11.7	4.10e-04	0	44	0	899678208	22	5872
2026-01-22 01:12:38.92	241.92	32.03	-31.5	-35.7	11.7	9.92e-04	0	44	0	901775360	22	5868
2026-01-22 01:12:39.92	241.73	31.85	-31.6	-35.7	11.4	1.06e-03	0	44	0	903872512	23	5747
2026-01-22 01:12:40.92	241.54	31.68	-31.8	-36.2	11.0	1.46e-03	0	44	0	905969664	23	5985
2026-01-22 01:12:41.92	241.35	31.51	-31.8	-36.3	10.9	3.11e-03	0	44	0	908066816	23	6060
2026-01-22 01:12:42.93	241.16	31.34	-31.8	-36.3	10.9	3.18e-03	0	44	0	909115392	23	6049
2026-01-22 01:12:43.93	240.97	31.17	-31.8	-36.4	10.8	2.31e-03	0	44	0	911212544	23	6110
2026-01-22 01:12:44.93	240.79	31.00	-31.8	-36.3	10.9	3.35e-03	0	44	0	913309696	23	6058
2026-01-22 01:12:45.93	240.60	30.83	-32.0	-36.9	10.5	4.16e-03	0	44	0	915406848	23	6352
2026-01-22 01:12:46.94	240.42	30.66	-31.8	-35.7	11.0	3.49e-03	0	44	0	916455424	24	5683
2026-01-22 01:12:47.94	240.24	30.49	-31.7	-36.0	11.1	2.38e-03	0	44	0	918552576	23	5914
2026-01-22 01:12:48.94	240.07	30.32	-31.8	-36.5	10.7	2.35e-03	0	44	0	920649728	23	6149
2026-01-22 01:12:49.94	239.89	30.15	-31.8	-36.3	10.9	2.49e-03	0	44	0	922746880	23	6051
2026-01-22 01:12:50.94	239.72	29.99	-31.8	-36.5	10.8	2.82e-03	0	44	0	924844032	23	6128
2026-01-22 01:12:51.95	239.55	29.82	-31.7	-36.0	11.1	1.67e-03	0	44	0	925892608	23	5914
2026-01-22 01:12:52.95	239.38	29.66	-31.5	-35.4	11.5	1.24e-03	0	44	0	927989760	23	5637
2026-01-22 01:12:53.96	239.21	29.49	-31.4	-35.1	11.8	7.73e-04	0	44	0	930086912	23	5490
2026-01-22 01:12:54.96	239.04	29.33	-31.4	-34.9	11.9	6.16e-04	0	44	0	932184064	23	5426
2026-01-22 01:12:55.96	238.88	29.16	-31.4	-35.4	11.8	4.01e-04	0	44	0	934281216	22	5761
2026-01-22 01:12:56.97	238.72	29.00	-31.3	-35.1	12.1	7.51e-04	0	44	0	935329792	22	5628
2026-01-22 01:12:57.97	238.56	28.84	-31.1	-34.7	12.4	4.13e-04	0	44	0	937426944	22	5427
2026-01-22 01:12:58.97	238.40	28.68	-31.0	-34.4	12.5	1.23e-04	0	45	0	939524096	22	5335
2026-01-22 01:12:59.97	238.24	28.52	-31.0	-34.4	12.5	4.97e-04	0	44	0	941621248	22	5337
2026-01-22 01:13:00.97	238.08	28.36	-31.0	-34.3	12.7	1.62e-04	0	44	0	943718400	22	5265
2026-01-22 01:13:01.98	237.93	28.20	-30.9	-34.6	12.7	7.17e-05	0	44	0	944766976	21	5523
2026-01-22 01:13:02.98	237.77	28.04	-30.9	-34.7	12.7	2.82e-04	0	44	0	946864128	21	5548
2026-01-22 01:13:03.98	237.62	27.88	-31.0	-34.5	12.5	4.13e-04	0	44	0	948961280	22	5368
2026-01-22 01:13:04.98	237.47	27.73	-31.1	-34.9	12.2	4.42e-04	0	44	0	951058432	22	5514
2026-01-22 01:13:05.98	237.33	27.57	-30.9	-34.2	12.7	1.15e-04	0	44	0	953155584	22	5249
2026-01-22 01:13:06.99	237.18	27.42	-30.7	-34.0	13.1	1.26e-03	0	44	0	954204160	21	5294
2026-01-22 01:13:07.99	237.03	27.26	-30.6	-33.8	13.2	3.50e-04	0	44	0	956301312	21	5200
2026-01-22 01:13:08.99	236.89	27.11	-30.6	-33.8	13.2	2.05e-05	0	44	0	958398464	21	5205
2026-01-22 01:13:09.99	236.75	26.95	-30.7	-34.1	13.0	3.12e-05	0	44	0	960495616	21	5300
2026-01-22 01:13:10.99	236.60	26.80	-30.6	-33.8	13.2	1.93e-04	0	45	0	961544192	21	5195
2026-01-22 01:13:12.00	236.46	26.65	-30.6	-33.9	13.1	1.09e-03	0	44	0	963641344	21	5254
2026-01-22 01:13:13.00	236.32	26.50	-30.6	-33.9	13.1	3.89e-05	0	44	0	965738496	21	5243
2026-01-22 01:13:14.00	236.19	26.35	-30.7	-34.2	12.9	3.66e-05	0	44	0	967835648	21	5352
2026-01-22 01:13:15.01	236.05	26.19	-30.8	-34.4	12.8	4.95e-05	0	44	0	969932800	21	5427
2026-01-22 01:13:16.00	235.92	26.05	-30.8	-34.5	12.7	6.40e-05	0	44	0	970981376	21	5499
2026-01-22 01:13:17.00	235.78	25.90	-30.8	-34.5	12.7	8.54e-05	0	44	0	973078528	21	5480
2026-01-22 01:13:18.00	235.65	25.75	-30.8	-34.5	12.7	7.93e-05	0	44	0	975175680	21	5492
2026-01-22 01:13:19.00	235.52	25.60	-30.7	-34.2	12.9	5.87e-05	0	44	0	977272832	21	5381
2026-01-22 01:13:20.00	235.39	25.46	-30.7	-34.2	12.9	5.26e-05	0	44	0	979369984	21	5358
2026-01-22 01:13:21.00	235.26	25.31	-30.8	-34.3	12.9	2.76e-04	0	44	0	980418560	21	5388
2026-01-22 01:13:22.01	235.14	25.16	-30.6	-33.8	13.2	3.81e-05	0	44	0	982515712	21	5204
2026-01-22 01:13:23.02	235.01	25.02	-30.4	-33.4	13.4	1.75e-05	0	44	0	984612864	21	5059
2026-01-22 01:13:24.02	234.88	24.87	-30.5	-33.9	13.4	9.90e-06	0	44	0	986710016	20	5355
2026-01-22 01:13:25.02	234.76	24.73	-30.4	-33.7	13.5	7.28e-04	0	45	0	988807168	20	5295
2026-01-22 01:13:26.03	234.64	24.58	-30.5	-33.9	13.4	1.67e-05	0	44	0	989855744	20	5379
2026-01-22 01:13:27.03	234.52	24.44	-30.3	-33.6	13.6	1.22e-05	0	44	0	991952896	20	5245
2026-01-22 01:13:28.03	234.40	24.30	-30.3	-33.6	13.6	4.50e-06	0	44	0	994050048	20	5252
2026-01-22 01:13:29.04	234.28	24.16	-30.4	-33.8	13.4	1.29e-05	0	44	0	996147200	20	5330
2026-01-22 01:13:30.04	234.16	24.02	-30.4	-33.9	13.4	1.06e-05	0	44	0	998244352	20	5368
2026-01-22 01:13:31.04	234.04	23.88	-30.5	-34.0	13.3	1.52e-05	0	44	0	999292928	20	5393
2026-01-22 01:13:32.04	233.92	23.74	-30.5	-33.7	13.1	8.17e-04	0	44	0	1001390080	21	5201
2026-01-22 01:13:33.04	233.81	23.60	-30.6	-34.0	13.0	3.43e-05	0	45	0	1003487232	21	5310
2026-01-22 01:13:34.05	233.70	23.46	-30.6	-33.9	13.1	3.81e-05	0	44	0	1005584384	21	5254
2026-01-22 01:13:35.05	233.58	23.32	-30.5	-33.6	13.2	5.76e-04	0	44	0	1006632960	21	5156
2026-01-22 01:13:36.05	233.47	23.19	-30.5	-33.7	13.2	2.67e-05	0	44	0	1008730112	21	5171
2026-01-22 01:13:37.05	233.36	23.05	-30.6	-34.0	12.9	3.89e-05	0	44	0	1010827264	21	5308
2026-01-22 01:13:38.06	233.25	22.91	-30.5	-33.7	13.2	3.43e-05	0	44	0	1012924416	21	5175
2026-01-22 01:13:39.06	233.14	22.78	-30.5	-33.7	13.1	3.13e-04	0	44	0	1015021568	21	5214
2026-01-22 01:13:40.06	233.03	22.64	-30.7	-34.4	12.7	5.26e-05	0	44	0	1016070144	21	5459
2026-01-22 01:13:41.06	232.93	22.51	-30.6	-33.9	12.9	5.11e-05	0	44	0	1018167296	21	5284
2026-01-22 01:13:42.06	232.82	22.38	-30.4	-33.5	13.2	1.34e-04	0	44	0	1020264448	21	5144
2026-01-22 01:13:43.07	232.71	22.24	-30.4	-33.9	13.3	1.90e-05	0	44	0	1022361600	20	5395
2026-01-22 01:13:44.07	232.61	22.11	-30.4	-33.9	13.3	1.67e-05	0	44	0	1024458752	20	5403
2026-01-22 01:13:45.08	232.51	21.98	-30.5	-34.1	13.2	2.21e-05	0	44	0	1025507328	20	5470
2026-01-22 01:13:46.08	232.40	21.85	-30.6	-33.9	12.9	3.43e-05	0	44	0	1027604480	21	5280
2026-01-22 01:13:47.08	232.30	21.72	-30.6	-34.1	12.8	5.41e-05	0	44	0	1029701632	21	5357
2026-01-22 01:13:48.08	232.20	21.59	-30.5	-33.6	13.1	4.57e-05	0	44	0	1031798784	21	5177
2026-01-22 01:13:49.08	232.10	21.46	-30.4	-33.9	13.2	1.98e-05	0	44	0	1033895936	20	5401
2026-01-22 01:13:50.08	232.00	21.33	-30.5	-33.7	13.0	3.43e-05	0	44	0	1034944512	21	5204
2026-01-22 01:13:51.08	231.91	21.20	-30.6	-34.0	12.8	4.50e-05	0	44	0	1037041664	21	5338
2026-01-22 01:13:52.08	231.81	21.08	-30.5	-33.7	13.1	4.34e-05	0	44	0	1039138816	21	5192
2026-01-22 01:13:53.08	231.71	20.95	-29.8	-33.3	12.6	5.64e-05	0	44	0	1041235968	21	5412
2026-01-22 01:13:54.08	231.62	20.82	-30.4	-34.0	12.9	4.57e-05	0	44	0	1043333120	20	5450
2026-01-22 01:13:55.08	231.52	20.70	-30.3	-33.7	13.1	1.98e-05	0	44	0	1044381696	20	5333
2026-01-22 01:13:56.08	231.43	20.57	-30.5	-34.2	11.8	1.14e-04	0	44	0	1046478848	20	5520
2026-01-22 01:13:57.08	231.33	20.45	-30.4	-34.0	12.0	2.67e-05	0	44	0	1048576000	20	5418
2026-01-22 01:13:58.09	231.24	20.32	-30.4	-33.9	13.0	2.21e-05	0	44	0	1050673152	20	5415
2026-01-22 01:13:59.09	231.15	20.20	-30.5	-33.8	12.8	1.90e-05	0	44	0	1051721728	21	5228
2026-01-22 01:14:00.10	231.06	20.07	-30.6	-34.1	12.6	2.60e-03	0	44	0	1053818880	21	5371
2026-01-22 01:14:01.10	230.97	19.95	-30.5	-34.2	13.0	3.43e-05	0	44	0	1055916032	20	5518
2026-01-22 01:14:02.10	230.88	19.83	-30.4	-34.1	13.1	3.20e-05	0	44	0	1058013184	20	5461
2026-01-22 01:14:03.10	230.79	19.71	-30.4	-34.0	13.1	5.26e-05	0	44	0	1060110336	20	5427
2026-01-22 01:14:04.10	230.70	19.59	-30.3	-33.8	13.2	2.21e-05	0	44	0	1061158912	20	5370
2026-01-22 01:14:05.11	230.61	19.46	-30.3	-33.8	13.3	1.98e-05	0	44	0	1063256064	20	5347
2026-01-22 01:14:06.11	230.53	19.34	-30.4	-34.0	13.1	1.90e-05	0	44	0	1065353216	20	5423
2026-01-22 01:14:07.11	230.44	19.23	-30.2	-33.5	13.4	1.67e-05	0	44	0	1067450368	20	5258
2026-01-22 01:14:08.11	230.36	19.11	-30.4	-33.9	13.2	1.75e-05	0	45	0	1069547520	20	5390
2026-01-22 01:14:09.12	230.27	18.99	-30.3	-33.8	13.2	2.44e-05	0	44	0	1070596096	20	5351
2026-01-22 01:14:10.12	230.19	18.87	-30.4	-34.0	13.1	1.83e-05	0	44	0	1072693248	20	5432
2026-01-22 01:14:11.12	230.10	18.75	-30.5	-33.9	12.8	6.71e-05	0	44	0	1074790400	21	5304
2026-01-22 01:14:12.12	230.02	18.63	-30.4	-34.1	13.0	3.28e-05	0	44	0	1076887552	20	5483
2026-01-22 01:14:13.13	229.94	18.52	-30.4	-34.1	13.0	3.43e-05	0	44	0	1078984704	20	5481
2026-01-22 01:14:14.13	229.86	18.40	-30.6	-34.1	12.6	1.64e-03	0	44	0	1080033280	21	5380
2026-01-22 01:14:15.14	229.78	18.28	-30.7	-34.3	12.5	9.99e-05	0	44	0	1082130432	21	5449
2026-01-22 01:14:16.14	229.70	18.17	-30.7	-34.4	12.4	1.21e-04	0	44	0	1084227584	21	5511
2026-01-22 01:14:17.14	229.62	18.05	-30.7	-34.5	12.3	6.48e-04	0	44	0	1086324736	21	5574
2026-01-22 01:14:18.14	229.54	17.94	-30.8	-34.8	12.1	7.64e-04	0	44	0	1088421888	21	5677
2026-01-22 01:14:19.15	229.46	17.83	-30.9	-34.9	12.1	3.43e-04	0	44	0	1089470464	21	5713
2026-01-22 01:14:20.14	229.38	17.71	-30.9	-35.0	12.0	2.75e-04	0	44	0	1091567616	21	5783
2026-01-22 01:14:21.14	229.31	17.60	-31.0	-34.9	11.7	1.66e-03	0	44	0	1093664768	22	5618
2026-01-22 01:14:22.15	229.23	17.49	-30.8	-34.2	12.2	3.54e-04	0	44	0	1095761920	22	5329
2026-01-22 01:14:23.15	229.15	17.38	-30.8	-34.5	12.3	1.82e-04	0	44	0	1096810496	21	5567
2026-01-22 01:14:24.14	229.08	17.27	-30.7	-34.3	12.5	1.38e-03	0	44	0	1098907648	21	5456
2026-01-22 01:14:25.14	229.00	17.15	-30.7	-34.3	12.4	1.16e-04	0	44	0	1101004800	21	5460
2026-01-22 01:14:26.14	228.93	17.04	-30.7	-34.5	12.3	1.39e-04	0	44	0	1103101952	21	5543
2026-01-22 01:14:27.15	228.86	16.93	-30.6	-34.1	12.6	1.33e-04	0	44	0	1105199104	21	5367
2026-01-22 01:14:28.15	228.78	16.82	-30.6	-34.1	12.5	1.98e-04	0	44	0	1106247680	21	5404
2026-01-22 01:14:29.15	228.71	16.71	-30.5	-33.8	12.8	2.14e-03	0	44	0	1108344832	21	5278
2026-01-22 01:14:30.15	228.64	16.61	-30.5	-33.8	12.7	7.09e-05	0	44	0	1110441984	21	5265
2026-01-22 01:14:31.15	228.57	16.50	-30.5	-33.7	12.8	2.10e-04	0	44	0	1112539136	21	5227
2026-01-22 01:14:32.14	228.50	16.39	-30.4	-34.1	12.9	2.37e-03	0	44	0	1114636288	20	5499
2026-01-22 01:14:33.15	228.43	16.28	-30.5	-33.8	12.7	6.17e-05	0	44	0	1115684864	21	5248
2026-01-22 01:14:34.15	228.36	16.18	-30.4	-33.5	12.9	2.78e-04	0	44	0	1117782016	21	5161
2026-01-22 01:14:35.15	228.29	16.07	-30.5	-33.7	12.8	2.22e-03	0	44	0	1119879168	21	5232
2026-01-22 01:14:36.15	228.22	15.96	-30.4	-34.1	12.8	2.47e-03	0	44	0	1121976320	20	5485
2026-01-22 01:14:37.15	228.15	15.86	-30.5	-34.2	12.7	5.18e-05	0	44	0	1124073472	20	5565
2026-01-22 01:14:38.15	228.08	15.75	-30.5	-33.8	12.7	2.54e-03	0	44	0	1125122048	21	5283
2026-01-22 01:14:39.14	228.02	15.65	-30.6	-34.0	12.5	2.46e-03	0	44	0	1127219200	21	5368
2026-01-22 01:14:40.15	227.95	15.54	-30.7	-34.3	12.3	4.66e-04	0	44	0	1129316352	21	5493
2026-01-22 01:14:41.14	227.88	15.44	-30.6	-34.2	12.4	2.57e-03	0	44	0	1131413504	21	5449
2026-01-22 01:14:42.14	227.82	15.34	-30.7	-34.4	12.2	2.38e-03	0	44	0	1132462080	21	5531
2026-01-22 01:14:43.14	227.75	15.23	-30.7	-34.5	12.2	5.80e-04	0	44	0	1134559232	21	5556
2026-01-22 01:14:44.15	227.69	15.13	-30.8	-34.6	12.1	1.94e-04	0	44	0	1136656384	21	5624
2026-01-22 01:14:45.15	227.62	15.03	-30.7	-34.5	12.2	2.65e-03	0	44	0	1138753536	21	5591
2026-01-22 01:14:46.15	227.56	14.92	-30.7	-34.6	12.1	4.78e-04	0	44	0	1140850688	21	5606
2026-01-22 01:14:47.16	227.50	14.82	-30.7	-34.6	12.1	2.32e-03	0	44	0	1141899264	21	5630
2026-01-22 01:14:48.16	227.43	14.72	-30.7	-34.6	12.1	2.30e-03	0	44	0	1143996416	21	5607
2026-01-22 01:14:49.16	227.37	14.62	-30.7	-34.6	12.0	4.89e-04	0	44	0	1146093568	21	5637
2026-01-22 01:14:50.16	227.31	14.52	-30.7	-34.7	12.0	2.19e-03	0	44	0	1148190720	21	5652
2026-01-22 01:14:51.17	227.25	14.42	-30.7	-34.5	12.1	1.98e-03	0	44	0	1150287872	21	5592
2026-01-22 01:14:52.17	227.18	14.32	-30.7	-34.6	12.1	5.23e-04	0	44	0	1151336448	21	5613
2026-01-22 01:14:53.17	227.12	14.22	-30.8	-34.8	11.9	2.03e-03	0	44	0	1153433600	21	5719
2026-01-22 01:14:54.17	227.06	14.12	-30.8	-34.8	11.9	2.25e-03	0	44	0	1155530752	21	5725
2026-01-22 01:14:55.17	227.00	14.02	-30.7	-34.7	11.9	5.90e-04	0	44	0	1157627904	21	5697
2026-01-22 01:14:56.18	226.94	13.92	-30.7	-34.9	11.7	2.44e-03	0	44	0	1159725056	21	5864
2026-01-22 01:14:57.18	226.88	13.82	-30.9	-35.0	11.7	2.67e-03	0	44	0	1160773632	21	5828
2026-01-22 01:14:58.18	226.83	13.73	-30.8	-35.1	11.6	6.81e-04	0	45	0	1162870784	21	5887
2026-01-22 01:14:59.18	226.77	13.63	-30.9	-35.3	11.4	2.93e-03	0	44	0	1164967936	21	5977
2026-01-22 01:15:00.18	226.71	13.53	-30.8	-35.0	11.6	2.69e-03	0	45	0	1167065088	21	5843
2026-01-22 01:15:01.19	226.65	13.44	-30.9	-35.1	11.6	8.44e-04	0	44	0	1169162240	21	5861
2026-01-22 01:15:02.19	226.59	13.34	-30.9	-35.3	11.4	3.02e-03	0	44	0	1170210816	21	5978
2026-01-22 01:15:03.19	226.54	13.24	-30.9	-35.3	11.4	3.01e-03	0	44	0	1172307968	21	5979
2026-01-22 01:15:04.19	226.48	13.15	-31.0	-35.1	11.2	1.19e-03	0	44	0	1174405120	22	5772
2026-01-22 01:15:05.20	226.42	13.05	-31.0	-35.1	11.2	1.29e-03	0	44	0	1176502272	22	5759
2026-01-22 01:15:06.20	226.37	12.96	-31.0	-35.1	11.2	2.99e-03	0	44	0	1177550848	22	5756
2026-01-22 01:15:07.20	226.31	12.86	-31.1	-35.5	10.9	1.60e-03	0	44	0	1179648000	22	5936
2026-01-22 01:15:08.20	226.26	12.77	-31.2	-35.6	10.8	3.95e-03	0	45	0	1181745152	22	6007
2026-01-22 01:15:09.20	226.20	12.68	-31.1	-35.3	11.0	1.98e-03	0	44	0	1183842304	22	5866
2026-01-22 01:15:10.21	226.15	12.58	-31.0	-34.9	11.3	1.17e-03	0	45	0	1185939456	22	5660
2026-01-22 01:15:11.21	226.10	12.49	-30.9	-35.3	11.3	1.73e-03	0	44	0	1186988032	21	5978
2026-01-22 01:15:12.21	226.04	12.40	-30.9	-35.2	11.4	1.07e-03	0	44	0	1189085184	21	5898
2026-01-22 01:15:13.21	225.99	12.30	-30.9	-35.4	11.2	1.01e-03	0	44	0	1191182336	21	6009
2026-01-22 01:15:14.21	225.94	12.21	-31.1	-35.4	10.9	1.95e-03	0	44	0	1193279488	22	5907
2026-01-22 01:15:15.21	225.88	12.12	-31.2	-35.6	10.8	2.76e-03	0	45	0	1195376640	22	6001
2026-01-22 01:15:16.21	225.83	12.03	-31.0	-35.0	11.1	1.39e-03	0	44	0	1196425216	22	5714
2026-01-22 01:15:17.21	225.78	11.94	-30.9	-35.1	11.3	1.37e-03	0	45	0	1198522368	21	5899
2026-01-22 01:15:18.22	225.73	11.85	-30.9	-35.4	11.3	1.40e-03	0	45	0	1200619520	21	6000
2026-01-22 01:15:19.23	225.68	11.75	-30.9	-35.4	11.2	1.28e-03	0	44	0	1202716672	21	5998
2026-01-22 01:15:20.23	225.63	11.66	-30.9	-35.3	11.3	1.31e-03	0	45	0	1204813824	21	5992
2026-01-22 01:15:21.23	225.58	11.57	-30.9	-35.3	11.3	1.79e-03	0	44	0	1205862400	21	5979
2026-01-22 01:15:22.23	225.53	11.48	-30.9	-35.4	11.2	1.50e-03	0	44	0	1207959552	21	6050
2026-01-22 01:15:23.24	225.48	11.39	-30.9	-35.4	11.2	1.26e-03	0	45	0	1210056704	21	6031
2026-01-22 01:15:24.23	225.43	11.31	-31.0	-35.5	11.1	2.03e-03	0	45	0	1212153856	21	6086
2026-01-22 01:15:25.24	225.38	11.22	-31.0	-35.2	11.0	1.74e-03	0	44	0	1214251008	22	5806
2026-01-22 01:15:26.24	225.33	11.13	-30.9	-34.9	11.2	1.41e-03	0	44	0	1215299584	22	5694
2026-01-22 01:15:27.25	225.28	11.04	-30.9	-35.3	11.3	1.10e-03	0	45	0	1217396736	21	5971
2026-01-22 01:15:28.25	225.23	10.95	-30.9	-35.5	11.1	1.36e-03	0	45	0	1219493888	21	6088
2026-01-22 01:15:29.25	225.18	10.86	-31.1	-35.5	10.7	2.85e-03	0	45	0	1221591040	22	5970
2026-01-22 01:15:30.25	225.14	10.78	-31.1	-35.3	10.8	2.41e-03	0	44	0	1222639616	22	5894
2026-01-22 01:15:31.25	225.09	10.69	-31.2	-35.9	10.4	3.27e-03	0	44	0	1224736768	22	6180
2026-01-22 01:15:32.25	225.04	10.60	-31.2	-35.8	10.5	5.78e-03	0	44	0	1226833920	22	6128
2026-01-22 01:15:33.25	224.99	10.52	-31.2	-36.0	10.4	4.29e-03	0	44	0	1228931072	22	6211
2026-01-22 01:15:34.26	224.95	10.43	-31.3	-36.2	10.2	5.77e-03	0	44	0	1231028224	22	6339
2026-01-22 01:15:35.26	224.90	10.34	-31.3	-36.1	10.2	6.95e-03	0	45	0	1232076800	22	6315
2026-01-22 01:15:36.27	224.86	10.26	-31.3	-36.4	10.0	6.09e-03	0	44	0	1234173952	22	6429
2026-01-22 01:15:37.26	224.81	10.17	-31.3	-36.5	10.0	9.19e-03	0	44	0	1236271104	22	6479
2026-01-22 01:15:38.27	224.76	10.09	-31.2	-35.8	10.4	5.85e-03	0	44	0	1238368256	22	6148
2026-01-22 01:15:39.27	224.72	10.00	-31.1	-35.8	10.5	4.45e-03	0	45	0	1240465408	22	6123
2026-01-22 01:15:40.28	224.67	9.92	-31.1	-35.4	10.7	3.58e-03	0	44	0	1241513984	22	5965
2026-01-22 01:15:41.28	224.63	9.83	-31.0	-35.3	10.8	2.75e-03	0	44	0	1243611136	22	5909
2026-01-22 01:15:42.28	224.59	9.75	-31.1	-35.6	10.6	4.48e-03	0	44	0	1245708288	22	6047
2026-01-22 01:15:43.28	224.54	9.67	-31.0	-35.4	10.7	3.01e-03	0	45	0	1247805440	22	5926
2026-01-22 01:15:44.28	224.50	9.58	-31.1	-35.5	10.6	2.87e-03	0	45	0	1249902592	22	5995
2026-01-22 01:15:45.28	224.46	9.50	-31.0	-35.4	10.6	3.21e-03	0	44	0	1250951168	22	5976
2026-01-22 01:15:46.28	224.41	9.42	-31.0	-35.4	10.7	3.02e-03	0	44	0	1253048320	22	5954
2026-01-22 01:15:47.28	224.37	9.33	-31.1	-35.6	10.5	3.70e-03	0	44	0	1255145472	22	6048
2026-01-22 01:15:48.28	224.33	9.25	-31.1	-35.8	10.3	4.42e-03	0	44	0	1257242624	22	6143
2026-01-22 01:15:49.28	224.28	9.17	-31.1	-35.5	10.6	3.74e-03	0	44	0	1259339776	22	6009
2026-01-22 01:15:50.29	224.24	9.09	-31.1	-35.6	10.5	3.61e-03	0	44	0	1260388352	22	6039
2026-01-22 01:15:51.28	224.20	9.01	-31.1	-35.6	10.5	4.58e-03	0	44	0	1262485504	22	6068
2026-01-22 01:15:52.29	224.16	8.93	-31.0	-35.4	10.6	4.04e-03	0	44	0	1264582656	22	5974
2026-01-22 01:15:53.29	224.12	8.84	-31.1	-35.6	10.5	4.06e-03	0	44	0	1266679808	22	6050
2026-01-22 01:15:54.30	224.08	8.76	-31.1	-35.6	10.4	4.17e-03	0	44	0	1267728384	22	6086
2026-01-22 01:15:55.30	224.04	8.68	-31.1	-35.7	10.4	4.78e-03	0	45	0	1269825536	22	6109
2026-01-22 01:15:56.30	223.99	8.60	-31.1	-35.6	10.4	4.46e-03	0	45	0	1271922688	22	6069
2026-01-22 01:15:57.31	223.95	8.52	-31.0	-35.5	10.5	4.22e-03	0	45	0	1274019840	22	6024
2026-01-22 01:15:58.31	223.91	8.44	-31.1	-35.7	10.3	4.47e-03	0	44	0	1276116992	22	6137
2026-01-22 01:15:59.32	223.87	8.36	-31.1	-35.6	10.3	6.83e-03	0	44	0	1277165568	22	6076
2026-01-22 01:16:00.32	223.83	8.28	-31.1	-35.6	10.3	5.89e-03	0	44	0	1279262720	22	6080
2026-01-22 01:16:01.33	223.79	8.20	-31.1	-35.7	10.3	4.53e-03	0	44	0	1281359872	22	6116
2026-01-22 01:16:02.33	223.75	8.12	-31.2	-36.0	10.1	6.77e-03	0	44	0	1283457024	22	6272
2026-01-22 01:16:03.33	223.72	8.04	-31.1	-35.9	10.1	6.72e-03	0	45	0	1285554176	22	6230
