passes_logs/2026/01/22/R2M6_AANII_01/R2M6_AANII_01__20260122_033524_AQUA_rec.log

#Pass ID: 20260122_033524_AQUA
#Satellite: AQUA
#Configuration: AQUA
#almurnet v.1.7.20240730
#Start time: 2026-01-22 03:36:45

#Version: 2.2.20231116
#Station: R2M6_AANII_01
#Location: 30.233357 lon 59.946436 lat
#TLE: 1 27424U 02022A   26020.90316333  .00002787  00000+0  56766-3 0  9999
#TLE: 2 27424  98.4095 347.4297 0002000  71.6339 309.8236 14.61840001261750

#Time	Az	El	Level	Level2	SNR	BER	BlckErr	Temp	State	Recorded	gain1	gain2
2026-01-22 03:36:45.61	357.38	13.08	-33.9	-43.3	3.8	8.47e-01	0	45	0	0	28	10551
2026-01-22 03:36:46.61	357.23	13.16	-34.4	-53.3	3.8	7.43e-01	0	45	104	0	30	31899
2026-01-22 03:36:47.61	357.08	13.24	-34.5	-53.5	3.8	7.46e-01	0	45	104	0	30	32113
2026-01-22 03:36:48.61	356.92	13.32	-34.5	-53.5	3.8	7.45e-01	0	44	104	0	30	32111
2026-01-22 03:36:49.62	356.77	13.40	-34.5	-53.5	3.8	7.44e-01	0	45	104	0	30	32103
2026-01-22 03:36:50.62	356.61	13.48	-34.4	-53.4	3.8	7.45e-01	0	45	104	0	30	32050
2026-01-22 03:36:51.62	356.45	13.56	-34.4	-53.4	3.8	7.44e-01	0	45	104	0	30	32076
2026-01-22 03:36:52.62	356.30	13.64	-34.5	-53.4	3.8	7.44e-01	0	45	104	0	30	32020
2026-01-22 03:36:53.62	356.14	13.72	-34.5	-53.4	3.8	7.46e-01	0	45	104	0	30	32071
2026-01-22 03:36:54.62	355.98	13.80	-34.5	-53.5	3.8	7.46e-01	0	45	104	0	30	32170
2026-01-22 03:36:55.62	355.82	13.88	-34.5	-53.5	3.8	7.48e-01	0	45	104	0	30	32097
2026-01-22 03:36:56.62	355.66	13.97	-34.4	-53.4	3.8	7.48e-01	0	45	104	0	30	31998
2026-01-22 03:36:57.63	355.49	14.05	-34.4	-53.4	3.8	7.45e-01	0	45	104	0	30	31848
2026-01-22 03:36:58.62	355.33	14.13	-34.4	-53.4	3.8	7.45e-01	0	45	104	0	30	32033
2026-01-22 03:36:59.63	355.17	14.21	-34.4	-53.4	3.8	7.42e-01	0	45	104	0	30	32133
2026-01-22 03:37:00.63	355.00	14.29	-34.5	-53.5	3.8	7.46e-01	0	45	104	0	30	32092
2026-01-22 03:37:01.63	354.83	14.37	-34.5	-53.5	3.8	7.45e-01	0	45	104	0	30	32085
2026-01-22 03:37:02.63	354.67	14.45	-34.5	-53.5	3.8	7.45e-01	0	45	104	0	30	32113
2026-01-22 03:37:03.63	354.50	14.54	-34.5	-53.5	3.8	7.43e-01	0	45	104	0	30	32087
2026-01-22 03:37:04.63	354.33	14.62	-34.5	-53.6	3.8	7.47e-01	0	45	104	0	30	32251
2026-01-22 03:37:05.64	354.16	14.70	-34.5	-53.5	3.8	7.43e-01	0	45	104	0	30	32135
2026-01-22 03:37:06.64	353.99	14.78	-34.5	-53.5	3.8	7.44e-01	0	45	104	0	30	32097
2026-01-22 03:37:07.64	353.81	14.86	-34.5	-53.5	3.8	7.46e-01	0	45	104	0	30	32076
2026-01-22 03:37:08.64	353.64	14.95	-34.5	-53.4	3.8	7.42e-01	0	45	104	0	30	31894
2026-01-22 03:37:09.65	353.46	15.03	-34.5	-53.4	3.8	7.47e-01	0	45	104	0	30	31881
2026-01-22 03:37:10.65	353.29	15.11	-34.4	-53.3	3.8	7.45e-01	0	45	104	0	30	31712
2026-01-22 03:37:11.66	353.11	15.19	-34.3	-53.2	3.8	7.44e-01	0	44	104	0	30	31525
2026-01-22 03:37:12.66	352.93	15.28	-34.3	-53.0	3.8	7.44e-01	0	45	104	0	30	31182
2026-01-22 03:37:13.67	352.75	15.36	-34.2	-52.8	3.8	7.44e-01	0	45	104	0	30	30870
2026-01-22 03:37:14.67	352.57	15.44	-34.0	-52.3	3.7	7.48e-01	0	44	104	0	30	29434
2026-01-22 03:37:15.68	352.39	15.52	-34.0	-51.2	3.8	7.47e-01	0	45	104	0	30	26230
2026-01-22 03:37:16.69	352.21	15.61	-33.9	-50.8	3.8	7.46e-01	0	45	104	0	30	25131
2026-01-22 03:37:17.69	352.02	15.69	-33.9	-50.4	3.8	7.45e-01	0	44	104	0	30	24035
2026-01-22 03:37:18.69	351.84	15.77	-33.9	-50.1	3.9	7.42e-01	0	45	104	0	30	23284
2026-01-22 03:37:19.69	351.65	15.85	-33.9	-50.1	3.9	7.43e-01	0	44	104	0	30	23191
2026-01-22 03:37:20.69	351.47	15.94	-33.9	-50.1	3.9	7.40e-01	0	45	104	0	30	23310
2026-01-22 03:37:21.69	351.28	16.02	-33.9	-50.4	3.8	7.45e-01	0	45	104	0	30	23977
2026-01-22 03:37:22.70	351.09	16.10	-33.9	-50.6	3.8	7.47e-01	0	45	104	0	30	24481
2026-01-22 03:37:23.70	350.90	16.18	-33.9	-50.9	3.8	7.45e-01	0	44	104	0	30	25533
2026-01-22 03:37:24.70	350.71	16.27	-33.9	-51.6	3.8	7.44e-01	0	44	104	0	30	27495
2026-01-22 03:37:25.71	350.52	16.35	-33.9	-52.2	3.8	7.45e-01	0	44	104	0	30	29280
2026-01-22 03:37:26.71	350.32	16.43	-34.0	-52.4	3.8	7.45e-01	0	45	104	0	30	29902
2026-01-22 03:37:27.71	350.13	16.51	-33.9	-52.2	3.8	7.47e-01	0	44	104	0	30	29328
2026-01-22 03:37:28.72	349.93	16.60	-33.9	-51.9	3.8	7.45e-01	0	44	104	0	30	28693
2026-01-22 03:37:29.72	349.73	16.68	-33.9	-52.0	3.8	7.49e-01	0	45	104	0	30	28939
2026-01-22 03:37:30.73	349.53	16.76	-33.9	-52.1	3.8	7.42e-01	0	45	104	0	30	29121
2026-01-22 03:37:31.74	349.33	16.85	-33.9	-51.3	3.8	7.43e-01	0	44	104	0	30	26823
2026-01-22 03:37:32.74	349.13	16.93	-33.9	-50.6	3.8	7.45e-01	0	44	104	0	30	24480
2026-01-22 03:37:33.74	348.93	17.01	-33.9	-50.6	3.8	7.43e-01	0	45	104	0	30	24533
2026-01-22 03:37:34.74	348.73	17.09	-33.9	-51.8	3.8	7.47e-01	0	45	104	0	30	28150
2026-01-22 03:37:35.75	348.52	17.18	-33.9	-51.5	3.8	7.44e-01	0	44	104	0	30	27293
2026-01-22 03:37:36.75	348.32	17.26	-33.7	-46.7	4.2	7.33e-01	0	44	104	0	29	16058
2026-01-22 03:37:37.75	348.11	17.34	-33.2	-41.4	9.8	6.25e-01	0	45	104	0	28	9266
2026-01-22 03:37:38.75	347.91	17.42	-32.6	-38.5	12.9	6.06e-01	0	44	0	524288	27	7106
2026-01-22 03:37:39.76	347.70	17.50	-32.1	-36.9	14.6	6.05e-01	0	45	0	2621440	26	6227
2026-01-22 03:37:40.76	347.49	17.59	-31.9	-36.2	15.2	6.03e-01	0	45	0	4194304	26	5881
2026-01-22 03:37:41.76	347.27	17.67	-32.0	-36.4	15.1	6.02e-01	0	45	0	6291456	26	5962
2026-01-22 03:37:42.76	347.06	17.75	-31.9	-36.0	15.3	6.03e-01	0	45	0	7864320	26	5773
2026-01-22 03:37:43.76	346.85	17.83	-31.8	-36.3	15.4	6.04e-01	0	45	0	9961472	25	6045
2026-01-22 03:37:44.77	346.63	17.91	-31.8	-36.4	15.4	6.03e-01	0	45	0	12058624	25	6082
2026-01-22 03:37:45.78	346.41	18.00	-31.8	-36.3	15.4	6.03e-01	0	45	0	13631488	25	6032
2026-01-22 03:37:46.78	346.20	18.08	-31.6	-35.5	16.0	6.03e-01	0	45	0	15728640	25	5635
2026-01-22 03:37:47.77	345.98	18.16	-31.2	-34.7	16.9	6.05e-01	0	45	0	17301504	24	5387
2026-01-22 03:37:48.78	345.76	18.24	-30.8	-34.0	17.6	6.05e-01	0	45	0	19398656	23	5240
2026-01-22 03:37:49.79	345.54	18.32	-30.5	-33.2	18.2	6.04e-01	0	45	0	20971520	23	4899
2026-01-22 03:37:50.79	345.31	18.40	-30.2	-32.9	18.7	6.02e-01	0	45	0	23068672	22	4916
2026-01-22 03:37:51.79	345.09	18.48	-30.0	-32.3	19.1	6.03e-01	0	44	0	25165824	22	4694
2026-01-22 03:37:52.80	344.86	18.56	-29.9	-32.1	19.2	6.01e-01	0	45	0	26738688	22	4624
2026-01-22 03:37:53.79	344.64	18.64	-29.9	-32.1	19.2	6.04e-01	0	45	0	28835840	22	4626
2026-01-22 03:37:54.79	344.41	18.72	-29.9	-32.2	19.2	6.03e-01	0	44	0	30408704	22	4660
2026-01-22 03:37:55.80	344.18	18.80	-29.9	-32.0	19.3	6.04e-01	0	45	0	32505856	22	4604
2026-01-22 03:37:56.80	343.95	18.88	-29.8	-32.4	19.3	6.03e-01	0	45	0	34078720	21	4837
2026-01-22 03:37:57.80	343.72	18.96	-29.7	-32.1	19.5	6.04e-01	0	45	0	36175872	21	4752
2026-01-22 03:37:58.81	343.48	19.04	-29.7	-32.1	19.5	6.03e-01	0	45	0	38273024	21	4750
2026-01-22 03:37:59.81	343.25	19.12	-29.8	-32.4	19.3	6.02e-01	0	45	0	39845888	21	4858
2026-01-22 03:38:00.81	343.02	19.20	-29.8	-32.3	19.4	6.03e-01	0	45	0	41943040	21	4812
2026-01-22 03:38:01.81	342.78	19.28	-30.0	-32.7	19.2	6.02e-01	0	45	0	44040192	21	4953
2026-01-22 03:38:02.82	342.54	19.36	-29.9	-32.7	19.1	6.04e-01	0	45	0	45613056	21	4945
2026-01-22 03:38:03.82	342.30	19.44	-30.0	-32.8	19.1	6.02e-01	0	45	0	47710208	21	4975
2026-01-22 03:38:04.83	342.06	19.52	-30.1	-33.1	18.9	6.03e-01	0	44	0	49283072	21	5102
2026-01-22 03:38:05.84	341.81	19.59	-30.0	-32.8	19.1	6.04e-01	0	44	0	51380224	21	4978
2026-01-22 03:38:06.84	341.57	19.67	-29.8	-32.3	19.4	6.03e-01	0	45	0	52953088	21	4818
2026-01-22 03:38:07.85	341.32	19.75	-29.8	-32.3	19.4	6.01e-01	0	44	0	55050240	21	4811
2026-01-22 03:38:08.86	341.07	19.83	-29.8	-32.4	19.4	6.00e-01	0	44	0	57147392	21	4820
2026-01-22 03:38:09.85	340.83	19.90	-30.0	-32.9	19.1	6.02e-01	0	44	0	58720256	21	5009
2026-01-22 03:38:10.86	340.58	19.98	-30.0	-32.8	19.2	6.03e-01	0	45	0	60817408	21	4962
2026-01-22 03:38:11.85	340.33	20.06	-29.9	-32.5	19.4	6.01e-01	0	44	0	62390272	21	4853
2026-01-22 03:38:12.85	340.08	20.13	-29.8	-32.4	19.4	6.02e-01	0	44	0	64487424	21	4836
2026-01-22 03:38:13.85	339.83	20.21	-29.8	-32.3	19.5	6.05e-01	0	44	0	66060288	21	4795
2026-01-22 03:38:14.85	339.57	20.28	-29.8	-32.4	19.4	6.02e-01	0	45	0	68157440	21	4828
2026-01-22 03:38:15.85	339.32	20.36	-29.9	-32.4	19.4	6.04e-01	0	45	0	70254592	21	4846
2026-01-22 03:38:16.85	339.06	20.43	-29.9	-32.7	19.3	6.03e-01	0	45	0	71827456	21	4924
2026-01-22 03:38:17.85	338.81	20.51	-29.9	-32.5	19.3	6.02e-01	0	44	0	73924608	21	4869
2026-01-22 03:38:18.85	338.55	20.58	-29.9	-32.5	19.4	6.03e-01	0	44	0	76021760	21	4877
2026-01-22 03:38:19.85	338.29	20.66	-29.9	-32.5	19.4	6.05e-01	0	44	0	77594624	21	4859
2026-01-22 03:38:20.86	338.02	20.73	-29.9	-32.5	19.4	6.02e-01	0	44	0	79691776	21	4856
2026-01-22 03:38:21.87	337.76	20.80	-29.9	-32.6	19.3	6.04e-01	0	44	0	81264640	21	4905
2026-01-22 03:38:22.88	337.49	20.88	-30.0	-32.8	19.1	6.04e-01	0	44	0	83361792	21	4986
2026-01-22 03:38:23.88	337.22	20.95	-30.1	-33.0	19.0	6.03e-01	0	45	0	84934656	21	5043
2026-01-22 03:38:24.88	336.96	21.02	-30.2	-33.3	18.9	6.03e-01	0	44	0	87031808	21	5141
2026-01-22 03:38:25.89	336.69	21.09	-30.1	-33.1	19.0	6.01e-01	0	45	0	89128960	21	5099
2026-01-22 03:38:26.89	336.42	21.16	-30.1	-33.1	19.1	6.00e-01	0	44	0	90701824	21	5073
2026-01-22 03:38:27.90	336.14	21.23	-30.2	-33.3	18.9	6.04e-01	0	44	0	92798976	21	5137
2026-01-22 03:38:28.90	335.87	21.30	-30.1	-33.2	19.0	6.03e-01	0	44	0	94371840	21	5105
2026-01-22 03:38:29.91	335.59	21.37	-30.3	-33.6	18.7	6.01e-01	0	44	0	96468992	21	5260
2026-01-22 03:38:30.92	335.32	21.44	-30.1	-33.0	19.1	6.02e-01	0	44	0	98566144	21	5050
2026-01-22 03:38:31.92	335.04	21.51	-30.0	-32.7	19.3	6.04e-01	0	45	0	100139008	21	4930
2026-01-22 03:38:32.92	334.76	21.58	-29.9	-32.6	19.3	6.01e-01	0	44	0	102236160	21	4899
2026-01-22 03:38:33.92	334.48	21.65	-30.0	-32.9	19.1	6.05e-01	0	44	0	103809024	21	4992
2026-01-22 03:38:34.93	334.20	21.72	-30.0	-32.8	19.2	6.04e-01	0	44	0	105906176	21	4965
2026-01-22 03:38:35.93	333.92	21.78	-30.0	-32.9	19.2	6.01e-01	0	44	0	107479040	21	4993
2026-01-22 03:38:36.94	333.63	21.85	-30.2	-33.4	18.8	6.03e-01	0	44	0	109576192	21	5198
2026-01-22 03:38:37.94	333.35	21.91	-30.1	-33.0	19.1	6.01e-01	0	45	0	111673344	21	5030
2026-01-22 03:38:38.94	333.06	21.98	-30.0	-32.8	19.2	6.03e-01	0	44	0	113246208	21	4959
2026-01-22 03:38:39.94	332.78	22.04	-30.0	-32.7	19.3	6.05e-01	0	44	0	115343360	21	4944
2026-01-22 03:38:40.94	332.49	22.11	-30.0	-32.8	19.2	6.03e-01	0	44	0	116916224	21	4961
2026-01-22 03:38:41.95	332.20	22.17	-30.0	-32.9	19.1	6.04e-01	0	44	0	119013376	21	4997
2026-01-22 03:38:42.95	331.91	22.23	-30.1	-33.1	19.0	6.01e-01	0	44	0	121110528	21	5077
2026-01-22 03:38:43.96	331.61	22.30	-30.0	-32.9	19.2	6.04e-01	0	45	0	122683392	21	4997
2026-01-22 03:38:44.95	331.32	22.36	-30.0	-32.9	19.2	6.01e-01	0	44	0	124780544	21	4987
2026-01-22 03:38:45.95	331.03	22.42	-30.2	-33.3	18.9	6.02e-01	0	44	0	126353408	21	5164
2026-01-22 03:38:46.94	330.74	22.48	-30.2	-33.3	18.9	6.04e-01	0	44	0	128450560	21	5136
2026-01-22 03:38:47.94	330.44	22.54	-30.1	-33.2	19.0	6.02e-01	0	44	0	130023424	21	5100
2026-01-22 03:38:48.95	330.14	22.60	-30.2	-33.4	18.9	6.04e-01	0	45	0	132120576	21	5166
2026-01-22 03:38:49.95	329.84	22.66	-30.5	-34.1	18.4	6.04e-01	0	45	0	134217728	21	5472
2026-01-22 03:38:50.95	329.54	22.71	-30.5	-34.1	18.4	6.03e-01	0	45	0	135790592	21	5455
2026-01-22 03:38:51.96	329.24	22.77	-30.2	-33.4	18.8	6.03e-01	0	44	0	137887744	21	5180
2026-01-22 03:38:52.97	328.93	22.83	-30.1	-32.9	19.2	6.04e-01	0	45	0	139460608	21	5015
2026-01-22 03:38:53.98	328.62	22.88	-30.0	-32.8	19.3	6.01e-01	0	45	0	141557760	21	4951
2026-01-22 03:38:54.98	328.32	22.94	-30.0	-32.7	19.3	6.03e-01	0	44	0	143654912	21	4916
2026-01-22 03:38:55.99	328.01	22.99	-29.9	-32.5	19.5	6.02e-01	0	44	0	145227776	21	4845
2026-01-22 03:38:56.99	327.70	23.05	-30.0	-32.7	19.4	6.01e-01	0	44	0	147324928	21	4919
2026-01-22 03:38:57.98	327.40	23.10	-30.2	-33.2	19.0	6.02e-01	0	44	0	148897792	21	5115
2026-01-22 03:38:58.98	327.09	23.15	-30.1	-33.0	19.1	6.04e-01	0	44	0	150994944	21	5034
2026-01-22 03:38:59.99	326.78	23.20	-30.0	-32.7	19.3	6.03e-01	0	45	0	153092096	21	4931
2026-01-22 03:39:00.99	326.47	23.25	-30.0	-32.7	19.3	6.02e-01	0	44	0	154664960	21	4934
2026-01-22 03:39:02.00	326.15	23.30	-29.9	-32.6	19.4	6.03e-01	0	44	0	156762112	21	4913
2026-01-22 03:39:03.00	325.84	23.35	-30.0	-32.8	19.3	6.05e-01	0	45	0	158334976	21	4972
2026-01-22 03:39:04.00	325.52	23.40	-30.2	-33.2	19.0	6.01e-01	0	45	0	160432128	21	5127
2026-01-22 03:39:05.00	325.21	23.45	-30.1	-32.9	19.2	6.01e-01	0	45	0	162529280	21	5013
2026-01-22 03:39:06.00	324.89	23.50	-29.9	-32.6	19.4	6.02e-01	0	44	0	164102144	21	4884
2026-01-22 03:39:07.00	324.57	23.54	-29.9	-32.6	19.4	6.03e-01	0	44	0	166199296	21	4898
2026-01-22 03:39:08.00	324.25	23.59	-30.1	-33.0	19.1	6.02e-01	0	44	0	167772160	21	5038
2026-01-22 03:39:09.01	323.93	23.63	-30.0	-32.9	19.2	6.04e-01	0	45	0	169869312	21	4986
2026-01-22 03:39:10.01	323.61	23.67	-30.0	-32.7	19.3	6.02e-01	0	44	0	171442176	21	4932
2026-01-22 03:39:11.02	323.29	23.72	-30.0	-32.8	19.3	6.01e-01	0	44	0	173539328	21	4946
2026-01-22 03:39:12.02	322.96	23.76	-30.2	-33.4	18.9	6.04e-01	0	44	0	175636480	21	5169
2026-01-22 03:39:13.03	322.64	23.80	-30.1	-33.0	19.1	6.02e-01	0	44	0	177209344	21	5048
2026-01-22 03:39:14.03	322.31	23.84	-30.0	-32.8	19.3	6.02e-01	0	44	0	179306496	21	4968
2026-01-22 03:39:15.04	321.99	23.88	-30.0	-32.8	19.3	6.03e-01	0	45	0	180879360	21	4955
2026-01-22 03:39:16.04	321.66	23.91	-29.9	-32.6	19.3	6.04e-01	0	44	0	182976512	21	4897
2026-01-22 03:39:17.04	321.33	23.95	-30.0	-32.7	19.4	6.02e-01	0	45	0	184549376	21	4929
2026-01-22 03:39:18.05	321.00	23.99	-30.1	-32.9	19.2	6.04e-01	0	44	0	186646528	21	5004
2026-01-22 03:39:19.05	320.67	24.02	-30.0	-32.8	19.3	6.04e-01	0	44	0	188743680	21	4958
2026-01-22 03:39:20.05	320.35	24.06	-30.0	-32.7	19.3	6.03e-01	0	44	0	190316544	21	4941
2026-01-22 03:39:21.05	320.02	24.09	-30.0	-32.9	19.3	6.03e-01	0	44	0	192413696	21	4983
2026-01-22 03:39:22.05	319.69	24.12	-30.1	-33.0	19.1	6.02e-01	0	44	0	193986560	21	5041
2026-01-22 03:39:23.05	319.35	24.15	-30.1	-33.0	19.1	6.03e-01	0	45	0	196083712	21	5045
2026-01-22 03:39:24.05	319.02	24.18	-30.2	-33.4	18.9	6.02e-01	0	44	0	198180864	21	5171
2026-01-22 03:39:25.06	318.69	24.21	-30.2	-33.4	18.9	6.02e-01	0	44	0	199753728	21	5168
2026-01-22 03:39:26.06	318.35	24.24	-30.3	-33.6	18.8	6.04e-01	0	45	0	201850880	21	5251
2026-01-22 03:39:27.07	318.02	24.27	-30.3	-33.5	18.9	6.05e-01	0	44	0	203423744	21	5204
2026-01-22 03:39:28.07	317.68	24.30	-30.5	-34.1	18.5	6.04e-01	0	44	0	205520896	21	5445
2026-01-22 03:39:29.08	317.34	24.32	-30.3	-33.4	18.9	6.03e-01	0	44	0	207618048	21	5184
2026-01-22 03:39:30.09	317.01	24.35	-30.3	-33.5	18.7	6.05e-01	0	44	0	209190912	21	5234
2026-01-22 03:39:31.08	316.67	24.37	-30.3	-33.4	18.9	6.04e-01	0	45	0	211288064	21	5192
2026-01-22 03:39:32.09	316.33	24.39	-30.5	-34.0	18.6	6.03e-01	0	44	0	212860928	21	5393
2026-01-22 03:39:33.09	316.00	24.41	-30.3	-33.5	18.8	6.05e-01	0	45	0	214958080	21	5222
2026-01-22 03:39:34.10	315.65	24.43	-30.1	-33.1	19.1	6.00e-01	0	44	0	216530944	21	5080
2026-01-22 03:39:35.10	315.32	24.45	-30.1	-33.1	19.1	6.03e-01	0	44	0	218628096	21	5067
2026-01-22 03:39:36.11	314.97	24.47	-30.3	-33.5	18.9	6.01e-01	0	44	0	220725248	21	5198
2026-01-22 03:39:37.11	314.64	24.49	-30.3	-33.5	18.9	6.02e-01	0	45	0	222298112	21	5214
2026-01-22 03:39:38.11	314.30	24.51	-30.0	-32.8	19.3	6.01e-01	0	44	0	224395264	21	4949
2026-01-22 03:39:39.11	313.96	24.52	-29.9	-32.5	19.5	6.05e-01	0	44	0	226492416	21	4840
2026-01-22 03:39:40.11	313.62	24.53	-29.9	-32.5	19.6	6.03e-01	0	44	0	228065280	21	4838
2026-01-22 03:39:41.11	313.28	24.55	-30.1	-32.9	19.2	6.04e-01	0	45	0	230162432	21	5004
2026-01-22 03:39:42.12	312.93	24.56	-30.1	-33.0	19.2	6.03e-01	0	45	0	231735296	21	5013
2026-01-22 03:39:43.12	312.59	24.57	-30.0	-32.7	19.4	6.04e-01	0	44	0	233832448	21	4925
2026-01-22 03:39:44.13	312.25	24.58	-30.0	-32.8	19.3	6.04e-01	0	45	0	235405312	21	4942
2026-01-22 03:39:45.14	311.90	24.59	-30.1	-33.0	19.2	6.02e-01	0	44	0	237502464	21	5020
2026-01-22 03:39:46.13	311.56	24.60	-30.2	-33.1	19.1	6.04e-01	0	44	0	239599616	21	5079
2026-01-22 03:39:47.14	311.22	24.60	-30.1	-33.1	19.1	6.04e-01	0	44	0	241172480	21	5069
2026-01-22 03:39:48.14	310.88	24.61	-30.3	-33.7	18.9	6.02e-01	0	45	0	243269632	21	5276
2026-01-22 03:39:49.14	310.54	24.61	-30.4	-33.8	18.7	6.02e-01	0	44	0	244842496	21	5321
2026-01-22 03:39:50.14	310.19	24.62	-30.2	-33.4	19.0	6.03e-01	0	45	0	246939648	21	5163
2026-01-22 03:39:51.14	309.85	24.62	-30.4	-33.7	18.8	6.03e-01	0	45	0	248512512	21	5281
2026-01-22 03:39:52.15	309.51	24.62	-30.6	-33.9	18.3	6.02e-01	0	44	0	250609664	22	5244
2026-01-22 03:39:53.14	309.17	24.62	-30.4	-33.4	18.6	6.03e-01	0	45	0	252706816	22	5050
2026-01-22 03:39:54.14	308.83	24.62	-30.2	-32.8	19.0	6.02e-01	0	45	0	254279680	22	4854
2026-01-22 03:39:55.14	308.48	24.62	-30.2	-32.8	19.1	6.05e-01	0	45	0	256376832	22	4847
2026-01-22 03:39:56.15	308.14	24.62	-30.2	-32.9	19.0	6.03e-01	0	44	0	257949696	22	4870
2026-01-22 03:39:57.15	307.80	24.61	-30.3	-32.9	19.0	6.03e-01	0	45	0	260046848	22	4876
2026-01-22 03:39:58.16	307.45	24.61	-30.6	-33.7	18.5	6.03e-01	0	44	0	262144000	22	5188
2026-01-22 03:39:59.17	307.10	24.60	-30.2	-32.6	19.1	6.03e-01	0	44	0	263716864	22	4784
2026-01-22 03:40:00.18	306.76	24.59	-30.0	-32.3	19.3	6.02e-01	0	45	0	265814016	22	4665
2026-01-22 03:40:01.18	306.42	24.58	-30.4	-33.2	18.8	6.03e-01	0	44	0	267386880	22	5006
2026-01-22 03:40:02.19	306.07	24.57	-30.2	-32.7	19.1	6.02e-01	0	44	0	269484032	22	4815
2026-01-22 03:40:03.19	305.73	24.56	-30.2	-32.7	19.1	6.04e-01	0	44	0	271581184	22	4818
2026-01-22 03:40:04.19	305.39	24.55	-30.5	-33.5	18.6	6.03e-01	0	44	0	273154048	22	5093
2026-01-22 03:40:05.19	305.05	24.54	-30.2	-32.8	19.1	6.03e-01	0	45	0	275251200	22	4831
2026-01-22 03:40:06.19	304.71	24.53	-30.4	-33.3	18.6	6.03e-01	0	44	0	276824064	22	5044
2026-01-22 03:40:07.19	304.37	24.51	-30.6	-33.9	18.3	6.05e-01	0	45	0	278921216	22	5243
2026-01-22 03:40:08.19	304.03	24.50	-30.4	-33.4	18.6	6.04e-01	0	44	0	280494080	22	5069
2026-01-22 03:40:09.19	303.69	24.48	-30.4	-33.2	18.7	6.04e-01	0	45	0	282591232	22	4984
2026-01-22 03:40:10.19	303.35	24.46	-30.4	-33.4	18.7	6.03e-01	0	44	0	284688384	22	5047
2026-01-22 03:40:11.19	303.01	24.44	-30.3	-32.9	18.9	6.03e-01	0	45	0	286261248	22	4892
2026-01-22 03:40:12.19	302.68	24.42	-30.5	-33.6	18.5	6.04e-01	0	45	0	288358400	22	5160
2026-01-22 03:40:13.20	302.34	24.40	-29.8	-32.2	19.7	6.01e-01	0	45	0	289931264	21	4742
2026-01-22 03:40:14.20	302.00	24.38	-29.9	-32.1	19.1	6.04e-01	0	44	0	292028416	22	4602
2026-01-22 03:40:15.21	301.66	24.36	-30.7	-34.2	18.1	6.02e-01	0	44	0	294125568	22	5408
2026-01-22 03:40:16.21	301.32	24.33	-29.9	-32.5	19.6	6.02e-01	0	44	0	295698432	21	4845
2026-01-22 03:40:17.21	300.99	24.31	-30.3	-32.9	18.9	6.03e-01	0	44	0	297795584	22	4893
2026-01-22 03:40:18.22	300.65	24.28	-30.2	-32.8	19.1	6.02e-01	0	45	0	299368448	22	4845
2026-01-22 03:40:19.21	300.32	24.25	-30.0	-32.3	19.1	6.04e-01	0	44	0	301465600	22	4685
2026-01-22 03:40:20.22	299.98	24.23	-31.0	-35.0	17.5	6.01e-01	0	45	0	303562752	22	5748
2026-01-22 03:40:21.22	299.65	24.20	-29.5	-31.9	20.1	6.05e-01	0	44	0	305135616	20	4737
2026-01-22 03:40:22.23	299.31	24.17	-29.4	-31.4	19.3	6.03e-01	0	44	0	307232768	21	4540
2026-01-22 03:40:23.22	298.98	24.14	-30.3	-33.7	18.7	6.04e-01	0	44	0	308805632	21	5296
2026-01-22 03:40:24.22	298.65	24.10	-30.0	-32.9	19.2	6.01e-01	0	44	0	310902784	21	4983
2026-01-22 03:40:25.23	298.32	24.07	-30.3	-33.6	18.8	6.02e-01	0	44	0	312475648	21	5250
2026-01-22 03:40:26.23	297.99	24.04	-29.3	-31.4	20.3	6.04e-01	0	45	0	314572800	20	4601
2026-01-22 03:40:27.23	297.66	24.00	-30.6	-33.9	18.1	6.01e-01	0	45	0	316669952	22	5277
2026-01-22 03:40:28.23	297.33	23.97	-29.9	-33.0	19.5	6.02e-01	0	44	0	318242816	20	5145
2026-01-22 03:40:29.24	297.00	23.93	-29.6	-31.7	19.7	6.03e-01	0	45	0	320339968	21	4591
2026-01-22 03:40:30.25	296.67	23.89	-30.2	-33.3	19.0	6.01e-01	0	45	0	321912832	21	5145
2026-01-22 03:40:31.25	296.34	23.85	-30.0	-32.7	19.3	6.01e-01	0	44	0	324009984	21	4917
2026-01-22 03:40:32.26	296.02	23.81	-30.4	-33.8	18.7	6.01e-01	0	45	0	326107136	21	5334
2026-01-22 03:40:33.26	295.69	23.77	-29.7	-31.9	19.7	6.03e-01	0	44	0	327680000	21	4652
2026-01-22 03:40:34.27	295.37	23.73	-30.1	-33.1	18.9	6.05e-01	0	45	0	329777152	21	5060
2026-01-22 03:40:35.27	295.04	23.69	-29.9	-32.4	19.5	6.04e-01	0	44	0	331350016	21	4833
2026-01-22 03:40:36.28	294.72	23.65	-30.0	-32.8	19.2	6.03e-01	0	44	0	333447168	21	4974
2026-01-22 03:40:37.28	294.40	23.60	-30.0	-32.7	19.2	6.05e-01	0	44	0	335020032	21	4943
2026-01-22 03:40:38.29	294.08	23.56	-30.7	-34.1	18.1	6.06e-01	0	45	0	337117184	22	5369
2026-01-22 03:40:39.29	293.76	23.51	-29.9	-32.6	19.4	6.01e-01	0	45	0	339214336	21	4874
2026-01-22 03:40:40.29	293.44	23.47	-30.3	-33.1	18.6	6.05e-01	0	45	0	340787200	22	4970
2026-01-22 03:40:41.28	293.13	23.42	-30.1	-33.1	19.1	6.05e-01	0	44	0	342884352	21	5081
2026-01-22 03:40:42.28	292.81	23.37	-30.1	-33.1	19.0	6.03e-01	0	45	0	344457216	21	5074
2026-01-22 03:40:43.28	292.50	23.32	-30.0	-32.7	19.3	6.02e-01	0	45	0	346554368	21	4931
2026-01-22 03:40:44.28	292.18	23.27	-30.2	-33.5	18.8	6.03e-01	0	44	0	348651520	21	5214
2026-01-22 03:40:45.28	291.87	23.22	-30.2	-33.2	19.0	6.04e-01	0	44	0	350224384	21	5117
2026-01-22 03:40:46.28	291.56	23.17	-30.5	-33.7	18.4	6.05e-01	0	45	0	352321536	22	5177
2026-01-22 03:40:47.28	291.25	23.12	-29.9	-32.0	19.4	6.03e-01	0	45	0	353894400	22	4584
2026-01-22 03:40:48.29	290.94	23.07	-29.9	-32.1	19.4	6.04e-01	0	45	0	355991552	22	4627
2026-01-22 03:40:49.29	290.63	23.01	-29.6	-31.9	19.8	6.00e-01	0	44	0	357564416	21	4646
2026-01-22 03:40:50.30	290.32	22.96	-30.3	-33.8	18.6	6.05e-01	0	45	0	359661568	21	5344
2026-01-22 03:40:51.30	290.01	22.90	-29.6	-31.8	19.8	6.01e-01	0	45	0	361758720	21	4624
2026-01-22 03:40:52.30	289.71	22.85	-30.2	-33.5	18.6	6.04e-01	0	44	0	363331584	21	5225
2026-01-22 03:40:53.31	289.40	22.79	-29.6	-31.9	19.8	6.04e-01	0	45	0	365428736	21	4645
2026-01-22 03:40:54.31	289.10	22.74	-30.3	-33.5	18.6	6.03e-01	0	45	0	367001600	21	5248
2026-01-22 03:40:55.31	288.80	22.68	-29.8	-32.3	19.6	6.02e-01	0	45	0	369098752	21	4785
2026-01-22 03:40:56.31	288.50	22.62	-29.9	-32.5	19.3	6.01e-01	0	45	0	371195904	21	4871
2026-01-22 03:40:57.32	288.19	22.56	-30.0	-32.8	19.2	6.03e-01	0	45	0	372768768	21	4961
2026-01-22 03:40:58.32	287.90	22.50	-29.9	-32.5	19.3	6.02e-01	0	45	0	374865920	21	4860
2026-01-22 03:40:59.33	287.60	22.44	-30.1	-33.1	19.0	6.03e-01	0	44	0	376438784	21	5081
2026-01-22 03:41:00.32	287.30	22.38	-29.6	-31.8	19.7	6.04e-01	0	45	0	378535936	21	4620
2026-01-22 03:41:01.33	287.01	22.32	-29.9	-32.6	19.3	6.03e-01	0	45	0	380108800	21	4887
2026-01-22 03:41:02.34	286.71	22.26	-30.0	-32.7	19.0	6.02e-01	0	45	0	382205952	21	4945
2026-01-22 03:41:03.34	286.42	22.19	-29.8	-32.4	19.4	6.02e-01	0	45	0	384303104	21	4825
2026-01-22 03:41:04.34	286.13	22.13	-30.1	-33.1	18.7	6.03e-01	0	45	0	385875968	21	5086
2026-01-22 03:41:05.34	285.84	22.07	-29.8	-32.2	19.5	5.99e-01	0	45	0	387973120	21	4775
2026-01-22 03:41:06.34	285.55	22.00	-30.0	-33.0	18.9	6.03e-01	0	45	0	389545984	21	5042
2026-01-22 03:41:07.35	285.26	21.94	-29.6	-32.3	19.8	6.01e-01	0	45	0	391643136	20	4888
2026-01-22 03:41:08.35	284.98	21.87	-30.2	-33.5	18.6	6.03e-01	0	45	0	393740288	21	5254
2026-01-22 03:41:09.36	284.69	21.80	-29.4	-31.7	20.1	6.04e-01	0	45	0	395313152	20	4697
2026-01-22 03:41:10.36	284.41	21.74	-30.2	-33.5	18.7	6.04e-01	0	45	0	397410304	21	5249
2026-01-22 03:41:11.37	284.12	21.67	-29.7	-32.1	19.6	6.03e-01	0	45	0	398983168	21	4724
2026-01-22 03:41:12.36	283.85	21.60	-30.2	-33.4	18.8	6.05e-01	0	45	0	401080320	21	5219
2026-01-22 03:41:13.36	283.57	21.53	-29.7	-32.0	19.6	6.01e-01	0	45	0	403177472	21	4688
2026-01-22 03:41:14.36	283.29	21.47	-30.0	-32.8	19.2	6.02e-01	0	44	0	404750336	21	4974
2026-01-22 03:41:15.36	283.01	21.40	-29.8	-32.2	19.4	6.01e-01	0	45	0	406847488	21	4770
2026-01-22 03:41:16.36	282.74	21.33	-29.9	-32.6	19.3	6.04e-01	0	45	0	408420352	21	4913
2026-01-22 03:41:17.36	282.46	21.26	-30.3	-33.7	18.5	6.05e-01	0	44	0	410517504	21	5324
2026-01-22 03:41:18.37	282.19	21.19	-29.6	-31.8	19.7	6.01e-01	0	45	0	412090368	21	4618
2026-01-22 03:41:19.37	281.92	21.11	-30.2	-33.5	18.7	6.04e-01	0	45	0	414187520	21	5237
2026-01-22 03:41:20.37	281.65	21.04	-30.3	-33.1	18.5	6.03e-01	0	45	0	416284672	22	4977
2026-01-22 03:41:21.38	281.38	20.97	-30.0	-32.3	19.2	6.04e-01	0	45	0	417857536	22	4689
2026-01-22 03:41:22.38	281.11	20.90	-29.9	-32.1	19.2	6.02e-01	0	45	0	419954688	22	4645
2026-01-22 03:41:23.38	280.84	20.83	-29.9	-32.5	19.3	6.03e-01	0	45	0	421527552	21	4885
2026-01-22 03:41:24.39	280.58	20.75	-30.0	-33.0	19.0	6.04e-01	0	45	0	423624704	21	5056
2026-01-22 03:41:25.39	280.31	20.68	-30.0	-32.8	19.1	6.02e-01	0	45	0	425197568	21	4974
2026-01-22 03:41:26.40	280.05	20.60	-29.8	-32.2	19.4	6.03e-01	0	45	0	427294720	21	4788
2026-01-22 03:41:27.39	279.79	20.53	-30.0	-32.8	19.1	6.05e-01	0	45	0	429391872	21	5000
2026-01-22 03:41:28.40	279.53	20.46	-30.0	-32.8	19.0	6.02e-01	0	45	0	430964736	21	5003
2026-01-22 03:41:29.41	279.27	20.38	-29.8	-32.3	19.3	6.02e-01	0	45	0	433061888	21	4797
2026-01-22 03:41:30.40	279.01	20.31	-29.8	-32.4	19.3	6.03e-01	0	45	0	435159040	21	4856
2026-01-22 03:41:31.40	278.76	20.23	-29.7	-32.2	19.5	6.04e-01	0	45	0	436731904	21	4766
2026-01-22 03:41:32.39	278.51	20.16	-29.9	-32.7	19.2	6.03e-01	0	45	0	438829056	21	4946
2026-01-22 03:41:33.39	278.25	20.08	-29.9	-32.6	19.1	6.02e-01	0	45	0	440401920	21	4931
2026-01-22 03:41:34.39	278.00	20.00	-29.6	-31.9	19.6	6.04e-01	0	45	0	442499072	21	4660
2026-01-22 03:41:35.40	277.75	19.93	-29.7	-32.1	19.5	6.02e-01	0	45	0	444071936	21	4753
2026-01-22 03:41:36.40	277.50	19.85	-29.8	-32.4	19.3	6.03e-01	0	45	0	446169088	21	4837
2026-01-22 03:41:37.40	277.26	19.77	-29.5	-31.6	19.7	6.05e-01	0	45	0	448266240	21	4595
2026-01-22 03:41:38.41	277.01	19.69	-29.8	-32.3	19.3	6.03e-01	0	45	0	449839104	21	4830
2026-01-22 03:41:39.42	276.76	19.61	-30.0	-32.8	19.0	6.01e-01	0	45	0	451936256	21	4990
2026-01-22 03:41:40.42	276.52	19.54	-29.8	-32.3	19.3	6.04e-01	0	45	0	453509120	21	4817
2026-01-22 03:41:41.43	276.27	19.46	-29.8	-32.4	19.3	6.02e-01	0	45	0	455606272	21	4846
2026-01-22 03:41:42.44	276.03	19.38	-30.0	-32.9	18.9	6.02e-01	0	45	0	457179136	21	5046
2026-01-22 03:41:43.44	275.79	19.30	-29.9	-32.7	19.0	6.01e-01	0	45	0	459276288	21	4967
2026-01-22 03:41:44.44	275.55	19.22	-29.8	-32.4	19.3	6.02e-01	0	45	0	461373440	21	4843
2026-01-22 03:41:45.44	275.31	19.14	-30.0	-33.0	19.0	6.02e-01	0	45	0	462946304	21	5048
2026-01-22 03:41:46.44	275.08	19.06	-30.4	-34.1	18.2	6.04e-01	0	45	0	465043456	21	5516
2026-01-22 03:41:47.45	274.84	18.98	-30.6	-34.1	17.9	6.03e-01	0	45	0	466616320	22	5370
2026-01-22 03:41:48.45	274.61	18.90	-30.3	-33.4	18.3	6.01e-01	0	45	0	468713472	22	5100
2026-01-22 03:41:49.46	274.38	18.82	-30.1	-32.7	18.8	6.02e-01	0	45	0	470810624	22	4836
2026-01-22 03:41:50.46	274.15	18.74	-30.1	-32.7	18.7	6.05e-01	0	45	0	472383488	22	4872
2026-01-22 03:41:51.46	273.92	18.66	-30.2	-33.0	18.5	6.03e-01	0	45	0	474480640	22	4959
2026-01-22 03:41:52.47	273.69	18.58	-30.2	-33.0	18.5	6.03e-01	0	45	0	476053504	22	4972
2026-01-22 03:41:53.47	273.46	18.50	-30.3	-33.2	18.4	6.03e-01	0	45	0	478150656	22	5047
2026-01-22 03:41:54.47	273.24	18.42	-30.3	-33.1	18.4	6.04e-01	0	45	0	480247808	22	5006
2026-01-22 03:41:55.47	273.01	18.34	-30.1	-32.7	18.7	6.02e-01	0	45	0	481820672	22	4857
2026-01-22 03:41:56.48	272.79	18.25	-29.9	-32.3	19.0	6.02e-01	0	45	0	483917824	22	4716
2026-01-22 03:41:57.48	272.57	18.17	-29.7	-32.1	19.3	6.04e-01	0	45	0	485490688	21	4748
2026-01-22 03:41:58.48	272.35	18.09	-29.5	-31.7	19.6	6.03e-01	0	45	0	487587840	21	4617
2026-01-22 03:41:59.49	272.13	18.01	-29.5	-31.6	19.7	6.04e-01	0	45	0	489160704	21	4589
2026-01-22 03:42:00.49	271.91	17.93	-29.6	-31.9	19.5	6.02e-01	0	45	0	491257856	21	4697
2026-01-22 03:42:01.49	271.69	17.85	-29.7	-32.3	19.2	6.02e-01	0	45	0	493355008	21	4823
2026-01-22 03:42:02.49	271.48	17.77	-29.8	-32.4	19.1	6.02e-01	0	45	0	494927872	21	4864
2026-01-22 03:42:03.49	271.26	17.68	-29.6	-32.0	19.4	6.06e-01	0	45	0	497025024	21	4738
2026-01-22 03:42:04.50	271.05	17.60	-29.6	-32.0	19.4	6.06e-01	0	45	0	498597888	21	4731
2026-01-22 03:42:05.50	270.84	17.52	-29.8	-32.6	19.1	6.03e-01	0	45	0	500695040	21	4918
2026-01-22 03:42:06.50	270.63	17.44	-30.0	-32.9	18.8	6.02e-01	0	45	0	502792192	21	5059
2026-01-22 03:42:07.51	270.42	17.35	-30.0	-33.0	18.8	6.03e-01	0	45	0	504365056	21	5089
2026-01-22 03:42:08.51	270.21	17.27	-30.1	-33.4	18.5	6.04e-01	0	45	0	506462208	21	5231
2026-01-22 03:42:09.52	270.00	17.19	-30.0	-33.0	18.7	6.01e-01	0	45	0	508035072	21	5100
2026-01-22 03:42:10.53	269.79	17.10	-29.9	-32.8	18.9	6.00e-01	0	45	0	510132224	21	4998
2026-01-22 03:42:11.53	269.59	17.02	-30.1	-33.2	18.7	6.03e-01	0	45	0	512229376	21	5153
2026-01-22 03:42:12.54	269.38	16.94	-30.1	-33.4	18.5	6.00e-01	0	45	0	513802240	21	5216
2026-01-22 03:42:13.55	269.18	16.86	-30.0	-32.9	18.7	6.00e-01	0	45	0	515899392	21	5067
2026-01-22 03:42:14.55	268.98	16.77	-29.8	-32.4	19.0	6.02e-01	0	45	0	517472256	21	4883
2026-01-22 03:42:15.55	268.78	16.69	-29.6	-31.9	19.4	6.03e-01	0	45	0	519569408	21	4692
2026-01-22 03:42:16.55	268.58	16.61	-29.5	-31.6	19.5	6.05e-01	0	45	0	521666560	21	4604
2026-01-22 03:42:17.56	268.38	16.52	-29.6	-31.9	19.4	6.04e-01	0	45	0	523239424	21	4711
2026-01-22 03:42:18.56	268.19	16.44	-29.6	-32.0	19.3	6.03e-01	0	45	0	525336576	21	4741
2026-01-22 03:42:19.57	267.99	16.36	-29.6	-31.9	19.4	6.02e-01	0	45	0	526909440	21	4689
2026-01-22 03:42:20.57	267.80	16.28	-29.5	-31.7	19.5	6.03e-01	0	45	0	529006592	21	4626
2026-01-22 03:42:21.58	267.60	16.19	-29.4	-31.5	19.7	6.04e-01	0	45	0	530579456	21	4559
2026-01-22 03:42:22.58	267.41	16.11	-29.6	-31.9	19.4	6.01e-01	0	45	0	532676608	21	4701
2026-01-22 03:42:23.58	267.22	16.03	-29.7	-32.1	19.3	6.03e-01	0	45	0	534773760	21	4783
2026-01-22 03:42:24.58	267.03	15.94	-29.6	-32.0	19.3	6.01e-01	0	45	0	536346624	21	4737
2026-01-22 03:42:25.58	266.85	15.86	-29.6	-31.9	19.4	6.03e-01	0	45	0	538443776	21	4690
2026-01-22 03:42:26.59	266.66	15.78	-29.5	-31.8	19.4	6.01e-01	0	45	0	540016640	21	4679
2026-01-22 03:42:27.59	266.47	15.69	-29.6	-31.9	19.4	6.04e-01	0	45	0	542113792	21	4696
2026-01-22 03:42:28.59	266.29	15.61	-29.5	-31.7	19.5	6.06e-01	0	45	0	544210944	21	4646
2026-01-22 03:42:29.59	266.10	15.53	-29.6	-32.0	19.3	6.06e-01	0	45	0	545783808	21	4730
2026-01-22 03:42:30.60	265.92	15.45	-29.6	-32.1	19.2	6.04e-01	0	45	0	547880960	21	4776
2026-01-22 03:42:31.60	265.74	15.36	-29.6	-32.1	19.2	6.05e-01	0	45	0	549453824	21	4785
2026-01-22 03:42:32.60	265.56	15.28	-29.6	-31.9	19.3	6.04e-01	0	45	0	551550976	21	4712
2026-01-22 03:42:33.60	265.38	15.20	-29.6	-31.9	19.4	6.02e-01	0	45	0	553123840	21	4697
2026-01-22 03:42:34.60	265.20	15.12	-29.5	-31.8	19.4	6.01e-01	0	45	0	555220992	21	4669
2026-01-22 03:42:35.61	265.02	15.03	-29.6	-31.9	19.3	6.04e-01	0	45	0	557318144	21	4713
2026-01-22 03:42:36.61	264.85	14.95	-29.6	-32.0	19.3	6.03e-01	0	45	0	558891008	21	4739
2026-01-22 03:42:37.61	264.67	14.87	-29.6	-32.1	19.2	6.03e-01	0	45	0	560988160	21	4766
2026-01-22 03:42:38.61	264.50	14.79	-29.7	-32.2	19.2	6.03e-01	0	45	0	562561024	21	4806
2026-01-22 03:42:39.62	264.32	14.70	-29.6	-32.1	19.2	6.02e-01	0	45	0	564658176	21	4775
2026-01-22 03:42:40.62	264.15	14.62	-29.6	-31.9	19.3	6.03e-01	0	45	0	566755328	21	4714
2026-01-22 03:42:41.62	263.98	14.54	-29.6	-31.9	19.3	6.01e-01	0	45	0	568328192	21	4714
2026-01-22 03:42:42.62	263.81	14.46	-29.6	-32.0	19.3	6.04e-01	0	45	0	570425344	21	4732
2026-01-22 03:42:43.62	263.64	14.37	-29.6	-31.9	19.3	6.04e-01	0	45	0	571998208	21	4713
2026-01-22 03:42:44.63	263.47	14.29	-29.7	-32.2	19.1	6.04e-01	0	45	0	574095360	21	4814
2026-01-22 03:42:45.63	263.31	14.21	-29.7	-32.3	19.0	6.03e-01	0	45	0	575668224	21	4858
2026-01-22 03:42:46.64	263.14	14.13	-29.8	-32.4	18.9	6.02e-01	0	45	0	577765376	21	4900
2026-01-22 03:42:47.64	262.98	14.05	-29.8	-32.5	18.9	6.06e-01	0	45	0	579862528	21	4938
2026-01-22 03:42:48.64	262.81	13.96	-29.8	-32.6	18.8	6.05e-01	0	45	0	581435392	21	4950
2026-01-22 03:42:49.64	262.65	13.88	-29.8	-32.7	18.8	6.03e-01	0	45	0	583532544	21	4990
2026-01-22 03:42:50.65	262.49	13.80	-29.8	-32.6	18.8	6.01e-01	0	45	0	585105408	21	4965
2026-01-22 03:42:51.65	262.33	13.72	-29.8	-32.6	18.8	6.04e-01	0	45	0	587202560	21	4967
2026-01-22 03:42:52.65	262.17	13.64	-29.8	-32.5	18.8	6.03e-01	0	45	0	589299712	21	4948
2026-01-22 03:42:53.65	262.01	13.56	-29.7	-32.4	18.9	6.04e-01	0	45	0	590872576	21	4886
2026-01-22 03:42:54.64	261.85	13.48	-29.6	-32.1	19.1	6.03e-01	0	44	0	592969728	21	4805
2026-01-22 03:42:55.64	261.69	13.40	-29.6	-32.2	19.0	6.02e-01	0	45	0	594542592	21	4831
2026-01-22 03:42:56.65	261.54	13.31	-29.6	-32.2	19.0	6.02e-01	0	45	0	596639744	21	4825
2026-01-22 03:42:57.64	261.38	13.23	-29.7	-32.4	18.9	6.04e-01	0	45	0	598212608	21	4910
2026-01-22 03:42:58.64	261.23	13.15	-29.7	-32.3	18.9	6.04e-01	0	45	0	600309760	21	4880
2026-01-22 03:42:59.65	261.07	13.07	-29.6	-32.2	19.0	6.02e-01	0	45	0	602406912	21	4826
2026-01-22 03:43:00.65	260.92	12.99	-29.6	-32.2	19.0	6.03e-01	0	45	0	603979776	21	4820
2026-01-22 03:43:01.65	260.77	12.91	-29.7	-32.4	18.9	6.02e-01	0	44	0	606076928	21	4886
2026-01-22 03:43:02.65	260.62	12.83	-29.7	-32.3	18.9	6.02e-01	0	45	0	607649792	21	4883
2026-01-22 03:43:03.66	260.47	12.75	-29.7	-32.3	18.9	6.04e-01	0	45	0	609746944	21	4876
2026-01-22 03:43:04.66	260.32	12.67	-29.8	-32.6	18.8	6.05e-01	0	45	0	611844096	21	4960
2026-01-22 03:43:05.67	260.17	12.59	-29.8	-32.5	18.7	6.04e-01	0	45	0	613416960	21	4954
2026-01-22 03:43:06.67	260.02	12.51	-29.8	-32.6	18.7	6.02e-01	0	45	0	615514112	21	4983
2026-01-22 03:43:07.68	259.87	12.43	-29.8	-32.6	18.7	6.02e-01	0	45	0	617086976	21	4962
2026-01-22 03:43:08.68	259.73	12.35	-29.7	-32.4	18.8	6.03e-01	0	45	0	619184128	21	4922
2026-01-22 03:43:09.68	259.58	12.27	-29.7	-32.5	18.8	6.04e-01	0	45	0	620756992	21	4926
2026-01-22 03:43:10.68	259.44	12.19	-29.8	-32.6	18.7	6.04e-01	0	45	0	622854144	21	4962
2026-01-22 03:43:11.68	259.30	12.11	-29.8	-32.6	18.7	6.02e-01	0	45	0	624951296	21	4974
2026-01-22 03:43:12.68	259.16	12.03	-29.9	-32.9	18.5	6.04e-01	0	45	0	626524160	21	5095
2026-01-22 03:43:13.68	259.01	11.95	-29.9	-32.8	18.6	6.01e-01	0	45	0	628621312	21	5055
2026-01-22 03:43:14.68	258.87	11.88	-29.7	-32.5	18.8	6.03e-01	0	44	0	630194176	21	4928
2026-01-22 03:43:15.69	258.73	11.80	-29.7	-32.4	18.8	6.03e-01	0	45	0	632291328	21	4889
2026-01-22 03:43:16.69	258.59	11.72	-29.8	-32.6	18.7	6.05e-01	0	45	0	634388480	21	4975
2026-01-22 03:43:17.70	258.46	11.64	-29.8	-32.6	18.7	6.05e-01	0	45	0	635961344	21	4968
2026-01-22 03:43:18.70	258.32	11.56	-29.8	-32.8	18.5	6.04e-01	0	45	0	638058496	21	5062
2026-01-22 03:43:19.71	258.18	11.48	-29.9	-32.8	18.5	6.06e-01	0	45	0	639631360	21	5072
2026-01-22 03:43:20.72	258.04	11.40	-29.9	-33.1	18.4	6.05e-01	0	45	0	641728512	21	5155
2026-01-22 03:43:21.72	257.91	11.32	-29.9	-33.0	18.4	6.02e-01	0	45	0	643825664	21	5136
2026-01-22 03:43:22.73	257.77	11.25	-30.0	-33.2	18.2	6.02e-01	0	45	0	645398528	21	5218
2026-01-22 03:43:23.73	257.64	11.17	-29.9	-33.1	18.3	6.03e-01	0	45	0	647495680	21	5170
2026-01-22 03:43:24.73	257.51	11.09	-29.8	-32.8	18.5	6.03e-01	0	45	0	649068544	21	5052
2026-01-22 03:43:25.74	257.38	11.01	-29.8	-32.8	18.5	6.04e-01	0	45	0	651165696	21	5053
2026-01-22 03:43:26.74	257.25	10.94	-29.8	-32.6	18.6	6.02e-01	0	45	0	652738560	21	4987
2026-01-22 03:43:27.75	257.11	10.86	-29.7	-32.5	18.7	6.01e-01	0	45	0	654835712	21	4944
2026-01-22 03:43:28.76	256.98	10.78	-29.8	-32.8	18.4	6.03e-01	0	45	0	656932864	21	5068
2026-01-22 03:43:29.76	256.85	10.70	-29.9	-32.9	18.4	6.05e-01	0	45	0	658505728	21	5088
2026-01-22 03:43:30.76	256.73	10.63	-29.9	-33.1	18.2	6.05e-01	0	45	0	660602880	21	5185
2026-01-22 03:43:31.76	256.60	10.55	-30.0	-33.1	18.2	6.03e-01	0	45	0	662700032	21	5196
2026-01-22 03:43:32.77	256.47	10.47	-30.0	-33.3	18.1	6.04e-01	0	45	0	664272896	21	5252
2026-01-22 03:43:33.77	256.35	10.40	-30.0	-33.3	18.2	6.03e-01	0	45	0	666370048	21	5250
2026-01-22 03:43:34.78	256.22	10.32	-30.0	-33.4	18.1	6.03e-01	0	45	0	667942912	21	5279
2026-01-22 03:43:35.78	256.10	10.24	-30.0	-33.2	18.2	6.03e-01	0	45	0	670040064	21	5219
2026-01-22 03:43:36.78	255.97	10.17	-30.1	-33.4	18.0	6.05e-01	0	45	0	671612928	21	5306
2026-01-22 03:43:37.78	255.85	10.09	-29.9	-33.1	18.2	6.03e-01	0	45	0	673710080	21	5191
2026-01-22 03:43:38.79	255.73	10.01	-29.8	-32.8	18.4	6.03e-01	0	45	0	675807232	21	5052
2026-01-22 03:43:39.79	255.61	9.94	-29.8	-32.7	18.5	6.03e-01	0	45	0	677380096	21	5044
2026-01-22 03:43:40.79	255.48	9.86	-29.9	-32.9	18.4	6.04e-01	0	45	0	679477248	21	5112
2026-01-22 03:43:41.80	255.36	9.79	-29.9	-32.9	18.3	6.04e-01	0	45	0	681050112	21	5111
2026-01-22 03:43:42.80	255.24	9.71	-30.0	-33.2	18.2	6.03e-01	0	45	0	683147264	21	5224
2026-01-22 03:43:43.81	255.12	9.64	-29.9	-33.1	18.2	6.04e-01	0	45	0	685244416	21	5202
2026-01-22 03:43:44.80	255.01	9.56	-29.9	-33.1	18.3	6.02e-01	0	45	0	686817280	21	5173
2026-01-22 03:43:45.80	254.89	9.49	-29.9	-33.1	18.3	6.04e-01	0	45	0	688914432	21	5178
2026-01-22 03:43:46.80	254.77	9.41	-29.9	-33.2	18.2	6.03e-01	0	45	0	690487296	21	5207
2026-01-22 03:43:47.80	254.66	9.34	-29.9	-33.1	18.2	6.05e-01	0	45	0	692584448	21	5208
2026-01-22 03:43:48.80	254.54	9.27	-29.9	-33.1	18.2	6.04e-01	0	45	0	694157312	21	5206
2026-01-22 03:43:49.80	254.43	9.19	-30.0	-33.3	18.0	6.03e-01	0	45	0	696254464	21	5266
2026-01-22 03:43:50.80	254.31	9.12	-30.0	-33.4	18.0	6.02e-01	0	45	0	698351616	21	5293
2026-01-22 03:43:51.80	254.20	9.04	-30.0	-33.5	17.9	6.02e-01	0	45	0	699924480	21	5341
2026-01-22 03:43:52.81	254.09	8.97	-30.2	-33.9	17.6	6.02e-01	0	45	0	702021632	21	5512
2026-01-22 03:43:53.81	253.97	8.90	-30.1	-33.5	17.8	6.01e-01	0	45	0	703594496	21	5370
2026-01-22 03:43:54.81	253.86	8.82	-30.0	-33.5	17.9	6.05e-01	0	45	0	705691648	21	5342
2026-01-22 03:43:55.81	253.75	8.75	-30.1	-33.6	17.8	6.03e-01	0	45	0	707788800	21	5377
2026-01-22 03:43:56.81	253.64	8.68	-30.2	-33.9	17.6	6.02e-01	0	45	0	709361664	21	5516
2026-01-22 03:43:57.82	253.53	8.60	-30.1	-33.7	17.7	6.02e-01	0	45	0	711458816	21	5454
2026-01-22 03:43:58.82	253.42	8.53	-30.1	-33.8	17.7	6.04e-01	0	45	0	713031680	21	5469
2026-01-22 03:43:59.83	253.31	8.46	-30.2	-34.0	17.4	6.03e-01	0	45	0	715128832	21	5583
2026-01-22 03:44:00.83	253.20	8.38	-30.2	-33.9	17.5	6.03e-01	0	45	0	716701696	21	5545
2026-01-22 03:44:01.83	253.10	8.31	-30.3	-34.3	17.3	6.05e-01	0	45	0	718798848	21	5708
2026-01-22 03:44:02.83	252.99	8.24	-30.3	-34.1	17.4	6.03e-01	0	45	0	720896000	21	5626
2026-01-22 03:44:03.84	252.88	8.17	-30.2	-33.8	17.6	6.03e-01	0	45	0	722468864	21	5502
2026-01-22 03:44:04.84	252.78	8.09	-30.1	-33.7	17.6	6.01e-01	0	45	0	724566016	21	5464
2026-01-22 03:44:05.85	252.67	8.02	-30.1	-33.6	17.7	6.02e-01	0	44	0	726138880	21	5396
2026-01-22 03:44:06.86	252.57	7.95	-30.1	-33.7	17.6	6.05e-01	0	45	0	728236032	21	5449
2026-01-22 03:44:07.86	252.46	7.88	-30.1	-33.6	17.7	6.03e-01	0	45	0	730333184	21	5420
2026-01-22 03:44:08.87	252.36	7.81	-30.1	-33.6	17.7	6.03e-01	0	45	0	731906048	21	5416
2026-01-22 03:44:09.87	252.26	7.73	-30.1	-33.6	17.7	6.04e-01	0	45	0	734003200	21	5418
2026-01-22 03:44:10.87	252.15	7.66	-30.1	-33.8	17.6	6.02e-01	0	45	0	735576064	21	5504
2026-01-22 03:44:11.87	252.05	7.59	-30.1	-33.8	17.5	6.03e-01	0	45	0	737673216	21	5501
2026-01-22 03:44:12.87	251.95	7.52	-30.2	-34.0	17.4	6.01e-01	0	45	0	739770368	21	5571
2026-01-22 03:44:13.87	251.85	7.45	-30.2	-34.1	17.3	6.01e-01	0	45	0	741343232	21	5617
2026-01-22 03:44:14.87	251.75	7.38	-30.3	-34.3	17.2	6.03e-01	0	45	0	743440384	21	5706
2026-01-22 03:44:15.87	251.65	7.31	-30.2	-34.2	17.2	6.03e-01	0	45	0	745013248	21	5666
2026-01-22 03:44:16.88	251.55	7.24	-30.3	-34.2	17.2	6.02e-01	0	45	0	747110400	21	5688
2026-01-22 03:44:17.88	251.45	7.17	-30.3	-34.5	17.0	6.03e-01	0	45	0	748683264	21	5806
2026-01-22 03:44:18.88	251.36	7.10	-30.4	-34.6	17.0	6.04e-01	0	45	0	750780416	21	5844
2026-01-22 03:44:19.88	251.26	7.03	-33.3	-50.4	4.0	7.46e-01	0	45	104	751828992	27	25636
2026-01-22 03:44:20.89	251.16	6.96	-33.7	-52.8	3.8	7.44e-01	0	45	104	751828992	28	32573
2026-01-22 03:44:21.89	251.06	6.89	-33.9	-53.0	3.9	7.43e-01	0	45	104	751828992	28	32320
2026-01-22 03:44:22.89	250.97	6.82	-34.2	-53.3	3.8	7.51e-01	0	45	104	751828992	29	32564

#Closed at: 2026-01-22 03:44:23
#Recorded file [751 MB]: D:/data/31010_260122_063738.dat