passes_logs/2026/01/22/R2M6_AANII_01/R2M6_AANII_01__20260122_074004_NOAA_20_JPSS-1_rec.log

#Pass ID: 20260122_074004_NOAA 20 (JPSS-1)
#Satellite: NOAA 20 (JPSS-1)
#Configuration: NOAA 20
#almurnet v.1.7.20240730
#Start time: 2026-01-22 07:40:03

#Version: 2.2.20231116
#Station: R2M6_AANII_01
#Location: 30.233357 lon 59.946436 lat
#TLE: 1 43013U 17073A   26021.46221703  .00000173  00000+0  10299-3 0  9999
#TLE: 2 43013  98.7644 322.3335 0001238  29.7597 330.3649 14.19538314423652

#Time	Az	El	Level	Level2	SNR	BER	BlckErr	Temp	State	Recorded	gain1	gain2
2026-01-22 07:40:03.63	77.47	6.97	-32.6	-42.9	3.9	1.48e+00	0	41	0	0	26	11839
2026-01-22 07:40:04.63	77.35	7.02	-32.0	-39.0	4.6	1.29e+00	0	41	104	0	25	8058
2026-01-22 07:40:05.63	77.23	7.07	-32.0	-38.7	6.5	2.38e-01	0	41	0	0	25	7781
2026-01-22 07:40:06.63	77.11	7.13	-31.9	-38.5	6.7	2.02e-01	0	41	0	1048576	25	7618
2026-01-22 07:40:07.64	76.99	7.18	-31.9	-38.4	6.8	2.00e-01	0	41	0	3145728	25	7593
2026-01-22 07:40:08.65	76.87	7.23	-31.9	-38.0	7.0	1.65e-01	0	41	0	5242880	25	7311
2026-01-22 07:40:09.66	76.75	7.28	-31.9	-37.9	7.1	1.45e-01	0	41	0	7340032	25	7240
2026-01-22 07:40:10.66	76.62	7.34	-31.9	-38.0	7.1	1.41e-01	0	41	0	9437184	25	7268
2026-01-22 07:40:11.65	76.50	7.39	-31.8	-37.9	7.5	1.27e-01	0	41	0	10485760	24	7271
2026-01-22 07:40:12.65	76.38	7.44	-31.6	-37.0	8.2	7.86e-02	0	41	0	12582912	24	6704
2026-01-22 07:40:13.65	76.26	7.49	-31.4	-36.2	9.0	3.25e-02	0	41	0	14680064	24	6237
2026-01-22 07:40:14.66	76.13	7.55	-31.2	-36.0	9.4	1.94e-02	0	41	0	16777216	23	6259
2026-01-22 07:40:15.65	76.01	7.60	-31.3	-36.1	9.4	1.41e-02	0	41	0	17825792	23	6301
2026-01-22 07:40:16.66	75.88	7.65	-31.2	-35.9	9.5	1.65e-02	0	41	0	19922944	23	6204
2026-01-22 07:40:17.66	75.76	7.70	-31.2	-35.8	9.6	1.17e-02	0	41	0	22020096	23	6136
2026-01-22 07:40:18.66	75.63	7.75	-31.2	-35.8	9.7	1.16e-02	0	41	0	24117248	23	6096
2026-01-22 07:40:19.66	75.51	7.81	-31.2	-35.8	9.6	1.23e-02	0	41	0	26214400	23	6144
2026-01-22 07:40:20.66	75.38	7.86	-31.2	-35.8	9.6	1.28e-02	0	41	0	27262976	23	6142
2026-01-22 07:40:21.66	75.25	7.91	-31.2	-35.7	9.8	1.20e-02	0	41	0	29360128	23	6058
2026-01-22 07:40:22.67	75.12	7.96	-31.1	-35.6	9.8	1.02e-02	0	41	0	31457280	23	6023
2026-01-22 07:40:23.68	75.00	8.01	-31.2	-35.7	9.7	1.03e-02	0	41	0	33554432	23	6083
2026-01-22 07:40:24.68	74.87	8.07	-31.2	-35.7	9.8	1.07e-02	0	41	0	35651584	23	6060
2026-01-22 07:40:25.68	74.74	8.12	-31.2	-35.9	9.6	1.07e-02	0	41	0	36700160	23	6186
2026-01-22 07:40:26.69	74.61	8.17	-31.2	-35.7	9.8	1.11e-02	0	41	0	38797312	23	6055
2026-01-22 07:40:27.68	74.48	8.22	-31.0	-35.2	10.2	7.06e-03	0	41	0	40894464	23	5785
2026-01-22 07:40:28.69	74.35	8.27	-31.0	-35.0	10.4	4.81e-03	0	41	0	42991616	23	5697
2026-01-22 07:40:29.69	74.22	8.33	-31.0	-34.9	10.5	4.12e-03	0	41	0	45088768	23	5656
2026-01-22 07:40:30.70	74.09	8.38	-30.9	-34.8	10.6	3.78e-03	0	41	0	46137344	23	5608
2026-01-22 07:40:31.70	73.95	8.43	-30.9	-34.7	10.6	3.69e-03	0	41	0	48234496	23	5591
2026-01-22 07:40:32.70	73.82	8.48	-30.9	-34.6	10.7	3.21e-03	0	41	0	50331648	23	5502
2026-01-22 07:40:33.70	73.69	8.53	-30.8	-34.4	10.8	2.49e-03	0	41	0	52428800	23	5446
2026-01-22 07:40:34.69	73.56	8.58	-30.9	-34.6	10.7	2.81e-03	0	41	0	54525952	23	5522
2026-01-22 07:40:35.69	73.42	8.64	-30.9	-34.5	10.8	2.94e-03	0	41	0	55574528	23	5494
2026-01-22 07:40:36.70	73.29	8.69	-30.8	-34.4	10.9	2.50e-03	0	42	0	57671680	23	5424
2026-01-22 07:40:37.70	73.15	8.74	-30.9	-34.6	10.8	2.30e-03	0	42	0	59768832	23	5493
2026-01-22 07:40:38.71	73.02	8.79	-30.9	-34.5	10.9	2.58e-03	0	42	0	61865984	23	5454
2026-01-22 07:40:39.70	72.88	8.84	-30.9	-34.5	10.8	2.16e-03	0	42	0	62914560	23	5466
2026-01-22 07:40:40.71	72.75	8.89	-30.9	-34.7	10.7	3.10e-03	0	41	0	65011712	23	5566
2026-01-22 07:40:41.72	72.61	8.94	-30.9	-34.6	10.7	3.23e-03	0	42	0	67108864	23	5521
2026-01-22 07:40:42.72	72.47	9.00	-30.9	-34.5	10.9	2.43e-03	0	41	0	69206016	23	5466
2026-01-22 07:40:43.72	72.33	9.05	-30.9	-34.6	10.8	2.56e-03	0	42	0	71303168	23	5513
2026-01-22 07:40:44.73	72.20	9.10	-30.9	-34.7	10.7	2.76e-03	0	42	0	72351744	23	5556
2026-01-22 07:40:45.72	72.06	9.15	-31.0	-34.9	10.5	3.25e-03	0	42	0	74448896	23	5652
2026-01-22 07:40:46.72	71.92	9.20	-31.0	-34.9	10.6	3.28e-03	0	41	0	76546048	23	5631
2026-01-22 07:40:47.72	71.78	9.25	-31.0	-34.9	10.6	3.79e-03	0	42	0	78643200	23	5657
2026-01-22 07:40:48.72	71.64	9.30	-31.0	-34.9	10.6	3.87e-03	0	42	0	80740352	23	5622
2026-01-22 07:40:49.71	71.50	9.35	-31.1	-35.3	10.3	3.83e-03	0	42	0	81788928	23	5818
2026-01-22 07:40:50.72	71.36	9.40	-31.1	-35.2	10.4	5.57e-03	0	42	0	83886080	23	5784
2026-01-22 07:40:51.72	71.22	9.45	-31.1	-35.4	10.2	4.90e-03	0	42	0	85983232	23	5906
2026-01-22 07:40:52.73	71.07	9.50	-31.1	-35.4	10.2	6.80e-03	0	42	0	88080384	23	5872
2026-01-22 07:40:53.73	70.93	9.55	-31.0	-34.9	10.6	4.82e-03	0	42	0	90177536	23	5651
2026-01-22 07:40:54.74	70.79	9.61	-31.0	-34.8	10.7	2.78e-03	0	42	0	91226112	23	5579
2026-01-22 07:40:55.74	70.64	9.66	-31.0	-34.9	10.6	3.14e-03	0	42	0	93323264	23	5648
2026-01-22 07:40:56.74	70.50	9.71	-31.0	-34.9	10.7	3.43e-03	0	42	0	95420416	23	5627
2026-01-22 07:40:57.75	70.35	9.76	-30.9	-34.6	10.9	2.59e-03	0	42	0	97517568	23	5496
2026-01-22 07:40:58.75	70.21	9.81	-30.9	-34.4	11.0	2.06e-03	0	42	0	99614720	23	5410
2026-01-22 07:40:59.76	70.06	9.86	-30.8	-34.2	11.2	1.53e-03	0	42	0	100663296	23	5345
2026-01-22 07:41:00.77	69.92	9.91	-30.8	-34.7	11.2	1.36e-03	0	42	0	102760448	22	5619
2026-01-22 07:41:01.77	69.77	9.96	-30.8	-34.6	11.3	1.08e-03	0	42	0	104857600	22	5590
2026-01-22 07:41:02.78	69.62	10.01	-30.8	-34.7	11.2	1.15e-03	0	42	0	106954752	22	5632
2026-01-22 07:41:03.78	69.47	10.06	-30.8	-34.6	11.3	1.30e-03	0	42	0	108003328	22	5575
2026-01-22 07:41:04.78	69.33	10.11	-30.8	-34.5	11.3	1.06e-03	0	42	0	110100480	22	5572
2026-01-22 07:41:05.79	69.18	10.16	-30.8	-34.6	11.3	1.15e-03	0	42	0	112197632	22	5597
2026-01-22 07:41:06.79	69.03	10.21	-30.9	-35.0	11.0	1.40e-03	0	42	0	114294784	22	5754
2026-01-22 07:41:07.78	68.88	10.26	-30.8	-34.5	11.3	1.31e-03	0	42	0	116391936	22	5554
2026-01-22 07:41:08.78	68.73	10.31	-30.7	-34.2	11.6	8.36e-04	0	42	0	118489088	22	5415
2026-01-22 07:41:09.79	68.58	10.36	-30.6	-34.0	11.7	5.39e-04	0	42	0	119537664	22	5311
2026-01-22 07:41:10.79	68.43	10.40	-30.5	-33.9	11.8	5.31e-04	0	42	0	121634816	22	5271
2026-01-22 07:41:11.79	68.27	10.45	-30.6	-33.9	11.8	4.58e-04	0	42	0	123731968	22	5289
2026-01-22 07:41:12.79	68.12	10.50	-30.5	-33.7	11.9	4.31e-04	0	42	0	125829120	22	5220
2026-01-22 07:41:13.80	67.97	10.55	-30.4	-33.5	12.1	3.37e-04	0	42	0	126877696	22	5112
2026-01-22 07:41:14.80	67.82	10.60	-30.4	-33.4	12.2	2.39e-04	0	42	0	128974848	22	5087
2026-01-22 07:41:15.80	67.66	10.65	-30.4	-33.5	12.1	2.38e-04	0	42	0	131072000	22	5114
2026-01-22 07:41:16.80	67.51	10.70	-30.5	-33.7	12.0	2.68e-04	0	42	0	133169152	22	5209
2026-01-22 07:41:17.80	67.35	10.75	-30.5	-33.7	12.0	4.19e-04	0	42	0	135266304	22	5208
2026-01-22 07:41:18.81	67.20	10.79	-30.5	-33.6	12.1	3.20e-04	0	42	0	136314880	22	5145
2026-01-22 07:41:19.81	67.04	10.84	-30.5	-33.7	11.9	2.85e-04	0	42	0	138412032	22	5209
2026-01-22 07:41:20.82	66.88	10.89	-30.5	-33.6	12.1	3.25e-04	0	42	0	140509184	22	5155
2026-01-22 07:41:21.82	66.73	10.94	-30.5	-33.6	12.1	3.10e-04	0	42	0	142606336	22	5146
2026-01-22 07:41:22.81	66.57	10.99	-30.5	-33.6	12.1	2.68e-04	0	42	0	144703488	22	5136
2026-01-22 07:41:23.81	66.41	11.03	-30.6	-33.9	11.9	3.41e-04	0	42	0	145752064	22	5261
2026-01-22 07:41:24.81	66.26	11.08	-30.5	-33.7	12.0	3.81e-04	0	42	0	147849216	22	5205
2026-01-22 07:41:25.81	66.10	11.13	-30.4	-33.4	12.2	2.24e-04	0	42	0	149946368	22	5071
2026-01-22 07:41:26.82	65.94	11.18	-30.3	-33.0	12.5	1.42e-04	0	42	0	152043520	22	4928
2026-01-22 07:41:27.82	65.78	11.22	-30.2	-33.3	12.6	1.16e-04	0	42	0	153092096	21	5140
2026-01-22 07:41:28.83	65.61	11.27	-30.2	-33.4	12.6	1.09e-04	0	42	0	155189248	21	5162
2026-01-22 07:41:29.83	65.45	11.32	-30.2	-33.2	12.7	9.00e-05	0	42	0	157286400	21	5094
2026-01-22 07:41:30.84	65.29	11.37	-30.2	-33.2	12.7	7.01e-05	0	42	0	159383552	21	5083
2026-01-22 07:41:31.85	65.13	11.41	-30.3	-33.4	12.5	7.85e-05	0	42	0	161480704	21	5186
2026-01-22 07:41:32.85	64.96	11.46	-30.2	-33.3	12.6	9.76e-05	0	42	0	163577856	21	5132
2026-01-22 07:41:33.86	64.80	11.51	-30.1	-33.1	12.8	7.70e-05	0	42	0	164626432	21	5042
2026-01-22 07:41:34.86	64.64	11.55	-30.1	-33.0	12.9	4.95e-05	0	42	0	166723584	21	5004
2026-01-22 07:41:35.87	64.47	11.60	-30.1	-32.9	13.0	4.50e-05	0	42	0	168820736	21	4968
2026-01-22 07:41:36.87	64.31	11.65	-30.1	-32.9	13.0	3.12e-05	0	42	0	170917888	21	4972
2026-01-22 07:41:37.87	64.14	11.69	-30.0	-32.8	13.0	3.28e-05	0	42	0	171966464	21	4945
2026-01-22 07:41:38.88	63.97	11.74	-30.0	-32.8	13.0	2.28e-05	0	42	0	174063616	21	4962
2026-01-22 07:41:39.87	63.81	11.78	-30.1	-33.0	12.8	4.42e-05	0	42	0	176160768	21	5022
2026-01-22 07:41:40.88	63.64	11.83	-30.0	-32.6	13.1	3.89e-05	0	43	0	178257920	21	4865
2026-01-22 07:41:41.89	63.47	11.87	-29.9	-32.4	13.2	2.59e-05	0	42	0	180355072	21	4815
2026-01-22 07:41:42.89	63.30	11.92	-29.8	-32.2	13.4	1.29e-05	0	42	0	181403648	21	4739
2026-01-22 07:41:43.89	63.14	11.96	-29.9	-32.3	13.4	1.60e-05	0	42	0	183500800	21	4748
2026-01-22 07:41:44.89	62.97	12.01	-29.8	-32.2	13.4	7.60e-06	0	43	0	185597952	21	4737
2026-01-22 07:41:45.90	62.80	12.05	-29.9	-32.4	13.3	1.37e-05	0	42	0	187695104	21	4788
2026-01-22 07:41:46.90	62.63	12.10	-30.0	-32.7	13.1	2.28e-05	0	42	0	189792256	21	4920
2026-01-22 07:41:47.90	62.46	12.14	-29.9	-32.4	13.3	2.28e-05	0	42	0	190840832	21	4802
2026-01-22 07:41:48.90	62.29	12.19	-29.8	-32.2	13.4	1.06e-05	0	42	0	192937984	21	4735
2026-01-22 07:41:49.91	62.11	12.23	-29.8	-32.1	13.5	1.29e-05	0	42	0	195035136	21	4703
2026-01-22 07:41:50.91	61.94	12.28	-29.9	-32.3	13.4	1.14e-05	0	42	0	197132288	21	4760
2026-01-22 07:41:51.91	61.77	12.32	-29.8	-32.2	13.4	1.06e-05	0	42	0	199229440	21	4727
2026-01-22 07:41:52.91	61.60	12.36	-29.9	-32.3	13.3	1.67e-05	0	42	0	200278016	21	4776
2026-01-22 07:41:53.91	61.42	12.41	-30.0	-32.6	13.1	2.44e-05	0	42	0	202375168	21	4873
2026-01-22 07:41:54.92	61.25	12.45	-29.9	-32.4	13.3	2.28e-05	0	42	0	204472320	21	4796
2026-01-22 07:41:55.92	61.07	12.49	-30.0	-32.7	13.1	1.52e-05	0	43	0	206569472	21	4902
2026-01-22 07:41:56.93	60.90	12.54	-30.0	-32.8	13.0	2.59e-05	0	42	0	208666624	21	4934
2026-01-22 07:41:57.94	60.72	12.58	-30.1	-33.0	12.9	3.58e-05	0	43	0	209715200	21	5019
2026-01-22 07:41:58.94	60.54	12.62	-30.1	-32.8	13.0	3.05e-05	0	42	0	211812352	21	4938
2026-01-22 07:41:59.94	60.37	12.66	-30.0	-32.7	13.1	3.43e-05	0	42	0	213909504	21	4918
2026-01-22 07:42:00.94	60.19	12.70	-30.1	-33.0	12.9	4.42e-05	0	43	0	216006656	21	4995
2026-01-22 07:42:01.95	60.01	12.75	-30.1	-32.8	13.0	3.58e-05	0	42	0	218103808	21	4952
2026-01-22 07:42:02.95	59.83	12.79	-30.1	-33.0	12.9	5.41e-05	0	43	0	219152384	21	5021
2026-01-22 07:42:03.95	59.65	12.83	-30.3	-33.5	12.6	7.78e-05	0	43	0	221249536	21	5186
2026-01-22 07:42:04.96	59.47	12.87	-30.2	-33.2	12.8	8.54e-05	0	43	0	223346688	21	5061
2026-01-22 07:42:05.97	59.29	12.91	-30.2	-33.2	12.8	5.72e-05	0	43	0	225443840	21	5095
2026-01-22 07:42:06.97	59.11	12.95	-30.2	-33.3	12.8	7.09e-05	0	43	0	226492416	21	5101
2026-01-22 07:42:07.97	58.93	12.99	-30.3	-33.5	12.6	7.78e-05	0	43	0	228589568	21	5213
2026-01-22 07:42:08.98	58.75	13.03	-30.3	-33.5	12.6	8.39e-05	0	43	0	230686720	21	5182
2026-01-22 07:42:09.98	58.57	13.07	-30.2	-33.3	12.7	6.17e-05	0	43	0	232783872	21	5115
2026-01-22 07:42:10.98	58.39	13.11	-30.2	-33.3	12.7	6.86e-05	0	42	0	234881024	21	5122
2026-01-22 07:42:11.98	58.20	13.15	-30.2	-33.1	12.9	5.18e-05	0	43	0	236978176	21	5061
2026-01-22 07:42:12.99	58.02	13.19	-30.1	-32.9	13.0	4.27e-05	0	43	0	238026752	21	4967
2026-01-22 07:42:13.99	57.84	13.23	-30.0	-32.7	13.1	3.43e-05	0	43	0	240123904	21	4906
2026-01-22 07:42:15.00	57.65	13.27	-30.1	-32.9	13.0	2.51e-05	0	43	0	242221056	21	4962
2026-01-22 07:42:16.00	57.47	13.31	-30.0	-32.7	13.2	2.28e-05	0	43	0	244318208	21	4881
2026-01-22 07:42:17.00	57.28	13.35	-30.0	-32.7	13.2	2.05e-05	0	43	0	245366784	21	4885
2026-01-22 07:42:18.00	57.09	13.39	-30.1	-33.0	13.0	3.73e-05	0	43	0	247463936	21	5010
2026-01-22 07:42:19.01	56.91	13.43	-30.3	-33.4	12.7	5.64e-05	0	43	0	249561088	21	5173
2026-01-22 07:42:20.02	56.72	13.46	-30.2	-33.1	12.9	5.64e-05	0	43	0	251658240	21	5036
2026-01-22 07:42:21.02	56.53	13.50	-30.0	-32.7	13.1	3.81e-05	0	43	0	253755392	21	4903
2026-01-22 07:42:22.03	56.34	13.54	-30.0	-32.6	13.3	1.52e-05	0	43	0	254803968	21	4848
2026-01-22 07:42:23.02	56.16	13.58	-29.9	-32.4	13.4	1.44e-05	0	43	0	256901120	21	4792
2026-01-22 07:42:24.03	55.97	13.61	-30.0	-32.6	13.2	1.98e-05	0	43	0	258998272	21	4863
2026-01-22 07:42:25.03	55.78	13.65	-29.9	-32.5	13.3	1.98e-05	0	43	0	261095424	21	4817
2026-01-22 07:42:26.03	55.59	13.69	-30.1	-32.9	13.1	1.60e-05	0	43	0	263192576	21	4962
2026-01-22 07:42:27.04	55.40	13.72	-29.9	-32.3	13.4	2.21e-05	0	43	0	264241152	21	4744
2026-01-22 07:42:28.04	55.21	13.76	-29.8	-32.5	13.7	7.60e-06	0	43	0	266338304	20	4908
2026-01-22 07:42:29.03	55.02	13.79	-29.8	-32.5	13.7	2.20e-06	0	43	0	268435456	20	4906
2026-01-22 07:42:30.04	54.83	13.83	-29.9	-32.7	13.5	6.80e-06	0	43	0	270532608	20	4999
2026-01-22 07:42:31.04	54.63	13.86	-29.9	-32.8	13.5	9.10e-06	0	43	0	272629760	20	5028
2026-01-22 07:42:32.05	54.44	13.90	-30.0	-32.9	13.4	1.60e-05	0	43	0	273678336	20	5074
2026-01-22 07:42:33.05	54.25	13.93	-29.8	-32.4	13.7	4.50e-06	0	43	0	275775488	20	4886
2026-01-22 07:42:34.05	54.05	13.97	-29.7	-32.2	13.8	2.20e-06	0	43	0	277872640	20	4825
2026-01-22 07:42:35.05	53.86	14.00	-29.7	-32.2	13.9	5.30e-06	0	43	0	279969792	20	4820
2026-01-22 07:42:36.06	53.67	14.03	-29.8	-32.5	13.7	3.80e-06	0	43	0	282066944	20	4918
2026-01-22 07:42:37.06	53.47	14.07	-29.8	-32.4	13.7	3.80e-06	0	43	0	283115520	20	4886
2026-01-22 07:42:38.06	53.28	14.10	-29.8	-32.5	13.7	8.30e-06	0	43	0	285212672	20	4920
2026-01-22 07:42:39.07	53.08	14.13	-29.7	-32.1	13.9	2.20e-06	0	43	0	287309824	20	4792
2026-01-22 07:42:40.08	52.88	14.17	-29.6	-32.1	14.0	2.20e-06	0	42	0	289406976	20	4760
2026-01-22 07:42:41.07	52.69	14.20	-29.7	-32.3	13.8	4.50e-06	0	43	0	290455552	20	4861
2026-01-22 07:42:42.08	52.49	14.23	-29.7	-32.2	13.9	2.20e-06	0	43	0	292552704	20	4802
2026-01-22 07:42:43.07	52.30	14.26	-29.8	-32.6	13.6	3.00e-06	0	43	0	294649856	20	4953
2026-01-22 07:42:44.07	52.10	14.29	-29.9	-32.7	13.5	9.10e-06	0	43	0	296747008	20	5003
2026-01-22 07:42:45.07	51.90	14.32	-29.8	-32.5	13.7	6.80e-06	0	43	0	298844160	20	4923
2026-01-22 07:42:46.07	51.70	14.35	-29.7	-32.4	13.8	4.50e-06	0	43	0	299892736	20	4865
2026-01-22 07:42:47.08	51.50	14.38	-29.8	-32.5	13.7	6.10e-06	0	43	0	301989888	20	4922
2026-01-22 07:42:48.08	51.30	14.41	-29.8	-32.5	13.7	7.60e-06	0	43	0	304087040	20	4921
2026-01-22 07:42:49.08	51.10	14.44	-29.8	-32.6	13.7	6.10e-06	0	42	0	306184192	20	4939
2026-01-22 07:42:50.09	50.90	14.47	-29.9	-32.7	13.5	6.80e-06	0	43	0	308281344	20	4997
2026-01-22 07:42:51.09	50.70	14.50	-29.9	-32.9	13.4	1.22e-05	0	43	0	309329920	20	5070
2026-01-22 07:42:52.10	50.50	14.53	-29.8	-32.6	13.6	9.10e-06	0	43	0	311427072	20	4955
2026-01-22 07:42:53.10	50.30	14.56	-29.8	-32.6	13.6	7.60e-06	0	43	0	313524224	20	4953
2026-01-22 07:42:54.10	50.10	14.59	-29.9	-32.9	13.4	6.80e-06	0	43	0	315621376	20	5070
2026-01-22 07:42:55.11	49.89	14.62	-30.0	-33.0	13.4	1.67e-05	0	43	0	317718528	20	5090
2026-01-22 07:42:56.11	49.69	14.64	-30.0	-33.2	13.3	1.83e-05	0	43	0	318767104	20	5159
2026-01-22 07:42:57.11	49.49	14.67	-30.0	-32.9	13.4	1.44e-05	0	43	0	320864256	20	5056
2026-01-22 07:42:58.11	49.29	14.70	-29.9	-32.8	13.5	1.67e-05	0	43	0	322961408	20	5008
2026-01-22 07:42:59.12	49.08	14.73	-29.9	-32.9	13.5	9.90e-06	0	43	0	325058560	20	5050
2026-01-22 07:43:00.12	48.88	14.75	-30.1	-33.2	13.3	1.52e-05	0	43	0	327155712	20	5182
2026-01-22 07:43:01.12	48.68	14.78	-30.0	-33.0	13.4	1.29e-05	0	43	0	328204288	20	5093
2026-01-22 07:43:02.12	48.47	14.80	-30.0	-33.0	13.4	1.06e-05	0	43	0	330301440	20	5107
2026-01-22 07:43:03.12	48.27	14.83	-30.0	-33.0	13.4	1.90e-05	0	43	0	332398592	20	5080
2026-01-22 07:43:04.11	48.06	14.85	-30.1	-33.4	13.1	2.59e-05	0	43	0	334495744	20	5245
2026-01-22 07:43:05.11	47.86	14.88	-30.0	-33.1	13.3	1.90e-05	0	43	0	335544320	20	5126
2026-01-22 07:43:06.11	47.65	14.90	-30.0	-33.1	13.3	2.05e-05	0	43	0	337641472	20	5145
2026-01-22 07:43:07.11	47.45	14.92	-30.1	-33.3	13.2	1.60e-05	0	43	0	339738624	20	5201
2026-01-22 07:43:08.11	47.24	14.95	-30.0	-33.2	13.2	2.36e-05	0	43	0	341835776	20	5174
2026-01-22 07:43:09.12	47.03	14.97	-30.1	-33.4	13.2	1.75e-05	0	43	0	343932928	20	5247
2026-01-22 07:43:10.12	46.83	14.99	-30.3	-33.8	12.9	4.73e-05	0	43	0	344981504	20	5394
2026-01-22 07:43:11.13	46.62	15.02	-30.2	-33.7	12.9	3.28e-05	0	43	0	347078656	20	5347
2026-01-22 07:43:12.13	46.41	15.04	-30.2	-33.7	12.9	4.11e-05	0	43	0	349175808	20	5364
2026-01-22 07:43:13.13	46.20	15.06	-30.3	-33.8	12.9	5.56e-05	0	43	0	351272960	20	5405
2026-01-22 07:43:14.13	45.99	15.08	-30.3	-33.9	12.8	5.34e-05	0	43	0	353370112	20	5444
2026-01-22 07:43:15.14	45.78	15.10	-30.4	-34.2	12.6	7.01e-05	0	43	0	354418688	20	5584
2026-01-22 07:43:16.14	45.57	15.12	-30.3	-33.8	12.9	6.10e-05	0	43	0	356515840	20	5398
2026-01-22 07:43:17.14	45.37	15.14	-30.4	-34.1	12.6	6.48e-05	0	43	0	358612992	20	5554
2026-01-22 07:43:18.14	45.16	15.16	-30.5	-34.1	12.3	1.14e-04	0	43	0	360710144	21	5405
2026-01-22 07:43:19.14	44.95	15.18	-30.2	-33.2	12.9	9.76e-05	0	43	0	362807296	21	5077
2026-01-22 07:43:20.15	44.73	15.20	-30.0	-32.7	13.3	1.98e-05	0	43	0	363855872	21	4859
2026-01-22 07:43:21.14	44.53	15.22	-29.9	-32.3	13.5	9.90e-06	0	43	0	365953024	21	4732
2026-01-22 07:43:22.15	44.31	15.24	-29.9	-32.3	13.6	6.80e-06	0	43	0	368050176	21	4738
2026-01-22 07:43:23.15	44.10	15.26	-30.0	-32.6	13.4	1.22e-05	0	43	0	370147328	21	4826
2026-01-22 07:43:24.15	43.89	15.28	-30.0	-32.5	13.4	1.29e-05	0	43	0	372244480	21	4786
2026-01-22 07:43:25.15	43.68	15.29	-30.1	-32.8	13.2	1.67e-05	0	43	0	373293056	21	4927
2026-01-22 07:43:26.15	43.47	15.31	-29.9	-32.3	13.5	1.37e-05	0	43	0	375390208	21	4743
2026-01-22 07:43:27.16	43.26	15.33	-29.9	-32.1	13.7	1.22e-05	0	43	0	377487360	21	4671
2026-01-22 07:43:28.16	43.05	15.34	-29.9	-32.1	13.6	6.80e-06	0	43	0	379584512	21	4674
2026-01-22 07:43:29.16	42.83	15.36	-30.0	-32.4	13.5	1.06e-05	0	43	0	380633088	21	4780
2026-01-22 07:43:30.16	42.62	15.37	-30.0	-32.6	13.3	9.10e-06	0	43	0	382730240	21	4854
2026-01-22 07:43:31.16	42.41	15.39	-30.1	-32.8	13.2	1.90e-05	0	43	0	384827392	21	4915
2026-01-22 07:43:32.17	42.19	15.40	-30.0	-32.6	13.4	1.98e-05	0	43	0	386924544	21	4828
2026-01-22 07:43:33.17	41.98	15.42	-30.0	-32.6	13.3	1.52e-05	0	43	0	389021696	21	4854
2026-01-22 07:43:34.17	41.77	15.43	-30.1	-32.8	13.2	1.44e-05	0	43	0	390070272	21	4922
2026-01-22 07:43:35.17	41.56	15.44	-30.1	-32.8	13.3	1.75e-05	0	43	0	392167424	21	4904
2026-01-22 07:43:36.17	41.34	15.46	-30.2	-33.1	13.1	1.44e-05	0	43	0	394264576	21	5017
2026-01-22 07:43:37.17	41.13	15.47	-30.2	-33.1	13.0	3.35e-05	0	43	0	396361728	21	5048
2026-01-22 07:43:38.17	40.91	15.48	-30.2	-33.1	13.0	3.96e-05	0	43	0	398458880	21	5014
2026-01-22 07:43:39.18	40.70	15.49	-30.2	-33.1	13.0	3.89e-05	0	43	0	399507456	21	5022
2026-01-22 07:43:40.19	40.48	15.50	-30.2	-33.2	12.9	5.03e-05	0	43	0	401604608	21	5061
2026-01-22 07:43:41.18	40.27	15.52	-30.2	-33.0	13.1	3.05e-05	0	43	0	403701760	21	4981
2026-01-22 07:43:42.18	40.06	15.53	-30.2	-33.0	13.1	2.89e-05	0	43	0	405798912	21	4987
2026-01-22 07:43:43.19	39.84	15.54	-30.2	-33.2	13.0	3.73e-05	0	43	0	407896064	21	5053
2026-01-22 07:43:44.19	39.62	15.55	-30.2	-33.1	13.0	3.81e-05	0	43	0	408944640	21	5013
2026-01-22 07:43:45.19	39.41	15.56	-30.2	-33.0	13.1	3.12e-05	0	43	0	411041792	21	4994
2026-01-22 07:43:46.19	39.20	15.56	-30.2	-33.0	13.1	2.97e-05	0	43	0	413138944	21	4977
2026-01-22 07:43:47.18	38.98	15.57	-30.2	-33.0	13.1	2.82e-05	0	43	0	415236096	21	4995
2026-01-22 07:43:48.19	38.76	15.58	-30.2	-33.2	12.9	4.27e-05	0	43	0	417333248	21	5083
2026-01-22 07:43:49.19	38.55	15.59	-30.1	-32.9	13.2	3.12e-05	0	43	0	418381824	21	4951
2026-01-22 07:43:50.19	38.33	15.60	-30.2	-33.1	13.0	3.81e-05	0	43	0	420478976	21	5043
2026-01-22 07:43:51.20	38.12	15.60	-30.2	-33.1	13.1	2.82e-05	0	43	0	422576128	21	5010
2026-01-22 07:43:52.20	37.90	15.61	-30.2	-33.2	13.0	3.73e-05	0	43	0	424673280	21	5056
2026-01-22 07:43:53.20	37.69	15.62	-30.2	-32.9	13.1	3.81e-05	0	43	0	425721856	21	4964
2026-01-22 07:43:54.20	37.47	15.62	-30.0	-32.6	13.3	2.36e-05	0	43	0	427819008	21	4852
2026-01-22 07:43:55.20	37.25	15.63	-30.1	-32.7	13.3	1.60e-05	0	43	0	429916160	21	4881
2026-01-22 07:43:56.20	37.04	15.63	-30.1	-32.8	13.2	1.52e-05	0	43	0	432013312	21	4921
2026-01-22 07:43:57.21	36.82	15.64	-30.1	-32.8	13.2	1.90e-05	0	43	0	434110464	21	4932
2026-01-22 07:43:58.21	36.60	15.64	-30.3	-33.4	12.8	5.26e-05	0	43	0	435159040	21	5122
2026-01-22 07:43:59.21	36.39	15.64	-30.3	-33.3	12.9	4.57e-05	0	43	0	437256192	21	5104
2026-01-22 07:44:00.21	36.17	15.65	-30.4	-33.7	12.6	6.56e-05	0	43	0	439353344	21	5264
2026-01-22 07:44:01.22	35.95	15.65	-30.3	-33.3	12.9	8.16e-05	0	43	0	441450496	21	5104
2026-01-22 07:44:02.23	35.73	15.65	-30.2	-33.0	13.1	3.89e-05	0	43	0	443547648	21	4986
2026-01-22 07:44:03.23	35.52	15.65	-30.1	-32.8	13.2	1.67e-05	0	43	0	444596224	21	4913
2026-01-22 07:44:04.23	35.30	15.66	-30.1	-32.8	13.2	2.21e-05	0	43	0	446693376	21	4906
2026-01-22 07:44:05.23	35.09	15.66	-30.0	-32.6	13.4	1.44e-05	0	43	0	448790528	21	4833
2026-01-22 07:44:06.23	34.87	15.66	-30.0	-32.5	13.4	4.50e-06	0	43	0	450887680	21	4812
2026-01-22 07:44:07.22	34.66	15.66	-30.1	-32.7	13.3	1.44e-05	0	43	0	452984832	21	4871
2026-01-22 07:44:08.23	34.44	15.66	-30.1	-32.8	13.2	2.21e-05	0	43	0	454033408	21	4920
2026-01-22 07:44:09.23	34.22	15.66	-30.0	-32.6	13.4	2.51e-05	0	43	0	456130560	21	4824
2026-01-22 07:44:10.23	34.00	15.66	-30.0	-32.4	13.5	1.22e-05	0	43	0	458227712	21	4774
2026-01-22 07:44:11.23	33.79	15.66	-30.0	-32.5	13.5	1.52e-05	0	43	0	460324864	21	4793
2026-01-22 07:44:12.23	33.57	15.65	-30.0	-32.6	13.4	1.52e-05	0	43	0	462422016	21	4838
2026-01-22 07:44:13.23	33.36	15.65	-30.1	-32.8	13.3	1.67e-05	0	43	0	463470592	21	4897
2026-01-22 07:44:14.23	33.14	15.65	-30.1	-32.9	13.2	2.13e-05	0	43	0	465567744	21	4946
2026-01-22 07:44:15.24	32.92	15.65	-30.2	-33.0	13.1	1.98e-05	0	43	0	467664896	21	4992
2026-01-22 07:44:16.24	32.71	15.64	-30.2	-32.9	13.1	2.67e-05	0	43	0	469762048	21	4947
2026-01-22 07:44:17.24	32.49	15.64	-30.1	-32.9	13.2	2.21e-05	0	43	0	470810624	21	4927
2026-01-22 07:44:18.25	32.27	15.64	-30.1	-32.9	13.2	2.97e-05	0	43	0	472907776	21	4934
2026-01-22 07:44:19.26	32.05	15.63	-30.1	-32.7	13.3	2.36e-05	0	43	0	475004928	21	4872
2026-01-22 07:44:20.26	31.84	15.63	-30.1	-32.9	13.2	1.90e-05	0	43	0	477102080	21	4937
2026-01-22 07:44:21.27	31.62	15.62	-30.1	-32.8	13.3	2.51e-05	0	43	0	479199232	21	4908
2026-01-22 07:44:22.26	31.41	15.61	-30.2	-32.9	13.1	3.35e-05	0	43	0	480247808	21	4959
2026-01-22 07:44:23.27	31.19	15.61	-30.1	-32.8	13.2	2.28e-05	0	43	0	482344960	21	4918
2026-01-22 07:44:24.27	30.97	15.60	-30.2	-32.9	13.1	1.98e-05	0	43	0	484442112	21	4969
2026-01-22 07:44:25.26	30.76	15.59	-30.2	-32.9	13.1	2.67e-05	0	43	0	486539264	21	4955
2026-01-22 07:44:26.27	30.54	15.59	-30.2	-33.0	13.1	2.82e-05	0	43	0	488636416	21	5001
2026-01-22 07:44:27.27	30.33	15.58	-30.2	-33.2	12.9	4.27e-05	0	43	0	489684992	21	5072
2026-01-22 07:44:28.27	30.11	15.57	-30.2	-33.1	13.0	3.50e-05	0	43	0	491782144	21	5027
2026-01-22 07:44:29.27	29.90	15.56	-30.4	-33.5	12.8	7.85e-05	0	43	0	493879296	21	5174
2026-01-22 07:44:30.28	29.68	15.55	-30.4	-33.5	12.7	4.57e-05	0	43	0	495976448	21	5187
2026-01-22 07:44:31.29	29.46	15.54	-30.5	-33.9	12.4	9.38e-05	0	43	0	498073600	21	5337
2026-01-22 07:44:32.29	29.25	15.53	-30.4	-33.7	12.6	1.07e-04	0	43	0	499122176	21	5233
2026-01-22 07:44:33.29	29.03	15.52	-30.3	-33.4	12.8	6.63e-05	0	43	0	501219328	21	5120
2026-01-22 07:44:34.30	28.82	15.51	-30.2	-33.2	12.9	4.73e-05	0	43	0	503316480	21	5051
2026-01-22 07:44:35.31	28.60	15.50	-30.2	-33.1	13.0	3.43e-05	0	43	0	505413632	21	5017
2026-01-22 07:44:36.31	28.39	15.49	-30.2	-33.0	13.1	3.96e-05	0	43	0	507510784	21	4995
2026-01-22 07:44:37.31	28.17	15.48	-30.0	-32.6	13.4	2.28e-05	0	43	0	508559360	21	4834
2026-01-22 07:44:38.31	27.96	15.47	-30.0	-32.5	13.4	1.06e-05	0	43	0	510656512	21	4789
2026-01-22 07:44:39.30	27.75	15.45	-30.0	-32.6	13.4	1.14e-05	0	43	0	512753664	21	4828
2026-01-22 07:44:40.30	27.54	15.44	-30.0	-32.6	13.3	2.44e-05	0	43	0	514850816	21	4856
2026-01-22 07:44:41.30	27.32	15.43	-30.0	-32.4	13.4	1.67e-05	0	43	0	515899392	21	4780
2026-01-22 07:44:42.31	27.11	15.41	-29.9	-32.4	13.5	1.22e-05	0	43	0	517996544	21	4767
2026-01-22 07:44:43.31	26.90	15.40	-30.0	-32.7	13.3	1.60e-05	0	43	0	520093696	21	4870
2026-01-22 07:44:44.31	26.68	15.38	-30.1	-32.7	13.3	1.67e-05	0	43	0	522190848	21	4885
2026-01-22 07:44:45.32	26.47	15.37	-29.9	-32.2	13.6	1.83e-05	0	43	0	524288000	21	4716
2026-01-22 07:44:46.32	26.26	15.35	-29.8	-32.4	13.8	4.50e-06	0	43	0	525336576	20	4863
2026-01-22 07:44:47.32	26.05	15.34	-29.7	-32.3	13.9	6.10e-06	0	43	0	527433728	20	4853
2026-01-22 07:44:48.32	25.84	15.32	-29.7	-32.3	13.9	2.20e-06	0	43	0	529530880	20	4847
2026-01-22 07:44:49.33	25.62	15.30	-29.8	-32.4	13.8	5.30e-06	0	43	0	531628032	20	4886
2026-01-22 07:44:50.34	25.41	15.29	-29.8	-32.5	13.8	6.10e-06	0	43	0	533725184	20	4888
2026-01-22 07:44:51.35	25.20	15.27	-29.9	-32.8	13.6	9.90e-06	0	43	0	534773760	20	5006
2026-01-22 07:44:52.35	24.99	15.25	-29.9	-32.8	13.6	9.90e-06	0	43	0	536870912	20	4999
2026-01-22 07:44:53.35	24.78	15.23	-29.9	-32.9	13.5	1.98e-05	0	43	0	538968064	20	5042
2026-01-22 07:44:54.35	24.57	15.22	-29.9	-32.7	13.6	9.10e-06	0	43	0	541065216	20	4993
2026-01-22 07:44:55.36	24.35	15.20	-30.0	-33.0	13.4	8.30e-06	0	43	0	543162368	20	5077
2026-01-22 07:44:56.36	24.14	15.18	-30.0	-33.0	13.4	2.05e-05	0	43	0	544210944	20	5097
2026-01-22 07:44:57.36	23.94	15.16	-29.9	-32.7	13.6	9.10e-06	0	43	0	546308096	20	4979
2026-01-22 07:44:58.37	23.72	15.14	-29.8	-32.6	13.7	3.80e-06	0	43	0	548405248	20	4925
2026-01-22 07:44:59.37	23.52	15.12	-29.9	-32.7	13.6	8.30e-06	0	43	0	550502400	20	4977
2026-01-22 07:45:00.36	23.31	15.10	-29.9	-32.9	13.5	8.30e-06	0	43	0	552599552	20	5039
2026-01-22 07:45:01.37	23.10	15.08	-30.0	-33.1	13.4	1.52e-05	0	43	0	553648128	20	5112
2026-01-22 07:45:02.37	22.89	15.05	-30.0	-32.9	13.5	7.60e-06	0	43	0	555745280	20	5066
2026-01-22 07:45:03.38	22.68	15.03	-30.1	-33.2	13.3	1.22e-05	0	43	0	557842432	20	5162
2026-01-22 07:45:04.38	22.48	15.01	-30.0	-33.0	13.4	1.52e-05	0	43	0	559939584	20	5083
2026-01-22 07:45:05.38	22.27	14.99	-30.0	-32.9	13.5	1.44e-05	0	43	0	562036736	20	5055
2026-01-22 07:45:06.39	22.06	14.96	-30.1	-33.3	13.2	1.98e-05	0	43	0	563085312	20	5210
2026-01-22 07:45:07.40	21.85	14.94	-30.2	-33.7	13.0	2.74e-05	0	43	0	565182464	20	5342
2026-01-22 07:45:08.41	21.64	14.92	-30.2	-33.7	12.9	3.96e-05	0	43	0	567279616	20	5371
2026-01-22 07:45:09.41	21.44	14.89	-30.2	-33.7	12.9	4.57e-05	0	43	0	569376768	20	5372
2026-01-22 07:45:10.42	21.23	14.87	-30.3	-33.9	12.8	5.95e-05	0	43	0	571473920	20	5456
2026-01-22 07:45:11.43	21.03	14.84	-30.4	-34.1	12.7	9.84e-05	0	43	0	572522496	20	5534
2026-01-22 07:45:12.43	20.82	14.82	-30.3	-33.8	12.9	6.71e-05	0	43	0	574619648	20	5401
2026-01-22 07:45:13.43	20.62	14.79	-30.3	-33.8	12.9	4.57e-05	0	43	0	576716800	20	5397
2026-01-22 07:45:14.44	20.41	14.77	-30.3	-33.9	12.8	5.79e-05	0	43	0	578813952	20	5423
2026-01-22 07:45:15.44	20.21	14.74	-30.4	-34.2	12.6	4.65e-05	0	43	0	580911104	20	5563
2026-01-22 07:45:16.44	20.01	14.72	-30.4	-33.7	12.6	1.30e-04	0	43	0	581959680	21	5268
2026-01-22 07:45:17.43	19.81	14.69	-30.3	-33.3	12.8	8.23e-05	0	43	0	584056832	21	5099
2026-01-22 07:45:18.43	19.60	14.66	-30.2	-33.0	13.1	3.81e-05	0	43	0	586153984	21	4978
2026-01-22 07:45:19.44	19.40	14.64	-30.1	-32.9	13.1	3.35e-05	0	43	0	588251136	21	4970
2026-01-22 07:45:20.45	19.20	14.61	-30.2	-32.9	13.1	2.89e-05	0	43	0	590348288	21	4966
2026-01-22 07:45:21.45	18.99	14.58	-30.2	-33.0	13.0	3.28e-05	0	43	0	591396864	21	5000
2026-01-22 07:45:22.46	18.79	14.55	-30.2	-33.2	12.9	3.81e-05	0	43	0	593494016	21	5084
2026-01-22 07:45:23.46	18.59	14.52	-30.2	-33.2	12.9	6.33e-05	0	43	0	595591168	21	5075
2026-01-22 07:45:24.46	18.39	14.49	-30.1	-32.8	13.2	4.57e-05	0	43	0	597688320	21	4933
2026-01-22 07:45:25.46	18.19	14.47	-30.0	-32.6	13.3	1.98e-05	0	43	0	598736896	21	4854
2026-01-22 07:45:26.47	17.99	14.44	-30.1	-32.7	13.3	1.52e-05	0	43	0	600834048	21	4862
2026-01-22 07:45:27.47	17.79	14.41	-30.0	-32.6	13.3	1.67e-05	0	43	0	602931200	21	4854
2026-01-22 07:45:28.48	17.59	14.38	-30.0	-32.4	13.4	1.67e-05	0	43	0	605028352	21	4779
2026-01-22 07:45:29.48	17.39	14.34	-30.1	-32.8	13.2	2.51e-05	0	43	0	607125504	21	4895
2026-01-22 07:45:30.48	17.20	14.31	-30.1	-32.8	13.2	2.82e-05	0	43	0	608174080	21	4916
2026-01-22 07:45:31.49	17.00	14.28	-30.0	-32.5	13.4	1.83e-05	0	43	0	610271232	21	4805
2026-01-22 07:45:32.49	16.80	14.25	-29.9	-32.4	13.5	9.10e-06	0	43	0	612368384	21	4758
2026-01-22 07:45:33.49	16.61	14.22	-29.9	-32.4	13.4	5.30e-06	0	43	0	614465536	21	4759
2026-01-22 07:45:34.50	16.41	14.19	-30.0	-32.5	13.4	1.14e-05	0	43	0	616562688	21	4794
2026-01-22 07:45:35.50	16.21	14.16	-30.0	-32.4	13.4	1.14e-05	0	43	0	617611264	21	4788
2026-01-22 07:45:36.51	16.02	14.12	-30.0	-32.5	13.4	1.22e-05	0	43	0	619708416	21	4820
2026-01-22 07:45:37.51	15.82	14.09	-30.0	-32.6	13.3	1.75e-05	0	43	0	621805568	21	4834
2026-01-22 07:45:38.51	15.63	14.06	-30.0	-32.5	13.4	3.05e-05	0	43	0	623902720	21	4813
2026-01-22 07:45:39.51	15.43	14.02	-29.9	-32.1	13.6	1.22e-05	0	43	0	625999872	21	4681
2026-01-22 07:45:40.52	15.24	13.99	-29.8	-32.1	13.7	1.22e-05	0	43	0	627048448	21	4658
2026-01-22 07:45:41.52	15.05	13.96	-29.9	-32.2	13.6	9.90e-06	0	43	0	629145600	21	4699
2026-01-22 07:45:42.52	14.85	13.92	-29.8	-32.1	13.6	1.22e-05	0	43	0	631242752	21	4684
2026-01-22 07:45:43.53	14.66	13.89	-29.9	-32.2	13.6	1.14e-05	0	43	0	633339904	21	4698
2026-01-22 07:45:44.53	14.47	13.85	-29.9	-32.2	13.6	6.10e-06	0	43	0	635437056	21	4690
2026-01-22 07:45:45.53	14.28	13.82	-30.0	-32.4	13.4	9.90e-06	0	43	0	636485632	21	4758
2026-01-22 07:45:46.53	14.09	13.78	-29.9	-32.3	13.5	1.44e-05	0	43	0	638582784	21	4739
2026-01-22 07:45:47.54	13.90	13.75	-29.8	-32.0	13.7	7.60e-06	0	43	0	640679936	21	4635
2026-01-22 07:45:48.54	13.71	13.71	-29.8	-32.4	13.7	3.80e-06	0	43	0	642777088	20	4888
2026-01-22 07:45:49.54	13.52	13.67	-29.9	-32.7	13.6	6.80e-06	0	43	0	644874240	20	4983
2026-01-22 07:45:50.54	13.33	13.64	-29.9	-32.9	13.4	7.60e-06	0	43	0	645922816	20	5051
2026-01-22 07:45:51.54	13.14	13.60	-30.0	-32.9	13.4	1.22e-05	0	43	0	648019968	20	5062
2026-01-22 07:45:52.54	12.95	13.56	-30.0	-33.0	13.3	1.37e-05	0	43	0	650117120	20	5107
2026-01-22 07:45:53.55	12.77	13.53	-30.0	-33.0	13.3	2.21e-05	0	43	0	652214272	20	5111
2026-01-22 07:45:54.56	12.58	13.49	-29.9	-32.9	13.5	1.98e-05	0	43	0	653262848	20	5039
2026-01-22 07:45:55.55	12.39	13.45	-29.9	-32.8	13.5	1.14e-05	0	43	0	655360000	20	5009
2026-01-22 07:45:56.56	12.21	13.41	-29.9	-32.8	13.5	9.90e-06	0	43	0	657457152	20	5021
2026-01-22 07:45:57.56	12.02	13.38	-29.9	-32.8	13.4	1.14e-05	0	43	0	659554304	20	5029
2026-01-22 07:45:58.57	11.83	13.34	-29.9	-32.7	13.5	2.05e-05	0	43	0	661651456	20	4989
2026-01-22 07:45:59.57	11.65	13.30	-29.8	-32.5	13.7	9.10e-06	0	43	0	662700032	20	4900
2026-01-22 07:46:00.57	11.47	13.26	-29.7	-32.3	13.7	4.50e-06	0	43	0	664797184	20	4852
2026-01-22 07:46:01.58	11.28	13.22	-29.7	-32.3	13.7	3.00e-06	0	43	0	666894336	20	4855
2026-01-22 07:46:02.58	11.10	13.18	-29.8	-32.5	13.6	4.50e-06	0	43	0	668991488	20	4927
2026-01-22 07:46:03.58	10.92	13.14	-29.8	-32.6	13.6	1.06e-05	0	43	0	671088640	20	4954
2026-01-22 07:46:04.59	10.73	13.10	-29.9	-32.8	13.4	7.60e-06	0	43	0	672137216	20	5036
2026-01-22 07:46:05.59	10.55	13.06	-30.0	-33.1	13.2	1.37e-05	0	43	0	674234368	20	5141
2026-01-22 07:46:06.60	10.37	13.02	-30.1	-33.2	13.2	2.13e-05	0	43	0	676331520	20	5189
2026-01-22 07:46:07.60	10.19	12.98	-30.1	-33.4	13.0	3.20e-05	0	43	0	678428672	20	5245
2026-01-22 07:46:08.60	10.01	12.94	-30.2	-33.5	12.9	4.34e-05	0	43	0	680525824	20	5306
2026-01-22 07:46:09.60	9.83	12.90	-30.2	-33.6	12.9	5.79e-05	0	43	0	681574400	20	5322
2026-01-22 07:46:10.61	9.65	12.86	-30.3	-33.8	12.8	5.79e-05	0	43	0	683671552	20	5414
2026-01-22 07:46:11.61	9.47	12.82	-30.3	-33.8	12.8	6.33e-05	0	43	0	685768704	20	5407
2026-01-22 07:46:12.61	9.29	12.78	-30.3	-33.9	12.7	6.94e-05	0	43	0	687865856	20	5469
2026-01-22 07:46:13.61	9.12	12.74	-30.3	-33.9	12.6	1.12e-04	0	43	0	689963008	20	5479
2026-01-22 07:46:14.62	8.94	12.69	-30.4	-34.1	12.5	9.91e-05	0	43	0	691011584	20	5538
2026-01-22 07:46:15.62	8.76	12.65	-30.4	-34.3	12.4	1.43e-04	0	43	0	693108736	20	5602
2026-01-22 07:46:16.61	8.59	12.61	-30.5	-34.5	12.3	1.46e-04	0	43	0	695205888	20	5696
2026-01-22 07:46:17.61	8.41	12.57	-30.6	-34.3	12.1	2.27e-04	0	43	0	697303040	21	5497
2026-01-22 07:46:18.62	8.24	12.53	-30.6	-34.3	12.0	3.63e-04	0	43	0	698351616	21	5499
2026-01-22 07:46:19.63	8.06	12.48	-30.6	-34.3	12.0	2.78e-04	0	43	0	700448768	21	5534
2026-01-22 07:46:20.62	7.89	12.44	-30.6	-34.4	12.0	3.65e-04	0	43	0	702545920	21	5539
2026-01-22 07:46:21.62	7.72	12.40	-30.6	-34.5	11.9	3.39e-04	0	43	0	704643072	21	5590
2026-01-22 07:46:22.63	7.54	12.35	-30.8	-34.9	11.6	5.39e-04	0	43	0	706740224	21	5766
2026-01-22 07:46:23.63	7.37	12.31	-30.8	-35.0	11.6	8.13e-04	0	43	0	707788800	21	5821
2026-01-22 07:46:24.63	7.20	12.27	-30.8	-35.1	11.4	8.13e-04	0	43	0	709885952	21	5871
2026-01-22 07:46:25.63	7.03	12.22	-30.9	-35.2	11.3	1.05e-03	0	43	0	711983104	21	5921
2026-01-22 07:46:26.64	6.86	12.18	-30.9	-35.4	11.3	1.02e-03	0	43	0	714080256	21	6016
2026-01-22 07:46:27.64	6.69	12.13	-31.0	-35.5	11.2	1.44e-03	0	43	0	716177408	21	6056
2026-01-22 07:46:28.64	6.52	12.09	-31.0	-35.2	11.0	1.55e-03	0	43	0	717225984	22	5823
2026-01-22 07:46:29.65	6.35	12.04	-31.2	-35.7	10.6	2.26e-03	0	43	0	719323136	22	6073
2026-01-22 07:46:30.66	6.18	12.00	-31.2	-35.6	10.7	3.44e-03	0	43	0	721420288	22	6017
2026-01-22 07:46:31.66	6.01	11.96	-31.1	-35.3	10.9	2.36e-03	0	43	0	723517440	22	5882
2026-01-22 07:46:32.66	5.84	11.91	-31.0	-35.1	11.1	1.74e-03	0	43	0	725614592	22	5780
2026-01-22 07:46:33.66	5.67	11.87	-31.0	-34.9	11.2	1.46e-03	0	43	0	726663168	22	5693
2026-01-22 07:46:34.66	5.51	11.82	-30.9	-34.8	11.3	1.23e-03	0	43	0	728760320	22	5653
2026-01-22 07:46:35.67	5.34	11.77	-31.0	-35.0	11.1	1.28e-03	0	43	0	730857472	22	5745
2026-01-22 07:46:36.66	5.18	11.73	-31.0	-35.1	11.1	1.77e-03	0	43	0	732954624	22	5760
2026-01-22 07:46:37.67	5.01	11.68	-31.1	-35.3	10.9	1.92e-03	0	43	0	735051776	22	5885
2026-01-22 07:46:38.67	4.85	11.64	-31.2	-35.6	10.7	2.88e-03	0	43	0	736100352	22	6026
2026-01-22 07:46:39.68	4.68	11.59	-31.2	-35.9	10.5	3.31e-03	0	43	0	738197504	22	6157
2026-01-22 07:46:40.68	4.52	11.54	-31.3	-36.1	10.3	5.09e-03	0	43	0	740294656	22	6265
2026-01-22 07:46:41.68	4.35	11.50	-31.3	-36.1	10.3	4.78e-03	0	43	0	742391808	22	6274
2026-01-22 07:46:42.68	4.19	11.45	-31.3	-36.2	10.3	5.65e-03	0	43	0	744488960	22	6298
2026-01-22 07:46:43.69	4.03	11.41	-31.3	-36.1	10.3	5.36e-03	0	43	0	745537536	22	6276
2026-01-22 07:46:44.69	3.87	11.36	-31.3	-36.1	10.3	5.00e-03	0	43	0	747634688	22	6257
2026-01-22 07:46:45.70	3.71	11.31	-31.3	-36.1	10.3	4.81e-03	0	43	0	749731840	22	6245
2026-01-22 07:46:46.70	3.55	11.26	-31.4	-36.4	10.1	5.80e-03	0	43	0	751828992	22	6416
2026-01-22 07:46:47.71	3.39	11.22	-31.5	-36.8	9.8	9.29e-03	0	43	0	753926144	22	6635
2026-01-22 07:46:48.71	3.23	11.17	-31.4	-36.6	9.9	1.06e-02	0	43	0	754974720	22	6559
2026-01-22 07:46:49.72	3.07	11.12	-31.4	-36.4	10.0	8.75e-03	0	43	0	757071872	22	6463
2026-01-22 07:46:50.72	2.91	11.07	-31.4	-36.6	9.9	7.67e-03	0	43	0	759169024	22	6531
2026-01-22 07:46:51.72	2.75	11.03	-31.5	-36.4	9.6	1.07e-02	0	43	0	761266176	23	6344
2026-01-22 07:46:52.72	2.59	10.98	-31.6	-36.8	9.3	1.47e-02	0	43	0	762314752	23	6559
2026-01-22 07:46:53.73	2.44	10.93	-31.6	-36.7	9.5	1.83e-02	0	43	0	764411904	23	6475
2026-01-22 07:46:54.73	2.28	10.88	-31.6	-36.8	9.3	1.55e-02	0	43	0	766509056	23	6551
2026-01-22 07:46:55.74	2.12	10.84	-31.5	-36.5	9.5	1.71e-02	0	43	0	768606208	23	6400
2026-01-22 07:46:56.73	1.97	10.79	-31.4	-36.2	9.8	1.21e-02	0	43	0	770703360	23	6226
2026-01-22 07:46:57.73	1.82	10.74	-31.4	-35.9	10.1	7.84e-03	0	43	0	771751936	23	6056
2026-01-22 07:46:58.73	1.66	10.69	-31.4	-35.9	10.1	6.98e-03	0	43	0	773849088	23	6046
2026-01-22 07:46:59.74	1.51	10.64	-31.4	-36.0	10.0	7.20e-03	0	43	0	775946240	23	6102
2026-01-22 07:47:00.74	1.36	10.59	-31.3	-35.8	10.1	8.01e-03	0	43	0	778043392	23	6034
2026-01-22 07:47:01.74	1.20	10.54	-31.2	-35.3	10.5	5.31e-03	0	43	0	780140544	23	5795
2026-01-22 07:47:02.74	1.05	10.50	-31.2	-35.3	10.5	4.03e-03	0	43	0	781189120	23	5773
2026-01-22 07:47:03.75	0.90	10.45	-31.2	-35.4	10.4	4.07e-03	0	43	0	783286272	23	5839
2026-01-22 07:47:04.75	0.75	10.40	-31.2	-35.4	10.4	4.61e-03	0	43	0	785383424	23	5818
2026-01-22 07:47:05.76	0.60	10.35	-31.2	-35.3	10.4	4.49e-03	0	43	0	787480576	23	5798
2026-01-22 07:47:06.76	0.45	10.30	-31.2	-35.3	10.4	4.53e-03	0	43	0	789577728	23	5799
2026-01-22 07:47:07.77	0.30	10.25	-31.2	-35.3	10.4	4.55e-03	0	43	0	790626304	23	5777
2026-01-22 07:47:08.77	0.15	10.20	-31.1	-35.2	10.5	3.92e-03	0	43	0	792723456	23	5739
2026-01-22 07:47:09.77	360.00	10.15	-31.2	-35.4	10.3	4.26e-03	0	43	0	794820608	23	5844
2026-01-22 07:47:10.77	359.85	10.10	-31.1	-35.0	10.6	4.65e-03	0	43	0	796917760	23	5678
2026-01-22 07:47:11.77	359.71	10.05	-31.0	-34.7	10.9	2.61e-03	0	43	0	799014912	23	5509
2026-01-22 07:47:12.78	359.56	10.00	-31.0	-34.7	10.9	2.13e-03	0	43	0	800063488	23	5492
2026-01-22 07:47:13.78	359.41	9.95	-31.0	-34.8	10.8	2.29e-03	0	43	0	802160640	23	5574
2026-01-22 07:47:14.78	359.27	9.90	-31.0	-34.7	10.8	2.35e-03	0	43	0	804257792	23	5524
2026-01-22 07:47:15.78	359.12	9.85	-31.0	-34.7	10.9	2.06e-03	0	43	0	806354944	23	5525
2026-01-22 07:47:16.79	358.98	9.80	-31.0	-34.6	10.9	2.53e-03	0	43	0	808452096	23	5488
2026-01-22 07:47:17.78	358.83	9.75	-31.0	-34.6	10.9	2.20e-03	0	43	0	809500672	23	5492
2026-01-22 07:47:18.79	358.69	9.70	-31.1	-34.9	10.7	2.58e-03	0	43	0	811597824	23	5599
2026-01-22 07:47:19.80	358.54	9.65	-31.0	-34.7	10.8	2.77e-03	0	43	0	813694976	23	5519
2026-01-22 07:47:20.80	358.40	9.60	-30.9	-34.4	11.1	1.98e-03	0	43	0	815792128	23	5378
2026-01-22 07:47:21.80	358.26	9.55	-30.8	-34.2	11.2	1.49e-03	0	43	0	816840704	23	5325
2026-01-22 07:47:22.80	358.12	9.50	-30.8	-34.2	11.2	1.44e-03	0	43	0	818937856	23	5309
2026-01-22 07:47:23.80	357.98	9.45	-30.8	-34.1	11.2	1.50e-03	0	43	0	821035008	23	5275
2026-01-22 07:47:24.81	357.83	9.40	-30.8	-34.2	11.2	1.24e-03	0	43	0	823132160	23	5300
2026-01-22 07:47:25.81	357.69	9.35	-30.8	-34.2	11.2	1.32e-03	0	43	0	825229312	23	5311
2026-01-22 07:47:26.82	357.55	9.30	-30.8	-34.1	11.2	1.33e-03	0	43	0	826277888	23	5260
2026-01-22 07:47:27.82	357.42	9.25	-30.8	-34.2	11.2	1.32e-03	0	43	0	828375040	23	5309
2026-01-22 07:47:28.81	357.28	9.20	-30.7	-34.5	11.3	1.28e-03	0	43	0	830472192	22	5523
2026-01-22 07:47:29.82	357.14	9.15	-30.7	-34.2	11.5	8.78e-04	0	43	0	832569344	22	5395
2026-01-22 07:47:30.82	357.00	9.09	-30.6	-34.1	11.6	6.60e-04	0	43	0	834666496	22	5364
2026-01-22 07:47:31.82	356.86	9.04	-30.6	-33.9	11.7	6.06e-04	0	43	0	835715072	22	5288
2026-01-22 07:47:32.81	356.73	8.99	-30.6	-33.9	11.7	6.56e-04	0	43	0	837812224	22	5304
2026-01-22 07:47:33.82	356.59	8.94	-30.6	-34.0	11.6	6.87e-04	0	43	0	839909376	22	5345
2026-01-22 07:47:34.82	356.46	8.89	-30.7	-34.4	11.3	8.21e-04	0	43	0	842006528	22	5512
2026-01-22 07:47:35.82	356.32	8.84	-30.8	-34.8	11.1	1.56e-03	0	43	0	844103680	22	5676
2026-01-22 07:47:36.82	356.19	8.79	-30.7	-34.5	11.2	1.52e-03	0	43	0	845152256	22	5557
2026-01-22 07:47:37.83	356.05	8.74	-30.7	-34.3	11.4	1.07e-03	0	43	0	847249408	22	5439
2026-01-22 07:47:38.83	355.92	8.69	-30.7	-34.3	11.4	9.18e-04	0	43	0	849346560	22	5473
2026-01-22 07:47:39.83	355.78	8.63	-30.6	-34.1	11.5	9.10e-04	0	43	0	851443712	22	5375
2026-01-22 07:47:40.83	355.65	8.58	-30.6	-34.1	11.5	7.67e-04	0	43	0	853540864	22	5387
2026-01-22 07:47:41.84	355.52	8.53	-30.7	-34.6	11.2	1.09e-03	0	43	0	854589440	22	5583
2026-01-22 07:47:42.84	355.39	8.48	-30.6	-34.1	11.5	1.04e-03	0	43	0	856686592	22	5368
2026-01-22 07:47:43.84	355.26	8.43	-30.5	-33.7	11.8	5.74e-04	0	43	0	858783744	22	5204
2026-01-22 07:47:44.85	355.12	8.38	-30.4	-33.4	12.0	4.29e-04	0	43	0	860880896	22	5089
2026-01-22 07:47:45.85	354.99	8.32	-30.3	-33.1	12.2	2.72e-04	0	43	0	861929472	22	4998
2026-01-22 07:47:46.86	354.86	8.27	-30.3	-33.2	12.1	2.59e-04	0	43	0	864026624	22	5025
2026-01-22 07:47:47.86	354.73	8.22	-30.3	-33.2	12.1	2.74e-04	0	43	0	866123776	22	5015
2026-01-22 07:47:48.86	354.60	8.17	-30.3	-33.2	12.1	2.82e-04	0	43	0	868220928	22	5034
2026-01-22 07:47:49.86	354.48	8.12	-30.4	-33.5	11.8	4.52e-04	0	43	0	870318080	22	5156
2026-01-22 07:47:50.87	354.35	8.07	-30.3	-33.3	12.0	4.36e-04	0	43	0	871366656	22	5072
2026-01-22 07:47:51.88	354.22	8.01	-30.2	-33.3	12.3	1.88e-04	0	43	0	873463808	21	5172
2026-01-22 07:47:52.88	354.09	7.96	-30.2	-33.4	12.2	1.79e-04	0	43	0	875560960	21	5209
2026-01-22 07:47:53.89	353.96	7.91	-30.1	-33.2	12.4	1.98e-04	0	43	0	877658112	21	5137
2026-01-22 07:47:54.90	353.84	7.86	-30.1	-33.1	12.5	1.20e-04	0	43	0	879755264	21	5088
2026-01-22 07:47:55.91	353.71	7.80	-30.1	-33.2	12.4	1.33e-04	0	43	0	880803840	21	5117
2026-01-22 07:47:56.91	353.58	7.75	-30.1	-33.2	12.4	1.59e-04	0	43	0	882900992	21	5124
2026-01-22 07:47:57.91	353.46	7.70	-30.2	-33.5	12.2	1.63e-04	0	43	0	884998144	21	5244
2026-01-22 07:47:58.91	353.34	7.65	-30.2	-33.3	12.3	2.28e-04	0	43	0	887095296	21	5182
2026-01-22 07:47:59.92	353.21	7.60	-30.2	-33.5	12.1	2.10e-04	0	43	0	889192448	21	5258
2026-01-22 07:48:00.92	353.09	7.54	-30.3	-33.7	12.0	3.23e-04	0	43	0	890241024	21	5360
2026-01-22 07:48:01.93	352.96	7.49	-30.2	-33.4	12.2	3.63e-04	0	43	0	892338176	21	5226
2026-01-22 07:48:02.93	352.84	7.44	-30.1	-33.1	12.4	1.83e-04	0	43	0	894435328	21	5110
2026-01-22 07:48:03.93	352.72	7.39	-30.1	-33.1	12.4	1.70e-04	0	43	0	896532480	21	5106
2026-01-22 07:48:04.94	352.60	7.33	-30.1	-33.2	12.3	1.44e-04	0	43	0	898629632	21	5127
2026-01-22 07:48:05.94	352.48	7.28	-30.2	-33.4	12.2	2.06e-04	0	43	0	899678208	21	5211
2026-01-22 07:48:06.94	352.36	7.23	-30.2	-33.4	12.2	2.43e-04	0	43	0	901775360	21	5215
2026-01-22 07:48:07.95	352.23	7.18	-30.2	-33.5	12.1	2.20e-04	0	43	0	903872512	21	5251
2026-01-22 07:48:08.95	352.11	7.13	-30.1	-33.3	12.2	2.43e-04	0	43	0	905969664	21	5200
2026-01-22 07:48:09.96	351.99	7.07	-30.2	-33.4	12.2	2.36e-04	0	43	0	908066816	21	5204
2026-01-22 07:48:10.96	351.88	7.02	-33.2	-47.2	3.8	1.01e+00	0	43	104	908066816	26	18064
2026-01-22 07:48:11.96	351.76	6.97	-33.4	-47.9	3.8	1.49e+00	0	43	104	908066816	26	19102
2026-01-22 07:48:12.97	351.64	6.92	-33.6	-47.9	3.8	1.49e+00	0	43	104	908066816	27	18534

#Closed at: 2026-01-22 07:48:13
#Recorded file [908 MB]: D:/data/31010_260122_104005.dat