passes_logs/2026/01/22/R2M6_AANII_01/R2M6_AANII_01__20260122_131137_AQUA_rec.log

#Pass ID: 20260122_131137_AQUA
#Satellite: AQUA
#Configuration: AQUA
#almurnet v.1.7.20240730
#Start time: 2026-01-22 13:11:38

#Version: 2.2.20231116
#Station: R2M6_AANII_01
#Location: 30.233357 lon 59.946436 lat
#TLE: 1 27424U 02022A   26021.53721517  .00002456  00000+0  50140-3 0  9996
#TLE: 2 27424  98.4098 348.0744 0002012  70.1009  46.1672 14.61843091261845

#Time	Az	El	Level	Level2	SNR	BER	BlckErr	Temp	State	Recorded	gain1	gain2
2026-01-22 13:11:38.83	199.28	7.12	-31.1	-36.9	5.1	7.11e-01	0	40	0	0	23	7071
2026-01-22 13:11:39.83	199.36	7.19	-31.6	-38.5	5.0	7.10e-01	0	41	104	0	24	7930
2026-01-22 13:11:40.84	199.45	7.26	-31.7	-38.1	13.1	6.10e-01	0	41	0	0	24	7541
2026-01-22 13:11:41.85	199.54	7.34	-31.9	-39.1	12.3	6.12e-01	0	41	0	1572864	24	8256
2026-01-22 13:11:42.85	199.62	7.41	-31.8	-38.6	12.7	6.10e-01	0	41	0	3670016	24	7907
2026-01-22 13:11:43.85	199.71	7.49	-31.6	-37.7	13.5	6.08e-01	0	41	0	5242880	24	7246
2026-01-22 13:11:44.85	199.79	7.56	-31.5	-37.0	14.1	6.07e-01	0	41	0	7340032	24	6788
2026-01-22 13:11:45.86	199.88	7.64	-31.2	-35.9	14.9	6.05e-01	0	41	0	9437184	24	6177
2026-01-22 13:11:46.85	199.97	7.71	-31.0	-35.2	15.4	6.08e-01	0	41	0	11010048	24	5839
2026-01-22 13:11:47.86	200.06	7.79	-30.8	-35.0	15.9	6.05e-01	0	41	0	13107200	23	5836
2026-01-22 13:11:48.86	200.14	7.86	-30.7	-34.5	16.4	6.07e-01	0	41	0	14680064	23	5575
2026-01-22 13:11:49.87	200.23	7.94	-30.5	-34.0	16.7	6.06e-01	0	41	0	16777216	23	5372
2026-01-22 13:11:50.87	200.32	8.02	-30.5	-33.9	16.8	6.05e-01	0	41	0	18350080	23	5317
2026-01-22 13:11:51.87	200.41	8.09	-30.5	-33.8	16.9	6.06e-01	0	41	0	20447232	23	5308
2026-01-22 13:11:52.88	200.50	8.17	-30.7	-34.5	16.4	6.06e-01	0	41	0	22544384	23	5589
2026-01-22 13:11:53.88	200.59	8.25	-30.5	-34.0	16.7	6.06e-01	0	41	0	24117248	23	5370
2026-01-22 13:11:54.88	200.68	8.32	-30.3	-33.8	17.2	6.05e-01	0	41	0	26214400	22	5370
2026-01-22 13:11:55.89	200.78	8.40	-30.1	-33.3	17.5	6.06e-01	0	41	0	28311552	22	5207
2026-01-22 13:11:56.89	200.87	8.48	-30.0	-33.0	17.7	6.04e-01	0	41	0	29884416	22	5081
2026-01-22 13:11:57.90	200.96	8.56	-30.0	-32.9	17.9	6.05e-01	0	41	0	31981568	22	5013
2026-01-22 13:11:58.90	201.06	8.63	-30.1	-33.1	17.7	6.05e-01	0	41	0	33554432	22	5121
2026-01-22 13:11:59.90	201.15	8.71	-30.0	-32.9	17.8	6.06e-01	0	41	0	35651584	22	5039
2026-01-22 13:12:00.90	201.24	8.79	-30.1	-33.2	17.7	6.07e-01	0	41	0	37224448	22	5128
2026-01-22 13:12:01.90	201.34	8.87	-30.2	-33.5	17.4	6.06e-01	0	41	0	39321600	22	5270
2026-01-22 13:12:02.90	201.43	8.95	-30.1	-33.1	17.8	6.07e-01	0	41	0	41418752	22	5094
2026-01-22 13:12:03.90	201.53	9.03	-30.0	-32.9	17.9	6.07e-01	0	41	0	42991616	22	5018
2026-01-22 13:12:04.90	201.62	9.10	-30.0	-33.0	17.8	6.06e-01	0	41	0	45088768	22	5047
2026-01-22 13:12:05.91	201.72	9.18	-30.0	-33.0	17.9	6.02e-01	0	41	0	46661632	22	5060
2026-01-22 13:12:06.91	201.82	9.26	-30.1	-33.1	17.8	6.05e-01	0	42	0	48758784	22	5116
2026-01-22 13:12:07.91	201.92	9.34	-30.1	-33.3	17.7	6.07e-01	0	42	0	50331648	22	5166
2026-01-22 13:12:08.92	202.02	9.42	-30.0	-32.8	18.0	6.05e-01	0	41	0	52428800	22	4994
2026-01-22 13:12:09.92	202.12	9.50	-30.0	-32.8	18.0	6.07e-01	0	42	0	54525952	22	4985
2026-01-22 13:12:10.93	202.22	9.58	-30.0	-32.8	18.1	6.06e-01	0	41	0	56098816	22	4973
2026-01-22 13:12:11.93	202.32	9.66	-29.9	-32.7	18.1	6.08e-01	0	42	0	58195968	22	4943
2026-01-22 13:12:12.94	202.42	9.75	-30.1	-33.1	17.8	6.06e-01	0	42	0	59768832	22	5113
2026-01-22 13:12:13.94	202.52	9.83	-29.9	-32.7	18.1	6.06e-01	0	42	0	61865984	22	4944
2026-01-22 13:12:14.95	202.62	9.91	-29.8	-32.9	18.3	6.03e-01	0	41	0	63963136	21	5121
2026-01-22 13:12:15.95	202.73	9.99	-29.9	-33.1	18.2	6.07e-01	0	41	0	65536000	21	5202
2026-01-22 13:12:16.96	202.83	10.07	-29.8	-32.8	18.4	6.06e-01	0	42	0	67633152	21	5069
2026-01-22 13:12:17.96	202.93	10.15	-29.7	-32.6	18.5	6.08e-01	0	42	0	69206016	21	5001
2026-01-22 13:12:18.96	203.04	10.24	-29.8	-32.7	18.5	6.09e-01	0	42	0	71303168	21	5033
2026-01-22 13:12:19.96	203.14	10.32	-29.7	-32.5	18.6	6.03e-01	0	42	0	73400320	21	4960
2026-01-22 13:12:20.97	203.25	10.40	-29.7	-32.6	18.5	6.07e-01	0	42	0	74973184	21	4997
2026-01-22 13:12:21.98	203.36	10.48	-29.8	-32.7	18.4	6.07e-01	0	42	0	77070336	21	5040
2026-01-22 13:12:22.98	203.46	10.57	-29.7	-32.5	18.6	6.08e-01	0	42	0	78643200	21	4983
2026-01-22 13:12:23.98	203.57	10.65	-29.7	-32.6	18.5	6.06e-01	0	42	0	80740352	21	5003
2026-01-22 13:12:24.99	203.68	10.73	-29.8	-32.6	18.5	6.06e-01	0	42	0	82837504	21	5017
2026-01-22 13:12:26.00	203.79	10.82	-29.9	-33.0	18.3	6.06e-01	0	42	0	84410368	21	5133
2026-01-22 13:12:27.00	203.90	10.90	-29.9	-33.0	18.3	6.07e-01	0	42	0	86507520	21	5138
2026-01-22 13:12:28.00	204.01	10.99	-29.8	-32.9	18.4	6.07e-01	0	42	0	88080384	21	5108
2026-01-22 13:12:29.01	204.12	11.07	-29.9	-32.9	18.3	6.06e-01	0	42	0	90177536	21	5127
2026-01-22 13:12:30.01	204.23	11.16	-29.9	-33.1	18.2	6.07e-01	0	42	0	91750400	21	5193
2026-01-22 13:12:31.01	204.35	11.24	-29.8	-32.8	18.4	6.06e-01	0	42	0	93847552	21	5069
2026-01-22 13:12:32.01	204.46	11.33	-29.7	-32.6	18.6	6.08e-01	0	42	0	95944704	21	4985
2026-01-22 13:12:33.01	204.57	11.41	-29.7	-32.5	18.6	6.07e-01	0	42	0	97517568	21	4966
2026-01-22 13:12:34.02	204.69	11.50	-29.7	-32.4	18.7	6.07e-01	0	42	0	99614720	21	4933
2026-01-22 13:12:35.02	204.80	11.58	-29.9	-33.0	18.4	6.06e-01	0	42	0	101187584	21	5135
2026-01-22 13:12:36.02	204.92	11.67	-29.7	-32.5	18.6	6.06e-01	0	42	0	103284736	21	4958
2026-01-22 13:12:37.03	205.03	11.76	-29.6	-32.2	18.8	6.07e-01	0	42	0	104857600	21	4866
2026-01-22 13:12:38.02	205.15	11.84	-29.5	-32.0	18.9	6.07e-01	0	42	0	106954752	21	4801
2026-01-22 13:12:39.02	205.27	11.93	-29.6	-32.2	18.9	6.05e-01	0	42	0	109051904	21	4842
2026-01-22 13:12:40.03	205.39	12.02	-29.5	-32.0	19.0	6.08e-01	0	42	0	110624768	21	4794
2026-01-22 13:12:41.03	205.51	12.10	-29.6	-32.1	19.0	6.06e-01	0	42	0	112721920	21	4824
2026-01-22 13:12:42.04	205.63	12.19	-29.6	-32.3	18.8	6.05e-01	0	42	0	114819072	21	4877
2026-01-22 13:12:43.03	205.75	12.28	-29.6	-32.1	19.0	6.07e-01	0	42	0	116391936	21	4821
2026-01-22 13:12:44.03	205.87	12.37	-29.5	-32.0	19.0	6.05e-01	0	42	0	118489088	21	4793
2026-01-22 13:12:45.04	205.99	12.45	-29.5	-31.9	19.1	6.07e-01	0	42	0	120061952	21	4752
2026-01-22 13:12:46.04	206.11	12.54	-29.6	-32.1	19.0	6.04e-01	0	42	0	122159104	21	4825
2026-01-22 13:12:47.04	206.24	12.63	-29.5	-32.0	19.1	6.06e-01	0	42	0	123731968	21	4776
2026-01-22 13:12:48.05	206.36	12.72	-29.5	-32.0	19.1	6.06e-01	0	42	0	125829120	21	4767
2026-01-22 13:12:49.05	206.49	12.81	-29.7	-32.3	18.9	6.06e-01	0	42	0	127926272	21	4877
2026-01-22 13:12:50.05	206.61	12.90	-29.5	-31.9	19.1	6.07e-01	0	42	0	129499136	21	4737
2026-01-22 13:12:51.05	206.74	12.99	-29.4	-31.7	19.2	6.07e-01	0	42	0	131596288	21	4670
2026-01-22 13:12:52.05	206.87	13.08	-29.5	-31.8	19.2	6.06e-01	0	42	0	133169152	21	4719
2026-01-22 13:12:53.06	207.00	13.17	-29.5	-31.8	19.2	6.06e-01	0	42	0	135266304	21	4703
2026-01-22 13:12:54.06	207.13	13.26	-29.6	-32.0	19.1	6.06e-01	0	42	0	136839168	21	4784
2026-01-22 13:12:55.06	207.26	13.35	-29.5	-31.8	19.2	6.07e-01	0	42	0	138936320	21	4702
2026-01-22 13:12:56.06	207.39	13.44	-29.4	-31.6	19.3	6.06e-01	0	42	0	141033472	21	4634
2026-01-22 13:12:57.07	207.52	13.53	-29.3	-31.9	19.4	6.06e-01	0	42	0	142606336	20	4843
2026-01-22 13:12:58.07	207.65	13.62	-29.3	-31.9	19.4	6.03e-01	0	42	0	144703488	20	4859
2026-01-22 13:12:59.08	207.79	13.72	-29.4	-32.2	19.3	6.06e-01	0	42	0	146800640	20	4937
2026-01-22 13:13:00.09	207.92	13.81	-29.3	-31.9	19.4	6.08e-01	0	42	0	148373504	20	4854
2026-01-22 13:13:01.09	208.06	13.90	-29.4	-32.1	19.4	6.05e-01	0	42	0	150470656	20	4911
2026-01-22 13:13:02.10	208.20	13.99	-29.5	-32.4	19.2	6.08e-01	0	42	0	152043520	20	5005
2026-01-22 13:13:03.11	208.34	14.09	-29.4	-32.1	19.4	6.05e-01	0	42	0	154140672	20	4895
2026-01-22 13:13:04.11	208.47	14.18	-29.3	-31.9	19.5	6.06e-01	0	43	0	155713536	20	4847
2026-01-22 13:13:05.11	208.61	14.27	-29.3	-31.9	19.5	6.08e-01	0	42	0	157810688	20	4836
2026-01-22 13:13:06.12	208.75	14.37	-29.3	-31.8	19.6	6.06e-01	0	42	0	159907840	20	4799
2026-01-22 13:13:07.12	208.89	14.46	-29.4	-31.9	19.5	6.05e-01	0	43	0	161480704	20	4850
2026-01-22 13:13:08.12	209.04	14.56	-29.4	-32.1	19.4	6.05e-01	0	42	0	163577856	20	4917
2026-01-22 13:13:09.12	209.18	14.65	-29.4	-32.2	19.4	6.05e-01	0	42	0	165150720	20	4923
2026-01-22 13:13:10.13	209.32	14.74	-29.5	-32.3	19.3	6.06e-01	0	42	0	167247872	20	4971
2026-01-22 13:13:11.13	209.47	14.84	-29.6	-32.5	19.2	6.07e-01	0	42	0	169345024	20	5040
2026-01-22 13:13:12.14	209.61	14.93	-29.4	-32.1	19.5	6.07e-01	0	43	0	170917888	20	4894
2026-01-22 13:13:13.14	209.76	15.03	-29.3	-31.8	19.6	6.08e-01	0	43	0	173015040	20	4808
2026-01-22 13:13:14.15	209.91	15.13	-29.4	-31.9	19.6	6.06e-01	0	42	0	174587904	20	4838
2026-01-22 13:13:15.15	210.06	15.22	-29.4	-32.1	19.5	6.06e-01	0	43	0	176685056	20	4907
2026-01-22 13:13:16.16	210.21	15.32	-29.4	-31.9	19.6	6.07e-01	0	43	0	178782208	20	4832
2026-01-22 13:13:17.16	210.36	15.41	-29.4	-32.1	19.5	6.06e-01	0	42	0	180355072	20	4890
2026-01-22 13:13:18.17	210.51	15.51	-29.3	-31.8	19.7	6.06e-01	0	43	0	182452224	20	4797
2026-01-22 13:13:19.17	210.66	15.61	-29.3	-31.9	19.6	6.05e-01	0	43	0	184025088	20	4832
2026-01-22 13:13:20.18	210.82	15.71	-29.3	-31.8	19.7	6.07e-01	0	43	0	186122240	20	4807
2026-01-22 13:13:21.18	210.97	15.80	-29.4	-31.9	19.6	6.06e-01	0	42	0	188219392	20	4829
2026-01-22 13:13:22.18	211.13	15.90	-29.3	-31.7	19.7	6.06e-01	0	43	0	189792256	20	4772
2026-01-22 13:13:23.18	211.28	16.00	-29.3	-31.7	19.7	6.06e-01	0	43	0	191889408	20	4759
2026-01-22 13:13:24.19	211.44	16.10	-29.3	-31.9	19.6	6.05e-01	0	43	0	193462272	20	4828
2026-01-22 13:13:25.19	211.60	16.19	-29.5	-32.3	19.4	6.06e-01	0	42	0	195559424	20	4957
2026-01-22 13:13:26.19	211.76	16.29	-29.4	-32.0	19.5	6.06e-01	0	42	0	197132288	20	4873
2026-01-22 13:13:27.19	211.92	16.39	-29.3	-31.9	19.6	6.07e-01	0	43	0	199229440	20	4822
2026-01-22 13:13:28.19	212.08	16.49	-29.3	-31.9	19.6	6.08e-01	0	43	0	201326592	20	4826
2026-01-22 13:13:29.20	212.25	16.59	-29.3	-31.8	19.7	6.07e-01	0	43	0	202899456	20	4803
2026-01-22 13:13:30.20	212.41	16.69	-29.3	-31.8	19.7	6.07e-01	0	43	0	204996608	20	4806
2026-01-22 13:13:31.21	212.58	16.79	-29.3	-31.8	19.7	6.08e-01	0	42	0	206569472	20	4801
2026-01-22 13:13:32.22	212.74	16.89	-29.4	-32.0	19.6	6.08e-01	0	43	0	208666624	20	4870
2026-01-22 13:13:33.22	212.91	16.99	-29.4	-31.9	19.7	6.05e-01	0	43	0	210239488	20	4817
2026-01-22 13:13:34.23	213.08	17.09	-29.3	-31.7	19.8	6.03e-01	0	43	0	212336640	20	4763
2026-01-22 13:13:35.23	213.25	17.19	-29.3	-31.8	19.8	6.07e-01	0	42	0	214433792	20	4785
2026-01-22 13:13:36.24	213.42	17.29	-29.3	-31.7	19.9	6.07e-01	0	43	0	216006656	20	4736
2026-01-22 13:13:37.25	213.60	17.39	-29.3	-31.8	19.8	6.06e-01	0	43	0	218103808	20	4774
2026-01-22 13:13:38.25	213.77	17.49	-29.4	-31.9	19.7	6.06e-01	0	43	0	220200960	20	4839
2026-01-22 13:13:39.25	213.95	17.60	-29.3	-31.7	19.8	6.08e-01	0	43	0	221773824	20	4769
2026-01-22 13:13:40.25	214.12	17.70	-29.3	-31.7	19.8	6.06e-01	0	42	0	223870976	20	4755
2026-01-22 13:13:41.26	214.30	17.80	-29.3	-31.7	19.9	6.06e-01	0	43	0	225443840	20	4752
2026-01-22 13:13:42.27	214.48	17.90	-29.4	-31.9	19.7	6.04e-01	0	42	0	227540992	20	4826
2026-01-22 13:13:43.27	214.66	18.00	-29.3	-31.8	19.8	6.07e-01	0	43	0	229113856	20	4782
2026-01-22 13:13:44.26	214.84	18.11	-29.3	-31.7	19.9	6.07e-01	0	43	0	231211008	20	4747
2026-01-22 13:13:45.26	215.02	18.21	-29.4	-32.0	19.7	6.07e-01	0	43	0	233308160	20	4851
2026-01-22 13:13:46.27	215.20	18.31	-29.5	-32.2	19.6	6.07e-01	0	43	0	234881024	20	4923
2026-01-22 13:13:47.26	215.39	18.41	-29.4	-31.9	19.8	6.05e-01	0	43	0	236978176	20	4806
2026-01-22 13:13:48.27	215.57	18.52	-29.3	-31.8	19.8	6.03e-01	0	43	0	238551040	20	4791
2026-01-22 13:13:49.27	215.76	18.62	-29.3	-31.7	19.9	6.05e-01	0	43	0	240648192	20	4740
2026-01-22 13:13:50.27	215.95	18.72	-29.3	-31.6	20.0	6.06e-01	0	43	0	242221056	20	4729
2026-01-22 13:13:51.28	216.14	18.83	-29.3	-31.7	19.9	6.05e-01	0	43	0	244318208	20	4740
2026-01-22 13:13:52.29	216.33	18.93	-29.3	-31.7	19.9	6.05e-01	0	43	0	246415360	20	4764
2026-01-22 13:13:53.29	216.53	19.04	-29.2	-31.6	20.0	6.04e-01	0	43	0	247988224	20	4706
2026-01-22 13:13:54.29	216.72	19.14	-29.2	-31.5	20.0	6.07e-01	0	43	0	250085376	20	4698
2026-01-22 13:13:55.30	216.92	19.25	-29.3	-31.6	20.0	6.06e-01	0	43	0	252182528	20	4731
2026-01-22 13:13:56.31	217.12	19.35	-29.3	-31.8	19.8	6.06e-01	0	43	0	253755392	20	4793
2026-01-22 13:13:57.31	217.31	19.46	-29.3	-31.8	19.9	6.05e-01	0	43	0	255852544	20	4779
2026-01-22 13:13:58.31	217.51	19.56	-29.5	-32.1	19.7	6.08e-01	0	43	0	257425408	20	4881
2026-01-22 13:13:59.32	217.71	19.67	-29.5	-32.1	19.7	6.07e-01	0	43	0	259522560	20	4888
2026-01-22 13:14:00.32	217.92	19.77	-29.5	-32.2	19.6	6.06e-01	0	43	0	261095424	20	4926
2026-01-22 13:14:01.33	218.12	19.88	-29.4	-31.9	19.8	6.08e-01	0	43	0	263192576	20	4813
2026-01-22 13:14:02.33	218.33	19.98	-29.3	-31.8	19.9	6.07e-01	0	43	0	265289728	20	4771
2026-01-22 13:14:03.32	218.53	20.09	-29.3	-31.8	19.9	6.04e-01	0	43	0	266862592	20	4761
2026-01-22 13:14:04.32	218.74	20.19	-29.3	-31.8	19.9	6.04e-01	0	43	0	268959744	20	4761
2026-01-22 13:14:05.33	218.95	20.30	-29.3	-31.6	20.0	6.05e-01	0	43	0	270532608	20	4724
2026-01-22 13:14:06.33	219.16	20.41	-29.3	-31.7	20.0	6.08e-01	0	43	0	272629760	20	4731
2026-01-22 13:14:07.34	219.38	20.51	-29.3	-31.8	19.9	6.05e-01	0	42	0	274726912	20	4783
2026-01-22 13:14:08.35	219.59	20.62	-29.2	-31.6	20.1	6.06e-01	0	43	0	276299776	20	4706
2026-01-22 13:14:09.35	219.81	20.73	-29.3	-31.8	19.9	6.06e-01	0	43	0	278396928	20	4766
2026-01-22 13:14:10.36	220.03	20.84	-29.4	-32.0	19.8	6.07e-01	0	43	0	279969792	20	4837
2026-01-22 13:14:11.36	220.25	20.94	-29.4	-31.8	19.9	6.06e-01	0	43	0	282066944	20	4793
2026-01-22 13:14:12.37	220.47	21.05	-29.4	-31.9	19.8	6.07e-01	0	43	0	283639808	20	4819
2026-01-22 13:14:13.37	220.69	21.16	-29.4	-31.9	19.9	6.08e-01	0	43	0	285736960	20	4811
2026-01-22 13:14:14.37	220.91	21.26	-29.3	-31.7	20.0	6.06e-01	0	43	0	287834112	20	4756
2026-01-22 13:14:15.38	221.14	21.37	-29.3	-31.8	20.0	6.06e-01	0	43	0	289406976	20	4759
2026-01-22 13:14:16.38	221.37	21.48	-29.4	-32.0	19.8	6.05e-01	0	43	0	291504128	20	4845
2026-01-22 13:14:17.39	221.60	21.59	-29.5	-32.3	19.7	6.06e-01	0	43	0	293601280	20	4931
2026-01-22 13:14:18.38	221.82	21.69	-29.6	-32.4	19.6	6.08e-01	0	43	0	295174144	20	4993
2026-01-22 13:14:19.39	222.06	21.80	-29.6	-32.5	19.5	6.05e-01	0	43	0	297271296	20	5006
2026-01-22 13:14:20.40	222.29	21.91	-29.7	-32.7	19.4	6.05e-01	0	43	0	298844160	20	5080
2026-01-22 13:14:21.40	222.53	22.02	-29.7	-32.7	19.4	6.03e-01	0	43	0	300941312	20	5090
2026-01-22 13:14:22.41	222.77	22.12	-29.6	-32.4	19.6	6.06e-01	0	43	0	302514176	20	4995
2026-01-22 13:14:23.40	223.00	22.23	-29.5	-32.2	19.7	6.05e-01	0	43	0	304611328	20	4930
2026-01-22 13:14:24.41	223.24	22.34	-29.5	-32.1	19.8	6.07e-01	0	43	0	306708480	20	4870
2026-01-22 13:14:25.42	223.49	22.45	-29.5	-32.3	19.7	6.05e-01	0	43	0	308281344	20	4945
2026-01-22 13:14:26.42	223.73	22.55	-29.7	-32.7	19.4	6.06e-01	0	43	0	310378496	20	5104
2026-01-22 13:14:27.42	223.98	22.66	-29.6	-32.4	19.6	6.06e-01	0	43	0	311951360	20	4997
2026-01-22 13:14:28.42	224.22	22.77	-29.5	-32.2	19.7	6.05e-01	0	43	0	314048512	20	4921
2026-01-22 13:14:29.43	224.47	22.88	-29.4	-32.1	19.8	6.07e-01	0	43	0	316145664	20	4866
2026-01-22 13:14:30.43	224.72	22.98	-29.5	-32.2	19.8	6.08e-01	0	43	0	317718528	20	4902
2026-01-22 13:14:31.43	224.97	23.09	-29.5	-32.2	19.8	6.05e-01	0	43	0	319815680	20	4911
2026-01-22 13:14:32.43	225.23	23.20	-29.4	-32.0	19.9	6.07e-01	0	43	0	321388544	20	4830
2026-01-22 13:14:33.43	225.48	23.30	-29.4	-32.0	19.9	6.05e-01	0	43	0	323485696	20	4831
2026-01-22 13:14:34.44	225.74	23.41	-29.5	-32.1	19.8	6.04e-01	0	43	0	325582848	20	4882
2026-01-22 13:14:35.44	226.00	23.52	-29.4	-32.0	19.9	6.05e-01	0	43	0	327155712	20	4838
2026-01-22 13:14:36.45	226.27	23.62	-29.4	-32.0	19.9	6.04e-01	0	43	0	329252864	20	4854
2026-01-22 13:14:37.46	226.53	23.73	-29.5	-32.2	19.8	6.08e-01	0	43	0	330825728	20	4925
2026-01-22 13:14:38.46	226.80	23.84	-29.6	-32.4	19.7	6.07e-01	0	43	0	332922880	20	4981
2026-01-22 13:14:39.47	227.06	23.95	-29.6	-32.4	19.6	6.06e-01	0	43	0	334495744	20	4962
2026-01-22 13:14:40.48	227.34	24.05	-29.4	-32.0	19.9	6.07e-01	0	43	0	336592896	20	4826
2026-01-22 13:14:41.48	227.61	24.16	-29.4	-32.0	19.9	6.06e-01	0	43	0	338690048	20	4823
2026-01-22 13:14:42.48	227.88	24.26	-29.6	-32.5	19.6	6.05e-01	0	43	0	340262912	20	5017
2026-01-22 13:14:43.48	228.15	24.37	-29.6	-32.4	19.7	6.05e-01	0	43	0	342360064	20	4962
2026-01-22 13:14:44.49	228.43	24.48	-29.5	-32.0	19.9	6.06e-01	0	43	0	343932928	20	4842
2026-01-22 13:14:45.49	228.71	24.58	-29.6	-32.3	19.8	6.04e-01	0	43	0	346030080	20	4939
2026-01-22 13:14:46.49	228.99	24.69	-29.6	-32.6	19.6	6.05e-01	0	43	0	348127232	20	5035
2026-01-22 13:14:47.49	229.27	24.79	-29.5	-32.2	19.8	6.07e-01	0	43	0	349700096	20	4919
2026-01-22 13:14:48.49	229.55	24.89	-29.4	-32.0	19.9	6.07e-01	0	43	0	351797248	20	4839
2026-01-22 13:14:49.49	229.84	25.00	-29.6	-32.3	19.7	6.06e-01	0	43	0	353370112	20	4952
2026-01-22 13:14:50.50	230.13	25.10	-29.7	-32.7	19.5	6.05e-01	0	43	0	355467264	20	5077
2026-01-22 13:14:51.50	230.42	25.21	-29.8	-32.9	19.4	6.08e-01	0	43	0	357564416	20	5133
2026-01-22 13:14:52.51	230.71	25.31	-29.7	-32.7	19.6	6.06e-01	0	43	0	359137280	20	5072
2026-01-22 13:14:53.51	231.00	25.41	-29.9	-33.1	19.3	6.07e-01	0	43	0	361234432	20	5202
2026-01-22 13:14:54.52	231.30	25.52	-29.8	-33.0	19.4	6.08e-01	0	43	0	362807296	20	5164
2026-01-22 13:14:55.52	231.60	25.62	-29.7	-32.6	19.6	6.06e-01	0	43	0	364904448	20	5054
2026-01-22 13:14:56.53	231.90	25.72	-29.7	-32.7	19.6	6.07e-01	0	43	0	367001600	20	5062
2026-01-22 13:14:57.53	232.20	25.82	-29.6	-32.4	19.8	6.06e-01	0	43	0	368574464	20	4952
2026-01-22 13:14:58.54	232.51	25.93	-29.8	-32.9	19.4	6.07e-01	0	43	0	370671616	20	5156
2026-01-22 13:14:59.55	232.81	26.03	-29.9	-33.1	19.3	6.06e-01	0	43	0	372244480	20	5217
2026-01-22 13:15:00.55	233.12	26.13	-29.6	-32.4	19.7	6.06e-01	0	43	0	374341632	20	4966
2026-01-22 13:15:01.56	233.43	26.23	-29.7	-32.5	19.8	6.07e-01	0	43	0	375914496	20	4970
2026-01-22 13:15:02.56	233.74	26.33	-29.7	-32.5	19.7	6.06e-01	0	43	0	378011648	20	4969
2026-01-22 13:15:03.57	234.06	26.43	-29.7	-32.6	19.7	6.06e-01	0	43	0	380108800	20	5001
2026-01-22 13:15:04.57	234.37	26.53	-29.7	-32.6	19.7	6.08e-01	0	43	0	381681664	20	5029
2026-01-22 13:15:05.58	234.69	26.62	-29.9	-33.0	19.4	6.08e-01	0	43	0	383778816	20	5176
2026-01-22 13:15:06.58	235.01	26.72	-29.8	-32.9	19.5	6.07e-01	0	43	0	385875968	20	5130
2026-01-22 13:15:07.59	235.34	26.82	-29.8	-32.8	19.6	6.08e-01	0	43	0	387448832	20	5068
2026-01-22 13:15:08.59	235.66	26.91	-29.9	-33.0	19.4	6.08e-01	0	43	0	389545984	20	5165
2026-01-22 13:15:09.60	235.99	27.01	-30.1	-33.4	19.2	6.07e-01	0	43	0	391118848	20	5324
2026-01-22 13:15:10.60	236.31	27.11	-30.0	-33.3	19.3	6.05e-01	0	43	0	393216000	20	5248
2026-01-22 13:15:11.61	236.65	27.20	-30.0	-33.4	19.2	6.05e-01	0	43	0	394788864	20	5311
2026-01-22 13:15:12.61	236.98	27.30	-30.3	-33.8	18.7	6.07e-01	0	43	0	396886016	21	5344
2026-01-22 13:15:13.61	237.31	27.39	-30.3	-33.6	18.8	6.06e-01	0	43	0	398983168	21	5271
2026-01-22 13:15:14.62	237.65	27.48	-29.9	-32.6	19.4	6.06e-01	0	43	0	400556032	21	4886
2026-01-22 13:15:15.62	237.98	27.57	-29.7	-32.1	19.7	6.06e-01	0	43	0	402653184	21	4733
2026-01-22 13:15:16.62	238.32	27.67	-29.7	-32.0	19.7	6.06e-01	0	43	0	404226048	21	4707
2026-01-22 13:15:17.63	238.67	27.76	-29.5	-31.6	20.0	6.07e-01	0	43	0	406323200	21	4562
2026-01-22 13:15:18.63	239.01	27.85	-29.5	-31.6	20.1	6.07e-01	0	43	0	408420352	21	4556
2026-01-22 13:15:19.64	239.36	27.94	-29.5	-31.6	20.0	6.05e-01	0	43	0	409993216	21	4566
2026-01-22 13:15:20.63	239.70	28.02	-29.5	-31.6	20.0	6.06e-01	0	43	0	412090368	21	4566
2026-01-22 13:15:21.64	240.05	28.11	-29.6	-31.7	19.9	6.08e-01	0	43	0	413663232	21	4606
2026-01-22 13:15:22.64	240.40	28.20	-29.6	-31.7	19.9	6.04e-01	0	43	0	415760384	21	4601
2026-01-22 13:15:23.64	240.75	28.28	-29.6	-31.6	20.0	6.05e-01	0	43	0	417333248	21	4570
2026-01-22 13:15:24.65	241.11	28.37	-29.6	-31.7	20.0	6.08e-01	0	43	0	419430400	21	4583
2026-01-22 13:15:25.66	241.47	28.45	-29.8	-32.3	19.7	6.07e-01	0	43	0	421527552	21	4785
2026-01-22 13:15:26.65	241.83	28.54	-30.0	-32.8	19.4	6.05e-01	0	43	0	423100416	21	4951
2026-01-22 13:15:27.65	242.18	28.62	-30.0	-32.7	19.4	6.07e-01	0	43	0	425197568	21	4917
2026-01-22 13:15:28.66	242.55	28.70	-30.0	-32.7	19.4	6.06e-01	0	43	0	426770432	21	4923
2026-01-22 13:15:29.67	242.92	28.78	-30.0	-32.9	19.2	6.05e-01	0	43	0	428867584	21	5000
2026-01-22 13:15:30.67	243.28	28.86	-30.1	-33.0	19.2	6.05e-01	0	43	0	430964736	21	5035
2026-01-22 13:15:31.67	243.65	28.94	-30.0	-32.9	19.2	6.07e-01	0	43	0	432537600	21	4994
2026-01-22 13:15:32.67	244.02	29.02	-29.9	-32.6	19.5	6.06e-01	0	43	0	434634752	21	4893
2026-01-22 13:15:33.68	244.39	29.09	-30.0	-32.8	19.4	6.06e-01	0	43	0	436207616	21	4961
2026-01-22 13:15:34.68	244.77	29.17	-29.9	-32.5	19.5	6.07e-01	0	43	0	438304768	21	4870
2026-01-22 13:15:35.68	245.14	29.24	-30.1	-32.9	19.3	6.07e-01	0	43	0	440401920	21	5001
2026-01-22 13:15:36.68	245.52	29.32	-30.1	-33.0	19.2	6.05e-01	0	43	0	441974784	21	5030
2026-01-22 13:15:37.69	245.90	29.39	-29.8	-32.2	19.7	6.06e-01	0	43	0	444071936	21	4756
2026-01-22 13:15:38.69	246.28	29.46	-29.5	-31.5	20.1	6.05e-01	0	43	0	445644800	21	4531
2026-01-22 13:15:39.69	246.66	29.53	-29.4	-31.4	20.2	6.06e-01	0	43	0	447741952	21	4484
2026-01-22 13:15:40.69	247.04	29.60	-29.5	-31.5	20.2	6.06e-01	0	43	0	449314816	21	4512
2026-01-22 13:15:41.69	247.43	29.66	-29.5	-31.4	20.2	6.05e-01	0	43	0	451411968	21	4488
2026-01-22 13:15:42.70	247.82	29.73	-29.6	-31.8	20.0	6.05e-01	0	43	0	453509120	21	4624
2026-01-22 13:15:43.70	248.20	29.80	-29.5	-31.6	20.0	6.05e-01	0	43	0	455081984	21	4556
2026-01-22 13:15:44.70	248.59	29.86	-29.4	-31.2	20.3	6.04e-01	0	43	0	457179136	21	4439
2026-01-22 13:15:45.71	248.99	29.92	-29.5	-31.6	20.1	6.05e-01	0	43	0	458752000	21	4553
2026-01-22 13:15:46.72	249.38	29.99	-29.4	-31.3	20.2	6.05e-01	0	43	0	460849152	21	4480
2026-01-22 13:15:47.72	249.78	30.05	-29.4	-31.7	20.3	6.06e-01	0	43	0	462422016	20	4693
2026-01-22 13:15:48.73	250.18	30.10	-29.4	-31.8	20.2	6.05e-01	0	43	0	464519168	20	4746
2026-01-22 13:15:49.73	250.57	30.16	-29.7	-32.6	19.8	6.07e-01	0	43	0	466616320	20	5008
2026-01-22 13:15:50.73	250.97	30.22	-29.4	-31.7	20.3	6.06e-01	0	43	0	468189184	20	4710
2026-01-22 13:15:51.73	251.37	30.27	-29.4	-31.6	20.3	6.08e-01	0	43	0	470286336	20	4679
2026-01-22 13:15:52.73	251.77	30.33	-29.4	-31.8	20.2	6.05e-01	0	43	0	472383488	20	4719
2026-01-22 13:15:53.73	252.17	30.38	-29.4	-31.7	20.3	6.06e-01	0	43	0	473956352	20	4687
2026-01-22 13:15:54.72	252.57	30.43	-29.6	-32.2	20.0	6.07e-01	0	43	0	476053504	20	4874
2026-01-22 13:15:55.72	252.98	30.48	-29.6	-32.3	20.0	6.05e-01	0	43	0	477626368	20	4900
2026-01-22 13:15:56.72	253.38	30.52	-29.4	-31.8	20.2	6.07e-01	0	43	0	479723520	20	4744
2026-01-22 13:15:57.72	253.79	30.57	-29.4	-31.7	20.3	6.05e-01	0	43	0	481296384	20	4693
2026-01-22 13:15:58.73	254.20	30.62	-29.5	-31.9	20.2	6.05e-01	0	43	0	483393536	20	4775
2026-01-22 13:15:59.73	254.61	30.66	-29.5	-32.0	20.2	6.06e-01	0	43	0	485490688	20	4782
2026-01-22 13:16:00.73	255.02	30.70	-29.6	-32.2	20.0	6.05e-01	0	43	0	487063552	20	4866
2026-01-22 13:16:01.73	255.44	30.74	-29.4	-31.8	20.2	6.08e-01	0	43	0	489160704	20	4725
2026-01-22 13:16:02.73	255.85	30.78	-29.3	-31.5	20.5	6.05e-01	0	43	0	490733568	20	4630
2026-01-22 13:16:03.73	256.26	30.82	-29.3	-31.4	20.5	6.07e-01	0	43	0	492830720	20	4597
2026-01-22 13:16:04.73	256.68	30.85	-29.3	-31.5	20.4	6.06e-01	0	43	0	494403584	20	4646
2026-01-22 13:16:05.74	257.10	30.89	-29.3	-31.5	20.4	6.08e-01	0	43	0	496500736	20	4644
2026-01-22 13:16:06.75	257.52	30.92	-29.2	-31.2	20.6	6.06e-01	0	43	0	498597888	20	4541
2026-01-22 13:16:07.75	257.93	30.95	-29.3	-31.5	20.4	6.07e-01	0	43	0	500170752	20	4638
2026-01-22 13:16:08.76	258.36	30.98	-29.3	-31.6	20.4	6.04e-01	0	43	0	502267904	20	4650
2026-01-22 13:16:09.76	258.78	31.01	-29.2	-31.2	20.6	6.07e-01	0	43	0	503840768	20	4553
2026-01-22 13:16:10.76	259.19	31.04	-29.2	-31.3	20.5	6.07e-01	0	43	0	505937920	20	4568
2026-01-22 13:16:11.76	259.61	31.06	-29.4	-31.7	20.3	6.07e-01	0	43	0	508035072	20	4709
2026-01-22 13:16:12.76	260.04	31.08	-29.5	-32.0	20.2	6.07e-01	0	43	0	509607936	20	4801
2026-01-22 13:16:13.76	260.46	31.11	-29.4	-31.8	20.2	6.07e-01	0	43	0	511705088	20	4745
2026-01-22 13:16:14.76	260.88	31.13	-29.3	-31.6	20.4	6.04e-01	0	43	0	513277952	20	4655
2026-01-22 13:16:15.76	261.30	31.14	-29.5	-32.0	20.2	6.07e-01	0	43	0	515375104	20	4788
2026-01-22 13:16:16.76	261.72	31.16	-29.4	-31.7	20.3	6.06e-01	0	43	0	516947968	20	4707
2026-01-22 13:16:17.77	262.15	31.17	-29.4	-31.6	20.4	6.04e-01	0	43	0	519045120	20	4662
2026-01-22 13:16:18.77	262.57	31.19	-29.4	-31.7	20.4	6.06e-01	0	43	0	521142272	20	4681
2026-01-22 13:16:19.77	263.00	31.20	-29.4	-31.7	20.3	6.06e-01	0	43	0	522715136	20	4682
2026-01-22 13:16:20.77	263.42	31.21	-29.5	-31.9	20.2	6.07e-01	0	43	0	524812288	20	4752
2026-01-22 13:16:21.78	263.85	31.22	-29.4	-31.7	20.3	6.06e-01	0	43	0	526385152	20	4704
2026-01-22 13:16:22.78	264.27	31.22	-29.2	-31.2	20.6	6.07e-01	0	43	0	528482304	20	4543
2026-01-22 13:16:23.78	264.70	31.23	-29.1	-30.9	20.8	6.05e-01	0	43	0	530579456	20	4452
2026-01-22 13:16:24.78	265.12	31.23	-29.2	-31.3	20.6	6.09e-01	0	43	0	532152320	20	4555
2026-01-22 13:16:25.78	265.55	31.23	-29.1	-31.1	20.7	6.06e-01	0	43	0	534249472	20	4491
2026-01-22 13:16:26.78	265.97	31.23	-29.2	-31.1	20.7	6.08e-01	0	43	0	535822336	20	4512
2026-01-22 13:16:27.78	266.40	31.23	-29.0	-30.8	20.9	6.05e-01	0	43	0	537919488	20	4404
2026-01-22 13:16:28.78	266.82	31.23	-29.1	-31.0	20.7	6.08e-01	0	43	0	539492352	20	4489
2026-01-22 13:16:29.77	267.24	31.22	-29.1	-31.1	20.7	6.05e-01	0	43	0	541589504	20	4506
2026-01-22 13:16:30.78	267.67	31.22	-29.1	-31.0	20.7	6.07e-01	0	43	0	543162368	20	4467
2026-01-22 13:16:31.78	268.10	31.21	-29.3	-31.6	20.4	6.05e-01	0	43	0	545259520	20	4666
2026-01-22 13:16:32.78	268.52	31.20	-29.2	-31.2	20.6	6.07e-01	0	43	0	547356672	20	4541
2026-01-22 13:16:33.78	268.94	31.19	-28.9	-30.5	21.0	6.08e-01	0	43	0	548929536	20	4329
2026-01-22 13:16:34.78	269.37	31.17	-29.2	-31.2	20.6	6.07e-01	0	43	0	551026688	20	4529
2026-01-22 13:16:35.78	269.79	31.16	-29.1	-31.0	20.7	6.08e-01	0	43	0	553123840	20	4491
2026-01-22 13:16:36.79	270.22	31.14	-29.1	-31.0	20.7	6.05e-01	0	43	0	554696704	20	4461
2026-01-22 13:16:37.79	270.64	31.12	-29.0	-30.8	20.8	6.07e-01	0	43	0	556793856	20	4408
2026-01-22 13:16:38.79	271.06	31.10	-29.0	-30.7	20.9	6.06e-01	0	43	0	558366720	20	4394
2026-01-22 13:16:39.79	271.48	31.08	-29.1	-31.0	20.7	6.05e-01	0	43	0	560463872	20	4471
2026-01-22 13:16:40.79	271.90	31.06	-29.1	-31.1	20.7	6.07e-01	0	43	0	562036736	20	4508
2026-01-22 13:16:41.80	272.32	31.03	-29.1	-30.9	20.8	6.06e-01	0	43	0	564133888	20	4439
2026-01-22 13:16:42.80	272.74	31.01	-29.2	-31.2	20.6	6.07e-01	0	43	0	566231040	20	4534
2026-01-22 13:16:43.80	273.16	30.98	-29.2	-31.2	20.6	6.07e-01	0	43	0	567803904	20	4551
2026-01-22 13:16:44.80	273.58	30.95	-29.2	-31.2	20.6	6.05e-01	0	43	0	569901056	20	4537
2026-01-22 13:16:45.81	274.00	30.92	-29.3	-31.6	20.4	6.07e-01	0	43	0	571473920	20	4651
2026-01-22 13:16:46.81	274.41	30.89	-29.4	-31.6	20.3	6.06e-01	0	43	0	573571072	20	4679
2026-01-22 13:16:47.81	274.83	30.85	-29.3	-31.4	20.5	6.07e-01	0	43	0	575143936	20	4596
2026-01-22 13:16:48.81	275.24	30.82	-29.6	-32.1	20.1	6.06e-01	0	43	0	577241088	20	4838
2026-01-22 13:16:49.82	275.66	30.78	-29.5	-32.0	20.1	6.08e-01	0	43	0	579338240	20	4810
2026-01-22 13:16:50.82	276.07	30.74	-29.2	-31.3	20.5	6.05e-01	0	43	0	580911104	20	4577
2026-01-22 13:16:51.82	276.48	30.70	-29.4	-31.7	20.4	6.06e-01	0	43	0	583008256	20	4685
2026-01-22 13:16:52.82	276.89	30.66	-29.3	-31.5	20.4	6.06e-01	0	43	0	584581120	20	4622
2026-01-22 13:16:53.83	277.31	30.61	-29.3	-31.5	20.4	6.06e-01	0	43	0	586678272	20	4638
2026-01-22 13:16:54.83	277.71	30.57	-29.6	-32.3	19.9	6.08e-01	0	43	0	588775424	20	4900
2026-01-22 13:16:55.83	278.12	30.52	-29.5	-31.8	20.2	6.04e-01	0	43	0	590348288	20	4736
2026-01-22 13:16:56.83	278.52	30.47	-29.2	-31.3	20.5	6.07e-01	0	43	0	592445440	20	4577
2026-01-22 13:16:57.83	278.93	30.43	-29.2	-31.3	20.6	6.06e-01	0	43	0	594018304	20	4554
2026-01-22 13:16:58.83	279.33	30.38	-29.2	-31.2	20.6	6.05e-01	0	43	0	596115456	20	4533
2026-01-22 13:16:59.82	279.73	30.32	-29.4	-31.7	20.3	6.06e-01	0	43	0	597688320	20	4687
2026-01-22 13:17:00.82	280.13	30.27	-29.3	-31.6	20.4	6.07e-01	0	43	0	599785472	20	4648
2026-01-22 13:17:01.82	280.53	30.22	-29.3	-31.6	20.4	6.04e-01	0	43	0	601358336	20	4659
2026-01-22 13:17:02.82	280.92	30.16	-29.2	-31.1	20.6	6.07e-01	0	43	0	603455488	20	4505
2026-01-22 13:17:03.82	281.32	30.10	-29.1	-30.9	20.8	6.09e-01	0	43	0	605552640	20	4450
2026-01-22 13:17:04.82	281.71	30.04	-29.1	-31.1	20.7	6.04e-01	0	43	0	607125504	20	4500
2026-01-22 13:17:05.83	282.11	29.98	-29.0	-30.8	20.8	6.05e-01	0	43	0	609222656	20	4403
2026-01-22 13:17:06.83	282.50	29.92	-29.2	-31.2	20.5	6.07e-01	0	43	0	611319808	20	4554
2026-01-22 13:17:07.84	282.90	29.86	-29.1	-31.0	20.7	6.07e-01	0	43	0	612892672	20	4486
2026-01-22 13:17:08.84	283.28	29.80	-29.0	-30.7	20.8	6.05e-01	0	43	0	614989824	20	4391
2026-01-22 13:17:09.84	283.67	29.73	-29.2	-31.2	20.6	6.04e-01	0	43	0	616562688	20	4529
2026-01-22 13:17:10.85	284.06	29.66	-29.2	-31.2	20.5	6.06e-01	0	43	0	618659840	20	4554
2026-01-22 13:17:11.85	284.44	29.60	-29.2	-31.3	20.5	6.05e-01	0	43	0	620232704	20	4564
2026-01-22 13:17:12.86	284.83	29.53	-29.2	-31.2	20.6	6.07e-01	0	43	0	622329856	20	4526
2026-01-22 13:17:13.86	285.21	29.46	-29.4	-31.7	20.3	6.08e-01	0	43	0	624427008	20	4700
2026-01-22 13:17:14.86	285.59	29.39	-29.5	-31.9	20.1	6.06e-01	0	43	0	625999872	20	4777
2026-01-22 13:17:15.86	285.96	29.32	-29.5	-31.9	20.1	6.05e-01	0	43	0	628097024	20	4777
2026-01-22 13:17:16.86	286.34	29.24	-29.6	-32.3	19.9	6.06e-01	0	43	0	629669888	20	4890
2026-01-22 13:17:17.86	286.71	29.17	-29.6	-32.3	20.0	6.06e-01	0	43	0	631767040	20	4887
2026-01-22 13:17:18.87	287.09	29.09	-29.6	-32.3	19.9	6.05e-01	0	43	0	633339904	20	4904
2026-01-22 13:17:19.87	287.46	29.02	-29.8	-32.8	19.7	6.06e-01	0	43	0	635437056	20	5059
2026-01-22 13:17:20.88	287.83	28.94	-29.6	-32.1	20.0	6.06e-01	0	43	0	637534208	20	4829
2026-01-22 13:17:21.88	288.19	28.86	-29.9	-33.0	19.5	6.06e-01	0	43	0	639107072	20	5152
2026-01-22 13:17:22.88	288.56	28.78	-29.7	-32.6	19.8	6.05e-01	0	43	0	641204224	20	4986
2026-01-22 13:17:23.88	288.92	28.70	-29.5	-31.9	20.1	6.06e-01	0	43	0	643301376	20	4770
2026-01-22 13:17:24.89	289.28	28.62	-29.3	-31.6	20.3	6.06e-01	0	43	0	644874240	20	4654
2026-01-22 13:17:25.89	289.64	28.54	-29.3	-31.4	20.4	6.07e-01	0	43	0	646971392	20	4600
2026-01-22 13:17:26.89	290.00	28.46	-29.3	-31.6	20.3	6.07e-01	0	43	0	648544256	20	4664
2026-01-22 13:17:27.90	290.36	28.37	-29.3	-31.4	20.4	6.06e-01	0	43	0	650641408	20	4588
2026-01-22 13:17:28.90	290.71	28.29	-29.2	-31.3	20.5	6.03e-01	0	43	0	652214272	20	4558
2026-01-22 13:17:29.90	291.06	28.20	-29.2	-31.3	20.5	6.06e-01	0	43	0	654311424	20	4558
2026-01-22 13:17:30.91	291.41	28.12	-29.3	-31.4	20.4	6.05e-01	0	43	0	656408576	20	4609
2026-01-22 13:17:31.91	291.76	28.03	-29.2	-31.2	20.6	6.04e-01	0	43	0	657981440	20	4530
2026-01-22 13:17:32.91	292.10	27.94	-29.3	-31.5	20.4	6.06e-01	0	43	0	660078592	20	4618
2026-01-22 13:17:33.92	292.45	27.85	-29.3	-31.5	20.4	6.06e-01	0	43	0	661651456	20	4627
2026-01-22 13:17:34.92	292.79	27.76	-29.3	-31.6	20.3	6.06e-01	0	43	0	663748608	20	4652
2026-01-22 13:17:35.92	293.13	27.67	-29.3	-31.5	20.4	6.04e-01	0	43	0	665321472	20	4622
2026-01-22 13:17:36.92	293.47	27.58	-29.4	-31.6	20.3	6.06e-01	0	43	0	667418624	20	4672
2026-01-22 13:17:37.92	293.80	27.49	-29.4	-31.6	20.3	6.06e-01	0	43	0	669515776	20	4676
2026-01-22 13:17:38.92	294.14	27.40	-29.4	-31.7	20.2	6.06e-01	0	43	0	671088640	20	4690
2026-01-22 13:17:39.93	294.47	27.31	-29.5	-32.0	20.0	6.06e-01	0	43	0	673185792	20	4810
2026-01-22 13:17:40.93	294.80	27.21	-29.7	-32.4	19.7	6.08e-01	0	43	0	674758656	20	4946
2026-01-22 13:17:41.93	295.13	27.12	-29.7	-32.4	19.7	6.07e-01	0	43	0	676855808	20	4952
2026-01-22 13:17:42.93	295.45	27.02	-29.7	-32.4	19.8	6.07e-01	0	43	0	678952960	20	4921
2026-01-22 13:17:43.94	295.78	26.93	-29.6	-32.3	19.8	6.07e-01	0	43	0	680525824	20	4911
2026-01-22 13:17:44.94	296.10	26.83	-29.9	-32.9	19.5	6.05e-01	0	43	0	682622976	20	5111
2026-01-22 13:17:45.94	296.42	26.74	-29.8	-32.7	19.7	6.06e-01	0	43	0	684195840	20	5044
2026-01-22 13:17:46.95	296.74	26.64	-29.7	-32.6	19.7	6.06e-01	0	43	0	686292992	20	4993
2026-01-22 13:17:47.95	297.06	26.54	-29.6	-32.2	19.9	6.05e-01	0	43	0	688390144	20	4868
2026-01-22 13:17:48.95	297.37	26.44	-29.7	-32.4	19.8	6.06e-01	0	43	0	689963008	20	4928
2026-01-22 13:17:49.95	297.68	26.35	-29.7	-32.5	19.7	6.05e-01	0	43	0	692060160	20	4979
2026-01-22 13:17:50.96	298.00	26.25	-30.0	-33.3	19.3	6.07e-01	0	43	0	693633024	20	5259
2026-01-22 13:17:51.96	298.30	26.15	-29.8	-32.8	19.6	6.03e-01	0	43	0	695730176	20	5062
2026-01-22 13:17:52.97	298.61	26.05	-29.6	-32.4	19.8	6.08e-01	0	43	0	697303040	20	4924
2026-01-22 13:17:53.97	298.91	25.95	-29.5	-32.1	20.0	6.06e-01	0	43	0	699400192	20	4841
2026-01-22 13:17:54.98	299.22	25.85	-29.6	-32.2	19.9	6.06e-01	0	43	0	701497344	20	4868
2026-01-22 13:17:55.98	299.52	25.75	-29.6	-32.2	19.9	6.05e-01	0	43	0	703070208	20	4858
2026-01-22 13:17:56.98	299.82	25.64	-29.5	-31.9	20.0	6.06e-01	0	43	0	705167360	20	4782
2026-01-22 13:17:57.98	300.11	25.54	-29.5	-31.9	20.0	6.06e-01	0	43	0	706740224	20	4769
2026-01-22 13:17:58.99	300.41	25.44	-29.7	-32.4	19.8	6.06e-01	0	43	0	708837376	20	4943
2026-01-22 13:17:59.98	300.70	25.34	-29.7	-32.4	19.7	6.07e-01	0	43	0	710934528	20	4954
2026-01-22 13:18:00.99	300.99	25.24	-29.9	-32.9	19.5	6.07e-01	0	43	0	712507392	20	5124
2026-01-22 13:18:01.99	301.28	25.13	-29.7	-32.5	19.7	6.08e-01	0	43	0	714604544	20	4976
2026-01-22 13:18:02.99	301.56	25.03	-29.8	-32.6	19.7	6.07e-01	0	43	0	716177408	20	5024
2026-01-22 13:18:03.99	301.85	24.93	-29.9	-33.1	19.4	6.06e-01	0	43	0	718274560	20	5195
2026-01-22 13:18:05.00	302.13	24.82	-29.7	-32.5	19.7	6.07e-01	0	43	0	720371712	20	4984
2026-01-22 13:18:06.00	302.41	24.72	-29.6	-32.4	19.8	6.06e-01	0	43	0	721944576	20	4936
2026-01-22 13:18:07.00	302.69	24.61	-29.7	-32.4	19.8	6.05e-01	0	43	0	724041728	20	4953
2026-01-22 13:18:08.00	302.97	24.51	-29.6	-32.4	19.8	6.06e-01	0	43	0	725614592	20	4942
2026-01-22 13:18:09.01	303.25	24.40	-29.5	-32.1	20.0	6.06e-01	0	43	0	727711744	20	4818
2026-01-22 13:18:10.01	303.52	24.30	-29.6	-32.2	19.9	6.06e-01	0	43	0	729284608	20	4881
2026-01-22 13:18:11.01	303.79	24.19	-29.7	-32.4	19.8	6.05e-01	0	43	0	731381760	20	4945
2026-01-22 13:18:12.01	304.06	24.09	-29.7	-32.5	19.7	6.06e-01	0	43	0	733478912	20	4980
2026-01-22 13:18:13.02	304.33	23.98	-29.6	-32.3	19.9	6.09e-01	0	43	0	735051776	20	4908
2026-01-22 13:18:14.02	304.59	23.88	-29.6	-32.4	19.8	6.05e-01	0	43	0	737148928	20	4932
2026-01-22 13:18:15.03	304.86	23.77	-29.6	-32.2	19.9	6.07e-01	0	43	0	738721792	20	4878
2026-01-22 13:18:16.03	305.12	23.67	-29.7	-32.5	19.7	6.07e-01	0	43	0	740818944	20	4982
2026-01-22 13:18:17.04	305.38	23.56	-29.6	-32.3	19.9	6.05e-01	0	43	0	742916096	20	4899
2026-01-22 13:18:18.04	305.64	23.45	-29.6	-32.3	19.9	6.05e-01	0	43	0	744488960	20	4898
2026-01-22 13:18:19.05	305.90	23.35	-29.7	-32.4	19.8	6.07e-01	0	43	0	746586112	20	4952
2026-01-22 13:18:20.05	306.16	23.24	-29.6	-32.3	19.8	6.06e-01	0	43	0	748158976	20	4929
2026-01-22 13:18:21.06	306.41	23.13	-29.6	-32.3	19.8	6.06e-01	0	43	0	750256128	20	4914
2026-01-22 13:18:22.06	306.66	23.03	-29.6	-32.3	19.8	6.05e-01	0	43	0	751828992	20	4899
2026-01-22 13:18:23.06	306.91	22.92	-29.5	-32.1	19.9	6.04e-01	0	43	0	753926144	20	4856
2026-01-22 13:18:24.06	307.16	22.81	-29.6	-32.4	19.8	6.07e-01	0	43	0	756023296	20	4946
2026-01-22 13:18:25.07	307.41	22.71	-29.6	-32.3	19.8	6.05e-01	0	43	0	757596160	20	4921
2026-01-22 13:18:26.07	307.65	22.60	-29.6	-32.3	19.8	6.09e-01	0	43	0	759693312	20	4926
2026-01-22 13:18:27.08	307.89	22.49	-29.6	-32.4	19.8	6.06e-01	0	43	0	761790464	20	4932
2026-01-22 13:18:28.08	308.14	22.39	-29.6	-32.2	19.9	6.04e-01	0	43	0	763363328	20	4882
2026-01-22 13:18:29.09	308.38	22.28	-29.6	-32.4	19.8	6.05e-01	0	43	0	765460480	20	4932
2026-01-22 13:18:30.09	308.61	22.17	-29.6	-32.4	19.8	6.06e-01	0	43	0	767033344	20	4928
2026-01-22 13:18:31.09	308.85	22.07	-29.7	-32.7	19.6	6.05e-01	0	43	0	769130496	20	5045
2026-01-22 13:18:32.09	309.08	21.96	-29.7	-32.6	19.6	6.05e-01	0	43	0	770703360	20	5031
2026-01-22 13:18:33.10	309.32	21.85	-29.8	-32.7	19.6	6.07e-01	0	43	0	772800512	20	5053
2026-01-22 13:18:34.11	309.55	21.75	-29.6	-32.4	19.8	6.07e-01	0	43	0	774897664	20	4929
2026-01-22 13:18:35.11	309.78	21.64	-29.6	-32.2	19.8	6.05e-01	0	43	0	776470528	20	4886
2026-01-22 13:18:36.11	310.01	21.53	-29.6	-32.3	19.8	6.07e-01	0	43	0	778567680	20	4907
2026-01-22 13:18:37.12	310.23	21.43	-29.7	-32.5	19.7	6.04e-01	0	43	0	780140544	20	4987
2026-01-22 13:18:38.12	310.46	21.32	-29.5	-32.1	19.9	6.09e-01	0	43	0	782237696	20	4852
2026-01-22 13:18:39.12	310.68	21.22	-29.5	-32.1	19.9	6.07e-01	0	43	0	783810560	20	4821
2026-01-22 13:18:40.12	310.90	21.11	-29.5	-32.1	19.9	6.06e-01	0	43	0	785907712	20	4834
2026-01-22 13:18:41.12	311.12	21.00	-29.5	-32.1	19.9	6.08e-01	0	43	0	788004864	20	4848
2026-01-22 13:18:42.12	311.34	20.90	-29.7	-32.5	19.7	6.05e-01	0	43	0	789577728	20	4980
2026-01-22 13:18:43.12	311.55	20.79	-29.6	-32.2	19.8	6.04e-01	0	43	0	791674880	20	4877
2026-01-22 13:18:44.12	311.77	20.69	-29.6	-32.2	19.9	6.06e-01	0	43	0	793247744	20	4878
2026-01-22 13:18:45.13	311.98	20.58	-29.5	-32.1	19.9	6.05e-01	0	43	0	795344896	20	4856
2026-01-22 13:18:46.13	312.20	20.48	-29.5	-32.0	20.0	6.05e-01	0	43	0	797442048	20	4807
2026-01-22 13:18:47.14	312.41	20.37	-29.5	-32.1	19.9	6.06e-01	0	43	0	799014912	20	4846
2026-01-22 13:18:48.14	312.62	20.26	-29.6	-32.3	19.8	6.07e-01	0	43	0	801112064	20	4912
2026-01-22 13:18:49.14	312.82	20.16	-29.6	-32.4	19.7	6.07e-01	0	43	0	802684928	20	4950
2026-01-22 13:18:50.15	313.03	20.05	-29.6	-32.3	19.8	6.05e-01	0	43	0	804782080	20	4912
2026-01-22 13:18:51.14	313.24	19.95	-29.6	-32.3	19.8	6.08e-01	0	43	0	806879232	20	4913
2026-01-22 13:18:52.15	313.44	19.85	-29.7	-32.5	19.7	6.05e-01	0	43	0	808452096	20	4977
2026-01-22 13:18:53.15	313.64	19.74	-29.7	-32.5	19.6	6.06e-01	0	43	0	810549248	20	4989
2026-01-22 13:18:54.15	313.84	19.64	-29.7	-32.6	19.6	6.05e-01	0	43	0	812122112	20	5030
2026-01-22 13:18:55.15	314.04	19.53	-29.9	-33.0	19.3	6.07e-01	0	43	0	814219264	20	5174
2026-01-22 13:18:56.15	314.24	19.43	-29.7	-32.6	19.6	6.05e-01	0	43	0	815792128	20	5024
2026-01-22 13:18:57.16	314.44	19.32	-29.6	-32.3	19.8	6.06e-01	0	43	0	817889280	20	4900
2026-01-22 13:18:58.15	314.63	19.22	-29.5	-32.2	19.9	6.05e-01	0	43	0	819986432	20	4870
2026-01-22 13:18:59.16	314.82	19.12	-29.6	-32.3	19.8	6.04e-01	0	43	0	821559296	20	4906
2026-01-22 13:19:00.16	315.02	19.01	-29.7	-32.5	19.6	6.06e-01	0	43	0	823656448	20	4991
2026-01-22 13:19:01.16	315.21	18.91	-29.6	-32.4	19.7	6.06e-01	0	43	0	825229312	20	4938
2026-01-22 13:19:02.16	315.39	18.81	-29.6	-32.4	19.7	6.06e-01	0	43	0	827326464	20	4968
2026-01-22 13:19:03.17	315.58	18.70	-29.7	-32.6	19.5	6.08e-01	0	43	0	828899328	20	5037
2026-01-22 13:19:04.18	315.77	18.60	-29.8	-33.0	19.3	6.06e-01	0	43	0	830996480	20	5157
2026-01-22 13:19:05.18	315.96	18.50	-29.7	-32.6	19.5	6.08e-01	0	43	0	833093632	20	5041
2026-01-22 13:19:06.19	316.14	18.40	-29.7	-32.5	19.6	6.05e-01	0	43	0	834666496	20	4995
2026-01-22 13:19:07.19	316.33	18.29	-29.7	-32.6	19.5	6.05e-01	0	43	0	836763648	20	5025
2026-01-22 13:19:08.20	316.51	18.19	-29.6	-32.4	19.6	6.05e-01	0	43	0	838860800	20	4975
2026-01-22 13:19:09.21	316.69	18.09	-29.9	-33.0	19.2	6.04e-01	0	43	0	840433664	20	5172
2026-01-22 13:19:10.21	316.87	17.99	-29.6	-32.4	19.6	6.05e-01	0	43	0	842530816	20	4944
2026-01-22 13:19:11.21	317.05	17.89	-29.5	-32.0	19.8	6.03e-01	0	43	0	844103680	20	4823
2026-01-22 13:19:12.22	317.23	17.79	-29.4	-31.8	20.0	6.06e-01	0	43	0	846200832	20	4738
2026-01-22 13:19:13.22	317.40	17.68	-29.4	-31.8	20.0	6.04e-01	0	43	0	847773696	20	4766
2026-01-22 13:19:14.23	317.58	17.58	-29.5	-32.0	19.9	6.07e-01	0	43	0	849870848	20	4806
2026-01-22 13:19:15.23	317.75	17.48	-29.4	-31.9	19.9	6.06e-01	0	43	0	851968000	20	4800
2026-01-22 13:19:16.24	317.92	17.38	-29.4	-31.9	19.9	6.09e-01	0	43	0	853540864	20	4776
2026-01-22 13:19:17.24	318.09	17.28	-29.4	-31.9	19.9	6.05e-01	0	43	0	855638016	20	4773
2026-01-22 13:19:18.25	318.27	17.18	-29.4	-31.7	20.0	6.05e-01	0	43	0	857210880	20	4738
2026-01-22 13:19:19.25	318.43	17.08	-29.4	-31.7	20.0	6.07e-01	0	43	0	859308032	20	4721
2026-01-22 13:19:20.26	318.60	16.98	-29.3	-31.6	20.1	6.08e-01	0	43	0	861405184	20	4682
2026-01-22 13:19:21.26	318.77	16.88	-29.4	-31.8	19.9	6.06e-01	0	43	0	862978048	20	4751
2026-01-22 13:19:22.26	318.93	16.79	-29.3	-31.5	20.1	6.07e-01	0	43	0	865075200	20	4658
2026-01-22 13:19:23.27	319.10	16.69	-29.3	-31.6	20.0	6.06e-01	0	43	0	866648064	20	4703
2026-01-22 13:19:24.27	319.26	16.59	-29.4	-31.8	19.9	6.06e-01	0	43	0	868745216	20	4743
2026-01-22 13:19:25.27	319.42	16.49	-29.3	-31.7	20.0	6.07e-01	0	43	0	870842368	20	4709
2026-01-22 13:19:26.28	319.58	16.39	-29.4	-31.7	19.9	6.05e-01	0	43	0	872415232	20	4739
2026-01-22 13:19:27.28	319.74	16.29	-29.4	-31.9	19.8	6.07e-01	0	43	0	874512384	20	4793
2026-01-22 13:19:28.29	319.90	16.20	-29.5	-32.0	19.7	6.06e-01	0	43	0	876085248	20	4846
2026-01-22 13:19:29.29	320.06	16.10	-29.4	-31.9	19.8	6.07e-01	0	43	0	878182400	20	4812
2026-01-22 13:19:30.29	320.22	16.00	-29.4	-31.9	19.8	6.07e-01	0	43	0	880279552	20	4810
2026-01-22 13:19:31.29	320.37	15.91	-29.4	-32.0	19.7	6.04e-01	0	43	0	881852416	20	4831
2026-01-22 13:19:32.29	320.53	15.81	-29.4	-31.9	19.8	6.08e-01	0	43	0	883949568	20	4787
2026-01-22 13:19:33.29	320.68	15.71	-29.4	-31.9	19.8	6.04e-01	0	43	0	885522432	20	4805
2026-01-22 13:19:34.30	320.83	15.62	-29.4	-32.0	19.7	6.08e-01	0	43	0	887619584	20	4831
2026-01-22 13:19:35.30	320.98	15.52	-29.4	-31.9	19.8	6.05e-01	0	43	0	889192448	20	4790
2026-01-22 13:19:36.30	321.13	15.43	-29.4	-31.9	19.8	6.06e-01	0	43	0	891289600	20	4784
2026-01-22 13:19:37.31	321.28	15.33	-29.4	-31.9	19.8	6.06e-01	0	43	0	893386752	20	4787
2026-01-22 13:19:38.31	321.43	15.23	-29.4	-31.9	19.8	6.07e-01	0	43	0	894959616	20	4805
2026-01-22 13:19:39.32	321.58	15.14	-29.4	-31.9	19.8	6.07e-01	0	43	0	897056768	20	4795
2026-01-22 13:19:40.32	321.73	15.04	-29.5	-32.0	19.6	6.03e-01	0	43	0	898629632	20	4848
2026-01-22 13:19:41.32	321.87	14.95	-29.4	-32.0	19.7	6.02e-01	0	43	0	900726784	20	4832
2026-01-22 13:19:42.31	322.01	14.86	-29.4	-32.0	19.6	6.03e-01	0	43	0	902299648	20	4840
2026-01-22 13:19:43.31	322.16	14.76	-29.5	-32.0	19.6	6.02e-01	0	43	0	904396800	20	4850
2026-01-22 13:19:44.32	322.30	14.67	-29.4	-32.0	19.7	6.03e-01	0	43	0	906493952	20	4824
2026-01-22 13:19:45.32	322.44	14.58	-29.5	-32.1	19.6	6.05e-01	0	43	0	908066816	20	4886
2026-01-22 13:19:46.32	322.58	14.48	-29.5	-32.2	19.6	6.02e-01	0	43	0	910163968	20	4894
2026-01-22 13:19:47.32	322.72	14.39	-29.5	-32.1	19.6	6.02e-01	0	43	0	911736832	20	4885
2026-01-22 13:19:48.33	322.86	14.30	-29.5	-32.1	19.6	6.04e-01	0	43	0	913833984	20	4857
2026-01-22 13:19:49.33	323.00	14.21	-29.5	-32.2	19.6	6.04e-01	0	43	0	915931136	20	4915
2026-01-22 13:19:50.33	323.14	14.11	-29.6	-32.4	19.5	6.02e-01	0	43	0	917504000	20	4964
2026-01-22 13:19:51.33	323.27	14.02	-29.5	-32.2	19.6	6.01e-01	0	43	0	919601152	20	4904
2026-01-22 13:19:52.33	323.41	13.93	-29.5	-32.3	19.5	6.04e-01	0	43	0	921174016	20	4933
2026-01-22 13:19:53.33	323.54	13.84	-29.5	-32.2	19.5	6.01e-01	0	43	0	923271168	20	4916
2026-01-22 13:19:54.33	323.68	13.75	-29.4	-32.1	19.6	6.05e-01	0	43	0	925368320	20	4871
2026-01-22 13:19:55.34	323.81	13.66	-29.5	-32.1	19.6	6.02e-01	0	43	0	926941184	20	4886
2026-01-22 13:19:56.34	323.94	13.57	-29.5	-32.2	19.5	6.05e-01	0	43	0	929038336	20	4920
2026-01-22 13:19:57.35	324.07	13.48	-29.4	-32.0	19.6	6.02e-01	0	43	0	930611200	20	4847
2026-01-22 13:19:58.36	324.21	13.39	-29.4	-32.0	19.6	6.02e-01	0	43	0	932708352	20	4847
2026-01-22 13:19:59.37	324.34	13.30	-29.5	-32.2	19.5	6.04e-01	0	43	0	934281216	20	4907
2026-01-22 13:20:00.37	324.46	13.21	-29.5	-32.3	19.4	6.02e-01	0	43	0	936378368	20	4941
2026-01-22 13:20:01.37	324.59	13.12	-29.5	-32.2	19.5	6.04e-01	0	43	0	938475520	20	4915
2026-01-22 13:20:02.38	324.72	13.03	-29.6	-32.5	19.3	6.03e-01	0	43	0	940048384	20	5004
2026-01-22 13:20:03.38	324.85	12.94	-29.6	-32.5	19.3	6.02e-01	0	43	0	942145536	20	5026
2026-01-22 13:20:04.39	324.97	12.85	-29.7	-32.8	19.1	6.03e-01	0	43	0	944242688	20	5119
2026-01-22 13:20:05.39	325.10	12.76	-29.7	-32.6	19.2	6.01e-01	0	43	0	945815552	20	5070
2026-01-22 13:20:06.39	325.22	12.67	-29.7	-32.8	19.1	6.03e-01	0	43	0	947912704	20	5123
2026-01-22 13:20:07.40	325.35	12.58	-29.8	-33.0	19.0	6.01e-01	0	43	0	949485568	20	5211
2026-01-22 13:20:08.40	325.47	12.50	-29.8	-33.2	18.8	6.02e-01	0	43	0	951582720	20	5275
2026-01-22 13:20:09.41	325.59	12.41	-29.7	-32.7	19.1	6.04e-01	0	43	0	953155584	20	5119
2026-01-22 13:20:10.41	325.71	12.32	-29.7	-32.7	19.1	6.04e-01	0	43	0	955252736	20	5103
2026-01-22 13:20:11.41	325.83	12.24	-29.7	-32.7	19.1	6.03e-01	0	43	0	957349888	20	5107
2026-01-22 13:20:12.42	325.95	12.15	-29.7	-32.8	19.0	6.03e-01	0	43	0	958922752	20	5155
2026-01-22 13:20:13.42	326.07	12.06	-29.7	-32.9	19.0	6.05e-01	0	43	0	961019904	20	5160
2026-01-22 13:20:14.42	326.19	11.98	-29.6	-32.6	19.2	6.02e-01	0	43	0	962592768	20	5058
2026-01-22 13:20:15.42	326.31	11.89	-29.6	-32.6	19.2	6.01e-01	0	43	0	964689920	20	5059
2026-01-22 13:20:16.42	326.42	11.80	-29.7	-32.6	19.1	6.01e-01	0	43	0	966262784	20	5067
2026-01-22 13:20:17.43	326.54	11.72	-29.7	-32.7	19.1	6.00e-01	0	43	0	968359936	20	5093
2026-01-22 13:20:18.42	326.65	11.63	-29.7	-32.7	19.1	6.02e-01	0	43	0	970457088	20	5108
2026-01-22 13:20:19.42	326.77	11.55	-29.7	-32.8	19.1	6.03e-01	0	43	0	972029952	20	5132
2026-01-22 13:20:20.42	326.88	11.46	-29.7	-32.8	19.0	6.02e-01	0	43	0	974127104	20	5144
2026-01-22 13:20:21.42	326.99	11.38	-29.7	-32.8	19.0	6.01e-01	0	43	0	975699968	20	5151
2026-01-22 13:20:22.43	327.11	11.30	-29.7	-32.8	19.0	6.04e-01	0	43	0	977797120	20	5141
2026-01-22 13:20:23.43	327.22	11.21	-29.7	-32.7	19.0	6.03e-01	0	43	0	979894272	20	5122
2026-01-22 13:20:24.44	327.33	11.13	-29.7	-32.8	19.0	6.03e-01	0	44	0	981467136	20	5148
2026-01-22 13:20:25.44	327.44	11.04	-29.8	-33.0	19.0	6.02e-01	0	43	0	983564288	20	5203
2026-01-22 13:20:26.44	327.55	10.96	-29.8	-33.2	18.8	6.02e-01	0	43	0	985137152	20	5278
2026-01-22 13:20:27.45	327.66	10.88	-29.9	-33.3	18.7	6.02e-01	0	43	0	987234304	20	5332
2026-01-22 13:20:28.45	327.77	10.79	-29.9	-33.4	18.7	6.03e-01	0	43	0	989331456	20	5375
2026-01-22 13:20:29.46	327.88	10.71	-29.9	-33.4	18.6	6.02e-01	0	43	0	990904320	20	5377
2026-01-22 13:20:30.47	327.99	10.63	-29.9	-33.5	18.6	6.04e-01	0	43	0	993001472	20	5403
2026-01-22 13:20:31.46	328.09	10.55	-30.0	-33.6	18.5	6.04e-01	0	43	0	994574336	20	5449
2026-01-22 13:20:32.47	328.20	10.46	-29.9	-33.3	18.6	6.05e-01	0	43	0	996671488	20	5354
2026-01-22 13:20:33.47	328.30	10.38	-29.9	-33.4	18.6	6.02e-01	0	43	0	998244352	20	5379
2026-01-22 13:20:34.47	328.41	10.30	-29.9	-33.4	18.6	6.05e-01	0	43	0	1000341504	20	5381
2026-01-22 13:20:35.48	328.51	10.22	-29.9	-33.4	18.6	6.02e-01	0	43	0	1002438656	20	5391
2026-01-22 13:20:36.47	328.62	10.14	-29.9	-33.5	18.5	6.05e-01	0	43	0	1004011520	20	5409
2026-01-22 13:20:37.48	328.72	10.06	-29.9	-33.5	18.5	6.02e-01	0	43	0	1006108672	20	5422
2026-01-22 13:20:38.48	328.82	9.98	-30.0	-33.6	18.4	6.03e-01	0	43	0	1007681536	20	5444
2026-01-22 13:20:39.48	328.92	9.90	-30.0	-33.6	18.4	6.02e-01	0	43	0	1009778688	20	5469
2026-01-22 13:20:40.49	329.03	9.82	-30.1	-33.9	18.2	6.04e-01	0	43	0	1011875840	20	5590
2026-01-22 13:20:41.49	329.13	9.74	-30.3	-33.9	17.8	6.05e-01	0	43	0	1013448704	21	5499
2026-01-22 13:20:42.49	329.23	9.66	-30.3	-34.1	17.7	6.03e-01	0	43	0	1015545856	21	5550
2026-01-22 13:20:43.49	329.33	9.58	-30.2	-33.7	18.0	6.03e-01	0	43	0	1017118720	21	5383
2026-01-22 13:20:44.49	329.43	9.50	-30.1	-33.4	18.1	6.01e-01	0	43	0	1019215872	21	5270
2026-01-22 13:20:45.50	329.53	9.42	-30.0	-33.2	18.3	6.02e-01	0	43	0	1020788736	21	5196
2026-01-22 13:20:46.50	329.62	9.34	-30.0	-33.3	18.2	6.03e-01	0	43	0	1022885888	21	5248
2026-01-22 13:20:47.51	329.72	9.26	-30.1	-33.4	18.1	6.02e-01	0	43	0	1024983040	21	5275
2026-01-22 13:20:48.51	329.82	9.18	-30.1	-33.6	18.0	6.04e-01	0	43	0	1026555904	21	5366
2026-01-22 13:20:49.52	329.91	9.10	-30.2	-33.7	17.9	6.06e-01	0	43	0	1028653056	21	5404
2026-01-22 13:20:50.52	330.01	9.02	-30.0	-33.3	18.1	6.02e-01	0	43	0	1030225920	21	5263
2026-01-22 13:20:51.53	330.11	8.95	-30.1	-33.4	18.1	6.04e-01	0	43	0	1032323072	21	5281
2026-01-22 13:20:52.53	330.20	8.87	-30.1	-33.4	18.1	6.04e-01	0	43	0	1034420224	21	5297
2026-01-22 13:20:53.53	330.30	8.79	-30.1	-33.5	18.1	6.02e-01	0	43	0	1035993088	21	5319
2026-01-22 13:20:54.53	330.39	8.71	-30.2	-33.7	18.0	6.03e-01	0	43	0	1038090240	21	5389
2026-01-22 13:20:55.53	330.48	8.64	-30.2	-33.7	17.9	6.04e-01	0	43	0	1039663104	21	5406
2026-01-22 13:20:56.53	330.57	8.56	-30.2	-33.7	17.9	6.03e-01	0	43	0	1041760256	21	5405
2026-01-22 13:20:57.53	330.67	8.48	-30.3	-34.0	17.7	6.03e-01	0	43	0	1043857408	21	5525
2026-01-22 13:20:58.53	330.76	8.41	-30.3	-34.1	17.6	6.03e-01	0	43	0	1045430272	21	5590
2026-01-22 13:20:59.53	330.85	8.33	-30.1	-33.6	17.9	6.03e-01	0	43	0	1047527424	21	5394
2026-01-22 13:21:00.54	330.94	8.26	-30.1	-33.5	18.0	6.04e-01	0	43	0	1049100288	21	5352
2026-01-22 13:21:01.54	331.03	8.18	-30.1	-33.5	18.0	6.04e-01	0	43	0	1051197440	21	5354
2026-01-22 13:21:02.55	331.12	8.10	-30.1	-33.5	17.9	6.05e-01	0	43	0	1052770304	21	5334
2026-01-22 13:21:03.55	331.21	8.03	-30.1	-33.5	18.0	6.02e-01	0	43	0	1054867456	21	5340
2026-01-22 13:21:04.55	331.30	7.95	-30.1	-33.5	17.9	6.03e-01	0	43	0	1056964608	21	5352
2026-01-22 13:21:05.55	331.39	7.88	-30.1	-33.6	17.9	6.03e-01	0	43	0	1058537472	21	5385
2026-01-22 13:21:06.56	331.48	7.80	-30.1	-33.5	17.9	6.02e-01	0	43	0	1060634624	21	5346
2026-01-22 13:21:07.55	331.56	7.73	-30.2	-33.8	17.7	6.02e-01	0	43	0	1062207488	21	5465
2026-01-22 13:21:08.56	331.65	7.65	-30.2	-33.9	17.7	6.03e-01	0	43	0	1064304640	21	5504
2026-01-22 13:21:09.56	331.74	7.58	-30.2	-34.0	17.6	6.02e-01	0	43	0	1066401792	21	5557
2026-01-22 13:21:10.57	331.82	7.51	-30.3	-34.2	17.4	6.04e-01	0	43	0	1067974656	21	5630
2026-01-22 13:21:11.57	331.91	7.43	-30.3	-34.1	17.5	6.02e-01	0	43	0	1070071808	21	5616
2026-01-22 13:21:12.58	331.99	7.36	-30.3	-34.3	17.4	6.01e-01	0	43	0	1071644672	21	5670
2026-01-22 13:21:13.59	332.08	7.28	-30.3	-34.3	17.4	6.03e-01	0	43	0	1073741824	21	5667
2026-01-22 13:21:14.59	332.16	7.21	-30.3	-34.2	17.4	6.02e-01	0	43	0	1075838976	21	5663
2026-01-22 13:21:15.59	332.25	7.14	-30.4	-34.6	17.2	6.04e-01	0	43	0	1077411840	21	5826
2026-01-22 13:21:16.60	332.33	7.06	-33.5	-51.0	4.1	7.51e-01	0	43	104	1078984704	27	27189
2026-01-22 13:21:17.60	332.41	6.99	-33.7	-52.9	3.8	7.45e-01	0	43	104	1078984704	28	32820
2026-01-22 13:21:18.60	332.50	6.92	-33.9	-53.4	3.8	7.45e-01	0	43	104	1078984704	28	33915

#Closed at: 2026-01-22 13:21:19
#Recorded file [1078 MB]: D:/data/31010_260122_161140.dat