passes_logs/2026/01/22/R2M6_AANII_01/R2M6_AANII_01__20260122_085724_SUOMI_NPP_rec.log

#Pass ID: 20260122_085724_SUOMI NPP
#Satellite: SUOMI NPP
#Configuration: NPP
#almurnet v.1.7.20240730
#Start time: 2026-01-22 08:57:26

#Version: 2.2.20231116
#Station: R2M6_AANII_01
#Location: 30.233357 lon 59.946436 lat
#TLE: 1 37849U 11061A   26021.51818991  .00000201  00000+0  11636-3 0  9995
#TLE: 2 37849  98.7819 323.5108 0002300  52.3548 307.7836 14.19527793737637

#Time	Az	El	Level	Level2	SNR	BER	BlckErr	Temp	State	Recorded	gain1	gain2
2026-01-22 08:57:26.17	115.62	7.09	-31.4	-35.5	4.9	1.29e+00	0	41	0	0	24	5782
2026-01-22 08:57:27.17	115.55	7.16	-31.3	-35.3	5.0	1.26e+00	0	41	104	0	23	5714
2026-01-22 08:57:28.17	115.48	7.23	-31.5	-36.0	7.7	8.21e-02	0	41	0	0	23	6063
2026-01-22 08:57:29.17	115.41	7.30	-31.6	-36.5	7.4	1.02e-01	0	41	0	1048576	23	6319
2026-01-22 08:57:30.18	115.34	7.37	-31.7	-37.1	6.9	1.33e-01	0	41	0	3145728	23	6717
2026-01-22 08:57:31.19	115.27	7.44	-31.7	-37.2	6.9	1.72e-01	0	41	0	5242880	23	6729
2026-01-22 08:57:32.19	115.19	7.51	-31.9	-37.9	6.4	2.08e-01	0	41	0	7340032	23	7209
2026-01-22 08:57:33.19	115.12	7.59	-31.7	-37.0	7.0	1.83e-01	0	41	0	9437184	23	6632
2026-01-22 08:57:34.20	115.05	7.66	-31.4	-35.7	8.1	8.85e-02	0	41	0	10485760	23	5847
2026-01-22 08:57:35.20	114.98	7.73	-31.2	-34.6	8.9	4.16e-02	0	41	0	12582912	23	5336
2026-01-22 08:57:36.21	114.90	7.80	-30.9	-33.5	9.8	1.67e-02	0	41	0	14680064	23	4858
2026-01-22 08:57:37.21	114.83	7.87	-30.8	-33.0	10.2	6.45e-03	0	41	0	16777216	23	4662
2026-01-22 08:57:38.21	114.75	7.95	-30.7	-33.4	10.3	5.51e-03	0	41	0	17825792	22	4903
2026-01-22 08:57:39.21	114.68	8.02	-30.8	-33.6	10.2	6.83e-03	0	41	0	19922944	22	4954
2026-01-22 08:57:40.22	114.60	8.09	-30.9	-33.9	9.9	7.28e-03	0	41	0	22020096	22	5086
2026-01-22 08:57:41.22	114.53	8.16	-31.1	-34.5	9.5	9.71e-03	0	41	0	24117248	22	5351
2026-01-22 08:57:42.22	114.45	8.23	-31.0	-34.1	9.8	1.07e-02	0	41	0	26214400	22	5183
2026-01-22 08:57:43.22	114.37	8.31	-30.9	-34.0	9.9	9.49e-03	0	41	0	28311552	22	5132
2026-01-22 08:57:44.22	114.30	8.38	-30.9	-34.0	9.9	1.19e-02	0	41	0	29360128	22	5125
2026-01-22 08:57:45.21	114.22	8.45	-30.9	-33.8	10.1	7.21e-03	0	41	0	31457280	22	5052
2026-01-22 08:57:46.21	114.14	8.53	-31.0	-34.2	9.9	7.68e-03	0	41	0	33554432	22	5194
2026-01-22 08:57:47.22	114.06	8.60	-31.0	-34.2	9.7	1.30e-02	0	41	0	35651584	22	5219
2026-01-22 08:57:48.22	113.98	8.67	-30.8	-33.7	10.1	8.51e-03	0	42	0	36700160	22	4987
2026-01-22 08:57:49.22	113.91	8.75	-30.7	-33.3	10.4	4.64e-03	0	41	0	38797312	22	4845
2026-01-22 08:57:50.23	113.82	8.82	-30.6	-32.8	10.9	2.54e-03	0	42	0	40894464	22	4660
2026-01-22 08:57:51.23	113.75	8.90	-30.7	-33.1	10.7	2.71e-03	0	42	0	42991616	22	4746
2026-01-22 08:57:52.24	113.66	8.97	-30.8	-33.3	10.5	4.85e-03	0	42	0	45088768	22	4825
2026-01-22 08:57:53.24	113.58	9.04	-30.7	-33.0	10.8	2.32e-03	0	42	0	46137344	22	4705
2026-01-22 08:57:54.23	113.50	9.12	-30.7	-33.1	10.7	2.55e-03	0	42	0	48234496	22	4747
2026-01-22 08:57:55.23	113.42	9.19	-30.5	-32.4	11.3	2.20e-03	0	42	0	50331648	22	4468
2026-01-22 08:57:56.24	113.34	9.27	-30.4	-32.1	11.5	9.41e-04	0	42	0	52428800	22	4378
2026-01-22 08:57:57.24	113.26	9.34	-30.5	-32.5	11.2	1.39e-03	0	42	0	54525952	22	4521
2026-01-22 08:57:58.25	113.17	9.42	-30.5	-32.3	11.3	1.06e-03	0	42	0	55574528	22	4453
2026-01-22 08:57:59.25	113.09	9.50	-30.5	-32.4	11.3	1.36e-03	0	42	0	57671680	22	4467
2026-01-22 08:58:00.26	113.01	9.57	-30.7	-32.9	10.9	1.91e-03	0	42	0	59768832	22	4670
2026-01-22 08:58:01.26	112.92	9.65	-30.5	-32.4	11.3	1.51e-03	0	42	0	61865984	22	4475
2026-01-22 08:58:02.27	112.84	9.72	-30.6	-32.7	11.1	1.18e-03	0	42	0	63963136	22	4583
2026-01-22 08:58:03.27	112.75	9.80	-30.5	-32.3	11.4	1.17e-03	0	42	0	65011712	22	4427
2026-01-22 08:58:04.28	112.67	9.88	-30.4	-32.0	11.6	7.10e-04	0	42	0	67108864	22	4327
2026-01-22 08:58:05.28	112.58	9.95	-30.3	-31.8	11.8	5.65e-04	0	42	0	69206016	22	4266
2026-01-22 08:58:06.29	112.49	10.03	-30.2	-32.0	12.0	2.83e-04	0	42	0	71303168	21	4420
2026-01-22 08:58:07.29	112.41	10.11	-30.3	-32.3	11.8	5.15e-04	0	42	0	73400320	21	4530
2026-01-22 08:58:08.30	112.32	10.18	-30.4	-32.6	11.5	5.74e-04	0	42	0	74448896	21	4622
2026-01-22 08:58:09.30	112.23	10.26	-30.4	-32.6	11.5	6.32e-04	0	42	0	76546048	21	4646
2026-01-22 08:58:10.31	112.14	10.34	-30.6	-33.2	11.2	9.16e-04	0	42	0	78643200	21	4846
2026-01-22 08:58:11.32	112.05	10.42	-30.5	-33.0	11.3	1.41e-03	0	42	0	80740352	21	4778
2026-01-22 08:58:12.31	111.96	10.49	-30.5	-33.0	11.3	1.20e-03	0	42	0	81788928	21	4754
2026-01-22 08:58:13.32	111.87	10.57	-30.6	-33.0	11.3	1.38e-03	0	42	0	83886080	21	4790
2026-01-22 08:58:14.32	111.78	10.65	-30.5	-32.8	11.5	7.73e-04	0	42	0	85983232	21	4676
2026-01-22 08:58:15.32	111.69	10.73	-30.6	-33.0	11.4	9.79e-04	0	42	0	88080384	21	4751
2026-01-22 08:58:16.33	111.60	10.81	-30.5	-32.6	11.6	8.07e-04	0	42	0	90177536	21	4625
2026-01-22 08:58:17.33	111.51	10.89	-30.4	-32.4	11.8	4.82e-04	0	42	0	91226112	21	4530
2026-01-22 08:58:18.33	111.41	10.97	-30.4	-32.5	11.7	4.64e-04	0	42	0	93323264	21	4593
2026-01-22 08:58:19.33	111.32	11.04	-30.5	-32.7	11.6	7.16e-04	0	42	0	95420416	21	4643
2026-01-22 08:58:20.34	111.23	11.12	-30.4	-32.5	11.7	5.89e-04	0	42	0	97517568	21	4586
2026-01-22 08:58:21.34	111.13	11.20	-30.4	-32.5	11.8	6.51e-04	0	42	0	99614720	21	4578
2026-01-22 08:58:22.34	111.04	11.28	-30.4	-32.5	11.7	5.19e-04	0	42	0	100663296	21	4586
2026-01-22 08:58:23.34	110.94	11.36	-30.4	-32.3	12.0	3.40e-04	0	42	0	102760448	21	4484
2026-01-22 08:58:24.35	110.85	11.44	-30.3	-32.1	12.0	3.49e-04	0	42	0	104857600	21	4433
2026-01-22 08:58:25.35	110.75	11.52	-30.2	-31.8	12.3	2.03e-04	0	42	0	106954752	21	4323
2026-01-22 08:58:26.35	110.66	11.60	-30.2	-31.8	12.2	1.98e-04	0	42	0	109051904	21	4344
2026-01-22 08:58:27.35	110.56	11.68	-30.3	-32.2	12.0	3.36e-04	0	42	0	110100480	21	4466
2026-01-22 08:58:28.35	110.46	11.76	-30.6	-32.9	11.5	5.48e-04	0	42	0	112197632	21	4694
2026-01-22 08:58:29.35	110.36	11.84	-30.7	-33.3	11.3	9.52e-04	0	42	0	114294784	21	4848
2026-01-22 08:58:30.35	110.26	11.93	-30.6	-32.9	11.5	7.05e-04	0	42	0	116391936	21	4722
2026-01-22 08:58:31.34	110.17	12.01	-30.5	-32.6	11.8	4.73e-04	0	42	0	118489088	21	4585
2026-01-22 08:58:32.35	110.07	12.09	-30.4	-32.4	11.8	3.29e-04	0	42	0	119537664	21	4542
2026-01-22 08:58:33.35	109.97	12.17	-30.4	-32.4	11.9	3.54e-04	0	42	0	121634816	21	4543
2026-01-22 08:58:34.35	109.86	12.25	-30.6	-33.1	11.4	9.29e-04	0	42	0	123731968	21	4796
2026-01-22 08:58:35.35	109.76	12.33	-30.7	-33.3	11.3	1.22e-03	0	42	0	125829120	21	4850
2026-01-22 08:58:36.36	109.66	12.41	-30.8	-33.8	10.9	1.58e-03	0	42	0	126877696	21	5044
2026-01-22 08:58:37.36	109.56	12.50	-31.1	-34.1	10.4	3.61e-03	0	42	0	128974848	22	5075
2026-01-22 08:58:38.37	109.45	12.58	-31.2	-34.6	10.0	5.81e-03	0	42	0	131072000	22	5297
2026-01-22 08:58:39.37	109.35	12.66	-31.3	-34.9	9.8	9.75e-03	0	42	0	133169152	22	5417
2026-01-22 08:58:40.38	109.24	12.75	-31.3	-34.6	10.0	8.95e-03	0	42	0	135266304	22	5300
2026-01-22 08:58:41.38	109.14	12.83	-31.2	-34.5	10.1	1.13e-02	0	42	0	136314880	22	5233
2026-01-22 08:58:42.38	109.03	12.91	-30.7	-32.7	11.4	3.11e-03	0	42	0	138412032	22	4554
2026-01-22 08:58:43.38	108.93	13.00	-30.5	-32.1	11.9	9.95e-04	0	42	0	140509184	22	4338
2026-01-22 08:58:44.39	108.82	13.08	-30.5	-32.0	12.0	3.17e-04	0	42	0	142606336	22	4289
2026-01-22 08:58:45.40	108.71	13.16	-30.6	-32.3	11.8	2.92e-04	0	42	0	144703488	22	4404
2026-01-22 08:58:46.40	108.60	13.25	-30.9	-33.2	11.1	8.44e-04	0	42	0	145752064	22	4729
2026-01-22 08:58:47.40	108.49	13.33	-31.0	-33.6	10.8	2.38e-03	0	42	0	147849216	22	4885
2026-01-22 08:58:48.41	108.38	13.42	-31.0	-33.5	10.9	2.90e-03	0	42	0	149946368	22	4845
2026-01-22 08:58:49.41	108.27	13.50	-30.9	-33.2	11.1	1.84e-03	0	42	0	152043520	22	4708
2026-01-22 08:58:50.41	108.16	13.59	-30.6	-32.5	11.6	1.45e-03	0	42	0	154140672	22	4452
2026-01-22 08:58:51.42	108.05	13.67	-30.7	-32.7	11.5	1.00e-03	0	43	0	155189248	22	4536
2026-01-22 08:58:52.42	107.94	13.76	-30.6	-32.3	11.8	5.01e-04	0	43	0	157286400	22	4376
2026-01-22 08:58:53.43	107.82	13.84	-30.7	-32.6	11.6	4.78e-04	0	42	0	159383552	22	4495
2026-01-22 08:58:54.43	107.71	13.93	-30.7	-32.8	11.5	6.31e-04	0	42	0	161480704	22	4555
2026-01-22 08:58:55.43	107.60	14.01	-30.7	-32.6	11.5	1.08e-03	0	43	0	163577856	22	4508
2026-01-22 08:58:56.42	107.48	14.10	-30.6	-32.3	11.8	4.58e-04	0	42	0	164626432	22	4375
2026-01-22 08:58:57.43	107.37	14.18	-30.6	-32.4	11.8	3.65e-04	0	42	0	166723584	22	4422
2026-01-22 08:58:58.43	107.25	14.27	-30.4	-31.7	12.3	6.13e-04	0	43	0	168820736	22	4181
2026-01-22 08:58:59.44	107.13	14.36	-30.5	-31.9	12.1	2.37e-04	0	42	0	170917888	22	4255
2026-01-22 08:59:00.44	107.02	14.44	-30.4	-31.7	12.3	2.24e-04	0	42	0	173015040	22	4200
2026-01-22 08:59:01.45	106.90	14.53	-30.4	-32.2	12.3	9.46e-05	0	43	0	174063616	21	4439
2026-01-22 08:59:02.45	106.78	14.62	-30.4	-32.1	12.4	1.57e-04	0	42	0	176160768	21	4392
2026-01-22 08:59:03.45	106.66	14.71	-30.1	-31.5	12.7	1.71e-04	0	43	0	178257920	21	4204
2026-01-22 08:59:04.45	106.54	14.79	-30.2	-31.6	12.7	7.70e-05	0	43	0	180355072	21	4237
2026-01-22 08:59:05.45	106.42	14.88	-30.1	-31.4	12.9	5.56e-05	0	43	0	181403648	21	4168
2026-01-22 08:59:06.45	106.30	14.97	-29.7	-30.8	13.5	2.51e-05	0	42	0	183500800	20	4085
2026-01-22 08:59:07.46	106.17	15.06	-29.9	-31.4	13.2	2.13e-05	0	42	0	185597952	20	4264
2026-01-22 08:59:08.46	106.05	15.14	-30.1	-32.0	12.8	6.48e-05	0	42	0	187695104	20	4466
2026-01-22 08:59:09.46	105.93	15.23	-30.2	-32.3	12.6	4.95e-05	0	42	0	189792256	20	4545
2026-01-22 08:59:10.46	105.80	15.32	-30.2	-32.3	12.6	9.46e-05	0	43	0	190840832	20	4544
2026-01-22 08:59:11.47	105.67	15.41	-30.1	-31.9	12.8	8.69e-05	0	43	0	192937984	20	4418
2026-01-22 08:59:12.47	105.55	15.50	-30.1	-31.9	12.9	4.88e-05	0	43	0	195035136	20	4409
2026-01-22 08:59:13.48	105.42	15.59	-30.1	-31.9	12.9	4.34e-05	0	43	0	197132288	20	4427
2026-01-22 08:59:14.48	105.29	15.68	-30.1	-31.8	13.0	5.18e-05	0	43	0	199229440	20	4376
2026-01-22 08:59:15.49	105.16	15.77	-30.6	-32.7	12.0	2.10e-04	0	43	0	200278016	21	4621
2026-01-22 08:59:16.49	105.03	15.86	-30.7	-33.2	11.6	5.07e-04	0	43	0	202375168	21	4791
2026-01-22 08:59:17.50	104.90	15.95	-30.8	-33.4	11.5	6.01e-04	0	43	0	204472320	21	4882
2026-01-22 08:59:18.50	104.77	16.04	-30.8	-33.6	11.4	8.88e-04	0	43	0	206569472	21	4932
2026-01-22 08:59:19.50	104.64	16.13	-30.6	-32.9	11.8	7.05e-04	0	43	0	208666624	21	4661
2026-01-22 08:59:20.51	104.51	16.22	-30.7	-33.0	11.8	2.68e-04	0	43	0	209715200	21	4716
2026-01-22 08:59:21.50	104.37	16.31	-30.7	-33.0	11.8	4.81e-04	0	43	0	211812352	21	4704
2026-01-22 08:59:22.50	104.24	16.40	-30.6	-32.7	12.1	4.08e-04	0	43	0	213909504	21	4595
2026-01-22 08:59:23.51	104.10	16.49	-30.9	-33.8	11.2	9.76e-04	0	43	0	216006656	21	5014
2026-01-22 08:59:24.51	103.97	16.58	-31.1	-33.7	11.0	1.65e-03	0	43	0	218103808	22	4874
2026-01-22 08:59:25.51	103.83	16.67	-31.2	-34.2	10.6	1.76e-03	0	43	0	219152384	22	5056
2026-01-22 08:59:26.52	103.69	16.76	-31.1	-34.0	10.8	3.73e-03	0	43	0	221249536	22	4984
2026-01-22 08:59:27.52	103.55	16.85	-30.6	-32.4	12.0	1.37e-03	0	42	0	223346688	22	4385
2026-01-22 08:59:28.52	103.41	16.94	-30.4	-31.6	12.5	1.23e-04	0	42	0	225443840	22	4147
2026-01-22 08:59:29.53	103.27	17.04	-30.4	-31.7	12.5	9.91e-05	0	43	0	227540992	22	4175
2026-01-22 08:59:30.54	103.13	17.13	-30.5	-31.9	12.4	1.74e-04	0	43	0	228589568	22	4248
2026-01-22 08:59:31.54	102.99	17.22	-30.8	-32.8	11.7	4.90e-04	0	43	0	230686720	22	4533
2026-01-22 08:59:32.54	102.85	17.31	-30.8	-32.8	11.6	6.34e-04	0	43	0	232783872	22	4556
2026-01-22 08:59:33.55	102.70	17.41	-30.4	-31.7	12.4	1.69e-04	0	43	0	234881024	22	4179
2026-01-22 08:59:34.55	102.56	17.50	-30.2	-31.6	12.8	9.00e-05	0	43	0	236978176	21	4243
2026-01-22 08:59:35.56	102.41	17.59	-30.2	-31.5	13.0	4.88e-05	0	43	0	238026752	21	4184
2026-01-22 08:59:36.56	102.26	17.69	-30.3	-32.0	12.6	6.63e-05	0	43	0	240123904	21	4336
2026-01-22 08:59:37.57	102.12	17.78	-30.5	-32.5	12.3	1.79e-04	0	43	0	242221056	21	4508
2026-01-22 08:59:38.57	101.97	17.87	-30.4	-32.1	12.5	9.99e-05	0	43	0	244318208	21	4387
2026-01-22 08:59:39.57	101.82	17.97	-30.4	-32.1	12.5	1.38e-04	0	43	0	246415360	21	4395
2026-01-22 08:59:40.58	101.67	18.06	-30.4	-32.2	12.5	1.02e-04	0	43	0	247463936	21	4416
2026-01-22 08:59:41.58	101.52	18.15	-30.3	-31.8	12.7	9.91e-05	0	43	0	249561088	21	4295
2026-01-22 08:59:42.58	101.36	18.25	-30.2	-31.5	13.0	4.65e-05	0	43	0	251658240	21	4192
2026-01-22 08:59:43.59	101.21	18.34	-30.1	-31.2	13.1	3.43e-05	0	43	0	253755392	21	4102
2026-01-22 08:59:44.60	101.06	18.44	-30.2	-31.6	12.9	4.42e-05	0	43	0	254803968	21	4228
2026-01-22 08:59:45.60	100.90	18.53	-30.3	-31.9	12.7	7.93e-05	0	43	0	256901120	21	4317
2026-01-22 08:59:46.60	100.74	18.62	-30.2	-31.6	12.9	8.54e-05	0	43	0	258998272	21	4231
2026-01-22 08:59:47.61	100.59	18.72	-30.1	-31.3	13.1	3.35e-05	0	43	0	261095424	21	4125
2026-01-22 08:59:48.62	100.43	18.82	-30.1	-31.3	13.1	2.28e-05	0	43	0	263192576	21	4119
2026-01-22 08:59:49.62	100.27	18.91	-30.1	-31.3	13.2	1.14e-05	0	43	0	265289728	21	4115
2026-01-22 08:59:50.63	100.11	19.01	-30.2	-31.5	13.0	2.59e-05	0	43	0	266338304	21	4184
2026-01-22 08:59:51.63	99.95	19.10	-30.3	-31.7	12.8	6.71e-05	0	43	0	268435456	21	4258
2026-01-22 08:59:52.64	99.78	19.20	-30.3	-31.8	12.8	6.86e-05	0	43	0	270532608	21	4268
2026-01-22 08:59:53.64	99.62	19.29	-30.2	-31.7	12.8	4.11e-05	0	43	0	272629760	21	4271
2026-01-22 08:59:54.64	99.46	19.39	-30.4	-32.2	12.5	7.55e-05	0	43	0	273678336	21	4430
2026-01-22 08:59:55.64	99.29	19.48	-30.2	-31.8	12.7	9.23e-05	0	43	0	275775488	21	4289
2026-01-22 08:59:56.65	99.12	19.58	-30.2	-31.6	12.9	5.34e-05	0	43	0	277872640	21	4236
2026-01-22 08:59:57.65	98.96	19.67	-30.3	-31.9	12.7	3.66e-05	0	43	0	279969792	21	4337
2026-01-22 08:59:58.65	98.79	19.77	-30.4	-32.3	12.5	1.14e-04	0	43	0	282066944	21	4460
2026-01-22 08:59:59.65	98.62	19.87	-30.3	-32.0	12.5	1.65e-04	0	43	0	283115520	21	4394
2026-01-22 09:00:00.66	98.45	19.96	-30.1	-31.4	12.9	1.28e-04	0	43	0	285212672	21	4201
2026-01-22 09:00:01.66	98.28	20.06	-29.9	-30.9	13.3	2.82e-05	0	43	0	287309824	21	4033
2026-01-22 09:00:02.67	98.10	20.16	-29.9	-31.0	13.3	9.90e-06	0	43	0	289406976	21	4052
2026-01-22 09:00:03.68	97.93	20.25	-29.8	-31.0	13.6	1.67e-05	0	43	0	291504128	20	4151
2026-01-22 09:00:04.68	97.75	20.35	-29.7	-30.9	13.7	6.10e-06	0	43	0	292552704	20	4115
2026-01-22 09:00:05.69	97.58	20.45	-29.9	-31.2	13.4	1.44e-05	0	43	0	294649856	20	4221
2026-01-22 09:00:06.69	97.40	20.54	-29.7	-30.9	13.7	1.60e-05	0	43	0	296747008	20	4110
2026-01-22 09:00:07.70	97.22	20.64	-29.6	-30.6	13.8	6.80e-06	0	43	0	298844160	20	4024
2026-01-22 09:00:08.70	97.04	20.74	-29.6	-30.6	13.9	3.00e-06	0	43	0	300941312	20	4019
2026-01-22 09:00:09.70	96.86	20.83	-29.6	-30.4	14.0	3.80e-06	0	43	0	301989888	20	3971
2026-01-22 09:00:10.70	96.68	20.93	-29.7	-30.7	13.8	4.50e-06	0	43	0	304087040	20	4065
2026-01-22 09:00:11.70	96.50	21.03	-30.0	-31.6	13.3	1.29e-05	0	43	0	306184192	20	4318
2026-01-22 09:00:12.71	96.31	21.13	-30.2	-32.2	12.8	3.96e-05	0	43	0	308281344	20	4529
2026-01-22 09:00:13.71	96.13	21.22	-30.3	-32.3	12.8	6.33e-05	0	43	0	310378496	20	4570
2026-01-22 09:00:14.71	95.94	21.32	-30.3	-32.4	12.8	5.87e-05	0	43	0	311427072	20	4587
2026-01-22 09:00:15.72	95.75	21.42	-30.2	-32.2	12.9	3.66e-05	0	43	0	313524224	20	4516
2026-01-22 09:00:16.73	95.56	21.52	-30.4	-32.5	12.7	2.97e-05	0	43	0	315621376	20	4626
2026-01-22 09:00:17.72	95.37	21.61	-30.3	-32.5	12.7	6.71e-05	0	43	0	317718528	20	4609
2026-01-22 09:00:18.73	95.18	21.71	-30.4	-32.7	12.6	9.46e-05	0	43	0	319815680	20	4673
2026-01-22 09:00:19.73	94.99	21.81	-30.5	-32.4	12.4	1.29e-04	0	43	0	320864256	21	4491
2026-01-22 09:00:20.73	94.80	21.90	-30.7	-33.1	12.0	1.36e-04	0	43	0	322961408	21	4714
2026-01-22 09:00:21.73	94.60	22.00	-30.6	-32.6	12.3	2.32e-04	0	43	0	325058560	21	4537
2026-01-22 09:00:22.72	94.41	22.10	-30.3	-32.0	12.7	7.47e-05	0	43	0	327155712	21	4336
2026-01-22 09:00:23.73	94.21	22.20	-30.3	-31.7	12.9	2.74e-05	0	43	0	328204288	21	4253
2026-01-22 09:00:24.73	94.01	22.29	-30.1	-31.2	13.3	2.36e-05	0	43	0	330301440	21	4080
2026-01-22 09:00:25.74	93.81	22.39	-29.9	-30.8	13.6	9.90e-06	0	43	0	332398592	21	3991
2026-01-22 09:00:26.74	93.61	22.49	-30.1	-31.3	13.3	1.44e-05	0	43	0	334495744	21	4132
2026-01-22 09:00:27.75	93.41	22.59	-30.0	-30.9	13.5	2.05e-05	0	43	0	336592896	21	4017
2026-01-22 09:00:28.75	93.20	22.68	-30.2	-31.5	13.1	1.67e-05	0	43	0	337641472	21	4207
2026-01-22 09:00:29.76	93.00	22.78	-30.4	-32.2	12.6	6.94e-05	0	43	0	339738624	21	4430
2026-01-22 09:00:30.76	92.79	22.88	-30.3	-31.9	12.8	9.84e-05	0	43	0	341835776	21	4306
2026-01-22 09:00:31.76	92.58	22.98	-30.4	-32.2	12.6	4.95e-05	0	43	0	343932928	21	4401
2026-01-22 09:00:32.76	92.37	23.07	-30.2	-31.5	13.1	3.66e-05	0	43	0	346030080	21	4197
2026-01-22 09:00:33.76	92.17	23.17	-30.2	-31.4	13.2	3.20e-05	0	43	0	347078656	21	4164
2026-01-22 09:00:34.77	91.95	23.27	-30.2	-31.4	13.2	3.05e-05	0	43	0	349175808	21	4168
2026-01-22 09:00:35.76	91.74	23.37	-30.1	-31.3	13.2	3.20e-05	0	43	0	351272960	21	4120
2026-01-22 09:00:36.76	91.53	23.46	-30.2	-31.5	13.1	1.83e-05	0	43	0	353370112	21	4182
2026-01-22 09:00:37.77	91.31	23.56	-30.3	-31.7	13.0	3.05e-05	0	43	0	355467264	21	4258
2026-01-22 09:00:38.77	91.09	23.66	-30.4	-32.2	12.8	5.79e-05	0	43	0	356515840	21	4393
2026-01-22 09:00:39.77	90.88	23.75	-30.6	-32.6	12.4	9.68e-05	0	43	0	358612992	21	4535
2026-01-22 09:00:40.77	90.66	23.85	-30.7	-32.8	12.2	1.12e-04	0	43	0	360710144	21	4623
2026-01-22 09:00:41.78	90.44	23.95	-30.5	-32.5	12.5	1.99e-04	0	43	0	362807296	21	4486
2026-01-22 09:00:42.78	90.21	24.04	-30.2	-31.5	13.2	4.42e-05	0	43	0	364904448	21	4181
2026-01-22 09:00:43.78	89.99	24.14	-30.2	-31.5	13.1	1.83e-05	0	43	0	365953024	21	4192
2026-01-22 09:00:44.77	89.77	24.24	-30.2	-31.5	13.2	2.36e-05	0	43	0	368050176	21	4186
2026-01-22 09:00:45.77	89.54	24.33	-30.2	-31.4	13.2	1.22e-05	0	43	0	370147328	21	4157
2026-01-22 09:00:46.78	89.31	24.43	-30.0	-30.9	13.5	1.60e-05	0	43	0	372244480	21	4006
2026-01-22 09:00:47.78	89.08	24.52	-29.7	-30.5	14.1	6.80e-06	0	43	0	374341632	20	3978
2026-01-22 09:00:48.78	88.85	24.62	-29.7	-30.6	14.1	7.00e-07	0	43	0	375390208	20	4008
2026-01-22 09:00:49.79	88.62	24.72	-29.6	-30.3	14.2	3.00e-06	0	43	0	377487360	20	3926
2026-01-22 09:00:50.80	88.38	24.81	-29.6	-30.2	14.3	0.00e+00	0	43	0	379584512	20	3887
2026-01-22 09:00:51.80	88.15	24.91	-29.4	-29.7	14.6	0.00e+00	0	43	0	381681664	20	3762
2026-01-22 09:00:52.80	87.91	25.00	-29.5	-30.0	14.4	7.00e-07	0	43	0	382730240	20	3837
2026-01-22 09:00:53.81	87.67	25.10	-29.3	-30.1	14.7	7.00e-07	0	43	0	384827392	19	3936
2026-01-22 09:00:54.81	87.44	25.19	-29.1	-29.7	15.0	0.00e+00	0	43	0	386924544	19	3822
2026-01-22 09:00:55.82	87.19	25.29	-29.3	-30.0	14.9	7.00e-07	0	43	0	389021696	19	3922
2026-01-22 09:00:56.82	86.95	25.38	-29.1	-29.6	15.0	7.00e-07	0	43	0	391118848	19	3818
2026-01-22 09:00:57.83	86.71	25.48	-29.4	-30.5	14.6	0.00e+00	0	43	0	392167424	19	4046
2026-01-22 09:00:58.83	86.46	25.57	-29.5	-30.6	14.4	0.00e+00	0	43	0	394264576	19	4086
2026-01-22 09:00:59.84	86.21	25.66	-29.6	-30.9	14.2	1.50e-06	0	43	0	396361728	19	4182
2026-01-22 09:01:00.84	85.97	25.76	-29.7	-31.1	14.2	7.00e-07	0	43	0	398458880	19	4237
2026-01-22 09:01:01.84	85.72	25.85	-29.8	-31.3	14.0	7.00e-07	0	43	0	400556032	19	4296
2026-01-22 09:01:02.85	85.46	25.94	-29.9	-31.2	13.6	6.80e-06	0	43	0	401604608	20	4195
2026-01-22 09:01:03.85	85.21	26.03	-30.2	-32.0	13.1	1.90e-05	0	43	0	403701760	20	4438
2026-01-22 09:01:04.85	84.96	26.13	-30.3	-32.4	12.9	3.66e-05	0	43	0	405798912	20	4584
2026-01-22 09:01:05.85	84.70	26.22	-30.2	-32.2	13.1	6.63e-05	0	43	0	407896064	20	4505
2026-01-22 09:01:06.86	84.44	26.31	-30.2	-31.9	13.3	1.60e-05	0	43	0	409993216	20	4406
2026-01-22 09:01:07.86	84.19	26.40	-30.3	-32.3	13.0	2.89e-05	0	43	0	411041792	20	4520
2026-01-22 09:01:08.86	83.93	26.49	-30.1	-31.7	13.3	3.73e-05	0	43	0	413138944	20	4315
2026-01-22 09:01:09.87	83.66	26.58	-30.3	-32.2	13.1	2.28e-05	0	43	0	415236096	20	4501
2026-01-22 09:01:10.87	83.40	26.67	-30.3	-32.2	13.1	1.60e-05	0	43	0	417333248	20	4478
2026-01-22 09:01:11.87	83.14	26.76	-30.2	-32.0	13.2	1.67e-05	0	43	0	419430400	20	4439
2026-01-22 09:01:12.88	82.87	26.85	-30.2	-31.9	13.3	1.90e-05	0	43	0	420478976	20	4397
2026-01-22 09:01:13.88	82.60	26.94	-30.3	-32.2	13.0	2.36e-05	0	43	0	422576128	20	4505
2026-01-22 09:01:14.88	82.33	27.03	-30.4	-32.5	12.8	5.79e-05	0	43	0	424673280	20	4611
2026-01-22 09:01:15.88	82.07	27.12	-30.4	-32.6	12.8	4.57e-05	0	43	0	426770432	20	4613
2026-01-22 09:01:16.89	81.79	27.21	-30.5	-32.4	12.6	5.49e-05	0	43	0	428867584	21	4451
2026-01-22 09:01:17.89	81.52	27.29	-30.7	-32.9	12.4	8.16e-05	0	43	0	429916160	21	4622
2026-01-22 09:01:18.89	81.24	27.38	-30.5	-32.2	12.8	1.20e-04	0	43	0	432013312	21	4378
2026-01-22 09:01:19.90	80.97	27.47	-30.0	-31.0	13.6	1.14e-05	0	43	0	434110464	21	4021
2026-01-22 09:01:20.90	80.69	27.55	-30.1	-31.2	13.4	1.52e-05	0	43	0	436207616	21	4085
2026-01-22 09:01:21.89	80.41	27.64	-30.2	-31.6	13.2	2.13e-05	0	43	0	437256192	21	4223
2026-01-22 09:01:22.89	80.13	27.72	-30.2	-31.7	13.1	2.36e-05	0	43	0	439353344	21	4235
2026-01-22 09:01:23.89	79.85	27.81	-30.6	-32.6	12.5	7.17e-05	0	43	0	441450496	21	4534
2026-01-22 09:01:24.90	79.56	27.89	-30.9	-33.7	11.8	1.65e-04	0	43	0	443547648	21	4931
2026-01-22 09:01:25.91	79.28	27.97	-31.1	-33.6	11.4	4.90e-04	0	43	0	445644800	22	4817
2026-01-22 09:01:26.91	78.99	28.06	-31.1	-33.7	11.5	8.22e-04	0	43	0	446693376	22	4819
2026-01-22 09:01:27.92	78.70	28.14	-31.3	-34.3	11.0	1.17e-03	0	43	0	448790528	22	5078
2026-01-22 09:01:28.92	78.41	28.22	-31.1	-33.5	11.6	1.14e-03	0	43	0	450887680	22	4756
2026-01-22 09:01:29.93	78.12	28.30	-31.2	-33.8	11.4	8.95e-04	0	43	0	452984832	22	4853
2026-01-22 09:01:30.93	77.83	28.38	-31.1	-33.5	11.6	1.10e-03	0	43	0	455081984	22	4734
2026-01-22 09:01:31.94	77.53	28.46	-31.2	-33.7	11.5	4.78e-04	0	43	0	456130560	22	4814
2026-01-22 09:01:32.94	77.23	28.54	-31.3	-34.2	11.1	1.34e-03	0	43	0	458227712	22	5034
2026-01-22 09:01:33.94	76.94	28.62	-31.1	-33.5	11.6	9.74e-04	0	43	0	460324864	22	4725
2026-01-22 09:01:34.95	76.64	28.70	-30.6	-32.0	12.7	2.82e-04	0	43	0	462422016	22	4229
2026-01-22 09:01:35.94	76.34	28.78	-30.1	-31.1	13.5	5.49e-05	0	43	0	464519168	21	4051
2026-01-22 09:01:36.95	76.04	28.85	-29.9	-30.7	13.8	9.90e-06	0	43	0	465567744	21	3918
2026-01-22 09:01:37.95	75.73	28.93	-30.1	-31.1	13.6	6.80e-06	0	43	0	467664896	21	4053
2026-01-22 09:01:38.95	75.43	29.00	-30.2	-31.4	13.3	8.30e-06	0	43	0	469762048	21	4152
2026-01-22 09:01:39.94	75.13	29.08	-30.2	-31.3	13.4	2.13e-05	0	43	0	471859200	21	4132
2026-01-22 09:01:40.95	74.82	29.15	-30.3	-31.8	13.0	1.83e-05	0	43	0	473956352	21	4281
2026-01-22 09:01:41.95	74.51	29.22	-30.5	-32.5	12.6	3.43e-05	0	43	0	475004928	21	4496
2026-01-22 09:01:42.95	74.20	29.30	-30.6	-32.6	12.5	1.16e-04	0	43	0	477102080	21	4547
2026-01-22 09:01:43.95	73.89	29.37	-30.7	-33.0	12.2	2.72e-04	0	43	0	479199232	21	4671
2026-01-22 09:01:44.96	73.57	29.44	-30.6	-32.6	12.5	1.22e-04	0	43	0	481296384	21	4534
2026-01-22 09:01:45.96	73.26	29.51	-30.4	-32.2	12.8	1.17e-04	0	43	0	482344960	21	4402
2026-01-22 09:01:46.97	72.94	29.58	-30.5	-32.5	12.6	7.55e-05	0	43	0	484442112	21	4493
2026-01-22 09:01:47.97	72.63	29.65	-30.7	-32.8	12.4	1.36e-04	0	43	0	486539264	21	4622
2026-01-22 09:01:48.98	72.31	29.72	-30.5	-32.5	12.6	9.61e-05	0	43	0	488636416	21	4506
2026-01-22 09:01:49.98	71.99	29.78	-30.3	-31.9	13.0	6.94e-05	0	43	0	490733568	21	4311
2026-01-22 09:01:50.98	71.67	29.85	-30.5	-32.3	12.7	4.80e-05	0	43	0	492830720	21	4446
2026-01-22 09:01:51.98	71.35	29.91	-30.3	-31.9	13.0	7.70e-05	0	43	0	493879296	21	4299
2026-01-22 09:01:52.98	71.02	29.98	-30.2	-31.6	13.2	4.04e-05	0	43	0	495976448	21	4198
2026-01-22 09:01:53.99	70.70	30.04	-30.0	-31.0	13.7	7.60e-06	0	43	0	498073600	21	4020
2026-01-22 09:01:54.99	70.37	30.10	-30.1	-31.2	13.6	2.20e-06	0	43	0	500170752	21	4067
2026-01-22 09:01:56.00	70.04	30.16	-30.4	-32.1	12.9	2.05e-05	0	43	0	501219328	21	4371
2026-01-22 09:01:57.00	69.71	30.22	-30.4	-31.9	13.0	6.25e-05	0	43	0	503316480	21	4313
2026-01-22 09:01:58.01	69.38	30.28	-30.7	-32.9	12.4	1.17e-04	0	43	0	505413632	21	4650
2026-01-22 09:01:59.01	69.05	30.34	-30.5	-32.4	12.7	1.48e-04	0	43	0	507510784	21	4458
2026-01-22 09:02:00.01	68.72	30.40	-30.4	-31.9	13.0	6.33e-05	0	43	0	509607936	21	4322
2026-01-22 09:02:01.02	68.38	30.46	-30.1	-31.3	13.4	2.59e-05	0	43	0	510656512	21	4118
2026-01-22 09:02:02.02	68.05	30.51	-30.0	-31.0	13.6	4.50e-06	0	43	0	512753664	21	4023
2026-01-22 09:02:03.03	67.71	30.57	-30.0	-30.9	13.6	6.80e-06	0	43	0	514850816	21	4007
2026-01-22 09:02:04.03	67.37	30.62	-29.9	-30.7	13.8	6.80e-06	0	43	0	516947968	21	3945
2026-01-22 09:02:05.04	67.03	30.68	-30.0	-31.0	13.6	7.60e-06	0	43	0	519045120	21	4037
2026-01-22 09:02:06.04	66.70	30.73	-30.1	-31.1	13.6	6.10e-06	0	43	0	520093696	21	4067
2026-01-22 09:02:07.04	66.36	30.78	-30.3	-31.7	13.2	9.10e-06	0	43	0	522190848	21	4238
2026-01-22 09:02:08.04	66.02	30.83	-30.2	-31.5	13.4	1.52e-05	0	43	0	524288000	21	4159
2026-01-22 09:02:09.05	65.67	30.88	-30.1	-31.3	13.5	1.14e-05	0	43	0	526385152	21	4113
2026-01-22 09:02:10.05	65.33	30.92	-30.4	-31.9	13.2	1.06e-05	0	43	0	528482304	21	4317
2026-01-22 09:02:11.05	64.99	30.97	-30.6	-32.6	12.6	6.17e-05	0	43	0	529530880	21	4545
2026-01-22 09:02:12.05	64.64	31.01	-31.1	-33.5	11.6	2.61e-04	0	43	0	531628032	22	4783
2026-01-22 09:02:13.06	64.29	31.06	-31.1	-33.8	11.4	8.37e-04	0	43	0	533725184	22	4874
2026-01-22 09:02:14.06	63.95	31.10	-31.3	-34.3	11.0	1.42e-03	0	43	0	535822336	22	5090
2026-01-22 09:02:15.06	63.60	31.14	-31.3	-34.3	11.0	1.68e-03	0	43	0	537919488	22	5088
2026-01-22 09:02:16.06	63.25	31.18	-30.9	-33.2	11.8	9.50e-04	0	43	0	538968064	22	4650
2026-01-22 09:02:17.07	62.90	31.22	-30.7	-32.3	12.4	2.66e-04	0	43	0	541065216	22	4366
2026-01-22 09:02:18.07	62.55	31.26	-30.5	-31.9	12.6	8.08e-05	0	43	0	543162368	22	4220
2026-01-22 09:02:19.07	62.20	31.30	-30.7	-32.2	12.5	8.77e-05	0	43	0	545259520	22	4312
2026-01-22 09:02:20.07	61.85	31.33	-30.7	-32.4	12.4	1.11e-04	0	43	0	547356672	22	4359
2026-01-22 09:02:21.07	61.49	31.37	-30.9	-33.0	12.0	2.48e-04	0	43	0	548405248	22	4564
2026-01-22 09:02:22.07	61.14	31.40	-30.7	-32.3	12.4	2.54e-04	0	43	0	550502400	22	4340
2026-01-22 09:02:23.07	60.79	31.44	-30.4	-31.5	13.0	7.62e-05	0	43	0	552599552	22	4063
2026-01-22 09:02:24.08	60.43	31.47	-30.3	-31.8	13.2	1.98e-05	0	43	0	554696704	21	4248
2026-01-22 09:02:25.08	60.08	31.50	-30.5	-32.2	13.0	2.13e-05	0	43	0	555745280	21	4376
2026-01-22 09:02:26.08	59.72	31.53	-30.9	-33.3	12.2	1.09e-04	0	43	0	557842432	21	4749
2026-01-22 09:02:27.08	59.36	31.55	-31.2	-33.8	11.6	3.20e-04	0	43	0	559939584	22	4841
2026-01-22 09:02:28.08	59.01	31.58	-31.3	-33.9	11.5	7.32e-04	0	43	0	562036736	22	4886
2026-01-22 09:02:29.08	58.65	31.61	-31.6	-34.4	10.7	2.18e-03	0	43	0	564133888	23	4987
2026-01-22 09:02:30.08	58.29	31.63	-31.5	-34.1	10.8	2.99e-03	0	43	0	565182464	23	4890
2026-01-22 09:02:31.08	57.93	31.65	-31.4	-33.8	11.2	1.07e-03	0	43	0	567279616	23	4744
2026-01-22 09:02:32.08	57.57	31.67	-31.1	-33.1	11.6	8.15e-04	0	43	0	569376768	23	4489
2026-01-22 09:02:33.09	57.21	31.69	-31.2	-33.3	11.5	6.58e-04	0	43	0	571473920	23	4568
2026-01-22 09:02:34.09	56.85	31.71	-31.3	-33.7	11.2	8.75e-04	0	43	0	573571072	23	4710
2026-01-22 09:02:35.10	56.49	31.73	-31.3	-33.6	11.3	1.00e-03	0	43	0	574619648	23	4685
2026-01-22 09:02:36.11	56.12	31.75	-31.0	-32.8	11.8	7.09e-04	0	43	0	576716800	23	4424
2026-01-22 09:02:37.11	55.76	31.76	-31.2	-33.3	11.4	7.74e-04	0	43	0	578813952	23	4593
2026-01-22 09:02:38.11	55.40	31.78	-31.5	-34.3	10.7	2.43e-03	0	43	0	580911104	23	4982
2026-01-22 09:02:39.11	55.04	31.79	-31.2	-33.4	11.4	1.84e-03	0	43	0	583008256	23	4644
2026-01-22 09:02:40.12	54.68	31.80	-31.1	-33.0	11.7	6.65e-04	0	43	0	584056832	23	4496
2026-01-22 09:02:41.12	54.31	31.81	-30.9	-32.5	12.1	3.42e-04	0	43	0	586153984	23	4317
2026-01-22 09:02:42.13	53.95	31.82	-30.9	-32.3	11.9	3.07e-04	0	43	0	588251136	23	4267
2026-01-22 09:02:43.13	53.58	31.82	-31.1	-33.0	11.6	5.73e-04	0	43	0	590348288	23	4483
2026-01-22 09:02:44.12	53.23	31.83	-31.1	-33.2	11.6	8.55e-04	0	43	0	592445440	23	4569
2026-01-22 09:02:45.12	52.86	31.84	-31.2	-33.3	11.5	1.01e-03	0	43	0	593494016	23	4600
2026-01-22 09:02:46.12	52.50	31.84	-31.1	-32.9	11.8	7.08e-04	0	43	0	595591168	23	4452
2026-01-22 09:02:47.13	52.13	31.84	-31.0	-32.8	11.9	4.61e-04	0	43	0	597688320	23	4407
2026-01-22 09:02:48.13	51.77	31.84	-31.0	-32.5	12.0	3.06e-04	0	43	0	599785472	23	4316
2026-01-22 09:02:49.13	51.41	31.84	-31.0	-32.7	11.9	3.79e-04	0	43	0	600834048	23	4366
2026-01-22 09:02:50.13	51.05	31.84	-30.6	-31.9	12.9	1.28e-04	0	43	0	602931200	22	4189
2026-01-22 09:02:51.12	50.69	31.84	-30.6	-32.0	12.8	7.62e-05	0	43	0	605028352	22	4214
2026-01-22 09:02:52.12	50.32	31.83	-30.7	-32.3	12.6	9.07e-05	0	43	0	607125504	22	4326
2026-01-22 09:02:53.12	49.96	31.83	-30.6	-32.1	12.7	8.16e-05	0	43	0	609222656	22	4254
2026-01-22 09:02:54.13	49.60	31.82	-31.3	-34.1	11.4	1.98e-04	0	43	0	610271232	22	4963
2026-01-22 09:02:55.13	49.23	31.81	-31.4	-34.3	11.2	1.28e-03	0	43	0	612368384	22	5054
2026-01-22 09:02:56.13	48.87	31.80	-31.6	-34.6	10.7	1.72e-03	0	43	0	614465536	23	5061
2026-01-22 09:02:57.13	48.51	31.79	-31.4	-33.8	11.2	2.31e-03	0	43	0	616562688	23	4751
2026-01-22 09:02:58.12	48.15	31.78	-31.3	-33.5	11.6	7.89e-04	0	43	0	618659840	23	4637
2026-01-22 09:02:59.13	47.79	31.76	-31.3	-33.5	11.4	1.07e-03	0	43	0	619708416	23	4656
2026-01-22 09:03:00.13	47.43	31.75	-31.4	-33.7	11.2	1.10e-03	0	43	0	621805568	23	4709
2026-01-22 09:03:01.13	47.07	31.73	-31.3	-33.6	11.2	1.24e-03	0	43	0	623902720	23	4668
2026-01-22 09:03:02.13	46.71	31.72	-31.3	-33.6	11.3	1.08e-03	0	43	0	625999872	23	4675
2026-01-22 09:03:03.13	46.35	31.70	-31.5	-34.1	10.9	2.18e-03	0	43	0	628097024	23	4866
2026-01-22 09:03:04.13	45.99	31.68	-31.3	-33.5	11.4	1.42e-03	0	43	0	629145600	23	4649
2026-01-22 09:03:05.14	45.63	31.66	-31.0	-32.7	12.0	4.03e-04	0	43	0	631242752	23	4355
2026-01-22 09:03:06.14	45.27	31.64	-31.0	-32.7	12.0	3.32e-04	0	43	0	633339904	23	4371
2026-01-22 09:03:07.14	44.91	31.61	-31.1	-32.9	11.7	6.42e-04	0	43	0	635437056	23	4449
2026-01-22 09:03:08.15	44.55	31.59	-30.8	-32.7	12.3	3.05e-04	0	43	0	636485632	22	4439
2026-01-22 09:03:09.15	44.19	31.56	-31.1	-33.5	11.7	5.55e-04	0	43	0	638582784	22	4720
2026-01-22 09:03:10.16	43.83	31.53	-31.0	-33.3	11.9	7.26e-04	0	43	0	640679936	22	4661
2026-01-22 09:03:11.16	43.48	31.50	-31.3	-34.1	11.2	1.25e-03	0	43	0	642777088	22	4965
2026-01-22 09:03:12.17	43.12	31.47	-31.3	-34.2	11.2	9.10e-04	0	43	0	644874240	22	5020
2026-01-22 09:03:13.17	42.77	31.44	-31.2	-33.9	11.3	1.36e-03	0	43	0	646971392	22	4921
2026-01-22 09:03:14.18	42.41	31.41	-31.1	-33.6	11.7	8.10e-04	0	43	0	648019968	22	4777
2026-01-22 09:03:15.18	42.06	31.38	-30.8	-32.7	12.3	1.97e-04	0	43	0	650117120	22	4455
2026-01-22 09:03:16.18	41.70	31.34	-30.8	-32.6	12.3	3.42e-04	0	43	0	652214272	22	4408
2026-01-22 09:03:17.18	41.35	31.31	-30.9	-33.0	12.0	3.11e-04	0	43	0	654311424	22	4581
2026-01-22 09:03:18.19	41.00	31.27	-31.2	-33.8	11.4	5.88e-04	0	43	0	655360000	22	4865
2026-01-22 09:03:19.19	40.65	31.23	-31.2	-33.9	11.4	9.15e-04	0	43	0	657457152	22	4887
2026-01-22 09:03:20.19	40.30	31.19	-31.4	-34.5	11.0	1.24e-03	0	43	0	659554304	22	5122
2026-01-22 09:03:21.19	39.95	31.15	-31.4	-34.3	11.1	1.96e-03	0	43	0	661651456	22	5007
2026-01-22 09:03:22.20	39.60	31.11	-31.1	-33.4	11.7	1.11e-03	0	43	0	663748608	22	4691
2026-01-22 09:03:23.20	39.26	31.07	-31.0	-33.1	11.9	5.75e-04	0	43	0	664797184	22	4609
2026-01-22 09:03:24.20	38.91	31.03	-31.1	-33.6	11.6	5.75e-04	0	43	0	666894336	22	4773
2026-01-22 09:03:25.21	38.57	30.98	-31.5	-34.6	10.8	1.09e-03	0	43	0	668991488	22	5163
2026-01-22 09:03:26.21	38.22	30.93	-31.3	-34.2	11.2	2.10e-03	0	43	0	671088640	22	4996
2026-01-22 09:03:27.22	37.88	30.89	-31.0	-33.1	11.9	7.22e-04	0	43	0	673185792	22	4600
2026-01-22 09:03:28.22	37.54	30.84	-30.7	-32.3	12.4	3.58e-04	0	43	0	674234368	22	4320
2026-01-22 09:03:29.23	37.19	30.79	-30.5	-31.8	12.7	1.16e-04	0	43	0	676331520	22	4184
2026-01-22 09:03:30.23	36.85	30.74	-30.6	-32.0	12.6	9.15e-05	0	43	0	678428672	22	4231
2026-01-22 09:03:31.23	36.52	30.69	-30.6	-32.1	12.6	1.18e-04	0	43	0	680525824	22	4255
2026-01-22 09:03:32.23	36.18	30.64	-30.7	-32.2	12.5	1.09e-04	0	43	0	682622976	22	4301
2026-01-22 09:03:33.23	35.84	30.58	-30.5	-31.7	12.8	5.87e-05	0	43	0	683671552	22	4137
2026-01-22 09:03:34.23	35.51	30.53	-30.8	-32.6	12.2	1.48e-04	0	43	0	685768704	22	4420
2026-01-22 09:03:35.23	35.18	30.47	-30.8	-32.5	12.3	1.82e-04	0	43	0	687865856	22	4399
2026-01-22 09:03:36.23	34.84	30.42	-31.1	-33.6	11.7	7.78e-04	0	43	0	689963008	22	4763
2026-01-22 09:03:37.23	34.51	30.36	-30.8	-32.6	12.3	3.05e-04	0	43	0	692060160	22	4406
2026-01-22 09:03:38.24	34.18	30.30	-30.9	-32.9	12.0	2.56e-04	0	43	0	693108736	22	4533
2026-01-22 09:03:39.24	33.85	30.24	-31.2	-33.9	11.4	6.90e-04	0	43	0	695205888	22	4873
2026-01-22 09:03:40.25	33.52	30.18	-31.5	-34.6	10.7	2.07e-03	0	43	0	697303040	22	5175
2026-01-22 09:03:41.26	33.19	30.12	-31.4	-33.8	11.0	2.26e-03	0	43	0	699400192	23	4767
2026-01-22 09:03:42.26	32.87	30.06	-31.4	-33.8	11.0	2.04e-03	0	43	0	700448768	23	4761
2026-01-22 09:03:43.27	32.54	29.99	-31.4	-33.9	11.0	1.79e-03	0	43	0	702545920	23	4802
2026-01-22 09:03:44.28	32.21	29.93	-31.5	-34.3	10.7	4.56e-03	0	43	0	704643072	23	4967
2026-01-22 09:03:45.28	31.89	29.87	-31.5	-34.3	10.6	3.70e-03	0	43	0	706740224	23	4981
2026-01-22 09:03:46.29	31.57	29.80	-31.6	-34.7	10.3	4.66e-03	0	43	0	708837376	23	5145
2026-01-22 09:03:47.28	31.25	29.73	-31.6	-34.6	10.4	4.33e-03	0	43	0	709885952	23	5114
2026-01-22 09:03:48.29	30.93	29.67	-31.7	-35.0	10.1	5.06e-03	0	43	0	711983104	23	5267
2026-01-22 09:03:49.29	30.62	29.60	-31.7	-34.8	10.3	8.18e-03	0	44	0	714080256	23	5161
2026-01-22 09:03:50.29	30.30	29.53	-31.3	-33.5	11.3	3.55e-03	0	43	0	716177408	23	4643
2026-01-22 09:03:51.29	29.99	29.46	-31.0	-32.8	11.7	1.03e-03	0	43	0	718274560	23	4418
2026-01-22 09:03:52.29	29.68	29.39	-30.9	-32.6	11.8	4.65e-04	0	43	0	719323136	23	4344
2026-01-22 09:03:53.30	29.37	29.32	-31.0	-32.8	11.7	4.91e-04	0	43	0	721420288	23	4412
2026-01-22 09:03:54.30	29.06	29.25	-31.1	-33.1	11.5	6.78e-04	0	43	0	723517440	23	4520
2026-01-22 09:03:55.31	28.75	29.17	-30.9	-32.5	11.9	1.11e-03	0	43	0	725614592	23	4312
2026-01-22 09:03:56.31	28.44	29.10	-30.9	-32.4	11.9	4.30e-04	0	43	0	727711744	23	4292
2026-01-22 09:03:57.31	28.14	29.03	-30.9	-32.5	11.8	9.29e-04	0	43	0	728760320	23	4317
2026-01-22 09:03:58.32	27.83	28.95	-30.5	-31.9	12.7	2.04e-04	0	43	0	730857472	22	4203
2026-01-22 09:03:59.32	27.53	28.88	-29.9	-30.7	13.7	7.60e-06	0	43	0	732954624	21	3931
2026-01-22 09:04:00.32	27.23	28.80	-29.4	-29.7	14.6	0.00e+00	0	43	0	735051776	20	3753
2026-01-22 09:04:01.32	26.93	28.72	-29.1	-29.4	15.2	0.00e+00	0	43	0	737148928	19	3758
2026-01-22 09:04:02.32	26.63	28.65	-29.1	-29.7	15.0	0.00e+00	0	43	0	738197504	19	3819
2026-01-22 09:04:03.33	26.33	28.57	-29.4	-30.2	14.7	0.00e+00	0	43	0	740294656	19	3978
2026-01-22 09:04:04.33	26.04	28.49	-29.5	-30.5	14.4	0.00e+00	0	43	0	742391808	19	4062
2026-01-22 09:04:05.33	25.74	28.41	-29.7	-31.1	14.1	0.00e+00	0	43	0	744488960	19	4229
2026-01-22 09:04:06.32	25.46	28.33	-29.8	-31.5	13.9	3.00e-06	0	43	0	746586112	19	4340
2026-01-22 09:04:07.32	25.17	28.25	-30.3	-32.3	13.0	2.05e-05	0	43	0	747634688	20	4529
2026-01-22 09:04:08.33	24.87	28.17	-30.8	-33.2	12.1	1.27e-04	0	43	0	749731840	21	4743
2026-01-22 09:04:09.32	24.59	28.09	-30.9	-32.9	11.9	5.87e-04	0	43	0	751828992	22	4562
2026-01-22 09:04:10.32	24.30	28.00	-30.3	-31.4	13.0	1.59e-04	0	43	0	753926144	22	4050
2026-01-22 09:04:11.32	24.02	27.92	-29.9	-30.6	13.8	1.29e-05	0	43	0	754974720	21	3901
2026-01-22 09:04:12.31	23.74	27.84	-29.9	-30.6	13.8	2.20e-06	0	43	0	757071872	21	3910
2026-01-22 09:04:13.31	23.46	27.76	-30.4	-31.9	12.9	3.50e-05	0	43	0	759169024	21	4299
2026-01-22 09:04:14.32	23.18	27.67	-30.7	-33.0	12.2	1.09e-04	0	43	0	761266176	21	4662
2026-01-22 09:04:15.32	22.90	27.59	-31.5	-34.5	10.4	1.51e-03	0	43	0	763363328	23	5086
2026-01-22 09:04:16.33	22.62	27.50	-31.9	-35.8	9.5	8.06e-03	0	43	0	764411904	23	5633
2026-01-22 09:04:17.33	22.34	27.41	-31.9	-35.9	9.3	1.68e-02	0	43	0	766509056	23	5683
2026-01-22 09:04:18.33	22.07	27.33	-31.6	-34.9	10.1	1.56e-02	0	43	0	768606208	23	5215
2026-01-22 09:04:19.33	21.80	27.24	-31.6	-34.7	10.3	5.92e-03	0	43	0	770703360	23	5159
2026-01-22 09:04:20.34	21.52	27.15	-31.5	-34.2	10.7	3.79e-03	0	43	0	772800512	23	4915
2026-01-22 09:04:21.35	21.25	27.07	-31.3	-33.8	11.0	2.43e-03	0	43	0	773849088	23	4760
2026-01-22 09:04:22.35	20.99	26.98	-31.3	-33.7	11.0	1.81e-03	0	43	0	775946240	23	4729
2026-01-22 09:04:23.35	20.72	26.89	-31.4	-33.9	10.9	2.63e-03	0	43	0	778043392	23	4795
2026-01-22 09:04:24.35	20.45	26.80	-31.4	-33.8	11.0	2.04e-03	0	43	0	780140544	23	4774
2026-01-22 09:04:25.35	20.19	26.71	-31.4	-33.9	10.8	2.71e-03	0	43	0	782237696	23	4818
2026-01-22 09:04:26.35	19.93	26.62	-31.1	-32.9	11.5	1.69e-03	0	43	0	783286272	23	4459
2026-01-22 09:04:27.36	19.67	26.53	-30.8	-32.5	12.2	3.02e-04	0	43	0	785383424	22	4375
2026-01-22 09:04:28.36	19.41	26.44	-30.3	-31.2	13.1	5.87e-05	0	43	0	787480576	22	3988
2026-01-22 09:04:29.37	19.15	26.35	-30.1	-31.0	13.5	1.37e-05	0	44	0	789577728	21	4014
2026-01-22 09:04:30.37	18.89	26.26	-30.0	-30.7	13.7	6.10e-06	0	43	0	791674880	21	3939
2026-01-22 09:04:31.38	18.64	26.17	-30.1	-31.1	13.4	6.80e-06	0	43	0	792723456	21	4053
2026-01-22 09:04:32.38	18.38	26.08	-29.9	-30.6	13.7	8.30e-06	0	43	0	794820608	21	3907
2026-01-22 09:04:33.39	18.13	25.98	-29.7	-30.6	14.1	7.00e-07	0	43	0	796917760	20	3989
2026-01-22 09:04:34.39	17.88	25.89	-29.6	-30.5	14.1	3.00e-06	0	43	0	799014912	20	3956
2026-01-22 09:04:35.40	17.63	25.80	-29.8	-30.8	13.9	3.80e-06	0	43	0	800063488	20	4061
2026-01-22 09:04:36.41	17.38	25.70	-29.8	-30.9	13.8	3.80e-06	0	43	0	802160640	20	4088
2026-01-22 09:04:37.41	17.13	25.61	-29.7	-30.7	13.9	1.50e-06	0	43	0	804257792	20	4043
2026-01-22 09:04:38.42	16.89	25.52	-29.8	-31.0	13.8	5.30e-06	0	43	0	806354944	20	4117
2026-01-22 09:04:39.42	16.65	25.42	-29.9	-31.3	13.6	5.30e-06	0	43	0	808452096	20	4202
2026-01-22 09:04:40.42	16.40	25.33	-30.1	-31.6	13.4	1.37e-05	0	43	0	810549248	20	4298
2026-01-22 09:04:41.43	16.16	25.24	-29.8	-30.8	13.8	4.50e-06	0	43	0	811597824	20	4068
2026-01-22 09:04:42.43	15.92	25.14	-29.7	-30.8	14.0	6.10e-06	0	43	0	813694976	20	4047
2026-01-22 09:04:43.43	15.69	25.05	-29.9	-31.1	13.7	6.80e-06	0	43	0	815792128	20	4139
2026-01-22 09:04:44.43	15.45	24.95	-29.9	-31.2	13.6	1.29e-05	0	43	0	817889280	20	4181
2026-01-22 09:04:45.43	15.22	24.86	-29.8	-31.0	13.8	1.50e-06	0	43	0	818937856	20	4107
2026-01-22 09:04:46.44	14.98	24.76	-29.7	-30.7	13.9	4.50e-06	0	43	0	821035008	20	4016
2026-01-22 09:04:47.44	14.75	24.67	-29.6	-30.4	14.0	1.50e-06	0	43	0	823132160	20	3928
2026-01-22 09:04:48.44	14.52	24.57	-29.5	-30.0	14.3	1.50e-06	0	43	0	825229312	20	3840
2026-01-22 09:04:49.45	14.29	24.48	-29.3	-29.7	14.6	0.00e+00	0	43	0	827326464	20	3743
2026-01-22 09:04:50.45	14.07	24.38	-29.1	-29.6	14.9	0.00e+00	0	43	0	828375040	19	3809
2026-01-22 09:04:51.46	13.84	24.28	-28.8	-28.9	15.4	0.00e+00	0	43	0	830472192	19	3623
2026-01-22 09:04:52.46	13.61	24.19	-28.5	-28.7	15.8	0.00e+00	0	43	0	832569344	18	3654
2026-01-22 09:04:53.45	13.39	24.09	-28.5	-28.5	15.9	0.00e+00	0	43	0	834666496	18	3610
2026-01-22 09:04:54.46	13.17	24.00	-28.5	-28.7	15.9	0.00e+00	0	43	0	836763648	18	3653
2026-01-22 09:04:55.47	12.95	23.90	-28.7	-29.1	15.6	0.00e+00	0	43	0	837812224	18	3755
2026-01-22 09:04:56.47	12.73	23.80	-28.8	-29.4	15.4	0.00e+00	0	43	0	839909376	18	3851
2026-01-22 09:04:57.48	12.51	23.71	-29.2	-30.3	14.9	0.00e+00	0	43	0	842006528	18	4088
2026-01-22 09:04:58.48	12.30	23.61	-29.5	-31.1	14.4	0.00e+00	0	43	0	844103680	18	4316
2026-01-22 09:04:59.48	12.08	23.51	-29.5	-30.7	14.3	7.00e-07	0	43	0	846200832	19	4101
2026-01-22 09:05:00.48	11.87	23.42	-29.4	-30.4	14.5	7.00e-07	0	43	0	847249408	19	4016
2026-01-22 09:05:01.47	11.66	23.32	-29.2	-29.7	14.9	1.50e-06	0	43	0	849346560	19	3845
2026-01-22 09:05:02.47	11.45	23.23	-29.1	-29.7	14.9	7.00e-07	0	43	0	851443712	19	3822
2026-01-22 09:05:03.48	11.24	23.13	-29.0	-29.4	15.0	0.00e+00	0	43	0	853540864	19	3751
2026-01-22 09:05:04.48	11.03	23.03	-29.1	-29.5	15.0	0.00e+00	0	43	0	855638016	19	3789
2026-01-22 09:05:05.48	10.82	22.93	-29.2	-29.9	14.7	0.00e+00	0	43	0	856686592	19	3881
2026-01-22 09:05:06.49	10.62	22.84	-29.3	-30.0	14.7	0.00e+00	0	43	0	858783744	19	3912
2026-01-22 09:05:07.49	10.41	22.74	-29.3	-30.0	14.6	7.00e-07	0	43	0	860880896	19	3922
2026-01-22 09:05:08.49	10.21	22.64	-29.3	-30.1	14.6	7.00e-07	0	43	0	862978048	19	3945
2026-01-22 09:05:09.50	10.01	22.55	-29.2	-29.9	14.7	2.20e-06	0	43	0	864026624	19	3888
2026-01-22 09:05:10.50	9.81	22.45	-29.2	-29.8	14.8	0.00e+00	0	43	0	866123776	19	3861
2026-01-22 09:05:11.51	9.61	22.35	-29.2	-29.8	14.7	0.00e+00	0	43	0	868220928	19	3860
2026-01-22 09:05:12.51	9.41	22.25	-29.3	-30.0	14.7	0.00e+00	0	43	0	870318080	19	3924
2026-01-22 09:05:13.51	9.21	22.16	-29.3	-30.1	14.6	7.00e-07	0	43	0	872415232	19	3943
2026-01-22 09:05:14.52	9.01	22.06	-29.2	-29.8	14.7	0.00e+00	0	43	0	873463808	19	3867
2026-01-22 09:05:15.51	8.82	21.96	-29.2	-29.9	14.7	0.00e+00	0	43	0	875560960	19	3900
2026-01-22 09:05:16.51	8.63	21.87	-29.3	-30.1	14.6	7.00e-07	0	43	0	877658112	19	3941
2026-01-22 09:05:17.51	8.44	21.77	-29.5	-30.5	14.3	0.00e+00	0	43	0	879755264	19	4065
2026-01-22 09:05:18.52	8.25	21.67	-29.6	-30.9	14.1	2.20e-06	0	43	0	881852416	19	4168
2026-01-22 09:05:19.52	8.06	21.57	-29.7	-31.2	14.0	4.50e-06	0	43	0	882900992	19	4274
2026-01-22 09:05:20.52	7.87	21.48	-29.9	-31.3	13.5	6.10e-06	0	43	0	884998144	20	4210
2026-01-22 09:05:21.52	7.68	21.38	-30.1	-31.6	13.2	2.21e-05	0	43	0	887095296	20	4306
2026-01-22 09:05:22.53	7.50	21.28	-30.2	-32.1	12.9	1.75e-05	0	43	0	889192448	20	4466
2026-01-22 09:05:23.53	7.31	21.19	-30.2	-32.0	13.0	6.40e-05	0	43	0	891289600	20	4422
2026-01-22 09:05:24.53	7.13	21.09	-30.0	-31.5	13.3	1.98e-05	0	43	0	892338176	20	4287
2026-01-22 09:05:25.53	6.95	20.99	-29.7	-30.8	13.8	6.80e-06	0	43	0	894435328	20	4060
2026-01-22 09:05:26.53	6.77	20.90	-29.7	-30.6	13.9	6.80e-06	0	43	0	896532480	20	4013
2026-01-22 09:05:27.54	6.59	20.80	-29.6	-30.5	14.0	5.30e-06	0	43	0	898629632	20	3975
2026-01-22 09:05:28.54	6.41	20.70	-29.7	-30.6	13.8	3.00e-06	0	43	0	900726784	20	4008
2026-01-22 09:05:29.53	6.23	20.61	-29.7	-30.5	13.9	2.20e-06	0	43	0	901775360	20	3979
2026-01-22 09:05:30.53	6.06	20.51	-29.6	-30.4	14.0	3.00e-06	0	44	0	903872512	20	3942
2026-01-22 09:05:31.53	5.88	20.42	-29.5	-30.1	14.2	5.30e-06	0	43	0	905969664	20	3856
2026-01-22 09:05:32.53	5.71	20.32	-29.3	-30.1	14.5	1.50e-06	0	43	0	908066816	19	3958
2026-01-22 09:05:33.54	5.53	20.22	-29.5	-30.7	14.2	7.00e-07	0	43	0	909115392	19	4115
2026-01-22 09:05:34.54	5.36	20.13	-29.5	-30.7	14.2	1.50e-06	0	43	0	911212544	19	4122
2026-01-22 09:05:35.54	5.19	20.03	-29.6	-30.9	13.9	1.50e-06	0	43	0	913309696	19	4191
2026-01-22 09:05:36.54	5.02	19.94	-29.9	-31.7	13.5	4.50e-06	0	43	0	915406848	19	4433
2026-01-22 09:05:37.54	4.85	19.84	-30.1	-31.8	13.1	1.52e-05	0	43	0	917504000	20	4376
2026-01-22 09:05:38.54	4.69	19.75	-30.1	-31.9	13.0	5.03e-05	0	43	0	918552576	20	4403
2026-01-22 09:05:39.54	4.52	19.65	-30.3	-32.2	12.7	4.11e-05	0	43	0	920649728	20	4517
2026-01-22 09:05:40.54	4.35	19.56	-30.1	-31.8	13.0	4.80e-05	0	43	0	922746880	20	4384
2026-01-22 09:05:41.54	4.19	19.46	-29.9	-31.3	13.3	1.83e-05	0	43	0	924844032	20	4212
2026-01-22 09:05:42.55	4.02	19.37	-30.0	-31.6	13.2	1.67e-05	0	43	0	926941184	20	4317
2026-01-22 09:05:43.55	3.86	19.27	-29.9	-31.2	13.5	1.60e-05	0	43	0	927989760	20	4188
2026-01-22 09:05:44.55	3.70	19.18	-29.8	-30.8	13.6	1.06e-05	0	43	0	930086912	20	4083
2026-01-22 09:05:45.54	3.54	19.08	-29.7	-30.7	13.7	6.80e-06	0	43	0	932184064	20	4037
2026-01-22 09:05:46.54	3.38	18.99	-29.8	-30.9	13.6	5.30e-06	0	43	0	934281216	20	4105
2026-01-22 09:05:47.54	3.23	18.89	-29.8	-31.0	13.6	5.30e-06	0	43	0	935329792	20	4117
2026-01-22 09:05:48.54	3.07	18.80	-29.9	-31.4	13.3	1.83e-05	0	43	0	937426944	20	4238
2026-01-22 09:05:49.54	2.91	18.71	-30.1	-31.8	12.9	3.43e-05	0	43	0	939524096	20	4396
2026-01-22 09:05:50.55	2.76	18.61	-30.4	-32.7	12.4	6.25e-05	0	43	0	941621248	20	4675
2026-01-22 09:05:51.55	2.60	18.52	-30.2	-31.7	12.4	1.90e-04	0	43	0	943718400	21	4272
2026-01-22 09:05:52.55	2.45	18.42	-30.0	-31.1	13.1	3.28e-05	0	43	0	944766976	21	4090
2026-01-22 09:05:53.55	2.30	18.33	-29.8	-31.1	13.4	1.75e-05	0	43	0	946864128	20	4160
2026-01-22 09:05:54.55	2.15	18.24	-29.5	-30.4	13.9	3.00e-06	0	43	0	948961280	20	3954
2026-01-22 09:05:55.55	2.00	18.14	-29.6	-30.4	13.8	7.00e-07	0	43	0	951058432	20	3975
2026-01-22 09:05:56.56	1.84	18.05	-29.4	-30.0	14.1	3.80e-06	0	43	0	953155584	20	3842
2026-01-22 09:05:57.56	1.70	17.96	-29.5	-30.2	14.0	7.00e-07	0	43	0	954204160	20	3899
2026-01-22 09:05:58.56	1.55	17.87	-29.3	-29.7	14.3	7.00e-07	0	43	0	956301312	20	3761
2026-01-22 09:05:59.57	1.40	17.77	-29.5	-30.7	14.1	0.00e+00	0	43	0	958398464	19	4148
2026-01-22 09:06:00.57	1.26	17.68	-29.4	-30.5	14.2	2.20e-06	0	43	0	960495616	19	4064
2026-01-22 09:06:01.57	1.11	17.59	-29.3	-30.2	14.3	1.50e-06	0	43	0	962592768	19	4004
2026-01-22 09:06:02.57	0.97	17.49	-29.6	-30.9	13.9	1.50e-06	0	43	0	963641344	19	4191
2026-01-22 09:06:03.58	0.82	17.40	-29.6	-31.1	13.8	2.20e-06	0	43	0	965738496	19	4236
2026-01-22 09:06:04.58	0.68	17.31	-29.6	-31.1	13.8	4.50e-06	0	43	0	967835648	19	4243
2026-01-22 09:06:05.58	0.54	17.22	-29.7	-31.1	13.8	8.30e-06	0	44	0	969932800	19	4262
2026-01-22 09:06:06.59	0.40	17.13	-29.8	-31.6	13.5	1.52e-05	0	43	0	972029952	19	4409
2026-01-22 09:06:07.59	0.26	17.04	-29.7	-31.2	13.7	1.06e-05	0	43	0	973078528	19	4279
2026-01-22 09:06:08.60	0.12	16.94	-29.8	-31.5	13.5	6.10e-06	0	43	0	975175680	19	4368
2026-01-22 09:06:09.61	359.98	16.85	-29.8	-31.5	13.5	1.44e-05	0	43	0	977272832	19	4370
2026-01-22 09:06:10.62	359.84	16.76	-29.6	-30.9	13.9	4.50e-06	0	43	0	979369984	19	4198
2026-01-22 09:06:11.63	359.70	16.67	-29.8	-31.6	13.5	4.50e-06	0	43	0	981467136	19	4396
2026-01-22 09:06:12.62	359.57	16.58	-29.7	-31.3	13.6	7.60e-06	0	43	0	982515712	19	4315
2026-01-22 09:06:13.62	359.44	16.49	-29.7	-31.2	13.7	5.30e-06	0	43	0	984612864	19	4270
2026-01-22 09:06:14.63	359.30	16.40	-29.6	-31.0	13.8	3.00e-06	0	43	0	986710016	19	4219
2026-01-22 09:06:15.63	359.17	16.31	-29.9	-31.9	13.2	1.29e-05	0	43	0	988807168	19	4491
2026-01-22 09:06:16.63	359.04	16.22	-30.2	-32.1	12.7	5.56e-05	0	43	0	990904320	20	4490
2026-01-22 09:06:17.64	358.90	16.13	-30.5	-32.6	11.9	2.17e-04	0	43	0	991952896	21	4594
2026-01-22 09:06:18.64	358.77	16.04	-30.9	-33.7	11.2	5.52e-04	0	43	0	994050048	21	4999
2026-01-22 09:06:19.64	358.64	15.95	-31.1	-34.0	10.7	2.33e-03	0	43	0	996147200	22	5009
2026-01-22 09:06:20.64	358.52	15.86	-31.2	-34.4	10.3	4.00e-03	0	43	0	998244352	22	5192
2026-01-22 09:06:21.64	358.39	15.77	-31.1	-34.0	10.6	6.24e-03	0	43	0	999292928	22	5019
2026-01-22 09:06:22.64	358.26	15.68	-31.1	-33.9	10.7	3.19e-03	0	43	0	1001390080	22	4994
2026-01-22 09:06:23.65	358.13	15.59	-30.9	-33.2	11.2	2.09e-03	0	43	0	1003487232	22	4724
2026-01-22 09:06:24.65	358.01	15.50	-30.8	-33.1	11.3	1.36e-03	0	43	0	1005584384	22	4650
2026-01-22 09:06:25.65	357.88	15.42	-30.8	-32.9	11.4	1.12e-03	0	43	0	1007681536	22	4593
2026-01-22 09:06:26.66	357.76	15.33	-30.5	-32.1	11.9	7.69e-04	0	43	0	1008730112	22	4323
2026-01-22 09:06:27.66	357.63	15.24	-30.1	-31.3	12.8	1.20e-04	0	43	0	1010827264	21	4168
2026-01-22 09:06:28.67	357.51	15.15	-29.7	-30.7	13.5	2.21e-05	0	43	0	1012924416	20	4071
2026-01-22 09:06:29.67	357.39	15.06	-29.5	-30.4	13.7	2.20e-06	0	43	0	1015021568	20	3971
2026-01-22 09:06:30.67	357.27	14.98	-29.4	-30.1	13.9	3.80e-06	0	43	0	1017118720	20	3885
2026-01-22 09:06:31.67	357.15	14.89	-29.6	-30.6	13.5	6.10e-06	0	43	0	1018167296	20	4051
2026-01-22 09:06:32.67	357.03	14.80	-29.9	-31.4	13.1	2.59e-05	0	44	0	1020264448	20	4265
2026-01-22 09:06:33.68	356.91	14.71	-30.1	-32.0	12.6	6.10e-05	0	43	0	1022361600	20	4469
2026-01-22 09:06:34.68	356.79	14.63	-30.4	-32.8	12.1	1.39e-04	0	43	0	1024458752	20	4749
2026-01-22 09:06:35.69	356.67	14.54	-30.4	-33.0	11.9	2.90e-04	0	43	0	1026555904	20	4824
2026-01-22 09:06:36.69	356.55	14.46	-30.6	-32.9	11.6	5.26e-04	0	43	0	1027604480	21	4695
2026-01-22 09:06:37.69	356.44	14.37	-30.6	-33.1	11.5	6.53e-04	0	43	0	1029701632	21	4768
2026-01-22 09:06:38.69	356.32	14.28	-30.7	-33.4	11.3	1.24e-03	0	43	0	1031798784	21	4901
2026-01-22 09:06:39.69	356.21	14.20	-30.6	-33.0	11.5	8.91e-04	0	43	0	1033895936	21	4749
2026-01-22 09:06:40.68	356.10	14.11	-30.5	-32.8	11.7	8.42e-04	0	43	0	1035993088	21	4666
2026-01-22 09:06:41.68	355.98	14.03	-30.5	-32.7	11.7	7.07e-04	0	44	0	1037041664	21	4644
2026-01-22 09:06:42.68	355.87	13.94	-30.6	-32.9	11.6	9.46e-04	0	43	0	1039138816	21	4708
2026-01-22 09:06:43.68	355.76	13.86	-30.5	-32.7	11.8	6.38e-04	0	44	0	1041235968	21	4640
2026-01-22 09:06:44.68	355.65	13.77	-30.6	-32.9	11.6	5.57e-04	0	43	0	1043333120	21	4692
2026-01-22 09:06:45.69	355.53	13.69	-30.7	-33.3	11.3	7.16e-04	0	43	0	1044381696	21	4864
2026-01-22 09:06:46.69	355.42	13.60	-30.5	-32.7	11.7	6.56e-04	0	43	0	1046478848	21	4631
2026-01-22 09:06:47.70	355.31	13.52	-30.4	-32.4	11.9	3.97e-04	0	44	0	1048576000	21	4546
2026-01-22 09:06:48.70	355.20	13.44	-30.3	-32.1	12.1	3.84e-04	0	43	0	1050673152	21	4425
2026-01-22 09:06:49.70	355.10	13.35	-30.3	-32.2	12.1	2.87e-04	0	43	0	1052770304	21	4454
2026-01-22 09:06:50.70	354.99	13.27	-30.4	-32.4	11.9	3.13e-04	0	43	0	1053818880	21	4533
2026-01-22 09:06:51.70	354.88	13.18	-30.5	-32.6	11.7	5.11e-04	0	43	0	1055916032	21	4623
2026-01-22 09:06:52.70	354.78	13.10	-30.5	-32.7	11.7	6.48e-04	0	43	0	1058013184	21	4631
2026-01-22 09:06:53.71	354.67	13.02	-30.4	-32.4	11.9	4.90e-04	0	43	0	1060110336	21	4530
2026-01-22 09:06:54.71	354.56	12.93	-30.5	-32.7	11.6	6.36e-04	0	43	0	1062207488	21	4658
2026-01-22 09:06:55.71	354.46	12.85	-30.5	-32.6	11.6	8.36e-04	0	43	0	1063256064	21	4613
2026-01-22 09:06:56.72	354.36	12.77	-30.6	-33.1	11.3	8.32e-04	0	43	0	1065353216	21	4800
2026-01-22 09:06:57.73	354.25	12.69	-30.6	-33.1	11.4	1.11e-03	0	43	0	1067450368	21	4781
2026-01-22 09:06:58.73	354.15	12.60	-30.5	-32.8	11.6	9.77e-04	0	43	0	1069547520	21	4679
2026-01-22 09:06:59.73	354.05	12.52	-30.6	-33.0	11.3	1.01e-03	0	43	0	1071644672	21	4759
2026-01-22 09:07:00.74	353.94	12.44	-30.7	-33.3	11.2	1.34e-03	0	43	0	1072693248	21	4885
2026-01-22 09:07:01.74	353.84	12.36	-30.5	-32.9	11.4	1.21e-03	0	43	0	1074790400	21	4712
2026-01-22 09:07:02.75	353.74	12.28	-30.4	-32.3	11.9	5.90e-04	0	43	0	1076887552	21	4510
2026-01-22 09:07:03.74	353.64	12.20	-30.2	-32.0	12.1	2.68e-04	0	43	0	1078984704	21	4391
2026-01-22 09:07:04.75	353.54	12.11	-30.1	-31.5	12.5	1.76e-04	0	43	0	1081081856	21	4241
2026-01-22 09:07:05.75	353.44	12.03	-30.0	-31.3	12.6	1.01e-04	0	43	0	1082130432	21	4189
2026-01-22 09:07:06.75	353.35	11.95	-29.9	-31.1	12.7	7.01e-05	0	43	0	1084227584	21	4104
2026-01-22 09:07:07.75	353.25	11.87	-29.9	-30.9	12.8	6.40e-05	0	43	0	1086324736	21	4050
2026-01-22 09:07:08.75	353.15	11.79	-29.9	-31.1	12.7	5.72e-05	0	44	0	1088421888	21	4116
2026-01-22 09:07:09.75	353.06	11.71	-30.1	-31.5	12.4	8.54e-05	0	43	0	1089470464	21	4255
2026-01-22 09:07:10.75	352.96	11.63	-30.1	-31.7	12.3	1.72e-04	0	43	0	1091567616	21	4309
2026-01-22 09:07:11.75	352.87	11.55	-30.3	-32.1	12.0	2.08e-04	0	43	0	1093664768	21	4437
2026-01-22 09:07:12.76	352.77	11.47	-30.3	-32.3	11.9	4.23e-04	0	43	0	1095761920	21	4502
2026-01-22 09:07:13.76	352.68	11.39	-30.6	-33.0	11.4	7.76e-04	0	43	0	1097859072	21	4758
2026-01-22 09:07:14.76	352.58	11.31	-30.6	-33.2	11.1	1.34e-03	0	43	0	1098907648	21	4862
2026-01-22 09:07:15.77	352.49	11.23	-30.9	-34.0	10.5	2.28e-03	0	43	0	1101004800	21	5172
2026-01-22 09:07:16.78	352.39	11.15	-31.0	-34.4	10.3	4.90e-03	0	43	0	1103101952	21	5321
2026-01-22 09:07:17.78	352.30	11.07	-31.1	-34.4	9.9	6.79e-03	0	43	0	1105199104	22	5248
2026-01-22 09:07:18.79	352.21	11.00	-31.2	-34.7	9.7	1.08e-02	0	43	0	1107296256	22	5371
2026-01-22 09:07:19.79	352.12	10.92	-31.4	-35.5	9.1	1.34e-02	0	44	0	1108344832	22	5749
2026-01-22 09:07:20.80	352.03	10.84	-31.4	-35.4	9.2	2.11e-02	0	43	0	1110441984	22	5706
2026-01-22 09:07:21.81	351.94	10.76	-31.3	-35.2	9.4	1.78e-02	0	43	0	1112539136	22	5595
2026-01-22 09:07:22.81	351.85	10.68	-31.3	-35.1	9.4	1.72e-02	0	43	0	1114636288	22	5546
2026-01-22 09:07:23.81	351.76	10.60	-31.2	-34.8	9.6	1.28e-02	0	43	0	1116733440	22	5420
2026-01-22 09:07:24.81	351.67	10.53	-31.2	-34.8	9.6	1.33e-02	0	43	0	1117782016	22	5422
2026-01-22 09:07:25.82	351.58	10.45	-31.2	-34.6	9.8	1.40e-02	0	43	0	1119879168	22	5325
2026-01-22 09:07:26.82	351.49	10.37	-31.1	-34.3	10.0	9.58e-03	0	43	0	1121976320	22	5208
2026-01-22 09:07:27.83	351.40	10.29	-31.1	-34.5	9.8	9.36e-03	0	43	0	1124073472	22	5285
2026-01-22 09:07:28.83	351.32	10.22	-31.1	-34.3	9.9	7.96e-03	0	43	0	1126170624	22	5205
2026-01-22 09:07:29.83	351.23	10.14	-30.9	-33.8	10.4	5.52e-03	0	43	0	1127219200	22	4991
2026-01-22 09:07:30.84	351.15	10.06	-30.8	-33.5	10.5	3.70e-03	0	43	0	1129316352	22	4880
2026-01-22 09:07:31.83	351.06	9.99	-30.9	-33.6	10.4	3.96e-03	0	43	0	1131413504	22	4924
2026-01-22 09:07:32.84	350.98	9.91	-30.9	-33.5	10.4	4.39e-03	0	43	0	1133510656	22	4906
2026-01-22 09:07:33.84	350.89	9.84	-30.9	-33.5	10.5	2.93e-03	0	44	0	1135607808	22	4885
2026-01-22 09:07:34.84	350.81	9.76	-30.8	-33.3	10.7	3.31e-03	0	43	0	1136656384	22	4792
2026-01-22 09:07:35.84	350.72	9.69	-30.7	-33.1	10.8	2.86e-03	0	43	0	1138753536	22	4714
2026-01-22 09:07:36.85	350.64	9.61	-30.8	-33.2	10.7	2.50e-03	0	43	0	1140850688	22	4772
2026-01-22 09:07:37.85	350.56	9.53	-30.7	-32.9	10.9	2.51e-03	0	43	0	1142947840	22	4660
2026-01-22 09:07:38.86	350.48	9.46	-30.5	-32.3	11.3	1.77e-03	0	43	0	1145044992	22	4464
2026-01-22 09:07:39.86	350.39	9.38	-30.5	-32.5	11.2	1.39e-03	0	44	0	1146093568	22	4523
2026-01-22 09:07:40.87	350.31	9.31	-30.5	-32.5	11.2	1.18e-03	0	43	0	1148190720	22	4507
2026-01-22 09:07:41.87	350.23	9.23	-30.7	-33.0	10.9	1.78e-03	0	43	0	1150287872	22	4677
2026-01-22 09:07:42.87	350.15	9.16	-30.6	-32.7	11.1	2.10e-03	0	43	0	1152385024	22	4572
2026-01-22 09:07:43.87	350.07	9.09	-30.5	-32.4	11.3	1.36e-03	0	43	0	1153433600	22	4469
2026-01-22 09:07:44.87	349.99	9.01	-30.3	-31.8	11.6	8.03e-04	0	43	0	1155530752	22	4289
2026-01-22 09:07:45.88	349.91	8.94	-30.3	-32.3	11.6	6.26e-04	0	43	0	1157627904	21	4547
2026-01-22 09:07:46.89	349.83	8.86	-30.3	-32.4	11.5	6.92e-04	0	43	0	1159725056	21	4580
2026-01-22 09:07:47.89	349.75	8.79	-30.4	-32.6	11.3	1.04e-03	0	43	0	1161822208	21	4671
2026-01-22 09:07:48.89	349.68	8.72	-30.5	-33.1	11.1	1.20e-03	0	43	0	1162870784	21	4827
2026-01-22 09:07:49.90	349.60	8.64	-30.5	-33.1	11.0	1.81e-03	0	43	0	1164967936	21	4826
2026-01-22 09:07:50.90	349.52	8.57	-30.5	-33.1	10.9	2.24e-03	0	43	0	1167065088	21	4849
2026-01-22 09:07:51.90	349.44	8.50	-30.6	-33.5	10.7	2.72e-03	0	43	0	1169162240	21	5009
2026-01-22 09:07:52.91	349.37	8.42	-30.7	-33.7	10.5	3.82e-03	0	43	0	1171259392	21	5083
2026-01-22 09:07:53.91	349.29	8.35	-30.7	-33.7	10.5	3.66e-03	0	43	0	1172307968	21	5075
2026-01-22 09:07:54.91	349.22	8.28	-30.7	-33.7	10.5	4.11e-03	0	43	0	1174405120	21	5111
2026-01-22 09:07:55.92	349.14	8.20	-30.8	-34.0	10.2	5.41e-03	0	44	0	1176502272	21	5229
2026-01-22 09:07:56.93	349.07	8.13	-30.8	-34.1	10.2	7.50e-03	0	43	0	1178599424	21	5275
2026-01-22 09:07:57.93	348.99	8.06	-30.8	-34.2	10.1	6.90e-03	0	43	0	1180696576	21	5319
2026-01-22 09:07:58.92	348.92	7.99	-30.9	-34.6	9.8	8.96e-03	0	44	0	1181745152	21	5485
2026-01-22 09:07:59.93	348.84	7.92	-30.9	-34.4	9.9	8.69e-03	0	44	0	1183842304	21	5400
2026-01-22 09:08:00.93	348.77	7.84	-31.0	-34.7	9.7	1.00e-02	0	43	0	1185939456	21	5553
2026-01-22 09:08:01.94	348.70	7.77	-31.0	-34.4	9.5	1.32e-02	0	43	0	1188036608	22	5316
2026-01-22 09:08:02.94	348.63	7.70	-31.1	-34.7	9.3	1.65e-02	0	43	0	1190133760	22	5468
2026-01-22 09:08:03.95	348.55	7.63	-31.0	-34.4	9.5	1.87e-02	0	43	0	1191182336	22	5328
2026-01-22 09:08:04.94	348.48	7.56	-30.9	-34.1	9.7	1.21e-02	0	43	0	1193279488	22	5195
2026-01-22 09:08:05.95	348.41	7.49	-30.9	-33.9	9.9	9.32e-03	0	43	0	1195376640	22	5092
2026-01-22 09:08:06.95	348.34	7.42	-30.9	-34.1	9.7	1.03e-02	0	43	0	1197473792	22	5203
2026-01-22 09:08:07.96	348.27	7.35	-30.9	-34.2	9.6	1.10e-02	0	44	0	1199570944	22	5219
2026-01-22 09:08:08.97	348.20	7.28	-31.0	-34.3	9.6	1.23e-02	0	43	0	1200619520	22	5261
2026-01-22 09:08:09.97	348.13	7.21	-31.0	-34.4	9.5	1.58e-02	0	43	0	1202716672	22	5303
2026-01-22 09:08:10.97	348.06	7.14	-31.0	-34.6	9.3	1.56e-02	0	43	0	1204813824	22	5395
2026-01-22 09:08:11.97	347.99	7.07	-32.9	-44.1	3.8	1.38e+00	0	44	104	1205862400	25	13158
2026-01-22 09:08:12.98	347.92	7.00	-33.3	-45.7	3.8	1.49e+00	0	43	104	1205862400	26	14996
2026-01-22 09:08:13.97	347.85	6.93	-33.5	-45.8	3.8	1.49e+00	0	43	104	1205862400	27	14811
2026-01-22 09:08:14.97	347.78	6.86	-33.7	-46.1	3.8	1.49e+00	0	43	104	1205862400	27	15046

#Closed at: 2026-01-22 09:08:15
#Recorded file [1205 MB]: D:/data/31010_260122_115728.dat