passes_logs/2026/01/22/R2M6_AANII_01/R2M6_AANII_01__20260122_091729_NOAA_20_JPSS-1_rec.log

#Pass ID: 20260122_091729_NOAA 20 (JPSS-1)
#Satellite: NOAA 20 (JPSS-1)
#Configuration: NOAA 20
#almurnet v.1.7.20240730
#Start time: 2026-01-22 09:17:30

#Version: 2.2.20231116
#Station: R2M6_AANII_01
#Location: 30.233357 lon 59.946436 lat
#TLE: 1 43013U 17073A   26021.46221703  .00000173  00000+0  10299-3 0  9999
#TLE: 2 43013  98.7644 322.3335 0001238  29.7597 330.3649 14.19538314423652

#Time	Az	El	Level	Level2	SNR	BER	BlckErr	Temp	State	Recorded	gain1	gain2
2026-01-22 09:17:30.33	128.34	7.03	-31.3	-36.7	5.1	1.26e+00	0	41	0	0	24	6708
2026-01-22 09:17:31.33	128.29	7.10	-31.3	-36.9	5.1	1.26e+00	0	41	104	0	23	6851
2026-01-22 09:17:32.33	128.24	7.18	-31.2	-36.5	8.7	3.65e-02	0	41	0	0	23	6617
2026-01-22 09:17:33.33	128.19	7.25	-31.2	-36.6	8.6	4.29e-02	0	41	0	1048576	23	6676
2026-01-22 09:17:34.34	128.13	7.33	-31.0	-35.9	9.1	2.71e-02	0	41	0	3145728	23	6345
2026-01-22 09:17:35.35	128.08	7.40	-31.1	-35.9	9.2	2.19e-02	0	41	0	5242880	23	6264
2026-01-22 09:17:36.35	128.03	7.48	-31.1	-35.9	9.2	2.14e-02	0	41	0	7340032	23	6285
2026-01-22 09:17:37.36	127.98	7.55	-31.1	-35.8	9.4	2.10e-02	0	41	0	9437184	23	6209
2026-01-22 09:17:38.36	127.93	7.63	-30.8	-35.0	10.0	9.71e-03	0	41	0	10485760	23	5774
2026-01-22 09:17:39.37	127.87	7.71	-30.8	-35.4	10.0	6.84e-03	0	41	0	12582912	22	6121
2026-01-22 09:17:40.37	127.82	7.78	-30.9	-35.8	9.7	1.17e-02	0	41	0	14680064	22	6291
2026-01-22 09:17:41.37	127.77	7.86	-31.0	-35.8	9.7	8.89e-03	0	41	0	16777216	22	6325
2026-01-22 09:17:42.37	127.71	7.93	-31.0	-36.1	9.5	1.43e-02	0	41	0	17825792	22	6481
2026-01-22 09:17:43.38	127.66	8.01	-31.0	-36.0	9.6	1.22e-02	0	41	0	19922944	22	6389
2026-01-22 09:17:44.38	127.61	8.09	-31.0	-36.0	9.7	1.12e-02	0	42	0	22020096	22	6383
2026-01-22 09:17:45.39	127.55	8.16	-31.0	-36.0	9.6	1.23e-02	0	42	0	24117248	22	6421
2026-01-22 09:17:46.38	127.50	8.24	-31.0	-36.1	9.5	1.31e-02	0	41	0	26214400	22	6478
2026-01-22 09:17:47.38	127.44	8.32	-31.0	-36.1	9.6	1.57e-02	0	42	0	28311552	22	6429
2026-01-22 09:17:48.39	127.39	8.40	-30.9	-35.6	9.9	9.88e-03	0	42	0	29360128	22	6163
2026-01-22 09:17:49.39	127.33	8.47	-30.7	-35.0	10.4	6.70e-03	0	42	0	31457280	22	5886
2026-01-22 09:17:50.40	127.27	8.55	-30.7	-34.7	10.7	3.34e-03	0	42	0	33554432	22	5714
2026-01-22 09:17:51.40	127.22	8.63	-30.7	-34.7	10.7	2.91e-03	0	41	0	35651584	22	5722
2026-01-22 09:17:52.41	127.16	8.71	-30.7	-34.9	10.6	3.02e-03	0	42	0	36700160	22	5803
2026-01-22 09:17:53.41	127.11	8.79	-30.7	-34.9	10.5	3.70e-03	0	42	0	38797312	22	5828
2026-01-22 09:17:54.41	127.05	8.87	-30.9	-35.4	10.2	7.08e-03	0	42	0	40894464	22	6061
2026-01-22 09:17:55.42	126.99	8.95	-30.7	-34.8	10.6	4.14e-03	0	42	0	42991616	22	5792
2026-01-22 09:17:56.42	126.93	9.02	-30.6	-34.3	11.0	2.60e-03	0	42	0	45088768	22	5537
2026-01-22 09:17:57.42	126.87	9.10	-30.4	-33.8	11.4	1.20e-03	0	42	0	46137344	22	5313
2026-01-22 09:17:58.43	126.82	9.18	-30.3	-33.5	11.6	8.17e-04	0	42	0	48234496	22	5199
2026-01-22 09:17:59.43	126.76	9.26	-30.3	-33.4	11.7	5.93e-04	0	42	0	50331648	22	5158
2026-01-22 09:18:00.44	126.70	9.34	-30.2	-33.7	11.8	7.29e-04	0	42	0	52428800	21	5410
2026-01-22 09:18:01.44	126.64	9.42	-30.1	-33.4	12.1	6.92e-04	0	42	0	54525952	21	5238
2026-01-22 09:18:02.45	126.58	9.51	-30.0	-33.1	12.3	2.21e-04	0	42	0	55574528	21	5135
2026-01-22 09:18:03.45	126.52	9.59	-30.0	-33.2	12.2	2.25e-04	0	42	0	57671680	21	5150
2026-01-22 09:18:04.46	126.46	9.67	-30.1	-33.2	12.2	2.54e-04	0	42	0	59768832	21	5182
2026-01-22 09:18:05.47	126.39	9.75	-30.1	-33.3	12.1	2.90e-04	0	42	0	61865984	21	5211
2026-01-22 09:18:06.47	126.33	9.83	-30.2	-33.5	12.0	3.75e-04	0	42	0	63963136	21	5303
2026-01-22 09:18:07.47	126.27	9.91	-30.2	-33.7	11.9	3.77e-04	0	42	0	65011712	21	5366
2026-01-22 09:18:08.48	126.21	10.00	-30.3	-34.0	11.7	4.87e-04	0	42	0	67108864	21	5504
2026-01-22 09:18:09.48	126.15	10.08	-30.3	-33.9	11.8	7.06e-04	0	42	0	69206016	21	5444
2026-01-22 09:18:10.49	126.08	10.16	-30.3	-34.0	11.7	5.82e-04	0	42	0	71303168	21	5490
2026-01-22 09:18:11.49	126.02	10.24	-30.3	-34.0	11.7	6.17e-04	0	42	0	73400320	21	5508
2026-01-22 09:18:12.49	125.96	10.33	-30.4	-34.2	11.5	6.73e-04	0	42	0	74448896	21	5607
2026-01-22 09:18:13.49	125.89	10.41	-30.4	-34.4	11.4	1.18e-03	0	42	0	76546048	21	5653
2026-01-22 09:18:14.49	125.83	10.49	-30.4	-34.2	11.5	1.17e-03	0	42	0	78643200	21	5597
2026-01-22 09:18:15.50	125.77	10.58	-30.2	-33.7	11.9	4.91e-04	0	42	0	80740352	21	5355
2026-01-22 09:18:16.50	125.70	10.66	-30.2	-33.8	11.8	3.56e-04	0	42	0	82837504	21	5415
2026-01-22 09:18:17.50	125.64	10.74	-30.3	-33.9	11.7	5.66e-04	0	42	0	83886080	21	5463
2026-01-22 09:18:18.50	125.57	10.83	-30.3	-33.9	11.6	6.68e-04	0	42	0	85983232	21	5489
2026-01-22 09:18:19.50	125.50	10.91	-30.4	-34.2	11.4	8.65e-04	0	42	0	88080384	21	5609
2026-01-22 09:18:20.50	125.44	11.00	-30.3	-34.1	11.5	1.04e-03	0	42	0	90177536	21	5560
2026-01-22 09:18:21.51	125.37	11.08	-30.2	-33.6	11.7	7.16e-04	0	42	0	91226112	21	5369
2026-01-22 09:18:22.51	125.30	11.17	-30.1	-33.4	11.9	7.83e-04	0	43	0	93323264	21	5265
2026-01-22 09:18:23.51	125.23	11.25	-30.0	-33.1	12.2	5.26e-04	0	42	0	95420416	21	5147
2026-01-22 09:18:24.51	125.17	11.34	-30.0	-33.1	12.2	2.13e-04	0	42	0	97517568	21	5112
2026-01-22 09:18:25.52	125.10	11.43	-29.9	-32.8	12.4	1.64e-04	0	42	0	99614720	21	5030
2026-01-22 09:18:26.52	125.03	11.51	-29.8	-32.6	12.5	1.62e-04	0	42	0	100663296	21	4961
2026-01-22 09:18:27.52	124.96	11.60	-29.9	-32.6	12.5	1.71e-04	0	42	0	102760448	21	4946
2026-01-22 09:18:28.53	124.89	11.69	-29.9	-32.8	12.4	1.19e-04	0	42	0	104857600	21	5022
2026-01-22 09:18:29.53	124.82	11.77	-30.0	-32.9	12.5	1.38e-04	0	42	0	106954752	21	5033
2026-01-22 09:18:30.53	124.75	11.86	-30.1	-33.1	12.4	1.54e-04	0	42	0	109051904	21	5103
2026-01-22 09:18:31.54	124.68	11.95	-30.1	-33.1	12.3	4.44e-04	0	42	0	110100480	21	5115
2026-01-22 09:18:32.53	124.61	12.04	-30.1	-33.2	12.3	1.85e-04	0	42	0	112197632	21	5137
2026-01-22 09:18:33.53	124.53	12.13	-30.1	-33.0	12.5	1.40e-04	0	43	0	114294784	21	5059
2026-01-22 09:18:34.54	124.46	12.22	-30.0	-32.9	12.6	1.02e-04	0	42	0	116391936	21	5008
2026-01-22 09:18:35.54	124.39	12.30	-30.0	-32.9	12.6	3.77e-04	0	43	0	118489088	21	5022
2026-01-22 09:18:36.54	124.31	12.39	-30.1	-33.0	12.6	1.08e-04	0	43	0	119537664	21	5056
2026-01-22 09:18:37.54	124.24	12.48	-30.1	-33.0	12.6	9.00e-05	0	42	0	121634816	21	5042
2026-01-22 09:18:38.55	124.17	12.57	-30.1	-33.2	12.4	1.44e-04	0	43	0	123731968	21	5146
2026-01-22 09:18:39.55	124.09	12.66	-30.2	-33.4	12.3	1.21e-04	0	42	0	125829120	21	5223
2026-01-22 09:18:40.55	124.02	12.75	-30.2	-33.5	12.3	4.94e-04	0	43	0	127926272	21	5245
2026-01-22 09:18:41.55	123.94	12.84	-30.2	-33.5	12.3	1.94e-04	0	42	0	128974848	21	5258
2026-01-22 09:18:42.56	123.86	12.94	-30.2	-33.5	12.3	2.20e-04	0	43	0	131072000	21	5257
2026-01-22 09:18:43.56	123.79	13.03	-30.2	-33.3	12.4	1.46e-04	0	43	0	133169152	21	5188
2026-01-22 09:18:44.57	123.71	13.12	-30.1	-33.1	12.6	4.01e-04	0	43	0	135266304	21	5093
2026-01-22 09:18:45.57	123.63	13.21	-30.0	-32.8	12.8	7.32e-05	0	43	0	136314880	21	4984
2026-01-22 09:18:46.58	123.55	13.30	-30.0	-33.0	12.7	6.94e-05	0	43	0	138412032	21	5035
2026-01-22 09:18:47.58	123.47	13.39	-30.1	-33.0	12.7	1.03e-04	0	43	0	140509184	21	5035
2026-01-22 09:18:48.58	123.40	13.49	-30.0	-32.8	12.9	3.97e-04	0	43	0	142606336	21	4953
2026-01-22 09:18:49.58	123.32	13.58	-30.0	-32.8	12.9	5.56e-05	0	43	0	144703488	21	4968
2026-01-22 09:18:50.57	123.24	13.67	-30.0	-32.8	12.8	4.34e-05	0	43	0	145752064	21	4963
2026-01-22 09:18:51.57	123.16	13.77	-30.1	-33.1	12.7	6.17e-05	0	43	0	147849216	21	5084
2026-01-22 09:18:52.58	123.07	13.86	-30.2	-33.3	12.6	1.16e-04	0	43	0	149946368	21	5137
2026-01-22 09:18:53.58	122.99	13.95	-30.1	-33.1	12.7	4.16e-04	0	43	0	152043520	21	5084
2026-01-22 09:18:54.59	122.91	14.05	-30.1	-33.1	12.7	7.55e-05	0	43	0	154140672	21	5071
2026-01-22 09:18:55.59	122.83	14.14	-30.2	-33.2	12.6	8.01e-05	0	43	0	155189248	21	5085
2026-01-22 09:18:56.60	122.74	14.24	-30.1	-33.1	12.7	9.15e-05	0	43	0	157286400	21	5060
2026-01-22 09:18:57.61	122.66	14.34	-30.2	-33.2	12.7	2.77e-04	0	43	0	159383552	21	5086
2026-01-22 09:18:58.61	122.57	14.43	-30.2	-33.2	12.7	7.17e-05	0	43	0	161480704	21	5112
2026-01-22 09:18:59.62	122.49	14.53	-30.2	-33.2	12.7	8.16e-05	0	43	0	163577856	21	5090
2026-01-22 09:19:00.63	122.40	14.63	-30.1	-33.1	12.7	6.25e-05	0	43	0	164626432	21	5070
2026-01-22 09:19:01.63	122.31	14.72	-30.0	-33.0	12.7	2.94e-04	0	43	0	166723584	21	5057
2026-01-22 09:19:02.63	122.23	14.82	-30.2	-33.3	12.6	7.85e-05	0	43	0	168820736	21	5144
2026-01-22 09:19:03.63	122.14	14.92	-30.2	-33.2	12.7	7.47e-05	0	43	0	170917888	21	5075
2026-01-22 09:19:04.64	122.05	15.01	-30.1	-33.0	12.9	4.42e-05	0	43	0	173015040	21	5015
2026-01-22 09:19:05.64	121.96	15.11	-30.1	-33.0	12.9	1.91e-04	0	43	0	174063616	21	5009
2026-01-22 09:19:06.65	121.87	15.21	-30.2	-33.1	12.8	2.76e-04	0	43	0	176160768	21	5051
2026-01-22 09:19:07.65	121.78	15.31	-30.2	-33.3	12.7	6.94e-05	0	43	0	178257920	21	5135
2026-01-22 09:19:08.65	121.69	15.41	-30.2	-33.2	12.8	7.70e-05	0	43	0	180355072	21	5101
2026-01-22 09:19:09.65	121.60	15.51	-30.1	-33.0	12.9	6.02e-05	0	43	0	182452224	21	4993
2026-01-22 09:19:10.66	121.51	15.61	-30.2	-33.1	12.8	2.26e-04	0	43	0	183500800	21	5059
2026-01-22 09:19:11.67	121.42	15.71	-30.1	-32.8	13.0	5.03e-05	0	43	0	185597952	21	4949
2026-01-22 09:19:12.67	121.32	15.81	-30.0	-32.7	13.1	3.12e-05	0	43	0	187695104	21	4915
2026-01-22 09:19:13.67	121.23	15.91	-30.0	-32.8	13.1	3.20e-05	0	43	0	189792256	21	4931
2026-01-22 09:19:14.68	121.13	16.01	-30.1	-33.0	12.9	4.40e-04	0	43	0	191889408	21	5015
2026-01-22 09:19:15.68	121.04	16.11	-30.1	-33.0	12.9	4.27e-05	0	43	0	192937984	21	5021
2026-01-22 09:19:16.68	120.94	16.21	-30.1	-33.1	12.8	3.58e-05	0	43	0	195035136	21	5069
2026-01-22 09:19:17.68	120.85	16.31	-30.2	-33.2	12.8	5.95e-05	0	43	0	197132288	21	5114
2026-01-22 09:19:18.68	120.75	16.42	-30.1	-32.9	13.0	3.91e-04	0	43	0	199229440	21	5001
2026-01-22 09:19:19.68	120.65	16.52	-29.9	-32.5	13.3	1.75e-05	0	43	0	201326592	21	4852
2026-01-22 09:19:20.68	120.56	16.62	-29.9	-32.3	13.4	1.44e-05	0	43	0	202375168	21	4783
2026-01-22 09:19:21.69	120.46	16.73	-29.9	-32.5	13.3	1.75e-05	0	43	0	204472320	21	4821
2026-01-22 09:19:22.69	120.36	16.83	-29.9	-32.5	13.2	2.21e-05	0	43	0	206569472	21	4863
2026-01-22 09:19:23.69	120.26	16.93	-30.0	-32.7	13.2	4.13e-04	0	43	0	208666624	21	4916
2026-01-22 09:19:24.69	120.16	17.04	-30.0	-32.8	13.2	2.82e-05	0	43	0	209715200	21	4937
2026-01-22 09:19:25.70	120.05	17.14	-30.0	-32.7	13.2	3.28e-05	0	43	0	211812352	21	4894
2026-01-22 09:19:26.70	119.95	17.25	-30.1	-32.9	13.1	3.20e-05	0	43	0	213909504	21	4974
2026-01-22 09:19:27.70	119.85	17.35	-30.1	-33.1	12.9	4.27e-04	0	43	0	216006656	21	5049
2026-01-22 09:19:28.70	119.74	17.46	-30.0	-32.7	13.2	3.28e-05	0	43	0	218103808	21	4911
2026-01-22 09:19:29.69	119.64	17.56	-30.0	-32.6	13.3	1.06e-05	0	43	0	219152384	21	4846
2026-01-22 09:19:30.70	119.53	17.67	-30.1	-32.8	13.1	2.21e-05	0	43	0	221249536	21	4950
2026-01-22 09:19:31.70	119.43	17.78	-30.2	-33.2	12.8	4.10e-04	0	43	0	223346688	21	5091
2026-01-22 09:19:32.71	119.32	17.89	-30.2	-33.1	12.9	5.72e-05	0	43	0	225443840	21	5065
2026-01-22 09:19:33.71	119.21	17.99	-30.1	-32.8	13.2	3.96e-05	0	43	0	227540992	21	4948
2026-01-22 09:19:34.72	119.10	18.10	-30.1	-32.8	13.1	3.81e-05	0	43	0	228589568	21	4941
2026-01-22 09:19:35.72	118.99	18.21	-30.0	-32.6	13.3	1.37e-05	0	43	0	230686720	21	4852
2026-01-22 09:19:36.72	118.88	18.32	-29.9	-32.4	13.5	5.29e-04	0	43	0	232783872	21	4788
2026-01-22 09:19:37.72	118.77	18.43	-29.8	-32.2	13.6	1.14e-05	0	43	0	234881024	21	4703
2026-01-22 09:19:38.72	118.66	18.54	-29.9	-32.2	13.6	9.10e-06	0	43	0	236978176	21	4720
2026-01-22 09:19:39.73	118.55	18.65	-29.8	-32.1	13.6	1.06e-05	0	43	0	238026752	21	4690
2026-01-22 09:19:40.73	118.43	18.76	-29.9	-32.7	13.6	3.41e-04	0	43	0	240123904	20	5003
2026-01-22 09:19:41.74	118.32	18.87	-29.8	-32.7	13.6	9.90e-06	0	43	0	242221056	20	4991
2026-01-22 09:19:42.74	118.20	18.98	-29.9	-32.8	13.5	1.14e-05	0	43	0	244318208	20	5056
2026-01-22 09:19:43.75	118.09	19.09	-29.9	-32.9	13.4	1.14e-05	0	43	0	246415360	20	5093
2026-01-22 09:19:44.75	117.97	19.20	-29.9	-32.9	13.4	1.14e-05	0	43	0	247463936	20	5100
2026-01-22 09:19:45.76	117.85	19.32	-30.0	-33.1	13.4	1.90e-05	0	43	0	249561088	20	5144
2026-01-22 09:19:46.77	117.73	19.43	-29.9	-33.0	13.4	1.29e-05	0	43	0	251658240	20	5108
2026-01-22 09:19:47.77	117.61	19.54	-30.0	-33.1	13.3	1.22e-05	0	43	0	253755392	20	5171
2026-01-22 09:19:48.77	117.49	19.65	-30.0	-33.2	13.3	2.21e-05	0	43	0	254803968	20	5208
2026-01-22 09:19:49.78	117.37	19.77	-29.9	-33.0	13.4	3.36e-04	0	43	0	256901120	20	5110
2026-01-22 09:19:50.78	117.25	19.88	-30.0	-33.1	13.4	1.29e-05	0	43	0	258998272	20	5143
2026-01-22 09:19:51.79	117.12	20.00	-29.9	-33.0	13.4	1.52e-05	0	43	0	261095424	20	5132
2026-01-22 09:19:52.79	117.00	20.11	-30.0	-33.2	13.3	6.10e-06	0	43	0	263192576	20	5204
2026-01-22 09:19:53.79	116.87	20.23	-30.0	-33.2	13.3	5.76e-04	0	43	0	265289728	20	5202
2026-01-22 09:19:54.79	116.75	20.34	-30.1	-33.4	13.2	1.29e-05	0	43	0	266338304	20	5273
2026-01-22 09:19:55.80	116.62	20.46	-30.1	-33.5	13.1	1.98e-05	0	43	0	268435456	20	5290
2026-01-22 09:19:56.80	116.49	20.57	-30.2	-33.8	12.9	3.28e-05	0	43	0	270532608	20	5421
2026-01-22 09:19:57.80	116.36	20.69	-30.0	-33.3	13.2	1.52e-04	0	43	0	272629760	20	5253
2026-01-22 09:19:58.80	116.23	20.81	-30.1	-33.2	13.4	2.05e-05	0	43	0	273678336	20	5178
2026-01-22 09:19:59.81	116.10	20.93	-30.1	-33.3	13.3	1.90e-05	0	43	0	275775488	20	5215
2026-01-22 09:20:00.81	115.97	21.04	-30.1	-33.4	13.3	2.13e-05	0	43	0	277872640	20	5232
2026-01-22 09:20:01.81	115.84	21.16	-30.0	-33.1	13.4	1.75e-05	0	43	0	279969792	20	5156
2026-01-22 09:20:02.82	115.70	21.28	-30.1	-33.4	13.3	1.91e-04	0	43	0	282066944	20	5245
2026-01-22 09:20:03.83	115.56	21.40	-30.1	-33.3	13.3	1.98e-05	0	43	0	283115520	20	5208
2026-01-22 09:20:04.83	115.43	21.52	-30.1	-33.4	13.3	1.83e-05	0	43	0	285212672	20	5259
2026-01-22 09:20:05.84	115.29	21.64	-30.1	-33.4	13.3	1.60e-05	0	43	0	287309824	20	5231
2026-01-22 09:20:06.84	115.15	21.76	-30.2	-33.5	13.2	7.46e-04	0	43	0	289406976	20	5275
2026-01-22 09:20:07.84	115.01	21.88	-30.2	-33.5	13.3	2.36e-05	0	43	0	291504128	20	5253
2026-01-22 09:20:08.85	114.87	22.00	-30.3	-33.7	13.1	1.98e-05	0	43	0	292552704	20	5349
2026-01-22 09:20:09.85	114.73	22.12	-30.3	-33.7	13.1	3.28e-05	0	43	0	294649856	20	5366
2026-01-22 09:20:10.85	114.58	22.25	-30.4	-34.0	13.0	2.99e-04	0	43	0	296747008	20	5450
2026-01-22 09:20:11.86	114.44	22.37	-30.3	-33.8	13.1	5.41e-05	0	43	0	298844160	20	5383
2026-01-22 09:20:12.86	114.29	22.49	-30.2	-33.6	13.3	2.59e-05	0	43	0	300941312	20	5290
2026-01-22 09:20:13.86	114.15	22.61	-30.2	-33.6	13.2	2.21e-05	0	43	0	301989888	20	5319
2026-01-22 09:20:14.86	114.00	22.74	-30.3	-33.7	13.1	2.44e-05	0	43	0	304087040	20	5348
2026-01-22 09:20:15.86	113.85	22.86	-30.3	-33.9	13.1	6.48e-05	0	43	0	306184192	20	5429
2026-01-22 09:20:16.85	113.70	22.98	-30.4	-34.0	13.0	3.73e-05	0	43	0	308281344	20	5457
2026-01-22 09:20:17.86	113.55	23.11	-30.3	-33.8	13.1	3.12e-05	0	43	0	310378496	20	5379
2026-01-22 09:20:18.86	113.40	23.23	-30.4	-33.9	13.1	2.44e-05	0	43	0	311427072	20	5422
2026-01-22 09:20:19.87	113.24	23.36	-30.2	-33.6	13.3	6.49e-04	0	43	0	313524224	20	5295
2026-01-22 09:20:20.87	113.09	23.48	-30.2	-33.5	13.4	9.90e-06	0	43	0	315621376	20	5243
2026-01-22 09:20:21.88	112.93	23.61	-30.2	-33.6	13.4	1.29e-05	0	43	0	317718528	20	5277
2026-01-22 09:20:22.88	112.78	23.74	-30.3	-33.6	13.3	1.52e-05	0	43	0	318767104	20	5293
2026-01-22 09:20:23.89	112.62	23.86	-30.3	-33.7	13.2	3.85e-04	0	43	0	320864256	20	5330
2026-01-22 09:20:24.89	112.46	23.99	-30.3	-33.7	13.2	2.89e-05	0	43	0	322961408	20	5344
2026-01-22 09:20:25.89	112.29	24.12	-30.3	-33.6	13.3	1.29e-05	0	44	0	325058560	20	5277
2026-01-22 09:20:26.89	112.13	24.25	-30.3	-33.8	13.2	1.90e-05	0	43	0	327155712	20	5352
2026-01-22 09:20:27.90	111.97	24.37	-30.3	-33.7	13.2	2.82e-05	0	43	0	329252864	20	5335
2026-01-22 09:20:28.90	111.80	24.50	-30.4	-34.1	13.0	6.03e-04	0	43	0	330301440	20	5480
2026-01-22 09:20:29.89	111.64	24.63	-30.4	-34.1	13.0	2.82e-05	0	43	0	332398592	20	5493
2026-01-22 09:20:30.89	111.47	24.76	-30.3	-33.8	13.2	2.51e-05	0	43	0	334495744	20	5361
2026-01-22 09:20:31.89	111.30	24.89	-30.3	-33.7	13.3	2.05e-05	0	43	0	336592896	20	5337
2026-01-22 09:20:32.90	111.13	25.02	-30.3	-33.6	13.3	6.40e-04	0	43	0	337641472	20	5302
2026-01-22 09:20:33.90	110.95	25.15	-30.3	-33.8	13.2	2.44e-05	0	43	0	339738624	20	5383
2026-01-22 09:20:34.90	110.78	25.28	-30.3	-33.7	13.3	2.28e-05	0	43	0	341835776	20	5320
2026-01-22 09:20:35.91	110.60	25.41	-30.3	-33.7	13.3	9.10e-06	0	43	0	343932928	20	5321
2026-01-22 09:20:36.91	110.43	25.54	-30.3	-33.8	13.2	4.85e-04	0	43	0	346030080	20	5361
2026-01-22 09:20:37.91	110.25	25.67	-30.4	-34.0	13.1	1.98e-05	0	43	0	347078656	20	5437
2026-01-22 09:20:38.92	110.07	25.81	-30.4	-33.9	13.2	2.59e-05	0	43	0	349175808	20	5389
2026-01-22 09:20:39.92	109.89	25.94	-30.5	-34.2	13.0	2.74e-05	0	43	0	351272960	20	5508
2026-01-22 09:20:40.93	109.70	26.07	-30.5	-34.2	13.0	3.50e-05	0	43	0	353370112	20	5511
2026-01-22 09:20:41.93	109.52	26.21	-30.6	-34.2	12.7	4.65e-04	0	43	0	355467264	21	5393
2026-01-22 09:20:42.94	109.33	26.34	-30.8	-34.6	12.3	1.78e-04	0	43	0	356515840	21	5589
2026-01-22 09:20:43.93	109.15	26.47	-30.7	-34.3	12.6	1.27e-04	0	43	0	358612992	21	5445
2026-01-22 09:20:44.94	108.95	26.61	-30.7	-34.3	12.6	8.85e-05	0	43	0	360710144	21	5449
2026-01-22 09:20:45.94	108.76	26.74	-30.6	-34.1	12.8	7.47e-04	0	43	0	362807296	21	5352
2026-01-22 09:20:46.94	108.57	26.88	-30.7	-34.3	12.6	8.92e-05	0	43	0	364904448	21	5461
2026-01-22 09:20:47.95	108.38	27.01	-30.8	-34.6	12.4	1.10e-04	0	43	0	365953024	21	5555
2026-01-22 09:20:48.95	108.18	27.15	-30.9	-34.8	12.3	1.15e-04	0	43	0	368050176	21	5643
2026-01-22 09:20:49.95	107.98	27.28	-30.9	-34.8	12.2	8.38e-04	0	43	0	370147328	21	5681
2026-01-22 09:20:50.95	107.78	27.42	-31.1	-35.0	11.8	3.38e-04	0	43	0	372244480	22	5629
2026-01-22 09:20:51.95	107.58	27.55	-31.1	-35.0	11.8	4.84e-04	0	43	0	374341632	22	5639
2026-01-22 09:20:52.95	107.38	27.69	-31.4	-36.0	11.1	7.23e-04	0	43	0	375390208	22	6098
2026-01-22 09:20:53.96	107.18	27.83	-31.3	-35.8	11.2	1.36e-03	0	43	0	377487360	22	6019
2026-01-22 09:20:54.96	106.97	27.96	-31.4	-35.7	11.3	1.27e-03	0	43	0	379584512	22	5956
2026-01-22 09:20:55.97	106.76	28.10	-31.5	-35.7	11.0	1.44e-03	0	43	0	381681664	23	5812
2026-01-22 09:20:56.97	106.55	28.24	-31.6	-36.0	10.8	2.23e-03	0	43	0	382730240	23	5958
2026-01-22 09:20:57.96	106.34	28.37	-31.7	-36.4	10.4	3.17e-03	0	43	0	384827392	23	6191
2026-01-22 09:20:58.96	106.13	28.51	-31.8	-36.8	10.1	5.75e-03	0	43	0	386924544	23	6374
2026-01-22 09:20:59.96	105.91	28.65	-31.9	-37.2	9.9	8.17e-03	0	43	0	389021696	23	6566
2026-01-22 09:21:00.97	105.69	28.79	-31.8	-36.8	10.2	7.42e-03	0	43	0	391118848	23	6360
2026-01-22 09:21:01.97	105.48	28.93	-31.8	-36.7	10.3	6.00e-03	0	43	0	392167424	23	6332
2026-01-22 09:21:02.97	105.26	29.07	-31.9	-36.9	10.1	6.56e-03	0	43	0	394264576	23	6400
2026-01-22 09:21:03.98	105.03	29.21	-32.0	-37.3	9.8	8.68e-03	0	43	0	396361728	23	6645
2026-01-22 09:21:04.98	104.81	29.35	-31.9	-36.4	10.1	7.51e-03	0	44	0	398458880	24	6050
2026-01-22 09:21:05.98	104.58	29.48	-31.7	-35.9	10.5	5.32e-03	0	43	0	400556032	24	5825
2026-01-22 09:21:06.98	104.35	29.62	-31.6	-35.6	10.8	3.24e-03	0	43	0	401604608	24	5680
2026-01-22 09:21:07.98	104.12	29.76	-31.7	-35.7	10.7	3.27e-03	0	43	0	403701760	24	5712
2026-01-22 09:21:08.98	103.89	29.90	-31.7	-35.6	10.8	2.67e-03	0	43	0	405798912	24	5668
2026-01-22 09:21:09.99	103.65	30.04	-31.6	-35.5	10.9	2.15e-03	0	43	0	407896064	24	5602
2026-01-22 09:21:10.99	103.41	30.18	-31.7	-35.7	10.7	2.46e-03	0	43	0	409993216	24	5712
2026-01-22 09:21:12.00	103.17	30.33	-31.7	-35.9	10.6	4.29e-03	0	43	0	411041792	24	5789
2026-01-22 09:21:13.00	102.93	30.47	-31.8	-36.0	10.5	3.83e-03	0	43	0	413138944	24	5871
2026-01-22 09:21:14.01	102.69	30.61	-31.8	-35.9	10.5	3.95e-03	0	43	0	415236096	24	5822
2026-01-22 09:21:15.01	102.44	30.75	-31.7	-35.8	10.7	3.81e-03	0	43	0	417333248	24	5740
2026-01-22 09:21:16.02	102.19	30.89	-31.8	-36.0	10.6	2.84e-03	0	43	0	419430400	24	5845
2026-01-22 09:21:17.02	101.94	31.03	-31.8	-35.9	10.5	3.65e-03	0	43	0	420478976	24	5808
2026-01-22 09:21:18.02	101.69	31.17	-31.7	-35.7	10.7	3.61e-03	0	43	0	422576128	24	5727
2026-01-22 09:21:19.02	101.44	31.31	-31.9	-36.3	10.3	4.03e-03	0	44	0	424673280	24	6006
2026-01-22 09:21:20.02	101.18	31.45	-31.9	-36.5	10.2	5.57e-03	0	43	0	426770432	24	6100
2026-01-22 09:21:21.02	100.92	31.59	-31.9	-36.6	10.1	6.18e-03	0	43	0	427819008	24	6121
2026-01-22 09:21:22.02	100.66	31.73	-32.1	-37.1	9.7	8.55e-03	0	43	0	429916160	24	6392
2026-01-22 09:21:23.03	100.40	31.87	-32.1	-37.3	9.6	1.13e-02	0	43	0	432013312	24	6546
2026-01-22 09:21:24.03	100.13	32.01	-32.1	-37.3	9.6	1.27e-02	0	43	0	434110464	24	6521
2026-01-22 09:21:25.03	99.87	32.15	-32.1	-37.0	9.8	1.13e-02	0	43	0	436207616	24	6343
2026-01-22 09:21:26.04	99.59	32.30	-32.0	-36.8	9.9	9.07e-03	0	44	0	437256192	24	6268
2026-01-22 09:21:27.04	99.32	32.44	-31.9	-36.3	10.4	5.62e-03	0	43	0	439353344	24	5963
2026-01-22 09:21:28.05	99.04	32.58	-31.7	-35.8	10.7	3.74e-03	0	43	0	441450496	24	5761
2026-01-22 09:21:29.05	98.77	32.72	-31.8	-36.0	10.6	3.31e-03	0	43	0	443547648	24	5814
2026-01-22 09:21:30.06	98.48	32.86	-31.5	-34.9	11.5	1.97e-03	0	44	0	445644800	24	5325
2026-01-22 09:21:31.06	98.20	33.00	-31.4	-34.6	11.6	7.54e-04	0	43	0	446693376	24	5207
2026-01-22 09:21:32.06	97.92	33.14	-31.5	-34.9	11.4	8.57e-04	0	44	0	448790528	24	5333
2026-01-22 09:21:33.06	97.63	33.28	-31.3	-34.5	11.7	8.06e-04	0	43	0	450887680	24	5186
2026-01-22 09:21:34.07	97.34	33.42	-31.2	-34.7	11.9	4.03e-04	0	43	0	452984832	23	5343
2026-01-22 09:21:35.07	97.05	33.56	-31.2	-34.6	11.9	3.32e-04	0	43	0	455081984	23	5326
2026-01-22 09:21:36.07	96.75	33.70	-31.2	-34.7	11.9	3.19e-04	0	43	0	456130560	23	5349
2026-01-22 09:21:37.08	96.45	33.84	-31.1	-34.3	12.2	3.53e-04	0	43	0	458227712	23	5184
2026-01-22 09:21:38.08	96.15	33.98	-31.2	-34.4	12.1	5.40e-04	0	43	0	460324864	23	5244
2026-01-22 09:21:39.09	95.85	34.12	-31.2	-34.7	11.9	2.56e-04	0	44	0	462422016	23	5341
2026-01-22 09:21:40.10	95.54	34.26	-31.3	-35.0	11.7	4.08e-04	0	43	0	464519168	23	5483
2026-01-22 09:21:41.10	95.24	34.39	-31.5	-35.5	11.3	9.28e-04	0	44	0	465567744	23	5721
2026-01-22 09:21:42.10	94.93	34.53	-31.6	-35.9	11.0	1.68e-03	0	43	0	467664896	23	5888
2026-01-22 09:21:43.10	94.61	34.67	-31.5	-35.4	11.4	1.31e-03	0	43	0	469762048	23	5641
2026-01-22 09:21:44.10	94.30	34.80	-31.4	-35.1	11.6	7.58e-04	0	43	0	471859200	23	5535
2026-01-22 09:21:45.11	93.98	34.94	-31.4	-35.2	11.5	8.26e-04	0	43	0	473956352	23	5588
2026-01-22 09:21:46.11	93.66	35.08	-31.4	-35.0	11.7	5.78e-04	0	43	0	475004928	23	5503
2026-01-22 09:21:47.12	93.33	35.21	-31.4	-35.1	11.7	9.50e-04	0	43	0	477102080	23	5525
2026-01-22 09:21:48.13	93.00	35.35	-31.5	-35.5	11.3	9.28e-04	0	43	0	479199232	23	5687
2026-01-22 09:21:49.13	92.67	35.48	-31.6	-35.7	11.1	1.31e-03	0	43	0	481296384	23	5806
2026-01-22 09:21:50.13	92.34	35.62	-31.6	-35.7	11.2	1.53e-03	0	43	0	482344960	23	5792
2026-01-22 09:21:51.12	92.01	35.75	-31.6	-35.9	11.1	2.02e-03	0	43	0	484442112	23	5892
2026-01-22 09:21:52.13	91.67	35.88	-31.6	-35.8	11.2	1.55e-03	0	43	0	486539264	23	5848
2026-01-22 09:21:53.13	91.33	36.02	-31.6	-35.8	11.2	1.50e-03	0	43	0	488636416	23	5827
2026-01-22 09:21:54.13	90.99	36.15	-31.6	-35.7	11.2	1.39e-03	0	43	0	490733568	23	5769
2026-01-22 09:21:55.13	90.64	36.28	-31.9	-36.7	10.5	3.14e-03	0	44	0	491782144	23	6267
2026-01-22 09:21:56.13	90.30	36.41	-31.9	-36.8	10.4	4.37e-03	0	43	0	493879296	23	6327
2026-01-22 09:21:57.13	89.95	36.54	-31.9	-36.6	10.5	4.49e-03	0	43	0	495976448	23	6216
2026-01-22 09:21:58.13	89.59	36.66	-32.0	-37.0	10.3	4.61e-03	0	44	0	498073600	23	6424
2026-01-22 09:21:59.13	89.24	36.79	-32.1	-37.0	10.0	6.48e-03	0	44	0	500170752	24	6292
2026-01-22 09:22:00.15	88.87	36.92	-32.2	-37.4	9.7	1.14e-02	0	44	0	501219328	24	6522
2026-01-22 09:22:01.15	88.51	37.05	-32.0	-36.5	10.3	6.20e-03	0	43	0	503316480	24	6034
2026-01-22 09:22:02.15	88.14	37.17	-32.0	-36.6	10.2	5.26e-03	0	44	0	505413632	24	6107
2026-01-22 09:22:03.16	87.77	37.30	-31.9	-36.3	10.5	4.74e-03	0	43	0	507510784	24	5965
2026-01-22 09:22:04.17	87.40	37.42	-31.9	-36.2	10.6	4.12e-03	0	44	0	509607936	24	5898
2026-01-22 09:22:05.17	87.03	37.55	-31.9	-36.1	10.5	3.61e-03	0	43	0	510656512	24	5871
2026-01-22 09:22:06.17	86.65	37.67	-31.9	-36.3	10.4	4.59e-03	0	44	0	512753664	24	5977
2026-01-22 09:22:07.17	86.27	37.79	-31.8	-35.9	10.7	3.72e-03	0	44	0	514850816	24	5776
2026-01-22 09:22:08.17	85.89	37.91	-31.6	-35.3	11.2	2.16e-03	0	43	0	516947968	24	5498
2026-01-22 09:22:09.17	85.51	38.03	-31.5	-35.0	11.4	9.84e-04	0	43	0	519045120	24	5375
2026-01-22 09:22:10.18	85.11	38.15	-31.5	-34.8	11.6	8.31e-04	0	44	0	520093696	24	5297
2026-01-22 09:22:11.18	84.72	38.26	-31.5	-35.0	11.4	7.35e-04	0	43	0	522190848	24	5384
2026-01-22 09:22:12.18	84.33	38.38	-31.5	-34.9	11.5	9.27e-04	0	43	0	524288000	24	5323
2026-01-22 09:22:13.19	83.93	38.49	-31.4	-34.7	11.6	8.42e-04	0	44	0	526385152	24	5257
2026-01-22 09:22:14.19	83.53	38.61	-31.3	-34.7	12.0	4.68e-04	0	44	0	528482304	23	5333
2026-01-22 09:22:15.20	83.13	38.72	-31.3	-34.8	11.9	3.86e-04	0	44	0	529530880	23	5399
2026-01-22 09:22:16.20	82.73	38.83	-31.3	-34.8	11.9	4.03e-04	0	43	0	531628032	23	5399
2026-01-22 09:22:17.21	82.31	38.94	-31.2	-34.5	12.1	6.87e-04	0	44	0	533725184	23	5277
2026-01-22 09:22:18.21	81.90	39.05	-31.3	-34.7	12.0	3.66e-04	0	44	0	535822336	23	5347
2026-01-22 09:22:19.22	81.49	39.16	-31.3	-34.8	11.9	5.32e-04	0	43	0	537919488	23	5392
2026-01-22 09:22:20.23	81.07	39.26	-31.3	-34.8	12.0	3.39e-04	0	44	0	538968064	23	5395
2026-01-22 09:22:21.22	80.66	39.37	-31.5	-35.4	11.5	5.77e-04	0	44	0	541065216	23	5635
2026-01-22 09:22:22.22	80.24	39.47	-31.3	-34.9	11.9	4.88e-04	0	43	0	543162368	23	5422
2026-01-22 09:22:23.23	79.81	39.57	-31.1	-34.1	12.4	1.94e-04	0	43	0	545259520	23	5086
2026-01-22 09:22:24.23	79.38	39.67	-30.8	-33.4	12.9	9.07e-05	0	43	0	546308096	23	4847
2026-01-22 09:22:25.23	78.96	39.77	-30.8	-33.8	13.0	4.95e-05	0	44	0	548405248	22	5101
2026-01-22 09:22:26.23	78.52	39.86	-30.7	-33.6	13.1	4.27e-05	0	44	0	550502400	22	5023
2026-01-22 09:22:27.24	78.09	39.96	-30.7	-33.5	13.2	2.74e-05	0	43	0	552599552	22	4963
2026-01-22 09:22:28.24	77.65	40.05	-30.6	-33.3	13.3	9.10e-06	0	43	0	554696704	22	4917
2026-01-22 09:22:29.24	77.21	40.14	-30.6	-33.1	13.4	1.75e-05	0	43	0	556793856	22	4848
2026-01-22 09:22:30.24	76.77	40.23	-30.4	-32.7	13.7	2.51e-05	0	43	0	557842432	22	4680
2026-01-22 09:22:31.25	76.33	40.32	-30.4	-32.8	13.6	9.10e-06	0	43	0	559939584	22	4727
2026-01-22 09:22:32.25	75.88	40.41	-30.2	-32.7	14.0	4.50e-06	0	43	0	562036736	21	4798
2026-01-22 09:22:33.25	75.43	40.49	-30.3	-32.8	13.9	7.00e-07	0	44	0	564133888	21	4833
2026-01-22 09:22:34.26	74.98	40.58	-30.1	-32.3	14.3	2.05e-05	0	44	0	565182464	21	4645
2026-01-22 09:22:35.26	74.52	40.66	-29.9	-31.9	14.5	0.00e+00	0	43	0	567279616	21	4538
2026-01-22 09:22:36.26	74.07	40.74	-30.0	-32.1	14.4	0.00e+00	0	44	0	569376768	21	4595
2026-01-22 09:22:37.26	73.61	40.81	-30.1	-32.4	14.2	1.50e-06	0	43	0	571473920	21	4701
2026-01-22 09:22:38.26	73.15	40.89	-30.4	-33.3	13.6	5.30e-06	0	43	0	573571072	21	5023
2026-01-22 09:22:39.26	72.69	40.96	-30.6	-33.8	13.3	2.13e-05	0	44	0	574619648	21	5186
2026-01-22 09:22:40.26	72.23	41.03	-30.2	-32.6	14.1	4.50e-06	0	43	0	576716800	21	4735
2026-01-22 09:22:41.27	71.76	41.10	-30.0	-32.2	14.3	2.20e-06	0	43	0	578813952	21	4643
2026-01-22 09:22:42.27	71.29	41.17	-29.9	-32.0	14.4	7.00e-07	0	43	0	580911104	21	4565
2026-01-22 09:22:43.27	70.82	41.24	-29.8	-31.7	14.7	8.31e-05	0	44	0	583008256	21	4450
2026-01-22 09:22:44.26	70.36	41.30	-29.7	-31.9	14.8	0.00e+00	0	43	0	584056832	20	4637
2026-01-22 09:22:45.27	69.88	41.36	-29.7	-31.8	14.9	0.00e+00	0	43	0	586153984	20	4608
2026-01-22 09:22:46.27	69.41	41.42	-29.7	-31.9	14.8	0.00e+00	0	43	0	588251136	20	4623
2026-01-22 09:22:47.28	68.92	41.48	-29.5	-31.5	15.1	3.81e-05	0	44	0	590348288	20	4514
2026-01-22 09:22:48.27	68.45	41.53	-29.6	-31.6	15.0	0.00e+00	0	43	0	591396864	20	4529
2026-01-22 09:22:49.28	67.97	41.58	-29.7	-31.8	14.9	0.00e+00	0	43	0	593494016	20	4586
2026-01-22 09:22:50.29	67.48	41.63	-29.6	-31.5	15.1	0.00e+00	0	43	0	595591168	20	4491
2026-01-22 09:22:51.29	67.00	41.68	-29.6	-31.7	15.0	0.00e+00	0	44	0	597688320	20	4557
2026-01-22 09:22:52.30	66.51	41.73	-29.7	-31.8	14.9	3.00e-06	0	43	0	599785472	20	4608
2026-01-22 09:22:53.30	66.03	41.77	-29.8	-32.1	14.7	0.00e+00	0	44	0	601882624	20	4707
2026-01-22 09:22:54.30	65.54	41.81	-29.7	-31.9	14.9	7.00e-07	0	43	0	602931200	20	4623
2026-01-22 09:22:55.31	65.05	41.85	-29.8	-32.0	14.8	4.50e-06	0	43	0	605028352	20	4670
2026-01-22 09:22:56.31	64.56	41.89	-30.0	-32.5	14.4	9.99e-05	0	43	0	607125504	20	4850
2026-01-22 09:22:57.32	64.06	41.92	-30.0	-32.6	14.4	7.00e-07	0	43	0	609222656	20	4864
2026-01-22 09:22:58.32	63.57	41.95	-30.0	-32.6	14.4	1.50e-06	0	43	0	610271232	20	4884
2026-01-22 09:22:59.32	63.08	41.98	-30.0	-32.7	14.3	1.50e-06	0	43	0	612368384	20	4900
2026-01-22 09:23:00.32	62.59	42.01	-30.1	-32.9	14.3	8.30e-06	0	44	0	614465536	20	4950
2026-01-22 09:23:01.32	62.09	42.03	-30.1	-32.9	14.2	0.00e+00	0	43	0	616562688	20	4957
2026-01-22 09:23:02.32	61.60	42.06	-30.1	-32.9	14.1	7.00e-07	0	43	0	618659840	20	4988
2026-01-22 09:23:03.32	61.11	42.08	-30.4	-33.6	13.7	7.00e-07	0	43	0	619708416	20	5238
2026-01-22 09:23:04.33	60.61	42.09	-30.6	-33.8	13.4	6.10e-06	0	43	0	621805568	21	5184
2026-01-22 09:23:05.33	60.11	42.11	-30.6	-33.8	13.3	1.52e-05	0	44	0	623902720	21	5179
2026-01-22 09:23:06.33	59.61	42.12	-30.6	-33.7	13.4	1.37e-05	0	44	0	625999872	21	5137
2026-01-22 09:23:07.34	59.11	42.13	-30.6	-33.8	13.3	2.36e-05	0	44	0	628097024	21	5197
2026-01-22 09:23:08.34	58.61	42.14	-30.7	-34.0	13.2	1.90e-05	0	43	0	629145600	21	5252
2026-01-22 09:23:09.34	58.12	42.14	-30.8	-34.2	13.1	2.89e-05	0	43	0	631242752	21	5344
2026-01-22 09:23:10.35	57.62	42.15	-30.9	-34.5	12.9	4.19e-05	0	44	0	633339904	21	5445
2026-01-22 09:23:11.35	57.12	42.15	-31.0	-34.4	12.6	6.71e-05	0	43	0	635437056	22	5296
2026-01-22 09:23:12.35	56.62	42.15	-31.1	-34.7	12.5	1.08e-04	0	44	0	637534208	22	5430
2026-01-22 09:23:13.36	56.12	42.14	-31.1	-34.5	12.5	1.07e-04	0	43	0	638582784	22	5365
2026-01-22 09:23:14.36	55.62	42.13	-31.2	-34.9	12.3	1.28e-04	0	43	0	640679936	22	5523
2026-01-22 09:23:15.36	55.13	42.13	-31.3	-35.2	12.1	2.11e-04	0	43	0	642777088	22	5657
2026-01-22 09:23:16.37	54.62	42.11	-31.5	-35.3	11.7	5.45e-04	0	43	0	644874240	23	5581
2026-01-22 09:23:17.37	54.13	42.10	-31.5	-35.3	11.7	5.25e-04	0	44	0	646971392	23	5589
2026-01-22 09:23:18.37	53.63	42.08	-31.5	-35.4	11.6	7.78e-04	0	43	0	648019968	23	5620
2026-01-22 09:23:19.38	53.13	42.06	-31.5	-35.5	11.5	6.61e-04	0	43	0	650117120	23	5654
2026-01-22 09:23:20.39	52.64	42.04	-31.6	-35.7	11.4	8.68e-04	0	43	0	652214272	23	5766
2026-01-22 09:23:21.39	52.14	42.02	-31.7	-36.0	11.1	1.48e-03	0	43	0	654311424	23	5898
2026-01-22 09:23:22.40	51.64	41.99	-31.8	-36.4	10.9	1.90e-03	0	43	0	656408576	23	6102
2026-01-22 09:23:23.40	51.15	41.96	-32.0	-36.5	10.4	4.31e-03	0	43	0	657457152	24	6038
2026-01-22 09:23:24.41	50.66	41.93	-32.3	-37.4	9.7	9.35e-03	0	44	0	659554304	24	6492
2026-01-22 09:23:25.42	50.16	41.90	-32.4	-37.8	9.4	1.26e-02	0	44	0	661651456	24	6711
2026-01-22 09:23:26.41	49.68	41.86	-32.4	-37.8	9.4	1.82e-02	0	44	0	663748608	24	6754
2026-01-22 09:23:27.42	49.19	41.82	-32.4	-37.8	9.4	1.60e-02	0	43	0	664797184	24	6737
2026-01-22 09:23:28.43	48.69	41.78	-32.3	-37.6	9.6	1.49e-02	0	43	0	666894336	24	6631
2026-01-22 09:23:29.43	48.21	41.74	-32.4	-38.0	9.3	1.66e-02	0	43	0	668991488	24	6858
2026-01-22 09:23:30.43	47.73	41.70	-32.5	-38.0	8.9	2.64e-02	0	43	0	671088640	25	6752
2026-01-22 09:23:31.43	47.24	41.65	-32.5	-38.0	8.8	2.81e-02	0	43	0	673185792	25	6781
2026-01-22 09:23:32.43	46.76	41.60	-32.6	-38.3	8.6	4.09e-02	0	43	0	674234368	25	6955
2026-01-22 09:23:33.43	46.28	41.55	-32.3	-37.2	9.5	1.94e-02	0	44	0	676331520	25	6279
2026-01-22 09:23:34.44	45.80	41.49	-32.1	-36.4	10.1	9.88e-03	0	43	0	678428672	25	5870
2026-01-22 09:23:35.44	45.32	41.44	-31.9	-35.7	10.7	5.16e-03	0	43	0	680525824	25	5557
2026-01-22 09:23:36.44	44.85	41.38	-31.7	-35.6	11.0	2.05e-03	0	43	0	682622976	24	5628
2026-01-22 09:23:37.44	44.38	41.32	-31.7	-35.4	11.2	1.53e-03	0	43	0	683671552	24	5523
2026-01-22 09:23:38.44	43.91	41.26	-31.5	-34.8	11.6	9.03e-04	0	44	0	685768704	24	5289
2026-01-22 09:23:39.44	43.44	41.19	-31.3	-34.2	12.0	4.10e-04	0	44	0	687865856	24	5044
2026-01-22 09:23:40.45	42.96	41.13	-31.1	-34.2	12.4	2.19e-04	0	44	0	689963008	23	5143
2026-01-22 09:23:41.45	42.50	41.06	-31.3	-34.5	12.2	1.57e-04	0	43	0	692060160	23	5257
2026-01-22 09:23:42.45	42.04	40.99	-31.3	-34.7	12.1	3.84e-04	0	43	0	693108736	23	5342
2026-01-22 09:23:43.46	41.57	40.91	-30.9	-33.5	12.8	1.04e-04	0	44	0	695205888	23	4883
2026-01-22 09:23:44.46	41.11	40.84	-30.4	-32.8	13.7	1.60e-05	0	44	0	697303040	22	4708
2026-01-22 09:23:45.46	40.66	40.76	-30.2	-32.6	14.1	7.60e-06	0	43	0	699400192	21	4738
2026-01-22 09:23:46.47	40.20	40.68	-30.1	-32.5	14.2	3.00e-06	0	44	0	701497344	21	4724
2026-01-22 09:23:47.48	39.74	40.60	-30.1	-32.3	14.2	3.00e-06	0	44	0	702545920	21	4670
2026-01-22 09:23:48.48	39.29	40.52	-30.0	-32.1	14.4	7.00e-07	0	44	0	704643072	21	4595
2026-01-22 09:23:49.48	38.84	40.44	-30.1	-32.3	14.3	0.00e+00	0	43	0	706740224	21	4645
2026-01-22 09:23:50.48	38.40	40.35	-30.0	-32.2	14.3	0.00e+00	0	43	0	708837376	21	4616
2026-01-22 09:23:51.48	37.95	40.27	-29.7	-31.9	14.8	7.60e-06	0	43	0	710934528	20	4620
2026-01-22 09:23:52.48	37.51	40.18	-29.5	-31.4	15.2	0.00e+00	0	44	0	711983104	20	4463
2026-01-22 09:23:53.49	37.07	40.08	-29.3	-31.4	15.5	0.00e+00	0	44	0	714080256	19	4565
2026-01-22 09:23:54.49	36.63	39.99	-29.3	-31.2	15.6	0.00e+00	0	44	0	716177408	19	4512
2026-01-22 09:23:55.50	36.20	39.90	-29.2	-31.0	15.7	0.00e+00	0	43	0	718274560	19	4440
2026-01-22 09:23:56.51	35.76	39.80	-29.3	-31.2	15.6	0.00e+00	0	44	0	720371712	19	4513
2026-01-22 09:23:57.51	35.33	39.70	-29.3	-31.3	15.6	0.00e+00	0	43	0	721420288	19	4525
2026-01-22 09:23:58.52	34.90	39.60	-29.2	-31.0	15.7	0.00e+00	0	44	0	723517440	19	4457
2026-01-22 09:23:59.52	34.48	39.50	-29.1	-30.8	15.8	0.00e+00	0	43	0	725614592	19	4403
2026-01-22 09:24:00.52	34.06	39.40	-29.1	-30.8	15.9	0.00e+00	0	43	0	727711744	19	4379
2026-01-22 09:24:01.53	33.64	39.30	-29.0	-30.6	16.0	0.00e+00	0	44	0	728760320	19	4319
2026-01-22 09:24:02.53	33.23	39.19	-28.9	-30.4	16.1	0.00e+00	0	44	0	730857472	19	4277
2026-01-22 09:24:03.54	32.81	39.09	-28.9	-30.5	16.0	0.00e+00	0	44	0	732954624	19	4300
2026-01-22 09:24:04.54	32.40	38.98	-29.0	-30.6	15.9	0.00e+00	0	44	0	735051776	19	4331
2026-01-22 09:24:05.55	31.99	38.87	-29.1	-31.0	15.7	0.00e+00	0	44	0	737148928	19	4443
2026-01-22 09:24:06.55	31.59	38.76	-29.3	-31.3	15.5	0.00e+00	0	43	0	738197504	19	4542
2026-01-22 09:24:07.55	31.19	38.65	-29.3	-31.2	15.5	0.00e+00	0	44	0	740294656	19	4522
2026-01-22 09:24:08.55	30.79	38.54	-29.2	-31.1	15.6	0.00e+00	0	43	0	742391808	19	4470
2026-01-22 09:24:09.55	30.39	38.42	-29.1	-30.9	15.7	0.00e+00	0	44	0	744488960	19	4427
2026-01-22 09:24:10.55	30.00	38.31	-29.2	-31.1	15.7	0.00e+00	0	44	0	746586112	19	4469
2026-01-22 09:24:11.56	29.61	38.19	-29.3	-31.4	15.5	0.00e+00	0	43	0	747634688	19	4558
2026-01-22 09:24:12.56	29.22	38.07	-29.4	-31.6	15.3	0.00e+00	0	44	0	749731840	19	4653
2026-01-22 09:24:13.57	28.83	37.96	-29.5	-31.8	15.3	0.00e+00	0	44	0	751828992	19	4691
2026-01-22 09:24:14.57	28.45	37.84	-29.6	-32.0	15.1	0.00e+00	0	44	0	753926144	19	4766
2026-01-22 09:24:15.58	28.07	37.72	-29.6	-32.2	15.0	0.00e+00	0	44	0	756023296	19	4828
2026-01-22 09:24:16.58	27.69	37.59	-29.5	-31.8	15.3	0.00e+00	0	44	0	757071872	19	4691
2026-01-22 09:24:17.59	27.31	37.47	-29.4	-31.7	15.3	0.00e+00	0	44	0	759169024	19	4660
2026-01-22 09:24:18.59	26.94	37.35	-29.5	-31.8	15.2	0.00e+00	0	43	0	761266176	19	4709
2026-01-22 09:24:19.60	26.57	37.22	-29.6	-32.2	15.0	0.00e+00	0	44	0	763363328	19	4836
2026-01-22 09:24:20.60	26.21	37.10	-29.7	-32.4	14.8	0.00e+00	0	44	0	765460480	19	4895
2026-01-22 09:24:21.60	25.85	36.97	-29.7	-32.4	14.8	0.00e+00	0	44	0	766509056	19	4897
2026-01-22 09:24:22.60	25.49	36.85	-29.7	-32.5	14.7	0.00e+00	0	44	0	768606208	19	4960
2026-01-22 09:24:23.60	25.13	36.72	-29.7	-32.5	14.8	0.00e+00	0	44	0	770703360	19	4924
2026-01-22 09:24:24.61	24.78	36.59	-29.8	-32.5	14.7	0.00e+00	0	44	0	772800512	19	4951
2026-01-22 09:24:25.61	24.43	36.46	-29.9	-32.5	14.4	7.00e-07	0	44	0	774897664	20	4838
2026-01-22 09:24:26.61	24.08	36.33	-30.0	-32.8	14.2	1.50e-06	0	44	0	775946240	20	4948
2026-01-22 09:24:27.61	23.73	36.20	-30.1	-32.9	14.1	2.20e-06	0	44	0	778043392	20	4987
2026-01-22 09:24:28.62	23.39	36.07	-30.2	-33.2	13.9	3.00e-06	0	44	0	780140544	20	5073
2026-01-22 09:24:29.62	23.05	35.94	-30.1	-33.0	14.0	3.80e-06	0	44	0	782237696	20	5012
2026-01-22 09:24:30.63	22.71	35.81	-30.1	-32.9	14.2	2.20e-06	0	44	0	783286272	20	4967
2026-01-22 09:24:31.63	22.38	35.67	-30.3	-33.4	13.7	0.00e+00	0	44	0	785383424	20	5169
2026-01-22 09:24:32.64	22.04	35.54	-30.3	-33.6	13.7	6.10e-06	0	43	0	787480576	20	5241
2026-01-22 09:24:33.65	21.71	35.40	-30.6	-33.7	13.3	1.52e-05	0	44	0	789577728	21	5177
2026-01-22 09:24:34.65	21.38	35.27	-30.7	-34.1	13.0	2.51e-05	0	43	0	791674880	21	5342
2026-01-22 09:24:35.65	21.06	35.14	-30.8	-34.3	12.9	5.95e-05	0	43	0	793772032	21	5404
2026-01-22 09:24:36.66	20.74	35.00	-30.7	-34.2	12.9	5.18e-05	0	44	0	794820608	21	5357
2026-01-22 09:24:37.66	20.42	34.86	-30.8	-34.4	12.8	5.56e-05	0	44	0	796917760	21	5450
2026-01-22 09:24:38.65	20.11	34.73	-30.8	-34.4	12.8	5.11e-05	0	43	0	799014912	21	5432
2026-01-22 09:24:39.66	19.79	34.59	-30.9	-34.7	12.6	5.34e-05	0	44	0	801112064	21	5548
2026-01-22 09:24:40.66	19.48	34.46	-31.0	-34.4	12.5	1.37e-04	0	44	0	802160640	22	5314
2026-01-22 09:24:41.66	19.18	34.32	-31.2	-35.0	12.1	2.10e-04	0	44	0	804257792	22	5587
2026-01-22 09:24:42.66	18.87	34.18	-31.2	-35.0	12.0	4.79e-04	0	44	0	806354944	22	5576
2026-01-22 09:24:43.67	18.57	34.04	-31.5	-35.5	11.4	8.08e-04	0	44	0	808452096	23	5681
2026-01-22 09:24:44.67	18.27	33.91	-31.6	-35.7	11.2	1.32e-03	0	43	0	810549248	23	5786
2026-01-22 09:24:45.68	17.97	33.77	-31.8	-36.5	10.6	1.94e-03	0	44	0	811597824	23	6180
2026-01-22 09:24:46.68	17.68	33.63	-31.8	-36.6	10.5	5.33e-03	0	44	0	813694976	23	6208
2026-01-22 09:24:47.68	17.38	33.49	-31.8	-36.3	10.7	2.89e-03	0	44	0	815792128	23	6100
2026-01-22 09:24:48.69	17.09	33.35	-31.8	-36.5	10.5	3.57e-03	0	44	0	817889280	23	6186
2026-01-22 09:24:49.69	16.81	33.21	-31.8	-36.4	10.6	4.57e-03	0	44	0	819986432	23	6138
2026-01-22 09:24:50.69	16.52	33.07	-31.7	-36.2	10.7	3.06e-03	0	43	0	821035008	23	6038
2026-01-22 09:24:51.70	16.24	32.93	-31.8	-36.3	10.7	3.22e-03	0	44	0	823132160	23	6105
2026-01-22 09:24:52.70	15.96	32.79	-31.9	-36.7	10.3	3.64e-03	0	44	0	825229312	23	6296
2026-01-22 09:24:53.70	15.68	32.65	-32.1	-37.3	9.6	1.08e-02	0	44	0	827326464	24	6481
2026-01-22 09:24:54.71	15.41	32.51	-32.2	-37.5	9.4	1.77e-02	0	44	0	829423616	24	6608
2026-01-22 09:24:55.71	15.13	32.37	-32.2	-37.5	9.4	1.40e-02	0	44	0	830472192	24	6598
2026-01-22 09:24:56.72	14.86	32.23	-32.4	-38.2	8.8	1.97e-02	0	43	0	832569344	24	7037
2026-01-22 09:24:57.72	14.59	32.09	-32.3	-37.7	9.2	2.64e-02	0	44	0	834666496	24	6745
2026-01-22 09:24:58.73	14.33	31.95	-32.1	-36.9	9.8	1.30e-02	0	44	0	836763648	24	6315
2026-01-22 09:24:59.73	14.06	31.81	-32.0	-36.6	10.0	1.01e-02	0	44	0	838860800	24	6159
2026-01-22 09:25:00.73	13.80	31.67	-31.8	-36.1	10.4	5.26e-03	0	44	0	839909376	24	5899
2026-01-22 09:25:01.73	13.55	31.53	-31.7	-35.7	10.7	4.27e-03	0	44	0	842006528	24	5696
2026-01-22 09:25:02.74	13.29	31.39	-31.7	-35.8	10.6	2.85e-03	0	43	0	844103680	24	5769
2026-01-22 09:25:03.74	13.04	31.25	-31.7	-35.8	10.7	3.32e-03	0	44	0	846200832	24	5766
2026-01-22 09:25:04.75	12.78	31.11	-31.9	-36.2	10.3	3.79e-03	0	44	0	848297984	24	5970
2026-01-22 09:25:05.75	12.53	30.97	-31.8	-36.0	10.4	5.82e-03	0	44	0	849346560	24	5859
2026-01-22 09:25:06.75	12.29	30.83	-31.8	-35.9	10.5	4.25e-03	0	43	0	851443712	24	5816
2026-01-22 09:25:07.76	12.04	30.69	-31.8	-36.0	10.4	4.51e-03	0	43	0	853540864	24	5866
2026-01-22 09:25:08.76	11.80	30.55	-31.8	-36.0	10.4	4.34e-03	0	44	0	855638016	24	5868
2026-01-22 09:25:09.77	11.55	30.40	-31.8	-36.1	10.4	4.31e-03	0	44	0	856686592	24	5891
2026-01-22 09:25:10.77	11.31	30.27	-31.8	-36.2	10.3	5.01e-03	0	44	0	858783744	24	5956
2026-01-22 09:25:11.77	11.08	30.13	-31.7	-35.9	10.5	4.18e-03	0	44	0	860880896	24	5796
2026-01-22 09:25:12.78	10.84	29.99	-31.6	-35.4	10.9	2.95e-03	0	44	0	862978048	24	5569
2026-01-22 09:25:13.78	10.61	29.85	-31.6	-35.4	10.8	2.79e-03	0	44	0	865075200	24	5572
2026-01-22 09:25:14.78	10.38	29.71	-31.5	-35.1	11.1	1.78e-03	0	44	0	866123776	24	5439
2026-01-22 09:25:15.77	10.15	29.57	-31.4	-34.8	11.3	1.41e-03	0	44	0	868220928	24	5318
2026-01-22 09:25:16.78	9.93	29.43	-31.4	-34.7	11.3	1.04e-03	0	44	0	870318080	24	5292
2026-01-22 09:25:17.78	9.70	29.29	-31.5	-35.0	11.2	1.39e-03	0	44	0	872415232	24	5389
2026-01-22 09:25:18.78	9.48	29.15	-31.4	-34.7	11.3	1.19e-03	0	44	0	874512384	24	5292
2026-01-22 09:25:19.79	9.26	29.02	-31.2	-34.7	11.7	7.68e-04	0	44	0	875560960	23	5393
2026-01-22 09:25:20.79	9.04	28.88	-31.2	-34.7	11.7	5.45e-04	0	44	0	877658112	23	5399
2026-01-22 09:25:21.80	8.82	28.74	-31.5	-35.5	11.1	1.14e-03	0	44	0	879755264	23	5738
2026-01-22 09:25:22.80	8.61	28.60	-31.3	-34.9	11.5	1.44e-03	0	44	0	881852416	23	5486
2026-01-22 09:25:23.80	8.39	28.46	-31.1	-34.4	11.9	7.44e-04	0	44	0	883949568	23	5271
2026-01-22 09:25:24.80	8.18	28.33	-30.9	-33.9	12.2	2.49e-04	0	44	0	884998144	23	5050
2026-01-22 09:25:25.80	7.97	28.19	-30.9	-33.8	12.3	1.69e-04	0	43	0	887095296	23	5041
2026-01-22 09:25:26.80	7.77	28.05	-30.9	-33.8	12.3	1.28e-04	0	44	0	889192448	23	5018
2026-01-22 09:25:27.80	7.56	27.92	-30.7	-33.7	12.7	8.85e-05	0	44	0	891289600	22	5081
2026-01-22 09:25:28.81	7.35	27.78	-30.9	-34.3	12.3	1.46e-04	0	43	0	893386752	22	5328
2026-01-22 09:25:29.81	7.15	27.65	-30.8	-33.9	12.6	1.96e-04	0	44	0	894435328	22	5156
2026-01-22 09:25:30.81	6.95	27.51	-30.6	-33.6	12.8	7.40e-05	0	44	0	896532480	22	5035
2026-01-22 09:25:31.81	6.75	27.38	-30.6	-33.4	12.9	3.89e-05	0	44	0	898629632	22	4963
2026-01-22 09:25:32.81	6.56	27.24	-30.6	-33.3	12.9	3.66e-05	0	44	0	900726784	22	4952
2026-01-22 09:25:33.81	6.36	27.11	-30.5	-33.1	13.0	3.81e-05	0	43	0	902823936	22	4871
2026-01-22 09:25:34.82	6.17	26.97	-30.5	-33.1	13.1	2.89e-05	0	44	0	903872512	22	4871
2026-01-22 09:25:35.82	5.97	26.84	-30.4	-32.8	13.3	2.13e-05	0	44	0	905969664	22	4755
2026-01-22 09:25:36.82	5.78	26.70	-30.4	-32.8	13.3	2.28e-05	0	44	0	908066816	22	4749
2026-01-22 09:25:37.83	5.59	26.57	-30.3	-32.7	13.3	9.90e-06	0	44	0	910163968	22	4740
2026-01-22 09:25:38.84	5.41	26.43	-30.5	-33.2	13.0	2.44e-05	0	44	0	912261120	22	4894
2026-01-22 09:25:39.84	5.22	26.30	-30.5	-33.1	13.1	5.18e-05	0	44	0	913309696	22	4874
2026-01-22 09:25:40.84	5.04	26.17	-30.5	-33.2	13.0	5.03e-05	0	44	0	915406848	22	4896
2026-01-22 09:25:41.85	4.85	26.04	-30.6	-33.4	12.8	5.26e-05	0	44	0	917504000	22	4998
2026-01-22 09:25:42.85	4.67	25.91	-30.7	-33.8	12.6	7.70e-05	0	44	0	919601152	22	5122
2026-01-22 09:25:43.85	4.49	25.77	-30.7	-33.8	12.6	1.09e-04	0	44	0	920649728	22	5124
2026-01-22 09:25:44.86	4.31	25.64	-30.6	-33.4	12.8	4.80e-05	0	44	0	922746880	22	4986
2026-01-22 09:25:45.86	4.14	25.51	-30.6	-33.5	12.7	5.64e-05	0	43	0	924844032	22	5028
2026-01-22 09:25:46.86	3.96	25.38	-30.8	-34.1	12.3	8.85e-05	0	44	0	926941184	22	5243
2026-01-22 09:25:47.87	3.79	25.25	-30.7	-33.8	12.5	1.69e-04	0	44	0	929038336	22	5130
2026-01-22 09:25:48.87	3.62	25.12	-30.8	-34.1	12.3	1.58e-04	0	44	0	930086912	22	5265
2026-01-22 09:25:49.88	3.44	24.99	-30.8	-34.0	12.4	1.97e-04	0	44	0	932184064	22	5202
2026-01-22 09:25:50.88	3.28	24.86	-30.9	-34.3	12.1	1.69e-04	0	44	0	934281216	22	5354
2026-01-22 09:25:51.88	3.11	24.73	-30.9	-34.3	12.2	2.50e-04	0	43	0	936378368	22	5339
2026-01-22 09:25:52.88	2.94	24.60	-30.7	-33.9	12.4	1.37e-04	0	44	0	938475520	22	5191
2026-01-22 09:25:53.89	2.78	24.48	-30.7	-33.7	12.5	1.40e-04	0	44	0	939524096	22	5117
2026-01-22 09:25:54.89	2.61	24.35	-30.6	-33.6	12.6	1.20e-04	0	44	0	941621248	22	5075
2026-01-22 09:25:55.90	2.45	24.22	-30.5	-33.3	12.8	7.01e-05	0	43	0	943718400	22	4973
2026-01-22 09:25:56.90	2.29	24.09	-30.4	-33.1	12.9	6.40e-05	0	44	0	945815552	22	4891
2026-01-22 09:25:57.91	2.13	23.97	-30.4	-32.9	13.1	3.58e-05	0	43	0	947912704	22	4807
2026-01-22 09:25:58.91	1.97	23.84	-30.4	-33.0	13.0	2.97e-05	0	44	0	948961280	22	4837
2026-01-22 09:25:59.92	1.81	23.71	-30.3	-32.6	13.2	2.21e-05	0	44	0	951058432	22	4718
2026-01-22 09:26:00.93	1.65	23.59	-30.2	-33.0	13.3	2.44e-05	0	43	0	953155584	21	4971
2026-01-22 09:26:01.92	1.50	23.46	-30.3	-33.1	13.2	1.75e-05	0	44	0	955252736	21	4999
2026-01-22 09:26:02.92	1.35	23.34	-30.3	-33.3	13.2	2.21e-05	0	44	0	957349888	21	5078
2026-01-22 09:26:03.92	1.20	23.21	-30.4	-33.3	13.1	2.44e-05	0	44	0	958398464	21	5084
2026-01-22 09:26:04.92	1.05	23.09	-30.5	-33.7	12.8	2.51e-05	0	44	0	960495616	21	5227
2026-01-22 09:26:05.93	0.90	22.97	-30.4	-33.6	12.9	6.17e-05	0	44	0	962592768	21	5165
2026-01-22 09:26:06.93	0.75	22.84	-30.6	-34.0	12.7	7.70e-05	0	44	0	964689920	21	5333
2026-01-22 09:26:07.94	0.60	22.72	-30.6	-34.0	12.6	1.01e-04	0	44	0	966787072	21	5325
2026-01-22 09:26:08.94	0.45	22.60	-30.6	-34.3	12.5	1.05e-04	0	44	0	967835648	21	5458
2026-01-22 09:26:09.94	0.31	22.48	-30.7	-34.3	12.4	1.17e-04	0	44	0	969932800	21	5449
2026-01-22 09:26:10.95	0.16	22.35	-30.7	-34.4	12.3	1.44e-04	0	44	0	972029952	21	5504
2026-01-22 09:26:11.95	0.02	22.23	-30.6	-34.2	12.5	1.61e-04	0	44	0	974127104	21	5428
2026-01-22 09:26:12.95	359.88	22.11	-30.7	-34.5	12.3	1.66e-04	0	44	0	976224256	21	5545
2026-01-22 09:26:13.95	359.74	21.99	-30.7	-34.3	12.4	2.17e-04	0	43	0	977272832	21	5486
2026-01-22 09:26:14.96	359.60	21.87	-30.6	-34.2	12.4	1.41e-04	0	44	0	979369984	21	5455
2026-01-22 09:26:15.96	359.46	21.75	-30.6	-34.2	12.4	1.48e-04	0	44	0	981467136	21	5449
2026-01-22 09:26:16.96	359.33	21.63	-30.7	-34.3	12.3	1.54e-04	0	44	0	983564288	21	5476
2026-01-22 09:26:17.96	359.19	21.51	-30.7	-34.6	12.2	1.93e-04	0	44	0	984612864	21	5588
2026-01-22 09:26:18.96	359.06	21.39	-30.5	-33.9	12.6	1.26e-04	0	44	0	986710016	21	5304
2026-01-22 09:26:19.96	358.92	21.28	-30.3	-33.3	13.0	6.63e-05	0	44	0	988807168	21	5087
2026-01-22 09:26:20.97	358.79	21.16	-30.3	-33.3	13.1	3.05e-05	0	44	0	990904320	21	5067
2026-01-22 09:26:21.97	358.66	21.04	-30.4	-33.5	12.9	5.95e-05	0	44	0	993001472	21	5153
2026-01-22 09:26:22.97	358.53	20.92	-30.3	-33.4	12.9	5.34e-05	0	44	0	994050048	21	5122
2026-01-22 09:26:23.97	358.40	20.81	-30.5	-33.8	12.6	5.49e-05	0	44	0	996147200	21	5298
2026-01-22 09:26:24.97	358.27	20.69	-30.4	-33.7	12.7	7.70e-05	0	44	0	998244352	21	5228
2026-01-22 09:26:25.98	358.14	20.57	-30.6	-34.2	12.4	1.53e-04	0	44	0	1000341504	21	5447
2026-01-22 09:26:26.99	358.01	20.46	-30.5	-33.8	12.6	1.40e-04	0	44	0	1002438656	21	5290
2026-01-22 09:26:27.99	357.89	20.34	-30.4	-33.5	12.8	7.40e-05	0	44	0	1003487232	21	5167
2026-01-22 09:26:28.99	357.76	20.23	-30.4	-33.6	12.8	5.87e-05	0	43	0	1005584384	21	5198
2026-01-22 09:26:30.00	357.64	20.11	-30.3	-33.4	12.9	4.57e-05	0	44	0	1007681536	21	5144
2026-01-22 09:26:31.00	357.52	20.00	-30.4	-33.6	12.8	4.95e-05	0	44	0	1009778688	21	5188
2026-01-22 09:26:32.00	357.39	19.89	-30.4	-33.7	12.7	5.95e-05	0	44	0	1011875840	21	5240
2026-01-22 09:26:33.00	357.27	19.77	-30.5	-34.0	12.5	9.76e-05	0	44	0	1012924416	21	5372
2026-01-22 09:26:34.01	357.15	19.66	-30.4	-33.5	12.8	8.92e-05	0	44	0	1015021568	21	5172
2026-01-22 09:26:35.00	357.03	19.55	-30.3	-33.3	12.9	6.02e-05	0	44	0	1017118720	21	5100
2026-01-22 09:26:36.01	356.92	19.44	-30.3	-33.2	13.0	4.04e-05	0	44	0	1019215872	21	5056
2026-01-22 09:26:37.01	356.80	19.32	-30.3	-33.2	12.9	3.35e-05	0	44	0	1021313024	21	5067
2026-01-22 09:26:38.01	356.68	19.21	-30.4	-33.6	12.7	5.64e-05	0	44	0	1022361600	21	5194
2026-01-22 09:26:39.01	356.57	19.10	-30.2	-33.2	13.0	3.96e-05	0	44	0	1024458752	21	5051
2026-01-22 09:26:40.02	356.45	18.99	-30.2	-33.1	13.0	4.57e-05	0	44	0	1026555904	21	5026
2026-01-22 09:26:41.02	356.34	18.88	-30.3	-33.2	13.0	2.97e-05	0	43	0	1028653056	21	5072
2026-01-22 09:26:42.02	356.22	18.77	-30.2	-33.1	13.0	4.11e-05	0	44	0	1029701632	21	5037
2026-01-22 09:26:43.03	356.11	18.66	-30.3	-33.3	12.9	5.26e-05	0	44	0	1031798784	21	5095
2026-01-22 09:26:44.03	356.00	18.55	-30.4	-33.7	12.6	1.32e-04	0	44	0	1033895936	21	5249
2026-01-22 09:26:45.04	355.89	18.44	-30.4	-33.6	12.7	9.15e-05	0	44	0	1035993088	21	5199
2026-01-22 09:26:46.04	355.78	18.33	-30.5	-33.9	12.5	8.39e-05	0	44	0	1038090240	21	5315
2026-01-22 09:26:47.05	355.67	18.23	-30.5	-33.8	12.5	1.07e-04	0	44	0	1039138816	21	5317
2026-01-22 09:26:48.05	355.56	18.12	-30.6	-34.1	12.3	2.33e-04	0	44	0	1041235968	21	5429
2026-01-22 09:26:49.06	355.45	18.01	-30.4	-33.8	12.6	2.01e-04	0	44	0	1043333120	21	5275
2026-01-22 09:26:50.06	355.35	17.90	-30.5	-34.0	12.4	1.51e-04	0	44	0	1045430272	21	5370
2026-01-22 09:26:51.06	355.24	17.80	-30.5	-33.8	12.5	1.42e-04	0	44	0	1047527424	21	5309
2026-01-22 09:26:52.06	355.14	17.69	-30.3	-33.5	12.7	1.32e-04	0	44	0	1048576000	21	5193
2026-01-22 09:26:53.07	355.03	17.58	-30.4	-33.6	12.7	2.78e-04	0	44	0	1050673152	21	5203
2026-01-22 09:26:54.07	354.93	17.48	-30.3	-33.5	12.7	7.09e-05	0	44	0	1052770304	21	5164
2026-01-22 09:26:55.08	354.82	17.37	-30.3	-33.4	12.8	6.94e-05	0	44	0	1054867456	21	5124
2026-01-22 09:26:56.09	354.72	17.27	-30.4	-33.6	12.6	1.11e-04	0	44	0	1056964608	21	5217
2026-01-22 09:26:57.09	354.62	17.16	-30.4	-33.5	12.6	1.88e-04	0	44	0	1058013184	21	5195
2026-01-22 09:26:58.09	354.52	17.06	-30.4	-33.6	12.6	1.63e-04	0	44	0	1060110336	21	5213
2026-01-22 09:26:59.10	354.42	16.96	-30.5	-33.8	12.4	1.52e-04	0	44	0	1062207488	21	5318
2026-01-22 09:27:00.10	354.32	16.85	-30.4	-33.6	12.6	1.20e-04	0	44	0	1064304640	21	5216
2026-01-22 09:27:01.11	354.22	16.75	-30.4	-33.6	12.6	3.11e-04	0	44	0	1066401792	21	5226
2026-01-22 09:27:02.11	354.12	16.65	-30.4	-33.8	12.5	3.83e-04	0	44	0	1067450368	21	5297
2026-01-22 09:27:03.12	354.03	16.54	-30.4	-33.7	12.5	1.86e-04	0	44	0	1069547520	21	5275
2026-01-22 09:27:04.12	353.93	16.44	-30.5	-33.9	12.3	1.97e-04	0	44	0	1071644672	21	5348
2026-01-22 09:27:05.12	353.83	16.34	-30.4	-33.7	12.5	4.07e-04	0	44	0	1073741824	21	5281
2026-01-22 09:27:06.12	353.74	16.24	-30.5	-33.9	12.4	5.74e-04	0	44	0	1075838976	21	5347
2026-01-22 09:27:07.12	353.65	16.14	-30.5	-33.9	12.3	3.25e-04	0	44	0	1076887552	21	5363
2026-01-22 09:27:08.12	353.55	16.04	-30.6	-34.2	12.1	2.42e-04	0	44	0	1078984704	21	5481
2026-01-22 09:27:09.13	353.46	15.94	-30.6	-34.2	12.1	2.59e-04	0	44	0	1081081856	21	5469
2026-01-22 09:27:10.12	353.37	15.84	-30.6	-34.3	12.1	1.00e-03	0	44	0	1083179008	21	5523
2026-01-22 09:27:11.12	353.28	15.74	-30.7	-34.6	11.8	7.60e-04	0	44	0	1084227584	21	5638
2026-01-22 09:27:12.12	353.18	15.64	-30.6	-34.4	12.0	5.79e-04	0	44	0	1086324736	21	5562
2026-01-22 09:27:13.12	353.09	15.54	-30.7	-34.7	11.7	5.32e-04	0	44	0	1088421888	21	5699
2026-01-22 09:27:14.12	353.00	15.44	-30.6	-34.4	12.0	1.09e-03	0	44	0	1090519040	21	5577
2026-01-22 09:27:15.13	352.91	15.34	-30.8	-35.0	11.5	1.17e-03	0	44	0	1092616192	21	5815
2026-01-22 09:27:16.13	352.83	15.24	-30.6	-34.4	11.9	6.30e-04	0	44	0	1093664768	21	5587
2026-01-22 09:27:17.13	352.74	15.15	-30.5	-34.1	12.1	4.32e-04	0	44	0	1095761920	21	5456
2026-01-22 09:27:18.13	352.65	15.05	-30.5	-34.1	12.1	8.22e-04	0	44	0	1097859072	21	5453
2026-01-22 09:27:19.14	352.56	14.95	-30.5	-34.2	12.1	1.14e-03	0	44	0	1099956224	21	5467
2026-01-22 09:27:20.15	352.48	14.85	-30.5	-34.1	12.1	3.99e-04	0	44	0	1102053376	21	5451
2026-01-22 09:27:21.14	352.39	14.76	-30.5	-34.2	12.0	3.72e-04	0	44	0	1103101952	21	5493
2026-01-22 09:27:22.14	352.31	14.66	-30.5	-34.2	12.0	3.97e-04	0	44	0	1105199104	21	5509
2026-01-22 09:27:23.15	352.22	14.57	-30.6	-34.5	11.8	1.18e-03	0	44	0	1107296256	21	5619
2026-01-22 09:27:24.15	352.14	14.47	-30.6	-34.4	11.9	5.15e-04	0	44	0	1109393408	21	5552
2026-01-22 09:27:25.15	352.05	14.38	-30.7	-34.7	11.7	5.34e-04	0	44	0	1111490560	21	5691
2026-01-22 09:27:26.15	351.97	14.28	-30.8	-34.9	11.5	6.23e-04	0	44	0	1112539136	21	5806
2026-01-22 09:27:27.16	351.89	14.19	-30.7	-34.8	11.6	7.39e-04	0	44	0	1114636288	21	5776
2026-01-22 09:27:28.16	351.81	14.09	-30.8	-35.1	11.3	8.93e-04	0	44	0	1116733440	21	5890
2026-01-22 09:27:29.16	351.73	14.00	-30.8	-35.0	11.4	8.83e-04	0	44	0	1118830592	21	5846
2026-01-22 09:27:30.17	351.64	13.90	-30.8	-35.1	11.4	9.91e-04	0	44	0	1120927744	21	5883
2026-01-22 09:27:31.17	351.56	13.81	-30.8	-35.2	11.3	1.25e-03	0	44	0	1121976320	21	5921
2026-01-22 09:27:32.17	351.49	13.72	-30.9	-35.4	11.1	1.98e-03	0	44	0	1124073472	21	6059
2026-01-22 09:27:33.18	351.41	13.63	-30.8	-35.0	11.4	1.41e-03	0	44	0	1126170624	21	5836
2026-01-22 09:27:34.18	351.33	13.53	-30.7	-34.7	11.6	8.46e-04	0	44	0	1128267776	21	5704
2026-01-22 09:27:35.18	351.25	13.44	-30.6	-34.6	11.6	8.44e-04	0	44	0	1130364928	21	5684
2026-01-22 09:27:36.19	351.17	13.35	-30.7	-34.7	11.6	1.05e-03	0	43	0	1131413504	21	5743
2026-01-22 09:27:37.19	351.09	13.26	-30.6	-34.5	11.6	1.30e-03	0	44	0	1133510656	21	5673
2026-01-22 09:27:38.20	351.02	13.17	-30.7	-34.7	11.5	1.14e-03	0	44	0	1135607808	21	5755
2026-01-22 09:27:39.21	350.94	13.07	-30.6	-34.6	11.6	1.12e-03	0	44	0	1137704960	21	5696
2026-01-22 09:27:40.21	350.87	12.98	-30.7	-35.0	11.3	1.97e-03	0	44	0	1139802112	21	5866
2026-01-22 09:27:41.21	350.79	12.89	-30.6	-34.6	11.6	1.45e-03	0	44	0	1140850688	21	5679
2026-01-22 09:27:42.22	350.71	12.80	-30.6	-34.4	11.7	1.21e-03	0	44	0	1142947840	21	5607
2026-01-22 09:27:43.22	350.64	12.71	-30.6	-34.3	11.8	7.35e-04	0	44	0	1145044992	21	5565
2026-01-22 09:27:44.22	350.57	12.62	-30.5	-34.4	11.8	1.31e-03	0	43	0	1147142144	21	5603
2026-01-22 09:27:45.23	350.49	12.53	-30.6	-34.5	11.6	1.15e-03	0	44	0	1148190720	21	5672
2026-01-22 09:27:46.23	350.42	12.44	-30.7	-34.9	11.4	1.07e-03	0	44	0	1150287872	21	5798
2026-01-22 09:27:47.23	350.35	12.36	-30.7	-34.8	11.4	9.43e-04	0	44	0	1152385024	21	5798
2026-01-22 09:27:48.24	350.28	12.27	-30.8	-35.0	11.3	1.10e-03	0	44	0	1154482176	21	5884
2026-01-22 09:27:49.25	350.20	12.18	-30.8	-35.1	11.2	1.39e-03	0	44	0	1156579328	21	5956
2026-01-22 09:27:50.25	350.13	12.09	-30.8	-35.1	11.2	1.51e-03	0	44	0	1157627904	21	5922
2026-01-22 09:27:51.25	350.06	12.00	-30.8	-35.4	11.0	1.83e-03	0	44	0	1159725056	21	6072
2026-01-22 09:27:52.26	349.99	11.91	-30.8	-35.3	11.0	2.07e-03	0	44	0	1161822208	21	6025
2026-01-22 09:27:53.27	349.92	11.83	-30.9	-35.5	11.0	2.50e-03	0	44	0	1163919360	21	6090
2026-01-22 09:27:54.27	349.85	11.74	-30.9	-35.6	10.8	2.62e-03	0	44	0	1166016512	21	6157
2026-01-22 09:27:55.27	349.79	11.65	-31.0	-35.7	10.7	2.62e-03	0	44	0	1167065088	21	6240
2026-01-22 09:27:56.27	349.72	11.57	-31.1	-35.7	10.3	3.49e-03	0	44	0	1169162240	22	6141
2026-01-22 09:27:57.28	349.65	11.48	-31.2	-36.0	10.2	7.12e-03	0	44	0	1171259392	22	6257
2026-01-22 09:27:58.28	349.58	11.40	-31.0	-35.5	10.5	4.69e-03	0	44	0	1173356544	22	6046
2026-01-22 09:27:59.28	349.51	11.31	-31.1	-35.9	10.3	5.00e-03	0	44	0	1175453696	22	6202
2026-01-22 09:28:00.28	349.45	11.22	-31.2	-35.9	10.2	7.45e-03	0	44	0	1176502272	22	6230
2026-01-22 09:28:01.28	349.38	11.14	-31.1	-35.6	10.4	6.00e-03	0	44	0	1178599424	22	6079
2026-01-22 09:28:02.29	349.32	11.05	-31.0	-35.3	10.7	3.64e-03	0	44	0	1180696576	22	5929
2026-01-22 09:28:03.29	349.25	10.97	-31.0	-35.3	10.6	3.94e-03	0	44	0	1182793728	22	5928
2026-01-22 09:28:04.29	349.19	10.89	-31.0	-35.3	10.7	3.98e-03	0	44	0	1184890880	22	5905
2026-01-22 09:28:05.29	349.12	10.80	-30.9	-35.2	10.7	3.74e-03	0	44	0	1185939456	22	5861
2026-01-22 09:28:06.30	349.06	10.72	-30.9	-35.0	10.9	3.51e-03	0	44	0	1188036608	22	5764
2026-01-22 09:28:07.30	348.99	10.63	-30.8	-34.8	11.0	2.65e-03	0	44	0	1190133760	22	5699
2026-01-22 09:28:08.31	348.93	10.55	-30.9	-34.9	10.9	2.86e-03	0	44	0	1192230912	22	5756
2026-01-22 09:28:09.31	348.87	10.47	-30.9	-35.0	10.9	3.07e-03	0	44	0	1194328064	22	5763
2026-01-22 09:28:10.31	348.80	10.39	-30.9	-35.0	10.8	2.93e-03	0	44	0	1195376640	22	5775
2026-01-22 09:28:11.31	348.74	10.30	-31.0	-35.3	10.6	4.23e-03	0	44	0	1197473792	22	5907
2026-01-22 09:28:12.32	348.68	10.22	-30.9	-35.0	10.8	3.63e-03	0	44	0	1199570944	22	5785
2026-01-22 09:28:13.32	348.62	10.14	-30.8	-35.0	10.7	3.15e-03	0	44	0	1201668096	22	5827
2026-01-22 09:28:14.31	348.56	10.06	-31.0	-35.3	10.5	4.60e-03	0	44	0	1202716672	22	5934
2026-01-22 09:28:15.32	348.50	9.97	-30.9	-35.1	10.7	3.66e-03	0	44	0	1204813824	22	5858
2026-01-22 09:28:16.32	348.43	9.89	-30.9	-35.1	10.7	4.04e-03	0	44	0	1206910976	22	5847
2026-01-22 09:28:17.32	348.37	9.81	-30.9	-35.3	10.5	4.19e-03	0	44	0	1209008128	22	5947
2026-01-22 09:28:18.32	348.32	9.73	-31.0	-35.4	10.4	5.38e-03	0	44	0	1211105280	22	6001
2026-01-22 09:28:19.33	348.26	9.65	-30.9	-35.2	10.6	4.68e-03	0	44	0	1212153856	22	5905
2026-01-22 09:28:20.33	348.20	9.57	-30.9	-35.2	10.6	4.15e-03	0	44	0	1214251008	22	5901
2026-01-22 09:28:21.33	348.14	9.49	-30.9	-35.3	10.6	4.51e-03	0	44	0	1216348160	22	5924
2026-01-22 09:28:22.34	348.08	9.41	-30.9	-35.3	10.5	4.48e-03	0	44	0	1218445312	22	5936
2026-01-22 09:28:23.35	348.02	9.33	-31.0	-35.4	10.4	5.63e-03	0	44	0	1220542464	22	6012
2026-01-22 09:28:24.35	347.96	9.25	-30.8	-35.1	10.6	4.72e-03	0	44	0	1221591040	22	5869
2026-01-22 09:28:25.35	347.91	9.17	-30.9	-35.2	10.5	4.44e-03	0	44	0	1223688192	22	5945
2026-01-22 09:28:26.36	347.85	9.09	-30.9	-35.3	10.4	5.08e-03	0	44	0	1225785344	22	5961
2026-01-22 09:28:27.36	347.79	9.01	-30.9	-35.4	10.3	5.50e-03	0	44	0	1227882496	22	6035
2026-01-22 09:28:28.37	347.73	8.93	-31.0	-35.6	10.2	6.43e-03	0	44	0	1229979648	22	6125
2026-01-22 09:28:29.37	347.68	8.86	-31.0	-35.6	10.2	6.78e-03	0	44	0	1231028224	22	6087
2026-01-22 09:28:30.37	347.62	8.78	-31.0	-35.7	10.1	7.01e-03	0	44	0	1233125376	22	6182
2026-01-22 09:28:31.38	347.57	8.70	-31.1	-36.1	9.8	1.21e-02	0	44	0	1235222528	22	6378
2026-01-22 09:28:32.38	347.51	8.62	-31.1	-35.8	10.0	8.55e-03	0	44	0	1237319680	22	6234
2026-01-22 09:28:33.38	347.46	8.54	-31.1	-36.1	9.7	9.48e-03	0	44	0	1239416832	22	6393
2026-01-22 09:28:34.38	347.40	8.47	-31.1	-36.2	9.6	1.33e-02	0	44	0	1240465408	22	6470
2026-01-22 09:28:35.38	347.35	8.39	-31.1	-35.9	9.9	9.79e-03	0	44	0	1242562560	22	6258
2026-01-22 09:28:36.38	347.30	8.31	-31.0	-35.7	10.0	8.78e-03	0	44	0	1244659712	22	6190
2026-01-22 09:28:37.37	347.24	8.24	-31.0	-35.8	9.9	7.32e-03	0	44	0	1246756864	22	6214
2026-01-22 09:28:38.37	347.19	8.16	-31.1	-36.1	9.7	1.15e-02	0	44	0	1248854016	22	6414
2026-01-22 09:28:39.38	347.14	8.08	-31.1	-36.2	9.6	1.39e-02	0	44	0	1249902592	22	6455
2026-01-22 09:28:40.38	347.08	8.01	-31.1	-35.9	9.9	1.09e-02	0	44	0	1251999744	22	6283
2026-01-22 09:28:41.39	347.03	7.93	-30.9	-35.5	10.1	7.24e-03	0	44	0	1254096896	22	6072
2026-01-22 09:28:42.39	346.98	7.86	-30.9	-35.4	10.2	6.22e-03	0	44	0	1256194048	22	6039
2026-01-22 09:28:43.40	346.93	7.78	-30.9	-35.4	10.1	6.59e-03	0	44	0	1258291200	22	6077
2026-01-22 09:28:44.40	346.88	7.71	-30.9	-35.5	10.1	6.97e-03	0	44	0	1259339776	22	6106
2026-01-22 09:28:45.40	346.82	7.63	-31.1	-36.0	9.7	9.88e-03	0	44	0	1261436928	22	6369
2026-01-22 09:28:46.40	346.77	7.56	-31.1	-36.0	9.7	1.09e-02	0	44	0	1263534080	22	6377
2026-01-22 09:28:47.40	346.72	7.48	-31.1	-36.1	9.6	1.25e-02	0	44	0	1265631232	22	6426
2026-01-22 09:28:48.41	346.67	7.41	-31.2	-36.6	9.3	1.62e-02	0	44	0	1266679808	22	6681
2026-01-22 09:28:49.41	346.62	7.33	-31.2	-36.6	9.2	2.18e-02	0	44	0	1268776960	22	6688
2026-01-22 09:28:50.42	346.57	7.26	-31.1	-36.4	9.3	1.82e-02	0	44	0	1270874112	22	6582
2026-01-22 09:28:51.41	346.52	7.18	-31.1	-36.3	9.4	1.65e-02	0	44	0	1272971264	22	6575
2026-01-22 09:28:52.42	346.47	7.11	-32.4	-42.3	5.1	2.29e-02	0	44	0	1275068416	24	11261
2026-01-22 09:28:53.42	346.42	7.04	-33.1	-47.1	3.8	1.49e+00	0	44	104	1275068416	26	17952
2026-01-22 09:28:54.42	346.38	6.96	-33.4	-47.8	3.8	1.49e+00	0	44	104	1275068416	26	19055
2026-01-22 09:28:55.43	346.33	6.89	-33.6	-47.8	3.8	1.49e+00	0	44	104	1275068416	27	18438

#Closed at: 2026-01-22 09:28:56
#Recorded file [1275 MB]: D:/data/31010_260122_121732.dat