passes_logs/2026/01/22/R2M6_AANII_01/R2M6_AANII_01__20260122_224509_SUOMI_NPP_rec.log

#Pass ID: 20260122_224509_SUOMI NPP
#Satellite: SUOMI NPP
#Configuration: NPP
#almurnet v.1.7.20240730
#Start time: 2026-01-22 22:45:10

#Version: 2.2.20231116
#Station: R2M6_AANII_01
#Location: 30.233357 lon 59.946436 lat
#TLE: 1 37849U 11061A   26022.50498765  .00000208  00000+0  11976-3 0  9992
#TLE: 2 37849  98.7820 324.4892 0002275  50.8149 309.3229 14.19528284737775

#Time	Az	El	Level	Level2	SNR	BER	BlckErr	Temp	State	Recorded	gain1	gain2
2026-01-22 22:45:10.89	30.82	7.08	-32.0	-37.4	4.8	1.28e+00	0	42	0	0	24	6656
2026-01-22 22:45:11.88	30.92	7.14	-32.4	-39.1	4.4	1.39e+00	0	41	104	0	25	7749
2026-01-22 22:45:12.88	31.02	7.20	-32.4	-38.6	5.7	4.45e-01	0	42	0	0	25	7398
2026-01-22 22:45:13.89	31.12	7.26	-32.5	-39.4	5.3	4.94e-01	0	42	0	1048576	25	7925
2026-01-22 22:45:14.89	31.22	7.33	-32.4	-38.6	5.8	4.64e-01	0	42	0	3145728	25	7353
2026-01-22 22:45:15.89	31.32	7.39	-32.4	-38.9	5.9	3.52e-01	0	42	0	5242880	24	7627
2026-01-22 22:45:16.90	31.42	7.45	-32.4	-39.1	5.8	3.20e-01	0	42	0	7340032	24	7787
2026-01-22 22:45:17.90	31.52	7.51	-32.3	-38.6	6.1	3.08e-01	0	42	0	9437184	24	7362
2026-01-22 22:45:18.90	31.62	7.57	-32.2	-37.8	6.7	2.20e-01	0	42	0	10485760	24	6832
2026-01-22 22:45:19.91	31.72	7.64	-32.1	-37.1	7.2	1.57e-01	0	42	0	12582912	24	6400
2026-01-22 22:45:20.91	31.82	7.70	-32.0	-36.6	7.6	1.03e-01	0	42	0	14680064	24	6116
2026-01-22 22:45:21.92	31.93	7.76	-31.9	-36.7	8.0	6.78e-02	0	42	0	16777216	23	6267
2026-01-22 22:45:22.92	32.03	7.82	-31.9	-36.8	7.9	6.95e-02	0	42	0	17825792	23	6319
2026-01-22 22:45:23.93	32.13	7.89	-32.1	-36.9	7.4	1.04e-01	0	42	0	19922944	24	6288
2026-01-22 22:45:24.93	32.24	7.95	-32.3	-37.9	6.7	1.56e-01	0	42	0	22020096	24	6878
2026-01-22 22:45:25.94	32.34	8.01	-32.2	-37.3	7.2	1.61e-01	0	42	0	24117248	24	6492
2026-01-22 22:45:26.95	32.45	8.08	-31.9	-36.2	8.0	9.06e-02	0	42	0	26214400	24	5881
2026-01-22 22:45:27.95	32.55	8.14	-31.8	-35.5	8.6	4.18e-02	0	42	0	27262976	24	5511
2026-01-22 22:45:28.96	32.66	8.20	-31.6	-34.7	9.2	2.40e-02	0	42	0	29360128	24	5139
2026-01-22 22:45:29.96	32.76	8.26	-31.3	-33.7	10.0	1.28e-02	0	42	0	31457280	24	4751
2026-01-22 22:45:30.96	32.87	8.33	-31.2	-33.8	10.3	6.07e-03	0	42	0	33554432	23	4865
2026-01-22 22:45:31.96	32.97	8.39	-31.3	-34.2	10.0	5.34e-03	0	42	0	35651584	23	5035
2026-01-22 22:45:32.96	33.08	8.45	-31.3	-34.3	9.9	7.45e-03	0	42	0	36700160	23	5051
2026-01-22 22:45:33.95	33.19	8.52	-31.2	-33.8	10.3	5.73e-03	0	42	0	38797312	23	4857
2026-01-22 22:45:34.95	33.29	8.58	-31.2	-33.7	10.4	5.17e-03	0	42	0	40894464	23	4826
2026-01-22 22:45:35.95	33.40	8.64	-31.1	-33.4	10.7	3.85e-03	0	42	0	42991616	23	4698
2026-01-22 22:45:36.95	33.51	8.71	-31.2	-33.6	10.5	3.49e-03	0	42	0	45088768	23	4783
2026-01-22 22:45:37.95	33.62	8.77	-31.0	-33.2	10.8	3.15e-03	0	42	0	46137344	23	4621
2026-01-22 22:45:38.96	33.73	8.83	-30.8	-32.5	11.3	2.13e-03	0	42	0	48234496	23	4361
2026-01-22 22:45:39.96	33.84	8.90	-30.9	-32.8	11.2	1.29e-03	0	42	0	50331648	23	4455
2026-01-22 22:45:40.95	33.95	8.96	-30.8	-32.6	11.3	1.10e-03	0	42	0	52428800	23	4397
2026-01-22 22:45:41.96	34.06	9.02	-31.0	-33.1	10.9	1.59e-03	0	42	0	54525952	23	4562
2026-01-22 22:45:42.96	34.17	9.09	-30.8	-32.6	11.3	1.21e-03	0	42	0	55574528	23	4382
2026-01-22 22:45:43.97	34.29	9.15	-30.6	-32.4	11.8	6.70e-04	0	43	0	57671680	22	4419
2026-01-22 22:45:44.97	34.40	9.22	-30.6	-32.2	12.0	3.36e-04	0	43	0	59768832	22	4337
2026-01-22 22:45:45.98	34.51	9.28	-30.5	-31.9	12.2	2.27e-04	0	43	0	61865984	22	4229
2026-01-22 22:45:46.97	34.62	9.34	-30.4	-31.8	12.3	1.93e-04	0	43	0	62914560	22	4202
2026-01-22 22:45:47.97	34.74	9.41	-30.4	-31.8	12.3	1.62e-04	0	42	0	65011712	22	4190
2026-01-22 22:45:48.97	34.85	9.47	-30.5	-32.1	12.1	2.36e-04	0	43	0	67108864	22	4290
2026-01-22 22:45:49.97	34.97	9.54	-30.6	-32.2	11.9	3.18e-04	0	43	0	69206016	22	4353
2026-01-22 22:45:50.97	35.08	9.60	-30.5	-31.9	12.2	3.33e-04	0	43	0	71303168	22	4250
2026-01-22 22:45:51.97	35.20	9.67	-30.5	-31.8	12.3	2.30e-04	0	43	0	72351744	22	4210
2026-01-22 22:45:52.97	35.31	9.73	-30.5	-31.9	12.2	2.16e-04	0	43	0	74448896	22	4253
2026-01-22 22:45:53.98	35.43	9.80	-30.5	-31.8	12.3	1.75e-04	0	43	0	76546048	22	4215
2026-01-22 22:45:54.98	35.55	9.86	-30.6	-32.2	12.0	2.33e-04	0	43	0	78643200	22	4347
2026-01-22 22:45:55.99	35.67	9.93	-30.5	-32.0	12.2	2.71e-04	0	43	0	80740352	22	4260
2026-01-22 22:45:56.99	35.78	9.99	-30.6	-32.3	11.9	2.70e-04	0	43	0	81788928	22	4383
2026-01-22 22:45:58.00	35.90	10.06	-30.6	-32.3	12.0	3.01e-04	0	43	0	83886080	22	4374
2026-01-22 22:45:59.00	36.02	10.12	-30.6	-32.3	12.0	3.95e-04	0	43	0	85983232	22	4364
2026-01-22 22:46:00.00	36.14	10.19	-30.7	-32.5	11.8	4.66e-04	0	43	0	88080384	22	4447
2026-01-22 22:46:01.00	36.26	10.25	-30.7	-32.6	11.8	4.24e-04	0	43	0	90177536	22	4465
2026-01-22 22:46:02.00	36.38	10.32	-30.7	-32.6	11.8	4.73e-04	0	43	0	91226112	22	4453
2026-01-22 22:46:03.01	36.51	10.38	-30.7	-32.7	11.7	5.04e-04	0	43	0	93323264	22	4497
2026-01-22 22:46:04.01	36.63	10.45	-30.9	-33.1	11.4	6.42e-04	0	43	0	95420416	22	4648
2026-01-22 22:46:05.02	36.75	10.51	-30.7	-32.7	11.7	4.95e-04	0	43	0	97517568	22	4488
2026-01-22 22:46:06.02	36.87	10.58	-30.6	-32.3	12.0	4.16e-04	0	43	0	99614720	22	4373
2026-01-22 22:46:07.02	37.00	10.64	-30.7	-32.6	11.8	3.41e-04	0	43	0	100663296	22	4457
2026-01-22 22:46:08.02	37.12	10.71	-30.6	-32.1	12.1	3.88e-04	0	43	0	102760448	22	4310
2026-01-22 22:46:09.03	37.25	10.78	-30.6	-32.1	12.2	2.14e-04	0	43	0	104857600	22	4298
2026-01-22 22:46:10.04	37.37	10.84	-30.5	-31.9	12.3	1.79e-04	0	43	0	106954752	22	4228
2026-01-22 22:46:11.04	37.50	10.91	-30.6	-32.2	12.1	1.95e-04	0	43	0	109051904	22	4316
2026-01-22 22:46:12.04	37.62	10.97	-30.5	-32.0	12.3	1.78e-04	0	43	0	110100480	22	4248
2026-01-22 22:46:13.05	37.75	11.04	-30.5	-32.0	12.3	1.56e-04	0	43	0	112197632	22	4268
2026-01-22 22:46:14.05	37.88	11.11	-30.7	-32.5	11.9	2.86e-04	0	43	0	114294784	22	4436
2026-01-22 22:46:15.06	38.01	11.17	-30.5	-31.9	12.3	2.16e-04	0	43	0	116391936	22	4240
2026-01-22 22:46:16.06	38.14	11.24	-30.3	-32.0	12.6	1.03e-04	0	43	0	118489088	21	4341
2026-01-22 22:46:17.06	38.26	11.30	-30.4	-32.2	12.4	9.91e-05	0	43	0	119537664	21	4425
2026-01-22 22:46:18.06	38.39	11.37	-30.4	-32.0	12.6	7.55e-05	0	43	0	121634816	21	4331
2026-01-22 22:46:19.07	38.52	11.44	-30.3	-32.2	12.8	3.29e-04	0	43	0	123731968	20	4502
2026-01-22 22:46:20.08	38.66	11.50	-30.4	-32.7	12.4	1.18e-04	0	43	0	125829120	20	4692
2026-01-22 22:46:21.07	38.79	11.57	-30.4	-32.7	12.5	1.12e-04	0	43	0	126877696	20	4676
2026-01-22 22:46:22.08	38.92	11.64	-30.2	-32.1	12.8	2.10e-04	0	43	0	128974848	20	4474
2026-01-22 22:46:23.07	39.05	11.70	-30.4	-32.6	12.6	8.23e-05	0	43	0	131072000	20	4628
2026-01-22 22:46:24.07	39.18	11.77	-30.3	-32.2	12.8	7.24e-05	0	43	0	133169152	20	4513
2026-01-22 22:46:25.08	39.32	11.84	-30.1	-31.9	13.1	4.50e-05	0	43	0	135266304	20	4386
2026-01-22 22:46:26.09	39.45	11.90	-30.2	-32.0	13.0	4.11e-05	0	43	0	136314880	20	4445
2026-01-22 22:46:27.08	39.58	11.97	-30.1	-31.8	13.1	1.75e-05	0	43	0	138412032	20	4376
2026-01-22 22:46:28.08	39.72	12.03	-30.3	-32.4	12.7	4.19e-05	0	43	0	140509184	20	4558
2026-01-22 22:46:29.08	39.86	12.10	-30.1	-31.8	13.1	2.67e-05	0	43	0	142606336	20	4378
2026-01-22 22:46:30.09	39.99	12.17	-30.0	-31.5	13.3	5.03e-05	0	43	0	144703488	20	4277
2026-01-22 22:46:31.10	40.13	12.24	-30.0	-31.5	13.4	1.44e-05	0	43	0	145752064	20	4265
2026-01-22 22:46:32.10	40.27	12.30	-30.1	-31.6	13.3	1.44e-05	0	43	0	147849216	20	4301
2026-01-22 22:46:33.10	40.41	12.37	-30.1	-31.8	13.2	1.15e-04	0	43	0	149946368	20	4354
2026-01-22 22:46:34.11	40.55	12.44	-30.2	-31.8	13.1	5.49e-05	0	43	0	152043520	20	4376
2026-01-22 22:46:35.12	40.69	12.50	-30.4	-32.4	12.8	6.17e-05	0	43	0	154140672	20	4547
2026-01-22 22:46:36.12	40.83	12.57	-30.4	-32.4	12.7	6.33e-05	0	43	0	155189248	20	4558
2026-01-22 22:46:37.12	40.97	12.64	-30.5	-32.7	12.6	7.17e-05	0	43	0	157286400	20	4655
2026-01-22 22:46:38.13	41.11	12.71	-30.4	-32.5	12.8	6.40e-05	0	43	0	159383552	20	4576
2026-01-22 22:46:39.13	41.25	12.77	-30.4	-32.4	12.8	6.63e-05	0	43	0	161480704	20	4553
2026-01-22 22:46:40.13	41.39	12.84	-30.3	-32.4	12.8	5.34e-05	0	43	0	163577856	20	4540
2026-01-22 22:46:41.13	41.54	12.91	-30.3	-32.2	13.0	3.35e-05	0	43	0	164626432	20	4481
2026-01-22 22:46:42.13	41.68	12.97	-30.4	-32.4	12.8	4.65e-05	0	43	0	166723584	20	4552
2026-01-22 22:46:43.14	41.83	13.04	-30.3	-32.3	12.9	4.27e-05	0	43	0	168820736	20	4507
2026-01-22 22:46:44.14	41.97	13.11	-30.3	-32.3	12.9	4.80e-05	0	43	0	170917888	20	4527
2026-01-22 22:46:45.14	42.12	13.18	-30.3	-32.3	12.9	4.42e-05	0	43	0	173015040	20	4525
2026-01-22 22:46:46.14	42.26	13.24	-30.5	-32.3	12.6	8.85e-05	0	43	0	174063616	21	4424
2026-01-22 22:46:47.13	42.41	13.31	-30.5	-32.2	12.7	9.30e-05	0	44	0	176160768	21	4389
2026-01-22 22:46:48.14	42.56	13.38	-30.5	-32.3	12.5	6.33e-05	0	43	0	178257920	21	4429
2026-01-22 22:46:49.15	42.71	13.44	-30.5	-32.3	12.5	1.34e-04	0	43	0	180355072	21	4433
2026-01-22 22:46:50.15	42.85	13.51	-30.4	-32.0	12.8	8.39e-05	0	43	0	181403648	21	4321
2026-01-22 22:46:51.15	43.00	13.58	-30.3	-31.6	13.0	3.00e-04	0	43	0	183500800	21	4198
2026-01-22 22:46:52.16	43.16	13.65	-30.1	-31.6	13.3	2.89e-05	0	43	0	185597952	20	4296
2026-01-22 22:46:53.16	43.31	13.71	-30.2	-31.9	13.2	2.13e-05	0	43	0	187695104	20	4372
2026-01-22 22:46:54.16	43.46	13.78	-30.2	-31.8	13.3	5.80e-04	0	43	0	189792256	20	4346
2026-01-22 22:46:55.16	43.61	13.85	-30.3	-32.1	13.0	6.32e-04	0	44	0	190840832	20	4447
2026-01-22 22:46:56.16	43.76	13.92	-30.1	-31.7	13.3	2.51e-05	0	43	0	192937984	20	4308
2026-01-22 22:46:57.17	43.92	13.98	-30.0	-31.3	13.6	4.57e-04	0	43	0	195035136	20	4179
2026-01-22 22:46:58.17	44.07	14.05	-29.9	-31.1	13.7	5.94e-04	0	43	0	197132288	20	4126
2026-01-22 22:46:59.17	44.23	14.12	-29.9	-31.2	13.6	6.10e-06	0	43	0	199229440	20	4165
2026-01-22 22:47:00.17	44.38	14.18	-30.1	-31.6	13.4	4.75e-04	0	43	0	200278016	20	4289
2026-01-22 22:47:01.17	44.54	14.25	-30.0	-31.5	13.5	3.72e-04	0	44	0	202375168	20	4250
2026-01-22 22:47:02.17	44.69	14.32	-30.1	-31.6	13.4	1.06e-05	0	43	0	204472320	20	4295
2026-01-22 22:47:03.17	44.85	14.39	-30.0	-31.4	13.5	6.10e-06	0	43	0	206569472	20	4225
2026-01-22 22:47:04.18	45.01	14.45	-30.1	-31.7	13.4	2.67e-05	0	44	0	208666624	20	4306
2026-01-22 22:47:05.18	45.17	14.52	-30.1	-31.6	13.4	1.90e-05	0	43	0	209715200	20	4280
2026-01-22 22:47:06.19	45.33	14.59	-30.2	-31.8	13.3	1.60e-05	0	44	0	211812352	20	4352
2026-01-22 22:47:07.19	45.49	14.66	-30.4	-32.4	12.9	3.35e-05	0	43	0	213909504	20	4540
2026-01-22 22:47:08.20	45.65	14.72	-30.2	-31.8	13.3	3.58e-05	0	43	0	216006656	20	4331
2026-01-22 22:47:09.20	45.82	14.79	-30.1	-31.6	13.5	1.44e-05	0	43	0	218103808	20	4273
2026-01-22 22:47:10.20	45.98	14.86	-30.0	-31.3	13.7	1.06e-05	0	44	0	219152384	20	4187
2026-01-22 22:47:11.20	46.14	14.93	-30.1	-31.6	13.5	1.14e-05	0	43	0	221249536	20	4259
2026-01-22 22:47:12.20	46.31	14.99	-30.0	-31.3	13.6	1.04e-04	0	44	0	223346688	20	4191
2026-01-22 22:47:13.21	46.47	15.06	-30.0	-31.2	13.7	5.30e-06	0	44	0	225443840	20	4166
2026-01-22 22:47:14.21	46.64	15.13	-30.0	-31.2	13.8	5.30e-06	0	43	0	226492416	20	4157
2026-01-22 22:47:15.22	46.80	15.19	-30.1	-31.5	13.6	1.44e-04	0	44	0	228589568	20	4243
2026-01-22 22:47:16.22	46.97	15.26	-30.2	-31.9	13.4	9.90e-06	0	43	0	230686720	20	4369
2026-01-22 22:47:17.22	47.14	15.33	-30.3	-32.1	13.2	2.36e-05	0	44	0	232783872	20	4427
2026-01-22 22:47:18.22	47.31	15.39	-30.4	-32.3	13.0	2.21e-05	0	44	0	234881024	20	4513
2026-01-22 22:47:19.22	47.48	15.46	-30.4	-32.5	12.9	3.50e-05	0	44	0	235929600	20	4556
2026-01-22 22:47:20.23	47.65	15.53	-30.4	-32.5	13.0	3.81e-05	0	44	0	238026752	20	4551
2026-01-22 22:47:21.23	47.82	15.60	-30.5	-32.6	12.8	5.64e-05	0	44	0	240123904	20	4611
2026-01-22 22:47:22.23	47.99	15.66	-30.5	-32.2	12.8	9.38e-05	0	44	0	242221056	21	4363
2026-01-22 22:47:23.24	48.16	15.73	-30.6	-32.5	12.6	1.05e-04	0	44	0	244318208	21	4466
2026-01-22 22:47:24.25	48.34	15.80	-30.3	-31.6	13.2	3.73e-05	0	44	0	245366784	21	4168
2026-01-22 22:47:25.25	48.51	15.86	-30.2	-31.3	13.4	1.14e-05	0	44	0	247463936	21	4098
2026-01-22 22:47:26.26	48.69	15.93	-30.1	-31.0	13.6	7.60e-06	0	44	0	249561088	21	3987
2026-01-22 22:47:27.26	48.86	16.00	-30.2	-31.3	13.4	7.60e-06	0	44	0	251658240	21	4088
2026-01-22 22:47:28.26	49.04	16.06	-30.3	-31.5	13.3	1.67e-05	0	44	0	253755392	21	4136
2026-01-22 22:47:29.26	49.21	16.13	-30.3	-31.6	13.2	1.44e-05	0	44	0	254803968	21	4182
2026-01-22 22:47:30.26	49.39	16.19	-30.4	-31.8	13.1	3.43e-05	0	44	0	256901120	21	4240
2026-01-22 22:47:31.26	49.57	16.26	-30.3	-31.7	13.1	2.59e-05	0	44	0	258998272	21	4196
2026-01-22 22:47:32.26	49.75	16.33	-30.2	-31.4	13.3	1.90e-05	0	44	0	261095424	21	4129
2026-01-22 22:47:33.27	49.93	16.39	-30.2	-31.3	13.4	1.22e-05	0	44	0	263192576	21	4099
2026-01-22 22:47:34.27	50.11	16.46	-30.2	-31.3	13.4	1.29e-05	0	44	0	264241152	21	4077
2026-01-22 22:47:35.28	50.29	16.53	-30.1	-31.1	13.6	1.22e-05	0	44	0	266338304	21	4030
2026-01-22 22:47:36.28	50.47	16.59	-30.2	-31.3	13.4	3.80e-06	0	43	0	268435456	21	4088
2026-01-22 22:47:37.29	50.66	16.66	-30.2	-31.8	13.4	1.83e-05	0	44	0	270532608	20	4318
2026-01-22 22:47:38.29	50.84	16.72	-30.0	-31.3	13.7	7.60e-06	0	44	0	272629760	20	4195
2026-01-22 22:47:39.29	51.03	16.79	-30.0	-31.1	13.9	4.50e-06	0	44	0	273678336	20	4127
2026-01-22 22:47:40.30	51.21	16.85	-29.9	-31.1	13.9	7.00e-07	0	44	0	275775488	20	4113
2026-01-22 22:47:41.30	51.40	16.92	-30.0	-31.2	13.8	6.80e-06	0	44	0	277872640	20	4156
2026-01-22 22:47:42.30	51.58	16.98	-30.0	-31.1	13.9	2.20e-06	0	44	0	279969792	20	4126
2026-01-22 22:47:43.30	51.77	17.05	-30.0	-31.2	13.9	1.50e-06	0	44	0	282066944	20	4130
2026-01-22 22:47:44.30	51.96	17.11	-29.9	-31.1	13.9	2.20e-06	0	44	0	283115520	20	4100
2026-01-22 22:47:45.30	52.15	17.18	-29.9	-31.1	13.9	1.50e-06	0	44	0	285212672	20	4099
2026-01-22 22:47:46.30	52.34	17.24	-30.0	-31.3	13.8	5.30e-06	0	44	0	287309824	20	4156
2026-01-22 22:47:47.30	52.53	17.31	-29.0	-30.2	13.7	2.20e-06	0	44	0	289406976	20	4157
2026-01-22 22:47:48.31	52.72	17.37	-30.0	-31.6	13.7	0.00e+00	0	44	0	290455552	19	4347
2026-01-22 22:47:49.31	52.91	17.43	-29.9	-30.9	14.0	1.50e-06	0	44	0	292552704	20	4054
2026-01-22 22:47:50.30	53.10	17.50	-30.1	-31.4	13.3	6.10e-06	0	44	0	294649856	20	4202
2026-01-22 22:47:51.30	53.30	17.56	-30.1	-31.5	13.4	5.30e-06	0	44	0	296747008	20	4225
2026-01-22 22:47:52.30	53.49	17.63	-30.1	-31.4	13.7	9.10e-06	0	44	0	298844160	20	4195
2026-01-22 22:47:53.31	53.69	17.69	-30.0	-31.2	13.8	5.30e-06	0	44	0	299892736	20	4145
2026-01-22 22:47:54.32	53.89	17.75	-30.0	-31.3	13.8	2.20e-06	0	44	0	301989888	20	4183
2026-01-22 22:47:55.32	54.08	17.82	-30.1	-31.4	13.7	4.50e-06	0	44	0	304087040	20	4195
2026-01-22 22:47:56.33	54.28	17.88	-30.2	-31.9	13.4	6.10e-06	0	44	0	306184192	20	4337
2026-01-22 22:47:57.33	54.48	17.94	-30.1	-31.5	13.7	4.57e-04	0	44	0	308281344	20	4217
2026-01-22 22:47:58.34	54.68	18.01	-30.1	-31.5	13.7	9.90e-06	0	44	0	309329920	20	4215
2026-01-22 22:47:59.34	54.88	18.07	-30.4	-32.2	13.2	8.30e-06	0	44	0	311427072	20	4450
2026-01-22 22:48:00.35	55.09	18.13	-30.4	-31.9	13.1	3.36e-04	0	44	0	313524224	21	4281
2026-01-22 22:48:01.35	55.29	18.19	-30.5	-32.1	12.9	5.03e-05	0	44	0	315621376	21	4334
2026-01-22 22:48:02.36	55.49	18.26	-30.5	-32.2	12.9	4.50e-05	0	44	0	317718528	21	4365
2026-01-22 22:48:03.36	55.70	18.32	-30.5	-32.1	13.0	4.42e-05	0	44	0	318767104	21	4312
2026-01-22 22:48:04.35	55.90	18.38	-30.6	-32.5	12.7	5.87e-05	0	44	0	320864256	21	4460
2026-01-22 22:48:05.35	56.10	18.44	-30.7	-32.6	12.6	1.22e-04	0	44	0	322961408	21	4490
2026-01-22 22:48:06.35	56.31	18.50	-30.4	-31.9	13.1	4.95e-05	0	44	0	325058560	21	4253
2026-01-22 22:48:07.35	56.52	18.56	-30.4	-31.7	13.3	1.83e-05	0	44	0	327155712	21	4206
2026-01-22 22:48:08.35	56.72	18.62	-30.2	-31.8	13.5	2.68e-04	0	44	0	328204288	20	4339
2026-01-22 22:48:09.35	56.93	18.68	-30.5	-32.1	12.9	9.90e-06	0	44	0	330301440	21	4323
2026-01-22 22:48:10.35	57.14	18.74	-30.6	-32.4	12.8	4.42e-05	0	44	0	332398592	21	4414
2026-01-22 22:48:11.36	57.35	18.81	-30.7	-32.7	12.6	4.45e-04	0	44	0	334495744	21	4511
2026-01-22 22:48:12.36	57.56	18.87	-30.6	-32.3	12.8	5.49e-05	0	44	0	335544320	21	4389
2026-01-22 22:48:13.37	57.78	18.93	-30.6	-32.3	12.8	3.96e-05	0	44	0	337641472	21	4383
2026-01-22 22:48:14.37	57.99	18.98	-30.7	-32.5	12.7	3.35e-04	0	44	0	339738624	21	4454
2026-01-22 22:48:15.37	58.20	19.04	-30.7	-32.6	12.6	4.74e-04	0	44	0	341835776	21	4497
2026-01-22 22:48:16.38	58.42	19.10	-30.8	-33.0	12.4	9.15e-05	0	44	0	343932928	21	4614
2026-01-22 22:48:17.39	58.63	19.16	-31.0	-33.4	12.1	5.27e-04	0	44	0	344981504	21	4756
2026-01-22 22:48:18.38	58.85	19.22	-31.1	-33.2	12.0	3.75e-04	0	44	0	347078656	22	4581
2026-01-22 22:48:19.39	59.07	19.28	-31.2	-33.5	11.7	6.10e-04	0	44	0	349175808	22	4713
2026-01-22 22:48:20.38	59.28	19.34	-31.1	-33.1	12.0	4.44e-04	0	44	0	351272960	22	4578
2026-01-22 22:48:21.39	59.50	19.39	-31.1	-33.2	12.0	3.81e-04	0	44	0	353370112	22	4571
2026-01-22 22:48:22.39	59.72	19.45	-31.2	-33.4	11.9	4.20e-04	0	44	0	354418688	22	4660
2026-01-22 22:48:23.39	59.94	19.51	-31.2	-33.5	11.8	4.26e-04	0	44	0	356515840	22	4711
2026-01-22 22:48:24.40	60.16	19.57	-31.3	-33.9	11.5	8.63e-04	0	44	0	358612992	22	4835
2026-01-22 22:48:25.41	60.39	19.62	-31.2	-33.6	11.7	5.84e-04	0	44	0	360710144	22	4721
2026-01-22 22:48:26.41	60.61	19.68	-31.3	-33.7	11.7	6.58e-04	0	44	0	362807296	22	4773
2026-01-22 22:48:27.42	60.83	19.74	-31.3	-33.8	11.5	1.15e-03	0	44	0	363855872	22	4822
2026-01-22 22:48:28.43	61.06	19.79	-31.1	-33.2	12.1	4.90e-04	0	44	0	365953024	22	4589
2026-01-22 22:48:29.43	61.28	19.85	-31.0	-32.9	12.2	3.13e-04	0	44	0	368050176	22	4502
2026-01-22 22:48:30.44	61.51	19.90	-30.9	-32.6	12.3	2.98e-04	0	44	0	370147328	22	4393
2026-01-22 22:48:31.44	61.74	19.96	-30.9	-32.8	12.3	1.36e-04	0	44	0	372244480	22	4446
2026-01-22 22:48:32.44	61.96	20.01	-30.8	-32.3	12.6	1.54e-04	0	44	0	373293056	22	4274
2026-01-22 22:48:33.45	62.19	20.07	-30.8	-32.4	12.6	3.28e-04	0	44	0	375390208	22	4313
2026-01-22 22:48:34.45	62.42	20.12	-30.7	-32.1	12.8	9.38e-05	0	44	0	377487360	22	4239
2026-01-22 22:48:35.45	62.65	20.17	-30.8	-32.8	12.6	3.31e-04	0	44	0	379584512	21	4552
2026-01-22 22:48:36.46	62.88	20.23	-30.8	-32.8	12.7	4.29e-04	0	44	0	381681664	21	4547
2026-01-22 22:48:37.46	63.11	20.28	-30.5	-32.1	13.0	5.26e-05	0	44	0	382730240	21	4318
2026-01-22 22:48:38.47	63.35	20.33	-30.7	-32.7	12.7	9.77e-04	0	44	0	384827392	21	4518
2026-01-22 22:48:39.47	63.58	20.39	-30.8	-32.8	12.6	1.32e-03	0	44	0	386924544	21	4554
2026-01-22 22:48:40.47	63.81	20.44	-31.1	-33.2	12.0	1.42e-04	0	44	0	389021696	22	4595
2026-01-22 22:48:41.47	64.05	20.49	-31.2	-33.5	11.8	1.88e-03	0	44	0	391118848	22	4695
2026-01-22 22:48:42.48	64.28	20.54	-31.2	-33.5	11.8	2.05e-03	0	44	0	392167424	22	4690
2026-01-22 22:48:43.49	64.52	20.59	-30.9	-32.7	12.3	3.30e-04	0	44	0	394264576	22	4441
2026-01-22 22:48:44.49	64.76	20.64	-30.8	-33.0	12.5	9.38e-05	0	44	0	396361728	21	4610
2026-01-22 22:48:45.49	64.99	20.69	-30.5	-32.0	13.1	6.41e-04	0	44	0	398458880	21	4286
2026-01-22 22:48:46.50	65.23	20.74	-30.7	-32.6	12.7	2.51e-05	0	44	0	400556032	21	4474
2026-01-22 22:48:47.50	65.47	20.79	-30.5	-32.2	12.9	5.64e-05	0	44	0	401604608	21	4340
2026-01-22 22:48:48.51	65.71	20.84	-30.5	-32.1	13.1	2.36e-05	0	44	0	403701760	21	4303
2026-01-22 22:48:49.51	65.95	20.89	-30.5	-32.1	13.1	2.67e-05	0	44	0	405798912	21	4326
2026-01-22 22:48:50.52	66.20	20.94	-30.6	-32.2	13.0	1.13e-03	0	44	0	407896064	21	4340
2026-01-22 22:48:51.52	66.44	20.98	-30.6	-32.4	12.9	5.72e-05	0	44	0	408944640	21	4397
2026-01-22 22:48:52.52	66.68	21.03	-30.6	-32.3	13.0	4.88e-05	0	44	0	411041792	21	4367
2026-01-22 22:48:53.52	66.92	21.08	-30.4	-32.2	13.3	3.57e-04	0	44	0	413138944	20	4438
2026-01-22 22:48:54.52	67.17	21.12	-30.4	-32.2	13.3	1.06e-05	0	44	0	415236096	20	4451
2026-01-22 22:48:55.52	67.41	21.17	-30.7	-32.5	12.8	3.81e-05	0	44	0	417333248	21	4451
2026-01-22 22:48:56.53	67.66	21.21	-30.7	-32.7	12.7	3.44e-04	0	44	0	418381824	21	4526
2026-01-22 22:48:57.53	67.90	21.26	-30.9	-33.2	12.3	2.46e-04	0	44	0	420478976	21	4677
2026-01-22 22:48:58.53	68.15	21.30	-30.8	-32.9	12.6	1.27e-04	0	44	0	422576128	21	4586
2026-01-22 22:48:59.53	68.40	21.35	-30.6	-32.2	13.0	5.41e-05	0	44	0	424673280	21	4358
2026-01-22 22:49:00.54	68.65	21.39	-30.5	-32.0	13.1	3.58e-05	0	44	0	426770432	21	4296
2026-01-22 22:49:01.55	68.90	21.43	-30.5	-31.9	13.2	1.90e-05	0	44	0	427819008	21	4268
2026-01-22 22:49:02.55	69.15	21.48	-30.3	-31.6	13.4	2.97e-05	0	44	0	429916160	21	4159
2026-01-22 22:49:03.55	69.40	21.52	-30.2	-31.2	13.7	1.75e-05	0	44	0	432013312	21	4043
2026-01-22 22:49:04.55	69.65	21.56	-30.4	-31.9	13.2	1.37e-05	0	44	0	434110464	21	4253
2026-01-22 22:49:05.55	69.90	21.60	-30.5	-31.9	13.2	1.83e-05	0	44	0	436207616	21	4268
2026-01-22 22:49:06.56	70.15	21.64	-30.5	-32.0	13.2	3.58e-05	0	44	0	437256192	21	4273
2026-01-22 22:49:07.56	70.40	21.68	-30.5	-32.1	13.1	1.83e-05	0	44	0	439353344	21	4326
2026-01-22 22:49:08.56	70.66	21.72	-30.6	-32.2	13.1	3.43e-05	0	44	0	441450496	21	4351
2026-01-22 22:49:09.57	70.91	21.76	-30.6	-32.3	13.0	3.58e-05	0	44	0	443547648	21	4369
2026-01-22 22:49:10.58	71.17	21.80	-30.6	-32.3	13.0	6.79e-05	0	44	0	445644800	21	4378
2026-01-22 22:49:11.58	71.43	21.84	-30.3	-31.5	13.4	1.60e-05	0	44	0	446693376	21	4137
2026-01-22 22:49:12.58	71.68	21.88	-30.0	-30.8	14.0	4.50e-06	0	44	0	448790528	21	3920
2026-01-22 22:49:13.58	71.94	21.91	-30.0	-30.6	14.1	3.80e-06	0	44	0	450887680	21	3858
2026-01-22 22:49:14.58	72.19	21.95	-29.8	-30.6	14.4	6.56e-05	0	44	0	452984832	20	3938
2026-01-22 22:49:15.59	72.45	21.99	-29.9	-30.8	14.3	0.00e+00	0	44	0	454033408	20	4005
2026-01-22 22:49:16.59	72.71	22.02	-29.9	-30.8	14.3	0.00e+00	0	44	0	456130560	20	4001
2026-01-22 22:49:17.60	72.97	22.06	-30.0	-31.1	14.1	1.50e-06	0	44	0	458227712	20	4099
2026-01-22 22:49:18.60	73.23	22.09	-29.9	-31.0	14.1	7.00e-07	0	44	0	460324864	20	4081
2026-01-22 22:49:19.61	73.49	22.12	-30.0	-31.1	14.1	3.00e-06	0	44	0	462422016	20	4090
2026-01-22 22:49:20.61	73.75	22.16	-29.9	-31.0	14.1	5.30e-06	0	44	0	464519168	20	4066
2026-01-22 22:49:21.61	74.01	22.19	-30.0	-31.2	14.0	4.50e-06	0	44	0	465567744	20	4122
2026-01-22 22:49:22.61	74.28	22.22	-30.1	-31.5	13.8	7.60e-06	0	44	0	467664896	20	4222
2026-01-22 22:49:23.60	74.54	22.25	-30.3	-32.1	13.5	8.30e-06	0	44	0	469762048	20	4393
2026-01-22 22:49:24.60	74.80	22.28	-30.5	-32.0	13.2	2.28e-05	0	44	0	471859200	21	4291
2026-01-22 22:49:25.60	75.06	22.32	-30.5	-32.1	13.1	2.05e-05	0	44	0	472907776	21	4307
2026-01-22 22:49:26.60	75.32	22.34	-30.5	-32.0	13.2	3.35e-05	0	44	0	475004928	21	4282
2026-01-22 22:49:27.60	75.59	22.37	-30.5	-32.0	13.1	1.37e-05	0	44	0	477102080	21	4297
2026-01-22 22:49:28.60	75.85	22.40	-30.4	-31.6	13.4	2.28e-05	0	44	0	479199232	21	4166
2026-01-22 22:49:29.60	76.12	22.43	-30.4	-31.8	13.3	1.29e-05	0	44	0	481296384	21	4226
2026-01-22 22:49:30.60	76.38	22.46	-30.6	-32.4	12.9	3.96e-05	0	44	0	482344960	21	4410
2026-01-22 22:49:31.60	76.65	22.49	-30.6	-32.4	12.9	4.42e-05	0	44	0	484442112	21	4413
2026-01-22 22:49:32.60	76.91	22.51	-30.8	-32.7	12.7	7.47e-05	0	44	0	486539264	21	4512
2026-01-22 22:49:33.60	77.18	22.54	-30.6	-32.3	13.0	5.18e-05	0	44	0	488636416	21	4383
2026-01-22 22:49:34.60	77.45	22.56	-30.3	-31.5	13.5	2.82e-05	0	44	0	490733568	21	4133
2026-01-22 22:49:35.61	77.72	22.59	-30.2	-31.3	13.6	9.90e-06	0	44	0	491782144	21	4085
2026-01-22 22:49:36.61	77.99	22.61	-30.3	-31.4	13.5	4.50e-06	0	44	0	493879296	21	4114
2026-01-22 22:49:37.61	78.25	22.63	-30.4	-31.8	13.2	1.29e-05	0	44	0	495976448	21	4231
2026-01-22 22:49:38.62	78.53	22.66	-30.5	-32.0	12.9	1.52e-05	0	44	0	498073600	21	4289
2026-01-22 22:49:39.62	78.80	22.68	-30.7	-32.6	12.8	5.03e-05	0	44	0	499122176	21	4472
2026-01-22 22:49:40.62	79.06	22.70	-30.8	-33.0	12.5	1.44e-04	0	44	0	501219328	21	4614
2026-01-22 22:49:41.62	79.33	22.72	-30.7	-32.6	12.7	8.69e-05	0	44	0	503316480	21	4491
2026-01-22 22:49:42.63	79.61	22.74	-30.5	-31.9	13.3	3.12e-05	0	44	0	505413632	21	4251
2026-01-22 22:49:43.63	79.88	22.76	-30.5	-31.9	13.3	1.75e-05	0	44	0	507510784	21	4263
2026-01-22 22:49:44.63	80.15	22.78	-30.4	-31.7	13.4	2.13e-05	0	44	0	508559360	21	4202
2026-01-22 22:49:45.63	80.42	22.80	-30.3	-31.4	13.6	9.90e-06	0	44	0	510656512	21	4098
2026-01-22 22:49:46.63	80.69	22.82	-30.4	-31.6	13.5	1.06e-05	0	44	0	512753664	21	4176
2026-01-22 22:49:47.63	80.96	22.83	-30.5	-31.9	13.2	1.29e-05	0	44	0	514850816	21	4265
2026-01-22 22:49:48.64	81.24	22.85	-30.3	-31.6	13.5	2.51e-05	0	44	0	516947968	21	4160
2026-01-22 22:49:49.64	81.51	22.87	-30.1	-31.1	13.8	8.16e-05	0	44	0	517996544	21	4008
2026-01-22 22:49:50.64	81.78	22.88	-30.1	-31.0	13.9	1.50e-06	0	44	0	520093696	21	3976
2026-01-22 22:49:51.64	82.06	22.90	-30.2	-31.2	13.7	2.20e-06	0	44	0	522190848	21	4040
2026-01-22 22:49:52.65	82.33	22.91	-30.2	-31.2	13.7	4.95e-05	0	44	0	524288000	21	4039
2026-01-22 22:49:53.65	82.61	22.92	-30.3	-31.4	13.6	6.10e-06	0	44	0	526385152	21	4106
2026-01-22 22:49:54.66	82.88	22.94	-30.3	-31.4	13.6	1.22e-05	0	44	0	527433728	21	4106
2026-01-22 22:49:55.66	83.16	22.95	-30.2	-31.1	13.7	5.30e-06	0	44	0	529530880	21	4019
2026-01-22 22:49:56.66	83.43	22.96	-30.0	-30.8	14.0	6.10e-06	0	44	0	531628032	21	3911
2026-01-22 22:49:57.67	83.71	22.97	-30.2	-31.2	13.8	2.20e-06	0	44	0	533725184	21	4026
2026-01-22 22:49:58.67	83.98	22.98	-30.3	-31.4	13.6	7.00e-07	0	44	0	535822336	21	4103
2026-01-22 22:49:59.67	84.26	22.99	-30.5	-31.9	13.2	1.52e-05	0	44	0	536870912	21	4268
2026-01-22 22:50:00.66	84.53	23.00	-30.6	-32.3	13.0	3.28e-05	0	44	0	538968064	21	4391
2026-01-22 22:50:01.67	84.81	23.00	-30.7	-32.5	12.9	3.89e-05	0	44	0	541065216	21	4436
2026-01-22 22:50:02.66	85.08	23.01	-30.7	-32.6	12.8	6.02e-05	0	44	0	543162368	21	4475
2026-01-22 22:50:03.66	85.35	23.02	-30.8	-32.7	12.7	6.48e-05	0	44	0	544210944	21	4528
2026-01-22 22:50:04.67	85.63	23.02	-30.6	-32.4	12.9	7.32e-05	0	44	0	546308096	21	4397
2026-01-22 22:50:05.67	85.91	23.03	-30.5	-32.1	13.1	3.43e-05	0	44	0	548405248	21	4320
2026-01-22 22:50:06.67	86.18	23.03	-30.5	-32.0	13.2	1.90e-05	0	44	0	550502400	21	4263
2026-01-22 22:50:07.68	86.46	23.04	-30.3	-31.5	13.5	1.90e-05	0	44	0	552599552	21	4130
2026-01-22 22:50:08.68	86.74	23.04	-30.3	-31.4	13.6	8.30e-06	0	44	0	553648128	21	4101
2026-01-22 22:50:09.68	87.01	23.04	-30.3	-31.5	13.5	3.80e-06	0	44	0	555745280	21	4140
2026-01-22 22:50:10.69	87.29	23.04	-30.3	-31.5	13.5	6.02e-05	0	44	0	557842432	21	4120
2026-01-22 22:50:11.69	87.57	23.04	-30.2	-31.2	13.7	6.17e-05	0	44	0	559939584	21	4045
2026-01-22 22:50:12.70	87.84	23.05	-30.1	-31.0	13.8	1.50e-06	0	44	0	562036736	21	3987
2026-01-22 22:50:13.70	88.12	23.04	-30.2	-31.3	13.7	7.62e-05	0	44	0	563085312	21	4063
2026-01-22 22:50:14.70	88.40	23.04	-30.1	-31.0	13.9	1.07e-04	0	44	0	565182464	21	3976
2026-01-22 22:50:15.70	88.67	23.04	-30.0	-30.6	14.1	3.00e-06	0	44	0	567279616	21	3870
2026-01-22 22:50:16.71	88.95	23.04	-29.8	-30.7	14.4	2.01e-04	0	44	0	569376768	20	3977
2026-01-22 22:50:17.71	89.23	23.04	-29.7	-30.5	14.5	1.03e-04	0	44	0	571473920	20	3917
2026-01-22 22:50:18.71	89.50	23.03	-29.7	-30.5	14.5	1.50e-06	0	44	0	572522496	20	3918
2026-01-22 22:50:19.71	89.78	23.03	-29.7	-30.4	14.6	9.61e-05	0	44	0	574619648	20	3891
2026-01-22 22:50:20.72	90.06	23.02	-29.7	-30.4	14.5	9.07e-05	0	44	0	576716800	20	3891
2026-01-22 22:50:21.72	90.33	23.02	-29.7	-30.3	14.6	1.50e-06	0	44	0	578813952	20	3874
2026-01-22 22:50:22.72	90.61	23.01	-29.8	-30.7	14.3	8.31e-05	0	44	0	580911104	20	3994
2026-01-22 22:50:23.72	90.88	23.00	-29.9	-31.0	14.2	1.31e-04	0	44	0	581959680	20	4064
2026-01-22 22:50:24.72	91.16	23.00	-30.1	-31.3	13.9	0.00e+00	0	44	0	584056832	20	4173
2026-01-22 22:50:25.74	91.44	22.99	-30.1	-31.5	13.8	1.36e-04	0	44	0	586153984	20	4211
2026-01-22 22:50:26.74	91.71	22.98	-30.3	-31.9	13.6	9.53e-05	0	44	0	588251136	20	4340
2026-01-22 22:50:27.75	91.99	22.97	-30.2	-31.8	13.6	6.80e-06	0	44	0	590348288	20	4325
2026-01-22 22:50:28.75	92.26	22.96	-30.1	-31.5	13.8	9.38e-05	0	44	0	591396864	20	4232
2026-01-22 22:50:29.76	92.54	22.95	-30.1	-31.5	13.8	7.00e-07	0	44	0	593494016	20	4230
2026-01-22 22:50:30.76	92.81	22.94	-30.1	-31.5	13.8	3.80e-06	0	44	0	595591168	20	4235
2026-01-22 22:50:31.77	93.09	22.92	-30.1	-31.4	13.9	3.50e-05	0	44	0	597688320	20	4204
2026-01-22 22:50:32.77	93.37	22.91	-30.1	-31.4	13.9	8.30e-06	0	44	0	599785472	20	4185
2026-01-22 22:50:33.77	93.64	22.90	-30.0	-31.3	14.0	3.80e-06	0	44	0	600834048	20	4147
2026-01-22 22:50:34.78	93.91	22.88	-30.0	-31.3	14.0	2.20e-06	0	44	0	602931200	20	4158
2026-01-22 22:50:35.78	94.19	22.87	-30.0	-31.2	14.0	3.00e-06	0	44	0	605028352	20	4141
2026-01-22 22:50:36.78	94.46	22.85	-29.9	-30.9	14.2	7.00e-07	0	44	0	607125504	20	4047
2026-01-22 22:50:37.79	94.74	22.83	-29.8	-30.8	14.3	0.00e+00	0	44	0	608174080	20	4016
2026-01-22 22:50:38.79	95.01	22.82	-29.8	-30.6	14.4	1.50e-06	0	44	0	610271232	20	3974
2026-01-22 22:50:39.79	95.28	22.80	-29.8	-30.8	14.3	7.00e-07	0	44	0	612368384	20	4009
2026-01-22 22:50:40.80	95.55	22.78	-30.1	-31.4	13.9	7.00e-07	0	44	0	614465536	20	4180
2026-01-22 22:50:41.80	95.83	22.76	-30.2	-31.7	13.7	4.50e-06	0	44	0	616562688	20	4286
2026-01-22 22:50:42.80	96.10	22.74	-30.2	-31.6	13.7	7.60e-06	0	44	0	617611264	20	4255
2026-01-22 22:50:43.80	96.37	22.72	-30.1	-31.5	13.8	4.50e-06	0	44	0	619708416	20	4219
2026-01-22 22:50:44.81	96.64	22.70	-30.0	-31.3	13.9	2.20e-06	0	44	0	621805568	20	4176
2026-01-22 22:50:45.81	96.91	22.68	-29.9	-31.0	14.1	4.50e-06	0	44	0	623902720	20	4071
2026-01-22 22:50:46.81	97.18	22.66	-30.0	-31.1	14.0	3.00e-06	0	44	0	625999872	20	4102
2026-01-22 22:50:47.81	97.45	22.64	-29.7	-30.5	14.4	3.80e-06	0	44	0	627048448	20	3944
2026-01-22 22:50:48.82	97.72	22.61	-29.7	-30.4	14.5	7.00e-07	0	44	0	629145600	20	3895
2026-01-22 22:50:49.82	97.99	22.59	-29.7	-30.4	14.4	0.00e+00	0	44	0	631242752	20	3899
2026-01-22 22:50:50.82	98.26	22.56	-29.6	-30.1	14.6	7.00e-07	0	44	0	633339904	20	3838
2026-01-22 22:50:51.83	98.53	22.54	-29.5	-29.9	14.7	7.00e-07	0	44	0	635437056	20	3782
2026-01-22 22:50:52.83	98.79	22.51	-29.5	-29.9	14.7	0.00e+00	0	44	0	636485632	20	3775
2026-01-22 22:50:53.83	99.06	22.49	-29.6	-30.2	14.5	7.00e-07	0	44	0	638582784	20	3857
2026-01-22 22:50:54.84	99.33	22.46	-29.9	-31.0	14.1	7.00e-07	0	44	0	640679936	20	4091
2026-01-22 22:50:55.83	99.59	22.43	-29.8	-30.7	14.2	2.21e-05	0	44	0	642777088	20	4008
2026-01-22 22:50:56.84	99.86	22.40	-29.7	-30.4	14.4	0.00e+00	0	44	0	644874240	20	3903
2026-01-22 22:50:57.85	100.13	22.37	-29.6	-30.2	14.6	7.00e-07	0	44	0	645922816	20	3859
2026-01-22 22:50:58.85	100.39	22.34	-29.6	-30.2	14.5	0.00e+00	0	44	0	648019968	20	3854
2026-01-22 22:50:59.85	100.66	22.31	-29.6	-30.2	14.5	3.80e-06	0	44	0	650117120	20	3875
2026-01-22 22:51:00.85	100.92	22.28	-30.0	-31.3	13.8	2.20e-06	0	44	0	652214272	20	4190
2026-01-22 22:51:01.84	101.18	22.25	-29.9	-30.9	14.1	4.50e-06	0	44	0	654311424	20	4060
2026-01-22 22:51:02.85	101.44	22.22	-29.6	-30.3	14.5	6.10e-06	0	44	0	655360000	20	3885
2026-01-22 22:51:03.85	101.71	22.19	-29.4	-29.7	14.8	0.00e+00	0	44	0	657457152	20	3723
2026-01-22 22:51:04.85	101.97	22.16	-29.4	-29.6	14.9	0.00e+00	0	44	0	659554304	20	3706
2026-01-22 22:51:05.85	102.23	22.12	-29.4	-29.8	14.8	3.80e-06	0	44	0	661651456	20	3765
2026-01-22 22:51:06.86	102.49	22.09	-29.7	-30.3	14.4	0.00e+00	0	44	0	663748608	20	3900
2026-01-22 22:51:07.86	102.75	22.05	-29.5	-30.0	14.6	1.50e-06	0	44	0	664797184	20	3809
2026-01-22 22:51:08.87	103.01	22.02	-29.4	-29.8	14.8	1.50e-06	0	44	0	666894336	20	3755
2026-01-22 22:51:09.86	103.27	21.98	-29.4	-29.8	14.7	0.00e+00	0	44	0	668991488	20	3758
2026-01-22 22:51:10.87	103.53	21.95	-29.3	-29.5	15.0	0.00e+00	0	44	0	671088640	20	3667
2026-01-22 22:51:11.88	103.79	21.91	-29.2	-29.7	15.2	0.00e+00	0	44	0	672137216	19	3806
2026-01-22 22:51:12.88	104.05	21.87	-29.1	-29.5	15.3	0.00e+00	0	44	0	674234368	19	3754
2026-01-22 22:51:13.88	104.30	21.83	-29.2	-29.8	15.1	0.00e+00	0	44	0	676331520	19	3843
2026-01-22 22:51:14.89	104.56	21.80	-28.9	-29.0	15.6	0.00e+00	0	44	0	678428672	19	3644
2026-01-22 22:51:15.90	104.82	21.76	-28.8	-28.8	15.7	0.00e+00	0	44	0	680525824	19	3572
2026-01-22 22:51:16.90	105.07	21.72	-28.8	-29.1	15.8	0.00e+00	0	44	0	681574400	18	3752
2026-01-22 22:51:17.90	105.33	21.68	-28.9	-29.3	15.7	0.00e+00	0	44	0	683671552	18	3794
2026-01-22 22:51:18.90	105.58	21.64	-28.8	-29.2	15.8	0.00e+00	0	44	0	685768704	18	3779
2026-01-22 22:51:19.90	105.83	21.60	-29.0	-29.7	15.5	0.00e+00	0	44	0	687865856	18	3898
2026-01-22 22:51:20.91	106.09	21.55	-29.1	-30.0	15.3	0.00e+00	0	44	0	689963008	18	3967
2026-01-22 22:51:21.91	106.34	21.51	-29.2	-30.2	15.2	0.00e+00	0	44	0	691011584	18	4021
2026-01-22 22:51:22.91	106.59	21.47	-29.2	-30.2	15.2	0.00e+00	0	44	0	693108736	18	4029
2026-01-22 22:51:23.92	106.84	21.43	-29.2	-30.1	15.2	0.00e+00	0	44	0	695205888	18	3995
2026-01-22 22:51:24.92	107.09	21.38	-29.1	-30.1	15.1	0.00e+00	0	44	0	697303040	18	3998
2026-01-22 22:51:25.92	107.34	21.34	-29.1	-30.0	15.1	0.00e+00	0	44	0	699400192	18	3975
2026-01-22 22:51:26.93	107.59	21.30	-29.1	-29.9	15.3	0.00e+00	0	44	0	700448768	18	3942
2026-01-22 22:51:27.93	107.83	21.25	-29.2	-30.1	15.2	0.00e+00	0	44	0	702545920	18	4017
2026-01-22 22:51:28.94	108.08	21.21	-29.1	-30.0	15.3	7.00e-07	0	44	0	704643072	18	3987
2026-01-22 22:51:29.94	108.33	21.16	-29.2	-30.1	15.2	0.00e+00	0	44	0	706740224	18	4024
2026-01-22 22:51:30.95	108.58	21.11	-29.3	-30.5	15.0	4.19e-05	0	44	0	708837376	18	4116
2026-01-22 22:51:31.95	108.82	21.07	-29.2	-30.3	15.1	0.00e+00	0	44	0	709885952	18	4079
2026-01-22 22:51:32.96	109.07	21.02	-29.4	-30.7	14.9	0.00e+00	0	44	0	711983104	18	4182
2026-01-22 22:51:33.96	109.31	20.97	-29.5	-30.9	14.7	0.00e+00	0	44	0	714080256	18	4259
2026-01-22 22:51:34.97	109.55	20.93	-29.3	-30.6	14.9	1.52e-04	0	44	0	716177408	18	4152
2026-01-22 22:51:35.97	109.79	20.88	-29.4	-30.7	14.8	0.00e+00	0	44	0	718274560	18	4186
2026-01-22 22:51:36.97	110.04	20.83	-29.2	-30.2	15.1	0.00e+00	0	44	0	719323136	18	4045
2026-01-22 22:51:37.98	110.28	20.78	-29.2	-30.2	15.1	3.94e-04	0	44	0	721420288	18	4046
2026-01-22 22:51:38.98	110.52	20.73	-29.2	-30.2	15.1	0.00e+00	0	44	0	723517440	18	4056
2026-01-22 22:51:39.98	110.75	20.68	-29.4	-30.8	14.7	0.00e+00	0	44	0	725614592	18	4207
2026-01-22 22:51:40.98	110.99	20.63	-29.4	-30.7	14.8	4.00e-04	0	44	0	726663168	18	4189
2026-01-22 22:51:41.99	111.23	20.58	-29.7	-31.1	14.3	7.00e-07	0	44	0	728760320	19	4198
2026-01-22 22:51:42.99	111.47	20.53	-30.1	-31.7	13.4	4.50e-06	0	44	0	730857472	20	4319
2026-01-22 22:51:43.99	111.70	20.48	-30.0	-31.3	13.7	1.14e-05	0	44	0	732954624	20	4202
2026-01-22 22:51:44.99	111.94	20.43	-30.3	-32.3	13.1	8.30e-06	0	44	0	735051776	20	4521
2026-01-22 22:51:46.00	112.17	20.37	-30.3	-32.3	13.1	1.43e-04	0	44	0	737148928	20	4498
2026-01-22 22:51:47.00	112.41	20.32	-30.4	-32.4	13.0	2.74e-05	0	44	0	738197504	20	4537
2026-01-22 22:51:48.01	112.64	20.27	-30.5	-32.2	12.8	5.87e-05	0	44	0	740294656	21	4396
2026-01-22 22:51:49.01	112.87	20.22	-30.7	-32.9	12.3	1.15e-04	0	44	0	742391808	21	4637
2026-01-22 22:51:50.01	113.10	20.16	-30.6	-32.6	12.5	1.15e-04	0	44	0	744488960	21	4510
2026-01-22 22:51:51.01	113.33	20.11	-30.4	-32.2	12.8	5.87e-05	0	44	0	745537536	21	4382
2026-01-22 22:51:52.02	113.56	20.05	-30.4	-31.9	12.9	5.87e-05	0	44	0	747634688	21	4314
2026-01-22 22:51:53.02	113.79	20.00	-30.4	-32.0	12.9	4.42e-05	0	44	0	749731840	21	4328
2026-01-22 22:51:54.03	114.02	19.94	-30.2	-31.4	13.2	3.28e-05	0	44	0	751828992	21	4160
2026-01-22 22:51:55.03	114.25	19.89	-30.4	-32.1	12.8	4.19e-05	0	44	0	753926144	21	4376
2026-01-22 22:51:56.02	114.47	19.83	-30.2	-31.6	13.1	4.42e-05	0	44	0	754974720	21	4196
2026-01-22 22:51:57.02	114.70	19.78	-30.2	-31.4	13.2	2.82e-05	0	44	0	757071872	21	4140
2026-01-22 22:51:58.02	114.92	19.72	-30.2	-31.4	13.3	7.32e-05	0	44	0	759169024	21	4132
2026-01-22 22:51:59.02	115.15	19.67	-30.4	-32.1	12.9	7.85e-05	0	44	0	761266176	21	4343
2026-01-22 22:52:00.02	115.37	19.61	-30.2	-31.4	13.3	4.88e-05	0	44	0	763363328	21	4128
2026-01-22 22:52:01.02	115.59	19.55	-30.1	-31.2	13.4	1.37e-05	0	44	0	764411904	21	4087
2026-01-22 22:52:02.03	115.81	19.49	-30.1	-31.1	13.5	8.30e-06	0	44	0	766509056	21	4035
2026-01-22 22:52:03.03	116.03	19.44	-30.2	-31.3	13.3	6.80e-06	0	44	0	768606208	21	4108
2026-01-22 22:52:04.04	116.26	19.38	-30.2	-31.5	13.2	1.67e-05	0	44	0	770703360	21	4155
2026-01-22 22:52:05.04	116.47	19.32	-30.5	-32.4	12.6	5.79e-05	0	44	0	772800512	21	4461
2026-01-22 22:52:06.04	116.69	19.26	-30.5	-32.3	12.6	7.85e-05	0	44	0	773849088	21	4447
2026-01-22 22:52:07.05	116.91	19.20	-30.7	-33.0	12.2	1.59e-04	0	44	0	775946240	21	4671
2026-01-22 22:52:08.05	117.13	19.14	-30.6	-32.6	12.4	1.85e-04	0	44	0	778043392	21	4564
2026-01-22 22:52:09.04	117.34	19.09	-30.5	-32.3	12.6	1.40e-04	0	44	0	780140544	21	4458
2026-01-22 22:52:10.04	117.56	19.03	-30.3	-31.8	12.9	7.70e-05	0	44	0	782237696	21	4283
2026-01-22 22:52:11.04	117.77	18.97	-30.2	-31.6	13.0	5.87e-05	0	44	0	783286272	21	4210
2026-01-22 22:52:12.04	117.98	18.91	-30.3	-31.8	12.9	2.51e-05	0	44	0	785383424	21	4282
2026-01-22 22:52:13.04	118.20	18.85	-30.4	-32.1	12.7	5.95e-05	0	44	0	787480576	21	4388
2026-01-22 22:52:14.04	118.41	18.79	-30.2	-31.6	13.0	5.95e-05	0	44	0	789577728	21	4206
2026-01-22 22:52:15.04	118.62	18.73	-30.4	-32.1	12.7	6.02e-05	0	44	0	790626304	21	4358
2026-01-22 22:52:16.04	118.83	18.67	-30.5	-32.3	12.6	8.62e-05	0	44	0	792723456	21	4428
2026-01-22 22:52:17.04	119.04	18.60	-30.5	-32.3	12.6	6.10e-05	0	44	0	794820608	21	4434
2026-01-22 22:52:18.05	119.25	18.54	-30.4	-32.0	12.8	1.03e-04	0	44	0	796917760	21	4324
2026-01-22 22:52:19.04	119.45	18.48	-30.4	-31.9	12.8	6.02e-05	0	44	0	799014912	21	4309
2026-01-22 22:52:20.05	119.66	18.42	-30.3	-31.8	12.9	5.56e-05	0	44	0	800063488	21	4276
2026-01-22 22:52:21.05	119.87	18.36	-30.4	-32.0	12.8	6.79e-05	0	44	0	802160640	21	4342
2026-01-22 22:52:22.05	120.07	18.30	-30.6	-32.6	12.4	1.30e-04	0	44	0	804257792	21	4518
2026-01-22 22:52:23.05	120.27	18.23	-30.5	-32.5	12.4	1.49e-04	0	44	0	806354944	21	4503
2026-01-22 22:52:24.06	120.48	18.17	-30.8	-33.2	12.0	2.33e-04	0	44	0	808452096	21	4741
2026-01-22 22:52:25.06	120.68	18.11	-30.7	-32.9	12.1	2.82e-04	0	44	0	809500672	21	4643
2026-01-22 22:52:26.06	120.88	18.05	-30.7	-33.0	12.0	2.84e-04	0	44	0	811597824	21	4699
2026-01-22 22:52:27.06	121.08	17.98	-30.8	-33.4	11.8	3.76e-04	0	44	0	813694976	21	4828
2026-01-22 22:52:28.07	121.29	17.92	-30.5	-32.4	12.5	3.56e-04	0	44	0	815792128	21	4459
2026-01-22 22:52:29.07	121.49	17.86	-30.7	-32.8	12.2	1.53e-04	0	44	0	816840704	21	4623
2026-01-22 22:52:30.08	121.69	17.79	-31.0	-33.8	11.5	4.80e-04	0	44	0	818937856	21	4980
2026-01-22 22:52:31.08	121.88	17.73	-30.7	-32.9	12.2	3.81e-04	0	44	0	821035008	21	4631
2026-01-22 22:52:32.08	122.08	17.66	-30.6	-32.7	12.2	2.08e-04	0	44	0	823132160	21	4590
2026-01-22 22:52:33.09	122.28	17.60	-30.4	-32.1	12.7	1.28e-04	0	44	0	825229312	21	4386
2026-01-22 22:52:34.09	122.47	17.54	-30.2	-31.5	13.1	6.17e-05	0	44	0	827326464	21	4185
2026-01-22 22:52:35.09	122.67	17.47	-30.3	-31.7	12.9	3.89e-05	0	44	0	828375040	21	4241
2026-01-22 22:52:36.09	122.86	17.41	-30.0	-30.9	13.4	1.29e-05	0	44	0	830472192	21	4005
2026-01-22 22:52:37.09	123.05	17.34	-29.7	-30.6	14.0	3.00e-06	0	44	0	832569344	20	3987
2026-01-22 22:52:38.10	123.25	17.28	-29.4	-30.0	14.3	1.50e-06	0	44	0	834666496	20	3830
2026-01-22 22:52:39.10	123.44	17.21	-29.4	-29.8	14.4	0.00e+00	0	44	0	835715072	20	3802
2026-01-22 22:52:40.11	123.63	17.15	-29.4	-30.1	14.3	0.00e+00	0	44	0	837812224	20	3863
2026-01-22 22:52:41.11	123.82	17.08	-29.5	-30.3	14.1	7.00e-07	0	44	0	839909376	20	3919
2026-01-22 22:52:42.11	124.01	17.02	-29.8	-31.0	13.7	7.00e-07	0	44	0	842006528	20	4127
2026-01-22 22:52:43.12	124.20	16.95	-29.9	-31.2	13.5	1.29e-05	0	44	0	844103680	20	4191
2026-01-22 22:52:44.13	124.39	16.88	-30.0	-31.6	13.3	1.22e-05	0	44	0	845152256	20	4298
2026-01-22 22:52:45.13	124.57	16.82	-30.0	-31.5	13.4	2.13e-05	0	44	0	847249408	20	4277
2026-01-22 22:52:46.14	124.76	16.75	-30.0	-31.5	13.4	2.44e-05	0	44	0	849346560	20	4261
2026-01-22 22:52:47.14	124.95	16.69	-30.3	-32.2	12.9	3.81e-05	0	44	0	851443712	20	4503
2026-01-22 22:52:48.15	125.13	16.62	-30.2	-32.2	12.9	4.80e-05	0	44	0	853540864	20	4493
2026-01-22 22:52:49.15	125.32	16.55	-30.4	-32.7	12.5	9.53e-05	0	44	0	854589440	20	4690
2026-01-22 22:52:50.15	125.50	16.49	-30.6	-32.7	12.1	1.64e-04	0	44	0	856686592	21	4583
2026-01-22 22:52:51.15	125.68	16.42	-30.8	-33.4	11.7	2.91e-04	0	44	0	858783744	21	4828
2026-01-22 22:52:52.16	125.86	16.35	-30.8	-33.5	11.6	4.84e-04	0	44	0	860880896	21	4895
2026-01-22 22:52:53.16	126.04	16.29	-30.8	-33.3	11.7	6.74e-04	0	44	0	862978048	21	4835
2026-01-22 22:52:54.17	126.22	16.22	-30.6	-32.8	12.0	3.64e-04	0	44	0	864026624	21	4641
2026-01-22 22:52:55.17	126.40	16.15	-30.3	-32.1	12.5	2.39e-04	0	44	0	866123776	21	4405
2026-01-22 22:52:56.17	126.58	16.09	-30.1	-31.5	12.9	5.56e-05	0	44	0	868220928	21	4201
2026-01-22 22:52:57.18	126.76	16.02	-30.1	-31.4	13.0	3.50e-05	0	44	0	870318080	21	4180
2026-01-22 22:52:58.18	126.93	15.95	-30.4	-32.0	12.6	7.09e-05	0	44	0	872415232	21	4360
2026-01-22 22:52:59.18	127.11	15.89	-30.1	-31.3	13.1	6.48e-05	0	44	0	873463808	21	4123
2026-01-22 22:53:00.19	127.29	15.82	-30.0	-31.1	13.2	2.59e-05	0	44	0	875560960	21	4056
2026-01-22 22:53:01.19	127.46	15.75	-30.2	-31.5	12.9	4.27e-05	0	44	0	877658112	21	4202
2026-01-22 22:53:02.19	127.63	15.69	-30.3	-31.9	12.6	6.25e-05	0	44	0	879755264	21	4342
2026-01-22 22:53:03.18	127.80	15.62	-30.3	-32.2	12.4	1.39e-04	0	44	0	880803840	21	4441
2026-01-22 22:53:04.19	127.98	15.55	-30.3	-32.2	12.3	1.86e-04	0	44	0	882900992	21	4474
2026-01-22 22:53:05.18	128.15	15.48	-29.9	-31.2	12.9	7.55e-05	0	44	0	884998144	21	4185
2026-01-22 22:53:06.19	128.32	15.42	-29.7	-31.2	13.2	2.44e-05	0	44	0	887095296	20	4265
2026-01-22 22:53:07.19	128.49	15.35	-29.5	-30.6	13.6	9.10e-06	0	44	0	889192448	20	4090
2026-01-22 22:53:08.20	128.66	15.28	-29.5	-30.4	13.9	3.00e-06	0	44	0	890241024	20	3990
2026-01-22 22:53:09.20	128.83	15.21	-29.6	-30.6	13.7	6.10e-06	0	44	0	892338176	20	4057
2026-01-22 22:53:10.21	129.00	15.15	-29.5	-30.6	13.7	1.50e-06	0	44	0	894435328	20	4073
2026-01-22 22:53:11.22	129.16	15.08	-29.9	-31.3	13.3	7.60e-06	0	44	0	896532480	20	4231
2026-01-22 22:53:12.22	129.33	15.01	-30.0	-31.6	13.0	1.75e-05	0	44	0	898629632	20	4336
2026-01-22 22:53:13.23	129.50	14.94	-30.2	-32.2	12.7	4.42e-05	0	44	0	899678208	20	4507
2026-01-22 22:53:14.23	129.66	14.87	-30.2	-32.1	12.7	5.49e-05	0	44	0	901775360	20	4492
2026-01-22 22:53:15.23	129.82	14.81	-30.3	-32.3	12.7	9.46e-05	0	44	0	903872512	20	4549
2026-01-22 22:53:16.24	129.99	14.74	-30.0	-31.7	13.0	7.40e-05	0	44	0	905969664	20	4352
2026-01-22 22:53:17.24	130.15	14.67	-30.1	-31.8	12.9	3.81e-05	0	44	0	908066816	20	4400
2026-01-22 22:53:18.24	130.31	14.60	-30.2	-32.1	12.7	4.95e-05	0	44	0	909115392	20	4524
2026-01-22 22:53:19.25	130.47	14.53	-30.2	-32.3	12.6	9.15e-05	0	44	0	911212544	20	4565
2026-01-22 22:53:20.26	130.64	14.47	-30.3	-32.7	12.3	1.62e-04	0	44	0	913309696	20	4727
2026-01-22 22:53:21.26	130.79	14.40	-30.5	-32.6	12.0	2.96e-04	0	44	0	915406848	21	4606
2026-01-22 22:53:22.26	130.95	14.33	-30.4	-33.0	12.1	2.23e-04	0	44	0	917504000	20	4825
2026-01-22 22:53:23.26	131.11	14.26	-30.5	-33.1	12.0	3.33e-04	0	44	0	918552576	20	4840
2026-01-22 22:53:24.26	131.27	14.20	-30.6	-33.0	11.7	4.78e-04	0	44	0	920649728	21	4710
2026-01-22 22:53:25.26	131.42	14.13	-30.6	-32.8	11.8	5.16e-04	0	44	0	922746880	21	4662
2026-01-22 22:53:26.26	131.58	14.06	-30.3	-32.2	12.2	1.88e-04	0	44	0	924844032	21	4451
2026-01-22 22:53:27.27	131.74	13.99	-30.0	-31.8	12.7	5.63e-04	0	44	0	926941184	20	4431
2026-01-22 22:53:28.27	131.89	13.92	-29.9	-31.6	12.9	8.31e-05	0	44	0	927989760	20	4361
2026-01-22 22:53:29.28	132.05	13.85	-29.8	-31.5	12.9	3.66e-05	0	44	0	930086912	20	4341
2026-01-22 22:53:30.28	132.20	13.79	-29.9	-32.0	13.0	1.68e-04	0	44	0	932184064	19	4616
2026-01-22 22:53:31.29	132.35	13.72	-29.9	-31.8	12.8	6.63e-05	0	44	0	934281216	20	4441
2026-01-22 22:53:32.29	132.51	13.65	-30.1	-32.1	12.5	8.62e-05	0	44	0	935329792	20	4569
2026-01-22 22:53:33.29	132.66	13.58	-30.3	-32.8	12.1	2.83e-04	0	44	0	937426944	20	4775
2026-01-22 22:53:34.29	132.81	13.52	-30.6	-32.9	11.6	5.68e-04	0	44	0	939524096	21	4706
2026-01-22 22:53:35.29	132.96	13.45	-30.7	-33.3	11.4	8.13e-04	0	44	0	941621248	21	4852
2026-01-22 22:53:36.29	133.11	13.38	-30.8	-33.5	11.2	1.33e-03	0	44	0	943718400	21	4932
2026-01-22 22:53:37.30	133.26	13.31	-30.7	-33.2	11.4	1.44e-03	0	44	0	945815552	21	4823
2026-01-22 22:53:38.30	133.40	13.24	-30.7	-33.2	11.4	1.12e-03	0	44	0	946864128	21	4835
2026-01-22 22:53:39.30	133.55	13.18	-30.6	-33.1	11.4	7.43e-04	0	44	0	948961280	21	4829
2026-01-22 22:53:40.31	133.70	13.11	-30.5	-32.9	11.5	1.21e-03	0	44	0	951058432	21	4758
2026-01-22 22:53:41.31	133.84	13.04	-30.4	-32.6	11.7	5.11e-04	0	44	0	953155584	21	4668
2026-01-22 22:53:42.31	133.99	12.97	-30.4	-32.6	11.7	5.47e-04	0	44	0	954204160	21	4668
2026-01-22 22:53:43.32	134.13	12.90	-30.4	-32.6	11.7	7.53e-04	0	44	0	956301312	21	4666
2026-01-22 22:53:44.33	134.28	12.84	-30.4	-32.8	11.5	4.71e-04	0	44	0	958398464	21	4723
2026-01-22 22:53:45.33	134.42	12.77	-30.4	-32.5	11.8	6.23e-04	0	44	0	960495616	21	4591
2026-01-22 22:53:46.34	134.57	12.70	-30.4	-32.6	11.8	4.15e-04	0	44	0	962592768	21	4618
2026-01-22 22:53:47.34	134.71	12.63	-30.4	-32.4	11.9	4.36e-04	0	44	0	963641344	21	4544
2026-01-22 22:53:48.35	134.85	12.56	-30.2	-31.8	12.3	3.27e-04	0	44	0	965738496	21	4342
2026-01-22 22:53:49.35	134.99	12.50	-30.0	-31.8	12.6	2.04e-04	0	44	0	967835648	20	4447
2026-01-22 22:53:50.35	135.13	12.43	-29.8	-31.4	12.9	6.40e-05	0	44	0	969932800	20	4296
2026-01-22 22:53:51.36	135.27	12.36	-29.7	-31.2	13.0	1.19e-04	0	44	0	972029952	20	4257
2026-01-22 22:53:52.37	135.41	12.29	-29.7	-31.0	13.1	1.14e-04	0	44	0	973078528	20	4217
2026-01-22 22:53:53.36	135.55	12.23	-29.7	-31.3	12.9	4.57e-05	0	44	0	975175680	20	4290
2026-01-22 22:53:54.37	135.69	12.16	-29.7	-31.1	13.1	7.55e-05	0	44	0	977272832	20	4235
2026-01-22 22:53:55.37	135.83	12.09	-29.7	-31.2	12.9	9.61e-05	0	44	0	979369984	20	4289
2026-01-22 22:53:56.37	135.96	12.02	-29.8	-31.5	12.8	4.04e-05	0	44	0	981467136	20	4365
2026-01-22 22:53:57.37	136.10	11.96	-29.8	-31.6	12.7	1.52e-04	0	44	0	982515712	20	4399
2026-01-22 22:53:58.38	136.23	11.89	-29.8	-31.7	12.6	1.88e-04	0	44	0	984612864	20	4441
2026-01-22 22:53:59.38	136.37	11.82	-30.0	-32.2	12.2	1.43e-04	0	44	0	986710016	20	4621
2026-01-22 22:54:00.38	136.50	11.76	-30.0	-32.1	12.2	8.26e-04	0	44	0	988807168	20	4625
2026-01-22 22:54:01.38	136.64	11.69	-30.0	-32.2	12.1	6.84e-04	0	44	0	990904320	20	4661
2026-01-22 22:54:02.39	136.77	11.62	-29.9	-32.2	12.2	2.67e-04	0	44	0	991952896	20	4658
2026-01-22 22:54:03.39	136.90	11.55	-29.8	-32.4	12.4	6.71e-04	0	44	0	994050048	19	4830
2026-01-22 22:54:04.39	137.03	11.49	-29.9	-32.4	12.4	6.35e-04	0	44	0	996147200	19	4841
2026-01-22 22:54:05.39	137.17	11.42	-29.9	-32.5	12.3	1.50e-04	0	44	0	998244352	19	4855
2026-01-22 22:54:06.40	137.30	11.35	-29.8	-32.2	12.6	5.00e-04	0	44	0	1000341504	19	4710
2026-01-22 22:54:07.40	137.43	11.29	-30.0	-32.6	12.3	1.06e-04	0	44	0	1001390080	19	4877
2026-01-22 22:54:08.40	137.56	11.22	-30.1	-32.4	12.1	2.38e-04	0	44	0	1003487232	20	4692
2026-01-22 22:54:09.41	137.69	11.15	-30.2	-32.7	11.8	7.64e-04	0	44	0	1005584384	20	4793
2026-01-22 22:54:10.41	137.81	11.09	-30.3	-32.7	11.9	4.36e-04	0	44	0	1007681536	20	4758
2026-01-22 22:54:11.40	137.94	11.02	-30.3	-32.6	11.9	3.81e-04	0	44	0	1008730112	20	4739
2026-01-22 22:54:12.41	138.07	10.95	-30.4	-33.2	11.5	6.71e-04	0	44	0	1010827264	20	4934
2026-01-22 22:54:13.41	138.20	10.89	-30.5	-32.8	11.4	9.96e-04	0	44	0	1012924416	21	4724
2026-01-22 22:54:14.41	138.32	10.82	-30.3	-32.5	11.6	7.15e-04	0	44	0	1015021568	21	4623
2026-01-22 22:54:15.41	138.45	10.75	-30.3	-32.5	11.6	8.14e-04	0	44	0	1017118720	21	4623
2026-01-22 22:54:16.41	138.57	10.69	-30.3	-32.6	11.5	9.55e-04	0	44	0	1018167296	21	4676
2026-01-22 22:54:17.41	138.70	10.62	-30.2	-32.4	11.6	7.95e-04	0	44	0	1020264448	21	4621
2026-01-22 22:54:18.41	138.82	10.56	-30.2	-32.1	11.8	5.89e-04	0	44	0	1022361600	21	4496
2026-01-22 22:54:19.41	138.94	10.49	-30.1	-31.8	12.1	3.17e-04	0	44	0	1024458752	21	4386
2026-01-22 22:54:20.42	139.07	10.42	-30.1	-31.9	12.0	3.02e-04	0	44	0	1026555904	21	4398
2026-01-22 22:54:21.42	139.19	10.36	-30.2	-32.1	11.9	6.64e-04	0	44	0	1027604480	21	4462
2026-01-22 22:54:22.43	139.31	10.29	-30.2	-32.2	11.8	4.96e-04	0	44	0	1029701632	21	4499
2026-01-22 22:54:23.43	139.43	10.23	-30.2	-32.0	12.0	3.98e-04	0	44	0	1031798784	21	4423
2026-01-22 22:54:24.43	139.55	10.16	-30.1	-31.8	12.0	3.11e-04	0	44	0	1033895936	21	4391
2026-01-22 22:54:25.44	139.67	10.09	-30.2	-32.2	11.8	3.94e-04	0	44	0	1035993088	21	4505
2026-01-22 22:54:26.44	139.79	10.03	-30.3	-32.6	11.4	8.75e-04	0	44	0	1037041664	21	4684
2026-01-22 22:54:27.45	139.91	9.96	-30.4	-32.8	11.3	8.54e-04	0	44	0	1039138816	21	4776
2026-01-22 22:54:28.45	140.03	9.90	-30.3	-33.3	11.2	1.13e-03	0	44	0	1041235968	20	5064
2026-01-22 22:54:29.46	140.15	9.83	-30.5	-33.8	10.9	1.59e-03	0	44	0	1043333120	20	5266
2026-01-22 22:54:30.46	140.27	9.76	-30.5	-33.4	10.8	2.87e-03	0	44	0	1045430272	21	5013
2026-01-22 22:54:31.46	140.39	9.70	-30.6	-33.7	10.5	3.21e-03	0	44	0	1046478848	21	5128
2026-01-22 22:54:32.46	140.50	9.63	-30.7	-33.9	10.4	3.19e-03	0	44	0	1048576000	21	5229
2026-01-22 22:54:33.46	140.62	9.57	-30.7	-34.0	10.3	7.33e-03	0	44	0	1050673152	21	5221
2026-01-22 22:54:34.47	140.74	9.50	-30.8	-34.2	10.2	5.38e-03	0	44	0	1052770304	21	5324
2026-01-22 22:54:35.47	140.85	9.44	-30.8	-34.2	10.2	4.36e-03	0	44	0	1053818880	21	5295
2026-01-22 22:54:36.47	140.96	9.37	-30.9	-34.4	10.0	7.29e-03	0	44	0	1055916032	21	5397
2026-01-22 22:54:37.48	141.08	9.31	-30.8	-34.2	10.2	6.31e-03	0	44	0	1058013184	21	5295
2026-01-22 22:54:38.48	141.19	9.24	-30.8	-34.1	10.2	9.13e-03	0	44	0	1060110336	21	5258
2026-01-22 22:54:39.49	141.31	9.18	-30.8	-34.0	10.2	7.73e-03	0	44	0	1062207488	21	5243
2026-01-22 22:54:40.49	141.42	9.11	-30.6	-33.7	10.4	5.61e-03	0	44	0	1063256064	21	5100
2026-01-22 22:54:41.49	141.53	9.05	-30.6	-33.6	10.4	4.84e-03	0	44	0	1065353216	21	5086
2026-01-22 22:54:42.49	141.64	8.98	-30.7	-33.9	10.1	4.42e-03	0	44	0	1067450368	21	5235
2026-01-22 22:54:43.49	141.75	8.92	-30.6	-33.7	10.2	5.93e-03	0	44	0	1069547520	21	5137
2026-01-22 22:54:44.50	141.87	8.86	-30.5	-33.3	10.5	3.77e-03	0	44	0	1071644672	21	4972
2026-01-22 22:54:45.50	141.98	8.79	-30.4	-33.1	10.7	2.55e-03	0	44	0	1072693248	21	4890
2026-01-22 22:54:46.50	142.09	8.73	-30.4	-32.9	10.8	2.50e-03	0	44	0	1074790400	21	4834
2026-01-22 22:54:47.50	142.20	8.66	-30.3	-32.6	11.0	2.41e-03	0	44	0	1076887552	21	4719
2026-01-22 22:54:48.50	142.30	8.60	-30.1	-32.4	11.1	1.87e-03	0	44	0	1078984704	21	4655
2026-01-22 22:54:49.50	142.41	8.54	-30.2	-32.7	10.8	2.45e-03	0	44	0	1081081856	21	4802
2026-01-22 22:54:50.51	142.52	8.47	-30.2	-33.0	10.5	2.78e-03	0	44	0	1082130432	21	4937
2026-01-22 22:54:51.51	142.63	8.41	-30.3	-33.4	10.2	4.72e-03	0	44	0	1084227584	21	5124
2026-01-22 22:54:52.51	142.74	8.34	-30.3	-33.2	10.3	5.86e-03	0	44	0	1086324736	21	5051
2026-01-22 22:54:53.51	142.84	8.28	-30.2	-32.9	10.6	4.33e-03	0	44	0	1088421888	21	4898
2026-01-22 22:54:54.50	142.95	8.22	-30.1	-32.7	10.7	3.29e-03	0	44	0	1090519040	21	4837
2026-01-22 22:54:55.51	143.05	8.15	-30.1	-32.6	10.7	2.66e-03	0	44	0	1091567616	21	4808
2026-01-22 22:54:56.52	143.16	8.09	-30.1	-32.6	10.8	3.26e-03	0	44	0	1093664768	21	4782
2026-01-22 22:54:57.52	143.27	8.03	-30.3	-33.0	10.5	3.03e-03	0	44	0	1095761920	21	4928
2026-01-22 22:54:58.53	143.37	7.96	-30.4	-33.8	10.3	5.97e-03	0	44	0	1097859072	20	5319
2026-01-22 22:54:59.53	143.47	7.90	-30.4	-33.7	10.1	3.17e-03	0	44	0	1099956224	20	5256
2026-01-22 22:55:00.53	143.58	7.84	-30.2	-33.1	10.4	2.53e-03	0	44	0	1101004800	20	5024
2026-01-22 22:55:01.53	143.68	7.77	-30.4	-33.7	10.4	3.97e-03	0	44	0	1103101952	20	5261
2026-01-22 22:55:02.54	143.78	7.71	-30.5	-33.5	10.0	6.44e-03	0	44	0	1105199104	21	5092
2026-01-22 22:55:03.54	143.89	7.65	-30.5	-33.6	10.1	5.85e-03	0	44	0	1107296256	21	5109
2026-01-22 22:55:04.54	143.99	7.58	-30.6	-33.8	10.0	7.17e-03	0	44	0	1109393408	21	5207
2026-01-22 22:55:05.54	144.09	7.52	-30.7	-34.1	9.7	1.12e-02	0	44	0	1110441984	21	5344
2026-01-22 22:55:06.55	144.19	7.46	-30.8	-34.5	9.4	1.42e-02	0	44	0	1112539136	21	5542
2026-01-22 22:55:07.55	144.29	7.39	-30.8	-34.6	9.4	1.34e-02	0	44	0	1114636288	21	5565
2026-01-22 22:55:08.56	144.39	7.33	-30.9	-34.9	9.1	2.20e-02	0	44	0	1116733440	21	5697
2026-01-22 22:55:09.56	144.49	7.27	-30.8	-34.5	9.4	1.84e-02	0	44	0	1117782016	21	5520
2026-01-22 22:55:10.56	144.59	7.21	-30.9	-34.8	9.1	1.77e-02	0	44	0	1119879168	21	5692
2026-01-22 22:55:11.57	144.69	7.14	-30.9	-35.0	9.0	2.60e-02	0	44	0	1121976320	21	5765
2026-01-22 22:55:12.57	144.79	7.08	-32.2	-44.7	3.8	4.96e-01	0	44	104	1123024896	24	15131
2026-01-22 22:55:13.57	144.89	7.02	-33.2	-45.8	3.8	1.49e+00	0	44	104	1123024896	26	15230
2026-01-22 22:55:14.57	144.99	6.96	-33.7	-46.2	3.8	1.49e+00	0	44	104	1123024896	27	15174

#Closed at: 2026-01-22 22:55:15
#Recorded file [1123 MB]: D:/data/31010_260123_014512.dat