passes_logs/2026/01/22/R2M6_AANII_01/R2M6_AANII_01__20260122_100658_NOAA_21_JPSS-2_rec.log

#Pass ID: 20260122_100658_NOAA 21 (JPSS-2)
#Satellite: NOAA 21 (JPSS-2)
#Configuration: NOAA 21
#almurnet v.1.7.20240730
#Start time: 2026-01-22 10:06:57

#Version: 2.2.20231116
#Station: R2M6_AANII_01
#Location: 30.233357 lon 59.946436 lat
#TLE: 1 54234U 22150A   26021.42686626  .00000211  00000+0  12107-3 0  9996
#TLE: 2 54234  98.7506 322.2490 0000636 241.9299 118.1812 14.19537149165725

#Time	Az	El	Level	Level2	SNR	BER	BlckErr	Temp	State	Recorded	gain1	gain2
2026-01-22 10:06:57.80	153.83	6.98	-29.5	-33.3	4.8	1.37e+00	0	43	0	0	20	5592
2026-01-22 10:06:58.80	153.83	7.06	-29.9	-34.8	4.7	1.40e+00	0	43	104	0	20	6269
2026-01-22 10:06:59.80	153.82	7.13	-30.0	-34.1	8.8	3.31e-02	0	43	0	0	20	5799
2026-01-22 10:07:00.81	153.81	7.21	-29.8	-33.4	9.4	2.05e-02	0	43	0	3145728	20	5438
2026-01-22 10:07:01.81	153.81	7.29	-29.9	-33.8	9.1	1.88e-02	0	43	0	6291456	20	5620
2026-01-22 10:07:02.81	153.80	7.37	-29.7	-33.3	9.4	1.76e-02	0	43	0	9437184	20	5429
2026-01-22 10:07:03.81	153.79	7.45	-29.4	-32.4	10.0	7.94e-03	0	43	0	12582912	20	5110
2026-01-22 10:07:04.81	153.79	7.53	-29.1	-32.3	10.5	5.51e-03	0	43	0	15728640	19	5188
2026-01-22 10:07:05.81	153.78	7.61	-28.9	-31.8	10.7	3.07e-03	0	43	0	18874368	19	5036
2026-01-22 10:07:06.81	153.77	7.69	-28.9	-31.7	10.9	2.36e-03	0	43	0	22020096	19	4995
2026-01-22 10:07:07.81	153.77	7.77	-28.8	-31.6	10.9	2.22e-03	0	43	0	24117248	19	4953
2026-01-22 10:07:08.81	153.76	7.85	-28.7	-31.8	11.1	1.71e-03	0	43	0	27262976	18	5123
2026-01-22 10:07:09.82	153.75	7.93	-28.8	-31.9	11.1	1.41e-03	0	43	0	30408704	18	5127
2026-01-22 10:07:10.82	153.75	8.01	-28.8	-31.9	11.1	1.52e-03	0	43	0	33554432	18	5132
2026-01-22 10:07:11.82	153.74	8.09	-28.9	-32.0	11.1	1.34e-03	0	43	0	36700160	18	5159
2026-01-22 10:07:12.82	153.73	8.17	-28.8	-31.9	11.2	1.47e-03	0	43	0	39845888	18	5104
2026-01-22 10:07:13.83	153.72	8.25	-28.7	-31.3	11.6	7.41e-04	0	43	0	42991616	18	4893
2026-01-22 10:07:14.84	153.72	8.33	-28.5	-30.9	12.0	3.97e-04	0	43	0	46137344	18	4719
2026-01-22 10:07:15.84	153.71	8.41	-28.5	-30.6	12.2	2.72e-04	0	43	0	49283072	18	4607
2026-01-22 10:07:16.84	153.70	8.50	-28.4	-30.4	12.4	1.73e-04	0	43	0	52428800	18	4523
2026-01-22 10:07:17.84	153.69	8.58	-28.4	-30.3	12.4	1.45e-04	0	43	0	55574528	18	4506
2026-01-22 10:07:18.84	153.69	8.66	-28.4	-30.3	12.4	1.34e-04	0	43	0	58720256	18	4511
2026-01-22 10:07:19.84	153.68	8.74	-28.3	-30.3	12.5	1.59e-04	0	43	0	61865984	18	4495
2026-01-22 10:07:20.83	153.67	8.83	-28.3	-30.6	12.5	1.15e-04	0	43	0	65011712	17	4698
2026-01-22 10:07:21.82	153.66	8.91	-28.3	-30.6	12.5	9.15e-05	0	43	0	68157440	17	4724
2026-01-22 10:07:22.83	153.66	8.99	-28.2	-30.5	12.6	1.16e-04	0	43	0	71303168	17	4685
2026-01-22 10:07:23.83	153.65	9.08	-28.3	-30.8	12.4	1.43e-04	0	43	0	74448896	17	4783
2026-01-22 10:07:24.82	153.64	9.16	-28.2	-30.5	12.6	1.04e-04	0	43	0	77594624	17	4693
2026-01-22 10:07:25.83	153.63	9.25	-28.1	-30.3	12.7	9.91e-05	0	43	0	80740352	17	4660
2026-01-22 10:07:26.82	153.62	9.33	-28.1	-30.3	12.6	9.15e-05	0	43	0	83886080	17	4689
2026-01-22 10:07:27.82	153.62	9.41	-28.0	-30.2	12.7	8.46e-05	0	43	0	87031808	17	4642
2026-01-22 10:07:28.82	153.61	9.50	-28.0	-30.1	12.8	6.79e-05	0	43	0	90177536	17	4607
2026-01-22 10:07:29.82	153.60	9.59	-28.0	-30.3	12.7	7.24e-05	0	43	0	93323264	17	4646
2026-01-22 10:07:30.81	153.59	9.67	-28.0	-30.1	12.8	5.49e-05	0	44	0	96468992	17	4570
2026-01-22 10:07:31.81	153.58	9.76	-27.9	-29.9	13.0	4.80e-05	0	44	0	99614720	17	4517
2026-01-22 10:07:32.81	153.57	9.84	-27.9	-29.9	12.9	3.58e-05	0	44	0	102760448	17	4535
2026-01-22 10:07:33.81	153.56	9.93	-28.0	-30.0	12.9	5.03e-05	0	44	0	105906176	17	4544
2026-01-22 10:07:34.81	153.56	10.02	-28.1	-30.1	13.0	4.04e-05	0	44	0	109051904	17	4552
2026-01-22 10:07:35.82	153.55	10.11	-28.1	-30.1	13.0	4.19e-05	0	44	0	112197632	17	4536
2026-01-22 10:07:36.82	153.54	10.19	-28.1	-30.0	13.0	3.81e-05	0	44	0	115343360	17	4513
2026-01-22 10:07:37.82	153.53	10.28	-28.1	-30.2	12.9	3.73e-05	0	44	0	118489088	17	4560
2026-01-22 10:07:38.82	153.52	10.37	-28.1	-30.0	13.1	2.82e-05	0	44	0	121634816	17	4475
2026-01-22 10:07:39.82	153.51	10.46	-28.1	-29.9	13.2	2.13e-05	0	44	0	124780544	17	4424
2026-01-22 10:07:40.81	153.50	10.55	-28.2	-30.0	13.1	2.59e-05	0	44	0	127926272	17	4469
2026-01-22 10:07:41.81	153.49	10.64	-28.1	-29.9	13.2	1.98e-05	0	44	0	131072000	17	4415
2026-01-22 10:07:42.82	153.48	10.73	-28.1	-29.8	13.3	1.29e-05	0	44	0	134217728	17	4381
2026-01-22 10:07:43.83	153.48	10.82	-28.0	-29.7	13.4	1.90e-05	0	44	0	137363456	17	4359
2026-01-22 10:07:44.83	153.47	10.91	-28.0	-29.7	13.3	1.44e-05	0	44	0	140509184	17	4376
2026-01-22 10:07:45.84	153.46	11.00	-28.1	-30.0	13.2	1.60e-05	0	44	0	143654912	17	4456
2026-01-22 10:07:46.84	153.45	11.09	-28.0	-29.7	13.4	2.05e-05	0	44	0	146800640	17	4365
2026-01-22 10:07:47.85	153.44	11.18	-28.0	-29.6	13.5	9.10e-06	0	44	0	149946368	17	4333
2026-01-22 10:07:48.85	153.43	11.27	-27.9	-29.4	13.6	1.06e-05	0	44	0	153092096	17	4284
2026-01-22 10:07:49.85	153.42	11.37	-27.9	-29.4	13.6	8.30e-06	0	44	0	156237824	17	4269
2026-01-22 10:07:50.85	153.41	11.46	-27.8	-29.3	13.7	4.50e-06	0	44	0	159383552	17	4252
2026-01-22 10:07:51.85	153.40	11.55	-27.9	-29.3	13.7	5.30e-06	0	44	0	162529280	17	4268
2026-01-22 10:07:52.86	153.39	11.65	-27.9	-29.4	13.6	1.06e-05	0	44	0	165675008	17	4292
2026-01-22 10:07:53.86	153.38	11.74	-27.8	-29.2	13.7	5.30e-06	0	44	0	168820736	17	4231
2026-01-22 10:07:54.87	153.37	11.83	-27.7	-29.6	13.8	7.00e-07	0	44	0	171966464	16	4442
2026-01-22 10:07:55.87	153.36	11.93	-27.7	-29.5	13.9	3.80e-06	0	44	0	175112192	16	4415
2026-01-22 10:07:56.88	153.35	12.02	-27.7	-29.6	13.8	4.50e-06	0	44	0	178257920	16	4451
2026-01-22 10:07:57.88	153.34	12.12	-27.7	-29.4	13.9	3.00e-06	0	44	0	181403648	16	4404
2026-01-22 10:07:58.86	153.33	12.21	-27.6	-29.4	13.9	3.80e-06	0	44	0	184549376	16	4395
2026-01-22 10:07:59.86	153.32	12.31	-27.7	-29.5	13.9	3.80e-06	0	44	0	187695104	16	4437
2026-01-22 10:08:00.86	153.31	12.40	-27.6	-29.4	13.9	3.80e-06	0	44	0	190840832	16	4407
2026-01-22 10:08:01.86	153.29	12.50	-27.6	-29.3	14.0	1.50e-06	0	44	0	193986560	16	4366
2026-01-22 10:08:02.87	153.28	12.60	-27.6	-29.2	14.1	3.00e-06	0	44	0	197132288	16	4351
2026-01-22 10:08:03.87	153.27	12.69	-27.6	-29.2	14.1	7.00e-07	0	44	0	200278016	16	4348
2026-01-22 10:08:04.87	153.26	12.79	-27.5	-29.1	14.2	0.00e+00	0	44	0	203423744	16	4296
2026-01-22 10:08:05.88	153.25	12.89	-27.6	-29.3	14.1	1.50e-06	0	44	0	206569472	16	4344
2026-01-22 10:08:06.88	153.24	12.99	-27.6	-29.1	14.2	1.50e-06	0	44	0	209715200	16	4291
2026-01-22 10:08:07.89	153.23	13.09	-27.5	-29.0	14.3	7.00e-07	0	44	0	212860928	16	4277
2026-01-22 10:08:08.88	153.22	13.19	-27.7	-29.4	14.0	3.80e-06	0	44	0	216006656	16	4389
2026-01-22 10:08:09.90	153.20	13.29	-27.6	-29.2	14.1	0.00e+00	0	44	0	219152384	16	4323
2026-01-22 10:08:10.90	153.19	13.39	-27.5	-29.0	14.3	7.00e-07	0	44	0	222298112	16	4246
2026-01-22 10:08:11.91	153.18	13.49	-27.5	-28.9	14.4	0.00e+00	0	44	0	225443840	16	4234
2026-01-22 10:08:12.91	153.17	13.59	-27.6	-29.0	14.3	7.00e-07	0	44	0	228589568	16	4265
2026-01-22 10:08:13.91	153.16	13.69	-27.5	-28.9	14.4	7.00e-07	0	44	0	230686720	16	4222
2026-01-22 10:08:14.92	153.15	13.79	-27.5	-28.8	14.4	0.00e+00	0	44	0	233832448	16	4197
2026-01-22 10:08:15.92	153.13	13.90	-27.5	-28.8	14.4	0.00e+00	0	44	0	236978176	16	4199
2026-01-22 10:08:16.93	153.12	14.00	-27.5	-28.9	14.5	7.00e-07	0	44	0	241172480	16	4215
2026-01-22 10:08:17.93	153.11	14.10	-27.6	-29.2	14.3	0.00e+00	0	44	0	244318208	16	4310
2026-01-22 10:08:18.93	153.10	14.20	-27.5	-28.8	14.5	0.00e+00	0	44	0	247463936	16	4200
2026-01-22 10:08:19.93	153.08	14.31	-27.5	-28.7	14.5	7.00e-07	0	44	0	250609664	16	4177
2026-01-22 10:08:20.94	153.07	14.41	-27.5	-28.9	14.5	7.00e-07	0	44	0	253755392	16	4209
2026-01-22 10:08:21.94	153.06	14.52	-27.4	-28.7	14.6	3.00e-06	0	44	0	255852544	16	4168
2026-01-22 10:08:22.95	153.05	14.62	-27.4	-28.7	14.6	0.00e+00	0	44	0	258998272	16	4169
2026-01-22 10:08:23.95	153.03	14.73	-27.5	-28.9	14.5	1.50e-06	0	44	0	262144000	16	4217
2026-01-22 10:08:24.96	153.02	14.84	-27.6	-29.1	14.3	0.00e+00	0	44	0	265289728	16	4284
2026-01-22 10:08:25.96	153.01	14.94	-27.6	-29.0	14.4	0.00e+00	0	44	0	268435456	16	4258
2026-01-22 10:08:26.96	152.99	15.05	-27.6	-29.1	14.4	0.00e+00	0	44	0	271581184	16	4264
2026-01-22 10:08:27.96	152.98	15.16	-27.7	-29.4	14.2	6.10e-06	0	44	0	274726912	16	4351
2026-01-22 10:08:28.96	152.97	15.27	-27.6	-29.0	14.4	7.00e-07	0	44	0	277872640	16	4251
2026-01-22 10:08:29.97	152.95	15.38	-27.5	-28.9	14.5	7.00e-07	0	44	0	281018368	16	4208
2026-01-22 10:08:30.97	152.94	15.48	-27.5	-28.9	14.5	3.80e-06	0	44	0	284164096	16	4227
2026-01-22 10:08:31.97	152.92	15.59	-27.5	-28.9	14.5	7.00e-07	0	44	0	287309824	16	4215
2026-01-22 10:08:32.97	152.91	15.70	-27.8	-29.4	14.2	1.50e-06	0	44	0	290455552	16	4364
2026-01-22 10:08:33.97	152.90	15.81	-27.6	-29.1	14.5	2.20e-06	0	44	0	293601280	16	4260
2026-01-22 10:08:34.96	152.88	15.92	-27.5	-28.7	14.7	0.00e+00	0	44	0	296747008	16	4159
2026-01-22 10:08:35.96	152.87	16.03	-27.5	-28.8	14.7	0.00e+00	0	44	0	299892736	16	4173
2026-01-22 10:08:36.97	152.85	16.15	-27.5	-28.8	14.7	2.20e-06	0	44	0	303038464	16	4170
2026-01-22 10:08:37.97	152.84	16.26	-27.6	-29.0	14.5	0.00e+00	0	44	0	306184192	16	4236
2026-01-22 10:08:38.97	152.82	16.37	-27.6	-29.0	14.5	7.00e-07	0	44	0	309329920	16	4242
2026-01-22 10:08:39.98	152.81	16.49	-27.6	-29.1	14.5	0.00e+00	0	44	0	312475648	16	4248
2026-01-22 10:08:40.98	152.79	16.60	-27.6	-29.0	14.6	0.00e+00	0	44	0	315621376	16	4239
2026-01-22 10:08:41.99	152.78	16.72	-27.6	-29.1	14.5	7.00e-07	0	44	0	318767104	16	4270
2026-01-22 10:08:43.00	152.76	16.83	-27.6	-29.1	14.5	0.00e+00	0	44	0	321912832	16	4261
2026-01-22 10:08:43.99	152.75	16.95	-27.6	-29.1	14.5	0.00e+00	0	44	0	325058560	16	4260
2026-01-22 10:08:44.99	152.73	17.06	-27.8	-29.6	14.2	0.00e+00	0	44	0	328204288	16	4425
2026-01-22 10:08:45.98	152.72	17.18	-27.7	-29.2	14.5	3.80e-06	0	44	0	331350016	16	4295
2026-01-22 10:08:46.99	152.70	17.30	-27.6	-29.0	14.6	1.50e-06	0	44	0	334495744	16	4245
2026-01-22 10:08:47.99	152.68	17.42	-27.6	-29.1	14.6	3.00e-06	0	44	0	337641472	16	4248
2026-01-22 10:08:48.98	152.67	17.53	-27.7	-29.3	14.5	0.00e+00	0	44	0	340787200	16	4318
2026-01-22 10:08:49.98	152.65	17.65	-27.7	-29.1	14.6	0.00e+00	0	44	0	343932928	16	4262
2026-01-22 10:08:50.99	152.63	17.77	-27.6	-29.0	14.7	0.00e+00	0	44	0	347078656	16	4232
2026-01-22 10:08:51.98	152.62	17.89	-27.7	-29.1	14.6	0.00e+00	0	44	0	350224384	16	4250
2026-01-22 10:08:52.99	152.60	18.01	-27.7	-29.1	14.7	0.00e+00	0	44	0	353370112	16	4243
2026-01-22 10:08:54.00	152.58	18.13	-27.7	-29.2	14.6	0.00e+00	0	44	0	356515840	16	4273
2026-01-22 10:08:55.01	152.57	18.26	-27.7	-29.1	14.7	7.00e-07	0	44	0	359661568	16	4240
2026-01-22 10:08:56.01	152.55	18.38	-27.7	-29.1	14.7	0.00e+00	0	44	0	362807296	16	4247
2026-01-22 10:08:57.01	152.53	18.50	-27.6	-29.0	14.8	0.00e+00	0	44	0	365953024	16	4218
2026-01-22 10:08:58.01	152.51	18.63	-27.8	-29.3	14.6	0.00e+00	0	44	0	369098752	16	4295
2026-01-22 10:08:59.01	152.50	18.75	-27.6	-29.0	14.7	0.00e+00	0	44	0	372244480	16	4226
2026-01-22 10:09:00.01	152.48	18.88	-27.7	-29.0	14.8	0.00e+00	0	44	0	375390208	16	4225
2026-01-22 10:09:01.02	152.46	19.00	-27.8	-29.4	14.6	0.00e+00	0	44	0	378535936	16	4315
2026-01-22 10:09:02.02	152.44	19.13	-27.6	-29.0	14.8	0.00e+00	0	44	0	381681664	16	4211
2026-01-22 10:09:03.03	152.42	19.26	-27.6	-28.9	14.9	0.00e+00	0	44	0	384827392	16	4192
2026-01-22 10:09:04.03	152.40	19.38	-27.7	-29.1	14.8	0.00e+00	0	44	0	387973120	16	4226
2026-01-22 10:09:05.03	152.39	19.51	-27.6	-28.8	14.9	7.00e-07	0	44	0	391118848	16	4157
2026-01-22 10:09:06.03	152.37	19.64	-27.7	-29.0	14.8	0.00e+00	0	44	0	394264576	16	4216
2026-01-22 10:09:07.04	152.35	19.77	-27.6	-28.8	15.0	0.00e+00	0	44	0	397410304	16	4153
2026-01-22 10:09:08.05	152.33	19.90	-27.6	-28.8	15.0	0.00e+00	0	44	0	400556032	16	4161
2026-01-22 10:09:09.05	152.31	20.03	-27.5	-28.7	15.0	0.00e+00	0	44	0	403701760	16	4123
2026-01-22 10:09:10.04	152.29	20.16	-27.5	-28.7	15.1	0.00e+00	0	44	0	406847488	16	4118
2026-01-22 10:09:11.04	152.27	20.30	-27.6	-28.8	15.0	0.00e+00	0	44	0	409993216	16	4153
2026-01-22 10:09:12.04	152.25	20.43	-27.6	-28.8	15.0	0.00e+00	0	44	0	413138944	16	4161
2026-01-22 10:09:13.04	152.23	20.56	-27.6	-28.9	14.9	0.00e+00	0	44	0	416284672	16	4179
2026-01-22 10:09:14.04	152.21	20.70	-27.5	-28.8	15.0	0.00e+00	0	44	0	419430400	16	4143
2026-01-22 10:09:15.04	152.19	20.83	-27.5	-28.6	15.1	0.00e+00	0	44	0	422576128	16	4090
2026-01-22 10:09:16.04	152.16	20.97	-27.5	-28.6	15.1	0.00e+00	0	44	0	425721856	16	4113
2026-01-22 10:09:17.04	152.14	21.10	-27.4	-28.4	15.3	0.00e+00	0	44	0	428867584	16	4041
2026-01-22 10:09:18.04	152.12	21.24	-27.3	-28.3	15.3	0.00e+00	0	44	0	432013312	16	4013
2026-01-22 10:09:19.04	152.10	21.38	-27.4	-28.5	15.2	0.00e+00	0	44	0	435159040	16	4069
2026-01-22 10:09:20.04	152.08	21.52	-27.1	-28.3	15.4	0.00e+00	0	44	0	438304768	15	4125
2026-01-22 10:09:21.04	152.06	21.66	-27.2	-28.6	15.3	0.00e+00	0	44	0	441450496	15	4200
2026-01-22 10:09:22.04	152.03	21.80	-27.0	-28.1	15.5	0.00e+00	0	44	0	444596224	15	4083
2026-01-22 10:09:23.03	152.01	21.94	-26.9	-27.8	15.7	0.00e+00	0	44	0	447741952	15	4001
2026-01-22 10:09:24.04	151.99	22.08	-26.8	-27.6	15.9	0.00e+00	0	44	0	450887680	15	3939
2026-01-22 10:09:25.05	151.97	22.22	-26.8	-28.1	15.9	0.00e+00	0	44	0	454033408	14	4178
2026-01-22 10:09:26.05	151.94	22.37	-26.6	-27.8	16.0	0.00e+00	0	44	0	457179136	14	4101
2026-01-22 10:09:27.05	151.92	22.51	-26.6	-27.6	16.2	0.00e+00	0	44	0	459276288	14	4048
2026-01-22 10:09:28.05	151.89	22.66	-26.6	-27.6	16.1	0.00e+00	0	44	0	462422016	14	4055
2026-01-22 10:09:29.06	151.87	22.80	-26.7	-27.9	16.0	0.00e+00	0	44	0	465567744	14	4131
2026-01-22 10:09:30.06	151.85	22.95	-26.5	-27.4	16.3	5.30e-06	0	44	0	468713472	14	4003
2026-01-22 10:09:31.06	151.82	23.10	-26.4	-27.2	16.4	0.00e+00	0	44	0	471859200	14	3956
2026-01-22 10:09:32.06	151.80	23.25	-26.4	-27.2	16.4	0.00e+00	0	44	0	475004928	14	3936
2026-01-22 10:09:33.06	151.77	23.40	-26.6	-27.5	16.3	0.00e+00	0	44	0	478150656	14	4024
2026-01-22 10:09:34.06	151.75	23.55	-26.4	-27.1	16.5	0.00e+00	0	44	0	481296384	14	3917
2026-01-22 10:09:35.06	151.72	23.70	-26.3	-27.0	16.5	0.00e+00	0	44	0	484442112	14	3888
2026-01-22 10:09:36.07	151.69	23.85	-26.4	-27.2	16.4	0.00e+00	0	44	0	487587840	14	3945
2026-01-22 10:09:37.07	151.67	24.00	-26.3	-27.0	16.5	0.00e+00	0	44	0	490733568	14	3886
2026-01-22 10:09:38.06	151.64	24.15	-26.3	-27.4	16.5	0.00e+00	0	44	0	493879296	13	4112
2026-01-22 10:09:39.06	151.62	24.31	-26.3	-27.5	16.5	1.50e-06	0	44	0	497025024	13	4122
2026-01-22 10:09:40.07	151.59	24.47	-26.3	-27.4	16.6	0.00e+00	0	44	0	500170752	13	4101
2026-01-22 10:09:41.06	151.56	24.62	-26.3	-27.4	16.6	0.00e+00	0	44	0	503316480	13	4099
2026-01-22 10:09:42.06	151.53	24.78	-26.4	-27.6	16.5	0.00e+00	0	44	0	506462208	13	4151
2026-01-22 10:09:43.06	151.51	24.94	-26.3	-27.5	16.6	0.00e+00	0	44	0	509607936	13	4113
2026-01-22 10:09:44.05	151.48	25.09	-26.4	-27.7	16.4	0.00e+00	0	44	0	512753664	13	4180
2026-01-22 10:09:45.06	151.45	25.25	-26.4	-27.7	16.5	3.00e-06	0	44	0	515899392	13	4163
2026-01-22 10:09:46.06	151.42	25.42	-26.5	-27.9	16.3	0.00e+00	0	44	0	519045120	13	4241
2026-01-22 10:09:47.07	151.39	25.58	-26.5	-28.0	16.3	0.00e+00	0	44	0	522190848	13	4246
2026-01-22 10:09:48.07	151.36	25.74	-26.6	-28.1	16.2	3.00e-06	0	44	0	525336576	13	4284
2026-01-22 10:09:49.07	151.33	25.91	-26.6	-28.2	16.2	0.00e+00	0	44	0	528482304	13	4316
2026-01-22 10:09:50.07	151.30	26.07	-26.8	-28.5	16.0	0.00e+00	0	44	0	531628032	13	4398
2026-01-22 10:09:51.07	151.27	26.24	-26.8	-28.6	16.0	0.00e+00	0	44	0	534773760	13	4428
2026-01-22 10:09:52.07	151.24	26.40	-26.9	-28.8	15.9	0.00e+00	0	44	0	537919488	13	4481
2026-01-22 10:09:53.07	151.21	26.57	-27.0	-28.9	15.8	0.00e+00	0	44	0	541065216	13	4515
2026-01-22 10:09:54.08	151.18	26.74	-27.2	-28.9	15.6	3.80e-06	0	44	0	544210944	14	4395
2026-01-22 10:09:55.08	151.14	26.91	-27.5	-29.5	15.3	0.00e+00	0	44	0	547356672	14	4566
2026-01-22 10:09:56.09	151.11	27.09	-27.4	-29.4	15.3	0.00e+00	0	44	0	550502400	14	4533
2026-01-22 10:09:57.09	151.08	27.26	-27.7	-29.5	15.0	0.00e+00	0	44	0	553648128	15	4459
2026-01-22 10:09:58.09	151.04	27.43	-27.7	-29.5	15.0	0.00e+00	0	44	0	556793856	15	4466
2026-01-22 10:09:59.08	151.01	27.60	-27.9	-30.0	14.7	0.00e+00	0	44	0	559939584	15	4603
2026-01-22 10:10:00.09	150.98	27.78	-28.0	-30.2	14.6	0.00e+00	0	44	0	563085312	15	4669
2026-01-22 10:10:01.09	150.94	27.96	-28.1	-30.0	14.6	7.00e-07	0	44	0	566231040	16	4482
2026-01-22 10:10:02.09	150.91	28.13	-28.3	-30.5	14.3	7.00e-07	0	44	0	569376768	16	4632
2026-01-22 10:10:03.10	150.87	28.32	-28.3	-30.5	14.3	0.00e+00	0	44	0	572522496	16	4639
2026-01-22 10:10:04.09	150.84	28.49	-28.3	-30.6	14.3	7.00e-07	0	44	0	575668224	16	4644
2026-01-22 10:10:05.10	150.80	28.68	-28.4	-30.6	14.3	0.00e+00	0	44	0	578813952	16	4670
2026-01-22 10:10:06.11	150.76	28.86	-28.2	-30.2	14.5	0.00e+00	0	44	0	581959680	16	4530
2026-01-22 10:10:07.11	150.73	29.04	-28.1	-30.0	14.7	7.00e-07	0	44	0	585105408	16	4467
2026-01-22 10:10:08.11	150.69	29.23	-28.1	-29.9	14.7	0.00e+00	0	44	0	588251136	16	4453
2026-01-22 10:10:09.12	150.65	29.42	-28.0	-29.7	14.8	7.00e-07	0	44	0	591396864	16	4399
2026-01-22 10:10:10.12	150.61	29.60	-28.0	-29.7	14.8	0.00e+00	0	44	0	594542592	16	4401
2026-01-22 10:10:11.12	150.57	29.79	-28.1	-30.0	14.7	0.00e+00	0	44	0	597688320	16	4463
2026-01-22 10:10:12.11	150.53	29.98	-28.2	-30.2	14.5	0.00e+00	0	44	0	600834048	16	4529
2026-01-22 10:10:13.12	150.49	30.17	-28.2	-30.3	14.5	7.00e-07	0	44	0	603979776	16	4562
2026-01-22 10:10:14.12	150.45	30.36	-28.1	-29.9	14.7	0.00e+00	0	44	0	607125504	16	4453
2026-01-22 10:10:15.12	150.41	30.56	-28.0	-29.7	14.8	0.00e+00	0	44	0	610271232	16	4382
2026-01-22 10:10:16.13	150.37	30.75	-27.9	-29.5	15.0	0.00e+00	0	44	0	613416960	16	4334
2026-01-22 10:10:17.13	150.33	30.95	-28.0	-29.8	14.8	0.00e+00	0	44	0	616562688	16	4422
2026-01-22 10:10:18.13	150.29	31.15	-27.8	-29.2	15.1	0.00e+00	0	44	0	619708416	16	4247
2026-01-22 10:10:19.14	150.24	31.35	-27.9	-29.6	15.0	0.00e+00	0	44	0	622854144	16	4342
2026-01-22 10:10:20.14	150.20	31.55	-27.4	-28.4	15.6	0.00e+00	0	44	0	625999872	16	4032
2026-01-22 10:10:21.15	150.15	31.75	-27.0	-28.0	16.0	0.00e+00	0	44	0	629145600	15	4029
2026-01-22 10:10:22.16	150.11	31.96	-26.8	-27.5	16.2	0.00e+00	0	44	0	632291328	15	3902
2026-01-22 10:10:23.17	150.06	32.16	-26.7	-27.7	16.4	0.00e+00	0	44	0	635437056	14	4063
2026-01-22 10:10:24.16	150.02	32.37	-26.8	-28.0	16.2	0.00e+00	0	44	0	638582784	14	4144
2026-01-22 10:10:25.16	149.97	32.57	-27.0	-28.5	15.9	0.00e+00	0	44	0	641728512	14	4283
2026-01-22 10:10:26.17	149.92	32.78	-27.1	-28.6	15.9	0.00e+00	0	44	0	644874240	14	4292
2026-01-22 10:10:27.18	149.87	32.99	-27.3	-29.2	15.6	0.00e+00	0	44	0	648019968	14	4455
2026-01-22 10:10:28.19	149.82	33.21	-27.3	-29.1	15.6	0.00e+00	0	44	0	651165696	14	4441
2026-01-22 10:10:29.19	149.77	33.42	-27.6	-29.3	15.2	0.00e+00	0	44	0	654311424	15	4384
2026-01-22 10:10:30.19	149.72	33.63	-27.6	-29.3	15.2	0.00e+00	0	44	0	657457152	15	4385
2026-01-22 10:10:31.19	149.67	33.85	-27.7	-29.5	15.1	0.00e+00	0	44	0	660602880	15	4446
2026-01-22 10:10:32.19	149.62	34.07	-27.6	-29.3	15.3	0.00e+00	0	44	0	663748608	15	4372
2026-01-22 10:10:33.19	149.57	34.28	-27.6	-29.4	15.2	0.00e+00	0	44	0	666894336	15	4400
2026-01-22 10:10:34.20	149.52	34.51	-27.7	-29.5	15.1	0.00e+00	0	44	0	670040064	15	4437
2026-01-22 10:10:35.20	149.46	34.73	-27.9	-30.0	14.9	7.00e-07	0	44	0	673185792	15	4589
2026-01-22 10:10:36.20	149.41	34.95	-27.7	-29.6	15.1	0.00e+00	0	44	0	676331520	15	4465
2026-01-22 10:10:37.20	149.35	35.18	-27.9	-29.9	14.9	0.00e+00	0	44	0	679477248	15	4576
2026-01-22 10:10:38.20	149.30	35.40	-28.1	-30.0	14.7	0.00e+00	0	44	0	682622976	16	4481
2026-01-22 10:10:39.20	149.24	35.63	-28.4	-30.6	14.5	7.00e-07	0	44	0	685768704	16	4638
2026-01-22 10:10:40.20	149.18	35.86	-28.6	-30.6	14.2	0.00e+00	0	44	0	688914432	17	4527
2026-01-22 10:10:41.20	149.12	36.09	-28.6	-30.7	14.2	7.00e-07	0	44	0	691011584	17	4552
2026-01-22 10:10:42.20	149.06	36.32	-28.7	-30.9	14.0	2.20e-06	0	44	0	694157312	17	4611
2026-01-22 10:10:43.21	149.00	36.56	-28.5	-30.4	14.3	0.00e+00	0	44	0	697303040	17	4455
2026-01-22 10:10:44.21	148.94	36.80	-28.3	-29.7	14.6	0.00e+00	0	44	0	700448768	17	4276
2026-01-22 10:10:45.21	148.88	37.03	-28.3	-29.8	14.6	0.00e+00	0	44	0	703594496	17	4301
2026-01-22 10:10:46.20	148.81	37.27	-28.3	-29.9	14.6	7.00e-07	0	44	0	706740224	17	4312
2026-01-22 10:10:47.21	148.75	37.51	-28.2	-29.5	14.8	7.00e-07	0	44	0	709885952	17	4210
2026-01-22 10:10:48.21	148.68	37.76	-28.3	-29.8	14.7	0.00e+00	0	44	0	713031680	17	4283
2026-01-22 10:10:49.21	148.62	38.00	-28.2	-29.7	14.7	0.00e+00	0	44	0	716177408	17	4261
2026-01-22 10:10:50.22	148.55	38.25	-28.3	-30.0	14.5	7.00e-07	0	44	0	719323136	17	4338
2026-01-22 10:10:51.23	148.48	38.50	-28.3	-29.9	14.6	0.00e+00	0	44	0	722468864	17	4326
2026-01-22 10:10:52.23	148.41	38.75	-28.3	-29.9	14.6	0.00e+00	0	44	0	725614592	17	4312
2026-01-22 10:10:53.23	148.34	39.00	-28.4	-30.2	14.4	7.00e-07	0	44	0	728760320	17	4406
2026-01-22 10:10:54.24	148.27	39.26	-28.4	-30.1	14.5	0.00e+00	0	44	0	731906048	17	4377
2026-01-22 10:10:55.24	148.19	39.51	-28.4	-30.1	14.5	7.00e-07	0	44	0	735051776	17	4373
2026-01-22 10:10:56.24	148.12	39.77	-28.4	-30.2	14.4	1.50e-06	0	44	0	738197504	17	4398
2026-01-22 10:10:57.24	148.04	40.03	-28.3	-30.0	14.6	0.00e+00	0	44	0	741343232	17	4338
2026-01-22 10:10:58.24	147.97	40.29	-28.2	-29.7	14.7	0.00e+00	0	44	0	744488960	17	4253
2026-01-22 10:10:59.24	147.89	40.55	-28.3	-29.9	14.6	2.20e-06	0	44	0	747634688	17	4323
2026-01-22 10:11:00.24	147.81	40.81	-28.2	-29.7	14.7	0.00e+00	0	44	0	750780416	17	4266
2026-01-22 10:11:01.24	147.73	41.08	-28.4	-30.2	14.5	7.00e-07	0	44	0	753926144	17	4396
2026-01-22 10:11:02.23	147.65	41.35	-28.6	-30.5	14.2	7.00e-07	0	44	0	757071872	17	4506
2026-01-22 10:11:03.23	147.56	41.62	-28.8	-31.0	14.0	0.00e+00	0	44	0	760217600	17	4639
2026-01-22 10:11:04.23	147.48	41.89	-28.9	-31.4	13.8	3.00e-06	0	44	0	763363328	17	4776
2026-01-22 10:11:05.23	147.39	42.16	-29.1	-31.3	13.6	9.10e-06	0	44	0	766509056	18	4623
2026-01-22 10:11:06.24	147.30	42.44	-29.2	-31.6	13.3	1.29e-05	0	44	0	769654784	18	4733
2026-01-22 10:11:07.23	147.21	42.72	-29.3	-31.7	13.3	1.29e-05	0	44	0	772800512	18	4749
2026-01-22 10:11:08.24	147.12	43.00	-29.2	-31.6	13.3	1.67e-05	0	44	0	775946240	18	4745
2026-01-22 10:11:09.24	147.03	43.28	-29.3	-31.7	13.2	2.44e-05	0	44	0	779091968	18	4774
2026-01-22 10:11:10.24	146.93	43.56	-29.4	-31.9	13.1	2.44e-05	0	44	0	782237696	18	4846
2026-01-22 10:11:11.24	146.84	43.85	-29.4	-32.0	13.1	2.97e-05	0	44	0	785383424	18	4866
2026-01-22 10:11:12.25	146.74	44.14	-29.6	-31.9	12.9	2.97e-05	0	44	0	788529152	19	4717
2026-01-22 10:11:13.25	146.64	44.43	-29.7	-32.2	12.7	8.54e-05	0	44	0	791674880	19	4796
2026-01-22 10:11:14.25	146.54	44.72	-29.8	-32.4	12.6	8.01e-05	0	44	0	794820608	19	4895
2026-01-22 10:11:15.26	146.43	45.02	-29.9	-32.4	12.2	2.66e-04	0	44	0	797966336	20	4776
2026-01-22 10:11:16.26	146.33	45.32	-30.0	-32.4	12.2	2.07e-04	0	44	0	801112064	20	4794
2026-01-22 10:11:17.26	146.22	45.61	-30.0	-32.6	12.1	3.27e-04	0	44	0	804257792	20	4828
2026-01-22 10:11:18.26	146.11	45.91	-30.1	-32.7	12.0	3.16e-04	0	44	0	807403520	20	4890
2026-01-22 10:11:19.27	145.99	46.22	-30.0	-32.4	12.2	2.94e-04	0	44	0	810549248	20	4769
2026-01-22 10:11:20.27	145.88	46.52	-30.0	-32.6	12.1	2.98e-04	0	44	0	813694976	20	4846
2026-01-22 10:11:21.28	145.76	46.83	-30.0	-32.7	12.1	3.53e-04	0	44	0	816840704	20	4867
2026-01-22 10:11:22.28	145.64	47.14	-29.9	-32.2	12.3	1.51e-04	0	44	0	819986432	20	4727
2026-01-22 10:11:23.28	145.52	47.45	-29.8	-32.1	12.4	1.97e-04	0	44	0	823132160	20	4684
2026-01-22 10:11:24.28	145.40	47.77	-29.5	-31.2	12.9	6.17e-05	0	44	0	826277888	20	4413
2026-01-22 10:11:25.28	145.27	48.08	-29.4	-31.1	13.0	4.04e-05	0	44	0	829423616	20	4370
2026-01-22 10:11:26.29	145.14	48.40	-29.4	-31.2	13.0	3.35e-05	0	44	0	832569344	20	4386
2026-01-22 10:11:27.29	145.01	48.72	-29.3	-30.9	13.1	3.58e-05	0	44	0	835715072	20	4310
2026-01-22 10:11:28.30	144.87	49.05	-29.4	-31.1	13.0	2.59e-05	0	44	0	838860800	20	4371
2026-01-22 10:11:29.30	144.73	49.37	-29.6	-31.7	12.7	8.85e-05	0	44	0	842006528	20	4544
2026-01-22 10:11:30.30	144.59	49.70	-29.4	-31.1	13.0	3.20e-05	0	44	0	845152256	20	4370
2026-01-22 10:11:31.30	144.44	50.02	-29.3	-30.9	13.1	3.20e-05	0	44	0	848297984	20	4318
2026-01-22 10:11:32.30	144.30	50.36	-29.3	-31.3	13.3	1.14e-05	0	44	0	851443712	19	4523
2026-01-22 10:11:33.30	144.15	50.69	-29.4	-31.6	13.2	3.28e-05	0	44	0	854589440	19	4599
2026-01-22 10:11:34.30	143.99	51.02	-29.1	-30.8	13.6	8.30e-06	0	44	0	857735168	19	4365
2026-01-22 10:11:35.30	143.83	51.36	-28.8	-30.5	14.1	3.80e-06	0	44	0	860880896	18	4370
2026-01-22 10:11:36.30	143.67	51.70	-28.6	-30.0	14.3	0.00e+00	0	44	0	864026624	18	4255
2026-01-22 10:11:37.30	143.51	52.04	-28.4	-29.6	14.6	3.00e-06	0	44	0	867172352	18	4139
2026-01-22 10:11:38.30	143.34	52.38	-28.3	-29.5	14.6	7.00e-07	0	44	0	870318080	18	4101
2026-01-22 10:11:39.29	143.17	52.72	-28.4	-29.6	14.6	0.00e+00	0	44	0	873463808	18	4133
2026-01-22 10:11:40.29	142.99	53.07	-28.4	-29.7	14.6	7.00e-07	0	44	0	876609536	18	4156
2026-01-22 10:11:41.30	142.80	53.43	-28.3	-29.8	14.8	7.00e-07	0	44	0	879755264	17	4285
2026-01-22 10:11:42.30	142.62	53.78	-28.3	-29.8	14.8	7.00e-07	0	44	0	882900992	17	4295
2026-01-22 10:11:43.30	142.43	54.13	-28.4	-30.0	14.7	1.50e-06	0	44	0	886046720	17	4348
2026-01-22 10:11:44.30	142.23	54.49	-28.1	-29.5	15.0	0.00e+00	0	44	0	889192448	17	4214
2026-01-22 10:11:45.31	142.03	54.85	-28.1	-29.3	15.1	0.00e+00	0	44	0	892338176	17	4162
2026-01-22 10:11:46.31	141.82	55.21	-28.1	-29.4	15.0	7.00e-07	0	44	0	895483904	17	4173
2026-01-22 10:11:47.31	141.61	55.57	-27.8	-29.1	15.4	0.00e+00	0	44	0	897581056	16	4207
2026-01-22 10:11:48.32	141.39	55.94	-27.7	-29.0	15.5	0.00e+00	0	44	0	900726784	16	4184
2026-01-22 10:11:49.32	141.17	56.31	-27.8	-29.2	15.4	0.00e+00	0	44	0	903872512	16	4216
2026-01-22 10:11:50.33	140.93	56.68	-27.6	-28.8	15.6	0.00e+00	0	44	0	908066816	16	4122
2026-01-22 10:11:51.34	140.70	57.05	-27.4	-28.4	15.8	0.00e+00	0	44	0	911212544	16	4014
2026-01-22 10:11:52.34	140.45	57.42	-27.2	-28.3	16.0	0.00e+00	0	44	0	914358272	15	4103
2026-01-22 10:11:53.33	140.21	57.80	-27.1	-28.2	16.1	0.00e+00	0	44	0	917504000	15	4088
2026-01-22 10:11:54.34	139.95	58.18	-27.0	-27.9	16.2	0.00e+00	0	44	0	919601152	15	3997
2026-01-22 10:11:55.34	139.68	58.55	-26.9	-27.7	16.4	7.00e-07	0	44	0	922746880	15	3956
2026-01-22 10:11:56.34	139.41	58.93	-27.1	-28.1	16.1	0.00e+00	0	44	0	925892608	15	4054
2026-01-22 10:11:57.35	139.13	59.32	-27.0	-27.9	16.3	0.00e+00	0	44	0	929038336	15	4000
2026-01-22 10:11:58.36	138.84	59.71	-26.7	-27.8	16.6	0.00e+00	0	44	0	932184064	14	4077
2026-01-22 10:11:59.37	138.54	60.09	-26.5	-27.2	16.8	0.00e+00	0	44	0	935329792	14	3934
2026-01-22 10:12:00.37	138.23	60.48	-26.5	-27.4	16.8	0.00e+00	0	44	0	938475520	14	3973
2026-01-22 10:12:01.37	137.92	60.87	-26.6	-27.5	16.8	7.00e-07	0	44	0	941621248	14	4009
2026-01-22 10:12:02.37	137.59	61.26	-26.5	-27.4	16.8	0.00e+00	0	44	0	944766976	14	3978
2026-01-22 10:12:03.37	137.25	61.65	-26.5	-27.3	16.9	0.00e+00	0	44	0	947912704	14	3947
2026-01-22 10:12:04.38	136.90	62.05	-26.3	-26.9	17.1	0.00e+00	0	44	0	951058432	14	3848
2026-01-22 10:12:05.38	136.55	62.44	-26.2	-27.1	17.2	0.00e+00	0	44	0	954204160	13	4010
2026-01-22 10:12:06.38	136.17	62.83	-26.2	-27.1	17.2	0.00e+00	0	44	0	957349888	13	3998
2026-01-22 10:12:07.38	135.79	63.23	-26.1	-27.0	17.3	1.50e-06	0	44	0	960495616	13	3983
2026-01-22 10:12:08.39	135.39	63.63	-26.3	-27.3	17.1	0.00e+00	0	44	0	963641344	13	4061
2026-01-22 10:12:09.40	134.98	64.03	-26.4	-27.6	17.0	0.00e+00	0	44	0	966787072	13	4136
2026-01-22 10:12:10.40	134.55	64.43	-26.4	-27.7	16.9	1.50e-06	0	44	0	969932800	13	4161
2026-01-22 10:12:11.40	134.11	64.83	-26.5	-27.9	16.8	0.00e+00	0	44	0	973078528	13	4205
2026-01-22 10:12:12.40	133.66	65.24	-26.4	-27.5	17.0	0.00e+00	0	44	0	976224256	13	4107
2026-01-22 10:12:13.40	133.18	65.64	-26.3	-27.4	17.1	0.00e+00	0	44	0	979369984	13	4084
2026-01-22 10:12:14.40	132.69	66.04	-26.3	-27.5	17.1	0.00e+00	0	44	0	982515712	13	4101
2026-01-22 10:12:15.41	132.18	66.44	-26.1	-26.9	17.3	0.00e+00	0	44	0	985661440	13	3960
2026-01-22 10:12:16.42	131.64	66.85	-26.1	-26.9	17.4	7.00e-07	0	44	0	988807168	13	3965
2026-01-22 10:12:17.43	131.09	67.26	-26.6	-28.1	16.8	0.00e+00	0	44	0	991952896	13	4263
2026-01-22 10:12:18.43	130.52	67.66	-26.7	-28.4	16.6	0.00e+00	0	44	0	995098624	13	4346
2026-01-22 10:12:19.44	129.92	68.07	-26.7	-28.4	16.5	0.00e+00	0	44	0	998244352	13	4345
2026-01-22 10:12:20.44	129.30	68.47	-26.5	-27.8	16.9	0.00e+00	0	44	0	1001390080	13	4185
2026-01-22 10:12:21.45	128.65	68.87	-26.2	-27.1	17.2	0.00e+00	0	44	0	1004535808	13	4021
2026-01-22 10:12:22.44	127.98	69.27	-26.3	-27.4	17.0	0.00e+00	0	44	0	1007681536	13	4089
2026-01-22 10:12:23.44	127.28	69.67	-26.4	-27.7	16.9	0.00e+00	0	44	0	1010827264	13	4160
2026-01-22 10:12:24.45	126.54	70.07	-26.3	-27.3	17.0	0.00e+00	0	44	0	1013972992	13	4071
2026-01-22 10:12:25.46	125.77	70.47	-25.9	-26.6	17.5	0.00e+00	0	44	0	1017118720	13	3879
2026-01-22 10:12:26.46	124.97	70.86	-25.6	-26.3	17.9	0.00e+00	0	44	0	1020264448	12	3905
2026-01-22 10:12:27.45	124.15	71.25	-25.9	-27.0	17.5	0.00e+00	0	44	0	1023410176	12	4091
2026-01-22 10:12:28.45	123.28	71.64	-25.8	-26.8	17.7	0.00e+00	0	44	0	1026555904	12	4025
2026-01-22 10:12:29.46	122.36	72.03	-25.6	-26.4	17.9	0.00e+00	0	44	0	1029701632	12	3929
2026-01-22 10:12:30.46	121.41	72.42	-26.1	-27.4	17.3	0.00e+00	0	44	0	1032847360	12	4191
2026-01-22 10:12:31.46	120.41	72.80	-26.3	-27.8	17.2	0.00e+00	0	44	0	1035993088	12	4294
2026-01-22 10:12:32.46	119.36	73.17	-26.2	-27.7	17.2	0.00e+00	0	44	0	1039138816	12	4277
2026-01-22 10:12:33.46	118.27	73.54	-26.0	-27.2	17.4	0.00e+00	0	44	0	1042284544	12	4149
2026-01-22 10:12:34.47	117.11	73.92	-26.1	-27.4	17.4	0.00e+00	0	44	0	1045430272	12	4183
2026-01-22 10:12:35.47	115.91	74.28	-26.0	-27.2	17.5	0.00e+00	0	44	0	1048576000	12	4126
2026-01-22 10:12:36.47	114.64	74.63	-25.6	-26.4	17.9	0.00e+00	0	44	0	1051721728	12	3924
2026-01-22 10:12:37.48	113.30	74.98	-25.8	-26.8	17.6	0.00e+00	0	44	0	1054867456	12	4041
2026-01-22 10:12:38.48	111.91	75.33	-25.7	-26.6	17.8	0.00e+00	0	44	0	1058013184	12	3989
2026-01-22 10:12:39.48	110.46	75.66	-26.0	-27.2	17.5	0.00e+00	0	44	0	1061158912	12	4145
2026-01-22 10:12:40.49	108.91	75.99	-25.9	-27.0	17.6	0.00e+00	0	45	0	1064304640	12	4088
2026-01-22 10:12:41.49	107.31	76.30	-25.8	-26.8	17.7	0.00e+00	0	45	0	1067450368	12	4041
2026-01-22 10:12:42.49	105.63	76.61	-25.9	-26.9	17.6	0.00e+00	0	45	0	1070596096	12	4058
2026-01-22 10:12:43.50	103.85	76.90	-25.6	-26.4	17.9	0.00e+00	0	45	0	1073741824	12	3925
2026-01-22 10:12:44.50	102.00	77.19	-25.5	-26.0	18.1	0.00e+00	0	44	0	1076887552	12	3842
2026-01-22 10:12:45.50	100.08	77.45	-25.7	-26.5	17.8	0.00e+00	0	44	0	1080033280	12	3964
2026-01-22 10:12:46.50	98.07	77.71	-25.9	-27.0	17.6	0.00e+00	0	44	0	1083179008	12	4080
2026-01-22 10:12:47.51	95.95	77.95	-26.3	-27.8	17.2	0.00e+00	0	44	0	1086324736	12	4292
2026-01-22 10:12:48.52	93.75	78.18	-26.6	-28.0	16.6	0.00e+00	0	44	0	1089470464	13	4240
2026-01-22 10:12:49.52	91.48	78.38	-26.6	-28.1	16.7	0.00e+00	0	44	0	1092616192	13	4266
2026-01-22 10:12:50.51	89.16	78.57	-26.7	-28.3	16.7	0.00e+00	0	44	0	1095761920	13	4331
2026-01-22 10:12:51.52	86.72	78.74	-26.6	-28.0	16.8	0.00e+00	0	44	0	1098907648	13	4235
2026-01-22 10:12:52.52	84.23	78.89	-26.9	-28.6	16.5	0.00e+00	0	45	0	1102053376	13	4400
2026-01-22 10:12:53.52	81.67	79.02	-26.8	-28.1	16.6	0.00e+00	0	44	0	1105199104	14	4140
2026-01-22 10:12:54.52	79.06	79.12	-26.8	-27.9	16.7	0.00e+00	0	44	0	1108344832	14	4103
2026-01-22 10:12:55.52	76.41	79.20	-26.7	-27.8	16.7	0.00e+00	0	44	0	1111490560	14	4076
2026-01-22 10:12:56.53	73.69	79.26	-26.5	-27.3	17.0	0.00e+00	0	44	0	1114636288	14	3956
2026-01-22 10:12:57.53	70.97	79.30	-26.4	-27.0	17.1	0.00e+00	0	45	0	1117782016	14	3864
2026-01-22 10:12:58.53	68.24	79.31	-26.4	-27.4	17.1	0.00e+00	0	44	0	1120927744	13	4084
2026-01-22 10:12:59.53	65.51	79.30	-26.2	-27.2	17.3	0.00e+00	0	44	0	1124073472	13	4023
2026-01-22 10:13:00.53	62.79	79.27	-26.3	-27.3	17.2	0.00e+00	0	44	0	1127219200	13	4056
2026-01-22 10:13:01.53	60.10	79.21	-26.5	-27.9	16.9	0.00e+00	0	44	0	1130364928	13	4200
2026-01-22 10:13:02.53	57.44	79.12	-26.2	-27.0	17.4	0.00e+00	0	45	0	1133510656	13	3976
2026-01-22 10:13:03.53	54.83	79.02	-26.5	-27.7	17.1	0.00e+00	0	45	0	1136656384	13	4138
2026-01-22 10:13:04.53	52.27	78.89	-26.6	-28.1	16.8	0.00e+00	0	45	0	1139802112	13	4259
2026-01-22 10:13:05.54	49.75	78.74	-26.3	-27.3	17.2	0.00e+00	0	45	0	1142947840	13	4044
2026-01-22 10:13:06.54	47.33	78.58	-26.1	-26.8	17.5	0.00e+00	0	44	0	1146093568	13	3934
2026-01-22 10:13:07.55	44.96	78.39	-26.5	-27.8	17.0	0.00e+00	0	45	0	1149239296	13	4179
2026-01-22 10:13:08.56	42.68	78.18	-26.4	-27.5	17.1	0.00e+00	0	45	0	1152385024	13	4108
2026-01-22 10:13:09.56	40.50	77.96	-26.3	-27.4	17.2	0.00e+00	0	44	0	1155530752	13	4074
2026-01-22 10:13:10.56	38.40	77.72	-26.4	-27.7	16.9	0.00e+00	0	45	0	1158676480	13	4147
2026-01-22 10:13:11.56	36.39	77.46	-26.1	-26.9	17.4	0.00e+00	0	45	0	1161822208	13	3940
2026-01-22 10:13:12.57	34.44	77.19	-26.1	-26.8	17.5	7.60e-06	0	45	0	1164967936	13	3921
2026-01-22 10:13:13.57	32.60	76.91	-26.0	-26.6	17.5	0.00e+00	0	44	0	1168113664	13	3882
2026-01-22 10:13:14.57	30.84	76.62	-26.1	-26.9	17.4	0.00e+00	0	45	0	1171259392	13	3950
2026-01-22 10:13:15.58	29.14	76.31	-26.0	-26.7	17.4	1.14e-05	0	44	0	1174405120	13	3912
2026-01-22 10:13:16.58	27.53	76.00	-25.8	-26.7	17.7	0.00e+00	0	45	0	1177550848	12	3996
2026-01-22 10:13:17.58	26.00	75.67	-25.9	-27.1	17.5	0.00e+00	0	45	0	1180696576	12	4099
2026-01-22 10:13:18.58	24.54	75.34	-26.0	-27.2	17.5	6.80e-06	0	44	0	1183842304	12	4144
2026-01-22 10:13:19.59	23.14	74.99	-25.6	-26.4	17.9	0.00e+00	0	45	0	1186988032	12	3930
2026-01-22 10:13:20.58	21.83	74.65	-25.9	-27.0	17.6	0.00e+00	0	45	0	1190133760	12	4074
2026-01-22 10:13:21.59	20.55	74.29	-26.3	-27.9	17.1	0.00e+00	0	45	0	1193279488	12	4323
2026-01-22 10:13:22.60	19.33	73.93	-26.8	-28.4	16.7	0.00e+00	0	45	0	1196425216	13	4332
2026-01-22 10:13:23.59	18.19	73.56	-26.3	-27.4	17.1	0.00e+00	0	45	0	1198522368	13	4070
2026-01-22 10:13:24.59	17.10	73.19	-25.8	-26.7	17.8	0.00e+00	0	44	0	1201668096	12	3994
2026-01-22 10:13:25.60	16.04	72.81	-25.5	-26.1	18.1	0.00e+00	0	45	0	1204813824	12	3848
2026-01-22 10:13:26.60	15.04	72.44	-25.7	-26.5	17.8	0.00e+00	0	45	0	1207959552	12	3944
2026-01-22 10:13:27.61	14.08	72.05	-26.0	-27.1	17.4	0.00e+00	0	45	0	1211105280	12	4106
2026-01-22 10:13:28.61	13.17	71.66	-25.9	-26.9	17.6	0.00e+00	0	45	0	1214251008	12	4053
2026-01-22 10:13:29.61	12.30	71.27	-25.6	-26.3	17.9	0.00e+00	0	45	0	1217396736	12	3910
2026-01-22 10:13:30.61	11.47	70.88	-25.2	-26.0	18.4	0.00e+00	0	45	0	1220542464	11	3950
2026-01-22 10:13:31.62	10.66	70.48	-25.1	-25.7	18.6	0.00e+00	0	45	0	1223688192	11	3873
2026-01-22 10:13:32.62	9.90	70.09	-25.5	-26.7	18.1	0.00e+00	0	45	0	1226833920	11	4098
2026-01-22 10:13:33.61	9.18	69.70	-26.1	-27.4	17.4	0.00e+00	0	45	0	1229979648	12	4189
2026-01-22 10:13:34.62	8.47	69.29	-26.6	-28.1	16.7	0.00e+00	0	45	0	1233125376	13	4268
2026-01-22 10:13:35.62	7.80	68.90	-26.9	-28.8	16.2	0.00e+00	0	44	0	1236271104	13	4451
2026-01-22 10:13:36.62	7.15	68.50	-26.9	-28.7	16.4	0.00e+00	0	45	0	1239416832	13	4425
2026-01-22 10:13:37.62	6.53	68.09	-26.9	-28.6	16.4	0.00e+00	0	45	0	1242562560	13	4410
2026-01-22 10:13:38.62	5.94	67.69	-27.0	-28.5	16.2	0.00e+00	0	45	0	1245708288	14	4269
2026-01-22 10:13:39.63	5.36	67.29	-27.4	-29.2	15.8	0.00e+00	0	44	0	1248854016	14	4473
2026-01-22 10:13:40.62	4.81	66.89	-27.6	-29.4	15.5	0.00e+00	0	45	0	1251999744	15	4411
2026-01-22 10:13:41.62	4.28	66.49	-27.5	-29.0	15.7	0.00e+00	0	45	0	1255145472	15	4311
2026-01-22 10:13:42.62	3.77	66.09	-26.5	-27.4	16.8	0.00e+00	0	45	0	1258291200	14	3984
2026-01-22 10:13:43.63	3.28	65.68	-25.6	-26.3	17.8	0.00e+00	0	44	0	1261436928	12	3915
2026-01-22 10:13:44.63	2.80	65.28	-25.6	-26.3	17.9	0.00e+00	0	45	0	1264582656	12	3915
2026-01-22 10:13:45.64	2.34	64.88	-25.8	-26.9	17.6	0.00e+00	0	45	0	1267728384	12	4059
2026-01-22 10:13:46.64	1.90	64.48	-26.3	-28.0	16.9	0.00e+00	0	44	0	1270874112	12	4347
2026-01-22 10:13:47.64	1.48	64.08	-26.9	-28.6	16.3	0.00e+00	0	45	0	1274019840	13	4400
2026-01-22 10:13:48.64	1.07	63.68	-27.1	-28.6	16.1	0.00e+00	0	45	0	1277165568	14	4297
2026-01-22 10:13:49.64	0.67	63.29	-27.1	-28.6	16.1	0.00e+00	0	45	0	1280311296	14	4279
2026-01-22 10:13:50.64	0.29	62.89	-27.0	-28.5	15.9	0.00e+00	0	45	0	1283457024	14	4252
2026-01-22 10:13:51.64	359.91	62.50	-26.9	-28.2	16.2	0.00e+00	0	44	0	1286602752	14	4171
2026-01-22 10:13:52.65	359.55	62.10	-27.0	-28.3	16.2	0.00e+00	0	45	0	1289748480	14	4205
2026-01-22 10:13:53.65	359.20	61.71	-26.9	-28.1	16.4	0.00e+00	0	44	0	1292894208	14	4152
2026-01-22 10:13:54.66	358.86	61.31	-27.7	-29.5	15.4	0.00e+00	0	45	0	1296039936	15	4434
2026-01-22 10:13:55.67	358.53	60.92	-28.7	-30.7	14.4	0.00e+00	0	44	0	1299185664	17	4543
2026-01-22 10:13:56.67	358.22	60.53	-29.3	-31.6	13.6	8.30e-06	0	45	0	1302331392	18	4716
2026-01-22 10:13:57.68	357.91	60.15	-28.8	-30.6	14.0	6.10e-06	0	45	0	1305477120	18	4407
2026-01-22 10:13:58.68	357.61	59.76	-27.9	-28.9	15.0	7.00e-07	0	45	0	1308622848	17	4052
2026-01-22 10:13:59.69	357.32	59.38	-27.0	-27.8	16.0	0.00e+00	0	44	0	1311768576	15	3975
2026-01-22 10:14:00.69	357.04	59.00	-26.6	-27.4	16.5	0.00e+00	0	45	0	1314914304	14	3972
2026-01-22 10:14:01.70	356.77	58.61	-26.7	-27.7	16.5	0.00e+00	0	44	0	1318060032	14	4052
2026-01-22 10:14:02.70	356.50	58.24	-26.9	-28.2	16.3	0.00e+00	0	45	0	1321205760	14	4176
2026-01-22 10:14:03.71	356.24	57.86	-27.8	-29.8	15.1	0.00e+00	0	44	0	1324351488	15	4502
2026-01-22 10:14:04.71	356.00	57.48	-28.4	-30.6	14.4	7.00e-07	0	44	0	1327497216	16	4631
2026-01-22 10:14:05.71	355.75	57.11	-29.1	-31.2	13.6	6.80e-06	0	45	0	1330642944	18	4578
2026-01-22 10:14:06.70	355.52	56.75	-29.0	-31.1	13.8	9.90e-06	0	45	0	1333788672	18	4558
2026-01-22 10:14:07.71	355.29	56.38	-28.1	-29.3	15.0	0.00e+00	0	45	0	1336934400	17	4142
2026-01-22 10:14:08.71	355.06	56.01	-27.4	-28.2	16.0	0.00e+00	0	44	0	1340080128	16	3949
2026-01-22 10:14:09.70	354.85	55.65	-27.0	-28.0	16.2	0.00e+00	0	45	0	1343225856	15	4022
2026-01-22 10:14:10.70	354.64	55.29	-27.2	-28.3	16.0	0.00e+00	0	45	0	1346371584	15	4090
2026-01-22 10:14:11.71	354.43	54.93	-27.5	-29.0	15.6	0.00e+00	0	44	0	1349517312	15	4287
2026-01-22 10:14:12.71	354.23	54.57	-27.7	-29.5	15.3	0.00e+00	0	45	0	1352663040	15	4439
2026-01-22 10:14:13.72	354.03	54.21	-27.9	-30.0	15.1	0.00e+00	0	45	0	1355808768	15	4582
2026-01-22 10:14:14.72	353.84	53.86	-28.4	-30.6	14.6	0.00e+00	0	44	0	1358954496	16	4641
2026-01-22 10:14:15.73	353.65	53.50	-28.8	-31.1	14.1	2.20e-06	0	45	0	1362100224	17	4665
2026-01-22 10:14:16.73	353.47	53.15	-29.0	-31.5	13.8	2.20e-06	0	45	0	1365245952	17	4804
2026-01-22 10:14:17.74	353.29	52.80	-28.8	-30.5	14.1	3.80e-06	0	45	0	1368391680	18	4391
2026-01-22 10:14:18.74	353.11	52.46	-28.7	-30.3	14.2	1.50e-06	0	45	0	1371537408	18	4330
2026-01-22 10:14:19.74	352.94	52.12	-28.9	-30.7	14.0	7.00e-07	0	44	0	1374683136	18	4430
2026-01-22 10:14:20.74	352.78	51.78	-28.7	-30.2	14.2	1.50e-06	0	45	0	1377828864	18	4288
2026-01-22 10:14:21.75	352.62	51.44	-28.6	-30.1	14.3	0.00e+00	0	45	0	1380974592	18	4249
2026-01-22 10:14:22.75	352.46	51.10	-28.8	-30.4	14.1	1.50e-06	0	45	0	1384120320	18	4342
2026-01-22 10:14:23.75	352.30	50.77	-28.6	-30.1	14.3	7.00e-07	0	45	0	1387266048	18	4256
2026-01-22 10:14:24.76	352.15	50.43	-28.6	-30.1	14.3	1.50e-06	0	45	0	1390411776	18	4251
2026-01-22 10:14:25.76	352.00	50.10	-29.0	-31.0	13.7	5.30e-06	0	45	0	1393557504	18	4528
2026-01-22 10:14:26.77	351.86	49.77	-29.3	-31.6	13.4	1.52e-05	0	45	0	1396703232	18	4705
2026-01-22 10:14:27.78	351.72	49.44	-29.7	-32.3	12.7	5.03e-05	0	44	0	1399848960	19	4837
2026-01-22 10:14:28.78	351.58	49.12	-30.1	-32.8	12.0	2.39e-04	0	44	0	1402994688	20	4914
2026-01-22 10:14:29.79	351.44	48.80	-30.1	-32.9	11.9	4.45e-04	0	45	0	1406140416	20	4938
2026-01-22 10:14:30.79	351.31	48.48	-30.0	-32.4	12.1	2.97e-04	0	45	0	1409286144	20	4785
2026-01-22 10:14:31.79	351.18	48.16	-29.5	-31.4	12.8	7.70e-05	0	45	0	1412431872	20	4436
2026-01-22 10:14:32.80	351.05	47.84	-29.2	-30.9	13.5	1.83e-05	0	45	0	1415577600	19	4399
2026-01-22 10:14:33.80	350.93	47.53	-28.9	-30.2	14.0	3.00e-06	0	44	0	1418723328	19	4182
2026-01-22 10:14:34.80	350.81	47.22	-28.9	-30.2	13.9	3.80e-06	0	45	0	1421869056	19	4196
2026-01-22 10:14:35.81	350.69	46.91	-29.0	-30.5	13.8	6.80e-06	0	44	0	1425014784	19	4263
2026-01-22 10:14:36.81	350.57	46.61	-29.2	-30.9	13.5	8.30e-06	0	45	0	1428160512	19	4381
2026-01-22 10:14:37.81	350.45	46.30	-29.5	-31.7	13.0	2.13e-05	0	45	0	1431306240	19	4639
2026-01-22 10:14:38.80	350.34	46.00	-29.7	-32.2	12.7	8.01e-05	0	44	0	1434451968	19	4814
2026-01-22 10:14:39.81	350.23	45.70	-30.1	-32.8	12.0	2.22e-04	0	44	0	1437597696	20	4898
2026-01-22 10:14:40.82	350.12	45.40	-29.9	-32.2	12.3	2.75e-04	0	45	0	1440743424	20	4701
2026-01-22 10:14:41.83	350.02	45.10	-29.5	-31.2	12.9	5.26e-05	0	45	0	1443889152	20	4383
2026-01-22 10:14:42.83	349.91	44.81	-29.3	-30.8	13.2	2.28e-05	0	45	0	1447034880	20	4258
2026-01-22 10:14:43.83	349.81	44.52	-29.4	-31.0	13.0	3.20e-05	0	45	0	1450180608	20	4315
2026-01-22 10:14:44.83	349.71	44.23	-29.3	-30.7	13.2	3.35e-05	0	45	0	1453326336	20	4229
2026-01-22 10:14:45.83	349.61	43.94	-29.3	-31.2	13.3	2.05e-05	0	44	0	1456472064	19	4491
2026-01-22 10:14:46.84	349.52	43.66	-29.5	-31.8	12.9	2.82e-05	0	45	0	1459617792	19	4674
2026-01-22 10:14:47.84	349.42	43.37	-29.7	-32.3	12.5	9.15e-05	0	44	0	1462763520	19	4843
2026-01-22 10:14:48.84	349.33	43.09	-30.0	-32.5	12.0	2.85e-04	0	44	0	1465909248	20	4833
2026-01-22 10:14:49.85	349.24	42.81	-29.9	-32.4	12.1	3.42e-04	0	44	0	1469054976	20	4768
2026-01-22 10:14:50.86	349.15	42.53	-29.6	-31.4	12.7	1.20e-04	0	45	0	1472200704	20	4464
2026-01-22 10:14:51.86	349.06	42.26	-29.2	-31.1	13.3	1.44e-05	0	45	0	1474297856	19	4449
2026-01-22 10:14:52.87	348.97	41.98	-29.0	-30.4	13.7	1.22e-05	0	44	0	1477443584	19	4258
2026-01-22 10:14:53.87	348.89	41.71	-28.8	-30.1	13.9	4.50e-06	0	44	0	1480589312	19	4170
2026-01-22 10:14:54.87	348.80	41.44	-29.0	-30.4	13.7	3.00e-06	0	44	0	1483735040	19	4261
2026-01-22 10:14:55.86	348.72	41.18	-29.0	-30.6	13.6	4.50e-06	0	44	0	1486880768	19	4298
2026-01-22 10:14:56.87	348.64	40.91	-29.1	-30.8	13.5	1.60e-05	0	45	0	1490026496	19	4376
2026-01-22 10:14:57.87	348.56	40.64	-29.2	-31.0	13.4	1.60e-05	0	44	0	1493172224	19	4430
2026-01-22 10:14:58.87	348.48	40.38	-29.4	-31.5	13.0	2.28e-05	0	45	0	1496317952	19	4584
2026-01-22 10:14:59.88	348.41	40.12	-29.4	-31.4	13.1	3.73e-05	0	45	0	1499463680	19	4550
2026-01-22 10:15:00.88	348.33	39.86	-29.3	-31.2	13.2	2.21e-05	0	44	0	1502609408	19	4492
2026-01-22 10:15:01.89	348.26	39.60	-29.3	-31.3	13.1	2.36e-05	0	45	0	1505755136	19	4521
2026-01-22 10:15:02.90	348.18	39.35	-29.2	-31.0	13.4	1.83e-05	0	45	0	1508900864	19	4417
2026-01-22 10:15:03.90	348.11	39.09	-29.0	-30.6	13.6	1.22e-05	0	45	0	1512046592	19	4297
2026-01-22 10:15:04.91	348.04	38.84	-29.2	-30.9	13.4	5.30e-06	0	44	0	1515192320	19	4398
2026-01-22 10:15:05.92	347.97	38.59	-29.4	-31.4	13.2	2.05e-05	0	45	0	1518338048	19	4539
2026-01-22 10:15:06.92	347.90	38.34	-29.3	-31.3	13.2	2.74e-05	0	44	0	1521483776	19	4517
2026-01-22 10:15:07.92	347.84	38.10	-29.2	-31.0	13.3	2.28e-05	0	45	0	1524629504	19	4438
2026-01-22 10:15:08.92	347.77	37.85	-29.2	-31.0	13.3	1.52e-05	0	45	0	1527775232	19	4430
2026-01-22 10:15:09.92	347.71	37.61	-28.9	-30.2	13.8	6.10e-06	0	45	0	1530920960	19	4200
2026-01-22 10:15:10.92	347.64	37.37	-28.5	-29.8	14.3	3.00e-06	0	45	0	1534066688	18	4198
2026-01-22 10:15:11.93	347.58	37.13	-28.4	-29.6	14.5	0.00e+00	0	44	0	1537212416	18	4120
2026-01-22 10:15:12.93	347.52	36.89	-28.4	-29.5	14.5	0.00e+00	0	44	0	1540358144	18	4115
2026-01-22 10:15:13.93	347.46	36.66	-28.1	-29.4	14.8	0.00e+00	0	44	0	1543503872	17	4195
2026-01-22 10:15:14.93	347.40	36.43	-27.9	-28.9	15.1	0.00e+00	0	44	0	1546649600	17	4057
2026-01-22 10:15:15.94	347.34	36.19	-27.9	-29.0	15.1	0.00e+00	0	44	0	1549795328	17	4061
2026-01-22 10:15:16.95	347.28	35.96	-28.0	-29.2	14.9	0.00e+00	0	44	0	1552941056	17	4127
2026-01-22 10:15:17.95	347.22	35.73	-28.0	-29.2	15.0	0.00e+00	0	45	0	1556086784	17	4120
2026-01-22 10:15:18.96	347.16	35.50	-28.1	-29.4	14.9	7.00e-07	0	45	0	1559232512	17	4172
2026-01-22 10:15:19.97	347.11	35.27	-28.2	-29.7	14.7	0.00e+00	0	45	0	1562378240	17	4264
2026-01-22 10:15:20.97	347.05	35.05	-28.2	-29.7	14.7	0.00e+00	0	45	0	1565523968	17	4270
2026-01-22 10:15:21.97	347.00	34.83	-28.3	-29.8	14.7	0.00e+00	0	45	0	1568669696	17	4280
2026-01-22 10:15:22.97	346.94	34.61	-28.3	-30.0	14.6	7.00e-07	0	44	0	1571815424	17	4336
2026-01-22 10:15:23.97	346.89	34.39	-28.2	-29.6	14.7	0.00e+00	0	44	0	1574961152	17	4231
2026-01-22 10:15:24.98	346.84	34.17	-28.1	-29.3	14.9	0.00e+00	0	44	0	1578106880	17	4167
2026-01-22 10:15:25.98	346.79	33.95	-28.1	-29.4	14.8	0.00e+00	0	45	0	1581252608	17	4194
2026-01-22 10:15:26.99	346.74	33.74	-27.9	-29.0	15.0	7.00e-07	0	45	0	1584398336	17	4088
2026-01-22 10:15:27.99	346.69	33.52	-27.8	-28.8	15.2	0.00e+00	0	45	0	1587544064	17	4013
2026-01-22 10:15:28.98	346.64	33.31	-27.9	-29.0	15.1	0.00e+00	0	45	0	1590689792	17	4066
2026-01-22 10:15:29.99	346.59	33.10	-27.6	-28.9	15.4	0.00e+00	0	44	0	1593835520	16	4141
2026-01-22 10:15:30.99	346.54	32.89	-27.5	-28.7	15.5	0.00e+00	0	44	0	1596981248	16	4091
2026-01-22 10:15:31.99	346.49	32.68	-27.5	-28.5	15.6	0.00e+00	0	44	0	1600126976	16	4041
2026-01-22 10:15:32.99	346.45	32.48	-27.5	-28.5	15.6	0.00e+00	0	44	0	1603272704	16	4047
2026-01-22 10:15:33.99	346.40	32.27	-27.4	-28.4	15.6	0.00e+00	0	44	0	1606418432	16	4021
2026-01-22 10:15:35.00	346.36	32.07	-27.5	-28.6	15.5	0.00e+00	0	45	0	1609564160	16	4082
2026-01-22 10:15:36.00	346.31	31.87	-27.6	-28.8	15.4	0.00e+00	0	45	0	1612709888	16	4136
2026-01-22 10:15:37.01	346.27	31.66	-27.7	-29.1	15.2	0.00e+00	0	44	0	1615855616	16	4208
2026-01-22 10:15:38.01	346.23	31.47	-27.8	-29.2	15.2	0.00e+00	0	45	0	1619001344	16	4239
2026-01-22 10:15:39.01	346.18	31.27	-28.0	-29.7	14.9	7.00e-07	0	44	0	1622147072	16	4369
2026-01-22 10:15:40.02	346.14	31.07	-27.9	-29.6	14.9	0.00e+00	0	45	0	1625292800	16	4346
2026-01-22 10:15:41.02	346.10	30.87	-28.0	-29.8	14.8	0.00e+00	0	44	0	1628438528	16	4407
2026-01-22 10:15:42.02	346.06	30.68	-28.3	-30.3	14.5	0.00e+00	0	45	0	1631584256	16	4571
2026-01-22 10:15:43.03	346.02	30.48	-28.0	-29.8	14.8	7.00e-07	0	44	0	1634729984	16	4402
2026-01-22 10:15:44.03	345.98	30.29	-28.2	-30.2	14.5	7.00e-07	0	45	0	1637875712	16	4527
2026-01-22 10:15:45.03	345.94	30.10	-28.0	-29.7	14.8	0.00e+00	0	44	0	1641021440	16	4382
2026-01-22 10:15:46.04	345.90	29.91	-27.8	-29.4	15.0	0.00e+00	0	45	0	1644167168	16	4295
2026-01-22 10:15:47.03	345.86	29.73	-27.8	-29.4	15.0	0.00e+00	0	45	0	1647312896	16	4285
2026-01-22 10:15:48.03	345.82	29.54	-27.8	-29.3	15.1	0.00e+00	0	45	0	1650458624	16	4262
2026-01-22 10:15:49.03	345.78	29.36	-27.9	-29.6	14.9	0.00e+00	0	45	0	1653604352	16	4348
2026-01-22 10:15:50.04	345.75	29.17	-27.8	-29.3	15.1	0.00e+00	0	45	0	1656750080	16	4263
2026-01-22 10:15:51.05	345.71	28.98	-27.6	-28.9	15.3	0.00e+00	0	45	0	1659895808	16	4160
2026-01-22 10:15:52.06	345.67	28.80	-27.6	-28.8	15.4	0.00e+00	0	45	0	1663041536	16	4127
2026-01-22 10:15:53.06	345.64	28.62	-27.7	-29.0	15.2	0.00e+00	0	45	0	1666187264	16	4192
2026-01-22 10:15:54.06	345.60	28.44	-27.5	-28.7	15.4	0.00e+00	0	45	0	1669332992	16	4103
2026-01-22 10:15:55.07	345.57	28.26	-27.5	-28.7	15.4	0.00e+00	0	44	0	1672478720	16	4099
2026-01-22 10:15:56.06	345.53	28.09	-27.7	-28.9	15.2	0.00e+00	0	44	0	1675624448	16	4162
2026-01-22 10:15:57.07	345.50	27.91	-27.5	-28.5	15.5	0.00e+00	0	44	0	1678770176	16	4045
2026-01-22 10:15:58.07	345.47	27.73	-27.3	-28.2	15.7	0.00e+00	0	45	0	1681915904	16	3969
2026-01-22 10:15:59.07	345.43	27.56	-27.3	-28.1	15.7	7.00e-07	0	45	0	1685061632	16	3937
2026-01-22 10:16:00.06	345.40	27.39	-27.2	-28.4	15.7	0.00e+00	0	45	0	1688207360	15	4126
2026-01-22 10:16:01.07	345.37	27.22	-27.0	-28.0	15.9	0.00e+00	0	44	0	1691353088	15	4026
2026-01-22 10:16:02.07	345.34	27.04	-26.9	-27.7	16.0	0.00e+00	0	45	0	1694498816	15	3969
2026-01-22 10:16:03.08	345.30	26.87	-26.8	-27.6	16.1	0.00e+00	0	45	0	1697644544	15	3932
2026-01-22 10:16:04.09	345.27	26.70	-26.9	-27.8	16.0	0.00e+00	0	44	0	1700790272	15	3972
2026-01-22 10:16:05.09	345.24	26.54	-26.8	-27.5	16.1	0.00e+00	0	44	0	1703936000	15	3902
2026-01-22 10:16:06.10	345.21	26.37	-26.7	-27.8	16.2	0.00e+00	0	44	0	1707081728	14	4087
2026-01-22 10:16:07.10	345.18	26.20	-26.8	-27.9	16.2	0.00e+00	0	44	0	1710227456	14	4119
2026-01-22 10:16:08.11	345.15	26.04	-26.9	-28.2	16.0	0.00e+00	0	44	0	1713373184	14	4183
2026-01-22 10:16:09.11	345.12	25.87	-26.7	-27.9	16.2	0.00e+00	0	44	0	1716518912	14	4113
2026-01-22 10:16:10.12	345.09	25.71	-26.7	-27.7	16.2	0.00e+00	0	44	0	1719664640	14	4066
2026-01-22 10:16:11.12	345.06	25.55	-26.7	-27.9	16.1	0.00e+00	0	44	0	1722810368	14	4110
2026-01-22 10:16:12.13	345.03	25.39	-26.7	-27.7	16.2	0.00e+00	0	44	0	1725956096	14	4064
2026-01-22 10:16:13.13	345.01	25.23	-26.7	-27.8	16.2	0.00e+00	0	45	0	1729101824	14	4082
2026-01-22 10:16:14.12	344.98	25.07	-26.8	-28.0	16.1	0.00e+00	0	45	0	1732247552	14	4135
2026-01-22 10:16:15.12	344.95	24.91	-27.0	-28.4	15.9	0.00e+00	0	44	0	1735393280	14	4245
2026-01-22 10:16:16.12	344.92	24.76	-26.8	-28.0	16.0	0.00e+00	0	45	0	1738539008	14	4152
2026-01-22 10:16:17.13	344.90	24.60	-26.9	-28.3	15.9	0.00e+00	0	44	0	1741684736	14	4223
2026-01-22 10:16:18.13	344.87	24.44	-27.2	-28.9	15.6	0.00e+00	0	44	0	1744830464	14	4382
2026-01-22 10:16:19.14	344.84	24.29	-27.3	-29.2	15.4	0.00e+00	0	44	0	1747976192	14	4484
2026-01-22 10:16:20.14	344.82	24.13	-27.3	-29.2	15.4	0.00e+00	0	45	0	1751121920	14	4459
2026-01-22 10:16:21.14	344.79	23.98	-27.3	-29.2	15.4	0.00e+00	0	44	0	1754267648	14	4460
2026-01-22 10:16:22.14	344.77	23.83	-27.4	-29.4	15.3	0.00e+00	0	44	0	1757413376	14	4530
2026-01-22 10:16:23.14	344.74	23.68	-27.4	-29.3	15.3	0.00e+00	0	44	0	1760559104	14	4504
2026-01-22 10:16:24.15	344.72	23.53	-27.2	-29.0	15.4	0.00e+00	0	44	0	1763704832	14	4431
2026-01-22 10:16:25.15	344.69	23.38	-27.3	-29.3	15.3	0.00e+00	0	44	0	1766850560	14	4499
2026-01-22 10:16:26.15	344.67	23.23	-27.3	-29.1	15.4	0.00e+00	0	44	0	1769996288	14	4460
2026-01-22 10:16:27.16	344.64	23.09	-27.6	-29.3	15.0	0.00e+00	0	44	0	1772093440	15	4379
2026-01-22 10:16:28.16	344.62	22.94	-27.3	-28.6	15.4	0.00e+00	0	44	0	1775239168	15	4200
2026-01-22 10:16:29.16	344.60	22.79	-27.0	-27.9	15.8	0.00e+00	0	44	0	1778384896	15	4012
2026-01-22 10:16:30.17	344.57	22.65	-26.8	-27.5	16.0	0.00e+00	0	44	0	1781530624	15	3916
2026-01-22 10:16:31.17	344.55	22.50	-26.6	-27.6	16.2	0.00e+00	0	44	0	1784676352	14	4039
2026-01-22 10:16:32.18	344.53	22.36	-26.7	-27.7	16.1	0.00e+00	0	44	0	1788870656	14	4077
2026-01-22 10:16:33.18	344.51	22.22	-26.7	-27.9	16.0	0.00e+00	0	45	0	1792016384	14	4116
2026-01-22 10:16:34.18	344.48	22.08	-26.7	-27.9	16.0	0.00e+00	0	44	0	1795162112	14	4125
2026-01-22 10:16:35.18	344.46	21.94	-26.8	-28.0	16.0	0.00e+00	0	45	0	1797259264	14	4136
2026-01-22 10:16:36.19	344.44	21.80	-26.9	-28.3	15.8	0.00e+00	0	44	0	1800404992	14	4233
2026-01-22 10:16:37.19	344.42	21.66	-26.8	-28.0	16.0	0.00e+00	0	44	0	1803550720	14	4149
2026-01-22 10:16:38.19	344.40	21.52	-26.7	-27.8	16.1	0.00e+00	0	44	0	1806696448	14	4084
2026-01-22 10:16:39.19	344.38	21.38	-26.8	-28.0	16.0	0.00e+00	0	44	0	1809842176	14	4135
2026-01-22 10:16:40.19	344.36	21.24	-26.7	-27.8	16.0	0.00e+00	0	44	0	1812987904	14	4098
2026-01-22 10:16:41.20	344.33	21.11	-26.8	-28.0	15.9	7.00e-07	0	44	0	1816133632	14	4149
2026-01-22 10:16:42.21	344.31	20.97	-26.7	-27.9	16.0	0.00e+00	0	44	0	1819279360	14	4125
2026-01-22 10:16:43.22	344.29	20.83	-26.8	-28.1	15.9	0.00e+00	0	44	0	1822425088	14	4160
2026-01-22 10:16:44.23	344.27	20.70	-26.7	-27.9	16.0	0.00e+00	0	44	0	1825570816	14	4124
2026-01-22 10:16:45.23	344.25	20.57	-26.8	-28.2	15.8	0.00e+00	0	44	0	1828716544	14	4189
2026-01-22 10:16:46.23	344.23	20.43	-26.8	-28.0	15.9	0.00e+00	0	44	0	1831862272	14	4157
2026-01-22 10:16:47.24	344.21	20.30	-26.8	-28.1	15.9	0.00e+00	0	44	0	1835008000	14	4185
2026-01-22 10:16:48.23	344.20	20.17	-26.8	-28.2	15.8	0.00e+00	0	44	0	1838153728	14	4200
2026-01-22 10:16:49.24	344.18	20.04	-26.9	-28.3	15.8	0.00e+00	0	44	0	1841299456	14	4219
2026-01-22 10:16:50.25	344.16	19.91	-26.9	-28.3	15.7	0.00e+00	0	44	0	1844445184	14	4224
2026-01-22 10:16:51.25	344.14	19.78	-27.0	-28.4	15.6	0.00e+00	0	44	0	1847590912	14	4262
2026-01-22 10:16:52.25	344.12	19.65	-27.1	-28.7	15.5	0.00e+00	0	45	0	1850736640	14	4351
2026-01-22 10:16:53.25	344.10	19.52	-27.0	-28.6	15.6	7.00e-07	0	44	0	1853882368	14	4310
2026-01-22 10:16:54.25	344.08	19.40	-27.0	-28.6	15.5	0.00e+00	0	44	0	1857028096	14	4320
2026-01-22 10:16:55.26	344.07	19.27	-27.1	-28.7	15.5	0.00e+00	0	44	0	1860173824	14	4346
2026-01-22 10:16:56.25	344.05	19.14	-27.0	-28.6	15.5	0.00e+00	0	44	0	1863319552	14	4326
2026-01-22 10:16:57.26	344.03	19.02	-27.1	-28.8	15.4	0.00e+00	0	44	0	1866465280	14	4368
2026-01-22 10:16:58.26	344.01	18.89	-27.3	-29.1	15.2	0.00e+00	0	44	0	1869611008	14	4466
2026-01-22 10:16:59.27	344.00	18.77	-27.2	-29.1	15.3	0.00e+00	0	44	0	1872756736	14	4442
2026-01-22 10:17:00.27	343.98	18.64	-27.2	-29.0	15.3	0.00e+00	0	44	0	1875902464	14	4435
2026-01-22 10:17:01.27	343.96	18.52	-27.3	-29.2	15.2	0.00e+00	0	44	0	1879048192	14	4500
2026-01-22 10:17:02.27	343.95	18.40	-27.4	-29.4	15.0	7.00e-07	0	44	0	1882193920	14	4556
2026-01-22 10:17:03.28	343.93	18.28	-27.4	-29.5	15.0	7.00e-07	0	44	0	1885339648	14	4585
2026-01-22 10:17:04.28	343.91	18.16	-27.6	-29.5	14.8	7.00e-07	0	44	0	1888485376	15	4453
2026-01-22 10:17:05.28	343.90	18.04	-27.8	-29.8	14.6	7.00e-07	0	44	0	1891631104	15	4548
2026-01-22 10:17:06.28	343.88	17.92	-27.7	-29.5	14.7	0.00e+00	0	44	0	1894776832	15	4478
2026-01-22 10:17:07.29	343.86	17.80	-27.7	-29.7	14.6	0.00e+00	0	45	0	1897922560	15	4521
2026-01-22 10:17:08.29	343.85	17.68	-27.7	-29.8	14.6	7.00e-07	0	44	0	1901068288	15	4543
2026-01-22 10:17:09.29	343.83	17.56	-27.8	-29.9	14.5	0.00e+00	0	44	0	1904214016	15	4577
2026-01-22 10:17:10.29	343.82	17.44	-27.8	-30.0	14.4	0.00e+00	0	44	0	1907359744	15	4611
2026-01-22 10:17:11.30	343.80	17.33	-27.9	-30.1	14.3	1.50e-06	0	44	0	1910505472	15	4647
2026-01-22 10:17:12.30	343.79	17.21	-28.2	-30.2	14.1	7.00e-07	0	44	0	1913651200	16	4558
2026-01-22 10:17:13.30	343.77	17.09	-28.2	-30.4	14.1	2.20e-06	0	44	0	1916796928	16	4601
2026-01-22 10:17:14.30	343.76	16.98	-28.1	-30.0	14.2	1.50e-06	0	44	0	1919942656	16	4493
2026-01-22 10:17:15.31	343.74	16.86	-28.0	-29.8	14.3	2.20e-06	0	45	0	1923088384	16	4444
2026-01-22 10:17:16.31	343.73	16.75	-27.9	-29.7	14.4	7.00e-07	0	44	0	1926234112	16	4416
2026-01-22 10:17:17.32	343.71	16.63	-28.0	-29.8	14.3	7.00e-07	0	44	0	1929379840	16	4442
2026-01-22 10:17:18.32	343.70	16.52	-28.0	-29.9	14.3	7.00e-07	0	44	0	1932525568	16	4454
2026-01-22 10:17:19.33	343.69	16.41	-28.0	-29.9	14.3	2.20e-06	0	45	0	1935671296	16	4455
2026-01-22 10:17:20.34	343.67	16.29	-28.0	-29.8	14.4	0.00e+00	0	44	0	1938817024	16	4438
2026-01-22 10:17:21.34	343.66	16.18	-28.0	-29.7	14.4	1.50e-06	0	44	0	1941962752	16	4425
2026-01-22 10:17:22.35	343.64	16.07	-28.0	-29.8	14.4	7.00e-07	0	44	0	1945108480	16	4432
2026-01-22 10:17:23.35	343.63	15.96	-28.0	-30.0	14.2	1.50e-06	0	44	0	1948254208	16	4484
2026-01-22 10:17:24.34	343.62	15.85	-28.0	-29.8	14.3	0.00e+00	0	44	0	1951399936	16	4445
2026-01-22 10:17:25.35	343.60	15.74	-28.1	-30.0	14.2	2.20e-06	0	44	0	1954545664	16	4500
2026-01-22 10:17:26.34	343.59	15.63	-28.1	-30.1	14.1	1.50e-06	0	44	0	1957691392	16	4535
2026-01-22 10:17:27.34	343.58	15.52	-28.0	-29.9	14.2	3.00e-06	0	44	0	1960837120	16	4469
2026-01-22 10:17:28.35	343.57	15.42	-28.0	-29.8	14.3	7.00e-07	0	44	0	1963982848	16	4434
2026-01-22 10:17:29.35	343.55	15.31	-28.0	-29.9	14.2	0.00e+00	0	44	0	1967128576	16	4470
2026-01-22 10:17:30.36	343.54	15.20	-28.0	-29.9	14.2	1.50e-06	0	44	0	1970274304	16	4460
2026-01-22 10:17:31.37	343.53	15.09	-28.0	-30.0	14.1	7.00e-07	0	44	0	1973420032	16	4484
2026-01-22 10:17:32.37	343.51	14.99	-28.0	-29.9	14.1	7.00e-07	0	44	0	1976565760	16	4481
2026-01-22 10:17:33.38	343.50	14.88	-28.1	-30.2	13.9	5.30e-06	0	44	0	1979711488	16	4553
2026-01-22 10:17:34.38	343.49	14.77	-28.0	-29.9	14.0	4.50e-06	0	44	0	1982857216	16	4474
2026-01-22 10:17:35.38	343.48	14.67	-28.0	-29.8	14.1	2.20e-06	0	44	0	1986002944	16	4433
2026-01-22 10:17:36.39	343.47	14.56	-27.9	-29.6	14.1	1.50e-06	0	44	0	1989148672	16	4399
2026-01-22 10:17:37.39	343.45	14.46	-28.0	-29.8	14.1	2.20e-06	0	44	0	1992294400	16	4439
2026-01-22 10:17:38.39	343.44	14.36	-28.0	-29.8	14.1	2.20e-06	0	44	0	1995440128	16	4451
2026-01-22 10:17:39.39	343.43	14.25	-27.9	-29.7	14.2	1.50e-06	0	44	0	1998585856	16	4423
2026-01-22 10:17:40.40	343.42	14.15	-28.0	-29.9	14.2	1.50e-06	0	44	0	2001731584	16	4479
2026-01-22 10:17:41.40	343.41	14.05	-28.0	-29.9	14.2	7.00e-07	0	44	0	2004877312	16	4459
2026-01-22 10:17:42.41	343.40	13.95	-28.0	-29.8	14.3	7.00e-07	0	44	0	2008023040	16	4446
2026-01-22 10:17:43.42	343.38	13.84	-28.0	-29.9	14.1	0.00e+00	0	44	0	2011168768	16	4482
2026-01-22 10:17:44.42	343.37	13.74	-28.1	-30.1	13.9	4.50e-06	0	44	0	2014314496	16	4525
2026-01-22 10:17:45.42	343.36	13.64	-28.0	-30.0	14.0	1.50e-06	0	44	0	2017460224	16	4499
2026-01-22 10:17:46.42	343.35	13.54	-28.1	-30.0	14.0	1.50e-06	0	44	0	2020605952	16	4512
2026-01-22 10:17:47.43	343.34	13.44	-28.0	-29.9	14.1	4.50e-06	0	44	0	2023751680	16	4479
2026-01-22 10:17:48.43	343.33	13.34	-28.1	-30.1	14.1	7.00e-07	0	44	0	2026897408	16	4521
2026-01-22 10:17:49.44	343.32	13.24	-28.1	-30.1	13.9	0.00e+00	0	44	0	2030043136	16	4541
2026-01-22 10:17:50.44	343.31	13.14	-28.0	-29.9	13.8	1.50e-06	0	44	0	2033188864	16	4491
2026-01-22 10:17:51.44	343.30	13.05	-28.2	-30.3	13.4	1.29e-05	0	44	0	2036334592	16	4585
2026-01-22 10:17:52.44	343.29	12.95	-28.2	-30.4	13.0	1.90e-05	0	44	0	2039480320	16	4633
2026-01-22 10:17:53.44	343.28	12.85	-28.1	-30.2	13.0	2.28e-05	0	44	0	2042626048	16	4584
2026-01-22 10:17:54.44	343.27	12.75	-28.3	-30.5	12.9	2.89e-05	0	44	0	2045771776	16	4667
2026-01-22 10:17:55.44	343.26	12.66	-28.3	-30.6	13.1	2.51e-05	0	44	0	2048917504	16	4690
2026-01-22 10:17:56.44	343.25	12.56	-28.2	-30.4	13.3	1.60e-05	0	44	0	2052063232	16	4618
2026-01-22 10:17:57.44	343.24	12.47	-28.2	-30.4	13.4	4.50e-06	0	44	0	2055208960	16	4627
2026-01-22 10:17:58.44	343.23	12.37	-28.2	-30.5	13.3	2.36e-05	0	44	0	2058354688	16	4665
2026-01-22 10:17:59.44	343.22	12.28	-28.4	-30.8	13.1	2.59e-05	0	44	0	2061500416	16	4767
2026-01-22 10:18:00.44	343.21	12.18	-28.4	-31.0	13.1	3.20e-05	0	44	0	2064646144	16	4825
2026-01-22 10:18:01.45	343.20	12.09	-28.4	-31.0	13.2	2.67e-05	0	44	0	2067791872	16	4819
2026-01-22 10:18:02.45	343.19	11.99	-28.5	-30.6	13.2	2.89e-05	0	44	0	2070937600	17	4584
2026-01-22 10:18:03.46	343.18	11.90	-28.4	-30.4	13.3	2.44e-05	0	44	0	2073034752	17	4536
2026-01-22 10:18:04.46	343.17	11.80	-28.4	-30.4	13.3	1.90e-05	0	44	0	2076180480	17	4520
2026-01-22 10:18:05.48	343.16	11.71	-28.5	-30.5	13.2	2.44e-05	0	44	0	2080374784	17	4559
2026-01-22 10:18:06.48	343.15	11.62	-28.6	-30.8	12.9	4.50e-05	0	44	0	2083520512	17	4656
2026-01-22 10:18:07.48	343.14	11.53	-28.6	-30.8	12.8	9.99e-05	0	44	0	2086666240	17	4662
2026-01-22 10:18:08.49	343.14	11.43	-28.4	-30.3	13.0	3.35e-05	0	44	0	2089811968	17	4515
2026-01-22 10:18:09.49	343.13	11.34	-28.3	-30.1	12.9	3.12e-05	0	44	0	2092957696	17	4447
2026-01-22 10:18:10.49	343.12	11.25	-28.2	-30.0	12.8	4.04e-05	0	44	0	2095054848	17	4428
2026-01-22 10:18:11.50	343.11	11.16	-28.3	-30.2	12.5	8.08e-05	0	44	0	2098200576	17	4467
2026-01-22 10:18:12.51	343.10	11.07	-28.3	-30.2	12.3	1.44e-04	0	44	0	2101346304	17	4482
2026-01-22 10:18:13.51	343.09	10.98	-28.3	-30.3	12.3	9.00e-05	0	44	0	2104492032	17	4500
2026-01-22 10:18:14.51	343.08	10.89	-28.4	-30.4	12.4	1.15e-04	0	44	0	2107637760	17	4521
2026-01-22 10:18:15.51	343.08	10.80	-28.4	-30.4	12.6	8.16e-05	0	44	0	2110783488	17	4533
2026-01-22 10:18:16.51	343.07	10.71	-28.4	-30.5	12.8	7.32e-05	0	44	0	2113929216	17	4563
2026-01-22 10:18:17.52	343.06	10.62	-28.5	-30.6	12.9	4.34e-05	0	44	0	2117074944	17	4603
2026-01-22 10:18:18.52	343.05	10.53	-28.5	-30.7	13.0	4.65e-05	0	44	0	2120220672	17	4631
2026-01-22 10:18:19.53	343.04	10.44	-28.5	-30.7	13.0	4.27e-05	0	44	0	2123366400	17	4641
2026-01-22 10:18:20.54	343.03	10.35	-28.6	-30.9	12.9	4.27e-05	0	44	0	2126512128	17	4697
