passes_logs/2026/01/22/R2M6_AANII_01/R2M6_AANII_01__20260122_145819_FENGYUN_3E_rec.log

#Pass ID: 20260122_145819_FENGYUN 3E
#Satellite: FENGYUN 3E
#Configuration: FENGYUN 3E
#almurnet v.1.7.20240730
#Start time: 2026-01-22 14:58:18

#Version: 2.2.20231116
#Station: R2M6_AANII_01
#Location: 30.233357 lon 59.946436 lat
#TLE: 1 49008U 21062A   26021.55921410  .00000414  00000+0  21575-3 0  9991
#TLE: 2 49008  98.7483  26.6103 0002287 125.5068 234.6322 14.19887394235776

#Time	Az	El	Level	Level2	SNR	BER	BlckErr	Temp	State	Recorded	gain1	gain2
2026-01-22 14:58:18.18	171.68	6.93	-26.4	-28.4	5.7	7.60e-01	0	41	0	0	12	4533
2026-01-22 14:58:19.17	171.70	7.01	-27.6	-30.2	5.5	7.67e-01	0	41	104	0	14	4845
2026-01-22 14:58:20.18	171.73	7.08	-28.0	-30.6	10.4	3.02e-03	0	41	0	0	15	4870
2026-01-22 14:58:21.18	171.76	7.16	-28.1	-30.2	10.6	4.65e-03	0	41	0	7340032	16	4620
2026-01-22 14:58:22.18	171.78	7.24	-27.6	-29.1	11.3	1.48e-03	0	42	0	13631488	16	4280
2026-01-22 14:58:23.18	171.81	7.32	-28.0	-30.0	10.7	2.90e-03	0	42	0	20971520	16	4561
2026-01-22 14:58:24.18	171.83	7.39	-27.5	-28.8	11.5	1.07e-03	0	41	0	28311552	16	4176
2026-01-22 14:58:25.18	171.86	7.47	-26.7	-28.1	12.3	2.14e-04	0	42	0	35651584	14	4205
2026-01-22 14:58:26.19	171.89	7.55	-26.5	-27.5	12.7	7.09e-05	0	42	0	42991616	14	4035
2026-01-22 14:58:27.20	171.91	7.63	-26.1	-27.1	13.2	1.83e-05	0	42	0	50331648	13	4057
2026-01-22 14:58:28.21	171.94	7.71	-25.8	-27.0	13.6	3.40e-06	0	42	0	57671680	12	4116
2026-01-22 14:58:29.21	171.96	7.79	-26.0	-27.4	13.3	8.00e-06	0	42	0	65011712	12	4228
2026-01-22 14:58:30.22	171.99	7.87	-26.1	-27.5	13.3	2.40e-05	0	42	0	72351744	12	4264
2026-01-22 14:58:31.22	172.02	7.95	-25.9	-27.2	13.5	4.50e-06	0	42	0	79691776	12	4163
2026-01-22 14:58:32.23	172.05	8.03	-25.9	-27.1	13.6	1.14e-05	0	42	0	87031808	12	4135
2026-01-22 14:58:33.23	172.07	8.11	-25.9	-27.2	13.5	2.05e-05	0	42	0	94371840	12	4189
2026-01-22 14:58:34.24	172.10	8.19	-25.9	-27.1	13.5	6.80e-06	0	42	0	101711872	12	4141
2026-01-22 14:58:35.25	172.13	8.27	-25.8	-27.0	13.6	6.80e-06	0	42	0	108003328	12	4122
2026-01-22 14:58:36.25	172.15	8.35	-25.7	-26.8	13.7	6.80e-06	0	42	0	115343360	12	4071
2026-01-22 14:58:37.26	172.18	8.43	-26.0	-27.3	13.5	1.48e-05	0	42	0	122683392	12	4201
2026-01-22 14:58:38.26	172.21	8.51	-25.6	-26.4	14.0	1.10e-06	0	42	0	130023424	12	3947
2026-01-22 14:58:39.26	172.24	8.59	-25.5	-26.2	14.1	2.20e-06	0	42	0	137363456	12	3921
2026-01-22 14:58:40.26	172.27	8.68	-25.4	-26.5	14.3	0.00e+00	0	42	0	144703488	11	4077
2026-01-22 14:58:41.27	172.29	8.76	-25.4	-26.6	14.3	0.00e+00	0	42	0	152043520	11	4125
2026-01-22 14:58:42.27	172.32	8.84	-25.4	-26.6	14.3	0.00e+00	0	42	0	159383552	11	4102
2026-01-22 14:58:43.28	172.35	8.92	-25.4	-26.5	14.3	1.10e-06	0	42	0	166723584	11	4090
2026-01-22 14:58:44.28	172.38	9.01	-25.5	-26.6	14.3	1.10e-06	0	42	0	174063616	11	4114
2026-01-22 14:58:45.28	172.41	9.09	-25.5	-26.6	14.3	0.00e+00	0	42	0	181403648	11	4114
2026-01-22 14:58:46.29	172.44	9.17	-25.3	-26.2	14.5	0.00e+00	0	42	0	188743680	11	4013
2026-01-22 14:58:47.30	172.47	9.26	-25.5	-26.6	14.3	0.00e+00	0	42	0	195035136	11	4122
2026-01-22 14:58:48.30	172.50	9.34	-25.4	-26.5	14.4	4.50e-06	0	42	0	202375168	11	4079
2026-01-22 14:58:49.31	172.53	9.43	-25.4	-26.5	14.3	0.00e+00	0	42	0	209715200	11	4086
2026-01-22 14:58:50.31	172.56	9.51	-25.5	-26.6	14.3	1.10e-06	0	42	0	217055232	11	4098
2026-01-22 14:58:51.32	172.59	9.60	-25.4	-26.4	14.4	1.10e-06	0	42	0	224395264	11	4055
2026-01-22 14:58:52.31	172.61	9.68	-25.2	-26.0	14.7	0.00e+00	0	42	0	231735296	11	3937
2026-01-22 14:58:53.32	172.64	9.77	-25.4	-26.4	14.5	1.10e-06	0	42	0	239075328	11	4058
2026-01-22 14:58:54.32	172.68	9.85	-25.4	-26.3	14.5	0.00e+00	0	42	0	246415360	11	4027
2026-01-22 14:58:55.32	172.71	9.94	-25.4	-26.4	14.5	0.00e+00	0	43	0	252706816	11	4058
2026-01-22 14:58:56.31	172.74	10.02	-25.4	-26.4	14.5	0.00e+00	0	42	0	260046848	11	4037
2026-01-22 14:58:57.32	172.77	10.11	-25.4	-26.4	14.5	0.00e+00	0	43	0	267386880	11	4052
2026-01-22 14:58:58.33	172.80	10.20	-25.4	-26.4	14.5	1.10e-06	0	43	0	274726912	11	4056
2026-01-22 14:58:59.33	172.83	10.28	-25.3	-26.3	14.6	0.00e+00	0	43	0	282066944	11	4027
2026-01-22 14:59:00.33	172.86	10.37	-25.3	-26.3	14.6	0.00e+00	0	43	0	289406976	11	4008
2026-01-22 14:59:01.34	172.89	10.46	-25.4	-26.3	14.5	0.00e+00	0	43	0	296747008	11	4033
2026-01-22 14:59:02.35	172.92	10.55	-25.3	-26.2	14.6	0.00e+00	0	43	0	304087040	11	3996
2026-01-22 14:59:03.35	172.95	10.64	-25.3	-26.3	14.6	0.00e+00	0	43	0	311427072	11	4017
2026-01-22 14:59:04.35	172.99	10.73	-25.3	-26.2	14.7	0.00e+00	0	43	0	318767104	11	3988
2026-01-22 14:59:05.36	173.02	10.82	-25.2	-26.0	14.7	0.00e+00	0	43	0	326107136	11	3945
2026-01-22 14:59:06.36	173.05	10.90	-25.3	-26.2	14.7	0.00e+00	0	43	0	333447168	11	3986
2026-01-22 14:59:07.36	173.08	10.99	-25.2	-26.0	14.7	0.00e+00	0	43	0	339738624	11	3947
2026-01-22 14:59:08.36	173.11	11.08	-25.2	-26.0	14.8	0.00e+00	0	43	0	347078656	11	3934
2026-01-22 14:59:09.37	173.15	11.17	-25.3	-26.3	14.6	0.00e+00	0	43	0	354418688	11	4006
2026-01-22 14:59:10.37	173.18	11.26	-25.3	-26.3	14.7	0.00e+00	0	43	0	361758720	11	4009
2026-01-22 14:59:11.38	173.21	11.36	-25.3	-26.1	14.7	0.00e+00	0	43	0	369098752	11	3981
2026-01-22 14:59:12.37	173.25	11.45	-25.2	-26.0	14.8	0.00e+00	0	43	0	376438784	11	3938
2026-01-22 14:59:13.38	173.28	11.54	-25.1	-25.8	15.0	0.00e+00	0	43	0	383778816	11	3878
2026-01-22 14:59:14.39	173.31	11.63	-25.2	-25.9	14.8	0.00e+00	0	43	0	391118848	11	3921
2026-01-22 14:59:15.40	173.35	11.72	-25.1	-25.8	14.9	0.00e+00	0	43	0	398458880	11	3895
2026-01-22 14:59:16.40	173.38	11.82	-25.1	-25.8	15.0	0.00e+00	0	43	0	405798912	11	3881
2026-01-22 14:59:17.41	173.42	11.91	-25.1	-25.8	14.9	0.00e+00	0	43	0	413138944	11	3902
2026-01-22 14:59:18.41	173.45	12.00	-25.3	-26.2	14.7	1.10e-06	0	43	0	420478976	11	3990
2026-01-22 14:59:19.41	173.49	12.10	-25.0	-25.6	15.0	0.00e+00	0	43	0	426770432	11	3839
2026-01-22 14:59:20.42	173.52	12.19	-25.1	-25.8	14.9	1.10e-06	0	43	0	434110464	11	3902
2026-01-22 14:59:21.42	173.56	12.29	-25.0	-25.6	15.0	0.00e+00	0	43	0	441450496	11	3860
2026-01-22 14:59:22.42	173.59	12.38	-24.9	-25.4	15.1	0.00e+00	0	43	0	448790528	11	3803
2026-01-22 14:59:23.42	173.63	12.48	-24.9	-25.8	15.2	0.00e+00	0	43	0	456130560	10	3991
2026-01-22 14:59:24.43	173.66	12.57	-24.8	-25.5	15.4	0.00e+00	0	43	0	463470592	10	3932
2026-01-22 14:59:25.44	173.70	12.67	-24.8	-25.6	15.3	0.00e+00	0	43	0	470810624	10	3946
2026-01-22 14:59:26.44	173.73	12.76	-24.9	-25.7	15.2	0.00e+00	0	43	0	478150656	10	3981
2026-01-22 14:59:27.44	173.77	12.86	-24.8	-25.7	15.3	0.00e+00	0	43	0	485490688	10	3963
2026-01-22 14:59:28.44	173.81	12.96	-24.8	-25.7	15.2	0.00e+00	0	43	0	492830720	10	3973
2026-01-22 14:59:29.45	173.84	13.06	-24.8	-25.5	15.3	0.00e+00	0	43	0	500170752	10	3931
2026-01-22 14:59:30.46	173.88	13.15	-24.9	-25.8	15.2	0.00e+00	0	43	0	506462208	10	3996
2026-01-22 14:59:31.46	173.92	13.25	-24.9	-25.7	15.2	0.00e+00	0	43	0	513802240	10	3982
2026-01-22 14:59:32.46	173.95	13.35	-25.0	-25.9	15.2	0.00e+00	0	43	0	521142272	10	4028
2026-01-22 14:59:33.47	173.99	13.45	-24.9	-25.8	15.3	0.00e+00	0	43	0	528482304	10	3992
2026-01-22 14:59:34.47	174.03	13.55	-24.8	-25.5	15.4	0.00e+00	0	43	0	535822336	10	3928
2026-01-22 14:59:35.47	174.07	13.65	-24.9	-25.7	15.2	0.00e+00	0	43	0	543162368	10	3974
2026-01-22 14:59:36.48	174.11	13.75	-24.9	-25.7	15.3	0.00e+00	0	43	0	550502400	10	3983
2026-01-22 14:59:37.49	174.15	13.85	-24.7	-25.5	15.4	0.00e+00	0	43	0	557842432	10	3923
2026-01-22 14:59:38.49	174.18	13.95	-24.8	-25.5	15.4	3.40e-06	0	43	0	565182464	10	3935
2026-01-22 14:59:39.49	174.22	14.05	-24.7	-25.5	15.4	0.00e+00	0	43	0	572522496	10	3914
2026-01-22 14:59:40.50	174.26	14.16	-24.6	-25.1	15.6	0.00e+00	0	43	0	579862528	10	3835
2026-01-22 14:59:41.50	174.30	14.26	-24.4	-24.8	15.8	4.50e-06	0	43	0	587202560	10	3761
2026-01-22 14:59:42.50	174.34	14.36	-24.4	-25.4	15.7	0.00e+00	0	43	0	593494016	9	4001
2026-01-22 14:59:43.50	174.38	14.46	-24.3	-25.0	15.9	0.00e+00	0	43	0	600834048	9	3914
2026-01-22 14:59:44.51	174.42	14.57	-24.2	-24.8	16.1	0.00e+00	0	43	0	608174080	9	3854
2026-01-22 14:59:45.51	174.46	14.67	-24.2	-24.9	15.9	0.00e+00	0	43	0	615514112	9	3898
2026-01-22 14:59:46.51	174.50	14.77	-24.2	-24.8	16.0	0.00e+00	0	43	0	622854144	9	3857
2026-01-22 14:59:47.52	174.54	14.88	-24.1	-24.7	16.1	2.20e-06	0	43	0	630194176	9	3831
2026-01-22 14:59:48.52	174.59	14.99	-24.1	-24.6	16.1	0.00e+00	0	43	0	637534208	9	3807
2026-01-22 14:59:49.53	174.63	15.09	-24.1	-24.6	16.1	0.00e+00	0	43	0	644874240	9	3826
2026-01-22 14:59:50.53	174.67	15.20	-24.0	-24.3	16.3	0.00e+00	0	43	0	652214272	9	3761
2026-01-22 14:59:51.53	174.71	15.30	-24.0	-24.4	16.2	0.00e+00	0	43	0	659554304	9	3784
2026-01-22 14:59:52.53	174.75	15.41	-24.0	-24.3	16.2	0.00e+00	0	43	0	666894336	9	3756
2026-01-22 14:59:53.54	174.80	15.52	-24.0	-24.5	16.1	0.00e+00	0	43	0	674234368	9	3806
2026-01-22 14:59:54.55	174.84	15.63	-24.0	-24.4	16.2	0.00e+00	0	43	0	680525824	9	3788
2026-01-22 14:59:55.55	174.88	15.74	-23.8	-24.6	16.4	0.00e+00	0	43	0	687865856	8	3933
2026-01-22 14:59:56.55	174.93	15.84	-23.8	-24.6	16.4	0.00e+00	0	43	0	695205888	8	3929
2026-01-22 14:59:57.55	174.97	15.95	-23.9	-24.8	16.3	0.00e+00	0	43	0	702545920	8	3978
2026-01-22 14:59:58.55	175.01	16.06	-24.1	-25.2	16.1	0.00e+00	0	43	0	709885952	8	4082
2026-01-22 14:59:59.55	175.06	16.17	-24.1	-25.3	16.0	0.00e+00	0	43	0	717225984	8	4106
2026-01-22 15:00:00.56	175.10	16.29	-23.8	-24.5	16.4	0.00e+00	0	44	0	724566016	8	3914
2026-01-22 15:00:01.56	175.15	16.40	-23.8	-24.5	16.4	0.00e+00	0	43	0	731906048	8	3918
2026-01-22 15:00:02.56	175.19	16.51	-23.7	-24.4	16.5	0.00e+00	0	43	0	738197504	8	3892
2026-01-22 15:00:03.56	175.24	16.62	-23.7	-24.4	16.4	0.00e+00	0	43	0	745537536	8	3906
2026-01-22 15:00:04.57	175.29	16.73	-23.6	-24.1	16.6	0.00e+00	0	43	0	752877568	8	3819
2026-01-22 15:00:05.57	175.33	16.85	-23.6	-24.1	16.6	0.00e+00	0	43	0	760217600	8	3829
2026-01-22 15:00:06.57	175.38	16.96	-23.6	-24.2	16.5	0.00e+00	0	44	0	767557632	8	3856
2026-01-22 15:00:07.58	175.43	17.08	-23.5	-23.9	16.7	0.00e+00	0	44	0	774897664	8	3784
2026-01-22 15:00:08.59	175.47	17.19	-23.4	-23.7	16.8	0.00e+00	0	43	0	782237696	8	3747
2026-01-22 15:00:09.59	175.52	17.31	-23.4	-24.3	16.7	0.00e+00	0	43	0	789577728	7	3998
2026-01-22 15:00:10.59	175.57	17.42	-23.4	-24.2	16.8	0.00e+00	0	44	0	796917760	7	3972
2026-01-22 15:00:11.60	175.62	17.54	-23.5	-24.4	16.7	0.00e+00	0	44	0	804257792	7	4004
2026-01-22 15:00:12.60	175.67	17.66	-23.5	-24.4	16.7	0.00e+00	0	44	0	811597824	7	4017
2026-01-22 15:00:13.60	175.72	17.77	-23.3	-24.0	16.8	0.00e+00	0	44	0	818937856	7	3922
2026-01-22 15:00:14.61	175.77	17.89	-23.3	-24.0	16.9	0.00e+00	0	44	0	825229312	7	3906
2026-01-22 15:00:15.62	175.82	18.01	-23.2	-23.9	17.0	0.00e+00	0	43	0	832569344	7	3890
2026-01-22 15:00:16.62	175.87	18.13	-23.4	-24.2	16.8	0.00e+00	0	44	0	839909376	7	3957
2026-01-22 15:00:17.63	175.92	18.25	-23.3	-23.9	16.9	0.00e+00	0	44	0	847249408	7	3891
2026-01-22 15:00:18.63	175.97	18.37	-23.2	-23.8	17.0	0.00e+00	0	44	0	854589440	7	3874
2026-01-22 15:00:19.62	176.02	18.49	-23.2	-23.9	16.9	0.00e+00	0	43	0	861929472	7	3898
2026-01-22 15:00:20.63	176.07	18.61	-23.3	-24.0	16.9	0.00e+00	0	44	0	869269504	7	3905
2026-01-22 15:00:21.63	176.12	18.74	-23.4	-24.2	16.8	0.00e+00	0	44	0	876609536	7	3971
2026-01-22 15:00:22.63	176.17	18.86	-23.2	-23.9	17.0	0.00e+00	0	44	0	883949568	7	3878
2026-01-22 15:00:23.64	176.23	18.98	-23.0	-23.5	17.2	0.00e+00	0	44	0	891289600	7	3788
2026-01-22 15:00:24.64	176.28	19.11	-23.0	-23.3	17.3	0.00e+00	0	43	0	898629632	7	3748
2026-01-22 15:00:25.64	176.33	19.23	-23.3	-24.0	16.9	0.00e+00	0	44	0	904921088	7	3920
2026-01-22 15:00:26.64	176.39	19.35	-23.4	-24.3	16.8	0.00e+00	0	44	0	912261120	7	3988
2026-01-22 15:00:27.65	176.44	19.48	-23.3	-24.0	16.9	0.00e+00	0	44	0	919601152	7	3908
2026-01-22 15:00:28.65	176.50	19.61	-23.2	-23.8	17.0	0.00e+00	0	44	0	926941184	7	3862
2026-01-22 15:00:29.65	176.55	19.73	-22.9	-23.3	17.3	0.00e+00	0	44	0	934281216	7	3735
2026-01-22 15:00:30.65	176.61	19.86	-23.0	-23.3	17.3	0.00e+00	0	44	0	941621248	7	3750
2026-01-22 15:00:31.65	176.66	19.99	-23.2	-23.8	17.0	0.00e+00	0	44	0	948961280	7	3864
2026-01-22 15:00:32.65	176.72	20.12	-23.1	-23.6	17.2	0.00e+00	0	44	0	956301312	7	3806
2026-01-22 15:00:33.65	176.78	20.25	-22.9	-23.3	17.3	0.00e+00	0	43	0	963641344	7	3740
2026-01-22 15:00:34.66	176.84	20.38	-22.8	-23.6	17.4	0.00e+00	0	44	0	969932800	6	3912
2026-01-22 15:00:35.66	176.89	20.51	-22.8	-23.6	17.4	0.00e+00	0	44	0	977272832	6	3919
2026-01-22 15:00:36.66	176.95	20.64	-22.9	-23.8	17.3	0.00e+00	0	44	0	984612864	6	3967
2026-01-22 15:00:37.65	177.01	20.77	-23.0	-23.8	17.2	0.00e+00	0	44	0	991952896	6	3983
2026-01-22 15:00:38.66	177.07	20.90	-22.9	-23.8	17.3	0.00e+00	0	44	0	999292928	6	3965
2026-01-22 15:00:39.65	177.13	21.03	-22.9	-23.7	17.3	0.00e+00	0	44	0	1006632960	6	3953
2026-01-22 15:00:40.66	177.19	21.17	-22.8	-23.5	17.4	0.00e+00	0	44	0	1013972992	6	3888
2026-01-22 15:00:41.67	177.25	21.31	-22.9	-23.7	17.3	0.00e+00	0	44	0	1021313024	6	3941
2026-01-22 15:00:42.67	177.31	21.44	-22.8	-23.5	17.4	0.00e+00	0	44	0	1028653056	6	3893
2026-01-22 15:00:43.68	177.38	21.58	-22.9	-23.8	17.3	4.50e-06	0	44	0	1035993088	6	3964
2026-01-22 15:00:44.68	177.44	21.71	-23.0	-23.9	17.3	0.00e+00	0	44	0	1043333120	6	3995
2026-01-22 15:00:45.68	177.50	21.85	-23.1	-24.2	17.0	0.00e+00	0	44	0	1050673152	6	4083
2026-01-22 15:00:46.68	177.56	21.99	-23.0	-24.0	17.2	0.00e+00	0	43	0	1056964608	6	4023
2026-01-22 15:00:47.68	177.63	22.13	-23.1	-24.1	17.1	0.00e+00	0	44	0	1064304640	6	4068
2026-01-22 15:00:48.68	177.69	22.27	-23.0	-23.9	17.2	0.00e+00	0	44	0	1071644672	6	4009
2026-01-22 15:00:49.68	177.76	22.41	-22.9	-23.8	17.3	0.00e+00	0	44	0	1078984704	6	3993
2026-01-22 15:00:50.68	177.82	22.55	-22.9	-23.8	17.3	0.00e+00	0	44	0	1086324736	6	3995
2026-01-22 15:00:51.68	177.89	22.69	-23.0	-23.9	17.2	0.00e+00	0	44	0	1093664768	6	4023
2026-01-22 15:00:52.69	177.96	22.83	-22.9	-23.8	17.3	0.00e+00	0	44	0	1101004800	6	3987
2026-01-22 15:00:53.70	178.02	22.98	-22.8	-23.6	17.4	0.00e+00	0	44	0	1108344832	6	3923
2026-01-22 15:00:54.70	178.09	23.12	-23.0	-24.0	17.2	0.00e+00	0	44	0	1114636288	6	4034
2026-01-22 15:00:55.71	178.16	23.27	-22.9	-23.7	17.4	1.10e-06	0	44	0	1121976320	6	3946
2026-01-22 15:00:56.72	178.23	23.42	-22.7	-23.4	17.5	0.00e+00	0	44	0	1129316352	6	3874
2026-01-22 15:00:57.72	178.30	23.56	-22.7	-23.3	17.6	0.00e+00	0	44	0	1136656384	6	3846
2026-01-22 15:00:58.73	178.37	23.71	-22.8	-23.4	17.6	0.00e+00	0	44	0	1143996416	6	3879
2026-01-22 15:00:59.73	178.44	23.86	-22.7	-23.3	17.7	0.00e+00	0	44	0	1151336448	6	3847
2026-01-22 15:01:00.73	178.51	24.01	-22.7	-23.2	17.7	0.00e+00	0	44	0	1158676480	6	3834
2026-01-22 15:01:01.73	178.59	24.16	-22.7	-23.2	17.7	0.00e+00	0	44	0	1166016512	6	3826
2026-01-22 15:01:02.73	178.66	24.31	-22.6	-23.1	17.7	0.00e+00	0	44	0	1173356544	6	3805
2026-01-22 15:01:03.74	178.73	24.46	-23.0	-23.8	17.4	0.00e+00	0	44	0	1180696576	6	3967
2026-01-22 15:01:04.74	178.81	24.61	-22.7	-23.3	17.7	0.00e+00	0	44	0	1188036608	6	3837
2026-01-22 15:01:05.74	178.88	24.76	-22.6	-23.0	17.8	0.00e+00	0	44	0	1195376640	6	3778
2026-01-22 15:01:06.74	178.96	24.92	-22.6	-23.1	17.8	0.00e+00	0	44	0	1201668096	6	3798
2026-01-22 15:01:07.75	179.03	25.07	-22.7	-23.2	17.7	0.00e+00	0	44	0	1209008128	6	3824
2026-01-22 15:01:08.75	179.11	25.23	-22.5	-22.8	17.9	0.00e+00	0	44	0	1216348160	6	3722
2026-01-22 15:01:09.76	179.19	25.39	-22.5	-22.9	17.9	0.00e+00	0	44	0	1223688192	6	3742
2026-01-22 15:01:10.76	179.27	25.55	-22.5	-22.8	17.9	0.00e+00	0	44	0	1231028224	6	3737
2026-01-22 15:01:11.76	179.35	25.70	-22.6	-23.0	17.9	0.00e+00	0	44	0	1238368256	6	3767
2026-01-22 15:01:12.77	179.43	25.86	-22.7	-23.1	17.8	0.00e+00	0	44	0	1245708288	6	3801
2026-01-22 15:01:13.77	179.51	26.02	-22.5	-22.9	17.9	0.00e+00	0	44	0	1253048320	6	3748
2026-01-22 15:01:14.77	179.59	26.18	-22.6	-23.0	17.9	0.00e+00	0	44	0	1260388352	6	3769
2026-01-22 15:01:15.77	179.67	26.35	-22.6	-23.0	17.8	0.00e+00	0	44	0	1266679808	6	3769
2026-01-22 15:01:16.77	179.76	26.51	-22.6	-23.0	17.8	0.00e+00	0	44	0	1274019840	6	3780
2026-01-22 15:01:17.78	179.84	26.67	-22.5	-22.8	17.9	0.00e+00	0	44	0	1282408448	6	3734
2026-01-22 15:01:18.78	179.93	26.84	-22.6	-23.0	17.8	0.00e+00	0	44	0	1288699904	6	3781
2026-01-22 15:01:19.79	180.01	27.00	-22.4	-22.7	18.0	0.00e+00	0	44	0	1296039936	6	3711
2026-01-22 15:01:20.80	180.10	27.17	-22.3	-23.0	18.1	0.00e+00	0	44	0	1303379968	5	3884
2026-01-22 15:01:21.80	180.19	27.34	-22.3	-22.9	18.1	0.00e+00	0	44	0	1310720000	5	3860
2026-01-22 15:01:22.81	180.28	27.51	-22.2	-22.7	18.2	0.00e+00	0	44	0	1318060032	5	3807
2026-01-22 15:01:23.81	180.36	27.68	-22.1	-22.5	18.3	0.00e+00	0	44	0	1325400064	5	3758
2026-01-22 15:01:24.81	180.45	27.85	-22.1	-22.5	18.3	0.00e+00	0	44	0	1332740096	5	3771
2026-01-22 15:01:25.81	180.55	28.02	-22.5	-23.3	17.9	0.00e+00	0	44	0	1340080128	5	3953
2026-01-22 15:01:26.82	180.64	28.19	-22.2	-22.8	18.2	0.00e+00	0	44	0	1346371584	5	3827
2026-01-22 15:01:27.82	180.73	28.37	-22.0	-22.3	18.4	0.00e+00	0	44	0	1353711616	5	3722
2026-01-22 15:01:28.83	180.83	28.54	-21.9	-22.1	18.5	0.00e+00	0	44	0	1362100224	5	3669
2026-01-22 15:01:29.83	180.92	28.72	-21.8	-22.3	18.6	0.00e+00	0	44	0	1368391680	4	3828
2026-01-22 15:01:30.84	181.02	28.90	-22.0	-22.8	18.4	0.00e+00	0	44	0	1375731712	4	3947
2026-01-22 15:01:31.85	181.12	29.08	-21.8	-22.5	18.5	0.00e+00	0	44	0	1383071744	4	3861
2026-01-22 15:01:32.85	181.21	29.25	-21.8	-22.3	18.6	0.00e+00	0	44	0	1390411776	4	3836
2026-01-22 15:01:33.85	181.31	29.43	-21.9	-22.5	18.5	0.00e+00	0	44	0	1397751808	4	3877
2026-01-22 15:01:34.86	181.41	29.62	-21.9	-22.5	18.5	0.00e+00	0	44	0	1405091840	4	3875
2026-01-22 15:01:35.86	181.51	29.80	-21.8	-22.3	18.7	0.00e+00	0	44	0	1412431872	4	3820
2026-01-22 15:01:36.86	181.62	29.98	-21.9	-22.6	18.5	0.00e+00	0	44	0	1419771904	4	3883
2026-01-22 15:01:37.87	181.72	30.17	-21.9	-22.6	18.5	0.00e+00	0	44	0	1427111936	4	3901
2026-01-22 15:01:38.87	181.83	30.35	-21.9	-22.5	18.6	0.00e+00	0	44	0	1433403392	4	3859
2026-01-22 15:01:39.87	181.93	30.54	-22.1	-23.0	18.3	0.00e+00	0	44	0	1440743424	4	3986
2026-01-22 15:01:40.87	182.04	30.72	-22.1	-22.9	18.4	0.00e+00	0	44	0	1448083456	4	3965
2026-01-22 15:01:41.88	182.15	30.91	-22.3	-23.4	18.1	0.00e+00	0	44	0	1455423488	4	4088
2026-01-22 15:01:42.88	182.26	31.10	-22.3	-23.4	18.2	0.00e+00	0	44	0	1462763520	4	4071
2026-01-22 15:01:43.88	182.37	31.29	-22.4	-23.6	18.0	0.00e+00	0	44	0	1470103552	4	4120
2026-01-22 15:01:44.89	182.48	31.49	-22.5	-23.8	17.9	0.00e+00	0	44	0	1477443584	4	4191
2026-01-22 15:01:45.89	182.59	31.68	-22.7	-23.8	17.7	0.00e+00	0	44	0	1484783616	5	4071
2026-01-22 15:01:46.90	182.71	31.87	-22.5	-23.2	18.0	0.00e+00	0	44	0	1492123648	5	3930
2026-01-22 15:01:47.91	182.83	32.07	-22.7	-23.8	17.7	0.00e+00	0	44	0	1499463680	5	4061
2026-01-22 15:01:48.91	182.94	32.27	-22.6	-23.4	17.9	0.00e+00	0	44	0	1506803712	5	3969
2026-01-22 15:01:49.91	183.06	32.46	-22.5	-23.3	18.0	0.00e+00	0	44	0	1514143744	5	3950
2026-01-22 15:01:50.91	183.18	32.66	-22.7	-23.8	17.7	0.00e+00	0	44	0	1520435200	5	4081
2026-01-22 15:01:51.91	183.30	32.86	-22.5	-23.4	17.9	0.00e+00	0	44	0	1527775232	5	3962
2026-01-22 15:01:52.92	183.43	33.07	-22.6	-23.6	17.8	0.00e+00	0	44	0	1535115264	5	4019
2026-01-22 15:01:53.92	183.55	33.27	-22.5	-23.4	17.9	0.00e+00	0	44	0	1542455296	5	3966
2026-01-22 15:01:54.92	183.68	33.47	-22.5	-23.4	17.9	0.00e+00	0	44	0	1549795328	5	3975
2026-01-22 15:01:55.92	183.80	33.68	-22.7	-23.8	17.7	0.00e+00	0	44	0	1557135360	5	4065
2026-01-22 15:01:56.92	183.93	33.88	-22.5	-23.2	18.0	0.00e+00	0	44	0	1564475392	5	3929
2026-01-22 15:01:57.92	184.06	34.09	-22.5	-23.4	18.0	0.00e+00	0	44	0	1571815424	5	3964
2026-01-22 15:01:58.92	184.20	34.30	-22.5	-23.3	18.0	0.00e+00	0	44	0	1578106880	5	3952
2026-01-22 15:01:59.93	184.33	34.51	-22.6	-23.6	17.9	0.00e+00	0	44	0	1586495488	5	4017
2026-01-22 15:02:00.93	184.47	34.72	-22.4	-23.1	18.1	0.00e+00	0	44	0	1593835520	5	3913
2026-01-22 15:02:01.93	184.60	34.93	-22.2	-22.6	18.4	0.00e+00	0	44	0	1600126976	5	3774
2026-01-22 15:02:02.93	184.74	35.14	-22.3	-22.8	18.3	0.00e+00	0	44	0	1607467008	5	3840
2026-01-22 15:02:03.93	184.88	35.36	-22.2	-22.8	18.3	0.00e+00	0	44	0	1614807040	5	3827
2026-01-22 15:02:04.94	185.03	35.58	-23.0	-23.7	18.6	0.00e+00	0	44	0	1622147072	5	3897
2026-01-22 15:02:05.94	185.17	35.79	-22.8	-23.3	18.7	0.00e+00	0	44	0	1629487104	5	3809
2026-01-22 15:02:06.95	185.32	36.01	-22.7	-23.1	18.9	0.00e+00	0	44	0	1636827136	5	3778
2026-01-22 15:02:07.95	185.47	36.23	-22.6	-22.9	19.0	0.00e+00	0	44	0	1644167168	5	3729
2026-01-22 15:02:08.96	185.62	36.45	-22.7	-23.2	18.9	0.00e+00	0	44	0	1651507200	5	3783
2026-01-22 15:02:09.97	185.77	36.68	-22.9	-23.5	18.7	0.00e+00	0	44	0	1658847232	5	3854
2026-01-22 15:02:10.97	185.93	36.90	-22.9	-23.6	18.6	0.00e+00	0	44	0	1665138688	5	3888
2026-01-22 15:02:11.97	186.08	37.13	-22.8	-22.7	18.8	0.00e+00	0	44	0	1672478720	6	3584
2026-01-22 15:02:12.98	186.24	37.36	-23.1	-23.5	18.5	0.00e+00	0	44	0	1680867328	6	3756
2026-01-22 15:02:13.98	186.40	37.58	-23.1	-23.4	18.5	0.00e+00	0	44	0	1687158784	6	3732
2026-01-22 15:02:14.97	186.57	37.81	-23.3	-23.8	18.3	0.00e+00	0	44	0	1694498816	6	3816
2026-01-22 15:02:15.97	186.73	38.04	-23.3	-23.8	18.4	0.00e+00	0	44	0	1701838848	6	3812
2026-01-22 15:02:16.98	186.90	38.27	-23.4	-24.0	18.2	0.00e+00	0	44	0	1709178880	6	3878
2026-01-22 15:02:17.98	187.07	38.51	-23.5	-23.7	18.1	0.00e+00	0	44	0	1716518912	7	3691
2026-01-22 15:02:18.97	187.24	38.74	-23.8	-24.3	17.8	0.00e+00	0	44	0	1722810368	7	3842
2026-01-22 15:02:19.98	187.42	38.98	-23.5	-23.8	18.1	0.00e+00	0	44	0	1731198976	7	3714
2026-01-22 15:02:20.99	187.60	39.21	-23.4	-23.5	18.2	0.00e+00	0	44	0	1738539008	7	3654
2026-01-22 15:02:21.99	187.78	39.45	-23.1	-22.9	18.6	0.00e+00	0	44	0	1744830464	7	3522
2026-01-22 15:02:23.00	187.96	39.69	-23.2	-23.6	18.5	0.00e+00	0	44	0	1752170496	6	3772
2026-01-22 15:02:23.99	188.14	39.93	-23.2	-23.6	18.5	0.00e+00	0	44	0	1759510528	6	3767
2026-01-22 15:02:25.00	188.33	40.18	-23.1	-23.5	18.5	0.00e+00	0	44	0	1766850560	6	3757
2026-01-22 15:02:26.00	188.52	40.42	-23.1	-23.5	18.4	0.00e+00	0	44	0	1774190592	6	3764
2026-01-22 15:02:27.00	188.72	40.66	-23.2	-23.6	18.4	0.00e+00	0	44	0	1781530624	6	3771
2026-01-22 15:02:28.00	188.91	40.91	-23.0	-23.2	18.6	0.00e+00	0	44	0	1788870656	6	3685
2026-01-22 15:02:29.00	189.11	41.16	-23.1	-23.4	18.5	0.00e+00	0	44	0	1796210688	6	3736
2026-01-22 15:02:30.01	189.31	41.41	-23.3	-23.8	18.4	0.00e+00	0	44	0	1803550720	6	3818
2026-01-22 15:02:31.00	189.52	41.66	-23.1	-23.5	18.5	0.00e+00	0	44	0	1809842176	6	3751
2026-01-22 15:02:32.01	189.73	41.91	-23.4	-24.0	18.2	0.00e+00	0	44	0	1817182208	6	3874
2026-01-22 15:02:33.01	189.94	42.16	-23.0	-23.2	18.5	0.00e+00	0	44	0	1824522240	6	3686
2026-01-22 15:02:34.01	190.15	42.42	-23.0	-23.1	18.7	0.00e+00	0	44	0	1831862272	6	3657
2026-01-22 15:02:35.01	190.37	42.67	-23.0	-23.2	18.7	0.00e+00	0	44	0	1839202304	6	3690
2026-01-22 15:02:36.02	190.60	42.93	-23.1	-23.4	18.6	0.00e+00	0	44	0	1846542336	6	3726
2026-01-22 15:02:37.03	190.82	43.19	-23.2	-23.5	18.5	0.00e+00	0	44	0	1853882368	6	3757
2026-01-22 15:02:38.03	191.05	43.45	-23.5	-24.2	18.1	0.00e+00	0	44	0	1861222400	6	3920
2026-01-22 15:02:39.03	191.28	43.71	-23.1	-23.0	18.5	0.00e+00	0	44	0	1868562432	7	3539
2026-01-22 15:02:40.03	191.52	43.97	-23.5	-23.7	18.2	0.00e+00	0	44	0	1875902464	7	3692
2026-01-22 15:02:41.03	191.76	44.24	-23.5	-23.9	18.1	0.00e+00	0	44	0	1883242496	7	3736
2026-01-22 15:02:42.04	192.01	44.50	-23.5	-23.8	18.2	0.00e+00	0	44	0	1890582528	7	3708
2026-01-22 15:02:43.04	192.26	44.77	-23.3	-23.4	18.4	0.00e+00	0	44	0	1896873984	7	3633
2026-01-22 15:02:44.05	192.51	45.04	-23.3	-23.3	18.2	0.00e+00	0	44	0	1904214016	7	3613
2026-01-22 15:02:45.05	192.77	45.30	-23.6	-24.0	18.0	0.00e+00	0	44	0	1911554048	7	3772
2026-01-22 15:02:46.05	193.03	45.57	-23.5	-23.7	18.2	0.00e+00	0	44	0	1918894080	7	3700
2026-01-22 15:02:47.05	193.29	45.84	-23.6	-24.1	18.0	0.00e+00	0	44	0	1926234112	7	3776
2026-01-22 15:02:48.05	193.56	46.11	-23.6	-23.9	18.1	0.00e+00	0	44	0	1933574144	7	3733
2026-01-22 15:02:49.05	193.84	46.39	-23.5	-23.7	18.1	0.00e+00	0	44	0	1940914176	7	3678
2026-01-22 15:02:50.06	194.12	46.66	-23.8	-24.3	17.9	0.00e+00	0	44	0	1948254208	7	3839
2026-01-22 15:02:51.06	194.40	46.94	-24.0	-24.7	17.7	0.00e+00	0	44	0	1954545664	7	3934
2026-01-22 15:02:52.06	194.69	47.21	-23.9	-24.5	17.8	0.00e+00	0	44	0	1961885696	7	3872
2026-01-22 15:02:53.07	194.99	47.49	-23.9	-24.5	17.8	0.00e+00	0	44	0	1969225728	7	3886
2026-01-22 15:02:54.07	195.29	47.77	-23.8	-24.3	17.8	0.00e+00	0	44	0	1976565760	7	3837
2026-01-22 15:02:55.08	195.59	48.05	-23.9	-24.0	17.8	0.00e+00	0	44	0	1983905792	8	3657
2026-01-22 15:02:56.07	195.90	48.33	-23.9	-24.1	17.8	0.00e+00	0	44	0	1991245824	8	3687
2026-01-22 15:02:57.08	196.22	48.61	-24.2	-24.7	17.5	0.00e+00	0	44	0	1998585856	8	3823
2026-01-22 15:02:58.08	196.54	48.89	-24.2	-24.8	17.5	0.00e+00	0	44	0	2005925888	8	3836
2026-01-22 15:02:59.08	196.87	49.17	-24.3	-24.9	17.4	0.00e+00	0	44	0	2013265920	8	3866
2026-01-22 15:03:00.08	197.20	49.46	-24.3	-24.4	17.4	0.00e+00	0	44	0	2020605952	9	3648
2026-01-22 15:03:01.09	197.54	49.74	-24.4	-24.6	17.3	0.00e+00	0	44	0	2027945984	9	3695
2026-01-22 15:03:02.08	197.88	50.02	-24.3	-24.4	17.4	0.00e+00	0	44	0	2035286016	9	3655
2026-01-22 15:03:03.08	198.24	50.31	-24.3	-24.5	17.4	0.00e+00	0	44	0	2041577472	9	3672
2026-01-22 15:03:04.09	198.60	50.60	-24.6	-25.0	17.0	0.00e+00	0	44	0	2048917504	9	3786
2026-01-22 15:03:05.09	198.96	50.88	-23.8	-23.9	17.9	0.00e+00	0	44	0	2056257536	8	3629
2026-01-22 15:03:06.10	199.34	51.17	-24.3	-24.5	17.4	0.00e+00	0	44	0	2063597568	9	3671
2026-01-22 15:03:07.10	199.72	51.46	-24.1	-24.1	17.6	0.00e+00	0	44	0	2070937600	9	3573
2026-01-22 15:03:08.11	200.11	51.75	-23.9	-23.6	17.8	0.00e+00	0	44	0	2078277632	9	3470
2026-01-22 15:03:09.11	200.50	52.04	-24.2	-24.2	17.6	0.00e+00	0	44	0	2085617664	9	3594
2026-01-22 15:03:10.12	200.91	52.33	-25.1	-26.2	16.4	0.00e+00	0	44	0	2092957696	9	4091
2026-01-22 15:03:11.12	201.32	52.62	-24.4	-25.2	17.3	0.00e+00	0	44	0	2100297728	8	3924
2026-01-22 15:03:12.13	201.74	52.91	-24.4	-25.1	17.4	0.00e+00	0	44	0	2107637760	8	3905
2026-01-22 15:03:13.14	202.17	53.20	-24.7	-25.2	17.0	0.00e+00	0	44	0	2114977792	9	3836
2026-01-22 15:03:14.14	202.61	53.49	-24.9	-25.3	16.7	0.00e+00	0	44	0	2122317824	10	3739
2026-01-22 15:03:15.15	203.06	53.78	-25.2	-26.0	16.2	0.00e+00	0	44	0	2128609280	10	3913
2026-01-22 15:03:16.15	203.51	54.07	-24.7	-24.8	17.0	0.00e+00	0	44	0	2135949312	10	3641
2026-01-22 15:03:17.15	203.97	54.36	-24.8	-24.9	17.0	0.00e+00	0	44	0	2143289344	10	3655
2026-01-22 15:03:18.15	204.44	54.65	-24.5	-24.4	17.2	0.00e+00	0	44	0	2150629376	10	3555
2026-01-22 15:03:19.15	204.92	54.94	-24.2	-24.3	17.6	0.00e+00	0	44	0	2157969408	9	3612
2026-01-22 15:03:20.15	205.41	55.22	-24.2	-24.2	17.5	0.00e+00	0	44	0	2165309440	9	3604
2026-01-22 15:03:21.15	205.91	55.51	-24.2	-24.8	17.5	0.00e+00	0	44	0	2172649472	8	3833
2026-01-22 15:03:22.15	206.42	55.80	-24.3	-25.0	17.5	0.00e+00	0	44	0	2179989504	8	3878
2026-01-22 15:03:23.15	206.94	56.08	-24.1	-24.5	17.7	0.00e+00	0	44	0	2186280960	8	3778
2026-01-22 15:03:24.16	207.48	56.37	-24.0	-24.4	17.8	0.00e+00	0	44	0	2193620992	8	3737
2026-01-22 15:03:25.16	208.02	56.65	-24.2	-24.8	17.6	0.00e+00	0	44	0	2200961024	8	3825
2026-01-22 15:03:26.17	208.58	56.94	-24.8	-25.4	17.0	0.00e+00	0	44	0	2208301056	9	3880
2026-01-22 15:03:27.17	209.14	57.22	-24.9	-25.2	16.8	0.00e+00	0	44	0	2215641088	10	3713
2026-01-22 15:03:28.18	209.73	57.51	-25.3	-25.9	16.5	0.00e+00	0	44	0	2222981120	10	3895
2026-01-22 15:03:29.18	210.32	57.78	-25.2	-25.9	16.5	0.00e+00	0	44	0	2230321152	10	3892
2026-01-22 15:03:30.18	210.92	58.06	-25.0	-25.3	16.8	0.00e+00	0	44	0	2237661184	10	3753
2026-01-22 15:03:31.19	211.54	58.34	-25.2	-25.8	16.4	0.00e+00	0	44	0	2245001216	10	3852
2026-01-22 15:03:32.19	212.16	58.61	-25.1	-25.7	16.7	0.00e+00	0	44	0	2252341248	10	3828
2026-01-22 15:03:33.19	212.80	58.89	-24.7	-24.9	17.1	0.00e+00	0	44	0	2259681280	10	3647
2026-01-22 15:03:34.19	213.45	59.16	-24.3	-24.4	17.5	0.00e+00	0	44	0	2267021312	9	3643
2026-01-22 15:03:35.20	214.13	59.43	-24.5	-24.8	17.4	0.00e+00	0	44	0	2273312768	9	3725
2026-01-22 15:03:36.20	214.80	59.69	-24.7	-25.2	17.1	0.00e+00	0	44	0	2280652800	9	3831
2026-01-22 15:03:37.21	215.51	59.96	-24.3	-24.3	17.6	0.00e+00	0	44	0	2287992832	9	3617
2026-01-22 15:03:38.22	216.22	60.22	-24.4	-24.6	17.5	0.00e+00	0	44	0	2295332864	9	3678
2026-01-22 15:03:39.22	216.94	60.48	-24.6	-25.0	17.3	0.00e+00	0	44	0	2302672896	9	3771
2026-01-22 15:03:40.22	217.68	60.73	-24.6	-25.1	17.2	0.00e+00	0	44	0	2310012928	9	3795
2026-01-22 15:03:41.23	218.44	60.98	-24.6	-25.1	17.2	0.00e+00	0	44	0	2317352960	9	3801
2026-01-22 15:03:42.23	219.20	61.23	-24.3	-24.4	17.6	0.00e+00	0	44	0	2324692992	9	3636
2026-01-22 15:03:43.24	219.99	61.48	-24.1	-24.0	17.8	0.00e+00	0	44	0	2332033024	9	3565
2026-01-22 15:03:44.25	220.80	61.72	-23.9	-23.5	18.0	0.00e+00	0	44	0	2339373056	9	3456
2026-01-22 15:03:45.25	221.61	61.96	-23.9	-24.1	18.0	0.00e+00	0	44	0	2346713088	8	3667
2026-01-22 15:03:46.26	222.45	62.19	-23.4	-23.5	18.5	0.00e+00	0	44	0	2353004544	7	3648
2026-01-22 15:03:47.27	223.30	62.42	-23.5	-23.7	18.3	0.00e+00	0	44	0	2360344576	7	3692
2026-01-22 15:03:48.27	224.16	62.64	-23.6	-23.8	18.1	0.00e+00	0	44	0	2367684608	7	3713
2026-01-22 15:03:49.27	225.03	62.86	-23.4	-23.5	18.5	0.00e+00	0	44	0	2375024640	7	3650
2026-01-22 15:03:50.28	225.93	63.08	-23.4	-23.4	18.5	0.00e+00	0	44	0	2382364672	7	3630
2026-01-22 15:03:51.28	226.84	63.28	-23.4	-23.6	18.3	0.00e+00	0	44	0	2389704704	7	3655
2026-01-22 15:03:52.28	227.77	63.49	-23.1	-22.9	18.8	0.00e+00	0	44	0	2397044736	7	3503
2026-01-22 15:03:53.28	228.70	63.68	-23.4	-23.5	18.5	0.00e+00	0	44	0	2404384768	7	3655
2026-01-22 15:03:54.28	229.66	63.88	-23.3	-23.3	18.6	0.00e+00	0	44	0	2411724800	7	3598
2026-01-22 15:03:55.28	230.63	64.06	-23.4	-23.4	18.6	0.00e+00	0	44	0	2419064832	7	3626
2026-01-22 15:03:56.28	231.61	64.24	-23.5	-23.7	18.4	0.00e+00	0	44	0	2426404864	7	3698
2026-01-22 15:03:57.29	232.62	64.41	-23.3	-23.2	18.7	0.00e+00	0	44	0	2433744896	7	3587
2026-01-22 15:03:58.29	233.64	64.58	-23.0	-22.8	18.9	0.00e+00	0	44	0	2440036352	7	3492
2026-01-22 15:03:59.30	234.68	64.74	-23.2	-23.0	18.8	0.00e+00	0	44	0	2447376384	7	3546
2026-01-22 15:04:00.30	235.72	64.89	-23.2	-23.2	18.7	0.00e+00	0	44	0	2454716416	7	3580
2026-01-22 15:04:01.31	236.79	65.04	-23.3	-23.4	18.6	0.00e+00	0	44	0	2462056448	7	3612
2026-01-22 15:04:02.31	237.86	65.17	-23.7	-24.1	18.3	0.00e+00	0	44	0	2469396480	7	3787
2026-01-22 15:04:03.32	238.96	65.30	-23.6	-23.9	18.3	0.00e+00	0	44	0	2476736512	7	3741
2026-01-22 15:04:04.32	240.05	65.43	-23.4	-23.6	18.4	0.00e+00	0	44	0	2484076544	7	3665
2026-01-22 15:04:05.32	241.16	65.54	-23.1	-22.9	18.9	0.00e+00	0	44	0	2491416576	7	3509
2026-01-22 15:04:06.32	242.28	65.65	-23.1	-22.8	18.9	0.00e+00	0	44	0	2498756608	7	3498
2026-01-22 15:04:07.32	243.41	65.74	-23.2	-23.0	18.8	0.00e+00	0	44	0	2505048064	7	3537
2026-01-22 15:04:08.32	244.55	65.83	-23.1	-22.8	18.9	0.00e+00	0	44	0	2512388096	7	3494
2026-01-22 15:04:09.33	245.71	65.91	-23.1	-22.9	18.8	0.00e+00	0	44	0	2520776704	7	3515
2026-01-22 15:04:10.33	246.86	65.98	-22.8	-22.8	19.1	0.00e+00	0	44	0	2527068160	6	3582
2026-01-22 15:04:11.34	248.04	66.05	-22.6	-22.4	19.3	0.00e+00	0	44	0	2534408192	6	3497
2026-01-22 15:04:12.34	249.20	66.10	-22.7	-22.6	19.2	0.00e+00	0	44	0	2541748224	6	3552
2026-01-22 15:04:13.34	250.38	66.15	-22.8	-22.9	19.0	0.00e+00	0	44	0	2549088256	6	3604
2026-01-22 15:04:14.35	251.57	66.18	-22.7	-22.5	19.2	0.00e+00	0	44	0	2556428288	6	3522
2026-01-22 15:04:15.35	252.75	66.21	-22.7	-22.6	19.2	0.00e+00	0	44	0	2563768320	6	3556
2026-01-22 15:04:16.36	253.95	66.23	-22.9	-22.9	19.1	0.00e+00	0	44	0	2571108352	6	3612
2026-01-22 15:04:17.36	255.13	66.23	-22.9	-22.9	19.1	0.00e+00	0	44	0	2578448384	6	3615
2026-01-22 15:04:18.37	256.33	66.23	-22.7	-22.6	19.2	0.00e+00	0	44	0	2584739840	6	3547
2026-01-22 15:04:19.38	257.53	66.22	-22.5	-22.1	19.5	0.00e+00	0	44	0	2593128448	6	3445
2026-01-22 15:04:20.38	258.71	66.20	-22.7	-22.6	19.3	0.00e+00	0	44	0	2600468480	6	3548
2026-01-22 15:04:21.38	259.89	66.17	-22.9	-23.0	19.0	0.00e+00	0	44	0	2606759936	6	3636
2026-01-22 15:04:22.39	261.08	66.14	-23.0	-23.2	19.0	0.00e+00	0	44	0	2614099968	6	3673
2026-01-22 15:04:23.39	262.25	66.09	-23.0	-23.3	19.0	0.00e+00	0	44	0	2621440000	6	3692
2026-01-22 15:04:24.39	263.42	66.03	-23.0	-23.1	19.0	0.00e+00	0	44	0	2628780032	6	3656
2026-01-22 15:04:25.39	264.58	65.97	-22.9	-22.9	19.0	0.00e+00	0	44	0	2636120064	6	3614
2026-01-22 15:04:26.40	265.74	65.89	-23.0	-23.3	18.9	0.00e+00	0	44	0	2643460096	6	3694
2026-01-22 15:04:27.40	266.89	65.81	-23.2	-23.5	18.7	0.00e+00	0	44	0	2650800128	6	3750
2026-01-22 15:04:28.40	268.02	65.72	-23.4	-24.0	18.5	0.00e+00	0	44	0	2658140160	6	3861
2026-01-22 15:04:29.40	269.15	65.62	-23.7	-24.1	18.2	2.20e-06	0	44	0	2665480192	7	3786
2026-01-22 15:04:30.40	270.27	65.52	-23.5	-23.8	18.4	0.00e+00	0	44	0	2671771648	7	3716
2026-01-22 15:04:31.41	271.38	65.40	-23.7	-24.1	18.1	0.00e+00	0	44	0	2679111680	7	3779
2026-01-22 15:04:32.42	272.49	65.28	-23.8	-24.3	18.1	0.00e+00	0	44	0	2686451712	7	3827
2026-01-22 15:04:33.42	273.57	65.14	-23.6	-24.0	18.3	0.00e+00	0	44	0	2693791744	7	3755
2026-01-22 15:04:34.42	274.63	65.01	-23.7	-24.1	18.2	0.00e+00	0	44	0	2701131776	7	3771
2026-01-22 15:04:35.43	275.70	64.86	-23.7	-24.2	18.1	0.00e+00	0	44	0	2708471808	7	3800
2026-01-22 15:04:36.44	276.75	64.70	-23.6	-23.9	18.3	0.00e+00	0	44	0	2715811840	7	3738
2026-01-22 15:04:37.45	277.78	64.54	-23.4	-23.6	18.4	0.00e+00	0	44	0	2723151872	7	3669
2026-01-22 15:04:38.45	278.79	64.37	-23.3	-23.4	18.5	0.00e+00	0	44	0	2730491904	7	3611
2026-01-22 15:04:39.46	279.80	64.20	-23.5	-23.7	18.3	0.00e+00	0	44	0	2737831936	7	3682
2026-01-22 15:04:40.46	280.78	64.02	-23.5	-23.8	18.4	0.00e+00	0	44	0	2745171968	7	3706
2026-01-22 15:04:41.47	281.76	63.83	-23.8	-24.4	18.1	0.00e+00	0	44	0	2752512000	7	3846
2026-01-22 15:04:42.47	282.70	63.64	-23.8	-24.4	18.0	0.00e+00	0	44	0	2758803456	7	3861
2026-01-22 15:04:43.46	283.63	63.44	-23.9	-24.6	18.0	0.00e+00	0	44	0	2766143488	7	3895
2026-01-22 15:04:44.46	284.55	63.24	-24.0	-24.3	17.9	0.00e+00	0	44	0	2773483520	8	3721
2026-01-22 15:04:45.46	285.45	63.03	-24.0	-24.3	17.9	0.00e+00	0	44	0	2780823552	8	3712
2026-01-22 15:04:46.47	286.35	62.82	-24.2	-24.6	17.7	0.00e+00	0	44	0	2788163584	8	3793
2026-01-22 15:04:47.48	287.23	62.59	-24.3	-25.0	17.5	0.00e+00	0	44	0	2795503616	8	3878
2026-01-22 15:04:48.48	288.08	62.37	-24.4	-25.2	17.4	0.00e+00	0	44	0	2802843648	8	3929
2026-01-22 15:04:49.49	288.93	62.14	-24.3	-24.9	17.6	0.00e+00	0	44	0	2810183680	8	3846
2026-01-22 15:04:50.49	289.75	61.91	-24.1	-24.5	17.8	0.00e+00	0	44	0	2817523712	8	3769
2026-01-22 15:04:51.50	290.57	61.67	-24.2	-24.6	17.7	0.00e+00	0	44	0	2824863744	8	3787
2026-01-22 15:04:52.51	291.37	61.43	-24.0	-24.3	17.8	0.00e+00	0	44	0	2832203776	8	3715
2026-01-22 15:04:53.51	292.14	61.18	-24.1	-24.5	17.8	0.00e+00	0	44	0	2838495232	8	3770
2026-01-22 15:04:54.51	292.91	60.93	-24.3	-24.9	17.6	0.00e+00	0	44	0	2845835264	8	3859
2026-01-22 15:04:55.52	293.66	60.68	-24.4	-25.1	17.5	0.00e+00	0	44	0	2853175296	8	3908
2026-01-22 15:04:56.52	294.39	60.43	-24.6	-25.0	17.3	0.00e+00	0	44	0	2860515328	9	3777
2026-01-22 15:04:57.52	295.11	60.17	-24.5	-24.9	17.3	0.00e+00	0	44	0	2867855360	9	3743
2026-01-22 15:04:58.51	295.81	59.91	-24.6	-25.0	17.3	0.00e+00	0	44	0	2875195392	9	3761
2026-01-22 15:04:59.52	296.50	59.65	-24.5	-24.9	17.4	0.00e+00	0	44	0	2882535424	9	3744
2026-01-22 15:05:00.51	297.17	59.38	-24.4	-24.6	17.5	0.00e+00	0	44	0	2889875456	9	3672
2026-01-22 15:05:01.50	297.83	59.12	-24.3	-24.4	17.6	0.00e+00	0	44	0	2897215488	9	3635
2026-01-22 15:05:02.51	298.48	58.85	-24.5	-24.7	17.4	0.00e+00	0	44	0	2903506944	9	3713
2026-01-22 15:05:03.51	299.12	58.58	-24.6	-24.9	17.4	0.00e+00	0	44	0	2910846976	9	3753
2026-01-22 15:05:04.51	299.74	58.30	-24.4	-24.5	17.5	0.00e+00	0	44	0	2918187008	9	3661
2026-01-22 15:05:05.52	300.36	58.02	-24.3	-24.3	17.6	0.00e+00	0	44	0	2925527040	9	3609
2026-01-22 15:05:06.52	300.96	57.75	-24.2	-24.2	17.7	0.00e+00	0	44	0	2932867072	9	3595
2026-01-22 15:05:07.53	301.55	57.47	-24.5	-24.7	17.3	0.00e+00	0	44	0	2940207104	9	3712
2026-01-22 15:05:08.53	302.12	57.19	-24.7	-25.2	17.3	0.00e+00	0	44	0	2947547136	9	3813
2026-01-22 15:05:09.54	302.69	56.90	-24.7	-25.3	17.0	0.00e+00	0	44	0	2954887168	9	3844
2026-01-22 15:05:10.55	303.25	56.62	-24.8	-25.3	17.1	0.00e+00	0	44	0	2962227200	9	3852
2026-01-22 15:05:11.55	303.78	56.33	-24.6	-25.1	17.3	0.00e+00	0	44	0	2969567232	9	3793
2026-01-22 15:05:12.54	304.31	56.05	-24.6	-25.0	17.3	0.00e+00	0	44	0	2976907264	9	3784
2026-01-22 15:05:13.55	304.83	55.76	-24.8	-25.4	17.0	0.00e+00	0	44	0	2983198720	9	3872
2026-01-22 15:05:14.56	305.34	55.48	-24.7	-25.2	17.2	0.00e+00	0	44	0	2990538752	9	3823
2026-01-22 15:05:15.56	305.84	55.19	-24.7	-25.2	17.2	0.00e+00	0	44	0	2997878784	9	3827
2026-01-22 15:05:16.56	306.33	54.90	-24.8	-25.4	17.1	0.00e+00	0	44	0	3005218816	9	3860
2026-01-22 15:05:17.56	306.81	54.62	-24.8	-25.4	17.0	0.00e+00	0	44	0	3012558848	9	3881
2026-01-22 15:05:18.56	307.27	54.33	-24.7	-25.3	17.1	0.00e+00	0	44	0	3019898880	9	3849
2026-01-22 15:05:19.57	307.74	54.04	-24.8	-25.4	17.1	0.00e+00	0	44	0	3027238912	9	3866
2026-01-22 15:05:20.58	308.19	53.75	-24.7	-25.2	17.1	0.00e+00	0	44	0	3034578944	9	3824
2026-01-22 15:05:21.58	308.63	53.46	-24.6	-25.0	17.2	0.00e+00	0	44	0	3041918976	9	3784
2026-01-22 15:05:22.59	309.07	53.17	-24.7	-25.3	17.1	0.00e+00	0	44	0	3049259008	9	3838
2026-01-22 15:05:23.60	309.50	52.88	-25.0	-25.5	16.8	0.00e+00	0	44	0	3056599040	10	3778
2026-01-22 15:05:24.60	309.92	52.59	-25.2	-25.8	16.6	0.00e+00	0	44	0	3063939072	10	3855
2026-01-22 15:05:25.60	310.32	52.30	-25.1	-25.6	16.7	4.50e-06	0	44	0	3070230528	10	3801
2026-01-22 15:05:26.60	310.72	52.01	-25.1	-25.5	16.7	0.00e+00	0	44	0	3077570560	10	3790
2026-01-22 15:05:27.60	311.12	51.73	-25.2	-25.8	16.6	0.00e+00	0	44	0	3084910592	10	3870
2026-01-22 15:05:28.61	311.50	51.44	-25.5	-26.4	16.2	0.00e+00	0	44	0	3092250624	10	4007
2026-01-22 15:05:29.61	311.88	51.15	-25.5	-26.0	16.1	0.00e+00	0	44	0	3099590656	11	3813
2026-01-22 15:05:30.62	312.26	50.86	-25.2	-25.3	16.6	0.00e+00	0	44	0	3106930688	11	3632
2026-01-22 15:05:31.61	312.62	50.58	-25.0	-24.9	16.7	1.10e-06	0	44	0	3114270720	11	3548
2026-01-22 15:05:32.61	312.97	50.30	-24.9	-25.2	16.8	0.00e+00	0	44	0	3121610752	10	3720
2026-01-22 15:05:33.61	313.32	50.01	-24.9	-25.1	16.9	0.00e+00	0	44	0	3128950784	10	3703
2026-01-22 15:05:34.62	313.67	49.73	-25.0	-25.4	16.8	0.00e+00	0	44	0	3135242240	10	3760
2026-01-22 15:05:35.63	314.01	49.44	-24.8	-25.1	17.0	0.00e+00	0	44	0	3142582272	10	3686
2026-01-22 15:05:36.62	314.34	49.16	-24.5	-24.3	17.3	0.00e+00	0	44	0	3149922304	10	3530
2026-01-22 15:05:37.63	314.67	48.88	-24.2	-24.2	17.7	0.00e+00	0	44	0	3157262336	9	3586
2026-01-22 15:05:38.64	314.99	48.60	-24.1	-23.9	17.8	0.00e+00	0	44	0	3164602368	9	3534
2026-01-22 15:05:39.65	315.31	48.32	-24.2	-24.1	17.7	0.00e+00	0	44	0	3171942400	9	3576
2026-01-22 15:05:40.65	315.62	48.04	-24.2	-24.1	17.7	0.00e+00	0	44	0	3179282432	9	3569
2026-01-22 15:05:41.65	315.92	47.76	-24.1	-24.1	17.7	0.00e+00	0	44	0	3186622464	9	3566
2026-01-22 15:05:42.66	316.22	47.48	-24.2	-24.1	17.7	0.00e+00	0	44	0	3193962496	9	3578
2026-01-22 15:05:43.66	316.52	47.21	-24.1	-24.0	17.7	0.00e+00	0	44	0	3201302528	9	3557
2026-01-22 15:05:44.66	316.80	46.93	-24.1	-23.9	17.8	0.00e+00	0	44	0	3208642560	9	3544
2026-01-22 15:05:45.67	317.09	46.66	-24.1	-24.0	17.7	0.00e+00	0	44	0	3214934016	9	3554
2026-01-22 15:05:46.66	317.36	46.39	-23.9	-24.0	18.0	0.00e+00	0	44	0	3222274048	8	3646
2026-01-22 15:05:47.67	317.64	46.11	-23.6	-23.4	18.3	0.00e+00	0	44	0	3229614080	8	3533
2026-01-22 15:05:48.66	317.91	45.85	-23.6	-23.3	18.3	0.00e+00	0	44	0	3236954112	8	3512
2026-01-22 15:05:49.66	318.17	45.58	-23.5	-23.2	18.4	0.00e+00	0	44	0	3244294144	8	3489
2026-01-22 15:05:50.66	318.43	45.31	-23.5	-23.2	18.4	0.00e+00	0	44	0	3251634176	8	3472
2026-01-22 15:05:51.67	318.69	45.04	-23.6	-23.4	18.3	0.00e+00	0	44	0	3258974208	8	3521
2026-01-22 15:05:52.66	318.94	44.78	-23.7	-23.6	17.9	0.00e+00	0	44	0	3266314240	8	3566
2026-01-22 15:05:53.66	319.18	44.51	-23.9	-24.0	17.9	0.00e+00	0	44	0	3273654272	8	3664
2026-01-22 15:05:54.67	319.43	44.25	-24.1	-24.4	17.7	0.00e+00	0	44	0	3279945728	8	3754
2026-01-22 15:05:55.68	319.67	43.98	-23.7	-23.7	18.1	0.00e+00	0	44	0	3287285760	8	3594
2026-01-22 15:05:56.68	319.91	43.72	-23.2	-23.1	18.6	0.00e+00	0	44	0	3295674368	7	3555
2026-01-22 15:05:57.69	320.14	43.46	-23.0	-22.6	18.9	0.00e+00	0	44	0	3301965824	7	3460
2026-01-22 15:05:58.69	320.37	43.20	-22.8	-22.9	19.0	0.00e+00	0	44	0	3309305856	6	3602
2026-01-22 15:05:59.69	320.59	42.95	-22.9	-22.9	19.0	0.00e+00	0	44	0	3316645888	6	3614
2026-01-22 15:06:00.70	320.82	42.69	-23.2	-23.6	18.6	0.00e+00	0	44	0	3323985920	6	3765
2026-01-22 15:06:01.70	321.03	42.44	-23.2	-23.6	18.6	0.00e+00	0	44	0	3331325952	6	3772
2026-01-22 15:06:02.70	321.25	42.18	-23.2	-23.5	18.6	0.00e+00	0	44	0	3338665984	6	3753
2026-01-22 15:06:03.71	321.46	41.93	-23.3	-23.8	18.1	0.00e+00	0	44	0	3346006016	6	3822
2026-01-22 15:06:04.72	321.67	41.68	-23.3	-23.8	18.5	0.00e+00	0	44	0	3353346048	6	3815
2026-01-22 15:06:05.72	321.87	41.43	-23.2	-23.6	18.5	0.00e+00	0	44	0	3360686080	6	3774
2026-01-22 15:06:06.71	322.07	41.18	-23.1	-23.4	18.6	0.00e+00	0	44	0	3366977536	6	3732
2026-01-22 15:06:07.71	322.27	40.94	-23.2	-23.7	18.5	0.00e+00	0	44	0	3374317568	6	3786
2026-01-22 15:06:08.72	322.47	40.69	-23.1	-23.4	18.7	0.00e+00	0	44	0	3381657600	6	3716
2026-01-22 15:06:09.72	322.66	40.45	-23.0	-23.2	18.8	0.00e+00	0	44	0	3388997632	6	3678
2026-01-22 15:06:10.73	322.85	40.20	-23.1	-23.4	18.6	0.00e+00	0	44	0	3396337664	6	3729
2026-01-22 15:06:11.73	323.04	39.96	-23.3	-23.8	18.5	4.50e-06	0	44	0	3403677696	6	3812
2026-01-22 15:06:12.73	323.23	39.72	-23.4	-24.0	18.4	0.00e+00	0	44	0	3411017728	6	3860
2026-01-22 15:06:13.73	323.41	39.48	-23.4	-24.1	18.3	0.00e+00	0	44	0	3418357760	6	3887
2026-01-22 15:06:14.74	323.59	39.24	-23.5	-23.8	18.2	0.00e+00	0	44	0	3425697792	7	3720
2026-01-22 15:06:15.74	323.77	39.01	-23.8	-24.3	17.9	0.00e+00	0	44	0	3433037824	7	3823
2026-01-22 15:06:16.74	323.94	38.77	-23.7	-24.2	18.0	0.00e+00	0	44	0	3440377856	7	3797
2026-01-22 15:06:17.75	324.11	38.54	-23.5	-23.7	18.2	0.00e+00	0	44	0	3446669312	7	3693
2026-01-22 15:06:18.75	324.28	38.31	-23.4	-23.5	18.3	0.00e+00	0	44	0	3454009344	7	3651
2026-01-22 15:06:19.75	324.45	38.08	-23.4	-23.6	18.3	0.00e+00	0	44	0	3461349376	7	3671
2026-01-22 15:06:20.76	324.62	37.85	-23.2	-23.0	18.6	0.00e+00	0	44	0	3468689408	7	3546
2026-01-22 15:06:21.76	324.78	37.62	-23.0	-22.8	18.6	0.00e+00	0	44	0	3476029440	7	3491
2026-01-22 15:06:22.76	324.94	37.39	-23.1	-22.9	18.7	0.00e+00	0	44	0	3483369472	7	3524
2026-01-22 15:06:23.77	325.10	37.17	-22.9	-22.5	18.6	0.00e+00	0	44	0	3490709504	7	3439
2026-01-22 15:06:24.77	325.25	36.94	-22.8	-22.7	18.9	0.00e+00	0	44	0	3498049536	6	3575
2026-01-22 15:06:25.77	325.41	36.72	-22.7	-22.5	19.1	0.00e+00	0	44	0	3505389568	6	3531
2026-01-22 15:06:26.77	325.56	36.50	-22.6	-22.4	19.1	0.00e+00	0	44	0	3511681024	6	3502
2026-01-22 15:06:27.77	325.71	36.28	-22.5	-22.2	19.2	0.00e+00	0	44	0	3519021056	6	3473
2026-01-22 15:06:28.78	325.86	36.06	-22.6	-22.3	19.2	0.00e+00	0	44	0	3527409664	6	3488
2026-01-22 15:06:29.78	326.01	35.84	-22.8	-22.7	19.0	0.00e+00	0	44	0	3533701120	6	3576
2026-01-22 15:06:30.78	326.15	35.63	-22.8	-22.7	19.0	0.00e+00	0	44	0	3541041152	6	3577
2026-01-22 15:06:31.79	326.29	35.41	-22.9	-23.1	18.8	0.00e+00	0	44	0	3548381184	6	3651
2026-01-22 15:06:32.80	326.44	35.19	-22.9	-23.0	18.8	0.00e+00	0	44	0	3555721216	6	3630
2026-01-22 15:06:33.80	326.58	34.98	-23.0	-23.2	18.7	0.00e+00	0	44	0	3563061248	6	3693
2026-01-22 15:06:34.81	326.71	34.77	-23.0	-23.2	18.7	1.10e-06	0	44	0	3570401280	6	3682
2026-01-22 15:06:35.80	326.85	34.56	-23.1	-23.3	18.7	0.00e+00	0	44	0	3577741312	6	3711
2026-01-22 15:06:36.81	326.98	34.35	-23.3	-23.8	18.4	0.00e+00	0	44	0	3585081344	6	3815
2026-01-22 15:06:37.82	327.12	34.14	-23.2	-23.6	18.5	0.00e+00	0	44	0	3591372800	6	3765
2026-01-22 15:06:38.82	327.25	33.94	-23.1	-23.3	18.7	0.00e+00	0	44	0	3598712832	6	3706
2026-01-22 15:06:39.82	327.38	33.73	-23.0	-23.2	18.7	0.00e+00	0	44	0	3606052864	6	3681
2026-01-22 15:06:40.83	327.50	33.53	-23.0	-23.1	18.8	0.00e+00	0	44	0	3613392896	6	3669
2026-01-22 15:06:41.83	327.63	33.32	-22.9	-23.0	18.8	0.00e+00	0	44	0	3620732928	6	3646
2026-01-22 15:06:42.84	327.76	33.12	-23.0	-23.1	18.8	0.00e+00	0	44	0	3628072960	6	3660
2026-01-22 15:06:43.84	327.88	32.92	-22.9	-23.0	18.8	0.00e+00	0	44	0	3635412992	6	3633
2026-01-22 15:06:44.85	328.00	32.72	-22.9	-22.9	18.8	0.00e+00	0	44	0	3642753024	6	3623
2026-01-22 15:06:45.85	328.12	32.52	-23.1	-23.4	18.6	0.00e+00	0	44	0	3650093056	6	3733
2026-01-22 15:06:46.86	328.24	32.32	-22.9	-23.1	18.8	0.00e+00	0	44	0	3657433088	6	3663
2026-01-22 15:06:47.87	328.36	32.13	-22.8	-22.8	18.9	0.00e+00	0	44	0	3664773120	6	3607
2026-01-22 15:06:48.87	328.47	31.93	-22.9	-22.9	18.8	0.00e+00	0	44	0	3672113152	6	3620
2026-01-22 15:06:49.88	328.59	31.74	-22.8	-22.8	18.9	0.00e+00	0	44	0	3679453184	6	3592
2026-01-22 15:06:50.88	328.70	31.55	-22.8	-22.8	18.9	0.00e+00	0	44	0	3686793216	6	3605
2026-01-22 15:06:51.88	328.81	31.36	-22.8	-22.7	19.0	0.00e+00	0	44	0	3694133248	6	3566
2026-01-22 15:06:52.89	328.93	31.17	-22.8	-22.8	18.9	0.00e+00	0	44	0	3700424704	6	3587
2026-01-22 15:06:53.89	329.04	30.98	-22.8	-22.8	18.9	0.00e+00	0	44	0	3707764736	6	3595
2026-01-22 15:06:54.89	329.14	30.79	-22.9	-22.9	18.7	0.00e+00	0	44	0	3715104768	6	3626
2026-01-22 15:06:55.89	329.25	30.60	-23.0	-23.1	18.7	0.00e+00	0	44	0	3722444800	6	3660
2026-01-22 15:06:56.89	329.36	30.42	-23.0	-23.2	18.7	0.00e+00	0	44	0	3729784832	6	3687
2026-01-22 15:06:57.89	329.46	30.24	-23.0	-23.2	18.7	0.00e+00	0	44	0	3737124864	6	3683
2026-01-22 15:06:58.90	329.57	30.05	-23.1	-23.4	18.6	0.00e+00	0	44	0	3744464896	6	3718
2026-01-22 15:06:59.90	329.67	29.87	-23.1	-23.5	18.6	0.00e+00	0	44	0	3751804928	6	3740
2026-01-22 15:07:00.90	329.77	29.69	-23.2	-23.5	18.5	0.00e+00	0	44	0	3758096384	6	3759
2026-01-22 15:07:01.90	329.87	29.51	-23.1	-23.4	18.5	0.00e+00	0	44	0	3765436416	6	3726
2026-01-22 15:07:02.90	329.97	29.33	-23.1	-23.5	18.5	0.00e+00	0	44	0	3772776448	6	3748
2026-01-22 15:07:03.91	330.07	29.15	-23.1	-23.5	18.6	0.00e+00	0	44	0	3780116480	6	3746
2026-01-22 15:07:04.92	330.17	28.97	-23.2	-23.7	18.5	0.00e+00	0	44	0	3787456512	6	3783
2026-01-22 15:07:05.92	330.26	28.80	-23.2	-23.6	18.5	0.00e+00	0	44	0	3794796544	6	3769
2026-01-22 15:07:06.92	330.36	28.62	-23.3	-23.8	18.4	0.00e+00	0	44	0	3802136576	6	3819
2026-01-22 15:07:07.93	330.45	28.45	-23.2	-23.7	18.4	0.00e+00	0	44	0	3809476608	6	3790
2026-01-22 15:07:08.94	330.55	28.27	-23.3	-23.8	18.3	0.00e+00	0	44	0	3816816640	6	3830
2026-01-22 15:07:09.94	330.64	28.10	-23.5	-24.3	18.1	0.00e+00	0	44	0	3824156672	6	3927
2026-01-22 15:07:10.94	330.73	27.93	-23.4	-24.1	18.2	0.00e+00	0	44	0	3831496704	6	3890
2026-01-22 15:07:11.94	330.82	27.76	-23.4	-24.0	18.3	0.00e+00	0	44	0	3838836736	6	3852
2026-01-22 15:07:12.94	330.91	27.60	-23.4	-24.0	18.3	0.00e+00	0	44	0	3845128192	6	3854
2026-01-22 15:07:13.94	331.00	27.43	-23.4	-24.1	18.2	0.00e+00	0	44	0	3852468224	6	3892
2026-01-22 15:07:14.94	331.08	27.26	-23.4	-24.1	18.2	0.00e+00	0	44	0	3859808256	6	3890
2026-01-22 15:07:15.93	331.17	27.10	-23.4	-24.1	18.1	0.00e+00	0	44	0	3867148288	6	3892
2026-01-22 15:07:16.93	331.26	26.93	-23.4	-24.0	18.1	0.00e+00	0	44	0	3874488320	6	3876
2026-01-22 15:07:17.93	331.34	26.77	-23.5	-24.2	18.1	0.00e+00	0	44	0	3881828352	6	3911
2026-01-22 15:07:18.93	331.43	26.61	-23.3	-23.9	18.2	0.00e+00	0	44	0	3889168384	6	3847
2026-01-22 15:07:19.93	331.51	26.44	-23.4	-24.1	18.2	0.00e+00	0	44	0	3896508416	6	3893
2026-01-22 15:07:20.94	331.59	26.28	-23.6	-24.4	18.0	0.00e+00	0	44	0	3903848448	6	3963
2026-01-22 15:07:21.94	331.67	26.12	-23.6	-24.0	18.0	0.00e+00	0	44	0	3910139904	7	3750
2026-01-22 15:07:22.94	331.76	25.96	-23.7	-24.2	17.9	0.00e+00	0	44	0	3917479936	7	3798
2026-01-22 15:07:23.95	331.84	25.80	-23.5	-23.8	18.1	0.00e+00	0	44	0	3924819968	7	3719
2026-01-22 15:07:24.95	331.92	25.65	-23.4	-23.5	18.2	0.00e+00	0	44	0	3932160000	7	3650
2026-01-22 15:07:25.95	331.99	25.49	-23.4	-23.5	18.2	0.00e+00	0	44	0	3939500032	7	3651
2026-01-22 15:07:26.95	332.07	25.33	-23.3	-23.4	18.2	0.00e+00	0	44	0	3946840064	7	3624
2026-01-22 15:07:27.95	332.15	25.18	-23.6	-23.9	18.0	0.00e+00	0	44	0	3954180096	7	3746
2026-01-22 15:07:28.95	332.23	25.03	-23.3	-23.2	18.3	0.00e+00	0	44	0	3961520128	7	3593
2026-01-22 15:07:29.95	332.30	24.87	-23.1	-22.9	18.5	0.00e+00	0	44	0	3967811584	7	3509
2026-01-22 15:07:30.96	332.38	24.72	-23.0	-22.6	18.6	0.00e+00	0	44	0	3975151616	7	3459
2026-01-22 15:07:31.96	332.45	24.57	-23.0	-22.7	18.6	0.00e+00	0	44	0	3982491648	7	3469
2026-01-22 15:07:32.96	332.53	24.42	-23.0	-22.7	18.6	0.00e+00	0	44	0	3989831680	7	3465
2026-01-22 15:07:33.96	332.60	24.27	-23.0	-22.8	18.5	0.00e+00	0	44	0	3997171712	7	3492
2026-01-22 15:07:34.96	332.67	24.12	-23.0	-22.8	18.6	0.00e+00	0	44	0	4004511744	7	3492
2026-01-22 15:07:35.96	332.74	23.97	-23.1	-22.9	18.5	0.00e+00	0	44	0	4011851776	7	3529
2026-01-22 15:07:36.97	332.82	23.82	-23.1	-23.0	18.4	0.00e+00	0	44	0	4019191808	7	3539
2026-01-22 15:07:37.97	332.89	23.68	-23.2	-23.1	18.4	0.00e+00	0	44	0	4026531840	7	3571
2026-01-22 15:07:38.97	332.96	23.53	-23.3	-23.2	18.3	0.00e+00	0	44	0	4032823296	7	3596
2026-01-22 15:07:39.97	333.03	23.38	-23.3	-23.4	18.2	0.00e+00	0	44	0	4040163328	7	3630
2026-01-22 15:07:40.97	333.10	23.24	-23.4	-23.5	18.2	0.00e+00	0	44	0	4047503360	7	3649
2026-01-22 15:07:41.97	333.16	23.10	-23.5	-23.7	18.1	0.00e+00	0	44	0	4054843392	7	3687
2026-01-22 15:07:42.98	333.23	22.95	-23.4	-23.6	18.1	0.00e+00	0	44	0	4062183424	7	3679
2026-01-22 15:07:43.98	333.30	22.81	-23.6	-23.9	17.9	0.00e+00	0	44	0	4069523456	7	3739
2026-01-22 15:07:44.97	333.37	22.67	-23.6	-24.0	17.9	0.00e+00	0	44	0	4076863488	7	3756
2026-01-22 15:07:45.97	333.43	22.53	-23.7	-24.1	17.8	0.00e+00	0	44	0	4084203520	7	3795
2026-01-22 15:07:46.98	333.50	22.39	-23.6	-24.0	17.8	0.00e+00	0	44	0	4091543552	7	3771
2026-01-22 15:07:47.98	333.56	22.25	-23.8	-24.3	17.7	0.00e+00	0	44	0	4098883584	7	3830
2026-01-22 15:07:48.99	333.63	22.11	-23.7	-24.2	17.7	0.00e+00	0	44	0	4106223616	7	3816
2026-01-22 15:07:49.99	333.69	21.97	-23.8	-24.4	17.7	0.00e+00	0	44	0	4113563648	7	3853
2026-01-22 15:07:50.99	333.75	21.84	-23.9	-24.6	17.6	0.00e+00	0	44	0	4119855104	7	3899
2026-01-22 15:07:52.00	333.82	21.70	-23.9	-24.6	17.6	0.00e+00	0	44	0	4127195136	7	3895
2026-01-22 15:07:53.01	333.88	21.56	-24.0	-24.8	17.5	0.00e+00	0	44	0	4134535168	7	3942
2026-01-22 15:07:54.01	333.94	21.43	-24.1	-24.6	17.3	0.00e+00	0	44	0	4141875200	8	3796
2026-01-22 15:07:55.01	334.00	21.30	-24.1	-24.5	17.4	0.00e+00	0	44	0	4149215232	8	3766
2026-01-22 15:07:56.02	334.06	21.16	-24.0	-24.4	17.4	0.00e+00	0	44	0	4156555264	8	3754
2026-01-22 15:07:57.02	334.12	21.03	-24.2	-24.7	17.2	0.00e+00	0	44	0	4163895296	8	3831
2026-01-22 15:07:58.02	334.18	20.90	-24.0	-24.4	17.4	0.00e+00	0	44	0	4171235328	8	3754
2026-01-22 15:07:59.03	334.24	20.76	-24.1	-24.5	17.3	0.00e+00	0	44	0	4178575360	8	3765
2026-01-22 15:08:00.03	334.30	20.63	-24.2	-24.7	17.2	1.10e-06	0	44	0	4185915392	8	3829
2026-01-22 15:08:01.03	334.36	20.50	-24.1	-24.5	17.3	0.00e+00	0	44	0	4193255424	8	3781
2026-01-22 15:08:02.04	334.42	20.37	-24.4	-25.1	17.0	0.00e+00	0	44	0	4199546880	8	3908
2026-01-22 15:08:03.04	334.48	20.24	-24.1	-24.5	17.3	2.20e-06	0	44	0	4206886912	8	3779
2026-01-22 15:08:04.04	334.53	20.12	-24.0	-24.3	17.4	0.00e+00	0	44	0	4214226944	8	3726
2026-01-22 15:08:05.04	334.59	19.99	-24.0	-24.2	17.4	0.00e+00	0	44	0	4221566976	8	3714
2026-01-22 15:08:06.03	334.65	19.86	-24.0	-24.3	17.4	0.00e+00	0	44	0	4228907008	8	3734
2026-01-22 15:08:07.04	334.70	19.74	-24.2	-24.7	17.2	5.70e-06	0	44	0	4236247040	8	3825
2026-01-22 15:08:08.04	334.76	19.61	-24.1	-24.5	17.2	0.00e+00	0	44	0	4243587072	8	3779
2026-01-22 15:08:09.04	334.81	19.49	-24.1	-24.6	17.3	0.00e+00	0	44	0	4250927104	8	3800
2026-01-22 15:08:10.04	334.87	19.36	-24.1	-24.5	17.3	0.00e+00	0	44	0	4258267136	8	3784
2026-01-22 15:08:11.05	334.92	19.24	-24.2	-24.7	17.2	0.00e+00	0	44	0	4264558592	8	3817
2026-01-22 15:08:12.05	334.98	19.11	-24.1	-24.6	17.2	0.00e+00	0	44	0	4271898624	8	3799
2026-01-22 15:08:13.06	335.03	18.99	-24.2	-24.7	17.2	0.00e+00	0	44	0	4279238656	8	3810
2026-01-22 15:08:14.05	335.08	18.87	-24.2	-24.7	17.2	0.00e+00	0	44	0	4286578688	8	3815
2026-01-22 15:08:15.06	335.13	18.75	-24.4	-25.1	17.0	0.00e+00	0	44	0	4293918720	8	3906
2026-01-22 15:08:16.06	335.19	18.63	-24.2	-24.8	17.1	0.00e+00	0	44	0	4301258752	8	3851
2026-01-22 15:08:17.07	335.24	18.50	-24.2	-24.7	17.2	0.00e+00	0	44	0	4308598784	8	3817
2026-01-22 15:08:18.08	335.29	18.38	-24.3	-24.9	17.0	1.10e-06	0	44	0	4315938816	8	3867
2026-01-22 15:08:19.09	335.34	18.26	-24.2	-24.8	17.0	0.00e+00	0	44	0	4323278848	8	3856
2026-01-22 15:08:20.08	335.39	18.15	-24.4	-25.1	17.0	1.10e-06	0	44	0	4330618880	8	3916
2026-01-22 15:08:21.09	335.44	18.03	-24.5	-25.4	16.8	0.00e+00	0	44	0	4337958912	8	3980
2026-01-22 15:08:22.09	335.49	17.91	-24.6	-25.5	16.7	0.00e+00	0	44	0	4344250368	8	4016
2026-01-22 15:08:23.10	335.54	17.79	-24.7	-25.3	16.6	0.00e+00	0	44	0	4351590400	9	3866
2026-01-22 15:08:24.10	335.59	17.68	-24.7	-25.4	16.5	0.00e+00	0	44	0	4358930432	9	3877
2026-01-22 15:08:25.10	335.64	17.56	-24.6	-25.1	16.6	0.00e+00	0	44	0	4366270464	9	3817
2026-01-22 15:08:26.10	335.69	17.44	-24.6	-25.0	16.7	0.00e+00	0	44	0	4373610496	9	3799
2026-01-22 15:08:27.10	335.74	17.33	-24.6	-25.2	16.6	0.00e+00	0	44	0	4380950528	9	3832
2026-01-22 15:08:28.11	335.79	17.21	-24.6	-25.1	16.6	0.00e+00	0	44	0	4388290560	9	3822
2026-01-22 15:08:29.11	335.83	17.10	-24.8	-25.5	16.4	0.00e+00	0	44	0	4395630592	9	3920
2026-01-22 15:08:30.11	335.88	16.99	-24.7	-25.3	16.5	0.00e+00	0	44	0	4402970624	9	3852
2026-01-22 15:08:31.11	335.93	16.87	-24.6	-25.1	16.6	1.10e-06	0	44	0	4409262080	9	3807
2026-01-22 15:08:32.12	335.98	16.76	-24.7	-25.4	16.5	0.00e+00	0	44	0	4417650688	9	3879
2026-01-22 15:08:33.12	336.02	16.65	-24.9	-25.6	16.3	0.00e+00	0	44	0	4424990720	9	3935
2026-01-22 15:08:34.12	336.07	16.54	-24.7	-25.4	16.5	0.00e+00	0	44	0	4431282176	9	3875
2026-01-22 15:08:35.13	336.11	16.43	-24.7	-25.3	16.5	0.00e+00	0	44	0	4438622208	9	3872
2026-01-22 15:08:36.13	336.16	16.32	-24.7	-25.4	16.5	0.00e+00	0	44	0	4445962240	9	3880
2026-01-22 15:08:37.13	336.20	16.21	-24.7	-25.4	16.4	0.00e+00	0	44	0	4453302272	9	3878
2026-01-22 15:08:38.13	336.25	16.10	-24.8	-25.6	16.3	0.00e+00	0	44	0	4460642304	9	3935
2026-01-22 15:08:39.14	336.29	15.99	-24.8	-25.4	16.4	0.00e+00	0	44	0	4467982336	9	3890
2026-01-22 15:08:40.13	336.34	15.88	-24.8	-25.5	16.4	0.00e+00	0	44	0	4475322368	9	3918
2026-01-22 15:08:41.14	336.38	15.77	-24.8	-25.5	16.4	0.00e+00	0	44	0	4482662400	9	3897
2026-01-22 15:08:42.15	336.43	15.66	-24.9	-25.7	16.2	0.00e+00	0	44	0	4490002432	9	3950
2026-01-22 15:08:43.16	336.47	15.56	-24.8	-25.5	16.3	1.10e-06	0	44	0	4496293888	9	3915
2026-01-22 15:08:44.16	336.51	15.45	-24.9	-25.7	16.2	0.00e+00	0	44	0	4503633920	9	3947
2026-01-22 15:08:45.17	336.56	15.34	-24.8	-25.5	16.4	0.00e+00	0	44	0	4512022528	9	3896
2026-01-22 15:08:46.17	336.60	15.24	-24.8	-25.5	16.3	0.00e+00	0	44	0	4518313984	9	3906
2026-01-22 15:08:47.18	336.64	15.13	-24.8	-25.5	16.3	0.00e+00	0	44	0	4525654016	9	3917
2026-01-22 15:08:48.18	336.68	15.03	-24.8	-25.6	16.2	0.00e+00	0	44	0	4532994048	9	3944
2026-01-22 15:08:49.18	336.72	14.92	-24.8	-25.6	16.3	0.00e+00	0	44	0	4540334080	9	3941
2026-01-22 15:08:50.18	336.77	14.82	-24.9	-25.8	16.1	0.00e+00	0	44	0	4547674112	9	3992
2026-01-22 15:08:51.19	336.81	14.71	-24.9	-25.7	16.2	0.00e+00	0	44	0	4555014144	9	3957
2026-01-22 15:08:52.19	336.85	14.61	-25.0	-25.9	16.1	0.00e+00	0	44	0	4562354176	9	4001
2026-01-22 15:08:53.19	336.89	14.51	-24.9	-25.7	16.2	1.10e-06	0	44	0	4569694208	9	3947
2026-01-22 15:08:54.19	336.93	14.41	-24.9	-25.8	16.1	0.00e+00	0	44	0	4575985664	9	3991
2026-01-22 15:08:55.19	336.97	14.31	-24.9	-25.8	16.1	0.00e+00	0	44	0	4583325696	9	3985
2026-01-22 15:08:56.19	337.01	14.20	-25.1	-26.1	16.0	0.00e+00	0	44	0	4590665728	9	4052
2026-01-22 15:08:57.19	337.05	14.10	-25.0	-25.9	16.1	0.00e+00	0	44	0	4598005760	9	4008
2026-01-22 15:08:58.20	337.09	14.00	-25.0	-26.0	16.0	0.00e+00	0	44	0	4605345792	9	4027
2026-01-22 15:08:59.21	337.13	13.90	-25.0	-26.1	16.0	0.00e+00	0	44	0	4612685824	9	4053
2026-01-22 15:09:00.21	337.17	13.80	-25.1	-25.7	15.9	0.00e+00	0	44	0	4620025856	10	3862
2026-01-22 15:09:01.21	337.21	13.70	-25.3	-26.0	15.8	0.00e+00	0	44	0	4627365888	10	3923
2026-01-22 15:09:02.21	337.24	13.60	-25.2	-25.9	15.8	0.00e+00	0	44	0	4634705920	10	3906
2026-01-22 15:09:03.21	337.28	13.51	-25.2	-26.0	15.7	0.00e+00	0	44	0	4640997376	10	3930
2026-01-22 15:09:04.21	337.32	13.41	-25.2	-26.0	15.7	0.00e+00	0	44	0	4648337408	10	3925
2026-01-22 15:09:05.21	337.36	13.31	-25.3	-26.2	15.6	0.00e+00	0	44	0	4655677440	10	3977
2026-01-22 15:09:06.21	337.40	13.21	-25.3	-26.1	15.6	0.00e+00	0	44	0	4663017472	10	3962
2026-01-22 15:09:07.22	337.43	13.11	-25.5	-26.5	15.5	0.00e+00	0	44	0	4670357504	10	4051
2026-01-22 15:09:08.22	337.47	13.02	-25.6	-26.4	15.2	0.00e+00	0	44	0	4677697536	11	3916
2026-01-22 15:09:09.22	337.51	12.92	-25.7	-26.5	15.2	0.00e+00	0	44	0	4685037568	11	3941
2026-01-22 15:09:10.22	337.54	12.83	-25.8	-26.8	15.0	0.00e+00	0	44	0	4692377600	11	4014
2026-01-22 15:09:11.22	337.58	12.73	-25.8	-26.8	15.0	1.10e-06	0	44	0	4699717632	11	4018
2026-01-22 15:09:12.22	337.62	12.64	-25.8	-26.8	15.0	0.00e+00	0	44	0	4707057664	11	4030
2026-01-22 15:09:13.22	337.65	12.54	-25.8	-26.7	15.0	0.00e+00	0	44	0	4714397696	11	4001
2026-01-22 15:09:14.23	337.69	12.45	-25.9	-26.9	14.9	0.00e+00	0	44	0	4720689152	11	4046
2026-01-22 15:09:15.23	337.73	12.35	-26.0	-27.1	14.8	0.00e+00	0	44	0	4728029184	11	4101
2026-01-22 15:09:16.23	337.76	12.26	-25.8	-26.7	15.0	0.00e+00	0	44	0	4735369216	11	4009
2026-01-22 15:09:17.23	337.80	12.17	-25.8	-26.7	15.0	0.00e+00	0	44	0	4742709248	11	3997
2026-01-22 15:09:18.24	337.83	12.07	-25.8	-26.7	15.0	0.00e+00	0	44	0	4750049280	11	4013
2026-01-22 15:09:19.25	337.87	11.98	-25.8	-26.7	15.0	0.00e+00	0	44	0	4757389312	11	4005
2026-01-22 15:09:20.24	337.90	11.89	-25.8	-26.8	14.9	1.10e-06	0	44	0	4764729344	11	4037
2026-01-22 15:09:21.24	337.94	11.80	-25.8	-26.9	14.9	0.00e+00	0	44	0	4772069376	11	4043
2026-01-22 15:09:22.25	337.97	11.70	-25.9	-26.9	14.9	0.00e+00	0	44	0	4779409408	11	4054
2026-01-22 15:09:23.26	338.00	11.61	-25.9	-27.0	14.8	0.00e+00	0	44	0	4785700864	11	4077
2026-01-22 15:09:24.25	338.04	11.52	-26.0	-27.1	14.7	2.20e-06	0	44	0	4793040896	11	4117
2026-01-22 15:09:25.26	338.07	11.43	-26.0	-27.1	14.8	1.10e-06	0	44	0	4800380928	11	4105
2026-01-22 15:09:26.26	338.11	11.34	-26.0	-26.7	14.6	1.10e-06	0	44	0	4807720960	12	3914
2026-01-22 15:09:27.27	338.14	11.25	-26.0	-26.6	14.6	0.00e+00	0	44	0	4815060992	12	3887
2026-01-22 15:09:28.27	338.17	11.16	-25.9	-26.6	14.7	0.00e+00	0	44	0	4822401024	12	3866
2026-01-22 15:09:29.27	338.21	11.07	-26.0	-26.7	14.6	0.00e+00	0	44	0	4829741056	12	3904
2026-01-22 15:09:30.27	338.24	10.98	-26.0	-26.8	14.5	2.20e-06	0	44	0	4837081088	12	3921
2026-01-22 15:09:31.28	338.27	10.89	-26.0	-26.7	14.6	0.00e+00	0	44	0	4844421120	12	3903
2026-01-22 15:09:32.29	338.31	10.80	-26.1	-27.0	14.4	1.10e-06	0	44	0	4851761152	12	3978
2026-01-22 15:09:33.29	338.34	10.72	-26.2	-27.2	14.2	3.40e-06	0	44	0	4859101184	12	4046
2026-01-22 15:09:34.30	338.37	10.63	-26.0	-26.8	14.5	0.00e+00	0	44	0	4866441216	12	3934
2026-01-22 15:09:35.31	338.40	10.54	-26.0	-26.7	14.5	1.10e-06	0	44	0	4872732672	12	3908
2026-01-22 15:09:36.31	338.43	10.45	-26.0	-26.7	14.5	0.00e+00	0	44	0	4880072704	12	3917
2026-01-22 15:09:37.32	338.47	10.36	-26.1	-26.9	14.4	1.10e-06	0	44	0	4888461312	12	3959
2026-01-22 15:09:38.32	338.50	10.28	-26.1	-27.0	14.3	0.00e+00	0	44	0	4894752768	12	3993
2026-01-22 15:09:39.32	338.53	10.19	-26.1	-26.9	14.4	1.10e-06	0	44	0	4902092800	12	3951
2026-01-22 15:09:40.33	338.56	10.10	-26.0	-26.7	14.5	1.10e-06	0	44	0	4909432832	12	3896
2026-01-22 15:09:41.33	338.59	10.02	-26.1	-27.0	14.3	1.10e-06	0	44	0	4916772864	12	3969
2026-01-22 15:09:42.34	338.62	9.93	-26.1	-26.9	14.4	0.00e+00	0	44	0	4924112896	12	3964
2026-01-22 15:09:43.34	338.65	9.85	-26.1	-27.0	14.3	1.10e-06	0	44	0	4931452928	12	3974
2026-01-22 15:09:44.34	338.69	9.76	-26.1	-27.0	14.3	2.20e-06	0	44	0	4938792960	12	3972
