passes_logs/2026/01/22/R2M6_AANII_01/R2M6_AANII_01__20260122_235523_NOAA_21_JPSS-2_rec.log

#Pass ID: 20260122_235523_NOAA 21 (JPSS-2)
#Satellite: NOAA 21 (JPSS-2)
#Configuration: NOAA 21
#almurnet v.1.7.20240730
#Start time: 2026-01-22 23:55:23

#Version: 2.2.20231116
#Station: R2M6_AANII_01
#Location: 30.233357 lon 59.946436 lat
#TLE: 1 54234U 22150A   26022.41365820  .00000211  00000+0  12084-3 0  9990
#TLE: 2 54234  98.7507 323.2240 0000658 234.5287 125.5828 14.19537645165864

#Time	Az	El	Level	Level2	SNR	BER	BlckErr	Temp	State	Recorded	gain1	gain2
2026-01-22 23:55:23.15	20.42	6.96	-29.8	-33.8	4.8	1.38e+00	0	41	0	0	20	5710
2026-01-22 23:55:24.15	20.44	7.04	-30.0	-34.5	4.7	1.40e+00	0	41	104	0	20	6011
2026-01-22 23:55:25.16	20.47	7.12	-30.0	-33.7	9.5	1.78e-02	0	41	0	0	20	5484
2026-01-22 23:55:26.16	20.50	7.19	-30.0	-33.6	9.5	1.31e-02	0	41	0	3145728	20	5435
2026-01-22 23:55:27.17	20.52	7.27	-30.2	-34.2	9.1	2.20e-02	0	41	0	6291456	20	5693
2026-01-22 23:55:28.17	20.55	7.35	-30.1	-33.8	9.5	2.00e-02	0	41	0	9437184	20	5522
2026-01-22 23:55:29.17	20.58	7.42	-30.2	-34.2	9.1	1.87e-02	0	42	0	12582912	20	5712
2026-01-22 23:55:30.17	20.61	7.50	-30.0	-33.5	9.7	1.43e-02	0	42	0	15728640	20	5392
2026-01-22 23:55:31.18	20.64	7.58	-29.8	-33.3	10.2	7.05e-03	0	41	0	18874368	19	5427
2026-01-22 23:55:32.18	20.66	7.66	-29.6	-32.7	10.7	3.68e-03	0	42	0	22020096	19	5167
2026-01-22 23:55:33.19	20.69	7.73	-29.8	-33.4	10.2	9.07e-03	0	42	0	24117248	19	5425
2026-01-22 23:55:34.19	20.72	7.81	-29.6	-32.8	10.6	4.62e-03	0	42	0	27262976	19	5220
2026-01-22 23:55:35.20	20.75	7.89	-29.8	-33.4	10.2	5.24e-03	0	42	0	30408704	19	5436
2026-01-22 23:55:36.21	20.78	7.97	-29.5	-32.5	10.8	3.27e-03	0	42	0	34603008	19	5107
2026-01-22 23:55:37.21	20.81	8.05	-29.3	-32.4	11.3	5.26e-03	0	42	0	37748736	18	5142
2026-01-22 23:55:38.22	20.83	8.13	-29.1	-32.0	11.5	1.04e-03	0	42	0	40894464	18	5017
2026-01-22 23:55:39.22	20.86	8.21	-29.3	-32.4	11.3	4.99e-03	0	42	0	44040192	18	5152
2026-01-22 23:55:40.22	20.89	8.29	-29.5	-32.5	10.8	6.23e-03	0	42	0	47185920	19	5088
2026-01-22 23:55:41.22	20.92	8.37	-29.3	-31.9	11.3	1.46e-03	0	42	0	49283072	19	4864
2026-01-22 23:55:42.23	20.95	8.45	-29.2	-32.1	11.5	4.30e-03	0	42	0	52428800	18	5031
2026-01-22 23:55:43.24	20.98	8.53	-29.2	-32.1	11.5	4.29e-03	0	42	0	55574528	18	5021
2026-01-22 23:55:44.25	21.01	8.61	-29.1	-31.9	11.6	6.38e-04	0	42	0	58720256	18	4989
2026-01-22 23:55:45.25	21.04	8.69	-29.3	-32.4	11.3	4.66e-03	0	42	0	61865984	18	5135
2026-01-22 23:55:46.25	21.07	8.77	-29.2	-32.1	11.5	1.52e-03	0	42	0	65011712	18	5032
2026-01-22 23:55:47.25	21.10	8.85	-29.4	-32.7	11.1	1.16e-03	0	42	0	69206016	18	5259
2026-01-22 23:55:48.25	21.13	8.93	-29.1	-31.8	11.7	4.15e-03	0	42	0	71303168	18	4942
2026-01-22 23:55:49.26	21.16	9.02	-28.8	-31.6	12.2	3.39e-03	0	42	0	74448896	17	4955
2026-01-22 23:55:50.26	21.19	9.10	-28.5	-31.0	12.5	1.26e-04	0	42	0	77594624	17	4752
2026-01-22 23:55:51.26	21.22	9.18	-28.4	-30.5	12.9	7.24e-05	0	42	0	80740352	17	4599
2026-01-22 23:55:52.26	21.25	9.26	-28.4	-31.0	12.9	3.38e-03	0	42	0	83886080	16	4872
2026-01-22 23:55:53.27	21.28	9.35	-28.3	-30.7	13.0	4.42e-05	0	42	0	87031808	16	4789
2026-01-22 23:55:54.28	21.31	9.43	-28.2	-30.6	13.1	3.39e-03	0	42	0	90177536	16	4753
2026-01-22 23:55:55.28	21.34	9.51	-28.1	-30.4	13.2	3.29e-03	0	42	0	93323264	16	4688
2026-01-22 23:55:56.29	21.38	9.60	-28.0	-30.2	13.4	1.60e-05	0	42	0	96468992	16	4599
2026-01-22 23:55:57.29	21.41	9.68	-28.1	-30.2	13.4	1.29e-05	0	42	0	99614720	16	4620
2026-01-22 23:55:58.30	21.44	9.77	-27.9	-30.4	13.4	3.30e-03	0	42	0	102760448	15	4801
2026-01-22 23:55:59.30	21.47	9.85	-27.8	-30.2	13.5	1.90e-05	0	42	0	105906176	15	4726
2026-01-22 23:56:00.31	21.50	9.94	-27.9	-30.3	13.5	3.34e-03	0	42	0	109051904	15	4772
2026-01-22 23:56:01.32	21.53	10.02	-27.9	-30.3	13.5	1.06e-05	0	42	0	112197632	15	4751
2026-01-22 23:56:02.32	21.57	10.11	-27.8	-30.2	13.6	9.10e-06	0	42	0	115343360	15	4719
2026-01-22 23:56:03.33	21.60	10.19	-27.7	-30.0	13.7	1.29e-05	0	42	0	118489088	15	4652
2026-01-22 23:56:04.33	21.63	10.28	-27.7	-29.9	13.7	3.70e-03	0	43	0	121634816	15	4642
2026-01-22 23:56:05.33	21.66	10.37	-27.8	-30.0	13.7	6.48e-05	0	43	0	124780544	15	4676
2026-01-22 23:56:06.33	21.70	10.45	-27.7	-29.8	13.8	3.80e-06	0	42	0	127926272	15	4602
2026-01-22 23:56:07.34	21.73	10.54	-27.6	-29.7	13.9	2.20e-06	0	42	0	131072000	15	4573
2026-01-22 23:56:08.34	21.76	10.63	-27.7	-29.8	13.8	1.50e-06	0	43	0	134217728	15	4607
2026-01-22 23:56:09.34	21.80	10.71	-27.7	-29.9	13.8	6.10e-06	0	43	0	137363456	15	4623
2026-01-22 23:56:10.35	21.83	10.80	-27.8	-30.1	13.7	3.00e-06	0	43	0	140509184	15	4696
2026-01-22 23:56:11.35	21.86	10.89	-27.8	-30.1	13.7	7.60e-06	0	43	0	143654912	15	4687
2026-01-22 23:56:12.36	21.90	10.98	-27.8	-30.0	13.7	4.50e-06	0	43	0	146800640	15	4664
2026-01-22 23:56:13.37	21.93	11.07	-27.8	-30.1	13.7	3.80e-06	0	43	0	149946368	15	4687
2026-01-22 23:56:14.37	21.97	11.16	-27.7	-29.8	13.9	1.50e-06	0	43	0	153092096	15	4591
2026-01-22 23:56:15.38	22.00	11.25	-27.8	-30.0	13.7	3.80e-06	0	43	0	156237824	15	4671
2026-01-22 23:56:16.38	22.04	11.34	-27.8	-30.1	13.8	3.80e-06	0	43	0	159383552	15	4679
2026-01-22 23:56:17.38	22.07	11.43	-27.8	-30.2	13.7	9.90e-06	0	43	0	162529280	15	4711
2026-01-22 23:56:18.38	22.11	11.52	-27.7	-29.7	13.9	3.00e-06	0	43	0	165675008	15	4582
2026-01-22 23:56:19.38	22.14	11.61	-27.6	-29.6	14.1	6.10e-06	0	43	0	168820736	15	4521
2026-01-22 23:56:20.39	22.18	11.70	-27.5	-29.4	14.1	1.50e-06	0	43	0	171966464	15	4488
2026-01-22 23:56:21.38	22.21	11.79	-27.6	-29.5	14.1	0.00e+00	0	43	0	175112192	15	4509
2026-01-22 23:56:22.39	22.25	11.88	-27.5	-29.4	14.1	1.50e-06	0	43	0	178257920	15	4483
2026-01-22 23:56:23.39	22.28	11.97	-27.4	-29.2	14.3	0.00e+00	0	43	0	181403648	15	4405
2026-01-22 23:56:24.39	22.32	12.07	-27.5	-29.3	14.2	7.00e-07	0	43	0	184549376	15	4430
2026-01-22 23:56:25.39	22.36	12.16	-27.4	-29.6	14.3	7.00e-07	0	43	0	187695104	14	4650
2026-01-22 23:56:26.39	22.39	12.25	-27.4	-29.6	14.3	0.00e+00	0	43	0	190840832	14	4658
2026-01-22 23:56:27.39	22.43	12.34	-27.4	-29.6	14.4	7.00e-07	0	43	0	193986560	14	4649
2026-01-22 23:56:28.40	22.47	12.44	-27.3	-29.3	14.5	1.50e-06	0	43	0	197132288	14	4555
2026-01-22 23:56:29.40	22.50	12.53	-27.2	-29.3	14.6	0.00e+00	0	43	0	200278016	14	4542
2026-01-22 23:56:30.41	22.54	12.63	-27.3	-29.5	14.4	0.00e+00	0	43	0	203423744	14	4615
2026-01-22 23:56:31.41	22.58	12.72	-27.4	-29.6	14.4	7.00e-07	0	43	0	206569472	14	4627
2026-01-22 23:56:32.42	22.62	12.82	-27.2	-29.2	14.6	2.20e-06	0	43	0	209715200	14	4529
2026-01-22 23:56:33.42	22.66	12.91	-27.2	-29.1	14.7	7.00e-07	0	43	0	212860928	14	4489
2026-01-22 23:56:34.42	22.69	13.01	-27.2	-29.2	14.6	7.00e-07	0	43	0	216006656	14	4518
2026-01-22 23:56:35.42	22.73	13.11	-27.2	-29.2	14.6	0.00e+00	0	43	0	219152384	14	4517
2026-01-22 23:56:36.43	22.77	13.20	-27.2	-29.1	14.7	7.00e-07	0	43	0	222298112	14	4505
2026-01-22 23:56:37.43	22.81	13.30	-27.3	-29.5	14.4	1.50e-06	0	43	0	225443840	14	4610
2026-01-22 23:56:38.43	22.85	13.40	-27.4	-29.7	14.3	0.00e+00	0	43	0	228589568	14	4669
2026-01-22 23:56:39.43	22.89	13.50	-27.2	-29.1	14.7	0.00e+00	0	43	0	231735296	14	4504
2026-01-22 23:56:40.44	22.93	13.59	-27.1	-29.0	14.8	7.00e-07	0	43	0	234881024	14	4473
2026-01-22 23:56:41.44	22.97	13.69	-27.2	-29.1	14.7	7.00e-07	0	43	0	238026752	14	4497
2026-01-22 23:56:42.45	23.01	13.79	-27.2	-29.1	14.7	0.00e+00	0	43	0	241172480	14	4482
2026-01-22 23:56:43.45	23.05	13.89	-27.2	-29.0	14.7	0.00e+00	0	43	0	244318208	14	4474
2026-01-22 23:56:44.46	23.09	13.99	-27.1	-29.0	14.8	0.00e+00	0	43	0	247463936	14	4447
2026-01-22 23:56:45.47	23.13	14.09	-27.1	-29.0	14.8	0.00e+00	0	43	0	250609664	14	4459
2026-01-22 23:56:46.48	23.17	14.19	-27.0	-28.7	15.0	7.00e-07	0	43	0	253755392	14	4361
2026-01-22 23:56:47.47	23.21	14.29	-26.9	-28.5	15.1	0.00e+00	0	43	0	256901120	14	4329
2026-01-22 23:56:48.48	23.26	14.40	-26.9	-29.0	15.1	0.00e+00	0	43	0	260046848	13	4579
2026-01-22 23:56:49.48	23.30	14.50	-26.9	-28.9	15.1	0.00e+00	0	43	0	263192576	13	4540
2026-01-22 23:56:50.48	23.34	14.60	-27.0	-29.1	15.0	0.00e+00	0	43	0	266338304	13	4602
2026-01-22 23:56:51.48	23.38	14.70	-27.2	-29.1	14.8	0.00e+00	0	43	0	269484032	14	4477
2026-01-22 23:56:52.49	23.42	14.81	-27.2	-29.2	14.7	7.00e-07	0	43	0	272629760	14	4505
2026-01-22 23:56:53.49	23.47	14.91	-27.0	-28.7	15.0	0.00e+00	0	43	0	275775488	14	4370
2026-01-22 23:56:54.49	23.51	15.01	-27.0	-28.6	15.0	0.00e+00	0	43	0	278921216	14	4345
2026-01-22 23:56:55.50	23.55	15.12	-26.9	-29.0	15.1	0.00e+00	0	43	0	282066944	13	4589
2026-01-22 23:56:56.50	23.60	15.22	-27.1	-28.8	14.9	0.00e+00	0	43	0	285212672	14	4407
2026-01-22 23:56:57.50	23.64	15.33	-27.2	-29.0	13.7	7.00e-07	0	43	0	288358400	14	4466
2026-01-22 23:56:58.50	23.69	15.43	-27.2	-29.1	14.7	0.00e+00	0	43	0	291504128	14	4501
2026-01-22 23:56:59.50	23.73	15.54	-27.1	-29.0	14.9	0.00e+00	0	43	0	294649856	14	4452
2026-01-22 23:57:00.51	23.77	15.65	-27.1	-28.8	15.0	7.00e-07	0	43	0	297795584	14	4397
2026-01-22 23:57:01.52	23.82	15.76	-27.1	-28.9	14.9	0.00e+00	0	43	0	300941312	14	4422
2026-01-22 23:57:02.52	23.87	15.86	-27.1	-28.8	15.0	7.00e-07	0	43	0	304087040	14	4410
2026-01-22 23:57:03.53	23.91	15.97	-27.0	-28.7	15.1	0.00e+00	0	43	0	307232768	14	4358
2026-01-22 23:57:04.53	23.96	16.08	-27.2	-29.0	14.9	0.00e+00	0	43	0	310378496	14	4465
2026-01-22 23:57:05.53	24.00	16.19	-27.2	-29.1	14.8	0.00e+00	0	43	0	313524224	14	4493
2026-01-22 23:57:06.53	24.05	16.30	-27.0	-28.7	15.1	3.36e-03	0	43	0	316669952	14	4366
2026-01-22 23:57:07.54	24.10	16.41	-27.0	-28.6	15.2	0.00e+00	0	43	0	319815680	14	4331
2026-01-22 23:57:08.54	24.14	16.52	-27.0	-28.7	15.1	0.00e+00	0	43	0	322961408	14	4382
2026-01-22 23:57:09.54	24.19	16.63	-27.1	-28.8	15.0	0.00e+00	0	43	0	326107136	14	4392
2026-01-22 23:57:10.55	24.24	16.74	-27.1	-28.8	15.0	0.00e+00	0	43	0	329252864	14	4392
2026-01-22 23:57:11.55	24.29	16.85	-27.1	-28.9	15.0	3.08e-03	0	43	0	332398592	14	4412
2026-01-22 23:57:12.56	24.34	16.97	-27.2	-29.0	14.9	3.16e-03	0	43	0	335544320	14	4463
2026-01-22 23:57:13.57	24.39	17.08	-27.3	-29.3	14.8	0.00e+00	0	43	0	338690048	14	4530
2026-01-22 23:57:14.57	24.44	17.19	-27.3	-29.3	14.8	7.00e-07	0	43	0	341835776	14	4543
2026-01-22 23:57:15.58	24.49	17.31	-27.3	-29.4	14.7	7.00e-07	0	43	0	344981504	14	4574
2026-01-22 23:57:16.58	24.54	17.42	-27.5	-29.7	14.6	0.00e+00	0	43	0	348127232	14	4652
2026-01-22 23:57:17.59	24.59	17.54	-27.6	-29.6	14.3	2.03e-03	0	43	0	351272960	15	4524
2026-01-22 23:57:18.60	24.64	17.65	-27.7	-29.7	14.3	1.83e-03	0	43	0	354418688	15	4537
2026-01-22 23:57:19.60	24.69	17.77	-27.4	-29.1	14.6	0.00e+00	0	43	0	357564416	15	4386
2026-01-22 23:57:20.60	24.74	17.89	-27.4	-29.7	14.6	1.60e-03	0	43	0	360710144	14	4652
2026-01-22 23:57:21.60	24.79	18.00	-27.4	-29.7	14.6	1.47e-03	0	43	0	363855872	14	4651
2026-01-22 23:57:22.61	24.84	18.12	-27.4	-29.6	14.7	0.00e+00	0	43	0	367001600	14	4624
2026-01-22 23:57:23.61	24.90	18.24	-27.4	-29.6	14.6	5.80e-04	0	43	0	370147328	14	4621
2026-01-22 23:57:24.62	24.95	18.36	-27.5	-29.7	14.6	4.07e-04	0	43	0	373293056	14	4667
2026-01-22 23:57:25.62	25.00	18.48	-27.6	-29.6	14.3	7.00e-07	0	44	0	376438784	15	4523
2026-01-22 23:57:26.63	25.06	18.60	-27.7	-29.7	14.3	3.86e-04	0	43	0	379584512	15	4537
2026-01-22 23:57:27.63	25.11	18.72	-27.4	-29.1	14.6	4.22e-04	0	44	0	382730240	15	4378
2026-01-22 23:57:28.64	25.16	18.84	-27.4	-29.0	14.7	0.00e+00	0	44	0	385875968	15	4340
2026-01-22 23:57:29.65	25.22	18.96	-27.4	-29.1	14.7	3.75e-04	0	43	0	389021696	15	4363
2026-01-22 23:57:30.65	25.27	19.08	-27.4	-29.0	14.7	0.00e+00	0	43	0	392167424	15	4336
2026-01-22 23:57:31.65	25.33	19.21	-27.4	-29.1	14.7	0.00e+00	0	43	0	395313152	15	4359
2026-01-22 23:57:32.65	25.39	19.33	-27.4	-29.0	14.7	4.08e-04	0	43	0	397410304	15	4329
2026-01-22 23:57:33.64	25.44	19.45	-27.3	-28.7	14.9	4.61e-04	0	43	0	400556032	15	4258
2026-01-22 23:57:34.65	25.50	19.58	-27.3	-28.9	14.8	0.00e+00	0	43	0	403701760	15	4300
2026-01-22 23:57:35.65	25.56	19.70	-27.4	-29.1	14.7	0.00e+00	0	44	0	407896064	15	4376
2026-01-22 23:57:36.66	25.61	19.83	-27.3	-28.8	14.8	0.00e+00	0	43	0	411041792	15	4294
2026-01-22 23:57:37.66	25.67	19.96	-27.2	-28.5	15.0	0.00e+00	0	43	0	414187520	15	4205
2026-01-22 23:57:38.66	25.73	20.08	-27.2	-29.2	14.9	1.28e-03	0	44	0	417333248	14	4500
2026-01-22 23:57:39.67	25.79	20.21	-27.1	-28.9	15.1	0.00e+00	0	44	0	419430400	14	4423
2026-01-22 23:57:40.68	25.85	20.34	-26.9	-28.3	15.4	0.00e+00	0	43	0	422576128	14	4262
2026-01-22 23:57:41.67	25.91	20.47	-26.7	-28.5	15.6	0.00e+00	0	44	0	425721856	13	4430
2026-01-22 23:57:42.67	25.97	20.60	-26.7	-28.5	15.6	0.00e+00	0	43	0	428867584	13	4403
2026-01-22 23:57:43.67	26.03	20.73	-26.6	-28.2	15.8	0.00e+00	0	44	0	432013312	13	4330
2026-01-22 23:57:44.67	26.09	20.86	-26.5	-27.9	15.9	0.00e+00	0	43	0	435159040	13	4252
2026-01-22 23:57:45.68	26.15	20.99	-26.5	-28.1	15.8	0.00e+00	0	43	0	438304768	13	4302
2026-01-22 23:57:46.69	26.22	21.12	-26.4	-27.8	16.0	0.00e+00	0	44	0	441450496	13	4218
2026-01-22 23:57:47.69	26.28	21.25	-26.3	-28.0	16.2	0.00e+00	0	44	0	444596224	12	4376
2026-01-22 23:57:48.69	26.34	21.39	-26.2	-27.8	16.3	0.00e+00	0	44	0	447741952	12	4334
2026-01-22 23:57:49.69	26.41	21.52	-26.2	-27.7	16.3	0.00e+00	0	43	0	450887680	12	4305
2026-01-22 23:57:50.70	26.47	21.66	-26.1	-27.6	16.3	0.00e+00	0	44	0	454033408	12	4279
2026-01-22 23:57:51.70	26.54	21.79	-26.1	-27.5	16.5	0.00e+00	0	44	0	457179136	12	4244
2026-01-22 23:57:52.71	26.60	21.93	-26.1	-27.5	16.4	0.00e+00	0	44	0	460324864	12	4255
2026-01-22 23:57:53.71	26.67	22.07	-26.0	-27.4	16.5	0.00e+00	0	43	0	463470592	12	4216
2026-01-22 23:57:54.71	26.73	22.20	-25.9	-27.6	16.7	0.00e+00	0	44	0	466616320	11	4384
2026-01-22 23:57:55.71	26.80	22.34	-25.9	-27.5	16.8	0.00e+00	0	44	0	469762048	11	4360
2026-01-22 23:57:56.72	26.87	22.48	-26.0	-27.8	16.6	0.00e+00	0	44	0	472907776	11	4438
2026-01-22 23:57:57.72	26.94	22.62	-26.1	-27.7	16.4	0.00e+00	0	44	0	476053504	12	4296
2026-01-22 23:57:58.72	27.01	22.76	-26.1	-27.6	16.4	0.00e+00	0	44	0	479199232	12	4272
2026-01-22 23:57:59.73	27.08	22.90	-26.0	-27.3	16.6	0.00e+00	0	44	0	482344960	12	4193
2026-01-22 23:58:00.74	27.15	23.05	-25.9	-27.2	16.7	0.00e+00	0	44	0	485490688	12	4167
2026-01-22 23:58:01.74	27.22	23.19	-26.0	-27.4	16.6	0.00e+00	0	44	0	488636416	12	4217
2026-01-22 23:58:02.73	27.29	23.33	-26.0	-27.4	16.5	0.00e+00	0	44	0	491782144	12	4233
2026-01-22 23:58:03.74	27.36	23.48	-26.0	-27.3	16.6	0.00e+00	0	43	0	494927872	12	4203
2026-01-22 23:58:04.74	27.43	23.62	-26.0	-27.5	16.5	0.00e+00	0	44	0	498073600	12	4233
2026-01-22 23:58:05.75	27.51	23.77	-26.2	-27.7	16.3	0.00e+00	0	44	0	501219328	12	4315
2026-01-22 23:58:06.75	27.58	23.91	-26.2	-27.8	16.4	0.00e+00	0	44	0	504365056	12	4315
2026-01-22 23:58:07.75	27.65	24.06	-26.3	-28.1	16.2	0.00e+00	0	44	0	507510784	12	4410
2026-01-22 23:58:08.76	27.73	24.21	-26.4	-28.3	16.1	0.00e+00	0	44	0	510656512	12	4469
2026-01-22 23:58:09.77	27.81	24.36	-26.4	-28.3	16.1	0.00e+00	0	44	0	513802240	12	4465
2026-01-22 23:58:10.77	27.88	24.51	-26.5	-28.1	16.0	0.00e+00	0	44	0	516947968	13	4285
2026-01-22 23:58:11.77	27.96	24.66	-26.8	-28.5	15.7	0.00e+00	0	44	0	520093696	13	4415
2026-01-22 23:58:12.77	28.04	24.81	-26.7	-28.3	15.8	0.00e+00	0	44	0	523239424	13	4362
2026-01-22 23:58:13.78	28.12	24.96	-26.5	-28.1	16.0	0.00e+00	0	44	0	526385152	13	4287
2026-01-22 23:58:14.78	28.19	25.12	-26.5	-28.1	16.0	0.00e+00	0	44	0	529530880	13	4286
2026-01-22 23:58:15.78	28.27	25.27	-26.6	-28.1	16.0	0.00e+00	0	44	0	532676608	13	4302
2026-01-22 23:58:16.79	28.36	25.43	-26.7	-28.3	15.8	0.00e+00	0	44	0	535822336	13	4356
2026-01-22 23:58:17.79	28.44	25.58	-26.9	-28.8	15.6	0.00e+00	0	44	0	538968064	13	4484
2026-01-22 23:58:18.80	28.52	25.74	-26.8	-28.7	15.6	0.00e+00	0	44	0	542113792	13	4460
2026-01-22 23:58:19.80	28.60	25.89	-26.9	-29.0	15.5	0.00e+00	0	44	0	545259520	13	4538
2026-01-22 23:58:20.81	28.69	26.05	-26.9	-28.4	15.5	0.00e+00	0	44	0	548405248	14	4281
2026-01-22 23:58:21.80	28.77	26.21	-26.8	-28.1	15.7	0.00e+00	0	43	0	551550976	14	4198
2026-01-22 23:58:22.81	28.86	26.37	-26.8	-28.1	15.7	0.00e+00	0	43	0	554696704	14	4175
2026-01-22 23:58:23.81	28.94	26.53	-26.8	-28.2	15.7	0.00e+00	0	44	0	557842432	14	4212
2026-01-22 23:58:24.82	29.03	26.70	-26.9	-28.4	15.5	0.00e+00	0	44	0	560988160	14	4261
2026-01-22 23:58:25.82	29.12	26.86	-26.9	-28.4	15.6	0.00e+00	0	44	0	564133888	14	4259
2026-01-22 23:58:26.83	29.21	27.02	-27.0	-28.6	15.5	0.00e+00	0	44	0	567279616	14	4330
2026-01-22 23:58:27.83	29.30	27.19	-27.0	-28.5	15.5	0.00e+00	0	44	0	570425344	14	4281
2026-01-22 23:58:28.83	29.39	27.35	-27.0	-28.6	15.5	0.00e+00	0	44	0	573571072	14	4323
2026-01-22 23:58:29.83	29.48	27.52	-27.1	-28.7	15.4	0.00e+00	0	44	0	576716800	14	4360
2026-01-22 23:58:30.83	29.57	27.69	-27.0	-28.6	15.5	7.00e-07	0	44	0	579862528	14	4328
2026-01-22 23:58:31.84	29.66	27.85	-27.0	-28.6	15.5	0.00e+00	0	44	0	583008256	14	4328
2026-01-22 23:58:32.84	29.76	28.02	-27.1	-28.7	15.5	0.00e+00	0	44	0	586153984	14	4343
2026-01-22 23:58:33.84	29.85	28.19	-27.1	-28.8	15.4	0.00e+00	0	44	0	589299712	14	4377
2026-01-22 23:58:34.85	29.95	28.37	-27.1	-28.8	15.4	0.00e+00	0	44	0	592445440	14	4391
2026-01-22 23:58:35.86	30.05	28.54	-27.2	-29.0	15.3	0.00e+00	0	44	0	595591168	14	4428
2026-01-22 23:58:36.85	30.15	28.71	-27.3	-29.2	15.2	0.00e+00	0	44	0	598736896	14	4501
2026-01-22 23:58:37.84	30.24	28.88	-27.3	-29.1	15.2	0.00e+00	0	44	0	601882624	14	4469
2026-01-22 23:58:38.84	30.34	29.06	-27.2	-29.1	15.2	0.00e+00	0	44	0	605028352	14	4463
2026-01-22 23:58:39.84	30.44	29.23	-27.4	-29.4	15.1	0.00e+00	0	44	0	608174080	14	4546
2026-01-22 23:58:40.84	30.55	29.41	-27.2	-29.1	15.3	0.00e+00	0	44	0	611319808	14	4450
2026-01-22 23:58:41.85	30.65	29.59	-27.2	-29.0	15.3	0.00e+00	0	44	0	614465536	14	4433
2026-01-22 23:58:42.85	30.76	29.77	-27.2	-28.9	15.4	0.00e+00	0	44	0	617611264	14	4406
2026-01-22 23:58:43.85	30.86	29.95	-27.3	-29.2	15.2	0.00e+00	0	44	0	620756992	14	4498
2026-01-22 23:58:44.86	30.97	30.13	-27.2	-29.0	15.3	0.00e+00	0	44	0	623902720	14	4418
2026-01-22 23:58:45.86	31.08	30.31	-27.2	-29.1	15.3	0.00e+00	0	44	0	627048448	14	4464
2026-01-22 23:58:46.86	31.18	30.50	-27.5	-29.6	15.0	0.00e+00	0	44	0	630194176	14	4600
2026-01-22 23:58:47.87	31.30	30.68	-27.2	-29.0	15.4	0.00e+00	0	44	0	633339904	14	4423
2026-01-22 23:58:48.87	31.41	30.87	-26.9	-28.4	15.7	0.00e+00	0	44	0	636485632	14	4264
2026-01-22 23:58:49.87	31.52	31.05	-26.8	-28.1	15.8	0.00e+00	0	44	0	639631360	14	4179
2026-01-22 23:58:50.87	31.63	31.24	-26.7	-28.0	15.9	0.00e+00	0	44	0	642777088	14	4146
2026-01-22 23:58:51.87	31.75	31.43	-26.9	-28.2	15.8	0.00e+00	0	44	0	645922816	14	4221
2026-01-22 23:58:52.87	31.87	31.62	-26.8	-28.0	15.9	0.00e+00	0	44	0	649068544	14	4164
2026-01-22 23:58:53.87	31.98	31.81	-26.7	-27.8	16.0	0.00e+00	0	44	0	652214272	14	4103
2026-01-22 23:58:54.88	32.10	32.00	-26.8	-28.0	15.9	0.00e+00	0	44	0	655360000	14	4164
2026-01-22 23:58:55.88	32.22	32.20	-26.8	-28.1	15.9	2.20e-06	0	44	0	658505728	14	4168
2026-01-22 23:58:56.89	32.35	32.39	-27.0	-28.4	15.7	4.50e-06	0	44	0	661651456	14	4261
2026-01-22 23:58:57.90	32.47	32.59	-26.9	-28.4	15.7	0.00e+00	0	44	0	664797184	14	4248
2026-01-22 23:58:58.91	32.60	32.79	-27.1	-28.7	15.5	1.50e-06	0	44	0	667942912	14	4352
2026-01-22 23:58:59.91	32.72	32.98	-27.3	-29.2	15.3	1.50e-06	0	44	0	671088640	14	4491
2026-01-22 23:59:00.92	32.85	33.19	-27.2	-29.0	15.4	0.00e+00	0	44	0	674234368	14	4422
2026-01-22 23:59:01.92	32.98	33.39	-27.2	-28.9	15.5	0.00e+00	0	44	0	677380096	14	4398
2026-01-22 23:59:02.93	33.11	33.59	-27.2	-29.1	15.3	0.00e+00	0	43	0	680525824	14	4448
2026-01-22 23:59:03.93	33.25	33.79	-27.3	-29.2	15.3	0.00e+00	0	44	0	683671552	14	4482
2026-01-22 23:59:04.93	33.38	33.99	-27.4	-29.4	15.2	0.00e+00	0	44	0	686817280	14	4536
2026-01-22 23:59:05.92	33.51	34.20	-27.4	-29.4	15.2	0.00e+00	0	44	0	689963008	14	4540
2026-01-22 23:59:06.92	33.65	34.40	-27.6	-29.3	15.0	0.00e+00	0	43	0	693108736	15	4398
2026-01-22 23:59:07.93	33.79	34.61	-27.8	-29.9	14.6	0.00e+00	0	44	0	696254464	15	4588
2026-01-22 23:59:08.93	33.93	34.82	-27.8	-29.9	14.6	1.50e-06	0	43	0	698351616	15	4579
2026-01-22 23:59:09.94	34.08	35.03	-27.9	-30.0	14.6	7.00e-07	0	44	0	701497344	15	4609
2026-01-22 23:59:10.94	34.22	35.24	-28.3	-30.4	14.2	0.00e+00	0	44	0	704643072	16	4616
2026-01-22 23:59:11.95	34.37	35.46	-28.5	-30.9	13.9	2.20e-06	0	44	0	707788800	16	4744
2026-01-22 23:59:12.95	34.52	35.67	-28.6	-30.7	13.8	6.10e-06	0	44	0	710934528	17	4587
2026-01-22 23:59:13.96	34.67	35.88	-28.8	-31.3	13.5	1.44e-05	0	44	0	715128832	17	4763
2026-01-22 23:59:14.96	34.82	36.10	-28.8	-31.2	13.5	9.10e-06	0	44	0	718274560	17	4744
2026-01-22 23:59:15.96	34.97	36.32	-29.0	-31.2	13.2	2.36e-05	0	44	0	721420288	18	4620
2026-01-22 23:59:16.96	35.13	36.53	-28.8	-30.7	13.5	1.14e-05	0	44	0	723517440	18	4484
2026-01-22 23:59:17.97	35.29	36.76	-28.8	-30.8	13.5	1.83e-05	0	44	0	726663168	18	4493
2026-01-22 23:59:18.98	35.45	36.98	-28.9	-30.9	13.4	8.30e-06	0	44	0	729808896	18	4523
2026-01-22 23:59:19.98	35.61	37.20	-29.1	-31.4	13.1	2.21e-05	0	44	0	732954624	18	4691
2026-01-22 23:59:20.99	35.78	37.43	-29.0	-31.1	13.3	1.52e-05	0	44	0	736100352	18	4596
2026-01-22 23:59:21.99	35.95	37.65	-29.2	-31.5	13.0	2.05e-05	0	44	0	739246080	18	4728
2026-01-22 23:59:23.00	36.12	37.88	-29.1	-31.3	13.1	3.12e-05	0	44	0	742391808	18	4674
2026-01-22 23:59:24.01	36.29	38.11	-29.4	-32.0	12.7	5.18e-05	0	44	0	745537536	18	4906
2026-01-22 23:59:25.00	36.46	38.33	-29.2	-31.7	12.9	6.25e-05	0	44	0	748683264	18	4794
2026-01-22 23:59:26.01	36.64	38.56	-29.3	-32.0	12.8	5.26e-05	0	44	0	751828992	18	4875
2026-01-22 23:59:27.01	36.82	38.80	-29.2	-31.6	13.1	3.89e-05	0	44	0	754974720	18	4738
2026-01-22 23:59:28.01	37.00	39.03	-29.0	-31.2	13.2	1.60e-05	0	44	0	758120448	18	4627
2026-01-22 23:59:29.02	37.18	39.26	-29.0	-31.1	13.3	1.75e-05	0	44	0	761266176	18	4595
2026-01-22 23:59:30.02	37.37	39.50	-28.9	-31.0	13.4	1.22e-05	0	44	0	764411904	18	4547
2026-01-22 23:59:31.03	37.56	39.74	-28.9	-30.8	13.5	1.14e-05	0	44	0	767557632	18	4484
2026-01-22 23:59:32.03	37.75	39.97	-29.0	-31.0	13.4	1.60e-05	0	44	0	770703360	18	4565
2026-01-22 23:59:33.03	37.94	40.21	-28.9	-30.9	13.5	9.90e-06	0	44	0	773849088	18	4511
2026-01-22 23:59:34.04	38.14	40.45	-28.8	-30.5	13.7	1.06e-05	0	44	0	776994816	18	4407
2026-01-22 23:59:35.04	38.34	40.69	-28.7	-30.4	13.8	7.60e-06	0	44	0	780140544	18	4376
2026-01-22 23:59:36.03	38.54	40.93	-28.7	-30.4	13.8	2.20e-06	0	44	0	783286272	18	4382
2026-01-22 23:59:37.03	38.75	41.18	-28.9	-30.8	13.6	1.52e-05	0	44	0	786432000	18	4487
2026-01-22 23:59:38.03	38.96	41.42	-28.6	-30.2	13.9	6.10e-06	0	44	0	789577728	18	4305
2026-01-22 23:59:39.04	39.17	41.67	-28.4	-29.7	14.2	2.20e-06	0	44	0	792723456	18	4173
2026-01-22 23:59:40.04	39.39	41.92	-28.4	-29.7	14.2	7.00e-07	0	44	0	795869184	18	4170
2026-01-22 23:59:41.04	39.61	42.16	-28.7	-30.3	13.8	2.20e-06	0	44	0	799014912	18	4353
2026-01-22 23:59:42.03	39.83	42.41	-28.9	-31.0	13.5	1.44e-05	0	44	0	802160640	18	4534
2026-01-22 23:59:43.04	40.05	42.66	-28.9	-30.9	13.5	1.75e-05	0	44	0	805306368	18	4528
2026-01-22 23:59:44.04	40.28	42.92	-29.1	-31.4	13.2	1.67e-05	0	44	0	808452096	18	4691
2026-01-22 23:59:45.04	40.51	43.17	-29.1	-31.4	13.2	2.36e-05	0	44	0	811597824	18	4672
2026-01-22 23:59:46.04	40.75	43.42	-29.2	-31.6	13.1	3.89e-05	0	44	0	814743552	18	4735
2026-01-22 23:59:47.04	40.99	43.68	-29.2	-31.6	13.1	2.13e-05	0	44	0	817889280	18	4727
2026-01-22 23:59:48.05	41.24	43.94	-29.1	-31.4	13.2	2.97e-05	0	44	0	821035008	18	4668
2026-01-22 23:59:49.05	41.48	44.20	-29.3	-31.9	12.9	4.27e-05	0	44	0	824180736	18	4821
2026-01-22 23:59:50.05	41.73	44.46	-29.3	-31.9	12.9	4.50e-05	0	44	0	827326464	18	4839
2026-01-22 23:59:51.05	41.99	44.72	-29.4	-32.0	12.9	3.43e-05	0	44	0	830472192	18	4872
2026-01-22 23:59:52.06	42.25	44.98	-29.4	-32.2	12.8	6.40e-05	0	44	0	833617920	18	4938
2026-01-22 23:59:53.07	42.52	45.24	-29.5	-31.8	12.7	7.78e-05	0	44	0	836763648	19	4714
2026-01-22 23:59:54.07	42.79	45.51	-29.5	-31.8	12.7	1.02e-04	0	44	0	839909376	19	4715
2026-01-22 23:59:55.07	43.06	45.77	-29.7	-32.5	12.3	1.56e-04	0	44	0	843055104	19	4926
2026-01-22 23:59:56.08	43.34	46.04	-29.6	-32.1	12.5	1.13e-04	0	44	0	846200832	19	4808
2026-01-22 23:59:57.08	43.62	46.31	-29.4	-31.7	12.7	1.30e-04	0	44	0	849346560	19	4667
2026-01-22 23:59:58.08	43.91	46.57	-29.4	-31.6	12.9	6.33e-05	0	44	0	852492288	19	4626
2026-01-22 23:59:59.09	44.20	46.85	-29.5	-31.9	12.6	6.48e-05	0	44	0	855638016	19	4720
2026-01-23 00:00:00.09	44.50	47.12	-29.8	-32.5	12.3	1.60e-04	0	44	0	858783744	19	4952
2026-01-23 00:00:01.09	44.80	47.39	-29.6	-32.2	12.5	1.38e-04	0	44	0	861929472	19	4824
2026-01-23 00:00:02.09	45.11	47.66	-29.8	-32.5	12.3	1.66e-04	0	44	0	865075200	19	4938
2026-01-23 00:00:03.10	45.42	47.93	-29.8	-32.6	12.2	2.81e-04	0	44	0	868220928	19	4990
2026-01-23 00:00:04.10	45.74	48.21	-29.6	-32.0	12.6	1.14e-04	0	44	0	871366656	19	4771
2026-01-23 00:00:05.11	46.07	48.48	-29.4	-31.7	12.8	6.63e-05	0	44	0	874512384	19	4656
2026-01-23 00:00:06.11	46.40	48.76	-29.5	-31.9	12.7	8.23e-05	0	44	0	877658112	19	4724
2026-01-23 00:00:07.11	46.73	49.03	-29.7	-32.3	12.4	1.28e-04	0	44	0	880803840	19	4865
2026-01-23 00:00:08.12	47.08	49.31	-29.9	-32.8	12.1	2.19e-04	0	44	0	883949568	19	5031
2026-01-23 00:00:09.12	47.42	49.59	-29.6	-32.1	12.6	1.54e-04	0	44	0	887095296	19	4783
2026-01-23 00:00:10.12	47.78	49.86	-29.3	-31.4	13.0	3.43e-05	0	44	0	890241024	19	4558
2026-01-23 00:00:11.12	48.14	50.14	-28.9	-30.3	13.6	6.10e-06	0	44	0	893386752	19	4242
2026-01-23 00:00:12.12	48.50	50.42	-28.6	-30.2	14.0	7.00e-07	0	44	0	896532480	18	4304
2026-01-23 00:00:13.12	48.88	50.70	-28.5	-29.9	14.2	1.50e-06	0	44	0	899678208	18	4215
2026-01-23 00:00:14.12	49.26	50.98	-28.5	-29.8	14.3	7.00e-07	0	44	0	902823936	18	4180
2026-01-23 00:00:15.11	49.64	51.25	-28.4	-29.7	14.3	0.00e+00	0	44	0	905969664	18	4159
2026-01-23 00:00:16.12	50.04	51.54	-28.4	-29.6	14.4	7.00e-07	0	44	0	909115392	18	4132
2026-01-23 00:00:17.13	50.44	51.82	-28.5	-29.8	14.3	0.00e+00	0	44	0	912261120	18	4183
2026-01-23 00:00:18.13	50.85	52.10	-28.1	-29.5	14.7	7.00e-07	0	44	0	915406848	17	4232
2026-01-23 00:00:19.14	51.27	52.38	-27.9	-29.0	15.0	7.00e-07	0	44	0	918552576	17	4090
2026-01-23 00:00:20.14	51.70	52.66	-27.9	-29.1	15.0	7.00e-07	0	44	0	921698304	17	4100
2026-01-23 00:00:21.14	52.13	52.94	-28.0	-29.6	15.0	0.00e+00	0	44	0	924844032	16	4363
2026-01-23 00:00:22.15	52.58	53.23	-27.7	-29.1	15.2	0.00e+00	0	44	0	927989760	16	4221
2026-01-23 00:00:23.15	53.03	53.51	-27.2	-28.8	15.3	0.00e+00	0	44	0	931135488	15	4298
2026-01-23 00:00:24.15	53.49	53.79	-27.6	-29.3	15.2	0.00e+00	0	44	0	934281216	15	4391
2026-01-23 00:00:25.16	53.96	54.07	-27.4	-29.0	15.4	5.01e-04	0	44	0	937426944	15	4298
2026-01-23 00:00:26.16	54.44	54.35	-27.3	-28.7	15.5	0.00e+00	0	44	0	940572672	15	4234
2026-01-23 00:00:27.16	54.92	54.63	-27.4	-28.9	15.5	0.00e+00	0	44	0	943718400	15	4276
2026-01-23 00:00:28.17	55.43	54.91	-27.4	-28.9	15.5	0.00e+00	0	44	0	946864128	15	4265
2026-01-23 00:00:29.18	55.94	55.19	-27.3	-28.7	15.6	0.00e+00	0	44	0	950009856	15	4218
2026-01-23 00:00:30.18	56.45	55.47	-26.9	-27.6	16.2	0.00e+00	0	44	0	953155584	15	3936
2026-01-23 00:00:31.19	56.98	55.74	-26.3	-27.0	16.8	0.00e+00	0	44	0	956301312	14	3871
2026-01-23 00:00:32.19	57.52	56.02	-26.2	-27.2	16.9	0.00e+00	0	44	0	959447040	13	4029
2026-01-23 00:00:33.18	58.06	56.29	-26.2	-27.3	16.9	0.00e+00	0	44	0	962592768	13	4053
2026-01-23 00:00:34.18	58.62	56.56	-26.4	-27.6	16.7	3.73e-05	0	44	0	965738496	13	4137
2026-01-23 00:00:35.18	59.19	56.83	-26.6	-28.0	16.5	7.01e-05	0	44	0	968884224	13	4245
2026-01-23 00:00:36.18	59.77	57.10	-26.5	-27.8	16.6	0.00e+00	0	44	0	972029952	13	4190
2026-01-23 00:00:37.18	60.36	57.37	-26.6	-28.1	16.4	2.20e-06	0	44	0	975175680	13	4272
2026-01-23 00:00:38.18	60.96	57.64	-26.8	-28.5	16.3	0.00e+00	0	44	0	977272832	13	4400
2026-01-23 00:00:39.19	61.58	57.91	-26.9	-28.8	16.1	0.00e+00	0	44	0	980418560	13	4473
2026-01-23 00:00:40.18	62.20	58.17	-26.8	-28.5	16.2	1.90e-04	0	44	0	983564288	13	4393
2026-01-23 00:00:41.19	62.85	58.43	-26.7	-28.3	16.4	7.40e-05	0	44	0	986710016	13	4315
2026-01-23 00:00:42.19	63.50	58.69	-26.8	-28.6	16.2	0.00e+00	0	44	0	989855744	13	4407
2026-01-23 00:00:43.19	64.17	58.95	-26.6	-28.0	16.6	7.00e-07	0	44	0	993001472	13	4251
2026-01-23 00:00:44.20	64.85	59.20	-26.3	-27.4	16.9	0.00e+00	0	44	0	996147200	13	4099
2026-01-23 00:00:45.20	65.54	59.46	-26.1	-26.9	17.1	0.00e+00	0	44	0	999292928	13	3961
2026-01-23 00:00:46.20	66.25	59.70	-26.0	-26.6	17.3	7.60e-06	0	44	0	1002438656	13	3892
2026-01-23 00:00:47.21	66.97	59.95	-26.0	-26.7	17.2	7.78e-05	0	44	0	1005584384	13	3916
2026-01-23 00:00:48.22	67.71	60.20	-26.1	-27.1	17.1	0.00e+00	0	44	0	1008730112	13	3998
2026-01-23 00:00:49.22	68.46	60.44	-26.5	-27.8	16.7	6.30e-04	0	44	0	1011875840	13	4178
2026-01-23 00:00:50.22	69.22	60.67	-26.5	-27.9	16.7	3.81e-04	0	44	0	1015021568	13	4211
2026-01-23 00:00:51.22	69.99	60.91	-26.7	-28.4	16.4	0.00e+00	0	44	0	1018167296	13	4353
2026-01-23 00:00:52.23	70.79	61.14	-26.5	-27.8	16.7	3.56e-04	0	44	0	1021313024	13	4203
2026-01-23 00:00:53.24	71.60	61.36	-25.9	-27.0	17.4	0.00e+00	0	44	0	1024458752	12	4092
2026-01-23 00:00:54.24	72.41	61.58	-25.6	-26.4	17.7	0.00e+00	0	44	0	1027604480	12	3944
2026-01-23 00:00:55.25	73.25	61.80	-25.7	-26.6	17.6	4.66e-04	0	44	0	1030750208	12	3989
2026-01-23 00:00:56.25	74.10	62.01	-25.6	-26.9	17.8	5.29e-04	0	44	0	1033895936	11	4168
2026-01-23 00:00:57.25	74.96	62.22	-25.7	-27.0	17.7	0.00e+00	0	44	0	1037041664	11	4195
2026-01-23 00:00:58.26	75.85	62.42	-25.8	-27.4	17.6	0.00e+00	0	44	0	1040187392	11	4294
2026-01-23 00:00:59.27	76.74	62.62	-25.9	-27.5	17.5	0.00e+00	0	44	0	1043333120	11	4323
2026-01-23 00:01:00.27	77.65	62.81	-25.9	-26.9	17.4	0.00e+00	0	44	0	1046478848	12	4070
2026-01-23 00:01:01.27	78.57	63.00	-25.8	-26.8	17.5	3.73e-05	0	44	0	1049624576	12	4041
2026-01-23 00:01:02.26	79.49	63.18	-26.0	-27.2	17.4	5.87e-05	0	44	0	1052770304	12	4132
2026-01-23 00:01:03.26	80.44	63.35	-26.3	-27.8	17.0	0.00e+00	0	44	0	1055916032	12	4303
2026-01-23 00:01:04.27	81.41	63.52	-26.6	-28.0	16.6	0.00e+00	0	44	0	1059061760	13	4246
2026-01-23 00:01:05.27	82.38	63.68	-26.0	-26.7	17.3	0.00e+00	0	44	0	1062207488	13	3911
2026-01-23 00:01:06.27	83.37	63.84	-25.5	-26.2	17.8	0.00e+00	0	44	0	1065353216	12	3899
2026-01-23 00:01:07.28	84.38	63.99	-25.5	-26.1	17.8	0.00e+00	0	44	0	1068498944	12	3874
2026-01-23 00:01:08.29	85.40	64.13	-25.7	-26.7	17.6	0.00e+00	0	44	0	1071644672	12	4012
2026-01-23 00:01:09.29	86.43	64.27	-25.8	-26.8	17.5	0.00e+00	0	44	0	1074790400	12	4030
2026-01-23 00:01:10.30	87.48	64.39	-26.0	-27.2	17.3	0.00e+00	0	44	0	1077936128	12	4145
2026-01-23 00:01:11.30	88.52	64.51	-26.1	-27.4	17.2	2.56e-03	0	44	0	1081081856	12	4184
2026-01-23 00:01:12.30	89.58	64.63	-25.9	-27.0	17.3	0.00e+00	0	44	0	1084227584	12	4103
2026-01-23 00:01:13.31	90.66	64.73	-25.7	-27.0	17.6	0.00e+00	0	44	0	1087373312	11	4206
2026-01-23 00:01:14.31	91.74	64.83	-25.7	-27.0	17.7	0.00e+00	0	44	0	1090519040	11	4207
2026-01-23 00:01:15.32	92.84	64.92	-25.9	-27.5	17.5	0.00e+00	0	44	0	1093664768	11	4318
2026-01-23 00:01:16.32	93.94	65.00	-25.9	-27.1	17.4	0.00e+00	0	44	0	1096810496	12	4114
2026-01-23 00:01:17.33	95.05	65.08	-26.2	-27.7	17.1	0.00e+00	0	44	0	1099956224	12	4271
2026-01-23 00:01:18.33	96.17	65.14	-26.0	-27.2	17.3	0.00e+00	0	44	0	1103101952	12	4138
2026-01-23 00:01:19.34	97.29	65.20	-25.5	-26.7	17.9	0.00e+00	0	44	0	1106247680	11	4105
2026-01-23 00:01:20.34	98.42	65.25	-25.6	-26.8	17.9	0.00e+00	0	44	0	1109393408	11	4148
2026-01-23 00:01:21.35	99.55	65.29	-25.8	-27.2	17.7	0.00e+00	0	44	0	1112539136	11	4251
2026-01-23 00:01:22.34	100.67	65.32	-25.9	-27.4	17.5	0.00e+00	0	44	0	1115684864	11	4309
2026-01-23 00:01:23.34	101.81	65.34	-26.0	-27.3	17.3	0.00e+00	0	44	0	1118830592	12	4170
2026-01-23 00:01:24.34	102.94	65.35	-25.8	-26.7	17.5	0.00e+00	0	44	0	1121976320	12	4020
2026-01-23 00:01:25.34	104.08	65.36	-25.8	-27.3	17.5	0.00e+00	0	44	0	1125122048	11	4282
2026-01-23 00:01:26.35	105.23	65.36	-26.0	-27.6	17.5	0.00e+00	0	44	0	1128267776	11	4365
2026-01-23 00:01:27.36	106.37	65.34	-26.2	-27.7	17.1	0.00e+00	0	44	0	1131413504	12	4271
2026-01-23 00:01:28.36	107.51	65.32	-26.9	-28.7	16.3	0.00e+00	0	44	0	1134559232	13	4427
2026-01-23 00:01:29.36	108.64	65.29	-26.9	-28.7	16.4	0.00e+00	0	44	0	1137704960	13	4428
2026-01-23 00:01:30.36	109.77	65.25	-26.7	-28.2	16.6	0.00e+00	0	44	0	1140850688	13	4309
2026-01-23 00:01:31.37	110.90	65.21	-26.1	-26.9	17.3	0.00e+00	0	44	0	1143996416	13	3953
2026-01-23 00:01:32.37	112.02	65.15	-25.9	-27.0	17.5	0.00e+00	0	44	0	1147142144	12	4096
2026-01-23 00:01:33.38	113.14	65.09	-26.1	-27.4	17.3	0.00e+00	0	44	0	1150287872	12	4183
2026-01-23 00:01:34.37	114.24	65.02	-26.4	-28.1	17.0	0.00e+00	0	44	0	1153433600	12	4379
2026-01-23 00:01:35.38	115.35	64.94	-26.8	-28.6	16.4	0.00e+00	0	44	0	1156579328	13	4391
2026-01-23 00:01:36.39	116.45	64.85	-26.5	-27.9	16.8	0.00e+00	0	44	0	1159725056	13	4213
2026-01-23 00:01:37.38	117.52	64.75	-26.3	-27.3	17.1	0.00e+00	0	44	0	1162870784	13	4054
2026-01-23 00:01:38.39	118.60	64.65	-26.4	-28.0	17.0	0.00e+00	0	44	0	1166016512	12	4352
2026-01-23 00:01:39.39	119.66	64.54	-26.7	-28.3	16.5	0.00e+00	0	44	0	1169162240	13	4312
2026-01-23 00:01:40.39	120.72	64.42	-27.2	-28.9	15.8	0.00e+00	0	44	0	1172307968	14	4375
2026-01-23 00:01:41.39	121.76	64.29	-27.1	-28.6	16.1	0.00e+00	0	44	0	1175453696	14	4280
2026-01-23 00:01:42.39	122.78	64.16	-27.2	-28.9	16.0	7.00e-07	0	44	0	1178599424	14	4366
2026-01-23 00:01:43.40	123.81	64.01	-27.3	-29.1	15.9	0.00e+00	0	44	0	1181745152	14	4416
2026-01-23 00:01:44.41	124.82	63.86	-26.6	-27.6	16.7	0.00e+00	0	44	0	1184890880	14	4039
2026-01-23 00:01:45.41	125.82	63.71	-26.1	-26.9	17.2	0.00e+00	0	44	0	1188036608	13	3952
2026-01-23 00:01:46.41	126.79	63.55	-26.2	-27.8	17.2	0.00e+00	0	44	0	1191182336	12	4282
2026-01-23 00:01:47.41	127.76	63.38	-26.9	-28.7	16.4	0.00e+00	0	44	0	1194328064	13	4426
2026-01-23 00:01:48.41	128.71	63.21	-26.8	-28.1	16.4	0.00e+00	0	44	0	1197473792	14	4143
2026-01-23 00:01:49.41	129.65	63.03	-25.7	-26.6	17.7	0.00e+00	0	44	0	1200619520	12	3978
2026-01-23 00:01:50.41	130.57	62.84	-25.5	-26.6	18.0	0.00e+00	0	44	0	1203765248	11	4083
2026-01-23 00:01:51.42	131.48	62.65	-26.0	-27.3	17.3	0.00e+00	0	44	0	1206910976	12	4168
2026-01-23 00:01:52.41	132.37	62.46	-26.5	-27.9	16.8	0.00e+00	0	44	0	1210056704	13	4204
2026-01-23 00:01:53.42	133.26	62.26	-26.7	-28.3	16.6	0.00e+00	0	44	0	1213202432	13	4310
2026-01-23 00:01:54.41	134.11	62.05	-26.8	-28.5	16.4	0.00e+00	0	44	0	1216348160	13	4371
2026-01-23 00:01:55.42	134.97	61.84	-26.4	-27.6	16.8	0.00e+00	0	44	0	1219493888	13	4127
2026-01-23 00:01:56.42	135.81	61.62	-25.6	-26.3	17.8	0.00e+00	0	44	0	1222639616	12	3906
2026-01-23 00:01:57.43	136.64	61.40	-25.4	-25.9	18.1	0.00e+00	0	44	0	1225785344	12	3821
2026-01-23 00:01:58.43	137.44	61.18	-26.2	-27.6	17.2	0.00e+00	0	44	0	1228931072	12	4250
2026-01-23 00:01:59.43	138.24	60.95	-27.1	-28.6	16.1	0.00e+00	0	44	0	1232076800	14	4302
2026-01-23 00:02:00.43	139.02	60.72	-27.8	-29.9	15.1	0.00e+00	0	44	0	1235222528	15	4548
2026-01-23 00:02:01.44	139.79	60.48	-27.5	-29.0	15.6	0.00e+00	0	44	0	1238368256	15	4293
2026-01-23 00:02:02.43	140.53	60.24	-26.6	-27.6	16.6	0.00e+00	0	44	0	1241513984	14	4021
2026-01-23 00:02:03.44	141.27	60.00	-26.2	-27.2	17.1	0.00e+00	0	44	0	1244659712	13	4038
2026-01-23 00:02:04.44	141.99	59.75	-26.2	-27.2	17.2	0.00e+00	0	44	0	1247805440	13	4018
2026-01-23 00:02:05.45	142.71	59.50	-26.7	-28.3	16.5	0.00e+00	0	44	0	1250951168	13	4308
2026-01-23 00:02:06.46	143.41	59.24	-27.6	-29.3	14.8	0.00e+00	0	44	0	1254096896	15	4366
2026-01-23 00:02:07.46	144.09	58.99	-28.3	-30.4	14.7	7.00e-07	0	44	0	1257242624	16	4571
2026-01-23 00:02:08.47	144.77	58.73	-27.9	-29.5	15.2	0.00e+00	0	44	0	1260388352	16	4306
2026-01-23 00:02:09.48	145.43	58.47	-26.5	-27.3	16.6	0.00e+00	0	44	0	1263534080	14	3959
2026-01-23 00:02:10.48	146.07	58.21	-25.9	-26.4	17.4	0.00e+00	0	44	0	1266679808	13	3835
2026-01-23 00:02:11.48	146.70	57.94	-26.0	-26.8	17.2	0.00e+00	0	44	0	1269825536	13	3933
2026-01-23 00:02:12.48	147.32	57.68	-26.7	-28.3	16.5	0.00e+00	0	44	0	1272971264	13	4325
2026-01-23 00:02:13.48	147.93	57.41	-27.3	-29.2	15.8	3.05e-05	0	44	0	1275068416	14	4469
2026-01-23 00:02:14.48	148.52	57.14	-27.8	-29.9	15.1	0.00e+00	0	44	0	1278214144	15	4553
2026-01-23 00:02:15.49	149.11	56.87	-27.8	-29.8	15.1	0.00e+00	0	44	0	1281359872	15	4548
2026-01-23 00:02:16.49	149.68	56.60	-27.3	-28.6	15.7	0.00e+00	0	44	0	1284505600	15	4208
2026-01-23 00:02:17.50	150.25	56.32	-26.8	-27.5	16.3	0.00e+00	0	44	0	1287651328	15	3912
2026-01-23 00:02:18.51	150.81	56.04	-26.5	-27.4	16.7	1.69e-04	0	44	0	1291845632	14	3970
2026-01-23 00:02:19.51	151.35	55.77	-26.8	-28.0	16.4	2.22e-04	0	44	0	1294991360	14	4138
2026-01-23 00:02:20.51	151.87	55.49	-27.7	-29.6	15.1	0.00e+00	0	44	0	1298137088	15	4485
2026-01-23 00:02:21.52	152.40	55.21	-28.7	-30.8	13.9	1.50e-06	0	44	0	1300234240	17	4590
2026-01-23 00:02:22.52	152.91	54.93	-28.7	-30.8	13.9	3.80e-06	0	44	0	1303379968	17	4606
2026-01-23 00:02:23.52	153.40	54.65	-28.7	-30.9	14.1	0.00e+00	0	44	0	1306525696	17	4622
2026-01-23 00:02:24.52	153.89	54.37	-28.7	-30.7	14.1	4.90e-04	0	44	0	1309671424	17	4567
2026-01-23 00:02:25.53	154.38	54.09	-28.2	-29.5	14.8	2.17e-04	0	44	0	1312817152	17	4227
2026-01-23 00:02:26.52	154.84	53.81	-27.5	-28.6	15.7	7.00e-07	0	44	0	1315962880	16	4082
2026-01-23 00:02:27.53	155.31	53.53	-27.5	-28.4	15.8	0.00e+00	0	44	0	1319108608	16	4029
2026-01-23 00:02:28.53	155.76	53.25	-27.6	-28.8	15.6	1.94e-04	0	44	0	1322254336	16	4119
2026-01-23 00:02:29.53	156.20	52.96	-28.2	-30.1	14.8	3.00e-06	0	44	0	1325400064	16	4479
2026-01-23 00:02:30.54	156.64	52.68	-28.5	-30.2	14.5	1.07e-04	0	44	0	1328545792	17	4422
2026-01-23 00:02:31.54	157.07	52.40	-28.3	-29.8	14.6	1.43e-04	0	44	0	1331691520	17	4300
2026-01-23 00:02:32.54	157.49	52.12	-28.2	-29.7	14.5	0.00e+00	0	44	0	1334837248	17	4261
2026-01-23 00:02:33.55	157.91	51.83	-28.4	-30.1	14.2	1.61e-04	0	44	0	1337982976	17	4401
2026-01-23 00:02:34.55	158.31	51.55	-28.6	-30.6	14.2	7.32e-05	0	44	0	1341128704	17	4531
2026-01-23 00:02:35.56	158.71	51.27	-28.5	-30.3	14.3	0.00e+00	0	44	0	1344274432	17	4436
2026-01-23 00:02:36.57	159.10	50.98	-28.7	-30.7	14.1	7.40e-05	0	44	0	1347420160	17	4576
2026-01-23 00:02:37.57	159.48	50.70	-29.1	-31.3	13.5	7.60e-06	0	44	0	1350565888	18	4654
2026-01-23 00:02:38.57	159.86	50.42	-29.5	-31.9	12.9	3.35e-05	0	44	0	1353711616	19	4719
2026-01-23 00:02:39.58	160.23	50.14	-29.6	-32.0	12.8	2.78e-04	0	44	0	1356857344	19	4757
2026-01-23 00:02:40.58	160.59	49.86	-29.8	-32.5	12.5	4.29e-04	0	44	0	1360003072	19	4907
2026-01-23 00:02:41.58	160.95	49.58	-29.8	-32.6	12.4	1.67e-04	0	44	0	1363148800	19	4944
2026-01-23 00:02:42.59	161.30	49.30	-29.4	-31.5	13.1	5.56e-05	0	44	0	1366294528	19	4580
2026-01-23 00:02:43.59	161.64	49.03	-28.9	-30.4	13.8	4.17e-04	0	44	0	1369440256	19	4257
2026-01-23 00:02:44.60	161.98	48.75	-28.7	-30.3	14.1	3.80e-06	0	44	0	1372585984	18	4335
2026-01-23 00:02:45.60	162.31	48.47	-29.0	-30.9	13.7	3.46e-04	0	44	0	1375731712	18	4512
2026-01-23 00:02:46.60	162.64	48.20	-29.3	-31.8	13.2	3.78e-04	0	44	0	1378877440	18	4798
2026-01-23 00:02:47.60	162.96	47.92	-30.0	-32.9	12.1	1.38e-04	0	44	0	1382023168	19	5083
2026-01-23 00:02:48.61	163.27	47.65	-30.3	-33.5	11.4	8.86e-04	0	44	0	1385168896	20	5188
2026-01-23 00:02:49.61	163.58	47.37	-30.2	-33.2	11.6	7.35e-04	0	44	0	1388314624	20	5059
2026-01-23 00:02:50.62	163.89	47.10	-29.9	-32.3	12.1	3.52e-04	0	44	0	1391460352	20	4747
2026-01-23 00:02:51.62	164.18	46.83	-29.8	-32.6	12.3	8.50e-04	0	44	0	1394606080	19	4970
2026-01-23 00:02:52.63	164.48	46.56	-29.9	-32.7	12.3	2.21e-04	0	44	0	1397751808	19	4990
2026-01-23 00:02:53.64	164.77	46.28	-29.8	-32.5	12.4	1.60e-04	0	44	0	1400897536	19	4921
2026-01-23 00:02:54.65	165.06	46.01	-29.6	-32.0	12.6	8.69e-05	0	44	0	1404043264	19	4769
2026-01-23 00:02:55.65	165.33	45.75	-29.3	-31.5	13.0	4.88e-05	0	44	0	1407188992	19	4597
2026-01-23 00:02:56.66	165.61	45.48	-29.5	-31.8	12.8	3.73e-05	0	44	0	1410334720	19	4698
2026-01-23 00:02:57.67	165.88	45.21	-29.8	-32.5	12.4	1.03e-04	0	44	0	1413480448	19	4918
2026-01-23 00:02:58.67	166.15	44.95	-29.7	-32.4	12.5	1.65e-04	0	44	0	1416626176	19	4888
2026-01-23 00:02:59.67	166.41	44.68	-29.7	-32.4	12.5	1.12e-04	0	44	0	1419771904	19	4890
2026-01-23 00:03:00.67	166.66	44.42	-29.9	-32.4	12.0	2.94e-04	0	44	0	1422917632	20	4800
2026-01-23 00:03:01.68	166.92	44.16	-30.3	-33.3	11.4	9.38e-04	0	44	0	1426063360	20	5125
2026-01-23 00:03:02.68	167.16	43.90	-30.3	-33.5	11.4	1.06e-03	0	44	0	1429209088	20	5180
2026-01-23 00:03:03.68	167.41	43.64	-29.9	-32.5	12.0	5.08e-04	0	44	0	1432354816	20	4824
2026-01-23 00:03:04.69	167.65	43.38	-29.3	-31.4	13.0	5.87e-05	0	44	0	1435500544	19	4541
2026-01-23 00:03:05.69	167.89	43.13	-28.9	-30.4	13.7	2.20e-06	0	44	0	1438646272	19	4256
2026-01-23 00:03:06.69	168.12	42.87	-29.0	-30.6	13.6	1.14e-05	0	44	0	1441792000	19	4325
2026-01-23 00:03:07.69	168.35	42.62	-29.3	-31.2	13.2	2.36e-05	0	44	0	1444937728	19	4511
2026-01-23 00:03:08.70	168.58	42.37	-29.4	-31.5	13.0	4.65e-05	0	44	0	1448083456	19	4599
2026-01-23 00:03:09.71	168.80	42.11	-29.3	-31.3	13.1	4.42e-05	0	44	0	1451229184	19	4530
2026-01-23 00:03:10.71	169.02	41.86	-29.1	-30.8	13.4	1.67e-05	0	44	0	1454374912	19	4388
2026-01-23 00:03:11.72	169.24	41.61	-29.2	-31.1	13.3	1.98e-05	0	44	0	1457520640	19	4480
2026-01-23 00:03:12.72	169.45	41.36	-29.3	-31.3	13.2	2.28e-05	0	44	0	1460666368	19	4518
2026-01-23 00:03:13.73	169.66	41.12	-29.4	-31.6	12.9	4.73e-05	0	44	0	1463812096	19	4625
2026-01-23 00:03:14.73	169.87	40.87	-29.4	-31.5	12.9	4.88e-05	0	44	0	1466957824	19	4598
2026-01-23 00:03:15.73	170.07	40.63	-29.5	-31.8	12.8	4.65e-05	0	44	0	1470103552	19	4689
2026-01-23 00:03:16.74	170.27	40.38	-29.5	-31.7	12.9	5.03e-05	0	44	0	1473249280	19	4650
2026-01-23 00:03:17.74	170.47	40.14	-29.6	-32.0	12.7	6.33e-05	0	44	0	1476395008	19	4738
2026-01-23 00:03:18.75	170.67	39.90	-29.8	-32.7	12.3	1.33e-04	0	44	0	1479540736	19	4981
2026-01-23 00:03:19.75	170.86	39.66	-29.9	-32.4	12.1	2.98e-04	0	44	0	1482686464	20	4794
2026-01-23 00:03:20.75	171.05	39.43	-29.9	-32.4	12.0	2.68e-04	0	44	0	1485832192	20	4791
2026-01-23 00:03:21.75	171.23	39.19	-29.9	-32.3	12.1	2.60e-04	0	44	0	1488977920	20	4743
2026-01-23 00:03:22.75	171.42	38.96	-29.9	-32.3	12.2	2.21e-04	0	44	0	1492123648	20	4745
2026-01-23 00:03:23.76	171.60	38.72	-30.2	-33.2	11.5	5.40e-04	0	44	0	1495269376	20	5056
2026-01-23 00:03:24.76	171.78	38.49	-30.0	-32.7	11.8	5.21e-04	0	44	0	1498415104	20	4895
2026-01-23 00:03:25.76	171.95	38.26	-29.7	-31.7	12.3	2.10e-04	0	44	0	1501560832	20	4575
2026-01-23 00:03:26.76	172.13	38.03	-29.4	-31.1	12.8	7.93e-05	0	44	0	1504706560	20	4372
2026-01-23 00:03:27.77	172.30	37.80	-29.0	-30.6	13.4	2.36e-05	0	44	0	1507852288	19	4326
2026-01-23 00:03:28.78	172.47	37.57	-28.7	-30.2	13.9	1.44e-05	0	44	0	1510998016	18	4324
2026-01-23 00:03:29.78	172.64	37.34	-28.3	-29.5	14.4	0.00e+00	0	44	0	1514143744	18	4105
2026-01-23 00:03:30.78	172.80	37.12	-28.1	-29.5	14.7	0.00e+00	0	44	0	1517289472	17	4217
2026-01-23 00:03:31.79	172.97	36.90	-27.8	-28.7	15.1	6.80e-06	0	44	0	1520435200	17	4003
2026-01-23 00:03:32.79	173.13	36.67	-27.8	-29.2	15.1	0.00e+00	0	44	0	1523580928	16	4245
2026-01-23 00:03:33.79	173.28	36.45	-27.8	-29.2	15.1	0.00e+00	0	44	0	1526726656	16	4246
2026-01-23 00:03:34.80	173.44	36.23	-28.0	-29.7	14.9	9.10e-06	0	44	0	1529872384	16	4378
2026-01-23 00:03:35.81	173.60	36.01	-27.9	-29.5	15.0	0.00e+00	0	44	0	1533018112	16	4312
2026-01-23 00:03:36.81	173.75	35.80	-27.8	-29.2	15.1	0.00e+00	0	44	0	1536163840	16	4245
2026-01-23 00:03:37.81	173.90	35.58	-27.8	-29.2	15.2	3.00e-06	0	44	0	1539309568	16	4238
2026-01-23 00:03:38.82	174.05	35.36	-27.8	-29.3	15.1	0.00e+00	0	44	0	1542455296	16	4267
2026-01-23 00:03:39.82	174.19	35.15	-27.8	-29.3	15.0	0.00e+00	0	44	0	1545601024	16	4279
2026-01-23 00:03:40.83	174.34	34.94	-27.8	-29.3	15.0	0.00e+00	0	44	0	1548746752	16	4281
2026-01-23 00:03:41.83	174.48	34.73	-28.1	-29.9	14.7	0.00e+00	0	44	0	1551892480	16	4428
2026-01-23 00:03:42.84	174.62	34.52	-28.2	-30.2	14.5	1.50e-06	0	44	0	1555038208	16	4530
2026-01-23 00:03:43.84	174.76	34.31	-28.7	-30.8	13.9	9.10e-06	0	44	0	1558183936	17	4594
2026-01-23 00:03:44.84	174.90	34.10	-28.9	-31.4	13.5	7.60e-06	0	44	0	1561329664	17	4810
2026-01-23 00:03:45.84	175.04	33.90	-29.1	-31.5	13.2	2.44e-05	0	44	0	1564475392	18	4704
2026-01-23 00:03:46.84	175.17	33.69	-29.0	-31.3	13.3	1.22e-05	0	44	0	1567621120	18	4646
2026-01-23 00:03:47.85	175.30	33.49	-28.9	-31.0	13.5	4.50e-06	0	44	0	1570766848	18	4549
2026-01-23 00:03:48.85	175.43	33.28	-28.8	-30.6	13.7	6.80e-06	0	44	0	1573912576	18	4440
2026-01-23 00:03:49.85	175.56	33.08	-28.7	-30.5	13.7	5.30e-06	0	44	0	1577058304	18	4403
2026-01-23 00:03:50.85	175.69	32.88	-28.8	-30.6	13.7	8.30e-06	0	44	0	1580204032	18	4418
2026-01-23 00:03:51.84	175.82	32.69	-28.2	-29.6	14.5	3.00e-06	0	44	0	1583349760	17	4256
2026-01-23 00:03:52.84	175.94	32.49	-27.8	-28.8	15.0	0.00e+00	0	44	0	1586495488	17	4026
2026-01-23 00:03:53.84	176.06	32.29	-27.8	-28.8	15.0	0.00e+00	0	44	0	1589641216	17	4027
2026-01-23 00:03:54.84	176.19	32.10	-27.8	-29.2	15.1	0.00e+00	0	44	0	1592786944	16	4229
2026-01-23 00:03:55.84	176.31	31.90	-27.9	-29.4	14.9	0.00e+00	0	44	0	1595932672	16	4290
2026-01-23 00:03:56.85	176.43	31.71	-27.8	-29.2	15.0	7.00e-07	0	44	0	1598029824	16	4249
2026-01-23 00:03:57.85	176.54	31.52	-27.9	-29.5	14.9	0.00e+00	0	44	0	1601175552	16	4318
2026-01-23 00:03:58.86	176.66	31.33	-27.8	-29.3	14.9	0.00e+00	0	44	0	1605369856	16	4281
2026-01-23 00:03:59.86	176.78	31.14	-27.5	-28.6	15.4	3.00e-06	0	44	0	1608515584	16	4073
2026-01-23 00:04:00.86	176.89	30.95	-27.0	-27.9	15.8	0.00e+00	0	44	0	1611661312	15	4010
2026-01-23 00:04:01.87	177.00	30.76	-26.8	-27.9	16.1	0.00e+00	0	44	0	1614807040	14	4125
2026-01-23 00:04:02.88	177.12	30.57	-26.8	-28.1	16.0	6.86e-05	0	44	0	1617952768	14	4171
2026-01-23 00:04:03.87	177.22	30.39	-27.0	-28.5	15.8	7.62e-05	0	44	0	1621098496	14	4291
2026-01-23 00:04:04.87	177.33	30.20	-27.0	-28.6	15.7	0.00e+00	0	44	0	1623195648	14	4297
2026-01-23 00:04:05.87	177.44	30.02	-27.2	-29.0	15.5	0.00e+00	0	44	0	1626341376	14	4406
2026-01-23 00:04:06.87	177.55	29.84	-27.4	-29.4	15.3	0.00e+00	0	44	0	1629487104	14	4544
2026-01-23 00:04:07.87	177.65	29.66	-27.6	-29.4	15.0	0.00e+00	0	44	0	1632632832	15	4420
2026-01-23 00:04:08.87	177.76	29.48	-27.9	-30.0	14.7	5.60e-04	0	44	0	1635778560	15	4597
2026-01-23 00:04:09.88	177.86	29.30	-27.7	-29.7	14.8	8.62e-04	0	44	0	1638924288	15	4523
2026-01-23 00:04:10.89	177.96	29.12	-27.6	-29.5	15.0	0.00e+00	0	44	0	1642070016	15	4445
2026-01-23 00:04:11.89	178.06	28.94	-27.6	-29.4	15.0	0.00e+00	0	44	0	1645215744	15	4429
2026-01-23 00:04:12.89	178.16	28.77	-27.5	-29.2	15.1	1.99e-03	0	44	0	1648361472	15	4371
2026-01-23 00:04:13.90	178.26	28.59	-27.4	-29.0	15.1	7.00e-07	0	44	0	1651507200	15	4330
2026-01-23 00:04:14.90	178.36	28.42	-27.5	-29.2	15.1	2.70e-03	0	44	0	1654652928	15	4369
2026-01-23 00:04:15.91	178.46	28.24	-27.4	-29.5	15.2	2.84e-03	0	44	0	1657798656	14	4563
2026-01-23 00:04:16.91	178.55	28.07	-27.4	-29.5	15.1	0.00e+00	0	44	0	1660944384	14	4576
2026-01-23 00:04:17.92	178.65	27.90	-27.4	-29.4	15.2	3.14e-03	0	44	0	1664090112	14	4530
2026-01-23 00:04:18.92	178.74	27.73	-27.3	-29.1	15.4	3.01e-03	0	44	0	1667235840	14	4465
2026-01-23 00:04:19.92	178.84	27.56	-27.3	-29.3	15.3	0.00e+00	0	44	0	1670381568	14	4502
2026-01-23 00:04:20.93	178.93	27.39	-27.2	-28.9	15.5	3.26e-03	0	44	0	1673527296	14	4410
2026-01-23 00:04:21.93	179.02	27.22	-27.2	-29.0	15.5	3.43e-03	0	44	0	1676673024	14	4409
2026-01-23 00:04:22.94	179.11	27.06	-27.3	-29.2	15.4	0.00e+00	0	44	0	1679818752	14	4472
2026-01-23 00:04:23.94	179.20	26.89	-27.0	-28.6	15.7	3.51e-03	0	44	0	1682964480	14	4313
2026-01-23 00:04:24.95	179.29	26.72	-26.7	-28.4	16.0	3.36e-03	0	44	0	1686110208	13	4378
2026-01-23 00:04:25.95	179.38	26.56	-26.7	-28.3	16.1	0.00e+00	0	44	0	1689255936	13	4324
2026-01-23 00:04:26.96	179.46	26.40	-26.6	-28.2	16.2	3.16e-03	0	44	0	1692401664	13	4297
2026-01-23 00:04:27.96	179.55	26.24	-26.3	-27.4	16.5	1.22e-05	0	44	0	1695547392	13	4107
2026-01-23 00:04:28.96	179.63	26.08	-26.2	-27.3	16.6	0.00e+00	0	44	0	1698693120	13	4070
2026-01-23 00:04:29.96	179.72	25.92	-26.2	-27.8	16.6	2.78e-03	0	44	0	1701838848	12	4301
2026-01-23 00:04:30.97	179.80	25.76	-26.2	-27.7	16.7	2.75e-03	0	44	0	1704984576	12	4286
2026-01-23 00:04:31.97	179.88	25.60	-26.3	-27.8	16.6	0.00e+00	0	44	0	1708130304	12	4320
2026-01-23 00:04:32.97	179.97	25.44	-26.4	-28.2	16.3	0.00e+00	0	44	0	1711276032	12	4429
2026-01-23 00:04:33.97	180.05	25.29	-26.4	-28.1	16.4	1.44e-05	0	44	0	1714421760	12	4400
2026-01-23 00:04:34.96	180.13	25.13	-26.4	-28.2	16.4	0.00e+00	0	44	0	1717567488	12	4415
2026-01-23 00:04:35.97	180.21	24.98	-26.5	-28.0	16.2	2.40e-03	0	44	0	1720713216	13	4248
2026-01-23 00:04:36.98	180.29	24.82	-26.5	-27.8	16.3	9.90e-06	0	44	0	1723858944	13	4198
2026-01-23 00:04:37.98	180.36	24.67	-26.5	-28.0	16.2	0.00e+00	0	44	0	1727004672	13	4250
2026-01-23 00:04:38.98	180.44	24.52	-26.5	-27.8	16.3	0.00e+00	0	44	0	1730150400	13	4214
2026-01-23 00:04:39.98	180.52	24.37	-26.5	-28.3	16.3	0.00e+00	0	44	0	1733296128	12	4465
2026-01-23 00:04:40.98	180.59	24.22	-26.4	-28.3	16.3	0.00e+00	0	44	0	1736441856	12	4442
2026-01-23 00:04:41.98	180.67	24.07	-26.5	-28.0	16.2	0.00e+00	0	44	0	1739587584	13	4259
2026-01-23 00:04:42.98	180.74	23.92	-26.8	-28.6	15.8	0.00e+00	0	44	0	1742733312	13	4436
2026-01-23 00:04:43.99	180.82	23.77	-26.7	-28.4	15.9	0.00e+00	0	44	0	1745879040	13	4374
2026-01-23 00:04:45.00	180.89	23.62	-26.6	-28.2	16.1	0.00e+00	0	44	0	1749024768	13	4322
2026-01-23 00:04:46.00	180.96	23.48	-26.7	-28.3	16.0	2.63e-03	0	44	0	1752170496	13	4345
2026-01-23 00:04:47.00	181.04	23.33	-26.8	-28.5	15.9	0.00e+00	0	44	0	1755316224	13	4404
2026-01-23 00:04:48.01	181.11	23.18	-26.8	-28.6	15.8	0.00e+00	0	44	0	1758461952	13	4433
2026-01-23 00:04:49.01	181.18	23.04	-26.8	-28.6	15.8	0.00e+00	0	44	0	1761607680	13	4430
2026-01-23 00:04:50.02	181.25	22.90	-26.8	-28.5	15.9	0.00e+00	0	44	0	1764753408	13	4414
2026-01-23 00:04:51.02	181.32	22.75	-26.8	-28.6	15.8	0.00e+00	0	44	0	1767899136	13	4419
2026-01-23 00:04:52.02	181.39	22.61	-26.8	-28.7	15.8	0.00e+00	0	44	0	1771044864	13	4446
2026-01-23 00:04:53.02	181.46	22.47	-26.8	-28.5	15.8	0.00e+00	0	44	0	1774190592	13	4413
2026-01-23 00:04:54.02	181.52	22.33	-27.0	-29.0	15.6	0.00e+00	0	44	0	1777336320	13	4551
2026-01-23 00:04:55.03	181.59	22.19	-26.8	-28.7	15.8	0.00e+00	0	44	0	1780482048	13	4450
2026-01-23 00:04:56.03	181.66	22.05	-26.9	-28.8	15.7	0.00e+00	0	44	0	1783627776	13	4496
2026-01-23 00:04:57.04	181.72	21.91	-27.0	-28.7	15.5	0.00e+00	0	44	0	1786773504	14	4334
2026-01-23 00:04:58.03	181.79	21.78	-26.9	-28.8	15.7	0.00e+00	0	44	0	1789919232	13	4480
2026-01-23 00:04:59.04	181.85	21.64	-26.7	-28.5	15.8	0.00e+00	0	44	0	1793064960	13	4408
2026-01-23 00:05:00.03	181.92	21.51	-26.7	-28.4	15.9	0.00e+00	0	44	0	1796210688	13	4377
2026-01-23 00:05:01.04	181.98	21.37	-26.7	-28.3	15.9	0.00e+00	0	44	0	1799356416	13	4366
2026-01-23 00:05:02.04	182.05	21.23	-26.6	-28.1	16.0	0.00e+00	0	44	0	1802502144	13	4297
2026-01-23 00:05:03.04	182.11	21.10	-26.7	-28.3	15.9	0.00e+00	0	44	0	1805647872	13	4359
2026-01-23 00:05:04.05	182.17	20.97	-26.6	-28.2	16.0	0.00e+00	0	44	0	1808793600	13	4332
2026-01-23 00:05:05.06	182.23	20.83	-26.7	-28.4	15.9	0.00e+00	0	44	0	1811939328	13	4379
2026-01-23 00:05:06.07	182.30	20.70	-26.9	-28.9	15.6	0.00e+00	0	44	0	1815085056	13	4522
2026-01-23 00:05:07.07	182.36	20.57	-26.8	-28.7	15.7	0.00e+00	0	44	0	1818230784	13	4476
2026-01-23 00:05:08.07	182.42	20.44	-26.9	-28.8	15.7	0.00e+00	0	44	0	1821376512	13	4496
2026-01-23 00:05:09.08	182.48	20.31	-27.1	-28.9	15.4	0.00e+00	0	44	0	1824522240	14	4401
2026-01-23 00:05:10.08	182.54	20.18	-27.3	-29.3	15.1	0.00e+00	0	44	0	1827667968	14	4526
2026-01-23 00:05:11.08	182.59	20.05	-27.1	-28.8	15.4	0.00e+00	0	44	0	1830813696	14	4388
2026-01-23 00:05:12.08	182.65	19.92	-26.9	-28.5	15.5	0.00e+00	0	44	0	1833959424	14	4290
2026-01-23 00:05:13.08	182.71	19.80	-26.9	-28.3	15.6	0.00e+00	0	44	0	1837105152	14	4250
2026-01-23 00:05:14.09	182.77	19.67	-26.9	-28.3	15.6	0.00e+00	0	44	0	1840250880	14	4247
2026-01-23 00:05:15.09	182.83	19.54	-26.8	-28.7	15.6	0.00e+00	0	44	0	1843396608	13	4461
2026-01-23 00:05:16.10	182.88	19.41	-26.9	-29.0	15.5	0.00e+00	0	44	0	1846542336	13	4541
2026-01-23 00:05:17.10	182.94	19.29	-26.8	-28.6	15.7	0.00e+00	0	44	0	1849688064	13	4445
2026-01-23 00:05:18.10	182.99	19.17	-26.7	-28.5	15.7	0.00e+00	0	44	0	1852833792	13	4413
2026-01-23 00:05:19.10	183.05	19.04	-26.7	-28.5	15.8	0.00e+00	0	44	0	1855979520	13	4406
2026-01-23 00:05:20.10	183.11	18.92	-26.7	-28.4	15.8	0.00e+00	0	44	0	1859125248	13	4382
2026-01-23 00:05:21.11	183.16	18.80	-26.8	-28.6	15.7	0.00e+00	0	44	0	1862270976	13	4426
2026-01-23 00:05:22.11	183.21	18.67	-27.0	-29.0	15.5	0.00e+00	0	44	0	1865416704	13	4548
2026-01-23 00:05:23.12	183.27	18.55	-27.0	-28.6	15.4	0.00e+00	0	44	0	1868562432	14	4331
2026-01-23 00:05:24.12	183.32	18.43	-27.0	-28.6	15.4	0.00e+00	0	44	0	1871708160	14	4336
2026-01-23 00:05:25.12	183.37	18.31	-27.1	-28.9	15.2	0.00e+00	0	44	0	1874853888	14	4413
2026-01-23 00:05:26.13	183.43	18.19	-27.3	-29.2	15.1	0.00e+00	0	44	0	1877999616	14	4487
2026-01-23 00:05:27.13	183.48	18.07	-27.1	-28.9	15.2	0.00e+00	0	44	0	1881145344	14	4420
2026-01-23 00:05:28.13	183.53	17.95	-27.3	-29.2	15.0	0.00e+00	0	44	0	1884291072	14	4509
2026-01-23 00:05:29.13	183.58	17.84	-27.3	-29.3	15.1	0.00e+00	0	44	0	1887436800	14	4517
2026-01-23 00:05:30.13	183.63	17.72	-27.4	-29.5	14.9	6.10e-06	0	44	0	1890582528	14	4580
2026-01-23 00:05:31.14	183.68	17.60	-27.4	-29.4	14.9	0.00e+00	0	44	0	1893728256	14	4557
2026-01-23 00:05:32.14	183.73	17.48	-27.4	-29.6	14.8	7.00e-07	0	44	0	1896873984	14	4609
2026-01-23 00:05:33.14	183.78	17.37	-27.4	-29.5	14.9	0.00e+00	0	44	0	1898971136	14	4597
2026-01-23 00:05:34.14	183.83	17.25	-27.5	-29.3	14.7	0.00e+00	0	44	0	1902116864	15	4413
2026-01-23 00:05:35.14	183.88	17.14	-27.4	-28.9	14.9	0.00e+00	0	44	0	1905262592	15	4303
2026-01-23 00:05:36.14	183.93	17.02	-27.3	-29.3	15.0	4.50e-06	0	44	0	1908408320	14	4537
2026-01-23 00:05:37.14	183.98	16.91	-27.4	-29.5	14.9	4.50e-06	0	44	0	1911554048	14	4577
2026-01-23 00:05:38.15	184.03	16.80	-27.3	-29.3	14.0	0.00e+00	0	44	0	1914699776	14	4539
2026-01-23 00:05:39.15	184.08	16.68	-27.3	-29.3	14.7	5.30e-06	0	44	0	1917845504	14	4527
2026-01-23 00:05:40.15	184.12	16.57	-27.4	-29.4	14.9	7.00e-07	0	44	0	1922039808	14	4558
2026-01-23 00:05:41.16	184.17	16.46	-27.4	-29.6	14.8	7.00e-07	0	44	0	1924136960	14	4623
2026-01-23 00:05:42.16	184.22	16.35	-27.4	-29.4	14.9	6.83e-04	0	44	0	1927282688	14	4555
2026-01-23 00:05:43.16	184.27	16.24	-27.4	-29.4	14.9	0.00e+00	0	44	0	1930428416	14	4550
2026-01-23 00:05:44.16	184.31	16.13	-27.4	-29.6	14.8	0.00e+00	0	44	0	1933574144	14	4604
2026-01-23 00:05:45.17	184.36	16.02	-27.4	-29.4	14.9	7.00e-07	0	44	0	1936719872	14	4565
2026-01-23 00:05:46.17	184.40	15.91	-27.5	-29.7	14.8	0.00e+00	0	44	0	1939865600	14	4635
2026-01-23 00:05:47.17	184.45	15.80	-27.6	-29.5	14.6	5.65e-04	0	44	0	1943011328	15	4467
2026-01-23 00:05:48.18	184.49	15.69	-27.8	-30.0	14.3	6.19e-04	0	44	0	1946157056	15	4633
2026-01-23 00:05:49.18	184.54	15.58	-27.8	-29.8	14.4	7.00e-07	0	44	0	1949302784	15	4571
2026-01-23 00:05:50.19	184.58	15.47	-27.9	-30.1	14.2	2.20e-06	0	44	0	1952448512	15	4660
2026-01-23 00:05:51.19	184.63	15.37	-27.8	-30.0	14.3	0.00e+00	0	44	0	1955594240	15	4628
2026-01-23 00:05:52.19	184.67	15.26	-27.9	-30.2	14.1	7.00e-07	0	44	0	1958739968	15	4701
2026-01-23 00:05:53.19	184.71	15.15	-27.9	-30.3	14.1	5.70e-04	0	44	0	1961885696	15	4709
2026-01-23 00:05:54.20	184.76	15.05	-28.0	-30.4	14.0	5.49e-04	0	44	0	1965031424	15	4765
2026-01-23 00:05:55.20	184.80	14.94	-28.4	-30.8	13.7	4.50e-06	0	44	0	1968177152	16	4770
2026-01-23 00:05:56.20	184.84	14.84	-28.3	-30.5	13.8	4.34e-04	0	44	0	1971322880	16	4667
2026-01-23 00:05:57.21	184.89	14.73	-28.4	-30.5	13.5	5.69e-04	0	44	0	1974468608	17	4537
2026-01-23 00:05:58.22	184.93	14.63	-28.2	-29.9	13.9	3.00e-06	0	44	0	1977614336	17	4370
2026-01-23 00:05:59.22	184.97	14.53	-28.1	-29.6	14.1	5.51e-04	0	44	0	1980760064	17	4275
2026-01-23 00:06:00.23	185.01	14.42	-28.0	-29.9	14.1	5.29e-04	0	44	0	1983905792	16	4487
2026-01-23 00:06:01.23	185.05	14.32	-28.0	-30.0	14.1	2.20e-06	0	44	0	1987051520	16	4521
2026-01-23 00:06:02.23	185.10	14.22	-28.1	-30.1	14.0	3.92e-04	0	44	0	1990197248	16	4540
2026-01-23 00:06:03.23	185.14	14.12	-28.0	-30.0	14.1	3.90e-04	0	44	0	1993342976	16	4512
2026-01-23 00:06:04.23	185.18	14.01	-28.1	-30.1	14.1	2.20e-06	0	44	0	1996488704	16	4541
2026-01-23 00:06:05.24	185.22	13.91	-28.1	-30.1	14.0	3.42e-04	0	44	0	1999634432	16	4541
2026-01-23 00:06:06.25	185.26	13.81	-28.0	-30.0	14.1	2.20e-06	0	44	0	2002780160	16	4513
2026-01-23 00:06:07.24	185.30	13.71	-28.1	-30.2	14.0	7.00e-07	0	44	0	2005925888	16	4562
2026-01-23 00:06:08.25	185.34	13.61	-28.1	-30.1	14.0	3.38e-04	0	44	0	2009071616	16	4547
2026-01-23 00:06:09.26	185.38	13.51	-28.2	-30.4	13.8	2.88e-04	0	44	0	2012217344	16	4632
2026-01-23 00:06:10.26	185.42	13.41	-28.3	-30.5	13.7	6.80e-06	0	44	0	2015363072	16	4675
2026-01-23 00:06:11.27	185.45	13.31	-28.1	-30.2	14.0	2.20e-06	0	44	0	2018508800	16	4568
2026-01-23 00:06:12.27	185.49	13.22	-28.1	-30.2	14.0	3.00e-06	0	44	0	2021654528	16	4569
2026-01-23 00:06:13.28	185.53	13.12	-28.2	-30.3	13.9	3.80e-06	0	44	0	2024800256	16	4605
2026-01-23 00:06:14.27	185.57	13.02	-28.3	-30.5	13.7	2.93e-04	0	44	0	2027945984	16	4672
2026-01-23 00:06:15.28	185.61	12.92	-28.4	-31.0	13.5	3.23e-04	0	44	0	2031091712	16	4817
2026-01-23 00:06:16.28	185.65	12.83	-28.4	-30.9	13.5	8.30e-06	0	44	0	2034237440	16	4793
2026-01-23 00:06:17.27	185.68	12.73	-28.3	-30.7	13.6	4.50e-06	0	44	0	2037383168	16	4730
2026-01-23 00:06:18.28	185.72	12.63	-28.4	-30.9	13.5	3.40e-04	0	44	0	2040528896	16	4793
2026-01-23 00:06:19.28	185.76	12.54	-28.5	-31.0	13.4	1.14e-05	0	44	0	2043674624	16	4831
2026-01-23 00:06:20.29	185.79	12.44	-28.5	-30.6	13.3	1.06e-05	0	44	0	2046820352	17	4596
2026-01-23 00:06:21.29	185.83	12.35	-28.4	-30.5	13.4	7.60e-06	0	44	0	2049966080	17	4557
2026-01-23 00:06:22.30	185.87	12.25	-28.4	-30.4	13.5	9.90e-06	0	44	0	2053111808	17	4543
2026-01-23 00:06:23.31	185.90	12.16	-28.5	-30.6	13.4	9.90e-06	0	44	0	2056257536	17	4572
2026-01-23 00:06:24.31	185.94	12.06	-28.6	-31.0	13.1	2.67e-05	0	44	0	2059403264	17	4702
2026-01-23 00:06:25.32	185.98	11.97	-28.5	-30.5	13.4	1.83e-05	0	44	0	2062548992	17	4559
2026-01-23 00:06:26.32	186.01	11.88	-28.3	-30.1	13.7	6.10e-06	0	44	0	2065694720	17	4423
2026-01-23 00:06:27.33	186.05	11.78	-28.2	-29.8	13.8	4.50e-06	0	44	0	2068840448	17	4353
2026-01-23 00:06:28.32	186.08	11.69	-28.2	-29.9	13.7	2.20e-06	0	44	0	2071986176	17	4378
2026-01-23 00:06:29.33	186.12	11.60	-28.2	-30.0	13.7	1.60e-05	0	44	0	2075131904	17	4411
2026-01-23 00:06:30.33	186.15	11.51	-28.3	-30.2	13.5	1.14e-05	0	44	0	2078277632	17	4480
2026-01-23 00:06:31.34	186.19	11.42	-28.3	-30.2	13.5	8.30e-06	0	44	0	2081423360	17	4461
2026-01-23 00:06:32.34	186.22	11.33	-28.4	-30.4	13.4	2.28e-05	0	44	0	2084569088	17	4534
2026-01-23 00:06:33.34	186.26	11.24	-28.4	-30.5	13.4	1.29e-05	0	44	0	2087714816	17	4548
2026-01-23 00:06:34.34	186.29	11.15	-28.4	-30.5	13.4	1.98e-05	0	44	0	2090860544	17	4552
2026-01-23 00:06:35.35	186.32	11.05	-28.3	-30.1	13.6	2.13e-05	0	44	0	2094006272	17	4432
2026-01-23 00:06:36.36	186.36	10.96	-28.3	-30.1	13.6	5.30e-06	0	44	0	2097152000	17	4439
2026-01-23 00:06:37.35	186.39	10.88	-28.3	-30.1	13.6	6.10e-06	0	44	0	2100297728	17	4435
2026-01-23 00:06:38.36	186.42	10.79	-28.3	-30.7	13.5	2.51e-05	0	44	0	2103443456	16	4742
2026-01-23 00:06:39.35	186.46	10.70	-28.4	-30.8	13.4	1.14e-05	0	44	0	2106589184	16	4770
2026-01-23 00:06:40.36	186.49	10.61	-28.4	-30.9	13.3	1.52e-05	0	44	0	2109734912	16	4814
2026-01-23 00:06:41.36	186.52	10.52	-28.3	-30.6	13.5	1.22e-05	0	44	0	2112880640	16	4712
2026-01-23 00:06:42.37	186.55	10.43	-28.2	-30.5	13.6	1.22e-05	0	44	0	2116026368	16	4689
2026-01-23 00:06:43.38	186.59	10.34	-28.3	-30.7	13.4	1.67e-05	0	44	0	2119172096	16	4753
2026-01-23 00:06:44.38	186.62	10.26	-28.3	-30.7	13.4	2.51e-05	0	44	0	2122317824	16	4741
2026-01-23 00:06:45.38	186.65	10.17	-28.3	-30.7	13.4	1.60e-05	0	44	0	2125463552	16	4736
2026-01-23 00:06:46.39	186.68	10.08	-28.3	-30.8	13.4	1.29e-05	0	44	0	2128609280	16	4773
2026-01-23 00:06:47.39	186.72	10.00	-28.5	-31.0	13.2	3.96e-05	0	44	0	2131755008	16	4852
2026-01-23 00:06:48.40	186.75	9.91	-28.3	-30.8	13.4	1.22e-05	0	44	0	2134900736	16	4776
2026-01-23 00:06:49.40	186.78	9.82	-28.4	-30.9	13.3	1.44e-05	0	44	0	2138046464	16	4820
