passes_logs/2026/01/22/R2M6_AANII_01/R2M6_AANII_01__20260122_121914_SUOMI_NPP_rec.log

#Pass ID: 20260122_121914_SUOMI NPP
#Satellite: SUOMI NPP
#Configuration: NPP
#almurnet v.1.7.20240730
#Start time: 2026-01-22 12:19:15

#Version: 2.2.20231116
#Station: R2M6_AANII_01
#Location: 30.233357 lon 59.946436 lat
#TLE: 1 37849U 11061A   26021.51818991  .00000201  00000+0  11636-3 0  9995
#TLE: 2 37849  98.7819 323.5108 0002300  52.3548 307.7836 14.19527793737637

#Time	Az	El	Level	Level2	SNR	BER	BlckErr	Temp	State	Recorded	gain1	gain2
2026-01-22 12:19:15.26	224.80	7.07	-31.2	-34.8	5.2	1.19e+00	0	41	0	0	23	5456
2026-01-22 12:19:16.26	224.91	7.13	-31.6	-36.3	4.8	1.26e+00	0	41	104	0	24	6146
2026-01-22 12:19:17.26	225.03	7.18	-31.6	-35.8	7.6	1.06e-01	0	42	0	0	24	5852
2026-01-22 12:19:18.25	225.14	7.24	-31.6	-36.1	7.3	1.17e-01	0	41	0	1048576	24	6038
2026-01-22 12:19:19.26	225.25	7.30	-31.6	-35.7	7.7	9.16e-02	0	41	0	3145728	24	5785
2026-01-22 12:19:20.26	225.37	7.35	-31.4	-35.0	8.2	7.21e-02	0	41	0	5242880	24	5463
2026-01-22 12:19:21.26	225.48	7.41	-31.4	-34.8	8.5	5.10e-02	0	42	0	7340032	24	5333
2026-01-22 12:19:22.27	225.60	7.47	-31.3	-34.9	8.8	3.25e-02	0	41	0	9437184	23	5442
2026-01-22 12:19:23.27	225.71	7.53	-31.3	-34.8	8.9	2.89e-02	0	42	0	10485760	23	5401
2026-01-22 12:19:24.28	225.83	7.58	-31.2	-34.7	9.0	2.90e-02	0	42	0	12582912	23	5338
2026-01-22 12:19:25.28	225.95	7.64	-31.0	-33.8	9.7	1.60e-02	0	42	0	14680064	23	4950
2026-01-22 12:19:26.29	226.06	7.70	-30.9	-33.3	10.0	9.57e-03	0	42	0	16777216	23	4767
2026-01-22 12:19:27.30	226.18	7.75	-30.6	-32.9	10.7	4.33e-03	0	42	0	17825792	22	4690
2026-01-22 12:19:28.30	226.30	7.81	-30.6	-33.0	10.7	2.65e-03	0	42	0	19922944	22	4716
2026-01-22 12:19:29.31	226.42	7.87	-30.6	-32.7	10.9	2.30e-03	0	42	0	22020096	22	4614
2026-01-22 12:19:30.30	226.54	7.93	-30.7	-33.2	10.6	2.46e-03	0	42	0	24117248	22	4789
2026-01-22 12:19:31.31	226.66	7.98	-30.7	-33.3	10.5	3.60e-03	0	42	0	26214400	22	4824
2026-01-22 12:19:32.31	226.77	8.04	-30.7	-33.1	10.7	3.66e-03	0	42	0	27262976	22	4732
2026-01-22 12:19:33.31	226.89	8.10	-30.7	-33.3	10.5	4.43e-03	0	42	0	29360128	22	4808
2026-01-22 12:19:34.31	227.01	8.15	-30.6	-32.9	10.8	3.09e-03	0	42	0	31457280	22	4674
2026-01-22 12:19:35.31	227.13	8.21	-30.6	-32.9	10.9	2.48e-03	0	42	0	33554432	22	4663
2026-01-22 12:19:36.32	227.26	8.27	-30.6	-32.9	10.8	2.10e-03	0	42	0	35651584	22	4667
2026-01-22 12:19:37.32	227.38	8.33	-30.7	-33.2	10.6	3.23e-03	0	42	0	36700160	22	4780
2026-01-22 12:19:38.32	227.50	8.38	-30.6	-32.7	11.0	1.87e-03	0	42	0	38797312	22	4585
2026-01-22 12:19:39.32	227.62	8.44	-30.4	-32.3	11.3	1.10e-03	0	42	0	40894464	22	4437
2026-01-22 12:19:40.32	227.75	8.50	-30.4	-32.0	11.5	7.32e-04	0	42	0	42991616	22	4349
2026-01-22 12:19:41.32	227.87	8.56	-30.3	-31.8	11.7	7.29e-04	0	42	0	45088768	22	4274
2026-01-22 12:19:42.33	227.99	8.61	-30.3	-32.3	11.7	5.15e-04	0	42	0	46137344	21	4522
2026-01-22 12:19:43.34	228.12	8.67	-30.2	-32.1	11.8	4.88e-04	0	42	0	48234496	21	4476
2026-01-22 12:19:44.34	228.24	8.73	-30.4	-32.5	11.5	6.45e-04	0	42	0	50331648	21	4613
2026-01-22 12:19:45.34	228.37	8.79	-30.3	-32.5	11.6	9.19e-04	0	42	0	52428800	21	4592
2026-01-22 12:19:46.35	228.50	8.84	-30.2	-32.1	11.8	4.87e-04	0	42	0	54525952	21	4460
2026-01-22 12:19:47.35	228.62	8.90	-30.2	-32.0	11.9	4.78e-04	0	42	0	55574528	21	4423
2026-01-22 12:19:48.35	228.75	8.96	-30.2	-31.9	12.0	3.03e-04	0	42	0	57671680	21	4390
2026-01-22 12:19:49.35	228.88	9.02	-30.1	-31.7	12.2	2.94e-04	0	42	0	59768832	21	4309
2026-01-22 12:19:50.35	229.00	9.07	-30.2	-32.1	11.9	2.82e-04	0	42	0	61865984	21	4452
2026-01-22 12:19:51.35	229.13	9.13	-30.2	-31.9	12.0	3.90e-04	0	43	0	62914560	21	4403
2026-01-22 12:19:52.35	229.26	9.19	-30.1	-31.7	12.1	2.32e-04	0	42	0	65011712	21	4319
2026-01-22 12:19:53.35	229.39	9.24	-30.1	-31.8	12.1	2.72e-04	0	42	0	67108864	21	4352
2026-01-22 12:19:54.35	229.52	9.30	-30.1	-31.8	12.0	2.36e-04	0	43	0	69206016	21	4361
2026-01-22 12:19:55.35	229.65	9.36	-30.2	-31.8	12.1	2.42e-04	0	42	0	71303168	21	4351
2026-01-22 12:19:56.35	229.78	9.42	-30.3	-32.2	11.8	5.48e-04	0	43	0	72351744	21	4484
2026-01-22 12:19:57.36	229.91	9.48	-30.3	-32.2	11.8	4.78e-04	0	42	0	74448896	21	4470
2026-01-22 12:19:58.36	230.04	9.53	-30.3	-32.2	11.8	4.32e-04	0	43	0	76546048	21	4506
2026-01-22 12:19:59.37	230.18	9.59	-30.3	-32.2	11.8	4.63e-04	0	43	0	78643200	21	4480
2026-01-22 12:20:00.37	230.31	9.65	-30.2	-32.0	11.9	4.88e-04	0	42	0	80740352	21	4434
2026-01-22 12:20:01.36	230.44	9.70	-30.3	-32.2	11.9	3.88e-04	0	42	0	81788928	21	4473
2026-01-22 12:20:02.37	230.58	9.76	-30.4	-32.4	11.7	4.97e-04	0	43	0	83886080	21	4564
2026-01-22 12:20:03.37	230.71	9.82	-30.4	-32.4	11.7	6.38e-04	0	43	0	85983232	21	4545
2026-01-22 12:20:04.36	230.84	9.88	-30.5	-32.8	11.3	1.17e-03	0	42	0	88080384	21	4693
2026-01-22 12:20:05.37	230.98	9.93	-30.3	-32.2	11.8	7.37e-04	0	42	0	90177536	21	4498
2026-01-22 12:20:06.36	231.11	9.99	-30.3	-32.2	11.8	3.52e-04	0	43	0	91226112	21	4484
2026-01-22 12:20:07.37	231.25	10.05	-30.4	-32.7	11.5	5.60e-04	0	43	0	93323264	21	4667
2026-01-22 12:20:08.38	231.39	10.11	-30.6	-33.1	11.2	1.47e-03	0	43	0	95420416	21	4815
2026-01-22 12:20:09.37	231.52	10.16	-30.4	-32.6	11.5	8.50e-04	0	43	0	97517568	21	4626
2026-01-22 12:20:10.37	231.66	10.22	-30.4	-32.4	11.7	4.71e-04	0	43	0	99614720	21	4538
2026-01-22 12:20:11.38	231.80	10.28	-30.4	-32.4	11.8	4.46e-04	0	43	0	100663296	21	4536
2026-01-22 12:20:12.38	231.94	10.34	-30.5	-32.7	11.5	5.87e-04	0	43	0	102760448	21	4658
2026-01-22 12:20:13.39	232.08	10.39	-30.4	-32.6	11.5	7.20e-04	0	43	0	104857600	21	4633
2026-01-22 12:20:14.39	232.22	10.45	-30.5	-32.9	11.3	6.71e-04	0	43	0	106954752	21	4739
2026-01-22 12:20:15.40	232.36	10.51	-30.6	-33.0	11.3	1.22e-03	0	43	0	108003328	21	4757
2026-01-22 12:20:16.40	232.50	10.57	-30.3	-32.2	11.9	5.77e-04	0	43	0	110100480	21	4491
2026-01-22 12:20:17.41	232.65	10.63	-30.3	-32.1	12.0	3.70e-04	0	43	0	112197632	21	4444
2026-01-22 12:20:18.41	232.79	10.68	-30.2	-31.9	12.1	2.91e-04	0	43	0	114294784	21	4365
2026-01-22 12:20:19.41	232.93	10.74	-30.3	-32.1	12.0	2.62e-04	0	43	0	116391936	21	4427
2026-01-22 12:20:20.42	233.07	10.80	-30.3	-32.1	12.0	3.51e-04	0	43	0	118489088	21	4428
2026-01-22 12:20:21.42	233.22	10.85	-30.3	-32.1	12.0	2.11e-04	0	43	0	119537664	21	4444
2026-01-22 12:20:22.42	233.36	10.91	-30.3	-32.2	11.9	5.07e-04	0	43	0	121634816	21	4458
2026-01-22 12:20:23.42	233.51	10.97	-30.2	-32.0	12.1	2.78e-04	0	43	0	123731968	21	4386
2026-01-22 12:20:24.42	233.65	11.03	-30.2	-31.9	12.2	1.63e-04	0	43	0	125829120	21	4350
2026-01-22 12:20:25.42	233.80	11.08	-30.1	-31.6	12.3	2.53e-04	0	43	0	126877696	21	4255
2026-01-22 12:20:26.43	233.95	11.14	-30.2	-31.8	12.2	2.10e-04	0	43	0	128974848	21	4344
2026-01-22 12:20:27.44	234.09	11.20	-30.1	-31.6	12.3	2.10e-04	0	43	0	131072000	21	4279
2026-01-22 12:20:28.44	234.24	11.26	-30.0	-31.2	12.6	1.55e-04	0	43	0	133169152	21	4152
2026-01-22 12:20:29.45	234.39	11.31	-30.0	-31.3	12.6	1.20e-04	0	43	0	135266304	21	4169
2026-01-22 12:20:30.45	234.54	11.37	-30.0	-31.2	12.7	7.01e-05	0	43	0	136314880	21	4138
2026-01-22 12:20:31.46	234.69	11.43	-30.0	-31.2	12.7	9.99e-05	0	43	0	138412032	21	4143
2026-01-22 12:20:32.46	234.84	11.48	-29.9	-31.0	12.8	7.93e-05	0	43	0	140509184	21	4078
2026-01-22 12:20:33.46	234.99	11.54	-30.1	-31.4	12.5	9.53e-05	0	43	0	142606336	21	4210
2026-01-22 12:20:34.47	235.14	11.60	-30.0	-31.3	12.6	1.13e-04	0	43	0	144703488	21	4169
2026-01-22 12:20:35.47	235.29	11.65	-30.0	-31.3	12.6	7.17e-05	0	43	0	145752064	21	4159
2026-01-22 12:20:36.47	235.44	11.71	-30.0	-31.3	12.6	1.04e-04	0	43	0	147849216	21	4157
2026-01-22 12:20:37.47	235.60	11.77	-30.0	-31.2	12.7	6.86e-05	0	43	0	149946368	21	4135
2026-01-22 12:20:38.47	235.75	11.82	-30.0	-31.2	12.7	7.62e-05	0	43	0	152043520	21	4134
2026-01-22 12:20:39.47	235.90	11.88	-30.0	-31.3	12.7	1.01e-04	0	43	0	154140672	21	4162
2026-01-22 12:20:40.46	236.06	11.94	-30.1	-31.6	12.4	1.39e-04	0	43	0	155189248	21	4273
2026-01-22 12:20:41.47	236.21	11.99	-30.2	-31.6	12.4	1.78e-04	0	43	0	157286400	21	4274
2026-01-22 12:20:42.48	236.37	12.05	-30.3	-32.0	12.1	2.17e-04	0	43	0	159383552	21	4405
2026-01-22 12:20:43.48	236.53	12.11	-30.4	-32.3	12.0	2.71e-04	0	43	0	161480704	21	4482
2026-01-22 12:20:44.48	236.68	12.16	-30.4	-32.4	11.9	3.71e-04	0	43	0	163577856	21	4537
2026-01-22 12:20:45.48	236.84	12.22	-30.4	-32.3	11.9	3.44e-04	0	43	0	164626432	21	4510
2026-01-22 12:20:46.49	237.00	12.28	-30.4	-32.4	11.9	2.92e-04	0	43	0	166723584	21	4532
2026-01-22 12:20:47.49	237.16	12.33	-30.4	-32.3	11.9	4.45e-04	0	43	0	168820736	21	4511
2026-01-22 12:20:48.50	237.32	12.39	-30.3	-32.0	12.2	2.59e-04	0	43	0	170917888	21	4387
2026-01-22 12:20:49.50	237.48	12.44	-30.3	-32.1	12.1	3.64e-04	0	43	0	171966464	21	4436
2026-01-22 12:20:50.51	237.64	12.50	-30.2	-31.6	12.4	1.59e-04	0	43	0	174063616	21	4262
2026-01-22 12:20:51.51	237.80	12.56	-30.1	-31.4	12.6	9.84e-05	0	43	0	176160768	21	4179
2026-01-22 12:20:52.52	237.96	12.61	-30.1	-31.5	12.5	9.99e-05	0	43	0	178257920	21	4209
2026-01-22 12:20:53.52	238.12	12.67	-30.2	-31.7	12.4	1.27e-04	0	43	0	180355072	21	4295
2026-01-22 12:20:54.52	238.28	12.72	-30.2	-31.7	12.4	1.15e-04	0	43	0	181403648	21	4296
2026-01-22 12:20:55.52	238.45	12.78	-30.3	-32.1	12.1	1.82e-04	0	43	0	183500800	21	4426
2026-01-22 12:20:56.52	238.61	12.83	-30.4	-32.2	12.0	3.11e-04	0	43	0	185597952	21	4458
2026-01-22 12:20:57.52	238.78	12.89	-30.0	-31.2	12.7	1.11e-04	0	43	0	187695104	21	4138
2026-01-22 12:20:58.52	238.94	12.94	-29.9	-31.0	12.9	8.69e-05	0	43	0	189792256	21	4056
2026-01-22 12:20:59.53	239.11	13.00	-29.8	-30.7	13.1	3.28e-05	0	43	0	190840832	21	3980
2026-01-22 12:21:00.52	239.27	13.05	-29.7	-30.9	13.3	2.05e-05	0	43	0	192937984	20	4110
2026-01-22 12:21:01.53	239.44	13.11	-29.6	-30.7	13.5	1.22e-05	0	43	0	195035136	20	4052
2026-01-22 12:21:02.53	239.61	13.16	-29.8	-31.2	13.1	1.75e-05	0	43	0	197132288	20	4203
2026-01-22 12:21:03.53	239.77	13.22	-29.8	-31.1	13.3	2.82e-05	0	43	0	199229440	20	4172
2026-01-22 12:21:04.54	239.94	13.27	-29.7	-30.9	13.3	2.21e-05	0	43	0	200278016	20	4118
2026-01-22 12:21:05.55	240.11	13.33	-29.8	-31.0	13.2	1.75e-05	0	43	0	202375168	20	4158
2026-01-22 12:21:06.55	240.28	13.38	-29.8	-31.1	13.2	1.98e-05	0	43	0	204472320	20	4174
2026-01-22 12:21:07.56	240.46	13.44	-29.9	-31.5	12.9	4.04e-05	0	43	0	206569472	20	4292
2026-01-22 12:21:08.56	240.63	13.49	-30.0	-31.6	12.9	5.56e-05	0	43	0	208666624	20	4351
2026-01-22 12:21:09.56	240.80	13.55	-29.9	-31.5	13.0	4.80e-05	0	43	0	209715200	20	4301
2026-01-22 12:21:10.56	240.97	13.60	-29.9	-31.5	13.0	5.72e-05	0	43	0	211812352	20	4292
2026-01-22 12:21:11.57	241.14	13.65	-30.0	-31.5	13.0	3.96e-05	0	43	0	213909504	20	4315
2026-01-22 12:21:12.57	241.32	13.71	-29.8	-31.2	13.2	3.20e-05	0	43	0	216006656	20	4193
2026-01-22 12:21:13.58	241.49	13.76	-29.8	-30.9	13.4	1.14e-05	0	43	0	218103808	20	4122
2026-01-22 12:21:14.59	241.67	13.82	-29.8	-31.0	13.3	1.67e-05	0	43	0	219152384	20	4143
2026-01-22 12:21:15.59	241.84	13.87	-29.8	-31.0	13.3	1.83e-05	0	43	0	221249536	20	4140
2026-01-22 12:21:16.60	242.02	13.92	-29.7	-30.8	13.4	1.67e-05	0	43	0	223346688	20	4081
2026-01-22 12:21:17.60	242.20	13.98	-29.8	-31.0	13.3	1.60e-05	0	43	0	225443840	20	4133
2026-01-22 12:21:18.61	242.38	14.03	-29.8	-31.0	13.3	8.30e-06	0	43	0	226492416	20	4155
2026-01-22 12:21:19.61	242.55	14.08	-29.8	-31.0	13.3	2.44e-05	0	43	0	228589568	20	4133
2026-01-22 12:21:20.62	242.73	14.13	-29.7	-30.9	13.4	1.52e-05	0	43	0	230686720	20	4104
2026-01-22 12:21:21.62	242.91	14.19	-29.8	-31.1	13.3	1.44e-05	0	44	0	232783872	20	4167
2026-01-22 12:21:22.62	243.09	14.24	-29.8	-31.0	13.3	2.21e-05	0	43	0	234881024	20	4157
2026-01-22 12:21:23.63	243.27	14.29	-29.8	-31.0	13.3	1.60e-05	0	43	0	236978176	20	4136
2026-01-22 12:21:24.63	243.45	14.34	-29.9	-31.4	13.1	2.82e-05	0	43	0	238026752	20	4256
2026-01-22 12:21:25.62	243.63	14.40	-29.9	-31.3	13.2	1.60e-05	0	43	0	240123904	20	4223
2026-01-22 12:21:26.62	243.81	14.45	-29.9	-31.3	13.1	2.97e-05	0	44	0	242221056	20	4243
2026-01-22 12:21:27.63	244.00	14.50	-30.0	-31.7	12.9	3.35e-05	0	43	0	244318208	20	4347
2026-01-22 12:21:28.63	244.18	14.55	-29.9	-31.5	13.1	4.19e-05	0	43	0	245366784	20	4284
2026-01-22 12:21:29.63	244.37	14.60	-30.0	-31.5	13.0	5.18e-05	0	43	0	247463936	20	4301
2026-01-22 12:21:30.63	244.55	14.65	-30.0	-31.7	12.9	4.95e-05	0	43	0	249561088	20	4370
2026-01-22 12:21:31.64	244.74	14.70	-30.0	-31.5	13.0	2.82e-05	0	43	0	251658240	20	4286
2026-01-22 12:21:32.64	244.92	14.75	-29.8	-31.0	13.4	1.67e-05	0	43	0	253755392	20	4139
2026-01-22 12:21:33.65	245.11	14.81	-29.9	-31.2	13.2	1.29e-05	0	43	0	254803968	20	4193
2026-01-22 12:21:34.65	245.30	14.86	-29.8	-31.0	13.3	1.90e-05	0	44	0	256901120	20	4155
2026-01-22 12:21:35.65	245.48	14.91	-29.8	-31.1	13.3	1.22e-05	0	43	0	258998272	20	4158
2026-01-22 12:21:36.66	245.67	14.96	-30.0	-31.5	13.1	1.83e-05	0	43	0	261095424	20	4288
2026-01-22 12:21:37.67	245.86	15.01	-30.0	-31.7	12.9	3.28e-05	0	43	0	263192576	20	4367
2026-01-22 12:21:38.67	246.05	15.06	-30.1	-31.9	12.8	5.79e-05	0	43	0	264241152	20	4409
2026-01-22 12:21:39.67	246.24	15.11	-30.2	-32.3	12.5	1.16e-04	0	43	0	266338304	20	4544
2026-01-22 12:21:40.67	246.43	15.16	-30.2	-32.2	12.6	8.23e-05	0	43	0	268435456	20	4518
2026-01-22 12:21:41.67	246.62	15.20	-30.2	-32.2	12.6	6.40e-05	0	43	0	270532608	20	4504
2026-01-22 12:21:42.67	246.82	15.25	-30.3	-32.3	12.5	8.77e-05	0	43	0	272629760	20	4566
2026-01-22 12:21:43.68	247.01	15.30	-30.3	-32.5	12.4	1.23e-04	0	43	0	273678336	20	4604
2026-01-22 12:21:44.68	247.20	15.35	-30.2	-32.2	12.5	1.55e-04	0	43	0	275775488	20	4536
2026-01-22 12:21:45.69	247.40	15.40	-30.3	-32.3	12.5	1.08e-04	0	44	0	277872640	20	4544
2026-01-22 12:21:46.69	247.59	15.45	-30.4	-32.7	12.3	1.39e-04	0	43	0	279969792	20	4695
2026-01-22 12:21:47.69	247.79	15.50	-30.4	-32.8	12.2	2.23e-04	0	43	0	282066944	20	4745
2026-01-22 12:21:48.69	247.98	15.54	-30.5	-32.9	12.1	2.27e-04	0	43	0	283115520	20	4779
2026-01-22 12:21:49.69	248.18	15.59	-30.5	-32.5	12.0	2.53e-04	0	43	0	285212672	21	4539
2026-01-22 12:21:50.70	248.38	15.64	-30.6	-32.8	11.8	3.88e-04	0	43	0	287309824	21	4649
2026-01-22 12:21:51.70	248.57	15.68	-30.5	-32.4	12.0	4.68e-04	0	43	0	289406976	21	4514
2026-01-22 12:21:52.71	248.77	15.73	-30.4	-32.2	12.3	2.16e-04	0	43	0	291504128	21	4431
2026-01-22 12:21:53.72	248.97	15.78	-30.3	-32.0	12.4	1.72e-04	0	43	0	292552704	21	4361
2026-01-22 12:21:54.73	249.17	15.83	-30.4	-32.1	12.4	1.30e-04	0	44	0	294649856	21	4394
2026-01-22 12:21:55.73	249.37	15.87	-30.4	-32.1	12.4	1.28e-04	0	43	0	296747008	21	4386
2026-01-22 12:21:56.74	249.57	15.92	-30.4	-32.2	12.2	1.62e-04	0	44	0	298844160	21	4424
2026-01-22 12:21:57.74	249.77	15.96	-30.4	-32.1	12.4	1.81e-04	0	44	0	299892736	21	4380
2026-01-22 12:21:58.74	249.98	16.01	-30.3	-31.9	12.4	1.55e-04	0	43	0	301989888	21	4342
2026-01-22 12:21:59.75	250.18	16.05	-30.2	-31.7	12.6	1.02e-04	0	44	0	304087040	21	4264
2026-01-22 12:22:00.75	250.38	16.10	-30.4	-32.1	12.4	8.85e-05	0	44	0	306184192	21	4395
2026-01-22 12:22:01.75	250.58	16.14	-30.1	-32.0	12.0	1.44e-02	0	43	0	308281344	21	4458
2026-01-22 12:22:02.76	250.79	16.19	-30.3	-32.3	11.8	1.43e-02	0	44	0	309329920	21	4532
2026-01-22 12:22:03.76	250.99	16.23	-30.3	-32.5	11.7	1.35e-02	0	43	0	311427072	21	4601
2026-01-22 12:22:04.76	251.20	16.27	-30.3	-32.4	11.9	1.29e-02	0	43	0	313524224	21	4549
2026-01-22 12:22:05.77	251.41	16.32	-30.4	-32.3	11.9	6.93e-03	0	44	0	315621376	21	4506
2026-01-22 12:22:06.77	251.61	16.36	-30.3	-32.1	12.1	5.51e-03	0	44	0	317718528	21	4431
2026-01-22 12:22:07.77	251.82	16.40	-30.4	-32.2	12.1	4.50e-03	0	44	0	318767104	21	4448
2026-01-22 12:22:08.77	252.03	16.45	-30.2	-31.9	12.3	1.58e-03	0	44	0	320864256	21	4356
2026-01-22 12:22:09.77	252.23	16.49	-30.4	-32.5	11.9	3.51e-03	0	44	0	322961408	21	4550
2026-01-22 12:22:10.78	252.44	16.53	-30.5	-32.6	11.7	4.11e-03	0	44	0	325058560	21	4598
2026-01-22 12:22:11.78	252.65	16.57	-30.5	-32.6	11.8	6.72e-03	0	43	0	327155712	21	4578
2026-01-22 12:22:12.79	252.86	16.62	-30.5	-32.9	11.5	8.33e-03	0	44	0	328204288	21	4712
2026-01-22 12:22:13.80	253.08	16.66	-30.5	-32.7	11.6	1.27e-02	0	44	0	330301440	21	4659
2026-01-22 12:22:14.80	253.29	16.70	-30.4	-32.8	11.5	1.44e-02	0	44	0	332398592	21	4704
2026-01-22 12:22:15.80	253.50	16.74	-30.3	-32.5	11.7	1.43e-02	0	44	0	334495744	21	4601
2026-01-22 12:22:16.81	253.71	16.78	-30.1	-31.9	12.0	1.40e-02	0	43	0	336592896	21	4417
2026-01-22 12:22:17.81	253.92	16.82	-30.0	-31.4	12.4	1.38e-02	0	44	0	337641472	21	4235
2026-01-22 12:22:18.80	254.13	16.86	-30.2	-32.0	12.1	1.38e-02	0	44	0	339738624	21	4413
2026-01-22 12:22:19.80	254.35	16.90	-30.1	-31.6	12.4	1.36e-02	0	44	0	341835776	21	4268
2026-01-22 12:22:20.80	254.56	16.94	-30.2	-31.9	12.3	1.33e-02	0	44	0	343932928	21	4357
2026-01-22 12:22:21.81	254.78	16.98	-30.3	-32.1	12.1	1.09e-02	0	44	0	346030080	21	4416
2026-01-22 12:22:22.81	254.99	17.01	-30.3	-32.1	12.1	7.06e-03	0	44	0	347078656	21	4434
2026-01-22 12:22:23.81	255.21	17.05	-30.2	-31.8	12.4	7.29e-03	0	44	0	349175808	21	4295
2026-01-22 12:22:24.81	255.42	17.09	-30.1	-31.3	13.0	5.59e-04	0	44	0	351272960	21	4123
2026-01-22 12:22:25.82	255.64	17.13	-30.1	-31.3	13.0	3.43e-05	0	44	0	353370112	21	4124
2026-01-22 12:22:26.82	255.86	17.16	-30.3	-32.0	12.5	8.16e-05	0	44	0	355467264	21	4343
2026-01-22 12:22:27.82	256.07	17.20	-30.4	-32.0	12.5	1.14e-04	0	44	0	356515840	21	4362
2026-01-22 12:22:28.82	256.29	17.24	-30.6	-32.6	12.0	1.75e-04	0	43	0	358612992	21	4573
2026-01-22 12:22:29.83	256.51	17.27	-30.7	-33.1	11.7	3.84e-04	0	44	0	360710144	21	4742
2026-01-22 12:22:30.83	256.73	17.31	-30.6	-32.8	12.0	3.84e-04	0	44	0	362807296	21	4631
2026-01-22 12:22:31.84	256.95	17.34	-29.6	-32.4	11.7	1.98e-02	0	44	0	363855872	19	5014
2026-01-22 12:22:32.84	257.17	17.38	-29.8	-32.7	11.8	1.98e-02	0	44	0	365953024	19	5033
2026-01-22 12:22:33.84	257.39	17.41	-29.5	-31.9	12.4	1.96e-02	0	44	0	368050176	19	4731
2026-01-22 12:22:34.85	257.62	17.45	-29.6	-31.6	12.7	1.94e-02	0	44	0	370147328	19	4549
2026-01-22 12:22:35.85	257.84	17.48	-29.7	-31.7	12.7	2.03e-02	0	43	0	372244480	19	4514
2026-01-22 12:22:36.85	258.06	17.52	-30.0	-31.7	12.5	1.82e-02	0	44	0	373293056	20	4367
2026-01-22 12:22:37.85	258.28	17.55	-30.3	-32.5	12.2	9.64e-03	0	44	0	375390208	20	4611
2026-01-22 12:22:38.84	258.50	17.58	-30.4	-32.2	12.2	1.46e-03	0	44	0	377487360	21	4439
2026-01-22 12:22:39.84	258.72	17.61	-30.4	-32.0	12.4	3.17e-04	0	44	0	379584512	21	4366
2026-01-22 12:22:40.84	258.95	17.65	-30.1	-31.4	12.8	1.64e-04	0	44	0	381681664	21	4165
2026-01-22 12:22:41.85	259.17	17.68	-30.0	-31.2	12.7	3.03e-03	0	44	0	382730240	21	4131
2026-01-22 12:22:42.85	259.40	17.71	-29.9	-31.0	12.6	1.18e-02	0	44	0	384827392	21	4100
2026-01-22 12:22:43.85	259.62	17.74	-30.0	-31.3	12.4	1.96e-02	0	43	0	386924544	21	4212
2026-01-22 12:22:44.85	259.85	17.77	-29.7	-31.3	12.7	1.91e-02	0	43	0	389021696	20	4319
2026-01-22 12:22:45.86	260.08	17.80	-29.5	-30.9	12.8	1.88e-02	0	44	0	391118848	20	4219
2026-01-22 12:22:46.86	260.30	17.83	-29.4	-31.3	12.8	1.87e-02	0	43	0	392167424	19	4483
2026-01-22 12:22:47.86	260.53	17.86	-29.9	-31.1	13.5	1.07e-03	0	44	0	394264576	20	4145
2026-01-22 12:22:48.86	260.76	17.89	-29.8	-30.9	13.6	1.06e-05	0	44	0	396361728	20	4100
2026-01-22 12:22:49.86	260.98	17.92	-29.7	-30.8	13.7	8.30e-06	0	44	0	398458880	20	4050
2026-01-22 12:22:50.87	261.21	17.95	-29.8	-30.9	13.6	9.90e-06	0	44	0	400556032	20	4103
2026-01-22 12:22:51.87	261.44	17.97	-29.7	-30.8	13.7	3.80e-06	0	44	0	401604608	20	4058
2026-01-22 12:22:52.87	261.67	18.00	-29.7	-30.7	13.7	9.90e-06	0	44	0	403701760	20	4048
2026-01-22 12:22:53.87	261.90	18.03	-29.9	-31.3	13.4	1.29e-05	0	44	0	405798912	20	4213
2026-01-22 12:22:54.88	262.13	18.05	-30.1	-31.7	13.1	2.67e-05	0	44	0	407896064	20	4334
2026-01-22 12:22:55.88	262.36	18.08	-30.1	-31.7	13.1	3.81e-05	0	44	0	408944640	20	4329
2026-01-22 12:22:56.89	262.60	18.11	-30.2	-32.1	12.8	4.34e-05	0	44	0	411041792	20	4463
2026-01-22 12:22:57.89	262.83	18.13	-30.0	-31.5	13.2	4.34e-05	0	44	0	413138944	20	4283
2026-01-22 12:22:58.89	263.06	18.16	-29.9	-31.2	13.4	2.05e-05	0	44	0	415236096	20	4192
2026-01-22 12:22:59.90	263.29	18.18	-29.8	-30.9	13.6	1.67e-05	0	44	0	417333248	20	4099
2026-01-22 12:23:00.90	263.52	18.20	-29.9	-31.3	13.4	8.30e-06	0	44	0	418381824	20	4218
2026-01-22 12:23:01.90	263.75	18.23	-29.8	-30.9	13.6	1.37e-05	0	44	0	420478976	20	4083
2026-01-22 12:23:02.91	263.99	18.25	-29.6	-30.5	13.8	8.30e-06	0	44	0	422576128	20	3979
2026-01-22 12:23:03.92	264.22	18.27	-29.4	-29.9	14.2	2.20e-06	0	44	0	424673280	20	3821
2026-01-22 12:23:04.92	264.46	18.30	-29.3	-29.7	14.4	0.00e+00	0	44	0	426770432	20	3767
2026-01-22 12:23:05.93	264.69	18.32	-29.4	-29.8	14.3	7.00e-07	0	44	0	427819008	20	3770
2026-01-22 12:23:06.93	264.93	18.34	-29.5	-30.0	14.2	7.00e-07	0	44	0	429916160	20	3835
2026-01-22 12:23:07.93	265.16	18.36	-29.5	-30.3	14.1	2.20e-06	0	44	0	432013312	20	3904
2026-01-22 12:23:08.93	265.40	18.38	-29.7	-30.7	13.7	7.00e-07	0	44	0	434110464	20	4035
2026-01-22 12:23:09.93	265.63	18.40	-29.8	-30.9	13.7	6.80e-06	0	44	0	436207616	20	4086
2026-01-22 12:23:10.94	265.87	18.42	-29.7	-30.5	13.9	5.30e-06	0	44	0	437256192	20	3982
2026-01-22 12:23:11.94	266.10	18.44	-29.5	-30.1	14.1	5.30e-06	0	44	0	439353344	20	3855
2026-01-22 12:23:12.94	266.34	18.46	-29.3	-29.6	14.5	7.00e-07	0	43	0	441450496	20	3720
2026-01-22 12:23:13.95	266.58	18.47	-29.4	-30.0	14.2	1.50e-06	0	44	0	443547648	20	3830
2026-01-22 12:23:14.95	266.81	18.49	-29.5	-30.2	14.1	6.10e-06	0	44	0	445644800	20	3880
2026-01-22 12:23:15.94	267.05	18.51	-29.8	-30.8	13.7	5.30e-06	0	44	0	446693376	20	4050
2026-01-22 12:23:16.95	267.29	18.53	-30.1	-31.6	13.2	1.14e-05	0	44	0	448790528	20	4312
2026-01-22 12:23:17.95	267.52	18.54	-30.1	-31.8	13.1	2.36e-05	0	44	0	450887680	20	4357
2026-01-22 12:23:18.95	267.76	18.56	-30.1	-31.8	13.0	2.51e-05	0	44	0	452984832	20	4368
2026-01-22 12:23:19.96	268.00	18.57	-30.0	-31.5	13.2	2.82e-05	0	44	0	454033408	20	4282
2026-01-22 12:23:20.96	268.24	18.59	-30.2	-32.0	13.0	3.89e-05	0	44	0	456130560	20	4422
2026-01-22 12:23:21.96	268.47	18.60	-30.3	-32.4	12.7	4.65e-05	0	44	0	458227712	20	4567
2026-01-22 12:23:22.96	268.71	18.62	-30.3	-32.3	12.8	7.32e-05	0	44	0	460324864	20	4514
2026-01-22 12:23:23.96	268.95	18.63	-30.6	-32.6	12.3	9.30e-05	0	44	0	462422016	21	4519
2026-01-22 12:23:24.96	269.19	18.64	-30.7	-32.9	12.0	2.53e-04	0	44	0	463470592	21	4631
2026-01-22 12:23:25.96	269.43	18.66	-30.5	-32.2	12.5	2.91e-04	0	44	0	465567744	21	4417
2026-01-22 12:23:26.96	269.67	18.67	-30.2	-31.4	13.0	5.26e-05	0	44	0	467664896	21	4159
2026-01-22 12:23:27.96	269.91	18.68	-30.2	-31.4	13.0	4.04e-05	0	44	0	469762048	21	4144
2026-01-22 12:23:28.97	270.15	18.69	-30.2	-31.4	13.0	2.82e-05	0	44	0	471859200	21	4135
2026-01-22 12:23:29.96	270.38	18.70	-30.4	-32.0	12.7	5.03e-05	0	44	0	472907776	21	4324
2026-01-22 12:23:30.96	270.62	18.71	-30.5	-32.3	12.4	1.04e-04	0	44	0	475004928	21	4430
2026-01-22 12:23:31.97	270.86	18.72	-30.5	-32.3	12.3	1.30e-04	0	44	0	477102080	21	4447
2026-01-22 12:23:32.97	271.10	18.73	-30.7	-32.9	12.0	2.65e-04	0	44	0	479199232	21	4661
2026-01-22 12:23:33.98	271.35	18.74	-30.6	-32.5	12.2	2.37e-04	0	44	0	481296384	21	4515
2026-01-22 12:23:34.99	271.59	18.75	-30.6	-32.7	12.2	2.27e-04	0	44	0	482344960	21	4571
2026-01-22 12:23:35.99	271.83	18.75	-30.6	-32.7	12.2	2.44e-04	0	44	0	484442112	21	4564
2026-01-22 12:23:37.00	272.07	18.76	-30.5	-32.2	12.5	1.20e-04	0	44	0	486539264	21	4390
2026-01-22 12:23:38.00	272.31	18.77	-30.4	-32.0	12.6	8.08e-05	0	44	0	488636416	21	4334
2026-01-22 12:23:39.00	272.55	18.77	-30.4	-32.2	12.5	1.13e-04	0	44	0	490733568	21	4393
2026-01-22 12:23:40.00	272.79	18.78	-30.5	-32.2	12.4	1.05e-04	0	44	0	491782144	21	4401
2026-01-22 12:23:41.01	273.04	18.78	-30.4	-32.0	12.6	8.92e-05	0	44	0	493879296	21	4326
2026-01-22 12:23:42.01	273.28	18.79	-30.3	-31.7	12.8	8.54e-05	0	44	0	495976448	21	4254
2026-01-22 12:23:43.01	273.52	18.79	-30.3	-31.8	12.8	5.64e-05	0	44	0	498073600	21	4256
2026-01-22 12:23:44.02	273.76	18.80	-30.4	-32.0	12.6	6.94e-05	0	44	0	500170752	21	4350
2026-01-22 12:23:45.03	274.00	18.80	-30.3	-31.9	12.7	1.03e-04	0	44	0	501219328	21	4300
2026-01-22 12:23:46.03	274.24	18.80	-30.5	-32.2	12.5	9.61e-05	0	44	0	503316480	21	4403
2026-01-22 12:23:47.03	274.48	18.80	-30.4	-32.2	12.5	8.69e-05	0	44	0	505413632	21	4389
2026-01-22 12:23:48.03	274.73	18.81	-30.4	-32.0	12.6	9.76e-05	0	44	0	507510784	21	4334
2026-01-22 12:23:49.03	274.97	18.81	-30.4	-31.9	12.7	8.23e-05	0	44	0	509607936	21	4311
2026-01-22 12:23:50.03	275.21	18.81	-30.4	-32.0	12.6	9.84e-05	0	44	0	510656512	21	4331
2026-01-22 12:23:51.04	275.45	18.81	-30.6	-32.5	12.2	1.30e-04	0	44	0	512753664	21	4514
2026-01-22 12:23:52.04	275.69	18.81	-30.4	-32.0	12.6	1.27e-04	0	44	0	514850816	21	4334
2026-01-22 12:23:53.05	275.93	18.81	-30.3	-31.7	12.8	5.95e-05	0	44	0	516947968	21	4238
2026-01-22 12:23:54.05	276.17	18.81	-30.3	-31.7	12.8	7.01e-05	0	44	0	517996544	21	4249
2026-01-22 12:23:55.05	276.42	18.80	-30.4	-32.1	12.6	6.63e-05	0	44	0	520093696	21	4374
2026-01-22 12:23:56.05	276.66	18.80	-30.4	-32.1	12.6	1.17e-04	0	44	0	522190848	21	4356
2026-01-22 12:23:57.06	276.90	18.80	-30.5	-32.5	12.3	1.41e-04	0	44	0	524288000	21	4488
2026-01-22 12:23:58.06	277.14	18.80	-30.5	-32.3	12.4	1.40e-04	0	44	0	526385152	21	4435
2026-01-22 12:23:59.07	277.38	18.79	-30.5	-32.4	12.4	1.42e-04	0	44	0	527433728	21	4456
2026-01-22 12:24:00.08	277.63	18.79	-30.7	-32.9	11.9	3.33e-04	0	44	0	529530880	21	4641
2026-01-22 12:24:01.07	277.86	18.78	-30.7	-32.9	12.0	2.67e-04	0	44	0	531628032	21	4634
2026-01-22 12:24:02.07	278.10	18.78	-30.7	-32.8	12.1	2.94e-04	0	44	0	533725184	21	4614
2026-01-22 12:24:03.08	278.35	18.77	-30.7	-33.0	11.9	3.49e-04	0	44	0	535822336	21	4689
2026-01-22 12:24:04.08	278.59	18.77	-30.6	-32.6	12.2	2.27e-04	0	44	0	536870912	21	4535
2026-01-22 12:24:05.09	278.83	18.76	-30.4	-32.0	12.6	1.47e-04	0	44	0	538968064	21	4327
2026-01-22 12:24:06.09	279.07	18.75	-30.3	-31.8	12.8	6.17e-05	0	44	0	541065216	21	4262
2026-01-22 12:24:07.10	279.31	18.74	-30.4	-32.1	12.6	8.85e-05	0	44	0	543162368	21	4353
2026-01-22 12:24:08.10	279.55	18.74	-30.2	-31.5	12.9	3.66e-05	0	44	0	545259520	21	4177
2026-01-22 12:24:09.10	279.79	18.73	-30.2	-31.5	12.9	3.50e-05	0	44	0	546308096	21	4183
2026-01-22 12:24:10.10	280.03	18.72	-30.3	-31.9	12.7	4.11e-05	0	44	0	548405248	21	4297
2026-01-22 12:24:11.11	280.27	18.71	-30.4	-32.1	12.6	7.85e-05	0	44	0	550502400	21	4358
2026-01-22 12:24:12.11	280.51	18.70	-30.4	-32.1	12.5	9.23e-05	0	44	0	552599552	21	4361
2026-01-22 12:24:13.12	280.75	18.69	-30.6	-32.6	12.2	1.21e-04	0	44	0	554696704	21	4537
2026-01-22 12:24:14.12	280.99	18.68	-30.4	-32.1	12.5	1.14e-04	0	44	0	555745280	21	4363
2026-01-22 12:24:15.12	281.23	18.67	-30.5	-32.2	12.5	1.23e-04	0	44	0	557842432	21	4405
2026-01-22 12:24:16.12	281.47	18.65	-30.6	-32.7	12.1	1.88e-04	0	44	0	559939584	21	4568
2026-01-22 12:24:17.12	281.71	18.64	-30.7	-32.9	12.0	2.53e-04	0	44	0	562036736	21	4636
2026-01-22 12:24:18.12	281.94	18.63	-30.7	-33.1	11.9	3.42e-04	0	44	0	564133888	21	4713
2026-01-22 12:24:19.12	282.18	18.62	-30.7	-32.9	12.0	4.00e-04	0	44	0	565182464	21	4657
2026-01-22 12:24:20.13	282.42	18.60	-30.8	-33.2	11.8	4.24e-04	0	44	0	567279616	21	4731
2026-01-22 12:24:21.14	282.66	18.59	-30.8	-33.3	11.7	5.13e-04	0	44	0	569376768	21	4789
2026-01-22 12:24:22.14	282.90	18.57	-30.7	-32.9	12.0	4.57e-04	0	44	0	571473920	21	4622
2026-01-22 12:24:23.14	283.14	18.56	-30.7	-32.9	12.0	3.36e-04	0	44	0	572522496	21	4639
2026-01-22 12:24:24.14	283.37	18.54	-30.7	-33.0	12.0	3.22e-04	0	44	0	574619648	21	4662
2026-01-22 12:24:25.14	283.61	18.52	-30.6	-32.8	12.1	2.42e-04	0	44	0	576716800	21	4597
2026-01-22 12:24:26.15	283.85	18.51	-30.6	-32.6	12.2	1.78e-04	0	44	0	578813952	21	4519
2026-01-22 12:24:27.15	284.08	18.49	-30.4	-32.2	12.5	1.37e-04	0	44	0	580911104	21	4398
2026-01-22 12:24:28.16	284.32	18.47	-30.3	-31.9	12.7	7.47e-05	0	44	0	581959680	21	4299
2026-01-22 12:24:29.15	284.55	18.45	-30.3	-31.7	12.8	7.01e-05	0	44	0	584056832	21	4228
2026-01-22 12:24:30.16	284.79	18.44	-30.2	-31.6	12.8	5.87e-05	0	44	0	586153984	21	4219
2026-01-22 12:24:31.15	285.02	18.42	-30.3	-31.6	12.8	5.79e-05	0	44	0	588251136	21	4216
2026-01-22 12:24:32.16	285.26	18.40	-30.2	-31.5	12.9	4.50e-05	0	44	0	590348288	21	4181
2026-01-22 12:24:33.16	285.50	18.38	-30.2	-31.6	12.9	3.89e-05	0	44	0	591396864	21	4204
2026-01-22 12:24:34.16	285.73	18.36	-30.1	-31.2	13.2	2.21e-05	0	44	0	593494016	21	4092
2026-01-22 12:24:35.17	285.97	18.34	-30.2	-31.4	13.0	3.28e-05	0	44	0	595591168	21	4146
2026-01-22 12:24:36.17	286.20	18.32	-30.3	-31.8	12.8	5.11e-05	0	44	0	597688320	21	4273
2026-01-22 12:24:37.17	286.43	18.29	-30.5	-32.4	12.3	1.41e-04	0	44	0	599785472	21	4469
2026-01-22 12:24:38.17	286.66	18.27	-30.5	-32.4	12.3	1.43e-04	0	44	0	600834048	21	4474
2026-01-22 12:24:39.17	286.90	18.25	-30.7	-33.0	11.9	2.38e-04	0	44	0	602931200	21	4680
2026-01-22 12:24:40.17	287.13	18.23	-30.6	-32.8	12.0	2.25e-04	0	44	0	605028352	21	4598
2026-01-22 12:24:41.18	287.36	18.20	-30.6	-32.5	12.2	2.27e-04	0	44	0	607125504	21	4496
2026-01-22 12:24:42.19	287.60	18.18	-30.5	-32.2	12.4	1.28e-04	0	44	0	609222656	21	4398
2026-01-22 12:24:43.19	287.83	18.15	-30.5	-32.3	12.4	1.14e-04	0	44	0	610271232	21	4426
2026-01-22 12:24:44.19	288.06	18.13	-30.5	-32.3	12.3	1.26e-04	0	44	0	612368384	21	4430
2026-01-22 12:24:45.20	288.29	18.10	-30.4	-32.2	12.5	1.61e-04	0	44	0	614465536	21	4401
2026-01-22 12:24:46.20	288.52	18.08	-30.3	-31.9	12.6	1.19e-04	0	44	0	616562688	21	4320
2026-01-22 12:24:47.20	288.75	18.05	-30.3	-31.6	12.8	6.86e-05	0	44	0	617611264	21	4229
2026-01-22 12:24:48.21	288.98	18.03	-30.3	-31.8	12.7	5.95e-05	0	44	0	619708416	21	4262
2026-01-22 12:24:49.21	289.21	18.00	-30.3	-31.8	12.7	4.80e-05	0	44	0	621805568	21	4283
2026-01-22 12:24:50.21	289.44	17.97	-30.1	-31.3	13.0	3.96e-05	0	44	0	623902720	21	4111
2026-01-22 12:24:51.21	289.66	17.94	-30.0	-31.0	13.2	2.21e-05	0	44	0	625999872	21	4038
2026-01-22 12:24:52.21	289.89	17.92	-30.0	-31.1	13.2	2.44e-05	0	44	0	627048448	21	4053
2026-01-22 12:24:53.21	290.12	17.89	-30.2	-31.6	12.9	3.12e-05	0	44	0	629145600	21	4209
2026-01-22 12:24:54.21	290.34	17.86	-30.3	-31.9	12.6	7.47e-05	0	44	0	631242752	21	4303
2026-01-22 12:24:55.22	290.57	17.83	-30.4	-32.0	12.6	8.31e-05	0	44	0	633339904	21	4343
2026-01-22 12:24:56.22	290.80	17.80	-30.4	-32.1	12.5	7.85e-05	0	44	0	635437056	21	4361
2026-01-22 12:24:57.23	291.02	17.77	-30.2	-31.5	12.9	6.33e-05	0	44	0	636485632	21	4189
2026-01-22 12:24:58.23	291.25	17.74	-30.1	-31.4	13.0	3.81e-05	0	44	0	638582784	21	4146
2026-01-22 12:24:59.24	291.48	17.71	-30.0	-31.0	13.2	3.35e-05	0	44	0	640679936	21	4034
2026-01-22 12:25:00.24	291.70	17.68	-29.9	-30.7	13.4	1.14e-05	0	44	0	642777088	21	3936
2026-01-22 12:25:01.24	291.92	17.65	-29.9	-30.8	13.3	1.52e-05	0	44	0	644874240	21	3990
2026-01-22 12:25:02.25	292.15	17.61	-30.1	-31.3	13.0	4.73e-05	0	44	0	645922816	21	4127
2026-01-22 12:25:03.25	292.37	17.58	-30.1	-31.3	13.0	3.50e-05	0	44	0	648019968	21	4114
2026-01-22 12:25:04.25	292.59	17.55	-30.2	-31.5	12.8	3.96e-05	0	44	0	650117120	21	4195
2026-01-22 12:25:05.25	292.81	17.52	-30.1	-31.3	13.0	2.89e-05	0	44	0	652214272	21	4123
2026-01-22 12:25:06.25	293.03	17.48	-30.0	-30.9	13.3	1.98e-05	0	44	0	654311424	21	4007
2026-01-22 12:25:07.25	293.26	17.45	-29.8	-30.4	13.6	9.10e-06	0	44	0	655360000	21	3861
2026-01-22 12:25:08.25	293.48	17.42	-29.7	-30.6	13.8	1.06e-05	0	44	0	657457152	20	3991
2026-01-22 12:25:09.24	293.69	17.38	-29.6	-30.4	13.9	2.20e-06	0	44	0	659554304	20	3943
2026-01-22 12:25:10.25	293.91	17.35	-29.7	-30.7	13.7	3.80e-06	0	44	0	661651456	20	4037
2026-01-22 12:25:11.25	294.13	17.31	-29.5	-30.2	14.0	6.10e-06	0	44	0	662700032	20	3891
2026-01-22 12:25:12.25	294.35	17.28	-29.6	-30.5	13.9	2.20e-06	0	44	0	664797184	20	3964
2026-01-22 12:25:13.25	294.57	17.24	-29.6	-30.4	13.9	1.50e-06	0	44	0	666894336	20	3951
2026-01-22 12:25:14.25	294.78	17.20	-29.7	-30.7	13.7	1.50e-06	0	44	0	668991488	20	4035
2026-01-22 12:25:15.25	295.00	17.17	-29.7	-30.6	13.7	6.10e-06	0	44	0	671088640	20	4016
2026-01-22 12:25:16.26	295.22	17.13	-29.7	-30.6	13.8	6.80e-06	0	44	0	672137216	20	3992
2026-01-22 12:25:17.26	295.43	17.09	-29.8	-31.0	13.6	3.80e-06	0	44	0	674234368	20	4108
2026-01-22 12:25:18.26	295.65	17.06	-29.8	-31.0	13.5	1.06e-05	0	44	0	676331520	20	4117
2026-01-22 12:25:19.26	295.86	17.02	-29.7	-30.7	13.7	1.29e-05	0	44	0	678428672	20	4025
2026-01-22 12:25:20.27	296.08	16.98	-29.7	-30.6	13.8	8.30e-06	0	44	0	680525824	20	4002
2026-01-22 12:25:21.27	296.29	16.94	-29.7	-30.7	13.7	7.60e-06	0	44	0	681574400	20	4035
2026-01-22 12:25:22.27	296.51	16.90	-29.8	-30.9	13.6	6.80e-06	0	44	0	683671552	20	4094
2026-01-22 12:25:23.28	296.72	16.86	-29.7	-30.6	13.8	3.80e-06	0	44	0	685768704	20	4000
2026-01-22 12:25:24.28	296.93	16.82	-29.7	-30.8	13.6	3.80e-06	0	44	0	687865856	20	4053
2026-01-22 12:25:25.29	297.15	16.78	-29.7	-30.7	13.8	6.80e-06	0	44	0	689963008	20	4022
2026-01-22 12:25:26.30	297.36	16.74	-29.7	-30.7	13.7	9.10e-06	0	44	0	691011584	20	4038
2026-01-22 12:25:27.30	297.57	16.70	-29.7	-30.7	13.7	5.30e-06	0	44	0	693108736	20	4023
2026-01-22 12:25:28.29	297.78	16.66	-29.8	-31.0	13.5	9.10e-06	0	44	0	695205888	20	4110
2026-01-22 12:25:29.30	297.99	16.62	-29.9	-31.2	13.4	6.80e-06	0	44	0	697303040	20	4174
2026-01-22 12:25:30.30	298.19	16.58	-29.9	-31.3	13.3	1.44e-05	0	44	0	699400192	20	4223
2026-01-22 12:25:31.31	298.40	16.54	-29.9	-31.2	13.3	2.21e-05	0	44	0	700448768	20	4201
2026-01-22 12:25:32.32	298.61	16.50	-29.9	-31.1	13.4	1.52e-05	0	44	0	702545920	20	4170
2026-01-22 12:25:33.32	298.82	16.45	-29.8	-31.0	13.4	1.67e-05	0	44	0	704643072	20	4144
2026-01-22 12:25:34.32	299.03	16.41	-29.9	-31.1	13.3	1.14e-05	0	44	0	706740224	20	4166
2026-01-22 12:25:35.32	299.23	16.37	-29.8	-31.0	13.5	2.36e-05	0	44	0	708837376	20	4136
2026-01-22 12:25:36.32	299.44	16.33	-29.7	-30.6	13.7	5.30e-06	0	44	0	709885952	20	3999
2026-01-22 12:25:37.32	299.64	16.28	-29.8	-31.0	13.4	4.50e-06	0	44	0	711983104	20	4137
2026-01-22 12:25:38.33	299.85	16.24	-29.9	-31.2	13.3	1.75e-05	0	44	0	714080256	20	4204
2026-01-22 12:25:39.32	300.05	16.20	-30.1	-31.8	12.9	2.89e-05	0	44	0	716177408	20	4383
2026-01-22 12:25:40.33	300.25	16.15	-30.2	-32.1	12.7	5.95e-05	0	44	0	718274560	20	4480
2026-01-22 12:25:41.33	300.45	16.11	-30.2	-32.0	12.7	7.01e-05	0	44	0	719323136	20	4453
2026-01-22 12:25:42.33	300.66	16.06	-30.0	-31.6	13.0	5.72e-05	0	44	0	721420288	20	4312
2026-01-22 12:25:43.33	300.86	16.02	-29.9	-31.2	13.3	2.44e-05	0	44	0	723517440	20	4191
2026-01-22 12:25:44.34	301.06	15.97	-29.7	-30.7	13.6	9.10e-06	0	44	0	725614592	20	4036
2026-01-22 12:25:45.34	301.26	15.93	-29.7	-30.7	13.7	3.80e-06	0	44	0	726663168	20	4029
2026-01-22 12:25:46.35	301.46	15.88	-29.8	-31.0	13.5	1.06e-05	0	44	0	728760320	20	4118
2026-01-22 12:25:47.36	301.66	15.84	-30.0	-31.6	13.0	2.05e-05	0	44	0	730857472	20	4329
2026-01-22 12:25:48.37	301.86	15.79	-30.4	-32.7	12.3	7.70e-05	0	44	0	732954624	20	4685
2026-01-22 12:25:49.37	302.06	15.74	-30.4	-32.8	12.2	1.52e-04	0	44	0	735051776	20	4705
2026-01-22 12:25:50.37	302.25	15.70	-30.6	-32.7	11.9	3.29e-04	0	44	0	737148928	21	4608
2026-01-22 12:25:51.37	302.45	15.65	-30.6	-32.8	11.9	3.41e-04	0	44	0	738197504	21	4616
2026-01-22 12:25:52.37	302.65	15.60	-30.5	-32.4	12.1	2.67e-04	0	44	0	740294656	21	4501
2026-01-22 12:25:53.38	302.84	15.56	-30.5	-32.5	12.1	3.07e-04	0	44	0	742391808	21	4522
2026-01-22 12:25:54.38	303.04	15.51	-30.4	-32.1	12.4	2.17e-04	0	44	0	744488960	21	4383
2026-01-22 12:25:55.38	303.23	15.46	-30.2	-31.6	12.7	6.10e-05	0	44	0	745537536	21	4218
2026-01-22 12:25:56.38	303.42	15.41	-30.1	-31.3	12.9	4.95e-05	0	44	0	747634688	21	4141
2026-01-22 12:25:57.38	303.62	15.37	-30.1	-31.2	12.9	5.95e-05	0	44	0	749731840	21	4114
2026-01-22 12:25:58.39	303.81	15.32	-29.9	-30.9	13.2	2.13e-05	0	44	0	751828992	21	4009
2026-01-22 12:25:59.40	304.00	15.27	-29.8	-31.1	13.4	8.30e-06	0	44	0	753926144	20	4178
2026-01-22 12:26:00.41	304.20	15.22	-29.8	-31.1	13.3	1.37e-05	0	44	0	754974720	20	4173
2026-01-22 12:26:01.41	304.39	15.17	-29.9	-31.2	13.2	2.13e-05	0	44	0	757071872	20	4191
2026-01-22 12:26:02.41	304.57	15.12	-29.9	-31.4	13.2	2.59e-05	0	44	0	759169024	20	4257
2026-01-22 12:26:03.42	304.77	15.07	-29.9	-31.3	13.2	1.75e-05	0	44	0	761266176	20	4220
2026-01-22 12:26:04.42	304.95	15.02	-30.0	-31.4	13.1	3.43e-05	0	44	0	763363328	20	4270
2026-01-22 12:26:05.43	305.14	14.97	-30.1	-31.8	12.9	3.58e-05	0	44	0	764411904	20	4391
2026-01-22 12:26:06.43	305.33	14.92	-30.2	-32.0	12.7	8.69e-05	0	44	0	766509056	20	4464
2026-01-22 12:26:07.43	305.52	14.88	-30.4	-32.8	12.1	1.23e-04	0	44	0	768606208	20	4740
2026-01-22 12:26:08.43	305.70	14.83	-30.5	-32.6	12.0	2.18e-04	0	44	0	770703360	21	4563
2026-01-22 12:26:09.43	305.89	14.77	-30.8	-33.3	11.5	6.49e-04	0	44	0	772800512	21	4829
2026-01-22 12:26:10.43	306.07	14.72	-30.9	-33.8	11.2	1.35e-03	0	44	0	773849088	21	5010
2026-01-22 12:26:11.43	306.26	14.67	-31.0	-33.6	10.9	1.56e-03	0	44	0	775946240	22	4832
2026-01-22 12:26:12.43	306.44	14.62	-31.0	-33.5	10.9	2.16e-03	0	44	0	778043392	22	4817
2026-01-22 12:26:13.43	306.62	14.57	-31.0	-33.5	11.0	1.97e-03	0	44	0	780140544	22	4802
2026-01-22 12:26:14.44	306.81	14.52	-31.1	-33.7	10.8	2.34e-03	0	44	0	782237696	22	4901
2026-01-22 12:26:15.44	306.99	14.47	-30.9	-33.3	11.1	2.37e-03	0	44	0	783286272	22	4730
2026-01-22 12:26:16.45	307.17	14.42	-30.8	-33.1	11.3	1.12e-03	0	44	0	785383424	22	4642
2026-01-22 12:26:17.44	307.35	14.37	-30.8	-32.8	11.4	8.35e-04	0	44	0	787480576	22	4567
2026-01-22 12:26:18.45	307.53	14.32	-30.8	-32.9	11.4	8.56e-04	0	44	0	789577728	22	4584
2026-01-22 12:26:19.45	307.71	14.26	-30.8	-33.0	11.3	9.39e-04	0	44	0	790626304	22	4616
2026-01-22 12:26:20.44	307.89	14.21	-30.6	-32.3	11.8	7.73e-04	0	44	0	792723456	22	4370
2026-01-22 12:26:21.45	308.07	14.16	-30.3	-31.4	12.4	2.76e-04	0	44	0	794820608	22	4088
2026-01-22 12:26:22.45	308.24	14.11	-30.2	-31.8	12.6	2.20e-04	0	44	0	796917760	21	4286
2026-01-22 12:26:23.45	308.42	14.06	-30.1	-31.5	12.8	7.40e-05	0	44	0	799014912	21	4193
2026-01-22 12:26:24.45	308.60	14.00	-30.1	-31.4	12.8	8.54e-05	0	44	0	800063488	21	4164
2026-01-22 12:26:25.46	308.77	13.95	-30.1	-31.5	12.7	7.09e-05	0	44	0	802160640	21	4200
2026-01-22 12:26:26.46	308.95	13.90	-30.3	-31.8	12.4	1.12e-04	0	44	0	804257792	21	4313
2026-01-22 12:26:27.46	309.12	13.85	-30.3	-31.8	12.4	1.43e-04	0	44	0	806354944	21	4317
2026-01-22 12:26:28.47	309.30	13.79	-30.4	-32.1	12.3	2.01e-04	0	44	0	808452096	21	4402
2026-01-22 12:26:29.47	309.47	13.74	-30.5	-32.5	12.0	3.04e-04	0	44	0	809500672	21	4535
2026-01-22 12:26:30.47	309.64	13.69	-30.5	-32.6	11.9	4.16e-04	0	44	0	811597824	21	4571
2026-01-22 12:26:31.47	309.81	13.63	-30.5	-32.5	12.0	3.72e-04	0	44	0	813694976	21	4517
2026-01-22 12:26:32.48	309.99	13.58	-30.5	-32.6	12.0	5.59e-04	0	44	0	815792128	21	4555
2026-01-22 12:26:33.48	310.16	13.52	-30.6	-32.8	11.8	3.23e-04	0	44	0	817889280	21	4634
2026-01-22 12:26:34.48	310.33	13.47	-30.6	-32.9	11.7	4.11e-04	0	44	0	818937856	21	4676
2026-01-22 12:26:35.49	310.50	13.42	-30.6	-32.7	11.9	4.01e-04	0	44	0	821035008	21	4611
2026-01-22 12:26:36.49	310.67	13.36	-30.7	-33.3	11.4	7.26e-04	0	44	0	823132160	21	4810
2026-01-22 12:26:37.49	310.84	13.31	-30.8	-33.3	11.4	9.69e-04	0	44	0	825229312	21	4834
2026-01-22 12:26:38.50	311.00	13.25	-30.7	-33.1	11.6	6.06e-04	0	44	0	827326464	21	4756
2026-01-22 12:26:39.50	311.17	13.20	-30.6	-32.8	11.8	5.40e-04	0	44	0	828375040	21	4632
2026-01-22 12:26:40.50	311.34	13.15	-30.5	-32.5	12.0	3.27e-04	0	44	0	830472192	21	4521
2026-01-22 12:26:41.50	311.50	13.09	-30.5	-32.5	12.0	3.17e-04	0	44	0	832569344	21	4534
2026-01-22 12:26:42.50	311.67	13.04	-30.3	-32.0	12.3	2.53e-04	0	44	0	834666496	21	4360
2026-01-22 12:26:43.50	311.83	12.98	-30.2	-31.6	12.6	9.07e-05	0	44	0	835715072	21	4241
2026-01-22 12:26:44.51	312.00	12.93	-30.2	-31.8	12.4	1.22e-04	0	44	0	837812224	21	4307
2026-01-22 12:26:45.51	312.16	12.87	-30.2	-31.8	12.5	1.78e-04	0	44	0	839909376	21	4288
2026-01-22 12:26:46.51	312.32	12.82	-30.3	-32.1	12.3	1.32e-04	0	44	0	842006528	21	4390
2026-01-22 12:26:47.51	312.49	12.76	-30.5	-32.6	11.9	3.36e-04	0	44	0	844103680	21	4577
2026-01-22 12:26:48.51	312.65	12.71	-30.5	-32.5	11.9	3.29e-04	0	44	0	845152256	21	4553
2026-01-22 12:26:49.51	312.81	12.65	-30.5	-32.5	11.9	4.07e-04	0	44	0	847249408	21	4538
2026-01-22 12:26:50.51	312.97	12.60	-30.5	-32.4	12.0	3.32e-04	0	44	0	849346560	21	4516
2026-01-22 12:26:51.52	313.13	12.54	-30.5	-32.4	12.1	2.14e-04	0	44	0	851443712	21	4496
2026-01-22 12:26:52.52	313.29	12.49	-30.3	-32.0	12.2	2.39e-04	0	44	0	853540864	21	4381
2026-01-22 12:26:53.53	313.45	12.43	-30.1	-31.4	12.7	8.23e-05	0	44	0	854589440	21	4164
2026-01-22 12:26:54.54	313.61	12.38	-29.9	-30.8	13.1	5.79e-05	0	44	0	856686592	21	3983
2026-01-22 12:26:55.54	313.77	12.32	-30.0	-31.0	12.9	3.89e-05	0	44	0	858783744	21	4058
2026-01-22 12:26:56.54	313.93	12.27	-30.0	-31.2	12.8	6.10e-05	0	44	0	860880896	21	4125
2026-01-22 12:26:57.54	314.08	12.21	-29.9	-30.9	13.0	2.89e-05	0	44	0	862978048	21	4035
2026-01-22 12:26:58.54	314.24	12.15	-30.1	-31.5	12.6	4.73e-05	0	44	0	864026624	21	4213
2026-01-22 12:26:59.54	314.39	12.10	-30.1	-31.5	12.6	1.07e-04	0	44	0	866123776	21	4208
2026-01-22 12:27:00.55	314.55	12.04	-30.0	-31.1	12.8	5.87e-05	0	44	0	868220928	21	4095
2026-01-22 12:27:01.55	314.70	11.99	-30.1	-31.4	12.6	5.03e-05	0	44	0	870318080	21	4198
2026-01-22 12:27:02.56	314.86	11.93	-30.0	-31.2	12.8	7.93e-05	0	44	0	872415232	21	4132
2026-01-22 12:27:03.56	315.01	11.87	-29.9	-30.9	13.0	6.25e-05	0	44	0	873463808	21	4038
2026-01-22 12:27:04.56	315.16	11.82	-30.0	-31.2	12.9	5.49e-05	0	44	0	875560960	21	4103
2026-01-22 12:27:05.56	315.32	11.76	-29.9	-30.9	13.0	5.11e-05	0	44	0	877658112	21	4017
2026-01-22 12:27:06.57	315.47	11.71	-29.9	-30.9	13.0	2.59e-05	0	44	0	879755264	21	4041
2026-01-22 12:27:07.57	315.62	11.65	-30.0	-31.1	12.8	6.63e-05	0	44	0	881852416	21	4098
2026-01-22 12:27:08.58	315.77	11.59	-30.0	-31.0	12.8	5.11e-05	0	44	0	882900992	21	4071
2026-01-22 12:27:09.58	315.92	11.54	-30.2	-31.7	12.5	5.79e-05	0	44	0	884998144	21	4267
2026-01-22 12:27:10.58	316.07	11.48	-30.3	-31.9	12.4	1.32e-04	0	44	0	887095296	21	4322
2026-01-22 12:27:11.58	316.22	11.42	-30.2	-31.6	12.5	1.21e-04	0	44	0	889192448	21	4230
2026-01-22 12:27:12.58	316.37	11.37	-30.2	-31.7	12.4	1.15e-04	0	44	0	890241024	21	4282
2026-01-22 12:27:13.59	316.51	11.31	-30.2	-31.8	12.4	1.20e-04	0	44	0	892338176	21	4305
2026-01-22 12:27:14.59	316.66	11.25	-30.0	-31.2	12.7	8.54e-05	0	44	0	894435328	21	4136
2026-01-22 12:27:15.58	316.81	11.20	-30.0	-31.0	12.9	6.56e-05	0	44	0	896532480	21	4077
2026-01-22 12:27:16.59	316.95	11.14	-29.9	-30.8	13.0	5.56e-05	0	44	0	898629632	21	3991
2026-01-22 12:27:17.58	317.10	11.09	-29.9	-30.9	12.9	2.89e-05	0	44	0	899678208	21	4025
2026-01-22 12:27:18.58	317.24	11.03	-29.8	-30.6	13.2	3.50e-05	0	44	0	901775360	21	3932
2026-01-22 12:27:19.58	317.39	10.97	-29.7	-30.8	13.3	1.98e-05	0	44	0	903872512	20	4076
2026-01-22 12:27:20.58	317.53	10.92	-29.8	-31.1	13.2	1.90e-05	0	44	0	905969664	20	4182
2026-01-22 12:27:21.58	317.67	10.86	-29.8	-31.2	13.1	3.81e-05	0	44	0	908066816	20	4214
2026-01-22 12:27:22.58	317.82	10.80	-29.7	-30.8	13.3	2.21e-05	0	44	0	909115392	20	4081
2026-01-22 12:27:23.59	317.96	10.75	-29.6	-30.6	13.4	1.60e-05	0	44	0	911212544	20	4039
2026-01-22 12:27:24.59	318.10	10.69	-29.7	-31.0	13.2	2.21e-05	0	44	0	913309696	20	4149
2026-01-22 12:27:25.59	318.24	10.63	-29.8	-31.0	13.1	2.44e-05	0	44	0	915406848	20	4168
2026-01-22 12:27:26.60	318.38	10.58	-29.8	-31.2	13.0	2.44e-05	0	44	0	917504000	20	4225
2026-01-22 12:27:27.60	318.52	10.52	-29.9	-31.3	12.9	5.26e-05	0	44	0	918552576	20	4241
2026-01-22 12:27:28.60	318.66	10.46	-29.9	-31.4	12.9	3.73e-05	0	44	0	920649728	20	4274
2026-01-22 12:27:29.61	318.80	10.40	-30.0	-31.7	12.8	4.34e-05	0	44	0	922746880	20	4361
2026-01-22 12:27:30.61	318.94	10.35	-30.0	-31.6	12.8	6.48e-05	0	44	0	924844032	20	4326
2026-01-22 12:27:31.62	319.08	10.29	-30.1	-32.1	12.4	9.07e-05	0	44	0	926941184	20	4508
2026-01-22 12:27:32.62	319.22	10.23	-30.3	-32.6	12.1	1.94e-04	0	44	0	927989760	20	4669
2026-01-22 12:27:33.63	319.35	10.18	-30.3	-32.5	12.1	2.90e-04	0	44	0	930086912	20	4650
2026-01-22 12:27:34.63	319.49	10.12	-30.4	-32.8	11.9	2.77e-04	0	44	0	932184064	20	4769
2026-01-22 12:27:35.64	319.63	10.06	-30.4	-32.9	11.8	4.43e-04	0	44	0	934281216	20	4806
2026-01-22 12:27:36.64	319.76	10.01	-30.5	-32.7	11.6	4.74e-04	0	44	0	935329792	21	4648
2026-01-22 12:27:37.64	319.90	9.95	-30.6	-33.0	11.3	1.10e-03	0	44	0	937426944	21	4762
2026-01-22 12:27:38.65	320.03	9.89	-30.5	-32.8	11.5	1.36e-03	0	44	0	939524096	21	4665
2026-01-22 12:27:39.65	320.17	9.83	-30.6	-33.0	11.4	9.09e-04	0	44	0	941621248	21	4736
2026-01-22 12:27:40.66	320.30	9.78	-30.6	-33.0	11.4	1.06e-03	0	44	0	943718400	21	4729
2026-01-22 12:27:41.66	320.43	9.72	-30.3	-32.0	12.1	3.76e-04	0	44	0	944766976	21	4393
2026-01-22 12:27:42.67	320.57	9.66	-30.1	-31.5	12.4	1.77e-04	0	44	0	946864128	21	4246
2026-01-22 12:27:43.67	320.70	9.61	-30.0	-31.3	12.6	1.08e-04	0	44	0	948961280	21	4177
2026-01-22 12:27:44.67	320.83	9.55	-29.9	-31.0	12.7	7.93e-05	0	44	0	951058432	21	4063
2026-01-22 12:27:45.67	320.96	9.49	-30.1	-31.4	12.4	9.38e-05	0	44	0	953155584	21	4195
2026-01-22 12:27:46.68	321.09	9.44	-30.0	-31.2	12.5	1.62e-04	0	44	0	954204160	21	4148
2026-01-22 12:27:47.69	321.22	9.38	-29.9	-31.0	12.7	8.77e-05	0	44	0	956301312	21	4069
2026-01-22 12:27:48.68	321.35	9.32	-30.1	-31.5	12.4	9.99e-05	0	44	0	958398464	21	4222
2026-01-22 12:27:49.68	321.48	9.26	-30.1	-31.5	12.4	1.27e-04	0	44	0	960495616	21	4223
2026-01-22 12:27:50.69	321.61	9.21	-30.3	-32.1	12.0	2.63e-04	0	44	0	962592768	21	4415
2026-01-22 12:27:51.69	321.74	9.15	-30.4	-32.4	11.7	4.52e-04	0	44	0	963641344	21	4540
2026-01-22 12:27:52.69	321.87	9.09	-30.4	-32.4	11.7	6.79e-04	0	44	0	965738496	21	4539
2026-01-22 12:27:53.69	321.99	9.04	-30.5	-32.7	11.5	7.61e-04	0	44	0	967835648	21	4655
2026-01-22 12:27:54.69	322.12	8.98	-30.5	-32.8	11.4	8.54e-04	0	44	0	969932800	21	4703
2026-01-22 12:27:55.69	322.24	8.92	-30.6	-33.0	11.3	1.17e-03	0	44	0	972029952	21	4768
2026-01-22 12:27:56.69	322.37	8.87	-30.6	-33.0	11.2	9.92e-04	0	44	0	973078528	21	4777
2026-01-22 12:27:57.69	322.49	8.81	-30.5	-32.7	11.5	8.91e-04	0	44	0	975175680	21	4653
2026-01-22 12:27:58.69	322.62	8.75	-30.6	-33.0	11.3	9.37e-04	0	44	0	977272832	21	4763
2026-01-22 12:27:59.69	322.74	8.70	-30.5	-32.7	11.5	1.03e-03	0	44	0	979369984	21	4644
2026-01-22 12:28:00.70	322.87	8.64	-30.5	-32.9	11.3	8.47e-04	0	44	0	980418560	21	4716
2026-01-22 12:28:01.70	322.99	8.58	-30.6	-33.0	11.3	1.13e-03	0	44	0	982515712	21	4758
2026-01-22 12:28:02.71	323.11	8.53	-30.6	-33.1	11.2	1.21e-03	0	44	0	984612864	21	4797
2026-01-22 12:28:03.71	323.24	8.47	-30.7	-33.3	11.0	1.63e-03	0	44	0	986710016	21	4884
2026-01-22 12:28:04.72	323.36	8.41	-30.6	-33.1	11.1	1.73e-03	0	44	0	988807168	21	4818
2026-01-22 12:28:05.72	323.48	8.36	-30.7	-33.6	10.8	2.65e-03	0	44	0	990904320	21	4999
2026-01-22 12:28:06.73	323.60	8.30	-30.8	-33.8	10.6	3.05e-03	0	44	0	991952896	21	5077
2026-01-22 12:28:07.74	323.72	8.24	-30.8	-33.9	10.6	2.69e-03	0	44	0	994050048	21	5110
2026-01-22 12:28:08.74	323.84	8.19	-30.9	-34.1	10.4	4.26e-03	0	44	0	996147200	21	5194
2026-01-22 12:28:09.74	323.96	8.13	-30.8	-33.9	10.5	4.79e-03	0	44	0	998244352	21	5144
2026-01-22 12:28:10.74	324.08	8.07	-30.7	-33.6	10.7	3.26e-03	0	44	0	999292928	21	5007
2026-01-22 12:28:11.74	324.20	8.02	-30.7	-33.7	10.7	2.57e-03	0	44	0	1001390080	21	5035
2026-01-22 12:28:12.75	324.32	7.96	-30.7	-33.6	10.7	2.75e-03	0	44	0	1003487232	21	5000
2026-01-22 12:28:13.75	324.44	7.90	-30.7	-33.4	10.9	2.85e-03	0	44	0	1005584384	21	4911
2026-01-22 12:28:14.75	324.56	7.85	-30.8	-33.8	10.6	2.88e-03	0	44	0	1007681536	21	5072
2026-01-22 12:28:15.75	324.67	7.79	-30.8	-33.8	10.6	3.07e-03	0	44	0	1008730112	21	5090
2026-01-22 12:28:16.76	324.79	7.73	-30.9	-34.0	10.4	3.82e-03	0	44	0	1010827264	21	5178
2026-01-22 12:28:17.77	324.91	7.68	-31.0	-34.5	10.0	5.37e-03	0	44	0	1012924416	21	5417
2026-01-22 12:28:18.78	325.02	7.62	-31.0	-34.0	10.0	6.62e-03	0	44	0	1015021568	22	5111
2026-01-22 12:28:19.78	325.14	7.56	-31.0	-34.1	10.0	6.29e-03	0	44	0	1017118720	22	5114
2026-01-22 12:28:20.79	325.25	7.51	-31.0	-33.9	10.1	7.95e-03	0	44	0	1018167296	22	5057
2026-01-22 12:28:21.78	325.37	7.45	-30.8	-33.5	10.4	5.34e-03	0	44	0	1020264448	22	4908
2026-01-22 12:28:22.79	325.48	7.39	-30.9	-33.7	10.3	5.91e-03	0	44	0	1022361600	22	4956
2026-01-22 12:28:23.79	325.60	7.34	-30.7	-33.1	10.7	4.01e-03	0	44	0	1024458752	22	4741
2026-01-22 12:28:24.79	325.71	7.28	-30.7	-33.2	10.6	3.23e-03	0	44	0	1026555904	22	4762
2026-01-22 12:28:25.79	325.82	7.23	-30.7	-33.0	10.7	2.84e-03	0	44	0	1027604480	22	4701
2026-01-22 12:28:26.79	325.93	7.17	-30.6	-32.8	10.9	2.12e-03	0	44	0	1029701632	22	4609
2026-01-22 12:28:27.80	326.05	7.11	-30.5	-32.6	11.0	1.59e-03	0	44	0	1031798784	22	4549
2026-01-22 12:28:28.79	326.16	7.06	-33.1	-45.1	3.8	1.09e+00	0	44	104	1032847360	26	14299
2026-01-22 12:28:29.80	326.27	7.00	-33.5	-46.1	3.8	1.49e+00	0	44	104	1032847360	26	15476
2026-01-22 12:28:30.80	326.38	6.95	-33.7	-46.1	3.8	1.49e+00	0	44	104	1032847360	27	15071

#Closed at: 2026-01-22 12:28:31
#Recorded file [1032 MB]: D:/data/31010_260122_151917.dat