passes_logs/2026/01/22/R2M6_AANII_01/R2M6_AANII_01__20260122_024515_NOAA_20_JPSS-1_rec.log

#Pass ID: 20260122_024515_NOAA 20 (JPSS-1)
#Satellite: NOAA 20 (JPSS-1)
#Configuration: NOAA 20
#almurnet v.1.7.20240730
#Start time: 2026-01-22 02:45:17

#Version: 2.2.20231116
#Station: R2M6_AANII_01
#Location: 30.233357 lon 59.946436 lat
#TLE: 1 43013U 17073A   26021.46221703  .00000173  00000+0  10299-3 0  9999
#TLE: 2 43013  98.7644 322.3335 0001238  29.7597 330.3649 14.19538314423652

#Time	Az	El	Level	Level2	SNR	BER	BlckErr	Temp	State	Recorded	gain1	gain2
2026-01-22 02:45:17.25	8.75	7.10	-32.6	-41.9	4.1	1.44e+00	0	42	0	0	26	10511
2026-01-22 02:45:18.25	8.64	7.15	-32.6	-41.0	4.3	1.39e+00	0	42	104	0	26	9520
2026-01-22 02:45:19.26	8.53	7.21	-32.5	-40.6	5.3	6.10e-01	0	42	0	0	26	9114
2026-01-22 02:45:20.27	8.42	7.27	-32.5	-40.5	5.3	5.57e-01	0	42	0	1048576	26	9051
2026-01-22 02:45:21.27	8.31	7.32	-32.5	-40.5	5.4	5.35e-01	0	42	0	3145728	26	9028
2026-01-22 02:45:22.27	8.20	7.38	-32.5	-40.7	5.3	5.52e-01	0	42	0	5242880	26	9191
2026-01-22 02:45:23.27	8.08	7.44	-32.5	-41.2	5.2	5.74e-01	0	42	0	7340032	25	9782
2026-01-22 02:45:24.27	7.97	7.49	-32.6	-41.7	5.0	7.12e-01	0	42	0	9437184	25	10235
2026-01-22 02:45:25.28	7.86	7.55	-32.5	-40.8	5.5	5.72e-01	0	42	0	10485760	25	9333
2026-01-22 02:45:26.28	7.74	7.61	-32.4	-39.8	6.0	4.21e-01	0	42	0	12582912	25	8514
2026-01-22 02:45:27.28	7.63	7.67	-32.2	-38.9	6.8	2.14e-01	0	42	0	14680064	25	7736
2026-01-22 02:45:28.28	7.52	7.72	-32.1	-38.1	7.4	1.30e-01	0	42	0	16777216	25	7175
2026-01-22 02:45:29.29	7.40	7.78	-31.9	-37.2	8.1	8.60e-02	0	42	0	17825792	25	6655
2026-01-22 02:45:30.29	7.28	7.84	-31.8	-37.1	8.6	4.44e-02	0	42	0	19922944	24	6676
2026-01-22 02:45:31.30	7.17	7.90	-31.6	-36.5	9.1	2.61e-02	0	42	0	22020096	24	6298
2026-01-22 02:45:32.30	7.05	7.95	-31.5	-36.1	9.4	1.77e-02	0	42	0	24117248	24	6094
2026-01-22 02:45:33.30	6.93	8.01	-31.5	-35.9	9.7	1.38e-02	0	42	0	26214400	24	5962
2026-01-22 02:45:34.31	6.82	8.07	-31.5	-35.8	9.7	1.19e-02	0	42	0	28311552	24	5955
2026-01-22 02:45:35.31	6.70	8.12	-31.5	-35.7	9.7	1.10e-02	0	42	0	29360128	24	5897
2026-01-22 02:45:36.32	6.58	8.18	-31.5	-35.8	9.7	1.02e-02	0	42	0	31457280	24	5911
2026-01-22 02:45:37.32	6.46	8.24	-31.5	-35.9	9.6	1.19e-02	0	42	0	33554432	24	5992
2026-01-22 02:45:38.32	6.34	8.30	-31.6	-36.1	9.5	1.47e-02	0	42	0	35651584	24	6090
2026-01-22 02:45:39.32	6.22	8.35	-31.4	-35.5	9.9	1.08e-02	0	42	0	36700160	24	5777
2026-01-22 02:45:40.32	6.10	8.41	-31.2	-35.4	10.3	6.09e-03	0	42	0	38797312	23	5847
2026-01-22 02:45:41.33	5.98	8.47	-31.2	-35.3	10.4	4.54e-03	0	42	0	40894464	23	5800
2026-01-22 02:45:42.33	5.86	8.53	-31.2	-35.4	10.4	4.73e-03	0	43	0	42991616	23	5827
2026-01-22 02:45:43.32	5.74	8.58	-31.2	-35.4	10.4	4.43e-03	0	43	0	45088768	23	5816
2026-01-22 02:45:44.32	5.62	8.64	-31.2	-35.4	10.4	4.95e-03	0	43	0	46137344	23	5820
2026-01-22 02:45:45.33	5.49	8.70	-31.1	-35.0	10.6	3.75e-03	0	43	0	48234496	23	5666
2026-01-22 02:45:46.33	5.37	8.75	-31.1	-35.1	10.6	3.19e-03	0	42	0	50331648	23	5669
2026-01-22 02:45:47.33	5.25	8.81	-31.2	-35.2	10.5	3.73e-03	0	43	0	52428800	23	5732
2026-01-22 02:45:48.34	5.12	8.87	-31.2	-35.8	10.4	4.58e-03	0	43	0	54525952	22	6150
2026-01-22 02:45:49.34	5.00	8.93	-31.3	-36.0	10.3	4.85e-03	0	43	0	55574528	22	6228
2026-01-22 02:45:50.34	4.87	8.98	-31.2	-35.7	10.5	4.42e-03	0	43	0	57671680	22	6094
2026-01-22 02:45:51.34	4.75	9.04	-31.2	-35.9	10.4	4.10e-03	0	42	0	59768832	22	6188
2026-01-22 02:45:52.35	4.62	9.10	-31.4	-36.6	9.9	7.83e-03	0	43	0	61865984	22	6524
2026-01-22 02:45:53.36	4.49	9.16	-31.2	-36.0	10.3	6.64e-03	0	43	0	63963136	22	6206
2026-01-22 02:45:54.36	4.37	9.21	-31.1	-35.6	10.6	3.97e-03	0	43	0	65011712	22	6013
2026-01-22 02:45:55.36	4.24	9.27	-31.1	-35.6	10.7	3.27e-03	0	43	0	67108864	22	6016
2026-01-22 02:45:56.36	4.11	9.33	-31.1	-35.4	10.8	2.92e-03	0	43	0	69206016	22	5915
2026-01-22 02:45:57.37	3.98	9.38	-31.1	-35.4	10.8	2.57e-03	0	43	0	71303168	22	5944
2026-01-22 02:45:58.37	3.85	9.44	-31.1	-35.4	10.8	3.12e-03	0	43	0	73400320	22	5922
2026-01-22 02:45:59.36	3.72	9.50	-31.0	-35.1	11.0	2.24e-03	0	43	0	74448896	22	5770
2026-01-22 02:46:00.36	3.59	9.56	-30.9	-34.8	11.3	1.46e-03	0	43	0	76546048	22	5633
2026-01-22 02:46:01.37	3.46	9.61	-30.9	-34.7	11.4	1.02e-03	0	43	0	78643200	22	5585
2026-01-22 02:46:02.37	3.33	9.67	-30.9	-34.7	11.4	1.20e-03	0	43	0	80740352	22	5586
2026-01-22 02:46:03.37	3.20	9.73	-30.9	-34.7	11.3	1.07e-03	0	43	0	81788928	22	5600
2026-01-22 02:46:04.38	3.07	9.78	-31.0	-35.0	11.2	1.40e-03	0	43	0	83886080	22	5706
2026-01-22 02:46:05.39	2.93	9.84	-31.0	-35.0	11.2	1.40e-03	0	43	0	85983232	22	5701
2026-01-22 02:46:06.39	2.80	9.90	-31.1	-35.3	11.0	1.72e-03	0	43	0	88080384	22	5836
2026-01-22 02:46:07.39	2.67	9.96	-31.1	-35.4	10.9	2.39e-03	0	43	0	90177536	22	5915
2026-01-22 02:46:08.40	2.53	10.01	-31.0	-35.1	11.1	1.90e-03	0	43	0	91226112	22	5788
2026-01-22 02:46:09.40	2.40	10.07	-31.0	-35.1	11.1	1.76e-03	0	43	0	93323264	22	5774
2026-01-22 02:46:10.41	2.26	10.13	-31.0	-35.2	11.1	1.62e-03	0	43	0	95420416	22	5793
2026-01-22 02:46:11.41	2.12	10.19	-31.0	-35.1	11.1	1.57e-03	0	43	0	97517568	22	5781
2026-01-22 02:46:12.42	1.99	10.24	-31.0	-35.0	11.2	1.71e-03	0	43	0	99614720	22	5735
2026-01-22 02:46:13.42	1.85	10.30	-31.0	-34.9	11.2	1.28e-03	0	43	0	100663296	22	5694
2026-01-22 02:46:14.42	1.71	10.36	-31.0	-35.0	11.2	1.38e-03	0	43	0	102760448	22	5699
2026-01-22 02:46:15.41	1.57	10.41	-30.9	-34.9	11.2	1.46e-03	0	43	0	104857600	22	5681
2026-01-22 02:46:16.41	1.44	10.47	-31.0	-35.1	11.1	1.41e-03	0	43	0	106954752	22	5756
2026-01-22 02:46:17.41	1.30	10.53	-31.0	-35.2	11.1	1.71e-03	0	43	0	109051904	22	5804
2026-01-22 02:46:18.42	1.15	10.58	-31.0	-35.1	11.1	1.93e-03	0	43	0	110100480	22	5788
2026-01-22 02:46:19.41	1.02	10.64	-31.0	-35.0	11.2	1.43e-03	0	43	0	112197632	22	5721
2026-01-22 02:46:20.42	0.87	10.70	-30.9	-35.3	11.3	1.48e-03	0	43	0	114294784	21	5967
2026-01-22 02:46:21.42	0.73	10.75	-30.9	-35.4	11.3	1.24e-03	0	43	0	116391936	21	6003
2026-01-22 02:46:22.42	0.59	10.81	-30.9	-35.3	11.3	1.27e-03	0	43	0	118489088	21	5989
2026-01-22 02:46:23.42	0.45	10.87	-31.0	-35.5	11.2	1.48e-03	0	43	0	119537664	21	6036
2026-01-22 02:46:24.43	0.30	10.92	-30.9	-35.4	11.3	1.47e-03	0	43	0	121634816	21	5997
2026-01-22 02:46:25.43	0.16	10.98	-30.9	-35.4	11.3	1.11e-03	0	43	0	123731968	21	5998
2026-01-22 02:46:26.43	0.02	11.04	-31.0	-35.1	11.2	1.75e-03	0	43	0	125829120	22	5735
2026-01-22 02:46:27.44	359.87	11.09	-30.9	-34.8	11.4	1.45e-03	0	43	0	126877696	22	5609
2026-01-22 02:46:28.44	359.72	11.15	-30.9	-34.7	11.5	8.67e-04	0	43	0	128974848	22	5567
2026-01-22 02:46:29.44	359.58	11.21	-30.9	-35.3	11.4	1.30e-03	0	43	0	131072000	21	5941
2026-01-22 02:46:30.44	359.43	11.26	-31.0	-35.4	11.3	1.36e-03	0	43	0	133169152	21	5991
2026-01-22 02:46:31.45	359.28	11.32	-31.0	-35.4	11.3	1.09e-03	0	43	0	135266304	21	6017
2026-01-22 02:46:32.44	359.14	11.37	-31.1	-35.3	11.1	1.33e-03	0	43	0	136314880	22	5842
2026-01-22 02:46:33.44	358.99	11.43	-31.1	-35.5	10.9	1.87e-03	0	43	0	138412032	22	5915
2026-01-22 02:46:34.45	358.84	11.49	-31.2	-35.7	10.8	2.56e-03	0	44	0	140509184	22	6017
2026-01-22 02:46:35.45	358.69	11.54	-31.1	-35.4	11.0	2.02e-03	0	43	0	142606336	22	5885
2026-01-22 02:46:36.45	358.54	11.60	-31.1	-35.3	11.0	1.99e-03	0	43	0	144703488	22	5862
2026-01-22 02:46:37.45	358.39	11.65	-31.1	-35.5	11.0	1.79e-03	0	44	0	145752064	22	5935
2026-01-22 02:46:38.45	358.24	11.71	-31.2	-35.5	11.0	2.14e-03	0	43	0	147849216	22	5922
2026-01-22 02:46:39.45	358.09	11.76	-31.2	-35.6	10.8	2.30e-03	0	43	0	149946368	22	5991
2026-01-22 02:46:40.45	357.93	11.82	-31.3	-35.8	10.7	2.75e-03	0	44	0	152043520	22	6085
2026-01-22 02:46:41.46	357.78	11.88	-31.2	-35.7	10.8	2.99e-03	0	44	0	154140672	22	6048
2026-01-22 02:46:42.45	357.63	11.93	-31.2	-35.8	10.8	2.62e-03	0	44	0	155189248	22	6057
2026-01-22 02:46:43.46	357.47	11.99	-31.2	-35.5	10.9	2.29e-03	0	43	0	157286400	22	5954
2026-01-22 02:46:44.46	357.32	12.04	-31.2	-35.6	10.9	2.57e-03	0	44	0	159383552	22	5988
2026-01-22 02:46:45.46	357.16	12.10	-31.2	-35.7	10.8	2.55e-03	0	43	0	161480704	22	6011
2026-01-22 02:46:46.47	357.00	12.15	-31.2	-35.7	10.8	2.45e-03	0	44	0	163577856	22	6021
2026-01-22 02:46:47.47	356.85	12.21	-31.3	-35.9	10.7	2.94e-03	0	43	0	164626432	22	6109
2026-01-22 02:46:48.47	356.69	12.26	-31.3	-36.0	10.6	3.98e-03	0	44	0	166723584	22	6183
2026-01-22 02:46:49.48	356.53	12.32	-31.3	-36.1	10.6	3.33e-03	0	43	0	168820736	22	6202
2026-01-22 02:46:50.48	356.37	12.37	-31.4	-36.2	10.5	5.08e-03	0	44	0	170917888	22	6263
2026-01-22 02:46:51.48	356.21	12.43	-31.3	-36.1	10.6	4.20e-03	0	44	0	171966464	22	6205
2026-01-22 02:46:52.49	356.05	12.48	-31.4	-36.1	10.5	3.72e-03	0	44	0	174063616	22	6239
2026-01-22 02:46:53.49	355.89	12.54	-31.4	-36.3	10.5	4.50e-03	0	44	0	176160768	22	6284
2026-01-22 02:46:54.50	355.73	12.59	-31.5	-36.4	10.4	4.92e-03	0	44	0	178257920	22	6353
2026-01-22 02:46:55.50	355.57	12.65	-31.6	-36.3	10.0	6.53e-03	0	44	0	180355072	23	6216
2026-01-22 02:46:56.50	355.41	12.70	-31.6	-36.3	10.0	9.00e-03	0	44	0	181403648	23	6217
2026-01-22 02:46:57.50	355.24	12.75	-31.4	-35.9	10.4	5.85e-03	0	44	0	183500800	23	5991
2026-01-22 02:46:58.51	355.08	12.81	-31.3	-35.4	10.7	3.76e-03	0	44	0	185597952	23	5763
2026-01-22 02:46:59.51	354.92	12.86	-31.3	-35.8	10.7	2.78e-03	0	44	0	187695104	22	6074
2026-01-22 02:47:00.51	354.75	12.91	-31.3	-35.9	10.7	2.67e-03	0	44	0	189792256	22	6117
2026-01-22 02:47:01.52	354.58	12.97	-31.3	-35.7	10.8	3.25e-03	0	44	0	190840832	22	6039
2026-01-22 02:47:02.52	354.42	13.02	-31.1	-35.2	11.2	1.58e-03	0	44	0	192937984	22	5791
2026-01-22 02:47:03.53	354.25	13.08	-31.0	-35.0	11.4	1.23e-03	0	44	0	195035136	22	5684
2026-01-22 02:47:04.53	354.08	13.13	-31.0	-35.0	11.4	8.80e-04	0	44	0	197132288	22	5685
2026-01-22 02:47:05.54	353.92	13.18	-31.0	-34.8	11.5	8.14e-04	0	44	0	199229440	22	5613
2026-01-22 02:47:06.54	353.75	13.24	-31.0	-34.9	11.4	8.15e-04	0	44	0	200278016	22	5664
2026-01-22 02:47:07.55	353.58	13.29	-31.0	-35.0	11.4	1.09e-03	0	44	0	202375168	22	5673
2026-01-22 02:47:08.55	353.41	13.34	-30.9	-35.1	11.6	1.03e-03	0	44	0	204472320	21	5850
2026-01-22 02:47:09.55	353.24	13.39	-31.0	-35.4	11.4	7.61e-04	0	44	0	206569472	21	5969
2026-01-22 02:47:10.55	353.07	13.45	-30.9	-34.7	11.6	1.02e-03	0	44	0	208666624	22	5560
2026-01-22 02:47:11.55	352.90	13.50	-30.7	-34.1	12.0	4.52e-04	0	44	0	209715200	22	5308
2026-01-22 02:47:12.55	352.72	13.55	-30.7	-34.5	12.1	2.52e-04	0	44	0	211812352	21	5573
2026-01-22 02:47:13.56	352.55	13.60	-30.7	-34.6	12.0	3.32e-04	0	44	0	213909504	21	5630
2026-01-22 02:47:14.57	352.38	13.66	-30.7	-34.5	12.1	3.36e-04	0	44	0	216006656	21	5595
2026-01-22 02:47:15.57	352.20	13.71	-30.7	-34.5	12.1	2.65e-04	0	44	0	218103808	21	5548
2026-01-22 02:47:16.58	352.03	13.76	-30.7	-34.6	12.1	3.16e-04	0	44	0	219152384	21	5617
2026-01-22 02:47:17.59	351.85	13.81	-30.7	-34.6	12.0	3.52e-04	0	44	0	221249536	21	5606
2026-01-22 02:47:18.59	351.67	13.86	-30.8	-34.8	11.9	3.34e-04	0	44	0	223346688	21	5715
2026-01-22 02:47:19.59	351.50	13.91	-30.7	-34.5	12.1	3.74e-04	0	44	0	225443840	21	5591
2026-01-22 02:47:20.59	351.32	13.96	-30.6	-34.3	12.2	1.85e-04	0	44	0	226492416	21	5498
2026-01-22 02:47:21.59	351.14	14.01	-30.8	-34.7	12.0	2.62e-04	0	44	0	228589568	21	5650
2026-01-22 02:47:22.60	350.96	14.06	-30.8	-34.7	12.0	4.20e-04	0	44	0	230686720	21	5644
2026-01-22 02:47:23.60	350.79	14.12	-30.6	-34.2	12.3	2.24e-04	0	44	0	232783872	21	5444
2026-01-22 02:47:24.60	350.61	14.17	-30.5	-33.8	12.6	1.34e-04	0	44	0	234881024	21	5286
2026-01-22 02:47:25.61	350.43	14.22	-30.5	-33.8	12.6	9.68e-05	0	44	0	236978176	21	5281
2026-01-22 02:47:26.61	350.24	14.27	-30.4	-34.2	12.7	8.08e-05	0	44	0	238026752	20	5552
2026-01-22 02:47:27.61	350.06	14.32	-30.5	-34.3	12.7	9.38e-05	0	44	0	240123904	20	5579
2026-01-22 02:47:28.61	349.88	14.36	-30.7	-34.3	12.3	1.16e-04	0	44	0	242221056	21	5482
2026-01-22 02:47:29.62	349.70	14.41	-30.5	-33.9	12.5	1.52e-04	0	44	0	244318208	21	5332
2026-01-22 02:47:30.62	349.52	14.46	-30.4	-33.6	12.8	7.24e-05	0	44	0	245366784	21	5200
2026-01-22 02:47:31.62	349.33	14.51	-30.3	-33.3	13.0	6.79e-05	0	44	0	247463936	21	5083
2026-01-22 02:47:32.62	349.15	14.56	-30.2	-33.6	13.1	1.83e-05	0	44	0	249561088	20	5310
2026-01-22 02:47:33.62	348.96	14.61	-30.3	-33.8	13.0	3.58e-05	0	44	0	251658240	20	5401
2026-01-22 02:47:34.62	348.78	14.66	-30.3	-33.7	13.1	5.95e-05	0	44	0	253755392	20	5326
2026-01-22 02:47:35.63	348.59	14.71	-29.2	-32.2	13.4	2.44e-05	0	44	0	254803968	20	5109
2026-01-22 02:47:36.63	348.40	14.75	-30.1	-33.2	13.4	1.14e-05	0	44	0	256901120	20	5138
2026-01-22 02:47:37.64	348.21	14.80	-30.1	-33.1	13.3	1.44e-05	0	44	0	258998272	20	5124
2026-01-22 02:47:38.64	348.03	14.85	-30.0	-32.9	13.3	5.30e-06	0	44	0	261095424	20	5040
2026-01-22 02:47:39.65	347.84	14.90	-30.0	-33.0	13.6	1.52e-05	0	44	0	263192576	20	5069
2026-01-22 02:47:40.64	347.65	14.94	-30.2	-33.4	13.2	1.75e-05	0	44	0	264241152	20	5229
2026-01-22 02:47:41.64	347.46	14.99	-30.1	-33.3	13.2	1.44e-05	0	44	0	266338304	20	5168
2026-01-22 02:47:42.64	347.27	15.04	-30.0	-33.1	13.4	1.06e-05	0	44	0	268435456	20	5104
2026-01-22 02:47:43.64	347.08	15.08	-30.1	-33.1	13.4	1.29e-05	0	44	0	270532608	20	5117
2026-01-22 02:47:44.65	346.89	15.13	-30.1	-33.2	13.4	6.10e-06	0	44	0	272629760	20	5163
2026-01-22 02:47:45.65	346.69	15.17	-30.1	-33.1	13.5	1.98e-05	0	44	0	273678336	20	5106
2026-01-22 02:47:46.66	346.50	15.22	-29.9	-32.8	13.7	2.38e-04	0	44	0	275775488	20	4995
2026-01-22 02:47:47.66	346.31	15.27	-30.0	-33.3	13.7	6.80e-06	0	44	0	277872640	19	5290
2026-01-22 02:47:48.66	346.11	15.31	-30.0	-32.9	13.6	3.80e-06	0	44	0	279969792	20	5041
2026-01-22 02:47:49.67	345.92	15.36	-30.2	-33.4	13.3	2.62e-04	0	44	0	282066944	20	5210
2026-01-22 02:47:50.67	345.72	15.40	-30.2	-33.4	13.3	2.05e-05	0	44	0	283115520	20	5224
2026-01-22 02:47:51.67	345.53	15.44	-30.3	-33.7	13.1	1.98e-05	0	44	0	285212672	20	5331
2026-01-22 02:47:52.67	345.33	15.49	-30.2	-33.6	13.2	3.43e-05	0	44	0	287309824	20	5287
2026-01-22 02:47:53.67	345.13	15.53	-30.2	-33.3	13.4	2.53e-04	0	44	0	289406976	20	5193
2026-01-22 02:47:54.67	344.94	15.58	-30.2	-33.4	13.3	1.29e-05	0	44	0	290455552	20	5237
2026-01-22 02:47:55.67	344.74	15.62	-30.3	-33.6	13.1	2.28e-05	0	44	0	292552704	20	5320
2026-01-22 02:47:56.68	344.54	15.66	-30.2	-33.5	13.2	2.72e-04	0	44	0	294649856	20	5256
2026-01-22 02:47:57.67	344.34	15.70	-30.3	-33.8	13.1	3.20e-05	0	44	0	296747008	20	5362
2026-01-22 02:47:58.67	344.14	15.75	-30.3	-33.7	13.1	2.51e-05	0	44	0	298844160	20	5338
2026-01-22 02:47:59.68	343.94	15.79	-30.3	-33.7	13.1	2.51e-05	0	44	0	299892736	20	5342
2026-01-22 02:48:00.67	343.74	15.83	-30.4	-34.0	12.9	3.35e-05	0	44	0	301989888	20	5458
2026-01-22 02:48:01.68	343.54	15.87	-30.4	-33.9	13.0	4.73e-05	0	44	0	304087040	20	5423
2026-01-22 02:48:02.68	343.33	15.91	-30.3	-33.8	13.1	3.89e-05	0	44	0	306184192	20	5385
2026-01-22 02:48:03.69	343.13	15.95	-30.4	-34.1	12.9	3.66e-05	0	44	0	308281344	20	5484
2026-01-22 02:48:04.69	342.93	16.00	-30.4	-33.9	13.0	4.73e-05	0	44	0	309329920	20	5413
2026-01-22 02:48:05.70	342.72	16.04	-30.3	-33.8	13.0	2.97e-05	0	44	0	311427072	20	5388
2026-01-22 02:48:06.70	342.52	16.08	-30.4	-34.1	12.9	5.49e-05	0	44	0	313524224	20	5470
2026-01-22 02:48:07.71	342.31	16.12	-30.4	-34.0	12.9	1.49e-04	0	44	0	315621376	20	5467
2026-01-22 02:48:08.71	342.10	16.16	-30.2	-33.6	13.2	4.04e-05	0	44	0	317718528	20	5282
2026-01-22 02:48:09.71	341.90	16.19	-30.0	-32.9	13.7	1.83e-05	0	44	0	318767104	20	5011
2026-01-22 02:48:10.72	341.69	16.23	-29.8	-32.4	14.0	1.44e-04	0	44	0	320864256	20	4839
2026-01-22 02:48:11.72	341.48	16.27	-29.8	-32.2	14.1	1.50e-06	0	44	0	322961408	20	4789
2026-01-22 02:48:12.73	341.27	16.31	-29.7	-32.0	14.2	1.50e-06	0	44	0	325058560	20	4712
2026-01-22 02:48:13.73	341.07	16.35	-29.8	-32.7	14.2	1.73e-04	0	44	0	327155712	19	5065
2026-01-22 02:48:14.73	340.86	16.39	-29.7	-32.6	14.2	1.73e-04	0	44	0	328204288	19	5021
2026-01-22 02:48:15.73	340.65	16.42	-29.8	-32.7	14.2	0.00e+00	0	44	0	330301440	19	5067
2026-01-22 02:48:16.73	340.44	16.46	-29.8	-32.9	14.1	1.50e-06	0	44	0	332398592	19	5120
2026-01-22 02:48:17.73	340.23	16.50	-29.8	-32.9	14.1	1.11e-04	0	44	0	334495744	19	5128
2026-01-22 02:48:18.74	340.02	16.53	-29.8	-32.9	14.1	1.50e-06	0	44	0	335544320	19	5114
2026-01-22 02:48:19.73	339.81	16.57	-29.8	-32.8	14.1	2.20e-06	0	44	0	337641472	19	5094
2026-01-22 02:48:20.74	339.59	16.60	-29.9	-33.1	14.0	2.20e-06	0	44	0	339738624	19	5177
2026-01-22 02:48:21.74	339.38	16.64	-30.0	-32.8	13.8	3.80e-06	0	44	0	341835776	20	4980
2026-01-22 02:48:22.75	339.17	16.67	-30.2	-33.4	13.4	1.14e-05	0	44	0	343932928	20	5199
2026-01-22 02:48:23.76	338.95	16.71	-30.1	-33.2	13.5	1.20e-04	0	44	0	346030080	20	5140
2026-01-22 02:48:24.76	338.74	16.74	-30.0	-32.8	13.8	4.50e-06	0	44	0	347078656	20	4967
2026-01-22 02:48:25.77	338.52	16.78	-29.9	-32.6	13.9	3.36e-04	0	44	0	349175808	20	4901
2026-01-22 02:48:26.78	338.30	16.81	-29.9	-32.9	14.1	3.00e-06	0	44	0	351272960	19	5137
2026-01-22 02:48:27.78	338.09	16.84	-29.9	-33.0	14.0	3.00e-06	0	44	0	353370112	19	5174
2026-01-22 02:48:28.79	337.87	16.88	-30.0	-33.3	13.9	3.46e-04	0	44	0	354418688	19	5262
2026-01-22 02:48:29.79	337.66	16.91	-30.3	-33.6	13.3	3.00e-06	0	44	0	356515840	20	5277
2026-01-22 02:48:30.79	337.44	16.94	-30.1	-33.0	13.6	9.10e-06	0	44	0	358612992	20	5068
2026-01-22 02:48:31.79	337.22	16.97	-29.8	-32.3	14.1	3.80e-06	0	44	0	360710144	20	4814
2026-01-22 02:48:32.79	337.00	17.00	-29.6	-31.8	14.4	1.50e-06	0	44	0	362807296	20	4637
2026-01-22 02:48:33.79	336.79	17.03	-29.5	-31.6	14.5	0.00e+00	0	44	0	363855872	20	4587
2026-01-22 02:48:34.79	336.57	17.06	-29.6	-31.9	14.4	3.00e-06	0	44	0	365953024	20	4668
2026-01-22 02:48:35.79	336.35	17.09	-29.7	-32.2	14.2	1.72e-04	0	44	0	368050176	20	4767
2026-01-22 02:48:36.80	336.13	17.12	-29.7	-32.0	14.3	7.00e-07	0	44	0	370147328	20	4713
2026-01-22 02:48:37.80	335.91	17.15	-29.6	-32.4	14.4	3.87e-04	0	44	0	372244480	19	4942
2026-01-22 02:48:38.81	335.69	17.18	-29.7	-32.5	14.3	4.59e-04	0	44	0	373293056	19	4988
2026-01-22 02:48:39.82	335.46	17.21	-29.6	-32.4	14.4	1.50e-06	0	44	0	375390208	19	4935
2026-01-22 02:48:40.82	335.24	17.24	-29.6	-32.3	14.5	4.74e-04	0	44	0	377487360	19	4923
2026-01-22 02:48:41.83	335.02	17.27	-29.8	-32.7	14.3	4.12e-04	0	44	0	379584512	19	5034
2026-01-22 02:48:42.83	334.80	17.29	-29.8	-32.7	14.3	3.00e-06	0	44	0	381681664	19	5032
2026-01-22 02:48:43.84	334.57	17.32	-29.8	-32.9	14.2	1.42e-04	0	44	0	382730240	19	5105
2026-01-22 02:48:44.84	334.35	17.35	-29.6	-32.4	14.4	2.36e-05	0	44	0	384827392	19	4939
2026-01-22 02:48:45.84	334.13	17.37	-29.5	-31.9	14.7	0.00e+00	0	44	0	386924544	19	4782
2026-01-22 02:48:46.84	333.90	17.40	-29.4	-31.8	14.8	7.00e-07	0	44	0	389021696	19	4738
2026-01-22 02:48:47.85	333.68	17.42	-29.5	-32.1	14.7	3.80e-06	0	44	0	391118848	19	4821
2026-01-22 02:48:48.85	333.45	17.45	-29.5	-32.0	14.7	0.00e+00	0	44	0	392167424	19	4784
2026-01-22 02:48:49.85	333.23	17.47	-29.6	-32.3	14.5	1.78e-04	0	44	0	394264576	19	4902
2026-01-22 02:48:50.85	333.00	17.50	-29.6	-32.3	14.5	2.16e-04	0	44	0	396361728	19	4908
2026-01-22 02:48:51.86	332.78	17.52	-29.7	-32.5	14.4	1.50e-06	0	44	0	398458880	19	4987
2026-01-22 02:48:52.87	332.55	17.54	-29.9	-33.0	14.1	1.65e-04	0	44	0	400556032	19	5150
2026-01-22 02:48:53.88	332.32	17.56	-29.9	-32.9	14.1	3.00e-06	0	44	0	401604608	19	5118
2026-01-22 02:48:54.89	332.09	17.59	-30.0	-33.3	13.9	3.00e-06	0	44	0	403701760	19	5258
2026-01-22 02:48:55.89	331.87	17.61	-30.1	-33.2	13.6	2.21e-04	0	44	0	405798912	20	5131
2026-01-22 02:48:56.89	331.64	17.63	-30.1	-33.2	13.6	3.77e-04	0	44	0	407896064	20	5122
2026-01-22 02:48:57.89	331.41	17.65	-30.2	-33.4	13.4	9.10e-06	0	44	0	408944640	20	5201
2026-01-22 02:48:58.90	331.18	17.67	-30.3	-33.6	13.3	6.21e-04	0	44	0	411041792	20	5273
2026-01-22 02:48:59.90	330.95	17.69	-30.4	-33.9	13.1	7.98e-04	0	44	0	413138944	20	5386
2026-01-22 02:49:00.91	330.72	17.71	-30.4	-34.0	13.0	2.82e-05	0	44	0	415236096	20	5440
2026-01-22 02:49:01.91	330.49	17.73	-30.4	-33.9	13.1	7.32e-04	0	44	0	417333248	20	5392
2026-01-22 02:49:02.91	330.27	17.75	-30.4	-34.1	13.0	5.48e-04	0	44	0	419430400	20	5461
2026-01-22 02:49:03.90	330.04	17.76	-30.5	-33.7	12.9	5.26e-05	0	44	0	420478976	21	5222
2026-01-22 02:49:04.91	329.81	17.78	-30.3	-33.2	13.2	2.97e-05	0	44	0	422576128	21	5016
2026-01-22 02:49:05.91	329.58	17.80	-30.1	-32.7	13.5	2.37e-04	0	44	0	424673280	21	4847
2026-01-22 02:49:06.91	329.35	17.82	-30.1	-32.6	13.6	9.10e-06	0	44	0	426770432	21	4813
2026-01-22 02:49:07.92	329.12	17.83	-30.2	-33.2	13.6	8.30e-06	0	44	0	427819008	20	5135
2026-01-22 02:49:08.92	328.89	17.85	-30.2	-33.3	13.5	4.39e-04	0	44	0	429916160	20	5181
2026-01-22 02:49:09.92	328.66	17.86	-30.1	-33.2	13.5	1.37e-05	0	44	0	432013312	20	5133
2026-01-22 02:49:10.92	328.42	17.88	-30.2	-33.3	13.4	4.50e-06	0	44	0	434110464	20	5186
2026-01-22 02:49:11.93	328.19	17.89	-30.3	-33.8	13.2	1.90e-05	0	44	0	436207616	20	5346
2026-01-22 02:49:12.93	327.96	17.90	-30.3	-33.7	13.2	2.74e-05	0	44	0	437256192	20	5329
2026-01-22 02:49:13.93	327.73	17.92	-30.4	-34.1	13.0	3.78e-04	0	44	0	439353344	20	5460
2026-01-22 02:49:14.94	327.49	17.93	-30.3	-33.8	13.2	3.20e-05	0	44	0	441450496	20	5353
2026-01-22 02:49:15.94	327.26	17.94	-30.4	-33.9	13.1	2.28e-05	0	44	0	443547648	20	5400
2026-01-22 02:49:16.94	327.03	17.95	-30.2	-33.5	13.3	4.22e-04	0	44	0	445644800	20	5242
2026-01-22 02:49:17.95	326.80	17.97	-30.2	-33.3	13.5	1.75e-05	0	44	0	446693376	20	5171
2026-01-22 02:49:18.95	326.56	17.98	-30.2	-33.5	13.3	1.29e-05	0	44	0	448790528	20	5227
2026-01-22 02:49:19.95	326.33	17.99	-30.3	-33.7	13.2	4.62e-04	0	44	0	450887680	20	5332
2026-01-22 02:49:20.96	326.10	18.00	-30.3	-33.8	13.2	2.05e-05	0	44	0	452984832	20	5358
2026-01-22 02:49:21.96	325.86	18.01	-30.4	-33.9	13.0	4.27e-05	0	44	0	455081984	20	5408
2026-01-22 02:49:22.96	325.63	18.02	-30.3	-33.7	13.2	2.89e-05	0	44	0	456130560	20	5338
2026-01-22 02:49:23.96	325.40	18.02	-30.3	-33.7	13.2	1.92e-04	0	44	0	458227712	20	5332
2026-01-22 02:49:24.97	325.16	18.03	-30.3	-33.8	13.1	3.20e-05	0	44	0	460324864	20	5371
2026-01-22 02:49:25.97	324.93	18.04	-30.5	-34.2	12.9	4.11e-05	0	44	0	462422016	20	5527
2026-01-22 02:49:26.97	324.69	18.05	-30.4	-33.9	13.1	4.57e-05	0	44	0	464519168	20	5406
2026-01-22 02:49:27.98	324.46	18.05	-30.4	-33.8	13.1	2.67e-05	0	44	0	465567744	20	5376
2026-01-22 02:49:28.98	324.23	18.06	-30.4	-34.0	13.0	3.35e-05	0	44	0	467664896	20	5444
2026-01-22 02:49:29.99	323.99	18.06	-30.4	-33.9	13.1	3.28e-05	0	44	0	469762048	20	5396
2026-01-22 02:49:30.99	323.76	18.07	-30.5	-34.2	12.9	3.81e-05	0	44	0	471859200	20	5505
2026-01-22 02:49:31.99	323.52	18.07	-30.5	-33.9	12.8	5.79e-05	0	44	0	472907776	21	5269
2026-01-22 02:49:33.00	323.28	18.08	-30.6	-34.1	12.6	9.07e-05	0	44	0	475004928	21	5384
2026-01-22 02:49:34.00	323.05	18.08	-30.7	-34.2	12.6	1.03e-04	0	44	0	477102080	21	5412
2026-01-22 02:49:35.00	322.82	18.08	-30.7	-34.4	12.4	1.32e-04	0	44	0	479199232	21	5510
2026-01-22 02:49:36.01	322.58	18.09	-30.8	-34.7	12.2	1.66e-04	0	44	0	481296384	21	5604
2026-01-22 02:49:37.01	322.35	18.09	-30.6	-34.1	12.6	1.43e-04	0	44	0	482344960	21	5351
2026-01-22 02:49:38.02	322.11	18.09	-30.4	-33.5	13.0	4.04e-05	0	44	0	484442112	21	5122
2026-01-22 02:49:39.02	321.87	18.09	-30.3	-33.2	13.2	3.35e-05	0	44	0	486539264	21	5022
2026-01-22 02:49:40.02	321.64	18.09	-30.3	-33.3	13.1	3.20e-05	0	44	0	488636416	21	5055
2026-01-22 02:49:41.02	321.41	18.09	-30.2	-32.9	13.4	1.32e-04	0	44	0	490733568	21	4921
2026-01-22 02:49:42.02	321.17	18.09	-30.2	-32.9	13.3	1.83e-05	0	44	0	491782144	21	4921
2026-01-22 02:49:43.02	320.94	18.09	-30.3	-33.2	13.2	1.52e-05	0	44	0	493879296	21	5030
2026-01-22 02:49:44.03	320.70	18.09	-30.5	-33.9	12.7	3.12e-05	0	44	0	495976448	21	5298
2026-01-22 02:49:45.03	320.47	18.09	-30.4	-33.6	12.9	4.42e-05	0	44	0	498073600	21	5177
2026-01-22 02:49:46.04	320.23	18.08	-30.7	-34.3	12.6	3.50e-05	0	44	0	500170752	21	5434
2026-01-22 02:49:47.04	320.00	18.08	-31.0	-34.7	11.8	1.92e-04	0	44	0	501219328	22	5529
2026-01-22 02:49:48.04	319.76	18.08	-31.2	-35.2	11.5	6.81e-04	0	44	0	503316480	22	5742
2026-01-22 02:49:49.04	319.53	18.07	-31.3	-35.8	11.1	1.14e-03	0	44	0	505413632	22	6000
2026-01-22 02:49:50.05	319.29	18.07	-31.1	-35.1	11.7	7.94e-04	0	44	0	507510784	22	5669
2026-01-22 02:49:51.05	319.06	18.06	-31.1	-34.8	11.8	6.04e-04	0	44	0	509607936	22	5568
2026-01-22 02:49:52.06	318.82	18.06	-31.0	-34.7	11.9	4.07e-04	0	44	0	510656512	22	5510
2026-01-22 02:49:53.06	318.59	18.05	-31.0	-34.8	11.8	5.03e-04	0	44	0	512753664	22	5559
2026-01-22 02:49:54.06	318.35	18.05	-31.2	-35.2	11.5	7.26e-04	0	44	0	514850816	22	5719
2026-01-22 02:49:55.07	318.12	18.04	-31.0	-34.6	11.9	4.14e-04	0	44	0	516947968	22	5481
2026-01-22 02:49:56.07	317.88	18.03	-30.7	-33.9	12.4	2.30e-04	0	44	0	519045120	22	5198
2026-01-22 02:49:57.07	317.65	18.02	-30.6	-33.5	12.7	1.18e-04	0	44	0	520093696	22	5019
2026-01-22 02:49:58.07	317.42	18.02	-30.4	-32.9	13.0	5.87e-05	0	44	0	522190848	22	4825
2026-01-22 02:49:59.07	317.18	18.01	-30.4	-32.9	13.1	3.05e-05	0	44	0	524288000	22	4803
2026-01-22 02:50:00.08	316.95	18.00	-30.3	-33.2	13.1	3.58e-05	0	44	0	526385152	21	5036
2026-01-22 02:50:01.08	316.72	17.99	-30.2	-33.0	13.3	2.28e-05	0	44	0	527433728	21	4951
2026-01-22 02:50:02.08	316.48	17.98	-30.3	-33.3	13.0	3.28e-05	0	44	0	529530880	21	5076
2026-01-22 02:50:03.09	316.25	17.97	-30.1	-32.6	13.5	2.13e-05	0	44	0	531628032	21	4823
2026-01-22 02:50:04.10	316.01	17.95	-29.9	-32.1	13.8	6.10e-06	0	44	0	533725184	21	4643
2026-01-22 02:50:05.10	315.78	17.94	-29.8	-31.8	14.0	2.20e-06	0	44	0	535822336	21	4553
2026-01-22 02:50:06.10	315.55	17.93	-29.8	-32.3	14.0	7.00e-07	0	44	0	537919488	20	4824
2026-01-22 02:50:07.11	315.32	17.92	-29.7	-32.2	14.1	3.00e-06	0	44	0	538968064	20	4795
2026-01-22 02:50:08.11	315.08	17.90	-29.8	-32.4	14.0	0.00e+00	0	44	0	541065216	20	4846
2026-01-22 02:50:09.11	314.85	17.89	-29.7	-32.2	14.1	7.00e-07	0	44	0	543162368	20	4767
2026-01-22 02:50:10.11	314.62	17.88	-29.7	-32.0	14.0	3.00e-06	0	44	0	545259520	20	4721
2026-01-22 02:50:11.11	314.39	17.86	-29.8	-32.7	13.8	0.00e+00	0	44	0	546308096	19	5059
2026-01-22 02:50:12.11	314.16	17.85	-29.9	-32.7	13.8	3.00e-06	0	44	0	548405248	20	4950
2026-01-22 02:50:13.11	313.93	17.83	-29.9	-33.0	13.7	3.80e-06	0	44	0	550502400	19	5168
2026-01-22 02:50:14.12	313.70	17.81	-29.9	-33.0	13.5	3.00e-06	0	44	0	552599552	19	5173
2026-01-22 02:50:15.12	313.47	17.80	-29.8	-32.8	14.1	5.30e-06	0	44	0	554696704	19	5103
2026-01-22 02:50:16.12	313.24	17.78	-29.8	-33.0	13.8	1.50e-06	0	44	0	555745280	19	5152
2026-01-22 02:50:17.13	313.01	17.76	-29.9	-33.1	13.8	1.50e-06	0	44	0	557842432	19	5214
2026-01-22 02:50:18.13	312.78	17.75	-29.7	-32.7	14.2	2.20e-06	0	44	0	559939584	19	5044
2026-01-22 02:50:19.13	312.55	17.73	-29.7	-32.4	14.3	0.00e+00	0	44	0	562036736	19	4948
2026-01-22 02:50:20.14	312.32	17.71	-29.6	-32.3	14.4	0.00e+00	0	44	0	564133888	19	4918
2026-01-22 02:50:21.14	312.09	17.69	-29.5	-32.1	14.6	0.00e+00	0	44	0	565182464	19	4849
2026-01-22 02:50:22.15	311.86	17.67	-29.4	-32.4	14.7	1.28e-03	0	44	0	567279616	18	5056
2026-01-22 02:50:23.14	311.63	17.65	-29.4	-32.3	14.7	0.00e+00	0	44	0	569376768	18	5037
2026-01-22 02:50:24.15	311.40	17.63	-29.3	-32.1	14.9	0.00e+00	0	44	0	571473920	18	4964
2026-01-22 02:50:25.15	311.18	17.61	-29.2	-31.8	15.0	0.00e+00	0	44	0	573571072	18	4865
2026-01-22 02:50:26.15	310.95	17.59	-29.2	-31.9	15.0	0.00e+00	0	44	0	574619648	18	4884
2026-01-22 02:50:27.16	310.72	17.56	-29.2	-31.8	15.0	0.00e+00	0	44	0	576716800	18	4863
2026-01-22 02:50:28.16	310.49	17.54	-29.3	-32.0	14.9	0.00e+00	0	44	0	578813952	18	4922
2026-01-22 02:50:29.16	310.27	17.52	-29.4	-32.4	14.7	1.25e-03	0	44	0	580911104	18	5065
2026-01-22 02:50:30.16	310.04	17.49	-29.5	-32.5	14.5	7.00e-07	0	44	0	583008256	18	5110
2026-01-22 02:50:31.16	309.82	17.47	-29.6	-32.3	14.4	7.00e-07	0	44	0	584056832	19	4927
2026-01-22 02:50:32.17	309.59	17.45	-29.8	-32.7	14.1	1.37e-03	0	44	0	586153984	19	5059
2026-01-22 02:50:33.17	309.37	17.42	-29.7	-32.5	14.3	2.20e-06	0	44	0	588251136	19	4984
2026-01-22 02:50:34.17	309.14	17.40	-29.5	-32.2	14.4	0.00e+00	0	44	0	590348288	19	4892
2026-01-22 02:50:35.17	308.92	17.37	-29.6	-32.3	14.4	0.00e+00	0	44	0	591396864	19	4914
2026-01-22 02:50:36.18	308.69	17.35	-29.7	-32.5	14.2	4.50e-06	0	44	0	593494016	19	4993
2026-01-22 02:50:37.18	308.47	17.32	-29.7	-32.6	14.2	1.50e-06	0	44	0	595591168	19	5010
2026-01-22 02:50:38.19	308.24	17.29	-29.7	-32.5	14.2	0.00e+00	0	44	0	597688320	19	5006
2026-01-22 02:50:39.19	308.02	17.27	-29.8	-32.7	14.1	0.00e+00	0	44	0	599785472	19	5072
2026-01-22 02:50:40.19	307.80	17.24	-29.9	-33.0	13.9	2.66e-04	0	44	0	600834048	19	5167
2026-01-22 02:50:41.20	307.58	17.21	-29.8	-32.9	13.9	2.20e-06	0	44	0	602931200	19	5154
2026-01-22 02:50:42.20	307.36	17.18	-29.9	-33.3	13.8	6.10e-06	0	44	0	605028352	19	5272
2026-01-22 02:50:43.20	307.14	17.15	-29.9	-33.2	13.8	2.20e-06	0	44	0	607125504	19	5239
2026-01-22 02:50:44.21	306.91	17.12	-30.0	-33.0	13.5	1.06e-05	0	44	0	609222656	20	5083
2026-01-22 02:50:45.21	306.69	17.09	-30.1	-33.3	13.3	1.14e-05	0	44	0	610271232	20	5196
2026-01-22 02:50:46.22	306.47	17.06	-30.0	-32.8	13.6	3.76e-04	0	44	0	612368384	20	5016
2026-01-22 02:50:47.23	306.25	17.03	-29.9	-33.2	13.8	7.89e-04	0	44	0	614465536	19	5249
2026-01-22 02:50:48.23	306.03	17.00	-29.9	-32.7	13.7	5.30e-06	0	44	0	616562688	20	4947
2026-01-22 02:50:49.23	305.82	16.97	-29.9	-32.8	13.7	1.31e-03	0	44	0	618659840	20	4997
2026-01-22 02:50:50.23	305.60	16.94	-30.0	-33.1	13.5	1.04e-03	0	44	0	619708416	20	5108
2026-01-22 02:50:51.23	305.38	16.91	-29.9	-32.7	13.7	5.30e-06	0	44	0	621805568	20	4970
2026-01-22 02:50:52.24	305.16	16.88	-29.9	-33.2	13.8	5.30e-06	0	44	0	623902720	19	5247
2026-01-22 02:50:53.24	304.95	16.84	-29.9	-33.1	13.9	7.80e-04	0	44	0	625999872	19	5195
2026-01-22 02:50:54.24	304.73	16.81	-29.9	-33.1	13.8	2.20e-06	0	44	0	628097024	19	5225
2026-01-22 02:50:55.24	304.52	16.78	-30.0	-33.3	13.7	6.80e-06	0	44	0	629145600	19	5299
2026-01-22 02:50:56.24	304.30	16.74	-30.0	-33.3	13.7	4.29e-04	0	44	0	631242752	19	5284
2026-01-22 02:50:57.24	304.09	16.71	-30.1	-33.1	13.4	6.10e-06	0	44	0	633339904	20	5124
2026-01-22 02:50:58.25	303.87	16.67	-30.2	-33.6	13.1	1.52e-05	0	44	0	635437056	20	5299
2026-01-22 02:50:59.25	303.66	16.64	-30.2	-33.4	13.2	2.49e-04	0	44	0	637534208	20	5243
2026-01-22 02:51:00.25	303.45	16.60	-30.3	-33.8	13.0	4.19e-05	0	44	0	638582784	20	5378
2026-01-22 02:51:01.25	303.23	16.57	-30.2	-33.4	13.2	3.67e-04	0	44	0	640679936	20	5221
2026-01-22 02:51:02.26	303.02	16.53	-30.1	-33.1	13.4	1.44e-05	0	44	0	642777088	20	5116
2026-01-22 02:51:03.26	302.81	16.50	-30.0	-33.1	13.4	1.52e-05	0	44	0	644874240	20	5097
2026-01-22 02:51:04.26	302.60	16.46	-30.0	-32.9	13.5	5.68e-04	0	44	0	646971392	20	5046
2026-01-22 02:51:05.27	302.39	16.42	-29.9	-33.2	13.8	3.97e-04	0	44	0	648019968	19	5255
2026-01-22 02:51:06.27	302.18	16.38	-29.9	-33.0	13.9	4.50e-06	0	44	0	650117120	19	5184
2026-01-22 02:51:07.28	301.97	16.35	-29.9	-33.1	13.8	2.25e-04	0	44	0	652214272	19	5221
2026-01-22 02:51:08.28	301.76	16.31	-30.0	-33.3	13.7	1.63e-04	0	44	0	654311424	19	5308
2026-01-22 02:51:09.29	301.55	16.27	-30.1	-33.1	13.4	6.80e-06	0	44	0	655360000	20	5128
2026-01-22 02:51:10.29	301.34	16.23	-30.2	-33.4	13.2	7.47e-05	0	44	0	657457152	20	5244
2026-01-22 02:51:11.29	301.13	16.19	-30.1	-33.2	13.4	1.50e-04	0	44	0	659554304	20	5149
2026-01-22 02:51:12.29	300.93	16.15	-30.1	-33.4	13.2	1.98e-05	0	44	0	661651456	20	5213
2026-01-22 02:51:13.30	300.72	16.11	-30.3	-33.7	13.0	3.81e-05	0	44	0	663748608	20	5331
2026-01-22 02:51:14.30	300.51	16.07	-30.2	-33.5	13.1	3.28e-05	0	44	0	664797184	20	5269
2026-01-22 02:51:15.30	300.31	16.03	-30.3	-33.7	13.0	2.67e-05	0	44	0	666894336	20	5356
2026-01-22 02:51:16.31	300.10	15.99	-30.3	-33.8	12.9	6.25e-05	0	44	0	668991488	20	5406
2026-01-22 02:51:17.31	299.90	15.95	-30.1	-33.2	13.3	2.36e-05	0	44	0	671088640	20	5166
2026-01-22 02:51:18.32	299.69	15.91	-29.9	-32.8	13.6	8.30e-06	0	44	0	673185792	20	5015
2026-01-22 02:51:19.32	299.49	15.87	-29.9	-32.7	13.7	9.90e-06	0	44	0	674234368	20	4968
2026-01-22 02:51:20.33	299.29	15.83	-29.9	-32.7	13.7	1.14e-05	0	44	0	676331520	20	4956
2026-01-22 02:51:21.33	299.09	15.79	-30.0	-33.0	13.5	8.30e-06	0	44	0	678428672	20	5083
2026-01-22 02:51:22.33	298.89	15.74	-30.1	-33.2	13.3	1.29e-05	0	44	0	680525824	20	5156
2026-01-22 02:51:23.33	298.69	15.70	-30.0	-33.1	13.4	6.10e-06	0	44	0	682622976	20	5112
2026-01-22 02:51:24.34	298.48	15.66	-30.1	-33.2	13.3	1.83e-05	0	44	0	683671552	20	5143
2026-01-22 02:51:25.34	298.28	15.61	-30.0	-33.0	13.4	1.44e-05	0	44	0	685768704	20	5084
2026-01-22 02:51:26.35	298.08	15.57	-30.0	-32.9	13.5	1.22e-05	0	44	0	687865856	20	5063
2026-01-22 02:51:27.35	297.89	15.53	-30.0	-33.0	13.4	1.75e-05	0	44	0	689963008	20	5093
2026-01-22 02:51:28.36	297.69	15.48	-30.2	-33.4	13.1	1.44e-05	0	44	0	692060160	20	5244
2026-01-22 02:51:29.36	297.49	15.44	-30.2	-33.5	13.1	2.97e-05	0	44	0	693108736	20	5279
2026-01-22 02:51:30.36	297.29	15.40	-30.1	-33.4	13.2	2.67e-05	0	44	0	695205888	20	5235
2026-01-22 02:51:31.37	297.10	15.35	-30.3	-33.7	12.9	5.26e-05	0	44	0	697303040	20	5358
2026-01-22 02:51:32.37	296.90	15.31	-30.2	-33.5	13.1	3.28e-05	0	44	0	699400192	20	5268
2026-01-22 02:51:33.37	296.71	15.26	-30.1	-33.3	13.2	2.44e-05	0	44	0	701497344	20	5190
2026-01-22 02:51:34.37	296.51	15.21	-30.1	-33.4	13.2	2.59e-05	0	44	0	702545920	20	5224
2026-01-22 02:51:35.38	296.32	15.17	-30.2	-33.5	13.1	3.50e-05	0	44	0	704643072	20	5289
2026-01-22 02:51:36.39	296.12	15.12	-30.2	-33.4	13.2	3.35e-05	0	44	0	706740224	20	5252
2026-01-22 02:51:37.39	295.93	15.08	-30.2	-33.6	13.0	3.89e-05	0	44	0	708837376	20	5300
2026-01-22 02:51:38.40	295.74	15.03	-30.1	-33.2	13.3	2.05e-05	0	44	0	709885952	20	5150
2026-01-22 02:51:39.40	295.55	14.98	-30.0	-33.0	13.4	1.90e-05	0	44	0	711983104	20	5092
2026-01-22 02:51:40.41	295.36	14.94	-30.0	-33.1	13.4	1.52e-05	0	44	0	714080256	20	5114
2026-01-22 02:51:41.41	295.17	14.89	-30.1	-33.2	13.3	1.75e-05	0	44	0	716177408	20	5157
2026-01-22 02:51:42.41	294.98	14.84	-30.1	-33.3	13.2	2.21e-05	0	44	0	718274560	20	5214
2026-01-22 02:51:43.41	294.79	14.79	-30.2	-33.6	13.0	4.65e-05	0	44	0	720371712	20	5316
2026-01-22 02:51:44.41	294.60	14.75	-30.3	-33.9	12.8	4.19e-05	0	44	0	721420288	20	5428
2026-01-22 02:51:45.42	294.41	14.70	-30.4	-34.0	12.7	8.85e-05	0	44	0	723517440	20	5487
2026-01-22 02:51:46.42	294.23	14.65	-30.4	-34.1	12.6	1.55e-04	0	44	0	725614592	20	5523
2026-01-22 02:51:47.42	294.04	14.60	-30.3	-34.0	12.7	8.85e-05	0	44	0	727711744	20	5494
2026-01-22 02:51:48.42	293.86	14.55	-30.3	-33.8	12.8	4.95e-05	0	44	0	728760320	20	5409
2026-01-22 02:51:49.43	293.67	14.50	-30.3	-33.8	12.8	6.71e-05	0	44	0	730857472	20	5418
2026-01-22 02:51:50.43	293.49	14.46	-30.3	-33.8	12.8	6.25e-05	0	44	0	732954624	20	5418
2026-01-22 02:51:51.42	293.30	14.41	-30.4	-34.3	12.5	6.79e-05	0	44	0	735051776	20	5595
2026-01-22 02:51:52.43	293.12	14.36	-30.5	-34.0	12.4	1.36e-04	0	44	0	737148928	21	5374
2026-01-22 02:51:53.43	292.94	14.31	-30.5	-33.9	12.4	1.79e-04	0	44	0	738197504	21	5341
2026-01-22 02:51:54.44	292.75	14.26	-30.5	-34.0	12.4	1.77e-04	0	44	0	740294656	21	5355
2026-01-22 02:51:55.45	292.57	14.21	-30.5	-34.0	12.3	1.46e-04	0	44	0	742391808	21	5376
2026-01-22 02:51:56.45	292.39	14.16	-30.6	-34.1	12.2	1.12e-03	0	44	0	744488960	21	5426
2026-01-22 02:51:57.45	292.21	14.11	-30.6	-34.3	12.1	2.84e-04	0	44	0	746586112	21	5513
2026-01-22 02:51:58.46	292.03	14.06	-30.6	-34.2	12.2	2.10e-04	0	44	0	747634688	21	5470
2026-01-22 02:51:59.46	291.85	14.00	-30.7	-34.5	12.0	2.30e-03	0	44	0	749731840	21	5579
2026-01-22 02:52:00.47	291.67	13.95	-30.6	-34.4	12.1	2.25e-04	0	44	0	751828992	21	5554
2026-01-22 02:52:01.47	291.49	13.90	-30.7	-34.6	11.9	5.20e-04	0	44	0	753926144	21	5644
2026-01-22 02:52:02.47	291.32	13.85	-30.8	-34.9	11.7	4.26e-04	0	44	0	756023296	21	5764
2026-01-22 02:52:03.48	291.14	13.80	-30.8	-35.1	11.6	7.03e-04	0	44	0	757071872	21	5844
2026-01-22 02:52:04.48	290.96	13.75	-30.9	-35.1	11.5	7.23e-04	0	44	0	759169024	21	5885
2026-01-22 02:52:05.47	290.79	13.70	-30.9	-35.3	11.3	1.06e-03	0	44	0	761266176	21	5973
2026-01-22 02:52:06.47	290.62	13.65	-30.8	-35.0	11.6	8.83e-04	0	44	0	763363328	21	5833
2026-01-22 02:52:07.48	290.44	13.59	-30.8	-34.9	11.7	7.12e-04	0	44	0	765460480	21	5773
2026-01-22 02:52:08.48	290.27	13.54	-30.8	-34.8	11.7	6.54e-04	0	44	0	766509056	21	5727
2026-01-22 02:52:09.48	290.10	13.49	-30.7	-34.5	11.9	4.64e-04	0	44	0	768606208	21	5617
2026-01-22 02:52:10.48	289.92	13.44	-30.6	-34.4	12.0	1.81e-03	0	44	0	770703360	21	5541
2026-01-22 02:52:11.48	289.75	13.38	-30.6	-34.4	12.0	2.95e-04	0	44	0	772800512	21	5539
2026-01-22 02:52:12.48	289.58	13.33	-30.6	-34.4	12.0	3.34e-04	0	44	0	773849088	21	5547
2026-01-22 02:52:13.49	289.41	13.28	-30.7	-34.5	11.9	3.57e-04	0	44	0	775946240	21	5605
2026-01-22 02:52:14.49	289.24	13.23	-30.8	-34.8	11.6	5.76e-04	0	44	0	778043392	21	5761
2026-01-22 02:52:15.49	289.07	13.17	-30.9	-35.4	11.3	8.66e-04	0	44	0	780140544	21	5996
2026-01-22 02:52:16.50	288.90	13.12	-31.1	-35.2	11.0	1.36e-03	0	44	0	782237696	22	5836
2026-01-22 02:52:17.50	288.74	13.07	-31.1	-35.5	10.9	2.01e-03	0	44	0	783286272	22	5937
2026-01-22 02:52:18.51	288.57	13.01	-31.2	-35.7	10.7	2.59e-03	0	44	0	785383424	22	6035
2026-01-22 02:52:19.50	288.40	12.96	-31.2	-35.7	10.6	3.38e-03	0	44	0	787480576	22	6070
2026-01-22 02:52:20.51	288.24	12.90	-31.2	-35.7	10.7	3.29e-03	0	44	0	789577728	22	6044
2026-01-22 02:52:21.51	288.07	12.85	-31.1	-35.4	10.9	2.59e-03	0	44	0	791674880	22	5917
2026-01-22 02:52:22.52	287.90	12.80	-31.1	-35.4	10.9	2.15e-03	0	44	0	792723456	22	5891
2026-01-22 02:52:23.52	287.74	12.74	-31.1	-35.5	10.9	2.03e-03	0	44	0	794820608	22	5935
2026-01-22 02:52:24.52	287.58	12.69	-31.2	-35.7	10.7	3.19e-03	0	44	0	796917760	22	6051
2026-01-22 02:52:25.52	287.42	12.63	-31.1	-35.5	10.8	2.38e-03	0	44	0	799014912	22	5959
2026-01-22 02:52:26.53	287.25	12.58	-31.2	-35.8	10.6	2.89e-03	0	44	0	801112064	22	6126
2026-01-22 02:52:27.53	287.09	12.53	-31.2	-35.8	10.6	3.56e-03	0	44	0	802160640	22	6097
2026-01-22 02:52:28.53	286.93	12.47	-31.2	-35.7	10.7	2.77e-03	0	44	0	804257792	22	6038
2026-01-22 02:52:29.53	286.77	12.42	-31.2	-35.6	10.8	2.80e-03	0	44	0	806354944	22	6021
2026-01-22 02:52:30.54	286.61	12.36	-31.1	-35.5	10.7	2.99e-03	0	44	0	808452096	22	5977
2026-01-22 02:52:31.54	286.45	12.31	-31.1	-35.4	10.8	2.33e-03	0	44	0	810549248	22	5933
2026-01-22 02:52:32.55	286.29	12.25	-31.0	-35.2	11.0	2.03e-03	0	44	0	811597824	22	5824
2026-01-22 02:52:33.56	286.13	12.20	-31.0	-35.6	11.0	1.80e-03	0	44	0	813694976	21	6110
2026-01-22 02:52:34.56	285.97	12.14	-30.9	-35.5	10.9	1.61e-03	0	44	0	815792128	21	6060
2026-01-22 02:52:35.57	285.81	12.08	-30.8	-35.2	11.3	1.28e-03	0	44	0	817889280	21	5925
2026-01-22 02:52:36.58	285.66	12.03	-30.8	-35.1	11.0	1.12e-03	0	44	0	819986432	21	5892
2026-01-22 02:52:37.58	285.50	11.97	-30.8	-34.9	11.1	2.28e-03	0	44	0	821035008	21	5810
2026-01-22 02:52:38.58	285.35	11.92	-30.8	-35.0	11.4	8.03e-04	0	44	0	823132160	21	5825
2026-01-22 02:52:39.58	285.19	11.86	-30.8	-35.2	11.1	9.86e-04	0	44	0	825229312	21	5923
2026-01-22 02:52:40.58	285.04	11.81	-30.9	-35.3	11.0	1.19e-03	0	44	0	827326464	21	5993
2026-01-22 02:52:41.59	284.88	11.75	-31.0	-35.6	11.0	1.75e-03	0	44	0	828375040	21	6125
2026-01-22 02:52:42.59	284.73	11.70	-31.0	-35.6	11.0	1.84e-03	0	44	0	830472192	21	6127
2026-01-22 02:52:43.60	284.58	11.64	-31.0	-35.6	10.9	2.08e-03	0	44	0	832569344	21	6147
2026-01-22 02:52:44.60	284.43	11.58	-31.0	-35.3	10.9	2.30e-03	0	44	0	834666496	22	5888
2026-01-22 02:52:45.61	284.28	11.53	-31.1	-35.4	10.7	2.72e-03	0	44	0	836763648	22	5949
2026-01-22 02:52:46.61	284.13	11.47	-31.0	-35.2	11.0	2.59e-03	0	44	0	838860800	22	5822
2026-01-22 02:52:47.61	283.98	11.41	-30.8	-34.6	11.3	1.27e-03	0	44	0	839909376	22	5581
2026-01-22 02:52:48.62	283.83	11.36	-30.7	-34.7	11.6	7.96e-04	0	44	0	842006528	21	5705
2026-01-22 02:52:49.62	283.68	11.30	-30.6	-34.5	11.7	6.47e-04	0	44	0	844103680	21	5624
2026-01-22 02:52:50.62	283.53	11.25	-30.7	-34.6	11.6	6.28e-04	0	44	0	846200832	21	5688
2026-01-22 02:52:51.62	283.38	11.19	-30.6	-34.5	11.7	2.86e-03	0	44	0	847249408	21	5638
2026-01-22 02:52:52.63	283.23	11.13	-30.6	-34.4	11.8	5.53e-04	0	44	0	849346560	21	5596
2026-01-22 02:52:53.63	283.09	11.08	-30.6	-34.3	11.8	4.76e-04	0	44	0	851443712	21	5550
2026-01-22 02:52:54.64	282.94	11.02	-30.7	-34.8	11.6	2.87e-03	0	44	0	853540864	21	5756
2026-01-22 02:52:55.64	282.80	10.96	-30.7	-34.8	11.5	1.33e-03	0	44	0	855638016	21	5755
2026-01-22 02:52:56.64	282.65	10.91	-30.7	-34.8	11.5	7.32e-04	0	44	0	856686592	21	5765
2026-01-22 02:52:57.65	282.51	10.85	-30.7	-34.8	11.5	1.06e-03	0	44	0	858783744	21	5744
2026-01-22 02:52:58.65	282.36	10.79	-30.6	-34.5	11.7	2.91e-03	0	44	0	860880896	21	5628
2026-01-22 02:52:59.66	282.22	10.73	-30.6	-34.5	11.7	6.00e-04	0	44	0	862978048	21	5646
2026-01-22 02:53:00.65	282.08	10.68	-30.5	-34.3	11.8	6.10e-04	0	44	0	865075200	21	5539
2026-01-22 02:53:01.65	281.94	10.62	-30.5	-34.3	11.8	2.42e-03	0	44	0	866123776	21	5552
2026-01-22 02:53:02.65	281.80	10.57	-30.5	-34.2	11.9	5.17e-04	0	44	0	868220928	21	5514
2026-01-22 02:53:03.65	281.66	10.51	-30.4	-34.5	12.0	3.62e-04	0	44	0	870318080	20	5746
2026-01-22 02:53:04.66	281.52	10.45	-30.4	-34.4	12.1	1.27e-03	0	44	0	872415232	20	5680
2026-01-22 02:53:05.66	281.38	10.39	-30.5	-34.5	12.0	2.84e-04	0	44	0	874512384	20	5764
2026-01-22 02:53:06.67	281.24	10.34	-30.4	-34.4	12.1	3.48e-04	0	44	0	875560960	20	5722
2026-01-22 02:53:07.67	281.10	10.28	-30.4	-34.3	12.1	2.25e-04	0	44	0	877658112	20	5678
2026-01-22 02:53:08.68	280.96	10.22	-30.3	-34.2	12.2	2.69e-04	0	44	0	879755264	20	5602
2026-01-22 02:53:09.68	280.82	10.16	-30.3	-34.1	12.3	1.93e-03	0	44	0	881852416	20	5588
2026-01-22 02:53:10.68	280.68	10.11	-30.3	-34.2	12.2	1.64e-04	0	44	0	883949568	20	5635
2026-01-22 02:53:11.69	280.55	10.05	-30.3	-34.2	12.2	2.28e-04	0	44	0	884998144	20	5626
2026-01-22 02:53:12.70	280.41	9.99	-30.3	-34.2	12.2	2.63e-03	0	44	0	887095296	20	5617
2026-01-22 02:53:13.70	280.28	9.94	-30.3	-34.3	12.1	2.23e-04	0	44	0	889192448	20	5661
2026-01-22 02:53:14.70	280.14	9.88	-30.4	-34.6	11.9	3.40e-04	0	44	0	891289600	20	5796
2026-01-22 02:53:15.70	280.01	9.82	-30.3	-34.2	12.1	2.86e-03	0	44	0	892338176	20	5649
2026-01-22 02:53:16.69	279.88	9.76	-30.3	-34.1	12.2	2.67e-03	0	44	0	894435328	20	5592
2026-01-22 02:53:17.70	279.74	9.71	-30.4	-34.5	11.9	2.66e-04	0	44	0	896532480	20	5780
2026-01-22 02:53:18.71	279.61	9.65	-30.3	-34.2	12.1	3.08e-03	0	44	0	898629632	20	5643
2026-01-22 02:53:19.71	279.48	9.59	-30.2	-33.8	12.4	2.66e-03	0	44	0	900726784	20	5446
2026-01-22 02:53:20.71	279.34	9.53	-30.1	-33.5	12.6	1.30e-04	0	44	0	901775360	20	5332
2026-01-22 02:53:21.71	279.21	9.48	-30.1	-33.5	12.6	2.61e-03	0	44	0	903872512	20	5340
2026-01-22 02:53:22.72	279.08	9.42	-30.1	-33.5	12.6	2.62e-03	0	44	0	905969664	20	5353
2026-01-22 02:53:23.72	278.95	9.36	-30.0	-33.3	12.7	7.47e-05	0	44	0	908066816	20	5263
2026-01-22 02:53:24.72	278.82	9.31	-29.9	-33.1	12.9	5.79e-05	0	44	0	910163968	20	5187
2026-01-22 02:53:25.73	278.69	9.25	-30.1	-33.4	12.7	2.09e-03	0	44	0	911212544	20	5311
2026-01-22 02:53:26.74	278.56	9.19	-30.1	-33.5	12.6	1.14e-04	0	44	0	913309696	20	5358
2026-01-22 02:53:27.73	278.44	9.13	-30.0	-33.2	12.8	1.54e-03	0	44	0	915406848	20	5205
2026-01-22 02:53:28.73	278.31	9.08	-29.9	-33.1	12.8	1.49e-03	0	44	0	917504000	20	5177
2026-01-22 02:53:29.74	278.18	9.02	-30.0	-33.4	12.6	7.85e-05	0	44	0	919601152	20	5316
2026-01-22 02:53:30.74	278.06	8.96	-30.0	-33.4	12.6	2.14e-03	0	44	0	920649728	20	5302
2026-01-22 02:53:31.75	277.93	8.90	-30.0	-33.3	12.7	7.55e-05	0	44	0	922746880	20	5248
2026-01-22 02:53:32.75	277.81	8.84	-30.1	-33.7	12.4	1.03e-04	0	44	0	924844032	20	5419
2026-01-22 02:53:33.75	277.68	8.79	-30.1	-33.7	12.4	2.55e-03	0	44	0	926941184	20	5420
2026-01-22 02:53:34.74	277.56	8.73	-30.0	-33.3	12.6	2.45e-03	0	44	0	929038336	20	5284
2026-01-22 02:53:35.75	277.43	8.67	-30.0	-33.4	12.6	1.17e-04	0	44	0	930086912	20	5289
2026-01-22 02:53:36.75	277.31	8.62	-30.0	-33.4	12.6	2.46e-03	0	44	0	932184064	20	5306
2026-01-22 02:53:37.76	277.19	8.56	-30.0	-33.5	12.6	2.60e-03	0	44	0	934281216	20	5333
2026-01-22 02:53:38.76	277.06	8.50	-30.1	-33.7	12.3	1.24e-04	0	44	0	936378368	20	5439
2026-01-22 02:53:39.77	276.94	8.44	-30.1	-33.7	12.4	2.30e-03	0	44	0	938475520	20	5436
2026-01-22 02:53:40.77	276.82	8.39	-30.2	-33.9	12.2	2.36e-03	0	44	0	939524096	20	5528
2026-01-22 02:53:41.77	276.70	8.33	-30.2	-33.9	12.2	3.00e-04	0	44	0	941621248	20	5507
2026-01-22 02:53:42.77	276.58	8.27	-30.2	-33.9	12.2	2.57e-03	0	44	0	943718400	20	5538
2026-01-22 02:53:43.78	276.46	8.21	-30.4	-34.5	11.8	2.75e-03	0	44	0	945815552	20	5782
2026-01-22 02:53:44.78	276.34	8.16	-30.4	-34.7	11.6	8.37e-04	0	44	0	947912704	20	5896
2026-01-22 02:53:45.79	276.22	8.10	-30.4	-34.6	11.6	3.66e-03	0	44	0	948961280	20	5846
2026-01-22 02:53:46.79	276.10	8.04	-30.4	-34.7	11.6	3.55e-03	0	44	0	951058432	20	5884
2026-01-22 02:53:47.79	275.98	7.98	-30.5	-34.5	11.4	1.11e-03	0	44	0	953155584	21	5665
2026-01-22 02:53:48.80	275.86	7.93	-30.6	-34.8	11.2	4.01e-03	0	44	0	955252736	21	5810
2026-01-22 02:53:49.80	275.75	7.87	-30.6	-34.7	11.2	4.88e-03	0	44	0	957349888	21	5757
2026-01-22 02:53:50.80	275.63	7.81	-30.7	-35.1	10.8	2.11e-03	0	44	0	958398464	21	5993
2026-01-22 02:53:51.81	275.51	7.75	-30.7	-35.0	11.0	6.21e-03	0	44	0	960495616	21	5910
2026-01-22 02:53:52.81	275.40	7.70	-30.4	-34.3	11.5	1.10e-03	0	44	0	962592768	21	5596
2026-01-22 02:53:53.81	275.28	7.64	-30.3	-34.3	11.8	6.78e-04	0	44	0	964689920	20	5698
2026-01-22 02:53:54.81	275.17	7.58	-30.4	-34.7	11.6	3.12e-03	0	44	0	965738496	20	5871
2026-01-22 02:53:55.81	275.06	7.53	-30.4	-34.6	11.6	7.61e-04	0	44	0	967835648	20	5865
2026-01-22 02:53:56.82	274.94	7.47	-30.2	-34.0	12.1	3.61e-04	0	44	0	969932800	20	5567
2026-01-22 02:53:57.82	274.83	7.41	-30.2	-33.9	12.1	2.72e-03	0	44	0	972029952	20	5556
2026-01-22 02:53:58.82	274.72	7.35	-30.2	-33.9	12.1	2.67e-03	0	44	0	974127104	20	5538
2026-01-22 02:53:59.82	274.60	7.30	-30.2	-34.0	12.1	2.30e-04	0	44	0	975175680	20	5570
2026-01-22 02:54:00.83	274.49	7.24	-30.3	-34.3	11.8	2.67e-03	0	44	0	977272832	20	5729
2026-01-22 02:54:01.84	274.38	7.18	-30.3	-34.3	11.8	2.63e-03	0	44	0	979369984	20	5699
2026-01-22 02:54:02.84	274.27	7.13	-30.3	-34.3	11.8	5.10e-04	0	44	0	981467136	20	5704
2026-01-22 02:54:03.84	274.16	7.07	-30.2	-34.0	12.0	1.90e-03	0	44	0	983564288	20	5581
2026-01-22 02:54:04.84	274.05	7.01	-33.0	-46.8	3.8	4.50e-01	0	44	104	984612864	25	17699
2026-01-22 02:54:05.84	273.94	6.95	-33.4	-47.8	3.8	1.49e+00	0	44	104	984612864	26	19035

#Closed at: 2026-01-22 02:54:06
#Recorded file [984 MB]: D:/data/31010_260122_054519.dat