passes_logs/2026/01/22/R2M6_AANII_01/R2M6_AANII_01__20260122_095702_FENGYUN_3D_rec.log

#Pass ID: 20260122_095702_FENGYUN 3D
#Satellite: FENGYUN 3D
#Configuration: FENGYUN 3D
#almurnet v.1.7.20240730
#Start time: 2026-01-22 09:57:04

#Version: 2.2.20231116
#Station: R2M6_AANII_01
#Location: 30.233357 lon 59.946436 lat
#TLE: 1 43010U 17072A   26021.48744220  .00000253  00000+0  14133-3 0  9991
#TLE: 2 43010  98.9948 353.4037 0002485  97.2578 262.8880 14.19697766424177

#Time	Az	El	Level	Level2	SNR	BER	BlckErr	Temp	State	Recorded	gain1	gain2
2026-01-22 09:57:04.07	84.64	7.11	-30.6	-34.4	5.0	7.95e-01	0	41	0	0	22	5583
2026-01-22 09:57:05.08	84.53	7.17	-29.7	-32.7	5.3	7.71e-01	0	41	104	0	20	5092
2026-01-22 09:57:06.09	84.41	7.22	-29.6	-32.5	9.8	1.24e-02	0	41	0	0	20	4984
2026-01-22 09:57:07.08	84.30	7.28	-29.6	-32.2	10.0	1.08e-02	0	41	0	5242880	20	4877
2026-01-22 09:57:08.09	84.19	7.34	-29.5	-32.1	10.1	9.26e-03	0	41	0	11534336	20	4842
2026-01-22 09:57:09.09	84.08	7.39	-29.5	-32.0	10.1	8.62e-03	0	41	0	16777216	20	4809
2026-01-22 09:57:10.09	83.96	7.45	-29.5	-32.0	10.2	8.02e-03	0	41	0	22020096	20	4800
2026-01-22 09:57:11.09	83.85	7.51	-29.0	-31.2	11.1	2.72e-03	0	41	0	28311552	19	4630
2026-01-22 09:57:12.09	83.73	7.56	-28.6	-30.7	11.8	1.13e-03	0	41	0	33554432	18	4555
2026-01-22 09:57:13.10	83.62	7.62	-28.2	-30.1	12.5	2.75e-04	0	41	0	38797312	17	4473
2026-01-22 09:57:14.10	83.50	7.68	-27.8	-29.2	13.0	7.78e-05	0	41	0	45088768	17	4222
2026-01-22 09:57:15.10	83.38	7.74	-27.5	-29.0	13.4	1.94e-05	0	42	0	50331648	16	4257
2026-01-22 09:57:16.11	83.27	7.79	-27.3	-28.5	13.7	6.80e-06	0	41	0	55574528	16	4138
2026-01-22 09:57:17.11	83.15	7.85	-27.1	-28.6	13.8	1.14e-05	0	42	0	61865984	15	4281
2026-01-22 09:57:18.12	83.03	7.91	-27.2	-28.7	13.7	8.00e-06	0	42	0	67108864	15	4311
2026-01-22 09:57:19.12	82.91	7.96	-27.2	-28.7	13.7	8.00e-06	0	42	0	73400320	15	4312
2026-01-22 09:57:20.12	82.79	8.02	-27.2	-28.9	13.6	1.71e-05	0	42	0	78643200	15	4361
2026-01-22 09:57:21.13	82.67	8.08	-27.0	-28.3	14.0	9.10e-06	0	42	0	84934656	15	4197
2026-01-22 09:57:22.13	82.56	8.14	-26.9	-28.1	14.1	1.10e-06	0	42	0	90177536	15	4124
2026-01-22 09:57:23.13	82.44	8.19	-26.8	-28.0	14.2	2.20e-06	0	42	0	95420416	15	4095
2026-01-22 09:57:24.13	82.32	8.25	-26.9	-28.1	14.1	3.40e-06	0	42	0	101711872	15	4128
2026-01-22 09:57:25.14	82.19	8.31	-26.8	-28.3	14.3	0.00e+00	0	42	0	106954752	14	4294
2026-01-22 09:57:26.14	82.07	8.36	-26.7	-28.1	14.5	1.10e-06	0	42	0	112197632	14	4229
2026-01-22 09:57:27.14	81.95	8.42	-26.7	-28.1	14.4	0.00e+00	0	42	0	118489088	14	4243
2026-01-22 09:57:28.15	81.83	8.48	-26.6	-28.0	14.5	0.00e+00	0	42	0	123731968	14	4202
2026-01-22 09:57:29.14	81.71	8.54	-26.7	-28.1	14.4	2.20e-06	0	42	0	128974848	14	4231
2026-01-22 09:57:30.15	81.58	8.59	-26.8	-28.5	14.2	3.40e-06	0	42	0	135266304	14	4340
2026-01-22 09:57:31.15	81.46	8.65	-26.7	-28.0	14.5	3.40e-06	0	42	0	140509184	14	4215
2026-01-22 09:57:32.15	81.33	8.71	-26.6	-27.9	14.6	3.40e-06	0	42	0	146800640	14	4168
2026-01-22 09:57:33.15	81.21	8.76	-26.6	-27.9	14.6	0.00e+00	0	42	0	152043520	14	4169
2026-01-22 09:57:34.15	81.08	8.82	-26.5	-27.7	14.7	0.00e+00	0	42	0	157286400	14	4117
2026-01-22 09:57:35.15	80.96	8.88	-26.6	-27.9	14.6	0.00e+00	0	42	0	163577856	14	4170
2026-01-22 09:57:36.16	80.83	8.94	-26.7	-28.0	14.5	0.00e+00	0	42	0	168820736	14	4213
2026-01-22 09:57:37.16	80.70	8.99	-26.6	-27.8	14.6	1.10e-06	0	42	0	174063616	14	4159
2026-01-22 09:57:38.16	80.58	9.05	-26.6	-27.9	14.6	0.00e+00	0	42	0	180355072	14	4168
2026-01-22 09:57:39.17	80.45	9.11	-26.6	-28.0	14.6	1.10e-06	0	42	0	185597952	14	4202
2026-01-22 09:57:40.17	80.32	9.17	-26.7	-28.2	14.5	0.00e+00	0	42	0	190840832	14	4254
2026-01-22 09:57:41.18	80.19	9.22	-26.8	-28.3	14.5	0.00e+00	0	42	0	197132288	14	4279
2026-01-22 09:57:42.18	80.06	9.28	-26.8	-28.3	14.4	5.70e-06	0	42	0	202375168	14	4294
2026-01-22 09:57:43.18	79.93	9.34	-26.9	-28.7	14.2	3.40e-06	0	42	0	208666624	14	4395
2026-01-22 09:57:44.19	79.80	9.39	-26.9	-28.6	14.2	3.40e-06	0	42	0	213909504	14	4374
2026-01-22 09:57:45.19	79.67	9.45	-26.9	-28.6	14.2	1.10e-06	0	42	0	220200960	14	4383
2026-01-22 09:57:46.19	79.54	9.51	-26.9	-28.6	14.3	2.20e-06	0	42	0	225443840	14	4360
2026-01-22 09:57:47.19	79.40	9.57	-27.1	-28.9	14.1	2.20e-06	0	42	0	230686720	14	4463
2026-01-22 09:57:48.20	79.27	9.62	-26.9	-28.6	14.2	3.40e-06	0	42	0	236978176	14	4385
2026-01-22 09:57:49.20	79.14	9.68	-26.8	-28.3	14.4	2.20e-06	0	42	0	242221056	14	4282
2026-01-22 09:57:50.21	79.00	9.74	-26.7	-28.2	14.5	0.00e+00	0	43	0	247463936	14	4256
2026-01-22 09:57:51.21	78.87	9.79	-26.7	-28.1	14.6	2.20e-06	0	42	0	253755392	14	4222
2026-01-22 09:57:52.22	78.73	9.85	-26.6	-27.9	14.7	1.10e-06	0	42	0	258998272	14	4166
2026-01-22 09:57:53.22	78.60	9.91	-26.6	-27.9	14.7	0.00e+00	0	42	0	264241152	14	4178
2026-01-22 09:57:54.22	78.46	9.97	-26.8	-28.2	14.5	1.10e-06	0	42	0	270532608	14	4250
2026-01-22 09:57:55.22	78.32	10.02	-26.6	-27.9	14.7	0.00e+00	0	42	0	275775488	14	4185
2026-01-22 09:57:56.22	78.19	10.08	-26.6	-27.9	14.7	1.10e-06	0	43	0	282066944	14	4162
2026-01-22 09:57:57.22	78.05	10.14	-26.6	-27.9	14.7	0.00e+00	0	43	0	287309824	14	4186
2026-01-22 09:57:58.22	77.91	10.19	-26.6	-27.8	14.8	0.00e+00	0	43	0	292552704	14	4157
2026-01-22 09:57:59.22	77.77	10.25	-26.6	-27.8	14.8	1.10e-06	0	42	0	298844160	14	4132
2026-01-22 09:58:00.22	77.64	10.31	-26.5	-27.7	14.8	0.00e+00	0	43	0	304087040	14	4120
2026-01-22 09:58:01.22	77.50	10.36	-26.5	-27.7	14.8	1.10e-06	0	43	0	309329920	14	4132
2026-01-22 09:58:02.23	77.35	10.42	-26.6	-27.9	14.8	1.10e-06	0	43	0	315621376	14	4165
2026-01-22 09:58:03.23	77.21	10.48	-26.4	-27.5	15.0	1.10e-06	0	43	0	320864256	14	4056
2026-01-22 09:58:04.23	77.07	10.53	-26.4	-27.3	15.1	0.00e+00	0	43	0	327155712	14	4025
2026-01-22 09:58:05.24	76.93	10.59	-26.4	-27.3	15.1	0.00e+00	0	43	0	332398592	14	4021
2026-01-22 09:58:06.24	76.79	10.65	-26.4	-27.3	15.1	0.00e+00	0	43	0	337641472	14	4021
2026-01-22 09:58:07.24	76.65	10.70	-26.5	-27.6	14.9	1.10e-06	0	43	0	343932928	14	4080
2026-01-22 09:58:08.24	76.50	10.76	-26.4	-27.4	15.0	0.00e+00	0	43	0	349175808	14	4030
2026-01-22 09:58:09.24	76.36	10.81	-26.4	-27.4	15.0	0.00e+00	0	43	0	355467264	14	4049
2026-01-22 09:58:10.24	76.21	10.87	-26.5	-27.5	15.0	0.00e+00	0	43	0	360710144	14	4073
2026-01-22 09:58:11.25	76.07	10.93	-26.3	-27.1	15.2	0.00e+00	0	43	0	365953024	14	3967
2026-01-22 09:58:12.26	75.92	10.98	-26.2	-27.5	15.3	0.00e+00	0	43	0	372244480	13	4170
2026-01-22 09:58:13.25	75.78	11.04	-26.3	-27.6	15.2	0.00e+00	0	43	0	377487360	13	4189
2026-01-22 09:58:14.26	75.63	11.10	-26.3	-27.7	15.1	0.00e+00	0	43	0	382730240	13	4233
2026-01-22 09:58:15.26	75.48	11.15	-26.2	-27.5	15.2	0.00e+00	0	43	0	389021696	13	4175
2026-01-22 09:58:16.26	75.33	11.21	-26.2	-27.5	15.2	0.00e+00	0	43	0	394264576	13	4183
2026-01-22 09:58:17.26	75.18	11.26	-26.3	-27.7	15.1	0.00e+00	0	43	0	399507456	13	4232
2026-01-22 09:58:18.27	75.03	11.32	-26.3	-27.6	15.2	0.00e+00	0	43	0	405798912	13	4211
2026-01-22 09:58:19.26	74.89	11.38	-26.3	-27.6	15.2	0.00e+00	0	43	0	411041792	13	4189
2026-01-22 09:58:20.27	74.73	11.43	-26.3	-27.7	15.2	0.00e+00	0	43	0	417333248	13	4229
2026-01-22 09:58:21.27	74.58	11.49	-26.3	-27.6	15.2	0.00e+00	0	43	0	422576128	13	4195
2026-01-22 09:58:22.28	74.43	11.54	-26.3	-27.7	15.2	0.00e+00	0	43	0	428867584	13	4228
2026-01-22 09:58:23.28	74.28	11.60	-26.3	-27.6	15.2	0.00e+00	0	43	0	434110464	13	4183
2026-01-22 09:58:24.29	74.12	11.66	-26.2	-27.4	15.4	0.00e+00	0	43	0	439353344	13	4128
2026-01-22 09:58:25.28	73.97	11.71	-26.1	-27.3	15.4	0.00e+00	0	43	0	445644800	13	4115
2026-01-22 09:58:26.28	73.82	11.77	-26.2	-27.4	15.4	0.00e+00	0	43	0	450887680	13	4142
2026-01-22 09:58:27.29	73.66	11.82	-26.2	-27.4	15.3	0.00e+00	0	43	0	456130560	13	4156
2026-01-22 09:58:28.29	73.51	11.88	-26.2	-27.4	15.3	0.00e+00	0	43	0	462422016	13	4153
2026-01-22 09:58:29.29	73.35	11.93	-26.1	-27.2	15.5	0.00e+00	0	43	0	467664896	13	4095
2026-01-22 09:58:30.30	73.19	11.99	-26.1	-27.2	15.4	0.00e+00	0	43	0	472907776	13	4105
2026-01-22 09:58:31.30	73.04	12.04	-26.2	-27.4	15.3	0.00e+00	0	43	0	479199232	13	4157
2026-01-22 09:58:32.31	72.88	12.10	-26.3	-27.6	15.2	0.00e+00	0	43	0	484442112	13	4210
2026-01-22 09:58:33.31	72.72	12.15	-26.2	-27.4	15.4	0.00e+00	0	43	0	490733568	13	4146
2026-01-22 09:58:34.31	72.56	12.21	-26.2	-27.5	15.3	0.00e+00	0	43	0	495976448	13	4173
2026-01-22 09:58:35.31	72.40	12.26	-26.2	-27.5	15.3	1.10e-06	0	43	0	501219328	13	4167
2026-01-22 09:58:36.30	72.25	12.31	-26.1	-27.1	15.5	0.00e+00	0	43	0	507510784	13	4078
2026-01-22 09:58:37.30	72.09	12.37	-26.0	-26.9	15.6	0.00e+00	0	43	0	512753664	13	4026
2026-01-22 09:58:38.31	71.92	12.42	-26.0	-26.9	15.6	0.00e+00	0	43	0	517996544	13	4022
2026-01-22 09:58:39.31	71.76	12.48	-25.8	-26.7	15.8	0.00e+00	0	43	0	524288000	13	3953
2026-01-22 09:58:40.32	71.60	12.53	-25.7	-26.9	15.9	0.00e+00	0	43	0	529530880	12	4127
2026-01-22 09:58:41.32	71.44	12.59	-25.7	-26.8	16.0	0.00e+00	0	43	0	534773760	12	4090
2026-01-22 09:58:42.33	71.27	12.64	-25.7	-26.8	16.1	0.00e+00	0	43	0	541065216	12	4081
2026-01-22 09:58:43.33	71.11	12.69	-25.7	-26.9	16.0	0.00e+00	0	43	0	546308096	12	4106
2026-01-22 09:58:44.34	70.94	12.75	-25.8	-26.9	15.9	0.00e+00	0	43	0	552599552	12	4126
2026-01-22 09:58:45.34	70.78	12.80	-25.7	-26.7	16.0	0.00e+00	0	43	0	557842432	12	4076
2026-01-22 09:58:46.35	70.61	12.85	-25.7	-26.9	16.0	1.10e-06	0	43	0	564133888	12	4123
2026-01-22 09:58:47.35	70.44	12.91	-25.8	-27.1	15.9	0.00e+00	0	43	0	569376768	12	4162
2026-01-22 09:58:48.35	70.28	12.96	-25.7	-26.9	16.0	0.00e+00	0	43	0	574619648	12	4109
2026-01-22 09:58:49.35	70.11	13.01	-25.7	-26.9	16.0	0.00e+00	0	43	0	580911104	12	4125
2026-01-22 09:58:50.36	69.94	13.07	-25.8	-27.0	15.9	0.00e+00	0	43	0	586153984	12	4140
2026-01-22 09:58:51.37	69.77	13.12	-25.7	-26.8	16.0	0.00e+00	0	43	0	591396864	12	4082
2026-01-22 09:58:52.37	69.60	13.17	-25.7	-26.9	16.0	0.00e+00	0	43	0	597688320	12	4113
2026-01-22 09:58:53.37	69.43	13.23	-25.9	-27.3	15.8	0.00e+00	0	43	0	602931200	12	4216
2026-01-22 09:58:54.37	69.26	13.28	-26.0	-27.4	15.7	0.00e+00	0	43	0	608174080	12	4255
2026-01-22 09:58:55.38	69.09	13.33	-26.0	-27.4	15.8	0.00e+00	0	43	0	614465536	12	4232
2026-01-22 09:58:56.39	68.91	13.38	-26.0	-27.4	15.8	0.00e+00	0	43	0	619708416	12	4238
2026-01-22 09:58:57.39	68.74	13.43	-25.8	-27.0	16.0	0.00e+00	0	43	0	625999872	12	4131
2026-01-22 09:58:58.39	68.57	13.49	-25.7	-26.8	16.2	0.00e+00	0	43	0	631242752	12	4079
2026-01-22 09:58:59.40	68.39	13.54	-25.7	-26.8	16.2	0.00e+00	0	43	0	637534208	12	4072
2026-01-22 09:59:00.41	68.22	13.59	-25.8	-26.9	16.1	0.00e+00	0	43	0	642777088	12	4091
2026-01-22 09:59:01.41	68.04	13.64	-25.9	-27.1	16.0	0.00e+00	0	43	0	648019968	12	4148
2026-01-22 09:59:02.41	67.87	13.69	-26.0	-27.3	15.9	0.00e+00	0	43	0	654311424	12	4206
2026-01-22 09:59:03.41	67.69	13.74	-25.8	-27.0	16.1	0.00e+00	0	43	0	659554304	12	4128
2026-01-22 09:59:04.41	67.51	13.79	-25.8	-27.0	16.1	0.00e+00	0	43	0	664797184	12	4119
2026-01-22 09:59:05.41	67.34	13.84	-25.8	-27.0	16.1	0.00e+00	0	43	0	671088640	12	4122
2026-01-22 09:59:06.42	67.16	13.90	-25.9	-27.1	16.0	0.00e+00	0	43	0	676331520	12	4155
2026-01-22 09:59:07.42	66.98	13.95	-26.0	-27.3	15.9	0.00e+00	0	43	0	681574400	12	4204
2026-01-22 09:59:08.43	66.80	14.00	-25.9	-27.2	15.9	0.00e+00	0	43	0	687865856	12	4182
2026-01-22 09:59:09.43	66.62	14.05	-25.8	-26.9	16.1	0.00e+00	0	43	0	693108736	12	4109
2026-01-22 09:59:10.43	66.44	14.10	-25.7	-26.7	16.2	0.00e+00	0	43	0	699400192	12	4042
2026-01-22 09:59:11.44	66.25	14.15	-25.7	-26.8	16.2	0.00e+00	0	43	0	704643072	12	4062
2026-01-22 09:59:12.45	66.07	14.20	-25.9	-27.2	16.0	0.00e+00	0	43	0	710934528	12	4172
2026-01-22 09:59:13.46	65.89	14.24	-26.1	-27.5	15.8	0.00e+00	0	43	0	716177408	12	4261
2026-01-22 09:59:14.46	65.70	14.29	-25.9	-27.2	16.0	0.00e+00	0	43	0	721420288	12	4171
2026-01-22 09:59:15.45	65.52	14.34	-26.1	-27.5	15.8	0.00e+00	0	43	0	727711744	12	4253
2026-01-22 09:59:16.46	65.34	14.39	-26.2	-27.7	15.7	0.00e+00	0	43	0	732954624	12	4314
2026-01-22 09:59:17.46	65.15	14.44	-26.2	-27.8	15.7	0.00e+00	0	44	0	738197504	12	4333
2026-01-22 09:59:18.46	64.97	14.49	-26.3	-28.0	15.6	0.00e+00	0	43	0	744488960	12	4375
2026-01-22 09:59:19.45	64.78	14.54	-26.3	-28.0	15.5	0.00e+00	0	43	0	749731840	12	4401
2026-01-22 09:59:20.46	64.59	14.58	-26.4	-28.2	15.5	0.00e+00	0	43	0	754974720	12	4450
2026-01-22 09:59:21.46	64.41	14.63	-26.5	-27.9	15.4	0.00e+00	0	43	0	761266176	13	4252
2026-01-22 09:59:22.46	64.22	14.68	-26.1	-27.1	15.8	0.00e+00	0	43	0	766509056	13	4050
2026-01-22 09:59:23.47	64.03	14.73	-25.8	-26.5	16.1	0.00e+00	0	43	0	772800512	13	3889
2026-01-22 09:59:24.47	63.84	14.77	-25.6	-26.5	16.4	0.00e+00	0	43	0	778043392	12	3986
2026-01-22 09:59:25.47	63.65	14.82	-25.4	-26.1	16.6	0.00e+00	0	43	0	783286272	12	3906
2026-01-22 09:59:26.47	63.46	14.87	-25.4	-26.0	16.7	0.00e+00	0	43	0	789577728	12	3879
2026-01-22 09:59:27.47	63.27	14.91	-25.4	-26.1	16.6	0.00e+00	0	43	0	794820608	12	3888
2026-01-22 09:59:28.48	63.08	14.96	-25.4	-26.0	16.7	0.00e+00	0	43	0	801112064	12	3864
2026-01-22 09:59:29.48	62.89	15.00	-25.4	-26.0	16.7	0.00e+00	0	43	0	806354944	12	3868
2026-01-22 09:59:30.49	62.69	15.05	-25.4	-26.0	16.7	0.00e+00	0	43	0	811597824	12	3871
2026-01-22 09:59:31.49	62.50	15.10	-25.4	-26.0	16.7	0.00e+00	0	43	0	817889280	12	3860
2026-01-22 09:59:32.50	62.30	15.14	-25.3	-26.3	16.9	0.00e+00	0	43	0	823132160	11	4033
2026-01-22 09:59:33.50	62.11	15.19	-25.3	-26.2	16.9	0.00e+00	0	43	0	828375040	11	4026
2026-01-22 09:59:34.51	61.91	15.23	-25.3	-26.3	16.9	0.00e+00	0	43	0	834666496	11	4036
2026-01-22 09:59:35.51	61.72	15.27	-25.4	-26.5	16.8	0.00e+00	0	43	0	839909376	11	4084
2026-01-22 09:59:36.52	61.52	15.32	-25.3	-26.4	16.9	0.00e+00	0	43	0	846200832	11	4065
2026-01-22 09:59:37.52	61.32	15.36	-25.2	-26.1	17.0	0.00e+00	0	43	0	851443712	11	3989
2026-01-22 09:59:38.52	61.12	15.41	-25.1	-26.0	17.1	0.00e+00	0	43	0	856686592	11	3966
2026-01-22 09:59:39.52	60.93	15.45	-25.1	-25.9	17.1	0.00e+00	0	43	0	862978048	11	3942
2026-01-22 09:59:40.53	60.73	15.49	-25.1	-25.8	17.1	0.00e+00	0	43	0	868220928	11	3923
2026-01-22 09:59:41.53	60.53	15.54	-25.0	-25.7	17.2	0.00e+00	0	43	0	874512384	11	3897
2026-01-22 09:59:42.53	60.33	15.58	-24.9	-25.5	17.3	0.00e+00	0	43	0	879755264	11	3857
2026-01-22 09:59:43.54	60.13	15.62	-24.9	-25.5	17.3	0.00e+00	0	43	0	884998144	11	3860
2026-01-22 09:59:44.54	59.93	15.66	-25.0	-25.6	17.3	0.00e+00	0	44	0	891289600	11	3874
2026-01-22 09:59:45.54	59.72	15.70	-24.8	-25.3	17.4	0.00e+00	0	43	0	896532480	11	3801
2026-01-22 09:59:46.55	59.52	15.74	-24.9	-25.4	17.4	0.00e+00	0	43	0	902823936	11	3816
2026-01-22 09:59:47.55	59.32	15.79	-24.8	-25.3	17.4	0.00e+00	0	43	0	908066816	11	3810
2026-01-22 09:59:48.55	59.12	15.83	-24.8	-25.8	17.4	0.00e+00	0	44	0	913309696	10	4038
2026-01-22 09:59:49.56	58.91	15.87	-24.9	-25.9	17.4	0.00e+00	0	43	0	919601152	10	4054
2026-01-22 09:59:50.56	58.71	15.91	-24.9	-25.8	17.4	0.00e+00	0	43	0	924844032	10	4037
2026-01-22 09:59:51.56	58.50	15.95	-24.9	-25.9	17.4	0.00e+00	0	43	0	930086912	10	4054
2026-01-22 09:59:52.56	58.30	15.99	-24.9	-26.0	17.3	0.00e+00	0	43	0	936378368	10	4082
2026-01-22 09:59:53.57	58.09	16.03	-24.8	-25.8	17.4	0.00e+00	0	43	0	941621248	10	4040
2026-01-22 09:59:54.57	57.88	16.06	-24.8	-25.8	17.4	0.00e+00	0	44	0	946864128	10	4040
2026-01-22 09:59:55.57	57.68	16.10	-24.8	-25.7	17.5	0.00e+00	0	43	0	953155584	10	3992
2026-01-22 09:59:56.57	57.47	16.14	-24.6	-25.4	17.7	0.00e+00	0	43	0	958398464	10	3929
2026-01-22 09:59:57.57	57.26	16.18	-24.7	-25.4	17.6	0.00e+00	0	43	0	964689920	10	3939
2026-01-22 09:59:58.57	57.05	16.22	-24.6	-25.3	17.7	0.00e+00	0	43	0	969932800	10	3898
2026-01-22 09:59:59.57	56.84	16.25	-24.5	-25.0	17.9	0.00e+00	0	44	0	975175680	10	3836
2026-01-22 10:00:00.57	56.64	16.29	-24.5	-25.2	17.8	0.00e+00	0	43	0	981467136	10	3873
2026-01-22 10:00:01.58	56.42	16.33	-24.6	-25.3	17.7	0.00e+00	0	43	0	986710016	10	3910
2026-01-22 10:00:02.59	56.21	16.36	-24.6	-25.4	17.7	0.00e+00	0	44	0	993001472	10	3926
2026-01-22 10:00:03.59	56.00	16.40	-24.7	-25.6	17.6	0.00e+00	0	43	0	998244352	10	3971
2026-01-22 10:00:04.60	55.79	16.44	-24.8	-25.6	17.5	1.10e-06	0	43	0	1003487232	10	3990
2026-01-22 10:00:05.61	55.57	16.47	-24.8	-25.8	17.5	0.00e+00	0	44	0	1009778688	10	4019
2026-01-22 10:00:06.61	55.36	16.51	-24.8	-25.8	17.4	0.00e+00	0	44	0	1015021568	10	4038
2026-01-22 10:00:07.61	55.15	16.54	-24.9	-25.9	17.4	0.00e+00	0	43	0	1020264448	10	4063
2026-01-22 10:00:08.61	54.93	16.57	-25.0	-26.1	17.3	0.00e+00	0	43	0	1026555904	10	4112
2026-01-22 10:00:09.61	54.72	16.61	-25.0	-26.2	17.3	0.00e+00	0	43	0	1031798784	10	4124
2026-01-22 10:00:10.60	54.51	16.64	-25.1	-26.3	17.2	0.00e+00	0	43	0	1038090240	10	4152
2026-01-22 10:00:11.61	54.29	16.68	-25.3	-26.7	17.0	0.00e+00	0	43	0	1043333120	10	4260
2026-01-22 10:00:12.61	54.08	16.71	-25.2	-26.5	17.1	0.00e+00	0	43	0	1048576000	10	4212
2026-01-22 10:00:13.61	53.86	16.74	-24.9	-26.0	17.4	0.00e+00	0	43	0	1054867456	10	4078
2026-01-22 10:00:14.62	53.64	16.77	-24.8	-25.7	17.5	0.00e+00	0	43	0	1060110336	10	4007
2026-01-22 10:00:15.62	53.43	16.80	-24.8	-25.8	17.5	0.00e+00	0	43	0	1065353216	10	4022
2026-01-22 10:00:16.62	53.21	16.83	-24.8	-25.7	17.5	0.00e+00	0	43	0	1071644672	10	4004
2026-01-22 10:00:17.62	52.99	16.87	-24.8	-25.8	17.5	0.00e+00	0	43	0	1076887552	10	4016
2026-01-22 10:00:18.63	52.77	16.90	-24.9	-26.0	17.4	0.00e+00	0	43	0	1083179008	10	4087
2026-01-22 10:00:19.63	52.55	16.93	-25.0	-26.2	17.3	0.00e+00	0	43	0	1088421888	10	4124
2026-01-22 10:00:20.64	52.33	16.96	-25.0	-26.2	17.3	0.00e+00	0	44	0	1093664768	10	4134
2026-01-22 10:00:21.64	52.11	16.99	-25.0	-26.2	17.3	0.00e+00	0	44	0	1099956224	10	4120
2026-01-22 10:00:22.64	51.89	17.01	-25.0	-26.2	17.3	0.00e+00	0	43	0	1105199104	10	4119
2026-01-22 10:00:23.64	51.67	17.04	-24.9	-26.0	17.4	0.00e+00	0	43	0	1111490560	10	4063
2026-01-22 10:00:24.65	51.45	17.07	-24.9	-25.9	17.4	0.00e+00	0	43	0	1116733440	10	4049
2026-01-22 10:00:25.65	51.23	17.10	-25.1	-26.3	17.2	0.00e+00	0	44	0	1121976320	10	4159
2026-01-22 10:00:26.65	51.01	17.13	-25.1	-26.4	17.2	0.00e+00	0	43	0	1128267776	10	4170
2026-01-22 10:00:27.65	50.79	17.15	-25.0	-26.1	17.3	0.00e+00	0	43	0	1133510656	10	4096
2026-01-22 10:00:28.65	50.56	17.18	-24.9	-26.0	17.4	0.00e+00	0	43	0	1138753536	10	4079
2026-01-22 10:00:29.66	50.34	17.21	-25.0	-26.1	17.4	0.00e+00	0	43	0	1145044992	10	4091
2026-01-22 10:00:30.66	50.12	17.23	-24.9	-25.9	17.5	0.00e+00	0	43	0	1150287872	10	4043
2026-01-22 10:00:31.66	49.89	17.26	-24.9	-25.9	17.4	0.00e+00	0	43	0	1155530752	10	4055
2026-01-22 10:00:32.66	49.67	17.28	-24.8	-25.7	17.6	0.00e+00	0	44	0	1161822208	10	4003
2026-01-22 10:00:33.67	49.44	17.31	-24.6	-25.4	17.7	0.00e+00	0	43	0	1167065088	10	3920
2026-01-22 10:00:34.67	49.22	17.33	-24.6	-25.3	17.8	0.00e+00	0	43	0	1173356544	10	3897
2026-01-22 10:00:35.67	48.99	17.35	-24.7	-25.4	17.7	0.00e+00	0	44	0	1178599424	10	3935
2026-01-22 10:00:36.67	48.77	17.38	-24.7	-25.4	17.7	0.00e+00	0	43	0	1183842304	10	3935
2026-01-22 10:00:37.67	48.54	17.40	-24.6	-25.3	17.8	0.00e+00	0	44	0	1190133760	10	3908
2026-01-22 10:00:38.67	48.32	17.42	-24.6	-25.3	17.8	0.00e+00	0	44	0	1195376640	10	3901
2026-01-22 10:00:39.68	48.09	17.44	-24.7	-25.6	17.6	0.00e+00	0	43	0	1201668096	10	3969
2026-01-22 10:00:40.68	47.86	17.46	-24.6	-25.4	17.7	0.00e+00	0	44	0	1206910976	10	3919
2026-01-22 10:00:41.68	47.64	17.48	-24.5	-25.1	17.9	0.00e+00	0	44	0	1212153856	10	3851
2026-01-22 10:00:42.68	47.41	17.50	-24.5	-25.0	17.9	0.00e+00	0	43	0	1218445312	10	3843
2026-01-22 10:00:43.69	47.18	17.52	-24.4	-25.0	17.9	0.00e+00	0	43	0	1223688192	10	3831
2026-01-22 10:00:44.69	46.95	17.54	-24.4	-24.9	18.0	0.00e+00	0	44	0	1228931072	10	3803
2026-01-22 10:00:45.70	46.72	17.56	-24.3	-24.7	18.1	0.00e+00	0	44	0	1235222528	10	3764
2026-01-22 10:00:46.70	46.49	17.58	-24.4	-24.8	18.0	0.00e+00	0	44	0	1240465408	10	3792
2026-01-22 10:00:47.70	46.27	17.60	-24.4	-24.9	18.0	0.00e+00	0	44	0	1246756864	10	3802
2026-01-22 10:00:48.70	46.04	17.62	-24.5	-25.0	17.9	0.00e+00	0	43	0	1251999744	10	3832
2026-01-22 10:00:49.71	45.81	17.63	-24.4	-25.0	17.9	0.00e+00	0	44	0	1257242624	10	3833
2026-01-22 10:00:50.71	45.58	17.65	-24.4	-25.0	17.9	0.00e+00	0	43	0	1263534080	10	3833
2026-01-22 10:00:51.72	45.34	17.67	-24.4	-24.8	18.0	0.00e+00	0	44	0	1268776960	10	3796
2026-01-22 10:00:52.72	45.11	17.68	-24.3	-24.7	18.1	0.00e+00	0	43	0	1274019840	10	3770
2026-01-22 10:00:53.73	44.88	17.70	-24.3	-24.7	18.1	0.00e+00	0	43	0	1280311296	10	3766
2026-01-22 10:00:54.74	44.65	17.71	-24.4	-24.9	18.0	0.00e+00	0	44	0	1285554176	10	3805
2026-01-22 10:00:55.74	44.42	17.73	-24.4	-25.0	18.0	0.00e+00	0	44	0	1291845632	10	3830
2026-01-22 10:00:56.75	44.19	17.74	-24.6	-25.2	17.8	0.00e+00	0	44	0	1297088512	10	3892
2026-01-22 10:00:57.75	43.96	17.76	-24.6	-25.3	17.8	0.00e+00	0	43	0	1302331392	10	3914
2026-01-22 10:00:58.76	43.72	17.77	-24.7	-25.4	17.7	0.00e+00	0	44	0	1308622848	10	3938
2026-01-22 10:00:59.76	43.49	17.78	-24.6	-25.4	17.7	0.00e+00	0	43	0	1313865728	10	3918
2026-01-22 10:01:00.76	43.26	17.79	-24.6	-25.3	17.8	0.00e+00	0	44	0	1320157184	10	3904
2026-01-22 10:01:01.76	43.03	17.81	-24.6	-25.3	17.8	0.00e+00	0	44	0	1325400064	10	3912
2026-01-22 10:01:02.77	42.79	17.82	-24.5	-25.0	17.9	0.00e+00	0	43	0	1330642944	10	3828
2026-01-22 10:01:03.77	42.56	17.83	-24.4	-24.9	18.0	0.00e+00	0	43	0	1336934400	10	3812
2026-01-22 10:01:04.77	42.33	17.84	-24.5	-25.0	17.9	0.00e+00	0	44	0	1342177280	10	3842
2026-01-22 10:01:05.77	42.10	17.85	-24.4	-24.8	18.1	0.00e+00	0	44	0	1347420160	10	3786
2026-01-22 10:01:06.77	41.87	17.86	-24.2	-25.0	18.2	0.00e+00	0	44	0	1353711616	9	3937
2026-01-22 10:01:07.77	41.63	17.86	-24.2	-25.0	18.2	0.00e+00	0	44	0	1358954496	9	3945
2026-01-22 10:01:08.78	41.40	17.87	-24.2	-25.0	18.2	0.00e+00	0	44	0	1365245952	9	3929
2026-01-22 10:01:09.78	41.16	17.88	-24.2	-25.0	18.2	0.00e+00	0	44	0	1370488832	9	3932
2026-01-22 10:01:10.78	40.93	17.89	-24.1	-24.8	18.3	0.00e+00	0	44	0	1375731712	9	3903
2026-01-22 10:01:11.79	40.70	17.89	-24.1	-24.7	18.4	0.00e+00	0	43	0	1382023168	9	3859
2026-01-22 10:01:12.79	40.46	17.90	-24.1	-24.7	18.3	0.00e+00	0	43	0	1387266048	9	3879
2026-01-22 10:01:13.80	40.23	17.91	-24.3	-25.1	18.1	0.00e+00	0	44	0	1393557504	9	3970
2026-01-22 10:01:14.80	39.99	17.91	-24.2	-25.0	18.2	0.00e+00	0	44	0	1398800384	9	3941
2026-01-22 10:01:15.81	39.76	17.92	-24.2	-24.9	18.2	0.00e+00	0	43	0	1404043264	9	3916
2026-01-22 10:01:16.81	39.53	17.92	-24.2	-24.9	18.2	0.00e+00	0	43	0	1410334720	9	3913
2026-01-22 10:01:17.81	39.29	17.93	-24.2	-24.9	18.2	0.00e+00	0	44	0	1415577600	9	3914
2026-01-22 10:01:18.81	39.06	17.93	-24.3	-25.1	18.2	0.00e+00	0	44	0	1420820480	9	3961
2026-01-22 10:01:19.81	38.82	17.93	-24.3	-25.2	18.1	0.00e+00	0	44	0	1427111936	9	3983
2026-01-22 10:01:20.82	38.59	17.93	-24.4	-25.3	18.0	0.00e+00	0	44	0	1432354816	9	4023
2026-01-22 10:01:21.82	38.36	17.94	-24.4	-25.5	17.9	0.00e+00	0	43	0	1437597696	9	4051
2026-01-22 10:01:22.82	38.12	17.94	-24.5	-25.7	17.8	0.00e+00	0	44	0	1443889152	9	4108
2026-01-22 10:01:23.83	37.89	17.94	-24.6	-25.8	17.7	0.00e+00	0	44	0	1449132032	9	4143
2026-01-22 10:01:24.83	37.65	17.94	-24.6	-25.9	17.7	0.00e+00	0	43	0	1455423488	9	4164
2026-01-22 10:01:25.84	37.42	17.94	-24.6	-25.8	17.8	0.00e+00	0	44	0	1460666368	9	4136
2026-01-22 10:01:26.85	37.18	17.94	-24.6	-25.8	17.8	0.00e+00	0	43	0	1466957824	9	4137
2026-01-22 10:01:27.85	36.95	17.94	-24.6	-25.8	17.8	0.00e+00	0	44	0	1472200704	9	4137
2026-01-22 10:01:28.86	36.71	17.93	-24.7	-25.9	17.7	0.00e+00	0	43	0	1477443584	9	4174
2026-01-22 10:01:29.86	36.48	17.93	-24.5	-25.7	17.8	0.00e+00	0	44	0	1483735040	9	4116
2026-01-22 10:01:30.87	36.24	17.93	-24.5	-25.5	17.9	0.00e+00	0	43	0	1488977920	9	4076
2026-01-22 10:01:31.86	36.01	17.93	-24.5	-25.6	17.9	0.00e+00	0	44	0	1494220800	9	4096
2026-01-22 10:01:32.87	35.77	17.92	-24.3	-25.1	18.1	0.00e+00	0	44	0	1500512256	9	3961
2026-01-22 10:01:33.87	35.54	17.92	-24.1	-24.7	18.3	0.00e+00	0	44	0	1505755136	9	3867
2026-01-22 10:01:34.87	35.31	17.91	-24.1	-24.7	18.3	0.00e+00	0	43	0	1510998016	9	3873
2026-01-22 10:01:35.87	35.07	17.91	-24.3	-25.1	18.1	0.00e+00	0	43	0	1517289472	9	3957
2026-01-22 10:01:36.87	34.84	17.90	-24.2	-25.0	18.2	0.00e+00	0	44	0	1522532352	9	3932
2026-01-22 10:01:37.87	34.61	17.90	-24.1	-24.8	18.3	0.00e+00	0	44	0	1528823808	9	3903
2026-01-22 10:01:38.87	34.37	17.89	-24.2	-24.9	18.2	0.00e+00	0	44	0	1534066688	9	3924
2026-01-22 10:01:39.87	34.14	17.88	-24.0	-24.6	18.4	0.00e+00	0	44	0	1539309568	9	3852
2026-01-22 10:01:40.87	33.91	17.88	-24.0	-24.6	18.4	0.00e+00	0	43	0	1545601024	9	3840
2026-01-22 10:01:41.88	33.67	17.87	-24.1	-24.8	18.3	0.00e+00	0	43	0	1550843904	9	3891
2026-01-22 10:01:42.88	33.44	17.86	-24.2	-24.9	18.3	0.00e+00	0	44	0	1557135360	9	3912
2026-01-22 10:01:43.89	33.21	17.85	-24.4	-25.3	18.0	0.00e+00	0	43	0	1562378240	9	4016
2026-01-22 10:01:44.89	32.97	17.84	-24.3	-25.1	18.1	0.00e+00	0	44	0	1567621120	9	3966
2026-01-22 10:01:45.89	32.74	17.83	-24.2	-25.0	18.2	0.00e+00	0	44	0	1573912576	9	3941
2026-01-22 10:01:46.90	32.51	17.82	-24.3	-25.3	18.0	0.00e+00	0	44	0	1579155456	9	4006
2026-01-22 10:01:47.90	32.28	17.81	-24.3	-25.2	18.1	0.00e+00	0	44	0	1584398336	9	3986
2026-01-22 10:01:48.90	32.04	17.80	-24.4	-25.5	17.9	0.00e+00	0	43	0	1590689792	9	4056
2026-01-22 10:01:49.90	31.81	17.79	-24.6	-25.9	17.7	0.00e+00	0	44	0	1595932672	9	4151
2026-01-22 10:01:50.90	31.58	17.77	-24.6	-25.8	17.8	0.00e+00	0	44	0	1602224128	9	4127
2026-01-22 10:01:51.90	31.35	17.76	-24.7	-25.9	17.7	0.00e+00	0	43	0	1607467008	9	4167
2026-01-22 10:01:52.91	31.12	17.75	-24.5	-25.7	17.8	0.00e+00	0	44	0	1612709888	9	4115
2026-01-22 10:01:53.91	30.89	17.73	-24.5	-25.6	17.9	0.00e+00	0	44	0	1619001344	9	4077
2026-01-22 10:01:54.92	30.65	17.72	-24.5	-25.7	17.8	0.00e+00	0	43	0	1624244224	9	4107
2026-01-22 10:01:55.92	30.42	17.71	-24.5	-25.5	17.9	0.00e+00	0	44	0	1629487104	9	4069
2026-01-22 10:01:56.93	30.19	17.69	-24.5	-25.7	17.8	0.00e+00	0	44	0	1635778560	9	4113
2026-01-22 10:01:57.93	29.96	17.67	-24.4	-25.3	18.0	0.00e+00	0	44	0	1641021440	9	4012
2026-01-22 10:01:58.94	29.73	17.66	-24.3	-25.3	18.0	0.00e+00	0	44	0	1647312896	9	4003
2026-01-22 10:01:59.94	29.50	17.64	-24.4	-25.4	17.9	0.00e+00	0	44	0	1652555776	9	4048
2026-01-22 10:02:00.95	29.27	17.62	-24.4	-25.4	18.0	0.00e+00	0	43	0	1657798656	9	4039
2026-01-22 10:02:01.96	29.04	17.61	-24.5	-25.5	17.9	0.00e+00	0	44	0	1664090112	9	4065
2026-01-22 10:02:02.96	28.81	17.59	-24.4	-25.5	17.9	0.00e+00	0	44	0	1669332992	9	4051
2026-01-22 10:02:03.97	28.58	17.57	-24.4	-25.5	17.9	0.00e+00	0	44	0	1675624448	9	4053
2026-01-22 10:02:04.97	28.35	17.55	-24.5	-25.6	17.8	0.00e+00	0	44	0	1680867328	9	4094
2026-01-22 10:02:05.97	28.13	17.53	-24.4	-25.3	18.0	0.00e+00	0	44	0	1686110208	9	4025
2026-01-22 10:02:06.98	27.90	17.51	-24.4	-25.3	18.0	0.00e+00	0	44	0	1692401664	9	4007
2026-01-22 10:02:07.99	27.67	17.49	-24.4	-25.4	18.0	0.00e+00	0	43	0	1697644544	9	4044
2026-01-22 10:02:08.99	27.44	17.47	-24.4	-25.3	18.0	0.00e+00	0	44	0	1703936000	9	4018
2026-01-22 10:02:09.99	27.21	17.45	-24.5	-25.5	17.9	0.00e+00	0	44	0	1709178880	9	4060
2026-01-22 10:02:10.99	26.99	17.43	-24.4	-25.4	18.0	0.00e+00	0	44	0	1714421760	9	4043
2026-01-22 10:02:11.99	26.76	17.41	-24.5	-25.6	17.8	0.00e+00	0	44	0	1720713216	9	4085
2026-01-22 10:02:12.99	26.54	17.38	-24.5	-25.7	17.8	0.00e+00	0	43	0	1725956096	9	4103
2026-01-22 10:02:14.00	26.31	17.36	-24.7	-25.9	17.7	0.00e+00	0	44	0	1731198976	9	4175
2026-01-22 10:02:15.00	26.09	17.34	-24.7	-25.9	17.7	0.00e+00	0	44	0	1737490432	9	4169
2026-01-22 10:02:16.00	25.86	17.32	-24.7	-26.0	17.6	0.00e+00	0	44	0	1742733312	9	4196
2026-01-22 10:02:17.01	25.64	17.29	-24.6	-25.7	17.7	0.00e+00	0	44	0	1749024768	9	4122
2026-01-22 10:02:18.01	25.41	17.27	-24.5	-25.7	17.8	0.00e+00	0	44	0	1754267648	9	4100
2026-01-22 10:02:19.02	25.19	17.24	-24.6	-25.7	17.8	0.00e+00	0	44	0	1759510528	9	4116
2026-01-22 10:02:20.02	24.96	17.22	-24.4	-25.5	17.9	0.00e+00	0	43	0	1765801984	9	4051
2026-01-22 10:02:21.02	24.74	17.19	-24.4	-25.4	18.0	0.00e+00	0	44	0	1771044864	9	4028
2026-01-22 10:02:22.02	24.52	17.16	-24.5	-25.5	17.9	0.00e+00	0	44	0	1776287744	9	4063
2026-01-22 10:02:23.02	24.30	17.14	-24.4	-25.4	17.9	0.00e+00	0	44	0	1782579200	9	4031
2026-01-22 10:02:24.02	24.08	17.11	-24.4	-25.5	17.9	0.00e+00	0	44	0	1787822080	9	4052
2026-01-22 10:02:25.02	23.86	17.08	-24.3	-25.1	18.1	0.00e+00	0	44	0	1794113536	9	3970
2026-01-22 10:02:26.03	23.63	17.05	-24.3	-25.1	18.1	0.00e+00	0	43	0	1799356416	9	3969
2026-01-22 10:02:27.02	23.42	17.03	-24.5	-25.7	17.8	0.00e+00	0	44	0	1804599296	9	4106
2026-01-22 10:02:28.03	23.19	17.00	-24.5	-25.5	17.9	0.00e+00	0	44	0	1810890752	9	4076
2026-01-22 10:02:29.04	22.97	16.97	-24.7	-26.1	17.5	0.00e+00	0	44	0	1816133632	9	4222
2026-01-22 10:02:30.04	22.75	16.94	-24.6	-25.9	17.6	0.00e+00	0	44	0	1822425088	9	4172
2026-01-22 10:02:31.05	22.53	16.91	-24.7	-26.0	17.6	0.00e+00	0	43	0	1827667968	9	4189
2026-01-22 10:02:32.05	22.32	16.88	-24.8	-26.2	17.5	0.00e+00	0	44	0	1832910848	9	4240
2026-01-22 10:02:33.06	22.10	16.85	-24.6	-25.9	17.7	0.00e+00	0	44	0	1839202304	9	4155
2026-01-22 10:02:34.06	21.88	16.82	-24.6	-25.8	17.7	0.00e+00	0	44	0	1844445184	9	4138
2026-01-22 10:02:35.06	21.66	16.79	-24.7	-26.0	17.6	0.00e+00	0	44	0	1849688064	9	4197
2026-01-22 10:02:36.07	21.45	16.75	-24.7	-26.1	17.5	0.00e+00	0	44	0	1855979520	9	4203
2026-01-22 10:02:37.07	21.23	16.72	-24.8	-26.4	17.4	0.00e+00	0	44	0	1861222400	9	4286
2026-01-22 10:02:38.07	21.02	16.69	-24.6	-25.8	17.7	0.00e+00	0	43	0	1867513856	9	4139
2026-01-22 10:02:39.07	20.80	16.66	-24.5	-25.6	17.8	0.00e+00	0	44	0	1872756736	9	4077
2026-01-22 10:02:40.07	20.59	16.62	-24.6	-25.8	17.7	0.00e+00	0	44	0	1877999616	9	4127
2026-01-22 10:02:41.07	20.37	16.59	-24.5	-25.6	17.8	0.00e+00	0	44	0	1884291072	9	4089
2026-01-22 10:02:42.07	20.16	16.56	-24.6	-25.8	17.7	0.00e+00	0	44	0	1889533952	9	4139
2026-01-22 10:02:43.07	19.95	16.52	-24.6	-25.8	17.7	0.00e+00	0	44	0	1894776832	9	4132
2026-01-22 10:02:44.08	19.73	16.49	-24.6	-25.9	17.6	0.00e+00	0	44	0	1901068288	9	4167
2026-01-22 10:02:45.08	19.52	16.45	-24.6	-25.9	17.7	0.00e+00	0	44	0	1906311168	9	4159
2026-01-22 10:02:46.09	19.31	16.42	-24.7	-25.9	17.6	0.00e+00	0	44	0	1912602624	9	4176
2026-01-22 10:02:47.09	19.10	16.38	-24.8	-26.3	17.4	0.00e+00	0	44	0	1917845504	9	4267
2026-01-22 10:02:48.09	18.89	16.34	-24.7	-26.0	17.6	0.00e+00	0	44	0	1923088384	9	4191
2026-01-22 10:02:49.09	18.68	16.31	-24.7	-26.0	17.6	0.00e+00	0	44	0	1929379840	9	4180
2026-01-22 10:02:50.08	18.47	16.27	-24.7	-26.1	17.5	0.00e+00	0	44	0	1934622720	9	4211
2026-01-22 10:02:51.09	18.26	16.23	-24.7	-26.0	17.6	0.00e+00	0	44	0	1940914176	9	4197
2026-01-22 10:02:52.09	18.05	16.20	-24.7	-26.0	17.6	0.00e+00	0	44	0	1946157056	9	4200
2026-01-22 10:02:53.09	17.85	16.16	-24.9	-26.4	17.4	0.00e+00	0	44	0	1951399936	9	4285
2026-01-22 10:02:54.09	17.64	16.12	-24.9	-26.4	17.4	0.00e+00	0	44	0	1957691392	9	4287
2026-01-22 10:02:55.09	17.43	16.08	-25.2	-26.5	17.0	0.00e+00	0	44	0	1962934272	10	4212
2026-01-22 10:02:56.10	17.23	16.04	-25.5	-27.2	16.7	0.00e+00	0	44	0	1968177152	10	4406
2026-01-22 10:02:57.09	17.02	16.01	-25.3	-26.8	16.9	0.00e+00	0	44	0	1974468608	10	4274
2026-01-22 10:02:58.09	16.82	15.97	-25.1	-26.3	17.1	0.00e+00	0	44	0	1979711488	10	4158
2026-01-22 10:02:59.09	16.61	15.93	-24.9	-26.0	17.3	0.00e+00	0	44	0	1984954368	10	4087
2026-01-22 10:03:00.09	16.41	15.89	-25.0	-26.2	17.2	0.00e+00	0	44	0	1991245824	10	4117
2026-01-22 10:03:01.09	16.21	15.85	-25.0	-26.1	17.3	0.00e+00	0	44	0	1996488704	10	4094
2026-01-22 10:03:02.10	16.00	15.81	-25.1	-26.4	17.1	0.00e+00	0	44	0	2002780160	10	4173
2026-01-22 10:03:03.10	15.80	15.76	-25.0	-26.2	17.2	0.00e+00	0	44	0	2008023040	10	4117
2026-01-22 10:03:04.11	15.60	15.72	-25.1	-26.3	17.1	0.00e+00	0	44	0	2013265920	10	4159
2026-01-22 10:03:05.11	15.40	15.68	-25.2	-26.6	17.0	0.00e+00	0	44	0	2019557376	10	4225
2026-01-22 10:03:06.12	15.19	15.64	-25.0	-26.1	17.2	0.00e+00	0	43	0	2024800256	10	4100
2026-01-22 10:03:07.13	14.99	15.60	-24.9	-26.0	17.3	0.00e+00	0	44	0	2031091712	10	4068
2026-01-22 10:03:08.13	14.79	15.56	-24.9	-26.1	17.3	0.00e+00	0	44	0	2036334592	10	4093
2026-01-22 10:03:09.14	14.59	15.51	-24.9	-26.0	17.3	0.00e+00	0	44	0	2041577472	10	4086
2026-01-22 10:03:10.14	14.39	15.47	-25.1	-26.4	17.1	0.00e+00	0	44	0	2047868928	10	4177
2026-01-22 10:03:11.15	14.19	15.43	-25.0	-26.2	17.2	0.00e+00	0	44	0	2053111808	10	4128
2026-01-22 10:03:12.16	14.00	15.38	-25.0	-26.3	17.1	0.00e+00	0	43	0	2058354688	10	4147
2026-01-22 10:03:13.16	13.80	15.34	-25.2	-26.6	17.0	0.00e+00	0	43	0	2064646144	10	4229
2026-01-22 10:03:14.16	13.60	15.30	-25.1	-26.4	17.1	0.00e+00	0	44	0	2069889024	10	4184
2026-01-22 10:03:15.16	13.41	15.25	-25.2	-26.6	17.0	0.00e+00	0	44	0	2076180480	10	4231
2026-01-22 10:03:16.16	13.21	15.21	-25.2	-26.6	16.9	0.00e+00	0	44	0	2081423360	10	4247
2026-01-22 10:03:17.16	13.02	15.16	-25.2	-26.6	16.9	0.00e+00	0	44	0	2086666240	10	4240
2026-01-22 10:03:18.16	12.83	15.12	-25.2	-26.5	17.0	0.00e+00	0	44	0	2092957696	10	4211
2026-01-22 10:03:19.16	12.63	15.07	-25.2	-26.6	17.0	0.00e+00	0	44	0	2098200576	10	4221
2026-01-22 10:03:20.16	12.44	15.03	-25.3	-26.7	16.9	0.00e+00	0	44	0	2103443456	10	4267
2026-01-22 10:03:21.17	12.25	14.98	-25.2	-26.5	17.0	0.00e+00	0	44	0	2109734912	10	4218
2026-01-22 10:03:22.17	12.06	14.94	-25.2	-26.6	17.0	0.00e+00	0	44	0	2114977792	10	4227
2026-01-22 10:03:23.18	11.87	14.89	-25.4	-27.0	16.7	0.00e+00	0	44	0	2121269248	10	4332
2026-01-22 10:03:24.19	11.67	14.84	-25.4	-27.1	16.6	0.00e+00	0	44	0	2126512128	10	4372
2026-01-22 10:03:25.19	11.49	14.80	-25.4	-27.2	16.6	0.00e+00	0	44	0	2131755008	10	4382
2026-01-22 10:03:26.20	11.29	14.75	-25.5	-26.7	16.6	0.00e+00	0	44	0	2138046464	11	4142
2026-01-22 10:03:27.20	11.11	14.70	-25.3	-26.3	16.8	0.00e+00	0	44	0	2143289344	11	4044
2026-01-22 10:03:28.20	10.92	14.66	-25.3	-26.2	16.8	0.00e+00	0	44	0	2149580800	11	4025
2026-01-22 10:03:29.20	10.73	14.61	-25.3	-26.4	16.8	0.00e+00	0	44	0	2154823680	11	4057
2026-01-22 10:03:30.20	10.55	14.56	-25.3	-26.3	16.8	0.00e+00	0	44	0	2160066560	11	4058
2026-01-22 10:03:31.21	10.36	14.51	-25.3	-26.4	16.8	0.00e+00	0	44	0	2166358016	11	4063
2026-01-22 10:03:32.22	10.17	14.46	-25.4	-26.5	16.7	0.00e+00	0	44	0	2171600896	11	4092
2026-01-22 10:03:33.22	9.99	14.42	-25.4	-26.5	16.7	0.00e+00	0	44	0	2176843776	11	4096
2026-01-22 10:03:34.22	9.81	14.37	-25.4	-26.5	16.7	0.00e+00	0	44	0	2183135232	11	4084
2026-01-22 10:03:35.22	9.62	14.32	-25.4	-26.5	16.7	0.00e+00	0	44	0	2188378112	11	4106
2026-01-22 10:03:36.22	9.44	14.27	-25.4	-26.5	16.7	0.00e+00	0	44	0	2193620992	11	4101
2026-01-22 10:03:37.22	9.26	14.22	-25.5	-26.7	16.6	0.00e+00	0	44	0	2199912448	11	4149
2026-01-22 10:03:38.23	9.07	14.17	-25.6	-26.9	16.5	0.00e+00	0	44	0	2205155328	11	4200
2026-01-22 10:03:39.24	8.89	14.12	-25.5	-26.8	16.5	0.00e+00	0	44	0	2211446784	11	4184
2026-01-22 10:03:40.24	8.71	14.07	-25.5	-26.8	16.5	0.00e+00	0	44	0	2216689664	11	4178
2026-01-22 10:03:41.24	8.53	14.02	-25.5	-26.7	16.6	0.00e+00	0	44	0	2222981120	11	4159
2026-01-22 10:03:42.25	8.35	13.97	-25.5	-26.8	16.5	1.10e-06	0	44	0	2228224000	11	4162
2026-01-22 10:03:43.25	8.17	13.92	-25.5	-26.7	16.6	0.00e+00	0	44	0	2233466880	11	4145
2026-01-22 10:03:44.26	8.00	13.87	-25.6	-26.9	16.4	0.00e+00	0	44	0	2239758336	11	4211
2026-01-22 10:03:45.26	7.82	13.82	-25.5	-26.8	16.5	0.00e+00	0	44	0	2245001216	11	4173
2026-01-22 10:03:46.27	7.64	13.77	-25.5	-26.9	16.5	0.00e+00	0	44	0	2250244096	11	4195
2026-01-22 10:03:47.27	7.46	13.72	-25.5	-26.8	16.5	0.00e+00	0	44	0	2256535552	11	4189
2026-01-22 10:03:48.28	7.29	13.67	-25.5	-26.8	16.5	0.00e+00	0	44	0	2261778432	11	4183
2026-01-22 10:03:49.28	7.11	13.62	-25.5	-26.8	16.5	0.00e+00	0	44	0	2268069888	11	4187
2026-01-22 10:03:50.27	6.94	13.57	-25.3	-26.3	16.8	0.00e+00	0	44	0	2273312768	11	4045
2026-01-22 10:03:51.28	6.77	13.51	-25.3	-26.3	16.8	0.00e+00	0	44	0	2278555648	11	4036
2026-01-22 10:03:52.28	6.59	13.46	-25.3	-26.4	16.7	0.00e+00	0	44	0	2284847104	11	4070
2026-01-22 10:03:53.29	6.42	13.41	-25.4	-26.6	16.6	0.00e+00	0	44	0	2290089984	11	4118
2026-01-22 10:03:54.29	6.25	13.36	-25.5	-26.8	16.5	0.00e+00	0	44	0	2296381440	11	4189
2026-01-22 10:03:55.30	6.08	13.31	-25.6	-26.9	16.4	0.00e+00	0	44	0	2301624320	11	4210
2026-01-22 10:03:56.31	5.90	13.25	-25.6	-27.0	16.4	0.00e+00	0	44	0	2306867200	11	4218
2026-01-22 10:03:57.31	5.74	13.20	-25.5	-26.9	16.4	0.00e+00	0	44	0	2313158656	11	4202
2026-01-22 10:03:58.31	5.57	13.15	-25.4	-26.5	16.6	0.00e+00	0	44	0	2318401536	11	4109
2026-01-22 10:03:59.31	5.40	13.10	-25.3	-26.4	16.7	0.00e+00	0	44	0	2323644416	11	4072
2026-01-22 10:04:00.31	5.23	13.04	-25.4	-26.5	16.6	0.00e+00	0	44	0	2329935872	11	4086
2026-01-22 10:04:01.30	5.07	12.99	-25.4	-26.6	16.6	0.00e+00	0	44	0	2335178752	11	4123
2026-01-22 10:04:02.30	4.90	12.94	-25.6	-27.0	16.4	0.00e+00	0	44	0	2340421632	11	4224
2026-01-22 10:04:03.31	4.73	12.89	-25.6	-27.1	16.3	0.00e+00	0	44	0	2346713088	11	4247
2026-01-22 10:04:04.31	4.57	12.83	-25.7	-27.3	16.2	0.00e+00	0	44	0	2351955968	11	4306
2026-01-22 10:04:05.31	4.40	12.78	-25.7	-27.3	16.2	0.00e+00	0	44	0	2358247424	11	4307
2026-01-22 10:04:06.31	4.24	12.73	-25.8	-27.4	16.1	0.00e+00	0	44	0	2363490304	11	4336
2026-01-22 10:04:07.32	4.07	12.67	-25.7	-27.2	16.2	0.00e+00	0	44	0	2368733184	11	4285
2026-01-22 10:04:08.32	3.91	12.62	-25.8	-27.4	16.1	0.00e+00	0	43	0	2375024640	11	4344
2026-01-22 10:04:09.32	3.75	12.56	-25.9	-27.7	15.9	0.00e+00	0	43	0	2380267520	11	4405
2026-01-22 10:04:10.32	3.59	12.51	-25.9	-27.6	16.0	0.00e+00	0	44	0	2385510400	11	4397
2026-01-22 10:04:11.32	3.42	12.46	-26.0	-27.8	15.9	0.00e+00	0	44	0	2391801856	11	4445
2026-01-22 10:04:12.32	3.26	12.40	-25.9	-27.3	15.8	0.00e+00	0	44	0	2397044736	12	4204
2026-01-22 10:04:13.32	3.10	12.35	-25.9	-27.3	15.8	0.00e+00	0	44	0	2403336192	12	4202
2026-01-22 10:04:14.32	2.95	12.29	-25.9	-27.3	15.8	0.00e+00	0	44	0	2408579072	12	4199
2026-01-22 10:04:15.33	2.79	12.24	-25.9	-27.3	15.8	0.00e+00	0	44	0	2413821952	12	4193
2026-01-22 10:04:16.33	2.63	12.19	-26.0	-27.3	15.8	0.00e+00	0	44	0	2420113408	12	4206
2026-01-22 10:04:17.33	2.47	12.13	-25.9	-27.2	15.8	0.00e+00	0	44	0	2425356288	12	4187
2026-01-22 10:04:18.33	2.31	12.08	-26.0	-27.4	15.7	0.00e+00	0	44	0	2431647744	12	4224
2026-01-22 10:04:19.33	2.16	12.02	-26.1	-27.5	15.6	0.00e+00	0	44	0	2436890624	12	4267
2026-01-22 10:04:20.34	2.00	11.97	-26.1	-27.7	15.6	0.00e+00	0	44	0	2442133504	12	4305
2026-01-22 10:04:21.35	1.84	11.91	-26.2	-27.8	15.5	0.00e+00	0	44	0	2448424960	12	4327
2026-01-22 10:04:22.35	1.69	11.86	-26.1	-27.7	15.5	0.00e+00	0	44	0	2453667840	12	4318
2026-01-22 10:04:23.35	1.53	11.80	-26.1	-27.7	15.6	0.00e+00	0	44	0	2458910720	12	4306
2026-01-22 10:04:24.35	1.38	11.75	-26.2	-27.8	15.5	0.00e+00	0	44	0	2465202176	12	4348
2026-01-22 10:04:25.35	1.23	11.69	-26.3	-28.0	15.4	0.00e+00	0	44	0	2470445056	12	4385
2026-01-22 10:04:26.35	1.08	11.64	-26.1	-27.7	15.5	0.00e+00	0	44	0	2475687936	12	4309
2026-01-22 10:04:27.35	0.93	11.58	-26.2	-27.8	15.5	0.00e+00	0	44	0	2481979392	12	4344
2026-01-22 10:04:28.36	0.77	11.52	-26.2	-27.8	15.5	0.00e+00	0	44	0	2487222272	12	4335
2026-01-22 10:04:29.37	0.62	11.47	-26.2	-27.9	15.4	0.00e+00	0	44	0	2493513728	12	4356
2026-01-22 10:04:30.37	0.47	11.41	-26.2	-27.9	15.4	1.10e-06	0	44	0	2498756608	12	4376
2026-01-22 10:04:31.38	0.32	11.36	-26.3	-28.1	15.3	0.00e+00	0	44	0	2505048064	12	4420
2026-01-22 10:04:32.39	0.17	11.30	-26.4	-28.2	15.2	0.00e+00	0	44	0	2510290944	12	4455
2026-01-22 10:04:33.39	0.02	11.24	-26.4	-27.9	15.1	0.00e+00	0	44	0	2515533824	13	4251
2026-01-22 10:04:34.39	359.88	11.19	-26.3	-27.5	15.4	0.00e+00	0	44	0	2521825280	13	4139
2026-01-22 10:04:35.40	359.73	11.13	-26.2	-27.3	15.5	0.00e+00	0	44	0	2527068160	13	4086
2026-01-22 10:04:36.41	359.58	11.08	-26.2	-27.3	15.4	0.00e+00	0	44	0	2532311040	13	4108
2026-01-22 10:04:37.41	359.43	11.02	-26.2	-27.5	15.4	0.00e+00	0	44	0	2538602496	13	4144
2026-01-22 10:04:38.42	359.29	10.96	-26.3	-27.5	15.3	0.00e+00	0	44	0	2543845376	13	4147
2026-01-22 10:04:39.42	359.14	10.91	-26.3	-27.6	15.3	0.00e+00	0	44	0	2549088256	13	4172
2026-01-22 10:04:40.43	359.00	10.85	-26.3	-27.6	15.3	0.00e+00	0	44	0	2555379712	13	4173
2026-01-22 10:04:41.43	358.85	10.79	-26.2	-27.5	15.3	0.00e+00	0	44	0	2560622592	13	4140
2026-01-22 10:04:42.43	358.71	10.74	-26.3	-27.6	15.3	0.00e+00	0	44	0	2566914048	13	4164
2026-01-22 10:04:43.44	358.57	10.68	-26.3	-27.6	15.3	0.00e+00	0	44	0	2572156928	13	4164
2026-01-22 10:04:44.43	358.43	10.63	-26.1	-27.2	15.4	0.00e+00	0	44	0	2578448384	13	4074
2026-01-22 10:04:45.44	358.28	10.57	-26.2	-27.2	15.5	0.00e+00	0	44	0	2583691264	13	4083
2026-01-22 10:04:46.44	358.14	10.51	-26.3	-27.5	15.3	0.00e+00	0	44	0	2588934144	13	4151
2026-01-22 10:04:47.45	358.00	10.46	-26.3	-27.6	15.2	0.00e+00	0	44	0	2595225600	13	4174
2026-01-22 10:04:48.45	357.86	10.40	-26.3	-27.6	15.2	0.00e+00	0	44	0	2600468480	13	4185
2026-01-22 10:04:49.46	357.72	10.34	-26.4	-27.7	15.2	0.00e+00	0	44	0	2605711360	13	4208
2026-01-22 10:04:50.47	357.58	10.29	-26.4	-27.8	15.1	0.00e+00	0	44	0	2612002816	13	4233
2026-01-22 10:04:51.47	357.44	10.23	-26.4	-27.9	15.1	0.00e+00	0	44	0	2617245696	13	4246
2026-01-22 10:04:52.48	357.31	10.17	-26.4	-27.9	15.0	1.10e-06	0	44	0	2623537152	13	4261
2026-01-22 10:04:53.48	357.17	10.12	-26.4	-27.8	15.1	1.10e-06	0	44	0	2628780032	13	4232
2026-01-22 10:04:54.49	357.03	10.06	-26.2	-27.4	15.3	0.00e+00	0	44	0	2634022912	13	4133
2026-01-22 10:04:55.49	356.90	10.00	-26.2	-27.4	15.3	1.10e-06	0	44	0	2640314368	13	4119
2026-01-22 10:04:56.49	356.76	9.94	-26.3	-27.5	15.2	0.00e+00	0	44	0	2645557248	13	4159
2026-01-22 10:04:57.49	356.63	9.89	-26.4	-27.7	15.1	0.00e+00	0	44	0	2651848704	13	4213
2026-01-22 10:04:58.50	356.49	9.83	-26.5	-28.0	15.0	1.10e-06	0	44	0	2657091584	13	4279
2026-01-22 10:04:59.50	356.36	9.77	-26.6	-28.2	14.9	0.00e+00	0	44	0	2662334464	13	4351
2026-01-22 10:05:00.51	356.22	9.72	-26.6	-28.2	14.9	0.00e+00	0	44	0	2668625920	13	4352
2026-01-22 10:05:01.51	356.09	9.66	-26.6	-28.3	14.8	0.00e+00	0	44	0	2673868800	13	4368
2026-01-22 10:05:02.52	355.96	9.60	-26.6	-28.2	14.8	2.20e-06	0	44	0	2679111680	13	4345
2026-01-22 10:05:03.53	355.82	9.55	-26.7	-28.4	14.7	2.20e-06	0	44	0	2685403136	13	4408
2026-01-22 10:05:04.54	355.69	9.49	-26.8	-28.7	14.6	0.00e+00	0	44	0	2690646016	13	4473
2026-01-22 10:05:05.55	355.56	9.43	-26.8	-28.7	14.5	0.00e+00	0	44	0	2696937472	13	4497
2026-01-22 10:05:06.55	355.43	9.37	-26.9	-28.9	14.4	3.40e-06	0	44	0	2702180352	13	4546
2026-01-22 10:05:07.55	355.30	9.32	-26.9	-28.9	14.4	1.10e-06	0	44	0	2707423232	13	4548
2026-01-22 10:05:08.56	355.17	9.26	-26.9	-28.9	14.4	1.10e-06	0	44	0	2713714688	13	4539
2026-01-22 10:05:09.56	355.04	9.20	-26.9	-29.0	14.4	1.10e-06	0	44	0	2718957568	13	4563
2026-01-22 10:05:10.56	354.92	9.15	-26.9	-28.9	14.4	2.20e-06	0	44	0	2725249024	13	4547
2026-01-22 10:05:11.56	354.79	9.09	-27.1	-28.9	14.1	2.20e-06	0	44	0	2730491904	14	4428
2026-01-22 10:05:12.56	354.66	9.03	-27.1	-28.9	14.1	2.20e-06	0	44	0	2735734784	14	4438
2026-01-22 10:05:13.57	354.53	8.97	-26.9	-28.6	14.3	4.50e-06	0	44	0	2742026240	14	4335
2026-01-22 10:05:14.57	354.41	8.92	-26.8	-28.3	14.5	0.00e+00	0	44	0	2747269120	14	4258
2026-01-22 10:05:15.57	354.28	8.86	-26.7	-28.1	14.6	0.00e+00	0	44	0	2752512000	14	4215
2026-01-22 10:05:16.57	354.16	8.80	-26.8	-28.2	14.5	1.10e-06	0	44	0	2758803456	14	4230
2026-01-22 10:05:17.58	354.03	8.75	-26.8	-28.2	14.5	2.20e-06	0	44	0	2764046336	14	4241
2026-01-22 10:05:18.59	353.91	8.69	-26.9	-28.5	14.3	1.10e-06	0	44	0	2770337792	14	4336
2026-01-22 10:05:19.59	353.79	8.63	-26.9	-28.5	14.3	1.10e-06	0	44	0	2775580672	14	4319
2026-01-22 10:05:20.59	353.66	8.57	-26.8	-28.2	14.5	2.20e-06	0	44	0	2780823552	14	4239
2026-01-22 10:05:21.60	353.54	8.52	-26.7	-28.1	14.6	0.00e+00	0	44	0	2787115008	14	4206
2026-01-22 10:05:22.60	353.42	8.46	-26.7	-28.0	14.6	2.20e-06	0	44	0	2792357888	14	4173
2026-01-22 10:05:23.60	353.30	8.40	-26.7	-28.0	14.6	1.10e-06	0	44	0	2798649344	14	4183
2026-01-22 10:05:24.61	353.17	8.35	-26.8	-28.1	14.5	1.10e-06	0	44	0	2803892224	14	4219
2026-01-22 10:05:25.61	353.05	8.29	-26.7	-28.0	14.6	0.00e+00	0	44	0	2809135104	14	4182
2026-01-22 10:05:26.62	352.93	8.23	-26.7	-28.0	14.6	1.10e-06	0	44	0	2815426560	14	4192
2026-01-22 10:05:27.61	352.82	8.18	-26.8	-28.2	14.5	0.00e+00	0	44	0	2820669440	14	4231
2026-01-22 10:05:28.62	352.70	8.12	-26.9	-28.5	14.3	3.40e-06	0	44	0	2825912320	14	4314
2026-01-22 10:05:29.62	352.58	8.06	-26.9	-28.5	14.3	2.20e-06	0	44	0	2832203776	14	4319
2026-01-22 10:05:30.61	352.46	8.00	-26.9	-28.5	14.2	5.70e-06	0	44	0	2837446656	14	4331
2026-01-22 10:05:31.62	352.34	7.95	-26.9	-28.6	14.2	0.00e+00	0	44	0	2842689536	14	4346
2026-01-22 10:05:32.62	352.22	7.89	-26.9	-28.5	14.3	2.20e-06	0	44	0	2848980992	14	4323
2026-01-22 10:05:33.62	352.11	7.83	-26.8	-28.4	14.3	2.20e-06	0	44	0	2854223872	14	4288
2026-01-22 10:05:34.63	351.99	7.78	-26.8	-28.3	14.3	1.10e-06	0	44	0	2860515328	14	4272
2026-01-22 10:05:35.64	351.87	7.72	-26.9	-28.4	14.3	1.10e-06	0	44	0	2865758208	14	4294
2026-01-22 10:05:36.65	351.76	7.66	-26.9	-28.5	14.3	2.20e-06	0	44	0	2872049664	14	4315
2026-01-22 10:05:37.65	351.64	7.60	-27.0	-28.7	14.1	4.50e-06	0	44	0	2877292544	14	4392
2026-01-22 10:05:38.66	351.53	7.55	-27.0	-28.8	14.1	5.70e-06	0	44	0	2882535424	14	4412
2026-01-22 10:05:39.66	351.42	7.49	-27.2	-29.1	13.9	3.40e-06	0	44	0	2888826880	14	4490
2026-01-22 10:05:40.66	351.30	7.43	-27.3	-29.4	13.7	1.02e-05	0	44	0	2894069760	14	4574
2026-01-22 10:05:41.67	351.19	7.38	-27.4	-29.6	13.6	1.48e-05	0	44	0	2899312640	14	4647
2026-01-22 10:05:42.67	351.08	7.32	-27.2	-29.3	13.7	1.25e-05	0	44	0	2905604096	14	4558
2026-01-22 10:05:43.67	350.96	7.26	-27.3	-29.4	13.7	1.14e-05	0	44	0	2910846976	14	4577
2026-01-22 10:05:44.68	350.85	7.21	-27.2	-29.2	13.8	8.00e-06	0	44	0	2917138432	14	4520
2026-01-22 10:05:45.68	350.74	7.15	-27.2	-29.2	13.8	3.40e-06	0	44	0	2922381312	14	4515
2026-01-22 10:05:46.68	350.63	7.09	-27.2	-29.2	13.8	4.50e-06	0	44	0	2927624192	14	4534
2026-01-22 10:05:47.68	350.52	7.04	-32.7	-41.6	3.8	3.69e-02	0	44	104	2932867072	25	10073
2026-01-22 10:05:48.68	350.41	6.98	-33.3	-44.3	3.8	8.46e-01	0	44	104	2932867072	26	12764
2026-01-22 10:05:49.68	350.30	6.92	-33.5	-44.6	3.8	8.45e-01	0	44	104	2932867072	27	12851

#Closed at: 2026-01-22 10:05:50
#Recorded file [2932 MB]: D:/data/31010_260122_125705.dat