passes_logs/2026/01/22/R2M6_AANII_01/R2M6_AANII_01__20260122_064618_FENGYUN_3E_rec.log

#Pass ID: 20260122_064618_FENGYUN 3E
#Satellite: FENGYUN 3E
#Configuration: FENGYUN 3E
#almurnet v.1.7.20240730
#Start time: 2026-01-22 06:46:19

#Version: 2.2.20231116
#Station: R2M6_AANII_01
#Location: 30.233357 lon 59.946436 lat
#TLE: 1 49008U 21062A   26021.55921410  .00000414  00000+0  21575-3 0  9991
#TLE: 2 49008  98.7483  26.6103 0002287 125.5068 234.6322 14.19887394235776

#Time	Az	El	Level	Level2	SNR	BER	BlckErr	Temp	State	Recorded	gain1	gain2
2026-01-22 06:46:19.03	9.55	7.01	-31.2	-35.1	4.5	8.17e-01	0	41	0	0	23	5618
2026-01-22 06:46:20.03	9.45	7.07	-30.5	-33.2	4.9	7.93e-01	0	41	104	0	22	4912
2026-01-22 06:46:21.03	9.35	7.13	-30.4	-32.8	7.5	1.05e-01	0	41	0	0	22	4739
2026-01-22 06:46:22.03	9.25	7.20	-30.3	-33.0	7.8	8.72e-02	0	41	0	7340032	21	4886
2026-01-22 06:46:23.03	9.15	7.26	-30.3	-32.9	7.9	8.69e-02	0	41	0	14680064	21	4857
2026-01-22 06:46:24.04	9.05	7.32	-30.3	-32.9	7.8	8.47e-02	0	41	0	22020096	21	4881
2026-01-22 06:46:25.04	8.94	7.38	-30.2	-32.7	8.0	7.74e-02	0	41	0	28311552	21	4793
2026-01-22 06:46:26.04	8.84	7.44	-29.7	-31.8	8.9	3.30e-02	0	41	0	35651584	20	4553
2026-01-22 06:46:27.04	8.74	7.50	-29.2	-30.9	9.9	1.21e-02	0	41	0	42991616	19	4355
2026-01-22 06:46:28.04	8.64	7.56	-28.8	-30.2	10.7	4.20e-03	0	41	0	50331648	18	4241
2026-01-22 06:46:29.04	8.53	7.62	-28.2	-29.3	11.6	1.26e-03	0	41	0	57671680	17	4098
2026-01-22 06:46:30.04	8.43	7.68	-28.0	-28.7	12.0	4.75e-04	0	41	0	65011712	17	3908
2026-01-22 06:46:31.05	8.32	7.75	-27.7	-28.5	12.5	1.64e-04	0	41	0	72351744	16	3954
2026-01-22 06:46:32.05	8.22	7.81	-27.4	-27.9	12.8	6.98e-05	0	41	0	79691776	16	3817
2026-01-22 06:46:33.05	8.11	7.87	-27.5	-28.1	12.7	1.15e-04	0	41	0	85983232	16	3867
2026-01-22 06:46:34.06	8.00	7.93	-27.6	-28.4	12.5	1.09e-04	0	41	0	93323264	16	3922
2026-01-22 06:46:35.06	7.90	7.99	-27.2	-27.9	12.9	7.20e-05	0	42	0	100663296	15	3916
2026-01-22 06:46:36.07	7.79	8.05	-27.1	-27.8	13.0	5.03e-05	0	41	0	108003328	15	3877
2026-01-22 06:46:37.08	7.68	8.12	-27.2	-27.8	13.0	3.77e-05	0	42	0	115343360	15	3886
2026-01-22 06:46:38.08	7.57	8.18	-27.1	-27.7	13.1	4.23e-05	0	42	0	122683392	15	3857
2026-01-22 06:46:39.08	7.47	8.24	-27.3	-28.2	12.8	4.80e-05	0	42	0	130023424	15	3985
2026-01-22 06:46:40.08	7.36	8.30	-27.5	-28.7	12.5	1.22e-04	0	42	0	137363456	15	4118
2026-01-22 06:46:41.08	7.25	8.36	-27.4	-28.4	12.6	1.09e-04	0	42	0	144703488	15	4041
2026-01-22 06:46:42.09	7.14	8.43	-27.4	-28.3	12.7	6.52e-05	0	42	0	152043520	15	4010
2026-01-22 06:46:43.09	7.03	8.49	-27.5	-28.7	12.5	1.29e-04	0	42	0	159383552	15	4106
2026-01-22 06:46:44.10	6.91	8.55	-27.4	-28.5	12.6	9.49e-05	0	42	0	166723584	15	4053
2026-01-22 06:46:45.10	6.80	8.61	-27.4	-28.3	12.7	8.01e-05	0	42	0	173015040	15	4008
2026-01-22 06:46:46.11	6.69	8.67	-27.5	-28.7	12.5	1.43e-04	0	42	0	180355072	15	4122
2026-01-22 06:46:47.11	6.58	8.74	-27.4	-28.4	12.6	1.05e-04	0	42	0	187695104	15	4052
2026-01-22 06:46:48.11	6.46	8.80	-27.7	-29.0	12.3	2.24e-04	0	42	0	195035136	15	4205
2026-01-22 06:46:49.12	6.35	8.86	-27.4	-28.3	12.8	1.05e-04	0	42	0	202375168	15	4005
2026-01-22 06:46:50.13	6.24	8.92	-27.0	-27.5	13.2	4.80e-05	0	42	0	209715200	15	3803
2026-01-22 06:46:51.13	6.12	8.99	-26.9	-27.3	13.3	2.17e-05	0	42	0	217055232	15	3757
2026-01-22 06:46:52.13	6.01	9.05	-26.8	-27.6	13.4	1.71e-05	0	42	0	224395264	14	3931
2026-01-22 06:46:53.14	5.89	9.11	-26.8	-27.6	13.5	1.48e-05	0	42	0	231735296	14	3918
2026-01-22 06:46:54.14	5.77	9.17	-26.9	-27.7	13.4	1.48e-05	0	42	0	239075328	14	3958
2026-01-22 06:46:55.15	5.66	9.24	-26.9	-27.6	13.4	1.83e-05	0	42	0	246415360	14	3934
2026-01-22 06:46:56.15	5.54	9.30	-26.8	-27.4	13.6	1.48e-05	0	42	0	252706816	14	3891
2026-01-22 06:46:57.15	5.42	9.36	-26.8	-27.5	13.5	6.80e-06	0	42	0	260046848	14	3893
2026-01-22 06:46:58.15	5.30	9.42	-26.9	-27.7	13.4	1.94e-05	0	42	0	267386880	14	3947
2026-01-22 06:46:59.16	5.19	9.49	-26.8	-27.4	13.6	9.10e-06	0	42	0	274726912	14	3878
2026-01-22 06:47:00.16	5.07	9.55	-26.9	-27.6	13.5	1.14e-05	0	42	0	282066944	14	3924
2026-01-22 06:47:01.16	4.95	9.61	-26.8	-27.5	13.6	6.80e-06	0	42	0	289406976	14	3896
2026-01-22 06:47:02.15	4.83	9.67	-26.8	-27.4	13.6	1.37e-05	0	42	0	296747008	14	3874
2026-01-22 06:47:03.15	4.71	9.74	-26.8	-27.4	13.6	4.50e-06	0	42	0	304087040	14	3877
2026-01-22 06:47:04.15	4.59	9.80	-26.7	-27.2	13.7	3.40e-06	0	42	0	311427072	14	3832
2026-01-22 06:47:05.16	4.46	9.86	-26.7	-27.2	13.7	3.40e-06	0	42	0	317718528	14	3814
2026-01-22 06:47:06.15	4.34	9.93	-26.7	-27.3	13.7	1.37e-05	0	42	0	325058560	14	3854
2026-01-22 06:47:07.16	4.22	9.99	-26.8	-27.5	13.6	1.37e-05	0	42	0	332398592	14	3899
2026-01-22 06:47:08.16	4.10	10.05	-26.9	-27.8	13.4	2.05e-05	0	42	0	339738624	14	3972
2026-01-22 06:47:09.17	3.97	10.12	-26.7	-27.3	13.7	5.70e-06	0	42	0	347078656	14	3837
2026-01-22 06:47:10.17	3.85	10.18	-26.6	-27.1	13.8	6.80e-06	0	42	0	354418688	14	3806
2026-01-22 06:47:11.17	3.72	10.24	-26.6	-27.1	13.9	8.00e-06	0	42	0	361758720	14	3801
2026-01-22 06:47:12.17	3.60	10.30	-26.7	-27.3	13.7	8.00e-06	0	42	0	369098752	14	3836
2026-01-22 06:47:13.17	3.47	10.37	-26.6	-27.0	13.9	3.40e-06	0	43	0	376438784	14	3784
2026-01-22 06:47:14.18	3.34	10.43	-26.8	-27.3	13.7	5.70e-06	0	42	0	383778816	14	3855
2026-01-22 06:47:15.18	3.22	10.49	-26.6	-27.0	13.9	6.80e-06	0	43	0	391118848	14	3780
2026-01-22 06:47:16.18	3.09	10.56	-26.5	-26.7	14.0	2.20e-06	0	42	0	398458880	14	3711
2026-01-22 06:47:17.18	2.96	10.62	-26.5	-26.9	14.0	5.70e-06	0	43	0	404750336	14	3752
2026-01-22 06:47:18.19	2.83	10.68	-26.6	-27.1	13.9	3.40e-06	0	43	0	412090368	14	3798
2026-01-22 06:47:19.19	2.70	10.75	-26.7	-27.2	13.8	1.10e-06	0	43	0	419430400	14	3814
2026-01-22 06:47:20.20	2.57	10.81	-26.8	-27.5	13.7	9.10e-06	0	43	0	426770432	14	3893
2026-01-22 06:47:21.20	2.44	10.87	-26.8	-27.4	13.7	8.00e-06	0	43	0	434110464	14	3881
2026-01-22 06:47:22.21	2.31	10.94	-26.9	-27.7	13.5	8.00e-06	0	43	0	441450496	14	3950
2026-01-22 06:47:23.22	2.17	11.00	-26.8	-27.5	13.7	1.02e-05	0	43	0	448790528	14	3908
2026-01-22 06:47:24.22	2.04	11.07	-26.8	-27.4	13.7	8.00e-06	0	43	0	456130560	14	3878
2026-01-22 06:47:25.23	1.91	11.13	-26.8	-27.5	13.6	6.80e-06	0	43	0	462422016	14	3908
2026-01-22 06:47:26.22	1.77	11.19	-26.7	-27.2	13.8	2.20e-06	0	43	0	469762048	14	3816
2026-01-22 06:47:27.23	1.64	11.26	-26.6	-27.0	13.9	5.70e-06	0	43	0	478150656	14	3774
2026-01-22 06:47:28.23	1.50	11.32	-26.6	-27.0	13.9	9.10e-06	0	43	0	484442112	14	3766
2026-01-22 06:47:29.23	1.37	11.38	-26.5	-26.7	14.1	2.20e-06	0	43	0	491782144	14	3713
2026-01-22 06:47:30.24	1.23	11.45	-26.4	-26.6	14.1	1.10e-06	0	43	0	499122176	14	3680
2026-01-22 06:47:31.24	1.10	11.51	-26.5	-26.8	14.1	3.40e-06	0	43	0	506462208	14	3711
2026-01-22 06:47:32.25	0.96	11.57	-26.6	-27.0	14.0	9.10e-06	0	43	0	513802240	14	3776
2026-01-22 06:47:33.25	0.82	11.64	-26.6	-27.0	14.0	2.20e-06	0	43	0	521142272	14	3773
2026-01-22 06:47:34.25	0.68	11.70	-26.6	-27.1	13.9	6.80e-06	0	43	0	528482304	14	3790
2026-01-22 06:47:35.26	0.54	11.76	-26.4	-27.0	14.2	0.00e+00	0	43	0	535822336	13	3864
2026-01-22 06:47:36.26	0.40	11.83	-26.2	-26.7	14.4	1.10e-06	0	43	0	543162368	13	3789
2026-01-22 06:47:37.26	0.26	11.89	-26.2	-26.7	14.4	1.10e-06	0	43	0	549453824	13	3797
2026-01-22 06:47:38.26	0.12	11.95	-26.3	-26.8	14.3	0.00e+00	0	43	0	556793856	13	3830
2026-01-22 06:47:39.26	359.98	12.02	-26.3	-26.7	14.4	0.00e+00	0	43	0	564133888	13	3801
2026-01-22 06:47:40.26	359.84	12.08	-26.3	-26.9	14.3	0.00e+00	0	43	0	571473920	13	3842
2026-01-22 06:47:41.27	359.69	12.14	-26.5	-27.3	14.1	2.20e-06	0	43	0	578813952	13	3941
2026-01-22 06:47:42.27	359.55	12.21	-26.2	-26.6	14.4	2.20e-06	0	43	0	586153984	13	3785
2026-01-22 06:47:43.28	359.40	12.27	-26.2	-26.6	14.5	1.10e-06	0	43	0	593494016	13	3768
2026-01-22 06:47:44.28	359.26	12.34	-26.2	-26.6	14.5	0.00e+00	0	43	0	600834048	13	3774
2026-01-22 06:47:45.28	359.11	12.40	-26.2	-26.6	14.5	1.10e-06	0	43	0	608174080	13	3778
2026-01-22 06:47:46.28	358.97	12.46	-26.2	-26.7	14.4	0.00e+00	0	43	0	615514112	13	3802
2026-01-22 06:47:47.28	358.82	12.52	-26.3	-26.9	14.3	2.20e-06	0	43	0	622854144	13	3845
2026-01-22 06:47:48.29	358.67	12.59	-26.3	-26.8	14.4	0.00e+00	0	43	0	630194176	13	3821
2026-01-22 06:47:49.29	358.53	12.65	-26.4	-27.0	14.3	2.20e-06	0	43	0	636485632	13	3873
2026-01-22 06:47:50.29	358.38	12.71	-26.4	-27.1	14.2	1.10e-06	0	43	0	643825664	13	3885
2026-01-22 06:47:51.29	358.23	12.78	-26.3	-26.8	14.4	2.20e-06	0	43	0	651165696	13	3809
2026-01-22 06:47:52.30	358.08	12.84	-26.2	-26.5	14.5	2.20e-06	0	43	0	658505728	13	3750
2026-01-22 06:47:53.29	357.93	12.90	-26.2	-26.5	14.5	0.00e+00	0	43	0	665845760	13	3758
2026-01-22 06:47:54.29	357.78	12.97	-26.2	-26.6	14.5	0.00e+00	0	43	0	673185792	13	3763
2026-01-22 06:47:55.30	357.62	13.03	-26.0	-26.3	14.7	2.20e-06	0	43	0	680525824	13	3692
2026-01-22 06:47:56.30	357.47	13.09	-26.0	-26.3	14.7	1.10e-06	0	43	0	687865856	13	3696
2026-01-22 06:47:57.31	357.32	13.16	-26.1	-26.4	14.6	1.10e-06	0	43	0	694157312	13	3721
2026-01-22 06:47:58.31	357.16	13.22	-25.9	-26.3	14.9	0.00e+00	0	43	0	701497344	12	3807
2026-01-22 06:47:59.31	357.01	13.28	-25.7	-26.1	15.1	0.00e+00	0	43	0	708837376	12	3750
2026-01-22 06:48:00.32	356.85	13.35	-25.7	-25.9	15.2	0.00e+00	0	43	0	716177408	12	3706
2026-01-22 06:48:01.32	356.70	13.41	-25.7	-26.0	15.2	0.00e+00	0	43	0	723517440	12	3716
2026-01-22 06:48:02.32	356.54	13.47	-25.6	-25.9	15.2	0.00e+00	0	43	0	730857472	12	3694
2026-01-22 06:48:03.32	356.38	13.53	-25.6	-25.7	15.3	0.00e+00	0	43	0	738197504	12	3664
2026-01-22 06:48:04.32	356.22	13.60	-25.8	-26.1	15.0	0.00e+00	0	43	0	745537536	12	3761
2026-01-22 06:48:05.32	356.07	13.66	-25.8	-26.3	15.0	0.00e+00	0	43	0	752877568	12	3798
2026-01-22 06:48:06.32	355.91	13.72	-25.8	-26.1	15.1	1.10e-06	0	43	0	759169024	12	3758
2026-01-22 06:48:07.32	355.75	13.78	-26.0	-26.6	14.8	0.00e+00	0	43	0	766509056	12	3872
2026-01-22 06:48:08.32	355.59	13.85	-25.8	-26.2	15.1	0.00e+00	0	43	0	773849088	12	3775
2026-01-22 06:48:09.33	355.42	13.91	-25.7	-26.1	15.1	0.00e+00	0	43	0	781189120	12	3746
2026-01-22 06:48:10.33	355.26	13.97	-25.7	-26.1	15.1	0.00e+00	0	43	0	788529152	12	3741
2026-01-22 06:48:11.33	355.10	14.03	-25.7	-26.0	15.2	0.00e+00	0	43	0	795869184	12	3715
2026-01-22 06:48:12.34	354.93	14.09	-25.7	-26.1	15.1	0.00e+00	0	43	0	803209216	12	3744
2026-01-22 06:48:13.35	354.77	14.16	-25.8	-26.1	15.1	0.00e+00	0	43	0	810549248	12	3752
2026-01-22 06:48:14.35	354.60	14.22	-25.7	-26.1	15.1	0.00e+00	0	43	0	817889280	12	3747
2026-01-22 06:48:15.36	354.44	14.28	-25.8	-26.2	15.1	0.00e+00	0	43	0	825229312	12	3776
2026-01-22 06:48:16.36	354.27	14.34	-25.8	-26.2	15.1	0.00e+00	0	43	0	832569344	12	3782
2026-01-22 06:48:17.37	354.10	14.41	-25.7	-26.0	15.2	0.00e+00	0	43	0	839909376	12	3724
2026-01-22 06:48:18.38	353.93	14.47	-25.8	-26.1	15.1	0.00e+00	0	43	0	846200832	12	3754
2026-01-22 06:48:19.38	353.76	14.53	-25.8	-26.3	15.1	0.00e+00	0	43	0	853540864	12	3786
2026-01-22 06:48:20.38	353.60	14.59	-25.7	-26.0	15.2	0.00e+00	0	43	0	860880896	12	3734
2026-01-22 06:48:21.39	353.42	14.65	-25.8	-26.1	15.2	0.00e+00	0	43	0	868220928	12	3749
2026-01-22 06:48:22.39	353.25	14.71	-25.6	-25.7	15.4	0.00e+00	0	43	0	875560960	12	3651
2026-01-22 06:48:23.39	353.08	14.77	-25.6	-25.7	15.4	0.00e+00	0	43	0	882900992	12	3660
2026-01-22 06:48:24.39	352.91	14.84	-25.6	-25.8	15.3	0.00e+00	0	43	0	890241024	12	3683
2026-01-22 06:48:25.39	352.74	14.90	-25.6	-25.8	15.3	0.00e+00	0	43	0	897581056	12	3688
2026-01-22 06:48:26.40	352.56	14.96	-25.6	-25.8	15.3	0.00e+00	0	43	0	904921088	12	3684
2026-01-22 06:48:27.41	352.39	15.02	-25.6	-25.6	15.4	0.00e+00	0	43	0	912261120	12	3640
2026-01-22 06:48:28.41	352.21	15.08	-25.6	-25.7	15.4	0.00e+00	0	43	0	919601152	12	3653
2026-01-22 06:48:29.41	352.04	15.14	-25.6	-25.8	15.3	0.00e+00	0	43	0	925892608	12	3685
2026-01-22 06:48:30.41	351.86	15.20	-25.7	-26.0	15.3	0.00e+00	0	43	0	933232640	12	3718
2026-01-22 06:48:31.42	351.68	15.26	-25.6	-25.7	15.4	0.00e+00	0	43	0	940572672	12	3664
2026-01-22 06:48:32.42	351.51	15.32	-25.6	-25.9	15.3	0.00e+00	0	43	0	947912704	12	3691
2026-01-22 06:48:33.43	351.32	15.38	-25.6	-25.7	15.4	0.00e+00	0	43	0	955252736	12	3664
2026-01-22 06:48:34.43	351.15	15.44	-25.4	-25.3	15.6	0.00e+00	0	43	0	962592768	12	3573
2026-01-22 06:48:35.43	350.97	15.50	-25.3	-25.7	15.8	0.00e+00	0	43	0	969932800	11	3739
2026-01-22 06:48:36.43	350.79	15.56	-25.3	-25.7	15.7	0.00e+00	0	43	0	977272832	11	3760
2026-01-22 06:48:37.44	350.60	15.62	-25.4	-25.9	15.6	0.00e+00	0	43	0	984612864	11	3801
2026-01-22 06:48:38.44	350.42	15.68	-25.6	-26.2	15.5	0.00e+00	0	43	0	991952896	11	3879
2026-01-22 06:48:39.44	350.24	15.74	-25.5	-26.1	15.5	0.00e+00	0	43	0	999292928	11	3851
2026-01-22 06:48:40.44	350.05	15.80	-25.5	-26.0	15.6	0.00e+00	0	43	0	1006632960	11	3814
2026-01-22 06:48:41.44	349.87	15.85	-25.5	-26.1	15.6	0.00e+00	0	43	0	1012924416	11	3843
2026-01-22 06:48:42.44	349.68	15.91	-25.6	-26.2	15.5	0.00e+00	0	43	0	1020264448	11	3863
2026-01-22 06:48:43.44	349.50	15.97	-25.7	-26.4	15.4	0.00e+00	0	43	0	1027604480	11	3928
2026-01-22 06:48:44.44	349.31	16.03	-25.7	-26.6	15.3	0.00e+00	0	43	0	1034944512	11	3958
2026-01-22 06:48:45.45	349.12	16.09	-25.8	-26.6	15.3	0.00e+00	0	43	0	1042284544	11	3959
2026-01-22 06:48:46.45	348.94	16.15	-25.5	-26.1	15.6	0.00e+00	0	43	0	1049624576	11	3852
2026-01-22 06:48:47.45	348.75	16.20	-25.3	-25.6	15.9	0.00e+00	0	43	0	1056964608	11	3718
2026-01-22 06:48:48.46	348.56	16.26	-25.2	-25.4	16.0	0.00e+00	0	43	0	1064304640	11	3679
2026-01-22 06:48:49.46	348.37	16.32	-25.2	-25.4	16.0	0.00e+00	0	43	0	1070596096	11	3671
2026-01-22 06:48:50.47	348.17	16.38	-25.2	-25.4	16.0	0.00e+00	0	43	0	1077936128	11	3669
2026-01-22 06:48:51.46	347.98	16.43	-25.0	-25.0	16.2	0.00e+00	0	43	0	1085276160	11	3591
2026-01-22 06:48:52.46	347.79	16.49	-24.9	-24.7	16.3	0.00e+00	0	43	0	1092616192	11	3531
2026-01-22 06:48:53.46	347.60	16.55	-24.8	-25.1	16.4	0.00e+00	0	43	0	1099956224	10	3708
2026-01-22 06:48:54.47	347.40	16.60	-24.9	-25.2	16.4	0.00e+00	0	43	0	1107296256	10	3740
2026-01-22 06:48:55.47	347.21	16.66	-24.8	-25.1	16.4	0.00e+00	0	43	0	1114636288	10	3712
2026-01-22 06:48:56.47	347.01	16.71	-24.7	-24.9	16.5	0.00e+00	0	43	0	1121976320	10	3656
2026-01-22 06:48:57.47	346.82	16.77	-24.8	-25.0	16.5	0.00e+00	0	43	0	1129316352	10	3682
2026-01-22 06:48:58.48	346.62	16.83	-24.8	-25.0	16.4	0.00e+00	0	43	0	1136656384	10	3686
2026-01-22 06:48:59.48	346.42	16.88	-24.8	-24.9	16.5	0.00e+00	0	43	0	1143996416	10	3667
2026-01-22 06:49:00.49	346.22	16.94	-24.8	-25.0	16.5	0.00e+00	0	43	0	1151336448	10	3695
2026-01-22 06:49:01.49	346.02	16.99	-24.8	-25.0	16.4	0.00e+00	0	43	0	1157627904	10	3687
2026-01-22 06:49:02.50	345.82	17.05	-24.7	-24.7	16.6	0.00e+00	0	43	0	1164967936	10	3630
2026-01-22 06:49:03.51	345.62	17.10	-24.7	-24.8	16.5	0.00e+00	0	43	0	1172307968	10	3652
2026-01-22 06:49:04.51	345.41	17.15	-24.8	-25.0	16.5	0.00e+00	0	44	0	1179648000	10	3679
2026-01-22 06:49:05.52	345.21	17.21	-24.8	-25.0	16.5	0.00e+00	0	44	0	1186988032	10	3680
2026-01-22 06:49:06.52	345.01	17.26	-24.7	-24.9	16.5	0.00e+00	0	43	0	1194328064	10	3661
2026-01-22 06:49:07.52	344.80	17.32	-24.8	-25.1	16.4	0.00e+00	0	43	0	1201668096	10	3704
2026-01-22 06:49:08.53	344.60	17.37	-25.0	-25.4	16.2	0.00e+00	0	43	0	1209008128	10	3783
2026-01-22 06:49:09.53	344.39	17.42	-25.0	-25.5	16.2	0.00e+00	0	43	0	1216348160	10	3799
2026-01-22 06:49:10.53	344.19	17.47	-25.1	-25.6	16.1	0.00e+00	0	43	0	1223688192	10	3831
2026-01-22 06:49:11.53	343.98	17.53	-25.2	-25.9	16.0	0.00e+00	0	44	0	1231028224	10	3892
2026-01-22 06:49:12.53	343.77	17.58	-25.2	-25.9	16.0	0.00e+00	0	43	0	1237319680	10	3909
2026-01-22 06:49:13.53	343.57	17.63	-25.2	-25.9	16.0	0.00e+00	0	43	0	1244659712	10	3893
2026-01-22 06:49:14.54	343.36	17.68	-25.0	-25.5	16.2	0.00e+00	0	43	0	1251999744	10	3805
2026-01-22 06:49:15.54	343.15	17.73	-25.1	-25.6	16.2	0.00e+00	0	44	0	1259339776	10	3834
2026-01-22 06:49:16.54	342.94	17.78	-25.0	-25.5	16.2	0.00e+00	0	44	0	1266679808	10	3806
2026-01-22 06:49:17.53	342.73	17.83	-24.9	-25.1	16.4	0.00e+00	0	43	0	1274019840	10	3716
2026-01-22 06:49:18.54	342.51	17.88	-24.9	-25.2	16.4	0.00e+00	0	43	0	1281359872	10	3728
2026-01-22 06:49:19.54	342.30	17.93	-24.8	-25.1	16.4	0.00e+00	0	43	0	1288699904	10	3715
2026-01-22 06:49:20.54	342.09	17.98	-24.7	-24.7	16.6	0.00e+00	0	43	0	1296039936	10	3624
2026-01-22 06:49:21.55	341.87	18.03	-25.1	-25.6	16.2	0.00e+00	0	43	0	1302331392	10	3831
2026-01-22 06:49:22.55	341.66	18.08	-25.0	-25.5	16.2	0.00e+00	0	43	0	1309671424	10	3793
2026-01-22 06:49:23.55	341.44	18.13	-24.7	-24.8	16.6	0.00e+00	0	43	0	1317011456	10	3640
2026-01-22 06:49:24.55	341.23	18.18	-24.5	-24.3	16.8	0.00e+00	0	43	0	1324351488	10	3541
2026-01-22 06:49:25.55	341.01	18.23	-24.3	-24.5	17.0	0.00e+00	0	43	0	1331691520	9	3683
2026-01-22 06:49:26.55	340.80	18.28	-24.3	-24.6	16.9	0.00e+00	0	43	0	1339031552	9	3687
2026-01-22 06:49:27.56	340.58	18.32	-24.4	-24.7	16.9	0.00e+00	0	43	0	1346371584	9	3707
2026-01-22 06:49:28.56	340.36	18.37	-24.4	-24.6	16.9	0.00e+00	0	43	0	1353711616	9	3692
2026-01-22 06:49:29.57	340.14	18.42	-24.4	-24.7	16.9	0.00e+00	0	43	0	1361051648	9	3707
2026-01-22 06:49:30.57	339.92	18.46	-24.4	-24.7	16.9	0.00e+00	0	44	0	1367343104	9	3718
2026-01-22 06:49:31.58	339.69	18.51	-24.4	-24.7	16.9	0.00e+00	0	44	0	1374683136	9	3718
2026-01-22 06:49:32.57	339.47	18.55	-24.6	-25.0	16.7	0.00e+00	0	44	0	1382023168	9	3797
2026-01-22 06:49:33.58	339.25	18.60	-24.5	-25.0	16.8	0.00e+00	0	43	0	1389363200	9	3776
2026-01-22 06:49:34.58	339.03	18.65	-24.5	-25.0	16.8	0.00e+00	0	43	0	1396703232	9	3785
2026-01-22 06:49:35.59	338.80	18.69	-24.6	-25.1	16.7	0.00e+00	0	44	0	1404043264	9	3825
2026-01-22 06:49:36.60	338.58	18.73	-24.6	-25.0	16.7	0.00e+00	0	43	0	1411383296	9	3795
2026-01-22 06:49:37.59	338.35	18.78	-24.4	-24.7	16.9	0.00e+00	0	43	0	1418723328	9	3710
2026-01-22 06:49:38.60	338.13	18.82	-24.4	-24.6	17.0	0.00e+00	0	43	0	1426063360	9	3698
2026-01-22 06:49:39.61	337.90	18.87	-24.4	-24.7	16.9	0.00e+00	0	44	0	1433403392	9	3714
2026-01-22 06:49:40.61	337.67	18.91	-24.3	-24.5	17.0	0.00e+00	0	43	0	1440743424	9	3681
2026-01-22 06:49:41.62	337.44	18.95	-24.3	-24.4	17.1	0.00e+00	0	44	0	1448083456	9	3648
2026-01-22 06:49:42.62	337.21	18.99	-24.2	-24.3	17.1	0.00e+00	0	44	0	1454374912	9	3617
2026-01-22 06:49:43.63	336.98	19.03	-24.1	-24.1	17.2	0.00e+00	0	43	0	1462763520	9	3588
2026-01-22 06:49:44.63	336.75	19.07	-24.2	-24.2	17.2	0.00e+00	0	43	0	1470103552	9	3599
2026-01-22 06:49:45.63	336.52	19.12	-24.2	-24.3	17.1	0.00e+00	0	43	0	1476395008	9	3636
2026-01-22 06:49:46.64	336.29	19.16	-24.3	-24.5	17.0	0.00e+00	0	44	0	1483735040	9	3682
2026-01-22 06:49:47.65	336.06	19.20	-24.5	-24.9	16.8	0.00e+00	0	43	0	1491075072	9	3772
2026-01-22 06:49:48.64	335.83	19.23	-24.4	-24.6	17.0	0.00e+00	0	43	0	1498415104	9	3688
2026-01-22 06:49:49.65	335.60	19.27	-24.1	-24.1	17.2	0.00e+00	0	44	0	1505755136	9	3582
2026-01-22 06:49:50.64	335.36	19.31	-24.1	-24.0	17.3	0.00e+00	0	44	0	1513095168	9	3555
2026-01-22 06:49:51.65	335.13	19.35	-24.0	-23.8	17.3	0.00e+00	0	44	0	1520435200	9	3524
2026-01-22 06:49:52.66	334.89	19.39	-24.0	-23.8	17.4	0.00e+00	0	43	0	1527775232	9	3528
2026-01-22 06:49:53.67	334.66	19.43	-23.9	-23.6	17.5	0.00e+00	0	43	0	1534066688	9	3479
2026-01-22 06:49:54.67	334.42	19.46	-24.0	-23.8	17.3	0.00e+00	0	44	0	1541406720	9	3525
2026-01-22 06:49:55.68	334.18	19.50	-23.9	-23.7	17.4	0.00e+00	0	43	0	1548746752	9	3499
2026-01-22 06:49:56.67	333.95	19.53	-23.8	-23.9	17.6	0.00e+00	0	44	0	1556086784	8	3633
2026-01-22 06:49:57.68	333.71	19.57	-23.8	-23.9	17.6	0.00e+00	0	44	0	1563426816	8	3650
2026-01-22 06:49:58.68	333.47	19.60	-23.8	-23.8	17.7	0.00e+00	0	43	0	1570766848	8	3615
2026-01-22 06:49:59.67	333.24	19.64	-23.7	-23.8	17.7	0.00e+00	0	44	0	1578106880	8	3612
2026-01-22 06:50:00.67	333.00	19.67	-23.7	-23.7	17.7	0.00e+00	0	43	0	1585446912	8	3601
2026-01-22 06:50:01.67	332.76	19.71	-23.7	-23.7	17.7	0.00e+00	0	44	0	1592786944	8	3594
2026-01-22 06:50:02.67	332.52	19.74	-23.7	-23.7	17.7	0.00e+00	0	43	0	1599078400	8	3591
2026-01-22 06:50:03.67	332.28	19.77	-23.7	-23.7	17.7	0.00e+00	0	43	0	1606418432	8	3599
2026-01-22 06:50:04.68	332.04	19.80	-23.9	-24.1	17.5	0.00e+00	0	44	0	1613758464	8	3676
2026-01-22 06:50:05.68	331.80	19.84	-23.9	-24.2	17.5	0.00e+00	0	44	0	1621098496	8	3698
2026-01-22 06:50:06.68	331.56	19.87	-23.8	-23.9	17.6	0.00e+00	0	44	0	1628438528	8	3640
2026-01-22 06:50:07.69	331.31	19.90	-23.8	-23.9	17.6	0.00e+00	0	43	0	1635778560	8	3649
2026-01-22 06:50:08.69	331.07	19.93	-23.9	-24.1	17.5	0.00e+00	0	44	0	1643118592	8	3681
2026-01-22 06:50:09.69	330.83	19.96	-24.0	-24.2	17.4	0.00e+00	0	43	0	1650458624	8	3715
2026-01-22 06:50:10.69	330.58	19.99	-23.9	-24.2	17.5	0.00e+00	0	44	0	1657798656	8	3707
2026-01-22 06:50:11.69	330.34	20.01	-24.0	-24.3	17.4	0.00e+00	0	44	0	1665138688	8	3741
2026-01-22 06:50:12.70	330.09	20.04	-24.0	-24.2	17.4	0.00e+00	0	44	0	1672478720	8	3711
2026-01-22 06:50:13.70	329.85	20.07	-23.9	-24.0	17.5	0.00e+00	0	43	0	1678770176	8	3670
2026-01-22 06:50:14.70	329.60	20.10	-23.9	-24.1	17.5	0.00e+00	0	44	0	1686110208	8	3686
2026-01-22 06:50:15.70	329.36	20.12	-23.9	-24.1	17.5	0.00e+00	0	44	0	1693450240	8	3689
2026-01-22 06:50:16.70	329.11	20.15	-24.0	-24.4	17.3	0.00e+00	0	44	0	1700790272	8	3752
2026-01-22 06:50:17.70	328.86	20.17	-23.9	-24.1	17.5	0.00e+00	0	43	0	1708130304	8	3685
2026-01-22 06:50:18.71	328.61	20.20	-23.8	-23.8	17.6	0.00e+00	0	44	0	1715470336	8	3625
2026-01-22 06:50:19.72	328.36	20.22	-23.7	-23.7	17.7	0.00e+00	0	43	0	1722810368	8	3591
2026-01-22 06:50:20.72	328.12	20.25	-23.8	-23.8	17.7	0.00e+00	0	43	0	1730150400	8	3613
2026-01-22 06:50:21.73	327.87	20.27	-23.8	-23.9	17.6	0.00e+00	0	44	0	1737490432	8	3636
2026-01-22 06:50:22.73	327.62	20.29	-23.8	-23.9	17.6	0.00e+00	0	44	0	1744830464	8	3640
2026-01-22 06:50:23.73	327.37	20.31	-23.9	-24.1	17.5	0.00e+00	0	44	0	1752170496	8	3687
2026-01-22 06:50:24.73	327.12	20.34	-24.0	-24.3	17.4	0.00e+00	0	43	0	1759510528	8	3724
2026-01-22 06:50:25.74	326.87	20.36	-24.0	-24.3	17.4	0.00e+00	0	44	0	1765801984	8	3739
2026-01-22 06:50:26.74	326.62	20.38	-24.0	-24.3	17.4	0.00e+00	0	44	0	1773142016	8	3739
2026-01-22 06:50:27.75	326.36	20.40	-23.9	-24.2	17.5	0.00e+00	0	43	0	1780482048	8	3705
2026-01-22 06:50:28.75	326.11	20.42	-24.0	-24.4	17.4	0.00e+00	0	44	0	1787822080	8	3754
2026-01-22 06:50:29.75	325.86	20.44	-23.8	-24.0	17.6	0.00e+00	0	43	0	1795162112	8	3652
2026-01-22 06:50:30.76	325.61	20.45	-23.8	-23.8	17.7	0.00e+00	0	43	0	1802502144	8	3618
2026-01-22 06:50:31.76	325.36	20.47	-23.8	-23.8	17.7	0.00e+00	0	43	0	1809842176	8	3616
2026-01-22 06:50:32.77	325.10	20.49	-23.7	-23.7	17.7	0.00e+00	0	43	0	1817182208	8	3597
2026-01-22 06:50:33.77	324.85	20.50	-23.8	-23.8	17.7	0.00e+00	0	44	0	1824522240	8	3623
2026-01-22 06:50:34.77	324.60	20.52	-23.8	-23.8	17.7	0.00e+00	0	43	0	1830813696	8	3625
2026-01-22 06:50:35.77	324.35	20.54	-23.9	-24.2	17.5	0.00e+00	0	44	0	1838153728	8	3707
2026-01-22 06:50:36.78	324.09	20.55	-23.9	-24.0	17.6	0.00e+00	0	44	0	1845493760	8	3665
2026-01-22 06:50:37.78	323.84	20.56	-23.8	-23.9	17.7	0.00e+00	0	43	0	1852833792	8	3636
2026-01-22 06:50:38.78	323.58	20.58	-23.8	-23.9	17.6	0.00e+00	0	44	0	1860173824	8	3647
2026-01-22 06:50:39.78	323.33	20.59	-23.8	-24.0	17.6	0.00e+00	0	43	0	1867513856	8	3655
2026-01-22 06:50:40.79	323.07	20.60	-23.9	-24.0	17.6	0.00e+00	0	44	0	1874853888	8	3669
2026-01-22 06:50:41.80	322.82	20.62	-24.1	-24.5	17.3	0.00e+00	0	44	0	1882193920	8	3764
2026-01-22 06:50:42.79	322.56	20.63	-24.0	-24.3	17.4	0.00e+00	0	44	0	1889533952	8	3738
2026-01-22 06:50:43.80	322.31	20.64	-23.9	-24.2	17.5	0.00e+00	0	44	0	1896873984	8	3699
2026-01-22 06:50:44.81	322.05	20.65	-23.9	-24.1	17.5	0.00e+00	0	44	0	1904214016	8	3682
2026-01-22 06:50:45.81	321.80	20.66	-23.8	-23.9	17.6	0.00e+00	0	44	0	1910505472	8	3638
2026-01-22 06:50:46.82	321.54	20.67	-23.8	-23.9	17.6	0.00e+00	0	43	0	1917845504	8	3639
2026-01-22 06:50:47.82	321.28	20.67	-23.9	-24.0	17.5	0.00e+00	0	44	0	1925185536	8	3669
2026-01-22 06:50:48.82	321.03	20.68	-23.8	-23.8	17.7	0.00e+00	0	44	0	1932525568	8	3625
2026-01-22 06:50:49.83	320.77	20.69	-23.9	-24.1	17.5	0.00e+00	0	44	0	1939865600	8	3693
2026-01-22 06:50:50.83	320.52	20.69	-23.8	-23.9	17.6	0.00e+00	0	44	0	1947205632	8	3637
2026-01-22 06:50:51.83	320.26	20.70	-23.7	-23.6	17.8	0.00e+00	0	44	0	1954545664	8	3585
2026-01-22 06:50:52.83	320.00	20.71	-23.7	-23.8	17.7	0.00e+00	0	43	0	1961885696	8	3607
2026-01-22 06:50:53.84	319.75	20.71	-23.7	-23.8	17.7	0.00e+00	0	44	0	1969225728	8	3611
2026-01-22 06:50:54.84	319.49	20.71	-23.8	-23.8	17.7	0.00e+00	0	44	0	1976565760	8	3623
2026-01-22 06:50:55.84	319.23	20.72	-23.9	-24.2	17.5	0.00e+00	0	44	0	1983905792	8	3703
2026-01-22 06:50:56.84	318.98	20.72	-24.0	-24.4	17.4	0.00e+00	0	44	0	1991245824	8	3753
2026-01-22 06:50:57.85	318.72	20.72	-24.0	-24.3	17.4	0.00e+00	0	44	0	1997537280	8	3726
2026-01-22 06:50:58.86	318.46	20.72	-23.9	-24.0	17.5	0.00e+00	0	44	0	2004877312	8	3672
2026-01-22 06:50:59.87	318.20	20.72	-23.9	-24.2	17.5	0.00e+00	0	44	0	2012217344	8	3696
2026-01-22 06:51:00.88	317.94	20.72	-23.9	-24.1	17.5	0.00e+00	0	44	0	2019557376	8	3689
2026-01-22 06:51:01.88	317.69	20.72	-23.9	-24.1	17.5	0.00e+00	0	44	0	2026897408	8	3682
2026-01-22 06:51:02.88	317.43	20.72	-24.0	-24.4	17.3	0.00e+00	0	44	0	2034237440	8	3747
2026-01-22 06:51:03.88	317.18	20.72	-23.9	-24.0	17.6	0.00e+00	0	43	0	2041577472	8	3664
2026-01-22 06:51:04.88	316.92	20.72	-23.8	-23.9	17.6	0.00e+00	0	44	0	2048917504	8	3644
2026-01-22 06:51:05.88	316.66	20.72	-23.9	-24.0	17.5	0.00e+00	0	44	0	2056257536	8	3668
2026-01-22 06:51:06.88	316.41	20.71	-23.8	-23.8	17.7	0.00e+00	0	44	0	2063597568	8	3619
2026-01-22 06:51:07.88	316.15	20.71	-23.8	-23.9	17.6	1.10e-06	0	44	0	2070937600	8	3649
2026-01-22 06:51:08.88	315.90	20.71	-23.7	-23.8	17.7	0.00e+00	0	44	0	2077229056	8	3611
2026-01-22 06:51:09.87	315.64	20.70	-24.0	-24.3	17.4	0.00e+00	0	44	0	2084569088	8	3721
2026-01-22 06:51:10.88	315.38	20.69	-23.9	-24.1	17.5	0.00e+00	0	44	0	2091909120	8	3688
2026-01-22 06:51:11.88	315.13	20.69	-23.8	-23.8	17.6	0.00e+00	0	44	0	2099249152	8	3613
2026-01-22 06:51:12.89	314.87	20.68	-23.8	-23.8	17.7	1.10e-06	0	43	0	2106589184	8	3615
2026-01-22 06:51:13.89	314.62	20.67	-23.8	-23.9	17.6	0.00e+00	0	44	0	2113929216	8	3642
2026-01-22 06:51:14.89	314.36	20.67	-23.7	-23.7	17.7	0.00e+00	0	44	0	2121269248	8	3601
2026-01-22 06:51:15.90	314.10	20.66	-23.8	-23.8	17.6	0.00e+00	0	44	0	2128609280	8	3615
2026-01-22 06:51:16.91	313.85	20.65	-23.6	-23.6	17.7	0.00e+00	0	44	0	2135949312	8	3561
2026-01-22 06:51:17.91	313.59	20.64	-23.6	-23.4	17.8	0.00e+00	0	44	0	2142240768	8	3535
2026-01-22 06:51:18.91	313.34	20.63	-23.7	-23.6	17.7	0.00e+00	0	44	0	2149580800	8	3569
2026-01-22 06:51:19.92	313.08	20.62	-23.5	-23.3	17.9	0.00e+00	0	44	0	2156920832	8	3507
2026-01-22 06:51:20.93	312.82	20.60	-23.7	-23.7	17.7	0.00e+00	0	44	0	2164260864	8	3590
2026-01-22 06:51:21.93	312.57	20.59	-23.8	-23.9	17.6	0.00e+00	0	43	0	2171600896	8	3638
2026-01-22 06:51:22.93	312.31	20.58	-23.7	-23.8	17.7	0.00e+00	0	44	0	2178940928	8	3618
2026-01-22 06:51:23.93	312.06	20.57	-23.8	-24.0	17.6	0.00e+00	0	44	0	2186280960	8	3659
2026-01-22 06:51:24.93	311.81	20.55	-23.8	-23.9	17.6	0.00e+00	0	44	0	2193620992	8	3639
2026-01-22 06:51:25.93	311.55	20.54	-23.7	-23.7	17.7	0.00e+00	0	44	0	2200961024	8	3588
2026-01-22 06:51:26.93	311.30	20.52	-23.7	-23.6	17.7	0.00e+00	0	44	0	2208301056	8	3581
2026-01-22 06:51:27.94	311.05	20.51	-23.6	-23.5	17.8	0.00e+00	0	44	0	2215641088	8	3553
2026-01-22 06:51:28.93	310.80	20.49	-23.5	-23.3	17.9	0.00e+00	0	44	0	2222981120	8	3504
2026-01-22 06:51:29.94	310.54	20.47	-23.6	-23.4	17.9	0.00e+00	0	44	0	2229272576	8	3528
2026-01-22 06:51:30.94	310.29	20.45	-23.4	-23.1	18.0	0.00e+00	0	44	0	2236612608	8	3473
2026-01-22 06:51:31.95	310.04	20.44	-23.5	-23.3	17.9	0.00e+00	0	44	0	2243952640	8	3509
2026-01-22 06:51:32.95	309.78	20.42	-23.7	-23.7	17.7	0.00e+00	0	44	0	2251292672	8	3585
2026-01-22 06:51:33.95	309.53	20.40	-23.7	-23.7	17.7	0.00e+00	0	44	0	2258632704	8	3597
2026-01-22 06:51:34.95	309.28	20.38	-23.8	-23.9	17.6	0.00e+00	0	44	0	2265972736	8	3636
2026-01-22 06:51:35.96	309.03	20.36	-23.8	-23.9	17.6	0.00e+00	0	44	0	2273312768	8	3638
2026-01-22 06:51:36.96	308.78	20.34	-23.8	-24.0	17.6	0.00e+00	0	44	0	2280652800	8	3654
2026-01-22 06:51:37.96	308.53	20.32	-23.7	-23.7	17.7	0.00e+00	0	44	0	2286944256	8	3601
2026-01-22 06:51:38.97	308.28	20.29	-23.7	-23.6	17.7	0.00e+00	0	44	0	2294284288	8	3572
2026-01-22 06:51:39.97	308.03	20.27	-23.7	-23.6	17.8	0.00e+00	0	44	0	2301624320	8	3569
2026-01-22 06:51:40.97	307.78	20.25	-23.5	-23.3	17.9	0.00e+00	0	44	0	2308964352	8	3511
2026-01-22 06:51:41.97	307.53	20.22	-23.5	-23.3	17.9	0.00e+00	0	44	0	2316304384	8	3504
2026-01-22 06:51:42.97	307.29	20.20	-23.5	-23.3	17.9	0.00e+00	0	44	0	2323644416	8	3507
2026-01-22 06:51:43.97	307.04	20.18	-23.7	-23.6	17.7	0.00e+00	0	44	0	2330984448	8	3578
2026-01-22 06:51:44.97	306.79	20.15	-23.7	-23.7	17.7	0.00e+00	0	44	0	2338324480	8	3602
2026-01-22 06:51:45.97	306.55	20.12	-23.8	-23.9	17.6	0.00e+00	0	44	0	2345664512	8	3640
2026-01-22 06:51:46.97	306.30	20.10	-23.7	-23.7	17.6	0.00e+00	0	44	0	2351955968	8	3604
2026-01-22 06:51:47.97	306.05	20.07	-23.7	-23.7	17.7	1.10e-06	0	43	0	2359296000	8	3598
2026-01-22 06:51:48.98	305.81	20.04	-23.7	-23.6	17.7	0.00e+00	0	44	0	2367684608	8	3576
2026-01-22 06:51:49.98	305.56	20.02	-23.7	-23.7	17.7	0.00e+00	0	44	0	2373976064	8	3588
2026-01-22 06:51:50.99	305.31	19.99	-23.7	-23.7	17.7	0.00e+00	0	44	0	2381316096	8	3593
2026-01-22 06:51:52.00	305.07	19.96	-23.6	-23.4	17.8	0.00e+00	0	44	0	2388656128	8	3535
2026-01-22 06:51:53.00	304.82	19.93	-23.5	-23.3	17.9	0.00e+00	0	43	0	2395996160	8	3512
2026-01-22 06:51:54.01	304.58	19.90	-23.7	-23.7	17.7	0.00e+00	0	44	0	2403336192	8	3593
2026-01-22 06:51:55.02	304.33	19.87	-23.7	-23.6	17.7	0.00e+00	0	44	0	2410676224	8	3584
2026-01-22 06:51:56.01	304.09	19.84	-23.8	-23.8	17.6	0.00e+00	0	44	0	2418016256	8	3629
2026-01-22 06:51:57.01	303.85	19.81	-23.8	-23.8	17.6	0.00e+00	0	44	0	2425356288	8	3622
2026-01-22 06:51:58.01	303.61	19.77	-23.8	-23.9	17.6	0.00e+00	0	44	0	2432696320	8	3650
2026-01-22 06:51:59.02	303.37	19.74	-23.7	-23.7	17.7	0.00e+00	0	44	0	2438987776	8	3598
2026-01-22 06:52:00.02	303.13	19.71	-23.7	-23.7	17.7	0.00e+00	0	44	0	2446327808	8	3599
2026-01-22 06:52:01.02	302.89	19.67	-23.7	-23.6	17.7	0.00e+00	0	44	0	2453667840	8	3576
2026-01-22 06:52:02.03	302.65	19.64	-23.7	-23.8	17.6	0.00e+00	0	44	0	2461007872	8	3608
2026-01-22 06:52:03.03	302.41	19.61	-23.9	-24.1	17.5	0.00e+00	0	44	0	2468347904	8	3686
2026-01-22 06:52:04.03	302.17	19.57	-23.7	-23.8	17.6	0.00e+00	0	43	0	2475687936	8	3617
2026-01-22 06:52:05.03	301.93	19.54	-23.8	-23.8	17.6	0.00e+00	0	44	0	2483027968	8	3625
2026-01-22 06:52:06.04	301.69	19.50	-23.9	-24.1	17.4	0.00e+00	0	44	0	2490368000	8	3686
2026-01-22 06:52:07.04	301.46	19.46	-24.0	-24.2	17.4	0.00e+00	0	44	0	2497708032	8	3707
2026-01-22 06:52:08.05	301.22	19.43	-24.1	-24.6	17.2	0.00e+00	0	44	0	2505048064	8	3790
2026-01-22 06:52:09.05	300.99	19.39	-24.1	-24.5	17.2	0.00e+00	0	44	0	2512388096	8	3782
2026-01-22 06:52:10.05	300.75	19.35	-24.2	-24.7	17.1	0.00e+00	0	44	0	2518679552	8	3816
2026-01-22 06:52:11.05	300.52	19.31	-24.1	-24.5	17.2	0.00e+00	0	44	0	2526019584	8	3766
2026-01-22 06:52:12.06	300.28	19.27	-24.1	-24.5	17.3	0.00e+00	0	44	0	2533359616	8	3767
2026-01-22 06:52:13.06	300.05	19.24	-24.2	-24.7	17.1	0.00e+00	0	44	0	2540699648	8	3826
2026-01-22 06:52:14.07	299.81	19.20	-24.0	-24.3	17.3	0.00e+00	0	44	0	2548039680	8	3723
2026-01-22 06:52:15.07	299.58	19.16	-24.0	-24.2	17.4	0.00e+00	0	44	0	2555379712	8	3709
2026-01-22 06:52:16.08	299.35	19.12	-24.0	-24.3	17.3	0.00e+00	0	44	0	2562719744	8	3735
2026-01-22 06:52:17.08	299.12	19.07	-23.8	-24.0	17.5	0.00e+00	0	44	0	2570059776	8	3657
2026-01-22 06:52:18.08	298.89	19.03	-23.8	-23.9	17.5	0.00e+00	0	44	0	2577399808	8	3645
2026-01-22 06:52:19.09	298.66	18.99	-23.9	-24.2	17.4	0.00e+00	0	44	0	2584739840	8	3699
2026-01-22 06:52:20.09	298.43	18.95	-23.9	-24.2	17.4	0.00e+00	0	44	0	2592079872	8	3699
2026-01-22 06:52:21.09	298.20	18.91	-24.1	-24.6	17.1	0.00e+00	0	44	0	2599419904	8	3803
2026-01-22 06:52:22.10	297.97	18.86	-24.0	-24.4	17.2	0.00e+00	0	44	0	2605711360	8	3747
2026-01-22 06:52:23.11	297.74	18.82	-24.0	-24.3	17.3	0.00e+00	0	44	0	2613051392	8	3730
2026-01-22 06:52:24.11	297.52	18.78	-24.1	-24.5	17.2	0.00e+00	0	44	0	2620391424	8	3768
2026-01-22 06:52:25.12	297.29	18.73	-23.9	-24.2	17.3	0.00e+00	0	44	0	2627731456	8	3708
2026-01-22 06:52:26.12	297.07	18.69	-24.0	-24.3	17.3	0.00e+00	0	43	0	2635071488	8	3727
2026-01-22 06:52:27.13	296.84	18.64	-24.1	-24.6	17.1	0.00e+00	0	44	0	2642411520	8	3807
2026-01-22 06:52:28.13	296.62	18.60	-24.2	-24.7	17.1	0.00e+00	0	44	0	2649751552	8	3826
2026-01-22 06:52:29.13	296.39	18.55	-24.2	-24.8	17.0	0.00e+00	0	44	0	2657091584	8	3840
2026-01-22 06:52:30.13	296.17	18.51	-24.2	-24.8	17.0	0.00e+00	0	44	0	2664431616	8	3838
2026-01-22 06:52:31.14	295.95	18.46	-24.2	-24.8	17.0	0.00e+00	0	44	0	2671771648	8	3847
2026-01-22 06:52:32.14	295.73	18.42	-24.3	-24.9	17.0	0.00e+00	0	44	0	2679111680	8	3873
2026-01-22 06:52:33.15	295.51	18.37	-24.2	-24.7	17.0	0.00e+00	0	44	0	2685403136	8	3833
2026-01-22 06:52:34.15	295.29	18.32	-24.3	-25.0	16.9	0.00e+00	0	44	0	2692743168	8	3900
2026-01-22 06:52:35.15	295.07	18.27	-24.1	-24.6	17.1	0.00e+00	0	44	0	2700083200	8	3802
2026-01-22 06:52:36.16	294.85	18.23	-24.0	-24.3	17.3	0.00e+00	0	44	0	2707423232	8	3739
2026-01-22 06:52:37.17	294.63	18.18	-24.1	-24.5	17.2	0.00e+00	0	44	0	2714763264	8	3771
2026-01-22 06:52:38.17	294.41	18.13	-24.1	-24.5	17.1	0.00e+00	0	44	0	2722103296	8	3787
2026-01-22 06:52:39.18	294.20	18.08	-24.0	-24.4	17.2	0.00e+00	0	44	0	2729443328	8	3752
2026-01-22 06:52:40.19	293.98	18.03	-24.0	-24.4	17.2	0.00e+00	0	44	0	2736783360	8	3758
2026-01-22 06:52:41.19	293.76	17.98	-24.1	-24.4	17.2	0.00e+00	0	44	0	2744123392	8	3764
2026-01-22 06:52:42.19	293.55	17.93	-24.1	-24.5	17.1	0.00e+00	0	44	0	2751463424	8	3777
2026-01-22 06:52:43.20	293.33	17.88	-24.0	-24.4	17.2	0.00e+00	0	44	0	2758803456	8	3751
2026-01-22 06:52:44.20	293.12	17.83	-24.1	-24.6	17.1	0.00e+00	0	44	0	2766143488	8	3797
2026-01-22 06:52:45.20	292.91	17.78	-24.2	-24.8	16.9	0.00e+00	0	44	0	2772434944	8	3851
2026-01-22 06:52:46.20	292.70	17.73	-24.2	-24.8	17.0	0.00e+00	0	44	0	2779774976	8	3837
2026-01-22 06:52:47.20	292.49	17.68	-24.4	-25.1	16.8	0.00e+00	0	44	0	2787115008	8	3929
2026-01-22 06:52:48.21	292.28	17.63	-24.4	-25.2	16.8	0.00e+00	0	44	0	2794455040	8	3941
2026-01-22 06:52:49.22	292.07	17.57	-24.7	-25.3	16.5	0.00e+00	0	44	0	2801795072	9	3850
2026-01-22 06:52:50.23	291.86	17.52	-24.5	-24.9	16.7	0.00e+00	0	44	0	2809135104	9	3758
2026-01-22 06:52:51.23	291.65	17.47	-24.4	-24.7	16.8	0.00e+00	0	44	0	2816475136	9	3725
2026-01-22 06:52:52.24	291.44	17.41	-24.3	-24.4	16.9	0.00e+00	0	44	0	2823815168	9	3644
2026-01-22 06:52:53.24	291.24	17.36	-24.1	-24.1	17.1	0.00e+00	0	44	0	2831155200	9	3596
2026-01-22 06:52:54.24	291.03	17.31	-24.1	-24.0	17.2	0.00e+00	0	44	0	2838495232	9	3554
2026-01-22 06:52:55.25	290.83	17.25	-24.1	-24.0	17.1	0.00e+00	0	44	0	2845835264	9	3564
2026-01-22 06:52:56.25	290.62	17.20	-24.1	-24.0	17.1	0.00e+00	0	44	0	2853175296	9	3572
2026-01-22 06:52:57.26	290.42	17.15	-24.1	-24.1	17.1	0.00e+00	0	44	0	2859466752	9	3588
2026-01-22 06:52:58.26	290.22	17.09	-24.3	-24.4	17.0	0.00e+00	0	44	0	2866806784	9	3643
2026-01-22 06:52:59.27	290.01	17.04	-24.3	-24.5	16.9	0.00e+00	0	44	0	2874146816	9	3666
2026-01-22 06:53:00.27	289.81	16.98	-24.4	-24.8	16.7	0.00e+00	0	44	0	2881486848	9	3735
2026-01-22 06:53:01.28	289.61	16.93	-24.5	-24.9	16.6	0.00e+00	0	44	0	2888826880	9	3774
2026-01-22 06:53:02.28	289.41	16.87	-24.6	-25.2	16.5	0.00e+00	0	44	0	2896166912	9	3840
2026-01-22 06:53:03.29	289.21	16.82	-24.7	-25.3	16.4	0.00e+00	0	44	0	2903506944	9	3863
2026-01-22 06:53:04.29	289.01	16.76	-24.7	-25.4	16.3	0.00e+00	0	44	0	2910846976	9	3890
2026-01-22 06:53:05.30	288.81	16.70	-24.7	-25.3	16.4	0.00e+00	0	44	0	2918187008	9	3860
2026-01-22 06:53:06.30	288.62	16.65	-24.7	-25.3	16.4	0.00e+00	0	44	0	2925527040	9	3860
2026-01-22 06:53:07.30	288.42	16.59	-24.7	-25.4	16.3	0.00e+00	0	44	0	2932867072	9	3890
2026-01-22 06:53:08.30	288.23	16.54	-24.8	-25.5	16.3	0.00e+00	0	44	0	2939158528	9	3908
2026-01-22 06:53:09.31	288.03	16.48	-24.8	-25.6	16.2	0.00e+00	0	44	0	2946498560	9	3925
2026-01-22 06:53:10.31	287.84	16.42	-24.6	-25.2	16.4	0.00e+00	0	44	0	2953838592	9	3840
2026-01-22 06:53:11.32	287.64	16.36	-24.6	-25.1	16.5	0.00e+00	0	44	0	2961178624	9	3822
2026-01-22 06:53:12.32	287.45	16.31	-24.6	-25.2	16.4	0.00e+00	0	44	0	2968518656	9	3835
2026-01-22 06:53:13.33	287.26	16.25	-24.6	-25.0	16.5	0.00e+00	0	44	0	2975858688	9	3795
2026-01-22 06:53:14.33	287.07	16.19	-24.6	-25.1	16.5	0.00e+00	0	44	0	2983198720	9	3819
2026-01-22 06:53:15.34	286.88	16.13	-24.6	-25.1	16.5	0.00e+00	0	44	0	2990538752	9	3817
2026-01-22 06:53:16.34	286.69	16.08	-24.6	-25.1	16.5	0.00e+00	0	44	0	2997878784	9	3809
2026-01-22 06:53:17.34	286.50	16.02	-24.6	-25.1	16.5	0.00e+00	0	44	0	3005218816	9	3812
2026-01-22 06:53:18.35	286.31	15.96	-24.6	-25.2	16.4	1.10e-06	0	44	0	3012558848	9	3842
2026-01-22 06:53:19.35	286.13	15.90	-24.7	-25.3	16.4	0.00e+00	0	44	0	3019898880	9	3864
2026-01-22 06:53:20.35	285.94	15.84	-24.7	-25.4	16.3	0.00e+00	0	44	0	3026190336	9	3888
2026-01-22 06:53:21.36	285.75	15.78	-24.8	-25.6	16.2	0.00e+00	0	44	0	3033530368	9	3941
2026-01-22 06:53:22.36	285.57	15.72	-24.8	-25.6	16.2	0.00e+00	0	44	0	3040870400	9	3935
2026-01-22 06:53:23.36	285.39	15.66	-24.9	-25.8	16.1	0.00e+00	0	44	0	3048210432	9	3971
2026-01-22 06:53:24.37	285.20	15.60	-24.9	-25.6	16.2	0.00e+00	0	44	0	3055550464	9	3946
2026-01-22 06:53:25.37	285.02	15.54	-24.8	-25.6	16.2	0.00e+00	0	44	0	3062890496	9	3934
2026-01-22 06:53:26.37	284.84	15.48	-24.9	-25.7	16.1	0.00e+00	0	44	0	3070230528	9	3964
2026-01-22 06:53:27.37	284.66	15.42	-25.0	-25.5	16.0	0.00e+00	0	44	0	3077570560	10	3805
2026-01-22 06:53:28.38	284.48	15.36	-24.9	-25.3	16.1	0.00e+00	0	44	0	3084910592	10	3750
2026-01-22 06:53:29.38	284.30	15.30	-24.9	-25.3	16.1	0.00e+00	0	44	0	3092250624	10	3765
2026-01-22 06:53:30.39	284.12	15.24	-25.0	-25.6	15.9	0.00e+00	0	44	0	3099590656	10	3819
2026-01-22 06:53:31.39	283.94	15.18	-25.1	-25.7	15.8	0.00e+00	0	44	0	3105882112	10	3860
2026-01-22 06:53:32.40	283.76	15.12	-25.1	-25.6	15.9	0.00e+00	0	44	0	3113222144	10	3832
2026-01-22 06:53:33.40	283.58	15.06	-25.2	-25.9	15.7	0.00e+00	0	44	0	3120562176	10	3916
2026-01-22 06:53:34.41	283.41	15.00	-25.0	-25.6	15.9	0.00e+00	0	44	0	3127902208	10	3823
2026-01-22 06:53:35.41	283.23	14.94	-24.9	-25.3	16.0	0.00e+00	0	44	0	3135242240	10	3774
2026-01-22 06:53:36.41	283.06	14.88	-24.9	-25.3	16.1	0.00e+00	0	44	0	3142582272	10	3761
2026-01-22 06:53:37.41	282.88	14.82	-24.9	-25.2	16.1	0.00e+00	0	44	0	3149922304	10	3750
2026-01-22 06:53:38.41	282.71	14.76	-24.9	-25.3	16.0	0.00e+00	0	44	0	3157262336	10	3762
2026-01-22 06:53:39.41	282.54	14.70	-24.9	-25.3	16.1	0.00e+00	0	44	0	3164602368	10	3751
2026-01-22 06:53:40.41	282.37	14.63	-24.9	-25.3	16.0	0.00e+00	0	44	0	3170893824	10	3770
2026-01-22 06:53:41.42	282.20	14.57	-24.9	-25.3	16.0	0.00e+00	0	44	0	3178233856	10	3762
2026-01-22 06:53:42.42	282.03	14.51	-24.9	-25.4	16.0	0.00e+00	0	44	0	3185573888	10	3774
2026-01-22 06:53:43.42	281.86	14.45	-25.0	-25.4	16.0	0.00e+00	0	44	0	3192913920	10	3783
2026-01-22 06:53:44.43	281.69	14.39	-25.0	-25.5	15.9	0.00e+00	0	44	0	3200253952	10	3795
2026-01-22 06:53:45.43	281.52	14.32	-24.9	-25.3	16.0	0.00e+00	0	44	0	3207593984	10	3758
2026-01-22 06:53:46.44	281.35	14.26	-24.9	-25.2	16.1	0.00e+00	0	44	0	3214934016	10	3753
2026-01-22 06:53:47.44	281.18	14.20	-25.0	-25.5	15.9	0.00e+00	0	44	0	3222274048	10	3815
2026-01-22 06:53:48.45	281.02	14.14	-25.1	-25.6	15.8	0.00e+00	0	44	0	3229614080	10	3831
2026-01-22 06:53:49.46	280.85	14.07	-25.0	-25.6	15.9	0.00e+00	0	44	0	3236954112	10	3828
2026-01-22 06:53:50.46	280.69	14.01	-25.0	-25.6	15.9	0.00e+00	0	44	0	3244294144	10	3830
2026-01-22 06:53:51.46	280.52	13.95	-25.1	-25.8	15.7	0.00e+00	0	44	0	3251634176	10	3883
2026-01-22 06:53:52.46	280.36	13.89	-25.1	-25.8	15.8	0.00e+00	0	44	0	3257925632	10	3870
2026-01-22 06:53:53.46	280.20	13.83	-25.2	-25.9	15.7	0.00e+00	0	44	0	3265265664	10	3912
2026-01-22 06:53:54.47	280.04	13.76	-25.4	-26.3	15.4	0.00e+00	0	44	0	3272605696	10	4009
2026-01-22 06:53:55.48	279.87	13.70	-25.2	-26.0	15.6	0.00e+00	0	44	0	3279945728	10	3925
2026-01-22 06:53:56.48	279.71	13.64	-25.4	-26.3	15.4	0.00e+00	0	44	0	3287285760	10	4019
2026-01-22 06:53:57.48	279.55	13.57	-25.5	-26.6	15.3	0.00e+00	0	44	0	3294625792	10	4073
2026-01-22 06:53:58.48	279.40	13.51	-25.5	-26.6	15.3	0.00e+00	0	44	0	3301965824	10	4084
2026-01-22 06:53:59.48	279.24	13.45	-25.6	-26.2	15.2	0.00e+00	0	44	0	3309305856	11	3882
2026-01-22 06:54:00.48	279.08	13.39	-25.5	-26.1	15.3	0.00e+00	0	44	0	3316645888	11	3854
2026-01-22 06:54:01.49	278.92	13.32	-25.5	-26.0	15.3	0.00e+00	0	44	0	3323985920	11	3841
2026-01-22 06:54:02.50	278.76	13.26	-25.5	-26.1	15.3	0.00e+00	0	44	0	3331325952	11	3843
2026-01-22 06:54:03.50	278.61	13.20	-25.5	-26.1	15.2	0.00e+00	0	44	0	3337617408	11	3865
2026-01-22 06:54:04.50	278.45	13.13	-25.5	-26.1	15.3	0.00e+00	0	44	0	3344957440	11	3850
2026-01-22 06:54:05.51	278.30	13.07	-25.4	-25.9	15.4	0.00e+00	0	44	0	3352297472	11	3811
2026-01-22 06:54:06.51	278.15	13.01	-25.4	-25.9	15.3	0.00e+00	0	44	0	3359637504	11	3817
2026-01-22 06:54:07.51	277.99	12.94	-25.4	-25.9	15.4	0.00e+00	0	44	0	3366977536	11	3802
2026-01-22 06:54:08.52	277.84	12.88	-25.3	-25.6	15.5	0.00e+00	0	44	0	3374317568	11	3730
2026-01-22 06:54:09.51	277.69	12.82	-25.3	-25.5	15.6	0.00e+00	0	44	0	3381657600	11	3717
2026-01-22 06:54:10.52	277.54	12.75	-25.4	-25.8	15.4	0.00e+00	0	44	0	3388997632	11	3787
2026-01-22 06:54:11.51	277.39	12.69	-25.5	-26.0	15.3	0.00e+00	0	44	0	3396337664	11	3822
2026-01-22 06:54:12.52	277.24	12.63	-25.5	-26.1	15.2	0.00e+00	0	44	0	3402629120	11	3863
2026-01-22 06:54:13.52	277.09	12.56	-25.6	-26.3	15.1	0.00e+00	0	44	0	3409969152	11	3904
2026-01-22 06:54:14.53	276.94	12.50	-25.7	-26.4	15.0	0.00e+00	0	44	0	3418357760	11	3927
2026-01-22 06:54:15.53	276.79	12.44	-25.7	-26.6	14.9	0.00e+00	0	44	0	3424649216	11	3977
2026-01-22 06:54:16.53	276.65	12.37	-25.8	-26.7	14.9	0.00e+00	0	44	0	3431989248	11	3993
2026-01-22 06:54:17.53	276.50	12.31	-25.8	-26.7	14.9	1.10e-06	0	44	0	3439329280	11	3994
2026-01-22 06:54:18.54	276.35	12.24	-25.6	-26.4	15.0	0.00e+00	0	44	0	3446669312	11	3920
2026-01-22 06:54:19.54	276.21	12.18	-25.6	-26.3	15.1	0.00e+00	0	44	0	3454009344	11	3903
2026-01-22 06:54:20.55	276.06	12.12	-25.6	-26.3	15.1	0.00e+00	0	44	0	3461349376	11	3908
2026-01-22 06:54:21.56	275.92	12.05	-25.6	-26.2	15.1	0.00e+00	0	44	0	3468689408	11	3887
2026-01-22 06:54:22.56	275.78	11.99	-25.7	-26.6	14.9	0.00e+00	0	44	0	3476029440	11	3977
2026-01-22 06:54:23.56	275.63	11.93	-25.6	-26.4	15.0	0.00e+00	0	44	0	3483369472	11	3931
2026-01-22 06:54:24.56	275.49	11.86	-25.7	-26.4	15.0	0.00e+00	0	44	0	3489660928	11	3938
2026-01-22 06:54:25.56	275.35	11.80	-25.7	-26.4	15.0	0.00e+00	0	44	0	3497000960	11	3940
2026-01-22 06:54:26.57	275.21	11.73	-25.5	-26.2	15.1	0.00e+00	0	44	0	3504340992	11	3876
2026-01-22 06:54:27.57	275.07	11.67	-25.6	-26.3	15.1	0.00e+00	0	44	0	3511681024	11	3899
2026-01-22 06:54:28.58	274.93	11.61	-25.6	-26.3	15.0	0.00e+00	0	44	0	3519021056	11	3906
2026-01-22 06:54:29.58	274.79	11.54	-25.6	-26.2	15.1	0.00e+00	0	44	0	3526361088	11	3873
2026-01-22 06:54:30.59	274.65	11.48	-25.6	-26.3	15.1	0.00e+00	0	44	0	3533701120	11	3893
2026-01-22 06:54:31.60	274.51	11.41	-25.6	-26.3	15.1	0.00e+00	0	44	0	3541041152	11	3891
2026-01-22 06:54:32.60	274.38	11.35	-25.6	-26.3	15.0	0.00e+00	0	44	0	3548381184	11	3900
2026-01-22 06:54:33.60	274.24	11.29	-25.5	-26.2	15.1	0.00e+00	0	44	0	3555721216	11	3875
2026-01-22 06:54:34.61	274.10	11.22	-25.5	-26.1	15.2	0.00e+00	0	44	0	3563061248	11	3844
2026-01-22 06:54:35.62	273.97	11.16	-25.5	-26.1	15.1	0.00e+00	0	44	0	3569352704	11	3859
2026-01-22 06:54:36.62	273.83	11.10	-25.6	-26.3	15.0	0.00e+00	0	44	0	3576692736	11	3905
2026-01-22 06:54:37.62	273.70	11.03	-25.6	-26.3	15.0	0.00e+00	0	44	0	3584032768	11	3901
2026-01-22 06:54:38.62	273.57	10.97	-25.6	-26.2	15.1	0.00e+00	0	44	0	3591372800	11	3886
2026-01-22 06:54:39.63	273.43	10.91	-25.7	-26.5	14.9	1.10e-06	0	44	0	3598712832	11	3949
2026-01-22 06:54:40.63	273.30	10.84	-25.8	-26.7	14.8	0.00e+00	0	44	0	3606052864	11	4001
2026-01-22 06:54:41.63	273.17	10.78	-25.8	-26.9	14.7	0.00e+00	0	44	0	3613392896	11	4046
2026-01-22 06:54:42.63	273.04	10.71	-25.9	-26.9	14.7	0.00e+00	0	44	0	3620732928	11	4059
2026-01-22 06:54:43.63	272.91	10.65	-26.0	-27.1	14.6	1.10e-06	0	44	0	3628072960	11	4110
2026-01-22 06:54:44.63	272.78	10.59	-26.1	-27.0	14.3	0.00e+00	0	44	0	3635412992	12	3975
2026-01-22 06:54:45.63	272.65	10.52	-26.3	-27.4	14.0	1.10e-06	0	44	0	3642753024	12	4098
2026-01-22 06:54:46.63	272.52	10.46	-26.4	-27.6	13.9	0.00e+00	0	44	0	3650093056	12	4130
2026-01-22 06:54:47.63	272.39	10.40	-26.2	-27.1	14.1	0.00e+00	0	44	0	3656384512	12	4014
2026-01-22 06:54:48.63	272.27	10.33	-26.1	-26.9	14.3	0.00e+00	0	44	0	3663724544	12	3951
2026-01-22 06:54:49.63	272.14	10.27	-26.1	-26.9	14.3	1.10e-06	0	44	0	3671064576	12	3953
2026-01-22 06:54:50.63	272.01	10.21	-26.0	-26.8	14.3	1.10e-06	0	44	0	3678404608	12	3918
2026-01-22 06:54:51.64	271.89	10.14	-26.1	-26.9	14.3	0.00e+00	0	44	0	3685744640	12	3963
2026-01-22 06:54:52.64	271.76	10.08	-26.1	-26.9	14.2	5.70e-06	0	44	0	3693084672	12	3967
2026-01-22 06:54:53.65	271.63	10.02	-26.0	-26.7	14.4	1.10e-06	0	44	0	3700424704	12	3912
2026-01-22 06:54:54.66	271.51	9.95	-26.0	-26.7	14.4	0.00e+00	0	44	0	3707764736	12	3897
2026-01-22 06:54:55.67	271.38	9.89	-26.0	-26.8	14.4	1.10e-06	0	44	0	3714056192	12	3925
2026-01-22 06:54:56.67	271.26	9.83	-26.1	-27.0	14.2	0.00e+00	0	44	0	3721396224	12	3975
2026-01-22 06:54:57.67	271.14	9.76	-26.2	-27.1	14.1	2.20e-06	0	44	0	3728736256	12	4009
2026-01-22 06:54:58.67	271.02	9.70	-26.3	-27.5	14.0	6.80e-06	0	44	0	3736076288	12	4103
2026-01-22 06:54:59.67	270.90	9.64	-26.3	-27.4	13.9	2.20e-06	0	44	0	3743416320	12	4099
2026-01-22 06:55:00.68	270.77	9.57	-26.3	-27.4	14.0	5.70e-06	0	44	0	3750756352	12	4088
2026-01-22 06:55:01.68	270.65	9.51	-26.4	-27.6	13.8	5.70e-06	0	44	0	3758096384	12	4139
2026-01-22 06:55:02.68	270.53	9.45	-26.3	-27.4	14.0	2.20e-06	0	44	0	3765436416	12	4080
2026-01-22 06:55:03.68	270.41	9.39	-26.2	-27.2	14.0	0.00e+00	0	44	0	3772776448	12	4039
2026-01-22 06:55:04.68	270.30	9.32	-26.4	-27.6	13.8	5.70e-06	0	44	0	3779067904	12	4137
2026-01-22 06:55:05.68	270.18	9.26	-26.3	-27.5	13.9	5.70e-06	0	44	0	3786407936	12	4109
2026-01-22 06:55:06.68	270.06	9.20	-26.1	-26.9	14.2	3.40e-06	0	44	0	3794796544	12	3953
2026-01-22 06:55:07.69	269.94	9.14	-25.9	-26.6	14.4	1.10e-06	0	44	0	3801088000	12	3880
2026-01-22 06:55:08.69	269.83	9.07	-25.9	-26.5	14.5	2.20e-06	0	44	0	3808428032	12	3850
2026-01-22 06:55:09.70	269.71	9.01	-26.0	-26.6	14.3	2.20e-06	0	44	0	3815768064	12	3895
2026-01-22 06:55:10.71	269.59	8.95	-26.0	-26.7	14.3	2.20e-06	0	44	0	3823108096	12	3896
2026-01-22 06:55:11.71	269.48	8.88	-26.0	-26.8	14.3	1.10e-06	0	44	0	3830448128	12	3922
2026-01-22 06:55:12.71	269.36	8.82	-26.2	-27.2	14.0	5.70e-06	0	44	0	3837788160	12	4028
2026-01-22 06:55:13.71	269.25	8.76	-26.2	-27.2	14.0	3.40e-06	0	44	0	3845128192	12	4035
2026-01-22 06:55:14.71	269.13	8.70	-26.3	-27.4	13.9	2.20e-06	0	44	0	3852468224	12	4079
2026-01-22 06:55:15.72	269.02	8.63	-26.2	-27.3	13.9	3.40e-06	0	44	0	3859808256	12	4074
2026-01-22 06:55:16.72	268.91	8.57	-26.2	-27.2	14.0	0.00e+00	0	44	0	3866099712	12	4041
2026-01-22 06:55:17.73	268.79	8.51	-26.2	-27.3	13.9	2.20e-06	0	44	0	3873439744	12	4067
2026-01-22 06:55:18.73	268.68	8.45	-26.2	-27.3	13.9	2.20e-06	0	44	0	3881828352	12	4063
2026-01-22 06:55:19.74	268.57	8.38	-26.3	-27.5	13.8	4.50e-06	0	44	0	3888119808	12	4117
2026-01-22 06:55:20.75	268.46	8.32	-26.3	-27.4	13.9	6.80e-06	0	44	0	3895459840	12	4087
2026-01-22 06:55:21.75	268.35	8.26	-26.1	-27.0	14.0	1.10e-06	0	44	0	3902799872	12	3998
2026-01-22 06:55:22.76	268.24	8.20	-26.1	-26.9	14.1	2.20e-06	0	44	0	3910139904	12	3978
2026-01-22 06:55:23.76	268.13	8.14	-26.2	-27.1	14.0	1.10e-06	0	44	0	3917479936	12	4019
2026-01-22 06:55:24.77	268.02	8.07	-26.1	-27.1	14.0	3.40e-06	0	44	0	3924819968	12	4020
2026-01-22 06:55:25.77	267.91	8.01	-26.3	-27.4	13.8	5.70e-06	0	44	0	3932160000	12	4086
2026-01-22 06:55:26.77	267.80	7.95	-26.4	-27.5	13.7	6.80e-06	0	44	0	3939500032	12	4133
2026-01-22 06:55:27.77	267.70	7.89	-26.5	-27.9	13.5	5.70e-06	0	44	0	3945791488	12	4236
2026-01-22 06:55:28.77	267.59	7.83	-26.5	-28.0	13.5	1.48e-05	0	44	0	3953131520	12	4248
2026-01-22 06:55:29.77	267.48	7.76	-26.7	-27.9	13.2	2.17e-05	0	44	0	3960471552	13	4121
2026-01-22 06:55:30.77	267.38	7.70	-26.9	-28.3	13.0	4.57e-05	0	44	0	3967811584	13	4233
2026-01-22 06:55:31.78	267.27	7.64	-27.0	-28.6	12.7	5.60e-05	0	44	0	3975151616	13	4313
2026-01-22 06:55:32.77	267.17	7.58	-27.1	-28.3	12.6	9.15e-05	0	44	0	3982491648	14	4133
2026-01-22 06:55:33.77	267.06	7.52	-27.2	-28.6	12.5	1.34e-04	0	44	0	3989831680	14	4219
2026-01-22 06:55:34.78	266.96	7.46	-27.2	-28.5	12.5	1.10e-04	0	44	0	3997171712	14	4178
2026-01-22 06:55:35.78	266.85	7.40	-27.0	-28.2	12.7	7.89e-05	0	44	0	4004511744	14	4095
2026-01-22 06:55:36.78	266.75	7.33	-27.0	-28.1	12.8	9.15e-05	0	44	0	4011851776	14	4085
2026-01-22 06:55:37.78	266.65	7.27	-27.0	-28.0	12.8	8.01e-05	0	44	0	4019191808	14	4063
2026-01-22 06:55:38.78	266.54	7.21	-27.2	-28.5	12.5	1.04e-04	0	44	0	4026531840	14	4174
2026-01-22 06:55:39.79	266.44	7.15	-27.0	-28.1	12.8	1.26e-04	0	44	0	4032823296	14	4067
2026-01-22 06:55:40.79	266.34	7.09	-27.0	-28.1	12.7	9.04e-05	0	44	0	4040163328	14	4083
2026-01-22 06:55:41.79	266.24	7.03	-32.7	-41.5	3.8	8.46e-01	0	44	104	4044357632	25	9925
2026-01-22 06:55:42.79	266.14	6.97	-33.1	-42.6	3.8	8.45e-01	0	44	104	4044357632	26	10753
2026-01-22 06:55:43.79	266.04	6.91	-33.4	-43.2	3.8	8.46e-01	0	44	104	4044357632	26	11174

#Closed at: 2026-01-22 06:55:44
#Recorded file [4044 MB]: D:/data/31010_260122_094620.dat