passes_logs/2026/01/22/R2M6_AANII_01/R2M6_AANII_01__20260122_050248_FENGYUN_3D_rec.log

#Pass ID: 20260122_050248_FENGYUN 3D
#Satellite: FENGYUN 3D
#Configuration: FENGYUN 3D
#almurnet v.1.7.20240730
#Start time: 2026-01-22 05:02:50

#Version: 2.2.20231116
#Station: R2M6_AANII_01
#Location: 30.233357 lon 59.946436 lat
#TLE: 1 43010U 17072A   26021.48744220  .00000253  00000+0  14133-3 0  9991
#TLE: 2 43010  98.9948 353.4037 0002485  97.2578 262.8880 14.19697766424177

#Time	Az	El	Level	Level2	SNR	BER	BlckErr	Temp	State	Recorded	gain1	gain2
2026-01-22 05:02:50.01	8.95	7.09	-31.2	-35.7	4.7	8.08e-01	0	42	0	0	23	6064
2026-01-22 05:02:51.00	8.83	7.14	-30.6	-34.3	5.0	7.86e-01	0	42	104	0	22	5473
2026-01-22 05:02:52.00	8.71	7.20	-30.4	-33.6	8.4	7.01e-02	0	42	0	0	22	5173
2026-01-22 05:02:53.00	8.60	7.25	-30.4	-33.4	8.5	4.90e-02	0	42	0	5242880	22	5089
2026-01-22 05:02:54.00	8.48	7.30	-30.3	-33.5	8.8	3.91e-02	0	42	0	10485760	21	5255
2026-01-22 05:02:55.00	8.36	7.36	-30.3	-33.6	8.8	3.71e-02	0	42	0	16777216	21	5286
2026-01-22 05:02:56.01	8.24	7.41	-30.7	-35.0	7.8	7.22e-02	0	42	0	22020096	21	5914
2026-01-22 05:02:57.01	8.12	7.47	-30.3	-33.8	8.7	5.32e-02	0	42	0	28311552	21	5361
2026-01-22 05:02:58.01	8.00	7.52	-29.9	-32.6	9.5	2.46e-02	0	42	0	33554432	21	4868
2026-01-22 05:02:59.01	7.88	7.57	-29.4	-31.6	10.5	6.74e-03	0	42	0	38797312	20	4644
2026-01-22 05:03:00.02	7.76	7.63	-29.0	-31.0	11.3	2.01e-03	0	42	0	45088768	19	4535
2026-01-22 05:03:01.01	7.64	7.68	-28.6	-30.6	11.9	8.22e-04	0	42	0	50331648	18	4513
2026-01-22 05:03:02.01	7.52	7.74	-28.2	-30.0	12.6	2.08e-04	0	42	0	55574528	17	4444
2026-01-22 05:03:03.02	7.40	7.79	-27.8	-29.2	13.1	7.55e-05	0	42	0	61865984	17	4194
2026-01-22 05:03:04.02	7.28	7.84	-27.6	-29.0	13.6	1.60e-05	0	42	0	67108864	16	4229
2026-01-22 05:03:05.02	7.15	7.90	-27.4	-28.5	13.9	9.10e-06	0	42	0	73400320	16	4102
2026-01-22 05:03:06.03	7.03	7.95	-27.3	-28.4	13.9	6.80e-06	0	42	0	78643200	16	4074
2026-01-22 05:03:07.04	6.91	8.01	-27.2	-28.6	13.9	3.40e-06	0	42	0	83886080	15	4252
2026-01-22 05:03:08.04	6.78	8.06	-27.1	-28.3	14.1	3.40e-06	0	42	0	90177536	15	4171
2026-01-22 05:03:09.04	6.66	8.11	-27.3	-28.8	13.8	2.20e-06	0	42	0	95420416	15	4302
2026-01-22 05:03:10.05	6.53	8.17	-27.1	-28.4	14.1	2.20e-06	0	42	0	100663296	15	4177
2026-01-22 05:03:11.06	6.40	8.22	-26.9	-28.0	14.3	1.10e-06	0	42	0	106954752	15	4074
2026-01-22 05:03:12.06	6.28	8.28	-26.9	-27.9	14.3	0.00e+00	0	42	0	112197632	15	4049
2026-01-22 05:03:13.06	6.15	8.33	-26.9	-28.0	14.3	2.20e-06	0	42	0	118489088	15	4082
2026-01-22 05:03:14.06	6.03	8.38	-26.9	-27.9	14.4	2.20e-06	0	43	0	123731968	15	4057
2026-01-22 05:03:15.06	5.90	8.44	-26.8	-27.8	14.4	1.10e-06	0	42	0	128974848	15	4031
2026-01-22 05:03:16.07	5.77	8.49	-26.9	-27.9	14.3	1.10e-06	0	43	0	135266304	15	4048
2026-01-22 05:03:17.07	5.64	8.55	-26.7	-28.1	14.5	1.10e-06	0	42	0	140509184	14	4205
2026-01-22 05:03:18.07	5.51	8.60	-26.8	-28.2	14.5	1.10e-06	0	43	0	146800640	14	4246
2026-01-22 05:03:19.08	5.38	8.65	-26.9	-28.6	14.2	2.20e-06	0	43	0	152043520	14	4348
2026-01-22 05:03:20.08	5.25	8.71	-26.7	-28.0	14.6	1.10e-06	0	43	0	157286400	14	4193
2026-01-22 05:03:21.09	5.12	8.76	-26.8	-28.3	14.5	1.10e-06	0	43	0	163577856	14	4255
2026-01-22 05:03:22.10	4.99	8.81	-26.9	-28.4	14.4	1.10e-06	0	43	0	168820736	14	4287
2026-01-22 05:03:23.10	4.86	8.87	-26.9	-28.5	14.4	1.10e-06	0	43	0	174063616	14	4308
2026-01-22 05:03:24.10	4.73	8.92	-26.8	-28.4	14.4	0.00e+00	0	43	0	180355072	14	4287
2026-01-22 05:03:25.10	4.59	8.97	-26.9	-28.4	14.4	0.00e+00	0	43	0	185597952	14	4297
2026-01-22 05:03:26.10	4.46	9.03	-27.0	-28.7	14.2	1.10e-06	0	43	0	190840832	14	4374
2026-01-22 05:03:27.09	4.33	9.08	-27.1	-29.0	14.0	2.20e-06	0	43	0	197132288	14	4453
2026-01-22 05:03:28.09	4.20	9.13	-27.0	-28.6	14.3	3.40e-06	0	43	0	202375168	14	4353
2026-01-22 05:03:29.10	4.06	9.19	-26.9	-28.4	14.4	1.10e-06	0	43	0	208666624	14	4300
2026-01-22 05:03:30.10	3.93	9.24	-27.0	-28.7	14.2	2.20e-06	0	43	0	213909504	14	4369
2026-01-22 05:03:31.10	3.79	9.29	-27.0	-28.8	14.2	3.40e-06	0	43	0	219152384	14	4401
2026-01-22 05:03:32.10	3.65	9.35	-27.1	-28.9	14.1	3.40e-06	0	43	0	225443840	14	4426
2026-01-22 05:03:33.11	3.52	9.40	-27.0	-28.8	14.2	2.20e-06	0	43	0	230686720	14	4410
2026-01-22 05:03:34.12	3.38	9.45	-27.2	-29.2	13.9	3.40e-06	0	43	0	236978176	14	4521
2026-01-22 05:03:35.12	3.24	9.51	-27.0	-28.6	14.3	1.10e-06	0	43	0	242221056	14	4364
2026-01-22 05:03:36.12	3.10	9.56	-26.8	-28.3	14.5	1.10e-06	0	43	0	247463936	14	4258
2026-01-22 05:03:37.12	2.97	9.61	-26.7	-28.1	14.6	0.00e+00	0	43	0	253755392	14	4211
2026-01-22 05:03:38.13	2.82	9.67	-26.7	-28.1	14.6	2.20e-06	0	43	0	258998272	14	4208
2026-01-22 05:03:39.14	2.68	9.72	-26.7	-28.0	14.7	0.00e+00	0	43	0	264241152	14	4176
2026-01-22 05:03:40.13	2.55	9.77	-26.8	-28.1	14.6	0.00e+00	0	43	0	270532608	14	4218
2026-01-22 05:03:41.14	2.40	9.83	-26.6	-27.8	14.8	0.00e+00	0	43	0	275775488	14	4140
2026-01-22 05:03:42.14	2.26	9.88	-26.6	-27.8	14.8	0.00e+00	0	43	0	282066944	14	4135
2026-01-22 05:03:43.14	2.12	9.93	-26.7	-28.1	14.6	0.00e+00	0	43	0	287309824	14	4202
2026-01-22 05:03:44.15	1.98	9.98	-26.6	-27.8	14.8	1.10e-06	0	43	0	292552704	14	4141
2026-01-22 05:03:45.16	1.83	10.04	-26.6	-27.8	14.8	1.10e-06	0	43	0	298844160	14	4129
2026-01-22 05:03:46.16	1.69	10.09	-26.7	-28.0	14.7	0.00e+00	0	43	0	304087040	14	4172
2026-01-22 05:03:47.15	1.55	10.14	-26.6	-27.9	14.8	1.10e-06	0	43	0	309329920	14	4150
2026-01-22 05:03:48.15	1.41	10.19	-26.7	-27.9	14.7	0.00e+00	0	43	0	315621376	14	4166
2026-01-22 05:03:49.15	1.26	10.25	-26.8	-28.1	14.6	1.10e-06	0	43	0	320864256	14	4213
2026-01-22 05:03:50.16	1.11	10.30	-26.6	-27.8	14.8	0.00e+00	0	43	0	327155712	14	4127
2026-01-22 05:03:51.16	0.97	10.35	-26.5	-27.7	14.9	0.00e+00	0	43	0	332398592	14	4088
2026-01-22 05:03:52.16	0.82	10.40	-26.6	-27.7	14.9	1.10e-06	0	43	0	337641472	14	4087
2026-01-22 05:03:53.16	0.68	10.45	-26.4	-27.4	15.0	0.00e+00	0	43	0	343932928	14	4024
2026-01-22 05:03:54.17	0.53	10.51	-26.5	-27.5	15.0	0.00e+00	0	43	0	349175808	14	4044
2026-01-22 05:03:55.17	0.38	10.56	-26.5	-27.6	14.9	0.00e+00	0	43	0	355467264	14	4070
2026-01-22 05:03:56.18	0.23	10.61	-26.3	-27.2	15.2	0.00e+00	0	43	0	360710144	14	3959
2026-01-22 05:03:57.18	0.08	10.66	-26.3	-27.2	15.2	0.00e+00	0	43	0	365953024	14	3959
2026-01-22 05:03:58.19	359.93	10.72	-26.4	-27.3	15.1	0.00e+00	0	43	0	372244480	14	4012
2026-01-22 05:03:59.19	359.78	10.77	-26.5	-27.5	15.0	0.00e+00	0	43	0	377487360	14	4051
2026-01-22 05:04:00.19	359.63	10.82	-26.4	-27.3	15.1	0.00e+00	0	43	0	382730240	14	3986
2026-01-22 05:04:01.20	359.48	10.87	-26.4	-27.4	15.1	0.00e+00	0	43	0	389021696	14	4021
2026-01-22 05:04:02.20	359.33	10.92	-26.5	-27.6	15.0	1.10e-06	0	43	0	394264576	14	4085
2026-01-22 05:04:03.21	359.17	10.97	-26.5	-27.5	15.0	0.00e+00	0	43	0	400556032	14	4042
2026-01-22 05:04:04.21	359.02	11.02	-26.4	-27.3	15.2	0.00e+00	0	43	0	405798912	14	3991
2026-01-22 05:04:05.21	358.87	11.07	-26.5	-27.5	15.1	0.00e+00	0	43	0	411041792	14	4035
2026-01-22 05:04:06.22	358.71	11.13	-26.5	-27.4	15.1	0.00e+00	0	43	0	417333248	14	4027
2026-01-22 05:04:07.23	358.55	11.18	-26.3	-27.0	15.3	0.00e+00	0	43	0	422576128	14	3923
2026-01-22 05:04:08.24	358.40	11.23	-26.2	-27.3	15.4	0.00e+00	0	43	0	428867584	13	4088
2026-01-22 05:04:09.23	358.24	11.28	-26.2	-27.4	15.4	0.00e+00	0	43	0	434110464	13	4118
2026-01-22 05:04:10.24	358.09	11.33	-26.2	-27.4	15.4	0.00e+00	0	43	0	439353344	13	4113
2026-01-22 05:04:11.25	357.93	11.38	-26.1	-27.1	15.6	0.00e+00	0	43	0	445644800	13	4040
2026-01-22 05:04:12.24	357.77	11.43	-26.1	-27.0	15.6	0.00e+00	0	44	0	450887680	13	4034
2026-01-22 05:04:13.24	357.62	11.48	-26.2	-27.2	15.5	0.00e+00	0	43	0	456130560	13	4083
2026-01-22 05:04:14.24	357.46	11.53	-26.2	-27.3	15.4	0.00e+00	0	44	0	462422016	13	4101
2026-01-22 05:04:15.24	357.30	11.58	-26.3	-27.5	15.3	0.00e+00	0	43	0	467664896	13	4158
2026-01-22 05:04:16.23	357.14	11.63	-26.2	-27.4	15.4	0.00e+00	0	43	0	472907776	13	4128
2026-01-22 05:04:17.23	356.98	11.68	-26.3	-27.6	15.3	0.00e+00	0	43	0	479199232	13	4180
2026-01-22 05:04:18.24	356.82	11.73	-26.2	-27.4	15.4	0.00e+00	0	44	0	484442112	13	4128
2026-01-22 05:04:19.24	356.66	11.78	-26.2	-27.3	15.5	0.00e+00	0	43	0	490733568	13	4095
2026-01-22 05:04:20.25	356.50	11.83	-26.1	-27.2	15.5	0.00e+00	0	43	0	495976448	13	4060
2026-01-22 05:04:21.25	356.33	11.88	-26.1	-27.0	15.6	0.00e+00	0	44	0	501219328	13	4021
2026-01-22 05:04:22.25	356.17	11.93	-26.0	-27.0	15.6	0.00e+00	0	43	0	507510784	13	4024
2026-01-22 05:04:23.26	356.01	11.98	-26.1	-27.1	15.6	0.00e+00	0	44	0	512753664	13	4035
2026-01-22 05:04:24.26	355.84	12.02	-25.9	-26.6	15.9	0.00e+00	0	44	0	519045120	13	3927
2026-01-22 05:04:25.26	355.68	12.07	-25.8	-26.5	15.9	0.00e+00	0	43	0	524288000	13	3902
2026-01-22 05:04:26.26	355.51	12.12	-25.8	-26.5	15.9	0.00e+00	0	43	0	529530880	13	3896
2026-01-22 05:04:27.26	355.35	12.17	-25.8	-26.9	16.0	0.00e+00	0	43	0	535822336	12	4107
2026-01-22 05:04:28.27	355.18	12.22	-25.9	-27.1	15.9	0.00e+00	0	44	0	541065216	12	4158
2026-01-22 05:04:29.27	355.01	12.27	-25.9	-27.2	15.8	0.00e+00	0	44	0	546308096	12	4180
2026-01-22 05:04:30.27	354.85	12.32	-25.9	-27.3	15.8	0.00e+00	0	43	0	552599552	12	4196
2026-01-22 05:04:31.27	354.68	12.36	-26.0	-27.4	15.7	0.00e+00	0	44	0	557842432	12	4228
2026-01-22 05:04:32.27	354.51	12.41	-26.0	-27.5	15.6	0.00e+00	0	44	0	564133888	12	4264
2026-01-22 05:04:33.28	354.34	12.46	-26.0	-27.4	15.7	0.00e+00	0	44	0	569376768	12	4218
2026-01-22 05:04:34.29	354.17	12.51	-26.0	-27.4	15.7	0.00e+00	0	44	0	574619648	12	4242
2026-01-22 05:04:35.29	354.00	12.55	-26.0	-27.4	15.7	0.00e+00	0	44	0	580911104	12	4238
2026-01-22 05:04:36.30	353.83	12.60	-25.9	-27.2	15.8	0.00e+00	0	44	0	586153984	12	4192
2026-01-22 05:04:37.30	353.66	12.65	-26.0	-27.4	15.8	0.00e+00	0	44	0	591396864	12	4219
2026-01-22 05:04:38.31	353.48	12.70	-26.0	-27.5	15.7	0.00e+00	0	43	0	597688320	12	4267
2026-01-22 05:04:39.31	353.31	12.74	-25.9	-27.2	15.8	0.00e+00	0	44	0	602931200	12	4184
2026-01-22 05:04:40.31	353.14	12.79	-25.9	-27.1	15.9	0.00e+00	0	43	0	609222656	12	4155
2026-01-22 05:04:41.31	352.97	12.83	-25.9	-27.1	15.9	0.00e+00	0	44	0	614465536	12	4150
2026-01-22 05:04:42.31	352.79	12.88	-25.8	-26.9	16.0	0.00e+00	0	44	0	619708416	12	4105
2026-01-22 05:04:43.31	352.62	12.93	-25.8	-26.9	16.0	0.00e+00	0	43	0	625999872	12	4110
2026-01-22 05:04:44.32	352.44	12.97	-25.7	-26.8	16.1	0.00e+00	0	44	0	631242752	12	4061
2026-01-22 05:04:45.32	352.27	13.02	-25.7	-26.7	16.1	0.00e+00	0	43	0	637534208	12	4050
2026-01-22 05:04:46.33	352.09	13.06	-25.8	-27.0	16.0	0.00e+00	0	43	0	642777088	12	4128
2026-01-22 05:04:47.33	351.91	13.11	-25.9	-27.1	15.9	0.00e+00	0	44	0	648019968	12	4164
2026-01-22 05:04:48.33	351.74	13.15	-26.0	-27.5	15.7	0.00e+00	0	44	0	654311424	12	4246
2026-01-22 05:04:49.33	351.56	13.20	-26.1	-27.6	15.6	0.00e+00	0	44	0	659554304	12	4292
2026-01-22 05:04:50.33	351.38	13.24	-26.0	-27.4	15.7	0.00e+00	0	44	0	664797184	12	4239
2026-01-22 05:04:51.33	351.20	13.29	-26.0	-27.5	15.7	0.00e+00	0	44	0	671088640	12	4248
2026-01-22 05:04:52.34	351.02	13.33	-26.0	-27.4	15.8	0.00e+00	0	44	0	676331520	12	4226
2026-01-22 05:04:53.34	350.84	13.38	-25.9	-27.1	16.0	0.00e+00	0	44	0	681574400	12	4150
2026-01-22 05:04:54.35	350.66	13.42	-25.8	-26.9	16.1	0.00e+00	0	44	0	687865856	12	4091
2026-01-22 05:04:55.34	350.48	13.46	-25.8	-26.9	16.1	0.00e+00	0	44	0	693108736	12	4088
2026-01-22 05:04:56.35	350.30	13.51	-25.7	-26.7	16.2	0.00e+00	0	44	0	699400192	12	4032
2026-01-22 05:04:57.35	350.11	13.55	-25.7	-26.8	16.1	0.00e+00	0	44	0	704643072	12	4071
2026-01-22 05:04:58.35	349.93	13.59	-25.7	-26.6	16.2	0.00e+00	0	44	0	709885952	12	4026
2026-01-22 05:04:59.36	349.75	13.64	-25.7	-26.7	16.2	0.00e+00	0	44	0	716177408	12	4040
2026-01-22 05:05:00.37	349.56	13.68	-25.8	-26.9	16.1	0.00e+00	0	44	0	721420288	12	4105
2026-01-22 05:05:01.37	349.38	13.72	-25.8	-27.0	16.0	0.00e+00	0	44	0	727711744	12	4130
2026-01-22 05:05:02.37	349.19	13.76	-25.9	-27.2	15.9	0.00e+00	0	44	0	732954624	12	4184
2026-01-22 05:05:03.37	349.01	13.81	-25.9	-27.3	15.9	0.00e+00	0	44	0	738197504	12	4192
2026-01-22 05:05:04.38	348.82	13.85	-25.9	-27.1	16.0	0.00e+00	0	44	0	744488960	12	4141
2026-01-22 05:05:05.37	348.64	13.89	-25.8	-27.0	16.0	0.00e+00	0	44	0	749731840	12	4132
2026-01-22 05:05:06.38	348.45	13.93	-25.9	-27.2	15.9	0.00e+00	0	44	0	754974720	12	4189
2026-01-22 05:05:07.38	348.26	13.97	-26.0	-27.3	15.9	0.00e+00	0	44	0	761266176	12	4198
2026-01-22 05:05:08.38	348.07	14.01	-25.8	-27.0	16.1	0.00e+00	0	44	0	766509056	12	4116
2026-01-22 05:05:09.39	347.88	14.05	-25.9	-27.1	16.0	0.00e+00	0	44	0	772800512	12	4155
2026-01-22 05:05:10.39	347.69	14.09	-25.9	-27.1	16.0	0.00e+00	0	44	0	778043392	12	4145
2026-01-22 05:05:11.39	347.50	14.13	-25.7	-26.7	16.2	0.00e+00	0	44	0	783286272	12	4043
2026-01-22 05:05:12.39	347.31	14.17	-25.5	-26.4	16.4	0.00e+00	0	44	0	789577728	12	3968
2026-01-22 05:05:13.39	347.12	14.21	-25.5	-26.4	16.4	0.00e+00	0	44	0	794820608	12	3965
2026-01-22 05:05:14.40	346.93	14.25	-25.5	-26.4	16.4	0.00e+00	0	44	0	800063488	12	3956
2026-01-22 05:05:15.40	346.74	14.29	-25.4	-26.2	16.5	0.00e+00	0	44	0	806354944	12	3912
2026-01-22 05:05:16.40	346.55	14.33	-25.4	-26.0	16.6	0.00e+00	0	44	0	811597824	12	3861
2026-01-22 05:05:17.39	346.36	14.37	-25.4	-26.2	16.5	0.00e+00	0	44	0	816840704	12	3908
2026-01-22 05:05:18.40	346.16	14.41	-25.4	-26.2	16.5	0.00e+00	0	44	0	823132160	12	3917
2026-01-22 05:05:19.39	345.97	14.44	-25.4	-26.0	16.6	0.00e+00	0	44	0	828375040	12	3876
2026-01-22 05:05:20.39	345.78	14.48	-25.3	-25.9	16.7	0.00e+00	0	44	0	834666496	12	3840
2026-01-22 05:05:21.39	345.58	14.52	-25.4	-26.1	16.5	0.00e+00	0	44	0	839909376	12	3895
2026-01-22 05:05:22.39	345.39	14.56	-25.5	-26.4	16.4	0.00e+00	0	44	0	845152256	12	3958
2026-01-22 05:05:23.39	345.19	14.59	-25.6	-26.4	16.4	0.00e+00	0	44	0	851443712	12	3970
2026-01-22 05:05:24.39	344.99	14.63	-25.4	-26.1	16.5	0.00e+00	0	44	0	856686592	12	3907
2026-01-22 05:05:25.39	344.80	14.67	-25.4	-26.0	16.6	0.00e+00	0	44	0	861929472	12	3874
2026-01-22 05:05:26.39	344.60	14.70	-25.4	-26.1	16.5	0.00e+00	0	44	0	868220928	12	3901
2026-01-22 05:05:27.40	344.40	14.74	-25.4	-26.1	16.5	0.00e+00	0	44	0	873463808	12	3905
2026-01-22 05:05:28.41	344.20	14.77	-25.4	-26.0	16.6	0.00e+00	0	44	0	879755264	12	3880
2026-01-22 05:05:29.41	344.00	14.81	-25.3	-26.3	16.8	0.00e+00	0	44	0	884998144	11	4053
2026-01-22 05:05:30.41	343.80	14.84	-25.2	-26.1	16.9	0.00e+00	0	44	0	891289600	11	4009
2026-01-22 05:05:31.42	343.60	14.88	-25.3	-26.2	16.8	0.00e+00	0	44	0	896532480	11	4034
2026-01-22 05:05:32.43	343.40	14.91	-25.2	-26.2	16.8	0.00e+00	0	44	0	901775360	11	4023
2026-01-22 05:05:33.44	343.20	14.95	-25.0	-25.7	17.1	0.00e+00	0	44	0	908066816	11	3907
2026-01-22 05:05:34.44	343.00	14.98	-25.0	-25.7	17.1	0.00e+00	0	44	0	913309696	11	3903
2026-01-22 05:05:35.45	342.80	15.01	-25.1	-25.9	17.0	0.00e+00	0	44	0	918552576	11	3950
2026-01-22 05:05:36.45	342.59	15.05	-25.2	-26.1	16.9	0.00e+00	0	44	0	924844032	11	3994
2026-01-22 05:05:37.45	342.39	15.08	-25.2	-26.2	16.9	0.00e+00	0	44	0	930086912	11	4019
2026-01-22 05:05:38.45	342.19	15.11	-25.2	-26.2	16.9	0.00e+00	0	44	0	935329792	11	4014
2026-01-22 05:05:39.45	341.99	15.14	-25.1	-25.9	17.0	0.00e+00	0	44	0	941621248	11	3957
2026-01-22 05:05:40.46	341.78	15.18	-25.0	-25.6	17.2	0.00e+00	0	44	0	946864128	11	3876
2026-01-22 05:05:41.46	341.58	15.21	-24.9	-25.6	17.2	0.00e+00	0	44	0	953155584	11	3862
2026-01-22 05:05:42.47	341.37	15.24	-24.9	-25.5	17.2	0.00e+00	0	44	0	958398464	11	3842
2026-01-22 05:05:43.47	341.17	15.27	-24.9	-25.5	17.2	0.00e+00	0	44	0	964689920	11	3849
2026-01-22 05:05:44.47	340.96	15.30	-24.9	-25.5	17.2	0.00e+00	0	44	0	969932800	11	3860
2026-01-22 05:05:45.47	340.75	15.33	-25.0	-25.7	17.2	0.00e+00	0	44	0	975175680	11	3891
2026-01-22 05:05:46.48	340.55	15.36	-25.0	-25.7	17.1	0.00e+00	0	44	0	981467136	11	3909
2026-01-22 05:05:47.48	340.34	15.39	-25.0	-25.8	17.1	0.00e+00	0	44	0	986710016	11	3913
2026-01-22 05:05:48.48	340.13	15.42	-25.1	-25.8	17.1	0.00e+00	0	44	0	991952896	11	3927
2026-01-22 05:05:49.49	339.92	15.45	-25.1	-25.9	17.0	0.00e+00	0	44	0	998244352	11	3937
2026-01-22 05:05:50.49	339.72	15.48	-25.2	-26.0	16.9	0.00e+00	0	44	0	1003487232	11	3978
2026-01-22 05:05:51.50	339.51	15.50	-25.2	-26.2	16.9	0.00e+00	0	44	0	1008730112	11	4024
2026-01-22 05:05:52.50	339.30	15.53	-25.2	-26.2	16.9	0.00e+00	0	44	0	1015021568	11	4028
2026-01-22 05:05:53.51	339.09	15.56	-25.3	-26.3	16.9	0.00e+00	0	44	0	1020264448	11	4038
2026-01-22 05:05:54.51	338.88	15.59	-25.4	-26.5	16.7	3.40e-06	0	44	0	1026555904	11	4086
2026-01-22 05:05:55.51	338.67	15.61	-25.3	-26.4	16.8	0.00e+00	0	44	0	1031798784	11	4063
2026-01-22 05:05:56.52	338.46	15.64	-25.2	-26.0	16.9	0.00e+00	0	44	0	1038090240	11	3977
2026-01-22 05:05:57.52	338.25	15.66	-25.1	-25.9	17.0	0.00e+00	0	44	0	1043333120	11	3941
2026-01-22 05:05:58.53	338.03	15.69	-25.1	-25.8	17.1	0.00e+00	0	44	0	1048576000	11	3927
2026-01-22 05:05:59.53	337.82	15.72	-25.0	-25.6	17.2	0.00e+00	0	44	0	1054867456	11	3882
2026-01-22 05:06:00.54	337.61	15.74	-24.9	-25.5	17.3	0.00e+00	0	44	0	1060110336	11	3847
2026-01-22 05:06:01.55	337.39	15.77	-25.1	-25.8	17.1	0.00e+00	0	44	0	1065353216	11	3918
2026-01-22 05:06:02.55	337.18	15.79	-25.1	-25.9	17.1	0.00e+00	0	44	0	1071644672	11	3939
2026-01-22 05:06:03.55	336.97	15.81	-25.0	-25.7	17.2	0.00e+00	0	44	0	1076887552	11	3893
2026-01-22 05:06:04.56	336.75	15.84	-25.0	-25.6	17.2	0.00e+00	0	44	0	1082130432	11	3885
2026-01-22 05:06:05.56	336.54	15.86	-25.0	-25.7	17.1	0.00e+00	0	44	0	1088421888	11	3910
2026-01-22 05:06:06.56	336.33	15.88	-25.0	-25.7	17.2	0.00e+00	0	44	0	1093664768	11	3886
2026-01-22 05:06:07.57	336.11	15.90	-25.0	-25.6	17.2	0.00e+00	0	44	0	1099956224	11	3885
2026-01-22 05:06:08.57	335.90	15.93	-24.9	-25.5	17.3	0.00e+00	0	44	0	1105199104	11	3848
2026-01-22 05:06:09.58	335.68	15.95	-24.8	-25.3	17.4	0.00e+00	0	44	0	1111490560	11	3796
2026-01-22 05:06:10.58	335.46	15.97	-24.8	-25.3	17.4	0.00e+00	0	44	0	1116733440	11	3811
2026-01-22 05:06:11.58	335.25	15.99	-24.8	-25.3	17.3	0.00e+00	0	44	0	1121976320	11	3814
2026-01-22 05:06:12.59	335.03	16.01	-24.8	-25.4	17.3	0.00e+00	0	44	0	1128267776	11	3817
2026-01-22 05:06:13.59	334.82	16.03	-24.8	-25.3	17.4	0.00e+00	0	44	0	1133510656	11	3803
2026-01-22 05:06:14.60	334.60	16.05	-24.8	-25.3	17.4	0.00e+00	0	44	0	1138753536	11	3811
2026-01-22 05:06:15.60	334.38	16.07	-24.8	-25.2	17.4	0.00e+00	0	44	0	1145044992	11	3782
2026-01-22 05:06:16.61	334.16	16.09	-24.8	-25.7	17.4	0.00e+00	0	44	0	1150287872	10	4015
2026-01-22 05:06:17.61	333.95	16.10	-24.9	-25.9	17.3	0.00e+00	0	44	0	1155530752	10	4040
2026-01-22 05:06:18.61	333.73	16.12	-24.9	-26.1	17.2	0.00e+00	0	44	0	1161822208	10	4092
2026-01-22 05:06:19.62	333.51	16.14	-25.1	-26.5	17.0	0.00e+00	0	44	0	1167065088	10	4199
2026-01-22 05:06:20.62	333.29	16.16	-25.2	-26.6	16.9	0.00e+00	0	44	0	1173356544	10	4237
2026-01-22 05:06:21.62	333.07	16.17	-25.2	-26.6	16.9	0.00e+00	0	44	0	1178599424	10	4228
2026-01-22 05:06:22.62	332.86	16.19	-25.0	-26.3	17.1	0.00e+00	0	44	0	1184890880	10	4154
2026-01-22 05:06:23.63	332.64	16.20	-24.9	-26.0	17.3	0.00e+00	0	44	0	1190133760	10	4073
2026-01-22 05:06:24.64	332.41	16.22	-24.8	-25.8	17.4	0.00e+00	0	44	0	1195376640	10	4031
2026-01-22 05:06:25.64	332.20	16.23	-24.8	-25.8	17.4	0.00e+00	0	44	0	1201668096	10	4027
2026-01-22 05:06:26.64	331.98	16.25	-25.0	-26.3	17.1	1.10e-06	0	44	0	1206910976	10	4140
2026-01-22 05:06:27.64	331.76	16.26	-25.1	-26.5	17.0	0.00e+00	0	44	0	1212153856	10	4199
2026-01-22 05:06:28.64	331.54	16.28	-25.2	-26.5	17.0	0.00e+00	0	44	0	1218445312	10	4216
2026-01-22 05:06:29.64	331.32	16.29	-25.2	-26.5	17.0	0.00e+00	0	44	0	1223688192	10	4219
2026-01-22 05:06:30.64	331.10	16.30	-25.0	-26.3	17.1	0.00e+00	0	44	0	1228931072	10	4146
2026-01-22 05:06:31.64	330.88	16.32	-24.8	-25.8	17.3	0.00e+00	0	44	0	1235222528	10	4040
2026-01-22 05:06:32.64	330.66	16.33	-24.8	-25.8	17.3	0.00e+00	0	44	0	1240465408	10	4036
2026-01-22 05:06:33.64	330.44	16.34	-24.9	-25.9	17.3	0.00e+00	0	44	0	1246756864	10	4042
2026-01-22 05:06:34.64	330.22	16.35	-25.0	-26.3	17.1	0.00e+00	0	44	0	1251999744	10	4140
2026-01-22 05:06:35.64	330.00	16.36	-25.0	-26.3	17.1	0.00e+00	0	44	0	1257242624	10	4148
2026-01-22 05:06:36.64	329.78	16.37	-24.9	-25.9	17.3	0.00e+00	0	44	0	1263534080	10	4066
2026-01-22 05:06:37.64	329.55	16.38	-24.8	-25.8	17.4	0.00e+00	0	44	0	1268776960	10	4020
2026-01-22 05:06:38.65	329.33	16.39	-24.7	-25.5	17.5	0.00e+00	0	44	0	1274019840	10	3964
2026-01-22 05:06:39.66	329.11	16.40	-24.7	-25.5	17.5	0.00e+00	0	44	0	1280311296	10	3952
2026-01-22 05:06:40.66	328.89	16.41	-24.6	-25.4	17.6	0.00e+00	0	44	0	1285554176	10	3921
2026-01-22 05:06:41.66	328.66	16.42	-24.6	-25.4	17.6	0.00e+00	0	44	0	1291845632	10	3925
2026-01-22 05:06:42.67	328.44	16.42	-24.7	-25.6	17.4	0.00e+00	0	44	0	1297088512	10	3990
2026-01-22 05:06:43.67	328.22	16.43	-24.8	-25.7	17.4	0.00e+00	0	44	0	1302331392	10	3999
2026-01-22 05:06:44.68	327.99	16.44	-24.8	-25.8	17.3	0.00e+00	0	44	0	1308622848	10	4034
2026-01-22 05:06:45.68	327.77	16.44	-25.0	-26.2	17.1	0.00e+00	0	44	0	1313865728	10	4129
2026-01-22 05:06:46.68	327.55	16.45	-24.9	-25.9	17.3	0.00e+00	0	44	0	1320157184	10	4069
2026-01-22 05:06:47.69	327.33	16.45	-24.6	-25.4	17.6	0.00e+00	0	44	0	1325400064	10	3927
2026-01-22 05:06:48.68	327.11	16.46	-24.5	-25.1	17.8	0.00e+00	0	44	0	1330642944	10	3852
2026-01-22 05:06:49.69	326.88	16.46	-24.6	-25.3	17.6	0.00e+00	0	44	0	1336934400	10	3900
2026-01-22 05:06:50.69	326.66	16.47	-24.6	-25.3	17.6	0.00e+00	0	44	0	1342177280	10	3899
2026-01-22 05:06:51.70	326.43	16.47	-24.6	-25.3	17.6	0.00e+00	0	44	0	1347420160	10	3907
2026-01-22 05:06:52.70	326.21	16.48	-24.7	-25.5	17.5	0.00e+00	0	44	0	1353711616	10	3952
2026-01-22 05:06:53.71	325.99	16.48	-24.6	-25.4	17.6	0.00e+00	0	44	0	1358954496	10	3924
2026-01-22 05:06:54.71	325.76	16.48	-24.5	-25.2	17.7	0.00e+00	0	44	0	1365245952	10	3875
2026-01-22 05:06:55.72	325.54	16.48	-24.5	-25.2	17.7	0.00e+00	0	44	0	1370488832	10	3872
2026-01-22 05:06:56.73	325.31	16.48	-24.6	-25.3	17.6	0.00e+00	0	44	0	1375731712	10	3900
2026-01-22 05:06:57.73	325.09	16.48	-24.6	-25.3	17.6	0.00e+00	0	44	0	1382023168	10	3910
2026-01-22 05:06:58.73	324.87	16.49	-24.6	-25.4	17.6	0.00e+00	0	44	0	1387266048	10	3926
2026-01-22 05:06:59.72	324.65	16.49	-24.6	-25.3	17.6	0.00e+00	0	44	0	1393557504	10	3906
2026-01-22 05:07:00.72	324.43	16.49	-24.6	-25.3	17.6	1.10e-06	0	44	0	1398800384	10	3920
2026-01-22 05:07:01.72	324.20	16.48	-24.7	-25.5	17.5	0.00e+00	0	44	0	1404043264	10	3945
2026-01-22 05:07:02.72	323.98	16.48	-24.7	-25.5	17.5	0.00e+00	0	44	0	1410334720	10	3965
2026-01-22 05:07:03.72	323.76	16.48	-24.7	-25.5	17.5	0.00e+00	0	44	0	1415577600	10	3943
2026-01-22 05:07:04.72	323.53	16.48	-24.6	-25.4	17.5	1.10e-06	0	44	0	1420820480	10	3938
2026-01-22 05:07:05.72	323.31	16.48	-24.7	-25.6	17.5	0.00e+00	0	44	0	1427111936	10	3985
2026-01-22 05:07:06.72	323.09	16.47	-24.8	-25.7	17.4	0.00e+00	0	44	0	1432354816	10	4007
2026-01-22 05:07:07.72	322.87	16.47	-24.8	-25.7	17.4	0.00e+00	0	44	0	1437597696	10	3996
2026-01-22 05:07:08.72	322.64	16.47	-24.8	-25.7	17.4	0.00e+00	0	44	0	1443889152	10	4010
2026-01-22 05:07:09.73	322.42	16.46	-24.8	-25.8	17.4	0.00e+00	0	44	0	1449132032	10	4014
2026-01-22 05:07:10.73	322.20	16.46	-24.9	-26.1	17.2	0.00e+00	0	44	0	1455423488	10	4094
2026-01-22 05:07:11.74	321.97	16.45	-24.9	-26.0	17.2	0.00e+00	0	44	0	1460666368	10	4091
2026-01-22 05:07:12.75	321.75	16.45	-25.0	-26.1	17.2	0.00e+00	0	44	0	1465909248	10	4116
2026-01-22 05:07:13.75	321.53	16.44	-24.9	-26.0	17.3	0.00e+00	0	44	0	1472200704	10	4070
2026-01-22 05:07:14.76	321.30	16.43	-24.8	-25.9	17.3	0.00e+00	0	44	0	1477443584	10	4045
2026-01-22 05:07:15.77	321.08	16.43	-24.9	-25.9	17.3	0.00e+00	0	44	0	1483735040	10	4043
2026-01-22 05:07:16.77	320.85	16.42	-25.0	-26.3	17.1	0.00e+00	0	44	0	1488977920	10	4159
2026-01-22 05:07:17.77	320.63	16.41	-25.0	-26.1	17.1	0.00e+00	0	44	0	1494220800	10	4115
2026-01-22 05:07:18.77	320.41	16.40	-24.8	-25.8	17.4	0.00e+00	0	44	0	1500512256	10	4017
2026-01-22 05:07:19.78	320.19	16.40	-24.7	-25.6	17.5	0.00e+00	0	44	0	1505755136	10	3971
2026-01-22 05:07:20.78	319.97	16.39	-24.7	-25.5	17.5	0.00e+00	0	44	0	1510998016	10	3948
2026-01-22 05:07:21.78	319.74	16.38	-24.7	-25.6	17.4	0.00e+00	0	44	0	1517289472	10	3983
2026-01-22 05:07:22.79	319.52	16.37	-24.6	-25.4	17.5	0.00e+00	0	44	0	1522532352	10	3932
2026-01-22 05:07:23.79	319.30	16.36	-24.7	-25.5	17.5	0.00e+00	0	44	0	1528823808	10	3949
2026-01-22 05:07:24.80	319.08	16.35	-24.7	-25.4	17.5	0.00e+00	0	44	0	1534066688	10	3938
2026-01-22 05:07:25.80	318.86	16.33	-24.7	-25.6	17.5	0.00e+00	0	44	0	1539309568	10	3973
2026-01-22 05:07:26.80	318.64	16.32	-24.7	-25.6	17.4	0.00e+00	0	44	0	1545601024	10	3979
2026-01-22 05:07:27.80	318.42	16.31	-24.8	-25.7	17.4	0.00e+00	0	44	0	1550843904	10	4005
2026-01-22 05:07:28.81	318.19	16.30	-24.7	-25.6	17.4	0.00e+00	0	44	0	1557135360	10	3981
2026-01-22 05:07:29.82	317.97	16.29	-24.6	-25.4	17.6	0.00e+00	0	44	0	1562378240	10	3930
2026-01-22 05:07:30.82	317.75	16.27	-24.6	-25.4	17.6	0.00e+00	0	44	0	1567621120	10	3935
2026-01-22 05:07:31.82	317.53	16.26	-24.8	-25.7	17.4	0.00e+00	0	44	0	1573912576	10	4003
2026-01-22 05:07:32.83	317.31	16.24	-24.7	-25.5	17.5	0.00e+00	0	44	0	1579155456	10	3958
2026-01-22 05:07:33.83	317.09	16.23	-24.6	-25.3	17.6	0.00e+00	0	44	0	1584398336	10	3913
2026-01-22 05:07:34.84	316.87	16.21	-24.6	-25.4	17.6	0.00e+00	0	44	0	1590689792	10	3921
2026-01-22 05:07:35.83	316.65	16.20	-24.6	-25.4	17.6	0.00e+00	0	44	0	1595932672	10	3923
2026-01-22 05:07:36.83	316.43	16.18	-24.7	-25.5	17.5	0.00e+00	0	44	0	1602224128	10	3967
2026-01-22 05:07:37.84	316.21	16.17	-24.7	-25.5	17.5	0.00e+00	0	44	0	1607467008	10	3964
2026-01-22 05:07:38.84	316.00	16.15	-24.8	-25.7	17.4	0.00e+00	0	44	0	1612709888	10	4001
2026-01-22 05:07:39.84	315.78	16.13	-24.8	-25.7	17.4	0.00e+00	0	44	0	1619001344	10	4002
2026-01-22 05:07:40.85	315.56	16.11	-24.8	-25.8	17.4	0.00e+00	0	44	0	1624244224	10	4019
2026-01-22 05:07:41.84	315.34	16.10	-24.9	-26.0	17.2	0.00e+00	0	44	0	1629487104	10	4090
2026-01-22 05:07:42.85	315.12	16.08	-24.8	-25.7	17.4	0.00e+00	0	44	0	1635778560	10	4004
2026-01-22 05:07:43.85	314.91	16.06	-24.7	-25.6	17.4	0.00e+00	0	44	0	1641021440	10	3980
2026-01-22 05:07:44.85	314.69	16.04	-24.9	-25.9	17.3	0.00e+00	0	44	0	1646264320	10	4057
2026-01-22 05:07:45.86	314.47	16.02	-24.8	-25.8	17.3	0.00e+00	0	44	0	1652555776	10	4023
2026-01-22 05:07:46.86	314.26	16.00	-24.7	-25.4	17.5	0.00e+00	0	44	0	1657798656	10	3942
2026-01-22 05:07:47.86	314.04	15.98	-24.6	-25.3	17.6	0.00e+00	0	44	0	1664090112	10	3904
2026-01-22 05:07:48.87	313.82	15.96	-24.7	-25.6	17.4	0.00e+00	0	44	0	1669332992	10	3988
2026-01-22 05:07:49.87	313.61	15.94	-24.8	-25.7	17.4	0.00e+00	0	44	0	1675624448	10	4011
2026-01-22 05:07:50.87	313.39	15.92	-25.0	-26.2	17.1	0.00e+00	0	44	0	1680867328	10	4134
2026-01-22 05:07:51.87	313.18	15.90	-25.0	-26.1	17.1	0.00e+00	0	44	0	1686110208	10	4118
2026-01-22 05:07:52.87	312.97	15.87	-24.9	-26.0	17.2	0.00e+00	0	44	0	1692401664	10	4073
2026-01-22 05:07:53.88	312.75	15.85	-24.9	-26.0	17.2	0.00e+00	0	44	0	1697644544	10	4074
2026-01-22 05:07:54.88	312.54	15.83	-24.8	-25.7	17.4	0.00e+00	0	44	0	1702887424	10	4008
2026-01-22 05:07:55.88	312.32	15.80	-24.8	-25.7	17.4	0.00e+00	0	44	0	1709178880	10	3998
2026-01-22 05:07:56.88	312.11	15.78	-24.9	-25.9	17.3	0.00e+00	0	44	0	1714421760	10	4048
2026-01-22 05:07:57.88	311.90	15.76	-24.8	-25.7	17.4	0.00e+00	0	44	0	1719664640	10	3996
2026-01-22 05:07:58.91	311.68	15.73	-24.7	-25.6	17.4	0.00e+00	0	44	0	1725956096	10	3986
2026-01-22 05:07:59.91	311.47	15.71	-24.8	-25.8	17.3	0.00e+00	0	44	0	1731198976	10	4032
2026-01-22 05:08:00.91	311.26	15.68	-24.7	-25.6	17.4	0.00e+00	0	44	0	1737490432	10	3983
2026-01-22 05:08:01.91	311.05	15.66	-24.8	-25.7	17.4	0.00e+00	0	44	0	1742733312	10	4004
2026-01-22 05:08:02.92	310.83	15.63	-24.8	-25.7	17.4	0.00e+00	0	44	0	1747976192	10	3996
2026-01-22 05:08:03.92	310.62	15.60	-24.9	-25.9	17.2	0.00e+00	0	44	0	1754267648	10	4067
2026-01-22 05:08:04.93	310.41	15.58	-25.1	-26.4	17.0	0.00e+00	0	44	0	1759510528	10	4188
2026-01-22 05:08:05.94	310.20	15.55	-25.0	-26.3	17.0	0.00e+00	0	44	0	1765801984	10	4151
2026-01-22 05:08:06.94	309.99	15.52	-25.0	-26.2	17.1	0.00e+00	0	44	0	1771044864	10	4129
2026-01-22 05:08:07.94	309.78	15.49	-25.0	-26.2	17.1	0.00e+00	0	44	0	1776287744	10	4121
2026-01-22 05:08:08.95	309.57	15.46	-24.9	-26.0	17.2	0.00e+00	0	44	0	1782579200	10	4068
2026-01-22 05:08:09.95	309.36	15.44	-24.9	-26.0	17.2	2.20e-06	0	44	0	1787822080	10	4083
2026-01-22 05:08:10.95	309.16	15.41	-25.0	-26.3	17.0	0.00e+00	0	44	0	1793064960	10	4148
2026-01-22 05:08:11.95	308.95	15.38	-25.1	-26.3	17.0	0.00e+00	0	44	0	1799356416	10	4157
2026-01-22 05:08:12.96	308.74	15.35	-25.2	-26.6	16.9	0.00e+00	0	44	0	1804599296	10	4225
2026-01-22 05:08:13.96	308.53	15.32	-25.2	-26.6	16.8	0.00e+00	0	44	0	1810890752	10	4236
2026-01-22 05:08:14.97	308.33	15.29	-25.3	-26.8	16.7	0.00e+00	0	44	0	1816133632	10	4291
2026-01-22 05:08:15.98	308.12	15.26	-25.2	-26.6	16.8	0.00e+00	0	44	0	1821376512	10	4236
2026-01-22 05:08:16.98	307.91	15.23	-25.1	-26.5	16.9	0.00e+00	0	44	0	1827667968	10	4217
2026-01-22 05:08:17.98	307.71	15.19	-25.2	-26.7	16.8	0.00e+00	0	44	0	1832910848	10	4268
2026-01-22 05:08:18.98	307.50	15.16	-25.2	-26.6	16.8	0.00e+00	0	44	0	1839202304	10	4243
2026-01-22 05:08:19.98	307.30	15.13	-25.6	-26.9	16.4	0.00e+00	0	44	0	1844445184	11	4205
2026-01-22 05:08:20.98	307.10	15.10	-25.4	-26.6	16.6	0.00e+00	0	44	0	1849688064	11	4122
2026-01-22 05:08:21.99	306.89	15.07	-25.3	-26.3	16.7	0.00e+00	0	44	0	1855979520	11	4061
2026-01-22 05:08:22.99	306.69	15.03	-25.2	-26.2	16.8	0.00e+00	0	44	0	1861222400	11	4035
2026-01-22 05:08:23.98	306.49	15.00	-25.2	-26.2	16.8	0.00e+00	0	44	0	1867513856	11	4014
2026-01-22 05:08:24.98	306.29	14.97	-25.0	-25.8	17.0	0.00e+00	0	44	0	1872756736	11	3924
2026-01-22 05:08:25.99	306.09	14.93	-25.0	-25.7	17.0	0.00e+00	0	44	0	1877999616	11	3894
2026-01-22 05:08:26.99	305.88	14.90	-25.1	-26.0	16.9	0.00e+00	0	44	0	1884291072	11	3971
2026-01-22 05:08:27.99	305.68	14.86	-25.1	-25.9	16.9	0.00e+00	0	44	0	1889533952	11	3955
2026-01-22 05:08:29.00	305.48	14.83	-25.3	-26.3	16.7	0.00e+00	0	44	0	1894776832	11	4062
2026-01-22 05:08:30.00	305.28	14.80	-25.2	-26.2	16.8	0.00e+00	0	44	0	1901068288	11	4016
2026-01-22 05:08:31.01	305.08	14.76	-25.2	-26.2	16.8	0.00e+00	0	44	0	1906311168	11	4024
2026-01-22 05:08:32.01	304.88	14.72	-25.1	-26.0	16.9	0.00e+00	0	44	0	1911554048	11	3968
2026-01-22 05:08:33.02	304.69	14.69	-25.3	-26.3	16.7	0.00e+00	0	44	0	1917845504	11	4040
2026-01-22 05:08:34.03	304.49	14.65	-25.1	-26.0	16.9	0.00e+00	0	44	0	1923088384	11	3962
2026-01-22 05:08:35.03	304.29	14.61	-25.1	-26.0	16.9	0.00e+00	0	44	0	1929379840	11	3974
2026-01-22 05:08:36.03	304.09	14.58	-25.3	-26.3	16.7	0.00e+00	0	44	0	1934622720	11	4062
2026-01-22 05:08:37.04	303.90	14.54	-25.2	-26.2	16.7	0.00e+00	0	44	0	1940914176	11	4035
2026-01-22 05:08:38.05	303.70	14.50	-25.3	-26.4	16.7	0.00e+00	0	44	0	1946157056	11	4068
2026-01-22 05:08:39.05	303.50	14.47	-25.5	-26.8	16.4	0.00e+00	0	44	0	1951399936	11	4166
2026-01-22 05:08:40.06	303.31	14.43	-25.4	-26.5	16.6	0.00e+00	0	44	0	1957691392	11	4094
2026-01-22 05:08:41.06	303.11	14.39	-25.3	-26.4	16.6	0.00e+00	0	44	0	1962934272	11	4066
2026-01-22 05:08:42.06	302.92	14.35	-25.3	-26.4	16.6	0.00e+00	0	44	0	1968177152	11	4077
2026-01-22 05:08:43.06	302.73	14.31	-25.4	-26.5	16.6	0.00e+00	0	44	0	1974468608	11	4104
2026-01-22 05:08:44.07	302.53	14.27	-25.3	-26.4	16.6	0.00e+00	0	44	0	1979711488	11	4071
2026-01-22 05:08:45.07	302.34	14.23	-25.4	-26.6	16.5	0.00e+00	0	44	0	1984954368	11	4134
2026-01-22 05:08:46.07	302.15	14.19	-25.3	-26.4	16.6	0.00e+00	0	44	0	1991245824	11	4070
2026-01-22 05:08:47.07	301.96	14.15	-25.4	-26.5	16.5	0.00e+00	0	44	0	1996488704	11	4102
2026-01-22 05:08:48.08	301.77	14.11	-25.4	-26.6	16.5	0.00e+00	0	44	0	2002780160	11	4137
2026-01-22 05:08:49.08	301.58	14.07	-25.4	-26.6	16.5	0.00e+00	0	44	0	2008023040	11	4139
2026-01-22 05:08:50.09	301.39	14.03	-25.4	-26.5	16.5	0.00e+00	0	44	0	2014314496	11	4111
2026-01-22 05:08:51.09	301.20	13.99	-25.4	-26.5	16.6	0.00e+00	0	44	0	2019557376	11	4099
2026-01-22 05:08:52.10	301.01	13.95	-25.5	-26.7	16.5	0.00e+00	0	44	0	2024800256	11	4154
2026-01-22 05:08:53.10	300.82	13.91	-25.3	-26.3	16.6	0.00e+00	0	45	0	2031091712	11	4049
2026-01-22 05:08:54.10	300.63	13.87	-25.2	-26.1	16.7	0.00e+00	0	44	0	2036334592	11	4012
2026-01-22 05:08:55.10	300.45	13.83	-25.3	-26.3	16.7	0.00e+00	0	44	0	2041577472	11	4044
2026-01-22 05:08:56.10	300.26	13.79	-25.4	-26.6	16.5	0.00e+00	0	44	0	2047868928	11	4134
2026-01-22 05:08:57.11	300.07	13.74	-25.4	-26.7	16.5	0.00e+00	0	44	0	2053111808	11	4148
2026-01-22 05:08:58.12	299.89	13.70	-25.5	-26.8	16.4	0.00e+00	0	44	0	2058354688	11	4188
2026-01-22 05:08:59.12	299.70	13.66	-25.5	-26.9	16.3	4.50e-06	0	44	0	2064646144	11	4203
2026-01-22 05:09:00.12	299.52	13.62	-25.6	-26.9	16.3	0.00e+00	0	44	0	2069889024	11	4208
2026-01-22 05:09:01.13	299.33	13.57	-25.6	-27.0	16.2	0.00e+00	0	44	0	2076180480	11	4241
2026-01-22 05:09:02.13	299.15	13.53	-25.5	-26.8	16.3	3.40e-06	0	44	0	2081423360	11	4190
2026-01-22 05:09:03.13	298.97	13.49	-25.5	-26.8	16.4	0.00e+00	0	44	0	2086666240	11	4179
2026-01-22 05:09:04.12	298.79	13.44	-25.5	-26.8	16.3	0.00e+00	0	44	0	2092957696	11	4187
2026-01-22 05:09:05.13	298.60	13.40	-25.7	-27.3	16.1	0.00e+00	0	44	0	2098200576	11	4317
2026-01-22 05:09:06.13	298.42	13.35	-25.5	-26.8	16.3	0.00e+00	0	44	0	2104492032	11	4185
2026-01-22 05:09:07.14	298.24	13.31	-25.4	-26.5	16.5	0.00e+00	0	44	0	2109734912	11	4114
2026-01-22 05:09:08.14	298.06	13.27	-25.3	-26.3	16.6	0.00e+00	0	44	0	2114977792	11	4062
2026-01-22 05:09:09.15	297.88	13.22	-25.3	-26.4	16.6	0.00e+00	0	44	0	2121269248	11	4070
2026-01-22 05:09:10.15	297.70	13.18	-25.3	-26.5	16.5	0.00e+00	0	44	0	2126512128	11	4096
2026-01-22 05:09:11.15	297.52	13.13	-25.5	-26.7	16.4	2.20e-06	0	44	0	2131755008	11	4166
2026-01-22 05:09:12.15	297.35	13.09	-25.4	-26.6	16.4	0.00e+00	0	44	0	2138046464	11	4130
2026-01-22 05:09:13.16	297.17	13.04	-25.5	-26.8	16.4	0.00e+00	0	44	0	2143289344	11	4169
2026-01-22 05:09:14.16	296.99	12.99	-25.6	-27.1	16.2	0.00e+00	0	44	0	2149580800	11	4254
2026-01-22 05:09:15.16	296.82	12.95	-25.5	-26.7	16.4	0.00e+00	0	44	0	2154823680	11	4149
2026-01-22 05:09:16.17	296.64	12.90	-25.4	-26.6	16.5	0.00e+00	0	44	0	2160066560	11	4117
2026-01-22 05:09:17.17	296.47	12.86	-25.5	-26.7	16.3	0.00e+00	0	44	0	2166358016	11	4163
2026-01-22 05:09:18.17	296.29	12.81	-25.5	-26.7	16.3	0.00e+00	0	44	0	2171600896	11	4165
2026-01-22 05:09:19.18	296.12	12.76	-25.6	-27.0	16.2	0.00e+00	0	44	0	2177892352	11	4229
2026-01-22 05:09:20.18	295.94	12.72	-25.7	-27.2	16.1	0.00e+00	0	44	0	2183135232	11	4292
2026-01-22 05:09:21.19	295.77	12.67	-25.7	-27.3	16.0	0.00e+00	0	44	0	2188378112	11	4313
2026-01-22 05:09:22.19	295.60	12.62	-25.7	-27.2	16.1	0.00e+00	0	44	0	2194669568	11	4295
2026-01-22 05:09:23.19	295.43	12.58	-25.7	-27.1	16.1	0.00e+00	0	44	0	2199912448	11	4274
2026-01-22 05:09:24.20	295.25	12.53	-25.9	-27.6	15.8	0.00e+00	0	44	0	2205155328	11	4410
2026-01-22 05:09:25.20	295.08	12.48	-26.0	-27.5	15.6	0.00e+00	0	44	0	2211446784	12	4254
2026-01-22 05:09:26.20	294.91	12.43	-26.1	-27.6	15.5	2.20e-06	0	44	0	2216689664	12	4276
2026-01-22 05:09:27.20	294.74	12.39	-26.2	-28.0	15.3	0.00e+00	0	44	0	2222981120	12	4388
2026-01-22 05:09:28.20	294.58	12.34	-26.3	-28.0	15.3	1.10e-06	0	44	0	2228224000	12	4402
2026-01-22 05:09:29.20	294.41	12.29	-26.3	-28.0	15.3	0.00e+00	0	44	0	2233466880	12	4405
2026-01-22 05:09:30.20	294.24	12.24	-26.6	-28.2	14.8	0.00e+00	0	44	0	2239758336	13	4345
2026-01-22 05:09:31.20	294.07	12.19	-26.4	-27.8	15.1	0.00e+00	0	44	0	2245001216	13	4240
2026-01-22 05:09:32.21	293.91	12.14	-26.5	-28.1	14.9	0.00e+00	0	44	0	2250244096	13	4329
2026-01-22 05:09:33.20	293.74	12.10	-26.4	-27.9	15.0	0.00e+00	0	44	0	2256535552	13	4263
2026-01-22 05:09:34.21	293.57	12.05	-26.2	-27.4	15.3	0.00e+00	0	44	0	2261778432	13	4120
2026-01-22 05:09:35.21	293.41	12.00	-26.0	-26.9	15.6	0.00e+00	0	44	0	2267021312	13	3992
2026-01-22 05:09:36.22	293.24	11.95	-25.9	-26.7	15.6	0.00e+00	0	44	0	2273312768	13	3960
2026-01-22 05:09:37.22	293.08	11.90	-25.9	-26.8	15.6	0.00e+00	0	44	0	2278555648	13	3986
2026-01-22 05:09:38.23	292.92	11.85	-26.0	-26.9	15.6	0.00e+00	0	44	0	2284847104	13	3990
2026-01-22 05:09:39.24	292.75	11.80	-25.9	-26.6	15.7	0.00e+00	0	44	0	2290089984	13	3938
2026-01-22 05:09:40.24	292.59	11.75	-25.8	-26.5	15.7	0.00e+00	0	44	0	2296381440	13	3914
2026-01-22 05:09:41.25	292.43	11.70	-25.9	-26.8	15.6	0.00e+00	0	44	0	2301624320	13	3958
2026-01-22 05:09:42.25	292.27	11.65	-25.8	-26.6	15.7	0.00e+00	0	44	0	2306867200	13	3915
2026-01-22 05:09:43.25	292.11	11.60	-25.9	-26.6	15.7	1.10e-06	0	44	0	2313158656	13	3931
2026-01-22 05:09:44.24	291.95	11.55	-25.9	-26.8	15.6	0.00e+00	0	44	0	2318401536	13	3971
2026-01-22 05:09:45.25	291.79	11.50	-26.2	-27.4	15.2	0.00e+00	0	44	0	2323644416	13	4144
2026-01-22 05:09:46.24	291.63	11.45	-26.0	-27.0	15.5	0.00e+00	0	44	0	2329935872	13	4039
2026-01-22 05:09:47.25	291.47	11.40	-26.2	-27.3	15.3	1.10e-06	0	44	0	2335178752	13	4104
2026-01-22 05:09:48.25	291.31	11.35	-26.4	-27.8	15.0	0.00e+00	0	44	0	2340421632	13	4226
2026-01-22 05:09:49.25	291.16	11.30	-26.0	-26.9	15.5	0.00e+00	0	44	0	2346713088	13	4004
2026-01-22 05:09:50.25	291.00	11.25	-25.8	-26.5	15.7	0.00e+00	0	44	0	2351955968	13	3913
2026-01-22 05:09:51.26	290.84	11.20	-25.7	-26.8	15.8	0.00e+00	0	45	0	2358247424	12	4072
2026-01-22 05:09:52.26	290.69	11.15	-25.8	-27.1	15.6	0.00e+00	0	44	0	2363490304	12	4159
2026-01-22 05:09:53.27	290.53	11.10	-25.9	-27.3	15.5	0.00e+00	0	44	0	2368733184	12	4207
2026-01-22 05:09:54.27	290.38	11.04	-26.0	-27.5	15.4	0.00e+00	0	44	0	2375024640	12	4279
2026-01-22 05:09:55.28	290.22	10.99	-26.2	-27.8	15.2	0.00e+00	0	44	0	2380267520	12	4368
2026-01-22 05:09:56.29	290.07	10.94	-26.0	-27.4	15.5	0.00e+00	0	44	0	2386558976	12	4232
2026-01-22 05:09:57.29	289.92	10.89	-25.9	-27.2	15.6	0.00e+00	0	45	0	2391801856	12	4191
2026-01-22 05:09:58.30	289.76	10.84	-25.9	-27.3	15.5	0.00e+00	0	44	0	2397044736	12	4227
2026-01-22 05:09:59.30	289.61	10.79	-25.9	-27.2	15.6	0.00e+00	0	44	0	2403336192	12	4172
2026-01-22 05:10:00.31	289.46	10.73	-25.9	-27.3	15.5	0.00e+00	0	44	0	2408579072	12	4207
2026-01-22 05:10:01.31	289.31	10.68	-25.9	-27.3	15.5	0.00e+00	0	44	0	2413821952	12	4201
2026-01-22 05:10:02.32	289.16	10.63	-26.0	-27.6	15.3	0.00e+00	0	44	0	2420113408	12	4286
2026-01-22 05:10:03.32	289.01	10.58	-26.1	-27.6	15.3	0.00e+00	0	44	0	2425356288	12	4298
2026-01-22 05:10:04.32	288.86	10.53	-26.1	-27.8	15.2	0.00e+00	0	44	0	2431647744	12	4341
2026-01-22 05:10:05.32	288.71	10.47	-26.3	-28.1	15.0	0.00e+00	0	44	0	2436890624	12	4426
2026-01-22 05:10:06.33	288.56	10.42	-26.3	-28.2	15.0	0.00e+00	0	44	0	2443182080	12	4459
2026-01-22 05:10:07.33	288.41	10.37	-26.3	-28.1	15.0	0.00e+00	0	44	0	2448424960	12	4433
2026-01-22 05:10:08.33	288.27	10.32	-26.3	-28.2	14.9	0.00e+00	0	44	0	2453667840	12	4470
2026-01-22 05:10:09.34	288.12	10.27	-26.3	-28.2	14.9	0.00e+00	0	44	0	2459959296	12	4480
2026-01-22 05:10:10.33	287.98	10.21	-26.4	-28.4	14.8	0.00e+00	0	44	0	2465202176	12	4521
2026-01-22 05:10:11.34	287.83	10.16	-26.5	-28.5	14.7	0.00e+00	0	44	0	2470445056	12	4562
2026-01-22 05:10:12.34	287.68	10.11	-26.6	-28.3	14.6	0.00e+00	0	44	0	2476736512	13	4389
2026-01-22 05:10:13.35	287.54	10.06	-26.6	-28.4	14.5	0.00e+00	0	44	0	2481979392	13	4430
2026-01-22 05:10:14.35	287.40	10.00	-26.7	-28.5	14.4	2.20e-06	0	44	0	2487222272	13	4457
2026-01-22 05:10:15.36	287.25	9.95	-26.7	-28.6	14.4	3.40e-06	0	45	0	2493513728	13	4466
2026-01-22 05:10:16.35	287.11	9.90	-26.6	-28.3	14.6	0.00e+00	0	44	0	2498756608	13	4378
2026-01-22 05:10:17.36	286.97	9.84	-26.4	-28.0	14.7	1.10e-06	0	44	0	2505048064	13	4298
2026-01-22 05:10:18.37	286.82	9.79	-26.5	-28.1	14.6	0.00e+00	0	44	0	2510290944	13	4341
2026-01-22 05:10:19.36	286.68	9.74	-26.5	-28.2	14.6	1.10e-06	0	44	0	2515533824	13	4358
2026-01-22 05:10:20.37	286.54	9.68	-26.6	-28.4	14.5	1.10e-06	0	44	0	2521825280	13	4406
2026-01-22 05:10:21.37	286.40	9.63	-26.7	-28.5	14.4	0.00e+00	0	44	0	2527068160	13	4446
2026-01-22 05:10:22.38	286.26	9.58	-26.5	-28.1	14.6	1.10e-06	0	44	0	2532311040	13	4331
2026-01-22 05:10:23.38	286.12	9.53	-26.4	-27.8	14.8	0.00e+00	0	44	0	2538602496	13	4255
2026-01-22 05:10:24.39	285.98	9.47	-26.4	-28.0	14.7	1.10e-06	0	44	0	2543845376	13	4300
2026-01-22 05:10:25.40	285.85	9.42	-26.4	-27.9	14.7	0.00e+00	0	44	0	2550136832	13	4289
2026-01-22 05:10:26.40	285.71	9.36	-26.4	-27.8	14.8	0.00e+00	0	44	0	2555379712	13	4259
2026-01-22 05:10:27.40	285.57	9.31	-26.4	-27.9	14.7	0.00e+00	0	44	0	2560622592	13	4275
2026-01-22 05:10:28.40	285.44	9.26	-26.5	-28.1	14.6	0.00e+00	0	44	0	2566914048	13	4343
2026-01-22 05:10:29.41	285.30	9.20	-26.5	-28.2	14.5	2.20e-06	0	44	0	2572156928	13	4371
2026-01-22 05:10:30.42	285.16	9.15	-26.7	-28.5	14.3	2.20e-06	0	44	0	2578448384	13	4448
2026-01-22 05:10:31.42	285.03	9.10	-26.5	-28.1	14.5	0.00e+00	0	44	0	2583691264	13	4346
2026-01-22 05:10:32.42	284.89	9.04	-26.4	-27.9	14.7	1.10e-06	0	45	0	2588934144	13	4283
2026-01-22 05:10:33.42	284.76	8.99	-26.5	-28.1	14.5	2.20e-06	0	45	0	2595225600	13	4345
2026-01-22 05:10:34.42	284.63	8.94	-26.5	-28.1	14.5	1.10e-06	0	44	0	2600468480	13	4352
2026-01-22 05:10:35.43	284.49	8.88	-26.6	-28.4	14.4	1.10e-06	0	44	0	2605711360	13	4428
2026-01-22 05:10:36.43	284.36	8.83	-26.6	-28.4	14.3	1.10e-06	0	44	0	2612002816	13	4437
2026-01-22 05:10:37.44	284.23	8.77	-26.6	-28.3	14.4	2.20e-06	0	44	0	2617245696	13	4409
2026-01-22 05:10:38.44	284.10	8.72	-26.5	-28.2	14.5	2.20e-06	0	44	0	2623537152	13	4365
2026-01-22 05:10:39.45	283.96	8.67	-26.6	-28.3	14.4	3.40e-06	0	44	0	2628780032	13	4380
2026-01-22 05:10:40.44	283.83	8.61	-26.5	-28.2	14.5	1.10e-06	0	45	0	2634022912	13	4361
2026-01-22 05:10:41.44	283.70	8.56	-26.6	-28.4	14.3	2.20e-06	0	44	0	2640314368	13	4416
2026-01-22 05:10:42.44	283.58	8.51	-26.6	-28.4	14.3	4.50e-06	0	44	0	2645557248	13	4429
2026-01-22 05:10:43.45	283.45	8.45	-26.7	-28.6	14.2	0.00e+00	0	44	0	2651848704	13	4472
2026-01-22 05:10:44.45	283.32	8.40	-26.6	-28.5	14.3	2.20e-06	0	44	0	2657091584	13	4448
2026-01-22 05:10:45.45	283.19	8.34	-26.8	-28.7	14.1	3.40e-06	0	44	0	2662334464	13	4528
2026-01-22 05:10:46.45	283.06	8.29	-26.7	-28.7	14.1	4.50e-06	0	44	0	2668625920	13	4517
2026-01-22 05:10:47.46	282.93	8.24	-26.6	-28.3	14.4	2.20e-06	0	44	0	2673868800	13	4393
2026-01-22 05:10:48.47	282.81	8.18	-26.6	-28.3	14.3	3.40e-06	0	44	0	2679111680	13	4402
2026-01-22 05:10:49.47	282.68	8.13	-26.6	-28.3	14.3	1.10e-06	0	44	0	2685403136	13	4393
2026-01-22 05:10:50.46	282.56	8.07	-26.6	-28.4	14.3	0.00e+00	0	44	0	2690646016	13	4432
2026-01-22 05:10:51.47	282.43	8.02	-26.6	-28.4	14.3	1.10e-06	0	44	0	2695888896	13	4433
2026-01-22 05:10:52.46	282.31	7.97	-26.6	-28.5	14.2	4.50e-06	0	44	0	2702180352	13	4447
2026-01-22 05:10:53.47	282.18	7.91	-26.7	-28.6	14.1	2.20e-06	0	44	0	2707423232	13	4495
2026-01-22 05:10:54.47	282.06	7.86	-26.8	-28.8	14.0	5.70e-06	0	44	0	2713714688	13	4540
2026-01-22 05:10:55.47	281.94	7.80	-26.8	-28.8	14.0	3.40e-06	0	44	0	2718957568	13	4537
2026-01-22 05:10:56.47	281.81	7.75	-26.8	-28.9	14.0	3.40e-06	0	44	0	2724200448	13	4572
2026-01-22 05:10:57.47	281.69	7.70	-26.7	-28.7	14.1	1.10e-06	0	44	0	2730491904	13	4507
2026-01-22 05:10:58.47	281.57	7.64	-26.7	-28.7	14.1	1.10e-06	0	44	0	2735734784	13	4503
2026-01-22 05:10:59.48	281.45	7.59	-26.9	-29.0	13.9	3.40e-06	0	44	0	2740977664	13	4594
2026-01-22 05:11:00.48	281.33	7.53	-26.7	-28.7	14.1	3.40e-06	0	44	0	2747269120	13	4510
2026-01-22 05:11:01.49	281.20	7.48	-26.7	-28.6	14.1	3.40e-06	0	44	0	2752512000	13	4489
2026-01-22 05:11:02.49	281.08	7.43	-26.8	-28.7	14.1	1.10e-06	0	44	0	2758803456	13	4516
2026-01-22 05:11:03.51	280.96	7.37	-26.8	-28.9	14.0	1.10e-06	0	44	0	2764046336	13	4561
2026-01-22 05:11:04.51	280.84	7.32	-26.8	-28.9	13.9	9.10e-06	0	44	0	2769289216	13	4589
2026-01-22 05:11:05.51	280.73	7.26	-26.9	-29.1	13.8	6.80e-06	0	45	0	2775580672	13	4626
2026-01-22 05:11:06.52	280.61	7.21	-26.9	-29.2	13.7	5.70e-06	0	44	0	2780823552	13	4667
2026-01-22 05:11:07.52	280.49	7.15	-27.0	-29.3	13.7	5.70e-06	0	44	0	2787115008	13	4702
2026-01-22 05:11:08.52	280.37	7.10	-27.1	-29.1	13.5	1.94e-05	0	44	0	2792357888	14	4530
2026-01-22 05:11:09.53	280.25	7.05	-32.6	-43.4	3.8	2.86e-05	0	44	0	2797600768	25	12438
2026-01-22 05:11:10.53	280.14	6.99	-33.0	-44.1	3.8	8.45e-01	0	44	104	2797600768	26	12925
2026-01-22 05:11:11.53	280.02	6.94	-33.5	-44.9	3.8	8.46e-01	0	45	104	2797600768	26	13510

#Closed at: 2026-01-22 05:11:12
#Recorded file [2797 MB]: D:/data/31010_260122_080251.dat