passes_logs/2026/01/21/planumMaritime01/planumMaritime01__20260121_175807_METEOR-M2_3_rec.log

#Pass ID: 20260121_175807_METEOR-M2 3
#Satellite: METEOR-M2 3
#Configuration: METEOR-M2 3
#Start time: 2026-01-21 17:58:12.818766

#LorettStation: 1.0.0 05.05.2024
#Station: planumMaritime01
#Location: 37.49445 lon 55.92918 lat
#TLE: 1 57166U 23091A   26020.96858691  .00000087  00000+0  56690-4 0  9996
#TLE: 2 57166  98.6318  78.8117 0003146 227.1103 132.9812 14.24031704133564

#Time	Az	El	Level	SNR
2026-01-21 17:58:14.983174	168.1	10.2	-81.9	0.0
2026-01-21 17:58:16.114983	168.1	10.3	-80.3	0.0
2026-01-21 17:58:17.253088	168.1	10.4	-79.9	1.5
2026-01-21 17:58:18.390490	168.1	10.5	-78.3	6.1
2026-01-21 17:58:19.527471	168.2	10.6	-78.3	8.2
2026-01-21 17:58:20.666661	168.2	10.7	-78.6	7.6
2026-01-21 17:58:21.804177	168.2	10.8	-79.3	8.1
2026-01-21 17:58:22.942064	168.2	10.9	-78.4	9.0
2026-01-21 17:58:24.078866	168.3	11.0	-78.7	7.7
2026-01-21 17:58:25.213663	168.3	11.1	-78.6	7.1
2026-01-21 17:58:26.350781	168.3	11.2	-77.4	7.7
2026-01-21 17:58:27.490530	168.3	11.3	-78.7	7.2
2026-01-21 17:58:28.629513	168.3	11.4	-78.1	7.4
2026-01-21 17:58:29.767817	168.4	11.5	-78.3	7.5
2026-01-21 17:58:30.903026	168.4	11.6	-78.4	7.2
2026-01-21 17:58:32.040702	168.4	11.7	-78.2	8.2
2026-01-21 17:58:33.178996	168.4	11.9	-78.4	8.8
2026-01-21 17:58:34.316852	168.4	12.0	-78.1	8.2
2026-01-21 17:58:35.455762	168.5	12.1	-78.1	7.7
2026-01-21 17:58:36.593699	168.5	12.2	-77.6	7.5
2026-01-21 17:58:37.732026	168.5	12.3	-77.9	7.7
2026-01-21 17:58:38.869464	168.5	12.4	-78.0	8.2
2026-01-21 17:58:40.007241	168.6	12.5	-78.3	7.5
2026-01-21 17:58:41.144955	168.6	12.6	-77.8	7.9
2026-01-21 17:58:42.281681	168.6	12.7	-78.1	7.9
2026-01-21 17:58:43.419425	168.6	12.8	-78.2	8.6
2026-01-21 17:58:44.559118	168.7	12.9	-78.0	8.5
2026-01-21 17:58:45.697482	168.7	13.1	-78.5	8.1
2026-01-21 17:58:46.835128	168.7	13.2	-78.5	8.1
2026-01-21 17:58:47.970726	168.7	13.3	-77.7	7.6
2026-01-21 17:58:49.109322	168.8	13.4	-78.0	8.3
2026-01-21 17:58:50.247691	168.8	13.5	-78.0	8.2
2026-01-21 17:58:51.384706	168.8	13.6	-77.9	7.3
2026-01-21 17:58:52.523163	168.8	13.7	-78.1	8.6
2026-01-21 17:58:53.656522	168.9	13.9	-78.1	9.1
2026-01-21 17:58:54.790910	168.9	14.0	-78.2	9.0
2026-01-21 17:58:55.925073	168.9	14.1	-78.2	8.3
2026-01-21 17:58:57.056756	168.9	14.2	-77.8	8.1
2026-01-21 17:58:58.190402	169.0	14.3	-78.3	8.1
2026-01-21 17:58:59.322200	169.0	14.5	-78.0	8.9
2026-01-21 17:59:00.459791	169.0	14.6	-78.2	8.3
2026-01-21 17:59:01.595163	169.0	14.7	-78.0	8.0
2026-01-21 17:59:02.728577	169.1	14.8	-78.0	7.7
2026-01-21 17:59:03.865014	169.1	14.9	-78.4	9.2
2026-01-21 17:59:05.000663	169.1	15.1	-77.8	7.4
2026-01-21 17:59:06.134129	169.1	15.2	-78.5	8.3
2026-01-21 17:59:07.269619	169.2	15.3	-77.7	8.6
2026-01-21 17:59:08.402571	169.2	15.4	-78.5	8.4
2026-01-21 17:59:09.539581	169.2	15.6	-78.0	8.6
2026-01-21 17:59:10.674401	169.3	15.7	-77.7	8.7
2026-01-21 17:59:11.811740	169.3	15.8	-77.3	9.2
2026-01-21 17:59:12.946834	169.3	15.9	-77.4	8.9
2026-01-21 17:59:14.078900	169.3	16.1	-78.2	8.8
2026-01-21 17:59:15.214318	169.4	16.2	-78.1	8.7
2026-01-21 17:59:16.346977	169.4	16.3	-77.9	7.9
2026-01-21 17:59:17.483114	169.4	16.4	-78.3	9.3
2026-01-21 17:59:18.615807	169.5	16.6	-78.0	8.6
2026-01-21 17:59:19.750648	169.5	16.7	-78.0	8.3
2026-01-21 17:59:20.885310	169.5	16.8	-77.4	7.9
2026-01-21 17:59:22.019901	169.5	17.0	-77.8	7.8
2026-01-21 17:59:23.153343	169.6	17.1	-77.4	8.3
2026-01-21 17:59:24.285637	169.6	17.2	-77.4	7.7
2026-01-21 17:59:25.418003	169.6	17.4	-77.6	8.7
2026-01-21 17:59:26.555305	169.7	17.5	-77.4	9.8
2026-01-21 17:59:27.688998	169.7	17.6	-77.4	9.2
2026-01-21 17:59:28.824272	169.7	17.8	-77.3	9.4
2026-01-21 17:59:29.957393	169.8	17.9	-77.6	9.4
2026-01-21 17:59:31.091187	169.8	18.0	-77.6	9.7
2026-01-21 17:59:32.224657	169.8	18.2	-77.5	8.9
2026-01-21 17:59:33.359123	169.9	18.3	-77.6	9.5
2026-01-21 17:59:34.494590	169.9	18.5	-77.4	9.7
2026-01-21 17:59:35.627345	169.9	18.6	-77.2	8.4
2026-01-21 17:59:36.761822	170.0	18.7	-77.3	8.9
2026-01-21 17:59:37.899013	170.0	18.9	-77.0	9.0
2026-01-21 17:59:39.036469	170.0	19.0	-77.2	9.0
2026-01-21 17:59:40.170268	170.1	19.2	-76.9	10.0
2026-01-21 17:59:41.308953	170.1	19.3	-77.4	8.8
2026-01-21 17:59:42.443273	170.1	19.5	-77.2	10.0
2026-01-21 17:59:43.583434	170.2	19.6	-77.6	9.4
2026-01-21 17:59:44.719379	170.2	19.8	-77.2	9.4
2026-01-21 17:59:45.856954	170.2	19.9	-77.4	9.8
2026-01-21 17:59:46.993870	170.3	20.1	-77.5	9.3
2026-01-21 17:59:48.130896	170.3	20.2	-76.8	6.8
2026-01-21 17:59:49.268707	170.3	20.4	-77.3	9.9
2026-01-21 17:59:50.405327	170.4	20.5	-77.4	9.6
2026-01-21 17:59:51.541821	170.4	20.7	-77.5	9.7
2026-01-21 17:59:52.677998	170.5	20.8	-77.6	9.2
2026-01-21 17:59:53.812641	170.5	21.0	-78.0	10.0
2026-01-21 17:59:54.949511	170.5	21.1	-77.5	9.2
2026-01-21 17:59:56.089329	170.6	21.3	-77.3	8.3
2026-01-21 17:59:57.225125	170.6	21.5	-77.1	7.7
2026-01-21 17:59:58.364124	170.7	21.6	-77.3	8.6
2026-01-21 17:59:59.499586	170.7	21.8	-77.3	8.8
2026-01-21 18:00:00.634700	170.7	21.9	-77.3	9.8
2026-01-21 18:00:01.769598	170.8	22.1	-76.8	8.8
2026-01-21 18:00:02.903839	170.8	22.3	-77.6	10.3
2026-01-21 18:00:04.038744	170.9	22.4	-77.7	10.2
2026-01-21 18:00:05.175662	170.9	22.6	-77.2	9.7
2026-01-21 18:00:06.311295	170.9	22.8	-76.9	7.8
2026-01-21 18:00:07.447399	171.0	22.9	-77.5	9.8
2026-01-21 18:00:08.583010	171.0	23.1	-77.7	10.2
2026-01-21 18:00:09.723247	171.1	23.3	-77.8	10.7
2026-01-21 18:00:10.857292	171.1	23.4	-77.4	10.2
2026-01-21 18:00:11.997022	171.2	23.6	-76.7	10.0
2026-01-21 18:00:13.131814	171.2	23.8	-77.4	9.5
2026-01-21 18:00:14.266227	171.3	23.9	-76.5	8.2
2026-01-21 18:00:15.401534	171.3	24.1	-77.3	9.8
2026-01-21 18:00:16.535526	171.3	24.3	-77.4	9.8
2026-01-21 18:00:17.669633	171.4	24.5	-77.2	9.2
2026-01-21 18:00:18.805722	171.4	24.7	-77.2	10.2
2026-01-21 18:00:19.939721	171.5	24.8	-77.4	10.1
2026-01-21 18:00:21.074734	171.5	25.0	-77.1	8.8
2026-01-21 18:00:22.207847	171.6	25.2	-77.2	8.9
2026-01-21 18:00:23.342022	171.6	25.4	-76.7	8.9
2026-01-21 18:00:24.478448	171.7	25.6	-77.5	10.8
2026-01-21 18:00:25.613013	171.7	25.8	-76.9	8.7
2026-01-21 18:00:26.747402	171.8	25.9	-77.0	9.0
2026-01-21 18:00:27.880281	171.8	26.1	-77.3	9.7
2026-01-21 18:00:29.014167	171.9	26.3	-77.9	10.6
2026-01-21 18:00:30.149661	171.9	26.5	-76.6	7.4
2026-01-21 18:00:31.285943	172.0	26.7	-77.1	8.8
2026-01-21 18:00:32.419171	172.1	26.9	-76.6	8.4
2026-01-21 18:00:33.552542	172.1	27.1	-76.8	9.2
2026-01-21 18:00:34.690071	172.2	27.3	-76.9	9.2
2026-01-21 18:00:35.827533	172.2	27.5	-77.0	11.3
2026-01-21 18:00:36.962311	172.3	27.7	-77.0	9.6
2026-01-21 18:00:38.095675	172.3	27.9	-77.0	8.5
2026-01-21 18:00:39.228925	172.4	28.1	-76.5	8.6
2026-01-21 18:00:40.363001	172.4	28.3	-76.4	8.5
2026-01-21 18:00:41.499554	172.5	28.5	-77.2	10.2
2026-01-21 18:00:42.633929	172.6	28.7	-77.1	10.5
2026-01-21 18:00:43.767594	172.6	28.9	-76.3	9.2
2026-01-21 18:00:44.899746	172.7	29.1	-76.8	9.7
2026-01-21 18:00:46.037905	172.8	29.3	-77.1	8.0
2026-01-21 18:00:47.174287	172.8	29.6	-77.1	9.5
2026-01-21 18:00:48.313793	172.9	29.8	-77.4	11.7
2026-01-21 18:00:49.449065	172.9	30.0	-77.2	9.6
2026-01-21 18:00:50.587217	173.0	30.2	-77.0	9.6
2026-01-21 18:00:51.725078	173.1	30.4	-76.8	9.1
2026-01-21 18:00:52.862395	173.1	30.6	-76.4	7.2
2026-01-21 18:00:53.998074	173.2	30.9	-76.2	7.5
2026-01-21 18:00:55.136216	173.3	31.1	-76.6	8.2
2026-01-21 18:00:56.274709	173.4	31.3	-76.7	8.9
2026-01-21 18:00:57.412617	173.4	31.6	-76.9	9.8
2026-01-21 18:00:58.550325	173.5	31.8	-77.2	10.7
2026-01-21 18:00:59.688717	173.6	32.0	-77.3	9.6
2026-01-21 18:01:00.827253	173.6	32.2	-76.5	8.8
2026-01-21 18:01:01.967917	173.7	32.5	-76.2	8.4
2026-01-21 18:01:03.105870	173.8	32.7	-76.7	9.9
2026-01-21 18:01:04.242793	173.9	33.0	-76.6	8.9
2026-01-21 18:01:05.382099	174.0	33.2	-76.5	10.8
2026-01-21 18:01:06.519590	174.0	33.4	-76.1	7.8
2026-01-21 18:01:07.656711	174.1	33.7	-76.6	9.1
2026-01-21 18:01:08.793629	174.2	33.9	-76.6	9.5
2026-01-21 18:01:09.933012	174.3	34.2	-76.8	9.9
2026-01-21 18:01:11.072739	174.4	34.4	-76.5	8.2
2026-01-21 18:01:12.213028	174.4	34.7	-77.0	8.6
2026-01-21 18:01:13.351616	174.5	35.0	-76.7	9.0
2026-01-21 18:01:14.489771	174.6	35.2	-77.0	10.0
2026-01-21 18:01:15.629421	174.7	35.5	-77.2	10.0
2026-01-21 18:01:16.765716	174.8	35.7	-77.2	9.8
2026-01-21 18:01:17.905990	174.9	36.0	-76.7	8.8
2026-01-21 18:01:19.043487	175.0	36.3	-77.0	10.7
2026-01-21 18:01:20.184598	175.1	36.5	-77.9	12.9
2026-01-21 18:01:21.324688	175.2	36.8	-77.1	11.2
2026-01-21 18:01:22.461805	175.3	37.1	-77.2	11.8
2026-01-21 18:01:23.601072	175.4	37.3	-77.7	12.6
2026-01-21 18:01:24.739746	175.5	37.6	-77.3	10.8
2026-01-21 18:01:25.873381	175.6	37.9	-77.1	11.3
2026-01-21 18:01:27.012349	175.7	38.2	-77.6	11.5
2026-01-21 18:01:28.146979	175.8	38.5	-77.4	11.0
2026-01-21 18:01:29.284988	175.9	38.8	-77.7	11.7
2026-01-21 18:01:30.426262	176.0	39.0	-77.8	11.5
2026-01-21 18:01:31.561820	176.1	39.3	-77.9	11.8
2026-01-21 18:01:32.701628	176.2	39.6	-78.5	12.6
2026-01-21 18:01:33.838256	176.4	39.9	-78.4	13.1
2026-01-21 18:01:34.968699	176.5	40.2	-78.0	12.3
2026-01-21 18:01:36.100053	176.6	40.5	-78.2	12.3
2026-01-21 18:01:37.229128	176.7	40.8	-78.2	12.3
2026-01-21 18:01:38.362021	176.8	41.1	-78.3	12.9
2026-01-21 18:01:39.491522	177.0	41.4	-78.5	12.7
2026-01-21 18:01:40.623501	177.1	41.7	-78.6	12.8
2026-01-21 18:01:41.753824	177.2	42.0	-78.3	12.7
2026-01-21 18:01:42.888336	177.4	42.3	-78.5	12.6
2026-01-21 18:01:44.027667	177.5	42.7	-78.9	12.6
2026-01-21 18:01:45.164273	177.6	43.0	-78.7	12.2
2026-01-21 18:01:46.300035	177.8	43.3	-79.0	11.9
2026-01-21 18:01:47.438819	177.9	43.6	-78.9	11.9
2026-01-21 18:01:48.577558	178.1	44.0	-78.9	12.5
2026-01-21 18:01:49.714736	178.2	44.3	-78.6	12.0
2026-01-21 18:01:50.853293	178.4	44.6	-78.8	12.4
2026-01-21 18:01:51.992737	178.5	45.0	-79.0	12.4
2026-01-21 18:01:53.131056	178.7	45.3	-78.9	13.0
2026-01-21 18:01:54.267761	178.9	45.6	-78.9	12.8
2026-01-21 18:01:55.407962	179.0	46.0	-78.8	12.0
2026-01-21 18:01:56.543863	179.2	46.3	-79.1	12.9
2026-01-21 18:01:57.681628	179.4	46.7	-78.8	11.8
2026-01-21 18:01:58.821208	179.5	47.0	-79.1	12.4
2026-01-21 18:01:59.957883	179.7	47.4	-79.3	12.1
2026-01-21 18:02:01.094910	179.9	47.7	-78.8	11.8
2026-01-21 18:02:02.232496	180.1	48.1	-78.8	11.6
2026-01-21 18:02:03.372811	180.3	48.4	-79.3	11.4
2026-01-21 18:02:04.514182	180.5	48.8	-79.2	12.0
2026-01-21 18:02:05.651374	180.7	49.2	-79.6	12.3
2026-01-21 18:02:06.790211	180.9	49.5	-79.5	12.0
2026-01-21 18:02:07.930449	181.1	49.9	-79.9	12.0
2026-01-21 18:02:09.066189	181.3	50.3	-79.9	11.9
2026-01-21 18:02:10.205718	181.6	50.7	-80.1	11.4
2026-01-21 18:02:11.343445	181.8	51.1	-80.1	11.3
2026-01-21 18:02:12.482021	182.0	51.4	-80.2	11.4
2026-01-21 18:02:13.617639	182.3	51.8	-80.2	11.6
2026-01-21 18:02:14.758467	182.5	52.2	-79.9	10.5
2026-01-21 18:02:15.894723	182.8	52.6	-80.3	11.0
2026-01-21 18:02:17.029563	183.0	53.0	-80.4	11.2
2026-01-21 18:02:18.165898	183.3	53.4	-80.3	11.3
2026-01-21 18:02:19.303579	183.6	53.8	-80.2	10.8
2026-01-21 18:02:20.437177	183.9	54.2	-80.2	10.5
2026-01-21 18:02:21.570436	184.2	54.6	-80.3	11.0
2026-01-21 18:02:22.707448	184.5	55.0	-80.3	10.6
2026-01-21 18:02:23.846035	184.8	55.4	-80.4	11.0
2026-01-21 18:02:24.981199	185.1	55.8	-80.1	9.6
2026-01-21 18:02:26.118424	185.4	56.2	-80.2	10.0
2026-01-21 18:02:27.256379	185.8	56.6	-80.4	10.1
2026-01-21 18:02:28.392740	186.1	57.0	-80.3	10.4
2026-01-21 18:02:29.530588	186.5	57.5	-80.0	9.7
2026-01-21 18:02:30.667578	186.8	57.9	-80.2	10.7
2026-01-21 18:02:31.805692	187.2	58.3	-80.1	10.8
2026-01-21 18:02:32.942059	187.6	58.7	-80.2	10.3
2026-01-21 18:02:34.077604	188.0	59.2	-80.1	10.6
2026-01-21 18:02:35.215593	188.4	59.6	-80.4	9.9
2026-01-21 18:02:36.350502	188.9	60.0	-80.2	11.0
2026-01-21 18:02:37.488032	189.3	60.4	-79.9	9.7
2026-01-21 18:02:38.626053	189.8	60.9	-80.0	11.1
2026-01-21 18:02:39.761309	190.2	61.3	-80.0	11.1
2026-01-21 18:02:40.901066	190.7	61.7	-79.6	10.4
2026-01-21 18:02:42.036942	191.2	62.2	-79.8	11.3
2026-01-21 18:02:43.173797	191.8	62.6	-79.9	11.0
2026-01-21 18:02:44.309671	192.3	63.0	-80.0	10.9
2026-01-21 18:02:45.449037	192.9	63.5	-79.7	10.2
2026-01-21 18:02:46.587392	193.5	63.9	-80.2	11.4
2026-01-21 18:02:47.723683	194.1	64.4	-80.1	10.8
2026-01-21 18:02:48.861657	194.7	64.8	-80.1	11.0
2026-01-21 18:02:50.000597	195.4	65.2	-80.2	11.0
2026-01-21 18:02:51.139186	196.1	65.7	-79.9	10.1
2026-01-21 18:02:52.275657	196.8	66.1	-79.9	10.5
2026-01-21 18:02:53.413497	197.6	66.5	-80.0	9.7
2026-01-21 18:02:54.551665	198.3	67.0	-80.3	9.0
2026-01-21 18:02:55.688875	199.1	67.4	-80.1	10.5
2026-01-21 18:02:56.828499	200.0	67.8	-80.3	10.5
2026-01-21 18:02:57.965883	200.9	68.3	-80.5	9.7
2026-01-21 18:02:59.102457	201.8	68.7	-80.0	10.8
2026-01-21 18:03:00.242399	202.7	69.1	-80.1	10.2
2026-01-21 18:03:01.379088	203.7	69.5	-80.2	10.0
2026-01-21 18:03:02.513834	204.8	69.9	-79.7	10.3
2026-01-21 18:03:03.648993	205.9	70.3	-79.5	10.1
2026-01-21 18:03:04.788176	207.0	70.7	-79.5	11.0
2026-01-21 18:03:05.925830	208.2	71.1	-79.2	10.7
2026-01-21 18:03:07.061135	209.4	71.5	-79.3	9.7
2026-01-21 18:03:08.200321	210.7	71.9	-79.2	10.0
2026-01-21 18:03:09.338365	212.1	72.3	-78.9	9.9
2026-01-21 18:03:10.476868	213.5	72.7	-78.8	10.3
2026-01-21 18:03:11.615889	215.0	73.0	-78.8	10.8
2026-01-21 18:03:12.753590	216.5	73.4	-79.2	11.0
2026-01-21 18:03:13.892122	218.2	73.7	-78.8	10.4
2026-01-21 18:03:15.028666	219.8	74.0	-78.6	10.3
2026-01-21 18:03:16.166455	221.6	74.3	-79.0	11.3
2026-01-21 18:03:17.303465	223.4	74.6	-78.7	9.9
2026-01-21 18:03:18.441161	225.3	74.9	-78.9	10.3
2026-01-21 18:03:19.576865	227.3	75.2	-78.7	9.0
2026-01-21 18:03:20.713538	229.3	75.4	-78.5	10.2
2026-01-21 18:03:21.851449	231.5	75.7	-79.1	10.5
2026-01-21 18:03:22.986600	233.7	75.9	-79.4	9.9
2026-01-21 18:03:24.122126	235.9	76.1	-78.6	8.5
2026-01-21 18:03:25.257983	238.2	76.2	-78.4	7.4
2026-01-21 18:03:26.395744	240.6	76.4	-79.0	8.6
2026-01-21 18:03:27.532274	243.0	76.5	-78.6	9.3
2026-01-21 18:03:28.668888	245.5	76.6	-78.6	7.5
2026-01-21 18:03:29.805433	248.0	76.7	-77.6	6.0
2026-01-21 18:03:30.945006	250.5	76.8	-77.9	8.0
2026-01-21 18:03:32.079410	253.0	76.8	-78.2	8.9
2026-01-21 18:03:33.214359	255.6	76.8	-77.8	8.3
2026-01-21 18:03:34.348221	258.1	76.8	-78.2	8.2
2026-01-21 18:03:35.483344	260.6	76.7	-77.5	7.8
2026-01-21 18:03:36.617484	263.1	76.6	-78.3	8.7
2026-01-21 18:03:37.750204	265.6	76.5	-77.7	8.2
2026-01-21 18:03:38.887083	268.0	76.4	-77.6	6.3
2026-01-21 18:03:40.020731	270.4	76.3	-77.6	5.8
2026-01-21 18:03:41.155430	272.7	76.1	-77.8	6.3
2026-01-21 18:03:42.286314	275.0	75.9	-78.0	7.0
2026-01-21 18:03:43.421819	277.2	75.7	-77.6	5.9
2026-01-21 18:03:44.558146	279.3	75.5	-77.7	5.5
2026-01-21 18:03:45.693211	281.4	75.3	-76.7	3.2
2026-01-21 18:03:46.826186	283.4	75.0	-77.5	4.9
2026-01-21 18:03:47.959658	285.3	74.7	-77.4	4.9
2026-01-21 18:03:49.095642	287.2	74.4	-78.0	4.7
2026-01-21 18:03:50.229338	288.9	74.1	-78.3	5.6
2026-01-21 18:03:51.363855	290.6	73.8	-78.3	7.2
2026-01-21 18:03:52.496369	292.3	73.5	-77.6	3.7
2026-01-21 18:03:53.630277	293.8	73.1	-77.4	3.4
2026-01-21 18:03:54.762492	295.3	72.8	-76.5	4.6
2026-01-21 18:03:55.897058	296.8	72.4	-77.6	5.4
2026-01-21 18:03:57.031571	298.1	72.1	-77.9	5.1
2026-01-21 18:03:58.164687	299.5	71.7	-77.0	4.5
2026-01-21 18:03:59.298356	300.7	71.3	-76.6	2.3
2026-01-21 18:04:00.431543	301.9	70.9	-76.6	3.2
2026-01-21 18:04:01.563623	303.1	70.5	-76.6	2.2
2026-01-21 18:04:02.701408	304.2	70.1	-77.9	6.1
2026-01-21 18:04:03.834898	305.2	69.7	-76.9	4.3
2026-01-21 18:04:04.972996	306.2	69.3	-77.1	3.5
2026-01-21 18:04:06.110311	307.2	68.9	-76.5	3.3
2026-01-21 18:04:07.243255	308.1	68.4	-76.7	3.7
2026-01-21 18:04:08.377423	309.0	68.0	-76.7	3.9
2026-01-21 18:04:09.511346	309.9	67.6	-77.1	5.3
2026-01-21 18:04:10.646105	310.7	67.2	-77.1	4.7
2026-01-21 18:04:11.779729	311.5	66.7	-76.9	4.7
2026-01-21 18:04:12.913273	312.2	66.3	-75.8	2.3
2026-01-21 18:04:14.046867	313.0	65.9	-75.9	2.2
2026-01-21 18:04:15.180338	313.7	65.4	-76.6	4.4
2026-01-21 18:04:16.315443	314.3	65.0	-76.1	2.6
2026-01-21 18:04:17.453566	315.0	64.6	-76.0	2.7
2026-01-21 18:04:18.592550	315.6	64.1	-77.2	4.8
2026-01-21 18:04:19.731642	316.2	63.7	-76.8	4.2
2026-01-21 18:04:20.868094	316.8	63.3	-75.6	1.6
2026-01-21 18:04:22.005111	317.3	62.8	-77.4	4.9
2026-01-21 18:04:23.148094	317.9	62.4	-77.0	3.2
2026-01-21 18:04:24.286887	318.4	61.9	-77.1	3.1
2026-01-21 18:04:25.424646	318.9	61.5	-76.7	2.8
2026-01-21 18:04:26.562248	319.4	61.1	-76.4	2.4
2026-01-21 18:04:27.699014	319.8	60.6	-77.1	2.9
2026-01-21 18:04:28.837521	320.3	60.2	-77.1	3.8
2026-01-21 18:04:29.975484	320.7	59.8	-76.9	4.0
2026-01-21 18:04:31.115030	321.2	59.4	-76.5	2.9
2026-01-21 18:04:32.252817	321.6	58.9	-77.8	5.8
2026-01-21 18:04:33.389802	322.0	58.5	-77.1	4.0
2026-01-21 18:04:34.528265	322.4	58.1	-76.1	1.9
2026-01-21 18:04:35.665091	322.7	57.7	-77.0	3.7
2026-01-21 18:04:36.806674	323.1	57.3	-76.6	3.3
2026-01-21 18:04:37.944012	323.4	56.8	-76.7	4.8
2026-01-21 18:04:39.084949	323.8	56.4	-76.3	3.8
2026-01-21 18:04:40.222208	324.1	56.0	-76.8	3.5
2026-01-21 18:04:41.360462	324.4	55.6	-75.8	2.5
2026-01-21 18:04:42.499204	324.7	55.2	-75.6	2.9
2026-01-21 18:04:43.635906	325.0	54.8	-76.3	4.0
2026-01-21 18:04:44.774932	325.3	54.4	-77.1	3.3
2026-01-21 18:04:45.914656	325.6	54.0	-76.6	4.6
2026-01-21 18:04:47.053562	325.9	53.6	-76.4	4.1
2026-01-21 18:04:48.193605	326.2	53.2	-76.4	6.1
2026-01-21 18:04:49.333368	326.4	52.8	-76.1	4.3
2026-01-21 18:04:50.470847	326.7	52.4	-76.0	4.4
2026-01-21 18:04:51.607448	327.0	52.0	-75.9	3.7
2026-01-21 18:04:52.745706	327.2	51.6	-75.9	3.8
2026-01-21 18:04:53.883703	327.4	51.3	-75.8	4.4
2026-01-21 18:04:55.021982	327.7	50.9	-75.2	3.8
2026-01-21 18:04:56.156695	327.9	50.5	-75.1	2.6
2026-01-21 18:04:57.297354	328.1	50.1	-75.6	3.2
2026-01-21 18:04:58.433503	328.3	49.8	-75.9	5.6
2026-01-21 18:04:59.569375	328.5	49.4	-75.2	3.7
2026-01-21 18:05:00.707126	328.8	49.0	-75.4	4.5
2026-01-21 18:05:01.843329	329.0	48.7	-75.4	3.4
2026-01-21 18:05:02.979257	329.2	48.3	-75.5	0.0
2026-01-21 18:05:04.116198	329.3	47.9	-75.6	3.0
2026-01-21 18:05:05.251198	329.5	47.6	-75.6	3.8
2026-01-21 18:05:06.389139	329.7	47.2	-76.1	5.5
2026-01-21 18:05:07.527663	329.9	46.9	-75.3	4.9
2026-01-21 18:05:08.668024	330.1	46.5	-75.4	3.5
2026-01-21 18:05:09.804148	330.2	46.2	-75.3	5.2
2026-01-21 18:05:10.941070	330.4	45.8	-75.1	4.1
2026-01-21 18:05:12.079974	330.6	45.5	-75.1	4.7
2026-01-21 18:05:13.217468	330.7	45.2	-74.4	3.1
2026-01-21 18:05:14.355725	330.9	44.8	-75.5	5.1
2026-01-21 18:05:15.491963	331.1	44.5	-75.3	4.6
2026-01-21 18:05:16.628703	331.2	44.2	-74.9	2.5
2026-01-21 18:05:17.766696	331.4	43.8	-73.8	1.9
2026-01-21 18:05:18.902555	331.5	43.5	-74.4	3.4
2026-01-21 18:05:20.037599	331.6	43.2	-74.4	4.9
2026-01-21 18:05:21.166989	331.8	42.9	-74.5	3.6
2026-01-21 18:05:22.297138	331.9	42.6	-75.2	4.9
2026-01-21 18:05:23.423477	332.1	42.3	-74.4	3.3
2026-01-21 18:05:24.553861	332.2	42.0	-73.5	2.0
2026-01-21 18:05:25.683490	332.3	41.6	-73.7	4.1
2026-01-21 18:05:26.814212	332.4	41.3	-74.1	2.4
2026-01-21 18:05:27.944625	332.6	41.0	-74.7	3.7
2026-01-21 18:05:29.074919	332.7	40.7	-73.5	0.0
2026-01-21 18:05:30.204253	332.8	40.4	-74.6	2.9
2026-01-21 18:05:31.336023	332.9	40.1	-73.5	1.9
2026-01-21 18:05:32.465490	333.1	39.9	-73.5	0.0
2026-01-21 18:05:33.596252	333.2	39.6	-70.4	0.0
2026-01-21 18:05:34.725512	333.3	39.3	-74.3	2.8
2026-01-21 18:05:35.860275	333.4	39.0	-72.1	2.6
2026-01-21 18:05:36.995403	333.5	38.7	-73.4	0.0
2026-01-21 18:05:38.129308	333.6	38.4	-72.0	2.1
2026-01-21 18:05:39.262665	333.7	38.1	-73.0	2.7
2026-01-21 18:05:40.395608	333.8	37.9	-73.3	0.4
2026-01-21 18:05:41.527252	333.9	37.6	-71.0	0.0
2026-01-21 18:05:42.661703	334.0	37.3	-72.3	0.0
2026-01-21 18:05:43.795848	334.1	37.0	-74.3	0.6
2026-01-21 18:05:44.928332	334.2	36.8	-73.3	1.6
2026-01-21 18:05:46.059597	334.3	36.5	-72.8	0.2
2026-01-21 18:05:47.192978	334.4	36.2	-73.5	4.5
2026-01-21 18:05:48.327512	334.5	36.0	-72.1	0.0
2026-01-21 18:05:49.458033	334.6	35.7	-71.6	0.0
2026-01-21 18:05:50.592265	334.7	35.5	-72.4	0.1
2026-01-21 18:05:51.725401	334.8	35.2	-71.4	0.0
2026-01-21 18:05:52.858391	334.9	35.0	-70.9	0.0
2026-01-21 18:05:53.992580	334.9	34.7	-71.7	0.0
2026-01-21 18:05:55.127313	335.0	34.4	-70.2	0.0
2026-01-21 18:05:56.265719	335.1	34.2	-72.5	0.3
2026-01-21 18:05:57.403161	335.2	34.0	-69.0	0.0
2026-01-21 18:05:58.542694	335.3	33.7	-70.3	0.0
2026-01-21 18:05:59.678483	335.4	33.5	-71.8	0.0
2026-01-21 18:06:00.814381	335.4	33.2	-73.4	0.0
2026-01-21 18:06:01.948844	335.5	33.0	-71.7	0.0
2026-01-21 18:06:03.083884	335.6	32.7	-69.7	0.0
2026-01-21 18:06:04.217120	335.7	32.5	-72.3	0.6
2026-01-21 18:06:05.352657	335.7	32.3	-69.4	0.0
2026-01-21 18:06:06.486633	335.8	32.0	-70.5	0.0
2026-01-21 18:06:07.619337	335.9	31.8	-71.3	0.0
2026-01-21 18:06:08.755704	336.0	31.6	-69.0	0.0
2026-01-21 18:06:09.889219	336.0	31.4	-68.4	0.0
2026-01-21 18:06:11.026315	336.1	31.1	-67.1	0.0
2026-01-21 18:06:12.161980	336.2	30.9	-71.4	0.0
2026-01-21 18:06:13.296069	336.2	30.7	-71.2	0.0
2026-01-21 18:06:14.435208	336.3	30.5	-70.5	0.0
2026-01-21 18:06:15.570038	336.4	30.2	-66.9	0.0
2026-01-21 18:06:16.704560	336.4	30.0	-66.0	0.0
2026-01-21 18:06:17.841404	336.5	29.8	-67.4	0.0
2026-01-21 18:06:18.975879	336.6	29.6	-69.6	0.0
2026-01-21 18:06:20.109653	336.6	29.4	-69.9	0.0
2026-01-21 18:06:21.243306	336.7	29.2	-69.4	0.0
2026-01-21 18:06:22.376485	336.8	29.0	-70.3	0.0
2026-01-21 18:06:23.511168	336.8	28.8	-70.2	0.0
2026-01-21 18:06:24.649527	336.9	28.6	-69.8	0.0
2026-01-21 18:06:25.783347	336.9	28.4	-70.9	0.0
2026-01-21 18:06:26.915980	337.0	28.2	-70.0	0.0
2026-01-21 18:06:28.054218	337.1	28.0	-70.4	0.0
2026-01-21 18:06:29.191819	337.1	27.8	-69.6	0.0
2026-01-21 18:06:30.326302	337.2	27.6	-70.1	0.0
2026-01-21 18:06:31.460677	337.2	27.4	-69.8	0.0
2026-01-21 18:06:32.594337	337.3	27.2	-67.6	0.0
2026-01-21 18:06:33.727889	337.3	27.0	-69.4	0.0
2026-01-21 18:06:34.864041	337.4	26.8	-69.4	0.0
2026-01-21 18:06:35.997069	337.4	26.6	-69.4	0.0
2026-01-21 18:06:37.133793	337.5	26.4	-68.9	0.0
2026-01-21 18:06:38.270580	337.6	26.2	-69.3	0.0
2026-01-21 18:06:39.407174	337.6	26.0	-69.5	0.0
2026-01-21 18:06:40.545307	337.7	25.8	-69.9	0.0
2026-01-21 18:06:41.685497	337.7	25.6	-68.4	0.0
2026-01-21 18:06:42.822331	337.8	25.5	-68.1	0.0
2026-01-21 18:06:43.961434	337.8	25.3	-68.5	0.0
2026-01-21 18:06:45.099321	337.9	25.1	-67.3	0.0
2026-01-21 18:06:46.237618	337.9	24.9	-69.3	0.0
2026-01-21 18:06:47.372846	338.0	24.7	-69.8	0.0
2026-01-21 18:06:48.511369	338.0	24.6	-70.2	0.0
2026-01-21 18:06:49.648783	338.0	24.4	-65.7	0.0
2026-01-21 18:06:50.787028	338.1	24.2	-67.9	0.0
2026-01-21 18:06:51.923610	338.1	24.0	-70.0	0.0
2026-01-21 18:06:53.064948	338.2	23.9	-69.6	0.0
2026-01-21 18:06:54.201705	338.2	23.7	-68.9	0.0
2026-01-21 18:06:55.337599	338.3	23.5	-69.8	0.0
2026-01-21 18:06:56.479529	338.3	23.3	-70.8	0.0
2026-01-21 18:06:57.616756	338.4	23.2	-70.0	0.0
2026-01-21 18:06:58.754295	338.4	23.0	-70.6	0.0
2026-01-21 18:06:59.893347	338.5	22.8	-70.6	0.0
2026-01-21 18:07:01.031617	338.5	22.7	-69.3	0.0
2026-01-21 18:07:02.168056	338.5	22.5	-70.1	0.0
2026-01-21 18:07:03.301896	338.6	22.3	-69.5	0.0
2026-01-21 18:07:04.431180	338.6	22.2	-69.6	0.0
2026-01-21 18:07:05.561667	338.7	22.0	-69.3	0.0
2026-01-21 18:07:06.692853	338.7	21.9	-68.8	0.0
2026-01-21 18:07:07.823223	338.7	21.7	-69.3	0.0
2026-01-21 18:07:08.954535	338.8	21.5	-70.0	0.0
2026-01-21 18:07:10.088237	338.8	21.4	-69.5	0.0
2026-01-21 18:07:11.219408	338.9	21.2	-69.6	0.0
2026-01-21 18:07:12.349622	338.9	21.1	-69.3	0.0
2026-01-21 18:07:13.481841	338.9	20.9	-68.0	0.0
2026-01-21 18:07:14.614725	339.0	20.8	-69.4	0.0
2026-01-21 18:07:15.748171	339.0	20.6	-69.7	0.0
2026-01-21 18:07:16.880721	339.1	20.5	-69.8	0.0
2026-01-21 18:07:18.010397	339.1	20.3	-70.0	0.0
2026-01-21 18:07:19.141285	339.1	20.2	-69.3	0.0
2026-01-21 18:07:20.277511	339.2	20.0	-65.0	0.0
2026-01-21 18:07:21.408333	339.2	19.9	-68.7	0.0
2026-01-21 18:07:22.540027	339.2	19.7	-69.6	0.0
2026-01-21 18:07:23.670019	339.3	19.6	-67.7	0.0
2026-01-21 18:07:24.799544	339.3	19.4	-69.3	0.0
2026-01-21 18:07:25.934386	339.4	19.3	-70.4	0.0
2026-01-21 18:07:27.065738	339.4	19.2	-69.5	0.0
2026-01-21 18:07:28.199811	339.4	19.0	-70.2	0.0
2026-01-21 18:07:29.331002	339.5	18.9	-69.3	0.0
2026-01-21 18:07:30.464337	339.5	18.7	-70.5	0.0
2026-01-21 18:07:31.598349	339.5	18.6	-68.6	0.0
2026-01-21 18:07:32.729709	339.6	18.5	-69.8	0.0
2026-01-21 18:07:33.865365	339.6	18.3	-69.0	0.0
2026-01-21 18:07:35.002725	339.6	18.2	-69.9	0.0
2026-01-21 18:07:36.130566	339.7	18.0	-70.3	0.0
2026-01-21 18:07:37.260755	339.7	17.9	-69.4	0.0
2026-01-21 18:07:38.391345	339.7	17.8	-70.6	0.0
2026-01-21 18:07:39.518684	339.8	17.6	-69.2	0.0
2026-01-21 18:07:40.650577	339.8	17.5	-69.2	0.0
2026-01-21 18:07:41.781605	339.8	17.4	-69.8	0.0
2026-01-21 18:07:42.912686	339.8	17.2	-70.2	0.0
2026-01-21 18:07:44.041045	339.9	17.1	-69.3	0.0
2026-01-21 18:07:45.173665	339.9	17.0	-70.8	0.0
2026-01-21 18:07:46.303484	339.9	16.8	-71.7	0.0
2026-01-21 18:07:47.433635	340.0	16.7	-72.3	0.0
2026-01-21 18:07:48.561892	340.0	16.6	-71.0	0.0
2026-01-21 18:07:49.691954	340.0	16.5	-72.0	0.0
2026-01-21 18:07:50.823054	340.1	16.3	-70.9	0.0
2026-01-21 18:07:51.954574	340.1	16.2	-71.1	0.0
2026-01-21 18:07:53.085672	340.1	16.1	-72.2	0.0
2026-01-21 18:07:54.213218	340.1	16.0	-69.3	0.0
2026-01-21 18:07:55.341707	340.2	15.8	-72.0	0.0
2026-01-21 18:07:56.470048	340.2	15.7	-71.3	0.0
2026-01-21 18:07:57.600440	340.2	15.6	-71.3	0.0
2026-01-21 18:07:58.732748	340.3	15.5	-72.3	0.0
2026-01-21 18:07:59.862607	340.3	15.3	-71.3	0.0
2026-01-21 18:08:00.994664	340.3	15.2	-70.9	0.0
2026-01-21 18:08:02.126213	340.3	15.1	-72.5	0.0
2026-01-21 18:08:03.258542	340.4	15.0	-72.6	0.0
2026-01-21 18:08:04.388225	340.4	14.9	-70.8	0.0
2026-01-21 18:08:05.514599	340.4	14.7	-70.1	0.0
2026-01-21 18:08:06.642028	340.5	14.6	-72.4	0.0
2026-01-21 18:08:07.769862	340.5	14.5	-72.3	0.0
2026-01-21 18:08:08.898879	340.5	14.4	-71.9	0.0
2026-01-21 18:08:10.027859	340.5	14.3	-72.4	0.0
2026-01-21 18:08:11.153349	340.6	14.1	-73.0	0.0
2026-01-21 18:08:12.284707	340.6	14.0	-70.9	0.0
2026-01-21 18:08:13.415235	340.6	13.9	-71.5	0.0
2026-01-21 18:08:14.540978	340.6	13.8	-71.5	0.0
2026-01-21 18:08:15.672636	340.7	13.7	-72.8	0.0
2026-01-21 18:08:16.799736	340.7	13.6	-72.6	0.0
2026-01-21 18:08:17.930441	340.7	13.5	-73.2	0.0
2026-01-21 18:08:19.060604	340.7	13.3	-74.0	0.0
2026-01-21 18:08:20.189444	340.8	13.2	-73.1	0.0
2026-01-21 18:08:21.317907	340.8	13.1	-73.5	0.0
2026-01-21 18:08:22.447702	340.8	13.0	-73.5	0.0
2026-01-21 18:08:23.577206	340.8	12.9	-73.5	0.0
2026-01-21 18:08:24.705388	340.9	12.8	-73.1	0.0
2026-01-21 18:08:25.837360	340.9	12.7	-73.9	0.0
2026-01-21 18:08:26.967977	340.9	12.6	-73.7	0.0
2026-01-21 18:08:28.101386	340.9	12.5	-73.4	0.0
2026-01-21 18:08:29.234569	341.0	12.4	-72.2	0.0
2026-01-21 18:08:30.366358	341.0	12.2	-72.7	0.0
2026-01-21 18:08:31.498373	341.0	12.1	-71.7	0.0
2026-01-21 18:08:32.627210	341.0	12.0	-73.0	0.0
2026-01-21 18:08:33.761704	341.1	11.9	-74.0	0.0
2026-01-21 18:08:34.892902	341.1	11.8	-73.0	0.0
2026-01-21 18:08:36.027327	341.1	11.7	-73.1	0.0
2026-01-21 18:08:37.162481	341.1	11.6	-72.6	0.0
2026-01-21 18:08:38.297862	341.1	11.5	-72.9	0.0
2026-01-21 18:08:39.434703	341.2	11.4	-72.0	0.0
2026-01-21 18:08:40.566703	341.2	11.3	-72.7	0.0
2026-01-21 18:08:41.702112	341.2	11.2	-72.3	0.0
2026-01-21 18:08:42.836411	341.2	11.1	-71.4	0.0
2026-01-21 18:08:43.970238	341.3	11.0	-72.5	0.0
2026-01-21 18:08:45.103153	341.3	10.9	-70.1	0.0
2026-01-21 18:08:46.238579	341.3	10.8	-70.6	0.0
2026-01-21 18:08:47.372693	341.3	10.7	-71.3	0.0
2026-01-21 18:08:48.505231	341.3	10.6	-70.7	0.0
2026-01-21 18:08:49.640563	341.4	10.5	-69.9	0.0
2026-01-21 18:08:50.774038	341.4	10.4	-71.5	0.0
2026-01-21 18:08:51.906941	341.4	10.3	-72.1	0.0
2026-01-21 18:08:53.041632	341.4	10.2	-74.7	0.0
2026-01-21 18:08:54.174179	341.5	10.1	-78.1	0.0
#Closed at: 2026-01-21 17:58:07.820972