passes_logs/2026/01/21/planumMaritime01/planumMaritime01__20260121_062935_METEOR-M2_3_rec.log

#Pass ID: 20260121_062935_METEOR-M2 3
#Satellite: METEOR-M2 3
#Configuration: METEOR-M2 3
#Start time: 2026-01-21 06:29:40.247226

#LorettStation: 1.0.0 05.05.2024
#Station: planumMaritime01
#Location: 37.49445 lon 55.92918 lat
#TLE: 1 57166U 23091A   26019.98490498  .00000035  00000+0  34315-4 0  9996
#TLE: 2 57166  98.6319  77.8458 0003107 230.7688 129.3216 14.24031181133429

#Time	Az	El	Level	SNR
2026-01-21 06:29:42.419925	29.3	10.2	-75.0	0.0
2026-01-21 06:29:43.550855	29.4	10.3	-79.2	0.0
2026-01-21 06:29:44.682940	29.5	10.3	-77.5	0.0
2026-01-21 06:29:45.816266	29.6	10.4	-70.8	0.0
2026-01-21 06:29:46.947531	29.7	10.5	-74.8	0.0
2026-01-21 06:29:48.079418	29.8	10.6	-71.9	0.0
2026-01-21 06:29:49.211551	29.9	10.7	-71.0	0.0
2026-01-21 06:29:50.345167	30.0	10.8	-68.9	0.0
2026-01-21 06:29:51.476312	30.1	10.9	-66.1	0.0
2026-01-21 06:29:52.608966	30.2	11.0	-67.9	0.0
2026-01-21 06:29:53.740118	30.3	11.1	-62.3	0.0
2026-01-21 06:29:54.873679	30.4	11.2	-65.2	0.0
2026-01-21 06:29:56.006650	30.5	11.2	-62.9	0.0
2026-01-21 06:29:57.140898	30.6	11.3	-62.7	0.0
2026-01-21 06:29:58.274519	30.7	11.4	-62.6	0.0
2026-01-21 06:29:59.406217	30.8	11.5	-64.5	0.0
2026-01-21 06:30:00.540667	30.9	11.6	-66.3	0.0
2026-01-21 06:30:01.671457	31.1	11.7	-65.7	0.0
2026-01-21 06:30:02.807369	31.2	11.8	-63.9	0.0
2026-01-21 06:30:03.939463	31.3	11.9	-65.8	0.0
2026-01-21 06:30:05.069994	31.4	12.0	-65.2	0.0
2026-01-21 06:30:06.202862	31.5	12.1	-62.1	0.0
2026-01-21 06:30:07.333383	31.6	12.2	-64.2	0.0
2026-01-21 06:30:08.464270	31.7	12.3	-62.4	0.0
2026-01-21 06:30:09.597165	31.8	12.4	-61.2	0.0
2026-01-21 06:30:10.727498	31.9	12.4	-65.2	0.0
2026-01-21 06:30:11.858573	32.0	12.5	-63.4	0.0
2026-01-21 06:30:12.991090	32.1	12.6	-62.7	0.0
2026-01-21 06:30:14.120446	32.3	12.7	-62.0	0.0
2026-01-21 06:30:15.254320	32.4	12.8	-63.2	0.0
2026-01-21 06:30:16.389612	32.5	12.9	-65.7	0.0
2026-01-21 06:30:17.524280	32.6	13.0	-64.9	0.0
2026-01-21 06:30:18.660345	32.7	13.1	-63.9	0.0
2026-01-21 06:30:19.797933	32.8	13.2	-64.9	0.0
2026-01-21 06:30:20.936983	32.9	13.3	-62.4	0.0
2026-01-21 06:30:22.073104	33.1	13.4	-63.6	0.0
2026-01-21 06:30:23.209692	33.2	13.5	-65.3	0.0
2026-01-21 06:30:24.347353	33.3	13.6	-65.9	0.0
2026-01-21 06:30:25.483304	33.4	13.7	-66.8	0.0
2026-01-21 06:30:26.620225	33.5	13.8	-65.3	0.0
2026-01-21 06:30:27.758352	33.7	13.9	-66.7	0.0
2026-01-21 06:30:28.895394	33.8	14.0	-65.4	0.0
2026-01-21 06:30:30.032348	33.9	14.1	-62.7	0.0
2026-01-21 06:30:31.169729	34.0	14.2	-55.4	0.0
2026-01-21 06:30:32.306324	34.2	14.3	-64.5	0.0
2026-01-21 06:30:33.443181	34.3	14.4	-63.5	0.0
2026-01-21 06:30:34.580363	34.4	14.5	-65.3	0.0
2026-01-21 06:30:35.710469	34.5	14.6	-62.6	0.0
2026-01-21 06:30:36.837402	34.7	14.7	-63.7	0.0
2026-01-21 06:30:37.965638	34.8	14.8	-63.6	0.0
2026-01-21 06:30:39.092102	34.9	14.9	-60.3	0.0
2026-01-21 06:30:40.220910	35.1	15.0	-67.5	0.0
2026-01-21 06:30:41.349550	35.2	15.1	-65.9	0.0
2026-01-21 06:30:42.478003	35.3	15.2	-66.1	0.0
2026-01-21 06:30:43.604173	35.4	15.3	-68.1	0.0
2026-01-21 06:30:44.734627	35.6	15.4	-67.4	0.0
2026-01-21 06:30:45.862920	35.7	15.5	-64.8	0.0
2026-01-21 06:30:46.991163	35.9	15.6	-64.8	0.0
2026-01-21 06:30:48.119993	36.0	15.7	-65.4	0.0
2026-01-21 06:30:49.248040	36.1	15.8	-64.7	0.0
2026-01-21 06:30:50.375219	36.3	15.9	-65.0	0.0
2026-01-21 06:30:51.501875	36.4	16.0	-62.6	0.0
2026-01-21 06:30:52.628441	36.5	16.1	-66.7	0.0
2026-01-21 06:30:53.756266	36.7	16.2	-66.4	0.0
2026-01-21 06:30:54.884714	36.8	16.4	-65.5	0.0
2026-01-21 06:30:56.014574	37.0	16.5	-65.2	0.0
2026-01-21 06:30:57.145183	37.1	16.6	-66.5	0.0
2026-01-21 06:30:58.274536	37.3	16.7	-66.2	0.0
2026-01-21 06:30:59.402046	37.4	16.8	-66.1	0.0
2026-01-21 06:31:00.539098	37.6	16.9	-67.3	0.0
2026-01-21 06:31:01.678401	37.7	17.0	-67.0	0.0
2026-01-21 06:31:02.815994	37.9	17.1	-67.0	0.0
2026-01-21 06:31:03.953807	38.0	17.2	-68.2	0.0
2026-01-21 06:31:05.090800	38.2	17.3	-68.5	0.0
2026-01-21 06:31:06.226278	38.3	17.4	-66.1	0.0
2026-01-21 06:31:07.364414	38.5	17.5	-67.4	0.0
2026-01-21 06:31:08.502913	38.6	17.7	-68.8	0.0
2026-01-21 06:31:09.642598	38.8	17.8	-68.3	0.0
2026-01-21 06:31:10.780034	38.9	17.9	-67.5	0.0
2026-01-21 06:31:11.919339	39.1	18.0	-67.7	0.0
2026-01-21 06:31:13.054639	39.2	18.1	-66.5	0.0
2026-01-21 06:31:14.193500	39.4	18.2	-68.5	0.0
2026-01-21 06:31:15.330926	39.6	18.3	-70.1	0.0
2026-01-21 06:31:16.469883	39.7	18.4	-68.8	0.0
2026-01-21 06:31:17.607414	39.9	18.5	-71.4	0.0
2026-01-21 06:31:18.745236	40.1	18.7	-69.6	0.0
2026-01-21 06:31:19.883170	40.2	18.8	-70.8	0.0
2026-01-21 06:31:21.019987	40.4	18.9	-66.1	0.0
2026-01-21 06:31:22.161373	40.6	19.0	-67.8	0.0
2026-01-21 06:31:23.298078	40.7	19.1	-70.4	0.0
2026-01-21 06:31:24.436222	40.9	19.2	-68.3	0.0
2026-01-21 06:31:25.574839	41.1	19.3	-70.1	0.0
2026-01-21 06:31:26.713846	41.3	19.5	-70.2	0.0
2026-01-21 06:31:27.855303	41.4	19.6	-69.9	0.0
2026-01-21 06:31:28.997421	41.6	19.7	-69.5	0.0
2026-01-21 06:31:30.137706	41.8	19.8	-64.8	0.0
2026-01-21 06:31:31.273724	42.0	19.9	-63.9	0.0
2026-01-21 06:31:32.411403	42.2	20.0	-68.5	0.0
2026-01-21 06:31:33.547888	42.3	20.2	-66.0	0.0
2026-01-21 06:31:34.686243	42.5	20.3	-69.6	0.0
2026-01-21 06:31:35.820704	42.7	20.4	-70.7	0.0
2026-01-21 06:31:36.957803	42.9	20.5	-69.4	0.0
2026-01-21 06:31:38.092154	43.1	20.6	-72.6	0.0
2026-01-21 06:31:39.228866	43.3	20.7	-68.6	0.0
2026-01-21 06:31:40.364649	43.5	20.9	-69.1	0.0
2026-01-21 06:31:41.501140	43.7	21.0	-69.1	0.0
2026-01-21 06:31:42.634388	43.8	21.1	-70.7	0.0
2026-01-21 06:31:43.769609	44.0	21.2	-71.2	0.0
2026-01-21 06:31:44.904742	44.2	21.3	-71.4	0.0
2026-01-21 06:31:46.038052	44.4	21.4	-72.1	0.0
2026-01-21 06:31:47.173219	44.6	21.6	-69.9	0.0
2026-01-21 06:31:48.308277	44.8	21.7	-70.4	0.0
2026-01-21 06:31:49.443364	45.0	21.8	-72.3	0.0
2026-01-21 06:31:50.580309	45.2	21.9	-71.9	0.0
2026-01-21 06:31:51.716727	45.4	22.0	-70.6	0.0
2026-01-21 06:31:52.854760	45.7	22.2	-73.3	0.0
2026-01-21 06:31:53.993200	45.9	22.3	-71.8	0.0
2026-01-21 06:31:55.131226	46.1	22.4	-72.9	0.0
2026-01-21 06:31:56.267376	46.3	22.5	-72.9	0.0
2026-01-21 06:31:57.403988	46.5	22.7	-72.0	0.0
2026-01-21 06:31:58.540518	46.7	22.8	-74.3	0.0
2026-01-21 06:31:59.679198	46.9	22.9	-73.4	0.0
2026-01-21 06:32:00.815523	47.1	23.0	-73.8	1.3
2026-01-21 06:32:01.946023	47.4	23.1	-73.5	1.0
2026-01-21 06:32:03.075992	47.6	23.3	-73.6	0.0
2026-01-21 06:32:04.205448	47.8	23.4	-73.4	0.9
2026-01-21 06:32:05.336536	48.0	23.5	-73.8	1.2
2026-01-21 06:32:06.465854	48.3	23.6	-73.5	0.0
2026-01-21 06:32:07.595895	48.5	23.7	-73.9	0.5
2026-01-21 06:32:08.724334	48.7	23.9	-70.6	0.0
2026-01-21 06:32:09.854243	48.9	24.0	-70.2	0.0
2026-01-21 06:32:10.984018	49.2	24.1	-70.5	0.0
2026-01-21 06:32:12.114088	49.4	24.2	-70.0	0.0
2026-01-21 06:32:13.246660	49.7	24.4	-69.5	0.0
2026-01-21 06:32:14.379521	49.9	24.5	-72.3	0.0
2026-01-21 06:32:15.510391	50.1	24.6	-72.6	0.0
2026-01-21 06:32:16.639142	50.4	24.7	-73.4	2.7
2026-01-21 06:32:17.769906	50.6	24.9	-71.8	1.3
2026-01-21 06:32:18.902778	50.9	25.0	-71.8	0.0
2026-01-21 06:32:20.033737	51.1	25.1	-74.4	2.1
2026-01-21 06:32:21.166678	51.4	25.2	-72.6	0.0
2026-01-21 06:32:22.305807	51.6	25.3	-72.8	0.0
2026-01-21 06:32:23.442422	51.9	25.5	-74.2	1.5
2026-01-21 06:32:24.579207	52.1	25.6	-72.5	0.0
2026-01-21 06:32:25.716628	52.4	25.7	-73.4	0.0
2026-01-21 06:32:26.853975	52.6	25.8	-73.4	0.0
2026-01-21 06:32:27.989798	52.9	26.0	-73.4	3.2
2026-01-21 06:32:29.125804	53.2	26.1	-73.2	2.0
2026-01-21 06:32:30.262960	53.4	26.2	-73.7	3.7
2026-01-21 06:32:31.400538	53.7	26.3	-74.2	2.6
2026-01-21 06:32:32.537965	54.0	26.5	-74.8	4.9
2026-01-21 06:32:33.674772	54.3	26.6	-74.8	1.8
2026-01-21 06:32:34.808200	54.5	26.7	-74.2	2.6
2026-01-21 06:32:35.942191	54.8	26.8	-74.6	1.4
2026-01-21 06:32:37.073456	55.1	26.9	-73.7	1.7
2026-01-21 06:32:38.205050	55.4	27.1	-74.1	2.5
2026-01-21 06:32:39.334712	55.6	27.2	-73.3	1.3
2026-01-21 06:32:40.465014	55.9	27.3	-74.5	2.7
2026-01-21 06:32:41.597401	56.2	27.4	-73.4	3.5
2026-01-21 06:32:42.722364	56.5	27.6	-74.3	4.0
2026-01-21 06:32:43.850699	56.8	27.7	-74.5	4.8
2026-01-21 06:32:44.980977	57.1	27.8	-74.4	4.3
2026-01-21 06:32:46.110723	57.4	27.9	-74.7	4.3
2026-01-21 06:32:47.241143	57.7	28.0	-74.8	0.8
2026-01-21 06:32:48.371676	58.0	28.2	-74.8	5.7
2026-01-21 06:32:49.502071	58.3	28.3	-74.2	2.5
2026-01-21 06:32:50.631703	58.6	28.4	-73.8	4.2
2026-01-21 06:32:51.759759	58.9	28.5	-74.7	3.8
2026-01-21 06:32:52.887310	59.2	28.6	-74.1	5.8
2026-01-21 06:32:54.018379	59.5	28.8	-74.4	1.6
2026-01-21 06:32:55.147604	59.8	28.9	-75.1	6.0
2026-01-21 06:32:56.275451	60.1	29.0	-74.9	6.3
2026-01-21 06:32:57.404471	60.5	29.1	-75.0	7.3
2026-01-21 06:32:58.534389	60.8	29.2	-74.7	6.3
2026-01-21 06:32:59.664224	61.1	29.3	-74.8	4.9
2026-01-21 06:33:00.794009	61.4	29.5	-74.1	4.4
2026-01-21 06:33:01.923039	61.7	29.6	-75.0	3.8
2026-01-21 06:33:03.054508	62.1	29.7	-74.8	7.2
2026-01-21 06:33:04.193015	62.4	29.8	-74.0	4.8
2026-01-21 06:33:05.330390	62.7	29.9	-74.1	5.8
2026-01-21 06:33:06.466854	63.1	30.0	-74.5	5.9
2026-01-21 06:33:07.603555	63.4	30.1	-74.7	6.4
2026-01-21 06:33:08.741696	63.8	30.3	-74.2	3.7
2026-01-21 06:33:09.878480	64.1	30.4	-74.5	5.7
2026-01-21 06:33:11.017374	64.5	30.5	-72.9	3.9
2026-01-21 06:33:12.155520	64.8	30.6	-72.5	0.8
2026-01-21 06:33:13.290243	65.2	30.7	-74.7	4.9
2026-01-21 06:33:14.429006	65.5	30.8	-75.3	4.9
2026-01-21 06:33:15.563676	65.9	30.9	-75.5	6.8
2026-01-21 06:33:16.699029	66.2	31.0	-75.8	6.8
2026-01-21 06:33:17.836558	66.6	31.1	-75.6	7.4
2026-01-21 06:33:18.973280	67.0	31.2	-74.0	0.0
2026-01-21 06:33:20.108893	67.3	31.3	-76.6	8.7
2026-01-21 06:33:21.249237	67.7	31.4	-75.7	7.8
2026-01-21 06:33:22.385640	68.1	31.5	-75.7	7.5
2026-01-21 06:33:23.520694	68.4	31.6	-76.6	8.0
2026-01-21 06:33:24.658041	68.8	31.7	-75.7	5.2
2026-01-21 06:33:25.793654	69.2	31.8	-75.7	6.2
2026-01-21 06:33:26.926338	69.6	31.9	-76.3	7.8
2026-01-21 06:33:28.064330	70.0	32.0	-76.0	8.4
2026-01-21 06:33:29.198382	70.3	32.1	-75.9	7.3
2026-01-21 06:33:30.333887	70.7	32.2	-75.8	6.7
2026-01-21 06:33:31.469582	71.1	32.3	-75.9	5.6
2026-01-21 06:33:32.603565	71.5	32.4	-76.1	9.3
2026-01-21 06:33:33.742346	71.9	32.5	-76.3	9.4
2026-01-21 06:33:34.882103	72.3	32.6	-75.7	5.6
2026-01-21 06:33:36.019473	72.7	32.7	-75.0	5.6
2026-01-21 06:33:37.152964	73.1	32.8	-74.7	5.5
2026-01-21 06:33:38.284678	73.5	32.9	-74.7	5.0
2026-01-21 06:33:39.420186	73.9	33.0	-75.3	6.3
2026-01-21 06:33:40.554814	74.3	33.0	-75.3	7.8
2026-01-21 06:33:41.688061	74.7	33.1	-75.0	6.3
2026-01-21 06:33:42.816086	75.1	33.2	-75.3	5.2
2026-01-21 06:33:43.944024	75.5	33.3	-74.5	5.7
2026-01-21 06:33:45.073684	75.9	33.4	-74.8	6.8
2026-01-21 06:33:46.204375	76.4	33.4	-75.2	6.8
2026-01-21 06:33:47.334039	76.8	33.5	-75.3	8.7
2026-01-21 06:33:48.462715	77.2	33.6	-75.6	8.1
2026-01-21 06:33:49.591828	77.6	33.7	-75.2	7.5
2026-01-21 06:33:50.722603	78.0	33.7	-74.9	7.8
2026-01-21 06:33:51.855378	78.5	33.8	-75.8	7.8
2026-01-21 06:33:52.987409	78.9	33.9	-75.0	5.5
2026-01-21 06:33:54.114580	79.3	33.9	-75.3	6.2
2026-01-21 06:33:55.245372	79.7	34.0	-75.7	8.2
2026-01-21 06:33:56.375518	80.2	34.1	-75.4	6.6
2026-01-21 06:33:57.506077	80.6	34.1	-75.8	8.4
2026-01-21 06:33:58.636077	81.0	34.2	-76.1	8.4
2026-01-21 06:33:59.767865	81.5	34.3	-76.7	8.0
2026-01-21 06:34:00.904806	81.9	34.3	-76.2	7.5
2026-01-21 06:34:02.036844	82.4	34.4	-76.3	7.4
2026-01-21 06:34:03.170625	82.8	34.4	-77.0	9.4
2026-01-21 06:34:04.306113	83.2	34.5	-75.6	7.1
2026-01-21 06:34:05.440818	83.7	34.5	-75.9	5.4
2026-01-21 06:34:06.574616	84.1	34.6	-76.0	7.8
2026-01-21 06:34:07.708670	84.6	34.6	-76.6	9.8
2026-01-21 06:34:08.840041	85.0	34.7	-76.7	9.3
2026-01-21 06:34:09.973918	85.5	34.7	-76.6	8.1
2026-01-21 06:34:11.107283	85.9	34.8	-76.6	8.8
2026-01-21 06:34:12.242068	86.4	34.8	-76.7	8.7
2026-01-21 06:34:13.375000	86.8	34.8	-76.2	8.4
2026-01-21 06:34:14.509269	87.3	34.9	-76.3	8.2
2026-01-21 06:34:15.642297	87.8	34.9	-76.8	7.8
2026-01-21 06:34:16.776167	88.2	34.9	-77.1	11.0
2026-01-21 06:34:17.912856	88.7	35.0	-75.7	6.5
2026-01-21 06:34:19.046641	89.1	35.0	-75.8	6.6
2026-01-21 06:34:20.180875	89.6	35.0	-75.7	7.6
2026-01-21 06:34:21.316294	90.0	35.0	-76.4	8.3
2026-01-21 06:34:22.451282	90.5	35.1	-76.1	7.5
2026-01-21 06:34:23.586381	91.0	35.1	-77.0	10.1
2026-01-21 06:34:24.725129	91.4	35.1	-76.5	8.1
2026-01-21 06:34:25.860602	91.9	35.1	-76.3	7.8
2026-01-21 06:34:26.999838	92.4	35.1	-76.1	6.8
2026-01-21 06:34:28.141409	92.8	35.1	-76.3	9.7
2026-01-21 06:34:29.276209	93.3	35.1	-75.1	5.1
2026-01-21 06:34:30.411746	93.8	35.1	-75.8	6.4
2026-01-21 06:34:31.545268	94.2	35.2	-75.9	7.4
2026-01-21 06:34:32.681091	94.7	35.2	-76.1	8.4
2026-01-21 06:34:33.819078	95.1	35.2	-76.2	8.7
2026-01-21 06:34:34.957744	95.6	35.2	-75.9	8.1
2026-01-21 06:34:36.093232	96.1	35.1	-75.6	6.4
2026-01-21 06:34:37.229064	96.5	35.1	-74.2	4.5
2026-01-21 06:34:38.367308	97.0	35.1	-75.3	6.0
2026-01-21 06:34:39.505113	97.5	35.1	-76.7	8.4
2026-01-21 06:34:40.641385	97.9	35.1	-75.4	5.3
2026-01-21 06:34:41.780273	98.4	35.1	-75.4	4.4
2026-01-21 06:34:42.917408	98.9	35.1	-75.5	6.3
2026-01-21 06:34:44.056943	99.3	35.1	-76.8	9.1
2026-01-21 06:34:45.195015	99.8	35.0	-76.9	8.8
2026-01-21 06:34:46.331764	100.2	35.0	-76.7	8.2
2026-01-21 06:34:47.469997	100.7	35.0	-76.5	8.0
2026-01-21 06:34:48.605969	101.2	35.0	-76.6	8.5
2026-01-21 06:34:49.734437	101.6	34.9	-77.2	9.3
2026-01-21 06:34:50.865748	102.1	34.9	-76.5	8.4
2026-01-21 06:34:51.994934	102.5	34.9	-76.6	8.7
2026-01-21 06:34:53.128419	103.0	34.9	-75.2	5.5
2026-01-21 06:34:54.259703	103.4	34.8	-76.6	10.7
2026-01-21 06:34:55.389022	103.9	34.8	-76.2	10.0
2026-01-21 06:34:56.518092	104.4	34.7	-76.3	9.7
2026-01-21 06:34:57.646315	104.8	34.7	-76.4	9.2
2026-01-21 06:34:58.774091	105.3	34.7	-76.2	10.2
2026-01-21 06:34:59.903569	105.7	34.6	-75.8	9.8
2026-01-21 06:35:01.033950	106.1	34.6	-76.0	9.0
2026-01-21 06:35:02.163250	106.6	34.5	-75.7	9.5
2026-01-21 06:35:03.290074	107.0	34.5	-76.4	9.2
2026-01-21 06:35:04.419183	107.5	34.4	-76.3	9.9
2026-01-21 06:35:05.549644	107.9	34.4	-75.7	6.6
2026-01-21 06:35:06.678252	108.4	34.3	-75.3	6.6
2026-01-21 06:35:07.808234	108.8	34.2	-75.7	9.3
2026-01-21 06:35:08.940930	109.2	34.2	-76.1	8.2
2026-01-21 06:35:10.071147	109.7	34.1	-76.3	10.6
2026-01-21 06:35:11.200609	110.1	34.1	-76.6	9.9
2026-01-21 06:35:12.329392	110.5	34.0	-76.9	10.8
2026-01-21 06:35:13.463942	111.0	33.9	-76.3	7.6
2026-01-21 06:35:14.602387	111.4	33.9	-76.7	9.8
2026-01-21 06:35:15.739203	111.8	33.8	-77.4	11.1
2026-01-21 06:35:16.877404	112.3	33.7	-77.3	9.9
2026-01-21 06:35:18.014934	112.7	33.7	-76.8	11.2
2026-01-21 06:35:19.152332	113.1	33.6	-76.9	10.3
2026-01-21 06:35:20.290270	113.5	33.5	-76.9	10.2
2026-01-21 06:35:21.427486	114.0	33.4	-77.4	11.0
2026-01-21 06:35:22.564049	114.4	33.3	-77.2	10.5
2026-01-21 06:35:23.702039	114.8	33.3	-77.1	11.2
2026-01-21 06:35:24.839398	115.2	33.2	-77.3	11.9
2026-01-21 06:35:25.977131	115.6	33.1	-77.3	12.4
2026-01-21 06:35:27.115920	116.0	33.0	-77.0	10.1
2026-01-21 06:35:28.252739	116.4	32.9	-77.0	8.1
2026-01-21 06:35:29.388927	116.8	32.8	-77.3	12.5
2026-01-21 06:35:30.522504	117.2	32.8	-76.8	9.7
2026-01-21 06:35:31.659439	117.6	32.7	-77.0	11.6
2026-01-21 06:35:32.796015	118.0	32.6	-76.8	9.4
2026-01-21 06:35:33.935133	118.4	32.5	-76.6	9.6
2026-01-21 06:35:35.070125	118.8	32.4	-76.6	10.9
2026-01-21 06:35:36.204631	119.2	32.3	-77.8	12.0
2026-01-21 06:35:37.340388	119.6	32.2	-77.1	11.5
2026-01-21 06:35:38.475954	120.0	32.1	-76.8	10.9
2026-01-21 06:35:39.610762	120.4	32.0	-77.3	10.0
2026-01-21 06:35:40.745865	120.8	31.9	-76.8	9.9
2026-01-21 06:35:41.881378	121.1	31.8	-77.7	11.3
2026-01-21 06:35:43.014359	121.5	31.7	-77.6	12.1
2026-01-21 06:35:44.149005	121.9	31.6	-77.5	11.5
2026-01-21 06:35:45.283264	122.3	31.5	-77.1	10.4
2026-01-21 06:35:46.417836	122.6	31.4	-77.3	11.7
2026-01-21 06:35:47.550947	123.0	31.3	-77.4	12.0
2026-01-21 06:35:48.685341	123.4	31.2	-78.0	12.7
2026-01-21 06:35:49.820031	123.7	31.1	-77.4	12.5
2026-01-21 06:35:50.951547	124.1	31.0	-77.6	12.3
2026-01-21 06:35:52.085625	124.5	30.9	-77.7	11.9
2026-01-21 06:35:53.218076	124.8	30.8	-77.4	11.9
2026-01-21 06:35:54.354540	125.2	30.6	-77.4	11.2
2026-01-21 06:35:55.489034	125.5	30.5	-77.7	11.7
2026-01-21 06:35:56.623979	125.9	30.4	-77.9	13.0
2026-01-21 06:35:57.755361	126.2	30.3	-77.7	12.1
2026-01-21 06:35:58.890564	126.6	30.2	-77.4	10.4
2026-01-21 06:36:00.027964	126.9	30.1	-77.6	11.5
2026-01-21 06:36:01.165290	127.3	30.0	-77.5	10.1
2026-01-21 06:36:02.303428	127.6	29.9	-77.7	11.1
2026-01-21 06:36:03.441177	127.9	29.7	-77.6	10.5
2026-01-21 06:36:04.580662	128.3	29.6	-77.7	11.2
2026-01-21 06:36:05.717141	128.6	29.5	-77.5	10.1
2026-01-21 06:36:06.854930	128.9	29.4	-78.1	12.6
2026-01-21 06:36:07.989364	129.3	29.3	-77.4	11.4
2026-01-21 06:36:09.125663	129.6	29.2	-77.7	11.5
2026-01-21 06:36:10.259836	129.9	29.0	-77.5	10.8
2026-01-21 06:36:11.393482	130.2	28.9	-77.1	9.4
2026-01-21 06:36:12.528522	130.5	28.8	-78.0	12.1
2026-01-21 06:36:13.661371	130.9	28.7	-78.2	11.7
2026-01-21 06:36:14.796338	131.2	28.6	-78.4	12.9
2026-01-21 06:36:15.930671	131.5	28.4	-78.4	12.8
2026-01-21 06:36:17.067275	131.8	28.3	-78.3	12.5
2026-01-21 06:36:18.199386	132.1	28.2	-78.2	10.6
2026-01-21 06:36:19.334792	132.4	28.1	-78.3	12.5
2026-01-21 06:36:20.470724	132.7	28.0	-77.7	10.8
2026-01-21 06:36:21.609441	133.0	27.8	-78.2	11.3
2026-01-21 06:36:22.744597	133.3	27.7	-78.1	12.5
2026-01-21 06:36:23.883406	133.6	27.6	-77.7	11.7
2026-01-21 06:36:25.017145	133.9	27.5	-77.6	11.8
2026-01-21 06:36:26.150362	134.2	27.3	-77.6	11.0
2026-01-21 06:36:27.285438	134.5	27.2	-77.7	11.9
2026-01-21 06:36:28.421362	134.7	27.1	-77.9	12.5
2026-01-21 06:36:29.556560	135.0	27.0	-77.9	11.6
2026-01-21 06:36:30.693861	135.3	26.9	-78.1	11.4
2026-01-21 06:36:31.829097	135.6	26.7	-77.9	11.9
2026-01-21 06:36:32.966590	135.9	26.6	-77.9	12.1
2026-01-21 06:36:34.103121	136.1	26.5	-77.6	10.4
2026-01-21 06:36:35.238489	136.4	26.4	-77.6	11.7
2026-01-21 06:36:36.373046	136.7	26.2	-77.8	11.7
2026-01-21 06:36:37.510799	137.0	26.1	-77.3	11.4
2026-01-21 06:36:38.647375	137.2	26.0	-77.3	11.7
2026-01-21 06:36:39.782142	137.5	25.9	-77.8	11.3
2026-01-21 06:36:40.920520	137.8	25.7	-77.7	12.0
2026-01-21 06:36:42.060495	138.0	25.6	-77.7	11.1
2026-01-21 06:36:43.197135	138.3	25.5	-77.6	11.3
2026-01-21 06:36:44.330494	138.5	25.4	-77.4	12.4
2026-01-21 06:36:45.468098	138.8	25.2	-77.7	12.3
2026-01-21 06:36:46.604428	139.0	25.1	-77.3	10.9
2026-01-21 06:36:47.740954	139.3	25.0	-77.4	11.7
2026-01-21 06:36:48.872451	139.5	24.9	-77.8	12.8
2026-01-21 06:36:50.004264	139.8	24.7	-77.6	11.8
2026-01-21 06:36:51.133307	140.0	24.6	-77.7	11.2
2026-01-21 06:36:52.260734	140.3	24.5	-77.5	12.0
2026-01-21 06:36:53.391410	140.5	24.4	-77.3	11.8
2026-01-21 06:36:54.519926	140.7	24.2	-77.2	11.5
2026-01-21 06:36:55.648274	141.0	24.1	-77.7	11.6
2026-01-21 06:36:56.778147	141.2	24.0	-77.5	12.0
2026-01-21 06:36:57.908200	141.4	23.9	-77.2	12.1
2026-01-21 06:36:59.036423	141.7	23.7	-77.5	12.1
2026-01-21 06:37:00.163626	141.9	23.6	-77.3	10.8
2026-01-21 06:37:01.291710	142.1	23.5	-77.5	9.9
2026-01-21 06:37:02.419923	142.4	23.4	-77.4	9.8
2026-01-21 06:37:03.549913	142.6	23.3	-77.6	11.2
2026-01-21 06:37:04.679736	142.8	23.1	-77.6	10.9
2026-01-21 06:37:05.809545	143.0	23.0	-77.8	11.2
2026-01-21 06:37:06.936861	143.2	22.9	-77.8	10.0
2026-01-21 06:37:08.067069	143.5	22.8	-77.9	9.9
2026-01-21 06:37:09.194338	143.7	22.6	-77.9	11.2
2026-01-21 06:37:10.324365	143.9	22.5	-77.9	10.7
2026-01-21 06:37:11.455375	144.1	22.4	-77.7	10.2
2026-01-21 06:37:12.590026	144.3	22.3	-78.1	11.2
2026-01-21 06:37:13.723862	144.5	22.2	-78.0	11.5
2026-01-21 06:37:14.860208	144.7	22.0	-77.7	9.2
2026-01-21 06:37:15.996130	144.9	21.9	-77.9	10.9
2026-01-21 06:37:17.131675	145.1	21.8	-77.8	10.9
2026-01-21 06:37:18.268190	145.4	21.7	-77.7	10.6
2026-01-21 06:37:19.404879	145.6	21.6	-78.2	10.7
2026-01-21 06:37:20.538562	145.8	21.4	-78.2	11.1
2026-01-21 06:37:21.674955	146.0	21.3	-77.5	9.4
2026-01-21 06:37:22.810977	146.2	21.2	-77.6	8.9
2026-01-21 06:37:23.944697	146.3	21.1	-77.5	9.4
2026-01-21 06:37:25.081089	146.5	20.9	-77.8	9.0
2026-01-21 06:37:26.215284	146.7	20.8	-77.5	9.8
2026-01-21 06:37:27.349131	146.9	20.7	-77.6	8.6
2026-01-21 06:37:28.483887	147.1	20.6	-78.0	11.0
2026-01-21 06:37:29.618518	147.3	20.5	-77.8	10.7
2026-01-21 06:37:30.752695	147.5	20.4	-77.2	8.5
2026-01-21 06:37:31.887057	147.7	20.2	-77.7	8.5
2026-01-21 06:37:33.021998	147.9	20.1	-77.7	8.1
2026-01-21 06:37:34.161315	148.0	20.0	-78.0	9.7
2026-01-21 06:37:35.300374	148.2	19.9	-76.8	7.2
2026-01-21 06:37:36.438761	148.4	19.8	-77.8	8.8
2026-01-21 06:37:37.570467	148.6	19.7	-77.7	8.3
2026-01-21 06:37:38.699060	148.8	19.5	-76.0	4.1
2026-01-21 06:37:39.831773	148.9	19.4	-76.4	4.7
2026-01-21 06:37:40.966441	149.1	19.3	-77.7	9.9
2026-01-21 06:37:42.103853	149.3	19.2	-77.6	9.7
2026-01-21 06:37:43.240402	149.5	19.1	-77.8	9.4
2026-01-21 06:37:44.376883	149.6	19.0	-77.4	7.9
2026-01-21 06:37:45.509411	149.8	18.8	-77.4	8.5
2026-01-21 06:37:46.639192	150.0	18.7	-76.4	5.8
2026-01-21 06:37:47.765889	150.1	18.6	-77.3	7.6
2026-01-21 06:37:48.894137	150.3	18.5	-77.3	9.6
2026-01-21 06:37:50.017604	150.5	18.4	-77.8	8.5
2026-01-21 06:37:51.143160	150.6	18.3	-76.6	6.3
2026-01-21 06:37:52.267265	150.8	18.2	-78.1	7.9
2026-01-21 06:37:53.393182	151.0	18.1	-76.9	8.8
2026-01-21 06:37:54.519566	151.1	17.9	-75.4	2.2
2026-01-21 06:37:55.643069	151.3	17.8	-77.2	8.1
2026-01-21 06:37:56.766068	151.4	17.7	-77.0	7.3
2026-01-21 06:37:57.890098	151.6	17.6	-77.0	7.1
2026-01-21 06:37:59.012104	151.7	17.5	-77.6	9.4
2026-01-21 06:38:00.136179	151.9	17.4	-77.6	8.0
2026-01-21 06:38:01.262584	152.0	17.3	-77.5	9.4
2026-01-21 06:38:02.394534	152.2	17.2	-76.9	6.7
2026-01-21 06:38:03.529208	152.4	17.1	-77.9	9.5
2026-01-21 06:38:04.662449	152.5	17.0	-78.2	9.0
2026-01-21 06:38:05.796461	152.7	16.8	-77.5	8.8
2026-01-21 06:38:06.930949	152.8	16.7	-77.6	7.9
2026-01-21 06:38:08.067403	152.9	16.6	-78.3	6.6
2026-01-21 06:38:09.199955	153.1	16.5	-78.2	9.4
2026-01-21 06:38:10.335321	153.2	16.4	-78.4	9.6
2026-01-21 06:38:11.470328	153.4	16.3	-78.4	9.6
2026-01-21 06:38:12.604152	153.5	16.2	-78.2	9.9
2026-01-21 06:38:13.740595	153.7	16.1	-77.6	5.7
2026-01-21 06:38:14.875793	153.8	16.0	-78.8	10.1
2026-01-21 06:38:16.008180	154.0	15.9	-78.3	8.9
2026-01-21 06:38:17.139865	154.1	15.8	-79.0	8.1
2026-01-21 06:38:18.275017	154.2	15.7	-78.5	9.6
2026-01-21 06:38:19.410363	154.4	15.6	-78.4	8.6
2026-01-21 06:38:20.543743	154.5	15.5	-78.9	9.0
2026-01-21 06:38:21.677732	154.6	15.3	-78.7	7.1
2026-01-21 06:38:22.814076	154.8	15.2	-77.9	7.5
2026-01-21 06:38:23.950645	154.9	15.1	-78.5	7.9
2026-01-21 06:38:25.083392	155.0	15.0	-78.4	9.6
2026-01-21 06:38:26.216904	155.2	14.9	-78.2	6.2
2026-01-21 06:38:27.349831	155.3	14.8	-78.5	8.6
2026-01-21 06:38:28.482015	155.4	14.7	-78.6	7.7
2026-01-21 06:38:29.618265	155.6	14.6	-78.8	8.1
2026-01-21 06:38:30.756041	155.7	14.5	-78.2	7.4
2026-01-21 06:38:31.889628	155.8	14.4	-78.2	7.3
2026-01-21 06:38:33.022277	155.9	14.3	-78.6	8.4
2026-01-21 06:38:34.156322	156.1	14.2	-78.7	8.5
2026-01-21 06:38:35.291352	156.2	14.1	-78.3	7.3
2026-01-21 06:38:36.426640	156.3	14.0	-78.8	7.8
2026-01-21 06:38:37.562311	156.4	13.9	-78.9	8.4
2026-01-21 06:38:38.696381	156.6	13.8	-77.7	6.9
2026-01-21 06:38:39.830629	156.7	13.7	-78.7	6.9
2026-01-21 06:38:40.964223	156.8	13.6	-78.5	8.3
2026-01-21 06:38:42.098372	156.9	13.5	-79.1	6.5
2026-01-21 06:38:43.234894	157.1	13.4	-79.0	9.1
2026-01-21 06:38:44.370731	157.2	13.3	-79.0	6.7
2026-01-21 06:38:45.506314	157.3	13.2	-79.1	8.5
2026-01-21 06:38:46.644702	157.4	13.1	-78.8	7.7
2026-01-21 06:38:47.779268	157.5	13.0	-78.6	7.1
2026-01-21 06:38:48.916229	157.6	12.9	-79.0	7.3
2026-01-21 06:38:50.051427	157.8	12.8	-78.4	6.2
2026-01-21 06:38:51.186062	157.9	12.7	-79.1	8.1
2026-01-21 06:38:52.322728	158.0	12.6	-79.0	7.6
2026-01-21 06:38:53.461644	158.1	12.5	-79.3	6.2
2026-01-21 06:38:54.598043	158.2	12.4	-79.3	8.4
2026-01-21 06:38:55.733891	158.3	12.3	-79.5	7.8
2026-01-21 06:38:56.869141	158.4	12.2	-79.7	8.2
2026-01-21 06:38:58.003435	158.5	12.2	-79.6	8.3
2026-01-21 06:38:59.130127	158.6	12.1	-80.0	7.1
2026-01-21 06:39:00.256966	158.8	12.0	-79.4	7.3
2026-01-21 06:39:01.387377	158.9	11.9	-79.5	7.0
2026-01-21 06:39:02.514486	159.0	11.8	-79.5	7.4
2026-01-21 06:39:03.645344	159.1	11.7	-79.0	7.7
2026-01-21 06:39:04.775630	159.2	11.6	-79.8	5.7
2026-01-21 06:39:05.903897	159.3	11.5	-79.4	7.1
2026-01-21 06:39:07.035981	159.4	11.4	-79.2	6.7
2026-01-21 06:39:08.165497	159.5	11.3	-79.7	6.0
2026-01-21 06:39:09.295030	159.6	11.2	-78.9	6.9
2026-01-21 06:39:10.425028	159.7	11.1	-79.2	7.4
2026-01-21 06:39:11.553156	159.8	11.0	-79.8	6.6
2026-01-21 06:39:12.682328	159.9	10.9	-79.3	7.5
2026-01-21 06:39:13.813274	160.0	10.9	-79.3	5.7
2026-01-21 06:39:14.940140	160.1	10.8	-77.7	0.0
2026-01-21 06:39:16.069352	160.2	10.7	-80.7	1.3
2026-01-21 06:39:17.197924	160.3	10.6	-78.9	0.0
2026-01-21 06:39:18.328308	160.4	10.5	-80.5	0.0
2026-01-21 06:39:19.455782	160.5	10.4	-82.6	0.0
2026-01-21 06:39:20.585575	160.6	10.3	-83.0	0.0
2026-01-21 06:39:21.713269	160.7	10.2	-84.7	0.0
2026-01-21 06:39:22.844525	160.8	10.1	-85.1	0.0
2026-01-21 06:39:23.978077	160.9	10.0	-85.3	0.0
#Closed at: 2026-01-21 06:29:35.252462