passes_logs/2026/01/21/R2M6_AANII_01/R2M6_AANII_01__20260121_030408_NOAA_20_JPSS-1_rec.log

#Pass ID: 20260121_030408_NOAA 20 (JPSS-1)
#Satellite: NOAA 20 (JPSS-1)
#Configuration: NOAA 20
#almurnet v.1.7.20240730
#Start time: 2026-01-21 03:07:14

#Version: 2.2.20231116
#Station: R2M6_AANII_01
#Location: 30.233357 lon 59.946436 lat
#TLE: 1 43013U 17073A   26020.26397077  .00000127  00000+0  80954-4 0  9999
#TLE: 2 43013  98.7643 321.1479 0001288  31.3158 328.8095 14.19537595423482

#Time	Az	El	Level	Level2	SNR	BER	BlckErr	Temp	State	Recorded	gain1	gain2
2026-01-21 03:07:14.81	337.47	14.80	-34.0	-53.6	3.8	7.44e-01	0	44	0	0	28	34188
2026-01-21 03:07:15.80	337.27	14.82	-34.5	-48.6	3.8	1.49e+00	0	44	104	0	29	18260
2026-01-21 03:07:16.80	337.06	14.84	-34.6	-48.7	3.8	1.49e+00	0	44	104	0	29	18377
2026-01-21 03:07:17.80	336.86	14.86	-34.6	-48.8	3.8	1.49e+00	0	44	104	0	29	18443
2026-01-21 03:07:18.81	336.65	14.88	-34.6	-48.9	3.8	1.49e+00	0	44	104	0	29	18681
2026-01-21 03:07:19.81	336.44	14.90	-34.6	-48.8	3.8	1.49e+00	0	44	104	0	29	18488
2026-01-21 03:07:20.82	336.23	14.92	-34.6	-48.8	3.8	1.49e+00	0	44	104	0	29	18441
2026-01-21 03:07:21.82	336.02	14.94	-34.6	-48.8	3.8	1.49e+00	0	44	104	0	29	18454
2026-01-21 03:07:22.82	335.82	14.96	-34.5	-48.7	3.8	1.49e+00	0	44	104	0	29	18406
2026-01-21 03:07:23.82	335.61	14.97	-34.5	-48.7	3.8	1.49e+00	0	44	104	0	29	18383
2026-01-21 03:07:24.82	335.40	14.99	-34.5	-48.6	3.8	1.49e+00	0	44	104	0	29	18297
2026-01-21 03:07:25.80	335.20	15.01	-34.5	-48.6	3.8	1.49e+00	0	44	104	0	29	18307
2026-01-21 03:07:26.81	334.98	15.03	-34.5	-49.1	3.8	1.49e+00	0	44	104	0	28	19292
2026-01-21 03:07:27.82	334.77	15.04	-34.5	-49.1	3.8	1.49e+00	0	44	104	0	28	19375
2026-01-21 03:07:28.82	334.56	15.06	-34.5	-49.1	3.8	1.49e+00	0	44	104	0	28	19391
2026-01-21 03:07:29.82	334.35	15.07	-34.5	-49.1	3.8	1.49e+00	0	44	104	0	28	19327
2026-01-21 03:07:30.83	334.14	15.09	-34.5	-49.1	3.8	1.49e+00	0	44	104	0	28	19352
2026-01-21 03:07:31.83	333.93	15.11	-34.5	-48.6	3.8	1.49e+00	0	44	104	0	29	18329
2026-01-21 03:07:32.84	333.72	15.12	-34.5	-48.7	3.8	1.49e+00	0	44	104	0	29	18334
2026-01-21 03:07:33.84	333.51	15.13	-34.5	-48.7	3.8	1.49e+00	0	44	104	0	29	18346
2026-01-21 03:07:34.85	333.30	15.15	-34.5	-48.7	3.8	1.49e+00	0	44	104	0	29	18348
2026-01-21 03:07:35.85	333.09	15.16	-34.5	-48.6	3.8	1.49e+00	0	44	104	0	29	18335
2026-01-21 03:07:36.85	332.88	15.18	-34.5	-48.7	3.8	1.49e+00	0	44	104	0	29	18344
2026-01-21 03:07:37.86	332.66	15.19	-34.5	-48.7	3.8	1.49e+00	0	44	104	0	29	18311
2026-01-21 03:07:38.86	332.45	15.20	-34.5	-48.6	3.8	1.49e+00	0	44	104	0	29	18271
2026-01-21 03:07:39.86	332.24	15.21	-34.5	-49.1	3.8	1.49e+00	0	44	104	0	28	19300
2026-01-21 03:07:40.87	332.03	15.22	-34.4	-49.0	3.8	1.49e+00	0	44	104	0	28	19259
2026-01-21 03:07:41.86	331.82	15.24	-34.4	-49.0	3.8	1.49e+00	0	44	104	0	28	19215
2026-01-21 03:07:42.87	331.60	15.25	-34.4	-48.9	3.8	1.49e+00	0	44	104	0	28	19081
2026-01-21 03:07:43.87	331.39	15.26	-34.3	-48.7	3.8	1.49e+00	0	44	104	0	28	18936
2026-01-21 03:07:44.87	331.18	15.27	-34.2	-48.6	3.8	1.49e+00	0	44	104	0	28	18735
2026-01-21 03:07:45.87	330.96	15.28	-34.1	-48.4	3.8	1.49e+00	0	44	104	0	28	18512
2026-01-21 03:07:46.88	330.75	15.29	-34.0	-48.1	3.8	1.49e+00	0	44	104	0	28	18174
2026-01-21 03:07:47.89	330.53	15.29	-33.9	-48.4	3.8	1.49e+00	0	44	104	0	27	18934
2026-01-21 03:07:48.89	330.32	15.30	-33.9	-48.3	3.8	1.49e+00	0	44	104	0	27	18829
2026-01-21 03:07:49.89	330.11	15.31	-33.9	-48.3	3.8	1.49e+00	0	44	104	0	27	18775
2026-01-21 03:07:50.90	329.89	15.32	-33.9	-48.2	3.8	1.49e+00	0	44	104	0	27	18722
2026-01-21 03:07:51.90	329.68	15.33	-33.9	-48.3	3.8	1.49e+00	0	44	104	0	27	18789
2026-01-21 03:07:52.90	329.47	15.33	-33.9	-48.2	3.8	1.49e+00	0	44	104	0	27	18766
2026-01-21 03:07:53.90	329.25	15.34	-33.9	-48.2	3.8	1.49e+00	0	44	104	0	27	18731
2026-01-21 03:07:54.91	329.04	15.35	-33.9	-48.2	3.8	1.49e+00	0	44	104	0	27	18718
2026-01-21 03:07:55.91	328.82	15.35	-33.9	-48.1	3.8	1.49e+00	0	44	104	0	27	18527
2026-01-21 03:07:56.91	328.61	15.36	-33.9	-47.9	3.8	1.49e+00	0	44	104	0	27	18128
2026-01-21 03:07:57.92	328.39	15.36	-33.9	-47.8	3.8	1.49e+00	0	44	104	0	27	17948
2026-01-21 03:07:58.93	328.18	15.37	-33.9	-48.0	3.8	1.49e+00	0	44	104	0	27	18254
2026-01-21 03:07:59.94	327.96	15.37	-33.9	-48.2	3.8	1.49e+00	0	44	104	0	27	18734
2026-01-21 03:08:00.94	327.75	15.37	-33.9	-48.4	3.8	1.49e+00	0	44	104	0	27	19060
2026-01-21 03:08:01.95	327.53	15.38	-33.9	-48.2	3.8	1.49e+00	0	44	104	0	27	18793
2026-01-21 03:08:02.95	327.32	15.38	-33.9	-48.0	3.8	1.49e+00	0	44	104	0	27	18319
2026-01-21 03:08:03.96	327.10	15.38	-33.9	-47.5	3.8	1.49e+00	0	44	104	0	27	17306
2026-01-21 03:08:04.96	326.89	15.38	-33.8	-46.0	3.8	1.49e+00	0	44	104	0	27	14819
2026-01-21 03:08:05.96	326.67	15.39	-33.5	-43.4	4.1	1.46e+00	0	44	104	0	27	11251
2026-01-21 03:08:06.97	326.46	15.39	-33.1	-40.8	6.1	1.24e+00	0	44	104	0	26	8730
2026-01-21 03:08:07.97	326.24	15.39	-32.6	-38.3	5.0	2.72e-01	0	44	104	0	26	6920
2026-01-21 03:08:08.97	326.03	15.39	-32.2	-37.4	9.4	2.65e-01	0	44	104	0	24	6549
2026-01-21 03:08:09.98	325.81	15.39	-32.1	-37.0	9.7	1.42e-02	0	44	0	0	24	6345
2026-01-21 03:08:10.98	325.60	15.39	-32.2	-37.5	9.4	1.29e-02	0	44	0	2097152	24	6605
2026-01-21 03:08:11.98	325.38	15.39	-32.1	-37.2	9.6	1.38e-02	0	44	0	4194304	24	6476
2026-01-21 03:08:12.99	325.17	15.39	-32.1	-37.0	9.7	1.16e-02	0	44	0	6291456	24	6350
2026-01-21 03:08:13.99	324.95	15.38	-32.1	-36.9	9.8	1.08e-02	0	44	0	8388608	24	6305
2026-01-21 03:08:14.99	324.74	15.38	-32.1	-37.2	9.5	1.37e-02	0	44	0	9437184	24	6484
2026-01-21 03:08:16.00	324.52	15.38	-32.4	-38.1	8.9	2.13e-02	0	44	0	11534336	24	6985
2026-01-21 03:08:17.00	324.31	15.38	-32.1	-37.1	9.7	1.80e-02	0	44	0	13631488	24	6375
2026-01-21 03:08:18.00	324.09	15.37	-31.7	-36.3	10.7	9.93e-03	0	44	0	15728640	23	6087
2026-01-21 03:08:19.00	323.88	15.37	-31.4	-35.1	11.6	1.15e-03	0	44	0	17825792	23	5518
2026-01-21 03:08:20.00	323.67	15.37	-31.1	-34.6	12.2	3.33e-04	0	44	0	18874368	22	5429
2026-01-21 03:08:21.00	323.45	15.36	-30.8	-34.4	12.8	2.61e-03	0	44	0	20971520	21	5443
2026-01-21 03:08:22.01	323.24	15.36	-31.0	-34.9	12.4	4.16e-04	0	44	0	23068672	21	5663
2026-01-21 03:08:23.01	323.02	15.35	-30.9	-34.6	12.6	1.33e-04	0	44	0	25165824	21	5523
2026-01-21 03:08:24.02	322.81	15.35	-31.0	-34.9	12.4	1.36e-04	0	44	0	27262976	21	5670
2026-01-21 03:08:25.02	322.59	15.34	-31.2	-34.9	12.0	2.90e-03	0	44	0	28311552	22	5565
2026-01-21 03:08:26.03	322.38	15.33	-31.4	-35.6	11.6	8.75e-04	0	44	0	30408704	22	5848
2026-01-21 03:08:27.03	322.16	15.33	-31.3	-35.4	11.7	6.23e-04	0	44	0	32505856	22	5768
2026-01-21 03:08:28.03	321.95	15.32	-31.2	-35.1	11.8	2.69e-03	0	44	0	34603008	22	5657
2026-01-21 03:08:29.04	321.74	15.31	-31.4	-35.7	11.5	9.93e-04	0	44	0	36700160	22	5898
2026-01-21 03:08:30.04	321.52	15.30	-31.2	-35.2	11.8	5.47e-04	0	44	0	37748736	22	5660
2026-01-21 03:08:31.04	321.31	15.30	-31.1	-34.8	12.1	3.68e-04	0	44	0	39845888	22	5512
2026-01-21 03:08:32.04	321.10	15.29	-31.1	-34.8	12.1	3.57e-04	0	44	0	41943040	22	5504
2026-01-21 03:08:33.05	320.88	15.28	-31.1	-34.9	12.1	2.49e-04	0	44	0	44040192	22	5538
2026-01-21 03:08:34.05	320.67	15.27	-31.1	-34.8	12.1	2.37e-04	0	44	0	46137344	22	5496
2026-01-21 03:08:35.05	320.46	15.26	-31.1	-34.8	12.1	2.55e-04	0	44	0	47185920	22	5528
2026-01-21 03:08:36.05	320.24	15.25	-30.9	-34.3	12.5	1.58e-04	0	44	0	49283072	22	5284
2026-01-21 03:08:37.05	320.03	15.24	-30.7	-34.3	12.8	8.69e-05	0	44	0	51380224	21	5403
2026-01-21 03:08:38.04	319.82	15.23	-30.8	-34.4	12.7	6.86e-05	0	44	0	53477376	21	5445
2026-01-21 03:08:39.05	319.61	15.21	-30.9	-34.6	12.6	9.99e-05	0	44	0	55574528	21	5544
2026-01-21 03:08:40.05	319.40	15.20	-31.0	-34.6	12.2	3.22e-04	0	44	0	56623104	22	5416
2026-01-21 03:08:41.06	319.18	15.19	-30.9	-34.1	12.6	1.16e-04	0	44	0	58720256	22	5233
2026-01-21 03:08:42.06	318.97	15.18	-30.7	-34.2	12.8	7.32e-05	0	44	0	60817408	21	5367
2026-01-21 03:08:43.06	318.76	15.16	-30.8	-34.5	12.5	1.78e-04	0	44	0	62914560	21	5522
2026-01-21 03:08:44.07	318.55	15.15	-30.9	-34.6	12.5	9.76e-05	0	44	0	63963136	21	5553
2026-01-21 03:08:45.07	318.34	15.14	-31.0	-34.9	12.3	1.29e-04	0	44	0	66060288	21	5695
2026-01-21 03:08:46.08	318.12	15.12	-31.0	-34.9	12.3	1.42e-04	0	44	0	68157440	21	5664
2026-01-21 03:08:47.08	317.91	15.11	-31.0	-34.6	12.2	1.94e-04	0	44	0	70254592	22	5446
2026-01-21 03:08:48.08	317.70	15.09	-31.1	-34.9	12.0	2.27e-04	0	44	0	72351744	22	5564
2026-01-21 03:08:49.08	317.49	15.08	-31.0	-34.4	12.3	2.55e-04	0	44	0	73400320	22	5345
2026-01-21 03:08:50.08	317.28	15.06	-31.1	-34.9	12.0	3.01e-04	0	44	0	75497472	22	5563
2026-01-21 03:08:51.09	317.07	15.04	-30.9	-34.3	12.4	1.88e-04	0	44	0	77594624	22	5289
2026-01-21 03:08:52.09	316.86	15.03	-30.4	-33.8	12.8	8.85e-05	0	44	0	79691776	21	5369
2026-01-21 03:08:53.10	316.65	15.01	-30.6	-33.8	13.0	4.11e-05	0	44	0	81788928	21	5236
2026-01-21 03:08:54.10	316.44	14.99	-30.6	-33.8	13.1	3.89e-05	0	44	0	82837504	21	5205
2026-01-21 03:08:55.10	316.23	14.98	-30.6	-33.8	13.1	2.97e-05	0	44	0	84934656	21	5223
2026-01-21 03:08:56.11	316.02	14.96	-30.5	-33.7	13.1	2.15e-03	0	44	0	87031808	21	5200
2026-01-21 03:08:57.12	315.81	14.94	-30.5	-34.0	13.2	2.44e-05	0	44	0	89128960	20	5409
2026-01-21 03:08:58.13	315.60	14.92	-30.5	-34.0	13.2	1.14e-05	0	44	0	91226112	20	5416
2026-01-21 03:08:59.13	315.39	14.90	-30.4	-33.9	13.4	1.44e-05	0	44	0	92274688	20	5353
2026-01-21 03:09:00.13	315.19	14.88	-30.4	-33.8	13.3	1.06e-05	0	44	0	94371840	20	5343
2026-01-21 03:09:01.14	314.98	14.86	-30.4	-33.9	13.3	2.51e-05	0	44	0	96468992	20	5381
2026-01-21 03:09:02.14	314.77	14.84	-30.3	-33.6	13.5	4.11e-05	0	44	0	98566144	20	5256
2026-01-21 03:09:03.14	314.57	14.82	-30.4	-33.7	13.5	1.81e-03	0	44	0	100663296	20	5294
2026-01-21 03:09:04.14	314.36	14.80	-30.4	-34.0	13.3	3.02e-04	0	44	0	101711872	20	5394
2026-01-21 03:09:05.14	314.15	14.78	-30.4	-33.8	13.4	3.80e-04	0	44	0	103809024	20	5346
2026-01-21 03:09:06.15	313.95	14.76	-30.4	-33.9	13.3	2.43e-03	0	44	0	105906176	20	5381
2026-01-21 03:09:07.15	313.74	14.74	-30.6	-33.8	13.0	8.95e-04	0	44	0	108003328	21	5237
2026-01-21 03:09:08.15	313.54	14.71	-30.7	-34.2	12.8	5.02e-04	0	44	0	110100480	21	5363
2026-01-21 03:09:09.16	313.33	14.69	-30.6	-33.9	13.0	5.03e-05	0	44	0	111149056	21	5263
2026-01-21 03:09:10.16	313.12	14.67	-30.6	-33.8	13.0	9.01e-04	0	44	0	113246208	21	5206
2026-01-21 03:09:11.16	312.92	14.64	-30.6	-33.8	12.9	2.49e-04	0	44	0	115343360	21	5233
2026-01-21 03:09:12.16	312.72	14.62	-30.6	-34.0	12.9	5.56e-05	0	44	0	117440512	21	5306
2026-01-21 03:09:13.17	312.51	14.60	-30.5	-33.6	13.2	4.60e-04	0	44	0	118489088	21	5141
2026-01-21 03:09:14.17	312.31	14.57	-30.5	-34.1	13.2	2.26e-03	0	44	0	120586240	20	5443
2026-01-21 03:09:15.18	312.10	14.55	-30.5	-33.6	13.2	2.67e-05	0	44	0	122683392	21	5158
2026-01-21 03:09:16.18	311.90	14.52	-30.5	-34.1	13.2	3.31e-04	0	44	0	124780544	20	5437
2026-01-21 03:09:17.18	311.70	14.50	-30.5	-34.0	13.3	2.62e-03	0	44	0	126877696	20	5410
2026-01-21 03:09:18.18	311.50	14.47	-30.5	-33.8	13.1	2.30e-03	0	44	0	127926272	21	5213
2026-01-21 03:09:19.19	311.29	14.44	-30.7	-34.2	12.8	3.29e-04	0	44	0	130023424	21	5379
2026-01-21 03:09:20.19	311.09	14.42	-30.9	-34.7	12.4	2.43e-03	0	44	0	132120576	21	5598
2026-01-21 03:09:21.20	310.89	14.39	-30.8	-34.5	12.5	2.18e-03	0	44	0	134217728	21	5514
2026-01-21 03:09:22.20	310.69	14.36	-30.9	-34.9	12.3	8.60e-04	0	44	0	136314880	21	5667
2026-01-21 03:09:23.21	310.49	14.34	-31.0	-34.6	12.1	2.20e-03	0	44	0	137363456	22	5462
2026-01-21 03:09:24.21	310.29	14.31	-31.1	-34.8	12.0	2.58e-03	0	44	0	139460608	22	5544
2026-01-21 03:09:25.21	310.09	14.28	-31.0	-34.5	12.2	1.93e-03	0	44	0	141557760	22	5392
2026-01-21 03:09:26.22	309.89	14.25	-30.9	-34.8	12.4	1.58e-03	0	44	0	143654912	21	5616
2026-01-21 03:09:27.22	309.69	14.22	-30.9	-34.8	12.3	2.50e-03	0	44	0	145752064	21	5624
2026-01-21 03:09:28.22	309.49	14.19	-30.9	-34.8	12.3	1.61e-03	0	44	0	146800640	21	5619
2026-01-21 03:09:29.23	309.29	14.16	-31.1	-34.9	11.9	3.54e-03	0	44	0	148897792	22	5566
2026-01-21 03:09:30.24	309.09	14.13	-31.3	-35.4	11.6	2.91e-03	0	44	0	150994944	22	5786
2026-01-21 03:09:31.24	308.90	14.11	-31.0	-34.6	12.1	6.64e-04	0	44	0	153092096	22	5454
2026-01-21 03:09:32.25	308.70	14.07	-30.8	-34.6	12.5	2.70e-03	0	44	0	155189248	21	5576
2026-01-21 03:09:33.25	308.50	14.04	-30.7	-34.3	12.6	2.44e-03	0	44	0	156237824	21	5437
2026-01-21 03:09:34.26	308.31	14.01	-30.7	-34.1	12.7	2.79e-04	0	44	0	158334976	21	5367
2026-01-21 03:09:35.26	308.11	13.98	-30.7	-34.1	12.7	2.85e-03	0	44	0	160432128	21	5371
2026-01-21 03:09:36.27	307.91	13.95	-30.7	-34.3	12.6	2.37e-03	0	44	0	162529280	21	5428
2026-01-21 03:09:37.27	307.72	13.92	-30.8	-34.5	12.5	2.52e-04	0	44	0	164626432	21	5520
2026-01-21 03:09:38.26	307.53	13.89	-30.8	-34.6	12.5	2.52e-03	0	44	0	165675008	21	5548
2026-01-21 03:09:39.27	307.33	13.86	-30.7	-34.3	12.6	2.39e-03	0	44	0	167772160	21	5440
2026-01-21 03:09:40.26	307.14	13.82	-30.7	-34.3	12.6	9.07e-05	0	44	0	169869312	21	5434
2026-01-21 03:09:41.27	306.95	13.79	-30.7	-34.4	12.6	2.41e-03	0	44	0	171966464	21	5467
2026-01-21 03:09:42.27	306.75	13.76	-30.8	-34.4	12.5	2.57e-03	0	44	0	174063616	21	5492
2026-01-21 03:09:43.27	306.56	13.72	-30.6	-33.9	12.8	6.17e-05	0	44	0	175112192	21	5292
2026-01-21 03:09:44.28	306.37	13.69	-30.6	-34.0	12.8	2.48e-03	0	44	0	177209344	21	5326
2026-01-21 03:09:45.28	306.18	13.66	-30.6	-34.1	12.7	2.34e-03	0	44	0	179306496	21	5363
2026-01-21 03:09:46.28	305.99	13.62	-30.5	-33.8	12.9	4.55e-04	0	44	0	181403648	21	5252
2026-01-21 03:09:47.28	305.80	13.59	-30.5	-33.6	13.0	3.96e-05	0	44	0	182452224	21	5178
2026-01-21 03:09:48.29	305.61	13.55	-30.5	-33.7	13.0	2.24e-03	0	44	0	184549376	21	5212
2026-01-21 03:09:49.29	305.42	13.52	-30.5	-33.8	12.8	4.95e-05	0	44	0	186646528	21	5254
2026-01-21 03:09:50.29	305.23	13.48	-30.5	-33.8	12.9	5.26e-05	0	44	0	188743680	21	5262
2026-01-21 03:09:51.30	305.04	13.45	-30.6	-34.1	12.7	8.23e-05	0	44	0	190840832	21	5383
2026-01-21 03:09:52.30	304.85	13.41	-30.6	-34.0	12.8	8.85e-05	0	44	0	191889408	21	5323
2026-01-21 03:09:53.30	304.66	13.38	-30.5	-33.8	12.9	5.87e-05	0	44	0	193986560	21	5241
2026-01-21 03:09:54.31	304.48	13.34	-30.5	-33.8	12.8	5.34e-05	0	44	0	196083712	21	5260
2026-01-21 03:09:55.31	304.29	13.30	-30.5	-33.7	12.9	6.63e-05	0	44	0	198180864	21	5192
2026-01-21 03:09:56.32	304.10	13.27	-30.4	-33.9	13.1	2.30e-03	0	44	0	200278016	20	5401
2026-01-21 03:09:57.32	303.92	13.23	-30.5	-34.1	13.0	3.28e-05	0	44	0	201326592	20	5484
2026-01-21 03:09:58.32	303.73	13.19	-30.5	-33.9	12.8	4.57e-05	0	44	0	203423744	21	5273
2026-01-21 03:09:59.33	303.54	13.15	-30.6	-34.1	12.6	1.76e-03	0	44	0	205520896	21	5387
2026-01-21 03:10:00.33	303.36	13.12	-30.5	-33.6	13.0	4.80e-05	0	44	0	207618048	21	5179
2026-01-21 03:10:01.34	303.17	13.08	-30.3	-33.3	13.2	3.43e-05	0	44	0	209715200	21	5066
2026-01-21 03:10:02.34	302.99	13.04	-30.4	-33.8	13.2	1.90e-05	0	44	0	210763776	20	5373
2026-01-21 03:10:03.34	302.81	13.00	-30.4	-34.0	13.1	1.65e-03	0	44	0	212860928	20	5432
2026-01-21 03:10:04.34	302.63	12.96	-30.5	-34.1	12.9	4.50e-05	0	44	0	214958080	20	5502
2026-01-21 03:10:05.35	302.44	12.92	-30.5	-34.2	12.9	4.27e-05	0	44	0	217055232	20	5532
2026-01-21 03:10:06.35	302.26	12.89	-30.6	-34.0	12.7	1.94e-03	0	44	0	219152384	21	5334
2026-01-21 03:10:07.35	302.08	12.85	-30.6	-34.1	12.5	1.30e-04	0	44	0	220200960	21	5385
2026-01-21 03:10:08.35	301.90	12.81	-30.5	-33.8	12.8	6.71e-05	0	44	0	222298112	21	5277
2026-01-21 03:10:09.36	301.72	12.77	-30.4	-34.1	12.5	4.50e-05	0	44	0	224395264	20	5481
2026-01-21 03:10:10.36	301.54	12.73	-30.5	-33.9	12.3	1.09e-03	0	44	0	226492416	21	5288
2026-01-21 03:10:11.36	301.36	12.69	-30.7	-34.2	12.5	8.85e-05	0	44	0	228589568	21	5434
2026-01-21 03:10:12.36	301.18	12.65	-30.7	-34.3	12.4	1.76e-04	0	44	0	229638144	21	5446
2026-01-21 03:10:13.37	301.00	12.61	-30.5	-34.3	12.8	9.68e-05	0	44	0	231735296	20	5560
2026-01-21 03:10:14.37	300.83	12.57	-30.4	-34.1	12.9	3.73e-05	0	44	0	233832448	20	5476
2026-01-21 03:10:15.38	300.65	12.52	-30.6	-34.0	12.6	7.24e-05	0	44	0	235929600	21	5351
2026-01-21 03:10:16.37	300.47	12.48	-30.6	-34.1	12.6	1.48e-04	0	44	0	238026752	21	5395
2026-01-21 03:10:17.37	300.30	12.44	-30.6	-34.1	12.6	1.02e-04	0	44	0	239075328	21	5374
2026-01-21 03:10:18.37	300.12	12.40	-30.7	-34.3	12.5	1.35e-04	0	44	0	241172480	21	5462
2026-01-21 03:10:19.38	299.95	12.36	-30.7	-34.3	12.5	1.11e-04	0	44	0	243269632	21	5451
2026-01-21 03:10:20.38	299.77	12.32	-30.8	-34.6	12.2	2.02e-04	0	44	0	245366784	21	5591
2026-01-21 03:10:21.39	299.60	12.27	-30.8	-34.7	12.1	1.79e-04	0	44	0	246415360	21	5635
2026-01-21 03:10:22.40	299.42	12.23	-30.9	-34.9	12.0	4.04e-04	0	44	0	248512512	21	5715
2026-01-21 03:10:23.40	299.25	12.19	-30.8	-34.6	12.1	2.96e-04	0	44	0	250609664	21	5613
2026-01-21 03:10:24.40	299.08	12.15	-30.7	-34.4	12.3	1.79e-03	0	44	0	252706816	21	5513
2026-01-21 03:10:25.41	298.90	12.10	-30.7	-34.3	12.4	1.67e-04	0	44	0	254803968	21	5467
2026-01-21 03:10:26.41	298.73	12.06	-30.7	-34.3	12.4	1.49e-04	0	44	0	255852544	21	5448
2026-01-21 03:10:27.41	298.56	12.02	-30.7	-34.3	12.4	1.71e-03	0	44	0	257949696	21	5471
2026-01-21 03:10:28.40	298.39	11.98	-30.7	-34.4	12.3	1.75e-03	0	44	0	260046848	21	5531
2026-01-21 03:10:29.40	298.22	11.93	-30.8	-34.8	11.9	2.40e-04	0	44	0	262144000	21	5674
2026-01-21 03:10:30.40	298.05	11.89	-30.9	-35.1	11.6	3.05e-04	0	44	0	264241152	21	5816
2026-01-21 03:10:31.40	297.89	11.84	-31.2	-35.4	11.0	2.41e-03	0	44	0	265289728	22	5824
2026-01-21 03:10:32.40	297.72	11.80	-31.3	-35.7	10.9	2.01e-03	0	44	0	267386880	22	6002
2026-01-21 03:10:33.41	297.55	11.76	-31.2	-35.4	11.3	1.51e-03	0	44	0	269484032	22	5826
2026-01-21 03:10:34.41	297.38	11.71	-31.1	-35.1	11.4	2.45e-03	0	44	0	271581184	22	5712
2026-01-21 03:10:35.41	297.21	11.67	-31.1	-35.0	11.5	8.13e-04	0	44	0	273678336	22	5687
2026-01-21 03:10:36.42	297.05	11.62	-31.1	-35.1	11.5	7.85e-04	0	44	0	274726912	22	5709
2026-01-21 03:10:37.42	296.88	11.58	-31.1	-35.2	11.4	9.86e-04	0	44	0	276824064	22	5747
2026-01-21 03:10:38.43	296.71	11.53	-31.0	-35.0	11.5	8.49e-04	0	44	0	278921216	22	5661
2026-01-21 03:10:39.43	296.55	11.49	-31.1	-35.1	11.4	8.88e-04	0	44	0	281018368	22	5714
2026-01-21 03:10:40.43	296.39	11.44	-31.1	-35.3	11.3	1.07e-03	0	44	0	283115520	22	5786
2026-01-21 03:10:41.44	296.22	11.40	-31.2	-35.5	11.2	2.69e-03	0	44	0	284164096	22	5888
2026-01-21 03:10:42.44	296.06	11.35	-31.2	-35.5	11.1	2.86e-03	0	44	0	286261248	22	5914
2026-01-21 03:10:43.44	295.89	11.31	-31.2	-35.5	11.1	1.43e-03	0	44	0	288358400	22	5889
2026-01-21 03:10:44.44	295.73	11.26	-31.3	-35.7	11.0	1.85e-03	0	44	0	290455552	22	5994
2026-01-21 03:10:45.45	295.57	11.21	-31.3	-35.8	10.9	2.84e-03	0	44	0	292552704	22	6071
2026-01-21 03:10:46.44	295.41	11.17	-31.3	-35.9	10.8	3.30e-03	0	44	0	293601280	22	6107
2026-01-21 03:10:47.44	295.25	11.12	-31.4	-36.1	10.7	2.74e-03	0	44	0	295698432	22	6184
2026-01-21 03:10:48.44	295.09	11.08	-31.5	-36.5	10.4	5.11e-03	0	44	0	297795584	22	6403
2026-01-21 03:10:49.45	294.93	11.03	-31.5	-36.1	10.3	6.38e-03	0	44	0	299892736	23	6100
2026-01-21 03:10:50.45	294.77	10.98	-31.5	-36.1	10.3	5.60e-03	0	44	0	300941312	23	6110
2026-01-21 03:10:51.46	294.61	10.93	-31.5	-36.1	10.3	7.23e-03	0	44	0	303038464	23	6111
2026-01-21 03:10:52.46	294.45	10.89	-31.5	-36.0	10.3	6.41e-03	0	44	0	305135616	23	6057
2026-01-21 03:10:53.47	294.29	10.84	-31.5	-36.1	10.2	5.56e-03	0	44	0	307232768	23	6103
2026-01-21 03:10:54.48	294.13	10.79	-31.5	-36.2	10.1	6.42e-03	0	44	0	309329920	23	6179
2026-01-21 03:10:55.48	293.98	10.75	-31.6	-36.3	10.0	1.07e-02	0	44	0	310378496	23	6235
2026-01-21 03:10:56.49	293.82	10.70	-31.6	-36.4	9.9	9.22e-03	0	44	0	312475648	23	6284
2026-01-21 03:10:57.49	293.66	10.65	-31.7	-36.7	9.8	9.91e-03	0	44	0	314572800	23	6414
2026-01-21 03:10:58.50	293.51	10.60	-31.7	-36.9	9.6	1.75e-02	0	44	0	316669952	23	6540
2026-01-21 03:10:59.50	293.35	10.56	-31.7	-36.9	9.5	1.48e-02	0	44	0	318767104	23	6567
2026-01-21 03:11:00.51	293.20	10.51	-31.7	-37.0	9.5	1.81e-02	0	44	0	319815680	23	6606
2026-01-21 03:11:01.51	293.05	10.46	-31.7	-37.0	9.5	1.75e-02	0	44	0	321912832	23	6617
2026-01-21 03:11:02.51	292.89	10.41	-31.8	-37.1	9.4	1.88e-02	0	44	0	324009984	23	6642
2026-01-21 03:11:03.50	292.74	10.36	-31.7	-37.0	9.5	1.68e-02	0	44	0	326107136	23	6623
2026-01-21 03:11:04.51	292.59	10.32	-31.7	-37.0	9.5	1.67e-02	0	44	0	328204288	23	6621
2026-01-21 03:11:05.51	292.44	10.27	-31.7	-37.0	9.5	1.60e-02	0	44	0	329252864	23	6573
2026-01-21 03:11:06.51	292.29	10.22	-31.8	-37.2	9.3	1.80e-02	0	44	0	331350016	23	6738
2026-01-21 03:11:07.52	292.13	10.17	-31.8	-37.2	9.3	2.18e-02	0	44	0	333447168	23	6730
2026-01-21 03:11:08.53	291.98	10.12	-31.8	-37.4	9.2	2.11e-02	0	44	0	335544320	23	6822
2026-01-21 03:11:09.54	291.83	10.07	-31.8	-37.3	9.2	2.58e-02	0	44	0	337641472	23	6791
2026-01-21 03:11:10.54	291.68	10.02	-31.7	-36.9	9.5	2.00e-02	0	44	0	338690048	23	6573
2026-01-21 03:11:11.55	291.53	9.97	-31.7	-36.7	9.7	1.48e-02	0	44	0	340787200	23	6470
2026-01-21 03:11:12.55	291.39	9.93	-31.6	-36.7	9.6	1.19e-02	0	44	0	342884352	23	6437
2026-01-21 03:11:13.56	291.24	9.88	-31.7	-37.1	9.4	1.67e-02	0	44	0	344981504	23	6677
2026-01-21 03:11:14.56	291.09	9.83	-31.8	-37.4	9.0	2.15e-02	0	44	0	347078656	23	6863
2026-01-21 03:11:15.56	290.94	9.78	-31.8	-37.5	9.0	2.73e-02	0	44	0	348127232	23	6928
2026-01-21 03:11:16.56	290.80	9.73	-31.8	-37.5	9.0	2.57e-02	0	44	0	350224384	23	6890
2026-01-21 03:11:17.56	290.65	9.68	-31.8	-37.4	9.0	2.95e-02	0	45	0	352321536	23	6868
2026-01-21 03:11:18.57	290.51	9.63	-31.7	-37.2	9.2	2.13e-02	0	44	0	354418688	23	6732
2026-01-21 03:11:19.57	290.36	9.58	-31.7	-37.0	9.4	2.11e-02	0	44	0	356515840	23	6632
2026-01-21 03:11:20.57	290.22	9.53	-31.7	-36.9	9.4	1.86e-02	0	44	0	357564416	23	6599
2026-01-21 03:11:21.57	290.08	9.48	-31.7	-36.9	9.3	1.65e-02	0	44	0	359661568	23	6597
2026-01-21 03:11:22.58	289.93	9.43	-31.7	-36.9	9.4	2.00e-02	0	44	0	361758720	23	6591
2026-01-21 03:11:23.58	289.79	9.38	-31.7	-37.0	9.2	1.81e-02	0	44	0	363855872	23	6659
2026-01-21 03:11:24.58	289.65	9.33	-31.7	-37.1	9.2	2.30e-02	0	44	0	364904448	23	6697
2026-01-21 03:11:25.58	289.51	9.28	-31.6	-36.7	9.5	1.53e-02	0	44	0	367001600	23	6494
2026-01-21 03:11:26.59	289.36	9.23	-31.6	-36.6	9.7	1.49e-02	0	44	0	369098752	23	6388
2026-01-21 03:11:27.59	289.22	9.18	-31.5	-36.5	9.7	1.21e-02	0	44	0	371195904	23	6365
2026-01-21 03:11:28.59	289.08	9.13	-31.6	-36.7	9.5	1.38e-02	0	45	0	373293056	23	6459
2026-01-21 03:11:29.59	288.94	9.08	-31.5	-36.6	9.6	1.67e-02	0	44	0	374341632	23	6417
2026-01-21 03:11:30.59	288.81	9.03	-31.6	-36.6	9.5	1.35e-02	0	44	0	376438784	23	6473
2026-01-21 03:11:31.59	288.67	8.98	-31.5	-36.5	9.6	1.74e-02	0	44	0	378535936	23	6390
2026-01-21 03:11:32.59	288.53	8.93	-31.4	-36.7	9.8	1.06e-02	0	44	0	380633088	22	6632
2026-01-21 03:11:33.59	288.39	8.88	-31.4	-36.6	9.9	9.10e-03	0	44	0	382730240	22	6559
2026-01-21 03:11:34.59	288.25	8.83	-31.4	-36.6	9.9	1.20e-02	0	44	0	383778816	22	6554
2026-01-21 03:11:35.59	288.12	8.78	-31.4	-36.6	9.9	8.99e-03	0	44	0	385875968	22	6542
2026-01-21 03:11:36.60	287.98	8.73	-31.4	-36.6	9.8	8.24e-03	0	44	0	387973120	22	6543
2026-01-21 03:11:37.60	287.85	8.68	-31.4	-36.6	9.9	1.41e-02	0	44	0	390070272	22	6537
2026-01-21 03:11:38.60	287.71	8.63	-31.3	-36.4	10.0	8.35e-03	0	44	0	392167424	22	6449
2026-01-21 03:11:39.61	287.57	8.58	-31.3	-36.4	10.0	7.36e-03	0	44	0	393216000	22	6447
2026-01-21 03:11:40.61	287.44	8.52	-31.4	-36.8	9.7	1.18e-02	0	44	0	395313152	22	6703
2026-01-21 03:11:41.62	287.31	8.47	-31.4	-36.7	9.7	1.58e-02	0	44	0	397410304	22	6661
2026-01-21 03:11:42.61	287.17	8.42	-31.4	-36.6	9.8	1.05e-02	0	44	0	399507456	22	6570
2026-01-21 03:11:43.61	287.04	8.37	-31.3	-36.5	9.8	1.03e-02	0	44	0	401604608	22	6533
2026-01-21 03:11:44.62	286.91	8.32	-31.4	-36.8	9.7	1.05e-02	0	44	0	402653184	22	6671
2026-01-21 03:11:45.63	286.77	8.27	-31.4	-36.6	9.7	1.10e-02	0	44	0	404750336	22	6578
2026-01-21 03:11:46.63	286.64	8.22	-31.3	-36.5	9.8	1.04e-02	0	44	0	406847488	22	6519
2026-01-21 03:11:47.64	286.51	8.17	-31.3	-36.3	10.0	9.92e-03	0	44	0	408944640	22	6443
2026-01-21 03:11:48.63	286.38	8.12	-31.2	-36.2	10.0	8.02e-03	0	44	0	409993216	22	6372
2026-01-21 03:11:49.63	286.25	8.07	-31.2	-36.0	10.2	6.96e-03	0	44	0	412090368	22	6264
2026-01-21 03:11:50.63	286.12	8.01	-31.1	-35.7	10.4	5.67e-03	0	44	0	414187520	22	6109
2026-01-21 03:11:51.63	285.99	7.96	-31.0	-35.2	10.7	3.60e-03	0	44	0	416284672	22	5883
2026-01-21 03:11:52.63	285.87	7.91	-30.9	-35.6	10.8	2.43e-03	0	44	0	418381824	21	6167
2026-01-21 03:11:53.64	285.74	7.86	-30.9	-35.7	10.7	2.74e-03	0	44	0	419430400	21	6246
2026-01-21 03:11:54.63	285.61	7.81	-30.9	-35.6	10.8	3.21e-03	0	44	0	421527552	21	6177
2026-01-21 03:11:55.64	285.48	7.76	-30.8	-35.2	11.0	4.96e-03	0	44	0	423624704	21	5983
2026-01-21 03:11:56.64	285.36	7.71	-30.8	-35.3	10.9	1.98e-03	0	44	0	425721856	21	6031
2026-01-21 03:11:57.65	285.23	7.65	-30.8	-35.4	11.0	2.13e-03	0	44	0	427819008	21	6082
2026-01-21 03:11:58.65	285.10	7.60	-30.8	-35.3	11.0	4.58e-03	0	44	0	428867584	21	6047
2026-01-21 03:11:59.65	284.98	7.55	-30.8	-35.3	11.0	1.91e-03	0	44	0	430964736	21	6020
2026-01-21 03:12:00.65	284.85	7.50	-30.8	-35.4	10.9	2.05e-03	0	44	0	433061888	21	6105
2026-01-21 03:12:01.66	284.73	7.45	-30.8	-35.2	11.0	2.09e-03	0	44	0	435159040	21	5987
2026-01-21 03:12:02.67	284.60	7.40	-30.8	-35.2	11.0	1.72e-03	0	44	0	437256192	21	5989
2026-01-21 03:12:03.67	284.48	7.34	-30.7	-35.1	11.1	1.95e-03	0	44	0	438304768	21	5952
2026-01-21 03:12:04.68	284.35	7.29	-30.7	-34.9	11.2	1.38e-03	0	44	0	440401920	21	5874
2026-01-21 03:12:05.68	284.23	7.24	-30.8	-35.3	10.9	1.46e-03	0	44	0	442499072	21	6047
2026-01-21 03:12:06.68	284.11	7.19	-30.7	-35.0	11.1	1.86e-03	0	45	0	444596224	21	5897
2026-01-21 03:12:07.68	283.99	7.14	-30.6	-34.6	11.5	1.13e-03	0	44	0	446693376	21	5715
2026-01-21 03:12:08.68	283.87	7.09	-30.5	-34.5	11.4	9.64e-04	0	44	0	447741952	21	5698
2026-01-21 03:12:09.68	283.75	7.03	-33.1	-47.2	3.8	1.04e+00	0	44	104	449839104	26	18207
2026-01-21 03:12:10.69	283.62	6.98	-33.6	-47.8	3.8	1.49e+00	0	44	104	449839104	27	18516
2026-01-21 03:12:11.69	283.50	6.93	-34.0	-48.6	3.8	1.49e+00	0	44	104	449839104	27	19260
2026-01-21 03:12:12.69	283.38	6.88	-34.1	-48.4	3.8	1.49e+00	0	44	104	449839104	28	18585

#Closed at: 2026-01-21 03:12:12
#Recorded file [449 MB]: D:/data/31010_260121_060809.dat