passes_logs/2026/01/21/R2M6_AANII_01/R2M6_AANII_01__20260121_101520_FENGYUN_3D_rec.log

#Pass ID: 20260121_101520_FENGYUN 3D
#Satellite: FENGYUN 3D
#Configuration: FENGYUN 3D
#almurnet v.1.7.20240730
#Start time: 2026-01-21 10:15:21

#Version: 2.2.20231116
#Station: R2M6_AANII_01
#Location: 30.233357 lon 59.946436 lat
#TLE: 1 43010U 17072A   26020.28933472  .00000051  00000+0  46008-4 0  9990
#TLE: 2 43010  98.9944 352.1871 0002476  99.7001 260.4455 14.19696838424006

#Time	Az	El	Level	Level2	SNR	BER	BlckErr	Temp	State	Recorded	gain1	gain2
2026-01-21 10:15:21.66	94.42	7.07	-31.5	-42.2	3.8	8.46e-01	0	40	0	0	24	12233
2026-01-21 10:15:22.66	94.32	7.13	-31.5	-42.1	3.8	8.46e-01	0	40	104	0	24	12245
2026-01-21 10:15:23.67	94.22	7.19	-31.5	-42.0	3.8	8.45e-01	0	40	104	0	24	12154
2026-01-21 10:15:24.67	94.12	7.25	-31.4	-41.9	3.8	8.45e-01	0	40	104	0	24	12043
2026-01-21 10:15:25.67	94.02	7.31	-31.4	-41.8	3.8	8.46e-01	0	40	104	0	24	11985
2026-01-21 10:15:26.67	93.92	7.38	-31.4	-41.8	3.8	8.47e-01	0	40	104	0	24	11915
2026-01-21 10:15:27.68	93.81	7.44	-31.4	-41.8	3.8	8.45e-01	0	41	104	0	24	11896
2026-01-21 10:15:28.69	93.71	7.50	-31.5	-41.7	3.8	8.45e-01	0	40	104	0	24	11699
2026-01-21 10:15:29.69	93.61	7.56	-31.5	-41.4	3.8	8.47e-01	0	41	104	0	24	11233
2026-01-21 10:15:30.70	93.50	7.63	-31.6	-40.8	3.8	8.46e-01	0	41	104	0	24	10316
2026-01-21 10:15:31.70	93.40	7.69	-31.7	-39.5	4.1	8.43e-01	0	41	104	0	24	8918
2026-01-21 10:15:32.70	93.30	7.75	-31.5	-37.7	4.8	8.06e-01	0	41	0	0	24	7385
2026-01-21 10:15:33.70	93.19	7.81	-31.2	-36.4	5.9	6.03e-01	0	41	0	1048576	23	6519
2026-01-21 10:15:34.70	93.09	7.87	-30.9	-34.9	7.1	2.44e-01	0	41	0	6291456	23	5698
2026-01-21 10:15:35.71	92.98	7.94	-30.6	-34.2	8.0	9.12e-02	0	41	0	12582912	22	5435
2026-01-21 10:15:36.71	92.88	8.00	-30.5	-33.7	8.5	5.92e-02	0	41	0	17825792	22	5221
2026-01-21 10:15:37.71	92.77	8.06	-30.5	-33.8	8.5	4.73e-02	0	41	0	24117248	22	5239
2026-01-21 10:15:38.71	92.66	8.13	-30.3	-33.3	8.9	4.37e-02	0	41	0	29360128	22	5042
2026-01-21 10:15:39.72	92.55	8.19	-30.5	-34.1	8.7	3.56e-02	0	41	0	34603008	21	5468
2026-01-21 10:15:40.73	92.45	8.25	-30.2	-33.4	9.2	3.64e-02	0	41	0	40894464	21	5170
2026-01-21 10:15:41.73	92.34	8.31	-29.9	-32.4	9.9	1.30e-02	0	41	0	46137344	21	4795
2026-01-21 10:15:42.73	92.23	8.38	-29.6	-32.0	10.5	7.15e-03	0	41	0	51380224	20	4774
2026-01-21 10:15:43.73	92.12	8.44	-29.2	-31.6	11.2	3.07e-03	0	41	0	57671680	19	4717
2026-01-21 10:15:44.74	92.01	8.50	-28.9	-30.6	11.8	9.25e-04	0	41	0	62914560	19	4413
2026-01-21 10:15:45.74	91.90	8.57	-28.5	-30.3	12.3	4.06e-04	0	41	0	69206016	18	4426
2026-01-21 10:15:46.75	91.79	8.63	-28.2	-30.1	12.7	1.45e-04	0	41	0	74448896	17	4459
2026-01-21 10:15:47.75	91.68	8.69	-27.9	-29.2	13.2	7.09e-05	0	41	0	79691776	17	4213
2026-01-21 10:15:48.74	91.57	8.76	-27.9	-29.4	13.2	3.20e-05	0	41	0	85983232	17	4249
2026-01-21 10:15:49.75	91.45	8.82	-27.9	-29.4	13.2	4.92e-05	0	41	0	91226112	17	4252
2026-01-21 10:15:50.75	91.34	8.88	-27.7	-29.3	13.6	2.51e-05	0	41	0	96468992	16	4317
2026-01-21 10:15:51.75	91.23	8.95	-27.5	-28.9	13.8	1.25e-05	0	41	0	102760448	16	4220
2026-01-21 10:15:52.75	91.12	9.01	-27.4	-28.6	14.0	2.20e-06	0	41	0	108003328	16	4139
2026-01-21 10:15:53.76	91.00	9.07	-27.1	-28.4	14.2	2.20e-06	0	41	0	114294784	15	4183
2026-01-21 10:15:54.76	90.89	9.14	-27.1	-28.5	14.1	0.00e+00	0	41	0	119537664	15	4220
2026-01-21 10:15:55.77	90.77	9.20	-27.1	-28.4	14.2	2.20e-06	0	41	0	124780544	15	4180
2026-01-21 10:15:56.76	90.66	9.26	-27.1	-28.5	14.2	3.40e-06	0	41	0	131072000	15	4233
2026-01-21 10:15:57.76	90.54	9.33	-27.1	-28.4	14.2	1.10e-06	0	41	0	136314880	15	4204
2026-01-21 10:15:58.77	90.42	9.39	-27.2	-28.6	14.2	2.20e-06	0	41	0	142606336	15	4238
2026-01-21 10:15:59.77	90.31	9.46	-27.1	-28.6	14.2	4.50e-06	0	41	0	147849216	15	4247
2026-01-21 10:16:00.78	90.19	9.52	-27.2	-28.7	14.2	2.20e-06	0	41	0	153092096	15	4262
2026-01-21 10:16:01.78	90.07	9.58	-27.1	-28.4	14.3	1.10e-06	0	41	0	159383552	15	4186
2026-01-21 10:16:02.78	89.95	9.65	-27.2	-28.7	14.2	2.20e-06	0	41	0	164626432	15	4279
2026-01-21 10:16:03.78	89.83	9.71	-27.1	-28.5	14.2	3.40e-06	0	41	0	169869312	15	4228
2026-01-21 10:16:04.78	89.71	9.78	-27.2	-28.7	14.2	2.20e-06	0	41	0	176160768	15	4273
2026-01-21 10:16:05.78	89.59	9.84	-27.1	-28.5	14.3	3.40e-06	0	41	0	181403648	15	4215
2026-01-21 10:16:06.78	89.47	9.90	-27.1	-28.5	14.3	3.40e-06	0	42	0	186646528	15	4204
2026-01-21 10:16:07.79	89.35	9.97	-27.1	-28.5	14.3	2.20e-06	0	41	0	192937984	15	4211
2026-01-21 10:16:08.80	89.22	10.03	-27.1	-28.5	14.3	2.20e-06	0	42	0	198180864	15	4213
2026-01-21 10:16:09.79	89.10	10.10	-27.0	-28.3	14.4	2.20e-06	0	41	0	204472320	15	4170
2026-01-21 10:16:10.80	88.98	10.16	-27.1	-28.4	14.3	1.10e-06	0	41	0	209715200	15	4201
2026-01-21 10:16:11.80	88.86	10.23	-27.1	-28.4	14.4	2.20e-06	0	42	0	214958080	15	4182
2026-01-21 10:16:12.81	88.73	10.29	-27.1	-28.4	14.4	1.10e-06	0	42	0	221249536	15	4179
2026-01-21 10:16:13.81	88.61	10.35	-27.0	-28.2	14.5	3.40e-06	0	42	0	226492416	15	4138
2026-01-21 10:16:14.81	88.48	10.42	-27.0	-28.2	14.5	0.00e+00	0	42	0	232783872	15	4126
2026-01-21 10:16:15.81	88.35	10.48	-27.0	-28.1	14.6	0.00e+00	0	42	0	238026752	15	4096
2026-01-21 10:16:16.81	88.23	10.55	-27.1	-28.3	14.5	0.00e+00	0	42	0	243269632	15	4155
2026-01-21 10:16:17.82	88.10	10.61	-26.9	-27.9	14.8	0.00e+00	0	42	0	249561088	15	4048
2026-01-21 10:16:18.82	87.97	10.68	-26.7	-28.0	15.0	0.00e+00	0	42	0	254803968	14	4185
2026-01-21 10:16:19.83	87.84	10.74	-26.8	-28.3	14.8	0.00e+00	0	42	0	260046848	14	4254
2026-01-21 10:16:20.83	87.72	10.81	-26.8	-28.1	14.9	0.00e+00	0	42	0	266338304	14	4212
2026-01-21 10:16:21.84	87.58	10.87	-26.8	-28.2	14.9	1.10e-06	0	42	0	271581184	14	4228
2026-01-21 10:16:22.84	87.46	10.94	-26.8	-28.2	14.9	0.00e+00	0	42	0	277872640	14	4228
2026-01-21 10:16:23.85	87.32	11.00	-26.9	-28.4	14.8	0.00e+00	0	42	0	283115520	14	4292
2026-01-21 10:16:24.85	87.19	11.07	-26.9	-28.4	14.8	1.10e-06	0	42	0	288358400	14	4303
2026-01-21 10:16:25.85	87.06	11.13	-26.9	-28.5	14.8	0.00e+00	0	42	0	294649856	14	4314
2026-01-21 10:16:26.85	86.93	11.20	-26.9	-28.4	14.8	0.00e+00	0	42	0	299892736	14	4302
2026-01-21 10:16:27.85	86.80	11.26	-26.9	-28.4	14.8	0.00e+00	0	42	0	305135616	14	4286
2026-01-21 10:16:28.86	86.66	11.33	-26.8	-28.3	14.9	0.00e+00	0	42	0	311427072	14	4257
2026-01-21 10:16:29.87	86.53	11.39	-26.9	-28.3	14.9	1.10e-06	0	42	0	316669952	14	4273
2026-01-21 10:16:30.87	86.39	11.46	-26.8	-28.2	14.9	0.00e+00	0	42	0	322961408	14	4226
2026-01-21 10:16:31.88	86.26	11.52	-26.8	-28.2	15.0	0.00e+00	0	42	0	328204288	14	4225
2026-01-21 10:16:32.88	86.12	11.59	-26.7	-28.0	15.1	0.00e+00	0	42	0	333447168	14	4168
2026-01-21 10:16:33.89	85.98	11.65	-26.7	-27.9	15.1	0.00e+00	0	42	0	339738624	14	4158
2026-01-21 10:16:34.89	85.85	11.72	-26.9	-28.3	14.9	0.00e+00	0	42	0	344981504	14	4261
2026-01-21 10:16:35.90	85.71	11.78	-26.7	-28.0	15.1	0.00e+00	0	42	0	351272960	14	4181
2026-01-21 10:16:36.90	85.57	11.85	-26.7	-28.0	15.1	1.10e-06	0	42	0	356515840	14	4159
2026-01-21 10:16:37.90	85.43	11.91	-26.8	-28.1	15.0	1.10e-06	0	42	0	361758720	14	4214
2026-01-21 10:16:38.90	85.29	11.98	-26.7	-28.0	15.1	1.10e-06	0	42	0	368050176	14	4182
2026-01-21 10:16:39.90	85.15	12.04	-26.6	-27.8	15.2	0.00e+00	0	42	0	373293056	14	4134
2026-01-21 10:16:40.90	85.01	12.11	-26.6	-27.7	15.3	0.00e+00	0	42	0	378535936	14	4109
2026-01-21 10:16:41.91	84.87	12.17	-26.5	-27.7	15.3	0.00e+00	0	42	0	384827392	14	4093
2026-01-21 10:16:42.91	84.72	12.24	-26.5	-27.5	15.4	0.00e+00	0	42	0	390070272	14	4055
2026-01-21 10:16:43.92	84.58	12.30	-26.6	-27.7	15.3	0.00e+00	0	42	0	396361728	14	4092
2026-01-21 10:16:44.92	84.44	12.37	-26.5	-27.5	15.4	0.00e+00	0	42	0	401604608	14	4045
2026-01-21 10:16:45.93	84.29	12.43	-26.5	-27.4	15.5	0.00e+00	0	42	0	406847488	14	4025
2026-01-21 10:16:46.94	84.15	12.50	-26.5	-27.6	15.3	0.00e+00	0	42	0	413138944	14	4075
2026-01-21 10:16:47.94	84.00	12.56	-26.4	-27.4	15.5	0.00e+00	0	42	0	418381824	14	4023
2026-01-21 10:16:48.95	83.85	12.63	-26.5	-27.6	15.3	0.00e+00	0	42	0	424673280	14	4076
2026-01-21 10:16:49.95	83.71	12.69	-26.6	-27.8	15.3	0.00e+00	0	42	0	429916160	14	4120
2026-01-21 10:16:50.95	83.56	12.76	-26.5	-27.6	15.4	0.00e+00	0	42	0	435159040	14	4067
2026-01-21 10:16:51.95	83.41	12.82	-26.4	-27.3	15.5	0.00e+00	0	42	0	441450496	14	3996
2026-01-21 10:16:52.96	83.26	12.89	-26.4	-27.4	15.5	0.00e+00	0	42	0	446693376	14	4023
2026-01-21 10:16:53.96	83.11	12.95	-26.5	-27.4	15.5	0.00e+00	0	42	0	452984832	14	4027
2026-01-21 10:16:54.97	82.96	13.02	-26.6	-27.8	15.3	0.00e+00	0	42	0	458227712	14	4128
2026-01-21 10:16:55.97	82.81	13.08	-26.4	-27.4	15.5	0.00e+00	0	42	0	463470592	14	4020
2026-01-21 10:16:56.98	82.66	13.15	-26.3	-27.1	15.6	0.00e+00	0	42	0	469762048	14	3956
2026-01-21 10:16:57.98	82.51	13.21	-26.3	-27.2	15.6	0.00e+00	0	42	0	475004928	14	3964
2026-01-21 10:16:58.99	82.35	13.28	-26.5	-27.5	15.5	0.00e+00	0	42	0	480247808	14	4048
2026-01-21 10:17:00.00	82.20	13.34	-26.3	-27.2	15.6	0.00e+00	0	42	0	486539264	14	3959
2026-01-21 10:17:01.01	82.04	13.41	-26.2	-27.4	15.8	0.00e+00	0	42	0	491782144	13	4113
2026-01-21 10:17:02.01	81.89	13.47	-26.3	-27.5	15.7	0.00e+00	0	42	0	498073600	13	4156
2026-01-21 10:17:03.02	81.73	13.54	-26.3	-27.6	15.7	0.00e+00	0	42	0	503316480	13	4166
2026-01-21 10:17:04.02	81.57	13.60	-26.3	-27.6	15.6	0.00e+00	0	42	0	509607936	13	4189
2026-01-21 10:17:05.02	81.42	13.67	-26.3	-27.6	15.7	0.00e+00	0	42	0	514850816	13	4170
2026-01-21 10:17:06.03	81.26	13.73	-26.3	-27.6	15.7	0.00e+00	0	42	0	520093696	13	4182
2026-01-21 10:17:07.03	81.10	13.80	-26.4	-27.9	15.6	0.00e+00	0	42	0	526385152	13	4245
2026-01-21 10:17:08.03	80.94	13.86	-26.4	-27.7	15.6	0.00e+00	0	42	0	531628032	13	4208
2026-01-21 10:17:09.03	80.78	13.92	-26.3	-27.5	15.7	0.00e+00	0	42	0	536870912	13	4141
2026-01-21 10:17:10.03	80.62	13.99	-26.3	-27.5	15.7	0.00e+00	0	42	0	543162368	13	4149
2026-01-21 10:17:11.03	80.46	14.05	-26.4	-27.7	15.6	0.00e+00	0	42	0	548405248	13	4214
2026-01-21 10:17:12.03	80.30	14.12	-26.2	-27.4	15.8	0.00e+00	0	42	0	553648128	13	4114
2026-01-21 10:17:13.03	80.14	14.18	-26.1	-27.1	16.0	0.00e+00	0	42	0	559939584	13	4050
2026-01-21 10:17:14.03	79.98	14.24	-26.1	-27.2	16.0	0.00e+00	0	42	0	565182464	13	4061
2026-01-21 10:17:15.03	79.81	14.31	-26.0	-26.9	16.1	0.00e+00	0	42	0	571473920	13	3989
2026-01-21 10:17:16.04	79.65	14.37	-26.0	-26.9	16.1	0.00e+00	0	42	0	576716800	13	3981
2026-01-21 10:17:17.04	79.48	14.44	-25.9	-26.8	16.2	0.00e+00	0	42	0	581959680	13	3964
2026-01-21 10:17:18.05	79.31	14.50	-26.0	-26.8	16.2	0.00e+00	0	42	0	588251136	13	3979
2026-01-21 10:17:19.05	79.15	14.56	-26.2	-27.2	15.9	0.00e+00	0	42	0	593494016	13	4076
2026-01-21 10:17:20.06	78.98	14.63	-26.0	-26.9	16.1	0.00e+00	0	42	0	599785472	13	3985
2026-01-21 10:17:21.06	78.81	14.69	-25.9	-26.8	16.2	0.00e+00	0	42	0	605028352	13	3964
2026-01-21 10:17:22.07	78.64	14.76	-26.0	-26.9	16.1	0.00e+00	0	42	0	610271232	13	3990
2026-01-21 10:17:23.07	78.47	14.82	-26.1	-27.1	16.0	0.00e+00	0	42	0	616562688	13	4051
2026-01-21 10:17:24.07	78.30	14.88	-26.2	-27.4	15.9	0.00e+00	0	42	0	621805568	13	4130
2026-01-21 10:17:25.07	78.13	14.95	-26.2	-27.3	15.9	0.00e+00	0	42	0	627048448	13	4103
2026-01-21 10:17:26.08	77.96	15.01	-26.2	-27.3	15.9	0.00e+00	0	42	0	633339904	13	4110
2026-01-21 10:17:27.08	77.78	15.07	-26.3	-27.6	15.8	0.00e+00	0	42	0	638582784	13	4169
2026-01-21 10:17:28.08	77.61	15.13	-26.1	-27.1	16.0	0.00e+00	0	42	0	644874240	13	4056
2026-01-21 10:17:29.08	77.44	15.20	-26.0	-27.0	16.1	0.00e+00	0	42	0	650117120	13	4007
2026-01-21 10:17:30.09	77.26	15.26	-26.0	-27.0	16.1	0.00e+00	0	42	0	655360000	13	4021
2026-01-21 10:17:31.09	77.08	15.32	-25.9	-26.7	16.3	0.00e+00	0	42	0	661651456	13	3950
2026-01-21 10:17:32.10	76.91	15.39	-25.9	-26.8	16.2	0.00e+00	0	42	0	666894336	13	3962
2026-01-21 10:17:33.10	76.73	15.45	-26.1	-27.0	16.1	1.10e-06	0	42	0	672137216	13	4020
2026-01-21 10:17:34.11	76.55	15.51	-25.8	-26.5	16.4	0.00e+00	0	42	0	678428672	13	3896
2026-01-21 10:17:35.11	76.37	15.57	-25.7	-26.7	16.6	0.00e+00	0	42	0	683671552	12	4036
2026-01-21 10:17:36.12	76.19	15.64	-25.8	-26.8	16.5	0.00e+00	0	42	0	689963008	12	4082
2026-01-21 10:17:37.12	76.01	15.70	-25.6	-26.6	16.6	0.00e+00	0	42	0	695205888	12	4022
2026-01-21 10:17:38.12	75.83	15.76	-25.7	-26.8	16.6	0.00e+00	0	42	0	700448768	12	4066
2026-01-21 10:17:39.13	75.65	15.82	-25.8	-27.0	16.4	0.00e+00	0	42	0	706740224	12	4114
2026-01-21 10:17:40.13	75.47	15.88	-25.6	-26.6	16.6	0.00e+00	0	42	0	711983104	12	4025
2026-01-21 10:17:41.13	75.28	15.94	-25.7	-26.6	16.6	0.00e+00	0	42	0	718274560	12	4030
2026-01-21 10:17:42.13	75.10	16.00	-25.7	-26.8	16.5	1.10e-06	0	42	0	723517440	12	4081
2026-01-21 10:17:43.14	74.91	16.07	-25.7	-26.7	16.6	0.00e+00	0	42	0	728760320	12	4045
2026-01-21 10:17:44.14	74.73	16.13	-25.8	-27.0	16.5	0.00e+00	0	42	0	735051776	12	4109
2026-01-21 10:17:45.14	74.54	16.19	-25.7	-26.7	16.6	0.00e+00	0	42	0	740294656	12	4058
2026-01-21 10:17:46.14	74.36	16.25	-25.6	-26.6	16.6	0.00e+00	0	42	0	745537536	12	4027
2026-01-21 10:17:47.14	74.17	16.31	-25.7	-26.6	16.6	0.00e+00	0	42	0	751828992	12	4031
2026-01-21 10:17:48.15	73.98	16.37	-25.5	-26.3	16.8	0.00e+00	0	42	0	757071872	12	3956
2026-01-21 10:17:49.16	73.79	16.43	-25.4	-26.2	16.9	0.00e+00	0	42	0	763363328	12	3920
2026-01-21 10:17:50.16	73.60	16.49	-25.5	-26.2	16.9	0.00e+00	0	43	0	768606208	12	3928
2026-01-21 10:17:51.16	73.41	16.55	-25.6	-26.4	16.8	0.00e+00	0	42	0	774897664	12	3981
2026-01-21 10:17:52.17	73.21	16.61	-25.7	-26.7	16.7	0.00e+00	0	42	0	780140544	12	4035
2026-01-21 10:17:53.17	73.02	16.67	-25.6	-26.6	16.7	0.00e+00	0	42	0	785383424	12	4007
2026-01-21 10:17:54.17	72.83	16.73	-25.7	-26.8	16.6	0.00e+00	0	42	0	791674880	12	4071
2026-01-21 10:17:55.17	72.64	16.79	-25.9	-27.1	16.4	0.00e+00	0	42	0	796917760	12	4148
2026-01-21 10:17:56.18	72.44	16.84	-25.9	-27.1	16.5	0.00e+00	0	42	0	802160640	12	4142
2026-01-21 10:17:57.18	72.24	16.90	-25.9	-27.1	16.5	0.00e+00	0	42	0	808452096	12	4142
2026-01-21 10:17:58.18	72.05	16.96	-25.9	-27.1	16.5	0.00e+00	0	42	0	813694976	12	4142
2026-01-21 10:17:59.19	71.85	17.02	-25.8	-26.9	16.6	0.00e+00	0	42	0	818937856	12	4080
2026-01-21 10:18:00.19	71.65	17.08	-25.9	-27.2	16.5	0.00e+00	0	43	0	825229312	12	4150
2026-01-21 10:18:01.19	71.45	17.14	-25.7	-26.6	16.8	0.00e+00	0	42	0	830472192	12	4015
2026-01-21 10:18:02.19	71.26	17.19	-25.5	-26.3	17.0	0.00e+00	0	42	0	836763648	12	3927
2026-01-21 10:18:03.20	71.05	17.25	-25.4	-26.1	17.1	0.00e+00	0	42	0	842006528	12	3878
2026-01-21 10:18:04.20	70.85	17.31	-25.4	-26.1	17.1	0.00e+00	0	42	0	847249408	12	3874
2026-01-21 10:18:05.20	70.65	17.36	-25.5	-26.2	17.0	0.00e+00	0	42	0	853540864	12	3913
2026-01-21 10:18:06.21	70.45	17.42	-25.4	-26.1	17.1	0.00e+00	0	42	0	858783744	12	3871
2026-01-21 10:18:07.22	70.24	17.48	-25.4	-26.0	17.1	0.00e+00	0	42	0	865075200	12	3867
2026-01-21 10:18:08.23	70.04	17.53	-25.4	-26.0	17.1	0.00e+00	0	42	0	870318080	12	3869
2026-01-21 10:18:09.23	69.83	17.59	-25.4	-26.1	17.1	0.00e+00	0	42	0	875560960	12	3876
2026-01-21 10:18:10.24	69.63	17.65	-25.3	-26.2	17.4	0.00e+00	0	42	0	881852416	11	4012
2026-01-21 10:18:11.24	69.42	17.70	-25.4	-26.6	17.2	0.00e+00	0	42	0	887095296	11	4114
2026-01-21 10:18:12.24	69.21	17.76	-25.3	-26.3	17.3	0.00e+00	0	42	0	892338176	11	4034
2026-01-21 10:18:13.24	69.01	17.81	-25.4	-26.5	17.2	0.00e+00	0	42	0	898629632	11	4081
2026-01-21 10:18:14.24	68.80	17.87	-25.4	-26.5	17.2	0.00e+00	0	42	0	903872512	11	4095
2026-01-21 10:18:15.25	68.59	17.92	-25.3	-26.3	17.4	0.00e+00	0	42	0	910163968	11	4027
2026-01-21 10:18:16.26	68.38	17.97	-25.2	-26.1	17.4	0.00e+00	0	42	0	915406848	11	3984
2026-01-21 10:18:17.25	68.17	18.03	-25.3	-26.2	17.4	0.00e+00	0	42	0	920649728	11	4015
2026-01-21 10:18:18.26	67.96	18.08	-25.3	-26.3	17.3	0.00e+00	0	42	0	926941184	11	4043
2026-01-21 10:18:19.26	67.74	18.13	-25.6	-26.9	17.0	0.00e+00	0	42	0	932184064	11	4176
2026-01-21 10:18:20.27	67.53	18.19	-25.4	-26.4	17.3	0.00e+00	0	42	0	938475520	11	4065
2026-01-21 10:18:21.27	67.32	18.24	-25.2	-26.0	17.5	0.00e+00	0	43	0	943718400	11	3973
2026-01-21 10:18:22.27	67.10	18.29	-25.1	-25.8	17.6	0.00e+00	0	43	0	948961280	11	3914
2026-01-21 10:18:23.27	66.89	18.34	-25.1	-25.8	17.6	0.00e+00	0	43	0	955252736	11	3910
2026-01-21 10:18:24.28	66.67	18.40	-24.9	-25.5	17.8	0.00e+00	0	43	0	960495616	11	3841
2026-01-21 10:18:25.28	66.45	18.45	-25.0	-25.6	17.8	0.00e+00	0	42	0	965738496	11	3855
2026-01-21 10:18:26.28	66.24	18.50	-25.0	-25.7	17.7	0.00e+00	0	42	0	972029952	11	3887
2026-01-21 10:18:27.29	66.02	18.55	-24.9	-25.5	17.8	0.00e+00	0	42	0	977272832	11	3834
2026-01-21 10:18:28.30	65.80	18.60	-25.0	-25.5	17.8	0.00e+00	0	42	0	983564288	11	3849
2026-01-21 10:18:29.30	65.58	18.65	-25.1	-25.8	17.7	0.00e+00	0	42	0	988807168	11	3899
2026-01-21 10:18:30.31	65.35	18.70	-25.0	-25.6	17.8	0.00e+00	0	42	0	995098624	11	3853
2026-01-21 10:18:31.31	65.13	18.75	-25.0	-25.6	17.7	0.00e+00	0	43	0	1000341504	11	3862
2026-01-21 10:18:32.31	64.91	18.80	-25.0	-25.7	17.7	0.00e+00	0	43	0	1005584384	11	3881
2026-01-21 10:18:33.31	64.69	18.85	-25.2	-25.9	17.6	0.00e+00	0	42	0	1011875840	11	3940
2026-01-21 10:18:34.32	64.47	18.90	-25.2	-26.0	17.6	0.00e+00	0	42	0	1017118720	11	3943
2026-01-21 10:18:35.32	64.24	18.94	-25.0	-25.7	17.7	0.00e+00	0	42	0	1022361600	11	3877
2026-01-21 10:18:36.31	64.02	18.99	-25.1	-25.8	17.7	0.00e+00	0	43	0	1028653056	11	3909
2026-01-21 10:18:37.32	63.79	19.04	-25.2	-26.0	17.6	0.00e+00	0	43	0	1033895936	11	3949
2026-01-21 10:18:38.32	63.57	19.09	-25.2	-26.1	17.5	0.00e+00	0	42	0	1039138816	11	3992
2026-01-21 10:18:39.32	63.34	19.13	-25.3	-26.2	17.5	0.00e+00	0	43	0	1045430272	11	4007
2026-01-21 10:18:40.32	63.11	19.18	-25.1	-25.9	17.6	0.00e+00	0	42	0	1050673152	11	3933
2026-01-21 10:18:41.33	62.88	19.22	-25.1	-25.8	17.7	0.00e+00	0	43	0	1056964608	11	3915
2026-01-21 10:18:42.34	62.65	19.27	-25.0	-25.7	17.7	0.00e+00	0	43	0	1062207488	11	3888
2026-01-21 10:18:43.34	62.42	19.31	-25.0	-25.6	17.8	0.00e+00	0	43	0	1067450368	11	3849
2026-01-21 10:18:44.34	62.19	19.36	-25.0	-25.7	17.7	0.00e+00	0	42	0	1073741824	11	3885
2026-01-21 10:18:45.35	61.96	19.40	-25.2	-26.0	17.6	0.00e+00	0	42	0	1078984704	11	3946
2026-01-21 10:18:46.36	61.73	19.45	-25.3	-26.2	17.5	0.00e+00	0	42	0	1085276160	11	3997
2026-01-21 10:18:47.36	61.50	19.49	-25.3	-26.2	17.5	0.00e+00	0	42	0	1090519040	11	3996
2026-01-21 10:18:48.36	61.26	19.53	-25.3	-26.2	17.5	0.00e+00	0	42	0	1095761920	11	4006
2026-01-21 10:18:49.36	61.03	19.57	-25.2	-26.1	17.6	0.00e+00	0	43	0	1102053376	11	3979
2026-01-21 10:18:50.36	60.80	19.62	-25.0	-25.7	17.8	0.00e+00	0	43	0	1107296256	11	3885
2026-01-21 10:18:51.37	60.56	19.66	-25.0	-25.6	17.8	0.00e+00	0	43	0	1112539136	11	3869
2026-01-21 10:18:52.37	60.33	19.70	-25.1	-25.8	17.7	0.00e+00	0	42	0	1118830592	11	3905
2026-01-21 10:18:53.37	60.09	19.74	-25.1	-25.9	17.6	0.00e+00	0	42	0	1124073472	11	3935
2026-01-21 10:18:54.38	59.85	19.78	-25.0	-25.6	17.8	0.00e+00	0	42	0	1130364928	11	3851
2026-01-21 10:18:55.37	59.62	19.82	-24.9	-25.3	18.0	0.00e+00	0	42	0	1135607808	11	3795
2026-01-21 10:18:56.38	59.38	19.86	-24.9	-25.3	18.0	0.00e+00	0	43	0	1140850688	11	3793
2026-01-21 10:18:57.39	59.14	19.90	-24.8	-25.3	18.0	0.00e+00	0	43	0	1147142144	11	3783
2026-01-21 10:18:58.40	58.90	19.94	-24.8	-25.6	18.0	0.00e+00	0	42	0	1152385024	10	3973
2026-01-21 10:18:59.39	58.66	19.97	-24.9	-25.8	18.0	0.00e+00	0	43	0	1157627904	10	4011
2026-01-21 10:19:00.39	58.42	20.01	-24.7	-25.5	18.1	0.00e+00	0	42	0	1163919360	10	3939
2026-01-21 10:19:01.40	58.18	20.05	-24.6	-25.3	18.2	0.00e+00	0	43	0	1169162240	10	3892
2026-01-21 10:19:02.40	57.94	20.09	-24.7	-25.4	18.2	0.00e+00	0	43	0	1174405120	10	3916
2026-01-21 10:19:03.40	57.69	20.12	-24.7	-25.4	18.2	0.00e+00	0	42	0	1180696576	10	3918
2026-01-21 10:19:04.40	57.45	20.16	-24.5	-25.1	18.4	0.00e+00	0	42	0	1185939456	10	3840
2026-01-21 10:19:05.40	57.21	20.19	-24.5	-25.1	18.4	0.00e+00	0	43	0	1192230912	10	3848
2026-01-21 10:19:06.41	56.96	20.23	-24.6	-25.2	18.3	0.00e+00	0	42	0	1197473792	10	3874
2026-01-21 10:19:07.41	56.72	20.26	-24.6	-25.3	18.2	0.00e+00	0	43	0	1203765248	10	3906
2026-01-21 10:19:08.41	56.48	20.29	-24.7	-25.5	18.1	0.00e+00	0	43	0	1209008128	10	3949
2026-01-21 10:19:09.41	56.23	20.33	-24.6	-25.2	18.3	0.00e+00	0	43	0	1214251008	10	3871
2026-01-21 10:19:10.41	55.99	20.36	-24.4	-24.9	18.5	0.00e+00	0	43	0	1220542464	10	3807
2026-01-21 10:19:11.42	55.74	20.39	-24.4	-24.7	18.5	0.00e+00	0	42	0	1225785344	10	3764
2026-01-21 10:19:12.42	55.49	20.42	-24.4	-24.8	18.5	0.00e+00	0	43	0	1231028224	10	3784
2026-01-21 10:19:13.42	55.24	20.45	-24.5	-25.1	18.3	0.00e+00	0	43	0	1237319680	10	3844
2026-01-21 10:19:14.43	54.99	20.49	-24.5	-25.1	18.3	0.00e+00	0	42	0	1242562560	10	3856
2026-01-21 10:19:15.44	54.74	20.52	-24.5	-25.1	18.4	0.00e+00	0	42	0	1247805440	10	3847
2026-01-21 10:19:16.44	54.50	20.54	-24.6	-25.2	18.3	0.00e+00	0	43	0	1254096896	10	3880
2026-01-21 10:19:17.44	54.25	20.57	-24.7	-25.5	18.2	0.00e+00	0	43	0	1259339776	10	3933
2026-01-21 10:19:18.45	53.99	20.60	-24.8	-25.6	18.1	0.00e+00	0	42	0	1265631232	10	3973
2026-01-21 10:19:19.45	53.75	20.63	-24.8	-25.8	18.0	0.00e+00	0	43	0	1270874112	10	4003
2026-01-21 10:19:20.46	53.49	20.66	-24.9	-25.9	17.9	0.00e+00	0	43	0	1276116992	10	4038
2026-01-21 10:19:21.46	53.24	20.68	-24.8	-25.6	18.1	0.00e+00	0	43	0	1282408448	10	3972
2026-01-21 10:19:22.46	52.99	20.71	-24.7	-25.5	18.1	0.00e+00	0	42	0	1287651328	10	3952
2026-01-21 10:19:23.46	52.74	20.74	-24.7	-25.4	18.2	0.00e+00	0	43	0	1293942784	10	3929
2026-01-21 10:19:24.46	52.49	20.76	-24.6	-25.3	18.3	0.00e+00	0	43	0	1299185664	10	3902
2026-01-21 10:19:25.47	52.23	20.78	-24.7	-25.4	18.2	0.00e+00	0	42	0	1304428544	10	3917
2026-01-21 10:19:26.47	51.98	20.81	-24.7	-25.4	18.2	0.00e+00	0	42	0	1310720000	10	3921
2026-01-21 10:19:27.48	51.72	20.83	-24.7	-25.4	18.2	0.00e+00	0	43	0	1315962880	10	3927
2026-01-21 10:19:28.48	51.47	20.85	-24.7	-25.4	18.2	0.00e+00	0	43	0	1321205760	10	3923
2026-01-21 10:19:29.49	51.21	20.88	-24.6	-25.3	18.3	0.00e+00	0	43	0	1327497216	10	3896
2026-01-21 10:19:30.49	50.96	20.90	-24.8	-25.6	18.1	0.00e+00	0	43	0	1332740096	10	3962
2026-01-21 10:19:31.49	50.71	20.92	-24.8	-25.7	18.1	0.00e+00	0	43	0	1339031552	10	3995
2026-01-21 10:19:32.50	50.45	20.94	-24.8	-25.8	18.0	0.00e+00	0	43	0	1344274432	10	4008
2026-01-21 10:19:33.50	50.19	20.96	-24.9	-25.8	18.0	0.00e+00	0	43	0	1349517312	10	4019
2026-01-21 10:19:34.50	49.94	20.98	-24.6	-25.3	18.3	0.00e+00	0	42	0	1355808768	10	3895
2026-01-21 10:19:35.50	49.68	21.00	-24.5	-25.1	18.4	0.00e+00	0	43	0	1361051648	10	3852
2026-01-21 10:19:36.51	49.42	21.02	-24.4	-24.9	18.4	0.00e+00	0	43	0	1366294528	10	3805
2026-01-21 10:19:37.51	49.17	21.03	-24.5	-25.0	18.4	0.00e+00	0	43	0	1372585984	10	3815
2026-01-21 10:19:38.51	48.91	21.05	-24.4	-24.8	18.6	0.00e+00	0	43	0	1377828864	10	3770
2026-01-21 10:19:39.52	48.65	21.07	-24.2	-25.0	18.7	0.00e+00	0	43	0	1384120320	9	3924
2026-01-21 10:19:40.51	48.40	21.08	-24.2	-24.8	18.8	0.00e+00	0	43	0	1389363200	9	3890
2026-01-21 10:19:41.52	48.14	21.10	-24.2	-24.9	18.7	0.00e+00	0	42	0	1394606080	9	3901
2026-01-21 10:19:42.52	47.88	21.11	-24.2	-25.0	18.7	0.00e+00	0	42	0	1400897536	9	3925
2026-01-21 10:19:43.52	47.62	21.12	-24.3	-25.1	18.6	0.00e+00	0	43	0	1406140416	9	3950
2026-01-21 10:19:44.52	47.36	21.14	-24.3	-25.2	18.6	0.00e+00	0	43	0	1412431872	9	3980
2026-01-21 10:19:45.53	47.10	21.15	-24.4	-25.3	18.5	0.00e+00	0	43	0	1417674752	9	4006
2026-01-21 10:19:46.52	46.84	21.16	-24.5	-25.6	18.4	0.00e+00	0	43	0	1422917632	9	4070
2026-01-21 10:19:47.53	46.58	21.17	-24.6	-25.8	18.3	0.00e+00	0	43	0	1429209088	9	4113
2026-01-21 10:19:48.54	46.32	21.18	-24.7	-26.0	18.1	0.00e+00	0	43	0	1434451968	9	4183
2026-01-21 10:19:49.54	46.06	21.19	-24.7	-25.9	18.2	0.00e+00	0	43	0	1439694848	9	4157
2026-01-21 10:19:50.55	45.80	21.20	-24.6	-25.8	18.2	0.00e+00	0	43	0	1445986304	9	4129
2026-01-21 10:19:51.56	45.54	21.21	-24.4	-25.4	18.5	0.00e+00	0	43	0	1451229184	9	4030
2026-01-21 10:19:52.56	45.28	21.22	-24.4	-25.3	18.5	0.00e+00	0	43	0	1457520640	9	3999
2026-01-21 10:19:53.57	45.02	21.23	-24.3	-25.0	18.7	0.00e+00	0	42	0	1462763520	9	3931
2026-01-21 10:19:54.57	44.76	21.24	-24.1	-24.7	18.8	0.00e+00	0	43	0	1468006400	9	3854
2026-01-21 10:19:55.58	44.49	21.24	-24.1	-24.8	18.8	0.00e+00	0	42	0	1474297856	9	3874
2026-01-21 10:19:56.58	44.23	21.25	-24.3	-25.1	18.6	0.00e+00	0	43	0	1479540736	9	3956
2026-01-21 10:19:57.58	43.97	21.25	-24.4	-25.4	18.5	0.00e+00	0	43	0	1485832192	9	4022
2026-01-21 10:19:58.58	43.71	21.26	-24.4	-25.4	18.5	0.00e+00	0	42	0	1491075072	9	4025
2026-01-21 10:19:59.58	43.45	21.26	-24.4	-25.3	18.5	0.00e+00	0	43	0	1496317952	9	3998
2026-01-21 10:20:00.59	43.19	21.26	-24.5	-25.5	18.4	0.00e+00	0	43	0	1502609408	9	4039
2026-01-21 10:20:01.59	42.93	21.27	-24.6	-25.7	18.3	0.00e+00	0	43	0	1507852288	9	4098
2026-01-21 10:20:02.59	42.67	21.27	-24.6	-25.7	18.3	0.00e+00	0	43	0	1513095168	9	4099
2026-01-21 10:20:03.60	42.41	21.27	-24.8	-26.1	18.1	0.00e+00	0	43	0	1519386624	9	4203
2026-01-21 10:20:04.61	42.14	21.27	-24.7	-26.1	18.1	0.00e+00	0	43	0	1524629504	9	4189
2026-01-21 10:20:05.61	41.88	21.27	-24.6	-25.7	18.3	0.00e+00	0	43	0	1529872384	9	4090
2026-01-21 10:20:06.61	41.62	21.27	-24.4	-25.3	18.5	0.00e+00	0	43	0	1536163840	9	4013
2026-01-21 10:20:07.61	41.36	21.27	-24.4	-25.3	18.5	0.00e+00	0	42	0	1541406720	9	3991
2026-01-21 10:20:08.61	41.10	21.27	-24.4	-25.4	18.5	0.00e+00	0	43	0	1547698176	9	4024
2026-01-21 10:20:09.61	40.84	21.27	-24.3	-25.1	18.6	0.00e+00	0	42	0	1552941056	9	3964
2026-01-21 10:20:10.62	40.58	21.26	-24.3	-25.1	18.6	0.00e+00	0	43	0	1559232512	9	3960
2026-01-21 10:20:11.62	40.32	21.26	-24.4	-25.3	18.5	0.00e+00	0	43	0	1564475392	9	4011
2026-01-21 10:20:12.63	40.05	21.25	-24.5	-25.5	18.3	0.00e+00	0	43	0	1569718272	9	4058
2026-01-21 10:20:13.64	39.79	21.25	-24.5	-25.5	18.4	0.00e+00	0	43	0	1576009728	9	4041
2026-01-21 10:20:14.64	39.53	21.24	-24.3	-25.1	18.6	0.00e+00	0	43	0	1581252608	9	3964
2026-01-21 10:20:15.64	39.27	21.24	-24.3	-25.0	18.6	0.00e+00	0	43	0	1586495488	9	3937
2026-01-21 10:20:16.63	39.01	21.23	-24.2	-25.0	18.6	0.00e+00	0	43	0	1592786944	9	3934
2026-01-21 10:20:17.64	38.75	21.22	-24.2	-24.9	18.7	0.00e+00	0	43	0	1598029824	9	3902
2026-01-21 10:20:18.64	38.49	21.21	-24.2	-25.0	18.6	0.00e+00	0	43	0	1603272704	9	3925
2026-01-21 10:20:19.65	38.23	21.21	-24.2	-25.0	18.6	0.00e+00	0	43	0	1609564160	9	3931
2026-01-21 10:20:20.66	37.97	21.20	-24.2	-24.8	18.7	0.00e+00	0	43	0	1614807040	9	3894
2026-01-21 10:20:21.66	37.71	21.19	-24.1	-24.7	18.7	0.00e+00	0	43	0	1621098496	9	3854
2026-01-21 10:20:22.67	37.45	21.18	-24.2	-24.9	18.6	0.00e+00	0	43	0	1626341376	9	3909
2026-01-21 10:20:23.67	37.19	21.16	-24.3	-25.1	18.5	0.00e+00	0	43	0	1632632832	9	3949
2026-01-21 10:20:24.67	36.93	21.15	-24.4	-25.3	18.4	0.00e+00	0	43	0	1637875712	9	4003
2026-01-21 10:20:25.67	36.67	21.14	-24.3	-25.2	18.5	0.00e+00	0	43	0	1643118592	9	3976
2026-01-21 10:20:26.67	36.41	21.13	-24.2	-24.9	18.7	0.00e+00	0	43	0	1649410048	9	3904
2026-01-21 10:20:27.67	36.16	21.11	-24.1	-24.8	18.7	0.00e+00	0	42	0	1654652928	9	3886
2026-01-21 10:20:28.67	35.90	21.10	-24.3	-25.1	18.6	0.00e+00	0	43	0	1659895808	9	3946
2026-01-21 10:20:29.67	35.64	21.08	-24.2	-24.9	18.7	0.00e+00	0	43	0	1666187264	9	3916
2026-01-21 10:20:30.67	35.38	21.07	-24.1	-24.8	18.7	0.00e+00	0	43	0	1671430144	9	3883
2026-01-21 10:20:31.67	35.13	21.05	-24.3	-25.1	18.6	0.00e+00	0	43	0	1676673024	9	3944
2026-01-21 10:20:32.67	34.87	21.04	-24.2	-24.9	18.7	0.00e+00	0	43	0	1682964480	9	3908
2026-01-21 10:20:33.68	34.61	21.02	-24.1	-24.6	18.8	0.00e+00	0	43	0	1688207360	9	3849
2026-01-21 10:20:34.68	34.36	21.00	-24.1	-24.7	18.7	0.00e+00	0	43	0	1694498816	9	3866
2026-01-21 10:20:35.69	34.10	20.98	-24.1	-24.7	18.7	0.00e+00	0	43	0	1699741696	9	3864
2026-01-21 10:20:36.69	33.84	20.96	-24.1	-24.8	18.7	0.00e+00	0	43	0	1704984576	9	3874
2026-01-21 10:20:37.69	33.59	20.94	-24.1	-24.7	18.7	0.00e+00	0	43	0	1711276032	9	3869
2026-01-21 10:20:38.69	33.33	20.92	-24.1	-24.7	18.7	0.00e+00	0	43	0	1716518912	9	3859
2026-01-21 10:20:39.69	33.08	20.90	-24.2	-24.8	18.7	0.00e+00	0	43	0	1721761792	9	3894
2026-01-21 10:20:40.68	32.83	20.88	-24.2	-24.8	18.7	0.00e+00	0	43	0	1728053248	9	3897
2026-01-21 10:20:41.68	32.57	20.86	-24.1	-24.8	18.7	0.00e+00	0	43	0	1733296128	9	3884
2026-01-21 10:20:42.68	32.32	20.84	-24.2	-25.0	18.6	0.00e+00	0	43	0	1739587584	9	3924
2026-01-21 10:20:43.69	32.07	20.81	-24.2	-24.9	18.6	0.00e+00	0	43	0	1744830464	9	3918
2026-01-21 10:20:44.69	31.81	20.79	-24.3	-25.2	18.5	0.00e+00	0	43	0	1750073344	9	3981
2026-01-21 10:20:45.70	31.56	20.77	-24.3	-25.2	18.5	0.00e+00	0	42	0	1756364800	9	3989
2026-01-21 10:20:46.69	31.31	20.74	-24.4	-25.4	18.4	0.00e+00	0	43	0	1761607680	9	4033
2026-01-21 10:20:47.69	31.06	20.72	-24.3	-25.2	18.5	0.00e+00	0	43	0	1766850560	9	3972
2026-01-21 10:20:48.70	30.80	20.69	-24.1	-24.6	18.8	0.00e+00	0	43	0	1773142016	9	3845
2026-01-21 10:20:49.70	30.55	20.66	-24.0	-24.5	18.9	0.00e+00	0	43	0	1778384896	9	3809
2026-01-21 10:20:50.71	30.30	20.64	-24.1	-24.7	18.7	0.00e+00	0	43	0	1783627776	9	3865
2026-01-21 10:20:51.71	30.05	20.61	-24.1	-24.7	18.7	0.00e+00	0	43	0	1789919232	9	3866
2026-01-21 10:20:52.70	29.81	20.58	-24.2	-25.0	18.6	0.00e+00	0	43	0	1795162112	9	3929
2026-01-21 10:20:53.70	29.56	20.55	-24.3	-25.1	18.5	0.00e+00	0	43	0	1801453568	9	3963
2026-01-21 10:20:54.70	29.31	20.52	-24.4	-25.3	18.4	0.00e+00	0	43	0	1806696448	9	4006
2026-01-21 10:20:55.70	29.06	20.49	-24.3	-25.2	18.5	0.00e+00	0	43	0	1811939328	9	3967
2026-01-21 10:20:56.71	28.81	20.46	-24.2	-25.0	18.6	0.00e+00	0	43	0	1818230784	9	3930
2026-01-21 10:20:57.70	28.57	20.43	-24.3	-25.1	18.5	0.00e+00	0	43	0	1823473664	9	3963
2026-01-21 10:20:58.71	28.32	20.40	-24.4	-25.3	18.4	0.00e+00	0	43	0	1829765120	9	3994
2026-01-21 10:20:59.71	28.07	20.37	-24.4	-25.4	18.4	0.00e+00	0	42	0	1835008000	9	4016
2026-01-21 10:21:00.71	27.83	20.34	-24.5	-25.6	18.3	0.00e+00	0	42	0	1840250880	9	4069
2026-01-21 10:21:01.72	27.58	20.30	-24.5	-25.6	18.3	0.00e+00	0	43	0	1846542336	9	4083
2026-01-21 10:21:02.72	27.34	20.27	-24.5	-25.6	18.3	0.00e+00	0	43	0	1851785216	9	4065
2026-01-21 10:21:03.72	27.09	20.24	-24.6	-25.7	18.2	0.00e+00	0	43	0	1857028096	9	4105
2026-01-21 10:21:04.71	26.85	20.20	-24.5	-25.5	18.3	0.00e+00	0	42	0	1863319552	9	4038
2026-01-21 10:21:05.71	26.61	20.17	-24.4	-25.3	18.4	0.00e+00	0	43	0	1868562432	9	3993
2026-01-21 10:21:06.71	26.37	20.13	-24.4	-25.3	18.4	0.00e+00	0	43	0	1874853888	9	3990
2026-01-21 10:21:07.72	26.13	20.10	-24.3	-25.1	18.5	0.00e+00	0	42	0	1880096768	9	3955
2026-01-21 10:21:08.72	25.88	20.06	-24.2	-25.0	18.6	0.00e+00	0	42	0	1885339648	9	3925
2026-01-21 10:21:09.72	25.64	20.02	-24.4	-25.2	18.5	0.00e+00	0	43	0	1891631104	9	3987
2026-01-21 10:21:10.72	25.41	19.99	-24.3	-25.1	18.5	0.00e+00	0	43	0	1896873984	9	3961
2026-01-21 10:21:11.73	25.16	19.95	-24.3	-25.2	18.5	0.00e+00	0	43	0	1902116864	9	3967
2026-01-21 10:21:12.74	24.92	19.91	-24.4	-25.3	18.4	0.00e+00	0	43	0	1908408320	9	4006
2026-01-21 10:21:13.74	24.69	19.87	-24.5	-25.6	18.3	0.00e+00	0	43	0	1913651200	9	4071
2026-01-21 10:21:14.75	24.45	19.83	-24.7	-25.9	18.1	0.00e+00	0	43	0	1918894080	9	4154
2026-01-21 10:21:15.76	24.21	19.79	-24.6	-25.8	18.1	0.00e+00	0	43	0	1925185536	9	4133
2026-01-21 10:21:16.76	23.97	19.75	-24.7	-25.9	18.1	0.00e+00	0	43	0	1930428416	9	4162
2026-01-21 10:21:17.76	23.74	19.71	-24.7	-26.0	18.0	0.00e+00	0	43	0	1936719872	9	4169
2026-01-21 10:21:18.76	23.50	19.67	-24.7	-26.0	18.0	0.00e+00	0	43	0	1941962752	9	4187
2026-01-21 10:21:19.77	23.27	19.63	-24.7	-26.0	18.1	0.00e+00	0	43	0	1948254208	9	4172
2026-01-21 10:21:20.77	23.03	19.59	-24.9	-26.3	17.9	0.00e+00	0	42	0	1953497088	9	4253
2026-01-21 10:21:21.77	22.80	19.54	-24.8	-26.1	17.9	0.00e+00	0	42	0	1958739968	9	4209
2026-01-21 10:21:22.77	22.57	19.50	-24.6	-25.9	18.1	0.00e+00	0	43	0	1965031424	9	4145
2026-01-21 10:21:23.77	22.34	19.46	-24.6	-25.8	18.1	0.00e+00	0	43	0	1970274304	9	4128
2026-01-21 10:21:24.77	22.11	19.42	-24.6	-25.8	18.1	0.00e+00	0	42	0	1975517184	9	4133
2026-01-21 10:21:25.77	21.88	19.37	-24.7	-26.0	18.0	0.00e+00	0	42	0	1981808640	9	4170
2026-01-21 10:21:26.77	21.65	19.33	-24.7	-26.0	18.0	0.00e+00	0	42	0	1987051520	9	4176
2026-01-21 10:21:27.77	21.42	19.28	-24.6	-25.8	18.1	0.00e+00	0	43	0	1992294400	9	4122
2026-01-21 10:21:28.77	21.19	19.24	-24.6	-25.8	18.1	0.00e+00	0	43	0	1998585856	9	4121
2026-01-21 10:21:29.77	20.96	19.19	-24.8	-26.2	17.9	0.00e+00	0	42	0	2003828736	9	4227
2026-01-21 10:21:30.78	20.73	19.15	-24.8	-26.3	17.8	0.00e+00	0	43	0	2010120192	9	4252
2026-01-21 10:21:31.78	20.51	19.10	-25.0	-26.6	17.7	0.00e+00	0	43	0	2015363072	9	4325
2026-01-21 10:21:32.78	20.28	19.05	-24.9	-25.9	17.8	0.00e+00	0	43	0	2020605952	10	4037
2026-01-21 10:21:33.79	20.06	19.01	-25.1	-26.2	17.6	0.00e+00	0	43	0	2026897408	10	4119
2026-01-21 10:21:34.79	19.83	18.96	-25.0	-26.0	17.7	0.00e+00	0	43	0	2032140288	10	4072
2026-01-21 10:21:35.80	19.61	18.91	-24.9	-25.8	17.8	0.00e+00	0	43	0	2037383168	10	4022
2026-01-21 10:21:36.80	19.38	18.86	-24.8	-25.8	17.9	0.00e+00	0	43	0	2043674624	10	4014
2026-01-21 10:21:37.80	19.16	18.81	-24.9	-25.9	17.8	0.00e+00	0	43	0	2048917504	10	4034
2026-01-21 10:21:38.81	18.94	18.77	-24.9	-25.9	17.8	0.00e+00	0	43	0	2054160384	10	4034
2026-01-21 10:21:39.81	18.72	18.72	-25.0	-26.2	17.6	0.00e+00	0	43	0	2060451840	10	4124
2026-01-21 10:21:40.81	18.50	18.67	-25.0	-26.1	17.7	0.00e+00	0	43	0	2065694720	10	4103
2026-01-21 10:21:41.81	18.28	18.62	-25.0	-26.2	17.7	0.00e+00	0	43	0	2071986176	10	4112
2026-01-21 10:21:42.81	18.06	18.57	-25.1	-26.3	17.6	0.00e+00	0	43	0	2077229056	10	4140
2026-01-21 10:21:43.82	17.84	18.52	-25.2	-26.5	17.5	0.00e+00	0	43	0	2083520512	10	4192
2026-01-21 10:21:44.82	17.63	18.47	-25.1	-26.3	17.6	0.00e+00	0	42	0	2088763392	10	4132
2026-01-21 10:21:45.82	17.41	18.41	-25.0	-26.2	17.6	0.00e+00	0	42	0	2094006272	10	4122
2026-01-21 10:21:46.81	17.20	18.36	-25.2	-26.4	17.5	0.00e+00	0	43	0	2100297728	10	4175
2026-01-21 10:21:47.82	16.98	18.31	-25.1	-26.4	17.5	0.00e+00	0	42	0	2105540608	10	4160
2026-01-21 10:21:48.82	16.77	18.26	-25.3	-26.7	17.4	0.00e+00	0	42	0	2110783488	10	4247
2026-01-21 10:21:49.83	16.55	18.21	-25.2	-26.6	17.4	0.00e+00	0	42	0	2117074944	10	4230
2026-01-21 10:21:50.83	16.34	18.15	-25.1	-26.4	17.5	0.00e+00	0	43	0	2122317824	10	4175
2026-01-21 10:21:51.83	16.13	18.10	-25.1	-26.3	17.6	0.00e+00	0	43	0	2127560704	10	4145
2026-01-21 10:21:52.84	15.92	18.05	-25.0	-26.2	17.6	0.00e+00	0	42	0	2133852160	10	4118
2026-01-21 10:21:53.85	15.71	17.99	-24.9	-25.9	17.7	0.00e+00	0	43	0	2139095040	10	4053
2026-01-21 10:21:54.85	15.50	17.94	-24.9	-25.8	17.8	0.00e+00	0	43	0	2145386496	10	4012
2026-01-21 10:21:55.85	15.29	17.89	-25.0	-26.1	17.7	0.00e+00	0	42	0	2150629376	10	4084
2026-01-21 10:21:56.85	15.08	17.83	-25.0	-26.1	17.7	0.00e+00	0	43	0	2155872256	10	4081
2026-01-21 10:21:57.84	14.88	17.78	-25.0	-26.2	17.6	0.00e+00	0	43	0	2162163712	10	4116
2026-01-21 10:21:58.85	14.67	17.72	-25.1	-26.3	17.6	0.00e+00	0	43	0	2167406592	10	4139
2026-01-21 10:21:59.86	14.46	17.67	-25.1	-26.3	17.6	0.00e+00	0	42	0	2172649472	10	4134
2026-01-21 10:22:00.86	14.26	17.61	-25.1	-26.4	17.5	0.00e+00	0	43	0	2178940928	10	4168
2026-01-21 10:22:01.87	14.05	17.56	-25.2	-26.6	17.4	0.00e+00	0	42	0	2184183808	10	4216
2026-01-21 10:22:02.87	13.85	17.50	-25.2	-26.5	17.4	0.00e+00	0	43	0	2190475264	10	4205
2026-01-21 10:22:03.88	13.64	17.44	-25.2	-26.6	17.4	0.00e+00	0	42	0	2195718144	10	4223
2026-01-21 10:22:04.89	13.44	17.39	-25.2	-26.6	17.4	0.00e+00	0	43	0	2200961024	10	4227
2026-01-21 10:22:05.89	13.24	17.33	-25.2	-26.6	17.4	0.00e+00	0	42	0	2207252480	10	4221
2026-01-21 10:22:06.89	13.04	17.27	-25.3	-26.9	17.3	0.00e+00	0	42	0	2212495360	10	4288
2026-01-21 10:22:07.90	12.84	17.22	-25.3	-26.8	17.3	0.00e+00	0	43	0	2218786816	10	4283
2026-01-21 10:22:08.90	12.64	17.16	-25.5	-26.8	17.0	0.00e+00	0	43	0	2224029696	11	4152
2026-01-21 10:22:09.90	12.44	17.10	-25.5	-26.6	17.1	0.00e+00	0	43	0	2229272576	11	4123
2026-01-21 10:22:10.90	12.24	17.04	-25.5	-26.7	17.1	0.00e+00	0	43	0	2235564032	11	4136
2026-01-21 10:22:11.90	12.05	16.99	-25.4	-26.4	17.2	0.00e+00	0	43	0	2240806912	11	4069
2026-01-21 10:22:12.89	11.86	16.93	-25.4	-26.4	17.2	0.00e+00	0	42	0	2246049792	11	4064
2026-01-21 10:22:13.90	11.66	16.87	-25.6	-26.8	17.0	0.00e+00	0	43	0	2252341248	11	4164
2026-01-21 10:22:14.90	11.47	16.81	-25.5	-26.8	17.0	0.00e+00	0	43	0	2257584128	11	4151
2026-01-21 10:22:15.90	11.27	16.75	-25.8	-27.2	16.8	0.00e+00	0	42	0	2262827008	11	4271
2026-01-21 10:22:16.91	11.08	16.69	-25.7	-27.1	16.8	0.00e+00	0	43	0	2269118464	11	4247
2026-01-21 10:22:17.91	10.89	16.63	-25.6	-27.0	16.9	0.00e+00	0	43	0	2274361344	11	4211
2026-01-21 10:22:18.92	10.69	16.57	-25.6	-26.9	16.9	0.00e+00	0	43	0	2280652800	11	4193
2026-01-21 10:22:19.93	10.50	16.51	-25.6	-27.0	16.9	0.00e+00	0	43	0	2285895680	11	4214
2026-01-21 10:22:20.93	10.31	16.45	-25.5	-26.7	17.1	0.00e+00	0	42	0	2292187136	11	4120
2026-01-21 10:22:21.93	10.12	16.40	-25.7	-27.2	16.8	0.00e+00	0	42	0	2297430016	11	4251
2026-01-21 10:22:22.94	9.93	16.33	-25.5	-26.7	17.0	0.00e+00	0	43	0	2302672896	11	4127
2026-01-21 10:22:23.94	9.75	16.27	-25.3	-26.3	17.2	0.00e+00	0	43	0	2308964352	11	4048
2026-01-21 10:22:24.94	9.56	16.21	-25.3	-26.2	17.3	0.00e+00	0	43	0	2314207232	11	4016
2026-01-21 10:22:25.93	9.38	16.15	-25.4	-26.5	17.1	0.00e+00	0	42	0	2319450112	11	4084
2026-01-21 10:22:26.93	9.19	16.09	-25.2	-26.1	17.3	0.00e+00	0	42	0	2325741568	11	3995
2026-01-21 10:22:27.94	9.01	16.03	-25.2	-26.1	17.4	0.00e+00	0	43	0	2330984448	11	3972
2026-01-21 10:22:28.94	8.82	15.97	-25.3	-26.3	17.3	1.10e-06	0	43	0	2336227328	11	4018
2026-01-21 10:22:29.95	8.64	15.91	-25.1	-25.9	17.5	0.00e+00	0	43	0	2342518784	11	3926
2026-01-21 10:22:30.95	8.46	15.85	-25.1	-25.9	17.4	0.00e+00	0	43	0	2347761664	11	3942
2026-01-21 10:22:31.95	8.28	15.79	-25.3	-26.2	17.3	0.00e+00	0	43	0	2354053120	11	4015
2026-01-21 10:22:32.95	8.10	15.73	-25.4	-26.4	17.2	0.00e+00	0	43	0	2359296000	11	4071
2026-01-21 10:22:33.96	7.92	15.66	-25.5	-26.7	17.0	0.00e+00	0	43	0	2365587456	11	4134
2026-01-21 10:22:34.97	7.74	15.60	-25.4	-26.6	17.1	0.00e+00	0	43	0	2370830336	11	4107
2026-01-21 10:22:35.97	7.56	15.54	-25.4	-26.6	17.1	0.00e+00	0	43	0	2376073216	11	4104
2026-01-21 10:22:36.96	7.38	15.48	-25.4	-26.5	17.1	0.00e+00	0	42	0	2382364672	11	4083
2026-01-21 10:22:37.97	7.21	15.42	-25.5	-26.7	17.0	0.00e+00	0	43	0	2387607552	11	4137
2026-01-21 10:22:38.97	7.03	15.35	-25.4	-26.6	17.1	0.00e+00	0	42	0	2392850432	11	4103
2026-01-21 10:22:39.98	6.85	15.29	-25.5	-26.8	16.9	0.00e+00	0	43	0	2399141888	11	4158
2026-01-21 10:22:40.98	6.68	15.23	-25.5	-26.7	17.0	0.00e+00	0	43	0	2404384768	11	4142
2026-01-21 10:22:41.98	6.51	15.17	-25.6	-26.9	16.9	0.00e+00	0	43	0	2409627648	11	4200
2026-01-21 10:22:42.99	6.33	15.10	-25.8	-27.3	16.7	0.00e+00	0	43	0	2415919104	11	4287
2026-01-21 10:22:43.99	6.16	15.04	-25.5	-26.7	17.0	0.00e+00	0	43	0	2421161984	11	4123
2026-01-21 10:22:44.98	5.99	14.98	-25.4	-26.5	17.1	0.00e+00	0	43	0	2427453440	11	4091
2026-01-21 10:22:45.99	5.82	14.92	-25.5	-26.6	17.0	0.00e+00	0	43	0	2432696320	11	4118
2026-01-21 10:22:46.99	5.65	14.85	-25.5	-26.8	16.9	0.00e+00	0	43	0	2437939200	11	4156
2026-01-21 10:22:47.99	5.48	14.79	-25.6	-26.8	16.9	0.00e+00	0	42	0	2444230656	11	4172
2026-01-21 10:22:49.00	5.31	14.73	-25.8	-27.4	16.6	0.00e+00	0	43	0	2449473536	11	4330
2026-01-21 10:22:50.01	5.14	14.66	-25.7	-27.1	16.7	0.00e+00	0	43	0	2454716416	11	4239
2026-01-21 10:22:51.01	4.97	14.60	-25.7	-27.1	16.7	0.00e+00	0	43	0	2461007872	11	4254
2026-01-21 10:22:52.02	4.81	14.53	-25.8	-27.4	16.5	0.00e+00	0	42	0	2466250752	11	4314
2026-01-21 10:22:53.02	4.64	14.47	-25.8	-27.2	16.6	0.00e+00	0	43	0	2472542208	11	4278
2026-01-21 10:22:54.03	4.47	14.41	-25.8	-27.4	16.5	0.00e+00	0	43	0	2477785088	11	4335
2026-01-21 10:22:55.03	4.31	14.34	-25.8	-27.4	16.5	0.00e+00	0	43	0	2483027968	11	4328
2026-01-21 10:22:56.04	4.15	14.28	-25.9	-27.6	16.4	0.00e+00	0	43	0	2489319424	11	4372
2026-01-21 10:22:57.04	3.98	14.22	-26.0	-27.7	16.4	0.00e+00	0	42	0	2494562304	11	4410
2026-01-21 10:22:58.04	3.82	14.15	-25.9	-27.7	16.4	0.00e+00	0	43	0	2500853760	11	4397
2026-01-21 10:22:59.04	3.66	14.09	-26.0	-27.3	16.3	0.00e+00	0	43	0	2506096640	12	4175
2026-01-21 10:23:00.05	3.50	14.02	-26.0	-27.4	16.2	0.00e+00	0	42	0	2511339520	12	4206
2026-01-21 10:23:01.05	3.34	13.96	-26.3	-27.9	15.9	0.00e+00	0	43	0	2517630976	12	4339
2026-01-21 10:23:02.06	3.18	13.89	-26.4	-28.1	15.8	0.00e+00	0	43	0	2522873856	12	4413
2026-01-21 10:23:03.07	3.02	13.83	-26.2	-27.8	15.9	0.00e+00	0	43	0	2529165312	12	4321
2026-01-21 10:23:04.08	2.86	13.77	-26.3	-28.0	15.8	0.00e+00	0	43	0	2534408192	12	4374
2026-01-21 10:23:05.08	2.70	13.70	-26.4	-28.2	15.7	0.00e+00	0	43	0	2539651072	12	4426
2026-01-21 10:23:06.09	2.55	13.64	-26.4	-28.3	15.7	0.00e+00	0	43	0	2545942528	12	4448
2026-01-21 10:23:07.09	2.39	13.57	-26.3	-27.9	15.8	0.00e+00	0	43	0	2551185408	12	4355
2026-01-21 10:23:08.10	2.23	13.51	-26.6	-28.1	15.5	0.00e+00	0	43	0	2556428288	13	4301
2026-01-21 10:23:09.10	2.08	13.44	-27.0	-28.5	15.0	0.00e+00	0	42	0	2562719744	14	4284
2026-01-21 10:23:10.10	1.93	13.38	-26.6	-27.5	15.5	0.00e+00	0	42	0	2567962624	14	4024
2026-01-21 10:23:11.10	1.78	13.31	-26.2	-27.3	15.9	0.00e+00	0	43	0	2574254080	13	4081
2026-01-21 10:23:12.10	1.62	13.25	-26.0	-26.8	16.2	0.00e+00	0	43	0	2579496960	13	3950
2026-01-21 10:23:13.10	1.47	13.19	-26.0	-26.8	16.2	0.00e+00	0	42	0	2584739840	13	3951
2026-01-21 10:23:14.11	1.32	13.12	-26.0	-26.9	16.1	0.00e+00	0	43	0	2591031296	13	3976
2026-01-21 10:23:15.12	1.17	13.05	-26.3	-27.6	15.8	0.00e+00	0	43	0	2596274176	13	4155
2026-01-21 10:23:16.11	1.02	12.99	-26.5	-27.8	15.6	0.00e+00	0	43	0	2602565632	13	4222
2026-01-21 10:23:17.11	0.87	12.93	-26.4	-27.6	15.7	0.00e+00	0	43	0	2607808512	13	4166
2026-01-21 10:23:18.11	0.72	12.86	-26.4	-27.7	15.6	1.10e-06	0	43	0	2613051392	13	4191
2026-01-21 10:23:19.11	0.58	12.80	-26.5	-28.0	15.5	0.00e+00	0	42	0	2619342848	13	4273
2026-01-21 10:23:20.11	0.43	12.73	-26.4	-27.8	15.6	0.00e+00	0	43	0	2624585728	13	4204
2026-01-21 10:23:21.12	0.28	12.67	-26.4	-27.8	15.6	0.00e+00	0	43	0	2629828608	13	4219
2026-01-21 10:23:22.13	0.14	12.60	-26.5	-27.9	15.5	0.00e+00	0	43	0	2636120064	13	4245
2026-01-21 10:23:23.13	359.99	12.54	-26.6	-28.3	15.3	0.00e+00	0	43	0	2641362944	13	4352
2026-01-21 10:23:24.14	359.85	12.47	-26.5	-27.9	15.5	0.00e+00	0	43	0	2647654400	13	4241
2026-01-21 10:23:25.15	359.70	12.41	-26.3	-27.6	15.7	0.00e+00	0	43	0	2652897280	13	4151
2026-01-21 10:23:26.14	359.56	12.34	-26.1	-27.1	15.9	0.00e+00	0	43	0	2658140160	13	4035
2026-01-21 10:23:27.15	359.42	12.28	-26.1	-27.1	15.9	0.00e+00	0	43	0	2664431616	13	4035
2026-01-21 10:23:28.14	359.28	12.21	-26.2	-27.3	15.8	0.00e+00	0	43	0	2669674496	13	4091
2026-01-21 10:23:29.14	359.14	12.15	-26.3	-27.5	15.7	1.10e-06	0	42	0	2674917376	13	4146
2026-01-21 10:23:30.14	359.00	12.08	-26.2	-27.4	15.7	0.00e+00	0	42	0	2681208832	13	4104
2026-01-21 10:23:31.14	358.86	12.02	-26.3	-27.5	15.7	0.00e+00	0	43	0	2686451712	13	4130
2026-01-21 10:23:32.14	358.72	11.95	-26.4	-27.7	15.6	0.00e+00	0	42	0	2691694592	13	4179
2026-01-21 10:23:33.15	358.58	11.89	-26.3	-27.6	15.6	1.10e-06	0	43	0	2697986048	13	4161
2026-01-21 10:23:34.16	358.44	11.82	-26.4	-27.6	15.6	0.00e+00	0	42	0	2703228928	13	4168
2026-01-21 10:23:35.16	358.30	11.76	-26.5	-27.9	15.4	0.00e+00	0	43	0	2709520384	13	4255
2026-01-21 10:23:36.15	358.17	11.70	-26.4	-27.7	15.6	0.00e+00	0	43	0	2714763264	13	4182
2026-01-21 10:23:37.16	358.03	11.63	-26.3	-27.6	15.6	0.00e+00	0	43	0	2721054720	13	4149
2026-01-21 10:23:38.16	357.89	11.57	-26.4	-27.7	15.5	0.00e+00	0	43	0	2726297600	13	4200
2026-01-21 10:23:39.17	357.76	11.50	-26.4	-27.8	15.5	0.00e+00	0	42	0	2731540480	13	4207
2026-01-21 10:23:40.18	357.62	11.44	-26.5	-27.9	15.4	0.00e+00	0	43	0	2737831936	13	4243
2026-01-21 10:23:41.18	357.49	11.37	-26.5	-28.1	15.3	0.00e+00	0	43	0	2743074816	13	4290
2026-01-21 10:23:42.19	357.36	11.31	-26.6	-28.2	15.2	0.00e+00	0	42	0	2748317696	13	4321
2026-01-21 10:23:43.19	357.22	11.24	-26.6	-28.3	15.2	0.00e+00	0	43	0	2754609152	13	4349
2026-01-21 10:23:44.20	357.09	11.18	-26.6	-28.2	15.2	0.00e+00	0	43	0	2759852032	13	4324
2026-01-21 10:23:45.20	356.96	11.11	-26.7	-28.4	15.1	0.00e+00	0	42	0	2766143488	13	4396
2026-01-21 10:23:46.20	356.83	11.05	-26.5	-28.0	15.3	0.00e+00	0	43	0	2771386368	13	4276
2026-01-21 10:23:47.21	356.70	10.98	-26.5	-28.0	15.3	0.00e+00	0	43	0	2776629248	13	4260
2026-01-21 10:23:48.21	356.57	10.92	-26.6	-28.2	15.2	0.00e+00	0	43	0	2782920704	13	4314
2026-01-21 10:23:49.22	356.44	10.85	-26.6	-28.1	15.2	0.00e+00	0	42	0	2788163584	13	4296
2026-01-21 10:23:50.21	356.31	10.79	-26.7	-28.4	15.0	0.00e+00	0	43	0	2794455040	13	4390
2026-01-21 10:23:51.21	356.19	10.72	-26.7	-28.4	15.1	0.00e+00	0	43	0	2799697920	13	4382
2026-01-21 10:23:52.22	356.06	10.66	-26.8	-28.7	14.9	0.00e+00	0	43	0	2804940800	13	4476
2026-01-21 10:23:53.22	355.93	10.60	-26.7	-28.5	15.0	0.00e+00	0	43	0	2811232256	13	4420
2026-01-21 10:23:54.22	355.81	10.53	-26.8	-28.6	14.9	0.00e+00	0	43	0	2816475136	13	4448
2026-01-21 10:23:55.23	355.68	10.47	-26.8	-28.6	14.9	0.00e+00	0	42	0	2821718016	13	4453
2026-01-21 10:23:56.23	355.56	10.40	-26.9	-28.8	14.8	0.00e+00	0	43	0	2828009472	13	4480
2026-01-21 10:23:57.24	355.43	10.34	-26.9	-28.8	14.8	0.00e+00	0	43	0	2833252352	13	4496
2026-01-21 10:23:58.24	355.31	10.27	-26.8	-28.6	15.0	0.00e+00	0	43	0	2839543808	13	4427
2026-01-21 10:23:59.25	355.18	10.21	-26.8	-28.6	15.0	0.00e+00	0	43	0	2844786688	13	4428
2026-01-21 10:24:00.26	355.06	10.14	-26.9	-28.9	14.8	0.00e+00	0	43	0	2851078144	13	4536
2026-01-21 10:24:01.26	354.94	10.08	-26.9	-29.0	14.7	0.00e+00	0	43	0	2856321024	13	4551
2026-01-21 10:24:02.27	354.81	10.02	-26.9	-29.0	14.7	0.00e+00	0	43	0	2861563904	13	4558
2026-01-21 10:24:03.28	354.69	9.95	-26.9	-28.9	14.7	1.10e-06	0	42	0	2867855360	13	4534
2026-01-21 10:24:04.28	354.57	9.89	-26.9	-29.0	14.7	0.00e+00	0	42	0	2873098240	13	4556
2026-01-21 10:24:05.28	354.45	9.82	-26.9	-28.8	14.8	0.00e+00	0	43	0	2878341120	13	4511
2026-01-21 10:24:06.28	354.33	9.76	-26.9	-28.9	14.7	1.10e-06	0	42	0	2884632576	13	4539
2026-01-21 10:24:07.28	354.22	9.70	-26.8	-28.7	14.9	0.00e+00	0	43	0	2889875456	13	4457
2026-01-21 10:24:08.29	354.10	9.63	-26.8	-28.8	14.8	1.10e-06	0	42	0	2895118336	13	4496
2026-01-21 10:24:09.30	353.98	9.57	-26.9	-28.9	14.7	0.00e+00	0	43	0	2901409792	13	4526
2026-01-21 10:24:10.30	353.86	9.50	-26.9	-28.9	14.7	1.10e-06	0	42	0	2906652672	13	4520
2026-01-21 10:24:11.30	353.74	9.44	-26.9	-29.0	14.7	0.00e+00	0	43	0	2912944128	13	4554
2026-01-21 10:24:12.30	353.63	9.38	-27.0	-28.7	14.6	1.10e-06	0	43	0	2918187008	14	4349
2026-01-21 10:24:13.30	353.51	9.31	-27.1	-28.8	14.5	1.10e-06	0	43	0	2923429888	14	4390
2026-01-21 10:24:14.29	353.40	9.25	-27.2	-29.1	14.3	1.10e-06	0	42	0	2929721344	14	4466
2026-01-21 10:24:15.30	353.28	9.19	-27.2	-29.1	14.3	0.00e+00	0	43	0	2934964224	14	4480
2026-01-21 10:24:16.31	353.17	9.12	-27.0	-28.7	14.5	2.20e-06	0	43	0	2940207104	14	4360
2026-01-21 10:24:17.31	353.06	9.06	-27.2	-29.2	14.3	3.40e-06	0	43	0	2946498560	14	4494
2026-01-21 10:24:18.31	352.94	9.00	-27.3	-29.4	14.1	3.40e-06	0	43	0	2951741440	14	4554
2026-01-21 10:24:19.31	352.83	8.93	-27.3	-29.3	14.2	2.20e-06	0	43	0	2958032896	14	4527
2026-01-21 10:24:20.31	352.72	8.87	-27.4	-29.6	13.9	9.10e-06	0	42	0	2963275776	14	4631
2026-01-21 10:24:21.31	352.61	8.81	-27.4	-29.5	14.1	4.50e-06	0	43	0	2968518656	14	4585
2026-01-21 10:24:22.31	352.50	8.74	-27.5	-29.8	13.9	6.80e-06	0	43	0	2974810112	14	4677
2026-01-21 10:24:23.31	352.39	8.68	-27.7	-29.7	13.6	1.60e-05	0	42	0	2980052992	15	4538
2026-01-21 10:24:24.30	352.28	8.62	-27.8	-29.9	13.5	1.60e-05	0	43	0	2985295872	15	4601
2026-01-21 10:24:25.31	352.17	8.55	-27.6	-29.5	13.7	5.70e-06	0	43	0	2991587328	15	4473
2026-01-21 10:24:26.32	352.06	8.49	-27.4	-29.2	13.9	1.14e-05	0	43	0	2996830208	15	4384
2026-01-21 10:24:27.32	351.95	8.43	-27.4	-29.0	14.0	6.80e-06	0	43	0	3003121664	15	4342
2026-01-21 10:24:28.32	351.84	8.37	-27.5	-29.3	13.8	5.70e-06	0	42	0	3008364544	15	4442
2026-01-21 10:24:29.32	351.73	8.30	-27.6	-29.5	13.7	1.37e-05	0	43	0	3013607424	15	4472
2026-01-21 10:24:30.33	351.63	8.24	-27.4	-29.0	13.9	5.70e-06	0	43	0	3019898880	15	4351
2026-01-21 10:24:31.33	351.52	8.18	-27.2	-28.5	14.3	0.00e+00	0	42	0	3025141760	15	4204
2026-01-21 10:24:32.33	351.41	8.12	-27.4	-29.0	14.0	3.40e-06	0	42	0	3030384640	15	4337
2026-01-21 10:24:33.33	351.31	8.05	-27.2	-28.7	14.2	0.00e+00	0	43	0	3036676096	15	4243
2026-01-21 10:24:34.33	351.20	7.99	-27.4	-29.0	13.9	5.70e-06	0	43	0	3041918976	15	4335
2026-01-21 10:24:35.33	351.10	7.93	-27.3	-28.8	14.0	4.50e-06	0	43	0	3048210432	15	4294
2026-01-21 10:24:36.34	350.99	7.87	-27.3	-28.8	14.1	3.40e-06	0	43	0	3053453312	15	4287
2026-01-21 10:24:37.33	350.89	7.80	-27.3	-28.8	14.0	6.80e-06	0	43	0	3058696192	15	4290
2026-01-21 10:24:38.33	350.79	7.74	-27.4	-29.0	13.9	5.70e-06	0	42	0	3064987648	15	4354
2026-01-21 10:24:39.33	350.69	7.68	-27.5	-29.4	13.7	1.02e-05	0	42	0	3070230528	15	4451
2026-01-21 10:24:40.33	350.58	7.62	-27.4	-29.2	13.8	6.80e-06	0	42	0	3075473408	15	4401
2026-01-21 10:24:41.33	350.48	7.56	-27.6	-29.5	13.6	8.00e-06	0	43	0	3081764864	15	4494
2026-01-21 10:24:42.32	350.38	7.50	-27.6	-29.4	13.6	1.94e-05	0	43	0	3087007744	15	4477
2026-01-21 10:24:43.32	350.28	7.43	-27.4	-29.1	13.8	9.10e-06	0	43	0	3092250624	15	4389
2026-01-21 10:24:44.32	350.18	7.37	-27.5	-29.4	13.6	1.25e-05	0	43	0	3098542080	15	4469
2026-01-21 10:24:45.32	350.08	7.31	-27.6	-29.5	13.6	1.60e-05	0	43	0	3103784960	15	4481
2026-01-21 10:24:46.33	349.98	7.25	-27.5	-29.3	13.6	1.25e-05	0	43	0	3110076416	15	4440
2026-01-21 10:24:47.33	349.88	7.19	-27.6	-29.5	13.6	1.60e-05	0	42	0	3115319296	15	4488
2026-01-21 10:24:48.34	349.78	7.12	-27.8	-30.0	13.3	2.40e-05	0	43	0	3120562176	15	4639
2026-01-21 10:24:49.34	349.68	7.06	-28.4	-30.9	12.7	2.63e-05	0	43	0	3126853632	16	4808
2026-01-21 10:24:50.34	349.58	7.00	-33.3	-43.9	3.8	8.41e-01	0	43	104	3127902208	26	12233
2026-01-21 10:24:51.35	349.49	6.94	-33.7	-45.0	3.8	8.46e-01	0	42	104	3127902208	27	13166
2026-01-21 10:24:52.36	349.39	6.88	-33.9	-45.3	3.8	8.46e-01	0	43	104	3127902208	27	13393

#Closed at: 2026-01-21 10:24:53
#Recorded file [3127 MB]: D:/data/31010_260121_131532.dat