passes_logs/2026/01/21/R2M6_AANII_01/R2M6_AANII_01__20260121_052452_FENGYUN_3E_rec.log

#Pass ID: 20260121_052452_FENGYUN 3E
#Satellite: FENGYUN 3E
#Configuration: FENGYUN 3E
#almurnet v.1.7.20240730
#Start time: 2026-01-21 05:24:53

#Version: 2.2.20231116
#Station: R2M6_AANII_01
#Location: 30.233357 lon 59.946436 lat
#TLE: 1 49008U 21062A   26020.29079360  .00000161  00000+0  96807-4 0  9999
#TLE: 2 49008  98.7481  25.3569 0002259 127.4136 232.7246 14.19885851235592

#Time	Az	El	Level	Level2	SNR	BER	BlckErr	Temp	State	Recorded	gain1	gain2
2026-01-21 05:24:53.20	14.38	7.07	-29.9	-32.3	5.2	7.87e-01	0	42	0	0	20	4738
2026-01-21 05:24:54.20	14.34	7.15	-30.4	-33.6	5.0	7.95e-01	0	42	104	0	20	5230
2026-01-21 05:24:55.20	14.30	7.22	-30.1	-32.8	8.5	5.05e-02	0	42	0	0	20	4878
2026-01-21 05:24:56.20	14.26	7.30	-30.2	-32.9	8.3	6.92e-02	0	42	0	7340032	20	4924
2026-01-21 05:24:57.21	14.22	7.37	-30.2	-32.9	8.4	5.01e-02	0	42	0	14680064	20	4915
2026-01-21 05:24:58.21	14.18	7.45	-29.9	-32.2	8.9	4.13e-02	0	42	0	20971520	20	4657
2026-01-21 05:24:59.22	14.14	7.53	-30.1	-32.6	8.6	4.28e-02	0	42	0	28311552	20	4799
2026-01-21 05:25:00.22	14.11	7.60	-29.6	-31.8	9.5	2.08e-02	0	42	0	35651584	19	4619
2026-01-21 05:25:01.22	14.07	7.68	-29.3	-31.4	10.2	1.08e-02	0	42	0	42991616	18	4584
2026-01-21 05:25:02.22	14.03	7.75	-28.8	-30.6	11.0	2.73e-03	0	42	0	50331648	17	4450
2026-01-21 05:25:03.23	13.98	7.83	-28.2	-29.6	11.9	3.16e-03	0	42	0	57671680	16	4258
2026-01-21 05:25:04.23	13.94	7.91	-27.7	-29.1	12.4	2.64e-03	0	42	0	65011712	15	4206
2026-01-21 05:25:05.23	13.90	7.99	-27.5	-29.1	12.7	7.32e-05	0	42	0	72351744	14	4312
2026-01-21 05:25:06.23	13.86	8.06	-27.2	-28.3	13.2	2.29e-03	0	42	0	79691776	14	4105
2026-01-21 05:25:07.23	13.82	8.14	-27.1	-28.1	13.3	2.05e-05	0	42	0	85983232	14	4051
2026-01-21 05:25:08.24	13.78	8.22	-26.9	-28.1	13.6	4.04e-04	0	42	0	93323264	13	4145
2026-01-21 05:25:09.24	13.74	8.30	-27.0	-28.4	13.4	2.03e-03	0	42	0	100663296	13	4228
2026-01-21 05:25:10.24	13.70	8.38	-26.9	-28.1	13.6	9.10e-06	0	42	0	108003328	13	4155
2026-01-21 05:25:11.24	13.65	8.46	-26.9	-28.1	13.6	4.40e-04	0	42	0	115343360	13	4160
2026-01-21 05:25:12.25	13.61	8.54	-26.8	-28.1	13.7	8.00e-06	0	42	0	122683392	13	4139
2026-01-21 05:25:13.25	13.57	8.62	-26.8	-27.9	13.7	1.06e-03	0	42	0	130023424	13	4098
2026-01-21 05:25:14.25	13.52	8.69	-26.9	-28.2	13.6	1.02e-05	0	42	0	137363456	13	4179
2026-01-21 05:25:15.25	13.48	8.77	-26.8	-28.0	13.7	1.48e-05	0	42	0	144703488	13	4124
2026-01-21 05:25:16.25	13.44	8.85	-26.8	-28.1	13.7	2.18e-03	0	42	0	152043520	13	4139
2026-01-21 05:25:17.26	13.39	8.93	-26.8	-28.1	13.7	3.40e-06	0	42	0	159383552	13	4143
2026-01-21 05:25:18.26	13.35	9.02	-26.8	-28.0	13.8	5.70e-06	0	43	0	166723584	13	4112
2026-01-21 05:25:19.27	13.30	9.10	-26.8	-27.8	13.8	5.70e-06	0	43	0	173015040	13	4080
2026-01-21 05:25:20.27	13.26	9.18	-26.8	-27.9	13.8	8.00e-06	0	43	0	180355072	13	4097
2026-01-21 05:25:21.26	13.22	9.26	-26.8	-28.0	13.8	2.28e-03	0	43	0	187695104	13	4110
2026-01-21 05:25:22.27	13.17	9.34	-26.7	-27.7	13.9	6.80e-06	0	43	0	195035136	13	4054
2026-01-21 05:25:23.27	13.12	9.42	-26.6	-27.4	14.1	3.40e-06	0	43	0	202375168	13	3964
2026-01-21 05:25:24.28	13.08	9.50	-26.8	-27.9	13.8	1.37e-05	0	43	0	209715200	13	4100
2026-01-21 05:25:25.29	13.03	9.59	-26.6	-27.5	14.1	2.20e-06	0	43	0	217055232	13	3986
2026-01-21 05:25:26.29	12.99	9.67	-26.6	-27.4	14.1	1.10e-06	0	43	0	224395264	13	3971
2026-01-21 05:25:27.30	12.94	9.75	-26.6	-27.5	14.1	1.10e-06	0	43	0	230686720	13	3986
2026-01-21 05:25:28.30	12.89	9.84	-26.5	-27.3	14.2	0.00e+00	0	43	0	238026752	13	3950
2026-01-21 05:25:29.30	12.84	9.92	-26.7	-27.8	13.9	2.20e-06	0	43	0	246415360	13	4072
2026-01-21 05:25:30.31	12.80	10.00	-26.8	-27.9	13.8	6.80e-06	0	43	0	252706816	13	4092
2026-01-21 05:25:31.32	12.75	10.09	-26.7	-27.6	14.0	4.50e-06	0	43	0	260046848	13	4014
2026-01-21 05:25:32.32	12.70	10.17	-26.7	-27.7	14.0	4.50e-06	0	43	0	267386880	13	4039
2026-01-21 05:25:33.33	12.65	10.26	-26.6	-27.5	14.1	5.70e-06	0	43	0	274726912	13	3988
2026-01-21 05:25:34.33	12.60	10.34	-26.7	-27.7	14.0	3.40e-06	0	43	0	282066944	13	4042
2026-01-21 05:25:35.34	12.55	10.43	-26.6	-27.4	14.2	0.00e+00	0	43	0	289406976	13	3959
2026-01-21 05:25:36.34	12.50	10.51	-26.6	-27.4	14.2	2.20e-06	0	43	0	296747008	13	3964
2026-01-21 05:25:37.35	12.45	10.60	-26.6	-27.5	14.1	2.20e-06	0	43	0	304087040	13	3990
2026-01-21 05:25:38.35	12.40	10.68	-26.6	-27.4	14.2	2.20e-06	0	43	0	311427072	13	3965
2026-01-21 05:25:39.35	12.35	10.77	-26.5	-27.1	14.3	3.40e-06	0	43	0	318767104	13	3897
2026-01-21 05:25:40.36	12.30	10.85	-26.6	-27.4	14.2	0.00e+00	0	43	0	326107136	13	3955
2026-01-21 05:25:41.36	12.25	10.94	-26.5	-27.3	14.2	4.50e-06	0	43	0	333447168	13	3945
2026-01-21 05:25:42.36	12.20	11.03	-26.5	-27.3	14.3	0.00e+00	0	43	0	339738624	13	3934
2026-01-21 05:25:43.36	12.15	11.11	-26.4	-27.6	14.4	1.10e-06	0	43	0	347078656	12	4122
2026-01-21 05:25:44.37	12.10	11.20	-26.6	-27.9	14.2	2.20e-06	0	43	0	354418688	12	4207
2026-01-21 05:25:45.37	12.04	11.29	-26.6	-27.6	14.1	0.00e+00	0	43	0	361758720	13	4012
2026-01-21 05:25:46.38	11.99	11.38	-26.7	-27.8	13.9	4.50e-06	0	43	0	369098752	13	4069
2026-01-21 05:25:47.38	11.94	11.47	-26.6	-27.4	14.2	4.50e-06	0	43	0	376438784	13	3958
2026-01-21 05:25:48.38	11.89	11.56	-26.4	-27.4	14.5	2.20e-06	0	43	0	383778816	12	4074
2026-01-21 05:25:49.38	11.83	11.64	-26.4	-27.5	14.4	0.00e+00	0	43	0	391118848	12	4100
2026-01-21 05:25:50.38	11.78	11.73	-26.3	-27.3	14.5	0.00e+00	0	43	0	398458880	12	4034
2026-01-21 05:25:51.38	11.72	11.82	-26.2	-27.2	14.6	0.00e+00	0	43	0	404750336	12	4008
2026-01-21 05:25:52.39	11.67	11.91	-26.3	-27.3	14.5	0.00e+00	0	43	0	412090368	12	4047
2026-01-21 05:25:53.39	11.61	12.00	-26.3	-27.2	14.6	0.00e+00	0	43	0	419430400	12	4016
2026-01-21 05:25:54.39	11.56	12.09	-26.1	-27.0	14.8	0.00e+00	0	43	0	426770432	12	3957
2026-01-21 05:25:55.39	11.50	12.18	-26.2	-27.1	14.7	0.00e+00	0	43	0	434110464	12	3990
2026-01-21 05:25:56.40	11.45	12.27	-26.2	-27.0	14.8	1.10e-06	0	43	0	441450496	12	3962
2026-01-21 05:25:57.40	11.39	12.37	-26.1	-26.9	14.9	0.00e+00	0	43	0	448790528	12	3934
2026-01-21 05:25:58.41	11.33	12.46	-26.1	-26.9	14.8	0.00e+00	0	43	0	456130560	12	3937
2026-01-21 05:25:59.40	11.28	12.55	-26.1	-26.9	14.8	0.00e+00	0	43	0	463470592	12	3944
2026-01-21 05:26:00.40	11.22	12.64	-26.2	-27.0	14.8	0.00e+00	0	43	0	469762048	12	3954
2026-01-21 05:26:01.40	11.16	12.73	-26.3	-27.3	14.7	0.00e+00	0	43	0	477102080	12	4027
2026-01-21 05:26:02.40	11.10	12.83	-26.0	-26.6	15.0	1.10e-06	0	43	0	484442112	12	3870
2026-01-21 05:26:03.40	11.04	12.92	-26.0	-27.1	15.1	0.00e+00	0	43	0	491782144	11	4095
2026-01-21 05:26:04.41	10.98	13.01	-26.0	-27.1	15.1	0.00e+00	0	43	0	499122176	11	4076
2026-01-21 05:26:05.41	10.92	13.11	-26.0	-27.1	15.1	0.00e+00	0	43	0	506462208	11	4074
2026-01-21 05:26:06.41	10.86	13.20	-25.8	-26.7	15.3	0.00e+00	0	43	0	513802240	11	3984
2026-01-21 05:26:07.41	10.80	13.29	-25.8	-26.7	15.3	0.00e+00	0	43	0	521142272	11	3979
2026-01-21 05:26:08.42	10.74	13.39	-25.8	-26.6	15.4	0.00e+00	0	43	0	528482304	11	3948
2026-01-21 05:26:09.42	10.68	13.49	-25.8	-26.6	15.4	0.00e+00	0	44	0	535822336	11	3961
2026-01-21 05:26:10.43	10.62	13.58	-25.8	-26.7	15.4	0.00e+00	0	43	0	543162368	11	3978
2026-01-21 05:26:11.42	10.56	13.68	-25.8	-26.6	15.4	0.00e+00	0	43	0	549453824	11	3964
2026-01-21 05:26:12.43	10.49	13.77	-25.9	-26.8	15.3	0.00e+00	0	43	0	556793856	11	4013
2026-01-21 05:26:13.44	10.43	13.87	-25.9	-26.9	15.2	0.00e+00	0	43	0	564133888	11	4036
2026-01-21 05:26:14.43	10.37	13.97	-25.8	-26.6	15.5	0.00e+00	0	43	0	571473920	11	3953
2026-01-21 05:26:15.44	10.30	14.06	-25.6	-26.2	15.7	0.00e+00	0	43	0	578813952	11	3853
2026-01-21 05:26:16.44	10.24	14.16	-25.5	-26.1	15.7	0.00e+00	0	43	0	586153984	11	3828
2026-01-21 05:26:17.45	10.17	14.26	-25.6	-26.3	15.6	0.00e+00	0	44	0	593494016	11	3880
2026-01-21 05:26:18.45	10.11	14.36	-25.0	-25.7	15.4	0.00e+00	0	44	0	600834048	11	3900
2026-01-21 05:26:19.45	10.04	14.46	-25.7	-26.8	14.8	0.00e+00	0	43	0	608174080	10	4123
2026-01-21 05:26:20.45	9.98	14.56	-25.5	-26.0	13.6	0.00e+00	0	44	0	615514112	11	3808
2026-01-21 05:26:21.46	9.91	14.66	-25.5	-26.0	15.7	0.00e+00	0	43	0	622854144	11	3817
2026-01-21 05:26:22.46	9.84	14.75	-25.7	-26.4	15.6	0.00e+00	0	44	0	630194176	11	3899
2026-01-21 05:26:23.47	9.77	14.86	-25.5	-26.0	15.8	0.00e+00	0	44	0	636485632	11	3814
2026-01-21 05:26:24.47	9.71	14.96	-25.5	-26.4	15.8	0.00e+00	0	44	0	643825664	10	4023
2026-01-21 05:26:25.48	9.64	15.06	-25.5	-26.5	15.8	0.00e+00	0	44	0	651165696	10	4052
2026-01-21 05:26:26.48	9.57	15.16	-25.4	-26.3	16.0	1.61e-03	0	44	0	658505728	10	3985
2026-01-21 05:26:27.49	9.50	15.26	-25.3	-26.1	16.0	0.00e+00	0	44	0	665845760	10	3948
2026-01-21 05:26:28.49	9.43	15.36	-25.4	-26.2	16.0	0.00e+00	0	43	0	673185792	10	3973
2026-01-21 05:26:29.50	9.36	15.47	-25.4	-26.3	15.9	0.00e+00	0	44	0	680525824	10	3995
2026-01-21 05:26:30.49	9.29	15.57	-25.4	-26.2	16.0	0.00e+00	0	44	0	687865856	10	3949
2026-01-21 05:26:31.50	9.22	15.67	-25.4	-26.2	16.0	1.27e-04	0	44	0	695205888	10	3963
2026-01-21 05:26:32.50	9.14	15.78	-25.3	-26.1	16.1	0.00e+00	0	44	0	702545920	10	3938
2026-01-21 05:26:33.51	9.07	15.88	-25.5	-26.5	15.9	1.58e-03	0	44	0	709885952	10	4033
2026-01-21 05:26:34.51	9.00	15.98	-25.5	-26.4	15.9	1.19e-04	0	44	0	716177408	10	4019
2026-01-21 05:26:35.52	8.92	16.09	-25.3	-26.0	16.2	1.51e-03	0	44	0	723517440	10	3914
2026-01-21 05:26:36.52	8.85	16.19	-25.1	-25.7	16.3	1.43e-03	0	43	0	730857472	10	3846
2026-01-21 05:26:37.53	8.77	16.30	-25.1	-25.6	16.4	0.00e+00	0	44	0	738197504	10	3826
2026-01-21 05:26:38.53	8.70	16.41	-25.1	-25.7	16.3	1.47e-03	0	44	0	745537536	10	3846
2026-01-21 05:26:39.53	8.62	16.51	-25.1	-25.7	16.3	1.54e-03	0	44	0	752877568	10	3833
2026-01-21 05:26:40.54	8.55	16.62	-24.9	-25.3	16.5	1.01e-04	0	44	0	760217600	10	3749
2026-01-21 05:26:41.55	8.47	16.73	-24.8	-25.6	16.7	1.52e-03	0	44	0	767557632	9	3917
2026-01-21 05:26:42.55	8.39	16.84	-24.8	-25.6	16.7	1.58e-03	0	44	0	774897664	9	3914
2026-01-21 05:26:43.56	8.31	16.94	-24.8	-25.5	16.7	1.13e-04	0	44	0	782237696	9	3896
2026-01-21 05:26:44.56	8.23	17.05	-24.8	-25.5	16.7	1.56e-03	0	44	0	789577728	9	3890
2026-01-21 05:26:45.55	8.15	17.16	-24.7	-25.2	16.8	1.40e-03	0	44	0	796917760	9	3841
2026-01-21 05:26:46.55	8.07	17.27	-24.8	-25.5	16.7	1.19e-04	0	44	0	803209216	9	3897
2026-01-21 05:26:47.55	7.99	17.38	-24.8	-25.4	16.7	0.00e+00	0	44	0	810549248	9	3887
2026-01-21 05:26:48.56	7.91	17.49	-24.7	-25.4	16.8	1.52e-03	0	44	0	817889280	9	3866
2026-01-21 05:26:49.56	7.83	17.60	-24.9	-25.7	16.6	9.95e-05	0	44	0	825229312	9	3948
2026-01-21 05:26:50.57	7.75	17.71	-24.8	-25.5	16.7	1.51e-03	0	44	0	832569344	9	3900
2026-01-21 05:26:51.57	7.66	17.82	-24.7	-25.2	16.9	1.45e-03	0	44	0	839909376	9	3829
2026-01-21 05:26:52.58	7.58	17.94	-24.5	-24.8	17.1	0.00e+00	0	44	0	847249408	9	3746
2026-01-21 05:26:53.58	7.49	18.05	-24.5	-24.9	17.1	1.41e-03	0	44	0	854589440	9	3749
2026-01-21 05:26:54.58	7.41	18.16	-24.5	-24.8	17.1	1.39e-03	0	44	0	860880896	9	3741
2026-01-21 05:26:55.58	7.32	18.27	-24.5	-25.4	17.1	0.00e+00	0	44	0	868220928	8	3971
2026-01-21 05:26:56.58	7.24	18.39	-24.6	-25.5	17.0	1.34e-03	0	44	0	875560960	8	3997
2026-01-21 05:26:57.59	7.15	18.50	-24.5	-25.0	17.0	0.00e+00	0	44	0	882900992	9	3778
2026-01-21 05:26:58.60	7.06	18.62	-24.6	-25.1	17.0	9.84e-05	0	44	0	890241024	9	3808
2026-01-21 05:26:59.60	6.97	18.73	-24.6	-25.5	17.0	0.00e+00	0	44	0	897581056	8	4000
2026-01-21 05:27:00.60	6.88	18.85	-24.5	-25.4	17.0	0.00e+00	0	44	0	904921088	8	3997
2026-01-21 05:27:01.61	6.79	18.97	-24.6	-25.5	17.0	0.00e+00	0	44	0	912261120	8	4013
2026-01-21 05:27:02.61	6.70	19.08	-24.6	-25.1	17.0	0.00e+00	0	44	0	919601152	9	3798
2026-01-21 05:27:03.61	6.61	19.20	-24.5	-24.9	17.1	0.00e+00	0	44	0	926941184	9	3762
2026-01-21 05:27:04.62	6.52	19.32	-24.6	-25.1	17.0	0.00e+00	0	44	0	934281216	9	3800
2026-01-21 05:27:05.62	6.43	19.44	-24.5	-24.9	17.1	0.00e+00	0	44	0	941621248	9	3750
2026-01-21 05:27:06.62	6.33	19.55	-24.4	-24.7	17.2	0.00e+00	0	44	0	947912704	9	3714
2026-01-21 05:27:07.63	6.24	19.67	-24.4	-24.7	17.2	0.00e+00	0	44	0	955252736	9	3711
2026-01-21 05:27:08.63	6.14	19.79	-24.7	-25.2	16.9	0.00e+00	0	44	0	962592768	9	3818
2026-01-21 05:27:09.63	6.05	19.91	-24.4	-24.7	17.2	0.00e+00	0	44	0	969932800	9	3711
2026-01-21 05:27:10.63	5.95	20.03	-24.3	-24.9	17.4	0.00e+00	0	44	0	977272832	8	3847
2026-01-21 05:27:11.64	5.85	20.15	-24.3	-24.9	17.4	0.00e+00	0	44	0	984612864	8	3852
2026-01-21 05:27:12.65	5.75	20.28	-24.2	-24.7	17.5	0.00e+00	0	44	0	991952896	8	3820
2026-01-21 05:27:13.65	5.65	20.40	-24.1	-24.5	17.6	0.00e+00	0	44	0	999292928	8	3760
2026-01-21 05:27:14.66	5.55	20.52	-24.1	-24.5	17.5	0.00e+00	0	44	0	1006632960	8	3776
2026-01-21 05:27:15.66	5.45	20.64	-24.0	-24.2	17.7	0.00e+00	0	44	0	1013972992	8	3706
2026-01-21 05:27:16.66	5.35	20.77	-24.0	-24.4	17.6	0.00e+00	0	44	0	1021313024	8	3743
2026-01-21 05:27:17.67	5.25	20.89	-24.1	-24.6	17.6	0.00e+00	0	44	0	1028653056	8	3781
2026-01-21 05:27:18.67	5.14	21.02	-24.1	-24.5	17.6	0.00e+00	0	44	0	1034944512	8	3764
2026-01-21 05:27:19.67	5.04	21.14	-24.2	-24.6	17.5	0.00e+00	0	44	0	1042284544	8	3792
2026-01-21 05:27:20.67	4.94	21.27	-24.0	-24.3	17.7	0.00e+00	0	44	0	1049624576	8	3721
2026-01-21 05:27:21.68	4.83	21.39	-23.9	-24.1	17.8	0.00e+00	0	44	0	1056964608	8	3671
2026-01-21 05:27:22.68	4.72	21.52	-24.0	-24.2	17.8	0.00e+00	0	44	0	1064304640	8	3695
2026-01-21 05:27:23.68	4.61	21.65	-23.9	-24.1	17.8	0.00e+00	0	44	0	1071644672	8	3682
2026-01-21 05:27:24.68	4.51	21.77	-24.0	-24.2	17.8	0.00e+00	0	44	0	1078984704	8	3695
2026-01-21 05:27:25.68	4.40	21.90	-24.0	-24.2	17.8	0.00e+00	0	44	0	1086324736	8	3706
2026-01-21 05:27:26.68	4.29	22.03	-24.3	-24.9	17.4	0.00e+00	0	44	0	1092616192	8	3867
2026-01-21 05:27:27.68	4.17	22.16	-24.3	-24.8	17.5	0.00e+00	0	44	0	1099956224	8	3838
2026-01-21 05:27:28.68	4.06	22.29	-24.2	-24.8	17.5	0.00e+00	0	44	0	1107296256	8	3829
2026-01-21 05:27:29.68	3.95	22.42	-24.3	-25.0	17.4	0.00e+00	0	44	0	1114636288	8	3876
2026-01-21 05:27:30.68	3.83	22.55	-24.3	-25.0	17.4	0.00e+00	0	44	0	1121976320	8	3889
2026-01-21 05:27:31.68	3.72	22.68	-24.4	-25.1	17.3	0.00e+00	0	44	0	1129316352	8	3897
2026-01-21 05:27:32.69	3.60	22.81	-24.3	-25.0	17.4	0.00e+00	0	44	0	1136656384	8	3883
2026-01-21 05:27:33.69	3.49	22.95	-24.3	-24.9	17.5	0.00e+00	0	44	0	1143996416	8	3849
2026-01-21 05:27:34.70	3.37	23.08	-24.1	-24.5	17.7	0.00e+00	0	44	0	1151336448	8	3755
2026-01-21 05:27:35.70	3.25	23.21	-24.2	-24.7	17.5	0.00e+00	0	44	0	1157627904	8	3818
2026-01-21 05:27:36.70	3.13	23.35	-24.2	-24.8	17.5	0.00e+00	0	44	0	1166016512	8	3832
2026-01-21 05:27:37.70	3.00	23.48	-24.3	-24.9	17.5	0.00e+00	0	44	0	1173356544	8	3854
2026-01-21 05:27:38.70	2.88	23.62	-24.3	-24.9	17.5	0.00e+00	0	44	0	1179648000	8	3862
2026-01-21 05:27:39.70	2.76	23.75	-24.3	-25.0	17.4	0.00e+00	0	44	0	1186988032	8	3876
2026-01-21 05:27:40.70	2.63	23.89	-24.4	-25.0	17.4	0.00e+00	0	44	0	1194328064	8	3890
2026-01-21 05:27:41.71	2.51	24.03	-24.5	-25.3	17.3	0.00e+00	0	44	0	1201668096	8	3953
2026-01-21 05:27:42.71	2.38	24.16	-24.4	-24.6	17.3	0.00e+00	0	44	0	1209008128	9	3692
2026-01-21 05:27:43.71	2.25	24.30	-24.5	-24.8	17.3	0.00e+00	0	44	0	1216348160	9	3742
2026-01-21 05:27:44.71	2.12	24.44	-24.5	-24.8	17.3	0.00e+00	0	44	0	1223688192	9	3729
2026-01-21 05:27:45.72	1.99	24.58	-24.5	-24.9	17.2	0.00e+00	0	44	0	1231028224	9	3761
2026-01-21 05:27:46.73	1.86	24.72	-24.6	-25.0	17.2	0.00e+00	0	44	0	1238368256	9	3778
2026-01-21 05:27:47.73	1.72	24.86	-24.5	-25.3	17.3	0.00e+00	0	44	0	1244659712	8	3946
2026-01-21 05:27:48.73	1.59	25.00	-24.4	-25.1	17.4	0.00e+00	0	44	0	1251999744	8	3907
2026-01-21 05:27:49.74	1.45	25.14	-24.5	-25.4	17.2	0.00e+00	0	44	0	1259339776	8	3973
2026-01-21 05:27:50.74	1.32	25.29	-24.4	-25.1	17.4	0.00e+00	0	44	0	1266679808	8	3916
2026-01-21 05:27:51.73	1.18	25.43	-24.5	-25.3	17.3	0.00e+00	0	44	0	1274019840	8	3954
2026-01-21 05:27:52.73	1.04	25.57	-24.3	-25.0	17.4	0.00e+00	0	44	0	1281359872	8	3877
2026-01-21 05:27:53.74	0.90	25.71	-24.2	-24.7	17.6	0.00e+00	0	44	0	1288699904	8	3811
2026-01-21 05:27:54.74	0.76	25.86	-24.2	-24.6	17.6	0.00e+00	0	44	0	1296039936	8	3792
2026-01-21 05:27:55.74	0.61	26.00	-24.4	-25.1	17.4	0.00e+00	0	44	0	1302331392	8	3917
2026-01-21 05:27:56.74	0.47	26.15	-24.2	-24.2	17.7	0.00e+00	0	44	0	1309671424	9	3594
2026-01-21 05:27:57.75	0.32	26.30	-23.8	-23.9	18.0	0.00e+00	0	44	0	1317011456	8	3632
2026-01-21 05:27:58.75	0.17	26.44	-23.7	-23.6	18.2	0.00e+00	0	44	0	1324351488	8	3560
2026-01-21 05:27:59.76	0.02	26.59	-23.6	-24.0	18.2	0.00e+00	0	44	0	1331691520	7	3748
2026-01-21 05:28:00.76	359.87	26.74	-23.5	-23.8	18.3	0.00e+00	0	44	0	1339031552	7	3701
2026-01-21 05:28:01.77	359.72	26.89	-23.6	-24.0	18.2	0.00e+00	0	44	0	1346371584	7	3757
2026-01-21 05:28:02.78	359.57	27.04	-23.0	-23.1	15.1	0.00e+00	0	44	0	1353711616	7	3658
2026-01-21 05:28:03.78	359.41	27.19	-23.3	-23.3	18.4	0.00e+00	0	44	0	1361051648	7	3600
2026-01-21 05:28:04.79	359.26	27.34	-23.5	-23.6	18.3	0.00e+00	0	44	0	1368391680	7	3672
2026-01-21 05:28:05.79	359.10	27.49	-23.4	-23.4	18.5	0.00e+00	0	44	0	1375731712	7	3625
2026-01-21 05:28:06.79	358.94	27.64	-23.4	-23.5	18.4	0.00e+00	0	44	0	1383071744	7	3650
2026-01-21 05:28:07.80	358.78	27.80	-23.5	-23.6	18.4	0.00e+00	0	44	0	1389363200	7	3676
2026-01-21 05:28:08.80	358.61	27.95	-23.6	-23.9	18.3	1.24e-03	0	44	0	1397751808	7	3724
2026-01-21 05:28:09.80	358.45	28.10	-23.6	-24.0	18.3	0.00e+00	0	44	0	1405091840	7	3752
2026-01-21 05:28:10.81	358.28	28.26	-23.8	-24.4	18.0	0.00e+00	0	44	0	1411383296	7	3850
2026-01-21 05:28:11.81	358.12	28.41	-23.8	-24.3	18.1	1.32e-03	0	44	0	1418723328	7	3824
2026-01-21 05:28:12.82	357.95	28.57	-23.7	-24.1	18.2	0.00e+00	0	44	0	1426063360	7	3788
2026-01-21 05:28:13.82	357.78	28.72	-23.7	-24.2	18.1	1.39e-03	0	44	0	1433403392	7	3806
2026-01-21 05:28:14.82	357.60	28.88	-23.7	-24.1	18.2	1.10e-03	0	44	0	1440743424	7	3770
2026-01-21 05:28:15.82	357.43	29.03	-23.7	-24.2	18.2	0.00e+00	0	44	0	1448083456	7	3804
2026-01-21 05:28:16.83	357.25	29.19	-23.7	-24.2	18.2	1.25e-03	0	44	0	1455423488	7	3796
2026-01-21 05:28:17.82	357.08	29.35	-24.1	-24.5	17.7	0.00e+00	0	44	0	1462763520	8	3765
2026-01-21 05:28:18.83	356.90	29.51	-23.7	-23.6	18.2	7.78e-05	0	44	0	1470103552	8	3567
2026-01-21 05:28:19.83	356.72	29.67	-23.6	-24.0	18.3	1.27e-03	0	44	0	1476395008	7	3746
2026-01-21 05:28:20.83	356.53	29.83	-23.7	-24.1	18.2	1.21e-03	0	44	0	1483735040	7	3778
2026-01-21 05:28:21.84	356.35	29.99	-23.6	-24.0	18.3	1.94e-05	0	44	0	1491075072	7	3763
2026-01-21 05:28:22.84	356.16	30.15	-23.6	-23.9	18.3	1.70e-04	0	44	0	1498415104	7	3723
2026-01-21 05:28:23.84	355.97	30.31	-24.1	-24.4	17.8	8.07e-04	0	44	0	1505755136	8	3745
2026-01-21 05:28:24.84	355.78	30.47	-24.1	-24.4	17.9	0.00e+00	0	44	0	1513095168	8	3739
2026-01-21 05:28:25.85	355.59	30.64	-24.2	-24.6	17.7	7.98e-04	0	44	0	1520435200	8	3789
2026-01-21 05:28:26.85	355.39	30.80	-24.2	-24.6	17.7	9.28e-04	0	44	0	1527775232	8	3786
2026-01-21 05:28:27.85	355.20	30.96	-24.1	-24.5	17.8	0.00e+00	0	44	0	1535115264	8	3759
2026-01-21 05:28:28.86	355.00	31.13	-24.2	-24.7	17.7	1.01e-03	0	44	0	1542455296	8	3809
2026-01-21 05:28:29.86	354.80	31.29	-24.2	-24.6	17.7	9.37e-04	0	44	0	1549795328	8	3785
2026-01-21 05:28:30.85	354.60	31.45	-24.0	-24.3	17.9	1.71e-05	0	44	0	1556086784	8	3720
2026-01-21 05:28:31.86	354.39	31.62	-24.0	-24.4	17.9	9.85e-04	0	44	0	1563426816	8	3737
2026-01-21 05:28:32.86	354.18	31.79	-23.9	-24.1	18.1	0.00e+00	0	44	0	1570766848	8	3666
2026-01-21 05:28:33.86	353.97	31.95	-23.9	-24.5	18.1	3.43e-05	0	44	0	1578106880	7	3862
2026-01-21 05:28:34.86	353.76	32.12	-23.7	-24.1	18.2	8.70e-04	0	44	0	1585446912	7	3777
2026-01-21 05:28:35.87	353.55	32.29	-23.6	-24.0	18.3	0.00e+00	0	44	0	1592786944	7	3756
2026-01-21 05:28:36.87	353.33	32.46	-23.7	-24.1	18.2	6.06e-05	0	44	0	1600126976	7	3765
2026-01-21 05:28:37.88	353.11	32.63	-23.7	-24.1	18.2	0.00e+00	0	44	0	1607467008	7	3788
2026-01-21 05:28:38.88	352.89	32.80	-23.8	-23.9	18.2	8.79e-04	0	44	0	1614807040	8	3624
2026-01-21 05:28:39.88	352.67	32.97	-24.1	-24.4	17.9	0.00e+00	0	44	0	1621098496	8	3746
2026-01-21 05:28:40.88	352.45	33.14	-23.9	-23.9	18.1	0.00e+00	0	44	0	1628438528	8	3641
2026-01-21 05:28:41.88	352.22	33.31	-23.8	-24.2	18.2	8.56e-04	0	44	0	1635778560	7	3810
2026-01-21 05:28:42.89	351.99	33.48	-23.6	-23.9	18.3	0.00e+00	0	44	0	1643118592	7	3738
2026-01-21 05:28:43.89	351.75	33.65	-23.4	-23.5	18.6	0.00e+00	0	44	0	1650458624	7	3636
2026-01-21 05:28:44.89	351.52	33.82	-23.9	-24.5	18.1	9.61e-04	0	44	0	1657798656	7	3861
2026-01-21 05:28:45.89	351.28	33.99	-23.7	-24.2	18.2	0.00e+00	0	44	0	1665138688	7	3802
2026-01-21 05:28:46.90	351.04	34.17	-24.1	-24.9	17.9	9.92e-04	0	44	0	1672478720	7	3969
2026-01-21 05:28:47.90	350.80	34.34	-23.9	-24.1	18.1	0.00e+00	0	44	0	1678770176	8	3672
2026-01-21 05:28:48.90	350.55	34.51	-23.5	-23.2	18.5	0.00e+00	0	44	0	1687158784	8	3481
2026-01-21 05:28:49.91	350.30	34.69	-23.4	-23.6	18.6	0.00e+00	0	44	0	1694498816	7	3664
2026-01-21 05:28:50.91	350.05	34.86	-23.6	-24.0	18.3	0.00e+00	0	44	0	1700790272	7	3750
2026-01-21 05:28:51.92	349.80	35.04	-23.6	-23.8	18.4	0.00e+00	0	44	0	1708130304	7	3713
2026-01-21 05:28:52.93	349.54	35.21	-23.7	-24.2	18.2	0.00e+00	0	44	0	1715470336	7	3800
2026-01-21 05:28:53.93	349.28	35.39	-23.7	-24.2	18.2	0.00e+00	0	44	0	1722810368	7	3799
2026-01-21 05:28:54.94	349.02	35.56	-23.7	-24.1	18.3	0.00e+00	0	44	0	1730150400	7	3769
2026-01-21 05:28:55.94	348.75	35.74	-23.6	-24.0	18.4	0.00e+00	0	44	0	1737490432	7	3750
2026-01-21 05:28:56.94	348.48	35.91	-23.7	-24.0	18.3	0.00e+00	0	44	0	1744830464	7	3756
2026-01-21 05:28:57.95	348.21	36.09	-23.7	-24.1	18.3	0.00e+00	0	44	0	1752170496	7	3774
2026-01-21 05:28:58.94	347.94	36.27	-23.7	-24.0	18.3	0.00e+00	0	44	0	1759510528	7	3757
2026-01-21 05:28:59.95	347.66	36.44	-23.6	-24.0	18.3	0.00e+00	0	44	0	1766850560	7	3755
2026-01-21 05:29:00.96	347.38	36.62	-23.8	-24.2	18.2	0.00e+00	0	44	0	1774190592	7	3803
2026-01-21 05:29:01.96	347.10	36.80	-23.5	-23.8	18.5	0.00e+00	0	44	0	1781530624	7	3702
2026-01-21 05:29:02.96	346.81	36.98	-23.4	-23.5	18.6	0.00e+00	0	44	0	1787822080	7	3638
2026-01-21 05:29:03.97	346.52	37.15	-23.4	-23.5	18.6	0.00e+00	0	44	0	1795162112	7	3651
2026-01-21 05:29:04.96	346.23	37.33	-23.6	-23.9	18.4	0.00e+00	0	44	0	1802502144	7	3728
2026-01-21 05:29:05.96	345.94	37.51	-23.7	-24.0	18.3	0.00e+00	0	44	0	1809842176	7	3754
2026-01-21 05:29:06.97	345.64	37.69	-23.4	-23.6	18.6	0.00e+00	0	44	0	1817182208	7	3651
2026-01-21 05:29:07.98	345.33	37.86	-23.7	-24.1	18.3	0.00e+00	0	44	0	1824522240	7	3778
2026-01-21 05:29:08.98	345.03	38.04	-23.5	-23.6	18.6	0.00e+00	0	44	0	1831862272	7	3669
2026-01-21 05:29:09.99	344.72	38.22	-23.7	-24.1	18.3	0.00e+00	0	44	0	1839202304	7	3779
2026-01-21 05:29:10.99	344.40	38.40	-24.1	-24.9	17.9	0.00e+00	0	44	0	1846542336	7	3964
2026-01-21 05:29:12.00	344.09	38.58	-23.6	-24.0	18.4	0.00e+00	0	44	0	1853882368	7	3746
2026-01-21 05:29:13.01	343.76	38.76	-23.6	-23.8	18.5	0.00e+00	0	44	0	1861222400	7	3713
2026-01-21 05:29:14.02	343.44	38.93	-23.7	-24.0	18.4	0.00e+00	0	44	0	1868562432	7	3758
2026-01-21 05:29:15.02	343.11	39.11	-23.8	-24.3	18.3	0.00e+00	0	44	0	1874853888	7	3811
2026-01-21 05:29:16.02	342.78	39.29	-23.5	-23.6	18.6	0.00e+00	0	44	0	1882193920	7	3670
2026-01-21 05:29:17.03	342.45	39.47	-23.4	-23.5	18.7	0.00e+00	0	44	0	1889533952	7	3630
2026-01-21 05:29:18.03	342.11	39.64	-23.5	-23.7	18.5	0.00e+00	0	44	0	1896873984	7	3686
2026-01-21 05:29:19.04	341.77	39.82	-23.5	-23.7	18.6	0.00e+00	0	44	0	1904214016	7	3672
2026-01-21 05:29:20.04	341.42	39.99	-23.9	-24.5	18.1	0.00e+00	0	44	0	1911554048	7	3878
2026-01-21 05:29:21.04	341.07	40.17	-23.7	-24.1	18.3	0.00e+00	0	44	0	1918894080	7	3783
2026-01-21 05:29:22.05	340.72	40.35	-23.8	-24.3	18.2	0.00e+00	0	44	0	1926234112	7	3828
2026-01-21 05:29:23.05	340.36	40.52	-23.8	-24.2	18.3	0.00e+00	0	44	0	1932525568	7	3805
2026-01-21 05:29:24.05	340.00	40.70	-24.1	-24.9	17.9	0.00e+00	0	44	0	1940914176	7	3972
2026-01-21 05:29:25.06	339.64	40.87	-24.1	-24.6	17.9	0.00e+00	0	44	0	1948254208	8	3778
2026-01-21 05:29:26.06	339.27	41.04	-24.1	-24.6	17.9	0.00e+00	0	44	0	1954545664	8	3780
2026-01-21 05:29:27.06	338.90	41.22	-24.4	-25.2	17.6	0.00e+00	0	44	0	1961885696	8	3919
2026-01-21 05:29:28.07	338.52	41.39	-24.1	-24.5	17.9	0.00e+00	0	44	0	1969225728	8	3771
2026-01-21 05:29:29.07	338.14	41.56	-24.1	-24.5	17.9	0.00e+00	0	44	0	1976565760	8	3762
2026-01-21 05:29:30.07	337.75	41.73	-24.0	-24.3	18.0	0.00e+00	0	44	0	1983905792	8	3713
2026-01-21 05:29:31.07	337.37	41.90	-24.2	-24.7	17.8	0.00e+00	0	44	0	1991245824	8	3803
2026-01-21 05:29:32.07	336.97	42.07	-23.8	-23.8	18.3	0.00e+00	0	44	0	1998585856	8	3599
2026-01-21 05:29:33.07	336.58	42.24	-23.5	-23.8	18.5	0.00e+00	0	44	0	2005925888	7	3710
2026-01-21 05:29:34.07	336.18	42.41	-23.5	-23.7	18.5	0.00e+00	0	44	0	2013265920	7	3693
2026-01-21 05:29:35.07	335.77	42.58	-23.6	-23.9	18.4	0.00e+00	0	44	0	2019557376	7	3733
2026-01-21 05:29:36.06	335.37	42.74	-23.7	-24.2	18.3	0.00e+00	0	44	0	2026897408	7	3794
2026-01-21 05:29:37.06	334.95	42.91	-23.6	-23.8	18.5	0.00e+00	0	44	0	2034237440	7	3711
2026-01-21 05:29:38.06	334.54	43.07	-23.8	-24.2	18.3	0.00e+00	0	44	0	2041577472	7	3808
2026-01-21 05:29:39.07	334.11	43.24	-23.7	-24.1	18.4	0.00e+00	0	44	0	2048917504	7	3777
2026-01-21 05:29:40.07	333.68	43.40	-24.0	-24.7	18.0	0.00e+00	0	44	0	2056257536	7	3909
2026-01-21 05:29:41.08	333.25	43.56	-23.7	-24.1	18.4	0.00e+00	0	44	0	2063597568	7	3762
2026-01-21 05:29:42.09	332.81	43.72	-23.6	-24.0	18.4	0.00e+00	0	44	0	2070937600	7	3750
2026-01-21 05:29:43.09	332.37	43.88	-23.8	-24.4	18.2	0.00e+00	0	44	0	2078277632	7	3843
2026-01-21 05:29:44.09	331.93	44.04	-23.8	-24.3	18.2	0.00e+00	0	44	0	2084569088	7	3821
2026-01-21 05:29:45.10	331.47	44.20	-24.0	-24.7	18.0	0.00e+00	0	44	0	2091909120	7	3914
2026-01-21 05:29:46.10	331.02	44.35	-23.6	-23.9	18.4	0.00e+00	0	44	0	2099249152	7	3729
2026-01-21 05:29:47.10	330.57	44.50	-23.6	-23.8	18.5	0.00e+00	0	44	0	2106589184	7	3709
2026-01-21 05:29:48.10	330.10	44.66	-23.6	-23.8	18.5	0.00e+00	0	44	0	2113929216	7	3708
2026-01-21 05:29:49.10	329.64	44.81	-23.6	-24.0	18.4	9.97e-04	0	44	0	2121269248	7	3752
2026-01-21 05:29:50.10	329.17	44.95	-23.5	-23.7	18.6	0.00e+00	0	44	0	2128609280	7	3685
2026-01-21 05:29:51.10	328.69	45.10	-23.7	-24.1	18.4	0.00e+00	0	44	0	2135949312	7	3779
2026-01-21 05:29:52.11	328.21	45.25	-23.9	-24.4	18.2	9.88e-04	0	44	0	2143289344	7	3853
2026-01-21 05:29:53.10	327.73	45.39	-24.0	-24.3	18.1	0.00e+00	0	44	0	2150629376	8	3713
2026-01-21 05:29:54.11	327.24	45.53	-24.1	-24.5	18.0	0.00e+00	0	44	0	2157969408	8	3752
2026-01-21 05:29:55.11	326.74	45.68	-24.3	-25.0	17.7	0.00e+00	0	44	0	2164260864	8	3867
2026-01-21 05:29:56.12	326.24	45.81	-24.2	-24.7	17.8	0.00e+00	0	44	0	2171600896	8	3812
2026-01-21 05:29:57.12	325.74	45.95	-24.2	-24.6	17.9	0.00e+00	0	44	0	2178940928	8	3784
2026-01-21 05:29:58.13	325.23	46.09	-24.3	-24.8	17.7	0.00e+00	0	44	0	2186280960	8	3836
2026-01-21 05:29:59.13	324.72	46.22	-24.0	-24.2	18.1	8.57e-04	0	44	0	2193620992	8	3679
2026-01-21 05:30:00.13	324.20	46.35	-24.0	-24.2	18.1	0.00e+00	0	44	0	2200961024	8	3688
2026-01-21 05:30:01.14	323.68	46.48	-24.1	-24.4	18.0	0.00e+00	0	44	0	2208301056	8	3748
2026-01-21 05:30:02.15	323.15	46.61	-24.3	-24.8	17.8	7.15e-04	0	44	0	2215641088	8	3834
2026-01-21 05:30:03.15	322.62	46.73	-24.3	-24.8	17.8	0.00e+00	0	44	0	2222981120	8	3824
2026-01-21 05:30:04.16	322.09	46.85	-24.1	-24.4	18.0	3.95e-04	0	44	0	2230321152	8	3729
2026-01-21 05:30:05.16	321.55	46.97	-24.1	-24.4	18.0	6.34e-04	0	44	0	2237661184	8	3730
2026-01-21 05:30:06.17	321.01	47.09	-24.1	-24.4	18.0	0.00e+00	0	44	0	2245001216	8	3736
2026-01-21 05:30:07.17	320.46	47.20	-24.0	-24.3	18.1	8.63e-04	0	44	0	2251292672	8	3715
2026-01-21 05:30:08.17	319.92	47.31	-24.1	-24.5	18.0	8.99e-04	0	44	0	2258632704	8	3759
2026-01-21 05:30:09.17	319.36	47.42	-24.4	-25.1	17.6	0.00e+00	0	44	0	2265972736	8	3911
2026-01-21 05:30:10.17	318.81	47.53	-24.4	-25.1	17.6	8.80e-04	0	44	0	2273312768	8	3905
2026-01-21 05:30:11.18	318.24	47.63	-24.4	-25.0	17.5	6.83e-04	0	44	0	2280652800	8	3874
2026-01-21 05:30:12.18	317.68	47.73	-24.2	-24.6	17.9	0.00e+00	0	44	0	2287992832	8	3787
2026-01-21 05:30:13.18	317.11	47.83	-24.0	-24.3	18.1	0.00e+00	0	44	0	2295332864	8	3727
2026-01-21 05:30:14.18	316.54	47.92	-24.0	-24.7	18.1	3.44e-04	0	44	0	2302672896	7	3915
2026-01-21 05:30:15.19	315.96	48.02	-24.3	-24.8	17.8	0.00e+00	0	44	0	2308964352	8	3835
2026-01-21 05:30:16.18	315.39	48.11	-24.4	-25.1	17.6	0.00e+00	0	44	0	2316304384	8	3904
2026-01-21 05:30:17.18	314.81	48.19	-24.5	-25.3	17.5	8.00e-04	0	44	0	2323644416	8	3950
2026-01-21 05:30:18.19	314.22	48.27	-24.6	-24.9	17.5	0.00e+00	0	44	0	2330984448	9	3750
2026-01-21 05:30:19.19	313.64	48.35	-24.6	-25.0	17.5	8.09e-04	0	44	0	2338324480	9	3762
2026-01-21 05:30:20.19	313.05	48.43	-24.6	-25.1	17.4	6.63e-04	0	44	0	2345664512	9	3790
2026-01-21 05:30:21.20	312.45	48.51	-24.7	-25.2	17.4	0.00e+00	0	44	0	2353004544	9	3813
2026-01-21 05:30:22.20	311.85	48.58	-24.6	-25.0	17.5	7.64e-04	0	44	0	2360344576	9	3768
2026-01-21 05:30:23.21	311.25	48.64	-24.5	-24.7	17.6	0.00e+00	0	44	0	2367684608	9	3696
2026-01-21 05:30:24.21	310.65	48.71	-24.2	-24.2	17.9	0.00e+00	0	44	0	2375024640	9	3592
2026-01-21 05:30:25.21	310.05	48.77	-24.3	-24.8	17.8	0.00e+00	0	44	0	2382364672	8	3827
2026-01-21 05:30:26.21	309.44	48.82	-24.5	-25.2	17.6	0.00e+00	0	44	0	2389704704	8	3938
2026-01-21 05:30:27.21	308.83	48.88	-24.5	-24.8	17.5	0.00e+00	0	44	0	2395996160	9	3733
2026-01-21 05:30:28.22	308.22	48.93	-24.7	-25.3	17.3	0.00e+00	0	44	0	2403336192	9	3841
2026-01-21 05:30:29.22	307.60	48.98	-24.7	-25.2	17.4	0.00e+00	0	44	0	2410676224	9	3813
2026-01-21 05:30:30.23	306.98	49.02	-24.6	-25.1	17.5	0.00e+00	0	44	0	2418016256	9	3790
2026-01-21 05:30:31.23	306.37	49.06	-24.8	-25.5	17.2	0.00e+00	0	44	0	2425356288	9	3889
2026-01-21 05:30:32.24	305.75	49.10	-24.5	-24.8	17.5	1.60e-05	0	44	0	2432696320	9	3732
2026-01-21 05:30:33.24	305.13	49.13	-24.3	-24.5	17.7	0.00e+00	0	44	0	2440036352	9	3645
2026-01-21 05:30:34.24	304.51	49.16	-24.6	-25.4	17.5	0.00e+00	0	44	0	2447376384	8	3979
2026-01-21 05:30:35.24	303.89	49.18	-24.8	-25.4	17.3	0.00e+00	0	44	0	2454716416	9	3868
2026-01-21 05:30:36.24	303.27	49.20	-25.0	-25.8	17.1	0.00e+00	0	44	0	2461007872	9	3960
2026-01-21 05:30:37.25	302.64	49.22	-24.8	-25.4	17.3	0.00e+00	0	44	0	2468347904	9	3858
2026-01-21 05:30:38.24	302.02	49.24	-24.7	-25.2	17.3	0.00e+00	0	44	0	2475687936	9	3805
2026-01-21 05:30:39.25	301.39	49.25	-24.7	-25.3	17.3	0.00e+00	0	44	0	2483027968	9	3839
2026-01-21 05:30:40.25	300.77	49.26	-24.6	-24.9	17.5	0.00e+00	0	44	0	2490368000	9	3752
2026-01-21 05:30:41.25	300.14	49.26	-24.5	-24.8	17.6	0.00e+00	0	44	0	2497708032	9	3712
2026-01-21 05:30:42.26	299.51	49.26	-24.7	-25.3	17.3	0.00e+00	0	44	0	2505048064	9	3844
2026-01-21 05:30:43.26	298.89	49.26	-24.6	-25.0	17.5	0.00e+00	0	44	0	2512388096	9	3773
2026-01-21 05:30:44.26	298.26	49.25	-24.8	-25.3	17.3	0.00e+00	0	44	0	2519728128	9	3844
2026-01-21 05:30:45.27	297.63	49.24	-24.7	-25.3	17.4	0.00e+00	0	44	0	2527068160	9	3831
2026-01-21 05:30:46.27	297.01	49.22	-24.5	-24.8	17.6	0.00e+00	0	44	0	2534408192	9	3717
2026-01-21 05:30:47.27	296.39	49.20	-24.3	-24.3	17.9	0.00e+00	0	44	0	2540699648	9	3605
2026-01-21 05:30:48.27	295.77	49.18	-24.1	-24.0	18.0	0.00e+00	0	44	0	2548039680	9	3544
2026-01-21 05:30:49.28	295.14	49.16	-24.2	-24.1	18.0	0.00e+00	0	44	0	2555379712	9	3568
2026-01-21 05:30:50.28	294.52	49.13	-24.2	-24.2	17.9	0.00e+00	0	44	0	2562719744	9	3585
2026-01-21 05:30:51.29	293.89	49.09	-24.5	-24.8	17.6	0.00e+00	0	44	0	2570059776	9	3732
2026-01-21 05:30:52.29	293.28	49.06	-24.7	-25.2	17.4	0.00e+00	0	44	0	2577399808	9	3820
2026-01-21 05:30:53.29	292.66	49.02	-24.7	-25.2	17.4	0.00e+00	0	44	0	2584739840	9	3815
2026-01-21 05:30:54.29	292.05	48.97	-24.6	-25.1	17.5	0.00e+00	0	44	0	2592079872	9	3787
2026-01-21 05:30:55.29	291.44	48.93	-24.7	-25.2	17.4	0.00e+00	0	44	0	2599419904	9	3825
2026-01-21 05:30:56.29	290.83	48.88	-24.8	-25.5	17.2	0.00e+00	0	44	0	2605711360	9	3880
2026-01-21 05:30:57.29	290.22	48.82	-24.8	-25.5	17.2	0.00e+00	0	44	0	2613051392	9	3895
2026-01-21 05:30:58.29	289.61	48.77	-24.8	-25.3	17.3	0.00e+00	0	44	0	2620391424	9	3849
2026-01-21 05:30:59.29	289.01	48.70	-24.6	-24.9	17.5	0.00e+00	0	44	0	2627731456	9	3754
2026-01-21 05:31:00.29	288.41	48.64	-24.6	-25.0	17.5	0.00e+00	0	44	0	2635071488	9	3772
2026-01-21 05:31:01.29	287.81	48.57	-24.7	-25.1	17.4	0.00e+00	0	44	0	2642411520	9	3797
2026-01-21 05:31:02.29	287.21	48.50	-24.5	-24.8	17.6	0.00e+00	0	44	0	2649751552	9	3726
2026-01-21 05:31:03.29	286.62	48.43	-24.3	-24.4	17.6	0.00e+00	0	44	0	2657091584	9	3636
2026-01-21 05:31:04.29	286.03	48.35	-24.5	-24.7	17.6	0.00e+00	0	44	0	2664431616	9	3699
2026-01-21 05:31:05.29	285.44	48.27	-24.5	-24.8	17.6	0.00e+00	0	44	0	2670723072	9	3715
2026-01-21 05:31:06.30	284.85	48.19	-24.3	-24.3	17.8	0.00e+00	0	44	0	2678063104	9	3621
2026-01-21 05:31:07.30	284.27	48.10	-24.3	-24.8	17.8	0.00e+00	0	44	0	2686451712	8	3827
2026-01-21 05:31:08.30	283.69	48.01	-24.3	-24.9	17.8	0.00e+00	0	44	0	2692743168	8	3858
2026-01-21 05:31:09.31	283.11	47.92	-24.4	-25.0	17.7	0.00e+00	0	44	0	2700083200	8	3876
2026-01-21 05:31:10.31	282.54	47.83	-24.5	-25.3	17.6	0.00e+00	0	44	0	2707423232	8	3950
2026-01-21 05:31:11.31	281.97	47.73	-24.6	-25.0	17.5	0.00e+00	0	44	0	2714763264	9	3774
2026-01-21 05:31:12.32	281.40	47.63	-24.5	-24.8	17.6	0.00e+00	0	44	0	2722103296	9	3729
2026-01-21 05:31:13.32	280.84	47.52	-24.2	-24.2	17.9	0.00e+00	0	44	0	2729443328	9	3599
2026-01-21 05:31:14.32	280.29	47.42	-24.0	-24.2	18.1	0.00e+00	0	44	0	2736783360	8	3694
2026-01-21 05:31:15.33	279.73	47.31	-24.1	-24.4	18.0	0.00e+00	0	44	0	2744123392	8	3737
2026-01-21 05:31:16.34	279.18	47.19	-24.2	-24.7	17.9	0.00e+00	0	44	0	2750414848	8	3804
2026-01-21 05:31:17.34	278.63	47.08	-24.1	-24.5	18.0	0.00e+00	0	44	0	2757754880	8	3754
2026-01-21 05:31:18.35	278.09	46.96	-24.2	-24.7	17.9	0.00e+00	0	44	0	2765094912	8	3802
2026-01-21 05:31:19.35	277.55	46.84	-24.3	-24.8	17.8	0.00e+00	0	44	0	2772434944	8	3840
2026-01-21 05:31:20.35	277.02	46.72	-24.2	-24.7	17.9	0.00e+00	0	44	0	2779774976	8	3812
2026-01-21 05:31:21.36	276.48	46.60	-24.4	-25.1	17.7	0.00e+00	0	44	0	2787115008	8	3897
2026-01-21 05:31:22.37	275.95	46.47	-24.3	-24.9	17.7	0.00e+00	0	44	0	2794455040	8	3850
2026-01-21 05:31:23.37	275.43	46.34	-24.0	-24.3	18.1	0.00e+00	0	44	0	2801795072	8	3712
2026-01-21 05:31:24.37	274.92	46.21	-23.9	-24.0	18.3	0.00e+00	0	44	0	2809135104	8	3648
2026-01-21 05:31:25.38	274.40	46.08	-24.0	-24.3	18.1	0.00e+00	0	44	0	2816475136	8	3711
2026-01-21 05:31:26.38	273.90	45.94	-24.0	-24.3	18.1	0.00e+00	0	44	0	2823815168	8	3716
2026-01-21 05:31:27.38	273.39	45.80	-24.1	-24.4	18.0	0.00e+00	0	44	0	2831155200	8	3747
2026-01-21 05:31:28.39	272.89	45.66	-24.1	-24.4	18.0	0.00e+00	0	44	0	2837446656	8	3730
2026-01-21 05:31:29.39	272.40	45.52	-23.7	-23.7	18.3	0.00e+00	0	44	0	2844786688	8	3581
2026-01-21 05:31:30.40	271.90	45.38	-23.5	-23.3	18.6	0.00e+00	0	44	0	2852126720	8	3497
2026-01-21 05:31:31.40	271.42	45.23	-23.5	-23.7	18.6	0.00e+00	0	44	0	2859466752	7	3684
2026-01-21 05:31:32.39	270.94	45.09	-23.5	-23.8	18.5	0.00e+00	0	44	0	2866806784	7	3712
2026-01-21 05:31:33.39	270.47	44.94	-23.3	-23.7	16.9	0.00e+00	0	44	0	2874146816	7	3794
2026-01-21 05:31:34.40	269.99	44.79	-23.8	-24.4	18.2	0.00e+00	0	44	0	2881486848	7	3833
2026-01-21 05:31:35.41	269.52	44.64	-23.8	-24.3	18.2	0.00e+00	0	44	0	2888826880	7	3821
2026-01-21 05:31:36.41	269.06	44.49	-23.9	-24.6	18.1	0.00e+00	0	44	0	2896166912	7	3887
2026-01-21 05:31:37.41	268.60	44.33	-24.1	-24.4	18.0	1.34e-03	0	44	0	2903506944	8	3728
2026-01-21 05:31:38.41	268.15	44.18	-24.2	-24.6	17.9	0.00e+00	0	44	0	2910846976	8	3785
2026-01-21 05:31:39.41	267.70	44.02	-24.1	-24.5	17.9	1.33e-03	0	44	0	2917138432	8	3759
2026-01-21 05:31:40.41	267.25	43.86	-24.0	-24.3	18.0	2.17e-04	0	44	0	2924478464	8	3718
2026-01-21 05:31:41.42	266.81	43.70	-24.2	-24.7	17.9	0.00e+00	0	44	0	2931818496	8	3795
2026-01-21 05:31:42.42	266.37	43.54	-24.0	-24.3	18.0	1.16e-03	0	44	0	2939158528	8	3717
2026-01-21 05:31:43.43	265.94	43.38	-23.6	-23.8	18.4	0.00e+00	0	44	0	2946498560	7	3714
2026-01-21 05:31:44.43	265.51	43.22	-23.4	-23.4	18.7	6.63e-05	0	44	0	2953838592	7	3621
2026-01-21 05:31:45.43	265.09	43.05	-23.3	-23.8	18.7	1.15e-03	0	44	0	2961178624	6	3813
2026-01-21 05:31:46.44	264.66	42.88	-23.4	-24.0	18.7	0.00e+00	0	44	0	2968518656	6	3851
2026-01-21 05:31:47.44	264.25	42.72	-23.5	-24.3	18.5	0.00e+00	0	44	0	2975858688	6	3920
2026-01-21 05:31:48.44	263.84	42.55	-23.6	-24.0	18.4	0.00e+00	0	44	0	2982150144	7	3755
2026-01-21 05:31:49.44	263.44	42.38	-23.7	-24.1	18.3	1.22e-03	0	44	0	2989490176	7	3770
2026-01-21 05:31:50.45	263.03	42.21	-23.6	-24.0	18.4	0.00e+00	0	44	0	2996830208	7	3749
2026-01-21 05:31:51.45	262.63	42.04	-23.5	-23.7	18.5	1.27e-03	0	44	0	3004170240	7	3687
2026-01-21 05:31:52.46	262.24	41.87	-23.5	-23.7	18.5	1.41e-03	0	44	0	3011510272	7	3685
2026-01-21 05:31:53.46	261.85	41.70	-23.6	-24.0	18.4	0.00e+00	0	44	0	3018850304	7	3744
2026-01-21 05:31:54.45	261.47	41.53	-23.7	-24.1	18.3	1.58e-03	0	44	0	3026190336	7	3784
2026-01-21 05:31:55.46	261.08	41.36	-23.8	-24.3	18.2	1.53e-03	0	44	0	3033530368	7	3821
2026-01-21 05:31:56.46	260.71	41.19	-23.8	-24.4	18.1	0.00e+00	0	44	0	3040870400	7	3856
2026-01-21 05:31:57.47	260.33	41.01	-23.7	-24.2	18.2	1.28e-03	0	44	0	3048210432	7	3808
2026-01-21 05:31:58.46	259.97	40.84	-23.6	-24.0	18.3	1.12e-03	0	44	0	3055550464	7	3753
2026-01-21 05:31:59.47	259.60	40.66	-23.6	-24.0	18.4	0.00e+00	0	44	0	3062890496	7	3745
2026-01-21 05:32:00.47	259.24	40.49	-23.7	-24.2	18.2	1.29e-03	0	44	0	3069181952	7	3801
2026-01-21 05:32:01.47	258.88	40.31	-23.7	-24.2	18.2	0.00e+00	0	44	0	3076521984	7	3799
2026-01-21 05:32:02.47	258.53	40.14	-23.7	-24.0	18.3	0.00e+00	0	44	0	3083862016	7	3759
2026-01-21 05:32:03.47	258.18	39.96	-23.6	-24.0	18.4	1.42e-03	0	44	0	3091202048	7	3748
2026-01-21 05:32:04.47	257.83	39.78	-23.7	-24.2	18.2	1.10e-03	0	44	0	3098542080	7	3787
2026-01-21 05:32:05.47	257.49	39.61	-23.9	-24.5	18.1	0.00e+00	0	44	0	3105882112	7	3867
2026-01-21 05:32:06.48	257.15	39.43	-23.9	-24.5	18.1	0.00e+00	0	44	0	3113222144	7	3862
2026-01-21 05:32:07.48	256.82	39.25	-23.7	-24.1	18.2	5.19e-04	0	44	0	3120562176	7	3777
2026-01-21 05:32:08.48	256.49	39.07	-23.5	-23.7	18.4	0.00e+00	0	44	0	3126853632	7	3696
2026-01-21 05:32:09.49	256.16	38.89	-23.4	-23.6	18.6	0.00e+00	0	44	0	3134193664	7	3656
2026-01-21 05:32:10.49	255.83	38.72	-23.4	-23.4	18.6	1.32e-03	0	44	0	3141533696	7	3617
2026-01-21 05:32:11.49	255.51	38.54	-23.3	-23.3	18.6	0.00e+00	0	44	0	3148873728	7	3605
2026-01-21 05:32:12.50	255.20	38.36	-23.3	-23.8	18.6	1.43e-03	0	44	0	3156213760	6	3814
2026-01-21 05:32:13.50	254.88	38.18	-23.3	-23.9	18.6	0.00e+00	0	44	0	3163553792	6	3828
2026-01-21 05:32:14.50	254.57	38.00	-23.4	-24.0	18.6	0.00e+00	0	44	0	3170893824	6	3860
2026-01-21 05:32:15.50	254.27	37.83	-23.5	-24.3	18.4	0.00e+00	0	44	0	3178233856	6	3920
2026-01-21 05:32:16.49	253.97	37.65	-23.6	-24.0	18.3	0.00e+00	0	44	0	3185573888	7	3761
2026-01-21 05:32:17.49	253.67	37.47	-23.8	-24.3	18.1	0.00e+00	0	44	0	3191865344	7	3829
2026-01-21 05:32:18.50	253.37	37.29	-23.7	-24.1	18.2	0.00e+00	0	44	0	3200253952	7	3789
2026-01-21 05:32:19.51	253.07	37.11	-23.5	-23.7	18.5	0.00e+00	0	44	0	3207593984	7	3684
2026-01-21 05:32:20.51	252.79	36.94	-23.4	-23.6	18.5	0.00e+00	0	44	0	3213885440	7	3672
2026-01-21 05:32:21.51	252.50	36.76	-23.4	-23.4	18.6	0.00e+00	0	44	0	3221225472	7	3631
2026-01-21 05:32:22.51	252.22	36.58	-23.2	-23.6	18.8	0.00e+00	0	44	0	3228565504	6	3770
2026-01-21 05:32:23.52	251.93	36.40	-23.2	-23.6	18.7	0.00e+00	0	44	0	3235905536	6	3770
2026-01-21 05:32:24.52	251.66	36.23	-23.2	-23.5	18.8	0.00e+00	0	44	0	3243245568	6	3748
2026-01-21 05:32:25.52	251.38	36.05	-23.0	-23.2	18.9	0.00e+00	0	44	0	3250585600	6	3684
2026-01-21 05:32:26.52	251.11	35.87	-23.0	-23.2	18.9	0.00e+00	0	44	0	3257925632	6	3674
2026-01-21 05:32:27.53	250.84	35.69	-23.1	-23.4	18.8	0.00e+00	0	44	0	3265265664	6	3711
2026-01-21 05:32:28.54	250.57	35.52	-23.3	-23.8	18.7	0.00e+00	0	44	0	3271557120	6	3806
2026-01-21 05:32:29.54	250.31	35.34	-23.4	-24.0	18.5	0.00e+00	0	44	0	3278897152	6	3854
2026-01-21 05:32:30.54	250.05	35.17	-23.6	-24.0	18.3	0.00e+00	0	44	0	3286237184	7	3744
2026-01-21 05:32:31.55	249.79	34.99	-23.9	-24.6	18.0	0.00e+00	0	44	0	3293577216	7	3880
2026-01-21 05:32:32.55	249.54	34.81	-24.1	-24.9	17.8	0.00e+00	0	44	0	3300917248	7	3968
2026-01-21 05:32:33.56	249.28	34.64	-24.2	-24.7	17.6	0.00e+00	0	44	0	3308257280	8	3817
2026-01-21 05:32:34.56	249.04	34.46	-24.1	-24.4	17.8	0.00e+00	0	44	0	3315597312	8	3754
2026-01-21 05:32:35.56	248.79	34.29	-24.0	-24.3	17.9	0.00e+00	0	44	0	3322937344	8	3719
2026-01-21 05:32:36.57	248.54	34.11	-23.9	-24.0	18.1	0.00e+00	0	45	0	3330277376	8	3644
2026-01-21 05:32:37.57	248.30	33.94	-23.5	-23.2	18.4	0.00e+00	0	44	0	3337617408	8	3480
2026-01-21 05:32:38.56	248.07	33.77	-23.2	-23.0	18.6	0.00e+00	0	44	0	3344957440	7	3544
2026-01-21 05:32:39.57	247.83	33.60	-23.1	-22.9	18.8	0.00e+00	0	45	0	3352297472	7	3525
2026-01-21 05:32:40.57	247.60	33.42	-23.3	-23.8	18.6	0.00e+00	0	44	0	3358588928	6	3821
2026-01-21 05:32:41.57	247.37	33.25	-23.4	-24.0	18.5	0.00e+00	0	44	0	3365928960	6	3857
2026-01-21 05:32:42.57	247.14	33.08	-23.4	-24.0	18.5	0.00e+00	0	44	0	3373268992	6	3865
2026-01-21 05:32:43.58	246.91	32.91	-23.6	-24.0	18.3	0.00e+00	0	44	0	3380609024	7	3747
2026-01-21 05:32:44.58	246.69	32.74	-23.7	-24.1	18.2	0.00e+00	0	44	0	3387949056	7	3776
2026-01-21 05:32:45.59	246.46	32.57	-23.7	-24.2	18.1	0.00e+00	0	44	0	3395289088	7	3809
2026-01-21 05:32:46.60	246.24	32.40	-23.7	-24.1	18.2	0.00e+00	0	44	0	3402629120	7	3771
2026-01-21 05:32:47.60	246.03	32.23	-23.5	-24.2	18.3	0.00e+00	0	44	0	3409969152	6	3915
2026-01-21 05:32:48.61	245.81	32.06	-23.3	-23.8	18.6	0.00e+00	0	44	0	3417309184	6	3817
2026-01-21 05:32:49.61	245.60	31.89	-23.1	-23.4	18.8	0.00e+00	0	44	0	3424649216	6	3728
2026-01-21 05:32:50.61	245.39	31.73	-23.0	-23.8	18.8	0.00e+00	0	44	0	3431989248	5	3911
2026-01-21 05:32:51.61	245.18	31.56	-23.1	-23.4	18.7	0.00e+00	0	44	0	3439329280	6	3734
2026-01-21 05:32:52.61	244.98	31.39	-23.3	-23.7	18.5	0.00e+00	0	44	0	3445620736	6	3793
2026-01-21 05:32:53.61	244.77	31.23	-23.3	-23.8	18.6	0.00e+00	0	44	0	3452960768	6	3809
2026-01-21 05:32:54.61	244.57	31.06	-23.3	-23.8	18.5	0.00e+00	0	44	0	3460300800	6	3812
2026-01-21 05:32:55.62	244.37	30.90	-23.3	-23.9	18.5	0.00e+00	0	44	0	3467640832	6	3834
2026-01-21 05:32:56.62	244.18	30.73	-23.2	-23.6	18.6	0.00e+00	0	44	0	3474980864	6	3779
2026-01-21 05:32:57.62	243.98	30.57	-23.0	-23.3	18.8	0.00e+00	0	44	0	3482320896	6	3690
2026-01-21 05:32:58.63	243.79	30.40	-23.1	-23.5	18.7	0.00e+00	0	44	0	3489660928	6	3741
2026-01-21 05:32:59.63	243.59	30.24	-23.2	-23.6	18.6	0.00e+00	0	44	0	3497000960	6	3777
2026-01-21 05:33:00.64	243.40	30.08	-23.2	-23.7	18.6	0.00e+00	0	44	0	3503292416	6	3797
2026-01-21 05:33:01.64	243.22	29.92	-23.3	-23.8	18.5	0.00e+00	0	44	0	3510632448	6	3813
2026-01-21 05:33:02.64	243.03	29.76	-23.4	-24.0	18.4	0.00e+00	0	44	0	3517972480	6	3865
2026-01-21 05:33:03.64	242.85	29.60	-23.5	-24.3	18.3	0.00e+00	0	44	0	3525312512	6	3941
2026-01-21 05:33:04.65	242.66	29.44	-23.9	-24.5	17.9	0.00e+00	0	44	0	3532652544	7	3884
2026-01-21 05:33:05.65	242.48	29.28	-23.9	-24.5	17.9	0.00e+00	0	44	0	3539992576	7	3867
2026-01-21 05:33:06.65	242.31	29.12	-23.7	-24.2	18.1	0.00e+00	0	44	0	3547332608	7	3793
2026-01-21 05:33:07.65	242.13	28.96	-23.7	-24.1	18.1	0.00e+00	0	44	0	3554672640	7	3778
2026-01-21 05:33:08.65	241.96	28.80	-23.7	-24.2	18.0	0.00e+00	0	44	0	3562012672	7	3815
2026-01-21 05:33:09.65	241.78	28.65	-23.8	-24.4	17.9	0.00e+00	0	44	0	3569352704	7	3846
2026-01-21 05:33:10.66	241.61	28.49	-23.8	-24.3	18.0	0.00e+00	0	44	0	3576692736	7	3838
2026-01-21 05:33:11.66	241.44	28.33	-23.8	-24.4	18.0	0.00e+00	0	44	0	3584032768	7	3841
2026-01-21 05:33:12.66	241.27	28.18	-23.7	-24.1	18.1	0.00e+00	0	44	0	3590324224	7	3770
2026-01-21 05:33:13.66	241.11	28.02	-23.5	-23.8	18.2	0.00e+00	0	44	0	3597664256	7	3709
2026-01-21 05:33:14.67	240.94	27.87	-23.5	-23.7	18.3	0.00e+00	0	44	0	3605004288	7	3697
2026-01-21 05:33:15.67	240.78	27.72	-23.7	-24.1	18.1	0.00e+00	0	44	0	3612344320	7	3775
2026-01-21 05:33:16.67	240.62	27.56	-23.9	-24.5	17.9	0.00e+00	0	44	0	3619684352	7	3872
2026-01-21 05:33:17.67	240.46	27.41	-24.0	-24.7	17.6	0.00e+00	0	44	0	3627024384	7	3945
2026-01-21 05:33:18.68	240.30	27.26	-24.1	-25.0	17.6	0.00e+00	0	45	0	3634364416	7	3981
2026-01-21 05:33:19.68	240.14	27.11	-24.5	-25.3	17.2	0.00e+00	0	44	0	3641704448	8	3963
2026-01-21 05:33:20.69	239.98	26.96	-24.3	-24.4	17.4	0.00e+00	0	45	0	3649044480	9	3658
2026-01-21 05:33:21.69	239.83	26.81	-24.3	-24.4	17.4	0.00e+00	0	44	0	3655335936	9	3655
2026-01-21 05:33:22.70	239.68	26.66	-24.2	-24.2	17.5	0.00e+00	0	45	0	3662675968	9	3594
2026-01-21 05:33:23.70	239.53	26.51	-24.4	-24.7	17.3	0.00e+00	0	44	0	3671064576	9	3716
2026-01-21 05:33:24.71	239.38	26.36	-24.3	-24.5	17.4	0.00e+00	0	44	0	3677356032	9	3659
2026-01-21 05:33:25.71	239.23	26.21	-24.5	-24.8	17.2	0.00e+00	0	44	0	3684696064	9	3723
2026-01-21 05:33:26.71	239.08	26.07	-24.3	-24.3	17.5	0.00e+00	0	44	0	3692036096	9	3631
2026-01-21 05:33:27.72	238.93	25.92	-23.9	-23.6	17.8	4.23e-05	0	44	0	3699376128	9	3476
2026-01-21 05:33:28.72	238.79	25.77	-23.7	-23.7	18.0	0.00e+00	0	44	0	3706716160	8	3586
2026-01-21 05:33:29.72	238.65	25.63	-23.7	-23.7	18.0	0.00e+00	0	45	0	3714056192	8	3587
2026-01-21 05:33:30.72	238.51	25.48	-23.6	-24.0	18.1	6.13e-04	0	44	0	3721396224	7	3749
2026-01-21 05:33:31.72	238.37	25.34	-23.6	-24.0	18.1	0.00e+00	0	44	0	3728736256	7	3755
2026-01-21 05:33:32.73	238.23	25.20	-23.5	-23.7	18.2	8.26e-04	0	44	0	3735027712	7	3680
2026-01-21 05:33:33.73	238.09	25.05	-23.4	-24.0	18.3	8.03e-04	0	44	0	3742367744	6	3851
2026-01-21 05:33:34.74	237.95	24.91	-23.3	-23.8	18.4	0.00e+00	0	44	0	3749707776	6	3823
2026-01-21 05:33:35.75	237.82	24.77	-23.4	-24.1	18.3	4.83e-04	0	44	0	3757047808	6	3882
2026-01-21 05:33:36.75	237.68	24.63	-23.4	-23.9	18.3	2.77e-04	0	44	0	3764387840	6	3850
2026-01-21 05:33:37.75	237.55	24.49	-23.3	-23.8	18.4	0.00e+00	0	44	0	3771727872	6	3809
2026-01-21 05:33:38.75	237.42	24.35	-23.4	-24.0	18.3	9.38e-05	0	44	0	3779067904	6	3872
2026-01-21 05:33:39.76	237.29	24.21	-23.4	-24.0	18.3	1.10e-06	0	44	0	3786407936	6	3858
2026-01-21 05:33:40.76	237.16	24.07	-23.5	-24.3	18.1	0.00e+00	0	44	0	3793747968	6	3928
2026-01-21 05:33:41.77	237.03	23.93	-23.5	-24.3	18.1	0.00e+00	0	44	0	3801088000	6	3934
2026-01-21 05:33:42.77	236.90	23.79	-23.6	-24.4	18.1	0.00e+00	0	44	0	3808428032	6	3962
2026-01-21 05:33:43.77	236.78	23.66	-23.7	-24.2	17.9	0.00e+00	0	45	0	3815768064	7	3817
2026-01-21 05:33:44.77	236.65	23.52	-24.0	-24.8	17.6	0.00e+00	0	44	0	3822059520	7	3946
2026-01-21 05:33:45.77	236.53	23.38	-23.9	-24.7	17.7	2.09e-04	0	44	0	3829399552	7	3917
2026-01-21 05:33:46.77	236.41	23.25	-24.1	-24.6	17.4	0.00e+00	0	44	0	3836739584	8	3796
2026-01-21 05:33:47.77	236.29	23.12	-24.4	-25.1	17.2	5.30e-04	0	44	0	3844079616	8	3910
2026-01-21 05:33:48.77	236.17	22.98	-24.2	-24.8	17.4	6.13e-04	0	44	0	3851419648	8	3845
2026-01-21 05:33:49.77	236.05	22.85	-24.0	-24.3	17.6	0.00e+00	0	44	0	3858759680	8	3737
2026-01-21 05:33:50.78	235.93	22.71	-23.9	-24.0	17.7	6.40e-04	0	44	0	3866099712	8	3666
2026-01-21 05:33:51.78	235.81	22.58	-23.8	-24.4	17.8	0.00e+00	0	44	0	3873439744	7	3849
2026-01-21 05:33:52.79	235.69	22.45	-23.8	-24.4	17.8	0.00e+00	0	44	0	3879731200	7	3841
2026-01-21 05:33:53.79	235.58	22.32	-23.9	-24.6	17.7	5.49e-04	0	44	0	3887071232	7	3906
2026-01-21 05:33:54.80	235.46	22.19	-23.9	-24.5	17.7	0.00e+00	0	44	0	3895459840	7	3869
2026-01-21 05:33:55.80	235.35	22.06	-23.7	-24.2	17.9	0.00e+00	0	44	0	3901751296	7	3794
2026-01-21 05:33:56.80	235.24	21.93	-23.8	-24.3	17.8	0.00e+00	0	44	0	3909091328	7	3834
2026-01-21 05:33:57.80	235.13	21.80	-23.8	-24.3	17.9	0.00e+00	0	44	0	3916431360	7	3818
2026-01-21 05:33:58.80	235.02	21.67	-23.9	-24.5	17.7	0.00e+00	0	44	0	3923771392	7	3870
2026-01-21 05:33:59.81	234.91	21.54	-23.9	-24.5	17.7	0.00e+00	0	44	0	3931111424	7	3871
2026-01-21 05:34:00.81	234.80	21.41	-23.9	-24.6	17.7	0.00e+00	0	44	0	3938451456	7	3896
2026-01-21 05:34:01.80	234.69	21.29	-23.9	-24.6	17.7	0.00e+00	0	44	0	3945791488	7	3894
2026-01-21 05:34:02.80	234.59	21.16	-24.0	-24.8	17.6	0.00e+00	0	44	0	3953131520	7	3949
2026-01-21 05:34:03.81	234.48	21.04	-24.0	-24.8	17.6	0.00e+00	0	44	0	3960471552	7	3932
2026-01-21 05:34:04.81	234.38	20.91	-24.1	-24.9	17.5	0.00e+00	0	44	0	3966763008	7	3979
2026-01-21 05:34:05.82	234.27	20.78	-24.1	-24.5	17.5	0.00e+00	0	44	0	3974103040	8	3761
2026-01-21 05:34:06.82	234.17	20.66	-24.2	-24.7	17.4	0.00e+00	0	45	0	3981443072	8	3807
2026-01-21 05:34:07.82	234.07	20.54	-24.2	-24.7	17.4	0.00e+00	0	44	0	3988783104	8	3812
2026-01-21 05:34:08.83	233.96	20.41	-24.3	-25.0	17.2	0.00e+00	0	44	0	3996123136	8	3878
2026-01-21 05:34:09.84	233.86	20.29	-24.3	-24.9	17.2	0.00e+00	0	44	0	4003463168	8	3871
2026-01-21 05:34:10.84	233.76	20.17	-24.4	-25.2	17.1	0.00e+00	0	44	0	4010803200	8	3924
2026-01-21 05:34:11.85	233.66	20.04	-24.4	-25.2	17.1	0.00e+00	0	44	0	4018143232	8	3937
2026-01-21 05:34:12.85	233.56	19.92	-24.6	-25.5	16.9	0.00e+00	0	44	0	4025483264	8	4014
2026-01-21 05:34:13.85	233.47	19.80	-24.6	-25.0	16.9	0.00e+00	0	44	0	4032823296	9	3783
2026-01-21 05:34:14.85	233.37	19.68	-24.6	-25.1	16.9	0.00e+00	0	45	0	4040163328	9	3811
2026-01-21 05:34:15.85	233.28	19.56	-24.6	-25.1	16.9	0.00e+00	0	44	0	4047503360	9	3810
2026-01-21 05:34:16.85	233.18	19.44	-24.7	-25.3	16.8	0.00e+00	0	44	0	4053794816	9	3844
2026-01-21 05:34:17.86	233.09	19.32	-24.6	-25.2	16.8	0.00e+00	0	44	0	4061134848	9	3823
2026-01-21 05:34:18.86	232.99	19.20	-24.7	-25.2	16.8	0.00e+00	0	44	0	4068474880	9	3829
2026-01-21 05:34:19.87	232.90	19.09	-24.7	-25.4	16.7	0.00e+00	0	44	0	4075814912	9	3875
2026-01-21 05:34:20.87	232.81	18.97	-24.6	-25.1	16.9	0.00e+00	0	44	0	4083154944	9	3805
2026-01-21 05:34:21.88	232.71	18.85	-24.6	-25.1	16.9	0.00e+00	0	44	0	4090494976	9	3807
2026-01-21 05:34:22.88	232.62	18.73	-24.6	-25.1	16.9	0.00e+00	0	44	0	4097835008	9	3801
2026-01-21 05:34:23.88	232.53	18.62	-24.5	-24.8	17.0	0.00e+00	0	44	0	4105175040	9	3742
2026-01-21 05:34:24.87	232.45	18.50	-24.5	-25.4	16.9	0.00e+00	0	44	0	4111466496	8	3982
2026-01-21 05:34:25.89	232.36	18.39	-24.5	-25.3	16.9	0.00e+00	0	44	0	4118806528	8	3974
2026-01-21 05:34:26.89	232.27	18.27	-24.7	-25.3	16.7	0.00e+00	0	44	0	4126146560	9	3847
2026-01-21 05:34:27.89	232.18	18.16	-24.6	-25.1	16.8	0.00e+00	0	44	0	4133486592	9	3813
2026-01-21 05:34:28.90	232.09	18.04	-24.5	-25.0	16.9	0.00e+00	0	44	0	4140826624	9	3776
2026-01-21 05:34:29.90	232.01	17.93	-24.6	-25.2	16.8	0.00e+00	0	44	0	4148166656	9	3827
2026-01-21 05:34:30.90	231.92	17.82	-24.6	-25.2	16.7	0.00e+00	0	44	0	4155506688	9	3827
2026-01-21 05:34:31.90	231.84	17.71	-24.7	-25.3	16.7	0.00e+00	0	44	0	4162846720	9	3863
2026-01-21 05:34:32.90	231.75	17.60	-24.8	-25.6	16.5	0.00e+00	0	44	0	4170186752	9	3928
2026-01-21 05:34:33.90	231.67	17.48	-24.9	-25.7	16.4	0.00e+00	0	44	0	4177526784	9	3966
2026-01-21 05:34:34.91	231.59	17.37	-24.9	-25.8	16.4	0.00e+00	0	44	0	4184866816	9	3984
2026-01-21 05:34:35.91	231.51	17.26	-25.1	-26.1	16.3	0.00e+00	0	44	0	4192206848	9	4042
2026-01-21 05:34:36.91	231.43	17.15	-25.1	-25.7	16.2	0.00e+00	0	44	0	4198498304	10	3850
2026-01-21 05:34:37.92	231.34	17.04	-25.2	-25.8	16.2	0.00e+00	0	44	0	4205838336	10	3873
2026-01-21 05:34:38.92	231.26	16.93	-25.3	-26.1	16.0	0.00e+00	0	44	0	4213178368	10	3940
2026-01-21 05:34:39.92	231.18	16.82	-25.2	-25.9	16.1	0.00e+00	0	44	0	4220518400	10	3891
2026-01-21 05:34:40.93	231.11	16.71	-25.2	-25.8	16.1	0.00e+00	0	44	0	4227858432	10	3872
2026-01-21 05:34:41.93	231.03	16.61	-25.2	-26.0	16.0	0.00e+00	0	44	0	4235198464	10	3912
2026-01-21 05:34:42.94	230.95	16.50	-25.2	-25.9	16.1	0.00e+00	0	44	0	4242538496	10	3891
2026-01-21 05:34:43.94	230.87	16.39	-25.2	-25.9	16.1	0.00e+00	0	44	0	4249878528	10	3890
2026-01-21 05:34:44.95	230.79	16.28	-25.3	-26.1	15.9	0.00e+00	0	44	0	4256169984	10	3954
2026-01-21 05:34:45.95	230.72	16.18	-25.4	-26.2	15.9	0.00e+00	0	44	0	4264558592	10	3979
2026-01-21 05:34:46.95	230.64	16.07	-25.4	-26.3	15.8	0.00e+00	0	44	0	4271898624	10	4006
2026-01-21 05:34:47.95	230.57	15.97	-25.5	-26.5	15.7	0.00e+00	0	44	0	4278190080	10	4050
2026-01-21 05:34:48.96	230.49	15.86	-25.4	-26.3	15.8	0.00e+00	0	44	0	4285530112	10	3998
2026-01-21 05:34:49.95	230.42	15.76	-25.5	-26.5	15.7	0.00e+00	0	44	0	4292870144	10	4034
2026-01-21 05:34:50.96	230.35	15.65	-25.6	-26.3	15.6	0.00e+00	0	44	0	4300210176	11	3889
2026-01-21 05:34:51.97	230.27	15.55	-25.5	-25.9	15.7	0.00e+00	0	44	0	4307550208	11	3806
2026-01-21 05:34:52.97	230.20	15.44	-25.4	-25.8	15.8	0.00e+00	0	44	0	4314890240	11	3776
2026-01-21 05:34:53.97	230.13	15.34	-25.4	-26.4	15.7	0.00e+00	0	44	0	4322230272	10	4015
2026-01-21 05:34:54.98	230.06	15.24	-25.6	-26.7	15.6	0.00e+00	0	44	0	4329570304	10	4095
2026-01-21 05:34:55.98	229.99	15.14	-25.6	-26.3	15.5	0.00e+00	0	44	0	4336910336	11	3879
2026-01-21 05:34:56.99	229.91	15.03	-25.8	-26.6	15.3	0.00e+00	0	44	0	4343201792	11	3969
2026-01-21 05:34:57.98	229.85	14.93	-25.7	-26.5	15.4	0.00e+00	0	44	0	4350541824	11	3945
2026-01-21 05:34:58.99	229.78	14.83	-25.9	-27.0	15.1	0.00e+00	0	44	0	4357881856	11	4055
2026-01-21 05:34:59.99	229.71	14.73	-25.7	-26.5	15.3	0.00e+00	0	44	0	4365221888	11	3943
2026-01-21 05:35:01.00	229.64	14.63	-25.7	-26.4	15.4	0.00e+00	0	44	0	4372561920	11	3920
2026-01-21 05:35:02.00	229.57	14.53	-25.6	-26.4	15.5	0.00e+00	0	45	0	4379901952	11	3912
2026-01-21 05:35:03.00	229.50	14.43	-25.8	-26.7	15.2	0.00e+00	0	44	0	4387241984	11	3990
2026-01-21 05:35:04.00	229.44	14.33	-25.7	-26.5	15.4	0.00e+00	0	44	0	4394582016	11	3946
2026-01-21 05:35:05.00	229.37	14.23	-25.6	-26.2	15.5	0.00e+00	0	44	0	4401922048	11	3876
2026-01-21 05:35:06.01	229.30	14.13	-25.6	-26.3	15.4	2.94e-04	0	44	0	4409262080	11	3896
2026-01-21 05:35:07.01	229.24	14.04	-25.7	-26.4	15.4	0.00e+00	0	44	0	4416602112	11	3922
2026-01-21 05:35:08.01	229.17	13.94	-25.9	-26.8	15.1	9.49e-04	0	44	0	4423942144	11	4030
2026-01-21 05:35:09.02	229.11	13.84	-25.7	-26.5	15.3	0.00e+00	0	44	0	4430233600	11	3946
2026-01-21 05:35:10.03	229.04	13.74	-25.7	-26.4	15.3	0.00e+00	0	44	0	4437573632	11	3926
2026-01-21 05:35:11.03	228.98	13.64	-25.7	-26.4	15.4	8.82e-04	0	44	0	4444913664	11	3908
2026-01-21 05:35:12.03	228.92	13.55	-25.7	-26.5	15.3	0.00e+00	0	45	0	4452253696	11	3941
2026-01-21 05:35:13.03	228.85	13.45	-25.8	-26.7	15.2	4.34e-05	0	44	0	4459593728	11	3982
2026-01-21 05:35:14.04	228.79	13.36	-25.7	-26.6	15.2	1.00e-03	0	45	0	4466933760	11	3958
2026-01-21 05:35:15.04	228.73	13.26	-25.8	-26.7	15.2	0.00e+00	0	44	0	4474273792	11	3984
2026-01-21 05:35:16.05	228.67	13.16	-25.8	-26.7	15.2	1.34e-04	0	44	0	4481613824	11	3985
2026-01-21 05:35:17.05	228.61	13.07	-25.9	-26.9	15.1	0.00e+00	0	44	0	4488953856	11	4037
2026-01-21 05:35:18.06	228.54	12.98	-25.9	-26.9	15.1	1.11e-03	0	44	0	4496293888	11	4039
2026-01-21 05:35:19.06	228.48	12.88	-26.0	-27.2	14.9	2.23e-04	0	44	0	4503633920	11	4113
2026-01-21 05:35:20.07	228.42	12.79	-25.9	-27.0	15.0	1.23e-03	0	44	0	4509925376	11	4071
2026-01-21 05:35:21.07	228.36	12.69	-26.1	-27.3	14.8	1.15e-03	0	44	0	4517265408	11	4151
2026-01-21 05:35:22.07	228.30	12.60	-26.0	-26.7	14.8	0.00e+00	0	44	0	4524605440	12	3903
2026-01-21 05:35:23.07	228.25	12.51	-26.1	-26.9	14.7	1.39e-03	0	45	0	4531945472	12	3944
2026-01-21 05:35:24.07	228.19	12.42	-26.3	-27.2	14.4	1.37e-03	0	44	0	4539285504	12	4023
2026-01-21 05:35:25.07	228.13	12.32	-26.2	-27.1	14.5	3.05e-04	0	45	0	4546625536	12	3983
2026-01-21 05:35:26.07	228.07	12.23	-26.2	-27.2	14.5	1.36e-03	0	44	0	4553965568	12	4014
2026-01-21 05:35:27.08	228.01	12.14	-26.2	-27.1	14.5	1.10e-06	0	44	0	4561305600	12	3992
2026-01-21 05:35:28.08	227.96	12.05	-26.3	-27.3	14.4	2.97e-04	0	44	0	4568645632	12	4057
2026-01-21 05:35:29.09	227.90	11.96	-26.3	-27.3	14.4	1.55e-03	0	44	0	4574937088	12	4038
2026-01-21 05:35:30.10	227.84	11.87	-26.4	-27.5	14.3	1.51e-03	0	44	0	4582277120	12	4097
2026-01-21 05:35:31.10	227.79	11.78	-26.3	-27.4	14.3	2.93e-04	0	44	0	4589617152	12	4080
2026-01-21 05:35:32.10	227.73	11.69	-26.3	-27.3	14.4	0.00e+00	0	44	0	4596957184	12	4035
2026-01-21 05:35:33.10	227.68	11.60	-26.3	-27.4	14.3	1.35e-03	0	44	0	4604297216	12	4066
2026-01-21 05:35:34.10	227.62	11.51	-26.4	-27.6	14.2	2.20e-06	0	44	0	4611637248	12	4120
2026-01-21 05:35:35.11	227.57	11.42	-26.4	-27.6	14.2	0.00e+00	0	44	0	4618977280	12	4114
2026-01-21 05:35:36.12	227.51	11.33	-26.4	-27.6	14.2	1.33e-03	0	44	0	4626317312	12	4137
2026-01-21 05:35:37.12	227.46	11.24	-26.5	-27.7	14.1	2.20e-06	0	44	0	4633657344	12	4150
2026-01-21 05:35:38.12	227.41	11.15	-26.4	-27.6	14.2	1.29e-03	0	45	0	4640997376	12	4130
2026-01-21 05:35:39.12	227.35	11.06	-26.5	-27.9	14.0	5.70e-06	0	44	0	4648337408	12	4198
2026-01-21 05:35:40.12	227.30	10.98	-26.7	-27.9	13.7	8.00e-06	0	44	0	4654628864	13	4089
2026-01-21 05:35:41.13	227.25	10.89	-27.0	-28.5	13.4	1.31e-03	0	44	0	4661968896	13	4260
2026-01-21 05:35:42.13	227.20	10.80	-26.8	-28.0	13.6	1.37e-05	0	44	0	4669308928	13	4137
2026-01-21 05:35:43.13	227.14	10.72	-26.6	-27.6	13.8	4.50e-06	0	44	0	4676648960	13	4020
2026-01-21 05:35:44.13	227.09	10.63	-26.6	-27.6	13.9	3.40e-06	0	44	0	4683988992	13	4015
2026-01-21 05:35:45.13	227.04	10.54	-26.6	-27.6	13.8	4.50e-06	0	45	0	4691329024	13	4017
2026-01-21 05:35:46.13	226.99	10.46	-26.8	-27.9	13.7	3.72e-04	0	44	0	4698669056	13	4094
2026-01-21 05:35:47.14	226.94	10.37	-26.7	-27.7	13.8	1.14e-05	0	44	0	4706009088	13	4055
2026-01-21 05:35:48.13	226.89	10.29	-26.7	-27.8	13.7	6.80e-06	0	44	0	4713349120	13	4088
2026-01-21 05:35:49.14	226.84	10.20	-26.8	-28.0	13.5	1.02e-05	0	44	0	4719640576	13	4143
2026-01-21 05:35:50.15	226.79	10.12	-26.8	-28.0	13.6	1.02e-05	0	44	0	4726980608	13	4126
2026-01-21 05:35:51.15	226.74	10.03	-26.8	-27.9	13.6	1.14e-05	0	45	0	4734320640	13	4114
2026-01-21 05:35:52.15	226.69	9.95	-26.8	-28.1	13.5	5.70e-06	0	44	0	4741660672	13	4150
2026-01-21 05:35:53.15	226.64	9.86	-27.0	-28.5	13.3	1.37e-05	0	44	0	4749000704	13	4273
2026-01-21 05:35:54.15	226.60	9.78	-27.2	-28.3	13.1	2.63e-05	0	44	0	4756340736	14	4112
2026-01-21 05:35:55.16	226.55	9.70	-27.1	-28.1	13.2	1.94e-05	0	44	0	4763680768	14	4069
2026-01-21 05:35:56.16	226.50	9.61	-27.1	-28.1	13.2	2.63e-05	0	44	0	4771020800	14	4048
2026-01-21 05:35:57.16	226.45	9.53	-27.0	-28.5	13.2	1.83e-05	0	45	0	4778360832	13	4283
2026-01-21 05:35:58.17	226.40	9.45	-27.0	-28.5	13.3	3.66e-05	0	44	0	4785700864	13	4269
2026-01-21 05:35:59.16	226.36	9.37	-27.2	-28.4	13.0	2.28e-05	0	44	0	4793040896	14	4123
2026-01-21 05:36:00.16	226.31	9.28	-27.2	-28.3	13.1	6.98e-05	0	44	0	4800380928	14	4106
2026-01-21 05:36:01.17	226.26	9.20	-27.0	-28.1	13.3	1.14e-05	0	44	0	4806672384	14	4043
2026-01-21 05:36:02.17	226.22	9.12	-27.0	-28.6	13.2	1.60e-05	0	44	0	4814012416	13	4301
2026-01-21 05:36:03.17	226.17	9.04	-27.1	-28.2	13.1	3.43e-05	0	44	0	4821352448	14	4090
2026-01-21 05:36:04.17	226.13	8.96	-27.3	-28.6	12.9	7.66e-05	0	45	0	4828692480	14	4196
2026-01-21 05:36:05.18	226.08	8.88	-27.1	-28.2	13.1	4.11e-05	0	44	0	4836032512	14	4077
2026-01-21 05:36:06.18	226.04	8.79	-27.0	-28.6	13.1	2.40e-05	0	45	0	4843372544	13	4297
2026-01-21 05:36:07.19	225.99	8.71	-27.1	-28.2	13.1	2.86e-05	0	44	0	4850712576	14	4099
2026-01-21 05:36:08.19	225.95	8.63	-27.3	-28.7	12.8	8.69e-05	0	44	0	4858052608	14	4217
2026-01-21 05:36:09.20	225.90	8.55	-27.2	-28.4	13.0	4.69e-05	0	44	0	4864344064	14	4135
2026-01-21 05:36:10.20	225.86	8.47	-27.1	-28.2	13.1	2.74e-05	0	44	0	4872732672	14	4095
2026-01-21 05:36:11.20	225.81	8.39	-27.3	-28.7	12.8	8.69e-05	0	45	0	4880072704	14	4218
2026-01-21 05:36:12.21	225.77	8.31	-27.2	-28.5	12.9	4.34e-05	0	44	0	4886364160	14	4166
2026-01-21 05:36:13.21	225.73	8.24	-27.2	-28.5	12.9	6.52e-05	0	44	0	4893704192	14	4176
2026-01-21 05:36:14.21	225.68	8.16	-27.2	-28.5	12.9	5.60e-05	0	44	0	4901044224	14	4162
2026-01-21 05:36:15.22	225.64	8.08	-27.3	-28.7	12.7	8.01e-05	0	44	0	4908384256	14	4237
2026-01-21 05:36:16.22	225.60	8.00	-27.2	-28.4	12.9	7.20e-05	0	44	0	4915724288	14	4144
2026-01-21 05:36:17.22	225.56	7.92	-27.1	-28.2	13.0	4.00e-05	0	44	0	4923064320	14	4091
2026-01-21 05:36:18.23	225.51	7.84	-27.0	-28.6	13.0	4.11e-05	0	44	0	4930404352	13	4312
2026-01-21 05:36:19.23	225.47	7.77	-27.0	-28.6	13.0	5.49e-05	0	44	0	4937744384	13	4324
2026-01-21 05:36:20.24	225.43	7.69	-27.0	-28.6	13.0	3.31e-05	0	44	0	4945084416	13	4300
2026-01-21 05:36:21.25	225.39	7.61	-27.1	-28.3	12.9	6.06e-05	0	45	0	4951375872	14	4123
2026-01-21 05:36:22.25	225.35	7.53	-27.1	-28.2	13.0	4.69e-05	0	45	0	4959764480	14	4083
