passes_logs/2026/01/21/R2M6_AANII_01/R2M6_AANII_01__20260121_223418_NOAA_21_JPSS-2_rec.log

#Pass ID: 20260121_223418_NOAA 21 (JPSS-2)
#Satellite: NOAA 21 (JPSS-2)
#Configuration: NOAA 21
#almurnet v.1.7.20240730
#Start time: 2026-01-21 22:34:18

#Version: 2.2.20231116
#Station: R2M6_AANII_01
#Location: 30.233357 lon 59.946436 lat
#TLE: 1 54234U 22150A   26020.93347024  .00000206  00000+0  11859-3 0  9994
#TLE: 2 54234  98.7506 321.7615 0000627 245.8100 114.3011 14.19536899165654

#Time	Az	El	Level	Level2	SNR	BER	BlckErr	Temp	State	Recorded	gain1	gain2
2026-01-21 22:34:18.92	31.81	7.03	-30.8	-36.1	4.6	1.38e+00	0	42	0	0	21	6631
2026-01-21 22:34:19.92	31.91	7.09	-32.0	-39.8	4.1	1.45e+00	0	42	104	0	23	8832
2026-01-21 22:34:20.92	32.02	7.15	-31.8	-38.0	6.0	3.98e-01	0	42	0	0	23	7401
2026-01-21 22:34:21.93	32.12	7.21	-32.0	-39.0	5.4	4.41e-01	0	42	0	3145728	23	8063
2026-01-21 22:34:22.93	32.23	7.27	-31.8	-38.2	5.9	3.75e-01	0	42	0	6291456	23	7475
2026-01-21 22:34:23.93	32.33	7.33	-31.6	-37.1	6.5	2.51e-01	0	42	0	9437184	23	6807
2026-01-21 22:34:24.94	32.44	7.39	-31.3	-35.9	7.4	1.33e-01	0	42	0	12582912	23	6122
2026-01-21 22:34:25.95	32.54	7.45	-31.0	-35.2	8.3	7.01e-02	0	42	0	15728640	22	5841
2026-01-21 22:34:26.95	32.65	7.51	-30.7	-34.4	8.9	3.64e-02	0	42	0	18874368	22	5483
2026-01-21 22:34:27.96	32.76	7.57	-30.5	-33.6	9.5	1.51e-02	0	42	0	22020096	22	5130
2026-01-21 22:34:28.95	32.86	7.63	-30.2	-33.3	10.1	7.95e-03	0	42	0	24117248	21	5112
2026-01-21 22:34:29.95	32.97	7.69	-30.0	-33.2	10.5	4.41e-03	0	42	0	27262976	20	5196
2026-01-21 22:34:30.96	33.08	7.75	-30.2	-33.8	10.0	5.51e-03	0	42	0	30408704	20	5445
2026-01-21 22:34:31.96	33.18	7.81	-30.1	-33.4	10.5	4.90e-03	0	42	0	33554432	20	5264
2026-01-21 22:34:32.96	33.29	7.87	-29.9	-32.9	10.9	2.90e-03	0	42	0	36700160	20	5056
2026-01-21 22:34:33.96	33.40	7.93	-29.9	-32.7	11.0	1.90e-03	0	42	0	39845888	20	4971
2026-01-21 22:34:34.96	33.51	7.99	-29.8	-32.9	11.3	1.20e-03	0	42	0	42991616	19	5146
2026-01-21 22:34:35.97	33.62	8.05	-29.8	-33.0	11.2	1.71e-03	0	42	0	46137344	19	5213
2026-01-21 22:34:36.97	33.73	8.11	-29.8	-32.9	11.3	1.33e-03	0	42	0	49283072	19	5142
2026-01-21 22:34:37.98	33.84	8.17	-30.0	-33.4	11.0	1.66e-03	0	42	0	52428800	19	5330
2026-01-21 22:34:38.98	33.95	8.23	-29.7	-32.6	11.5	1.09e-03	0	42	0	55574528	19	5048
2026-01-21 22:34:39.98	34.07	8.29	-29.5	-32.1	11.8	5.58e-04	0	42	0	58720256	19	4853
2026-01-21 22:34:40.98	34.18	8.35	-29.4	-31.8	12.0	3.45e-04	0	42	0	61865984	19	4759
2026-01-21 22:34:41.99	34.29	8.41	-29.3	-31.6	12.2	5.43e-04	0	43	0	65011712	19	4686
2026-01-21 22:34:42.99	34.40	8.47	-29.4	-31.8	12.1	2.45e-04	0	42	0	68157440	19	4749
2026-01-21 22:34:44.00	34.52	8.54	-29.5	-32.0	11.9	3.77e-04	0	42	0	71303168	19	4827
2026-01-21 22:34:45.00	34.63	8.60	-29.4	-31.9	12.0	3.59e-04	0	42	0	74448896	19	4797
2026-01-21 22:34:46.00	34.74	8.66	-29.5	-32.1	11.9	3.68e-04	0	43	0	77594624	19	4855
2026-01-21 22:34:47.00	34.86	8.72	-29.4	-31.8	12.1	3.11e-04	0	43	0	80740352	19	4755
2026-01-21 22:34:48.01	34.98	8.78	-29.4	-31.7	12.1	3.06e-04	0	43	0	83886080	19	4731
2026-01-21 22:34:49.01	35.09	8.84	-29.3	-31.7	12.1	2.53e-04	0	43	0	87031808	19	4716
2026-01-21 22:34:50.01	35.21	8.90	-29.4	-31.8	12.0	2.59e-04	0	43	0	90177536	19	4764
2026-01-21 22:34:51.02	35.32	8.96	-29.4	-31.8	12.1	2.51e-04	0	43	0	93323264	19	4759
2026-01-21 22:34:52.02	35.44	9.02	-29.4	-31.9	12.0	3.04e-04	0	43	0	96468992	19	4794
2026-01-21 22:34:53.02	35.56	9.08	-29.2	-31.3	12.4	1.63e-04	0	43	0	99614720	19	4605
2026-01-21 22:34:54.03	35.68	9.15	-29.2	-31.2	12.5	1.12e-04	0	43	0	102760448	19	4555
2026-01-21 22:34:55.03	35.80	9.21	-29.0	-30.8	12.7	8.54e-05	0	43	0	105906176	19	4446
2026-01-21 22:34:56.04	35.92	9.27	-29.1	-31.0	12.6	7.62e-05	0	43	0	109051904	19	4497
2026-01-21 22:34:57.04	36.03	9.33	-29.1	-31.1	12.6	9.91e-05	0	43	0	112197632	19	4525
2026-01-21 22:34:58.05	36.16	9.39	-29.1	-31.0	12.6	8.23e-05	0	43	0	115343360	19	4492
2026-01-21 22:34:59.05	36.28	9.45	-29.1	-31.1	12.6	8.39e-05	0	43	0	118489088	19	4511
2026-01-21 22:35:00.05	36.40	9.52	-29.2	-31.3	12.4	1.33e-04	0	43	0	121634816	19	4593
2026-01-21 22:35:01.06	36.52	9.58	-29.0	-30.8	12.8	8.16e-05	0	43	0	124780544	19	4423
2026-01-21 22:35:02.06	36.64	9.64	-28.9	-30.6	12.9	4.57e-05	0	43	0	127926272	19	4375
2026-01-21 22:35:03.06	36.76	9.70	-28.8	-30.4	13.0	2.36e-05	0	43	0	131072000	19	4313
2026-01-21 22:35:04.07	36.89	9.76	-28.9	-31.1	12.9	2.37e-04	0	43	0	134217728	18	4637
2026-01-21 22:35:05.07	37.01	9.82	-28.7	-30.6	13.2	2.82e-05	0	43	0	137363456	18	4478
2026-01-21 22:35:06.08	37.13	9.89	-28.7	-30.7	13.2	1.14e-05	0	43	0	140509184	18	4492
2026-01-21 22:35:07.08	37.26	9.95	-28.9	-31.0	13.0	3.43e-05	0	43	0	143654912	18	4595
2026-01-21 22:35:08.08	37.38	10.01	-28.8	-30.7	13.3	1.98e-05	0	43	0	146800640	18	4481
2026-01-21 22:35:09.09	37.51	10.07	-28.7	-30.4	13.4	1.06e-05	0	43	0	149946368	18	4416
2026-01-21 22:35:10.09	37.64	10.13	-28.7	-30.5	13.3	1.60e-05	0	43	0	153092096	18	4427
2026-01-21 22:35:11.09	37.76	10.20	-28.8	-30.9	13.1	3.50e-05	0	43	0	156237824	18	4557
2026-01-21 22:35:12.10	37.89	10.26	-28.9	-31.0	13.1	2.36e-05	0	43	0	159383552	18	4593
2026-01-21 22:35:13.10	38.02	10.32	-28.8	-30.9	13.1	3.35e-05	0	43	0	162529280	18	4544
2026-01-21 22:35:14.10	38.14	10.38	-28.8	-30.9	13.1	9.76e-05	0	43	0	165675008	18	4555
2026-01-21 22:35:15.11	38.27	10.45	-28.9	-31.0	13.0	4.04e-05	0	43	0	168820736	18	4610
2026-01-21 22:35:16.11	38.40	10.51	-28.8	-30.8	13.2	1.24e-04	0	43	0	171966464	18	4519
2026-01-21 22:35:17.11	38.53	10.57	-28.7	-30.6	13.3	9.07e-05	0	43	0	175112192	18	4478
2026-01-21 22:35:18.12	38.66	10.63	-28.7	-30.6	13.3	2.51e-05	0	43	0	178257920	18	4473
2026-01-21 22:35:19.12	38.79	10.69	-28.7	-30.5	13.4	1.49e-04	0	43	0	181403648	18	4435
2026-01-21 22:35:20.11	38.92	10.76	-28.8	-30.7	13.2	1.92e-04	0	43	0	184549376	18	4494
2026-01-21 22:35:21.12	39.06	10.82	-28.6	-30.4	13.5	1.60e-05	0	43	0	187695104	18	4401
2026-01-21 22:35:22.12	39.19	10.88	-28.7	-30.5	13.4	1.92e-04	0	43	0	190840832	18	4438
2026-01-21 22:35:23.12	39.32	10.94	-28.8	-30.7	13.3	1.41e-04	0	43	0	193986560	18	4493
2026-01-21 22:35:24.12	39.45	11.01	-28.7	-30.6	13.3	1.98e-05	0	43	0	197132288	18	4467
2026-01-21 22:35:25.12	39.59	11.07	-28.9	-30.9	13.2	4.50e-05	0	43	0	200278016	18	4567
2026-01-21 22:35:26.12	39.72	11.13	-29.0	-31.4	12.9	6.40e-05	0	43	0	203423744	18	4705
2026-01-21 22:35:27.12	39.86	11.19	-29.1	-31.6	12.8	7.32e-05	0	43	0	206569472	18	4768
2026-01-21 22:35:28.13	39.99	11.26	-29.0	-31.3	12.9	5.79e-05	0	43	0	209715200	18	4700
2026-01-21 22:35:29.13	40.13	11.32	-28.9	-31.1	13.0	9.23e-05	0	43	0	212860928	18	4633
2026-01-21 22:35:30.13	40.27	11.38	-29.0	-31.3	12.9	3.73e-05	0	43	0	216006656	18	4695
2026-01-21 22:35:31.14	40.40	11.44	-29.1	-31.5	12.8	2.04e-04	0	43	0	219152384	18	4748
2026-01-21 22:35:32.15	40.54	11.51	-28.9	-31.0	13.1	3.05e-05	0	43	0	222298112	18	4595
2026-01-21 22:35:33.15	40.68	11.57	-29.0	-31.4	12.9	3.58e-05	0	43	0	225443840	18	4698
2026-01-21 22:35:34.15	40.82	11.63	-28.8	-30.7	13.3	1.11e-04	0	43	0	228589568	18	4487
2026-01-21 22:35:35.15	40.96	11.69	-28.7	-30.5	13.4	6.48e-05	0	43	0	231735296	18	4429
2026-01-21 22:35:36.15	41.10	11.76	-28.7	-30.5	13.5	1.44e-05	0	43	0	234881024	18	4430
2026-01-21 22:35:37.15	41.24	11.82	-28.8	-30.7	13.4	1.52e-05	0	43	0	238026752	18	4492
2026-01-21 22:35:38.15	41.38	11.88	-28.8	-30.7	13.4	1.22e-05	0	43	0	241172480	18	4493
2026-01-21 22:35:39.15	41.52	11.94	-29.0	-31.2	13.1	3.43e-05	0	44	0	244318208	18	4639
2026-01-21 22:35:40.15	41.66	12.01	-28.8	-30.8	13.3	1.75e-05	0	43	0	247463936	18	4511
2026-01-21 22:35:41.15	41.81	12.07	-28.7	-30.5	13.5	1.06e-05	0	43	0	250609664	18	4434
2026-01-21 22:35:42.14	41.95	12.13	-28.7	-30.4	13.5	1.22e-05	0	44	0	253755392	18	4399
2026-01-21 22:35:43.15	42.09	12.19	-28.7	-30.6	13.5	1.14e-05	0	43	0	256901120	18	4443
2026-01-21 22:35:44.15	42.24	12.26	-28.6	-30.2	13.7	5.30e-06	0	44	0	260046848	18	4325
2026-01-21 22:35:45.16	42.39	12.32	-28.5	-30.1	13.8	5.30e-06	0	43	0	263192576	18	4300
2026-01-21 22:35:46.17	42.53	12.38	-28.6	-30.2	13.7	4.50e-06	0	43	0	266338304	18	4346
2026-01-21 22:35:47.17	42.68	12.45	-28.5	-30.0	13.8	2.20e-06	0	43	0	269484032	18	4269
2026-01-21 22:35:48.17	42.83	12.51	-28.5	-30.0	13.9	2.20e-06	0	43	0	272629760	18	4275
2026-01-21 22:35:49.17	42.97	12.57	-28.6	-30.1	13.8	5.30e-06	0	43	0	275775488	18	4306
2026-01-21 22:35:50.17	43.12	12.63	-28.6	-30.3	13.7	3.80e-06	0	43	0	278921216	18	4351
2026-01-21 22:35:51.18	43.27	12.70	-28.6	-30.1	13.8	2.20e-06	0	43	0	282066944	18	4314
2026-01-21 22:35:52.18	43.42	12.76	-28.5	-30.1	13.8	2.20e-06	0	43	0	285212672	18	4296
2026-01-21 22:35:53.19	43.57	12.82	-28.6	-30.7	13.7	9.10e-06	0	43	0	288358400	17	4581
2026-01-21 22:35:54.19	43.72	12.88	-28.5	-30.4	13.9	8.30e-06	0	43	0	291504128	17	4497
2026-01-21 22:35:55.20	43.88	12.95	-28.5	-30.4	13.9	2.20e-06	0	43	0	294649856	17	4488
2026-01-21 22:35:56.21	44.03	13.01	-28.5	-30.4	13.9	4.50e-06	0	43	0	297795584	17	4501
2026-01-21 22:35:57.21	44.18	13.07	-28.4	-30.3	14.0	2.20e-06	0	43	0	300941312	17	4455
2026-01-21 22:35:58.21	44.34	13.13	-28.4	-30.2	14.0	4.50e-06	0	44	0	303038464	17	4452
2026-01-21 22:35:59.21	44.49	13.20	-28.4	-30.2	14.0	2.20e-06	0	44	0	306184192	17	4442
2026-01-21 22:36:00.21	44.64	13.26	-28.5	-30.4	13.9	4.50e-06	0	44	0	309329920	17	4490
2026-01-21 22:36:01.22	44.80	13.32	-28.6	-30.7	13.8	3.00e-06	0	43	0	312475648	17	4592
2026-01-21 22:36:02.22	44.96	13.38	-28.4	-30.3	14.0	5.30e-06	0	44	0	316669952	17	4478
2026-01-21 22:36:03.23	45.11	13.45	-28.4	-30.2	14.1	1.50e-06	0	43	0	319815680	17	4436
2026-01-21 22:36:04.24	45.27	13.51	-28.4	-30.2	14.0	0.00e+00	0	44	0	322961408	17	4438
2026-01-21 22:36:05.24	45.43	13.57	-28.4	-30.2	14.1	1.50e-06	0	44	0	325058560	17	4442
2026-01-21 22:36:06.23	45.59	13.63	-28.4	-30.2	14.0	2.20e-06	0	44	0	328204288	17	4445
2026-01-21 22:36:07.23	45.75	13.70	-28.5	-30.4	14.0	4.50e-06	0	44	0	331350016	17	4481
2026-01-21 22:36:08.23	45.90	13.76	-28.5	-30.5	13.9	5.30e-06	0	44	0	334495744	17	4517
2026-01-21 22:36:09.24	46.07	13.82	-28.5	-30.3	14.0	1.50e-06	0	44	0	337641472	17	4464
2026-01-21 22:36:10.25	46.23	13.88	-28.4	-30.3	14.1	2.20e-06	0	44	0	340787200	17	4445
2026-01-21 22:36:11.25	46.39	13.94	-28.5	-30.4	14.0	3.80e-06	0	44	0	343932928	17	4488
2026-01-21 22:36:12.25	46.55	14.01	-28.6	-30.6	13.9	3.00e-06	0	44	0	347078656	17	4556
2026-01-21 22:36:13.25	46.72	14.07	-28.6	-30.7	13.8	4.50e-06	0	44	0	350224384	17	4567
2026-01-21 22:36:14.27	46.88	14.13	-28.6	-30.6	13.9	5.30e-06	0	44	0	353370112	17	4553
2026-01-21 22:36:15.27	47.05	14.19	-28.7	-30.8	13.8	5.30e-06	0	44	0	356515840	17	4617
2026-01-21 22:36:16.27	47.21	14.25	-28.6	-30.6	13.9	6.10e-06	0	44	0	359661568	17	4558
2026-01-21 22:36:17.27	47.38	14.32	-28.7	-30.9	13.7	6.80e-06	0	44	0	362807296	17	4636
2026-01-21 22:36:18.27	47.54	14.38	-28.7	-30.9	13.7	7.60e-06	0	44	0	365953024	17	4654
2026-01-21 22:36:19.28	47.71	14.44	-28.7	-30.9	13.7	4.50e-06	0	44	0	369098752	17	4627
2026-01-21 22:36:20.28	47.88	14.50	-28.7	-31.0	13.6	1.83e-05	0	44	0	372244480	17	4688
2026-01-21 22:36:21.28	48.05	14.56	-28.5	-30.5	13.9	4.50e-06	0	44	0	375390208	17	4531
2026-01-21 22:36:22.29	48.22	14.62	-28.3	-30.1	14.2	0.00e+00	0	44	0	378535936	17	4385
2026-01-21 22:36:23.28	48.38	14.69	-28.3	-29.9	14.3	7.00e-07	0	44	0	381681664	17	4339
2026-01-21 22:36:24.29	48.56	14.75	-28.3	-30.0	14.3	1.50e-06	0	44	0	384827392	17	4374
2026-01-21 22:36:25.28	48.73	14.81	-28.3	-29.9	14.3	7.00e-07	0	44	0	387973120	17	4331
2026-01-21 22:36:26.29	48.90	14.87	-28.3	-30.0	14.3	7.00e-07	0	44	0	391118848	17	4353
2026-01-21 22:36:27.29	49.07	14.93	-28.4	-30.1	14.2	0.00e+00	0	44	0	394264576	17	4395
2026-01-21 22:36:28.29	49.24	14.99	-28.4	-30.2	14.2	3.80e-06	0	44	0	397410304	17	4426
2026-01-21 22:36:29.30	49.42	15.05	-28.3	-30.0	14.3	7.00e-07	0	44	0	400556032	17	4373
2026-01-21 22:36:30.30	49.59	15.11	-28.4	-30.2	14.2	1.50e-06	0	44	0	403701760	17	4429
2026-01-21 22:36:31.30	49.77	15.17	-28.4	-30.3	14.1	2.20e-06	0	44	0	406847488	17	4450
2026-01-21 22:36:32.30	49.94	15.23	-28.5	-30.4	14.1	4.50e-06	0	44	0	409993216	17	4488
2026-01-21 22:36:33.30	50.12	15.29	-28.5	-30.4	14.1	2.20e-06	0	44	0	413138944	17	4477
2026-01-21 22:36:34.31	50.30	15.35	-28.5	-30.5	14.0	2.20e-06	0	44	0	416284672	17	4511
2026-01-21 22:36:35.33	50.48	15.42	-28.5	-30.5	14.0	3.00e-06	0	44	0	419430400	17	4513
2026-01-21 22:36:36.33	50.66	15.48	-28.4	-30.3	14.1	3.00e-06	0	44	0	422576128	17	4460
2026-01-21 22:36:37.33	50.84	15.54	-28.0	-29.8	14.2	5.30e-06	0	44	0	425721856	17	4397
2026-01-21 22:36:38.34	51.02	15.60	-28.4	-30.7	14.2	0.00e+00	0	44	0	428867584	16	4677
2026-01-21 22:36:39.35	51.20	15.66	-28.4	-30.7	13.2	1.50e-06	0	44	0	432013312	16	4685
2026-01-21 22:36:40.35	51.38	15.72	-28.5	-30.9	13.6	1.50e-06	0	44	0	435159040	16	4753
2026-01-21 22:36:41.35	51.57	15.77	-28.7	-30.8	13.9	6.80e-06	0	44	0	438304768	17	4605
2026-01-21 22:36:42.35	51.75	15.83	-28.7	-30.8	13.8	6.37e-04	0	44	0	441450496	17	4619
2026-01-21 22:36:43.35	51.93	15.89	-28.4	-30.2	14.2	3.80e-06	0	44	0	444596224	17	4435
2026-01-21 22:36:44.35	52.12	15.95	-28.3	-29.8	14.4	7.00e-07	0	44	0	447741952	17	4314
2026-01-21 22:36:45.35	52.30	16.01	-28.2	-29.6	14.6	0.00e+00	0	44	0	450887680	17	4243
2026-01-21 22:36:46.35	52.49	16.07	-28.1	-30.0	14.6	7.00e-07	0	44	0	454033408	16	4483
2026-01-21 22:36:47.36	52.68	16.13	-28.1	-30.0	14.6	1.50e-06	0	44	0	457179136	16	4482
2026-01-21 22:36:48.36	52.86	16.19	-28.1	-29.9	14.7	0.00e+00	0	44	0	460324864	16	4453
2026-01-21 22:36:49.36	53.05	16.25	-28.2	-30.2	14.5	0.00e+00	0	44	0	463470592	16	4544
2026-01-21 22:36:50.36	53.24	16.30	-28.3	-30.4	14.4	0.00e+00	0	44	0	466616320	16	4603
2026-01-21 22:36:51.37	53.43	16.36	-28.3	-30.4	14.4	7.00e-07	0	44	0	469762048	16	4590
2026-01-21 22:36:52.37	53.62	16.42	-28.3	-30.5	14.3	5.89e-04	0	44	0	472907776	16	4628
2026-01-21 22:36:53.37	53.81	16.48	-28.4	-30.6	14.3	2.20e-06	0	44	0	476053504	16	4669
2026-01-21 22:36:54.38	54.00	16.54	-28.4	-30.6	14.3	7.04e-04	0	44	0	479199232	16	4661
2026-01-21 22:36:55.38	54.20	16.59	-28.4	-30.6	14.3	1.50e-06	0	44	0	482344960	16	4661
2026-01-21 22:36:56.38	54.39	16.65	-28.3	-30.4	14.4	7.00e-07	0	44	0	485490688	16	4576
2026-01-21 22:36:57.38	54.58	16.71	-28.2	-30.1	14.6	7.87e-04	0	44	0	488636416	16	4508
2026-01-21 22:36:58.39	54.78	16.77	-28.2	-30.2	14.6	7.85e-04	0	44	0	491782144	16	4517
2026-01-21 22:36:59.39	54.97	16.82	-28.3	-30.3	14.5	7.00e-07	0	44	0	494927872	16	4561
2026-01-21 22:37:00.39	55.17	16.88	-28.4	-30.6	14.3	7.00e-07	0	44	0	498073600	16	4639
2026-01-21 22:37:01.40	55.37	16.94	-28.4	-30.6	14.3	0.00e+00	0	44	0	501219328	16	4651
2026-01-21 22:37:02.41	55.57	16.99	-28.5	-30.3	14.2	3.80e-06	0	44	0	504365056	17	4445
2026-01-21 22:37:03.40	55.76	17.05	-28.4	-30.0	14.3	2.30e-04	0	44	0	507510784	17	4369
2026-01-21 22:37:04.40	55.96	17.10	-28.4	-30.1	14.3	2.84e-04	0	44	0	510656512	17	4396
2026-01-21 22:37:05.40	56.16	17.16	-28.5	-30.3	14.2	3.00e-06	0	44	0	513802240	17	4460
2026-01-21 22:37:06.41	56.36	17.21	-28.4	-30.2	14.2	6.89e-04	0	44	0	516947968	17	4430
2026-01-21 22:37:07.41	56.56	17.27	-28.3	-29.8	14.5	8.29e-04	0	44	0	520093696	17	4309
2026-01-21 22:37:08.42	56.76	17.32	-28.2	-29.7	14.6	2.20e-06	0	44	0	523239424	17	4282
2026-01-21 22:37:09.41	56.96	17.38	-28.1	-30.1	14.6	1.43e-03	0	44	0	526385152	16	4488
2026-01-21 22:37:10.41	57.17	17.43	-28.1	-30.0	14.7	9.06e-04	0	44	0	529530880	16	4463
2026-01-21 22:37:11.41	57.37	17.49	-28.1	-29.9	14.8	0.00e+00	0	44	0	532676608	16	4430
2026-01-21 22:37:12.41	57.58	17.54	-28.1	-29.8	14.8	6.65e-04	0	44	0	535822336	16	4419
2026-01-21 22:37:13.41	57.78	17.60	-28.0	-29.7	14.9	5.81e-04	0	44	0	538968064	16	4375
2026-01-21 22:37:14.42	57.99	17.65	-27.9	-29.4	15.1	0.00e+00	0	44	0	542113792	16	4287
2026-01-21 22:37:15.42	58.19	17.70	-27.9	-29.5	15.0	1.73e-04	0	44	0	545259520	16	4314
2026-01-21 22:37:16.42	58.40	17.76	-28.0	-29.7	14.9	2.59e-04	0	44	0	548405248	16	4368
2026-01-21 22:37:17.42	58.61	17.81	-27.9	-29.4	15.0	7.00e-07	0	44	0	551550976	16	4302
2026-01-21 22:37:18.42	58.82	17.86	-27.8	-29.7	15.0	5.20e-04	0	44	0	554696704	15	4503
2026-01-21 22:37:19.41	59.02	17.91	-27.8	-29.8	14.9	6.49e-04	0	44	0	556793856	15	4547
2026-01-21 22:37:20.41	59.23	17.97	-27.9	-30.0	14.8	7.00e-07	0	44	0	559939584	15	4583
2026-01-21 22:37:21.42	59.45	18.02	-27.9	-30.0	14.9	0.00e+00	0	44	0	563085312	15	4579
2026-01-21 22:37:22.42	59.66	18.07	-27.8	-29.7	15.0	4.55e-04	0	44	0	566231040	15	4502
2026-01-21 22:37:23.42	59.87	18.12	-27.6	-29.4	15.1	0.00e+00	0	44	0	569376768	15	4424
2026-01-21 22:37:24.41	60.08	18.17	-27.7	-29.5	15.1	2.49e-04	0	44	0	572522496	15	4438
2026-01-21 22:37:25.42	60.30	18.22	-27.6	-29.4	15.2	1.75e-04	0	44	0	576716800	15	4407
2026-01-21 22:37:26.42	60.51	18.27	-27.6	-29.3	15.2	0.00e+00	0	44	0	578813952	15	4379
2026-01-21 22:37:27.42	60.73	18.32	-27.6	-29.4	15.2	5.41e-05	0	44	0	581959680	15	4403
2026-01-21 22:37:28.43	60.94	18.37	-27.6	-29.2	15.2	3.43e-05	0	44	0	585105408	15	4363
2026-01-21 22:37:29.43	61.16	18.42	-27.6	-29.3	15.2	0.00e+00	0	44	0	588251136	15	4388
2026-01-21 22:37:30.42	61.37	18.47	-27.6	-29.4	15.2	0.00e+00	0	44	0	591396864	15	4419
2026-01-21 22:37:31.43	61.59	18.52	-27.6	-29.4	15.2	0.00e+00	0	44	0	594542592	15	4412
2026-01-21 22:37:32.43	61.81	18.57	-27.6	-29.4	15.1	0.00e+00	0	44	0	597688320	15	4429
2026-01-21 22:37:33.43	62.03	18.62	-27.6	-29.4	15.2	0.00e+00	0	44	0	600834048	15	4400
2026-01-21 22:37:34.43	62.25	18.67	-27.6	-29.4	15.2	2.66e-04	0	44	0	603979776	15	4410
2026-01-21 22:37:35.42	62.47	18.71	-27.5	-29.1	15.3	0.00e+00	0	44	0	607125504	15	4326
2026-01-21 22:37:36.42	62.69	18.76	-27.5	-29.0	15.4	0.00e+00	0	44	0	610271232	15	4305
2026-01-21 22:37:37.43	62.91	18.81	-27.5	-29.1	15.4	0.00e+00	0	44	0	613416960	15	4316
2026-01-21 22:37:38.43	63.14	18.86	-27.5	-29.1	15.4	0.00e+00	0	44	0	616562688	15	4315
2026-01-21 22:37:39.44	63.36	18.90	-27.4	-29.0	15.4	8.74e-04	0	44	0	619708416	15	4293
2026-01-21 22:37:40.45	63.59	18.95	-27.5	-29.0	15.4	0.00e+00	0	44	0	622854144	15	4310
2026-01-21 22:37:41.45	63.81	18.99	-27.4	-28.9	15.5	0.00e+00	0	44	0	625999872	15	4264
2026-01-21 22:37:42.46	64.04	19.04	-27.3	-28.7	15.5	0.00e+00	0	44	0	629145600	15	4223
2026-01-21 22:37:43.46	64.27	19.09	-27.4	-29.3	15.5	0.00e+00	0	44	0	632291328	14	4505
2026-01-21 22:37:44.47	64.49	19.13	-27.3	-29.2	15.6	0.00e+00	0	44	0	635437056	14	4473
2026-01-21 22:37:45.47	64.72	19.17	-27.3	-29.1	15.6	0.00e+00	0	44	0	638582784	14	4449
2026-01-21 22:37:46.46	64.95	19.22	-27.3	-29.2	15.6	0.00e+00	0	44	0	641728512	14	4476
2026-01-21 22:37:47.45	65.17	19.26	-27.3	-29.2	15.6	0.00e+00	0	44	0	644874240	14	4463
2026-01-21 22:37:48.45	65.40	19.30	-27.3	-29.1	15.6	0.00e+00	0	44	0	648019968	14	4444
2026-01-21 22:37:49.46	65.63	19.35	-27.3	-29.2	15.6	0.00e+00	0	44	0	651165696	14	4460
2026-01-21 22:37:50.45	65.86	19.39	-27.3	-29.2	15.6	0.00e+00	0	44	0	654311424	14	4456
2026-01-21 22:37:51.45	66.09	19.43	-27.3	-29.2	15.6	0.00e+00	0	44	0	657457152	14	4460
2026-01-21 22:37:52.46	66.33	19.47	-27.3	-29.1	15.7	0.00e+00	0	44	0	660602880	14	4423
2026-01-21 22:37:53.46	66.56	19.52	-27.3	-29.0	15.7	0.00e+00	0	44	0	663748608	14	4423
2026-01-21 22:37:54.46	66.79	19.56	-27.3	-29.2	15.6	0.00e+00	0	44	0	666894336	14	4458
2026-01-21 22:37:55.47	67.03	19.60	-27.3	-29.1	15.6	0.00e+00	0	44	0	670040064	14	4449
2026-01-21 22:37:56.47	67.26	19.64	-27.1	-28.7	15.9	0.00e+00	0	44	0	673185792	14	4330
2026-01-21 22:37:57.48	67.50	19.68	-27.1	-28.7	15.9	0.00e+00	0	44	0	676331520	14	4316
2026-01-21 22:37:58.48	67.73	19.72	-27.1	-28.8	15.8	0.00e+00	0	44	0	679477248	14	4345
2026-01-21 22:37:59.49	67.97	19.76	-27.2	-28.9	15.8	0.00e+00	0	44	0	682622976	14	4377
2026-01-21 22:38:00.49	68.21	19.80	-27.3	-29.2	15.6	0.00e+00	0	44	0	685768704	14	4459
2026-01-21 22:38:01.50	68.45	19.83	-27.3	-29.2	15.6	0.00e+00	0	44	0	688914432	14	4481
2026-01-21 22:38:02.50	68.68	19.87	-27.4	-29.3	15.6	0.00e+00	0	44	0	692060160	14	4492
2026-01-21 22:38:03.50	68.92	19.91	-27.4	-29.3	15.6	0.00e+00	0	44	0	695205888	14	4483
2026-01-21 22:38:04.51	69.16	19.95	-27.4	-29.3	15.5	0.00e+00	0	44	0	698351616	14	4493
2026-01-21 22:38:05.51	69.40	19.98	-27.2	-28.8	15.8	0.00e+00	0	44	0	701497344	14	4364
2026-01-21 22:38:06.50	69.64	20.02	-27.1	-28.7	15.9	0.00e+00	0	44	0	704643072	14	4315
2026-01-21 22:38:07.51	69.88	20.05	-27.1	-28.7	15.9	7.00e-07	0	44	0	707788800	14	4318
2026-01-21 22:38:08.52	70.13	20.09	-27.1	-28.8	15.8	0.00e+00	0	44	0	710934528	14	4362
2026-01-21 22:38:09.52	70.37	20.12	-27.2	-28.9	15.8	0.00e+00	0	44	0	714080256	14	4386
2026-01-21 22:38:10.52	70.61	20.16	-27.3	-29.2	15.6	0.00e+00	0	44	0	717225984	14	4453
2026-01-21 22:38:11.53	70.85	20.19	-27.3	-29.2	15.6	0.00e+00	0	44	0	720371712	14	4461
2026-01-21 22:38:12.53	71.10	20.23	-27.2	-28.9	15.8	0.00e+00	0	44	0	723517440	14	4395
2026-01-21 22:38:13.53	71.34	20.26	-27.3	-29.0	15.7	0.00e+00	0	44	0	726663168	14	4422
2026-01-21 22:38:14.53	71.59	20.29	-27.2	-29.0	15.7	0.00e+00	0	44	0	729808896	14	4417
2026-01-21 22:38:15.54	71.83	20.32	-27.3	-29.1	15.7	0.00e+00	0	44	0	732954624	14	4444
2026-01-21 22:38:16.54	72.08	20.35	-27.4	-29.3	15.5	0.00e+00	0	44	0	736100352	14	4503
2026-01-21 22:38:17.55	72.33	20.38	-27.4	-29.4	15.5	0.00e+00	0	44	0	739246080	14	4514
2026-01-21 22:38:18.56	72.57	20.42	-27.4	-29.4	15.5	0.00e+00	0	44	0	742391808	14	4534
2026-01-21 22:38:19.56	72.82	20.45	-27.4	-29.4	15.5	0.00e+00	0	44	0	745537536	14	4532
2026-01-21 22:38:20.56	73.07	20.47	-27.3	-29.2	15.6	0.00e+00	0	44	0	748683264	14	4482
2026-01-21 22:38:21.57	73.32	20.50	-27.3	-29.2	15.7	0.00e+00	0	44	0	751828992	14	4455
2026-01-21 22:38:22.57	73.57	20.53	-27.3	-29.2	15.6	0.00e+00	0	44	0	754974720	14	4479
2026-01-21 22:38:23.58	73.82	20.56	-27.3	-29.0	15.7	0.00e+00	0	44	0	758120448	14	4419
2026-01-21 22:38:24.58	74.07	20.59	-27.2	-28.9	15.8	0.00e+00	0	44	0	761266176	14	4382
2026-01-21 22:38:25.57	74.31	20.61	-27.2	-29.0	15.8	0.00e+00	0	44	0	764411904	14	4399
2026-01-21 22:38:26.58	74.56	20.64	-27.3	-29.1	15.7	0.00e+00	0	44	0	767557632	14	4439
2026-01-21 22:38:27.58	74.81	20.67	-27.3	-29.1	15.7	7.00e-07	0	44	0	770703360	14	4437
2026-01-21 22:38:28.59	75.07	20.69	-27.4	-29.4	15.5	7.00e-07	0	44	0	773849088	14	4531
2026-01-21 22:38:29.60	75.32	20.72	-27.3	-29.2	15.6	0.00e+00	0	44	0	776994816	14	4474
2026-01-21 22:38:30.60	75.57	20.74	-27.2	-28.9	15.8	0.00e+00	0	44	0	780140544	14	4390
2026-01-21 22:38:31.59	75.82	20.77	-27.2	-28.9	15.8	0.00e+00	0	44	0	783286272	14	4390
2026-01-21 22:38:32.60	76.08	20.79	-27.2	-28.9	15.8	0.00e+00	0	44	0	786432000	14	4367
2026-01-21 22:38:33.60	76.33	20.81	-27.2	-28.9	15.8	0.00e+00	0	44	0	789577728	14	4380
2026-01-21 22:38:34.60	76.58	20.83	-27.2	-28.9	15.8	0.00e+00	0	44	0	792723456	14	4371
2026-01-21 22:38:35.60	76.83	20.85	-27.2	-29.0	15.8	0.00e+00	0	44	0	795869184	14	4408
2026-01-21 22:38:36.60	77.09	20.88	-27.2	-29.0	15.8	0.00e+00	0	44	0	799014912	14	4408
2026-01-21 22:38:37.61	77.34	20.90	-27.3	-29.0	15.8	0.00e+00	0	44	0	802160640	14	4418
2026-01-21 22:38:38.61	77.60	20.92	-27.3	-29.1	15.6	0.00e+00	0	44	0	805306368	14	4446
2026-01-21 22:38:39.61	77.85	20.94	-27.3	-29.1	15.7	0.00e+00	0	44	0	807403520	14	4444
2026-01-21 22:38:40.61	78.11	20.96	-27.2	-29.0	15.8	0.00e+00	0	44	0	810549248	14	4409
2026-01-21 22:38:41.60	78.36	20.97	-27.2	-29.0	15.8	7.60e-06	0	44	0	813694976	14	4400
2026-01-21 22:38:42.61	78.62	20.99	-27.3	-29.0	15.7	0.00e+00	0	44	0	816840704	14	4418
2026-01-21 22:38:43.61	78.87	21.01	-27.2	-29.0	15.8	0.00e+00	0	44	0	819986432	14	4400
2026-01-21 22:38:44.62	79.13	21.03	-27.2	-28.9	15.8	0.00e+00	0	44	0	824180736	14	4372
2026-01-21 22:38:45.62	79.39	21.04	-27.2	-29.0	15.7	0.00e+00	0	44	0	827326464	14	4416
2026-01-21 22:38:46.63	79.65	21.06	-27.3	-29.2	15.7	0.00e+00	0	44	0	830472192	14	4454
2026-01-21 22:38:47.63	79.91	21.07	-27.3	-29.2	15.7	2.12e-04	0	44	0	832569344	14	4460
2026-01-21 22:38:48.64	80.17	21.09	-27.3	-29.1	15.7	0.00e+00	0	44	0	835715072	14	4433
2026-01-21 22:38:49.65	80.43	21.10	-27.3	-29.1	15.7	0.00e+00	0	44	0	838860800	14	4430
2026-01-21 22:38:50.64	80.68	21.11	-27.3	-29.1	15.7	0.00e+00	0	44	0	842006528	14	4438
2026-01-21 22:38:51.64	80.94	21.13	-27.3	-29.2	15.7	3.04e-04	0	44	0	845152256	14	4466
2026-01-21 22:38:52.64	81.20	21.14	-27.3	-29.1	15.7	0.00e+00	0	44	0	848297984	14	4444
2026-01-21 22:38:53.65	81.46	21.15	-27.3	-29.2	15.7	0.00e+00	0	44	0	851443712	14	4460
2026-01-21 22:38:54.66	81.72	21.16	-27.3	-29.2	15.6	0.00e+00	0	44	0	854589440	14	4473
2026-01-21 22:38:55.66	81.98	21.17	-27.4	-29.5	15.5	0.00e+00	0	44	0	857735168	14	4548
2026-01-21 22:38:56.66	82.24	21.18	-27.8	-29.7	15.1	2.82e-04	0	44	0	860880896	15	4512
2026-01-21 22:38:57.65	82.49	21.19	-27.7	-29.5	15.2	1.95e-04	0	44	0	864026624	15	4439
2026-01-21 22:38:58.66	82.75	21.20	-27.4	-28.8	15.6	0.00e+00	0	44	0	867172352	15	4250
2026-01-21 22:38:59.66	83.01	21.21	-27.2	-28.4	15.8	0.00e+00	0	44	0	870318080	15	4140
2026-01-21 22:39:00.67	83.27	21.21	-27.1	-28.2	15.9	7.00e-07	0	44	0	873463808	15	4073
2026-01-21 22:39:01.67	83.53	21.22	-27.1	-28.2	15.9	0.00e+00	0	44	0	876609536	15	4093
2026-01-21 22:39:02.67	83.79	21.23	-27.0	-28.0	16.0	1.90e-05	0	44	0	879755264	15	4032
2026-01-21 22:39:03.67	84.05	21.23	-27.1	-28.2	15.9	2.97e-05	0	44	0	882900992	15	4087
2026-01-21 22:39:04.68	84.32	21.24	-27.1	-28.2	15.9	0.00e+00	0	44	0	886046720	15	4090
2026-01-21 22:39:05.69	84.58	21.24	-27.2	-28.4	15.8	2.51e-05	0	44	0	889192448	15	4142
2026-01-21 22:39:06.69	84.84	21.25	-27.1	-28.3	15.9	7.00e-07	0	44	0	892338176	15	4101
2026-01-21 22:39:07.69	85.10	21.25	-27.1	-28.2	15.9	0.00e+00	0	44	0	895483904	15	4084
2026-01-21 22:39:08.69	85.36	21.25	-27.1	-28.3	15.9	0.00e+00	0	44	0	898629632	15	4094
2026-01-21 22:39:09.69	85.62	21.26	-27.2	-28.4	15.8	0.00e+00	0	44	0	901775360	15	4121
2026-01-21 22:39:10.69	85.88	21.26	-27.2	-28.5	15.8	0.00e+00	0	44	0	904921088	15	4163
2026-01-21 22:39:11.70	86.14	21.26	-27.3	-28.6	15.8	0.00e+00	0	44	0	908066816	15	4178
2026-01-21 22:39:12.70	86.40	21.26	-27.3	-28.7	15.7	1.29e-05	0	44	0	911212544	15	4212
2026-01-21 22:39:13.70	86.66	21.26	-27.2	-28.5	15.8	0.00e+00	0	44	0	914358272	15	4161
2026-01-21 22:39:14.71	86.92	21.26	-27.3	-28.6	15.7	0.00e+00	0	44	0	917504000	15	4177
2026-01-21 22:39:15.71	87.18	21.26	-27.3	-28.5	15.8	0.00e+00	0	44	0	920649728	15	4166
2026-01-21 22:39:16.71	87.44	21.25	-27.4	-28.9	15.6	0.00e+00	0	44	0	923795456	15	4258
2026-01-21 22:39:17.72	87.71	21.25	-27.4	-28.7	15.6	4.73e-05	0	44	0	926941184	15	4226
2026-01-21 22:39:18.72	87.97	21.25	-27.3	-28.7	15.7	4.73e-05	0	44	0	930086912	15	4205
2026-01-21 22:39:19.73	88.23	21.24	-27.4	-28.8	15.6	0.00e+00	0	44	0	933232640	15	4252
2026-01-21 22:39:20.74	88.49	21.24	-27.4	-28.8	15.6	0.00e+00	0	44	0	936378368	15	4246
2026-01-21 22:39:21.74	88.75	21.24	-27.5	-29.0	15.5	0.00e+00	0	44	0	939524096	15	4298
2026-01-21 22:39:22.74	89.01	21.23	-27.2	-28.5	15.8	0.00e+00	0	44	0	942669824	15	4149
2026-01-21 22:39:23.74	89.27	21.22	-27.0	-28.1	16.0	2.06e-04	0	44	0	945815552	15	4044
2026-01-21 22:39:24.74	89.53	21.22	-27.0	-28.0	16.1	0.00e+00	0	44	0	948961280	15	4022
2026-01-21 22:39:25.74	89.79	21.21	-27.1	-28.2	15.9	0.00e+00	0	44	0	952107008	15	4090
2026-01-21 22:39:26.75	90.05	21.20	-27.1	-28.2	15.9	0.00e+00	0	44	0	955252736	15	4083
2026-01-21 22:39:27.75	90.31	21.19	-27.2	-28.3	15.9	0.00e+00	0	44	0	958398464	15	4118
2026-01-21 22:39:28.76	90.57	21.18	-27.2	-28.5	15.8	0.00e+00	0	44	0	961544192	15	4164
2026-01-21 22:39:29.76	90.83	21.17	-27.2	-28.4	15.8	0.00e+00	0	44	0	964689920	15	4149
2026-01-21 22:39:30.77	91.10	21.16	-27.2	-28.4	15.8	0.00e+00	0	44	0	967835648	15	4137
2026-01-21 22:39:31.76	91.35	21.15	-27.1	-28.3	15.9	0.00e+00	0	44	0	970981376	15	4099
2026-01-21 22:39:32.77	91.61	21.14	-27.2	-28.3	15.9	0.00e+00	0	44	0	974127104	15	4121
2026-01-21 22:39:33.76	91.87	21.13	-27.4	-28.8	15.6	0.00e+00	0	44	0	977272832	15	4235
2026-01-21 22:39:34.76	92.13	21.12	-27.4	-28.9	15.6	0.00e+00	0	44	0	980418560	15	4262
2026-01-21 22:39:35.77	92.39	21.10	-27.4	-28.9	15.6	0.00e+00	0	44	0	983564288	15	4262
2026-01-21 22:39:36.77	92.64	21.09	-27.4	-28.9	15.5	7.00e-07	0	44	0	986710016	15	4259
2026-01-21 22:39:37.78	92.90	21.08	-27.5	-29.1	15.5	0.00e+00	0	44	0	989855744	15	4317
2026-01-21 22:39:38.78	93.16	21.06	-27.4	-28.9	15.5	0.00e+00	0	44	0	993001472	15	4258
2026-01-21 22:39:39.79	93.42	21.05	-27.4	-28.8	15.6	0.00e+00	0	44	0	996147200	15	4255
2026-01-21 22:39:40.79	93.68	21.03	-27.5	-29.2	15.4	0.00e+00	0	44	0	999292928	15	4343
2026-01-21 22:39:41.80	93.94	21.01	-27.4	-28.9	15.5	7.00e-07	0	44	0	1002438656	15	4267
2026-01-21 22:39:42.80	94.19	21.00	-27.3	-28.6	15.7	0.00e+00	0	44	0	1005584384	15	4179
2026-01-21 22:39:43.80	94.45	20.98	-27.2	-28.4	15.8	0.00e+00	0	44	0	1008730112	15	4139
2026-01-21 22:39:44.80	94.71	20.96	-27.3	-28.6	15.7	0.00e+00	0	44	0	1011875840	15	4185
2026-01-21 22:39:45.81	94.96	20.94	-27.2	-28.4	15.8	0.00e+00	0	44	0	1015021568	15	4126
2026-01-21 22:39:46.81	95.22	20.92	-27.2	-28.4	15.8	0.00e+00	0	44	0	1018167296	15	4137
2026-01-21 22:39:47.81	95.47	20.90	-27.3	-28.5	15.7	0.00e+00	0	44	0	1021313024	15	4178
2026-01-21 22:39:48.81	95.73	20.88	-27.2	-28.4	15.8	0.00e+00	0	44	0	1024458752	15	4129
2026-01-21 22:39:49.81	95.98	20.86	-27.1	-28.3	15.9	0.00e+00	0	44	0	1027604480	15	4101
2026-01-21 22:39:50.81	96.24	20.84	-27.1	-28.3	15.9	0.00e+00	0	44	0	1030750208	15	4103
2026-01-21 22:39:51.81	96.49	20.82	-27.0	-28.1	16.0	0.00e+00	0	44	0	1033895936	15	4046
2026-01-21 22:39:52.82	96.74	20.79	-27.0	-28.0	16.0	0.00e+00	0	44	0	1037041664	15	4035
2026-01-21 22:39:53.82	97.00	20.77	-27.1	-28.2	15.9	0.00e+00	0	44	0	1040187392	15	4077
2026-01-21 22:39:54.83	97.25	20.75	-27.1	-28.2	16.0	0.00e+00	0	44	0	1043333120	15	4068
2026-01-21 22:39:55.84	97.51	20.72	-27.0	-28.1	16.0	0.00e+00	0	44	0	1046478848	15	4058
2026-01-21 22:39:56.85	97.76	20.70	-27.1	-28.3	15.9	0.00e+00	0	44	0	1049624576	15	4100
2026-01-21 22:39:57.85	98.01	20.67	-27.0	-28.0	16.0	0.00e+00	0	44	0	1052770304	15	4044
2026-01-21 22:39:58.85	98.26	20.65	-27.0	-28.0	16.0	0.00e+00	0	44	0	1055916032	15	4027
2026-01-21 22:39:59.86	98.52	20.62	-27.0	-28.0	16.0	0.00e+00	0	44	0	1059061760	15	4044
2026-01-21 22:40:00.86	98.77	20.59	-27.2	-28.5	15.7	0.00e+00	0	44	0	1062207488	15	4161
2026-01-21 22:40:01.87	99.02	20.56	-27.4	-28.8	15.6	0.00e+00	0	44	0	1065353216	15	4235
2026-01-21 22:40:02.87	99.27	20.54	-27.3	-28.7	15.6	7.00e-07	0	44	0	1068498944	15	4207
2026-01-21 22:40:03.87	99.52	20.51	-27.3	-28.7	15.6	0.00e+00	0	44	0	1071644672	15	4213
2026-01-21 22:40:04.87	99.76	20.48	-27.5	-29.0	15.5	0.00e+00	0	44	0	1074790400	15	4308
2026-01-21 22:40:05.88	100.01	20.45	-27.3	-28.6	15.7	0.00e+00	0	44	0	1077936128	15	4195
2026-01-21 22:40:06.87	100.26	20.42	-27.2	-28.4	15.8	0.00e+00	0	44	0	1081081856	15	4124
2026-01-21 22:40:07.86	100.50	20.39	-27.1	-28.3	15.8	0.00e+00	0	44	0	1084227584	15	4103
2026-01-21 22:40:08.86	100.75	20.36	-27.1	-28.1	15.9	4.50e-06	0	44	0	1086324736	15	4066
2026-01-21 22:40:09.87	101.00	20.33	-27.3	-28.7	15.7	0.00e+00	0	44	0	1090519040	15	4205
2026-01-21 22:40:10.88	101.25	20.30	-27.1	-28.3	15.8	0.00e+00	0	44	0	1093664768	15	4102
2026-01-21 22:40:11.89	101.49	20.26	-27.0	-28.0	16.0	6.10e-06	0	44	0	1096810496	15	4032
2026-01-21 22:40:12.89	101.74	20.23	-27.1	-28.1	16.0	0.00e+00	0	44	0	1099956224	15	4057
2026-01-21 22:40:13.89	101.98	20.20	-27.1	-28.2	15.9	0.00e+00	0	44	0	1103101952	15	4085
2026-01-21 22:40:14.90	102.23	20.16	-27.1	-28.1	15.9	3.80e-06	0	44	0	1106247680	15	4060
2026-01-21 22:40:15.91	102.47	20.13	-27.1	-28.2	15.8	0.00e+00	0	44	0	1108344832	15	4094
2026-01-21 22:40:16.91	102.71	20.09	-27.1	-28.1	15.9	0.00e+00	0	44	0	1111490560	15	4061
2026-01-21 22:40:17.90	102.95	20.06	-27.1	-28.2	15.9	0.00e+00	0	44	0	1114636288	15	4096
2026-01-21 22:40:18.90	103.19	20.02	-27.1	-28.1	15.9	0.00e+00	0	44	0	1117782016	15	4070
2026-01-21 22:40:19.90	103.44	19.99	-27.0	-28.0	16.0	0.00e+00	0	44	0	1120927744	15	4026
2026-01-21 22:40:20.90	103.68	19.95	-27.1	-28.2	15.8	1.50e-06	0	44	0	1124073472	15	4097
2026-01-21 22:40:21.90	103.92	19.91	-27.1	-28.6	15.9	0.00e+00	0	44	0	1127219200	14	4312
2026-01-21 22:40:22.91	104.16	19.88	-27.1	-28.7	15.9	0.00e+00	0	44	0	1130364928	14	4327
2026-01-21 22:40:23.91	104.40	19.84	-27.2	-29.0	15.7	0.00e+00	0	44	0	1133510656	14	4413
2026-01-21 22:40:24.91	104.63	19.80	-27.2	-28.8	15.8	0.00e+00	0	44	0	1136656384	14	4357
2026-01-21 22:40:25.91	104.87	19.76	-27.1	-28.8	15.8	0.00e+00	0	44	0	1139802112	14	4354
2026-01-21 22:40:26.92	105.11	19.72	-27.2	-28.9	15.8	0.00e+00	0	44	0	1142947840	14	4371
2026-01-21 22:40:27.92	105.35	19.68	-27.3	-29.1	15.6	0.00e+00	0	44	0	1146093568	14	4440
2026-01-21 22:40:28.93	105.58	19.64	-27.3	-29.1	15.6	0.00e+00	0	44	0	1149239296	14	4443
2026-01-21 22:40:29.93	105.82	19.60	-27.5	-29.6	15.3	0.00e+00	0	44	0	1152385024	14	4575
2026-01-21 22:40:30.93	106.05	19.56	-27.4	-28.9	15.5	0.00e+00	0	44	0	1155530752	15	4269
2026-01-21 22:40:31.94	106.29	19.52	-27.3	-28.7	15.5	0.00e+00	0	44	0	1158676480	15	4232
2026-01-21 22:40:32.94	106.52	19.48	-27.3	-28.6	15.6	0.00e+00	0	44	0	1161822208	15	4205
2026-01-21 22:40:33.94	106.75	19.44	-27.3	-28.7	15.5	0.00e+00	0	44	0	1164967936	15	4230
2026-01-21 22:40:34.94	106.99	19.39	-27.3	-28.6	15.6	2.74e-05	0	44	0	1168113664	15	4191
2026-01-21 22:40:35.95	107.22	19.35	-27.6	-29.3	15.2	6.80e-06	0	44	0	1171259392	15	4386
2026-01-21 22:40:36.94	107.45	19.31	-27.4	-28.9	15.4	0.00e+00	0	44	0	1174405120	15	4274
2026-01-21 22:40:37.94	107.68	19.27	-27.2	-28.4	15.7	7.00e-07	0	44	0	1177550848	15	4137
2026-01-21 22:40:38.95	107.91	19.22	-27.1	-28.2	15.8	0.00e+00	0	44	0	1180696576	15	4091
2026-01-21 22:40:39.94	108.14	19.18	-27.2	-28.5	15.7	0.00e+00	0	44	0	1183842304	15	4163
2026-01-21 22:40:40.94	108.36	19.13	-27.2	-28.5	15.6	1.20e-04	0	44	0	1186988032	15	4183
2026-01-21 22:40:41.94	108.59	19.09	-27.3	-28.7	15.5	1.27e-04	0	44	0	1190133760	15	4211
2026-01-21 22:40:42.95	108.82	19.04	-27.2	-28.5	15.6	0.00e+00	0	44	0	1193279488	15	4174
2026-01-21 22:40:43.95	109.05	19.00	-27.3	-28.6	15.6	0.00e+00	0	44	0	1196425216	15	4193
2026-01-21 22:40:44.96	109.27	18.95	-27.4	-28.8	15.4	9.61e-05	0	44	0	1199570944	15	4255
2026-01-21 22:40:45.96	109.50	18.90	-27.4	-28.8	15.4	0.00e+00	0	44	0	1202716672	15	4263
2026-01-21 22:40:46.97	109.73	18.86	-27.5	-29.1	15.3	1.33e-04	0	44	0	1205862400	15	4322
2026-01-21 22:40:47.97	109.95	18.81	-27.4	-29.0	15.4	1.54e-04	0	44	0	1209008128	15	4293
2026-01-21 22:40:48.97	110.17	18.76	-27.6	-29.3	15.2	0.00e+00	0	44	0	1212153856	15	4379
2026-01-21 22:40:49.98	110.40	18.71	-27.5	-29.1	15.3	2.55e-04	0	44	0	1215299584	15	4338
2026-01-21 22:40:50.97	110.62	18.67	-27.5	-29.0	15.3	2.62e-04	0	44	0	1218445312	15	4318
2026-01-21 22:40:51.97	110.84	18.62	-27.5	-29.3	15.2	0.00e+00	0	44	0	1221591040	15	4382
2026-01-21 22:40:52.97	111.06	18.57	-27.4	-28.9	15.4	2.73e-04	0	44	0	1224736768	15	4268
2026-01-21 22:40:53.97	111.28	18.52	-27.3	-28.7	15.4	1.69e-04	0	44	0	1227882496	15	4242
2026-01-21 22:40:54.97	111.49	18.47	-27.3	-28.6	15.5	0.00e+00	0	44	0	1231028224	15	4206
2026-01-21 22:40:55.97	111.71	18.42	-27.4	-28.9	15.4	9.38e-05	0	44	0	1234173952	15	4274
2026-01-21 22:40:56.98	111.93	18.37	-27.2	-28.4	15.6	5.95e-05	0	44	0	1237319680	15	4147
2026-01-21 22:40:57.98	112.15	18.32	-27.1	-28.2	15.7	0.00e+00	0	44	0	1240465408	15	4101
2026-01-21 22:40:58.98	112.36	18.27	-27.1	-28.1	15.8	9.10e-06	0	44	0	1243611136	15	4062
2026-01-21 22:40:59.98	112.58	18.22	-27.2	-28.4	15.6	1.22e-05	0	44	0	1246756864	15	4132
2026-01-21 22:41:00.99	112.80	18.17	-27.2	-28.5	15.6	0.00e+00	0	44	0	1249902592	15	4161
2026-01-21 22:41:01.99	113.01	18.12	-27.5	-29.2	15.2	0.00e+00	0	44	0	1253048320	15	4363
2026-01-21 22:41:02.99	113.22	18.07	-27.5	-29.2	15.2	0.00e+00	0	44	0	1256194048	15	4360
2026-01-21 22:41:04.00	113.44	18.01	-27.7	-29.6	15.0	0.00e+00	0	44	0	1259339776	15	4477
2026-01-21 22:41:05.00	113.65	17.96	-27.6	-29.4	15.0	6.10e-06	0	44	0	1262485504	15	4433
2026-01-21 22:41:06.00	113.86	17.91	-27.7	-29.5	15.0	7.00e-07	0	44	0	1265631232	15	4460
2026-01-21 22:41:07.00	114.07	17.86	-27.7	-29.7	14.9	0.00e+00	0	44	0	1268776960	15	4512
2026-01-21 22:41:08.00	114.28	17.80	-27.6	-29.5	15.0	9.10e-06	0	44	0	1271922688	15	4455
2026-01-21 22:41:09.00	114.49	17.75	-27.6	-29.4	15.0	0.00e+00	0	44	0	1275068416	15	4427
2026-01-21 22:41:10.00	114.70	17.70	-27.8	-29.8	14.8	0.00e+00	0	44	0	1278214144	15	4529
2026-01-21 22:41:11.00	114.91	17.64	-27.7	-29.5	15.0	0.00e+00	0	44	0	1281359872	15	4461
2026-01-21 22:41:12.00	115.11	17.59	-27.6	-29.4	15.1	0.00e+00	0	44	0	1284505600	15	4411
2026-01-21 22:41:13.00	115.32	17.53	-27.6	-29.3	15.1	0.00e+00	0	44	0	1287651328	15	4403
2026-01-21 22:41:14.01	115.53	17.48	-27.6	-29.5	15.0	6.10e-06	0	44	0	1290797056	15	4440
2026-01-21 22:41:15.01	115.73	17.43	-27.6	-29.4	15.1	0.00e+00	0	44	0	1293942784	15	4411
2026-01-21 22:41:16.01	115.93	17.37	-27.6	-29.4	15.0	0.00e+00	0	44	0	1297088512	15	4439
2026-01-21 22:41:17.01	116.14	17.32	-27.7	-29.7	14.9	6.10e-06	0	44	0	1300234240	15	4517
2026-01-21 22:41:18.01	116.34	17.26	-27.8	-29.9	14.7	0.00e+00	0	44	0	1303379968	15	4585
2026-01-21 22:41:19.02	116.54	17.20	-28.3	-30.5	14.3	2.20e-06	0	44	0	1306525696	16	4635
2026-01-21 22:41:20.02	116.74	17.15	-28.2	-30.3	14.4	6.80e-06	0	44	0	1309671424	16	4569
2026-01-21 22:41:21.02	116.94	17.09	-28.2	-30.3	14.4	0.00e+00	0	44	0	1312817152	16	4562
2026-01-21 22:41:22.03	117.15	17.04	-28.2	-30.2	14.4	0.00e+00	0	44	0	1315962880	16	4554
2026-01-21 22:41:23.03	117.34	16.98	-28.3	-30.5	14.3	9.10e-06	0	44	0	1319108608	16	4624
2026-01-21 22:41:24.03	117.54	16.92	-28.0	-29.8	14.6	0.00e+00	0	44	0	1322254336	16	4435
2026-01-21 22:41:25.03	117.74	16.87	-28.1	-29.9	14.6	0.00e+00	0	44	0	1325400064	16	4455
2026-01-21 22:41:26.04	117.94	16.81	-28.1	-30.1	14.5	0.00e+00	0	44	0	1328545792	16	4503
2026-01-21 22:41:27.04	118.13	16.75	-27.9	-29.6	14.7	0.00e+00	0	44	0	1331691520	16	4372
2026-01-21 22:41:28.04	118.33	16.69	-27.9	-29.5	14.8	7.00e-07	0	44	0	1334837248	16	4330
2026-01-21 22:41:29.04	118.52	16.64	-27.9	-29.6	14.7	3.00e-06	0	44	0	1336934400	16	4375
2026-01-21 22:41:30.05	118.72	16.58	-27.9	-29.5	14.8	0.00e+00	0	44	0	1340080128	16	4339
2026-01-21 22:41:31.06	118.91	16.52	-27.9	-29.5	14.8	7.00e-07	0	44	0	1343225856	16	4339
2026-01-21 22:41:32.06	119.11	16.46	-28.0	-29.9	14.6	0.00e+00	0	44	0	1346371584	16	4449
2026-01-21 22:41:33.06	119.30	16.40	-28.0	-29.9	14.6	0.00e+00	0	44	0	1350565888	16	4438
2026-01-21 22:41:34.07	119.49	16.35	-28.2	-30.2	14.4	7.00e-07	0	44	0	1353711616	16	4542
2026-01-21 22:41:35.07	119.68	16.29	-28.1	-30.1	14.5	0.00e+00	0	44	0	1356857344	16	4511
2026-01-21 22:41:36.07	119.87	16.23	-28.2	-30.3	14.3	7.00e-07	0	44	0	1360003072	16	4570
2026-01-21 22:41:37.07	120.06	16.17	-28.1	-30.0	14.4	7.00e-07	0	44	0	1362100224	16	4500
2026-01-21 22:41:38.08	120.25	16.11	-28.2	-30.3	14.3	1.50e-06	0	44	0	1365245952	16	4563
2026-01-21 22:41:39.08	120.44	16.05	-28.1	-30.1	14.4	1.50e-06	0	44	0	1368391680	16	4532
2026-01-21 22:41:40.08	120.62	15.99	-28.1	-30.1	14.4	2.20e-06	0	44	0	1371537408	16	4528
2026-01-21 22:41:41.08	120.81	15.93	-28.2	-30.2	14.4	0.00e+00	0	44	0	1374683136	16	4543
2026-01-21 22:41:42.09	121.00	15.87	-28.2	-30.2	14.4	2.20e-06	0	44	0	1377828864	16	4541
2026-01-21 22:41:43.09	121.18	15.81	-28.2	-30.3	14.3	7.00e-07	0	44	0	1380974592	16	4558
2026-01-21 22:41:44.09	121.36	15.75	-28.2	-30.3	14.3	0.00e+00	0	44	0	1384120320	16	4575
2026-01-21 22:41:45.09	121.55	15.69	-28.4	-30.6	14.1	1.50e-06	0	44	0	1387266048	16	4672
2026-01-21 22:41:46.09	121.73	15.63	-28.2	-30.1	14.4	3.00e-06	0	44	0	1390411776	16	4527
2026-01-21 22:41:47.10	121.91	15.57	-28.0	-29.8	14.6	2.20e-06	0	44	0	1393557504	16	4423
2026-01-21 22:41:48.10	122.09	15.51	-27.9	-29.6	14.7	0.00e+00	0	44	0	1396703232	16	4381
2026-01-21 22:41:49.11	122.28	15.45	-28.0	-29.8	14.6	7.00e-07	0	44	0	1399848960	16	4422
2026-01-21 22:41:50.11	122.45	15.39	-27.9	-29.5	14.8	7.00e-07	0	44	0	1402994688	16	4341
2026-01-21 22:41:51.12	122.64	15.33	-27.9	-29.5	14.7	7.00e-07	0	44	0	1406140416	16	4344
2026-01-21 22:41:52.12	122.81	15.27	-28.0	-29.7	14.6	0.00e+00	0	44	0	1409286144	16	4397
2026-01-21 22:41:53.13	122.99	15.21	-27.9	-29.6	14.7	7.00e-07	0	44	0	1412431872	16	4383
2026-01-21 22:41:54.12	123.17	15.15	-28.0	-29.8	14.6	0.00e+00	0	44	0	1415577600	16	4421
2026-01-21 22:41:55.12	123.34	15.09	-28.1	-30.0	14.4	0.00e+00	0	44	0	1418723328	16	4483
2026-01-21 22:41:56.13	123.52	15.02	-28.2	-30.2	14.3	1.50e-06	0	44	0	1421869056	16	4540
2026-01-21 22:41:57.13	123.69	14.96	-28.2	-30.3	14.2	3.00e-06	0	44	0	1425014784	16	4597
2026-01-21 22:41:58.13	123.87	14.90	-28.0	-29.9	14.5	0.00e+00	0	44	0	1428160512	16	4470
2026-01-21 22:41:59.14	124.04	14.84	-28.1	-29.9	14.4	0.00e+00	0	44	0	1431306240	16	4476
2026-01-21 22:42:00.14	124.22	14.78	-27.9	-30.2	14.4	7.00e-07	0	44	0	1434451968	15	4693
2026-01-21 22:42:01.14	124.39	14.72	-27.9	-30.1	14.5	7.00e-07	0	44	0	1437597696	15	4640
2026-01-21 22:42:02.14	124.56	14.65	-28.2	-30.4	14.2	7.00e-07	0	44	0	1440743424	16	4607
2026-01-21 22:42:03.15	124.73	14.59	-28.1	-30.0	14.4	7.00e-07	0	44	0	1443889152	16	4476
2026-01-21 22:42:04.15	124.90	14.53	-28.0	-29.8	14.5	7.00e-07	0	44	0	1447034880	16	4422
2026-01-21 22:42:05.15	125.07	14.47	-27.9	-29.6	14.7	1.50e-06	0	44	0	1450180608	16	4369
2026-01-21 22:42:06.16	125.24	14.41	-27.9	-29.6	14.7	0.00e+00	0	44	0	1453326336	16	4373
2026-01-21 22:42:07.16	125.41	14.34	-27.8	-29.5	14.7	4.50e-06	0	44	0	1456472064	16	4339
2026-01-21 22:42:08.16	125.57	14.28	-27.9	-29.5	14.7	7.00e-07	0	44	0	1459617792	16	4336
2026-01-21 22:42:09.17	125.74	14.22	-28.0	-29.9	14.5	7.00e-07	0	44	0	1462763520	16	4462
2026-01-21 22:42:10.17	125.91	14.16	-28.0	-29.8	14.5	7.00e-07	0	44	0	1465909248	16	4432
2026-01-21 22:42:11.18	126.07	14.09	-28.2	-30.2	14.2	7.00e-07	0	44	0	1469054976	16	4568
2026-01-21 22:42:12.19	126.24	14.03	-28.0	-29.9	14.4	7.00e-07	0	44	0	1472200704	16	4470
2026-01-21 22:42:13.19	126.40	13.97	-27.9	-29.6	14.6	1.50e-06	0	44	0	1475346432	16	4372
2026-01-21 22:42:14.20	126.57	13.90	-28.0	-29.8	14.5	7.00e-07	0	44	0	1478492160	16	4418
2026-01-21 22:42:15.20	126.73	13.84	-28.0	-29.9	14.4	0.00e+00	0	44	0	1481637888	16	4465
2026-01-21 22:42:16.20	126.89	13.78	-28.1	-30.0	14.4	7.60e-06	0	44	0	1484783616	16	4483
2026-01-21 22:42:17.20	127.05	13.72	-28.2	-30.4	14.1	2.20e-06	0	44	0	1487929344	16	4602
2026-01-21 22:42:18.20	127.21	13.65	-28.2	-30.2	14.2	1.50e-06	0	44	0	1491075072	16	4550
2026-01-21 22:42:19.21	127.37	13.59	-28.3	-30.5	14.1	1.14e-05	0	44	0	1494220800	16	4647
2026-01-21 22:42:20.20	127.53	13.53	-28.2	-30.3	14.2	3.00e-06	0	44	0	1497366528	16	4575
2026-01-21 22:42:21.21	127.69	13.47	-28.1	-30.1	14.2	3.00e-06	0	44	0	1500512256	16	4541
2026-01-21 22:42:22.21	127.85	13.40	-28.3	-30.5	14.0	7.60e-06	0	44	0	1503657984	16	4641
2026-01-21 22:42:23.22	128.01	13.34	-28.3	-30.6	13.9	1.50e-06	0	44	0	1506803712	16	4695
2026-01-21 22:42:24.23	128.16	13.28	-28.3	-30.6	14.0	2.20e-06	0	44	0	1509949440	16	4682
2026-01-21 22:42:25.23	128.32	13.21	-28.3	-30.6	13.9	6.80e-06	0	44	0	1513095168	16	4698
2026-01-21 22:42:26.23	128.48	13.15	-28.3	-30.6	13.9	3.00e-06	0	44	0	1516240896	16	4696
2026-01-21 22:42:27.23	128.63	13.09	-28.4	-30.9	13.8	4.50e-06	0	44	0	1519386624	16	4771
2026-01-21 22:42:28.23	128.78	13.02	-28.5	-31.0	13.7	1.52e-05	0	44	0	1522532352	16	4817
2026-01-21 22:42:29.24	128.94	12.96	-28.7	-30.9	13.4	1.22e-05	0	44	0	1525678080	17	4680
2026-01-21 22:42:30.24	129.09	12.90	-28.8	-31.4	13.1	2.36e-05	0	44	0	1528823808	17	4818
2026-01-21 22:42:31.24	129.24	12.83	-28.7	-31.0	13.4	1.18e-04	0	44	0	1531969536	17	4679
2026-01-21 22:42:32.24	129.39	12.77	-28.5	-30.5	13.6	9.10e-06	0	44	0	1535115264	17	4553
2026-01-21 22:42:33.25	129.55	12.71	-28.5	-30.6	13.6	4.50e-06	0	44	0	1538260992	17	4567
2026-01-21 22:42:34.25	129.70	12.64	-28.5	-30.6	13.6	7.60e-06	0	44	0	1541406720	17	4576
2026-01-21 22:42:35.25	129.85	12.58	-28.5	-30.6	13.6	3.80e-06	0	44	0	1544552448	17	4586
2026-01-21 22:42:36.25	129.99	12.52	-28.4	-30.5	13.6	5.30e-06	0	44	0	1547698176	17	4550
2026-01-21 22:42:37.25	130.14	12.46	-28.5	-30.7	13.5	8.30e-06	0	44	0	1550843904	17	4607
2026-01-21 22:42:38.25	130.29	12.39	-28.4	-30.3	13.7	3.80e-06	0	44	0	1553989632	17	4502
2026-01-21 22:42:39.26	130.44	12.33	-28.3	-30.2	13.8	1.50e-06	0	44	0	1557135360	17	4455
2026-01-21 22:42:40.25	130.58	12.27	-28.4	-30.3	13.7	9.15e-05	0	44	0	1560281088	17	4485
2026-01-21 22:42:41.26	130.73	12.20	-28.3	-30.1	13.9	1.70e-04	0	44	0	1563426816	17	4422
2026-01-21 22:42:42.26	130.88	12.14	-28.4	-30.3	13.7	3.80e-06	0	44	0	1566572544	17	4485
2026-01-21 22:42:43.26	131.02	12.08	-28.5	-30.6	13.5	9.90e-06	0	44	0	1569718272	17	4573
2026-01-21 22:42:44.26	131.16	12.01	-28.4	-30.4	13.6	4.94e-04	0	44	0	1572864000	17	4513
2026-01-21 22:42:45.27	131.31	11.95	-28.4	-30.3	13.7	6.10e-06	0	44	0	1576009728	17	4487
2026-01-21 22:42:46.27	131.45	11.89	-28.4	-30.5	13.6	5.35e-04	0	44	0	1579155456	17	4544
2026-01-21 22:42:47.28	131.60	11.82	-28.5	-30.6	13.5	5.12e-04	0	44	0	1582301184	17	4604
2026-01-21 22:42:48.28	131.74	11.76	-28.5	-30.7	13.4	1.14e-05	0	44	0	1585446912	17	4642
2026-01-21 22:42:49.28	131.88	11.70	-28.5	-30.6	13.5	4.28e-04	0	44	0	1588592640	17	4588
2026-01-21 22:42:50.28	132.02	11.63	-28.6	-30.8	13.4	4.31e-04	0	44	0	1591738368	17	4652
2026-01-21 22:42:51.28	132.16	11.57	-28.5	-30.8	13.3	1.75e-05	0	44	0	1594884096	17	4659
2026-01-21 22:42:52.28	132.30	11.51	-28.6	-31.0	13.2	5.64e-04	0	44	0	1598029824	17	4732
2026-01-21 22:42:53.29	132.44	11.44	-28.6	-30.9	13.3	6.76e-04	0	44	0	1601175552	17	4700
2026-01-21 22:42:54.30	132.58	11.38	-28.7	-31.1	13.1	2.13e-05	0	44	0	1604321280	17	4767
2026-01-21 22:42:55.30	132.71	11.32	-28.7	-31.0	13.2	7.77e-04	0	44	0	1607467008	17	4724
2026-01-21 22:42:56.30	132.85	11.25	-28.7	-31.2	13.1	8.07e-04	0	44	0	1610612736	17	4767
2026-01-21 22:42:57.30	132.99	11.19	-28.7	-31.0	13.2	2.28e-05	0	44	0	1612709888	17	4702
2026-01-21 22:42:58.31	133.12	11.13	-28.6	-30.9	13.3	5.92e-04	0	44	0	1615855616	17	4676
2026-01-21 22:42:59.31	133.26	11.06	-28.6	-30.9	13.2	1.98e-05	0	44	0	1620049920	17	4703
2026-01-21 22:43:00.32	133.40	11.00	-28.5	-30.7	13.4	6.80e-06	0	44	0	1623195648	17	4627
2026-01-21 22:43:01.33	133.53	10.94	-28.6	-30.9	13.2	5.03e-04	0	44	0	1626341376	17	4698
2026-01-21 22:43:02.33	133.66	10.87	-28.6	-31.0	13.1	5.31e-04	0	44	0	1629487104	17	4746
2026-01-21 22:43:03.33	133.80	10.81	-28.7	-31.2	13.0	2.89e-05	0	44	0	1632632832	17	4820
2026-01-21 22:43:04.33	133.93	10.75	-28.8	-31.5	12.8	6.02e-05	0	44	0	1635778560	17	4899
2026-01-21 22:43:05.33	134.06	10.68	-28.7	-31.3	12.9	4.65e-05	0	44	0	1637875712	17	4834
2026-01-21 22:43:06.33	134.19	10.62	-28.8	-31.5	12.8	5.26e-05	0	44	0	1641021440	17	4895
2026-01-21 22:43:07.33	134.32	10.56	-28.9	-31.7	12.7	5.42e-04	0	44	0	1644167168	17	4964
2026-01-21 22:43:08.33	134.45	10.50	-28.8	-31.4	12.8	7.17e-05	0	44	0	1647312896	17	4872
2026-01-21 22:43:09.34	134.58	10.43	-28.8	-31.6	12.7	6.25e-05	0	44	0	1650458624	17	4929
2026-01-21 22:43:10.34	134.71	10.37	-28.9	-31.6	12.7	8.08e-05	0	44	0	1653604352	17	4943
2026-01-21 22:43:11.34	134.84	10.31	-28.8	-31.5	12.8	5.72e-05	0	44	0	1656750080	17	4872
2026-01-21 22:43:12.35	134.97	10.24	-28.8	-31.5	12.8	5.87e-05	0	44	0	1659895808	17	4892
2026-01-21 22:43:13.35	135.10	10.18	-28.9	-31.6	12.7	6.25e-05	0	44	0	1663041536	17	4913
2026-01-21 22:43:14.36	135.23	10.12	-28.9	-31.6	12.7	9.38e-05	0	44	0	1666187264	17	4935
2026-01-21 22:43:15.37	135.36	10.05	-28.8	-31.4	12.8	5.26e-05	0	44	0	1669332992	17	4862
2026-01-21 22:43:16.37	135.48	9.99	-28.8	-31.5	12.8	5.34e-05	0	44	0	1672478720	17	4897
2026-01-21 22:43:17.37	135.61	9.93	-28.9	-31.8	12.5	1.11e-04	0	44	0	1675624448	17	5001
2026-01-21 22:43:18.37	135.73	9.87	-29.0	-31.4	12.5	1.37e-04	0	44	0	1678770176	18	4736
2026-01-21 22:43:19.38	135.86	9.80	-28.9	-31.3	12.6	8.69e-05	0	44	0	1681915904	18	4695
2026-01-21 22:43:20.38	135.98	9.74	-29.0	-31.3	12.5	1.25e-04	0	44	0	1685061632	18	4724
2026-01-21 22:43:21.39	136.11	9.68	-28.9	-31.2	12.7	7.62e-05	0	44	0	1688207360	18	4664
2026-01-21 22:43:22.39	136.23	9.62	-28.9	-31.2	12.6	8.85e-05	0	44	0	1691353088	18	4691
2026-01-21 22:43:23.39	136.35	9.55	-28.9	-31.3	12.5	1.24e-04	0	44	0	1694498816	18	4718
2026-01-21 22:43:24.38	136.47	9.49	-28.8	-31.1	12.6	1.09e-04	0	44	0	1697644544	18	4669
2026-01-21 22:43:25.39	136.59	9.43	-28.9	-31.3	12.5	1.09e-04	0	44	0	1700790272	18	4739
2026-01-21 22:43:26.38	136.71	9.37	-29.0	-31.4	12.4	1.48e-04	0	45	0	1703936000	18	4777
2026-01-21 22:43:27.38	136.83	9.31	-28.9	-31.4	12.4	1.64e-04	0	44	0	1707081728	18	4781
2026-01-21 22:43:28.38	136.95	9.25	-28.9	-31.3	12.4	1.34e-04	0	44	0	1710227456	18	4759
2026-01-21 22:43:29.38	137.07	9.18	-28.9	-31.3	12.4	1.08e-04	0	44	0	1713373184	18	4754
2026-01-21 22:43:30.39	137.19	9.12	-28.9	-31.3	12.4	1.56e-04	0	44	0	1716518912	18	4753
2026-01-21 22:43:31.39	137.31	9.06	-28.8	-31.1	12.5	1.13e-04	0	44	0	1719664640	18	4676
2026-01-21 22:43:32.40	137.43	9.00	-28.8	-30.9	12.6	8.54e-05	0	44	0	1722810368	18	4619
2026-01-21 22:43:33.40	137.55	8.93	-28.9	-31.2	12.4	1.18e-04	0	44	0	1725956096	18	4719
2026-01-21 22:43:34.41	137.67	8.87	-29.0	-31.6	12.1	2.08e-04	0	44	0	1729101824	18	4840
2026-01-21 22:43:35.41	137.78	8.81	-29.1	-31.7	12.1	2.91e-04	0	44	0	1732247552	18	4862
2026-01-21 22:43:36.41	137.90	8.75	-29.2	-31.9	12.0	3.10e-04	0	44	0	1735393280	18	4927
2026-01-21 22:43:37.41	138.02	8.69	-29.3	-32.2	11.8	4.40e-04	0	44	0	1738539008	18	5049
2026-01-21 22:43:38.42	138.13	8.63	-29.3	-32.3	11.7	5.19e-04	0	44	0	1741684736	18	5065
2026-01-21 22:43:39.43	138.25	8.56	-29.3	-32.4	11.7	5.90e-04	0	44	0	1744830464	18	5108
2026-01-21 22:43:40.43	138.36	8.50	-29.4	-32.5	11.6	7.17e-04	0	44	0	1747976192	18	5148
2026-01-21 22:43:41.43	138.48	8.44	-29.3	-32.4	11.6	6.10e-04	0	44	0	1751121920	18	5128
2026-01-21 22:43:42.44	138.59	8.38	-29.4	-32.7	11.4	9.18e-04	0	44	0	1754267648	18	5239
2026-01-21 22:43:43.44	138.70	8.32	-29.6	-32.7	11.0	1.59e-03	0	44	0	1757413376	19	5147
2026-01-21 22:43:44.45	138.82	8.26	-29.8	-33.2	10.7	3.26e-03	0	44	0	1760559104	19	5353
2026-01-21 22:43:45.44	138.93	8.20	-29.5	-32.5	11.2	1.68e-03	0	44	0	1763704832	19	5066
2026-01-21 22:43:46.45	139.04	8.13	-29.2	-31.7	11.6	8.45e-04	0	44	0	1766850560	19	4803
2026-01-21 22:43:47.45	139.15	8.07	-29.1	-31.4	11.9	4.78e-04	0	44	0	1769996288	19	4672
2026-01-21 22:43:48.46	139.26	8.01	-29.1	-31.3	12.0	3.33e-04	0	44	0	1773142016	19	4630
2026-01-21 22:43:49.46	139.37	7.95	-29.1	-31.8	12.0	3.46e-04	0	44	0	1776287744	18	4920
2026-01-21 22:43:50.46	139.48	7.89	-29.2	-32.0	11.8	3.86e-04	0	44	0	1779433472	18	4985
2026-01-21 22:43:51.46	139.59	7.83	-29.2	-32.1	11.8	5.97e-04	0	44	0	1782579200	18	4996
2026-01-21 22:43:52.47	139.70	7.77	-29.3	-32.3	11.6	4.62e-04	0	44	0	1785724928	18	5098
2026-01-21 22:43:53.47	139.81	7.71	-29.4	-32.5	11.4	1.09e-03	0	44	0	1788870656	18	5163
2026-01-21 22:43:54.47	139.92	7.65	-29.1	-31.9	11.8	5.19e-04	0	44	0	1792016384	18	4949
2026-01-21 22:43:55.48	140.03	7.59	-29.0	-31.7	11.9	4.19e-04	0	44	0	1795162112	18	4909
2026-01-21 22:43:56.48	140.13	7.52	-28.9	-31.5	11.9	3.73e-04	0	44	0	1798307840	18	4867
2026-01-21 22:43:57.48	140.24	7.46	-28.9	-31.7	11.8	4.07e-04	0	44	0	1801453568	18	4935
2026-01-21 22:43:58.48	140.35	7.40	-28.9	-31.6	11.8	5.32e-04	0	44	0	1804599296	18	4926
2026-01-21 22:43:59.48	140.45	7.34	-28.8	-31.5	11.8	4.08e-04	0	44	0	1807745024	18	4912
2026-01-21 22:44:00.49	140.56	7.28	-28.9	-31.8	11.6	6.15e-04	0	44	0	1810890752	18	5019
2026-01-21 22:44:01.49	140.66	7.22	-28.9	-31.8	11.6	6.23e-04	0	44	0	1814036480	18	5003
2026-01-21 22:44:02.50	140.77	7.16	-28.9	-32.3	11.5	8.06e-04	0	44	0	1817182208	17	5316
2026-01-21 22:44:03.50	140.87	7.10	-28.9	-32.4	11.4	8.46e-04	0	44	0	1820327936	17	5370
2026-01-21 22:44:04.50	140.98	7.04	-32.7	-43.9	3.8	3.83e-02	0	44	104	1822425088	25	13141

#Closed at: 2026-01-21 22:44:05
#Recorded file [1822 MB]: D:/data/31010_260122_013420.dat