passes_logs/2026/01/21/R2M6_AANII_01/R2M6_AANII_01__20260121_034110_FENGYUN_3D_rec.log

#Pass ID: 20260121_034110_FENGYUN 3D
#Satellite: FENGYUN 3D
#Configuration: FENGYUN 3D
#almurnet v.1.7.20240730
#Start time: 2026-01-21 03:41:12

#Version: 2.2.20231116
#Station: R2M6_AANII_01
#Location: 30.233357 lon 59.946436 lat
#TLE: 1 43010U 17072A   26020.28933472  .00000051  00000+0  46008-4 0  9990
#TLE: 2 43010  98.9944 352.1871 0002476  99.7001 260.4455 14.19696838424006

#Time	Az	El	Level	Level2	SNR	BER	BlckErr	Temp	State	Recorded	gain1	gain2
2026-01-21 03:41:12.11	13.14	7.12	-30.4	-34.3	5.2	7.92e-01	0	42	0	0	20	5638
2026-01-21 03:41:13.11	13.08	7.20	-30.4	-34.3	5.2	7.90e-01	0	42	104	0	20	5655
2026-01-21 03:41:14.12	13.02	7.27	-30.7	-34.6	8.5	2.58e-02	0	42	0	0	21	5628
2026-01-21 03:41:15.13	12.95	7.34	-30.5	-34.1	8.8	2.86e-02	0	42	0	5242880	21	5441
2026-01-21 03:41:16.12	12.89	7.41	-30.3	-33.4	9.3	1.93e-02	0	42	0	11534336	21	5155
2026-01-21 03:41:17.12	12.83	7.49	-30.1	-33.4	9.6	9.89e-03	0	42	0	16777216	20	5259
2026-01-21 03:41:18.12	12.77	7.56	-30.0	-33.0	9.9	8.38e-03	0	42	0	22020096	20	5085
2026-01-21 03:41:19.12	12.71	7.63	-30.0	-33.1	9.9	5.61e-03	0	42	0	28311552	20	5137
2026-01-21 03:41:20.12	12.64	7.70	-29.9	-33.3	10.2	4.04e-03	0	42	0	33554432	19	5294
2026-01-21 03:41:21.12	12.58	7.78	-29.9	-32.8	10.1	4.95e-03	0	42	0	38797312	20	5013
2026-01-21 03:41:22.12	12.52	7.85	-29.4	-31.4	11.0	1.81e-03	0	42	0	45088768	20	4537
2026-01-21 03:41:23.12	12.45	7.92	-29.6	-32.3	10.9	8.20e-04	0	42	0	50331648	19	4925
2026-01-21 03:41:24.13	12.39	8.00	-29.9	-33.0	10.5	1.69e-03	0	42	0	55574528	19	5184
2026-01-21 03:41:25.13	12.32	8.07	-29.3	-31.6	11.5	1.40e-03	0	42	0	61865984	19	4670
2026-01-21 03:41:26.13	12.26	8.15	-28.9	-31.1	12.1	2.01e-04	0	42	0	67108864	18	4627
2026-01-21 03:41:27.14	12.19	8.22	-28.3	-30.1	13.0	3.66e-05	0	42	0	73400320	17	4431
2026-01-21 03:41:28.14	12.13	8.30	-28.0	-30.0	13.3	1.25e-05	0	42	0	78643200	16	4515
2026-01-21 03:41:29.15	12.06	8.37	-28.0	-29.9	13.4	1.48e-05	0	42	0	83886080	16	4484
2026-01-21 03:41:30.15	11.99	8.45	-27.8	-29.5	13.8	4.50e-06	0	43	0	90177536	16	4350
2026-01-21 03:41:31.16	11.93	8.52	-27.6	-29.4	13.9	2.20e-06	0	42	0	95420416	15	4446
2026-01-21 03:41:32.16	11.86	8.60	-27.6	-29.4	13.9	5.70e-06	0	42	0	100663296	15	4460
2026-01-21 03:41:33.16	11.79	8.67	-27.5	-29.2	14.0	4.50e-06	0	42	0	106954752	15	4388
2026-01-21 03:41:34.16	11.72	8.75	-27.5	-29.2	13.9	3.40e-06	0	42	0	112197632	15	4401
2026-01-21 03:41:35.17	11.66	8.82	-27.5	-29.2	13.9	0.00e+00	0	42	0	118489088	15	4399
2026-01-21 03:41:36.17	11.59	8.90	-27.5	-29.3	13.9	3.40e-06	0	42	0	123731968	15	4432
2026-01-21 03:41:37.17	11.52	8.98	-26.8	-28.3	13.9	2.20e-06	0	42	0	128974848	15	4281
2026-01-21 03:41:38.17	11.45	9.05	-27.4	-29.6	12.6	0.00e+00	0	43	0	135266304	14	4638
2026-01-21 03:41:39.18	11.38	9.13	-27.4	-29.5	13.8	2.20e-06	0	42	0	140509184	14	4603
2026-01-21 03:41:40.19	11.31	9.21	-27.5	-29.3	13.4	3.40e-06	0	43	0	146800640	15	4420
2026-01-21 03:41:41.20	11.24	9.28	-27.7	-29.7	13.7	0.00e+00	0	42	0	152043520	15	4523
2026-01-21 03:41:42.20	11.17	9.36	-27.5	-29.7	14.0	1.10e-06	0	42	0	157286400	14	4638
2026-01-21 03:41:43.20	11.09	9.44	-27.4	-29.4	14.2	0.00e+00	0	43	0	163577856	14	4566
2026-01-21 03:41:44.21	11.02	9.52	-27.5	-29.7	14.0	0.00e+00	0	43	0	168820736	14	4647
2026-01-21 03:41:45.21	10.95	9.59	-27.4	-29.5	14.2	0.00e+00	0	43	0	174063616	14	4575
2026-01-21 03:41:46.21	10.88	9.67	-27.4	-29.6	14.1	1.71e-03	0	43	0	180355072	14	4622
2026-01-21 03:41:47.21	10.80	9.75	-27.3	-29.4	14.2	0.00e+00	0	43	0	185597952	14	4553
2026-01-21 03:41:48.21	10.73	9.83	-27.3	-29.3	14.3	2.44e-04	0	43	0	191889408	14	4538
2026-01-21 03:41:49.21	10.66	9.91	-27.3	-29.3	14.3	1.10e-06	0	43	0	197132288	14	4532
2026-01-21 03:41:50.22	10.58	9.99	-27.3	-29.4	14.3	1.54e-03	0	43	0	202375168	14	4547
2026-01-21 03:41:51.22	10.51	10.06	-27.2	-29.1	14.4	2.23e-04	0	43	0	208666624	14	4478
2026-01-21 03:41:52.22	10.43	10.14	-27.2	-29.0	14.5	0.00e+00	0	43	0	213909504	14	4442
2026-01-21 03:41:53.22	10.36	10.22	-27.0	-28.7	14.7	1.65e-03	0	43	0	220200960	14	4337
2026-01-21 03:41:54.22	10.28	10.30	-27.3	-29.3	14.4	1.10e-06	0	43	0	225443840	14	4521
2026-01-21 03:41:55.22	10.21	10.38	-27.1	-28.8	14.6	1.65e-03	0	43	0	230686720	14	4377
2026-01-21 03:41:56.22	10.13	10.46	-27.0	-28.7	14.7	0.00e+00	0	43	0	236978176	14	4341
2026-01-21 03:41:57.22	10.05	10.54	-27.1	-28.8	14.6	2.02e-04	0	43	0	242221056	14	4373
2026-01-21 03:41:58.22	9.97	10.62	-27.2	-29.0	14.5	1.53e-03	0	43	0	247463936	14	4450
2026-01-21 03:41:59.23	9.90	10.70	-27.4	-29.4	14.3	1.10e-06	0	43	0	253755392	14	4559
2026-01-21 03:42:00.23	9.82	10.78	-27.2	-29.0	14.5	1.86e-04	0	43	0	258998272	14	4438
2026-01-21 03:42:01.24	9.74	10.87	-27.0	-28.7	14.7	0.00e+00	0	43	0	264241152	14	4349
2026-01-21 03:42:02.24	9.66	10.95	-27.0	-28.6	14.8	1.49e-03	0	43	0	270532608	14	4318
2026-01-21 03:42:03.24	9.58	11.03	-27.0	-28.6	14.8	1.74e-04	0	43	0	275775488	14	4331
2026-01-21 03:42:04.24	9.50	11.11	-27.1	-28.8	14.6	1.55e-03	0	43	0	282066944	14	4383
2026-01-21 03:42:05.25	9.42	11.19	-27.0	-29.0	14.8	1.47e-03	0	43	0	287309824	13	4552
2026-01-21 03:42:06.25	9.33	11.27	-27.1	-28.8	14.6	0.00e+00	0	43	0	292552704	14	4391
2026-01-21 03:42:07.25	9.25	11.36	-27.0	-28.5	14.9	1.52e-03	0	43	0	298844160	14	4289
2026-01-21 03:42:08.26	9.17	11.44	-26.8	-28.7	15.0	0.00e+00	0	43	0	304087040	13	4473
2026-01-21 03:42:09.26	9.09	11.52	-26.8	-28.6	15.1	1.75e-04	0	43	0	310378496	13	4442
2026-01-21 03:42:10.26	9.00	11.61	-26.8	-28.7	15.0	1.46e-03	0	43	0	315621376	13	4464
2026-01-21 03:42:11.27	8.92	11.69	-26.9	-28.8	15.0	1.54e-03	0	43	0	320864256	13	4481
2026-01-21 03:42:12.27	8.83	11.77	-26.8	-28.6	15.1	1.89e-04	0	43	0	327155712	13	4426
2026-01-21 03:42:13.28	8.75	11.86	-26.8	-28.6	15.1	1.41e-03	0	43	0	332398592	13	4437
2026-01-21 03:42:14.28	8.66	11.94	-27.1	-28.8	14.8	1.44e-03	0	43	0	337641472	14	4381
2026-01-21 03:42:15.29	8.58	12.03	-26.9	-28.4	15.0	0.00e+00	0	43	0	343932928	14	4264
2026-01-21 03:42:16.29	8.49	12.11	-26.7	-28.5	15.2	1.45e-03	0	43	0	349175808	13	4398
2026-01-21 03:42:17.29	8.40	12.19	-26.7	-28.5	15.2	1.35e-03	0	43	0	355467264	13	4401
2026-01-21 03:42:18.30	8.32	12.28	-26.8	-28.6	15.1	1.53e-04	0	43	0	360710144	13	4423
2026-01-21 03:42:19.30	8.23	12.36	-26.8	-28.7	15.1	1.38e-03	0	43	0	365953024	13	4469
2026-01-21 03:42:20.30	8.14	12.45	-26.8	-28.6	15.2	0.00e+00	0	43	0	372244480	13	4418
2026-01-21 03:42:21.31	8.05	12.54	-26.8	-28.7	15.1	1.40e-04	0	43	0	377487360	13	4455
2026-01-21 03:42:22.31	7.96	12.62	-26.8	-28.7	15.1	0.00e+00	0	43	0	382730240	13	4446
2026-01-21 03:42:23.31	7.87	12.71	-26.8	-28.7	15.1	1.32e-03	0	43	0	389021696	13	4449
2026-01-21 03:42:24.31	7.78	12.79	-26.8	-28.6	15.2	0.00e+00	0	43	0	394264576	13	4448
2026-01-21 03:42:25.31	7.69	12.88	-26.9	-28.8	15.1	0.00e+00	0	43	0	400556032	13	4494
2026-01-21 03:42:26.32	7.60	12.97	-26.7	-28.4	15.3	1.22e-03	0	43	0	405798912	13	4375
2026-01-21 03:42:27.32	7.50	13.05	-26.7	-28.5	15.2	0.00e+00	0	43	0	411041792	13	4393
2026-01-21 03:42:28.32	7.41	13.14	-26.7	-28.5	15.2	1.28e-03	0	44	0	417333248	13	4399
2026-01-21 03:42:29.33	7.32	13.23	-26.6	-28.2	15.4	0.00e+00	0	43	0	422576128	13	4329
2026-01-21 03:42:30.33	7.22	13.32	-26.6	-28.1	15.4	5.14e-05	0	43	0	428867584	13	4287
2026-01-21 03:42:31.33	7.13	13.40	-26.5	-27.8	15.6	0.00e+00	0	43	0	434110464	13	4223
2026-01-21 03:42:32.33	7.03	13.49	-26.5	-28.0	15.5	0.00e+00	0	43	0	439353344	13	4272
2026-01-21 03:42:33.34	6.94	13.58	-26.7	-28.3	15.3	0.00e+00	0	43	0	445644800	13	4347
2026-01-21 03:42:34.34	6.84	13.67	-26.6	-28.1	15.5	0.00e+00	0	43	0	450887680	13	4285
2026-01-21 03:42:35.34	6.74	13.76	-26.5	-28.1	15.5	1.26e-03	0	43	0	456130560	13	4280
2026-01-21 03:42:36.34	6.65	13.85	-26.6	-28.2	15.4	0.00e+00	0	43	0	462422016	13	4321
2026-01-21 03:42:37.34	6.55	13.94	-26.5	-27.9	15.5	0.00e+00	0	43	0	467664896	13	4241
2026-01-21 03:42:38.34	6.45	14.02	-26.5	-28.0	15.5	0.00e+00	0	43	0	472907776	13	4265
2026-01-21 03:42:39.34	6.35	14.11	-26.5	-28.0	15.5	0.00e+00	0	43	0	479199232	13	4266
2026-01-21 03:42:40.35	6.25	14.21	-26.5	-28.0	15.5	0.00e+00	0	43	0	484442112	13	4279
2026-01-21 03:42:41.35	6.15	14.30	-26.5	-27.8	15.6	0.00e+00	0	44	0	490733568	13	4220
2026-01-21 03:42:42.35	6.05	14.39	-26.3	-27.5	15.8	0.00e+00	0	44	0	495976448	13	4138
2026-01-21 03:42:43.35	5.94	14.48	-26.3	-28.0	15.8	0.00e+00	0	43	0	501219328	12	4377
2026-01-21 03:42:44.36	5.84	14.57	-26.2	-27.8	16.0	0.00e+00	0	44	0	507510784	12	4322
2026-01-21 03:42:45.36	5.74	14.66	-26.3	-27.9	15.9	0.00e+00	0	44	0	512753664	12	4353
2026-01-21 03:42:46.36	5.63	14.75	-26.2	-27.8	16.0	0.00e+00	0	43	0	519045120	12	4319
2026-01-21 03:42:47.37	5.53	14.84	-26.2	-27.7	16.1	0.00e+00	0	43	0	524288000	12	4296
2026-01-21 03:42:48.36	5.42	14.93	-26.1	-27.6	16.1	0.00e+00	0	43	0	529530880	12	4258
2026-01-21 03:42:49.37	5.32	15.03	-26.1	-27.6	16.0	0.00e+00	0	44	0	535822336	12	4275
2026-01-21 03:42:50.37	5.21	15.12	-26.1	-27.4	16.2	0.00e+00	0	44	0	541065216	12	4220
2026-01-21 03:42:51.37	5.10	15.21	-26.1	-27.4	16.2	0.00e+00	0	44	0	546308096	12	4216
2026-01-21 03:42:52.38	4.99	15.30	-26.1	-27.5	16.2	0.00e+00	0	44	0	552599552	12	4227
2026-01-21 03:42:53.39	4.88	15.40	-26.1	-27.5	16.2	0.00e+00	0	44	0	557842432	12	4240
2026-01-21 03:42:54.39	4.78	15.49	-26.0	-27.4	16.2	0.00e+00	0	44	0	564133888	12	4208
2026-01-21 03:42:55.39	4.67	15.59	-26.1	-27.5	16.2	0.00e+00	0	44	0	569376768	12	4232
2026-01-21 03:42:56.39	4.55	15.68	-26.1	-27.5	16.2	0.00e+00	0	44	0	574619648	12	4230
2026-01-21 03:42:57.39	4.44	15.77	-26.2	-27.7	16.1	0.00e+00	0	44	0	580911104	12	4297
2026-01-21 03:42:58.40	4.33	15.87	-26.2	-27.8	16.0	0.00e+00	0	44	0	586153984	12	4333
2026-01-21 03:42:59.41	4.22	15.96	-26.1	-27.6	16.1	0.00e+00	0	44	0	591396864	12	4259
2026-01-21 03:43:00.40	4.10	16.06	-26.2	-27.7	16.1	0.00e+00	0	43	0	597688320	12	4278
2026-01-21 03:43:01.41	3.99	16.15	-26.0	-27.4	16.3	0.00e+00	0	44	0	602931200	12	4217
2026-01-21 03:43:02.41	3.87	16.25	-26.0	-27.3	16.3	0.00e+00	0	44	0	608174080	12	4196
2026-01-21 03:43:03.41	3.76	16.34	-26.0	-27.3	16.3	0.00e+00	0	44	0	614465536	12	4179
2026-01-21 03:43:04.41	3.64	16.44	-25.9	-27.1	16.4	0.00e+00	0	44	0	619708416	12	4128
2026-01-21 03:43:05.41	3.52	16.54	-25.9	-27.6	16.5	0.00e+00	0	44	0	625999872	11	4371
2026-01-21 03:43:06.42	3.40	16.63	-25.8	-27.4	16.6	0.00e+00	0	44	0	631242752	11	4329
2026-01-21 03:43:07.43	3.28	16.73	-25.8	-27.3	16.7	0.00e+00	0	44	0	637534208	11	4295
2026-01-21 03:43:08.43	3.16	16.83	-25.7	-27.1	16.8	0.00e+00	0	44	0	642777088	11	4232
2026-01-21 03:43:09.44	3.04	16.93	-25.7	-27.2	16.8	0.00e+00	0	44	0	648019968	11	4257
2026-01-21 03:43:10.44	2.92	17.02	-25.6	-26.9	16.9	0.00e+00	0	44	0	654311424	11	4190
2026-01-21 03:43:11.45	2.80	17.12	-25.6	-26.8	17.0	0.00e+00	0	44	0	659554304	11	4164
2026-01-21 03:43:12.45	2.67	17.22	-25.5	-26.8	17.0	0.00e+00	0	44	0	664797184	11	4154
2026-01-21 03:43:13.46	2.55	17.32	-25.6	-26.8	16.9	0.00e+00	0	44	0	671088640	11	4165
2026-01-21 03:43:14.46	2.42	17.42	-25.6	-27.0	16.9	0.00e+00	0	44	0	676331520	11	4207
2026-01-21 03:43:15.45	2.30	17.51	-25.5	-26.8	17.0	0.00e+00	0	44	0	681574400	11	4167
2026-01-21 03:43:16.45	2.17	17.61	-25.6	-26.9	16.9	0.00e+00	0	44	0	687865856	11	4183
2026-01-21 03:43:17.45	2.04	17.71	-25.6	-27.0	16.9	0.00e+00	0	44	0	693108736	11	4207
2026-01-21 03:43:18.45	1.92	17.81	-25.6	-26.9	17.0	0.00e+00	0	44	0	699400192	11	4179
2026-01-21 03:43:19.45	1.79	17.91	-25.6	-27.0	16.9	0.00e+00	0	44	0	704643072	11	4206
2026-01-21 03:43:20.45	1.66	18.01	-25.6	-26.9	16.9	0.00e+00	0	44	0	709885952	11	4192
2026-01-21 03:43:21.46	1.53	18.11	-25.6	-26.8	17.0	0.00e+00	0	44	0	716177408	11	4168
2026-01-21 03:43:22.46	1.39	18.21	-25.7	-27.1	16.8	0.00e+00	0	44	0	721420288	11	4233
2026-01-21 03:43:23.46	1.26	18.31	-25.6	-27.0	16.9	0.00e+00	0	44	0	727711744	11	4208
2026-01-21 03:43:24.47	1.13	18.42	-25.6	-26.9	16.9	0.00e+00	0	44	0	732954624	11	4177
2026-01-21 03:43:25.48	0.99	18.52	-25.6	-26.9	17.0	0.00e+00	0	44	0	738197504	11	4178
2026-01-21 03:43:26.48	0.86	18.62	-25.5	-26.6	17.1	0.00e+00	0	44	0	744488960	11	4120
2026-01-21 03:43:27.49	0.72	18.72	-25.5	-26.6	17.1	0.00e+00	0	44	0	749731840	11	4109
2026-01-21 03:43:28.49	0.58	18.82	-25.5	-26.6	17.0	0.00e+00	0	44	0	754974720	11	4119
2026-01-21 03:43:29.49	0.44	18.93	-25.4	-26.6	17.0	0.00e+00	0	44	0	761266176	11	4101
2026-01-21 03:43:30.49	0.30	19.03	-25.3	-26.7	13.6	0.00e+00	0	44	0	766509056	10	4240
2026-01-21 03:43:31.48	0.16	19.13	-25.2	-26.6	16.0	0.00e+00	0	44	0	772800512	10	4220
2026-01-21 03:43:32.48	0.02	19.23	-25.2	-26.5	17.4	0.00e+00	0	44	0	778043392	10	4202
2026-01-21 03:43:33.49	359.88	19.34	-25.2	-26.5	17.5	0.00e+00	0	44	0	783286272	10	4194
2026-01-21 03:43:34.49	359.74	19.44	-25.1	-26.4	17.5	0.00e+00	0	44	0	789577728	10	4176
2026-01-21 03:43:35.49	359.59	19.54	-25.1	-26.4	17.5	0.00e+00	0	44	0	794820608	10	4164
2026-01-21 03:43:36.50	359.45	19.65	-25.2	-26.5	17.5	0.00e+00	0	44	0	800063488	10	4191
2026-01-21 03:43:37.50	359.30	19.75	-25.2	-26.6	17.4	0.00e+00	0	44	0	806354944	10	4211
2026-01-21 03:43:38.50	359.15	19.86	-25.1	-26.4	17.5	0.00e+00	0	44	0	811597824	10	4177
2026-01-21 03:43:39.50	359.01	19.96	-25.2	-26.6	17.4	1.17e-03	0	44	0	817889280	10	4213
2026-01-21 03:43:40.51	358.86	20.07	-25.2	-26.5	17.5	0.00e+00	0	44	0	823132160	10	4196
2026-01-21 03:43:41.51	358.70	20.17	-25.1	-26.4	17.5	1.10e-04	0	44	0	828375040	10	4175
2026-01-21 03:43:42.52	358.55	20.28	-25.1	-26.3	17.5	0.00e+00	0	44	0	834666496	10	4157
2026-01-21 03:43:43.52	358.40	20.38	-25.2	-26.5	17.5	1.16e-03	0	44	0	839909376	10	4186
2026-01-21 03:43:44.53	358.24	20.49	-25.0	-26.1	17.7	9.49e-05	0	44	0	846200832	10	4096
2026-01-21 03:43:45.53	358.09	20.60	-25.0	-26.2	17.6	0.00e+00	0	44	0	851443712	10	4132
2026-01-21 03:43:46.53	357.93	20.70	-25.2	-26.5	17.5	1.10e-03	0	44	0	856686592	10	4180
2026-01-21 03:43:47.53	357.78	20.81	-25.0	-26.2	17.6	0.00e+00	0	44	0	862978048	10	4129
2026-01-21 03:43:48.53	357.62	20.91	-24.9	-25.9	17.8	1.16e-03	0	44	0	868220928	10	4045
2026-01-21 03:43:49.54	357.46	21.02	-24.9	-25.8	17.8	0.00e+00	0	44	0	873463808	10	4024
2026-01-21 03:43:50.54	357.30	21.13	-24.8	-26.3	17.8	1.67e-04	0	44	0	879755264	9	4243
2026-01-21 03:43:51.54	357.14	21.24	-24.9	-26.4	17.8	1.26e-03	0	44	0	884998144	9	4290
2026-01-21 03:43:52.54	356.98	21.34	-25.0	-26.0	17.7	0.00e+00	0	44	0	891289600	10	4072
2026-01-21 03:43:53.55	356.81	21.45	-24.9	-25.9	17.9	1.53e-04	0	44	0	896532480	10	4032
2026-01-21 03:43:54.55	356.65	21.56	-24.9	-25.9	17.8	0.00e+00	0	44	0	901775360	10	4041
2026-01-21 03:43:55.56	356.48	21.67	-24.8	-25.7	17.9	1.06e-03	0	44	0	908066816	10	4001
2026-01-21 03:43:56.56	356.31	21.78	-24.9	-26.5	17.7	1.21e-04	0	44	0	913309696	9	4311
2026-01-21 03:43:57.56	356.14	21.89	-25.0	-26.0	17.8	9.86e-04	0	44	0	919601152	10	4073
2026-01-21 03:43:58.56	355.97	22.00	-25.0	-26.2	17.7	8.74e-04	0	44	0	924844032	10	4123
2026-01-21 03:43:59.57	355.80	22.11	-25.0	-26.2	17.7	1.94e-05	0	44	0	930086912	10	4110
2026-01-21 03:44:00.57	355.63	22.21	-24.6	-25.4	18.1	8.09e-04	0	44	0	936378368	10	3915
2026-01-21 03:44:01.57	355.46	22.32	-24.5	-25.5	18.3	0.00e+00	0	44	0	941621248	9	4049
2026-01-21 03:44:02.57	355.28	22.43	-24.4	-25.3	18.4	1.25e-05	0	44	0	946864128	9	3998
2026-01-21 03:44:03.57	355.11	22.54	-24.4	-25.3	18.4	7.59e-04	0	44	0	953155584	9	4012
2026-01-21 03:44:04.57	354.93	22.65	-24.3	-25.2	18.4	6.97e-04	0	44	0	958398464	9	3980
2026-01-21 03:44:05.58	354.75	22.76	-24.4	-25.4	18.4	3.08e-05	0	44	0	964689920	9	4023
2026-01-21 03:44:06.58	354.57	22.87	-24.5	-25.7	18.2	7.26e-04	0	44	0	969932800	9	4097
2026-01-21 03:44:07.58	354.39	22.98	-24.6	-25.8	18.1	7.86e-04	0	44	0	975175680	9	4129
2026-01-21 03:44:08.58	354.21	23.09	-24.6	-25.9	18.1	0.00e+00	0	44	0	981467136	9	4143
2026-01-21 03:44:09.58	354.02	23.20	-24.8	-26.1	18.0	8.19e-04	0	44	0	986710016	9	4209
2026-01-21 03:44:10.59	353.84	23.32	-24.6	-25.9	18.1	8.43e-04	0	44	0	991952896	9	4139
2026-01-21 03:44:11.59	353.65	23.43	-24.5	-25.5	18.3	7.20e-05	0	44	0	998244352	9	4044
2026-01-21 03:44:12.60	353.46	23.54	-24.4	-25.3	18.4	8.28e-04	0	44	0	1003487232	9	3999
2026-01-21 03:44:13.61	353.27	23.65	-24.4	-25.4	18.4	0.00e+00	0	44	0	1008730112	9	4029
2026-01-21 03:44:14.61	353.08	23.76	-24.3	-25.1	18.5	4.00e-05	0	44	0	1015021568	9	3966
2026-01-21 03:44:15.62	352.89	23.88	-24.2	-25.3	18.7	0.00e+00	0	44	0	1020264448	8	4122
2026-01-21 03:44:16.62	352.70	23.99	-24.1	-25.2	18.7	8.02e-04	0	44	0	1026555904	8	4083
2026-01-21 03:44:17.63	352.50	24.10	-24.1	-25.2	18.7	0.00e+00	0	44	0	1031798784	8	4086
2026-01-21 03:44:18.63	352.30	24.21	-24.3	-25.6	18.5	0.00e+00	0	44	0	1038090240	8	4191
2026-01-21 03:44:19.63	352.11	24.32	-24.4	-25.8	18.5	7.26e-04	0	44	0	1043333120	8	4238
2026-01-21 03:44:20.64	351.91	24.44	-24.5	-26.0	18.3	0.00e+00	0	44	0	1048576000	8	4300
2026-01-21 03:44:21.65	351.70	24.55	-24.7	-25.9	18.1	7.20e-04	0	44	0	1054867456	9	4162
2026-01-21 03:44:22.66	351.50	24.66	-24.6	-25.8	18.2	0.00e+00	0	44	0	1060110336	9	4133
2026-01-21 03:44:23.66	351.30	24.78	-24.6	-25.7	18.3	0.00e+00	0	44	0	1065353216	9	4102
2026-01-21 03:44:24.67	351.09	24.89	-24.4	-25.4	18.4	0.00e+00	0	44	0	1071644672	9	4026
2026-01-21 03:44:25.67	350.88	25.00	-24.1	-24.8	18.7	0.00e+00	0	44	0	1076887552	9	3879
2026-01-21 03:44:26.68	350.67	25.12	-24.2	-24.8	18.7	0.00e+00	0	44	0	1083179008	9	3895
2026-01-21 03:44:27.69	350.46	25.23	-24.2	-25.5	18.6	0.00e+00	0	44	0	1088421888	8	4174
2026-01-21 03:44:28.68	350.25	25.34	-24.1	-25.3	18.7	0.00e+00	0	44	0	1093664768	8	4103
2026-01-21 03:44:29.69	350.04	25.46	-23.9	-24.8	19.0	0.00e+00	0	44	0	1099956224	8	3987
2026-01-21 03:44:30.70	349.82	25.57	-23.9	-24.7	19.0	0.00e+00	0	44	0	1105199104	8	3974
2026-01-21 03:44:31.69	349.61	25.68	-24.1	-25.2	18.9	0.00e+00	0	44	0	1111490560	8	4078
2026-01-21 03:44:32.68	349.40	25.79	-24.0	-24.9	18.9	0.00e+00	0	44	0	1116733440	8	4019
2026-01-21 03:44:33.69	349.18	25.91	-23.9	-24.9	19.0	0.00e+00	0	44	0	1121976320	8	4006
2026-01-21 03:44:34.69	348.96	26.02	-23.9	-24.8	19.0	0.00e+00	0	44	0	1128267776	8	3983
2026-01-21 03:44:35.69	348.74	26.13	-23.9	-24.8	19.0	0.00e+00	0	44	0	1133510656	8	3984
2026-01-21 03:44:36.69	348.51	26.25	-24.0	-24.9	18.9	0.00e+00	0	44	0	1138753536	8	4018
2026-01-21 03:44:37.69	348.29	26.36	-24.1	-25.2	18.8	0.00e+00	0	44	0	1145044992	8	4083
2026-01-21 03:44:38.70	348.06	26.47	-24.0	-25.0	18.9	0.00e+00	0	44	0	1150287872	8	4047
2026-01-21 03:44:39.70	347.83	26.58	-23.9	-24.7	19.1	0.00e+00	0	44	0	1155530752	8	3975
2026-01-21 03:44:40.70	347.60	26.70	-23.8	-24.5	19.1	0.00e+00	0	44	0	1161822208	8	3915
2026-01-21 03:44:41.69	347.37	26.81	-23.8	-24.6	19.1	0.00e+00	0	44	0	1167065088	8	3952
2026-01-21 03:44:42.70	347.14	26.92	-23.7	-24.3	19.3	0.00e+00	0	44	0	1173356544	8	3861
2026-01-21 03:44:43.69	346.90	27.03	-23.5	-23.9	19.5	0.00e+00	0	44	0	1178599424	8	3781
2026-01-21 03:44:44.70	346.67	27.15	-23.5	-23.9	19.4	0.00e+00	0	44	0	1183842304	8	3785
2026-01-21 03:44:45.70	346.43	27.26	-23.4	-23.7	19.6	0.00e+00	0	44	0	1190133760	8	3731
2026-01-21 03:44:46.70	346.19	27.37	-23.5	-23.9	19.5	0.00e+00	0	44	0	1195376640	8	3781
2026-01-21 03:44:47.70	345.95	27.49	-23.5	-23.9	19.5	0.00e+00	0	44	0	1200619520	8	3780
2026-01-21 03:44:48.70	345.70	27.60	-23.6	-24.6	19.3	0.00e+00	0	44	0	1206910976	7	4048
2026-01-21 03:44:49.70	345.46	27.71	-23.6	-24.7	19.3	0.00e+00	0	44	0	1212153856	7	4075
2026-01-21 03:44:50.71	345.21	27.82	-23.6	-24.8	19.3	0.00e+00	0	44	0	1217396736	7	4093
2026-01-21 03:44:51.71	344.96	27.93	-23.6	-24.6	19.3	0.00e+00	0	44	0	1223688192	7	4056
2026-01-21 03:44:52.72	344.71	28.05	-23.5	-24.5	19.4	0.00e+00	0	44	0	1228931072	7	4020
2026-01-21 03:44:53.73	344.45	28.16	-23.6	-24.6	19.3	0.00e+00	0	44	0	1235222528	7	4059
2026-01-21 03:44:54.73	344.20	28.27	-23.5	-24.4	19.5	0.00e+00	0	44	0	1240465408	7	4005
2026-01-21 03:44:55.73	343.94	28.38	-23.4	-24.2	19.6	0.00e+00	0	44	0	1246756864	7	3956
2026-01-21 03:44:56.73	343.69	28.49	-23.4	-24.3	19.5	0.00e+00	0	44	0	1251999744	7	3970
2026-01-21 03:44:57.74	343.42	28.61	-23.5	-24.4	19.5	0.00e+00	0	44	0	1257242624	7	3994
2026-01-21 03:44:58.74	343.16	28.72	-23.5	-24.4	19.4	0.00e+00	0	44	0	1263534080	7	4004
2026-01-21 03:44:59.74	342.90	28.83	-23.5	-24.5	19.4	0.00e+00	0	44	0	1268776960	7	4021
2026-01-21 03:45:00.74	342.64	28.94	-23.5	-24.5	19.4	0.00e+00	0	44	0	1274019840	7	4034
2026-01-21 03:45:01.75	342.37	29.05	-23.6	-24.7	19.3	0.00e+00	0	44	0	1280311296	7	4076
2026-01-21 03:45:02.75	342.10	29.16	-23.6	-24.6	19.3	0.00e+00	0	44	0	1285554176	7	4061
2026-01-21 03:45:03.76	341.83	29.27	-23.6	-24.5	19.4	0.00e+00	0	44	0	1290797056	7	4034
2026-01-21 03:45:04.76	341.55	29.38	-23.5	-24.4	19.4	0.00e+00	0	44	0	1297088512	7	4010
2026-01-21 03:45:05.77	341.28	29.48	-23.6	-24.7	19.3	0.00e+00	0	44	0	1302331392	7	4068
2026-01-21 03:45:06.77	341.00	29.59	-23.5	-24.5	19.4	0.00e+00	0	44	0	1308622848	7	4030
2026-01-21 03:45:07.78	340.72	29.70	-23.5	-24.5	19.4	0.00e+00	0	44	0	1313865728	7	4021
2026-01-21 03:45:08.78	340.44	29.81	-23.5	-24.5	19.4	0.00e+00	0	44	0	1320157184	7	4025
2026-01-21 03:45:09.78	340.16	29.92	-23.4	-24.2	19.5	0.00e+00	0	44	0	1325400064	7	3965
2026-01-21 03:45:10.78	339.87	30.02	-23.4	-24.2	19.6	0.00e+00	0	44	0	1330642944	7	3964
2026-01-21 03:45:11.79	339.59	30.13	-23.4	-24.3	19.5	0.00e+00	0	44	0	1336934400	7	3978
2026-01-21 03:45:12.79	339.30	30.24	-23.5	-24.4	19.4	0.00e+00	0	44	0	1342177280	7	4010
2026-01-21 03:45:13.79	339.01	30.34	-23.6	-24.6	19.4	0.00e+00	0	44	0	1347420160	7	4056
2026-01-21 03:45:14.79	338.72	30.45	-23.7	-24.9	19.2	0.00e+00	0	44	0	1353711616	7	4133
2026-01-21 03:45:15.79	338.43	30.55	-23.6	-24.6	19.4	0.00e+00	0	44	0	1358954496	7	4055
2026-01-21 03:45:16.80	338.13	30.66	-23.4	-24.3	18.2	0.00e+00	0	44	0	1364197376	7	3990
2026-01-21 03:45:17.80	337.83	30.76	-23.4	-24.3	19.4	0.00e+00	0	44	0	1370488832	7	3979
2026-01-21 03:45:18.80	337.53	30.86	-23.2	-23.8	19.8	1.14e-05	0	44	0	1375731712	7	3855
2026-01-21 03:45:19.81	337.23	30.97	-23.2	-24.3	19.8	0.00e+00	0	44	0	1382023168	6	4085
2026-01-21 03:45:20.82	336.92	31.07	-23.2	-24.2	19.8	3.08e-05	0	44	0	1387266048	6	4074
2026-01-21 03:45:21.83	336.61	31.17	-23.3	-24.5	19.7	0.00e+00	0	44	0	1393557504	6	4151
2026-01-21 03:45:22.83	336.31	31.27	-23.2	-24.3	19.7	0.00e+00	0	44	0	1398800384	6	4088
2026-01-21 03:45:23.83	336.00	31.38	-23.2	-24.4	19.7	0.00e+00	0	44	0	1404043264	6	4106
2026-01-21 03:45:24.83	335.69	31.48	-23.2	-24.3	19.8	0.00e+00	0	44	0	1410334720	6	4086
2026-01-21 03:45:25.84	335.37	31.58	-23.1	-24.2	19.9	2.07e-04	0	44	0	1415577600	6	4053
2026-01-21 03:45:26.85	335.06	31.67	-23.2	-24.3	19.8	0.00e+00	0	44	0	1420820480	6	4079
2026-01-21 03:45:27.85	334.74	31.77	-23.2	-24.4	19.7	5.32e-04	0	44	0	1427111936	6	4119
2026-01-21 03:45:28.85	334.42	31.87	-23.1	-24.1	19.9	0.00e+00	0	44	0	1432354816	6	4033
2026-01-21 03:45:29.86	334.10	31.97	-23.1	-24.0	19.9	3.44e-04	0	44	0	1437597696	6	4025
2026-01-21 03:45:30.86	333.78	32.06	-23.3	-24.5	19.7	3.57e-04	0	44	0	1443889152	6	4129
2026-01-21 03:45:31.87	333.45	32.16	-23.2	-24.4	19.8	1.94e-04	0	44	0	1449132032	6	4104
2026-01-21 03:45:32.86	333.13	32.25	-23.3	-24.6	19.7	7.28e-04	0	44	0	1455423488	6	4162
2026-01-21 03:45:33.86	332.80	32.35	-23.1	-24.1	19.9	0.00e+00	0	44	0	1460666368	6	4041
2026-01-21 03:45:34.87	332.46	32.44	-23.0	-23.9	20.0	2.38e-04	0	44	0	1466957824	6	3991
2026-01-21 03:45:35.87	332.13	32.53	-23.1	-24.1	19.9	8.33e-04	0	44	0	1472200704	6	4041
2026-01-21 03:45:36.88	331.80	32.62	-23.1	-24.2	19.9	8.01e-04	0	44	0	1477443584	6	4064
2026-01-21 03:45:37.88	331.46	32.71	-23.3	-24.5	19.7	1.32e-04	0	44	0	1483735040	6	4140
2026-01-21 03:45:38.88	331.12	32.80	-23.3	-24.5	19.7	7.98e-04	0	44	0	1488977920	6	4147
2026-01-21 03:45:39.89	330.78	32.89	-23.1	-24.1	19.9	9.75e-04	0	44	0	1494220800	6	4047
2026-01-21 03:45:40.89	330.44	32.98	-23.1	-24.1	19.9	0.00e+00	0	44	0	1500512256	6	4039
2026-01-21 03:45:41.90	330.09	33.07	-23.3	-24.5	19.7	1.07e-03	0	44	0	1505755136	6	4130
2026-01-21 03:45:42.90	329.75	33.15	-23.1	-24.2	19.8	1.10e-03	0	44	0	1510998016	6	4061
2026-01-21 03:45:43.90	329.40	33.24	-23.1	-24.0	19.9	6.86e-05	0	44	0	1517289472	6	4028
2026-01-21 03:45:44.91	329.05	33.32	-23.0	-23.8	20.0	1.11e-03	0	44	0	1522532352	6	3978
2026-01-21 03:45:45.91	328.70	33.41	-23.0	-24.0	20.0	1.13e-03	0	44	0	1528823808	6	4007
2026-01-21 03:45:46.91	328.35	33.49	-22.9	-23.8	20.1	0.00e+00	0	44	0	1534066688	6	3967
2026-01-21 03:45:47.91	327.99	33.57	-23.1	-24.2	19.9	0.00e+00	0	44	0	1540358144	6	4066
2026-01-21 03:45:48.91	327.64	33.65	-22.9	-23.8	20.1	9.77e-04	0	44	0	1545601024	6	3960
2026-01-21 03:45:49.92	327.28	33.73	-22.8	-23.4	20.3	0.00e+00	0	44	0	1550843904	6	3870
2026-01-21 03:45:50.92	326.92	33.81	-22.8	-23.4	20.2	1.07e-03	0	44	0	1557135360	6	3884
2026-01-21 03:45:51.92	326.56	33.88	-23.0	-23.9	20.0	1.07e-03	0	44	0	1562378240	6	3996
2026-01-21 03:45:52.92	326.19	33.96	-22.9	-23.7	20.1	0.00e+00	0	44	0	1567621120	6	3955
2026-01-21 03:45:53.93	325.82	34.03	-23.0	-24.0	20.0	9.25e-04	0	44	0	1573912576	6	4016
2026-01-21 03:45:54.93	325.46	34.11	-23.1	-24.0	19.9	0.00e+00	0	44	0	1579155456	6	4028
2026-01-21 03:45:55.93	325.09	34.18	-23.1	-24.0	19.9	1.14e-05	0	44	0	1584398336	6	4029
2026-01-21 03:45:56.94	324.72	34.25	-23.0	-23.9	20.0	0.00e+00	0	44	0	1590689792	6	3988
2026-01-21 03:45:57.94	324.35	34.32	-23.0	-24.0	20.0	5.01e-04	0	44	0	1595932672	6	4016
2026-01-21 03:45:58.94	323.97	34.39	-23.0	-23.9	20.0	2.40e-05	0	44	0	1602224128	6	3990
2026-01-21 03:45:59.95	323.60	34.46	-22.9	-23.6	20.2	0.00e+00	0	44	0	1607467008	6	3920
2026-01-21 03:46:00.95	323.22	34.52	-23.0	-23.9	20.0	7.40e-04	0	44	0	1612709888	6	3989
2026-01-21 03:46:01.95	322.84	34.59	-23.1	-24.1	19.9	0.00e+00	0	44	0	1619001344	6	4030
2026-01-21 03:46:02.96	322.46	34.65	-22.9	-23.8	20.1	8.06e-04	0	44	0	1624244224	6	3962
2026-01-21 03:46:03.96	322.08	34.71	-23.0	-23.8	20.1	0.00e+00	0	44	0	1629487104	6	3977
2026-01-21 03:46:04.96	321.70	34.78	-22.8	-23.6	20.2	0.00e+00	0	44	0	1635778560	6	3911
2026-01-21 03:46:05.96	321.31	34.84	-22.9	-24.1	20.2	7.08e-04	0	44	0	1641021440	5	4157
2026-01-21 03:46:06.97	320.93	34.89	-22.9	-24.3	20.1	0.00e+00	0	44	0	1647312896	5	4199
2026-01-21 03:46:07.97	320.54	34.95	-23.2	-24.3	19.8	1.37e-05	0	44	0	1652555776	6	4093
2026-01-21 03:46:08.98	320.15	35.01	-23.0	-23.9	20.0	0.00e+00	0	44	0	1657798656	6	4005
2026-01-21 03:46:09.98	319.76	35.06	-22.8	-23.5	20.2	0.00e+00	0	44	0	1664090112	6	3907
2026-01-21 03:46:10.98	319.37	35.11	-22.9	-23.7	20.1	0.00e+00	0	44	0	1669332992	6	3936
2026-01-21 03:46:11.99	318.98	35.16	-23.1	-24.1	19.9	0.00e+00	0	44	0	1675624448	6	4051
2026-01-21 03:46:12.98	318.59	35.21	-23.2	-24.3	19.8	0.00e+00	0	44	0	1680867328	6	4094
2026-01-21 03:46:13.99	318.19	35.26	-23.2	-24.3	19.8	0.00e+00	0	44	0	1686110208	6	4082
2026-01-21 03:46:15.00	317.79	35.31	-23.1	-24.2	19.9	0.00e+00	0	44	0	1692401664	6	4066
2026-01-21 03:46:16.00	317.40	35.35	-23.3	-24.6	19.6	0.00e+00	0	44	0	1697644544	6	4163
2026-01-21 03:46:17.00	317.00	35.40	-23.2	-24.3	19.8	0.00e+00	0	44	0	1702887424	6	4076
2026-01-21 03:46:18.00	316.60	35.44	-23.1	-24.2	19.8	0.00e+00	0	44	0	1709178880	6	4064
2026-01-21 03:46:19.01	316.20	35.48	-23.2	-24.3	19.8	0.00e+00	0	44	0	1714421760	6	4087
2026-01-21 03:46:20.01	315.80	35.52	-23.1	-24.1	19.9	0.00e+00	0	44	0	1720713216	6	4047
2026-01-21 03:46:21.01	315.40	35.56	-23.2	-24.3	19.8	0.00e+00	0	44	0	1725956096	6	4102
2026-01-21 03:46:22.01	314.99	35.59	-23.2	-24.2	19.8	0.00e+00	0	44	0	1731198976	6	4074
2026-01-21 03:46:23.01	314.59	35.63	-23.1	-24.1	19.9	0.00e+00	0	44	0	1737490432	6	4055
2026-01-21 03:46:24.01	314.19	35.66	-23.1	-24.1	19.9	0.00e+00	0	44	0	1742733312	6	4039
2026-01-21 03:46:25.01	313.78	35.69	-22.7	-23.3	20.3	0.00e+00	0	44	0	1747976192	6	3855
2026-01-21 03:46:26.02	313.37	35.72	-22.6	-23.7	20.4	0.00e+00	0	44	0	1754267648	5	4046
2026-01-21 03:46:27.02	312.97	35.75	-23.0	-24.3	20.1	0.00e+00	0	44	0	1759510528	5	4212
2026-01-21 03:46:28.02	312.56	35.78	-23.2	-24.2	19.9	0.00e+00	0	44	0	1765801984	6	4076
2026-01-21 03:46:29.03	312.15	35.80	-23.2	-24.4	19.8	0.00e+00	0	44	0	1771044864	6	4104
2026-01-21 03:46:30.03	311.74	35.83	-23.1	-24.1	19.9	0.00e+00	0	44	0	1776287744	6	4042
2026-01-21 03:46:31.04	311.33	35.85	-23.0	-23.9	20.0	0.00e+00	0	44	0	1782579200	6	4000
2026-01-21 03:46:32.04	310.92	35.87	-23.3	-24.5	19.8	0.00e+00	0	44	0	1787822080	6	4132
2026-01-21 03:46:33.04	310.51	35.88	-23.0	-23.9	20.1	0.00e+00	0	44	0	1794113536	6	3990
2026-01-21 03:46:34.04	310.10	35.90	-22.8	-23.6	20.2	0.00e+00	0	44	0	1799356416	6	3917
2026-01-21 03:46:35.04	309.69	35.92	-22.8	-23.4	20.3	0.00e+00	0	44	0	1804599296	6	3883
2026-01-21 03:46:36.04	309.28	35.93	-22.9	-23.7	20.1	0.00e+00	0	44	0	1810890752	6	3955
2026-01-21 03:46:37.05	308.86	35.94	-22.7	-23.4	20.3	0.00e+00	0	44	0	1816133632	6	3867
2026-01-21 03:46:38.04	308.46	35.95	-22.6	-23.1	20.5	0.00e+00	0	44	0	1821376512	6	3794
2026-01-21 03:46:39.04	308.04	35.96	-22.7	-23.8	20.3	0.00e+00	0	44	0	1827667968	5	4087
2026-01-21 03:46:40.05	307.63	35.97	-22.8	-24.1	20.2	0.00e+00	0	44	0	1832910848	5	4146
2026-01-21 03:46:41.05	307.22	35.97	-23.0	-24.4	20.0	0.00e+00	0	44	0	1838153728	5	4223
2026-01-21 03:46:42.06	306.80	35.97	-22.9	-24.1	20.2	0.00e+00	0	44	0	1844445184	5	4160
2026-01-21 03:46:43.07	306.38	35.97	-22.9	-24.1	20.2	0.00e+00	0	44	0	1849688064	5	4155
2026-01-21 03:46:44.07	305.97	35.97	-23.1	-24.1	19.9	0.00e+00	0	44	0	1855979520	6	4044
2026-01-21 03:46:45.07	305.56	35.97	-23.7	-24.8	19.3	0.00e+00	0	44	0	1861222400	7	4090
2026-01-21 03:46:46.08	305.14	35.97	-23.5	-24.4	19.6	0.00e+00	0	44	0	1867513856	7	3995
2026-01-21 03:46:47.08	304.73	35.96	-23.2	-23.9	19.8	0.00e+00	0	44	0	1872756736	7	3877
2026-01-21 03:46:48.08	304.32	35.96	-23.0	-23.5	20.0	0.00e+00	0	44	0	1877999616	7	3782
2026-01-21 03:46:49.09	303.90	35.95	-22.8	-23.5	20.2	0.00e+00	0	44	0	1884291072	6	3907
2026-01-21 03:46:50.09	303.49	35.94	-22.7	-23.3	20.3	0.00e+00	0	44	0	1889533952	6	3858
2026-01-21 03:46:51.09	303.08	35.92	-22.7	-23.8	20.3	0.00e+00	0	44	0	1894776832	5	4076
2026-01-21 03:46:52.09	302.67	35.91	-22.7	-23.8	20.3	0.00e+00	0	44	0	1901068288	5	4072
2026-01-21 03:46:53.10	302.26	35.89	-22.7	-23.8	20.3	0.00e+00	0	44	0	1906311168	5	4087
2026-01-21 03:46:54.10	301.85	35.88	-23.0	-24.0	20.0	0.00e+00	0	44	0	1911554048	6	4007
2026-01-21 03:46:55.10	301.44	35.86	-22.8	-23.5	20.3	0.00e+00	0	44	0	1917845504	6	3887
2026-01-21 03:46:56.10	301.03	35.84	-22.7	-23.2	20.3	0.00e+00	0	44	0	1923088384	6	3839
2026-01-21 03:46:57.11	300.62	35.82	-22.7	-23.2	20.3	0.00e+00	0	44	0	1929379840	6	3835
2026-01-21 03:46:58.11	300.21	35.79	-22.5	-23.4	20.5	2.40e-05	0	44	0	1934622720	5	3983
2026-01-21 03:46:59.11	299.80	35.77	-22.5	-23.3	16.5	0.00e+00	0	44	0	1939865600	5	3951
2026-01-21 03:47:00.12	299.39	35.74	-22.7	-23.8	20.3	3.43e-04	0	44	0	1946157056	5	4069
2026-01-21 03:47:01.12	298.98	35.71	-22.8	-23.9	20.3	0.00e+00	0	44	0	1951399936	5	4101
2026-01-21 03:47:02.12	298.58	35.68	-23.0	-24.0	20.0	0.00e+00	0	44	0	1957691392	6	4007
2026-01-21 03:47:03.13	298.17	35.65	-23.0	-23.9	20.0	0.00e+00	0	44	0	1962934272	6	3991
2026-01-21 03:47:04.13	297.77	35.61	-23.1	-24.0	20.0	0.00e+00	0	44	0	1968177152	6	4027
2026-01-21 03:47:05.13	297.36	35.58	-23.2	-24.3	19.8	7.29e-04	0	44	0	1974468608	6	4099
2026-01-21 03:47:06.12	296.96	35.54	-23.1	-24.2	19.9	0.00e+00	0	44	0	1979711488	6	4054
2026-01-21 03:47:07.13	296.56	35.50	-23.3	-24.5	19.8	0.00e+00	0	44	0	1984954368	6	4129
2026-01-21 03:47:08.13	296.16	35.46	-23.1	-24.2	19.9	0.00e+00	0	44	0	1991245824	6	4056
2026-01-21 03:47:09.13	295.76	35.42	-23.0	-23.9	20.0	0.00e+00	0	44	0	1996488704	6	3988
2026-01-21 03:47:10.13	295.36	35.38	-23.0	-23.8	20.1	7.32e-05	0	44	0	2002780160	6	3968
2026-01-21 03:47:11.13	294.97	35.34	-22.8	-23.4	20.3	0.00e+00	0	44	0	2008023040	6	3879
2026-01-21 03:47:12.14	294.57	35.29	-22.9	-23.6	20.2	7.38e-04	0	44	0	2013265920	6	3932
2026-01-21 03:47:13.14	294.17	35.24	-22.7	-23.2	20.4	0.00e+00	0	44	0	2019557376	6	3826
2026-01-21 03:47:14.14	293.78	35.19	-22.5	-23.4	20.5	7.59e-04	0	44	0	2024800256	5	3977
2026-01-21 03:47:15.14	293.38	35.14	-22.5	-23.4	20.5	1.04e-03	0	44	0	2030043136	5	3983
2026-01-21 03:47:16.15	292.99	35.09	-22.5	-23.4	20.5	0.00e+00	0	44	0	2036334592	5	3997
2026-01-21 03:47:17.16	292.60	35.04	-22.8	-23.9	20.3	1.17e-03	0	44	0	2041577472	5	4102
2026-01-21 03:47:18.16	292.21	34.98	-22.9	-24.2	20.1	0.00e+00	0	44	0	2047868928	5	4173
2026-01-21 03:47:19.17	291.82	34.93	-23.0	-24.4	20.0	6.98e-05	0	44	0	2053111808	5	4218
2026-01-21 03:47:20.17	291.43	34.87	-23.3	-24.5	19.7	0.00e+00	0	44	0	2058354688	6	4131
2026-01-21 03:47:21.17	291.05	34.81	-23.5	-24.5	19.5	1.24e-03	0	44	0	2064646144	7	4024
2026-01-21 03:47:22.17	290.66	34.75	-23.1	-23.7	19.9	1.36e-04	0	44	0	2069889024	7	3840
2026-01-21 03:47:23.17	290.28	34.69	-22.8	-23.4	20.2	1.00e-03	0	44	0	2076180480	6	3879
2026-01-21 03:47:24.18	289.90	34.62	-22.6	-23.5	20.4	1.07e-03	0	44	0	2081423360	5	4004
2026-01-21 03:47:25.17	289.52	34.56	-22.4	-23.2	20.6	0.00e+00	0	44	0	2086666240	5	3932
2026-01-21 03:47:26.18	289.14	34.50	-22.4	-23.2	20.6	9.10e-04	0	44	0	2092957696	5	3930
2026-01-21 03:47:27.18	288.76	34.43	-22.5	-23.4	20.5	8.04e-04	0	44	0	2098200576	5	3992
2026-01-21 03:47:28.19	288.39	34.36	-22.5	-23.5	20.4	0.00e+00	0	44	0	2103443456	5	4002
2026-01-21 03:47:29.19	288.01	34.29	-22.7	-23.7	20.3	6.79e-04	0	44	0	2109734912	5	4063
2026-01-21 03:47:30.19	287.64	34.22	-22.7	-23.7	20.3	6.48e-04	0	44	0	2114977792	5	4058
2026-01-21 03:47:31.19	287.27	34.15	-22.7	-23.8	20.2	0.00e+00	0	44	0	2120220672	5	4091
2026-01-21 03:47:32.19	286.91	34.08	-23.0	-24.3	20.0	0.00e+00	0	44	0	2126512128	5	4214
2026-01-21 03:47:33.20	286.54	34.00	-23.2	-24.3	19.8	2.55e-04	0	44	0	2131755008	6	4097
2026-01-21 03:47:34.20	286.17	33.93	-23.3	-24.6	19.6	0.00e+00	0	44	0	2138046464	6	4168
2026-01-21 03:47:35.21	285.80	33.85	-23.5	-24.5	19.4	3.91e-04	0	44	0	2143289344	7	4024
2026-01-21 03:47:36.21	285.44	33.77	-23.3	-24.0	19.7	5.93e-04	0	44	0	2148532224	7	3912
2026-01-21 03:47:37.21	285.08	33.69	-23.3	-24.1	19.6	0.00e+00	0	44	0	2154823680	7	3926
2026-01-21 03:47:38.21	284.73	33.61	-23.4	-24.1	19.6	6.95e-04	0	44	0	2160066560	7	3938
2026-01-21 03:47:39.22	284.37	33.53	-23.2	-24.2	19.8	0.00e+00	0	44	0	2166358016	6	4072
2026-01-21 03:47:40.23	284.01	33.45	-23.3	-24.6	19.6	0.00e+00	0	44	0	2171600896	6	4166
2026-01-21 03:47:41.23	283.66	33.37	-23.1	-24.0	19.9	0.00e+00	0	44	0	2176843776	6	4021
2026-01-21 03:47:42.23	283.31	33.28	-22.9	-23.8	20.1	2.63e-04	0	44	0	2183135232	6	3961
2026-01-21 03:47:43.23	282.96	33.20	-23.0	-23.8	20.0	0.00e+00	0	44	0	2188378112	6	3979
2026-01-21 03:47:44.23	282.61	33.11	-23.1	-24.0	19.9	0.00e+00	0	44	0	2193620992	6	4020
2026-01-21 03:47:45.23	282.27	33.03	-22.9	-23.8	20.0	6.66e-04	0	44	0	2199912448	6	3965
2026-01-21 03:47:46.24	281.92	32.94	-22.9	-23.7	20.0	0.00e+00	0	44	0	2205155328	6	3953
2026-01-21 03:47:47.25	281.58	32.85	-23.0	-23.9	20.0	1.31e-03	0	44	0	2211446784	6	3998
2026-01-21 03:47:48.24	281.24	32.76	-23.1	-24.0	19.9	0.00e+00	0	44	0	2216689664	6	4026
2026-01-21 03:47:49.25	280.90	32.67	-22.8	-23.4	20.2	0.00e+00	0	44	0	2221932544	6	3883
2026-01-21 03:47:50.25	280.56	32.58	-22.7	-23.3	20.2	0.00e+00	0	44	0	2228224000	6	3858
2026-01-21 03:47:51.26	280.23	32.49	-22.9	-23.8	20.0	0.00e+00	0	44	0	2233466880	6	3971
2026-01-21 03:47:52.27	279.89	32.39	-23.1	-24.0	19.9	0.00e+00	0	44	0	2239758336	6	4029
2026-01-21 03:47:53.27	279.56	32.30	-23.0	-23.9	20.0	0.00e+00	0	44	0	2245001216	6	3990
2026-01-21 03:47:54.28	279.23	32.21	-22.8	-23.5	20.2	7.43e-04	0	44	0	2250244096	6	3888
2026-01-21 03:47:55.28	278.90	32.11	-22.9	-23.7	20.1	0.00e+00	0	44	0	2256535552	6	3938
2026-01-21 03:47:56.28	278.58	32.01	-23.1	-24.1	19.8	0.00e+00	0	44	0	2261778432	6	4052
2026-01-21 03:47:57.28	278.26	31.92	-23.2	-24.2	19.8	0.00e+00	0	44	0	2267021312	6	4076
2026-01-21 03:47:58.28	277.94	31.82	-23.3	-24.6	19.6	0.00e+00	0	44	0	2273312768	6	4159
2026-01-21 03:47:59.28	277.62	31.72	-23.2	-24.2	19.8	0.00e+00	0	44	0	2278555648	6	4074
2026-01-21 03:48:00.29	277.30	31.62	-23.2	-24.4	19.7	0.00e+00	0	44	0	2284847104	6	4105
2026-01-21 03:48:01.29	276.98	31.52	-23.4	-24.8	19.5	0.00e+00	0	44	0	2290089984	6	4216
2026-01-21 03:48:02.29	276.67	31.42	-23.4	-24.7	19.5	0.00e+00	0	44	0	2295332864	6	4186
2026-01-21 03:48:03.30	276.36	31.32	-23.5	-24.9	19.4	0.00e+00	0	44	0	2301624320	6	4245
2026-01-21 03:48:04.30	276.05	31.22	-23.8	-25.0	19.1	0.00e+00	0	44	0	2306867200	7	4148
2026-01-21 03:48:05.31	275.74	31.12	-24.1	-25.3	18.8	0.00e+00	0	44	0	2312110080	8	4105
2026-01-21 03:48:06.31	275.43	31.02	-24.5	-25.6	18.3	0.00e+00	0	44	0	2318401536	9	4069
2026-01-21 03:48:07.32	275.13	30.91	-24.4	-25.4	18.4	0.00e+00	0	44	0	2323644416	9	4018
2026-01-21 03:48:08.33	274.82	30.81	-24.2	-24.9	18.7	0.00e+00	0	44	0	2329935872	9	3906
2026-01-21 03:48:09.33	274.53	30.71	-24.0	-25.1	18.8	0.00e+00	0	44	0	2335178752	8	4055
2026-01-21 03:48:10.34	274.23	30.60	-24.1	-25.1	18.8	0.00e+00	0	44	0	2340421632	8	4072
2026-01-21 03:48:11.34	273.93	30.50	-24.0	-24.9	18.9	0.00e+00	0	44	0	2346713088	8	4018
2026-01-21 03:48:12.34	273.64	30.39	-24.2	-25.3	18.7	0.00e+00	0	44	0	2351955968	8	4124
2026-01-21 03:48:13.35	273.34	30.28	-24.3	-25.1	18.6	0.00e+00	0	44	0	2358247424	9	3951
2026-01-21 03:48:14.35	273.05	30.18	-23.8	-24.2	19.0	0.00e+00	0	44	0	2363490304	9	3736
2026-01-21 03:48:15.35	272.77	30.07	-23.4	-23.8	19.5	0.00e+00	0	44	0	2368733184	8	3761
2026-01-21 03:48:16.35	272.48	29.96	-23.3	-23.5	19.6	0.00e+00	0	44	0	2375024640	8	3691
2026-01-21 03:48:17.36	272.19	29.86	-23.2	-23.8	19.7	0.00e+00	0	44	0	2380267520	7	3856
2026-01-21 03:48:18.37	271.91	29.75	-23.3	-24.6	19.5	0.00e+00	0	44	0	2386558976	6	4169
2026-01-21 03:48:19.37	271.63	29.64	-23.4	-24.9	19.4	0.00e+00	0	44	0	2391801856	6	4233
2026-01-21 03:48:20.37	271.35	29.53	-23.3	-24.6	19.5	0.00e+00	0	44	0	2397044736	6	4175
2026-01-21 03:48:21.37	271.08	29.42	-23.4	-24.7	19.5	0.00e+00	0	44	0	2403336192	6	4195
2026-01-21 03:48:22.37	270.80	29.31	-23.4	-24.3	19.4	0.00e+00	0	44	0	2408579072	7	3970
2026-01-21 03:48:23.38	270.53	29.20	-23.4	-24.3	19.4	0.00e+00	0	44	0	2413821952	7	3981
2026-01-21 03:48:24.39	270.25	29.09	-23.5	-24.4	19.3	0.00e+00	0	44	0	2420113408	7	4009
2026-01-21 03:48:25.40	269.98	28.98	-23.5	-24.4	19.3	0.00e+00	0	44	0	2425356288	7	4003
2026-01-21 03:48:26.40	269.72	28.87	-23.5	-24.6	19.3	0.00e+00	0	44	0	2431647744	7	4043
2026-01-21 03:48:27.40	269.45	28.76	-23.2	-23.8	19.7	0.00e+00	0	44	0	2436890624	7	3870
2026-01-21 03:48:28.41	269.18	28.65	-23.0	-23.4	19.9	0.00e+00	0	44	0	2442133504	7	3763
2026-01-21 03:48:29.41	268.92	28.54	-23.0	-23.9	19.8	0.00e+00	0	44	0	2448424960	6	4001
2026-01-21 03:48:30.41	268.66	28.43	-23.1	-24.1	19.7	0.00e+00	0	44	0	2453667840	6	4046
2026-01-21 03:48:31.41	268.41	28.31	-23.1	-24.1	19.7	0.00e+00	0	44	0	2458910720	6	4055
2026-01-21 03:48:32.41	268.15	28.20	-23.1	-24.1	19.7	0.00e+00	0	44	0	2465202176	6	4049
2026-01-21 03:48:33.42	267.89	28.09	-23.1	-24.0	19.8	0.00e+00	0	44	0	2470445056	6	4025
2026-01-21 03:48:34.41	267.64	27.98	-23.2	-24.2	19.7	0.00e+00	0	44	0	2476736512	6	4077
2026-01-21 03:48:35.41	267.39	27.87	-23.3	-24.5	19.5	0.00e+00	0	44	0	2481979392	6	4133
2026-01-21 03:48:36.41	267.15	27.75	-23.4	-24.6	19.5	0.00e+00	0	44	0	2487222272	6	4179
2026-01-21 03:48:37.41	266.90	27.64	-23.4	-24.7	19.4	0.00e+00	0	44	0	2493513728	6	4188
2026-01-21 03:48:38.41	266.65	27.53	-23.5	-24.4	19.3	0.00e+00	0	44	0	2498756608	7	4003
2026-01-21 03:48:39.41	266.41	27.42	-23.4	-24.3	19.3	0.00e+00	0	44	0	2505048064	7	3980
2026-01-21 03:48:40.42	266.17	27.30	-23.4	-24.3	16.9	0.00e+00	0	44	0	2510290944	7	3987
2026-01-21 03:48:41.43	265.92	27.19	-23.5	-24.5	18.2	0.00e+00	0	44	0	2515533824	7	4019
2026-01-21 03:48:42.43	265.68	27.08	-23.6	-24.6	19.2	0.00e+00	0	44	0	2521825280	7	4055
2026-01-21 03:48:43.43	265.45	26.96	-23.5	-24.4	19.3	0.00e+00	0	44	0	2527068160	7	4011
2026-01-21 03:48:44.44	265.21	26.85	-23.6	-24.7	19.1	1.88e-04	0	44	0	2532311040	7	4078
2026-01-21 03:48:45.43	264.98	26.74	-23.6	-24.6	19.2	0.00e+00	0	44	0	2538602496	7	4055
2026-01-21 03:48:46.43	264.75	26.62	-23.4	-24.1	19.4	0.00e+00	0	44	0	2543845376	7	3942
2026-01-21 03:48:47.43	264.52	26.51	-23.4	-24.2	19.4	0.00e+00	0	44	0	2549088256	7	3945
2026-01-21 03:48:48.43	264.29	26.40	-23.6	-24.6	19.2	0.00e+00	0	44	0	2555379712	7	4061
2026-01-21 03:48:49.43	264.06	26.28	-23.8	-25.1	19.0	0.00e+00	0	44	0	2560622592	7	4167
2026-01-21 03:48:50.43	263.84	26.17	-24.1	-25.2	18.6	0.00e+00	0	44	0	2566914048	8	4102
2026-01-21 03:48:51.44	263.61	26.06	-24.2	-25.3	18.6	0.00e+00	0	44	0	2572156928	8	4124
2026-01-21 03:48:52.44	263.39	25.94	-23.9	-24.8	18.9	0.00e+00	0	44	0	2577399808	8	3999
2026-01-21 03:48:53.44	263.17	25.83	-23.9	-24.9	18.8	6.82e-04	0	44	0	2583691264	8	4010
2026-01-21 03:48:54.45	262.95	25.71	-23.8	-24.7	18.9	0.00e+00	0	44	0	2588934144	8	3965
2026-01-21 03:48:55.45	262.73	25.60	-23.7	-24.4	19.0	0.00e+00	0	44	0	2594177024	8	3897
2026-01-21 03:48:56.45	262.52	25.49	-23.8	-24.6	19.0	2.17e-04	0	44	0	2600468480	8	3937
2026-01-21 03:48:57.45	262.30	25.37	-23.8	-24.6	18.9	0.00e+00	0	44	0	2605711360	8	3949
2026-01-21 03:48:58.46	262.09	25.26	-23.8	-25.0	19.0	6.73e-04	0	44	0	2610954240	7	4159
2026-01-21 03:48:59.46	261.88	25.15	-23.8	-25.2	18.9	0.00e+00	0	44	0	2617245696	7	4196
2026-01-21 03:49:00.45	261.67	25.04	-23.8	-25.0	19.0	0.00e+00	0	44	0	2622488576	7	4148
2026-01-21 03:49:01.46	261.46	24.92	-24.0	-25.0	18.7	9.80e-04	0	44	0	2628780032	8	4057
2026-01-21 03:49:02.47	261.25	24.81	-24.1	-25.3	18.6	1.03e-03	0	44	0	2634022912	8	4102
2026-01-21 03:49:03.47	261.05	24.69	-24.1	-25.3	18.6	0.00e+00	0	44	0	2640314368	8	4114
2026-01-21 03:49:04.46	260.85	24.58	-24.1	-25.2	18.6	0.00e+00	0	44	0	2645557248	8	4096
2026-01-21 03:49:05.47	260.64	24.47	-24.0	-25.0	18.7	1.02e-03	0	44	0	2650800128	8	4031
2026-01-21 03:49:06.47	260.44	24.36	-23.9	-24.9	18.8	0.00e+00	0	44	0	2657091584	8	4016
2026-01-21 03:49:07.47	260.24	24.24	-24.0	-25.1	18.7	1.07e-03	0	44	0	2662334464	8	4056
2026-01-21 03:49:08.47	260.05	24.13	-24.1	-25.1	18.6	1.18e-03	0	44	0	2667577344	8	4075
2026-01-21 03:49:09.48	259.85	24.02	-24.1	-25.3	18.6	2.10e-04	0	44	0	2673868800	8	4109
2026-01-21 03:49:10.49	259.65	23.91	-24.3	-25.6	18.4	1.31e-03	0	44	0	2679111680	8	4185
2026-01-21 03:49:11.49	259.46	23.79	-24.3	-25.8	18.3	0.00e+00	0	44	0	2684354560	8	4235
2026-01-21 03:49:12.50	259.26	23.68	-24.3	-25.7	18.3	3.05e-04	0	44	0	2690646016	8	4223
2026-01-21 03:49:13.50	259.07	23.57	-24.4	-25.8	18.3	1.46e-03	0	44	0	2695888896	8	4257
2026-01-21 03:49:14.51	258.88	23.46	-24.3	-25.2	18.3	1.29e-03	0	44	0	2702180352	9	3984
2026-01-21 03:49:15.51	258.70	23.34	-24.1	-24.8	18.5	1.56e-04	0	44	0	2707423232	9	3880
2026-01-21 03:49:16.52	258.51	23.23	-24.1	-25.2	18.6	9.83e-04	0	44	0	2713714688	8	4081
2026-01-21 03:49:17.53	258.32	23.12	-24.0	-25.0	18.7	6.74e-04	0	44	0	2718957568	8	4033
2026-01-21 03:49:18.53	258.14	23.01	-24.0	-24.9	18.8	0.00e+00	0	44	0	2724200448	8	4019
2026-01-21 03:49:19.53	257.95	22.90	-23.9	-24.7	18.8	1.53e-04	0	44	0	2730491904	8	3970
2026-01-21 03:49:20.53	257.77	22.79	-23.9	-24.7	18.8	0.00e+00	0	44	0	2735734784	8	3974
2026-01-21 03:49:21.54	257.59	22.68	-23.9	-24.8	18.8	0.00e+00	0	44	0	2740977664	8	3984
2026-01-21 03:49:22.54	257.41	22.57	-23.8	-24.6	18.9	1.41e-03	0	44	0	2747269120	8	3947
2026-01-21 03:49:23.55	257.23	22.45	-23.9	-24.8	18.8	0.00e+00	0	44	0	2752512000	8	3987
2026-01-21 03:49:24.55	257.06	22.34	-23.9	-24.7	18.8	1.15e-04	0	44	0	2758803456	8	3976
2026-01-21 03:49:25.55	256.88	22.23	-23.9	-25.3	18.7	0.00e+00	0	44	0	2764046336	7	4243
2026-01-21 03:49:26.56	256.71	22.12	-24.0	-25.1	18.6	1.57e-03	0	44	0	2769289216	8	4069
2026-01-21 03:49:27.56	256.54	22.01	-24.0	-25.0	18.6	0.00e+00	0	44	0	2775580672	8	4037
2026-01-21 03:49:28.56	256.36	21.90	-24.0	-25.0	18.6	1.36e-03	0	44	0	2780823552	8	4038
2026-01-21 03:49:29.57	256.19	21.79	-24.0	-25.0	18.6	0.00e+00	0	44	0	2787115008	8	4043
2026-01-21 03:49:30.57	256.02	21.69	-24.1	-25.2	18.5	0.00e+00	0	44	0	2792357888	8	4096
2026-01-21 03:49:31.58	255.86	21.58	-24.2	-25.4	18.4	6.42e-04	0	44	0	2797600768	8	4153
2026-01-21 03:49:32.58	255.69	21.47	-24.1	-25.2	18.5	0.00e+00	0	44	0	2803892224	8	4095
2026-01-21 03:49:33.59	255.52	21.36	-24.2	-25.5	18.3	9.10e-06	0	44	0	2809135104	8	4167
2026-01-21 03:49:34.59	255.36	21.25	-24.2	-25.4	18.4	0.00e+00	0	44	0	2814377984	8	4153
2026-01-21 03:49:35.60	255.19	21.14	-24.1	-25.2	18.5	0.00e+00	0	44	0	2820669440	8	4085
2026-01-21 03:49:36.60	255.03	21.03	-24.0	-25.1	18.6	0.00e+00	0	44	0	2825912320	8	4057
2026-01-21 03:49:37.60	254.87	20.93	-24.0	-25.1	18.5	0.00e+00	0	44	0	2832203776	8	4073
2026-01-21 03:49:38.60	254.71	20.82	-24.1	-25.2	18.5	0.00e+00	0	44	0	2837446656	8	4095
2026-01-21 03:49:39.60	254.56	20.71	-24.1	-25.2	18.5	0.00e+00	0	44	0	2842689536	8	4092
2026-01-21 03:49:40.60	254.40	20.61	-24.1	-25.2	18.4	0.00e+00	0	44	0	2848980992	8	4094
2026-01-21 03:49:41.60	254.24	20.50	-24.1	-25.3	18.4	0.00e+00	0	44	0	2854223872	8	4126
2026-01-21 03:49:42.60	254.09	20.39	-24.2	-25.4	18.4	0.00e+00	0	44	0	2859466752	8	4134
2026-01-21 03:49:43.60	253.93	20.29	-24.1	-25.3	18.4	0.00e+00	0	44	0	2865758208	8	4113
2026-01-21 03:49:44.61	253.78	20.18	-24.2	-25.4	18.4	0.00e+00	0	44	0	2871001088	8	4143
2026-01-21 03:49:45.61	253.63	20.08	-24.2	-25.3	18.4	0.00e+00	0	44	0	2877292544	8	4131
2026-01-21 03:49:46.62	253.48	19.97	-24.2	-25.4	18.4	0.00e+00	0	44	0	2882535424	8	4149
2026-01-21 03:49:47.62	253.33	19.86	-24.2	-25.4	18.3	0.00e+00	0	44	0	2887778304	8	4156
2026-01-21 03:49:48.63	253.18	19.76	-24.3	-25.6	18.2	0.00e+00	0	45	0	2894069760	8	4196
2026-01-21 03:49:49.63	253.03	19.65	-24.3	-25.7	18.2	0.00e+00	0	44	0	2899312640	8	4231
2026-01-21 03:49:50.62	252.88	19.55	-24.4	-25.9	18.1	1.10e-06	0	44	0	2905604096	8	4266
2026-01-21 03:49:51.63	252.74	19.44	-24.4	-25.9	18.1	0.00e+00	0	44	0	2910846976	8	4270
2026-01-21 03:49:52.63	252.59	19.34	-24.4	-25.9	18.0	0.00e+00	0	44	0	2916089856	8	4279
2026-01-21 03:49:53.64	252.45	19.24	-24.5	-25.6	18.0	0.00e+00	0	44	0	2922381312	9	4087
2026-01-21 03:49:54.64	252.31	19.13	-24.7	-26.1	17.7	0.00e+00	0	44	0	2927624192	9	4211
2026-01-21 03:49:55.63	252.17	19.03	-24.7	-26.1	17.7	0.00e+00	0	44	0	2932867072	9	4209
2026-01-21 03:49:56.63	252.02	18.93	-24.6	-25.8	17.8	0.00e+00	0	44	0	2939158528	9	4134
2026-01-21 03:49:57.63	251.89	18.83	-24.6	-25.7	17.9	0.00e+00	0	44	0	2944401408	9	4116
2026-01-21 03:49:58.63	251.75	18.72	-24.6	-25.8	17.8	0.00e+00	0	44	0	2949644288	9	4134
2026-01-21 03:49:59.63	251.61	18.62	-24.6	-25.9	17.8	1.10e-06	0	44	0	2955935744	9	4159
2026-01-21 03:50:00.64	251.47	18.52	-24.7	-25.9	17.8	0.00e+00	0	44	0	2961178624	9	4170
2026-01-21 03:50:01.64	251.34	18.42	-24.7	-25.9	17.7	0.00e+00	0	44	0	2967470080	9	4171
2026-01-21 03:50:02.65	251.20	18.31	-24.7	-26.0	17.7	5.70e-06	0	44	0	2972712960	9	4191
2026-01-21 03:50:03.65	251.07	18.21	-24.7	-26.0	17.7	0.00e+00	0	44	0	2977955840	9	4180
2026-01-21 03:50:04.66	250.93	18.11	-24.8	-26.1	17.6	0.00e+00	0	44	0	2984247296	9	4226
2026-01-21 03:50:05.66	250.80	18.01	-24.8	-26.2	17.6	0.00e+00	0	44	0	2989490176	9	4246
2026-01-21 03:50:06.67	250.67	17.91	-24.8	-26.2	17.6	0.00e+00	0	44	0	2995781632	9	4246
2026-01-21 03:50:07.68	250.53	17.81	-25.1	-26.3	17.3	0.00e+00	0	44	0	3001024512	10	4147
2026-01-21 03:50:08.68	250.40	17.71	-25.4	-26.9	16.9	0.00e+00	0	44	0	3006267392	10	4316
2026-01-21 03:50:09.69	250.28	17.61	-25.3	-26.8	17.0	0.00e+00	0	44	0	3012558848	10	4287
2026-01-21 03:50:10.69	250.15	17.51	-25.6	-27.0	16.6	0.00e+00	0	44	0	3017801728	11	4223
2026-01-21 03:50:11.69	250.02	17.41	-25.5	-26.8	16.8	0.00e+00	0	44	0	3023044608	11	4157
2026-01-21 03:50:12.69	249.89	17.31	-25.4	-26.4	16.9	0.00e+00	0	44	0	3029336064	11	4075
2026-01-21 03:50:13.69	249.77	17.21	-25.3	-26.8	17.0	0.00e+00	0	44	0	3034578944	10	4293
2026-01-21 03:50:14.70	249.64	17.11	-25.3	-26.8	17.0	0.00e+00	0	44	0	3040870400	10	4290
2026-01-21 03:50:15.70	249.52	17.01	-25.4	-27.0	16.9	0.00e+00	0	44	0	3046113280	10	4324
2026-01-21 03:50:16.70	249.40	16.92	-25.4	-26.9	16.9	0.00e+00	0	44	0	3051356160	10	4318
2026-01-21 03:50:17.70	249.28	16.82	-25.5	-27.2	16.8	0.00e+00	0	44	0	3057647616	10	4375
2026-01-21 03:50:18.70	249.15	16.72	-25.5	-26.6	16.8	0.00e+00	0	44	0	3062890496	11	4115
2026-01-21 03:50:19.71	249.03	16.62	-25.5	-26.7	16.8	0.00e+00	0	44	0	3068133376	11	4135
2026-01-21 03:50:20.71	248.91	16.53	-25.6	-26.9	16.6	0.00e+00	0	44	0	3074424832	11	4189
2026-01-21 03:50:21.72	248.79	16.43	-25.6	-26.8	16.6	0.00e+00	0	44	0	3079667712	11	4177
2026-01-21 03:50:22.72	248.68	16.33	-24.8	-25.9	16.2	0.00e+00	0	44	0	3085959168	11	4081
2026-01-21 03:50:23.73	248.56	16.24	-25.6	-26.9	15.5	1.49e-04	0	44	0	3091202048	11	4204
2026-01-21 03:50:24.73	248.44	16.14	-25.6	-27.1	13.8	0.00e+00	0	44	0	3096444928	11	4234
2026-01-21 03:50:25.73	248.32	16.04	-25.8	-27.3	16.0	0.00e+00	0	44	0	3102736384	11	4315
2026-01-21 03:50:26.73	248.21	15.95	-25.7	-27.2	16.4	0.00e+00	0	44	0	3107979264	11	4287
2026-01-21 03:50:27.74	248.09	15.85	-25.7	-27.1	16.5	0.00e+00	0	44	0	3114270720	11	4246
2026-01-21 03:50:28.75	247.98	15.76	-25.7	-27.1	16.5	0.00e+00	0	44	0	3119513600	11	4246
2026-01-21 03:50:29.74	247.87	15.66	-25.7	-27.2	16.4	0.00e+00	0	44	0	3124756480	11	4281
2026-01-21 03:50:30.75	247.76	15.57	-25.6	-27.1	16.5	1.51e-03	0	44	0	3131047936	11	4244
2026-01-21 03:50:31.75	247.64	15.47	-25.7	-27.1	16.5	0.00e+00	0	44	0	3136290816	11	4256
2026-01-21 03:50:32.76	247.53	15.38	-25.7	-27.1	16.5	0.00e+00	0	44	0	3141533696	11	4234
2026-01-21 03:50:33.76	247.42	15.29	-25.7	-27.1	16.5	0.00e+00	0	44	0	3147825152	11	4259
2026-01-21 03:50:34.77	247.31	15.19	-25.7	-27.1	16.5	0.00e+00	0	44	0	3153068032	11	4244
2026-01-21 03:50:35.77	247.20	15.10	-25.7	-27.1	16.5	3.54e-04	0	44	0	3159359488	11	4259
2026-01-21 03:50:36.78	247.10	15.01	-25.7	-27.3	16.4	0.00e+00	0	44	0	3164602368	11	4293
2026-01-21 03:50:37.79	246.99	14.91	-25.8	-27.4	16.3	1.91e-03	0	44	0	3169845248	11	4324
2026-01-21 03:50:38.79	246.88	14.82	-25.9	-27.6	16.2	0.00e+00	0	44	0	3176136704	11	4383
2026-01-21 03:50:39.80	246.77	14.73	-25.9	-27.5	16.2	1.80e-03	0	44	0	3181379584	11	4373
2026-01-21 03:50:40.80	246.67	14.64	-26.0	-27.8	16.1	6.84e-04	0	44	0	3187671040	11	4441
2026-01-21 03:50:41.80	246.56	14.54	-25.9	-27.6	16.2	0.00e+00	0	44	0	3192913920	11	4385
2026-01-21 03:50:42.81	246.46	14.45	-25.8	-27.4	16.2	1.83e-03	0	44	0	3199205376	11	4345
2026-01-21 03:50:43.82	246.36	14.36	-25.9	-27.6	16.1	1.72e-03	0	44	0	3204448256	11	4397
2026-01-21 03:50:44.82	246.25	14.27	-26.0	-27.8	16.0	2.91e-04	0	44	0	3209691136	11	4439
2026-01-21 03:50:45.82	246.15	14.18	-25.9	-27.6	16.1	0.00e+00	0	44	0	3215982592	11	4397
2026-01-21 03:50:46.82	246.05	14.09	-25.9	-27.6	16.1	1.46e-03	0	44	0	3221225472	11	4400
2026-01-21 03:50:47.83	245.95	14.00	-25.9	-27.7	16.1	2.72e-04	0	44	0	3226468352	11	4415
2026-01-21 03:50:48.83	245.85	13.91	-25.9	-27.7	16.1	1.47e-03	0	44	0	3232759808	11	4422
2026-01-21 03:50:49.84	245.75	13.82	-25.9	-27.2	16.0	1.57e-03	0	44	0	3238002688	12	4173
2026-01-21 03:50:50.85	245.65	13.73	-26.1	-27.6	15.8	2.63e-05	0	44	0	3243245568	12	4279
2026-01-21 03:50:51.85	245.55	13.64	-26.0	-27.4	15.9	1.62e-03	0	44	0	3249537024	12	4233
2026-01-21 03:50:52.86	245.45	13.55	-26.1	-27.7	15.7	1.54e-03	0	44	0	3254779904	12	4302
2026-01-21 03:50:53.86	245.36	13.46	-26.1	-27.6	15.7	1.80e-04	0	44	0	3261071360	12	4285
2026-01-21 03:50:54.86	245.26	13.37	-26.0	-27.4	15.9	1.73e-03	0	44	0	3266314240	12	4225
2026-01-21 03:50:55.88	245.16	13.28	-26.0	-27.5	15.8	1.72e-03	0	44	0	3272605696	12	4249
2026-01-21 03:50:56.88	245.07	13.19	-26.1	-27.6	15.8	3.57e-04	0	44	0	3277848576	12	4272
2026-01-21 03:50:57.88	244.97	13.11	-26.1	-27.6	15.7	1.72e-03	0	44	0	3283091456	12	4275
2026-01-21 03:50:58.89	244.88	13.02	-26.2	-27.9	15.5	1.99e-03	0	44	0	3289382912	12	4373
2026-01-21 03:50:59.88	244.79	12.93	-26.2	-27.8	15.6	0.00e+00	0	44	0	3294625792	12	4329
2026-01-21 03:51:00.89	244.69	12.84	-26.2	-27.8	15.6	2.08e-03	0	44	0	3299868672	12	4321
2026-01-21 03:51:01.89	244.60	12.76	-26.3	-28.0	15.5	2.01e-03	0	44	0	3306160128	12	4388
2026-01-21 03:51:02.90	244.51	12.67	-26.2	-27.9	15.5	7.97e-04	0	44	0	3311403008	12	4379
2026-01-21 03:51:03.90	244.42	12.58	-26.3	-28.0	15.5	1.87e-03	0	44	0	3316645888	12	4389
2026-01-21 03:51:04.90	244.33	12.50	-26.3	-28.0	15.5	0.00e+00	0	44	0	3322937344	12	4382
2026-01-21 03:51:05.91	244.23	12.41	-26.4	-28.3	15.3	8.69e-04	0	44	0	3328180224	12	4461
2026-01-21 03:51:06.90	244.15	12.33	-26.4	-28.2	15.4	0.00e+00	0	44	0	3334471680	12	4451
2026-01-21 03:51:07.91	244.06	12.24	-26.3	-28.0	15.4	1.43e-03	0	44	0	3339714560	12	4405
2026-01-21 03:51:08.91	243.97	12.16	-26.3	-28.2	15.3	0.00e+00	0	44	0	3344957440	12	4437
2026-01-21 03:51:09.91	243.88	12.07	-26.3	-28.1	15.4	0.00e+00	0	44	0	3351248896	12	4411
2026-01-21 03:51:10.92	243.79	11.99	-26.3	-28.1	15.4	0.00e+00	0	44	0	3356491776	12	4427
2026-01-21 03:51:11.92	243.70	11.90	-26.3	-28.0	15.4	0.00e+00	0	44	0	3362783232	12	4396
2026-01-21 03:51:12.92	243.62	11.82	-26.3	-28.2	15.4	1.21e-03	0	44	0	3368026112	12	4440
2026-01-21 03:51:13.92	243.53	11.73	-26.3	-28.1	15.3	0.00e+00	0	44	0	3373268992	12	4425
2026-01-21 03:51:14.93	243.45	11.65	-26.4	-28.2	15.3	0.00e+00	0	44	0	3379560448	12	4443
2026-01-21 03:51:15.93	243.36	11.57	-26.5	-28.1	15.1	0.00e+00	0	44	0	3384803328	13	4310
2026-01-21 03:51:16.93	243.28	11.48	-26.8	-28.7	14.7	0.00e+00	0	44	0	3390046208	13	4487
2026-01-21 03:51:17.94	243.19	11.40	-26.6	-28.3	14.9	0.00e+00	0	44	0	3396337664	13	4375
2026-01-21 03:51:18.94	243.11	11.32	-26.6	-28.2	14.9	0.00e+00	0	44	0	3401580544	13	4347
2026-01-21 03:51:19.95	243.02	11.23	-26.7	-28.5	14.8	1.21e-03	0	44	0	3407872000	13	4424
2026-01-21 03:51:20.95	242.94	11.15	-26.7	-28.4	14.9	0.00e+00	0	44	0	3413114880	13	4386
2026-01-21 03:51:21.96	242.86	11.07	-26.5	-28.1	15.0	0.00e+00	0	44	0	3418357760	13	4314
2026-01-21 03:51:22.96	242.78	10.99	-26.6	-28.3	14.9	1.10e-06	0	44	0	3424649216	13	4363
2026-01-21 03:51:23.97	242.70	10.90	-26.6	-28.2	14.9	0.00e+00	0	44	0	3429892096	13	4353
2026-01-21 03:51:24.97	242.62	10.82	-26.9	-28.9	14.6	0.00e+00	0	44	0	3436183552	13	4544
2026-01-21 03:51:25.98	242.54	10.74	-26.7	-28.4	14.8	1.10e-06	0	44	0	3441426432	13	4408
2026-01-21 03:51:26.99	242.45	10.66	-26.5	-28.0	15.0	0.00e+00	0	44	0	3446669312	13	4285
2026-01-21 03:51:27.98	242.38	10.58	-26.4	-27.9	15.1	0.00e+00	0	44	0	3452960768	13	4249
2026-01-21 03:51:28.98	242.30	10.50	-26.4	-28.4	15.1	0.00e+00	0	44	0	3458203648	12	4512
2026-01-21 03:51:29.99	242.22	10.42	-26.5	-28.5	15.0	0.00e+00	0	44	0	3463446528	12	4539
2026-01-21 03:51:30.99	242.14	10.34	-26.5	-28.5	15.0	0.00e+00	0	44	0	3469737984	12	4549
2026-01-21 03:51:31.98	242.06	10.26	-26.5	-28.1	15.0	0.00e+00	0	44	0	3474980864	13	4331
2026-01-21 03:51:32.99	241.99	10.18	-26.6	-28.4	14.8	0.00e+00	0	44	0	3481272320	13	4387
2026-01-21 03:51:33.99	241.91	10.10	-26.5	-28.1	14.9	0.00e+00	0	44	0	3486515200	13	4324
2026-01-21 03:51:34.99	241.83	10.02	-26.6	-28.4	14.8	0.00e+00	0	44	0	3491758080	13	4390
2026-01-21 03:51:35.99	241.76	9.94	-26.9	-28.9	14.5	0.00e+00	0	44	0	3498049536	13	4548
2026-01-21 03:51:36.99	241.68	9.86	-26.7	-28.6	14.7	0.00e+00	0	44	0	3503292416	13	4456
2026-01-21 03:51:37.99	241.61	9.78	-26.8	-28.7	14.6	1.10e-06	0	44	0	3508535296	13	4487
2026-01-21 03:51:38.99	241.53	9.70	-26.7	-28.6	14.6	0.00e+00	0	44	0	3514826752	13	4470
2026-01-21 03:51:40.00	241.46	9.62	-26.8	-28.7	14.6	0.00e+00	0	44	0	3520069632	13	4491
2026-01-21 03:51:41.00	241.39	9.54	-26.9	-29.1	14.4	0.00e+00	0	44	0	3525312512	13	4598
2026-01-21 03:51:42.01	241.31	9.47	-26.8	-28.8	14.5	0.00e+00	0	44	0	3531603968	13	4532
2026-01-21 03:51:43.01	241.24	9.39	-26.8	-28.7	14.5	0.00e+00	0	44	0	3536846848	13	4500
2026-01-21 03:51:44.01	241.17	9.31	-26.9	-28.9	14.5	0.00e+00	0	44	0	3543138304	13	4545
2026-01-21 03:51:45.01	241.10	9.23	-26.9	-28.9	14.5	1.10e-06	0	44	0	3548381184	13	4540
2026-01-21 03:51:46.02	241.02	9.15	-27.1	-28.8	14.2	0.00e+00	0	44	0	3554672640	14	4414
2026-01-21 03:51:47.02	240.95	9.08	-27.3	-29.5	13.8	2.20e-06	0	44	0	3559915520	14	4597
2026-01-21 03:51:48.03	240.88	9.00	-27.1	-28.9	14.1	3.40e-06	0	44	0	3565158400	14	4441
2026-01-21 03:51:49.03	240.81	8.92	-26.9	-28.5	14.4	1.10e-06	0	44	0	3571449856	14	4313
2026-01-21 03:51:50.02	240.74	8.85	-26.8	-28.6	14.6	0.00e+00	0	44	0	3576692736	13	4472
2026-01-21 03:51:51.03	240.67	8.77	-26.9	-29.0	14.3	0.00e+00	0	44	0	3581935616	13	4584
2026-01-21 03:51:52.03	240.60	8.70	-26.9	-29.0	14.3	2.20e-06	0	44	0	3588227072	13	4586
2026-01-21 03:51:53.03	240.53	8.62	-27.0	-29.1	14.3	0.00e+00	0	44	0	3593469952	13	4604
2026-01-21 03:51:54.04	240.46	8.54	-26.9	-29.0	14.3	1.10e-06	0	44	0	3598712832	13	4582
2026-01-21 03:51:55.04	240.39	8.47	-26.9	-28.9	14.3	1.10e-06	0	44	0	3605004288	13	4560
2026-01-21 03:51:56.04	240.33	8.39	-26.9	-29.0	14.3	1.10e-06	0	44	0	3610247168	13	4570
2026-01-21 03:51:57.04	240.26	8.32	-26.9	-29.0	14.3	0.00e+00	0	44	0	3616538624	13	4587
2026-01-21 03:51:58.05	240.19	8.24	-27.0	-29.2	14.2	1.10e-06	0	44	0	3621781504	13	4627
2026-01-21 03:51:59.06	240.12	8.17	-26.9	-28.9	14.3	0.00e+00	0	44	0	3627024384	13	4547
2026-01-21 03:52:00.06	240.06	8.09	-26.9	-29.0	14.3	0.00e+00	0	44	0	3633315840	13	4576
2026-01-21 03:52:01.06	239.99	8.02	-26.9	-29.1	14.2	0.00e+00	0	44	0	3638558720	13	4607
2026-01-21 03:52:02.06	239.93	7.94	-26.9	-29.0	14.2	1.10e-06	0	44	0	3644850176	13	4596
2026-01-21 03:52:03.07	239.86	7.87	-27.0	-28.8	14.1	2.20e-06	0	44	0	3650093056	14	4407
2026-01-21 03:52:04.06	239.80	7.80	-27.1	-28.9	14.1	2.20e-06	0	44	0	3655335936	14	4434
2026-01-21 03:52:05.07	239.73	7.72	-27.3	-29.4	13.7	1.10e-06	0	44	0	3661627392	14	4582
2026-01-21 03:52:06.06	239.67	7.65	-26.5	-28.3	13.4	1.10e-06	0	44	0	3666870272	14	4419
2026-01-21 03:52:07.07	239.60	7.57	-27.1	-29.1	11.2	3.40e-06	0	44	0	3672113152	14	4551
2026-01-21 03:52:08.08	239.54	7.50	-27.5	-29.5	13.4	6.80e-06	0	44	0	3678404608	15	4496
2026-01-21 03:52:09.07	239.48	7.43	-27.4	-29.6	12.9	2.20e-06	0	44	0	3683647488	14	4651
2026-01-21 03:52:10.08	239.41	7.36	-27.3	-29.4	13.6	3.40e-06	0	44	0	3689938944	14	4579
2026-01-21 03:52:11.08	239.35	7.28	-27.4	-29.7	13.5	8.00e-06	0	44	0	3695181824	14	4680
2026-01-21 03:52:12.09	239.29	7.21	-27.2	-29.3	13.7	1.51e-03	0	44	0	3700424704	14	4549
2026-01-21 03:52:13.09	239.23	7.14	-27.1	-29.0	13.9	2.20e-06	0	44	0	3706716160	14	4484
2026-01-21 03:52:14.09	239.16	7.07	-33.1	-43.9	3.8	8.47e-01	0	44	104	3708813312	26	12528
2026-01-21 03:52:15.10	239.10	6.99	-33.4	-45.0	3.8	8.47e-01	0	44	104	3708813312	26	13561
2026-01-21 03:52:16.10	239.04	6.92	-33.7	-45.0	3.8	8.46e-01	0	44	104	3708813312	27	13222

#Closed at: 2026-01-21 03:52:16
#Recorded file [3708 MB]: D:/data/31010_260121_064114.dat