passes_logs/2026/01/21/R2M6_AANII_01/R2M6_AANII_01__20260121_093601_NOAA_20_JPSS-1_rec.log

#Pass ID: 20260121_093601_NOAA 20 (JPSS-1)
#Satellite: NOAA 20 (JPSS-1)
#Configuration: NOAA 20
#almurnet v.1.7.20240730
#Start time: 2026-01-21 09:36:02

#Version: 2.2.20231116
#Station: R2M6_AANII_01
#Location: 30.233357 lon 59.946436 lat
#TLE: 1 43013U 17073A   26020.26397077  .00000127  00000+0  80954-4 0  9999
#TLE: 2 43013  98.7643 321.1479 0001288  31.3158 328.8095 14.19537595423482

#Time	Az	El	Level	Level2	SNR	BER	BlckErr	Temp	State	Recorded	gain1	gain2
2026-01-21 09:36:02.57	137.82	7.10	-31.2	-36.3	5.3	1.23e+00	0	41	0	0	23	6467
2026-01-21 09:36:03.57	137.79	7.18	-31.1	-36.1	5.3	1.24e+00	0	41	104	0	23	6357
2026-01-21 09:36:04.56	137.75	7.26	-31.1	-36.0	9.3	1.59e-02	0	41	0	0	23	6307
2026-01-21 09:36:05.57	137.72	7.33	-31.1	-35.8	9.5	1.56e-02	0	41	0	1048576	23	6199
2026-01-21 09:36:06.57	137.68	7.41	-31.0	-35.7	9.6	1.30e-02	0	41	0	3145728	23	6175
2026-01-21 09:36:07.57	137.65	7.49	-31.0	-35.4	9.8	1.09e-02	0	41	0	5242880	23	6025
2026-01-21 09:36:08.57	137.61	7.56	-30.9	-35.0	10.1	8.07e-03	0	41	0	7340032	23	5807
2026-01-21 09:36:09.58	137.58	7.64	-30.7	-34.9	10.6	4.09e-03	0	41	0	9437184	22	5840
2026-01-21 09:36:10.58	137.54	7.72	-30.6	-34.4	11.0	2.50e-03	0	41	0	10485760	22	5616
2026-01-21 09:36:11.58	137.50	7.80	-30.5	-34.1	11.3	1.34e-03	0	41	0	12582912	22	5454
2026-01-21 09:36:12.58	137.47	7.88	-30.4	-33.8	11.6	8.35e-04	0	41	0	14680064	22	5313
2026-01-21 09:36:13.59	137.43	7.96	-30.4	-33.8	11.6	7.59e-04	0	41	0	16777216	22	5305
2026-01-21 09:36:14.59	137.39	8.03	-30.5	-33.9	11.6	6.47e-04	0	41	0	17825792	22	5338
2026-01-21 09:36:15.60	137.36	8.11	-30.5	-33.9	11.5	7.50e-04	0	41	0	19922944	22	5363
2026-01-21 09:36:16.60	137.32	8.19	-30.5	-33.9	11.5	8.33e-04	0	41	0	22020096	22	5363
2026-01-21 09:36:17.61	137.28	8.27	-30.5	-34.0	11.5	8.43e-04	0	41	0	24117248	22	5394
2026-01-21 09:36:18.61	137.24	8.35	-30.6	-34.2	11.3	9.83e-04	0	41	0	26214400	22	5472
2026-01-21 09:36:19.61	137.20	8.43	-30.5	-34.1	11.4	1.14e-03	0	41	0	27262976	22	5453
2026-01-21 09:36:20.61	137.17	8.51	-30.5	-33.9	11.6	7.22e-04	0	41	0	29360128	22	5330
2026-01-21 09:36:21.62	137.13	8.59	-30.4	-33.6	11.7	5.93e-04	0	41	0	31457280	22	5240
2026-01-21 09:36:22.62	137.09	8.67	-30.4	-33.7	11.7	6.37e-04	0	41	0	33554432	22	5280
2026-01-21 09:36:23.62	137.05	8.76	-30.4	-33.7	11.7	5.65e-04	0	41	0	35651584	22	5293
2026-01-21 09:36:24.62	137.01	8.84	-30.5	-34.1	11.5	6.86e-04	0	41	0	36700160	22	5422
2026-01-21 09:36:25.63	136.97	8.92	-30.5	-34.0	11.6	8.66e-04	0	41	0	38797312	22	5396
2026-01-21 09:36:26.62	136.93	9.00	-30.4	-33.7	11.7	5.48e-04	0	41	0	40894464	22	5288
2026-01-21 09:36:27.63	136.89	9.08	-30.4	-33.7	11.8	4.61e-04	0	42	0	42991616	22	5259
2026-01-21 09:36:28.64	136.85	9.16	-30.4	-33.8	11.7	4.49e-04	0	41	0	45088768	22	5315
2026-01-21 09:36:29.64	136.81	9.25	-30.4	-33.7	11.8	4.99e-04	0	42	0	46137344	22	5262
2026-01-21 09:36:30.64	136.77	9.33	-30.4	-33.6	11.8	4.77e-04	0	42	0	48234496	22	5247
2026-01-21 09:36:31.64	136.73	9.41	-30.4	-33.8	11.7	4.66e-04	0	41	0	50331648	22	5309
2026-01-21 09:36:32.65	136.69	9.50	-30.4	-33.7	11.8	5.39e-04	0	42	0	52428800	22	5261
2026-01-21 09:36:33.65	136.65	9.58	-30.2	-33.8	12.1	2.88e-04	0	41	0	54525952	21	5413
2026-01-21 09:36:34.66	136.61	9.66	-30.2	-33.6	12.2	2.55e-04	0	42	0	55574528	21	5325
2026-01-21 09:36:35.66	136.56	9.75	-30.2	-33.6	12.2	1.62e-04	0	42	0	57671680	21	5326
2026-01-21 09:36:36.67	136.52	9.83	-30.2	-33.5	12.3	2.26e-04	0	42	0	59768832	21	5279
2026-01-21 09:36:37.68	136.48	9.92	-30.2	-33.5	12.4	1.43e-04	0	41	0	61865984	21	5263
2026-01-21 09:36:38.67	136.44	10.00	-30.2	-33.6	12.3	1.75e-04	0	42	0	63963136	21	5298
2026-01-21 09:36:39.67	136.39	10.09	-30.4	-34.0	12.1	2.15e-04	0	42	0	65011712	21	5472
2026-01-21 09:36:40.67	136.35	10.17	-30.4	-34.0	12.0	3.06e-04	0	42	0	67108864	21	5470
2026-01-21 09:36:41.67	136.31	10.26	-30.4	-34.1	12.0	2.55e-04	0	42	0	69206016	21	5493
2026-01-21 09:36:42.67	136.26	10.34	-30.4	-34.1	12.0	3.24e-04	0	42	0	71303168	21	5507
2026-01-21 09:36:43.67	136.22	10.43	-30.3	-33.9	12.2	2.54e-04	0	42	0	73400320	21	5401
2026-01-21 09:36:44.68	136.18	10.52	-30.4	-33.9	12.2	2.21e-04	0	42	0	74448896	21	5425
2026-01-21 09:36:45.69	136.13	10.60	-30.4	-34.1	12.1	2.38e-04	0	42	0	76546048	21	5480
2026-01-21 09:36:46.69	136.09	10.69	-30.4	-34.0	12.2	2.45e-04	0	42	0	78643200	21	5451
2026-01-21 09:36:47.70	136.04	10.78	-30.4	-33.9	12.2	1.99e-04	0	42	0	80740352	21	5417
2026-01-21 09:36:48.70	136.00	10.87	-30.4	-34.0	12.2	2.18e-04	0	42	0	81788928	21	5451
2026-01-21 09:36:49.70	135.95	10.96	-30.3	-33.7	12.4	1.80e-04	0	42	0	83886080	21	5331
2026-01-21 09:36:50.70	135.90	11.04	-30.2	-33.5	12.6	1.18e-04	0	42	0	85983232	21	5242
2026-01-21 09:36:51.70	135.86	11.13	-30.2	-33.4	12.6	1.15e-04	0	42	0	88080384	21	5196
2026-01-21 09:36:52.70	135.81	11.22	-30.2	-33.3	12.7	8.39e-05	0	42	0	90177536	21	5169
2026-01-21 09:36:53.69	135.77	11.31	-30.3	-33.6	12.5	1.04e-04	0	42	0	91226112	21	5288
2026-01-21 09:36:54.69	135.72	11.40	-30.2	-33.5	12.5	1.40e-04	0	42	0	93323264	21	5235
2026-01-21 09:36:55.70	135.67	11.49	-30.3	-33.7	12.4	9.07e-05	0	42	0	95420416	21	5329
2026-01-21 09:36:56.71	135.62	11.58	-30.3	-33.7	12.4	1.56e-04	0	42	0	97517568	21	5326
2026-01-21 09:36:57.71	135.57	11.67	-30.2	-33.5	12.5	1.04e-04	0	42	0	99614720	21	5266
2026-01-21 09:36:58.71	135.53	11.76	-30.3	-33.8	12.4	1.36e-04	0	42	0	100663296	21	5385
2026-01-21 09:36:59.72	135.48	11.85	-30.2	-33.7	12.4	1.67e-04	0	42	0	102760448	21	5372
2026-01-21 09:37:00.72	135.43	11.94	-30.2	-33.7	12.3	1.58e-04	0	42	0	104857600	21	5380
2026-01-21 09:37:01.73	135.38	12.04	-30.4	-34.1	12.1	2.18e-04	0	42	0	106954752	21	5542
2026-01-21 09:37:02.74	135.33	12.13	-30.4	-34.3	12.0	2.96e-04	0	42	0	109051904	21	5612
2026-01-21 09:37:03.73	135.28	12.22	-30.5	-34.6	11.8	4.69e-04	0	42	0	110100480	21	5758
2026-01-21 09:37:04.74	135.23	12.31	-30.4	-34.2	12.1	4.69e-04	0	42	0	112197632	21	5562
2026-01-21 09:37:05.74	135.18	12.41	-30.2	-33.6	12.5	1.95e-04	0	42	0	114294784	21	5300
2026-01-21 09:37:06.75	135.13	12.50	-30.1	-33.2	12.8	7.40e-05	0	42	0	116391936	21	5135
2026-01-21 09:37:07.75	135.07	12.59	-30.0	-33.0	12.9	5.56e-05	0	42	0	118489088	21	5084
2026-01-21 09:37:08.74	135.02	12.69	-30.1	-33.1	12.9	3.43e-05	0	42	0	119537664	21	5098
2026-01-21 09:37:09.74	134.97	12.78	-30.2	-33.5	12.6	5.18e-05	0	42	0	121634816	21	5251
2026-01-21 09:37:10.74	134.92	12.88	-30.2	-33.4	12.7	1.05e-04	0	42	0	123731968	21	5207
2026-01-21 09:37:11.74	134.87	12.97	-30.1	-33.2	12.8	5.64e-05	0	42	0	125829120	21	5130
2026-01-21 09:37:12.74	134.81	13.07	-30.2	-33.5	12.6	5.87e-05	0	42	0	126877696	21	5236
2026-01-21 09:37:13.74	134.76	13.16	-30.2	-33.5	12.7	6.71e-05	0	42	0	128974848	21	5223
2026-01-21 09:37:14.74	134.71	13.26	-30.3	-33.6	12.6	8.16e-05	0	42	0	131072000	21	5291
2026-01-21 09:37:15.74	134.65	13.35	-30.4	-33.8	12.5	1.46e-04	0	42	0	133169152	21	5348
2026-01-21 09:37:16.75	134.60	13.45	-30.3	-33.6	12.6	1.10e-04	0	42	0	135266304	21	5262
2026-01-21 09:37:17.75	134.54	13.55	-30.2	-33.4	12.8	8.23e-05	0	42	0	136314880	21	5180
2026-01-21 09:37:18.75	134.49	13.65	-30.2	-33.2	12.9	5.18e-05	0	42	0	138412032	21	5099
2026-01-21 09:37:19.75	134.43	13.74	-30.2	-33.3	12.8	3.73e-05	0	42	0	140509184	21	5123
2026-01-21 09:37:20.76	134.38	13.84	-30.2	-33.2	12.9	5.41e-05	0	42	0	142606336	21	5089
2026-01-21 09:37:21.77	134.32	13.94	-30.1	-33.1	12.9	2.97e-05	0	42	0	144703488	21	5079
2026-01-21 09:37:22.77	134.26	14.04	-30.1	-33.1	12.9	4.80e-05	0	42	0	145752064	21	5094
2026-01-21 09:37:23.77	134.20	14.14	-30.1	-33.0	13.0	3.66e-05	0	42	0	147849216	21	5066
2026-01-21 09:37:24.77	134.15	14.24	-30.1	-33.2	12.9	4.34e-05	0	42	0	149946368	21	5138
2026-01-21 09:37:25.78	134.09	14.34	-30.1	-33.2	12.8	5.18e-05	0	42	0	152043520	21	5165
2026-01-21 09:37:26.78	134.03	14.44	-30.0	-33.2	12.8	5.26e-05	0	42	0	154140672	21	5173
2026-01-21 09:37:27.78	133.97	14.54	-30.1	-33.3	12.7	6.33e-05	0	42	0	155189248	21	5229
2026-01-21 09:37:28.79	133.91	14.64	-30.0	-33.2	12.8	8.08e-05	0	42	0	157286400	21	5206
2026-01-21 09:37:29.79	133.85	14.75	-30.0	-33.1	12.9	7.32e-05	0	42	0	159383552	21	5136
2026-01-21 09:37:30.79	133.79	14.85	-29.9	-33.0	13.0	4.11e-05	0	42	0	161480704	21	5112
2026-01-21 09:37:31.78	133.73	14.95	-30.1	-33.3	12.8	3.96e-05	0	42	0	163577856	21	5218
2026-01-21 09:37:32.78	133.67	15.05	-30.0	-33.0	13.0	7.24e-05	0	42	0	164626432	21	5091
2026-01-21 09:37:33.79	133.61	15.16	-30.0	-32.8	13.1	3.28e-05	0	43	0	166723584	21	5024
2026-01-21 09:37:34.79	133.55	15.26	-30.0	-33.1	13.0	2.67e-05	0	42	0	168820736	21	5087
2026-01-21 09:37:35.79	133.48	15.36	-30.1	-33.1	13.1	4.34e-05	0	42	0	170917888	21	5070
2026-01-21 09:37:36.79	133.42	15.47	-30.1	-33.0	13.2	2.36e-05	0	42	0	171966464	21	4990
2026-01-21 09:37:37.79	133.36	15.57	-30.2	-33.1	13.2	1.67e-05	0	43	0	174063616	21	5019
2026-01-21 09:37:38.80	133.29	15.68	-30.2	-33.1	13.3	2.59e-05	0	43	0	176160768	21	5000
2026-01-21 09:37:39.80	133.23	15.78	-30.3	-33.2	13.1	2.13e-05	0	42	0	178257920	21	5055
2026-01-21 09:37:40.81	133.16	15.89	-30.2	-32.9	13.4	2.67e-05	0	42	0	180355072	21	4930
2026-01-21 09:37:41.82	133.10	16.00	-30.2	-33.0	13.3	1.67e-05	0	43	0	181403648	21	4954
2026-01-21 09:37:42.81	133.03	16.10	-30.3	-33.2	13.1	1.83e-05	0	42	0	183500800	21	5068
2026-01-21 09:37:43.81	132.97	16.21	-30.2	-32.9	13.4	3.20e-05	0	42	0	185597952	21	4945
2026-01-21 09:37:44.82	132.90	16.32	-30.0	-32.4	13.7	8.30e-06	0	42	0	187695104	21	4791
2026-01-21 09:37:45.81	132.83	16.43	-29.9	-32.4	13.7	1.50e-06	0	42	0	189792256	21	4782
2026-01-21 09:37:46.81	132.77	16.54	-30.0	-32.6	13.6	3.80e-06	0	43	0	190840832	21	4870
2026-01-21 09:37:47.82	132.70	16.65	-30.2	-33.0	13.3	1.29e-05	0	43	0	192937984	21	5010
2026-01-21 09:37:48.82	132.63	16.76	-30.1	-33.0	13.3	9.90e-06	0	42	0	195035136	21	4991
2026-01-21 09:37:49.83	132.56	16.87	-30.2	-33.3	13.1	1.83e-05	0	43	0	197132288	21	5098
2026-01-21 09:37:50.83	132.49	16.98	-30.2	-33.1	13.3	1.60e-05	0	43	0	199229440	21	5011
2026-01-21 09:37:51.84	132.42	17.09	-30.2	-32.9	13.5	1.37e-05	0	43	0	200278016	21	4930
2026-01-21 09:37:52.84	132.35	17.20	-30.1	-32.8	13.6	6.80e-06	0	43	0	202375168	21	4865
2026-01-21 09:37:53.85	132.28	17.31	-30.2	-33.0	13.5	6.10e-06	0	43	0	204472320	21	4934
2026-01-21 09:37:54.86	132.20	17.43	-30.0	-32.4	13.8	6.10e-06	0	43	0	206569472	21	4748
2026-01-21 09:37:55.86	132.13	17.54	-30.1	-32.7	13.7	6.80e-06	0	42	0	208666624	21	4839
2026-01-21 09:37:56.86	132.06	17.65	-30.1	-32.7	13.7	6.10e-06	0	42	0	209715200	21	4828
2026-01-21 09:37:57.86	131.99	17.77	-30.2	-32.8	13.6	9.10e-06	0	43	0	211812352	21	4904
2026-01-21 09:37:58.86	131.91	17.88	-30.3	-33.3	13.3	1.29e-05	0	43	0	213909504	21	5070
2026-01-21 09:37:59.85	131.84	17.99	-30.2	-33.1	13.4	2.05e-05	0	43	0	216006656	21	5008
2026-01-21 09:38:00.85	131.76	18.11	-30.2	-33.0	13.4	1.22e-05	0	43	0	217055232	21	4979
2026-01-21 09:38:01.86	131.69	18.23	-30.2	-33.0	13.5	6.80e-06	0	42	0	219152384	21	4964
2026-01-21 09:38:02.86	131.61	18.34	-30.1	-32.7	13.6	1.29e-05	0	43	0	221249536	21	4874
2026-01-21 09:38:03.86	131.53	18.46	-30.1	-32.8	13.6	7.60e-06	0	43	0	223346688	21	4896
2026-01-21 09:38:04.87	131.45	18.58	-30.2	-32.8	13.6	8.30e-06	0	43	0	225443840	21	4902
2026-01-21 09:38:05.87	131.38	18.69	-30.3	-33.2	13.3	7.60e-06	0	43	0	226492416	21	5052
2026-01-21 09:38:06.88	131.30	18.81	-30.2	-33.0	13.5	1.14e-05	0	43	0	228589568	21	4952
2026-01-21 09:38:07.87	131.22	18.93	-30.2	-32.9	13.6	1.29e-05	0	43	0	230686720	21	4919
2026-01-21 09:38:08.88	131.14	19.05	-30.4	-33.4	13.3	1.22e-05	0	43	0	232783872	21	5085
2026-01-21 09:38:09.88	131.05	19.17	-30.3	-33.2	13.4	1.67e-05	0	43	0	234881024	21	5026
2026-01-21 09:38:10.89	130.97	19.29	-30.5	-33.6	13.2	1.06e-05	0	43	0	235929600	21	5168
2026-01-21 09:38:11.90	130.89	19.41	-30.4	-33.4	13.3	2.44e-05	0	43	0	238026752	21	5105
2026-01-21 09:38:12.91	130.81	19.54	-30.5	-33.6	13.2	3.43e-05	0	43	0	240123904	21	5166
2026-01-21 09:38:13.91	130.72	19.66	-30.3	-33.3	13.4	2.21e-05	0	43	0	242221056	21	5048
2026-01-21 09:38:14.92	130.64	19.78	-30.2	-33.0	13.6	9.10e-06	0	43	0	244318208	21	4962
2026-01-21 09:38:15.93	130.55	19.91	-30.3	-33.1	13.6	1.22e-05	0	43	0	245366784	21	4985
2026-01-21 09:38:16.93	130.47	20.03	-30.3	-33.1	13.5	7.60e-06	0	43	0	247463936	21	5005
2026-01-21 09:38:17.93	130.38	20.15	-30.5	-33.7	13.2	1.98e-05	0	43	0	249561088	21	5199
2026-01-21 09:38:18.93	130.29	20.28	-30.4	-33.4	13.3	1.98e-05	0	42	0	251658240	21	5111
2026-01-21 09:38:19.94	130.20	20.40	-30.5	-33.6	13.3	1.22e-05	0	43	0	253755392	21	5149
2026-01-21 09:38:20.94	130.11	20.53	-30.5	-33.7	13.2	2.89e-05	0	43	0	254803968	21	5196
2026-01-21 09:38:21.94	130.03	20.66	-30.5	-33.7	13.2	2.97e-05	0	43	0	256901120	21	5177
2026-01-21 09:38:22.95	129.93	20.78	-30.6	-33.8	13.2	2.05e-05	0	43	0	258998272	21	5225
2026-01-21 09:38:23.96	129.84	20.91	-30.5	-33.7	13.2	1.98e-05	0	43	0	261095424	21	5193
2026-01-21 09:38:24.96	129.75	21.04	-30.6	-33.8	13.2	2.13e-05	0	43	0	263192576	21	5233
2026-01-21 09:38:25.97	129.66	21.17	-30.7	-34.3	12.9	4.19e-05	0	43	0	264241152	21	5402
2026-01-21 09:38:26.97	129.56	21.30	-30.7	-34.0	13.1	5.18e-05	0	43	0	266338304	21	5304
2026-01-21 09:38:27.97	129.47	21.43	-30.9	-34.6	12.7	5.56e-05	0	43	0	268435456	21	5517
2026-01-21 09:38:28.97	129.38	21.56	-30.8	-34.3	12.9	4.80e-05	0	43	0	270532608	21	5405
2026-01-21 09:38:29.98	129.28	21.69	-30.8	-34.2	13.0	4.57e-05	0	43	0	272629760	21	5374
2026-01-21 09:38:30.98	129.18	21.82	-30.8	-34.4	12.9	4.50e-05	0	43	0	273678336	21	5434
2026-01-21 09:38:31.98	129.09	21.95	-30.7	-34.1	13.0	4.42e-05	0	43	0	275775488	21	5327
2026-01-21 09:38:32.99	128.99	22.09	-30.7	-34.1	13.1	2.67e-05	0	43	0	277872640	21	5306
2026-01-21 09:38:33.99	128.89	22.22	-30.8	-34.3	12.9	3.20e-05	0	43	0	279969792	21	5384
2026-01-21 09:38:34.99	128.79	22.35	-30.6	-33.9	13.2	3.20e-05	0	43	0	282066944	21	5234
2026-01-21 09:38:36.00	128.69	22.49	-30.6	-34.0	13.2	3.20e-05	0	43	0	283115520	21	5270
2026-01-21 09:38:36.99	128.58	22.62	-30.8	-34.3	12.9	3.20e-05	0	43	0	285212672	21	5403
2026-01-21 09:38:38.00	128.48	22.76	-30.7	-34.2	13.0	4.27e-05	0	43	0	287309824	21	5357
2026-01-21 09:38:39.00	128.38	22.90	-30.8	-34.3	13.0	3.50e-05	0	43	0	289406976	21	5397
2026-01-21 09:38:40.00	128.27	23.03	-30.8	-34.4	12.9	3.81e-05	0	43	0	290455552	21	5426
2026-01-21 09:38:41.00	128.17	23.17	-30.8	-34.5	12.8	3.73e-05	0	43	0	292552704	21	5485
2026-01-21 09:38:42.01	128.06	23.31	-30.9	-34.5	12.8	3.43e-05	0	43	0	294649856	21	5494
2026-01-21 09:38:43.01	127.95	23.45	-30.8	-34.4	12.9	6.48e-05	0	43	0	296747008	21	5429
2026-01-21 09:38:44.02	127.84	23.59	-31.0	-34.5	12.6	7.24e-05	0	43	0	298844160	22	5355
2026-01-21 09:38:45.03	127.73	23.73	-31.1	-34.8	12.4	1.56e-04	0	43	0	300941312	22	5469
2026-01-21 09:38:46.03	127.62	23.87	-31.1	-34.8	12.4	1.43e-04	0	43	0	301989888	22	5471
2026-01-21 09:38:47.04	127.51	24.01	-31.2	-34.9	12.3	1.34e-04	0	43	0	304087040	22	5528
2026-01-21 09:38:48.04	127.40	24.16	-31.2	-35.1	12.2	1.81e-04	0	43	0	306184192	22	5590
2026-01-21 09:38:49.04	127.28	24.30	-31.3	-35.3	12.0	2.45e-04	0	43	0	308281344	22	5678
2026-01-21 09:38:50.04	127.17	24.44	-31.2	-35.1	12.2	2.23e-04	0	43	0	309329920	22	5589
2026-01-21 09:38:51.05	127.05	24.59	-31.2	-34.8	12.4	1.94e-04	0	43	0	311427072	22	5495
2026-01-21 09:38:52.05	126.94	24.73	-31.2	-34.8	12.4	1.69e-04	0	43	0	313524224	22	5493
2026-01-21 09:38:53.06	126.82	24.88	-31.3	-35.3	12.0	2.52e-04	0	43	0	315621376	22	5691
2026-01-21 09:38:54.05	126.70	25.02	-31.1	-34.8	12.4	2.17e-04	0	43	0	317718528	22	5492
2026-01-21 09:38:55.06	126.58	25.17	-31.2	-34.9	12.3	1.56e-04	0	43	0	318767104	22	5540
2026-01-21 09:38:56.06	126.46	25.32	-31.3	-35.4	11.9	2.76e-04	0	43	0	320864256	22	5773
2026-01-21 09:38:57.05	126.34	25.46	-31.2	-35.2	12.1	2.46e-04	0	43	0	322961408	22	5672
2026-01-21 09:38:58.06	126.21	25.61	-31.4	-35.7	11.7	3.36e-04	0	43	0	325058560	22	5910
2026-01-21 09:38:59.07	126.08	25.76	-31.4	-35.7	11.8	5.54e-04	0	43	0	327155712	22	5890
2026-01-21 09:39:00.07	125.96	25.91	-31.4	-35.7	11.8	5.30e-04	0	43	0	328204288	22	5886
2026-01-21 09:39:01.08	125.83	26.07	-31.5	-35.4	11.6	5.80e-04	0	43	0	330301440	23	5651
2026-01-21 09:39:02.08	125.70	26.22	-31.4	-35.2	11.8	4.00e-04	0	43	0	332398592	23	5541
2026-01-21 09:39:03.08	125.57	26.37	-31.5	-35.3	11.8	5.53e-04	0	43	0	334495744	23	5570
2026-01-21 09:39:04.08	125.44	26.52	-31.5	-35.3	11.8	4.50e-04	0	43	0	336592896	23	5564
2026-01-21 09:39:05.08	125.31	26.68	-31.6	-35.5	11.6	4.60e-04	0	43	0	337641472	23	5653
2026-01-21 09:39:06.07	125.18	26.83	-31.4	-34.8	12.1	3.23e-04	0	43	0	339738624	23	5357
2026-01-21 09:39:07.08	125.04	26.98	-31.3	-34.6	12.3	1.89e-04	0	43	0	341835776	23	5264
2026-01-21 09:39:08.08	124.90	27.14	-31.2	-34.4	12.4	1.70e-04	0	43	0	343932928	23	5204
2026-01-21 09:39:09.08	124.77	27.30	-31.3	-34.7	12.3	1.80e-04	0	43	0	346030080	23	5291
2026-01-21 09:39:10.08	124.63	27.45	-31.3	-34.5	12.3	1.63e-04	0	43	0	347078656	23	5234
2026-01-21 09:39:11.08	124.49	27.61	-31.4	-34.9	12.1	2.20e-04	0	43	0	349175808	23	5399
2026-01-21 09:39:12.08	124.35	27.77	-31.4	-34.9	12.2	2.55e-04	0	43	0	351272960	23	5392
2026-01-21 09:39:13.09	124.20	27.93	-31.4	-34.9	12.1	2.86e-04	0	43	0	353370112	23	5384
2026-01-21 09:39:14.09	124.06	28.09	-31.3	-34.6	12.3	1.81e-04	0	43	0	354418688	23	5256
2026-01-21 09:39:15.09	123.91	28.25	-31.2	-34.4	12.5	1.16e-04	0	43	0	356515840	23	5172
2026-01-21 09:39:16.10	123.76	28.41	-31.2	-34.3	12.5	1.12e-04	0	43	0	358612992	23	5149
2026-01-21 09:39:17.10	123.61	28.57	-31.2	-34.3	12.5	1.17e-04	0	43	0	360710144	23	5160
2026-01-21 09:39:18.10	123.46	28.74	-31.2	-34.3	12.6	1.17e-04	0	43	0	362807296	23	5149
2026-01-21 09:39:19.10	123.31	28.90	-31.3	-34.5	12.4	1.30e-04	0	43	0	363855872	23	5247
2026-01-21 09:39:20.10	123.16	29.06	-31.3	-34.5	12.5	1.28e-04	0	43	0	365953024	23	5215
2026-01-21 09:39:21.11	123.00	29.23	-31.2	-34.4	12.5	1.12e-04	0	43	0	368050176	23	5203
2026-01-21 09:39:22.11	122.84	29.40	-31.3	-34.6	12.4	1.40e-04	0	43	0	370147328	23	5245
2026-01-21 09:39:23.11	122.68	29.56	-31.2	-34.3	12.6	8.85e-05	0	43	0	372244480	23	5126
2026-01-21 09:39:24.12	122.52	29.73	-31.2	-34.4	12.5	1.01e-04	0	43	0	373293056	23	5185
2026-01-21 09:39:25.12	122.36	29.90	-31.3	-34.6	12.4	1.07e-04	0	43	0	375390208	23	5240
2026-01-21 09:39:26.12	122.19	30.07	-31.3	-34.7	12.4	1.56e-04	0	43	0	377487360	23	5283
2026-01-21 09:39:27.13	122.03	30.24	-31.4	-34.8	12.3	1.89e-04	0	43	0	379584512	23	5324
2026-01-21 09:39:28.13	121.86	30.41	-31.4	-35.0	12.2	1.66e-04	0	43	0	381681664	23	5409
2026-01-21 09:39:29.13	121.69	30.58	-31.4	-34.9	12.2	2.18e-04	0	43	0	382730240	23	5392
2026-01-21 09:39:30.13	121.52	30.75	-31.4	-34.8	12.2	2.17e-04	0	43	0	384827392	23	5355
2026-01-21 09:39:31.14	121.34	30.92	-31.4	-34.8	12.3	1.98e-04	0	43	0	386924544	23	5335
2026-01-21 09:39:32.15	121.17	31.10	-31.5	-35.1	12.1	2.47e-04	0	43	0	389021696	23	5460
2026-01-21 09:39:33.15	120.99	31.27	-31.3	-34.7	12.4	2.10e-04	0	43	0	391118848	23	5289
2026-01-21 09:39:34.15	120.81	31.44	-31.4	-34.8	12.3	1.50e-04	0	43	0	392167424	23	5331
2026-01-21 09:39:35.16	120.63	31.62	-31.5	-35.1	12.1	2.14e-04	0	43	0	394264576	23	5465
2026-01-21 09:39:36.15	120.45	31.80	-31.5	-35.2	12.0	3.18e-04	0	43	0	396361728	23	5488
2026-01-21 09:39:37.15	120.27	31.97	-31.6	-35.5	11.8	4.14e-04	0	43	0	398458880	23	5642
2026-01-21 09:39:38.16	120.08	32.15	-31.7	-35.9	11.6	6.34e-04	0	43	0	399507456	23	5789
2026-01-21 09:39:39.16	119.89	32.33	-31.7	-35.9	11.5	8.38e-04	0	43	0	401604608	23	5810
2026-01-21 09:39:40.16	119.70	32.51	-31.8	-36.1	11.4	8.39e-04	0	43	0	403701760	23	5891
2026-01-21 09:39:41.16	119.50	32.69	-31.9	-36.3	11.3	1.06e-03	0	43	0	405798912	23	5995
2026-01-21 09:39:42.17	119.31	32.87	-31.8	-36.1	11.4	9.28e-04	0	43	0	407896064	23	5912
2026-01-21 09:39:43.17	119.11	33.05	-31.9	-36.3	11.2	8.83e-04	0	43	0	408944640	23	5992
2026-01-21 09:39:44.18	118.91	33.23	-32.0	-36.2	11.0	1.54e-03	0	43	0	411041792	24	5836
2026-01-21 09:39:45.18	118.71	33.41	-32.0	-36.3	10.9	1.82e-03	0	43	0	413138944	24	5873
2026-01-21 09:39:46.18	118.50	33.59	-32.0	-36.4	10.8	2.27e-03	0	43	0	415236096	24	5936
2026-01-21 09:39:47.18	118.30	33.78	-32.0	-36.3	10.9	1.90e-03	0	43	0	417333248	24	5873
2026-01-21 09:39:48.19	118.09	33.96	-32.0	-36.1	11.1	1.66e-03	0	43	0	418381824	24	5797
2026-01-21 09:39:49.19	117.87	34.15	-32.0	-36.3	11.0	1.74e-03	0	43	0	420478976	24	5862
2026-01-21 09:39:50.20	117.66	34.34	-31.9	-35.9	11.3	1.43e-03	0	43	0	422576128	24	5704
2026-01-21 09:39:51.21	117.44	34.52	-31.9	-35.9	11.2	1.68e-03	0	43	0	424673280	24	5704
2026-01-21 09:39:52.21	117.22	34.71	-31.9	-35.6	11.4	1.13e-03	0	43	0	426770432	24	5565
2026-01-21 09:39:53.21	117.00	34.90	-31.8	-35.6	11.5	1.04e-03	0	43	0	427819008	24	5550
2026-01-21 09:39:54.21	116.78	35.08	-31.7	-35.3	11.7	5.85e-04	0	43	0	429916160	24	5411
2026-01-21 09:39:55.21	116.55	35.27	-31.9	-35.7	11.4	6.95e-04	0	43	0	432013312	24	5604
2026-01-21 09:39:56.22	116.32	35.46	-31.7	-35.1	11.8	4.78e-04	0	43	0	434110464	24	5315
2026-01-21 09:39:57.22	116.09	35.65	-31.6	-34.8	12.1	3.02e-04	0	43	0	436207616	24	5191
2026-01-21 09:39:58.22	115.85	35.84	-31.6	-34.8	12.1	2.77e-04	0	43	0	437256192	24	5216
2026-01-21 09:39:59.22	115.61	36.03	-31.7	-35.1	11.9	3.23e-04	0	43	0	439353344	24	5329
2026-01-21 09:40:00.22	115.37	36.22	-31.7	-35.0	11.9	5.16e-04	0	43	0	441450496	24	5280
2026-01-21 09:40:01.22	115.13	36.42	-31.5	-34.6	12.2	2.68e-04	0	43	0	443547648	24	5147
2026-01-21 09:40:02.22	114.88	36.61	-31.5	-34.6	12.2	2.29e-04	0	43	0	445644800	24	5141
2026-01-21 09:40:03.23	114.63	36.80	-31.5	-34.5	12.3	2.05e-04	0	43	0	446693376	24	5094
2026-01-21 09:40:04.22	114.38	36.99	-31.5	-34.6	12.2	1.67e-04	0	43	0	448790528	24	5135
2026-01-21 09:40:05.22	114.13	37.19	-31.6	-34.7	12.2	2.62e-04	0	43	0	450887680	24	5162
2026-01-21 09:40:06.23	113.87	37.38	-31.5	-34.4	12.3	2.01e-04	0	43	0	452984832	24	5055
2026-01-21 09:40:07.24	113.60	37.58	-31.5	-34.6	12.3	2.27e-04	0	43	0	454033408	24	5117
2026-01-21 09:40:08.24	113.34	37.78	-31.5	-34.3	12.4	1.65e-04	0	43	0	456130560	24	5013
2026-01-21 09:40:09.25	113.07	37.97	-31.6	-34.6	12.3	1.57e-04	0	43	0	458227712	24	5137
2026-01-21 09:40:10.25	112.80	38.17	-31.6	-34.8	12.1	2.54e-04	0	43	0	460324864	24	5182
2026-01-21 09:40:11.25	112.53	38.37	-31.7	-35.1	11.9	2.90e-04	0	43	0	462422016	24	5317
2026-01-21 09:40:12.25	112.25	38.56	-31.9	-35.6	11.6	6.35e-04	0	43	0	463470592	24	5508
2026-01-21 09:40:13.25	111.97	38.76	-31.9	-35.6	11.6	7.35e-04	0	43	0	465567744	24	5512
2026-01-21 09:40:14.25	111.68	38.96	-31.9	-35.8	11.4	8.71e-04	0	43	0	467664896	24	5614
2026-01-21 09:40:15.26	111.39	39.16	-31.9	-35.7	11.5	8.75e-04	0	43	0	469762048	24	5561
2026-01-21 09:40:16.26	111.10	39.36	-31.8	-35.5	11.7	6.06e-04	0	43	0	471859200	24	5473
2026-01-21 09:40:17.25	110.81	39.55	-31.9	-35.6	11.5	6.11e-04	0	43	0	472907776	24	5546
2026-01-21 09:40:18.26	110.51	39.75	-32.0	-35.9	11.4	9.64e-04	0	43	0	475004928	24	5657
2026-01-21 09:40:19.26	110.20	39.95	-31.8	-35.5	11.6	1.01e-03	0	43	0	477102080	24	5468
2026-01-21 09:40:20.26	109.90	40.15	-31.8	-35.5	11.7	5.68e-04	0	43	0	479199232	24	5464
2026-01-21 09:40:21.27	109.58	40.35	-31.9	-35.6	11.6	5.66e-04	0	43	0	481296384	24	5513
2026-01-21 09:40:22.27	109.27	40.55	-31.7	-35.1	11.9	4.48e-04	0	43	0	482344960	24	5332
2026-01-21 09:40:23.28	108.95	40.75	-31.7	-34.9	12.1	2.95e-04	0	43	0	484442112	24	5239
2026-01-21 09:40:24.28	108.63	40.95	-31.7	-34.9	12.1	3.07e-04	0	43	0	486539264	24	5222
2026-01-21 09:40:25.29	108.30	41.15	-31.6	-34.8	12.2	2.09e-04	0	43	0	488636416	24	5178
2026-01-21 09:40:26.29	107.97	41.35	-31.7	-34.9	12.1	2.05e-04	0	43	0	490733568	24	5236
2026-01-21 09:40:27.29	107.64	41.55	-32.0	-35.9	11.4	7.86e-04	0	43	0	491782144	24	5648
2026-01-21 09:40:28.29	107.30	41.75	-32.0	-35.9	11.4	7.97e-04	0	43	0	493879296	24	5666
2026-01-21 09:40:29.30	106.95	41.96	-32.3	-36.8	10.8	2.13e-03	0	43	0	495976448	24	6079
2026-01-21 09:40:30.30	106.60	42.15	-32.4	-37.4	10.3	3.07e-03	0	43	0	498073600	24	6382
2026-01-21 09:40:31.30	106.25	42.35	-32.5	-37.1	10.2	6.57e-03	0	43	0	500170752	25	6145
2026-01-21 09:40:32.31	105.89	42.56	-32.4	-36.7	10.5	4.62e-03	0	43	0	501219328	25	5923
2026-01-21 09:40:33.32	105.53	42.76	-32.3	-36.6	10.6	3.56e-03	0	43	0	503316480	25	5866
2026-01-21 09:40:34.31	105.17	42.95	-32.3	-36.6	10.5	4.47e-03	0	43	0	505413632	25	5865
2026-01-21 09:40:35.32	104.80	43.15	-32.0	-35.3	11.5	1.96e-03	0	43	0	507510784	25	5313
2026-01-21 09:40:36.32	104.42	43.35	-31.8	-34.9	11.8	6.41e-04	0	43	0	509607936	25	5122
2026-01-21 09:40:37.33	104.04	43.55	-31.9	-35.5	11.8	4.49e-04	0	43	0	510656512	24	5484
2026-01-21 09:40:38.33	103.66	43.75	-32.0	-35.8	11.5	6.49e-04	0	43	0	512753664	24	5615
2026-01-21 09:40:39.33	103.27	43.95	-32.1	-36.2	11.3	1.15e-03	0	43	0	514850816	24	5778
2026-01-21 09:40:40.34	102.87	44.14	-32.1	-36.2	11.2	1.30e-03	0	43	0	516947968	24	5810
2026-01-21 09:40:41.34	102.48	44.34	-32.0	-36.0	11.4	1.05e-03	0	43	0	517996544	24	5718
2026-01-21 09:40:42.34	102.07	44.53	-32.0	-35.8	11.5	7.67e-04	0	43	0	520093696	24	5625
2026-01-21 09:40:43.34	101.67	44.73	-32.2	-36.5	11.1	1.06e-03	0	43	0	522190848	24	5935
2026-01-21 09:40:44.34	101.25	44.92	-32.3	-36.9	10.8	2.07e-03	0	43	0	524288000	24	6102
2026-01-21 09:40:45.35	100.83	45.12	-32.4	-37.1	10.6	4.54e-03	0	43	0	526385152	24	6224
2026-01-21 09:40:46.35	100.41	45.31	-32.3	-37.1	10.6	3.36e-03	0	43	0	527433728	24	6218
2026-01-21 09:40:47.36	99.98	45.50	-32.2	-36.6	11.0	2.34e-03	0	43	0	529530880	24	5955
2026-01-21 09:40:48.36	99.54	45.69	-32.0	-35.9	11.5	1.23e-03	0	43	0	531628032	24	5652
2026-01-21 09:40:49.36	99.10	45.88	-32.0	-35.9	11.5	7.41e-04	0	43	0	533725184	24	5636
2026-01-21 09:40:50.36	98.66	46.07	-32.0	-35.9	11.5	9.25e-04	0	43	0	535822336	24	5631
2026-01-21 09:40:51.37	98.21	46.26	-31.7	-35.0	12.2	3.11e-04	0	43	0	536870912	24	5251
2026-01-21 09:40:52.37	97.75	46.45	-31.8	-35.2	12.0	2.84e-04	0	43	0	538968064	24	5334
2026-01-21 09:40:53.38	97.29	46.64	-31.7	-35.2	12.0	3.29e-04	0	43	0	541065216	24	5335
2026-01-21 09:40:54.39	96.82	46.82	-31.7	-34.9	12.2	1.77e-04	0	43	0	543162368	24	5238
2026-01-21 09:40:55.39	96.35	47.00	-31.8	-35.4	11.9	2.52e-04	0	43	0	545259520	24	5429
2026-01-21 09:40:56.39	95.87	47.19	-31.9	-35.6	11.7	5.18e-04	0	43	0	546308096	24	5514
2026-01-21 09:40:57.40	95.38	47.37	-31.9	-35.6	11.8	5.62e-04	0	43	0	548405248	24	5516
2026-01-21 09:40:58.40	94.89	47.55	-31.8	-35.2	12.1	3.97e-04	0	43	0	550502400	24	5368
2026-01-21 09:40:59.41	94.40	47.72	-31.5	-34.5	12.4	2.11e-04	0	43	0	552599552	24	5079
2026-01-21 09:41:00.41	93.90	47.90	-31.3	-34.3	13.0	5.11e-05	0	43	0	554696704	23	5076
2026-01-21 09:41:01.41	93.39	48.07	-31.3	-34.2	13.0	5.18e-05	0	43	0	555745280	23	5033
2026-01-21 09:41:02.42	92.88	48.25	-31.3	-34.2	13.1	2.89e-05	0	43	0	557842432	23	5063
2026-01-21 09:41:03.42	92.36	48.42	-31.4	-34.7	12.7	5.41e-05	0	43	0	559939584	23	5234
2026-01-21 09:41:04.42	91.84	48.58	-31.4	-34.7	12.7	1.11e-04	0	43	0	562036736	23	5240
2026-01-21 09:41:05.42	91.31	48.75	-31.6	-35.1	12.4	1.81e-04	0	43	0	564133888	23	5425
2026-01-21 09:41:06.43	90.77	48.92	-31.7	-35.4	12.3	1.43e-04	0	43	0	565182464	23	5523
2026-01-21 09:41:07.42	90.24	49.08	-31.8	-35.9	11.9	4.54e-04	0	43	0	567279616	23	5764
2026-01-21 09:41:08.43	89.69	49.24	-32.0	-36.1	11.3	1.28e-03	0	43	0	569376768	24	5747
2026-01-21 09:41:09.43	89.14	49.40	-32.2	-36.7	10.9	1.53e-03	0	43	0	571473920	24	6007
2026-01-21 09:41:10.44	88.57	49.55	-32.2	-36.6	11.0	2.43e-03	0	43	0	573571072	24	5967
2026-01-21 09:41:11.44	88.01	49.70	-32.2	-36.5	11.1	1.32e-03	0	43	0	574619648	24	5951
2026-01-21 09:41:12.45	87.44	49.86	-32.1	-36.3	11.2	1.70e-03	0	43	0	576716800	24	5864
2026-01-21 09:41:13.45	86.87	50.00	-31.9	-35.8	11.7	1.08e-03	0	43	0	578813952	24	5601
2026-01-21 09:41:14.46	86.28	50.15	-31.8	-35.4	11.8	4.88e-04	0	43	0	580911104	24	5468
2026-01-21 09:41:15.46	85.70	50.29	-31.8	-35.4	11.9	5.02e-04	0	43	0	581959680	24	5439
2026-01-21 09:41:16.46	85.11	50.43	-31.6	-34.9	12.2	2.62e-04	0	43	0	584056832	24	5234
2026-01-21 09:41:17.46	84.51	50.57	-31.6	-34.9	12.1	2.37e-04	0	43	0	586153984	24	5260
2026-01-21 09:41:18.46	83.91	50.70	-31.7	-35.2	11.9	3.71e-04	0	43	0	588251136	24	5374
2026-01-21 09:41:19.45	83.31	50.83	-31.9	-35.8	11.5	4.99e-04	0	43	0	590348288	24	5639
2026-01-21 09:41:20.45	82.70	50.96	-32.1	-36.6	11.0	1.50e-03	0	43	0	591396864	24	5995
2026-01-21 09:41:21.46	82.08	51.09	-32.2	-36.7	10.9	2.17e-03	0	43	0	593494016	24	6059
2026-01-21 09:41:22.46	81.46	51.21	-32.3	-37.2	10.6	3.54e-03	0	43	0	595591168	24	6339
2026-01-21 09:41:23.47	80.82	51.33	-32.0	-36.1	11.3	2.37e-03	0	43	0	597688320	24	5798
2026-01-21 09:41:24.47	80.19	51.44	-32.0	-36.1	11.3	1.18e-03	0	43	0	599785472	24	5806
2026-01-21 09:41:25.47	79.56	51.55	-31.9	-36.0	11.3	1.43e-03	0	43	0	600834048	24	5761
2026-01-21 09:41:26.47	78.92	51.66	-31.7	-35.4	11.8	6.07e-04	0	43	0	602931200	24	5491
2026-01-21 09:41:27.47	78.27	51.76	-31.5	-34.7	12.4	3.66e-04	0	43	0	605028352	24	5179
2026-01-21 09:41:28.48	77.62	51.87	-31.2	-34.2	13.0	6.79e-05	0	43	0	607125504	23	5089
2026-01-21 09:41:29.48	76.96	51.96	-30.7	-33.3	13.9	1.14e-05	0	43	0	609222656	22	4856
2026-01-21 09:41:30.49	76.30	52.06	-30.2	-32.4	14.8	7.00e-07	0	43	0	610271232	21	4666
2026-01-21 09:41:31.49	75.63	52.15	-30.0	-32.1	15.0	1.50e-06	0	43	0	612368384	21	4546
2026-01-21 09:41:32.49	74.97	52.23	-29.8	-31.5	15.3	0.00e+00	0	43	0	614465536	21	4383
2026-01-21 09:41:33.50	74.29	52.32	-29.7	-31.8	15.5	0.00e+00	0	43	0	616562688	20	4572
2026-01-21 09:41:34.51	73.61	52.39	-29.7	-31.7	15.6	0.00e+00	0	43	0	618659840	20	4528
2026-01-21 09:41:35.51	72.93	52.47	-29.2	-31.1	16.3	0.00e+00	0	43	0	619708416	19	4444
2026-01-21 09:41:36.51	72.25	52.54	-28.8	-30.1	16.9	0.00e+00	0	43	0	621805568	19	4160
2026-01-21 09:41:37.51	71.57	52.60	-28.6	-30.0	17.2	0.00e+00	0	43	0	623902720	18	4231
2026-01-21 09:41:38.52	70.87	52.66	-28.6	-30.0	17.2	0.00e+00	0	43	0	625999872	18	4228
2026-01-21 09:41:39.52	70.18	52.72	-28.5	-29.9	17.2	0.00e+00	0	43	0	628097024	18	4196
2026-01-21 09:41:40.52	69.49	52.77	-28.2	-29.5	17.7	0.00e+00	0	43	0	629145600	17	4196
2026-01-21 09:41:41.53	68.79	52.82	-28.2	-29.7	17.7	0.00e+00	0	43	0	631242752	17	4247
2026-01-21 09:41:42.53	68.09	52.87	-28.5	-30.3	17.3	0.00e+00	0	43	0	633339904	17	4432
2026-01-21 09:41:43.53	67.40	52.91	-28.5	-30.3	17.3	0.00e+00	0	43	0	635437056	17	4432
2026-01-21 09:41:44.54	66.69	52.94	-28.4	-30.1	17.4	0.00e+00	0	43	0	636485632	17	4374
2026-01-21 09:41:45.54	65.99	52.97	-28.4	-30.1	17.3	0.00e+00	0	43	0	638582784	17	4379
2026-01-21 09:41:46.55	65.28	53.00	-28.5	-30.3	17.2	0.00e+00	0	43	0	640679936	17	4447
2026-01-21 09:41:47.56	64.56	53.02	-28.5	-30.3	17.2	0.00e+00	0	43	0	642777088	17	4432
2026-01-21 09:41:48.56	63.86	53.04	-28.6	-30.6	17.1	0.00e+00	0	43	0	644874240	17	4533
2026-01-21 09:41:49.56	63.15	53.06	-28.9	-31.2	16.7	0.00e+00	0	43	0	645922816	17	4717
2026-01-21 09:41:50.56	62.45	53.06	-28.9	-31.2	16.7	0.00e+00	0	43	0	648019968	17	4695
2026-01-21 09:41:51.55	61.75	53.07	-28.7	-30.8	17.0	0.00e+00	0	43	0	650117120	17	4572
2026-01-21 09:41:52.55	61.04	53.07	-28.9	-31.2	16.7	0.00e+00	0	43	0	652214272	17	4705
2026-01-21 09:41:53.55	60.33	53.06	-29.1	-31.2	16.5	0.00e+00	0	43	0	654311424	18	4594
2026-01-21 09:41:54.55	59.62	53.06	-29.1	-31.1	16.6	0.00e+00	0	43	0	655360000	18	4569
2026-01-21 09:41:55.55	58.92	53.04	-29.0	-31.1	16.6	0.00e+00	0	43	0	657457152	18	4550
2026-01-21 09:41:56.55	58.21	53.02	-28.9	-30.8	16.7	0.00e+00	0	43	0	659554304	18	4458
2026-01-21 09:41:57.55	57.51	53.00	-28.7	-30.2	17.0	0.00e+00	0	43	0	661651456	18	4298
2026-01-21 09:41:58.55	56.81	52.98	-28.7	-30.2	17.1	0.00e+00	0	43	0	663748608	18	4290
2026-01-21 09:41:59.56	56.10	52.94	-28.9	-30.8	16.7	0.00e+00	0	43	0	664797184	18	4452
2026-01-21 09:42:00.56	55.40	52.91	-29.0	-31.1	16.6	0.00e+00	0	43	0	666894336	18	4543
2026-01-21 09:42:01.56	54.70	52.87	-28.8	-30.6	16.8	0.00e+00	0	43	0	668991488	18	4400
2026-01-21 09:42:02.57	53.99	52.82	-28.8	-30.4	17.0	0.00e+00	0	43	0	671088640	18	4349
2026-01-21 09:42:03.57	53.30	52.77	-29.0	-31.0	16.7	0.00e+00	0	43	0	673185792	18	4511
2026-01-21 09:42:04.57	52.61	52.72	-28.9	-30.8	16.7	0.00e+00	0	43	0	674234368	18	4456
2026-01-21 09:42:05.57	51.92	52.66	-28.7	-30.2	17.1	0.00e+00	0	43	0	676331520	18	4285
2026-01-21 09:42:06.57	51.23	52.60	-28.7	-30.2	17.1	0.00e+00	0	43	0	678428672	18	4306
2026-01-21 09:42:07.57	50.55	52.54	-28.8	-30.6	16.8	0.00e+00	0	43	0	680525824	18	4413
2026-01-21 09:42:08.58	49.86	52.47	-28.7	-30.2	17.1	0.00e+00	0	43	0	681574400	18	4295
2026-01-21 09:42:09.58	49.19	52.39	-28.5	-29.9	17.3	0.00e+00	0	43	0	683671552	18	4196
2026-01-21 09:42:10.58	48.51	52.32	-28.5	-29.9	17.3	0.00e+00	0	43	0	685768704	18	4202
2026-01-21 09:42:11.58	47.84	52.24	-28.8	-30.4	17.0	0.00e+00	0	43	0	687865856	18	4363
2026-01-21 09:42:12.58	47.18	52.15	-28.9	-30.7	16.8	0.00e+00	0	43	0	689963008	18	4448
2026-01-21 09:42:13.59	46.51	52.06	-29.3	-31.8	16.1	0.00e+00	0	43	0	691011584	18	4798
2026-01-21 09:42:14.59	45.85	51.97	-29.9	-32.7	15.3	0.00e+00	0	43	0	693108736	19	4985
2026-01-21 09:42:15.58	45.21	51.87	-29.9	-32.8	15.2	0.00e+00	0	43	0	695205888	19	5016
2026-01-21 09:42:16.59	44.55	51.77	-30.0	-33.0	15.1	0.00e+00	0	43	0	697303040	19	5073
2026-01-21 09:42:17.59	43.91	51.67	-30.2	-33.0	14.7	7.00e-07	0	43	0	699400192	20	4984
2026-01-21 09:42:18.59	43.27	51.56	-30.4	-33.6	14.3	0.00e+00	0	43	0	700448768	20	5229
2026-01-21 09:42:19.60	42.62	51.45	-30.5	-33.5	14.0	0.00e+00	0	43	0	702545920	21	5062
2026-01-21 09:42:20.59	42.00	51.33	-30.6	-33.7	13.9	9.90e-06	0	43	0	704643072	21	5160
2026-01-21 09:42:21.60	41.37	51.21	-30.7	-33.9	13.7	6.10e-06	0	43	0	706740224	21	5213
2026-01-21 09:42:22.60	40.75	51.09	-30.9	-34.5	13.3	1.83e-05	0	43	0	708837376	21	5478
2026-01-21 09:42:23.61	40.13	50.97	-30.9	-34.1	13.3	2.13e-05	0	43	0	709885952	22	5194
2026-01-21 09:42:24.61	39.52	50.84	-31.0	-34.3	13.2	1.98e-05	0	43	0	711983104	22	5268
2026-01-21 09:42:25.61	38.91	50.71	-31.3	-35.3	12.5	5.64e-05	0	43	0	714080256	22	5669
2026-01-21 09:42:26.61	38.31	50.58	-31.5	-35.7	12.3	2.16e-04	0	43	0	716177408	22	5844
2026-01-21 09:42:27.61	37.72	50.44	-31.3	-35.3	12.5	1.34e-04	0	43	0	717225984	22	5694
2026-01-21 09:42:28.60	37.13	50.30	-31.4	-35.5	12.4	1.44e-04	0	43	0	719323136	22	5783
2026-01-21 09:42:29.61	36.54	50.16	-31.4	-35.0	12.4	2.06e-04	0	43	0	721420288	23	5433
2026-01-21 09:42:30.60	35.97	50.02	-31.3	-34.8	12.5	1.11e-04	0	43	0	723517440	23	5361
2026-01-21 09:42:31.61	35.39	49.87	-31.4	-35.0	12.4	1.17e-04	0	43	0	725614592	23	5423
2026-01-21 09:42:32.61	34.83	49.72	-31.6	-35.4	12.1	2.05e-04	0	43	0	726663168	23	5602
2026-01-21 09:42:33.62	34.26	49.56	-31.6	-35.7	11.9	3.40e-04	0	43	0	728760320	23	5732
2026-01-21 09:42:34.62	33.70	49.41	-31.5	-35.2	12.3	3.07e-04	0	43	0	730857472	23	5502
2026-01-21 09:42:35.63	33.15	49.25	-31.3	-34.6	12.7	1.61e-04	0	43	0	732954624	23	5260
2026-01-21 09:42:36.64	32.60	49.09	-31.4	-34.7	12.6	9.76e-05	0	43	0	735051776	23	5292
2026-01-21 09:42:37.63	32.07	48.93	-31.5	-35.1	12.4	1.27e-04	0	43	0	736100352	23	5428
2026-01-21 09:42:38.63	31.53	48.77	-31.6	-35.3	12.2	1.50e-04	0	43	0	738197504	23	5549
2026-01-21 09:42:39.64	31.00	48.60	-31.5	-35.2	12.3	1.70e-04	0	43	0	740294656	23	5498
2026-01-21 09:42:40.64	30.48	48.43	-31.5	-35.0	12.4	1.48e-04	0	43	0	742391808	23	5432
2026-01-21 09:42:41.64	29.97	48.26	-31.5	-35.1	12.3	1.99e-04	0	43	0	744488960	23	5478
2026-01-21 09:42:42.64	29.46	48.09	-31.5	-35.2	12.2	1.81e-04	0	43	0	745537536	23	5517
2026-01-21 09:42:43.64	28.95	47.92	-31.7	-35.7	11.8	3.86e-04	0	43	0	747634688	23	5754
2026-01-21 09:42:44.64	28.45	47.74	-31.9	-36.6	11.3	8.60e-04	0	43	0	749731840	23	6171
2026-01-21 09:42:45.64	27.96	47.57	-32.0	-36.4	11.0	1.87e-03	0	43	0	751828992	24	5989
2026-01-21 09:42:46.64	27.47	47.39	-32.2	-37.2	10.4	3.92e-03	0	43	0	753926144	24	6350
2026-01-21 09:42:47.64	26.99	47.21	-32.3	-37.6	10.0	5.95e-03	0	43	0	754974720	24	6623
2026-01-21 09:42:48.64	26.52	47.03	-32.5	-38.2	9.6	8.90e-03	0	43	0	757071872	24	6928
2026-01-21 09:42:49.64	26.05	46.85	-32.4	-37.9	9.8	1.09e-02	0	43	0	759169024	24	6776
2026-01-21 09:42:50.64	25.58	46.67	-32.3	-37.7	9.9	8.37e-03	0	43	0	761266176	24	6684
2026-01-21 09:42:51.64	25.12	46.48	-32.4	-37.8	9.9	8.00e-03	0	43	0	762314752	24	6706
2026-01-21 09:42:52.65	24.66	46.29	-32.5	-37.7	9.6	1.42e-02	0	43	0	764411904	25	6545
2026-01-21 09:42:53.65	24.21	46.11	-32.4	-37.3	9.9	9.25e-03	0	43	0	766509056	25	6345
2026-01-21 09:42:54.66	23.77	45.92	-32.4	-37.3	9.9	9.03e-03	0	43	0	768606208	25	6344
2026-01-21 09:42:55.66	23.33	45.73	-32.5	-37.9	9.5	1.06e-02	0	43	0	770703360	25	6670
2026-01-21 09:42:56.67	22.89	45.54	-32.6	-38.1	9.2	2.27e-02	0	43	0	771751936	25	6806
2026-01-21 09:42:57.67	22.46	45.35	-32.6	-37.9	9.4	1.95e-02	0	43	0	773849088	25	6638
2026-01-21 09:42:58.67	22.04	45.15	-32.4	-37.0	10.1	8.74e-03	0	43	0	775946240	25	6159
2026-01-21 09:42:59.68	21.62	44.96	-32.4	-37.1	10.2	6.04e-03	0	43	0	778043392	25	6177
2026-01-21 09:43:00.68	21.21	44.77	-32.3	-36.8	10.3	5.48e-03	0	43	0	780140544	25	6019
2026-01-21 09:43:01.68	20.80	44.57	-32.2	-36.3	10.6	3.65e-03	0	43	0	781189120	25	5807
2026-01-21 09:43:02.68	20.40	44.38	-32.4	-36.9	10.2	3.49e-03	0	43	0	783286272	25	6076
2026-01-21 09:43:03.68	20.00	44.18	-32.2	-36.5	10.6	4.67e-03	0	43	0	785383424	25	5856
2026-01-21 09:43:04.69	19.61	43.99	-31.9	-35.4	11.3	1.81e-03	0	43	0	787480576	25	5369
2026-01-21 09:43:05.68	19.22	43.79	-31.7	-35.3	11.8	7.67e-04	0	43	0	789577728	24	5436
2026-01-21 09:43:06.69	18.84	43.59	-31.8	-35.5	11.6	4.65e-04	0	43	0	790626304	24	5516
2026-01-21 09:43:07.70	18.46	43.39	-31.7	-35.3	11.9	7.06e-04	0	43	0	792723456	24	5408
2026-01-21 09:43:08.70	18.08	43.20	-31.7	-35.1	12.0	3.28e-04	0	43	0	794820608	24	5331
2026-01-21 09:43:09.70	17.71	43.00	-31.8	-35.4	11.8	3.83e-04	0	43	0	796917760	24	5480
2026-01-21 09:43:10.71	17.35	42.80	-32.0	-35.9	11.3	8.80e-04	0	43	0	799014912	24	5699
2026-01-21 09:43:11.71	16.99	42.60	-32.2	-36.8	10.8	1.93e-03	0	43	0	800063488	24	6074
2026-01-21 09:43:12.72	16.63	42.40	-32.1	-36.5	10.9	3.54e-03	0	43	0	802160640	24	5944
2026-01-21 09:43:13.72	16.28	42.20	-32.0	-36.0	11.3	1.42e-03	0	43	0	804257792	24	5733
2026-01-21 09:43:14.72	15.93	42.00	-31.9	-36.0	11.3	1.15e-03	0	43	0	806354944	24	5746
2026-01-21 09:43:15.73	15.59	41.80	-31.9	-35.9	11.4	1.26e-03	0	43	0	808452096	24	5686
2026-01-21 09:43:16.73	15.25	41.60	-32.2	-36.8	10.7	1.52e-03	0	43	0	809500672	24	6083
2026-01-21 09:43:17.73	14.92	41.40	-32.3	-37.1	10.4	4.28e-03	0	43	0	811597824	24	6274
2026-01-21 09:43:18.74	14.58	41.20	-32.4	-37.5	10.1	5.47e-03	0	43	0	813694976	24	6505
2026-01-21 09:43:19.74	14.26	41.01	-32.4	-37.1	10.0	8.95e-03	0	43	0	815792128	25	6188
2026-01-21 09:43:20.74	13.94	40.81	-32.5	-37.2	10.0	7.16e-03	0	43	0	817889280	25	6194
2026-01-21 09:43:21.75	13.62	40.61	-32.4	-37.1	10.1	6.50e-03	0	43	0	818937856	25	6171
2026-01-21 09:43:22.75	13.30	40.41	-32.5	-37.5	9.7	1.03e-02	0	43	0	821035008	25	6346
2026-01-21 09:43:23.75	12.99	40.21	-32.6	-37.9	9.5	1.33e-02	0	43	0	823132160	25	6591
2026-01-21 09:43:24.76	12.69	40.01	-32.8	-38.4	9.1	2.00e-02	0	43	0	825229312	25	6868
2026-01-21 09:43:25.76	12.38	39.81	-32.6	-37.8	9.5	2.16e-02	0	44	0	826277888	25	6528
2026-01-21 09:43:26.77	12.08	39.61	-32.4	-37.2	10.0	1.29e-02	0	43	0	828375040	25	6217
2026-01-21 09:43:27.76	11.79	39.42	-32.3	-36.7	10.3	6.75e-03	0	43	0	830472192	25	6011
2026-01-21 09:43:28.77	11.50	39.22	-32.2	-36.7	10.3	5.24e-03	0	43	0	832569344	25	5993
2026-01-21 09:43:29.78	11.21	39.02	-32.2	-36.5	10.4	4.58e-03	0	43	0	834666496	25	5943
2026-01-21 09:43:30.78	10.92	38.82	-32.1	-36.3	10.5	5.24e-03	0	43	0	835715072	25	5840
2026-01-21 09:43:31.78	10.64	38.62	-32.3	-37.1	9.9	5.64e-03	0	43	0	837812224	25	6219
2026-01-21 09:43:32.78	10.37	38.43	-32.4	-37.2	9.9	1.05e-02	0	43	0	839909376	25	6257
2026-01-21 09:43:33.79	10.09	38.23	-32.2	-36.5	10.4	6.24e-03	0	43	0	842006528	25	5938
2026-01-21 09:43:34.80	9.82	38.03	-32.1	-36.2	10.6	4.51e-03	0	43	0	844103680	25	5822
2026-01-21 09:43:35.80	9.55	37.84	-32.0	-36.3	10.4	4.15e-03	0	43	0	845152256	25	5900
2026-01-21 09:43:36.80	9.29	37.64	-32.1	-36.3	10.4	4.64e-03	0	43	0	847249408	25	5903
2026-01-21 09:43:37.79	9.03	37.45	-31.9	-35.8	10.8	2.71e-03	0	43	0	849346560	25	5648
2026-01-21 09:43:38.80	8.77	37.26	-31.9	-35.6	11.0	2.09e-03	0	43	0	851443712	25	5519
2026-01-21 09:43:39.80	8.52	37.06	-31.9	-35.7	11.0	1.71e-03	0	43	0	853540864	25	5524
2026-01-21 09:43:40.80	8.26	36.87	-31.9	-35.6	11.0	1.86e-03	0	43	0	854589440	25	5494
2026-01-21 09:43:41.80	8.02	36.68	-32.1	-36.1	10.7	2.73e-03	0	43	0	856686592	25	5734
2026-01-21 09:43:42.81	7.77	36.49	-32.1	-36.4	10.4	4.28e-03	0	43	0	858783744	25	5866
2026-01-21 09:43:43.82	7.52	36.29	-32.2	-36.5	10.4	4.53e-03	0	43	0	860880896	25	5909
2026-01-21 09:43:44.83	7.28	36.10	-32.2	-36.6	10.2	4.96e-03	0	43	0	862978048	25	5975
2026-01-21 09:43:45.82	7.05	35.91	-32.2	-36.7	10.2	5.38e-03	0	43	0	864026624	25	6029
2026-01-21 09:43:46.82	6.81	35.72	-31.9	-35.8	10.7	4.66e-03	0	43	0	866123776	25	5579
2026-01-21 09:43:47.82	6.58	35.53	-31.7	-35.6	11.4	1.30e-03	0	43	0	868220928	24	5584
2026-01-21 09:43:48.83	6.35	35.34	-31.6	-35.2	11.6	7.81e-04	0	43	0	870318080	24	5418
2026-01-21 09:43:49.83	6.12	35.16	-31.5	-34.8	11.9	5.11e-04	0	43	0	872415232	24	5243
2026-01-21 09:43:50.83	5.90	34.97	-31.6	-35.1	11.8	4.27e-04	0	43	0	873463808	24	5367
2026-01-21 09:43:51.83	5.68	34.78	-31.7	-35.4	11.5	6.35e-04	0	43	0	875560960	24	5517
2026-01-21 09:43:52.83	5.46	34.60	-31.8	-35.6	11.4	8.72e-04	0	43	0	877658112	24	5602
2026-01-21 09:43:53.83	5.25	34.41	-31.9	-35.9	11.1	1.18e-03	0	43	0	879755264	24	5726
2026-01-21 09:43:54.82	5.04	34.23	-31.8	-35.8	11.1	1.33e-03	0	43	0	880803840	24	5706
2026-01-21 09:43:55.83	4.82	34.04	-31.7	-35.5	11.4	1.40e-03	0	43	0	882900992	24	5579
2026-01-21 09:43:56.83	4.61	33.86	-31.6	-35.3	11.5	8.99e-04	0	43	0	884998144	24	5508
2026-01-21 09:43:57.83	4.41	33.68	-31.6	-35.5	11.3	9.31e-04	0	43	0	887095296	24	5618
2026-01-21 09:43:58.84	4.20	33.50	-31.7	-35.5	11.3	8.95e-04	0	43	0	889192448	24	5623
2026-01-21 09:43:59.84	4.00	33.31	-31.6	-35.5	11.3	1.00e-03	0	43	0	890241024	24	5589
2026-01-21 09:44:00.85	3.80	33.13	-31.6	-35.2	11.5	1.03e-03	0	43	0	892338176	24	5495
2026-01-21 09:44:01.85	3.60	32.95	-31.7	-35.7	11.2	1.24e-03	0	43	0	894435328	24	5705
2026-01-21 09:44:02.85	3.41	32.77	-31.6	-35.4	11.4	1.18e-03	0	43	0	896532480	24	5580
2026-01-21 09:44:03.85	3.22	32.59	-31.6	-35.2	11.5	1.00e-03	0	43	0	898629632	24	5486
2026-01-21 09:44:04.85	3.03	32.42	-31.6	-35.2	11.5	6.66e-04	0	43	0	899678208	24	5452
2026-01-21 09:44:05.85	2.84	32.24	-31.6	-35.5	11.3	1.03e-03	0	43	0	901775360	24	5611
2026-01-21 09:44:06.85	2.65	32.06	-31.7	-35.8	11.0	1.45e-03	0	43	0	903872512	24	5769
2026-01-21 09:44:07.86	2.47	31.89	-31.8	-36.1	10.8	2.21e-03	0	43	0	905969664	24	5879
2026-01-21 09:44:08.86	2.28	31.71	-31.8	-36.2	10.7	2.72e-03	0	43	0	908066816	24	5954
2026-01-21 09:44:09.87	2.10	31.54	-31.9	-36.3	10.6	3.38e-03	0	43	0	909115392	24	6037
2026-01-21 09:44:10.87	1.92	31.36	-31.9	-36.3	10.6	2.98e-03	0	43	0	911212544	24	5975
2026-01-21 09:44:11.87	1.75	31.19	-31.9	-36.4	10.6	3.48e-03	0	43	0	913309696	24	6004
2026-01-21 09:44:12.88	1.57	31.02	-31.8	-35.9	11.0	2.21e-03	0	44	0	915406848	24	5797
2026-01-21 09:44:13.88	1.40	30.84	-31.8	-36.1	10.8	1.81e-03	0	44	0	917504000	24	5888
2026-01-21 09:44:14.88	1.23	30.67	-31.9	-36.5	10.5	3.39e-03	0	43	0	918552576	24	6103
2026-01-21 09:44:15.89	1.06	30.50	-31.9	-36.4	10.5	4.06e-03	0	43	0	920649728	24	6044
2026-01-21 09:44:16.90	0.89	30.33	-32.0	-37.1	10.0	5.05e-03	0	43	0	922746880	24	6421
2026-01-21 09:44:17.91	0.72	30.16	-31.9	-36.6	10.3	6.70e-03	0	43	0	924844032	24	6178
2026-01-21 09:44:18.91	0.56	29.99	-31.8	-36.0	10.9	3.35e-03	0	43	0	925892608	24	5858
2026-01-21 09:44:19.92	0.40	29.82	-31.5	-35.3	11.4	1.38e-03	0	43	0	927989760	24	5525
2026-01-21 09:44:20.92	0.24	29.66	-31.4	-34.7	11.8	7.07e-04	0	43	0	930086912	24	5267
2026-01-21 09:44:21.93	0.08	29.49	-31.3	-34.5	12.0	3.44e-04	0	43	0	932184064	24	5166
2026-01-21 09:44:22.93	359.92	29.33	-31.5	-34.9	11.7	4.86e-04	0	43	0	934281216	24	5342
2026-01-21 09:44:23.93	359.77	29.16	-31.4	-34.6	11.8	4.53e-04	0	43	0	936378368	24	5231
2026-01-21 09:44:24.93	359.61	29.00	-31.4	-34.7	11.8	4.61e-04	0	43	0	937426944	24	5288
2026-01-21 09:44:25.93	359.46	28.84	-31.4	-34.8	11.7	5.17e-04	0	43	0	939524096	24	5321
2026-01-21 09:44:26.94	359.31	28.67	-31.5	-35.1	11.6	5.39e-04	0	43	0	941621248	24	5426
2026-01-21 09:44:27.94	359.16	28.51	-31.4	-34.7	11.8	7.44e-04	0	43	0	943718400	24	5272
2026-01-21 09:44:28.95	359.01	28.35	-31.3	-34.5	11.9	4.03e-04	0	43	0	944766976	24	5190
2026-01-21 09:44:29.95	358.87	28.19	-31.2	-34.8	12.0	3.71e-04	0	43	0	946864128	23	5434
2026-01-21 09:44:30.95	358.72	28.03	-31.2	-34.6	12.1	3.21e-04	0	43	0	948961280	23	5347
2026-01-21 09:44:31.96	358.58	27.87	-31.0	-34.2	12.4	1.33e-04	0	43	0	951058432	23	5172
2026-01-21 09:44:32.96	358.44	27.71	-30.9	-33.8	12.7	8.62e-05	0	43	0	953155584	23	5014
2026-01-21 09:44:33.97	358.30	27.55	-30.8	-33.6	12.8	6.02e-05	0	43	0	954204160	23	4964
2026-01-21 09:44:34.98	358.16	27.40	-30.9	-33.9	12.6	8.77e-05	0	43	0	956301312	23	5088
2026-01-21 09:44:35.98	358.02	27.24	-31.0	-34.2	12.4	1.38e-04	0	43	0	958398464	23	5216
2026-01-21 09:44:36.97	357.89	27.09	-30.9	-33.8	12.6	1.07e-04	0	43	0	960495616	23	5046
2026-01-21 09:44:37.97	357.75	26.93	-31.0	-34.2	12.4	9.99e-05	0	43	0	962592768	23	5206
2026-01-21 09:44:38.97	357.62	26.78	-31.1	-34.4	12.3	1.64e-04	0	43	0	963641344	23	5275
2026-01-21 09:44:39.96	357.49	26.63	-31.2	-34.7	12.1	2.30e-04	0	43	0	965738496	23	5386
2026-01-21 09:44:40.97	357.36	26.47	-31.1	-34.5	12.1	2.41e-04	0	43	0	967835648	23	5325
2026-01-21 09:44:41.97	357.23	26.32	-31.0	-34.5	12.1	2.76e-04	0	43	0	969932800	23	5354
2026-01-21 09:44:42.97	357.10	26.17	-31.0	-34.4	12.2	2.11e-04	0	43	0	972029952	23	5290
2026-01-21 09:44:43.98	356.97	26.02	-31.0	-34.3	12.3	1.77e-04	0	43	0	973078528	23	5234
2026-01-21 09:44:44.98	356.85	25.87	-31.1	-34.4	12.3	1.43e-04	0	43	0	975175680	23	5243
2026-01-21 09:44:45.99	356.72	25.72	-31.2	-34.6	12.1	2.29e-04	0	43	0	977272832	23	5327
2026-01-21 09:44:46.99	356.60	25.57	-30.9	-33.8	12.6	1.52e-04	0	43	0	979369984	23	5036
2026-01-21 09:44:48.00	356.48	25.42	-30.8	-33.9	13.0	6.10e-05	0	43	0	981467136	22	5155
2026-01-21 09:44:49.00	356.35	25.28	-30.8	-34.1	12.8	5.87e-05	0	43	0	982515712	22	5226
2026-01-21 09:44:50.01	356.23	25.13	-30.9	-34.4	12.6	7.62e-05	0	43	0	984612864	22	5358
2026-01-21 09:44:51.02	356.11	24.98	-30.8	-33.9	13.0	6.86e-05	0	43	0	986710016	22	5177
2026-01-21 09:44:52.02	356.00	24.84	-30.9	-34.3	12.7	5.64e-05	0	43	0	988807168	22	5316
2026-01-21 09:44:53.02	355.88	24.70	-30.7	-33.7	13.1	3.58e-05	0	43	0	990904320	22	5093
2026-01-21 09:44:54.02	355.77	24.55	-30.5	-33.2	13.4	2.28e-05	0	43	0	991952896	22	4916
2026-01-21 09:44:55.02	355.65	24.41	-30.4	-33.1	13.4	9.90e-06	0	43	0	994050048	22	4870
2026-01-21 09:44:56.02	355.54	24.27	-30.5	-33.2	13.4	1.14e-05	0	43	0	996147200	22	4907
2026-01-21 09:44:57.02	355.43	24.13	-30.5	-33.1	13.4	1.37e-05	0	44	0	998244352	22	4891
2026-01-21 09:44:58.02	355.32	23.99	-30.4	-32.8	13.6	1.06e-05	0	43	0	999292928	22	4774
2026-01-21 09:44:59.02	355.21	23.85	-30.4	-32.8	13.6	6.80e-06	0	43	0	1001390080	22	4787
2026-01-21 09:45:00.02	355.10	23.71	-30.4	-32.9	13.6	8.30e-06	0	43	0	1003487232	22	4788
2026-01-21 09:45:01.02	354.99	23.57	-30.3	-32.7	13.7	8.30e-06	0	43	0	1005584384	22	4735
2026-01-21 09:45:02.02	354.88	23.43	-30.4	-32.9	13.6	8.30e-06	0	43	0	1007681536	22	4792
2026-01-21 09:45:03.02	354.78	23.29	-30.5	-33.0	13.5	1.22e-05	0	43	0	1008730112	22	4838
2026-01-21 09:45:04.02	354.67	23.15	-30.5	-33.2	13.4	1.67e-05	0	44	0	1010827264	22	4899
2026-01-21 09:45:05.02	354.57	23.02	-30.6	-33.4	13.3	1.22e-05	0	43	0	1012924416	22	4951
2026-01-21 09:45:06.02	354.47	22.88	-30.6	-33.5	13.2	2.82e-05	0	43	0	1015021568	22	5011
2026-01-21 09:45:07.03	354.36	22.75	-30.7	-33.6	13.1	2.51e-05	0	43	0	1017118720	22	5040
2026-01-21 09:45:08.03	354.26	22.61	-30.8	-34.0	12.9	3.66e-05	0	43	0	1018167296	22	5184
2026-01-21 09:45:09.04	354.16	22.48	-30.8	-33.9	12.9	4.57e-05	0	43	0	1020264448	22	5156
2026-01-21 09:45:10.04	354.06	22.34	-30.9	-34.0	12.8	5.18e-05	0	43	0	1022361600	22	5189
2026-01-21 09:45:11.04	353.96	22.21	-30.8	-34.0	12.9	4.57e-05	0	43	0	1024458752	22	5182
2026-01-21 09:45:12.05	353.86	22.08	-30.9	-34.2	12.7	7.09e-05	0	43	0	1026555904	22	5250
2026-01-21 09:45:13.05	353.77	21.95	-30.8	-33.8	12.9	4.57e-05	0	43	0	1027604480	22	5118
2026-01-21 09:45:14.05	353.67	21.82	-30.8	-33.9	12.9	3.81e-05	0	43	0	1029701632	22	5125
2026-01-21 09:45:15.06	353.58	21.68	-30.8	-33.9	12.9	4.95e-05	0	43	0	1031798784	22	5143
2026-01-21 09:45:16.06	353.48	21.55	-30.9	-34.2	12.7	7.01e-05	0	43	0	1033895936	22	5226
2026-01-21 09:45:17.06	353.39	21.42	-30.8	-33.9	12.9	4.95e-05	0	43	0	1034944512	22	5146
2026-01-21 09:45:18.05	353.30	21.30	-30.9	-34.1	12.8	5.56e-05	0	43	0	1037041664	22	5217
2026-01-21 09:45:19.06	353.20	21.17	-30.9	-34.0	12.9	5.56e-05	0	43	0	1039138816	22	5150
2026-01-21 09:45:20.06	353.11	21.04	-30.9	-34.2	12.7	6.71e-05	0	43	0	1041235968	22	5236
2026-01-21 09:45:21.06	353.02	20.91	-30.9	-34.0	12.8	5.56e-05	0	43	0	1043333120	22	5179
2026-01-21 09:45:22.06	352.93	20.79	-30.8	-33.8	12.9	5.11e-05	0	43	0	1044381696	22	5104
2026-01-21 09:45:23.06	352.84	20.66	-30.8	-33.9	12.9	3.89e-05	0	43	0	1046478848	22	5133
2026-01-21 09:45:24.07	352.76	20.54	-30.9	-34.2	12.7	6.56e-05	0	43	0	1048576000	22	5236
2026-01-21 09:45:25.07	352.67	20.41	-30.7	-33.7	13.0	5.64e-05	0	43	0	1050673152	22	5038
2026-01-21 09:45:26.07	352.58	20.29	-30.7	-33.4	13.2	1.75e-05	0	43	0	1052770304	22	4953
2026-01-21 09:45:27.07	352.50	20.16	-30.7	-33.4	13.2	2.13e-05	0	43	0	1053818880	22	4940
2026-01-21 09:45:28.08	352.41	20.04	-30.6	-33.2	13.3	1.67e-05	0	43	0	1055916032	22	4880
2026-01-21 09:45:29.08	352.33	19.92	-30.6	-33.2	13.3	1.52e-05	0	43	0	1058013184	22	4857
2026-01-21 09:45:30.08	352.24	19.80	-30.7	-33.6	13.1	2.97e-05	0	43	0	1060110336	22	5010
2026-01-21 09:45:31.09	352.16	19.67	-30.6	-33.3	13.3	2.67e-05	0	44	0	1062207488	22	4907
2026-01-21 09:45:32.09	352.08	19.55	-30.7	-33.5	13.1	2.51e-05	0	43	0	1063256064	22	4984
2026-01-21 09:45:33.10	351.99	19.43	-30.7	-33.4	13.2	2.13e-05	0	43	0	1065353216	22	4956
2026-01-21 09:45:34.10	351.91	19.31	-30.6	-33.4	13.2	1.60e-05	0	43	0	1067450368	22	4949
2026-01-21 09:45:35.11	351.83	19.19	-30.7	-33.6	13.0	3.05e-05	0	43	0	1069547520	22	5028
2026-01-21 09:45:36.11	351.75	19.07	-30.9	-34.0	12.7	4.27e-05	0	43	0	1071644672	22	5178
2026-01-21 09:45:37.11	351.67	18.95	-30.7	-33.7	13.0	4.57e-05	0	43	0	1072693248	22	5053
2026-01-21 09:45:38.11	351.59	18.84	-30.9	-34.0	12.7	4.57e-05	0	43	0	1074790400	22	5188
2026-01-21 09:45:39.11	351.52	18.72	-30.7	-33.7	12.9	5.41e-05	0	43	0	1076887552	22	5050
2026-01-21 09:45:40.11	351.44	18.60	-30.6	-33.3	13.2	2.82e-05	0	43	0	1078984704	22	4930
2026-01-21 09:45:41.12	351.36	18.48	-30.6	-33.2	13.2	2.67e-05	0	43	0	1080033280	22	4893
2026-01-21 09:45:42.12	351.29	18.37	-30.6	-33.5	13.0	2.28e-05	0	43	0	1082130432	22	4977
2026-01-21 09:45:43.12	351.21	18.25	-30.7	-33.5	13.1	3.73e-05	0	43	0	1084227584	22	4984
2026-01-21 09:45:44.13	351.14	18.14	-30.8	-34.0	12.7	5.18e-05	0	43	0	1086324736	22	5171
2026-01-21 09:45:45.13	351.06	18.02	-30.8	-33.9	12.8	4.80e-05	0	43	0	1088421888	22	5135
2026-01-21 09:45:46.13	350.99	17.91	-30.9	-34.3	12.5	8.92e-05	0	43	0	1089470464	22	5287
2026-01-21 09:45:47.13	350.92	17.80	-30.8	-34.0	12.7	8.01e-05	0	43	0	1091567616	22	5186
2026-01-21 09:45:48.14	350.84	17.68	-30.9	-34.1	12.7	6.10e-05	0	43	0	1093664768	22	5212
2026-01-21 09:45:49.14	350.77	17.57	-31.0	-34.4	12.4	1.04e-04	0	43	0	1095761920	22	5330
2026-01-21 09:45:50.15	350.70	17.46	-30.9	-34.3	12.5	1.15e-04	0	43	0	1097859072	22	5305
2026-01-21 09:45:51.15	350.63	17.34	-31.0	-34.4	12.4	1.45e-04	0	43	0	1098907648	22	5354
2026-01-21 09:45:52.15	350.56	17.23	-31.0	-34.4	12.4	1.46e-04	0	43	0	1101004800	22	5345
2026-01-21 09:45:53.16	350.49	17.12	-30.9	-34.2	12.5	1.10e-04	0	43	0	1103101952	22	5265
2026-01-21 09:45:54.16	350.42	17.01	-31.0	-34.4	12.4	1.52e-04	0	43	0	1105199104	22	5348
2026-01-21 09:45:55.16	350.35	16.90	-30.8	-34.1	12.6	1.08e-04	0	43	0	1107296256	22	5210
2026-01-21 09:45:56.17	350.28	16.79	-31.0	-34.4	12.3	1.08e-04	0	43	0	1108344832	22	5369
2026-01-21 09:45:57.17	350.21	16.68	-30.8	-34.0	12.6	1.06e-04	0	43	0	1110441984	22	5207
2026-01-21 09:45:58.17	350.15	16.57	-30.7	-33.7	12.9	6.40e-05	0	43	0	1112539136	22	5054
2026-01-21 09:45:59.16	350.08	16.47	-30.7	-33.7	12.9	5.41e-05	0	43	0	1114636288	22	5066
2026-01-21 09:46:00.16	350.02	16.36	-30.7	-33.7	12.8	5.87e-05	0	43	0	1116733440	22	5095
2026-01-21 09:46:01.16	349.95	16.25	-30.8	-34.0	12.6	7.93e-05	0	43	0	1117782016	22	5178
2026-01-21 09:46:02.17	349.89	16.15	-30.7	-33.7	12.8	5.72e-05	0	43	0	1119879168	22	5089
2026-01-21 09:46:03.17	349.82	16.04	-30.8	-33.8	12.7	5.87e-05	0	43	0	1121976320	22	5135
2026-01-21 09:46:04.18	349.76	15.93	-30.8	-33.8	12.7	7.47e-05	0	43	0	1124073472	22	5130
2026-01-21 09:46:05.18	349.69	15.83	-30.9	-34.2	12.5	8.46e-05	0	43	0	1126170624	22	5265
2026-01-21 09:46:06.17	349.63	15.72	-31.0	-34.6	12.2	1.85e-04	0	43	0	1127219200	22	5425
2026-01-21 09:46:07.18	349.57	15.62	-30.9	-34.3	12.4	1.72e-04	0	43	0	1129316352	22	5318
2026-01-21 09:46:08.18	349.51	15.51	-30.9	-34.2	12.4	1.18e-04	0	43	0	1131413504	22	5288
2026-01-21 09:46:09.18	349.44	15.41	-30.9	-34.3	12.4	1.39e-04	0	43	0	1133510656	22	5303
2026-01-21 09:46:10.19	349.38	15.31	-30.9	-34.2	12.4	1.46e-04	0	43	0	1134559232	22	5275
2026-01-21 09:46:11.19	349.32	15.20	-31.0	-34.6	12.1	2.43e-04	0	43	0	1136656384	22	5446
2026-01-21 09:46:12.19	349.26	15.10	-30.9	-34.3	12.3	1.91e-04	0	43	0	1138753536	22	5337
2026-01-21 09:46:13.20	349.20	15.00	-30.9	-34.2	12.4	1.70e-04	0	43	0	1140850688	22	5281
2026-01-21 09:46:14.20	349.14	14.90	-30.9	-34.4	12.2	1.96e-04	0	43	0	1142947840	22	5377
2026-01-21 09:46:15.21	349.08	14.79	-30.9	-34.4	12.2	2.03e-04	0	43	0	1143996416	22	5377
2026-01-21 09:46:16.21	349.02	14.69	-31.0	-34.5	12.1	2.23e-04	0	43	0	1146093568	22	5404
2026-01-21 09:46:17.21	348.96	14.59	-31.0	-34.7	12.0	2.20e-04	0	43	0	1148190720	22	5509
2026-01-21 09:46:18.21	348.91	14.49	-31.1	-35.0	11.8	5.16e-04	0	43	0	1150287872	22	5632
2026-01-21 09:46:19.22	348.85	14.39	-31.0	-34.6	12.0	4.07e-04	0	43	0	1152385024	22	5470
2026-01-21 09:46:20.22	348.79	14.29	-31.0	-34.8	11.9	3.20e-04	0	43	0	1153433600	22	5536
2026-01-21 09:46:21.23	348.74	14.19	-31.0	-34.8	11.9	4.00e-04	0	43	0	1155530752	22	5560
2026-01-21 09:46:22.22	348.68	14.09	-31.1	-34.9	11.8	4.36e-04	0	43	0	1157627904	22	5584
2026-01-21 09:46:23.22	348.62	14.00	-31.0	-34.8	11.8	4.25e-04	0	43	0	1159725056	22	5550
2026-01-21 09:46:24.22	348.57	13.90	-31.0	-34.6	11.9	4.26e-04	0	43	0	1161822208	22	5469
2026-01-21 09:46:25.22	348.51	13.80	-31.0	-34.9	11.8	4.06e-04	0	43	0	1162870784	22	5583
2026-01-21 09:46:26.22	348.46	13.70	-31.1	-35.0	11.7	6.14e-04	0	43	0	1164967936	22	5634
2026-01-21 09:46:27.23	348.40	13.61	-31.1	-34.9	11.8	5.72e-04	0	43	0	1167065088	22	5614
2026-01-21 09:46:28.23	348.35	13.51	-31.1	-35.1	11.6	6.06e-04	0	43	0	1169162240	22	5713
2026-01-21 09:46:29.24	348.30	13.41	-31.2	-35.5	11.3	9.76e-04	0	44	0	1171259392	22	5866
2026-01-21 09:46:30.25	348.24	13.32	-31.2	-35.3	11.4	9.64e-04	0	43	0	1172307968	22	5778
2026-01-21 09:46:31.25	348.19	13.22	-31.2	-35.3	11.5	8.79e-04	0	44	0	1174405120	22	5769
2026-01-21 09:46:32.26	348.14	13.12	-31.2	-35.4	11.3	8.35e-04	0	43	0	1176502272	22	5824
2026-01-21 09:46:33.26	348.09	13.03	-31.2	-35.5	11.3	1.29e-03	0	43	0	1178599424	22	5882
2026-01-21 09:46:34.27	348.03	12.93	-31.1	-35.1	11.5	8.43e-04	0	43	0	1180696576	22	5715
2026-01-21 09:46:35.27	347.98	12.84	-31.1	-35.1	11.5	8.50e-04	0	43	0	1181745152	22	5695
2026-01-21 09:46:36.27	347.93	12.75	-31.1	-35.1	11.6	8.12e-04	0	43	0	1183842304	22	5684
2026-01-21 09:46:37.27	347.88	12.65	-31.1	-35.1	11.5	7.43e-04	0	43	0	1185939456	22	5717
2026-01-21 09:46:38.27	347.83	12.56	-31.2	-35.5	11.2	1.48e-03	0	43	0	1188036608	22	5903
2026-01-21 09:46:39.27	347.78	12.47	-31.1	-35.1	11.5	1.09e-03	0	43	0	1190133760	22	5704
2026-01-21 09:46:40.27	347.73	12.38	-31.1	-35.0	11.6	7.26e-04	0	43	0	1191182336	22	5643
2026-01-21 09:46:41.28	347.68	12.28	-31.0	-34.9	11.7	5.73e-04	0	44	0	1193279488	22	5592
2026-01-21 09:46:42.27	347.63	12.19	-31.1	-35.0	11.5	6.26e-04	0	43	0	1195376640	22	5679
2026-01-21 09:46:43.28	347.59	12.10	-31.1	-35.2	11.4	9.33e-04	0	43	0	1197473792	22	5751
2026-01-21 09:46:44.28	347.54	12.01	-31.1	-35.0	11.5	7.58e-04	0	44	0	1198522368	22	5682
2026-01-21 09:46:45.29	347.49	11.92	-31.1	-35.0	11.5	8.48e-04	0	43	0	1200619520	22	5684
2026-01-21 09:46:46.29	347.44	11.83	-31.1	-35.2	11.3	1.03e-03	0	43	0	1202716672	22	5777
2026-01-21 09:46:47.29	347.39	11.74	-31.1	-35.2	11.3	1.00e-03	0	43	0	1204813824	22	5770
2026-01-21 09:46:48.28	347.35	11.65	-31.2	-35.3	11.2	1.40e-03	0	43	0	1206910976	22	5828
2026-01-21 09:46:49.28	347.30	11.56	-31.1	-35.3	11.3	1.20e-03	0	43	0	1207959552	22	5798
2026-01-21 09:46:50.29	347.25	11.47	-31.3	-35.7	11.0	1.48e-03	0	43	0	1210056704	22	5993
2026-01-21 09:46:51.28	347.21	11.38	-31.3	-35.9	10.8	2.66e-03	0	43	0	1212153856	22	6076
2026-01-21 09:46:52.29	347.16	11.29	-31.2	-35.5	11.1	1.56e-03	0	43	0	1214251008	22	5905
2026-01-21 09:46:53.29	347.12	11.20	-31.2	-35.3	11.2	1.44e-03	0	43	0	1216348160	22	5821
2026-01-21 09:46:54.30	347.07	11.11	-31.3	-35.8	10.9	1.44e-03	0	43	0	1217396736	22	6042
2026-01-21 09:46:55.30	347.03	11.03	-31.3	-36.0	10.6	3.36e-03	0	43	0	1219493888	22	6181
2026-01-21 09:46:56.30	346.98	10.94	-31.2	-35.6	11.0	2.43e-03	0	43	0	1221591040	22	5965
2026-01-21 09:46:57.30	346.94	10.85	-31.2	-35.6	11.0	1.91e-03	0	43	0	1223688192	22	5964
2026-01-21 09:46:58.31	346.89	10.76	-31.2	-35.5	11.0	1.80e-03	0	43	0	1225785344	22	5916
2026-01-21 09:46:59.31	346.85	10.68	-31.2	-35.6	11.0	1.84e-03	0	43	0	1226833920	22	5950
2026-01-21 09:47:00.32	346.81	10.59	-31.3	-35.8	10.8	2.25e-03	0	43	0	1228931072	22	6082
2026-01-21 09:47:01.32	346.76	10.50	-31.2	-35.6	11.0	2.19e-03	0	43	0	1231028224	22	5949
2026-01-21 09:47:02.32	346.72	10.42	-31.2	-35.7	10.9	2.21e-03	0	43	0	1233125376	22	5990
2026-01-21 09:47:03.33	346.68	10.33	-31.3	-35.7	10.8	2.40e-03	0	43	0	1235222528	22	6033
2026-01-21 09:47:04.33	346.64	10.25	-31.2	-35.7	10.9	2.70e-03	0	43	0	1236271104	22	6035
2026-01-21 09:47:05.33	346.59	10.16	-31.3	-35.9	10.7	3.04e-03	0	43	0	1238368256	22	6120
2026-01-21 09:47:06.34	346.55	10.08	-31.3	-36.0	10.6	2.69e-03	0	43	0	1240465408	22	6146
2026-01-21 09:47:07.34	346.51	9.99	-31.3	-36.1	10.6	3.37e-03	0	43	0	1242562560	22	6212
2026-01-21 09:47:08.34	346.47	9.91	-31.4	-36.1	10.4	4.20e-03	0	43	0	1243611136	22	6245
2026-01-21 09:47:09.34	346.43	9.83	-31.4	-36.2	10.4	3.93e-03	0	43	0	1245708288	22	6272
2026-01-21 09:47:10.35	346.39	9.74	-31.4	-36.5	10.2	5.98e-03	0	43	0	1247805440	22	6438
2026-01-21 09:47:11.35	346.35	9.66	-31.4	-36.5	10.2	5.61e-03	0	43	0	1249902592	22	6421
2026-01-21 09:47:12.36	346.31	9.57	-31.4	-36.4	10.3	4.87e-03	0	44	0	1251999744	22	6387
2026-01-21 09:47:13.35	346.27	9.49	-31.5	-36.5	10.2	6.00e-03	0	43	0	1253048320	22	6442
2026-01-21 09:47:14.35	346.23	9.41	-31.4	-36.5	10.2	6.13e-03	0	43	0	1255145472	22	6450
2026-01-21 09:47:15.35	346.19	9.33	-31.5	-36.2	9.9	8.26e-03	0	43	0	1257242624	23	6199
2026-01-21 09:47:16.36	346.15	9.24	-31.5	-36.4	9.8	9.15e-03	0	43	0	1259339776	23	6284
2026-01-21 09:47:17.37	346.11	9.16	-31.6	-36.6	9.7	1.28e-02	0	43	0	1261436928	23	6413
2026-01-21 09:47:18.37	346.07	9.08	-31.6	-36.8	9.5	1.31e-02	0	43	0	1262485504	23	6505
2026-01-21 09:47:19.37	346.03	9.00	-31.6	-36.8	9.5	1.62e-02	0	43	0	1264582656	23	6505
2026-01-21 09:47:20.37	345.99	8.92	-31.6	-36.7	9.6	1.30e-02	0	43	0	1266679808	23	6462
2026-01-21 09:47:21.38	345.96	8.84	-31.6	-36.8	9.5	1.36e-02	0	43	0	1268776960	23	6522
2026-01-21 09:47:22.38	345.92	8.76	-31.7	-36.9	9.4	1.44e-02	0	43	0	1270874112	23	6581
2026-01-21 09:47:23.38	345.88	8.68	-31.7	-37.1	9.2	2.04e-02	0	43	0	1271922688	23	6702
2026-01-21 09:47:24.38	345.84	8.60	-31.7	-37.0	9.3	1.70e-02	0	44	0	1274019840	23	6655
2026-01-21 09:47:25.38	345.81	8.52	-31.8	-37.3	9.0	2.32e-02	0	43	0	1276116992	23	6846
2026-01-21 09:47:26.38	345.77	8.44	-31.8	-37.5	8.8	3.09e-02	0	43	0	1278214144	23	6950
2026-01-21 09:47:27.39	345.73	8.36	-31.7	-37.1	9.1	2.70e-02	0	43	0	1280311296	23	6737
2026-01-21 09:47:28.38	345.70	8.28	-31.7	-37.0	9.2	2.11e-02	0	44	0	1281359872	23	6650
2026-01-21 09:47:29.39	345.66	8.20	-31.6	-36.9	9.3	1.77e-02	0	43	0	1283457024	23	6600
2026-01-21 09:47:30.39	345.62	8.12	-31.7	-37.0	9.3	1.75e-02	0	44	0	1285554176	23	6657
