passes_logs/2026/01/21/R2M6_AANII_01/R2M6_AANII_01__20260121_002111_FENGYUN_3D_rec.log

#Pass ID: 20260121_002111_FENGYUN 3D
#Satellite: FENGYUN 3D
#Configuration: FENGYUN 3D
#almurnet v.1.7.20240730
#Start time: 2026-01-21 00:21:13

#Version: 2.2.20231116
#Station: R2M6_AANII_01
#Location: 30.233357 lon 59.946436 lat
#TLE: 1 43010U 17072A   26020.28933472  .00000051  00000+0  46008-4 0  9990
#TLE: 2 43010  98.9944 352.1871 0002476  99.7001 260.4455 14.19696838424006

#Time	Az	El	Level	Level2	SNR	BER	BlckErr	Temp	State	Recorded	gain1	gain2
2026-01-21 00:21:13.22	37.03	7.08	-29.5	-32.2	5.5	7.52e-01	0	42	0	0	19	4901
2026-01-21 00:21:14.22	37.15	7.13	-30.1	-32.8	5.4	7.61e-01	0	42	104	0	21	4919
2026-01-21 00:21:15.22	37.27	7.18	-30.2	-33.0	9.8	1.00e-02	0	42	0	0	21	4976
2026-01-21 00:21:16.22	37.40	7.23	-29.9	-32.1	10.3	5.35e-03	0	42	0	5242880	21	4674
2026-01-21 00:21:17.23	37.52	7.28	-29.6	-32.0	10.8	2.86e-03	0	42	0	11534336	20	4725
2026-01-21 00:21:18.23	37.64	7.33	-29.5	-31.6	11.0	1.38e-03	0	42	0	16777216	20	4603
2026-01-21 00:21:19.23	37.77	7.38	-29.3	-31.7	11.4	7.28e-04	0	42	0	22020096	19	4723
2026-01-21 00:21:20.24	37.89	7.43	-29.4	-32.0	11.2	1.26e-03	0	42	0	28311552	19	4820
2026-01-21 00:21:21.24	38.02	7.49	-29.0	-30.8	12.0	4.37e-04	0	42	0	33554432	19	4432
2026-01-21 00:21:22.25	38.14	7.54	-28.7	-30.5	12.4	1.01e-04	0	42	0	38797312	18	4469
2026-01-21 00:21:23.25	38.27	7.59	-28.3	-29.7	13.0	4.80e-05	0	42	0	45088768	18	4219
2026-01-21 00:21:24.26	38.39	7.64	-28.1	-29.6	13.3	1.14e-05	0	43	0	50331648	17	4303
2026-01-21 00:21:25.26	38.52	7.69	-27.9	-29.3	13.5	4.50e-06	0	43	0	55574528	17	4197
2026-01-21 00:21:26.26	38.65	7.74	-28.0	-29.3	13.5	5.70e-06	0	43	0	61865984	17	4195
2026-01-21 00:21:27.26	38.77	7.79	-28.0	-29.5	13.4	9.10e-06	0	43	0	67108864	17	4264
2026-01-21 00:21:28.26	38.90	7.84	-27.8	-29.1	13.7	1.10e-06	0	43	0	73400320	17	4137
2026-01-21 00:21:29.26	39.03	7.89	-27.7	-29.3	13.8	3.40e-06	0	43	0	78643200	16	4315
2026-01-21 00:21:30.27	39.16	7.95	-27.8	-29.4	13.8	2.20e-06	0	43	0	83886080	16	4329
2026-01-21 00:21:31.28	39.29	8.00	-27.6	-29.0	14.1	1.10e-06	0	43	0	90177536	16	4215
2026-01-21 00:21:32.28	39.42	8.05	-27.5	-28.8	14.2	1.10e-06	0	43	0	95420416	16	4172
2026-01-21 00:21:33.28	39.54	8.10	-27.4	-28.6	14.3	0.00e+00	0	43	0	101711872	16	4117
2026-01-21 00:21:34.28	39.67	8.15	-27.5	-28.8	14.2	1.10e-06	0	43	0	106954752	16	4161
2026-01-21 00:21:35.28	39.80	8.20	-27.3	-28.3	14.4	1.10e-06	0	43	0	112197632	16	4043
2026-01-21 00:21:36.27	39.93	8.25	-27.2	-28.7	14.4	0.00e+00	0	43	0	118489088	15	4245
2026-01-21 00:21:37.28	40.07	8.30	-27.1	-28.3	14.6	0.00e+00	0	43	0	123731968	15	4150
2026-01-21 00:21:38.27	40.20	8.35	-27.1	-28.2	14.6	0.00e+00	0	43	0	128974848	15	4119
2026-01-21 00:21:39.28	40.33	8.40	-27.1	-28.3	14.6	0.00e+00	0	43	0	135266304	15	4141
2026-01-21 00:21:40.27	40.46	8.46	-27.1	-28.4	14.5	1.10e-06	0	43	0	140509184	15	4174
2026-01-21 00:21:41.28	40.60	8.51	-27.1	-28.3	14.6	0.00e+00	0	43	0	146800640	15	4132
2026-01-21 00:21:42.27	40.73	8.56	-27.0	-28.2	14.7	0.00e+00	0	43	0	152043520	15	4100
2026-01-21 00:21:43.28	40.86	8.61	-27.1	-28.3	14.6	0.00e+00	0	43	0	157286400	15	4141
2026-01-21 00:21:44.28	41.00	8.66	-27.1	-28.4	14.5	0.00e+00	0	43	0	163577856	15	4174
2026-01-21 00:21:45.29	41.13	8.71	-27.2	-28.4	14.5	1.10e-06	0	43	0	168820736	15	4169
2026-01-21 00:21:46.30	41.27	8.76	-27.1	-28.3	14.6	1.10e-06	0	43	0	174063616	15	4142
2026-01-21 00:21:47.30	41.41	8.81	-27.1	-28.4	14.6	0.00e+00	0	43	0	180355072	15	4167
2026-01-21 00:21:48.30	41.54	8.86	-27.1	-28.4	14.6	0.00e+00	0	43	0	185597952	15	4171
2026-01-21 00:21:49.31	41.68	8.91	-27.1	-28.4	14.6	1.10e-06	0	43	0	190840832	15	4165
2026-01-21 00:21:50.31	41.82	8.96	-27.1	-28.3	14.7	0.00e+00	0	43	0	197132288	15	4128
2026-01-21 00:21:51.32	41.96	9.01	-27.0	-28.2	14.7	0.00e+00	0	43	0	202375168	15	4111
2026-01-21 00:21:52.33	42.09	9.07	-27.0	-28.1	14.7	0.00e+00	0	43	0	208666624	15	4093
2026-01-21 00:21:53.33	42.23	9.12	-27.1	-28.2	14.7	0.00e+00	0	43	0	213909504	15	4126
2026-01-21 00:21:54.33	42.37	9.17	-27.1	-28.3	14.6	0.00e+00	0	43	0	220200960	15	4144
2026-01-21 00:21:55.33	42.51	9.22	-27.1	-28.4	14.6	0.00e+00	0	43	0	225443840	15	4179
2026-01-21 00:21:56.33	42.65	9.27	-27.1	-28.2	14.7	3.43e-05	0	43	0	230686720	15	4126
2026-01-21 00:21:57.34	42.79	9.32	-27.0	-28.2	14.7	0.00e+00	0	43	0	236978176	15	4107
2026-01-21 00:21:58.35	42.94	9.37	-27.1	-28.2	14.7	0.00e+00	0	43	0	242221056	15	4121
2026-01-21 00:21:59.35	43.08	9.42	-27.1	-28.3	14.7	3.43e-05	0	44	0	247463936	15	4134
2026-01-21 00:22:00.35	43.22	9.47	-27.1	-28.2	14.7	0.00e+00	0	43	0	253755392	15	4123
2026-01-21 00:22:01.35	43.36	9.52	-27.1	-28.2	14.8	0.00e+00	0	43	0	258998272	15	4110
2026-01-21 00:22:02.36	43.50	9.57	-27.2	-28.5	14.5	0.00e+00	0	43	0	264241152	15	4200
2026-01-21 00:22:03.37	43.65	9.62	-27.2	-28.6	14.5	1.79e-04	0	43	0	270532608	15	4221
2026-01-21 00:22:04.37	43.79	9.67	-27.1	-28.2	14.7	0.00e+00	0	44	0	275775488	15	4122
2026-01-21 00:22:05.37	43.94	9.72	-26.9	-28.0	14.9	2.48e-04	0	43	0	282066944	15	4056
2026-01-21 00:22:06.38	44.08	9.77	-27.0	-28.6	14.8	2.83e-04	0	44	0	287309824	14	4323
2026-01-21 00:22:07.39	44.23	9.82	-27.1	-28.8	14.7	0.00e+00	0	44	0	293601280	14	4394
2026-01-21 00:22:08.39	44.37	9.87	-26.9	-28.4	14.9	3.42e-04	0	44	0	298844160	14	4263
2026-01-21 00:22:09.40	44.52	9.92	-27.0	-29.0	14.9	3.49e-04	0	43	0	304087040	13	4543
2026-01-21 00:22:10.41	44.67	9.97	-26.8	-28.7	15.0	0.00e+00	0	44	0	310378496	13	4468
2026-01-21 00:22:11.41	44.82	10.02	-26.7	-28.5	15.1	2.54e-04	0	44	0	315621376	13	4412
2026-01-21 00:22:12.42	44.97	10.07	-26.8	-28.5	15.1	2.30e-04	0	44	0	320864256	13	4420
2026-01-21 00:22:13.42	45.11	10.12	-26.7	-28.5	15.1	0.00e+00	0	44	0	327155712	13	4398
2026-01-21 00:22:14.42	45.26	10.17	-26.7	-28.4	15.2	2.63e-04	0	44	0	332398592	13	4386
2026-01-21 00:22:15.42	45.41	10.22	-26.6	-28.2	15.4	2.24e-04	0	44	0	338690048	13	4318
2026-01-21 00:22:16.43	45.56	10.27	-26.6	-28.1	15.4	0.00e+00	0	43	0	343932928	13	4305
2026-01-21 00:22:17.42	45.71	10.31	-26.6	-28.1	15.4	1.13e-04	0	44	0	349175808	13	4288
2026-01-21 00:22:18.42	45.86	10.36	-26.6	-28.2	15.4	1.65e-04	0	44	0	355467264	13	4309
2026-01-21 00:22:19.42	46.01	10.41	-26.6	-28.3	15.3	0.00e+00	0	44	0	360710144	13	4337
2026-01-21 00:22:20.42	46.16	10.46	-26.6	-28.2	15.4	2.59e-04	0	44	0	365953024	13	4308
2026-01-21 00:22:21.43	46.32	10.51	-26.7	-28.3	15.3	2.71e-04	0	44	0	372244480	13	4366
2026-01-21 00:22:22.43	46.47	10.56	-26.7	-28.5	15.2	0.00e+00	0	44	0	377487360	13	4395
2026-01-21 00:22:23.44	46.62	10.61	-26.7	-28.5	15.2	0.00e+00	0	44	0	383778816	13	4396
2026-01-21 00:22:24.44	46.78	10.66	-26.7	-28.4	15.2	2.94e-04	0	44	0	389021696	13	4378
2026-01-21 00:22:25.44	46.93	10.70	-26.7	-28.3	15.3	0.00e+00	0	44	0	394264576	13	4348
2026-01-21 00:22:26.45	47.09	10.75	-26.6	-28.3	15.3	1.91e-04	0	44	0	400556032	13	4336
2026-01-21 00:22:27.45	47.24	10.80	-26.6	-28.2	15.4	1.07e-04	0	44	0	405798912	13	4323
2026-01-21 00:22:28.45	47.40	10.85	-26.6	-28.3	15.4	0.00e+00	0	44	0	411041792	13	4338
2026-01-21 00:22:29.46	47.55	10.90	-26.7	-28.3	15.3	4.69e-05	0	44	0	417333248	13	4361
2026-01-21 00:22:30.46	47.71	10.95	-26.7	-28.5	15.2	0.00e+00	0	44	0	422576128	13	4398
2026-01-21 00:22:31.46	47.87	10.99	-26.5	-28.0	15.5	0.00e+00	0	44	0	428867584	13	4260
2026-01-21 00:22:32.47	48.03	11.04	-26.5	-27.9	15.5	0.00e+00	0	44	0	434110464	13	4238
2026-01-21 00:22:33.46	48.18	11.09	-26.5	-27.8	15.6	1.43e-04	0	44	0	439353344	13	4222
2026-01-21 00:22:34.46	48.34	11.14	-26.4	-27.7	15.6	0.00e+00	0	44	0	445644800	13	4196
2026-01-21 00:22:35.47	48.50	11.18	-26.5	-28.0	15.5	0.00e+00	0	44	0	450887680	13	4257
2026-01-21 00:22:36.47	48.66	11.23	-26.7	-28.3	15.3	3.29e-04	0	44	0	456130560	13	4343
2026-01-21 00:22:37.47	48.82	11.28	-26.7	-28.3	15.3	0.00e+00	0	44	0	462422016	13	4351
2026-01-21 00:22:38.47	48.98	11.33	-26.6	-28.2	15.4	2.95e-04	0	44	0	467664896	13	4318
2026-01-21 00:22:39.48	49.14	11.37	-26.7	-28.3	15.3	0.00e+00	0	44	0	473956352	13	4359
2026-01-21 00:22:40.48	49.30	11.42	-26.7	-28.4	15.3	0.00e+00	0	44	0	479199232	13	4383
2026-01-21 00:22:41.48	49.47	11.47	-26.8	-28.5	15.2	0.00e+00	0	44	0	484442112	13	4411
2026-01-21 00:22:42.49	49.63	11.51	-26.8	-28.7	15.1	0.00e+00	0	44	0	490733568	13	4455
2026-01-21 00:22:43.49	49.79	11.56	-26.8	-28.6	15.2	0.00e+00	0	44	0	495976448	13	4417
2026-01-21 00:22:44.49	49.96	11.61	-26.6	-28.1	15.5	0.00e+00	0	44	0	502267904	13	4286
2026-01-21 00:22:45.50	50.12	11.65	-26.4	-27.8	15.6	0.00e+00	0	44	0	507510784	13	4205
2026-01-21 00:22:46.49	50.28	11.70	-26.5	-27.8	15.6	0.00e+00	0	44	0	512753664	13	4217
2026-01-21 00:22:47.50	50.45	11.75	-26.4	-27.7	15.7	0.00e+00	0	44	0	519045120	13	4192
2026-01-21 00:22:48.51	50.62	11.79	-26.4	-27.7	15.7	0.00e+00	0	44	0	524288000	13	4191
2026-01-21 00:22:49.51	50.78	11.84	-26.4	-27.6	15.8	0.00e+00	0	44	0	529530880	13	4167
2026-01-21 00:22:50.51	50.95	11.89	-26.3	-27.4	15.9	0.00e+00	0	44	0	535822336	13	4098
2026-01-21 00:22:51.52	51.12	11.93	-26.2	-27.2	16.0	0.00e+00	0	44	0	541065216	13	4057
2026-01-21 00:22:52.52	51.29	11.98	-26.1	-27.1	16.0	0.00e+00	0	44	0	546308096	13	4030
2026-01-21 00:22:53.52	51.45	12.02	-26.1	-27.1	16.0	0.00e+00	0	44	0	552599552	13	4023
2026-01-21 00:22:54.53	51.62	12.07	-26.2	-27.3	15.9	0.00e+00	0	44	0	557842432	13	4082
2026-01-21 00:22:55.52	51.79	12.11	-26.2	-27.2	16.0	0.00e+00	0	44	0	564133888	13	4044
2026-01-21 00:22:56.52	51.96	12.16	-26.4	-27.6	15.8	0.00e+00	0	44	0	569376768	13	4150
2026-01-21 00:22:57.53	52.13	12.20	-26.3	-27.4	15.9	0.00e+00	0	44	0	575668224	13	4099
2026-01-21 00:22:58.54	52.30	12.25	-26.2	-27.2	16.0	0.00e+00	0	44	0	580911104	13	4054
2026-01-21 00:22:59.53	52.47	12.29	-26.3	-27.5	15.8	0.00e+00	0	44	0	586153984	13	4121
2026-01-21 00:23:00.53	52.64	12.34	-26.3	-27.4	15.9	0.00e+00	0	44	0	592445440	13	4110
2026-01-21 00:23:01.54	52.82	12.38	-26.4	-27.7	15.8	0.00e+00	0	44	0	597688320	13	4170
2026-01-21 00:23:02.54	52.99	12.42	-26.4	-27.7	15.7	0.00e+00	0	44	0	602931200	13	4187
2026-01-21 00:23:03.54	53.16	12.47	-26.3	-27.4	15.9	0.00e+00	0	44	0	609222656	13	4096
2026-01-21 00:23:04.55	53.34	12.51	-26.2	-27.3	16.0	0.00e+00	0	44	0	614465536	13	4076
2026-01-21 00:23:05.55	53.51	12.56	-26.1	-27.2	16.1	0.00e+00	0	44	0	619708416	13	4042
2026-01-21 00:23:06.56	53.69	12.60	-26.3	-27.6	15.8	0.00e+00	0	44	0	625999872	13	4143
2026-01-21 00:23:07.56	53.86	12.64	-26.3	-27.4	15.9	0.00e+00	0	44	0	631242752	13	4110
2026-01-21 00:23:08.57	54.04	12.69	-26.2	-27.8	15.9	0.00e+00	0	44	0	637534208	12	4319
2026-01-21 00:23:09.57	54.22	12.73	-26.3	-28.1	15.8	0.00e+00	0	44	0	642777088	12	4397
2026-01-21 00:23:10.57	54.39	12.77	-26.3	-28.0	15.8	0.00e+00	0	44	0	648019968	12	4377
2026-01-21 00:23:11.57	54.57	12.82	-26.2	-27.7	16.0	0.00e+00	0	44	0	654311424	12	4302
2026-01-21 00:23:12.58	54.75	12.86	-26.1	-27.6	16.1	0.00e+00	0	44	0	659554304	12	4262
2026-01-21 00:23:13.58	54.93	12.90	-26.1	-27.5	16.1	0.00e+00	0	44	0	665845760	12	4234
2026-01-21 00:23:14.59	55.11	12.94	-26.0	-27.3	16.3	0.00e+00	0	44	0	671088640	12	4175
2026-01-21 00:23:15.59	55.29	12.99	-25.9	-27.1	16.4	0.00e+00	0	44	0	676331520	12	4133
2026-01-21 00:23:16.59	55.47	13.03	-25.9	-27.1	16.4	0.00e+00	0	44	0	682622976	12	4124
2026-01-21 00:23:17.60	55.65	13.07	-25.9	-27.2	16.3	0.00e+00	0	44	0	687865856	12	4158
2026-01-21 00:23:18.60	55.83	13.11	-26.0	-27.4	16.2	0.00e+00	0	44	0	693108736	12	4198
2026-01-21 00:23:19.61	56.01	13.15	-26.1	-27.6	16.1	0.00e+00	0	44	0	699400192	12	4255
2026-01-21 00:23:20.61	56.19	13.19	-26.2	-27.7	16.0	0.00e+00	0	44	0	704643072	12	4292
2026-01-21 00:23:21.61	56.38	13.23	-26.2	-27.8	16.0	0.00e+00	0	44	0	710934528	12	4333
2026-01-21 00:23:22.62	56.56	13.27	-26.2	-27.8	16.0	0.00e+00	0	44	0	716177408	12	4322
2026-01-21 00:23:23.62	56.74	13.32	-26.1	-27.6	16.1	0.00e+00	0	44	0	721420288	12	4280
2026-01-21 00:23:24.62	56.93	13.36	-26.1	-27.5	16.2	0.00e+00	0	44	0	727711744	12	4231
2026-01-21 00:23:25.62	57.11	13.40	-26.1	-27.6	16.1	0.00e+00	0	44	0	732954624	12	4279
2026-01-21 00:23:26.62	57.29	13.44	-26.0	-27.4	16.2	0.00e+00	0	44	0	738197504	12	4217
2026-01-21 00:23:27.62	57.48	13.47	-26.0	-27.2	16.3	0.00e+00	0	44	0	744488960	12	4155
2026-01-21 00:23:28.62	57.66	13.51	-26.1	-27.5	16.2	0.00e+00	0	44	0	749731840	12	4248
2026-01-21 00:23:29.63	57.85	13.55	-25.8	-27.1	16.0	0.00e+00	0	44	0	756023296	12	4172
2026-01-21 00:23:30.64	58.04	13.59	-25.9	-27.1	16.4	0.00e+00	0	44	0	761266176	12	4118
2026-01-21 00:23:31.64	58.23	13.63	-25.8	-26.9	16.2	0.00e+00	0	44	0	766509056	12	4090
2026-01-21 00:23:32.64	58.41	13.67	-25.9	-27.1	16.3	0.00e+00	0	44	0	772800512	12	4142
2026-01-21 00:23:33.65	58.60	13.71	-26.0	-27.3	16.3	0.00e+00	0	44	0	778043392	12	4184
2026-01-21 00:23:34.65	58.79	13.75	-26.1	-27.6	16.1	0.00e+00	0	44	0	784334848	12	4259
2026-01-21 00:23:35.66	58.98	13.79	-26.1	-27.5	16.2	6.17e-05	0	44	0	789577728	12	4247
2026-01-21 00:23:36.66	59.17	13.82	-25.9	-27.1	16.4	0.00e+00	0	44	0	794820608	12	4134
2026-01-21 00:23:37.67	59.36	13.86	-25.8	-26.9	16.5	0.00e+00	0	44	0	801112064	12	4077
2026-01-21 00:23:38.67	59.55	13.90	-25.8	-26.8	16.6	0.00e+00	0	44	0	806354944	12	4064
2026-01-21 00:23:39.67	59.74	13.93	-25.7	-26.6	16.7	0.00e+00	0	44	0	811597824	12	4002
2026-01-21 00:23:40.67	59.94	13.97	-25.6	-26.4	16.8	0.00e+00	0	44	0	817889280	12	3959
2026-01-21 00:23:41.68	60.13	14.01	-25.6	-26.5	16.8	0.00e+00	0	44	0	823132160	12	3973
2026-01-21 00:23:42.68	60.32	14.04	-25.5	-26.3	16.8	0.00e+00	0	44	0	829423616	12	3927
2026-01-21 00:23:43.68	60.51	14.08	-25.6	-26.3	16.9	0.00e+00	0	44	0	834666496	12	3934
2026-01-21 00:23:44.69	60.71	14.12	-25.6	-26.9	16.9	2.78e-04	0	44	0	839909376	11	4194
2026-01-21 00:23:45.69	60.90	14.15	-25.6	-26.9	16.8	0.00e+00	0	44	0	846200832	11	4193
2026-01-21 00:23:46.70	61.10	14.19	-25.6	-27.0	16.8	2.68e-04	0	44	0	851443712	11	4213
2026-01-21 00:23:47.71	61.29	14.22	-25.8	-27.3	16.7	3.07e-04	0	44	0	857735168	11	4293
2026-01-21 00:23:48.71	61.49	14.26	-25.7	-27.2	16.7	0.00e+00	0	44	0	862978048	11	4257
2026-01-21 00:23:49.72	61.69	14.29	-25.7	-27.1	16.7	1.48e-05	0	44	0	868220928	11	4244
2026-01-21 00:23:50.71	61.88	14.33	-25.7	-27.2	16.7	0.00e+00	0	44	0	874512384	11	4274
2026-01-21 00:23:51.72	62.08	14.36	-25.8	-27.4	16.6	0.00e+00	0	44	0	879755264	11	4317
2026-01-21 00:23:52.72	62.27	14.39	-25.9	-27.5	16.5	0.00e+00	0	44	0	884998144	11	4358
2026-01-21 00:23:53.73	62.47	14.43	-26.0	-27.7	16.4	2.64e-04	0	44	0	891289600	11	4407
2026-01-21 00:23:54.72	62.67	14.46	-25.8	-26.8	16.6	0.00e+00	0	44	0	896532480	12	4060
2026-01-21 00:23:55.73	62.87	14.49	-25.7	-26.7	16.7	3.96e-04	0	44	0	902823936	12	4033
2026-01-21 00:23:56.72	63.06	14.53	-25.8	-27.3	16.7	4.34e-04	0	44	0	908066816	11	4292
2026-01-21 00:23:57.72	63.26	14.56	-25.7	-27.1	16.7	0.00e+00	0	44	0	913309696	11	4249
2026-01-21 00:23:58.72	63.46	14.59	-25.8	-27.3	16.7	3.98e-04	0	44	0	919601152	11	4287
2026-01-21 00:23:59.73	63.66	14.62	-25.9	-27.6	16.5	3.27e-04	0	44	0	924844032	11	4378
2026-01-21 00:24:00.73	63.86	14.65	-25.8	-26.9	16.6	0.00e+00	0	44	0	931135488	12	4074
2026-01-21 00:24:01.73	64.06	14.69	-25.7	-26.6	16.7	3.20e-04	0	44	0	936378368	12	4013
2026-01-21 00:24:02.74	64.27	14.72	-25.9	-27.6	16.5	3.36e-04	0	45	0	941621248	11	4366
2026-01-21 00:24:03.75	64.47	14.75	-25.8	-27.4	16.6	0.00e+00	0	44	0	947912704	11	4318
2026-01-21 00:24:04.75	64.67	14.78	-25.8	-27.3	16.7	3.39e-04	0	44	0	953155584	11	4288
2026-01-21 00:24:05.75	64.87	14.81	-25.7	-27.2	16.7	4.83e-04	0	44	0	958398464	11	4276
2026-01-21 00:24:06.75	65.08	14.84	-25.8	-27.3	16.7	0.00e+00	0	44	0	964689920	11	4291
2026-01-21 00:24:07.75	65.28	14.87	-25.8	-27.4	16.6	5.50e-04	0	44	0	969932800	11	4320
2026-01-21 00:24:08.76	65.48	14.90	-25.7	-27.1	16.8	5.77e-04	0	44	0	976224256	11	4233
2026-01-21 00:24:09.76	65.69	14.93	-25.5	-26.7	16.9	0.00e+00	0	44	0	981467136	11	4146
2026-01-21 00:24:10.77	65.89	14.96	-25.5	-26.6	17.0	3.80e-04	0	44	0	986710016	11	4119
2026-01-21 00:24:11.77	66.10	14.98	-25.5	-26.8	17.0	0.00e+00	0	44	0	993001472	11	4152
2026-01-21 00:24:12.78	66.31	15.01	-25.7	-27.1	16.8	0.00e+00	0	44	0	998244352	11	4231
2026-01-21 00:24:13.77	66.51	15.04	-25.7	-27.1	16.8	5.68e-04	0	45	0	1003487232	11	4233
2026-01-21 00:24:14.78	66.72	15.07	-25.7	-27.2	16.8	4.36e-04	0	44	0	1009778688	11	4257
2026-01-21 00:24:15.78	66.92	15.09	-25.6	-27.0	16.8	0.00e+00	0	45	0	1015021568	11	4224
2026-01-21 00:24:16.79	67.13	15.12	-25.6	-26.9	16.9	0.00e+00	0	45	0	1021313024	11	4187
2026-01-21 00:24:17.80	67.34	15.15	-25.6	-27.0	16.9	3.75e-04	0	45	0	1026555904	11	4214
2026-01-21 00:24:18.80	67.55	15.17	-25.6	-26.8	16.9	0.00e+00	0	44	0	1031798784	11	4166
2026-01-21 00:24:19.81	67.76	15.20	-25.6	-26.9	16.9	3.76e-04	0	44	0	1038090240	11	4187
2026-01-21 00:24:20.81	67.96	15.23	-25.5	-26.7	17.0	0.00e+00	0	44	0	1043333120	11	4141
2026-01-21 00:24:21.82	68.17	15.25	-25.4	-26.6	17.1	0.00e+00	0	44	0	1049624576	11	4102
2026-01-21 00:24:22.82	68.38	15.28	-25.5	-26.6	17.1	0.00e+00	0	44	0	1054867456	11	4111
2026-01-21 00:24:23.83	68.59	15.30	-25.4	-27.0	17.1	0.00e+00	0	44	0	1061158912	10	4332
2026-01-21 00:24:24.84	68.80	15.32	-25.5	-26.8	17.0	0.00e+00	0	45	0	1066401792	11	4156
2026-01-21 00:24:25.84	69.01	15.35	-25.7	-27.2	16.8	0.00e+00	0	45	0	1071644672	11	4267
2026-01-21 00:24:26.84	69.22	15.37	-25.7	-27.2	16.8	4.02e-04	0	45	0	1077936128	11	4270
2026-01-21 00:24:27.84	69.43	15.40	-25.7	-27.3	16.7	0.00e+00	0	44	0	1083179008	11	4282
2026-01-21 00:24:28.84	69.64	15.42	-25.9	-27.6	16.5	0.00e+00	0	44	0	1088421888	11	4371
2026-01-21 00:24:29.85	69.86	15.44	-25.9	-27.5	16.6	0.00e+00	0	45	0	1094713344	11	4352
2026-01-21 00:24:30.85	70.07	15.46	-25.9	-27.6	16.5	0.00e+00	0	44	0	1099956224	11	4384
2026-01-21 00:24:31.85	70.28	15.48	-25.8	-27.4	16.6	0.00e+00	0	45	0	1105199104	11	4326
2026-01-21 00:24:32.86	70.49	15.51	-25.8	-27.3	16.7	0.00e+00	0	44	0	1111490560	11	4297
2026-01-21 00:24:33.86	70.70	15.53	-25.9	-27.6	16.6	0.00e+00	0	45	0	1116733440	11	4364
2026-01-21 00:24:34.86	70.92	15.55	-25.9	-27.2	16.4	0.00e+00	0	45	0	1123024896	12	4145
2026-01-21 00:24:35.87	71.13	15.57	-26.0	-27.4	16.3	0.00e+00	0	44	0	1128267776	12	4208
2026-01-21 00:24:36.87	71.34	15.59	-25.9	-27.1	16.5	0.00e+00	0	44	0	1133510656	12	4124
2026-01-21 00:24:37.87	71.56	15.61	-25.8	-26.8	16.6	0.00e+00	0	44	0	1139802112	12	4059
2026-01-21 00:24:38.87	71.77	15.63	-25.7	-26.7	16.7	0.00e+00	0	44	0	1145044992	12	4033
2026-01-21 00:24:39.88	71.99	15.65	-25.7	-26.7	16.7	0.00e+00	0	45	0	1151336448	12	4032
2026-01-21 00:24:40.88	72.20	15.66	-26.1	-27.5	16.3	0.00e+00	0	45	0	1156579328	12	4239
2026-01-21 00:24:41.87	72.41	15.68	-25.8	-26.8	16.6	0.00e+00	0	44	0	1161822208	12	4060
2026-01-21 00:24:42.88	72.63	15.70	-25.5	-26.2	17.0	0.00e+00	0	44	0	1168113664	12	3903
2026-01-21 00:24:43.87	72.84	15.72	-25.4	-26.5	17.2	0.00e+00	0	45	0	1173356544	11	4084
2026-01-21 00:24:44.88	73.06	15.74	-25.4	-26.5	17.1	0.00e+00	0	45	0	1178599424	11	4084
2026-01-21 00:24:45.88	73.27	15.75	-25.6	-26.9	16.9	0.00e+00	0	44	0	1184890880	11	4181
2026-01-21 00:24:46.88	73.49	15.77	-25.7	-27.1	16.8	0.00e+00	0	45	0	1190133760	11	4235
2026-01-21 00:24:47.88	73.70	15.78	-25.7	-27.2	16.8	0.00e+00	0	45	0	1196425216	11	4268
2026-01-21 00:24:48.89	73.92	15.80	-25.7	-27.2	16.7	0.00e+00	0	44	0	1201668096	11	4277
2026-01-21 00:24:49.90	74.14	15.82	-25.8	-27.3	16.7	0.00e+00	0	44	0	1206910976	11	4283
2026-01-21 00:24:50.89	74.35	15.83	-25.8	-27.4	16.7	0.00e+00	0	44	0	1213202432	11	4311
2026-01-21 00:24:51.90	74.57	15.85	-25.7	-27.2	16.7	0.00e+00	0	45	0	1218445312	11	4276
2026-01-21 00:24:52.90	74.79	15.86	-25.9	-27.7	16.3	0.00e+00	0	45	0	1223688192	11	4422
2026-01-21 00:24:53.91	75.01	15.87	-25.7	-27.2	16.6	0.00e+00	0	44	0	1229979648	11	4284
2026-01-21 00:24:54.91	75.23	15.89	-25.6	-27.0	16.8	0.00e+00	0	45	0	1235222528	11	4242
2026-01-21 00:24:55.91	75.44	15.90	-25.6	-27.0	16.8	0.00e+00	0	45	0	1240465408	11	4215
2026-01-21 00:24:56.91	75.66	15.91	-25.7	-27.3	16.6	0.00e+00	0	44	0	1246756864	11	4300
2026-01-21 00:24:57.91	75.88	15.92	-25.7	-27.2	16.7	0.00e+00	0	44	0	1251999744	11	4270
2026-01-21 00:24:58.91	76.10	15.94	-25.7	-27.2	16.7	0.00e+00	0	44	0	1258291200	11	4279
2026-01-21 00:24:59.91	76.31	15.95	-26.0	-27.8	16.3	0.00e+00	0	44	0	1263534080	11	4452
2026-01-21 00:25:00.92	76.53	15.96	-25.6	-26.4	16.7	0.00e+00	0	45	0	1268776960	12	3977
2026-01-21 00:25:01.92	76.75	15.97	-25.3	-26.4	17.0	0.00e+00	0	45	0	1275068416	11	4086
2026-01-21 00:25:02.92	76.97	15.98	-25.7	-27.2	16.7	0.00e+00	0	45	0	1280311296	11	4290
2026-01-21 00:25:03.93	77.19	15.99	-25.5	-26.9	16.8	0.00e+00	0	45	0	1286602752	11	4193
2026-01-21 00:25:04.93	77.41	16.00	-25.5	-26.7	16.9	0.00e+00	0	44	0	1291845632	11	4147
2026-01-21 00:25:05.94	77.63	16.01	-25.4	-26.6	17.0	0.00e+00	0	45	0	1297088512	11	4138
2026-01-21 00:25:06.94	77.85	16.02	-25.4	-26.6	16.9	0.00e+00	0	44	0	1303379968	11	4122
2026-01-21 00:25:07.95	78.07	16.03	-25.4	-26.5	17.0	0.00e+00	0	45	0	1308622848	11	4092
2026-01-21 00:25:08.95	78.29	16.03	-25.5	-26.7	16.9	0.00e+00	0	44	0	1313865728	11	4148
2026-01-21 00:25:09.96	78.51	16.04	-25.3	-26.5	17.0	0.00e+00	0	44	0	1320157184	11	4091
2026-01-21 00:25:10.97	78.73	16.05	-25.3	-26.3	17.1	0.00e+00	0	45	0	1325400064	11	4058
2026-01-21 00:25:11.97	78.95	16.06	-25.4	-26.5	17.0	0.00e+00	0	45	0	1331691520	11	4097
2026-01-21 00:25:12.97	79.17	16.06	-25.2	-26.2	17.2	0.00e+00	0	44	0	1336934400	11	4034
2026-01-21 00:25:13.98	79.40	16.07	-25.2	-26.2	17.2	0.00e+00	0	44	0	1343225856	11	4015
2026-01-21 00:25:14.98	79.62	16.07	-25.3	-26.4	17.0	0.00e+00	0	45	0	1348468736	11	4078
2026-01-21 00:25:15.98	79.84	16.08	-25.4	-26.5	17.0	0.00e+00	0	45	0	1353711616	11	4097
2026-01-21 00:25:16.99	80.06	16.08	-25.4	-26.5	17.0	0.00e+00	0	44	0	1360003072	11	4100
2026-01-21 00:25:17.99	80.28	16.09	-25.4	-26.6	16.9	0.00e+00	0	45	0	1365245952	11	4135
2026-01-21 00:25:18.99	80.50	16.09	-25.4	-26.5	17.0	0.00e+00	0	44	0	1370488832	11	4107
2026-01-21 00:25:19.98	80.72	16.10	-25.4	-26.5	17.0	0.00e+00	0	45	0	1376780288	11	4110
2026-01-21 00:25:20.98	80.94	16.10	-25.3	-26.5	17.0	0.00e+00	0	45	0	1382023168	11	4092
2026-01-21 00:25:21.98	81.16	16.10	-25.4	-26.6	16.9	0.00e+00	0	44	0	1387266048	11	4141
2026-01-21 00:25:22.99	81.38	16.10	-25.4	-26.6	17.0	0.00e+00	0	45	0	1393557504	11	4117
2026-01-21 00:25:23.99	81.60	16.11	-25.6	-27.0	16.7	0.00e+00	0	45	0	1398800384	11	4226
2026-01-21 00:25:24.98	81.82	16.11	-25.4	-26.7	16.7	0.00e+00	0	45	0	1405091840	11	4156
2026-01-21 00:25:25.99	82.04	16.11	-25.6	-26.9	16.7	0.00e+00	0	45	0	1410334720	11	4216
2026-01-21 00:25:26.99	82.26	16.11	-25.5	-26.9	16.7	0.00e+00	0	45	0	1415577600	11	4213
2026-01-21 00:25:28.00	82.48	16.11	-25.6	-27.0	16.7	0.00e+00	0	45	0	1421869056	11	4242
2026-01-21 00:25:29.00	82.71	16.11	-25.6	-27.0	16.7	0.00e+00	0	45	0	1427111936	11	4221
2026-01-21 00:25:30.01	82.93	16.11	-25.6	-27.0	16.7	0.00e+00	0	45	0	1432354816	11	4234
2026-01-21 00:25:31.02	83.15	16.11	-25.6	-26.9	16.7	1.15e-04	0	45	0	1438646272	11	4216
2026-01-21 00:25:32.02	83.37	16.11	-25.6	-27.0	16.7	0.00e+00	0	45	0	1443889152	11	4238
2026-01-21 00:25:33.02	83.59	16.11	-25.6	-27.0	16.7	0.00e+00	0	45	0	1449132032	11	4236
2026-01-21 00:25:34.02	83.81	16.10	-25.7	-27.2	16.6	0.00e+00	0	44	0	1455423488	11	4275
2026-01-21 00:25:35.02	84.03	16.10	-25.5	-26.8	16.8	3.09e-04	0	45	0	1460666368	11	4177
2026-01-21 00:25:36.03	84.26	16.10	-25.4	-26.6	16.9	0.00e+00	0	45	0	1466957824	11	4117
2026-01-21 00:25:37.02	84.47	16.10	-25.4	-26.5	17.0	0.00e+00	0	44	0	1472200704	11	4108
2026-01-21 00:25:38.02	84.69	16.09	-25.5	-26.9	16.8	2.40e-04	0	45	0	1478492160	11	4190
2026-01-21 00:25:39.03	84.92	16.09	-25.3	-26.3	17.1	0.00e+00	0	45	0	1483735040	11	4048
2026-01-21 00:25:40.04	85.14	16.08	-25.2	-26.1	17.2	2.08e-04	0	45	0	1488977920	11	4005
2026-01-21 00:25:41.04	85.36	16.08	-25.3	-26.4	17.0	0.00e+00	0	45	0	1495269376	11	4070
2026-01-21 00:25:42.05	85.58	16.07	-25.5	-26.8	16.8	0.00e+00	0	45	0	1500512256	11	4175
2026-01-21 00:25:43.06	85.80	16.07	-25.5	-26.7	16.9	0.00e+00	0	45	0	1505755136	11	4150
2026-01-21 00:25:44.06	86.02	16.06	-25.5	-26.8	16.8	0.00e+00	0	45	0	1512046592	11	4185
2026-01-21 00:25:45.06	86.24	16.06	-25.7	-27.1	16.6	0.00e+00	0	44	0	1517289472	11	4260
2026-01-21 00:25:46.07	86.47	16.05	-25.6	-27.0	16.7	0.00e+00	0	45	0	1522532352	11	4218
2026-01-21 00:25:47.08	86.69	16.04	-25.7	-27.3	16.5	7.43e-05	0	44	0	1528823808	11	4326
2026-01-21 00:25:48.08	86.91	16.03	-25.6	-27.0	16.7	0.00e+00	0	44	0	1534066688	11	4248
2026-01-21 00:25:49.07	87.12	16.03	-25.5	-26.9	16.7	1.92e-04	0	44	0	1540358144	11	4211
2026-01-21 00:25:50.08	87.35	16.02	-25.6	-26.9	16.7	1.17e-04	0	45	0	1545601024	11	4221
2026-01-21 00:25:51.09	87.57	16.01	-25.5	-26.9	16.7	0.00e+00	0	45	0	1551892480	11	4204
2026-01-21 00:25:52.09	87.79	16.00	-25.8	-27.4	16.5	1.21e-04	0	45	0	1557135360	11	4337
2026-01-21 00:25:53.09	88.01	15.99	-25.6	-27.0	16.7	3.66e-05	0	45	0	1562378240	11	4238
2026-01-21 00:25:54.09	88.22	15.98	-25.5	-26.8	16.8	0.00e+00	0	45	0	1568669696	11	4178
2026-01-21 00:25:55.09	88.44	15.97	-25.4	-26.7	16.9	5.26e-05	0	45	0	1573912576	11	4141
2026-01-21 00:25:56.10	88.66	15.96	-25.4	-26.7	16.9	6.75e-05	0	45	0	1579155456	11	4147
2026-01-21 00:25:57.10	88.88	15.95	-25.5	-26.9	16.7	0.00e+00	0	45	0	1585446912	11	4203
2026-01-21 00:25:58.11	89.10	15.94	-25.4	-26.7	16.9	8.12e-05	0	44	0	1590689792	11	4147
2026-01-21 00:25:59.11	89.32	15.92	-25.5	-26.7	16.8	1.40e-04	0	45	0	1595932672	11	4167
2026-01-21 00:26:00.12	89.54	15.91	-25.6	-26.9	16.7	0.00e+00	0	45	0	1602224128	11	4212
2026-01-21 00:26:01.13	89.76	15.90	-25.5	-26.8	16.7	1.69e-04	0	45	0	1607467008	11	4186
2026-01-21 00:26:02.13	89.98	15.89	-25.5	-26.9	16.7	0.00e+00	0	45	0	1613758464	11	4203
2026-01-21 00:26:03.13	90.20	15.87	-25.6	-27.0	16.7	0.00e+00	0	45	0	1619001344	11	4233
2026-01-21 00:26:04.14	90.42	15.86	-25.6	-27.0	16.7	2.04e-04	0	45	0	1625292800	11	4231
2026-01-21 00:26:05.15	90.63	15.84	-25.7	-27.2	16.6	0.00e+00	0	44	0	1630535680	11	4303
2026-01-21 00:26:06.15	90.85	15.83	-25.6	-27.0	16.7	0.00e+00	0	45	0	1635778560	11	4227
2026-01-21 00:26:07.15	91.07	15.81	-25.6	-27.0	16.7	0.00e+00	0	45	0	1642070016	11	4231
2026-01-21 00:26:08.15	91.28	15.80	-25.6	-27.0	16.6	1.77e-04	0	45	0	1647312896	11	4242
2026-01-21 00:26:09.15	91.50	15.78	-25.5	-26.7	16.8	0.00e+00	0	45	0	1652555776	11	4168
2026-01-21 00:26:10.15	91.72	15.77	-25.5	-26.9	16.7	9.04e-05	0	44	0	1658847232	11	4199
2026-01-21 00:26:11.15	91.93	15.75	-25.7	-27.2	16.6	2.18e-04	0	45	0	1664090112	11	4279
2026-01-21 00:26:12.15	92.15	15.73	-25.7	-27.2	16.6	0.00e+00	0	45	0	1669332992	11	4285
2026-01-21 00:26:13.15	92.36	15.72	-25.6	-27.1	16.6	2.29e-04	0	44	0	1675624448	11	4264
2026-01-21 00:26:14.16	92.58	15.70	-25.6	-27.1	16.6	2.20e-06	0	45	0	1680867328	11	4265
2026-01-21 00:26:15.17	92.80	15.68	-25.6	-27.0	16.7	1.10e-06	0	45	0	1687158784	11	4228
2026-01-21 00:26:16.18	93.01	15.66	-25.6	-27.1	16.6	0.00e+00	0	45	0	1692401664	11	4254
2026-01-21 00:26:17.18	93.23	15.64	-25.7	-27.2	16.6	1.10e-06	0	45	0	1698693120	11	4278
2026-01-21 00:26:18.19	93.44	15.62	-25.7	-27.2	16.5	0.00e+00	0	44	0	1703936000	11	4280
2026-01-21 00:26:19.19	93.66	15.60	-25.9	-27.8	16.2	0.00e+00	0	44	0	1709178880	11	4445
2026-01-21 00:26:20.20	93.87	15.58	-25.8	-27.4	16.4	0.00e+00	0	45	0	1715470336	11	4351
2026-01-21 00:26:21.20	94.09	15.56	-25.8	-27.4	16.4	0.00e+00	0	45	0	1720713216	11	4348
2026-01-21 00:26:22.20	94.30	15.54	-25.8	-27.4	16.4	0.00e+00	0	45	0	1725956096	11	4352
2026-01-21 00:26:23.20	94.51	15.52	-25.8	-27.5	16.4	0.00e+00	0	45	0	1732247552	11	4385
2026-01-21 00:26:24.21	94.73	15.50	-25.8	-27.4	16.4	0.00e+00	0	45	0	1737490432	11	4346
2026-01-21 00:26:25.21	94.94	15.48	-25.8	-27.5	16.4	0.00e+00	0	45	0	1742733312	11	4369
2026-01-21 00:26:26.20	95.15	15.46	-25.8	-27.5	16.4	0.00e+00	0	45	0	1749024768	11	4360
2026-01-21 00:26:27.20	95.36	15.44	-25.8	-27.5	16.4	0.00e+00	0	45	0	1754267648	11	4371
2026-01-21 00:26:28.20	95.57	15.41	-25.8	-27.4	16.4	0.00e+00	0	45	0	1760559104	11	4345
2026-01-21 00:26:29.20	95.78	15.39	-25.8	-27.4	16.4	0.00e+00	0	45	0	1765801984	11	4346
2026-01-21 00:26:30.20	95.99	15.37	-25.7	-27.3	16.4	0.00e+00	0	45	0	1771044864	11	4327
2026-01-21 00:26:31.21	96.21	15.34	-25.8	-27.4	16.4	0.00e+00	0	45	0	1777336320	11	4333
2026-01-21 00:26:32.21	96.42	15.32	-25.8	-27.4	16.4	0.00e+00	0	45	0	1782579200	11	4332
2026-01-21 00:26:33.22	96.63	15.29	-25.6	-27.0	16.6	0.00e+00	0	45	0	1787822080	11	4237
2026-01-21 00:26:34.22	96.84	15.27	-25.6	-27.0	16.7	0.00e+00	0	45	0	1794113536	11	4225
2026-01-21 00:26:35.23	97.05	15.24	-25.7	-27.2	16.5	0.00e+00	0	45	0	1799356416	11	4288
2026-01-21 00:26:36.23	97.26	15.22	-25.7	-27.2	16.5	0.00e+00	0	45	0	1805647872	11	4284
2026-01-21 00:26:37.24	97.47	15.19	-25.7	-27.3	16.5	0.00e+00	0	45	0	1810890752	11	4305
2026-01-21 00:26:38.24	97.67	15.17	-25.6	-27.1	16.5	0.00e+00	0	45	0	1816133632	11	4264
2026-01-21 00:26:39.24	97.88	15.14	-25.7	-27.3	16.4	0.00e+00	0	45	0	1822425088	11	4313
2026-01-21 00:26:40.24	98.09	15.11	-25.8	-27.5	16.3	0.00e+00	0	45	0	1827667968	11	4382
2026-01-21 00:26:41.24	98.30	15.09	-25.6	-27.1	16.5	0.00e+00	0	44	0	1833959424	11	4262
2026-01-21 00:26:42.25	98.50	15.06	-25.6	-27.0	16.6	0.00e+00	0	45	0	1839202304	11	4225
2026-01-21 00:26:43.24	98.71	15.03	-25.6	-27.1	16.6	0.00e+00	0	45	0	1844445184	11	4260
2026-01-21 00:26:44.24	98.91	15.01	-25.8	-27.3	16.4	0.00e+00	0	45	0	1850736640	11	4326
2026-01-21 00:26:45.24	99.12	14.98	-25.8	-27.6	16.3	0.00e+00	0	45	0	1855979520	11	4386
2026-01-21 00:26:46.24	99.32	14.95	-25.8	-27.4	16.4	0.00e+00	0	45	0	1861222400	11	4333
2026-01-21 00:26:47.23	99.53	14.92	-25.8	-27.4	16.4	0.00e+00	0	45	0	1867513856	11	4341
2026-01-21 00:26:48.24	99.73	14.89	-25.8	-27.5	16.3	0.00e+00	0	45	0	1872756736	11	4375
2026-01-21 00:26:49.24	99.94	14.86	-25.7	-27.1	16.6	0.00e+00	0	45	0	1877999616	11	4271
2026-01-21 00:26:50.25	100.14	14.83	-25.7	-27.2	16.5	0.00e+00	0	45	0	1884291072	11	4297
2026-01-21 00:26:51.24	100.34	14.80	-25.7	-27.3	16.5	0.00e+00	0	45	0	1889533952	11	4309
2026-01-21 00:26:52.25	100.55	14.77	-25.8	-27.4	16.4	0.00e+00	0	45	0	1895825408	11	4345
2026-01-21 00:26:53.25	100.75	14.74	-25.8	-27.5	16.4	0.00e+00	0	44	0	1901068288	11	4365
2026-01-21 00:26:54.25	100.95	14.71	-25.8	-27.6	16.3	0.00e+00	0	45	0	1906311168	11	4390
2026-01-21 00:26:55.25	101.15	14.68	-25.8	-27.4	16.4	0.00e+00	0	44	0	1912602624	11	4338
2026-01-21 00:26:56.25	101.35	14.65	-25.8	-27.5	16.3	0.00e+00	0	45	0	1917845504	11	4371
2026-01-21 00:26:57.25	101.55	14.62	-25.8	-27.6	16.3	0.00e+00	0	45	0	1923088384	11	4386
2026-01-21 00:26:58.26	101.76	14.58	-25.8	-27.6	16.3	0.00e+00	0	45	0	1929379840	11	4390
2026-01-21 00:26:59.26	101.96	14.55	-25.9	-27.7	16.2	0.00e+00	0	45	0	1934622720	11	4429
2026-01-21 00:27:00.26	102.16	14.52	-25.9	-27.7	16.2	0.00e+00	0	45	0	1940914176	11	4438
2026-01-21 00:27:01.26	102.36	14.49	-26.0	-27.3	16.1	0.00e+00	0	45	0	1946157056	12	4220
2026-01-21 00:27:02.25	102.55	14.45	-26.0	-27.5	16.0	0.00e+00	0	45	0	1951399936	12	4262
2026-01-21 00:27:03.25	102.75	14.42	-25.9	-27.2	16.1	0.00e+00	0	45	0	1957691392	12	4198
2026-01-21 00:27:04.25	102.95	14.39	-25.9	-27.3	16.1	0.00e+00	0	45	0	1962934272	12	4209
2026-01-21 00:27:05.25	103.14	14.35	-26.0	-27.5	16.0	0.00e+00	0	44	0	1968177152	12	4247
2026-01-21 00:27:06.26	103.34	14.32	-25.9	-27.2	16.1	0.00e+00	0	45	0	1974468608	12	4183
2026-01-21 00:27:07.27	103.54	14.28	-25.9	-27.2	16.1	0.00e+00	0	45	0	1979711488	12	4182
2026-01-21 00:27:08.28	103.74	14.25	-26.1	-27.6	15.9	0.00e+00	0	44	0	1986002944	12	4277
2026-01-21 00:27:09.28	103.93	14.21	-26.2	-27.8	15.8	0.00e+00	0	45	0	1991245824	12	4337
2026-01-21 00:27:10.28	104.13	14.18	-26.1	-27.6	15.9	0.00e+00	0	45	0	1996488704	12	4280
2026-01-21 00:27:11.28	104.32	14.14	-26.1	-27.6	15.9	0.00e+00	0	45	0	2002780160	12	4286
2026-01-21 00:27:12.28	104.52	14.11	-26.1	-27.6	15.9	0.00e+00	0	45	0	2008023040	12	4302
2026-01-21 00:27:13.27	104.71	14.07	-26.2	-27.8	15.8	0.00e+00	0	45	0	2013265920	12	4358
2026-01-21 00:27:14.27	104.90	14.03	-26.0	-27.5	16.0	0.00e+00	0	45	0	2019557376	12	4275
2026-01-21 00:27:15.26	105.09	14.00	-26.0	-27.5	16.0	0.00e+00	0	45	0	2024800256	12	4251
2026-01-21 00:27:16.26	105.29	13.96	-26.1	-27.6	15.9	0.00e+00	0	45	0	2030043136	12	4286
2026-01-21 00:27:17.26	105.48	13.92	-26.0	-27.4	16.0	0.00e+00	0	45	0	2036334592	12	4228
2026-01-21 00:27:18.26	105.67	13.89	-25.9	-27.2	16.1	0.00e+00	0	45	0	2041577472	12	4192
2026-01-21 00:27:19.27	105.86	13.85	-25.9	-27.3	16.1	0.00e+00	0	45	0	2046820352	12	4204
2026-01-21 00:27:20.26	106.05	13.81	-25.9	-27.2	16.1	0.00e+00	0	44	0	2053111808	12	4184
2026-01-21 00:27:21.27	106.24	13.77	-25.9	-27.2	16.1	0.00e+00	0	45	0	2058354688	12	4167
2026-01-21 00:27:22.27	106.43	13.73	-26.0	-27.4	15.7	0.00e+00	0	45	0	2064646144	12	4246
2026-01-21 00:27:23.27	106.62	13.70	-26.3	-28.0	15.7	0.00e+00	0	45	0	2069889024	12	4382
2026-01-21 00:27:24.28	106.81	13.66	-26.3	-28.0	15.7	2.16e-04	0	45	0	2076180480	12	4383
2026-01-21 00:27:25.28	107.00	13.62	-26.2	-27.9	15.7	0.00e+00	0	45	0	2081423360	12	4372
2026-01-21 00:27:26.28	107.19	13.58	-26.3	-28.1	15.7	0.00e+00	0	45	0	2086666240	12	4415
2026-01-21 00:27:27.28	107.37	13.54	-26.4	-28.2	15.6	0.00e+00	0	44	0	2092957696	12	4449
2026-01-21 00:27:28.28	107.56	13.50	-26.4	-28.3	15.6	0.00e+00	0	45	0	2098200576	12	4479
2026-01-21 00:27:29.29	107.75	13.46	-26.5	-28.1	15.4	0.00e+00	0	45	0	2103443456	13	4299
2026-01-21 00:27:30.29	107.93	13.42	-26.7	-28.5	15.2	0.00e+00	0	45	0	2109734912	13	4416
2026-01-21 00:27:31.29	108.12	13.38	-26.5	-28.0	15.5	2.22e-04	0	45	0	2114977792	13	4272
2026-01-21 00:27:32.28	108.30	13.34	-26.2	-27.4	15.8	0.00e+00	0	45	0	2120220672	13	4119
2026-01-21 00:27:33.29	108.49	13.30	-26.1	-27.0	16.0	9.15e-05	0	45	0	2126512128	13	4029
2026-01-21 00:27:34.29	108.67	13.26	-26.0	-26.9	16.0	0.00e+00	0	45	0	2131755008	13	4005
2026-01-21 00:27:35.30	108.86	13.22	-26.0	-27.0	16.0	0.00e+00	0	45	0	2138046464	13	4020
2026-01-21 00:27:36.30	109.04	13.18	-26.0	-27.0	16.0	4.50e-06	0	45	0	2143289344	13	4027
2026-01-21 00:27:37.31	109.22	13.14	-26.1	-27.2	15.9	0.00e+00	0	45	0	2148532224	13	4068
2026-01-21 00:27:38.31	109.41	13.09	-26.2	-27.4	15.7	0.00e+00	0	45	0	2154823680	13	4123
2026-01-21 00:27:39.32	109.59	13.05	-26.1	-27.2	15.8	0.00e+00	0	45	0	2160066560	13	4069
2026-01-21 00:27:40.33	109.77	13.01	-26.2	-27.3	15.8	0.00e+00	0	45	0	2166358016	13	4095
2026-01-21 00:27:41.33	109.95	12.97	-26.2	-27.4	15.7	0.00e+00	0	45	0	2171600896	13	4117
2026-01-21 00:27:42.33	110.13	12.92	-26.2	-27.4	15.7	8.00e-06	0	45	0	2176843776	13	4121
2026-01-21 00:27:43.33	110.31	12.88	-26.3	-27.5	15.6	2.74e-05	0	45	0	2183135232	13	4154
2026-01-21 00:27:44.33	110.49	12.84	-26.3	-27.5	15.7	1.10e-06	0	45	0	2188378112	13	4154
2026-01-21 00:27:45.34	110.67	12.80	-26.3	-27.7	15.5	1.32e-04	0	45	0	2193620992	13	4206
2026-01-21 00:27:46.34	110.85	12.75	-26.4	-27.8	15.5	1.62e-04	0	45	0	2199912448	13	4226
2026-01-21 00:27:47.33	111.02	12.71	-26.3	-27.5	15.7	0.00e+00	0	45	0	2205155328	13	4143
2026-01-21 00:27:48.34	111.20	12.67	-26.2	-27.4	15.7	1.84e-04	0	45	0	2211446784	13	4118
2026-01-21 00:27:49.34	111.38	12.62	-26.2	-27.4	15.7	1.73e-04	0	45	0	2216689664	13	4132
2026-01-21 00:27:50.34	111.55	12.58	-26.2	-27.4	15.7	0.00e+00	0	45	0	2221932544	13	4132
2026-01-21 00:27:51.34	111.73	12.54	-26.2	-27.3	15.7	1.73e-04	0	45	0	2228224000	13	4100
2026-01-21 00:27:52.34	111.90	12.49	-26.3	-27.5	15.6	1.26e-04	0	45	0	2233466880	13	4147
2026-01-21 00:27:53.35	112.08	12.45	-26.2	-27.5	15.7	0.00e+00	0	45	0	2238709760	13	4147
2026-01-21 00:27:54.35	112.25	12.40	-26.3	-27.6	15.5	2.12e-04	0	45	0	2245001216	13	4183
2026-01-21 00:27:55.36	112.43	12.36	-26.3	-27.6	15.5	2.17e-04	0	45	0	2250244096	13	4190
2026-01-21 00:27:56.36	112.60	12.31	-26.4	-27.8	15.4	0.00e+00	0	45	0	2255486976	13	4240
2026-01-21 00:27:57.37	112.77	12.27	-26.5	-27.9	15.4	2.48e-04	0	45	0	2261778432	13	4274
2026-01-21 00:27:58.37	112.94	12.22	-26.5	-28.0	15.4	1.10e-06	0	45	0	2267021312	13	4283
2026-01-21 00:27:59.37	113.12	12.18	-26.5	-27.9	15.4	0.00e+00	0	45	0	2273312768	13	4273
2026-01-21 00:28:00.37	113.29	12.13	-26.5	-28.0	15.3	0.00e+00	0	45	0	2278555648	13	4276
2026-01-21 00:28:01.38	113.46	12.09	-26.5	-28.1	15.3	1.75e-04	0	45	0	2284847104	13	4317
2026-01-21 00:28:02.38	113.63	12.04	-26.5	-28.0	15.3	0.00e+00	0	45	0	2290089984	13	4285
2026-01-21 00:28:03.38	113.80	12.00	-26.5	-28.0	15.3	0.00e+00	0	45	0	2295332864	13	4299
2026-01-21 00:28:04.39	113.97	11.95	-26.5	-28.1	15.3	6.80e-06	0	45	0	2301624320	13	4301
2026-01-21 00:28:05.39	114.14	11.90	-26.5	-28.1	15.2	0.00e+00	0	45	0	2306867200	13	4312
2026-01-21 00:28:06.40	114.30	11.86	-26.5	-28.1	15.2	1.25e-05	0	45	0	2312110080	13	4324
2026-01-21 00:28:07.40	114.47	11.81	-26.6	-28.2	15.2	0.00e+00	0	45	0	2318401536	13	4357
2026-01-21 00:28:08.40	114.64	11.77	-26.6	-28.3	15.1	0.00e+00	0	45	0	2323644416	13	4363
2026-01-21 00:28:09.41	114.81	11.72	-26.6	-28.4	15.1	1.12e-04	0	45	0	2328887296	13	4386
2026-01-21 00:28:10.40	114.97	11.67	-26.7	-28.5	15.0	0.00e+00	0	45	0	2335178752	13	4425
2026-01-21 00:28:11.40	115.13	11.63	-26.7	-28.6	14.9	0.00e+00	0	45	0	2340421632	13	4454
2026-01-21 00:28:12.41	115.30	11.58	-26.7	-28.4	15.1	0.00e+00	0	45	0	2346713088	13	4402
2026-01-21 00:28:13.41	115.46	11.53	-26.7	-28.5	15.0	3.54e-05	0	45	0	2351955968	13	4437
2026-01-21 00:28:14.42	115.63	11.48	-26.7	-28.5	15.0	0.00e+00	0	45	0	2357198848	13	4428
2026-01-21 00:28:15.42	115.79	11.44	-26.6	-28.3	15.1	0.00e+00	0	45	0	2363490304	13	4358
2026-01-21 00:28:16.42	115.96	11.39	-26.6	-28.2	15.2	0.00e+00	0	45	0	2368733184	13	4353
2026-01-21 00:28:17.43	116.12	11.34	-26.6	-28.4	15.1	0.00e+00	0	45	0	2375024640	13	4388
2026-01-21 00:28:18.43	116.28	11.29	-26.7	-28.4	15.0	1.10e-06	0	45	0	2380267520	13	4396
2026-01-21 00:28:19.43	116.44	11.25	-26.7	-28.4	15.1	0.00e+00	0	45	0	2385510400	13	4395
2026-01-21 00:28:20.43	116.60	11.20	-26.7	-28.6	14.9	0.00e+00	0	45	0	2391801856	13	4450
2026-01-21 00:28:21.44	116.76	11.15	-26.7	-28.6	14.9	0.00e+00	0	45	0	2397044736	13	4446
2026-01-21 00:28:22.44	116.92	11.10	-26.8	-28.6	14.9	0.00e+00	0	44	0	2402287616	13	4473
2026-01-21 00:28:23.44	117.08	11.05	-26.8	-28.7	14.9	0.00e+00	0	45	0	2408579072	13	4472
2026-01-21 00:28:24.44	117.24	11.01	-26.8	-28.8	14.8	0.00e+00	0	45	0	2413821952	13	4509
2026-01-21 00:28:25.44	117.40	10.96	-26.8	-28.7	14.8	0.00e+00	0	45	0	2420113408	13	4483
2026-01-21 00:28:26.45	117.56	10.91	-26.8	-28.7	14.8	0.00e+00	0	45	0	2425356288	13	4486
2026-01-21 00:28:27.45	117.71	10.86	-26.9	-29.0	14.7	0.00e+00	0	44	0	2430599168	13	4571
2026-01-21 00:28:28.45	117.87	10.81	-26.9	-29.1	14.6	0.00e+00	0	44	0	2436890624	13	4593
2026-01-21 00:28:29.46	118.03	10.76	-26.9	-29.0	14.7	0.00e+00	0	45	0	2442133504	13	4567
2026-01-21 00:28:30.46	118.18	10.71	-26.9	-28.9	14.7	0.00e+00	0	45	0	2447376384	13	4555
2026-01-21 00:28:31.46	118.34	10.67	-26.9	-29.0	14.6	0.00e+00	0	45	0	2453667840	13	4580
2026-01-21 00:28:32.46	118.49	10.62	-27.0	-29.1	14.6	0.00e+00	0	45	0	2458910720	13	4591
2026-01-21 00:28:33.46	118.65	10.57	-26.9	-28.9	14.7	0.00e+00	0	45	0	2464153600	13	4540
2026-01-21 00:28:34.46	118.80	10.52	-26.9	-28.9	14.7	0.00e+00	0	45	0	2470445056	13	4556
2026-01-21 00:28:35.46	118.95	10.47	-26.9	-29.0	14.7	0.00e+00	0	45	0	2475687936	13	4558
2026-01-21 00:28:36.46	119.11	10.42	-27.1	-28.9	14.5	0.00e+00	0	45	0	2481979392	14	4420
2026-01-21 00:28:37.46	119.26	10.37	-27.2	-29.2	14.2	0.00e+00	0	45	0	2487222272	14	4532
2026-01-21 00:28:38.46	119.41	10.32	-27.3	-29.4	14.2	1.10e-06	0	45	0	2492465152	14	4569
2026-01-21 00:28:39.47	119.56	10.27	-27.3	-29.3	14.2	0.00e+00	0	45	0	2498756608	14	4562
2026-01-21 00:28:40.47	119.71	10.22	-27.3	-29.5	14.1	0.00e+00	0	45	0	2503999488	14	4606
2026-01-21 00:28:41.47	119.86	10.17	-27.4	-29.5	14.1	1.10e-06	0	45	0	2509242368	14	4623
2026-01-21 00:28:42.48	120.01	10.12	-27.3	-29.5	14.1	1.10e-06	0	45	0	2515533824	14	4612
2026-01-21 00:28:43.48	120.16	10.07	-27.5	-29.8	13.9	1.10e-06	0	45	0	2520776704	14	4709
2026-01-21 00:28:44.48	120.31	10.02	-27.5	-29.3	13.9	3.40e-06	0	45	0	2527068160	15	4449
2026-01-21 00:28:45.49	120.46	9.97	-27.3	-28.9	14.1	2.20e-06	0	45	0	2532311040	15	4326
2026-01-21 00:28:46.49	120.61	9.92	-27.3	-29.3	14.2	2.20e-06	0	45	0	2537553920	14	4546
2026-01-21 00:28:47.51	120.76	9.87	-27.2	-29.2	14.2	2.20e-06	0	45	0	2543845376	14	4522
2026-01-21 00:28:48.51	120.90	9.82	-27.1	-28.9	14.4	0.00e+00	0	45	0	2549088256	14	4414
2026-01-21 00:28:49.51	121.05	9.77	-27.1	-28.8	14.4	1.10e-06	0	45	0	2555379712	14	4414
2026-01-21 00:28:50.52	121.20	9.72	-27.1	-29.0	14.3	1.10e-06	0	45	0	2560622592	14	4452
2026-01-21 00:28:51.53	121.34	9.67	-27.1	-28.9	14.4	1.10e-06	0	45	0	2566914048	14	4442
2026-01-21 00:28:52.53	121.49	9.62	-27.1	-29.0	14.3	0.00e+00	0	45	0	2572156928	14	4462
2026-01-21 00:28:53.53	121.63	9.57	-27.1	-28.9	14.4	1.10e-06	0	45	0	2577399808	14	4443
2026-01-21 00:28:54.53	121.77	9.52	-27.1	-28.9	14.4	0.00e+00	0	45	0	2583691264	14	4429
2026-01-21 00:28:55.53	121.92	9.47	-27.1	-28.8	14.4	1.10e-06	0	45	0	2588934144	14	4423
2026-01-21 00:28:56.53	122.06	9.42	-27.0	-28.8	14.4	0.00e+00	0	45	0	2594177024	14	4410
2026-01-21 00:28:57.53	122.20	9.37	-27.1	-28.8	14.4	0.00e+00	0	45	0	2600468480	14	4414
2026-01-21 00:28:58.53	122.34	9.32	-27.1	-28.9	14.4	1.10e-06	0	45	0	2605711360	14	4432
2026-01-21 00:28:59.53	122.49	9.27	-27.0	-28.8	14.4	0.00e+00	0	45	0	2610954240	14	4416
2026-01-21 00:29:00.53	122.63	9.22	-27.1	-28.8	14.4	0.00e+00	0	45	0	2617245696	14	4414
2026-01-21 00:29:01.54	122.77	9.16	-27.0	-28.8	14.4	0.00e+00	0	45	0	2622488576	14	4407
2026-01-21 00:29:02.54	122.91	9.11	-27.0	-28.7	14.4	0.00e+00	0	45	0	2628780032	14	4384
2026-01-21 00:29:03.54	123.05	9.06	-27.0	-28.6	14.5	0.00e+00	0	45	0	2634022912	14	4357
2026-01-21 00:29:04.55	123.19	9.01	-27.0	-28.7	14.4	0.00e+00	0	45	0	2639265792	14	4371
2026-01-21 00:29:05.55	123.33	8.96	-27.0	-28.7	14.5	0.00e+00	0	45	0	2645557248	14	4370
2026-01-21 00:29:06.56	123.47	8.91	-27.0	-28.6	14.5	0.00e+00	0	45	0	2650800128	14	4360
2026-01-21 00:29:07.57	123.60	8.86	-27.0	-28.7	14.4	0.00e+00	0	45	0	2656043008	14	4370
2026-01-21 00:29:08.57	123.74	8.81	-27.0	-28.7	14.3	0.00e+00	0	45	0	2662334464	14	4372
2026-01-21 00:29:09.58	123.88	8.75	-27.0	-28.6	14.4	0.00e+00	0	45	0	2667577344	14	4357
2026-01-21 00:29:10.58	124.02	8.70	-27.0	-28.7	14.4	0.00e+00	0	45	0	2673868800	14	4389
2026-01-21 00:29:11.58	124.15	8.65	-27.1	-28.9	14.4	0.00e+00	0	45	0	2679111680	14	4430
2026-01-21 00:29:12.59	124.29	8.60	-27.1	-29.0	14.2	0.00e+00	0	45	0	2684354560	14	4475
2026-01-21 00:29:13.59	124.42	8.55	-27.2	-29.1	14.1	0.00e+00	0	45	0	2690646016	14	4516
2026-01-21 00:29:14.59	124.56	8.50	-27.3	-29.3	14.0	2.20e-06	0	45	0	2695888896	14	4575
2026-01-21 00:29:15.59	124.69	8.45	-27.2	-29.2	14.1	2.20e-06	0	45	0	2702180352	14	4527
2026-01-21 00:29:16.60	124.82	8.40	-27.2	-29.3	14.1	0.00e+00	0	45	0	2707423232	14	4550
2026-01-21 00:29:17.61	124.96	8.34	-27.3	-29.5	13.9	7.43e-05	0	45	0	2712666112	14	4626
2026-01-21 00:29:18.62	125.09	8.29	-27.4	-29.6	13.8	4.50e-06	0	45	0	2718957568	14	4666
2026-01-21 00:29:19.62	125.22	8.24	-27.5	-29.8	13.7	2.20e-06	0	45	0	2724200448	14	4718
2026-01-21 00:29:20.63	125.36	8.19	-27.4	-29.7	13.8	2.20e-06	0	45	0	2730491904	14	4684
2026-01-21 00:29:21.64	125.49	8.14	-27.5	-29.4	13.6	8.00e-06	0	45	0	2735734784	15	4481
2026-01-21 00:29:22.64	125.62	8.08	-27.8	-30.0	13.3	6.80e-06	0	45	0	2740977664	15	4668
2026-01-21 00:29:23.65	125.75	8.03	-27.7	-29.9	13.4	1.25e-05	0	45	0	2747269120	15	4624
2026-01-21 00:29:24.65	125.88	7.98	-27.6	-29.6	13.5	1.75e-04	0	45	0	2752512000	15	4545
2026-01-21 00:29:25.65	126.01	7.93	-27.7	-29.9	13.3	5.70e-06	0	45	0	2757754880	15	4629
2026-01-21 00:29:26.66	126.14	7.88	-27.7	-29.9	13.3	1.85e-04	0	45	0	2764046336	15	4643
2026-01-21 00:29:27.65	126.27	7.83	-27.6	-29.7	13.5	1.35e-04	0	45	0	2769289216	15	4559
2026-01-21 00:29:28.66	126.40	7.77	-27.7	-29.8	13.3	1.02e-05	0	45	0	2775580672	15	4615
2026-01-21 00:29:29.66	126.52	7.72	-27.7	-30.0	13.3	7.78e-05	0	45	0	2780823552	15	4656
2026-01-21 00:29:30.65	126.65	7.67	-27.6	-29.7	13.4	2.20e-06	0	45	0	2786066432	15	4565
2026-01-21 00:29:31.66	126.78	7.62	-27.7	-30.0	13.2	9.10e-06	0	45	0	2792357888	15	4669
2026-01-21 00:29:32.66	126.90	7.57	-27.7	-29.8	13.3	1.25e-05	0	45	0	2797600768	15	4624
2026-01-21 00:29:33.66	127.03	7.52	-27.7	-29.8	13.4	1.73e-04	0	45	0	2802843648	15	4610
2026-01-21 00:29:34.66	127.16	7.47	-27.8	-30.2	13.1	1.48e-05	0	45	0	2809135104	15	4729
2026-01-21 00:29:35.67	127.28	7.41	-27.9	-30.4	13.0	2.54e-04	0	45	0	2814377984	15	4790
2026-01-21 00:29:36.66	127.40	7.36	-27.9	-30.3	13.0	2.68e-04	0	45	0	2819620864	15	4763
2026-01-21 00:29:37.67	127.53	7.31	-28.2	-30.5	12.8	2.40e-05	0	45	0	2825912320	16	4718
2026-01-21 00:29:38.68	127.65	7.26	-28.3	-30.8	12.7	3.38e-04	0	45	0	2831155200	16	4787
2026-01-21 00:29:39.68	127.78	7.21	-28.3	-30.7	12.6	2.72e-04	0	45	0	2837446656	16	4787
2026-01-21 00:29:40.68	127.90	7.15	-28.3	-30.7	12.7	7.66e-05	0	45	0	2842689536	16	4763
2026-01-21 00:29:41.68	128.02	7.10	-28.2	-30.6	12.7	1.46e-04	0	45	0	2848980992	16	4741
2026-01-21 00:29:42.69	128.15	7.05	-33.1	-44.3	3.8	8.45e-01	0	45	104	2852126720	26	12954
2026-01-21 00:29:43.68	128.27	7.00	-33.6	-44.8	3.8	8.46e-01	0	45	104	2852126720	27	13074

#Closed at: 2026-01-21 00:29:44
#Recorded file [2852 MB]: D:/data/31010_260121_032115.dat