passes_logs/2026/01/21/R2M6_AANII_01/R2M6_AANII_01__20260121_075810_NOAA_20_JPSS-1_rec.log

#Pass ID: 20260121_075810_NOAA 20 (JPSS-1)
#Satellite: NOAA 20 (JPSS-1)
#Configuration: NOAA 20
#almurnet v.1.7.20240730
#Start time: 2026-01-21 07:58:11

#Version: 2.2.20231116
#Station: R2M6_AANII_01
#Location: 30.233357 lon 59.946436 lat
#TLE: 1 43013U 17073A   26020.26397077  .00000127  00000+0  80954-4 0  9999
#TLE: 2 43013  98.7643 321.1479 0001288  31.3158 328.8095 14.19537595423482

#Time	Az	El	Level	Level2	SNR	BER	BlckErr	Temp	State	Recorded	gain1	gain2
2026-01-21 07:58:11.26	86.90	7.07	-32.2	-39.3	4.7	1.30e+00	0	41	0	0	25	8178
2026-01-21 07:58:12.26	86.79	7.13	-32.0	-38.2	4.8	1.24e+00	0	42	104	0	25	7403
2026-01-21 07:58:13.27	86.68	7.19	-31.9	-37.8	7.4	1.16e-01	0	42	0	0	25	7078
2026-01-21 07:58:14.27	86.57	7.25	-32.0	-38.0	7.3	1.17e-01	0	42	0	1048576	25	7222
2026-01-21 07:58:15.27	86.46	7.30	-32.0	-38.0	7.3	1.24e-01	0	42	0	3145728	25	7203
2026-01-21 07:58:16.27	86.35	7.36	-32.0	-38.0	7.3	1.15e-01	0	42	0	5242880	25	7198
2026-01-21 07:58:17.28	86.24	7.42	-31.9	-37.6	7.6	1.16e-01	0	42	0	7340032	25	6929
2026-01-21 07:58:18.28	86.13	7.48	-31.7	-37.3	8.3	6.28e-02	0	42	0	9437184	24	6845
2026-01-21 07:58:19.28	86.01	7.53	-31.6	-36.5	8.9	3.71e-02	0	42	0	10485760	24	6364
2026-01-21 07:58:20.28	85.90	7.59	-31.5	-36.1	9.2	2.39e-02	0	42	0	12582912	24	6165
2026-01-21 07:58:21.28	85.79	7.65	-31.4	-35.8	9.5	1.47e-02	0	42	0	14680064	24	5963
2026-01-21 07:58:22.29	85.67	7.71	-31.3	-35.6	9.7	1.25e-02	0	42	0	16777216	24	5893
2026-01-21 07:58:23.29	85.56	7.77	-31.3	-35.6	9.7	1.16e-02	0	42	0	17825792	24	5876
2026-01-21 07:58:24.29	85.44	7.82	-31.3	-35.6	9.7	1.11e-02	0	42	0	19922944	24	5901
2026-01-21 07:58:25.30	85.33	7.88	-31.4	-35.6	9.7	1.32e-02	0	42	0	22020096	24	5901
2026-01-21 07:58:26.30	85.21	7.94	-31.3	-35.5	9.8	1.09e-02	0	42	0	24117248	24	5801
2026-01-21 07:58:27.30	85.10	8.00	-31.3	-35.4	9.9	9.54e-03	0	42	0	26214400	24	5764
2026-01-21 07:58:28.30	84.98	8.05	-31.4	-35.6	9.7	9.64e-03	0	42	0	27262976	24	5883
2026-01-21 07:58:29.30	84.86	8.11	-31.4	-35.8	9.6	1.28e-02	0	42	0	29360128	24	5983
2026-01-21 07:58:30.31	84.74	8.17	-31.4	-35.6	9.8	1.21e-02	0	42	0	31457280	24	5878
2026-01-21 07:58:31.31	84.63	8.23	-31.3	-35.5	9.8	9.18e-03	0	42	0	33554432	24	5822
2026-01-21 07:58:32.32	84.51	8.29	-31.3	-35.5	9.9	8.86e-03	0	42	0	35651584	24	5823
2026-01-21 07:58:33.32	84.39	8.35	-31.3	-35.4	9.9	1.12e-02	0	42	0	36700160	24	5776
2026-01-21 07:58:34.32	84.27	8.40	-31.2	-35.5	10.2	6.21e-03	0	42	0	38797312	23	5919
2026-01-21 07:58:35.32	84.15	8.46	-31.2	-35.6	10.2	5.68e-03	0	42	0	40894464	23	5939
2026-01-21 07:58:36.32	84.03	8.52	-31.3	-35.7	10.2	5.89e-03	0	42	0	42991616	23	5981
2026-01-21 07:58:37.32	83.91	8.58	-31.3	-35.8	10.1	6.62e-03	0	42	0	45088768	23	6021
2026-01-21 07:58:38.32	83.78	8.64	-31.3	-35.8	10.0	7.89e-03	0	42	0	46137344	23	6043
2026-01-21 07:58:39.33	83.66	8.69	-31.3	-35.7	10.2	6.72e-03	0	42	0	48234496	23	5970
2026-01-21 07:58:40.32	83.54	8.75	-31.2	-35.5	10.3	5.40e-03	0	42	0	50331648	23	5879
2026-01-21 07:58:41.32	83.42	8.81	-31.3	-35.5	10.3	5.19e-03	0	42	0	52428800	23	5903
2026-01-21 07:58:42.32	83.29	8.87	-31.3	-35.7	10.2	5.41e-03	0	42	0	54525952	23	5994
2026-01-21 07:58:43.33	83.17	8.93	-31.3	-35.8	10.2	6.54e-03	0	43	0	55574528	23	6022
2026-01-21 07:58:44.33	83.04	8.98	-31.3	-35.6	10.3	5.51e-03	0	43	0	57671680	23	5907
2026-01-21 07:58:45.33	82.92	9.04	-31.2	-35.4	10.5	3.90e-03	0	43	0	59768832	23	5804
2026-01-21 07:58:46.34	82.79	9.10	-31.2	-35.4	10.4	4.17e-03	0	42	0	61865984	23	5846
2026-01-21 07:58:47.34	82.67	9.16	-31.2	-35.4	10.5	4.19e-03	0	43	0	62914560	23	5839
2026-01-21 07:58:48.35	82.54	9.22	-31.3	-35.6	10.3	5.30e-03	0	43	0	65011712	23	5942
2026-01-21 07:58:49.35	82.41	9.28	-31.3	-35.7	10.3	5.01e-03	0	42	0	67108864	23	5953
2026-01-21 07:58:50.35	82.28	9.33	-31.4	-35.9	10.2	6.14e-03	0	43	0	69206016	23	6049
2026-01-21 07:58:51.35	82.15	9.39	-31.3	-35.5	10.5	5.48e-03	0	43	0	71303168	23	5869
2026-01-21 07:58:52.35	82.03	9.45	-31.3	-35.5	10.4	4.41e-03	0	43	0	72351744	23	5876
2026-01-21 07:58:53.36	81.90	9.51	-31.3	-35.6	10.4	4.35e-03	0	43	0	74448896	23	5895
2026-01-21 07:58:54.37	81.76	9.57	-31.3	-35.7	10.3	4.24e-03	0	43	0	76546048	23	5978
2026-01-21 07:58:55.37	81.63	9.63	-31.4	-35.8	10.2	6.43e-03	0	43	0	78643200	23	6028
2026-01-21 07:58:56.37	81.50	9.68	-31.3	-35.5	10.5	4.72e-03	0	43	0	80740352	23	5863
2026-01-21 07:58:57.37	81.37	9.74	-31.2	-35.4	10.5	4.05e-03	0	43	0	81788928	23	5821
2026-01-21 07:58:58.37	81.24	9.80	-31.3	-35.6	10.5	4.33e-03	0	43	0	83886080	23	5877
2026-01-21 07:58:59.39	81.11	9.86	-31.3	-35.4	10.6	3.44e-03	0	43	0	85983232	23	5822
2026-01-21 07:59:00.39	80.97	9.92	-31.3	-35.4	10.6	3.50e-03	0	43	0	88080384	23	5810
2026-01-21 07:59:01.39	80.84	9.98	-31.3	-35.4	10.6	3.56e-03	0	43	0	90177536	23	5821
2026-01-21 07:59:02.40	80.70	10.03	-31.2	-35.3	10.7	3.24e-03	0	43	0	91226112	23	5753
2026-01-21 07:59:03.40	80.57	10.09	-31.2	-35.1	10.8	2.45e-03	0	43	0	93323264	23	5663
2026-01-21 07:59:04.41	80.43	10.15	-31.1	-35.0	10.9	1.99e-03	0	43	0	95420416	23	5612
2026-01-21 07:59:05.41	80.30	10.21	-31.2	-35.0	10.9	2.24e-03	0	43	0	97517568	23	5619
2026-01-21 07:59:06.42	80.16	10.27	-31.1	-35.0	11.0	2.00e-03	0	43	0	99614720	23	5597
2026-01-21 07:59:07.43	80.02	10.32	-31.2	-35.1	10.8	2.46e-03	0	43	0	100663296	23	5664
2026-01-21 07:59:08.43	79.89	10.38	-31.2	-35.1	10.8	2.37e-03	0	43	0	102760448	23	5675
2026-01-21 07:59:09.43	79.75	10.44	-31.2	-35.1	10.8	2.87e-03	0	43	0	104857600	23	5671
2026-01-21 07:59:10.43	79.61	10.50	-31.2	-35.0	11.0	2.36e-03	0	43	0	106954752	23	5605
2026-01-21 07:59:11.43	79.47	10.56	-31.1	-35.0	11.0	2.19e-03	0	43	0	109051904	23	5590
2026-01-21 07:59:12.43	79.33	10.61	-31.2	-35.1	10.9	2.12e-03	0	43	0	110100480	23	5642
2026-01-21 07:59:13.44	79.19	10.67	-31.2	-35.2	10.8	2.62e-03	0	43	0	112197632	23	5714
2026-01-21 07:59:14.44	79.05	10.73	-31.2	-35.2	10.8	2.33e-03	0	43	0	114294784	23	5693
2026-01-21 07:59:15.45	78.91	10.79	-31.2	-35.2	10.8	2.45e-03	0	43	0	116391936	23	5698
2026-01-21 07:59:16.45	78.76	10.85	-31.3	-35.5	10.6	2.98e-03	0	43	0	118489088	23	5842
2026-01-21 07:59:17.45	78.62	10.90	-31.3	-35.6	10.5	4.48e-03	0	43	0	119537664	23	5905
2026-01-21 07:59:18.45	78.48	10.96	-31.3	-35.5	10.6	4.30e-03	0	43	0	121634816	23	5828
2026-01-21 07:59:19.46	78.33	11.02	-31.2	-35.3	10.8	2.71e-03	0	43	0	123731968	23	5748
2026-01-21 07:59:20.46	78.19	11.08	-31.3	-35.5	10.6	2.80e-03	0	43	0	125829120	23	5824
2026-01-21 07:59:21.46	78.05	11.13	-31.3	-35.7	10.5	3.72e-03	0	43	0	127926272	23	5936
2026-01-21 07:59:22.47	77.90	11.19	-31.3	-35.6	10.5	4.18e-03	0	43	0	128974848	23	5909
2026-01-21 07:59:23.48	77.75	11.25	-31.3	-35.5	10.6	3.37e-03	0	43	0	131072000	23	5836
2026-01-21 07:59:24.48	77.61	11.31	-31.3	-35.4	10.7	3.30e-03	0	43	0	133169152	23	5787
2026-01-21 07:59:25.48	77.46	11.36	-31.3	-35.4	10.8	2.74e-03	0	43	0	135266304	23	5770
2026-01-21 07:59:26.48	77.31	11.42	-31.3	-35.4	10.7	2.69e-03	0	43	0	136314880	23	5799
2026-01-21 07:59:27.49	77.16	11.48	-31.3	-35.5	10.7	3.57e-03	0	43	0	138412032	23	5821
2026-01-21 07:59:28.49	77.01	11.54	-31.3	-35.4	10.7	2.86e-03	0	43	0	140509184	23	5782
2026-01-21 07:59:29.49	76.86	11.59	-31.3	-35.4	10.7	3.01e-03	0	43	0	142606336	23	5780
2026-01-21 07:59:30.49	76.71	11.65	-31.2	-35.2	10.9	2.45e-03	0	43	0	144703488	23	5693
2026-01-21 07:59:31.49	76.56	11.71	-31.3	-35.3	10.9	2.30e-03	0	43	0	145752064	23	5713
2026-01-21 07:59:32.50	76.41	11.76	-31.3	-35.4	10.7	2.68e-03	0	43	0	147849216	23	5796
2026-01-21 07:59:33.50	76.26	11.82	-31.4	-35.7	10.6	3.61e-03	0	43	0	149946368	23	5904
2026-01-21 07:59:34.50	76.11	11.88	-31.4	-35.6	10.6	2.95e-03	0	43	0	152043520	23	5884
2026-01-21 07:59:35.50	75.96	11.93	-31.4	-35.8	10.5	3.82e-03	0	43	0	154140672	23	5951
2026-01-21 07:59:36.49	75.80	11.99	-31.4	-35.7	10.5	3.68e-03	0	43	0	155189248	23	5945
2026-01-21 07:59:37.50	75.65	12.05	-31.5	-36.1	10.3	4.11e-03	0	43	0	157286400	23	6105
2026-01-21 07:59:38.50	75.49	12.10	-31.5	-36.0	10.3	6.59e-03	0	43	0	159383552	23	6066
2026-01-21 07:59:39.50	75.34	12.16	-31.4	-35.6	10.6	3.77e-03	0	43	0	161480704	23	5889
2026-01-21 07:59:40.50	75.18	12.22	-31.3	-35.4	10.8	2.89e-03	0	43	0	163577856	23	5759
2026-01-21 07:59:41.51	75.02	12.27	-31.2	-35.1	11.0	2.13e-03	0	43	0	164626432	23	5634
2026-01-21 07:59:42.51	74.87	12.33	-31.2	-35.0	11.1	1.70e-03	0	43	0	166723584	23	5585
2026-01-21 07:59:43.51	74.71	12.39	-31.2	-34.9	11.2	1.62e-03	0	43	0	168820736	23	5522
2026-01-21 07:59:44.51	74.55	12.44	-31.1	-34.7	11.3	1.15e-03	0	43	0	170917888	23	5463
2026-01-21 07:59:45.51	74.39	12.50	-31.1	-34.6	11.4	9.49e-04	0	43	0	171966464	23	5422
2026-01-21 07:59:46.51	74.23	12.55	-31.1	-34.7	11.4	9.74e-04	0	43	0	174063616	23	5442
2026-01-21 07:59:47.50	74.07	12.61	-31.1	-34.8	11.3	1.18e-03	0	44	0	176160768	23	5489
2026-01-21 07:59:48.51	73.91	12.66	-31.1	-34.6	11.4	9.79e-04	0	43	0	178257920	23	5398
2026-01-21 07:59:49.50	73.75	12.72	-31.1	-34.6	11.4	9.45e-04	0	43	0	180355072	23	5385
2026-01-21 07:59:50.51	73.59	12.78	-31.1	-34.6	11.4	1.11e-03	0	43	0	181403648	23	5386
2026-01-21 07:59:51.51	73.43	12.83	-31.0	-34.3	11.6	6.45e-04	0	43	0	183500800	23	5288
2026-01-21 07:59:52.51	73.26	12.89	-31.0	-34.4	11.6	6.31e-04	0	43	0	185597952	23	5312
2026-01-21 07:59:53.52	73.10	12.94	-31.0	-34.5	11.5	7.12e-04	0	43	0	187695104	23	5365
2026-01-21 07:59:54.52	72.93	13.00	-31.0	-34.3	11.6	9.67e-04	0	43	0	189792256	23	5289
2026-01-21 07:59:55.53	72.77	13.05	-30.8	-33.8	12.0	4.39e-04	0	43	0	190840832	23	5073
2026-01-21 07:59:56.53	72.60	13.11	-30.8	-34.1	12.2	2.31e-04	0	43	0	192937984	22	5294
2026-01-21 07:59:57.53	72.44	13.16	-30.8	-34.2	12.1	2.77e-04	0	43	0	195035136	22	5316
2026-01-21 07:59:58.53	72.27	13.22	-30.7	-34.0	12.2	2.28e-04	0	44	0	197132288	22	5248
2026-01-21 07:59:59.54	72.10	13.27	-30.7	-33.9	12.4	1.57e-04	0	43	0	199229440	22	5197
2026-01-21 08:00:00.53	71.93	13.32	-30.6	-33.7	12.5	1.47e-04	0	43	0	200278016	22	5130
2026-01-21 08:00:01.54	71.76	13.38	-30.7	-33.9	12.4	1.49e-04	0	43	0	202375168	22	5183
2026-01-21 08:00:02.54	71.59	13.43	-30.6	-33.7	12.5	1.68e-04	0	43	0	204472320	22	5128
2026-01-21 08:00:03.54	71.42	13.49	-30.6	-33.5	12.6	9.84e-05	0	43	0	206569472	22	5040
2026-01-21 08:00:04.54	71.25	13.54	-30.6	-33.6	12.5	1.05e-04	0	43	0	208666624	22	5087
2026-01-21 08:00:05.55	71.08	13.60	-30.6	-33.6	12.6	9.76e-05	0	43	0	209715200	22	5098
2026-01-21 08:00:06.55	70.91	13.65	-30.6	-33.7	12.5	1.11e-04	0	44	0	211812352	22	5114
2026-01-21 08:00:07.56	70.73	13.70	-30.6	-33.6	12.5	1.09e-04	0	44	0	213909504	22	5095
2026-01-21 08:00:08.56	70.56	13.76	-30.6	-33.5	12.6	1.17e-04	0	43	0	216006656	22	5064
2026-01-21 08:00:09.56	70.39	13.81	-30.5	-33.4	12.7	6.56e-05	0	43	0	217055232	22	5000
2026-01-21 08:00:10.56	70.21	13.86	-30.6	-33.5	12.7	8.08e-05	0	44	0	219152384	22	5047
2026-01-21 08:00:11.57	70.04	13.92	-30.6	-33.5	12.7	1.02e-04	0	44	0	221249536	22	5046
2026-01-21 08:00:12.57	69.86	13.97	-30.5	-33.2	12.8	5.03e-05	0	44	0	223346688	22	4956
2026-01-21 08:00:13.57	69.68	14.02	-30.6	-33.5	12.7	6.02e-05	0	43	0	225443840	22	5032
2026-01-21 08:00:14.58	69.51	14.07	-30.5	-33.4	12.7	6.79e-05	0	44	0	226492416	22	4993
2026-01-21 08:00:15.58	69.33	14.13	-30.4	-33.0	13.0	5.49e-05	0	44	0	228589568	22	4861
2026-01-21 08:00:16.58	69.15	14.18	-30.4	-32.9	13.1	2.51e-05	0	44	0	230686720	22	4828
2026-01-21 08:00:17.58	68.97	14.23	-30.3	-32.7	13.3	3.12e-05	0	44	0	232783872	22	4747
2026-01-21 08:00:18.58	68.79	14.28	-30.2	-33.0	13.3	2.67e-05	0	43	0	234881024	21	4973
2026-01-21 08:00:19.58	68.61	14.33	-30.3	-33.2	13.3	9.90e-06	0	43	0	235929600	21	5015
2026-01-21 08:00:20.58	68.43	14.38	-30.3	-33.1	13.2	1.90e-05	0	44	0	238026752	21	5010
2026-01-21 08:00:21.58	68.25	14.43	-30.3	-33.1	13.3	2.13e-05	0	44	0	240123904	21	4999
2026-01-21 08:00:22.58	68.07	14.49	-30.3	-33.2	13.3	1.14e-05	0	44	0	242221056	21	5019
2026-01-21 08:00:23.58	67.89	14.54	-30.3	-33.3	13.2	1.90e-05	0	44	0	244318208	21	5061
2026-01-21 08:00:24.59	67.70	14.59	-30.3	-33.1	13.3	3.35e-05	0	44	0	245366784	21	4982
2026-01-21 08:00:25.59	67.52	14.64	-30.2	-33.0	13.3	1.60e-05	0	44	0	247463936	21	4972
2026-01-21 08:00:26.59	67.33	14.69	-30.3	-33.1	13.3	1.29e-05	0	44	0	249561088	21	4982
2026-01-21 08:00:27.60	67.15	14.74	-30.3	-33.2	13.2	1.67e-05	0	44	0	251658240	21	5018
2026-01-21 08:00:28.60	66.96	14.79	-30.3	-33.2	13.2	3.28e-05	0	44	0	253755392	21	5034
2026-01-21 08:00:29.61	66.77	14.84	-30.2	-32.9	13.4	1.83e-05	0	43	0	254803968	21	4915
2026-01-21 08:00:30.61	66.58	14.89	-30.3	-33.1	13.3	1.29e-05	0	44	0	256901120	21	4989
2026-01-21 08:00:31.61	66.40	14.94	-30.3	-33.2	13.2	1.60e-05	0	44	0	258998272	21	5028
2026-01-21 08:00:32.61	66.21	14.99	-30.4	-33.4	13.1	1.44e-05	0	44	0	261095424	21	5107
2026-01-21 08:00:33.61	66.02	15.03	-30.4	-33.6	13.0	3.12e-05	0	44	0	262144000	21	5168
2026-01-21 08:00:34.61	65.83	15.08	-30.5	-33.6	13.0	3.58e-05	0	44	0	264241152	21	5186
2026-01-21 08:00:35.61	65.64	15.13	-30.5	-33.6	13.0	4.73e-05	0	44	0	266338304	21	5192
2026-01-21 08:00:36.60	65.45	15.18	-30.4	-33.4	13.1	2.97e-05	0	44	0	268435456	21	5094
2026-01-21 08:00:37.61	65.26	15.23	-30.5	-33.7	13.0	2.82e-05	0	44	0	270532608	21	5197
2026-01-21 08:00:38.61	65.07	15.27	-30.5	-33.8	12.9	6.02e-05	0	44	0	272629760	21	5247
2026-01-21 08:00:39.62	64.87	15.32	-30.5	-33.7	13.0	4.11e-05	0	44	0	273678336	21	5198
2026-01-21 08:00:40.62	64.68	15.37	-30.6	-33.9	12.8	5.41e-05	0	44	0	275775488	21	5302
2026-01-21 08:00:41.62	64.48	15.42	-30.6	-34.0	12.8	6.56e-05	0	44	0	277872640	21	5312
2026-01-21 08:00:42.62	64.29	15.46	-30.6	-34.0	12.8	6.10e-05	0	43	0	279969792	21	5318
2026-01-21 08:00:43.63	64.09	15.51	-30.6	-33.9	12.8	6.40e-05	0	44	0	281018368	21	5302
2026-01-21 08:00:44.64	63.90	15.56	-30.6	-33.9	12.8	6.10e-05	0	44	0	283115520	21	5303
2026-01-21 08:00:45.64	63.70	15.60	-30.6	-34.1	12.7	8.77e-05	0	44	0	285212672	21	5353
2026-01-21 08:00:46.64	63.50	15.65	-30.6	-34.0	12.8	4.80e-05	0	44	0	287309824	21	5312
2026-01-21 08:00:47.64	63.31	15.69	-30.6	-34.0	12.7	7.17e-05	0	44	0	289406976	21	5346
2026-01-21 08:00:48.64	63.11	15.74	-30.6	-34.1	12.8	4.34e-05	0	44	0	290455552	21	5355
2026-01-21 08:00:49.63	62.91	15.78	-30.8	-34.6	12.4	1.06e-04	0	44	0	292552704	21	5566
2026-01-21 08:00:50.64	62.71	15.83	-30.7	-34.4	12.5	1.84e-04	0	44	0	294649856	21	5501
2026-01-21 08:00:51.64	62.51	15.87	-30.6	-33.9	12.9	6.02e-05	0	44	0	296747008	21	5292
2026-01-21 08:00:52.65	62.31	15.92	-30.5	-33.6	13.0	4.88e-05	0	44	0	298844160	21	5171
2026-01-21 08:00:53.65	62.11	15.96	-30.4	-33.4	13.2	2.89e-05	0	44	0	299892736	21	5087
2026-01-21 08:00:54.66	61.90	16.00	-30.4	-33.3	13.3	2.51e-05	0	44	0	301989888	21	5041
2026-01-21 08:00:55.65	61.70	16.05	-30.4	-33.4	13.3	1.52e-05	0	44	0	304087040	21	5068
2026-01-21 08:00:56.66	61.50	16.09	-30.3	-33.1	13.4	1.37e-05	0	44	0	306184192	21	4960
2026-01-21 08:00:57.66	61.29	16.13	-30.1	-32.6	13.7	3.80e-06	0	44	0	307232768	21	4801
2026-01-21 08:00:58.66	61.09	16.18	-30.1	-32.5	13.8	6.80e-06	0	44	0	309329920	21	4755
2026-01-21 08:00:59.67	60.88	16.22	-30.0	-32.4	13.9	3.80e-06	0	44	0	311427072	21	4728
2026-01-21 08:01:00.67	60.68	16.26	-30.1	-32.5	13.8	2.20e-06	0	44	0	313524224	21	4759
2026-01-21 08:01:01.67	60.47	16.30	-30.2	-32.8	13.6	6.10e-06	0	44	0	315621376	21	4857
2026-01-21 08:01:02.67	60.27	16.34	-30.3	-33.0	13.5	1.06e-05	0	44	0	317718528	21	4938
2026-01-21 08:01:03.67	60.06	16.38	-30.2	-32.7	13.7	7.60e-06	0	44	0	318767104	21	4831
2026-01-21 08:01:04.68	59.85	16.42	-30.0	-32.4	13.8	3.80e-06	0	44	0	320864256	21	4741
2026-01-21 08:01:05.68	59.64	16.46	-30.1	-32.5	13.8	5.30e-06	0	44	0	322961408	21	4762
2026-01-21 08:01:06.69	59.43	16.50	-30.1	-32.7	13.7	6.80e-06	0	44	0	325058560	21	4840
2026-01-21 08:01:07.69	59.22	16.54	-30.1	-32.5	13.8	5.30e-06	0	44	0	326107136	21	4751
2026-01-21 08:01:08.69	59.01	16.58	-30.0	-32.3	13.9	4.50e-06	0	44	0	328204288	21	4697
2026-01-21 08:01:09.69	58.80	16.62	-30.0	-32.4	13.9	3.00e-06	0	44	0	330301440	21	4714
2026-01-21 08:01:10.68	58.59	16.66	-30.0	-32.3	14.0	3.80e-06	0	44	0	332398592	21	4680
2026-01-21 08:01:11.69	58.38	16.70	-29.8	-31.8	14.3	1.50e-06	0	44	0	334495744	21	4532
2026-01-21 08:01:12.69	58.17	16.74	-29.7	-32.1	14.4	0.00e+00	0	44	0	335544320	20	4714
2026-01-21 08:01:13.70	57.95	16.78	-29.8	-32.2	14.3	0.00e+00	0	44	0	337641472	20	4769
2026-01-21 08:01:14.70	57.74	16.81	-29.8	-32.2	14.3	7.00e-07	0	44	0	339738624	20	4762
2026-01-21 08:01:15.70	57.53	16.85	-29.7	-32.1	14.3	1.50e-06	0	44	0	341835776	20	4743
2026-01-21 08:01:16.70	57.31	16.89	-29.7	-31.9	14.5	2.20e-06	0	44	0	343932928	20	4656
2026-01-21 08:01:17.71	57.10	16.92	-29.7	-31.9	14.5	0.00e+00	0	44	0	344981504	20	4672
2026-01-21 08:01:18.71	56.88	16.96	-29.7	-32.0	14.5	0.00e+00	0	44	0	347078656	20	4692
2026-01-21 08:01:19.71	56.67	16.99	-29.7	-32.1	14.4	1.50e-06	0	44	0	349175808	20	4738
2026-01-21 08:01:20.72	56.45	17.03	-29.8	-32.3	14.3	7.00e-07	0	44	0	351272960	20	4791
2026-01-21 08:01:21.72	56.23	17.06	-29.9	-32.6	14.1	1.50e-06	0	44	0	353370112	20	4889
2026-01-21 08:01:22.72	56.02	17.10	-29.9	-32.6	14.1	3.80e-06	0	44	0	354418688	20	4897
2026-01-21 08:01:23.72	55.80	17.13	-29.9	-32.6	14.1	1.50e-06	0	44	0	356515840	20	4909
2026-01-21 08:01:24.71	55.58	17.16	-30.0	-32.9	13.9	1.50e-06	0	44	0	358612992	20	5001
2026-01-21 08:01:25.71	55.36	17.20	-30.0	-32.8	14.0	1.50e-06	0	44	0	360710144	20	4979
2026-01-21 08:01:26.70	55.15	17.23	-30.0	-32.7	14.0	5.30e-06	0	44	0	361758720	20	4941
2026-01-21 08:01:27.71	54.93	17.26	-29.9	-32.6	14.1	2.20e-06	0	44	0	363855872	20	4890
2026-01-21 08:01:28.71	54.71	17.30	-29.9	-32.5	14.2	1.50e-06	0	44	0	365953024	20	4876
2026-01-21 08:01:29.72	54.48	17.33	-29.8	-32.4	14.3	7.00e-07	0	44	0	368050176	20	4810
2026-01-21 08:01:30.72	54.26	17.36	-29.8	-32.3	14.3	7.00e-07	0	44	0	370147328	20	4800
2026-01-21 08:01:31.72	54.04	17.39	-29.8	-32.3	14.3	1.50e-06	0	44	0	371195904	20	4797
2026-01-21 08:01:32.73	53.82	17.42	-29.9	-32.6	14.1	1.50e-06	0	44	0	373293056	20	4906
2026-01-21 08:01:33.74	53.59	17.45	-29.8	-32.4	14.3	2.20e-06	0	44	0	375390208	20	4810
2026-01-21 08:01:34.74	53.37	17.48	-29.9	-32.4	14.2	0.00e+00	0	44	0	377487360	20	4838
2026-01-21 08:01:35.74	53.15	17.51	-30.0	-32.7	14.1	2.20e-06	0	44	0	379584512	20	4911
2026-01-21 08:01:36.74	52.92	17.54	-30.0	-32.9	14.0	2.20e-06	0	44	0	380633088	20	4994
2026-01-21 08:01:37.75	52.70	17.57	-30.0	-32.8	14.0	2.20e-06	0	44	0	382730240	20	4977
2026-01-21 08:01:38.76	52.47	17.59	-30.0	-32.9	14.0	3.80e-06	0	44	0	384827392	20	4998
2026-01-21 08:01:39.76	52.25	17.62	-30.0	-32.8	14.0	2.20e-06	0	44	0	386924544	20	4954
2026-01-21 08:01:40.75	52.02	17.65	-30.0	-32.9	14.0	7.00e-07	0	44	0	389021696	20	4986
2026-01-21 08:01:41.76	51.80	17.68	-30.2	-33.3	13.7	6.10e-06	0	44	0	390070272	20	5168
2026-01-21 08:01:42.75	51.57	17.70	-30.3	-33.6	13.5	1.14e-05	0	44	0	392167424	20	5245
2026-01-21 08:01:43.76	51.34	17.73	-30.3	-33.7	13.4	1.44e-05	0	44	0	394264576	20	5305
2026-01-21 08:01:44.77	51.12	17.75	-30.4	-33.7	13.4	1.52e-05	0	44	0	396361728	20	5310
2026-01-21 08:01:45.77	50.89	17.78	-30.4	-34.0	13.3	1.22e-05	0	44	0	398458880	20	5410
2026-01-21 08:01:46.78	50.66	17.80	-30.4	-33.9	13.3	1.75e-05	0	44	0	399507456	20	5383
2026-01-21 08:01:47.78	50.43	17.83	-30.5	-33.8	13.1	2.36e-05	0	44	0	401604608	21	5209
2026-01-21 08:01:48.79	50.20	17.85	-30.6	-33.9	13.0	3.66e-05	0	44	0	403701760	21	5263
2026-01-21 08:01:49.79	49.97	17.87	-30.4	-33.4	13.3	2.67e-05	0	44	0	405798912	21	5082
2026-01-21 08:01:50.79	49.74	17.90	-30.2	-32.9	13.6	1.75e-05	0	44	0	407896064	21	4912
2026-01-21 08:01:51.79	49.51	17.92	-30.2	-32.8	13.7	9.10e-06	0	44	0	408944640	21	4866
2026-01-21 08:01:52.79	49.28	17.94	-30.3	-33.0	13.6	5.30e-06	0	44	0	411041792	21	4921
2026-01-21 08:01:53.79	49.05	17.96	-30.3	-33.0	13.6	6.80e-06	0	44	0	413138944	21	4938
2026-01-21 08:01:54.79	48.82	17.98	-30.4	-33.2	13.5	9.10e-06	0	44	0	415236096	21	4999
2026-01-21 08:01:55.80	48.59	18.00	-30.4	-33.3	13.3	1.75e-05	0	44	0	416284672	21	5053
2026-01-21 08:01:56.80	48.36	18.02	-30.4	-33.3	13.3	1.83e-05	0	44	0	418381824	21	5055
2026-01-21 08:01:57.80	48.13	18.04	-30.4	-33.4	13.3	1.44e-05	0	44	0	420478976	21	5081
2026-01-21 08:01:58.80	47.90	18.06	-30.5	-33.6	13.2	1.44e-05	0	44	0	422576128	21	5130
2026-01-21 08:01:59.80	47.67	18.08	-30.6	-33.8	13.1	2.36e-05	0	44	0	424673280	21	5215
2026-01-21 08:02:00.81	47.43	18.10	-30.6	-34.0	12.9	3.81e-05	0	44	0	425721856	21	5308
2026-01-21 08:02:01.81	47.20	18.12	-30.6	-34.0	12.9	4.42e-05	0	44	0	427819008	21	5303
2026-01-21 08:02:02.81	46.97	18.13	-30.7	-34.1	12.9	4.50e-05	0	44	0	429916160	21	5343
2026-01-21 08:02:03.81	46.73	18.15	-30.7	-34.3	12.7	6.10e-05	0	44	0	432013312	21	5451
2026-01-21 08:02:04.82	46.50	18.17	-30.8	-34.4	12.7	8.62e-05	0	44	0	434110464	21	5450
2026-01-21 08:02:05.82	46.27	18.18	-30.8	-34.5	12.6	1.02e-04	0	44	0	435159040	21	5505
2026-01-21 08:02:06.82	46.03	18.20	-30.8	-34.5	12.6	1.23e-04	0	44	0	437256192	21	5512
2026-01-21 08:02:07.82	45.80	18.21	-30.8	-34.5	12.5	9.84e-05	0	44	0	439353344	21	5520
2026-01-21 08:02:08.83	45.56	18.23	-30.9	-34.7	12.4	1.10e-04	0	44	0	441450496	21	5623
2026-01-21 08:02:09.83	45.33	18.24	-30.9	-34.7	12.4	1.54e-04	0	44	0	443547648	21	5589
2026-01-21 08:02:10.83	45.09	18.25	-30.8	-34.6	12.5	1.52e-04	0	44	0	444596224	21	5557
2026-01-21 08:02:11.83	44.86	18.27	-30.8	-34.6	12.5	1.25e-04	0	44	0	446693376	21	5563
2026-01-21 08:02:12.83	44.62	18.28	-30.8	-34.6	12.5	1.12e-04	0	44	0	448790528	21	5552
2026-01-21 08:02:13.83	44.39	18.29	-30.9	-34.8	12.4	1.17e-04	0	44	0	450887680	21	5642
2026-01-21 08:02:14.82	44.16	18.30	-30.8	-34.5	12.6	1.50e-04	0	44	0	452984832	21	5512
2026-01-21 08:02:15.82	43.92	18.31	-30.7	-34.3	12.7	8.23e-05	0	44	0	454033408	21	5424
2026-01-21 08:02:16.83	43.68	18.32	-30.8	-34.5	12.6	8.62e-05	0	44	0	456130560	21	5497
2026-01-21 08:02:17.82	43.45	18.33	-30.8	-34.6	12.5	9.76e-05	0	44	0	458227712	21	5546
2026-01-21 08:02:18.82	43.22	18.34	-30.9	-34.6	12.5	1.21e-04	0	44	0	460324864	21	5573
2026-01-21 08:02:19.82	42.98	18.35	-30.8	-34.5	12.5	1.01e-04	0	44	0	461373440	21	5518
2026-01-21 08:02:20.82	42.74	18.36	-30.9	-34.7	12.4	1.27e-04	0	44	0	463470592	21	5578
2026-01-21 08:02:21.82	42.51	18.37	-30.8	-34.4	12.6	1.17e-04	0	44	0	465567744	21	5460
2026-01-21 08:02:22.83	42.27	18.38	-30.7	-34.3	12.7	7.78e-05	0	44	0	467664896	21	5435
2026-01-21 08:02:23.83	42.03	18.38	-30.8	-34.4	12.6	7.78e-05	0	44	0	469762048	21	5467
2026-01-21 08:02:24.83	41.80	18.39	-30.8	-34.5	12.5	1.03e-04	0	44	0	470810624	21	5511
2026-01-21 08:02:25.84	41.56	18.39	-30.9	-34.7	12.4	1.07e-04	0	44	0	472907776	21	5592
2026-01-21 08:02:26.84	41.32	18.40	-30.7	-34.2	12.7	8.92e-05	0	44	0	475004928	21	5395
2026-01-21 08:02:27.84	41.08	18.40	-30.6	-33.8	13.0	4.95e-05	0	44	0	477102080	21	5236
2026-01-21 08:02:28.84	40.85	18.41	-30.6	-33.9	13.0	3.66e-05	0	44	0	479199232	21	5264
2026-01-21 08:02:29.85	40.61	18.41	-30.7	-34.2	12.7	7.01e-05	0	44	0	480247808	21	5388
2026-01-21 08:02:30.85	40.37	18.42	-30.8	-34.5	12.5	8.39e-05	0	44	0	482344960	21	5537
2026-01-21 08:02:31.86	40.13	18.42	-30.8	-34.6	12.5	1.10e-04	0	44	0	484442112	21	5549
2026-01-21 08:02:32.86	39.89	18.42	-30.7	-34.3	12.7	1.14e-04	0	44	0	486539264	21	5438
2026-01-21 08:02:33.86	39.66	18.42	-30.7	-34.2	12.8	8.54e-05	0	44	0	488636416	21	5378
2026-01-21 08:02:34.87	39.42	18.42	-30.5	-33.6	13.1	3.28e-05	0	44	0	489684992	21	5171
2026-01-21 08:02:35.87	39.18	18.42	-30.4	-33.5	13.2	3.81e-05	0	44	0	491782144	21	5118
2026-01-21 08:02:36.87	38.94	18.43	-30.5	-33.5	13.2	2.67e-05	0	44	0	493879296	21	5131
2026-01-21 08:02:37.87	38.71	18.42	-30.4	-33.5	13.2	2.51e-05	0	44	0	495976448	21	5123
2026-01-21 08:02:38.88	38.47	18.42	-30.4	-33.5	13.2	2.05e-05	0	44	0	498073600	21	5117
2026-01-21 08:02:39.89	38.23	18.42	-30.4	-33.5	13.2	2.28e-05	0	44	0	499122176	21	5121
2026-01-21 08:02:40.89	37.99	18.42	-30.5	-33.8	13.0	3.12e-05	0	44	0	501219328	21	5220
2026-01-21 08:02:41.89	37.75	18.42	-30.4	-33.4	13.3	2.51e-05	0	44	0	503316480	21	5093
2026-01-21 08:02:42.90	37.52	18.42	-30.3	-33.1	13.5	1.44e-05	0	44	0	505413632	21	4958
2026-01-21 08:02:43.89	37.28	18.41	-30.3	-33.0	13.6	5.30e-06	0	44	0	506462208	21	4937
2026-01-21 08:02:44.90	37.04	18.41	-30.3	-33.1	13.5	1.14e-05	0	44	0	508559360	21	4970
2026-01-21 08:02:45.90	36.80	18.40	-30.3	-33.0	13.5	6.10e-06	0	44	0	510656512	21	4941
2026-01-21 08:02:46.91	36.57	18.40	-30.3	-33.2	13.4	9.90e-06	0	44	0	512753664	21	4997
2026-01-21 08:02:47.91	36.33	18.39	-30.2	-32.9	13.6	8.30e-06	0	44	0	514850816	21	4894
2026-01-21 08:02:48.92	36.09	18.39	-30.2	-32.8	13.7	9.90e-06	0	44	0	515899392	21	4872
2026-01-21 08:02:49.92	35.85	18.38	-30.2	-32.8	13.6	4.50e-06	0	44	0	517996544	21	4878
2026-01-21 08:02:50.92	35.62	18.37	-30.2	-32.8	13.7	5.30e-06	0	44	0	520093696	21	4844
2026-01-21 08:02:51.92	35.38	18.37	-30.2	-32.8	13.6	3.00e-06	0	44	0	522190848	21	4879
2026-01-21 08:02:52.92	35.15	18.36	-30.4	-33.3	13.4	6.10e-06	0	44	0	524288000	21	5039
2026-01-21 08:02:53.93	34.91	18.35	-30.2	-32.7	13.7	8.30e-06	0	44	0	525336576	21	4847
2026-01-21 08:02:54.93	34.67	18.34	-30.0	-32.4	13.9	3.00e-06	0	44	0	527433728	21	4727
2026-01-21 08:02:55.93	34.44	18.33	-30.0	-32.2	14.0	1.50e-06	0	44	0	529530880	21	4665
2026-01-21 08:02:56.93	34.20	18.32	-30.0	-32.2	14.0	1.50e-06	0	44	0	531628032	21	4674
2026-01-21 08:02:57.94	33.96	18.31	-29.9	-32.0	14.2	1.50e-06	0	44	0	533725184	21	4585
2026-01-21 08:02:58.94	33.73	18.30	-29.8	-31.8	14.3	7.00e-07	0	44	0	534773760	21	4535
2026-01-21 08:02:59.94	33.49	18.29	-29.9	-31.9	14.2	4.50e-06	0	44	0	536870912	21	4567
2026-01-21 08:03:00.94	33.26	18.28	-29.8	-31.8	14.3	1.50e-06	0	44	0	538968064	21	4532
2026-01-21 08:03:01.95	33.02	18.27	-29.8	-31.9	14.3	0.00e+00	0	44	0	541065216	21	4546
2026-01-21 08:03:02.94	32.79	18.25	-29.9	-31.9	14.2	7.00e-07	0	44	0	543162368	21	4573
2026-01-21 08:03:03.95	32.55	18.24	-29.8	-31.8	14.3	0.00e+00	0	44	0	544210944	21	4543
2026-01-21 08:03:04.95	32.32	18.23	-29.8	-31.9	14.2	0.00e+00	0	44	0	546308096	21	4565
2026-01-21 08:03:05.96	32.08	18.21	-29.8	-31.8	14.3	7.00e-07	0	44	0	548405248	21	4527
2026-01-21 08:03:06.96	31.85	18.20	-29.9	-31.9	14.2	1.50e-06	0	44	0	550502400	21	4569
2026-01-21 08:03:07.96	31.62	18.18	-29.7	-32.1	14.5	1.50e-06	0	44	0	552599552	20	4721
2026-01-21 08:03:08.96	31.38	18.17	-29.8	-32.2	14.4	1.50e-06	0	44	0	553648128	20	4762
2026-01-21 08:03:09.97	31.15	18.15	-30.0	-32.7	14.0	7.00e-07	0	44	0	555745280	20	4943
2026-01-21 08:03:10.98	30.91	18.13	-29.8	-32.2	14.3	7.00e-07	0	44	0	557842432	20	4760
2026-01-21 08:03:11.97	30.68	18.12	-29.9	-32.6	14.1	0.00e+00	0	44	0	559939584	20	4911
2026-01-21 08:03:12.98	30.45	18.10	-29.8	-32.3	14.3	1.50e-06	0	44	0	562036736	20	4790
2026-01-21 08:03:13.99	30.22	18.08	-29.8	-32.2	14.4	7.00e-07	0	44	0	563085312	20	4755
2026-01-21 08:03:14.99	29.98	18.06	-29.8	-32.3	14.3	3.00e-06	0	44	0	565182464	20	4797
2026-01-21 08:03:16.00	29.75	18.04	-29.9	-32.5	14.2	2.20e-06	0	44	0	567279616	20	4867
2026-01-21 08:03:17.01	29.52	18.02	-29.9	-32.4	14.2	7.00e-07	0	44	0	569376768	20	4843
2026-01-21 08:03:18.01	29.29	18.00	-30.1	-33.1	13.8	3.00e-06	0	44	0	571473920	20	5063
2026-01-21 08:03:19.02	29.06	17.98	-29.9	-32.5	14.1	2.20e-06	0	44	0	572522496	20	4868
2026-01-21 08:03:20.03	28.82	17.96	-29.8	-32.3	14.3	7.00e-07	0	44	0	574619648	20	4805
2026-01-21 08:03:21.03	28.59	17.94	-30.0	-32.7	14.0	0.00e+00	0	44	0	576716800	20	4935
2026-01-21 08:03:22.04	28.36	17.92	-29.9	-32.4	14.2	7.00e-07	0	44	0	578813952	20	4843
2026-01-21 08:03:23.04	28.13	17.89	-30.0	-32.7	14.0	3.00e-06	0	44	0	579862528	20	4943
2026-01-21 08:03:24.04	27.90	17.87	-30.0	-32.9	13.9	1.50e-06	0	44	0	581959680	20	5007
2026-01-21 08:03:25.04	27.68	17.85	-30.0	-32.8	14.0	4.50e-06	0	44	0	584056832	20	4965
2026-01-21 08:03:26.04	27.45	17.82	-30.1	-33.0	13.9	7.00e-07	0	44	0	586153984	20	5034
2026-01-21 08:03:27.05	27.22	17.80	-30.0	-32.8	14.0	2.20e-06	0	44	0	588251136	20	4972
2026-01-21 08:03:28.05	26.99	17.78	-30.0	-32.9	13.9	4.50e-06	0	44	0	589299712	20	5017
2026-01-21 08:03:29.05	26.77	17.75	-30.1	-33.0	13.9	3.00e-06	0	44	0	591396864	20	5027
2026-01-21 08:03:30.06	26.54	17.73	-30.1	-33.0	13.8	3.00e-06	0	44	0	593494016	20	5045
2026-01-21 08:03:31.06	26.31	17.70	-30.3	-33.7	13.3	1.22e-05	0	44	0	595591168	20	5323
2026-01-21 08:03:32.07	26.08	17.67	-30.2	-33.4	13.5	1.06e-05	0	44	0	597688320	20	5187
2026-01-21 08:03:33.07	25.86	17.65	-30.2	-33.2	13.7	4.50e-06	0	44	0	598736896	20	5128
2026-01-21 08:03:34.08	25.63	17.62	-30.2	-33.3	13.6	7.60e-06	0	44	0	600834048	20	5159
2026-01-21 08:03:35.08	25.41	17.59	-30.3	-33.6	13.5	9.10e-06	0	44	0	602931200	20	5254
2026-01-21 08:03:36.09	25.18	17.56	-30.2	-33.4	13.6	1.37e-05	0	44	0	605028352	20	5196
2026-01-21 08:03:37.08	24.96	17.53	-30.2	-33.2	13.6	8.30e-06	0	44	0	607125504	20	5132
2026-01-21 08:03:38.08	24.74	17.51	-30.2	-33.2	13.7	8.30e-06	0	44	0	608174080	20	5119
2026-01-21 08:03:39.08	24.52	17.48	-30.2	-33.2	13.6	4.50e-06	0	44	0	610271232	20	5127
2026-01-21 08:03:40.08	24.29	17.45	-30.2	-33.4	13.6	6.10e-06	0	44	0	612368384	20	5173
2026-01-21 08:03:41.09	24.07	17.42	-30.4	-33.8	13.3	1.60e-05	0	44	0	614465536	20	5339
2026-01-21 08:03:42.09	23.85	17.39	-30.3	-33.8	13.3	2.13e-05	0	44	0	616562688	20	5341
2026-01-21 08:03:43.10	23.63	17.36	-30.4	-34.0	13.1	2.36e-05	0	44	0	617611264	20	5437
2026-01-21 08:03:44.09	23.41	17.32	-30.4	-34.0	13.2	1.98e-05	0	44	0	619708416	20	5407
2026-01-21 08:03:45.10	23.19	17.29	-30.4	-34.0	13.1	3.12e-05	0	44	0	621805568	20	5448
2026-01-21 08:03:46.10	22.97	17.26	-30.5	-33.7	13.0	4.19e-05	0	44	0	623902720	21	5210
2026-01-21 08:03:47.10	22.75	17.23	-30.6	-34.1	12.7	5.79e-05	0	44	0	624951296	21	5341
2026-01-21 08:03:48.11	22.53	17.20	-30.4	-33.4	13.2	3.89e-05	0	44	0	627048448	21	5089
2026-01-21 08:03:49.11	22.31	17.16	-30.3	-33.2	13.3	1.67e-05	0	44	0	629145600	21	5016
2026-01-21 08:03:50.11	22.09	17.13	-30.3	-33.2	13.4	1.67e-05	0	44	0	631242752	21	5007
2026-01-21 08:03:51.11	21.87	17.09	-30.3	-33.0	13.4	1.14e-05	0	44	0	633339904	21	4951
2026-01-21 08:03:52.12	21.66	17.06	-30.3	-33.1	13.4	1.83e-05	0	44	0	635437056	21	4992
2026-01-21 08:03:53.13	21.44	17.02	-30.3	-33.0	13.4	1.22e-05	0	44	0	636485632	21	4952
2026-01-21 08:03:54.13	21.22	16.99	-30.3	-33.2	13.3	1.52e-05	0	44	0	638582784	21	5026
2026-01-21 08:03:55.13	21.01	16.95	-30.4	-33.3	13.3	1.83e-05	0	44	0	640679936	21	5042
2026-01-21 08:03:56.14	20.79	16.92	-30.5	-33.8	12.9	3.50e-05	0	44	0	642777088	21	5249
2026-01-21 08:03:57.14	20.58	16.88	-30.4	-33.4	13.2	3.81e-05	0	44	0	643825664	21	5073
2026-01-21 08:03:58.15	20.36	16.85	-30.3	-33.1	13.4	1.14e-05	0	44	0	645922816	21	4978
2026-01-21 08:03:59.15	20.15	16.81	-30.3	-33.0	13.4	1.22e-05	0	44	0	648019968	21	4952
2026-01-21 08:04:00.15	19.94	16.77	-30.3	-33.0	13.4	1.75e-05	0	44	0	650117120	21	4954
2026-01-21 08:04:01.15	19.73	16.73	-30.3	-33.0	13.4	1.52e-05	0	44	0	652214272	21	4945
2026-01-21 08:04:02.16	19.51	16.70	-30.3	-33.2	13.3	1.29e-05	0	44	0	653262848	21	5015
2026-01-21 08:04:03.16	19.30	16.66	-30.4	-33.4	13.2	2.28e-05	0	44	0	655360000	21	5097
2026-01-21 08:04:04.17	19.09	16.62	-30.4	-33.3	13.2	2.97e-05	0	44	0	657457152	21	5058
2026-01-21 08:04:05.18	18.88	16.58	-30.3	-33.2	13.3	1.44e-05	0	44	0	659554304	21	5022
2026-01-21 08:04:06.18	18.67	16.54	-30.3	-33.2	13.4	1.67e-05	0	44	0	661651456	21	4996
2026-01-21 08:04:07.18	18.46	16.50	-30.3	-33.2	13.3	1.29e-05	0	44	0	662700032	21	5006
2026-01-21 08:04:08.17	18.25	16.46	-30.2	-32.9	13.5	1.29e-05	0	44	0	664797184	21	4910
2026-01-21 08:04:09.17	18.05	16.42	-30.3	-33.0	13.4	1.14e-05	0	44	0	666894336	21	4962
2026-01-21 08:04:10.18	17.84	16.38	-30.4	-33.3	13.1	1.67e-05	0	44	0	668991488	21	5069
2026-01-21 08:04:11.18	17.63	16.34	-30.4	-33.3	13.2	2.28e-05	0	44	0	671088640	21	5056
2026-01-21 08:04:12.18	17.43	16.30	-30.5	-33.7	12.9	4.73e-05	0	44	0	672137216	21	5209
2026-01-21 08:04:13.18	17.22	16.26	-30.5	-33.7	13.0	3.58e-05	0	44	0	674234368	21	5226
2026-01-21 08:04:14.18	17.02	16.22	-30.7	-34.2	12.7	4.42e-05	0	44	0	676331520	21	5396
2026-01-21 08:04:15.19	16.81	16.17	-30.8	-34.6	12.4	1.56e-04	0	44	0	678428672	21	5572
2026-01-21 08:04:16.19	16.61	16.13	-30.7	-34.4	12.5	1.55e-04	0	44	0	680525824	21	5481
2026-01-21 08:04:17.19	16.41	16.09	-30.7	-34.4	12.5	1.14e-04	0	44	0	681574400	21	5480
2026-01-21 08:04:18.20	16.20	16.04	-30.7	-34.3	12.5	1.36e-04	0	44	0	683671552	21	5475
2026-01-21 08:04:19.20	16.00	16.00	-30.7	-34.4	12.4	1.16e-04	0	44	0	685768704	21	5504
2026-01-21 08:04:20.20	15.80	15.96	-30.7	-34.5	12.4	1.33e-04	0	44	0	687865856	21	5518
2026-01-21 08:04:21.20	15.60	15.91	-30.6	-34.1	12.7	1.14e-04	0	44	0	688914432	21	5383
2026-01-21 08:04:22.21	15.40	15.87	-30.7	-34.4	12.4	1.50e-04	0	44	0	691011584	21	5511
2026-01-21 08:04:23.21	15.20	15.83	-30.6	-34.1	12.6	1.01e-04	0	44	0	693108736	21	5391
2026-01-21 08:04:24.22	15.00	15.78	-30.6	-34.1	12.7	7.85e-05	0	44	0	695205888	21	5364
2026-01-21 08:04:25.23	14.80	15.74	-30.6	-34.1	12.7	9.53e-05	0	44	0	697303040	21	5374
2026-01-21 08:04:26.23	14.60	15.69	-30.7	-34.3	12.5	9.68e-05	0	44	0	698351616	21	5446
2026-01-21 08:04:27.23	14.40	15.64	-30.7	-34.2	12.6	9.61e-05	0	44	0	700448768	21	5423
2026-01-21 08:04:28.23	14.21	15.60	-30.6	-34.1	12.7	9.23e-05	0	44	0	702545920	21	5367
2026-01-21 08:04:29.23	14.01	15.55	-30.6	-34.0	12.7	7.32e-05	0	44	0	704643072	21	5340
2026-01-21 08:04:30.23	13.82	15.51	-30.6	-34.1	12.7	8.01e-05	0	44	0	706740224	21	5363
2026-01-21 08:04:31.24	13.62	15.46	-30.6	-34.0	12.7	6.48e-05	0	44	0	707788800	21	5344
2026-01-21 08:04:32.24	13.43	15.41	-30.6	-34.1	12.7	7.47e-05	0	44	0	709885952	21	5357
2026-01-21 08:04:33.24	13.24	15.37	-30.6	-34.1	12.6	8.08e-05	0	44	0	711983104	21	5356
2026-01-21 08:04:34.24	13.04	15.32	-30.6	-34.1	12.6	8.62e-05	0	44	0	714080256	21	5387
2026-01-21 08:04:35.25	12.85	15.27	-30.6	-34.2	12.6	7.85e-05	0	44	0	716177408	21	5398
2026-01-21 08:04:36.26	12.66	15.22	-30.6	-34.2	12.6	9.46e-05	0	44	0	717225984	21	5394
2026-01-21 08:04:37.26	12.47	15.18	-30.6	-34.2	12.5	9.84e-05	0	44	0	719323136	21	5407
2026-01-21 08:04:38.26	12.28	15.13	-30.7	-34.4	12.4	1.53e-04	0	44	0	721420288	21	5481
2026-01-21 08:04:39.27	12.09	15.08	-30.8	-34.5	12.3	1.81e-04	0	44	0	723517440	21	5564
2026-01-21 08:04:40.27	11.90	15.03	-30.8	-34.7	12.2	2.31e-04	0	44	0	725614592	21	5607
2026-01-21 08:04:41.27	11.71	14.98	-30.8	-34.7	12.2	1.71e-04	0	44	0	726663168	21	5617
2026-01-21 08:04:42.27	11.52	14.93	-30.8	-34.8	12.1	2.46e-04	0	44	0	728760320	21	5674
2026-01-21 08:04:43.28	11.33	14.88	-30.9	-34.9	12.1	2.45e-04	0	44	0	730857472	21	5716
2026-01-21 08:04:44.27	11.15	14.84	-30.9	-35.0	12.0	3.53e-04	0	44	0	732954624	21	5768
2026-01-21 08:04:45.28	10.96	14.79	-30.9	-34.9	12.0	3.11e-04	0	44	0	735051776	21	5739
2026-01-21 08:04:46.28	10.78	14.74	-30.9	-35.0	12.0	3.67e-04	0	44	0	736100352	21	5768
2026-01-21 08:04:47.28	10.59	14.69	-30.9	-35.1	11.9	3.87e-04	0	44	0	738197504	21	5807
2026-01-21 08:04:48.28	10.41	14.64	-31.0	-34.8	11.8	4.99e-04	0	44	0	740294656	22	5551
2026-01-21 08:04:49.29	10.22	14.59	-30.9	-34.4	12.1	2.92e-04	0	44	0	742391808	22	5381
2026-01-21 08:04:50.29	10.04	14.54	-30.8	-34.1	12.2	2.08e-04	0	44	0	743440384	22	5266
2026-01-21 08:04:51.29	9.86	14.48	-30.8	-34.2	12.2	1.91e-04	0	44	0	745537536	22	5291
2026-01-21 08:04:52.29	9.68	14.43	-30.9	-34.4	12.0	3.08e-04	0	44	0	747634688	22	5397
2026-01-21 08:04:53.29	9.50	14.38	-30.9	-34.4	12.0	2.67e-04	0	44	0	749731840	22	5402
2026-01-21 08:04:54.29	9.32	14.33	-31.0	-34.8	11.8	3.91e-04	0	44	0	751828992	22	5551
2026-01-21 08:04:55.29	9.14	14.28	-31.0	-34.9	11.7	5.30e-04	0	44	0	752877568	22	5601
2026-01-21 08:04:56.30	8.96	14.23	-31.1	-35.1	11.6	6.68e-04	0	44	0	754974720	22	5690
2026-01-21 08:04:57.30	8.78	14.18	-31.2	-35.3	11.4	9.23e-04	0	44	0	757071872	22	5773
2026-01-21 08:04:58.30	8.60	14.12	-31.2	-35.3	11.4	9.39e-04	0	44	0	759169024	22	5781
2026-01-21 08:04:59.30	8.43	14.07	-31.2	-35.4	11.4	1.08e-03	0	44	0	761266176	22	5807
2026-01-21 08:05:00.31	8.25	14.02	-31.2	-35.3	11.4	1.03e-03	0	44	0	762314752	22	5784
2026-01-21 08:05:01.31	8.07	13.97	-31.2	-35.4	11.3	1.03e-03	0	44	0	764411904	22	5821
2026-01-21 08:05:02.31	7.90	13.92	-31.2	-35.5	11.2	1.37e-03	0	44	0	766509056	22	5896
2026-01-21 08:05:03.32	7.72	13.86	-31.2	-35.4	11.3	1.22e-03	0	44	0	768606208	22	5851
2026-01-21 08:05:04.32	7.55	13.81	-31.2	-35.5	11.3	1.18e-03	0	44	0	770703360	22	5872
2026-01-21 08:05:05.32	7.38	13.76	-31.3	-35.7	11.1	1.45e-03	0	44	0	771751936	22	5990
2026-01-21 08:05:06.33	7.20	13.70	-31.3	-35.6	11.1	1.39e-03	0	44	0	773849088	22	5937
2026-01-21 08:05:07.33	7.03	13.65	-31.3	-35.7	11.1	1.70e-03	0	44	0	775946240	22	5983
2026-01-21 08:05:08.33	6.86	13.60	-31.2	-35.4	11.3	1.44e-03	0	44	0	778043392	22	5842
2026-01-21 08:05:09.33	6.69	13.54	-31.2	-35.3	11.3	1.03e-03	0	44	0	780140544	22	5814
2026-01-21 08:05:10.34	6.52	13.49	-31.2	-35.3	11.3	1.20e-03	0	44	0	781189120	22	5809
2026-01-21 08:05:11.34	6.35	13.43	-31.1	-35.1	11.5	9.31e-04	0	44	0	783286272	22	5715
2026-01-21 08:05:12.34	6.18	13.38	-31.1	-35.1	11.4	8.54e-04	0	44	0	785383424	22	5731
2026-01-21 08:05:13.35	6.01	13.33	-31.1	-35.2	11.4	1.04e-03	0	44	0	787480576	22	5766
2026-01-21 08:05:14.35	5.84	13.27	-31.1	-35.1	11.4	8.93e-04	0	44	0	788529152	22	5730
2026-01-21 08:05:15.36	5.68	13.22	-31.2	-35.4	11.2	1.06e-03	0	44	0	790626304	22	5866
2026-01-21 08:05:16.36	5.51	13.16	-31.3	-35.8	11.0	2.28e-03	0	44	0	792723456	22	6018
2026-01-21 08:05:17.36	5.35	13.11	-31.2	-35.5	11.2	1.54e-03	0	44	0	794820608	22	5897
2026-01-21 08:05:18.37	5.18	13.05	-31.2	-35.3	11.3	1.17e-03	0	44	0	796917760	22	5815
2026-01-21 08:05:19.38	5.01	13.00	-31.2	-35.3	11.3	1.13e-03	0	44	0	799014912	22	5820
2026-01-21 08:05:20.38	4.85	12.94	-31.2	-35.6	11.1	1.47e-03	0	44	0	800063488	22	5952
2026-01-21 08:05:21.39	4.69	12.89	-31.2	-35.5	11.1	1.82e-03	0	44	0	802160640	22	5913
2026-01-21 08:05:22.38	4.52	12.83	-31.1	-35.2	11.3	1.33e-03	0	44	0	804257792	22	5780
2026-01-21 08:05:23.38	4.36	12.78	-31.1	-35.0	11.5	9.71e-04	0	44	0	806354944	22	5693
2026-01-21 08:05:24.38	4.20	12.72	-31.0	-35.0	11.5	7.90e-04	0	44	0	807403520	22	5656
2026-01-21 08:05:25.39	4.04	12.67	-31.0	-34.9	11.6	8.54e-04	0	44	0	809500672	22	5622
2026-01-21 08:05:26.39	3.88	12.61	-30.9	-34.6	11.8	4.69e-04	0	44	0	811597824	22	5502
2026-01-21 08:05:27.39	3.72	12.56	-31.0	-34.8	11.6	5.84e-04	0	44	0	813694976	22	5594
2026-01-21 08:05:28.40	3.56	12.50	-31.0	-34.9	11.5	8.93e-04	0	44	0	815792128	22	5612
2026-01-21 08:05:29.41	3.40	12.44	-30.9	-34.5	11.8	5.74e-04	0	44	0	816840704	22	5468
2026-01-21 08:05:30.40	3.25	12.39	-30.8	-34.3	12.0	3.62e-04	0	44	0	818937856	22	5356
2026-01-21 08:05:31.40	3.09	12.33	-30.8	-34.1	12.0	2.98e-04	0	44	0	821035008	22	5304
2026-01-21 08:05:32.41	2.93	12.28	-30.8	-34.2	12.0	2.98e-04	0	44	0	823132160	22	5334
2026-01-21 08:05:33.40	2.78	12.22	-30.7	-34.0	12.1	2.66e-04	0	44	0	825229312	22	5256
2026-01-21 08:05:34.41	2.62	12.16	-30.7	-33.9	12.2	2.22e-04	0	44	0	826277888	22	5203
2026-01-21 08:05:35.41	2.47	12.11	-30.7	-33.9	12.2	2.01e-04	0	44	0	828375040	22	5232
2026-01-21 08:05:36.41	2.31	12.05	-30.7	-34.0	12.1	2.63e-04	0	44	0	830472192	22	5264
2026-01-21 08:05:37.42	2.16	11.99	-30.7	-33.9	12.2	2.37e-04	0	44	0	832569344	22	5233
2026-01-21 08:05:38.42	2.01	11.94	-30.8	-34.2	12.0	2.93e-04	0	44	0	834666496	22	5333
2026-01-21 08:05:39.42	1.86	11.88	-30.8	-34.3	11.9	4.08e-04	0	44	0	835715072	22	5392
2026-01-21 08:05:40.42	1.70	11.83	-30.8	-34.2	11.9	3.09e-04	0	44	0	837812224	22	5356
2026-01-21 08:05:41.43	1.55	11.77	-30.8	-34.4	11.9	3.96e-04	0	44	0	839909376	22	5421
2026-01-21 08:05:42.43	1.40	11.71	-30.8	-34.3	11.9	4.26e-04	0	44	0	842006528	22	5404
2026-01-21 08:05:43.43	1.25	11.65	-30.7	-34.0	12.1	3.05e-04	0	44	0	844103680	22	5258
2026-01-21 08:05:44.44	1.10	11.60	-30.6	-33.7	12.3	2.00e-04	0	44	0	845152256	22	5137
2026-01-21 08:05:45.45	0.95	11.54	-30.6	-33.8	12.3	1.65e-04	0	44	0	847249408	22	5166
2026-01-21 08:05:46.45	0.80	11.48	-30.6	-33.7	12.3	2.11e-04	0	44	0	849346560	22	5143
2026-01-21 08:05:47.46	0.66	11.43	-30.5	-33.5	12.4	1.40e-04	0	44	0	851443712	22	5067
2026-01-21 08:05:48.46	0.51	11.37	-30.4	-33.1	12.7	9.15e-05	0	44	0	853540864	22	4929
2026-01-21 08:05:49.46	0.36	11.31	-30.4	-33.1	12.7	6.94e-05	0	44	0	854589440	22	4916
2026-01-21 08:05:50.46	0.22	11.25	-30.4	-33.1	12.7	8.62e-05	0	44	0	856686592	22	4899
2026-01-21 08:05:51.47	0.07	11.20	-30.4	-33.0	12.8	6.48e-05	0	44	0	858783744	22	4892
2026-01-21 08:05:52.47	359.93	11.14	-30.4	-33.2	12.6	7.24e-05	0	44	0	860880896	22	4957
2026-01-21 08:05:53.47	359.78	11.08	-30.4	-33.3	12.6	1.02e-04	0	44	0	862978048	22	4989
2026-01-21 08:05:54.47	359.64	11.02	-30.5	-33.3	12.5	1.32e-04	0	44	0	864026624	22	5005
2026-01-21 08:05:55.47	359.50	10.97	-30.4	-33.1	12.7	1.07e-04	0	44	0	866123776	22	4915
2026-01-21 08:05:56.48	359.36	10.91	-30.4	-33.1	12.6	8.54e-05	0	44	0	868220928	22	4934
2026-01-21 08:05:57.47	359.22	10.85	-30.4	-33.1	12.6	8.62e-05	0	44	0	870318080	22	4928
2026-01-21 08:05:58.47	359.07	10.80	-30.3	-32.9	12.8	6.02e-05	0	44	0	871366656	22	4852
2026-01-21 08:05:59.47	358.93	10.74	-30.2	-33.2	12.9	6.86e-05	0	44	0	873463808	21	5075
2026-01-21 08:06:00.48	358.79	10.68	-30.2	-33.0	13.0	4.19e-05	0	44	0	875560960	21	4996
2026-01-21 08:06:01.48	358.65	10.62	-30.1	-32.8	13.1	2.59e-05	0	44	0	877658112	21	4917
2026-01-21 08:06:02.48	358.52	10.56	-30.0	-32.7	13.2	3.20e-05	0	44	0	879755264	21	4877
2026-01-21 08:06:03.49	358.38	10.51	-30.1	-32.8	13.1	2.28e-05	0	44	0	880803840	21	4902
2026-01-21 08:06:04.49	358.24	10.45	-30.0	-32.7	13.2	2.44e-05	0	44	0	882900992	21	4886
2026-01-21 08:06:05.49	358.10	10.39	-30.1	-32.9	13.0	2.28e-05	0	44	0	884998144	21	4974
2026-01-21 08:06:06.49	357.97	10.33	-30.2	-33.1	12.9	5.64e-05	0	44	0	887095296	21	5030
2026-01-21 08:06:07.49	357.83	10.28	-30.2	-33.0	13.0	3.12e-05	0	44	0	889192448	21	5002
2026-01-21 08:06:08.49	357.70	10.22	-30.2	-33.1	12.9	4.57e-05	0	44	0	890241024	21	5055
2026-01-21 08:06:09.49	357.56	10.16	-30.2	-33.2	12.8	6.17e-05	0	44	0	892338176	21	5081
2026-01-21 08:06:10.50	357.43	10.10	-30.3	-33.4	12.7	7.32e-05	0	44	0	894435328	21	5158
2026-01-21 08:06:11.50	357.29	10.04	-30.3	-33.5	12.6	9.53e-05	0	44	0	896532480	21	5187
2026-01-21 08:06:12.51	357.16	9.99	-30.3	-33.6	12.5	8.85e-05	0	44	0	897581056	21	5221
2026-01-21 08:06:13.51	357.03	9.93	-30.4	-33.9	12.3	1.30e-04	0	44	0	899678208	21	5343
2026-01-21 08:06:14.52	356.89	9.87	-30.5	-34.1	12.1	2.57e-04	0	44	0	901775360	21	5432
2026-01-21 08:06:15.52	356.76	9.81	-30.5	-34.2	12.1	2.40e-04	0	44	0	903872512	21	5473
2026-01-21 08:06:16.52	356.63	9.75	-30.6	-34.3	12.0	3.79e-04	0	44	0	905969664	21	5514
2026-01-21 08:06:17.53	356.50	9.70	-30.5	-34.0	12.2	2.13e-04	0	44	0	908066816	21	5403
2026-01-21 08:06:18.54	356.37	9.64	-30.5	-34.1	12.1	2.28e-04	0	44	0	909115392	21	5463
2026-01-21 08:06:19.54	356.24	9.58	-30.6	-34.2	12.0	3.81e-04	0	44	0	911212544	21	5500
2026-01-21 08:06:20.55	356.11	9.52	-30.6	-34.4	11.9	3.14e-04	0	44	0	913309696	21	5565
2026-01-21 08:06:21.55	355.98	9.46	-30.6	-34.5	11.8	4.78e-04	0	44	0	915406848	21	5634
2026-01-21 08:06:22.55	355.85	9.40	-30.6	-34.4	11.9	3.84e-04	0	44	0	916455424	21	5573
2026-01-21 08:06:23.55	355.72	9.35	-30.6	-34.4	11.9	3.63e-04	0	44	0	918552576	21	5564
2026-01-21 08:06:24.55	355.60	9.29	-30.6	-34.3	12.0	4.11e-04	0	44	0	920649728	21	5543
2026-01-21 08:06:25.56	355.47	9.23	-30.6	-34.3	12.0	3.39e-04	0	44	0	922746880	21	5545
2026-01-21 08:06:26.56	355.35	9.17	-30.5	-34.2	12.0	4.47e-04	0	44	0	924844032	21	5475
2026-01-21 08:06:27.56	355.22	9.11	-30.4	-33.7	12.3	2.14e-04	0	44	0	925892608	21	5286
2026-01-21 08:06:28.56	355.10	9.06	-30.3	-33.6	12.4	1.37e-04	0	44	0	927989760	21	5238
2026-01-21 08:06:29.56	354.97	9.00	-30.2	-33.3	12.6	1.06e-04	0	44	0	930086912	21	5144
2026-01-21 08:06:30.55	354.85	8.94	-30.2	-33.3	12.7	1.37e-04	0	44	0	932184064	21	5115
2026-01-21 08:06:31.55	354.73	8.88	-30.2	-33.4	12.5	1.18e-04	0	44	0	934281216	21	5164
2026-01-21 08:06:32.56	354.60	8.83	-30.2	-33.3	12.5	1.14e-04	0	44	0	935329792	21	5147
2026-01-21 08:06:33.56	354.48	8.77	-30.3	-33.4	12.5	8.39e-05	0	44	0	937426944	21	5184
2026-01-21 08:06:34.57	354.36	8.71	-30.3	-33.5	12.5	1.19e-04	0	44	0	939524096	21	5198
2026-01-21 08:06:35.57	354.24	8.65	-30.2	-33.4	12.5	1.15e-04	0	44	0	941621248	21	5183
2026-01-21 08:06:36.57	354.12	8.59	-30.4	-33.7	12.2	1.72e-04	0	44	0	943718400	21	5315
2026-01-21 08:06:37.57	354.00	8.54	-30.4	-33.8	12.2	2.23e-04	0	44	0	944766976	21	5327
2026-01-21 08:06:38.57	353.88	8.48	-30.4	-33.8	12.2	2.29e-04	0	44	0	946864128	21	5348
2026-01-21 08:06:39.56	353.76	8.42	-30.4	-33.9	12.1	2.37e-04	0	44	0	948961280	21	5380
2026-01-21 08:06:40.56	353.64	8.36	-30.5	-34.1	12.0	3.14e-04	0	44	0	951058432	21	5471
2026-01-21 08:06:41.56	353.52	8.30	-30.5	-34.3	11.8	4.42e-04	0	44	0	953155584	21	5549
2026-01-21 08:06:42.57	353.40	8.25	-30.5	-34.3	11.8	3.76e-04	0	44	0	954204160	21	5554
2026-01-21 08:06:43.57	353.29	8.19	-30.6	-34.5	11.6	6.23e-04	0	44	0	956301312	21	5624
2026-01-21 08:06:44.56	353.17	8.13	-30.6	-34.5	11.6	6.29e-04	0	44	0	958398464	21	5645
2026-01-21 08:06:45.57	353.05	8.07	-30.6	-34.6	11.5	6.88e-04	0	44	0	960495616	21	5700
2026-01-21 08:06:46.57	352.94	8.02	-30.7	-34.8	11.4	1.01e-03	0	44	0	961544192	21	5789
2026-01-21 08:06:47.57	352.82	7.96	-30.7	-34.9	11.4	9.92e-04	0	44	0	963641344	21	5827
2026-01-21 08:06:48.57	352.71	7.90	-30.8	-35.0	11.3	1.33e-03	0	44	0	965738496	21	5862
2026-01-21 08:06:49.57	352.59	7.84	-30.8	-35.2	11.1	1.29e-03	0	44	0	967835648	21	5993
2026-01-21 08:06:50.57	352.48	7.79	-30.8	-35.1	11.2	1.55e-03	0	44	0	969932800	21	5936
2026-01-21 08:06:51.58	352.36	7.73	-30.8	-35.0	11.2	1.24e-03	0	44	0	970981376	21	5891
2026-01-21 08:06:52.58	352.25	7.67	-30.8	-35.2	11.1	1.61e-03	0	44	0	973078528	21	5989
2026-01-21 08:06:53.58	352.14	7.61	-30.7	-35.0	11.2	1.69e-03	0	44	0	975175680	21	5880
2026-01-21 08:06:54.59	352.03	7.55	-30.8	-35.1	11.1	1.35e-03	0	44	0	977272832	21	5952
2026-01-21 08:06:55.59	351.91	7.50	-30.8	-35.2	11.1	1.51e-03	0	44	0	979369984	21	5977
2026-01-21 08:06:56.59	351.80	7.44	-30.8	-35.2	11.0	1.91e-03	0	44	0	980418560	21	5990
2026-01-21 08:06:57.59	351.69	7.38	-30.8	-35.3	11.0	1.89e-03	0	44	0	982515712	21	6027
2026-01-21 08:06:58.59	351.58	7.32	-30.8	-35.3	11.0	2.02e-03	0	44	0	984612864	21	6027
2026-01-21 08:06:59.59	351.47	7.27	-30.8	-35.4	10.9	2.07e-03	0	44	0	986710016	21	6089
2026-01-21 08:07:00.59	351.36	7.21	-30.9	-35.4	10.8	2.24e-03	0	44	0	987758592	21	6104
2026-01-21 08:07:01.59	351.25	7.15	-30.8	-35.4	10.9	2.20e-03	0	44	0	989855744	21	6089
2026-01-21 08:07:02.59	351.15	7.09	-30.9	-35.7	10.6	3.27e-03	0	44	0	991952896	21	6225
2026-01-21 08:07:03.59	351.04	7.04	-33.0	-45.4	4.1	5.00e-03	0	44	0	994050048	25	14961
2026-01-21 08:07:04.59	350.93	6.98	-33.4	-47.7	3.8	1.49e+00	0	44	104	994050048	26	18632
2026-01-21 08:07:05.59	350.82	6.92	-33.7	-47.9	3.8	1.49e+00	0	44	104	994050048	27	18533

#Closed at: 2026-01-21 08:07:06
#Recorded file [994 MB]: D:/data/31010_260121_105813.dat