passes_logs/2026/01/21/R2M6_AANII_01/R2M6_AANII_01__20260121_115332_FENGYUN_3D_rec.log

#Pass ID: 20260121_115332_FENGYUN 3D
#Satellite: FENGYUN 3D
#Configuration: FENGYUN 3D
#almurnet v.1.7.20240730
#Start time: 2026-01-21 11:53:31

#Version: 2.2.20231116
#Station: R2M6_AANII_01
#Location: 30.233357 lon 59.946436 lat
#TLE: 1 43010U 17072A   26020.28933472  .00000051  00000+0  46008-4 0  9990
#TLE: 2 43010  98.9944 352.1871 0002476  99.7001 260.4455 14.19696838424006

#Time	Az	El	Level	Level2	SNR	BER	BlckErr	Temp	State	Recorded	gain1	gain2
2026-01-21 11:53:31.72	145.13	6.96	-28.8	-30.9	5.5	7.81e-01	0	41	0	0	19	4553
2026-01-21 11:53:32.72	145.11	7.04	-29.1	-32.0	5.5	7.83e-01	0	41	104	0	18	5060
2026-01-21 11:53:33.73	145.09	7.12	-29.1	-32.1	10.5	2.38e-03	0	41	0	0	18	5083
2026-01-21 11:53:34.73	145.07	7.20	-28.8	-31.2	11.1	1.48e-03	0	41	0	5242880	18	4762
2026-01-21 11:53:35.73	145.05	7.27	-28.8	-31.2	11.2	8.39e-04	0	41	0	10485760	18	4756
2026-01-21 11:53:36.74	145.02	7.35	-28.8	-31.1	11.2	9.29e-04	0	41	0	16777216	18	4741
2026-01-21 11:53:37.75	145.00	7.43	-28.7	-31.1	11.3	7.88e-04	0	42	0	22020096	18	4710
2026-01-21 11:53:38.75	144.98	7.51	-29.1	-32.0	10.7	2.02e-03	0	42	0	28311552	18	5036
2026-01-21 11:53:39.75	144.96	7.59	-29.4	-32.8	10.1	4.04e-03	0	42	0	33554432	18	5354
2026-01-21 11:53:40.76	144.94	7.67	-29.1	-32.2	10.5	3.23e-03	0	42	0	38797312	18	5097
2026-01-21 11:53:41.75	144.91	7.74	-28.9	-31.6	10.9	2.25e-03	0	42	0	45088768	18	4903
2026-01-21 11:53:42.75	144.89	7.82	-28.5	-30.6	11.5	7.06e-04	0	42	0	50331648	18	4593
2026-01-21 11:53:43.75	144.87	7.90	-28.2	-30.4	12.0	2.30e-04	0	42	0	55574528	17	4619
2026-01-21 11:53:44.75	144.85	7.98	-28.2	-30.3	12.0	2.05e-04	0	42	0	61865984	17	4621
2026-01-21 11:53:45.76	144.82	8.06	-27.9	-29.8	12.3	1.03e-04	0	42	0	67108864	17	4467
2026-01-21 11:53:46.76	144.80	8.14	-27.8	-29.5	12.6	9.72e-05	0	42	0	73400320	17	4365
2026-01-21 11:53:47.77	144.78	8.23	-27.7	-29.8	12.6	7.89e-05	0	42	0	78643200	16	4595
2026-01-21 11:53:48.77	144.75	8.31	-27.7	-29.8	12.7	3.54e-05	0	42	0	83886080	16	4580
2026-01-21 11:53:49.76	144.73	8.39	-27.7	-29.8	12.6	5.37e-05	0	42	0	90177536	16	4597
2026-01-21 11:53:50.77	144.71	8.47	-27.5	-29.3	12.9	2.97e-05	0	42	0	95420416	16	4424
2026-01-21 11:53:51.77	144.68	8.55	-27.4	-29.0	13.2	1.94e-05	0	42	0	100663296	16	4335
2026-01-21 11:53:52.77	144.66	8.63	-27.3	-28.8	13.4	1.14e-05	0	42	0	106954752	16	4243
2026-01-21 11:53:53.78	144.64	8.71	-27.6	-29.4	13.0	1.25e-05	0	42	0	112197632	16	4416
2026-01-21 11:53:54.79	144.61	8.80	-27.6	-29.3	13.1	3.31e-05	0	42	0	118489088	16	4381
2026-01-21 11:53:55.79	144.59	8.88	-27.4	-28.8	13.4	1.02e-05	0	42	0	123731968	16	4228
2026-01-21 11:53:56.80	144.56	8.96	-27.3	-28.7	13.5	5.70e-06	0	42	0	128974848	16	4228
2026-01-21 11:53:57.81	144.54	9.05	-27.1	-28.7	13.6	3.40e-06	0	42	0	135266304	15	4336
2026-01-21 11:53:58.81	144.51	9.13	-27.3	-29.1	13.3	6.80e-06	0	42	0	140509184	15	4467
2026-01-21 11:53:59.81	144.49	9.21	-27.2	-28.9	13.5	9.10e-06	0	42	0	146800640	15	4390
2026-01-21 11:54:00.82	144.46	9.30	-27.0	-28.5	13.7	5.70e-06	0	42	0	152043520	15	4275
2026-01-21 11:54:01.82	144.44	9.38	-26.9	-28.3	13.9	3.40e-06	0	42	0	157286400	15	4210
2026-01-21 11:54:02.83	144.41	9.47	-27.2	-28.8	13.6	3.40e-06	0	42	0	163577856	15	4346
2026-01-21 11:54:03.82	144.39	9.55	-27.1	-28.8	13.6	6.80e-06	0	42	0	168820736	15	4336
2026-01-21 11:54:04.82	144.36	9.64	-26.9	-28.2	14.0	2.20e-06	0	42	0	174063616	15	4167
2026-01-21 11:54:05.82	144.34	9.72	-26.8	-28.5	14.1	0.00e+00	0	42	0	180355072	14	4369
2026-01-21 11:54:06.83	144.31	9.81	-27.0	-29.0	13.8	3.40e-06	0	42	0	185597952	14	4513
2026-01-21 11:54:07.84	144.29	9.90	-27.1	-29.1	13.7	4.50e-06	0	42	0	191889408	14	4545
2026-01-21 11:54:08.84	144.26	9.98	-26.9	-28.6	14.0	0.00e+00	0	42	0	197132288	14	4404
2026-01-21 11:54:09.85	144.23	10.07	-27.1	-29.1	13.8	2.20e-06	0	42	0	202375168	14	4535
2026-01-21 11:54:10.86	144.21	10.16	-26.8	-28.5	14.1	0.00e+00	0	42	0	208666624	14	4363
2026-01-21 11:54:11.86	144.18	10.25	-26.8	-28.5	14.1	1.10e-06	0	42	0	213909504	14	4362
2026-01-21 11:54:12.87	144.15	10.33	-27.1	-29.0	13.9	1.10e-06	0	42	0	220200960	14	4496
2026-01-21 11:54:13.87	144.12	10.42	-27.0	-28.8	14.0	1.04e-04	0	42	0	225443840	14	4426
2026-01-21 11:54:14.87	144.10	10.51	-26.9	-28.5	14.2	0.00e+00	0	42	0	230686720	14	4357
2026-01-21 11:54:15.88	144.07	10.60	-27.0	-28.9	14.0	1.10e-06	0	43	0	236978176	14	4452
2026-01-21 11:54:16.88	144.04	10.69	-26.9	-28.7	14.1	0.00e+00	0	42	0	242221056	14	4399
2026-01-21 11:54:17.88	144.01	10.78	-27.0	-28.7	14.1	0.00e+00	0	43	0	248512512	14	4409
2026-01-21 11:54:18.88	143.99	10.87	-27.1	-29.0	13.9	1.10e-06	0	42	0	253755392	14	4499
2026-01-21 11:54:19.88	143.96	10.95	-27.0	-28.9	14.0	1.10e-06	0	42	0	258998272	14	4445
2026-01-21 11:54:20.89	143.93	11.05	-27.1	-29.1	13.9	0.00e+00	0	43	0	265289728	14	4515
2026-01-21 11:54:21.89	143.90	11.14	-27.0	-28.9	14.0	1.10e-06	0	42	0	270532608	14	4464
2026-01-21 11:54:22.89	143.87	11.23	-27.0	-28.7	14.1	2.20e-06	0	43	0	275775488	14	4414
2026-01-21 11:54:23.89	143.84	11.32	-26.9	-28.6	14.2	4.50e-06	0	43	0	282066944	14	4386
2026-01-21 11:54:24.90	143.81	11.41	-27.0	-28.9	14.0	1.10e-06	0	42	0	287309824	14	4466
2026-01-21 11:54:25.90	143.78	11.50	-26.8	-28.4	14.3	1.10e-06	0	43	0	293601280	14	4310
2026-01-21 11:54:26.90	143.75	11.59	-27.0	-28.8	14.1	0.00e+00	0	43	0	298844160	14	4428
2026-01-21 11:54:27.89	143.72	11.68	-26.9	-28.6	14.2	0.00e+00	0	43	0	304087040	14	4371
2026-01-21 11:54:28.90	143.69	11.78	-26.8	-28.3	14.4	0.00e+00	0	43	0	310378496	14	4285
2026-01-21 11:54:29.90	143.66	11.87	-26.7	-28.1	14.5	0.00e+00	0	43	0	315621376	14	4218
2026-01-21 11:54:30.91	143.63	11.97	-26.7	-28.2	14.5	0.00e+00	0	43	0	320864256	14	4248
2026-01-21 11:54:31.91	143.60	12.06	-26.7	-28.2	14.5	0.00e+00	0	43	0	327155712	14	4249
2026-01-21 11:54:32.91	143.57	12.15	-26.7	-28.1	14.6	4.50e-06	0	43	0	332398592	14	4226
2026-01-21 11:54:33.92	143.54	12.25	-26.9	-28.6	14.2	0.00e+00	0	43	0	337641472	14	4379
2026-01-21 11:54:34.92	143.51	12.34	-26.8	-28.4	14.4	0.00e+00	0	43	0	343932928	14	4302
2026-01-21 11:54:35.92	143.48	12.44	-26.7	-28.1	14.6	2.20e-06	0	43	0	349175808	14	4237
2026-01-21 11:54:36.92	143.45	12.53	-26.5	-27.8	14.7	0.00e+00	0	43	0	355467264	14	4152
2026-01-21 11:54:37.92	143.41	12.63	-26.6	-28.0	14.6	0.00e+00	0	43	0	360710144	14	4230
2026-01-21 11:54:38.93	143.38	12.73	-26.5	-27.6	14.8	0.00e+00	0	43	0	367001600	14	4121
2026-01-21 11:54:39.93	143.35	12.82	-26.4	-27.6	14.8	0.00e+00	0	43	0	372244480	14	4111
2026-01-21 11:54:40.94	143.32	12.92	-26.4	-27.6	14.9	0.00e+00	0	43	0	377487360	14	4111
2026-01-21 11:54:41.94	143.28	13.02	-26.4	-27.5	14.9	0.00e+00	0	43	0	383778816	14	4087
2026-01-21 11:54:42.94	143.25	13.12	-26.6	-27.9	14.6	0.00e+00	0	43	0	389021696	14	4195
2026-01-21 11:54:43.94	143.22	13.21	-26.4	-27.5	14.8	0.00e+00	0	43	0	394264576	14	4107
2026-01-21 11:54:44.95	143.18	13.31	-26.3	-27.3	14.9	0.00e+00	0	43	0	400556032	14	4050
2026-01-21 11:54:45.96	143.15	13.41	-26.3	-27.3	15.0	0.00e+00	0	43	0	405798912	14	4051
2026-01-21 11:54:46.96	143.11	13.51	-26.3	-27.3	15.0	0.00e+00	0	43	0	411041792	14	4028
2026-01-21 11:54:47.97	143.08	13.61	-26.2	-27.6	15.1	0.00e+00	0	43	0	417333248	13	4237
2026-01-21 11:54:48.97	143.04	13.71	-26.3	-27.7	15.1	0.00e+00	0	43	0	422576128	13	4242
2026-01-21 11:54:49.97	143.01	13.81	-26.4	-27.9	15.0	0.00e+00	0	43	0	428867584	13	4308
2026-01-21 11:54:50.98	142.97	13.92	-26.2	-27.4	15.2	0.00e+00	0	43	0	434110464	13	4160
2026-01-21 11:54:51.98	142.94	14.02	-26.4	-27.8	15.1	0.00e+00	0	43	0	440401920	13	4255
2026-01-21 11:54:52.98	142.90	14.12	-26.2	-27.5	15.2	0.00e+00	0	43	0	445644800	13	4177
2026-01-21 11:54:53.98	142.87	14.22	-26.4	-27.8	15.1	0.00e+00	0	43	0	450887680	13	4251
2026-01-21 11:54:54.98	142.83	14.32	-26.2	-27.4	15.3	0.00e+00	0	43	0	457179136	13	4142
2026-01-21 11:54:55.97	142.79	14.42	-26.1	-27.3	15.4	0.00e+00	0	43	0	462422016	13	4116
2026-01-21 11:54:56.97	142.76	14.53	-26.1	-27.2	15.4	0.00e+00	0	43	0	467664896	13	4097
2026-01-21 11:54:57.98	142.72	14.63	-25.9	-26.8	15.6	0.00e+00	0	43	0	473956352	13	4004
2026-01-21 11:54:58.98	142.68	14.74	-26.0	-27.1	15.5	0.00e+00	0	43	0	479199232	13	4060
2026-01-21 11:54:59.99	142.65	14.84	-25.9	-26.8	15.7	0.00e+00	0	43	0	484442112	13	3989
2026-01-21 11:55:01.00	142.61	14.95	-25.8	-27.0	15.8	0.00e+00	0	43	0	490733568	12	4149
2026-01-21 11:55:02.00	142.57	15.05	-25.7	-27.0	15.9	0.00e+00	0	43	0	495976448	12	4143
2026-01-21 11:55:03.01	142.53	15.16	-25.6	-26.7	16.0	0.00e+00	0	43	0	502267904	12	4080
2026-01-21 11:55:04.01	142.49	15.27	-25.7	-26.9	15.9	0.00e+00	0	43	0	507510784	12	4117
2026-01-21 11:55:05.02	142.45	15.38	-25.6	-26.6	16.0	0.00e+00	0	43	0	512753664	12	4063
2026-01-21 11:55:06.02	142.41	15.48	-25.6	-26.6	16.1	0.00e+00	0	43	0	519045120	12	4035
2026-01-21 11:55:07.03	142.37	15.59	-25.6	-26.7	16.1	0.00e+00	0	43	0	524288000	12	4055
2026-01-21 11:55:08.03	142.33	15.70	-25.5	-26.4	16.2	0.00e+00	0	43	0	530579456	12	3985
2026-01-21 11:55:09.04	142.29	15.81	-25.5	-26.5	16.2	0.00e+00	0	43	0	535822336	12	4002
2026-01-21 11:55:10.04	142.25	15.92	-25.4	-26.3	16.3	0.00e+00	0	43	0	541065216	12	3952
2026-01-21 11:55:11.05	142.21	16.03	-25.4	-26.2	16.3	0.00e+00	0	43	0	547356672	12	3934
2026-01-21 11:55:12.05	142.17	16.14	-25.5	-26.4	16.3	0.00e+00	0	43	0	552599552	12	3982
2026-01-21 11:55:13.06	142.13	16.25	-25.3	-26.0	16.5	0.00e+00	0	43	0	557842432	12	3877
2026-01-21 11:55:14.06	142.08	16.36	-25.4	-26.1	16.5	0.00e+00	0	43	0	564133888	12	3905
2026-01-21 11:55:15.07	142.04	16.48	-25.4	-26.1	16.5	0.00e+00	0	43	0	569376768	12	3920
2026-01-21 11:55:16.07	142.00	16.59	-25.4	-26.2	16.5	0.00e+00	0	43	0	575668224	12	3928
2026-01-21 11:55:17.07	141.96	16.70	-25.4	-26.1	16.5	0.00e+00	0	43	0	580911104	12	3915
2026-01-21 11:55:18.08	141.91	16.82	-25.3	-25.9	16.6	0.00e+00	0	43	0	587202560	12	3861
2026-01-21 11:55:19.09	141.87	16.93	-25.4	-26.7	16.5	0.00e+00	0	43	0	592445440	11	4177
2026-01-21 11:55:20.10	141.82	17.05	-25.3	-26.4	16.7	0.00e+00	0	43	0	597688320	11	4091
2026-01-21 11:55:21.10	141.78	17.16	-25.3	-26.3	16.7	0.00e+00	0	43	0	603979776	11	4072
2026-01-21 11:55:22.10	141.74	17.28	-25.5	-26.8	16.5	0.00e+00	0	43	0	609222656	11	4198
2026-01-21 11:55:23.10	141.69	17.39	-25.3	-26.3	16.8	0.00e+00	0	43	0	614465536	11	4070
2026-01-21 11:55:24.10	141.65	17.51	-25.4	-26.6	16.7	0.00e+00	0	43	0	620756992	11	4134
2026-01-21 11:55:25.10	141.60	17.63	-25.3	-26.4	16.8	0.00e+00	0	43	0	625999872	11	4094
2026-01-21 11:55:26.10	141.55	17.74	-25.3	-26.4	16.8	0.00e+00	0	43	0	631242752	11	4084
2026-01-21 11:55:27.10	141.51	17.86	-25.2	-26.3	16.9	0.00e+00	0	43	0	637534208	11	4053
2026-01-21 11:55:28.10	141.46	17.98	-25.4	-26.5	16.7	0.00e+00	0	43	0	642777088	11	4126
2026-01-21 11:55:29.10	141.41	18.10	-25.3	-26.3	16.8	0.00e+00	0	43	0	649068544	11	4072
2026-01-21 11:55:30.11	141.36	18.22	-25.3	-26.3	16.9	0.00e+00	0	43	0	654311424	11	4067
2026-01-21 11:55:31.11	141.32	18.34	-25.4	-26.6	16.7	0.00e+00	0	43	0	659554304	11	4133
2026-01-21 11:55:32.11	141.27	18.46	-25.2	-26.3	16.9	2.20e-06	0	43	0	665845760	11	4057
2026-01-21 11:55:33.11	141.22	18.58	-25.2	-26.3	16.9	0.00e+00	0	43	0	671088640	11	4071
2026-01-21 11:55:34.11	141.17	18.70	-25.3	-26.4	16.9	0.00e+00	0	43	0	676331520	11	4097
2026-01-21 11:55:35.12	141.12	18.83	-25.2	-26.2	17.0	0.00e+00	0	43	0	682622976	11	4051
2026-01-21 11:55:36.12	141.07	18.95	-25.2	-26.2	17.0	0.00e+00	0	43	0	687865856	11	4053
2026-01-21 11:55:37.12	141.02	19.07	-25.2	-26.3	16.9	0.00e+00	0	43	0	694157312	11	4070
2026-01-21 11:55:38.13	140.97	19.20	-25.1	-26.1	17.1	1.10e-06	0	43	0	699400192	11	4008
2026-01-21 11:55:39.14	140.91	19.32	-25.2	-26.1	17.1	0.00e+00	0	43	0	704643072	11	4026
2026-01-21 11:55:40.13	140.86	19.45	-25.1	-26.0	17.1	0.00e+00	0	44	0	710934528	11	4000
2026-01-21 11:55:41.14	140.81	19.58	-25.2	-26.1	17.1	0.00e+00	0	43	0	716177408	11	4012
2026-01-21 11:55:42.14	140.76	19.70	-25.2	-26.2	17.0	0.00e+00	0	43	0	722468864	11	4044
2026-01-21 11:55:43.15	140.70	19.83	-25.3	-26.3	17.0	0.00e+00	0	44	0	727711744	11	4071
2026-01-21 11:55:44.15	140.65	19.96	-25.4	-26.7	16.8	0.00e+00	0	43	0	732954624	11	4170
2026-01-21 11:55:45.15	140.60	20.09	-25.2	-26.2	17.0	0.00e+00	0	44	0	739246080	11	4036
2026-01-21 11:55:46.16	140.54	20.22	-25.2	-26.3	17.0	0.00e+00	0	43	0	744488960	11	4052
2026-01-21 11:55:47.16	140.48	20.35	-25.3	-26.4	17.0	0.00e+00	0	43	0	749731840	11	4088
2026-01-21 11:55:48.16	140.43	20.48	-25.4	-26.5	16.9	0.00e+00	0	44	0	756023296	11	4125
2026-01-21 11:55:49.17	140.37	20.61	-25.4	-26.7	16.8	0.00e+00	0	43	0	761266176	11	4157
2026-01-21 11:55:50.18	140.31	20.74	-25.2	-26.1	17.1	0.00e+00	0	44	0	767557632	11	4028
2026-01-21 11:55:51.18	140.26	20.88	-25.0	-25.7	17.3	0.00e+00	0	44	0	772800512	11	3918
2026-01-21 11:55:52.19	140.20	21.01	-24.9	-25.6	17.4	0.00e+00	0	43	0	778043392	11	3894
2026-01-21 11:55:53.19	140.14	21.15	-24.9	-25.6	17.4	1.10e-06	0	44	0	784334848	11	3882
2026-01-21 11:55:54.19	140.08	21.28	-25.0	-25.7	17.4	0.00e+00	0	43	0	789577728	11	3909
2026-01-21 11:55:55.20	140.02	21.42	-24.8	-25.4	17.5	0.00e+00	0	43	0	795869184	11	3830
2026-01-21 11:55:56.20	139.96	21.55	-24.8	-25.8	17.6	0.00e+00	0	43	0	801112064	10	4035
2026-01-21 11:55:57.21	139.90	21.69	-24.8	-25.7	17.6	0.00e+00	0	43	0	806354944	10	4026
2026-01-21 11:55:58.21	139.84	21.83	-24.8	-25.7	17.6	0.00e+00	0	43	0	812646400	10	4017
2026-01-21 11:55:59.21	139.78	21.97	-24.6	-25.4	17.8	0.00e+00	0	43	0	817889280	10	3937
2026-01-21 11:56:00.22	139.72	22.11	-24.5	-25.2	17.9	0.00e+00	0	43	0	823132160	10	3897
2026-01-21 11:56:01.21	139.65	22.24	-24.6	-25.3	17.9	0.00e+00	0	43	0	829423616	10	3925
2026-01-21 11:56:02.22	139.59	22.39	-24.7	-25.7	17.7	0.00e+00	0	43	0	834666496	10	4007
2026-01-21 11:56:03.23	139.52	22.53	-24.8	-25.8	17.6	0.00e+00	0	43	0	840957952	10	4045
2026-01-21 11:56:04.23	139.46	22.67	-24.6	-25.4	17.8	0.00e+00	0	44	0	846200832	10	3950
2026-01-21 11:56:05.24	139.39	22.81	-24.6	-25.3	17.9	0.00e+00	0	43	0	851443712	10	3907
2026-01-21 11:56:06.24	139.33	22.96	-24.5	-25.1	18.0	0.00e+00	0	43	0	857735168	10	3875
2026-01-21 11:56:07.24	139.26	23.10	-24.6	-25.4	17.8	0.00e+00	0	43	0	862978048	10	3946
2026-01-21 11:56:08.25	139.19	23.25	-24.5	-25.2	17.9	0.00e+00	0	44	0	869269504	10	3903
2026-01-21 11:56:09.26	139.13	23.39	-24.4	-25.1	18.0	0.00e+00	0	43	0	874512384	10	3862
2026-01-21 11:56:10.26	139.06	23.54	-24.5	-25.2	18.0	0.00e+00	0	43	0	879755264	10	3890
2026-01-21 11:56:11.26	138.99	23.69	-24.5	-25.1	18.1	0.00e+00	0	44	0	886046720	10	3865
2026-01-21 11:56:12.27	138.92	23.84	-24.7	-25.5	17.8	0.00e+00	0	43	0	891289600	10	3973
2026-01-21 11:56:13.27	138.85	23.99	-24.4	-24.9	18.1	0.00e+00	0	43	0	896532480	10	3821
2026-01-21 11:56:14.27	138.78	24.13	-24.3	-24.7	18.3	0.00e+00	0	43	0	902823936	10	3768
2026-01-21 11:56:15.27	138.70	24.28	-24.2	-24.9	18.4	0.00e+00	0	44	0	908066816	9	3935
2026-01-21 11:56:16.28	138.63	24.44	-24.3	-25.1	18.3	0.00e+00	0	44	0	914358272	9	3987
2026-01-21 11:56:17.28	138.56	24.59	-24.4	-25.4	18.1	0.00e+00	0	43	0	919601152	9	4039
2026-01-21 11:56:18.28	138.48	24.74	-24.3	-25.3	18.2	0.00e+00	0	43	0	924844032	9	4019
2026-01-21 11:56:19.28	138.41	24.90	-24.3	-25.2	18.2	0.00e+00	0	43	0	931135488	9	4016
2026-01-21 11:56:20.29	138.33	25.05	-24.2	-25.1	18.3	0.00e+00	0	43	0	936378368	9	3978
2026-01-21 11:56:21.29	138.25	25.21	-24.3	-25.3	18.2	0.00e+00	0	43	0	942669824	9	4031
2026-01-21 11:56:22.29	138.18	25.36	-24.2	-24.9	18.4	0.00e+00	0	44	0	947912704	9	3939
2026-01-21 11:56:23.29	138.10	25.52	-24.0	-24.7	18.5	0.00e+00	0	44	0	953155584	9	3874
2026-01-21 11:56:24.30	138.02	25.68	-24.0	-24.6	18.6	0.00e+00	0	44	0	959447040	9	3856
2026-01-21 11:56:25.30	137.94	25.84	-24.1	-24.9	18.5	0.00e+00	0	44	0	964689920	9	3916
2026-01-21 11:56:26.31	137.86	26.00	-24.1	-24.8	18.5	0.00e+00	0	44	0	969932800	9	3889
2026-01-21 11:56:27.31	137.78	26.16	-24.3	-25.2	18.3	0.00e+00	0	43	0	976224256	9	4006
2026-01-21 11:56:28.32	137.69	26.32	-24.0	-24.6	18.6	0.00e+00	0	43	0	981467136	9	3860
2026-01-21 11:56:29.32	137.61	26.49	-23.8	-24.3	18.8	0.00e+00	0	44	0	987758592	9	3775
2026-01-21 11:56:30.32	137.53	26.65	-23.9	-24.4	18.7	0.00e+00	0	43	0	993001472	9	3799
2026-01-21 11:56:31.33	137.44	26.81	-24.0	-24.6	18.6	0.00e+00	0	44	0	999292928	9	3863
2026-01-21 11:56:32.32	137.36	26.98	-24.2	-25.0	18.4	0.00e+00	0	44	0	1004535808	9	3954
2026-01-21 11:56:33.32	137.27	27.14	-24.3	-25.1	18.4	0.00e+00	0	44	0	1009778688	9	3980
2026-01-21 11:56:34.33	137.18	27.31	-24.1	-24.9	18.5	2.20e-06	0	44	0	1016070144	9	3917
2026-01-21 11:56:35.33	137.09	27.48	-24.1	-24.8	18.6	0.00e+00	0	43	0	1021313024	9	3894
2026-01-21 11:56:36.33	137.00	27.65	-24.1	-24.8	18.6	0.00e+00	0	43	0	1026555904	9	3892
2026-01-21 11:56:37.34	136.91	27.82	-24.0	-24.6	18.7	2.20e-06	0	43	0	1032847360	9	3843
2026-01-21 11:56:38.33	136.82	27.99	-23.9	-24.5	18.8	0.00e+00	0	44	0	1038090240	9	3825
2026-01-21 11:56:39.33	136.73	28.16	-24.0	-24.5	18.7	0.00e+00	0	44	0	1043333120	9	3834
2026-01-21 11:56:40.34	136.63	28.34	-24.0	-24.5	18.7	0.00e+00	0	44	0	1049624576	9	3828
2026-01-21 11:56:41.34	136.54	28.51	-24.1	-24.7	18.6	0.00e+00	0	44	0	1054867456	9	3883
2026-01-21 11:56:42.35	136.44	28.69	-23.9	-24.4	18.8	0.00e+00	0	43	0	1061158912	9	3805
2026-01-21 11:56:43.35	136.35	28.86	-23.8	-24.2	18.9	1.10e-06	0	44	0	1066401792	9	3752
2026-01-21 11:56:44.35	136.25	29.04	-23.8	-24.2	18.9	0.00e+00	0	43	0	1071644672	9	3769
2026-01-21 11:56:45.35	136.15	29.22	-23.9	-24.3	18.9	0.00e+00	0	44	0	1077936128	9	3779
2026-01-21 11:56:46.35	136.05	29.40	-23.9	-24.4	18.8	0.00e+00	0	44	0	1083179008	9	3795
2026-01-21 11:56:47.35	135.95	29.58	-23.9	-24.4	18.8	0.00e+00	0	44	0	1088421888	9	3810
2026-01-21 11:56:48.35	135.85	29.76	-23.8	-24.2	18.9	0.00e+00	0	43	0	1094713344	9	3760
2026-01-21 11:56:49.36	135.74	29.94	-23.8	-24.1	19.0	1.10e-06	0	44	0	1099956224	9	3750
2026-01-21 11:56:50.36	135.64	30.12	-23.8	-24.6	19.0	0.00e+00	0	44	0	1105199104	8	3954
2026-01-21 11:56:51.36	135.53	30.31	-23.7	-24.4	19.0	0.00e+00	0	44	0	1111490560	8	3919
2026-01-21 11:56:52.36	135.42	30.49	-23.7	-24.4	19.1	1.10e-06	0	44	0	1116733440	8	3911
2026-01-21 11:56:53.37	135.31	30.68	-23.5	-24.0	19.3	0.00e+00	0	43	0	1123024896	8	3808
2026-01-21 11:56:54.37	135.20	30.87	-23.5	-24.0	19.3	0.00e+00	0	44	0	1128267776	8	3810
2026-01-21 11:56:55.38	135.09	31.06	-23.5	-24.1	19.2	0.00e+00	0	44	0	1134559232	8	3846
2026-01-21 11:56:56.38	134.98	31.25	-23.5	-24.0	19.3	0.00e+00	0	44	0	1139802112	8	3810
2026-01-21 11:56:57.38	134.86	31.44	-23.5	-24.1	19.2	0.00e+00	0	43	0	1145044992	8	3843
2026-01-21 11:56:58.39	134.75	31.63	-23.6	-24.3	19.2	0.00e+00	0	44	0	1151336448	8	3884
2026-01-21 11:56:59.40	134.63	31.83	-23.6	-24.3	19.1	0.00e+00	0	44	0	1156579328	8	3902
2026-01-21 11:57:00.41	134.51	32.02	-23.6	-24.4	19.1	0.00e+00	0	44	0	1161822208	8	3906
2026-01-21 11:57:01.41	134.39	32.22	-23.6	-24.3	19.1	0.00e+00	0	44	0	1168113664	8	3899
2026-01-21 11:57:02.41	134.27	32.42	-23.6	-24.2	19.2	0.00e+00	0	44	0	1173356544	8	3868
2026-01-21 11:57:03.42	134.15	32.62	-23.6	-24.2	19.2	0.00e+00	0	44	0	1178599424	8	3868
2026-01-21 11:57:04.42	134.02	32.81	-23.5	-24.1	19.2	0.00e+00	0	44	0	1184890880	8	3851
2026-01-21 11:57:05.42	133.90	33.01	-23.3	-23.6	19.5	0.00e+00	0	44	0	1190133760	8	3727
2026-01-21 11:57:06.42	133.77	33.22	-23.3	-24.1	19.5	0.00e+00	0	44	0	1196425216	7	3952
2026-01-21 11:57:07.43	133.64	33.42	-23.4	-24.3	19.4	0.00e+00	0	44	0	1201668096	7	3988
2026-01-21 11:57:08.43	133.51	33.62	-23.4	-24.4	19.3	0.00e+00	0	44	0	1207959552	7	4019
2026-01-21 11:57:09.43	133.38	33.83	-23.5	-24.5	19.3	0.00e+00	0	44	0	1213202432	7	4047
2026-01-21 11:57:10.43	133.24	34.03	-23.4	-24.4	19.4	0.00e+00	0	44	0	1218445312	7	4024
2026-01-21 11:57:11.43	133.11	34.24	-23.4	-24.4	19.3	0.00e+00	0	44	0	1224736768	7	4036
2026-01-21 11:57:12.43	132.97	34.45	-23.4	-24.4	19.3	0.00e+00	0	43	0	1229979648	7	4040
2026-01-21 11:57:13.44	132.83	34.66	-23.5	-24.5	19.3	0.00e+00	0	44	0	1235222528	7	4047
2026-01-21 11:57:14.43	132.69	34.87	-23.5	-24.5	19.3	0.00e+00	0	43	0	1241513984	7	4054
2026-01-21 11:57:15.44	132.54	35.08	-23.4	-24.4	19.4	0.00e+00	0	44	0	1246756864	7	4031
2026-01-21 11:57:16.45	132.40	35.30	-23.4	-24.3	19.4	0.00e+00	0	44	0	1251999744	7	3999
2026-01-21 11:57:17.45	132.25	35.51	-23.4	-24.3	19.4	0.00e+00	0	44	0	1258291200	7	3993
2026-01-21 11:57:18.45	132.10	35.73	-23.3	-24.2	19.5	0.00e+00	0	44	0	1263534080	7	3962
2026-01-21 11:57:19.45	131.95	35.94	-23.2	-23.9	19.6	0.00e+00	0	44	0	1269825536	7	3915
2026-01-21 11:57:20.46	131.79	36.16	-23.2	-24.0	19.6	0.00e+00	0	44	0	1275068416	7	3921
2026-01-21 11:57:21.46	131.64	36.38	-23.3	-24.1	19.5	0.00e+00	0	44	0	1280311296	7	3947
2026-01-21 11:57:22.46	131.48	36.60	-23.4	-24.2	19.5	0.00e+00	0	44	0	1286602752	7	3984
2026-01-21 11:57:23.46	131.32	36.82	-23.3	-24.2	19.5	0.00e+00	0	44	0	1291845632	7	3970
2026-01-21 11:57:24.46	131.16	37.05	-23.4	-24.4	19.4	0.00e+00	0	44	0	1297088512	7	4023
2026-01-21 11:57:25.46	131.00	37.27	-23.5	-24.6	19.3	0.00e+00	0	43	0	1303379968	7	4080
2026-01-21 11:57:26.46	130.83	37.50	-23.5	-24.6	19.3	0.00e+00	0	44	0	1308622848	7	4073
2026-01-21 11:57:27.47	130.66	37.73	-23.5	-24.4	19.4	0.00e+00	0	44	0	1313865728	7	4028
2026-01-21 11:57:28.47	130.49	37.95	-23.6	-24.7	19.3	0.00e+00	0	44	0	1320157184	7	4089
2026-01-21 11:57:29.47	130.32	38.18	-23.7	-24.9	19.2	0.00e+00	0	44	0	1325400064	7	4133
2026-01-21 11:57:30.47	130.14	38.41	-23.8	-25.1	19.1	0.00e+00	0	44	0	1331691520	7	4176
2026-01-21 11:57:31.47	129.96	38.64	-23.7	-25.0	19.2	0.00e+00	0	44	0	1336934400	7	4156
2026-01-21 11:57:32.48	129.78	38.88	-23.8	-25.0	19.2	0.00e+00	0	44	0	1343225856	7	4171
2026-01-21 11:57:33.48	129.59	39.11	-23.7	-25.0	19.2	1.10e-06	0	44	0	1348468736	7	4158
2026-01-21 11:57:34.48	129.41	39.35	-23.6	-24.7	19.3	0.00e+00	0	44	0	1353711616	7	4090
2026-01-21 11:57:35.48	129.22	39.59	-23.6	-24.8	19.3	0.00e+00	0	44	0	1360003072	7	4117
2026-01-21 11:57:36.48	129.03	39.82	-23.7	-24.8	19.3	0.00e+00	0	44	0	1365245952	7	4116
2026-01-21 11:57:37.49	128.83	40.06	-23.5	-24.5	19.4	0.00e+00	0	44	0	1370488832	7	4041
2026-01-21 11:57:38.49	128.63	40.31	-23.4	-24.4	19.5	0.00e+00	0	44	0	1376780288	7	4023
2026-01-21 11:57:39.49	128.43	40.55	-23.5	-24.4	19.5	0.00e+00	0	44	0	1382023168	7	4014
2026-01-21 11:57:40.49	128.23	40.79	-23.5	-24.6	19.4	0.00e+00	0	44	0	1387266048	7	4061
2026-01-21 11:57:41.50	128.02	41.04	-23.7	-24.9	19.2	0.00e+00	0	44	0	1393557504	7	4136
2026-01-21 11:57:42.50	127.81	41.28	-23.7	-24.9	19.2	0.00e+00	0	44	0	1398800384	7	4135
2026-01-21 11:57:43.51	127.59	41.53	-23.6	-24.8	19.3	0.00e+00	0	44	0	1405091840	7	4111
2026-01-21 11:57:44.51	127.37	41.78	-23.6	-24.7	19.4	0.00e+00	0	44	0	1410334720	7	4088
2026-01-21 11:57:45.52	127.15	42.03	-23.6	-24.8	19.3	0.00e+00	0	44	0	1416626176	7	4106
2026-01-21 11:57:46.53	126.92	42.28	-23.8	-25.1	19.2	0.00e+00	0	44	0	1421869056	7	4190
2026-01-21 11:57:47.54	126.69	42.54	-23.8	-25.2	19.1	0.00e+00	0	44	0	1427111936	7	4220
2026-01-21 11:57:48.54	126.46	42.79	-23.9	-25.3	19.1	0.00e+00	0	44	0	1433403392	7	4234
2026-01-21 11:57:49.55	126.23	43.04	-23.9	-25.3	19.1	0.00e+00	0	44	0	1438646272	7	4247
2026-01-21 11:57:50.55	125.99	43.30	-23.9	-25.3	19.0	0.00e+00	0	44	0	1443889152	7	4246
2026-01-21 11:57:51.55	125.74	43.56	-23.8	-25.2	19.1	0.00e+00	0	44	0	1450180608	7	4211
2026-01-21 11:57:52.56	125.50	43.81	-23.8	-25.1	19.2	0.00e+00	0	44	0	1455423488	7	4197
2026-01-21 11:57:53.56	125.24	44.07	-23.8	-25.2	19.1	0.00e+00	0	44	0	1460666368	7	4223
2026-01-21 11:57:54.56	124.99	44.33	-24.0	-25.5	19.0	0.00e+00	0	44	0	1466957824	7	4295
2026-01-21 11:57:55.56	124.73	44.59	-24.3	-25.6	18.7	0.00e+00	0	44	0	1472200704	8	4204
2026-01-21 11:57:56.56	124.47	44.85	-24.3	-25.8	18.7	0.00e+00	0	44	0	1478492160	8	4245
2026-01-21 11:57:57.56	124.20	45.12	-24.1	-25.4	18.9	0.00e+00	0	44	0	1483735040	8	4139
2026-01-21 11:57:58.57	123.92	45.38	-24.0	-25.0	19.0	0.00e+00	0	44	0	1490026496	8	4048
2026-01-21 11:57:59.58	123.64	45.65	-23.8	-24.6	19.2	0.00e+00	0	44	0	1495269376	8	3959
2026-01-21 11:58:00.58	123.36	45.91	-23.9	-24.9	19.1	0.00e+00	0	44	0	1500512256	8	4026
2026-01-21 11:58:01.58	123.08	46.18	-24.0	-25.1	19.0	0.00e+00	0	44	0	1506803712	8	4060
2026-01-21 11:58:02.58	122.78	46.45	-24.1	-25.2	19.0	0.00e+00	0	44	0	1512046592	8	4094
2026-01-21 11:58:03.58	122.49	46.72	-24.0	-24.9	19.1	0.00e+00	0	44	0	1517289472	8	4032
2026-01-21 11:58:04.58	122.19	46.99	-23.9	-24.9	19.2	0.00e+00	0	44	0	1523580928	8	4017
2026-01-21 11:58:05.58	121.88	47.26	-24.2	-25.4	18.9	0.00e+00	0	44	0	1528823808	8	4141
2026-01-21 11:58:06.59	121.56	47.53	-24.3	-25.6	18.8	0.00e+00	0	44	0	1534066688	8	4209
2026-01-21 11:58:07.59	121.25	47.80	-24.3	-25.7	18.8	0.00e+00	0	44	0	1540358144	8	4215
2026-01-21 11:58:08.59	120.92	48.07	-24.2	-25.5	18.9	0.00e+00	0	44	0	1545601024	8	4161
2026-01-21 11:58:09.59	120.59	48.35	-24.1	-25.2	19.0	0.00e+00	0	44	0	1551892480	8	4087
2026-01-21 11:58:10.60	120.25	48.62	-24.1	-25.2	19.0	0.00e+00	0	44	0	1557135360	8	4089
2026-01-21 11:58:11.60	119.91	48.90	-24.4	-26.0	18.7	0.00e+00	0	44	0	1562378240	8	4282
2026-01-21 11:58:12.61	119.56	49.17	-24.8	-26.1	18.3	0.00e+00	0	44	0	1568669696	9	4217
2026-01-21 11:58:13.61	119.21	49.45	-25.0	-26.5	18.1	0.00e+00	0	44	0	1573912576	9	4321
2026-01-21 11:58:14.61	118.85	49.72	-25.0	-26.2	18.0	0.00e+00	0	44	0	1579155456	10	4119
2026-01-21 11:58:15.61	118.48	50.00	-25.0	-26.1	18.1	0.00e+00	0	44	0	1585446912	10	4099
2026-01-21 11:58:16.62	118.10	50.28	-25.2	-26.5	17.9	0.00e+00	0	44	0	1590689792	10	4184
2026-01-21 11:58:17.62	117.72	50.56	-25.3	-26.7	17.8	0.00e+00	0	44	0	1595932672	10	4259
2026-01-21 11:58:18.62	117.33	50.83	-25.4	-27.0	17.6	0.00e+00	0	44	0	1602224128	10	4343
2026-01-21 11:58:19.62	116.94	51.11	-25.2	-26.1	17.9	0.00e+00	0	44	0	1607467008	11	3994
2026-01-21 11:58:20.62	116.53	51.39	-25.2	-26.0	17.9	0.00e+00	0	44	0	1613758464	11	3969
2026-01-21 11:58:21.63	116.12	51.67	-25.0	-25.7	18.1	0.00e+00	0	44	0	1619001344	11	3887
2026-01-21 11:58:22.63	115.70	51.95	-24.7	-25.5	18.4	0.00e+00	0	44	0	1625292800	10	3954
2026-01-21 11:58:23.64	115.27	52.23	-24.9	-25.9	18.2	0.00e+00	0	44	0	1630535680	10	4044
2026-01-21 11:58:24.65	114.83	52.51	-24.9	-25.9	18.3	0.00e+00	0	44	0	1635778560	10	4035
2026-01-21 11:58:25.65	114.39	52.79	-24.8	-25.8	18.3	0.00e+00	0	44	0	1642070016	10	4011
2026-01-21 11:58:26.65	113.94	53.06	-25.2	-26.6	17.9	0.00e+00	0	44	0	1647312896	10	4216
2026-01-21 11:58:27.65	113.48	53.34	-25.3	-26.8	17.8	0.00e+00	0	44	0	1652555776	10	4273
2026-01-21 11:58:28.66	113.00	53.62	-25.1	-26.3	18.0	0.00e+00	0	44	0	1658847232	10	4139
2026-01-21 11:58:29.67	112.52	53.90	-24.8	-25.7	18.4	0.00e+00	0	44	0	1664090112	10	3984
2026-01-21 11:58:30.67	112.03	54.17	-24.5	-25.1	18.7	0.00e+00	0	44	0	1669332992	10	3861
2026-01-21 11:58:31.66	111.54	54.44	-24.6	-25.2	18.6	0.00e+00	0	44	0	1675624448	10	3871
2026-01-21 11:58:32.66	111.03	54.72	-24.6	-25.3	18.6	0.00e+00	0	44	0	1680867328	10	3897
2026-01-21 11:58:33.67	110.51	54.99	-24.7	-25.5	18.5	0.00e+00	0	44	0	1687158784	10	3933
2026-01-21 11:58:34.67	109.99	55.27	-24.4	-24.8	18.9	0.00e+00	0	44	0	1692401664	10	3782
2026-01-21 11:58:35.68	109.44	55.54	-24.1	-24.7	19.1	0.00e+00	0	44	0	1698693120	9	3862
2026-01-21 11:58:36.68	108.90	55.81	-24.4	-25.3	18.8	0.00e+00	0	44	0	1703936000	9	4005
2026-01-21 11:58:37.69	108.33	56.08	-24.4	-25.4	18.8	0.00e+00	0	44	0	1709178880	9	4031
2026-01-21 11:58:38.69	107.76	56.35	-24.5	-25.5	18.7	0.00e+00	0	44	0	1715470336	9	4067
2026-01-21 11:58:39.70	107.18	56.62	-24.6	-25.8	18.5	0.00e+00	0	44	0	1720713216	9	4143
2026-01-21 11:58:40.70	106.59	56.88	-24.8	-26.2	18.4	0.00e+00	0	44	0	1725956096	9	4226
2026-01-21 11:58:41.70	105.98	57.14	-24.9	-26.4	18.3	0.00e+00	0	44	0	1732247552	9	4297
2026-01-21 11:58:42.71	105.36	57.40	-24.7	-26.0	18.5	0.00e+00	0	44	0	1737490432	9	4186
2026-01-21 11:58:43.71	104.74	57.66	-24.5	-25.6	18.7	0.00e+00	0	44	0	1742733312	9	4067
2026-01-21 11:58:44.71	104.10	57.92	-24.4	-25.3	18.8	0.00e+00	0	44	0	1749024768	9	4001
2026-01-21 11:58:45.71	103.45	58.17	-24.6	-25.8	18.6	0.00e+00	0	44	0	1754267648	9	4141
2026-01-21 11:58:46.72	102.78	58.42	-24.8	-26.1	18.4	0.00e+00	0	44	0	1760559104	9	4219
2026-01-21 11:58:47.72	102.10	58.67	-24.5	-25.6	18.6	0.00e+00	0	44	0	1765801984	9	4084
2026-01-21 11:58:48.72	101.41	58.92	-24.2	-24.8	19.1	0.00e+00	0	44	0	1772093440	9	3890
2026-01-21 11:58:49.72	100.71	59.16	-24.1	-24.8	19.1	0.00e+00	0	44	0	1777336320	9	3879
2026-01-21 11:58:50.73	99.99	59.40	-24.3	-25.1	18.9	0.00e+00	0	44	0	1782579200	9	3953
2026-01-21 11:58:51.72	99.27	59.64	-24.5	-25.6	18.7	0.00e+00	0	44	0	1787822080	9	4071
2026-01-21 11:58:52.72	98.53	59.87	-24.6	-25.8	18.6	0.00e+00	0	44	0	1794113536	9	4127
2026-01-21 11:58:53.72	97.77	60.10	-24.4	-25.4	18.8	0.00e+00	0	44	0	1799356416	9	4016
2026-01-21 11:58:54.72	97.01	60.33	-24.0	-24.5	19.2	0.00e+00	0	44	0	1805647872	9	3817
2026-01-21 11:58:55.73	96.22	60.55	-24.1	-24.7	19.1	0.00e+00	0	44	0	1810890752	9	3868
2026-01-21 11:58:56.73	95.42	60.77	-24.1	-24.7	19.1	0.00e+00	0	44	0	1817182208	9	3878
2026-01-21 11:58:57.74	94.60	60.98	-23.8	-24.6	19.4	0.00e+00	0	44	0	1822425088	8	3938
2026-01-21 11:58:58.73	93.79	61.19	-23.9	-24.7	19.3	0.00e+00	0	44	0	1827667968	8	3983
2026-01-21 11:58:59.73	92.95	61.39	-24.1	-25.3	19.1	0.00e+00	0	44	0	1833959424	8	4117
2026-01-21 11:59:00.71	92.12	61.59	-23.9	-24.8	19.3	0.00e+00	0	44	0	1839202304	8	4012
2026-01-21 11:59:01.71	91.25	61.78	-23.7	-24.5	19.5	0.00e+00	0	44	0	1844445184	8	3918
2026-01-21 11:59:02.71	90.38	61.97	-24.1	-25.2	19.1	0.00e+00	0	44	0	1849688064	8	4083
2026-01-21 11:59:03.72	89.48	62.16	-23.9	-24.9	19.3	0.00e+00	0	44	0	1855979520	8	4008
2026-01-21 11:59:04.73	88.56	62.34	-23.7	-24.4	19.6	0.00e+00	0	44	0	1861222400	8	3896
2026-01-21 11:59:05.73	87.65	62.51	-23.5	-24.1	19.7	0.00e+00	0	44	0	1867513856	8	3824
2026-01-21 11:59:06.73	86.71	62.68	-23.4	-23.8	19.9	0.00e+00	0	44	0	1872756736	8	3765
2026-01-21 11:59:07.73	85.77	62.84	-23.8	-24.7	19.4	0.00e+00	0	44	0	1879048192	8	3971
2026-01-21 11:59:08.74	84.81	63.00	-23.8	-24.5	19.5	0.00e+00	0	44	0	1884291072	8	3935
2026-01-21 11:59:09.74	83.84	63.14	-23.6	-24.2	19.7	0.00e+00	0	44	0	1889533952	8	3843
2026-01-21 11:59:10.74	82.86	63.28	-23.7	-24.4	19.6	0.00e+00	0	44	0	1895825408	8	3885
2026-01-21 11:59:11.75	81.86	63.42	-23.7	-24.4	19.5	0.00e+00	0	44	0	1901068288	8	3906
2026-01-21 11:59:12.76	80.84	63.55	-23.4	-23.8	19.9	0.00e+00	0	44	0	1906311168	8	3756
2026-01-21 11:59:13.76	79.83	63.67	-23.2	-23.8	20.1	0.00e+00	0	44	0	1912602624	7	3854
2026-01-21 11:59:14.76	78.80	63.78	-23.2	-23.8	20.1	0.00e+00	0	44	0	1917845504	7	3863
2026-01-21 11:59:15.77	77.76	63.89	-22.9	-23.2	20.3	0.00e+00	0	44	0	1923088384	7	3742
2026-01-21 11:59:16.77	76.72	63.99	-22.6	-23.0	20.7	0.00e+00	0	44	0	1929379840	6	3792
2026-01-21 11:59:17.78	75.66	64.08	-22.7	-23.4	20.5	0.00e+00	0	44	0	1934622720	6	3876
2026-01-21 11:59:18.78	74.60	64.16	-23.0	-23.9	20.2	0.00e+00	0	44	0	1940914176	6	4009
2026-01-21 11:59:19.79	73.52	64.24	-22.9	-23.8	20.3	0.00e+00	0	44	0	1946157056	6	3964
2026-01-21 11:59:20.80	72.44	64.30	-22.7	-23.3	20.5	0.00e+00	0	44	0	1952448512	6	3863
2026-01-21 11:59:21.79	71.37	64.36	-23.0	-24.0	20.4	0.00e+00	0	44	0	1957691392	6	4001
2026-01-21 11:59:22.79	70.28	64.41	-23.1	-24.2	20.3	0.00e+00	0	44	0	1962934272	6	4058
2026-01-21 11:59:23.79	69.19	64.45	-23.1	-24.1	20.3	0.00e+00	0	44	0	1969225728	6	4041
2026-01-21 11:59:24.79	68.10	64.49	-23.1	-24.1	20.3	0.00e+00	0	44	0	1974468608	6	4024
2026-01-21 11:59:25.79	67.01	64.51	-23.1	-24.0	20.3	0.00e+00	0	44	0	1979711488	6	4017
2026-01-21 11:59:26.79	65.91	64.53	-22.7	-23.1	20.8	0.00e+00	0	44	0	1986002944	6	3804
2026-01-21 11:59:27.80	64.80	64.54	-22.5	-22.9	20.9	0.00e+00	0	44	0	1991245824	6	3748
2026-01-21 11:59:28.80	63.70	64.54	-22.7	-23.2	20.8	0.00e+00	0	44	0	1996488704	6	3819
2026-01-21 11:59:29.81	62.59	64.53	-22.6	-23.0	20.9	0.00e+00	0	44	0	2002780160	6	3771
2026-01-21 11:59:30.82	61.49	64.51	-22.5	-22.8	21.0	0.00e+00	0	44	0	2008023040	6	3723
2026-01-21 11:59:31.82	60.39	64.49	-22.5	-22.9	20.9	0.00e+00	0	44	0	2014314496	6	3755
2026-01-21 11:59:32.82	59.30	64.46	-22.4	-22.7	21.0	0.00e+00	0	44	0	2019557376	6	3709
2026-01-21 11:59:33.82	58.21	64.41	-22.5	-22.9	20.9	0.00e+00	0	44	0	2025848832	6	3749
2026-01-21 11:59:34.82	57.13	64.36	-22.5	-22.8	20.9	0.00e+00	0	44	0	2031091712	6	3738
2026-01-21 11:59:35.82	56.05	64.31	-22.7	-23.2	20.7	0.00e+00	0	44	0	2036334592	6	3832
2026-01-21 11:59:36.83	54.96	64.24	-22.8	-23.6	20.6	0.00e+00	0	44	0	2042626048	6	3907
2026-01-21 11:59:37.82	53.91	64.17	-23.0	-23.9	20.4	0.00e+00	0	44	0	2047868928	6	3977
2026-01-21 11:59:38.81	52.86	64.08	-22.7	-23.3	20.7	0.00e+00	0	44	0	2053111808	6	3846
2026-01-21 11:59:39.82	51.80	63.99	-22.7	-23.3	20.7	0.00e+00	0	44	0	2059403264	6	3857
2026-01-21 11:59:40.83	50.75	63.90	-23.0	-23.9	20.4	0.00e+00	0	44	0	2064646144	6	3978
2026-01-21 11:59:41.83	49.71	63.79	-23.1	-24.1	20.3	0.00e+00	0	44	0	2069889024	6	4027
2026-01-21 11:59:42.83	48.69	63.68	-23.2	-24.3	20.2	0.00e+00	0	44	0	2076180480	6	4089
2026-01-21 11:59:43.84	47.66	63.56	-23.2	-24.3	20.2	0.00e+00	0	44	0	2081423360	6	4091
2026-01-21 11:59:44.85	46.65	63.43	-23.2	-24.4	20.2	0.00e+00	0	44	0	2087714816	6	4098
2026-01-21 11:59:45.85	45.66	63.29	-23.1	-24.1	20.3	0.00e+00	0	44	0	2092957696	6	4046
2026-01-21 11:59:46.86	44.67	63.15	-23.1	-24.1	20.3	0.00e+00	0	44	0	2098200576	6	4032
2026-01-21 11:59:47.86	43.70	63.00	-23.3	-24.5	20.1	0.00e+00	0	44	0	2104492032	6	4128
2026-01-21 11:59:48.87	42.74	62.85	-23.4	-24.7	20.0	0.00e+00	0	44	0	2109734912	6	4186
2026-01-21 11:59:49.87	41.79	62.69	-23.5	-24.4	19.9	0.00e+00	0	44	0	2116026368	7	4004
2026-01-21 11:59:50.87	40.86	62.52	-23.7	-24.8	19.7	0.00e+00	0	44	0	2121269248	7	4086
2026-01-21 11:59:51.87	39.95	62.35	-23.8	-25.1	19.5	0.00e+00	0	44	0	2126512128	7	4170
2026-01-21 11:59:52.87	39.04	62.17	-23.6	-24.7	19.7	0.00e+00	0	44	0	2131755008	7	4069
2026-01-21 11:59:53.87	38.15	61.99	-23.6	-24.6	19.8	0.00e+00	0	44	0	2138046464	7	4055
2026-01-21 11:59:54.87	37.27	61.80	-23.8	-25.1	19.5	0.00e+00	0	44	0	2143289344	7	4173
2026-01-21 11:59:55.88	36.40	61.61	-23.7	-24.8	19.7	0.00e+00	0	44	0	2149580800	7	4105
2026-01-21 11:59:56.88	35.55	61.41	-23.7	-24.7	19.7	0.00e+00	0	44	0	2154823680	7	4079
2026-01-21 11:59:57.89	34.71	61.20	-23.8	-25.1	19.5	0.00e+00	0	44	0	2161115136	7	4156
2026-01-21 11:59:58.89	33.88	60.99	-23.8	-24.9	19.6	0.00e+00	0	44	0	2166358016	7	4128
2026-01-21 11:59:59.90	33.07	60.78	-23.7	-24.8	19.7	0.00e+00	0	44	0	2171600896	7	4091
2026-01-21 12:00:00.90	32.27	60.56	-23.8	-25.1	19.5	0.00e+00	0	44	0	2177892352	7	4177
2026-01-21 12:00:01.91	31.48	60.34	-23.8	-25.0	19.6	0.00e+00	0	44	0	2183135232	7	4129
2026-01-21 12:00:02.91	30.71	60.11	-23.6	-24.6	19.8	0.00e+00	0	44	0	2188378112	7	4041
2026-01-21 12:00:03.92	29.95	59.88	-23.8	-25.1	19.5	0.00e+00	0	44	0	2194669568	7	4167
2026-01-21 12:00:04.92	29.21	59.65	-23.8	-24.9	19.6	0.00e+00	0	44	0	2199912448	7	4130
2026-01-21 12:00:05.92	28.49	59.41	-23.8	-25.1	19.5	0.00e+00	0	44	0	2206203904	7	4157
2026-01-21 12:00:06.93	27.76	59.17	-23.7	-24.8	19.7	0.00e+00	0	44	0	2211446784	7	4098
2026-01-21 12:00:07.93	27.06	58.93	-23.8	-25.0	19.6	0.00e+00	0	44	0	2216689664	7	4135
2026-01-21 12:00:08.93	26.38	58.68	-24.1	-25.2	19.2	0.00e+00	0	44	0	2222981120	8	4081
2026-01-21 12:00:09.93	25.70	58.44	-24.3	-25.6	19.1	0.00e+00	0	44	0	2228224000	8	4172
2026-01-21 12:00:10.94	25.03	58.18	-24.4	-25.8	18.9	0.00e+00	0	44	0	2234515456	8	4221
2026-01-21 12:00:11.94	24.38	57.93	-24.5	-25.9	18.9	0.00e+00	0	44	0	2239758336	8	4265
2026-01-21 12:00:12.94	23.74	57.67	-24.0	-24.9	19.3	0.00e+00	0	44	0	2245001216	8	4007
2026-01-21 12:00:13.95	23.11	57.41	-23.9	-24.7	19.5	0.00e+00	0	44	0	2251292672	8	3944
2026-01-21 12:00:14.95	22.50	57.15	-24.2	-25.3	19.1	0.00e+00	0	44	0	2256535552	8	4109
2026-01-21 12:00:15.95	21.90	56.89	-23.9	-24.9	19.4	0.00e+00	0	44	0	2261778432	8	4000
2026-01-21 12:00:16.95	21.31	56.63	-24.1	-25.1	19.3	0.00e+00	0	44	0	2268069888	8	4044
2026-01-21 12:00:17.96	20.72	56.36	-24.1	-25.2	19.2	0.00e+00	0	44	0	2273312768	8	4069
2026-01-21 12:00:18.97	20.15	56.09	-24.6	-25.7	18.7	0.00e+00	0	44	0	2278555648	9	4091
2026-01-21 12:00:19.97	19.59	55.83	-24.3	-25.2	19.0	0.00e+00	0	44	0	2284847104	9	3969
2026-01-21 12:00:20.98	19.04	55.55	-23.9	-24.3	19.4	0.00e+00	0	44	0	2290089984	9	3764
2026-01-21 12:00:21.98	18.50	55.28	-24.0	-24.4	19.4	0.00e+00	0	44	0	2296381440	9	3768
2026-01-21 12:00:22.98	17.98	55.01	-24.3	-25.0	19.1	0.00e+00	0	44	0	2301624320	9	3926
2026-01-21 12:00:23.98	17.46	54.74	-24.3	-25.2	18.9	0.00e+00	0	44	0	2307915776	9	3964
2026-01-21 12:00:24.98	16.96	54.47	-24.5	-25.5	18.8	0.00e+00	0	44	0	2313158656	9	4044
2026-01-21 12:00:25.98	16.46	54.19	-24.3	-25.1	19.0	0.00e+00	0	44	0	2318401536	9	3953
2026-01-21 12:00:26.98	15.97	53.92	-24.2	-24.8	19.2	0.00e+00	0	44	0	2324692992	9	3872
2026-01-21 12:00:27.99	15.49	53.64	-24.2	-24.9	19.1	0.00e+00	0	44	0	2329935872	9	3887
2026-01-21 12:00:28.99	15.02	53.37	-24.1	-24.6	19.2	0.00e+00	0	44	0	2335178752	9	3838
2026-01-21 12:00:29.99	14.56	53.09	-24.1	-24.7	19.2	0.00e+00	0	44	0	2341470208	9	3854
2026-01-21 12:00:30.99	14.11	52.81	-24.1	-24.8	19.2	0.00e+00	0	44	0	2346713088	9	3864
2026-01-21 12:00:31.99	13.67	52.54	-24.3	-25.1	19.0	0.00e+00	0	44	0	2351955968	9	3941
2026-01-21 12:00:33.00	13.23	52.26	-24.4	-25.2	18.9	0.00e+00	0	44	0	2358247424	9	3979
2026-01-21 12:00:34.00	12.81	51.98	-24.7	-26.0	18.5	0.00e+00	0	44	0	2363490304	9	4166
2026-01-21 12:00:35.01	12.39	51.70	-24.5	-25.4	18.8	0.00e+00	0	44	0	2369781760	9	4023
2026-01-21 12:00:36.00	11.98	51.43	-24.2	-24.9	19.0	0.00e+00	0	44	0	2375024640	9	3907
2026-01-21 12:00:37.01	11.57	51.15	-24.2	-24.9	19.0	0.00e+00	0	44	0	2380267520	9	3893
2026-01-21 12:00:38.01	11.18	50.87	-24.4	-25.3	18.9	0.00e+00	0	44	0	2386558976	9	3980
2026-01-21 12:00:39.01	10.79	50.60	-23.9	-24.3	19.3	0.00e+00	0	44	0	2391801856	9	3764
2026-01-21 12:00:40.01	10.41	50.32	-23.8	-24.1	19.4	0.00e+00	0	44	0	2397044736	9	3721
2026-01-21 12:00:41.02	10.03	50.04	-24.0	-24.5	19.3	0.00e+00	0	44	0	2403336192	9	3802
2026-01-21 12:00:42.02	9.67	49.77	-23.9	-24.3	19.4	0.00e+00	0	44	0	2408579072	9	3750
2026-01-21 12:00:43.02	9.31	49.49	-23.8	-24.1	19.5	0.00e+00	0	44	0	2413821952	9	3705
2026-01-21 12:00:44.02	8.95	49.22	-23.7	-24.2	19.6	0.00e+00	0	44	0	2420113408	8	3852
2026-01-21 12:00:45.02	8.60	48.94	-23.5	-23.8	19.8	0.00e+00	0	44	0	2425356288	8	3748
2026-01-21 12:00:46.03	8.26	48.67	-23.5	-23.9	19.8	0.00e+00	0	44	0	2431647744	8	3762
2026-01-21 12:00:47.04	7.92	48.39	-23.5	-23.8	19.8	0.00e+00	0	44	0	2436890624	8	3752
2026-01-21 12:00:48.04	7.59	48.12	-23.4	-23.7	19.9	0.00e+00	0	44	0	2443182080	8	3728
2026-01-21 12:00:49.04	7.27	47.85	-23.6	-24.1	19.7	0.00e+00	0	44	0	2448424960	8	3823
2026-01-21 12:00:50.05	6.95	47.57	-23.5	-24.0	19.7	0.00e+00	0	44	0	2453667840	8	3794
2026-01-21 12:00:51.05	6.64	47.30	-23.6	-24.2	19.6	0.00e+00	0	44	0	2459959296	8	3838
2026-01-21 12:00:52.05	6.33	47.04	-23.4	-23.7	19.9	0.00e+00	0	44	0	2465202176	8	3738
2026-01-21 12:00:53.05	6.03	46.77	-23.2	-23.8	20.1	0.00e+00	0	44	0	2470445056	7	3853
2026-01-21 12:00:54.06	5.73	46.50	-23.2	-23.8	20.1	0.00e+00	0	44	0	2476736512	7	3851
2026-01-21 12:00:55.07	5.44	46.23	-23.0	-23.3	20.3	0.00e+00	0	44	0	2481979392	7	3748
2026-01-21 12:00:56.07	5.15	45.96	-23.1	-23.6	20.2	0.00e+00	0	44	0	2487222272	7	3809
2026-01-21 12:00:57.08	4.87	45.70	-23.0	-23.4	20.2	0.00e+00	0	44	0	2493513728	7	3773
2026-01-21 12:00:58.07	4.59	45.43	-23.0	-23.4	20.2	0.00e+00	0	44	0	2498756608	7	3773
2026-01-21 12:00:59.07	4.32	45.17	-23.2	-23.7	20.1	0.00e+00	0	44	0	2505048064	7	3836
2026-01-21 12:01:00.08	4.05	44.91	-23.2	-23.7	20.0	0.00e+00	0	44	0	2510290944	7	3840
2026-01-21 12:01:01.08	3.79	44.65	-23.6	-24.6	19.6	0.00e+00	0	44	0	2516582400	7	4044
2026-01-21 12:01:02.09	3.53	44.38	-23.8	-25.1	19.3	0.00e+00	0	44	0	2521825280	7	4184
2026-01-21 12:01:03.08	3.27	44.13	-23.6	-24.7	19.5	0.00e+00	0	44	0	2527068160	7	4088
2026-01-21 12:01:04.09	3.02	43.87	-23.5	-24.5	19.7	0.00e+00	0	44	0	2533359616	7	4031
2026-01-21 12:01:05.09	2.77	43.61	-23.6	-24.6	19.6	0.00e+00	0	44	0	2538602496	7	4049
2026-01-21 12:01:06.09	2.53	43.36	-23.8	-25.0	19.4	0.00e+00	0	44	0	2543845376	7	4146
2026-01-21 12:01:07.10	2.29	43.10	-23.5	-24.5	19.7	0.00e+00	0	44	0	2550136832	7	4021
2026-01-21 12:01:08.10	2.06	42.85	-23.7	-24.9	19.4	0.00e+00	0	44	0	2555379712	7	4115
2026-01-21 12:01:09.11	1.82	42.59	-23.5	-24.3	19.7	0.00e+00	0	44	0	2560622592	7	3982
2026-01-21 12:01:10.11	1.60	42.34	-23.3	-24.1	19.8	0.00e+00	0	44	0	2566914048	7	3925
2026-01-21 12:01:11.12	1.37	42.09	-23.3	-24.1	19.8	0.00e+00	0	44	0	2572156928	7	3924
2026-01-21 12:01:12.12	1.15	41.84	-23.3	-24.1	19.9	0.00e+00	0	44	0	2578448384	7	3924
2026-01-21 12:01:13.12	0.93	41.60	-23.4	-24.1	19.8	0.00e+00	0	44	0	2583691264	7	3939
2026-01-21 12:01:14.13	0.72	41.35	-23.2	-23.7	20.0	0.00e+00	0	44	0	2589982720	7	3839
2026-01-21 12:01:15.13	0.51	41.10	-22.9	-23.2	20.2	0.00e+00	0	44	0	2595225600	7	3730
2026-01-21 12:01:16.13	0.30	40.86	-22.9	-23.2	20.3	0.00e+00	0	44	0	2600468480	7	3714
2026-01-21 12:01:17.13	0.10	40.62	-23.0	-23.3	20.2	0.00e+00	0	44	0	2606759936	7	3755
2026-01-21 12:01:18.13	359.90	40.38	-22.9	-23.3	20.2	0.00e+00	0	44	0	2612002816	7	3737
2026-01-21 12:01:19.13	359.70	40.14	-23.0	-23.4	20.1	0.00e+00	0	44	0	2617245696	7	3772
2026-01-21 12:01:20.13	359.51	39.90	-23.0	-23.5	20.1	0.00e+00	0	44	0	2623537152	7	3786
2026-01-21 12:01:21.14	359.31	39.66	-23.1	-23.6	20.0	0.00e+00	0	44	0	2628780032	7	3804
2026-01-21 12:01:22.13	359.13	39.43	-23.1	-23.6	20.0	0.00e+00	0	44	0	2634022912	7	3800
2026-01-21 12:01:23.13	358.94	39.19	-23.2	-23.7	19.9	0.00e+00	0	44	0	2640314368	7	3840
2026-01-21 12:01:24.14	358.75	38.96	-23.3	-24.0	19.8	0.00e+00	0	44	0	2645557248	7	3913
2026-01-21 12:01:25.14	358.57	38.72	-23.4	-24.3	19.7	0.00e+00	0	44	0	2651848704	7	3975
2026-01-21 12:01:26.15	358.39	38.49	-23.4	-24.3	19.7	0.00e+00	0	44	0	2657091584	7	3977
2026-01-21 12:01:27.15	358.22	38.26	-23.4	-24.2	19.7	0.00e+00	0	44	0	2662334464	7	3963
2026-01-21 12:01:28.16	358.04	38.03	-23.4	-24.3	19.7	0.00e+00	0	44	0	2668625920	7	3967
2026-01-21 12:01:29.16	357.87	37.80	-23.1	-23.6	20.0	0.00e+00	0	44	0	2673868800	7	3806
2026-01-21 12:01:30.17	357.70	37.58	-23.0	-23.5	20.1	0.00e+00	0	44	0	2679111680	7	3783
2026-01-21 12:01:31.16	357.54	37.35	-23.1	-23.6	20.0	0.00e+00	0	44	0	2685403136	7	3820
2026-01-21 12:01:32.17	357.37	37.13	-23.1	-23.6	20.0	0.00e+00	0	44	0	2690646016	7	3808
2026-01-21 12:01:33.17	357.21	36.91	-23.1	-23.7	20.0	0.00e+00	0	44	0	2695888896	7	3830
2026-01-21 12:01:34.17	357.05	36.69	-23.0	-23.5	20.0	0.00e+00	0	44	0	2702180352	7	3787
2026-01-21 12:01:35.16	356.90	36.47	-23.1	-23.5	20.0	0.00e+00	0	44	0	2707423232	7	3792
2026-01-21 12:01:36.16	356.74	36.25	-23.0	-23.4	20.1	0.00e+00	0	44	0	2713714688	7	3767
2026-01-21 12:01:37.17	356.59	36.03	-23.1	-23.5	20.0	0.00e+00	0	44	0	2718957568	7	3788
2026-01-21 12:01:38.16	356.44	35.82	-23.1	-23.6	20.0	0.00e+00	0	44	0	2724200448	7	3805
2026-01-21 12:01:39.16	356.29	35.60	-23.2	-23.8	19.9	0.00e+00	0	44	0	2730491904	7	3863
2026-01-21 12:01:40.17	356.14	35.39	-23.3	-24.0	19.8	0.00e+00	0	44	0	2735734784	7	3910
2026-01-21 12:01:41.17	356.00	35.17	-23.2	-23.8	19.9	0.00e+00	0	44	0	2740977664	7	3869
2026-01-21 12:01:42.17	355.85	34.96	-23.3	-23.9	19.8	0.00e+00	0	44	0	2747269120	7	3889
2026-01-21 12:01:43.17	355.71	34.75	-23.4	-24.2	19.7	0.00e+00	0	44	0	2752512000	7	3947
2026-01-21 12:01:44.17	355.57	34.54	-23.1	-23.5	20.0	0.00e+00	0	44	0	2757754880	7	3794
2026-01-21 12:01:45.17	355.44	34.34	-22.9	-23.2	20.2	0.00e+00	0	44	0	2764046336	7	3720
2026-01-21 12:01:46.18	355.30	34.13	-23.0	-23.4	20.1	0.00e+00	0	44	0	2769289216	7	3761
2026-01-21 12:01:47.18	355.17	33.92	-23.1	-23.6	19.9	0.00e+00	0	44	0	2775580672	7	3824
2026-01-21 12:01:48.18	355.04	33.72	-23.2	-23.9	19.8	0.00e+00	0	44	0	2780823552	7	3881
2026-01-21 12:01:49.18	354.90	33.52	-23.3	-24.0	19.7	0.00e+00	0	44	0	2787115008	7	3920
2026-01-21 12:01:50.19	354.77	33.31	-23.4	-24.2	19.6	0.00e+00	0	44	0	2792357888	7	3968
2026-01-21 12:01:51.19	354.65	33.11	-23.3	-24.1	19.6	0.00e+00	0	44	0	2797600768	7	3945
2026-01-21 12:01:52.19	354.52	32.91	-23.4	-24.3	19.6	0.00e+00	0	44	0	2803892224	7	3975
2026-01-21 12:01:53.19	354.40	32.72	-23.5	-24.5	19.5	0.00e+00	0	44	0	2809135104	7	4031
2026-01-21 12:01:54.19	354.28	32.52	-23.5	-24.5	19.5	0.00e+00	0	44	0	2814377984	7	4033
2026-01-21 12:01:55.20	354.15	32.32	-23.5	-24.5	19.4	0.00e+00	0	44	0	2820669440	7	4029
2026-01-21 12:01:56.20	354.04	32.13	-23.6	-24.7	19.3	0.00e+00	0	44	0	2825912320	7	4074
2026-01-21 12:01:57.21	353.92	31.93	-23.5	-24.5	19.4	0.00e+00	0	44	0	2832203776	7	4028
2026-01-21 12:01:58.22	353.80	31.74	-23.5	-24.5	19.5	0.00e+00	0	44	0	2837446656	7	4023
2026-01-21 12:01:59.23	353.68	31.54	-23.6	-24.7	19.3	0.00e+00	0	44	0	2843738112	7	4070
2026-01-21 12:02:00.22	353.57	31.35	-23.6	-24.6	19.4	0.00e+00	0	44	0	2848980992	7	4059
2026-01-21 12:02:01.22	353.46	31.17	-23.7	-24.9	19.2	0.00e+00	0	44	0	2854223872	7	4132
2026-01-21 12:02:02.23	353.35	30.98	-23.5	-24.4	19.5	0.00e+00	0	44	0	2860515328	7	4012
2026-01-21 12:02:03.24	353.24	30.79	-23.3	-24.1	19.6	0.00e+00	0	44	0	2865758208	7	3933
2026-01-21 12:02:04.25	353.13	30.60	-23.3	-24.1	19.6	0.00e+00	0	44	0	2871001088	7	3940
2026-01-21 12:02:05.25	353.02	30.41	-23.4	-24.3	19.5	0.00e+00	0	44	0	2877292544	7	3983
2026-01-21 12:02:06.25	352.91	30.23	-23.4	-24.3	19.5	0.00e+00	0	44	0	2882535424	7	3980
2026-01-21 12:02:07.25	352.81	30.05	-23.6	-24.6	19.4	0.00e+00	0	44	0	2887778304	7	4049
2026-01-21 12:02:08.25	352.71	29.87	-23.7	-24.9	19.2	0.00e+00	0	44	0	2894069760	7	4128
2026-01-21 12:02:09.26	352.60	29.68	-23.7	-24.9	19.3	0.00e+00	0	44	0	2899312640	7	4118
2026-01-21 12:02:10.26	352.50	29.51	-23.7	-25.0	19.2	0.00e+00	0	44	0	2905604096	7	4147
2026-01-21 12:02:11.26	352.40	29.33	-23.7	-24.9	19.2	0.00e+00	0	44	0	2910846976	7	4139
2026-01-21 12:02:12.27	352.30	29.15	-23.8	-25.0	19.1	0.00e+00	0	44	0	2916089856	7	4163
2026-01-21 12:02:13.27	352.21	28.97	-23.8	-25.0	19.1	0.00e+00	0	44	0	2922381312	7	4155
2026-01-21 12:02:14.28	352.11	28.79	-23.7	-24.9	19.2	0.00e+00	0	44	0	2927624192	7	4117
2026-01-21 12:02:15.28	352.01	28.62	-23.7	-24.8	19.2	0.00e+00	0	44	0	2933915648	7	4106
2026-01-21 12:02:16.28	351.92	28.45	-23.7	-24.8	19.3	0.00e+00	0	44	0	2939158528	7	4095
2026-01-21 12:02:17.29	351.83	28.27	-23.7	-24.8	19.2	0.00e+00	0	44	0	2944401408	7	4096
2026-01-21 12:02:18.29	351.73	28.10	-23.6	-24.6	19.3	0.00e+00	0	44	0	2950692864	7	4061
2026-01-21 12:02:19.30	351.64	27.93	-23.6	-24.7	19.3	0.00e+00	0	44	0	2955935744	7	4079
2026-01-21 12:02:20.30	351.55	27.76	-23.6	-24.7	19.3	0.00e+00	0	44	0	2961178624	7	4080
2026-01-21 12:02:21.30	351.46	27.59	-23.5	-24.5	19.4	0.00e+00	0	44	0	2967470080	7	4020
2026-01-21 12:02:22.30	351.37	27.42	-23.6	-24.6	19.4	0.00e+00	0	44	0	2972712960	7	4047
2026-01-21 12:02:23.30	351.29	27.26	-23.6	-24.6	19.3	0.00e+00	0	44	0	2979004416	7	4051
2026-01-21 12:02:24.30	351.20	27.09	-23.5	-24.5	19.4	0.00e+00	0	44	0	2984247296	7	4038
2026-01-21 12:02:25.30	351.12	26.93	-23.6	-24.7	19.3	0.00e+00	0	44	0	2989490176	7	4068
2026-01-21 12:02:26.30	351.03	26.76	-23.7	-24.8	19.2	0.00e+00	0	44	0	2995781632	7	4097
2026-01-21 12:02:27.31	350.95	26.60	-23.7	-24.8	19.2	0.00e+00	0	44	0	3001024512	7	4116
2026-01-21 12:02:28.32	350.86	26.44	-23.8	-25.0	19.1	0.00e+00	0	44	0	3006267392	7	4157
2026-01-21 12:02:29.32	350.78	26.27	-23.8	-25.0	19.1	0.00e+00	0	44	0	3012558848	7	4160
2026-01-21 12:02:30.33	350.70	26.11	-23.8	-25.1	19.0	0.00e+00	0	44	0	3017801728	7	4190
2026-01-21 12:02:31.33	350.62	25.95	-23.7	-25.0	19.1	0.00e+00	0	44	0	3024093184	7	4147
2026-01-21 12:02:32.34	350.54	25.79	-23.8	-25.0	19.1	0.00e+00	0	44	0	3029336064	7	4155
2026-01-21 12:02:33.34	350.46	25.64	-23.8	-25.1	19.0	0.00e+00	0	44	0	3034578944	7	4176
2026-01-21 12:02:34.33	350.39	25.48	-23.8	-25.1	19.0	0.00e+00	0	44	0	3040870400	7	4173
2026-01-21 12:02:35.34	350.31	25.32	-23.7	-24.9	19.2	0.00e+00	0	44	0	3046113280	7	4113
2026-01-21 12:02:36.34	350.23	25.17	-23.8	-25.0	19.1	0.00e+00	0	44	0	3052404736	7	4144
2026-01-21 12:02:37.35	350.16	25.01	-23.8	-25.2	19.0	0.00e+00	0	44	0	3057647616	7	4188
2026-01-21 12:02:38.35	350.08	24.86	-23.9	-25.2	19.0	0.00e+00	0	44	0	3062890496	7	4199
2026-01-21 12:02:39.35	350.01	24.71	-23.9	-25.2	19.0	0.00e+00	0	44	0	3069181952	7	4206
2026-01-21 12:02:40.36	349.93	24.56	-23.9	-25.3	18.9	0.00e+00	0	44	0	3074424832	7	4229
2026-01-21 12:02:41.37	349.86	24.40	-24.0	-25.1	18.8	0.00e+00	0	44	0	3079667712	8	4052
2026-01-21 12:02:42.37	349.79	24.25	-24.1	-25.3	18.7	0.00e+00	0	44	0	3085959168	8	4102
2026-01-21 12:02:43.38	349.72	24.10	-24.2	-25.5	18.6	0.00e+00	0	44	0	3091202048	8	4158
2026-01-21 12:02:44.38	349.65	23.95	-24.2	-25.5	18.6	0.00e+00	0	44	0	3097493504	8	4175
2026-01-21 12:02:45.38	349.58	23.81	-24.3	-25.8	18.5	0.00e+00	0	44	0	3102736384	8	4235
2026-01-21 12:02:46.39	349.51	23.66	-24.4	-25.8	18.4	0.00e+00	0	44	0	3107979264	8	4239
2026-01-21 12:02:47.38	349.44	23.51	-24.4	-26.0	18.3	0.00e+00	0	44	0	3114270720	8	4284
2026-01-21 12:02:48.39	349.38	23.37	-24.7	-26.0	18.0	0.00e+00	0	44	0	3119513600	9	4193
2026-01-21 12:02:49.38	349.31	23.22	-24.8	-26.2	18.0	0.00e+00	0	44	0	3125805056	9	4232
2026-01-21 12:02:50.39	349.24	23.08	-24.5	-25.6	18.2	0.00e+00	0	44	0	3131047936	9	4088
2026-01-21 12:02:51.39	349.18	22.94	-24.4	-25.3	18.4	0.00e+00	0	44	0	3136290816	9	4011
2026-01-21 12:02:52.40	349.11	22.79	-24.4	-25.3	18.4	0.00e+00	0	44	0	3142582272	9	3999
2026-01-21 12:02:53.40	349.05	22.65	-24.4	-25.3	18.4	0.00e+00	0	44	0	3147825152	9	4014
2026-01-21 12:02:54.40	348.98	22.51	-24.3	-25.1	18.5	0.00e+00	0	44	0	3153068032	9	3957
2026-01-21 12:02:55.40	348.92	22.37	-24.3	-25.1	18.5	0.00e+00	0	44	0	3159359488	9	3961
2026-01-21 12:02:56.39	348.86	22.23	-24.2	-25.0	18.6	0.00e+00	0	44	0	3164602368	9	3929
2026-01-21 12:02:57.40	348.80	22.09	-24.3	-25.0	18.5	0.00e+00	0	44	0	3169845248	9	3939
2026-01-21 12:02:58.40	348.74	21.96	-24.3	-25.1	18.5	0.00e+00	0	44	0	3176136704	9	3944
2026-01-21 12:02:59.39	348.68	21.82	-24.2	-25.0	18.5	0.00e+00	0	44	0	3181379584	9	3920
2026-01-21 12:03:00.39	348.62	21.68	-24.3	-25.1	18.5	0.00e+00	0	44	0	3187671040	9	3953
2026-01-21 12:03:01.40	348.56	21.55	-24.3	-25.1	18.4	0.00e+00	0	44	0	3192913920	9	3963
2026-01-21 12:03:02.41	348.50	21.41	-24.4	-25.3	18.4	0.00e+00	0	44	0	3198156800	9	4006
2026-01-21 12:03:03.42	348.44	21.28	-24.4	-25.4	18.3	0.00e+00	0	44	0	3204448256	9	4032
2026-01-21 12:03:04.42	348.38	21.14	-24.4	-25.4	18.3	0.00e+00	0	44	0	3209691136	9	4039
2026-01-21 12:03:05.43	348.32	21.01	-24.5	-25.5	18.2	0.00e+00	0	44	0	3215982592	9	4062
2026-01-21 12:03:06.43	348.27	20.88	-24.5	-25.7	18.1	0.00e+00	0	44	0	3221225472	9	4092
2026-01-21 12:03:07.44	348.21	20.74	-24.5	-25.7	18.1	0.00e+00	0	44	0	3226468352	9	4096
2026-01-21 12:03:08.44	348.15	20.61	-24.6	-25.8	18.1	0.00e+00	0	44	0	3232759808	9	4131
2026-01-21 12:03:09.45	348.10	20.48	-24.7	-25.9	18.0	0.00e+00	0	44	0	3238002688	9	4152
2026-01-21 12:03:10.45	348.04	20.35	-24.7	-25.9	18.0	0.00e+00	0	44	0	3243245568	9	4164
2026-01-21 12:03:11.45	347.99	20.22	-24.8	-26.1	17.9	0.00e+00	0	44	0	3249537024	9	4209
2026-01-21 12:03:12.45	347.94	20.09	-24.7	-26.1	17.9	0.00e+00	0	44	0	3254779904	9	4203
2026-01-21 12:03:13.45	347.88	19.97	-24.8	-26.2	17.9	0.00e+00	0	44	0	3261071360	9	4223
2026-01-21 12:03:14.46	347.83	19.84	-24.8	-26.3	17.8	0.00e+00	0	44	0	3266314240	9	4260
2026-01-21 12:03:15.46	347.78	19.71	-24.9	-26.4	17.7	0.00e+00	0	44	0	3271557120	9	4271
2026-01-21 12:03:16.47	347.72	19.58	-24.9	-26.4	17.7	0.00e+00	0	44	0	3277848576	9	4283
2026-01-21 12:03:17.48	347.67	19.46	-24.9	-26.4	17.7	0.00e+00	0	44	0	3283091456	9	4297
2026-01-21 12:03:18.48	347.62	19.33	-24.9	-26.4	17.7	0.00e+00	0	44	0	3289382912	9	4277
2026-01-21 12:03:19.48	347.57	19.21	-24.9	-26.5	17.7	0.00e+00	0	44	0	3294625792	9	4298
2026-01-21 12:03:20.49	347.52	19.09	-25.0	-26.6	17.6	0.00e+00	0	44	0	3299868672	9	4327
2026-01-21 12:03:21.49	347.47	18.96	-25.2	-26.5	17.4	0.00e+00	0	44	0	3306160128	10	4195
2026-01-21 12:03:22.49	347.42	18.84	-25.3	-26.7	17.3	0.00e+00	0	44	0	3311403008	10	4241
2026-01-21 12:03:23.49	347.37	18.72	-25.1	-26.4	17.4	0.00e+00	0	44	0	3316645888	10	4174
2026-01-21 12:03:24.49	347.33	18.60	-25.0	-26.2	17.5	0.00e+00	0	44	0	3322937344	10	4131
2026-01-21 12:03:25.49	347.28	18.48	-25.1	-26.3	17.5	0.00e+00	0	44	0	3328180224	10	4157
2026-01-21 12:03:26.49	347.23	18.36	-25.2	-26.5	17.4	0.00e+00	0	44	0	3334471680	10	4189
2026-01-21 12:03:27.48	347.18	18.24	-25.2	-26.6	17.3	0.00e+00	0	44	0	3339714560	10	4229
2026-01-21 12:03:28.48	347.14	18.12	-25.2	-26.5	17.3	0.00e+00	0	44	0	3344957440	10	4207
2026-01-21 12:03:29.48	347.09	18.00	-25.3	-26.7	17.2	0.00e+00	0	44	0	3351248896	10	4249
2026-01-21 12:03:30.48	347.04	17.88	-25.3	-26.9	17.1	0.00e+00	0	44	0	3356491776	10	4293
2026-01-21 12:03:31.48	347.00	17.77	-25.3	-26.8	17.1	0.00e+00	0	44	0	3361734656	10	4284
2026-01-21 12:03:32.48	346.95	17.65	-25.4	-26.9	17.1	0.00e+00	0	44	0	3368026112	10	4310
2026-01-21 12:03:33.48	346.91	17.53	-25.4	-27.0	17.1	0.00e+00	0	44	0	3373268992	10	4343
2026-01-21 12:03:34.49	346.86	17.42	-25.5	-27.2	17.0	0.00e+00	0	44	0	3378511872	10	4377
2026-01-21 12:03:35.49	346.82	17.30	-25.5	-27.1	17.0	0.00e+00	0	44	0	3384803328	10	4372
2026-01-21 12:03:36.49	346.78	17.19	-25.6	-26.9	16.8	0.00e+00	0	44	0	3390046208	11	4191
2026-01-21 12:03:37.50	346.73	17.07	-25.5	-26.7	17.0	0.00e+00	0	44	0	3396337664	11	4141
2026-01-21 12:03:38.50	346.69	16.96	-25.7	-27.1	16.7	0.00e+00	0	44	0	3401580544	11	4250
2026-01-21 12:03:39.50	346.65	16.85	-25.6	-27.0	16.8	0.00e+00	0	44	0	3406823424	11	4207
2026-01-21 12:03:40.51	346.60	16.73	-25.6	-26.9	16.8	0.00e+00	0	44	0	3413114880	11	4204
2026-01-21 12:03:41.51	346.56	16.62	-25.6	-27.0	16.8	0.00e+00	0	44	0	3418357760	11	4224
2026-01-21 12:03:42.51	346.52	16.51	-25.6	-27.0	16.8	0.00e+00	0	44	0	3423600640	11	4207
2026-01-21 12:03:43.52	346.48	16.40	-25.7	-27.2	16.6	0.00e+00	0	44	0	3429892096	11	4279
2026-01-21 12:03:44.52	346.44	16.29	-25.7	-27.1	16.6	0.00e+00	0	44	0	3435134976	11	4253
2026-01-21 12:03:45.52	346.40	16.18	-25.7	-27.1	16.7	0.00e+00	0	44	0	3440377856	11	4256
2026-01-21 12:03:46.52	346.36	16.07	-25.7	-27.2	16.6	0.00e+00	0	44	0	3446669312	11	4286
2026-01-21 12:03:47.53	346.32	15.96	-25.7	-27.3	16.6	0.00e+00	0	44	0	3451912192	11	4304
2026-01-21 12:03:48.52	346.28	15.85	-25.8	-27.4	16.5	0.00e+00	0	44	0	3458203648	11	4335
2026-01-21 12:03:49.53	346.24	15.74	-26.0	-27.8	16.3	0.00e+00	0	44	0	3463446528	11	4425
2026-01-21 12:03:50.53	346.20	15.63	-25.9	-27.7	16.3	0.00e+00	0	44	0	3469737984	11	4410
2026-01-21 12:03:51.52	346.16	15.53	-25.9	-27.2	16.2	0.00e+00	0	44	0	3474980864	12	4174
2026-01-21 12:03:52.53	346.12	15.42	-25.8	-27.0	16.4	0.00e+00	0	44	0	3480223744	12	4107
2026-01-21 12:03:53.53	346.08	15.31	-25.8	-27.0	16.4	0.00e+00	0	44	0	3486515200	12	4110
2026-01-21 12:03:54.54	346.05	15.21	-25.8	-27.0	16.4	0.00e+00	0	44	0	3491758080	12	4105
2026-01-21 12:03:55.54	346.01	15.10	-25.9	-27.1	16.3	0.00e+00	0	44	0	3497000960	12	4142
2026-01-21 12:03:56.55	345.97	14.99	-25.9	-27.0	16.3	0.00e+00	0	44	0	3503292416	12	4125
2026-01-21 12:03:57.56	345.93	14.89	-25.9	-27.1	16.3	0.00e+00	0	44	0	3508535296	12	4149
2026-01-21 12:03:58.56	345.90	14.79	-25.9	-27.1	16.3	0.00e+00	0	44	0	3513778176	12	4135
2026-01-21 12:03:59.57	345.86	14.68	-25.9	-27.1	16.2	0.00e+00	0	44	0	3520069632	12	4146
2026-01-21 12:04:00.58	345.82	14.58	-25.9	-27.2	16.2	0.00e+00	0	44	0	3525312512	12	4170
2026-01-21 12:04:01.58	345.79	14.47	-26.0	-27.3	16.1	0.00e+00	0	44	0	3531603968	12	4195
2026-01-21 12:04:02.59	345.75	14.37	-26.1	-27.5	16.0	0.00e+00	0	44	0	3536846848	12	4247
2026-01-21 12:04:03.59	345.72	14.27	-26.1	-27.6	16.0	0.00e+00	0	44	0	3543138304	12	4274
2026-01-21 12:04:04.59	345.68	14.17	-26.1	-27.6	15.9	0.00e+00	0	44	0	3548381184	12	4280
2026-01-21 12:04:05.59	345.65	14.07	-26.1	-27.6	16.0	0.00e+00	0	44	0	3553624064	12	4263
2026-01-21 12:04:06.60	345.61	13.96	-25.9	-27.2	16.1	0.00e+00	0	44	0	3559915520	12	4180
2026-01-21 12:04:07.61	345.58	13.86	-26.0	-27.3	16.1	0.00e+00	0	44	0	3565158400	12	4182
2026-01-21 12:04:08.61	345.54	13.76	-26.0	-27.3	16.1	0.00e+00	0	44	0	3570401280	12	4188
2026-01-21 12:04:09.61	345.51	13.66	-26.0	-27.3	16.1	0.00e+00	0	44	0	3576692736	12	4188
2026-01-21 12:04:10.62	345.48	13.56	-26.0	-27.3	16.0	0.00e+00	0	44	0	3581935616	12	4191
2026-01-21 12:04:11.62	345.44	13.46	-25.9	-27.2	16.1	0.00e+00	0	44	0	3587178496	12	4174
2026-01-21 12:04:12.63	345.41	13.37	-25.8	-27.0	16.2	0.00e+00	0	44	0	3593469952	12	4124
2026-01-21 12:04:13.63	345.38	13.27	-26.0	-27.3	16.0	0.00e+00	0	44	0	3598712832	12	4201
2026-01-21 12:04:14.64	345.35	13.17	-26.0	-27.2	16.0	0.00e+00	0	44	0	3605004288	12	4179
2026-01-21 12:04:15.64	345.31	13.07	-26.0	-27.3	16.0	0.00e+00	0	44	0	3610247168	12	4203
2026-01-21 12:04:16.64	345.28	12.98	-26.0	-27.3	16.0	0.00e+00	0	44	0	3616538624	12	4189
2026-01-21 12:04:17.64	345.25	12.88	-26.0	-27.4	15.9	0.00e+00	0	44	0	3621781504	12	4217
2026-01-21 12:04:18.63	345.22	12.78	-26.0	-27.4	15.9	0.00e+00	0	44	0	3627024384	12	4223
2026-01-21 12:04:19.64	345.19	12.69	-26.0	-27.4	15.9	0.00e+00	0	44	0	3633315840	12	4218
2026-01-21 12:04:20.64	345.16	12.59	-26.0	-27.4	15.9	0.00e+00	0	44	0	3638558720	12	4207
2026-01-21 12:04:21.65	345.13	12.50	-26.1	-27.7	15.8	0.00e+00	0	44	0	3643801600	12	4287
2026-01-21 12:04:22.66	345.09	12.40	-26.2	-27.7	15.8	0.00e+00	0	44	0	3650093056	12	4301
2026-01-21 12:04:23.66	345.06	12.31	-26.3	-28.1	15.5	0.00e+00	0	44	0	3655335936	12	4405
2026-01-21 12:04:24.66	345.03	12.21	-26.3	-28.1	15.5	0.00e+00	0	44	0	3660578816	12	4410
2026-01-21 12:04:25.67	345.00	12.12	-26.3	-27.9	15.6	0.00e+00	0	44	0	3666870272	12	4356
2026-01-21 12:04:26.67	344.97	12.03	-26.3	-28.0	15.6	1.10e-06	0	44	0	3672113152	12	4373
2026-01-21 12:04:27.67	344.94	11.93	-26.2	-27.9	15.6	1.10e-06	0	44	0	3678404608	12	4354
2026-01-21 12:04:28.68	344.92	11.84	-26.3	-28.1	15.5	0.00e+00	0	44	0	3683647488	12	4407
2026-01-21 12:04:29.68	344.89	11.75	-26.4	-28.3	15.4	1.10e-06	0	44	0	3689938944	12	4456
2026-01-21 12:04:30.68	344.86	11.66	-26.3	-28.1	15.5	0.00e+00	0	44	0	3695181824	12	4420
2026-01-21 12:04:31.69	344.83	11.56	-26.5	-28.0	15.3	0.00e+00	0	44	0	3700424704	13	4264
2026-01-21 12:04:32.70	344.80	11.47	-26.5	-27.9	15.3	0.00e+00	0	44	0	3706716160	13	4256
2026-01-21 12:04:33.70	344.77	11.38	-26.5	-27.9	15.3	0.00e+00	0	44	0	3711959040	13	4243
2026-01-21 12:04:34.70	344.74	11.29	-26.5	-28.1	15.2	0.00e+00	0	44	0	3717201920	13	4296
2026-01-21 12:04:35.71	344.72	11.20	-26.4	-27.8	15.3	0.00e+00	0	44	0	3723493376	13	4229
2026-01-21 12:04:36.72	344.69	11.11	-26.7	-28.3	15.1	1.10e-06	0	44	0	3728736256	13	4376
2026-01-21 12:04:37.72	344.66	11.02	-26.6	-28.1	15.2	1.10e-06	0	44	0	3735027712	13	4313
2026-01-21 12:04:38.73	344.63	10.93	-26.7	-28.4	15.0	1.10e-06	0	44	0	3740270592	13	4389
2026-01-21 12:04:39.72	344.61	10.84	-26.7	-28.4	15.0	0.00e+00	0	44	0	3745513472	13	4381
2026-01-21 12:04:40.72	344.58	10.75	-26.8	-28.6	14.9	0.00e+00	0	44	0	3751804928	13	4451
2026-01-21 12:04:41.73	344.55	10.66	-26.6	-28.2	15.1	0.00e+00	0	44	0	3757047808	13	4336
2026-01-21 12:04:42.73	344.53	10.58	-26.8	-28.8	14.8	0.00e+00	0	44	0	3763339264	13	4493
2026-01-21 12:04:43.74	344.50	10.49	-26.8	-28.7	14.8	0.00e+00	0	44	0	3768582144	13	4482
2026-01-21 12:04:44.75	344.47	10.40	-26.8	-28.6	14.8	0.00e+00	0	44	0	3773825024	13	4454
2026-01-21 12:04:45.75	344.45	10.31	-26.8	-28.6	14.9	1.10e-06	0	44	0	3780116480	13	4444
2026-01-21 12:04:46.75	344.42	10.22	-26.9	-28.9	14.7	0.00e+00	0	44	0	3785359360	13	4530
2026-01-21 12:04:47.76	344.40	10.14	-27.0	-29.1	14.6	0.00e+00	0	44	0	3790602240	13	4580
2026-01-21 12:04:48.76	344.37	10.05	-27.1	-28.8	14.5	0.00e+00	0	44	0	3796893696	14	4398
2026-01-21 12:04:49.77	344.34	9.96	-27.1	-28.8	14.5	0.00e+00	0	44	0	3802136576	14	4384
2026-01-21 12:04:50.77	344.32	9.88	-27.0	-28.6	14.5	0.00e+00	0	44	0	3807379456	14	4344
2026-01-21 12:04:51.77	344.29	9.79	-27.1	-29.0	14.4	0.00e+00	0	44	0	3813670912	14	4437
2026-01-21 12:04:52.78	344.27	9.71	-26.8	-28.3	14.7	0.00e+00	0	44	0	3818913792	14	4239
2026-01-21 12:04:53.78	344.24	9.62	-27.0	-28.7	14.5	0.00e+00	0	44	0	3825205248	14	4349
2026-01-21 12:04:54.78	344.22	9.54	-26.9	-28.4	14.7	0.00e+00	0	44	0	3830448128	14	4265
2026-01-21 12:04:55.78	344.20	9.46	-27.1	-28.8	14.4	1.10e-06	0	44	0	3836739584	14	4404
2026-01-21 12:04:56.78	344.17	9.37	-27.0	-28.7	14.5	0.00e+00	0	44	0	3841982464	14	4355
2026-01-21 12:04:57.78	344.15	9.29	-27.0	-28.6	14.5	0.00e+00	0	44	0	3847225344	14	4348
2026-01-21 12:04:58.79	344.12	9.20	-27.2	-29.1	14.2	0.00e+00	0	44	0	3853516800	14	4481
