passes_logs/2026/01/21/R2M6_AANII_01/R2M6_AANII_01__20260121_133431_FENGYUN_3D_rec.log

#Pass ID: 20260121_133431_FENGYUN 3D
#Satellite: FENGYUN 3D
#Configuration: FENGYUN 3D
#almurnet v.1.7.20240730
#Start time: 2026-01-21 13:34:32

#Version: 2.2.20231116
#Station: R2M6_AANII_01
#Location: 30.233357 lon 59.946436 lat
#TLE: 1 43010U 17072A   26020.92362722 -.00000077  00000+0 -14488-4 0  9992
#TLE: 2 43010  98.9946 352.8312 0002486  99.3651 260.7806 14.19696535424099

#Time	Az	El	Level	Level2	SNR	BER	BlckErr	Temp	State	Recorded	gain1	gain2
2026-01-21 13:34:32.87	198.66	7.12	-28.0	-30.0	5.7	7.65e-01	0	42	0	0	16	4548
2026-01-21 13:34:33.87	198.74	7.19	-28.5	-30.7	5.7	7.69e-01	0	42	104	0	17	4650
2026-01-21 13:34:34.87	198.81	7.26	-28.5	-30.8	12.1	1.77e-04	0	42	0	0	17	4701
2026-01-21 13:34:35.88	198.88	7.33	-28.9	-31.8	11.5	5.18e-04	0	42	0	5242880	17	5012
2026-01-21 13:34:36.88	198.96	7.40	-28.7	-31.2	11.9	4.94e-04	0	42	0	11534336	17	4807
2026-01-21 13:34:37.88	199.03	7.47	-28.2	-30.1	12.6	7.43e-05	0	42	0	16777216	17	4464
2026-01-21 13:34:38.88	199.11	7.54	-28.0	-29.5	12.9	2.86e-05	0	42	0	22020096	17	4294
2026-01-21 13:34:39.88	199.18	7.61	-27.9	-29.2	13.2	2.74e-05	0	42	0	28311552	17	4186
2026-01-21 13:34:40.89	199.26	7.68	-27.7	-29.3	13.4	1.14e-05	0	42	0	33554432	16	4344
2026-01-21 13:34:41.89	199.34	7.75	-27.6	-29.2	13.5	1.25e-05	0	42	0	38797312	16	4293
2026-01-21 13:34:42.89	199.41	7.82	-27.9	-29.7	13.2	1.02e-05	0	42	0	45088768	16	4457
2026-01-21 13:34:43.89	199.49	7.90	-27.8	-29.6	13.3	1.25e-05	0	42	0	50331648	16	4409
2026-01-21 13:34:44.90	199.57	7.97	-27.5	-28.8	13.7	1.02e-05	0	42	0	55574528	16	4192
2026-01-21 13:34:45.90	199.65	8.04	-27.6	-29.0	13.7	5.70e-06	0	42	0	61865984	16	4229
2026-01-21 13:34:46.90	199.72	8.11	-27.5	-28.8	13.7	1.10e-06	0	42	0	67108864	16	4185
2026-01-21 13:34:47.91	199.80	8.18	-27.5	-28.8	13.8	5.70e-06	0	42	0	73400320	16	4183
2026-01-21 13:34:48.91	199.88	8.26	-27.0	-28.2	14.3	1.10e-06	0	42	0	78643200	15	4121
2026-01-21 13:34:49.92	199.96	8.33	-27.3	-28.9	13.9	0.00e+00	0	42	0	83886080	15	4320
2026-01-21 13:34:50.91	200.04	8.40	-27.2	-28.5	14.1	1.14e-05	0	42	0	90177536	15	4221
2026-01-21 13:34:51.92	200.12	8.47	-27.0	-28.2	14.2	0.00e+00	0	42	0	95420416	15	4132
2026-01-21 13:34:52.92	200.20	8.55	-27.0	-28.2	14.3	0.00e+00	0	42	0	100663296	15	4126
2026-01-21 13:34:53.92	200.28	8.62	-26.7	-28.1	14.7	0.00e+00	0	42	0	106954752	14	4194
2026-01-21 13:34:54.92	200.36	8.69	-27.0	-28.6	14.4	0.00e+00	0	42	0	112197632	14	4345
2026-01-21 13:34:55.93	200.44	8.77	-27.0	-28.6	14.4	3.40e-06	0	42	0	118489088	14	4330
2026-01-21 13:34:56.94	200.53	8.84	-26.8	-28.3	14.5	5.70e-06	0	42	0	123731968	14	4259
2026-01-21 13:34:57.94	200.61	8.92	-27.1	-28.8	14.2	0.00e+00	0	42	0	128974848	14	4402
2026-01-21 13:34:58.95	200.69	8.99	-26.9	-28.4	14.5	0.00e+00	0	42	0	135266304	14	4289
2026-01-21 13:34:59.96	200.77	9.06	-26.8	-28.1	14.7	1.10e-06	0	42	0	140509184	14	4193
2026-01-21 13:35:00.96	200.86	9.14	-26.7	-28.0	14.7	0.00e+00	0	42	0	146800640	14	4180
2026-01-21 13:35:01.97	200.94	9.21	-26.7	-27.9	14.8	0.00e+00	0	42	0	152043520	14	4146
2026-01-21 13:35:02.97	201.03	9.29	-26.8	-28.1	14.7	0.00e+00	0	42	0	157286400	14	4198
2026-01-21 13:35:03.97	201.11	9.36	-26.8	-28.2	14.6	0.00e+00	0	43	0	163577856	14	4240
2026-01-21 13:35:04.97	201.20	9.44	-26.7	-27.9	14.8	0.00e+00	0	43	0	168820736	14	4151
2026-01-21 13:35:05.97	201.28	9.51	-26.5	-27.5	15.1	0.00e+00	0	43	0	174063616	14	4039
2026-01-21 13:35:06.97	201.37	9.59	-26.8	-28.1	14.7	0.00e+00	0	43	0	180355072	14	4214
2026-01-21 13:35:07.97	201.45	9.66	-26.7	-27.9	14.9	0.00e+00	0	43	0	185597952	14	4156
2026-01-21 13:35:08.97	201.54	9.74	-26.6	-27.8	14.9	0.00e+00	0	43	0	190840832	14	4130
2026-01-21 13:35:09.98	201.63	9.82	-26.6	-27.7	15.0	0.00e+00	0	43	0	197132288	14	4096
2026-01-21 13:35:10.98	201.72	9.89	-26.6	-27.7	15.0	0.00e+00	0	42	0	202375168	14	4089
2026-01-21 13:35:11.98	201.80	9.97	-26.7	-27.9	14.9	0.00e+00	0	43	0	208666624	14	4160
2026-01-21 13:35:12.99	201.89	10.04	-26.7	-27.9	14.9	0.00e+00	0	43	0	213909504	14	4152
2026-01-21 13:35:13.99	201.98	10.12	-26.5	-27.5	15.1	0.00e+00	0	43	0	220200960	14	4054
2026-01-21 13:35:15.00	202.07	10.20	-26.6	-27.7	15.0	0.00e+00	0	43	0	225443840	14	4108
2026-01-21 13:35:16.00	202.16	10.27	-26.5	-27.4	15.2	0.00e+00	0	43	0	230686720	14	4024
2026-01-21 13:35:17.00	202.25	10.35	-26.6	-27.8	15.0	0.00e+00	0	43	0	236978176	14	4117
2026-01-21 13:35:18.00	202.34	10.43	-26.5	-27.6	15.1	0.00e+00	0	43	0	242221056	14	4075
2026-01-21 13:35:19.01	202.43	10.51	-26.4	-27.4	15.2	0.00e+00	0	43	0	247463936	14	4022
2026-01-21 13:35:20.01	202.53	10.58	-26.7	-28.0	14.9	0.00e+00	0	43	0	253755392	14	4162
2026-01-21 13:35:21.01	202.62	10.66	-26.5	-27.5	15.2	1.10e-06	0	43	0	258998272	14	4047
2026-01-21 13:35:22.02	202.71	10.74	-26.3	-27.1	15.4	0.00e+00	0	43	0	264241152	14	3928
2026-01-21 13:35:23.02	202.80	10.82	-26.2	-27.4	15.5	0.00e+00	0	43	0	270532608	13	4110
2026-01-21 13:35:24.03	202.90	10.90	-26.2	-27.3	15.6	0.00e+00	0	43	0	275775488	13	4082
2026-01-21 13:35:25.03	202.99	10.98	-26.3	-27.6	15.4	0.00e+00	0	43	0	282066944	13	4172
2026-01-21 13:35:26.04	203.09	11.06	-26.1	-27.2	15.6	0.00e+00	0	43	0	287309824	13	4062
2026-01-21 13:35:27.05	203.18	11.14	-26.2	-27.3	15.6	0.00e+00	0	43	0	293601280	13	4102
2026-01-21 13:35:28.04	203.28	11.21	-26.2	-27.3	15.6	0.00e+00	0	43	0	298844160	13	4089
2026-01-21 13:35:29.05	203.38	11.29	-26.2	-27.4	15.6	0.00e+00	0	43	0	304087040	13	4106
2026-01-21 13:35:30.05	203.47	11.37	-26.4	-27.7	15.4	0.00e+00	0	43	0	310378496	13	4209
2026-01-21 13:35:31.05	203.57	11.45	-26.3	-27.6	15.4	0.00e+00	0	43	0	315621376	13	4171
2026-01-21 13:35:32.06	203.67	11.53	-26.4	-27.8	15.3	0.00e+00	0	43	0	320864256	13	4222
2026-01-21 13:35:33.06	203.77	11.61	-26.2	-27.3	15.6	0.00e+00	0	43	0	327155712	13	4096
2026-01-21 13:35:34.07	203.86	11.69	-26.3	-27.5	15.5	0.00e+00	0	43	0	332398592	13	4134
2026-01-21 13:35:35.06	203.96	11.77	-26.5	-27.9	15.3	0.00e+00	0	43	0	337641472	13	4249
2026-01-21 13:35:36.06	204.06	11.85	-26.2	-27.3	15.6	0.00e+00	0	43	0	343932928	13	4084
2026-01-21 13:35:37.07	204.16	11.94	-26.1	-27.2	15.7	0.00e+00	0	43	0	349175808	13	4053
2026-01-21 13:35:38.07	204.26	12.02	-26.1	-27.2	15.7	6.80e-06	0	43	0	355467264	13	4057
2026-01-21 13:35:39.07	204.37	12.10	-26.4	-27.7	15.4	0.00e+00	0	43	0	360710144	13	4197
2026-01-21 13:35:40.07	204.47	12.18	-26.1	-27.1	15.7	0.00e+00	0	43	0	365953024	13	4044
2026-01-21 13:35:41.08	204.57	12.26	-25.9	-26.6	16.1	2.20e-06	0	43	0	372244480	13	3909
2026-01-21 13:35:42.08	204.67	12.34	-25.8	-26.4	16.1	0.00e+00	0	43	0	377487360	13	3876
2026-01-21 13:35:43.08	204.78	12.42	-25.9	-26.6	16.0	0.00e+00	0	43	0	383778816	13	3926
2026-01-21 13:35:44.09	204.88	12.51	-25.8	-26.9	16.2	5.70e-06	0	43	0	389021696	12	4082
2026-01-21 13:35:45.09	204.99	12.59	-25.9	-27.2	16.0	0.00e+00	0	43	0	394264576	12	4161
2026-01-21 13:35:46.09	205.09	12.67	-25.9	-27.1	16.1	0.00e+00	0	43	0	400556032	12	4152
2026-01-21 13:35:47.09	205.20	12.75	-25.9	-27.2	16.0	1.10e-06	0	43	0	405798912	12	4167
2026-01-21 13:35:48.10	205.30	12.84	-26.1	-27.6	15.8	0.00e+00	0	43	0	411041792	12	4270
2026-01-21 13:35:49.11	205.41	12.92	-25.9	-27.2	16.0	0.00e+00	0	43	0	417333248	12	4176
2026-01-21 13:35:50.11	205.52	13.00	-25.8	-27.0	16.2	2.20e-06	0	43	0	422576128	12	4113
2026-01-21 13:35:51.12	205.63	13.09	-25.8	-26.9	16.3	0.00e+00	0	43	0	428867584	12	4084
2026-01-21 13:35:52.12	205.74	13.17	-25.7	-26.8	16.3	0.00e+00	0	43	0	434110464	12	4068
2026-01-21 13:35:53.12	205.84	13.26	-25.9	-27.2	16.1	4.50e-06	0	43	0	440401920	12	4160
2026-01-21 13:35:54.12	205.95	13.34	-25.8	-26.9	16.3	0.00e+00	0	43	0	445644800	12	4086
2026-01-21 13:35:55.13	206.07	13.43	-25.8	-26.9	16.3	0.00e+00	0	43	0	450887680	12	4080
2026-01-21 13:35:56.13	206.18	13.51	-25.9	-27.1	16.1	0.00e+00	0	43	0	457179136	12	4131
2026-01-21 13:35:57.14	206.29	13.60	-25.8	-26.8	16.3	0.00e+00	0	43	0	462422016	12	4069
2026-01-21 13:35:58.14	206.40	13.68	-25.8	-26.8	16.3	0.00e+00	0	43	0	467664896	12	4070
2026-01-21 13:35:59.14	206.51	13.76	-25.9	-27.1	16.2	0.00e+00	0	43	0	473956352	12	4132
2026-01-21 13:36:00.14	206.63	13.85	-25.8	-27.0	16.2	0.00e+00	0	43	0	479199232	12	4118
2026-01-21 13:36:01.14	206.74	13.94	-25.7	-26.8	16.3	0.00e+00	0	44	0	484442112	12	4060
2026-01-21 13:36:02.15	206.86	14.02	-25.7	-26.7	16.4	0.00e+00	0	43	0	490733568	12	4040
2026-01-21 13:36:03.15	206.97	14.11	-25.8	-26.9	16.3	0.00e+00	0	44	0	495976448	12	4084
2026-01-21 13:36:04.16	207.09	14.19	-25.8	-26.9	16.3	0.00e+00	0	43	0	502267904	12	4078
2026-01-21 13:36:05.16	207.21	14.28	-25.7	-26.8	16.3	0.00e+00	0	43	0	507510784	12	4059
2026-01-21 13:36:06.16	207.32	14.37	-26.0	-27.3	16.1	0.00e+00	0	43	0	512753664	12	4192
2026-01-21 13:36:07.16	207.44	14.45	-25.7	-26.7	16.4	0.00e+00	0	43	0	519045120	12	4037
2026-01-21 13:36:08.16	207.56	14.54	-25.8	-26.8	16.3	0.00e+00	0	44	0	524288000	12	4072
2026-01-21 13:36:09.16	207.68	14.63	-25.6	-26.6	16.5	0.00e+00	0	43	0	529530880	12	4009
2026-01-21 13:36:10.16	207.80	14.71	-25.6	-26.5	16.5	0.00e+00	0	43	0	535822336	12	3983
2026-01-21 13:36:11.16	207.92	14.80	-25.7	-26.7	16.4	0.00e+00	0	43	0	541065216	12	4049
2026-01-21 13:36:12.16	208.04	14.89	-25.5	-26.3	16.6	0.00e+00	0	44	0	546308096	12	3937
2026-01-21 13:36:13.16	208.16	14.98	-25.5	-26.3	16.6	0.00e+00	0	44	0	552599552	12	3942
2026-01-21 13:36:14.17	208.29	15.07	-25.6	-26.5	16.5	0.00e+00	0	44	0	557842432	12	3984
2026-01-21 13:36:15.17	208.41	15.15	-25.5	-26.2	16.7	0.00e+00	0	43	0	564133888	12	3910
2026-01-21 13:36:16.18	208.53	15.24	-25.3	-25.9	16.9	0.00e+00	0	43	0	569376768	12	3844
2026-01-21 13:36:17.18	208.66	15.33	-25.4	-26.0	16.8	0.00e+00	0	43	0	575668224	12	3860
2026-01-21 13:36:18.19	208.79	15.42	-25.5	-26.2	16.7	0.00e+00	0	43	0	580911104	12	3914
2026-01-21 13:36:19.20	208.91	15.51	-25.3	-25.9	16.9	0.00e+00	0	43	0	586153984	12	3848
2026-01-21 13:36:20.20	209.04	15.60	-25.4	-25.9	16.9	0.00e+00	0	44	0	592445440	12	3852
2026-01-21 13:36:21.21	209.17	15.69	-25.4	-26.1	16.8	0.00e+00	0	43	0	597688320	12	3896
2026-01-21 13:36:22.21	209.30	15.78	-25.4	-25.9	16.9	0.00e+00	0	43	0	602931200	12	3848
2026-01-21 13:36:23.22	209.43	15.87	-25.4	-26.0	16.9	0.00e+00	0	44	0	609222656	12	3859
2026-01-21 13:36:24.22	209.56	15.96	-25.3	-25.9	16.9	0.00e+00	0	44	0	614465536	12	3847
2026-01-21 13:36:25.22	209.69	16.05	-25.4	-26.1	16.8	0.00e+00	0	44	0	619708416	12	3892
2026-01-21 13:36:26.22	209.82	16.14	-25.4	-26.1	16.9	0.00e+00	0	43	0	625999872	12	3883
2026-01-21 13:36:27.23	209.95	16.23	-25.4	-26.1	16.8	0.00e+00	0	44	0	631242752	12	3899
2026-01-21 13:36:28.23	210.09	16.32	-25.4	-26.1	16.8	0.00e+00	0	44	0	637534208	12	3887
2026-01-21 13:36:29.23	210.22	16.41	-25.4	-26.1	16.8	0.00e+00	0	44	0	642777088	12	3885
2026-01-21 13:36:30.24	210.36	16.51	-25.3	-26.4	17.0	0.00e+00	0	44	0	649068544	11	4069
2026-01-21 13:36:31.24	210.49	16.60	-25.2	-26.1	17.2	0.00e+00	0	44	0	654311424	11	3995
2026-01-21 13:36:32.24	210.63	16.69	-25.2	-26.1	17.2	0.00e+00	0	44	0	659554304	11	3987
2026-01-21 13:36:33.25	210.77	16.78	-25.3	-26.4	17.0	0.00e+00	0	44	0	665845760	11	4053
2026-01-21 13:36:34.25	210.90	16.87	-25.2	-26.1	17.2	0.00e+00	0	44	0	671088640	11	3997
2026-01-21 13:36:35.24	211.04	16.96	-25.2	-26.1	17.2	0.00e+00	0	44	0	676331520	11	3986
2026-01-21 13:36:36.25	211.18	17.06	-25.2	-26.2	17.1	0.00e+00	0	44	0	682622976	11	4010
2026-01-21 13:36:37.24	211.32	17.15	-25.2	-26.1	17.2	3.40e-06	0	44	0	687865856	11	3988
2026-01-21 13:36:38.25	211.46	17.24	-25.3	-26.2	17.1	0.00e+00	0	44	0	693108736	11	4026
2026-01-21 13:36:39.26	211.61	17.34	-25.2	-26.1	17.2	0.00e+00	0	44	0	699400192	11	3978
2026-01-21 13:36:40.26	211.75	17.43	-25.2	-26.0	17.3	4.50e-06	0	44	0	704643072	11	3968
2026-01-21 13:36:41.26	211.89	17.52	-25.2	-26.1	17.2	0.00e+00	0	44	0	710934528	11	3999
2026-01-21 13:36:42.27	212.04	17.62	-25.2	-26.1	17.2	0.00e+00	0	44	0	716177408	11	3991
2026-01-21 13:36:43.27	212.19	17.71	-25.2	-26.1	17.2	0.00e+00	0	44	0	721420288	11	3997
2026-01-21 13:36:44.28	212.33	17.81	-25.3	-26.3	17.1	0.00e+00	0	44	0	727711744	11	4028
2026-01-21 13:36:45.29	212.48	17.90	-25.2	-26.1	17.2	0.00e+00	0	44	0	732954624	11	3993
2026-01-21 13:36:46.29	212.63	17.99	-25.3	-26.2	17.2	4.50e-06	0	44	0	739246080	11	4017
2026-01-21 13:36:47.29	212.78	18.09	-25.2	-26.1	17.2	0.00e+00	0	44	0	744488960	11	3998
2026-01-21 13:36:48.28	212.93	18.18	-25.1	-25.8	17.4	0.00e+00	0	44	0	749731840	11	3919
2026-01-21 13:36:49.29	213.08	18.28	-25.0	-25.7	17.5	9.10e-06	0	44	0	756023296	11	3891
2026-01-21 13:36:50.29	213.23	18.37	-25.0	-25.7	17.5	0.00e+00	0	44	0	761266176	11	3884
2026-01-21 13:36:51.30	213.39	18.47	-24.9	-25.5	17.6	0.00e+00	0	44	0	766509056	11	3844
2026-01-21 13:36:52.30	213.54	18.56	-25.0	-25.6	17.5	6.80e-06	0	44	0	772800512	11	3872
2026-01-21 13:36:53.31	213.70	18.66	-24.9	-25.4	17.7	0.00e+00	0	44	0	778043392	11	3811
2026-01-21 13:36:54.32	213.85	18.76	-24.8	-25.3	17.7	0.00e+00	0	44	0	784334848	11	3784
2026-01-21 13:36:55.33	214.01	18.85	-24.8	-25.3	17.7	0.00e+00	0	44	0	789577728	11	3797
2026-01-21 13:36:56.33	214.17	18.95	-24.8	-25.3	17.7	0.00e+00	0	44	0	795869184	11	3801
2026-01-21 13:36:57.33	214.33	19.05	-24.9	-25.4	17.7	0.00e+00	0	44	0	801112064	11	3811
2026-01-21 13:36:58.34	214.49	19.14	-24.8	-25.2	17.7	0.00e+00	0	44	0	806354944	11	3785
2026-01-21 13:36:59.35	214.65	19.24	-24.9	-25.4	17.7	0.00e+00	0	44	0	812646400	11	3808
2026-01-21 13:37:00.35	214.81	19.34	-24.7	-25.5	17.8	0.00e+00	0	44	0	817889280	10	3950
2026-01-21 13:37:01.35	214.97	19.43	-24.7	-25.6	17.8	4.50e-06	0	44	0	823132160	10	3970
2026-01-21 13:37:02.36	215.14	19.53	-24.8	-25.7	17.8	0.00e+00	0	44	0	829423616	10	3992
2026-01-21 13:37:03.36	215.30	19.63	-24.7	-25.6	17.9	0.00e+00	0	44	0	834666496	10	3968
2026-01-21 13:37:04.36	215.47	19.72	-24.8	-25.7	17.8	0.00e+00	0	44	0	839909376	10	4002
2026-01-21 13:37:05.36	215.63	19.82	-24.9	-25.9	17.7	0.00e+00	0	44	0	846200832	10	4044
2026-01-21 13:37:06.37	215.80	19.92	-24.8	-25.7	17.8	0.00e+00	0	44	0	851443712	10	3997
2026-01-21 13:37:07.37	215.97	20.02	-24.8	-25.8	17.7	0.00e+00	0	44	0	857735168	10	4013
2026-01-21 13:37:08.37	216.14	20.11	-24.6	-25.3	18.0	0.00e+00	0	44	0	862978048	10	3907
2026-01-21 13:37:09.37	216.31	20.21	-24.6	-25.3	18.0	0.00e+00	0	44	0	869269504	10	3894
2026-01-21 13:37:10.38	216.48	20.31	-24.6	-25.3	18.0	0.00e+00	0	44	0	874512384	10	3911
2026-01-21 13:37:11.39	216.66	20.41	-24.6	-25.2	18.1	0.00e+00	0	44	0	879755264	10	3873
2026-01-21 13:37:12.40	216.83	20.51	-24.6	-25.3	18.0	0.00e+00	0	44	0	886046720	10	3893
2026-01-21 13:37:13.41	217.01	20.61	-24.7	-25.4	17.9	0.00e+00	0	44	0	891289600	10	3930
2026-01-21 13:37:14.41	217.19	20.71	-24.7	-25.5	17.9	0.00e+00	0	44	0	896532480	10	3947
2026-01-21 13:37:15.41	217.36	20.81	-24.6	-25.3	18.0	0.00e+00	0	44	0	902823936	10	3895
2026-01-21 13:37:16.41	217.54	20.90	-24.6	-25.3	18.0	0.00e+00	0	44	0	908066816	10	3902
2026-01-21 13:37:17.42	217.72	21.00	-24.6	-25.3	18.0	0.00e+00	0	44	0	914358272	10	3893
2026-01-21 13:37:18.42	217.90	21.10	-24.6	-25.4	18.0	0.00e+00	0	44	0	919601152	10	3915
2026-01-21 13:37:19.42	218.08	21.20	-24.7	-25.5	17.9	0.00e+00	0	44	0	925892608	10	3941
2026-01-21 13:37:20.43	218.27	21.30	-24.6	-25.2	18.1	0.00e+00	0	44	0	931135488	10	3887
2026-01-21 13:37:21.43	218.45	21.40	-24.7	-25.4	18.0	0.00e+00	0	44	0	936378368	10	3935
2026-01-21 13:37:22.44	218.64	21.50	-24.7	-25.6	17.9	0.00e+00	0	44	0	942669824	10	3960
2026-01-21 13:37:23.45	218.83	21.60	-24.5	-25.1	18.2	0.00e+00	0	44	0	947912704	10	3860
2026-01-21 13:37:24.45	219.02	21.70	-24.6	-25.2	18.1	0.00e+00	0	44	0	953155584	10	3883
2026-01-21 13:37:25.46	219.21	21.80	-24.6	-25.3	18.1	0.00e+00	0	44	0	959447040	10	3894
2026-01-21 13:37:26.45	219.39	21.90	-24.7	-25.5	17.9	0.00e+00	0	44	0	964689920	10	3957
2026-01-21 13:37:27.46	219.59	22.00	-24.7	-25.6	17.9	0.00e+00	0	44	0	969932800	10	3969
2026-01-21 13:37:28.46	219.78	22.10	-24.4	-24.8	18.3	0.00e+00	0	44	0	976224256	10	3787
2026-01-21 13:37:29.47	219.97	22.20	-24.1	-24.7	18.6	0.00e+00	0	44	0	981467136	9	3870
2026-01-21 13:37:30.48	220.17	22.30	-24.0	-24.5	18.7	0.00e+00	0	44	0	987758592	9	3820
2026-01-21 13:37:31.48	220.37	22.40	-24.1	-24.7	18.7	0.00e+00	0	44	0	993001472	9	3855
2026-01-21 13:37:32.49	220.56	22.50	-24.1	-24.7	18.6	0.00e+00	0	44	0	999292928	9	3855
2026-01-21 13:37:33.49	220.76	22.60	-24.1	-24.7	18.6	4.50e-06	0	44	0	1004535808	9	3874
2026-01-21 13:37:34.50	220.96	22.71	-24.1	-24.7	18.6	0.00e+00	0	44	0	1009778688	9	3859
2026-01-21 13:37:35.50	221.17	22.81	-24.0	-24.6	18.7	0.00e+00	0	44	0	1016070144	9	3832
2026-01-21 13:37:36.51	221.37	22.91	-24.1	-24.7	18.7	2.20e-06	0	44	0	1021313024	9	3864
2026-01-21 13:37:37.51	221.57	23.01	-24.0	-24.6	18.7	0.00e+00	0	44	0	1026555904	9	3841
2026-01-21 13:37:38.51	221.78	23.11	-24.0	-24.4	18.8	0.00e+00	0	44	0	1032847360	9	3803
2026-01-21 13:37:39.52	221.99	23.21	-24.0	-24.5	18.8	0.00e+00	0	44	0	1038090240	9	3817
2026-01-21 13:37:40.53	222.19	23.31	-24.0	-24.5	18.8	0.00e+00	0	44	0	1043333120	9	3805
2026-01-21 13:37:41.53	222.40	23.41	-23.9	-24.4	18.8	0.00e+00	0	44	0	1049624576	9	3795
2026-01-21 13:37:42.53	222.61	23.51	-23.9	-24.4	18.8	2.20e-06	0	44	0	1054867456	9	3790
2026-01-21 13:37:43.53	222.82	23.61	-23.9	-24.3	18.9	0.00e+00	0	44	0	1061158912	9	3772
2026-01-21 13:37:44.53	223.04	23.71	-23.9	-24.3	18.9	0.00e+00	0	44	0	1066401792	9	3773
2026-01-21 13:37:45.54	223.25	23.81	-23.9	-24.3	18.8	4.50e-06	0	44	0	1072693248	9	3783
2026-01-21 13:37:46.54	223.47	23.91	-23.8	-24.1	19.0	0.00e+00	0	44	0	1077936128	9	3729
2026-01-21 13:37:47.55	223.69	24.01	-23.9	-24.2	18.9	0.00e+00	0	44	0	1083179008	9	3758
2026-01-21 13:37:48.55	223.90	24.11	-23.8	-24.1	19.0	4.50e-06	0	44	0	1089470464	9	3736
2026-01-21 13:37:49.55	224.12	24.21	-23.8	-24.6	19.0	0.00e+00	0	44	0	1094713344	8	3947
2026-01-21 13:37:50.55	224.34	24.31	-23.7	-24.4	19.1	0.00e+00	0	44	0	1099956224	8	3903
2026-01-21 13:37:51.55	224.57	24.41	-23.7	-24.3	19.1	0.00e+00	0	44	0	1106247680	8	3885
2026-01-21 13:37:52.56	224.79	24.51	-23.6	-24.2	19.2	0.00e+00	0	44	0	1111490560	8	3848
2026-01-21 13:37:53.56	225.02	24.61	-23.7	-24.3	19.2	0.00e+00	0	44	0	1116733440	8	3870
2026-01-21 13:37:54.56	225.24	24.71	-23.8	-24.6	19.0	0.00e+00	0	44	0	1123024896	8	3948
2026-01-21 13:37:55.57	225.47	24.81	-24.1	-25.2	18.7	0.00e+00	0	44	0	1128267776	8	4103
2026-01-21 13:37:56.57	225.70	24.91	-24.2	-25.3	18.6	0.00e+00	0	44	0	1134559232	8	4130
2026-01-21 13:37:57.57	225.93	25.01	-24.0	-25.1	18.7	3.40e-06	0	44	0	1139802112	8	4073
2026-01-21 13:37:58.58	226.16	25.11	-24.0	-25.0	18.8	0.00e+00	0	44	0	1145044992	8	4046
2026-01-21 13:37:59.59	226.40	25.21	-24.1	-25.1	18.8	0.00e+00	0	44	0	1151336448	8	4078
2026-01-21 13:38:00.60	226.64	25.31	-24.0	-25.0	18.8	0.00e+00	0	44	0	1156579328	8	4058
2026-01-21 13:38:01.60	226.87	25.41	-23.9	-24.8	18.9	0.00e+00	0	44	0	1162870784	8	3983
2026-01-21 13:38:02.61	227.11	25.51	-23.9	-24.7	18.9	0.00e+00	0	44	0	1168113664	8	3970
2026-01-21 13:38:03.61	227.35	25.61	-23.9	-24.9	18.9	0.00e+00	0	44	0	1173356544	8	4013
2026-01-21 13:38:04.61	227.59	25.71	-23.9	-24.7	18.9	0.00e+00	0	44	0	1179648000	8	3977
2026-01-21 13:38:05.62	227.84	25.81	-23.7	-24.3	19.2	0.00e+00	0	44	0	1184890880	8	3865
2026-01-21 13:38:06.62	228.08	25.91	-23.6	-24.2	19.3	0.00e+00	0	44	0	1190133760	8	3851
2026-01-21 13:38:07.62	228.33	26.01	-23.7	-24.5	19.1	0.00e+00	0	44	0	1196425216	8	3910
2026-01-21 13:38:08.63	228.57	26.11	-23.8	-24.6	19.1	0.00e+00	0	44	0	1201668096	8	3935
2026-01-21 13:38:09.63	228.82	26.20	-23.8	-24.6	19.0	0.00e+00	0	44	0	1207959552	8	3948
2026-01-21 13:38:10.64	229.07	26.30	-23.8	-24.7	19.0	0.00e+00	0	44	0	1213202432	8	3962
2026-01-21 13:38:11.65	229.33	26.40	-23.7	-24.3	19.2	0.00e+00	0	44	0	1219493888	8	3879
2026-01-21 13:38:12.65	229.58	26.50	-23.4	-23.8	19.4	0.00e+00	0	44	0	1224736768	8	3761
2026-01-21 13:38:13.66	229.84	26.59	-23.4	-23.8	19.5	0.00e+00	0	44	0	1229979648	8	3753
2026-01-21 13:38:14.66	230.09	26.69	-23.6	-24.1	19.3	0.00e+00	0	44	0	1236271104	8	3836
2026-01-21 13:38:15.66	230.35	26.79	-23.6	-24.2	19.2	0.00e+00	0	44	0	1241513984	8	3860
2026-01-21 13:38:16.66	230.61	26.88	-23.7	-24.4	19.1	0.00e+00	0	44	0	1246756864	8	3898
2026-01-21 13:38:17.67	230.87	26.98	-23.6	-24.1	19.3	0.00e+00	0	44	0	1253048320	8	3835
2026-01-21 13:38:18.67	231.13	27.08	-23.4	-23.8	19.5	0.00e+00	0	44	0	1258291200	8	3762
2026-01-21 13:38:19.67	231.40	27.17	-23.4	-23.8	19.5	0.00e+00	0	44	0	1263534080	8	3764
2026-01-21 13:38:20.68	231.66	27.27	-23.3	-23.6	19.6	0.00e+00	0	44	0	1269825536	8	3710
2026-01-21 13:38:21.68	231.93	27.36	-23.1	-23.7	19.8	0.00e+00	0	44	0	1275068416	7	3836
2026-01-21 13:38:22.68	232.20	27.46	-23.1	-23.6	19.8	0.00e+00	0	44	0	1281359872	7	3828
2026-01-21 13:38:23.69	232.47	27.55	-23.2	-23.8	19.7	0.00e+00	0	44	0	1286602752	7	3870
2026-01-21 13:38:24.69	232.74	27.64	-23.2	-23.9	19.6	0.00e+00	0	44	0	1292894208	7	3889
2026-01-21 13:38:25.69	233.01	27.74	-23.3	-24.0	19.6	0.00e+00	0	44	0	1298137088	7	3902
2026-01-21 13:38:26.70	233.29	27.83	-23.3	-23.9	19.6	0.00e+00	0	44	0	1303379968	7	3898
2026-01-21 13:38:27.69	233.56	27.92	-23.3	-24.0	19.7	0.00e+00	0	44	0	1309671424	7	3907
2026-01-21 13:38:28.69	233.84	28.01	-23.2	-23.7	19.7	0.00e+00	0	44	0	1314914304	7	3846
2026-01-21 13:38:29.69	234.12	28.11	-23.1	-23.6	19.8	0.00e+00	0	44	0	1320157184	7	3826
2026-01-21 13:38:30.70	234.40	28.20	-23.2	-23.9	19.7	0.00e+00	0	44	0	1326448640	7	3881
2026-01-21 13:38:31.71	234.68	28.29	-23.3	-23.9	19.6	0.00e+00	0	44	0	1331691520	7	3894
2026-01-21 13:38:32.71	234.97	28.38	-23.3	-24.1	19.6	0.00e+00	0	44	0	1336934400	7	3925
2026-01-21 13:38:33.73	235.26	28.47	-23.2	-23.9	19.7	0.00e+00	0	44	0	1343225856	7	3875
2026-01-21 13:38:34.72	235.54	28.56	-23.2	-23.9	19.7	0.00e+00	0	44	0	1348468736	7	3880
2026-01-21 13:38:35.73	235.83	28.65	-23.1	-23.7	19.8	0.00e+00	0	44	0	1354760192	7	3831
2026-01-21 13:38:36.74	236.13	28.74	-23.1	-23.7	19.8	0.00e+00	0	44	0	1360003072	7	3830
2026-01-21 13:38:37.74	236.42	28.83	-23.4	-24.1	19.5	0.00e+00	0	44	0	1366294528	7	3943
2026-01-21 13:38:38.74	236.71	28.91	-23.4	-24.3	19.5	1.10e-06	0	44	0	1371537408	7	3984
2026-01-21 13:38:39.74	237.00	29.00	-23.7	-24.9	19.2	0.00e+00	0	44	0	1376780288	7	4124
2026-01-21 13:38:40.75	237.30	29.09	-23.7	-24.8	19.2	0.00e+00	0	44	0	1383071744	7	4106
2026-01-21 13:38:41.75	237.60	29.17	-23.4	-24.3	19.5	4.50e-06	0	44	0	1388314624	7	3981
2026-01-21 13:38:42.76	237.90	29.26	-23.3	-24.0	19.7	0.00e+00	0	44	0	1393557504	7	3906
2026-01-21 13:38:43.76	238.20	29.34	-23.4	-24.2	19.6	0.00e+00	0	44	0	1399848960	7	3950
2026-01-21 13:38:44.76	238.51	29.43	-23.3	-24.1	19.6	0.00e+00	0	44	0	1405091840	7	3931
2026-01-21 13:38:45.77	238.81	29.51	-23.4	-24.2	19.5	0.00e+00	0	44	0	1410334720	7	3964
2026-01-21 13:38:46.77	239.12	29.59	-23.2	-23.7	19.8	0.00e+00	0	44	0	1416626176	7	3843
2026-01-21 13:38:47.78	239.43	29.68	-23.0	-23.5	19.9	0.00e+00	0	44	0	1421869056	7	3785
2026-01-21 13:38:48.78	239.74	29.76	-23.1	-23.5	19.9	0.00e+00	0	44	0	1428160512	7	3801
2026-01-21 13:38:49.78	240.05	29.84	-23.2	-23.7	19.8	0.00e+00	0	44	0	1433403392	7	3850
2026-01-21 13:38:50.79	240.36	29.92	-23.2	-23.9	19.7	0.00e+00	0	44	0	1439694848	7	3888
2026-01-21 13:38:51.79	240.67	30.00	-23.4	-24.3	19.5	0.00e+00	0	44	0	1444937728	7	3992
2026-01-21 13:38:52.80	240.99	30.08	-23.3	-24.1	19.6	0.00e+00	0	44	0	1450180608	7	3931
2026-01-21 13:38:53.80	241.31	30.16	-23.2	-23.9	19.7	1.10e-06	0	44	0	1456472064	7	3879
2026-01-21 13:38:54.80	241.62	30.23	-23.3	-24.0	19.7	0.00e+00	0	44	0	1461714944	7	3914
2026-01-21 13:38:55.80	241.94	30.31	-23.2	-23.8	19.8	0.00e+00	0	44	0	1466957824	7	3874
2026-01-21 13:38:56.81	242.27	30.39	-23.2	-23.8	19.8	0.00e+00	0	44	0	1473249280	7	3856
2026-01-21 13:38:57.81	242.59	30.46	-23.4	-24.2	19.6	0.00e+00	0	44	0	1478492160	7	3944
2026-01-21 13:38:58.82	242.91	30.54	-23.3	-24.1	19.6	0.00e+00	0	44	0	1483735040	7	3931
2026-01-21 13:38:59.83	243.24	30.61	-23.2	-23.9	19.7	0.00e+00	0	44	0	1490026496	7	3881
2026-01-21 13:39:00.82	243.57	30.68	-23.3	-24.1	19.6	0.00e+00	0	44	0	1495269376	7	3932
2026-01-21 13:39:01.83	243.90	30.75	-23.1	-23.7	19.9	0.00e+00	0	44	0	1501560832	7	3841
2026-01-21 13:39:02.83	244.23	30.82	-23.0	-23.4	20.0	0.00e+00	0	44	0	1506803712	7	3773
2026-01-21 13:39:03.83	244.56	30.89	-23.1	-23.7	19.9	0.00e+00	0	44	0	1513095168	7	3832
2026-01-21 13:39:04.83	244.89	30.96	-23.1	-23.7	19.8	0.00e+00	0	44	0	1518338048	7	3827
2026-01-21 13:39:05.84	245.22	31.03	-23.0	-23.4	20.0	0.00e+00	0	44	0	1523580928	7	3766
2026-01-21 13:39:06.85	245.56	31.10	-22.9	-23.1	20.2	0.00e+00	0	44	0	1529872384	7	3697
2026-01-21 13:39:07.85	245.90	31.17	-23.0	-23.4	20.0	0.00e+00	0	44	0	1535115264	7	3754
2026-01-21 13:39:08.86	246.24	31.23	-23.0	-23.4	20.0	0.00e+00	0	44	0	1540358144	7	3766
2026-01-21 13:39:09.87	246.58	31.30	-23.3	-24.1	19.7	0.00e+00	0	44	0	1546649600	7	3923
2026-01-21 13:39:10.86	246.92	31.36	-23.4	-24.1	19.6	0.00e+00	0	44	0	1551892480	7	3940
2026-01-21 13:39:11.87	247.26	31.42	-23.3	-24.0	19.7	0.00e+00	0	44	0	1557135360	7	3914
2026-01-21 13:39:12.87	247.60	31.49	-23.4	-24.3	19.6	0.00e+00	0	44	0	1563426816	7	3970
2026-01-21 13:39:13.88	247.95	31.55	-23.3	-23.9	19.7	0.00e+00	0	44	0	1568669696	7	3894
2026-01-21 13:39:14.88	248.30	31.61	-23.2	-23.8	19.8	0.00e+00	0	44	0	1574961152	7	3871
2026-01-21 13:39:15.88	248.64	31.67	-23.2	-23.7	19.8	0.00e+00	0	44	0	1580204032	7	3848
2026-01-21 13:39:16.89	248.99	31.72	-23.0	-23.3	20.0	0.00e+00	0	44	0	1586495488	7	3755
2026-01-21 13:39:17.89	249.34	31.78	-23.0	-23.3	20.0	0.00e+00	0	44	0	1591738368	7	3754
2026-01-21 13:39:18.89	249.69	31.84	-23.1	-23.6	19.9	0.00e+00	0	44	0	1596981248	7	3817
2026-01-21 13:39:19.89	250.04	31.89	-23.1	-23.7	19.9	0.00e+00	0	44	0	1603272704	7	3830
2026-01-21 13:39:20.89	250.40	31.94	-23.3	-23.9	19.8	0.00e+00	0	44	0	1608515584	7	3894
2026-01-21 13:39:21.90	250.75	32.00	-23.1	-23.7	19.9	0.00e+00	0	44	0	1613758464	7	3839
2026-01-21 13:39:22.91	251.11	32.05	-23.1	-23.7	19.9	0.00e+00	0	44	0	1620049920	7	3829
2026-01-21 13:39:23.91	251.47	32.10	-23.2	-23.9	19.8	0.00e+00	0	44	0	1625292800	7	3879
2026-01-21 13:39:24.92	251.83	32.15	-23.2	-23.8	19.8	0.00e+00	0	44	0	1630535680	7	3858
2026-01-21 13:39:25.92	252.18	32.20	-23.4	-24.1	19.6	0.00e+00	0	44	0	1636827136	7	3939
2026-01-21 13:39:26.92	252.54	32.24	-23.3	-23.9	19.8	0.00e+00	0	44	0	1642070016	7	3891
2026-01-21 13:39:27.93	252.91	32.29	-23.2	-23.8	19.8	0.00e+00	0	44	0	1648361472	7	3852
2026-01-21 13:39:28.93	253.27	32.33	-23.1	-23.7	19.9	0.00e+00	0	44	0	1653604352	7	3833
2026-01-21 13:39:29.93	253.63	32.38	-22.9	-23.2	20.1	0.00e+00	0	44	0	1658847232	7	3722
2026-01-21 13:39:30.94	253.99	32.42	-22.8	-23.5	20.2	0.00e+00	0	44	0	1665138688	6	3885
2026-01-21 13:39:31.94	254.36	32.46	-22.9	-23.7	20.1	0.00e+00	0	44	0	1670381568	6	3947
2026-01-21 13:39:32.94	254.72	32.50	-23.2	-24.4	19.8	0.00e+00	0	44	0	1676673024	6	4110
2026-01-21 13:39:33.93	255.08	32.54	-23.2	-24.4	19.8	0.00e+00	0	44	0	1681915904	6	4114
2026-01-21 13:39:34.93	255.45	32.57	-23.3	-24.5	19.7	1.10e-06	0	44	0	1687158784	6	4139
2026-01-21 13:39:35.94	255.82	32.61	-23.4	-24.6	19.6	0.00e+00	0	44	0	1693450240	6	4172
2026-01-21 13:39:36.94	256.19	32.64	-23.1	-24.0	19.9	0.00e+00	0	44	0	1698693120	6	4014
2026-01-21 13:39:37.95	256.56	32.68	-22.9	-23.8	20.1	0.00e+00	0	44	0	1703936000	6	3960
2026-01-21 13:39:38.95	256.93	32.71	-23.1	-24.2	19.9	0.00e+00	0	44	0	1710227456	6	4062
2026-01-21 13:39:39.95	257.30	32.74	-23.3	-24.5	19.7	0.00e+00	0	44	0	1715470336	6	4131
2026-01-21 13:39:40.95	257.67	32.77	-23.2	-24.4	19.8	0.00e+00	0	44	0	1721761792	6	4104
2026-01-21 13:39:41.96	258.04	32.80	-23.4	-24.7	19.7	0.00e+00	0	44	0	1727004672	6	4177
2026-01-21 13:39:42.96	258.42	32.83	-23.3	-24.5	19.7	0.00e+00	0	44	0	1732247552	6	4145
2026-01-21 13:39:43.96	258.79	32.85	-23.2	-24.4	19.8	1.10e-06	0	44	0	1738539008	6	4102
2026-01-21 13:39:44.97	259.17	32.88	-23.3	-24.5	19.7	0.00e+00	0	44	0	1743781888	6	4133
2026-01-21 13:39:45.97	259.54	32.90	-23.1	-24.1	19.9	0.00e+00	0	44	0	1749024768	6	4049
2026-01-21 13:39:46.96	259.91	32.92	-23.2	-24.3	19.8	1.10e-06	0	44	0	1755316224	6	4082
2026-01-21 13:39:47.96	260.28	32.94	-23.3	-24.6	19.7	0.00e+00	0	44	0	1760559104	6	4155
2026-01-21 13:39:48.96	260.66	32.96	-23.0	-23.9	20.0	0.00e+00	0	44	0	1765801984	6	4003
2026-01-21 13:39:49.96	261.03	32.98	-22.9	-23.6	20.2	3.40e-06	0	44	0	1772093440	6	3918
2026-01-21 13:39:50.96	261.41	33.00	-22.9	-23.8	20.1	0.00e+00	0	44	0	1777336320	6	3954
2026-01-21 13:39:51.96	261.78	33.01	-23.0	-23.9	20.0	0.00e+00	0	44	0	1783627776	6	4002
2026-01-21 13:39:52.96	262.16	33.02	-23.0	-24.0	20.0	0.00e+00	0	44	0	1788870656	6	4009
2026-01-21 13:39:53.97	262.54	33.04	-23.1	-24.1	19.9	0.00e+00	0	44	0	1794113536	6	4040
2026-01-21 13:39:54.98	262.92	33.05	-22.9	-23.6	20.2	0.00e+00	0	44	0	1800404992	6	3931
2026-01-21 13:39:55.99	263.30	33.06	-22.9	-23.6	20.2	1.10e-06	0	44	0	1805647872	6	3931
2026-01-21 13:39:57.00	263.68	33.07	-23.2	-24.3	19.8	0.00e+00	0	44	0	1811939328	6	4085
2026-01-21 13:39:58.00	264.06	33.07	-23.2	-24.3	19.8	0.00e+00	0	44	0	1817182208	6	4101
2026-01-21 13:39:59.01	264.44	33.08	-23.4	-24.7	19.6	0.00e+00	0	44	0	1822425088	6	4200
2026-01-21 13:40:00.01	264.82	33.08	-23.4	-24.8	19.6	0.00e+00	0	44	0	1828716544	6	4218
2026-01-21 13:40:01.02	265.20	33.09	-23.4	-24.7	19.6	0.00e+00	0	44	0	1833959424	6	4196
2026-01-21 13:40:02.02	265.58	33.09	-23.4	-24.7	19.7	0.00e+00	0	44	0	1839202304	6	4175
2026-01-21 13:40:03.02	265.96	33.09	-23.6	-24.6	19.4	0.00e+00	0	44	0	1845493760	7	4048
2026-01-21 13:40:04.03	266.34	33.09	-23.8	-25.0	19.2	0.00e+00	0	44	0	1850736640	7	4151
2026-01-21 13:40:05.03	266.72	33.09	-23.5	-24.4	19.5	0.00e+00	0	44	0	1857028096	7	4002
2026-01-21 13:40:06.03	267.09	33.08	-23.7	-24.8	19.3	0.00e+00	0	44	0	1862270976	7	4095
2026-01-21 13:40:07.04	267.48	33.08	-23.3	-24.0	19.7	0.00e+00	0	44	0	1868562432	7	3915
2026-01-21 13:40:08.04	267.85	33.07	-23.1	-23.6	19.9	0.00e+00	0	44	0	1873805312	7	3815
2026-01-21 13:40:09.04	268.23	33.06	-23.1	-23.7	19.9	0.00e+00	0	44	0	1879048192	7	3829
2026-01-21 13:40:10.05	268.61	33.05	-23.2	-23.8	19.9	0.00e+00	0	44	0	1885339648	7	3852
2026-01-21 13:40:11.05	268.99	33.04	-23.1	-23.6	19.9	0.00e+00	0	44	0	1890582528	7	3816
2026-01-21 13:40:12.06	269.37	33.03	-23.0	-23.4	20.0	0.00e+00	0	44	0	1895825408	7	3765
2026-01-21 13:40:13.06	269.74	33.02	-23.0	-23.4	20.0	0.00e+00	0	44	0	1902116864	7	3771
2026-01-21 13:40:14.07	270.12	33.00	-23.1	-23.5	19.9	0.00e+00	0	44	0	1907359744	7	3798
2026-01-21 13:40:15.07	270.50	32.99	-23.3	-24.0	19.7	0.00e+00	0	44	0	1913651200	7	3897
2026-01-21 13:40:16.07	270.87	32.97	-23.3	-23.9	19.8	0.00e+00	0	44	0	1918894080	7	3890
2026-01-21 13:40:17.08	271.25	32.95	-23.3	-24.0	19.7	0.00e+00	0	44	0	1924136960	7	3904
2026-01-21 13:40:18.08	271.63	32.93	-23.1	-23.6	19.9	0.00e+00	0	44	0	1930428416	7	3817
2026-01-21 13:40:19.08	272.00	32.91	-23.2	-23.8	19.9	0.00e+00	0	44	0	1935671296	7	3847
2026-01-21 13:40:20.08	272.37	32.89	-23.5	-24.4	19.6	0.00e+00	0	44	0	1940914176	7	3994
2026-01-21 13:40:21.09	272.75	32.86	-23.4	-24.2	19.6	0.00e+00	0	44	0	1947205632	7	3955
2026-01-21 13:40:22.09	273.12	32.84	-23.3	-24.1	19.7	0.00e+00	0	44	0	1952448512	7	3923
2026-01-21 13:40:23.09	273.49	32.81	-23.2	-23.9	19.8	0.00e+00	0	44	0	1958739968	7	3875
2026-01-21 13:40:24.10	273.87	32.78	-23.2	-23.8	19.8	0.00e+00	0	44	0	1963982848	7	3866
2026-01-21 13:40:25.10	274.24	32.75	-23.3	-24.1	19.7	0.00e+00	0	44	0	1969225728	7	3923
2026-01-21 13:40:26.10	274.61	32.72	-23.1	-23.5	20.0	0.00e+00	0	44	0	1975517184	7	3792
2026-01-21 13:40:27.10	274.98	32.69	-23.3	-24.1	19.7	0.00e+00	0	44	0	1980760064	7	3926
2026-01-21 13:40:28.11	275.35	32.66	-23.3	-24.1	19.7	0.00e+00	0	44	0	1987051520	7	3929
2026-01-21 13:40:29.11	275.72	32.62	-23.3	-24.1	19.7	0.00e+00	0	44	0	1992294400	7	3931
2026-01-21 13:40:30.11	276.08	32.59	-23.3	-23.9	19.8	0.00e+00	0	44	0	1997537280	7	3886
2026-01-21 13:40:31.11	276.45	32.55	-23.5	-24.3	19.5	0.00e+00	0	44	0	2003828736	7	3981
2026-01-21 13:40:32.12	276.82	32.51	-23.6	-24.5	19.5	0.00e+00	0	44	0	2009071616	7	4034
2026-01-21 13:40:33.12	277.18	32.47	-24.0	-25.0	19.0	0.00e+00	0	44	0	2014314496	8	4041
2026-01-21 13:40:34.13	277.55	32.43	-23.7	-24.3	19.3	0.00e+00	0	44	0	2020605952	8	3879
2026-01-21 13:40:35.13	277.91	32.39	-23.3	-23.6	19.7	0.00e+00	0	44	0	2025848832	8	3716
2026-01-21 13:40:36.12	278.27	32.35	-23.1	-23.6	19.9	0.00e+00	0	44	0	2031091712	7	3818
2026-01-21 13:40:37.12	278.63	32.31	-23.1	-23.7	19.9	0.00e+00	0	44	0	2037383168	7	3827
2026-01-21 13:40:38.12	278.99	32.26	-23.5	-24.4	19.5	0.00e+00	0	44	0	2042626048	7	4011
2026-01-21 13:40:39.12	279.35	32.21	-23.4	-24.3	19.6	0.00e+00	0	44	0	2048917504	7	3980
2026-01-21 13:40:40.13	279.71	32.17	-23.5	-24.5	19.5	0.00e+00	0	44	0	2054160384	7	4028
2026-01-21 13:40:41.13	280.06	32.12	-23.4	-24.2	19.6	0.00e+00	0	44	0	2059403264	7	3960
2026-01-21 13:40:42.13	280.42	32.07	-23.3	-24.0	19.7	0.00e+00	0	44	0	2065694720	7	3896
2026-01-21 13:40:43.14	280.78	32.02	-23.3	-24.1	19.7	0.00e+00	0	44	0	2070937600	7	3937
2026-01-21 13:40:44.14	281.13	31.97	-23.2	-23.8	19.8	0.00e+00	0	44	0	2077229056	7	3862
2026-01-21 13:40:45.14	281.48	31.91	-23.2	-23.9	19.8	0.00e+00	0	44	0	2082471936	7	3880
2026-01-21 13:40:46.15	281.84	31.86	-23.4	-24.2	19.6	0.00e+00	0	44	0	2087714816	7	3955
2026-01-21 13:40:47.15	282.19	31.80	-23.6	-24.7	19.4	0.00e+00	0	44	0	2094006272	7	4064
2026-01-21 13:40:48.15	282.54	31.75	-23.3	-24.0	19.7	0.00e+00	0	44	0	2099249152	7	3898
2026-01-21 13:40:49.15	282.88	31.69	-23.1	-23.6	19.9	0.00e+00	0	44	0	2104492032	7	3821
2026-01-21 13:40:50.14	283.23	31.63	-23.2	-23.9	19.8	0.00e+00	0	44	0	2110783488	7	3881
2026-01-21 13:40:51.15	283.57	31.57	-23.4	-24.2	19.7	0.00e+00	0	44	0	2116026368	7	3949
2026-01-21 13:40:52.15	283.92	31.51	-23.5	-24.4	19.5	0.00e+00	0	44	0	2122317824	7	4010
2026-01-21 13:40:53.15	284.26	31.45	-23.4	-24.2	19.6	0.00e+00	0	44	0	2127560704	7	3958
2026-01-21 13:40:54.16	284.60	31.39	-23.4	-24.2	19.6	0.00e+00	0	44	0	2132803584	7	3952
2026-01-21 13:40:55.16	284.94	31.33	-23.2	-23.9	19.8	0.00e+00	0	44	0	2139095040	7	3875
2026-01-21 13:40:56.17	285.29	31.26	-23.3	-24.1	19.7	0.00e+00	0	44	0	2144337920	7	3920
2026-01-21 13:40:57.17	285.62	31.20	-23.6	-24.7	19.4	0.00e+00	0	44	0	2149580800	7	4079
2026-01-21 13:40:58.17	285.96	31.13	-23.6	-24.6	19.4	0.00e+00	0	44	0	2155872256	7	4059
2026-01-21 13:40:59.17	286.29	31.06	-23.6	-24.8	19.3	0.00e+00	0	44	0	2161115136	7	4097
2026-01-21 13:41:00.18	286.63	31.00	-23.5	-24.6	19.4	0.00e+00	0	44	0	2166358016	7	4041
2026-01-21 13:41:01.18	286.96	30.93	-23.4	-24.3	19.6	0.00e+00	0	44	0	2172649472	7	3967
2026-01-21 13:41:02.18	287.29	30.86	-23.5	-24.4	19.5	0.00e+00	0	44	0	2177892352	7	4011
2026-01-21 13:41:03.18	287.62	30.79	-23.8	-25.0	19.2	0.00e+00	0	44	0	2184183808	7	4147
2026-01-21 13:41:04.19	287.95	30.72	-23.6	-24.7	19.4	0.00e+00	0	44	0	2189426688	7	4066
2026-01-21 13:41:05.19	288.28	30.64	-23.6	-24.6	19.4	0.00e+00	0	44	0	2195718144	7	4050
2026-01-21 13:41:06.19	288.60	30.57	-23.6	-24.6	19.4	0.00e+00	0	44	0	2200961024	7	4054
2026-01-21 13:41:07.20	288.93	30.50	-23.5	-24.4	19.5	0.00e+00	0	44	0	2206203904	7	4012
2026-01-21 13:41:08.20	289.25	30.42	-23.5	-24.5	19.5	0.00e+00	0	44	0	2212495360	7	4031
2026-01-21 13:41:09.20	289.57	30.35	-23.5	-24.5	19.5	0.00e+00	0	44	0	2217738240	7	4027
2026-01-21 13:41:10.21	289.89	30.27	-23.5	-24.5	19.5	0.00e+00	0	44	0	2222981120	7	4016
2026-01-21 13:41:11.21	290.21	30.20	-23.4	-24.2	19.6	0.00e+00	0	44	0	2229272576	7	3958
2026-01-21 13:41:12.22	290.52	30.12	-23.3	-24.0	19.7	0.00e+00	0	44	0	2234515456	7	3906
2026-01-21 13:41:13.22	290.84	30.04	-23.4	-24.2	19.6	0.00e+00	0	44	0	2239758336	7	3960
2026-01-21 13:41:14.22	291.15	29.96	-23.5	-24.4	19.5	0.00e+00	0	44	0	2246049792	7	3994
2026-01-21 13:41:15.22	291.46	29.88	-23.5	-24.4	19.5	0.00e+00	0	44	0	2251292672	7	3996
2026-01-21 13:41:16.23	291.78	29.80	-23.4	-24.3	19.6	0.00e+00	0	44	0	2257584128	7	3980
2026-01-21 13:41:17.23	292.08	29.72	-23.6	-24.5	19.4	0.00e+00	0	44	0	2262827008	7	4033
2026-01-21 13:41:18.23	292.39	29.64	-23.6	-24.7	19.4	0.00e+00	0	44	0	2269118464	7	4072
2026-01-21 13:41:19.24	292.70	29.56	-23.6	-24.6	19.4	0.00e+00	0	44	0	2274361344	7	4062
2026-01-21 13:41:20.25	293.00	29.47	-23.6	-24.6	19.4	0.00e+00	0	44	0	2279604224	7	4054
2026-01-21 13:41:21.26	293.31	29.39	-23.6	-24.7	19.4	0.00e+00	0	44	0	2285895680	7	4070
2026-01-21 13:41:22.26	293.61	29.30	-23.6	-24.7	19.3	0.00e+00	0	44	0	2291138560	7	4085
2026-01-21 13:41:23.26	293.91	29.22	-23.6	-24.7	19.4	0.00e+00	0	44	0	2296381440	7	4080
2026-01-21 13:41:24.27	294.21	29.13	-23.8	-25.1	19.1	0.00e+00	0	44	0	2302672896	7	4171
2026-01-21 13:41:25.26	294.50	29.05	-23.6	-24.6	19.4	0.00e+00	0	44	0	2307915776	7	4051
2026-01-21 13:41:26.27	294.80	28.96	-23.4	-24.3	19.5	0.00e+00	0	44	0	2313158656	7	3981
2026-01-21 13:41:27.27	295.09	28.88	-23.5	-24.4	19.5	0.00e+00	0	44	0	2319450112	7	3996
2026-01-21 13:41:28.28	295.38	28.79	-23.6	-24.7	19.4	0.00e+00	0	44	0	2324692992	7	4070
2026-01-21 13:41:29.28	295.67	28.70	-23.5	-24.4	19.5	0.00e+00	0	44	0	2330984448	7	4012
2026-01-21 13:41:30.28	295.96	28.61	-23.6	-24.6	19.4	0.00e+00	0	44	0	2336227328	7	4058
2026-01-21 13:41:31.28	296.25	28.52	-23.7	-24.8	19.3	0.00e+00	0	44	0	2341470208	7	4094
2026-01-21 13:41:32.29	296.54	28.43	-23.5	-24.5	19.5	0.00e+00	0	44	0	2347761664	7	4028
2026-01-21 13:41:33.29	296.82	28.34	-23.5	-24.5	19.4	0.00e+00	0	44	0	2353004544	7	4028
2026-01-21 13:41:34.30	297.10	28.25	-23.5	-24.5	19.5	0.00e+00	0	44	0	2359296000	7	4025
2026-01-21 13:41:35.30	297.38	28.16	-23.4	-24.3	19.6	0.00e+00	0	44	0	2364538880	7	3972
2026-01-21 13:41:36.29	297.66	28.07	-23.4	-24.3	19.6	0.00e+00	0	44	0	2369781760	7	3980
2026-01-21 13:41:37.29	297.94	27.98	-23.6	-24.5	19.4	0.00e+00	0	44	0	2376073216	7	4036
2026-01-21 13:41:38.30	298.21	27.89	-23.6	-24.6	19.4	0.00e+00	0	44	0	2381316096	7	4046
2026-01-21 13:41:39.30	298.49	27.80	-23.7	-24.8	19.3	0.00e+00	0	44	0	2386558976	7	4094
2026-01-21 13:41:40.30	298.76	27.70	-23.7	-24.8	19.3	0.00e+00	0	44	0	2392850432	7	4107
2026-01-21 13:41:41.31	299.03	27.61	-23.7	-24.8	19.3	0.00e+00	0	44	0	2398093312	7	4095
2026-01-21 13:41:42.32	299.30	27.52	-23.7	-24.9	19.3	0.00e+00	0	44	0	2404384768	7	4113
2026-01-21 13:41:43.32	299.57	27.42	-23.6	-24.6	19.4	0.00e+00	0	44	0	2409627648	7	4058
2026-01-21 13:41:44.33	299.84	27.33	-23.7	-24.8	19.3	0.00e+00	0	44	0	2414870528	7	4103
2026-01-21 13:41:45.33	300.11	27.23	-23.9	-25.3	19.0	0.00e+00	0	44	0	2421161984	7	4220
2026-01-21 13:41:46.34	300.37	27.14	-24.0	-25.0	18.9	0.00e+00	0	44	0	2426404864	8	4053
2026-01-21 13:41:47.35	300.63	27.04	-23.9	-24.8	19.0	0.00e+00	0	44	0	2432696320	8	3998
2026-01-21 13:41:48.35	300.89	26.95	-23.8	-24.7	19.1	0.00e+00	0	44	0	2437939200	8	3957
2026-01-21 13:41:49.35	301.15	26.85	-23.8	-24.6	19.2	0.00e+00	0	44	0	2443182080	8	3933
2026-01-21 13:41:50.35	301.41	26.76	-23.7	-24.3	19.3	0.00e+00	0	44	0	2449473536	8	3868
2026-01-21 13:41:51.35	301.67	26.66	-23.7	-24.4	19.3	4.50e-06	0	44	0	2454716416	8	3891
2026-01-21 13:41:52.35	301.92	26.57	-23.9	-24.7	19.1	0.00e+00	0	44	0	2459959296	8	3968
2026-01-21 13:41:53.36	302.17	26.47	-23.9	-24.8	19.0	0.00e+00	0	44	0	2466250752	8	3995
2026-01-21 13:41:54.35	302.42	26.37	-24.0	-24.9	19.0	2.20e-06	0	44	0	2471493632	8	4024
2026-01-21 13:41:55.36	302.67	26.28	-24.0	-24.9	19.0	0.00e+00	0	44	0	2477785088	8	4021
2026-01-21 13:41:56.37	302.92	26.18	-24.0	-25.0	18.9	0.00e+00	0	44	0	2483027968	8	4034
2026-01-21 13:41:57.37	303.17	26.08	-24.0	-25.0	18.9	0.00e+00	0	44	0	2488270848	8	4035
2026-01-21 13:41:58.37	303.42	25.98	-23.9	-24.8	19.0	0.00e+00	0	44	0	2494562304	8	3987
2026-01-21 13:41:59.38	303.66	25.88	-24.0	-24.9	19.0	0.00e+00	0	44	0	2499805184	8	4017
2026-01-21 13:42:00.38	303.90	25.79	-23.8	-24.6	19.1	0.00e+00	0	44	0	2505048064	8	3931
2026-01-21 13:42:01.38	304.14	25.69	-23.8	-24.5	19.2	0.00e+00	0	44	0	2511339520	8	3919
2026-01-21 13:42:02.38	304.38	25.59	-23.8	-24.6	19.1	0.00e+00	0	44	0	2516582400	8	3932
2026-01-21 13:42:03.38	304.62	25.49	-23.9	-24.7	19.1	0.00e+00	0	44	0	2521825280	8	3956
2026-01-21 13:42:04.38	304.86	25.39	-23.9	-24.9	19.0	0.00e+00	0	44	0	2528116736	8	4005
2026-01-21 13:42:05.39	305.09	25.30	-24.0	-24.9	19.0	0.00e+00	0	44	0	2533359616	8	4012
2026-01-21 13:42:06.39	305.33	25.20	-24.0	-25.1	18.9	0.00e+00	0	44	0	2539651072	8	4053
2026-01-21 13:42:07.39	305.56	25.10	-24.0	-24.9	18.9	0.00e+00	0	44	0	2544893952	8	4016
2026-01-21 13:42:08.40	305.79	25.00	-24.0	-25.1	18.9	0.00e+00	0	44	0	2551185408	8	4059
2026-01-21 13:42:09.40	306.02	24.90	-24.2	-25.4	18.7	0.00e+00	0	44	0	2556428288	8	4154
2026-01-21 13:42:10.41	306.25	24.80	-24.2	-25.5	18.7	0.00e+00	0	44	0	2561671168	8	4161
2026-01-21 13:42:11.41	306.47	24.70	-24.3	-25.6	18.6	0.00e+00	0	44	0	2567962624	8	4182
2026-01-21 13:42:12.42	306.70	24.60	-24.2	-25.4	18.7	0.00e+00	0	44	0	2573205504	8	4136
2026-01-21 13:42:13.42	306.92	24.50	-24.1	-25.1	18.8	0.00e+00	0	44	0	2578448384	8	4061
2026-01-21 13:42:14.43	307.15	24.40	-24.1	-25.1	18.8	0.00e+00	0	44	0	2584739840	8	4065
2026-01-21 13:42:15.43	307.37	24.30	-24.1	-25.2	18.8	0.00e+00	0	44	0	2589982720	8	4087
2026-01-21 13:42:16.43	307.59	24.20	-24.1	-25.1	18.8	0.00e+00	0	44	0	2595225600	8	4071
2026-01-21 13:42:17.43	307.81	24.10	-24.2	-25.3	18.7	0.00e+00	0	44	0	2601517056	8	4121
2026-01-21 13:42:18.44	308.03	24.00	-24.2	-25.5	18.7	0.00e+00	0	44	0	2606759936	8	4155
2026-01-21 13:42:19.44	308.24	23.90	-24.2	-25.5	18.7	0.00e+00	0	44	0	2613051392	8	4152
2026-01-21 13:42:20.44	308.45	23.80	-24.2	-25.4	18.7	0.00e+00	0	44	0	2618294272	8	4145
2026-01-21 13:42:21.44	308.67	23.70	-24.1	-25.3	18.7	0.00e+00	0	44	0	2624585728	8	4115
2026-01-21 13:42:22.44	308.88	23.60	-24.1	-25.2	18.8	0.00e+00	0	44	0	2629828608	8	4088
2026-01-21 13:42:23.44	309.09	23.50	-24.1	-25.2	18.8	0.00e+00	0	44	0	2635071488	8	4095
2026-01-21 13:42:24.45	309.30	23.40	-24.2	-25.4	18.7	0.00e+00	0	44	0	2641362944	8	4131
2026-01-21 13:42:25.45	309.51	23.30	-24.2	-25.5	18.7	0.00e+00	0	44	0	2646605824	8	4151
2026-01-21 13:42:26.45	309.71	23.20	-24.3	-25.5	18.6	0.00e+00	0	44	0	2651848704	8	4171
2026-01-21 13:42:27.45	309.92	23.11	-24.3	-25.6	18.6	0.00e+00	0	44	0	2658140160	8	4174
2026-01-21 13:42:28.46	310.12	23.00	-24.3	-25.7	18.5	0.00e+00	0	44	0	2663383040	8	4214
2026-01-21 13:42:29.46	310.32	22.91	-24.4	-25.8	18.4	0.00e+00	0	44	0	2668625920	8	4245
2026-01-21 13:42:30.47	310.53	22.80	-24.5	-25.5	18.4	0.00e+00	0	44	0	2674917376	9	4057
2026-01-21 13:42:31.47	310.73	22.71	-24.6	-25.8	18.2	0.00e+00	0	44	0	2680160256	9	4122
2026-01-21 13:42:32.47	310.92	22.61	-24.7	-26.0	18.1	0.00e+00	0	44	0	2686451712	9	4169
2026-01-21 13:42:33.47	311.12	22.51	-24.6	-25.8	18.2	0.00e+00	0	44	0	2691694592	9	4119
2026-01-21 13:42:34.47	311.32	22.41	-24.6	-25.7	18.2	0.00e+00	0	44	0	2696937472	9	4108
2026-01-21 13:42:35.48	311.51	22.31	-24.6	-25.8	18.2	0.00e+00	0	44	0	2703228928	9	4119
2026-01-21 13:42:36.48	311.71	22.21	-24.6	-25.9	18.1	0.00e+00	0	44	0	2708471808	9	4142
2026-01-21 13:42:37.49	311.90	22.11	-24.7	-26.0	18.1	0.00e+00	0	44	0	2714763264	9	4169
2026-01-21 13:42:38.49	312.09	22.01	-24.7	-26.0	18.1	0.00e+00	0	44	0	2720006144	9	4162
2026-01-21 13:42:39.49	312.28	21.91	-24.6	-25.8	18.2	0.00e+00	0	44	0	2725249024	9	4128
2026-01-21 13:42:40.50	312.47	21.81	-24.7	-25.9	18.1	0.00e+00	0	44	0	2731540480	9	4153
2026-01-21 13:42:41.50	312.66	21.71	-24.7	-25.9	18.1	0.00e+00	0	44	0	2736783360	9	4157
2026-01-21 13:42:42.50	312.85	21.61	-24.7	-26.0	18.1	0.00e+00	0	44	0	2742026240	9	4159
2026-01-21 13:42:43.50	313.03	21.51	-24.9	-26.4	17.9	0.00e+00	0	44	0	2748317696	9	4272
2026-01-21 13:42:44.50	313.22	21.42	-25.1	-26.2	17.7	0.00e+00	0	44	0	2753560576	10	4124
2026-01-21 13:42:45.50	313.40	21.32	-25.0	-26.1	17.8	0.00e+00	0	44	0	2759852032	10	4077
2026-01-21 13:42:46.50	313.58	21.22	-25.0	-26.1	17.7	0.00e+00	0	44	0	2765094912	10	4101
2026-01-21 13:42:47.50	313.76	21.12	-25.1	-26.4	17.6	0.00e+00	0	44	0	2770337792	10	4158
2026-01-21 13:42:48.50	313.94	21.02	-25.1	-26.4	17.6	0.00e+00	0	44	0	2776629248	10	4175
2026-01-21 13:42:49.51	314.12	20.92	-25.2	-26.5	17.5	0.00e+00	0	44	0	2781872128	10	4196
2026-01-21 13:42:50.51	314.30	20.83	-25.2	-26.4	17.6	0.00e+00	0	44	0	2787115008	10	4178
2026-01-21 13:42:51.52	314.48	20.73	-25.0	-26.2	17.7	0.00e+00	0	44	0	2793406464	10	4106
2026-01-21 13:42:52.52	314.65	20.63	-25.0	-26.1	17.7	0.00e+00	0	44	0	2798649344	10	4094
2026-01-21 13:42:53.52	314.82	20.53	-25.0	-26.1	17.8	0.00e+00	0	44	0	2803892224	10	4087
2026-01-21 13:42:54.52	315.00	20.43	-25.0	-26.1	17.8	0.00e+00	0	44	0	2810183680	10	4084
2026-01-21 13:42:55.53	315.17	20.34	-25.0	-26.2	17.7	0.00e+00	0	44	0	2815426560	10	4114
2026-01-21 13:42:56.53	315.34	20.24	-25.1	-26.4	17.6	0.00e+00	0	44	0	2821718016	10	4162
2026-01-21 13:42:57.53	315.51	20.14	-25.1	-26.4	17.6	0.00e+00	0	44	0	2826960896	10	4182
2026-01-21 13:42:58.53	315.68	20.05	-25.1	-26.4	17.6	0.00e+00	0	44	0	2832203776	10	4177
2026-01-21 13:42:59.54	315.85	19.95	-25.2	-26.6	17.5	0.00e+00	0	44	0	2838495232	10	4215
2026-01-21 13:43:00.53	316.01	19.85	-25.2	-26.5	17.5	0.00e+00	0	44	0	2843738112	10	4191
2026-01-21 13:43:01.53	316.18	19.76	-25.0	-26.1	17.7	0.00e+00	0	44	0	2848980992	10	4088
2026-01-21 13:43:02.54	316.35	19.66	-24.9	-26.0	17.8	0.00e+00	0	44	0	2855272448	10	4060
2026-01-21 13:43:03.54	316.51	19.56	-24.9	-26.0	17.8	0.00e+00	0	44	0	2860515328	10	4049
2026-01-21 13:43:04.55	316.67	19.47	-24.9	-26.0	17.8	0.00e+00	0	44	0	2866806784	10	4055
2026-01-21 13:43:05.56	316.84	19.37	-25.0	-26.1	17.7	0.00e+00	0	44	0	2872049664	10	4078
2026-01-21 13:43:06.56	317.00	19.27	-25.0	-26.2	17.7	0.00e+00	0	44	0	2877292544	10	4107
2026-01-21 13:43:07.56	317.16	19.18	-25.1	-26.4	17.5	0.00e+00	0	44	0	2883584000	10	4178
2026-01-21 13:43:08.56	317.32	19.08	-25.2	-26.5	17.5	0.00e+00	0	44	0	2888826880	10	4194
2026-01-21 13:43:09.56	317.47	18.99	-25.2	-26.7	17.4	0.00e+00	0	44	0	2895118336	10	4236
2026-01-21 13:43:10.57	317.63	18.89	-25.3	-26.7	17.3	0.00e+00	0	44	0	2900361216	10	4256
2026-01-21 13:43:11.57	317.79	18.80	-25.3	-26.8	17.3	0.00e+00	0	44	0	2905604096	10	4290
2026-01-21 13:43:12.57	317.94	18.70	-25.3	-26.9	17.3	0.00e+00	0	44	0	2911895552	10	4296
2026-01-21 13:43:13.57	318.10	18.61	-25.5	-27.1	17.1	0.00e+00	0	44	0	2917138432	10	4359
2026-01-21 13:43:14.58	318.25	18.51	-25.7	-27.2	16.8	0.00e+00	0	44	0	2922381312	11	4256
2026-01-21 13:43:15.58	318.40	18.42	-25.8	-27.3	16.8	0.00e+00	0	44	0	2928672768	11	4282
2026-01-21 13:43:16.59	318.56	18.32	-25.7	-27.2	16.8	0.00e+00	0	44	0	2933915648	11	4262
2026-01-21 13:43:17.59	318.71	18.23	-25.8	-27.3	16.8	0.00e+00	0	44	0	2940207104	11	4281
2026-01-21 13:43:18.60	318.86	18.13	-25.7	-27.2	16.8	0.00e+00	0	44	0	2945449984	11	4262
2026-01-21 13:43:19.59	319.00	18.04	-25.8	-27.4	16.7	0.00e+00	0	44	0	2950692864	11	4318
2026-01-21 13:43:20.60	319.15	17.95	-25.9	-27.6	16.6	0.00e+00	0	44	0	2956984320	11	4362
2026-01-21 13:43:21.60	319.30	17.85	-25.9	-27.6	16.6	0.00e+00	0	44	0	2962227200	11	4383
2026-01-21 13:43:22.60	319.45	17.76	-25.9	-27.1	16.5	0.00e+00	0	44	0	2968518656	12	4126
2026-01-21 13:43:23.61	319.59	17.67	-25.8	-26.9	16.6	0.00e+00	0	44	0	2973761536	12	4086
2026-01-21 13:43:24.61	319.74	17.57	-25.7	-26.7	16.7	0.00e+00	0	44	0	2979004416	12	4023
2026-01-21 13:43:25.61	319.88	17.48	-25.7	-26.7	16.7	0.00e+00	0	44	0	2985295872	12	4039
2026-01-21 13:43:26.62	320.02	17.39	-25.8	-26.9	16.6	0.00e+00	0	44	0	2990538752	12	4084
2026-01-21 13:43:27.62	320.17	17.30	-25.8	-27.0	16.6	0.00e+00	0	44	0	2995781632	12	4092
2026-01-21 13:43:28.62	320.31	17.20	-25.7	-26.7	16.7	0.00e+00	0	44	0	3002073088	12	4015
2026-01-21 13:43:29.63	320.45	17.11	-25.7	-26.6	16.8	0.00e+00	0	44	0	3007315968	12	4004
2026-01-21 13:43:30.63	320.59	17.02	-25.7	-26.6	16.8	0.00e+00	0	44	0	3013607424	12	4003
2026-01-21 13:43:31.62	320.72	16.93	-25.7	-26.7	16.7	0.00e+00	0	44	0	3018850304	12	4018
2026-01-21 13:43:32.63	320.86	16.84	-25.7	-26.6	16.8	0.00e+00	0	44	0	3024093184	12	3999
2026-01-21 13:43:33.63	321.00	16.75	-25.8	-26.8	16.6	0.00e+00	0	44	0	3030384640	12	4049
2026-01-21 13:43:34.64	321.14	16.66	-25.8	-26.9	16.6	0.00e+00	0	44	0	3035627520	12	4074
2026-01-21 13:43:35.64	321.27	16.56	-25.8	-26.9	16.6	0.00e+00	0	44	0	3041918976	12	4070
2026-01-21 13:43:36.64	321.41	16.47	-25.8	-26.9	16.6	0.00e+00	0	44	0	3047161856	12	4072
2026-01-21 13:43:37.65	321.54	16.38	-25.8	-27.0	16.5	0.00e+00	0	44	0	3052404736	12	4095
2026-01-21 13:43:38.64	321.67	16.29	-25.8	-26.9	16.6	0.00e+00	0	44	0	3058696192	12	4086
2026-01-21 13:43:39.65	321.80	16.20	-25.9	-27.1	16.5	0.00e+00	0	44	0	3063939072	12	4120
2026-01-21 13:43:40.66	321.94	16.11	-25.9	-27.0	16.5	0.00e+00	0	44	0	3069181952	12	4101
2026-01-21 13:43:41.66	322.07	16.02	-25.9	-27.1	16.5	0.00e+00	0	44	0	3075473408	12	4124
2026-01-21 13:43:42.66	322.20	15.93	-25.9	-27.0	16.5	0.00e+00	0	44	0	3080716288	12	4117
2026-01-21 13:43:43.67	322.33	15.84	-25.9	-27.0	16.5	0.00e+00	0	44	0	3087007744	12	4111
2026-01-21 13:43:44.66	322.45	15.76	-25.8	-26.9	16.5	0.00e+00	0	44	0	3092250624	12	4089
2026-01-21 13:43:45.67	322.58	15.67	-25.8	-26.9	16.6	0.00e+00	0	44	0	3097493504	12	4076
2026-01-21 13:43:46.68	322.71	15.58	-25.8	-26.8	16.6	0.00e+00	0	44	0	3103784960	12	4066
2026-01-21 13:43:47.68	322.84	15.49	-25.9	-27.1	16.4	0.00e+00	0	44	0	3109027840	12	4123
2026-01-21 13:43:48.69	322.96	15.40	-25.8	-26.9	16.5	0.00e+00	0	44	0	3115319296	12	4090
2026-01-21 13:43:49.69	323.09	15.31	-25.8	-26.9	16.5	0.00e+00	0	44	0	3120562176	12	4088
2026-01-21 13:43:50.69	323.21	15.22	-25.8	-26.9	16.5	0.00e+00	0	44	0	3125805056	12	4072
2026-01-21 13:43:51.70	323.34	15.14	-25.9	-27.0	16.4	0.00e+00	0	44	0	3132096512	12	4106
2026-01-21 13:43:52.70	323.46	15.05	-25.9	-27.1	16.4	0.00e+00	0	44	0	3137339392	12	4125
2026-01-21 13:43:53.71	323.58	14.96	-26.0	-27.2	16.3	0.00e+00	0	44	0	3142582272	12	4170
2026-01-21 13:43:54.72	323.70	14.87	-26.0	-27.2	16.3	0.00e+00	0	44	0	3148873728	12	4168
2026-01-21 13:43:55.72	323.83	14.79	-26.0	-27.4	16.2	0.00e+00	0	44	0	3154116608	12	4204
2026-01-21 13:43:56.73	323.95	14.70	-26.2	-27.7	16.0	0.00e+00	0	44	0	3160408064	12	4284
2026-01-21 13:43:57.73	324.07	14.61	-26.3	-27.9	15.9	0.00e+00	0	44	0	3165650944	12	4356
2026-01-21 13:43:58.73	324.18	14.53	-26.3	-27.9	15.9	0.00e+00	0	44	0	3170893824	12	4348
2026-01-21 13:43:59.74	324.30	14.44	-26.3	-27.9	15.9	0.00e+00	0	44	0	3177185280	12	4350
2026-01-21 13:44:00.74	324.42	14.35	-26.2	-27.9	15.9	0.00e+00	0	44	0	3182428160	12	4345
2026-01-21 13:44:01.73	324.53	14.27	-26.3	-28.0	15.9	0.00e+00	0	44	0	3187671040	12	4363
2026-01-21 13:44:02.73	324.65	14.19	-26.2	-27.8	16.0	0.00e+00	0	44	0	3193962496	12	4319
2026-01-21 13:44:03.73	324.77	14.10	-26.4	-28.3	15.7	0.00e+00	0	44	0	3199205376	12	4454
2026-01-21 13:44:04.74	324.88	14.01	-26.3	-28.0	15.8	0.00e+00	0	44	0	3205496832	12	4371
2026-01-21 13:44:05.74	325.00	13.93	-26.0	-27.4	16.2	0.00e+00	0	44	0	3210739712	12	4199
2026-01-21 13:44:06.75	325.11	13.84	-26.0	-27.3	16.2	0.00e+00	0	44	0	3215982592	12	4185
2026-01-21 13:44:07.76	325.22	13.76	-26.0	-27.4	16.2	0.00e+00	0	44	0	3222274048	12	4205
2026-01-21 13:44:08.76	325.34	13.68	-26.1	-27.5	16.1	0.00e+00	0	44	0	3227516928	12	4226
2026-01-21 13:44:09.76	325.45	13.59	-26.0	-27.4	16.1	0.00e+00	0	44	0	3233808384	12	4215
2026-01-21 13:44:10.77	325.56	13.51	-26.1	-27.6	16.1	0.00e+00	0	44	0	3239051264	12	4260
2026-01-21 13:44:11.77	325.67	13.42	-26.2	-27.7	16.0	0.00e+00	0	44	0	3244294144	12	4296
2026-01-21 13:44:12.77	325.78	13.34	-26.2	-27.8	15.9	0.00e+00	0	44	0	3250585600	12	4334
2026-01-21 13:44:13.78	325.89	13.26	-26.4	-28.1	15.7	0.00e+00	0	44	0	3255828480	12	4408
2026-01-21 13:44:14.77	326.00	13.17	-26.3	-28.1	15.7	0.00e+00	0	44	0	3261071360	12	4395
2026-01-21 13:44:15.77	326.10	13.09	-26.4	-28.2	15.7	0.00e+00	0	44	0	3267362816	12	4425
2026-01-21 13:44:16.77	326.21	13.01	-26.4	-28.3	15.6	0.00e+00	0	44	0	3272605696	12	4464
2026-01-21 13:44:17.78	326.32	12.93	-26.7	-28.3	15.3	0.00e+00	0	44	0	3277848576	13	4339
2026-01-21 13:44:18.78	326.43	12.84	-26.9	-28.8	15.0	0.00e+00	0	44	0	3284140032	13	4496
2026-01-21 13:44:19.78	326.53	12.76	-26.8	-28.2	15.1	0.00e+00	0	44	0	3289382912	14	4212
2026-01-21 13:44:20.78	326.64	12.68	-26.6	-27.8	15.3	0.00e+00	0	44	0	3295674368	14	4097
2026-01-21 13:44:21.78	326.74	12.60	-26.6	-27.6	15.5	0.00e+00	0	44	0	3300917248	14	4046
2026-01-21 13:44:22.79	326.85	12.52	-26.6	-27.6	15.4	0.00e+00	0	44	0	3307208704	14	4056
2026-01-21 13:44:23.80	326.95	12.43	-26.6	-27.7	15.4	0.00e+00	0	44	0	3312451584	14	4080
2026-01-21 13:44:24.81	327.05	12.35	-26.6	-27.7	15.4	0.00e+00	0	44	0	3317694464	14	4088
2026-01-21 13:44:25.81	327.16	12.27	-26.6	-27.7	15.4	0.00e+00	0	44	0	3323985920	14	4084
2026-01-21 13:44:26.81	327.26	12.19	-26.9	-28.2	15.1	0.00e+00	0	44	0	3329228800	14	4214
2026-01-21 13:44:27.82	327.36	12.11	-26.8	-28.2	15.1	0.00e+00	0	44	0	3334471680	14	4202
2026-01-21 13:44:28.83	327.46	12.03	-26.8	-28.0	15.2	0.00e+00	0	44	0	3340763136	14	4169
2026-01-21 13:44:29.83	327.56	11.95	-26.8	-28.1	15.1	0.00e+00	0	44	0	3346006016	14	4191
2026-01-21 13:44:30.83	327.66	11.87	-26.8	-28.1	15.1	3.40e-06	0	44	0	3352297472	14	4190
2026-01-21 13:44:31.84	327.76	11.79	-26.9	-28.5	14.9	0.00e+00	0	44	0	3357540352	14	4283
2026-01-21 13:44:32.84	327.86	11.71	-26.8	-28.2	15.0	0.00e+00	0	44	0	3362783232	14	4230
2026-01-21 13:44:33.84	327.96	11.63	-26.9	-28.3	15.0	0.00e+00	0	44	0	3369074688	14	4242
2026-01-21 13:44:34.85	328.06	11.55	-26.9	-28.4	15.0	0.00e+00	0	44	0	3374317568	14	4260
2026-01-21 13:44:35.86	328.16	11.47	-26.9	-28.4	15.0	0.00e+00	0	44	0	3380609024	14	4263
2026-01-21 13:44:36.86	328.25	11.39	-26.9	-28.3	15.0	0.00e+00	0	44	0	3385851904	14	4234
2026-01-21 13:44:37.86	328.35	11.31	-27.0	-28.5	14.8	0.00e+00	0	44	0	3391094784	14	4298
2026-01-21 13:44:38.86	328.44	11.23	-26.9	-28.3	15.0	0.00e+00	0	44	0	3397386240	14	4248
2026-01-21 13:44:39.87	328.54	11.15	-26.9	-28.4	14.9	0.00e+00	0	44	0	3402629120	14	4279
2026-01-21 13:44:40.87	328.63	11.08	-26.8	-28.2	15.0	0.00e+00	0	44	0	3407872000	14	4207
2026-01-21 13:44:41.88	328.73	11.00	-26.9	-28.4	14.9	0.00e+00	0	44	0	3414163456	14	4271
2026-01-21 13:44:42.89	328.82	10.92	-26.9	-28.3	14.9	0.00e+00	0	44	0	3419406336	14	4252
2026-01-21 13:44:43.90	328.92	10.84	-26.9	-28.4	14.9	0.00e+00	0	44	0	3425697792	14	4260
2026-01-21 13:44:44.90	329.01	10.76	-27.0	-28.6	14.8	0.00e+00	0	44	0	3430940672	14	4315
2026-01-21 13:44:45.91	329.10	10.69	-27.0	-28.6	14.8	0.00e+00	0	44	0	3436183552	14	4320
2026-01-21 13:44:46.91	329.20	10.61	-27.1	-28.8	14.6	1.10e-06	0	44	0	3442475008	14	4380
2026-01-21 13:44:47.91	329.29	10.53	-27.0	-28.6	14.8	0.00e+00	0	44	0	3447717888	14	4309
2026-01-21 13:44:48.91	329.38	10.46	-27.0	-28.6	14.8	0.00e+00	0	44	0	3454009344	14	4317
2026-01-21 13:44:49.92	329.47	10.38	-27.1	-28.8	14.6	0.00e+00	0	44	0	3459252224	14	4381
2026-01-21 13:44:50.92	329.56	10.30	-27.2	-29.0	14.5	1.10e-06	0	44	0	3464495104	14	4433
2026-01-21 13:44:51.91	329.65	10.23	-27.2	-29.0	14.5	0.00e+00	0	44	0	3470786560	14	4429
2026-01-21 13:44:52.92	329.74	10.15	-27.4	-29.5	14.3	0.00e+00	0	44	0	3476029440	14	4577
2026-01-21 13:44:53.92	329.83	10.08	-27.3	-29.3	14.3	1.10e-06	0	44	0	3481272320	14	4526
2026-01-21 13:44:54.92	329.92	10.00	-27.3	-29.2	14.4	1.10e-06	0	44	0	3487563776	14	4491
2026-01-21 13:44:55.93	330.00	9.92	-27.3	-29.4	14.3	0.00e+00	0	44	0	3492806656	14	4545
2026-01-21 13:44:56.93	330.09	9.85	-27.3	-29.3	14.3	0.00e+00	0	44	0	3498049536	14	4519
2026-01-21 13:44:57.94	330.18	9.77	-27.4	-29.5	14.2	1.10e-06	0	44	0	3504340992	14	4576
2026-01-21 13:44:58.94	330.27	9.70	-27.4	-29.6	14.2	0.00e+00	0	45	0	3509583872	14	4612
2026-01-21 13:44:59.95	330.35	9.62	-27.3	-29.3	14.3	1.10e-06	0	44	0	3515875328	14	4540
2026-01-21 13:45:00.95	330.44	9.55	-27.5	-29.3	14.0	2.20e-06	0	44	0	3521118208	15	4421
2026-01-21 13:45:01.96	330.53	9.47	-27.4	-29.1	14.2	0.00e+00	0	44	0	3527409664	15	4348
2026-01-21 13:45:02.96	330.61	9.40	-27.5	-29.3	14.0	0.00e+00	0	44	0	3532652544	15	4419
2026-01-21 13:45:03.96	330.69	9.33	-27.7	-29.8	13.7	0.00e+00	0	44	0	3537895424	15	4553
2026-01-21 13:45:04.96	330.78	9.25	-27.6	-29.4	14.0	2.20e-06	0	44	0	3544186880	15	4430
2026-01-21 13:45:05.96	330.86	9.18	-27.5	-29.2	14.0	0.00e+00	0	44	0	3549429760	15	4383
2026-01-21 13:45:06.96	330.95	9.10	-27.3	-28.7	14.3	1.10e-06	0	44	0	3554672640	15	4257
2026-01-21 13:45:07.96	331.03	9.03	-27.3	-28.9	14.2	1.10e-06	0	44	0	3560964096	15	4296
2026-01-21 13:45:08.96	331.11	8.96	-27.4	-29.0	14.1	1.10e-06	0	44	0	3566206976	15	4334
2026-01-21 13:45:09.97	331.19	8.88	-27.5	-29.2	14.0	0.00e+00	0	44	0	3571449856	15	4392
2026-01-21 13:45:10.97	331.28	8.81	-27.4	-29.0	14.1	1.10e-06	0	44	0	3577741312	15	4334
2026-01-21 13:45:11.98	331.36	8.74	-27.5	-29.2	14.0	1.10e-06	0	44	0	3582984192	15	4383
2026-01-21 13:45:12.98	331.44	8.67	-27.5	-29.2	14.1	1.10e-06	0	44	0	3589275648	15	4378
2026-01-21 13:45:13.99	331.52	8.59	-27.6	-29.5	13.8	3.40e-06	0	44	0	3594518528	15	4482
2026-01-21 13:45:15.00	331.60	8.52	-27.6	-29.5	13.8	2.20e-06	0	44	0	3600809984	15	4466
2026-01-21 13:45:16.00	331.68	8.45	-27.5	-29.2	14.0	1.10e-06	0	44	0	3606052864	15	4404
2026-01-21 13:45:17.00	331.76	8.38	-27.7	-29.6	13.7	5.70e-06	0	44	0	3611295744	15	4516
2026-01-21 13:45:18.01	331.84	8.30	-27.6	-29.5	13.8	1.10e-06	0	44	0	3617587200	15	4482
2026-01-21 13:45:19.01	331.92	8.23	-27.6	-29.4	13.8	3.40e-06	0	44	0	3622830080	15	4454
2026-01-21 13:45:20.02	332.00	8.16	-27.7	-29.7	13.6	8.00e-06	0	44	0	3628072960	15	4549
2026-01-21 13:45:21.02	332.08	8.09	-27.5	-29.3	13.9	2.20e-06	0	44	0	3634364416	15	4438
2026-01-21 13:45:22.02	332.15	8.02	-27.7	-29.7	13.6	5.70e-06	0	44	0	3639607296	15	4554
2026-01-21 13:45:23.03	332.23	7.95	-27.6	-29.5	13.8	5.70e-06	0	45	0	3644850176	15	4474
2026-01-21 13:45:24.03	332.31	7.88	-27.8	-29.9	13.5	3.40e-06	0	44	0	3651141632	15	4597
2026-01-21 13:45:25.03	332.39	7.81	-27.7	-29.8	13.6	9.10e-06	0	45	0	3656384512	15	4564
2026-01-21 13:45:26.03	332.46	7.74	-27.7	-29.7	13.6	3.40e-06	0	45	0	3662675968	15	4533
2026-01-21 13:45:27.03	332.54	7.67	-27.7	-29.7	13.6	1.10e-06	0	44	0	3667918848	15	4549
2026-01-21 13:45:28.04	332.61	7.60	-27.7	-29.7	13.6	3.40e-06	0	44	0	3674210304	15	4533
2026-01-21 13:45:29.04	332.69	7.53	-27.6	-29.6	13.6	6.80e-06	0	44	0	3679453184	15	4518
2026-01-21 13:45:30.04	332.76	7.46	-27.8	-29.9	13.4	5.70e-06	0	44	0	3684696064	15	4620
2026-01-21 13:45:31.05	332.84	7.39	-27.7	-29.8	13.5	2.20e-06	0	44	0	3690987520	15	4568
2026-01-21 13:45:32.06	332.91	7.32	-27.6	-29.5	13.7	5.70e-06	0	44	0	3696230400	15	4481
2026-01-21 13:45:33.06	332.99	7.25	-27.7	-29.7	13.6	6.80e-06	0	44	0	3701473280	15	4537
2026-01-21 13:45:34.06	333.06	7.18	-27.6	-29.6	13.6	0.00e+00	0	44	0	3707764736	15	4525
2026-01-21 13:45:35.07	333.14	7.11	-27.6	-29.4	13.7	9.10e-06	0	44	0	3713007616	15	4465
2026-01-21 13:45:36.08	333.21	7.04	-33.4	-44.5	3.8	8.47e-01	0	44	104	3715104768	26	12947
2026-01-21 13:45:37.08	333.28	6.97	-33.7	-45.0	3.8	8.45e-01	0	44	104	3715104768	27	13192

#Closed at: 2026-01-21 13:45:37
#Recorded file [3715 MB]: D:/data/31010_260121_163434.dat