passes_logs/2026/01/21/R2M6_AANII_01/R2M6_AANII_01__20260121_070532_FENGYUN_3E_rec.log

#Pass ID: 20260121_070532_FENGYUN 3E
#Satellite: FENGYUN 3E
#Configuration: FENGYUN 3E
#almurnet v.1.7.20240730
#Start time: 2026-01-21 07:05:32

#Version: 2.2.20231116
#Station: R2M6_AANII_01
#Location: 30.233357 lon 59.946436 lat
#TLE: 1 49008U 21062A   26020.29079360  .00000161  00000+0  96807-4 0  9999
#TLE: 2 49008  98.7481  25.3569 0002259 127.4136 232.7246 14.19885851235592

#Time	Az	El	Level	Level2	SNR	BER	BlckErr	Temp	State	Recorded	gain1	gain2
2026-01-21 07:05:32.59	8.62	7.00	-31.1	-34.4	4.7	8.06e-01	0	42	0	0	23	5246
2026-01-21 07:05:33.59	8.51	7.06	-30.4	-32.6	5.1	7.78e-01	0	42	104	0	22	4638
2026-01-21 07:05:34.60	8.40	7.11	-30.4	-32.9	8.2	6.35e-02	0	42	0	0	21	4806
2026-01-21 07:05:35.59	8.28	7.17	-30.5	-33.2	8.0	6.79e-02	0	42	0	7340032	21	4912
2026-01-21 07:05:36.60	8.17	7.23	-30.4	-32.9	8.1	6.61e-02	0	42	0	14680064	21	4817
2026-01-21 07:05:37.60	8.06	7.28	-30.4	-33.0	8.1	6.44e-02	0	42	0	20971520	21	4847
2026-01-21 07:05:38.60	7.94	7.34	-30.5	-33.2	8.0	7.33e-02	0	42	0	28311552	21	4906
2026-01-21 07:05:39.60	7.83	7.39	-30.8	-34.2	7.4	1.10e-01	0	42	0	35651584	21	5293
2026-01-21 07:05:40.61	7.71	7.45	-30.6	-33.7	7.7	1.21e-01	0	42	0	42991616	21	5103
2026-01-21 07:05:41.61	7.60	7.51	-30.3	-32.5	8.5	5.87e-02	0	42	0	50331648	21	4652
2026-01-21 07:05:42.61	7.48	7.56	-29.9	-32.0	9.2	2.47e-02	0	42	0	57671680	20	4566
2026-01-21 07:05:43.61	7.37	7.62	-29.3	-31.0	10.2	7.93e-03	0	42	0	65011712	19	4340
2026-01-21 07:05:44.61	7.25	7.67	-28.9	-29.9	10.9	2.68e-03	0	42	0	72351744	19	4040
2026-01-21 07:05:45.62	7.13	7.73	-28.5	-29.4	11.6	1.16e-03	0	42	0	79691776	18	3989
2026-01-21 07:05:46.62	7.01	7.79	-28.3	-29.3	11.9	4.89e-04	0	42	0	85983232	17	4057
2026-01-21 07:05:47.62	6.90	7.84	-28.2	-29.0	12.1	2.66e-04	0	42	0	93323264	17	3987
2026-01-21 07:05:48.63	6.78	7.90	-28.0	-28.8	12.3	1.72e-04	0	42	0	100663296	17	3909
2026-01-21 07:05:49.63	6.66	7.95	-28.0	-28.6	12.5	1.43e-04	0	42	0	108003328	17	3864
2026-01-21 07:05:50.63	6.54	8.01	-28.0	-29.2	12.4	1.29e-04	0	42	0	115343360	16	4123
2026-01-21 07:05:51.63	6.42	8.07	-27.9	-28.9	12.6	1.50e-04	0	42	0	122683392	16	4029
2026-01-21 07:05:52.63	6.30	8.12	-27.6	-28.3	12.9	5.72e-05	0	42	0	130023424	16	3878
2026-01-21 07:05:53.63	6.18	8.18	-27.6	-28.2	13.0	4.23e-05	0	42	0	137363456	16	3860
2026-01-21 07:05:54.64	6.05	8.23	-27.6	-28.2	13.0	4.80e-05	0	42	0	144703488	16	3853
2026-01-21 07:05:55.63	5.93	8.29	-27.5	-28.0	13.1	2.86e-05	0	43	0	150994944	16	3809
2026-01-21 07:05:56.64	5.81	8.34	-27.6	-28.1	13.1	2.63e-05	0	43	0	158334976	16	3838
2026-01-21 07:05:57.64	5.69	8.40	-27.5	-28.0	13.2	2.97e-05	0	42	0	166723584	16	3805
2026-01-21 07:05:58.65	5.56	8.46	-27.6	-28.1	13.0	5.49e-05	0	43	0	173015040	16	3842
2026-01-21 07:05:59.65	5.44	8.51	-27.6	-28.1	13.0	3.66e-05	0	43	0	180355072	16	3842
2026-01-21 07:06:00.65	5.31	8.57	-27.5	-28.0	13.1	2.86e-05	0	43	0	187695104	16	3821
2026-01-21 07:06:01.66	5.19	8.63	-27.5	-27.9	13.2	3.08e-05	0	42	0	195035136	16	3789
2026-01-21 07:06:02.67	5.06	8.68	-27.4	-27.8	13.2	2.74e-05	0	43	0	202375168	16	3771
2026-01-21 07:06:03.67	4.94	8.74	-27.5	-28.0	13.2	4.00e-05	0	42	0	209715200	16	3806
2026-01-21 07:06:04.66	4.81	8.79	-27.6	-28.3	13.0	3.08e-05	0	43	0	217055232	16	3875
2026-01-21 07:06:05.66	4.69	8.85	-27.6	-28.3	13.0	5.49e-05	0	43	0	224395264	16	3876
2026-01-21 07:06:06.66	4.56	8.90	-27.6	-28.2	13.0	3.08e-05	0	43	0	230686720	16	3858
2026-01-21 07:06:07.67	4.43	8.96	-27.7	-28.5	12.9	4.11e-05	0	43	0	238026752	16	3931
2026-01-21 07:06:08.66	4.30	9.02	-27.7	-28.3	13.0	5.26e-05	0	43	0	245366784	16	3893
2026-01-21 07:06:09.67	4.17	9.07	-27.8	-28.7	12.8	8.01e-05	0	43	0	252706816	16	3978
2026-01-21 07:06:10.68	4.04	9.13	-27.7	-28.6	12.9	7.78e-05	0	43	0	260046848	16	3952
2026-01-21 07:06:11.68	3.91	9.18	-27.8	-28.6	12.8	7.32e-05	0	43	0	267386880	16	3955
2026-01-21 07:06:12.69	3.78	9.24	-27.7	-28.4	12.9	3.66e-05	0	43	0	274726912	16	3905
2026-01-21 07:06:13.69	3.65	9.30	-27.7	-28.4	13.0	4.11e-05	0	43	0	282066944	16	3908
2026-01-21 07:06:14.69	3.52	9.35	-27.7	-28.5	12.9	5.60e-05	0	43	0	289406976	16	3929
2026-01-21 07:06:15.69	3.39	9.41	-27.6	-28.3	13.0	3.66e-05	0	43	0	296747008	16	3873
2026-01-21 07:06:16.70	3.25	9.46	-27.6	-28.1	13.1	2.05e-05	0	43	0	304087040	16	3836
2026-01-21 07:06:17.70	3.12	9.52	-27.6	-28.3	13.1	3.43e-05	0	43	0	311427072	16	3876
2026-01-21 07:06:18.70	2.99	9.57	-27.5	-28.0	13.2	1.83e-05	0	43	0	317718528	16	3810
2026-01-21 07:06:19.71	2.85	9.63	-27.1	-27.5	13.6	2.28e-05	0	43	0	325058560	15	3788
2026-01-21 07:06:20.72	2.72	9.69	-27.0	-27.5	13.7	1.14e-05	0	43	0	332398592	15	3775
2026-01-21 07:06:21.72	2.58	9.74	-27.0	-27.5	13.6	9.10e-06	0	43	0	339738624	15	3788
2026-01-21 07:06:22.73	2.44	9.80	-27.0	-27.3	13.7	6.80e-06	0	43	0	347078656	15	3734
2026-01-21 07:06:23.73	2.31	9.85	-26.8	-27.4	14.0	3.40e-06	0	43	0	354418688	14	3868
2026-01-21 07:06:24.74	2.17	9.91	-26.8	-27.4	13.9	3.40e-06	0	43	0	361758720	14	3867
2026-01-21 07:06:25.74	2.03	9.97	-26.8	-27.4	14.0	5.70e-06	0	43	0	369098752	14	3863
2026-01-21 07:06:26.75	1.89	10.02	-26.8	-27.3	14.1	2.20e-06	0	43	0	376438784	14	3834
2026-01-21 07:06:27.75	1.76	10.08	-26.8	-27.3	14.0	3.40e-06	0	43	0	383778816	14	3833
2026-01-21 07:06:28.77	1.61	10.13	-26.8	-27.5	13.9	8.00e-06	0	43	0	391118848	14	3873
2026-01-21 07:06:29.77	1.48	10.19	-27.0	-27.8	13.8	0.00e+00	0	43	0	398458880	14	3963
2026-01-21 07:06:30.77	1.34	10.24	-27.0	-27.8	13.8	5.70e-06	0	43	0	404750336	14	3949
2026-01-21 07:06:31.77	1.20	10.30	-27.0	-27.9	13.7	6.80e-06	0	43	0	412090368	14	3977
2026-01-21 07:06:32.77	1.05	10.35	-27.0	-27.8	13.8	6.80e-06	0	43	0	419430400	14	3967
2026-01-21 07:06:33.77	0.91	10.41	-27.1	-28.1	13.6	9.10e-06	0	43	0	426770432	14	4036
2026-01-21 07:06:34.78	0.77	10.46	-27.1	-28.0	13.7	1.48e-05	0	43	0	434110464	14	4002
2026-01-21 07:06:35.78	0.63	10.52	-27.0	-28.0	13.7	5.70e-06	0	43	0	441450496	14	4005
2026-01-21 07:06:36.78	0.48	10.57	-27.0	-28.0	13.7	0.00e+00	0	43	0	448790528	14	3999
2026-01-21 07:06:37.79	0.34	10.63	-27.1	-28.2	13.6	6.80e-06	0	43	0	456130560	14	4051
2026-01-21 07:06:38.79	0.20	10.68	-27.1	-28.0	13.6	1.02e-05	0	43	0	463470592	14	4016
2026-01-21 07:06:39.79	0.05	10.74	-27.0	-27.9	13.7	3.40e-06	0	43	0	470810624	14	3984
2026-01-21 07:06:40.80	359.90	10.79	-27.1	-28.0	13.7	6.80e-06	0	43	0	478150656	14	4008
2026-01-21 07:06:41.80	359.76	10.85	-27.1	-28.1	13.7	8.00e-06	0	43	0	484442112	14	4023
2026-01-21 07:06:42.80	359.61	10.90	-27.1	-28.0	13.7	5.70e-06	0	43	0	491782144	14	4018
2026-01-21 07:06:43.80	359.46	10.96	-27.1	-28.1	13.6	9.10e-06	0	43	0	499122176	14	4025
2026-01-21 07:06:44.81	359.32	11.01	-27.0	-27.9	13.7	4.50e-06	0	43	0	506462208	14	3995
2026-01-21 07:06:45.81	359.17	11.07	-26.9	-27.6	13.9	6.80e-06	0	43	0	513802240	14	3913
2026-01-21 07:06:46.81	359.02	11.12	-26.9	-27.7	13.8	2.20e-06	0	43	0	521142272	14	3937
2026-01-21 07:06:47.81	358.87	11.17	-26.8	-27.5	14.0	3.40e-06	0	43	0	528482304	14	3868
2026-01-21 07:06:48.82	358.72	11.23	-26.8	-27.4	14.0	2.20e-06	0	44	0	535822336	14	3856
2026-01-21 07:06:49.81	358.57	11.28	-26.9	-27.5	14.0	3.40e-06	0	43	0	543162368	14	3887
2026-01-21 07:06:50.82	358.42	11.34	-26.8	-27.4	14.1	5.70e-06	0	44	0	549453824	14	3853
2026-01-21 07:06:51.82	358.27	11.39	-26.9	-27.7	13.9	2.20e-06	0	44	0	556793856	14	3930
2026-01-21 07:06:52.83	358.11	11.45	-26.8	-27.3	14.1	4.50e-06	0	44	0	564133888	14	3845
2026-01-21 07:06:53.84	357.96	11.50	-26.8	-27.3	14.1	0.00e+00	0	43	0	571473920	14	3822
2026-01-21 07:06:54.84	357.81	11.55	-26.7	-27.2	14.2	4.50e-06	0	44	0	578813952	14	3804
2026-01-21 07:06:55.84	357.65	11.61	-26.8	-27.4	14.1	2.20e-06	0	44	0	586153984	14	3856
2026-01-21 07:06:56.84	357.50	11.66	-26.7	-27.2	14.2	0.00e+00	0	44	0	593494016	14	3795
2026-01-21 07:06:57.84	357.34	11.71	-26.8	-27.3	14.1	3.40e-06	0	43	0	600834048	14	3835
2026-01-21 07:06:58.84	357.19	11.77	-26.8	-27.4	14.1	2.20e-06	0	44	0	608174080	14	3847
2026-01-21 07:06:59.84	357.03	11.82	-26.8	-27.4	14.1	0.00e+00	0	44	0	615514112	14	3858
2026-01-21 07:07:00.84	356.87	11.87	-26.9	-27.6	14.0	5.70e-06	0	44	0	622854144	14	3902
2026-01-21 07:07:01.85	356.72	11.93	-26.9	-27.6	13.9	4.50e-06	0	43	0	630194176	14	3907
2026-01-21 07:07:02.85	356.56	11.98	-26.9	-27.5	14.0	5.70e-06	0	44	0	636485632	14	3881
2026-01-21 07:07:03.85	356.40	12.03	-26.8	-27.4	14.1	2.20e-06	0	44	0	643825664	14	3864
2026-01-21 07:07:04.85	356.24	12.09	-26.9	-27.7	13.9	6.80e-06	0	43	0	651165696	14	3923
2026-01-21 07:07:05.85	356.08	12.14	-26.8	-27.4	14.1	3.40e-06	0	44	0	658505728	14	3867
2026-01-21 07:07:06.85	355.92	12.19	-26.7	-27.1	14.3	4.50e-06	0	44	0	665845760	14	3768
2026-01-21 07:07:07.85	355.76	12.24	-26.8	-27.3	14.2	1.10e-06	0	44	0	673185792	14	3818
2026-01-21 07:07:08.86	355.60	12.30	-26.6	-26.9	14.4	0.00e+00	0	44	0	680525824	14	3743
2026-01-21 07:07:09.86	355.43	12.35	-26.6	-26.8	14.4	3.40e-06	0	44	0	687865856	14	3718
2026-01-21 07:07:10.87	355.27	12.40	-26.6	-27.0	14.3	1.10e-06	0	44	0	694157312	14	3753
2026-01-21 07:07:11.87	355.11	12.45	-26.6	-27.0	14.3	2.20e-06	0	44	0	701497344	14	3749
2026-01-21 07:07:12.87	354.94	12.51	-26.6	-26.9	14.4	2.20e-06	0	43	0	708837376	14	3739
2026-01-21 07:07:13.87	354.78	12.56	-26.7	-27.2	14.2	1.10e-06	0	44	0	716177408	14	3810
2026-01-21 07:07:14.87	354.61	12.61	-26.6	-26.9	14.4	2.20e-06	0	44	0	723517440	14	3741
2026-01-21 07:07:15.88	354.45	12.66	-26.6	-26.9	14.4	0.00e+00	0	44	0	730857472	14	3725
2026-01-21 07:07:16.88	354.28	12.71	-26.6	-27.0	14.3	2.20e-06	0	44	0	738197504	14	3756
2026-01-21 07:07:17.88	354.12	12.76	-26.5	-26.6	14.6	0.00e+00	0	44	0	745537536	14	3662
2026-01-21 07:07:18.88	353.95	12.81	-26.5	-26.7	14.5	0.00e+00	0	44	0	752877568	14	3676
2026-01-21 07:07:19.88	353.78	12.87	-26.5	-26.7	14.5	0.00e+00	0	44	0	759169024	14	3689
2026-01-21 07:07:20.89	353.61	12.92	-26.6	-26.9	14.4	1.10e-06	0	44	0	766509056	14	3727
2026-01-21 07:07:21.89	353.44	12.97	-26.4	-26.5	14.6	0.00e+00	0	44	0	774897664	14	3642
2026-01-21 07:07:22.89	353.27	13.02	-26.5	-26.7	14.5	0.00e+00	0	44	0	781189120	14	3679
2026-01-21 07:07:23.90	353.10	13.07	-26.4	-27.1	14.6	0.00e+00	0	44	0	788529152	13	3872
2026-01-21 07:07:24.90	352.93	13.12	-26.2	-26.6	14.9	0.00e+00	0	44	0	795869184	13	3756
2026-01-21 07:07:25.90	352.76	13.17	-26.2	-26.6	14.8	0.00e+00	0	44	0	803209216	13	3768
2026-01-21 07:07:26.91	352.58	13.22	-26.1	-26.3	15.0	1.10e-06	0	44	0	810549248	13	3686
2026-01-21 07:07:27.91	352.41	13.27	-26.0	-26.1	15.1	0.00e+00	0	44	0	817889280	13	3647
2026-01-21 07:07:28.91	352.24	13.32	-26.0	-26.2	15.1	0.00e+00	0	44	0	825229312	13	3669
2026-01-21 07:07:29.91	352.06	13.37	-26.2	-26.5	14.9	1.10e-06	0	44	0	832569344	13	3742
2026-01-21 07:07:30.92	351.89	13.42	-26.1	-26.3	15.1	0.00e+00	0	44	0	838860800	13	3677
2026-01-21 07:07:31.93	351.71	13.47	-26.0	-26.2	15.1	0.00e+00	0	44	0	846200832	13	3657
2026-01-21 07:07:32.93	351.54	13.52	-26.1	-26.4	15.0	0.00e+00	0	44	0	853540864	13	3703
2026-01-21 07:07:33.93	351.36	13.57	-26.1	-26.4	15.0	0.00e+00	0	44	0	860880896	13	3701
2026-01-21 07:07:34.94	351.18	13.61	-26.1	-26.4	15.0	0.00e+00	0	44	0	868220928	13	3707
2026-01-21 07:07:35.95	351.00	13.66	-26.1	-26.4	15.0	0.00e+00	0	44	0	875560960	13	3705
2026-01-21 07:07:36.95	350.82	13.71	-26.2	-26.5	15.0	0.00e+00	0	44	0	882900992	13	3733
2026-01-21 07:07:37.95	350.65	13.76	-26.2	-26.5	14.9	0.00e+00	0	44	0	890241024	13	3733
2026-01-21 07:07:38.95	350.47	13.81	-26.2	-26.6	14.9	0.00e+00	0	44	0	897581056	13	3767
2026-01-21 07:07:39.95	350.29	13.86	-26.2	-26.6	14.9	0.00e+00	0	44	0	904921088	13	3760
2026-01-21 07:07:40.95	350.11	13.90	-26.2	-26.6	14.9	0.00e+00	0	44	0	912261120	13	3755
2026-01-21 07:07:41.96	349.92	13.95	-26.2	-26.6	14.9	0.00e+00	0	44	0	919601152	13	3752
2026-01-21 07:07:42.97	349.74	14.00	-26.3	-26.7	14.8	0.00e+00	0	44	0	925892608	13	3778
2026-01-21 07:07:43.97	349.56	14.04	-26.2	-26.6	14.9	0.00e+00	0	44	0	933232640	13	3749
2026-01-21 07:07:44.97	349.38	14.09	-26.2	-26.5	14.9	0.00e+00	0	44	0	940572672	13	3739
2026-01-21 07:07:45.98	349.19	14.14	-26.2	-26.5	15.0	0.00e+00	0	44	0	947912704	13	3721
2026-01-21 07:07:46.98	349.01	14.19	-26.3	-26.9	14.8	0.00e+00	0	44	0	955252736	13	3818
2026-01-21 07:07:47.99	348.82	14.23	-26.1	-26.4	15.0	0.00e+00	0	44	0	962592768	13	3717
2026-01-21 07:07:48.98	348.64	14.28	-26.0	-26.0	15.2	0.00e+00	0	44	0	969932800	13	3615
2026-01-21 07:07:49.99	348.45	14.32	-25.9	-26.0	15.3	0.00e+00	0	44	0	977272832	13	3608
2026-01-21 07:07:50.99	348.26	14.37	-26.0	-26.1	15.2	0.00e+00	0	44	0	984612864	13	3640
2026-01-21 07:07:52.00	348.08	14.41	-25.9	-25.9	15.3	0.00e+00	0	44	0	991952896	13	3595
2026-01-21 07:07:53.00	347.89	14.46	-25.9	-26.4	15.3	0.00e+00	0	44	0	999292928	12	3819
2026-01-21 07:07:54.01	347.70	14.50	-25.8	-26.2	15.4	0.00e+00	0	44	0	1006632960	12	3752
2026-01-21 07:07:55.02	347.51	14.55	-25.8	-26.2	15.4	0.00e+00	0	44	0	1012924416	12	3768
2026-01-21 07:07:56.02	347.32	14.59	-26.0	-26.5	15.2	0.00e+00	0	44	0	1020264448	12	3835
2026-01-21 07:07:57.03	347.13	14.64	-25.9	-26.3	15.4	0.00e+00	0	44	0	1027604480	12	3777
2026-01-21 07:07:58.03	346.94	14.68	-25.8	-26.1	15.5	0.00e+00	0	44	0	1034944512	12	3733
2026-01-21 07:07:59.03	346.75	14.73	-25.8	-26.2	15.4	0.00e+00	0	44	0	1042284544	12	3762
2026-01-21 07:08:00.04	346.55	14.77	-25.8	-26.2	15.4	0.00e+00	0	44	0	1049624576	12	3755
2026-01-21 07:08:01.04	346.36	14.81	-25.8	-26.2	15.4	0.00e+00	0	44	0	1056964608	12	3768
2026-01-21 07:08:02.04	346.17	14.86	-25.9	-26.3	15.4	0.00e+00	0	44	0	1064304640	12	3793
2026-01-21 07:08:03.05	345.97	14.90	-25.9	-26.5	15.3	0.00e+00	0	44	0	1071644672	12	3827
2026-01-21 07:08:04.05	345.78	14.94	-26.0	-26.5	15.3	0.00e+00	0	44	0	1078984704	12	3833
2026-01-21 07:08:05.05	345.59	14.98	-26.1	-26.9	15.1	1.10e-06	0	44	0	1086324736	12	3925
2026-01-21 07:08:06.05	345.39	15.03	-25.9	-26.4	15.3	0.00e+00	0	44	0	1092616192	12	3807
2026-01-21 07:08:07.05	345.20	15.07	-26.0	-26.6	15.3	0.00e+00	0	44	0	1099956224	12	3847
2026-01-21 07:08:08.06	345.00	15.11	-25.9	-26.5	15.3	0.00e+00	0	44	0	1107296256	12	3820
2026-01-21 07:08:09.06	344.80	15.15	-26.0	-26.6	15.3	0.00e+00	0	44	0	1114636288	12	3845
2026-01-21 07:08:10.06	344.60	15.19	-26.0	-26.6	15.2	0.00e+00	0	44	0	1121976320	12	3854
2026-01-21 07:08:11.06	344.41	15.23	-25.9	-26.4	15.3	0.00e+00	0	44	0	1129316352	12	3806
2026-01-21 07:08:12.07	344.21	15.27	-25.9	-26.3	15.4	0.00e+00	0	44	0	1136656384	12	3778
2026-01-21 07:08:13.08	344.01	15.31	-25.9	-26.4	15.4	0.00e+00	0	44	0	1143996416	12	3801
2026-01-21 07:08:14.09	343.80	15.35	-25.9	-26.3	15.4	0.00e+00	0	44	0	1151336448	12	3786
2026-01-21 07:08:15.09	343.61	15.39	-25.8	-26.2	15.5	0.00e+00	0	44	0	1157627904	12	3769
2026-01-21 07:08:16.08	343.41	15.43	-25.9	-26.5	15.3	0.00e+00	0	44	0	1164967936	12	3823
2026-01-21 07:08:17.09	343.20	15.47	-25.8	-26.2	15.5	0.00e+00	0	44	0	1173356544	12	3761
2026-01-21 07:08:18.10	343.00	15.51	-25.8	-26.2	15.5	0.00e+00	0	44	0	1179648000	12	3752
2026-01-21 07:08:19.10	342.80	15.55	-25.9	-26.3	15.4	0.00e+00	0	44	0	1186988032	12	3781
2026-01-21 07:08:20.10	342.60	15.58	-25.6	-25.7	15.7	0.00e+00	0	44	0	1194328064	12	3651
2026-01-21 07:08:21.11	342.39	15.62	-25.6	-25.7	15.8	0.00e+00	0	44	0	1201668096	12	3642
2026-01-21 07:08:22.10	342.19	15.66	-25.6	-25.7	15.8	0.00e+00	0	44	0	1209008128	12	3641
2026-01-21 07:08:23.11	341.98	15.70	-25.4	-25.4	15.9	0.00e+00	0	44	0	1216348160	12	3564
2026-01-21 07:08:24.11	341.78	15.73	-25.4	-25.3	16.0	0.00e+00	0	44	0	1223688192	12	3562
2026-01-21 07:08:25.12	341.57	15.77	-25.5	-25.5	15.9	0.00e+00	0	44	0	1231028224	12	3598
2026-01-21 07:08:26.12	341.37	15.81	-25.4	-25.3	15.9	0.00e+00	0	44	0	1238368256	12	3564
2026-01-21 07:08:27.12	341.16	15.84	-25.5	-25.5	15.9	0.00e+00	0	44	0	1244659712	12	3602
2026-01-21 07:08:28.12	340.95	15.88	-25.6	-25.7	15.8	0.00e+00	0	44	0	1251999744	12	3641
2026-01-21 07:08:29.13	340.75	15.91	-25.6	-25.8	15.7	0.00e+00	0	44	0	1259339776	12	3662
2026-01-21 07:08:30.13	340.54	15.95	-25.6	-25.8	15.7	0.00e+00	0	44	0	1266679808	12	3662
2026-01-21 07:08:31.14	340.33	15.98	-25.7	-26.0	15.6	0.00e+00	0	44	0	1274019840	12	3711
2026-01-21 07:08:32.15	340.12	16.02	-25.7	-25.9	15.7	0.00e+00	0	44	0	1281359872	12	3676
2026-01-21 07:08:33.15	339.91	16.05	-25.8	-26.2	15.5	0.00e+00	0	44	0	1288699904	12	3749
2026-01-21 07:08:34.15	339.70	16.08	-25.7	-26.0	15.6	0.00e+00	0	44	0	1296039936	12	3714
2026-01-21 07:08:35.15	339.49	16.12	-25.6	-25.7	15.7	0.00e+00	0	44	0	1303379968	12	3647
2026-01-21 07:08:36.15	339.28	16.15	-25.6	-25.6	15.8	0.00e+00	0	44	0	1310720000	12	3619
2026-01-21 07:08:37.15	339.07	16.18	-25.6	-25.7	15.7	0.00e+00	0	44	0	1318060032	12	3644
2026-01-21 07:08:38.16	338.85	16.21	-25.6	-25.7	15.8	0.00e+00	0	44	0	1324351488	12	3637
2026-01-21 07:08:39.16	338.64	16.25	-25.6	-25.7	15.8	0.00e+00	0	44	0	1331691520	12	3644
2026-01-21 07:08:40.16	338.43	16.28	-25.8	-26.2	15.5	0.00e+00	0	44	0	1339031552	12	3751
2026-01-21 07:08:41.17	338.22	16.31	-26.0	-26.5	15.4	0.00e+00	0	44	0	1346371584	12	3828
2026-01-21 07:08:42.17	338.00	16.34	-25.9	-26.4	15.4	0.00e+00	0	44	0	1353711616	12	3808
2026-01-21 07:08:43.17	337.79	16.37	-26.0	-26.5	15.3	0.00e+00	0	44	0	1361051648	12	3826
2026-01-21 07:08:44.18	337.57	16.40	-26.0	-26.7	15.3	0.00e+00	0	44	0	1368391680	12	3867
2026-01-21 07:08:45.18	337.36	16.43	-26.0	-26.6	15.3	0.00e+00	0	44	0	1375731712	12	3856
2026-01-21 07:08:46.18	337.14	16.46	-26.0	-26.6	15.3	0.00e+00	0	44	0	1383071744	12	3854
2026-01-21 07:08:47.18	336.93	16.49	-26.0	-26.6	15.3	0.00e+00	0	44	0	1389363200	12	3854
2026-01-21 07:08:48.19	336.71	16.52	-25.9	-26.3	15.4	0.00e+00	0	44	0	1396703232	12	3781
2026-01-21 07:08:49.19	336.50	16.54	-25.7	-25.8	15.7	0.00e+00	0	44	0	1405091840	12	3674
2026-01-21 07:08:50.20	336.28	16.57	-25.6	-25.6	15.8	0.00e+00	0	44	0	1411383296	12	3618
2026-01-21 07:08:51.20	336.06	16.60	-25.6	-25.7	15.8	0.00e+00	0	44	0	1418723328	12	3637
2026-01-21 07:08:52.21	335.84	16.63	-25.5	-25.6	15.9	0.00e+00	0	44	0	1426063360	12	3608
2026-01-21 07:08:53.21	335.62	16.65	-25.6	-25.7	15.8	0.00e+00	0	44	0	1433403392	12	3635
2026-01-21 07:08:54.21	335.40	16.68	-25.7	-25.9	15.7	0.00e+00	0	44	0	1440743424	12	3701
2026-01-21 07:08:55.21	335.19	16.70	-25.4	-25.4	16.0	0.00e+00	0	44	0	1448083456	12	3568
2026-01-21 07:08:56.22	334.96	16.73	-25.3	-25.6	16.1	0.00e+00	0	44	0	1455423488	11	3710
2026-01-21 07:08:57.23	334.74	16.75	-25.3	-25.6	16.2	0.00e+00	0	44	0	1462763520	11	3730
2026-01-21 07:08:58.23	334.52	16.78	-25.4	-25.8	16.1	0.00e+00	0	44	0	1469054976	11	3754
2026-01-21 07:08:59.23	334.30	16.80	-25.4	-25.7	16.1	0.00e+00	0	44	0	1476395008	11	3741
2026-01-21 07:09:00.23	334.08	16.83	-25.3	-25.6	16.2	0.00e+00	0	44	0	1483735040	11	3713
2026-01-21 07:09:01.24	333.86	16.85	-25.2	-25.4	16.3	0.00e+00	0	44	0	1491075072	11	3675
2026-01-21 07:09:02.24	333.64	16.87	-25.2	-25.2	16.4	0.00e+00	0	44	0	1498415104	11	3635
2026-01-21 07:09:03.24	333.42	16.89	-25.2	-25.3	16.3	0.00e+00	0	44	0	1505755136	11	3647
2026-01-21 07:09:04.24	333.20	16.92	-25.1	-25.1	16.5	0.00e+00	0	44	0	1513095168	11	3599
2026-01-21 07:09:05.24	332.97	16.94	-25.1	-25.1	16.4	0.00e+00	0	44	0	1520435200	11	3603
2026-01-21 07:09:06.25	332.75	16.96	-25.1	-25.2	16.4	0.00e+00	0	44	0	1527775232	11	3620
2026-01-21 07:09:07.26	332.53	16.98	-25.0	-25.0	16.5	0.00e+00	0	44	0	1535115264	11	3582
2026-01-21 07:09:08.27	332.30	17.00	-25.1	-25.1	16.4	0.00e+00	0	44	0	1542455296	11	3602
2026-01-21 07:09:09.27	332.08	17.02	-25.1	-25.0	16.5	0.00e+00	0	44	0	1549795328	11	3592
2026-01-21 07:09:10.28	331.85	17.04	-25.1	-25.1	16.4	0.00e+00	0	44	0	1556086784	11	3604
2026-01-21 07:09:11.29	331.63	17.06	-25.0	-24.9	16.5	0.00e+00	0	44	0	1563426816	11	3565
2026-01-21 07:09:12.29	331.40	17.08	-25.0	-25.0	16.5	0.00e+00	0	44	0	1571815424	11	3579
2026-01-21 07:09:13.30	331.17	17.10	-25.1	-25.1	16.5	0.00e+00	0	44	0	1578106880	11	3595
2026-01-21 07:09:14.31	330.95	17.11	-24.9	-24.7	16.7	0.00e+00	0	44	0	1585446912	11	3514
2026-01-21 07:09:15.31	330.72	17.13	-24.9	-25.2	16.7	0.00e+00	0	44	0	1592786944	10	3719
2026-01-21 07:09:16.31	330.50	17.15	-24.9	-25.2	16.7	0.00e+00	0	44	0	1600126976	10	3717
2026-01-21 07:09:17.31	330.27	17.16	-25.0	-25.4	16.5	0.00e+00	0	44	0	1607467008	10	3772
2026-01-21 07:09:18.32	330.04	17.18	-25.1	-25.7	16.4	0.00e+00	0	44	0	1614807040	10	3826
2026-01-21 07:09:19.32	329.82	17.19	-25.0	-25.5	16.5	0.00e+00	0	44	0	1622147072	10	3783
2026-01-21 07:09:20.32	329.59	17.21	-25.1	-25.5	16.5	0.00e+00	0	44	0	1629487104	10	3801
2026-01-21 07:09:21.33	329.36	17.22	-25.1	-25.7	16.4	0.00e+00	0	44	0	1636827136	10	3831
2026-01-21 07:09:22.34	329.13	17.24	-25.2	-25.8	16.3	0.00e+00	0	44	0	1644167168	10	3865
2026-01-21 07:09:23.34	328.91	17.25	-25.3	-26.1	16.2	0.00e+00	0	44	0	1651507200	10	3944
2026-01-21 07:09:24.35	328.68	17.26	-25.2	-25.8	16.3	0.00e+00	0	44	0	1658847232	10	3876
2026-01-21 07:09:25.35	328.45	17.28	-25.1	-25.7	16.4	0.00e+00	0	44	0	1665138688	10	3844
2026-01-21 07:09:26.35	328.22	17.29	-25.1	-25.7	16.4	0.00e+00	0	44	0	1672478720	10	3841
2026-01-21 07:09:27.36	327.99	17.30	-25.1	-25.7	16.4	0.00e+00	0	44	0	1679818752	10	3845
2026-01-21 07:09:28.36	327.77	17.31	-25.0	-25.4	16.5	0.00e+00	0	44	0	1687158784	10	3777
2026-01-21 07:09:29.36	327.54	17.32	-25.1	-25.7	16.4	0.00e+00	0	44	0	1694498816	10	3843
2026-01-21 07:09:30.36	327.31	17.33	-25.1	-25.7	16.4	0.00e+00	0	44	0	1701838848	10	3847
2026-01-21 07:09:31.36	327.08	17.34	-25.0	-25.4	16.5	0.00e+00	0	44	0	1709178880	10	3766
2026-01-21 07:09:32.36	326.85	17.35	-24.9	-25.2	16.6	0.00e+00	0	44	0	1716518912	10	3730
2026-01-21 07:09:33.37	326.62	17.36	-24.9	-25.1	16.7	0.00e+00	0	44	0	1722810368	10	3704
2026-01-21 07:09:34.37	326.39	17.37	-24.9	-25.1	16.7	0.00e+00	0	44	0	1730150400	10	3710
2026-01-21 07:09:35.37	326.16	17.38	-24.8	-25.0	16.7	0.00e+00	0	44	0	1737490432	10	3686
2026-01-21 07:09:36.37	325.94	17.39	-24.9	-25.2	16.7	0.00e+00	0	44	0	1744830464	10	3724
2026-01-21 07:09:37.38	325.70	17.39	-24.9	-25.3	16.6	0.00e+00	0	44	0	1752170496	10	3741
2026-01-21 07:09:38.38	325.47	17.40	-24.8	-24.9	16.8	0.00e+00	0	44	0	1759510528	10	3658
2026-01-21 07:09:39.39	325.24	17.41	-24.7	-24.8	16.9	0.00e+00	0	44	0	1766850560	10	3633
2026-01-21 07:09:40.39	325.01	17.41	-24.8	-24.9	16.8	0.00e+00	0	44	0	1774190592	10	3663
2026-01-21 07:09:41.39	324.78	17.42	-24.9	-25.2	16.6	0.00e+00	0	44	0	1781530624	10	3732
2026-01-21 07:09:42.40	324.55	17.42	-24.9	-25.2	16.6	0.00e+00	0	44	0	1788870656	10	3726
2026-01-21 07:09:43.40	324.32	17.43	-24.9	-25.2	16.6	0.00e+00	0	44	0	1796210688	10	3732
2026-01-21 07:09:44.40	324.09	17.43	-25.0	-25.3	16.6	0.00e+00	0	44	0	1803550720	10	3752
2026-01-21 07:09:45.41	323.86	17.43	-25.0	-25.5	16.5	0.00e+00	0	44	0	1809842176	10	3800
2026-01-21 07:09:46.41	323.63	17.44	-25.1	-25.6	16.5	0.00e+00	0	44	0	1817182208	10	3816
2026-01-21 07:09:47.41	323.40	17.44	-25.1	-25.6	16.4	0.00e+00	0	44	0	1824522240	10	3826
2026-01-21 07:09:48.41	323.17	17.44	-25.1	-25.6	16.4	0.00e+00	0	44	0	1831862272	10	3819
2026-01-21 07:09:49.41	322.94	17.44	-24.9	-25.3	16.6	0.00e+00	0	44	0	1839202304	10	3742
2026-01-21 07:09:50.41	322.71	17.44	-24.9	-25.3	16.6	0.00e+00	0	44	0	1846542336	10	3746
2026-01-21 07:09:51.42	322.48	17.44	-25.0	-25.4	16.6	0.00e+00	0	44	0	1853882368	10	3762
2026-01-21 07:09:52.42	322.25	17.44	-24.9	-25.2	16.6	0.00e+00	0	44	0	1861222400	10	3734
2026-01-21 07:09:53.43	322.02	17.44	-25.0	-25.4	16.5	0.00e+00	0	44	0	1867513856	10	3769
2026-01-21 07:09:54.43	321.79	17.44	-25.2	-25.8	16.3	0.00e+00	0	44	0	1874853888	10	3866
2026-01-21 07:09:55.44	321.55	17.44	-25.2	-25.9	16.2	0.00e+00	0	44	0	1882193920	10	3897
2026-01-21 07:09:56.44	321.32	17.44	-25.3	-26.1	16.2	0.00e+00	0	44	0	1889533952	10	3931
2026-01-21 07:09:57.44	321.09	17.44	-25.3	-26.1	16.1	0.00e+00	0	44	0	1896873984	10	3948
2026-01-21 07:09:58.45	320.86	17.43	-25.4	-26.2	16.1	0.00e+00	0	44	0	1904214016	10	3970
2026-01-21 07:09:59.45	320.63	17.43	-25.4	-26.4	16.0	0.00e+00	0	44	0	1911554048	10	4000
2026-01-21 07:10:00.45	320.40	17.43	-25.4	-26.2	16.1	0.00e+00	0	44	0	1918894080	10	3972
2026-01-21 07:10:01.46	320.17	17.42	-25.2	-25.8	16.3	0.00e+00	0	44	0	1926234112	10	3857
2026-01-21 07:10:02.46	319.94	17.42	-25.1	-25.5	16.5	0.00e+00	0	44	0	1933574144	10	3805
2026-01-21 07:10:03.46	319.71	17.41	-25.2	-25.8	16.3	0.00e+00	0	44	0	1940914176	10	3853
2026-01-21 07:10:04.47	319.48	17.41	-25.1	-25.7	16.4	0.00e+00	0	44	0	1948254208	10	3827
2026-01-21 07:10:05.47	319.25	17.40	-25.0	-25.4	16.6	0.00e+00	0	44	0	1954545664	10	3761
2026-01-21 07:10:06.47	319.02	17.39	-24.9	-25.2	16.6	0.00e+00	0	44	0	1961885696	10	3729
2026-01-21 07:10:07.47	318.79	17.39	-25.1	-25.7	16.4	0.00e+00	0	44	0	1969225728	10	3843
2026-01-21 07:10:08.47	318.56	17.38	-25.2	-25.9	16.3	0.00e+00	0	44	0	1976565760	10	3878
2026-01-21 07:10:09.47	318.33	17.37	-25.1	-25.6	16.4	0.00e+00	0	44	0	1983905792	10	3817
2026-01-21 07:10:10.48	318.10	17.36	-25.2	-25.8	16.3	0.00e+00	0	44	0	1991245824	10	3859
2026-01-21 07:10:11.48	317.87	17.35	-25.2	-25.9	16.3	0.00e+00	0	44	0	1998585856	10	3895
2026-01-21 07:10:12.49	317.64	17.34	-25.2	-25.9	16.3	0.00e+00	0	44	0	2005925888	10	3885
2026-01-21 07:10:13.50	317.41	17.33	-25.1	-25.6	16.4	0.00e+00	0	44	0	2013265920	10	3810
2026-01-21 07:10:14.50	317.18	17.32	-25.0	-25.4	16.6	0.00e+00	0	44	0	2020605952	10	3761
2026-01-21 07:10:15.50	316.96	17.31	-25.0	-25.3	16.6	0.00e+00	0	44	0	2027945984	10	3759
2026-01-21 07:10:16.50	316.73	17.30	-24.9	-25.1	16.7	0.00e+00	0	44	0	2035286016	10	3698
2026-01-21 07:10:17.51	316.50	17.29	-24.9	-25.3	16.6	0.00e+00	0	44	0	2041577472	10	3737
2026-01-21 07:10:18.51	316.27	17.28	-25.0	-25.4	16.5	0.00e+00	0	44	0	2048917504	10	3779
2026-01-21 07:10:19.50	316.04	17.27	-24.8	-24.9	16.8	0.00e+00	0	44	0	2056257536	10	3646
2026-01-21 07:10:20.50	315.82	17.25	-24.8	-24.9	16.8	0.00e+00	0	44	0	2063597568	10	3658
2026-01-21 07:10:21.50	315.59	17.24	-24.8	-25.0	16.7	0.00e+00	0	44	0	2070937600	10	3691
2026-01-21 07:10:22.50	315.36	17.22	-24.9	-25.2	16.6	0.00e+00	0	44	0	2078277632	10	3731
2026-01-21 07:10:23.50	315.14	17.21	-24.9	-25.2	16.6	0.00e+00	0	44	0	2085617664	10	3730
2026-01-21 07:10:24.50	314.91	17.20	-24.9	-25.3	16.6	0.00e+00	0	44	0	2092957696	10	3743
2026-01-21 07:10:25.50	314.68	17.18	-24.9	-25.2	16.6	0.00e+00	0	44	0	2099249152	10	3733
2026-01-21 07:10:26.51	314.46	17.16	-25.0	-25.4	16.6	0.00e+00	0	44	0	2106589184	10	3761
2026-01-21 07:10:27.51	314.23	17.15	-25.0	-25.3	16.6	0.00e+00	0	44	0	2113929216	10	3759
2026-01-21 07:10:28.52	314.00	17.13	-25.0	-25.4	16.5	0.00e+00	0	44	0	2121269248	10	3762
2026-01-21 07:10:29.52	313.78	17.11	-25.0	-25.3	16.6	0.00e+00	0	44	0	2128609280	10	3753
2026-01-21 07:10:30.52	313.55	17.10	-25.0	-25.4	16.5	0.00e+00	0	44	0	2135949312	10	3781
2026-01-21 07:10:31.52	313.33	17.08	-25.0	-25.5	16.5	0.00e+00	0	44	0	2143289344	10	3787
2026-01-21 07:10:32.53	313.10	17.06	-25.0	-25.4	16.5	0.00e+00	0	44	0	2150629376	10	3765
2026-01-21 07:10:33.53	312.88	17.04	-25.1	-25.6	16.4	0.00e+00	0	44	0	2157969408	10	3808
2026-01-21 07:10:34.53	312.65	17.02	-25.1	-25.5	16.4	0.00e+00	0	44	0	2164260864	10	3800
2026-01-21 07:10:35.54	312.43	17.00	-24.9	-25.3	16.6	0.00e+00	0	44	0	2171600896	10	3738
2026-01-21 07:10:36.54	312.20	16.98	-24.9	-25.2	16.6	0.00e+00	0	44	0	2179989504	10	3728
2026-01-21 07:10:37.54	311.98	16.96	-25.0	-25.4	16.5	0.00e+00	0	44	0	2186280960	10	3765
2026-01-21 07:10:38.54	311.76	16.94	-25.0	-25.4	16.5	0.00e+00	0	44	0	2193620992	10	3762
2026-01-21 07:10:39.54	311.54	16.92	-25.0	-25.5	16.5	0.00e+00	0	45	0	2200961024	10	3794
2026-01-21 07:10:40.54	311.31	16.90	-25.0	-25.4	16.5	0.00e+00	0	44	0	2208301056	10	3770
2026-01-21 07:10:41.54	311.09	16.87	-25.0	-25.4	16.5	0.00e+00	0	44	0	2215641088	10	3767
2026-01-21 07:10:42.54	310.87	16.85	-25.1	-25.7	16.4	0.00e+00	0	44	0	2222981120	10	3843
2026-01-21 07:10:43.55	310.65	16.83	-25.1	-25.7	16.3	0.00e+00	0	45	0	2230321152	10	3843
2026-01-21 07:10:44.55	310.43	16.80	-25.2	-25.9	16.3	0.00e+00	0	44	0	2237661184	10	3877
2026-01-21 07:10:45.56	310.20	16.78	-25.2	-25.9	16.2	0.00e+00	0	44	0	2245001216	10	3893
2026-01-21 07:10:46.57	309.98	16.76	-25.2	-25.7	16.3	0.00e+00	0	44	0	2251292672	10	3844
2026-01-21 07:10:47.57	309.76	16.73	-25.2	-25.8	16.3	0.00e+00	0	45	0	2258632704	10	3856
2026-01-21 07:10:48.58	309.54	16.71	-25.3	-26.0	16.2	0.00e+00	0	45	0	2265972736	10	3918
2026-01-21 07:10:49.58	309.32	16.68	-25.3	-26.1	16.2	0.00e+00	0	44	0	2273312768	10	3928
2026-01-21 07:10:50.58	309.10	16.65	-25.2	-25.8	16.3	0.00e+00	0	44	0	2280652800	10	3858
2026-01-21 07:10:51.58	308.89	16.63	-25.1	-25.7	16.4	0.00e+00	0	45	0	2287992832	10	3833
2026-01-21 07:10:52.59	308.67	16.60	-25.1	-25.7	16.4	0.00e+00	0	45	0	2295332864	10	3837
2026-01-21 07:10:53.59	308.45	16.57	-25.1	-25.7	16.3	0.00e+00	0	44	0	2302672896	10	3829
2026-01-21 07:10:54.59	308.23	16.55	-25.1	-25.7	16.3	0.00e+00	0	45	0	2308964352	10	3835
2026-01-21 07:10:55.59	308.01	16.52	-25.2	-25.9	16.2	0.00e+00	0	44	0	2316304384	10	3880
2026-01-21 07:10:56.59	307.80	16.49	-25.3	-26.1	16.1	0.00e+00	0	44	0	2324692992	10	3931
2026-01-21 07:10:57.59	307.58	16.46	-25.4	-26.3	16.0	0.00e+00	0	45	0	2330984448	10	3980
2026-01-21 07:10:58.59	307.37	16.43	-25.4	-26.4	16.0	0.00e+00	0	44	0	2338324480	10	4007
2026-01-21 07:10:59.60	307.15	16.40	-25.4	-26.4	16.0	0.00e+00	0	45	0	2345664512	10	4004
2026-01-21 07:11:00.61	306.93	16.37	-25.4	-26.2	16.1	0.00e+00	0	45	0	2353004544	10	3949
2026-01-21 07:11:01.61	306.72	16.34	-25.4	-26.3	16.0	0.00e+00	0	44	0	2360344576	10	3990
2026-01-21 07:11:02.63	306.50	16.31	-25.4	-26.2	16.1	0.00e+00	0	44	0	2367684608	10	3962
2026-01-21 07:11:03.62	306.29	16.28	-25.5	-26.5	15.9	0.00e+00	0	44	0	2375024640	10	4026
2026-01-21 07:11:04.62	306.08	16.25	-25.5	-26.0	15.9	0.00e+00	0	44	0	2382364672	11	3799
2026-01-21 07:11:05.63	305.86	16.22	-25.4	-25.7	16.1	0.00e+00	0	44	0	2389704704	11	3744
2026-01-21 07:11:06.63	305.65	16.18	-25.2	-25.3	16.3	0.00e+00	0	44	0	2395996160	11	3646
2026-01-21 07:11:07.63	305.44	16.15	-25.4	-25.7	16.1	0.00e+00	0	45	0	2403336192	11	3733
2026-01-21 07:11:08.63	305.23	16.12	-25.4	-25.8	16.0	0.00e+00	0	45	0	2410676224	11	3764
2026-01-21 07:11:09.64	305.02	16.09	-25.4	-25.9	16.0	0.00e+00	0	45	0	2418016256	11	3778
2026-01-21 07:11:10.64	304.81	16.05	-25.4	-25.8	16.0	0.00e+00	0	44	0	2425356288	11	3768
2026-01-21 07:11:11.64	304.60	16.02	-25.5	-25.9	15.9	0.00e+00	0	44	0	2432696320	11	3790
2026-01-21 07:11:12.65	304.39	15.98	-25.4	-25.7	16.0	0.00e+00	0	44	0	2440036352	11	3733
2026-01-21 07:11:13.65	304.18	15.95	-25.3	-25.5	16.1	0.00e+00	0	44	0	2447376384	11	3687
2026-01-21 07:11:14.65	303.97	15.92	-25.3	-25.5	16.1	0.00e+00	0	45	0	2454716416	11	3702
2026-01-21 07:11:15.65	303.76	15.88	-25.3	-25.4	16.2	0.00e+00	0	44	0	2462056448	11	3680
2026-01-21 07:11:16.65	303.56	15.84	-25.3	-25.4	16.2	0.00e+00	0	44	0	2469396480	11	3681
2026-01-21 07:11:17.65	303.35	15.81	-25.3	-25.5	16.1	0.00e+00	0	44	0	2475687936	11	3685
2026-01-21 07:11:18.65	303.14	15.77	-25.4	-25.8	16.0	0.00e+00	0	45	0	2483027968	11	3757
2026-01-21 07:11:19.66	302.93	15.74	-25.4	-25.8	15.9	0.00e+00	0	44	0	2490368000	11	3768
2026-01-21 07:11:20.66	302.73	15.70	-25.6	-26.2	15.8	0.00e+00	0	44	0	2497708032	11	3849
2026-01-21 07:11:21.66	302.53	15.66	-25.6	-26.3	15.7	0.00e+00	0	44	0	2505048064	11	3881
2026-01-21 07:11:22.66	302.32	15.62	-25.6	-26.3	15.7	2.20e-06	0	44	0	2512388096	11	3876
2026-01-21 07:11:23.66	302.12	15.59	-25.7	-26.4	15.6	0.00e+00	0	45	0	2519728128	11	3913
2026-01-21 07:11:24.67	301.91	15.55	-25.6	-26.3	15.7	0.00e+00	0	45	0	2527068160	11	3885
2026-01-21 07:11:25.67	301.71	15.51	-25.5	-26.1	15.8	1.10e-06	0	44	0	2534408192	11	3831
2026-01-21 07:11:26.68	301.51	15.47	-25.6	-26.2	15.7	0.00e+00	0	44	0	2540699648	11	3853
2026-01-21 07:11:27.68	301.30	15.43	-25.6	-26.1	15.8	0.00e+00	0	45	0	2548039680	11	3842
2026-01-21 07:11:28.68	301.10	15.39	-25.4	-25.8	15.9	0.00e+00	0	44	0	2555379712	11	3757
2026-01-21 07:11:29.68	300.90	15.35	-25.4	-25.9	15.9	0.00e+00	0	44	0	2562719744	11	3779
2026-01-21 07:11:30.68	300.70	15.31	-25.4	-25.8	15.9	0.00e+00	0	45	0	2570059776	11	3768
2026-01-21 07:11:31.69	300.50	15.27	-25.4	-25.7	16.0	0.00e+00	0	45	0	2577399808	11	3744
2026-01-21 07:11:32.69	300.30	15.23	-25.4	-25.8	15.9	0.00e+00	0	45	0	2584739840	11	3770
2026-01-21 07:11:33.70	300.10	15.19	-25.5	-25.9	15.9	0.00e+00	0	45	0	2592079872	11	3795
2026-01-21 07:11:34.70	299.91	15.15	-25.5	-26.0	15.8	0.00e+00	0	44	0	2599419904	11	3821
2026-01-21 07:11:35.71	299.71	15.11	-25.6	-26.1	15.7	0.00e+00	0	45	0	2606759936	11	3838
2026-01-21 07:11:36.71	299.51	15.07	-25.7	-26.4	15.6	0.00e+00	0	44	0	2614099968	11	3913
2026-01-21 07:11:37.71	299.31	15.03	-25.6	-26.2	15.7	0.00e+00	0	44	0	2621440000	11	3850
2026-01-21 07:11:38.72	299.12	14.98	-25.6	-26.2	15.7	0.00e+00	0	45	0	2627731456	11	3864
2026-01-21 07:11:39.73	298.92	14.94	-25.7	-26.4	15.6	0.00e+00	0	44	0	2635071488	11	3909
2026-01-21 07:11:40.73	298.73	14.90	-25.7	-26.3	15.6	0.00e+00	0	45	0	2642411520	11	3897
2026-01-21 07:11:41.74	298.53	14.86	-25.7	-26.4	15.6	0.00e+00	0	44	0	2649751552	11	3903
2026-01-21 07:11:42.74	298.34	14.81	-25.8	-26.6	15.5	1.10e-06	0	44	0	2657091584	11	3952
2026-01-21 07:11:43.74	298.14	14.77	-25.7	-26.5	15.5	0.00e+00	0	44	0	2664431616	11	3935
2026-01-21 07:11:44.75	297.95	14.73	-25.7	-26.4	15.6	0.00e+00	0	44	0	2671771648	11	3904
2026-01-21 07:11:45.75	297.76	14.68	-25.7	-26.5	15.5	0.00e+00	0	44	0	2679111680	11	3936
2026-01-21 07:11:46.75	297.57	14.64	-25.7	-26.4	15.6	0.00e+00	0	44	0	2686451712	11	3908
2026-01-21 07:11:47.75	297.38	14.59	-25.7	-26.5	15.6	0.00e+00	0	44	0	2693791744	11	3926
2026-01-21 07:11:48.75	297.19	14.55	-25.6	-26.3	15.6	0.00e+00	0	44	0	2701131776	11	3879
2026-01-21 07:11:49.75	297.00	14.51	-25.9	-26.8	15.4	0.00e+00	0	44	0	2707423232	11	4006
2026-01-21 07:11:50.75	296.81	14.46	-25.8	-26.6	15.5	0.00e+00	0	44	0	2714763264	11	3947
2026-01-21 07:11:51.76	296.62	14.41	-25.7	-26.4	15.6	0.00e+00	0	45	0	2722103296	11	3922
2026-01-21 07:11:52.76	296.43	14.37	-25.7	-26.5	15.5	0.00e+00	0	44	0	2729443328	11	3937
2026-01-21 07:11:53.76	296.24	14.32	-25.7	-26.4	15.6	0.00e+00	0	44	0	2736783360	11	3916
2026-01-21 07:11:54.76	296.06	14.28	-25.7	-26.5	15.5	0.00e+00	0	44	0	2744123392	11	3934
2026-01-21 07:11:55.77	295.87	14.23	-25.9	-26.9	15.3	0.00e+00	0	45	0	2751463424	11	4032
2026-01-21 07:11:56.77	295.69	14.19	-26.0	-27.0	15.2	0.00e+00	0	45	0	2758803456	11	4066
2026-01-21 07:11:57.77	295.50	14.14	-26.0	-27.1	15.2	0.00e+00	0	44	0	2766143488	11	4071
2026-01-21 07:11:58.78	295.32	14.09	-26.1	-27.3	15.1	0.00e+00	0	44	0	2772434944	11	4131
2026-01-21 07:11:59.78	295.13	14.05	-25.9	-27.0	15.2	0.00e+00	0	45	0	2779774976	11	4047
2026-01-21 07:12:00.78	294.95	14.00	-26.0	-27.0	15.2	0.00e+00	0	44	0	2787115008	11	4069
2026-01-21 07:12:01.79	294.77	13.95	-25.9	-26.9	15.3	0.00e+00	0	44	0	2794455040	11	4033
2026-01-21 07:12:02.79	294.58	13.90	-26.0	-27.1	15.1	0.00e+00	0	44	0	2801795072	11	4092
2026-01-21 07:12:03.79	294.40	13.86	-25.9	-26.9	15.3	0.00e+00	0	44	0	2809135104	11	4028
2026-01-21 07:12:04.79	294.22	13.81	-25.8	-26.7	15.4	0.00e+00	0	44	0	2816475136	11	3982
2026-01-21 07:12:05.80	294.04	13.76	-25.8	-26.7	15.3	0.00e+00	0	44	0	2823815168	11	4000
2026-01-21 07:12:06.79	293.86	13.71	-26.0	-27.1	15.1	0.00e+00	0	44	0	2831155200	11	4091
2026-01-21 07:12:07.80	293.68	13.66	-25.9	-26.8	15.3	0.00e+00	0	44	0	2838495232	11	4013
2026-01-21 07:12:08.80	293.50	13.61	-25.8	-26.6	15.4	0.00e+00	0	44	0	2845835264	11	3966
2026-01-21 07:12:09.81	293.32	13.56	-25.7	-26.5	15.4	0.00e+00	0	44	0	2853175296	11	3944
2026-01-21 07:12:10.81	293.15	13.52	-25.8	-26.7	15.3	0.00e+00	0	44	0	2859466752	11	3996
2026-01-21 07:12:11.81	292.97	13.47	-25.7	-26.5	15.4	0.00e+00	0	44	0	2866806784	11	3939
2026-01-21 07:12:12.82	292.79	13.42	-25.8	-26.7	15.4	0.00e+00	0	45	0	2874146816	11	3976
2026-01-21 07:12:13.82	292.62	13.37	-25.7	-26.5	15.5	0.00e+00	0	44	0	2881486848	11	3931
2026-01-21 07:12:14.83	292.44	13.32	-25.7	-26.5	15.4	0.00e+00	0	45	0	2888826880	11	3925
2026-01-21 07:12:15.83	292.27	13.27	-25.7	-26.5	15.5	0.00e+00	0	44	0	2896166912	11	3929
2026-01-21 07:12:16.82	292.10	13.22	-25.9	-27.0	15.2	0.00e+00	0	44	0	2903506944	11	4051
2026-01-21 07:12:17.82	291.92	13.17	-25.9	-26.9	15.2	0.00e+00	0	44	0	2910846976	11	4044
2026-01-21 07:12:18.82	291.75	13.12	-25.9	-26.9	15.2	0.00e+00	0	44	0	2917138432	11	4026
2026-01-21 07:12:19.82	291.58	13.07	-26.0	-27.0	15.1	0.00e+00	0	44	0	2924478464	11	4072
2026-01-21 07:12:20.82	291.41	13.02	-25.9	-26.5	15.1	0.00e+00	0	44	0	2931818496	12	3844
2026-01-21 07:12:21.83	291.24	12.97	-26.0	-26.6	15.0	0.00e+00	0	45	0	2939158528	12	3859
2026-01-21 07:12:22.83	291.07	12.92	-26.0	-26.7	15.0	0.00e+00	0	45	0	2946498560	12	3878
2026-01-21 07:12:23.83	290.90	12.86	-26.1	-26.8	14.9	1.10e-06	0	45	0	2953838592	12	3922
2026-01-21 07:12:24.83	290.73	12.81	-26.3	-27.2	14.7	0.00e+00	0	44	0	2961178624	12	4017
2026-01-21 07:12:25.84	290.56	12.76	-26.2	-27.1	14.7	0.00e+00	0	45	0	2968518656	12	3996
2026-01-21 07:12:26.85	290.39	12.71	-26.2	-27.0	14.7	0.00e+00	0	45	0	2975858688	12	3970
2026-01-21 07:12:27.85	290.22	12.66	-26.3	-27.2	14.7	2.20e-06	0	45	0	2983198720	12	4007
2026-01-21 07:12:28.85	290.06	12.61	-26.3	-27.2	14.7	0.00e+00	0	45	0	2990538752	12	4009
2026-01-21 07:12:29.85	289.89	12.56	-26.3	-27.2	14.6	0.00e+00	0	44	0	2997878784	12	4021
2026-01-21 07:12:30.86	289.72	12.50	-26.4	-27.5	14.5	1.10e-06	0	45	0	3004170240	12	4099
2026-01-21 07:12:31.86	289.56	12.45	-26.4	-27.4	14.5	1.10e-06	0	45	0	3011510272	12	4067
2026-01-21 07:12:32.86	289.40	12.40	-26.3	-27.4	14.5	0.00e+00	0	45	0	3018850304	12	4064
2026-01-21 07:12:33.86	289.23	12.35	-26.5	-27.8	14.3	0.00e+00	0	44	0	3026190336	12	4172
2026-01-21 07:12:34.87	289.07	12.29	-26.3	-27.4	14.5	0.00e+00	0	45	0	3033530368	12	4063
2026-01-21 07:12:35.87	288.91	12.24	-26.2	-27.0	14.7	0.00e+00	0	45	0	3040870400	12	3959
2026-01-21 07:12:36.86	288.75	12.19	-26.2	-27.0	14.7	0.00e+00	0	45	0	3048210432	12	3970
2026-01-21 07:12:37.87	288.58	12.14	-26.4	-27.4	14.5	1.10e-06	0	44	0	3055550464	12	4073
2026-01-21 07:12:38.87	288.42	12.08	-26.3	-27.3	14.6	1.10e-06	0	44	0	3061841920	12	4037
2026-01-21 07:12:39.87	288.26	12.03	-26.5	-27.7	14.3	1.10e-06	0	45	0	3069181952	12	4148
2026-01-21 07:12:40.88	288.10	11.98	-26.5	-27.6	14.4	3.40e-06	0	45	0	3076521984	12	4126
2026-01-21 07:12:41.89	287.94	11.92	-26.6	-27.5	14.1	3.40e-06	0	45	0	3083862016	13	3990
2026-01-21 07:12:42.89	287.78	11.87	-27.0	-28.4	13.7	5.70e-06	0	44	0	3091202048	13	4209
2026-01-21 07:12:43.90	287.63	11.82	-26.8	-27.8	14.0	4.50e-06	0	45	0	3098542080	13	4073
2026-01-21 07:12:44.90	287.47	11.76	-26.5	-27.3	14.3	3.40e-06	0	44	0	3105882112	13	3935
2026-01-21 07:12:45.90	287.31	11.71	-26.4	-27.0	14.5	1.10e-06	0	44	0	3113222144	13	3856
2026-01-21 07:12:46.91	287.16	11.66	-26.3	-26.7	14.6	0.00e+00	0	44	0	3120562176	13	3797
2026-01-21 07:12:47.91	287.00	11.60	-26.2	-26.7	14.6	0.00e+00	0	45	0	3127902208	13	3784
2026-01-21 07:12:48.92	286.84	11.55	-26.3	-26.8	14.6	0.00e+00	0	44	0	3135242240	13	3805
2026-01-21 07:12:49.92	286.69	11.49	-26.2	-26.7	14.6	0.00e+00	0	44	0	3142582272	13	3781
2026-01-21 07:12:50.92	286.54	11.44	-26.3	-26.7	14.5	2.20e-06	0	44	0	3148873728	13	3797
2026-01-21 07:12:51.92	286.38	11.39	-26.4	-27.1	14.3	2.20e-06	0	44	0	3156213760	13	3889
2026-01-21 07:12:52.93	286.23	11.33	-26.3	-26.9	14.4	1.10e-06	0	45	0	3163553792	13	3837
2026-01-21 07:12:53.93	286.08	11.28	-26.3	-26.8	14.5	0.00e+00	0	45	0	3170893824	13	3812
2026-01-21 07:12:54.93	285.93	11.22	-26.3	-26.8	14.5	0.00e+00	0	44	0	3178233856	13	3829
2026-01-21 07:12:55.94	285.77	11.17	-26.3	-26.8	14.5	2.20e-06	0	45	0	3185573888	13	3807
2026-01-21 07:12:56.94	285.62	11.11	-26.3	-26.9	14.4	0.00e+00	0	44	0	3192913920	13	3854
2026-01-21 07:12:57.95	285.47	11.06	-26.3	-26.9	14.4	1.10e-06	0	45	0	3200253952	13	3835
2026-01-21 07:12:58.96	285.32	11.00	-26.3	-26.9	14.4	2.20e-06	0	44	0	3207593984	13	3833
2026-01-21 07:12:59.96	285.17	10.95	-26.3	-26.8	14.5	0.00e+00	0	44	0	3214934016	13	3822
2026-01-21 07:13:00.97	285.03	10.89	-26.4	-27.1	14.3	0.00e+00	0	45	0	3222274048	13	3899
2026-01-21 07:13:01.98	284.88	10.84	-26.4	-26.9	14.4	0.00e+00	0	45	0	3229614080	13	3849
2026-01-21 07:13:02.98	284.73	10.78	-26.4	-26.9	14.4	0.00e+00	0	44	0	3235905536	13	3845
2026-01-21 07:13:03.98	284.58	10.73	-26.4	-27.0	14.3	2.20e-06	0	44	0	3243245568	13	3859
2026-01-21 07:13:04.99	284.44	10.67	-26.4	-27.0	14.3	1.10e-06	0	44	0	3250585600	13	3857
2026-01-21 07:13:05.99	284.29	10.62	-26.4	-27.0	14.3	0.00e+00	0	45	0	3257925632	13	3869
2026-01-21 07:13:06.99	284.15	10.56	-26.5	-27.4	14.1	1.10e-06	0	45	0	3265265664	13	3955
2026-01-21 07:13:07.99	284.00	10.51	-26.4	-27.0	14.3	2.20e-06	0	45	0	3272605696	13	3866
2026-01-21 07:13:08.99	283.86	10.45	-26.4	-27.1	14.3	1.10e-06	0	44	0	3279945728	13	3885
2026-01-21 07:13:09.99	283.72	10.40	-26.5	-27.3	14.1	0.00e+00	0	44	0	3287285760	13	3952
2026-01-21 07:13:10.99	283.58	10.34	-26.5	-27.2	14.2	3.40e-06	0	45	0	3294625792	13	3922
2026-01-21 07:13:11.99	283.43	10.29	-26.5	-27.3	14.1	2.20e-06	0	44	0	3300917248	13	3933
2026-01-21 07:13:12.99	283.29	10.23	-26.7	-27.7	13.9	2.20e-06	0	45	0	3309305856	13	4052
2026-01-21 07:13:13.99	283.15	10.18	-26.6	-27.6	14.0	2.20e-06	0	44	0	3315597312	13	4017
2026-01-21 07:13:15.00	283.01	10.12	-26.8	-27.9	13.8	4.50e-06	0	44	0	3322937344	13	4093
2026-01-21 07:13:16.01	282.87	10.07	-26.7	-27.6	13.9	1.10e-06	0	44	0	3330277376	13	4032
2026-01-21 07:13:17.01	282.73	10.01	-26.7	-27.8	13.9	1.10e-06	0	45	0	3337617408	13	4073
2026-01-21 07:13:18.01	282.59	9.95	-26.8	-27.9	13.8	4.50e-06	0	44	0	3344957440	13	4085
2026-01-21 07:13:19.02	282.45	9.90	-26.8	-28.1	13.7	3.40e-06	0	45	0	3352297472	13	4141
2026-01-21 07:13:20.02	282.32	9.84	-26.7	-27.6	13.9	3.40e-06	0	45	0	3359637504	13	4024
2026-01-21 07:13:21.02	282.18	9.79	-26.6	-27.4	14.0	3.40e-06	0	44	0	3366977536	13	3971
2026-01-21 07:13:22.02	282.04	9.73	-26.5	-27.3	14.1	1.10e-06	0	44	0	3374317568	13	3948
2026-01-21 07:13:23.03	281.91	9.68	-26.7	-27.8	13.8	3.40e-06	0	45	0	3380609024	13	4067
2026-01-21 07:13:24.03	281.77	9.62	-26.6	-27.4	14.0	2.20e-06	0	45	0	3387949056	13	3966
2026-01-21 07:13:25.03	281.64	9.56	-26.8	-27.9	13.8	4.50e-06	0	45	0	3395289088	13	4084
2026-01-21 07:13:26.03	281.50	9.51	-26.6	-27.5	14.0	3.40e-06	0	45	0	3402629120	13	3984
2026-01-21 07:13:27.04	281.37	9.45	-26.5	-27.4	14.0	2.20e-06	0	45	0	3409969152	13	3954
2026-01-21 07:13:28.04	281.23	9.40	-26.6	-27.5	14.0	2.20e-06	0	45	0	3417309184	13	3992
2026-01-21 07:13:29.04	281.10	9.34	-26.8	-27.9	13.8	5.70e-06	0	45	0	3424649216	13	4088
2026-01-21 07:13:30.04	280.97	9.28	-26.8	-27.9	13.8	3.40e-06	0	45	0	3431989248	13	4089
2026-01-21 07:13:31.04	280.84	9.23	-26.8	-28.0	13.6	5.70e-06	0	44	0	3439329280	13	4127
2026-01-21 07:13:32.05	280.70	9.17	-27.0	-28.4	13.4	2.05e-05	0	44	0	3446669312	13	4233
2026-01-21 07:13:33.05	280.57	9.12	-26.9	-28.1	13.6	1.02e-05	0	44	0	3454009344	13	4162
2026-01-21 07:13:34.05	280.44	9.06	-26.9	-28.2	13.5	1.94e-05	0	45	0	3460300800	13	4174
2026-01-21 07:13:35.06	280.31	9.00	-27.0	-28.5	13.3	1.71e-05	0	44	0	3467640832	13	4262
2026-01-21 07:13:36.06	280.18	8.95	-27.0	-28.5	13.3	1.94e-05	0	45	0	3474980864	13	4259
2026-01-21 07:13:37.06	280.05	8.89	-27.0	-28.5	13.3	1.71e-05	0	45	0	3482320896	13	4270
2026-01-21 07:13:38.06	279.93	8.84	-27.1	-28.1	13.3	2.40e-05	0	44	0	3489660928	14	4050
2026-01-21 07:13:39.06	279.80	8.78	-27.4	-28.8	12.9	4.80e-05	0	44	0	3497000960	14	4226
2026-01-21 07:13:40.07	279.67	8.72	-27.1	-28.1	13.3	3.08e-05	0	45	0	3504340992	14	4056
2026-01-21 07:13:41.07	279.54	8.67	-26.9	-27.7	13.5	5.70e-06	0	45	0	3511681024	14	3947
2026-01-21 07:13:42.07	279.42	8.61	-26.8	-27.5	13.6	5.70e-06	0	44	0	3519021056	14	3909
2026-01-21 07:13:43.08	279.29	8.56	-26.9	-27.8	13.5	9.10e-06	0	45	0	3525312512	14	3967
2026-01-21 07:13:44.08	279.17	8.50	-27.1	-28.1	13.2	2.74e-05	0	45	0	3532652544	14	4045
2026-01-21 07:13:45.09	279.04	8.44	-27.0	-27.9	13.4	1.94e-05	0	45	0	3539992576	14	3987
2026-01-21 07:13:46.09	278.92	8.39	-26.9	-27.7	13.5	1.83e-05	0	44	0	3547332608	14	3956
2026-01-21 07:13:47.09	278.79	8.33	-27.0	-27.9	13.4	1.83e-05	0	45	0	3554672640	14	3997
2026-01-21 07:13:48.10	278.67	8.27	-26.9	-27.7	13.5	1.25e-05	0	44	0	3562012672	14	3951
2026-01-21 07:13:49.10	278.55	8.22	-27.0	-27.9	13.4	1.83e-05	0	45	0	3569352704	14	4008
2026-01-21 07:13:50.10	278.42	8.16	-26.9	-27.7	13.5	9.10e-06	0	45	0	3576692736	14	3953
2026-01-21 07:13:51.10	278.30	8.11	-26.9	-27.7	13.5	1.25e-05	0	44	0	3584032768	14	3955
2026-01-21 07:13:52.10	278.18	8.05	-26.9	-27.7	13.4	1.60e-05	0	45	0	3591372800	14	3951
2026-01-21 07:13:53.11	278.06	7.99	-27.0	-27.9	13.3	1.71e-05	0	45	0	3598712832	14	3998
2026-01-21 07:13:54.11	277.94	7.94	-26.9	-27.7	13.4	8.00e-06	0	44	0	3606052864	14	3960
2026-01-21 07:13:55.11	277.82	7.88	-26.9	-27.8	13.4	1.71e-05	0	44	0	3612344320	14	3970
2026-01-21 07:13:56.11	277.70	7.83	-27.1	-28.1	13.3	1.83e-05	0	44	0	3619684352	14	4046
2026-01-21 07:13:57.12	277.58	7.77	-27.0	-27.9	13.3	1.48e-05	0	44	0	3627024384	14	4003
2026-01-21 07:13:58.12	277.46	7.71	-27.2	-28.3	13.1	4.34e-05	0	45	0	3634364416	14	4107
2026-01-21 07:13:59.12	277.34	7.66	-27.1	-28.2	13.1	2.51e-05	0	45	0	3641704448	14	4085
2026-01-21 07:14:00.13	277.22	7.60	-27.1	-28.1	13.2	1.60e-05	0	45	0	3649044480	14	4055
2026-01-21 07:14:01.13	277.11	7.54	-27.1	-28.2	13.1	3.43e-05	0	45	0	3656384512	14	4076
2026-01-21 07:14:02.14	276.99	7.49	-27.2	-28.5	12.9	6.75e-05	0	45	0	3663724544	14	4172
2026-01-21 07:14:03.13	276.87	7.43	-27.2	-28.4	13.0	4.69e-05	0	45	0	3670016000	14	4147
2026-01-21 07:14:04.13	276.76	7.38	-27.2	-28.4	13.0	3.89e-05	0	44	0	3677356032	14	4127
2026-01-21 07:14:05.14	276.64	7.32	-27.1	-28.2	13.1	3.77e-05	0	45	0	3684696064	14	4085
2026-01-21 07:14:06.14	276.53	7.26	-27.2	-28.4	13.0	4.23e-05	0	45	0	3692036096	14	4144
2026-01-21 07:14:07.14	276.41	7.21	-27.2	-28.4	12.9	4.80e-05	0	45	0	3699376128	14	4149
2026-01-21 07:14:08.14	276.30	7.15	-27.3	-28.6	12.9	6.75e-05	0	45	0	3706716160	14	4180
2026-01-21 07:14:09.15	276.19	7.10	-28.7	-30.4	11.7	1.12e-04	0	45	0	3714056192	16	4399
2026-01-21 07:14:10.15	276.07	7.04	-33.2	-42.7	3.8	8.45e-01	0	45	104	3715104768	26	10802
2026-01-21 07:14:11.16	275.96	6.98	-33.5	-43.5	3.8	8.47e-01	0	45	104	3715104768	26	11305
2026-01-21 07:14:12.16	275.85	6.93	-33.8	-43.5	3.8	8.46e-01	0	44	104	3715104768	27	11009

#Closed at: 2026-01-21 07:14:12
#Recorded file [3715 MB]: D:/data/31010_260121_100534.dat