passes_logs/2026/01/21/R2M6_AANII_01/R2M6_AANII_01__20260121_151739_FENGYUN_3E_rec.log

#Pass ID: 20260121_151739_FENGYUN 3E
#Satellite: FENGYUN 3E
#Configuration: FENGYUN 3E
#almurnet v.1.7.20240730
#Start time: 2026-01-21 15:17:40

#Version: 2.2.20231116
#Station: R2M6_AANII_01
#Location: 30.233357 lon 59.946436 lat
#TLE: 1 49008U 21062A   26020.99547197  .00000101  00000+0  68509-4 0  9996
#TLE: 2 49008  98.7483  26.0531 0002292 127.4634 232.6751 14.19886023235694

#Time	Az	El	Level	Level2	SNR	BER	BlckErr	Temp	State	Recorded	gain1	gain2
2026-01-21 15:17:40.96	182.04	7.14	-26.9	-28.4	5.7	7.56e-01	0	42	0	0	14	4248
2026-01-21 15:17:41.96	182.09	7.22	-27.2	-28.4	5.7	7.59e-01	0	42	104	0	15	4157
2026-01-21 15:17:42.96	182.13	7.29	-27.5	-29.2	11.8	3.36e-04	0	42	0	0	15	4361
2026-01-21 15:17:43.97	182.18	7.37	-27.2	-28.4	12.2	2.41e-04	0	42	0	7340032	15	4153
2026-01-21 15:17:44.97	182.22	7.45	-26.9	-28.3	12.6	1.04e-04	0	42	0	14680064	14	4234
2026-01-21 15:17:45.97	182.27	7.52	-27.2	-28.9	12.3	1.36e-04	0	42	0	22020096	14	4384
2026-01-21 15:17:46.97	182.31	7.60	-27.3	-29.3	12.0	2.82e-04	0	42	0	28311552	14	4498
2026-01-21 15:17:47.97	182.36	7.68	-27.2	-28.9	12.3	2.00e-04	0	42	0	35651584	14	4379
2026-01-21 15:17:48.98	182.40	7.75	-27.1	-28.8	12.3	1.32e-04	0	42	0	42991616	14	4359
2026-01-21 15:17:49.98	182.45	7.83	-27.2	-28.8	12.3	1.09e-04	0	43	0	50331648	14	4373
2026-01-21 15:17:50.97	182.49	7.91	-27.2	-29.1	12.2	1.66e-04	0	43	0	57671680	14	4434
2026-01-21 15:17:51.98	182.54	7.98	-27.3	-29.1	12.2	1.67e-04	0	42	0	65011712	14	4434
2026-01-21 15:17:52.99	182.59	8.06	-27.5	-29.6	11.9	3.24e-04	0	43	0	72351744	14	4578
2026-01-21 15:17:53.98	182.63	8.14	-27.5	-29.6	12.0	3.23e-04	0	43	0	79691776	14	4574
2026-01-21 15:17:54.99	182.68	8.22	-27.8	-29.8	11.6	5.05e-04	0	42	0	85983232	15	4527
2026-01-21 15:17:55.99	182.73	8.30	-28.4	-30.7	10.9	1.74e-03	0	43	0	93323264	16	4696
2026-01-21 15:17:56.99	182.78	8.38	-28.1	-29.9	11.4	1.32e-03	0	43	0	100663296	16	4461
2026-01-21 15:17:58.00	182.82	8.45	-27.7	-29.1	11.9	3.90e-04	0	43	0	108003328	16	4212
2026-01-21 15:17:59.00	182.87	8.53	-27.2	-28.4	12.4	1.43e-04	0	43	0	115343360	15	4134
2026-01-21 15:18:00.01	182.92	8.61	-27.1	-28.1	12.6	1.15e-04	0	43	0	122683392	15	4045
2026-01-21 15:18:01.01	182.97	8.69	-26.9	-28.3	12.7	5.14e-05	0	43	0	130023424	14	4208
2026-01-21 15:18:02.01	183.02	8.77	-26.7	-27.8	13.0	3.31e-05	0	43	0	137363456	14	4077
2026-01-21 15:18:03.01	183.07	8.85	-26.6	-27.7	13.1	1.94e-05	0	43	0	144703488	14	4050
2026-01-21 15:18:04.02	183.12	8.93	-26.5	-27.4	13.3	2.63e-05	0	43	0	152043520	14	3976
2026-01-21 15:18:05.02	183.16	9.01	-26.8	-28.0	12.9	3.89e-05	0	43	0	159383552	14	4138
2026-01-21 15:18:06.02	183.21	9.09	-26.6	-27.5	13.2	1.14e-05	0	43	0	166723584	14	4008
2026-01-21 15:18:07.03	183.26	9.18	-26.4	-27.5	13.5	1.02e-05	0	43	0	173015040	13	4108
2026-01-21 15:18:08.04	183.32	9.26	-26.2	-27.2	13.6	9.10e-06	0	43	0	180355072	13	4034
2026-01-21 15:18:09.04	183.37	9.34	-26.2	-27.1	13.7	9.10e-06	0	43	0	187695104	13	4014
2026-01-21 15:18:10.04	183.42	9.42	-26.1	-27.0	13.8	1.71e-05	0	43	0	195035136	13	3977
2026-01-21 15:18:11.04	183.47	9.50	-26.4	-27.7	13.4	5.70e-06	0	43	0	202375168	13	4170
2026-01-21 15:18:12.04	183.52	9.59	-26.1	-27.0	13.7	4.50e-06	0	43	0	209715200	13	3985
2026-01-21 15:18:13.04	183.57	9.67	-26.1	-27.0	13.8	1.02e-05	0	43	0	217055232	13	3973
2026-01-21 15:18:14.05	183.62	9.75	-26.4	-27.6	13.4	3.40e-06	0	43	0	224395264	13	4137
2026-01-21 15:18:15.06	183.67	9.84	-26.1	-26.9	13.8	4.50e-06	0	43	0	230686720	13	3952
2026-01-21 15:18:16.06	183.73	9.92	-25.9	-26.6	14.0	1.02e-05	0	43	0	238026752	13	3877
2026-01-21 15:18:17.06	183.78	10.00	-26.1	-27.1	13.7	9.10e-06	0	43	0	245366784	13	3997
2026-01-21 15:18:18.06	183.83	10.09	-25.8	-26.8	14.1	0.00e+00	0	43	0	252706816	12	4039
2026-01-21 15:18:19.06	183.88	10.17	-25.9	-26.9	14.1	1.02e-05	0	43	0	260046848	12	4066
2026-01-21 15:18:20.07	183.94	10.25	-26.0	-27.3	13.9	3.40e-06	0	43	0	267386880	12	4165
2026-01-21 15:18:21.07	183.99	10.34	-25.8	-26.8	14.2	2.20e-06	0	43	0	274726912	12	4024
2026-01-21 15:18:22.07	184.05	10.42	-25.8	-26.7	14.3	1.60e-05	0	43	0	282066944	12	4004
2026-01-21 15:18:23.06	184.10	10.51	-25.9	-27.0	14.1	1.10e-06	0	43	0	289406976	12	4081
2026-01-21 15:18:24.06	184.15	10.59	-25.9	-27.1	14.1	4.50e-06	0	43	0	295698432	12	4103
2026-01-21 15:18:25.06	184.21	10.68	-25.9	-27.0	14.2	1.37e-05	0	43	0	303038464	12	4076
2026-01-21 15:18:26.06	184.26	10.77	-25.8	-26.8	14.2	2.20e-06	0	44	0	310378496	12	4027
2026-01-21 15:18:27.06	184.32	10.85	-25.8	-26.7	14.3	1.10e-06	0	43	0	317718528	12	3999
2026-01-21 15:18:28.06	184.38	10.94	-26.1	-27.5	13.8	2.17e-05	0	44	0	325058560	12	4231
2026-01-21 15:18:29.06	184.43	11.02	-25.9	-27.0	14.1	1.10e-06	0	43	0	332398592	12	4087
2026-01-21 15:18:30.07	184.49	11.11	-25.8	-26.7	14.3	0.00e+00	0	43	0	339738624	12	4012
2026-01-21 15:18:31.07	184.55	11.20	-25.8	-26.9	14.2	6.80e-06	0	43	0	347078656	12	4072
2026-01-21 15:18:32.07	184.60	11.29	-26.1	-27.5	13.9	1.10e-06	0	43	0	354418688	12	4229
2026-01-21 15:18:33.07	184.66	11.38	-25.7	-26.6	14.4	0.00e+00	0	43	0	361758720	12	3988
2026-01-21 15:18:34.08	184.72	11.46	-25.6	-26.3	14.5	0.00e+00	0	44	0	369098752	12	3912
2026-01-21 15:18:35.08	184.78	11.55	-25.6	-26.4	14.5	0.00e+00	0	44	0	376438784	12	3927
2026-01-21 15:18:36.09	184.84	11.64	-25.5	-26.1	14.6	0.00e+00	0	44	0	382730240	12	3861
2026-01-21 15:18:37.09	184.89	11.73	-25.6	-26.4	14.5	0.00e+00	0	44	0	390070272	12	3928
2026-01-21 15:18:38.08	184.95	11.82	-25.6	-26.3	14.6	1.10e-06	0	44	0	397410304	12	3907
2026-01-21 15:18:39.07	185.01	11.91	-25.5	-26.1	14.7	0.00e+00	0	44	0	404750336	12	3873
2026-01-21 15:18:40.08	185.07	12.00	-25.8	-26.7	14.4	1.10e-06	0	44	0	412090368	12	4017
2026-01-21 15:18:41.09	185.13	12.09	-25.6	-26.3	14.5	0.00e+00	0	44	0	419430400	12	3924
2026-01-21 15:18:42.09	185.19	12.18	-25.5	-26.2	14.7	0.00e+00	0	44	0	426770432	12	3879
2026-01-21 15:18:43.10	185.25	12.27	-25.6	-26.9	14.6	0.00e+00	0	44	0	434110464	11	4162
2026-01-21 15:18:44.10	185.32	12.36	-25.6	-26.8	14.6	1.10e-06	0	44	0	440401920	11	4145
2026-01-21 15:18:45.10	185.38	12.46	-25.6	-26.8	14.7	0.00e+00	0	44	0	447741952	11	4142
2026-01-21 15:18:46.11	185.44	12.55	-25.5	-26.6	14.8	0.00e+00	0	44	0	455081984	11	4083
2026-01-21 15:18:47.11	185.50	12.64	-25.4	-26.4	14.9	0.00e+00	0	44	0	462422016	11	4022
2026-01-21 15:18:48.11	185.56	12.73	-25.2	-25.9	15.2	0.00e+00	0	44	0	469762048	11	3897
2026-01-21 15:18:49.12	185.63	12.83	-25.3	-26.1	15.1	0.00e+00	0	44	0	477102080	11	3960
2026-01-21 15:18:50.12	185.69	12.92	-25.3	-26.1	15.1	0.00e+00	0	44	0	484442112	11	3954
2026-01-21 15:18:51.12	185.75	13.01	-25.3	-26.2	15.0	0.00e+00	0	44	0	491782144	11	3990
2026-01-21 15:18:52.13	185.82	13.11	-25.2	-25.9	15.2	0.00e+00	0	44	0	499122176	11	3909
2026-01-21 15:18:53.13	185.88	13.20	-25.3	-26.2	15.0	0.00e+00	0	44	0	506462208	11	3993
2026-01-21 15:18:54.13	185.95	13.30	-25.2	-25.9	15.2	0.00e+00	0	44	0	513802240	11	3919
2026-01-21 15:18:55.14	186.01	13.39	-25.2	-25.9	15.2	0.00e+00	0	44	0	521142272	11	3911
2026-01-21 15:18:56.14	186.08	13.49	-25.2	-26.0	15.2	0.00e+00	0	44	0	527433728	11	3930
2026-01-21 15:18:57.14	186.15	13.58	-25.2	-25.9	15.2	0.00e+00	0	44	0	534773760	11	3919
2026-01-21 15:18:58.15	186.21	13.68	-25.3	-26.1	15.1	0.00e+00	0	44	0	542113792	11	3970
2026-01-21 15:18:59.15	186.28	13.78	-25.3	-26.0	15.2	0.00e+00	0	44	0	549453824	11	3944
2026-01-21 15:19:00.15	186.35	13.87	-25.1	-25.8	15.3	0.00e+00	0	44	0	556793856	11	3879
2026-01-21 15:19:01.14	186.42	13.97	-25.3	-26.1	15.1	0.00e+00	0	44	0	564133888	11	3963
2026-01-21 15:19:02.14	186.48	14.07	-25.0	-25.6	15.4	0.00e+00	0	44	0	571473920	11	3846
2026-01-21 15:19:03.15	186.55	14.17	-25.1	-25.6	15.4	0.00e+00	0	44	0	578813952	11	3848
2026-01-21 15:19:04.15	186.62	14.26	-25.0	-26.1	15.4	0.00e+00	0	44	0	586153984	10	4074
2026-01-21 15:19:05.15	186.69	14.36	-25.0	-26.0	15.5	0.00e+00	0	44	0	592445440	10	4063
2026-01-21 15:19:06.16	186.76	14.46	-25.0	-26.0	15.5	0.00e+00	0	44	0	599785472	10	4047
2026-01-21 15:19:07.16	186.83	14.56	-24.9	-25.8	15.5	0.00e+00	0	44	0	608174080	10	4006
2026-01-21 15:19:08.17	186.90	14.66	-25.0	-26.0	15.5	0.00e+00	0	44	0	614465536	10	4047
2026-01-21 15:19:09.17	186.97	14.76	-25.0	-26.1	15.4	1.10e-06	0	44	0	621805568	10	4085
2026-01-21 15:19:10.17	187.05	14.86	-24.9	-25.8	15.6	0.00e+00	0	44	0	629145600	10	4005
2026-01-21 15:19:11.17	187.12	14.96	-24.9	-25.9	15.5	0.00e+00	0	44	0	636485632	10	4040
2026-01-21 15:19:12.18	187.19	15.06	-24.9	-26.0	15.5	0.00e+00	0	44	0	643825664	10	4048
2026-01-21 15:19:13.18	187.26	15.16	-24.9	-25.8	15.6	0.00e+00	0	44	0	651165696	10	4005
2026-01-21 15:19:14.18	187.34	15.27	-24.8	-25.6	15.7	0.00e+00	0	44	0	658505728	10	3943
2026-01-21 15:19:15.19	187.41	15.37	-24.8	-25.7	15.6	0.00e+00	0	44	0	665845760	10	3973
2026-01-21 15:19:16.19	187.49	15.47	-24.9	-25.8	15.6	0.00e+00	0	44	0	672137216	10	4006
2026-01-21 15:19:17.19	187.56	15.57	-24.8	-25.6	15.7	0.00e+00	0	44	0	679477248	10	3965
2026-01-21 15:19:18.20	187.64	15.68	-24.7	-25.4	15.8	0.00e+00	0	44	0	686817280	10	3917
2026-01-21 15:19:19.20	187.71	15.78	-24.5	-24.9	16.1	0.00e+00	0	44	0	694157312	10	3789
2026-01-21 15:19:20.21	187.79	15.89	-24.9	-25.8	15.6	0.00e+00	0	44	0	701497344	10	3998
2026-01-21 15:19:21.22	187.87	15.99	-24.9	-26.0	15.5	0.00e+00	0	44	0	708837376	10	4047
2026-01-21 15:19:22.23	187.95	16.10	-24.7	-25.5	15.8	0.00e+00	0	44	0	716177408	10	3921
2026-01-21 15:19:23.23	188.03	16.20	-24.6	-25.3	15.9	0.00e+00	0	44	0	723517440	10	3869
2026-01-21 15:19:24.23	188.11	16.31	-24.6	-25.3	15.9	0.00e+00	0	44	0	730857472	10	3878
2026-01-21 15:19:25.24	188.19	16.42	-24.7	-25.4	15.9	0.00e+00	0	44	0	738197504	10	3896
2026-01-21 15:19:26.24	188.26	16.52	-24.7	-25.4	15.8	0.00e+00	0	44	0	745537536	10	3901
2026-01-21 15:19:27.25	188.35	16.63	-24.5	-25.0	16.1	0.00e+00	0	44	0	752877568	10	3802
2026-01-21 15:19:28.24	188.43	16.74	-24.4	-24.8	16.2	0.00e+00	0	44	0	759169024	10	3767
2026-01-21 15:19:29.24	188.51	16.85	-24.6	-25.2	16.0	0.00e+00	0	44	0	766509056	10	3847
2026-01-21 15:19:30.24	188.59	16.95	-24.6	-25.6	16.0	0.00e+00	0	44	0	773849088	9	4051
2026-01-21 15:19:31.24	188.67	17.06	-24.7	-26.0	15.8	0.00e+00	0	44	0	781189120	9	4143
2026-01-21 15:19:32.25	188.76	17.17	-24.5	-25.4	16.1	0.00e+00	0	44	0	788529152	9	4005
2026-01-21 15:19:33.25	188.84	17.28	-24.4	-25.3	16.2	0.00e+00	0	44	0	795869184	9	3975
2026-01-21 15:19:34.26	188.92	17.39	-24.5	-25.5	16.1	0.00e+00	0	44	0	803209216	9	4022
2026-01-21 15:19:35.26	189.01	17.50	-24.3	-25.1	16.3	0.00e+00	0	44	0	810549248	9	3921
2026-01-21 15:19:36.26	189.09	17.61	-24.1	-24.7	16.5	0.00e+00	0	44	0	817889280	9	3825
2026-01-21 15:19:37.26	189.18	17.73	-24.1	-24.5	16.6	0.00e+00	0	44	0	824180736	9	3776
2026-01-21 15:19:38.26	189.27	17.84	-24.0	-24.4	16.7	0.00e+00	0	44	0	831520768	9	3760
2026-01-21 15:19:39.26	189.35	17.95	-23.9	-24.6	16.8	0.00e+00	0	44	0	838860800	8	3914
2026-01-21 15:19:40.26	189.44	18.06	-23.6	-23.9	17.2	0.00e+00	0	44	0	846200832	8	3749
2026-01-21 15:19:41.27	189.53	18.18	-23.8	-24.4	16.9	0.00e+00	0	44	0	853540864	8	3874
2026-01-21 15:19:42.27	189.62	18.29	-23.7	-24.3	17.0	0.00e+00	0	44	0	860880896	8	3826
2026-01-21 15:19:43.27	189.71	18.40	-23.8	-24.4	16.9	0.00e+00	0	44	0	868220928	8	3872
2026-01-21 15:19:44.27	189.80	18.52	-23.7	-24.3	17.0	0.00e+00	0	44	0	875560960	8	3831
2026-01-21 15:19:45.27	189.89	18.63	-23.8	-24.3	17.0	0.00e+00	0	44	0	882900992	8	3845
2026-01-21 15:19:46.28	189.98	18.75	-23.7	-24.2	17.1	0.00e+00	0	44	0	890241024	8	3819
2026-01-21 15:19:47.27	190.08	18.87	-23.8	-24.4	17.0	0.00e+00	0	44	0	897581056	8	3872
2026-01-21 15:19:48.27	190.17	18.98	-23.9	-24.6	16.9	0.00e+00	0	44	0	903872512	8	3916
2026-01-21 15:19:49.27	190.26	19.10	-23.8	-24.3	17.0	0.00e+00	0	44	0	911212544	8	3843
2026-01-21 15:19:50.28	190.36	19.22	-23.8	-24.4	17.0	0.00e+00	0	44	0	918552576	8	3868
2026-01-21 15:19:51.28	190.45	19.33	-23.7	-24.3	17.0	0.00e+00	0	44	0	925892608	8	3832
2026-01-21 15:19:52.28	190.55	19.45	-23.9	-24.7	16.8	0.00e+00	0	44	0	933232640	8	3927
2026-01-21 15:19:53.29	190.65	19.57	-23.8	-24.3	17.0	0.00e+00	0	44	0	940572672	8	3849
2026-01-21 15:19:54.30	190.74	19.69	-23.8	-24.4	17.0	0.00e+00	0	44	0	947912704	8	3867
2026-01-21 15:19:55.30	190.84	19.81	-23.8	-24.5	16.9	0.00e+00	0	44	0	955252736	8	3882
2026-01-21 15:19:56.30	190.94	19.93	-23.8	-24.4	17.0	0.00e+00	0	44	0	962592768	8	3854
2026-01-21 15:19:57.30	191.04	20.05	-23.9	-24.7	16.8	6.80e-06	0	44	0	968884224	8	3935
2026-01-21 15:19:58.31	191.14	20.18	-23.8	-24.5	16.9	0.00e+00	0	44	0	976224256	8	3884
2026-01-21 15:19:59.30	191.24	20.30	-23.8	-24.5	16.9	0.00e+00	0	44	0	983564288	8	3890
2026-01-21 15:20:00.31	191.34	20.42	-23.8	-24.4	16.9	2.20e-06	0	44	0	990904320	8	3871
2026-01-21 15:20:01.31	191.45	20.54	-23.4	-23.5	17.5	0.00e+00	0	44	0	998244352	8	3643
2026-01-21 15:20:02.31	191.55	20.67	-23.8	-24.5	16.9	0.00e+00	0	44	0	1005584384	8	3896
2026-01-21 15:20:03.31	191.65	20.79	-24.1	-25.0	16.7	0.00e+00	0	44	0	1012924416	8	4006
2026-01-21 15:20:04.31	191.76	20.92	-23.7	-24.3	17.0	0.00e+00	0	44	0	1020264448	8	3843
2026-01-21 15:20:05.31	191.87	21.04	-23.6	-24.0	17.2	0.00e+00	0	44	0	1026555904	8	3770
2026-01-21 15:20:06.31	191.97	21.17	-23.5	-23.9	17.2	0.00e+00	0	44	0	1033895936	8	3750
2026-01-21 15:20:07.31	192.08	21.29	-23.6	-24.0	17.2	0.00e+00	0	44	0	1041235968	8	3766
2026-01-21 15:20:08.31	192.19	21.42	-23.5	-23.9	17.2	0.00e+00	0	44	0	1048576000	8	3749
2026-01-21 15:20:09.31	192.30	21.55	-23.6	-24.0	17.2	0.00e+00	0	44	0	1055916032	8	3770
2026-01-21 15:20:10.32	192.41	21.67	-23.5	-23.9	17.2	0.00e+00	0	44	0	1063256064	8	3757
2026-01-21 15:20:11.33	192.52	21.80	-23.3	-23.8	17.5	0.00e+00	0	44	0	1070596096	7	3840
2026-01-21 15:20:12.33	192.63	21.93	-23.3	-23.9	17.5	0.00e+00	0	44	0	1077936128	7	3856
2026-01-21 15:20:13.34	192.75	22.06	-23.2	-23.8	17.5	0.00e+00	0	44	0	1085276160	7	3840
2026-01-21 15:20:14.35	192.86	22.19	-23.1	-23.6	17.6	0.00e+00	0	45	0	1092616192	7	3792
2026-01-21 15:20:15.35	192.98	22.32	-23.1	-23.6	17.6	0.00e+00	0	44	0	1099956224	7	3787
2026-01-21 15:20:16.35	193.09	22.46	-23.2	-23.7	17.6	0.00e+00	0	45	0	1107296256	7	3804
2026-01-21 15:20:17.35	193.21	22.59	-23.2	-24.3	17.5	0.00e+00	0	45	0	1113587712	6	4078
2026-01-21 15:20:18.35	193.33	22.72	-23.2	-24.3	17.5	0.00e+00	0	45	0	1120927744	6	4080
2026-01-21 15:20:19.35	193.44	22.85	-23.2	-24.3	17.4	0.00e+00	0	44	0	1128267776	6	4085
2026-01-21 15:20:20.36	193.56	22.99	-23.4	-24.6	17.3	0.00e+00	0	45	0	1135607808	6	4150
2026-01-21 15:20:21.36	193.68	23.12	-23.4	-24.8	17.2	0.00e+00	0	44	0	1142947840	6	4210
2026-01-21 15:20:22.36	193.81	23.25	-23.7	-24.9	16.8	0.00e+00	0	45	0	1150287872	7	4127
2026-01-21 15:20:23.37	193.93	23.39	-23.6	-24.5	17.1	0.00e+00	0	45	0	1157627904	7	4034
2026-01-21 15:20:24.38	194.05	23.53	-23.6	-24.7	17.0	0.00e+00	0	45	0	1164967936	7	4080
2026-01-21 15:20:25.38	194.18	23.66	-23.5	-24.4	17.1	0.00e+00	0	45	0	1172307968	7	4002
2026-01-21 15:20:26.38	194.30	23.80	-23.5	-24.5	17.1	0.00e+00	0	44	0	1179648000	7	4022
2026-01-21 15:20:27.38	194.43	23.94	-23.3	-24.0	17.4	0.00e+00	0	45	0	1186988032	7	3898
2026-01-21 15:20:28.39	194.56	24.08	-23.5	-24.5	17.1	0.00e+00	0	44	0	1194328064	7	4037
2026-01-21 15:20:29.39	194.69	24.21	-23.6	-24.6	17.0	0.00e+00	0	44	0	1200619520	7	4063
2026-01-21 15:20:30.39	194.82	24.35	-23.4	-24.3	17.2	0.00e+00	0	44	0	1207959552	7	3962
2026-01-21 15:20:31.39	194.95	24.49	-23.4	-24.2	17.3	0.00e+00	0	45	0	1215299584	7	3948
2026-01-21 15:20:32.39	195.08	24.63	-23.3	-24.1	17.4	0.00e+00	0	45	0	1222639616	7	3910
2026-01-21 15:20:33.39	195.22	24.77	-23.6	-24.5	17.2	0.00e+00	0	45	0	1229979648	7	4028
2026-01-21 15:20:34.39	195.35	24.91	-23.3	-24.0	17.4	0.00e+00	0	45	0	1237319680	7	3895
2026-01-21 15:20:35.39	195.49	25.06	-23.3	-24.0	17.4	0.00e+00	0	44	0	1244659712	7	3903
2026-01-21 15:20:36.39	195.62	25.20	-23.4	-24.1	17.4	0.00e+00	0	45	0	1251999744	7	3927
2026-01-21 15:20:37.39	195.76	25.34	-23.2	-23.8	17.6	0.00e+00	0	45	0	1258291200	7	3845
2026-01-21 15:20:38.39	195.90	25.49	-23.3	-23.9	17.5	0.00e+00	0	45	0	1265631232	7	3870
2026-01-21 15:20:39.40	196.04	25.63	-23.3	-23.9	17.5	0.00e+00	0	45	0	1272971264	7	3879
2026-01-21 15:20:40.40	196.18	25.78	-23.3	-24.0	17.5	0.00e+00	0	45	0	1280311296	7	3891
2026-01-21 15:20:41.41	196.33	25.92	-23.2	-23.8	17.5	0.00e+00	0	45	0	1287651328	7	3855
2026-01-21 15:20:42.40	196.47	26.07	-23.1	-23.6	17.7	0.00e+00	0	44	0	1294991360	7	3807
2026-01-21 15:20:43.41	196.62	26.22	-23.5	-24.3	17.2	0.00e+00	0	44	0	1302331392	7	3968
2026-01-21 15:20:44.42	196.77	26.37	-23.3	-23.8	17.6	0.00e+00	0	45	0	1309671424	7	3853
2026-01-21 15:20:45.41	196.91	26.51	-23.1	-23.6	17.6	0.00e+00	0	45	0	1317011456	7	3806
2026-01-21 15:20:46.42	197.06	26.66	-23.1	-23.6	17.6	0.00e+00	0	45	0	1324351488	7	3805
2026-01-21 15:20:47.42	197.22	26.81	-23.1	-23.5	17.7	0.00e+00	0	45	0	1331691520	7	3780
2026-01-21 15:20:48.42	197.37	26.96	-23.2	-23.8	17.5	0.00e+00	0	45	0	1339031552	7	3850
2026-01-21 15:20:49.42	197.52	27.11	-23.0	-23.8	17.8	0.00e+00	0	45	0	1345323008	6	3951
2026-01-21 15:20:50.43	197.68	27.27	-23.0	-23.9	17.7	0.00e+00	0	44	0	1352663040	6	3982
2026-01-21 15:20:51.43	197.84	27.42	-23.0	-23.8	17.8	0.00e+00	0	45	0	1360003072	6	3953
2026-01-21 15:20:52.43	197.99	27.57	-22.8	-23.5	17.9	0.00e+00	0	45	0	1367343104	6	3885
2026-01-21 15:20:53.44	198.15	27.72	-22.8	-23.6	17.8	0.00e+00	0	45	0	1374683136	6	3906
2026-01-21 15:20:54.44	198.32	27.88	-22.8	-23.5	17.9	0.00e+00	0	44	0	1382023168	6	3885
2026-01-21 15:20:55.44	198.48	28.03	-22.7	-23.3	17.9	0.00e+00	0	45	0	1389363200	6	3852
2026-01-21 15:20:56.45	198.64	28.19	-22.9	-23.6	17.8	0.00e+00	0	45	0	1396703232	6	3913
2026-01-21 15:20:57.45	198.81	28.34	-22.8	-23.5	17.9	0.00e+00	0	45	0	1404043264	6	3880
2026-01-21 15:20:58.45	198.98	28.50	-22.6	-23.1	18.1	0.00e+00	0	44	0	1410334720	6	3787
2026-01-21 15:20:59.45	199.15	28.66	-22.5	-23.3	18.2	0.00e+00	0	45	0	1417674752	5	3933
2026-01-21 15:21:00.46	199.32	28.82	-22.6	-23.4	18.2	0.00e+00	0	45	0	1425014784	5	3965
2026-01-21 15:21:01.46	199.49	28.97	-22.6	-23.4	18.1	0.00e+00	0	45	0	1432354816	5	3973
2026-01-21 15:21:02.47	199.67	29.13	-22.6	-23.5	18.1	0.00e+00	0	45	0	1439694848	5	3989
2026-01-21 15:21:03.47	199.84	29.29	-22.6	-23.5	18.2	0.00e+00	0	44	0	1447034880	5	3989
2026-01-21 15:21:04.47	200.02	29.45	-22.7	-23.7	18.1	0.00e+00	0	44	0	1454374912	5	4040
2026-01-21 15:21:05.46	200.20	29.61	-22.9	-24.0	18.0	0.00e+00	0	44	0	1461714944	5	4109
2026-01-21 15:21:06.46	200.38	29.77	-23.0	-24.2	17.9	0.00e+00	0	45	0	1468006400	5	4141
2026-01-21 15:21:07.46	200.56	29.93	-22.8	-23.9	18.1	0.00e+00	0	45	0	1475346432	5	4060
2026-01-21 15:21:08.46	200.74	30.10	-22.8	-23.8	18.1	0.00e+00	0	44	0	1482686464	5	4039
2026-01-21 15:21:09.47	200.93	30.26	-22.9	-24.2	17.9	0.00e+00	0	45	0	1490026496	5	4139
2026-01-21 15:21:10.47	201.12	30.43	-22.9	-23.6	18.0	0.00e+00	0	45	0	1497366528	6	3889
2026-01-21 15:21:11.47	201.31	30.59	-23.3	-24.3	17.7	0.00e+00	0	44	0	1504706560	6	4050
2026-01-21 15:21:12.48	201.50	30.76	-23.4	-24.6	17.5	0.00e+00	0	45	0	1512046592	6	4142
2026-01-21 15:21:13.48	201.70	30.92	-23.3	-24.4	17.6	0.00e+00	0	45	0	1519386624	6	4082
2026-01-21 15:21:14.49	201.89	31.09	-23.3	-24.5	17.6	0.00e+00	0	45	0	1526726656	6	4121
2026-01-21 15:21:15.48	202.09	31.25	-23.3	-24.3	17.7	0.00e+00	0	44	0	1534066688	6	4069
2026-01-21 15:21:16.49	202.29	31.42	-23.1	-24.1	17.8	0.00e+00	0	44	0	1541406720	6	4009
2026-01-21 15:21:17.49	202.49	31.59	-23.2	-24.2	17.8	0.00e+00	0	45	0	1548746752	6	4037
2026-01-21 15:21:18.49	202.70	31.76	-23.1	-23.9	17.9	0.00e+00	0	45	0	1555038208	6	3968
2026-01-21 15:21:19.50	202.90	31.93	-22.8	-23.4	18.2	0.00e+00	0	45	0	1562378240	6	3842
2026-01-21 15:21:20.50	203.11	32.10	-22.9	-23.5	18.1	0.00e+00	0	45	0	1569718272	6	3874
2026-01-21 15:21:21.50	203.32	32.27	-22.9	-23.7	18.0	0.00e+00	0	45	0	1577058304	6	3922
2026-01-21 15:21:22.50	203.53	32.44	-22.8	-23.4	18.1	0.00e+00	0	45	0	1584398336	6	3866
2026-01-21 15:21:23.50	203.75	32.61	-22.8	-23.4	18.1	0.00e+00	0	44	0	1591738368	6	3864
2026-01-21 15:21:24.50	203.97	32.78	-22.7	-23.2	18.2	0.00e+00	0	45	0	1599078400	6	3817
2026-01-21 15:21:25.50	204.18	32.95	-22.9	-23.7	17.9	0.00e+00	0	45	0	1606418432	6	3949
2026-01-21 15:21:26.51	204.41	33.13	-22.7	-23.3	18.1	0.00e+00	0	45	0	1613758464	6	3838
2026-01-21 15:21:27.51	204.63	33.30	-22.7	-23.2	18.2	0.00e+00	0	45	0	1620049920	6	3801
2026-01-21 15:21:28.51	204.86	33.47	-22.7	-23.2	18.2	0.00e+00	0	45	0	1627389952	6	3824
2026-01-21 15:21:29.52	205.09	33.65	-22.7	-23.1	18.2	0.00e+00	0	45	0	1635778560	6	3790
2026-01-21 15:21:30.52	205.32	33.82	-22.7	-23.1	18.3	0.00e+00	0	45	0	1642070016	6	3772
2026-01-21 15:21:31.52	205.55	34.00	-22.7	-23.7	18.2	0.00e+00	0	44	0	1649410048	5	4029
2026-01-21 15:21:32.53	205.79	34.18	-22.7	-23.6	18.3	0.00e+00	0	45	0	1656750080	5	3997
2026-01-21 15:21:33.53	206.03	34.35	-22.8	-23.8	18.2	0.00e+00	0	45	0	1664090112	5	4059
2026-01-21 15:21:34.53	206.27	34.53	-22.9	-24.0	18.0	0.00e+00	0	45	0	1671430144	5	4101
2026-01-21 15:21:35.54	206.51	34.71	-22.8	-24.0	18.1	0.00e+00	0	45	0	1678770176	5	4100
2026-01-21 15:21:36.55	206.76	34.89	-23.0	-23.9	17.9	0.00e+00	0	45	0	1686110208	6	3960
2026-01-21 15:21:37.55	207.01	35.07	-23.2	-24.2	17.7	0.00e+00	0	45	0	1693450240	6	4030
2026-01-21 15:21:38.55	207.26	35.24	-23.3	-24.4	17.6	0.00e+00	0	44	0	1699741696	6	4084
2026-01-21 15:21:39.56	207.52	35.42	-23.2	-24.3	17.7	0.00e+00	0	45	0	1707081728	6	4070
2026-01-21 15:21:40.56	207.78	35.60	-23.2	-24.2	17.7	0.00e+00	0	45	0	1714421760	6	4048
2026-01-21 15:21:41.56	208.03	35.78	-23.0	-23.8	17.9	0.00e+00	0	45	0	1721761792	6	3949
2026-01-21 15:21:42.56	208.30	35.96	-23.0	-23.9	17.9	0.00e+00	0	45	0	1729101824	6	3972
2026-01-21 15:21:43.57	208.56	36.14	-23.0	-23.8	17.9	0.00e+00	0	44	0	1736441856	6	3963
2026-01-21 15:21:44.57	208.83	36.33	-23.1	-24.1	17.7	0.00e+00	0	45	0	1743781888	6	4033
2026-01-21 15:21:45.57	209.10	36.51	-23.2	-24.3	17.7	0.00e+00	0	45	0	1751121920	6	4071
2026-01-21 15:21:46.57	209.38	36.69	-23.3	-24.4	17.7	0.00e+00	0	45	0	1758461952	6	4089
2026-01-21 15:21:47.58	209.66	36.87	-23.0	-23.7	18.0	0.00e+00	0	45	0	1765801984	6	3928
2026-01-21 15:21:48.58	209.94	37.05	-22.9	-23.5	18.2	0.00e+00	0	45	0	1773142016	6	3874
2026-01-21 15:21:49.58	210.22	37.23	-22.9	-23.5	18.2	0.00e+00	0	45	0	1780482048	6	3863
2026-01-21 15:21:50.59	210.51	37.42	-22.7	-23.0	18.4	0.00e+00	0	45	0	1786773504	6	3754
2026-01-21 15:21:51.59	210.80	37.60	-22.6	-22.9	18.5	0.00e+00	0	44	0	1794113536	6	3724
2026-01-21 15:21:52.59	211.09	37.78	-22.7	-23.2	18.4	0.00e+00	0	45	0	1801453568	6	3786
2026-01-21 15:21:53.60	211.39	37.97	-22.8	-23.3	18.3	0.00e+00	0	45	0	1808793600	6	3801
2026-01-21 15:21:54.60	211.69	38.15	-23.4	-24.0	18.6	0.00e+00	0	45	0	1816133632	6	3853
2026-01-21 15:21:55.61	212.00	38.34	-23.3	-23.9	18.7	0.00e+00	0	45	0	1823473664	6	3831
2026-01-21 15:21:56.60	212.30	38.52	-23.5	-24.2	18.5	0.00e+00	0	45	0	1830813696	6	3912
2026-01-21 15:21:57.60	212.61	38.70	-23.7	-24.2	18.2	0.00e+00	0	45	0	1838153728	7	3810
2026-01-21 15:21:58.61	212.92	38.88	-23.7	-24.2	18.3	0.00e+00	0	45	0	1844445184	7	3811
2026-01-21 15:21:59.60	213.24	39.07	-23.7	-24.1	18.3	0.00e+00	0	44	0	1851785216	7	3786
2026-01-21 15:22:00.60	213.56	39.25	-23.8	-24.4	18.2	0.00e+00	0	45	0	1859125248	7	3848
2026-01-21 15:22:01.60	213.88	39.43	-23.7	-24.1	18.3	0.00e+00	0	45	0	1866465280	7	3782
2026-01-21 15:22:02.61	214.21	39.62	-23.9	-24.5	18.0	0.00e+00	0	45	0	1873805312	7	3865
2026-01-21 15:22:03.61	214.54	39.80	-23.9	-24.6	18.1	0.00e+00	0	45	0	1881145344	7	3887
2026-01-21 15:22:04.61	214.87	39.98	-23.9	-24.5	18.1	0.00e+00	0	45	0	1888485376	7	3869
2026-01-21 15:22:05.62	215.22	40.17	-23.9	-24.6	18.0	0.00e+00	0	45	0	1895825408	7	3894
2026-01-21 15:22:06.61	215.55	40.35	-23.9	-24.6	18.1	0.00e+00	0	45	0	1903165440	7	3890
2026-01-21 15:22:07.62	215.90	40.53	-23.7	-24.1	18.3	0.00e+00	0	45	0	1910505472	7	3764
2026-01-21 15:22:08.62	216.25	40.72	-23.9	-24.5	18.2	0.00e+00	0	45	0	1917845504	7	3859
2026-01-21 15:22:09.63	216.61	40.90	-24.1	-24.5	17.9	0.00e+00	0	45	0	1925185536	8	3762
2026-01-21 15:22:10.63	216.97	41.08	-24.4	-25.0	17.7	0.00e+00	0	45	0	1931476992	8	3867
2026-01-21 15:22:11.63	217.33	41.26	-24.2	-24.7	17.8	0.00e+00	0	45	0	1938817024	8	3816
2026-01-21 15:22:12.63	217.69	41.44	-24.6	-25.0	17.4	0.00e+00	0	45	0	1946157056	9	3776
2026-01-21 15:22:13.64	218.07	41.63	-24.7	-25.3	17.2	0.00e+00	0	45	0	1953497088	9	3855
2026-01-21 15:22:14.64	218.44	41.81	-25.0	-25.9	16.9	0.00e+00	0	45	0	1960837120	9	3986
2026-01-21 15:22:15.63	218.81	41.98	-25.0	-25.9	16.9	0.00e+00	0	45	0	1968177152	9	3997
2026-01-21 15:22:16.64	219.20	42.17	-25.1	-25.6	16.9	0.00e+00	0	45	0	1975517184	10	3804
2026-01-21 15:22:17.64	219.59	42.34	-25.0	-25.4	16.9	0.00e+00	0	44	0	1982857216	10	3777
2026-01-21 15:22:18.65	219.98	42.52	-25.3	-26.0	16.6	0.00e+00	0	45	0	1990197248	10	3903
2026-01-21 15:22:19.65	220.38	42.70	-25.2	-25.7	16.8	0.00e+00	0	45	0	1996488704	10	3845
2026-01-21 15:22:20.65	220.77	42.88	-24.4	-24.1	17.6	0.00e+00	0	45	0	2003828736	10	3487
2026-01-21 15:22:21.65	221.18	43.06	-24.0	-23.7	18.1	0.00e+00	0	45	0	2011168768	9	3485
2026-01-21 15:22:22.66	221.59	43.23	-23.8	-23.8	18.3	0.00e+00	0	45	0	2018508800	8	3598
2026-01-21 15:22:23.66	222.00	43.41	-23.7	-23.7	18.3	0.00e+00	0	44	0	2025848832	8	3585
2026-01-21 15:22:24.67	222.42	43.58	-23.9	-24.1	18.1	0.00e+00	0	45	0	2033188864	8	3665
2026-01-21 15:22:25.67	222.84	43.76	-24.0	-24.3	18.0	0.00e+00	0	45	0	2040528896	8	3715
2026-01-21 15:22:26.68	223.27	43.93	-24.0	-24.3	18.1	0.00e+00	0	45	0	2047868928	8	3715
2026-01-21 15:22:27.68	223.70	44.10	-23.8	-23.9	18.2	0.00e+00	0	45	0	2055208960	8	3628
2026-01-21 15:22:28.68	224.14	44.27	-23.8	-23.9	18.3	0.00e+00	0	45	0	2062548992	8	3618
2026-01-21 15:22:29.68	224.58	44.44	-23.8	-23.9	18.2	0.00e+00	0	45	0	2069889024	8	3630
2026-01-21 15:22:30.67	225.02	44.60	-24.1	-24.4	17.9	0.00e+00	0	45	0	2076180480	8	3738
2026-01-21 15:22:31.68	225.47	44.77	-23.9	-24.1	18.1	0.00e+00	0	45	0	2083520512	8	3679
2026-01-21 15:22:32.68	225.92	44.94	-23.7	-23.7	18.4	0.00e+00	0	45	0	2090860544	8	3583
2026-01-21 15:22:33.69	226.39	45.10	-23.9	-24.0	18.2	0.00e+00	0	45	0	2098200576	8	3644
2026-01-21 15:22:34.69	226.85	45.27	-24.0	-24.2	18.1	0.00e+00	0	45	0	2105540608	8	3699
2026-01-21 15:22:35.70	227.32	45.43	-24.0	-24.3	18.1	0.00e+00	0	45	0	2112880640	8	3709
2026-01-21 15:22:36.70	227.79	45.59	-24.0	-24.2	18.1	0.00e+00	0	45	0	2120220672	8	3697
2026-01-21 15:22:37.71	228.27	45.75	-24.2	-24.6	17.9	0.00e+00	0	45	0	2127560704	8	3788
2026-01-21 15:22:38.72	228.76	45.91	-23.9	-24.1	18.2	0.00e+00	0	45	0	2134900736	8	3683
2026-01-21 15:22:39.72	229.25	46.06	-23.6	-23.5	18.5	0.00e+00	0	45	0	2142240768	8	3534
2026-01-21 15:22:40.72	229.74	46.22	-23.7	-23.7	18.4	0.00e+00	0	45	0	2149580800	8	3577
2026-01-21 15:22:41.73	230.24	46.37	-24.0	-24.3	18.1	0.00e+00	0	45	0	2156920832	8	3713
2026-01-21 15:22:42.74	230.75	46.52	-24.5	-25.2	17.6	0.00e+00	0	45	0	2163212288	8	3932
2026-01-21 15:22:43.74	231.25	46.67	-24.7	-25.2	17.4	0.00e+00	0	45	0	2170552320	9	3821
2026-01-21 15:22:44.74	231.76	46.82	-25.0	-25.8	17.0	0.00e+00	0	45	0	2177892352	9	3968
2026-01-21 15:22:45.75	232.28	46.96	-24.6	-25.0	17.5	0.00e+00	0	44	0	2185232384	9	3761
2026-01-21 15:22:46.75	232.80	47.10	-24.3	-24.5	17.8	0.00e+00	0	45	0	2192572416	9	3653
2026-01-21 15:22:47.75	233.32	47.24	-24.3	-24.5	17.8	0.00e+00	0	45	0	2199912448	9	3649
2026-01-21 15:22:48.76	233.86	47.38	-24.5	-24.7	17.6	0.00e+00	0	45	0	2207252480	9	3705
2026-01-21 15:22:49.76	234.39	47.52	-24.5	-24.9	17.5	0.00e+00	0	45	0	2214592512	9	3749
2026-01-21 15:22:50.77	234.94	47.66	-24.8	-25.5	17.2	0.00e+00	0	45	0	2221932544	9	3884
2026-01-21 15:22:51.77	235.48	47.79	-24.5	-24.9	17.6	0.00e+00	0	45	0	2229272576	9	3744
2026-01-21 15:22:52.78	236.03	47.92	-24.2	-24.2	17.9	0.00e+00	0	44	0	2236612608	9	3601
2026-01-21 15:22:53.78	236.58	48.04	-24.2	-24.2	17.9	0.00e+00	0	45	0	2243952640	9	3586
2026-01-21 15:22:54.79	237.14	48.17	-24.3	-24.4	17.8	0.00e+00	0	45	0	2250244096	9	3644
2026-01-21 15:22:55.79	237.70	48.29	-24.3	-24.3	17.9	0.00e+00	0	44	0	2257584128	9	3619
2026-01-21 15:22:56.80	238.28	48.41	-24.6	-24.9	17.6	0.00e+00	0	45	0	2264924160	9	3746
2026-01-21 15:22:57.81	238.85	48.53	-24.5	-24.9	17.6	0.00e+00	0	45	0	2272264192	9	3739
2026-01-21 15:22:58.81	239.42	48.64	-24.9	-25.6	17.2	0.00e+00	0	45	0	2279604224	9	3902
2026-01-21 15:22:59.81	240.00	48.75	-24.7	-25.3	17.4	0.00e+00	0	45	0	2286944256	9	3837
2026-01-21 15:23:00.82	240.59	48.86	-24.5	-24.8	17.7	0.00e+00	0	45	0	2294284288	9	3726
2026-01-21 15:23:01.82	241.17	48.97	-24.4	-24.5	17.7	0.00e+00	0	45	0	2301624320	9	3665
2026-01-21 15:23:02.83	241.77	49.07	-24.6	-24.9	17.6	0.00e+00	0	45	0	2308964352	9	3753
2026-01-21 15:23:03.83	242.36	49.17	-24.6	-25.0	17.5	0.00e+00	0	45	0	2316304384	9	3766
2026-01-21 15:23:04.84	242.97	49.27	-24.8	-25.4	17.3	0.00e+00	0	45	0	2323644416	9	3861
2026-01-21 15:23:05.84	243.57	49.36	-24.7	-25.2	17.4	0.00e+00	0	45	0	2329935872	9	3811
2026-01-21 15:23:06.84	244.17	49.45	-24.7	-25.3	17.4	0.00e+00	0	45	0	2337275904	9	3832
2026-01-21 15:23:07.84	244.78	49.54	-24.9	-25.7	17.2	0.00e+00	0	45	0	2344615936	9	3934
2026-01-21 15:23:08.84	245.39	49.62	-25.0	-25.4	17.1	0.00e+00	0	45	0	2351955968	10	3759
2026-01-21 15:23:09.83	246.00	49.70	-24.8	-24.9	17.3	0.00e+00	0	45	0	2359296000	10	3650
2026-01-21 15:23:10.84	246.62	49.78	-24.7	-24.6	17.5	0.00e+00	0	45	0	2366636032	10	3586
2026-01-21 15:23:11.84	247.25	49.85	-24.6	-24.4	17.5	0.00e+00	0	45	0	2373976064	10	3537
2026-01-21 15:23:12.85	247.87	49.92	-24.8	-25.4	17.3	0.00e+00	0	45	0	2381316096	9	3848
2026-01-21 15:23:13.85	248.50	49.99	-24.8	-25.4	17.3	0.00e+00	0	45	0	2388656128	9	3870
2026-01-21 15:23:14.86	249.14	50.05	-25.0	-25.9	17.1	0.00e+00	0	45	0	2394947584	9	3979
2026-01-21 15:23:15.86	249.77	50.11	-25.0	-25.3	17.1	0.00e+00	0	45	0	2402287616	10	3732
2026-01-21 15:23:16.86	250.40	50.17	-24.9	-25.2	17.2	0.00e+00	0	45	0	2410676224	10	3721
2026-01-21 15:23:17.87	251.04	50.22	-25.0	-25.2	17.2	0.00e+00	0	45	0	2416967680	10	3724
2026-01-21 15:23:18.87	251.68	50.27	-24.7	-24.8	17.4	0.00e+00	0	45	0	2424307712	10	3613
2026-01-21 15:23:19.87	252.32	50.31	-24.8	-24.9	17.3	0.00e+00	0	45	0	2431647744	10	3641
2026-01-21 15:23:20.88	252.97	50.35	-25.1	-25.7	17.0	0.00e+00	0	45	0	2438987776	10	3826
2026-01-21 15:23:21.89	253.62	50.39	-25.0	-25.4	17.1	0.00e+00	0	45	0	2446327808	10	3755
2026-01-21 15:23:22.88	254.26	50.43	-24.7	-24.8	17.4	0.00e+00	0	45	0	2453667840	10	3613
2026-01-21 15:23:23.89	254.91	50.46	-24.5	-24.3	17.6	0.00e+00	0	45	0	2461007872	10	3500
2026-01-21 15:23:24.88	255.56	50.48	-24.2	-24.2	17.9	0.00e+00	0	45	0	2468347904	9	3586
2026-01-21 15:23:25.89	256.21	50.50	-24.1	-23.9	18.1	0.00e+00	0	45	0	2474639360	9	3533
2026-01-21 15:23:26.89	256.86	50.52	-24.0	-24.2	18.2	0.00e+00	0	45	0	2481979392	8	3677
2026-01-21 15:23:27.89	257.51	50.54	-24.3	-24.9	17.8	0.00e+00	0	45	0	2489319424	8	3845
2026-01-21 15:23:28.89	258.16	50.55	-24.7	-25.2	17.4	0.00e+00	0	45	0	2496659456	9	3817
2026-01-21 15:23:29.90	258.82	50.56	-24.8	-25.4	17.3	0.00e+00	0	45	0	2503999488	9	3867
2026-01-21 15:23:30.91	259.48	50.56	-25.0	-25.8	17.1	0.00e+00	0	45	0	2511339520	9	3966
2026-01-21 15:23:31.91	260.13	50.56	-24.9	-25.0	17.3	0.00e+00	0	45	0	2518679552	10	3674
2026-01-21 15:23:32.92	260.79	50.55	-24.8	-25.0	17.3	0.00e+00	0	45	0	2526019584	10	3655
2026-01-21 15:23:33.92	261.44	50.55	-25.0	-25.4	17.1	0.00e+00	0	45	0	2533359616	10	3754
2026-01-21 15:23:34.93	262.09	50.53	-24.8	-24.9	17.3	0.00e+00	0	45	0	2540699648	10	3637
2026-01-21 15:23:35.93	262.74	50.52	-24.8	-24.9	17.3	0.00e+00	0	45	0	2548039680	10	3651
2026-01-21 15:23:36.93	263.39	50.50	-24.7	-24.8	17.4	0.00e+00	0	45	0	2555379712	10	3611
2026-01-21 15:23:37.93	264.04	50.48	-25.0	-25.4	17.1	0.00e+00	0	45	0	2561671168	10	3748
2026-01-21 15:23:38.93	264.69	50.45	-25.0	-25.3	17.1	0.00e+00	0	45	0	2569011200	10	3733
2026-01-21 15:23:39.94	265.34	50.42	-25.1	-25.5	17.0	0.00e+00	0	45	0	2576351232	10	3779
2026-01-21 15:23:40.94	265.99	50.38	-25.4	-26.2	16.7	0.00e+00	0	45	0	2583691264	10	3947
2026-01-21 15:23:41.95	266.64	50.34	-25.0	-25.3	17.1	0.00e+00	0	45	0	2591031296	10	3743
2026-01-21 15:23:42.95	267.28	50.30	-25.1	-25.5	17.1	0.00e+00	0	45	0	2598371328	10	3771
2026-01-21 15:23:43.96	267.92	50.25	-25.0	-25.4	17.1	0.00e+00	0	45	0	2605711360	10	3746
2026-01-21 15:23:44.96	268.56	50.20	-25.3	-26.0	16.7	0.00e+00	0	45	0	2613051392	10	3907
2026-01-21 15:23:45.96	269.20	50.15	-24.9	-25.2	17.2	0.00e+00	0	45	0	2620391424	10	3710
2026-01-21 15:23:46.96	269.83	50.09	-24.8	-24.9	17.3	0.00e+00	0	45	0	2626682880	10	3642
2026-01-21 15:23:47.97	270.46	50.03	-24.9	-25.1	17.2	0.00e+00	0	45	0	2635071488	10	3685
2026-01-21 15:23:48.97	271.09	49.97	-25.0	-25.4	17.1	0.00e+00	0	44	0	2642411520	10	3755
2026-01-21 15:23:49.97	271.72	49.90	-25.4	-26.2	16.7	0.00e+00	0	45	0	2648702976	10	3948
2026-01-21 15:23:50.97	272.34	49.83	-25.2	-25.7	16.9	0.00e+00	0	45	0	2656043008	10	3835
2026-01-21 15:23:51.97	272.96	49.76	-24.9	-25.2	17.2	0.00e+00	0	45	0	2663383040	10	3706
2026-01-21 15:23:52.97	273.58	49.68	-24.6	-24.5	17.5	0.00e+00	0	45	0	2670723072	10	3562
2026-01-21 15:23:53.97	274.19	49.60	-24.4	-24.2	17.7	0.00e+00	0	45	0	2678063104	10	3485
2026-01-21 15:23:54.96	274.79	49.52	-24.5	-24.7	17.7	0.00e+00	0	45	0	2685403136	9	3711
2026-01-21 15:23:55.97	275.41	49.43	-24.5	-24.8	17.6	0.00e+00	0	45	0	2692743168	9	3717
2026-01-21 15:23:56.97	276.01	49.34	-24.6	-24.9	17.5	0.00e+00	0	45	0	2700083200	9	3749
2026-01-21 15:23:57.97	276.61	49.24	-24.6	-24.9	17.6	0.00e+00	0	45	0	2706374656	9	3746
2026-01-21 15:23:58.98	277.21	49.15	-24.5	-24.8	17.6	0.00e+00	0	45	0	2713714688	9	3732
2026-01-21 15:23:59.98	277.80	49.05	-24.5	-24.8	17.6	0.00e+00	0	45	0	2721054720	9	3736
2026-01-21 15:24:00.99	278.39	48.94	-24.5	-24.9	17.5	0.00e+00	0	45	0	2728394752	9	3740
2026-01-21 15:24:01.99	278.98	48.84	-24.4	-24.5	17.8	0.00e+00	0	45	0	2735734784	9	3660
2026-01-21 15:24:02.99	279.56	48.73	-24.4	-24.5	17.8	0.00e+00	0	45	0	2743074816	9	3665
2026-01-21 15:24:03.99	280.13	48.62	-24.7	-25.3	17.4	0.00e+00	0	45	0	2750414848	9	3828
2026-01-21 15:24:05.00	280.71	48.50	-24.9	-25.7	17.1	0.00e+00	0	45	0	2757754880	9	3934
2026-01-21 15:24:06.00	281.28	48.39	-24.8	-25.3	17.3	0.00e+00	0	45	0	2765094912	9	3854
2026-01-21 15:24:07.00	281.84	48.27	-24.4	-24.6	17.7	0.00e+00	0	45	0	2771386368	9	3685
2026-01-21 15:24:08.01	282.41	48.14	-24.5	-24.8	17.5	0.00e+00	0	45	0	2778726400	9	3729
2026-01-21 15:24:09.02	282.97	48.02	-24.9	-25.6	17.2	0.00e+00	0	45	0	2787115008	9	3902
2026-01-21 15:24:10.01	283.51	47.89	-24.6	-25.1	17.5	0.00e+00	0	45	0	2793406464	9	3789
2026-01-21 15:24:11.02	284.06	47.76	-24.7	-25.3	17.4	0.00e+00	0	45	0	2800746496	9	3836
2026-01-21 15:24:12.02	284.60	47.63	-24.7	-25.2	17.4	0.00e+00	0	45	0	2808086528	9	3812
2026-01-21 15:24:13.02	285.14	47.50	-24.5	-24.7	17.7	0.00e+00	0	45	0	2815426560	9	3706
2026-01-21 15:24:14.03	285.67	47.36	-24.3	-24.4	17.8	0.00e+00	0	45	0	2822766592	9	3642
2026-01-21 15:24:15.03	286.20	47.22	-24.6	-25.1	17.5	0.00e+00	0	45	0	2830106624	9	3780
2026-01-21 15:24:16.03	286.72	47.08	-24.6	-24.9	17.5	0.00e+00	0	45	0	2837446656	9	3750
2026-01-21 15:24:17.03	287.24	46.94	-24.9	-25.7	17.2	0.00e+00	0	45	0	2844786688	9	3921
2026-01-21 15:24:18.04	287.76	46.79	-24.6	-25.0	17.6	0.00e+00	0	45	0	2852126720	9	3754
2026-01-21 15:24:19.04	288.27	46.65	-24.3	-24.4	17.8	0.00e+00	0	45	0	2858418176	9	3641
2026-01-21 15:24:20.04	288.77	46.50	-24.1	-24.0	18.0	0.00e+00	0	45	0	2865758208	9	3545
2026-01-21 15:24:21.05	289.27	46.35	-24.1	-23.9	18.1	0.00e+00	0	45	0	2873098240	9	3532
2026-01-21 15:24:22.05	289.77	46.19	-24.3	-24.3	17.8	0.00e+00	0	45	0	2880438272	9	3616
2026-01-21 15:24:23.06	290.26	46.04	-24.0	-23.8	18.1	0.00e+00	0	45	0	2887778304	9	3501
2026-01-21 15:24:24.07	290.75	45.88	-24.0	-23.8	18.1	0.00e+00	0	45	0	2895118336	9	3502
2026-01-21 15:24:25.08	291.24	45.72	-24.2	-24.1	18.0	0.00e+00	0	45	0	2902458368	9	3561
2026-01-21 15:24:26.08	291.71	45.57	-24.1	-24.0	18.1	0.00e+00	0	45	0	2909798400	9	3542
2026-01-21 15:24:27.08	292.18	45.41	-24.3	-24.5	17.7	0.00e+00	0	45	0	2917138432	9	3649
2026-01-21 15:24:28.09	292.65	45.24	-24.3	-24.3	17.9	0.00e+00	0	45	0	2924478464	9	3615
2026-01-21 15:24:29.09	293.11	45.08	-24.3	-24.4	17.8	0.00e+00	0	45	0	2931818496	9	3628
2026-01-21 15:24:30.09	293.57	44.92	-24.1	-24.0	18.0	0.00e+00	0	45	0	2938109952	9	3559
2026-01-21 15:24:31.09	294.02	44.75	-24.1	-23.9	18.1	0.00e+00	0	45	0	2945449984	9	3518
2026-01-21 15:24:32.10	294.47	44.59	-24.2	-24.2	17.9	0.00e+00	0	45	0	2952790016	9	3589
2026-01-21 15:24:33.11	294.92	44.42	-24.1	-23.9	18.1	0.00e+00	0	45	0	2960130048	9	3525
2026-01-21 15:24:34.11	295.35	44.25	-24.1	-23.9	18.1	0.00e+00	0	45	0	2967470080	9	3536
2026-01-21 15:24:35.12	295.79	44.08	-24.1	-24.0	18.1	0.00e+00	0	45	0	2974810112	9	3548
2026-01-21 15:24:36.12	296.22	43.91	-24.4	-24.7	17.7	0.00e+00	0	45	0	2982150144	9	3699
2026-01-21 15:24:37.13	296.65	43.73	-24.4	-24.6	17.8	0.00e+00	0	45	0	2989490176	9	3680
2026-01-21 15:24:38.13	297.07	43.56	-24.6	-25.0	17.5	0.00e+00	0	45	0	2996830208	9	3772
2026-01-21 15:24:39.13	297.48	43.39	-25.0	-25.8	17.1	0.00e+00	0	45	0	3004170240	9	3971
2026-01-21 15:24:40.14	297.90	43.21	-24.9	-25.1	17.2	0.00e+00	0	45	0	3011510272	10	3696
2026-01-21 15:24:41.15	298.31	43.03	-24.6	-24.5	17.6	0.00e+00	0	45	0	3018850304	10	3551
2026-01-21 15:24:42.15	298.71	42.86	-24.6	-24.6	17.5	0.00e+00	0	45	0	3025141760	10	3575
2026-01-21 15:24:43.15	299.10	42.68	-24.6	-24.5	17.5	0.00e+00	0	45	0	3032481792	10	3549
2026-01-21 15:24:44.15	299.50	42.51	-25.1	-25.6	16.9	0.00e+00	0	45	0	3039821824	10	3810
2026-01-21 15:24:45.15	299.89	42.33	-24.3	-24.3	17.7	0.00e+00	0	45	0	3047161856	9	3613
2026-01-21 15:24:46.16	300.27	42.15	-24.0	-23.8	18.2	0.00e+00	0	45	0	3054501888	9	3498
2026-01-21 15:24:47.16	300.65	41.97	-23.6	-23.5	18.5	0.00e+00	0	45	0	3061841920	8	3536
2026-01-21 15:24:48.17	301.03	41.79	-23.5	-23.2	18.7	0.00e+00	0	45	0	3069181952	8	3478
2026-01-21 15:24:49.17	301.41	41.61	-23.6	-23.4	18.6	0.00e+00	0	45	0	3076521984	8	3509
2026-01-21 15:24:50.18	301.78	41.43	-23.5	-23.3	18.6	0.00e+00	0	45	0	3083862016	8	3489
2026-01-21 15:24:51.18	302.14	41.25	-23.7	-23.6	18.4	0.00e+00	0	45	0	3091202048	8	3564
2026-01-21 15:24:52.18	302.50	41.07	-23.8	-23.9	18.3	0.00e+00	0	45	0	3098542080	8	3625
2026-01-21 15:24:53.18	302.86	40.89	-24.1	-24.4	18.0	0.00e+00	0	45	0	3104833536	8	3741
2026-01-21 15:24:54.19	303.21	40.70	-24.1	-24.4	18.0	0.00e+00	0	45	0	3112173568	8	3747
2026-01-21 15:24:55.20	303.56	40.52	-24.1	-24.4	17.9	0.00e+00	0	45	0	3119513600	8	3748
2026-01-21 15:24:56.20	303.91	40.34	-24.0	-24.2	18.1	0.00e+00	0	45	0	3126853632	8	3705
2026-01-21 15:24:57.20	304.25	40.16	-23.9	-24.0	18.2	0.00e+00	0	45	0	3134193664	8	3647
2026-01-21 15:24:58.20	304.58	39.97	-23.8	-23.8	18.3	0.00e+00	0	45	0	3141533696	8	3614
2026-01-21 15:24:59.20	304.92	39.79	-23.8	-23.8	18.4	0.00e+00	0	45	0	3148873728	8	3605
2026-01-21 15:25:00.21	305.25	39.61	-23.6	-23.5	18.5	0.00e+00	0	45	0	3156213760	8	3533
2026-01-21 15:25:01.21	305.57	39.42	-23.6	-23.5	18.5	0.00e+00	0	45	0	3163553792	8	3529
2026-01-21 15:25:02.21	305.90	39.24	-23.9	-24.0	18.3	0.00e+00	0	45	0	3169845248	8	3643
2026-01-21 15:25:03.21	306.21	39.06	-24.0	-24.1	18.1	0.00e+00	0	45	0	3177185280	8	3682
2026-01-21 15:25:04.20	306.53	38.88	-24.1	-24.4	18.0	0.00e+00	0	45	0	3184525312	8	3735
2026-01-21 15:25:05.20	306.84	38.70	-24.0	-24.3	18.1	0.00e+00	0	45	0	3191865344	8	3723
2026-01-21 15:25:06.21	307.15	38.51	-24.1	-24.5	17.8	0.00e+00	0	45	0	3199205376	8	3766
2026-01-21 15:25:07.21	307.45	38.33	-23.8	-23.7	18.3	0.00e+00	0	45	0	3206545408	8	3592
2026-01-21 15:25:08.21	307.75	38.15	-23.6	-23.5	18.5	0.00e+00	0	45	0	3213885440	8	3545
2026-01-21 15:25:09.22	308.05	37.97	-23.7	-23.6	18.3	0.00e+00	0	45	0	3221225472	8	3570
2026-01-21 15:25:10.22	308.35	37.78	-23.5	-23.1	18.6	0.00e+00	0	45	0	3228565504	8	3464
2026-01-21 15:25:11.22	308.64	37.60	-23.4	-23.4	18.6	0.00e+00	0	45	0	3235905536	7	3620
2026-01-21 15:25:12.22	308.93	37.42	-23.4	-23.4	18.7	0.00e+00	0	45	0	3243245568	7	3625
2026-01-21 15:25:13.22	309.21	37.24	-23.3	-23.3	18.8	0.00e+00	0	45	0	3250585600	7	3590
2026-01-21 15:25:14.22	309.50	37.06	-23.4	-23.5	18.7	0.00e+00	0	45	0	3256877056	7	3650
2026-01-21 15:25:15.22	309.77	36.88	-23.5	-23.8	18.5	0.00e+00	0	45	0	3264217088	7	3705
2026-01-21 15:25:16.22	310.05	36.70	-23.5	-23.6	18.6	0.00e+00	0	45	0	3271557120	7	3666
2026-01-21 15:25:17.23	310.33	36.52	-23.6	-23.9	18.4	0.00e+00	0	45	0	3278897152	7	3719
2026-01-21 15:25:18.23	310.60	36.34	-23.5	-23.8	18.5	0.00e+00	0	45	0	3286237184	7	3700
2026-01-21 15:25:19.23	310.86	36.16	-23.6	-24.0	18.4	0.00e+00	0	45	0	3293577216	7	3746
2026-01-21 15:25:20.23	311.13	35.98	-23.7	-24.2	18.3	0.00e+00	0	45	0	3300917248	7	3789
2026-01-21 15:25:21.23	311.39	35.80	-23.8	-24.3	18.3	0.00e+00	0	45	0	3308257280	7	3831
2026-01-21 15:25:22.23	311.65	35.62	-24.0	-24.7	18.1	0.00e+00	0	45	0	3314548736	7	3921
2026-01-21 15:25:23.24	311.91	35.44	-24.0	-24.8	18.0	0.00e+00	0	45	0	3321888768	7	3937
2026-01-21 15:25:24.24	312.16	35.26	-23.8	-24.4	18.2	0.00e+00	0	45	0	3329228800	7	3849
2026-01-21 15:25:25.25	312.41	35.08	-23.7	-24.1	18.4	0.00e+00	0	45	0	3336568832	7	3777
2026-01-21 15:25:26.25	312.66	34.91	-23.7	-24.1	18.3	0.00e+00	0	45	0	3343908864	7	3781
2026-01-21 15:25:27.26	312.91	34.73	-23.3	-23.4	18.7	0.00e+00	0	45	0	3351248896	7	3617
2026-01-21 15:25:28.27	313.15	34.55	-23.3	-23.3	18.8	0.00e+00	0	45	0	3358588928	7	3602
2026-01-21 15:25:29.27	313.39	34.37	-23.4	-23.5	18.7	0.00e+00	0	45	0	3365928960	7	3640
2026-01-21 15:25:30.28	313.63	34.20	-23.6	-23.8	18.5	0.00e+00	0	45	0	3373268992	7	3706
2026-01-21 15:25:31.28	313.86	34.02	-23.2	-23.1	18.9	0.00e+00	0	45	0	3380609024	7	3548
2026-01-21 15:25:32.29	314.10	33.85	-23.3	-23.2	18.7	0.00e+00	0	45	0	3387949056	7	3566
2026-01-21 15:25:33.29	314.33	33.67	-23.3	-23.3	18.8	0.00e+00	0	45	0	3395289088	7	3595
2026-01-21 15:25:34.29	314.56	33.50	-23.6	-23.9	18.4	0.00e+00	0	45	0	3401580544	7	3727
2026-01-21 15:25:35.29	314.78	33.33	-23.7	-24.2	18.3	0.00e+00	0	45	0	3408920576	7	3801
2026-01-21 15:25:36.29	315.00	33.16	-23.9	-24.5	18.2	0.00e+00	0	45	0	3416260608	7	3873
2026-01-21 15:25:37.29	315.22	32.98	-24.1	-24.9	17.9	0.00e+00	0	45	0	3423600640	7	3957
2026-01-21 15:25:38.29	315.44	32.81	-24.3	-24.8	17.7	0.00e+00	0	45	0	3430940672	8	3822
2026-01-21 15:25:39.30	315.66	32.64	-24.1	-24.5	18.0	0.00e+00	0	45	0	3438280704	8	3763
2026-01-21 15:25:40.29	315.87	32.47	-23.9	-24.1	18.2	0.00e+00	0	45	0	3445620736	8	3668
2026-01-21 15:25:41.29	316.08	32.30	-23.8	-23.9	18.2	0.00e+00	0	45	0	3452960768	8	3629
2026-01-21 15:25:42.30	316.30	32.13	-23.9	-24.1	18.2	0.00e+00	0	45	0	3459252224	8	3661
2026-01-21 15:25:43.30	316.50	31.96	-23.9	-24.1	18.1	0.00e+00	0	45	0	3466592256	8	3671
2026-01-21 15:25:44.30	316.71	31.80	-24.0	-24.2	18.1	0.00e+00	0	45	0	3473932288	8	3689
2026-01-21 15:25:45.30	316.91	31.63	-24.0	-24.2	18.1	0.00e+00	0	45	0	3481272320	8	3700
2026-01-21 15:25:46.30	317.11	31.46	-23.9	-24.1	18.1	0.00e+00	0	45	0	3488612352	8	3674
2026-01-21 15:25:47.31	317.31	31.29	-23.9	-24.0	18.1	0.00e+00	0	45	0	3495952384	8	3657
2026-01-21 15:25:48.31	317.51	31.13	-23.7	-23.6	18.3	0.00e+00	0	45	0	3503292416	8	3565
2026-01-21 15:25:49.31	317.71	30.96	-23.6	-23.4	18.4	0.00e+00	0	45	0	3510632448	8	3518
2026-01-21 15:25:50.31	317.90	30.80	-23.6	-23.3	18.5	0.00e+00	0	45	0	3517972480	8	3500
2026-01-21 15:25:51.31	318.09	30.64	-23.6	-23.4	18.4	0.00e+00	0	45	0	3524263936	8	3525
2026-01-21 15:25:52.32	318.28	30.47	-23.5	-23.3	18.5	0.00e+00	0	45	0	3532652544	8	3491
2026-01-21 15:25:53.32	318.47	30.31	-23.7	-23.6	18.4	0.00e+00	0	45	0	3539992576	8	3553
2026-01-21 15:25:54.32	318.65	30.15	-23.7	-23.5	18.4	0.00e+00	0	45	0	3546284032	8	3548
2026-01-21 15:25:55.32	318.84	29.98	-23.8	-23.9	18.2	0.00e+00	0	45	0	3553624064	8	3631
2026-01-21 15:25:56.32	319.02	29.82	-23.8	-23.9	18.2	0.00e+00	0	45	0	3560964096	8	3634
2026-01-21 15:25:57.33	319.20	29.66	-23.8	-23.9	18.1	0.00e+00	0	45	0	3568304128	8	3637
2026-01-21 15:25:58.33	319.38	29.50	-23.9	-24.1	18.1	0.00e+00	0	45	0	3575644160	8	3662
2026-01-21 15:25:59.33	319.56	29.34	-24.1	-24.5	17.7	0.00e+00	0	45	0	3582984192	8	3768
2026-01-21 15:26:00.33	319.73	29.19	-24.2	-24.7	17.7	0.00e+00	0	45	0	3590324224	8	3816
2026-01-21 15:26:01.33	319.91	29.03	-24.1	-24.6	17.8	0.00e+00	0	45	0	3597664256	8	3780
2026-01-21 15:26:02.34	320.08	28.87	-24.0	-24.3	18.0	0.00e+00	0	45	0	3605004288	8	3711
2026-01-21 15:26:03.35	320.25	28.71	-24.0	-24.2	18.0	0.00e+00	0	45	0	3611295744	8	3705
2026-01-21 15:26:04.35	320.42	28.55	-24.1	-24.4	17.9	0.00e+00	0	45	0	3618635776	8	3734
2026-01-21 15:26:05.34	320.59	28.40	-24.1	-24.5	17.8	0.00e+00	0	45	0	3625975808	8	3767
2026-01-21 15:26:06.35	320.75	28.25	-24.0	-24.2	18.0	0.00e+00	0	45	0	3633315840	8	3700
2026-01-21 15:26:07.36	320.92	28.09	-23.9	-24.2	18.0	0.00e+00	0	45	0	3640655872	8	3685
2026-01-21 15:26:08.36	321.08	27.94	-24.0	-24.3	17.9	0.00e+00	0	45	0	3647995904	8	3707
2026-01-21 15:26:09.36	321.24	27.78	-23.9	-24.0	18.0	0.00e+00	0	45	0	3655335936	8	3660
2026-01-21 15:26:10.36	321.40	27.63	-23.9	-24.1	18.0	0.00e+00	0	45	0	3662675968	8	3668
2026-01-21 15:26:11.36	321.56	27.48	-24.0	-24.2	18.0	0.00e+00	0	45	0	3668967424	8	3684
2026-01-21 15:26:12.37	321.72	27.33	-23.9	-24.0	18.0	0.00e+00	0	45	0	3677356032	8	3650
2026-01-21 15:26:13.37	321.87	27.18	-23.9	-24.0	18.1	0.00e+00	0	45	0	3684696064	8	3650
2026-01-21 15:26:14.37	322.03	27.03	-24.0	-24.2	17.9	0.00e+00	0	45	0	3690987520	8	3702
2026-01-21 15:26:15.38	322.18	26.88	-23.9	-24.0	18.0	0.00e+00	0	45	0	3698327552	8	3651
2026-01-21 15:26:16.38	322.33	26.73	-23.9	-24.1	18.0	0.00e+00	0	45	0	3705667584	8	3675
2026-01-21 15:26:17.39	322.48	26.58	-24.0	-24.3	17.9	0.00e+00	0	45	0	3713007616	8	3717
2026-01-21 15:26:18.40	322.63	26.43	-24.2	-24.7	17.7	0.00e+00	0	45	0	3720347648	8	3808
2026-01-21 15:26:19.39	322.78	26.29	-24.0	-24.2	17.9	0.00e+00	0	45	0	3727687680	8	3710
2026-01-21 15:26:20.40	322.92	26.14	-23.9	-24.1	17.7	0.00e+00	0	45	0	3735027712	8	3684
2026-01-21 15:26:21.40	323.07	25.99	-24.1	-24.4	17.8	0.00e+00	0	45	0	3742367744	8	3737
2026-01-21 15:26:22.41	323.21	25.85	-24.1	-24.5	17.7	0.00e+00	0	45	0	3749707776	8	3761
2026-01-21 15:26:23.40	323.35	25.70	-24.3	-24.9	17.5	0.00e+00	0	45	0	3755999232	8	3869
2026-01-21 15:26:24.40	323.49	25.56	-24.2	-24.6	17.7	0.00e+00	0	45	0	3763339264	8	3798
2026-01-21 15:26:25.40	323.63	25.42	-24.2	-24.7	17.6	0.00e+00	0	45	0	3770679296	8	3809
2026-01-21 15:26:26.40	323.77	25.28	-24.2	-24.7	17.6	0.00e+00	0	45	0	3778019328	8	3820
2026-01-21 15:26:27.40	323.91	25.13	-24.1	-24.6	17.7	0.00e+00	0	45	0	3785359360	8	3783
2026-01-21 15:26:28.40	324.04	24.99	-24.2	-24.7	17.6	0.00e+00	0	45	0	3792699392	8	3820
2026-01-21 15:26:29.41	324.18	24.85	-24.2	-24.6	17.6	0.00e+00	0	45	0	3800039424	8	3793
2026-01-21 15:26:30.42	324.31	24.71	-24.0	-24.4	17.8	0.00e+00	0	45	0	3807379456	8	3742
2026-01-21 15:26:31.42	324.44	24.57	-24.0	-24.4	17.8	0.00e+00	0	45	0	3814719488	8	3738
2026-01-21 15:26:32.43	324.58	24.43	-24.1	-24.5	17.7	0.00e+00	0	45	0	3822059520	8	3762
2026-01-21 15:26:33.43	324.71	24.29	-24.1	-24.6	17.6	0.00e+00	0	45	0	3829399552	8	3783
2026-01-21 15:26:34.44	324.84	24.15	-23.9	-24.1	17.9	0.00e+00	0	45	0	3836739584	8	3677
2026-01-21 15:26:35.44	324.96	24.02	-23.9	-24.0	17.9	0.00e+00	0	45	0	3843031040	8	3657
2026-01-21 15:26:36.45	325.09	23.88	-23.8	-23.9	18.0	0.00e+00	0	45	0	3850371072	8	3644
2026-01-21 15:26:37.45	325.22	23.74	-23.9	-24.0	17.9	0.00e+00	0	45	0	3857711104	8	3645
2026-01-21 15:26:38.45	325.34	23.61	-23.8	-23.8	18.0	0.00e+00	0	45	0	3865051136	8	3606
2026-01-21 15:26:39.45	325.47	23.47	-23.9	-24.1	17.8	0.00e+00	0	45	0	3872391168	8	3676
2026-01-21 15:26:40.45	325.59	23.34	-23.8	-23.9	18.0	0.00e+00	0	45	0	3879731200	8	3634
2026-01-21 15:26:41.45	325.71	23.20	-23.9	-24.0	17.9	0.00e+00	0	45	0	3887071232	8	3649
2026-01-21 15:26:42.45	325.83	23.07	-23.9	-24.2	17.9	0.00e+00	0	45	0	3894411264	8	3689
2026-01-21 15:26:43.45	325.95	22.94	-23.9	-24.1	17.8	0.00e+00	0	45	0	3900702720	8	3686
2026-01-21 15:26:44.45	326.07	22.81	-23.9	-24.0	17.9	0.00e+00	0	45	0	3908042752	8	3660
2026-01-21 15:26:45.45	326.19	22.68	-23.9	-24.1	17.9	0.00e+00	0	45	0	3915382784	8	3674
2026-01-21 15:26:46.46	326.30	22.54	-24.0	-24.3	17.8	0.00e+00	0	45	0	3922722816	8	3714
2026-01-21 15:26:47.47	326.42	22.41	-24.1	-24.4	17.7	0.00e+00	0	45	0	3930062848	8	3744
2026-01-21 15:26:48.47	326.54	22.28	-24.0	-24.3	17.7	0.00e+00	0	45	0	3937402880	8	3718
2026-01-21 15:26:49.47	326.65	22.15	-24.0	-24.3	17.7	0.00e+00	0	45	0	3944742912	8	3730
2026-01-21 15:26:50.47	326.76	22.03	-24.1	-24.4	17.7	0.00e+00	0	45	0	3952082944	8	3745
2026-01-21 15:26:51.48	326.88	21.90	-24.2	-24.6	17.6	0.00e+00	0	45	0	3959422976	8	3784
2026-01-21 15:26:52.48	326.99	21.77	-24.2	-24.7	17.5	0.00e+00	0	45	0	3966763008	8	3811
2026-01-21 15:26:53.48	327.10	21.64	-24.2	-24.6	17.6	0.00e+00	0	45	0	3974103040	8	3790
2026-01-21 15:26:54.49	327.21	21.51	-24.3	-24.8	17.4	0.00e+00	0	45	0	3981443072	8	3846
2026-01-21 15:26:55.49	327.32	21.39	-24.4	-25.0	17.3	0.00e+00	0	45	0	3987734528	8	3891
2026-01-21 15:26:56.49	327.42	21.26	-24.3	-25.0	17.4	0.00e+00	0	45	0	3995074560	8	3883
2026-01-21 15:26:57.50	327.53	21.14	-24.3	-25.0	17.3	0.00e+00	0	45	0	4002414592	8	3887
2026-01-21 15:26:58.49	327.64	21.01	-24.4	-25.2	17.3	0.00e+00	0	45	0	4009754624	8	3919
2026-01-21 15:26:59.50	327.74	20.89	-24.4	-25.1	17.3	0.00e+00	0	45	0	4017094656	8	3907
2026-01-21 15:27:00.50	327.85	20.77	-24.5	-25.4	17.1	0.00e+00	0	45	0	4024434688	8	3981
2026-01-21 15:27:01.51	327.95	20.64	-24.5	-24.9	17.1	0.00e+00	0	45	0	4031774720	9	3758
2026-01-21 15:27:02.51	328.05	20.52	-24.5	-24.7	17.2	0.00e+00	0	45	0	4039114752	9	3716
2026-01-21 15:27:03.51	328.16	20.40	-24.4	-24.6	17.3	0.00e+00	0	45	0	4045406208	9	3688
2026-01-21 15:27:04.51	328.26	20.28	-24.5	-24.9	17.1	0.00e+00	0	45	0	4052746240	9	3745
2026-01-21 15:27:05.51	328.36	20.16	-24.6	-25.1	17.0	0.00e+00	0	45	0	4060086272	9	3800
2026-01-21 15:27:06.52	328.46	20.04	-24.6	-25.1	17.0	0.00e+00	0	45	0	4067426304	9	3793
2026-01-21 15:27:07.53	328.56	19.91	-24.5	-24.9	17.1	0.00e+00	0	45	0	4074766336	9	3754
2026-01-21 15:27:08.53	328.66	19.80	-24.6	-25.1	17.0	0.00e+00	0	45	0	4082106368	9	3808
2026-01-21 15:27:09.54	328.76	19.68	-24.6	-25.1	16.9	0.00e+00	0	45	0	4089446400	9	3810
2026-01-21 15:27:10.55	328.85	19.56	-24.6	-25.0	17.0	0.00e+00	0	45	0	4096786432	9	3785
2026-01-21 15:27:11.55	328.95	19.44	-24.6	-25.1	17.0	0.00e+00	0	45	0	4104126464	9	3806
2026-01-21 15:27:12.55	329.05	19.32	-24.5	-24.8	17.1	0.00e+00	0	45	0	4111466496	9	3742
2026-01-21 15:27:13.55	329.14	19.20	-24.5	-24.9	17.1	0.00e+00	0	45	0	4118806528	9	3753
2026-01-21 15:27:14.55	329.23	19.09	-24.5	-24.9	17.0	0.00e+00	0	45	0	4126146560	9	3763
2026-01-21 15:27:15.56	329.33	18.97	-24.5	-24.9	17.1	0.00e+00	0	45	0	4132438016	9	3747
2026-01-21 15:27:16.56	329.42	18.86	-24.6	-25.0	17.0	0.00e+00	0	45	0	4139778048	9	3783
2026-01-21 15:27:17.56	329.51	18.74	-24.8	-25.4	16.8	0.00e+00	0	45	0	4147118080	9	3882
2026-01-21 15:27:18.56	329.60	18.63	-24.7	-25.3	16.8	0.00e+00	0	45	0	4154458112	9	3856
2026-01-21 15:27:19.56	329.70	18.51	-24.9	-25.7	16.6	0.00e+00	0	45	0	4161798144	9	3950
2026-01-21 15:27:20.57	329.79	18.40	-24.8	-25.4	16.7	0.00e+00	0	45	0	4169138176	9	3885
2026-01-21 15:27:21.57	329.88	18.29	-24.8	-25.5	16.7	0.00e+00	0	45	0	4176478208	9	3885
2026-01-21 15:27:22.58	329.97	18.17	-25.1	-25.6	16.5	0.00e+00	0	45	0	4183818240	10	3814
2026-01-21 15:27:23.58	330.05	18.06	-25.0	-25.5	16.5	0.00e+00	0	45	0	4191158272	10	3784
2026-01-21 15:27:24.59	330.14	17.95	-25.0	-25.3	16.6	0.00e+00	0	45	0	4198498304	10	3746
2026-01-21 15:27:25.59	330.23	17.84	-24.9	-25.2	16.7	0.00e+00	0	45	0	4205838336	10	3727
2026-01-21 15:27:26.59	330.32	17.73	-24.9	-25.2	16.7	0.00e+00	0	45	0	4213178368	10	3714
2026-01-21 15:27:27.59	330.40	17.62	-25.0	-25.4	16.6	0.00e+00	0	45	0	4219469824	10	3764
2026-01-21 15:27:28.59	330.49	17.51	-24.9	-25.2	16.6	0.00e+00	0	45	0	4226809856	10	3727
2026-01-21 15:27:29.60	330.57	17.40	-25.0	-25.3	16.6	0.00e+00	0	45	0	4234149888	10	3751
2026-01-21 15:27:30.60	330.66	17.29	-24.9	-25.3	16.6	0.00e+00	0	45	0	4241489920	10	3741
2026-01-21 15:27:31.60	330.74	17.18	-25.1	-25.7	16.4	0.00e+00	0	45	0	4248829952	10	3832
2026-01-21 15:27:32.60	330.82	17.07	-25.1	-25.6	16.4	0.00e+00	0	45	0	4256169984	10	3815
2026-01-21 15:27:33.61	330.90	16.96	-25.0	-25.4	16.5	0.00e+00	0	45	0	4263510016	10	3770
2026-01-21 15:27:34.60	330.99	16.85	-25.1	-25.6	16.4	0.00e+00	0	45	0	4270850048	10	3802
2026-01-21 15:27:35.59	331.07	16.75	-25.1	-25.6	16.4	0.00e+00	0	45	0	4277141504	10	3804
2026-01-21 15:27:36.60	331.15	16.64	-25.1	-25.6	16.4	0.00e+00	0	45	0	4284481536	10	3817
2026-01-21 15:27:37.61	331.23	16.53	-25.2	-25.8	16.3	0.00e+00	0	45	0	4291821568	10	3871
2026-01-21 15:27:38.61	331.31	16.43	-25.2	-25.8	16.3	0.00e+00	0	45	0	4299161600	10	3871
2026-01-21 15:27:39.61	331.39	16.32	-25.4	-26.2	16.0	0.00e+00	0	45	0	4306501632	10	3970
2026-01-21 15:27:40.62	331.47	16.22	-25.4	-26.2	16.0	0.00e+00	0	45	0	4313841664	10	3962
2026-01-21 15:27:41.62	331.54	16.11	-25.2	-25.9	16.2	0.00e+00	0	45	0	4321181696	10	3876
2026-01-21 15:27:42.62	331.62	16.01	-25.3	-26.0	16.2	0.00e+00	0	45	0	4328521728	10	3902
2026-01-21 15:27:43.63	331.70	15.91	-25.3	-26.1	16.1	0.00e+00	0	45	0	4335861760	10	3927
2026-01-21 15:27:44.63	331.78	15.80	-25.3	-26.0	16.1	0.00e+00	0	45	0	4343201792	10	3918
2026-01-21 15:27:45.63	331.85	15.70	-25.4	-26.3	15.9	0.00e+00	0	45	0	4350541824	10	3993
2026-01-21 15:27:46.63	331.93	15.60	-25.4	-26.3	15.9	0.00e+00	0	45	0	4357881856	10	3998
2026-01-21 15:27:47.63	332.00	15.50	-25.5	-26.4	15.9	0.00e+00	0	45	0	4364173312	10	4004
2026-01-21 15:27:48.64	332.08	15.39	-25.4	-26.2	16.0	0.00e+00	0	45	0	4371513344	10	3965
2026-01-21 15:27:49.65	332.15	15.29	-25.4	-26.3	15.9	0.00e+00	0	45	0	4378853376	10	4000
2026-01-21 15:27:50.65	332.23	15.19	-25.5	-26.5	15.8	0.00e+00	0	45	0	4386193408	10	4026
2026-01-21 15:27:51.66	332.30	15.09	-25.5	-26.5	15.8	0.00e+00	0	45	0	4393533440	10	4041
2026-01-21 15:27:52.66	332.37	14.99	-25.5	-26.0	15.8	0.00e+00	0	45	0	4400873472	11	3819
2026-01-21 15:27:53.66	332.45	14.89	-25.5	-26.0	15.8	0.00e+00	0	45	0	4408213504	11	3798
2026-01-21 15:27:54.66	332.52	14.79	-25.6	-26.1	15.7	0.00e+00	0	45	0	4415553536	11	3845
2026-01-21 15:27:55.66	332.59	14.69	-25.6	-26.3	15.7	0.00e+00	0	45	0	4421844992	11	3882
2026-01-21 15:27:56.67	332.66	14.59	-25.7	-26.5	15.6	0.00e+00	0	45	0	4430233600	11	3932
2026-01-21 15:27:57.67	332.73	14.49	-26.0	-27.0	15.4	0.00e+00	0	45	0	4437573632	11	4062
2026-01-21 15:27:58.68	332.80	14.39	-25.7	-26.5	15.6	0.00e+00	0	45	0	4443865088	11	3920
2026-01-21 15:27:59.68	332.87	14.30	-25.6	-26.3	15.8	0.00e+00	0	45	0	4451205120	11	3875
2026-01-21 15:28:00.67	332.94	14.20	-25.7	-26.4	15.7	0.00e+00	0	45	0	4458545152	11	3905
2026-01-21 15:28:01.67	333.01	14.10	-25.8	-26.6	15.6	0.00e+00	0	45	0	4465885184	11	3946
2026-01-21 15:28:02.68	333.08	14.01	-25.8	-26.6	15.5	0.00e+00	0	45	0	4473225216	11	3962
2026-01-21 15:28:03.67	333.14	13.91	-25.8	-26.6	15.5	0.00e+00	0	45	0	4480565248	11	3959
2026-01-21 15:28:04.68	333.21	13.81	-25.8	-26.7	15.5	0.00e+00	0	45	0	4487905280	11	3978
2026-01-21 15:28:05.68	333.28	13.72	-25.8	-26.7	15.4	0.00e+00	0	45	0	4495245312	11	3988
2026-01-21 15:28:06.68	333.35	13.62	-25.9	-26.9	15.3	0.00e+00	0	45	0	4502585344	11	4025
2026-01-21 15:28:07.68	333.41	13.53	-26.0	-27.1	15.2	0.00e+00	0	45	0	4508876800	11	4082
2026-01-21 15:28:08.69	333.48	13.43	-25.9	-26.5	15.2	0.00e+00	0	45	0	4516216832	12	3834
2026-01-21 15:28:09.70	333.54	13.34	-25.8	-26.1	15.3	0.00e+00	0	45	0	4523556864	12	3746
2026-01-21 15:28:10.70	333.61	13.24	-25.8	-26.2	15.3	0.00e+00	0	45	0	4530896896	12	3752
2026-01-21 15:28:11.70	333.67	13.15	-25.8	-26.3	15.3	0.00e+00	0	45	0	4538236928	12	3786
2026-01-21 15:28:12.70	333.74	13.06	-25.9	-26.3	15.2	0.00e+00	0	45	0	4545576960	12	3782
2026-01-21 15:28:13.71	333.80	12.96	-25.8	-26.2	15.3	0.00e+00	0	45	0	4552916992	12	3763
2026-01-21 15:28:14.71	333.87	12.87	-25.9	-26.3	15.2	0.00e+00	0	45	0	4560257024	12	3800
2026-01-21 15:28:15.71	333.93	12.78	-25.9	-26.4	15.1	0.00e+00	0	45	0	4567597056	12	3820
2026-01-21 15:28:16.72	333.99	12.69	-26.0	-26.5	15.1	0.00e+00	0	45	0	4574937088	12	3844
2026-01-21 15:28:17.72	334.06	12.60	-26.0	-26.5	15.1	0.00e+00	0	45	0	4582277120	12	3845
2026-01-21 15:28:18.72	334.12	12.51	-26.0	-26.7	15.0	0.00e+00	0	45	0	4589617152	12	3890
2026-01-21 15:28:19.73	334.18	12.41	-26.1	-26.7	15.0	1.10e-06	0	45	0	4595908608	12	3895
2026-01-21 15:28:20.73	334.24	12.32	-26.1	-26.8	14.9	0.00e+00	0	45	0	4603248640	12	3903
2026-01-21 15:28:21.73	334.30	12.23	-26.1	-26.9	14.8	0.00e+00	0	45	0	4610588672	12	3932
2026-01-21 15:28:22.73	334.36	12.14	-26.2	-27.1	14.7	0.00e+00	0	45	0	4617928704	12	3985
2026-01-21 15:28:23.73	334.42	12.05	-26.3	-27.3	14.6	0.00e+00	0	45	0	4625268736	12	4029
2026-01-21 15:28:24.73	334.48	11.96	-26.4	-27.6	14.5	0.00e+00	0	45	0	4632608768	12	4109
2026-01-21 15:28:25.73	334.54	11.88	-26.4	-27.5	14.5	1.10e-06	0	45	0	4639948800	12	4080
2026-01-21 15:28:26.73	334.60	11.79	-26.4	-27.4	14.5	0.00e+00	0	45	0	4647288832	12	4073
2026-01-21 15:28:27.73	334.66	11.70	-26.5	-27.6	14.4	0.00e+00	0	45	0	4653580288	12	4127
2026-01-21 15:28:28.74	334.72	11.61	-26.4	-27.6	14.4	0.00e+00	0	45	0	4660920320	12	4105
2026-01-21 15:28:29.75	334.78	11.52	-26.4	-27.6	14.4	2.20e-06	0	45	0	4668260352	12	4122
2026-01-21 15:28:30.76	334.84	11.43	-26.6	-27.5	14.2	0.00e+00	0	45	0	4675600384	13	3980
2026-01-21 15:28:31.76	334.90	11.35	-27.2	-28.2	13.5	1.02e-05	0	45	0	4682940416	14	4060
2026-01-21 15:28:32.77	334.96	11.26	-26.9	-27.6	13.9	5.70e-06	0	45	0	4690280448	14	3911
2026-01-21 15:28:33.77	335.01	11.17	-26.7	-27.2	14.1	0.00e+00	0	45	0	4697620480	14	3812
2026-01-21 15:28:34.78	335.07	11.08	-26.6	-26.9	14.2	1.10e-06	0	45	0	4704960512	14	3743
2026-01-21 15:28:35.78	335.13	11.00	-26.5	-26.7	14.3	1.10e-06	0	45	0	4712300544	14	3700
2026-01-21 15:28:36.78	335.18	10.91	-26.7	-27.1	14.1	1.10e-06	0	45	0	4719640576	14	3784
2026-01-21 15:28:37.78	335.24	10.83	-26.7	-27.1	14.1	3.40e-06	0	45	0	4726980608	14	3791
2026-01-21 15:28:38.78	335.29	10.74	-26.8	-27.3	14.0	0.00e+00	0	45	0	4734320640	14	3838
2026-01-21 15:28:39.78	335.35	10.66	-26.8	-27.4	13.9	2.20e-06	0	45	0	4740612096	14	3872
2026-01-21 15:28:40.78	335.40	10.57	-26.8	-27.3	14.0	1.10e-06	0	45	0	4747952128	14	3843
2026-01-21 15:28:41.78	335.46	10.49	-26.9	-27.6	13.8	4.50e-06	0	45	0	4755292160	14	3913
2026-01-21 15:28:42.79	335.51	10.40	-26.9	-27.5	13.8	1.10e-06	0	45	0	4762632192	14	3901
2026-01-21 15:28:43.80	335.57	10.32	-26.9	-27.6	13.8	6.80e-06	0	45	0	4769972224	14	3919
2026-01-21 15:28:44.80	335.62	10.23	-26.9	-27.7	13.7	8.00e-06	0	45	0	4777312256	14	3943
2026-01-21 15:28:45.80	335.68	10.15	-27.0	-27.8	13.7	4.50e-06	0	45	0	4784652288	14	3965
2026-01-21 15:28:46.81	335.73	10.07	-26.9	-27.7	13.7	1.10e-06	0	45	0	4791992320	14	3927
2026-01-21 15:28:47.81	335.78	9.98	-26.8	-27.4	13.9	2.20e-06	0	45	0	4798283776	14	3859
2026-01-21 15:28:48.82	335.84	9.90	-26.8	-27.5	13.8	3.40e-06	0	45	0	4806672384	14	3898
2026-01-21 15:28:49.82	335.89	9.82	-26.8	-27.5	13.9	2.20e-06	0	45	0	4814012416	14	3891
2026-01-21 15:28:50.82	335.94	9.74	-26.9	-27.6	13.8	2.20e-06	0	45	0	4820303872	14	3917
2026-01-21 15:28:51.83	335.99	9.65	-26.9	-27.7	13.7	3.40e-06	0	45	0	4827643904	14	3924
2026-01-21 15:28:52.83	336.05	9.57	-26.9	-27.6	13.8	2.20e-06	0	45	0	4834983936	14	3922
2026-01-21 15:28:53.83	336.10	9.49	-27.1	-28.0	13.5	5.70e-06	0	45	0	4842323968	14	4019
2026-01-21 15:28:54.83	336.15	9.41	-26.9	-27.8	13.6	5.70e-06	0	45	0	4849664000	14	3954
2026-01-21 15:28:55.84	336.20	9.33	-26.9	-27.7	13.7	3.40e-06	0	45	0	4857004032	14	3935
2026-01-21 15:28:56.84	336.25	9.25	-27.0	-27.9	13.6	6.80e-06	0	45	0	4864344064	14	3983
2026-01-21 15:28:57.84	336.30	9.17	-27.0	-27.9	13.5	1.37e-05	0	45	0	4871684096	14	3984
2026-01-21 15:28:58.85	336.35	9.09	-27.0	-27.9	13.5	8.00e-06	0	45	0	4879024128	14	3978
2026-01-21 15:28:59.84	336.40	9.01	-27.0	-27.9	13.5	9.10e-06	0	45	0	4885315584	14	4003
2026-01-21 15:29:00.85	336.45	8.93	-27.2	-28.4	13.3	1.37e-05	0	45	0	4892655616	14	4113
2026-01-21 15:29:01.84	336.50	8.85	-27.2	-28.3	13.3	1.83e-05	0	45	0	4899995648	14	4090
2026-01-21 15:29:02.85	336.55	8.77	-27.1	-28.1	13.4	1.14e-05	0	45	0	4907335680	14	4034
2026-01-21 15:29:03.85	336.60	8.69	-27.2	-28.3	13.3	1.14e-05	0	45	0	4914675712	14	4089
2026-01-21 15:29:04.85	336.65	8.61	-27.1	-28.0	13.4	8.00e-06	0	45	0	4922015744	14	4027
2026-01-21 15:29:05.86	336.70	8.53	-27.2	-28.3	13.3	1.94e-05	0	45	0	4929355776	14	4088
