passes_logs/2026/01/21/R2M6_AANII_01/R2M6_AANII_01__20260121_020043_FENGYUN_3D_rec.log

#Pass ID: 20260121_020043_FENGYUN 3D
#Satellite: FENGYUN 3D
#Configuration: FENGYUN 3D
#almurnet v.1.7.20240730
#Start time: 2026-01-21 02:00:45

#Version: 2.2.20231116
#Station: R2M6_AANII_01
#Location: 30.233357 lon 59.946436 lat
#TLE: 1 43010U 17072A   26020.28933472  .00000051  00000+0  46008-4 0  9990
#TLE: 2 43010  98.9944 352.1871 0002476  99.7001 260.4455 14.19696838424006

#Time	Az	El	Level	Level2	SNR	BER	BlckErr	Temp	State	Recorded	gain1	gain2
2026-01-21 02:00:45.69	21.06	7.14	-29.8	-33.2	5.4	7.89e-01	0	42	0	0	19	5363
2026-01-21 02:00:46.69	21.09	7.22	-30.3	-34.2	5.2	7.94e-01	0	42	104	0	20	5672
2026-01-21 02:00:47.69	21.11	7.30	-30.2	-34.0	8.8	4.34e-02	0	42	0	0	20	5543
2026-01-21 02:00:48.70	21.14	7.37	-29.8	-33.2	9.8	1.81e-02	0	42	0	5242880	19	5340
2026-01-21 02:00:49.70	21.17	7.45	-29.5	-32.5	10.3	1.02e-02	0	42	0	11534336	19	5051
2026-01-21 02:00:50.70	21.20	7.53	-29.2	-32.1	10.9	5.39e-03	0	42	0	16777216	18	5023
2026-01-21 02:00:51.70	21.23	7.60	-29.0	-31.4	11.4	1.89e-03	0	42	0	22020096	18	4789
2026-01-21 02:00:52.70	21.26	7.68	-28.8	-31.6	11.6	2.40e-03	0	42	0	28311552	17	4950
2026-01-21 02:00:53.71	21.29	7.76	-28.9	-31.7	11.5	2.45e-03	0	42	0	33554432	17	5005
2026-01-21 02:00:54.72	21.32	7.84	-29.1	-31.8	11.2	2.04e-03	0	43	0	38797312	18	4914
2026-01-21 02:00:55.72	21.34	7.92	-29.0	-31.6	11.3	3.53e-03	0	42	0	45088768	18	4831
2026-01-21 02:00:56.72	21.37	8.00	-28.6	-30.9	12.0	1.92e-03	0	43	0	50331648	17	4736
2026-01-21 02:00:57.73	21.40	8.08	-28.2	-30.2	12.5	4.74e-04	0	43	0	55574528	17	4487
2026-01-21 02:00:58.74	21.43	8.16	-27.9	-29.9	13.0	1.17e-03	0	43	0	61865984	16	4517
2026-01-21 02:00:59.73	21.46	8.23	-27.5	-29.4	13.4	1.11e-03	0	43	0	67108864	15	4501
2026-01-21 02:01:00.73	21.49	8.31	-27.3	-29.1	13.6	3.48e-04	0	43	0	73400320	15	4388
2026-01-21 02:01:01.74	21.52	8.39	-27.2	-29.1	13.8	1.02e-05	0	43	0	78643200	14	4522
2026-01-21 02:01:02.74	21.55	8.47	-27.1	-29.1	13.9	1.37e-03	0	42	0	83886080	14	4494
2026-01-21 02:01:03.74	21.58	8.56	-27.4	-29.7	13.5	2.89e-04	0	43	0	90177536	14	4677
2026-01-21 02:01:04.74	21.61	8.64	-27.3	-29.3	13.7	1.04e-03	0	43	0	95420416	14	4565
2026-01-21 02:01:05.74	21.64	8.72	-27.0	-28.8	14.1	4.50e-06	0	43	0	101711872	14	4402
2026-01-21 02:01:06.75	21.68	8.80	-26.8	-28.8	14.4	3.96e-04	0	43	0	106954752	13	4514
2026-01-21 02:01:07.75	21.71	8.88	-26.7	-28.6	14.5	9.25e-04	0	43	0	112197632	13	4478
2026-01-21 02:01:08.75	21.74	8.96	-26.9	-29.0	14.3	3.81e-04	0	43	0	118489088	13	4582
2026-01-21 02:01:09.75	21.77	9.04	-26.9	-29.1	14.2	3.83e-04	0	43	0	123731968	13	4602
2026-01-21 02:01:10.75	21.80	9.12	-26.9	-29.0	14.3	0.00e+00	0	43	0	128974848	13	4581
2026-01-21 02:01:11.76	21.83	9.21	-26.9	-29.0	14.3	3.98e-04	0	43	0	135266304	13	4579
2026-01-21 02:01:12.77	21.86	9.29	-27.1	-28.9	14.1	5.70e-06	0	43	0	140509184	14	4423
2026-01-21 02:01:13.78	21.89	9.38	-27.2	-29.3	13.9	8.00e-06	0	43	0	146800640	14	4542
2026-01-21 02:01:14.77	21.93	9.46	-27.2	-29.2	13.9	1.38e-03	0	43	0	152043520	14	4537
2026-01-21 02:01:15.77	21.96	9.54	-27.3	-29.4	13.8	9.61e-05	0	43	0	157286400	14	4586
2026-01-21 02:01:16.78	21.99	9.63	-27.3	-29.5	13.8	5.93e-04	0	43	0	163577856	14	4600
2026-01-21 02:01:17.79	22.02	9.71	-27.3	-29.4	13.8	1.37e-05	0	43	0	168820736	14	4589
2026-01-21 02:01:18.79	22.06	9.79	-27.5	-29.4	13.5	3.70e-04	0	43	0	175112192	15	4481
2026-01-21 02:01:19.80	22.09	9.88	-27.8	-30.2	13.1	4.57e-05	0	43	0	180355072	15	4711
2026-01-21 02:01:20.80	22.12	9.97	-27.7	-29.9	13.3	4.55e-04	0	43	0	185597952	15	4621
2026-01-21 02:01:21.81	22.16	10.05	-27.4	-29.2	13.6	1.71e-05	0	43	0	191889408	15	4410
2026-01-21 02:01:22.82	22.19	10.14	-27.3	-29.3	13.9	3.40e-06	0	43	0	197132288	14	4548
2026-01-21 02:01:23.82	22.22	10.22	-27.3	-29.3	13.9	1.14e-05	0	43	0	202375168	14	4562
2026-01-21 02:01:24.82	22.26	10.31	-27.4	-29.7	13.7	6.80e-06	0	43	0	208666624	14	4670
2026-01-21 02:01:25.82	22.29	10.40	-27.4	-29.2	13.7	1.83e-05	0	43	0	213909504	15	4397
2026-01-21 02:01:26.83	22.32	10.48	-27.1	-29.0	14.1	3.40e-06	0	43	0	220200960	14	4461
2026-01-21 02:01:27.83	22.36	10.57	-26.9	-28.5	14.4	2.20e-06	0	44	0	225443840	14	4304
2026-01-21 02:01:28.83	22.39	10.66	-26.7	-28.5	14.6	1.10e-06	0	43	0	230686720	13	4437
2026-01-21 02:01:29.84	22.43	10.75	-26.7	-28.6	14.6	0.00e+00	0	43	0	236978176	13	4447
2026-01-21 02:01:30.84	22.46	10.83	-26.6	-28.4	14.8	1.10e-06	0	43	0	242221056	13	4396
2026-01-21 02:01:31.85	22.50	10.92	-26.5	-28.2	14.9	0.00e+00	0	43	0	248512512	13	4334
2026-01-21 02:01:32.85	22.53	11.01	-26.5	-28.1	14.9	0.00e+00	0	43	0	253755392	13	4327
2026-01-21 02:01:33.86	22.57	11.10	-26.4	-27.9	15.0	0.00e+00	0	43	0	258998272	13	4280
2026-01-21 02:01:34.87	22.60	11.19	-26.5	-28.1	14.9	1.10e-06	0	43	0	265289728	13	4308
2026-01-21 02:01:35.87	22.64	11.28	-26.7	-28.5	14.7	0.00e+00	0	43	0	270532608	13	4427
2026-01-21 02:01:36.87	22.67	11.37	-26.7	-28.4	14.8	0.00e+00	0	44	0	275775488	13	4402
2026-01-21 02:01:37.87	22.71	11.46	-26.6	-28.3	14.9	0.00e+00	0	43	0	282066944	13	4362
2026-01-21 02:01:38.87	22.74	11.55	-26.5	-28.1	15.0	0.00e+00	0	43	0	287309824	13	4312
2026-01-21 02:01:39.88	22.78	11.64	-26.6	-28.3	14.8	0.00e+00	0	44	0	293601280	13	4374
2026-01-21 02:01:40.88	22.82	11.73	-26.6	-28.2	14.9	2.20e-06	0	43	0	298844160	13	4335
2026-01-21 02:01:41.89	22.85	11.82	-26.5	-28.1	14.9	1.10e-06	0	43	0	304087040	13	4317
2026-01-21 02:01:42.89	22.89	11.92	-26.6	-28.3	14.9	1.10e-06	0	44	0	310378496	13	4364
2026-01-21 02:01:43.89	22.93	12.01	-26.6	-28.3	14.9	0.00e+00	0	44	0	315621376	13	4356
2026-01-21 02:01:44.89	22.97	12.10	-26.8	-28.6	14.7	1.10e-06	0	43	0	321912832	13	4467
2026-01-21 02:01:45.90	23.00	12.19	-26.5	-28.1	15.0	0.00e+00	0	43	0	327155712	13	4309
2026-01-21 02:01:46.91	23.04	12.29	-26.3	-28.1	15.2	0.00e+00	0	44	0	332398592	12	4428
2026-01-21 02:01:47.91	23.08	12.38	-26.4	-28.3	15.2	0.00e+00	0	44	0	338690048	12	4473
2026-01-21 02:01:48.92	23.12	12.48	-26.2	-27.9	15.4	0.00e+00	0	44	0	343932928	12	4376
2026-01-21 02:01:49.93	23.16	12.57	-26.1	-27.7	15.5	0.00e+00	0	44	0	349175808	12	4312
2026-01-21 02:01:50.94	23.20	12.67	-26.1	-27.7	15.5	0.00e+00	0	44	0	355467264	12	4316
2026-01-21 02:01:51.94	23.23	12.76	-26.0	-27.5	15.6	0.00e+00	0	43	0	360710144	12	4261
2026-01-21 02:01:52.94	23.27	12.86	-26.0	-27.4	15.7	0.00e+00	0	44	0	367001600	12	4238
2026-01-21 02:01:53.95	23.31	12.95	-26.0	-27.5	15.6	0.00e+00	0	44	0	372244480	12	4249
2026-01-21 02:01:54.95	23.35	13.05	-26.0	-27.3	15.7	0.00e+00	0	44	0	378535936	12	4205
2026-01-21 02:01:55.95	23.39	13.15	-25.9	-27.2	15.8	0.00e+00	0	44	0	383778816	12	4192
2026-01-21 02:01:56.95	23.43	13.24	-26.0	-27.4	15.7	0.00e+00	0	44	0	389021696	12	4220
2026-01-21 02:01:57.95	23.47	13.34	-25.9	-27.1	15.8	0.00e+00	0	44	0	395313152	12	4159
2026-01-21 02:01:58.95	23.51	13.44	-25.3	-27.0	15.5	0.00e+00	0	44	0	400556032	11	4374
2026-01-21 02:01:59.95	23.55	13.54	-25.8	-27.0	15.9	0.00e+00	0	44	0	405798912	12	4122
2026-01-21 02:02:00.95	23.59	13.63	-25.9	-27.6	14.2	0.00e+00	0	44	0	412090368	11	4387
2026-01-21 02:02:01.95	23.64	13.73	-25.8	-27.4	16.0	7.41e-04	0	44	0	417333248	11	4347
2026-01-21 02:02:02.95	23.68	13.83	-25.8	-27.5	16.0	0.00e+00	0	44	0	422576128	11	4373
2026-01-21 02:02:03.96	23.72	13.93	-25.8	-27.3	16.1	0.00e+00	0	44	0	428867584	11	4324
2026-01-21 02:02:04.96	23.76	14.03	-25.7	-27.1	16.2	0.00e+00	0	44	0	434110464	11	4271
2026-01-21 02:02:05.97	23.80	14.13	-25.7	-27.2	16.2	0.00e+00	0	44	0	440401920	11	4284
2026-01-21 02:02:06.97	23.85	14.23	-25.6	-27.0	16.3	4.27e-04	0	44	0	445644800	11	4228
2026-01-21 02:02:07.98	23.89	14.34	-25.6	-27.0	16.4	0.00e+00	0	44	0	450887680	11	4228
2026-01-21 02:02:08.98	23.93	14.44	-25.7	-27.3	16.2	0.00e+00	0	44	0	457179136	11	4310
2026-01-21 02:02:09.98	23.97	14.54	-25.6	-26.9	16.3	0.00e+00	0	44	0	462422016	11	4217
2026-01-21 02:02:10.98	24.02	14.64	-25.5	-26.8	16.4	0.00e+00	0	44	0	467664896	11	4179
2026-01-21 02:02:11.98	24.06	14.74	-25.6	-27.0	16.3	0.00e+00	0	44	0	473956352	11	4234
2026-01-21 02:02:12.98	24.11	14.85	-25.5	-26.9	16.4	0.00e+00	0	44	0	479199232	11	4198
2026-01-21 02:02:13.99	24.15	14.95	-25.5	-26.8	16.4	7.62e-04	0	44	0	485490688	11	4180
2026-01-21 02:02:14.99	24.20	15.06	-25.6	-26.9	16.4	0.00e+00	0	44	0	490733568	11	4215
2026-01-21 02:02:15.99	24.24	15.16	-25.4	-26.6	16.5	7.63e-04	0	44	0	495976448	11	4138
2026-01-21 02:02:17.00	24.29	15.27	-25.5	-26.7	16.5	0.00e+00	0	44	0	502267904	11	4146
2026-01-21 02:02:18.00	24.33	15.37	-25.5	-26.8	16.4	0.00e+00	0	44	0	507510784	11	4179
2026-01-21 02:02:19.00	24.38	15.48	-25.7	-27.3	16.2	7.15e-04	0	44	0	513802240	11	4305
2026-01-21 02:02:20.01	24.42	15.58	-25.8	-27.4	16.1	0.00e+00	0	44	0	519045120	11	4351
2026-01-21 02:02:21.01	24.47	15.69	-25.7	-27.2	16.2	0.00e+00	0	44	0	524288000	11	4295
2026-01-21 02:02:22.01	24.52	15.80	-25.7	-27.2	16.3	0.00e+00	0	44	0	530579456	11	4280
2026-01-21 02:02:23.01	24.56	15.91	-25.7	-27.2	15.6	5.07e-04	0	44	0	535822336	11	4282
2026-01-21 02:02:24.02	24.61	16.01	-25.8	-27.4	15.7	0.00e+00	0	44	0	541065216	11	4345
2026-01-21 02:02:25.02	24.66	16.12	-25.7	-27.3	16.2	4.93e-04	0	44	0	547356672	11	4300
2026-01-21 02:02:26.03	24.71	16.23	-25.8	-27.5	15.3	4.83e-04	0	44	0	552599552	11	4369
2026-01-21 02:02:27.04	24.75	16.34	-25.6	-27.0	16.4	2.94e-04	0	44	0	558891008	11	4224
2026-01-21 02:02:28.04	24.80	16.45	-25.4	-27.1	16.6	4.07e-04	0	44	0	564133888	10	4375
2026-01-21 02:02:29.04	24.85	16.56	-25.5	-26.8	16.5	0.00e+00	0	44	0	569376768	11	4183
2026-01-21 02:02:30.04	24.90	16.68	-25.7	-27.3	16.2	0.00e+00	0	44	0	575668224	11	4310
2026-01-21 02:02:31.04	24.95	16.79	-26.2	-27.7	15.6	3.88e-04	0	44	0	580911104	12	4321
2026-01-21 02:02:32.04	25.00	16.90	-26.2	-27.7	15.7	3.89e-04	0	44	0	587202560	12	4318
2026-01-21 02:02:33.04	25.05	17.01	-26.0	-27.3	15.9	0.00e+00	0	44	0	592445440	12	4205
2026-01-21 02:02:34.04	25.10	17.12	-25.8	-27.0	16.1	3.25e-04	0	44	0	597688320	12	4113
2026-01-21 02:02:35.04	25.15	17.24	-25.9	-27.6	16.1	3.03e-04	0	44	0	603979776	11	4396
2026-01-21 02:02:36.05	25.20	17.35	-25.8	-27.4	16.2	3.04e-04	0	44	0	609222656	11	4337
2026-01-21 02:02:37.06	25.26	17.47	-25.8	-27.4	16.2	2.86e-04	0	44	0	614465536	11	4334
2026-01-21 02:02:38.06	25.31	17.58	-25.8	-27.3	16.2	2.85e-04	0	44	0	620756992	11	4315
2026-01-21 02:02:39.07	25.36	17.70	-26.0	-27.4	15.9	2.73e-04	0	44	0	625999872	12	4218
2026-01-21 02:02:40.07	25.41	17.82	-25.7	-26.7	16.3	2.57e-04	0	44	0	631242752	12	4047
2026-01-21 02:02:41.08	25.47	17.93	-25.4	-26.7	16.6	5.54e-04	0	44	0	637534208	11	4142
2026-01-21 02:02:42.08	25.52	18.05	-25.3	-26.4	16.8	0.00e+00	0	44	0	642777088	11	4066
2026-01-21 02:02:43.08	25.57	18.17	-25.5	-26.8	16.6	0.00e+00	0	44	0	649068544	11	4175
2026-01-21 02:02:44.08	25.63	18.29	-25.4	-27.1	16.7	2.37e-04	0	44	0	654311424	10	4380
2026-01-21 02:02:45.09	25.68	18.41	-25.5	-27.2	16.6	0.00e+00	0	44	0	659554304	10	4393
2026-01-21 02:02:46.09	25.74	18.53	-25.3	-26.8	16.8	2.59e-04	0	44	0	665845760	10	4285
2026-01-21 02:02:47.09	25.79	18.65	-25.1	-26.4	17.0	2.85e-04	0	44	0	671088640	10	4188
2026-01-21 02:02:48.08	25.85	18.76	-25.0	-26.2	17.1	3.25e-04	0	44	0	676331520	10	4128
2026-01-21 02:02:49.09	25.90	18.89	-25.0	-26.2	17.2	3.92e-04	0	44	0	682622976	10	4134
2026-01-21 02:02:50.09	25.96	19.01	-25.1	-26.3	17.1	3.10e-04	0	44	0	687865856	10	4162
2026-01-21 02:02:51.10	26.02	19.13	-24.9	-26.0	17.3	3.28e-04	0	44	0	694157312	10	4072
2026-01-21 02:02:52.10	26.08	19.25	-25.1	-26.4	17.1	0.00e+00	0	44	0	699400192	10	4182
2026-01-21 02:02:53.11	26.13	19.38	-24.7	-26.0	17.5	3.44e-04	0	44	0	704643072	9	4202
2026-01-21 02:02:54.11	26.19	19.50	-24.4	-25.5	17.8	3.16e-04	0	44	0	710934528	9	4055
2026-01-21 02:02:55.11	26.25	19.63	-24.3	-25.2	18.0	0.00e+00	0	44	0	716177408	9	3990
2026-01-21 02:02:56.11	26.31	19.75	-24.3	-25.7	18.0	9.22e-04	0	44	0	722468864	8	4220
2026-01-21 02:02:57.12	26.37	19.88	-24.3	-25.6	18.0	2.94e-04	0	44	0	727711744	8	4205
2026-01-21 02:02:58.12	26.43	20.01	-24.3	-25.6	18.0	3.77e-05	0	44	0	732954624	8	4202
2026-01-21 02:02:59.13	26.49	20.13	-24.3	-25.7	18.0	3.00e-04	0	44	0	739246080	8	4216
2026-01-21 02:03:00.13	26.55	20.26	-24.3	-25.6	18.0	2.99e-04	0	44	0	744488960	8	4208
2026-01-21 02:03:01.13	26.61	20.39	-24.3	-25.7	18.0	0.00e+00	0	44	0	749731840	8	4219
2026-01-21 02:03:02.13	26.68	20.52	-24.3	-25.7	18.0	3.02e-04	0	44	0	756023296	8	4229
2026-01-21 02:03:03.14	26.74	20.65	-24.3	-25.7	18.0	0.00e+00	0	44	0	761266176	8	4234
2026-01-21 02:03:04.14	26.80	20.78	-24.3	-25.6	18.0	0.00e+00	0	44	0	767557632	8	4211
2026-01-21 02:03:05.15	26.87	20.91	-24.3	-25.7	18.0	2.88e-04	0	44	0	772800512	8	4239
2026-01-21 02:03:06.15	26.93	21.04	-24.2	-25.6	18.1	2.84e-04	0	44	0	778043392	8	4190
2026-01-21 02:03:07.16	27.00	21.18	-24.3	-25.6	18.1	0.00e+00	0	44	0	784334848	8	4190
2026-01-21 02:03:08.16	27.06	21.31	-24.2	-25.5	18.1	0.00e+00	0	44	0	789577728	8	4176
2026-01-21 02:03:09.17	27.13	21.44	-24.3	-25.6	18.1	2.69e-04	0	44	0	795869184	8	4210
2026-01-21 02:03:10.17	27.19	21.58	-24.4	-26.0	17.9	0.00e+00	0	44	0	801112064	8	4305
2026-01-21 02:03:11.18	27.26	21.71	-24.5	-25.7	17.8	2.53e-04	0	44	0	806354944	9	4114
2026-01-21 02:03:12.18	27.33	21.85	-24.4	-25.5	17.9	0.00e+00	0	44	0	812646400	9	4056
2026-01-21 02:03:13.19	27.40	21.99	-24.5	-25.6	17.8	0.00e+00	0	44	0	817889280	9	4093
2026-01-21 02:03:14.19	27.46	22.12	-24.4	-25.5	17.9	0.00e+00	0	44	0	824180736	9	4059
2026-01-21 02:03:15.19	27.53	22.26	-24.5	-25.6	17.9	0.00e+00	0	44	0	829423616	9	4081
2026-01-21 02:03:16.18	27.60	22.40	-24.5	-25.7	17.8	0.00e+00	0	44	0	834666496	9	4117
2026-01-21 02:03:17.18	27.67	22.54	-24.8	-26.2	17.6	0.00e+00	0	44	0	840957952	9	4230
2026-01-21 02:03:18.19	27.74	22.68	-24.4	-25.4	18.0	1.70e-04	0	44	0	846200832	9	4030
2026-01-21 02:03:19.19	27.81	22.82	-24.2	-24.9	18.2	0.00e+00	0	45	0	851443712	9	3916
2026-01-21 02:03:20.19	27.89	22.96	-24.0	-24.6	18.4	0.00e+00	0	44	0	857735168	9	3853
2026-01-21 02:03:21.19	27.96	23.10	-24.0	-24.6	18.4	1.43e-04	0	44	0	862978048	9	3849
2026-01-21 02:03:22.19	28.03	23.25	-24.1	-24.8	18.3	0.00e+00	0	44	0	869269504	9	3892
2026-01-21 02:03:23.20	28.11	23.39	-23.9	-24.9	18.5	1.41e-04	0	44	0	874512384	8	4029
2026-01-21 02:03:24.20	28.18	23.54	-24.0	-25.0	18.5	0.00e+00	0	44	0	879755264	8	4047
2026-01-21 02:03:25.20	28.25	23.68	-23.9	-24.8	18.6	0.00e+00	0	44	0	886046720	8	4010
2026-01-21 02:03:26.20	28.33	23.83	-23.9	-24.8	18.5	0.00e+00	0	44	0	891289600	8	4005
2026-01-21 02:03:27.21	28.41	23.97	-23.9	-24.9	18.5	0.00e+00	0	44	0	896532480	8	4028
2026-01-21 02:03:28.21	28.48	24.12	-23.8	-24.6	18.7	0.00e+00	0	44	0	902823936	8	3951
2026-01-21 02:03:29.22	28.56	24.27	-23.7	-24.5	18.7	0.00e+00	0	44	0	908066816	8	3919
2026-01-21 02:03:30.22	28.64	24.42	-23.8	-24.6	18.7	9.95e-05	0	44	0	914358272	8	3943
2026-01-21 02:03:31.22	28.72	24.57	-23.9	-24.8	18.6	0.00e+00	0	44	0	919601152	8	3998
2026-01-21 02:03:32.22	28.80	24.72	-23.8	-24.6	18.7	0.00e+00	0	44	0	924844032	8	3954
2026-01-21 02:03:33.23	28.88	24.87	-23.8	-24.6	18.7	0.00e+00	0	44	0	931135488	8	3954
2026-01-21 02:03:34.23	28.96	25.03	-23.9	-24.8	18.6	0.00e+00	0	44	0	936378368	8	4003
2026-01-21 02:03:35.23	29.04	25.18	-23.9	-24.8	18.6	0.00e+00	0	44	0	941621248	8	4005
2026-01-21 02:03:36.23	29.13	25.33	-23.9	-24.9	18.5	0.00e+00	0	45	0	947912704	8	4026
2026-01-21 02:03:37.23	29.21	25.49	-23.8	-24.7	18.6	0.00e+00	0	44	0	953155584	8	3983
2026-01-21 02:03:38.23	29.29	25.64	-23.9	-24.7	18.7	0.00e+00	0	44	0	958398464	8	3985
2026-01-21 02:03:39.23	29.38	25.80	-23.6	-24.3	18.9	0.00e+00	0	44	0	964689920	8	3872
2026-01-21 02:03:40.24	29.47	25.96	-23.5	-24.0	19.0	0.00e+00	0	44	0	969932800	8	3814
2026-01-21 02:03:41.24	29.55	26.12	-23.4	-24.2	19.2	0.00e+00	0	44	0	976224256	7	3965
2026-01-21 02:03:42.24	29.64	26.28	-23.3	-24.0	19.2	0.00e+00	0	44	0	981467136	7	3918
2026-01-21 02:03:43.24	29.73	26.44	-23.3	-24.0	19.2	0.00e+00	0	44	0	987758592	7	3925
2026-01-21 02:03:44.25	29.82	26.60	-23.4	-24.3	19.1	0.00e+00	0	44	0	993001472	7	3985
2026-01-21 02:03:45.25	29.91	26.76	-23.3	-24.0	19.3	0.00e+00	0	44	0	998244352	7	3906
2026-01-21 02:03:46.25	30.00	26.92	-23.3	-24.1	19.2	0.00e+00	0	44	0	1004535808	7	3944
2026-01-21 02:03:47.25	30.09	27.09	-23.4	-24.3	19.2	0.00e+00	0	44	0	1009778688	7	3983
2026-01-21 02:03:48.26	30.19	27.25	-23.5	-24.5	19.0	0.00e+00	0	45	0	1015021568	7	4026
2026-01-21 02:03:49.26	30.28	27.42	-23.5	-24.4	19.0	0.00e+00	0	44	0	1021313024	7	4016
2026-01-21 02:03:50.26	30.37	27.58	-23.6	-24.6	19.0	0.00e+00	0	44	0	1026555904	7	4061
2026-01-21 02:03:51.26	30.47	27.75	-23.8	-25.0	18.7	0.00e+00	0	44	0	1031798784	7	4172
2026-01-21 02:03:52.27	30.57	27.92	-23.8	-25.2	18.6	0.00e+00	0	44	0	1038090240	7	4214
2026-01-21 02:03:53.27	30.67	28.09	-23.7	-24.9	18.8	0.00e+00	0	45	0	1043333120	7	4144
2026-01-21 02:03:54.28	30.77	28.26	-23.7	-25.0	18.8	0.00e+00	0	44	0	1049624576	7	4147
2026-01-21 02:03:55.29	30.87	28.44	-23.8	-25.0	18.8	0.00e+00	0	44	0	1054867456	7	4173
2026-01-21 02:03:56.30	30.97	28.61	-23.8	-25.1	18.7	0.00e+00	0	44	0	1061158912	7	4172
2026-01-21 02:03:57.30	31.07	28.78	-23.6	-24.8	18.9	0.00e+00	0	45	0	1066401792	7	4100
2026-01-21 02:03:58.30	31.17	28.96	-23.6	-24.8	18.9	0.00e+00	0	45	0	1071644672	7	4106
2026-01-21 02:03:59.30	31.28	29.13	-23.7	-24.9	18.9	0.00e+00	0	44	0	1077936128	7	4130
2026-01-21 02:04:00.31	31.38	29.31	-23.8	-25.1	18.8	0.00e+00	0	44	0	1083179008	7	4182
2026-01-21 02:04:01.31	31.49	29.49	-23.9	-24.9	18.6	0.00e+00	0	44	0	1088421888	8	4017
2026-01-21 02:04:02.32	31.60	29.67	-23.6	-24.2	19.0	0.00e+00	0	45	0	1094713344	8	3859
2026-01-21 02:04:03.32	31.70	29.85	-23.4	-23.8	19.2	0.00e+00	0	45	0	1099956224	8	3757
2026-01-21 02:04:04.32	31.81	30.03	-23.3	-23.6	19.3	0.00e+00	0	45	0	1105199104	8	3714
2026-01-21 02:04:05.33	31.93	30.21	-23.2	-23.9	19.4	0.00e+00	0	45	0	1111490560	7	3885
2026-01-21 02:04:06.33	32.04	30.39	-23.1	-23.7	19.5	0.00e+00	0	44	0	1116733440	7	3849
2026-01-21 02:04:07.33	32.15	30.58	-23.3	-24.0	19.3	0.00e+00	0	44	0	1123024896	7	3913
2026-01-21 02:04:08.33	32.26	30.76	-23.4	-24.3	19.2	0.00e+00	0	44	0	1128267776	7	3980
2026-01-21 02:04:09.33	32.38	30.95	-23.5	-24.4	19.1	0.00e+00	0	44	0	1133510656	7	4014
2026-01-21 02:04:10.33	32.50	31.13	-23.6	-24.6	19.0	0.00e+00	0	44	0	1139802112	7	4073
2026-01-21 02:04:11.34	32.62	31.32	-23.6	-24.6	19.0	0.00e+00	0	44	0	1145044992	7	4070
2026-01-21 02:04:12.34	32.74	31.51	-23.7	-24.8	18.9	0.00e+00	0	45	0	1151336448	7	4117
2026-01-21 02:04:13.34	32.86	31.70	-23.6	-24.8	19.0	0.00e+00	0	44	0	1156579328	7	4097
2026-01-21 02:04:14.35	32.98	31.89	-23.5	-24.4	19.1	0.00e+00	0	44	0	1161822208	7	4016
2026-01-21 02:04:15.35	33.10	32.09	-23.5	-24.5	19.1	0.00e+00	0	44	0	1168113664	7	4026
2026-01-21 02:04:16.35	33.23	32.28	-23.5	-24.6	19.1	0.00e+00	0	44	0	1173356544	7	4052
2026-01-21 02:04:17.35	33.36	32.47	-23.5	-24.4	19.2	0.00e+00	0	44	0	1178599424	7	4013
2026-01-21 02:04:18.35	33.48	32.67	-23.5	-24.6	19.1	5.03e-05	0	44	0	1184890880	7	4055
2026-01-21 02:04:19.36	33.62	32.87	-23.6	-24.7	19.0	6.75e-05	0	44	0	1190133760	7	4085
2026-01-21 02:04:20.36	33.75	33.06	-23.6	-24.7	19.0	0.00e+00	0	45	0	1196425216	7	4075
2026-01-21 02:04:21.36	33.88	33.26	-23.7	-24.8	19.0	1.07e-04	0	45	0	1201668096	7	4120
2026-01-21 02:04:22.37	34.02	33.47	-23.6	-24.7	19.0	1.66e-04	0	45	0	1206910976	7	4093
2026-01-21 02:04:23.37	34.15	33.67	-23.4	-24.2	19.3	0.00e+00	0	44	0	1213202432	7	3959
2026-01-21 02:04:24.38	34.29	33.87	-23.2	-23.8	19.5	1.42e-04	0	44	0	1218445312	7	3862
2026-01-21 02:04:25.38	34.43	34.07	-23.1	-23.7	19.5	7.78e-05	0	45	0	1223688192	7	3852
2026-01-21 02:04:26.39	34.57	34.28	-23.2	-23.8	19.5	0.00e+00	0	44	0	1229979648	7	3880
2026-01-21 02:04:27.40	34.72	34.49	-23.2	-23.9	19.4	4.11e-05	0	44	0	1235222528	7	3904
2026-01-21 02:04:28.40	34.86	34.70	-23.3	-24.2	19.3	4.46e-05	0	45	0	1241513984	7	3959
2026-01-21 02:04:29.40	35.01	34.91	-23.2	-23.9	19.5	0.00e+00	0	44	0	1246756864	7	3895
2026-01-21 02:04:30.41	35.16	35.12	-23.2	-23.9	19.4	0.00e+00	0	45	0	1251999744	7	3903
2026-01-21 02:04:31.41	35.31	35.33	-23.2	-23.9	19.5	0.00e+00	0	44	0	1258291200	7	3887
2026-01-21 02:04:32.42	35.46	35.54	-23.2	-23.8	19.5	0.00e+00	0	44	0	1263534080	7	3878
2026-01-21 02:04:33.42	35.61	35.75	-23.3	-24.0	19.4	2.20e-06	0	45	0	1269825536	7	3906
2026-01-21 02:04:34.43	35.77	35.97	-23.3	-24.1	19.4	0.00e+00	0	44	0	1275068416	7	3942
2026-01-21 02:04:35.44	35.93	36.19	-23.3	-24.0	19.4	0.00e+00	0	44	0	1280311296	7	3909
2026-01-21 02:04:36.44	36.09	36.41	-23.1	-23.7	19.6	0.00e+00	0	45	0	1286602752	7	3847
2026-01-21 02:04:37.45	36.25	36.63	-23.1	-23.6	19.7	0.00e+00	0	44	0	1291845632	7	3812
2026-01-21 02:04:38.46	36.42	36.85	-23.1	-23.6	19.7	0.00e+00	0	44	0	1298137088	7	3811
2026-01-21 02:04:39.46	36.59	37.07	-23.0	-23.5	19.7	0.00e+00	0	44	0	1303379968	7	3790
2026-01-21 02:04:40.47	36.76	37.29	-23.0	-23.5	19.7	0.00e+00	0	45	0	1308622848	7	3795
2026-01-21 02:04:41.47	36.93	37.52	-23.0	-23.4	19.8	0.00e+00	0	45	0	1314914304	7	3773
2026-01-21 02:04:42.48	37.10	37.74	-23.0	-23.4	19.7	0.00e+00	0	44	0	1320157184	7	3767
2026-01-21 02:04:43.48	37.28	37.97	-22.9	-23.3	19.8	0.00e+00	0	44	0	1325400064	7	3752
2026-01-21 02:04:44.49	37.46	38.20	-23.1	-23.6	19.7	0.00e+00	0	44	0	1331691520	7	3814
2026-01-21 02:04:45.50	37.64	38.43	-23.0	-23.4	19.7	0.00e+00	0	44	0	1336934400	7	3775
2026-01-21 02:04:46.50	37.82	38.66	-22.8	-23.1	19.9	0.00e+00	0	45	0	1343225856	7	3695
2026-01-21 02:04:47.50	38.01	38.89	-22.8	-23.4	20.0	0.00e+00	0	44	0	1348468736	6	3888
2026-01-21 02:04:48.50	38.20	39.12	-22.9	-23.7	19.9	0.00e+00	0	44	0	1354760192	6	3938
2026-01-21 02:04:49.51	38.39	39.35	-22.9	-23.7	19.9	0.00e+00	0	44	0	1360003072	6	3940
2026-01-21 02:04:50.51	38.58	39.59	-23.0	-23.9	19.8	0.00e+00	0	44	0	1365245952	6	3985
2026-01-21 02:04:51.51	38.78	39.82	-23.0	-24.0	19.7	0.00e+00	0	44	0	1371537408	6	4015
2026-01-21 02:04:52.52	38.98	40.06	-23.0	-23.9	19.7	0.00e+00	0	44	0	1376780288	6	4007
2026-01-21 02:04:53.53	39.18	40.30	-23.2	-24.3	19.6	0.00e+00	0	44	0	1382023168	6	4089
2026-01-21 02:04:54.54	39.39	40.54	-23.3	-24.5	19.5	0.00e+00	0	44	0	1388314624	6	4151
2026-01-21 02:04:55.54	39.60	40.78	-23.2	-24.4	19.5	0.00e+00	0	45	0	1393557504	6	4115
2026-01-21 02:04:56.53	39.81	41.02	-23.2	-24.4	19.5	0.00e+00	0	45	0	1398800384	6	4119
2026-01-21 02:04:57.53	40.02	41.27	-23.4	-24.7	19.4	0.00e+00	0	45	0	1405091840	6	4200
2026-01-21 02:04:58.53	40.24	41.51	-23.5	-24.5	19.2	0.00e+00	0	44	0	1410334720	7	4021
2026-01-21 02:04:59.54	40.46	41.76	-23.3	-24.1	19.5	0.00e+00	0	45	0	1416626176	7	3925
2026-01-21 02:05:00.54	40.69	42.00	-23.3	-24.1	19.4	0.00e+00	0	45	0	1421869056	7	3937
2026-01-21 02:05:01.54	40.91	42.25	-23.4	-24.3	19.4	0.00e+00	0	44	0	1427111936	7	3995
2026-01-21 02:05:02.54	41.14	42.50	-23.6	-24.6	19.2	0.00e+00	0	45	0	1433403392	7	4055
2026-01-21 02:05:03.55	41.38	42.75	-23.5	-24.5	19.3	0.00e+00	0	45	0	1438646272	7	4036
2026-01-21 02:05:04.55	41.62	43.00	-23.5	-24.4	19.3	0.00e+00	0	45	0	1444937728	7	4012
2026-01-21 02:05:05.56	41.86	43.26	-23.4	-24.3	19.3	0.00e+00	0	44	0	1450180608	7	3987
2026-01-21 02:05:06.56	42.11	43.51	-23.4	-24.3	19.4	0.00e+00	0	44	0	1455423488	7	3974
2026-01-21 02:05:07.56	42.36	43.77	-23.5	-24.5	19.3	0.00e+00	0	44	0	1461714944	7	4026
2026-01-21 02:05:08.56	42.61	44.02	-23.6	-24.6	19.2	0.00e+00	0	44	0	1466957824	7	4069
2026-01-21 02:05:09.56	42.87	44.28	-23.5	-24.5	19.3	0.00e+00	0	45	0	1472200704	7	4042
2026-01-21 02:05:10.56	43.13	44.54	-23.6	-24.7	19.2	0.00e+00	0	44	0	1478492160	7	4071
2026-01-21 02:05:11.56	43.39	44.80	-23.7	-24.8	19.1	0.00e+00	0	44	0	1483735040	7	4114
2026-01-21 02:05:12.57	43.67	45.06	-23.7	-24.8	19.1	0.00e+00	0	44	0	1490026496	7	4107
2026-01-21 02:05:13.57	43.94	45.32	-23.7	-24.9	19.1	0.00e+00	0	44	0	1495269376	7	4121
2026-01-21 02:05:14.57	44.22	45.58	-23.6	-24.7	19.2	0.00e+00	0	45	0	1500512256	7	4090
2026-01-21 02:05:15.57	44.50	45.84	-23.7	-24.9	19.1	0.00e+00	0	44	0	1506803712	7	4115
2026-01-21 02:05:16.57	44.79	46.11	-23.7	-24.8	19.2	0.00e+00	0	44	0	1512046592	7	4095
2026-01-21 02:05:17.57	45.09	46.37	-23.4	-24.2	19.5	0.00e+00	0	44	0	1517289472	7	3953
2026-01-21 02:05:18.58	45.39	46.64	-23.3	-23.9	19.6	0.00e+00	0	45	0	1523580928	7	3893
2026-01-21 02:05:19.58	45.69	46.91	-23.3	-24.1	19.5	0.00e+00	0	44	0	1528823808	7	3936
2026-01-21 02:05:20.59	46.00	47.18	-23.3	-24.1	19.5	0.00e+00	0	45	0	1534066688	7	3935
2026-01-21 02:05:21.60	46.32	47.45	-23.4	-24.2	19.5	0.00e+00	0	45	0	1540358144	7	3959
2026-01-21 02:05:22.60	46.64	47.72	-23.5	-24.5	19.3	0.00e+00	0	44	0	1545601024	7	4029
2026-01-21 02:05:23.61	46.96	47.99	-23.8	-25.0	19.1	0.00e+00	0	44	0	1551892480	7	4156
2026-01-21 02:05:24.62	47.30	48.26	-24.1	-25.1	18.8	0.00e+00	0	44	0	1557135360	8	4076
2026-01-21 02:05:25.62	47.63	48.53	-24.2	-25.4	18.6	0.00e+00	0	45	0	1563426816	8	4159
2026-01-21 02:05:26.62	47.98	48.81	-24.0	-25.1	18.8	0.00e+00	0	44	0	1568669696	8	4062
2026-01-21 02:05:27.63	48.33	49.08	-23.8	-24.7	19.1	0.00e+00	0	44	0	1573912576	8	3958
2026-01-21 02:05:28.62	48.68	49.35	-23.9	-24.9	19.0	0.00e+00	0	44	0	1580204032	8	4006
2026-01-21 02:05:29.62	49.04	49.63	-23.9	-24.8	19.0	0.00e+00	0	44	0	1585446912	8	3997
2026-01-21 02:05:30.63	49.41	49.90	-24.1	-25.3	18.7	0.00e+00	0	44	0	1590689792	8	4109
2026-01-21 02:05:31.63	49.78	50.18	-24.3	-25.7	18.5	0.00e+00	0	44	0	1596981248	8	4208
2026-01-21 02:05:32.63	50.16	50.45	-24.3	-25.7	18.5	0.00e+00	0	44	0	1602224128	8	4226
2026-01-21 02:05:33.63	50.55	50.73	-24.2	-25.5	18.6	0.00e+00	0	45	0	1607467008	8	4156
2026-01-21 02:05:34.64	50.95	51.01	-23.9	-24.9	18.9	0.00e+00	0	45	0	1613758464	8	4009
2026-01-21 02:05:35.64	51.35	51.28	-23.9	-24.8	19.0	0.00e+00	0	45	0	1619001344	8	3982
2026-01-21 02:05:36.65	51.76	51.56	-24.3	-25.5	18.6	0.00e+00	0	45	0	1625292800	8	4171
2026-01-21 02:05:37.66	52.18	51.84	-24.4	-25.8	18.5	0.00e+00	0	44	0	1630535680	8	4238
2026-01-21 02:05:38.66	52.61	52.11	-24.7	-26.0	18.1	0.00e+00	0	45	0	1636827136	9	4183
2026-01-21 02:05:39.66	53.04	52.39	-24.7	-25.9	18.2	0.00e+00	0	44	0	1642070016	9	4146
2026-01-21 02:05:40.67	53.48	52.67	-24.3	-25.1	18.6	0.00e+00	0	45	0	1647312896	9	3944
2026-01-21 02:05:41.68	53.94	52.95	-24.2	-24.8	18.8	0.00e+00	0	44	0	1653604352	9	3890
2026-01-21 02:05:42.69	54.40	53.23	-24.2	-25.0	18.7	0.00e+00	0	45	0	1658847232	9	3918
2026-01-21 02:05:43.69	54.87	53.50	-24.1	-24.7	18.8	0.00e+00	0	45	0	1664090112	9	3849
2026-01-21 02:05:44.69	55.34	53.78	-23.8	-24.2	19.1	0.00e+00	0	45	0	1670381568	9	3731
2026-01-21 02:05:45.69	55.82	54.05	-23.9	-24.3	19.0	3.89e-05	0	44	0	1675624448	9	3754
2026-01-21 02:05:46.69	56.32	54.32	-24.2	-24.9	18.7	0.00e+00	0	45	0	1681915904	9	3913
2026-01-21 02:05:47.70	56.82	54.60	-24.6	-25.8	18.3	4.23e-05	0	45	0	1687158784	9	4124
2026-01-21 02:05:48.70	57.34	54.87	-24.5	-25.6	18.3	6.86e-05	0	44	0	1692401664	9	4086
2026-01-21 02:05:49.69	57.85	55.14	-24.4	-25.4	18.5	0.00e+00	0	44	0	1698693120	9	4021
2026-01-21 02:05:50.70	58.39	55.41	-24.6	-25.8	18.2	4.34e-05	0	44	0	1703936000	9	4130
2026-01-21 02:05:51.70	58.93	55.68	-24.5	-25.5	18.4	0.00e+00	0	45	0	1710227456	9	4054
2026-01-21 02:05:52.71	59.49	55.95	-24.3	-25.2	18.6	0.00e+00	0	44	0	1715470336	9	3966
2026-01-21 02:05:53.71	60.05	56.22	-24.5	-25.5	18.4	2.17e-05	0	44	0	1720713216	9	4039
2026-01-21 02:05:54.72	60.63	56.49	-24.4	-25.4	18.5	0.00e+00	0	45	0	1727004672	9	4025
2026-01-21 02:05:55.72	61.22	56.75	-24.3	-25.1	18.6	0.00e+00	0	44	0	1732247552	9	3958
2026-01-21 02:05:56.73	61.82	57.02	-24.5	-25.6	18.4	0.00e+00	0	45	0	1737490432	9	4082
2026-01-21 02:05:57.73	62.43	57.28	-24.6	-25.8	18.3	0.00e+00	0	44	0	1743781888	9	4114
2026-01-21 02:05:58.74	63.06	57.54	-24.3	-25.2	18.6	0.00e+00	0	45	0	1749024768	9	3971
2026-01-21 02:05:59.74	63.69	57.79	-24.1	-24.8	18.8	3.08e-05	0	45	0	1755316224	9	3877
2026-01-21 02:06:00.75	64.34	58.05	-23.9	-24.3	19.1	9.10e-06	0	45	0	1760559104	9	3778
2026-01-21 02:06:01.75	65.00	58.30	-23.9	-24.3	19.1	0.00e+00	0	45	0	1765801984	9	3752
2026-01-21 02:06:02.75	65.66	58.55	-24.2	-24.9	18.8	1.60e-05	0	44	0	1772093440	9	3897
2026-01-21 02:06:03.76	66.35	58.80	-24.0	-24.6	18.9	0.00e+00	0	45	0	1777336320	9	3832
2026-01-21 02:06:04.76	67.05	59.05	-23.9	-24.3	19.1	0.00e+00	0	44	0	1783627776	9	3770
2026-01-21 02:06:05.77	67.76	59.29	-24.1	-24.6	19.0	0.00e+00	0	45	0	1788870656	9	3831
2026-01-21 02:06:06.77	68.48	59.53	-23.9	-24.3	19.1	4.80e-05	0	45	0	1794113536	9	3756
2026-01-21 02:06:07.77	69.21	59.76	-23.6	-24.2	19.4	0.00e+00	0	45	0	1800404992	8	3842
2026-01-21 02:06:08.78	69.97	60.00	-23.4	-23.8	19.6	2.91e-04	0	44	0	1805647872	8	3743
2026-01-21 02:06:09.78	70.73	60.23	-23.3	-23.9	19.8	2.69e-04	0	45	0	1810890752	7	3888
2026-01-21 02:06:10.78	71.50	60.45	-23.2	-23.9	19.8	0.00e+00	0	45	0	1817182208	7	3882
2026-01-21 02:06:11.79	72.29	60.67	-23.7	-24.9	19.3	1.89e-04	0	44	0	1822425088	7	4120
2026-01-21 02:06:12.80	73.10	60.89	-23.6	-24.7	19.3	0.00e+00	0	45	0	1828716544	7	4091
2026-01-21 02:06:13.81	73.93	61.11	-23.0	-23.5	20.0	0.00e+00	0	45	0	1833959424	7	3782
2026-01-21 02:06:14.81	74.75	61.31	-22.9	-23.3	20.1	0.00e+00	0	45	0	1840250880	7	3730
2026-01-21 02:06:15.81	75.60	61.52	-23.5	-24.4	19.6	1.75e-04	0	45	0	1845493760	7	4000
2026-01-21 02:06:16.81	76.45	61.72	-23.5	-24.4	19.6	0.00e+00	0	45	0	1850736640	7	3995
2026-01-21 02:06:17.81	77.32	61.91	-23.3	-24.2	19.4	0.00e+00	0	45	0	1857028096	7	3980
2026-01-21 02:06:18.81	78.20	62.10	-23.0	-23.4	19.8	2.88e-04	0	45	0	1862270976	7	3791
2026-01-21 02:06:19.81	79.10	62.28	-22.7	-23.4	20.1	0.00e+00	0	44	0	1867513856	6	3888
2026-01-21 02:06:20.82	80.02	62.46	-22.8	-23.6	20.0	1.26e-04	0	45	0	1873805312	6	3937
2026-01-21 02:06:21.82	80.94	62.63	-22.8	-23.6	20.0	0.00e+00	0	44	0	1879048192	6	3931
2026-01-21 02:06:22.82	81.88	62.80	-22.9	-23.7	20.0	0.00e+00	0	44	0	1884291072	6	3965
2026-01-21 02:06:23.82	82.83	62.96	-23.0	-24.1	19.8	0.00e+00	0	45	0	1890582528	6	4047
2026-01-21 02:06:24.83	83.80	63.11	-23.2	-24.3	19.7	0.00e+00	0	45	0	1895825408	6	4121
2026-01-21 02:06:25.83	84.77	63.26	-22.7	-23.3	20.2	0.00e+00	0	44	0	1902116864	6	3857
2026-01-21 02:06:26.84	85.77	63.40	-22.6	-23.5	20.3	0.00e+00	0	45	0	1907359744	5	4023
2026-01-21 02:06:27.85	86.78	63.54	-22.9	-24.3	19.9	0.00e+00	0	45	0	1913651200	5	4220
2026-01-21 02:06:28.85	87.79	63.66	-22.9	-23.8	19.9	0.00e+00	0	45	0	1918894080	6	3991
2026-01-21 02:06:29.86	88.81	63.78	-22.8	-23.6	20.1	0.00e+00	0	45	0	1924136960	6	3928
2026-01-21 02:06:30.86	89.84	63.90	-22.8	-23.4	20.1	0.00e+00	0	45	0	1930428416	6	3890
2026-01-21 02:06:31.86	90.88	64.00	-23.1	-24.2	19.8	0.00e+00	0	45	0	1935671296	6	4069
2026-01-21 02:06:32.86	91.93	64.10	-23.1	-24.1	19.8	0.00e+00	0	44	0	1940914176	6	4058
2026-01-21 02:06:33.86	92.99	64.19	-22.7	-23.3	20.2	0.00e+00	0	45	0	1947205632	6	3870
2026-01-21 02:06:34.86	94.05	64.27	-22.5	-23.0	20.4	0.00e+00	0	45	0	1952448512	6	3785
2026-01-21 02:06:35.86	95.13	64.35	-22.8	-24.1	20.1	0.00e+00	0	45	0	1957691392	5	4169
2026-01-21 02:06:36.86	96.20	64.41	-22.8	-24.1	20.0	0.00e+00	0	45	0	1963982848	5	4160
2026-01-21 02:06:37.87	97.30	64.47	-22.8	-24.1	20.0	0.00e+00	0	45	0	1969225728	5	4176
2026-01-21 02:06:38.87	98.39	64.52	-22.8	-23.9	20.1	0.00e+00	0	44	0	1975517184	5	4127
2026-01-21 02:06:39.87	99.48	64.56	-22.8	-24.1	20.0	0.00e+00	0	45	0	1980760064	5	4173
2026-01-21 02:06:40.87	100.58	64.60	-22.6	-23.7	20.2	0.00e+00	0	45	0	1986002944	5	4065
2026-01-21 02:06:41.87	101.68	64.62	-22.7	-23.9	20.1	0.00e+00	0	45	0	1992294400	5	4115
2026-01-21 02:06:42.87	102.79	64.64	-22.7	-23.8	20.1	0.00e+00	0	45	0	1997537280	5	4105
2026-01-21 02:06:43.88	103.90	64.65	-22.6	-23.5	20.3	0.00e+00	0	45	0	2002780160	5	4029
2026-01-21 02:06:44.88	105.01	64.65	-22.5	-23.4	20.4	0.00e+00	0	45	0	2009071616	5	3992
2026-01-21 02:06:45.88	106.11	64.64	-22.7	-23.7	20.2	0.00e+00	0	45	0	2014314496	5	4073
2026-01-21 02:06:46.89	107.23	64.63	-22.7	-23.8	20.2	2.97e-05	0	45	0	2019557376	5	4082
2026-01-21 02:06:47.89	108.33	64.60	-23.1	-24.2	19.8	0.00e+00	0	45	0	2025848832	6	4067
2026-01-21 02:06:48.89	109.43	64.57	-22.9	-23.7	20.0	0.00e+00	0	45	0	2031091712	6	3952
2026-01-21 02:06:49.90	110.53	64.53	-22.7	-23.3	20.2	0.00e+00	0	45	0	2037383168	6	3863
2026-01-21 02:06:50.90	111.62	64.48	-23.0	-24.1	19.9	0.00e+00	0	45	0	2042626048	6	4045
2026-01-21 02:06:51.91	112.72	64.42	-23.0	-24.0	19.8	0.00e+00	0	45	0	2048917504	6	4043
2026-01-21 02:06:52.91	113.80	64.35	-23.0	-24.1	19.9	0.00e+00	0	45	0	2054160384	6	4040
2026-01-21 02:06:53.91	114.87	64.28	-23.0	-24.1	19.8	0.00e+00	0	45	0	2059403264	6	4041
2026-01-21 02:06:54.91	115.94	64.20	-23.3	-24.6	19.6	0.00e+00	0	45	0	2065694720	6	4187
2026-01-21 02:06:55.92	117.01	64.11	-23.1	-24.1	19.9	0.00e+00	0	45	0	2070937600	6	4053
2026-01-21 02:06:56.92	118.06	64.01	-22.9	-23.7	20.0	0.00e+00	0	45	0	2076180480	6	3962
2026-01-21 02:06:57.93	119.11	63.91	-22.9	-23.7	20.0	5.37e-05	0	45	0	2082471936	6	3963
2026-01-21 02:06:58.93	120.14	63.79	-22.9	-23.8	20.0	1.01e-04	0	44	0	2087714816	6	3976
2026-01-21 02:06:59.93	121.16	63.67	-22.9	-23.7	20.1	0.00e+00	0	45	0	2092957696	6	3953
2026-01-21 02:07:00.93	122.17	63.55	-22.8	-23.4	20.2	1.06e-04	0	45	0	2099249152	6	3889
2026-01-21 02:07:01.94	123.18	63.41	-22.9	-23.7	20.1	9.95e-05	0	44	0	2104492032	6	3943
2026-01-21 02:07:02.94	124.17	63.27	-23.7	-24.9	19.3	0.00e+00	0	45	0	2110783488	7	4135
2026-01-21 02:07:03.95	125.15	63.13	-23.6	-24.8	19.3	1.28e-04	0	45	0	2116026368	7	4131
2026-01-21 02:07:04.95	126.12	62.97	-23.5	-24.5	19.4	8.81e-05	0	45	0	2122317824	7	4046
2026-01-21 02:07:05.95	127.07	62.81	-23.6	-24.7	19.4	0.00e+00	0	45	0	2127560704	7	4073
2026-01-21 02:07:06.96	128.02	62.65	-23.5	-24.6	19.4	0.00e+00	0	45	0	2132803584	7	4068
2026-01-21 02:07:07.97	128.95	62.47	-23.3	-24.1	19.7	0.00e+00	0	45	0	2139095040	7	3935
2026-01-21 02:07:08.97	129.86	62.30	-23.1	-23.7	19.9	0.00e+00	0	45	0	2144337920	7	3841
2026-01-21 02:07:09.98	130.77	62.11	-23.2	-24.4	19.8	0.00e+00	0	45	0	2149580800	6	4133
2026-01-21 02:07:10.98	131.66	61.92	-23.3	-24.7	19.6	0.00e+00	0	44	0	2155872256	6	4195
2026-01-21 02:07:11.99	132.54	61.73	-23.8	-25.1	19.2	0.00e+00	0	45	0	2161115136	7	4193
2026-01-21 02:07:13.00	133.40	61.53	-23.4	-24.4	19.5	0.00e+00	0	45	0	2167406592	7	4016
2026-01-21 02:07:14.00	134.25	61.32	-23.2	-23.9	19.7	0.00e+00	0	44	0	2172649472	7	3902
2026-01-21 02:07:15.00	135.08	61.12	-23.5	-24.6	19.4	0.00e+00	0	45	0	2177892352	7	4062
2026-01-21 02:07:16.01	135.90	60.90	-23.5	-24.6	19.4	0.00e+00	0	44	0	2184183808	7	4059
2026-01-21 02:07:17.01	136.71	60.68	-23.4	-24.3	19.6	0.00e+00	0	44	0	2189426688	7	3984
2026-01-21 02:07:18.01	137.50	60.46	-23.5	-24.5	19.5	3.03e-04	0	45	0	2195718144	7	4030
2026-01-21 02:07:19.01	138.27	60.24	-23.3	-24.1	19.7	0.00e+00	0	45	0	2200961024	7	3945
2026-01-21 02:07:20.00	139.03	60.01	-23.8	-25.1	19.2	0.00e+00	0	45	0	2206203904	7	4189
2026-01-21 02:07:21.01	139.78	59.78	-23.7	-25.0	19.2	0.00e+00	0	45	0	2212495360	7	4170
2026-01-21 02:07:22.01	140.52	59.54	-24.0	-25.5	19.0	0.00e+00	0	45	0	2217738240	7	4294
2026-01-21 02:07:23.01	141.24	59.30	-23.7	-24.8	19.3	0.00e+00	0	45	0	2222981120	7	4111
2026-01-21 02:07:24.01	141.95	59.06	-23.5	-24.5	19.4	0.00e+00	0	45	0	2229272576	7	4045
2026-01-21 02:07:25.01	142.64	58.82	-23.7	-24.9	19.3	0.00e+00	0	45	0	2234515456	7	4131
2026-01-21 02:07:26.01	143.33	58.57	-23.6	-24.7	19.3	0.00e+00	0	45	0	2239758336	7	4094
2026-01-21 02:07:27.02	144.01	58.32	-23.6	-24.7	19.3	0.00e+00	0	45	0	2246049792	7	4094
2026-01-21 02:07:28.03	144.67	58.06	-23.9	-25.4	19.0	0.00e+00	0	45	0	2251292672	7	4279
2026-01-21 02:07:29.03	145.32	57.81	-24.1	-25.2	18.9	0.00e+00	0	45	0	2257584128	8	4107
2026-01-21 02:07:30.02	145.94	57.55	-24.0	-25.0	19.0	5.03e-05	0	45	0	2262827008	8	4044
2026-01-21 02:07:31.03	146.57	57.29	-24.0	-25.0	19.0	0.00e+00	0	45	0	2269118464	8	4039
2026-01-21 02:07:32.03	147.18	57.03	-24.5	-26.0	18.5	0.00e+00	0	45	0	2274361344	8	4312
2026-01-21 02:07:33.03	147.78	56.77	-24.4	-26.0	18.5	0.00e+00	0	45	0	2279604224	8	4302
2026-01-21 02:07:34.04	148.38	56.50	-24.7	-26.0	18.3	0.00e+00	0	44	0	2285895680	9	4189
2026-01-21 02:07:35.04	148.95	56.24	-24.9	-26.4	18.0	0.00e+00	0	45	0	2291138560	9	4302
2026-01-21 02:07:36.05	149.52	55.97	-24.7	-26.0	18.2	1.38e-04	0	45	0	2296381440	9	4179
2026-01-21 02:07:37.06	150.08	55.69	-24.7	-25.9	18.2	0.00e+00	0	44	0	2302672896	9	4175
2026-01-21 02:07:38.06	150.63	55.42	-24.7	-26.0	18.2	0.00e+00	0	45	0	2307915776	9	4203
2026-01-21 02:07:39.06	151.16	55.15	-24.7	-26.0	18.2	2.67e-04	0	45	0	2313158656	9	4199
2026-01-21 02:07:40.07	151.69	54.88	-24.8	-26.2	18.1	0.00e+00	0	45	0	2319450112	9	4240
2026-01-21 02:07:41.07	152.20	54.60	-25.0	-26.3	17.8	1.54e-04	0	45	0	2324692992	10	4143
2026-01-21 02:07:42.07	152.71	54.33	-24.9	-25.9	18.0	1.46e-04	0	45	0	2330984448	10	4050
2026-01-21 02:07:43.07	153.20	54.06	-24.8	-25.7	18.1	0.00e+00	0	45	0	2336227328	10	4018
2026-01-21 02:07:44.07	153.69	53.78	-24.8	-25.8	18.1	3.04e-04	0	44	0	2341470208	10	4017
2026-01-21 02:07:45.08	154.17	53.50	-24.7	-26.1	18.1	0.00e+00	0	45	0	2347761664	9	4219
2026-01-21 02:07:46.08	154.64	53.23	-24.6	-25.9	18.3	0.00e+00	0	45	0	2353004544	9	4160
2026-01-21 02:07:47.08	155.10	52.95	-24.8	-26.3	18.0	0.00e+00	0	45	0	2359296000	9	4273
2026-01-21 02:07:48.08	155.55	52.67	-24.4	-25.5	18.4	2.87e-04	0	45	0	2364538880	9	4073
2026-01-21 02:07:49.09	155.99	52.39	-24.2	-24.9	18.7	0.00e+00	0	44	0	2369781760	9	3925
2026-01-21 02:07:50.08	156.42	52.12	-23.9	-24.3	19.1	2.29e-04	0	45	0	2376073216	9	3770
2026-01-21 02:07:51.09	156.85	51.84	-23.7	-24.3	19.3	2.29e-04	0	44	0	2381316096	8	3886
2026-01-21 02:07:52.09	157.27	51.56	-23.6	-24.3	19.3	0.00e+00	0	45	0	2386558976	8	3871
2026-01-21 02:07:53.10	157.69	51.28	-24.0	-25.0	18.9	1.54e-04	0	45	0	2392850432	8	4041
2026-01-21 02:07:54.09	158.08	51.01	-24.0	-25.0	18.9	0.00e+00	0	45	0	2398093312	8	4048
2026-01-21 02:07:55.10	158.48	50.73	-24.0	-25.1	18.9	0.00e+00	0	45	0	2404384768	8	4089
2026-01-21 02:07:56.09	158.87	50.46	-23.8	-24.7	19.1	3.20e-05	0	45	0	2409627648	8	3976
2026-01-21 02:07:57.10	159.25	50.18	-23.8	-24.6	19.1	0.00e+00	0	45	0	2414870528	8	3959
2026-01-21 02:07:58.10	159.63	49.90	-23.8	-24.7	19.1	0.00e+00	0	45	0	2421161984	8	3975
2026-01-21 02:07:59.10	160.00	49.63	-23.7	-24.5	19.2	0.00e+00	0	45	0	2426404864	8	3926
2026-01-21 02:08:00.10	160.36	49.35	-23.9	-24.8	19.0	1.76e-04	0	45	0	2431647744	8	4002
2026-01-21 02:08:01.10	160.71	49.08	-23.7	-24.4	19.2	0.00e+00	0	45	0	2437939200	8	3910
2026-01-21 02:08:02.10	161.06	48.80	-23.6	-24.3	19.3	2.25e-04	0	45	0	2443182080	8	3874
2026-01-21 02:08:03.10	161.41	48.53	-23.5	-24.1	19.3	2.45e-04	0	45	0	2448424960	8	3837
2026-01-21 02:08:04.11	161.75	48.26	-23.5	-23.9	19.4	0.00e+00	0	45	0	2454716416	8	3796
2026-01-21 02:08:05.11	162.08	47.98	-23.5	-24.1	19.3	2.44e-04	0	45	0	2459959296	8	3841
2026-01-21 02:08:06.12	162.41	47.71	-23.7	-24.5	19.1	0.00e+00	0	45	0	2466250752	8	3935
2026-01-21 02:08:07.12	162.73	47.44	-23.8	-24.6	19.0	0.00e+00	0	45	0	2471493632	8	3970
2026-01-21 02:08:08.12	163.04	47.17	-23.8	-24.6	19.0	0.00e+00	0	44	0	2476736512	8	3957
2026-01-21 02:08:09.12	163.35	46.90	-24.1	-25.2	18.7	0.00e+00	0	45	0	2483027968	8	4110
2026-01-21 02:08:10.12	163.66	46.63	-24.1	-25.4	18.7	0.00e+00	0	45	0	2488270848	8	4152
2026-01-21 02:08:11.13	163.96	46.36	-24.1	-25.3	18.7	0.00e+00	0	45	0	2493513728	8	4137
2026-01-21 02:08:12.13	164.25	46.10	-23.8	-24.7	19.0	0.00e+00	0	44	0	2499805184	8	3991
2026-01-21 02:08:13.14	164.54	45.83	-24.0	-25.0	18.9	0.00e+00	0	45	0	2505048064	8	4047
2026-01-21 02:08:14.14	164.83	45.57	-23.6	-24.2	19.3	0.00e+00	0	45	0	2511339520	8	3858
2026-01-21 02:08:15.14	165.11	45.30	-23.4	-24.3	19.4	0.00e+00	0	45	0	2516582400	7	4009
2026-01-21 02:08:16.15	165.39	45.04	-23.6	-24.8	19.1	0.00e+00	0	45	0	2521825280	7	4127
2026-01-21 02:08:17.15	165.66	44.78	-23.4	-24.3	19.4	0.00e+00	0	45	0	2528116736	7	4002
2026-01-21 02:08:18.15	165.92	44.52	-23.2	-24.0	19.6	0.00e+00	0	45	0	2533359616	7	3918
2026-01-21 02:08:19.15	166.19	44.26	-23.3	-24.1	19.5	0.00e+00	0	45	0	2539651072	7	3941
2026-01-21 02:08:20.16	166.45	44.00	-23.4	-24.2	19.4	0.00e+00	0	45	0	2544893952	7	3981
2026-01-21 02:08:21.16	166.70	43.74	-23.2	-23.9	19.6	0.00e+00	0	45	0	2550136832	7	3893
2026-01-21 02:08:22.17	166.95	43.48	-23.2	-23.9	19.6	0.00e+00	0	45	0	2556428288	7	3899
2026-01-21 02:08:23.17	167.20	43.23	-23.1	-24.2	19.6	0.00e+00	0	44	0	2561671168	6	4091
2026-01-21 02:08:24.18	167.44	42.97	-23.2	-24.5	19.5	0.00e+00	0	45	0	2567962624	6	4150
2026-01-21 02:08:25.18	167.68	42.72	-23.2	-24.4	19.5	0.00e+00	0	45	0	2573205504	6	4137
2026-01-21 02:08:26.19	167.92	42.47	-23.3	-24.6	19.4	0.00e+00	0	45	0	2578448384	6	4197
2026-01-21 02:08:27.19	168.15	42.22	-23.2	-24.5	19.5	0.00e+00	0	45	0	2584739840	6	4158
2026-01-21 02:08:28.19	168.38	41.97	-23.2	-24.4	19.5	0.00e+00	0	45	0	2589982720	6	4140
2026-01-21 02:08:29.19	168.60	41.72	-23.3	-24.5	19.4	0.00e+00	0	45	0	2595225600	6	4174
2026-01-21 02:08:30.20	168.83	41.47	-23.1	-24.2	19.6	0.00e+00	0	45	0	2601517056	6	4091
2026-01-21 02:08:31.21	169.05	41.22	-23.1	-24.3	19.5	0.00e+00	0	45	0	2606759936	6	4109
2026-01-21 02:08:32.21	169.26	40.98	-23.2	-24.4	19.5	0.00e+00	0	45	0	2613051392	6	4135
2026-01-21 02:08:33.21	169.47	40.74	-23.2	-24.3	19.5	0.00e+00	0	45	0	2618294272	6	4117
2026-01-21 02:08:34.22	169.68	40.49	-23.1	-24.3	19.5	0.00e+00	0	45	0	2623537152	6	4102
2026-01-21 02:08:35.22	169.89	40.25	-23.0	-24.0	19.7	1.10e-06	0	45	0	2629828608	6	4030
2026-01-21 02:08:36.22	170.09	40.01	-23.1	-24.1	19.6	0.00e+00	0	44	0	2635071488	6	4062
2026-01-21 02:08:37.22	170.29	39.77	-23.2	-24.5	19.5	0.00e+00	0	45	0	2640314368	6	4155
2026-01-21 02:08:38.22	170.48	39.54	-23.2	-24.3	19.5	3.40e-06	0	44	0	2646605824	6	4122
2026-01-21 02:08:39.23	170.68	39.30	-23.3	-24.7	19.4	0.00e+00	0	44	0	2651848704	6	4205
2026-01-21 02:08:40.24	170.87	39.06	-23.1	-24.3	19.5	0.00e+00	0	45	0	2658140160	6	4119
2026-01-21 02:08:41.24	171.06	38.83	-23.0	-24.1	19.6	0.00e+00	0	45	0	2663383040	6	4064
2026-01-21 02:08:42.24	171.25	38.60	-23.0	-24.1	19.6	0.00e+00	0	44	0	2668625920	6	4066
2026-01-21 02:08:43.25	171.43	38.37	-22.9	-23.7	19.8	0.00e+00	0	45	0	2674917376	6	3978
2026-01-21 02:08:44.26	171.62	38.14	-22.9	-23.9	19.7	2.20e-06	0	45	0	2680160256	6	4013
2026-01-21 02:08:45.26	171.79	37.91	-23.0	-24.0	19.7	0.00e+00	0	44	0	2686451712	6	4027
2026-01-21 02:08:46.27	171.97	37.68	-22.8	-23.6	19.9	0.00e+00	0	45	0	2691694592	6	3934
2026-01-21 02:08:47.27	172.14	37.45	-22.8	-23.5	19.9	0.00e+00	0	45	0	2696937472	6	3926
2026-01-21 02:08:48.28	172.32	37.23	-22.8	-23.6	19.8	0.00e+00	0	45	0	2703228928	6	3944
2026-01-21 02:08:49.27	172.48	37.01	-22.9	-23.8	19.7	0.00e+00	0	45	0	2708471808	6	3997
2026-01-21 02:08:50.27	172.65	36.78	-23.0	-24.1	19.6	2.20e-06	0	45	0	2713714688	6	4062
2026-01-21 02:08:51.28	172.82	36.56	-23.0	-24.0	19.6	0.00e+00	0	45	0	2720006144	6	4050
2026-01-21 02:08:52.29	172.98	36.34	-23.1	-24.2	19.5	0.00e+00	0	45	0	2725249024	6	4082
2026-01-21 02:08:53.28	173.14	36.12	-23.0	-23.9	19.6	0.00e+00	0	45	0	2731540480	6	4025
2026-01-21 02:08:54.28	173.30	35.91	-23.0	-23.9	19.7	0.00e+00	0	45	0	2736783360	6	4025
2026-01-21 02:08:55.29	173.45	35.69	-23.0	-23.9	19.6	0.00e+00	0	45	0	2742026240	6	4022
2026-01-21 02:08:56.30	173.61	35.47	-22.9	-23.7	19.8	0.00e+00	0	45	0	2748317696	6	3967
2026-01-21 02:08:57.30	173.76	35.26	-23.0	-24.0	19.7	0.00e+00	0	45	0	2753560576	6	4035
2026-01-21 02:08:58.30	173.91	35.05	-23.1	-24.3	19.5	0.00e+00	0	45	0	2759852032	6	4103
2026-01-21 02:08:59.31	174.06	34.84	-23.1	-24.2	19.6	0.00e+00	0	45	0	2765094912	6	4077
2026-01-21 02:09:00.31	174.21	34.63	-23.1	-24.2	19.5	0.00e+00	0	45	0	2770337792	6	4083
2026-01-21 02:09:01.31	174.35	34.42	-23.2	-24.5	18.6	0.00e+00	0	45	0	2776629248	6	4159
2026-01-21 02:09:02.32	174.50	34.21	-23.2	-24.4	19.3	0.00e+00	0	45	0	2781872128	6	4152
2026-01-21 02:09:03.31	174.64	34.01	-23.3	-24.7	19.3	5.70e-06	0	44	0	2787115008	6	4218
2026-01-21 02:09:04.32	174.78	33.80	-23.4	-24.8	19.2	8.46e-05	0	45	0	2793406464	6	4230
2026-01-21 02:09:05.33	174.92	33.59	-23.3	-24.6	19.3	0.00e+00	0	44	0	2798649344	6	4191
2026-01-21 02:09:06.33	175.05	33.39	-23.3	-24.6	19.3	0.00e+00	0	44	0	2804940800	6	4177
2026-01-21 02:09:07.33	175.19	33.19	-23.4	-24.8	19.2	3.66e-05	0	44	0	2810183680	6	4227
2026-01-21 02:09:08.34	175.32	32.99	-23.3	-24.7	19.3	0.00e+00	0	45	0	2815426560	6	4206
2026-01-21 02:09:09.34	175.45	32.79	-23.3	-24.7	19.2	1.14e-05	0	44	0	2821718016	6	4214
2026-01-21 02:09:10.34	175.58	32.59	-23.4	-24.8	19.2	5.70e-06	0	45	0	2826960896	6	4237
2026-01-21 02:09:11.34	175.71	32.40	-23.4	-24.8	19.2	1.28e-04	0	45	0	2833252352	6	4229
2026-01-21 02:09:12.35	175.84	32.20	-23.4	-24.9	19.1	8.35e-05	0	45	0	2838495232	6	4265
2026-01-21 02:09:13.36	175.96	32.00	-23.5	-24.6	19.0	2.56e-04	0	45	0	2843738112	7	4086
2026-01-21 02:09:14.37	176.09	31.81	-23.6	-24.7	19.0	0.00e+00	0	45	0	2850029568	7	4099
2026-01-21 02:09:15.37	176.21	31.62	-23.6	-24.8	18.9	1.21e-04	0	45	0	2855272448	7	4135
2026-01-21 02:09:16.38	176.33	31.42	-23.6	-24.7	19.0	5.38e-04	0	44	0	2860515328	7	4115
2026-01-21 02:09:17.38	176.45	31.23	-23.6	-24.8	18.9	0.00e+00	0	45	0	2866806784	7	4133
2026-01-21 02:09:18.38	176.57	31.04	-23.5	-24.6	19.0	0.00e+00	0	45	0	2872049664	7	4078
2026-01-21 02:09:19.38	176.69	30.86	-23.5	-24.6	19.0	1.40e-04	0	45	0	2878341120	7	4084
2026-01-21 02:09:20.38	176.80	30.67	-23.5	-24.6	19.0	6.24e-04	0	45	0	2883584000	7	4075
2026-01-21 02:09:21.38	176.92	30.49	-23.4	-24.3	19.1	1.43e-04	0	44	0	2888826880	7	4005
2026-01-21 02:09:22.39	177.03	30.30	-23.4	-24.3	19.2	7.13e-04	0	45	0	2895118336	7	4001
2026-01-21 02:09:23.39	177.14	30.12	-23.4	-24.3	19.2	7.30e-04	0	45	0	2900361216	7	3990
2026-01-21 02:09:24.39	177.25	29.93	-23.3	-24.2	19.2	0.00e+00	0	45	0	2906652672	7	3975
2026-01-21 02:09:25.39	177.36	29.75	-23.4	-24.4	19.1	7.21e-04	0	45	0	2911895552	7	4029
2026-01-21 02:09:26.40	177.47	29.57	-23.5	-24.6	19.0	6.52e-04	0	45	0	2917138432	7	4066
2026-01-21 02:09:27.40	177.58	29.39	-23.4	-24.3	19.1	0.00e+00	0	45	0	2923429888	7	4009
2026-01-21 02:09:28.41	177.69	29.21	-23.4	-24.4	19.1	8.73e-04	0	45	0	2928672768	7	4022
2026-01-21 02:09:29.42	177.79	29.03	-23.5	-24.5	19.0	7.39e-04	0	45	0	2933915648	7	4051
2026-01-21 02:09:30.42	177.90	28.86	-23.4	-24.5	19.0	0.00e+00	0	45	0	2940207104	7	4050
2026-01-21 02:09:31.42	178.00	28.68	-23.5	-24.6	19.0	7.41e-04	0	45	0	2945449984	7	4084
2026-01-21 02:09:32.42	178.10	28.51	-23.5	-24.7	18.9	7.59e-04	0	45	0	2951741440	7	4099
2026-01-21 02:09:33.42	178.20	28.33	-23.4	-24.4	19.1	1.58e-04	0	45	0	2956984320	7	4042
2026-01-21 02:09:34.43	178.30	28.16	-23.5	-24.6	19.0	8.04e-04	0	45	0	2962227200	7	4067
2026-01-21 02:09:35.43	178.40	27.99	-23.5	-24.6	19.0	7.04e-04	0	45	0	2968518656	7	4065
2026-01-21 02:09:36.44	178.50	27.82	-23.4	-24.3	19.1	0.00e+00	0	45	0	2973761536	7	4015
2026-01-21 02:09:37.43	178.59	27.65	-23.4	-24.3	19.1	6.88e-04	0	45	0	2980052992	7	4009
2026-01-21 02:09:38.44	178.69	27.48	-23.4	-24.4	19.1	0.00e+00	0	45	0	2985295872	7	4018
2026-01-21 02:09:39.44	178.78	27.31	-23.4	-24.4	19.1	0.00e+00	0	45	0	2990538752	7	4032
2026-01-21 02:09:40.44	178.88	27.15	-23.5	-24.6	18.9	0.00e+00	0	45	0	2996830208	7	4082
2026-01-21 02:09:41.45	178.97	26.98	-23.5	-24.5	19.0	7.61e-04	0	45	0	3002073088	7	4054
2026-01-21 02:09:42.45	179.06	26.82	-23.5	-24.6	18.9	0.00e+00	0	44	0	3007315968	7	4089
2026-01-21 02:09:43.45	179.15	26.65	-23.6	-24.8	18.8	4.46e-05	0	45	0	3013607424	7	4135
2026-01-21 02:09:44.45	179.24	26.49	-23.6	-24.9	18.8	6.72e-04	0	45	0	3018850304	7	4143
2026-01-21 02:09:45.45	179.33	26.33	-23.8	-25.2	18.7	0.00e+00	0	45	0	3025141760	7	4221
2026-01-21 02:09:46.46	179.42	26.17	-23.8	-25.2	18.6	7.01e-04	0	45	0	3030384640	7	4226
2026-01-21 02:09:47.46	179.51	26.01	-23.7	-25.1	18.7	0.00e+00	0	45	0	3035627520	7	4198
2026-01-21 02:09:48.46	179.59	25.85	-23.8	-25.2	18.7	0.00e+00	0	45	0	3041918976	7	4221
2026-01-21 02:09:49.47	179.68	25.69	-23.8	-25.2	18.6	4.50e-06	0	45	0	3047161856	7	4222
2026-01-21 02:09:50.48	179.77	25.53	-23.7	-25.0	18.8	0.00e+00	0	45	0	3052404736	7	4165
2026-01-21 02:09:51.48	179.85	25.37	-23.7	-25.0	18.7	0.00e+00	0	45	0	3058696192	7	4172
2026-01-21 02:09:52.48	179.93	25.22	-23.7	-24.9	18.8	1.10e-06	0	45	0	3063939072	7	4156
2026-01-21 02:09:53.49	180.02	25.06	-23.7	-24.9	18.7	6.21e-04	0	45	0	3070230528	7	4158
2026-01-21 02:09:54.50	180.10	24.91	-23.6	-24.8	18.8	0.00e+00	0	44	0	3075473408	7	4133
2026-01-21 02:09:55.50	180.18	24.75	-23.5	-24.5	19.0	3.40e-06	0	45	0	3080716288	7	4043
2026-01-21 02:09:56.50	180.26	24.60	-23.4	-24.3	19.0	0.00e+00	0	45	0	3087007744	7	4004
2026-01-21 02:09:57.50	180.34	24.45	-23.4	-24.4	19.0	0.00e+00	0	45	0	3092250624	7	4028
2026-01-21 02:09:58.49	180.42	24.30	-23.5	-24.5	18.9	0.00e+00	0	45	0	3098542080	7	4056
2026-01-21 02:09:59.49	180.50	24.15	-23.5	-24.6	18.9	0.00e+00	0	45	0	3103784960	7	4069
2026-01-21 02:10:00.49	180.57	24.00	-23.6	-24.7	18.8	0.00e+00	0	45	0	3109027840	7	4107
2026-01-21 02:10:01.50	180.65	23.85	-23.7	-24.9	18.7	0.00e+00	0	45	0	3115319296	7	4152
2026-01-21 02:10:02.51	180.73	23.70	-23.7	-24.9	18.7	0.00e+00	0	44	0	3120562176	7	4157
2026-01-21 02:10:03.50	180.80	23.56	-23.8	-25.1	18.6	0.00e+00	0	45	0	3125805056	7	4208
2026-01-21 02:10:04.50	180.88	23.41	-23.8	-25.3	18.6	0.00e+00	0	45	0	3132096512	7	4248
2026-01-21 02:10:05.51	180.95	23.27	-23.9	-25.4	18.5	0.00e+00	0	45	0	3137339392	7	4293
2026-01-21 02:10:06.52	181.02	23.12	-24.0	-25.6	18.4	0.00e+00	0	45	0	3142582272	7	4327
2026-01-21 02:10:07.52	181.10	22.98	-24.1	-25.3	18.3	0.00e+00	0	45	0	3148873728	8	4133
2026-01-21 02:10:08.53	181.17	22.83	-24.2	-25.5	18.2	0.00e+00	0	45	0	3154116608	8	4203
2026-01-21 02:10:09.54	181.24	22.69	-24.2	-25.6	18.1	0.00e+00	0	45	0	3160408064	8	4233
2026-01-21 02:10:10.54	181.31	22.55	-24.2	-25.6	18.1	0.00e+00	0	45	0	3165650944	8	4214
2026-01-21 02:10:11.54	181.38	22.41	-24.2	-25.6	18.1	0.00e+00	0	45	0	3171942400	8	4234
2026-01-21 02:10:12.55	181.45	22.27	-24.2	-25.7	18.1	0.00e+00	0	45	0	3177185280	8	4238
2026-01-21 02:10:13.55	181.52	22.13	-24.3	-25.8	18.0	0.00e+00	0	45	0	3182428160	8	4276
2026-01-21 02:10:14.55	181.59	21.99	-24.3	-25.8	18.0	0.00e+00	0	45	0	3188719616	8	4285
2026-01-21 02:10:15.55	181.66	21.85	-24.3	-25.7	18.0	0.00e+00	0	45	0	3193962496	8	4254
2026-01-21 02:10:16.56	181.73	21.71	-24.3	-25.7	18.1	0.00e+00	0	45	0	3199205376	8	4254
2026-01-21 02:10:17.56	181.79	21.58	-24.4	-25.9	18.0	0.00e+00	0	45	0	3205496832	8	4297
2026-01-21 02:10:18.55	181.86	21.44	-24.4	-26.0	17.9	0.00e+00	0	44	0	3210739712	8	4319
2026-01-21 02:10:19.56	181.92	21.31	-24.5	-26.1	17.9	0.00e+00	0	45	0	3215982592	8	4356
2026-01-21 02:10:20.56	181.99	21.17	-24.5	-25.7	17.8	0.00e+00	0	45	0	3222274048	9	4131
2026-01-21 02:10:21.56	182.05	21.04	-24.5	-25.6	17.8	0.00e+00	0	45	0	3227516928	9	4112
2026-01-21 02:10:22.57	182.12	20.91	-24.5	-25.7	17.8	0.00e+00	0	44	0	3233808384	9	4137
2026-01-21 02:10:23.59	182.18	20.77	-24.6	-25.8	17.7	0.00e+00	0	45	0	3239051264	9	4163
2026-01-21 02:10:24.58	182.25	20.64	-24.6	-25.9	17.7	0.00e+00	0	45	0	3245342720	9	4189
2026-01-21 02:10:25.59	182.31	20.51	-24.6	-26.0	17.6	0.00e+00	0	45	0	3250585600	9	4208
2026-01-21 02:10:26.60	182.37	20.38	-24.7	-26.1	17.6	0.00e+00	0	45	0	3255828480	9	4244
2026-01-21 02:10:27.61	182.43	20.25	-24.8	-26.2	17.5	0.00e+00	0	45	0	3262119936	9	4268
2026-01-21 02:10:28.61	182.49	20.12	-24.8	-26.3	17.5	0.00e+00	0	44	0	3267362816	9	4284
2026-01-21 02:10:29.61	182.55	19.99	-24.9	-26.6	17.3	0.00e+00	0	45	0	3272605696	9	4373
2026-01-21 02:10:30.61	182.61	19.86	-24.9	-26.6	17.3	0.00e+00	0	45	0	3278897152	9	4362
2026-01-21 02:10:31.61	182.67	19.74	-24.9	-26.6	17.3	0.00e+00	0	45	0	3284140032	9	4366
2026-01-21 02:10:32.61	182.73	19.61	-25.0	-26.2	17.3	0.00e+00	0	45	0	3289382912	10	4137
2026-01-21 02:10:33.61	182.79	19.49	-24.8	-25.9	17.4	0.00e+00	0	45	0	3295674368	10	4071
2026-01-21 02:10:34.61	182.85	19.36	-24.8	-25.9	17.4	0.00e+00	0	45	0	3300917248	10	4063
2026-01-21 02:10:35.62	182.91	19.23	-24.8	-26.3	17.5	0.00e+00	0	45	0	3307208704	9	4280
2026-01-21 02:10:36.61	182.96	19.11	-24.8	-26.3	17.4	0.00e+00	0	45	0	3312451584	9	4292
2026-01-21 02:10:37.63	183.02	18.99	-24.9	-26.7	17.3	0.00e+00	0	45	0	3317694464	9	4384
2026-01-21 02:10:38.63	183.08	18.86	-25.0	-26.2	17.3	0.00e+00	0	45	0	3323985920	10	4143
2026-01-21 02:10:39.63	183.14	18.74	-24.9	-26.0	17.4	0.00e+00	0	45	0	3329228800	10	4090
2026-01-21 02:10:40.63	183.19	18.62	-24.9	-26.1	17.3	0.00e+00	0	45	0	3335520256	10	4110
2026-01-21 02:10:41.63	183.25	18.50	-24.9	-26.5	17.3	0.00e+00	0	45	0	3340763136	9	4335
2026-01-21 02:10:42.64	183.30	18.38	-24.2	-25.5	17.3	0.00e+00	0	45	0	3346006016	9	4219
2026-01-21 02:10:43.64	183.36	18.26	-25.0	-26.7	14.3	0.00e+00	0	45	0	3352297472	9	4380
2026-01-21 02:10:44.65	183.41	18.14	-25.0	-26.3	17.2	0.00e+00	0	45	0	3357540352	10	4160
2026-01-21 02:10:45.65	183.46	18.02	-25.0	-26.2	17.2	0.00e+00	0	45	0	3362783232	10	4140
2026-01-21 02:10:46.65	183.52	17.90	-25.0	-26.2	17.2	0.00e+00	0	44	0	3369074688	10	4153
2026-01-21 02:10:47.65	183.57	17.78	-25.2	-26.6	17.0	0.00e+00	0	45	0	3374317568	10	4244
2026-01-21 02:10:48.66	183.62	17.67	-25.2	-26.6	17.0	0.00e+00	0	45	0	3380609024	10	4258
2026-01-21 02:10:49.65	183.67	17.55	-25.0	-26.3	17.2	0.00e+00	0	45	0	3385851904	10	4171
2026-01-21 02:10:50.65	183.73	17.43	-25.0	-26.2	17.2	1.37e-04	0	45	0	3391094784	10	4144
2026-01-21 02:10:51.66	183.78	17.32	-25.0	-26.2	17.2	0.00e+00	0	45	0	3397386240	10	4156
2026-01-21 02:10:52.66	183.83	17.20	-25.1	-26.5	17.1	8.22e-04	0	45	0	3402629120	10	4220
2026-01-21 02:10:53.66	183.88	17.09	-25.1	-26.5	17.0	0.00e+00	0	45	0	3407872000	10	4233
2026-01-21 02:10:54.67	183.93	16.97	-25.1	-26.5	17.0	0.00e+00	0	44	0	3414163456	10	4230
2026-01-21 02:10:55.68	183.98	16.86	-25.2	-26.7	16.9	0.00e+00	0	45	0	3419406336	10	4268
2026-01-21 02:10:56.69	184.03	16.74	-25.2	-26.7	16.9	0.00e+00	0	45	0	3425697792	10	4273
2026-01-21 02:10:57.69	184.08	16.63	-25.2	-26.8	16.9	6.87e-04	0	45	0	3430940672	10	4302
2026-01-21 02:10:58.70	184.13	16.52	-25.4	-27.0	16.7	0.00e+00	0	44	0	3436183552	10	4369
2026-01-21 02:10:59.70	184.18	16.41	-25.4	-27.2	16.7	1.03e-04	0	45	0	3442475008	10	4406
2026-01-21 02:11:00.70	184.22	16.30	-25.5	-26.9	16.6	0.00e+00	0	45	0	3447717888	11	4209
2026-01-21 02:11:01.70	184.27	16.19	-25.7	-27.3	16.3	5.54e-04	0	45	0	3454009344	11	4318
2026-01-21 02:11:02.70	184.32	16.08	-25.7	-27.4	16.3	1.19e-04	0	45	0	3459252224	11	4344
2026-01-21 02:11:03.70	184.37	15.97	-25.8	-27.5	16.2	0.00e+00	0	45	0	3464495104	11	4380
2026-01-21 02:11:04.71	184.41	15.86	-26.0	-27.9	16.0	6.01e-04	0	45	0	3470786560	11	4487
2026-01-21 02:11:05.71	184.46	15.75	-25.9	-27.2	16.0	0.00e+00	0	45	0	3476029440	12	4206
2026-01-21 02:11:06.71	184.51	15.64	-26.0	-27.5	15.9	7.37e-04	0	45	0	3481272320	12	4259
2026-01-21 02:11:07.71	184.55	15.53	-26.0	-27.5	15.8	5.37e-04	0	44	0	3487563776	12	4284
2026-01-21 02:11:08.71	184.60	15.43	-26.1	-27.7	15.7	1.30e-04	0	45	0	3492806656	12	4336
2026-01-21 02:11:09.72	184.64	15.32	-26.1	-27.7	15.7	7.93e-04	0	45	0	3498049536	12	4317
2026-01-21 02:11:10.72	184.69	15.21	-26.3	-28.1	15.5	0.00e+00	0	45	0	3504340992	12	4421
2026-01-21 02:11:11.72	184.73	15.11	-26.3	-28.0	15.5	1.36e-04	0	45	0	3509583872	12	4416
2026-01-21 02:11:12.72	184.78	15.00	-26.0	-27.5	15.8	1.10e-06	0	45	0	3515875328	12	4260
2026-01-21 02:11:13.73	184.82	14.90	-25.9	-27.7	16.0	8.07e-04	0	45	0	3521118208	11	4421
2026-01-21 02:11:14.73	184.87	14.79	-25.9	-27.8	16.0	1.27e-04	0	44	0	3526361088	11	4452
2026-01-21 02:11:15.73	184.91	14.69	-26.0	-27.4	15.8	9.20e-04	0	45	0	3532652544	12	4245
2026-01-21 02:11:16.73	184.95	14.58	-26.2	-28.0	15.5	7.68e-04	0	44	0	3537895424	12	4397
2026-01-21 02:11:17.74	185.00	14.48	-26.3	-28.1	15.5	1.52e-04	0	45	0	3544186880	12	4435
2026-01-21 02:11:18.74	185.04	14.38	-26.3	-28.1	15.5	9.51e-04	0	45	0	3549429760	12	4440
2026-01-21 02:11:19.74	185.08	14.27	-26.5	-28.1	15.2	1.10e-06	0	44	0	3554672640	13	4309
2026-01-21 02:11:20.75	185.12	14.17	-26.8	-28.8	14.9	1.43e-04	0	45	0	3560964096	13	4505
2026-01-21 02:11:21.75	185.17	14.07	-26.7	-28.5	14.9	9.90e-04	0	45	0	3566206976	13	4439
2026-01-21 02:11:22.75	185.21	13.97	-26.5	-28.0	15.2	7.75e-04	0	45	0	3571449856	13	4288
2026-01-21 02:11:23.76	185.25	13.87	-26.4	-27.7	15.4	1.43e-04	0	45	0	3577741312	13	4214
2026-01-21 02:11:24.76	185.29	13.77	-26.2	-27.9	15.5	1.66e-04	0	45	0	3582984192	12	4388
2026-01-21 02:11:25.76	185.33	13.67	-26.3	-28.0	15.5	6.45e-04	0	45	0	3589275648	12	4395
2026-01-21 02:11:26.76	185.37	13.57	-26.4	-28.3	15.3	1.10e-06	0	45	0	3594518528	12	4498
2026-01-21 02:11:27.76	185.41	13.47	-26.3	-28.1	15.4	7.85e-04	0	45	0	3599761408	12	4440
2026-01-21 02:11:28.77	185.45	13.37	-26.1	-27.7	15.6	5.46e-04	0	45	0	3606052864	12	4321
2026-01-21 02:11:29.77	185.49	13.27	-25.9	-27.2	15.9	1.38e-04	0	45	0	3611295744	12	4186
2026-01-21 02:11:30.78	185.53	13.17	-25.9	-27.1	16.0	0.00e+00	0	45	0	3617587200	12	4169
2026-01-21 02:11:31.79	185.57	13.07	-25.8	-27.1	16.0	0.00e+00	0	45	0	3622830080	12	4157
2026-01-21 02:11:32.80	185.61	12.98	-25.8	-27.0	16.0	1.32e-04	0	45	0	3628072960	12	4129
2026-01-21 02:11:33.80	185.65	12.88	-26.0	-27.3	15.9	0.00e+00	0	45	0	3634364416	12	4214
2026-01-21 02:11:34.80	185.69	12.78	-25.9	-27.1	15.9	4.37e-04	0	45	0	3639607296	12	4167
2026-01-21 02:11:35.80	185.73	12.69	-25.8	-27.1	16.0	0.00e+00	0	45	0	3644850176	12	4150
2026-01-21 02:11:36.81	185.77	12.59	-25.9	-27.2	15.9	1.29e-04	0	45	0	3651141632	12	4178
2026-01-21 02:11:37.81	185.81	12.50	-25.9	-27.1	15.9	0.00e+00	0	45	0	3656384512	12	4162
2026-01-21 02:11:38.81	185.84	12.40	-25.9	-27.2	15.9	0.00e+00	0	45	0	3662675968	12	4197
2026-01-21 02:11:39.82	185.88	12.31	-25.9	-27.2	15.9	5.53e-04	0	45	0	3667918848	12	4185
2026-01-21 02:11:40.82	185.92	12.21	-25.9	-27.3	15.8	0.00e+00	0	45	0	3673161728	12	4213
2026-01-21 02:11:41.82	185.96	12.12	-26.1	-27.6	15.7	1.20e-04	0	45	0	3679453184	12	4294
2026-01-21 02:11:42.83	185.99	12.02	-26.1	-27.6	15.7	0.00e+00	0	45	0	3684696064	12	4281
2026-01-21 02:11:43.83	186.03	11.93	-26.0	-27.4	15.7	0.00e+00	0	45	0	3690987520	12	4249
2026-01-21 02:11:44.84	186.07	11.84	-26.0	-27.5	15.7	0.00e+00	0	45	0	3696230400	12	4270
2026-01-21 02:11:45.84	186.10	11.74	-26.0	-27.6	15.7	0.00e+00	0	45	0	3701473280	12	4286
2026-01-21 02:11:46.84	186.14	11.65	-26.1	-27.7	15.6	0.00e+00	0	45	0	3707764736	12	4313
2026-01-21 02:11:47.85	186.18	11.56	-26.2	-27.9	15.4	0.00e+00	0	45	0	3713007616	12	4390
2026-01-21 02:11:48.85	186.21	11.47	-26.2	-27.9	15.5	1.15e-04	0	45	0	3718250496	12	4379
2026-01-21 02:11:49.85	186.25	11.38	-26.2	-27.9	15.4	0.00e+00	0	45	0	3724541952	12	4387
2026-01-21 02:11:50.85	186.28	11.29	-26.3	-28.2	15.3	0.00e+00	0	45	0	3729784832	12	4464
2026-01-21 02:11:51.86	186.32	11.20	-26.4	-28.3	15.2	0.00e+00	0	45	0	3736076288	12	4493
2026-01-21 02:11:52.86	186.35	11.11	-26.5	-28.5	15.1	0.00e+00	0	45	0	3741319168	12	4548
2026-01-21 02:11:53.86	186.39	11.02	-26.5	-28.2	15.0	4.50e-06	0	45	0	3746562048	13	4345
2026-01-21 02:11:54.87	186.42	10.93	-26.5	-28.2	15.0	0.00e+00	0	45	0	3752853504	13	4354
2026-01-21 02:11:55.87	186.46	10.84	-26.6	-28.3	14.9	0.00e+00	0	45	0	3758096384	13	4371
2026-01-21 02:11:56.87	186.49	10.75	-26.5	-28.2	15.0	4.50e-06	0	44	0	3763339264	13	4347
2026-01-21 02:11:57.87	186.52	10.66	-26.7	-28.5	14.8	0.00e+00	0	45	0	3769630720	13	4444
2026-01-21 02:11:58.87	186.56	10.57	-26.7	-28.6	14.7	0.00e+00	0	45	0	3774873600	13	4474
2026-01-21 02:11:59.87	186.59	10.48	-26.7	-28.5	14.8	0.00e+00	0	45	0	3780116480	13	4440
2026-01-21 02:12:00.87	186.62	10.40	-26.7	-28.5	14.8	0.00e+00	0	45	0	3786407936	13	4447
2026-01-21 02:12:01.87	186.66	10.31	-26.6	-28.5	14.8	1.10e-06	0	45	0	3791650816	13	4433
2026-01-21 02:12:02.88	186.69	10.22	-26.8	-28.8	14.6	2.20e-06	0	45	0	3797942272	13	4521
2026-01-21 02:12:03.89	186.72	10.13	-26.7	-28.7	14.7	0.00e+00	0	45	0	3803185152	13	4488
2026-01-21 02:12:04.89	186.76	10.05	-26.8	-28.8	14.5	0.00e+00	0	45	0	3809476608	13	4542
2026-01-21 02:12:05.90	186.79	9.96	-26.9	-28.9	14.5	2.20e-06	0	45	0	3814719488	13	4575
2026-01-21 02:12:06.90	186.82	9.87	-26.9	-29.1	14.4	4.50e-06	0	45	0	3819962368	13	4608
2026-01-21 02:12:07.91	186.85	9.79	-27.0	-28.8	14.3	1.10e-06	0	45	0	3826253824	14	4423
2026-01-21 02:12:08.91	186.89	9.70	-27.0	-28.8	14.3	6.80e-06	0	45	0	3831496704	14	4418
2026-01-21 02:12:09.92	186.92	9.62	-26.9	-28.6	14.4	1.10e-06	0	45	0	3836739584	14	4362
2026-01-21 02:12:10.92	186.95	9.53	-26.9	-29.1	14.4	1.10e-06	0	45	0	3843031040	13	4630
2026-01-21 02:12:11.92	186.98	9.45	-26.9	-29.0	14.4	2.20e-06	0	45	0	3848273920	13	4596
2026-01-21 02:12:12.92	187.01	9.36	-27.1	-28.9	14.2	0.00e+00	0	45	0	3853516800	14	4459
2026-01-21 02:12:13.92	187.04	9.28	-27.4	-29.7	13.7	8.00e-06	0	45	0	3859808256	14	4696
2026-01-21 02:12:14.93	187.07	9.20	-27.3	-29.3	13.9	1.14e-05	0	45	0	3865051136	14	4577
