passes_logs/2026/01/21/R2M6_AANII_01/R2M6_AANII_01__20260121_025710_AQUA_rec.log

#Pass ID: 20260121_025710_AQUA
#Satellite: AQUA
#Configuration: AQUA
#almurnet v.1.7.20240730
#Start time: 2026-01-21 02:57:12

#Version: 2.2.20231116
#Station: R2M6_AANII_01
#Location: 30.233357 lon 59.946436 lat
#TLE: 1 27424U 02022A   26020.30984080  .00001497  00000+0  30942-3 0  9998
#TLE: 2 27424  98.4092 346.8266 0001984  71.7888  69.0903 14.61835321261661

#Time	Az	El	Level	Level2	SNR	BER	BlckErr	Temp	State	Recorded	gain1	gain2
2026-01-21 02:57:12.64	11.09	7.15	-31.3	-47.2	3.8	7.41e-01	0	42	0	0	25	22414
2026-01-21 02:57:13.64	11.03	7.22	-32.5	-47.9	3.9	7.45e-01	0	42	104	0	25	21247
2026-01-21 02:57:14.64	10.97	7.30	-32.4	-47.7	3.8	7.45e-01	0	42	104	0	25	20834
2026-01-21 02:57:15.65	10.91	7.38	-32.4	-47.5	3.8	7.41e-01	0	42	104	0	25	20561
2026-01-21 02:57:16.65	10.86	7.46	-32.4	-47.6	3.8	7.45e-01	0	42	104	0	25	20655
2026-01-21 02:57:17.66	10.80	7.54	-32.3	-47.1	3.8	7.46e-01	0	42	104	0	25	19717
2026-01-21 02:57:18.67	10.73	7.62	-32.1	-46.4	3.8	7.47e-01	0	42	104	0	25	18685
2026-01-21 02:57:19.67	10.67	7.70	-31.8	-45.9	3.8	7.43e-01	0	42	104	0	24	18247
2026-01-21 02:57:20.67	10.61	7.78	-31.6	-45.2	3.8	7.42e-01	0	42	104	0	24	17265
2026-01-21 02:57:21.67	10.55	7.86	-31.5	-45.3	3.8	7.44e-01	0	42	104	0	23	17641
2026-01-21 02:57:22.67	10.49	7.94	-31.3	-44.8	3.8	7.44e-01	0	42	104	0	23	16979
2026-01-21 02:57:23.68	10.43	8.02	-31.4	-45.0	3.8	7.44e-01	0	42	104	0	23	17261
2026-01-21 02:57:24.67	10.36	8.10	-31.3	-44.7	3.8	7.46e-01	0	42	104	0	23	16852
2026-01-21 02:57:25.67	10.30	8.18	-31.1	-44.2	3.8	7.43e-01	0	42	104	0	23	16217
2026-01-21 02:57:26.67	10.24	8.26	-31.0	-44.5	3.8	7.44e-01	0	42	104	0	22	16977
2026-01-21 02:57:27.67	10.17	8.34	-30.9	-44.3	3.8	7.43e-01	0	42	104	0	22	16683
2026-01-21 02:57:28.67	10.11	8.42	-30.9	-44.2	3.8	7.44e-01	0	42	104	0	22	16645
2026-01-21 02:57:29.67	10.05	8.50	-31.0	-44.5	3.8	7.44e-01	0	42	104	0	22	16932
2026-01-21 02:57:30.67	9.98	8.58	-31.2	-44.5	3.8	7.47e-01	0	42	104	0	23	16604
2026-01-21 02:57:31.67	9.92	8.67	-31.4	-45.1	3.8	7.48e-01	0	42	104	0	23	17352
2026-01-21 02:57:32.67	9.85	8.75	-31.7	-45.5	3.8	7.45e-01	0	42	104	0	24	17618
2026-01-21 02:57:33.67	9.78	8.83	-32.0	-46.4	3.8	7.42e-01	0	43	104	0	24	18963
2026-01-21 02:57:34.68	9.72	8.92	-32.3	-46.9	3.8	7.47e-01	0	42	104	0	25	19329
2026-01-21 02:57:35.68	9.65	9.00	-32.6	-47.9	3.8	7.42e-01	0	42	104	0	25	21046
2026-01-21 02:57:36.68	9.58	9.08	-32.7	-48.0	3.8	7.44e-01	0	42	104	0	26	20920
2026-01-21 02:57:37.68	9.51	9.17	-32.8	-48.3	3.8	7.45e-01	0	43	104	0	26	21493
2026-01-21 02:57:38.68	9.45	9.25	-32.9	-48.7	3.8	7.49e-01	0	42	104	0	26	22154
2026-01-21 02:57:39.69	9.38	9.34	-33.0	-49.1	3.8	7.42e-01	0	42	104	0	26	23089
2026-01-21 02:57:40.69	9.31	9.42	-33.1	-49.6	3.8	7.46e-01	0	43	104	0	26	24090
2026-01-21 02:57:41.69	9.24	9.51	-33.2	-49.6	3.8	7.43e-01	0	43	104	0	27	23823
2026-01-21 02:57:42.69	9.17	9.59	-33.3	-50.2	3.8	7.45e-01	0	43	104	0	27	25054
2026-01-21 02:57:43.70	9.09	9.68	-33.4	-50.6	3.8	7.42e-01	0	43	104	0	27	26066
2026-01-21 02:57:44.70	9.02	9.76	-33.5	-50.9	3.8	7.44e-01	0	43	104	0	27	26811
2026-01-21 02:57:45.71	8.95	9.85	-33.5	-51.2	3.8	7.45e-01	0	43	104	0	27	27509
2026-01-21 02:57:46.71	8.88	9.94	-33.6	-51.4	3.8	7.48e-01	0	43	104	0	27	28167
2026-01-21 02:57:47.71	8.81	10.02	-33.5	-51.3	3.8	7.43e-01	0	43	104	0	27	27869
2026-01-21 02:57:48.72	8.73	10.11	-33.6	-51.5	3.8	7.47e-01	0	43	104	0	27	28394
2026-01-21 02:57:49.72	8.66	10.20	-33.6	-51.4	3.8	7.43e-01	0	43	104	0	27	27968
2026-01-21 02:57:50.73	8.58	10.29	-33.5	-51.0	3.8	7.44e-01	0	43	104	0	27	26917
2026-01-21 02:57:51.73	8.51	10.37	-33.4	-50.6	3.8	7.45e-01	0	43	104	0	27	26006
2026-01-21 02:57:52.74	8.43	10.46	-33.4	-50.3	3.8	7.44e-01	0	43	104	0	27	25273
2026-01-21 02:57:53.75	8.36	10.55	-33.4	-50.0	3.8	7.45e-01	0	43	104	0	27	24610
2026-01-21 02:57:54.75	8.28	10.64	-33.3	-49.8	3.8	7.45e-01	0	43	104	0	27	23930
2026-01-21 02:57:55.75	8.20	10.73	-33.2	-49.2	3.8	7.44e-01	0	43	104	0	27	22765
2026-01-21 02:57:56.76	8.12	10.82	-33.0	-48.5	3.8	7.46e-01	0	43	104	0	27	21390
2026-01-21 02:57:57.75	8.05	10.91	-32.8	-48.2	3.8	7.45e-01	0	43	104	0	26	21124
2026-01-21 02:57:58.76	7.97	11.00	-32.6	-47.3	3.8	7.45e-01	0	43	104	0	26	19508
2026-01-21 02:57:59.76	7.89	11.09	-32.3	-46.8	3.8	7.45e-01	0	43	104	0	25	19018
2026-01-21 02:58:00.77	7.81	11.18	-32.0	-45.6	3.8	7.44e-01	0	43	104	0	25	17350
2026-01-21 02:58:01.78	7.73	11.27	-31.8	-45.5	3.8	7.46e-01	0	43	104	0	24	17550
2026-01-21 02:58:02.78	7.65	11.37	-31.7	-45.2	3.8	7.45e-01	0	43	104	0	24	17075
2026-01-21 02:58:03.78	7.57	11.46	-31.6	-45.0	3.8	7.45e-01	0	43	104	0	24	16787
2026-01-21 02:58:04.79	7.48	11.55	-31.6	-45.3	3.8	7.45e-01	0	43	104	0	24	17382
2026-01-21 02:58:05.80	7.40	11.64	-31.7	-45.1	3.8	7.41e-01	0	43	104	0	24	16981
2026-01-21 02:58:06.80	7.32	11.74	-31.8	-45.5	3.8	7.45e-01	0	43	104	0	24	17512
2026-01-21 02:58:07.81	7.23	11.83	-31.6	-45.0	3.8	7.44e-01	0	43	104	0	24	16828
2026-01-21 02:58:08.81	7.15	11.92	-31.4	-44.3	3.8	7.45e-01	0	43	104	0	24	15897
2026-01-21 02:58:09.82	7.06	12.02	-31.2	-44.2	3.8	7.44e-01	0	43	104	0	23	16144
2026-01-21 02:58:10.81	6.98	12.11	-31.0	-44.3	3.8	7.44e-01	0	43	104	0	22	16591
2026-01-21 02:58:11.82	6.89	12.21	-31.1	-44.4	3.8	7.43e-01	0	43	104	0	22	16752
2026-01-21 02:58:12.82	6.80	12.30	-31.2	-44.4	3.8	7.41e-01	0	43	104	0	23	16320
2026-01-21 02:58:13.82	6.72	12.40	-31.4	-44.9	3.8	7.43e-01	0	43	104	0	23	16924
2026-01-21 02:58:14.83	6.63	12.49	-31.3	-44.5	3.8	7.40e-01	0	43	104	0	23	16488
2026-01-21 02:58:15.84	6.54	12.59	-31.0	-43.8	3.8	7.43e-01	0	43	104	0	23	15634
2026-01-21 02:58:16.84	6.45	12.69	-30.9	-44.0	3.8	7.43e-01	0	43	104	0	22	16295
2026-01-21 02:58:17.85	6.36	12.78	-30.9	-43.8	3.8	7.45e-01	0	43	104	0	22	15995
2026-01-21 02:58:18.86	6.27	12.88	-30.9	-43.9	3.8	7.46e-01	0	43	104	0	22	16064
2026-01-21 02:58:19.86	6.18	12.98	-31.1	-44.4	3.8	7.44e-01	0	43	104	0	22	16741
2026-01-21 02:58:20.86	6.08	13.08	-31.4	-44.7	3.8	7.45e-01	0	43	104	0	23	16765
2026-01-21 02:58:21.87	5.99	13.17	-31.8	-45.4	3.8	7.46e-01	0	43	104	0	24	17298
2026-01-21 02:58:22.87	5.90	13.27	-32.1	-46.1	3.8	7.45e-01	0	43	104	0	25	17931
2026-01-21 02:58:23.88	5.80	13.37	-32.4	-47.1	3.8	7.44e-01	0	43	104	0	25	19375
2026-01-21 02:58:24.89	5.71	13.47	-32.8	-47.7	3.8	7.48e-01	0	43	104	0	26	20088
2026-01-21 02:58:25.90	5.61	13.57	-33.0	-48.7	3.8	7.44e-01	0	43	104	0	26	21857
2026-01-21 02:58:26.90	5.51	13.67	-33.1	-48.5	3.8	7.42e-01	0	43	104	0	27	21157
2026-01-21 02:58:27.91	5.42	13.77	-33.2	-48.7	3.8	7.46e-01	0	43	104	0	27	21582
2026-01-21 02:58:28.91	5.32	13.87	-33.2	-49.0	3.8	7.46e-01	0	43	104	0	27	22133
2026-01-21 02:58:29.92	5.22	13.98	-33.3	-49.4	3.8	7.46e-01	0	44	104	0	27	22959
2026-01-21 02:58:30.92	5.12	14.08	-33.4	-49.9	3.8	7.45e-01	0	44	104	0	27	23913
2026-01-21 02:58:31.92	5.02	14.18	-33.5	-50.4	3.8	7.47e-01	0	43	104	0	27	25024
2026-01-21 02:58:32.93	4.92	14.28	-33.5	-50.2	3.8	7.41e-01	0	43	104	0	28	24521
2026-01-21 02:58:33.93	4.82	14.38	-33.6	-50.6	3.8	7.41e-01	0	43	104	0	28	25337
2026-01-21 02:58:34.94	4.71	14.49	-33.7	-50.9	3.8	7.46e-01	0	44	104	0	28	26017
2026-01-21 02:58:35.95	4.61	14.59	-33.6	-50.6	3.8	7.43e-01	0	43	104	0	28	25436
2026-01-21 02:58:36.95	4.51	14.70	-33.5	-50.3	3.8	7.47e-01	0	43	104	0	28	24636
2026-01-21 02:58:37.96	4.40	14.80	-33.5	-49.7	3.8	7.45e-01	0	43	104	0	28	23473
2026-01-21 02:58:38.96	4.30	14.91	-33.5	-50.2	3.8	7.47e-01	0	44	104	0	28	24430
2026-01-21 02:58:39.97	4.19	15.01	-33.5	-49.8	3.8	7.45e-01	0	43	104	0	28	23528
2026-01-21 02:58:40.97	4.08	15.12	-32.3	-48.7	3.8	7.48e-01	0	43	104	0	27	23909
2026-01-21 02:58:41.98	3.97	15.22	-33.4	-49.5	3.8	7.42e-01	0	44	104	0	26	23109
2026-01-21 02:58:42.98	3.86	15.33	-33.3	-49.1	3.8	7.47e-01	0	43	104	0	27	22246
2026-01-21 02:58:43.98	3.75	15.44	-33.2	-48.6	3.8	7.42e-01	0	44	104	0	27	21206
2026-01-21 02:58:44.99	3.64	15.54	-32.9	-48.2	3.7	7.44e-01	0	44	104	0	26	20807
2026-01-21 02:58:45.99	3.53	15.65	-32.7	-47.1	3.8	7.42e-01	0	44	104	0	26	19023
2026-01-21 02:58:47.00	3.42	15.76	-32.3	-46.0	3.8	7.42e-01	0	44	104	0	26	17379
2026-01-21 02:58:48.00	3.30	15.87	-31.9	-45.7	3.8	7.42e-01	0	43	104	0	24	17665
2026-01-21 02:58:49.01	3.19	15.98	-31.5	-45.0	3.8	7.44e-01	0	43	104	0	23	17117
2026-01-21 02:58:50.01	3.07	16.09	-31.2	-44.1	3.8	7.45e-01	0	43	104	0	23	15949
2026-01-21 02:58:51.02	2.96	16.20	-30.9	-43.8	3.8	7.45e-01	0	43	104	0	22	15889
2026-01-21 02:58:52.01	2.84	16.31	-30.7	-43.4	3.8	7.45e-01	0	44	104	0	22	15525
2026-01-21 02:58:53.02	2.72	16.42	-30.6	-43.2	3.8	7.45e-01	0	44	104	0	22	15257
2026-01-21 02:58:54.02	2.60	16.53	-30.7	-43.2	3.8	7.45e-01	0	43	104	0	22	15272
2026-01-21 02:58:55.03	2.48	16.64	-30.7	-43.4	3.8	7.42e-01	0	44	104	0	22	15451
2026-01-21 02:58:56.03	2.36	16.75	-30.9	-43.7	3.8	7.43e-01	0	44	104	0	22	15793
2026-01-21 02:58:57.03	2.24	16.87	-31.1	-44.3	3.8	7.42e-01	0	44	104	0	22	16459
2026-01-21 02:58:58.04	2.12	16.98	-30.9	-43.7	3.8	7.45e-01	0	44	104	0	22	15859
2026-01-21 02:58:59.04	1.99	17.09	-30.8	-43.4	3.9	7.44e-01	0	44	104	0	22	15500
2026-01-21 02:59:00.05	1.87	17.21	-30.9	-43.7	3.8	7.45e-01	0	44	104	0	22	15826
2026-01-21 02:59:01.04	1.74	17.32	-31.0	-44.2	3.8	7.41e-01	0	44	104	0	22	16400
2026-01-21 02:59:02.04	1.62	17.43	-31.3	-44.4	3.8	7.45e-01	0	44	104	0	23	16292
2026-01-21 02:59:03.05	1.49	17.55	-31.6	-44.9	3.8	7.45e-01	0	44	104	0	24	16569
2026-01-21 02:59:04.05	1.36	17.66	-31.9	-45.6	3.8	7.43e-01	0	44	104	0	24	17437
2026-01-21 02:59:05.05	1.23	17.78	-31.6	-44.9	3.8	7.44e-01	0	44	104	0	24	16648
2026-01-21 02:59:06.05	1.10	17.90	-31.5	-44.8	3.8	7.46e-01	0	44	104	0	23	16809
2026-01-21 02:59:07.06	0.96	18.01	-31.3	-44.5	3.8	7.45e-01	0	44	104	0	23	16433
2026-01-21 02:59:08.07	0.83	18.13	-31.3	-44.4	3.8	7.50e-01	0	44	104	0	23	16325
2026-01-21 02:59:09.06	0.70	18.25	-31.3	-44.5	3.8	7.43e-01	0	44	104	0	23	16355
2026-01-21 02:59:10.06	0.56	18.37	-31.7	-45.1	3.8	7.44e-01	0	44	104	0	24	16827
2026-01-21 02:59:11.06	0.42	18.48	-32.1	-45.8	3.9	7.44e-01	0	44	104	0	25	17430
2026-01-21 02:59:12.07	0.29	18.60	-32.5	-47.1	3.8	7.42e-01	0	44	104	0	25	19175
2026-01-21 02:59:13.07	0.15	18.72	-32.9	-47.7	3.8	7.48e-01	0	44	104	0	26	19934
2026-01-21 02:59:14.07	0.01	18.84	-33.2	-48.3	3.8	7.41e-01	0	44	104	0	27	20487
2026-01-21 02:59:15.08	359.86	18.97	-33.4	-49.1	3.8	7.42e-01	0	44	104	0	27	22020
2026-01-21 02:59:16.09	359.72	19.09	-33.5	-49.8	3.8	7.45e-01	0	44	104	0	27	23308
2026-01-21 02:59:17.09	359.58	19.21	-33.5	-49.8	3.8	7.43e-01	0	44	104	0	27	23306
2026-01-21 02:59:18.09	359.43	19.33	-33.6	-50.0	3.8	7.46e-01	0	44	104	0	27	23820
2026-01-21 02:59:19.09	359.28	19.45	-33.6	-49.7	3.8	7.46e-01	0	44	104	0	28	22960
2026-01-21 02:59:20.09	359.14	19.57	-33.7	-50.0	3.8	7.44e-01	0	44	104	0	28	23733
2026-01-21 02:59:21.09	358.99	19.70	-33.8	-50.5	3.8	7.43e-01	0	44	104	0	28	24838
2026-01-21 02:59:22.10	358.84	19.82	-33.9	-51.0	3.8	7.42e-01	0	44	104	0	28	25940
2026-01-21 02:59:23.10	358.68	19.95	-33.9	-51.3	3.8	7.45e-01	0	44	104	0	28	26606
2026-01-21 02:59:24.11	358.53	20.07	-33.8	-50.9	3.8	7.47e-01	0	44	104	0	28	25787
2026-01-21 02:59:25.11	358.38	20.20	-33.7	-50.5	3.8	7.44e-01	0	44	104	0	28	24627
2026-01-21 02:59:26.11	358.22	20.32	-33.6	-49.9	3.8	7.46e-01	0	44	104	0	28	23400
2026-01-21 02:59:27.12	358.06	20.45	-33.5	-49.2	3.8	7.47e-01	0	44	104	0	28	22024
2026-01-21 02:59:28.12	357.90	20.58	-33.4	-49.1	3.8	7.45e-01	0	44	104	0	27	21889
2026-01-21 02:59:29.12	357.74	20.70	-33.5	-49.6	3.8	7.47e-01	0	44	104	0	27	22986
2026-01-21 02:59:30.13	357.58	20.83	-33.3	-48.8	3.8	7.45e-01	0	44	104	0	27	21340
2026-01-21 02:59:31.13	357.42	20.96	-33.1	-48.0	3.8	7.46e-01	0	44	104	0	27	19918
2026-01-21 02:59:32.13	357.25	21.09	-33.0	-47.9	3.8	7.45e-01	0	44	104	0	26	20105
2026-01-21 02:59:33.14	357.09	21.22	-32.8	-47.3	3.8	7.49e-01	0	44	104	0	26	19162
2026-01-21 02:59:34.15	356.92	21.35	-32.7	-46.8	3.8	7.46e-01	0	44	104	0	26	18409
2026-01-21 02:59:35.16	356.75	21.48	-32.3	-46.2	3.8	7.45e-01	0	44	104	0	25	17861
2026-01-21 02:59:36.16	356.58	21.61	-31.9	-45.1	3.8	7.47e-01	0	44	104	0	25	16448
2026-01-21 02:59:37.16	356.41	21.74	-31.6	-44.6	3.8	7.41e-01	0	44	104	0	24	16107
2026-01-21 02:59:38.17	356.23	21.87	-31.3	-44.1	3.8	7.46e-01	0	44	104	0	23	15877
2026-01-21 02:59:39.18	356.05	22.00	-31.0	-43.5	3.8	7.42e-01	0	44	104	0	23	15119
2026-01-21 02:59:40.18	355.88	22.14	-30.8	-43.4	3.8	7.45e-01	0	44	104	0	22	15418
2026-01-21 02:59:41.19	355.70	22.27	-30.7	-43.1	3.8	7.44e-01	0	44	104	0	22	15044
2026-01-21 02:59:42.18	355.52	22.40	-30.6	-42.8	3.8	7.46e-01	0	44	104	0	22	14793
2026-01-21 02:59:43.19	355.34	22.54	-30.6	-43.4	3.8	7.45e-01	0	44	104	0	21	15737
2026-01-21 02:59:44.20	355.15	22.67	-30.7	-43.2	3.8	7.44e-01	0	44	104	0	22	15136
2026-01-21 02:59:45.20	354.97	22.81	-30.8	-43.5	3.8	7.43e-01	0	44	104	0	22	15507
2026-01-21 02:59:46.20	354.78	22.94	-31.0	-44.1	3.8	7.43e-01	0	44	104	0	22	16226
2026-01-21 02:59:47.20	354.59	23.08	-31.2	-44.1	3.8	7.46e-01	0	44	104	0	23	15932
2026-01-21 02:59:48.21	354.40	23.21	-31.3	-44.3	3.8	7.47e-01	0	44	104	0	23	16075
2026-01-21 02:59:49.22	354.21	23.35	-31.5	-44.7	3.8	7.45e-01	0	44	104	0	23	16567
2026-01-21 02:59:50.23	354.01	23.49	-31.7	-44.9	3.8	7.46e-01	0	44	104	0	24	16427
2026-01-21 02:59:51.23	353.82	23.63	-32.0	-45.8	3.8	7.44e-01	0	44	104	0	24	17533
2026-01-21 02:59:52.23	353.62	23.76	-32.4	-46.3	3.8	7.46e-01	0	44	104	0	25	17979
2026-01-21 02:59:53.23	353.42	23.90	-32.7	-46.8	3.8	7.40e-01	0	44	104	0	26	18360
2026-01-21 02:59:54.23	353.22	24.04	-32.8	-47.2	3.8	7.48e-01	0	44	104	0	26	18962
2026-01-21 02:59:55.24	353.01	24.18	-32.5	-46.3	3.8	7.44e-01	0	44	104	0	26	17559
2026-01-21 02:59:56.24	352.81	24.32	-32.4	-45.7	3.8	7.45e-01	0	44	104	0	26	16758
2026-01-21 02:59:57.24	352.60	24.46	-32.2	-45.8	3.8	7.45e-01	0	44	104	0	25	17211
2026-01-21 02:59:58.25	352.39	24.60	-32.2	-45.8	3.8	7.45e-01	0	44	104	0	25	17134
2026-01-21 02:59:59.26	352.18	24.74	-32.3	-46.2	3.8	7.44e-01	0	44	104	0	25	17752
2026-01-21 03:00:00.26	351.97	24.88	-32.8	-47.0	3.8	7.45e-01	0	44	104	0	26	18581
2026-01-21 03:00:01.26	351.75	25.02	-33.1	-48.1	3.8	7.44e-01	0	44	104	0	26	20369
2026-01-21 03:00:02.27	351.53	25.17	-33.4	-48.7	3.8	7.45e-01	0	44	104	0	27	20969
2026-01-21 03:00:03.28	351.31	25.31	-33.6	-49.5	3.8	7.44e-01	0	44	104	0	27	22533
2026-01-21 03:00:04.28	351.09	25.45	-33.7	-49.6	3.8	7.45e-01	0	44	104	0	28	22507
2026-01-21 03:00:05.29	350.87	25.60	-33.7	-49.9	3.8	7.45e-01	0	44	104	0	28	23052
2026-01-21 03:00:06.29	350.64	25.74	-33.6	-49.5	3.8	7.44e-01	0	44	104	0	28	22407
2026-01-21 03:00:07.29	350.41	25.88	-33.7	-49.5	3.8	7.45e-01	0	44	104	0	28	22377
2026-01-21 03:00:08.30	350.18	26.03	-33.7	-49.7	3.8	7.46e-01	0	44	104	0	28	22662
2026-01-21 03:00:09.30	349.95	26.17	-33.7	-49.9	3.8	7.44e-01	0	44	104	0	28	23208
2026-01-21 03:00:10.30	349.71	26.32	-33.8	-50.2	3.8	7.42e-01	0	44	104	0	28	23839
2026-01-21 03:00:11.31	349.48	26.46	-33.9	-50.7	3.8	7.46e-01	0	44	104	0	28	24968
2026-01-21 03:00:12.32	349.24	26.61	-33.9	-50.9	3.8	7.46e-01	0	44	104	0	28	25346
2026-01-21 03:00:13.31	349.00	26.75	-33.8	-50.2	3.8	7.42e-01	0	44	104	0	28	23696
2026-01-21 03:00:14.32	348.75	26.90	-33.6	-49.3	3.8	7.46e-01	0	44	104	0	28	21963
2026-01-21 03:00:15.31	348.51	27.05	-33.1	-48.1	3.8	7.47e-01	0	44	104	0	28	20119
2026-01-21 03:00:16.32	348.26	27.19	-33.2	-48.1	3.8	7.47e-01	0	44	104	0	27	19993
2026-01-21 03:00:17.32	348.01	27.34	-33.0	-47.5	3.8	7.43e-01	0	44	104	0	26	19166
2026-01-21 03:00:18.32	347.75	27.49	-32.9	-47.3	3.8	7.42e-01	0	44	104	0	26	18930
2026-01-21 03:00:19.32	347.50	27.64	-32.9	-47.6	3.8	7.47e-01	0	44	104	0	26	19412
2026-01-21 03:00:20.32	347.24	27.78	-32.6	-46.5	3.8	7.41e-01	0	44	104	0	26	17714
2026-01-21 03:00:21.33	346.98	27.93	-32.3	-45.6	3.8	7.46e-01	0	44	104	0	26	16582
2026-01-21 03:00:22.34	346.71	28.08	-32.0	-45.3	3.8	7.42e-01	0	44	104	0	25	16499
2026-01-21 03:00:23.34	346.45	28.23	-31.8	-44.4	3.8	7.51e-01	0	44	104	0	25	15469
2026-01-21 03:00:24.34	346.18	28.38	-31.5	-44.7	3.8	7.44e-01	0	44	104	0	23	16461
2026-01-21 03:00:25.35	345.91	28.53	-31.1	-43.7	3.8	7.44e-01	0	44	104	0	23	15365
2026-01-21 03:00:26.35	345.63	28.67	-30.8	-43.4	3.8	7.43e-01	0	44	104	0	22	15341
2026-01-21 03:00:27.35	345.36	28.82	-30.6	-43.3	3.8	7.47e-01	0	44	104	0	21	15621
2026-01-21 03:00:28.35	345.08	28.97	-30.3	-42.7	3.8	7.43e-01	0	44	104	0	21	14956
2026-01-21 03:00:29.35	344.80	29.12	-30.1	-42.2	3.8	7.42e-01	0	44	104	0	21	14450
2026-01-21 03:00:30.35	344.51	29.27	-30.3	-42.5	3.8	7.42e-01	0	44	104	0	21	14767
2026-01-21 03:00:31.36	344.22	29.42	-30.4	-42.9	3.8	7.41e-01	0	44	104	0	21	15161
2026-01-21 03:00:32.36	343.93	29.57	-30.3	-42.8	3.8	7.46e-01	0	44	104	0	21	15066
2026-01-21 03:00:33.37	343.64	29.72	-30.4	-42.8	3.8	7.47e-01	0	44	104	0	21	15028
2026-01-21 03:00:34.37	343.34	29.87	-30.4	-42.8	3.8	7.43e-01	0	44	104	0	21	15059
2026-01-21 03:00:35.37	343.04	30.02	-30.5	-43.2	3.8	7.44e-01	0	44	104	0	21	15489
2026-01-21 03:00:36.38	342.74	30.17	-30.8	-43.5	3.8	7.43e-01	0	44	104	0	22	15417
2026-01-21 03:00:37.38	342.44	30.32	-31.1	-43.7	3.8	7.45e-01	0	44	104	0	23	15284
2026-01-21 03:00:38.39	342.13	30.47	-31.4	-44.3	3.8	7.45e-01	0	44	104	0	23	16033
2026-01-21 03:00:39.40	341.81	30.62	-31.8	-45.0	3.8	7.43e-01	0	44	104	0	24	16418
2026-01-21 03:00:40.40	341.50	30.77	-32.2	-45.7	3.8	7.44e-01	0	44	104	0	25	16996
2026-01-21 03:00:41.41	341.18	30.92	-32.6	-46.8	3.8	7.45e-01	0	44	104	0	25	18493
2026-01-21 03:00:42.41	340.86	31.06	-32.9	-47.4	3.8	7.44e-01	0	44	104	0	26	19012
2026-01-21 03:00:43.41	340.54	31.21	-33.2	-48.0	3.8	7.47e-01	0	44	104	0	27	19639
2026-01-21 03:00:44.41	340.21	31.36	-33.3	-48.3	3.8	7.45e-01	0	44	104	0	27	20285
2026-01-21 03:00:45.41	339.89	31.51	-33.1	-47.6	3.8	7.46e-01	0	44	104	0	27	19073
2026-01-21 03:00:46.42	339.55	31.66	-32.9	-47.5	3.8	7.41e-01	0	44	104	0	26	19336
2026-01-21 03:00:47.42	339.22	31.80	-32.8	-46.9	3.8	7.44e-01	0	44	104	0	26	18369
2026-01-21 03:00:48.43	338.88	31.95	-32.6	-46.5	3.8	7.47e-01	0	44	104	0	26	17761
2026-01-21 03:00:49.43	338.53	32.10	-32.8	-46.9	3.8	7.47e-01	0	44	104	0	26	18273
2026-01-21 03:00:50.44	338.19	32.25	-33.1	-47.7	3.8	7.46e-01	0	44	104	0	27	19160
2026-01-21 03:00:51.44	337.84	32.39	-33.4	-48.8	3.8	7.43e-01	0	44	104	0	27	21206
2026-01-21 03:00:52.45	337.49	32.54	-33.6	-49.0	3.8	7.45e-01	0	44	104	0	28	21163
2026-01-21 03:00:53.45	337.13	32.68	-33.6	-49.1	3.8	7.44e-01	0	44	104	0	28	21378
2026-01-21 03:00:54.45	336.77	32.83	-33.4	-48.5	3.8	7.48e-01	0	44	104	0	28	20463
2026-01-21 03:00:55.46	336.41	32.97	-33.3	-48.2	3.8	7.45e-01	0	44	104	0	27	20004
2026-01-21 03:00:56.47	336.04	33.12	-33.0	-47.8	3.8	7.43e-01	0	44	104	0	26	19734
2026-01-21 03:00:57.47	335.67	33.26	-33.0	-47.8	3.8	7.44e-01	0	44	104	0	26	19749
2026-01-21 03:00:58.47	335.30	33.40	-33.1	-47.7	3.8	7.43e-01	0	44	104	0	27	19247
2026-01-21 03:00:59.48	334.93	33.55	-33.2	-48.0	3.8	7.44e-01	0	44	104	0	27	19723
2026-01-21 03:01:00.48	334.55	33.69	-33.4	-48.8	3.8	7.43e-01	0	44	104	0	27	21000
2026-01-21 03:01:01.49	334.16	33.83	-33.5	-48.8	3.8	7.42e-01	0	44	104	0	28	20906
2026-01-21 03:01:02.49	333.78	33.97	-33.5	-48.5	3.8	7.45e-01	0	44	104	0	28	20386
2026-01-21 03:01:03.49	333.39	34.11	-33.2	-47.8	3.8	7.44e-01	0	44	104	0	27	19389
2026-01-21 03:01:04.50	333.00	34.25	-32.9	-47.4	3.8	7.47e-01	0	44	104	0	26	19107
2026-01-21 03:01:05.50	332.60	34.38	-32.7	-46.4	3.8	7.42e-01	0	44	104	0	26	17544
2026-01-21 03:01:06.51	332.20	34.52	-32.4	-46.1	3.8	7.44e-01	0	44	104	0	25	17558
2026-01-21 03:01:07.51	331.80	34.66	-32.1	-45.3	3.8	7.45e-01	0	44	104	0	25	16462
2026-01-21 03:01:08.51	331.39	34.79	-32.2	-45.5	3.8	7.43e-01	0	44	104	0	25	16674
2026-01-21 03:01:09.51	330.98	34.92	-32.2	-45.7	3.8	7.46e-01	0	44	104	0	25	16993
2026-01-21 03:01:10.52	330.57	35.06	-32.0	-44.9	3.8	7.43e-01	0	44	104	0	25	15989
2026-01-21 03:01:11.53	330.15	35.19	-31.6	-44.4	3.8	7.43e-01	0	44	104	0	24	15643
2026-01-21 03:01:12.54	329.73	35.32	-31.2	-43.9	3.8	7.47e-01	0	44	104	0	23	15440
2026-01-21 03:01:13.54	329.30	35.45	-31.1	-43.7	3.8	7.44e-01	0	44	104	0	23	15260
2026-01-21 03:01:14.54	328.88	35.58	-31.0	-43.3	3.8	7.46e-01	0	44	104	0	23	14766
2026-01-21 03:01:15.54	328.45	35.70	-30.9	-43.7	3.8	7.44e-01	0	44	104	0	22	15601
2026-01-21 03:01:16.55	328.01	35.83	-30.9	-43.5	3.8	7.46e-01	0	44	104	0	22	15309
2026-01-21 03:01:17.55	327.57	35.95	-30.9	-43.5	3.8	7.46e-01	0	44	104	0	22	15433
2026-01-21 03:01:18.55	327.13	36.08	-30.8	-43.4	3.8	7.47e-01	0	44	104	0	22	15300
2026-01-21 03:01:19.56	326.69	36.20	-31.0	-43.7	3.8	7.44e-01	0	44	104	0	22	15597
2026-01-21 03:01:20.56	326.24	36.32	-31.4	-44.3	3.8	7.45e-01	0	44	104	0	23	15920
2026-01-21 03:01:21.57	325.79	36.44	-31.5	-44.7	3.8	7.44e-01	0	44	104	0	23	16341
2026-01-21 03:01:22.57	325.33	36.55	-31.6	-44.5	3.8	7.45e-01	0	44	104	0	24	15822
2026-01-21 03:01:23.57	324.88	36.67	-31.6	-44.5	3.8	7.45e-01	0	44	104	0	24	15747
2026-01-21 03:01:24.57	324.42	36.78	-31.8	-44.7	3.8	7.43e-01	0	44	104	0	24	16059
2026-01-21 03:01:25.58	323.95	36.90	-32.0	-45.5	3.8	7.48e-01	0	44	104	0	24	17017
2026-01-21 03:01:26.58	323.48	37.01	-32.3	-46.0	3.8	7.47e-01	0	44	104	0	25	17354
2026-01-21 03:01:27.59	323.01	37.11	-32.7	-46.6	3.8	7.45e-01	0	44	104	0	26	17808
2026-01-21 03:01:28.59	322.54	37.22	-33.0	-47.6	3.8	7.45e-01	0	44	104	0	26	19260
2026-01-21 03:01:29.59	322.06	37.32	-33.2	-47.9	3.8	7.44e-01	0	44	104	0	27	19358
2026-01-21 03:01:30.60	321.58	37.43	-33.5	-48.9	3.8	7.48e-01	0	44	104	0	27	21188
2026-01-21 03:01:31.60	321.09	37.53	-33.7	-49.2	3.8	7.44e-01	0	44	104	0	28	21640
2026-01-21 03:01:32.61	320.60	37.63	-33.8	-50.0	3.8	7.43e-01	0	44	104	0	28	23186
2026-01-21 03:01:33.62	320.11	37.73	-34.0	-50.6	3.8	7.46e-01	0	44	104	0	28	24415
2026-01-21 03:01:34.62	319.62	37.82	-33.9	-50.3	3.8	7.46e-01	0	44	104	0	28	23833
2026-01-21 03:01:35.63	319.12	37.91	-33.8	-49.9	3.8	7.45e-01	0	44	104	0	28	22911
2026-01-21 03:01:36.63	318.62	38.00	-33.7	-49.4	3.8	7.45e-01	0	44	104	0	28	21913
2026-01-21 03:01:37.62	318.13	38.09	-33.6	-49.0	3.8	7.44e-01	0	44	104	0	28	21150
2026-01-21 03:01:38.63	317.62	38.18	-33.6	-48.8	3.8	7.45e-01	0	44	104	0	28	20859
2026-01-21 03:01:39.64	317.11	38.26	-33.7	-49.5	3.8	7.45e-01	0	44	104	0	28	22185
2026-01-21 03:01:40.64	316.60	38.34	-33.8	-50.1	3.8	7.46e-01	0	44	104	0	28	23268
2026-01-21 03:01:41.64	316.09	38.42	-33.8	-49.7	3.8	7.47e-01	0	44	104	0	28	22555
2026-01-21 03:01:42.65	315.57	38.50	-33.6	-49.0	3.8	7.43e-01	0	44	104	0	28	21272
2026-01-21 03:01:43.64	315.06	38.57	-33.4	-48.2	3.8	7.43e-01	0	44	104	0	28	19760
2026-01-21 03:01:44.65	314.54	38.65	-33.1	-47.5	3.8	7.45e-01	0	44	104	0	27	18879
2026-01-21 03:01:45.65	314.02	38.72	-32.8	-46.8	3.8	7.43e-01	0	44	104	0	26	18171
2026-01-21 03:01:46.66	313.49	38.78	-32.6	-46.4	3.8	7.46e-01	0	44	104	0	26	17526
2026-01-21 03:01:47.66	312.97	38.85	-32.6	-46.4	3.8	7.45e-01	0	44	104	0	26	17576
2026-01-21 03:01:48.66	312.44	38.91	-32.7	-46.6	3.8	7.45e-01	0	44	104	0	26	17865
2026-01-21 03:01:49.67	311.90	38.97	-32.7	-46.6	3.8	7.43e-01	0	44	104	0	26	17741
2026-01-21 03:01:50.67	311.37	39.03	-32.9	-47.2	3.8	7.47e-01	0	44	104	0	26	18749
2026-01-21 03:01:51.68	310.84	39.08	-33.1	-47.8	3.8	7.45e-01	0	44	104	0	26	19570
2026-01-21 03:01:52.68	310.30	39.13	-32.9	-46.7	3.8	7.44e-01	0	44	104	0	27	17770
2026-01-21 03:01:53.68	309.76	39.18	-32.5	-46.1	3.8	7.45e-01	0	44	104	0	26	17165
2026-01-21 03:01:54.68	309.23	39.22	-32.2	-45.7	3.8	7.41e-01	0	44	104	0	25	16932
2026-01-21 03:01:55.68	308.69	39.27	-32.0	-44.8	3.8	7.45e-01	0	44	104	0	25	15820
2026-01-21 03:01:56.68	308.15	39.31	-31.7	-44.6	3.8	7.44e-01	0	44	104	0	24	15851
2026-01-21 03:01:57.69	307.60	39.34	-31.7	-44.6	3.8	7.45e-01	0	44	104	0	24	15976
2026-01-21 03:01:58.69	307.06	39.38	-31.9	-45.2	3.8	7.46e-01	0	44	104	0	24	16511
2026-01-21 03:01:59.68	306.52	39.41	-31.8	-44.7	3.8	7.45e-01	0	44	104	0	24	16014
2026-01-21 03:02:00.69	305.97	39.44	-31.3	-43.5	3.8	7.45e-01	0	44	104	0	24	14676
2026-01-21 03:02:01.69	305.42	39.47	-31.1	-43.6	3.8	7.47e-01	0	44	104	0	23	15184
2026-01-21 03:02:02.69	304.87	39.49	-31.0	-44.1	3.8	7.45e-01	0	44	104	0	22	16265
2026-01-21 03:02:03.70	304.32	39.51	-30.9	-43.6	3.8	7.45e-01	0	44	104	0	22	15609
2026-01-21 03:02:04.70	303.77	39.52	-30.8	-43.3	3.8	7.44e-01	0	44	104	0	22	15235
2026-01-21 03:02:05.70	303.22	39.54	-30.9	-43.6	3.8	7.44e-01	0	44	104	0	22	15659
2026-01-21 03:02:06.70	302.67	39.55	-31.0	-44.1	3.8	7.45e-01	0	44	104	0	22	16305
2026-01-21 03:02:07.70	302.12	39.56	-31.1	-44.1	3.8	7.42e-01	0	44	104	0	22	16238
2026-01-21 03:02:08.71	301.56	39.56	-31.3	-44.2	3.8	7.46e-01	0	44	104	0	23	15991
2026-01-21 03:02:09.72	301.01	39.57	-31.5	-44.7	3.8	7.43e-01	0	44	104	0	23	16407
2026-01-21 03:02:10.72	300.46	39.56	-31.9	-45.2	3.8	7.46e-01	0	44	104	0	24	16602
2026-01-21 03:02:11.72	299.91	39.56	-32.0	-45.7	3.8	7.47e-01	0	44	104	0	24	17279
2026-01-21 03:02:12.73	299.35	39.55	-32.0	-45.6	3.8	7.44e-01	0	44	104	0	24	17184
2026-01-21 03:02:13.73	298.80	39.54	-32.2	-45.8	3.8	7.43e-01	0	44	104	0	25	17203
2026-01-21 03:02:14.73	298.25	39.53	-32.5	-46.6	3.8	7.45e-01	0	44	104	0	25	18332
2026-01-21 03:02:15.73	297.70	39.52	-32.7	-46.9	3.8	7.40e-01	0	44	104	0	26	18452
2026-01-21 03:02:16.74	297.15	39.50	-33.0	-47.9	3.8	7.48e-01	0	44	104	0	26	20117
2026-01-21 03:02:17.74	296.60	39.48	-33.3	-48.8	3.8	7.47e-01	0	44	104	0	27	21480
2026-01-21 03:02:18.75	296.05	39.45	-33.5	-49.7	3.8	7.48e-01	0	44	104	0	27	23286
2026-01-21 03:02:19.75	295.50	39.42	-33.6	-49.6	3.8	7.47e-01	0	44	104	0	28	22825
2026-01-21 03:02:20.75	294.96	39.39	-33.7	-49.9	3.8	7.45e-01	0	44	104	0	28	23247
2026-01-21 03:02:21.76	294.41	39.36	-33.8	-50.2	3.8	7.44e-01	0	44	104	0	28	23775
2026-01-21 03:02:22.77	293.86	39.33	-33.9	-50.6	3.8	7.47e-01	0	44	104	0	28	24727
2026-01-21 03:02:23.77	293.32	39.29	-33.9	-50.8	3.8	7.49e-01	0	44	104	0	28	25232
2026-01-21 03:02:24.77	292.78	39.24	-33.9	-50.9	3.8	7.45e-01	0	44	104	0	28	25438
2026-01-21 03:02:25.78	292.23	39.20	-33.8	-50.3	3.8	7.42e-01	0	44	104	0	28	23988
2026-01-21 03:02:26.78	291.69	39.15	-33.8	-49.9	3.8	7.45e-01	0	44	104	0	28	23038
2026-01-21 03:02:27.78	291.16	39.10	-33.8	-50.0	3.8	7.47e-01	0	44	104	0	28	23205
2026-01-21 03:02:28.79	290.62	39.05	-33.7	-49.7	3.8	7.41e-01	0	44	104	0	28	22542
2026-01-21 03:02:29.80	290.08	38.99	-33.5	-48.5	3.8	7.45e-01	0	44	104	0	28	20070
2026-01-21 03:02:30.80	289.55	38.94	-33.4	-47.6	3.8	7.43e-01	0	44	104	0	28	18567
2026-01-21 03:02:31.80	289.02	38.88	-33.1	-47.2	3.8	7.42e-01	0	44	104	0	27	18134
2026-01-21 03:02:32.80	288.49	38.81	-32.7	-47.0	3.8	7.44e-01	0	44	104	0	26	18529
2026-01-21 03:02:33.81	287.97	38.75	-32.4	-45.8	3.8	7.44e-01	0	44	104	0	26	16977
2026-01-21 03:02:34.81	287.44	38.68	-32.0	-45.0	3.8	7.46e-01	0	44	104	0	25	15923
2026-01-21 03:02:35.82	286.92	38.61	-31.8	-44.7	3.8	7.43e-01	0	44	104	0	24	16018
2026-01-21 03:02:36.82	286.40	38.53	-31.5	-44.8	3.8	7.44e-01	0	44	104	0	24	16523
2026-01-21 03:02:37.82	285.89	38.46	-31.3	-44.5	3.8	7.42e-01	0	44	104	0	23	16383
2026-01-21 03:02:38.82	285.37	38.38	-31.2	-43.3	3.8	7.43e-01	0	44	104	0	23	14394
2026-01-21 03:02:39.83	284.86	38.30	-31.3	-43.9	3.8	7.44e-01	0	44	104	0	23	15322
2026-01-21 03:02:40.82	284.36	38.22	-31.5	-45.3	3.8	7.42e-01	0	44	104	0	23	17652
2026-01-21 03:02:41.83	283.85	38.13	-31.7	-44.6	3.8	7.48e-01	0	44	104	0	24	15916
2026-01-21 03:02:42.82	283.35	38.04	-31.4	-43.4	3.8	7.46e-01	0	44	104	0	24	14410
2026-01-21 03:02:43.82	282.85	37.95	-31.2	-43.8	3.8	7.45e-01	0	44	104	0	23	15386
2026-01-21 03:02:44.83	282.35	37.86	-31.2	-43.8	3.8	7.45e-01	0	44	104	0	23	15350
2026-01-21 03:02:45.83	281.85	37.77	-31.3	-44.2	3.8	7.44e-01	0	44	104	0	23	15952
2026-01-21 03:02:46.83	281.36	37.67	-31.3	-44.0	3.8	7.45e-01	0	44	104	0	23	15619
2026-01-21 03:02:47.84	280.87	37.57	-31.1	-43.7	3.8	7.44e-01	0	44	104	0	23	15318
2026-01-21 03:02:48.85	280.38	37.47	-31.3	-43.9	3.8	7.43e-01	0	44	104	0	23	15321
2026-01-21 03:02:49.85	279.90	37.37	-31.2	-43.4	3.8	7.47e-01	0	44	104	0	23	14710
2026-01-21 03:02:50.86	279.42	37.27	-30.9	-44.7	3.8	7.43e-01	0	44	104	0	22	17497
2026-01-21 03:02:51.87	278.94	37.16	-30.7	-42.4	3.8	7.46e-01	0	44	104	0	22	13807
2026-01-21 03:02:52.88	278.46	37.05	-30.6	-42.9	3.8	7.44e-01	0	44	104	0	22	14849
2026-01-21 03:02:53.88	277.99	36.94	-30.7	-43.5	3.8	7.42e-01	0	44	104	0	22	15765
2026-01-21 03:02:54.88	277.53	36.83	-30.8	-42.8	3.9	7.45e-01	0	44	104	0	22	14341
2026-01-21 03:02:55.89	277.06	36.72	-30.8	-43.4	3.8	7.47e-01	0	44	104	0	22	15402
2026-01-21 03:02:56.89	276.60	36.60	-30.9	-43.3	3.8	7.47e-01	0	44	104	0	22	14993
2026-01-21 03:02:57.90	276.14	36.48	-31.2	-43.7	3.9	7.45e-01	0	44	104	0	23	15199
2026-01-21 03:02:58.90	275.69	36.37	-31.5	-44.9	3.8	7.45e-01	0	44	104	0	23	16816
2026-01-21 03:02:59.91	275.23	36.25	-31.8	-44.5	3.8	7.47e-01	0	44	104	0	24	15642
2026-01-21 03:03:00.92	274.78	36.12	-32.1	-46.3	3.8	7.46e-01	0	44	104	0	25	18337
2026-01-21 03:03:01.92	274.34	36.00	-32.3	-45.4	3.8	7.42e-01	0	44	104	0	25	16167
2026-01-21 03:03:02.92	273.90	35.88	-32.5	-47.6	3.8	7.44e-01	0	44	104	0	25	20617
2026-01-21 03:03:03.92	273.47	35.75	-32.6	-45.7	3.8	7.44e-01	0	44	104	0	26	16193
2026-01-21 03:03:04.93	273.03	35.63	-32.9	-48.2	3.8	7.43e-01	0	44	104	0	26	21156
2026-01-21 03:03:05.93	272.60	35.50	-33.1	-46.9	3.8	7.45e-01	0	44	104	0	27	17630
2026-01-21 03:03:06.94	272.17	35.37	-33.3	-49.4	3.8	7.41e-01	0	44	104	0	27	22927
2026-01-21 03:03:07.94	271.75	35.24	-33.5	-48.3	3.8	7.44e-01	0	44	104	0	27	19987
2026-01-21 03:03:08.95	271.33	35.11	-33.6	-50.3	3.8	7.43e-01	0	44	104	0	27	24641
2026-01-21 03:03:09.95	270.91	34.97	-33.6	-48.6	3.8	7.43e-01	0	44	104	0	28	20298
2026-01-21 03:03:10.96	270.50	34.84	-33.7	-50.8	3.8	7.48e-01	0	44	104	0	28	25666
2026-01-21 03:03:11.97	270.09	34.70	-33.6	-49.1	3.8	7.46e-01	0	44	104	0	28	21333
2026-01-21 03:03:12.97	269.68	34.57	-33.5	-49.0	3.8	7.45e-01	0	44	104	0	28	21558
2026-01-21 03:03:13.97	269.28	34.43	-33.5	-49.3	3.8	7.45e-01	0	44	104	0	28	22163
2026-01-21 03:03:14.98	268.88	34.29	-33.5	-48.3	3.8	7.43e-01	0	44	104	0	28	19917
2026-01-21 03:03:15.99	268.48	34.15	-33.4	-49.4	3.8	7.44e-01	0	44	104	0	28	22682
2026-01-21 03:03:17.00	268.09	34.01	-33.3	-47.9	3.8	7.44e-01	0	44	104	0	27	19388
2026-01-21 03:03:18.00	267.70	33.87	-33.1	-48.4	3.8	7.43e-01	0	44	104	0	27	20861
2026-01-21 03:03:19.01	267.31	33.73	-32.9	-47.3	3.8	7.43e-01	0	44	104	0	27	18743
2026-01-21 03:03:20.01	266.93	33.59	-32.6	-45.9	3.8	7.41e-01	0	44	104	0	26	16687
2026-01-21 03:03:21.01	266.56	33.45	-32.3	-46.7	3.9	7.44e-01	0	44	104	0	25	19047
2026-01-21 03:03:22.01	266.18	33.31	-31.9	-44.8	3.8	7.43e-01	0	44	104	0	25	15899
2026-01-21 03:03:23.02	265.81	33.16	-31.6	-44.1	3.8	7.42e-01	0	44	104	0	24	15301
2026-01-21 03:03:24.02	265.44	33.02	-31.4	-36.7	3.8	7.22e-01	0	44	104	0	23	6643
2026-01-21 03:03:25.02	265.08	32.87	-30.6	-33.9	5.3	7.06e-01	0	44	0	0	23	5217
2026-01-21 03:03:26.02	264.72	32.73	-30.5	-33.9	5.3	7.08e-01	0	44	0	0	22	5355
2026-01-21 03:03:27.03	264.36	32.58	-30.8	-34.8	5.3	7.04e-01	0	44	0	524288	22	5738
2026-01-21 03:03:28.03	264.01	32.44	-30.7	-34.4	5.3	7.07e-01	0	44	0	1048576	22	5565
2026-01-21 03:03:29.03	263.66	32.29	-30.2	-33.7	5.3	7.06e-01	0	44	0	2097152	21	5396
2026-01-21 03:03:30.03	263.31	32.14	-30.1	-33.5	5.3	7.09e-01	0	44	0	2621440	21	5329
2026-01-21 03:03:31.03	262.97	32.00	-30.0	-33.3	5.3	7.08e-01	0	44	0	3670016	21	5264
2026-01-21 03:03:32.04	262.62	31.85	-30.0	-33.7	5.3	7.04e-01	0	44	0	4194304	20	5520
2026-01-21 03:03:33.04	262.29	31.70	-29.9	-33.4	5.3	7.07e-01	0	44	0	4718592	20	5421
2026-01-21 03:03:34.04	261.95	31.55	-30.0	-33.8	5.3	7.06e-01	0	44	0	4718592	20	5572
2026-01-21 03:03:35.04	261.62	31.40	-30.0	-33.8	5.3	7.06e-01	0	44	0	4718592	20	5563
2026-01-21 03:03:36.04	261.29	31.26	-29.8	-33.1	5.3	7.11e-01	0	44	0	4718592	20	5307
2026-01-21 03:03:37.04	260.97	31.11	-29.9	-33.5	5.3	7.06e-01	0	44	0	4718592	20	5431
2026-01-21 03:03:38.05	260.64	30.96	-30.0	-33.7	5.3	7.05e-01	0	44	0	4718592	20	5548
2026-01-21 03:03:39.05	260.33	30.81	-30.0	-33.8	5.3	7.07e-01	0	44	0	4718592	20	5569
2026-01-21 03:03:40.06	260.01	30.66	-29.7	-33.1	5.3	7.10e-01	0	44	0	4718592	20	5308
2026-01-21 03:03:41.06	259.69	30.51	-29.7	-33.0	5.3	7.05e-01	0	44	0	4718592	20	5250
2026-01-21 03:03:42.06	259.39	30.36	-29.9	-33.4	5.3	7.07e-01	0	44	0	4718592	20	5408
2026-01-21 03:03:43.07	259.08	30.21	-29.9	-33.7	5.3	7.05e-01	0	44	0	4718592	20	5515
2026-01-21 03:03:44.07	258.77	30.06	-30.1	-33.5	5.3	7.05e-01	0	44	0	4718592	21	5322
2026-01-21 03:03:45.08	258.47	29.91	-30.0	-33.3	5.3	7.09e-01	0	44	0	4718592	21	5252
2026-01-21 03:03:46.08	258.17	29.76	-29.8	-32.9	5.3	7.05e-01	0	44	0	4718592	21	5116
2026-01-21 03:03:47.09	257.87	29.61	-30.1	-33.5	5.3	7.07e-01	0	44	0	4718592	21	5334
2026-01-21 03:03:48.09	257.58	29.46	-30.1	-33.5	5.3	7.06e-01	0	44	0	4718592	21	5331
2026-01-21 03:03:49.09	257.29	29.31	-30.0	-33.9	5.3	7.04e-01	0	44	0	4718592	20	5603
2026-01-21 03:03:50.09	257.01	29.16	-30.1	-34.1	5.3	7.08e-01	0	44	0	4718592	20	5676
2026-01-21 03:03:51.10	256.72	29.01	-30.0	-33.4	5.3	7.08e-01	0	44	0	4718592	21	5283
2026-01-21 03:03:52.10	256.44	28.86	-30.3	-34.0	5.3	7.10e-01	0	44	0	4718592	21	5540
2026-01-21 03:03:53.10	256.16	28.71	-30.0	-33.8	5.3	7.11e-01	0	44	0	4718592	20	5587
2026-01-21 03:03:54.11	255.88	28.56	-29.9	-33.6	5.3	7.06e-01	0	44	0	4718592	20	5476
2026-01-21 03:03:55.11	255.61	28.41	-30.1	-33.6	5.3	7.06e-01	0	44	0	4718592	21	5384
2026-01-21 03:03:56.12	255.34	28.26	-30.3	-34.0	5.3	7.05e-01	0	44	0	4718592	21	5555
2026-01-21 03:03:57.12	255.07	28.11	-30.3	-34.2	5.3	7.11e-01	0	44	0	4718592	21	5603
2026-01-21 03:03:58.13	254.80	27.96	-29.9	-33.2	5.3	7.07e-01	0	44	0	4718592	21	5215
2026-01-21 03:03:59.13	254.54	27.81	-29.7	-33.0	5.3	7.06e-01	0	44	0	4718592	20	5262
2026-01-21 03:04:00.13	254.28	27.66	-29.8	-33.4	5.3	7.06e-01	0	44	0	4718592	20	5413
2026-01-21 03:04:01.14	254.02	27.51	-30.0	-33.8	5.3	7.09e-01	0	44	0	4718592	20	5600
2026-01-21 03:04:02.14	253.76	27.37	-30.0	-33.8	5.3	7.07e-01	0	44	0	4718592	20	5598
2026-01-21 03:04:03.14	253.51	27.22	-29.8	-33.4	5.3	7.05e-01	0	44	0	4718592	20	5429
2026-01-21 03:04:04.15	253.26	27.07	-30.0	-33.7	5.3	7.11e-01	0	44	0	4718592	20	5539
2026-01-21 03:04:05.15	253.01	26.92	-30.4	-34.3	5.3	7.08e-01	0	44	0	4718592	21	5672
2026-01-21 03:04:06.15	252.77	26.78	-30.3	-34.2	5.3	7.09e-01	0	44	0	4718592	21	5623
2026-01-21 03:04:07.16	252.52	26.63	-30.4	-34.4	5.3	7.05e-01	0	44	0	4718592	21	5691
2026-01-21 03:04:08.16	252.28	26.48	-30.0	-33.8	5.3	7.08e-01	0	44	0	4718592	20	5595
2026-01-21 03:04:09.16	252.04	26.34	-29.9	-33.6	5.3	7.07e-01	0	44	0	4718592	20	5487
2026-01-21 03:04:10.17	251.80	26.19	-30.0	-33.9	5.3	7.06e-01	0	44	0	4718592	20	5601
2026-01-21 03:04:11.17	251.57	26.05	-30.2	-33.9	5.3	7.07e-01	0	44	0	4718592	21	5525
2026-01-21 03:04:12.18	251.34	25.90	-30.2	-33.9	5.3	7.09e-01	0	44	0	4718592	21	5489
2026-01-21 03:04:13.19	251.10	25.75	-30.0	-33.7	5.3	7.06e-01	0	44	0	4718592	20	5557
2026-01-21 03:04:14.18	250.88	25.61	-29.9	-33.6	5.3	7.06e-01	0	44	0	4718592	20	5484
2026-01-21 03:04:15.18	250.65	25.47	-30.0	-33.9	5.3	7.07e-01	0	44	0	4718592	20	5615
2026-01-21 03:04:16.19	250.43	25.32	-30.0	-33.8	5.3	7.08e-01	0	44	0	4718592	20	5601
2026-01-21 03:04:17.19	250.21	25.18	-30.0	-33.9	5.3	7.10e-01	0	44	0	4718592	20	5616
2026-01-21 03:04:18.20	249.99	25.04	-30.2	-33.9	5.3	7.06e-01	0	44	0	4718592	21	5488
2026-01-21 03:04:19.20	249.77	24.90	-30.5	-34.5	5.3	7.06e-01	0	44	0	4718592	21	5758
2026-01-21 03:04:20.20	249.56	24.75	-30.4	-34.4	5.3	7.10e-01	0	44	0	4718592	21	5689
2026-01-21 03:04:21.20	249.34	24.61	-30.6	-34.5	5.3	7.08e-01	0	44	0	4718592	22	5636
2026-01-21 03:04:22.21	249.13	24.47	-30.4	-34.4	5.3	7.07e-01	0	44	0	4718592	21	5719
2026-01-21 03:04:23.21	248.92	24.33	-30.2	-33.8	5.3	7.10e-01	0	44	0	4718592	21	5465
2026-01-21 03:04:24.22	248.72	24.19	-29.9	-33.7	5.3	7.09e-01	0	44	0	4718592	20	5545
2026-01-21 03:04:25.22	248.51	24.05	-29.9	-33.7	5.3	7.06e-01	0	44	0	4718592	20	5529
2026-01-21 03:04:26.22	248.31	23.91	-30.0	-33.9	5.3	7.09e-01	0	44	0	4718592	20	5638
2026-01-21 03:04:27.23	248.11	23.77	-30.2	-33.9	5.3	7.08e-01	0	44	0	4718592	21	5520
2026-01-21 03:04:28.23	247.91	23.63	-30.1	-33.8	5.3	7.08e-01	0	44	0	4718592	21	5457
2026-01-21 03:04:29.24	247.71	23.49	-30.3	-34.2	5.3	7.08e-01	0	44	0	4718592	21	5636
2026-01-21 03:04:30.24	247.51	23.35	-30.3	-34.3	5.3	7.05e-01	0	44	0	4718592	21	5654
2026-01-21 03:04:31.25	247.32	23.22	-30.1	-33.7	5.3	7.08e-01	0	44	0	4718592	21	5422
2026-01-21 03:04:32.25	247.13	23.08	-30.0	-34.0	5.3	7.08e-01	0	44	0	4718592	20	5659
2026-01-21 03:04:33.26	246.93	22.94	-30.2	-34.0	5.3	7.07e-01	0	44	0	4718592	21	5562
2026-01-21 03:04:34.27	246.74	22.81	-30.3	-34.2	5.3	7.08e-01	0	44	0	4718592	21	5629
2026-01-21 03:04:35.27	246.56	22.67	-30.3	-34.1	5.3	7.07e-01	0	44	0	4718592	21	5574
2026-01-21 03:04:36.28	246.37	22.53	-30.4	-34.4	5.3	7.08e-01	0	44	0	4718592	21	5701
2026-01-21 03:04:37.28	246.19	22.40	-30.4	-34.6	5.3	7.07e-01	0	44	0	4718592	21	5783
2026-01-21 03:04:38.28	246.01	22.27	-30.3	-34.2	5.3	7.10e-01	0	44	0	4718592	21	5655
2026-01-21 03:04:39.29	245.82	22.13	-30.3	-34.0	5.3	7.08e-01	0	44	0	4718592	21	5566
2026-01-21 03:04:40.29	245.65	22.00	-30.2	-34.0	5.3	7.07e-01	0	44	0	4718592	21	5577
2026-01-21 03:04:41.30	245.47	21.87	-30.3	-34.1	5.3	7.07e-01	0	44	0	4718592	21	5605
2026-01-21 03:04:42.31	245.29	21.73	-30.2	-34.0	5.3	7.05e-01	0	44	0	4718592	21	5562
2026-01-21 03:04:43.31	245.12	21.60	-30.4	-34.4	5.3	7.08e-01	0	44	0	4718592	21	5711
2026-01-21 03:04:44.31	244.95	21.47	-30.2	-34.1	5.3	7.07e-01	0	44	0	4718592	21	5581
2026-01-21 03:04:45.32	244.78	21.34	-30.1	-33.8	5.3	7.09e-01	0	44	0	4718592	21	5473
2026-01-21 03:04:46.32	244.61	21.21	-30.1	-33.6	5.3	7.08e-01	0	44	0	4718592	21	5418
2026-01-21 03:04:47.33	244.44	21.08	-30.0	-34.0	5.3	7.09e-01	0	44	0	4718592	20	5690
2026-01-21 03:04:48.33	244.27	20.95	-29.9	-33.7	5.3	7.08e-01	0	44	0	4718592	20	5581
2026-01-21 03:04:49.34	244.11	20.82	-29.9	-33.6	5.3	7.11e-01	0	44	0	4718592	20	5509
2026-01-21 03:04:50.34	243.94	20.69	-30.0	-33.8	5.3	7.04e-01	0	44	0	4718592	20	5620
2026-01-21 03:04:51.35	243.78	20.56	-30.0	-34.0	5.3	7.06e-01	0	44	0	4718592	20	5682
2026-01-21 03:04:52.36	243.62	20.43	-30.0	-34.0	5.3	7.11e-01	0	44	0	4718592	20	5669
2026-01-21 03:04:53.36	243.46	20.31	-30.1	-34.2	5.3	7.06e-01	0	44	0	4718592	20	5770
2026-01-21 03:04:54.36	243.30	20.18	-30.2	-34.0	5.3	7.07e-01	0	44	0	4718592	21	5560
2026-01-21 03:04:55.36	243.15	20.06	-30.3	-34.2	5.3	7.05e-01	0	44	0	4718592	21	5627
2026-01-21 03:04:56.37	242.99	19.93	-30.1	-33.7	5.3	7.07e-01	0	44	0	4718592	21	5456
2026-01-21 03:04:57.37	242.84	19.80	-30.1	-33.8	5.3	7.06e-01	0	44	0	4718592	21	5495
2026-01-21 03:04:58.37	242.69	19.68	-30.2	-34.0	5.3	7.05e-01	0	44	0	4718592	21	5575
2026-01-21 03:04:59.38	242.54	19.56	-30.2	-34.0	5.3	7.07e-01	0	44	0	4718592	21	5577
2026-01-21 03:05:00.38	242.39	19.43	-30.2	-34.1	5.3	7.08e-01	0	44	0	4718592	21	5607
2026-01-21 03:05:01.38	242.24	19.31	-30.3	-34.3	5.3	7.08e-01	0	44	0	4718592	21	5707
2026-01-21 03:05:02.38	242.09	19.19	-30.6	-35.0	5.2	7.10e-01	0	44	0	4718592	21	5974
2026-01-21 03:05:03.38	241.95	19.06	-30.7	-34.9	5.2	7.08e-01	0	44	0	4718592	22	5816
2026-01-21 03:05:04.39	241.80	18.94	-30.6	-34.5	5.3	7.06e-01	0	44	0	4718592	22	5651
2026-01-21 03:05:05.39	241.66	18.82	-30.5	-34.8	5.3	7.09e-01	0	44	0	4718592	21	5935
2026-01-21 03:05:06.40	241.52	18.70	-30.5	-34.4	5.3	7.06e-01	0	44	0	4718592	22	5613
2026-01-21 03:05:07.40	241.38	18.58	-30.2	-34.1	5.3	7.08e-01	0	44	0	4718592	21	5621
2026-01-21 03:05:08.40	241.24	18.46	-30.0	-33.6	5.3	7.10e-01	0	44	0	4718592	21	5402
2026-01-21 03:05:09.40	241.10	18.34	-30.0	-33.9	5.3	7.06e-01	0	44	0	4718592	20	5668
2026-01-21 03:05:10.40	240.96	18.22	-30.0	-34.0	5.3	7.06e-01	0	44	0	4718592	20	5704
2026-01-21 03:05:11.41	240.83	18.10	-30.1	-33.8	5.3	7.06e-01	0	44	0	4718592	21	5509
2026-01-21 03:05:12.42	240.69	17.98	-30.3	-34.3	5.3	7.05e-01	0	44	0	4718592	21	5699
2026-01-21 03:05:13.42	240.56	17.87	-30.1	-33.8	5.3	7.05e-01	0	44	0	4718592	21	5515
2026-01-21 03:05:14.42	240.42	17.75	-30.1	-34.2	5.3	7.03e-01	0	44	0	4718592	20	5774
2026-01-21 03:05:15.42	240.29	17.63	-30.3	-34.2	5.3	7.07e-01	0	44	0	4718592	21	5669
2026-01-21 03:05:16.42	240.16	17.52	-30.3	-34.3	5.3	7.07e-01	0	44	0	4718592	21	5690
2026-01-21 03:05:17.43	240.03	17.40	-30.2	-33.9	5.3	7.09e-01	0	44	0	4718592	21	5556
2026-01-21 03:05:18.44	239.90	17.29	-30.2	-34.1	5.3	7.08e-01	0	44	0	4718592	21	5629
2026-01-21 03:05:19.44	239.78	17.17	-30.3	-34.3	5.3	7.08e-01	0	44	0	4718592	21	5700
2026-01-21 03:05:20.43	239.65	17.06	-30.3	-34.3	5.3	7.06e-01	0	44	0	4718592	21	5731
2026-01-21 03:05:21.44	239.53	16.94	-30.4	-34.7	5.3	7.07e-01	0	44	0	4718592	21	5902
2026-01-21 03:05:22.44	239.40	16.83	-30.4	-34.7	5.3	7.08e-01	0	44	0	4718592	21	5875
2026-01-21 03:05:23.45	239.28	16.72	-30.2	-34.2	5.3	7.06e-01	0	44	0	4718592	21	5679
2026-01-21 03:05:24.45	239.16	16.60	-30.1	-33.8	5.3	7.05e-01	0	44	0	4718592	21	5525
2026-01-21 03:05:25.45	239.03	16.49	-30.0	-33.6	5.3	7.09e-01	0	44	0	4718592	21	5427
2026-01-21 03:05:26.46	238.91	16.38	-29.9	-33.9	5.3	7.07e-01	0	44	0	4718592	20	5677
2026-01-21 03:05:27.46	238.79	16.27	-29.9	-33.7	5.3	7.03e-01	0	44	0	4718592	20	5602
2026-01-21 03:05:28.46	238.68	16.16	-29.8	-33.6	5.3	7.06e-01	0	44	0	4718592	20	5553
2026-01-21 03:05:29.46	238.56	16.05	-29.9	-33.8	5.4	7.04e-01	0	44	0	4718592	20	5637
2026-01-21 03:05:30.46	238.44	15.94	-30.0	-34.0	5.3	7.04e-01	0	44	0	4718592	20	5728
2026-01-21 03:05:31.45	238.33	15.83	-30.0	-34.0	5.3	7.07e-01	0	44	0	4718592	20	5740
2026-01-21 03:05:32.46	238.21	15.72	-30.0	-34.2	5.3	7.05e-01	0	44	0	4718592	20	5797
2026-01-21 03:05:33.47	238.10	15.61	-30.0	-34.0	5.3	7.01e-01	0	44	0	4718592	20	5738
2026-01-21 03:05:34.48	237.99	15.50	-28.7	-32.6	5.2	7.08e-01	0	44	0	4718592	20	5634
2026-01-21 03:05:35.48	237.87	15.40	-29.9	-34.1	5.3	7.04e-01	0	44	0	4718592	19	5833
2026-01-21 03:05:36.48	237.76	15.29	-29.9	-33.8	5.3	7.07e-01	0	44	0	4718592	20	5699
2026-01-21 03:05:37.48	237.65	15.18	-29.9	-33.7	5.3	7.07e-01	0	44	0	4718592	20	5626
2026-01-21 03:05:38.49	237.54	15.07	-29.9	-33.9	5.3	7.04e-01	0	44	0	4718592	20	5698
2026-01-21 03:05:39.50	237.43	14.97	-30.0	-34.1	5.3	7.08e-01	0	44	0	4718592	20	5775
2026-01-21 03:05:40.50	237.33	14.86	-30.1	-34.3	5.3	7.11e-01	0	44	0	4718592	20	5868
2026-01-21 03:05:41.51	237.22	14.76	-30.3	-34.4	5.2	7.05e-01	0	44	0	4718592	21	5776
2026-01-21 03:05:42.51	237.11	14.65	-30.3	-34.4	5.3	7.08e-01	0	44	0	4718592	21	5785
2026-01-21 03:05:43.51	237.01	14.55	-30.1	-34.4	5.2	7.03e-01	0	44	0	4718592	20	5907
2026-01-21 03:05:44.52	236.90	14.44	-30.0	-34.2	5.3	7.06e-01	0	44	0	4718592	20	5817
2026-01-21 03:05:45.52	236.80	14.34	-30.1	-34.3	5.2	7.06e-01	0	44	0	4718592	20	5873
2026-01-21 03:05:46.52	236.70	14.24	-30.1	-33.8	5.3	7.08e-01	0	44	0	4718592	21	5530
2026-01-21 03:05:47.53	236.60	14.13	-30.0	-33.7	5.3	7.07e-01	0	44	0	4718592	21	5492
2026-01-21 03:05:48.53	236.49	14.03	-30.0	-33.7	5.3	7.07e-01	0	44	0	4718592	21	5482
2026-01-21 03:05:49.53	236.39	13.93	-30.1	-33.8	5.2	7.09e-01	0	44	0	4718592	21	5530
2026-01-21 03:05:50.54	236.29	13.83	-30.1	-33.9	5.3	7.08e-01	0	44	0	4718592	21	5589
2026-01-21 03:05:51.55	236.19	13.72	-30.1	-34.0	5.2	7.08e-01	0	44	0	4718592	21	5617
2026-01-21 03:05:52.55	236.10	13.62	-30.1	-34.0	5.3	7.06e-01	0	44	0	4718592	21	5624
2026-01-21 03:05:53.56	236.00	13.52	-30.0	-33.7	5.3	7.07e-01	0	44	0	4718592	21	5516
2026-01-21 03:05:54.56	235.90	13.42	-30.0	-34.1	5.2	7.09e-01	0	44	0	4718592	20	5807
2026-01-21 03:05:55.56	235.81	13.32	-30.0	-34.2	5.3	7.06e-01	0	44	0	4718592	20	5830
2026-01-21 03:05:56.55	235.71	13.22	-30.1	-34.3	5.3	7.06e-01	0	44	0	4718592	20	5898
2026-01-21 03:05:57.56	235.62	13.12	-30.1	-34.3	5.2	7.06e-01	0	44	0	4718592	20	5898
2026-01-21 03:05:58.56	235.52	13.03	-30.1	-34.0	5.2	7.04e-01	0	44	0	4718592	21	5628
2026-01-21 03:05:59.56	235.43	12.93	-30.2	-34.4	5.3	7.08e-01	0	44	0	4718592	21	5799
2026-01-21 03:06:00.56	235.34	12.83	-30.3	-34.4	5.2	7.06e-01	0	44	0	4718592	21	5824
2026-01-21 03:06:01.56	235.25	12.73	-30.1	-34.0	5.3	7.07e-01	0	44	0	4718592	21	5645
2026-01-21 03:06:02.55	235.16	12.64	-30.0	-34.3	5.3	7.07e-01	0	44	0	4718592	20	5869
2026-01-21 03:06:03.56	235.06	12.54	-30.0	-34.2	5.3	7.06e-01	0	44	0	4718592	20	5859
2026-01-21 03:06:04.56	234.97	12.44	-30.1	-34.4	5.3	7.09e-01	0	44	0	4718592	20	5922
2026-01-21 03:06:05.56	234.89	12.35	-30.0	-33.8	5.2	7.09e-01	0	44	0	4718592	21	5572
2026-01-21 03:06:06.57	234.80	12.25	-30.0	-34.1	5.2	7.08e-01	0	44	0	4718592	20	5823
2026-01-21 03:06:07.57	234.71	12.16	-30.0	-34.1	5.3	7.07e-01	0	44	0	4718592	20	5807
2026-01-21 03:06:08.57	234.62	12.06	-30.0	-34.3	5.2	7.07e-01	0	44	0	4718592	20	5889
2026-01-21 03:06:09.58	234.53	11.97	-30.1	-34.4	5.3	7.10e-01	0	44	0	4718592	20	5936
2026-01-21 03:06:10.58	234.45	11.87	-30.1	-34.5	5.3	7.06e-01	0	44	0	4718592	20	5959
2026-01-21 03:06:11.59	234.36	11.78	-30.3	-34.7	5.2	7.06e-01	0	44	0	4718592	21	5928
2026-01-21 03:06:12.60	234.28	11.68	-30.4	-34.7	5.2	7.09e-01	0	44	0	4718592	21	5965
2026-01-21 03:06:13.60	234.19	11.59	-30.2	-34.4	5.3	7.06e-01	0	44	0	4718592	21	5821
2026-01-21 03:06:14.60	234.11	11.50	-30.2	-34.2	5.2	7.06e-01	0	44	0	4718592	21	5743
2026-01-21 03:06:15.60	234.03	11.40	-30.2	-34.3	5.3	7.08e-01	0	44	0	4718592	21	5789
2026-01-21 03:06:16.61	233.94	11.31	-30.2	-34.4	5.3	7.05e-01	0	44	0	4718592	21	5810
2026-01-21 03:06:17.61	233.86	11.22	-30.3	-34.6	5.2	7.07e-01	0	44	0	4718592	21	5906
2026-01-21 03:06:18.62	233.78	11.13	-30.2	-34.4	5.3	7.07e-01	0	44	0	4718592	21	5833
2026-01-21 03:06:19.62	233.70	11.04	-30.1	-34.2	5.3	7.06e-01	0	44	0	4718592	21	5718
2026-01-21 03:06:20.63	233.62	10.94	-30.1	-34.2	5.3	7.04e-01	0	44	0	4718592	21	5727
2026-01-21 03:06:21.63	233.54	10.85	-30.2	-34.2	5.3	7.08e-01	0	44	0	4718592	21	5753
2026-01-21 03:06:22.64	233.46	10.76	-30.2	-34.3	5.2	7.08e-01	0	44	0	4718592	21	5768
2026-01-21 03:06:23.64	233.38	10.67	-30.2	-34.3	5.3	7.05e-01	0	44	0	4718592	21	5770
2026-01-21 03:06:24.65	233.30	10.58	-30.1	-34.2	5.2	7.07e-01	0	44	0	4718592	21	5733
2026-01-21 03:06:25.65	233.22	10.49	-30.2	-34.4	5.2	7.02e-01	0	44	0	4718592	21	5816
2026-01-21 03:06:26.66	233.15	10.40	-30.2	-34.4	5.2	7.04e-01	0	44	0	4718592	21	5827
2026-01-21 03:06:27.67	233.07	10.31	-30.2	-34.5	5.3	7.07e-01	0	44	0	4718592	21	5855
2026-01-21 03:06:28.67	232.99	10.23	-30.3	-34.7	5.2	7.07e-01	0	44	0	4718592	21	5940
2026-01-21 03:06:29.67	232.92	10.14	-30.3	-34.7	5.3	7.07e-01	0	44	0	4718592	21	5983
2026-01-21 03:06:30.68	232.84	10.05	-30.4	-34.9	5.2	7.08e-01	0	44	0	4718592	21	6032
2026-01-21 03:06:31.68	232.77	9.96	-30.4	-35.0	5.3	7.04e-01	0	44	0	4718592	21	6082
2026-01-21 03:06:32.68	232.69	9.87	-30.4	-35.0	5.3	7.06e-01	0	44	0	4718592	21	6083
2026-01-21 03:06:33.69	232.62	9.79	-30.5	-35.3	5.2	7.08e-01	0	44	0	4718592	21	6240
2026-01-21 03:06:34.69	232.55	9.70	-30.4	-35.1	5.2	7.07e-01	0	44	0	4718592	21	6134
2026-01-21 03:06:35.69	232.47	9.61	-30.5	-35.1	5.2	7.05e-01	0	44	0	4718592	21	6173
2026-01-21 03:06:36.70	232.40	9.53	-30.4	-34.9	5.2	7.06e-01	0	44	104	4718592	21	6081
2026-01-21 03:06:37.69	232.33	9.44	-30.3	-34.0	17.6	6.00e-01	0	44	104	4718592	21	5506
2026-01-21 03:06:38.70	232.26	9.36	-30.2	-33.8	18.0	6.02e-01	0	44	0	524288	21	5408
2026-01-21 03:06:39.70	232.19	9.27	-30.2	-33.7	18.1	6.02e-01	0	44	0	2621440	21	5392
2026-01-21 03:06:40.70	232.12	9.19	-30.2	-33.7	18.1	6.02e-01	0	44	0	4718592	21	5364
2026-01-21 03:06:41.70	232.05	9.10	-30.3	-33.8	18.0	6.01e-01	0	44	0	6291456	21	5445
2026-01-21 03:06:42.71	231.98	9.02	-30.2	-33.8	18.0	6.00e-01	0	44	0	8388608	21	5425
2026-01-21 03:06:43.71	231.91	8.93	-30.3	-33.9	17.9	6.00e-01	0	44	0	9961472	21	5455
2026-01-21 03:06:44.72	231.84	8.85	-30.3	-33.9	17.9	6.02e-01	0	44	0	12058624	21	5469
2026-01-21 03:06:45.72	231.77	8.77	-30.3	-34.0	17.8	5.99e-01	0	44	0	14155776	21	5525
2026-01-21 03:06:46.73	231.71	8.68	-30.4	-34.3	17.7	6.02e-01	0	44	0	15728640	21	5621
2026-01-21 03:06:47.73	231.64	8.60	-30.3	-34.1	17.7	6.00e-01	0	44	0	17825792	21	5556
2026-01-21 03:06:48.73	231.57	8.52	-30.4	-34.4	17.6	6.03e-01	0	44	0	19398656	21	5668
2026-01-21 03:06:49.74	231.51	8.43	-30.4	-34.4	17.5	6.01e-01	0	44	0	21495808	21	5705
2026-01-21 03:06:50.74	231.44	8.35	-30.5	-34.5	17.5	6.03e-01	0	44	0	23592960	21	5737
2026-01-21 03:06:51.74	231.38	8.27	-30.4	-34.3	17.5	6.01e-01	0	44	0	25165824	21	5670
2026-01-21 03:06:52.74	231.31	8.19	-30.4	-34.3	17.6	6.02e-01	0	44	0	27262976	21	5635
2026-01-21 03:06:53.74	231.25	8.11	-30.4	-34.4	17.5	5.99e-01	0	44	0	28835840	21	5712
2026-01-21 03:06:54.74	231.18	8.03	-30.5	-34.6	17.3	6.00e-01	0	44	0	30932992	21	5782
2026-01-21 03:06:55.75	231.12	7.94	-30.5	-34.6	17.3	6.02e-01	0	44	0	32505856	21	5771
2026-01-21 03:06:56.75	231.05	7.86	-30.5	-34.6	17.3	6.02e-01	0	44	0	34603008	21	5808
2026-01-21 03:06:57.76	230.99	7.78	-30.6	-35.0	17.0	6.01e-01	0	44	0	36700160	21	5975
2026-01-21 03:06:58.77	230.93	7.70	-30.9	-35.4	16.4	6.02e-01	0	44	0	38273024	22	6041
2026-01-21 03:06:59.78	230.87	7.62	-30.8	-35.1	16.6	6.02e-01	0	44	0	40370176	22	5896
2026-01-21 03:07:00.78	230.80	7.54	-30.8	-35.2	16.5	6.04e-01	0	44	0	41943040	22	5984
2026-01-21 03:07:01.78	230.74	7.46	-30.8	-35.1	16.6	6.01e-01	0	44	0	44040192	22	5914
2026-01-21 03:07:02.79	230.68	7.38	-30.7	-35.0	16.7	6.01e-01	0	44	0	46137344	22	5857
2026-01-21 03:07:03.79	230.62	7.30	-30.7	-34.9	16.7	6.01e-01	0	44	0	47710208	22	5846
2026-01-21 03:07:04.79	230.56	7.23	-30.7	-35.0	16.6	5.99e-01	0	44	0	49807360	22	5887
2026-01-21 03:07:05.79	230.50	7.15	-30.6	-34.7	16.7	6.01e-01	0	44	0	51380224	22	5772
2026-01-21 03:07:06.79	230.44	7.07	-33.5	-51.3	3.9	7.42e-01	0	44	104	52953088	27	28003
2026-01-21 03:07:07.79	230.38	6.99	-33.9	-53.2	3.8	7.46e-01	0	44	104	52953088	28	33293

#Closed at: 2026-01-21 03:07:08
#Recorded file [52 MB]: D:/data/31010_260121_060638.dat