passes_logs/2026/01/21/R2M6_AANII_01/R2M6_AANII_01__20260121_123258_AQUA_rec.log

#Pass ID: 20260121_123258_AQUA
#Satellite: AQUA
#Configuration: AQUA
#almurnet v.1.7.20240730
#Start time: 2026-01-21 12:32:59

#Version: 2.2.20231116
#Station: R2M6_AANII_01
#Location: 30.233357 lon 59.946436 lat
#TLE: 1 27424U 02022A   26020.30984080  .00001497  00000+0  30942-3 0  9998
#TLE: 2 27424  98.4092 346.8266 0001984  71.7888  69.0903 14.61835321261661

#Time	Az	El	Level	Level2	SNR	BER	BlckErr	Temp	State	Recorded	gain1	gain2
2026-01-21 12:32:59.04	176.64	7.03	-30.6	-35.4	5.2	7.06e-01	0	42	0	0	22	6286
2026-01-21 12:33:00.04	176.68	7.11	-31.2	-37.0	5.2	7.08e-01	0	41	0	0	23	7026
2026-01-21 12:33:01.04	176.72	7.19	-31.1	-36.5	5.2	7.09e-01	0	41	0	0	23	6729
2026-01-21 12:33:02.05	176.76	7.28	-31.2	-37.0	5.2	7.08e-01	0	42	0	0	23	6997
2026-01-21 12:33:03.05	176.79	7.36	-31.1	-36.7	5.2	7.10e-01	0	41	0	0	23	6831
2026-01-21 12:33:04.06	176.83	7.44	-31.3	-37.3	5.1	7.09e-01	0	41	0	0	23	7149
2026-01-21 12:33:05.06	176.87	7.52	-31.1	-36.6	5.2	7.07e-01	0	42	0	0	23	6774
2026-01-21 12:33:06.07	176.91	7.61	-31.0	-36.1	5.2	7.07e-01	0	42	0	0	23	6468
2026-01-21 12:33:07.07	176.95	7.69	-31.1	-36.4	5.2	7.07e-01	0	42	0	0	23	6648
2026-01-21 12:33:08.07	176.99	7.77	-31.0	-36.1	5.2	7.07e-01	0	42	0	0	23	6498
2026-01-21 12:33:09.07	177.03	7.85	-30.9	-35.9	5.2	7.07e-01	0	42	0	0	23	6377
2026-01-21 12:33:10.08	177.07	7.94	-31.1	-36.4	5.2	7.10e-01	0	42	0	0	23	6617
2026-01-21 12:33:11.09	177.11	8.02	-31.1	-36.4	5.2	7.09e-01	0	42	0	0	23	6622
2026-01-21 12:33:12.08	177.15	8.11	-31.2	-36.8	5.2	7.11e-01	0	41	0	0	23	6891
2026-01-21 12:33:13.09	177.19	8.19	-31.0	-36.1	5.2	7.09e-01	0	42	0	0	23	6459
2026-01-21 12:33:14.10	177.23	8.28	-30.8	-35.3	5.2	7.06e-01	0	42	0	0	23	6073
2026-01-21 12:33:15.10	177.28	8.36	-30.5	-34.4	5.3	7.07e-01	0	42	0	0	23	5646
2026-01-21 12:33:16.11	177.32	8.45	-30.4	-34.6	5.3	7.08e-01	0	42	0	0	22	5855
2026-01-21 12:33:17.12	177.36	8.54	-30.3	-34.4	5.3	7.06e-01	0	42	0	0	22	5781
2026-01-21 12:33:18.12	177.40	8.62	-30.4	-34.6	5.3	7.06e-01	0	42	0	0	22	5869
2026-01-21 12:33:19.12	177.44	8.71	-30.4	-34.6	5.3	7.07e-01	0	42	0	0	22	5847
2026-01-21 12:33:20.12	177.49	8.79	-30.6	-35.2	5.2	7.06e-01	0	42	0	0	22	6125
2026-01-21 12:33:21.13	177.53	8.88	-30.4	-34.7	5.3	7.05e-01	0	42	0	0	22	5908
2026-01-21 12:33:22.13	177.57	8.97	-30.3	-34.4	5.3	7.06e-01	0	42	0	0	22	5784
2026-01-21 12:33:23.14	177.62	9.06	-30.2	-34.2	5.3	7.08e-01	0	42	0	0	22	5671
2026-01-21 12:33:24.14	177.66	9.15	-30.2	-34.1	5.3	7.05e-01	0	42	0	0	22	5635
2026-01-21 12:33:25.15	177.70	9.24	-30.3	-34.4	5.3	7.06e-01	0	42	0	0	22	5750
2026-01-21 12:33:26.15	177.75	9.32	-30.2	-34.1	5.3	7.08e-01	0	42	0	0	22	5624
2026-01-21 12:33:27.15	177.79	9.41	-30.4	-34.6	5.3	7.07e-01	0	42	0	0	22	5832
2026-01-21 12:33:28.15	177.84	9.50	-30.2	-34.1	5.3	7.08e-01	0	42	0	0	22	5632
2026-01-21 12:33:29.16	177.88	9.59	-30.1	-33.7	5.3	7.07e-01	0	42	0	0	22	5450
2026-01-21 12:33:30.16	177.93	9.68	-30.1	-33.8	5.3	7.06e-01	0	42	0	0	22	5515
2026-01-21 12:33:31.16	177.97	9.77	-30.2	-33.9	5.3	7.04e-01	0	42	0	0	22	5543
2026-01-21 12:33:32.17	178.02	9.86	-30.2	-34.1	5.3	7.09e-01	0	42	0	0	22	5648
2026-01-21 12:33:33.17	178.07	9.96	-30.3	-34.3	5.3	7.07e-01	0	42	0	0	22	5730
2026-01-21 12:33:34.17	178.11	10.05	-30.2	-34.1	5.3	7.06e-01	0	42	0	0	22	5617
2026-01-21 12:33:35.18	178.16	10.14	-30.2	-34.1	5.3	7.08e-01	0	42	0	0	22	5611
2026-01-21 12:33:36.18	178.21	10.23	-30.2	-33.9	5.3	7.09e-01	0	43	0	0	22	5539
2026-01-21 12:33:37.19	178.25	10.33	-30.3	-34.2	5.3	7.07e-01	0	42	0	0	22	5672
2026-01-21 12:33:38.18	178.30	10.42	-30.2	-34.1	5.3	7.05e-01	0	42	0	0	22	5634
2026-01-21 12:33:39.18	178.35	10.51	-30.3	-34.3	5.3	7.07e-01	0	42	0	0	22	5724
2026-01-21 12:33:40.19	178.40	10.61	-30.3	-34.4	5.3	7.09e-01	0	43	0	0	22	5737
2026-01-21 12:33:41.19	178.45	10.70	-30.5	-34.7	5.3	7.04e-01	0	42	0	0	22	5887
2026-01-21 12:33:42.20	178.49	10.79	-30.5	-34.9	5.3	7.04e-01	0	42	0	0	22	5979
2026-01-21 12:33:43.20	178.54	10.89	-30.3	-34.3	5.3	7.05e-01	0	42	0	0	22	5677
2026-01-21 12:33:44.20	178.59	10.98	-30.2	-34.0	5.3	7.10e-01	0	42	0	0	22	5554
2026-01-21 12:33:45.21	178.64	11.08	-30.1	-33.8	5.3	7.06e-01	0	42	0	0	22	5466
2026-01-21 12:33:46.22	178.69	11.18	-30.2	-33.9	5.3	7.08e-01	0	43	0	0	22	5527
2026-01-21 12:33:47.22	178.74	11.27	-30.3	-34.1	5.3	7.08e-01	0	43	0	0	22	5626
2026-01-21 12:33:48.22	178.79	11.37	-30.4	-34.6	5.3	7.10e-01	0	42	0	0	22	5816
2026-01-21 12:33:49.22	178.85	11.47	-30.2	-33.9	5.3	7.06e-01	0	42	0	0	22	5514
2026-01-21 12:33:50.23	178.90	11.57	-30.1	-33.7	5.3	7.05e-01	0	42	0	0	22	5428
2026-01-21 12:33:51.23	178.95	11.67	-30.0	-33.3	5.3	7.09e-01	0	43	0	0	22	5281
2026-01-21 12:33:52.23	179.00	11.76	-30.0	-33.4	5.3	7.09e-01	0	43	0	0	22	5335
2026-01-21 12:33:53.23	179.05	11.86	-30.0	-33.3	5.3	7.07e-01	0	43	0	0	22	5294
2026-01-21 12:33:54.24	179.11	11.96	-30.1	-33.8	5.3	7.07e-01	0	43	0	0	22	5458
2026-01-21 12:33:55.24	179.16	12.06	-30.0	-33.3	5.3	7.05e-01	0	43	0	0	22	5273
2026-01-21 12:33:56.24	179.21	12.16	-29.9	-33.2	5.3	7.09e-01	0	43	0	0	22	5243
2026-01-21 12:33:57.25	179.27	12.27	-29.9	-33.2	5.3	7.05e-01	0	43	0	0	22	5236
2026-01-21 12:33:58.25	179.32	12.37	-30.0	-33.3	5.3	7.06e-01	0	43	0	0	22	5271
2026-01-21 12:33:59.26	179.38	12.47	-30.0	-33.3	5.3	7.07e-01	0	43	0	0	22	5280
2026-01-21 12:34:00.26	179.43	12.57	-30.0	-33.5	5.3	7.03e-01	0	43	0	0	22	5343
2026-01-21 12:34:01.27	179.49	12.67	-30.3	-34.0	5.3	7.07e-01	0	43	0	0	22	5565
2026-01-21 12:34:02.27	179.54	12.78	-30.1	-33.5	5.3	7.07e-01	0	43	0	0	22	5362
2026-01-21 12:34:03.28	179.60	12.88	-30.0	-33.3	5.3	7.07e-01	0	43	0	0	22	5282
2026-01-21 12:34:04.28	179.66	12.99	-29.9	-33.2	5.3	7.07e-01	0	43	0	0	22	5225
2026-01-21 12:34:05.29	179.72	13.09	-29.9	-33.1	5.3	7.05e-01	0	43	0	0	22	5196
2026-01-21 12:34:06.28	179.77	13.20	-29.9	-33.0	5.3	7.07e-01	0	43	0	0	22	5157
2026-01-21 12:34:07.28	179.83	13.30	-29.9	-33.5	5.3	7.05e-01	0	43	0	0	21	5472
2026-01-21 12:34:08.29	179.89	13.41	-29.8	-33.4	5.3	7.07e-01	0	43	0	0	21	5410
2026-01-21 12:34:09.29	179.95	13.51	-29.8	-33.4	5.3	7.06e-01	0	43	0	0	21	5407
2026-01-21 12:34:10.30	180.01	13.62	-29.9	-33.5	5.3	7.06e-01	0	43	0	0	21	5453
2026-01-21 12:34:11.31	180.07	13.73	-29.9	-33.4	5.3	7.09e-01	0	43	0	0	21	5429
2026-01-21 12:34:12.31	180.13	13.84	-29.8	-33.1	5.3	7.08e-01	0	43	0	0	21	5310
2026-01-21 12:34:13.32	180.19	13.95	-29.7	-33.0	5.3	7.06e-01	0	43	0	0	21	5254
2026-01-21 12:34:14.32	180.25	14.06	-29.7	-32.9	5.3	7.04e-01	0	43	0	0	21	5226
2026-01-21 12:34:15.33	180.31	14.17	-29.7	-32.9	5.3	7.06e-01	0	43	0	0	21	5241
2026-01-21 12:34:16.33	180.37	14.28	-29.7	-33.1	5.3	7.07e-01	0	43	0	0	21	5281
2026-01-21 12:34:17.34	180.44	14.39	-29.8	-33.3	5.3	7.08e-01	0	43	0	0	21	5387
2026-01-21 12:34:18.34	180.50	14.50	-29.8	-33.3	5.3	7.06e-01	0	43	0	0	21	5360
2026-01-21 12:34:19.35	180.56	14.61	-29.9	-33.5	5.3	7.07e-01	0	43	0	0	21	5454
2026-01-21 12:34:20.35	180.63	14.72	-30.0	-33.7	5.3	7.09e-01	0	43	0	0	21	5531
2026-01-21 12:34:21.35	180.69	14.84	-29.8	-33.3	5.3	7.08e-01	0	43	0	0	21	5363
2026-01-21 12:34:22.35	180.75	14.95	-29.9	-33.5	5.3	7.05e-01	0	43	0	0	21	5432
2026-01-21 12:34:23.35	180.82	15.06	-29.9	-33.5	5.3	7.07e-01	0	43	0	0	21	5437
2026-01-21 12:34:24.35	180.89	15.18	-29.9	-33.4	5.3	7.08e-01	0	43	0	0	21	5421
2026-01-21 12:34:25.36	180.95	15.29	-29.7	-33.0	5.3	7.07e-01	0	43	0	0	21	5244
2026-01-21 12:34:26.36	181.02	15.41	-29.7	-32.9	5.3	7.08e-01	0	43	0	0	21	5217
2026-01-21 12:34:27.37	181.09	15.53	-29.7	-32.9	5.3	7.07e-01	0	43	0	0	21	5214
2026-01-21 12:34:28.38	181.16	15.64	-29.6	-32.8	5.3	7.06e-01	0	43	0	0	21	5152
2026-01-21 12:34:29.38	181.22	15.76	-29.6	-32.7	5.3	7.09e-01	0	43	0	0	21	5154
2026-01-21 12:34:30.39	181.29	15.88	-29.7	-32.8	5.3	7.06e-01	0	43	0	0	21	5179
2026-01-21 12:34:31.39	181.36	16.00	-29.7	-33.0	5.3	7.09e-01	0	43	0	0	21	5236
2026-01-21 12:34:32.39	181.43	16.12	-29.7	-33.0	5.3	7.05e-01	0	43	0	0	21	5259
2026-01-21 12:34:33.39	181.50	16.24	-29.8	-33.3	5.3	7.05e-01	0	43	0	0	21	5360
2026-01-21 12:34:34.39	181.57	16.36	-30.0	-33.7	5.3	7.04e-01	0	43	0	0	21	5534
2026-01-21 12:34:35.39	181.65	16.48	-29.9	-33.5	5.3	7.08e-01	0	43	0	0	21	5432
2026-01-21 12:34:36.40	181.72	16.60	-29.9	-33.5	5.3	7.08e-01	0	43	0	0	21	5454
2026-01-21 12:34:37.40	181.79	16.72	-30.0	-33.7	5.3	7.07e-01	0	43	0	0	21	5518
2026-01-21 12:34:38.40	181.87	16.85	-30.0	-33.8	5.3	7.04e-01	0	43	0	0	21	5571
2026-01-21 12:34:39.40	181.94	16.97	-29.9	-33.6	5.3	7.03e-01	0	43	0	0	21	5472
2026-01-21 12:34:40.40	182.01	17.09	-29.9	-33.6	5.3	7.07e-01	0	43	0	0	21	5487
2026-01-21 12:34:41.41	182.09	17.22	-29.9	-33.6	5.3	7.05e-01	0	43	0	0	21	5510
2026-01-21 12:34:42.42	182.17	17.34	-30.0	-33.8	5.3	7.07e-01	0	43	0	0	21	5578
2026-01-21 12:34:43.42	182.24	17.47	-30.2	-34.4	5.3	7.07e-01	0	43	0	0	21	5823
2026-01-21 12:34:44.42	182.32	17.60	-29.8	-33.3	5.3	7.06e-01	0	43	0	0	21	5399
2026-01-21 12:34:45.43	182.40	17.73	-29.6	-32.8	5.3	7.05e-01	0	43	0	0	21	5179
2026-01-21 12:34:46.43	182.48	17.85	-29.5	-32.5	5.3	7.03e-01	0	43	0	0	21	5063
2026-01-21 12:34:47.44	182.56	17.98	-29.5	-32.6	5.3	7.04e-01	0	43	0	0	21	5101
2026-01-21 12:34:48.44	182.64	18.11	-29.5	-32.5	5.3	7.07e-01	0	43	0	0	21	5065
2026-01-21 12:34:49.44	182.72	18.24	-29.4	-32.3	5.3	7.09e-01	0	43	0	0	21	5015
2026-01-21 12:34:50.44	182.80	18.37	-29.6	-32.7	5.3	7.07e-01	0	43	0	0	21	5169
2026-01-21 12:34:51.45	182.88	18.51	-29.7	-32.9	5.3	7.05e-01	0	43	0	0	21	5241
2026-01-21 12:34:52.45	182.97	18.64	-29.6	-32.7	5.3	7.08e-01	0	43	0	0	21	5138
2026-01-21 12:34:53.45	183.05	18.77	-29.6	-32.6	5.3	7.04e-01	0	43	0	0	21	5122
2026-01-21 12:34:54.46	183.13	18.91	-29.5	-32.6	5.3	7.08e-01	0	43	0	0	21	5123
2026-01-21 12:34:55.46	183.22	19.04	-29.6	-32.8	5.3	7.04e-01	0	43	0	0	21	5192
2026-01-21 12:34:56.46	183.30	19.18	-29.6	-32.8	5.3	7.07e-01	0	43	0	0	21	5204
2026-01-21 12:34:57.46	183.39	19.31	-29.6	-32.8	5.3	7.07e-01	0	43	0	0	21	5184
2026-01-21 12:34:58.47	183.48	19.45	-29.7	-33.0	5.3	7.05e-01	0	43	0	0	21	5275
2026-01-21 12:34:59.47	183.57	19.59	-29.6	-32.7	5.3	7.09e-01	0	43	0	0	21	5166
2026-01-21 12:35:00.48	183.66	19.73	-29.4	-32.2	5.3	7.07e-01	0	43	0	0	21	4984
2026-01-21 12:35:01.49	183.75	19.87	-29.4	-32.6	5.4	7.04e-01	0	43	0	0	20	5234
2026-01-21 12:35:02.49	183.84	20.01	-29.4	-32.6	5.3	7.05e-01	0	43	0	0	20	5244
2026-01-21 12:35:03.50	183.93	20.15	-29.4	-32.7	5.3	7.06e-01	0	43	0	0	20	5271
2026-01-21 12:35:04.50	184.02	20.29	-29.5	-33.1	5.3	7.07e-01	0	43	0	0	20	5404
2026-01-21 12:35:05.50	184.12	20.44	-29.6	-33.2	5.3	7.08e-01	0	43	0	0	20	5472
2026-01-21 12:35:06.51	184.21	20.58	-29.7	-33.4	5.3	7.06e-01	0	43	0	0	20	5544
2026-01-21 12:35:07.52	184.31	20.73	-29.7	-33.5	5.3	7.10e-01	0	43	0	0	20	5589
2026-01-21 12:35:08.52	184.40	20.87	-29.7	-33.5	5.3	7.07e-01	0	43	0	0	20	5555
2026-01-21 12:35:09.52	184.50	21.02	-29.6	-33.4	5.3	7.06e-01	0	43	0	0	20	5522
2026-01-21 12:35:10.52	184.60	21.16	-29.6	-33.3	5.3	7.05e-01	0	43	0	0	20	5490
2026-01-21 12:35:11.52	184.70	21.31	-29.6	-33.1	5.3	7.07e-01	0	43	0	0	20	5432
2026-01-21 12:35:12.53	184.80	21.46	-29.5	-32.9	5.3	7.07e-01	0	43	0	0	20	5342
2026-01-21 12:35:13.53	184.90	21.61	-29.5	-33.0	5.3	7.08e-01	0	43	0	0	20	5388
2026-01-21 12:35:14.54	185.00	21.76	-29.6	-33.2	5.3	7.06e-01	0	43	0	0	20	5464
2026-01-21 12:35:15.53	185.10	21.91	-29.7	-33.3	5.3	7.08e-01	0	43	0	0	20	5498
2026-01-21 12:35:16.54	185.21	22.06	-29.7	-33.4	5.3	7.06e-01	0	43	0	0	20	5511
2026-01-21 12:35:17.54	185.31	22.22	-29.7	-33.5	5.3	7.07e-01	0	43	0	0	20	5561
2026-01-21 12:35:18.55	185.42	22.37	-29.8	-33.6	5.3	7.05e-01	0	43	0	0	20	5589
2026-01-21 12:35:19.55	185.52	22.53	-29.9	-33.9	5.3	7.05e-01	0	43	0	0	20	5714
2026-01-21 12:35:20.56	185.63	22.68	-29.8	-33.6	5.3	7.07e-01	0	43	0	0	20	5592
2026-01-21 12:35:21.57	185.74	22.84	-29.7	-33.3	5.3	7.05e-01	0	43	0	0	20	5477
2026-01-21 12:35:22.57	185.85	23.00	-29.7	-33.3	5.3	7.05e-01	0	43	0	0	20	5463
2026-01-21 12:35:23.58	185.97	23.16	-29.7	-33.4	5.3	7.04e-01	0	43	0	0	20	5505
2026-01-21 12:35:24.58	186.08	23.32	-29.8	-33.6	5.3	7.05e-01	0	43	0	0	20	5601
2026-01-21 12:35:25.58	186.19	23.48	-29.9	-33.8	5.3	7.06e-01	0	43	0	0	20	5659
2026-01-21 12:35:26.58	186.31	23.64	-29.9	-33.9	5.3	7.07e-01	0	43	0	0	20	5691
2026-01-21 12:35:27.58	186.42	23.80	-30.0	-34.0	5.3	7.07e-01	0	43	0	0	20	5762
2026-01-21 12:35:28.59	186.54	23.97	-30.0	-34.0	5.3	7.05e-01	0	43	0	0	20	5729
2026-01-21 12:35:29.59	186.66	24.13	-30.1	-34.3	5.3	7.06e-01	0	43	0	0	20	5856
2026-01-21 12:35:30.60	186.78	24.30	-30.1	-33.9	5.3	7.08e-01	0	43	0	0	21	5562
2026-01-21 12:35:31.60	186.90	24.46	-30.1	-33.7	5.3	7.05e-01	0	43	0	0	21	5491
2026-01-21 12:35:32.60	187.02	24.63	-30.2	-34.2	5.3	7.06e-01	0	43	0	0	21	5647
2026-01-21 12:35:33.60	187.15	24.80	-30.3	-34.3	5.3	7.08e-01	0	43	0	0	21	5703
2026-01-21 12:35:34.60	187.27	24.97	-30.2	-34.1	5.3	7.06e-01	0	43	0	0	21	5632
2026-01-21 12:35:35.60	187.40	25.14	-30.2	-34.0	5.3	7.06e-01	0	43	0	0	21	5565
2026-01-21 12:35:36.61	187.53	25.31	-30.2	-34.0	5.3	7.04e-01	0	43	0	0	21	5568
2026-01-21 12:35:37.61	187.66	25.48	-30.4	-34.4	5.3	7.05e-01	0	43	0	0	21	5750
2026-01-21 12:35:38.61	187.79	25.66	-30.3	-34.3	5.3	7.06e-01	0	43	0	0	21	5675
2026-01-21 12:35:39.61	187.92	25.83	-29.9	-33.2	5.3	7.08e-01	0	43	0	0	21	5252
2026-01-21 12:35:40.61	188.05	26.01	-29.8	-33.0	5.3	7.07e-01	0	43	0	0	21	5173
2026-01-21 12:35:41.62	188.19	26.19	-29.8	-32.9	5.3	7.06e-01	0	43	0	0	21	5163
2026-01-21 12:35:42.63	188.33	26.37	-29.8	-32.9	5.3	7.04e-01	0	43	0	0	21	5168
2026-01-21 12:35:43.63	188.46	26.55	-29.9	-33.1	5.3	7.07e-01	0	43	0	0	21	5232
2026-01-21 12:35:44.63	188.60	26.73	-29.8	-32.9	5.3	7.08e-01	0	43	0	0	21	5153
2026-01-21 12:35:45.63	188.74	26.91	-29.6	-32.5	5.3	7.06e-01	0	43	0	0	21	5000
2026-01-21 12:35:46.63	188.89	27.09	-29.6	-32.5	5.3	7.05e-01	0	43	0	0	21	5021
2026-01-21 12:35:47.63	189.03	27.27	-29.6	-32.5	5.3	7.05e-01	0	43	0	0	21	5015
2026-01-21 12:35:48.64	189.18	27.46	-29.6	-32.4	5.4	7.04e-01	0	43	0	0	21	4972
2026-01-21 12:35:49.64	189.33	27.65	-29.7	-32.6	5.3	7.06e-01	0	44	0	0	21	5029
2026-01-21 12:35:50.64	189.48	27.83	-29.6	-32.4	5.3	7.05e-01	0	43	0	0	21	4964
2026-01-21 12:35:51.65	189.63	28.02	-29.6	-32.4	5.3	7.05e-01	0	43	0	0	21	4981
2026-01-21 12:35:52.66	189.78	28.21	-29.6	-32.4	5.3	7.06e-01	0	43	0	0	21	4980
2026-01-21 12:35:53.66	189.94	28.41	-29.6	-32.3	5.3	7.07e-01	0	43	0	0	21	4947
2026-01-21 12:35:54.67	190.10	28.60	-29.5	-32.3	5.3	7.05e-01	0	43	0	0	21	4929
2026-01-21 12:35:55.67	190.26	28.79	-29.5	-32.1	5.3	7.04e-01	0	43	0	0	21	4864
2026-01-21 12:35:56.68	190.42	28.99	-29.5	-32.1	5.4	7.07e-01	0	43	0	0	21	4878
2026-01-21 12:35:57.68	190.58	29.18	-29.5	-32.2	5.3	7.07e-01	0	44	0	0	21	4920
2026-01-21 12:35:58.68	190.75	29.38	-29.6	-32.4	5.3	7.07e-01	0	44	0	0	21	4983
2026-01-21 12:35:59.67	190.91	29.58	-29.6	-32.3	5.3	7.06e-01	0	43	0	0	21	4931
2026-01-21 12:36:00.67	191.08	29.78	-29.4	-31.9	5.3	7.06e-01	0	44	0	0	21	4796
2026-01-21 12:36:01.68	191.25	29.98	-29.6	-32.3	5.3	7.04e-01	0	44	0	0	21	4936
2026-01-21 12:36:02.68	191.43	30.18	-29.5	-32.2	5.3	7.03e-01	0	43	0	0	21	4906
2026-01-21 12:36:03.69	191.61	30.39	-29.5	-32.2	5.3	7.03e-01	0	43	0	0	21	4884
2026-01-21 12:36:04.69	191.78	30.59	-29.5	-32.0	5.3	7.03e-01	0	43	0	0	21	4834
2026-01-21 12:36:05.69	191.96	30.80	-29.5	-32.2	5.3	7.05e-01	0	43	0	0	21	4890
2026-01-21 12:36:06.70	192.15	31.00	-29.5	-32.2	5.3	7.04e-01	0	43	0	0	21	4906
2026-01-21 12:36:07.71	192.33	31.21	-29.7	-32.5	5.3	7.04e-01	0	43	0	0	21	5003
2026-01-21 12:36:08.70	192.52	31.42	-29.6	-32.4	5.4	7.04e-01	0	43	0	0	21	4970
2026-01-21 12:36:09.71	192.71	31.63	-29.6	-32.3	5.3	7.05e-01	0	44	0	0	21	4944
2026-01-21 12:36:10.71	192.90	31.85	-29.7	-32.6	5.3	7.09e-01	0	44	0	0	21	5034
2026-01-21 12:36:11.71	193.10	32.06	-29.7	-32.7	5.3	7.07e-01	0	44	0	0	21	5073
2026-01-21 12:36:12.71	193.30	32.27	-29.7	-32.6	5.4	7.07e-01	0	44	0	0	21	5030
2026-01-21 12:36:13.72	193.50	32.49	-29.9	-33.2	5.4	7.04e-01	0	43	0	0	21	5258
2026-01-21 12:36:14.72	193.70	32.71	-29.9	-33.2	5.3	7.06e-01	0	43	0	0	21	5253
2026-01-21 12:36:15.72	193.91	32.93	-29.8	-32.9	5.3	7.07e-01	0	44	0	0	21	5141
2026-01-21 12:36:16.72	194.11	33.15	-30.0	-33.3	5.3	7.08e-01	0	43	0	0	21	5265
2026-01-21 12:36:17.73	194.33	33.37	-30.0	-33.4	5.3	7.06e-01	0	43	0	0	21	5306
2026-01-21 12:36:18.73	194.54	33.59	-30.1	-33.6	5.3	7.05e-01	0	44	0	0	21	5411
2026-01-21 12:36:19.74	194.76	33.82	-30.1	-33.6	5.3	7.03e-01	0	44	0	0	21	5391
2026-01-21 12:36:20.74	194.98	34.04	-29.9	-33.2	5.3	7.05e-01	0	44	0	0	21	5240
2026-01-21 12:36:21.74	195.20	34.27	-30.0	-33.4	5.3	7.05e-01	0	43	0	0	21	5316
2026-01-21 12:36:22.75	195.43	34.50	-30.1	-33.6	5.3	7.08e-01	0	43	0	0	21	5404
2026-01-21 12:36:23.76	195.66	34.73	-30.3	-34.1	5.3	7.06e-01	0	44	0	0	21	5569
2026-01-21 12:36:24.76	195.90	34.96	-30.3	-34.1	5.3	7.05e-01	0	44	0	0	21	5593
2026-01-21 12:36:25.77	196.14	35.20	-30.6	-34.5	5.3	7.04e-01	0	44	0	0	22	5622
2026-01-21 12:36:26.76	196.37	35.43	-30.5	-34.1	5.3	7.05e-01	0	44	0	0	22	5448
2026-01-21 12:36:27.76	196.62	35.66	-30.3	-33.5	5.3	7.08e-01	0	44	0	0	22	5223
2026-01-21 12:36:28.76	196.86	35.90	-30.4	-34.0	5.3	7.05e-01	0	43	0	0	22	5420
2026-01-21 12:36:29.76	197.11	36.13	-30.6	-34.5	5.3	7.08e-01	0	44	0	0	22	5641
2026-01-21 12:36:30.76	197.37	36.37	-30.6	-34.3	5.3	7.07e-01	0	44	0	0	22	5554
2026-01-21 12:36:31.77	197.63	36.61	-30.7	-34.6	5.3	7.05e-01	0	44	0	0	22	5680
2026-01-21 12:36:32.77	197.89	36.85	-30.9	-35.3	5.3	7.07e-01	0	44	0	0	22	5978
2026-01-21 12:36:33.77	198.16	37.09	-31.0	-35.4	5.3	7.06e-01	0	44	0	0	22	6001
2026-01-21 12:36:34.76	198.42	37.33	-30.7	-34.8	5.3	7.08e-01	0	44	0	0	22	5734
2026-01-21 12:36:35.77	198.70	37.58	-30.7	-34.7	5.3	7.08e-01	0	44	0	0	22	5681
2026-01-21 12:36:36.78	198.98	37.83	-30.7	-34.7	5.3	7.09e-01	0	44	0	0	22	5700
2026-01-21 12:36:37.78	199.26	38.07	-30.5	-34.2	5.3	7.08e-01	0	44	0	0	22	5506
2026-01-21 12:36:38.79	199.55	38.32	-30.9	-35.1	5.3	7.08e-01	0	44	0	0	22	5889
2026-01-21 12:36:39.79	199.84	38.57	-30.8	-35.0	5.3	7.07e-01	0	43	0	0	22	5825
2026-01-21 12:36:40.79	200.14	38.82	-30.5	-34.2	5.3	7.08e-01	0	44	0	0	22	5479
2026-01-21 12:36:41.79	200.44	39.07	-30.5	-34.1	5.3	7.06e-01	0	44	0	0	22	5442
2026-01-21 12:36:42.80	200.74	39.33	-30.8	-34.8	5.3	7.06e-01	0	44	0	0	22	5757
2026-01-21 12:36:43.80	201.05	39.58	-30.7	-34.6	5.3	7.07e-01	0	44	0	0	22	5657
2026-01-21 12:36:44.81	201.37	39.84	-30.6	-34.3	5.3	7.06e-01	0	44	0	0	22	5515
2026-01-21 12:36:45.81	201.69	40.09	-30.7	-34.6	5.3	7.09e-01	0	43	0	0	22	5637
2026-01-21 12:36:46.81	202.01	40.35	-30.6	-34.4	5.3	7.06e-01	0	44	0	0	22	5578
2026-01-21 12:36:47.82	202.35	40.61	-30.4	-33.9	5.3	7.09e-01	0	44	0	0	22	5372
2026-01-21 12:36:48.82	202.68	40.86	-30.2	-33.3	5.3	7.09e-01	0	44	0	0	22	5145
2026-01-21 12:36:49.82	203.02	41.12	-30.1	-33.1	5.3	7.08e-01	0	44	0	0	22	5075
2026-01-21 12:36:50.82	203.37	41.38	-30.3	-33.4	5.3	7.05e-01	0	44	0	0	22	5201
2026-01-21 12:36:51.82	203.72	41.64	-30.0	-32.9	5.3	7.08e-01	0	44	0	0	22	5008
2026-01-21 12:36:52.82	204.08	41.90	-30.0	-32.8	5.3	7.09e-01	0	44	0	0	22	4956
2026-01-21 12:36:53.82	204.44	42.17	-29.8	-32.9	5.3	7.02e-01	0	44	0	0	21	5112
2026-01-21 12:36:54.82	204.81	42.43	-29.9	-33.0	5.3	7.05e-01	0	44	0	0	21	5175
2026-01-21 12:36:55.83	205.19	42.69	-29.8	-32.7	5.3	7.07e-01	0	44	0	0	21	5066
2026-01-21 12:36:56.84	205.57	42.96	-29.7	-32.5	5.3	7.05e-01	0	44	0	0	21	4983
2026-01-21 12:36:57.84	205.96	43.22	-29.8	-32.8	5.3	7.11e-01	0	44	0	0	21	5084
2026-01-21 12:36:58.84	206.36	43.49	-29.5	-31.9	5.4	7.06e-01	0	44	0	0	21	4796
2026-01-21 12:36:59.85	206.76	43.76	-29.2	-31.9	5.3	7.08e-01	0	43	0	0	20	4896
2026-01-21 12:37:00.85	207.17	44.02	-29.3	-32.1	5.3	7.09e-01	0	44	0	0	20	4951
2026-01-21 12:37:01.86	207.59	44.29	-29.3	-32.2	5.3	7.03e-01	0	43	0	0	20	4986
2026-01-21 12:37:02.87	208.01	44.56	-29.3	-32.1	5.3	7.06e-01	0	44	0	0	20	4972
2026-01-21 12:37:03.87	208.44	44.83	-29.3	-32.2	5.3	7.10e-01	0	44	0	0	20	4992
2026-01-21 12:37:04.87	208.88	45.09	-29.1	-31.7	5.3	7.08e-01	0	43	0	0	20	4818
2026-01-21 12:37:05.87	209.32	45.36	-29.1	-31.5	5.3	7.04e-01	0	44	0	0	20	4782
2026-01-21 12:37:06.87	209.77	45.63	-29.4	-32.2	5.3	7.06e-01	0	44	0	0	20	5015
2026-01-21 12:37:07.87	210.23	45.89	-29.2	-31.9	5.3	7.08e-01	0	43	0	0	20	4915
2026-01-21 12:37:08.87	210.70	46.16	-29.2	-31.8	5.3	7.09e-01	0	44	0	0	20	4863
2026-01-21 12:37:09.86	211.17	46.42	-29.2	-31.8	5.3	7.05e-01	0	44	0	0	20	4865
2026-01-21 12:37:10.87	211.66	46.69	-29.3	-32.1	5.3	7.04e-01	0	44	0	0	20	4978
2026-01-21 12:37:11.87	212.15	46.96	-29.3	-32.1	5.3	7.07e-01	0	44	0	0	20	4954
2026-01-21 12:37:12.88	212.65	47.22	-29.5	-32.5	5.3	7.10e-01	0	44	0	0	20	5110
2026-01-21 12:37:13.88	213.16	47.49	-29.4	-32.2	5.3	7.08e-01	0	44	0	0	20	5009
2026-01-21 12:37:14.89	213.68	47.75	-29.8	-33.4	5.3	7.08e-01	0	43	0	0	20	5440
2026-01-21 12:37:15.89	214.21	48.02	-29.5	-32.7	5.3	7.10e-01	0	44	0	0	20	5162
2026-01-21 12:37:16.89	214.74	48.28	-29.6	-32.9	5.3	7.08e-01	0	44	0	0	20	5251
2026-01-21 12:37:17.89	215.29	48.54	-29.6	-32.9	5.3	7.06e-01	0	44	0	0	20	5224
2026-01-21 12:37:18.90	215.84	48.80	-29.6	-32.9	5.3	7.08e-01	0	44	0	0	20	5228
2026-01-21 12:37:19.90	216.41	49.06	-29.9	-33.6	5.3	7.07e-01	0	44	0	0	20	5497
2026-01-21 12:37:20.91	216.98	49.32	-29.6	-32.9	5.3	7.10e-01	0	44	0	0	20	5238
2026-01-21 12:37:21.91	217.57	49.58	-29.7	-33.1	5.3	7.09e-01	0	44	0	0	20	5288
2026-01-21 12:37:22.91	218.16	49.83	-29.7	-33.0	5.3	7.09e-01	0	44	0	0	20	5282
2026-01-21 12:37:23.92	218.77	50.08	-29.7	-33.1	5.3	7.08e-01	0	44	0	0	20	5320
2026-01-21 12:37:24.92	219.38	50.33	-29.7	-33.0	5.3	7.09e-01	0	44	0	0	20	5269
2026-01-21 12:37:25.92	220.00	50.58	-29.9	-33.5	5.3	7.10e-01	0	44	0	0	20	5459
2026-01-21 12:37:26.92	220.63	50.83	-29.7	-33.1	5.3	7.06e-01	0	44	0	0	20	5290
2026-01-21 12:37:27.93	221.28	51.08	-29.4	-32.3	5.3	7.09e-01	0	44	0	0	20	5026
2026-01-21 12:37:28.93	221.93	51.32	-29.3	-32.1	5.3	7.11e-01	0	44	0	0	20	4942
2026-01-21 12:37:29.92	222.59	51.55	-29.2	-31.7	5.3	7.09e-01	0	44	0	0	20	4819
2026-01-21 12:37:30.93	223.27	51.79	-29.5	-32.5	5.3	7.03e-01	0	43	0	0	20	5077
2026-01-21 12:37:31.94	223.96	52.03	-29.2	-31.9	5.3	7.06e-01	0	44	0	0	20	4886
2026-01-21 12:37:32.94	224.66	52.26	-29.4	-32.4	5.3	7.08e-01	0	44	0	0	20	5066
2026-01-21 12:37:33.94	225.37	52.48	-29.5	-32.4	5.3	7.08e-01	0	44	0	0	20	5067
2026-01-21 12:37:34.94	226.08	52.71	-29.6	-32.9	5.3	7.06e-01	0	44	0	0	20	5230
2026-01-21 12:37:35.94	226.81	52.93	-29.4	-32.2	5.3	7.08e-01	0	43	0	0	20	4997
2026-01-21 12:37:36.94	227.55	53.14	-29.6	-32.8	5.3	7.07e-01	0	44	0	0	20	5204
2026-01-21 12:37:37.93	228.30	53.35	-29.8	-33.2	5.3	7.10e-01	0	44	0	0	20	5355
2026-01-21 12:37:38.94	229.07	53.56	-29.6	-32.7	5.3	7.09e-01	0	44	0	0	20	5157
2026-01-21 12:37:39.93	229.83	53.77	-29.8	-33.1	5.3	7.07e-01	0	44	0	0	20	5315
2026-01-21 12:37:40.94	230.62	53.97	-29.7	-33.0	5.3	7.06e-01	0	44	0	0	20	5262
2026-01-21 12:37:41.94	231.41	54.16	-29.9	-33.5	5.3	7.09e-01	0	44	0	0	20	5459
2026-01-21 12:37:42.95	232.23	54.35	-29.6	-32.7	5.3	7.06e-01	0	44	0	0	20	5169
2026-01-21 12:37:43.96	233.05	54.54	-29.9	-33.5	5.3	7.05e-01	0	44	0	0	20	5435
2026-01-21 12:37:44.96	233.88	54.72	-30.0	-33.6	5.3	7.07e-01	0	44	0	0	20	5500
2026-01-21 12:37:45.96	234.71	54.90	-29.9	-33.6	5.3	7.05e-01	0	44	0	0	20	5472
2026-01-21 12:37:46.97	235.57	55.07	-30.0	-33.8	5.3	7.09e-01	0	44	0	0	20	5539
2026-01-21 12:37:47.97	236.43	55.23	-30.0	-33.6	5.3	7.09e-01	0	44	0	0	20	5491
2026-01-21 12:37:48.97	237.29	55.39	-30.5	-34.4	5.3	7.09e-01	0	44	0	0	21	5683
2026-01-21 12:37:49.97	238.17	55.54	-30.2	-33.7	5.3	7.10e-01	0	44	0	0	21	5406
2026-01-21 12:37:50.98	239.06	55.69	-30.3	-34.0	5.3	7.09e-01	0	44	0	0	21	5519
2026-01-21 12:37:51.99	239.97	55.83	-30.7	-34.4	5.3	7.07e-01	0	44	0	0	22	5547
2026-01-21 12:37:52.99	240.87	55.96	-30.4	-33.8	5.3	7.07e-01	0	44	0	0	22	5307
2026-01-21 12:37:53.99	241.78	56.09	-30.8	-34.7	5.3	7.05e-01	0	44	0	0	22	5659
2026-01-21 12:37:55.00	242.71	56.21	-30.6	-34.3	5.3	7.08e-01	0	44	0	0	22	5495
2026-01-21 12:37:56.00	243.64	56.32	-30.5	-33.9	5.3	7.06e-01	0	44	0	0	22	5340
2026-01-21 12:37:57.01	244.58	56.43	-30.5	-33.9	5.3	7.09e-01	0	44	0	0	22	5349
2026-01-21 12:37:58.01	245.52	56.53	-30.7	-34.6	5.3	7.07e-01	0	44	0	0	22	5603
2026-01-21 12:37:59.01	246.47	56.62	-30.7	-34.3	5.3	7.03e-01	0	44	0	0	22	5500
2026-01-21 12:38:00.01	247.43	56.71	-30.7	-34.5	5.3	7.08e-01	0	44	0	0	22	5558
2026-01-21 12:38:01.02	248.40	56.78	-30.7	-34.6	5.3	7.07e-01	0	44	0	0	22	5603
2026-01-21 12:38:02.02	249.36	56.85	-30.8	-34.9	5.3	7.07e-01	0	44	0	0	22	5715
2026-01-21 12:38:03.03	250.34	56.92	-30.9	-34.9	5.3	7.10e-01	0	44	0	0	22	5735
2026-01-21 12:38:04.03	251.32	56.97	-30.9	-35.0	5.3	7.08e-01	0	44	0	0	22	5763
2026-01-21 12:38:05.04	252.30	57.02	-30.9	-35.0	5.3	7.08e-01	0	44	0	0	22	5763
2026-01-21 12:38:06.04	253.29	57.05	-31.2	-35.2	5.3	7.08e-01	0	43	0	0	23	5751
2026-01-21 12:38:07.04	254.27	57.08	-31.0	-34.6	5.3	7.07e-01	0	44	0	0	23	5480
2026-01-21 12:38:08.04	255.25	57.11	-31.0	-34.7	5.3	7.06e-01	0	44	0	0	23	5535
2026-01-21 12:38:09.05	256.25	57.12	-31.1	-35.0	5.3	7.08e-01	0	44	0	0	23	5631
2026-01-21 12:38:10.05	257.24	57.13	-31.0	-34.6	5.3	7.07e-01	0	44	0	0	23	5497
2026-01-21 12:38:11.06	258.23	57.13	-30.9	-34.6	5.3	7.09e-01	0	44	0	0	23	5461
2026-01-21 12:38:12.05	259.21	57.12	-31.3	-35.6	5.3	7.09e-01	0	44	0	0	23	5919
2026-01-21 12:38:13.06	260.21	57.10	-30.9	-34.4	5.3	7.08e-01	0	44	0	0	23	5401
2026-01-21 12:38:14.06	261.19	57.07	-30.8	-34.2	5.3	7.05e-01	0	44	0	0	23	5314
2026-01-21 12:38:15.06	262.17	57.04	-30.9	-34.5	5.3	7.08e-01	0	44	0	0	23	5423
2026-01-21 12:38:16.07	263.16	57.00	-31.0	-34.7	5.3	7.09e-01	0	44	0	0	23	5507
2026-01-21 12:38:17.07	264.14	56.95	-30.8	-34.3	5.3	7.05e-01	0	44	0	0	23	5359
2026-01-21 12:38:18.08	265.12	56.89	-31.1	-35.0	5.3	7.09e-01	0	44	0	0	23	5638
2026-01-21 12:38:19.08	266.09	56.83	-31.1	-34.9	5.3	7.08e-01	0	44	0	0	23	5611
2026-01-21 12:38:20.08	267.05	56.76	-31.0	-34.8	5.3	7.08e-01	0	44	0	0	23	5566
2026-01-21 12:38:21.08	268.01	56.68	-31.1	-35.1	5.3	7.08e-01	0	44	0	0	23	5704
2026-01-21 12:38:22.08	268.96	56.59	-31.0	-34.7	5.3	7.09e-01	0	44	0	0	23	5541
2026-01-21 12:38:23.08	269.90	56.49	-31.0	-34.6	5.3	7.09e-01	0	44	0	0	23	5495
2026-01-21 12:38:24.08	270.84	56.39	-30.9	-34.6	5.3	7.09e-01	0	44	0	0	23	5475
2026-01-21 12:38:25.09	271.78	56.28	-30.8	-34.3	5.3	7.06e-01	0	44	0	0	23	5350
2026-01-21 12:38:26.09	272.71	56.17	-30.7	-33.8	5.3	7.05e-01	0	44	0	0	23	5190
2026-01-21 12:38:27.10	273.63	56.04	-31.2	-35.3	5.2	7.08e-01	0	44	0	0	23	5799
2026-01-21 12:38:28.09	274.53	55.92	-30.7	-34.1	5.3	7.07e-01	0	44	0	0	23	5303
2026-01-21 12:38:29.10	275.44	55.78	-30.4	-33.6	5.3	7.12e-01	0	44	0	0	22	5231
2026-01-21 12:38:30.10	276.33	55.64	-30.6	-34.3	5.3	7.07e-01	0	43	0	0	22	5521
2026-01-21 12:38:31.10	277.21	55.49	-30.6	-34.3	5.3	7.11e-01	0	44	0	0	22	5488
2026-01-21 12:38:32.10	278.08	55.34	-30.5	-34.0	5.3	7.09e-01	0	44	0	0	22	5379
2026-01-21 12:38:33.11	278.95	55.17	-30.6	-34.2	5.3	7.08e-01	0	44	0	0	22	5458
2026-01-21 12:38:34.11	279.80	55.01	-31.0	-35.4	5.3	7.06e-01	0	44	0	0	22	5946
2026-01-21 12:38:35.11	280.64	54.84	-30.7	-34.5	5.3	7.08e-01	0	44	0	0	22	5597
2026-01-21 12:38:36.11	281.48	54.66	-30.6	-34.2	5.3	7.08e-01	0	44	0	0	22	5448
2026-01-21 12:38:37.11	282.30	54.48	-30.3	-33.5	5.3	7.07e-01	0	44	0	0	22	5204
2026-01-21 12:38:38.12	283.11	54.29	-30.6	-34.2	5.3	7.08e-01	0	44	0	0	22	5440
2026-01-21 12:38:39.12	283.91	54.10	-30.5	-33.8	5.3	7.07e-01	0	44	0	0	22	5301
2026-01-21 12:38:40.12	284.70	53.90	-30.5	-33.8	5.3	7.06e-01	0	44	0	0	22	5313
2026-01-21 12:38:41.13	285.49	53.70	-30.3	-33.3	5.3	7.05e-01	0	44	0	0	22	5115
2026-01-21 12:38:42.13	286.26	53.50	-30.6	-34.2	5.3	7.07e-01	0	44	0	0	22	5437
2026-01-21 12:38:43.13	287.01	53.29	-30.5	-34.0	5.3	7.04e-01	0	44	0	0	22	5364
2026-01-21 12:38:44.14	287.76	53.07	-30.5	-33.8	5.3	7.06e-01	0	44	0	0	22	5293
2026-01-21 12:38:45.14	288.50	52.85	-30.9	-35.0	5.3	7.06e-01	0	44	0	0	22	5778
2026-01-21 12:38:46.14	289.22	52.63	-30.4	-33.7	5.3	7.05e-01	0	44	0	0	22	5269
2026-01-21 12:38:47.14	289.93	52.41	-30.8	-34.7	5.3	7.08e-01	0	44	0	0	22	5626
2026-01-21 12:38:48.14	290.64	52.18	-30.6	-34.1	5.3	7.12e-01	0	44	0	0	22	5403
2026-01-21 12:38:49.14	291.33	51.95	-31.0	-35.2	5.3	7.05e-01	0	44	0	0	22	5870
2026-01-21 12:38:50.14	292.01	51.72	-30.8	-34.6	5.3	7.07e-01	0	44	0	0	22	5584
2026-01-21 12:38:51.15	292.68	51.48	-30.8	-34.7	5.3	7.09e-01	0	44	0	0	22	5638
2026-01-21 12:38:52.15	293.34	51.24	-31.1	-35.1	5.2	7.06e-01	0	44	0	0	23	5667
2026-01-21 12:38:53.16	294.00	51.00	-31.1	-34.9	5.3	7.06e-01	0	44	0	0	23	5611
2026-01-21 12:38:54.17	294.64	50.75	-31.1	-35.0	5.3	7.07e-01	0	44	0	0	23	5649
2026-01-21 12:38:55.17	295.27	50.51	-31.0	-34.7	5.3	7.08e-01	0	44	0	0	23	5520
2026-01-21 12:38:56.17	295.88	50.26	-31.3	-35.5	5.3	7.08e-01	0	44	0	0	23	5839
2026-01-21 12:38:57.17	296.49	50.01	-31.0	-34.8	5.3	7.05e-01	0	44	0	0	23	5570
2026-01-21 12:38:58.18	297.09	49.75	-31.0	-34.8	5.3	7.06e-01	0	44	0	0	23	5538
2026-01-21 12:38:59.19	297.69	49.50	-31.3	-35.6	5.3	7.07e-01	0	44	0	0	23	5916
2026-01-21 12:39:00.19	298.26	49.24	-31.1	-35.0	5.3	7.08e-01	0	44	0	0	23	5635
2026-01-21 12:39:01.20	298.83	48.98	-31.2	-35.1	5.3	7.12e-01	0	43	0	0	23	5695
2026-01-21 12:39:02.20	299.39	48.72	-31.5	-36.0	5.2	7.10e-01	0	44	0	0	23	6080
2026-01-21 12:39:03.20	299.94	48.47	-31.2	-35.4	5.3	7.09e-01	0	44	0	0	23	5824
2026-01-21 12:39:04.20	300.48	48.21	-31.1	-35.1	5.3	7.07e-01	0	44	0	0	23	5696
2026-01-21 12:39:05.20	301.01	47.94	-30.8	-34.3	5.3	7.08e-01	0	44	0	0	23	5370
2026-01-21 12:39:06.20	301.53	47.68	-30.8	-34.2	5.3	7.09e-01	0	44	0	0	23	5336
2026-01-21 12:39:07.20	302.04	47.42	-30.8	-34.2	5.3	7.10e-01	0	44	0	0	23	5340
2026-01-21 12:39:08.20	302.55	47.16	-30.7	-34.0	5.3	7.07e-01	0	44	0	0	23	5256
2026-01-21 12:39:09.20	303.04	46.89	-30.7	-33.9	5.3	7.08e-01	0	43	0	0	23	5216
2026-01-21 12:39:10.20	303.53	46.63	-31.1	-35.0	5.2	7.08e-01	0	44	0	0	23	5656
2026-01-21 12:39:11.20	304.01	46.36	-30.9	-34.6	5.3	7.07e-01	0	44	0	0	23	5477
2026-01-21 12:39:12.21	304.48	46.10	-30.7	-33.9	5.3	7.10e-01	0	44	0	0	23	5206
2026-01-21 12:39:13.21	304.95	45.83	-30.6	-33.6	5.3	7.06e-01	0	44	0	0	23	5092
2026-01-21 12:39:14.22	305.41	45.56	-30.6	-33.7	5.3	7.09e-01	0	44	0	0	23	5154
2026-01-21 12:39:15.21	305.85	45.30	-30.6	-33.8	5.3	7.11e-01	0	44	0	0	23	5173
2026-01-21 12:39:16.22	306.29	45.03	-30.7	-33.9	5.3	7.11e-01	0	44	0	0	23	5204
2026-01-21 12:39:17.22	306.73	44.77	-30.6	-33.7	5.3	7.08e-01	0	44	0	0	23	5125
2026-01-21 12:39:18.23	307.16	44.50	-30.7	-33.9	5.3	7.05e-01	0	44	0	0	23	5226
2026-01-21 12:39:19.23	307.57	44.23	-30.7	-33.9	5.3	7.08e-01	0	44	0	0	23	5206
2026-01-21 12:39:20.23	307.99	43.97	-30.8	-34.2	5.3	7.07e-01	0	44	0	0	23	5315
2026-01-21 12:39:21.23	308.39	43.70	-30.6	-33.7	5.3	7.07e-01	0	44	0	0	23	5134
2026-01-21 12:39:22.24	308.79	43.44	-30.5	-33.5	5.3	7.07e-01	0	44	0	0	23	5066
2026-01-21 12:39:23.24	309.18	43.17	-30.6	-33.8	5.3	7.07e-01	0	44	0	0	23	5200
2026-01-21 12:39:24.25	309.57	42.91	-30.8	-34.3	5.3	7.07e-01	0	44	0	0	23	5359
2026-01-21 12:39:25.25	309.95	42.65	-30.8	-34.3	5.3	7.10e-01	0	44	0	0	23	5358
2026-01-21 12:39:26.25	310.32	42.39	-30.7	-34.0	5.3	7.08e-01	0	44	0	0	23	5267
2026-01-21 12:39:27.26	310.69	42.12	-30.8	-34.3	5.3	7.10e-01	0	44	0	0	23	5361
2026-01-21 12:39:28.27	311.06	41.86	-30.9	-34.4	5.3	7.10e-01	0	44	0	0	23	5427
2026-01-21 12:39:29.27	311.41	41.60	-30.8	-34.3	5.3	7.10e-01	0	44	0	0	23	5394
2026-01-21 12:39:30.27	311.76	41.34	-30.9	-34.6	5.3	7.06e-01	0	44	0	0	23	5477
2026-01-21 12:39:31.27	312.10	41.08	-31.1	-35.1	5.3	7.10e-01	0	44	0	0	23	5702
2026-01-21 12:39:32.28	312.44	40.82	-31.1	-35.0	5.3	7.08e-01	0	44	0	0	23	5648
2026-01-21 12:39:33.29	312.78	40.56	-31.3	-35.6	5.3	7.08e-01	0	44	0	0	23	5915
2026-01-21 12:39:34.29	313.11	40.31	-31.3	-35.6	5.3	7.09e-01	0	44	0	0	23	5938
2026-01-21 12:39:35.29	313.43	40.05	-31.1	-35.0	5.3	7.10e-01	0	44	0	0	23	5676
2026-01-21 12:39:36.29	313.75	39.80	-31.2	-35.4	5.2	7.08e-01	0	44	0	0	23	5816
2026-01-21 12:39:37.30	314.06	39.55	-31.2	-35.3	5.3	7.03e-01	0	44	0	0	23	5771
2026-01-21 12:39:38.30	314.37	39.30	-31.1	-35.1	5.3	7.07e-01	0	44	0	0	23	5704
2026-01-21 12:39:39.30	314.67	39.04	-31.1	-34.9	5.3	7.08e-01	0	44	0	0	23	5630
2026-01-21 12:39:40.31	314.97	38.79	-31.1	-35.0	5.3	7.08e-01	0	44	0	0	23	5658
2026-01-21 12:39:41.31	315.27	38.55	-31.1	-35.0	5.3	7.09e-01	0	44	0	0	23	5636
2026-01-21 12:39:42.32	315.56	38.30	-31.2	-35.3	5.3	7.09e-01	0	44	0	0	23	5773
2026-01-21 12:39:43.32	315.84	38.05	-31.2	-35.4	5.3	7.12e-01	0	44	0	0	23	5838
2026-01-21 12:39:44.33	316.12	37.80	-31.0	-34.7	5.3	7.08e-01	0	44	0	0	23	5530
2026-01-21 12:39:45.33	316.40	37.56	-30.7	-34.0	5.3	7.06e-01	0	44	0	0	23	5247
2026-01-21 12:39:46.34	316.67	37.31	-30.5	-33.5	5.3	7.07e-01	0	44	0	0	23	5088
2026-01-21 12:39:47.35	316.94	37.07	-30.6	-33.8	5.3	7.09e-01	0	44	0	0	23	5187
2026-01-21 12:39:48.35	317.21	36.83	-30.6	-33.7	5.3	7.05e-01	0	44	0	0	23	5141
2026-01-21 12:39:49.35	317.47	36.59	-30.4	-33.3	5.3	7.07e-01	0	44	0	0	23	5007
2026-01-21 12:39:50.35	317.72	36.36	-30.4	-33.3	5.3	7.06e-01	0	44	0	0	23	4993
2026-01-21 12:39:51.36	317.98	36.12	-30.3	-33.5	5.3	7.07e-01	0	44	0	0	22	5209
2026-01-21 12:39:52.36	318.23	35.88	-30.3	-33.5	5.3	7.11e-01	0	44	0	0	22	5182
2026-01-21 12:39:53.36	318.47	35.65	-30.0	-32.6	5.3	7.08e-01	0	44	0	0	22	4888
2026-01-21 12:39:54.36	318.71	35.42	-29.8	-32.7	5.3	7.09e-01	0	44	0	0	21	5009
2026-01-21 12:39:55.37	318.95	35.18	-29.8	-32.8	5.3	7.05e-01	0	44	0	0	21	5071
2026-01-21 12:39:56.36	319.19	34.96	-29.9	-32.9	5.3	7.06e-01	0	44	0	0	21	5091
2026-01-21 12:39:57.37	319.42	34.72	-29.9	-32.9	5.3	7.09e-01	0	44	0	0	21	5100
2026-01-21 12:39:58.37	319.65	34.50	-29.8	-32.6	5.3	7.08e-01	0	44	0	0	21	5012
2026-01-21 12:39:59.37	319.87	34.27	-29.8	-32.8	5.3	7.01e-01	0	44	0	0	21	5079
2026-01-21 12:40:00.38	320.10	34.04	-29.8	-32.7	5.3	7.05e-01	0	44	0	0	21	5021
2026-01-21 12:40:01.38	320.32	33.82	-29.6	-32.2	5.3	7.08e-01	0	44	0	0	21	4846
2026-01-21 12:40:02.38	320.53	33.60	-29.5	-32.1	5.3	7.07e-01	0	44	0	0	21	4813
2026-01-21 12:40:03.39	320.75	33.38	-29.5	-31.9	5.3	7.08e-01	0	44	0	0	21	4754
2026-01-21 12:40:04.39	320.96	33.16	-29.4	-31.8	5.3	7.08e-01	0	44	0	0	21	4732
2026-01-21 12:40:05.39	321.16	32.94	-29.4	-31.8	5.3	7.09e-01	0	44	0	0	21	4730
2026-01-21 12:40:06.40	321.37	32.72	-29.3	-32.1	5.3	7.09e-01	0	44	0	0	20	4948
2026-01-21 12:40:07.41	321.57	32.50	-29.3	-32.1	5.3	7.11e-01	0	44	0	0	20	4937
2026-01-21 12:40:08.41	321.77	32.29	-29.4	-32.3	5.3	7.08e-01	0	44	0	0	20	5005
2026-01-21 12:40:09.41	321.97	32.07	-29.4	-32.3	5.3	7.07e-01	0	44	0	0	20	5019
2026-01-21 12:40:10.41	322.16	31.86	-29.4	-32.1	5.3	7.05e-01	0	44	0	0	20	4957
2026-01-21 12:40:11.41	322.35	31.65	-29.3	-32.1	5.3	7.04e-01	0	44	0	0	20	4940
2026-01-21 12:40:12.41	322.54	31.44	-29.3	-32.1	5.3	7.08e-01	0	44	0	0	20	4939
2026-01-21 12:40:13.42	322.73	31.23	-29.4	-32.2	5.3	7.06e-01	0	44	0	0	20	4978
2026-01-21 12:40:14.42	322.92	31.03	-29.4	-32.2	5.3	7.07e-01	0	44	0	0	20	4996
2026-01-21 12:40:15.43	323.10	30.82	-29.5	-32.4	5.3	7.03e-01	0	44	0	0	20	5057
2026-01-21 12:40:16.43	323.28	30.62	-29.5	-32.6	5.3	7.08e-01	0	44	0	0	20	5103
2026-01-21 12:40:17.44	323.46	30.41	-29.5	-32.6	5.3	7.05e-01	0	44	0	0	20	5105
2026-01-21 12:40:18.44	323.63	30.21	-29.6	-32.8	5.3	7.05e-01	0	44	0	0	20	5186
2026-01-21 12:40:19.44	323.80	30.01	-29.5	-32.6	5.3	7.07e-01	0	44	0	0	20	5112
2026-01-21 12:40:20.45	323.98	29.81	-29.6	-32.6	5.3	7.07e-01	0	44	0	0	20	5123
2026-01-21 12:40:21.46	324.15	29.61	-29.6	-32.7	5.3	7.09e-01	0	44	0	0	20	5139
2026-01-21 12:40:22.46	324.31	29.41	-29.7	-32.9	5.3	7.09e-01	0	44	0	0	20	5240
2026-01-21 12:40:23.47	324.48	29.21	-29.7	-33.0	5.3	7.09e-01	0	44	0	0	20	5279
2026-01-21 12:40:24.47	324.64	29.02	-29.7	-32.9	5.3	7.07e-01	0	44	0	0	20	5239
2026-01-21 12:40:25.47	324.80	28.83	-29.7	-32.9	5.3	7.04e-01	0	44	0	0	20	5244
2026-01-21 12:40:26.47	324.96	28.64	-29.7	-32.9	5.3	7.06e-01	0	44	0	0	20	5215
2026-01-21 12:40:27.47	325.11	28.44	-29.6	-32.9	5.3	7.08e-01	0	44	0	0	20	5214
2026-01-21 12:40:28.47	325.27	28.26	-29.7	-32.9	5.3	7.07e-01	0	44	0	0	20	5209
2026-01-21 12:40:29.47	325.42	28.07	-29.6	-32.9	5.3	7.10e-01	0	44	0	0	20	5204
2026-01-21 12:40:30.47	325.57	27.88	-29.8	-33.3	5.3	7.09e-01	0	44	0	0	20	5362
2026-01-21 12:40:31.48	325.72	27.69	-29.9	-33.6	5.3	7.06e-01	0	44	0	0	20	5491
2026-01-21 12:40:32.49	325.87	27.51	-30.0	-33.8	5.3	7.05e-01	0	44	0	0	20	5555
2026-01-21 12:40:33.49	326.02	27.32	-30.0	-33.8	5.3	7.06e-01	0	44	0	0	20	5588
2026-01-21 12:40:34.50	326.16	27.14	-30.0	-33.8	5.3	7.07e-01	0	44	0	0	20	5573
2026-01-21 12:40:35.51	326.31	26.96	-30.0	-33.9	5.3	7.05e-01	0	44	0	0	20	5589
2026-01-21 12:40:36.51	326.45	26.78	-30.0	-33.8	5.3	7.10e-01	0	44	0	0	20	5583
2026-01-21 12:40:37.51	326.59	26.60	-30.0	-33.9	5.3	7.06e-01	0	44	0	0	20	5610
2026-01-21 12:40:38.51	326.73	26.42	-30.2	-33.7	5.3	7.08e-01	0	44	0	0	21	5413
2026-01-21 12:40:39.52	326.86	26.24	-30.2	-33.8	5.3	7.09e-01	0	44	0	0	21	5469
2026-01-21 12:40:40.51	327.00	26.07	-30.2	-33.7	5.3	7.10e-01	0	44	0	0	21	5410
2026-01-21 12:40:41.52	327.13	25.89	-30.3	-34.0	5.3	7.07e-01	0	44	0	0	21	5521
2026-01-21 12:40:42.52	327.26	25.72	-30.3	-33.9	5.3	7.05e-01	0	44	0	0	21	5495
2026-01-21 12:40:43.53	327.39	25.54	-30.2	-33.7	5.3	7.09e-01	0	44	0	0	21	5407
2026-01-21 12:40:44.52	327.52	25.37	-30.1	-33.7	5.3	7.05e-01	0	44	0	0	21	5393
2026-01-21 12:40:45.53	327.65	25.20	-30.2	-33.7	5.3	7.06e-01	0	44	0	0	21	5412
2026-01-21 12:40:46.53	327.77	25.03	-30.1	-33.5	5.3	7.07e-01	0	44	0	0	21	5337
2026-01-21 12:40:47.53	327.90	24.86	-30.1	-33.4	5.3	7.07e-01	0	44	0	0	21	5313
2026-01-21 12:40:48.53	328.02	24.70	-30.1	-33.5	5.3	7.05e-01	0	44	0	0	21	5362
2026-01-21 12:40:49.55	328.15	24.53	-30.2	-33.8	5.3	7.08e-01	0	44	0	0	21	5446
2026-01-21 12:40:50.55	328.27	24.36	-30.1	-33.7	5.3	7.07e-01	0	44	0	0	21	5403
2026-01-21 12:40:51.56	328.39	24.20	-30.1	-33.6	5.3	7.05e-01	0	44	0	0	21	5365
2026-01-21 12:40:52.57	328.51	24.03	-30.1	-33.5	5.3	7.05e-01	0	44	0	0	21	5347
2026-01-21 12:40:53.57	328.62	23.87	-30.2	-33.7	5.3	7.07e-01	0	44	0	0	21	5436
2026-01-21 12:40:54.58	328.74	23.71	-30.1	-33.6	5.3	7.05e-01	0	44	0	0	21	5389
2026-01-21 12:40:55.58	328.86	23.55	-30.1	-33.7	5.3	7.11e-01	0	44	0	0	21	5421
2026-01-21 12:40:56.58	328.97	23.39	-30.1	-33.7	5.3	7.06e-01	0	44	0	0	21	5409
2026-01-21 12:40:57.58	329.08	23.23	-30.2	-33.8	5.3	7.10e-01	0	44	0	0	21	5451
2026-01-21 12:40:58.59	329.19	23.07	-30.2	-34.0	5.3	7.06e-01	0	44	0	0	21	5514
2026-01-21 12:40:59.60	329.30	22.91	-30.3	-34.0	5.3	7.06e-01	0	44	0	0	21	5532
2026-01-21 12:41:00.60	329.41	22.76	-30.2	-33.9	5.3	7.06e-01	0	44	0	0	21	5505
2026-01-21 12:41:01.61	329.52	22.60	-30.3	-34.1	5.3	7.06e-01	0	44	0	0	21	5571
2026-01-21 12:41:02.62	329.63	22.45	-30.3	-34.0	5.3	7.10e-01	0	44	0	0	21	5543
2026-01-21 12:41:03.62	329.74	22.29	-30.2	-34.0	5.3	7.05e-01	0	44	0	0	21	5520
2026-01-21 12:41:04.63	329.84	22.14	-30.5	-34.6	5.3	7.08e-01	0	44	0	0	21	5769
2026-01-21 12:41:05.62	329.94	21.99	-30.4	-34.4	5.3	7.05e-01	0	44	0	0	21	5706
2026-01-21 12:41:06.63	330.05	21.84	-30.5	-34.7	5.3	7.11e-01	0	44	0	0	21	5804
2026-01-21 12:41:07.63	330.15	21.69	-30.5	-34.1	5.3	7.07e-01	0	44	0	0	22	5478
2026-01-21 12:41:08.64	330.25	21.54	-30.3	-33.7	5.3	7.07e-01	0	44	0	0	22	5303
2026-01-21 12:41:09.65	330.35	21.39	-30.2	-33.4	5.3	7.07e-01	0	44	0	0	22	5180
2026-01-21 12:41:10.65	330.45	21.25	-30.1	-33.1	5.3	7.04e-01	0	44	0	0	22	5063
2026-01-21 12:41:11.65	330.55	21.10	-30.1	-33.2	5.3	7.10e-01	0	44	0	0	22	5112
2026-01-21 12:41:12.65	330.64	20.96	-30.1	-33.1	5.3	7.05e-01	0	44	0	0	22	5075
2026-01-21 12:41:13.66	330.74	20.81	-30.0	-32.8	5.3	7.07e-01	0	44	0	0	22	4983
2026-01-21 12:41:14.65	330.83	20.67	-30.0	-32.8	5.3	7.07e-01	0	44	0	0	22	4969
2026-01-21 12:41:15.66	330.93	20.53	-29.9	-32.6	5.3	7.06e-01	0	44	0	0	22	4909
2026-01-21 12:41:16.66	331.02	20.38	-30.0	-32.8	5.3	7.08e-01	0	44	0	0	22	4968
2026-01-21 12:41:17.67	331.12	20.24	-29.9	-32.7	5.3	7.10e-01	0	44	0	0	22	4939
2026-01-21 12:41:18.67	331.21	20.10	-29.9	-32.6	5.3	7.06e-01	0	44	0	0	22	4902
2026-01-21 12:41:19.68	331.30	19.96	-29.9	-32.5	5.3	7.11e-01	0	44	0	0	22	4891
2026-01-21 12:41:20.68	331.39	19.82	-29.9	-33.0	5.3	7.09e-01	0	44	0	0	21	5162
2026-01-21 12:41:21.68	331.48	19.69	-29.9	-33.0	5.3	7.08e-01	0	44	0	0	21	5167
2026-01-21 12:41:22.68	331.57	19.55	-29.9	-33.1	5.3	7.10e-01	0	44	0	0	21	5194
2026-01-21 12:41:23.69	331.65	19.41	-30.0	-33.2	5.3	7.11e-01	0	44	0	0	21	5260
2026-01-21 12:41:24.69	331.74	19.28	-29.9	-33.1	5.3	7.07e-01	0	44	0	0	21	5198
2026-01-21 12:41:25.70	331.83	19.14	-29.8	-32.9	5.3	7.09e-01	0	44	0	0	21	5149
2026-01-21 12:41:26.70	331.91	19.01	-29.9	-33.1	5.3	7.07e-01	0	44	0	0	21	5218
2026-01-21 12:41:27.70	332.00	18.87	-29.9	-33.1	5.3	7.09e-01	0	44	0	0	21	5203
2026-01-21 12:41:28.71	332.08	18.74	-29.9	-33.2	5.3	7.06e-01	0	44	0	0	21	5267
2026-01-21 12:41:29.71	332.16	18.61	-29.9	-33.1	5.3	7.08e-01	0	44	0	0	21	5225
2026-01-21 12:41:30.72	332.25	18.48	-29.9	-33.2	5.3	7.08e-01	0	44	0	0	21	5235
2026-01-21 12:41:31.72	332.33	18.35	-29.9	-33.2	5.3	7.08e-01	0	44	0	0	21	5241
2026-01-21 12:41:32.72	332.41	18.22	-30.0	-33.4	5.3	7.09e-01	0	44	0	0	21	5313
2026-01-21 12:41:33.71	332.49	18.09	-29.9	-33.2	5.3	7.02e-01	0	44	0	0	21	5266
2026-01-21 12:41:34.72	332.57	17.96	-29.9	-33.2	5.3	7.08e-01	0	44	0	0	21	5252
2026-01-21 12:41:35.73	332.65	17.83	-29.9	-33.2	5.3	7.06e-01	0	44	0	0	21	5277
2026-01-21 12:41:36.72	332.73	17.71	-29.9	-33.3	5.3	7.05e-01	0	44	0	0	21	5292
2026-01-21 12:41:37.72	332.80	17.58	-30.0	-33.3	5.3	7.08e-01	0	44	0	0	21	5313
2026-01-21 12:41:38.73	332.88	17.46	-29.9	-33.2	5.3	7.09e-01	0	44	0	0	21	5242
2026-01-21 12:41:39.74	332.96	17.33	-29.9	-33.0	5.3	7.03e-01	0	44	0	0	21	5197
2026-01-21 12:41:40.74	333.03	17.21	-29.9	-33.1	5.3	7.03e-01	0	44	0	0	21	5202
2026-01-21 12:41:41.75	333.11	17.08	-29.9	-33.1	5.3	7.07e-01	0	44	0	0	21	5224
2026-01-21 12:41:42.75	333.18	16.96	-30.0	-33.4	5.3	7.07e-01	0	44	0	0	21	5342
2026-01-21 12:41:43.76	333.26	16.84	-30.0	-33.4	5.3	7.05e-01	0	44	0	0	21	5329
2026-01-21 12:41:44.76	333.33	16.71	-29.9	-33.3	5.3	7.06e-01	0	44	0	0	21	5282
2026-01-21 12:41:45.77	333.40	16.59	-29.9	-33.3	5.3	7.05e-01	0	44	0	0	21	5302
2026-01-21 12:41:46.78	333.48	16.47	-30.1	-33.6	5.3	7.10e-01	0	44	0	0	21	5409
2026-01-21 12:41:47.78	333.55	16.35	-30.0	-33.5	5.3	7.10e-01	0	44	0	0	21	5370
2026-01-21 12:41:48.78	333.62	16.23	-30.1	-33.8	5.3	7.11e-01	0	44	0	0	21	5504
2026-01-21 12:41:49.79	333.69	16.11	-30.1	-33.6	5.3	7.05e-01	0	44	0	0	21	5436
2026-01-21 12:41:50.79	333.76	16.00	-29.9	-33.2	5.3	7.08e-01	0	44	0	0	21	5266
2026-01-21 12:41:51.79	333.83	15.88	-29.9	-33.2	5.3	7.08e-01	0	44	0	0	21	5255
2026-01-21 12:41:52.80	333.90	15.76	-29.9	-33.3	5.3	7.08e-01	0	44	0	0	21	5296
2026-01-21 12:41:53.80	333.97	15.65	-30.0	-33.4	5.3	7.03e-01	0	44	0	0	21	5339
2026-01-21 12:41:54.81	334.04	15.53	-30.1	-33.8	5.3	7.07e-01	0	44	0	0	21	5508
2026-01-21 12:41:55.80	334.10	15.42	-30.0	-33.5	5.3	7.08e-01	0	44	0	0	21	5405
2026-01-21 12:41:56.80	334.17	15.30	-30.0	-33.4	5.3	7.05e-01	0	44	0	0	21	5358
2026-01-21 12:41:57.81	334.23	15.19	-30.0	-33.5	5.3	7.02e-01	0	44	0	0	21	5389
2026-01-21 12:41:58.81	334.30	15.07	-30.1	-33.8	5.3	7.10e-01	0	44	0	0	21	5489
2026-01-21 12:41:59.82	334.37	14.96	-30.1	-33.7	5.3	7.07e-01	0	44	0	0	21	5454
2026-01-21 12:42:00.82	334.43	14.85	-30.1	-33.9	5.3	7.06e-01	0	44	0	0	21	5545
2026-01-21 12:42:01.82	334.49	14.74	-30.0	-33.6	5.3	7.05e-01	0	44	0	0	21	5449
2026-01-21 12:42:02.83	334.56	14.62	-30.0	-33.4	5.3	7.05e-01	0	44	0	0	21	5367
2026-01-21 12:42:03.83	334.62	14.51	-30.0	-33.5	5.3	7.06e-01	0	44	0	0	21	5402
2026-01-21 12:42:04.83	334.68	14.40	-30.0	-33.6	5.3	7.07e-01	0	44	0	0	21	5428
2026-01-21 12:42:05.83	334.75	14.30	-30.0	-33.6	5.3	7.08e-01	0	44	0	0	21	5439
2026-01-21 12:42:06.83	334.81	14.19	-30.1	-33.9	5.3	7.07e-01	0	44	0	0	21	5552
2026-01-21 12:42:07.84	334.87	14.08	-30.1	-33.7	5.3	7.05e-01	0	44	0	0	21	5490
2026-01-21 12:42:08.85	334.93	13.97	-30.0	-33.6	5.3	7.07e-01	0	44	0	0	21	5428
2026-01-21 12:42:09.85	334.99	13.86	-30.0	-33.6	5.3	7.08e-01	0	44	0	0	21	5423
2026-01-21 12:42:10.85	335.05	13.75	-30.0	-33.5	5.3	7.05e-01	0	44	0	0	21	5412
2026-01-21 12:42:11.86	335.11	13.65	-30.0	-33.7	5.3	7.06e-01	0	44	0	0	21	5467
2026-01-21 12:42:12.87	335.17	13.54	-30.0	-33.5	5.3	7.06e-01	0	44	0	0	21	5416
2026-01-21 12:42:13.87	335.23	13.44	-30.1	-33.9	5.3	7.08e-01	0	44	0	0	21	5535
2026-01-21 12:42:14.88	335.29	13.33	-30.0	-33.5	5.3	7.07e-01	0	44	0	0	21	5414
2026-01-21 12:42:15.88	335.35	13.23	-29.9	-33.4	5.3	7.06e-01	0	44	0	0	21	5366
2026-01-21 12:42:16.89	335.41	13.12	-29.9	-33.4	5.3	7.02e-01	0	44	0	0	21	5366
2026-01-21 12:42:17.89	335.46	13.02	-30.2	-34.0	5.3	7.07e-01	0	44	0	0	21	5598
2026-01-21 12:42:18.89	335.52	12.91	-30.1	-33.9	5.3	7.04e-01	0	44	0	0	21	5549
2026-01-21 12:42:19.90	335.58	12.81	-30.1	-33.8	5.3	7.05e-01	0	44	0	0	21	5517
2026-01-21 12:42:20.90	335.63	12.71	-30.2	-34.2	5.3	7.06e-01	0	44	0	0	21	5668
2026-01-21 12:42:21.90	335.69	12.61	-30.1	-33.9	5.3	7.08e-01	0	44	0	0	21	5545
2026-01-21 12:42:22.90	335.74	12.51	-30.1	-33.9	5.3	7.05e-01	0	44	0	0	21	5549
2026-01-21 12:42:23.89	335.80	12.41	-30.1	-33.9	5.3	7.01e-01	0	44	0	0	21	5583
2026-01-21 12:42:24.89	335.85	12.31	-30.2	-34.0	5.2	7.04e-01	0	44	0	0	21	5618
2026-01-21 12:42:25.89	335.91	12.21	-30.2	-34.2	5.3	7.08e-01	0	44	0	0	21	5683
2026-01-21 12:42:26.89	335.96	12.11	-30.4	-34.7	5.3	7.06e-01	0	44	0	0	21	5912
2026-01-21 12:42:27.90	336.01	12.01	-30.3	-34.4	5.2	7.10e-01	0	44	0	0	21	5760
2026-01-21 12:42:28.90	336.07	11.91	-30.2	-34.0	5.3	7.03e-01	0	44	0	0	21	5623
2026-01-21 12:42:29.90	336.12	11.81	-30.1	-33.9	5.3	7.05e-01	0	44	0	0	21	5561
2026-01-21 12:42:30.91	336.17	11.71	-30.1	-33.9	5.3	7.06e-01	0	44	0	0	21	5572
2026-01-21 12:42:31.91	336.22	11.62	-30.1	-33.9	5.3	7.10e-01	0	44	0	0	21	5553
2026-01-21 12:42:32.91	336.28	11.52	-30.2	-34.3	5.3	7.08e-01	0	44	0	0	21	5722
2026-01-21 12:42:33.91	336.33	11.42	-30.2	-34.1	5.3	7.10e-01	0	44	0	0	21	5661
2026-01-21 12:42:34.91	336.38	11.33	-30.2	-34.2	5.3	7.03e-01	0	44	0	0	21	5721
2026-01-21 12:42:35.92	336.43	11.23	-30.4	-34.7	5.2	7.05e-01	0	44	0	0	21	5920
2026-01-21 12:42:36.92	336.48	11.13	-30.3	-34.4	5.3	7.06e-01	0	44	0	0	21	5772
2026-01-21 12:42:37.93	336.53	11.04	-30.2	-34.1	5.3	7.06e-01	0	44	0	0	21	5660
2026-01-21 12:42:38.93	336.58	10.94	-30.1	-34.0	5.3	7.04e-01	0	44	0	0	21	5634
2026-01-21 12:42:39.94	336.63	10.85	-30.2	-34.1	5.3	7.05e-01	0	44	0	0	21	5644
2026-01-21 12:42:40.95	336.68	10.75	-30.2	-34.3	5.3	7.04e-01	0	44	0	0	21	5744
2026-01-21 12:42:41.95	336.73	10.66	-30.2	-34.2	5.3	7.09e-01	0	44	0	0	21	5722
2026-01-21 12:42:42.95	336.78	10.57	-30.3	-34.4	5.3	7.06e-01	0	44	0	0	21	5773
2026-01-21 12:42:43.95	336.82	10.48	-30.2	-34.1	5.3	7.05e-01	0	44	0	0	21	5670
2026-01-21 12:42:44.95	336.87	10.38	-30.2	-34.3	5.3	7.07e-01	0	44	0	0	21	5736
2026-01-21 12:42:45.96	336.92	10.29	-30.3	-34.4	5.2	7.04e-01	0	44	0	0	21	5792
2026-01-21 12:42:46.97	336.97	10.20	-30.2	-34.3	5.3	7.09e-01	0	44	0	0	21	5738
2026-01-21 12:42:47.96	337.01	10.11	-30.3	-34.4	5.3	7.03e-01	0	44	0	0	21	5798
2026-01-21 12:42:48.96	337.06	10.02	-30.3	-34.4	5.3	7.08e-01	0	44	0	0	21	5775
2026-01-21 12:42:49.96	337.11	9.93	-30.2	-34.4	5.3	7.05e-01	0	44	0	0	21	5788
2026-01-21 12:42:50.97	337.15	9.84	-30.4	-34.8	5.3	7.03e-01	0	44	0	0	21	5983
2026-01-21 12:42:51.97	337.20	9.75	-30.3	-34.6	5.3	7.06e-01	0	44	0	0	21	5896
2026-01-21 12:42:52.97	337.24	9.66	-30.4	-34.7	5.2	7.08e-01	0	44	0	0	21	5955
2026-01-21 12:42:53.97	337.29	9.57	-30.5	-35.0	5.3	7.07e-01	0	44	0	0	21	6085
2026-01-21 12:42:54.97	337.33	9.48	-30.5	-35.0	5.2	7.06e-01	0	44	0	0	21	6079
2026-01-21 12:42:55.98	337.38	9.39	-30.5	-35.2	5.2	7.07e-01	0	44	0	0	21	6154
2026-01-21 12:42:56.98	337.42	9.30	-30.5	-35.1	5.3	7.07e-01	0	44	0	0	21	6106
2026-01-21 12:42:57.98	337.47	9.22	-30.4	-34.9	5.2	7.07e-01	0	44	0	0	21	6014
2026-01-21 12:42:58.99	337.51	9.13	-30.5	-35.2	5.2	7.09e-01	0	44	0	0	21	6144
2026-01-21 12:42:59.98	337.56	9.04	-30.5	-35.0	5.2	7.07e-01	0	44	0	0	21	6078
2026-01-21 12:43:00.98	337.60	8.96	-30.6	-35.4	5.3	7.08e-01	0	44	0	0	21	6254
2026-01-21 12:43:01.99	337.64	8.87	-30.5	-35.2	5.2	7.06e-01	0	43	0	0	21	6171
2026-01-21 12:43:03.00	337.69	8.78	-30.4	-34.7	5.2	7.07e-01	0	44	0	0	21	5961
2026-01-21 12:43:04.01	337.73	8.70	-30.4	-34.9	5.2	7.08e-01	0	44	0	0	21	6046
2026-01-21 12:43:05.02	337.77	8.61	-30.4	-34.8	5.2	7.09e-01	0	44	0	0	21	6000
2026-01-21 12:43:06.02	337.82	8.53	-30.6	-35.3	5.2	7.06e-01	0	44	0	0	21	6209
2026-01-21 12:43:07.02	337.86	8.44	-30.5	-35.1	5.2	7.05e-01	0	44	0	0	21	6146
2026-01-21 12:43:08.03	337.90	8.36	-30.5	-35.2	5.2	7.05e-01	0	44	0	0	21	6180
2026-01-21 12:43:09.04	337.94	8.27	-30.6	-35.1	5.2	7.07e-01	0	44	0	0	22	5999
2026-01-21 12:43:10.04	337.98	8.19	-30.7	-35.2	5.2	7.07e-01	0	44	0	0	22	6078
2026-01-21 12:43:11.04	338.02	8.10	-31.0	-36.1	5.2	7.06e-01	0	44	0	0	22	6500
2026-01-21 12:43:12.05	338.06	8.02	-30.8	-35.5	5.2	7.07e-01	0	44	0	0	22	6193
2026-01-21 12:43:13.05	338.11	7.94	-30.7	-35.3	5.2	7.07e-01	0	44	0	0	22	6107
2026-01-21 12:43:14.05	338.15	7.85	-30.6	-35.0	5.2	7.10e-01	0	44	0	0	22	5969
2026-01-21 12:43:15.05	338.19	7.77	-30.6	-34.9	5.2	7.08e-01	0	44	0	0	22	5910
2026-01-21 12:43:16.05	338.23	7.69	-30.6	-35.0	5.2	7.08e-01	0	44	0	0	22	5964
2026-01-21 12:43:17.06	338.27	7.61	-30.6	-34.9	5.2	7.07e-01	0	44	0	0	22	5912
2026-01-21 12:43:18.06	338.31	7.53	-30.6	-35.0	5.2	7.09e-01	0	44	0	0	22	5983
2026-01-21 12:43:19.07	338.35	7.44	-30.6	-35.1	5.2	7.08e-01	0	44	0	0	22	6021
2026-01-21 12:43:20.07	338.38	7.36	-30.6	-35.1	5.2	7.08e-01	0	44	0	0	22	6045
2026-01-21 12:43:21.08	338.42	7.28	-30.7	-35.4	5.2	7.07e-01	0	44	0	0	22	6181
2026-01-21 12:43:22.09	338.46	7.20	-30.7	-35.3	5.2	7.10e-01	0	44	0	0	22	6119
2026-01-21 12:43:23.09	338.50	7.12	-30.7	-35.4	5.2	7.06e-01	0	44	104	0	22	6156
2026-01-21 12:43:24.09	338.54	7.04	-33.8	-52.8	3.8	7.49e-01	0	44	104	0	28	32231
2026-01-21 12:43:25.10	338.58	6.96	-34.0	-53.5	3.8	7.48e-01	0	44	104	0	28	34010
2026-01-21 12:43:26.10	338.62	6.88	-34.3	-53.5	3.8	7.45e-01	0	44	104	0	29	32826
2026-01-21 12:43:27.10	338.65	6.80	-34.4	-53.7	3.8	7.47e-01	0	44	104	0	29	33107

#Closed at: 2026-01-21 12:43:27
#Recorded file [0 MB]: D:/data/31010_260121_154319.dat