passes_logs/2026/01/21/R2M6_AANII_01/R2M6_AANII_01__20260121_091548_SUOMI_NPP_rec.log

#Pass ID: 20260121_091548_SUOMI NPP
#Satellite: SUOMI NPP
#Configuration: NPP
#almurnet v.1.7.20240730
#Start time: 2026-01-21 09:15:48

#Version: 2.2.20231116
#Station: R2M6_AANII_01
#Location: 30.233357 lon 59.946436 lat
#TLE: 1 37849U 11061A   26020.31993517  .00000142  00000+0  88240-4 0  9990
#TLE: 2 37849  98.7818 322.3228 0002330  54.3778 305.7615 14.19527005737466

#Time	Az	El	Level	Level2	SNR	BER	BlckErr	Temp	State	Recorded	gain1	gain2
2026-01-21 09:15:48.40	125.22	6.99	-31.4	-34.9	5.2	1.27e+00	0	41	0	0	24	5351
2026-01-21 09:15:49.40	125.16	7.07	-31.5	-35.7	5.1	1.25e+00	0	41	104	0	23	5874
2026-01-21 09:15:50.40	125.11	7.14	-31.7	-36.6	7.8	6.49e-02	0	41	0	0	23	6314
2026-01-21 09:15:51.40	125.05	7.21	-31.9	-37.7	6.9	1.33e-01	0	41	0	1048576	23	6990
2026-01-21 09:15:52.40	125.00	7.29	-32.1	-38.3	6.1	2.53e-01	0	41	0	3145728	24	7346
2026-01-21 09:15:53.40	124.94	7.36	-32.3	-39.2	5.5	3.99e-01	0	41	0	5242880	24	8051
2026-01-21 09:15:54.39	124.88	7.43	-32.4	-39.9	5.1	5.77e-01	0	41	0	7340032	24	8615
2026-01-21 09:15:55.39	124.83	7.51	-32.2	-38.7	5.8	4.36e-01	0	41	0	8388608	24	7588
2026-01-21 09:15:56.40	124.77	7.58	-31.9	-37.1	6.9	2.41e-01	0	41	0	10485760	24	6537
2026-01-21 09:15:57.40	124.71	7.66	-31.5	-35.0	8.6	8.68e-02	0	41	0	12582912	24	5382
2026-01-21 09:15:58.41	124.65	7.73	-31.0	-33.7	10.1	1.03e-02	0	41	0	14680064	23	4873
2026-01-21 09:15:59.41	124.60	7.81	-30.7	-32.9	11.1	2.75e-03	0	41	0	16777216	22	4655
2026-01-21 09:16:00.42	124.54	7.88	-30.5	-32.4	11.5	9.99e-04	0	41	0	17825792	22	4461
2026-01-21 09:16:01.42	124.48	7.96	-30.4	-31.8	12.0	3.84e-04	0	41	0	19922944	22	4246
2026-01-21 09:16:02.42	124.42	8.03	-30.5	-32.1	11.8	4.42e-04	0	41	0	22020096	22	4363
2026-01-21 09:16:03.43	124.36	8.11	-30.6	-32.6	11.4	8.58e-04	0	41	0	24117248	22	4515
2026-01-21 09:16:04.43	124.30	8.19	-30.7	-32.8	11.3	9.43e-04	0	41	0	26214400	22	4594
2026-01-21 09:16:05.44	124.24	8.26	-30.9	-33.6	10.8	1.96e-03	0	42	0	27262976	22	4879
2026-01-21 09:16:06.44	124.18	8.34	-31.2	-34.6	10.0	6.98e-03	0	42	0	29360128	22	5298
2026-01-21 09:16:07.44	124.12	8.41	-31.4	-35.3	9.4	1.16e-02	0	41	0	31457280	22	5628
2026-01-21 09:16:08.45	124.05	8.49	-31.4	-35.2	9.5	1.38e-02	0	42	0	33554432	22	5577
2026-01-21 09:16:09.45	123.99	8.57	-31.3	-34.9	9.8	1.15e-02	0	42	0	35651584	22	5409
2026-01-21 09:16:10.46	123.93	8.65	-31.0	-33.8	10.6	6.97e-03	0	42	0	36700160	22	4960
2026-01-21 09:16:11.46	123.87	8.72	-30.8	-33.0	11.2	1.70e-03	0	42	0	38797312	22	4657
2026-01-21 09:16:12.46	123.81	8.80	-30.6	-32.5	11.6	7.27e-04	0	42	0	40894464	22	4463
2026-01-21 09:16:13.47	123.74	8.88	-30.7	-32.7	11.4	6.05e-04	0	42	0	42991616	22	4546
2026-01-21 09:16:14.46	123.68	8.96	-30.6	-32.4	11.6	9.02e-04	0	42	0	45088768	22	4439
2026-01-21 09:16:15.46	123.62	9.03	-30.6	-32.5	11.6	6.83e-04	0	42	0	46137344	22	4453
2026-01-21 09:16:16.47	123.55	9.11	-30.9	-33.3	11.1	9.63e-04	0	42	0	48234496	22	4735
2026-01-21 09:16:17.48	123.49	9.19	-31.1	-33.8	10.7	1.71e-03	0	42	0	50331648	22	4958
2026-01-21 09:16:18.48	123.42	9.27	-31.1	-34.1	10.5	4.76e-03	0	42	0	52428800	22	5067
2026-01-21 09:16:19.49	123.36	9.35	-31.5	-35.2	9.7	1.00e-02	0	42	0	54525952	22	5528
2026-01-21 09:16:20.49	123.29	9.43	-31.5	-34.7	9.7	1.26e-02	0	42	0	55574528	23	5250
2026-01-21 09:16:21.49	123.23	9.51	-31.4	-34.3	9.9	9.66e-03	0	42	0	57671680	23	5069
2026-01-21 09:16:22.50	123.16	9.59	-31.1	-33.4	10.7	4.48e-03	0	42	0	59768832	23	4681
2026-01-21 09:16:23.50	123.09	9.67	-30.9	-32.7	11.2	2.27e-03	0	42	0	61865984	23	4421
2026-01-21 09:16:24.50	123.03	9.75	-30.8	-33.0	11.4	8.69e-04	0	42	0	62914560	22	4628
2026-01-21 09:16:25.49	122.96	9.83	-30.8	-32.7	11.6	9.58e-04	0	42	0	65011712	22	4522
2026-01-21 09:16:26.49	122.89	9.91	-30.4	-31.8	12.2	2.93e-04	0	42	0	67108864	22	4218
2026-01-21 09:16:27.50	122.82	9.99	-30.6	-32.4	11.8	4.66e-04	0	42	0	69206016	22	4412
2026-01-21 09:16:28.50	122.75	10.07	-30.9	-33.1	11.3	7.78e-04	0	42	0	71303168	22	4670
2026-01-21 09:16:29.50	122.69	10.15	-31.1	-33.8	10.8	9.97e-04	0	42	0	73400320	22	4942
2026-01-21 09:16:30.51	122.62	10.24	-31.3	-34.4	10.4	3.84e-03	0	42	0	74448896	22	5178
2026-01-21 09:16:31.51	122.55	10.32	-31.5	-34.7	9.8	7.22e-03	0	42	0	76546048	23	5221
2026-01-21 09:16:32.51	122.48	10.40	-31.7	-35.7	9.1	1.99e-02	0	42	0	78643200	23	5645
2026-01-21 09:16:33.51	122.41	10.48	-31.7	-35.6	9.1	2.58e-02	0	42	0	80740352	23	5622
2026-01-21 09:16:34.52	122.33	10.56	-31.6	-35.0	9.6	1.93e-02	0	42	0	81788928	23	5334
2026-01-21 09:16:35.52	122.26	10.65	-31.4	-34.4	10.0	1.01e-02	0	42	0	83886080	23	5073
2026-01-21 09:16:36.52	122.19	10.73	-31.2	-33.8	10.5	5.29e-03	0	42	0	85983232	23	4809
2026-01-21 09:16:37.53	122.12	10.81	-31.2	-33.7	10.6	1.96e-03	0	42	0	88080384	23	4772
2026-01-21 09:16:38.53	122.05	10.90	-31.1	-33.3	11.0	2.67e-03	0	42	0	90177536	23	4615
2026-01-21 09:16:39.53	121.97	10.98	-31.0	-33.0	11.1	1.54e-03	0	42	0	91226112	23	4524
2026-01-21 09:16:40.53	121.90	11.06	-31.3	-33.8	10.6	1.96e-03	0	42	0	93323264	23	4811
2026-01-21 09:16:41.54	121.82	11.15	-31.4	-34.4	10.2	5.11e-03	0	42	0	95420416	23	5040
2026-01-21 09:16:42.54	121.75	11.23	-31.4	-34.1	10.4	3.52e-03	0	42	0	97517568	23	4934
2026-01-21 09:16:43.54	121.68	11.32	-31.6	-34.9	9.7	1.09e-02	0	42	0	99614720	23	5275
2026-01-21 09:16:44.54	121.60	11.40	-31.4	-34.3	10.2	8.21e-03	0	42	0	100663296	23	5022
2026-01-21 09:16:45.54	121.52	11.49	-31.3	-33.9	10.5	4.03e-03	0	42	0	102760448	23	4855
2026-01-21 09:16:46.54	121.45	11.57	-31.0	-32.9	11.3	1.93e-03	0	43	0	104857600	23	4472
2026-01-21 09:16:47.54	121.37	11.66	-30.8	-32.2	11.7	8.44e-04	0	42	0	106954752	23	4237
2026-01-21 09:16:48.55	121.29	11.74	-30.7	-32.6	11.9	4.04e-04	0	42	0	109051904	22	4438
2026-01-21 09:16:49.56	121.22	11.83	-30.5	-31.9	12.4	2.08e-04	0	42	0	110100480	22	4224
2026-01-21 09:16:50.56	121.14	11.92	-30.3	-31.9	12.7	1.22e-04	0	42	0	112197632	21	4317
2026-01-21 09:16:51.56	121.06	12.00	-30.5	-32.3	12.4	1.43e-04	0	43	0	114294784	21	4455
2026-01-21 09:16:52.57	120.98	12.09	-30.4	-32.2	12.5	9.76e-05	0	43	0	116391936	21	4416
2026-01-21 09:16:53.57	120.90	12.18	-30.5	-32.3	12.4	8.31e-05	0	42	0	118489088	21	4450
2026-01-21 09:16:54.57	120.82	12.26	-30.6	-32.7	12.1	1.82e-04	0	43	0	119537664	21	4596
2026-01-21 09:16:55.58	120.74	12.35	-30.5	-32.2	12.4	2.93e-04	0	42	0	121634816	21	4419
2026-01-21 09:16:56.59	120.66	12.44	-30.7	-33.1	11.9	2.72e-04	0	42	0	123731968	21	4717
2026-01-21 09:16:57.60	120.58	12.53	-30.7	-33.1	11.9	3.75e-04	0	43	0	125829120	21	4721
2026-01-21 09:16:58.60	120.49	12.62	-30.7	-33.0	12.0	3.50e-04	0	42	0	127926272	21	4688
2026-01-21 09:16:59.60	120.41	12.71	-30.7	-33.0	11.9	5.12e-04	0	43	0	128974848	21	4700
2026-01-21 09:17:00.60	120.33	12.79	-30.8	-33.4	11.6	4.53e-04	0	43	0	131072000	21	4831
2026-01-21 09:17:01.61	120.24	12.88	-30.8	-33.2	11.8	4.04e-04	0	43	0	133169152	21	4763
2026-01-21 09:17:02.62	120.16	12.97	-30.8	-33.2	11.7	4.77e-04	0	43	0	135266304	21	4771
2026-01-21 09:17:03.62	120.08	13.06	-30.8	-33.2	11.8	7.88e-04	0	42	0	136314880	21	4760
2026-01-21 09:17:04.63	119.99	13.15	-30.9	-33.7	11.5	8.83e-04	0	43	0	138412032	21	4943
2026-01-21 09:17:05.63	119.90	13.24	-30.8	-33.3	11.7	7.84e-04	0	43	0	140509184	21	4795
2026-01-21 09:17:06.63	119.82	13.34	-30.7	-33.0	12.0	2.54e-04	0	43	0	142606336	21	4686
2026-01-21 09:17:07.63	119.73	13.43	-30.7	-32.8	12.1	3.37e-04	0	43	0	144703488	21	4616
2026-01-21 09:17:08.64	119.64	13.52	-30.7	-33.0	12.0	2.53e-04	0	43	0	145752064	21	4686
2026-01-21 09:17:09.63	119.56	13.61	-30.7	-32.8	12.1	2.01e-04	0	43	0	147849216	21	4616
2026-01-21 09:17:10.63	119.47	13.70	-30.7	-33.0	12.0	3.03e-04	0	43	0	149946368	21	4658
2026-01-21 09:17:11.64	119.38	13.79	-30.8	-33.1	11.9	3.73e-04	0	43	0	152043520	21	4718
2026-01-21 09:17:12.63	119.29	13.88	-31.0	-33.3	11.4	9.65e-04	0	43	0	154140672	22	4693
2026-01-21 09:17:13.64	119.20	13.98	-30.9	-33.1	11.7	5.94e-04	0	43	0	155189248	22	4594
2026-01-21 09:17:14.64	119.11	14.07	-30.7	-32.2	12.3	2.66e-04	0	43	0	157286400	22	4301
2026-01-21 09:17:15.65	119.02	14.16	-30.6	-32.0	12.4	1.99e-04	0	43	0	159383552	22	4246
2026-01-21 09:17:16.65	118.92	14.25	-30.6	-32.0	12.5	1.18e-04	0	43	0	161480704	22	4230
2026-01-21 09:17:17.66	118.83	14.35	-30.5	-31.9	12.6	7.09e-05	0	43	0	163577856	22	4195
2026-01-21 09:17:18.66	118.74	14.44	-30.5	-31.9	12.5	1.01e-04	0	43	0	164626432	22	4198
2026-01-21 09:17:19.67	118.64	14.54	-30.5	-31.8	12.6	1.36e-04	0	43	0	166723584	22	4170
2026-01-21 09:17:20.67	118.55	14.63	-30.7	-32.4	12.2	1.91e-04	0	43	0	168820736	22	4375
2026-01-21 09:17:21.68	118.45	14.73	-30.9	-32.8	11.9	2.49e-04	0	43	0	170917888	22	4496
2026-01-21 09:17:22.68	118.36	14.82	-30.9	-33.0	11.8	3.62e-04	0	43	0	173015040	22	4587
2026-01-21 09:17:23.67	118.26	14.92	-30.8	-32.8	11.9	6.27e-04	0	43	0	174063616	22	4491
2026-01-21 09:17:24.68	118.17	15.01	-31.0	-33.1	11.7	4.78e-04	0	43	0	176160768	22	4617
2026-01-21 09:17:25.68	118.07	15.11	-31.1	-33.5	11.4	5.61e-04	0	43	0	178257920	22	4738
2026-01-21 09:17:26.67	117.97	15.20	-31.1	-33.5	11.4	1.15e-03	0	43	0	180355072	22	4749
2026-01-21 09:17:27.68	117.87	15.30	-30.8	-32.5	12.1	5.64e-04	0	43	0	181403648	22	4385
2026-01-21 09:17:28.68	117.77	15.40	-30.9	-32.9	11.8	3.24e-04	0	43	0	183500800	22	4547
2026-01-21 09:17:29.68	117.67	15.49	-30.9	-32.8	11.9	4.10e-04	0	43	0	185597952	22	4506
2026-01-21 09:17:30.68	117.57	15.59	-31.0	-33.3	11.6	5.07e-04	0	43	0	187695104	22	4682
2026-01-21 09:17:31.68	117.47	15.69	-31.1	-33.5	11.4	1.16e-03	0	43	0	189792256	22	4773
2026-01-21 09:17:32.68	117.37	15.79	-31.2	-33.9	11.1	1.36e-03	0	43	0	190840832	22	4890
2026-01-21 09:17:33.68	117.27	15.88	-31.1	-33.5	11.4	1.02e-03	0	43	0	192937984	22	4767
2026-01-21 09:17:34.68	117.16	15.98	-31.0	-33.1	11.7	7.68e-04	0	43	0	195035136	22	4622
2026-01-21 09:17:35.69	117.06	16.08	-30.8	-32.6	12.1	4.17e-04	0	43	0	197132288	22	4449
2026-01-21 09:17:36.70	116.95	16.18	-30.9	-32.9	11.9	2.82e-04	0	43	0	199229440	22	4546
2026-01-21 09:17:37.69	116.85	16.28	-30.8	-32.6	12.1	3.40e-04	0	43	0	200278016	22	4457
2026-01-21 09:17:38.69	116.74	16.38	-30.8	-32.6	12.1	2.23e-04	0	43	0	202375168	22	4450
2026-01-21 09:17:39.70	116.64	16.48	-31.0	-33.2	11.7	3.63e-04	0	43	0	204472320	22	4646
2026-01-21 09:17:40.70	116.53	16.58	-31.0	-33.2	11.6	7.55e-04	0	43	0	206569472	22	4652
2026-01-21 09:17:41.71	116.42	16.68	-30.8	-32.5	12.3	4.07e-04	0	43	0	208666624	22	4381
2026-01-21 09:17:42.72	116.31	16.78	-30.6	-32.0	12.5	1.77e-04	0	43	0	209715200	22	4239
2026-01-21 09:17:43.73	116.20	16.89	-30.5	-31.8	12.8	5.56e-05	0	43	0	211812352	22	4163
2026-01-21 09:17:44.73	116.09	16.99	-30.6	-31.9	12.7	4.95e-05	0	43	0	213909504	22	4202
2026-01-21 09:17:45.74	115.97	17.09	-30.4	-31.3	13.0	4.04e-05	0	43	0	216006656	22	4017
2026-01-21 09:17:46.75	115.86	17.19	-30.2	-31.4	13.4	2.82e-05	0	43	0	218103808	21	4112
2026-01-21 09:17:47.75	115.75	17.30	-30.3	-31.5	13.3	2.74e-05	0	43	0	219152384	21	4169
2026-01-21 09:17:48.75	115.63	17.40	-30.3	-31.5	13.4	1.75e-05	0	43	0	221249536	21	4140
2026-01-21 09:17:49.76	115.52	17.50	-30.4	-31.9	13.1	1.75e-05	0	43	0	223346688	21	4259
2026-01-21 09:17:50.76	115.40	17.61	-30.3	-31.5	13.3	3.35e-05	0	43	0	225443840	21	4150
2026-01-21 09:17:51.77	115.29	17.71	-30.2	-31.3	13.5	1.67e-05	0	43	0	227540992	21	4079
2026-01-21 09:17:52.77	115.17	17.81	-30.1	-31.0	13.6	1.06e-05	0	43	0	228589568	21	4002
2026-01-21 09:17:53.78	115.05	17.92	-30.2	-31.2	13.5	9.90e-06	0	43	0	230686720	21	4076
2026-01-21 09:17:54.79	114.93	18.02	-30.3	-31.5	13.3	2.13e-05	0	43	0	232783872	21	4132
2026-01-21 09:17:55.79	114.81	18.13	-30.5	-32.1	12.9	2.44e-05	0	43	0	234881024	21	4344
2026-01-21 09:17:56.80	114.69	18.24	-30.6	-32.5	12.7	6.56e-05	0	43	0	236978176	21	4475
2026-01-21 09:17:57.79	114.57	18.34	-30.6	-32.5	12.7	7.40e-05	0	43	0	238026752	21	4469
2026-01-21 09:17:58.80	114.45	18.45	-30.6	-32.4	12.7	6.94e-05	0	43	0	240123904	21	4440
2026-01-21 09:17:59.80	114.32	18.55	-30.7	-32.6	12.6	6.17e-05	0	43	0	242221056	21	4521
2026-01-21 09:18:00.80	114.20	18.66	-30.5	-32.3	12.8	4.57e-05	0	43	0	244318208	21	4417
2026-01-21 09:18:01.81	114.08	18.77	-30.6	-32.4	12.8	5.18e-05	0	43	0	246415360	21	4424
2026-01-21 09:18:02.81	113.95	18.87	-30.6	-32.4	12.8	8.23e-05	0	43	0	247463936	21	4428
2026-01-21 09:18:03.80	113.82	18.98	-30.5	-32.2	12.9	5.41e-05	0	43	0	249561088	21	4366
2026-01-21 09:18:04.80	113.70	19.09	-30.4	-32.0	13.0	3.73e-05	0	43	0	251658240	21	4305
2026-01-21 09:18:05.81	113.57	19.20	-30.5	-32.3	12.9	6.10e-05	0	43	0	253755392	21	4395
2026-01-21 09:18:06.80	113.44	19.30	-30.4	-31.8	13.2	3.50e-05	0	43	0	254803968	21	4254
2026-01-21 09:18:07.80	113.31	19.41	-30.7	-32.6	12.7	3.20e-05	0	43	0	256901120	21	4496
2026-01-21 09:18:08.81	113.18	19.52	-30.6	-32.5	12.8	5.79e-05	0	43	0	258998272	21	4453
2026-01-21 09:18:09.81	113.05	19.63	-30.7	-32.7	12.6	6.40e-05	0	43	0	261095424	21	4518
2026-01-21 09:18:10.82	112.91	19.74	-30.8	-32.4	12.6	1.84e-04	0	43	0	263192576	22	4331
2026-01-21 09:18:11.82	112.78	19.85	-30.8	-32.5	12.4	1.47e-04	0	43	0	264241152	22	4373
2026-01-21 09:18:12.82	112.64	19.96	-30.9	-32.7	12.3	2.20e-04	0	43	0	266338304	22	4447
2026-01-21 09:18:13.83	112.50	20.08	-30.9	-32.7	12.4	1.75e-04	0	43	0	268435456	22	4430
2026-01-21 09:18:14.83	112.37	20.19	-30.8	-32.6	12.4	1.53e-04	0	43	0	270532608	22	4396
2026-01-21 09:18:15.83	112.23	20.30	-30.9	-32.8	12.2	1.15e-04	0	43	0	272629760	22	4466
2026-01-21 09:18:16.83	112.09	20.41	-30.9	-32.7	12.4	1.15e-04	0	43	0	273678336	22	4441
2026-01-21 09:18:17.84	111.95	20.52	-31.0	-33.0	12.2	2.11e-04	0	43	0	275775488	22	4540
2026-01-21 09:18:18.84	111.81	20.63	-31.1	-33.4	11.9	7.50e-04	0	43	0	277872640	22	4683
2026-01-21 09:18:19.84	111.67	20.75	-31.1	-33.3	12.0	5.26e-04	0	43	0	279969792	22	4636
2026-01-21 09:18:20.84	111.52	20.86	-31.2	-33.5	11.8	3.94e-04	0	43	0	282066944	22	4721
2026-01-21 09:18:21.84	111.38	20.97	-30.9	-32.8	12.4	2.11e-04	0	43	0	283115520	22	4447
2026-01-21 09:18:22.85	111.23	21.09	-30.9	-32.7	12.4	1.30e-04	0	43	0	285212672	22	4418
2026-01-21 09:18:23.85	111.09	21.20	-31.1	-33.4	11.9	4.18e-04	0	43	0	287309824	22	4653
2026-01-21 09:18:24.86	110.94	21.32	-31.0	-33.1	12.1	2.54e-04	0	43	0	289406976	22	4574
2026-01-21 09:18:25.86	110.79	21.43	-31.1	-33.4	12.0	2.85e-04	0	43	0	291504128	22	4663
2026-01-21 09:18:26.86	110.64	21.54	-31.2	-33.6	11.8	5.67e-04	0	43	0	292552704	22	4747
2026-01-21 09:18:27.87	110.49	21.66	-31.2	-33.7	11.8	6.20e-04	0	43	0	294649856	22	4774
2026-01-21 09:18:28.88	110.33	21.78	-31.3	-33.8	11.7	4.05e-04	0	43	0	296747008	22	4827
2026-01-21 09:18:29.88	110.18	21.89	-31.2	-33.4	12.0	4.94e-04	0	43	0	298844160	22	4654
2026-01-21 09:18:30.88	110.03	22.01	-31.2	-33.4	12.0	3.23e-04	0	43	0	300941312	22	4657
2026-01-21 09:18:31.89	109.87	22.13	-31.1	-33.1	12.1	2.95e-04	0	43	0	301989888	22	4561
2026-01-21 09:18:32.89	109.71	22.24	-30.9	-32.6	12.6	9.91e-05	0	43	0	304087040	22	4363
2026-01-21 09:18:33.89	109.55	22.36	-30.8	-32.2	12.8	8.16e-05	0	43	0	306184192	22	4257
2026-01-21 09:18:34.89	109.39	22.48	-30.8	-32.4	12.7	9.46e-05	0	43	0	308281344	22	4314
2026-01-21 09:18:35.89	109.23	22.59	-31.0	-32.8	12.4	7.93e-05	0	43	0	309329920	22	4435
2026-01-21 09:18:36.90	109.07	22.71	-30.8	-32.3	12.8	1.12e-04	0	43	0	311427072	22	4267
2026-01-21 09:18:37.90	108.91	22.83	-30.5	-31.4	13.4	2.21e-05	0	43	0	313524224	22	3999
2026-01-21 09:18:38.90	108.74	22.95	-30.4	-31.1	13.6	7.60e-06	0	43	0	315621376	22	3915
2026-01-21 09:18:39.91	108.58	23.07	-30.3	-30.9	13.7	9.90e-06	0	43	0	317718528	22	3843
2026-01-21 09:18:40.91	108.41	23.19	-30.4	-31.8	13.5	6.10e-06	0	43	0	318767104	21	4208
2026-01-21 09:18:41.91	108.24	23.31	-30.5	-31.9	13.4	1.06e-05	0	43	0	320864256	21	4230
2026-01-21 09:18:42.92	108.07	23.43	-30.5	-31.9	13.4	2.05e-05	0	43	0	322961408	21	4245
2026-01-21 09:18:43.92	107.90	23.55	-30.4	-31.8	13.5	1.37e-05	0	43	0	325058560	21	4210
2026-01-21 09:18:44.93	107.73	23.67	-30.3	-31.5	13.6	2.13e-05	0	43	0	327155712	21	4166
2026-01-21 09:18:45.92	107.56	23.79	-30.3	-31.7	13.4	1.44e-05	0	43	0	328204288	21	4200
2026-01-21 09:18:46.92	107.38	23.91	-30.1	-31.1	13.8	6.80e-06	0	43	0	330301440	21	4046
2026-01-21 09:18:47.92	107.21	24.03	-30.3	-31.6	13.5	3.80e-06	0	43	0	332398592	21	4189
2026-01-21 09:18:48.92	107.03	24.15	-30.2	-31.2	13.8	6.80e-06	0	43	0	334495744	21	4064
2026-01-21 09:18:49.92	106.85	24.27	-30.2	-31.4	13.6	5.30e-06	0	43	0	336592896	21	4113
2026-01-21 09:18:50.92	106.67	24.39	-30.4	-31.7	13.5	9.90e-06	0	43	0	337641472	21	4215
2026-01-21 09:18:51.91	106.49	24.51	-30.2	-31.3	13.8	5.30e-06	0	43	0	339738624	21	4073
2026-01-21 09:18:52.92	106.31	24.64	-30.4	-31.8	13.5	1.06e-05	0	43	0	341835776	21	4235
2026-01-21 09:18:53.91	106.12	24.76	-30.6	-32.4	13.1	1.83e-05	0	43	0	343932928	21	4408
2026-01-21 09:18:54.91	105.94	24.88	-30.7	-32.8	12.8	5.03e-05	0	43	0	346030080	21	4538
2026-01-21 09:18:55.92	105.75	25.00	-30.9	-33.2	12.5	8.39e-05	0	43	0	347078656	21	4673
2026-01-21 09:18:56.92	105.56	25.13	-31.0	-33.0	12.3	1.47e-04	0	43	0	349175808	22	4511
2026-01-21 09:18:57.92	105.37	25.25	-31.0	-32.8	12.5	1.09e-04	0	43	0	351272960	22	4466
2026-01-21 09:18:58.92	105.18	25.37	-31.1	-33.3	12.2	1.39e-04	0	43	0	353370112	22	4621
2026-01-21 09:18:59.93	104.98	25.50	-31.2	-33.7	12.0	2.72e-04	0	43	0	354418688	22	4770
2026-01-21 09:19:00.93	104.79	25.62	-31.4	-34.3	11.5	5.62e-04	0	43	0	356515840	22	4987
2026-01-21 09:19:01.93	104.59	25.75	-31.4	-33.8	11.4	1.05e-03	0	43	0	358612992	23	4750
2026-01-21 09:19:02.93	104.39	25.87	-31.4	-33.7	11.5	8.54e-04	0	43	0	360710144	23	4704
2026-01-21 09:19:03.93	104.19	26.00	-31.4	-33.6	11.7	7.10e-04	0	43	0	362807296	23	4661
2026-01-21 09:19:04.93	103.99	26.12	-31.4	-33.6	11.6	5.93e-04	0	43	0	363855872	23	4676
2026-01-21 09:19:05.94	103.79	26.25	-31.5	-34.1	11.2	8.99e-04	0	43	0	365953024	23	4843
2026-01-21 09:19:06.94	103.58	26.37	-31.6	-34.5	10.8	1.29e-03	0	43	0	368050176	23	5033
2026-01-21 09:19:07.94	103.38	26.50	-31.8	-35.0	10.5	3.07e-03	0	43	0	370147328	23	5222
2026-01-21 09:19:08.94	103.17	26.62	-31.7	-34.8	10.5	3.44e-03	0	43	0	372244480	23	5159
2026-01-21 09:19:09.95	102.96	26.75	-31.5	-34.2	11.2	2.26e-03	0	43	0	373293056	23	4872
2026-01-21 09:19:10.95	102.75	26.88	-31.6	-34.5	10.9	1.87e-03	0	43	0	375390208	23	5030
2026-01-21 09:19:11.95	102.53	27.00	-31.6	-34.5	11.0	1.23e-03	0	43	0	377487360	23	5036
2026-01-21 09:19:12.96	102.32	27.13	-31.7	-34.7	10.8	1.49e-03	0	43	0	379584512	23	5098
2026-01-21 09:19:13.96	102.10	27.25	-31.6	-34.5	10.9	2.18e-03	0	44	0	381681664	23	5013
2026-01-21 09:19:14.97	101.88	27.38	-31.4	-33.6	11.6	1.04e-03	0	43	0	382730240	23	4674
2026-01-21 09:19:15.96	101.66	27.51	-31.2	-33.2	11.9	6.53e-04	0	44	0	384827392	23	4501
2026-01-21 09:19:16.97	101.44	27.64	-31.1	-32.8	12.2	3.97e-04	0	43	0	386924544	23	4353
2026-01-21 09:19:17.98	101.22	27.76	-31.4	-33.6	11.7	4.79e-04	0	43	0	389021696	23	4650
2026-01-21 09:19:18.99	100.99	27.89	-31.2	-33.2	12.0	5.62e-04	0	43	0	391118848	23	4492
2026-01-21 09:19:19.99	100.76	28.02	-31.3	-33.4	11.9	3.29e-04	0	43	0	392167424	23	4566
2026-01-21 09:19:20.99	100.53	28.14	-31.1	-32.7	12.4	2.36e-04	0	43	0	394264576	23	4324
2026-01-21 09:19:21.99	100.30	28.27	-31.0	-32.4	12.5	1.29e-04	0	44	0	396361728	23	4248
2026-01-21 09:19:23.00	100.07	28.40	-31.2	-32.9	12.2	1.69e-04	0	44	0	398458880	23	4403
2026-01-21 09:19:24.00	99.83	28.53	-31.2	-33.0	12.1	2.00e-04	0	44	0	399507456	23	4420
2026-01-21 09:19:25.00	99.60	28.65	-31.2	-32.9	12.2	3.04e-04	0	44	0	401604608	23	4406
2026-01-21 09:19:26.00	99.36	28.78	-31.2	-33.0	12.1	5.31e-04	0	44	0	403701760	23	4438
2026-01-21 09:19:27.01	99.12	28.91	-31.1	-32.8	12.3	2.56e-04	0	44	0	405798912	23	4355
2026-01-21 09:19:28.00	98.88	29.04	-31.3	-33.4	11.9	2.46e-04	0	44	0	407896064	23	4553
2026-01-21 09:19:29.01	98.63	29.16	-31.0	-32.4	12.6	2.32e-04	0	44	0	408944640	23	4217
2026-01-21 09:19:30.01	98.39	29.29	-31.2	-32.8	12.3	1.65e-04	0	44	0	411041792	23	4366
2026-01-21 09:19:31.01	98.14	29.42	-31.5	-34.0	11.4	3.16e-04	0	43	0	413138944	23	4763
2026-01-21 09:19:32.01	97.89	29.54	-31.6	-34.1	11.3	9.84e-04	0	43	0	415236096	23	4835
2026-01-21 09:19:33.01	97.64	29.67	-31.9	-35.2	10.7	2.18e-03	0	43	0	417333248	23	5254
2026-01-21 09:19:34.01	97.38	29.80	-31.8	-34.9	10.8	3.22e-03	0	43	0	418381824	23	5147
2026-01-21 09:19:35.02	97.13	29.93	-31.8	-34.8	10.8	2.73e-03	0	44	0	420478976	23	5079
2026-01-21 09:19:36.02	96.87	30.05	-31.7	-34.5	11.1	2.35e-03	0	43	0	422576128	23	4971
2026-01-21 09:19:37.02	96.61	30.18	-31.8	-34.8	10.9	2.10e-03	0	43	0	424673280	23	5099
2026-01-21 09:19:38.03	96.35	30.31	-32.0	-34.9	10.4	2.93e-03	0	43	0	426770432	24	5058
2026-01-21 09:19:39.03	96.08	30.43	-31.7	-33.9	11.2	1.71e-03	0	43	0	427819008	24	4661
2026-01-21 09:19:40.03	95.82	30.56	-31.8	-34.1	11.1	1.84e-03	0	44	0	429916160	24	4726
2026-01-21 09:19:41.03	95.55	30.69	-31.7	-33.9	11.2	1.29e-03	0	44	0	432013312	24	4645
2026-01-21 09:19:42.04	95.27	30.81	-31.9	-34.5	10.8	1.22e-03	0	43	0	434110464	24	4879
2026-01-21 09:19:43.04	95.00	30.94	-32.1	-35.3	10.3	4.55e-03	0	44	0	436207616	24	5192
2026-01-21 09:19:44.05	94.73	31.07	-31.7	-34.0	11.2	3.46e-03	0	44	0	437256192	24	4665
2026-01-21 09:19:45.04	94.45	31.19	-31.6	-33.7	11.3	1.90e-03	0	44	0	439353344	24	4588
2026-01-21 09:19:46.05	94.17	31.32	-31.8	-34.4	10.8	2.26e-03	0	43	0	441450496	24	4844
2026-01-21 09:19:47.05	93.89	31.44	-32.2	-35.5	10.0	3.64e-03	0	44	0	443547648	24	5280
2026-01-21 09:19:48.06	93.60	31.57	-32.0	-34.9	10.5	6.29e-03	0	44	0	445644800	24	5034
2026-01-21 09:19:49.06	93.32	31.69	-32.0	-34.9	10.5	4.40e-03	0	43	0	446693376	24	5035
2026-01-21 09:19:50.06	93.03	31.82	-32.1	-35.5	9.9	6.93e-03	0	43	0	448790528	24	5316
2026-01-21 09:19:51.07	92.74	31.94	-32.1	-35.6	9.8	9.54e-03	0	43	0	450887680	24	5356
2026-01-21 09:19:52.08	92.44	32.07	-32.3	-36.3	9.4	1.47e-02	0	44	0	452984832	24	5688
2026-01-21 09:19:53.08	92.15	32.19	-32.2	-36.0	9.6	1.48e-02	0	44	0	454033408	24	5560
2026-01-21 09:19:54.09	91.85	32.31	-32.2	-36.0	9.6	9.62e-03	0	43	0	456130560	24	5545
2026-01-21 09:19:55.08	91.55	32.43	-32.3	-36.2	9.4	1.59e-02	0	44	0	458227712	24	5676
2026-01-21 09:19:56.09	91.25	32.56	-32.2	-36.1	9.4	1.51e-02	0	43	0	460324864	24	5619
2026-01-21 09:19:57.09	90.95	32.68	-32.3	-35.9	9.2	2.27e-02	0	44	0	462422016	25	5431
2026-01-21 09:19:58.10	90.64	32.80	-32.2	-35.5	9.6	1.76e-02	0	44	0	464519168	25	5246
2026-01-21 09:19:59.10	90.33	32.92	-32.3	-35.8	9.3	1.54e-02	0	44	0	465567744	25	5422
2026-01-21 09:20:00.10	90.02	33.04	-32.3	-36.0	9.1	1.51e-02	0	44	0	467664896	25	5534
2026-01-21 09:20:01.10	89.71	33.16	-32.2	-35.7	9.4	2.08e-02	0	43	0	469762048	25	5336
2026-01-21 09:20:02.10	89.39	33.28	-32.2	-35.5	9.5	1.59e-02	0	43	0	471859200	25	5259
2026-01-21 09:20:03.10	89.08	33.40	-32.4	-36.2	9.2	1.84e-02	0	44	0	472907776	25	5542
2026-01-21 09:20:04.10	88.76	33.52	-32.6	-37.0	8.5	3.05e-02	0	44	0	475004928	25	5982
2026-01-21 09:20:05.11	88.43	33.64	-33.0	-38.5	6.9	6.19e-02	0	44	0	477102080	26	6707
2026-01-21 09:20:06.11	88.11	33.75	-32.9	-38.0	7.3	1.08e-01	0	44	0	479199232	26	6408
2026-01-21 09:20:07.12	87.78	33.87	-32.9	-37.9	7.2	9.79e-02	0	43	0	481296384	26	6404
2026-01-21 09:20:08.12	87.45	33.99	-33.0	-38.4	7.0	1.79e-01	0	44	0	482344960	26	6660
2026-01-21 09:20:09.13	87.11	34.10	-33.1	-38.6	6.8	1.55e-01	0	44	0	484442112	26	6851
2026-01-21 09:20:10.14	86.78	34.22	-33.1	-39.0	6.5	1.98e-01	0	44	0	486539264	26	7119
2026-01-21 09:20:11.14	86.44	34.33	-32.7	-37.0	8.0	1.40e-01	0	44	0	488636416	26	5908
2026-01-21 09:20:12.14	86.10	34.45	-32.3	-35.3	9.3	3.10e-02	0	44	0	490733568	26	5078
2026-01-21 09:20:13.15	85.76	34.56	-31.8	-34.4	10.8	4.99e-03	0	43	0	491782144	24	4865
2026-01-21 09:20:14.15	85.42	34.67	-32.0	-35.1	10.3	5.40e-03	0	43	0	493879296	24	5145
2026-01-21 09:20:15.15	85.07	34.78	-31.8	-34.4	10.9	3.75e-03	0	44	0	495976448	24	4885
2026-01-21 09:20:16.16	84.72	34.89	-32.1	-35.5	10.0	4.47e-03	0	44	0	498073600	24	5348
2026-01-21 09:20:17.16	84.37	35.00	-32.3	-36.5	9.2	1.69e-02	0	44	0	500170752	24	5846
2026-01-21 09:20:18.16	84.02	35.11	-32.5	-36.8	8.6	2.80e-02	0	44	0	501219328	25	5894
2026-01-21 09:20:19.16	83.66	35.22	-32.5	-36.9	8.5	3.21e-02	0	44	0	503316480	25	5926
2026-01-21 09:20:20.16	83.31	35.32	-32.4	-36.5	8.9	2.48e-02	0	44	0	505413632	25	5721
2026-01-21 09:20:21.16	82.95	35.43	-32.4	-36.3	8.9	3.00e-02	0	44	0	507510784	25	5661
2026-01-21 09:20:22.17	82.58	35.54	-32.4	-36.2	9.0	1.99e-02	0	44	0	509607936	25	5584
2026-01-21 09:20:23.17	82.22	35.64	-32.4	-36.4	8.9	2.95e-02	0	44	0	510656512	25	5682
2026-01-21 09:20:24.18	81.85	35.74	-32.3	-35.8	9.3	2.84e-02	0	44	0	512753664	25	5412
2026-01-21 09:20:25.18	81.48	35.84	-32.2	-35.6	9.4	1.03e-02	0	44	0	514850816	25	5333
2026-01-21 09:20:26.19	81.10	35.95	-32.0	-34.7	10.1	7.83e-03	0	43	0	516947968	25	4917
2026-01-21 09:20:27.19	80.73	36.04	-32.0	-34.7	10.2	1.10e-02	0	43	0	517996544	25	4915
2026-01-21 09:20:28.19	80.35	36.14	-31.9	-34.4	10.4	6.87e-03	0	44	0	520093696	25	4789
2026-01-21 09:20:29.20	79.97	36.24	-31.7	-34.2	10.9	3.53e-03	0	44	0	522190848	24	4784
2026-01-21 09:20:30.20	79.59	36.34	-31.4	-33.3	11.5	1.21e-03	0	43	0	524288000	24	4457
2026-01-21 09:20:31.20	79.21	36.43	-31.4	-33.3	11.7	5.32e-04	0	44	0	526385152	24	4459
2026-01-21 09:20:32.20	78.83	36.53	-31.3	-33.5	11.9	4.32e-04	0	44	0	527433728	23	4634
2026-01-21 09:20:33.20	78.44	36.62	-31.1	-32.9	12.1	3.79e-04	0	44	0	529530880	23	4441
2026-01-21 09:20:34.19	78.05	36.71	-31.3	-33.5	11.7	4.82e-04	0	44	0	531628032	23	4634
2026-01-21 09:20:35.20	77.66	36.80	-31.0	-32.5	12.5	2.12e-04	0	43	0	533725184	23	4301
2026-01-21 09:20:36.20	77.27	36.89	-31.0	-32.6	12.4	1.40e-04	0	44	0	535822336	23	4323
2026-01-21 09:20:37.21	76.87	36.98	-31.0	-32.6	12.5	1.18e-04	0	44	0	536870912	23	4313
2026-01-21 09:20:38.21	76.47	37.06	-31.1	-32.9	12.3	8.16e-05	0	44	0	538968064	23	4435
2026-01-21 09:20:39.21	76.07	37.15	-30.9	-32.2	12.6	1.43e-04	0	44	0	541065216	23	4204
2026-01-21 09:20:40.21	75.67	37.23	-30.9	-32.2	12.7	1.50e-04	0	44	0	543162368	23	4197
2026-01-21 09:20:41.21	75.26	37.31	-30.7	-32.1	13.1	3.35e-05	0	43	0	545259520	22	4245
2026-01-21 09:20:42.22	74.85	37.39	-30.5	-31.5	13.6	1.06e-05	0	44	0	546308096	22	4061
2026-01-21 09:20:43.22	74.45	37.47	-30.5	-31.7	13.4	1.14e-05	0	44	0	548405248	22	4111
2026-01-21 09:20:44.23	74.03	37.55	-30.8	-32.6	12.8	3.66e-05	0	44	0	550502400	22	4396
2026-01-21 09:20:45.23	73.62	37.63	-30.9	-32.8	12.6	6.79e-05	0	44	0	552599552	22	4492
2026-01-21 09:20:46.23	73.21	37.70	-30.8	-32.5	12.8	1.17e-04	0	44	0	554696704	22	4375
2026-01-21 09:20:47.24	72.79	37.77	-30.8	-32.6	12.9	4.34e-05	0	44	0	555745280	22	4384
2026-01-21 09:20:48.24	72.37	37.85	-31.1	-33.2	12.3	7.09e-05	0	44	0	557842432	22	4604
2026-01-21 09:20:49.25	71.95	37.92	-31.2	-33.6	12.0	2.30e-04	0	43	0	559939584	22	4782
2026-01-21 09:20:50.25	71.52	37.98	-31.2	-33.8	12.0	4.52e-04	0	43	0	562036736	22	4828
2026-01-21 09:20:51.25	71.10	38.05	-30.8	-32.4	12.8	1.75e-04	0	43	0	563085312	22	4338
2026-01-21 09:20:52.24	70.68	38.12	-30.3	-31.2	13.7	3.58e-05	0	44	0	565182464	22	3970
2026-01-21 09:20:53.24	70.26	38.18	-29.7	-30.6	14.6	7.00e-07	0	43	0	567279616	20	3978
2026-01-21 09:20:54.24	69.83	38.24	-29.1	-29.5	15.7	0.00e+00	0	44	0	569376768	19	3769
2026-01-21 09:20:55.24	69.40	38.30	-29.1	-29.4	15.9	0.00e+00	0	44	0	571473920	19	3718
2026-01-21 09:20:56.25	68.96	38.36	-29.6	-30.6	15.1	0.00e+00	0	43	0	572522496	19	4041
2026-01-21 09:20:57.24	68.54	38.41	-29.7	-30.9	15.0	0.00e+00	0	44	0	574619648	19	4127
2026-01-21 09:20:58.25	68.10	38.47	-29.7	-30.8	15.0	7.00e-07	0	44	0	576716800	19	4100
2026-01-21 09:20:59.25	67.66	38.52	-29.6	-30.5	15.2	0.00e+00	0	44	0	578813952	19	4015
2026-01-21 09:21:00.25	67.23	38.57	-29.7	-30.9	15.0	0.00e+00	0	44	0	580911104	19	4126
2026-01-21 09:21:01.25	66.79	38.62	-29.7	-30.7	15.0	0.00e+00	0	44	0	581959680	19	4069
2026-01-21 09:21:02.25	66.35	38.67	-30.0	-31.0	14.5	7.00e-07	0	44	0	584056832	20	4060
2026-01-21 09:21:03.25	65.91	38.71	-30.3	-31.8	14.1	7.00e-07	0	44	0	586153984	20	4297
2026-01-21 09:21:04.25	65.47	38.76	-30.6	-32.1	13.6	3.00e-06	0	44	0	588251136	21	4291
2026-01-21 09:21:05.26	65.02	38.80	-30.3	-31.4	14.0	7.00e-07	0	43	0	590348288	21	4091
2026-01-21 09:21:06.26	64.58	38.84	-29.8	-30.5	14.9	1.50e-06	0	43	0	591396864	20	3918
2026-01-21 09:21:07.26	64.13	38.88	-29.8	-30.6	14.7	7.00e-07	0	43	0	593494016	20	3965
2026-01-21 09:21:08.26	63.68	38.91	-29.8	-30.6	14.8	7.00e-07	0	43	0	595591168	20	3951
2026-01-21 09:21:09.27	63.23	38.95	-29.8	-30.6	14.8	0.00e+00	0	44	0	597688320	20	3943
2026-01-21 09:21:10.27	62.79	38.98	-29.9	-30.8	14.7	0.00e+00	0	43	0	599785472	20	3997
2026-01-21 09:21:11.28	62.33	39.01	-30.0	-31.2	14.4	3.80e-06	0	43	0	600834048	20	4110
2026-01-21 09:21:12.28	61.88	39.04	-29.9	-30.9	14.5	0.00e+00	0	43	0	602931200	20	4039
2026-01-21 09:21:13.29	61.43	39.06	-29.9	-30.9	14.6	0.00e+00	0	43	0	605028352	20	4025
2026-01-21 09:21:14.30	60.97	39.09	-29.6	-30.1	15.1	7.00e-07	0	44	0	607125504	20	3807
2026-01-21 09:21:15.30	60.52	39.11	-29.6	-30.0	15.1	7.00e-07	0	44	0	609222656	20	3789
2026-01-21 09:21:16.30	60.07	39.13	-29.6	-30.1	15.1	0.00e+00	0	43	0	610271232	20	3809
2026-01-21 09:21:17.31	59.61	39.15	-29.4	-29.5	15.5	7.00e-07	0	43	0	612368384	20	3661
2026-01-21 09:21:18.31	59.16	39.16	-29.6	-30.2	15.1	0.00e+00	0	43	0	614465536	20	3837
2026-01-21 09:21:19.31	58.71	39.17	-30.3	-31.9	14.0	0.00e+00	0	43	0	616562688	20	4337
2026-01-21 09:21:20.31	58.25	39.19	-30.5	-32.0	13.5	6.80e-06	0	43	0	618659840	21	4284
2026-01-21 09:21:21.31	57.80	39.20	-30.5	-32.1	13.4	2.05e-05	0	44	0	619708416	21	4306
2026-01-21 09:21:22.30	57.35	39.20	-30.7	-32.6	13.1	1.44e-05	0	44	0	621805568	21	4493
2026-01-21 09:21:23.31	56.89	39.21	-31.1	-33.3	12.3	4.95e-05	0	43	0	623902720	22	4626
2026-01-21 09:21:24.31	56.43	39.21	-31.2	-33.5	12.2	2.26e-04	0	43	0	625999872	22	4710
2026-01-21 09:21:25.31	55.98	39.21	-31.1	-32.5	12.5	3.99e-04	0	44	0	627048448	23	4272
2026-01-21 09:21:26.31	55.52	39.21	-30.9	-32.1	12.9	9.53e-05	0	44	0	629145600	23	4127
2026-01-21 09:21:27.32	55.07	39.21	-30.9	-32.7	12.9	3.05e-05	0	44	0	631242752	22	4392
2026-01-21 09:21:28.32	54.61	39.21	-31.2	-33.4	12.3	1.86e-04	0	44	0	633339904	22	4644
2026-01-21 09:21:29.32	54.16	39.20	-31.3	-33.6	12.2	1.98e-04	0	43	0	635437056	22	4736
2026-01-21 09:21:30.32	53.70	39.19	-31.5	-34.2	11.8	3.20e-04	0	44	0	636485632	22	4950
2026-01-21 09:21:31.32	53.25	39.18	-31.4	-33.5	11.9	3.69e-04	0	44	0	638582784	23	4594
2026-01-21 09:21:32.33	52.79	39.17	-31.5	-33.8	11.7	3.19e-04	0	44	0	640679936	23	4685
2026-01-21 09:21:33.33	52.34	39.15	-31.2	-33.0	12.3	2.12e-04	0	44	0	642777088	23	4440
2026-01-21 09:21:34.33	51.88	39.13	-31.4	-33.7	11.8	4.52e-04	0	44	0	644874240	23	4686
2026-01-21 09:21:35.33	51.43	39.11	-31.8	-34.8	11.0	1.27e-03	0	44	0	645922816	23	5081
2026-01-21 09:21:36.34	50.98	39.09	-32.1	-35.3	10.2	6.13e-03	0	44	0	648019968	24	5242
2026-01-21 09:21:37.34	50.53	39.07	-32.1	-35.4	10.1	5.04e-03	0	43	0	650117120	24	5293
2026-01-21 09:21:38.34	50.08	39.05	-32.1	-35.6	9.9	3.18e-03	0	44	0	652214272	24	5392
2026-01-21 09:21:39.35	49.62	39.02	-32.1	-35.4	10.1	2.59e-03	0	44	0	653262848	24	5297
2026-01-21 09:21:40.35	49.17	38.99	-32.0	-35.2	10.1	6.27e-03	0	44	0	655360000	24	5226
2026-01-21 09:21:41.36	48.72	38.96	-31.9	-35.0	10.4	2.98e-03	0	43	0	657457152	24	5140
2026-01-21 09:21:42.36	48.27	38.92	-32.1	-35.5	9.9	9.17e-03	0	44	0	659554304	24	5365
2026-01-21 09:21:43.36	47.83	38.89	-32.2	-36.0	9.6	1.21e-02	0	44	0	661651456	24	5594
2026-01-21 09:21:44.37	47.38	38.85	-32.1	-35.7	9.8	9.36e-03	0	44	0	663748608	24	5448
2026-01-21 09:21:45.37	46.93	38.81	-32.1	-35.8	9.8	5.93e-03	0	44	0	664797184	24	5473
2026-01-21 09:21:46.38	46.49	38.77	-32.4	-36.8	9.0	1.26e-02	0	44	0	666894336	24	5985
2026-01-21 09:21:47.38	46.05	38.73	-32.1	-35.9	9.6	1.26e-02	0	44	0	668991488	24	5526
2026-01-21 09:21:48.39	45.60	38.68	-32.2	-35.9	9.5	1.23e-02	0	43	0	671088640	24	5555
2026-01-21 09:21:49.39	45.16	38.64	-32.1	-35.6	9.9	7.40e-03	0	43	0	672137216	24	5390
2026-01-21 09:21:50.40	44.72	38.59	-32.2	-35.9	9.7	1.45e-02	0	44	0	674234368	24	5510
2026-01-21 09:21:51.40	44.28	38.54	-32.1	-35.9	9.8	9.03e-03	0	44	0	676331520	24	5522
2026-01-21 09:21:52.41	43.84	38.49	-32.2	-36.1	9.4	2.55e-02	0	44	0	678428672	24	5655
2026-01-21 09:21:53.41	43.41	38.43	-32.4	-36.9	8.9	1.14e-02	0	44	0	680525824	24	6037
2026-01-21 09:21:54.40	42.98	38.38	-32.7	-37.7	7.7	7.06e-02	0	44	0	681574400	25	6470
2026-01-21 09:21:55.40	42.55	38.32	-33.0	-39.5	6.4	2.04e-01	0	44	0	683671552	25	7640
2026-01-21 09:21:56.40	42.12	38.26	-32.8	-38.4	7.1	1.92e-01	0	44	0	685768704	25	6919
2026-01-21 09:21:57.40	41.69	38.20	-32.4	-36.7	8.4	8.16e-02	0	44	0	687865856	25	5916
2026-01-21 09:21:58.40	41.27	38.14	-32.0	-35.0	9.8	9.84e-03	0	44	0	689963008	25	5083
2026-01-21 09:21:59.40	40.84	38.07	-31.8	-34.6	10.6	3.01e-03	0	44	0	691011584	24	4953
2026-01-21 09:22:00.39	40.43	38.01	-31.9	-34.7	10.6	6.31e-03	0	44	0	693108736	24	5013
2026-01-21 09:22:01.40	40.00	37.94	-31.7	-34.3	10.9	2.80e-03	0	44	0	695205888	24	4823
2026-01-21 09:22:02.40	39.58	37.87	-31.7	-34.3	10.8	2.37e-03	0	44	0	697303040	24	4854
2026-01-21 09:22:03.40	39.16	37.80	-31.8	-34.5	10.7	2.25e-03	0	44	0	699400192	24	4917
2026-01-21 09:22:04.42	38.74	37.73	-31.8	-34.6	10.6	2.93e-03	0	44	0	700448768	24	4978
2026-01-21 09:22:05.42	38.33	37.65	-31.2	-33.1	12.0	6.29e-04	0	44	0	702545920	23	4479
2026-01-21 09:22:06.43	37.91	37.58	-30.6	-31.8	13.3	9.84e-05	0	44	0	704643072	22	4115
2026-01-21 09:22:07.44	37.50	37.50	-30.3	-30.9	13.9	1.06e-05	0	43	0	706740224	22	3858
2026-01-21 09:22:08.44	37.09	37.42	-30.3	-31.4	13.9	5.30e-06	0	44	0	708837376	21	4072
2026-01-21 09:22:09.44	36.68	37.34	-30.1	-31.0	14.1	3.00e-06	0	44	0	709885952	21	3972
2026-01-21 09:22:10.44	36.28	37.26	-30.0	-30.7	14.2	1.50e-06	0	44	0	711983104	21	3896
2026-01-21 09:22:11.45	35.88	37.18	-30.1	-31.1	14.0	7.00e-07	0	44	0	714080256	21	4000
2026-01-21 09:22:12.45	35.48	37.09	-30.2	-31.2	14.0	1.50e-06	0	44	0	716177408	21	4042
2026-01-21 09:22:13.45	35.08	37.01	-30.0	-30.7	14.2	7.00e-07	0	44	0	717225984	21	3913
2026-01-21 09:22:14.45	34.68	36.92	-30.2	-31.1	13.9	2.20e-06	0	44	0	719323136	21	4022
2026-01-21 09:22:15.45	34.29	36.83	-30.4	-31.6	13.6	2.20e-06	0	44	0	721420288	21	4166
2026-01-21 09:22:16.45	33.90	36.74	-30.3	-31.6	13.6	1.90e-05	0	44	0	723517440	21	4166
2026-01-21 09:22:17.45	33.51	36.65	-30.0	-30.6	14.3	3.80e-06	0	44	0	725614592	21	3879
2026-01-21 09:22:18.45	33.12	36.56	-30.3	-31.5	13.8	3.00e-06	0	44	0	726663168	21	4123
2026-01-21 09:22:19.46	32.74	36.47	-30.8	-32.8	12.9	1.75e-05	0	44	0	728760320	21	4563
2026-01-21 09:22:20.46	32.35	36.37	-31.3	-33.9	11.7	2.20e-04	0	44	0	730857472	22	4849
2026-01-21 09:22:21.47	31.97	36.28	-31.2	-33.6	11.9	6.01e-04	0	44	0	732954624	22	4760
2026-01-21 09:22:22.48	31.59	36.18	-31.2	-33.7	11.9	4.74e-04	0	44	0	735051776	22	4799
2026-01-21 09:22:23.48	31.21	36.08	-31.2	-33.7	12.0	3.50e-04	0	44	0	736100352	22	4749
2026-01-21 09:22:24.48	30.84	35.98	-31.2	-32.9	12.1	6.19e-04	0	44	0	738197504	23	4378
2026-01-21 09:22:25.49	30.46	35.88	-30.7	-32.1	13.0	1.01e-04	0	44	0	740294656	22	4215
2026-01-21 09:22:26.49	30.10	35.78	-30.5	-32.1	13.4	9.10e-06	0	44	0	742391808	21	4304
2026-01-21 09:22:27.49	29.73	35.68	-30.2	-31.1	14.0	2.20e-06	0	44	0	744488960	21	4020
2026-01-21 09:22:28.49	29.37	35.58	-30.4	-31.7	13.6	3.00e-06	0	44	0	745537536	21	4197
2026-01-21 09:22:29.48	29.01	35.47	-30.6	-32.1	13.4	1.83e-05	0	44	0	747634688	21	4321
2026-01-21 09:22:30.48	28.65	35.37	-30.8	-32.9	12.9	6.10e-05	0	44	0	749731840	21	4559
2026-01-21 09:22:31.48	28.29	35.26	-30.9	-33.1	12.6	3.20e-05	0	44	0	751828992	21	4644
2026-01-21 09:22:32.48	27.94	35.16	-31.1	-33.1	12.4	1.33e-04	0	44	0	753926144	22	4560
2026-01-21 09:22:33.49	27.58	35.05	-30.8	-32.4	12.8	1.07e-04	0	44	0	754974720	22	4330
2026-01-21 09:22:34.49	27.23	34.94	-30.7	-32.1	13.0	3.12e-05	0	44	0	757071872	22	4208
2026-01-21 09:22:35.50	26.88	34.83	-30.3	-31.3	13.9	1.67e-05	0	44	0	759169024	21	4057
2026-01-21 09:22:36.51	26.53	34.72	-30.4	-31.7	13.7	2.20e-06	0	44	0	761266176	21	4180
2026-01-21 09:22:37.51	26.19	34.61	-30.9	-32.9	12.9	3.20e-05	0	44	0	763363328	21	4544
2026-01-21 09:22:38.51	25.85	34.50	-31.6	-34.0	11.5	9.30e-05	0	43	0	764411904	23	4743
2026-01-21 09:22:39.51	25.51	34.38	-31.6	-34.1	11.3	2.66e-03	0	44	0	766509056	23	4812
2026-01-21 09:22:40.51	25.18	34.27	-31.5	-33.7	11.7	7.93e-04	0	44	0	768606208	23	4645
2026-01-21 09:22:41.52	24.84	34.16	-31.5	-33.8	11.6	9.77e-04	0	44	0	770703360	23	4687
2026-01-21 09:22:42.52	24.51	34.04	-32.0	-34.7	10.6	3.14e-03	0	44	0	771751936	24	4936
2026-01-21 09:22:43.52	24.18	33.93	-31.9	-34.6	10.6	5.32e-03	0	44	0	773849088	24	4906
2026-01-21 09:22:44.53	23.85	33.81	-31.8	-34.2	11.0	2.24e-03	0	44	0	775946240	24	4762
2026-01-21 09:22:45.54	23.52	33.69	-31.6	-33.7	11.3	1.98e-03	0	44	0	778043392	24	4561
2026-01-21 09:22:46.54	23.20	33.58	-31.9	-34.7	10.5	3.20e-03	0	44	0	780140544	24	4959
2026-01-21 09:22:47.54	22.88	33.46	-31.9	-34.7	10.4	6.18e-03	0	44	0	781189120	24	4950
2026-01-21 09:22:48.54	22.57	33.34	-32.1	-35.2	10.2	4.38e-03	0	44	0	783286272	24	5169
2026-01-21 09:22:49.55	22.25	33.22	-31.8	-34.4	10.6	5.72e-03	0	44	0	785383424	24	4850
2026-01-21 09:22:50.54	21.94	33.10	-31.9	-34.5	10.6	2.87e-03	0	44	0	787480576	24	4898
2026-01-21 09:22:51.55	21.63	32.98	-32.0	-35.1	10.3	4.12e-03	0	43	0	789577728	24	5109
2026-01-21 09:22:52.56	21.32	32.86	-32.2	-35.8	9.7	1.32e-02	0	43	0	790626304	24	5437
2026-01-21 09:22:53.56	21.01	32.74	-32.1	-35.4	10.1	8.00e-03	0	44	0	792723456	24	5241
2026-01-21 09:22:54.56	20.71	32.62	-32.3	-35.8	9.7	8.55e-03	0	44	0	794820608	24	5438
2026-01-21 09:22:55.56	20.41	32.50	-32.1	-35.2	10.0	1.09e-02	0	44	0	796917760	24	5157
2026-01-21 09:22:56.55	20.11	32.38	-32.1	-35.4	10.0	5.72e-03	0	44	0	799014912	24	5265
2026-01-21 09:22:57.56	19.81	32.25	-32.4	-36.3	9.3	1.60e-02	0	44	0	800063488	24	5648
2026-01-21 09:22:58.56	19.52	32.13	-32.5	-36.2	9.0	2.15e-02	0	44	0	802160640	25	5518
2026-01-21 09:22:59.56	19.23	32.01	-32.2	-35.1	9.9	1.13e-02	0	44	0	804257792	25	5018
2026-01-21 09:23:00.57	18.93	31.88	-32.0	-34.5	10.3	6.62e-03	0	44	0	806354944	25	4774
2026-01-21 09:23:01.57	18.65	31.76	-32.1	-34.8	10.1	4.65e-03	0	44	0	808452096	25	4904
2026-01-21 09:23:02.57	18.36	31.64	-32.0	-34.4	10.4	6.93e-03	0	44	0	809500672	25	4738
2026-01-21 09:23:03.57	18.08	31.51	-31.9	-33.9	10.7	3.32e-03	0	44	0	811597824	25	4573
2026-01-21 09:23:04.58	17.80	31.39	-31.5	-33.2	11.6	9.44e-04	0	44	0	813694976	24	4399
2026-01-21 09:23:05.57	17.52	31.26	-31.2	-32.8	12.3	4.23e-04	0	44	0	815792128	23	4336
2026-01-21 09:23:06.58	17.24	31.14	-31.0	-32.4	12.6	1.10e-04	0	44	0	816840704	23	4203
2026-01-21 09:23:07.58	16.97	31.01	-31.0	-32.3	12.6	7.85e-05	0	44	0	818937856	23	4187
2026-01-21 09:23:08.58	16.69	30.89	-31.2	-32.8	12.2	1.56e-04	0	43	0	821035008	23	4352
2026-01-21 09:23:09.59	16.42	30.76	-31.6	-34.2	11.3	1.19e-03	0	44	0	823132160	23	4854
2026-01-21 09:23:10.59	16.15	30.63	-31.8	-34.8	10.8	2.22e-03	0	44	0	825229312	23	5102
2026-01-21 09:23:11.60	15.89	30.51	-32.3	-35.9	9.7	4.53e-03	0	44	0	826277888	24	5460
2026-01-21 09:23:12.60	15.62	30.38	-32.6	-36.7	8.5	2.39e-02	0	44	0	828375040	25	5786
2026-01-21 09:23:13.61	15.36	30.25	-32.8	-37.9	7.6	6.88e-02	0	44	0	830472192	25	6422
2026-01-21 09:23:14.61	15.10	30.13	-32.7	-37.3	8.0	9.66e-02	0	44	0	832569344	25	6094
2026-01-21 09:23:15.62	14.84	30.00	-32.4	-36.1	9.0	4.44e-02	0	43	0	834666496	25	5524
2026-01-21 09:23:16.62	14.58	29.88	-32.2	-35.2	9.6	1.51e-02	0	44	0	835715072	25	5094
2026-01-21 09:23:17.61	14.33	29.75	-32.2	-35.4	9.6	9.54e-03	0	44	0	837812224	25	5174
2026-01-21 09:23:18.62	14.08	29.62	-32.2	-35.2	9.6	1.34e-02	0	44	0	839909376	25	5103
2026-01-21 09:23:19.62	13.83	29.50	-32.1	-34.9	9.8	9.73e-03	0	43	0	842006528	25	4987
2026-01-21 09:23:20.62	13.58	29.37	-32.0	-34.6	10.1	6.97e-03	0	44	0	844103680	25	4851
2026-01-21 09:23:21.63	13.33	29.24	-32.0	-34.7	10.0	6.90e-03	0	44	0	845152256	25	4892
2026-01-21 09:23:22.63	13.09	29.11	-32.3	-35.4	9.5	8.77e-03	0	43	0	847249408	25	5185
2026-01-21 09:23:23.64	12.85	28.99	-32.3	-35.7	9.3	1.51e-02	0	43	0	849346560	25	5315
2026-01-21 09:23:24.64	12.61	28.86	-32.2	-35.3	9.6	2.00e-02	0	43	0	851443712	25	5127
2026-01-21 09:23:25.64	12.37	28.73	-32.1	-34.8	9.9	6.35e-03	0	44	0	853540864	25	4941
2026-01-21 09:23:26.64	12.13	28.61	-31.9	-34.2	10.4	4.77e-03	0	44	0	854589440	25	4688
2026-01-21 09:23:27.64	11.90	28.48	-31.7	-33.9	11.0	3.02e-03	0	44	0	856686592	24	4662
2026-01-21 09:23:28.65	11.67	28.35	-31.4	-33.1	11.6	1.20e-03	0	44	0	858783744	24	4373
2026-01-21 09:23:29.65	11.44	28.23	-31.4	-33.5	11.7	5.69e-04	0	44	0	860880896	23	4579
2026-01-21 09:23:30.65	11.21	28.10	-31.5	-33.9	11.3	1.10e-03	0	44	0	862978048	23	4742
2026-01-21 09:23:31.65	10.98	27.97	-31.3	-33.3	11.7	7.23e-04	0	44	0	864026624	23	4542
2026-01-21 09:23:32.65	10.76	27.85	-31.3	-33.2	11.9	3.95e-04	0	44	0	866123776	23	4501
2026-01-21 09:23:33.65	10.53	27.72	-31.4	-33.6	11.6	5.41e-04	0	43	0	868220928	23	4643
2026-01-21 09:23:34.65	10.31	27.60	-31.4	-33.7	11.5	1.07e-03	0	44	0	870318080	23	4680
2026-01-21 09:23:35.66	10.09	27.47	-31.3	-33.2	11.9	8.64e-04	0	44	0	872415232	23	4484
2026-01-21 09:23:36.65	9.88	27.34	-31.6	-34.2	11.1	1.11e-03	0	44	0	873463808	23	4848
2026-01-21 09:23:37.65	9.66	27.22	-31.4	-33.5	11.6	9.86e-04	0	44	0	875560960	23	4586
2026-01-21 09:23:38.65	9.45	27.09	-31.0	-32.4	12.4	3.19e-04	0	44	0	877658112	23	4216
2026-01-21 09:23:39.65	9.23	26.97	-30.8	-32.3	12.8	1.10e-04	0	44	0	879755264	22	4286
2026-01-21 09:23:40.66	9.02	26.84	-30.8	-32.3	12.8	5.03e-05	0	43	0	880803840	22	4275
2026-01-21 09:23:41.66	8.81	26.72	-30.7	-31.9	13.0	8.77e-05	0	44	0	882900992	22	4167
2026-01-21 09:23:42.66	8.61	26.59	-30.6	-31.7	13.1	2.59e-05	0	44	0	884998144	22	4099
2026-01-21 09:23:43.66	8.40	26.47	-30.7	-32.0	13.0	2.44e-05	0	44	0	887095296	22	4205
2026-01-21 09:23:44.66	8.20	26.34	-30.7	-32.0	13.0	2.97e-05	0	44	0	889192448	22	4183
2026-01-21 09:23:45.67	7.99	26.22	-30.9	-32.6	12.5	5.11e-05	0	44	0	890241024	22	4393
2026-01-21 09:23:46.68	7.79	26.09	-30.8	-32.4	12.7	1.84e-04	0	44	0	892338176	22	4311
2026-01-21 09:23:47.67	7.59	25.97	-30.8	-32.3	12.8	7.62e-05	0	44	0	894435328	22	4273
2026-01-21 09:23:48.67	7.39	25.84	-30.6	-31.8	13.1	4.65e-05	0	44	0	896532480	22	4120
2026-01-21 09:23:49.68	7.20	25.72	-30.6	-31.9	13.0	2.97e-05	0	44	0	898629632	22	4169
2026-01-21 09:23:50.67	7.00	25.60	-30.6	-31.9	12.9	5.11e-05	0	44	0	899678208	22	4174
2026-01-21 09:23:51.67	6.81	25.47	-30.9	-32.8	12.3	1.53e-04	0	44	0	901775360	22	4466
2026-01-21 09:23:52.67	6.62	25.35	-31.1	-33.3	12.1	3.07e-04	0	44	0	903872512	22	4625
2026-01-21 09:23:53.67	6.43	25.23	-31.1	-33.2	12.0	2.90e-04	0	44	0	905969664	22	4612
2026-01-21 09:23:54.67	6.24	25.11	-31.3	-33.9	11.5	5.32e-04	0	44	0	907018240	22	4868
2026-01-21 09:23:55.67	6.05	24.98	-31.4	-34.3	11.2	1.07e-03	0	44	0	909115392	22	5006
2026-01-21 09:23:56.67	5.87	24.86	-31.5	-34.2	10.9	1.62e-03	0	44	0	911212544	23	4896
2026-01-21 09:23:57.67	5.68	24.74	-31.5	-34.1	11.0	1.35e-03	0	44	0	913309696	23	4870
2026-01-21 09:23:58.68	5.50	24.62	-31.7	-34.6	10.7	2.80e-03	0	44	0	915406848	23	5039
2026-01-21 09:23:59.69	5.32	24.49	-31.5	-34.1	11.0	2.28e-03	0	44	0	916455424	23	4870
2026-01-21 09:24:00.69	5.14	24.37	-31.7	-34.6	10.7	2.30e-03	0	44	0	918552576	23	5025
2026-01-21 09:24:01.70	4.96	24.25	-31.5	-34.1	11.0	2.30e-03	0	44	0	920649728	23	4853
2026-01-21 09:24:02.70	4.78	24.13	-31.3	-33.5	11.4	1.36e-03	0	44	0	922746880	23	4643
2026-01-21 09:24:03.70	4.60	24.01	-31.0	-32.5	12.1	5.87e-04	0	44	0	924844032	23	4287
2026-01-21 09:24:04.71	4.43	23.89	-30.7	-32.1	12.7	8.54e-05	0	44	0	925892608	22	4243
2026-01-21 09:24:05.70	4.26	23.77	-30.6	-31.7	13.0	7.62e-05	0	44	0	927989760	22	4128
2026-01-21 09:24:06.70	4.09	23.65	-30.6	-31.9	12.9	3.50e-05	0	44	0	930086912	22	4184
2026-01-21 09:24:07.71	3.91	23.53	-30.5	-31.4	13.2	3.12e-05	0	44	0	932184064	22	4032
2026-01-21 09:24:08.71	3.74	23.41	-30.5	-31.4	13.2	9.90e-06	0	44	0	934281216	22	4020
2026-01-21 09:24:09.72	3.58	23.29	-30.6	-31.7	13.0	2.82e-05	0	44	0	935329792	22	4112
2026-01-21 09:24:10.72	3.41	23.17	-30.6	-31.7	13.0	4.50e-05	0	44	0	937426944	22	4114
2026-01-21 09:24:11.72	3.24	23.05	-30.8	-32.3	12.6	7.40e-05	0	44	0	939524096	22	4298
2026-01-21 09:24:12.72	3.08	22.94	-30.8	-32.5	12.4	1.03e-04	0	43	0	941621248	22	4361
2026-01-21 09:24:13.72	2.92	22.82	-30.8	-32.4	12.5	1.16e-04	0	44	0	943718400	22	4337
2026-01-21 09:24:14.72	2.76	22.70	-30.6	-31.9	12.9	6.86e-05	0	44	0	944766976	22	4190
2026-01-21 09:24:15.72	2.60	22.58	-30.6	-31.8	12.9	3.89e-05	0	44	0	946864128	22	4156
2026-01-21 09:24:16.72	2.44	22.47	-30.4	-31.3	13.2	3.89e-05	0	44	0	948961280	22	4007
2026-01-21 09:24:17.73	2.28	22.35	-30.4	-31.3	13.2	1.52e-05	0	44	0	951058432	22	4006
2026-01-21 09:24:18.73	2.12	22.23	-30.7	-32.1	12.7	4.73e-05	0	44	0	953155584	22	4244
2026-01-21 09:24:19.73	1.97	22.12	-30.8	-32.3	12.6	6.56e-05	0	44	0	954204160	22	4305
2026-01-21 09:24:20.74	1.81	22.00	-31.1	-33.3	11.9	1.72e-04	0	44	0	956301312	22	4656
2026-01-21 09:24:21.74	1.66	21.89	-31.4	-34.3	11.2	9.99e-04	0	44	0	958398464	22	5022
2026-01-21 09:24:22.75	1.51	21.77	-31.7	-34.8	10.4	3.23e-03	0	44	0	960495616	23	5156
2026-01-21 09:24:23.75	1.36	21.66	-31.8	-35.2	10.2	5.61e-03	0	44	0	961544192	23	5295
2026-01-21 09:24:24.74	1.21	21.54	-31.8	-35.0	10.2	5.38e-03	0	44	0	963641344	23	5241
2026-01-21 09:24:25.75	1.06	21.43	-31.5	-34.1	10.9	3.09e-03	0	44	0	965738496	23	4877
2026-01-21 09:24:26.75	0.91	21.31	-31.5	-34.1	10.9	2.11e-03	0	44	0	967835648	23	4872
2026-01-21 09:24:27.75	0.77	21.20	-31.3	-33.6	11.2	2.06e-03	0	44	0	969932800	23	4684
2026-01-21 09:24:28.75	0.62	21.09	-31.3	-33.6	11.3	9.88e-04	0	44	0	970981376	23	4656
2026-01-21 09:24:29.76	0.48	20.97	-31.3	-33.5	11.3	1.15e-03	0	44	0	973078528	23	4626
2026-01-21 09:24:30.76	0.33	20.86	-31.4	-33.7	11.2	1.16e-03	0	44	0	975175680	23	4695
2026-01-21 09:24:31.76	0.19	20.75	-31.3	-33.4	11.4	1.26e-03	0	44	0	977272832	23	4603
2026-01-21 09:24:32.76	0.05	20.64	-31.1	-32.9	11.8	5.42e-04	0	44	0	979369984	23	4432
2026-01-21 09:24:33.76	359.91	20.53	-31.0	-32.7	11.9	5.00e-04	0	44	0	980418560	23	4352
2026-01-21 09:24:34.77	359.77	20.41	-30.8	-32.0	12.4	2.27e-04	0	44	0	982515712	23	4119
2026-01-21 09:24:35.77	359.63	20.30	-30.9	-32.4	12.1	2.55e-04	0	44	0	984612864	23	4250
2026-01-21 09:24:36.78	359.50	20.19	-31.0	-32.6	12.0	2.75e-04	0	44	0	986710016	23	4331
2026-01-21 09:24:37.79	359.36	20.08	-30.9	-32.3	12.1	2.67e-04	0	44	0	988807168	23	4216
2026-01-21 09:24:38.79	359.22	19.97	-30.9	-32.3	12.1	2.04e-04	0	44	0	989855744	23	4239
2026-01-21 09:24:39.79	359.09	19.86	-31.0	-32.5	12.0	2.59e-04	0	44	0	991952896	23	4306
2026-01-21 09:24:40.80	358.96	19.75	-30.9	-32.4	12.1	3.16e-04	0	44	0	994050048	23	4257
2026-01-21 09:24:41.80	358.83	19.64	-30.7	-32.3	12.5	1.23e-04	0	44	0	996147200	22	4329
2026-01-21 09:24:42.80	358.69	19.53	-30.7	-32.2	12.5	9.76e-05	0	43	0	998244352	22	4297
2026-01-21 09:24:43.80	358.57	19.42	-30.4	-31.5	13.0	6.56e-05	0	44	0	999292928	22	4066
2026-01-21 09:24:44.80	358.44	19.32	-30.2	-31.4	13.3	1.83e-05	0	44	0	1001390080	21	4116
2026-01-21 09:24:45.81	358.31	19.21	-30.3	-31.6	13.2	2.59e-05	0	44	0	1003487232	21	4182
2026-01-21 09:24:46.82	358.18	19.10	-30.1	-31.2	13.5	9.10e-06	0	44	0	1005584384	21	4056
2026-01-21 09:24:47.82	358.05	18.99	-30.1	-31.2	13.4	1.14e-05	0	44	0	1007681536	21	4075
2026-01-21 09:24:48.82	357.93	18.88	-30.3	-31.6	13.2	1.83e-05	0	44	0	1008730112	21	4180
2026-01-21 09:24:49.83	357.80	18.78	-30.4	-32.0	12.9	4.50e-05	0	44	0	1010827264	21	4325
2026-01-21 09:24:50.83	357.68	18.67	-30.5	-32.2	12.7	8.01e-05	0	44	0	1012924416	21	4403
2026-01-21 09:24:51.84	357.56	18.56	-30.9	-33.3	12.1	2.10e-04	0	44	0	1015021568	21	4761
2026-01-21 09:24:52.84	357.43	18.46	-30.9	-33.6	11.9	3.36e-04	0	44	0	1016070144	21	4860
2026-01-21 09:24:53.84	357.31	18.35	-31.0	-33.6	11.8	4.00e-04	0	44	0	1018167296	21	4898
2026-01-21 09:24:54.84	357.19	18.25	-31.1	-33.5	11.6	6.23e-04	0	44	0	1020264448	22	4752
2026-01-21 09:24:55.84	357.08	18.14	-31.2	-33.9	11.3	1.12e-03	0	44	0	1022361600	22	4901
2026-01-21 09:24:56.84	356.96	18.04	-31.3	-33.9	11.3	1.06e-03	0	44	0	1024458752	22	4904
2026-01-21 09:24:57.84	356.84	17.94	-31.2	-33.7	11.4	1.02e-03	0	44	0	1025507328	22	4819
2026-01-21 09:24:58.85	356.72	17.83	-31.3	-34.0	11.2	1.28e-03	0	44	0	1027604480	22	4945
2026-01-21 09:24:59.85	356.61	17.73	-31.1	-33.6	11.5	1.12e-03	0	44	0	1029701632	22	4772
2026-01-21 09:25:00.85	356.49	17.63	-30.9	-32.9	12.0	5.60e-04	0	44	0	1031798784	22	4522
2026-01-21 09:25:01.86	356.38	17.52	-30.9	-32.8	12.0	3.13e-04	0	44	0	1033895936	22	4490
2026-01-21 09:25:02.86	356.26	17.42	-31.0	-33.1	11.9	3.18e-04	0	44	0	1034944512	22	4585
2026-01-21 09:25:03.86	356.15	17.32	-31.1	-33.6	11.5	5.28e-04	0	43	0	1037041664	22	4763
2026-01-21 09:25:04.87	356.04	17.21	-31.0	-33.2	11.7	8.84e-04	0	44	0	1039138816	22	4636
2026-01-21 09:25:05.87	355.93	17.11	-31.0	-33.2	11.7	4.83e-04	0	43	0	1041235968	22	4651
2026-01-21 09:25:06.88	355.82	17.01	-31.2	-33.8	11.3	7.53e-04	0	44	0	1043333120	22	4845
2026-01-21 09:25:07.88	355.71	16.91	-31.1	-33.5	11.5	1.03e-03	0	44	0	1044381696	22	4748
2026-01-21 09:25:08.88	355.60	16.81	-31.1	-33.5	11.5	8.68e-04	0	44	0	1046478848	22	4740
2026-01-21 09:25:09.89	355.49	16.71	-31.3	-34.2	11.0	1.51e-03	0	44	0	1048576000	22	5025
2026-01-21 09:25:10.90	355.38	16.61	-31.3	-34.2	11.0	1.81e-03	0	44	0	1050673152	22	5007
2026-01-21 09:25:11.90	355.28	16.51	-31.5	-34.5	10.5	2.30e-03	0	44	0	1052770304	23	5045
2026-01-21 09:25:12.90	355.17	16.41	-31.5	-34.3	10.5	3.77e-03	0	44	0	1053818880	23	4972
2026-01-21 09:25:13.91	355.06	16.31	-31.5	-34.4	10.4	3.89e-03	0	44	0	1055916032	23	5039
2026-01-21 09:25:14.92	354.96	16.21	-31.5	-34.4	10.4	4.33e-03	0	44	0	1058013184	23	5027
2026-01-21 09:25:15.92	354.86	16.11	-31.5	-34.5	10.3	4.99e-03	0	44	0	1060110336	23	5086
2026-01-21 09:25:16.92	354.75	16.01	-31.5	-34.6	10.2	5.98e-03	0	44	0	1062207488	23	5094
2026-01-21 09:25:17.92	354.65	15.92	-31.3	-33.7	10.8	4.27e-03	0	44	0	1063256064	23	4759
2026-01-21 09:25:18.93	354.55	15.82	-31.2	-33.3	11.1	1.78e-03	0	44	0	1065353216	23	4609
2026-01-21 09:25:19.94	354.45	15.72	-31.0	-32.7	11.6	8.20e-04	0	44	0	1067450368	23	4407
2026-01-21 09:25:20.94	354.35	15.62	-30.9	-32.6	11.7	6.17e-04	0	44	0	1069547520	23	4351
2026-01-21 09:25:21.95	354.25	15.52	-30.8	-32.3	11.9	5.07e-04	0	44	0	1071644672	23	4259
2026-01-21 09:25:22.95	354.15	15.43	-31.0	-32.9	11.5	6.50e-04	0	44	0	1072693248	23	4440
2026-01-21 09:25:23.96	354.05	15.33	-30.8	-32.5	12.1	5.82e-04	0	44	0	1074790400	22	4417
2026-01-21 09:25:24.96	353.95	15.24	-30.8	-32.7	12.0	2.68e-04	0	44	0	1076887552	22	4466
2026-01-21 09:25:25.96	353.86	15.14	-30.7	-32.3	12.3	2.34e-04	0	44	0	1078984704	22	4329
2026-01-21 09:25:26.96	353.76	15.04	-30.5	-31.8	12.5	1.12e-04	0	44	0	1081081856	22	4185
2026-01-21 09:25:27.97	353.66	14.95	-30.6	-32.0	12.4	1.14e-04	0	44	0	1082130432	22	4251
2026-01-21 09:25:28.97	353.57	14.85	-30.6	-32.1	12.4	1.72e-04	0	44	0	1084227584	22	4281
2026-01-21 09:25:29.97	353.47	14.76	-30.7	-32.3	12.2	1.43e-04	0	44	0	1086324736	22	4333
2026-01-21 09:25:30.97	353.38	14.67	-30.9	-33.1	11.7	3.41e-04	0	44	0	1088421888	22	4618
2026-01-21 09:25:31.97	353.29	14.57	-30.7	-32.5	12.1	5.34e-04	0	44	0	1089470464	22	4407
2026-01-21 09:25:32.97	353.20	14.48	-30.6	-32.1	12.3	1.83e-04	0	43	0	1091567616	22	4270
2026-01-21 09:25:33.97	353.10	14.39	-30.5	-32.0	12.4	1.72e-04	0	44	0	1093664768	22	4243
2026-01-21 09:25:34.98	353.01	14.29	-30.5	-31.7	12.6	1.14e-04	0	44	0	1095761920	22	4164
2026-01-21 09:25:35.98	352.92	14.20	-30.4	-31.5	12.8	8.39e-05	0	44	0	1097859072	22	4080
2026-01-21 09:25:36.98	352.83	14.11	-30.6	-32.1	12.3	1.33e-04	0	44	0	1098907648	22	4295
2026-01-21 09:25:37.99	352.74	14.01	-30.5	-32.0	12.4	1.35e-04	0	44	0	1101004800	22	4249
2026-01-21 09:25:38.99	352.65	13.92	-30.4	-31.6	12.6	7.93e-05	0	44	0	1103101952	22	4132
2026-01-21 09:25:39.99	352.56	13.83	-30.6	-32.1	12.3	1.52e-04	0	44	0	1105199104	22	4284
2026-01-21 09:25:40.99	352.48	13.74	-30.5	-31.9	12.5	1.84e-04	0	44	0	1107296256	22	4212
2026-01-21 09:25:42.00	352.39	13.65	-30.6	-32.1	12.3	1.50e-04	0	44	0	1108344832	22	4282
2026-01-21 09:25:43.00	352.30	13.56	-30.7	-32.5	12.0	2.36e-04	0	44	0	1110441984	22	4433
2026-01-21 09:25:44.01	352.22	13.47	-30.8	-32.8	11.8	4.02e-04	0	44	0	1112539136	22	4543
2026-01-21 09:25:45.01	352.13	13.38	-30.9	-32.9	11.7	5.18e-04	0	44	0	1114636288	22	4569
2026-01-21 09:25:46.01	352.05	13.29	-31.0	-33.4	11.3	1.06e-03	0	44	0	1116733440	22	4753
2026-01-21 09:25:47.01	351.96	13.20	-31.1	-33.7	11.2	1.29e-03	0	44	0	1117782016	22	4856
2026-01-21 09:25:48.01	351.88	13.11	-31.2	-34.0	10.9	1.82e-03	0	44	0	1119879168	22	4974
2026-01-21 09:25:49.01	351.79	13.02	-31.2	-34.1	10.8	2.25e-03	0	44	0	1121976320	22	5018
2026-01-21 09:25:50.01	351.71	12.93	-31.3	-34.2	10.7	3.02e-03	0	44	0	1124073472	22	5067
2026-01-21 09:25:51.02	351.63	12.84	-31.3	-34.5	10.5	3.38e-03	0	44	0	1126170624	22	5165
2026-01-21 09:25:52.02	351.55	12.75	-31.4	-34.8	10.2	4.48e-03	0	44	0	1127219200	22	5325
2026-01-21 09:25:53.02	351.46	12.66	-31.3	-34.5	10.4	4.41e-03	0	44	0	1129316352	22	5199
2026-01-21 09:25:54.03	351.38	12.58	-31.3	-34.5	10.4	4.07e-03	0	43	0	1131413504	22	5207
2026-01-21 09:25:55.03	351.30	12.49	-31.4	-34.8	10.2	5.55e-03	0	44	0	1133510656	22	5308
2026-01-21 09:25:56.03	351.22	12.40	-31.4	-34.6	10.3	5.11e-03	0	44	0	1134559232	22	5251
2026-01-21 09:25:57.04	351.14	12.31	-31.4	-34.7	10.3	3.99e-03	0	44	0	1136656384	22	5299
2026-01-21 09:25:58.04	351.06	12.23	-31.5	-34.9	10.1	5.65e-03	0	44	0	1138753536	22	5381
2026-01-21 09:25:59.04	350.99	12.14	-31.3	-34.6	10.4	5.73e-03	0	44	0	1140850688	22	5221
2026-01-21 09:26:00.05	350.91	12.05	-31.3	-34.5	10.4	4.19e-03	0	44	0	1142947840	22	5200
2026-01-21 09:26:01.05	350.83	11.97	-31.3	-34.5	10.4	4.09e-03	0	44	0	1145044992	22	5189
2026-01-21 09:26:02.06	350.75	11.88	-31.4	-34.8	10.2	4.86e-03	0	44	0	1146093568	22	5342
2026-01-21 09:26:03.06	350.68	11.80	-31.4	-34.7	10.2	6.25e-03	0	44	0	1148190720	22	5300
2026-01-21 09:26:04.06	350.60	11.71	-31.4	-34.9	10.1	7.01e-03	0	44	0	1150287872	22	5365
2026-01-21 09:26:05.07	350.52	11.62	-31.4	-35.0	10.0	7.80e-03	0	44	0	1152385024	22	5403
2026-01-21 09:26:06.07	350.45	11.54	-31.5	-35.1	10.0	7.04e-03	0	44	0	1153433600	22	5450
2026-01-21 09:26:07.06	350.38	11.46	-31.5	-34.7	9.8	9.17e-03	0	44	0	1155530752	23	5226
2026-01-21 09:26:08.06	350.30	11.37	-31.5	-34.8	9.7	9.60e-03	0	44	0	1157627904	23	5267
2026-01-21 09:26:09.07	350.23	11.29	-31.7	-35.4	9.2	1.27e-02	0	44	0	1159725056	23	5536
2026-01-21 09:26:10.07	350.15	11.20	-31.5	-34.8	9.7	1.26e-02	0	43	0	1161822208	23	5260
2026-01-21 09:26:11.07	350.08	11.12	-31.6	-35.2	9.5	1.21e-02	0	44	0	1162870784	23	5413
2026-01-21 09:26:12.08	350.01	11.04	-31.7	-35.5	9.1	1.70e-02	0	44	0	1164967936	23	5587
2026-01-21 09:26:13.09	349.94	10.95	-31.6	-34.9	9.6	1.76e-02	0	44	0	1167065088	23	5320
2026-01-21 09:26:14.08	349.87	10.87	-31.4	-34.3	10.0	1.06e-02	0	44	0	1169162240	23	5054
2026-01-21 09:26:15.09	349.79	10.79	-31.3	-34.2	10.1	6.41e-03	0	44	0	1171259392	23	5005
2026-01-21 09:26:16.09	349.72	10.70	-31.3	-34.1	10.2	6.48e-03	0	44	0	1172307968	23	4947
2026-01-21 09:26:17.09	349.65	10.62	-31.3	-33.9	10.4	5.07e-03	0	44	0	1174405120	23	4871
2026-01-21 09:26:18.09	349.58	10.54	-31.3	-34.2	10.1	5.90e-03	0	44	0	1176502272	23	5012
2026-01-21 09:26:19.09	349.51	10.46	-31.6	-35.1	9.4	1.14e-02	0	44	0	1178599424	23	5397
2026-01-21 09:26:20.09	349.45	10.38	-31.3	-34.2	10.1	8.13e-03	0	44	0	1179648000	23	5005
2026-01-21 09:26:21.08	349.38	10.30	-31.3	-34.0	10.3	4.85e-03	0	44	0	1181745152	23	4922
2026-01-21 09:26:22.09	349.31	10.22	-31.1	-33.5	10.7	4.36e-03	0	44	0	1183842304	23	4714
2026-01-21 09:26:23.08	349.24	10.14	-31.1	-33.4	10.6	3.19e-03	0	44	0	1185939456	23	4713
2026-01-21 09:26:24.08	349.17	10.05	-31.1	-33.4	10.7	2.46e-03	0	44	0	1188036608	23	4685
2026-01-21 09:26:25.08	349.11	9.97	-31.1	-33.5	10.6	3.15e-03	0	44	0	1189085184	23	4743
2026-01-21 09:26:26.08	349.04	9.89	-31.1	-33.5	10.6	3.27e-03	0	44	0	1191182336	23	4720
2026-01-21 09:26:27.08	348.97	9.81	-31.1	-33.6	10.5	3.50e-03	0	44	0	1193279488	23	4754
2026-01-21 09:26:28.08	348.91	9.73	-31.3	-34.0	10.2	4.52e-03	0	44	0	1195376640	23	4934
2026-01-21 09:26:29.08	348.84	9.66	-31.1	-33.6	10.5	5.11e-03	0	44	0	1197473792	23	4764
2026-01-21 09:26:30.09	348.78	9.58	-31.2	-34.0	10.2	4.78e-03	0	44	0	1198522368	23	4917
2026-01-21 09:26:31.09	348.71	9.50	-31.4	-34.3	9.9	7.60e-03	0	44	0	1200619520	23	5069
2026-01-21 09:26:32.09	348.65	9.42	-31.3	-34.0	10.2	6.27e-03	0	44	0	1202716672	23	4949
2026-01-21 09:26:33.10	348.58	9.34	-31.3	-34.2	10.0	5.92e-03	0	44	0	1204813824	23	5035
2026-01-21 09:26:34.10	348.52	9.26	-31.4	-34.6	9.7	1.01e-02	0	44	0	1206910976	23	5201
2026-01-21 09:26:35.11	348.46	9.18	-31.3	-34.3	9.9	8.03e-03	0	44	0	1207959552	23	5068
2026-01-21 09:26:36.10	348.39	9.10	-31.3	-34.4	9.9	7.94e-03	0	44	0	1210056704	23	5092
2026-01-21 09:26:37.10	348.33	9.03	-31.3	-34.3	9.9	9.42e-03	0	44	0	1212153856	23	5067
2026-01-21 09:26:38.10	348.27	8.95	-31.3	-34.2	10.0	7.97e-03	0	44	0	1214251008	23	5042
2026-01-21 09:26:39.11	348.21	8.87	-31.3	-34.3	9.9	7.81e-03	0	44	0	1216348160	23	5067
2026-01-21 09:26:40.11	348.15	8.79	-31.3	-34.3	9.9	9.01e-03	0	44	0	1217396736	23	5092
2026-01-21 09:26:41.11	348.09	8.72	-31.3	-34.3	9.9	8.82e-03	0	44	0	1219493888	23	5071
2026-01-21 09:26:42.11	348.02	8.64	-31.3	-34.2	9.9	9.84e-03	0	44	0	1221591040	23	5031
2026-01-21 09:26:43.12	347.96	8.56	-31.4	-34.6	9.6	1.10e-02	0	44	0	1223688192	23	5203
2026-01-21 09:26:44.12	347.90	8.49	-31.4	-34.6	9.7	1.11e-02	0	44	0	1224736768	23	5186
2026-01-21 09:26:45.12	347.84	8.41	-31.4	-34.6	9.6	1.18e-02	0	44	0	1226833920	23	5191
2026-01-21 09:26:46.13	347.78	8.33	-31.4	-34.6	9.6	1.30e-02	0	44	0	1228931072	23	5222
2026-01-21 09:26:47.14	347.72	8.26	-31.4	-34.6	9.5	1.40e-02	0	44	0	1231028224	23	5224
2026-01-21 09:26:48.14	347.67	8.18	-31.5	-35.0	9.3	1.88e-02	0	44	0	1233125376	23	5378
2026-01-21 09:26:49.14	347.61	8.11	-31.4	-34.9	9.4	1.41e-02	0	44	0	1234173952	23	5330
2026-01-21 09:26:50.15	347.55	8.03	-31.5	-35.2	9.1	1.87e-02	0	44	0	1236271104	23	5490
2026-01-21 09:26:51.15	347.49	7.96	-31.5	-35.2	9.1	2.44e-02	0	44	0	1238368256	23	5490
2026-01-21 09:26:52.15	347.43	7.88	-31.5	-35.3	9.0	2.31e-02	0	44	0	1240465408	23	5530
2026-01-21 09:26:53.15	347.38	7.81	-31.7	-35.8	8.6	2.58e-02	0	44	0	1242562560	23	5770
2026-01-21 09:26:54.15	347.32	7.73	-31.6	-35.4	8.9	3.26e-02	0	44	0	1243611136	23	5614
2026-01-21 09:26:55.16	347.26	7.66	-31.6	-35.6	8.7	3.69e-02	0	44	0	1245708288	23	5691
2026-01-21 09:26:56.16	347.21	7.58	-31.7	-35.8	8.5	3.67e-02	0	44	0	1247805440	23	5803
2026-01-21 09:26:57.17	347.15	7.51	-31.7	-35.8	8.5	3.59e-02	0	44	0	1249902592	23	5810
2026-01-21 09:26:58.17	347.09	7.44	-31.6	-35.6	8.6	3.68e-02	0	44	0	1251999744	23	5694
2026-01-21 09:26:59.17	347.04	7.36	-31.7	-35.9	8.5	4.41e-02	0	44	0	1253048320	23	5850
2026-01-21 09:27:00.17	346.98	7.29	-31.7	-35.8	8.5	4.53e-02	0	44	0	1255145472	23	5817
2026-01-21 09:27:01.17	346.93	7.22	-31.6	-35.4	8.8	3.01e-02	0	44	0	1257242624	23	5618
2026-01-21 09:27:02.18	346.87	7.14	-31.6	-35.7	8.6	3.22e-02	0	44	0	1259339776	23	5743
2026-01-21 09:27:03.18	346.82	7.07	-31.6	-35.5	8.8	3.58e-02	0	44	0	1261436928	23	5659
2026-01-21 09:27:04.18	346.77	7.00	-33.3	-45.6	3.8	1.13e+00	0	44	104	1261436928	26	14800

#Closed at: 2026-01-21 09:27:05
#Recorded file [1261 MB]: D:/data/31010_260121_121550.dat