passes_logs/2026/01/21/R2M6_AANII_01/R2M6_AANII_01__20260121_021337_NOAA_21_JPSS-2_rec.log

#Pass ID: 20260121_021337_NOAA 21 (JPSS-2)
#Satellite: NOAA 21 (JPSS-2)
#Configuration: NOAA 21
#almurnet v.1.7.20240730
#Start time: 2026-01-21 02:13:36

#Version: 2.2.20231116
#Station: R2M6_AANII_01
#Location: 30.233357 lon 59.946436 lat
#TLE: 1 54234U 22150A   26020.29910383  .00000141  00000+0  87571-4 0  9990
#TLE: 2 54234  98.7506 321.1348 0000615 250.8428 109.2682 14.19536295165564

#Time	Az	El	Level	Level2	SNR	BER	BlckErr	Temp	State	Recorded	gain1	gain2
2026-01-21 02:13:36.86	10.51	6.98	-33.3	-45.4	3.8	1.49e+00	0	44	0	0	26	14482
2026-01-21 02:13:37.85	10.42	7.04	-33.0	-42.8	3.8	1.49e+00	0	44	104	0	26	11055
2026-01-21 02:13:38.86	10.33	7.11	-32.8	-41.8	3.9	1.45e+00	0	44	104	0	25	10147
2026-01-21 02:13:39.87	10.24	7.17	-32.6	-39.6	5.0	1.46e+00	0	44	104	0	25	8103
2026-01-21 02:13:40.87	10.15	7.24	-32.3	-38.8	5.7	4.62e-01	0	44	0	0	24	7583
2026-01-21 02:13:41.87	10.06	7.30	-32.1	-37.7	6.3	2.85e-01	0	44	0	3145728	24	6888
2026-01-21 02:13:42.88	9.97	7.37	-31.9	-37.4	6.9	1.76e-01	0	44	0	6291456	23	6829
2026-01-21 02:13:43.88	9.88	7.43	-31.8	-36.9	7.2	1.43e-01	0	44	0	9437184	23	6537
2026-01-21 02:13:44.87	9.79	7.50	-31.7	-36.7	7.4	1.16e-01	0	44	0	12582912	23	6404
2026-01-21 02:13:45.87	9.70	7.56	-31.6	-36.4	7.5	1.04e-01	0	44	0	15728640	23	6257
2026-01-21 02:13:46.88	9.61	7.63	-31.5	-36.0	7.9	7.52e-02	0	44	0	18874368	23	6043
2026-01-21 02:13:47.88	9.51	7.69	-31.5	-36.4	8.0	6.91e-02	0	44	0	22020096	22	6338
2026-01-21 02:13:48.88	9.42	7.76	-31.5	-36.3	8.0	7.22e-02	0	44	0	25165824	22	6283
2026-01-21 02:13:49.89	9.33	7.82	-31.5	-35.9	8.0	6.82e-02	0	44	0	28311552	23	5993
2026-01-21 02:13:50.90	9.23	7.89	-31.5	-36.0	7.9	7.38e-02	0	44	0	31457280	23	6045
2026-01-21 02:13:51.90	9.14	7.96	-31.5	-35.8	8.0	6.85e-02	0	44	0	34603008	23	5952
2026-01-21 02:13:52.91	9.04	8.02	-31.2	-35.3	8.8	3.59e-02	0	44	0	37748736	22	5773
2026-01-21 02:13:53.92	8.94	8.09	-30.8	-34.5	9.7	1.35e-02	0	44	0	40894464	21	5538
2026-01-21 02:13:54.92	8.85	8.15	-30.4	-33.4	10.5	4.75e-03	0	44	0	44040192	21	5109
2026-01-21 02:13:55.92	8.75	8.22	-30.0	-33.0	11.2	2.06e-03	0	44	0	47185920	20	5042
2026-01-21 02:13:56.92	8.66	8.29	-29.8	-32.9	11.6	7.93e-04	0	44	0	50331648	19	5113
2026-01-21 02:13:57.92	8.56	8.35	-30.0	-32.7	11.3	9.09e-04	0	44	0	53477376	20	4945
2026-01-21 02:13:58.93	8.46	8.42	-30.1	-33.1	11.1	1.49e-03	0	44	0	56623104	20	5094
2026-01-21 02:13:59.93	8.36	8.48	-30.3	-33.6	10.8	2.46e-03	0	44	0	59768832	20	5278
2026-01-21 02:14:00.94	8.26	8.55	-30.1	-33.2	11.0	2.09e-03	0	44	0	62914560	20	5117
2026-01-21 02:14:01.95	8.16	8.62	-30.0	-32.7	11.3	1.28e-03	0	44	0	66060288	20	4952
2026-01-21 02:14:02.96	8.06	8.69	-29.9	-33.0	11.5	8.54e-04	0	44	0	69206016	19	5147
2026-01-21 02:14:03.96	7.96	8.75	-30.0	-33.2	11.4	8.48e-04	0	44	0	72351744	19	5225
2026-01-21 02:14:04.97	7.86	8.82	-30.2	-33.4	10.9	1.85e-03	0	44	0	75497472	20	5185
2026-01-21 02:14:05.97	7.76	8.89	-29.9	-32.5	11.5	9.84e-04	0	44	0	78643200	20	4863
2026-01-21 02:14:06.97	7.66	8.95	-29.6	-32.2	12.1	3.83e-04	0	44	0	81788928	19	4869
2026-01-21 02:14:07.98	7.55	9.02	-29.4	-31.6	12.5	1.54e-04	0	44	0	84934656	19	4664
2026-01-21 02:14:08.98	7.45	9.09	-29.2	-31.7	12.8	6.79e-05	0	44	0	88080384	18	4787
2026-01-21 02:14:09.98	7.35	9.16	-29.2	-31.7	12.8	7.32e-05	0	44	0	91226112	18	4807
2026-01-21 02:14:10.99	7.25	9.22	-29.4	-32.3	12.4	1.04e-04	0	44	0	94371840	18	4994
2026-01-21 02:14:11.99	7.14	9.29	-29.4	-32.0	12.6	1.05e-04	0	44	0	97517568	18	4906
2026-01-21 02:14:12.99	7.04	9.36	-29.3	-31.9	12.7	9.61e-05	0	44	0	100663296	18	4850
2026-01-21 02:14:13.99	6.93	9.43	-29.3	-31.8	12.7	1.04e-04	0	44	0	103809024	18	4841
2026-01-21 02:14:15.00	6.83	9.49	-29.3	-32.0	12.6	1.02e-04	0	44	0	106954752	18	4884
2026-01-21 02:14:16.00	6.72	9.56	-29.3	-31.9	12.7	8.31e-05	0	44	0	110100480	18	4845
2026-01-21 02:14:17.01	6.61	9.63	-29.3	-31.8	12.7	8.16e-05	0	44	0	113246208	18	4826
2026-01-21 02:14:18.02	6.50	9.70	-29.3	-31.9	12.7	8.46e-05	0	44	0	116391936	18	4879
2026-01-21 02:14:19.02	6.40	9.77	-29.3	-31.9	12.7	6.79e-05	0	44	0	119537664	18	4848
2026-01-21 02:14:20.03	6.29	9.84	-29.6	-32.1	12.3	1.57e-04	0	44	0	122683392	19	4814
2026-01-21 02:14:21.03	6.18	9.90	-29.9	-33.0	11.7	4.65e-04	0	44	0	125829120	19	5127
2026-01-21 02:14:22.03	6.07	9.97	-29.6	-32.1	12.3	2.37e-04	0	44	0	128974848	19	4818
2026-01-21 02:14:23.04	5.96	10.04	-29.2	-31.2	12.9	6.71e-05	0	44	0	132120576	19	4512
2026-01-21 02:14:24.04	5.85	10.11	-28.9	-30.9	13.3	2.51e-05	0	44	0	135266304	18	4542
2026-01-21 02:14:25.04	5.74	10.18	-28.7	-30.9	13.6	6.80e-06	0	44	0	138412032	17	4649
2026-01-21 02:14:26.05	5.63	10.25	-28.6	-30.6	13.8	4.50e-06	0	44	0	141557760	17	4546
2026-01-21 02:14:27.06	5.51	10.32	-28.6	-30.8	13.8	5.30e-06	0	44	0	144703488	17	4600
2026-01-21 02:14:28.06	5.40	10.38	-28.5	-30.4	13.9	2.20e-06	0	44	0	147849216	17	4492
2026-01-21 02:14:29.07	5.29	10.45	-28.4	-30.3	14.0	1.50e-06	0	44	0	150994944	17	4443
2026-01-21 02:14:30.07	5.18	10.52	-28.5	-30.8	14.0	1.50e-06	0	44	0	154140672	16	4735
2026-01-21 02:14:31.07	5.06	10.59	-28.4	-30.8	14.0	3.00e-06	0	44	0	157286400	16	4710
2026-01-21 02:14:32.07	4.95	10.66	-28.5	-30.8	14.0	3.00e-06	0	44	0	160432128	16	4734
2026-01-21 02:14:33.07	4.83	10.73	-28.6	-30.7	13.8	4.50e-06	0	44	0	163577856	17	4571
2026-01-21 02:14:34.08	4.72	10.80	-28.7	-31.0	13.6	3.00e-06	0	44	0	166723584	17	4661
2026-01-21 02:14:35.08	4.60	10.87	-28.6	-30.6	13.8	5.30e-06	0	44	0	169869312	17	4560
2026-01-21 02:14:36.09	4.48	10.94	-28.6	-30.7	13.8	4.50e-06	0	44	0	173015040	17	4592
2026-01-21 02:14:37.09	4.36	11.01	-28.7	-30.9	13.7	5.30e-06	0	44	0	176160768	17	4645
2026-01-21 02:14:38.08	4.25	11.08	-28.4	-31.0	13.3	9.10e-06	0	44	0	179306496	17	4849
2026-01-21 02:14:39.09	4.13	11.15	-28.6	-30.8	12.8	3.80e-06	0	44	0	182452224	17	4639
2026-01-21 02:14:40.09	4.01	11.22	-28.6	-30.6	13.7	4.50e-06	0	44	0	185597952	17	4551
2026-01-21 02:14:41.10	3.89	11.29	-28.5	-30.5	13.8	3.44e-03	0	44	0	188743680	17	4529
2026-01-21 02:14:42.10	3.77	11.36	-28.6	-30.8	13.6	4.50e-06	0	44	0	191889408	17	4596
2026-01-21 02:14:43.10	3.65	11.43	-28.5	-30.4	14.0	1.50e-06	0	44	0	195035136	17	4487
2026-01-21 02:14:44.10	3.53	11.50	-28.4	-30.6	14.2	0.00e+00	0	44	0	198180864	16	4654
2026-01-21 02:14:45.11	3.40	11.57	-28.3	-30.5	14.3	1.50e-06	0	44	0	201326592	16	4614
2026-01-21 02:14:46.11	3.28	11.64	-28.4	-30.6	14.2	1.24e-04	0	44	0	204472320	16	4662
2026-01-21 02:14:47.12	3.16	11.71	-28.4	-30.6	14.2	3.88e-03	0	44	0	207618048	16	4645
2026-01-21 02:14:48.12	3.03	11.78	-28.4	-30.7	14.1	7.00e-07	0	44	0	210763776	16	4695
2026-01-21 02:14:49.12	2.91	11.85	-28.6	-30.7	13.9	5.30e-06	0	44	0	213909504	17	4571
2026-01-21 02:14:50.12	2.78	11.92	-28.7	-30.9	13.8	3.80e-06	0	44	0	217055232	17	4626
2026-01-21 02:14:51.12	2.66	11.99	-28.6	-30.7	13.9	4.00e-03	0	44	0	220200960	17	4585
2026-01-21 02:14:52.13	2.53	12.06	-28.6	-30.7	13.8	1.94e-04	0	44	0	223346688	17	4583
2026-01-21 02:14:53.13	2.40	12.13	-28.7	-30.9	13.8	4.04e-03	0	44	0	226492416	17	4642
2026-01-21 02:14:54.13	2.28	12.20	-28.8	-31.2	13.6	4.50e-06	0	44	0	229638144	17	4739
2026-01-21 02:14:55.13	2.15	12.27	-28.6	-30.7	13.9	8.30e-06	0	44	0	232783872	17	4567
2026-01-21 02:14:56.13	2.02	12.35	-28.7	-30.9	13.8	3.97e-03	0	44	0	235929600	17	4619
2026-01-21 02:14:57.13	1.89	12.42	-28.5	-30.5	14.1	3.60e-03	0	44	0	239075328	17	4496
2026-01-21 02:14:58.13	1.76	12.49	-28.4	-30.3	14.2	1.94e-04	0	44	0	242221056	17	4434
2026-01-21 02:14:59.13	1.63	12.56	-28.3	-30.4	14.4	7.00e-07	0	44	0	245366784	16	4601
2026-01-21 02:15:00.12	1.50	12.63	-28.4	-30.6	14.2	2.45e-03	0	44	0	248512512	16	4642
2026-01-21 02:15:01.12	1.37	12.70	-28.3	-30.5	14.3	1.33e-04	0	44	0	251658240	16	4610
2026-01-21 02:15:02.12	1.23	12.77	-28.2	-30.3	14.4	3.89e-03	0	44	0	254803968	16	4553
2026-01-21 02:15:03.12	1.10	12.84	-28.3	-30.5	14.4	3.78e-03	0	44	0	257949696	16	4615
2026-01-21 02:15:04.11	0.97	12.91	-28.3	-30.5	14.3	0.00e+00	0	44	0	261095424	16	4633
2026-01-21 02:15:05.12	0.83	12.98	-28.3	-30.5	14.4	3.83e-03	0	44	0	263192576	16	4613
2026-01-21 02:15:06.11	0.70	13.05	-28.4	-30.7	14.2	3.51e-03	0	44	0	266338304	16	4677
2026-01-21 02:15:07.12	0.56	13.13	-28.5	-30.3	14.2	2.74e-05	0	45	0	269484032	17	4451
2026-01-21 02:15:08.12	0.43	13.20	-28.4	-30.6	14.3	3.48e-03	0	44	0	272629760	16	4652
2026-01-21 02:15:09.12	0.29	13.27	-28.4	-30.7	14.2	3.97e-03	0	45	0	275775488	16	4693
2026-01-21 02:15:10.11	0.15	13.34	-28.3	-30.4	14.4	2.51e-05	0	45	0	278921216	16	4576
2026-01-21 02:15:11.11	0.01	13.41	-28.3	-30.3	14.5	3.93e-03	0	44	0	282066944	16	4564
2026-01-21 02:15:12.11	359.87	13.48	-28.3	-30.5	14.4	3.95e-03	0	45	0	285212672	16	4612
2026-01-21 02:15:13.10	359.73	13.55	-28.2	-30.1	14.7	9.00e-05	0	45	0	288358400	16	4497
2026-01-21 02:15:14.10	359.59	13.63	-28.2	-30.1	14.7	0.00e+00	0	45	0	291504128	16	4493
2026-01-21 02:15:15.11	359.45	13.70	-28.2	-30.2	14.6	3.58e-03	0	45	0	294649856	16	4534
2026-01-21 02:15:16.11	359.31	13.77	-28.2	-30.2	14.6	1.76e-04	0	45	0	297795584	16	4521
2026-01-21 02:15:17.11	359.17	13.84	-28.3	-30.4	14.4	3.57e-03	0	45	0	300941312	16	4580
2026-01-21 02:15:18.12	359.02	13.91	-28.2	-30.2	14.6	4.02e-03	0	45	0	304087040	16	4523
2026-01-21 02:15:19.12	358.88	13.99	-28.2	-30.1	14.6	2.27e-04	0	45	0	307232768	16	4506
2026-01-21 02:15:20.12	358.73	14.06	-28.3	-30.4	14.5	0.00e+00	0	45	0	310378496	16	4583
2026-01-21 02:15:21.12	358.59	14.13	-28.3	-30.4	14.5	3.71e-03	0	45	0	313524224	16	4570
2026-01-21 02:15:22.13	358.44	14.20	-28.3	-30.4	14.5	2.00e-04	0	45	0	316669952	16	4591
2026-01-21 02:15:23.14	358.29	14.28	-28.3	-30.3	14.6	3.75e-03	0	45	0	319815680	16	4551
2026-01-21 02:15:24.14	358.14	14.35	-28.2	-30.3	14.6	0.00e+00	0	45	0	322961408	16	4539
2026-01-21 02:15:25.14	357.99	14.42	-28.4	-30.6	14.4	1.50e-06	0	45	0	326107136	16	4629
2026-01-21 02:15:26.15	357.84	14.49	-28.4	-30.7	14.4	3.37e-03	0	45	0	329252864	16	4666
2026-01-21 02:15:27.16	357.69	14.56	-28.3	-30.5	14.5	3.81e-03	0	44	0	332398592	16	4606
2026-01-21 02:15:28.16	357.54	14.64	-28.3	-30.3	14.5	2.30e-04	0	45	0	335544320	16	4555
2026-01-21 02:15:29.16	357.39	14.71	-28.4	-30.5	14.4	7.00e-07	0	45	0	338690048	16	4619
2026-01-21 02:15:30.16	357.24	14.78	-28.4	-30.6	14.4	1.50e-06	0	45	0	341835776	16	4638
2026-01-21 02:15:31.16	357.08	14.85	-28.6	-30.6	14.1	3.32e-04	0	45	0	344981504	17	4515
2026-01-21 02:15:32.16	356.93	14.92	-28.5	-30.5	14.2	3.83e-03	0	45	0	348127232	17	4485
2026-01-21 02:15:33.17	356.77	15.00	-28.6	-30.5	14.2	3.55e-03	0	45	0	351272960	17	4504
2026-01-21 02:15:34.17	356.62	15.07	-28.6	-30.5	14.2	2.20e-06	0	45	0	354418688	17	4507
2026-01-21 02:15:35.17	356.46	15.14	-28.6	-30.5	14.2	2.20e-06	0	45	0	357564416	17	4499
2026-01-21 02:15:36.17	356.30	15.21	-28.7	-30.7	14.1	0.00e+00	0	45	0	360710144	17	4558
2026-01-21 02:15:37.17	356.15	15.29	-27.7	-29.6	13.7	7.00e-07	0	45	0	363855872	17	4466
2026-01-21 02:15:38.17	355.99	15.36	-28.5	-30.4	13.4	3.60e-03	0	45	0	367001600	17	4466
2026-01-21 02:15:39.17	355.83	15.43	-28.6	-30.7	14.1	1.50e-06	0	45	0	370147328	17	4549
2026-01-21 02:15:40.18	355.67	15.50	-28.6	-30.5	13.9	7.00e-07	0	45	0	373293056	17	4508
2026-01-21 02:15:41.18	355.51	15.57	-28.7	-30.7	14.1	2.20e-06	0	45	0	376438784	17	4554
2026-01-21 02:15:42.18	355.35	15.65	-28.7	-30.8	14.1	7.00e-07	0	45	0	379584512	17	4578
2026-01-21 02:15:43.18	355.18	15.72	-28.7	-30.8	14.0	4.50e-06	0	45	0	382730240	17	4596
2026-01-21 02:15:44.19	355.02	15.79	-28.8	-31.1	13.9	3.80e-06	0	45	0	385875968	17	4692
2026-01-21 02:15:45.19	354.85	15.86	-28.9	-31.4	13.7	3.80e-06	0	45	0	389021696	17	4759
2026-01-21 02:15:46.19	354.69	15.93	-28.7	-30.9	14.0	3.00e-06	0	45	0	392167424	17	4612
2026-01-21 02:15:47.19	354.52	16.01	-28.6	-30.6	14.2	3.80e-06	0	45	0	395313152	17	4511
2026-01-21 02:15:48.20	354.36	16.08	-28.5	-30.4	14.3	2.20e-06	0	45	0	398458880	17	4461
2026-01-21 02:15:49.20	354.19	16.15	-28.5	-30.4	14.3	7.00e-07	0	45	0	401604608	17	4463
2026-01-21 02:15:50.20	354.02	16.22	-28.5	-30.3	14.4	0.00e+00	0	45	0	404750336	17	4435
2026-01-21 02:15:51.21	353.85	16.29	-28.5	-30.4	14.4	0.00e+00	0	45	0	407896064	17	4446
2026-01-21 02:15:52.20	353.68	16.37	-28.4	-30.7	14.4	6.42e-04	0	45	0	411041792	16	4665
2026-01-21 02:15:53.21	353.51	16.44	-28.4	-30.6	14.5	5.63e-04	0	45	0	414187520	16	4647
2026-01-21 02:15:54.22	353.34	16.51	-28.5	-30.7	14.4	1.50e-06	0	45	0	417333248	16	4678
2026-01-21 02:15:55.22	353.16	16.58	-28.3	-30.4	14.6	7.00e-07	0	45	0	420478976	16	4587
2026-01-21 02:15:56.22	352.99	16.65	-28.3	-30.5	14.6	7.00e-07	0	45	0	423624704	16	4591
2026-01-21 02:15:57.23	352.81	16.73	-28.4	-30.5	14.6	0.00e+00	0	45	0	426770432	16	4599
2026-01-21 02:15:58.23	352.64	16.80	-28.4	-30.5	14.6	4.54e-04	0	45	0	429916160	16	4596
2026-01-21 02:15:59.23	352.46	16.87	-28.5	-30.2	14.5	4.39e-04	0	45	0	433061888	17	4401
2026-01-21 02:16:00.23	352.29	16.94	-28.2	-30.2	14.8	0.00e+00	0	45	0	436207616	16	4516
2026-01-21 02:16:01.23	352.11	17.01	-28.2	-30.1	14.8	0.00e+00	0	45	0	439353344	16	4483
2026-01-21 02:16:02.24	351.93	17.08	-28.2	-30.2	14.8	4.71e-04	0	45	0	442499072	16	4509
2026-01-21 02:16:03.24	351.75	17.15	-28.2	-30.0	14.9	0.00e+00	0	45	0	445644800	16	4468
2026-01-21 02:16:04.24	351.57	17.22	-28.3	-30.3	14.7	4.12e-04	0	45	0	448790528	16	4534
2026-01-21 02:16:05.24	351.39	17.29	-28.1	-30.0	14.9	3.73e-04	0	45	0	451936256	16	4462
2026-01-21 02:16:06.24	351.21	17.36	-27.9	-29.9	15.1	0.00e+00	0	45	0	455081984	15	4560
2026-01-21 02:16:07.25	351.02	17.44	-27.9	-29.9	15.0	3.29e-04	0	45	0	458227712	15	4559
2026-01-21 02:16:08.25	350.84	17.51	-27.8	-29.8	15.1	3.14e-04	0	45	0	461373440	15	4517
2026-01-21 02:16:09.26	350.66	17.58	-27.9	-29.9	15.1	7.00e-07	0	45	0	464519168	15	4542
2026-01-21 02:16:10.26	350.47	17.65	-27.8	-29.7	15.2	2.84e-04	0	45	0	466616320	15	4495
2026-01-21 02:16:11.26	350.28	17.72	-27.9	-30.0	15.0	3.02e-04	0	45	0	470810624	15	4572
2026-01-21 02:16:12.27	350.10	17.79	-28.0	-30.1	14.9	0.00e+00	0	45	0	473956352	15	4619
2026-01-21 02:16:13.27	349.91	17.86	-28.2	-30.2	14.8	3.66e-04	0	45	0	477102080	16	4507
2026-01-21 02:16:14.28	349.72	17.93	-28.2	-30.1	14.9	3.72e-04	0	45	0	480247808	16	4491
2026-01-21 02:16:15.28	349.53	18.00	-28.3	-30.3	14.8	0.00e+00	0	45	0	483393536	16	4534
2026-01-21 02:16:16.29	349.34	18.07	-28.2	-30.0	14.9	3.91e-04	0	45	0	486539264	16	4462
2026-01-21 02:16:17.29	349.14	18.14	-28.0	-29.8	15.0	0.00e+00	0	45	0	489684992	16	4383
2026-01-21 02:16:18.29	348.95	18.21	-28.0	-29.7	15.1	0.00e+00	0	45	0	491782144	16	4370
2026-01-21 02:16:19.29	348.76	18.28	-28.1	-29.8	15.1	3.64e-04	0	45	0	494927872	16	4395
2026-01-21 02:16:20.29	348.56	18.35	-27.8	-29.6	15.2	3.56e-04	0	45	0	498073600	15	4461
2026-01-21 02:16:21.29	348.37	18.41	-27.7	-29.5	15.4	0.00e+00	0	45	0	501219328	15	4428
2026-01-21 02:16:22.30	348.17	18.48	-27.6	-29.3	15.4	0.00e+00	0	45	0	504365056	15	4373
2026-01-21 02:16:23.30	347.98	18.55	-27.8	-29.6	15.2	2.36e-04	0	45	0	507510784	15	4472
2026-01-21 02:16:24.30	347.78	18.62	-27.9	-30.0	15.1	0.00e+00	0	45	0	510656512	15	4566
2026-01-21 02:16:25.31	347.58	18.69	-27.8	-29.7	15.2	1.86e-04	0	45	0	513802240	15	4485
2026-01-21 02:16:26.31	347.38	18.76	-27.7	-29.6	15.3	1.35e-04	0	45	0	516947968	15	4458
2026-01-21 02:16:27.31	347.18	18.83	-27.7	-29.6	15.3	0.00e+00	0	45	0	520093696	15	4465
2026-01-21 02:16:28.31	346.98	18.89	-27.7	-29.5	15.3	0.00e+00	0	45	0	523239424	15	4426
2026-01-21 02:16:29.31	346.77	18.96	-27.7	-29.5	15.3	1.34e-04	0	45	0	526385152	15	4414
2026-01-21 02:16:30.32	346.57	19.03	-27.7	-29.6	15.3	0.00e+00	0	45	0	529530880	15	4457
2026-01-21 02:16:31.33	346.36	19.10	-27.8	-29.7	15.2	0.00e+00	0	45	0	532676608	15	4498
2026-01-21 02:16:32.33	346.16	19.16	-26.8	-28.7	15.1	0.00e+00	0	45	0	535822336	15	4505
2026-01-21 02:16:33.33	345.95	19.23	-28.2	-30.0	15.0	0.00e+00	0	45	0	538968064	16	4461
2026-01-21 02:16:34.34	345.74	19.30	-28.1	-29.8	13.9	0.00e+00	0	45	0	542113792	16	4396
2026-01-21 02:16:35.34	345.54	19.36	-28.0	-29.7	15.0	1.14e-05	0	45	0	545259520	16	4376
2026-01-21 02:16:36.35	345.32	19.43	-28.0	-29.5	15.2	0.00e+00	0	45	0	548405248	16	4321
2026-01-21 02:16:37.34	345.12	19.49	-27.7	-29.6	15.3	0.00e+00	0	45	0	551550976	15	4456
2026-01-21 02:16:38.35	344.90	19.56	-27.8	-29.6	15.3	0.00e+00	0	45	0	554696704	15	4461
2026-01-21 02:16:39.35	344.69	19.63	-27.8	-29.7	15.3	0.00e+00	0	45	0	557842432	15	4479
2026-01-21 02:16:40.35	344.48	19.69	-27.8	-29.8	15.2	7.00e-07	0	45	0	560988160	15	4502
2026-01-21 02:16:41.35	344.27	19.76	-27.8	-29.6	15.3	0.00e+00	0	45	0	564133888	15	4472
2026-01-21 02:16:42.36	344.05	19.82	-27.8	-29.6	15.3	0.00e+00	0	45	0	567279616	15	4474
2026-01-21 02:16:43.37	343.83	19.89	-27.7	-29.5	15.3	0.00e+00	0	45	0	570425344	15	4430
2026-01-21 02:16:44.37	343.62	19.95	-27.6	-29.3	15.4	3.54e-03	0	45	0	573571072	15	4379
2026-01-21 02:16:45.36	343.40	20.01	-27.7	-29.4	15.4	0.00e+00	0	45	0	576716800	15	4409
2026-01-21 02:16:46.37	343.18	20.08	-27.7	-29.4	15.4	3.78e-03	0	45	0	579862528	15	4404
2026-01-21 02:16:47.37	342.97	20.14	-27.7	-29.5	15.4	0.00e+00	0	45	0	583008256	15	4416
2026-01-21 02:16:48.38	342.74	20.20	-27.5	-29.1	15.6	0.00e+00	0	45	0	586153984	15	4313
2026-01-21 02:16:49.39	342.52	20.27	-27.4	-29.3	15.7	4.34e-03	0	45	0	589299712	14	4488
2026-01-21 02:16:50.39	342.30	20.33	-27.4	-29.4	15.7	4.17e-03	0	45	0	592445440	14	4512
2026-01-21 02:16:51.40	342.07	20.39	-27.4	-29.3	15.7	0.00e+00	0	45	0	595591168	14	4494
2026-01-21 02:16:52.40	341.85	20.45	-27.5	-29.0	15.6	0.00e+00	0	45	0	598736896	15	4300
2026-01-21 02:16:53.40	341.63	20.52	-27.6	-29.2	15.6	2.67e-05	0	45	0	601882624	15	4344
2026-01-21 02:16:54.39	341.40	20.58	-27.4	-28.9	15.8	0.00e+00	0	45	0	605028352	15	4245
2026-01-21 02:16:55.40	341.18	20.64	-27.4	-29.3	15.8	3.96e-03	0	45	0	608174080	14	4468
2026-01-21 02:16:56.40	340.95	20.70	-27.5	-29.4	15.7	4.44e-03	0	45	0	611319808	14	4508
2026-01-21 02:16:57.40	340.72	20.76	-27.4	-29.3	15.8	0.00e+00	0	45	0	614465536	14	4488
2026-01-21 02:16:58.40	340.49	20.82	-27.5	-29.1	15.6	4.54e-03	0	45	0	617611264	15	4307
2026-01-21 02:16:59.40	340.26	20.88	-27.6	-29.3	15.5	4.46e-03	0	45	0	620756992	15	4359
2026-01-21 02:17:00.39	340.03	20.94	-27.6	-29.3	15.5	0.00e+00	0	45	0	623902720	15	4362
2026-01-21 02:17:01.39	339.80	20.99	-27.6	-29.3	15.5	4.34e-03	0	45	0	627048448	15	4372
2026-01-21 02:17:02.39	339.57	21.05	-27.6	-29.4	15.5	3.91e-03	0	45	0	630194176	15	4388
2026-01-21 02:17:03.40	339.34	21.11	-27.7	-29.4	15.4	0.00e+00	0	45	0	633339904	15	4389
2026-01-21 02:17:04.40	339.10	21.17	-27.7	-29.5	15.4	4.02e-03	0	45	0	636485632	15	4423
2026-01-21 02:17:05.41	338.86	21.23	-27.7	-29.6	15.3	4.34e-03	0	45	0	639631360	15	4454
2026-01-21 02:17:06.41	338.63	21.28	-27.8	-29.7	15.3	0.00e+00	0	45	0	642777088	15	4487
2026-01-21 02:17:07.42	338.39	21.34	-27.8	-29.7	15.3	4.34e-03	0	45	0	645922816	15	4475
2026-01-21 02:17:08.42	338.15	21.40	-27.6	-29.1	15.6	0.00e+00	0	45	0	649068544	15	4318
2026-01-21 02:17:09.42	337.91	21.45	-27.5	-29.0	15.7	0.00e+00	0	45	0	652214272	15	4273
2026-01-21 02:17:10.42	337.67	21.51	-27.5	-29.0	15.7	4.31e-03	0	45	0	655360000	15	4284
2026-01-21 02:17:11.43	337.43	21.56	-27.4	-29.2	15.8	4.12e-03	0	45	0	658505728	14	4462
2026-01-21 02:17:12.43	337.19	21.62	-27.2	-28.9	16.0	0.00e+00	0	45	0	661651456	14	4377
2026-01-21 02:17:13.43	336.95	21.67	-27.2	-28.9	16.0	0.00e+00	0	45	0	664797184	14	4369
2026-01-21 02:17:14.44	336.70	21.73	-27.3	-29.0	16.0	0.00e+00	0	45	0	667942912	14	4389
2026-01-21 02:17:15.44	336.46	21.78	-27.2	-28.9	16.0	0.00e+00	0	45	0	671088640	14	4377
2026-01-21 02:17:16.45	336.21	21.83	-27.2	-28.9	16.0	4.36e-03	0	45	0	674234368	14	4370
2026-01-21 02:17:17.45	335.97	21.88	-27.3	-29.1	15.9	0.00e+00	0	45	0	677380096	14	4430
2026-01-21 02:17:18.45	335.72	21.94	-27.5	-29.5	15.7	0.00e+00	0	45	0	680525824	14	4539
2026-01-21 02:17:19.45	335.47	21.99	-27.5	-29.1	15.6	0.00e+00	0	45	0	683671552	15	4301
2026-01-21 02:17:20.45	335.23	22.04	-27.6	-29.3	15.5	3.87e-03	0	45	0	686817280	15	4361
2026-01-21 02:17:21.46	334.97	22.09	-27.6	-29.3	15.6	0.00e+00	0	45	0	689963008	15	4357
2026-01-21 02:17:22.46	334.73	22.14	-27.7	-29.6	15.4	0.00e+00	0	45	0	693108736	15	4449
2026-01-21 02:17:23.46	334.47	22.19	-27.7	-29.4	15.5	0.00e+00	0	45	0	696254464	15	4395
2026-01-21 02:17:24.47	334.22	22.24	-27.5	-29.1	15.6	0.00e+00	0	45	0	699400192	15	4328
2026-01-21 02:17:25.47	333.97	22.29	-27.6	-29.3	15.5	0.00e+00	0	45	0	702545920	15	4370
2026-01-21 02:17:26.48	333.71	22.33	-27.6	-29.3	15.5	0.00e+00	0	45	0	705691648	15	4375
2026-01-21 02:17:27.48	333.46	22.38	-27.5	-29.1	15.6	0.00e+00	0	45	0	708837376	15	4317
2026-01-21 02:17:28.49	333.20	22.43	-27.5	-29.0	15.7	0.00e+00	0	45	0	711983104	15	4274
2026-01-21 02:17:29.49	332.95	22.48	-27.5	-29.0	15.7	0.00e+00	0	45	0	715128832	15	4274
2026-01-21 02:17:30.49	332.69	22.52	-27.5	-29.0	15.7	0.00e+00	0	45	0	718274560	15	4271
2026-01-21 02:17:31.49	332.44	22.57	-27.4	-29.2	15.8	0.00e+00	0	45	0	721420288	14	4452
2026-01-21 02:17:32.50	332.18	22.61	-27.3	-29.0	15.9	0.00e+00	0	45	0	724566016	14	4404
2026-01-21 02:17:33.50	331.92	22.66	-27.3	-29.0	16.0	0.00e+00	0	45	0	727711744	14	4389
2026-01-21 02:17:34.50	331.66	22.70	-27.4	-29.4	15.7	0.00e+00	0	45	0	730857472	14	4494
2026-01-21 02:17:35.51	331.40	22.74	-27.5	-29.1	15.7	0.00e+00	0	45	0	734003200	15	4307
2026-01-21 02:17:36.52	331.13	22.79	-27.4	-28.8	15.8	0.00e+00	0	45	0	737148928	15	4237
2026-01-21 02:17:37.53	330.87	22.83	-27.5	-29.0	15.7	0.00e+00	0	45	0	740294656	15	4284
2026-01-21 02:17:38.53	330.61	22.87	-27.5	-29.0	15.7	0.00e+00	0	45	0	743440384	15	4276
2026-01-21 02:17:39.53	330.35	22.91	-27.6	-29.2	15.6	0.00e+00	0	45	0	746586112	15	4327
2026-01-21 02:17:40.53	330.08	22.95	-27.6	-29.3	15.5	0.00e+00	0	45	0	749731840	15	4359
2026-01-21 02:17:41.53	329.82	22.99	-27.6	-29.2	15.6	0.00e+00	0	45	0	752877568	15	4326
2026-01-21 02:17:42.53	329.55	23.03	-27.7	-29.4	14.4	0.00e+00	0	45	0	756023296	15	4394
2026-01-21 02:17:43.53	329.29	23.07	-27.8	-29.6	14.4	9.91e-05	0	45	0	759169024	15	4458
2026-01-21 02:17:44.53	329.02	23.11	-27.8	-29.7	15.4	0.00e+00	0	45	0	762314752	15	4477
2026-01-21 02:17:45.53	328.76	23.14	-27.7	-29.6	15.4	0.00e+00	0	45	0	765460480	15	4436
2026-01-21 02:17:46.53	328.49	23.18	-27.6	-29.3	15.5	0.00e+00	0	45	0	767557632	15	4371
2026-01-21 02:17:47.53	328.22	23.22	-27.6	-29.2	15.6	0.00e+00	0	45	0	770703360	15	4342
2026-01-21 02:17:48.53	327.95	23.25	-27.5	-29.1	15.7	1.27e-04	0	45	0	773849088	15	4299
2026-01-21 02:17:49.54	327.68	23.29	-27.5	-29.1	15.6	0.00e+00	0	45	0	776994816	15	4305
2026-01-21 02:17:50.54	327.41	23.32	-27.4	-28.9	15.8	0.00e+00	0	45	0	780140544	15	4257
2026-01-21 02:17:51.54	327.14	23.35	-27.4	-29.3	15.8	0.00e+00	0	45	0	783286272	14	4496
2026-01-21 02:17:52.55	326.87	23.39	-27.4	-29.2	15.9	0.00e+00	0	45	0	786432000	14	4463
2026-01-21 02:17:53.56	326.60	23.42	-27.3	-29.1	15.9	0.00e+00	0	45	0	789577728	14	4432
2026-01-21 02:17:54.56	326.32	23.45	-27.3	-29.1	15.9	1.91e-04	0	45	0	792723456	14	4432
2026-01-21 02:17:55.56	326.05	23.48	-27.2	-29.0	16.0	1.58e-04	0	45	0	795869184	14	4380
2026-01-21 02:17:56.56	325.78	23.51	-27.3	-29.0	16.0	0.00e+00	0	45	0	799014912	14	4386
2026-01-21 02:17:57.56	325.50	23.54	-27.3	-29.1	16.0	0.00e+00	0	45	0	802160640	14	4414
2026-01-21 02:17:58.57	325.23	23.57	-27.4	-29.3	15.9	0.00e+00	0	45	0	805306368	14	4484
2026-01-21 02:17:59.57	324.95	23.60	-27.5	-29.4	15.7	0.00e+00	0	45	0	808452096	14	4516
2026-01-21 02:18:00.57	324.68	23.63	-27.5	-29.1	15.7	0.00e+00	0	45	0	811597824	15	4311
2026-01-21 02:18:01.58	324.40	23.65	-27.6	-29.3	15.6	0.00e+00	0	45	0	814743552	15	4361
2026-01-21 02:18:02.57	324.13	23.68	-27.5	-29.1	15.6	0.00e+00	0	45	0	817889280	15	4315
2026-01-21 02:18:03.58	323.85	23.70	-27.6	-29.3	15.5	3.29e-04	0	45	0	821035008	15	4357
2026-01-21 02:18:04.58	323.57	23.73	-27.6	-29.2	15.6	4.52e-04	0	45	0	824180736	15	4348
2026-01-21 02:18:05.58	323.29	23.75	-27.7	-29.4	15.5	0.00e+00	0	45	0	827326464	15	4389
2026-01-21 02:18:06.59	323.01	23.78	-27.6	-29.3	15.5	0.00e+00	0	45	0	830472192	15	4365
2026-01-21 02:18:07.59	322.73	23.80	-27.4	-29.3	15.8	0.00e+00	0	45	0	833617920	14	4479
2026-01-21 02:18:08.60	322.45	23.82	-27.4	-29.2	15.9	0.00e+00	0	45	0	836763648	14	4460
2026-01-21 02:18:09.60	322.17	23.84	-27.5	-29.5	15.7	5.81e-04	0	45	0	839909376	14	4534
2026-01-21 02:18:10.60	321.89	23.86	-27.6	-29.4	15.5	9.64e-04	0	45	0	843055104	15	4385
2026-01-21 02:18:11.61	321.61	23.88	-27.5	-29.1	15.7	0.00e+00	0	45	0	846200832	15	4300
2026-01-21 02:18:12.61	321.33	23.90	-27.3	-29.0	16.0	0.00e+00	0	45	0	849346560	14	4390
2026-01-21 02:18:13.61	321.05	23.92	-27.3	-29.1	15.9	2.57e-03	0	45	0	852492288	14	4413
2026-01-21 02:18:14.62	320.77	23.94	-27.3	-29.1	15.9	0.00e+00	0	45	0	855638016	14	4421
2026-01-21 02:18:15.62	320.49	23.95	-27.3	-29.1	15.9	2.50e-03	0	45	0	858783744	14	4412
2026-01-21 02:18:16.62	320.21	23.97	-27.4	-29.3	15.8	2.29e-03	0	45	0	861929472	14	4478
2026-01-21 02:18:17.63	319.92	23.98	-27.6	-29.1	15.6	0.00e+00	0	45	0	865075200	15	4323
2026-01-21 02:18:18.63	319.64	24.00	-27.5	-29.0	15.6	2.04e-03	0	45	0	868220928	15	4296
2026-01-21 02:18:19.62	319.36	24.01	-27.3	-29.1	15.9	2.22e-03	0	45	0	871366656	14	4436
2026-01-21 02:18:20.63	319.07	24.02	-27.3	-29.1	15.8	0.00e+00	0	45	0	874512384	14	4436
2026-01-21 02:18:21.63	318.79	24.04	-27.2	-28.9	15.9	2.18e-03	0	45	0	877658112	14	4399
2026-01-21 02:18:22.64	318.51	24.05	-26.5	-28.2	15.0	1.99e-03	0	45	0	880803840	14	4405
2026-01-21 02:18:23.64	318.22	24.06	-27.2	-28.8	15.1	9.35e-04	0	45	0	883949568	14	4331
2026-01-21 02:18:24.64	317.94	24.07	-27.2	-28.8	13.5	9.43e-04	0	45	0	887095296	14	4339
2026-01-21 02:18:25.64	317.66	24.08	-27.2	-28.8	14.6	5.87e-04	0	45	0	890241024	14	4342
2026-01-21 02:18:26.64	317.37	24.09	-27.2	-28.9	16.0	0.00e+00	0	45	0	893386752	14	4372
2026-01-21 02:18:27.64	317.09	24.09	-27.3	-29.1	15.9	5.28e-04	0	45	0	896532480	14	4435
2026-01-21 02:18:28.64	316.80	24.10	-27.3	-29.0	15.9	4.78e-03	0	45	0	899678208	14	4407
2026-01-21 02:18:29.65	316.52	24.11	-27.3	-29.1	15.9	0.00e+00	0	45	0	902823936	14	4419
2026-01-21 02:18:30.65	316.23	24.11	-27.4	-29.4	15.7	3.42e-04	0	45	0	905969664	14	4505
2026-01-21 02:18:31.66	315.95	24.12	-27.5	-29.0	15.7	2.88e-04	0	45	0	909115392	15	4279
2026-01-21 02:18:32.66	315.66	24.12	-27.5	-29.1	15.6	0.00e+00	0	45	0	912261120	15	4320
2026-01-21 02:18:33.66	315.38	24.12	-27.4	-29.4	15.7	4.22e-03	0	45	0	915406848	14	4514
2026-01-21 02:18:34.66	315.09	24.13	-27.5	-29.4	15.8	4.33e-03	0	45	0	918552576	14	4521
2026-01-21 02:18:35.67	314.81	24.13	-27.5	-28.9	15.8	0.00e+00	0	45	0	921698304	15	4259
2026-01-21 02:18:36.66	314.52	24.13	-27.4	-29.4	15.7	0.00e+00	0	45	0	924844032	14	4508
2026-01-21 02:18:37.66	314.24	24.13	-27.5	-28.9	15.7	0.00e+00	0	45	0	927989760	15	4267
2026-01-21 02:18:38.66	313.95	24.13	-27.6	-29.3	15.5	1.12e-04	0	45	0	931135488	15	4370
2026-01-21 02:18:39.67	313.67	24.13	-27.5	-29.1	15.6	4.91e-03	0	45	0	934281216	15	4325
2026-01-21 02:18:40.67	313.38	24.12	-27.5	-29.5	15.7	4.50e-03	0	45	0	937426944	14	4533
2026-01-21 02:18:41.68	313.10	24.12	-27.5	-29.4	15.7	0.00e+00	0	45	0	940572672	14	4521
2026-01-21 02:18:42.68	312.81	24.12	-27.6	-29.3	15.5	0.00e+00	0	45	0	943718400	15	4363
2026-01-21 02:18:43.69	312.52	24.11	-27.9	-30.0	15.1	4.48e-03	0	45	0	946864128	15	4571
2026-01-21 02:18:44.69	312.24	24.11	-28.0	-29.6	15.2	0.00e+00	0	45	0	950009856	16	4328
2026-01-21 02:18:45.70	311.95	24.10	-27.7	-29.4	15.4	4.37e-03	0	45	0	953155584	15	4407
2026-01-21 02:18:46.70	311.67	24.09	-27.7	-29.4	15.5	0.00e+00	0	45	0	956301312	15	4400
2026-01-21 02:18:47.70	311.38	24.09	-27.7	-29.4	15.4	0.00e+00	0	45	0	959447040	15	4403
2026-01-21 02:18:48.70	311.10	24.08	-27.6	-29.3	15.5	4.49e-03	0	45	0	962592768	15	4374
2026-01-21 02:18:49.70	310.82	24.07	-27.6	-29.3	15.6	4.20e-03	0	45	0	965738496	15	4358
2026-01-21 02:18:50.70	310.53	24.06	-27.5	-29.0	15.7	0.00e+00	0	45	0	968884224	15	4275
2026-01-21 02:18:51.70	310.25	24.05	-27.3	-29.1	15.9	4.13e-03	0	45	0	972029952	14	4411
2026-01-21 02:18:52.71	309.96	24.04	-27.3	-29.1	15.9	1.85e-03	0	45	0	975175680	14	4409
2026-01-21 02:18:53.72	309.68	24.03	-27.2	-28.9	16.0	0.00e+00	0	45	0	978321408	14	4368
2026-01-21 02:18:54.72	309.40	24.01	-27.1	-28.7	16.1	4.13e-03	0	45	0	981467136	14	4307
2026-01-21 02:18:55.73	309.11	24.00	-27.2	-28.8	16.1	3.65e-03	0	45	0	984612864	14	4340
2026-01-21 02:18:56.72	308.83	23.98	-27.2	-28.7	16.1	1.62e-04	0	45	0	987758592	14	4318
2026-01-21 02:18:57.73	308.55	23.97	-27.2	-28.8	16.1	0.00e+00	0	45	0	990904320	14	4327
2026-01-21 02:18:58.73	308.27	23.95	-27.2	-28.8	16.0	2.37e-03	0	45	0	994050048	14	4345
2026-01-21 02:18:59.74	307.98	23.94	-27.2	-28.8	16.1	8.56e-04	0	45	0	997195776	14	4345
2026-01-21 02:19:00.74	307.70	23.92	-27.1	-28.7	16.1	3.37e-03	0	45	0	1000341504	14	4315
2026-01-21 02:19:01.74	307.42	23.90	-27.1	-28.7	16.1	3.98e-03	0	45	0	1003487232	14	4320
2026-01-21 02:19:02.73	307.14	23.88	-27.2	-28.9	16.0	0.00e+00	0	45	0	1006632960	14	4370
2026-01-21 02:19:03.73	306.86	23.86	-27.3	-29.1	15.9	3.79e-03	0	45	0	1009778688	14	4436
2026-01-21 02:19:04.73	306.58	23.84	-27.3	-29.0	15.9	3.57e-03	0	45	0	1012924416	14	4406
2026-01-21 02:19:05.74	306.30	23.82	-27.2	-29.0	15.9	1.26e-03	0	45	0	1016070144	14	4383
2026-01-21 02:19:06.74	306.02	23.80	-27.3	-29.0	15.9	3.67e-03	0	45	0	1019215872	14	4406
2026-01-21 02:19:07.74	305.74	23.78	-27.2	-28.9	16.0	0.00e+00	0	45	0	1021313024	14	4369
2026-01-21 02:19:08.74	305.46	23.75	-27.2	-28.9	16.0	0.00e+00	0	45	0	1024458752	14	4356
2026-01-21 02:19:09.74	305.19	23.73	-27.2	-28.9	16.0	4.01e-03	0	45	0	1027604480	14	4382
2026-01-21 02:19:10.75	304.91	23.70	-27.5	-29.4	15.7	4.59e-03	0	45	0	1030750208	14	4520
2026-01-21 02:19:11.75	304.63	23.68	-27.3	-29.2	15.8	2.14e-03	0	45	0	1033895936	14	4438
2026-01-21 02:19:12.76	304.35	23.65	-27.2	-28.9	16.0	0.00e+00	0	45	0	1037041664	14	4352
2026-01-21 02:19:13.76	304.07	23.63	-27.1	-28.6	16.1	0.00e+00	0	45	0	1041235968	14	4295
2026-01-21 02:19:14.76	303.80	23.60	-27.1	-28.6	16.2	1.89e-03	0	45	0	1043333120	14	4277
2026-01-21 02:19:15.76	303.52	23.57	-27.0	-28.5	16.1	4.45e-03	0	45	0	1046478848	14	4259
2026-01-21 02:19:16.76	303.25	23.54	-27.2	-28.8	16.0	4.40e-03	0	45	0	1049624576	14	4335
2026-01-21 02:19:17.77	302.97	23.51	-27.2	-28.8	16.0	0.00e+00	0	45	0	1052770304	14	4338
2026-01-21 02:19:18.77	302.70	23.48	-27.3	-29.1	15.8	0.00e+00	0	45	0	1055916032	14	4430
2026-01-21 02:19:19.78	302.42	23.45	-27.3	-29.1	15.9	0.00e+00	0	45	0	1059061760	14	4433
2026-01-21 02:19:20.79	302.15	23.42	-27.5	-29.5	15.7	0.00e+00	0	45	0	1062207488	14	4536
2026-01-21 02:19:21.79	301.88	23.39	-27.3	-29.2	15.8	2.08e-03	0	45	0	1065353216	14	4449
2026-01-21 02:19:22.79	301.61	23.35	-27.4	-29.3	15.8	0.00e+00	0	45	0	1068498944	14	4480
2026-01-21 02:19:23.79	301.33	23.32	-27.5	-29.4	15.6	0.00e+00	0	45	0	1071644672	14	4517
2026-01-21 02:19:24.79	301.06	23.29	-27.3	-29.1	15.8	0.00e+00	0	45	0	1074790400	14	4426
2026-01-21 02:19:25.80	300.79	23.25	-27.3	-29.1	15.9	0.00e+00	0	45	0	1077936128	14	4420
2026-01-21 02:19:26.80	300.52	23.22	-27.3	-29.0	15.9	0.00e+00	0	45	0	1081081856	14	4388
2026-01-21 02:19:27.80	300.26	23.18	-27.1	-28.7	16.0	0.00e+00	0	45	0	1084227584	14	4326
2026-01-21 02:19:28.81	299.98	23.14	-27.1	-28.6	16.1	0.00e+00	0	45	0	1087373312	14	4274
2026-01-21 02:19:29.81	299.72	23.11	-27.1	-28.7	16.1	0.00e+00	0	45	0	1090519040	14	4313
2026-01-21 02:19:30.82	299.45	23.07	-27.0	-28.5	16.2	0.00e+00	0	45	0	1093664768	14	4245
2026-01-21 02:19:31.82	299.18	23.03	-27.0	-28.5	16.1	0.00e+00	0	45	0	1096810496	14	4269
2026-01-21 02:19:32.83	298.92	22.99	-27.2	-28.9	15.9	0.00e+00	0	45	0	1099956224	14	4379
2026-01-21 02:19:33.84	298.65	22.95	-27.4	-29.3	15.8	0.00e+00	0	45	0	1103101952	14	4475
2026-01-21 02:19:34.85	298.38	22.91	-27.6	-29.3	15.5	0.00e+00	0	45	0	1106247680	15	4369
2026-01-21 02:19:35.85	298.12	22.87	-27.7	-29.5	15.3	0.00e+00	0	45	0	1109393408	15	4420
2026-01-21 02:19:36.85	297.86	22.83	-27.5	-29.1	15.5	0.00e+00	0	45	0	1112539136	15	4331
2026-01-21 02:19:37.86	297.59	22.78	-27.4	-28.8	15.7	0.00e+00	0	45	0	1115684864	15	4238
2026-01-21 02:19:38.86	297.33	22.74	-27.4	-28.9	15.6	0.00e+00	0	45	0	1118830592	15	4262
2026-01-21 02:19:39.87	297.07	22.70	-27.4	-29.4	15.6	0.00e+00	0	45	0	1121976320	14	4513
2026-01-21 02:19:40.86	296.81	22.65	-27.5	-29.0	15.5	0.00e+00	0	45	0	1125122048	15	4286
2026-01-21 02:19:41.87	296.55	22.61	-27.4	-28.9	15.6	0.00e+00	0	45	0	1128267776	15	4263
2026-01-21 02:19:42.87	296.29	22.56	-27.5	-29.5	15.6	0.00e+00	0	45	0	1131413504	14	4551
2026-01-21 02:19:43.87	296.04	22.52	-27.4	-29.4	15.6	0.00e+00	0	45	0	1134559232	14	4514
2026-01-21 02:19:44.87	295.78	22.47	-27.6	-29.2	15.4	0.00e+00	0	45	0	1137704960	15	4342
2026-01-21 02:19:45.87	295.52	22.43	-27.7	-29.6	15.2	0.00e+00	0	45	0	1140850688	15	4471
2026-01-21 02:19:46.88	295.27	22.38	-27.6	-29.3	15.3	0.00e+00	0	45	0	1143996416	15	4390
2026-01-21 02:19:47.88	295.01	22.33	-27.7	-29.5	15.2	0.00e+00	0	45	0	1147142144	15	4446
2026-01-21 02:19:48.89	294.76	22.28	-27.6	-29.4	15.4	0.00e+00	0	45	0	1150287872	15	4390
2026-01-21 02:19:49.88	294.51	22.24	-27.6	-29.4	15.3	0.00e+00	0	45	0	1153433600	15	4394
2026-01-21 02:19:50.89	294.25	22.19	-27.7	-29.4	15.3	0.00e+00	0	45	0	1156579328	15	4417
2026-01-21 02:19:51.89	294.00	22.14	-27.7	-29.5	15.2	0.00e+00	0	45	0	1159725056	15	4436
2026-01-21 02:19:52.90	293.75	22.09	-27.7	-29.6	15.2	0.00e+00	0	45	0	1162870784	15	4461
2026-01-21 02:19:53.91	293.50	22.04	-27.8	-29.8	15.1	0.00e+00	0	45	0	1166016512	15	4534
2026-01-21 02:19:54.91	293.25	21.98	-27.7	-29.4	15.3	0.00e+00	0	45	0	1169162240	15	4405
2026-01-21 02:19:55.92	293.00	21.93	-27.5	-28.9	15.5	0.00e+00	0	45	0	1172307968	15	4270
2026-01-21 02:19:56.91	292.75	21.88	-27.5	-29.5	15.6	0.00e+00	0	45	0	1175453696	14	4548
2026-01-21 02:19:57.91	292.51	21.83	-27.5	-29.2	14.0	0.00e+00	0	45	0	1178599424	15	4338
2026-01-21 02:19:58.91	292.26	21.78	-27.7	-29.6	15.2	0.00e+00	0	45	0	1181745152	15	4473
2026-01-21 02:19:59.91	292.02	21.72	-27.9	-29.9	15.0	0.00e+00	0	45	0	1184890880	15	4557
2026-01-21 02:20:00.91	291.77	21.67	-27.8	-29.8	15.0	9.11e-04	0	45	0	1188036608	15	4529
2026-01-21 02:20:01.92	291.53	21.61	-27.9	-30.0	15.0	0.00e+00	0	45	0	1191182336	15	4572
2026-01-21 02:20:02.92	291.29	21.56	-27.7	-29.6	15.2	0.00e+00	0	45	0	1194328064	15	4462
2026-01-21 02:20:03.92	291.04	21.50	-27.7	-29.5	15.3	0.00e+00	0	45	0	1197473792	15	4441
2026-01-21 02:20:04.92	290.80	21.45	-27.7	-29.5	15.3	0.00e+00	0	45	0	1200619520	15	4430
2026-01-21 02:20:05.93	290.56	21.39	-27.7	-29.6	15.2	9.46e-05	0	45	0	1203765248	15	4469
2026-01-21 02:20:06.93	290.32	21.34	-27.7	-29.6	15.2	1.18e-04	0	45	0	1206910976	15	4457
2026-01-21 02:20:07.93	290.09	21.28	-27.7	-29.5	15.2	0.00e+00	0	45	0	1210056704	15	4416
2026-01-21 02:20:08.92	289.85	21.22	-27.8	-29.7	15.1	0.00e+00	0	45	0	1213202432	15	4496
2026-01-21 02:20:09.92	289.62	21.17	-27.9	-30.0	15.0	0.00e+00	0	45	0	1216348160	15	4570
2026-01-21 02:20:10.92	289.38	21.11	-28.2	-30.1	14.8	0.00e+00	0	45	0	1219493888	16	4492
2026-01-21 02:20:11.93	289.15	21.05	-28.2	-30.1	14.8	2.59e-04	0	45	0	1222639616	16	4495
2026-01-21 02:20:12.94	288.91	20.99	-28.1	-29.8	14.9	0.00e+00	0	45	0	1225785344	16	4418
2026-01-21 02:20:13.94	288.68	20.93	-28.1	-29.8	15.0	0.00e+00	0	45	0	1228931072	16	4404
2026-01-21 02:20:14.94	288.45	20.87	-28.0	-29.7	15.0	0.00e+00	0	45	0	1232076800	16	4371
2026-01-21 02:20:15.94	288.22	20.81	-28.0	-29.6	15.0	2.42e-04	0	45	0	1235222528	16	4343
2026-01-21 02:20:16.94	287.99	20.75	-27.8	-29.7	15.1	0.00e+00	0	45	0	1238368256	15	4490
2026-01-21 02:20:17.94	287.76	20.69	-27.5	-29.1	15.4	1.50e-04	0	45	0	1241513984	15	4326
2026-01-21 02:20:18.94	287.53	20.63	-27.1	-28.6	14.6	0.00e+00	0	45	0	1244659712	15	4261
2026-01-21 02:20:19.95	287.30	20.57	-27.6	-29.3	15.3	0.00e+00	0	45	0	1247805440	15	4375
2026-01-21 02:20:20.95	287.08	20.51	-27.5	-29.1	14.8	0.00e+00	0	45	0	1250951168	15	4328
2026-01-21 02:20:21.96	286.85	20.45	-27.4	-28.9	15.5	0.00e+00	0	45	0	1254096896	15	4268
2026-01-21 02:20:22.97	286.62	20.38	-27.5	-29.0	15.5	0.00e+00	0	45	0	1257242624	15	4294
2026-01-21 02:20:23.97	286.40	20.32	-27.6	-29.3	15.3	0.00e+00	0	45	0	1260388352	15	4374
2026-01-21 02:20:24.97	286.18	20.26	-27.5	-29.0	15.5	0.00e+00	0	45	0	1263534080	15	4283
2026-01-21 02:20:25.98	285.95	20.20	-27.5	-29.0	15.5	0.00e+00	0	45	0	1266679808	15	4294
2026-01-21 02:20:26.99	285.73	20.13	-27.5	-29.0	15.5	2.05e-05	0	45	0	1269825536	15	4299
2026-01-21 02:20:27.99	285.51	20.07	-27.5	-29.1	15.4	2.99e-04	0	45	0	1272971264	15	4326
2026-01-21 02:20:29.00	285.29	20.00	-27.5	-29.0	15.5	0.00e+00	0	45	0	1276116992	15	4281
2026-01-21 02:20:29.99	285.07	19.94	-27.5	-29.5	15.5	1.77e-03	0	45	0	1279262720	14	4541
2026-01-21 02:20:31.00	284.86	19.88	-27.6	-29.3	15.3	0.00e+00	0	45	0	1282408448	15	4384
2026-01-21 02:20:32.01	284.64	19.81	-27.8	-29.7	15.1	0.00e+00	0	45	0	1285554176	15	4510
2026-01-21 02:20:33.01	284.42	19.75	-27.6	-29.3	15.3	2.60e-03	0	45	0	1288699904	15	4395
2026-01-21 02:20:34.01	284.21	19.68	-27.4	-29.5	15.5	2.44e-03	0	45	0	1291845632	14	4542
2026-01-21 02:20:35.02	283.99	19.61	-27.3	-29.2	15.6	7.62e-05	0	45	0	1294991360	14	4479
2026-01-21 02:20:36.02	283.78	19.55	-27.4	-29.3	15.5	1.98e-04	0	45	0	1298137088	14	4504
2026-01-21 02:20:37.02	283.57	19.48	-27.7	-29.5	15.2	1.04e-03	0	45	0	1301282816	15	4427
2026-01-21 02:20:38.02	283.36	19.42	-27.8	-29.8	15.0	0.00e+00	0	45	0	1304428544	15	4508
2026-01-21 02:20:39.02	283.15	19.35	-27.6	-29.3	15.3	3.97e-03	0	45	0	1307574272	15	4372
2026-01-21 02:20:40.02	282.94	19.28	-27.5	-29.5	15.4	2.55e-03	0	45	0	1310720000	14	4555
2026-01-21 02:20:41.03	282.73	19.22	-27.6	-29.3	15.2	0.00e+00	0	45	0	1313865728	15	4385
2026-01-21 02:20:42.04	282.52	19.15	-27.9	-30.0	14.9	5.33e-03	0	45	0	1317011456	15	4581
2026-01-21 02:20:43.04	282.32	19.08	-27.8	-29.8	15.0	5.12e-03	0	45	0	1320157184	15	4536
2026-01-21 02:20:44.04	282.11	19.02	-28.3	-30.5	14.4	9.46e-05	0	45	0	1322254336	16	4611
2026-01-21 02:20:45.05	281.91	18.95	-28.1	-29.9	14.8	2.78e-03	0	45	0	1325400064	16	4421
2026-01-21 02:20:46.05	281.70	18.88	-27.6	-29.4	15.2	2.23e-03	0	45	0	1328545792	15	4398
2026-01-21 02:20:47.06	281.50	18.81	-27.4	-28.9	15.4	0.00e+00	0	45	0	1331691520	15	4268
2026-01-21 02:20:48.06	281.30	18.74	-27.4	-28.8	15.5	0.00e+00	0	45	0	1335885824	15	4236
2026-01-21 02:20:49.07	281.10	18.67	-27.4	-29.4	15.5	8.12e-04	0	45	0	1339031552	14	4521
2026-01-21 02:20:50.08	280.89	18.60	-27.4	-29.3	15.5	0.00e+00	0	45	0	1342177280	14	4504
2026-01-21 02:20:51.08	280.70	18.54	-27.4	-29.4	15.5	1.85e-03	0	45	0	1344274432	14	4520
2026-01-21 02:20:52.08	280.50	18.47	-27.6	-29.3	15.3	0.00e+00	0	45	0	1347420160	15	4371
2026-01-21 02:20:53.09	280.30	18.40	-27.8	-29.9	14.9	0.00e+00	0	45	0	1350565888	15	4545
2026-01-21 02:20:54.09	280.10	18.33	-27.7	-29.5	15.1	1.04e-03	0	45	0	1353711616	15	4443
2026-01-21 02:20:55.09	279.91	18.26	-27.6	-29.2	15.2	4.68e-04	0	45	0	1356857344	15	4370
2026-01-21 02:20:56.09	279.71	18.19	-27.5	-29.1	15.3	0.00e+00	0	45	0	1360003072	15	4335
2026-01-21 02:20:57.10	279.52	18.12	-27.5	-29.1	15.3	0.00e+00	0	45	0	1363148800	15	4331
2026-01-21 02:20:58.10	279.33	18.05	-27.4	-28.9	15.4	0.00e+00	0	45	0	1366294528	15	4272
2026-01-21 02:20:59.10	279.14	17.98	-27.4	-28.9	15.4	0.00e+00	0	45	0	1369440256	15	4278
2026-01-21 02:21:00.11	278.94	17.91	-27.5	-29.2	15.3	3.88e-03	0	45	0	1372585984	15	4352
2026-01-21 02:21:01.11	278.75	17.84	-27.6	-29.4	15.2	7.00e-07	0	45	0	1375731712	15	4410
2026-01-21 02:21:02.12	278.56	17.77	-27.8	-29.8	14.9	0.00e+00	0	45	0	1378877440	15	4541
2026-01-21 02:21:03.12	278.38	17.70	-27.8	-29.9	14.8	0.00e+00	0	45	0	1382023168	15	4564
2026-01-21 02:21:04.12	278.19	17.63	-28.1	-30.0	14.6	1.50e-06	0	45	0	1385168896	16	4477
2026-01-21 02:21:05.12	278.00	17.56	-28.2	-30.2	14.5	7.00e-07	0	45	0	1388314624	16	4539
2026-01-21 02:21:06.13	277.82	17.49	-28.1	-30.0	14.6	0.00e+00	0	45	0	1391460352	16	4487
2026-01-21 02:21:07.13	277.63	17.42	-28.0	-29.8	14.7	0.00e+00	0	45	0	1394606080	16	4414
2026-01-21 02:21:08.14	277.45	17.34	-27.9	-29.9	14.7	0.00e+00	0	45	0	1397751808	15	4574
2026-01-21 02:21:09.14	277.26	17.27	-27.7	-29.6	15.0	7.00e-07	0	45	0	1400897536	15	4481
2026-01-21 02:21:10.14	277.08	17.20	-27.7	-29.5	15.0	0.00e+00	0	45	0	1404043264	15	4448
2026-01-21 02:21:11.15	276.90	17.13	-27.7	-29.5	15.0	0.00e+00	0	45	0	1407188992	15	4451
2026-01-21 02:21:12.15	276.72	17.06	-27.6	-29.4	15.1	0.00e+00	0	45	0	1410334720	15	4412
2026-01-21 02:21:13.16	276.54	16.99	-27.7	-29.6	14.9	0.00e+00	0	45	0	1413480448	15	4481
2026-01-21 02:21:14.16	276.36	16.92	-27.5	-29.0	15.2	0.00e+00	0	45	0	1416626176	15	4316
2026-01-21 02:21:15.17	276.18	16.84	-27.4	-29.3	15.3	0.00e+00	0	45	0	1419771904	14	4514
2026-01-21 02:21:16.17	276.01	16.77	-27.4	-29.5	15.3	0.00e+00	0	45	0	1422917632	14	4552
2026-01-21 02:21:17.18	275.83	16.70	-27.6	-29.3	15.1	0.00e+00	0	45	0	1426063360	15	4381
2026-01-21 02:21:18.18	275.65	16.63	-27.8	-29.9	14.8	7.00e-07	0	45	0	1429209088	15	4552
2026-01-21 02:21:19.19	275.48	16.56	-27.5	-29.2	15.1	7.00e-07	0	45	0	1432354816	15	4361
2026-01-21 02:21:20.19	275.30	16.48	-27.6	-29.5	15.0	7.00e-07	0	45	0	1435500544	15	4432
2026-01-21 02:21:21.20	275.13	16.41	-27.8	-29.7	14.8	0.00e+00	0	45	0	1438646272	15	4513
2026-01-21 02:21:22.20	274.96	16.34	-27.8	-29.8	14.8	7.00e-07	0	45	0	1441792000	15	4537
2026-01-21 02:21:23.20	274.79	16.27	-28.1	-30.0	14.6	7.00e-07	0	45	0	1444937728	16	4489
2026-01-21 02:21:24.19	274.62	16.20	-28.1	-29.9	14.6	0.00e+00	0	45	0	1448083456	16	4461
2026-01-21 02:21:25.19	274.45	16.12	-28.2	-30.1	14.5	0.00e+00	0	45	0	1451229184	16	4522
2026-01-21 02:21:26.20	274.28	16.05	-28.4	-30.6	14.3	2.20e-06	0	45	0	1454374912	16	4665
2026-01-21 02:21:27.20	274.11	15.98	-28.5	-30.5	14.0	2.20e-06	0	45	0	1457520640	17	4524
2026-01-21 02:21:28.20	273.95	15.91	-28.4	-30.3	14.2	2.20e-06	0	45	0	1460666368	17	4443
2026-01-21 02:21:29.20	273.78	15.84	-28.3	-30.0	14.3	0.00e+00	0	45	0	1463812096	17	4358
2026-01-21 02:21:30.21	273.62	15.76	-28.3	-30.5	14.3	7.00e-07	0	45	0	1466957824	16	4638
2026-01-21 02:21:31.21	273.45	15.69	-28.6	-30.8	13.8	3.00e-06	0	45	0	1470103552	17	4607
2026-01-21 02:21:32.22	273.29	15.62	-28.8	-31.2	13.5	6.10e-06	0	45	0	1473249280	17	4753
2026-01-21 02:21:33.22	273.12	15.55	-28.9	-31.3	13.5	1.67e-05	0	45	0	1476395008	17	4782
2026-01-21 02:21:34.22	272.96	15.47	-28.9	-31.4	13.4	1.44e-05	0	45	0	1479540736	17	4813
2026-01-21 02:21:35.22	272.80	15.40	-29.0	-31.3	13.1	2.51e-05	0	45	0	1482686464	18	4644
2026-01-21 02:21:36.22	272.64	15.33	-29.1	-31.3	13.1	3.12e-05	0	45	0	1485832192	18	4664
2026-01-21 02:21:37.23	272.48	15.26	-28.8	-31.2	13.5	7.60e-06	0	45	0	1488977920	17	4742
2026-01-21 02:21:38.23	272.32	15.18	-28.9	-31.4	13.4	9.10e-06	0	45	0	1492123648	17	4794
2026-01-21 02:21:39.23	272.16	15.11	-29.0	-31.0	13.3	1.60e-05	0	45	0	1495269376	18	4565
2026-01-21 02:21:40.24	272.01	15.04	-28.6	-30.7	13.8	8.30e-06	0	45	0	1498415104	17	4586
2026-01-21 02:21:41.25	271.85	14.96	-28.4	-30.2	14.2	2.20e-06	0	45	0	1501560832	17	4411
2026-01-21 02:21:42.26	271.69	14.89	-28.3	-30.4	14.2	0.00e+00	0	45	0	1504706560	16	4592
2026-01-21 02:21:43.26	271.54	14.82	-28.3	-30.4	14.2	7.00e-07	0	45	0	1507852288	16	4604
2026-01-21 02:21:44.26	271.38	14.75	-28.2	-30.2	14.4	7.00e-07	0	45	0	1510998016	16	4545
2026-01-21 02:21:45.27	271.23	14.67	-28.2	-30.2	14.4	7.00e-07	0	45	0	1514143744	16	4547
2026-01-21 02:21:46.28	271.07	14.60	-28.2	-30.3	14.3	7.00e-07	0	45	0	1517289472	16	4560
2026-01-21 02:21:47.29	270.92	14.53	-28.3	-30.5	14.2	2.20e-06	0	45	0	1520435200	16	4623
2026-01-21 02:21:48.28	270.77	14.46	-27.2	-29.1	14.5	7.00e-07	0	45	0	1523580928	16	4463
2026-01-21 02:21:49.29	270.62	14.38	-27.7	-29.6	14.8	0.00e+00	0	45	0	1526726656	15	4497
2026-01-21 02:21:50.29	270.47	14.31	-27.7	-29.7	13.1	0.00e+00	0	45	0	1529872384	15	4513
2026-01-21 02:21:51.29	270.32	14.24	-27.1	-29.4	13.3	0.00e+00	0	45	0	1533018112	15	4696
2026-01-21 02:21:52.30	270.17	14.17	-27.6	-29.8	13.1	7.00e-07	0	45	0	1536163840	15	4655
2026-01-21 02:21:53.30	270.02	14.09	-27.9	-30.0	11.5	7.00e-07	0	45	0	1539309568	16	4576
2026-01-21 02:21:54.30	269.88	14.02	-28.2	-30.4	13.0	0.00e+00	0	45	0	1542455296	16	4597
2026-01-21 02:21:55.30	269.73	13.95	-28.3	-30.5	14.1	7.00e-07	0	45	0	1545601024	16	4644
2026-01-21 02:21:56.30	269.59	13.88	-28.3	-30.4	14.2	3.00e-06	0	45	0	1548746752	16	4594
2026-01-21 02:21:57.30	269.44	13.81	-28.3	-30.5	14.2	8.03e-03	0	45	0	1551892480	16	4625
2026-01-21 02:21:58.30	269.30	13.73	-28.2	-30.3	14.2	3.00e-06	0	45	0	1555038208	16	4586
2026-01-21 02:21:59.30	269.16	13.66	-28.2	-30.2	14.3	7.00e-07	0	45	0	1558183936	16	4545
2026-01-21 02:22:00.30	269.01	13.59	-28.2	-30.3	14.3	0.00e+00	0	45	0	1561329664	16	4571
2026-01-21 02:22:01.31	268.87	13.52	-28.2	-30.3	14.3	1.50e-06	0	45	0	1564475392	16	4560
2026-01-21 02:22:02.31	268.73	13.44	-28.3	-30.4	14.2	7.10e-03	0	45	0	1567621120	16	4616
2026-01-21 02:22:03.32	268.59	13.37	-28.3	-30.5	14.1	7.08e-03	0	45	0	1570766848	16	4639
2026-01-21 02:22:04.32	268.45	13.30	-28.4	-30.7	14.0	1.50e-06	0	45	0	1573912576	16	4690
2026-01-21 02:22:05.33	268.31	13.23	-28.5	-30.5	13.8	7.00e-07	0	45	0	1577058304	17	4532
2026-01-21 02:22:06.33	268.17	13.16	-28.5	-30.5	13.8	2.37e-03	0	45	0	1580204032	17	4523
2026-01-21 02:22:07.34	268.03	13.08	-28.5	-30.5	13.7	7.60e-06	0	45	0	1583349760	17	4538
2026-01-21 02:22:08.34	267.89	13.01	-28.6	-30.6	13.7	4.32e-03	0	45	0	1586495488	17	4564
2026-01-21 02:22:09.34	267.76	12.94	-28.6	-30.7	13.7	1.50e-06	0	45	0	1589641216	17	4584
2026-01-21 02:22:10.34	267.62	12.87	-28.6	-30.7	13.7	8.30e-06	0	45	0	1592786944	17	4586
2026-01-21 02:22:11.35	267.49	12.80	-28.5	-31.0	13.8	6.15e-03	0	45	0	1595932672	16	4789
2026-01-21 02:22:12.36	267.35	12.72	-28.5	-30.6	13.7	6.21e-03	0	45	0	1599078400	17	4554
2026-01-21 02:22:13.36	267.22	12.65	-28.5	-30.5	13.7	6.80e-06	0	45	0	1602224128	17	4535
2026-01-21 02:22:14.37	267.08	12.58	-28.2	-30.4	14.1	6.70e-03	0	45	0	1605369856	16	4603
2026-01-21 02:22:15.38	266.95	12.51	-28.1	-30.0	14.3	6.49e-03	0	45	0	1608515584	16	4492
2026-01-21 02:22:16.38	266.82	12.44	-28.0	-29.8	14.4	3.00e-06	0	45	0	1611661312	16	4437
2026-01-21 02:22:17.38	266.69	12.37	-27.9	-30.2	14.4	6.75e-03	0	45	0	1614807040	15	4653
2026-01-21 02:22:18.39	266.56	12.30	-28.2	-30.2	14.2	7.35e-03	0	45	0	1617952768	16	4542
2026-01-21 02:22:19.40	266.43	12.22	-28.4	-30.8	13.9	4.65e-05	0	45	0	1621098496	16	4719
2026-01-21 02:22:20.41	266.30	12.15	-28.5	-30.5	13.7	7.62e-03	0	45	0	1624244224	17	4529
2026-01-21 02:22:21.41	266.17	12.08	-28.8	-31.3	13.2	1.60e-05	0	45	0	1627389952	17	4795
2026-01-21 02:22:22.42	266.04	12.01	-29.0	-31.2	13.0	5.27e-04	0	45	0	1630535680	18	4647
2026-01-21 02:22:23.42	265.91	11.94	-28.9	-31.4	13.2	7.92e-03	0	45	0	1633681408	17	4831
2026-01-21 02:22:24.43	265.78	11.87	-28.8	-31.3	13.3	7.08e-03	0	45	0	1636827136	17	4798
2026-01-21 02:22:25.43	265.66	11.80	-28.9	-31.5	13.1	2.89e-05	0	45	0	1639972864	17	4842
2026-01-21 02:22:26.43	265.53	11.73	-28.8	-31.3	13.2	2.44e-05	0	45	0	1643118592	17	4781
2026-01-21 02:22:27.43	265.41	11.66	-28.7	-31.0	13.4	1.52e-05	0	45	0	1646264320	17	4698
2026-01-21 02:22:28.44	265.28	11.58	-28.8	-31.2	13.3	4.04e-04	0	45	0	1649410048	17	4753
2026-01-21 02:22:29.44	265.16	11.51	-28.9	-31.4	13.1	6.01e-03	0	45	0	1652555776	17	4819
2026-01-21 02:22:30.44	265.04	11.44	-28.8	-31.2	13.2	2.55e-03	0	45	0	1655701504	17	4768
2026-01-21 02:22:31.45	264.91	11.37	-28.7	-30.9	13.4	1.22e-05	0	45	0	1658847232	17	4664
2026-01-21 02:22:32.46	264.79	11.30	-28.7	-30.9	13.4	1.37e-05	0	45	0	1661992960	17	4679
2026-01-21 02:22:33.45	264.67	11.23	-28.4	-30.4	13.7	1.01e-02	0	45	0	1665138688	17	4513
2026-01-21 02:22:34.45	264.55	11.16	-28.4	-30.8	13.7	2.06e-03	0	45	0	1668284416	16	4759
2026-01-21 02:22:35.46	264.43	11.09	-28.5	-30.6	13.5	3.56e-03	0	45	0	1671430144	17	4574
2026-01-21 02:22:36.46	264.31	11.02	-28.7	-31.0	13.3	1.22e-05	0	45	0	1674575872	17	4705
2026-01-21 02:22:37.46	264.19	10.95	-28.8	-31.2	13.2	2.59e-05	0	45	0	1677721600	17	4762
2026-01-21 02:22:38.46	264.08	10.88	-28.7	-31.1	13.2	2.05e-05	0	45	0	1680867328	17	4738
2026-01-21 02:22:39.46	263.96	10.81	-28.9	-31.5	13.0	3.12e-05	0	45	0	1684013056	17	4865
2026-01-21 02:22:40.47	263.84	10.74	-29.1	-31.5	12.7	7.70e-05	0	45	0	1687158784	18	4746
2026-01-21 02:22:41.47	263.72	10.67	-29.0	-31.4	12.7	8.31e-05	0	45	0	1690304512	18	4728
2026-01-21 02:22:42.47	263.61	10.60	-29.1	-31.5	12.7	7.32e-05	0	45	0	1692401664	18	4766
2026-01-21 02:22:43.47	263.49	10.53	-29.1	-31.7	12.6	8.62e-05	0	45	0	1695547392	18	4812
2026-01-21 02:22:44.47	263.38	10.47	-29.1	-31.5	12.6	9.30e-05	0	45	0	1698693120	18	4773
2026-01-21 02:22:45.48	263.26	10.40	-29.2	-31.7	12.5	2.09e-03	0	45	0	1701838848	18	4830
2026-01-21 02:22:46.49	263.15	10.33	-29.1	-31.6	12.6	1.22e-04	0	45	0	1704984576	18	4787
2026-01-21 02:22:47.49	263.04	10.26	-28.9	-31.5	13.0	5.56e-05	0	45	0	1708130304	17	4871
2026-01-21 02:22:48.50	262.92	10.19	-28.8	-31.3	13.0	3.81e-05	0	45	0	1711276032	17	4823
2026-01-21 02:22:49.50	262.81	10.12	-28.9	-31.5	12.9	4.34e-05	0	45	0	1714421760	17	4872
2026-01-21 02:22:50.51	262.70	10.05	-28.8	-31.3	13.0	3.16e-03	0	45	0	1717567488	17	4825
2026-01-21 02:22:51.51	262.59	9.98	-28.6	-30.8	13.4	2.28e-05	0	45	0	1720713216	17	4633
2026-01-21 02:22:52.52	262.48	9.91	-28.5	-30.6	13.5	1.22e-05	0	45	0	1723858944	17	4595
2026-01-21 02:22:53.53	262.36	9.84	-28.6	-30.8	13.4	7.60e-06	0	45	0	1727004672	17	4638
2026-01-21 02:22:54.52	262.26	9.78	-28.7	-31.2	13.1	2.51e-05	0	45	0	1730150400	17	4771
2026-01-21 02:22:55.53	262.15	9.71	-28.8	-31.4	13.0	3.81e-05	0	45	0	1733296128	17	4841
2026-01-21 02:22:56.53	262.04	9.64	-28.9	-31.6	12.8	5.95e-05	0	45	0	1736441856	17	4918
2026-01-21 02:22:57.54	261.93	9.57	-29.1	-31.6	12.5	6.79e-05	0	45	0	1739587584	18	4808
2026-01-21 02:22:58.54	261.82	9.50	-29.4	-32.5	12.0	2.43e-04	0	45	0	1742733312	18	5117
2026-01-21 02:22:59.54	261.72	9.43	-29.6	-32.4	11.7	6.61e-04	0	45	0	1745879040	19	4982
2026-01-21 02:23:00.54	261.61	9.37	-29.6	-32.5	11.6	6.24e-04	0	45	0	1749024768	19	5032
2026-01-21 02:23:01.54	261.50	9.30	-30.0	-33.4	11.0	1.56e-03	0	45	0	1752170496	19	5347
2026-01-21 02:23:02.54	261.40	9.23	-30.0	-33.0	10.8	3.26e-03	0	45	0	1755316224	20	5111
2026-01-21 02:23:03.55	261.29	9.16	-30.0	-33.1	10.8	2.00e-03	0	45	0	1758461952	20	5139
2026-01-21 02:23:04.55	261.19	9.09	-30.3	-33.9	10.2	5.04e-03	0	45	0	1761607680	20	5450
2026-01-21 02:23:05.55	261.09	9.03	-30.2	-33.8	10.3	5.73e-03	0	45	0	1764753408	20	5412
2026-01-21 02:23:06.55	260.98	8.96	-30.1	-33.3	10.6	3.63e-03	0	45	0	1767899136	20	5210
2026-01-21 02:23:07.56	260.88	8.89	-29.9	-32.9	10.9	2.33e-03	0	45	0	1771044864	20	5066
2026-01-21 02:23:08.56	260.78	8.82	-29.9	-33.3	11.0	1.84e-03	0	45	0	1774190592	19	5311
2026-01-21 02:23:09.57	260.67	8.76	-29.9	-33.3	11.0	1.79e-03	0	45	0	1777336320	19	5320
2026-01-21 02:23:10.57	260.57	8.69	-30.0	-33.2	10.6	2.46e-03	0	45	0	1780482048	20	5179
2026-01-21 02:23:11.58	260.47	8.62	-30.3	-34.1	10.0	6.34e-03	0	45	0	1783627776	20	5542
2026-01-21 02:23:12.57	260.37	8.56	-30.2	-33.8	10.1	7.95e-03	0	45	0	1786773504	20	5425
2026-01-21 02:23:13.57	260.27	8.49	-29.9	-32.8	10.9	2.65e-03	0	45	0	1789919232	20	5031
2026-01-21 02:23:14.57	260.17	8.42	-29.5	-32.3	11.6	1.02e-03	0	45	0	1793064960	19	4957
2026-01-21 02:23:15.57	260.07	8.36	-29.2	-32.0	12.1	3.84e-04	0	45	0	1796210688	18	4965
2026-01-21 02:23:16.57	259.97	8.29	-29.0	-31.5	12.4	1.69e-04	0	45	0	1799356416	18	4788
2026-01-21 02:23:17.57	259.88	8.22	-28.9	-31.7	12.6	1.23e-04	0	45	0	1802502144	17	4964
2026-01-21 02:23:18.57	259.78	8.16	-28.8	-31.5	12.7	8.85e-05	0	45	0	1805647872	17	4887
2026-01-21 02:23:19.57	259.68	8.09	-29.0	-31.9	12.5	9.00e-05	0	45	0	1808793600	17	5019
2026-01-21 02:23:20.57	259.59	8.03	-29.1	-31.6	12.3	1.55e-04	0	45	0	1811939328	18	4818
2026-01-21 02:23:21.58	259.49	7.96	-29.2	-31.8	12.2	2.12e-04	0	45	0	1815085056	18	4908
2026-01-21 02:23:22.58	259.39	7.89	-29.2	-32.0	12.1	2.69e-04	0	45	0	1818230784	18	4965
2026-01-21 02:23:23.58	259.30	7.83	-29.3	-32.2	11.9	3.38e-04	0	45	0	1821376512	18	5023
2026-01-21 02:23:24.59	259.20	7.76	-29.3	-32.3	11.9	4.29e-04	0	45	0	1824522240	18	5064
2026-01-21 02:23:25.59	259.11	7.70	-29.4	-32.5	11.8	4.65e-04	0	45	0	1827667968	18	5136
2026-01-21 02:23:26.59	259.01	7.63	-29.4	-32.6	11.7	5.06e-04	0	45	0	1830813696	18	5170
2026-01-21 02:23:27.60	258.92	7.57	-29.5	-32.2	11.5	8.89e-04	0	45	0	1833959424	19	4945
2026-01-21 02:23:28.60	258.83	7.50	-29.5	-32.7	11.6	5.76e-04	0	45	0	1837105152	18	5206
2026-01-21 02:23:29.61	258.73	7.43	-29.6	-32.5	11.3	1.10e-03	0	45	0	1840250880	19	5058
2026-01-21 02:23:30.61	258.64	7.37	-29.6	-32.9	11.1	1.06e-03	0	45	0	1843396608	18	5315
2026-01-21 02:23:31.62	258.55	7.30	-29.3	-32.4	10.1	6.49e-04	0	45	0	1846542336	18	5139
2026-01-21 02:23:32.62	258.46	7.24	-29.3	-32.2	10.6	4.22e-04	0	45	0	1849688064	18	5038
2026-01-21 02:23:33.62	258.36	7.17	-29.3	-32.2	11.8	5.10e-04	0	45	0	1852833792	18	5056
2026-01-21 02:23:34.62	258.27	7.11	-29.3	-32.3	11.6	4.72e-04	0	45	0	1855979520	18	5074
2026-01-21 02:23:35.61	258.18	7.05	-32.9	-45.2	3.8	1.47e+00	0	45	104	1858076672	25	14790
2026-01-21 02:23:36.62	258.09	6.98	-33.5	-45.9	3.8	1.49e+00	0	45	104	1858076672	26	14924
2026-01-21 02:23:37.62	258.00	6.92	-33.8	-46.0	3.8	1.49e+00	0	45	104	1858076672	27	14622

#Closed at: 2026-01-21 02:23:38
#Recorded file [1858 MB]: D:/data/31010_260121_051340.dat