passes_logs/2026/01/21/R2M6_AANII_01/R2M6_AANII_01__20260121_024325_SUOMI_NPP_rec.log

#Pass ID: 20260121_024325_SUOMI NPP
#Satellite: SUOMI NPP
#Configuration: NPP
#almurnet v.1.7.20240730
#Start time: 2026-01-21 02:43:27

#Version: 2.2.20231116
#Station: R2M6_AANII_01
#Location: 30.233357 lon 59.946436 lat
#TLE: 1 37849U 11061A   26020.31993517  .00000142  00000+0  88240-4 0  9990
#TLE: 2 37849  98.7818 322.3228 0002330  54.3778 305.7615 14.19527005737466

#Time	Az	El	Level	Level2	SNR	BER	BlckErr	Temp	State	Recorded	gain1	gain2
2026-01-21 02:43:27.33	9.05	7.12	-32.7	-40.1	4.2	1.44e+00	0	42	0	0	25	8496
2026-01-21 02:43:28.33	8.94	7.18	-32.5	-38.9	4.5	1.36e+00	0	42	104	0	25	7489
2026-01-21 02:43:29.33	8.84	7.24	-32.5	-38.7	5.8	4.11e-01	0	42	0	0	25	7361
2026-01-21 02:43:30.33	8.73	7.30	-32.5	-38.9	5.7	3.79e-01	0	42	0	1048576	25	7496
2026-01-21 02:43:31.34	8.62	7.36	-32.5	-38.8	5.8	3.56e-01	0	42	0	3145728	25	7397
2026-01-21 02:43:32.34	8.52	7.41	-32.5	-38.5	6.0	3.54e-01	0	42	0	5242880	25	7175
2026-01-21 02:43:33.35	8.41	7.47	-32.5	-38.2	6.2	3.43e-01	0	42	0	7340032	25	6992
2026-01-21 02:43:34.35	8.30	7.53	-32.3	-37.8	6.9	2.03e-01	0	42	0	9437184	24	6779
2026-01-21 02:43:35.35	8.19	7.59	-32.1	-36.9	7.6	1.23e-01	0	42	0	10485760	24	6240
2026-01-21 02:43:36.35	8.08	7.65	-31.9	-35.9	8.4	8.32e-02	0	42	0	12582912	24	5687
2026-01-21 02:43:37.35	7.97	7.71	-31.7	-35.7	9.0	2.91e-02	0	42	0	14680064	23	5654
2026-01-21 02:43:38.36	7.86	7.77	-31.7	-35.5	9.1	1.97e-02	0	42	0	16777216	23	5582
2026-01-21 02:43:39.36	7.75	7.83	-31.5	-34.8	9.6	1.63e-02	0	42	0	17825792	23	5254
2026-01-21 02:43:40.36	7.63	7.89	-31.5	-35.2	9.7	1.21e-02	0	42	0	19922944	22	5521
2026-01-21 02:43:41.36	7.52	7.94	-31.6	-35.2	9.4	1.85e-02	0	42	0	22020096	23	5433
2026-01-21 02:43:42.37	7.41	8.00	-31.6	-35.1	9.4	1.90e-02	0	42	0	24117248	23	5400
2026-01-21 02:43:43.37	7.30	8.06	-31.6	-35.1	9.4	1.68e-02	0	42	0	26214400	23	5390
2026-01-21 02:43:44.38	7.18	8.12	-31.7	-35.5	9.2	1.90e-02	0	42	0	27262976	23	5591
2026-01-21 02:43:45.38	7.07	8.18	-31.7	-35.5	9.0	2.42e-02	0	43	0	29360128	23	5581
2026-01-21 02:43:46.38	6.95	8.24	-31.8	-35.8	8.9	2.70e-02	0	42	0	31457280	23	5739
2026-01-21 02:43:47.38	6.84	8.30	-31.8	-36.0	8.8	3.20e-02	0	43	0	33554432	23	5811
2026-01-21 02:43:48.39	6.72	8.36	-31.8	-35.9	8.8	3.94e-02	0	43	0	35651584	23	5773
2026-01-21 02:43:49.38	6.61	8.42	-31.7	-35.6	9.1	3.31e-02	0	43	0	36700160	23	5628
2026-01-21 02:43:50.38	6.49	8.48	-31.7	-35.3	9.4	2.02e-02	0	43	0	38797312	23	5460
2026-01-21 02:43:51.39	6.37	8.54	-31.7	-35.3	9.4	1.52e-02	0	43	0	40894464	23	5479
2026-01-21 02:43:52.39	6.26	8.60	-31.7	-35.2	9.4	1.68e-02	0	43	0	42991616	23	5435
2026-01-21 02:43:53.39	6.14	8.66	-31.6	-35.0	9.6	1.34e-02	0	42	0	45088768	23	5343
2026-01-21 02:43:54.39	6.02	8.71	-31.7	-35.3	9.3	1.59e-02	0	43	0	46137344	23	5494
2026-01-21 02:43:55.39	5.90	8.77	-31.6	-35.2	9.4	1.65e-02	0	43	0	48234496	23	5446
2026-01-21 02:43:56.39	5.78	8.83	-31.6	-35.2	9.5	1.53e-02	0	42	0	50331648	23	5421
2026-01-21 02:43:57.39	5.66	8.89	-31.7	-35.3	9.4	1.73e-02	0	43	0	52428800	23	5458
2026-01-21 02:43:58.40	5.54	8.95	-31.7	-35.3	9.4	1.56e-02	0	43	0	54525952	23	5465
2026-01-21 02:43:59.40	5.42	9.01	-31.7	-35.3	9.4	1.87e-02	0	43	0	55574528	23	5458
2026-01-21 02:44:00.41	5.30	9.07	-31.6	-34.9	9.7	1.73e-02	0	43	0	57671680	23	5282
2026-01-21 02:44:01.40	5.18	9.13	-31.4	-34.5	10.0	7.58e-03	0	43	0	59768832	23	5095
2026-01-21 02:44:02.41	5.05	9.19	-31.5	-34.7	9.9	6.75e-03	0	43	0	61865984	23	5201
2026-01-21 02:44:03.41	4.93	9.25	-31.4	-34.8	10.1	7.59e-03	0	43	0	62914560	22	5336
2026-01-21 02:44:04.41	4.81	9.31	-31.4	-34.8	10.2	5.08e-03	0	43	0	65011712	22	5308
2026-01-21 02:44:05.41	4.68	9.37	-31.4	-34.4	10.1	8.69e-03	0	43	0	67108864	23	5062
2026-01-21 02:44:06.41	4.56	9.43	-31.3	-34.5	10.4	5.23e-03	0	43	0	69206016	22	5206
2026-01-21 02:44:07.41	4.43	9.49	-31.2	-34.2	10.6	3.40e-03	0	43	0	71303168	22	5082
2026-01-21 02:44:08.42	4.31	9.55	-31.2	-34.2	10.6	4.11e-03	0	43	0	72351744	22	5086
2026-01-21 02:44:09.42	4.18	9.61	-31.3	-34.5	10.4	4.03e-03	0	43	0	74448896	22	5183
2026-01-21 02:44:10.43	4.05	9.67	-31.5	-34.9	10.0	5.28e-03	0	43	0	76546048	22	5379
2026-01-21 02:44:11.43	3.93	9.73	-31.3	-34.5	10.4	5.00e-03	0	43	0	78643200	22	5180
2026-01-21 02:44:12.43	3.80	9.79	-31.2	-34.3	10.6	3.63e-03	0	43	0	80740352	22	5112
2026-01-21 02:44:13.44	3.67	9.85	-31.1	-34.2	10.5	4.67e-03	0	43	0	81788928	22	5148
2026-01-21 02:44:14.44	3.54	9.91	-31.3	-34.3	10.2	3.60e-03	0	43	0	83886080	22	5126
2026-01-21 02:44:15.44	3.41	9.97	-31.2	-34.2	10.0	3.40e-03	0	43	0	85983232	22	5071
2026-01-21 02:44:16.45	3.28	10.03	-31.3	-34.6	10.3	3.74e-03	0	43	0	88080384	22	5218
2026-01-21 02:44:17.44	3.15	10.09	-31.5	-35.0	9.7	5.87e-03	0	43	0	90177536	22	5429
2026-01-21 02:44:18.45	3.02	10.15	-31.5	-35.0	10.0	6.87e-03	0	43	0	91226112	22	5419
2026-01-21 02:44:19.45	2.89	10.21	-31.6	-34.8	9.8	1.04e-02	0	43	0	93323264	23	5256
2026-01-21 02:44:20.45	2.76	10.26	-31.5	-34.6	10.0	9.22e-03	0	43	0	95420416	23	5130
2026-01-21 02:44:21.45	2.62	10.32	-31.4	-34.9	10.1	9.83e-03	0	43	0	97517568	22	5387
2026-01-21 02:44:22.45	2.49	10.38	-31.3	-34.6	10.5	5.05e-03	0	43	0	99614720	22	5230
2026-01-21 02:44:23.45	2.36	10.44	-31.3	-34.3	10.5	3.65e-03	0	43	0	100663296	22	5098
2026-01-21 02:44:24.45	2.22	10.50	-31.3	-34.4	10.6	4.17e-03	0	43	0	102760448	22	5146
2026-01-21 02:44:25.45	2.09	10.56	-31.2	-34.0	10.8	2.63e-03	0	43	0	104857600	22	4978
2026-01-21 02:44:26.45	1.95	10.62	-31.2	-33.9	10.9	2.05e-03	0	43	0	106954752	22	4958
2026-01-21 02:44:27.44	1.82	10.68	-31.1	-33.8	11.0	1.83e-03	0	43	0	108003328	22	4921
2026-01-21 02:44:28.44	1.68	10.74	-31.1	-33.9	10.9	2.27e-03	0	43	0	110100480	22	4937
2026-01-21 02:44:29.44	1.55	10.80	-31.1	-33.6	11.1	1.78e-03	0	43	0	112197632	22	4843
2026-01-21 02:44:30.44	1.41	10.86	-31.2	-34.0	10.9	2.13e-03	0	43	0	114294784	22	4969
2026-01-21 02:44:31.44	1.27	10.92	-31.1	-33.7	11.1	1.76e-03	0	43	0	116391936	22	4858
2026-01-21 02:44:32.45	1.13	10.98	-31.1	-33.7	11.1	3.94e-03	0	43	0	117440512	22	4850
2026-01-21 02:44:33.45	0.99	11.04	-31.1	-33.7	11.1	1.60e-03	0	43	0	119537664	22	4862
2026-01-21 02:44:34.46	0.85	11.10	-31.1	-33.7	11.1	1.75e-03	0	43	0	121634816	22	4856
2026-01-21 02:44:35.46	0.71	11.16	-31.0	-33.5	11.2	4.07e-03	0	43	0	123731968	22	4798
2026-01-21 02:44:36.46	0.57	11.22	-31.0	-33.5	11.2	1.27e-03	0	43	0	125829120	22	4809
2026-01-21 02:44:37.46	0.43	11.28	-31.0	-33.4	11.3	1.29e-03	0	43	0	126877696	22	4731
2026-01-21 02:44:38.46	0.28	11.33	-31.1	-33.7	11.1	1.18e-03	0	43	0	128974848	22	4859
2026-01-21 02:44:39.46	0.14	11.39	-31.1	-33.8	11.0	4.23e-03	0	43	0	131072000	22	4914
2026-01-21 02:44:40.47	360.00	11.45	-31.2	-34.1	10.8	1.75e-03	0	43	0	133169152	22	5021
2026-01-21 02:44:41.47	359.85	11.51	-31.2	-34.1	10.8	1.95e-03	0	44	0	135266304	22	5024
2026-01-21 02:44:42.48	359.71	11.57	-31.3	-34.5	10.5	6.75e-03	0	44	0	136314880	22	5176
2026-01-21 02:44:43.48	359.56	11.63	-31.2	-34.1	10.8	3.23e-03	0	43	0	138412032	22	5022
2026-01-21 02:44:44.47	359.42	11.69	-31.2	-34.0	10.8	2.65e-03	0	43	0	140509184	22	4996
2026-01-21 02:44:45.48	359.27	11.75	-31.1	-33.9	11.0	2.49e-03	0	44	0	142606336	22	4926
2026-01-21 02:44:46.48	359.12	11.81	-31.2	-34.1	10.8	2.37e-03	0	44	0	144703488	22	5030
2026-01-21 02:44:47.48	358.98	11.87	-31.3	-34.4	10.6	2.98e-03	0	44	0	145752064	22	5149
2026-01-21 02:44:48.48	358.83	11.93	-31.5	-35.0	10.2	5.02e-03	0	43	0	147849216	22	5385
2026-01-21 02:44:49.49	358.68	11.99	-31.6	-34.8	10.0	7.23e-03	0	44	0	149946368	23	5200
2026-01-21 02:44:50.49	358.53	12.04	-31.6	-35.0	9.8	1.22e-02	0	44	0	152043520	23	5279
2026-01-21 02:44:51.49	358.38	12.10	-31.5	-34.6	10.1	8.52e-03	0	43	0	153092096	23	5125
2026-01-21 02:44:52.49	358.23	12.16	-31.5	-34.5	10.2	6.28e-03	0	43	0	155189248	23	5085
2026-01-21 02:44:53.49	358.08	12.22	-31.5	-34.4	10.3	9.58e-03	0	43	0	157286400	23	5040
2026-01-21 02:44:54.49	357.92	12.28	-31.4	-34.6	10.5	8.75e-03	0	44	0	159383552	22	5214
2026-01-21 02:44:55.50	357.77	12.34	-31.2	-33.9	11.0	3.07e-03	0	44	0	161480704	22	4925
2026-01-21 02:44:56.49	357.62	12.40	-31.1	-33.6	11.3	3.59e-03	0	44	0	162529280	22	4815
2026-01-21 02:44:57.49	357.47	12.45	-31.2	-33.9	11.0	3.68e-03	0	44	0	164626432	22	4913
2026-01-21 02:44:58.49	357.31	12.51	-31.2	-34.1	10.9	1.62e-03	0	44	0	166723584	22	5004
2026-01-21 02:44:59.49	357.16	12.57	-31.3	-34.2	10.8	4.87e-03	0	44	0	168820736	22	5044
2026-01-21 02:45:00.49	357.00	12.63	-31.4	-34.6	10.5	5.64e-03	0	44	0	170917888	22	5201
2026-01-21 02:45:01.50	356.84	12.69	-31.4	-34.8	10.4	4.92e-03	0	43	0	171966464	22	5303
2026-01-21 02:45:02.50	356.69	12.75	-31.5	-34.6	10.3	7.93e-03	0	44	0	174063616	23	5110
2026-01-21 02:45:03.50	356.53	12.80	-31.6	-34.7	10.1	9.47e-03	0	44	0	176160768	23	5172
2026-01-21 02:45:04.51	356.37	12.86	-31.4	-34.6	10.6	5.11e-03	0	44	0	178257920	22	5229
2026-01-21 02:45:05.52	356.21	12.92	-31.4	-34.5	10.6	5.59e-03	0	44	0	180355072	22	5188
2026-01-21 02:45:06.52	356.05	12.98	-31.4	-34.6	10.7	5.35e-03	0	44	0	181403648	22	5195
2026-01-21 02:45:07.52	355.89	13.04	-31.4	-34.6	10.5	4.24e-03	0	44	0	183500800	22	5199
2026-01-21 02:45:08.53	355.73	13.09	-31.4	-34.6	10.6	5.86e-03	0	44	0	185597952	22	5197
2026-01-21 02:45:09.53	355.57	13.15	-31.4	-34.8	10.4	5.52e-03	0	44	0	187695104	22	5286
2026-01-21 02:45:10.53	355.40	13.21	-31.4	-34.6	10.6	4.59e-03	0	44	0	189792256	22	5218
2026-01-21 02:45:11.53	355.24	13.27	-31.4	-34.6	10.6	6.60e-03	0	44	0	190840832	22	5203
2026-01-21 02:45:12.54	355.08	13.32	-31.5	-34.8	10.5	3.91e-03	0	44	0	192937984	22	5279
2026-01-21 02:45:13.54	354.91	13.38	-31.5	-34.5	10.3	5.20e-03	0	44	0	195035136	23	5077
2026-01-21 02:45:14.54	354.75	13.44	-31.4	-34.5	10.7	5.57e-03	0	44	0	197132288	22	5160
2026-01-21 02:45:15.54	354.58	13.49	-31.4	-34.5	10.7	4.98e-03	0	44	0	198180864	22	5169
2026-01-21 02:45:16.54	354.42	13.55	-31.3	-34.4	10.8	2.86e-03	0	44	0	200278016	22	5110
2026-01-21 02:45:17.55	354.25	13.61	-31.4	-34.7	10.5	4.92e-03	0	44	0	202375168	22	5242
2026-01-21 02:45:18.55	354.08	13.66	-31.5	-34.3	10.4	6.10e-03	0	44	0	204472320	23	4997
2026-01-21 02:45:19.56	353.91	13.72	-31.5	-34.3	10.5	4.69e-03	0	44	0	206569472	23	5003
2026-01-21 02:45:20.55	353.75	13.78	-31.5	-34.4	10.4	6.91e-03	0	44	0	207618048	23	5035
2026-01-21 02:45:21.56	353.58	13.83	-31.5	-34.6	10.2	7.61e-03	0	44	0	209715200	23	5143
2026-01-21 02:45:22.56	353.41	13.89	-31.6	-34.7	10.2	6.56e-03	0	44	0	211812352	23	5149
2026-01-21 02:45:23.56	353.24	13.95	-31.5	-34.6	10.2	5.77e-03	0	44	0	213909504	23	5137
2026-01-21 02:45:24.57	353.06	14.00	-31.5	-34.5	10.4	5.77e-03	0	44	0	216006656	23	5054
2026-01-21 02:45:25.58	352.89	14.06	-31.5	-34.5	10.4	4.57e-03	0	44	0	217055232	23	5069
2026-01-21 02:45:26.58	352.72	14.11	-31.5	-34.4	10.4	5.15e-03	0	44	0	219152384	23	5040
2026-01-21 02:45:27.59	352.54	14.17	-31.7	-35.0	9.9	7.18e-03	0	44	0	221249536	23	5293
2026-01-21 02:45:28.60	352.37	14.23	-31.9	-35.6	9.5	1.49e-02	0	44	0	223346688	23	5554
2026-01-21 02:45:29.59	352.19	14.28	-31.9	-35.7	9.4	1.40e-02	0	44	0	225443840	23	5571
2026-01-21 02:45:30.60	352.02	14.34	-31.8	-35.5	9.5	1.43e-02	0	44	0	226492416	23	5527
2026-01-21 02:45:31.60	351.84	14.39	-31.7	-35.1	9.9	1.15e-02	0	44	0	228589568	23	5332
2026-01-21 02:45:32.61	351.66	14.45	-31.7	-35.0	9.9	1.02e-02	0	44	0	230686720	23	5296
2026-01-21 02:45:33.62	351.49	14.50	-31.6	-34.8	10.1	8.66e-03	0	44	0	232783872	23	5188
2026-01-21 02:45:34.62	351.31	14.56	-31.7	-34.9	10.1	5.77e-03	0	44	0	234881024	23	5224
2026-01-21 02:45:35.62	351.13	14.61	-31.7	-34.9	10.0	1.20e-02	0	44	0	235929600	23	5244
2026-01-21 02:45:36.63	350.95	14.66	-31.3	-33.7	10.9	3.04e-03	0	44	0	238026752	23	4748
2026-01-21 02:45:37.63	350.77	14.72	-31.1	-33.6	11.3	1.66e-03	0	44	0	240123904	22	4796
2026-01-21 02:45:38.63	350.59	14.77	-30.9	-33.2	11.7	1.05e-03	0	44	0	242221056	22	4651
2026-01-21 02:45:39.64	350.41	14.83	-30.8	-33.4	11.9	4.60e-04	0	44	0	244318208	21	4833
2026-01-21 02:45:40.65	350.22	14.88	-30.8	-33.4	11.8	4.01e-04	0	44	0	245366784	21	4821
2026-01-21 02:45:41.65	350.04	14.93	-30.8	-33.2	12.0	5.71e-04	0	44	0	247463936	21	4755
2026-01-21 02:45:42.66	349.86	14.99	-30.6	-32.6	12.4	2.40e-03	0	44	0	249561088	21	4544
2026-01-21 02:45:43.66	349.67	15.04	-30.5	-32.5	12.5	1.11e-04	0	44	0	251658240	21	4511
2026-01-21 02:45:44.66	349.49	15.09	-30.5	-32.3	12.6	7.40e-05	0	44	0	253755392	21	4425
2026-01-21 02:45:45.65	349.30	15.14	-30.5	-32.4	12.6	8.85e-05	0	44	0	254803968	21	4456
2026-01-21 02:45:46.66	349.12	15.20	-30.5	-32.4	12.5	9.00e-05	0	44	0	256901120	21	4464
2026-01-21 02:45:47.66	348.93	15.25	-30.7	-33.0	12.2	1.33e-04	0	44	0	258998272	21	4672
2026-01-21 02:45:48.66	348.74	15.30	-30.7	-32.8	12.2	3.06e-04	0	44	0	261095424	21	4602
2026-01-21 02:45:49.66	348.56	15.35	-30.5	-32.4	12.6	3.49e-04	0	44	0	262144000	21	4459
2026-01-21 02:45:50.67	348.37	15.40	-30.5	-32.3	12.6	9.99e-05	0	44	0	264241152	21	4446
2026-01-21 02:45:51.67	348.18	15.46	-30.7	-32.9	12.3	1.21e-04	0	44	0	266338304	21	4631
2026-01-21 02:45:52.67	347.99	15.51	-30.6	-32.7	12.3	4.62e-04	0	44	0	268435456	21	4589
2026-01-21 02:45:53.67	347.80	15.56	-30.5	-32.4	12.4	1.01e-04	0	44	0	270532608	21	4485
2026-01-21 02:45:54.67	347.61	15.61	-30.7	-33.0	12.2	1.63e-04	0	44	0	271581184	21	4672
2026-01-21 02:45:55.68	347.41	15.66	-30.7	-32.9	12.2	2.04e-04	0	44	0	273678336	21	4656
2026-01-21 02:45:56.69	347.22	15.71	-30.8	-33.2	12.0	3.26e-04	0	44	0	275775488	21	4760
2026-01-21 02:45:57.69	347.03	15.76	-30.8	-33.3	12.0	4.87e-04	0	44	0	277872640	21	4779
2026-01-21 02:45:58.69	346.83	15.81	-30.8	-33.2	12.0	4.00e-04	0	44	0	279969792	21	4755
2026-01-21 02:45:59.70	346.64	15.86	-30.6	-32.7	12.3	4.53e-04	0	44	0	281018368	21	4563
2026-01-21 02:46:00.70	346.44	15.91	-30.3	-31.8	12.9	6.48e-05	0	44	0	283115520	21	4292
2026-01-21 02:46:01.70	346.25	15.96	-30.2	-31.4	13.2	3.20e-05	0	44	0	285212672	21	4150
2026-01-21 02:46:02.70	346.05	16.01	-30.0	-31.4	13.5	1.37e-05	0	44	0	287309824	20	4225
2026-01-21 02:46:03.71	345.85	16.06	-30.1	-31.6	13.5	1.22e-05	0	44	0	289406976	20	4300
2026-01-21 02:46:04.71	345.65	16.10	-30.2	-32.0	12.7	1.14e-05	0	44	0	290455552	20	4429
2026-01-21 02:46:05.70	345.46	16.15	-30.2	-32.1	12.4	2.13e-05	0	44	0	292552704	20	4448
2026-01-21 02:46:06.70	345.26	16.20	-30.3	-32.2	13.1	1.98e-05	0	44	0	294649856	20	4494
2026-01-21 02:46:07.71	345.06	16.25	-30.1	-31.7	12.6	2.74e-05	0	44	0	296747008	20	4337
2026-01-21 02:46:08.71	344.86	16.30	-30.2	-31.9	13.0	1.90e-05	0	44	0	298844160	20	4379
2026-01-21 02:46:09.72	344.65	16.34	-30.1	-31.7	13.4	9.10e-06	0	44	0	299892736	20	4327
2026-01-21 02:46:10.72	344.45	16.39	-30.2	-31.9	13.3	1.29e-05	0	44	0	301989888	20	4376
2026-01-21 02:46:11.72	344.25	16.44	-30.1	-31.8	13.3	1.67e-05	0	44	0	304087040	20	4355
2026-01-21 02:46:12.73	344.05	16.48	-30.1	-31.6	13.4	1.67e-05	0	44	0	306184192	20	4299
2026-01-21 02:46:13.73	343.84	16.53	-30.2	-32.1	13.2	2.28e-03	0	44	0	308281344	20	4437
2026-01-21 02:46:14.74	343.64	16.57	-30.3	-32.1	13.2	2.44e-05	0	44	0	309329920	20	4457
2026-01-21 02:46:15.74	343.43	16.62	-30.4	-32.5	12.9	2.67e-05	0	44	0	311427072	20	4597
2026-01-21 02:46:16.74	343.23	16.67	-30.3	-32.2	13.1	5.41e-05	0	44	0	313524224	20	4484
2026-01-21 02:46:17.75	343.02	16.71	-30.1	-31.6	13.5	2.45e-03	0	44	0	315621376	20	4294
2026-01-21 02:46:18.75	342.81	16.75	-30.1	-31.6	13.6	7.60e-06	0	44	0	317718528	20	4299
2026-01-21 02:46:19.75	342.61	16.80	-30.2	-31.8	13.3	7.60e-06	0	44	0	318767104	20	4358
2026-01-21 02:46:20.75	342.40	16.84	-30.2	-31.9	13.4	2.54e-03	0	44	0	320864256	20	4372
2026-01-21 02:46:21.76	342.19	16.89	-30.1	-31.7	13.4	1.60e-05	0	44	0	322961408	20	4324
2026-01-21 02:46:22.76	341.98	16.93	-30.1	-31.7	13.4	1.14e-05	0	44	0	325058560	20	4322
2026-01-21 02:46:23.76	341.77	16.97	-30.1	-31.7	13.4	1.44e-05	0	44	0	326107136	20	4314
2026-01-21 02:46:24.76	341.56	17.02	-30.2	-31.9	13.4	1.90e-05	0	44	0	328204288	20	4372
2026-01-21 02:46:25.76	341.35	17.06	-30.0	-31.5	13.6	1.52e-05	0	44	0	330301440	20	4243
2026-01-21 02:46:26.76	341.14	17.10	-30.0	-31.3	13.7	6.10e-06	0	44	0	332398592	20	4184
2026-01-21 02:46:27.76	340.93	17.14	-30.4	-32.3	13.1	1.18e-04	0	44	0	334495744	20	4500
2026-01-21 02:46:28.77	340.71	17.18	-30.2	-31.9	13.3	2.82e-03	0	44	0	335544320	20	4372
2026-01-21 02:46:29.77	340.50	17.22	-30.0	-31.4	13.7	1.06e-05	0	44	0	337641472	20	4209
2026-01-21 02:46:30.77	340.29	17.26	-30.0	-31.3	13.7	1.55e-04	0	44	0	339738624	20	4176
2026-01-21 02:46:31.77	340.07	17.31	-30.1	-31.5	13.6	2.82e-03	0	44	0	341835776	20	4254
2026-01-21 02:46:32.78	339.85	17.35	-30.1	-31.5	13.6	7.60e-06	0	44	0	343932928	20	4259
2026-01-21 02:46:33.78	339.64	17.39	-30.1	-31.5	13.5	7.60e-06	0	44	0	344981504	20	4256
2026-01-21 02:46:34.78	339.42	17.42	-30.1	-31.5	13.6	2.49e-03	0	44	0	347078656	20	4262
2026-01-21 02:46:35.78	339.21	17.46	-30.0	-31.5	13.6	2.56e-03	0	44	0	349175808	20	4233
2026-01-21 02:46:36.79	338.99	17.50	-30.1	-31.6	13.5	6.80e-06	0	44	0	351272960	20	4284
2026-01-21 02:46:37.78	338.77	17.54	-30.2	-32.0	13.3	2.70e-03	0	44	0	353370112	20	4423
2026-01-21 02:46:38.79	338.55	17.58	-30.4	-32.4	13.0	2.58e-03	0	44	0	354418688	20	4556
2026-01-21 02:46:39.79	338.33	17.62	-30.4	-32.3	13.1	2.10e-04	0	44	0	356515840	20	4510
2026-01-21 02:46:40.80	338.11	17.65	-30.3	-32.3	13.1	2.77e-03	0	44	0	358612992	20	4509
2026-01-21 02:46:41.80	337.89	17.69	-30.1	-31.7	13.4	2.50e-03	0	44	0	360710144	20	4302
2026-01-21 02:46:42.81	337.67	17.73	-29.9	-31.1	13.9	9.99e-05	0	44	0	362807296	20	4133
2026-01-21 02:46:43.81	337.45	17.76	-29.9	-31.2	13.9	3.00e-06	0	44	0	363855872	20	4153
2026-01-21 02:46:44.82	337.22	17.80	-29.8	-31.3	14.2	2.48e-03	0	44	0	365953024	19	4258
2026-01-21 02:46:45.82	337.00	17.83	-29.6	-30.7	14.5	2.28e-05	0	44	0	368050176	19	4102
2026-01-21 02:46:46.83	336.78	17.87	-29.6	-30.8	14.4	2.54e-03	0	44	0	370147328	19	4133
2026-01-21 02:46:47.83	336.55	17.90	-29.9	-31.5	14.1	2.45e-03	0	44	0	371195904	19	4314
2026-01-21 02:46:48.83	336.33	17.94	-29.6	-30.8	14.4	1.50e-06	0	44	0	373293056	19	4134
2026-01-21 02:46:49.84	336.10	17.97	-29.5	-30.4	14.6	2.36e-03	0	44	0	375390208	19	4016
2026-01-21 02:46:50.83	335.88	18.00	-29.4	-30.2	14.9	0.00e+00	0	44	0	377487360	19	3949
2026-01-21 02:46:51.84	335.66	18.04	-29.3	-30.0	15.0	0.00e+00	0	44	0	379584512	19	3903
2026-01-21 02:46:52.84	335.43	18.07	-29.5	-30.4	14.8	2.24e-03	0	44	0	380633088	19	4015
2026-01-21 02:46:53.84	335.20	18.10	-29.4	-30.8	14.8	2.49e-03	0	44	0	382730240	18	4210
2026-01-21 02:46:54.85	334.98	18.13	-29.6	-30.7	14.5	0.00e+00	0	44	0	384827392	19	4086
2026-01-21 02:46:55.85	334.75	18.16	-30.0	-31.6	14.0	2.51e-03	0	44	0	386924544	19	4364
2026-01-21 02:46:56.85	334.52	18.19	-29.9	-31.0	14.0	2.46e-03	0	44	0	389021696	20	4088
2026-01-21 02:46:57.85	334.29	18.22	-29.7	-30.6	14.3	2.36e-05	0	44	0	390070272	20	3961
2026-01-21 02:46:58.85	334.06	18.25	-29.7	-31.0	14.4	2.48e-03	0	44	0	392167424	19	4159
2026-01-21 02:46:59.85	333.84	18.28	-29.8	-31.1	14.2	2.28e-03	0	44	0	394264576	19	4217
2026-01-21 02:47:00.86	333.60	18.31	-29.7	-30.9	14.4	1.50e-06	0	44	0	396361728	19	4129
2026-01-21 02:47:01.86	333.37	18.34	-29.6	-30.7	14.6	1.74e-03	0	44	0	398458880	19	4078
2026-01-21 02:47:02.86	333.14	18.37	-29.6	-30.8	14.5	2.66e-03	0	44	0	399507456	19	4118
2026-01-21 02:47:03.87	332.91	18.39	-29.9	-31.5	14.1	1.50e-06	0	44	0	401604608	19	4322
2026-01-21 02:47:04.87	332.68	18.42	-29.9	-31.5	14.0	4.50e-06	0	44	0	403701760	19	4338
2026-01-21 02:47:05.87	332.45	18.45	-30.0	-31.3	13.8	2.37e-03	0	44	0	405798912	20	4177
2026-01-21 02:47:06.87	332.22	18.47	-30.2	-31.7	13.5	7.60e-06	0	44	0	407896064	20	4316
2026-01-21 02:47:07.88	331.98	18.50	-30.1	-31.6	13.6	1.75e-04	0	44	0	408944640	20	4268
2026-01-21 02:47:08.89	331.75	18.53	-30.2	-31.7	13.6	6.10e-06	0	44	0	411041792	20	4307
2026-01-21 02:47:09.89	331.51	18.55	-30.1	-31.5	13.6	3.15e-04	0	44	0	413138944	20	4252
2026-01-21 02:47:10.89	331.28	18.57	-30.0	-31.2	13.8	2.25e-03	0	44	0	415236096	20	4152
2026-01-21 02:47:11.89	331.05	18.60	-30.0	-31.2	13.8	1.50e-06	0	44	0	417333248	20	4152
2026-01-21 02:47:12.89	330.81	18.62	-30.2	-31.9	13.4	5.61e-04	0	44	0	418381824	20	4366
2026-01-21 02:47:13.90	330.58	18.64	-30.3	-32.0	13.3	3.09e-03	0	44	0	420478976	20	4399
2026-01-21 02:47:14.90	330.34	18.67	-30.5	-32.2	12.8	3.96e-05	0	44	0	422576128	21	4394
2026-01-21 02:47:15.90	330.11	18.69	-30.6	-32.4	12.8	2.83e-04	0	44	0	424673280	21	4430
2026-01-21 02:47:16.91	329.87	18.71	-30.7	-32.7	12.6	2.83e-03	0	44	0	425721856	21	4524
2026-01-21 02:47:17.91	329.63	18.73	-30.4	-31.9	13.0	2.61e-03	0	44	0	427819008	21	4275
2026-01-21 02:47:18.91	329.40	18.75	-30.2	-31.7	13.5	2.26e-04	0	44	0	429916160	20	4315
2026-01-21 02:47:19.91	329.16	18.77	-29.9	-30.9	14.0	2.62e-04	0	44	0	432013312	20	4057
2026-01-21 02:47:20.92	328.92	18.79	-29.9	-31.5	14.0	2.60e-03	0	44	0	434110464	19	4334
2026-01-21 02:47:21.92	328.68	18.81	-29.9	-31.4	14.1	2.62e-04	0	44	0	435159040	19	4302
2026-01-21 02:47:22.92	328.45	18.83	-30.0	-31.4	13.8	3.64e-04	0	44	0	437256192	20	4212
2026-01-21 02:47:23.92	328.21	18.85	-30.4	-32.3	13.2	2.58e-03	0	44	0	439353344	20	4489
2026-01-21 02:47:24.92	327.97	18.86	-30.4	-32.0	12.9	1.07e-04	0	44	0	441450496	21	4329
2026-01-21 02:47:25.92	327.73	18.88	-30.6	-32.5	12.7	5.08e-04	0	44	0	443547648	21	4472
2026-01-21 02:47:26.93	327.49	18.90	-30.8	-33.1	12.2	1.16e-04	0	44	0	444596224	21	4696
2026-01-21 02:47:27.93	327.25	18.91	-30.6	-32.5	12.7	6.87e-04	0	44	0	446693376	21	4461
2026-01-21 02:47:28.92	327.02	18.93	-30.3	-31.8	13.1	2.91e-04	0	44	0	448790528	21	4240
2026-01-21 02:47:29.93	326.77	18.94	-30.2	-31.9	13.4	1.37e-05	0	44	0	450887680	20	4365
2026-01-21 02:47:30.93	326.53	18.96	-30.3	-32.0	13.3	3.39e-04	0	44	0	452984832	20	4417
2026-01-21 02:47:31.93	326.30	18.97	-30.5	-32.6	12.9	2.39e-03	0	44	0	454033408	20	4624
2026-01-21 02:47:32.93	326.06	18.99	-30.7	-32.7	12.5	9.23e-05	0	44	0	456130560	21	4553
2026-01-21 02:47:33.94	325.81	19.00	-30.9	-33.5	12.0	5.43e-04	0	44	0	458227712	21	4826
2026-01-21 02:47:34.94	325.57	19.01	-31.0	-33.3	11.8	3.62e-03	0	44	0	460324864	22	4661
2026-01-21 02:47:35.94	325.33	19.02	-31.1	-33.5	11.5	8.99e-04	0	44	0	462422016	22	4763
2026-01-21 02:47:36.94	325.09	19.03	-31.2	-33.9	11.3	1.22e-03	0	44	0	463470592	22	4921
2026-01-21 02:47:37.95	324.85	19.04	-31.2	-33.8	11.4	1.08e-03	0	44	0	465567744	22	4877
2026-01-21 02:47:38.96	324.60	19.05	-30.9	-33.0	12.0	4.08e-04	0	44	0	467664896	22	4573
2026-01-21 02:47:39.96	324.36	19.06	-30.6	-32.7	12.5	1.86e-04	0	44	0	469762048	21	4548
2026-01-21 02:47:40.96	324.12	19.07	-30.5	-32.1	12.8	1.59e-04	0	44	0	470810624	21	4364
2026-01-21 02:47:41.96	323.88	19.08	-30.4	-32.1	12.8	2.23e-03	0	44	0	472907776	21	4354
2026-01-21 02:47:42.96	323.64	19.09	-30.4	-32.0	13.0	2.43e-04	0	44	0	475004928	21	4316
2026-01-21 02:47:43.96	323.40	19.10	-30.6	-32.5	12.6	2.35e-04	0	44	0	477102080	21	4498
2026-01-21 02:47:44.97	323.15	19.10	-30.5	-32.3	12.7	6.48e-05	0	44	0	479199232	21	4427
2026-01-21 02:47:45.98	322.91	19.11	-30.6	-32.7	12.5	1.23e-04	0	44	0	480247808	21	4553
2026-01-21 02:47:46.97	322.67	19.12	-30.7	-33.0	12.2	4.45e-04	0	44	0	482344960	21	4656
2026-01-21 02:47:47.98	322.42	19.12	-30.6	-32.7	12.5	1.81e-04	0	44	0	484442112	21	4555
2026-01-21 02:47:48.97	322.18	19.13	-30.5	-32.4	12.7	1.53e-04	0	44	0	486539264	21	4465
2026-01-21 02:47:49.97	321.94	19.13	-30.4	-32.1	12.9	5.72e-05	0	44	0	488636416	21	4346
2026-01-21 02:47:50.97	321.70	19.14	-30.4	-32.4	13.0	3.05e-05	0	44	0	489684992	20	4553
2026-01-21 02:47:51.97	321.46	19.14	-30.0	-31.5	13.5	2.44e-05	0	44	0	491782144	20	4256
2026-01-21 02:47:52.97	321.21	19.14	-30.0	-31.3	13.7	9.10e-06	0	44	0	493879296	20	4209
2026-01-21 02:47:53.98	320.97	19.14	-30.0	-31.4	13.7	3.00e-06	0	44	0	495976448	20	4223
2026-01-21 02:47:54.98	320.72	19.15	-30.0	-31.4	13.7	4.50e-06	0	44	0	498073600	20	4219
2026-01-21 02:47:55.98	320.48	19.15	-29.2	-31.1	13.0	1.22e-05	0	44	0	499122176	20	4443
2026-01-21 02:47:56.99	320.24	19.15	-30.2	-32.0	13.1	9.90e-06	0	44	0	501219328	20	4402
2026-01-21 02:47:57.99	319.99	19.15	-30.4	-32.5	11.8	4.04e-05	0	44	0	503316480	20	4570
2026-01-21 02:47:58.99	319.75	19.15	-30.4	-32.6	11.9	3.05e-05	0	44	0	505413632	20	4610
2026-01-21 02:48:00.00	319.51	19.15	-30.6	-32.6	12.4	8.69e-05	0	44	0	507510784	21	4509
2026-01-21 02:48:01.00	319.26	19.14	-30.5	-32.3	12.6	7.17e-05	0	44	0	508559360	21	4428
2026-01-21 02:48:02.00	319.02	19.14	-30.4	-32.6	12.7	6.10e-05	0	44	0	510656512	20	4628
2026-01-21 02:48:03.01	318.78	19.14	-30.4	-32.4	13.0	3.96e-05	0	44	0	512753664	20	4552
2026-01-21 02:48:04.01	318.53	19.14	-30.3	-32.2	13.1	3.89e-05	0	44	0	514850816	20	4485
2026-01-21 02:48:05.01	318.29	19.13	-30.1	-31.8	13.4	2.89e-05	0	44	0	515899392	20	4344
2026-01-21 02:48:06.01	318.05	19.13	-30.2	-31.9	13.4	3.54e-04	0	44	0	517996544	20	4382
2026-01-21 02:48:07.02	317.80	19.12	-30.3	-32.2	13.1	1.22e-05	0	44	0	520093696	20	4484
2026-01-21 02:48:08.03	317.56	19.12	-30.4	-32.4	13.1	1.30e-04	0	44	0	522190848	20	4536
2026-01-21 02:48:09.04	317.31	19.11	-30.4	-32.4	13.0	3.43e-05	0	44	0	524288000	20	4555
2026-01-21 02:48:10.04	317.07	19.11	-30.6	-32.4	12.7	2.31e-03	0	44	0	526385152	21	4459
2026-01-21 02:48:11.04	316.83	19.10	-30.7	-32.7	12.4	1.20e-04	0	44	0	527433728	21	4564
2026-01-21 02:48:12.05	316.58	19.09	-30.8	-33.3	12.0	1.79e-04	0	44	0	529530880	21	4768
2026-01-21 02:48:13.05	316.34	19.08	-31.1	-33.6	11.4	2.89e-03	0	44	0	531628032	22	4792
2026-01-21 02:48:14.05	316.10	19.08	-31.2	-33.8	11.4	7.20e-04	0	44	0	533725184	22	4856
2026-01-21 02:48:15.06	315.86	19.07	-31.1	-33.7	11.4	9.89e-04	0	44	0	534773760	22	4818
2026-01-21 02:48:16.06	315.62	19.06	-31.1	-33.4	11.6	3.14e-03	0	44	0	536870912	22	4720
2026-01-21 02:48:17.06	315.37	19.05	-30.9	-33.4	12.0	2.96e-03	0	44	0	538968064	21	4803
2026-01-21 02:48:18.06	315.13	19.04	-30.6	-32.6	12.5	1.88e-04	0	44	0	541065216	21	4509
2026-01-21 02:48:19.06	314.89	19.03	-30.4	-31.9	13.0	2.86e-04	0	44	0	543162368	21	4302
2026-01-21 02:48:20.07	314.65	19.01	-30.2	-32.0	13.3	2.29e-03	0	44	0	544210944	20	4417
2026-01-21 02:48:21.08	314.41	19.00	-30.4	-32.3	13.0	3.36e-04	0	44	0	546308096	20	4525
2026-01-21 02:48:22.08	314.17	18.99	-30.4	-32.4	13.1	2.30e-04	0	44	0	548405248	20	4523
2026-01-21 02:48:23.08	313.93	18.98	-30.0	-31.4	13.7	2.39e-03	0	44	0	550502400	20	4218
2026-01-21 02:48:24.07	313.69	18.96	-29.8	-31.4	14.1	4.52e-04	0	44	0	552599552	19	4298
2026-01-21 02:48:25.08	313.45	18.95	-30.1	-31.6	13.6	3.80e-06	0	44	0	553648128	20	4273
2026-01-21 02:48:26.09	313.20	18.93	-30.2	-32.0	13.3	2.29e-03	0	44	0	555745280	20	4400
2026-01-21 02:48:27.10	312.96	18.92	-30.2	-31.8	13.4	3.65e-04	0	44	0	557842432	20	4336
2026-01-21 02:48:28.10	312.72	18.90	-30.1	-31.7	13.5	2.39e-03	0	44	0	559939584	20	4311
2026-01-21 02:48:29.10	312.48	18.89	-30.0	-31.3	13.7	9.10e-06	0	44	0	562036736	20	4180
2026-01-21 02:48:30.10	312.25	18.87	-30.0	-31.4	13.7	4.50e-04	0	44	0	563085312	20	4234
2026-01-21 02:48:31.10	312.01	18.85	-30.0	-31.4	13.7	2.16e-03	0	44	0	565182464	20	4233
2026-01-21 02:48:32.11	311.77	18.83	-30.3	-32.1	13.2	1.14e-05	0	44	0	567279616	20	4424
2026-01-21 02:48:33.11	311.53	18.82	-30.0	-31.3	13.6	2.95e-04	0	44	0	569376768	20	4193
2026-01-21 02:48:34.11	311.29	18.80	-29.8	-31.3	14.1	2.49e-03	0	44	0	571473920	19	4261
2026-01-21 02:48:35.12	311.05	18.78	-29.6	-30.8	14.4	2.51e-03	0	44	0	572522496	19	4126
2026-01-21 02:48:36.12	310.82	18.76	-29.4	-30.3	14.7	0.00e+00	0	44	0	574619648	19	3998
2026-01-21 02:48:37.12	310.58	18.74	-29.4	-30.8	14.8	2.37e-03	0	44	0	576716800	18	4225
2026-01-21 02:48:38.12	310.34	18.72	-29.3	-30.5	14.9	2.12e-03	0	44	0	578813952	18	4139
2026-01-21 02:48:39.12	310.11	18.69	-29.4	-30.7	14.8	2.20e-04	0	44	0	579862528	18	4178
2026-01-21 02:48:40.13	309.87	18.67	-29.2	-30.2	15.1	2.10e-03	0	44	0	581959680	18	4037
2026-01-21 02:48:41.13	309.63	18.65	-29.2	-30.3	15.1	2.28e-03	0	44	0	584056832	18	4062
2026-01-21 02:48:42.14	309.40	18.63	-29.3	-30.4	15.0	2.67e-05	0	44	0	586153984	18	4102
2026-01-21 02:48:43.14	309.16	18.60	-29.2	-30.3	15.1	2.24e-03	0	44	0	588251136	18	4054
2026-01-21 02:48:44.15	308.93	18.58	-29.4	-30.6	14.8	2.22e-03	0	44	0	589299712	18	4169
2026-01-21 02:48:45.15	308.69	18.56	-29.6	-30.7	14.5	0.00e+00	0	44	0	591396864	19	4090
2026-01-21 02:48:46.16	308.46	18.53	-29.7	-30.9	14.4	2.44e-03	0	44	0	593494016	19	4154
2026-01-21 02:48:47.15	308.23	18.51	-29.7	-31.1	14.3	2.33e-03	0	44	0	595591168	19	4208
2026-01-21 02:48:48.15	307.99	18.48	-29.8	-31.2	14.2	7.00e-07	0	44	0	597688320	19	4246
2026-01-21 02:48:49.15	307.76	18.46	-29.8	-31.3	14.2	2.52e-03	0	44	0	598736896	19	4278
2026-01-21 02:48:50.15	307.53	18.43	-29.9	-31.6	13.9	7.00e-07	0	44	0	600834048	19	4354
2026-01-21 02:48:51.15	307.30	18.40	-29.9	-30.9	14.0	1.53e-04	0	44	0	602931200	20	4072
2026-01-21 02:48:52.15	307.07	18.37	-29.9	-31.1	13.9	2.75e-03	0	45	0	605028352	20	4124
2026-01-21 02:48:53.15	306.84	18.35	-29.9	-31.4	14.0	2.46e-03	0	44	0	607125504	19	4302
2026-01-21 02:48:54.15	306.61	18.32	-29.9	-31.5	14.0	1.63e-04	0	44	0	608174080	19	4327
2026-01-21 02:48:55.15	306.38	18.29	-29.4	-30.9	13.5	2.27e-03	0	44	0	610271232	20	4279
2026-01-21 02:48:56.15	306.15	18.26	-30.3	-32.1	13.3	1.74e-03	0	44	0	612368384	20	4425
2026-01-21 02:48:57.15	305.92	18.23	-30.2	-31.8	13.0	1.22e-05	0	44	0	614465536	20	4352
2026-01-21 02:48:58.15	305.69	18.20	-30.1	-31.6	13.1	1.43e-03	0	44	0	616562688	20	4291
2026-01-21 02:48:59.16	305.46	18.17	-30.1	-31.7	13.4	1.54e-03	0	44	0	617611264	20	4308
2026-01-21 02:49:00.16	305.23	18.14	-30.4	-32.3	12.5	1.44e-05	0	44	0	619708416	20	4504
2026-01-21 02:49:01.17	305.00	18.11	-30.6	-32.5	12.3	7.47e-05	0	44	0	621805568	21	4491
2026-01-21 02:49:02.17	304.78	18.08	-30.7	-32.9	12.4	2.46e-03	0	44	0	623902720	21	4603
2026-01-21 02:49:03.17	304.55	18.04	-30.8	-33.2	12.1	1.71e-04	0	44	0	624951296	21	4710
2026-01-21 02:49:04.17	304.32	18.01	-30.9	-33.3	12.1	2.54e-04	0	44	0	627048448	21	4767
2026-01-21 02:49:05.17	304.10	17.98	-30.9	-33.3	12.0	2.61e-03	0	44	0	629145600	21	4759
2026-01-21 02:49:06.18	303.87	17.94	-31.0	-33.2	11.8	3.73e-04	0	44	0	631242752	22	4619
2026-01-21 02:49:07.18	303.65	17.91	-30.8	-33.2	12.1	6.93e-04	0	44	0	633339904	21	4712
2026-01-21 02:49:08.19	303.42	17.88	-31.0	-33.1	11.9	4.19e-04	0	44	0	635437056	22	4589
2026-01-21 02:49:09.19	303.20	17.84	-30.8	-33.0	12.2	2.22e-04	0	44	0	636485632	21	4673
2026-01-21 02:49:10.19	302.98	17.81	-30.8	-33.0	12.2	1.64e-03	0	44	0	638582784	21	4664
2026-01-21 02:49:11.19	302.76	17.77	-30.8	-33.1	12.2	1.52e-04	0	44	0	640679936	21	4679
2026-01-21 02:49:12.19	302.53	17.74	-31.0	-33.3	11.7	5.28e-04	0	45	0	642777088	22	4648
2026-01-21 02:49:13.19	302.31	17.70	-30.7	-32.4	12.3	5.56e-04	0	44	0	643825664	22	4361
2026-01-21 02:49:14.20	302.09	17.66	-30.8	-33.2	12.0	1.47e-04	0	44	0	645922816	21	4751
2026-01-21 02:49:15.20	301.87	17.63	-30.8	-33.2	12.0	3.52e-04	0	44	0	648019968	21	4748
2026-01-21 02:49:16.21	301.65	17.59	-30.8	-33.3	12.0	4.41e-04	0	44	0	650117120	21	4760
2026-01-21 02:49:17.21	301.43	17.55	-31.0	-33.7	11.8	4.28e-04	0	44	0	652214272	21	4936
2026-01-21 02:49:18.22	301.21	17.51	-31.0	-33.2	11.8	8.44e-04	0	44	0	653262848	22	4633
2026-01-21 02:49:19.22	300.99	17.47	-31.0	-33.6	11.9	4.42e-04	0	44	0	655360000	21	4865
2026-01-21 02:49:20.22	300.77	17.43	-30.7	-32.9	12.3	2.86e-04	0	44	0	657457152	21	4620
2026-01-21 02:49:21.22	300.56	17.39	-30.6	-32.5	12.6	1.06e-04	0	44	0	659554304	21	4471
2026-01-21 02:49:22.22	300.34	17.36	-30.4	-32.0	12.8	6.86e-05	0	44	0	661651456	21	4335
2026-01-21 02:49:23.22	300.13	17.32	-30.3	-31.8	13.0	3.43e-05	0	44	0	662700032	21	4268
2026-01-21 02:49:24.23	299.91	17.27	-30.3	-31.8	13.0	2.67e-05	0	44	0	664797184	21	4266
2026-01-21 02:49:25.22	299.70	17.23	-30.4	-32.5	12.9	1.28e-04	0	44	0	666894336	20	4577
2026-01-21 02:49:26.22	299.48	17.19	-30.3	-32.2	13.0	3.73e-05	0	44	0	668991488	20	4490
2026-01-21 02:49:27.22	299.27	17.15	-30.2	-32.1	13.1	1.80e-04	0	44	0	670040064	20	4454
2026-01-21 02:49:28.22	299.06	17.11	-30.3	-32.3	13.0	9.61e-05	0	44	0	672137216	20	4511
2026-01-21 02:49:29.23	298.84	17.07	-30.2	-31.9	13.2	1.90e-05	0	44	0	674234368	20	4401
2026-01-21 02:49:30.23	298.63	17.03	-30.2	-32.1	13.2	1.22e-05	0	44	0	676331520	20	4438
2026-01-21 02:49:31.24	298.42	16.98	-30.3	-32.3	13.0	2.21e-05	0	44	0	678428672	20	4523
2026-01-21 02:49:32.24	298.21	16.94	-30.2	-31.8	13.3	2.74e-05	0	44	0	680525824	20	4370
2026-01-21 02:49:33.25	298.00	16.90	-30.0	-31.4	13.6	2.05e-05	0	44	0	681574400	20	4243
2026-01-21 02:49:34.25	297.79	16.85	-29.9	-31.1	13.8	2.20e-06	0	44	0	683671552	20	4125
2026-01-21 02:49:35.25	297.58	16.81	-29.9	-31.5	13.9	3.80e-06	0	44	0	685768704	19	4336
2026-01-21 02:49:36.25	297.37	16.77	-29.6	-30.8	14.3	2.20e-06	0	44	0	687865856	19	4139
2026-01-21 02:49:37.25	297.17	16.72	-29.7	-31.0	14.2	7.00e-07	0	44	0	688914432	19	4186
2026-01-21 02:49:38.25	296.96	16.68	-29.5	-30.6	14.4	0.00e+00	0	44	0	691011584	19	4081
2026-01-21 02:49:39.26	296.75	16.63	-29.7	-31.2	14.0	1.50e-06	0	44	0	693108736	19	4245
2026-01-21 02:49:40.26	296.55	16.59	-29.9	-31.5	13.9	3.00e-06	0	44	0	695205888	19	4334
2026-01-21 02:49:41.26	296.34	16.54	-29.8	-31.3	14.0	2.20e-06	0	44	0	697303040	19	4286
2026-01-21 02:49:42.27	296.14	16.49	-29.8	-31.2	14.0	1.18e-04	0	44	0	698351616	19	4264
2026-01-21 02:49:43.28	295.93	16.45	-29.9	-31.6	13.8	3.77e-04	0	44	0	700448768	19	4383
2026-01-21 02:49:44.28	295.73	16.40	-30.1	-31.8	13.3	8.30e-06	0	44	0	702545920	20	4347
2026-01-21 02:49:45.28	295.53	16.35	-30.4	-32.5	12.8	1.08e-03	0	44	0	704643072	20	4609
2026-01-21 02:49:46.29	295.32	16.31	-30.6	-32.7	12.3	1.34e-03	0	44	0	706740224	21	4571
2026-01-21 02:49:47.29	295.12	16.26	-30.8	-33.3	12.0	1.92e-04	0	44	0	707788800	21	4769
2026-01-21 02:49:48.30	294.92	16.21	-30.2	-32.4	11.7	1.32e-03	0	44	0	709885952	22	4661
2026-01-21 02:49:49.31	294.72	16.16	-30.7	-33.0	11.7	9.01e-04	0	44	0	711983104	21	4688
2026-01-21 02:49:50.31	294.52	16.11	-30.8	-33.2	11.8	3.11e-04	0	44	0	714080256	21	4758
2026-01-21 02:49:51.31	294.32	16.07	-30.8	-33.1	11.0	3.12e-03	0	44	0	716177408	21	4734
2026-01-21 02:49:52.31	294.12	16.02	-30.8	-33.1	11.0	5.87e-04	0	44	0	717225984	21	4712
2026-01-21 02:49:53.31	293.93	15.97	-30.9	-33.5	11.6	4.58e-04	0	44	0	719323136	21	4869
2026-01-21 02:49:54.31	293.73	15.92	-31.1	-33.8	11.1	6.26e-04	0	44	0	721420288	22	4875
2026-01-21 02:49:55.31	293.53	15.87	-31.0	-33.4	11.4	1.60e-03	0	44	0	723517440	22	4719
2026-01-21 02:49:56.31	293.34	15.82	-31.1	-33.7	11.3	9.35e-04	0	44	0	725614592	22	4829
2026-01-21 02:49:57.32	293.14	15.77	-31.3	-34.1	11.0	1.50e-03	0	44	0	726663168	22	5019
2026-01-21 02:49:58.32	292.95	15.72	-31.3	-34.2	10.9	4.82e-03	0	44	0	728760320	22	5037
2026-01-21 02:49:59.33	292.75	15.67	-31.2	-34.1	11.0	2.28e-03	0	44	0	730857472	22	4983
2026-01-21 02:50:00.32	292.56	15.62	-31.0	-33.4	11.4	1.43e-03	0	44	0	732954624	22	4723
2026-01-21 02:50:01.33	292.37	15.57	-30.8	-33.1	11.9	3.02e-03	0	44	0	735051776	21	4718
2026-01-21 02:50:02.33	292.18	15.52	-30.4	-32.1	12.6	4.36e-04	0	44	0	736100352	21	4373
2026-01-21 02:50:03.33	291.99	15.47	-30.4	-32.6	12.6	2.82e-04	0	44	0	738197504	20	4650
2026-01-21 02:50:04.33	291.80	15.41	-30.3	-32.2	12.9	2.71e-04	0	44	0	740294656	20	4510
2026-01-21 02:50:05.34	291.61	15.36	-30.3	-32.2	12.8	1.40e-04	0	44	0	742391808	20	4511
2026-01-21 02:50:06.34	291.42	15.31	-30.2	-32.0	13.0	5.28e-04	0	44	0	743440384	20	4452
2026-01-21 02:50:07.35	291.23	15.26	-30.3	-32.4	12.8	8.03e-04	0	44	0	745537536	20	4564
2026-01-21 02:50:08.35	291.04	15.21	-30.4	-32.6	12.6	8.77e-05	0	44	0	747634688	20	4625
2026-01-21 02:50:09.35	290.86	15.15	-30.3	-32.3	12.8	3.46e-03	0	44	0	749731840	20	4538
2026-01-21 02:50:10.35	290.67	15.10	-30.4	-32.1	12.5	1.17e-03	0	44	0	751828992	21	4395
2026-01-21 02:50:11.36	290.48	15.05	-30.2	-31.7	12.8	6.63e-05	0	44	0	752877568	21	4260
2026-01-21 02:50:12.36	290.30	15.00	-30.2	-32.1	12.9	3.43e-03	0	44	0	754974720	20	4466
2026-01-21 02:50:13.37	290.11	14.94	-30.3	-32.3	12.8	6.07e-04	0	44	0	757071872	20	4553
2026-01-21 02:50:14.37	289.93	14.89	-30.4	-32.8	12.4	9.61e-05	0	44	0	759169024	20	4742
2026-01-21 02:50:15.37	289.75	14.83	-30.6	-32.7	12.1	2.76e-03	0	44	0	761266176	21	4597
2026-01-21 02:50:16.38	289.57	14.78	-30.6	-32.8	12.1	3.50e-03	0	44	0	762314752	21	4638
2026-01-21 02:50:17.38	289.38	14.73	-30.6	-32.7	12.1	4.03e-04	0	44	0	764411904	21	4597
2026-01-21 02:50:18.39	289.20	14.67	-30.4	-32.3	12.4	2.48e-03	0	44	0	766509056	21	4458
2026-01-21 02:50:19.39	289.02	14.62	-30.4	-32.7	12.5	3.93e-03	0	44	0	768606208	20	4691
2026-01-21 02:50:20.40	288.84	14.56	-30.3	-32.3	12.7	1.60e-04	0	44	0	770703360	20	4562
2026-01-21 02:50:21.40	288.66	14.51	-30.2	-32.2	12.7	1.01e-03	0	44	0	771751936	20	4517
2026-01-21 02:50:22.41	288.48	14.45	-30.1	-32.0	12.9	2.61e-03	0	44	0	773849088	20	4446
2026-01-21 02:50:23.41	288.31	14.40	-30.1	-32.0	12.9	1.76e-04	0	44	0	775946240	20	4441
2026-01-21 02:50:24.41	288.13	14.34	-30.3	-32.4	12.7	6.05e-04	0	44	0	778043392	20	4602
2026-01-21 02:50:25.42	287.95	14.29	-30.5	-32.4	12.3	2.34e-03	0	44	0	780140544	21	4492
2026-01-21 02:50:26.42	287.78	14.23	-30.6	-32.9	11.9	2.32e-04	0	44	0	781189120	21	4682
2026-01-21 02:50:27.43	287.60	14.18	-30.7	-33.1	11.8	2.78e-03	0	44	0	783286272	21	4744
2026-01-21 02:50:28.44	287.43	14.12	-31.0	-33.9	11.2	3.49e-03	0	44	0	785383424	21	5034
2026-01-21 02:50:29.44	287.25	14.07	-31.1	-34.0	10.9	1.61e-03	0	44	0	787480576	22	4984
2026-01-21 02:50:30.44	287.08	14.01	-31.3	-34.6	10.3	7.71e-03	0	44	0	789577728	22	5271
2026-01-21 02:50:31.45	286.91	13.95	-31.5	-34.8	9.7	1.21e-02	0	44	0	790626304	23	5283
2026-01-21 02:50:32.45	286.73	13.90	-31.5	-34.9	9.7	1.09e-02	0	44	0	792723456	23	5319
2026-01-21 02:50:33.45	286.56	13.84	-31.6	-35.2	9.5	1.54e-02	0	44	0	794820608	23	5446
2026-01-21 02:50:34.45	286.39	13.79	-31.6	-35.0	9.6	1.86e-02	0	44	0	796917760	23	5383
2026-01-21 02:50:35.46	286.22	13.73	-31.5	-34.8	9.9	1.03e-02	0	44	0	799014912	23	5260
2026-01-21 02:50:36.46	286.06	13.67	-31.4	-35.0	10.1	1.16e-02	0	44	0	800063488	22	5434
2026-01-21 02:50:37.46	285.89	13.62	-31.4	-34.5	10.1	1.42e-02	0	44	0	802160640	23	5120
2026-01-21 02:50:38.46	285.72	13.56	-31.4	-34.4	10.2	6.15e-03	0	44	0	804257792	23	5059
2026-01-21 02:50:39.47	285.55	13.50	-31.4	-34.9	10.2	1.01e-02	0	44	0	806354944	22	5396
2026-01-21 02:50:40.46	285.39	13.44	-31.3	-34.6	10.4	8.66e-03	0	44	0	807403520	22	5261
2026-01-21 02:50:41.47	285.22	13.39	-31.2	-34.2	10.6	5.09e-03	0	44	0	809500672	22	5106
2026-01-21 02:50:42.48	285.05	13.33	-31.2	-34.2	10.6	3.36e-03	0	44	0	811597824	22	5107
2026-01-21 02:50:43.49	284.89	13.27	-31.1	-33.8	10.8	5.71e-03	0	44	0	813694976	22	4948
2026-01-21 02:50:44.49	284.72	13.21	-31.0	-33.7	11.0	3.12e-03	0	44	0	815792128	22	4898
2026-01-21 02:50:45.49	284.56	13.16	-30.8	-33.6	11.4	1.10e-03	0	44	0	816840704	21	4948
2026-01-21 02:50:46.50	284.40	13.10	-30.8	-33.5	11.4	4.05e-03	0	44	0	818937856	21	4902
2026-01-21 02:50:47.50	284.24	13.04	-30.8	-33.5	11.4	1.26e-03	0	44	0	821035008	21	4918
2026-01-21 02:50:48.49	284.08	12.98	-31.0	-33.4	11.2	4.44e-03	0	44	0	823132160	22	4772
2026-01-21 02:50:49.50	283.92	12.93	-31.1	-33.8	10.9	1.74e-03	0	44	0	825229312	22	4915
2026-01-21 02:50:50.50	283.76	12.87	-31.1	-34.0	10.7	2.86e-03	0	44	0	826277888	22	4999
2026-01-21 02:50:51.50	283.60	12.81	-31.1	-34.1	10.7	6.51e-03	0	44	0	828375040	22	5034
2026-01-21 02:50:52.51	283.44	12.75	-31.1	-34.0	10.7	3.05e-03	0	44	0	830472192	22	5013
2026-01-21 02:50:53.51	283.28	12.69	-31.0	-33.7	10.8	2.87e-03	0	44	0	832569344	22	4892
2026-01-21 02:50:54.52	283.12	12.63	-30.8	-33.5	11.4	4.42e-03	0	44	0	834666496	21	4923
2026-01-21 02:50:55.53	282.96	12.58	-30.7	-33.1	11.6	9.23e-04	0	44	0	835715072	21	4757
2026-01-21 02:50:56.54	282.81	12.52	-30.5	-32.5	12.1	4.96e-04	0	44	0	837812224	21	4556
2026-01-21 02:50:57.54	282.65	12.46	-30.4	-32.7	12.3	3.47e-03	0	44	0	839909376	20	4691
2026-01-21 02:50:58.55	282.49	12.40	-30.4	-32.6	12.4	3.13e-03	0	44	0	842006528	20	4657
2026-01-21 02:50:59.55	282.34	12.34	-30.3	-32.5	12.5	1.48e-04	0	44	0	844103680	20	4633
2026-01-21 02:51:00.55	282.19	12.28	-30.4	-32.8	12.2	1.57e-04	0	44	0	845152256	20	4727
2026-01-21 02:51:01.55	282.04	12.22	-30.4	-32.3	12.2	3.18e-03	0	44	0	847249408	21	4465
2026-01-21 02:51:02.56	281.88	12.16	-30.4	-32.4	12.2	2.18e-04	0	44	0	849346560	21	4499
2026-01-21 02:51:03.56	281.73	12.11	-30.4	-32.4	12.2	2.17e-04	0	44	0	851443712	21	4512
2026-01-21 02:51:04.56	281.58	12.05	-30.5	-33.0	12.1	1.69e-03	0	45	0	853540864	20	4802
2026-01-21 02:51:05.57	281.43	11.99	-30.5	-32.6	12.0	5.12e-04	0	44	0	854589440	21	4570
2026-01-21 02:51:06.57	281.28	11.93	-30.6	-32.8	11.9	4.35e-04	0	44	0	856686592	21	4663
2026-01-21 02:51:07.58	281.13	11.87	-30.7	-33.3	11.5	6.14e-04	0	44	0	858783744	21	4819
2026-01-21 02:51:08.58	280.98	11.81	-30.8	-33.5	11.4	9.07e-04	0	44	0	860880896	21	4885
2026-01-21 02:51:09.59	280.83	11.75	-30.8	-33.5	11.4	8.54e-04	0	44	0	862978048	21	4907
2026-01-21 02:51:10.59	280.68	11.69	-30.9	-33.6	11.3	9.80e-04	0	44	0	864026624	21	4953
2026-01-21 02:51:11.60	280.54	11.63	-31.0	-33.6	10.7	1.43e-03	0	44	0	866123776	22	4847
2026-01-21 02:51:12.60	280.39	11.57	-31.0	-33.5	10.9	2.24e-03	0	44	0	868220928	22	4819
2026-01-21 02:51:13.61	280.24	11.51	-30.8	-33.5	11.3	1.16e-03	0	44	0	870318080	21	4897
2026-01-21 02:51:14.62	280.10	11.45	-31.0	-33.5	10.9	1.22e-03	0	44	0	872415232	22	4813
2026-01-21 02:51:15.62	279.95	11.39	-30.9	-33.7	11.1	5.17e-03	0	44	0	873463808	21	4979
2026-01-21 02:51:16.63	279.81	11.33	-30.6	-32.8	11.8	7.26e-04	0	44	0	875560960	21	4633
2026-01-21 02:51:17.63	279.66	11.27	-30.4	-32.7	12.2	3.26e-04	0	44	0	877658112	20	4718
2026-01-21 02:51:18.63	279.52	11.21	-30.4	-32.7	12.2	2.25e-04	0	44	0	879755264	20	4717
2026-01-21 02:51:19.63	279.38	11.15	-30.3	-32.3	12.5	1.65e-04	0	44	0	881852416	20	4576
2026-01-21 02:51:20.64	279.24	11.09	-30.1	-31.9	12.8	6.56e-05	0	44	0	882900992	20	4413
2026-01-21 02:51:21.64	279.10	11.04	-29.9	-31.3	13.0	4.34e-05	0	44	0	884998144	20	4244
2026-01-21 02:51:22.65	278.96	10.97	-30.0	-31.5	13.1	3.73e-05	0	44	0	887095296	20	4295
2026-01-21 02:51:23.65	278.82	10.92	-29.9	-31.8	13.2	1.98e-05	0	44	0	889192448	19	4481
2026-01-21 02:51:24.66	278.68	10.86	-29.8	-31.6	13.3	1.83e-05	0	44	0	890241024	19	4416
2026-01-21 02:51:25.66	278.54	10.80	-30.0	-31.9	13.1	1.22e-05	0	44	0	892338176	19	4524
2026-01-21 02:51:26.66	278.40	10.74	-30.0	-32.0	13.1	1.99e-03	0	44	0	894435328	19	4546
2026-01-21 02:51:27.67	278.26	10.68	-30.0	-31.6	13.0	2.28e-05	0	44	0	896532480	20	4322
2026-01-21 02:51:28.68	278.12	10.62	-30.0	-31.7	12.9	4.11e-05	0	44	0	898629632	20	4369
2026-01-21 02:51:29.68	277.99	10.56	-30.2	-32.1	12.6	1.20e-03	0	44	0	900726784	20	4500
2026-01-21 02:51:30.68	277.85	10.50	-30.3	-32.5	12.4	1.20e-04	0	44	0	901775360	20	4622
2026-01-21 02:51:31.69	277.72	10.44	-30.4	-32.7	12.2	1.72e-04	0	44	0	903872512	20	4720
2026-01-21 02:51:32.69	277.58	10.38	-30.5	-32.6	11.9	3.56e-03	0	44	0	905969664	21	4591
2026-01-21 02:51:33.69	277.45	10.32	-30.5	-32.9	12.1	3.42e-04	0	44	0	908066816	20	4800
2026-01-21 02:51:34.69	277.31	10.26	-30.3	-32.6	12.3	2.39e-04	0	44	0	909115392	20	4657
2026-01-21 02:51:35.69	277.18	10.20	-30.2	-32.2	12.5	1.38e-04	0	44	0	911212544	20	4521
2026-01-21 02:51:36.69	277.05	10.14	-30.1	-31.9	12.7	1.13e-03	0	44	0	913309696	20	4439
2026-01-21 02:51:37.69	276.92	10.08	-30.1	-32.0	12.6	8.39e-05	0	44	0	915406848	20	4458
2026-01-21 02:51:38.68	276.79	10.02	-30.1	-31.9	12.8	8.85e-05	0	44	0	917504000	20	4418
2026-01-21 02:51:39.69	276.66	9.96	-30.1	-31.8	12.8	4.78e-03	0	44	0	918552576	20	4413
2026-01-21 02:51:40.69	276.53	9.90	-30.2	-32.2	12.6	7.32e-05	0	44	0	920649728	20	4519
2026-01-21 02:51:41.69	276.40	9.84	-30.1	-32.0	12.7	7.78e-05	0	44	0	922746880	20	4464
2026-01-21 02:51:42.69	276.27	9.78	-30.0	-31.7	12.9	5.72e-05	0	44	0	924844032	20	4363
2026-01-21 02:51:43.70	276.14	9.72	-30.1	-31.9	12.7	1.36e-04	0	44	0	926941184	20	4426
2026-01-21 02:51:44.70	276.01	9.66	-30.1	-32.0	12.6	1.29e-03	0	44	0	927989760	20	4476
2026-01-21 02:51:45.71	275.88	9.60	-30.1	-32.0	12.6	1.01e-04	0	44	0	930086912	20	4460
2026-01-21 02:51:46.71	275.76	9.54	-30.1	-31.9	12.6	7.24e-05	0	44	0	932184064	20	4445
2026-01-21 02:51:47.72	275.63	9.48	-30.1	-32.0	12.6	1.41e-03	0	44	0	934281216	20	4467
2026-01-21 02:51:48.72	275.50	9.42	-30.2	-32.2	12.4	1.05e-04	0	44	0	935329792	20	4556
2026-01-21 02:51:49.72	275.38	9.36	-30.3	-32.5	12.3	2.85e-04	0	44	0	937426944	20	4642
2026-01-21 02:51:50.72	275.25	9.30	-30.3	-32.6	12.2	4.83e-03	0	44	0	939524096	20	4691
2026-01-21 02:51:51.72	275.13	9.24	-30.4	-32.9	12.0	2.29e-03	0	44	0	941621248	20	4808
2026-01-21 02:51:52.73	275.00	9.18	-30.5	-32.7	11.7	3.17e-04	0	44	0	943718400	21	4630
2026-01-21 02:51:53.73	274.88	9.12	-30.6	-32.9	11.7	5.33e-03	0	44	0	944766976	21	4691
2026-01-21 02:51:54.73	274.76	9.06	-30.5	-32.7	11.8	4.18e-03	0	44	0	946864128	21	4625
2026-01-21 02:51:55.73	274.64	9.00	-30.7	-33.2	11.4	7.09e-04	0	44	0	948961280	21	4817
2026-01-21 02:51:56.72	274.51	8.94	-30.6	-33.1	11.4	5.23e-03	0	44	0	951058432	21	4797
2026-01-21 02:51:57.72	274.39	8.88	-30.7	-33.3	11.3	5.35e-03	0	44	0	953155584	21	4845
2026-01-21 02:51:58.73	274.27	8.82	-30.6	-33.1	11.4	1.06e-03	0	44	0	954204160	21	4794
2026-01-21 02:51:59.73	274.15	8.76	-30.7	-33.2	11.3	1.06e-03	0	44	0	956301312	21	4828
2026-01-21 02:52:00.73	274.03	8.71	-30.6	-33.0	11.5	5.56e-03	0	44	0	958398464	21	4747
2026-01-21 02:52:01.73	273.91	8.65	-30.5	-33.1	11.8	1.09e-03	0	44	0	960495616	20	4853
2026-01-21 02:52:02.74	273.79	8.59	-30.5	-32.7	11.7	2.02e-03	0	44	0	962592768	21	4648
2026-01-21 02:52:03.75	273.67	8.53	-30.4	-32.8	12.0	4.73e-03	0	44	0	963641344	20	4762
2026-01-21 02:52:04.75	273.56	8.47	-30.4	-32.9	11.9	6.78e-04	0	44	0	965738496	20	4794
2026-01-21 02:52:05.75	273.44	8.41	-30.5	-32.7	11.7	2.45e-03	0	44	0	967835648	21	4621
2026-01-21 02:52:06.76	273.32	8.35	-30.5	-32.7	11.7	5.81e-03	0	44	0	969932800	21	4624
2026-01-21 02:52:07.76	273.21	8.29	-30.5	-32.7	11.7	8.82e-04	0	44	0	972029952	21	4629
2026-01-21 02:52:08.76	273.09	8.23	-30.5	-33.0	11.8	5.52e-03	0	44	0	973078528	20	4853
2026-01-21 02:52:09.76	272.98	8.17	-30.5	-33.1	11.7	2.30e-03	0	44	0	975175680	20	4890
2026-01-21 02:52:10.77	272.86	8.11	-30.4	-32.4	11.9	1.02e-03	0	44	0	977272832	21	4526
2026-01-21 02:52:11.77	272.75	8.05	-30.7	-33.3	11.2	4.73e-03	0	44	0	979369984	21	4862
2026-01-21 02:52:12.76	272.63	7.99	-30.7	-33.3	11.1	5.52e-03	0	44	0	980418560	21	4882
2026-01-21 02:52:13.76	272.52	7.93	-30.9	-34.0	10.7	3.35e-03	0	44	0	982515712	21	5135
2026-01-21 02:52:14.77	272.41	7.87	-30.9	-34.0	10.6	7.88e-03	0	44	0	984612864	21	5142
2026-01-21 02:52:15.77	272.29	7.81	-31.0	-33.9	10.4	8.02e-03	0	44	0	986710016	22	5020
2026-01-21 02:52:16.78	272.18	7.75	-31.3	-35.1	9.5	7.26e-03	0	44	0	988807168	22	5522
2026-01-21 02:52:17.77	272.07	7.70	-31.5	-35.5	9.2	2.58e-02	0	44	0	989855744	22	5713
2026-01-21 02:52:18.77	271.96	7.64	-31.5	-35.2	9.1	2.51e-02	0	44	0	991952896	23	5518
2026-01-21 02:52:19.78	271.85	7.58	-31.4	-34.9	9.2	2.19e-02	0	44	0	994050048	23	5390
2026-01-21 02:52:20.78	271.74	7.52	-31.5	-35.5	9.1	2.94e-02	0	44	0	996147200	22	5753
2026-01-21 02:52:21.79	271.63	7.46	-31.4	-34.7	9.3	3.32e-02	0	44	0	998244352	23	5275
2026-01-21 02:52:22.78	271.52	7.40	-31.3	-34.4	9.6	1.48e-02	0	44	0	999292928	23	5140
2026-01-21 02:52:23.78	271.41	7.34	-31.3	-35.1	9.4	1.23e-02	0	44	0	1001390080	22	5533
2026-01-21 02:52:24.78	271.30	7.28	-31.2	-34.7	9.7	1.78e-02	0	44	0	1003487232	22	5384
2026-01-21 02:52:25.79	271.19	7.22	-31.3	-35.2	9.4	1.39e-02	0	44	0	1005584384	22	5586
2026-01-21 02:52:26.78	271.09	7.17	-31.2	-34.6	9.8	2.40e-02	0	44	0	1007681536	22	5326
2026-01-21 02:52:27.79	270.98	7.11	-30.9	-34.0	10.5	8.78e-03	0	44	0	1008730112	21	5164
2026-01-21 02:52:28.79	270.87	7.05	-33.2	-45.0	3.8	5.33e-01	0	44	104	1010827264	26	14074
2026-01-21 02:52:29.79	270.77	6.99	-33.5	-45.8	3.8	1.49e+00	0	44	104	1010827264	27	14818
2026-01-21 02:52:30.80	270.66	6.93	-33.9	-46.5	3.8	1.49e+00	0	44	104	1010827264	27	15347

#Closed at: 2026-01-21 02:52:31
#Recorded file [1010 MB]: D:/data/31010_260121_054329.dat