passes_logs/2026/01/21/R2M6_AANII_01/R2M6_AANII_01__20260121_111633_NOAA_20_JPSS-1_rec.log

#Pass ID: 20260121_111633_NOAA 20 (JPSS-1)
#Satellite: NOAA 20 (JPSS-1)
#Configuration: NOAA 20
#almurnet v.1.7.20240730
#Start time: 2026-01-21 11:16:34

#Version: 2.2.20231116
#Station: R2M6_AANII_01
#Location: 30.233357 lon 59.946436 lat
#TLE: 1 43013U 17073A   26020.26397077  .00000127  00000+0  80954-4 0  9999
#TLE: 2 43013  98.7643 321.1479 0001288  31.3158 328.8095 14.19537595423482

#Time	Az	El	Level	Level2	SNR	BER	BlckErr	Temp	State	Recorded	gain1	gain2
2026-01-21 11:16:34.01	190.48	7.03	-31.0	-35.3	5.4	1.19e+00	0	41	0	0	23	5927
2026-01-21 11:16:35.01	190.54	7.10	-31.4	-37.0	5.2	1.24e+00	0	41	104	0	23	6865
2026-01-21 11:16:36.01	190.60	7.17	-31.3	-36.2	9.3	2.92e-02	0	41	0	0	23	6366
2026-01-21 11:16:37.01	190.66	7.25	-31.4	-36.8	8.8	2.92e-02	0	41	0	1048576	23	6704
2026-01-21 11:16:38.01	190.72	7.32	-31.3	-36.3	9.2	2.59e-02	0	41	0	3145728	23	6429
2026-01-21 11:16:39.01	190.78	7.39	-31.2	-35.8	9.6	1.57e-02	0	41	0	5242880	23	6111
2026-01-21 11:16:40.02	190.84	7.47	-31.0	-35.1	10.1	7.10e-03	0	41	0	7340032	23	5779
2026-01-21 11:16:41.03	190.90	7.54	-31.0	-35.0	10.2	6.36e-03	0	42	0	9437184	23	5741
2026-01-21 11:16:42.03	190.96	7.62	-31.0	-35.3	10.1	7.32e-03	0	41	0	10485760	23	5859
2026-01-21 11:16:43.04	191.02	7.69	-31.0	-35.1	10.2	6.07e-03	0	41	0	12582912	23	5770
2026-01-21 11:16:44.04	191.08	7.77	-31.1	-35.5	10.0	8.02e-03	0	41	0	14680064	23	5951
2026-01-21 11:16:45.05	191.14	7.84	-31.1	-35.3	10.1	7.07e-03	0	41	0	16777216	23	5867
2026-01-21 11:16:46.05	191.20	7.92	-31.0	-35.2	10.1	6.52e-03	0	41	0	17825792	23	5822
2026-01-21 11:16:47.05	191.26	7.99	-30.9	-35.0	10.3	5.72e-03	0	42	0	19922944	23	5713
2026-01-21 11:16:48.06	191.33	8.07	-31.1	-35.5	9.8	9.05e-03	0	42	0	22020096	23	5995
2026-01-21 11:16:49.05	191.39	8.14	-31.0	-35.1	10.2	6.99e-03	0	42	0	24117248	23	5775
2026-01-21 11:16:50.05	191.45	8.22	-31.1	-35.5	9.9	6.79e-03	0	42	0	26214400	23	5969
2026-01-21 11:16:51.06	191.52	8.29	-31.0	-35.2	10.1	6.90e-03	0	42	0	27262976	23	5828
2026-01-21 11:16:52.06	191.58	8.37	-30.8	-34.4	10.7	4.09e-03	0	42	0	29360128	23	5437
2026-01-21 11:16:53.06	191.64	8.44	-30.7	-34.6	11.0	2.28e-03	0	42	0	31457280	22	5619
2026-01-21 11:16:54.05	191.71	8.52	-30.8	-34.8	10.9	2.35e-03	0	42	0	33554432	22	5715
2026-01-21 11:16:55.06	191.77	8.60	-30.7	-34.4	11.1	1.64e-03	0	42	0	35651584	22	5560
2026-01-21 11:16:56.06	191.84	8.67	-30.6	-34.3	11.2	1.61e-03	0	42	0	36700160	22	5480
2026-01-21 11:16:57.06	191.90	8.75	-30.6	-34.3	11.2	1.50e-03	0	42	0	38797312	22	5506
2026-01-21 11:16:58.06	191.97	8.83	-30.6	-34.3	11.1	1.52e-03	0	42	0	40894464	22	5513
2026-01-21 11:16:59.06	192.03	8.91	-30.7	-34.5	11.0	1.47e-03	0	42	0	42991616	22	5596
2026-01-21 11:17:00.06	192.10	8.98	-30.6	-34.1	11.3	1.91e-03	0	42	0	45088768	22	5410
2026-01-21 11:17:01.07	192.17	9.06	-30.6	-34.1	11.3	1.14e-03	0	42	0	46137344	22	5420
2026-01-21 11:17:02.07	192.23	9.14	-30.7	-34.5	11.0	1.43e-03	0	42	0	48234496	22	5581
2026-01-21 11:17:03.07	192.30	9.22	-30.6	-34.1	11.4	1.38e-03	0	42	0	50331648	22	5390
2026-01-21 11:17:04.08	192.37	9.30	-30.6	-34.2	11.3	1.06e-03	0	42	0	52428800	22	5444
2026-01-21 11:17:05.07	192.43	9.37	-30.6	-34.0	11.4	1.01e-03	0	42	0	54525952	22	5370
2026-01-21 11:17:06.08	192.50	9.45	-30.7	-34.3	11.2	1.14e-03	0	42	0	55574528	22	5501
2026-01-21 11:17:07.08	192.57	9.53	-30.6	-34.1	11.5	1.11e-03	0	42	0	57671680	22	5401
2026-01-21 11:17:08.09	192.64	9.61	-30.6	-34.0	11.6	7.31e-04	0	42	0	59768832	22	5338
2026-01-21 11:17:09.09	192.71	9.69	-30.6	-34.0	11.6	7.12e-04	0	42	0	61865984	22	5325
2026-01-21 11:17:10.09	192.78	9.77	-30.6	-34.1	11.6	6.33e-04	0	42	0	62914560	22	5354
2026-01-21 11:17:11.09	192.85	9.85	-30.6	-34.1	11.6	6.68e-04	0	42	0	65011712	22	5368
2026-01-21 11:17:12.09	192.92	9.93	-30.7	-34.3	11.5	8.19e-04	0	42	0	67108864	22	5463
2026-01-21 11:17:13.09	192.99	10.01	-30.6	-34.0	11.7	6.83e-04	0	42	0	69206016	22	5339
2026-01-21 11:17:14.09	193.06	10.09	-30.6	-33.9	11.8	5.90e-04	0	42	0	71303168	22	5288
2026-01-21 11:17:15.10	193.13	10.17	-30.5	-33.9	11.8	4.73e-04	0	42	0	72351744	22	5282
2026-01-21 11:17:16.10	193.21	10.26	-30.6	-34.0	11.6	6.23e-04	0	42	0	74448896	22	5367
2026-01-21 11:17:17.10	193.28	10.34	-30.4	-33.7	11.8	6.13e-04	0	42	0	76546048	22	5234
2026-01-21 11:17:18.11	193.35	10.42	-30.5	-33.8	11.7	5.51e-04	0	42	0	78643200	22	5263
2026-01-21 11:17:19.11	193.42	10.50	-30.5	-34.0	11.4	7.92e-04	0	42	0	80740352	22	5388
2026-01-21 11:17:20.12	193.50	10.58	-30.3	-33.5	11.5	8.21e-04	0	42	0	81788928	22	5220
2026-01-21 11:17:21.12	193.57	10.67	-30.1	-33.6	11.6	7.60e-04	0	42	0	83886080	21	5402
2026-01-21 11:17:22.12	193.65	10.75	-30.1	-33.7	11.5	6.74e-04	0	42	0	85983232	21	5427
2026-01-21 11:17:23.12	193.72	10.83	-30.2	-34.1	11.2	1.16e-03	0	42	0	88080384	21	5619
2026-01-21 11:17:24.13	193.80	10.91	-30.0	-33.6	11.4	1.31e-03	0	42	0	90177536	21	5418
2026-01-21 11:17:25.13	193.87	11.00	-30.1	-33.6	11.4	9.11e-04	0	42	0	91226112	21	5422
2026-01-21 11:17:26.13	193.95	11.08	-30.1	-33.7	11.5	8.12e-04	0	42	0	93323264	21	5441
2026-01-21 11:17:27.13	194.02	11.16	-30.0	-33.5	11.6	7.18e-04	0	42	0	95420416	21	5366
2026-01-21 11:17:28.13	194.10	11.25	-30.0	-33.4	11.5	7.79e-04	0	43	0	97517568	21	5351
2026-01-21 11:17:29.14	194.18	11.33	-30.1	-33.4	11.8	5.51e-04	0	42	0	99614720	21	5293
2026-01-21 11:17:30.14	194.25	11.42	-30.2	-33.6	11.9	3.66e-04	0	43	0	100663296	21	5338
2026-01-21 11:17:31.15	194.33	11.50	-30.4	-34.0	11.8	4.09e-04	0	42	0	102760448	21	5499
2026-01-21 11:17:32.15	194.41	11.59	-30.4	-34.2	11.7	6.16e-04	0	42	0	104857600	21	5572
2026-01-21 11:17:33.15	194.49	11.67	-30.4	-34.0	12.0	4.21e-04	0	42	0	106954752	21	5429
2026-01-21 11:17:34.15	194.57	11.76	-30.3	-33.7	12.3	2.52e-04	0	43	0	108003328	21	5317
2026-01-21 11:17:35.16	194.65	11.85	-30.4	-33.8	12.3	1.72e-04	0	42	0	110100480	21	5336
2026-01-21 11:17:36.15	194.73	11.93	-30.5	-34.1	12.0	2.46e-04	0	42	0	112197632	21	5448
2026-01-21 11:17:37.16	194.81	12.02	-30.4	-33.9	12.2	2.37e-04	0	43	0	114294784	21	5384
2026-01-21 11:17:38.16	194.89	12.10	-30.5	-34.3	11.8	2.97e-04	0	43	0	116391936	21	5566
2026-01-21 11:17:39.16	194.97	12.19	-30.3	-33.7	12.3	2.36e-04	0	42	0	118489088	21	5314
2026-01-21 11:17:40.17	195.05	12.28	-30.2	-33.4	12.5	1.71e-04	0	42	0	119537664	21	5186
2026-01-21 11:17:41.17	195.14	12.37	-30.2	-33.2	12.6	8.46e-05	0	43	0	121634816	21	5097
2026-01-21 11:17:42.17	195.22	12.45	-30.1	-33.1	12.7	7.85e-05	0	43	0	123731968	21	5068
2026-01-21 11:17:43.17	195.30	12.54	-30.2	-33.2	12.6	9.07e-05	0	43	0	125829120	21	5106
2026-01-21 11:17:44.17	195.39	12.63	-30.2	-33.2	12.6	1.01e-04	0	43	0	126877696	21	5080
2026-01-21 11:17:45.17	195.47	12.72	-30.2	-33.2	12.6	9.68e-05	0	43	0	128974848	21	5100
2026-01-21 11:17:46.16	195.55	12.80	-30.3	-33.4	12.4	1.17e-04	0	43	0	131072000	21	5200
2026-01-21 11:17:47.17	195.64	12.89	-30.3	-33.6	12.3	1.57e-04	0	43	0	133169152	21	5256
2026-01-21 11:17:48.17	195.73	12.98	-30.2	-33.3	12.5	1.85e-04	0	43	0	135266304	21	5154
2026-01-21 11:17:49.18	195.81	13.07	-30.1	-33.0	12.6	9.99e-05	0	43	0	136314880	21	5057
2026-01-21 11:17:50.18	195.90	13.16	-30.0	-32.8	12.6	8.08e-05	0	43	0	138412032	21	4988
2026-01-21 11:17:51.18	195.99	13.25	-30.0	-32.8	12.5	1.08e-04	0	43	0	140509184	21	4993
2026-01-21 11:17:52.19	196.07	13.34	-29.9	-32.7	12.6	9.46e-05	0	43	0	142606336	21	4941
2026-01-21 11:17:53.19	196.16	13.43	-29.9	-32.6	12.6	8.46e-05	0	43	0	144703488	21	4927
2026-01-21 11:17:54.19	196.25	13.52	-29.9	-32.7	12.5	1.08e-04	0	43	0	145752064	21	4966
2026-01-21 11:17:55.20	196.34	13.62	-29.8	-32.5	12.6	1.14e-04	0	43	0	147849216	21	4897
2026-01-21 11:17:56.20	196.43	13.71	-29.8	-32.5	12.6	9.30e-05	0	43	0	149946368	21	4897
2026-01-21 11:17:57.20	196.52	13.80	-29.9	-32.7	12.6	1.05e-04	0	43	0	152043520	21	4947
2026-01-21 11:17:58.21	196.61	13.89	-30.0	-33.0	12.4	1.17e-04	0	43	0	153092096	21	5052
2026-01-21 11:17:59.22	196.71	13.98	-30.0	-32.7	12.7	9.23e-05	0	43	0	155189248	21	4948
2026-01-21 11:18:00.21	196.80	14.08	-30.0	-32.8	12.7	7.47e-05	0	43	0	157286400	21	4959
2026-01-21 11:18:01.21	196.89	14.17	-30.0	-32.9	12.7	6.79e-05	0	43	0	159383552	21	5008
2026-01-21 11:18:02.21	196.98	14.26	-30.1	-33.1	12.5	1.48e-04	0	43	0	161480704	21	5090
2026-01-21 11:18:03.21	197.08	14.35	-30.1	-32.9	12.8	9.38e-05	0	43	0	163577856	21	4985
2026-01-21 11:18:04.21	197.17	14.45	-30.0	-32.7	13.1	4.57e-05	0	43	0	164626432	21	4893
2026-01-21 11:18:05.21	197.26	14.54	-30.0	-32.7	13.2	2.59e-05	0	43	0	166723584	21	4883
2026-01-21 11:18:06.22	197.36	14.64	-30.0	-32.7	13.2	2.89e-05	0	43	0	168820736	21	4900
2026-01-21 11:18:07.22	197.46	14.73	-30.0	-32.6	13.2	2.21e-05	0	43	0	170917888	21	4864
2026-01-21 11:18:08.23	197.55	14.83	-30.0	-32.6	13.2	1.52e-05	0	43	0	171966464	21	4872
2026-01-21 11:18:09.23	197.65	14.92	-30.0	-32.7	13.2	2.21e-05	0	43	0	174063616	21	4911
2026-01-21 11:18:10.23	197.75	15.02	-30.0	-32.6	13.3	1.52e-05	0	43	0	176160768	21	4854
2026-01-21 11:18:11.24	197.85	15.11	-30.1	-32.9	13.1	2.44e-05	0	43	0	178257920	21	4954
2026-01-21 11:18:12.25	197.95	15.21	-30.1	-32.8	13.2	2.97e-05	0	43	0	180355072	21	4945
2026-01-21 11:18:13.25	198.05	15.31	-30.2	-33.1	13.0	2.97e-05	0	43	0	181403648	21	5030
2026-01-21 11:18:14.26	198.15	15.40	-30.2	-33.0	13.1	3.50e-05	0	43	0	183500800	21	4984
2026-01-21 11:18:15.26	198.25	15.50	-30.2	-33.2	13.0	3.66e-05	0	43	0	185597952	21	5069
2026-01-21 11:18:16.26	198.35	15.60	-30.3	-33.4	12.9	4.95e-05	0	43	0	187695104	21	5128
2026-01-21 11:18:17.26	198.45	15.69	-30.2	-33.2	13.0	2.97e-05	0	43	0	189792256	21	5058
2026-01-21 11:18:18.26	198.55	15.79	-30.2	-33.1	13.1	3.05e-05	0	43	0	190840832	21	4995
2026-01-21 11:18:19.27	198.66	15.89	-30.2	-33.0	13.2	2.36e-05	0	43	0	192937984	21	4965
2026-01-21 11:18:20.27	198.76	15.99	-30.2	-33.1	13.2	3.28e-05	0	43	0	195035136	21	5002
2026-01-21 11:18:21.28	198.87	16.09	-30.3	-33.2	13.0	3.66e-05	0	43	0	197132288	21	5063
2026-01-21 11:18:22.29	198.97	16.19	-30.3	-33.3	13.0	4.42e-05	0	43	0	199229440	21	5094
2026-01-21 11:18:23.30	199.08	16.29	-30.3	-33.2	13.1	3.35e-05	0	43	0	200278016	21	5048
2026-01-21 11:18:24.30	199.19	16.39	-30.2	-33.1	13.1	2.74e-05	0	43	0	202375168	21	5023
2026-01-21 11:18:25.30	199.30	16.49	-30.3	-33.2	13.1	2.67e-05	0	43	0	204472320	21	5058
2026-01-21 11:18:26.31	199.40	16.59	-30.3	-33.3	13.1	2.97e-05	0	43	0	206569472	21	5067
2026-01-21 11:18:27.31	199.51	16.69	-30.3	-33.2	13.1	2.97e-05	0	43	0	208666624	21	5047
2026-01-21 11:18:28.31	199.62	16.79	-30.3	-33.3	13.0	2.67e-05	0	43	0	209715200	21	5071
2026-01-21 11:18:29.30	199.73	16.89	-30.3	-33.3	13.0	4.50e-05	0	43	0	211812352	21	5084
2026-01-21 11:18:30.30	199.84	16.99	-30.2	-33.1	13.2	2.89e-05	0	43	0	213909504	21	5000
2026-01-21 11:18:31.29	199.95	17.09	-30.2	-32.9	13.3	1.29e-05	0	43	0	216006656	21	4923
2026-01-21 11:18:32.29	200.06	17.20	-30.2	-32.9	13.3	1.90e-05	0	43	0	217055232	21	4920
2026-01-21 11:18:33.29	200.18	17.30	-30.1	-32.8	13.4	1.60e-05	0	43	0	219152384	21	4889
2026-01-21 11:18:34.29	200.29	17.40	-30.2	-32.9	13.3	2.36e-05	0	43	0	221249536	21	4924
2026-01-21 11:18:35.29	200.41	17.50	-30.1	-32.7	13.5	1.52e-05	0	43	0	223346688	21	4853
2026-01-21 11:18:36.29	200.52	17.61	-30.0	-32.3	13.7	8.30e-06	0	43	0	225443840	21	4739
2026-01-21 11:18:37.30	200.64	17.71	-30.0	-32.4	13.6	9.10e-06	0	43	0	226492416	21	4754
2026-01-21 11:18:38.30	200.76	17.82	-30.0	-32.4	13.6	3.80e-06	0	43	0	228589568	21	4762
2026-01-21 11:18:39.31	200.87	17.92	-30.0	-32.6	13.5	1.22e-05	0	43	0	230686720	21	4832
2026-01-21 11:18:40.31	200.99	18.03	-30.0	-32.5	13.6	7.60e-06	0	43	0	232783872	21	4789
2026-01-21 11:18:41.31	201.11	18.13	-30.0	-32.5	13.6	6.10e-06	0	43	0	234881024	21	4794
2026-01-21 11:18:42.32	201.23	18.24	-30.1	-32.6	13.5	8.30e-06	0	43	0	235929600	21	4844
2026-01-21 11:18:43.32	201.35	18.34	-30.1	-32.8	13.4	1.67e-05	0	43	0	238026752	21	4915
2026-01-21 11:18:44.33	201.48	18.45	-30.1	-32.7	13.5	1.22e-05	0	43	0	240123904	21	4856
2026-01-21 11:18:45.33	201.60	18.56	-30.1	-32.6	13.6	8.30e-06	0	43	0	242221056	21	4815
2026-01-21 11:18:46.33	201.72	18.67	-30.1	-32.8	13.5	7.60e-06	0	43	0	244318208	21	4878
2026-01-21 11:18:47.33	201.85	18.77	-30.1	-32.6	13.5	9.90e-06	0	43	0	245366784	21	4835
2026-01-21 11:18:48.33	201.97	18.88	-30.2	-32.9	13.4	1.67e-05	0	43	0	247463936	21	4939
2026-01-21 11:18:49.33	202.10	18.99	-30.2	-33.1	13.3	1.75e-05	0	43	0	249561088	21	4984
2026-01-21 11:18:50.34	202.22	19.10	-30.1	-32.8	13.5	1.06e-05	0	43	0	251658240	21	4880
2026-01-21 11:18:51.34	202.35	19.21	-30.2	-32.9	13.4	1.29e-05	0	43	0	253755392	21	4924
2026-01-21 11:18:52.34	202.48	19.31	-30.1	-32.8	13.5	8.30e-06	0	43	0	254803968	21	4876
2026-01-21 11:18:53.34	202.61	19.42	-30.3	-33.1	13.3	1.60e-05	0	43	0	256901120	21	4983
2026-01-21 11:18:54.34	202.74	19.53	-30.3	-33.2	13.2	2.28e-05	0	43	0	258998272	21	5039
2026-01-21 11:18:55.34	202.87	19.64	-30.3	-33.2	13.3	1.22e-05	0	43	0	261095424	21	5019
2026-01-21 11:18:56.34	203.00	19.75	-30.4	-33.5	13.1	2.44e-05	0	43	0	262144000	21	5163
2026-01-21 11:18:57.35	203.14	19.86	-30.4	-33.6	13.0	2.59e-05	0	43	0	264241152	21	5170
2026-01-21 11:18:58.35	203.27	19.98	-30.5	-33.8	12.9	4.11e-05	0	43	0	266338304	21	5249
2026-01-21 11:18:59.35	203.41	20.09	-30.4	-33.6	13.0	5.03e-05	0	43	0	268435456	21	5170
2026-01-21 11:19:00.35	203.54	20.20	-30.5	-33.8	12.9	4.42e-05	0	43	0	270532608	21	5249
2026-01-21 11:19:01.36	203.68	20.31	-30.5	-33.7	13.0	5.79e-05	0	43	0	271581184	21	5213
2026-01-21 11:19:02.37	203.82	20.42	-30.4	-33.6	13.0	4.11e-05	0	43	0	273678336	21	5176
2026-01-21 11:19:03.37	203.96	20.54	-30.5	-33.6	13.0	5.11e-05	0	43	0	275775488	21	5196
2026-01-21 11:19:04.37	204.10	20.65	-30.4	-33.5	13.1	3.05e-05	0	43	0	277872640	21	5140
2026-01-21 11:19:05.37	204.24	20.76	-30.3	-33.5	12.9	3.35e-05	0	43	0	279969792	21	5165
2026-01-21 11:19:06.38	204.38	20.88	-30.3	-33.4	13.0	2.97e-03	0	43	0	281018368	21	5141
2026-01-21 11:19:07.38	204.52	20.99	-30.4	-33.5	12.9	3.94e-03	0	43	0	283115520	21	5179
2026-01-21 11:19:08.39	204.67	21.11	-30.4	-33.5	12.9	5.50e-03	0	43	0	285212672	21	5184
2026-01-21 11:19:09.39	204.81	21.22	-30.4	-33.6	12.8	5.41e-03	0	43	0	287309824	21	5229
2026-01-21 11:19:10.40	204.96	21.34	-30.5	-33.9	12.7	6.24e-03	0	43	0	289406976	21	5324
2026-01-21 11:19:11.40	205.11	21.45	-30.3	-33.5	12.9	5.54e-03	0	43	0	290455552	21	5183
2026-01-21 11:19:12.41	205.26	21.57	-30.4	-33.5	13.0	4.21e-03	0	43	0	292552704	21	5152
2026-01-21 11:19:13.42	205.41	21.69	-30.4	-33.6	13.0	2.72e-03	0	43	0	294649856	21	5187
2026-01-21 11:19:14.42	205.56	21.80	-30.4	-33.5	13.1	2.08e-04	0	43	0	296747008	21	5177
2026-01-21 11:19:15.42	205.71	21.92	-30.4	-33.6	12.9	1.71e-03	0	43	0	298844160	21	5215
2026-01-21 11:19:16.42	205.86	22.04	-30.4	-33.7	12.8	6.30e-03	0	43	0	299892736	21	5285
2026-01-21 11:19:17.43	206.02	22.16	-30.3	-33.7	12.8	7.34e-03	0	43	0	301989888	21	5279
2026-01-21 11:19:18.43	206.17	22.27	-30.4	-33.3	13.3	6.94e-03	0	43	0	304087040	21	5078
2026-01-21 11:19:19.43	206.33	22.39	-30.3	-33.3	13.3	2.05e-05	0	43	0	306184192	21	5048
2026-01-21 11:19:20.44	206.49	22.51	-30.3	-33.3	13.4	1.67e-05	0	43	0	308281344	21	5035
2026-01-21 11:19:21.44	206.64	22.63	-30.4	-33.4	13.3	2.05e-05	0	43	0	309329920	21	5077
2026-01-21 11:19:22.43	206.80	22.75	-30.4	-33.4	13.2	2.51e-05	0	43	0	311427072	21	5110
2026-01-21 11:19:23.44	206.96	22.87	-30.4	-33.5	13.2	1.90e-05	0	43	0	313524224	21	5112
2026-01-21 11:19:24.44	207.12	22.99	-30.5	-33.6	13.1	2.28e-05	0	43	0	315621376	21	5174
2026-01-21 11:19:25.44	207.29	23.11	-30.6	-33.9	12.9	2.51e-05	0	43	0	317718528	21	5292
2026-01-21 11:19:26.44	207.45	23.23	-30.7	-34.2	12.7	6.63e-05	0	43	0	318767104	21	5389
2026-01-21 11:19:27.44	207.62	23.35	-30.7	-34.2	12.8	5.26e-05	0	43	0	320864256	21	5392
2026-01-21 11:19:28.45	207.79	23.47	-30.7	-34.3	12.7	7.62e-05	0	43	0	322961408	21	5426
2026-01-21 11:19:29.45	207.95	23.59	-30.6	-34.1	12.8	6.63e-05	0	43	0	325058560	21	5358
2026-01-21 11:19:30.45	208.12	23.71	-30.5	-33.8	13.0	3.20e-05	0	43	0	326107136	21	5240
2026-01-21 11:19:31.46	208.29	23.84	-30.6	-33.8	13.0	3.50e-05	0	43	0	328204288	21	5251
2026-01-21 11:19:32.47	208.47	23.96	-30.5	-33.7	13.1	3.50e-05	0	43	0	330301440	21	5218
2026-01-21 11:19:33.47	208.64	24.08	-30.6	-34.1	12.9	4.27e-05	0	43	0	332398592	21	5342
2026-01-21 11:19:34.47	208.82	24.21	-30.6	-34.0	12.9	6.63e-05	0	44	0	334495744	21	5318
2026-01-21 11:19:35.47	208.99	24.33	-30.5	-33.8	13.1	4.04e-05	0	43	0	335544320	21	5224
2026-01-21 11:19:36.47	209.17	24.45	-30.5	-33.7	13.1	2.44e-05	0	43	0	337641472	21	5214
2026-01-21 11:19:37.48	209.35	24.58	-30.5	-33.8	13.1	2.67e-05	0	43	0	339738624	21	5220
2026-01-21 11:19:38.48	209.53	24.70	-30.6	-33.9	13.0	4.50e-05	0	43	0	341835776	21	5265
2026-01-21 11:19:39.48	209.71	24.83	-30.5	-33.8	13.1	4.95e-05	0	43	0	343932928	21	5215
2026-01-21 11:19:40.49	209.89	24.95	-30.6	-33.8	13.0	1.33e-04	0	44	0	344981504	21	5251
2026-01-21 11:19:41.49	210.08	25.08	-30.6	-34.0	12.9	5.63e-04	0	43	0	347078656	21	5325
2026-01-21 11:19:42.50	210.26	25.20	-30.6	-34.1	12.8	1.57e-03	0	43	0	349175808	21	5353
2026-01-21 11:19:43.50	210.45	25.33	-30.6	-34.0	12.8	1.99e-03	0	43	0	351272960	21	5329
2026-01-21 11:19:44.51	210.64	25.46	-30.6	-33.9	12.9	1.34e-03	0	43	0	353370112	21	5270
2026-01-21 11:19:45.51	210.83	25.58	-30.6	-34.1	12.8	9.45e-04	0	43	0	354418688	21	5345
2026-01-21 11:19:46.52	211.03	25.71	-30.7	-34.1	12.8	8.44e-04	0	43	0	356515840	21	5371
2026-01-21 11:19:47.53	211.22	25.84	-30.7	-34.2	12.8	2.53e-04	0	43	0	358612992	21	5395
2026-01-21 11:19:48.53	211.41	25.97	-30.7	-34.4	12.7	1.42e-04	0	43	0	360710144	21	5463
2026-01-21 11:19:49.53	211.61	26.09	-30.8	-34.5	12.6	8.39e-05	0	43	0	362807296	21	5516
2026-01-21 11:19:50.53	211.81	26.22	-30.9	-34.7	12.5	1.30e-04	0	43	0	363855872	21	5576
2026-01-21 11:19:51.53	212.01	26.35	-30.8	-34.6	12.6	1.17e-04	0	43	0	365953024	21	5541
2026-01-21 11:19:52.54	212.21	26.48	-30.9	-34.6	12.6	9.68e-05	0	43	0	368050176	21	5559
2026-01-21 11:19:53.54	212.41	26.61	-30.9	-34.7	12.5	1.18e-04	0	43	0	370147328	21	5611
2026-01-21 11:19:54.54	212.61	26.73	-30.8	-34.6	12.6	8.46e-05	0	43	0	372244480	21	5535
2026-01-21 11:19:55.55	212.82	26.86	-30.9	-34.7	12.6	7.85e-05	0	43	0	373293056	21	5590
2026-01-21 11:19:56.55	213.03	26.99	-30.9	-34.7	12.5	1.14e-04	0	43	0	375390208	21	5603
2026-01-21 11:19:57.55	213.24	27.12	-30.9	-34.8	12.4	1.19e-04	0	43	0	377487360	21	5647
2026-01-21 11:19:58.55	213.45	27.25	-30.9	-34.8	12.5	1.51e-04	0	43	0	379584512	21	5625
2026-01-21 11:19:59.56	213.66	27.38	-30.9	-34.8	12.5	1.04e-04	0	43	0	381681664	21	5646
2026-01-21 11:20:00.56	213.88	27.51	-30.9	-34.7	12.6	1.23e-04	0	43	0	382730240	21	5580
2026-01-21 11:20:01.56	214.09	27.64	-30.8	-34.5	12.7	7.62e-05	0	43	0	384827392	21	5512
2026-01-21 11:20:02.56	214.31	27.77	-30.9	-34.7	12.6	7.32e-05	0	43	0	386924544	21	5573
2026-01-21 11:20:03.56	214.53	27.90	-30.9	-34.8	12.6	8.85e-05	0	43	0	389021696	21	5625
2026-01-21 11:20:04.57	214.75	28.03	-31.0	-34.6	12.4	1.65e-04	0	44	0	391118848	22	5426
2026-01-21 11:20:05.57	214.97	28.16	-31.0	-34.7	12.3	1.86e-04	0	43	0	392167424	22	5465
2026-01-21 11:20:06.57	215.20	28.29	-31.1	-34.8	12.2	2.43e-04	0	43	0	394264576	22	5520
2026-01-21 11:20:07.58	215.42	28.43	-31.1	-34.9	12.1	2.39e-04	0	44	0	396361728	22	5574
2026-01-21 11:20:08.58	215.65	28.56	-31.2	-35.0	12.0	3.19e-04	0	43	0	398458880	22	5627
2026-01-21 11:20:09.58	215.88	28.69	-31.2	-35.1	12.0	2.95e-04	0	44	0	399507456	22	5636
2026-01-21 11:20:10.59	216.11	28.82	-31.3	-35.3	11.8	4.07e-04	0	43	0	401604608	22	5758
2026-01-21 11:20:11.59	216.35	28.95	-31.2	-35.2	11.9	6.35e-04	0	43	0	403701760	22	5705
2026-01-21 11:20:12.59	216.58	29.08	-31.2	-35.0	12.0	3.56e-04	0	43	0	405798912	22	5603
2026-01-21 11:20:13.60	216.82	29.22	-31.2	-35.2	11.9	3.84e-04	0	43	0	407896064	22	5696
2026-01-21 11:20:14.60	217.06	29.35	-31.3	-35.4	11.7	1.04e-03	0	43	0	408944640	22	5781
2026-01-21 11:20:15.60	217.30	29.48	-31.3	-35.5	11.7	2.14e-03	0	43	0	411041792	22	5814
2026-01-21 11:20:16.61	217.55	29.61	-31.4	-35.7	11.5	2.06e-03	0	43	0	413138944	22	5924
2026-01-21 11:20:17.61	217.79	29.75	-31.4	-35.4	11.4	1.86e-03	0	43	0	415236096	23	5665
2026-01-21 11:20:18.61	218.04	29.88	-31.3	-35.0	11.7	7.70e-04	0	44	0	417333248	23	5478
2026-01-21 11:20:19.62	218.29	30.01	-31.3	-34.9	11.8	5.72e-04	0	43	0	418381824	23	5424
2026-01-21 11:20:20.62	218.54	30.14	-31.3	-34.8	11.9	4.00e-04	0	43	0	420478976	23	5381
2026-01-21 11:20:21.62	218.79	30.28	-31.3	-34.9	11.8	4.13e-04	0	44	0	422576128	23	5461
2026-01-21 11:20:22.63	219.05	30.41	-31.3	-34.8	12.0	3.70e-04	0	43	0	424673280	23	5373
2026-01-21 11:20:23.63	219.31	30.54	-31.3	-34.9	11.8	4.24e-04	0	43	0	426770432	23	5430
2026-01-21 11:20:24.63	219.57	30.67	-31.3	-34.8	11.9	3.46e-04	0	44	0	427819008	23	5385
2026-01-21 11:20:25.63	219.83	30.81	-31.2	-34.7	12.0	3.58e-04	0	44	0	429916160	23	5346
2026-01-21 11:20:26.63	220.09	30.94	-31.3	-34.9	11.9	3.10e-04	0	43	0	432013312	23	5441
2026-01-21 11:20:27.63	220.36	31.07	-31.4	-35.2	11.6	4.12e-04	0	43	0	434110464	23	5557
2026-01-21 11:20:28.64	220.63	31.20	-31.4	-35.1	11.8	7.49e-04	0	43	0	436207616	23	5512
2026-01-21 11:20:29.64	220.90	31.33	-31.3	-34.7	12.0	4.19e-04	0	43	0	437256192	23	5359
2026-01-21 11:20:30.65	221.17	31.47	-31.3	-34.7	12.0	2.78e-04	0	43	0	439353344	23	5357
2026-01-21 11:20:31.65	221.44	31.60	-31.4	-35.0	11.8	4.45e-04	0	43	0	441450496	23	5487
2026-01-21 11:20:32.66	221.72	31.73	-31.5	-35.3	11.5	6.99e-04	0	43	0	443547648	23	5613
2026-01-21 11:20:33.66	222.00	31.86	-31.5	-35.5	11.4	9.80e-04	0	43	0	444596224	23	5697
2026-01-21 11:20:34.66	222.28	31.99	-31.6	-35.7	11.3	1.11e-03	0	43	0	446693376	23	5809
2026-01-21 11:20:35.68	222.57	32.13	-31.5	-35.6	11.3	1.04e-03	0	43	0	448790528	23	5761
2026-01-21 11:20:36.68	222.86	32.26	-31.5	-35.6	11.4	1.27e-03	0	43	0	450887680	23	5754
2026-01-21 11:20:37.68	223.14	32.39	-31.5	-35.6	11.4	9.10e-04	0	43	0	452984832	23	5726
2026-01-21 11:20:38.67	223.43	32.52	-31.6	-35.7	11.3	1.05e-03	0	44	0	454033408	23	5808
2026-01-21 11:20:39.68	223.72	32.65	-31.7	-36.1	11.0	1.83e-03	0	43	0	456130560	23	5975
2026-01-21 11:20:40.68	224.02	32.78	-31.8	-36.4	10.8	2.50e-03	0	44	0	458227712	23	6143
2026-01-21 11:20:41.68	224.31	32.91	-31.8	-36.6	10.7	3.40e-03	0	44	0	460324864	23	6224
2026-01-21 11:20:42.69	224.62	33.04	-31.8	-36.6	10.6	3.34e-03	0	43	0	462422016	23	6251
2026-01-21 11:20:43.69	224.92	33.17	-32.0	-37.1	10.2	4.02e-03	0	44	0	463470592	23	6516
2026-01-21 11:20:44.70	225.22	33.30	-32.1	-37.0	10.0	6.48e-03	0	44	0	465567744	24	6317
2026-01-21 11:20:45.70	225.53	33.43	-32.1	-37.1	9.9	9.36e-03	0	43	0	467664896	24	6362
2026-01-21 11:20:46.70	225.84	33.55	-32.1	-37.0	10.0	8.56e-03	0	44	0	469762048	24	6324
2026-01-21 11:20:47.71	226.15	33.68	-32.2	-37.5	9.6	9.99e-03	0	43	0	471859200	24	6628
2026-01-21 11:20:48.71	226.46	33.81	-32.2	-37.6	9.6	1.46e-02	0	44	0	472907776	24	6637
2026-01-21 11:20:49.71	226.78	33.94	-32.2	-37.3	9.7	1.11e-02	0	44	0	475004928	24	6487
2026-01-21 11:20:50.70	227.09	34.06	-32.2	-37.3	9.7	1.01e-02	0	43	0	477102080	24	6505
2026-01-21 11:20:51.70	227.41	34.19	-32.4	-38.1	9.1	1.33e-02	0	43	0	479199232	24	6925
2026-01-21 11:20:52.71	227.74	34.31	-32.3	-37.9	9.2	2.30e-02	0	43	0	481296384	24	6856
2026-01-21 11:20:53.72	228.07	34.44	-32.4	-38.3	9.0	2.46e-02	0	44	0	482344960	24	7106
2026-01-21 11:20:54.72	228.40	34.56	-32.5	-38.3	8.6	2.95e-02	0	43	0	484442112	25	7014
2026-01-21 11:20:55.73	228.73	34.69	-32.5	-38.1	8.7	3.87e-02	0	43	0	486539264	25	6899
2026-01-21 11:20:56.73	229.06	34.81	-32.3	-37.4	9.3	2.47e-02	0	43	0	488636416	25	6458
2026-01-21 11:20:57.73	229.40	34.94	-32.1	-36.6	9.9	1.34e-02	0	43	0	490733568	25	6049
2026-01-21 11:20:58.74	229.74	35.06	-32.1	-36.4	10.1	6.92e-03	0	44	0	491782144	25	5922
2026-01-21 11:20:59.75	230.08	35.18	-32.1	-36.4	10.1	7.38e-03	0	44	0	493879296	25	5939
2026-01-21 11:21:00.75	230.42	35.30	-32.1	-36.6	9.9	8.53e-03	0	43	0	495976448	25	6052
2026-01-21 11:21:01.75	230.77	35.42	-32.1	-36.7	9.9	9.39e-03	0	44	0	498073600	25	6060
2026-01-21 11:21:02.74	231.11	35.54	-32.2	-37.0	9.6	1.13e-02	0	43	0	499122176	25	6260
2026-01-21 11:21:03.75	231.47	35.66	-32.2	-37.1	9.6	1.33e-02	0	43	0	501219328	25	6271
2026-01-21 11:21:04.75	231.82	35.78	-32.3	-37.1	9.5	1.27e-02	0	44	0	503316480	25	6302
2026-01-21 11:21:05.76	232.18	35.90	-32.2	-37.0	9.6	1.14e-02	0	44	0	505413632	25	6248
2026-01-21 11:21:06.76	232.54	36.01	-32.1	-36.6	9.9	1.15e-02	0	44	0	507510784	25	5998
2026-01-21 11:21:07.75	232.89	36.13	-32.0	-36.1	10.4	6.94e-03	0	44	0	508559360	25	5763
2026-01-21 11:21:08.76	233.26	36.24	-32.0	-35.9	10.5	3.73e-03	0	44	0	510656512	25	5648
2026-01-21 11:21:09.76	233.62	36.36	-31.9	-35.7	10.7	3.43e-03	0	44	0	512753664	25	5565
2026-01-21 11:21:10.77	234.00	36.47	-32.0	-36.1	10.4	3.53e-03	0	43	0	514850816	25	5736
2026-01-21 11:21:11.77	234.37	36.58	-31.9	-35.7	10.6	3.52e-03	0	44	0	516947968	25	5574
2026-01-21 11:21:12.77	234.74	36.69	-32.0	-35.9	10.6	3.53e-03	0	44	0	517996544	25	5643
2026-01-21 11:21:13.78	235.12	36.81	-32.1	-36.4	10.2	3.84e-03	0	43	0	520093696	25	5894
2026-01-21 11:21:14.78	235.49	36.92	-32.2	-36.6	10.0	7.50e-03	0	44	0	522190848	25	5999
2026-01-21 11:21:15.78	235.87	37.02	-32.2	-36.5	10.1	6.62e-03	0	44	0	524288000	25	5925
2026-01-21 11:21:16.78	236.26	37.13	-32.1	-36.2	10.3	6.12e-03	0	44	0	526385152	25	5788
2026-01-21 11:21:17.78	236.64	37.24	-31.9	-35.6	10.8	3.38e-03	0	44	0	527433728	25	5506
2026-01-21 11:21:18.78	237.03	37.34	-31.7	-35.5	11.3	1.42e-03	0	44	0	529530880	24	5555
2026-01-21 11:21:19.79	237.42	37.45	-31.7	-35.3	11.3	1.04e-03	0	44	0	531628032	24	5494
2026-01-21 11:21:20.78	237.81	37.55	-31.6	-35.1	11.4	1.01e-03	0	44	0	533725184	24	5393
2026-01-21 11:21:21.78	238.21	37.65	-31.6	-35.2	11.4	7.74e-04	0	44	0	535822336	24	5445
2026-01-21 11:21:22.78	238.60	37.75	-31.7	-35.4	11.3	1.07e-03	0	44	0	536870912	24	5505
2026-01-21 11:21:23.79	239.01	37.85	-31.8	-35.6	11.1	1.34e-03	0	44	0	538968064	24	5614
2026-01-21 11:21:24.79	239.41	37.95	-31.7	-35.6	11.2	1.37e-03	0	44	0	541065216	24	5602
2026-01-21 11:21:25.78	239.81	38.04	-31.7	-35.5	11.2	1.41e-03	0	44	0	543162368	24	5576
2026-01-21 11:21:26.79	240.22	38.14	-31.7	-35.4	11.2	1.35e-03	0	44	0	545259520	24	5530
2026-01-21 11:21:27.79	240.63	38.23	-31.8	-35.6	11.1	1.50e-03	0	44	0	546308096	24	5627
2026-01-21 11:21:28.80	241.05	38.33	-31.8	-35.7	11.0	2.70e-03	0	44	0	548405248	24	5674
2026-01-21 11:21:29.80	241.46	38.42	-31.8	-35.6	11.1	2.10e-03	0	44	0	550502400	24	5624
2026-01-21 11:21:30.81	241.88	38.51	-31.8	-35.8	11.0	3.22e-03	0	44	0	552599552	24	5674
2026-01-21 11:21:31.81	242.30	38.60	-32.0	-36.4	10.5	3.60e-03	0	44	0	553648128	24	5994
2026-01-21 11:21:32.81	242.72	38.68	-31.9	-36.2	10.7	4.58e-03	0	44	0	555745280	24	5906
2026-01-21 11:21:33.82	243.14	38.77	-32.0	-36.4	10.5	5.14e-03	0	43	0	557842432	24	5979
2026-01-21 11:21:34.82	243.57	38.85	-31.9	-36.1	10.7	4.87e-03	0	44	0	559939584	24	5852
2026-01-21 11:21:35.83	244.00	38.93	-32.0	-36.5	10.5	4.73e-03	0	44	0	562036736	24	6057
2026-01-21 11:21:36.83	244.43	39.01	-32.0	-36.5	10.4	6.23e-03	0	43	0	563085312	24	6056
2026-01-21 11:21:37.84	244.86	39.09	-32.0	-36.5	10.5	5.42e-03	0	44	0	565182464	24	6019
2026-01-21 11:21:38.84	245.30	39.17	-32.0	-36.5	10.5	4.94e-03	0	44	0	567279616	24	6047
2026-01-21 11:21:39.85	245.74	39.25	-32.1	-36.8	10.2	7.72e-03	0	44	0	569376768	24	6206
2026-01-21 11:21:40.85	246.17	39.32	-32.0	-36.7	10.3	7.87e-03	0	44	0	571473920	24	6140
2026-01-21 11:21:41.85	246.61	39.39	-31.8	-36.0	10.8	4.58e-03	0	44	0	572522496	24	5815
2026-01-21 11:21:42.86	247.06	39.47	-31.6	-35.4	11.2	5.65e-03	0	44	0	574619648	24	5536
2026-01-21 11:21:43.86	247.50	39.53	-31.7	-35.3	11.5	8.42e-04	0	43	0	576716800	24	5447
2026-01-21 11:21:44.86	247.95	39.60	-31.7	-35.2	11.5	7.69e-04	0	44	0	578813952	24	5415
2026-01-21 11:21:45.87	248.40	39.67	-31.9	-35.9	11.0	1.57e-03	0	44	0	580911104	24	5705
2026-01-21 11:21:46.87	248.85	39.73	-31.8	-35.6	11.2	1.71e-03	0	44	0	581959680	24	5596
2026-01-21 11:21:47.88	249.30	39.79	-31.7	-35.4	11.4	1.34e-03	0	44	0	584056832	24	5497
2026-01-21 11:21:48.89	249.76	39.85	-31.7	-35.3	11.4	9.78e-04	0	44	0	586153984	24	5466
2026-01-21 11:21:49.89	250.21	39.91	-31.4	-34.3	12.2	3.22e-04	0	44	0	588251136	24	5070
2026-01-21 11:21:50.90	250.67	39.97	-31.1	-34.0	12.7	1.20e-04	0	44	0	590348288	23	5021
2026-01-21 11:21:51.90	251.12	40.02	-31.2	-34.3	12.5	9.15e-05	0	44	0	591396864	23	5138
2026-01-21 11:21:52.90	251.58	40.07	-31.6	-35.6	11.7	4.26e-04	0	44	0	593494016	23	5693
2026-01-21 11:21:53.91	252.05	40.12	-32.0	-36.3	10.7	1.86e-03	0	44	0	595591168	24	5929
2026-01-21 11:21:54.91	252.51	40.17	-32.0	-36.5	10.6	3.18e-03	0	44	0	597688320	24	5993
2026-01-21 11:21:55.92	252.97	40.22	-31.9	-35.8	11.1	1.93e-03	0	44	0	599785472	24	5691
2026-01-21 11:21:56.92	253.44	40.26	-31.6	-35.0	11.6	8.10e-04	0	44	0	600834048	24	5344
2026-01-21 11:21:57.92	253.90	40.31	-31.6	-35.0	11.7	5.09e-04	0	44	0	602931200	24	5343
2026-01-21 11:21:58.93	254.37	40.35	-31.3	-34.2	12.2	3.79e-04	0	44	0	605028352	24	5006
2026-01-21 11:21:59.93	254.84	40.38	-31.5	-34.8	11.8	2.81e-04	0	44	0	607125504	24	5225
2026-01-21 11:22:00.93	255.31	40.42	-31.7	-35.3	11.5	5.90e-04	0	44	0	609222656	24	5442
2026-01-21 11:22:01.93	255.77	40.45	-32.2	-36.8	10.4	1.83e-03	0	44	0	610271232	24	6165
2026-01-21 11:22:02.94	256.25	40.49	-32.3	-37.4	9.9	8.36e-03	0	44	0	612368384	24	6481
2026-01-21 11:22:03.94	256.72	40.52	-32.5	-37.9	9.6	1.20e-02	0	44	0	614465536	24	6746
2026-01-21 11:22:04.94	257.19	40.54	-32.2	-37.0	10.3	1.04e-02	0	43	0	616562688	24	6243
2026-01-21 11:22:05.95	257.67	40.57	-32.0	-36.2	10.8	3.80e-03	0	44	0	618659840	24	5853
2026-01-21 11:22:06.96	258.14	40.59	-31.9	-35.9	11.0	2.44e-03	0	44	0	619708416	24	5731
2026-01-21 11:22:07.96	258.62	40.61	-32.1	-36.6	10.5	2.49e-03	0	43	0	621805568	24	6047
2026-01-21 11:22:08.96	259.09	40.63	-32.5	-37.9	9.6	6.02e-03	0	44	0	623902720	24	6728
2026-01-21 11:22:09.96	259.57	40.65	-32.7	-38.3	8.9	2.42e-02	0	43	0	625999872	25	6855
2026-01-21 11:22:10.96	260.04	40.67	-32.9	-39.4	8.1	4.86e-02	0	44	0	628097024	25	7577
2026-01-21 11:22:11.97	260.52	40.68	-32.9	-39.2	8.1	6.98e-02	0	44	0	629145600	25	7443
2026-01-21 11:22:12.97	261.00	40.69	-32.7	-38.3	8.9	3.66e-02	0	44	0	631242752	25	6874
2026-01-21 11:22:13.97	261.47	40.70	-32.5	-37.5	9.5	1.70e-02	0	44	0	633339904	25	6414
2026-01-21 11:22:14.96	261.94	40.70	-32.3	-36.9	9.9	1.22e-02	0	44	0	635437056	25	6113
2026-01-21 11:22:15.97	262.42	40.71	-32.2	-36.3	10.4	6.58e-03	0	44	0	636485632	25	5798
2026-01-21 11:22:16.97	262.90	40.71	-32.1	-36.1	10.5	3.20e-03	0	44	0	638582784	25	5731
2026-01-21 11:22:17.98	263.38	40.71	-32.2	-36.5	10.2	4.05e-03	0	44	0	640679936	25	5891
2026-01-21 11:22:18.98	263.86	40.71	-32.2	-36.4	10.3	5.09e-03	0	44	0	642777088	25	5871
2026-01-21 11:22:19.98	264.33	40.70	-32.4	-37.1	9.9	7.65e-03	0	44	0	644874240	25	6182
2026-01-21 11:22:20.99	264.81	40.69	-32.3	-36.7	10.1	7.96e-03	0	44	0	645922816	25	5982
2026-01-21 11:22:21.98	265.29	40.68	-32.1	-36.0	10.7	4.51e-03	0	44	0	648019968	25	5657
2026-01-21 11:22:22.99	265.77	40.67	-31.9	-35.4	11.1	2.29e-03	0	44	0	650117120	25	5387
2026-01-21 11:22:23.99	266.24	40.66	-32.0	-35.7	10.9	2.01e-03	0	44	0	652214272	25	5514
2026-01-21 11:22:24.99	266.71	40.64	-32.0	-35.6	11.0	1.88e-03	0	44	0	654311424	25	5480
2026-01-21 11:22:25.99	267.19	40.63	-32.3	-36.6	10.2	2.57e-03	0	44	0	655360000	25	5928
2026-01-21 11:22:26.99	267.66	40.61	-32.1	-36.1	10.6	4.77e-03	0	44	0	657457152	25	5681
2026-01-21 11:22:27.99	268.13	40.58	-31.7	-35.3	11.6	1.17e-03	0	44	0	659554304	24	5422
2026-01-21 11:22:28.99	268.61	40.56	-31.6	-35.0	11.7	5.32e-04	0	44	0	661651456	24	5324
2026-01-21 11:22:29.99	269.08	40.53	-31.6	-34.9	11.8	5.35e-04	0	44	0	663748608	24	5272
2026-01-21 11:22:31.00	269.55	40.51	-31.5	-34.8	11.8	3.58e-04	0	44	0	664797184	24	5242
2026-01-21 11:22:31.99	270.02	40.48	-31.6	-35.0	11.7	5.02e-04	0	44	0	666894336	24	5305
2026-01-21 11:22:33.00	270.49	40.44	-31.7	-35.3	11.5	5.60e-04	0	44	0	668991488	24	5462
2026-01-21 11:22:34.00	270.96	40.41	-31.7	-35.3	11.6	6.56e-04	0	44	0	671088640	24	5450
2026-01-21 11:22:35.01	271.43	40.37	-31.6	-35.1	11.7	7.32e-04	0	44	0	672137216	24	5346
2026-01-21 11:22:36.01	271.90	40.33	-31.7	-35.1	11.7	4.68e-04	0	44	0	674234368	24	5365
2026-01-21 11:22:37.01	272.36	40.29	-32.0	-36.1	11.0	1.24e-03	0	44	0	676331520	24	5818
2026-01-21 11:22:38.01	272.82	40.25	-32.0	-36.4	10.8	2.26e-03	0	44	0	678428672	24	5919
2026-01-21 11:22:39.01	273.29	40.20	-32.2	-36.9	10.4	3.50e-03	0	44	0	680525824	24	6193
2026-01-21 11:22:40.01	273.75	40.16	-32.3	-37.2	10.1	4.95e-03	0	44	0	681574400	24	6372
2026-01-21 11:22:41.01	274.21	40.11	-32.2	-37.0	10.2	5.47e-03	0	44	0	683671552	24	6262
2026-01-21 11:22:42.02	274.67	40.06	-32.2	-36.9	10.4	3.99e-03	0	43	0	685768704	24	6173
2026-01-21 11:22:43.02	275.13	40.00	-32.3	-37.4	10.0	6.15e-03	0	43	0	687865856	24	6463
2026-01-21 11:22:44.02	275.58	39.95	-32.5	-37.9	9.6	1.14e-02	0	44	0	689963008	24	6709
2026-01-21 11:22:45.03	276.04	39.89	-32.7	-38.3	8.9	2.25e-02	0	44	0	691011584	25	6860
2026-01-21 11:22:46.03	276.49	39.83	-32.6	-38.0	9.2	2.29e-02	0	43	0	693108736	25	6686
2026-01-21 11:22:47.03	276.94	39.77	-32.4	-37.1	9.8	1.12e-02	0	44	0	695205888	25	6208
2026-01-21 11:22:48.03	277.39	39.71	-32.1	-36.1	10.6	4.86e-03	0	44	0	697303040	25	5700
2026-01-21 11:22:49.04	277.84	39.65	-32.1	-35.9	10.7	2.43e-03	0	44	0	699400192	25	5622
2026-01-21 11:22:50.04	278.29	39.58	-32.2	-36.4	10.4	3.16e-03	0	43	0	700448768	25	5861
2026-01-21 11:22:51.05	278.73	39.51	-32.2	-36.5	10.3	5.12e-03	0	44	0	702545920	25	5881
2026-01-21 11:22:52.05	279.18	39.44	-32.1	-36.0	10.7	4.50e-03	0	44	0	704643072	25	5629
2026-01-21 11:22:53.05	279.61	39.37	-31.9	-35.4	11.1	1.98e-03	0	44	0	706740224	25	5382
2026-01-21 11:22:54.06	280.06	39.30	-32.1	-36.1	10.7	2.57e-03	0	44	0	708837376	25	5701
2026-01-21 11:22:55.06	280.49	39.22	-32.2	-36.6	10.3	4.17e-03	0	44	0	709885952	25	5915
2026-01-21 11:22:56.05	280.92	39.15	-32.7	-38.2	9.0	1.39e-02	0	44	0	711983104	25	6826
2026-01-21 11:22:57.05	281.35	39.07	-32.4	-37.1	9.8	2.07e-02	0	44	0	714080256	25	6183
2026-01-21 11:22:58.05	281.78	38.99	-32.0	-35.9	10.8	4.35e-03	0	44	0	716177408	25	5627
2026-01-21 11:22:59.06	282.21	38.91	-31.7	-35.4	11.4	1.57e-03	0	44	0	717225984	24	5511
2026-01-21 11:23:00.05	282.64	38.83	-31.8	-35.6	11.3	8.64e-04	0	44	0	719323136	24	5596
2026-01-21 11:23:01.06	283.06	38.74	-31.8	-35.6	11.3	9.69e-04	0	44	0	721420288	24	5573
2026-01-21 11:23:02.07	283.49	38.66	-32.1	-36.4	10.7	1.90e-03	0	44	0	723517440	24	5961
2026-01-21 11:23:03.07	283.91	38.57	-31.8	-35.7	11.2	2.29e-03	0	44	0	725614592	24	5623
2026-01-21 11:23:04.07	284.32	38.48	-31.6	-34.8	11.9	5.34e-04	0	44	0	726663168	24	5224
2026-01-21 11:23:05.07	284.74	38.39	-31.3	-34.1	12.4	2.07e-04	0	44	0	728760320	24	4941
2026-01-21 11:23:06.08	285.15	38.30	-31.3	-34.5	12.5	1.11e-04	0	44	0	730857472	23	5197
2026-01-21 11:23:07.09	285.57	38.21	-31.4	-34.8	12.2	1.46e-04	0	44	0	732954624	23	5348
2026-01-21 11:23:08.10	285.98	38.11	-31.6	-35.4	11.8	4.13e-04	0	44	0	735051776	23	5598
2026-01-21 11:23:09.10	286.38	38.02	-31.0	-33.6	13.0	1.73e-04	0	44	0	736100352	23	4883
2026-01-21 11:23:10.10	286.79	37.92	-30.2	-32.6	14.3	8.30e-06	0	44	0	738197504	21	4716
2026-01-21 11:23:11.11	287.19	37.82	-29.8	-31.6	14.9	0.00e+00	0	44	0	740294656	21	4414
2026-01-21 11:23:12.11	287.59	37.72	-29.8	-31.9	15.1	0.00e+00	0	44	0	742391808	20	4620
2026-01-21 11:23:13.12	287.99	37.62	-30.2	-32.9	14.5	0.00e+00	0	44	0	744488960	20	4945
2026-01-21 11:23:14.12	288.38	37.52	-30.5	-33.3	13.9	1.50e-06	0	44	0	745537536	21	4982
2026-01-21 11:23:15.12	288.77	37.42	-30.5	-33.4	13.8	2.20e-06	0	44	0	747634688	21	5025
2026-01-21 11:23:16.13	289.16	37.31	-30.3	-32.9	14.1	4.50e-06	0	44	0	749731840	21	4831
2026-01-21 11:23:17.13	289.55	37.21	-30.2	-32.5	14.4	1.50e-06	0	44	0	751828992	21	4711
2026-01-21 11:23:18.13	289.93	37.10	-30.4	-33.1	14.0	0.00e+00	0	44	0	753926144	21	4890
2026-01-21 11:23:19.13	290.31	37.00	-30.2	-32.6	14.4	2.20e-06	0	43	0	754974720	21	4733
2026-01-21 11:23:20.13	290.69	36.89	-30.2	-32.5	14.4	1.50e-06	0	44	0	757071872	21	4691
2026-01-21 11:23:21.13	291.06	36.78	-29.8	-31.9	15.1	0.00e+00	0	44	0	759169024	20	4612
2026-01-21 11:23:22.14	291.44	36.67	-29.5	-31.1	15.6	0.00e+00	0	44	0	761266176	20	4364
2026-01-21 11:23:23.15	291.82	36.56	-29.6	-31.4	15.4	0.00e+00	0	44	0	763363328	20	4444
2026-01-21 11:23:24.15	292.18	36.44	-30.0	-32.4	14.7	0.00e+00	0	44	0	764411904	20	4768
2026-01-21 11:23:25.15	292.55	36.33	-30.4	-33.5	14.1	7.00e-07	0	44	0	766509056	20	5151
2026-01-21 11:23:26.16	292.92	36.22	-30.8	-34.2	13.3	1.14e-05	0	44	0	768606208	21	5314
2026-01-21 11:23:27.16	293.28	36.10	-30.4	-33.1	14.0	1.22e-05	0	44	0	770703360	21	4901
2026-01-21 11:23:28.16	293.64	35.99	-29.9	-31.7	14.8	1.50e-06	0	44	0	772800512	21	4457
2026-01-21 11:23:29.17	293.99	35.87	-29.8	-31.9	15.1	0.00e+00	0	44	0	773849088	20	4617
2026-01-21 11:23:30.17	294.35	35.75	-30.0	-32.6	14.7	7.00e-07	0	44	0	775946240	20	4827
2026-01-21 11:23:31.17	294.70	35.64	-30.5	-33.3	13.8	2.20e-06	0	44	0	778043392	21	4991
2026-01-21 11:23:32.17	295.05	35.52	-31.1	-34.5	12.8	2.28e-05	0	44	0	780140544	22	5327
2026-01-21 11:23:33.17	295.39	35.40	-31.2	-34.9	12.6	1.06e-04	0	44	0	782237696	22	5474
2026-01-21 11:23:34.18	295.74	35.28	-30.8	-33.6	13.4	5.72e-05	0	44	0	783286272	22	4979
2026-01-21 11:23:35.18	296.08	35.16	-30.4	-32.4	14.1	7.00e-07	0	44	0	785383424	22	4579
2026-01-21 11:23:36.19	296.42	35.04	-30.3	-32.7	14.2	1.50e-06	0	44	0	787480576	21	4775
2026-01-21 11:23:37.20	296.76	34.91	-30.6	-33.7	13.6	7.00e-07	0	44	0	789577728	21	5118
2026-01-21 11:23:38.20	297.09	34.79	-30.9	-34.3	13.2	2.51e-05	0	44	0	790626304	21	5362
2026-01-21 11:23:39.21	297.43	34.67	-30.8	-34.1	13.4	2.74e-05	0	44	0	792723456	21	5261
2026-01-21 11:23:40.22	297.76	34.54	-30.2	-32.5	14.4	4.50e-06	0	44	0	794820608	21	4693
2026-01-21 11:23:41.22	298.08	34.42	-30.0	-31.9	14.8	0.00e+00	0	44	0	796917760	21	4497
2026-01-21 11:23:42.23	298.41	34.29	-30.0	-32.1	14.6	0.00e+00	0	44	0	799014912	21	4562
2026-01-21 11:23:43.23	298.73	34.17	-30.4	-33.1	14.0	0.00e+00	0	44	0	800063488	21	4900
2026-01-21 11:23:44.23	299.05	34.04	-31.0	-34.7	13.0	1.14e-05	0	44	0	802160640	21	5499
2026-01-21 11:23:45.24	299.37	33.92	-31.2	-34.8	12.6	9.38e-05	0	44	0	804257792	22	5432
2026-01-21 11:23:46.23	299.68	33.79	-31.1	-34.4	12.8	1.07e-04	0	44	0	806354944	22	5292
2026-01-21 11:23:47.24	299.99	33.66	-30.9	-33.9	13.1	4.80e-05	0	44	0	808452096	22	5106
2026-01-21 11:23:48.24	300.30	33.54	-30.9	-34.0	13.1	3.20e-05	0	44	0	809500672	22	5133
2026-01-21 11:23:49.25	300.61	33.41	-31.2	-34.8	12.5	7.78e-05	0	44	0	811597824	22	5454
2026-01-21 11:23:50.24	300.91	33.28	-31.5	-35.3	11.9	2.10e-04	0	44	0	813694976	23	5553
2026-01-21 11:23:51.24	301.21	33.15	-31.9	-36.3	11.1	7.41e-04	0	44	0	815792128	23	6032
2026-01-21 11:23:52.25	301.52	33.02	-31.9	-36.5	11.0	2.23e-03	0	44	0	817889280	23	6092
2026-01-21 11:23:53.26	301.82	32.89	-31.5	-35.3	11.8	9.87e-04	0	44	0	818937856	23	5543
2026-01-21 11:23:54.26	302.11	32.76	-31.2	-34.3	12.6	1.84e-04	0	44	0	821035008	23	5132
2026-01-21 11:23:55.26	302.40	32.64	-31.1	-34.1	12.7	7.93e-05	0	43	0	823132160	23	5058
2026-01-21 11:23:56.26	302.69	32.51	-31.5	-35.1	12.0	1.62e-04	0	44	0	825229312	23	5449
2026-01-21 11:23:57.27	302.98	32.38	-31.9	-36.4	11.0	6.35e-04	0	44	0	827326464	23	6076
2026-01-21 11:23:58.28	303.27	32.24	-32.2	-36.9	10.2	5.55e-03	0	44	0	828375040	24	6228
2026-01-21 11:23:59.28	303.55	32.11	-31.9	-36.1	10.9	4.17e-03	0	44	0	830472192	24	5822
2026-01-21 11:24:00.28	303.84	31.98	-31.3	-34.1	12.3	8.84e-04	0	44	0	832569344	24	4977
2026-01-21 11:24:01.29	304.12	31.85	-30.9	-33.5	13.1	6.79e-05	0	44	0	834666496	23	4829
2026-01-21 11:24:02.30	304.40	31.72	-30.9	-33.4	13.1	2.36e-05	0	44	0	836763648	23	4814
2026-01-21 11:24:03.30	304.67	31.59	-31.2	-34.4	12.4	6.40e-05	0	44	0	837812224	23	5178
2026-01-21 11:24:04.30	304.94	31.46	-31.7	-36.0	11.3	3.34e-04	0	44	0	839909376	23	5866
2026-01-21 11:24:05.31	305.22	31.33	-32.3	-37.3	9.9	5.55e-03	0	44	0	842006528	24	6454
2026-01-21 11:24:06.30	305.48	31.20	-32.4	-37.9	9.5	1.19e-02	0	44	0	844103680	24	6760
2026-01-21 11:24:07.31	305.75	31.07	-32.3	-37.3	10.0	1.21e-02	0	44	0	846200832	24	6425
2026-01-21 11:24:08.31	306.01	30.93	-32.0	-36.5	10.6	5.64e-03	0	44	0	847249408	24	5994
2026-01-21 11:24:09.31	306.27	30.80	-32.0	-36.2	10.8	2.88e-03	0	44	0	849346560	24	5874
2026-01-21 11:24:10.31	306.53	30.67	-32.1	-36.6	10.4	4.37e-03	0	44	0	851443712	24	6070
2026-01-21 11:24:11.32	306.79	30.54	-32.0	-36.4	10.6	3.55e-03	0	44	0	853540864	24	5986
2026-01-21 11:24:12.32	307.05	30.41	-32.3	-37.4	9.8	7.24e-03	0	44	0	855638016	24	6505
2026-01-21 11:24:13.33	307.31	30.28	-32.5	-37.9	9.1	1.84e-02	0	44	0	856686592	25	6664
2026-01-21 11:24:14.33	307.56	30.14	-32.3	-37.1	9.7	1.98e-02	0	44	0	858783744	25	6201
2026-01-21 11:24:15.34	307.81	30.01	-31.9	-35.6	10.8	3.80e-03	0	44	0	860880896	25	5504
2026-01-21 11:24:16.34	308.06	29.88	-31.5	-34.7	11.8	9.63e-04	0	44	0	862978048	24	5197
2026-01-21 11:24:17.35	308.30	29.75	-31.4	-34.4	12.0	3.36e-04	0	44	0	864026624	24	5090
2026-01-21 11:24:18.35	308.55	29.62	-31.5	-34.8	11.7	4.39e-04	0	44	0	866123776	24	5268
2026-01-21 11:24:19.35	308.79	29.49	-31.7	-35.2	11.4	5.68e-04	0	44	0	868220928	24	5447
2026-01-21 11:24:20.36	309.03	29.35	-32.1	-36.9	10.2	4.06e-03	0	44	0	870318080	24	6215
2026-01-21 11:24:21.36	309.27	29.22	-32.2	-37.1	10.0	5.64e-03	0	44	0	872415232	24	6347
2026-01-21 11:24:22.36	309.50	29.09	-32.2	-37.0	10.1	1.02e-02	0	44	0	874512384	24	6264
2026-01-21 11:24:23.37	309.74	28.96	-31.5	-34.7	11.8	1.86e-03	0	44	0	875560960	24	5211
2026-01-21 11:24:24.37	309.97	28.83	-30.8	-33.3	13.1	1.49e-04	0	44	0	877658112	23	4789
2026-01-21 11:24:25.37	310.20	28.70	-30.5	-32.8	13.7	9.90e-06	0	44	0	879755264	22	4717
2026-01-21 11:24:26.37	310.43	28.57	-30.4	-32.7	13.8	3.80e-06	0	44	0	881852416	22	4672
2026-01-21 11:24:27.38	310.66	28.44	-30.8	-33.7	13.2	8.30e-06	0	44	0	882900992	22	5050
2026-01-21 11:24:28.37	310.88	28.31	-31.2	-34.8	12.4	3.96e-05	0	44	0	884998144	22	5485
2026-01-21 11:24:29.38	311.11	28.18	-31.4	-35.5	11.9	4.12e-04	0	44	0	887095296	22	5792
2026-01-21 11:24:30.38	311.33	28.05	-31.2	-34.8	12.4	2.82e-04	0	44	0	889192448	22	5461
2026-01-21 11:24:31.38	311.55	27.92	-30.7	-33.5	13.3	8.92e-05	0	44	0	891289600	22	4960
2026-01-21 11:24:32.39	311.77	27.79	-30.3	-32.3	14.1	3.80e-06	0	44	0	892338176	22	4547
2026-01-21 11:24:33.39	311.98	27.66	-29.9	-31.9	14.6	0.00e+00	0	44	0	894435328	21	4511
2026-01-21 11:24:34.40	312.20	27.53	-29.8	-31.6	14.8	0.00e+00	0	44	0	896532480	21	4419
2026-01-21 11:24:35.40	312.41	27.40	-29.9	-31.9	14.6	0.00e+00	0	44	0	898629632	21	4508
2026-01-21 11:24:36.40	312.62	27.27	-30.1	-32.4	14.3	1.50e-06	0	44	0	900726784	21	4694
2026-01-21 11:24:37.39	312.83	27.15	-30.2	-32.7	14.1	1.50e-06	0	44	0	901775360	21	4777
2026-01-21 11:24:38.39	313.04	27.02	-30.3	-33.0	13.9	1.50e-06	0	44	0	903872512	21	4896
2026-01-21 11:24:39.40	313.24	26.89	-30.3	-32.9	13.9	6.80e-06	0	44	0	905969664	21	4853
2026-01-21 11:24:40.40	313.45	26.76	-29.8	-31.6	14.7	7.00e-07	0	44	0	908066816	21	4436
2026-01-21 11:24:41.40	313.65	26.63	-29.3	-30.9	15.5	0.00e+00	0	44	0	909115392	20	4306
2026-01-21 11:24:42.41	313.85	26.51	-29.1	-30.8	15.9	0.00e+00	0	44	0	911212544	19	4370
2026-01-21 11:24:43.41	314.05	26.38	-29.0	-30.6	16.0	0.00e+00	0	44	0	913309696	19	4336
2026-01-21 11:24:44.42	314.25	26.25	-29.2	-31.0	15.8	0.00e+00	0	44	0	915406848	19	4444
2026-01-21 11:24:45.43	314.45	26.12	-29.2	-31.1	15.7	0.00e+00	0	44	0	917504000	19	4460
2026-01-21 11:24:46.43	314.65	26.00	-29.6	-32.2	15.1	0.00e+00	0	44	0	919601152	19	4816
2026-01-21 11:24:47.44	314.84	25.87	-30.0	-32.6	14.4	7.00e-07	0	44	0	920649728	20	4856
2026-01-21 11:24:48.44	315.03	25.74	-30.2	-33.2	14.1	2.20e-06	0	44	0	922746880	20	5072
2026-01-21 11:24:49.45	315.23	25.62	-30.3	-33.4	13.9	4.50e-06	0	44	0	924844032	20	5166
2026-01-21 11:24:50.45	315.42	25.49	-30.0	-32.7	14.3	2.20e-06	0	44	0	926941184	20	4904
2026-01-21 11:24:51.46	315.60	25.37	-29.7	-31.9	14.8	0.00e+00	0	44	0	927989760	20	4642
2026-01-21 11:24:52.45	315.79	25.24	-29.5	-31.3	15.2	0.00e+00	0	44	0	930086912	20	4427
2026-01-21 11:24:53.45	315.97	25.12	-29.4	-31.1	15.3	0.00e+00	0	44	0	932184064	20	4366
2026-01-21 11:24:54.46	316.16	24.99	-29.4	-31.0	15.4	0.00e+00	0	44	0	934281216	20	4354
2026-01-21 11:24:55.46	316.34	24.87	-29.3	-31.3	15.6	0.00e+00	0	44	0	936378368	19	4525
2026-01-21 11:24:56.46	316.52	24.75	-29.5	-31.8	15.3	0.00e+00	0	44	0	937426944	19	4687
2026-01-21 11:24:57.47	316.70	24.62	-29.8	-32.6	14.8	0.00e+00	0	44	0	939524096	19	4970
2026-01-21 11:24:58.47	316.88	24.50	-29.9	-32.5	14.4	0.00e+00	0	44	0	941621248	20	4841
2026-01-21 11:24:59.47	317.06	24.38	-30.1	-32.9	14.2	2.20e-06	0	43	0	943718400	20	4973
2026-01-21 11:25:00.47	317.23	24.25	-29.9	-32.4	14.5	1.50e-06	0	44	0	945815552	20	4796
2026-01-21 11:25:01.48	317.41	24.13	-29.6	-31.7	14.9	0.00e+00	0	44	0	946864128	20	4571
2026-01-21 11:25:02.48	317.58	24.01	-29.4	-31.2	15.2	0.00e+00	0	44	0	948961280	20	4408
2026-01-21 11:25:03.49	317.75	23.89	-29.3	-31.0	15.4	0.00e+00	0	44	0	951058432	20	4344
2026-01-21 11:25:04.49	317.92	23.77	-29.4	-31.2	15.2	0.00e+00	0	44	0	953155584	20	4412
2026-01-21 11:25:05.49	318.09	23.64	-29.7	-31.8	14.8	0.00e+00	0	44	0	955252736	20	4602
2026-01-21 11:25:06.49	318.26	23.52	-29.8	-32.2	14.6	7.00e-07	0	44	0	956301312	20	4710
2026-01-21 11:25:07.50	318.42	23.40	-30.0	-32.7	14.3	0.00e+00	0	44	0	958398464	20	4895
2026-01-21 11:25:08.50	318.59	23.28	-30.3	-33.4	13.8	1.50e-06	0	44	0	960495616	20	5165
2026-01-21 11:25:09.50	318.75	23.16	-30.5	-33.6	13.4	9.10e-06	0	44	0	962592768	21	5111
2026-01-21 11:25:10.51	318.92	23.04	-30.7	-34.0	13.1	3.50e-05	0	44	0	964689920	21	5287
2026-01-21 11:25:11.51	319.08	22.92	-30.7	-34.2	13.0	1.67e-05	0	44	0	965738496	21	5344
2026-01-21 11:25:12.51	319.24	22.81	-30.7	-34.1	13.0	5.11e-05	0	44	0	967835648	21	5322
2026-01-21 11:25:13.52	319.40	22.69	-30.4	-33.2	13.6	6.80e-06	0	44	0	969932800	21	4971
2026-01-21 11:25:14.52	319.55	22.57	-30.1	-32.5	14.1	7.00e-07	0	44	0	972029952	21	4717
2026-01-21 11:25:15.52	319.71	22.45	-29.9	-31.9	14.4	7.00e-07	0	44	0	974127104	21	4551
2026-01-21 11:25:16.52	319.87	22.34	-29.9	-31.8	14.5	0.00e+00	0	44	0	975175680	21	4500
2026-01-21 11:25:17.53	320.02	22.22	-30.0	-32.1	14.3	7.00e-07	0	44	0	977272832	21	4610
2026-01-21 11:25:18.53	320.17	22.10	-30.1	-32.6	14.0	7.00e-07	0	44	0	979369984	21	4753
2026-01-21 11:25:19.53	320.33	21.98	-30.3	-33.0	13.7	6.10e-06	0	44	0	981467136	21	4918
2026-01-21 11:25:20.54	320.48	21.87	-30.2	-32.8	13.8	3.00e-06	0	44	0	982515712	21	4854
2026-01-21 11:25:21.54	320.63	21.75	-30.1	-32.5	14.0	3.80e-06	0	44	0	984612864	21	4738
2026-01-21 11:25:22.54	320.78	21.64	-30.0	-32.2	14.2	1.50e-06	0	44	0	986710016	21	4625
2026-01-21 11:25:23.54	320.92	21.52	-29.9	-31.8	14.4	7.00e-07	0	44	0	988807168	21	4515
2026-01-21 11:25:24.55	321.07	21.41	-29.9	-32.0	14.4	2.20e-06	0	44	0	990904320	21	4564
2026-01-21 11:25:25.55	321.22	21.29	-29.7	-31.9	14.7	7.00e-07	0	44	0	991952896	20	4645
2026-01-21 11:25:26.56	321.36	21.18	-29.7	-32.0	14.7	7.00e-07	0	44	0	994050048	20	4665
2026-01-21 11:25:27.56	321.51	21.06	-29.9	-32.5	14.4	0.00e+00	0	44	0	996147200	20	4825
2026-01-21 11:25:28.56	321.65	20.95	-30.0	-32.6	14.3	3.80e-06	0	44	0	998244352	20	4885
2026-01-21 11:25:29.57	321.79	20.84	-30.1	-33.0	14.0	7.00e-07	0	44	0	1000341504	20	5026
2026-01-21 11:25:30.57	321.93	20.73	-30.2	-33.2	13.8	2.20e-06	0	44	0	1001390080	20	5110
2026-01-21 11:25:31.57	322.07	20.61	-30.2	-33.2	13.9	8.30e-06	0	44	0	1003487232	20	5083
2026-01-21 11:25:32.58	322.21	20.50	-30.3	-33.5	13.7	7.60e-06	0	44	0	1005584384	20	5203
2026-01-21 11:25:33.57	322.35	20.39	-30.5	-33.7	13.2	1.75e-05	0	44	0	1007681536	21	5160
2026-01-21 11:25:34.58	322.49	20.28	-30.6	-33.9	13.1	2.67e-05	0	44	0	1009778688	21	5246
2026-01-21 11:25:35.58	322.62	20.17	-30.4	-33.4	13.4	2.59e-05	0	44	0	1010827264	21	5073
2026-01-21 11:25:36.58	322.76	20.06	-30.4	-33.3	13.5	1.52e-05	0	44	0	1012924416	21	5017
2026-01-21 11:25:37.59	322.89	19.95	-30.4	-33.4	13.4	1.83e-05	0	44	0	1015021568	21	5065
2026-01-21 11:25:38.59	323.02	19.84	-30.4	-33.4	13.4	1.29e-05	0	44	0	1017118720	21	5058
2026-01-21 11:25:39.59	323.16	19.73	-30.7	-34.1	12.9	1.67e-05	0	44	0	1019215872	21	5324
2026-01-21 11:25:40.60	323.29	19.62	-30.8	-34.3	12.7	6.86e-05	0	44	0	1020264448	21	5433
2026-01-21 11:25:41.60	323.42	19.51	-30.7	-34.2	12.8	4.27e-05	0	44	0	1022361600	21	5364
2026-01-21 11:25:42.60	323.55	19.40	-30.8	-34.6	12.6	7.62e-05	0	44	0	1024458752	21	5529
2026-01-21 11:25:43.61	323.68	19.29	-31.0	-34.9	12.3	1.57e-04	0	44	0	1026555904	21	5687
2026-01-21 11:25:44.61	323.80	19.18	-31.2	-35.0	12.0	2.07e-04	0	44	0	1028653056	22	5593
2026-01-21 11:25:45.62	323.93	19.08	-31.2	-35.1	11.9	4.45e-04	0	44	0	1029701632	22	5658
2026-01-21 11:25:46.62	324.06	18.97	-31.1	-35.0	12.0	3.50e-04	0	44	0	1031798784	22	5595
2026-01-21 11:25:47.63	324.18	18.86	-31.1	-34.8	12.0	3.81e-04	0	44	0	1033895936	22	5533
2026-01-21 11:25:48.63	324.31	18.75	-30.9	-34.2	12.4	2.09e-04	0	44	0	1035993088	22	5267
2026-01-21 11:25:49.64	324.43	18.65	-30.8	-33.8	12.7	1.04e-04	0	44	0	1038090240	22	5128
2026-01-21 11:25:50.64	324.55	18.54	-30.8	-34.0	12.6	7.55e-05	0	44	0	1039138816	22	5188
2026-01-21 11:25:51.64	324.67	18.44	-30.7	-33.6	12.9	5.34e-05	0	44	0	1041235968	22	5033
2026-01-21 11:25:52.64	324.80	18.33	-30.6	-33.5	12.9	3.50e-05	0	43	0	1043333120	22	4995
2026-01-21 11:25:53.65	324.92	18.23	-30.5	-33.1	13.2	4.65e-05	0	44	0	1045430272	22	4847
2026-01-21 11:25:54.65	325.04	18.12	-30.3	-32.6	13.5	9.10e-06	0	44	0	1046478848	22	4689
2026-01-21 11:25:55.65	325.15	18.02	-30.3	-33.1	13.5	1.06e-05	0	44	0	1048576000	21	4954
2026-01-21 11:25:56.65	325.27	17.91	-30.4	-33.3	13.3	8.30e-06	0	44	0	1050673152	21	5026
2026-01-21 11:25:57.66	325.39	17.81	-30.4	-33.4	13.3	1.37e-05	0	44	0	1052770304	21	5062
2026-01-21 11:25:58.66	325.50	17.71	-30.6	-33.9	13.0	2.74e-05	0	44	0	1054867456	21	5262
2026-01-21 11:25:59.67	325.62	17.60	-30.8	-34.5	12.5	5.34e-05	0	44	0	1055916032	21	5512
2026-01-21 11:26:00.66	325.73	17.50	-30.9	-34.8	12.3	1.60e-04	0	44	0	1058013184	21	5631
2026-01-21 11:26:01.67	325.85	17.40	-30.9	-34.9	12.2	1.59e-04	0	44	0	1060110336	21	5686
2026-01-21 11:26:02.67	325.96	17.30	-31.0	-34.5	12.2	2.80e-04	0	43	0	1062207488	22	5400
2026-01-21 11:26:03.67	326.07	17.20	-30.9	-34.4	12.3	1.97e-04	0	44	0	1064304640	22	5352
2026-01-21 11:26:04.66	326.18	17.10	-30.8	-34.1	12.4	1.46e-04	0	44	0	1065353216	22	5248
2026-01-21 11:26:05.66	326.30	16.99	-30.8	-34.1	12.4	1.41e-04	0	44	0	1067450368	22	5243
2026-01-21 11:26:06.66	326.41	16.89	-30.8	-34.0	12.5	1.63e-04	0	44	0	1069547520	22	5193
2026-01-21 11:26:07.67	326.52	16.79	-30.9	-34.3	12.3	1.38e-04	0	44	0	1071644672	22	5334
2026-01-21 11:26:08.67	326.62	16.69	-30.7	-33.9	12.6	2.09e-04	0	44	0	1073741824	22	5170
2026-01-21 11:26:09.67	326.73	16.59	-30.5	-33.3	12.9	8.16e-05	0	43	0	1074790400	22	4931
2026-01-21 11:26:10.67	326.84	16.50	-30.5	-33.1	13.1	3.28e-05	0	44	0	1076887552	22	4885
2026-01-21 11:26:11.68	326.95	16.40	-30.5	-33.1	13.1	3.12e-05	0	44	0	1078984704	22	4863
2026-01-21 11:26:12.68	327.05	16.30	-30.5	-33.1	13.0	2.21e-05	0	44	0	1081081856	22	4887
2026-01-21 11:26:13.69	327.16	16.20	-30.5	-33.1	13.1	2.67e-05	0	44	0	1083179008	22	4865
2026-01-21 11:26:14.69	327.26	16.10	-30.6	-33.4	12.9	5.72e-05	0	44	0	1084227584	22	4977
2026-01-21 11:26:15.69	327.37	16.00	-30.6	-33.4	12.8	8.31e-05	0	44	0	1086324736	22	4996
2026-01-21 11:26:16.69	327.47	15.90	-30.6	-33.4	12.8	6.10e-05	0	43	0	1088421888	22	4991
2026-01-21 11:26:17.70	327.58	15.81	-30.6	-33.5	12.8	6.25e-05	0	44	0	1090519040	22	5036
2026-01-21 11:26:18.70	327.68	15.71	-30.7	-33.8	12.6	7.55e-05	0	44	0	1091567616	22	5121
2026-01-21 11:26:19.69	327.78	15.61	-30.7	-33.9	12.5	1.20e-04	0	44	0	1093664768	22	5197
2026-01-21 11:26:20.69	327.88	15.52	-30.7	-33.9	12.5	1.34e-04	0	44	0	1095761920	22	5187
2026-01-21 11:26:21.69	327.98	15.42	-30.7	-33.9	12.4	1.36e-04	0	44	0	1097859072	22	5196
2026-01-21 11:26:22.70	328.08	15.33	-30.8	-34.1	12.3	1.63e-04	0	44	0	1099956224	22	5271
2026-01-21 11:26:23.69	328.18	15.23	-30.8	-34.1	12.3	2.30e-04	0	44	0	1101004800	22	5251
2026-01-21 11:26:24.70	328.28	15.14	-30.7	-33.7	12.6	9.30e-05	0	44	0	1103101952	22	5101
2026-01-21 11:26:25.71	328.38	15.04	-30.7	-33.7	12.6	1.11e-04	0	44	0	1105199104	22	5110
2026-01-21 11:26:26.71	328.47	14.95	-30.6	-33.6	12.6	1.19e-04	0	44	0	1107296256	22	5075
2026-01-21 11:26:27.71	328.57	14.85	-30.7	-33.8	12.5	1.07e-04	0	44	0	1109393408	22	5153
2026-01-21 11:26:28.72	328.67	14.76	-30.6	-33.5	12.8	8.01e-05	0	44	0	1110441984	22	5021
2026-01-21 11:26:29.73	328.76	14.66	-30.5	-33.1	13.0	6.63e-05	0	44	0	1112539136	22	4890
2026-01-21 11:26:30.73	328.86	14.57	-30.4	-33.0	13.0	3.66e-05	0	44	0	1114636288	22	4842
2026-01-21 11:26:31.74	328.95	14.48	-30.5	-33.2	12.9	4.27e-05	0	44	0	1116733440	22	4926
2026-01-21 11:26:32.74	329.05	14.38	-30.4	-33.0	13.0	5.49e-05	0	44	0	1118830592	22	4851
2026-01-21 11:26:33.74	329.14	14.29	-30.5	-33.4	12.7	5.49e-05	0	44	0	1119879168	22	5003
2026-01-21 11:26:34.74	329.23	14.20	-30.6	-33.5	12.7	8.08e-05	0	44	0	1121976320	22	5038
2026-01-21 11:26:35.74	329.33	14.11	-30.7	-33.7	12.4	1.10e-04	0	44	0	1124073472	22	5136
2026-01-21 11:26:36.73	329.42	14.02	-30.7	-34.0	12.3	1.42e-04	0	44	0	1126170624	22	5232
2026-01-21 11:26:37.74	329.51	13.93	-30.8	-34.1	12.3	1.76e-04	0	44	0	1128267776	22	5262
2026-01-21 11:26:38.74	329.60	13.84	-30.9	-34.6	11.9	3.33e-04	0	44	0	1129316352	22	5469
2026-01-21 11:26:39.74	329.69	13.74	-31.0	-34.8	11.7	5.70e-04	0	44	0	1131413504	22	5583
2026-01-21 11:26:40.74	329.78	13.65	-31.0	-34.9	11.6	6.27e-04	0	44	0	1133510656	22	5616
2026-01-21 11:26:41.74	329.87	13.56	-31.0	-34.9	11.6	5.90e-04	0	44	0	1135607808	22	5639
2026-01-21 11:26:42.75	329.96	13.47	-31.1	-35.1	11.5	7.09e-04	0	43	0	1136656384	22	5694
2026-01-21 11:26:43.75	330.04	13.38	-31.1	-35.1	11.4	7.90e-04	0	44	0	1138753536	22	5722
2026-01-21 11:26:44.75	330.13	13.30	-31.2	-35.6	11.2	1.43e-03	0	44	0	1140850688	22	5923
2026-01-21 11:26:45.76	330.22	13.21	-31.1	-35.2	11.4	1.41e-03	0	44	0	1142947840	22	5774
2026-01-21 11:26:46.76	330.31	13.12	-31.1	-35.2	11.4	8.44e-04	0	44	0	1145044992	22	5776
2026-01-21 11:26:47.76	330.39	13.03	-31.1	-35.1	11.4	8.86e-04	0	43	0	1146093568	22	5729
2026-01-21 11:26:48.76	330.48	12.94	-31.1	-35.2	11.4	8.92e-04	0	44	0	1148190720	22	5751
2026-01-21 11:26:49.76	330.56	12.85	-31.0	-34.9	11.6	8.79e-04	0	44	0	1150287872	22	5616
2026-01-21 11:26:50.77	330.65	12.76	-31.0	-34.8	11.7	6.58e-04	0	44	0	1152385024	22	5568
2026-01-21 11:26:51.77	330.73	12.68	-31.0	-34.8	11.7	5.36e-04	0	44	0	1154482176	22	5591
2026-01-21 11:26:52.77	330.82	12.59	-31.0	-34.8	11.7	6.75e-04	0	44	0	1155530752	22	5567
2026-01-21 11:26:53.78	330.90	12.50	-31.1	-35.1	11.4	7.11e-04	0	44	0	1157627904	22	5733
2026-01-21 11:26:54.78	330.98	12.42	-31.0	-34.8	11.6	8.66e-04	0	44	0	1159725056	22	5593
2026-01-21 11:26:55.78	331.06	12.33	-30.8	-34.3	12.0	4.27e-04	0	43	0	1161822208	22	5362
2026-01-21 11:26:56.78	331.15	12.24	-30.6	-33.8	12.3	2.60e-04	0	44	0	1163919360	22	5175
2026-01-21 11:26:57.78	331.23	12.16	-30.6	-33.7	12.3	1.85e-04	0	44	0	1164967936	22	5161
2026-01-21 11:26:58.78	331.31	12.07	-30.6	-33.8	12.3	1.59e-04	0	43	0	1167065088	22	5174
2026-01-21 11:26:59.79	331.39	11.99	-30.7	-33.9	12.2	1.98e-04	0	44	0	1169162240	22	5241
2026-01-21 11:27:00.79	331.47	11.90	-30.6	-33.8	12.3	2.42e-04	0	44	0	1171259392	22	5181
2026-01-21 11:27:01.80	331.55	11.82	-30.7	-33.9	12.2	2.44e-04	0	44	0	1173356544	22	5211
2026-01-21 11:27:02.81	331.63	11.73	-30.7	-33.9	12.1	2.05e-04	0	44	0	1174405120	22	5239
2026-01-21 11:27:03.81	331.71	11.65	-30.7	-34.0	12.1	2.81e-04	0	44	0	1176502272	22	5272
2026-01-21 11:27:04.81	331.79	11.56	-30.9	-34.5	11.8	3.62e-04	0	44	0	1178599424	22	5460
2026-01-21 11:27:05.82	331.87	11.48	-30.9	-34.6	11.6	6.76e-04	0	44	0	1180696576	22	5537
2026-01-21 11:27:06.83	331.94	11.39	-31.0	-34.9	11.4	7.82e-04	0	44	0	1182793728	22	5651
2026-01-21 11:27:07.83	332.02	11.31	-31.0	-34.9	11.4	8.71e-04	0	44	0	1183842304	22	5648
2026-01-21 11:27:08.83	332.10	11.23	-31.0	-35.0	11.4	8.67e-04	0	44	0	1185939456	22	5691
2026-01-21 11:27:09.84	332.17	11.14	-31.0	-35.0	11.3	1.16e-03	0	44	0	1188036608	22	5726
2026-01-21 11:27:10.83	332.25	11.06	-31.2	-35.5	10.9	1.40e-03	0	44	0	1190133760	22	5942
2026-01-21 11:27:11.83	332.32	10.98	-31.2	-35.5	11.0	1.98e-03	0	44	0	1191182336	22	5925
2026-01-21 11:27:12.83	332.40	10.90	-31.2	-35.8	10.8	2.10e-03	0	44	0	1193279488	22	6062
2026-01-21 11:27:13.83	332.47	10.82	-31.2	-35.7	10.8	2.00e-03	0	44	0	1195376640	22	6025
2026-01-21 11:27:14.83	332.55	10.73	-31.2	-35.8	10.7	2.77e-03	0	44	0	1197473792	22	6068
2026-01-21 11:27:15.83	332.62	10.65	-31.3	-36.0	10.5	3.69e-03	0	44	0	1199570944	22	6206
2026-01-21 11:27:16.84	332.70	10.57	-31.3	-36.1	10.5	4.17e-03	0	44	0	1200619520	22	6230
2026-01-21 11:27:17.84	332.77	10.49	-31.4	-36.3	10.3	4.04e-03	0	44	0	1202716672	22	6337
2026-01-21 11:27:18.85	332.84	10.41	-31.3	-36.1	10.4	4.75e-03	0	44	0	1204813824	22	6241
2026-01-21 11:27:19.85	332.91	10.33	-31.3	-36.0	10.5	4.25e-03	0	44	0	1206910976	22	6196
2026-01-21 11:27:20.86	332.99	10.25	-31.3	-36.0	10.5	3.21e-03	0	44	0	1209008128	22	6182
2026-01-21 11:27:21.86	333.06	10.17	-31.3	-36.0	10.5	3.83e-03	0	44	0	1210056704	22	6213
2026-01-21 11:27:22.87	333.13	10.09	-31.4	-36.3	10.2	4.50e-03	0	44	0	1212153856	22	6370
2026-01-21 11:27:23.86	333.20	10.01	-31.3	-36.2	10.4	5.59e-03	0	44	0	1214251008	22	6294
2026-01-21 11:27:24.87	333.27	9.93	-31.6	-36.5	9.7	6.30e-03	0	44	0	1216348160	23	6360
2026-01-21 11:27:25.87	333.34	9.85	-31.4	-36.0	10.1	8.89e-03	0	44	0	1218445312	23	6117
2026-01-21 11:27:26.87	333.41	9.77	-31.2	-35.3	10.6	5.14e-03	0	44	0	1219493888	23	5772
2026-01-21 11:27:27.87	333.48	9.69	-31.1	-35.1	10.8	2.92e-03	0	44	0	1221591040	23	5650
2026-01-21 11:27:28.87	333.55	9.61	-31.1	-34.8	11.0	2.04e-03	0	44	0	1223688192	23	5545
2026-01-21 11:27:29.88	333.62	9.53	-31.0	-34.6	11.1	1.72e-03	0	44	0	1225785344	23	5427
2026-01-21 11:27:30.88	333.69	9.45	-31.1	-34.9	11.0	1.76e-03	0	44	0	1227882496	23	5564
2026-01-21 11:27:31.88	333.76	9.38	-31.1	-34.9	10.9	1.94e-03	0	44	0	1228931072	23	5573
2026-01-21 11:27:32.88	333.82	9.30	-31.1	-34.9	10.8	2.43e-03	0	44	0	1231028224	23	5590
2026-01-21 11:27:33.88	333.89	9.22	-31.1	-34.9	10.8	2.48e-03	0	44	0	1233125376	23	5596
2026-01-21 11:27:34.89	333.96	9.14	-31.1	-35.1	10.7	2.60e-03	0	44	0	1235222528	23	5659
2026-01-21 11:27:35.89	334.02	9.07	-31.1	-35.0	10.8	2.77e-03	0	44	0	1237319680	23	5623
2026-01-21 11:27:36.89	334.09	8.99	-31.3	-35.5	10.4	3.69e-03	0	44	0	1238368256	23	5867
2026-01-21 11:27:37.90	334.16	8.91	-31.2	-35.3	10.5	4.57e-03	0	44	0	1240465408	23	5789
2026-01-21 11:27:38.90	334.22	8.84	-31.2	-35.3	10.5	4.00e-03	0	44	0	1242562560	23	5797
2026-01-21 11:27:39.90	334.29	8.76	-31.2	-35.5	10.4	5.15e-03	0	44	0	1244659712	23	5853
2026-01-21 11:27:40.91	334.35	8.68	-31.2	-35.5	10.4	3.57e-03	0	44	0	1245708288	23	5852
2026-01-21 11:27:41.91	334.42	8.61	-31.3	-35.6	10.3	5.31e-03	0	44	0	1247805440	23	5930
2026-01-21 11:27:42.91	334.48	8.53	-31.3	-35.7	10.2	6.06e-03	0	44	0	1249902592	23	5952
2026-01-21 11:27:43.91	334.55	8.46	-31.3	-35.7	10.1	5.43e-03	0	44	0	1251999744	23	5984
2026-01-21 11:27:44.91	334.61	8.38	-31.5	-36.4	9.7	7.16e-03	0	44	0	1254096896	23	6316
2026-01-21 11:27:45.92	334.68	8.31	-31.5	-36.3	9.7	1.24e-02	0	44	0	1255145472	23	6299
2026-01-21 11:27:46.92	334.74	8.23	-31.5	-36.5	9.5	1.40e-02	0	44	0	1257242624	23	6394
2026-01-21 11:27:47.93	334.80	8.16	-31.5	-36.6	9.5	1.18e-02	0	44	0	1259339776	23	6455
2026-01-21 11:27:48.93	334.87	8.08	-31.5	-36.5	9.5	1.41e-02	0	44	0	1261436928	23	6387
2026-01-21 11:27:49.93	334.93	8.01	-31.5	-36.5	9.5	1.54e-02	0	44	0	1263534080	23	6405
2026-01-21 11:27:50.93	334.99	7.93	-31.6	-36.8	9.3	1.63e-02	0	44	0	1264582656	23	6576
2026-01-21 11:27:51.93	335.05	7.86	-31.4	-36.2	9.7	1.64e-02	0	44	0	1266679808	23	6265
2026-01-21 11:27:52.93	335.11	7.79	-31.3	-35.9	9.9	1.11e-02	0	44	0	1268776960	23	6118
2026-01-21 11:27:53.94	335.17	7.71	-31.4	-36.2	9.7	1.04e-02	0	44	0	1270874112	23	6246
2026-01-21 11:27:54.94	335.24	7.64	-31.4	-36.2	9.7	1.06e-02	0	44	0	1272971264	23	6262
2026-01-21 11:27:55.94	335.30	7.57	-31.4	-36.3	9.6	1.38e-02	0	44	0	1274019840	23	6291
2026-01-21 11:27:56.94	335.36	7.49	-31.6	-37.0	9.0	2.01e-02	0	44	0	1276116992	23	6689
2026-01-21 11:27:57.94	335.42	7.42	-31.5	-36.8	9.2	2.49e-02	0	44	0	1278214144	23	6584
2026-01-21 11:27:58.94	335.48	7.35	-31.5	-36.8	9.1	2.16e-02	0	44	0	1280311296	23	6603
2026-01-21 11:27:59.95	335.54	7.27	-31.6	-37.0	9.0	2.36e-02	0	44	0	1282408448	23	6689
