passes_logs/2026/01/21/R2M6_AANII_01/R2M6_AANII_01__20260121_011936_AQUA_rec.log

#Pass ID: 20260121_011936_AQUA
#Satellite: AQUA
#Configuration: AQUA
#almurnet v.1.7.20240730
#Start time: 2026-01-21 01:19:37

#Version: 2.2.20231116
#Station: R2M6_AANII_01
#Location: 30.233357 lon 59.946436 lat
#TLE: 1 27424U 02022A   26020.30984080  .00001497  00000+0  30942-3 0  9998
#TLE: 2 27424  98.4092 346.8266 0001984  71.7888  69.0903 14.61835321261661

#Time	Az	El	Level	Level2	SNR	BER	BlckErr	Temp	State	Recorded	gain1	gain2
2026-01-21 01:19:37.72	23.37	7.12	-31.4	-45.9	3.8	7.45e-01	0	42	0	0	23	19108
2026-01-21 01:19:38.72	23.42	7.20	-31.9	-47.1	3.8	7.46e-01	0	42	104	0	24	20772
2026-01-21 01:19:39.72	23.48	7.28	-31.7	-46.5	3.8	7.43e-01	0	42	104	0	24	19757
2026-01-21 01:19:40.72	23.53	7.36	-31.6	-45.9	3.8	7.43e-01	0	42	104	0	24	18720
2026-01-21 01:19:41.72	23.58	7.44	-31.4	-46.0	3.8	7.46e-01	0	42	104	0	23	19232
2026-01-21 01:19:42.72	23.64	7.52	-31.4	-45.8	3.8	7.46e-01	0	42	104	0	23	18962
2026-01-21 01:19:43.73	23.69	7.60	-31.2	-45.2	3.8	7.44e-01	0	42	104	0	23	17966
2026-01-21 01:19:44.73	23.75	7.68	-31.0	-44.5	3.8	7.45e-01	0	43	104	0	23	17020
2026-01-21 01:19:45.73	23.80	7.76	-30.8	-44.4	3.8	7.46e-01	0	43	104	0	22	17215
2026-01-21 01:19:46.73	23.86	7.84	-30.7	-44.1	3.8	7.46e-01	0	42	104	0	22	16845
2026-01-21 01:19:47.73	23.92	7.92	-30.6	-43.8	3.8	7.45e-01	0	43	104	0	22	16435
2026-01-21 01:19:48.73	23.97	8.00	-30.6	-44.2	3.8	7.46e-01	0	43	104	0	21	17406
2026-01-21 01:19:49.74	24.03	8.08	-30.5	-44.0	3.8	7.44e-01	0	43	104	0	21	17050
2026-01-21 01:19:50.75	24.09	8.16	-30.5	-44.0	3.8	7.45e-01	0	43	104	0	21	17123
2026-01-21 01:19:51.76	24.14	8.24	-30.7	-44.1	3.8	7.46e-01	0	43	104	0	22	16824
2026-01-21 01:19:52.76	24.20	8.33	-30.9	-44.7	3.8	7.44e-01	0	43	104	0	22	17654
2026-01-21 01:19:53.77	24.26	8.41	-31.1	-45.3	3.8	7.43e-01	0	43	104	0	22	18493
2026-01-21 01:19:54.78	24.32	8.49	-31.4	-45.8	3.8	7.48e-01	0	43	104	0	23	18907
2026-01-21 01:19:55.78	24.38	8.58	-31.4	-45.9	3.8	7.44e-01	0	43	104	0	23	19074
2026-01-21 01:19:56.78	24.44	8.66	-31.4	-45.7	3.8	7.47e-01	0	43	104	0	23	18757
2026-01-21 01:19:57.79	24.50	8.74	-31.4	-45.7	3.8	7.46e-01	0	43	104	0	23	18736
2026-01-21 01:19:58.79	24.56	8.83	-31.5	-46.1	3.8	7.45e-01	0	43	104	0	23	19329
2026-01-21 01:19:59.79	24.62	8.91	-31.7	-46.1	3.8	7.46e-01	0	43	104	0	24	18981
2026-01-21 01:20:00.79	24.68	9.00	-31.8	-46.5	3.8	7.44e-01	0	43	104	0	24	19535
2026-01-21 01:20:01.79	24.74	9.08	-32.0	-47.2	3.8	7.45e-01	0	43	104	0	24	20653
2026-01-21 01:20:02.80	24.80	9.17	-32.2	-47.5	3.8	7.45e-01	0	43	104	0	25	20886
2026-01-21 01:20:03.81	24.86	9.25	-32.4	-48.1	3.8	7.44e-01	0	43	104	0	25	22076
2026-01-21 01:20:04.81	24.92	9.34	-32.5	-48.9	3.8	7.45e-01	0	43	104	0	25	23676
2026-01-21 01:20:05.81	24.98	9.42	-32.8	-49.5	3.8	7.46e-01	0	43	104	0	26	24705
2026-01-21 01:20:06.81	25.05	9.51	-32.9	-50.5	3.8	7.46e-01	0	43	104	0	26	27054
2026-01-21 01:20:07.82	25.11	9.60	-33.1	-51.2	3.8	7.44e-01	0	43	104	0	26	28973
2026-01-21 01:20:08.82	25.17	9.68	-33.2	-51.1	3.8	7.45e-01	0	43	104	0	27	28458
2026-01-21 01:20:09.82	25.24	9.77	-33.2	-51.5	3.8	7.46e-01	0	43	104	0	27	29644
2026-01-21 01:20:10.82	25.30	9.86	-33.3	-51.9	3.8	7.46e-01	0	43	104	0	27	30650
2026-01-21 01:20:11.83	25.36	9.95	-33.3	-52.1	3.8	7.45e-01	0	43	104	0	27	31206
2026-01-21 01:20:12.82	25.43	10.03	-33.3	-52.3	3.8	7.48e-01	0	43	104	0	27	31796
2026-01-21 01:20:13.82	25.49	10.12	-33.3	-52.2	3.8	7.44e-01	0	43	104	0	27	31706
2026-01-21 01:20:14.82	25.56	10.21	-33.4	-52.4	3.8	7.45e-01	0	43	104	0	27	32197
2026-01-21 01:20:15.83	25.63	10.30	-33.4	-52.3	3.8	7.47e-01	0	43	104	0	27	31731
2026-01-21 01:20:16.83	25.69	10.39	-33.3	-51.9	3.8	7.47e-01	0	43	104	0	27	30649
2026-01-21 01:20:17.83	25.76	10.48	-33.3	-51.5	3.8	7.46e-01	0	43	104	0	27	29360
2026-01-21 01:20:18.84	25.83	10.57	-33.2	-51.0	3.8	7.44e-01	0	43	104	0	27	27868
2026-01-21 01:20:19.84	25.89	10.66	-32.0	-49.3	3.8	7.44e-01	0	43	104	0	27	26374
2026-01-21 01:20:20.85	25.96	10.75	-33.0	-49.7	3.8	7.46e-01	0	43	104	0	26	24818
2026-01-21 01:20:21.84	26.03	10.84	-32.8	-49.4	3.8	7.41e-01	0	44	104	0	26	24230
2026-01-21 01:20:22.85	26.10	10.93	-32.7	-48.7	3.8	7.44e-01	0	43	104	0	26	22901
2026-01-21 01:20:23.85	26.17	11.03	-32.5	-48.3	3.8	7.41e-01	0	43	104	0	25	22169
2026-01-21 01:20:24.86	26.24	11.12	-32.3	-47.8	3.8	7.43e-01	0	43	104	0	25	21439
2026-01-21 01:20:25.85	26.31	11.21	-32.2	-47.2	3.8	7.44e-01	0	43	104	0	25	20363
2026-01-21 01:20:26.85	26.38	11.30	-32.0	-47.1	3.8	7.45e-01	0	43	104	0	24	20399
2026-01-21 01:20:27.86	26.45	11.40	-31.8	-46.3	3.8	7.46e-01	0	43	104	0	24	19030
2026-01-21 01:20:28.87	26.52	11.49	-31.4	-45.6	3.8	7.44e-01	0	43	104	0	23	18432
2026-01-21 01:20:29.87	26.60	11.59	-31.2	-44.8	3.8	7.48e-01	0	43	104	0	23	17201
2026-01-21 01:20:30.87	26.67	11.68	-30.9	-44.0	3.8	7.45e-01	0	43	104	0	23	16233
2026-01-21 01:20:31.86	26.74	11.77	-30.8	-44.0	3.8	7.44e-01	0	43	104	0	22	16558
2026-01-21 01:20:32.87	26.81	11.87	-30.6	-43.7	3.8	7.46e-01	0	44	104	0	22	16186
2026-01-21 01:20:33.87	26.89	11.97	-30.4	-43.5	3.8	7.45e-01	0	43	104	0	21	16344
2026-01-21 01:20:34.87	26.96	12.06	-30.2	-43.2	3.8	7.44e-01	0	44	104	0	21	15907
2026-01-21 01:20:35.87	27.04	12.16	-30.1	-42.8	3.8	7.42e-01	0	44	104	0	21	15508
2026-01-21 01:20:36.88	27.11	12.25	-30.1	-42.7	3.8	7.45e-01	0	44	104	0	21	15430
2026-01-21 01:20:37.88	27.19	12.35	-30.1	-42.8	3.8	7.42e-01	0	43	104	0	21	15528
2026-01-21 01:20:38.89	27.27	12.45	-30.2	-42.9	3.8	7.46e-01	0	44	104	0	21	15542
2026-01-21 01:20:39.89	27.34	12.55	-30.1	-42.7	3.8	7.45e-01	0	44	104	0	21	15328
2026-01-21 01:20:40.90	27.42	12.65	-30.2	-42.9	3.8	7.42e-01	0	44	104	0	21	15569
2026-01-21 01:20:41.90	27.50	12.74	-29.5	-42.5	3.8	7.41e-01	0	44	104	0	21	16112
2026-01-21 01:20:42.91	27.58	12.84	-30.5	-43.9	3.8	7.44e-01	0	43	104	0	21	16735
2026-01-21 01:20:43.92	27.66	12.94	-30.8	-44.2	3.8	7.44e-01	0	44	104	0	22	16719
2026-01-21 01:20:44.92	27.74	13.04	-31.2	-44.7	3.8	7.44e-01	0	44	104	0	23	17026
2026-01-21 01:20:45.93	27.82	13.15	-31.2	-44.9	3.8	7.43e-01	0	44	104	0	23	17309
2026-01-21 01:20:46.93	27.90	13.25	-31.4	-45.3	3.8	7.44e-01	0	44	104	0	23	17849
2026-01-21 01:20:47.94	27.98	13.35	-31.5	-45.8	3.8	7.42e-01	0	44	104	0	23	18608
2026-01-21 01:20:48.94	28.06	13.45	-31.8	-46.0	3.8	7.45e-01	0	44	104	0	24	18564
2026-01-21 01:20:49.95	28.15	13.55	-32.0	-46.8	3.8	7.47e-01	0	44	104	0	24	19745
2026-01-21 01:20:50.95	28.23	13.65	-32.2	-47.1	3.8	7.49e-01	0	44	104	0	25	19993
2026-01-21 01:20:51.95	28.31	13.76	-32.5	-48.2	3.8	7.44e-01	0	44	104	0	25	21955
2026-01-21 01:20:52.95	28.40	13.86	-32.7	-48.4	3.8	7.43e-01	0	44	104	0	26	21986
2026-01-21 01:20:53.96	28.48	13.97	-32.9	-49.2	3.8	7.45e-01	0	44	104	0	26	23575
2026-01-21 01:20:54.96	28.57	14.07	-33.0	-50.0	3.8	7.44e-01	0	44	104	0	26	25318
2026-01-21 01:20:55.97	28.65	14.17	-33.2	-50.3	3.8	7.45e-01	0	44	104	0	27	25788
2026-01-21 01:20:56.97	28.74	14.28	-33.3	-45.6	4.4	7.25e-01	0	44	104	0	27	14772
2026-01-21 01:20:57.97	28.83	14.38	-33.4	-46.5	5.7	6.91e-01	0	44	104	0	27	16176
2026-01-21 01:20:58.98	28.92	14.49	-33.5	-47.7	5.0	7.10e-01	0	44	0	0	27	18514
2026-01-21 01:20:59.98	29.00	14.60	-33.4	-46.7	5.5	6.97e-01	0	44	0	0	27	16519
2026-01-21 01:21:00.98	29.09	14.70	-33.4	-45.6	6.3	6.78e-01	0	44	0	1572864	27	14700
2026-01-21 01:21:01.98	29.18	14.81	-33.3	-44.7	7.0	6.61e-01	0	44	0	3145728	27	13314
2026-01-21 01:21:02.98	29.27	14.92	-33.2	-43.8	7.8	6.49e-01	0	44	0	5242880	27	12129
2026-01-21 01:21:03.98	29.36	15.03	-33.2	-43.1	8.4	6.38e-01	0	44	0	6815744	27	11343
2026-01-21 01:21:04.99	29.46	15.14	-33.1	-42.5	9.0	6.32e-01	0	44	0	8912896	27	10578
2026-01-21 01:21:05.99	29.55	15.25	-33.0	-42.4	9.5	6.24e-01	0	44	0	10485760	26	10583
2026-01-21 01:21:06.99	29.64	15.36	-33.1	-42.9	9.1	6.31e-01	0	44	0	12582912	26	11096
2026-01-21 01:21:08.00	29.74	15.47	-32.9	-40.8	10.5	6.16e-01	0	44	0	14680064	27	8972
2026-01-21 01:21:09.01	29.83	15.58	-32.6	-39.6	11.9	6.07e-01	0	44	0	16252928	26	8087
2026-01-21 01:21:10.01	29.93	15.69	-32.2	-38.4	13.3	6.04e-01	0	44	0	18350080	25	7341
2026-01-21 01:21:11.01	30.02	15.80	-31.8	-36.7	14.7	6.00e-01	0	44	0	19922944	25	6349
2026-01-21 01:21:12.01	30.12	15.91	-31.4	-35.8	15.8	6.01e-01	0	44	0	22020096	24	5951
2026-01-21 01:21:13.02	30.22	16.03	-31.0	-35.0	16.6	6.01e-01	0	44	0	23592960	23	5692
2026-01-21 01:21:14.03	30.32	16.14	-30.7	-34.5	17.4	6.00e-01	0	44	0	25690112	22	5580
2026-01-21 01:21:15.03	30.42	16.25	-30.4	-34.2	17.9	6.01e-01	0	44	0	27787264	21	5566
2026-01-21 01:21:16.04	30.52	16.37	-30.2	-33.5	18.3	6.02e-01	0	44	0	29360128	21	5300
2026-01-21 01:21:17.05	30.62	16.49	-30.1	-33.2	18.5	6.01e-01	0	44	0	31457280	21	5187
2026-01-21 01:21:18.05	30.72	16.60	-29.9	-33.4	18.7	6.02e-01	0	44	0	33554432	20	5361
2026-01-21 01:21:19.05	30.82	16.72	-30.0	-33.6	18.6	6.00e-01	0	44	0	35127296	20	5437
2026-01-21 01:21:20.06	30.93	16.83	-30.3	-33.8	18.1	6.02e-01	0	44	0	37224448	21	5419
2026-01-21 01:21:21.06	31.03	16.95	-29.9	-33.4	18.7	6.03e-01	0	44	0	38797312	20	5360
2026-01-21 01:21:22.06	31.14	17.07	-29.7	-32.7	19.1	6.03e-01	0	44	0	40894464	20	5098
2026-01-21 01:21:23.07	31.24	17.19	-29.6	-32.4	19.3	6.00e-01	0	44	0	42467328	20	4976
2026-01-21 01:21:24.07	31.35	17.30	-29.5	-32.7	19.5	6.01e-01	0	44	0	44564480	19	5209
2026-01-21 01:21:25.07	31.46	17.42	-29.6	-32.4	19.3	6.03e-01	0	44	0	46661632	20	4992
2026-01-21 01:21:26.07	31.56	17.54	-29.7	-32.8	19.1	6.03e-01	0	44	0	48234496	20	5136
2026-01-21 01:21:27.07	31.67	17.66	-29.6	-32.4	19.3	5.99e-01	0	44	0	50331648	20	4968
2026-01-21 01:21:28.08	31.78	17.78	-29.7	-32.8	19.0	6.02e-01	0	44	0	51904512	20	5140
2026-01-21 01:21:29.08	31.89	17.91	-29.5	-32.3	19.4	6.03e-01	0	44	0	54001664	20	4939
2026-01-21 01:21:30.08	32.00	18.03	-29.5	-32.6	19.6	6.01e-01	0	44	0	56098816	19	5144
2026-01-21 01:21:31.09	32.12	18.15	-29.5	-32.3	19.3	6.02e-01	0	44	0	57671680	20	4955
2026-01-21 01:21:32.09	32.23	18.27	-29.7	-32.7	19.2	6.00e-01	0	44	0	59768832	20	5086
2026-01-21 01:21:33.10	32.35	18.40	-30.0	-33.5	18.7	6.01e-01	0	44	0	61341696	20	5373
2026-01-21 01:21:34.10	32.46	18.52	-29.8	-32.9	19.1	6.02e-01	0	44	0	63438848	20	5166
2026-01-21 01:21:35.11	32.58	18.65	-29.7	-32.8	19.2	6.01e-01	0	44	0	65011712	20	5113
2026-01-21 01:21:36.11	32.70	18.77	-29.7	-32.8	19.1	6.00e-01	0	44	0	67108864	20	5132
2026-01-21 01:21:37.11	32.81	18.90	-29.7	-32.7	19.2	6.00e-01	0	44	0	69206016	20	5102
2026-01-21 01:21:38.12	32.94	19.03	-29.8	-33.0	19.1	5.97e-01	0	44	0	70778880	20	5186
2026-01-21 01:21:39.12	33.06	19.15	-29.9	-33.1	18.9	6.01e-01	0	44	0	72876032	20	5234
2026-01-21 01:21:40.13	33.18	19.28	-29.7	-32.6	19.2	6.02e-01	0	44	0	74973184	20	5066
2026-01-21 01:21:41.13	33.30	19.41	-29.6	-32.3	19.4	5.99e-01	0	44	0	76546048	20	4956
2026-01-21 01:21:42.12	33.42	19.54	-29.6	-32.8	19.6	6.01e-01	0	44	0	78643200	19	5222
2026-01-21 01:21:43.13	33.55	19.67	-29.7	-32.6	19.3	6.01e-01	0	44	0	80216064	20	5053
2026-01-21 01:21:44.13	33.67	19.80	-29.8	-33.0	19.1	6.01e-01	0	44	0	82313216	20	5190
2026-01-21 01:21:45.14	33.80	19.93	-29.7	-32.6	19.3	6.01e-01	0	44	0	83886080	20	5054
2026-01-21 01:21:46.14	33.93	20.06	-29.6	-32.3	19.5	6.00e-01	0	44	0	85983232	20	4939
2026-01-21 01:21:47.14	34.06	20.19	-29.5	-32.1	19.7	6.01e-01	0	44	0	88080384	20	4861
2026-01-21 01:21:48.15	34.19	20.33	-29.6	-32.8	19.6	6.00e-01	0	44	0	89653248	19	5228
2026-01-21 01:21:49.15	34.32	20.46	-29.5	-32.7	19.7	6.01e-01	0	44	0	91750400	19	5188
2026-01-21 01:21:50.15	34.45	20.60	-29.7	-32.6	19.3	6.02e-01	0	44	0	93323264	20	5043
2026-01-21 01:21:51.15	34.59	20.73	-29.9	-33.1	19.0	6.01e-01	0	44	0	95420416	20	5237
2026-01-21 01:21:52.15	34.72	20.86	-29.7	-32.7	19.3	6.01e-01	0	44	0	96993280	20	5081
2026-01-21 01:21:53.15	34.86	21.00	-29.6	-32.4	19.5	6.02e-01	0	44	0	99090432	20	4959
2026-01-21 01:21:54.15	34.99	21.14	-29.5	-32.2	19.5	6.00e-01	0	44	0	101187584	20	4920
2026-01-21 01:21:55.16	35.13	21.28	-29.5	-32.1	19.6	6.00e-01	0	44	0	102760448	20	4867
2026-01-21 01:21:56.17	35.27	21.41	-29.5	-32.2	19.6	6.03e-01	0	44	0	104857600	20	4886
2026-01-21 01:21:57.16	35.41	21.55	-29.5	-32.6	19.7	6.00e-01	0	44	0	106430464	19	5153
2026-01-21 01:21:58.16	35.56	21.69	-29.6	-32.8	19.6	6.01e-01	0	44	0	108527616	19	5208
2026-01-21 01:21:59.17	35.70	21.83	-29.6	-32.3	19.6	5.99e-01	0	44	0	110100480	20	4940
2026-01-21 01:22:00.17	35.84	21.97	-29.7	-32.6	19.4	5.99e-01	0	44	0	112197632	20	5030
2026-01-21 01:22:01.17	35.99	22.11	-29.6	-32.4	18.9	5.99e-01	0	44	0	114294784	20	4979
2026-01-21 01:22:02.18	36.14	22.26	-29.6	-32.4	18.8	6.01e-01	0	44	0	115867648	20	4969
2026-01-21 01:22:03.17	36.29	22.40	-29.6	-32.4	19.5	6.01e-01	0	44	0	117964800	20	4974
2026-01-21 01:22:04.17	36.44	22.54	-28.3	-31.1	19.6	6.01e-01	0	44	0	119537664	19	4950
2026-01-21 01:22:05.16	36.59	22.68	-29.7	-32.6	19.3	6.04e-01	0	44	0	121634816	20	5039
2026-01-21 01:22:06.17	36.74	22.83	-29.7	-32.7	19.4	6.03e-01	0	44	0	123731968	20	5060
2026-01-21 01:22:07.17	36.90	22.97	-29.8	-32.9	19.3	6.01e-01	0	44	0	125304832	20	5139
2026-01-21 01:22:08.18	37.05	23.12	-29.7	-32.6	19.5	6.04e-01	0	44	0	127401984	20	5017
2026-01-21 01:22:09.18	37.21	23.27	-29.7	-32.7	19.4	6.00e-01	0	44	0	128974848	20	5057
2026-01-21 01:22:10.19	37.37	23.42	-29.8	-33.0	19.2	6.01e-01	0	44	0	131072000	20	5158
2026-01-21 01:22:11.19	37.53	23.57	-29.6	-32.5	19.6	6.01e-01	0	44	0	133169152	20	4976
2026-01-21 01:22:12.19	37.70	23.71	-29.7	-32.6	19.5	6.00e-01	0	44	0	134742016	20	5030
2026-01-21 01:22:13.19	37.86	23.86	-29.7	-32.7	19.4	6.00e-01	0	44	0	136839168	20	5055
2026-01-21 01:22:14.20	38.03	24.02	-29.7	-32.5	19.5	6.00e-01	0	44	0	138412032	20	4992
2026-01-21 01:22:15.20	38.19	24.17	-29.6	-32.3	19.6	6.02e-01	0	44	0	140509184	20	4925
2026-01-21 01:22:16.20	38.36	24.32	-29.6	-32.4	19.6	5.99e-01	0	44	0	142082048	20	4954
2026-01-21 01:22:17.21	38.53	24.47	-29.6	-32.3	19.6	6.02e-01	0	44	0	144179200	20	4931
2026-01-21 01:22:18.21	38.71	24.63	-29.7	-32.6	19.5	6.01e-01	0	44	0	146276352	20	5015
2026-01-21 01:22:19.22	38.88	24.78	-29.5	-32.2	19.7	6.01e-01	0	44	0	147849216	20	4874
2026-01-21 01:22:20.22	39.06	24.94	-29.5	-31.9	19.9	6.01e-01	0	44	0	149946368	20	4794
2026-01-21 01:22:21.21	39.23	25.09	-29.5	-32.1	19.9	6.01e-01	0	44	0	151519232	20	4833
2026-01-21 01:22:22.22	39.41	25.25	-29.6	-32.2	19.8	6.00e-01	0	44	0	153616384	20	4886
2026-01-21 01:22:23.22	39.59	25.40	-29.6	-32.2	19.7	6.03e-01	0	44	0	155713536	20	4897
2026-01-21 01:22:24.22	39.78	25.56	-29.4	-31.9	20.0	6.03e-01	0	44	0	157286400	20	4775
2026-01-21 01:22:25.22	39.96	25.72	-29.4	-31.9	20.0	6.00e-01	0	44	0	159383552	20	4767
2026-01-21 01:22:26.23	40.15	25.88	-29.5	-32.0	19.9	6.04e-01	0	44	0	160956416	20	4821
2026-01-21 01:22:27.23	40.34	26.04	-29.4	-31.8	20.0	6.00e-01	0	44	0	163053568	20	4758
2026-01-21 01:22:28.23	40.53	26.20	-29.5	-32.1	19.9	6.01e-01	0	44	0	165150720	20	4851
2026-01-21 01:22:29.23	40.72	26.36	-29.6	-32.2	19.8	6.01e-01	0	44	0	166723584	20	4891
2026-01-21 01:22:30.23	40.91	26.52	-29.5	-32.1	19.8	6.01e-01	0	44	0	168820736	20	4832
2026-01-21 01:22:31.24	41.11	26.69	-29.5	-32.1	19.8	6.02e-01	0	44	0	170393600	20	4836
2026-01-21 01:22:32.24	41.31	26.85	-29.6	-32.3	19.7	6.02e-01	0	44	0	172490752	20	4912
2026-01-21 01:22:33.25	41.51	27.02	-29.9	-33.0	19.3	6.00e-01	0	44	0	174063616	20	5142
2026-01-21 01:22:34.25	41.72	27.18	-29.8	-32.8	19.5	6.01e-01	0	44	0	176160768	20	5099
2026-01-21 01:22:35.25	41.92	27.35	-29.9	-33.1	19.3	6.01e-01	0	44	0	178257920	20	5191
2026-01-21 01:22:36.25	42.13	27.51	-29.6	-32.4	19.7	6.01e-01	0	44	0	179830784	20	4938
2026-01-21 01:22:37.25	42.34	27.68	-29.6	-32.4	19.8	6.02e-01	0	44	0	181927936	20	4931
2026-01-21 01:22:38.26	42.55	27.85	-29.6	-32.4	19.7	6.01e-01	0	44	0	183500800	20	4940
2026-01-21 01:22:39.26	42.76	28.02	-29.7	-32.5	19.7	6.01e-01	0	44	0	185597952	20	4967
2026-01-21 01:22:40.26	42.98	28.19	-29.6	-32.3	19.8	6.02e-01	0	44	0	187170816	20	4919
2026-01-21 01:22:41.26	43.20	28.36	-29.6	-32.2	19.9	6.00e-01	0	44	0	189267968	20	4869
2026-01-21 01:22:42.26	43.42	28.53	-29.7	-32.5	19.7	6.01e-01	0	44	0	191365120	20	4965
2026-01-21 01:22:43.27	43.64	28.70	-29.7	-32.5	19.7	6.02e-01	0	44	0	192937984	20	4962
2026-01-21 01:22:44.27	43.87	28.87	-29.7	-32.6	19.6	6.02e-01	0	44	0	195035136	20	5017
2026-01-21 01:22:45.27	44.10	29.04	-29.5	-32.1	19.9	6.01e-01	0	44	0	197132288	20	4827
2026-01-21 01:22:46.27	44.33	29.22	-29.4	-31.8	20.1	6.03e-01	0	44	0	198705152	20	4732
2026-01-21 01:22:47.27	44.56	29.39	-29.5	-31.9	20.1	6.01e-01	0	44	0	200802304	20	4784
2026-01-21 01:22:48.28	44.80	29.57	-29.5	-32.0	20.0	6.02e-01	0	44	0	202375168	20	4806
2026-01-21 01:22:49.28	45.04	29.74	-29.3	-31.6	20.2	5.99e-01	0	44	0	204472320	20	4676
2026-01-21 01:22:50.29	45.28	29.92	-29.4	-31.8	20.2	6.01e-01	0	44	0	206045184	20	4722
2026-01-21 01:22:51.29	45.52	30.09	-29.5	-32.0	20.0	6.02e-01	0	44	0	208142336	20	4817
2026-01-21 01:22:52.30	45.77	30.27	-29.5	-32.1	20.0	6.00e-01	0	44	0	210239488	20	4840
2026-01-21 01:22:53.30	46.02	30.45	-29.5	-32.1	20.0	6.01e-01	0	44	0	211812352	20	4842
2026-01-21 01:22:54.31	46.28	30.63	-29.4	-31.8	20.2	6.02e-01	0	44	0	213909504	20	4727
2026-01-21 01:22:55.32	46.53	30.81	-29.4	-31.8	20.1	6.02e-01	0	44	0	215482368	20	4734
2026-01-21 01:22:56.33	46.79	30.99	-29.6	-32.2	19.9	6.00e-01	0	44	0	217579520	20	4875
2026-01-21 01:22:57.33	47.05	31.17	-29.5	-32.0	20.0	6.03e-01	0	45	0	219676672	20	4797
2026-01-21 01:22:58.33	47.32	31.35	-29.4	-31.7	20.2	6.03e-01	0	44	0	221249536	20	4708
2026-01-21 01:22:59.33	47.58	31.53	-29.4	-31.8	20.2	6.00e-01	0	44	0	223346688	20	4737
2026-01-21 01:23:00.33	47.85	31.72	-29.6	-32.3	20.0	6.01e-01	0	45	0	224919552	20	4884
2026-01-21 01:23:01.33	48.13	31.90	-29.7	-32.5	19.8	6.03e-01	0	44	0	227016704	20	4960
2026-01-21 01:23:02.34	48.40	32.08	-29.7	-32.4	19.8	6.01e-01	0	44	0	229113856	20	4926
2026-01-21 01:23:03.34	48.68	32.27	-29.4	-31.8	20.2	6.00e-01	0	44	0	230686720	20	4743
2026-01-21 01:23:04.34	48.97	32.45	-29.6	-32.2	20.0	5.99e-01	0	45	0	232783872	20	4867
2026-01-21 01:23:05.34	49.25	32.63	-29.8	-32.7	19.7	5.99e-01	0	44	0	234356736	20	5033
2026-01-21 01:23:06.35	49.54	32.82	-29.6	-32.4	19.9	6.03e-01	0	44	0	236453888	20	4917
2026-01-21 01:23:07.35	49.83	33.01	-29.7	-32.4	19.8	6.01e-01	0	44	0	238026752	20	4940
2026-01-21 01:23:08.35	50.13	33.19	-30.0	-33.2	19.4	6.00e-01	0	44	0	240123904	20	5199
2026-01-21 01:23:09.35	50.43	33.38	-29.9	-33.1	19.5	6.01e-01	0	44	0	242221056	20	5160
2026-01-21 01:23:10.35	50.73	33.56	-29.9	-33.1	19.5	5.99e-01	0	44	0	243793920	20	5159
2026-01-21 01:23:11.36	51.04	33.75	-29.8	-32.6	19.7	6.01e-01	0	44	0	245891072	20	4997
2026-01-21 01:23:12.36	51.35	33.94	-29.7	-32.4	19.8	5.99e-01	0	44	0	247463936	20	4944
2026-01-21 01:23:13.36	51.66	34.13	-29.7	-32.4	19.9	6.00e-01	0	45	0	249561088	20	4933
2026-01-21 01:23:14.37	51.98	34.32	-29.9	-33.0	19.6	6.01e-01	0	45	0	251133952	20	5125
2026-01-21 01:23:15.37	52.30	34.50	-29.8	-32.8	19.6	6.00e-01	0	44	0	253231104	20	5063
2026-01-21 01:23:16.38	52.63	34.69	-29.9	-32.9	19.5	6.02e-01	0	44	0	255328256	20	5108
2026-01-21 01:23:17.38	52.96	34.88	-30.0	-33.3	19.3	6.03e-01	0	44	0	256901120	20	5263
2026-01-21 01:23:18.38	53.29	35.07	-30.1	-33.4	19.3	6.03e-01	0	44	0	258998272	20	5299
2026-01-21 01:23:19.38	53.63	35.26	-30.2	-33.3	19.1	6.02e-01	0	45	0	260571136	21	5136
2026-01-21 01:23:20.38	53.97	35.45	-30.3	-33.6	18.9	6.02e-01	0	44	0	262668288	21	5231
2026-01-21 01:23:21.38	54.31	35.64	-30.2	-33.2	19.2	5.99e-01	0	45	0	264765440	21	5080
2026-01-21 01:23:22.39	54.66	35.83	-30.1	-33.1	19.2	6.02e-01	0	45	0	266338304	21	5040
2026-01-21 01:23:23.38	55.01	36.02	-30.2	-33.2	19.1	6.00e-01	0	44	0	268435456	21	5090
2026-01-21 01:23:24.39	55.37	36.21	-30.1	-33.1	19.2	5.99e-01	0	44	0	270008320	21	5039
2026-01-21 01:23:25.40	55.74	36.40	-30.2	-33.2	19.1	6.01e-01	0	45	0	272105472	21	5089
2026-01-21 01:23:26.40	56.10	36.59	-30.4	-33.9	18.7	6.02e-01	0	44	0	274202624	21	5344
2026-01-21 01:23:27.40	56.47	36.78	-30.4	-33.9	18.7	6.02e-01	0	44	0	275775488	21	5343
2026-01-21 01:23:28.40	56.84	36.96	-30.5	-33.9	18.7	6.01e-01	0	44	0	277872640	21	5366
2026-01-21 01:23:29.41	57.23	37.15	-30.6	-33.8	18.5	6.00e-01	0	44	0	279445504	22	5224
2026-01-21 01:23:30.41	57.61	37.34	-30.5	-33.5	18.7	5.99e-01	0	44	0	281542656	22	5078
2026-01-21 01:23:31.40	57.99	37.53	-30.6	-33.6	18.6	6.01e-01	0	44	0	283115520	22	5143
2026-01-21 01:23:32.40	58.38	37.72	-30.7	-34.0	18.3	6.00e-01	0	44	0	285212672	22	5282
2026-01-21 01:23:33.41	58.78	37.91	-30.5	-33.6	18.6	6.01e-01	0	44	0	287309824	22	5115
2026-01-21 01:23:34.41	59.18	38.09	-30.4	-33.2	18.9	6.00e-01	0	45	0	288882688	22	4982
2026-01-21 01:23:35.41	59.59	38.28	-30.2	-33.1	19.2	6.04e-01	0	44	0	290979840	21	5068
2026-01-21 01:23:36.41	60.00	38.47	-30.1	-32.8	19.4	6.03e-01	0	44	0	292552704	21	4954
2026-01-21 01:23:37.41	60.41	38.65	-30.0	-32.7	19.5	5.99e-01	0	44	0	294649856	21	4907
2026-01-21 01:23:38.40	60.83	38.83	-30.0	-33.3	19.4	6.02e-01	0	44	0	296222720	20	5239
2026-01-21 01:23:39.41	61.26	39.02	-30.1	-33.0	19.3	6.01e-01	0	45	0	298319872	21	5017
2026-01-21 01:23:40.41	61.69	39.20	-29.9	-32.4	19.6	6.05e-01	0	45	0	300417024	21	4825
2026-01-21 01:23:41.41	62.12	39.39	-29.9	-32.9	19.7	6.01e-01	0	44	0	301989888	20	5092
2026-01-21 01:23:42.41	62.56	39.57	-30.0	-33.1	19.5	6.02e-01	0	44	0	304087040	20	5166
2026-01-21 01:23:43.42	63.01	39.75	-29.9	-33.1	19.6	6.03e-01	0	44	0	305659904	20	5147
2026-01-21 01:23:44.42	63.46	39.93	-30.1	-33.0	19.4	6.01e-01	0	44	0	307757056	21	5011
2026-01-21 01:23:45.43	63.92	40.12	-30.1	-33.0	19.3	5.98e-01	0	44	0	309854208	21	5016
2026-01-21 01:23:46.43	64.38	40.29	-30.3	-33.4	19.0	6.02e-01	0	44	0	311427072	21	5162
2026-01-21 01:23:47.44	64.85	40.47	-30.4	-33.6	18.8	6.01e-01	0	44	0	313524224	21	5259
2026-01-21 01:23:48.44	65.32	40.65	-30.0	-32.6	19.5	6.02e-01	0	44	0	315097088	21	4884
2026-01-21 01:23:49.45	65.80	40.83	-30.0	-33.2	19.5	6.00e-01	0	44	0	317194240	20	5208
2026-01-21 01:23:50.45	66.28	41.00	-30.0	-33.3	19.4	6.03e-01	0	44	0	319291392	20	5256
2026-01-21 01:23:51.45	66.76	41.17	-30.2	-33.3	19.1	6.00e-01	0	45	0	320864256	21	5136
2026-01-21 01:23:52.45	67.25	41.34	-30.3	-33.4	19.0	6.03e-01	0	44	0	322961408	21	5148
2026-01-21 01:23:53.45	67.75	41.51	-30.1	-33.0	19.2	5.99e-01	0	44	0	324534272	21	5020
2026-01-21 01:23:54.45	68.25	41.68	-29.7	-32.5	19.7	6.02e-01	0	45	0	326631424	20	4941
2026-01-21 01:23:55.45	68.76	41.85	-29.8	-32.5	19.6	6.03e-01	0	44	0	328204288	20	4962
2026-01-21 01:23:56.46	69.27	42.01	-30.0	-33.1	19.6	6.01e-01	0	45	0	330301440	20	5161
2026-01-21 01:23:57.46	69.79	42.18	-29.9	-33.0	19.1	5.99e-01	0	45	0	332398592	20	5133
2026-01-21 01:23:58.46	70.31	42.34	-29.5	-32.0	19.8	6.05e-01	0	45	0	333971456	20	4775
2026-01-21 01:23:59.47	70.85	42.50	-29.3	-31.6	20.4	6.02e-01	0	45	0	336068608	20	4643
2026-01-21 01:24:00.47	71.38	42.66	-29.5	-31.9	20.3	6.01e-01	0	44	0	337641472	20	4754
2026-01-21 01:24:01.48	71.92	42.82	-29.5	-31.9	20.3	6.01e-01	0	45	0	339738624	20	4738
2026-01-21 01:24:02.48	72.47	42.97	-29.5	-31.9	20.3	6.01e-01	0	44	0	341835776	20	4738
2026-01-21 01:24:03.49	73.02	43.12	-29.6	-32.1	20.1	6.00e-01	0	44	0	343408640	20	4818
2026-01-21 01:24:04.50	73.58	43.27	-29.3	-31.4	20.5	5.99e-01	0	45	0	345505792	20	4589
2026-01-21 01:24:05.50	74.14	43.42	-29.2	-31.1	20.8	6.01e-01	0	44	0	347078656	20	4485
2026-01-21 01:24:06.50	74.71	43.56	-29.4	-31.6	20.4	5.98e-01	0	44	0	349175808	20	4653
2026-01-21 01:24:07.51	75.28	43.71	-29.3	-31.8	20.7	6.02e-01	0	44	0	351272960	19	4835
2026-01-21 01:24:08.51	75.86	43.85	-29.3	-31.9	20.6	6.01e-01	0	45	0	352845824	19	4862
2026-01-21 01:24:09.51	76.44	43.98	-29.4	-32.1	20.5	6.01e-01	0	44	0	354942976	19	4933
2026-01-21 01:24:10.51	77.02	44.12	-29.3	-31.8	20.7	6.01e-01	0	45	0	356515840	19	4835
2026-01-21 01:24:11.51	77.61	44.25	-29.5	-32.4	20.3	6.02e-01	0	44	0	358612992	19	5030
2026-01-21 01:24:12.51	78.21	44.38	-29.4	-32.1	20.5	5.98e-01	0	44	0	360185856	19	4924
2026-01-21 01:24:13.51	78.81	44.50	-29.5	-32.3	20.4	6.01e-01	0	44	0	362283008	19	5002
2026-01-21 01:24:14.51	79.41	44.62	-29.6	-32.6	20.2	6.00e-01	0	45	0	364380160	19	5101
2026-01-21 01:24:15.52	80.02	44.74	-29.6	-32.2	20.1	6.00e-01	0	44	0	365953024	20	4860
2026-01-21 01:24:16.52	80.64	44.86	-29.7	-32.5	19.9	6.00e-01	0	45	0	368050176	20	4956
2026-01-21 01:24:17.53	81.26	44.97	-29.6	-32.2	20.1	6.01e-01	0	45	0	369623040	20	4844
2026-01-21 01:24:18.53	81.89	45.08	-29.7	-32.4	20.0	6.00e-01	0	44	0	371720192	20	4927
2026-01-21 01:24:19.54	82.52	45.19	-29.9	-32.8	19.8	6.00e-01	0	44	0	373817344	20	5060
2026-01-21 01:24:20.55	83.16	45.30	-30.0	-33.1	19.5	6.00e-01	0	44	0	375390208	20	5166
2026-01-21 01:24:21.55	83.79	45.40	-30.0	-33.0	19.7	6.01e-01	0	44	0	377487360	20	5135
2026-01-21 01:24:22.55	84.43	45.49	-30.0	-32.7	19.5	6.01e-01	0	45	0	379060224	21	4917
2026-01-21 01:24:23.56	85.08	45.58	-29.6	-31.7	20.1	6.00e-01	0	44	0	381157376	21	4580
2026-01-21 01:24:24.57	85.73	45.67	-29.8	-32.1	19.9	6.01e-01	0	44	0	382730240	21	4694
2026-01-21 01:24:25.57	86.38	45.76	-29.8	-32.1	19.8	6.02e-01	0	44	0	384827392	21	4704
2026-01-21 01:24:26.58	87.04	45.84	-29.8	-32.2	19.9	6.01e-01	0	44	0	386924544	21	4722
2026-01-21 01:24:27.58	87.70	45.92	-30.1	-32.9	19.5	6.00e-01	0	44	0	388497408	21	4979
2026-01-21 01:24:28.58	88.36	45.99	-30.2	-33.2	19.2	6.02e-01	0	44	0	390594560	21	5079
2026-01-21 01:24:29.59	89.03	46.06	-29.9	-32.4	19.7	6.04e-01	0	44	0	392691712	21	4810
2026-01-21 01:24:30.59	89.70	46.13	-29.8	-32.2	19.7	6.02e-01	0	45	0	394264576	21	4743
2026-01-21 01:24:31.59	90.37	46.19	-29.9	-32.3	19.8	6.00e-01	0	45	0	396361728	21	4758
2026-01-21 01:24:32.60	91.05	46.25	-30.0	-32.6	19.6	6.03e-01	0	44	0	397934592	21	4864
2026-01-21 01:24:33.60	91.72	46.30	-29.9	-32.3	19.8	6.02e-01	0	44	0	400031744	21	4773
2026-01-21 01:24:34.60	92.40	46.35	-30.4	-33.6	19.1	6.02e-01	0	44	0	401604608	21	5211
2026-01-21 01:24:35.61	93.08	46.39	-30.2	-33.2	19.2	6.02e-01	0	44	0	403701760	21	5077
2026-01-21 01:24:36.61	93.76	46.43	-30.0	-32.7	19.5	6.01e-01	0	44	0	405798912	21	4901
2026-01-21 01:24:37.61	94.44	46.47	-29.7	-31.8	20.1	6.02e-01	0	44	0	407371776	21	4603
2026-01-21 01:24:38.62	95.13	46.50	-29.7	-32.0	20.0	6.02e-01	0	44	0	409468928	21	4670
2026-01-21 01:24:39.62	95.82	46.53	-29.8	-32.2	19.9	6.00e-01	0	45	0	411041792	21	4721
2026-01-21 01:24:40.62	96.50	46.55	-29.7	-31.9	20.0	6.01e-01	0	45	0	413138944	21	4617
2026-01-21 01:24:41.62	97.19	46.57	-29.9	-32.4	19.7	6.02e-01	0	45	0	414711808	21	4791
2026-01-21 01:24:42.62	97.88	46.58	-29.8	-32.2	19.9	6.01e-01	0	44	0	416808960	21	4712
2026-01-21 01:24:43.63	98.57	46.59	-30.1	-33.0	19.4	6.01e-01	0	44	0	418906112	21	4999
2026-01-21 01:24:44.63	99.26	46.60	-29.9	-32.3	19.8	6.02e-01	0	44	0	420478976	21	4779
2026-01-21 01:24:45.63	99.95	46.60	-30.0	-32.6	19.6	5.99e-01	0	45	0	422576128	21	4854
2026-01-21 01:24:46.64	100.65	46.60	-30.0	-32.6	19.6	6.00e-01	0	44	0	424673280	21	4864
2026-01-21 01:24:47.63	101.33	46.59	-29.9	-32.3	19.8	6.00e-01	0	45	0	426246144	21	4775
2026-01-21 01:24:48.64	102.02	46.58	-30.2	-33.3	19.2	6.02e-01	0	45	0	428343296	21	5124
2026-01-21 01:24:49.64	102.71	46.56	-30.3	-33.4	19.1	6.03e-01	0	44	0	429916160	21	5169
2026-01-21 01:24:50.65	103.40	46.54	-29.8	-32.2	19.9	6.02e-01	0	45	0	432013312	21	4730
2026-01-21 01:24:51.65	104.09	46.52	-30.1	-33.0	19.4	6.03e-01	0	45	0	433586176	21	5011
2026-01-21 01:24:52.65	104.77	46.49	-29.8	-32.2	19.9	6.03e-01	0	45	0	435683328	21	4715
2026-01-21 01:24:53.65	105.46	46.45	-30.3	-33.5	19.1	6.04e-01	0	45	0	437780480	21	5186
2026-01-21 01:24:54.66	106.15	46.41	-30.0	-32.7	19.5	5.99e-01	0	45	0	439353344	21	4905
2026-01-21 01:24:55.67	106.83	46.37	-30.0	-32.7	19.6	6.00e-01	0	44	0	441450496	21	4887
2026-01-21 01:24:56.67	107.51	46.32	-29.9	-32.5	19.7	6.01e-01	0	44	0	443023360	21	4820
2026-01-21 01:24:57.67	108.19	46.27	-30.2	-33.1	19.4	6.03e-01	0	45	0	445120512	21	5045
2026-01-21 01:24:58.67	108.86	46.22	-30.2	-33.3	19.2	6.02e-01	0	45	0	446693376	21	5103
2026-01-21 01:24:59.67	109.53	46.16	-30.1	-32.8	19.4	6.02e-01	0	45	0	448790528	21	4947
2026-01-21 01:25:00.67	110.20	46.09	-30.1	-32.9	19.4	6.00e-01	0	44	0	450887680	21	4972
2026-01-21 01:25:01.66	110.86	46.03	-30.3	-33.4	19.2	6.02e-01	0	44	0	452460544	21	5144
2026-01-21 01:25:02.66	111.52	45.96	-30.3	-33.5	19.1	6.00e-01	0	45	0	454557696	21	5189
2026-01-21 01:25:03.67	112.19	45.88	-30.2	-33.1	19.4	6.03e-01	0	45	0	456130560	21	5024
2026-01-21 01:25:04.67	112.84	45.80	-30.2	-33.2	19.2	6.01e-01	0	44	0	458227712	21	5068
2026-01-21 01:25:05.68	113.50	45.72	-30.0	-32.6	19.6	6.02e-01	0	44	0	460324864	21	4873
2026-01-21 01:25:06.68	114.15	45.63	-30.3	-33.5	19.1	5.99e-01	0	45	0	461897728	21	5182
2026-01-21 01:25:07.68	114.80	45.54	-30.2	-33.2	19.3	6.00e-01	0	44	0	463994880	21	5085
2026-01-21 01:25:08.68	115.44	45.45	-30.3	-33.4	19.2	6.01e-01	0	44	0	465567744	21	5150
2026-01-21 01:25:09.68	116.08	45.35	-30.4	-33.6	19.1	6.00e-01	0	44	0	467664896	21	5234
2026-01-21 01:25:10.69	116.72	45.25	-30.4	-33.7	19.0	6.01e-01	0	44	0	469762048	21	5248
2026-01-21 01:25:11.69	117.35	45.14	-30.4	-33.5	19.1	6.00e-01	0	44	0	471334912	21	5199
2026-01-21 01:25:12.69	117.97	45.03	-30.2	-33.1	19.3	6.01e-01	0	45	0	473432064	21	5043
2026-01-21 01:25:13.70	118.60	44.92	-29.9	-32.3	19.8	6.03e-01	0	45	0	475004928	21	4764
2026-01-21 01:25:14.70	119.22	44.81	-30.2	-33.0	19.4	6.03e-01	0	44	0	477102080	21	5011
2026-01-21 01:25:15.70	119.83	44.69	-30.4	-33.5	19.1	5.99e-01	0	45	0	478674944	21	5189
2026-01-21 01:25:16.71	120.45	44.57	-30.2	-33.1	19.4	6.00e-01	0	44	0	480772096	21	5028
2026-01-21 01:25:17.71	121.05	44.44	-30.2	-33.1	19.3	6.02e-01	0	44	0	482869248	21	5052
2026-01-21 01:25:18.71	121.65	44.31	-30.2	-33.1	19.3	6.01e-01	0	45	0	484442112	21	5049
2026-01-21 01:25:19.72	122.25	44.18	-30.3	-33.4	19.2	6.02e-01	0	45	0	486539264	21	5140
2026-01-21 01:25:20.72	122.84	44.05	-30.2	-33.2	19.2	6.02e-01	0	45	0	488112128	21	5085
2026-01-21 01:25:21.72	123.42	43.91	-30.3	-33.4	19.2	5.99e-01	0	44	0	490209280	21	5132
2026-01-21 01:25:22.72	124.00	43.78	-30.3	-33.4	19.2	6.05e-01	0	44	0	491782144	21	5132
2026-01-21 01:25:23.72	124.57	43.63	-30.3	-33.4	19.2	6.01e-01	0	44	0	493879296	21	5155
2026-01-21 01:25:24.73	125.15	43.49	-30.3	-33.5	19.1	5.99e-01	0	45	0	495976448	21	5178
2026-01-21 01:25:25.74	125.72	43.34	-30.2	-33.2	19.3	6.01e-01	0	45	0	497549312	21	5078
2026-01-21 01:25:26.75	126.28	43.19	-30.3	-33.4	19.2	6.00e-01	0	45	0	499646464	21	5145
2026-01-21 01:25:27.75	126.83	43.04	-30.4	-33.7	19.0	6.02e-01	0	44	0	501743616	21	5256
2026-01-21 01:25:28.75	127.38	42.89	-30.1	-33.0	19.4	6.02e-01	0	44	0	503316480	21	5000
2026-01-21 01:25:29.75	127.92	42.73	-30.1	-33.0	19.4	6.01e-01	0	44	0	505413632	21	5005
2026-01-21 01:25:30.75	128.46	42.58	-30.4	-33.6	19.0	5.99e-01	0	45	0	506986496	21	5234
2026-01-21 01:25:31.76	129.00	42.42	-30.4	-33.8	18.9	6.02e-01	0	45	0	509083648	21	5291
2026-01-21 01:25:32.76	129.52	42.26	-30.3	-33.5	19.1	6.00e-01	0	45	0	510656512	21	5172
2026-01-21 01:25:33.76	130.05	42.09	-30.2	-33.3	19.3	6.01e-01	0	45	0	512753664	21	5088
2026-01-21 01:25:34.76	130.56	41.93	-30.4	-33.8	19.0	6.03e-01	0	45	0	514850816	21	5287
2026-01-21 01:25:35.77	131.08	41.76	-30.4	-33.7	19.0	6.01e-01	0	44	0	516423680	21	5269
2026-01-21 01:25:36.77	131.58	41.59	-30.7	-34.0	18.5	6.01e-01	0	44	0	518520832	22	5260
2026-01-21 01:25:37.78	132.09	41.42	-30.4	-33.1	19.0	6.02e-01	0	44	0	520093696	22	4944
2026-01-21 01:25:38.78	132.58	41.25	-30.2	-32.8	19.2	6.00e-01	0	45	0	522190848	22	4862
2026-01-21 01:25:39.79	133.08	41.08	-30.5	-33.5	18.8	6.01e-01	0	45	0	524288000	22	5083
2026-01-21 01:25:40.80	133.57	40.90	-30.5	-33.5	18.8	6.00e-01	0	44	0	525860864	22	5107
2026-01-21 01:25:41.80	134.04	40.72	-30.4	-33.3	18.7	6.00e-01	0	44	0	527958016	22	5001
2026-01-21 01:25:42.80	134.52	40.55	-30.4	-33.8	18.6	6.01e-01	0	44	0	529530880	21	5302
2026-01-21 01:25:43.80	134.99	40.37	-30.3	-33.5	19.1	6.01e-01	0	45	0	531628032	21	5203
2026-01-21 01:25:44.80	135.45	40.19	-30.5	-33.9	18.8	6.01e-01	0	44	0	533200896	21	5357
2026-01-21 01:25:45.80	135.91	40.01	-30.5	-34.0	18.7	6.02e-01	0	44	0	535298048	21	5394
2026-01-21 01:25:46.80	136.36	39.83	-30.5	-33.9	18.9	6.01e-01	0	45	0	537395200	21	5347
2026-01-21 01:25:47.81	136.81	39.65	-30.5	-33.9	18.8	6.01e-01	0	45	0	538968064	21	5341
2026-01-21 01:25:48.82	137.26	39.46	-30.7	-34.0	18.5	6.02e-01	0	44	0	541065216	22	5266
2026-01-21 01:25:49.82	137.70	39.28	-30.9	-34.5	18.1	6.00e-01	0	45	0	543162368	22	5474
2026-01-21 01:25:50.82	138.13	39.09	-30.7	-34.0	18.5	5.99e-01	0	45	0	544735232	22	5241
2026-01-21 01:25:51.82	138.56	38.91	-30.5	-33.9	18.9	6.00e-01	0	45	0	546832384	21	5325
2026-01-21 01:25:52.82	138.98	38.72	-30.7	-34.0	18.5	5.98e-01	0	44	0	548405248	22	5259
2026-01-21 01:25:53.83	139.41	38.54	-31.0	-34.8	18.0	6.01e-01	0	44	0	550502400	22	5565
2026-01-21 01:25:54.83	139.82	38.35	-30.8	-34.4	18.2	6.01e-01	0	44	0	552075264	22	5403
2026-01-21 01:25:55.83	140.23	38.16	-30.7	-34.1	18.4	6.03e-01	0	44	0	554172416	22	5316
2026-01-21 01:25:56.83	140.63	37.97	-30.9	-34.5	18.2	6.03e-01	0	44	0	556269568	22	5449
2026-01-21 01:25:57.84	141.04	37.78	-30.8	-34.2	18.3	6.02e-01	0	45	0	557842432	22	5351
2026-01-21 01:25:58.84	141.43	37.60	-30.6	-33.7	18.7	6.02e-01	0	44	0	559939584	22	5122
2026-01-21 01:25:59.84	141.82	37.41	-30.7	-34.0	18.5	5.99e-01	0	44	0	561512448	22	5269
2026-01-21 01:26:00.85	142.21	37.22	-30.8	-34.2	18.4	5.99e-01	0	44	0	563609600	22	5334
2026-01-21 01:26:01.84	142.59	37.03	-30.5	-33.5	18.8	6.00e-01	0	44	0	565182464	22	5076
2026-01-21 01:26:02.85	142.97	36.84	-30.1	-33.0	19.4	6.02e-01	0	45	0	567279616	21	4989
2026-01-21 01:26:03.85	143.34	36.65	-30.0	-33.1	19.6	6.03e-01	0	44	0	569376768	20	5161
2026-01-21 01:26:04.86	143.71	36.45	-30.1	-33.0	19.3	6.03e-01	0	44	0	570949632	21	5003
2026-01-21 01:26:05.86	144.08	36.26	-30.2	-33.2	19.2	6.01e-01	0	45	0	573046784	21	5092
2026-01-21 01:26:06.86	144.44	36.07	-30.0	-33.2	19.5	6.00e-01	0	45	0	574619648	20	5180
2026-01-21 01:26:07.87	144.80	35.88	-30.0	-33.1	19.6	6.03e-01	0	44	0	576716800	20	5164
2026-01-21 01:26:08.87	145.15	35.69	-30.2	-33.1	19.3	6.01e-01	0	45	0	578289664	21	5034
2026-01-21 01:26:09.87	145.49	35.50	-30.0	-33.3	19.5	6.01e-01	0	44	0	580386816	20	5233
2026-01-21 01:26:10.87	145.84	35.31	-30.2	-33.2	19.3	6.01e-01	0	45	0	582483968	21	5067
2026-01-21 01:26:11.87	146.17	35.12	-29.9	-32.9	19.7	6.01e-01	0	44	0	584056832	20	5088
2026-01-21 01:26:12.88	146.51	34.93	-29.5	-32.0	20.2	6.02e-01	0	44	0	586153984	20	4783
2026-01-21 01:26:13.88	146.84	34.74	-29.4	-31.8	20.3	5.99e-01	0	45	0	588251136	20	4702
2026-01-21 01:26:14.88	147.17	34.55	-29.6	-32.1	20.2	6.03e-01	0	44	0	589824000	20	4831
2026-01-21 01:26:15.88	147.49	34.36	-29.6	-32.2	20.1	6.01e-01	0	45	0	591921152	20	4860
2026-01-21 01:26:16.89	147.82	34.17	-29.7	-32.4	20.0	6.00e-01	0	45	0	593494016	20	4920
2026-01-21 01:26:17.89	148.13	33.98	-29.4	-31.8	20.3	6.01e-01	0	44	0	595591168	20	4716
2026-01-21 01:26:18.89	148.44	33.80	-29.3	-31.9	20.6	5.99e-01	0	45	0	597164032	19	4861
2026-01-21 01:26:19.90	148.76	33.61	-29.3	-32.0	20.6	6.01e-01	0	44	0	599261184	19	4888
2026-01-21 01:26:20.89	149.06	33.42	-29.4	-32.2	20.4	6.00e-01	0	45	0	601358336	19	4965
2026-01-21 01:26:21.89	149.36	33.23	-29.3	-31.9	20.6	5.99e-01	0	44	0	602931200	19	4848
2026-01-21 01:26:22.89	149.66	33.05	-29.4	-32.1	20.5	6.03e-01	0	44	0	605028352	19	4925
2026-01-21 01:26:23.90	149.96	32.86	-29.3	-31.9	20.6	6.00e-01	0	45	0	606601216	19	4862
2026-01-21 01:26:24.89	150.24	32.67	-29.3	-31.8	20.6	6.01e-01	0	45	0	608698368	19	4834
2026-01-21 01:26:25.90	150.53	32.49	-29.3	-31.9	20.6	6.00e-01	0	44	0	610271232	19	4845
2026-01-21 01:26:26.90	150.82	32.30	-29.5	-32.3	20.4	6.01e-01	0	45	0	612368384	19	4982
2026-01-21 01:26:27.90	151.10	32.12	-29.3	-32.0	20.5	5.99e-01	0	45	0	614465536	19	4891
2026-01-21 01:26:28.90	151.38	31.93	-29.3	-31.9	20.6	6.02e-01	0	45	0	616038400	19	4840
2026-01-21 01:26:29.91	151.65	31.75	-29.4	-32.0	20.5	6.00e-01	0	44	0	618135552	19	4903
2026-01-21 01:26:30.91	151.93	31.57	-29.3	-32.0	20.5	6.01e-01	0	44	0	619708416	19	4892
2026-01-21 01:26:31.91	152.20	31.38	-29.4	-32.2	20.4	6.00e-01	0	44	0	621805568	19	4949
2026-01-21 01:26:32.92	152.46	31.20	-29.2	-31.7	20.7	6.00e-01	0	44	0	623902720	19	4789
2026-01-21 01:26:33.93	152.73	31.02	-29.1	-31.5	20.8	6.00e-01	0	45	0	625475584	19	4734
2026-01-21 01:26:34.92	152.99	30.84	-29.2	-31.6	20.7	6.01e-01	0	45	0	627572736	19	4759
2026-01-21 01:26:35.92	153.24	30.66	-29.2	-31.6	20.8	6.01e-01	0	45	0	629145600	19	4749
2026-01-21 01:26:36.93	153.50	30.48	-29.2	-31.8	20.7	6.02e-01	0	44	0	631242752	19	4813
2026-01-21 01:26:37.93	153.75	30.30	-29.3	-32.0	20.5	6.00e-01	0	44	0	633339904	19	4876
2026-01-21 01:26:38.93	154.00	30.12	-29.3	-31.9	20.5	6.03e-01	0	44	0	634912768	19	4869
2026-01-21 01:26:39.93	154.24	29.94	-29.3	-32.0	20.5	6.02e-01	0	44	0	637009920	19	4898
2026-01-21 01:26:40.93	154.49	29.76	-29.3	-31.8	20.6	6.03e-01	0	44	0	638582784	19	4823
2026-01-21 01:26:41.93	154.73	29.59	-29.4	-32.0	20.4	6.01e-01	0	45	0	640679936	19	4908
2026-01-21 01:26:42.94	154.96	29.41	-29.4	-32.2	20.3	6.01e-01	0	44	0	642252800	19	4958
2026-01-21 01:26:43.94	155.20	29.23	-29.4	-32.1	20.4	6.00e-01	0	44	0	644349952	19	4927
2026-01-21 01:26:44.94	155.43	29.06	-29.4	-32.1	20.4	6.04e-01	0	45	0	646447104	19	4934
2026-01-21 01:26:45.95	155.66	28.88	-29.4	-32.1	20.4	6.01e-01	0	45	0	648019968	19	4915
2026-01-21 01:26:46.95	155.89	28.71	-29.6	-32.6	20.1	6.01e-01	0	45	0	650117120	19	5093
2026-01-21 01:26:47.95	156.12	28.54	-29.5	-32.4	20.2	5.99e-01	0	45	0	651689984	19	5042
2026-01-21 01:26:48.95	156.34	28.37	-29.5	-32.6	20.1	6.00e-01	0	44	0	653787136	19	5094
2026-01-21 01:26:49.96	156.56	28.19	-29.6	-32.6	20.1	5.98e-01	0	45	0	655360000	19	5118
2026-01-21 01:26:50.96	156.78	28.02	-29.6	-32.3	19.9	6.03e-01	0	44	0	657457152	20	4893
2026-01-21 01:26:51.97	156.99	27.85	-29.9	-32.9	19.5	6.02e-01	0	44	0	659554304	20	5129
2026-01-21 01:26:52.97	157.21	27.68	-29.7	-32.6	19.7	6.03e-01	0	44	0	661127168	20	4992
2026-01-21 01:26:53.98	157.42	27.51	-29.6	-32.2	19.9	6.01e-01	0	44	0	663224320	20	4863
2026-01-21 01:26:54.97	157.63	27.35	-29.6	-32.6	20.0	6.03e-01	0	44	0	665321472	19	5117
2026-01-21 01:26:55.98	157.83	27.18	-29.6	-32.2	19.9	6.00e-01	0	44	0	666894336	20	4849
2026-01-21 01:26:56.98	158.04	27.01	-29.8	-32.7	19.6	6.00e-01	0	44	0	668991488	20	5032
2026-01-21 01:26:57.98	158.24	26.85	-29.7	-32.4	19.8	6.01e-01	0	44	0	670564352	20	4934
2026-01-21 01:26:58.98	158.44	26.68	-29.6	-32.3	19.8	6.02e-01	0	44	0	672661504	20	4886
2026-01-21 01:26:59.98	158.64	26.52	-29.6	-32.3	19.8	5.99e-01	0	45	0	674234368	20	4914
2026-01-21 01:27:00.98	158.83	26.36	-29.7	-32.4	19.8	6.02e-01	0	44	0	676331520	20	4945
2026-01-21 01:27:01.97	159.02	26.20	-29.7	-32.5	19.7	5.99e-01	0	44	0	678428672	20	4971
2026-01-21 01:27:02.98	159.22	26.03	-29.9	-33.0	19.4	5.99e-01	0	45	0	680001536	20	5144
2026-01-21 01:27:03.97	159.40	25.87	-29.7	-32.5	19.7	6.00e-01	0	45	0	682098688	20	4993
2026-01-21 01:27:04.98	159.59	25.71	-29.6	-32.3	19.7	6.01e-01	0	44	0	683671552	20	4922
2026-01-21 01:27:05.99	159.78	25.55	-29.6	-32.3	19.8	6.02e-01	0	44	0	685768704	20	4914
2026-01-21 01:27:06.99	159.97	25.39	-29.7	-32.4	19.5	6.02e-01	0	44	0	687341568	20	4963
2026-01-21 01:27:08.00	160.15	25.23	-29.7	-32.5	19.6	6.02e-01	0	45	0	689438720	20	4975
2026-01-21 01:27:09.00	160.33	25.08	-29.7	-32.5	19.7	6.02e-01	0	45	0	691535872	20	4987
2026-01-21 01:27:10.01	160.51	24.92	-29.8	-32.9	19.4	6.01e-01	0	45	0	693108736	20	5131
2026-01-21 01:27:11.00	160.68	24.76	-29.7	-32.6	19.5	6.03e-01	0	44	0	695205888	20	5022
2026-01-21 01:27:12.00	160.86	24.61	-29.7	-32.5	19.6	5.99e-01	0	44	0	696778752	20	5004
2026-01-21 01:27:13.01	161.03	24.45	-29.7	-32.7	19.4	6.02e-01	0	44	0	698875904	20	5057
2026-01-21 01:27:14.01	161.20	24.30	-29.7	-32.7	19.4	6.04e-01	0	44	0	700448768	20	5045
2026-01-21 01:27:15.00	161.37	24.15	-29.8	-32.9	19.4	6.04e-01	0	44	0	702545920	20	5149
2026-01-21 01:27:16.00	161.54	24.00	-29.8	-32.8	19.5	6.00e-01	0	44	0	704643072	20	5091
2026-01-21 01:27:17.00	161.71	23.84	-29.8	-32.9	19.5	6.02e-01	0	45	0	706215936	20	5119
2026-01-21 01:27:18.01	161.87	23.69	-29.8	-32.9	19.5	6.02e-01	0	45	0	708313088	20	5114
2026-01-21 01:27:19.01	162.04	23.54	-29.8	-32.9	19.4	6.01e-01	0	44	0	709885952	20	5122
2026-01-21 01:27:20.01	162.20	23.39	-29.7	-32.7	19.5	5.99e-01	0	44	0	711983104	20	5046
2026-01-21 01:27:21.02	162.36	23.24	-29.8	-32.7	19.5	6.02e-01	0	44	0	714080256	20	5065
2026-01-21 01:27:22.01	162.52	23.10	-29.9	-33.0	19.3	6.00e-01	0	44	0	715653120	20	5159
2026-01-21 01:27:23.02	162.67	22.95	-29.9	-33.1	19.3	6.01e-01	0	44	0	717750272	20	5187
2026-01-21 01:27:24.02	162.83	22.80	-30.0	-33.3	19.1	6.00e-01	0	44	0	719323136	20	5282
2026-01-21 01:27:25.02	162.98	22.66	-29.9	-33.2	19.2	6.00e-01	0	44	0	721420288	20	5248
2026-01-21 01:27:26.03	163.14	22.51	-30.0	-33.5	19.0	6.02e-01	0	45	0	723517440	20	5355
2026-01-21 01:27:27.03	163.29	22.36	-29.9	-33.2	19.2	6.05e-01	0	45	0	725090304	20	5270
2026-01-21 01:27:28.03	163.44	22.22	-29.9	-33.2	19.2	6.00e-01	0	45	0	727187456	20	5269
2026-01-21 01:27:29.03	163.59	22.08	-29.9	-33.1	19.2	6.01e-01	0	45	0	728760320	20	5246
2026-01-21 01:27:30.03	163.73	21.94	-30.0	-33.5	18.9	6.02e-01	0	45	0	730857472	20	5413
2026-01-21 01:27:31.04	163.88	21.79	-29.8	-33.0	19.2	6.00e-01	0	45	0	732430336	20	5205
2026-01-21 01:27:32.04	164.02	21.65	-29.6	-32.6	19.4	6.03e-01	0	44	0	734527488	20	5073
2026-01-21 01:27:33.05	164.17	21.51	-29.6	-32.5	19.5	6.00e-01	0	44	0	736624640	20	5032
2026-01-21 01:27:34.05	164.31	21.37	-29.6	-32.6	19.4	6.00e-01	0	45	0	738197504	20	5067
2026-01-21 01:27:35.05	164.45	21.23	-29.8	-33.0	19.2	6.00e-01	0	44	0	740294656	20	5198
2026-01-21 01:27:36.06	164.59	21.09	-29.6	-32.6	19.4	6.01e-01	0	45	0	741867520	20	5050
2026-01-21 01:27:37.06	164.73	20.96	-29.7	-32.8	19.4	6.01e-01	0	45	0	743964672	20	5131
2026-01-21 01:27:38.07	164.86	20.82	-28.5	-31.4	19.5	6.01e-01	0	45	0	745537536	20	5026
2026-01-21 01:27:39.07	165.00	20.68	-29.6	-32.9	18.3	6.02e-01	0	44	0	747634688	19	5286
2026-01-21 01:27:40.08	165.13	20.54	-29.6	-32.4	19.5	6.00e-01	0	44	0	749731840	20	4989
2026-01-21 01:27:41.08	165.27	20.41	-29.5	-32.3	19.4	6.01e-01	0	45	0	751304704	20	4933
2026-01-21 01:27:42.09	165.40	20.27	-29.6	-32.5	19.5	6.01e-01	0	45	0	753401856	20	4991
2026-01-21 01:27:43.09	165.53	20.14	-29.6	-32.3	19.7	6.04e-01	0	45	0	755499008	20	4910
2026-01-21 01:27:44.10	165.66	20.01	-29.6	-32.4	19.6	6.03e-01	0	44	0	757071872	20	4939
2026-01-21 01:27:45.09	165.79	19.87	-29.6	-32.4	19.6	6.00e-01	0	45	0	759169024	20	4947
2026-01-21 01:27:46.09	165.91	19.74	-29.7	-32.5	19.5	6.00e-01	0	44	0	760741888	20	4990
2026-01-21 01:27:47.10	166.04	19.61	-29.6	-32.3	19.7	6.01e-01	0	45	0	762839040	20	4917
2026-01-21 01:27:48.10	166.17	19.48	-29.6	-32.3	19.7	6.01e-01	0	45	0	764411904	20	4929
2026-01-21 01:27:49.11	166.29	19.35	-29.6	-32.3	19.7	6.02e-01	0	45	0	766509056	20	4908
2026-01-21 01:27:50.11	166.41	19.22	-29.5	-32.2	19.7	5.98e-01	0	45	0	768606208	20	4887
2026-01-21 01:27:51.11	166.53	19.09	-29.6	-32.8	19.7	5.98e-01	0	44	0	770179072	19	5196
2026-01-21 01:27:52.12	166.66	18.96	-29.6	-32.3	19.6	6.02e-01	0	45	0	772276224	20	4928
2026-01-21 01:27:53.12	166.78	18.84	-29.7	-32.7	19.4	6.01e-01	0	45	0	773849088	20	5064
2026-01-21 01:27:54.12	166.89	18.71	-29.5	-32.2	19.6	6.02e-01	0	45	0	775946240	20	4899
2026-01-21 01:27:55.13	167.01	18.58	-29.5	-32.6	19.7	6.01e-01	0	45	0	778043392	19	5146
2026-01-21 01:27:56.13	167.13	18.46	-29.5	-32.6	19.7	6.03e-01	0	45	0	779616256	19	5138
2026-01-21 01:27:57.13	167.24	18.33	-29.5	-32.6	19.7	6.02e-01	0	45	0	781713408	19	5139
2026-01-21 01:27:58.13	167.36	18.21	-29.5	-32.7	19.7	6.00e-01	0	45	0	783286272	19	5184
2026-01-21 01:27:59.13	167.47	18.08	-29.5	-32.2	19.5	6.00e-01	0	45	0	785383424	20	4932
2026-01-21 01:28:00.13	167.59	17.96	-29.5	-32.6	19.8	6.01e-01	0	45	0	787480576	19	5136
2026-01-21 01:28:01.14	167.70	17.84	-29.5	-32.5	19.8	5.99e-01	0	44	0	789053440	19	5122
2026-01-21 01:28:02.14	167.81	17.71	-29.5	-32.7	19.7	6.00e-01	0	45	0	791150592	19	5200
2026-01-21 01:28:03.15	167.92	17.59	-29.5	-32.7	19.7	6.01e-01	0	45	0	792723456	19	5195
2026-01-21 01:28:04.15	168.03	17.47	-29.6	-32.4	19.5	6.02e-01	0	45	0	794820608	20	4967
2026-01-21 01:28:05.15	168.14	17.35	-29.7	-32.7	19.3	6.02e-01	0	45	0	796393472	20	5102
2026-01-21 01:28:06.15	168.24	17.23	-29.5	-32.3	19.5	5.99e-01	0	45	0	798490624	20	4935
2026-01-21 01:28:07.15	168.35	17.11	-29.6	-32.8	19.7	6.01e-01	0	45	0	800587776	19	5208
2026-01-21 01:28:08.15	168.46	16.99	-29.5	-32.7	19.7	6.00e-01	0	45	0	802160640	19	5202
2026-01-21 01:28:09.16	168.56	16.87	-29.5	-32.8	19.6	6.00e-01	0	45	0	804257792	19	5211
2026-01-21 01:28:10.16	168.66	16.76	-29.6	-32.5	19.4	6.01e-01	0	45	0	805830656	20	5020
2026-01-21 01:28:11.17	168.77	16.64	-29.8	-32.9	19.1	6.01e-01	0	45	0	807927808	20	5178
2026-01-21 01:28:12.17	168.87	16.52	-30.0	-33.5	18.8	6.00e-01	0	45	0	810024960	20	5379
2026-01-21 01:28:13.17	168.97	16.41	-29.7	-32.8	19.2	6.02e-01	0	45	0	811597824	20	5120
2026-01-21 01:28:14.17	169.07	16.29	-29.6	-32.3	19.5	6.02e-01	0	45	0	813694976	20	4958
2026-01-21 01:28:15.18	169.17	16.17	-29.5	-32.7	19.6	6.00e-01	0	45	0	815267840	19	5199
2026-01-21 01:28:16.18	169.27	16.06	-29.6	-32.4	19.5	6.02e-01	0	45	0	817364992	20	4979
2026-01-21 01:28:17.18	169.37	15.95	-29.6	-32.4	19.4	6.01e-01	0	45	0	818937856	20	4976
2026-01-21 01:28:18.19	169.47	15.83	-29.6	-32.9	19.5	6.03e-01	0	45	0	821035008	19	5251
2026-01-21 01:28:19.18	169.56	15.72	-29.6	-32.4	19.5	6.00e-01	0	44	0	823132160	20	4970
2026-01-21 01:28:20.18	169.66	15.61	-29.7	-32.7	19.2	6.03e-01	0	45	0	824705024	20	5103
2026-01-21 01:28:21.18	169.76	15.50	-29.9	-33.3	18.8	6.01e-01	0	45	0	826802176	20	5317
2026-01-21 01:28:22.18	169.85	15.38	-29.8	-33.0	19.1	6.01e-01	0	45	0	828375040	20	5196
2026-01-21 01:28:23.18	169.94	15.27	-29.9	-33.3	18.9	6.02e-01	0	45	0	830472192	20	5319
2026-01-21 01:28:24.19	170.04	15.16	-29.7	-32.9	19.1	5.98e-01	0	45	0	832569344	20	5179
2026-01-21 01:28:25.19	170.13	15.05	-29.7	-32.8	19.1	6.02e-01	0	45	0	834142208	20	5154
2026-01-21 01:28:26.19	170.22	14.94	-29.6	-32.7	19.1	5.99e-01	0	44	0	836239360	20	5115
2026-01-21 01:28:27.20	170.31	14.83	-29.6	-32.7	19.2	6.02e-01	0	44	0	837812224	20	5108
2026-01-21 01:28:28.20	170.40	14.72	-29.7	-32.8	19.1	6.04e-01	0	45	0	839909376	20	5173
2026-01-21 01:28:29.21	170.49	14.62	-29.5	-32.5	19.2	6.00e-01	0	44	0	841482240	20	5051
2026-01-21 01:28:30.21	170.58	14.51	-29.5	-32.9	19.3	6.01e-01	0	45	0	843579392	19	5333
2026-01-21 01:28:31.22	170.67	14.40	-29.5	-32.5	19.2	6.02e-01	0	45	0	845676544	20	5060
2026-01-21 01:28:32.22	170.76	14.29	-29.5	-33.0	19.2	6.00e-01	0	44	0	847249408	19	5362
2026-01-21 01:28:33.22	170.85	14.19	-29.5	-32.5	19.1	6.02e-01	0	45	0	849346560	20	5085
2026-01-21 01:28:34.23	170.93	14.08	-29.7	-32.9	18.9	6.00e-01	0	45	0	850919424	20	5230
2026-01-21 01:28:35.23	171.02	13.98	-29.8	-33.2	18.7	6.00e-01	0	45	0	853016576	20	5333
2026-01-21 01:28:36.23	171.11	13.87	-29.7	-33.0	18.9	6.01e-01	0	44	0	855113728	20	5240
2026-01-21 01:28:37.24	171.19	13.77	-29.8	-33.3	18.7	6.02e-01	0	45	0	856686592	20	5365
2026-01-21 01:28:38.23	171.27	13.66	-29.7	-32.9	18.9	6.00e-01	0	45	0	858783744	20	5207
2026-01-21 01:28:39.24	171.36	13.56	-29.7	-32.9	19.0	6.01e-01	0	45	0	860356608	20	5189
2026-01-21 01:28:40.23	171.44	13.46	-29.7	-32.9	19.0	6.01e-01	0	45	0	862453760	20	5194
2026-01-21 01:28:41.24	171.52	13.35	-29.7	-33.0	18.9	5.97e-01	0	45	0	864026624	20	5229
2026-01-21 01:28:42.24	171.60	13.25	-29.9	-33.5	18.6	6.02e-01	0	45	0	866123776	20	5407
2026-01-21 01:28:43.24	171.69	13.15	-29.7	-33.0	18.9	6.01e-01	0	45	0	868220928	20	5210
2026-01-21 01:28:44.25	171.77	13.05	-29.6	-32.6	19.2	6.03e-01	0	45	0	869793792	20	5064
2026-01-21 01:28:45.25	171.85	12.95	-29.5	-32.4	19.3	6.00e-01	0	45	0	871890944	20	5009
2026-01-21 01:28:46.26	171.93	12.84	-29.6	-32.5	19.2	6.01e-01	0	45	0	873463808	20	5042
2026-01-21 01:28:47.26	172.00	12.74	-29.6	-32.5	19.2	6.03e-01	0	45	0	875560960	20	5052
2026-01-21 01:28:48.27	172.08	12.64	-29.6	-32.7	19.0	6.01e-01	0	45	0	877658112	20	5123
2026-01-21 01:28:49.27	172.16	12.55	-29.6	-32.5	19.2	6.00e-01	0	45	0	879230976	20	5050
2026-01-21 01:28:50.28	172.24	12.45	-29.6	-32.6	19.1	6.01e-01	0	45	0	881328128	20	5061
2026-01-21 01:28:51.28	172.32	12.35	-29.7	-32.7	19.0	6.00e-01	0	45	0	882900992	20	5126
2026-01-21 01:28:52.28	172.39	12.25	-29.7	-32.9	18.9	6.03e-01	0	45	0	884998144	20	5192
2026-01-21 01:28:53.29	172.47	12.15	-29.7	-32.7	19.0	6.00e-01	0	45	0	887095296	20	5126
2026-01-21 01:28:54.29	172.54	12.05	-29.7	-32.9	18.9	6.00e-01	0	45	0	888668160	20	5182
2026-01-21 01:28:55.29	172.62	11.96	-29.7	-32.8	19.0	5.99e-01	0	45	0	890765312	20	5137
2026-01-21 01:28:56.30	172.69	11.86	-29.7	-32.8	18.9	6.02e-01	0	45	0	892338176	20	5162
2026-01-21 01:28:57.30	172.77	11.76	-29.7	-32.9	18.9	6.01e-01	0	45	0	894435328	20	5186
2026-01-21 01:28:58.30	172.84	11.67	-29.8	-33.0	18.9	6.01e-01	0	45	0	896008192	20	5222
2026-01-21 01:28:59.30	172.91	11.57	-29.7	-32.8	18.9	6.03e-01	0	44	0	898105344	20	5147
2026-01-21 01:29:00.30	172.98	11.48	-29.7	-32.8	19.0	6.00e-01	0	44	0	900202496	20	5149
2026-01-21 01:29:01.30	173.06	11.38	-29.7	-32.8	18.9	6.00e-01	0	45	0	901775360	20	5158
2026-01-21 01:29:02.31	173.13	11.29	-29.7	-32.9	18.9	6.00e-01	0	45	0	903872512	20	5166
2026-01-21 01:29:03.32	173.20	11.19	-29.7	-32.9	18.9	6.00e-01	0	45	0	905445376	20	5190
2026-01-21 01:29:04.32	173.27	11.10	-29.7	-32.9	18.9	5.99e-01	0	45	0	907542528	20	5185
2026-01-21 01:29:05.32	173.34	11.01	-29.8	-33.1	18.8	6.01e-01	0	45	0	909639680	20	5253
2026-01-21 01:29:06.32	173.41	10.91	-29.9	-33.4	18.5	6.02e-01	0	45	0	911212544	20	5386
2026-01-21 01:29:07.33	173.48	10.82	-29.9	-33.5	18.5	6.01e-01	0	45	0	913309696	20	5400
2026-01-21 01:29:08.33	173.55	10.73	-29.9	-33.4	18.5	6.02e-01	0	45	0	914882560	20	5392
2026-01-21 01:29:09.33	173.61	10.64	-30.0	-33.6	18.4	6.02e-01	0	45	0	916979712	20	5447
2026-01-21 01:29:10.33	173.68	10.55	-30.0	-33.8	18.3	6.04e-01	0	44	0	919076864	20	5550
2026-01-21 01:29:11.33	173.75	10.46	-30.3	-33.9	17.9	6.02e-01	0	44	0	920649728	21	5444
2026-01-21 01:29:12.33	173.81	10.37	-30.5	-34.7	17.4	5.98e-01	0	45	0	922746880	21	5801
2026-01-21 01:29:13.33	173.88	10.27	-30.5	-34.5	17.4	6.01e-01	0	44	0	924319744	21	5695
2026-01-21 01:29:14.33	173.95	10.19	-30.5	-34.5	17.5	5.99e-01	0	45	0	926416896	21	5739
2026-01-21 01:29:15.33	174.01	10.10	-30.5	-34.5	17.5	6.01e-01	0	45	0	927989760	21	5702
2026-01-21 01:29:16.33	174.08	10.01	-30.5	-34.7	17.3	6.01e-01	0	45	0	930086912	21	5805
2026-01-21 01:29:17.34	174.14	9.92	-30.5	-34.7	17.4	6.01e-01	0	45	0	932184064	21	5807
2026-01-21 01:29:18.34	174.21	9.83	-30.7	-34.5	17.1	6.02e-01	0	45	0	933756928	22	5627
2026-01-21 01:29:19.34	174.27	9.74	-30.8	-34.9	16.8	6.01e-01	0	45	0	935854080	22	5808
2026-01-21 01:29:20.34	174.33	9.65	-30.6	-34.3	17.2	6.02e-01	0	45	0	937426944	22	5540
2026-01-21 01:29:21.34	174.40	9.56	-30.5	-34.5	17.4	5.99e-01	0	45	0	939524096	21	5742
2026-01-21 01:29:22.35	174.46	9.48	-30.5	-34.6	17.3	6.01e-01	0	45	0	941096960	21	5769
2026-01-21 01:29:23.35	174.52	9.39	-30.2	-33.7	17.9	6.01e-01	0	45	0	943194112	21	5401
2026-01-21 01:29:24.35	174.58	9.30	-30.1	-33.5	18.0	6.01e-01	0	45	0	945291264	21	5311
2026-01-21 01:29:25.36	174.65	9.22	-30.0	-33.3	18.1	6.01e-01	0	45	0	946864128	21	5256
2026-01-21 01:29:26.36	174.71	9.13	-30.1	-33.4	18.1	5.98e-01	0	44	0	948961280	21	5290
2026-01-21 01:29:27.36	174.77	9.04	-30.1	-33.9	18.0	5.99e-01	0	45	0	950534144	20	5582
2026-01-21 01:29:28.37	174.83	8.96	-30.0	-33.6	18.2	6.00e-01	0	45	0	952631296	20	5488
2026-01-21 01:29:29.37	174.89	8.87	-30.0	-33.6	18.2	6.02e-01	0	44	0	954728448	20	5484
2026-01-21 01:29:30.37	174.95	8.79	-30.1	-34.0	18.0	6.00e-01	0	44	0	956301312	20	5626
2026-01-21 01:29:31.37	175.01	8.70	-30.0	-33.6	17.7	6.00e-01	0	44	0	958398464	21	5491
2026-01-21 01:29:32.38	175.07	8.62	-30.4	-34.3	17.4	6.01e-01	0	44	0	959971328	21	5667
2026-01-21 01:29:33.38	175.13	8.53	-30.2	-33.9	17.7	6.02e-01	0	45	0	962068480	21	5481
2026-01-21 01:29:34.39	175.19	8.45	-30.1	-33.7	17.8	6.01e-01	0	45	0	964165632	21	5415
2026-01-21 01:29:35.40	175.24	8.36	-30.1	-33.6	17.8	5.99e-01	0	44	0	965738496	21	5389
2026-01-21 01:29:36.40	175.30	8.28	-30.1	-34.0	17.9	6.03e-01	0	44	0	967835648	20	5668
2026-01-21 01:29:37.41	175.36	8.20	-30.1	-33.7	17.8	5.99e-01	0	45	0	969408512	21	5421
2026-01-21 01:29:38.41	175.42	8.12	-30.1	-33.6	17.8	6.00e-01	0	44	0	971505664	21	5403
2026-01-21 01:29:39.41	175.47	8.03	-30.2	-33.8	17.7	6.03e-01	0	45	0	973078528	21	5474
2026-01-21 01:29:40.42	175.53	7.95	-30.2	-33.9	17.6	5.97e-01	0	45	0	975175680	21	5520
2026-01-21 01:29:41.42	175.59	7.87	-30.2	-34.0	17.6	6.00e-01	0	45	0	977272832	21	5555
2026-01-21 01:29:42.43	175.64	7.79	-30.2	-34.0	17.6	6.01e-01	0	45	0	978845696	21	5537
2026-01-21 01:29:43.43	175.70	7.71	-30.2	-34.0	17.5	6.02e-01	0	45	0	980942848	21	5566
2026-01-21 01:29:44.44	175.75	7.62	-30.2	-33.9	17.6	6.04e-01	0	45	0	983040000	21	5508
2026-01-21 01:29:45.43	175.81	7.54	-30.3	-34.1	17.4	6.01e-01	0	45	0	984612864	21	5617
2026-01-21 01:29:46.44	175.86	7.46	-30.3	-34.3	17.3	6.03e-01	0	45	0	986710016	21	5712
2026-01-21 01:29:47.45	175.92	7.38	-30.3	-34.3	17.3	6.00e-01	0	45	0	988282880	21	5678
2026-01-21 01:29:48.45	175.97	7.30	-30.4	-34.5	17.1	6.02e-01	0	45	0	990380032	21	5799
2026-01-21 01:29:49.45	176.02	7.22	-30.5	-35.0	16.8	5.99e-01	0	45	0	991952896	21	5998
2026-01-21 01:29:50.45	176.08	7.14	-30.4	-34.5	17.1	5.99e-01	0	44	0	994050048	21	5797
2026-01-21 01:29:51.46	176.13	7.06	-33.4	-52.4	3.5	7.52e-01	0	45	104	995622912	27	32079
2026-01-21 01:29:52.46	176.18	6.99	-33.0	-52.4	3.8	7.45e-01	0	45	104	995622912	27	33873
2026-01-21 01:29:53.47	176.24	6.91	-33.7	-52.9	3.8	7.45e-01	0	45	104	995622912	28	32840

#Closed at: 2026-01-21 01:29:54
#Recorded file [995 MB]: D:/data/31010_260121_042058.dat