passes_logs/2026/01/21/R2M6_AANII_01/R2M6_AANII_01__20260121_010245_SUOMI_NPP_rec.log

#Pass ID: 20260121_010245_SUOMI NPP
#Satellite: SUOMI NPP
#Configuration: NPP
#almurnet v.1.7.20240730
#Start time: 2026-01-21 01:02:45

#Version: 2.2.20231116
#Station: R2M6_AANII_01
#Location: 30.233357 lon 59.946436 lat
#TLE: 1 37849U 11061A   26020.31993517  .00000142  00000+0  88240-4 0  9990
#TLE: 2 37849  98.7818 322.3228 0002330  54.3778 305.7615 14.19527005737466

#Time	Az	El	Level	Level2	SNR	BER	BlckErr	Temp	State	Recorded	gain1	gain2
2026-01-21 01:02:45.95	15.19	7.07	-31.9	-36.3	5.1	1.28e+00	0	42	0	0	23	6020
2026-01-21 01:02:46.95	15.16	7.15	-32.1	-37.1	4.9	1.33e+00	0	42	104	0	24	6351
2026-01-21 01:02:47.95	15.13	7.22	-32.0	-36.1	8.2	9.04e-02	0	42	0	0	24	5770
2026-01-21 01:02:48.96	15.10	7.30	-32.1	-36.6	7.8	6.94e-02	0	42	0	1048576	24	6084
2026-01-21 01:02:49.97	15.07	7.38	-32.0	-36.5	8.3	6.32e-02	0	42	0	3145728	23	6069
2026-01-21 01:02:50.97	15.04	7.45	-31.8	-35.6	9.0	3.62e-02	0	42	0	5242880	23	5629
2026-01-21 01:02:51.97	15.01	7.53	-31.9	-36.4	8.4	2.88e-02	0	42	0	7340032	23	6005
2026-01-21 01:02:52.98	14.98	7.61	-32.1	-36.7	7.9	6.59e-02	0	42	0	9437184	24	6072
2026-01-21 01:02:53.98	14.95	7.68	-31.9	-36.3	8.5	6.06e-02	0	42	0	10485760	23	5957
2026-01-21 01:02:54.99	14.92	7.76	-32.1	-36.4	8.1	5.06e-02	0	42	0	12582912	24	5938
2026-01-21 01:02:56.00	14.89	7.84	-32.3	-37.5	7.2	1.13e-01	0	42	0	14680064	24	6555
2026-01-21 01:02:57.00	14.85	7.92	-32.1	-36.5	8.0	9.90e-02	0	42	0	16777216	24	5983
2026-01-21 01:02:58.00	14.82	8.00	-31.9	-35.7	8.7	5.73e-02	0	42	0	18874368	24	5548
2026-01-21 01:02:59.00	14.79	8.08	-31.8	-35.7	9.1	2.57e-02	0	42	0	19922944	23	5624
2026-01-21 01:03:00.00	14.76	8.16	-31.5	-34.6	9.8	1.47e-02	0	42	0	22020096	23	5167
2026-01-21 01:03:01.01	14.73	8.24	-31.3	-34.4	10.4	7.17e-03	0	42	0	24117248	22	5160
2026-01-21 01:03:02.01	14.69	8.31	-31.2	-33.9	10.8	4.08e-03	0	43	0	26214400	22	4961
2026-01-21 01:03:03.01	14.66	8.39	-31.0	-33.2	11.3	1.67e-03	0	43	0	28311552	22	4686
2026-01-21 01:03:04.01	14.63	8.47	-30.7	-33.0	11.8	7.32e-04	0	43	0	29360128	21	4698
2026-01-21 01:03:05.01	14.60	8.55	-30.7	-32.9	11.9	6.93e-04	0	43	0	31457280	21	4660
2026-01-21 01:03:06.01	14.56	8.63	-30.7	-32.9	12.0	5.19e-04	0	43	0	33554432	21	4633
2026-01-21 01:03:07.01	14.53	8.71	-30.6	-32.8	12.1	2.62e-04	0	43	0	35651584	21	4598
2026-01-21 01:03:08.01	14.50	8.80	-30.7	-32.8	12.0	2.53e-04	0	43	0	36700160	21	4620
2026-01-21 01:03:09.02	14.46	8.88	-30.7	-32.9	12.0	2.63e-03	0	43	0	38797312	21	4650
2026-01-21 01:03:10.02	14.43	8.96	-30.6	-32.6	12.2	2.35e-04	0	43	0	40894464	21	4548
2026-01-21 01:03:11.02	14.39	9.04	-30.4	-32.6	12.5	3.28e-04	0	43	0	42991616	20	4637
2026-01-21 01:03:12.02	14.36	9.12	-30.5	-32.4	12.4	2.78e-03	0	43	0	45088768	21	4454
2026-01-21 01:03:13.03	14.32	9.20	-30.6	-32.7	12.1	3.00e-04	0	43	0	46137344	21	4585
2026-01-21 01:03:14.03	14.29	9.29	-30.5	-32.4	12.4	4.26e-04	0	43	0	48234496	21	4459
2026-01-21 01:03:15.04	14.25	9.37	-30.4	-32.1	12.5	3.85e-04	0	43	0	50331648	21	4371
2026-01-21 01:03:16.04	14.22	9.45	-30.4	-32.5	12.7	1.07e-04	0	43	0	52428800	20	4574
2026-01-21 01:03:17.05	14.18	9.54	-30.3	-32.3	12.8	3.68e-04	0	43	0	54525952	20	4519
2026-01-21 01:03:18.05	14.15	9.62	-30.3	-32.2	12.9	3.49e-04	0	43	0	55574528	20	4476
2026-01-21 01:03:19.05	14.11	9.70	-30.2	-32.1	13.0	3.12e-05	0	43	0	57671680	20	4441
2026-01-21 01:03:20.06	14.08	9.79	-30.2	-31.9	13.0	3.47e-04	0	43	0	59768832	20	4386
2026-01-21 01:03:21.06	14.04	9.87	-30.3	-32.2	12.8	3.58e-04	0	43	0	61865984	20	4499
2026-01-21 01:03:22.06	14.00	9.96	-30.2	-31.9	13.1	3.28e-05	0	43	0	63963136	20	4380
2026-01-21 01:03:23.07	13.96	10.04	-30.1	-31.7	13.2	3.02e-04	0	43	0	65011712	20	4330
2026-01-21 01:03:24.07	13.93	10.13	-30.0	-31.5	13.3	2.86e-04	0	43	0	67108864	20	4265
2026-01-21 01:03:25.07	13.89	10.21	-30.1	-31.8	13.2	1.90e-05	0	43	0	69206016	20	4348
2026-01-21 01:03:26.07	13.85	10.30	-30.1	-31.6	13.3	1.67e-05	0	43	0	71303168	20	4292
2026-01-21 01:03:27.08	13.81	10.38	-30.2	-31.9	13.1	2.76e-04	0	43	0	73400320	20	4380
2026-01-21 01:03:28.08	13.78	10.47	-30.0	-31.3	13.5	2.13e-05	0	43	0	74448896	20	4205
2026-01-21 01:03:29.08	13.74	10.56	-30.0	-31.4	13.4	2.55e-04	0	43	0	76546048	20	4233
2026-01-21 01:03:30.09	13.70	10.64	-30.0	-31.3	13.5	2.45e-04	0	43	0	78643200	20	4205
2026-01-21 01:03:31.09	13.66	10.73	-30.1	-31.5	13.4	1.14e-05	0	43	0	80740352	20	4269
2026-01-21 01:03:32.10	13.62	10.82	-30.2	-31.9	13.2	2.48e-04	0	43	0	81788928	20	4366
2026-01-21 01:03:33.10	13.58	10.91	-30.2	-31.9	13.2	1.98e-05	0	43	0	83886080	20	4377
2026-01-21 01:03:34.10	13.54	11.00	-30.2	-32.0	13.0	3.28e-05	0	43	0	85983232	20	4425
2026-01-21 01:03:35.11	13.50	11.08	-30.2	-31.9	13.0	2.33e-04	0	43	0	88080384	20	4387
2026-01-21 01:03:36.11	13.46	11.17	-30.2	-32.0	13.1	2.64e-03	0	43	0	90177536	20	4421
2026-01-21 01:03:37.11	13.42	11.26	-30.3	-32.3	12.9	4.27e-05	0	43	0	91226112	20	4501
2026-01-21 01:03:38.11	13.38	11.35	-30.4	-32.3	13.0	2.51e-04	0	43	0	93323264	20	4516
2026-01-21 01:03:39.11	13.34	11.44	-30.2	-31.9	13.2	2.31e-04	0	43	0	95420416	20	4371
2026-01-21 01:03:40.12	13.30	11.53	-30.4	-32.4	12.8	3.96e-05	0	43	0	97517568	20	4559
2026-01-21 01:03:41.11	13.26	11.62	-30.2	-31.8	13.2	2.30e-04	0	43	0	99614720	20	4354
2026-01-21 01:03:42.12	13.21	11.71	-30.0	-31.3	13.6	2.33e-04	0	43	0	100663296	20	4176
2026-01-21 01:03:43.12	13.17	11.80	-29.9	-31.0	13.8	2.97e-04	0	44	0	102760448	20	4097
2026-01-21 01:03:44.12	13.13	11.89	-29.8	-31.4	14.0	2.20e-06	0	43	0	104857600	19	4289
2026-01-21 01:03:45.13	13.09	11.99	-29.9	-31.4	13.9	2.70e-04	0	44	0	106954752	19	4300
2026-01-21 01:03:46.14	13.04	12.08	-30.0	-31.3	13.7	5.30e-06	0	43	0	109051904	20	4178
2026-01-21 01:03:47.14	13.00	12.17	-29.9	-31.5	13.9	2.57e-03	0	43	0	110100480	19	4340
2026-01-21 01:03:48.15	12.96	12.26	-29.8	-31.1	14.1	3.33e-04	0	44	0	112197632	19	4212
2026-01-21 01:03:49.15	12.91	12.36	-29.9	-31.5	13.9	2.20e-06	0	44	0	114294784	19	4323
2026-01-21 01:03:50.16	12.87	12.45	-29.7	-31.0	14.2	2.34e-03	0	44	0	116391936	19	4178
2026-01-21 01:03:51.15	12.82	12.54	-29.8	-31.2	14.1	3.00e-06	0	44	0	118489088	19	4222
2026-01-21 01:03:52.15	12.78	12.64	-29.8	-31.1	14.1	1.50e-06	0	43	0	119537664	19	4223
2026-01-21 01:03:53.15	12.73	12.73	-30.0	-31.7	13.8	3.29e-04	0	44	0	121634816	19	4381
2026-01-21 01:03:54.16	12.69	12.82	-30.0	-31.6	13.8	2.44e-03	0	44	0	123731968	19	4369
2026-01-21 01:03:55.15	12.64	12.92	-29.9	-31.0	13.8	1.50e-06	0	43	0	125829120	20	4098
2026-01-21 01:03:56.15	12.60	13.01	-30.1	-31.5	13.5	3.24e-04	0	44	0	127926272	20	4258
2026-01-21 01:03:57.15	12.55	13.11	-29.9	-31.5	13.9	2.33e-03	0	44	0	128974848	19	4339
2026-01-21 01:03:58.15	12.50	13.20	-29.8	-31.4	14.0	1.90e-04	0	43	0	131072000	19	4282
2026-01-21 01:03:59.15	12.46	13.30	-29.9	-31.6	13.9	2.97e-04	0	43	0	133169152	19	4347
2026-01-21 01:04:00.16	12.41	13.40	-29.9	-30.9	13.9	2.19e-03	0	44	0	135266304	20	4069
2026-01-21 01:04:01.16	12.36	13.49	-29.9	-30.9	13.9	2.30e-04	0	44	0	136314880	20	4058
2026-01-21 01:04:02.17	12.31	13.59	-29.9	-31.6	13.9	3.10e-04	0	44	0	138412032	19	4357
2026-01-21 01:04:03.17	12.26	13.69	-29.9	-31.5	13.9	2.94e-04	0	44	0	140509184	19	4329
2026-01-21 01:04:04.17	12.22	13.79	-29.9	-31.6	13.9	2.10e-04	0	44	0	142606336	19	4349
2026-01-21 01:04:05.18	12.17	13.89	-29.9	-31.5	14.0	2.43e-03	0	44	0	144703488	19	4322
2026-01-21 01:04:06.18	12.12	13.99	-29.9	-31.6	13.9	2.76e-04	0	44	0	145752064	19	4349
2026-01-21 01:04:07.18	12.07	14.09	-29.9	-31.6	13.9	1.98e-04	0	44	0	147849216	19	4345
2026-01-21 01:04:08.19	12.02	14.19	-29.8	-31.3	14.1	2.33e-03	0	44	0	149946368	19	4257
2026-01-21 01:04:09.18	11.97	14.28	-29.8	-31.3	14.2	3.00e-06	0	44	0	152043520	19	4256
2026-01-21 01:04:10.18	11.92	14.39	-29.9	-31.4	14.0	3.00e-06	0	44	0	154140672	19	4292
2026-01-21 01:04:11.19	11.86	14.49	-29.8	-31.2	14.2	2.19e-03	0	44	0	155189248	19	4242
2026-01-21 01:04:12.19	11.81	14.59	-29.8	-31.1	14.3	2.45e-03	0	44	0	157286400	19	4195
2026-01-21 01:04:13.18	11.76	14.69	-29.9	-31.1	13.9	3.80e-06	0	44	0	159383552	20	4103
2026-01-21 01:04:14.18	11.71	14.79	-29.9	-31.4	14.1	2.48e-03	0	44	0	161480704	19	4283
2026-01-21 01:04:15.18	11.66	14.89	-29.8	-31.2	14.2	2.40e-03	0	44	0	163577856	19	4242
2026-01-21 01:04:16.18	11.60	14.99	-30.0	-31.4	13.7	2.23e-04	0	44	0	164626432	20	4205
2026-01-21 01:04:17.18	11.55	15.10	-30.1	-31.6	13.5	2.18e-04	0	44	0	166723584	20	4278
2026-01-21 01:04:18.18	11.49	15.20	-29.9	-31.5	14.0	2.19e-03	0	44	0	168820736	19	4302
2026-01-21 01:04:19.18	11.44	15.31	-29.9	-31.4	14.1	2.44e-04	0	44	0	170917888	19	4281
2026-01-21 01:04:20.20	11.38	15.41	-30.0	-31.6	14.0	1.88e-04	0	44	0	171966464	19	4339
2026-01-21 01:04:21.20	11.33	15.52	-30.1	-31.5	13.6	2.54e-03	0	44	0	174063616	20	4239
2026-01-21 01:04:22.20	11.27	15.62	-30.0	-31.4	13.7	2.50e-04	0	44	0	176160768	20	4194
2026-01-21 01:04:23.20	11.22	15.73	-30.0	-31.2	13.8	2.52e-03	0	44	0	178257920	20	4143
2026-01-21 01:04:24.20	11.16	15.83	-29.9	-30.8	14.1	2.42e-03	0	44	0	180355072	20	4031
2026-01-21 01:04:25.21	11.10	15.94	-29.8	-31.1	14.3	2.30e-04	0	44	0	181403648	19	4198
2026-01-21 01:04:26.21	11.05	16.05	-29.9	-30.9	14.1	2.42e-03	0	44	0	183500800	20	4061
2026-01-21 01:04:27.21	10.99	16.15	-29.8	-31.2	14.3	1.33e-04	0	44	0	185597952	19	4212
2026-01-21 01:04:28.21	10.93	16.26	-29.7	-30.8	14.5	2.14e-04	0	44	0	187695104	19	4103
2026-01-21 01:04:29.22	10.87	16.37	-29.9	-31.4	14.2	2.11e-03	0	44	0	189792256	19	4273
2026-01-21 01:04:30.22	10.81	16.48	-29.9	-31.3	14.2	2.40e-03	0	44	0	190840832	19	4264
2026-01-21 01:04:31.22	10.75	16.59	-29.6	-30.6	14.6	1.88e-04	0	44	0	192937984	19	4049
2026-01-21 01:04:32.22	10.69	16.70	-29.7	-30.8	14.6	2.38e-03	0	44	0	195035136	19	4101
2026-01-21 01:04:33.22	10.63	16.81	-29.7	-31.0	14.4	2.29e-03	0	44	0	197132288	19	4157
2026-01-21 01:04:34.23	10.57	16.92	-29.7	-31.0	14.5	1.92e-04	0	44	0	199229440	19	4166
2026-01-21 01:04:35.23	10.51	17.03	-29.6	-30.7	14.6	2.29e-03	0	44	0	200278016	19	4077
2026-01-21 01:04:36.24	10.45	17.14	-29.8	-31.2	14.3	2.16e-03	0	44	0	202375168	19	4226
2026-01-21 01:04:37.24	10.38	17.26	-29.9	-31.4	14.2	1.51e-04	0	44	0	204472320	19	4286
2026-01-21 01:04:38.24	10.32	17.37	-29.7	-30.8	14.6	2.10e-03	0	44	0	206569472	19	4102
2026-01-21 01:04:39.24	10.26	17.48	-29.7	-30.8	14.6	2.36e-03	0	44	0	208666624	19	4094
2026-01-21 01:04:40.24	10.19	17.59	-29.6	-30.8	14.6	1.43e-04	0	44	0	209715200	19	4093
2026-01-21 01:04:41.24	10.13	17.71	-29.6	-30.7	14.7	0.00e+00	0	44	0	211812352	19	4061
2026-01-21 01:04:42.24	10.06	17.82	-29.7	-30.7	14.7	2.26e-03	0	44	0	213909504	19	4084
2026-01-21 01:04:43.23	10.00	17.94	-29.7	-30.8	14.5	1.28e-04	0	44	0	216006656	19	4112
2026-01-21 01:04:44.24	9.93	18.05	-29.7	-30.8	14.6	2.36e-03	0	44	0	217055232	19	4094
2026-01-21 01:04:45.25	9.87	18.17	-29.9	-31.3	14.3	1.85e-03	0	44	0	219152384	19	4234
2026-01-21 01:04:46.25	9.80	18.29	-29.7	-30.9	14.6	4.11e-05	0	44	0	221249536	19	4114
2026-01-21 01:04:47.25	9.73	18.40	-29.5	-30.4	14.9	2.16e-03	0	44	0	223346688	19	3979
2026-01-21 01:04:48.25	9.66	18.52	-29.6	-30.6	14.7	0.00e+00	0	44	0	225443840	19	4051
2026-01-21 01:04:49.26	9.59	18.64	-29.1	-30.4	14.4	5.79e-05	0	44	0	226492416	19	4179
2026-01-21 01:04:50.26	9.52	18.76	-29.9	-31.3	14.2	2.40e-03	0	44	0	228589568	19	4256
2026-01-21 01:04:51.26	9.46	18.88	-29.6	-30.6	14.7	0.00e+00	0	44	0	230686720	19	4034
2026-01-21 01:04:52.27	9.38	19.00	-29.5	-30.4	14.6	0.00e+00	0	44	0	232783872	19	3978
2026-01-21 01:04:53.28	9.31	19.12	-29.8	-31.2	14.3	2.28e-03	0	44	0	234881024	19	4213
2026-01-21 01:04:54.28	9.24	19.24	-29.8	-31.1	14.4	2.00e-03	0	44	0	235929600	19	4193
2026-01-21 01:04:55.29	9.17	19.36	-29.9	-31.4	14.2	0.00e+00	0	44	0	238026752	19	4284
2026-01-21 01:04:56.29	9.09	19.48	-29.9	-31.3	14.3	1.99e-03	0	44	0	240123904	19	4240
2026-01-21 01:04:57.29	9.02	19.60	-30.0	-31.1	14.1	2.28e-03	0	44	0	242221056	20	4103
2026-01-21 01:04:58.30	8.95	19.73	-30.4	-32.2	13.4	1.13e-04	0	44	0	244318208	20	4439
2026-01-21 01:04:59.30	8.87	19.85	-30.4	-32.2	13.4	1.67e-05	0	44	0	245366784	20	4443
2026-01-21 01:05:00.31	8.80	19.98	-30.2	-31.6	13.8	2.24e-03	0	44	0	247463936	20	4240
2026-01-21 01:05:01.31	8.72	20.10	-30.5	-31.9	13.2	1.71e-04	0	44	0	249561088	21	4241
2026-01-21 01:05:02.32	8.64	20.23	-30.6	-32.1	13.1	2.44e-05	0	44	0	251658240	21	4314
2026-01-21 01:05:03.31	8.57	20.35	-30.7	-32.6	12.8	8.23e-05	0	44	0	253755392	21	4478
2026-01-21 01:05:04.32	8.49	20.48	-30.8	-32.7	12.7	2.09e-04	0	44	0	254803968	21	4493
2026-01-21 01:05:05.33	8.41	20.61	-30.8	-32.8	12.6	3.14e-04	0	44	0	256901120	21	4533
2026-01-21 01:05:06.33	8.33	20.73	-30.7	-32.6	12.8	5.41e-05	0	44	0	258998272	21	4457
2026-01-21 01:05:07.34	8.25	20.86	-30.4	-32.2	13.4	1.79e-04	0	44	0	261095424	20	4430
2026-01-21 01:05:08.35	8.17	20.99	-30.5	-32.4	13.3	1.75e-04	0	44	0	263192576	20	4493
2026-01-21 01:05:09.36	8.08	21.12	-30.4	-31.8	13.4	2.13e-05	0	44	0	264241152	21	4220
2026-01-21 01:05:10.37	8.00	21.25	-30.4	-31.6	13.5	1.90e-05	0	44	0	266338304	21	4155
2026-01-21 01:05:11.37	7.92	21.38	-30.4	-32.1	13.5	7.32e-05	0	44	0	268435456	20	4397
2026-01-21 01:05:12.38	7.83	21.52	-30.6	-32.2	13.2	1.29e-05	0	44	0	270532608	21	4322
2026-01-21 01:05:13.38	7.75	21.65	-30.7	-32.6	12.8	4.11e-05	0	44	0	272629760	21	4461
2026-01-21 01:05:14.39	7.66	21.78	-30.9	-32.6	12.6	1.01e-04	0	44	0	273678336	22	4363
2026-01-21 01:05:15.39	7.58	21.91	-30.7	-32.4	13.0	5.18e-05	0	44	0	275775488	21	4409
2026-01-21 01:05:16.38	7.49	22.04	-30.1	-30.9	13.9	2.89e-05	0	44	0	277872640	21	3949
2026-01-21 01:05:17.39	7.40	22.18	-30.3	-31.8	13.8	3.80e-06	0	44	0	279969792	20	4293
2026-01-21 01:05:18.38	7.32	22.31	-30.3	-32.0	13.6	7.60e-06	0	44	0	282066944	20	4349
2026-01-21 01:05:19.39	7.23	22.45	-30.3	-31.8	13.8	1.15e-04	0	44	0	283115520	20	4283
2026-01-21 01:05:20.39	7.14	22.59	-30.1	-31.4	14.0	5.30e-06	0	44	0	285212672	20	4190
2026-01-21 01:05:21.40	7.04	22.72	-30.0	-31.2	14.1	1.50e-06	0	44	0	287309824	20	4121
2026-01-21 01:05:22.40	6.95	22.86	-29.8	-30.5	14.5	1.27e-04	0	44	0	289406976	20	3922
2026-01-21 01:05:23.40	6.86	23.00	-29.9	-31.4	14.4	1.09e-04	0	44	0	290455552	19	4248
2026-01-21 01:05:24.40	6.77	23.14	-30.0	-31.1	14.2	1.50e-06	0	44	0	292552704	20	4090
2026-01-21 01:05:25.41	6.67	23.28	-30.0	-31.0	14.2	9.46e-05	0	44	0	294649856	20	4063
2026-01-21 01:05:26.41	6.58	23.42	-29.8	-30.7	14.5	5.87e-05	0	44	0	296747008	20	3968
2026-01-21 01:05:27.41	6.48	23.56	-30.2	-31.5	14.1	2.20e-06	0	44	0	298844160	20	4197
2026-01-21 01:05:28.41	6.38	23.70	-30.3	-31.8	13.7	1.13e-04	0	44	0	300941312	20	4298
2026-01-21 01:05:29.42	6.29	23.84	-30.0	-31.2	14.2	1.42e-04	0	44	0	301989888	20	4103
2026-01-21 01:05:30.42	6.19	23.99	-30.4	-32.0	13.6	4.50e-06	0	44	0	304087040	20	4367
2026-01-21 01:05:31.43	6.09	24.13	-30.4	-32.2	13.6	8.30e-06	0	44	0	306184192	20	4417
2026-01-21 01:05:32.43	5.99	24.27	-29.5	-31.0	13.7	1.98e-04	0	44	0	308281344	20	4302
2026-01-21 01:05:33.42	5.89	24.42	-30.5	-32.0	13.4	3.00e-06	0	44	0	309329920	21	4260
2026-01-21 01:05:34.43	5.78	24.56	-30.6	-32.3	12.1	2.14e-04	0	44	0	311427072	21	4352
2026-01-21 01:05:35.43	5.68	24.71	-30.7	-32.4	12.3	1.87e-04	0	44	0	313524224	21	4387
2026-01-21 01:05:36.43	5.58	24.86	-30.7	-32.5	13.1	2.74e-05	0	44	0	315621376	21	4410
2026-01-21 01:05:37.43	5.47	25.00	-30.7	-32.5	12.8	1.88e-04	0	44	0	317718528	21	4408
2026-01-21 01:05:38.44	5.36	25.15	-30.7	-32.4	13.1	2.59e-05	0	44	0	318767104	21	4384
2026-01-21 01:05:39.44	5.25	25.30	-30.7	-32.5	13.1	2.51e-05	0	44	0	320864256	21	4407
2026-01-21 01:05:40.45	5.15	25.45	-31.0	-33.2	12.6	1.77e-04	0	44	0	322961408	21	4636
2026-01-21 01:05:41.45	5.04	25.60	-30.7	-32.3	13.2	1.50e-04	0	44	0	325058560	21	4351
2026-01-21 01:05:42.46	4.92	25.76	-30.7	-32.6	13.1	5.34e-05	0	44	0	327155712	21	4435
2026-01-21 01:05:43.47	4.81	25.91	-30.5	-31.7	13.5	1.76e-04	0	44	0	328204288	21	4176
2026-01-21 01:05:44.47	4.70	26.06	-30.7	-32.3	13.2	1.74e-04	0	44	0	330301440	21	4351
2026-01-21 01:05:45.48	4.58	26.22	-30.7	-32.5	13.1	4.11e-05	0	44	0	332398592	21	4417
2026-01-21 01:05:46.48	4.47	26.37	-30.6	-32.2	13.3	1.51e-04	0	44	0	334495744	21	4322
2026-01-21 01:05:47.49	4.35	26.53	-30.8	-32.7	12.9	1.52e-04	0	44	0	336592896	21	4467
2026-01-21 01:05:48.49	4.23	26.68	-30.7	-32.5	13.2	2.59e-05	0	44	0	337641472	21	4406
2026-01-21 01:05:49.50	4.11	26.84	-31.1	-33.0	12.5	2.12e-03	0	44	0	339738624	22	4464
2026-01-21 01:05:50.50	3.99	27.00	-30.9	-33.0	12.8	3.28e-05	0	44	0	341835776	21	4567
2026-01-21 01:05:51.50	3.87	27.16	-31.1	-32.8	12.5	9.15e-05	0	44	0	343932928	22	4423
2026-01-21 01:05:52.50	3.75	27.32	-31.0	-32.7	12.7	2.59e-03	0	44	0	346030080	22	4379
2026-01-21 01:05:53.51	3.62	27.48	-31.1	-33.1	12.5	2.59e-03	0	44	0	347078656	22	4506
2026-01-21 01:05:54.50	3.50	27.64	-30.7	-31.8	13.3	7.62e-05	0	44	0	349175808	22	4092
2026-01-21 01:05:55.51	3.37	27.80	-31.1	-33.1	12.4	2.53e-03	0	44	0	351272960	22	4527
2026-01-21 01:05:56.51	3.24	27.96	-30.9	-33.0	12.9	2.18e-03	0	44	0	353370112	21	4579
2026-01-21 01:05:57.52	3.11	28.12	-31.1	-33.1	12.5	3.66e-05	0	44	0	355467264	22	4505
2026-01-21 01:05:58.52	2.98	28.29	-30.9	-32.5	12.8	1.50e-04	0	44	0	356515840	22	4331
2026-01-21 01:05:59.53	2.85	28.45	-31.9	-34.8	11.0	2.93e-03	0	44	0	358612992	23	5061
2026-01-21 01:06:00.54	2.72	28.62	-31.2	-32.8	12.4	1.11e-03	0	44	0	360710144	23	4308
2026-01-21 01:06:01.54	2.58	28.79	-31.5	-33.6	11.7	4.68e-04	0	44	0	362807296	23	4591
2026-01-21 01:06:02.54	2.45	28.95	-31.1	-33.0	12.6	2.49e-03	0	44	0	363855872	22	4482
2026-01-21 01:06:03.54	2.31	29.12	-31.5	-33.6	11.8	5.11e-04	0	44	0	365953024	23	4574
2026-01-21 01:06:04.54	2.17	29.29	-31.6	-33.9	11.6	3.13e-03	0	44	0	368050176	23	4697
2026-01-21 01:06:05.54	2.03	29.46	-31.5	-34.0	11.9	5.47e-04	0	44	0	370147328	22	4827
2026-01-21 01:06:06.54	1.89	29.63	-31.5	-34.1	11.8	3.81e-04	0	44	0	372244480	22	4851
2026-01-21 01:06:07.54	1.74	29.80	-31.5	-33.7	11.8	3.16e-03	0	44	0	373293056	23	4610
2026-01-21 01:06:08.54	1.60	29.97	-31.5	-33.5	11.9	2.66e-04	0	44	0	375390208	23	4557
2026-01-21 01:06:09.54	1.45	30.14	-31.3	-33.0	12.3	1.47e-04	0	44	0	377487360	23	4392
2026-01-21 01:06:10.54	1.30	30.32	-31.0	-32.5	12.9	2.71e-03	0	44	0	379584512	22	4309
2026-01-21 01:06:11.54	1.15	30.49	-31.3	-33.6	12.1	2.76e-03	0	44	0	381681664	22	4679
2026-01-21 01:06:12.55	1.00	30.67	-31.2	-33.2	12.5	1.50e-04	0	44	0	382730240	22	4545
2026-01-21 01:06:13.55	0.85	30.84	-31.2	-33.3	12.4	2.38e-03	0	44	0	384827392	22	4569
2026-01-21 01:06:14.55	0.69	31.02	-31.2	-33.2	12.4	2.38e-03	0	44	0	386924544	22	4532
2026-01-21 01:06:15.55	0.54	31.20	-31.1	-32.8	12.7	1.14e-04	0	44	0	389021696	22	4400
2026-01-21 01:06:16.55	0.38	31.37	-31.0	-32.7	12.8	2.22e-03	0	44	0	391118848	22	4382
2026-01-21 01:06:17.55	0.22	31.55	-31.0	-32.6	12.9	2.45e-03	0	44	0	392167424	22	4329
2026-01-21 01:06:18.56	0.05	31.74	-30.5	-31.3	13.7	5.79e-05	0	44	0	394264576	22	3935
2026-01-21 01:06:19.56	359.89	31.92	-30.9	-32.8	13.0	2.35e-03	0	44	0	396361728	21	4505
2026-01-21 01:06:20.56	359.72	32.10	-30.8	-32.7	13.1	2.32e-03	0	44	0	398458880	21	4463
2026-01-21 01:06:21.57	359.55	32.28	-30.9	-32.9	13.0	3.28e-05	0	44	0	400556032	21	4539
2026-01-21 01:06:22.57	359.38	32.47	-31.1	-33.0	12.6	2.24e-03	0	44	0	401604608	22	4469
2026-01-21 01:06:23.57	359.21	32.65	-31.3	-33.6	12.2	2.12e-03	0	44	0	403701760	22	4650
2026-01-21 01:06:24.57	359.04	32.83	-31.4	-33.7	12.2	1.18e-04	0	44	0	405798912	22	4688
2026-01-21 01:06:25.57	358.86	33.02	-31.5	-33.9	12.0	2.30e-03	0	44	0	407896064	22	4773
2026-01-21 01:06:26.58	358.68	33.21	-31.4	-33.2	12.2	4.69e-04	0	44	0	408944640	23	4441
2026-01-21 01:06:27.58	358.50	33.40	-31.6	-33.9	11.7	7.80e-04	0	44	0	411041792	23	4681
2026-01-21 01:06:28.59	358.32	33.59	-31.6	-33.8	11.7	2.88e-03	0	44	0	413138944	23	4661
2026-01-21 01:06:29.59	358.14	33.78	-31.5	-33.9	12.1	1.92e-04	0	44	0	415236096	22	4765
2026-01-21 01:06:30.60	357.95	33.97	-31.6	-33.7	11.8	4.76e-04	0	44	0	417333248	23	4616
2026-01-21 01:06:31.60	357.76	34.16	-31.4	-33.3	12.1	2.78e-03	0	44	0	419430400	23	4453
2026-01-21 01:06:32.61	357.57	34.35	-31.5	-33.6	11.9	2.39e-03	0	45	0	420478976	23	4588
2026-01-21 01:06:33.61	357.37	34.54	-31.6	-33.9	11.8	4.87e-04	0	44	0	422576128	23	4661
2026-01-21 01:06:34.62	357.18	34.74	-31.7	-34.0	11.7	3.26e-03	0	44	0	424673280	23	4730
2026-01-21 01:06:35.62	356.98	34.93	-31.9	-34.4	11.1	4.35e-03	0	44	0	426770432	24	4765
2026-01-21 01:06:36.63	356.77	35.13	-32.1	-34.8	10.7	2.48e-03	0	44	0	427819008	24	4932
2026-01-21 01:06:37.63	356.57	35.33	-32.1	-34.8	10.7	3.83e-03	0	44	0	429916160	24	4915
2026-01-21 01:06:38.63	356.37	35.52	-31.8	-34.5	11.3	3.67e-03	0	44	0	432013312	23	4909
2026-01-21 01:06:39.63	356.16	35.72	-31.8	-34.5	11.3	1.33e-03	0	44	0	434110464	23	4898
2026-01-21 01:06:40.63	355.95	35.92	-32.0	-34.6	10.9	1.52e-03	0	44	0	436207616	24	4834
2026-01-21 01:06:41.63	355.74	36.12	-32.3	-35.4	10.3	5.41e-03	0	44	0	437256192	24	5183
2026-01-21 01:06:42.63	355.52	36.32	-32.4	-35.4	10.0	8.50e-03	0	44	0	439353344	25	5094
2026-01-21 01:06:43.64	355.30	36.52	-32.6	-36.0	9.4	1.57e-02	0	45	0	441450496	25	5372
2026-01-21 01:06:44.64	355.08	36.72	-32.7	-36.5	9.0	2.08e-02	0	44	0	443547648	25	5590
2026-01-21 01:06:45.64	354.85	36.92	-32.7	-36.5	9.0	2.15e-02	0	45	0	445644800	25	5594
2026-01-21 01:06:46.64	354.63	37.12	-32.5	-35.9	9.6	1.60e-02	0	45	0	446693376	25	5306
2026-01-21 01:06:47.64	354.40	37.33	-32.2	-34.9	10.3	1.06e-02	0	45	0	448790528	25	4871
2026-01-21 01:06:48.64	354.16	37.53	-32.1	-34.3	10.7	5.40e-03	0	44	0	450887680	25	4656
2026-01-21 01:06:49.64	353.93	37.74	-31.9	-34.2	11.2	4.34e-03	0	44	0	452984832	24	4688
2026-01-21 01:06:50.65	353.69	37.94	-31.9	-34.2	11.1	1.85e-03	0	45	0	455081984	24	4686
2026-01-21 01:06:51.65	353.45	38.15	-31.8	-33.9	11.4	1.38e-03	0	44	0	456130560	24	4598
2026-01-21 01:06:52.65	353.20	38.36	-31.9	-34.6	11.3	2.82e-03	0	45	0	458227712	23	4939
2026-01-21 01:06:53.65	352.95	38.56	-31.9	-34.4	11.1	2.61e-03	0	44	0	460324864	24	4757
2026-01-21 01:06:54.65	352.70	38.77	-31.7	-33.7	11.5	1.15e-03	0	44	0	462422016	24	4496
2026-01-21 01:06:55.65	352.45	38.98	-31.8	-34.4	11.5	7.36e-04	0	45	0	464519168	23	4850
2026-01-21 01:06:56.66	352.19	39.19	-31.8	-33.9	11.5	9.84e-04	0	44	0	465567744	24	4562
2026-01-21 01:06:57.66	351.92	39.40	-31.8	-33.9	11.5	1.03e-03	0	45	0	467664896	24	4590
2026-01-21 01:06:58.66	351.66	39.61	-32.1	-34.9	10.7	1.44e-03	0	44	0	469762048	24	4961
2026-01-21 01:06:59.66	351.39	39.82	-32.3	-35.5	10.3	3.79e-03	0	45	0	471859200	24	5202
2026-01-21 01:07:00.67	351.12	40.04	-32.4	-35.9	10.0	4.87e-03	0	44	0	472907776	24	5383
2026-01-21 01:07:01.67	350.84	40.25	-32.6	-36.0	9.5	1.67e-02	0	44	0	475004928	25	5343
2026-01-21 01:07:02.68	350.56	40.46	-32.8	-37.0	8.8	2.21e-02	0	44	0	477102080	25	5807
2026-01-21 01:07:03.67	350.28	40.67	-32.8	-36.7	8.9	2.14e-02	0	44	0	479199232	25	5676
2026-01-21 01:07:04.67	349.99	40.89	-32.9	-37.4	8.5	3.20e-02	0	44	0	481296384	25	6003
2026-01-21 01:07:05.68	349.70	41.10	-33.3	-38.2	7.5	8.52e-02	0	44	0	482344960	26	6369
2026-01-21 01:07:06.68	349.40	41.32	-33.3	-38.3	7.5	9.76e-02	0	44	0	484442112	26	6419
2026-01-21 01:07:07.68	349.10	41.53	-33.4	-38.7	7.1	1.30e-01	0	44	0	486539264	26	6683
2026-01-21 01:07:08.68	348.80	41.75	-33.3	-38.3	7.4	1.50e-01	0	44	0	488636416	26	6417
2026-01-21 01:07:09.68	348.50	41.96	-33.1	-37.7	7.9	5.89e-02	0	45	0	490733568	26	6064
2026-01-21 01:07:10.68	348.18	42.18	-33.0	-37.3	8.3	5.47e-02	0	45	0	491782144	26	5867
2026-01-21 01:07:11.68	347.87	42.40	-32.8	-36.2	9.1	4.96e-02	0	45	0	493879296	26	5323
2026-01-21 01:07:12.69	347.55	42.62	-33.1	-37.7	7.9	5.82e-02	0	45	0	495976448	26	6078
2026-01-21 01:07:13.69	347.22	42.83	-32.9	-36.8	8.6	7.17e-02	0	44	0	498073600	26	5601
2026-01-21 01:07:14.69	346.89	43.05	-32.9	-36.7	8.7	2.92e-02	0	44	0	499122176	26	5544
2026-01-21 01:07:15.70	346.56	43.27	-32.7	-35.9	9.3	2.75e-02	0	45	0	501219328	26	5179
2026-01-21 01:07:16.70	346.22	43.49	-32.2	-34.6	10.6	9.23e-03	0	44	0	503316480	25	4761
2026-01-21 01:07:17.71	345.87	43.70	-32.1	-34.7	10.9	2.54e-03	0	45	0	505413632	24	4876
2026-01-21 01:07:18.72	345.52	43.92	-31.9	-34.2	11.3	2.87e-03	0	45	0	507510784	24	4670
2026-01-21 01:07:19.71	345.18	44.14	-31.9	-34.0	11.5	1.28e-03	0	45	0	509607936	24	4616
2026-01-21 01:07:20.72	344.82	44.36	-31.8	-34.2	11.7	7.75e-04	0	45	0	510656512	23	4770
2026-01-21 01:07:21.72	344.45	44.58	-30.5	-32.7	11.8	4.62e-04	0	45	0	512753664	23	4642
2026-01-21 01:07:22.73	344.08	44.80	-31.4	-33.6	12.3	2.37e-04	0	44	0	514850816	22	4652
2026-01-21 01:07:23.74	343.71	45.02	-31.6	-33.7	11.9	2.53e-04	0	44	0	516947968	23	4576
2026-01-21 01:07:24.74	343.33	45.23	-31.8	-34.3	11.0	8.19e-04	0	45	0	517996544	23	4816
2026-01-21 01:07:25.74	342.95	45.45	-31.7	-34.1	11.3	8.07e-04	0	45	0	520093696	23	4725
2026-01-21 01:07:26.75	342.56	45.67	-31.7	-33.9	11.8	6.32e-04	0	45	0	522190848	23	4678
2026-01-21 01:07:27.74	342.17	45.88	-31.5	-33.9	12.2	2.48e-04	0	44	0	524288000	22	4744
2026-01-21 01:07:28.75	341.77	46.10	-31.5	-33.4	12.2	2.17e-04	0	45	0	526385152	23	4486
2026-01-21 01:07:29.75	341.36	46.31	-31.7	-34.0	11.7	4.08e-04	0	44	0	527433728	23	4706
2026-01-21 01:07:30.75	340.95	46.53	-31.4	-33.6	12.4	1.91e-03	0	45	0	529530880	22	4630
2026-01-21 01:07:31.75	340.54	46.74	-31.1	-32.9	12.8	7.09e-05	0	45	0	531628032	22	4387
2026-01-21 01:07:32.76	340.11	46.96	-30.8	-32.1	13.4	2.51e-05	0	45	0	533725184	22	4157
2026-01-21 01:07:33.76	339.68	47.17	-31.0	-32.4	13.2	6.80e-06	0	44	0	535822336	22	4244
2026-01-21 01:07:34.77	339.25	47.39	-31.5	-33.8	12.3	1.83e-03	0	44	0	536870912	22	4722
2026-01-21 01:07:35.78	338.80	47.60	-31.3	-32.9	12.5	2.47e-04	0	44	0	538968064	23	4319
2026-01-21 01:07:36.78	338.36	47.81	-31.3	-33.3	12.6	1.57e-04	0	45	0	541065216	22	4539
2026-01-21 01:07:37.79	337.90	48.02	-30.7	-32.1	13.7	1.60e-03	0	45	0	543162368	21	4262
2026-01-21 01:07:38.79	337.45	48.23	-30.5	-31.7	14.0	3.00e-06	0	44	0	545259520	21	4122
2026-01-21 01:07:39.79	336.98	48.44	-30.9	-32.8	13.3	3.80e-06	0	44	0	546308096	21	4477
2026-01-21 01:07:40.80	336.51	48.65	-31.3	-33.3	12.3	2.06e-03	0	45	0	548405248	22	4545
2026-01-21 01:07:41.81	336.03	48.86	-31.5	-33.4	12.2	2.13e-04	0	45	0	550502400	23	4505
2026-01-21 01:07:42.81	335.54	49.06	-31.2	-33.1	12.7	2.20e-04	0	44	0	552599552	22	4480
2026-01-21 01:07:43.81	335.05	49.27	-31.3	-33.5	12.5	5.18e-05	0	44	0	554696704	22	4611
2026-01-21 01:07:44.81	334.56	49.47	-31.3	-33.2	12.6	9.61e-05	0	45	0	555745280	22	4524
2026-01-21 01:07:45.82	334.05	49.67	-31.4	-33.6	12.4	2.23e-03	0	44	0	557842432	22	4667
2026-01-21 01:07:46.82	333.54	49.87	-31.4	-33.7	12.3	1.42e-04	0	44	0	559939584	22	4689
2026-01-21 01:07:47.81	333.03	50.06	-31.5	-33.4	12.2	2.43e-04	0	45	0	562036736	23	4480
2026-01-21 01:07:48.82	332.50	50.26	-31.5	-33.4	12.3	2.50e-03	0	44	0	564133888	23	4487
2026-01-21 01:07:49.82	331.97	50.46	-30.5	-31.6	14.0	8.30e-06	0	44	0	565182464	21	4107
2026-01-21 01:07:50.83	331.43	50.65	-29.8	-30.3	15.2	0.00e+00	0	44	0	567279616	20	3826
2026-01-21 01:07:51.83	330.89	50.84	-29.4	-29.8	15.8	1.83e-03	0	44	0	569376768	19	3783
2026-01-21 01:07:52.84	330.33	51.03	-29.6	-30.4	15.5	1.87e-03	0	45	0	571473920	19	3941
2026-01-21 01:07:53.84	329.77	51.22	-29.9	-31.1	15.1	0.00e+00	0	45	0	572522496	19	4127
2026-01-21 01:07:54.84	329.21	51.40	-29.8	-31.0	15.1	1.73e-03	0	44	0	574619648	19	4102
2026-01-21 01:07:55.85	328.63	51.58	-29.7	-30.6	15.3	1.64e-03	0	45	0	576716800	19	4008
2026-01-21 01:07:56.85	328.05	51.76	-29.9	-30.6	14.9	0.00e+00	0	44	0	578813952	20	3897
2026-01-21 01:07:57.85	327.47	51.94	-30.8	-32.5	13.5	9.74e-04	0	45	0	580911104	21	4362
2026-01-21 01:07:58.86	326.87	52.12	-31.1	-32.8	13.0	5.43e-04	0	45	0	583008256	22	4384
2026-01-21 01:07:59.86	326.27	52.29	-31.3	-32.8	12.7	7.32e-05	0	45	0	584056832	23	4293
2026-01-21 01:08:00.86	325.66	52.46	-31.3	-33.4	12.6	1.20e-04	0	45	0	586153984	22	4566
2026-01-21 01:08:01.86	325.05	52.62	-31.4	-33.7	12.4	1.15e-03	0	45	0	588251136	22	4680
2026-01-21 01:08:02.86	324.43	52.79	-31.6	-33.6	12.1	1.82e-04	0	45	0	590348288	23	4554
2026-01-21 01:08:03.87	323.80	52.95	-31.5	-33.3	12.3	4.73e-04	0	45	0	591396864	23	4456
2026-01-21 01:08:04.86	323.17	53.10	-31.1	-32.2	13.1	7.62e-05	0	45	0	593494016	23	4090
2026-01-21 01:08:05.87	322.52	53.26	-31.4	-33.1	12.5	7.17e-05	0	44	0	595591168	23	4393
2026-01-21 01:08:06.87	321.87	53.41	-31.4	-33.2	12.4	1.72e-04	0	44	0	597688320	23	4438
2026-01-21 01:08:07.87	321.22	53.56	-31.7	-34.2	11.7	2.31e-04	0	45	0	599785472	23	4754
2026-01-21 01:08:08.87	320.55	53.70	-31.2	-32.7	12.7	1.87e-04	0	45	0	600834048	23	4248
2026-01-21 01:08:09.88	319.88	53.84	-30.6	-31.5	13.9	6.48e-05	0	45	0	602931200	22	3974
2026-01-21 01:08:10.88	319.21	53.98	-30.0	-30.4	14.8	1.99e-04	0	45	0	605028352	21	3770
2026-01-21 01:08:11.88	318.52	54.11	-29.5	-29.7	15.6	0.00e+00	0	44	0	607125504	20	3664
2026-01-21 01:08:12.89	317.83	54.24	-29.7	-30.7	15.3	3.24e-04	0	44	0	609222656	19	4010
2026-01-21 01:08:13.89	317.14	54.37	-30.5	-32.1	14.1	2.90e-04	0	44	0	610271232	20	4348
2026-01-21 01:08:14.89	316.44	54.49	-31.1	-32.8	13.0	3.58e-05	0	45	0	612368384	22	4373
2026-01-21 01:08:15.90	315.72	54.61	-30.8	-31.9	13.6	1.91e-04	0	45	0	614465536	22	4097
2026-01-21 01:08:16.90	315.01	54.72	-30.5	-31.7	14.0	1.23e-03	0	44	0	616562688	21	4130
2026-01-21 01:08:17.90	314.30	54.83	-30.3	-31.1	14.2	3.00e-06	0	45	0	618659840	21	3961
2026-01-21 01:08:18.90	313.57	54.94	-29.7	-30.1	15.2	1.05e-03	0	45	0	619708416	20	3769
2026-01-21 01:08:19.90	312.85	55.04	-29.2	-29.5	16.0	4.05e-04	0	45	0	621805568	19	3702
2026-01-21 01:08:20.90	312.11	55.13	-29.6	-30.5	15.4	7.00e-07	0	45	0	623902720	19	3951
2026-01-21 01:08:21.90	311.38	55.23	-30.4	-31.9	14.3	0.00e+00	0	45	0	625999872	20	4270
2026-01-21 01:08:22.91	310.63	55.31	-30.7	-32.2	13.7	3.09e-04	0	44	0	628097024	21	4264
2026-01-21 01:08:23.90	309.89	55.40	-30.4	-31.3	14.2	1.50e-06	0	44	0	629145600	21	4023
2026-01-21 01:08:24.91	309.13	55.47	-30.5	-31.6	14.0	2.20e-06	0	44	0	631242752	21	4111
2026-01-21 01:08:25.90	308.38	55.55	-29.8	-30.4	15.1	0.00e+00	0	44	0	633339904	20	3865
2026-01-21 01:08:26.91	307.61	55.61	-29.0	-29.0	16.3	0.00e+00	0	45	0	635437056	19	3583
2026-01-21 01:08:27.92	306.84	55.68	-28.6	-28.9	16.9	7.12e-04	0	44	0	636485632	17	3747
2026-01-21 01:08:28.92	306.08	55.74	-28.8	-29.5	16.5	0.00e+00	0	44	0	638582784	17	3890
2026-01-21 01:08:29.92	305.31	55.79	-29.0	-29.4	16.2	0.00e+00	0	44	0	640679936	18	3787
2026-01-21 01:08:30.92	304.54	55.84	-29.2	-29.8	16.1	2.89e-05	0	44	0	642777088	18	3894
2026-01-21 01:08:31.93	303.75	55.88	-29.1	-29.6	16.2	0.00e+00	0	44	0	644874240	18	3836
2026-01-21 01:08:32.93	302.98	55.92	-29.2	-29.8	16.1	0.00e+00	0	45	0	645922816	18	3886
2026-01-21 01:08:33.93	302.20	55.95	-28.7	-29.2	16.7	1.47e-03	0	44	0	648019968	17	3820
2026-01-21 01:08:34.93	301.42	55.98	-28.0	-27.6	17.6	1.23e-03	0	45	0	650117120	17	3429
2026-01-21 01:08:35.93	300.64	56.00	-27.5	-27.1	18.1	0.00e+00	0	44	0	652214272	16	3409
2026-01-21 01:08:36.93	299.85	56.02	-27.6	-27.6	17.9	0.00e+00	0	44	0	654311424	15	3631
2026-01-21 01:08:37.93	299.07	56.03	-28.5	-29.2	17.0	5.10e-04	0	45	0	655360000	16	3912
2026-01-21 01:08:38.94	298.28	56.04	-28.8	-29.5	16.6	0.00e+00	0	44	0	657457152	17	3898
2026-01-21 01:08:39.94	297.49	56.04	-28.5	-28.7	17.0	0.00e+00	0	45	0	659554304	17	3697
2026-01-21 01:08:40.94	296.71	56.03	-28.6	-29.1	16.7	2.08e-04	0	45	0	661651456	17	3801
2026-01-21 01:08:41.95	295.92	56.02	-28.0	-27.7	17.5	0.00e+00	0	44	0	663748608	17	3455
2026-01-21 01:08:42.95	295.13	56.01	-27.6	-27.8	17.8	0.00e+00	0	45	0	664797184	15	3682
2026-01-21 01:08:43.95	294.35	55.99	-28.3	-28.8	17.2	0.00e+00	0	44	0	666894336	16	3803
2026-01-21 01:08:44.95	293.57	55.96	-28.8	-29.5	16.6	0.00e+00	0	45	0	668991488	17	3890
2026-01-21 01:08:45.95	292.79	55.93	-28.5	-28.7	17.0	0.00e+00	0	44	0	671088640	17	3694
2026-01-21 01:08:46.96	292.00	55.90	-28.5	-28.8	16.9	0.00e+00	0	44	0	673185792	17	3717
2026-01-21 01:08:47.96	291.23	55.86	-28.6	-28.9	16.8	0.00e+00	0	45	0	674234368	17	3748
2026-01-21 01:08:48.97	290.45	55.81	-28.4	-28.5	17.0	0.00e+00	0	45	0	676331520	17	3656
2026-01-21 01:08:49.97	289.68	55.76	-28.5	-28.8	16.9	0.00e+00	0	44	0	678428672	17	3711
2026-01-21 01:08:50.98	288.90	55.70	-28.8	-29.4	16.5	0.00e+00	0	45	0	680525824	17	3879
2026-01-21 01:08:51.98	288.14	55.64	-28.8	-29.5	16.5	2.25e-04	0	45	0	681574400	17	3891
2026-01-21 01:08:52.98	287.38	55.58	-28.5	-28.9	16.8	0.00e+00	0	45	0	683671552	17	3745
2026-01-21 01:08:53.99	286.61	55.51	-28.4	-28.6	16.9	0.00e+00	0	44	0	685768704	17	3677
2026-01-21 01:08:54.99	285.86	55.43	-28.3	-28.3	17.2	0.00e+00	0	45	0	687865856	17	3603
2026-01-21 01:08:55.99	285.11	55.35	-28.5	-28.8	16.9	0.00e+00	0	44	0	689963008	17	3719
2026-01-21 01:08:56.99	284.36	55.27	-28.3	-28.2	17.2	0.00e+00	0	45	0	691011584	17	3584
2026-01-21 01:08:57.99	283.62	55.18	-28.4	-29.1	17.0	0.00e+00	0	44	0	693108736	16	3893
2026-01-21 01:08:58.99	282.89	55.08	-28.4	-28.5	17.0	0.00e+00	0	45	0	695205888	17	3658
2026-01-21 01:09:00.00	282.15	54.98	-28.3	-28.3	17.2	0.00e+00	0	44	0	697303040	17	3613
2026-01-21 01:09:01.00	281.42	54.88	-28.6	-29.1	16.7	0.00e+00	0	45	0	699400192	17	3800
2026-01-21 01:09:02.00	280.70	54.77	-28.2	-28.2	17.2	0.00e+00	0	44	0	700448768	17	3573
2026-01-21 01:09:03.01	279.98	54.66	-28.3	-28.8	17.2	0.00e+00	0	44	0	702545920	16	3808
2026-01-21 01:09:04.01	279.27	54.54	-28.3	-28.7	17.3	0.00e+00	0	45	0	704643072	16	3805
2026-01-21 01:09:05.01	278.57	54.42	-28.7	-29.3	16.7	0.00e+00	0	44	0	706740224	17	3839
2026-01-21 01:09:06.02	277.87	54.30	-28.6	-29.0	16.8	0.00e+00	0	44	0	708837376	17	3769
2026-01-21 01:09:07.02	277.18	54.17	-28.7	-29.3	16.6	0.00e+00	0	44	0	709885952	17	3843
2026-01-21 01:09:08.02	276.49	54.04	-29.4	-30.5	15.7	0.00e+00	0	44	0	711983104	18	4078
2026-01-21 01:09:09.02	275.81	53.90	-28.3	-29.1	15.8	0.00e+00	0	45	0	714080256	18	3941
2026-01-21 01:09:10.02	275.14	53.76	-29.0	-29.9	15.0	0.00e+00	0	44	0	716177408	17	4006
2026-01-21 01:09:11.03	274.47	53.62	-29.0	-29.5	16.2	0.00e+00	0	44	0	718274560	18	3817
2026-01-21 01:09:12.04	273.80	53.47	-29.5	-30.4	14.5	0.00e+00	0	44	0	719323136	18	3966
2026-01-21 01:09:13.04	273.15	53.32	-29.7	-30.6	14.7	0.00e+00	0	44	0	721420288	19	4011
2026-01-21 01:09:14.04	272.51	53.17	-29.8	-30.9	15.1	1.50e-06	0	44	0	723517440	19	4070
2026-01-21 01:09:15.05	271.86	53.01	-30.0	-31.3	14.9	0.00e+00	0	45	0	725614592	19	4195
2026-01-21 01:09:16.05	271.23	52.85	-30.1	-31.1	14.7	2.18e-03	0	44	0	727711744	20	4049
2026-01-21 01:09:17.06	270.60	52.69	-29.7	-30.1	15.3	0.00e+00	0	44	0	728760320	20	3768
2026-01-21 01:09:18.06	269.98	52.52	-30.0	-30.9	14.7	0.00e+00	0	44	0	730857472	20	4005
2026-01-21 01:09:19.07	269.37	52.35	-30.6	-32.1	13.7	0.00e+00	0	44	0	732954624	21	4248
2026-01-21 01:09:20.07	268.76	52.18	-30.7	-32.1	13.6	1.14e-05	0	44	0	735051776	21	4258
2026-01-21 01:09:21.07	268.17	52.01	-30.3	-31.7	14.3	3.00e-06	0	44	0	737148928	20	4217
2026-01-21 01:09:22.08	267.57	51.83	-30.5	-31.8	14.0	7.00e-07	0	44	0	738197504	21	4156
2026-01-21 01:09:23.08	266.99	51.65	-30.1	-30.8	14.5	7.00e-07	0	44	0	740294656	21	3865
2026-01-21 01:09:24.09	266.41	51.47	-29.7	-30.2	15.2	0.00e+00	0	45	0	742391808	20	3798
2026-01-21 01:09:25.09	265.84	51.28	-30.3	-31.6	14.4	0.00e+00	0	44	0	744488960	20	4196
2026-01-21 01:09:26.09	265.28	51.10	-30.6	-32.1	13.7	3.00e-06	0	44	0	745537536	21	4253
2026-01-21 01:09:27.10	264.72	50.91	-31.0	-32.6	13.0	4.10e-04	0	44	0	747634688	22	4335
2026-01-21 01:09:28.11	264.17	50.72	-30.7	-32.2	13.6	1.14e-05	0	44	0	749731840	21	4303
2026-01-21 01:09:29.11	263.63	50.52	-30.5	-31.6	14.0	7.60e-06	0	45	0	751828992	21	4086
2026-01-21 01:09:30.11	263.09	50.33	-29.7	-30.2	15.0	1.04e-03	0	44	0	753926144	20	3813
2026-01-21 01:09:31.12	262.56	50.13	-29.6	-30.4	15.3	5.90e-04	0	44	0	754974720	19	3954
2026-01-21 01:09:32.12	262.04	49.94	-29.9	-31.1	14.9	0.00e+00	0	45	0	757071872	19	4152
2026-01-21 01:09:33.13	261.52	49.74	-30.5	-32.1	14.0	2.67e-03	0	44	0	759169024	20	4358
2026-01-21 01:09:34.13	261.02	49.54	-30.7	-32.1	13.7	2.47e-03	0	45	0	761266176	21	4259
2026-01-21 01:09:35.13	260.52	49.33	-30.9	-32.8	13.2	5.30e-06	0	44	0	763363328	21	4480
2026-01-21 01:09:36.13	260.02	49.13	-31.0	-32.7	13.0	1.60e-05	0	45	0	764411904	22	4361
2026-01-21 01:09:37.14	259.53	48.92	-30.8	-32.6	13.3	1.02e-03	0	44	0	766509056	21	4402
2026-01-21 01:09:38.14	259.05	48.72	-31.2	-33.1	12.8	2.82e-05	0	44	0	768606208	22	4481
2026-01-21 01:09:39.14	258.58	48.51	-31.2	-33.0	12.7	1.27e-04	0	44	0	770703360	22	4449
2026-01-21 01:09:40.15	258.11	48.30	-30.8	-32.5	13.4	2.15e-03	0	44	0	772800512	21	4394
2026-01-21 01:09:41.15	257.65	48.09	-30.8	-32.5	13.3	1.67e-05	0	44	0	773849088	21	4388
2026-01-21 01:09:42.16	257.19	47.88	-31.7	-34.0	11.7	1.30e-03	0	44	0	775946240	23	4730
2026-01-21 01:09:43.16	256.74	47.67	-31.9	-34.8	11.1	3.09e-03	0	44	0	778043392	23	5028
2026-01-21 01:09:44.16	256.30	47.46	-32.8	-37.1	8.7	1.40e-02	0	44	0	780140544	25	5881
2026-01-21 01:09:45.16	255.86	47.24	-33.5	-39.4	6.3	9.16e-02	0	44	0	782237696	27	7083
2026-01-21 01:09:46.16	255.43	47.03	-33.3	-38.0	7.1	3.14e-01	0	44	0	783286272	27	6224
2026-01-21 01:09:47.16	255.01	46.82	-32.9	-36.1	8.6	4.56e-02	0	45	0	785383424	27	5229
2026-01-21 01:09:48.16	254.59	46.60	-32.9	-36.8	8.4	5.89e-02	0	44	0	787480576	26	5640
2026-01-21 01:09:49.16	254.18	46.39	-32.6	-36.2	9.2	5.08e-02	0	44	0	789577728	25	5465
2026-01-21 01:09:50.16	253.77	46.17	-32.4	-35.4	9.8	1.87e-02	0	44	0	791674880	25	5096
2026-01-21 01:09:51.17	253.36	45.95	-31.8	-34.0	11.3	5.00e-03	0	45	0	792723456	24	4623
2026-01-21 01:09:52.17	252.97	45.73	-32.2	-35.3	10.4	6.85e-03	0	44	0	794820608	24	5131
2026-01-21 01:09:53.18	252.57	45.52	-32.0	-34.8	10.7	3.10e-03	0	44	0	796917760	24	4925
2026-01-21 01:09:54.18	252.19	45.30	-31.7	-34.1	11.4	4.09e-03	0	45	0	799014912	23	4773
2026-01-21 01:09:55.18	251.81	45.08	-31.3	-32.8	12.4	2.49e-03	0	45	0	800063488	23	4323
2026-01-21 01:09:56.19	251.43	44.86	-30.9	-31.9	13.0	1.10e-04	0	44	0	802160640	23	4015
2026-01-21 01:09:57.19	251.06	44.64	-30.8	-32.6	13.2	9.25e-04	0	44	0	804257792	21	4434
2026-01-21 01:09:58.20	250.69	44.42	-31.0	-32.7	12.8	1.32e-03	0	45	0	806354944	22	4369
2026-01-21 01:09:59.20	250.33	44.20	-31.3	-33.6	12.2	3.02e-04	0	44	0	808452096	22	4656
2026-01-21 01:10:00.21	249.97	43.98	-32.2	-35.4	10.2	2.27e-03	0	44	0	810549248	24	5169
2026-01-21 01:10:01.21	249.62	43.77	-32.4	-36.0	9.7	1.39e-02	0	44	0	811597824	24	5459
2026-01-21 01:10:02.22	249.27	43.55	-32.0	-34.5	10.6	8.74e-03	0	44	0	813694976	24	4833
2026-01-21 01:10:03.22	248.93	43.33	-31.9	-34.7	11.1	1.40e-03	0	44	0	815792128	23	5010
2026-01-21 01:10:04.22	248.60	43.11	-31.8	-34.5	11.3	4.25e-03	0	45	0	817889280	23	4912
2026-01-21 01:10:05.23	248.26	42.89	-32.2	-35.5	10.1	2.12e-03	0	45	0	818937856	24	5242
2026-01-21 01:10:06.23	247.94	42.67	-32.6	-36.2	9.2	1.12e-02	0	45	0	821035008	25	5459
2026-01-21 01:10:07.24	247.61	42.45	-32.4	-36.0	9.6	1.39e-02	0	44	0	823132160	24	5475
2026-01-21 01:10:08.24	247.29	42.24	-32.5	-35.9	9.3	1.35e-02	0	44	0	825229312	25	5326
2026-01-21 01:10:09.25	246.98	42.02	-32.3	-35.6	9.9	1.32e-02	0	45	0	827326464	24	5304
2026-01-21 01:10:10.25	246.67	41.80	-32.0	-34.7	10.7	3.28e-03	0	45	0	828375040	24	4917
2026-01-21 01:10:11.26	246.36	41.58	-31.4	-32.9	11.9	8.37e-04	0	45	0	830472192	24	4255
2026-01-21 01:10:12.26	246.06	41.37	-31.2	-33.1	12.6	3.04e-03	0	45	0	832569344	22	4517
2026-01-21 01:10:13.27	245.76	41.15	-31.2	-33.1	12.5	1.46e-04	0	45	0	834666496	22	4512
2026-01-21 01:10:14.27	245.47	40.93	-31.5	-33.6	11.8	2.79e-04	0	45	0	836763648	23	4563
2026-01-21 01:10:15.27	245.18	40.72	-31.9	-35.0	10.8	4.05e-03	0	45	0	837812224	23	5124
2026-01-21 01:10:16.27	244.89	40.51	-32.1	-35.2	10.2	6.22e-03	0	44	0	839909376	24	5146
2026-01-21 01:10:17.28	244.61	40.29	-32.2	-35.5	10.0	5.05e-03	0	44	0	842006528	24	5252
2026-01-21 01:10:18.28	244.33	40.08	-32.4	-36.1	9.6	9.47e-03	0	45	0	844103680	24	5500
2026-01-21 01:10:19.29	244.05	39.86	-32.4	-36.0	9.7	1.58e-02	0	45	0	846200832	24	5472
2026-01-21 01:10:20.29	243.78	39.65	-32.4	-36.1	9.6	1.51e-02	0	44	0	847249408	24	5537
2026-01-21 01:10:21.29	243.52	39.44	-32.2	-35.3	10.1	1.44e-02	0	44	0	849346560	24	5192
2026-01-21 01:10:22.30	243.25	39.23	-31.9	-34.5	10.7	6.09e-03	0	44	0	851443712	24	4854
2026-01-21 01:10:23.30	242.99	39.02	-31.7	-33.9	11.2	1.24e-03	0	44	0	853540864	24	4606
2026-01-21 01:10:24.31	242.73	38.80	-31.9	-34.9	10.8	1.75e-03	0	45	0	855638016	23	5089
2026-01-21 01:10:25.32	242.48	38.59	-31.8	-34.7	11.0	2.53e-03	0	45	0	856686592	23	5028
2026-01-21 01:10:26.32	242.23	38.38	-31.6	-34.1	11.4	2.29e-03	0	45	0	858783744	23	4783
2026-01-21 01:10:27.33	241.98	38.17	-31.7	-34.2	11.3	2.02e-03	0	45	0	860880896	23	4814
2026-01-21 01:10:28.34	241.73	37.97	-31.9	-34.3	10.8	2.27e-03	0	45	0	862978048	24	4776
2026-01-21 01:10:29.34	241.49	37.76	-32.1	-35.2	10.2	3.11e-03	0	45	0	865075200	24	5127
2026-01-21 01:10:30.34	241.25	37.55	-32.2	-35.4	10.1	7.11e-03	0	45	0	866123776	24	5218
2026-01-21 01:10:31.35	241.02	37.35	-32.3	-36.0	9.7	1.10e-02	0	45	0	868220928	24	5458
2026-01-21 01:10:32.35	240.78	37.14	-32.1	-35.0	10.4	8.34e-03	0	44	0	870318080	24	5052
2026-01-21 01:10:33.35	240.56	36.94	-32.3	-35.7	9.9	9.28e-03	0	45	0	872415232	24	5340
2026-01-21 01:10:34.36	240.33	36.73	-32.1	-35.3	10.2	1.43e-02	0	45	0	874512384	24	5157
2026-01-21 01:10:35.36	240.11	36.53	-32.1	-35.1	10.3	7.48e-03	0	45	0	875560960	24	5107
2026-01-21 01:10:36.36	239.88	36.33	-31.8	-34.1	11.0	4.73e-03	0	45	0	877658112	24	4692
2026-01-21 01:10:37.36	239.67	36.13	-31.6	-34.1	11.5	1.38e-03	0	45	0	879755264	23	4784
2026-01-21 01:10:38.36	239.45	35.93	-31.2	-32.8	12.3	3.42e-04	0	45	0	881852416	23	4319
2026-01-21 01:10:39.37	239.24	35.73	-31.1	-33.0	12.5	1.97e-04	0	45	0	883949568	22	4473
2026-01-21 01:10:40.37	239.03	35.53	-31.2	-33.3	12.2	2.07e-04	0	45	0	884998144	22	4601
2026-01-21 01:10:41.38	238.82	35.33	-31.6	-33.9	11.4	7.13e-04	0	45	0	887095296	23	4727
2026-01-21 01:10:42.38	238.62	35.14	-31.7	-34.3	11.2	7.57e-04	0	45	0	889192448	23	4866
2026-01-21 01:10:43.39	238.41	34.94	-32.0	-35.0	10.4	2.40e-03	0	44	0	891289600	24	5051
2026-01-21 01:10:44.39	238.21	34.74	-32.3	-36.0	9.6	9.58e-03	0	45	0	892338176	24	5484
2026-01-21 01:10:45.40	238.01	34.55	-32.3	-35.8	9.7	1.49e-02	0	45	0	894435328	24	5393
2026-01-21 01:10:46.40	237.82	34.35	-31.7	-34.0	11.0	8.29e-03	0	44	0	896532480	24	4663
2026-01-21 01:10:47.40	237.63	34.16	-31.1	-32.4	12.4	2.82e-04	0	45	0	898629632	23	4215
2026-01-21 01:10:48.41	237.43	33.97	-30.9	-31.9	12.9	1.01e-04	0	45	0	900726784	23	4054
2026-01-21 01:10:49.41	237.25	33.78	-30.8	-32.1	13.0	2.51e-05	0	45	0	901775360	22	4191
2026-01-21 01:10:50.41	237.06	33.59	-30.1	-31.8	12.6	7.09e-05	0	45	0	903872512	22	4384
2026-01-21 01:10:51.41	236.88	33.40	-31.1	-33.6	12.2	6.25e-05	0	45	0	905969664	21	4807
2026-01-21 01:10:52.41	236.70	33.21	-31.4	-33.4	11.8	5.32e-04	0	44	0	908066816	23	4529
2026-01-21 01:10:53.42	236.52	33.02	-31.2	-33.4	11.6	3.78e-04	0	45	0	910163968	22	4611
2026-01-21 01:10:54.42	236.34	32.83	-31.3	-33.6	11.5	2.96e-04	0	45	0	911212544	22	4710
2026-01-21 01:10:55.42	236.16	32.65	-31.3	-33.6	12.0	4.50e-04	0	44	0	913309696	22	4710
2026-01-21 01:10:56.42	235.99	32.46	-31.5	-34.2	11.5	3.17e-04	0	45	0	915406848	22	4933
2026-01-21 01:10:57.43	235.82	32.28	-31.5	-34.1	11.5	2.05e-03	0	45	0	917504000	22	4904
2026-01-21 01:10:58.43	235.65	32.09	-31.5	-33.9	11.4	8.97e-04	0	44	0	919601152	23	4718
2026-01-21 01:10:59.44	235.48	31.91	-31.6	-34.2	11.3	1.50e-03	0	45	0	920649728	23	4827
2026-01-21 01:11:00.44	235.32	31.73	-31.6	-34.2	11.1	1.62e-03	0	45	0	922746880	23	4829
2026-01-21 01:11:01.44	235.15	31.55	-31.8	-34.8	10.7	2.43e-03	0	45	0	924844032	23	5073
2026-01-21 01:11:02.44	234.99	31.37	-32.0	-34.8	10.3	4.09e-03	0	45	0	926941184	24	5007
2026-01-21 01:11:03.45	234.83	31.19	-32.3	-35.9	9.6	6.95e-03	0	45	0	929038336	24	5459
2026-01-21 01:11:04.46	234.67	31.01	-32.4	-36.3	9.2	1.52e-02	0	45	0	930086912	24	5668
2026-01-21 01:11:05.46	234.51	30.83	-32.2	-35.6	9.8	1.70e-02	0	44	0	932184064	24	5341
2026-01-21 01:11:06.47	234.36	30.65	-31.8	-34.3	10.7	8.20e-03	0	44	0	934281216	24	4781
2026-01-21 01:11:07.46	234.21	30.48	-31.6	-33.6	11.3	2.33e-03	0	45	0	936378368	24	4528
2026-01-21 01:11:08.46	234.06	30.30	-31.4	-33.6	11.6	8.40e-04	0	44	0	938475520	23	4607
2026-01-21 01:11:09.46	233.91	30.13	-31.2	-33.6	11.9	6.77e-04	0	44	0	939524096	22	4748
2026-01-21 01:11:10.46	233.76	29.95	-30.8	-32.3	12.8	1.92e-04	0	45	0	941621248	22	4262
2026-01-21 01:11:11.46	233.61	29.78	-30.6	-32.2	13.3	2.84e-04	0	45	0	943718400	21	4327
2026-01-21 01:11:12.46	233.47	29.61	-30.5	-32.0	13.3	2.82e-05	0	45	0	945815552	21	4264
2026-01-21 01:11:13.47	233.32	29.44	-30.7	-32.4	13.0	2.89e-05	0	45	0	946864128	21	4406
2026-01-21 01:11:14.47	233.18	29.27	-30.9	-33.0	12.6	2.86e-04	0	44	0	948961280	21	4614
2026-01-21 01:11:15.47	233.04	29.10	-31.0	-33.0	12.3	4.03e-04	0	45	0	951058432	22	4504
2026-01-21 01:11:16.48	232.90	28.93	-31.2	-33.4	12.1	1.56e-04	0	45	0	953155584	22	4646
2026-01-21 01:11:17.48	232.76	28.76	-31.2	-33.5	12.0	3.22e-04	0	44	0	955252736	22	4681
2026-01-21 01:11:18.49	232.63	28.59	-31.4	-34.2	11.5	2.28e-03	0	45	0	956301312	22	4943
2026-01-21 01:11:19.49	232.49	28.43	-31.5	-33.8	11.4	1.18e-03	0	45	0	958398464	23	4696
2026-01-21 01:11:20.49	232.36	28.26	-31.5	-34.2	11.4	6.07e-04	0	44	0	960495616	22	4954
2026-01-21 01:11:21.49	232.23	28.10	-31.1	-33.2	12.1	2.57e-03	0	45	0	962592768	22	4589
2026-01-21 01:11:22.49	232.10	27.93	-30.7	-32.1	12.9	8.31e-05	0	44	0	964689920	22	4221
2026-01-21 01:11:23.50	231.97	27.77	-30.2	-31.2	13.8	2.51e-05	0	45	0	965738496	21	4033
2026-01-21 01:11:24.50	231.84	27.61	-30.0	-31.2	14.0	1.97e-03	0	45	0	967835648	20	4132
2026-01-21 01:11:25.49	231.72	27.45	-30.1	-31.4	14.0	2.20e-06	0	45	0	969932800	20	4179
2026-01-21 01:11:26.50	231.59	27.29	-29.9	-31.5	14.3	1.39e-03	0	44	0	972029952	19	4294
2026-01-21 01:11:27.51	231.47	27.12	-29.9	-30.9	14.3	7.00e-07	0	44	0	974127104	20	4035
2026-01-21 01:11:28.51	231.35	26.97	-30.1	-31.3	14.0	3.00e-06	0	44	0	975175680	20	4168
2026-01-21 01:11:29.51	231.22	26.81	-30.2	-31.7	13.7	9.92e-04	0	45	0	977272832	20	4269
2026-01-21 01:11:30.52	231.10	26.65	-30.2	-31.6	13.8	9.90e-06	0	45	0	979369984	20	4234
2026-01-21 01:11:31.52	230.98	26.49	-30.2	-31.6	13.8	4.50e-06	0	45	0	981467136	20	4257
2026-01-21 01:11:32.53	230.87	26.34	-30.1	-31.5	13.8	3.30e-04	0	45	0	983564288	20	4229
2026-01-21 01:11:33.53	230.75	26.18	-30.1	-31.5	13.9	4.03e-04	0	44	0	984612864	20	4227
2026-01-21 01:11:34.54	230.63	26.03	-30.3	-32.0	13.5	3.80e-06	0	44	0	986710016	20	4364
2026-01-21 01:11:35.54	230.52	25.87	-30.5	-32.0	13.2	8.21e-04	0	45	0	988807168	21	4296
2026-01-21 01:11:36.54	230.41	25.72	-30.7	-32.6	12.7	5.89e-04	0	45	0	990904320	21	4501
2026-01-21 01:11:37.54	230.30	25.57	-30.7	-32.6	12.8	2.53e-04	0	45	0	991952896	21	4498
2026-01-21 01:11:38.54	230.19	25.42	-30.7	-32.7	12.8	1.44e-03	0	44	0	994050048	21	4506
2026-01-21 01:11:39.54	230.08	25.27	-30.5	-32.0	13.2	1.46e-03	0	45	0	996147200	21	4285
2026-01-21 01:11:40.54	229.97	25.12	-30.2	-31.9	13.5	2.13e-04	0	45	0	998244352	20	4348
2026-01-21 01:11:41.53	229.86	24.97	-30.1	-31.6	13.7	1.06e-05	0	45	0	1000341504	20	4253
2026-01-21 01:11:42.54	229.75	24.82	-29.9	-31.0	14.1	1.36e-03	0	45	0	1001390080	20	4070
2026-01-21 01:11:43.54	229.65	24.67	-29.7	-30.3	14.6	1.81e-04	0	45	0	1003487232	20	3887
2026-01-21 01:11:44.54	229.54	24.53	-29.8	-31.1	14.5	2.01e-03	0	45	0	1005584384	19	4192
2026-01-21 01:11:45.55	229.44	24.38	-29.8	-31.3	14.3	2.02e-03	0	44	0	1007681536	19	4248
2026-01-21 01:11:46.55	229.34	24.23	-30.0	-31.1	14.0	2.88e-04	0	45	0	1009778688	20	4122
2026-01-21 01:11:47.55	229.24	24.09	-30.1	-31.6	13.6	2.06e-03	0	45	0	1010827264	20	4276
2026-01-21 01:11:48.56	229.13	23.94	-30.2	-31.7	13.6	7.60e-06	0	45	0	1012924416	20	4289
2026-01-21 01:11:49.57	229.03	23.80	-30.2	-31.8	13.6	3.69e-04	0	45	0	1015021568	20	4328
2026-01-21 01:11:50.57	228.93	23.66	-30.2	-31.8	13.6	2.34e-03	0	45	0	1017118720	20	4317
2026-01-21 01:11:51.57	228.84	23.51	-30.0	-31.3	13.9	2.10e-03	0	45	0	1019215872	20	4159
2026-01-21 01:11:52.58	228.74	23.37	-30.1	-31.4	13.8	4.04e-04	0	45	0	1020264448	20	4214
2026-01-21 01:11:53.58	228.64	23.23	-30.2	-31.8	13.5	5.19e-04	0	45	0	1022361600	20	4339
2026-01-21 01:11:54.59	228.55	23.09	-30.2	-31.8	13.5	7.89e-04	0	45	0	1024458752	20	4330
2026-01-21 01:11:55.59	228.45	22.95	-30.4	-32.4	13.2	1.60e-05	0	44	0	1026555904	20	4532
2026-01-21 01:11:56.59	228.36	22.81	-30.6	-32.4	12.8	1.88e-03	0	45	0	1028653056	21	4441
2026-01-21 01:11:57.60	228.27	22.67	-30.9	-33.3	12.2	2.56e-03	0	45	0	1029701632	21	4735
2026-01-21 01:11:58.60	228.18	22.54	-31.2	-33.6	11.7	5.18e-04	0	45	0	1031798784	22	4744
2026-01-21 01:11:59.61	228.08	22.40	-31.3	-33.9	11.4	6.58e-04	0	45	0	1033895936	22	4888
2026-01-21 01:12:00.61	227.99	22.26	-31.1	-33.4	11.8	3.25e-03	0	44	0	1035993088	22	4699
2026-01-21 01:12:01.61	227.90	22.13	-31.2	-33.6	11.7	6.00e-04	0	45	0	1038090240	22	4749
2026-01-21 01:12:02.61	227.82	21.99	-31.3	-33.9	11.4	1.15e-03	0	45	0	1039138816	22	4884
2026-01-21 01:12:03.61	227.73	21.86	-31.0	-33.0	12.0	3.60e-03	0	45	0	1041235968	22	4552
2026-01-21 01:12:04.62	227.64	21.72	-30.7	-32.3	12.5	3.13e-04	0	45	0	1043333120	22	4288
2026-01-21 01:12:05.62	227.56	21.59	-30.6	-32.4	12.8	1.70e-04	0	44	0	1045430272	21	4425
2026-01-21 01:12:06.62	227.47	21.46	-30.5	-32.2	12.9	1.55e-04	0	45	0	1047527424	21	4359
2026-01-21 01:12:07.62	227.39	21.33	-30.6	-32.5	12.7	4.73e-05	0	44	0	1048576000	21	4480
2026-01-21 01:12:08.62	227.30	21.20	-30.7	-32.9	12.4	2.62e-04	0	45	0	1050673152	21	4595
2026-01-21 01:12:09.62	227.22	21.07	-30.9	-33.5	12.0	3.71e-04	0	45	0	1052770304	21	4807
2026-01-21 01:12:10.62	227.14	20.94	-31.0	-33.0	12.0	3.19e-04	0	44	0	1054867456	22	4559
2026-01-21 01:12:11.62	227.05	20.81	-31.2	-33.7	11.5	3.39e-03	0	45	0	1055916032	22	4792
2026-01-21 01:12:12.63	226.97	20.68	-31.3	-34.0	11.3	1.19e-03	0	45	0	1058013184	22	4936
2026-01-21 01:12:13.62	226.89	20.55	-31.2	-33.7	11.5	8.06e-04	0	45	0	1060110336	22	4792
2026-01-21 01:12:14.63	226.81	20.42	-31.3	-34.1	11.2	3.72e-03	0	45	0	1062207488	22	4937
2026-01-21 01:12:15.63	226.73	20.30	-31.0	-33.2	11.9	5.84e-04	0	44	0	1064304640	22	4600
2026-01-21 01:12:16.63	226.66	20.17	-30.8	-32.4	12.4	2.23e-04	0	45	0	1065353216	22	4357
2026-01-21 01:12:17.63	226.58	20.04	-30.5	-32.1	12.9	2.16e-04	0	45	0	1067450368	21	4324
2026-01-21 01:12:18.63	226.50	19.92	-30.3	-32.0	13.3	2.57e-03	0	45	0	1069547520	20	4391
2026-01-21 01:12:19.64	226.43	19.79	-30.1	-31.6	13.6	8.30e-06	0	44	0	1071644672	20	4270
2026-01-21 01:12:20.64	226.35	19.67	-30.0	-31.4	13.7	8.92e-05	0	45	0	1073741824	20	4197
2026-01-21 01:12:21.65	226.27	19.55	-30.1	-31.6	13.6	9.76e-05	0	45	0	1074790400	20	4270
2026-01-21 01:12:22.65	226.20	19.42	-29.9	-31.1	13.9	3.00e-06	0	45	0	1076887552	20	4113
2026-01-21 01:12:23.66	226.12	19.30	-29.9	-31.0	13.9	1.05e-04	0	45	0	1078984704	20	4104
2026-01-21 01:12:24.66	226.05	19.18	-29.8	-31.2	14.1	1.12e-04	0	44	0	1081081856	19	4247
2026-01-21 01:12:25.66	225.98	19.06	-29.9	-31.6	14.0	2.20e-06	0	45	0	1083179008	19	4350
2026-01-21 01:12:26.66	225.91	18.94	-30.1	-31.6	13.5	9.61e-05	0	45	0	1084227584	20	4268
2026-01-21 01:12:27.67	225.84	18.82	-30.0	-31.3	13.7	8.85e-05	0	44	0	1086324736	20	4182
2026-01-21 01:12:28.67	225.76	18.70	-30.2	-31.7	13.4	6.80e-06	0	44	0	1088421888	20	4320
2026-01-21 01:12:29.67	225.69	18.58	-30.3	-32.3	13.0	2.97e-05	0	45	0	1090519040	20	4485
2026-01-21 01:12:30.67	225.62	18.46	-30.3	-32.1	13.2	4.50e-05	0	45	0	1092616192	20	4421
2026-01-21 01:12:31.67	225.56	18.34	-30.3	-32.3	13.1	2.97e-05	0	45	0	1093664768	20	4486
2026-01-21 01:12:32.68	225.49	18.22	-30.5	-32.2	12.7	5.34e-05	0	45	0	1095761920	21	4388
2026-01-21 01:12:33.68	225.42	18.11	-30.5	-32.3	12.6	8.54e-05	0	45	0	1097859072	21	4423
2026-01-21 01:12:34.68	225.35	17.99	-30.5	-32.2	12.8	6.10e-05	0	44	0	1099956224	21	4373
2026-01-21 01:12:35.69	225.28	17.87	-30.8	-33.1	12.1	1.34e-04	0	45	0	1101004800	21	4683
2026-01-21 01:12:36.69	225.22	17.76	-30.9	-33.4	11.9	3.65e-04	0	45	0	1103101952	21	4804
2026-01-21 01:12:37.69	225.15	17.64	-30.7	-32.9	12.3	2.08e-04	0	45	0	1105199104	21	4603
2026-01-21 01:12:38.70	225.09	17.53	-30.8	-33.2	12.1	2.59e-04	0	45	0	1107296256	21	4717
2026-01-21 01:12:39.70	225.02	17.41	-30.0	-32.4	12.0	3.52e-04	0	45	0	1109393408	21	4747
2026-01-21 01:12:40.71	224.96	17.30	-30.9	-33.5	11.5	3.21e-04	0	45	0	1111490560	21	4827
2026-01-21 01:12:41.71	224.89	17.19	-31.1	-33.5	11.2	5.10e-04	0	45	0	1112539136	22	4764
2026-01-21 01:12:42.71	224.83	17.07	-31.0	-33.3	11.4	5.32e-04	0	45	0	1114636288	22	4665
2026-01-21 01:12:43.72	224.77	16.96	-31.2	-33.8	10.7	8.19e-04	0	44	0	1116733440	22	4863
2026-01-21 01:12:44.73	224.70	16.85	-31.2	-33.8	10.9	1.55e-03	0	45	0	1118830592	22	4855
2026-01-21 01:12:45.73	224.64	16.74	-31.2	-33.8	11.2	1.45e-03	0	44	0	1119879168	22	4872
2026-01-21 01:12:46.73	224.58	16.63	-31.1	-33.5	11.3	9.42e-04	0	45	0	1121976320	22	4773
2026-01-21 01:12:47.72	224.52	16.52	-31.3	-34.2	10.9	1.27e-03	0	44	0	1124073472	22	5008
2026-01-21 01:12:48.72	224.46	16.41	-31.2	-33.8	11.2	2.39e-03	0	45	0	1126170624	22	4880
2026-01-21 01:12:49.72	224.40	16.30	-31.0	-33.4	11.5	2.75e-03	0	45	0	1128267776	22	4727
2026-01-21 01:12:50.72	224.34	16.19	-31.2	-33.8	11.2	1.36e-03	0	45	0	1129316352	22	4866
2026-01-21 01:12:51.73	224.28	16.08	-31.1	-33.6	11.3	1.54e-03	0	45	0	1131413504	22	4807
2026-01-21 01:12:52.73	224.22	15.97	-31.0	-33.4	11.4	1.12e-03	0	45	0	1133510656	22	4723
2026-01-21 01:12:53.74	224.16	15.87	-31.1	-33.7	11.2	1.04e-03	0	45	0	1135607808	22	4849
2026-01-21 01:12:54.74	224.10	15.76	-31.1	-33.6	11.3	1.42e-03	0	44	0	1137704960	22	4811
2026-01-21 01:12:55.75	224.05	15.65	-31.2	-33.8	11.1	1.52e-03	0	44	0	1138753536	22	4884
2026-01-21 01:12:56.75	223.99	15.55	-30.9	-33.6	11.6	2.07e-03	0	45	0	1140850688	21	4889
2026-01-21 01:12:57.75	223.93	15.44	-31.0	-33.8	11.5	6.43e-04	0	45	0	1142947840	21	4963
2026-01-21 01:12:58.75	223.88	15.33	-31.0	-33.7	11.5	6.99e-04	0	44	0	1145044992	21	4956
2026-01-21 01:12:59.76	223.82	15.23	-30.9	-33.6	11.6	2.33e-03	0	45	0	1147142144	21	4918
2026-01-21 01:13:00.77	223.77	15.12	-31.1	-33.7	11.1	1.17e-03	0	45	0	1148190720	22	4848
2026-01-21 01:13:01.77	223.71	15.02	-31.0	-33.8	11.5	1.42e-03	0	45	0	1150287872	21	4994
2026-01-21 01:13:02.77	223.66	14.92	-31.0	-33.8	11.5	1.32e-03	0	45	0	1152385024	21	4964
2026-01-21 01:13:03.77	223.60	14.81	-31.0	-33.3	11.5	8.86e-04	0	44	0	1154482176	22	4687
2026-01-21 01:13:04.77	223.55	14.71	-31.2	-33.8	11.1	1.18e-03	0	45	0	1156579328	22	4912
2026-01-21 01:13:05.78	223.49	14.61	-31.1	-33.6	11.1	2.03e-03	0	44	0	1157627904	22	4808
2026-01-21 01:13:06.78	223.44	14.51	-31.0	-33.3	11.4	8.29e-04	0	45	0	1159725056	22	4712
2026-01-21 01:13:07.78	223.39	14.40	-31.1	-33.6	11.2	2.81e-03	0	45	0	1161822208	22	4803
2026-01-21 01:13:08.79	223.34	14.30	-31.1	-33.5	11.2	1.23e-03	0	45	0	1163919360	22	4789
2026-01-21 01:13:09.79	223.28	14.20	-31.0	-33.5	11.3	8.73e-04	0	44	0	1164967936	22	4770
2026-01-21 01:13:10.80	223.23	14.10	-31.3	-34.2	10.7	3.67e-03	0	44	0	1167065088	22	5073
2026-01-21 01:13:11.80	223.18	14.00	-31.1	-33.7	11.0	3.95e-03	0	44	0	1169162240	22	4872
2026-01-21 01:13:12.80	223.13	13.90	-31.0	-33.5	11.3	1.44e-03	0	45	0	1171259392	22	4762
2026-01-21 01:13:13.81	223.08	13.80	-30.9	-33.7	11.4	1.89e-03	0	45	0	1173356544	21	4946
2026-01-21 01:13:14.82	223.03	13.70	-30.9	-33.6	11.4	1.93e-03	0	45	0	1174405120	21	4921
2026-01-21 01:13:15.82	222.98	13.60	-31.0	-33.4	11.3	1.29e-03	0	45	0	1176502272	22	4738
2026-01-21 01:13:16.82	222.93	13.51	-31.1	-33.8	11.0	2.44e-03	0	45	0	1178599424	22	4897
2026-01-21 01:13:17.83	222.88	13.41	-31.1	-33.6	11.1	2.57e-03	0	45	0	1180696576	22	4822
2026-01-21 01:13:18.83	222.83	13.31	-31.0	-33.3	11.3	1.06e-03	0	44	0	1182793728	22	4704
2026-01-21 01:13:19.84	222.78	13.21	-31.1	-33.6	11.1	1.13e-03	0	45	0	1183842304	22	4816
2026-01-21 01:13:20.84	222.74	13.12	-31.0	-33.4	11.3	2.49e-03	0	45	0	1185939456	22	4739
2026-01-21 01:13:21.85	222.69	13.02	-31.1	-33.7	11.1	1.19e-03	0	45	0	1188036608	22	4858
2026-01-21 01:13:22.85	222.64	12.92	-31.2	-34.1	10.7	2.43e-03	0	45	0	1190133760	22	5009
2026-01-21 01:13:23.86	222.59	12.83	-31.2	-34.0	10.8	3.84e-03	0	45	0	1192230912	22	4967
2026-01-21 01:13:24.86	222.55	12.73	-31.4	-34.9	10.2	3.33e-03	0	45	0	1193279488	22	5364
2026-01-21 01:13:25.86	222.50	12.64	-31.3	-34.6	10.3	7.98e-03	0	45	0	1195376640	22	5232
2026-01-21 01:13:26.86	222.46	12.54	-31.5	-34.7	9.9	9.43e-03	0	45	0	1197473792	23	5191
2026-01-21 01:13:27.86	222.41	12.45	-31.5	-34.6	9.9	9.95e-03	0	45	0	1199570944	23	5176
2026-01-21 01:13:28.86	222.36	12.36	-31.6	-35.1	9.5	1.51e-02	0	44	0	1201668096	23	5372
2026-01-21 01:13:29.87	222.32	12.26	-31.6	-35.2	9.4	1.65e-02	0	45	0	1202716672	23	5417
2026-01-21 01:13:30.88	222.27	12.17	-31.7	-35.4	9.3	1.51e-02	0	45	0	1204813824	23	5502
2026-01-21 01:13:31.88	222.23	12.07	-31.7	-35.4	9.3	1.99e-02	0	45	0	1206910976	23	5517
2026-01-21 01:13:32.89	222.18	11.98	-31.8	-35.8	9.0	2.49e-02	0	45	0	1209008128	23	5703
2026-01-21 01:13:33.89	222.14	11.89	-31.7	-35.7	9.0	2.59e-02	0	45	0	1211105280	23	5661
2026-01-21 01:13:34.89	222.10	11.80	-31.9	-36.4	8.5	3.23e-02	0	45	0	1212153856	23	5999
2026-01-21 01:13:35.90	222.05	11.71	-31.8	-35.9	8.9	4.38e-02	0	45	0	1214251008	23	5750
2026-01-21 01:13:36.89	222.01	11.62	-31.7	-35.7	9.0	2.33e-02	0	45	0	1216348160	23	5668
2026-01-21 01:13:37.89	221.97	11.53	-31.6	-35.0	9.6	1.67e-02	0	45	0	1218445312	23	5329
2026-01-21 01:13:38.90	221.93	11.43	-31.4	-34.5	9.8	1.22e-02	0	45	0	1220542464	23	5145
2026-01-21 01:13:39.90	221.88	11.34	-31.5	-34.9	9.6	1.13e-02	0	45	0	1221591040	23	5303
2026-01-21 01:13:40.91	221.84	11.25	-31.4	-34.8	10.0	9.97e-03	0	45	0	1223688192	22	5353
2026-01-21 01:13:41.91	221.80	11.16	-31.3	-34.7	10.1	7.51e-03	0	44	0	1225785344	22	5317
2026-01-21 01:13:42.92	221.76	11.07	-31.4	-34.8	10.0	7.88e-03	0	45	0	1227882496	22	5375
2026-01-21 01:13:43.93	221.72	10.98	-31.2	-34.3	10.4	6.08e-03	0	45	0	1229979648	22	5147
2026-01-21 01:13:44.93	221.68	10.90	-31.2	-34.3	10.4	6.12e-03	0	45	0	1231028224	22	5118
2026-01-21 01:13:45.94	221.63	10.81	-31.2	-34.4	10.3	4.73e-03	0	45	0	1233125376	22	5170
2026-01-21 01:13:46.94	221.59	10.72	-31.0	-33.7	10.8	3.53e-03	0	45	0	1235222528	22	4909
2026-01-21 01:13:47.94	221.55	10.63	-31.1	-34.0	10.6	2.99e-03	0	45	0	1237319680	22	5002
2026-01-21 01:13:48.94	221.51	10.54	-31.1	-33.8	10.7	2.72e-03	0	45	0	1238368256	22	4936
2026-01-21 01:13:49.95	221.47	10.46	-31.0	-33.5	10.9	3.29e-03	0	44	0	1240465408	22	4821
2026-01-21 01:13:50.95	221.44	10.37	-30.9	-33.9	11.0	2.04e-03	0	45	0	1242562560	21	5067
2026-01-21 01:13:51.95	221.40	10.28	-30.9	-33.9	11.0	1.89e-03	0	44	0	1244659712	21	5055
2026-01-21 01:13:52.95	221.36	10.20	-30.8	-33.5	11.3	2.71e-03	0	45	0	1246756864	21	4909
2026-01-21 01:13:53.95	221.32	10.11	-30.8	-33.4	11.3	1.28e-03	0	45	0	1247805440	21	4891
2026-01-21 01:13:54.96	221.28	10.03	-30.8	-33.7	11.1	1.58e-03	0	44	0	1249902592	21	4975
2026-01-21 01:13:55.96	221.24	9.94	-31.0	-33.7	10.8	3.29e-03	0	44	0	1251999744	22	4891
2026-01-21 01:13:56.96	221.20	9.85	-31.0	-33.7	10.8	2.19e-03	0	44	0	1254096896	22	4889
2026-01-21 01:13:57.96	221.17	9.77	-30.9	-33.4	11.0	2.00e-03	0	45	0	1256194048	22	4800
2026-01-21 01:13:58.97	221.13	9.68	-30.9	-33.7	11.1	1.73e-03	0	45	0	1257242624	21	5010
2026-01-21 01:13:59.97	221.09	9.60	-31.0	-33.6	10.8	2.79e-03	0	45	0	1259339776	22	4863
2026-01-21 01:14:00.97	221.06	9.52	-31.0	-33.7	10.7	2.92e-03	0	45	0	1261436928	22	4924
2026-01-21 01:14:01.97	221.02	9.43	-31.1	-34.1	10.4	3.67e-03	0	44	0	1263534080	22	5066
2026-01-21 01:14:02.98	220.98	9.35	-31.1	-34.1	10.4	4.84e-03	0	45	0	1265631232	22	5089
2026-01-21 01:14:03.98	220.95	9.27	-31.2	-34.5	10.1	5.54e-03	0	44	0	1266679808	22	5243
2026-01-21 01:14:04.98	220.91	9.18	-31.2	-34.4	10.2	5.72e-03	0	44	0	1268776960	22	5176
2026-01-21 01:14:05.99	220.87	9.10	-31.2	-34.4	10.1	6.55e-03	0	44	0	1270874112	22	5202
2026-01-21 01:14:06.99	220.84	9.02	-31.3	-34.7	9.9	7.64e-03	0	45	0	1272971264	22	5343
2026-01-21 01:14:07.99	220.80	8.94	-31.4	-34.7	9.5	1.62e-02	0	45	0	1275068416	23	5267
2026-01-21 01:14:08.99	220.77	8.85	-31.3	-34.8	9.8	1.37e-02	0	45	0	1276116992	22	5369
2026-01-21 01:14:09.99	220.73	8.77	-31.4	-35.2	9.5	1.20e-02	0	45	0	1278214144	22	5570
2026-01-21 01:14:10.99	220.70	8.69	-31.4	-34.8	9.4	1.64e-02	0	45	0	1280311296	23	5284
2026-01-21 01:14:11.99	220.66	8.61	-31.3	-34.9	9.7	1.35e-02	0	45	0	1282408448	22	5438
2026-01-21 01:14:12.99	220.63	8.53	-31.4	-35.2	9.4	1.14e-02	0	45	0	1283457024	22	5586
2026-01-21 01:14:13.99	220.60	8.45	-31.4	-35.1	9.6	1.60e-02	0	45	0	1285554176	22	5535
2026-01-21 01:14:15.00	220.56	8.37	-31.2	-34.5	10.0	9.05e-03	0	45	0	1287651328	22	5256
