passes_logs/2026/01/21/R2M6_AANII_01/R2M6_AANII_01__20260121_230346_SUOMI_NPP_rec.log

#Pass ID: 20260121_230346_SUOMI NPP
#Satellite: SUOMI NPP
#Configuration: NPP
#almurnet v.1.7.20240730
#Start time: 2026-01-21 23:03:48

#Version: 2.2.20231116
#Station: R2M6_AANII_01
#Location: 30.233357 lon 59.946436 lat
#TLE: 1 37849U 11061A   26021.51818991  .00000201  00000+0  11636-3 0  9995
#TLE: 2 37849  98.7819 323.5108 0002300  52.3548 307.7836 14.19527793737637

#Time	Az	El	Level	Level2	SNR	BER	BlckErr	Temp	State	Recorded	gain1	gain2
2026-01-21 23:03:48.48	27.62	7.10	-31.7	-36.4	5.0	1.24e+00	0	42	0	0	23	6188
2026-01-21 23:03:49.48	27.70	7.17	-32.2	-38.1	4.6	1.32e+00	0	42	104	0	24	7083
2026-01-21 23:03:50.49	27.78	7.24	-32.1	-37.6	6.6	2.89e-01	0	42	0	0	24	6784
2026-01-21 23:03:51.50	27.87	7.30	-31.9	-36.7	7.4	1.43e-01	0	42	0	1048576	24	6188
2026-01-21 23:03:52.50	27.95	7.37	-31.8	-36.6	7.9	7.99e-02	0	42	0	3145728	23	6231
2026-01-21 23:03:53.51	28.03	7.44	-31.7	-35.9	8.5	5.16e-02	0	42	0	5242880	23	5843
2026-01-21 23:03:54.51	28.11	7.51	-31.4	-34.9	9.2	3.10e-02	0	42	0	7340032	23	5356
2026-01-21 23:03:55.51	28.19	7.57	-31.3	-34.7	9.8	1.16e-02	0	42	0	9437184	22	5371
2026-01-21 23:03:56.51	28.28	7.64	-31.2	-34.3	10.1	9.32e-03	0	42	0	10485760	22	5189
2026-01-21 23:03:57.51	28.36	7.71	-31.0	-33.7	10.6	5.05e-03	0	42	0	12582912	22	4916
2026-01-21 23:03:58.51	28.45	7.78	-30.9	-33.9	10.8	2.93e-03	0	42	0	14680064	21	5094
2026-01-21 23:03:59.52	28.53	7.85	-30.9	-34.0	10.7	2.94e-03	0	42	0	16777216	21	5144
2026-01-21 23:04:00.52	28.61	7.92	-30.8	-33.6	11.0	2.93e-03	0	42	0	17825792	21	4993
2026-01-21 23:04:01.53	28.70	7.98	-30.7	-33.3	11.2	1.31e-03	0	42	0	19922944	21	4867
2026-01-21 23:04:02.53	28.79	8.05	-30.6	-33.1	11.4	1.67e-03	0	42	0	22020096	21	4773
2026-01-21 23:04:03.54	28.87	8.12	-30.6	-32.9	11.5	9.02e-04	0	42	0	24117248	21	4709
2026-01-21 23:04:04.55	28.96	8.19	-30.6	-32.9	11.5	1.70e-03	0	42	0	26214400	21	4694
2026-01-21 23:04:05.55	29.05	8.26	-30.4	-32.4	11.9	6.51e-04	0	42	0	27262976	21	4527
2026-01-21 23:04:06.56	29.13	8.33	-30.5	-32.7	11.7	8.32e-04	0	42	0	29360128	21	4620
2026-01-21 23:04:07.56	29.22	8.40	-30.5	-32.7	11.7	1.13e-03	0	42	0	31457280	21	4631
2026-01-21 23:04:08.56	29.31	8.47	-30.4	-32.9	12.0	3.81e-04	0	43	0	33554432	20	4773
2026-01-21 23:04:09.57	29.40	8.54	-30.5	-32.6	11.9	4.44e-04	0	43	0	35651584	21	4591
2026-01-21 23:04:10.57	29.49	8.61	-30.6	-32.7	11.8	1.08e-03	0	42	0	36700160	21	4636
2026-01-21 23:04:11.58	29.58	8.68	-30.5	-32.5	12.0	3.59e-04	0	42	0	38797312	21	4528
2026-01-21 23:04:12.58	29.67	8.75	-30.5	-32.5	12.0	3.59e-04	0	43	0	40894464	21	4544
2026-01-21 23:04:13.58	29.76	8.82	-30.4	-32.3	12.1	9.73e-04	0	43	0	42991616	21	4477
2026-01-21 23:04:14.58	29.85	8.89	-30.4	-32.9	12.0	8.18e-04	0	43	0	45088768	20	4762
2026-01-21 23:04:15.59	29.94	8.96	-30.5	-32.5	11.9	3.60e-04	0	43	0	46137344	21	4554
2026-01-21 23:04:16.59	30.03	9.03	-30.5	-32.7	11.9	3.89e-04	0	42	0	48234496	21	4603
2026-01-21 23:04:17.59	30.12	9.11	-30.5	-32.5	11.9	1.02e-03	0	43	0	50331648	21	4551
2026-01-21 23:04:18.59	30.21	9.18	-30.5	-32.6	12.0	2.75e-04	0	43	0	52428800	21	4559
2026-01-21 23:04:19.60	30.30	9.25	-30.5	-32.5	12.0	3.30e-04	0	43	0	54525952	21	4537
2026-01-21 23:04:20.61	30.40	9.32	-30.6	-32.7	11.9	8.22e-04	0	43	0	55574528	21	4612
2026-01-21 23:04:21.61	30.49	9.39	-30.7	-33.1	11.6	6.36e-04	0	43	0	57671680	21	4744
2026-01-21 23:04:22.62	30.58	9.46	-30.6	-32.7	11.8	4.13e-04	0	43	0	59768832	21	4610
2026-01-21 23:04:23.62	30.68	9.54	-30.6	-32.7	11.9	4.78e-04	0	43	0	61865984	21	4615
2026-01-21 23:04:24.62	30.77	9.61	-30.7	-33.1	11.6	6.78e-04	0	43	0	63963136	21	4752
2026-01-21 23:04:25.62	30.87	9.68	-30.5	-32.4	12.1	3.76e-04	0	43	0	65011712	21	4517
2026-01-21 23:04:26.62	30.96	9.75	-30.5	-33.0	12.1	2.31e-04	0	43	0	67108864	20	4790
2026-01-21 23:04:27.62	31.06	9.82	-30.6	-32.8	11.9	3.08e-04	0	43	0	69206016	21	4625
2026-01-21 23:04:28.62	31.16	9.90	-30.5	-32.4	12.1	2.97e-04	0	43	0	71303168	21	4503
2026-01-21 23:04:29.62	31.25	9.97	-30.3	-32.5	12.4	1.74e-04	0	43	0	73400320	20	4621
2026-01-21 23:04:30.62	31.35	10.04	-30.3	-32.5	12.3	1.04e-04	0	43	0	74448896	20	4637
2026-01-21 23:04:31.61	31.45	10.11	-30.3	-32.5	12.4	5.29e-04	0	43	0	76546048	20	4627
2026-01-21 23:04:32.61	31.54	10.19	-30.2	-32.1	12.7	1.24e-04	0	43	0	78643200	20	4486
2026-01-21 23:04:33.61	31.64	10.26	-30.2	-32.1	12.7	1.07e-04	0	43	0	80740352	20	4480
2026-01-21 23:04:34.61	31.74	10.33	-30.2	-32.1	12.7	7.93e-05	0	43	0	81788928	20	4480
2026-01-21 23:04:35.62	31.84	10.41	-30.2	-32.0	12.8	5.56e-05	0	43	0	83886080	20	4443
2026-01-21 23:04:36.63	31.94	10.48	-30.2	-32.1	12.7	5.49e-05	0	43	0	85983232	20	4471
2026-01-21 23:04:37.63	32.04	10.55	-30.3	-32.4	12.5	8.92e-05	0	43	0	88080384	20	4572
2026-01-21 23:04:38.63	32.14	10.63	-30.4	-32.7	12.3	1.64e-04	0	43	0	90177536	20	4699
2026-01-21 23:04:39.64	32.25	10.70	-30.5	-32.5	12.1	1.50e-04	0	43	0	91226112	21	4538
2026-01-21 23:04:40.65	32.35	10.78	-30.6	-32.9	11.8	2.78e-04	0	43	0	93323264	21	4665
2026-01-21 23:04:41.65	32.45	10.85	-30.7	-33.0	11.8	6.31e-04	0	43	0	95420416	21	4687
2026-01-21 23:04:42.64	32.55	10.93	-30.8	-33.3	11.5	6.38e-04	0	43	0	97517568	21	4824
2026-01-21 23:04:43.64	32.66	11.00	-30.8	-33.4	11.5	1.09e-03	0	43	0	99614720	21	4847
2026-01-21 23:04:44.64	32.76	11.08	-30.8	-33.5	11.5	8.35e-04	0	43	0	100663296	21	4879
2026-01-21 23:04:45.65	32.87	11.15	-30.9	-33.8	11.2	9.28e-04	0	43	0	102760448	21	5004
2026-01-21 23:04:46.65	32.97	11.23	-30.8	-33.4	11.5	1.05e-03	0	43	0	104857600	21	4830
2026-01-21 23:04:47.65	33.08	11.30	-30.8	-33.3	11.6	8.18e-04	0	43	0	106954752	21	4812
2026-01-21 23:04:48.65	33.18	11.38	-31.1	-33.6	11.1	7.92e-04	0	43	0	109051904	22	4812
2026-01-21 23:04:49.66	33.29	11.45	-30.9	-32.9	11.5	9.40e-04	0	43	0	110100480	22	4574
2026-01-21 23:04:50.66	33.40	11.53	-31.1	-33.6	11.1	1.08e-03	0	43	0	112197632	22	4820
2026-01-21 23:04:51.66	33.50	11.60	-31.1	-33.8	11.0	1.22e-03	0	43	0	114294784	22	4895
2026-01-21 23:04:52.67	33.61	11.68	-31.2	-33.9	10.9	2.58e-03	0	43	0	116391936	22	4945
2026-01-21 23:04:53.67	33.72	11.76	-30.9	-33.1	11.5	1.25e-03	0	43	0	118489088	22	4630
2026-01-21 23:04:54.68	33.83	11.83	-30.8	-32.7	11.8	6.39e-04	0	43	0	119537664	22	4479
2026-01-21 23:04:55.68	33.94	11.91	-30.7	-33.1	11.8	3.94e-04	0	43	0	121634816	21	4742
2026-01-21 23:04:56.68	34.05	11.99	-30.8	-33.4	11.7	4.06e-04	0	43	0	123731968	21	4835
2026-01-21 23:04:57.68	34.16	12.06	-30.8	-33.4	11.6	6.31e-04	0	43	0	125829120	21	4840
2026-01-21 23:04:58.69	34.27	12.14	-30.8	-33.3	11.7	9.04e-04	0	43	0	127926272	21	4818
2026-01-21 23:04:59.69	34.39	12.22	-30.8	-33.3	11.7	4.85e-04	0	43	0	128974848	21	4800
2026-01-21 23:05:00.69	34.50	12.29	-30.8	-33.4	11.6	6.07e-04	0	43	0	131072000	21	4828
2026-01-21 23:05:01.69	34.61	12.37	-30.8	-33.2	11.8	7.41e-04	0	44	0	133169152	21	4779
2026-01-21 23:05:02.69	34.72	12.45	-30.9	-33.5	11.5	6.24e-04	0	43	0	135266304	21	4893
2026-01-21 23:05:03.69	34.84	12.53	-30.8	-33.4	11.6	6.73e-04	0	43	0	136314880	21	4832
2026-01-21 23:05:04.69	34.95	12.60	-30.6	-32.8	12.1	4.23e-04	0	43	0	138412032	21	4611
2026-01-21 23:05:05.70	35.07	12.68	-30.4	-32.1	12.5	1.52e-04	0	43	0	140509184	21	4388
2026-01-21 23:05:06.70	35.19	12.76	-29.9	-31.5	12.6	9.68e-05	0	43	0	142606336	21	4342
2026-01-21 23:05:07.71	35.30	12.84	-30.4	-32.0	12.7	9.84e-05	0	43	0	144703488	21	4328
2026-01-21 23:05:08.72	35.42	12.92	-30.3	-31.9	12.7	4.80e-05	0	43	0	145752064	21	4291
2026-01-21 23:05:09.72	35.54	13.00	-30.4	-32.0	12.6	1.10e-04	0	44	0	147849216	21	4337
2026-01-21 23:05:10.72	35.66	13.08	-30.4	-32.0	12.6	6.56e-05	0	44	0	149946368	21	4328
2026-01-21 23:05:11.73	35.78	13.16	-30.3	-31.9	12.8	5.26e-05	0	44	0	152043520	21	4299
2026-01-21 23:05:12.73	35.90	13.23	-30.3	-31.9	12.7	8.85e-05	0	44	0	154140672	21	4304
2026-01-21 23:05:13.74	36.02	13.31	-30.4	-32.0	12.6	6.33e-05	0	44	0	155189248	21	4346
2026-01-21 23:05:14.73	36.14	13.39	-30.2	-31.5	13.0	5.64e-05	0	44	0	157286400	21	4172
2026-01-21 23:05:15.74	36.26	13.47	-30.3	-31.7	12.9	4.11e-05	0	43	0	159383552	21	4244
2026-01-21 23:05:16.74	36.38	13.55	-30.3	-31.7	12.8	6.33e-05	0	44	0	161480704	21	4241
2026-01-21 23:05:17.74	36.51	13.63	-30.0	-31.0	13.3	2.97e-05	0	44	0	163577856	21	4020
2026-01-21 23:05:18.75	36.63	13.71	-30.0	-31.1	13.3	2.44e-05	0	44	0	164626432	21	4062
2026-01-21 23:05:19.75	36.75	13.79	-29.9	-30.7	13.5	1.98e-05	0	44	0	166723584	21	3960
2026-01-21 23:05:20.76	36.88	13.87	-29.9	-30.7	13.5	7.60e-06	0	44	0	168820736	21	3957
2026-01-21 23:05:21.76	37.00	13.95	-29.9	-30.6	13.6	7.60e-06	0	44	0	170917888	21	3923
2026-01-21 23:05:22.76	37.13	14.03	-29.9	-30.6	13.5	3.80e-06	0	44	0	173015040	21	3922
2026-01-21 23:05:23.77	37.26	14.12	-29.9	-30.8	13.4	7.60e-06	0	44	0	174063616	21	3969
2026-01-21 23:05:24.78	37.39	14.20	-30.0	-31.0	13.3	1.06e-05	0	44	0	176160768	21	4036
2026-01-21 23:05:25.79	37.52	14.28	-30.2	-31.4	13.1	1.75e-05	0	44	0	178257920	21	4149
2026-01-21 23:05:26.79	37.64	14.36	-30.2	-31.4	13.1	1.67e-05	0	44	0	180355072	21	4152
2026-01-21 23:05:27.80	37.78	14.44	-30.3	-31.7	12.9	4.19e-05	0	44	0	182452224	21	4249
2026-01-21 23:05:28.80	37.91	14.52	-30.4	-31.9	12.7	8.62e-05	0	44	0	183500800	21	4319
2026-01-21 23:05:29.80	38.04	14.60	-30.3	-31.8	12.8	6.79e-05	0	44	0	185597952	21	4281
2026-01-21 23:05:30.81	38.17	14.69	-30.4	-32.1	12.6	6.86e-05	0	44	0	187695104	21	4356
2026-01-21 23:05:31.82	38.30	14.77	-30.4	-32.1	12.6	7.70e-05	0	44	0	189792256	21	4355
2026-01-21 23:05:32.82	38.43	14.85	-30.4	-32.1	12.6	1.12e-04	0	44	0	191889408	21	4376
2026-01-21 23:05:33.81	38.57	14.93	-30.5	-32.2	12.6	8.39e-05	0	44	0	192937984	21	4387
2026-01-21 23:05:34.82	38.70	15.01	-30.5	-32.3	12.5	1.66e-04	0	44	0	195035136	21	4424
2026-01-21 23:05:35.83	38.84	15.10	-30.5	-32.2	12.5	1.86e-04	0	44	0	197132288	21	4413
2026-01-21 23:05:36.83	38.97	15.18	-30.6	-32.5	12.3	1.52e-04	0	44	0	199229440	21	4511
2026-01-21 23:05:37.84	39.11	15.26	-30.5	-32.4	12.4	3.23e-04	0	44	0	201326592	21	4476
2026-01-21 23:05:38.84	39.25	15.35	-30.6	-32.5	12.4	1.88e-04	0	44	0	202375168	21	4515
2026-01-21 23:05:39.84	39.39	15.43	-30.8	-33.1	12.0	2.67e-04	0	44	0	204472320	21	4699
2026-01-21 23:05:40.84	39.52	15.51	-30.6	-32.7	12.2	2.96e-04	0	44	0	206569472	21	4580
2026-01-21 23:05:41.84	39.66	15.59	-30.4	-32.0	12.7	1.62e-04	0	44	0	208666624	21	4341
2026-01-21 23:05:42.85	39.81	15.68	-30.4	-31.8	12.9	5.56e-05	0	44	0	209715200	21	4270
2026-01-21 23:05:43.85	39.95	15.76	-30.3	-31.7	13.0	4.11e-05	0	44	0	211812352	21	4222
2026-01-21 23:05:44.85	40.09	15.84	-30.2	-31.9	13.2	3.48e-04	0	44	0	213909504	20	4370
2026-01-21 23:05:45.86	40.23	15.93	-30.1	-31.7	13.3	1.83e-05	0	44	0	216006656	20	4335
2026-01-21 23:05:46.86	40.37	16.01	-30.2	-32.0	13.1	2.05e-05	0	44	0	218103808	20	4420
2026-01-21 23:05:47.86	40.52	16.10	-30.0	-31.4	13.5	1.64e-04	0	44	0	219152384	20	4220
2026-01-21 23:05:48.87	40.66	16.18	-30.0	-31.3	13.6	7.60e-06	0	44	0	221249536	20	4210
2026-01-21 23:05:49.87	40.81	16.26	-30.0	-31.3	13.6	7.60e-06	0	44	0	223346688	20	4209
2026-01-21 23:05:50.88	40.96	16.35	-29.9	-31.0	13.7	4.50e-06	0	44	0	225443840	20	4111
2026-01-21 23:05:51.88	41.10	16.43	-30.1	-31.5	13.4	1.06e-05	0	44	0	227540992	20	4267
2026-01-21 23:05:52.88	41.25	16.52	-29.9	-31.1	13.7	1.22e-05	0	44	0	228589568	20	4120
2026-01-21 23:05:53.88	41.40	16.60	-29.9	-31.2	13.7	8.30e-06	0	44	0	230686720	20	4146
2026-01-21 23:05:54.89	41.55	16.69	-29.9	-31.0	13.8	9.90e-06	0	44	0	232783872	20	4108
2026-01-21 23:05:55.89	41.70	16.77	-29.8	-30.8	13.9	8.30e-06	0	44	0	234881024	20	4050
2026-01-21 23:05:56.90	41.85	16.86	-29.7	-30.5	14.2	1.50e-06	0	44	0	236978176	20	3966
2026-01-21 23:05:57.90	42.01	16.94	-29.8	-30.8	14.0	4.50e-06	0	44	0	238026752	20	4049
2026-01-21 23:05:58.90	42.16	17.03	-29.7	-30.5	14.1	3.00e-06	0	44	0	240123904	20	3957
2026-01-21 23:05:59.91	42.31	17.11	-29.6	-30.2	14.3	1.50e-06	0	44	0	242221056	20	3872
2026-01-21 23:06:00.90	42.47	17.20	-29.6	-30.2	14.4	1.50e-06	0	44	0	244318208	20	3864
2026-01-21 23:06:01.91	42.62	17.28	-29.7	-30.5	14.2	1.50e-06	0	44	0	246415360	20	3935
2026-01-21 23:06:02.91	42.78	17.37	-29.5	-30.1	14.5	2.20e-06	0	44	0	247463936	20	3833
2026-01-21 23:06:03.91	42.94	17.46	-29.6	-30.2	14.4	7.00e-07	0	44	0	249561088	20	3865
2026-01-21 23:06:04.92	43.10	17.54	-29.6	-30.2	14.3	7.00e-07	0	44	0	251658240	20	3881
2026-01-21 23:06:05.93	43.26	17.63	-29.7	-30.4	14.2	7.00e-07	0	44	0	253755392	20	3921
2026-01-21 23:06:06.93	43.42	17.71	-29.7	-30.5	14.2	1.50e-06	0	44	0	255852544	20	3937
2026-01-21 23:06:07.93	43.58	17.80	-29.6	-30.3	14.3	0.00e+00	0	44	0	256901120	20	3890
2026-01-21 23:06:08.93	43.74	17.89	-29.7	-30.4	14.3	7.00e-07	0	44	0	258998272	20	3928
2026-01-21 23:06:09.93	43.90	17.97	-29.7	-30.5	14.2	7.00e-07	0	44	0	261095424	20	3944
2026-01-21 23:06:10.92	44.06	18.06	-29.7	-30.6	14.2	2.20e-06	0	44	0	263192576	20	3965
2026-01-21 23:06:11.93	44.23	18.14	-29.8	-30.7	14.1	3.00e-06	0	44	0	264241152	20	3992
2026-01-21 23:06:12.93	44.39	18.23	-29.9	-31.1	13.9	3.80e-06	0	44	0	266338304	20	4107
2026-01-21 23:06:13.94	44.56	18.32	-29.7	-30.4	14.3	0.00e+00	0	44	0	268435456	20	3931
2026-01-21 23:06:14.94	44.73	18.40	-29.6	-30.2	14.4	0.00e+00	0	44	0	270532608	20	3861
2026-01-21 23:06:15.95	44.90	18.49	-29.7	-30.4	14.3	0.00e+00	0	44	0	272629760	20	3916
2026-01-21 23:06:16.96	45.07	18.58	-29.8	-30.7	14.1	7.00e-07	0	44	0	273678336	20	3993
2026-01-21 23:06:17.96	45.24	18.67	-29.5	-30.1	14.5	7.00e-07	0	44	0	275775488	20	3829
2026-01-21 23:06:18.96	45.41	18.75	-29.7	-30.4	14.4	0.00e+00	0	44	0	277872640	20	3914
2026-01-21 23:06:19.96	45.58	18.84	-29.5	-29.9	14.6	7.00e-07	0	44	0	279969792	20	3793
2026-01-21 23:06:20.96	45.75	18.93	-29.4	-29.8	14.7	0.00e+00	0	44	0	282066944	20	3763
2026-01-21 23:06:21.96	45.92	19.01	-29.7	-30.4	14.3	1.50e-06	0	44	0	283115520	20	3924
2026-01-21 23:06:22.96	46.10	19.10	-29.4	-29.8	14.7	1.50e-06	0	44	0	285212672	20	3765
2026-01-21 23:06:23.96	46.27	19.19	-29.3	-29.5	14.9	0.00e+00	0	44	0	287309824	20	3674
2026-01-21 23:06:24.97	46.45	19.28	-29.5	-30.3	14.8	0.00e+00	0	44	0	289406976	19	3971
2026-01-21 23:06:25.97	46.63	19.36	-29.4	-30.1	14.9	7.00e-07	0	44	0	291504128	19	3923
2026-01-21 23:06:26.98	46.81	19.45	-29.1	-29.4	15.3	7.00e-07	0	44	0	292552704	19	3736
2026-01-21 23:06:27.98	46.99	19.54	-29.3	-30.0	15.0	0.00e+00	0	44	0	294649856	19	3915
2026-01-21 23:06:28.98	47.17	19.63	-29.4	-30.2	14.8	0.00e+00	0	44	0	296747008	19	3934
2026-01-21 23:06:29.99	47.35	19.71	-29.5	-30.3	14.8	0.00e+00	0	44	0	298844160	19	3970
2026-01-21 23:06:30.99	47.53	19.80	-29.6	-31.0	14.1	1.50e-06	0	44	0	300941312	18	4278
2026-01-21 23:06:32.00	47.72	19.89	-29.6	-30.6	14.0	0.00e+00	0	44	0	301989888	19	4041
2026-01-21 23:06:33.00	47.90	19.98	-29.6	-30.6	14.7	0.00e+00	0	44	0	304087040	19	4041
2026-01-21 23:06:34.00	48.09	20.06	-29.5	-30.5	14.6	3.31e-04	0	44	0	306184192	19	4037
2026-01-21 23:06:35.01	48.28	20.15	-29.6	-30.6	14.6	0.00e+00	0	44	0	308281344	19	4052
2026-01-21 23:06:36.01	48.47	20.24	-29.7	-31.0	14.4	0.00e+00	0	44	0	310378496	19	4175
2026-01-21 23:06:37.02	48.66	20.33	-29.4	-30.2	14.9	7.00e-07	0	44	0	311427072	19	3939
2026-01-21 23:06:38.02	48.85	20.41	-29.1	-29.9	15.4	0.00e+00	0	44	0	313524224	18	3950
2026-01-21 23:06:39.02	49.04	20.50	-29.2	-30.0	15.3	0.00e+00	0	44	0	315621376	18	3984
2026-01-21 23:06:40.02	49.23	20.59	-29.3	-30.4	15.1	0.00e+00	0	44	0	317718528	18	4088
2026-01-21 23:06:41.02	49.42	20.68	-29.2	-30.2	15.2	1.91e-04	0	44	0	318767104	18	4029
2026-01-21 23:06:42.02	49.62	20.76	-29.2	-30.3	15.1	7.00e-07	0	44	0	320864256	18	4047
2026-01-21 23:06:43.02	49.81	20.85	-29.4	-30.6	15.0	0.00e+00	0	44	0	322961408	18	4143
2026-01-21 23:06:44.03	50.01	20.94	-29.2	-30.1	15.3	1.06e-05	0	44	0	325058560	18	4002
2026-01-21 23:06:45.03	50.21	21.03	-29.0	-29.7	15.5	0.00e+00	0	44	0	327155712	18	3898
2026-01-21 23:06:46.03	50.40	21.11	-29.2	-30.1	15.3	0.00e+00	0	44	0	328204288	18	4001
2026-01-21 23:06:47.03	50.60	21.20	-29.3	-30.4	15.1	0.00e+00	0	44	0	330301440	18	4097
2026-01-21 23:06:48.02	50.80	21.29	-29.3	-30.4	15.1	0.00e+00	0	44	0	332398592	18	4073
2026-01-21 23:06:49.02	51.00	21.37	-29.5	-30.3	14.9	0.00e+00	0	44	0	334495744	19	3959
2026-01-21 23:06:50.03	51.21	21.46	-29.8	-31.1	14.4	0.00e+00	0	44	0	336592896	19	4193
2026-01-21 23:06:51.03	51.41	21.55	-29.7	-30.8	14.5	0.00e+00	0	44	0	337641472	19	4102
2026-01-21 23:06:52.03	51.62	21.64	-29.8	-31.1	14.3	1.98e-05	0	44	0	339738624	19	4200
2026-01-21 23:06:53.04	51.82	21.72	-29.6	-30.5	14.8	0.00e+00	0	44	0	341835776	19	4029
2026-01-21 23:06:54.04	52.03	21.81	-29.7	-30.9	14.5	7.00e-07	0	44	0	343932928	19	4138
2026-01-21 23:06:55.05	52.24	21.90	-29.9	-31.3	14.2	3.96e-05	0	44	0	346030080	19	4260
2026-01-21 23:06:56.04	52.45	21.98	-29.8	-31.1	14.4	0.00e+00	0	44	0	347078656	19	4189
2026-01-21 23:06:57.05	52.66	22.07	-29.7	-31.0	14.5	0.00e+00	0	44	0	349175808	19	4148
2026-01-21 23:06:58.05	52.87	22.16	-29.8	-31.3	14.4	4.53e-04	0	44	0	351272960	19	4240
2026-01-21 23:06:59.06	53.09	22.25	-29.8	-31.1	14.4	6.16e-04	0	44	0	353370112	19	4197
2026-01-21 23:07:00.06	53.30	22.33	-30.1	-31.3	13.9	7.00e-07	0	44	0	355467264	20	4173
2026-01-21 23:07:01.06	53.52	22.42	-29.8	-30.7	14.3	1.50e-06	0	44	0	356515840	20	3980
2026-01-21 23:07:02.06	53.73	22.50	-29.8	-31.1	14.4	2.43e-04	0	44	0	358612992	19	4182
2026-01-21 23:07:03.07	53.95	22.59	-29.8	-31.2	14.4	7.00e-07	0	44	0	360710144	19	4201
2026-01-21 23:07:04.08	54.18	22.68	-29.7	-30.9	14.6	0.00e+00	0	44	0	362807296	19	4115
2026-01-21 23:07:05.08	54.40	22.76	-29.6	-30.7	14.6	3.43e-05	0	44	0	364904448	19	4081
2026-01-21 23:07:06.08	54.62	22.85	-29.7	-30.9	14.5	1.50e-06	0	44	0	365953024	19	4135
2026-01-21 23:07:07.08	54.84	22.93	-29.8	-31.1	14.5	0.00e+00	0	44	0	368050176	19	4173
2026-01-21 23:07:08.08	55.06	23.02	-29.9	-31.4	14.2	5.11e-05	0	44	0	370147328	19	4287
2026-01-21 23:07:09.08	55.29	23.10	-29.8	-31.1	14.4	0.00e+00	0	44	0	372244480	19	4196
2026-01-21 23:07:10.08	55.51	23.19	-29.8	-31.2	14.4	0.00e+00	0	44	0	374341632	19	4200
2026-01-21 23:07:11.09	55.74	23.27	-29.9	-30.9	14.1	1.50e-06	0	44	0	375390208	20	4057
2026-01-21 23:07:12.09	55.97	23.36	-29.8	-30.7	14.3	1.50e-06	0	44	0	377487360	20	3978
2026-01-21 23:07:13.09	56.20	23.44	-29.9	-31.0	14.1	3.20e-05	0	44	0	379584512	20	4059
2026-01-21 23:07:14.10	56.43	23.53	-29.8	-30.6	14.4	4.65e-05	0	44	0	381681664	20	3952
2026-01-21 23:07:15.10	56.67	23.61	-29.6	-30.1	14.7	0.00e+00	0	44	0	382730240	20	3827
2026-01-21 23:07:16.10	56.90	23.70	-29.6	-30.0	14.7	6.10e-05	0	44	0	384827392	20	3804
2026-01-21 23:07:17.10	57.13	23.78	-29.5	-29.9	14.8	6.25e-05	0	44	0	386924544	20	3771
2026-01-21 23:07:18.10	57.37	23.86	-29.5	-30.0	14.8	0.00e+00	0	44	0	389021696	20	3791
2026-01-21 23:07:19.10	57.61	23.95	-29.8	-30.6	14.4	5.56e-05	0	44	0	391118848	20	3962
2026-01-21 23:07:20.10	57.84	24.03	-29.8	-30.6	14.4	5.79e-05	0	44	0	392167424	20	3943
2026-01-21 23:07:21.10	58.08	24.11	-29.8	-30.7	14.3	7.00e-07	0	44	0	394264576	20	3988
2026-01-21 23:07:22.10	58.32	24.19	-29.9	-30.9	14.3	3.43e-05	0	44	0	396361728	20	4035
2026-01-21 23:07:23.11	58.57	24.28	-30.1	-31.3	14.0	3.12e-05	0	44	0	398458880	20	4151
2026-01-21 23:07:24.11	58.81	24.36	-30.1	-31.3	13.9	5.30e-06	0	44	0	400556032	20	4167
2026-01-21 23:07:25.11	59.06	24.44	-30.2	-31.7	13.7	4.50e-06	0	44	0	401604608	20	4277
2026-01-21 23:07:26.11	59.30	24.52	-29.9	-30.9	14.2	5.30e-06	0	44	0	403701760	20	4053
2026-01-21 23:07:27.12	59.55	24.60	-29.8	-30.6	14.5	1.50e-06	0	44	0	405798912	20	3956
2026-01-21 23:07:28.12	59.80	24.68	-29.7	-30.4	14.6	1.37e-05	0	44	0	407896064	20	3887
2026-01-21 23:07:29.13	60.05	24.76	-29.6	-30.2	14.6	9.90e-06	0	44	0	409993216	20	3856
2026-01-21 23:07:30.13	60.30	24.84	-29.6	-30.2	14.6	0.00e+00	0	44	0	411041792	20	3838
2026-01-21 23:07:31.13	60.55	24.92	-29.6	-30.1	14.7	1.18e-04	0	44	0	413138944	20	3819
2026-01-21 23:07:32.12	60.80	25.00	-29.7	-30.9	14.6	0.00e+00	0	44	0	415236096	19	4115
2026-01-21 23:07:33.12	61.06	25.08	-29.7	-30.8	14.7	0.00e+00	0	44	0	417333248	19	4110
2026-01-21 23:07:34.12	61.31	25.16	-29.6	-30.5	14.9	1.50e-04	0	44	0	418381824	19	4000
2026-01-21 23:07:35.13	61.57	25.24	-29.9	-31.4	14.3	7.01e-05	0	44	0	420478976	19	4266
2026-01-21 23:07:36.13	61.83	25.32	-29.8	-31.2	14.5	0.00e+00	0	44	0	422576128	19	4209
2026-01-21 23:07:37.13	62.09	25.40	-30.1	-31.3	13.9	5.11e-05	0	44	0	424673280	20	4159
2026-01-21 23:07:38.13	62.35	25.47	-30.3	-31.9	13.6	2.82e-05	0	44	0	426770432	20	4342
2026-01-21 23:07:39.14	62.62	25.55	-30.4	-32.2	13.4	1.06e-05	0	44	0	427819008	20	4436
2026-01-21 23:07:40.15	62.88	25.63	-30.2	-31.7	13.7	1.60e-05	0	44	0	429916160	20	4284
2026-01-21 23:07:41.15	63.15	25.70	-30.2	-31.6	13.8	9.10e-06	0	44	0	432013312	20	4264
2026-01-21 23:07:42.16	63.42	25.78	-29.8	-30.7	14.4	0.00e+00	0	44	0	434110464	20	3990
2026-01-21 23:07:43.16	63.68	25.86	-29.9	-30.9	14.2	1.50e-06	0	44	0	436207616	20	4046
2026-01-21 23:07:44.16	63.95	25.93	-30.1	-31.3	14.0	3.00e-06	0	44	0	437256192	20	4168
2026-01-21 23:07:45.16	64.22	26.00	-30.5	-32.4	13.2	1.06e-05	0	44	0	439353344	20	4512
2026-01-21 23:07:46.16	64.49	26.08	-30.9	-33.1	12.5	6.56e-05	0	44	0	441450496	21	4647
2026-01-21 23:07:47.16	64.76	26.15	-31.0	-33.3	12.4	1.11e-04	0	44	0	443547648	21	4713
2026-01-21 23:07:48.15	65.03	26.22	-31.0	-32.8	12.4	1.88e-04	0	44	0	445644800	22	4449
2026-01-21 23:07:49.15	65.31	26.30	-30.6	-31.8	13.1	5.56e-05	0	44	0	446693376	22	4126
2026-01-21 23:07:50.15	65.58	26.37	-30.1	-30.8	14.0	9.90e-06	0	44	0	448790528	21	3928
2026-01-21 23:07:51.15	65.86	26.44	-29.7	-30.3	14.6	2.20e-06	0	44	0	450887680	20	3881
2026-01-21 23:07:52.16	66.14	26.51	-29.6	-30.2	14.7	0.00e+00	0	44	0	452984832	20	3844
2026-01-21 23:07:53.16	66.42	26.58	-29.9	-30.8	14.3	7.00e-07	0	44	0	454033408	20	4023
2026-01-21 23:07:54.17	66.70	26.65	-30.2	-31.8	13.8	7.00e-07	0	44	0	456130560	20	4302
2026-01-21 23:07:55.17	66.99	26.72	-30.5	-32.5	13.3	9.90e-06	0	44	0	458227712	20	4528
2026-01-21 23:07:56.18	67.27	26.79	-30.6	-32.3	13.1	2.05e-05	0	44	0	460324864	21	4360
2026-01-21 23:07:57.18	67.56	26.86	-30.7	-32.6	12.8	5.03e-05	0	44	0	462422016	21	4458
2026-01-21 23:07:58.18	67.84	26.93	-30.7	-32.4	13.0	8.46e-05	0	44	0	464519168	21	4414
2026-01-21 23:07:59.18	68.13	26.99	-30.6	-32.1	13.2	2.36e-05	0	44	0	465567744	21	4311
2026-01-21 23:08:00.19	68.42	27.06	-30.7	-32.6	12.9	2.59e-05	0	44	0	467664896	21	4480
2026-01-21 23:08:01.19	68.71	27.13	-30.7	-32.7	12.8	6.25e-05	0	44	0	469762048	21	4486
2026-01-21 23:08:02.19	69.00	27.19	-30.5	-31.9	13.3	7.93e-05	0	44	0	471859200	21	4234
2026-01-21 23:08:03.19	69.29	27.26	-30.4	-31.8	13.4	1.29e-05	0	44	0	472907776	21	4215
2026-01-21 23:08:04.18	69.58	27.32	-30.5	-31.9	13.3	1.60e-05	0	44	0	475004928	21	4254
2026-01-21 23:08:05.18	69.87	27.38	-30.3	-31.3	13.7	9.90e-06	0	44	0	477102080	21	4063
2026-01-21 23:08:06.18	70.17	27.45	-30.1	-30.8	14.0	3.00e-06	0	44	0	479199232	21	3924
2026-01-21 23:08:07.19	70.47	27.51	-30.1	-30.8	14.0	2.20e-06	0	44	0	481296384	21	3925
2026-01-21 23:08:08.18	70.76	27.57	-30.3	-31.8	13.8	3.80e-06	0	44	0	482344960	20	4307
2026-01-21 23:08:09.19	71.06	27.63	-30.5	-32.0	13.3	5.30e-06	0	44	0	484442112	21	4284
2026-01-21 23:08:10.19	71.36	27.69	-30.8	-32.7	12.8	5.11e-05	0	44	0	486539264	21	4513
2026-01-21 23:08:11.20	71.66	27.75	-30.6	-32.2	13.2	3.89e-05	0	44	0	488636416	21	4325
2026-01-21 23:08:12.20	71.97	27.81	-30.3	-31.5	13.6	1.44e-05	0	44	0	490733568	21	4107
2026-01-21 23:08:13.21	72.27	27.87	-30.2	-31.1	13.9	3.00e-06	0	44	0	491782144	21	3988
2026-01-21 23:08:14.21	72.57	27.92	-30.1	-30.9	14.0	3.80e-06	0	44	0	493879296	21	3927
2026-01-21 23:08:15.21	72.88	27.98	-30.3	-31.5	13.6	3.00e-06	0	44	0	495976448	21	4118
2026-01-21 23:08:16.22	73.19	28.04	-30.6	-32.3	13.1	1.29e-05	0	44	0	498073600	21	4357
2026-01-21 23:08:17.22	73.49	28.09	-31.2	-33.3	12.2	9.99e-05	0	44	0	500170752	22	4588
2026-01-21 23:08:18.23	73.81	28.15	-31.5	-33.8	11.4	4.08e-04	0	44	0	501219328	23	4699
2026-01-21 23:08:19.23	74.11	28.20	-31.5	-33.7	11.5	8.71e-04	0	44	0	503316480	23	4658
2026-01-21 23:08:20.23	74.42	28.25	-31.4	-33.5	11.7	5.70e-04	0	44	0	505413632	23	4582
2026-01-21 23:08:21.23	74.74	28.30	-31.4	-33.4	11.7	4.26e-04	0	44	0	507510784	23	4539
2026-01-21 23:08:22.24	75.05	28.36	-31.3	-33.2	11.9	2.24e-04	0	44	0	509607936	23	4485
2026-01-21 23:08:23.24	75.36	28.41	-31.5	-33.8	11.5	8.39e-04	0	44	0	510656512	23	4682
2026-01-21 23:08:24.24	75.68	28.45	-31.6	-34.0	11.3	1.02e-03	0	44	0	512753664	23	4770
2026-01-21 23:08:25.24	75.99	28.50	-31.8	-34.7	10.8	1.59e-03	0	44	0	514850816	23	5024
2026-01-21 23:08:26.24	76.31	28.55	-31.7	-34.3	11.1	2.01e-03	0	44	0	516947968	23	4877
2026-01-21 23:08:27.24	76.62	28.60	-31.6	-34.2	11.2	1.28e-03	0	44	0	517996544	23	4838
2026-01-21 23:08:28.24	76.94	28.64	-31.7	-34.4	11.0	1.05e-03	0	44	0	520093696	23	4892
2026-01-21 23:08:29.25	77.26	28.69	-31.7	-34.6	10.9	1.62e-03	0	44	0	522190848	23	4980
2026-01-21 23:08:30.25	77.58	28.73	-32.0	-35.4	10.3	3.26e-03	0	44	0	524288000	23	5323
2026-01-21 23:08:31.26	77.91	28.78	-32.2	-35.7	9.7	8.55e-03	0	44	0	526385152	24	5395
2026-01-21 23:08:32.26	78.23	28.82	-32.2	-35.6	9.7	1.36e-02	0	44	0	527433728	24	5338
2026-01-21 23:08:33.26	78.55	28.86	-31.6	-33.7	11.2	4.00e-03	0	44	0	529530880	24	4550
2026-01-21 23:08:34.26	78.87	28.90	-31.2	-32.8	12.2	3.65e-04	0	44	0	531628032	23	4325
2026-01-21 23:08:35.26	79.20	28.94	-30.9	-32.1	12.7	1.01e-04	0	44	0	533725184	23	4112
2026-01-21 23:08:36.27	79.52	28.98	-31.0	-32.4	12.5	9.91e-05	0	44	0	535822336	23	4201
2026-01-21 23:08:37.28	79.85	29.02	-31.1	-32.7	12.2	2.03e-04	0	44	0	536870912	23	4309
2026-01-21 23:08:38.27	80.17	29.06	-31.2	-33.0	12.0	2.10e-04	0	44	0	538968064	23	4411
2026-01-21 23:08:39.28	80.50	29.09	-31.1	-32.6	12.3	1.98e-04	0	44	0	541065216	23	4293
2026-01-21 23:08:40.27	80.83	29.13	-30.9	-32.1	12.6	1.64e-04	0	44	0	543162368	23	4121
2026-01-21 23:08:41.28	81.16	29.16	-30.6	-31.7	13.2	2.51e-05	0	44	0	545259520	22	4070
2026-01-21 23:08:42.29	81.49	29.19	-30.3	-31.4	13.8	6.10e-06	0	44	0	546308096	21	4075
2026-01-21 23:08:43.29	81.82	29.23	-30.5	-32.1	13.3	7.60e-06	0	44	0	548405248	21	4291
2026-01-21 23:08:44.29	82.15	29.26	-30.9	-33.2	12.6	5.41e-05	0	44	0	550502400	21	4666
2026-01-21 23:08:45.29	82.48	29.29	-30.9	-33.0	12.6	9.23e-05	0	44	0	552599552	21	4599
2026-01-21 23:08:46.29	82.81	29.32	-30.6	-32.3	13.1	4.11e-05	0	44	0	554696704	21	4361
2026-01-21 23:08:47.29	83.14	29.34	-30.4	-31.6	13.5	9.90e-06	0	44	0	555745280	21	4156
2026-01-21 23:08:48.29	83.48	29.37	-30.4	-31.5	13.6	1.52e-05	0	44	0	557842432	21	4127
2026-01-21 23:08:49.30	83.81	29.40	-30.5	-32.0	13.3	2.28e-05	0	44	0	559939584	21	4264
2026-01-21 23:08:50.30	84.15	29.42	-30.5	-31.9	13.4	7.60e-06	0	44	0	562036736	21	4241
2026-01-21 23:08:51.30	84.48	29.45	-30.5	-31.9	13.3	3.89e-05	0	44	0	563085312	21	4245
2026-01-21 23:08:52.31	84.82	29.47	-30.3	-31.4	13.7	7.60e-06	0	44	0	565182464	21	4086
2026-01-21 23:08:53.31	85.15	29.49	-29.8	-30.2	14.5	2.20e-06	0	44	0	567279616	21	3746
2026-01-21 23:08:54.31	85.49	29.51	-29.8	-30.5	14.6	6.80e-06	0	44	0	569376768	20	3915
2026-01-21 23:08:55.31	85.82	29.53	-29.8	-30.7	14.6	8.30e-06	0	44	0	571473920	20	3962
2026-01-21 23:08:56.31	86.16	29.55	-30.0	-31.1	14.3	1.50e-06	0	44	0	572522496	20	4082
2026-01-21 23:08:57.31	86.50	29.57	-30.3	-31.9	13.7	5.30e-06	0	44	0	574619648	20	4337
2026-01-21 23:08:58.31	86.83	29.59	-30.6	-32.3	13.2	1.98e-05	0	44	0	576716800	21	4372
2026-01-21 23:08:59.32	87.18	29.60	-30.6	-32.3	13.2	1.83e-05	0	44	0	578813952	21	4356
2026-01-21 23:09:00.32	87.51	29.62	-30.5	-32.0	13.3	2.21e-05	0	44	0	580911104	21	4252
2026-01-21 23:09:01.33	87.85	29.63	-30.6	-32.1	13.3	2.13e-05	0	44	0	581959680	21	4302
2026-01-21 23:09:02.33	88.19	29.64	-30.7	-32.5	13.0	4.50e-05	0	44	0	584056832	21	4422
2026-01-21 23:09:03.34	88.53	29.66	-30.7	-32.6	13.0	2.89e-05	0	44	0	586153984	21	4457
2026-01-21 23:09:04.35	88.88	29.67	-31.0	-32.8	12.5	1.12e-04	0	44	0	588251136	22	4433
2026-01-21 23:09:05.35	89.22	29.68	-31.0	-32.8	12.5	1.09e-04	0	44	0	590348288	22	4432
2026-01-21 23:09:06.35	89.55	29.68	-30.7	-32.0	13.0	5.11e-05	0	44	0	591396864	22	4166
2026-01-21 23:09:07.35	89.89	29.69	-30.6	-31.7	13.3	2.21e-05	0	44	0	593494016	22	4075
2026-01-21 23:09:08.36	90.24	29.70	-30.5	-31.5	13.4	1.75e-05	0	44	0	595591168	22	4029
2026-01-21 23:09:09.36	90.58	29.70	-30.5	-31.5	13.3	1.22e-05	0	44	0	597688320	22	4028
2026-01-21 23:09:10.36	90.92	29.71	-30.8	-32.3	12.9	1.75e-04	0	44	0	599785472	22	4265
2026-01-21 23:09:11.36	91.26	29.71	-31.2	-33.5	12.0	1.91e-04	0	44	0	600834048	22	4673
2026-01-21 23:09:12.36	91.60	29.71	-31.3	-33.7	11.9	5.54e-04	0	44	0	602931200	22	4749
2026-01-21 23:09:13.37	91.94	29.71	-31.3	-33.6	12.0	6.30e-04	0	44	0	605028352	22	4693
2026-01-21 23:09:14.37	92.28	29.71	-31.1	-33.1	12.3	3.87e-04	0	44	0	607125504	22	4551
2026-01-21 23:09:15.37	92.62	29.71	-31.3	-33.6	11.9	5.12e-04	0	44	0	609222656	22	4721
2026-01-21 23:09:16.37	92.96	29.71	-31.6	-34.1	11.3	6.26e-04	0	44	0	610271232	23	4802
2026-01-21 23:09:17.37	93.30	29.70	-31.2	-32.9	12.1	2.82e-04	0	44	0	612368384	23	4377
2026-01-21 23:09:18.38	93.64	29.70	-31.0	-32.3	12.5	1.30e-04	0	44	0	614465536	23	4188
2026-01-21 23:09:19.38	93.98	29.69	-30.8	-32.4	12.7	7.40e-05	0	44	0	616562688	22	4307
2026-01-21 23:09:20.38	94.32	29.69	-30.9	-32.4	12.8	4.34e-05	0	44	0	617611264	22	4310
2026-01-21 23:09:21.38	94.66	29.68	-31.0	-32.9	12.4	1.11e-04	0	44	0	619708416	22	4461
2026-01-21 23:09:22.38	95.00	29.67	-31.1	-33.0	12.3	1.42e-04	0	44	0	621805568	22	4520
2026-01-21 23:09:23.38	95.34	29.66	-31.3	-33.9	11.7	2.09e-04	0	44	0	623902720	22	4852
2026-01-21 23:09:24.39	95.68	29.65	-31.6	-34.4	11.0	1.63e-03	0	44	0	625999872	23	4950
2026-01-21 23:09:25.39	96.02	29.64	-31.7	-34.7	10.7	1.52e-03	0	44	0	627048448	23	5062
2026-01-21 23:09:26.40	96.36	29.62	-31.6	-34.1	11.1	2.14e-03	0	44	0	629145600	23	4846
2026-01-21 23:09:27.39	96.70	29.61	-31.2	-33.1	11.8	8.54e-04	0	44	0	631242752	23	4468
2026-01-21 23:09:28.39	97.03	29.59	-30.9	-32.0	12.6	1.79e-04	0	44	0	633339904	23	4119
2026-01-21 23:09:29.39	97.37	29.58	-30.9	-32.2	12.5	1.27e-04	0	44	0	635437056	23	4161
2026-01-21 23:09:30.39	97.71	29.56	-31.0	-32.4	12.4	1.41e-04	0	44	0	636485632	23	4233
2026-01-21 23:09:31.39	98.04	29.54	-31.1	-32.6	12.2	2.03e-04	0	44	0	638582784	23	4275
2026-01-21 23:09:32.40	98.38	29.52	-31.1	-32.7	12.1	2.08e-04	0	44	0	640679936	23	4332
2026-01-21 23:09:33.40	98.72	29.50	-31.1	-32.7	12.2	2.37e-04	0	44	0	642777088	23	4331
2026-01-21 23:09:34.41	99.06	29.48	-31.2	-33.1	11.9	4.00e-04	0	44	0	644874240	23	4455
2026-01-21 23:09:35.40	99.39	29.46	-31.5	-33.8	11.4	8.50e-04	0	44	0	645922816	23	4709
2026-01-21 23:09:36.41	99.73	29.43	-31.7	-34.4	11.0	1.83e-03	0	44	0	648019968	23	4944
2026-01-21 23:09:37.42	100.07	29.41	-31.6	-34.2	11.1	1.73e-03	0	44	0	650117120	23	4869
2026-01-21 23:09:38.42	100.40	29.38	-31.6	-34.1	11.2	1.86e-03	0	44	0	652214272	23	4829
2026-01-21 23:09:39.42	100.73	29.35	-31.5	-34.0	11.3	1.23e-03	0	44	0	654311424	23	4773
2026-01-21 23:09:40.43	101.07	29.33	-31.6	-34.3	11.0	1.38e-03	0	44	0	655360000	23	4880
2026-01-21 23:09:41.43	101.40	29.30	-31.6	-34.1	11.1	1.87e-03	0	44	0	657457152	23	4837
2026-01-21 23:09:42.43	101.73	29.27	-31.8	-34.7	10.7	3.83e-03	0	44	0	659554304	23	5059
2026-01-21 23:09:43.44	102.06	29.24	-31.7	-34.6	10.8	3.07e-03	0	44	0	661651456	23	5018
2026-01-21 23:09:44.44	102.39	29.20	-31.8	-34.7	10.8	2.86e-03	0	44	0	663748608	23	5049
2026-01-21 23:09:45.44	102.72	29.17	-31.5	-34.0	11.3	1.42e-03	0	44	0	664797184	23	4757
2026-01-21 23:09:46.45	103.06	29.14	-31.7	-34.4	11.0	1.62e-03	0	44	0	666894336	23	4922
2026-01-21 23:09:47.45	103.38	29.10	-32.1	-35.3	9.9	2.25e-03	0	44	0	668991488	24	5193
2026-01-21 23:09:48.45	103.71	29.07	-32.5	-36.4	8.7	3.53e-02	0	44	0	671088640	25	5631
2026-01-21 23:09:49.46	104.04	29.03	-32.8	-37.7	7.6	7.69e-02	0	44	0	672137216	25	6353
2026-01-21 23:09:50.46	104.37	28.99	-32.8	-37.6	7.7	1.01e-01	0	44	0	674234368	25	6289
2026-01-21 23:09:51.46	104.69	28.95	-32.5	-36.3	8.8	5.99e-02	0	44	0	676331520	25	5607
2026-01-21 23:09:52.46	105.02	28.91	-32.1	-34.9	9.8	1.57e-02	0	44	0	678428672	25	4944
2026-01-21 23:09:53.47	105.34	28.87	-32.1	-34.9	9.7	8.33e-03	0	44	0	680525824	25	4983
2026-01-21 23:09:54.47	105.67	28.83	-32.3	-35.5	9.4	8.27e-03	0	45	0	681574400	25	5237
2026-01-21 23:09:55.48	105.99	28.79	-32.2	-35.3	9.5	2.07e-02	0	44	0	683671552	25	5114
2026-01-21 23:09:56.48	106.31	28.74	-32.1	-34.7	10.0	9.49e-03	0	44	0	685768704	25	4881
2026-01-21 23:09:57.48	106.63	28.70	-32.0	-34.7	10.0	6.99e-03	0	44	0	687865856	25	4858
2026-01-21 23:09:58.49	106.96	28.66	-32.0	-34.5	10.2	9.12e-03	0	44	0	689963008	25	4790
2026-01-21 23:09:59.49	107.27	28.61	-31.7	-33.9	11.0	3.08e-03	0	44	0	691011584	24	4638
2026-01-21 23:10:00.49	107.59	28.56	-31.7	-33.8	11.0	1.26e-03	0	44	0	693108736	24	4632
2026-01-21 23:10:01.49	107.91	28.52	-31.5	-33.2	11.4	1.05e-03	0	44	0	695205888	24	4415
2026-01-21 23:10:02.49	108.22	28.47	-31.4	-32.9	11.6	8.49e-04	0	44	0	697303040	24	4319
2026-01-21 23:10:03.50	108.54	28.42	-31.6	-33.6	11.2	1.68e-03	0	44	0	699400192	24	4530
2026-01-21 23:10:04.50	108.86	28.37	-31.6	-33.8	11.0	1.28e-03	0	44	0	700448768	24	4612
2026-01-21 23:10:05.50	109.17	28.32	-31.8	-34.4	10.6	2.95e-03	0	44	0	702545920	24	4838
2026-01-21 23:10:06.51	109.48	28.26	-31.7	-34.0	10.9	3.43e-03	0	44	0	704643072	24	4687
2026-01-21 23:10:07.50	109.79	28.21	-31.4	-33.2	11.4	1.15e-03	0	44	0	706740224	24	4388
2026-01-21 23:10:08.51	110.10	28.16	-31.2	-32.9	12.0	3.95e-04	0	45	0	708837376	23	4381
2026-01-21 23:10:09.52	110.42	28.10	-31.1	-32.5	12.3	2.01e-04	0	44	0	709885952	23	4263
2026-01-21 23:10:10.52	110.72	28.05	-31.2	-32.8	12.0	1.85e-04	0	44	0	711983104	23	4354
2026-01-21 23:10:11.53	111.03	27.99	-31.0	-32.4	12.3	2.08e-04	0	44	0	714080256	23	4215
2026-01-21 23:10:12.53	111.34	27.94	-31.0	-32.4	12.3	1.46e-04	0	44	0	716177408	23	4228
2026-01-21 23:10:13.54	111.65	27.88	-31.2	-33.1	11.9	1.87e-04	0	45	0	718274560	23	4443
2026-01-21 23:10:14.54	111.95	27.82	-31.4	-33.6	11.4	4.76e-04	0	44	0	719323136	23	4632
2026-01-21 23:10:15.54	112.25	27.76	-31.6	-34.3	10.8	1.10e-03	0	44	0	721420288	23	4911
2026-01-21 23:10:16.55	112.56	27.70	-31.7	-34.6	10.7	3.44e-03	0	44	0	723517440	23	5020
2026-01-21 23:10:17.55	112.86	27.64	-31.7	-34.5	10.7	2.84e-03	0	44	0	725614592	23	4980
2026-01-21 23:10:18.55	113.16	27.58	-31.8	-34.8	10.5	2.77e-03	0	44	0	726663168	23	5112
2026-01-21 23:10:19.55	113.46	27.52	-31.7	-34.5	10.8	3.01e-03	0	44	0	728760320	23	4978
2026-01-21 23:10:20.56	113.76	27.46	-31.8	-34.9	10.6	2.50e-03	0	44	0	730857472	23	5133
2026-01-21 23:10:21.56	114.05	27.39	-32.1	-35.4	9.7	7.03e-03	0	44	0	732954624	24	5290
2026-01-21 23:10:22.56	114.35	27.33	-32.2	-35.7	9.5	1.12e-02	0	44	0	735051776	24	5417
2026-01-21 23:10:23.56	114.64	27.27	-32.4	-36.6	8.8	2.25e-02	0	44	0	736100352	24	5849
2026-01-21 23:10:24.57	114.94	27.20	-32.4	-36.0	8.8	3.97e-02	0	44	0	738197504	25	5493
2026-01-21 23:10:25.57	115.23	27.14	-32.1	-34.9	9.7	1.21e-02	0	44	0	740294656	25	4982
2026-01-21 23:10:26.58	115.52	27.07	-31.7	-34.0	10.7	4.82e-03	0	44	0	742391808	24	4717
2026-01-21 23:10:27.58	115.81	27.00	-31.6	-33.7	10.9	2.82e-03	0	44	0	744488960	24	4605
2026-01-21 23:10:28.58	116.10	26.94	-31.7	-34.2	10.7	2.38e-03	0	44	0	745537536	24	4777
2026-01-21 23:10:29.59	116.39	26.87	-31.9	-35.0	10.1	6.24e-03	0	44	0	747634688	24	5113
2026-01-21 23:10:30.59	116.67	26.80	-32.0	-35.1	9.8	9.84e-03	0	45	0	749731840	24	5167
2026-01-21 23:10:31.59	116.96	26.73	-31.9	-34.9	10.1	8.05e-03	0	45	0	751828992	24	5101
2026-01-21 23:10:32.60	117.24	26.66	-31.7	-34.2	10.5	4.44e-03	0	44	0	753926144	24	4788
2026-01-21 23:10:33.59	117.52	26.59	-31.5	-33.6	11.0	3.55e-03	0	44	0	754974720	24	4567
2026-01-21 23:10:34.59	117.80	26.52	-31.7	-34.4	10.4	3.12e-03	0	44	0	757071872	24	4889
2026-01-21 23:10:35.60	118.08	26.45	-31.7	-34.3	10.5	3.60e-03	0	45	0	759169024	24	4852
2026-01-21 23:10:36.60	118.36	26.38	-31.8	-34.5	10.3	4.04e-03	0	44	0	761266176	24	4937
2026-01-21 23:10:37.60	118.64	26.30	-31.7	-34.3	10.4	4.72e-03	0	44	0	763363328	24	4850
2026-01-21 23:10:38.61	118.92	26.23	-31.5	-33.6	11.0	2.21e-03	0	44	0	764411904	24	4576
2026-01-21 23:10:39.60	119.19	26.16	-31.4	-33.2	11.3	1.41e-03	0	44	0	766509056	24	4423
2026-01-21 23:10:40.60	119.46	26.08	-31.5	-33.6	11.0	1.54e-03	0	45	0	768606208	24	4562
2026-01-21 23:10:41.60	119.73	26.01	-31.5	-33.6	11.0	2.54e-03	0	44	0	770703360	24	4563
2026-01-21 23:10:42.60	120.00	25.94	-31.6	-33.8	10.8	2.70e-03	0	44	0	771751936	24	4645
2026-01-21 23:10:43.61	120.28	25.86	-31.7	-34.3	10.5	2.30e-03	0	45	0	773849088	24	4818
2026-01-21 23:10:44.62	120.55	25.78	-31.7	-34.2	10.5	2.61e-03	0	44	0	775946240	24	4808
2026-01-21 23:10:45.61	120.81	25.71	-31.8	-34.4	10.5	3.47e-03	0	44	0	778043392	24	4859
2026-01-21 23:10:46.61	121.08	25.63	-31.6	-33.7	10.9	3.89e-03	0	44	0	780140544	24	4614
2026-01-21 23:10:47.62	121.34	25.55	-31.1	-32.9	11.9	1.08e-03	0	44	0	781189120	23	4407
2026-01-21 23:10:48.62	121.61	25.48	-31.1	-33.2	12.0	4.17e-04	0	44	0	783286272	22	4597
2026-01-21 23:10:49.62	121.87	25.40	-31.2	-33.5	11.7	3.58e-04	0	44	0	785383424	22	4703
2026-01-21 23:10:50.62	122.13	25.32	-31.4	-34.1	11.3	6.65e-04	0	44	0	787480576	22	4936
2026-01-21 23:10:51.62	122.39	25.24	-31.2	-33.6	11.7	6.71e-04	0	44	0	789577728	22	4735
2026-01-21 23:10:52.62	122.65	25.16	-31.0	-33.0	12.1	4.23e-04	0	44	0	790626304	22	4523
2026-01-21 23:10:53.63	122.91	25.09	-30.8	-32.5	12.4	1.09e-04	0	44	0	792723456	22	4375
2026-01-21 23:10:54.62	123.16	25.01	-30.6	-31.9	12.8	4.95e-05	0	44	0	794820608	22	4176
2026-01-21 23:10:55.63	123.42	24.93	-30.7	-32.2	12.7	5.41e-05	0	44	0	796917760	22	4256
2026-01-21 23:10:56.63	123.67	24.85	-30.8	-32.4	12.4	1.17e-04	0	44	0	799014912	22	4331
2026-01-21 23:10:57.64	123.92	24.76	-31.2	-33.6	11.6	2.78e-04	0	44	0	800063488	22	4772
2026-01-21 23:10:58.65	124.18	24.68	-31.0	-32.9	12.1	5.52e-04	0	44	0	802160640	22	4508
2026-01-21 23:10:59.65	124.43	24.60	-30.6	-31.8	12.9	1.30e-04	0	44	0	804257792	22	4150
2026-01-21 23:11:00.66	124.68	24.52	-30.3	-31.4	13.4	1.11e-04	0	44	0	806354944	21	4113
2026-01-21 23:11:01.66	124.92	24.44	-30.0	-30.7	13.9	4.50e-06	0	44	0	808452096	21	3910
2026-01-21 23:11:02.66	125.17	24.36	-30.1	-31.1	13.6	7.78e-05	0	44	0	809500672	21	4040
2026-01-21 23:11:03.67	125.41	24.27	-30.3	-31.7	13.2	7.78e-05	0	44	0	811597824	21	4228
2026-01-21 23:11:04.67	125.66	24.19	-30.6	-32.6	12.6	6.94e-05	0	44	0	813694976	21	4504
2026-01-21 23:11:05.67	125.90	24.11	-30.9	-33.3	12.1	3.15e-04	0	44	0	815792128	21	4756
2026-01-21 23:11:06.67	126.14	24.02	-30.8	-33.1	12.2	3.05e-04	0	44	0	817889280	21	4677
2026-01-21 23:11:07.67	126.38	23.94	-30.9	-33.4	12.1	2.51e-04	0	44	0	818937856	21	4777
2026-01-21 23:11:08.67	126.62	23.86	-30.5	-32.0	12.9	2.45e-04	0	44	0	821035008	21	4314
2026-01-21 23:11:09.68	126.86	23.77	-30.3	-31.5	13.3	2.74e-05	0	44	0	823132160	21	4151
2026-01-21 23:11:10.69	127.09	23.69	-30.0	-30.9	13.7	1.75e-05	0	44	0	825229312	21	3969
2026-01-21 23:11:11.69	127.33	23.60	-30.4	-31.9	13.1	8.08e-05	0	45	0	827326464	21	4253
2026-01-21 23:11:12.69	127.56	23.52	-30.9	-33.3	12.1	1.53e-04	0	44	0	828375040	21	4765
2026-01-21 23:11:13.69	127.79	23.43	-31.0	-33.0	12.0	3.78e-04	0	44	0	830472192	22	4561
2026-01-21 23:11:14.69	128.02	23.35	-30.9	-32.8	12.1	4.72e-04	0	44	0	832569344	22	4488
2026-01-21 23:11:15.69	128.25	23.26	-30.6	-32.0	12.6	3.65e-04	0	44	0	834666496	22	4240
2026-01-21 23:11:16.69	128.48	23.18	-30.4	-31.4	13.0	5.11e-05	0	44	0	835715072	22	4039
2026-01-21 23:11:17.70	128.71	23.09	-30.5	-31.7	12.8	8.46e-05	0	44	0	837812224	22	4140
2026-01-21 23:11:18.70	128.94	23.01	-30.4	-31.3	13.1	8.16e-05	0	44	0	839909376	22	4011
2026-01-21 23:11:19.70	129.16	22.92	-30.4	-31.8	13.0	1.60e-05	0	44	0	842006528	21	4261
2026-01-21 23:11:20.71	129.39	22.83	-30.4	-31.8	13.0	2.51e-05	0	44	0	844103680	21	4247
2026-01-21 23:11:21.71	129.61	22.75	-30.3	-31.5	13.2	6.94e-05	0	44	0	845152256	21	4162
2026-01-21 23:11:22.72	129.83	22.66	-29.9	-30.6	13.8	2.05e-05	0	44	0	847249408	21	3898
2026-01-21 23:11:23.71	130.05	22.58	-29.8	-30.3	14.0	5.30e-06	0	44	0	849346560	21	3795
2026-01-21 23:11:24.71	130.27	22.49	-30.1	-31.1	13.6	3.28e-05	0	44	0	851443712	21	4021
2026-01-21 23:11:25.72	130.49	22.40	-30.2	-31.3	13.4	1.83e-05	0	44	0	853540864	21	4108
2026-01-21 23:11:26.73	130.71	22.31	-30.8	-33.2	12.2	8.16e-05	0	44	0	854589440	21	4702
2026-01-21 23:11:27.73	130.92	22.23	-31.3	-34.1	11.1	9.58e-04	0	44	0	856686592	22	4968
2026-01-21 23:11:28.72	131.13	22.14	-31.8	-35.4	9.9	2.98e-03	0	44	0	858783744	23	5412
2026-01-21 23:11:29.72	131.35	22.05	-32.0	-35.5	9.4	1.99e-02	0	44	0	860880896	24	5369
2026-01-21 23:11:30.73	131.56	21.97	-31.6	-34.2	10.3	8.57e-03	0	44	0	862978048	24	4847
2026-01-21 23:11:31.72	131.77	21.88	-31.2	-33.3	11.3	2.35e-03	0	44	0	864026624	23	4577
2026-01-21 23:11:32.73	131.98	21.79	-30.8	-32.5	12.2	9.54e-04	0	44	0	866123776	22	4396
2026-01-21 23:11:33.73	132.19	21.70	-30.4	-31.5	12.9	7.40e-05	0	44	0	868220928	22	4068
2026-01-21 23:11:34.74	132.40	21.62	-30.3	-31.2	13.1	3.43e-05	0	44	0	870318080	22	3995
2026-01-21 23:11:35.74	132.60	21.53	-30.4	-32.0	12.9	3.35e-04	0	44	0	872415232	21	4308
2026-01-21 23:11:36.75	132.81	21.44	-30.4	-32.0	12.9	3.23e-04	0	44	0	873463808	21	4338
2026-01-21 23:11:37.75	133.01	21.35	-30.6	-32.5	12.6	1.01e-04	0	44	0	875560960	21	4495
2026-01-21 23:11:38.75	133.21	21.26	-30.4	-32.0	12.8	1.12e-04	0	44	0	877658112	21	4344
2026-01-21 23:11:39.75	133.42	21.18	-30.0	-31.4	13.6	3.52e-04	0	45	0	879755264	20	4221
2026-01-21 23:11:40.75	133.62	21.09	-29.5	-30.1	14.4	7.00e-07	0	44	0	880803840	20	3843
2026-01-21 23:11:41.76	133.82	21.00	-29.5	-30.5	14.5	1.50e-06	0	44	0	882900992	19	4046
2026-01-21 23:11:42.76	134.01	20.91	-29.3	-30.0	14.8	0.00e+00	0	44	0	884998144	19	3915
2026-01-21 23:11:43.76	134.21	20.82	-29.4	-30.2	14.7	0.00e+00	0	44	0	887095296	19	3942
2026-01-21 23:11:44.77	134.41	20.74	-29.6	-30.6	14.4	0.00e+00	0	45	0	889192448	19	4083
2026-01-21 23:11:45.77	134.60	20.65	-29.7	-31.1	14.1	1.50e-06	0	45	0	890241024	19	4222
2026-01-21 23:11:46.78	134.80	20.56	-29.9	-31.6	13.8	2.20e-06	0	44	0	892338176	19	4391
2026-01-21 23:11:47.77	134.99	20.47	-29.9	-31.2	13.6	1.06e-05	0	44	0	894435328	20	4176
2026-01-21 23:11:48.78	135.18	20.38	-29.9	-31.2	13.7	3.00e-06	0	44	0	896532480	20	4159
2026-01-21 23:11:49.78	135.37	20.29	-29.8	-31.0	13.8	6.10e-06	0	44	0	898629632	20	4092
2026-01-21 23:11:50.78	135.56	20.21	-29.8	-31.0	13.8	8.30e-06	0	44	0	899678208	20	4094
2026-01-21 23:11:51.79	135.75	20.12	-29.9	-31.1	13.7	6.10e-06	0	44	0	901775360	20	4122
2026-01-21 23:11:52.79	135.94	20.03	-30.1	-31.8	13.3	8.30e-06	0	44	0	903872512	20	4338
2026-01-21 23:11:53.79	136.13	19.94	-30.2	-31.9	13.1	2.74e-05	0	44	0	905969664	20	4398
2026-01-21 23:11:54.79	136.31	19.85	-30.3	-32.3	12.9	6.79e-05	0	44	0	908066816	20	4516
2026-01-21 23:11:55.79	136.50	19.77	-30.4	-32.5	12.7	6.94e-05	0	44	0	909115392	20	4599
2026-01-21 23:11:56.79	136.68	19.68	-30.0	-31.6	13.3	5.18e-05	0	44	0	911212544	20	4287
2026-01-21 23:11:57.79	136.86	19.59	-29.8	-30.8	13.8	8.30e-06	0	44	0	913309696	20	4059
2026-01-21 23:11:58.80	137.04	19.50	-29.6	-30.4	14.0	6.80e-06	0	44	0	915406848	20	3953
2026-01-21 23:11:59.80	137.22	19.41	-29.5	-30.2	14.1	1.50e-06	0	45	0	917504000	20	3904
2026-01-21 23:12:00.81	137.40	19.32	-29.7	-31.1	14.0	3.00e-06	0	44	0	918552576	19	4225
2026-01-21 23:12:01.81	137.58	19.24	-29.5	-30.6	14.3	7.00e-07	0	44	0	920649728	19	4100
2026-01-21 23:12:02.81	137.76	19.15	-29.5	-30.7	14.2	2.20e-06	0	44	0	922746880	19	4122
2026-01-21 23:12:03.82	137.94	19.06	-29.6	-30.9	14.1	6.80e-06	0	44	0	924844032	19	4177
2026-01-21 23:12:04.82	138.11	18.97	-29.8	-31.5	13.8	3.80e-06	0	44	0	926941184	19	4347
2026-01-21 23:12:05.82	138.29	18.89	-29.7	-31.3	13.7	5.30e-06	0	45	0	927989760	19	4335
2026-01-21 23:12:06.82	138.46	18.80	-29.8	-31.5	13.7	8.30e-06	0	44	0	930086912	19	4388
2026-01-21 23:12:07.83	138.63	18.71	-29.8	-31.4	13.6	5.30e-06	0	44	0	932184064	19	4362
2026-01-21 23:12:08.83	138.80	18.62	-29.4	-30.6	14.0	1.50e-06	0	44	0	934281216	19	4122
2026-01-21 23:12:09.84	138.98	18.53	-29.3	-30.2	14.4	3.80e-06	0	44	0	935329792	19	4019
2026-01-21 23:12:10.84	139.15	18.45	-29.3	-30.7	14.3	3.12e-04	0	44	0	937426944	18	4257
2026-01-21 23:12:11.84	139.31	18.36	-29.3	-30.7	14.4	0.00e+00	0	44	0	939524096	18	4255
2026-01-21 23:12:12.85	139.48	18.27	-29.3	-30.9	14.3	7.00e-07	0	44	0	941621248	18	4293
2026-01-21 23:12:13.85	139.65	18.18	-29.5	-31.2	14.1	1.50e-06	0	44	0	943718400	18	4385
2026-01-21 23:12:14.85	139.81	18.10	-29.5	-30.7	14.1	0.00e+00	0	44	0	944766976	19	4132
2026-01-21 23:12:15.86	139.98	18.01	-29.5	-30.9	14.0	4.50e-06	0	44	0	946864128	19	4191
2026-01-21 23:12:16.86	140.14	17.92	-29.6	-30.9	14.0	2.20e-06	0	44	0	948961280	19	4180
2026-01-21 23:12:17.86	140.31	17.84	-29.6	-30.9	13.9	7.82e-04	0	44	0	951058432	19	4203
2026-01-21 23:12:18.86	140.47	17.75	-29.7	-31.2	13.8	3.00e-06	0	44	0	953155584	19	4272
2026-01-21 23:12:19.85	140.63	17.66	-29.5	-30.7	14.1	2.20e-06	0	45	0	954204160	19	4128
2026-01-21 23:12:20.85	140.79	17.58	-29.5	-31.1	14.1	1.50e-06	0	44	0	956301312	18	4357
2026-01-21 23:12:21.85	140.95	17.49	-29.4	-31.0	14.2	2.20e-06	0	44	0	958398464	18	4323
2026-01-21 23:12:22.86	141.11	17.40	-29.3	-30.8	14.3	7.00e-07	0	44	0	960495616	18	4266
2026-01-21 23:12:23.86	141.26	17.32	-29.4	-31.0	14.1	7.00e-07	0	44	0	962592768	18	4346
2026-01-21 23:12:24.86	141.42	17.23	-29.3	-30.8	14.2	2.20e-06	0	44	0	963641344	18	4267
2026-01-21 23:12:25.86	141.58	17.15	-29.3	-30.7	14.3	1.50e-06	0	45	0	965738496	18	4245
2026-01-21 23:12:26.86	141.73	17.06	-29.3	-30.9	14.2	2.20e-06	0	44	0	967835648	18	4286
2026-01-21 23:12:27.87	141.89	16.97	-29.3	-30.8	14.2	2.20e-06	0	44	0	969932800	18	4261
2026-01-21 23:12:28.87	142.04	16.89	-29.5	-30.7	14.0	1.40e-03	0	45	0	972029952	19	4139
2026-01-21 23:12:29.87	142.19	16.80	-29.8	-31.5	13.5	6.80e-06	0	44	0	973078528	19	4375
2026-01-21 23:12:30.87	142.34	16.72	-29.7	-31.2	13.6	6.80e-06	0	44	0	975175680	19	4299
2026-01-21 23:12:31.88	142.50	16.63	-29.7	-31.4	13.5	1.20e-03	0	44	0	977272832	19	4341
2026-01-21 23:12:32.88	142.65	16.55	-29.7	-31.4	13.5	1.17e-03	0	44	0	979369984	19	4347
2026-01-21 23:12:33.88	142.79	16.46	-29.5	-30.8	13.8	1.14e-05	0	45	0	980418560	19	4180
2026-01-21 23:12:34.88	142.94	16.38	-29.5	-30.8	13.8	1.08e-03	0	44	0	982515712	19	4160
2026-01-21 23:12:35.88	143.09	16.29	-29.5	-30.8	13.8	1.12e-03	0	44	0	984612864	19	4175
2026-01-21 23:12:36.88	143.24	16.21	-29.4	-30.4	14.1	2.20e-06	0	44	0	986710016	19	4057
2026-01-21 23:12:37.89	143.38	16.12	-29.5	-30.8	13.8	4.50e-06	0	44	0	988807168	19	4174
2026-01-21 23:12:38.89	143.53	16.04	-29.6	-30.9	13.7	1.09e-03	0	44	0	989855744	19	4202
2026-01-21 23:12:39.90	143.67	15.95	-29.8	-31.6	13.3	7.60e-06	0	45	0	991952896	19	4428
2026-01-21 23:12:40.89	143.82	15.87	-30.0	-31.6	12.8	2.74e-05	0	44	0	994050048	20	4339
2026-01-21 23:12:41.90	143.96	15.78	-30.1	-32.1	12.5	1.69e-03	0	44	0	996147200	20	4492
2026-01-21 23:12:42.90	144.10	15.70	-30.4	-32.8	12.1	1.85e-04	0	44	0	998244352	20	4741
2026-01-21 23:12:43.90	144.24	15.61	-30.5	-32.7	11.7	2.27e-03	0	44	0	999292928	21	4643
2026-01-21 23:12:44.90	144.38	15.53	-30.7	-33.2	11.5	7.06e-04	0	44	0	1001390080	21	4802
2026-01-21 23:12:45.91	144.52	15.45	-30.6	-33.0	11.5	1.11e-03	0	44	0	1003487232	21	4747
2026-01-21 23:12:46.90	144.66	15.36	-30.5	-32.7	11.7	2.60e-03	0	45	0	1005584384	21	4627
2026-01-21 23:12:47.90	144.80	15.28	-30.6	-33.0	11.4	5.50e-04	0	44	0	1007681536	21	4766
2026-01-21 23:12:48.90	144.94	15.20	-30.5	-32.6	11.8	6.51e-04	0	44	0	1008730112	21	4607
2026-01-21 23:12:49.90	145.07	15.11	-30.2	-32.5	12.2	2.16e-03	0	44	0	1010827264	20	4653
2026-01-21 23:12:50.90	145.21	15.03	-30.3	-32.6	12.1	2.06e-03	0	45	0	1012924416	20	4715
2026-01-21 23:12:51.90	145.34	14.95	-30.3	-32.6	12.1	2.53e-04	0	44	0	1015021568	20	4689
2026-01-21 23:12:52.90	145.48	14.86	-30.4	-32.8	12.0	2.07e-03	0	44	0	1016070144	20	4785
2026-01-21 23:12:53.90	145.61	14.78	-30.5	-32.7	11.7	2.31e-03	0	45	0	1018167296	21	4643
2026-01-21 23:12:54.90	145.74	14.70	-30.4	-32.4	11.8	5.13e-04	0	44	0	1020264448	21	4560
2026-01-21 23:12:55.91	145.88	14.62	-30.5	-33.1	11.4	2.37e-03	0	44	0	1022361600	21	4816
2026-01-21 23:12:56.92	146.01	14.53	-30.6	-33.3	11.1	3.42e-03	0	44	0	1024458752	21	4919
2026-01-21 23:12:57.93	146.14	14.45	-30.6	-33.4	11.1	1.36e-03	0	44	0	1026555904	21	4961
2026-01-21 23:12:58.93	146.27	14.37	-30.8	-34.2	10.4	5.75e-03	0	44	0	1027604480	21	5344
2026-01-21 23:12:59.93	146.40	14.29	-30.7	-34.1	10.4	6.64e-03	0	45	0	1029701632	21	5312
2026-01-21 23:13:00.94	146.53	14.21	-30.8	-34.6	10.1	4.45e-03	0	45	0	1031798784	21	5537
2026-01-21 23:13:01.93	146.66	14.12	-30.8	-34.5	10.1	1.16e-02	0	44	0	1033895936	21	5490
2026-01-21 23:13:02.93	146.79	14.04	-30.9	-34.8	9.8	1.03e-02	0	44	0	1034944512	21	5685
2026-01-21 23:13:03.94	146.91	13.96	-31.0	-35.2	9.1	1.40e-02	0	45	0	1037041664	22	5812
2026-01-21 23:13:04.95	147.04	13.88	-30.9	-35.2	9.5	2.37e-02	0	44	0	1039138816	21	5865
2026-01-21 23:13:05.95	147.17	13.80	-30.7	-34.1	10.4	5.65e-03	0	45	0	1041235968	21	5335
2026-01-21 23:13:06.94	147.29	13.72	-30.8	-34.2	10.3	4.48e-03	0	44	0	1043333120	21	5365
2026-01-21 23:13:07.95	147.42	13.64	-30.8	-34.3	10.3	6.79e-03	0	44	0	1044381696	21	5404
2026-01-21 23:13:08.96	147.54	13.56	-30.7	-34.1	10.4	7.31e-03	0	44	0	1046478848	21	5320
2026-01-21 23:13:09.95	147.66	13.48	-30.8	-34.4	10.2	5.87e-03	0	44	0	1048576000	21	5469
2026-01-21 23:13:10.95	147.78	13.40	-30.7	-33.9	10.6	6.74e-03	0	45	0	1050673152	21	5205
2026-01-21 23:13:11.95	147.91	13.32	-30.9	-34.3	10.3	6.12e-03	0	44	0	1052770304	21	5368
2026-01-21 23:13:12.95	148.03	13.24	-30.8	-34.2	10.4	5.61e-03	0	44	0	1053818880	21	5285
2026-01-21 23:13:13.97	148.15	13.16	-30.8	-33.9	10.6	6.05e-03	0	44	0	1055916032	21	5162
2026-01-21 23:13:14.97	148.27	13.08	-31.1	-34.5	9.9	7.83e-03	0	44	0	1058013184	22	5286
2026-01-21 23:13:15.97	148.39	13.00	-30.7	-33.0	11.0	2.96e-03	0	44	0	1060110336	22	4698
2026-01-21 23:13:16.98	148.51	12.92	-30.5	-32.7	11.6	1.01e-03	0	44	0	1062207488	21	4668
2026-01-21 23:13:17.98	148.62	12.84	-30.3	-32.7	11.9	3.03e-03	0	44	0	1063256064	20	4775
2026-01-21 23:13:18.98	148.74	12.76	-30.2	-32.5	12.0	5.03e-04	0	45	0	1065353216	20	4680
2026-01-21 23:13:19.98	148.86	12.68	-30.5	-33.4	11.3	6.85e-04	0	44	0	1067450368	20	5058
2026-01-21 23:13:20.98	148.97	12.60	-30.1	-31.9	12.0	3.01e-03	0	44	0	1069547520	21	4419
2026-01-21 23:13:21.98	149.09	12.52	-30.1	-32.3	12.1	3.85e-04	0	44	0	1071644672	20	4635
2026-01-21 23:13:22.98	149.20	12.44	-30.1	-32.5	12.0	2.70e-04	0	44	0	1072693248	20	4706
2026-01-21 23:13:23.99	149.32	12.37	-30.1	-32.3	12.1	2.86e-04	0	44	0	1074790400	20	4642
2026-01-21 23:13:24.99	149.43	12.29	-30.2	-32.7	11.8	4.39e-04	0	44	0	1076887552	20	4780
2026-01-21 23:13:25.98	149.54	12.21	-30.2	-32.5	11.9	4.69e-04	0	44	0	1078984704	20	4727
2026-01-21 23:13:26.98	149.66	12.13	-30.2	-32.6	11.9	3.51e-04	0	45	0	1080033280	20	4738
2026-01-21 23:13:27.98	149.77	12.05	-30.2	-32.6	11.9	4.55e-04	0	45	0	1082130432	20	4730
2026-01-21 23:13:28.98	149.88	11.98	-30.4	-33.2	11.5	3.13e-03	0	44	0	1084227584	20	4950
2026-01-21 23:13:29.99	149.99	11.90	-30.3	-32.8	11.7	6.12e-04	0	44	0	1086324736	20	4840
2026-01-21 23:13:30.99	150.10	11.82	-30.3	-33.1	11.4	7.04e-04	0	44	0	1088421888	20	4965
2026-01-21 23:13:31.99	150.21	11.75	-30.3	-33.1	11.4	3.12e-03	0	44	0	1089470464	20	5004
2026-01-21 23:13:33.00	150.32	11.67	-30.4	-33.8	10.7	2.29e-03	0	45	0	1091567616	20	5337
2026-01-21 23:13:34.00	150.43	11.59	-30.4	-33.8	10.7	3.38e-03	0	44	0	1093664768	20	5347
2026-01-21 23:13:35.00	150.54	11.51	-30.2	-33.3	11.1	1.68e-03	0	44	0	1095761920	20	5132
2026-01-21 23:13:36.00	150.65	11.44	-30.2	-33.4	11.0	3.90e-03	0	45	0	1097859072	20	5203
2026-01-21 23:13:37.00	150.75	11.36	-30.2	-33.5	10.9	2.61e-03	0	45	0	1098907648	20	5244
2026-01-21 23:13:38.00	150.86	11.29	-30.1	-33.1	11.1	1.67e-03	0	44	0	1101004800	20	5091
2026-01-21 23:13:39.00	150.96	11.21	-30.2	-33.6	10.8	1.92e-03	0	45	0	1103101952	20	5290
2026-01-21 23:13:40.00	151.07	11.13	-30.1	-33.0	11.2	1.55e-03	0	44	0	1105199104	20	5055
2026-01-21 23:13:41.00	151.17	11.06	-30.0	-32.8	11.4	9.58e-04	0	44	0	1106247680	20	4966
2026-01-21 23:13:42.00	151.28	10.98	-30.1	-33.1	11.2	1.36e-03	0	44	0	1108344832	20	5038
2026-01-21 23:13:43.01	151.38	10.91	-30.0	-32.6	11.6	1.16e-03	0	45	0	1110441984	20	4828
2026-01-21 23:13:44.01	151.49	10.83	-30.2	-33.2	11.1	1.22e-03	0	45	0	1112539136	20	5068
2026-01-21 23:13:45.01	151.59	10.76	-30.1	-32.9	11.3	1.30e-03	0	44	0	1114636288	20	4941
2026-01-21 23:13:46.02	151.69	10.68	-30.1	-32.9	11.4	8.12e-04	0	45	0	1116733440	20	4931
2026-01-21 23:13:47.02	151.79	10.61	-30.3	-33.5	10.9	1.73e-03	0	45	0	1117782016	20	5169
2026-01-21 23:13:48.03	151.90	10.53	-30.2	-33.2	11.2	1.55e-03	0	44	0	1119879168	20	5047
2026-01-21 23:13:49.03	152.00	10.46	-30.3	-33.4	11.0	1.28e-03	0	44	0	1121976320	20	5155
2026-01-21 23:13:50.03	152.10	10.38	-30.4	-33.8	10.7	2.95e-03	0	44	0	1124073472	20	5304
2026-01-21 23:13:51.04	152.20	10.31	-30.3	-33.6	10.7	2.55e-03	0	44	0	1125122048	20	5240
2026-01-21 23:13:52.04	152.30	10.23	-30.5	-34.2	10.3	3.76e-03	0	44	0	1127219200	20	5513
2026-01-21 23:13:53.04	152.40	10.16	-30.3	-33.7	10.6	4.63e-03	0	44	0	1129316352	20	5331
2026-01-21 23:13:54.05	152.49	10.08	-30.5	-34.3	10.2	4.98e-03	0	44	0	1131413504	20	5591
2026-01-21 23:13:55.05	152.59	10.01	-30.4	-34.2	10.2	5.56e-03	0	44	0	1133510656	20	5550
2026-01-21 23:13:56.06	152.69	9.94	-30.5	-34.4	10.0	6.41e-03	0	44	0	1134559232	20	5659
2026-01-21 23:13:57.06	152.79	9.86	-30.4	-33.9	10.4	4.47e-03	0	44	0	1136656384	20	5443
2026-01-21 23:13:58.06	152.88	9.79	-30.3	-33.5	10.7	4.46e-03	0	44	0	1138753536	20	5258
2026-01-21 23:13:59.07	152.98	9.72	-30.1	-33.0	11.1	2.17e-03	0	44	0	1140850688	20	5032
2026-01-21 23:14:00.07	153.08	9.64	-30.2	-33.2	11.0	1.82e-03	0	44	0	1142947840	20	5085
2026-01-21 23:14:01.07	153.17	9.57	-30.1	-32.9	11.1	1.69e-03	0	44	0	1143996416	20	4972
2026-01-21 23:14:02.07	153.27	9.50	-30.1	-32.9	11.2	1.08e-03	0	45	0	1146093568	20	4931
2026-01-21 23:14:03.08	153.36	9.43	-30.3	-33.4	10.9	1.68e-03	0	44	0	1148190720	20	5134
2026-01-21 23:14:04.08	153.45	9.35	-30.1	-32.6	11.5	9.92e-04	0	44	0	1150287872	20	4843
2026-01-21 23:14:05.09	153.55	9.28	-29.9	-32.5	11.6	6.83e-04	0	44	0	1152385024	20	4818
2026-01-21 23:14:06.09	153.64	9.21	-29.8	-32.2	11.6	7.57e-04	0	44	0	1153433600	20	4716
2026-01-21 23:14:07.09	153.73	9.14	-29.8	-32.5	11.9	2.67e-03	0	45	0	1155530752	19	4914
2026-01-21 23:14:08.09	153.83	9.07	-30.0	-33.1	11.5	6.19e-04	0	44	0	1157627904	19	5150
2026-01-21 23:14:09.09	153.92	8.99	-29.8	-32.0	11.9	6.60e-04	0	45	0	1159725056	20	4638
2026-01-21 23:14:10.08	154.01	8.92	-30.0	-32.5	11.5	5.96e-04	0	45	0	1161822208	20	4807
2026-01-21 23:14:11.09	154.10	8.85	-30.0	-32.5	11.5	1.60e-03	0	44	0	1162870784	20	4799
2026-01-21 23:14:12.09	154.19	8.78	-30.1	-32.8	11.4	7.22e-04	0	45	0	1164967936	20	4895
2026-01-21 23:14:13.09	154.28	8.71	-30.3	-33.3	10.9	1.33e-03	0	44	0	1167065088	20	5100
2026-01-21 23:14:14.09	154.37	8.64	-30.2	-32.9	11.2	3.71e-03	0	44	0	1169162240	20	4951
2026-01-21 23:14:15.09	154.46	8.57	-30.0	-32.5	11.5	7.76e-04	0	45	0	1170210816	20	4817
2026-01-21 23:14:16.09	154.54	8.50	-30.1	-32.9	11.3	9.51e-04	0	45	0	1172307968	20	4947
2026-01-21 23:14:17.09	154.63	8.43	-30.0	-32.6	11.4	1.17e-03	0	44	0	1174405120	20	4879
2026-01-21 23:14:18.09	154.72	8.36	-30.0	-32.5	11.4	8.77e-04	0	44	0	1176502272	20	4847
2026-01-21 23:14:19.09	154.81	8.29	-30.0	-32.9	11.2	1.33e-03	0	45	0	1178599424	20	4987
2026-01-21 23:14:20.08	154.89	8.22	-29.9	-32.6	11.3	1.23e-03	0	45	0	1179648000	20	4912
2026-01-21 23:14:21.09	154.98	8.15	-29.9	-32.4	11.4	1.09e-03	0	45	0	1181745152	20	4813
2026-01-21 23:14:22.09	155.07	8.08	-29.9	-32.6	11.3	1.74e-03	0	45	0	1183842304	20	4913
2026-01-21 23:14:23.09	155.15	8.01	-29.9	-32.5	11.4	1.05e-03	0	45	0	1185939456	20	4851
2026-01-21 23:14:24.10	155.24	7.94	-30.2	-33.2	11.0	1.15e-03	0	44	0	1188036608	20	5087
2026-01-21 23:14:25.10	155.32	7.87	-30.1	-32.8	11.3	3.50e-03	0	44	0	1189085184	20	4936
2026-01-21 23:14:26.11	155.41	7.80	-30.2	-33.1	11.1	1.25e-03	0	45	0	1191182336	20	5012
2026-01-21 23:14:27.11	155.49	7.73	-30.5	-33.8	10.6	2.31e-03	0	45	0	1193279488	20	5283
2026-01-21 23:14:28.11	155.58	7.66	-30.4	-33.4	11.0	4.48e-03	0	44	0	1195376640	20	5091
2026-01-21 23:14:29.11	155.66	7.59	-30.4	-33.3	11.1	3.55e-03	0	45	0	1196425216	20	5038
2026-01-21 23:14:30.11	155.74	7.52	-30.5	-33.3	10.7	2.39e-03	0	44	0	1198522368	21	4939
2026-01-21 23:14:31.12	155.83	7.45	-30.3	-33.0	11.3	3.54e-03	0	45	0	1200619520	20	4908
2026-01-21 23:14:32.12	155.91	7.39	-30.5	-33.5	10.9	3.59e-03	0	45	0	1202716672	20	5133
2026-01-21 23:14:33.12	155.99	7.32	-30.5	-33.4	10.7	2.77e-03	0	44	0	1204813824	21	4982
2026-01-21 23:14:34.13	156.07	7.25	-30.4	-33.5	10.8	2.87e-03	0	44	0	1206910976	20	5137
2026-01-21 23:14:35.13	156.15	7.18	-30.5	-33.9	10.5	5.56e-03	0	45	0	1207959552	20	5329
2026-01-21 23:14:36.14	156.24	7.11	-30.6	-33.6	10.5	3.43e-03	0	45	0	1210056704	21	5100
2026-01-21 23:14:37.14	156.32	7.05	-31.6	-44.7	3.7	1.44e+00	0	45	104	1211105280	24	16327

#Closed at: 2026-01-21 23:14:38
#Recorded file [1211 MB]: D:/data/31010_260122_020350.dat