passes_logs/2026/01/21/R2M6_AANII_01/R2M6_AANII_01__20260121_102544_NOAA_21_JPSS-2_rec.log

#Pass ID: 20260121_102544_NOAA 21 (JPSS-2)
#Satellite: NOAA 21 (JPSS-2)
#Configuration: NOAA 21
#almurnet v.1.7.20240730
#Start time: 2026-01-21 10:25:45

#Version: 2.2.20231116
#Station: R2M6_AANII_01
#Location: 30.233357 lon 59.946436 lat
#TLE: 1 54234U 22150A   26020.29910383  .00000141  00000+0  87571-4 0  9990
#TLE: 2 54234  98.7506 321.1348 0000615 250.8428 109.2682 14.19536295165564

#Time	Az	El	Level	Level2	SNR	BER	BlckErr	Temp	State	Recorded	gain1	gain2
2026-01-21 10:25:45.40	163.55	7.04	-31.7	-38.6	4.2	1.45e+00	0	42	0	0	24	7963
2026-01-21 10:25:46.39	163.56	7.12	-30.8	-35.5	4.6	1.42e+00	0	42	104	0	23	6157
2026-01-21 10:25:47.40	163.57	7.20	-30.6	-34.3	8.7	4.50e-02	0	42	0	0	22	5533
2026-01-21 10:25:48.40	163.58	7.28	-30.3	-33.5	9.3	2.28e-02	0	42	0	3145728	22	5202
2026-01-21 10:25:49.41	163.59	7.36	-30.2	-33.7	9.5	1.60e-02	0	42	0	6291456	21	5362
2026-01-21 10:25:50.42	163.60	7.43	-30.1	-33.2	9.8	1.13e-02	0	42	0	9437184	21	5169
2026-01-21 10:25:51.43	163.61	7.51	-29.9	-32.8	10.1	7.32e-03	0	42	0	12582912	21	5014
2026-01-21 10:25:52.42	163.62	7.59	-29.9	-32.7	10.2	6.91e-03	0	42	0	15728640	21	4978
2026-01-21 10:25:53.42	163.63	7.67	-29.8	-32.6	10.3	6.39e-03	0	42	0	18874368	21	4932
2026-01-21 10:25:54.42	163.64	7.75	-29.9	-32.8	10.1	6.38e-03	0	42	0	22020096	21	5008
2026-01-21 10:25:55.42	163.66	7.83	-29.8	-32.6	10.3	5.16e-03	0	42	0	24117248	21	4922
2026-01-21 10:25:56.42	163.67	7.91	-29.9	-32.6	10.3	5.07e-03	0	42	0	27262976	21	4938
2026-01-21 10:25:57.42	163.68	7.99	-29.9	-32.6	10.3	5.48e-03	0	42	0	30408704	21	4943
2026-01-21 10:25:58.43	163.69	8.07	-29.7	-32.6	10.6	4.67e-03	0	42	0	33554432	20	5047
2026-01-21 10:25:59.43	163.70	8.15	-29.6	-32.5	10.7	3.01e-03	0	42	0	36700160	20	4982
2026-01-21 10:26:00.43	163.71	8.23	-29.6	-32.4	10.8	2.89e-03	0	42	0	39845888	20	4949
2026-01-21 10:26:01.43	163.72	8.32	-29.5	-32.0	11.0	2.07e-03	0	42	0	42991616	20	4816
2026-01-21 10:26:02.43	163.74	8.40	-29.2	-31.8	11.5	9.02e-04	0	42	0	46137344	19	4850
2026-01-21 10:26:03.43	163.75	8.48	-29.1	-31.5	11.7	5.63e-04	0	42	0	49283072	19	4743
2026-01-21 10:26:04.43	163.76	8.56	-29.4	-32.3	11.3	8.55e-04	0	42	0	52428800	19	5002
2026-01-21 10:26:05.43	163.77	8.64	-29.5	-32.5	11.1	1.89e-03	0	42	0	55574528	19	5094
2026-01-21 10:26:06.43	163.78	8.73	-29.4	-32.2	11.3	1.13e-03	0	42	0	58720256	19	4993
2026-01-21 10:26:07.43	163.79	8.81	-29.4	-32.3	11.3	1.07e-03	0	42	0	61865984	19	5004
2026-01-21 10:26:08.43	163.81	8.89	-29.5	-32.4	11.2	1.38e-03	0	42	0	65011712	19	5047
2026-01-21 10:26:09.44	163.82	8.98	-29.5	-32.4	11.2	1.33e-03	0	42	0	68157440	19	5061
2026-01-21 10:26:10.43	163.83	9.06	-29.5	-32.6	11.1	1.40e-03	0	42	0	71303168	19	5134
2026-01-21 10:26:11.44	163.84	9.14	-29.6	-32.9	10.9	2.31e-03	0	42	0	74448896	19	5234
2026-01-21 10:26:12.44	163.85	9.23	-29.6	-32.8	11.0	1.87e-03	0	42	0	77594624	19	5201
2026-01-21 10:26:13.43	163.87	9.31	-29.8	-33.3	10.7	2.92e-03	0	42	0	80740352	19	5381
2026-01-21 10:26:14.44	163.88	9.40	-29.9	-33.6	10.5	4.05e-03	0	42	0	83886080	19	5483
2026-01-21 10:26:15.43	163.89	9.48	-29.8	-33.4	10.7	2.89e-03	0	42	0	87031808	19	5406
2026-01-21 10:26:16.44	163.90	9.57	-29.9	-33.3	10.3	4.17e-03	0	42	0	90177536	20	5290
2026-01-21 10:26:17.44	163.91	9.65	-30.2	-34.0	9.8	8.37e-03	0	42	0	93323264	20	5590
2026-01-21 10:26:18.44	163.93	9.74	-30.4	-34.5	9.5	1.60e-02	0	42	0	96468992	20	5777
2026-01-21 10:26:19.45	163.94	9.83	-30.3	-34.2	9.7	1.20e-02	0	42	0	99614720	20	5654
2026-01-21 10:26:20.45	163.95	9.91	-30.3	-34.1	9.8	1.02e-02	0	42	0	102760448	20	5586
2026-01-21 10:26:21.45	163.96	10.00	-30.2	-34.0	9.9	9.93e-03	0	42	0	105906176	20	5553
2026-01-21 10:26:22.45	163.98	10.09	-30.3	-34.1	9.8	9.55e-03	0	42	0	109051904	20	5602
2026-01-21 10:26:23.45	163.99	10.18	-30.3	-34.3	9.7	1.17e-02	0	42	0	112197632	20	5673
2026-01-21 10:26:24.45	164.00	10.26	-30.3	-34.2	9.8	1.06e-02	0	42	0	115343360	20	5636
2026-01-21 10:26:25.46	164.01	10.35	-30.2	-33.9	9.9	8.70e-03	0	42	0	118489088	20	5517
2026-01-21 10:26:26.46	164.03	10.44	-29.9	-33.1	10.5	5.84e-03	0	42	0	121634816	20	5196
2026-01-21 10:26:27.46	164.04	10.53	-29.5	-32.1	11.2	2.13e-03	0	42	0	124780544	20	4826
2026-01-21 10:26:28.46	164.05	10.62	-29.3	-31.8	11.7	6.48e-04	0	42	0	127926272	19	4841
2026-01-21 10:26:29.46	164.07	10.71	-29.0	-31.1	12.2	2.93e-04	0	42	0	131072000	19	4588
2026-01-21 10:26:30.47	164.08	10.80	-28.7	-31.0	12.6	1.12e-04	0	42	0	134217728	18	4695
2026-01-21 10:26:31.47	164.09	10.89	-28.6	-30.6	12.8	5.64e-05	0	42	0	137363456	18	4543
2026-01-21 10:26:32.48	164.11	10.98	-28.6	-30.8	12.7	6.25e-05	0	42	0	140509184	18	4611
2026-01-21 10:26:33.48	164.12	11.07	-28.7	-30.9	12.6	1.03e-04	0	42	0	143654912	18	4648
2026-01-21 10:26:34.48	164.13	11.16	-28.6	-30.6	12.9	6.48e-05	0	42	0	146800640	18	4535
2026-01-21 10:26:35.47	164.15	11.25	-28.5	-30.3	13.1	3.35e-05	0	42	0	149946368	18	4446
2026-01-21 10:26:36.47	164.16	11.35	-28.5	-30.4	13.1	2.89e-05	0	42	0	153092096	18	4458
2026-01-21 10:26:37.47	164.17	11.44	-28.5	-30.2	13.2	3.28e-05	0	42	0	156237824	18	4401
2026-01-21 10:26:38.47	164.19	11.53	-28.5	-30.3	13.1	2.13e-05	0	42	0	159383552	18	4435
2026-01-21 10:26:39.47	164.20	11.62	-28.6	-30.5	13.1	4.19e-05	0	42	0	162529280	18	4474
2026-01-21 10:26:40.46	164.21	11.72	-28.3	-29.9	13.4	2.05e-05	0	42	0	165675008	18	4308
2026-01-21 10:26:41.46	164.23	11.81	-28.1	-29.8	13.7	1.06e-05	0	42	0	168820736	17	4399
2026-01-21 10:26:42.45	164.24	11.90	-27.9	-29.5	13.9	1.14e-05	0	42	0	171966464	17	4289
2026-01-21 10:26:43.45	164.25	12.00	-27.9	-29.2	14.1	3.80e-06	0	42	0	175112192	17	4225
2026-01-21 10:26:44.45	164.27	12.09	-27.8	-29.1	14.1	1.50e-06	0	42	0	178257920	17	4198
2026-01-21 10:26:45.46	164.28	12.19	-27.8	-29.1	14.2	2.20e-06	0	42	0	181403648	17	4187
2026-01-21 10:26:46.46	164.30	12.28	-27.8	-29.5	14.2	0.00e+00	0	42	0	184549376	16	4403
2026-01-21 10:26:47.47	164.31	12.38	-27.7	-29.5	14.3	0.00e+00	0	42	0	187695104	16	4388
2026-01-21 10:26:48.47	164.32	12.48	-27.8	-29.6	14.2	7.00e-07	0	42	0	190840832	16	4430
2026-01-21 10:26:49.46	164.34	12.57	-27.8	-29.6	14.2	1.50e-06	0	42	0	193986560	16	4431
2026-01-21 10:26:50.46	164.35	12.67	-27.7	-29.5	14.3	1.50e-06	0	42	0	197132288	16	4392
2026-01-21 10:26:51.46	164.37	12.77	-27.8	-29.5	14.3	1.50e-06	0	42	0	200278016	16	4392
2026-01-21 10:26:52.45	164.38	12.86	-27.8	-29.6	14.3	1.50e-06	0	42	0	203423744	16	4409
2026-01-21 10:26:53.46	164.40	12.96	-27.8	-29.5	14.3	0.00e+00	0	42	0	205520896	16	4387
2026-01-21 10:26:54.46	164.41	13.06	-27.8	-29.5	14.3	7.00e-07	0	42	0	208666624	16	4397
2026-01-21 10:26:55.45	164.43	13.16	-27.8	-29.5	14.3	3.00e-06	0	42	0	211812352	16	4403
2026-01-21 10:26:56.46	164.44	13.26	-27.8	-29.6	14.3	1.50e-06	0	42	0	214958080	16	4405
2026-01-21 10:26:57.46	164.46	13.36	-27.8	-29.6	14.3	7.00e-07	0	42	0	218103808	16	4402
2026-01-21 10:26:58.46	164.47	13.46	-27.8	-29.4	14.4	0.00e+00	0	42	0	221249536	16	4359
2026-01-21 10:26:59.47	164.49	13.56	-27.7	-29.4	14.4	0.00e+00	0	42	0	224395264	16	4351
2026-01-21 10:27:00.46	164.50	13.66	-27.8	-29.6	14.3	1.50e-06	0	42	0	227540992	16	4416
2026-01-21 10:27:01.47	164.52	13.76	-27.7	-29.3	14.4	1.50e-06	0	42	0	230686720	16	4339
2026-01-21 10:27:02.47	164.53	13.86	-27.8	-29.5	14.4	7.00e-07	0	42	0	233832448	16	4385
2026-01-21 10:27:03.48	164.55	13.97	-27.8	-29.6	14.3	1.50e-06	0	42	0	236978176	16	4402
2026-01-21 10:27:04.48	164.56	14.07	-27.9	-29.7	14.2	2.20e-06	0	42	0	240123904	16	4442
2026-01-21 10:27:05.48	164.58	14.17	-27.8	-29.5	14.4	0.00e+00	0	42	0	243269632	16	4371
2026-01-21 10:27:06.48	164.59	14.28	-27.7	-29.3	14.5	2.20e-06	0	42	0	246415360	16	4331
2026-01-21 10:27:07.47	164.61	14.38	-27.8	-29.4	14.4	3.20e-05	0	42	0	249561088	16	4339
2026-01-21 10:27:08.48	164.63	14.48	-27.7	-29.2	14.5	6.10e-06	0	42	0	252706816	16	4298
2026-01-21 10:27:09.48	164.64	14.59	-27.7	-29.1	14.6	0.00e+00	0	42	0	255852544	16	4259
2026-01-21 10:27:10.47	164.66	14.69	-27.7	-29.1	14.7	1.50e-06	0	42	0	258998272	16	4249
2026-01-21 10:27:11.47	164.67	14.80	-27.7	-29.2	14.6	0.00e+00	0	42	0	262144000	16	4264
2026-01-21 10:27:12.48	164.69	14.91	-27.7	-29.2	14.6	7.00e-07	0	42	0	265289728	16	4278
2026-01-21 10:27:13.47	164.71	15.01	-27.8	-29.5	14.5	9.90e-06	0	42	0	268435456	16	4352
2026-01-21 10:27:14.47	164.72	15.12	-27.9	-29.7	14.3	0.00e+00	0	42	0	271581184	16	4424
2026-01-21 10:27:15.46	164.74	15.23	-27.9	-29.6	14.4	0.00e+00	0	42	0	274726912	16	4374
2026-01-21 10:27:16.46	164.76	15.33	-27.9	-29.7	14.3	9.10e-06	0	42	0	277872640	16	4428
2026-01-21 10:27:17.46	164.77	15.44	-28.0	-29.8	14.3	7.00e-07	0	42	0	281018368	16	4442
2026-01-21 10:27:18.47	164.79	15.55	-27.9	-29.7	14.4	0.00e+00	0	42	0	284164096	16	4421
2026-01-21 10:27:19.47	164.81	15.66	-27.9	-29.7	14.4	1.50e-06	0	43	0	287309824	16	4415
2026-01-21 10:27:20.47	164.82	15.77	-27.9	-29.7	14.4	1.50e-06	0	42	0	290455552	16	4423
2026-01-21 10:27:21.48	164.84	15.88	-27.8	-29.5	14.4	7.00e-07	0	42	0	293601280	16	4367
2026-01-21 10:27:22.48	164.86	15.99	-27.7	-29.2	14.7	3.80e-06	0	42	0	296747008	16	4286
2026-01-21 10:27:23.48	164.87	16.11	-27.6	-28.9	14.8	0.00e+00	0	42	0	299892736	16	4224
2026-01-21 10:27:24.49	164.89	16.22	-27.6	-29.1	14.7	0.00e+00	0	42	0	303038464	16	4263
2026-01-21 10:27:25.49	164.91	16.33	-27.7	-29.3	14.6	5.30e-06	0	42	0	306184192	16	4309
2026-01-21 10:27:26.49	164.93	16.45	-27.6	-28.9	14.8	7.00e-07	0	42	0	309329920	16	4221
2026-01-21 10:27:27.49	164.95	16.56	-27.6	-28.9	14.8	0.00e+00	0	42	0	312475648	16	4211
2026-01-21 10:27:28.49	164.96	16.67	-27.6	-29.0	14.8	0.00e+00	0	42	0	315621376	16	4239
2026-01-21 10:27:29.48	164.98	16.79	-27.6	-29.0	14.8	7.00e-07	0	42	0	318767104	16	4223
2026-01-21 10:27:30.48	165.00	16.90	-27.7	-29.1	14.8	7.00e-07	0	42	0	321912832	16	4244
2026-01-21 10:27:31.48	165.02	17.02	-27.6	-29.0	14.8	0.00e+00	0	42	0	325058560	16	4223
2026-01-21 10:27:32.48	165.04	17.13	-27.7	-29.2	14.7	0.00e+00	0	42	0	328204288	16	4283
2026-01-21 10:27:33.47	165.05	17.25	-27.8	-29.5	14.6	0.00e+00	0	42	0	331350016	16	4345
2026-01-21 10:27:34.48	165.07	17.37	-27.9	-29.5	14.6	0.00e+00	0	42	0	334495744	16	4356
2026-01-21 10:27:35.49	165.09	17.49	-27.8	-29.4	14.6	0.00e+00	0	42	0	337641472	16	4318
2026-01-21 10:27:36.49	165.11	17.61	-27.8	-29.5	14.6	0.00e+00	0	42	0	340787200	16	4346
2026-01-21 10:27:37.48	165.13	17.72	-27.9	-29.6	14.5	0.00e+00	0	42	0	343932928	16	4372
2026-01-21 10:27:38.49	165.15	17.85	-27.9	-29.6	14.5	0.00e+00	0	42	0	347078656	16	4392
2026-01-21 10:27:39.49	165.17	17.97	-27.8	-29.4	14.6	0.00e+00	0	42	0	350224384	16	4336
2026-01-21 10:27:40.49	165.19	18.09	-27.8	-29.4	14.7	0.00e+00	0	42	0	353370112	16	4325
2026-01-21 10:27:41.48	165.21	18.21	-27.8	-29.4	14.7	0.00e+00	0	42	0	356515840	16	4324
2026-01-21 10:27:42.48	165.22	18.33	-27.9	-29.6	14.6	0.00e+00	0	42	0	359661568	16	4382
2026-01-21 10:27:43.49	165.24	18.45	-27.9	-29.6	14.5	7.00e-07	0	42	0	362807296	16	4383
2026-01-21 10:27:44.49	165.26	18.58	-27.8	-29.3	14.8	0.00e+00	0	42	0	364904448	16	4283
2026-01-21 10:27:45.50	165.28	18.70	-27.7	-29.2	14.8	7.00e-07	0	42	0	369098752	16	4269
2026-01-21 10:27:46.50	165.30	18.83	-27.7	-29.1	14.9	0.00e+00	0	42	0	371195904	16	4222
2026-01-21 10:27:47.50	165.32	18.95	-27.8	-29.3	14.8	0.00e+00	0	42	0	375390208	16	4282
2026-01-21 10:27:48.51	165.35	19.08	-27.8	-29.4	14.7	7.00e-07	0	42	0	378535936	16	4324
2026-01-21 10:27:49.50	165.37	19.20	-27.8	-29.3	14.7	0.00e+00	0	42	0	381681664	16	4299
2026-01-21 10:27:50.50	165.39	19.33	-27.8	-29.3	14.8	0.00e+00	0	42	0	384827392	16	4298
2026-01-21 10:27:51.50	165.41	19.46	-27.8	-29.3	14.8	0.00e+00	0	42	0	387973120	16	4291
2026-01-21 10:27:52.51	165.43	19.59	-27.9	-29.5	14.7	0.00e+00	0	42	0	390070272	16	4339
2026-01-21 10:27:53.50	165.45	19.72	-27.8	-29.5	14.7	0.00e+00	0	42	0	393216000	16	4332
2026-01-21 10:27:54.51	165.47	19.85	-27.9	-29.5	14.7	0.00e+00	0	42	0	396361728	16	4347
2026-01-21 10:27:55.51	165.49	19.98	-27.8	-29.4	14.7	0.00e+00	0	43	0	399507456	16	4321
2026-01-21 10:27:56.51	165.51	20.11	-27.7	-29.0	14.9	0.00e+00	0	42	0	402653184	16	4222
2026-01-21 10:27:57.51	165.54	20.24	-27.5	-28.8	15.1	0.00e+00	0	42	0	405798912	16	4159
2026-01-21 10:27:58.51	165.56	20.37	-27.6	-28.8	15.1	0.00e+00	0	43	0	408944640	16	4170
2026-01-21 10:27:59.52	165.58	20.51	-27.5	-28.7	15.2	0.00e+00	0	43	0	412090368	16	4120
2026-01-21 10:28:00.52	165.60	20.64	-27.5	-28.6	15.2	0.00e+00	0	42	0	415236096	16	4114
2026-01-21 10:28:01.52	165.62	20.78	-27.5	-28.7	15.1	0.00e+00	0	43	0	418381824	16	4148
2026-01-21 10:28:02.52	165.65	20.91	-27.1	-28.3	15.5	0.00e+00	0	42	0	421527552	15	4150
2026-01-21 10:28:03.52	165.67	21.05	-26.9	-27.8	15.7	0.00e+00	0	42	0	424673280	15	4021
2026-01-21 10:28:04.52	165.69	21.18	-26.7	-28.0	15.9	0.00e+00	0	42	0	427819008	14	4179
2026-01-21 10:28:05.53	165.72	21.32	-26.7	-27.9	16.0	0.00e+00	0	42	0	430964736	14	4136
2026-01-21 10:28:06.53	165.74	21.46	-26.6	-27.8	16.0	0.00e+00	0	42	0	434110464	14	4113
2026-01-21 10:28:07.53	165.76	21.60	-26.6	-27.8	16.1	0.00e+00	0	43	0	437256192	14	4113
2026-01-21 10:28:08.54	165.79	21.74	-26.6	-27.8	16.1	0.00e+00	0	42	0	440401920	14	4119
2026-01-21 10:28:09.54	165.81	21.88	-26.8	-28.2	15.8	0.00e+00	0	42	0	443547648	14	4226
2026-01-21 10:28:10.55	165.83	22.03	-26.7	-28.0	15.9	0.00e+00	0	42	0	446693376	14	4175
2026-01-21 10:28:11.55	165.86	22.17	-26.5	-27.5	16.2	0.00e+00	0	42	0	449839104	14	4043
2026-01-21 10:28:12.56	165.88	22.31	-26.4	-27.2	16.4	7.00e-07	0	43	0	452984832	14	3964
2026-01-21 10:28:13.57	165.91	22.46	-26.4	-27.3	16.4	0.00e+00	0	43	0	456130560	14	3978
2026-01-21 10:28:14.57	165.93	22.60	-26.4	-27.1	16.5	0.00e+00	0	42	0	459276288	14	3941
2026-01-21 10:28:15.57	165.96	22.75	-26.3	-27.1	16.5	1.50e-06	0	42	0	462422016	14	3921
2026-01-21 10:28:16.57	165.98	22.89	-26.5	-27.3	16.3	0.00e+00	0	42	0	465567744	14	3989
2026-01-21 10:28:17.57	166.01	23.04	-26.5	-27.4	16.3	0.00e+00	0	42	0	468713472	14	4011
2026-01-21 10:28:18.57	166.03	23.19	-26.3	-27.0	16.6	6.80e-06	0	42	0	471859200	14	3901
2026-01-21 10:28:19.56	166.06	23.34	-26.2	-27.3	16.7	0.00e+00	0	42	0	475004928	13	4072
2026-01-21 10:28:20.56	166.08	23.49	-26.2	-27.2	16.7	0.00e+00	0	43	0	478150656	13	4047
2026-01-21 10:28:21.56	166.11	23.64	-26.2	-27.2	16.7	8.30e-06	0	43	0	481296384	13	4063
2026-01-21 10:28:22.56	166.14	23.79	-26.3	-27.4	16.6	0.00e+00	0	43	0	484442112	13	4109
2026-01-21 10:28:23.57	166.16	23.94	-26.3	-27.5	16.5	0.00e+00	0	43	0	487587840	13	4135
2026-01-21 10:28:24.57	166.19	24.10	-26.3	-27.6	16.5	7.60e-06	0	42	0	490733568	13	4147
2026-01-21 10:28:25.57	166.22	24.25	-26.4	-27.7	16.4	0.00e+00	0	42	0	493879296	13	4193
2026-01-21 10:28:26.58	166.24	24.41	-26.5	-27.8	16.4	0.00e+00	0	42	0	497025024	13	4222
2026-01-21 10:28:27.58	166.27	24.56	-26.5	-28.0	16.3	9.90e-06	0	43	0	500170752	13	4264
2026-01-21 10:28:28.58	166.30	24.72	-26.5	-28.0	16.3	0.00e+00	0	42	0	503316480	13	4254
2026-01-21 10:28:29.58	166.33	24.88	-26.7	-28.3	16.2	0.00e+00	0	42	0	506462208	13	4340
2026-01-21 10:28:30.58	166.36	25.04	-26.8	-28.6	16.0	0.00e+00	0	42	0	509607936	13	4425
2026-01-21 10:28:31.57	166.38	25.19	-26.8	-28.6	16.0	0.00e+00	0	42	0	512753664	13	4432
2026-01-21 10:28:32.58	166.41	25.36	-26.9	-28.8	15.9	0.00e+00	0	43	0	515899392	13	4487
2026-01-21 10:28:33.58	166.44	25.52	-27.0	-28.9	15.8	0.00e+00	0	42	0	519045120	13	4527
2026-01-21 10:28:34.58	166.47	25.68	-27.5	-29.1	15.7	0.00e+00	0	42	0	522190848	14	4345
2026-01-21 10:28:35.58	166.50	25.84	-27.1	-28.9	15.6	0.00e+00	0	43	0	525336576	14	4394
2026-01-21 10:28:36.58	166.53	26.01	-27.2	-29.1	15.5	0.00e+00	0	42	0	528482304	14	4449
2026-01-21 10:28:37.58	166.56	26.17	-27.3	-29.3	15.4	0.00e+00	0	42	0	531628032	14	4508
2026-01-21 10:28:38.58	166.59	26.34	-27.4	-29.4	15.3	0.00e+00	0	43	0	534773760	14	4550
2026-01-21 10:28:39.58	166.62	26.51	-27.5	-29.7	15.2	0.00e+00	0	43	0	537919488	14	4640
2026-01-21 10:28:40.58	166.65	26.68	-27.8	-29.8	14.8	0.00e+00	0	42	0	541065216	15	4546
2026-01-21 10:28:41.57	166.69	26.84	-27.8	-30.0	14.7	7.00e-07	0	42	0	544210944	15	4618
2026-01-21 10:28:42.57	166.72	27.02	-27.8	-30.0	14.7	0.00e+00	0	42	0	547356672	15	4615
2026-01-21 10:28:43.57	166.75	27.19	-28.2	-30.2	14.5	7.00e-07	0	42	0	550502400	16	4559
2026-01-21 10:28:44.57	166.78	27.36	-28.0	-29.7	14.8	7.00e-07	0	42	0	553648128	16	4412
2026-01-21 10:28:45.57	166.81	27.53	-27.8	-29.4	15.0	7.00e-07	0	42	0	556793856	16	4307
2026-01-21 10:28:46.57	166.85	27.71	-27.8	-29.3	15.0	7.00e-07	0	42	0	559939584	16	4300
2026-01-21 10:28:47.57	166.88	27.89	-27.8	-29.4	15.0	0.00e+00	0	42	0	563085312	16	4323
2026-01-21 10:28:48.57	166.91	28.06	-27.9	-29.5	14.9	0.00e+00	0	42	0	566231040	16	4353
2026-01-21 10:28:49.57	166.95	28.24	-27.9	-29.6	14.9	0.00e+00	0	42	0	569376768	16	4364
2026-01-21 10:28:50.57	166.98	28.42	-27.7	-29.1	15.1	0.00e+00	0	42	0	571473920	16	4240
2026-01-21 10:28:51.56	167.02	28.60	-27.8	-29.3	15.0	0.00e+00	0	42	0	574619648	16	4279
2026-01-21 10:28:52.57	167.05	28.78	-27.7	-29.1	15.2	0.00e+00	0	42	0	577765376	16	4230
2026-01-21 10:28:53.57	167.09	28.97	-27.6	-28.9	15.3	0.00e+00	0	42	0	580911104	16	4172
2026-01-21 10:28:54.57	167.12	29.15	-27.7	-29.0	15.3	0.00e+00	0	42	0	584056832	16	4188
2026-01-21 10:28:55.56	167.16	29.33	-27.6	-28.9	15.3	0.00e+00	0	42	0	587202560	16	4169
2026-01-21 10:28:56.57	167.19	29.52	-27.6	-28.8	15.4	0.00e+00	0	42	0	590348288	16	4135
2026-01-21 10:28:57.58	167.23	29.71	-27.7	-29.0	15.2	0.00e+00	0	42	0	593494016	16	4204
2026-01-21 10:28:58.58	167.27	29.90	-27.7	-29.1	15.2	0.00e+00	0	42	0	596639744	16	4213
2026-01-21 10:28:59.58	167.31	30.09	-27.6	-28.7	15.4	0.00e+00	0	42	0	599785472	16	4124
2026-01-21 10:29:00.58	167.34	30.28	-27.4	-28.4	15.6	0.00e+00	0	42	0	602931200	16	4037
2026-01-21 10:29:01.58	167.38	30.48	-27.4	-28.3	15.6	0.00e+00	0	42	0	606076928	16	4019
2026-01-21 10:29:02.59	167.42	30.67	-27.4	-28.4	15.6	0.00e+00	0	42	0	609222656	16	4023
2026-01-21 10:29:03.58	167.46	30.87	-27.4	-28.4	15.6	0.00e+00	0	42	0	612368384	16	4031
2026-01-21 10:29:04.58	167.50	31.06	-27.4	-28.5	15.6	0.00e+00	0	42	0	615514112	16	4049
2026-01-21 10:29:05.58	167.54	31.26	-27.4	-28.4	15.6	0.00e+00	0	42	0	618659840	16	4036
2026-01-21 10:29:06.58	167.58	31.46	-27.3	-28.1	15.8	0.00e+00	0	42	0	621805568	16	3955
2026-01-21 10:29:07.57	167.62	31.66	-27.3	-28.1	15.8	0.00e+00	0	42	0	624951296	16	3958
2026-01-21 10:29:08.58	167.66	31.87	-27.2	-28.3	15.8	0.00e+00	0	42	0	628097024	15	4124
2026-01-21 10:29:09.58	167.70	32.07	-27.2	-28.4	15.7	0.00e+00	0	42	0	631242752	15	4138
2026-01-21 10:29:10.58	167.75	32.27	-27.1	-28.3	15.8	0.00e+00	0	42	0	634388480	15	4104
2026-01-21 10:29:11.58	167.79	32.48	-27.1	-28.2	15.9	0.00e+00	0	42	0	637534208	15	4078
2026-01-21 10:29:12.58	167.83	32.69	-27.1	-28.3	15.8	0.00e+00	0	42	0	640679936	15	4103
2026-01-21 10:29:13.58	167.88	32.90	-27.2	-28.5	15.7	0.00e+00	0	42	0	643825664	15	4170
2026-01-21 10:29:14.59	167.92	33.11	-27.3	-28.7	15.6	6.80e-06	0	42	0	646971392	15	4209
2026-01-21 10:29:15.60	167.97	33.33	-27.2	-28.5	15.7	0.00e+00	0	42	0	650117120	15	4175
2026-01-21 10:29:16.61	168.01	33.54	-27.4	-28.8	15.5	0.00e+00	0	42	0	653262848	15	4252
2026-01-21 10:29:17.61	168.06	33.76	-27.5	-29.1	15.4	0.00e+00	0	42	0	656408576	15	4326
2026-01-21 10:29:18.62	168.11	33.98	-27.5	-29.2	15.3	0.00e+00	0	42	0	659554304	15	4373
2026-01-21 10:29:19.62	168.15	34.19	-27.7	-29.7	15.0	0.00e+00	0	42	0	662700032	15	4511
2026-01-21 10:29:20.63	168.20	34.42	-27.8	-29.9	14.9	5.30e-06	0	42	0	665845760	15	4564
2026-01-21 10:29:21.63	168.25	34.64	-28.0	-30.2	14.8	0.00e+00	0	42	0	668991488	15	4662
2026-01-21 10:29:22.62	168.30	34.86	-28.2	-30.2	14.7	0.00e+00	0	42	0	672137216	16	4520
2026-01-21 10:29:23.62	168.35	35.08	-28.2	-30.3	14.6	6.10e-06	0	42	0	675282944	16	4554
2026-01-21 10:29:24.62	168.40	35.31	-28.3	-30.5	14.5	7.00e-07	0	42	0	678428672	16	4618
2026-01-21 10:29:25.62	168.45	35.54	-28.4	-30.5	14.5	0.00e+00	0	42	0	681574400	16	4628
2026-01-21 10:29:26.62	168.50	35.76	-28.4	-30.5	14.5	6.10e-06	0	42	0	684720128	16	4632
2026-01-21 10:29:27.62	168.55	36.00	-28.4	-30.6	14.4	1.50e-06	0	42	0	687865856	16	4657
2026-01-21 10:29:28.62	168.61	36.23	-28.5	-30.3	14.3	1.50e-06	0	42	0	691011584	17	4447
2026-01-21 10:29:29.63	168.66	36.46	-28.5	-30.4	14.3	8.30e-06	0	42	0	694157312	17	4474
2026-01-21 10:29:30.62	168.72	36.70	-28.6	-30.5	14.2	1.50e-06	0	42	0	697303040	17	4512
2026-01-21 10:29:31.62	168.77	36.94	-28.5	-30.4	14.3	7.00e-07	0	42	0	700448768	17	4485
2026-01-21 10:29:32.62	168.83	37.18	-28.8	-31.0	13.9	3.80e-06	0	42	0	703594496	17	4646
2026-01-21 10:29:33.62	168.88	37.42	-28.8	-31.1	13.9	1.50e-06	0	42	0	706740224	17	4677
2026-01-21 10:29:34.62	168.94	37.66	-29.0	-31.5	13.6	5.30e-06	0	42	0	709885952	17	4801
2026-01-21 10:29:35.62	169.00	37.90	-29.1	-31.4	13.4	6.10e-06	0	42	0	713031680	18	4670
2026-01-21 10:29:36.62	169.06	38.15	-29.1	-31.2	13.5	6.80e-06	0	42	0	716177408	18	4608
2026-01-21 10:29:37.62	169.12	38.40	-28.9	-30.9	13.7	6.10e-06	0	42	0	719323136	18	4514
2026-01-21 10:29:38.62	169.18	38.65	-28.9	-30.9	13.8	1.60e-05	0	42	0	722468864	18	4500
2026-01-21 10:29:39.62	169.24	38.90	-28.7	-30.4	14.0	9.10e-06	0	42	0	725614592	18	4375
2026-01-21 10:29:40.62	169.30	39.15	-28.8	-30.5	13.9	4.50e-06	0	42	0	728760320	18	4401
2026-01-21 10:29:41.62	169.37	39.41	-28.7	-30.5	14.0	3.80e-06	0	42	0	731906048	18	4382
2026-01-21 10:29:42.62	169.43	39.66	-28.8	-30.6	13.9	3.00e-06	0	42	0	735051776	18	4425
2026-01-21 10:29:43.62	169.50	39.92	-28.8	-30.5	14.0	4.50e-06	0	42	0	738197504	18	4391
2026-01-21 10:29:44.62	169.56	40.18	-28.7	-30.3	14.1	1.50e-06	0	42	0	741343232	18	4325
2026-01-21 10:29:45.62	169.63	40.45	-28.8	-30.5	14.0	1.50e-06	0	43	0	744488960	18	4384
2026-01-21 10:29:46.62	169.70	40.71	-28.8	-30.6	13.9	7.00e-07	0	42	0	747634688	18	4416
2026-01-21 10:29:47.63	169.77	40.98	-28.8	-30.6	14.0	2.20e-06	0	42	0	750780416	18	4405
2026-01-21 10:29:48.63	169.84	41.25	-29.1	-31.2	13.6	6.80e-06	0	42	0	752877568	18	4594
2026-01-21 10:29:49.63	169.91	41.52	-29.2	-31.4	13.5	3.00e-06	0	42	0	756023296	18	4658
2026-01-21 10:29:50.63	169.99	41.79	-29.2	-31.5	13.4	1.90e-05	0	42	0	759169024	18	4682
2026-01-21 10:29:51.64	170.06	42.07	-29.3	-31.8	13.2	2.21e-05	0	42	0	762314752	18	4799
2026-01-21 10:29:52.64	170.14	42.35	-29.5	-31.6	13.0	3.81e-05	0	42	0	765460480	19	4627
2026-01-21 10:29:53.64	170.22	42.62	-29.7	-32.2	12.7	5.95e-05	0	42	0	768606208	19	4811
2026-01-21 10:29:54.63	170.29	42.90	-29.8	-32.4	12.5	9.30e-05	0	42	0	771751936	19	4893
2026-01-21 10:29:55.63	170.37	43.18	-29.8	-32.5	12.6	1.01e-04	0	42	0	774897664	19	4902
2026-01-21 10:29:56.63	170.45	43.47	-29.9	-32.7	12.4	1.43e-04	0	42	0	778043392	19	4981
2026-01-21 10:29:57.62	170.53	43.75	-29.9	-32.7	12.4	1.41e-04	0	42	0	781189120	19	4979
2026-01-21 10:29:58.62	170.62	44.04	-29.9	-32.8	12.4	1.47e-04	0	42	0	784334848	19	5024
2026-01-21 10:29:59.62	170.70	44.33	-30.0	-32.5	12.2	2.18e-04	0	42	0	787480576	20	4799
2026-01-21 10:30:00.62	170.79	44.62	-29.9	-32.3	12.3	1.94e-04	0	42	0	790626304	20	4739
2026-01-21 10:30:01.63	170.88	44.92	-29.9	-32.4	12.2	1.93e-04	0	42	0	793772032	20	4763
2026-01-21 10:30:02.62	170.97	45.22	-29.9	-32.2	12.4	1.37e-04	0	42	0	796917760	20	4705
2026-01-21 10:30:03.63	171.06	45.52	-29.9	-32.4	12.3	1.56e-04	0	42	0	800063488	20	4774
2026-01-21 10:30:04.63	171.15	45.82	-30.1	-32.9	11.9	3.53e-04	0	42	0	803209216	20	4930
2026-01-21 10:30:05.63	171.25	46.12	-30.3	-33.4	11.6	5.41e-04	0	42	0	806354944	20	5141
2026-01-21 10:30:06.64	171.34	46.43	-30.5	-33.8	11.4	8.69e-04	0	42	0	809500672	20	5288
2026-01-21 10:30:07.65	171.44	46.74	-30.5	-33.4	11.3	1.10e-03	0	42	0	812646400	21	5023
2026-01-21 10:30:08.65	171.54	47.05	-30.4	-33.1	11.4	1.06e-03	0	42	0	815792128	21	4922
2026-01-21 10:30:09.66	171.65	47.37	-30.5	-33.3	11.4	1.24e-03	0	42	0	818937856	21	4970
2026-01-21 10:30:10.66	171.75	47.68	-30.4	-33.1	11.5	8.01e-04	0	42	0	822083584	21	4916
2026-01-21 10:30:11.66	171.86	48.00	-30.1	-32.2	12.1	3.36e-04	0	42	0	825229312	21	4596
2026-01-21 10:30:12.66	171.97	48.32	-29.9	-31.9	12.2	2.15e-04	0	42	0	828375040	21	4499
2026-01-21 10:30:13.67	172.08	48.64	-30.0	-32.1	12.1	2.39e-04	0	42	0	831520768	21	4579
2026-01-21 10:30:14.68	172.19	48.97	-29.9	-31.8	12.3	1.92e-04	0	42	0	834666496	21	4485
2026-01-21 10:30:15.68	172.31	49.30	-29.6	-31.5	12.8	7.40e-05	0	42	0	837812224	20	4485
2026-01-21 10:30:16.68	172.42	49.63	-29.4	-31.0	13.2	2.97e-05	0	42	0	840957952	20	4320
2026-01-21 10:30:17.69	172.55	49.96	-29.3	-31.2	13.4	2.13e-05	0	42	0	844103680	19	4481
2026-01-21 10:30:18.69	172.67	50.29	-29.3	-31.2	13.4	2.36e-05	0	42	0	847249408	19	4489
2026-01-21 10:30:19.69	172.79	50.63	-29.1	-30.7	13.7	1.52e-05	0	42	0	850395136	19	4327
2026-01-21 10:30:20.69	172.92	50.96	-28.8	-30.0	14.1	1.50e-06	0	42	0	853540864	19	4144
2026-01-21 10:30:21.70	173.05	51.31	-28.8	-30.4	14.1	1.50e-06	0	42	0	856686592	18	4358
2026-01-21 10:30:22.70	173.19	51.65	-28.8	-30.5	14.2	1.50e-06	0	42	0	859832320	18	4364
2026-01-21 10:30:23.71	173.33	52.00	-28.6	-30.0	14.4	0.00e+00	0	42	0	862978048	18	4230
2026-01-21 10:30:24.70	173.46	52.34	-28.5	-29.8	14.5	0.00e+00	0	42	0	866123776	18	4181
2026-01-21 10:30:25.70	173.61	52.69	-28.6	-29.9	14.5	2.20e-06	0	42	0	869269504	18	4203
2026-01-21 10:30:26.70	173.75	53.04	-28.6	-29.9	14.5	1.50e-06	0	42	0	872415232	18	4207
2026-01-21 10:30:27.70	173.90	53.39	-28.4	-29.6	14.7	0.00e+00	0	42	0	875560960	18	4117
2026-01-21 10:30:28.70	174.06	53.75	-28.2	-29.6	14.9	0.00e+00	0	42	0	878706688	17	4236
2026-01-21 10:30:29.70	174.22	54.11	-28.0	-29.0	15.3	0.00e+00	0	42	0	881852416	17	4069
2026-01-21 10:30:30.70	174.38	54.47	-27.7	-29.0	15.5	0.00e+00	0	42	0	884998144	16	4169
2026-01-21 10:30:31.70	174.54	54.83	-27.7	-28.9	15.6	0.00e+00	0	42	0	888143872	16	4136
2026-01-21 10:30:32.71	174.71	55.20	-27.7	-29.0	15.6	0.00e+00	0	42	0	891289600	16	4169
2026-01-21 10:30:33.71	174.89	55.57	-27.8	-29.3	15.5	0.00e+00	0	42	0	894435328	16	4248
2026-01-21 10:30:34.71	175.07	55.94	-27.9	-29.4	15.4	0.00e+00	0	42	0	897581056	16	4287
2026-01-21 10:30:35.72	175.25	56.31	-27.8	-29.3	15.4	0.00e+00	0	42	0	900726784	16	4250
2026-01-21 10:30:36.72	175.44	56.69	-27.8	-29.2	15.5	0.00e+00	0	42	0	903872512	16	4227
2026-01-21 10:30:37.72	175.63	57.06	-27.9	-29.5	15.4	0.00e+00	0	42	0	907018240	16	4305
2026-01-21 10:30:38.73	175.83	57.44	-27.8	-29.1	15.6	0.00e+00	0	42	0	910163968	16	4195
2026-01-21 10:30:39.74	176.04	57.83	-27.5	-28.4	15.9	0.00e+00	0	42	0	913309696	16	4020
2026-01-21 10:30:40.74	176.25	58.21	-27.1	-28.1	16.2	0.00e+00	0	42	0	916455424	15	4051
2026-01-21 10:30:41.74	176.46	58.60	-27.1	-28.0	16.3	0.00e+00	0	42	0	919601152	15	4013
2026-01-21 10:30:42.74	176.69	58.98	-27.4	-28.7	15.8	0.00e+00	0	42	0	922746880	15	4209
2026-01-21 10:30:43.74	176.92	59.37	-27.3	-28.6	15.9	0.00e+00	0	42	0	925892608	15	4183
2026-01-21 10:30:44.75	177.15	59.77	-27.2	-28.3	16.1	0.00e+00	0	42	0	929038336	15	4108
2026-01-21 10:30:45.75	177.40	60.16	-27.2	-28.4	16.1	0.00e+00	0	42	0	932184064	15	4136
2026-01-21 10:30:46.75	177.65	60.56	-27.0	-27.8	16.4	0.00e+00	0	42	0	935329792	15	3972
2026-01-21 10:30:47.76	177.91	60.96	-26.5	-27.3	16.9	0.00e+00	0	42	0	938475520	14	3938
2026-01-21 10:30:48.76	178.17	61.36	-26.5	-27.2	17.0	0.00e+00	0	42	0	941621248	14	3921
2026-01-21 10:30:49.76	178.45	61.76	-26.6	-27.5	16.9	0.00e+00	0	42	0	944766976	14	3987
2026-01-21 10:30:50.76	178.73	62.16	-26.6	-27.4	16.9	0.00e+00	0	42	0	947912704	14	3980
2026-01-21 10:30:51.76	179.02	62.56	-26.3	-26.9	17.2	0.00e+00	0	42	0	951058432	14	3837
2026-01-21 10:30:52.75	179.32	62.97	-26.1	-27.0	17.4	0.00e+00	0	42	0	954204160	13	3972
2026-01-21 10:30:53.76	179.64	63.38	-26.0	-26.8	17.5	0.00e+00	0	42	0	957349888	13	3922
2026-01-21 10:30:54.75	179.96	63.78	-26.1	-26.9	17.4	0.00e+00	0	42	0	959447040	13	3943
2026-01-21 10:30:55.75	180.30	64.20	-26.1	-26.9	17.5	0.00e+00	0	42	0	963641344	13	3951
2026-01-21 10:30:56.76	180.65	64.61	-26.0	-26.8	17.5	0.00e+00	0	42	0	966787072	13	3923
2026-01-21 10:30:57.76	181.01	65.03	-26.2	-27.0	17.4	0.00e+00	0	42	0	969932800	13	3988
2026-01-21 10:30:58.76	181.38	65.44	-25.9	-26.5	17.6	0.00e+00	0	42	0	973078528	13	3857
2026-01-21 10:30:59.76	181.77	65.86	-26.0	-26.7	17.5	0.00e+00	0	42	0	976224256	13	3914
2026-01-21 10:31:00.75	182.17	66.27	-26.1	-26.9	17.5	0.00e+00	0	42	0	979369984	13	3950
2026-01-21 10:31:01.75	182.59	66.69	-26.2	-27.1	17.4	0.00e+00	0	42	0	982515712	13	4001
2026-01-21 10:31:02.76	183.03	67.11	-26.3	-27.3	17.3	0.00e+00	0	42	0	984612864	13	4042
2026-01-21 10:31:03.76	183.48	67.53	-26.1	-26.9	17.4	0.00e+00	0	42	0	987758592	13	3955
2026-01-21 10:31:04.77	183.96	67.96	-26.1	-26.9	17.4	0.00e+00	0	42	0	990904320	13	3955
2026-01-21 10:31:05.77	184.45	68.38	-26.2	-27.2	17.2	0.00e+00	0	42	0	994050048	13	4018
2026-01-21 10:31:06.76	184.96	68.80	-26.5	-27.8	16.9	0.00e+00	0	42	0	997195776	13	4180
2026-01-21 10:31:07.77	185.50	69.23	-26.4	-27.7	17.0	0.00e+00	0	42	0	1000341504	13	4155
2026-01-21 10:31:08.77	186.06	69.65	-26.5	-27.8	16.9	0.00e+00	0	42	0	1003487232	13	4190
2026-01-21 10:31:09.77	186.64	70.07	-26.5	-27.8	17.0	0.00e+00	0	42	0	1006632960	13	4189
2026-01-21 10:31:10.77	187.26	70.50	-26.7	-28.3	16.7	0.00e+00	0	42	0	1009778688	13	4319
2026-01-21 10:31:11.77	187.90	70.92	-26.5	-27.7	17.0	0.00e+00	0	42	0	1012924416	13	4158
2026-01-21 10:31:12.77	188.57	71.34	-26.7	-28.1	16.8	0.00e+00	0	42	0	1016070144	13	4258
2026-01-21 10:31:13.78	189.28	71.77	-26.8	-28.5	16.6	0.00e+00	0	42	0	1019215872	13	4379
2026-01-21 10:31:14.79	190.02	72.19	-26.9	-28.7	16.6	0.00e+00	0	42	0	1022361600	13	4412
2026-01-21 10:31:15.79	190.80	72.61	-26.9	-28.6	16.6	0.00e+00	0	42	0	1025507328	13	4383
2026-01-21 10:31:16.79	191.62	73.03	-26.8	-28.5	16.6	0.00e+00	0	42	0	1028653056	13	4364
2026-01-21 10:31:17.79	192.48	73.44	-26.8	-28.5	16.7	0.00e+00	0	42	0	1031798784	13	4358
2026-01-21 10:31:18.79	193.38	73.85	-26.6	-28.0	16.9	0.00e+00	0	42	0	1034944512	13	4240
2026-01-21 10:31:19.80	194.35	74.27	-26.3	-27.3	17.3	0.00e+00	0	42	0	1038090240	13	4048
2026-01-21 10:31:20.79	195.35	74.67	-26.3	-27.4	17.2	0.00e+00	0	42	0	1041235968	13	4076
2026-01-21 10:31:21.79	196.41	75.08	-26.3	-27.4	17.1	0.00e+00	0	42	0	1044381696	13	4071
2026-01-21 10:31:22.80	197.55	75.48	-26.2	-27.0	17.4	0.00e+00	0	42	0	1047527424	13	3970
2026-01-21 10:31:23.80	198.74	75.87	-26.5	-27.7	17.1	0.00e+00	0	42	0	1050673152	13	4138
2026-01-21 10:31:24.80	200.01	76.26	-26.4	-27.6	17.2	0.00e+00	0	42	0	1053818880	13	4110
2026-01-21 10:31:25.79	201.33	76.65	-26.2	-27.2	17.4	0.00e+00	0	42	0	1056964608	13	4025
2026-01-21 10:31:26.79	202.75	77.02	-26.3	-27.2	17.5	0.00e+00	0	42	0	1060110336	13	4026
2026-01-21 10:31:27.79	204.25	77.39	-26.4	-27.4	17.3	0.00e+00	0	42	0	1063256064	13	4081
2026-01-21 10:31:28.79	205.85	77.76	-26.3	-27.3	17.4	0.00e+00	0	42	0	1066401792	13	4052
2026-01-21 10:31:29.79	207.55	78.11	-26.2	-27.2	17.6	0.00e+00	0	42	0	1069547520	13	4006
2026-01-21 10:31:30.79	209.35	78.45	-26.5	-27.8	17.2	0.00e+00	0	42	0	1072693248	13	4164
2026-01-21 10:31:31.79	211.26	78.79	-26.5	-27.8	17.1	0.00e+00	0	42	0	1075838976	13	4160
2026-01-21 10:31:32.79	213.28	79.11	-26.2	-27.2	17.5	0.00e+00	0	42	0	1078984704	13	4011
2026-01-21 10:31:33.79	215.43	79.41	-25.9	-26.5	17.8	0.00e+00	0	42	0	1082130432	13	3839
2026-01-21 10:31:34.78	217.69	79.70	-25.9	-26.5	17.8	0.00e+00	0	42	0	1085276160	13	3846
2026-01-21 10:31:35.79	220.12	79.98	-26.1	-26.8	17.6	0.00e+00	0	42	0	1088421888	13	3926
2026-01-21 10:31:36.79	222.66	80.24	-25.9	-26.5	17.8	0.00e+00	0	42	0	1091567616	13	3844
2026-01-21 10:31:37.80	225.36	80.48	-26.1	-26.9	17.6	0.00e+00	0	42	0	1094713344	13	3934
2026-01-21 10:31:38.80	228.17	80.69	-26.3	-27.2	17.5	0.00e+00	0	42	0	1097859072	13	4027
2026-01-21 10:31:39.80	231.11	80.89	-26.5	-27.8	17.2	0.00e+00	0	42	0	1101004800	13	4184
2026-01-21 10:31:40.81	234.20	81.06	-26.2	-27.1	17.5	0.00e+00	0	42	0	1104150528	13	4004
2026-01-21 10:31:41.81	237.36	81.20	-26.3	-27.4	17.4	0.00e+00	0	42	0	1107296256	13	4063
2026-01-21 10:31:42.81	240.63	81.31	-26.5	-27.7	17.2	0.00e+00	0	42	0	1110441984	13	4148
2026-01-21 10:31:43.82	244.00	81.40	-26.7	-28.3	17.0	0.00e+00	0	42	0	1113587712	13	4300
2026-01-21 10:31:44.82	247.40	81.46	-26.5	-27.7	17.3	0.00e+00	0	42	0	1116733440	13	4148
2026-01-21 10:31:45.82	250.83	81.49	-26.3	-27.4	17.4	0.00e+00	0	42	0	1119879168	13	4054
2026-01-21 10:31:46.83	254.31	81.48	-26.5	-27.7	17.3	0.00e+00	0	42	0	1123024896	13	4148
2026-01-21 10:31:47.84	257.77	81.45	-26.1	-26.8	17.7	0.00e+00	0	42	0	1126170624	13	3915
2026-01-21 10:31:48.84	261.16	81.39	-26.1	-26.9	17.7	0.00e+00	0	42	0	1129316352	13	3948
2026-01-21 10:31:49.84	264.49	81.29	-26.4	-27.4	17.4	0.00e+00	0	42	0	1132462080	13	4075
2026-01-21 10:31:50.83	267.70	81.18	-26.6	-27.9	17.2	0.00e+00	0	42	0	1135607808	13	4184
2026-01-21 10:31:51.84	270.88	81.03	-26.1	-26.8	17.7	0.00e+00	0	42	0	1138753536	13	3917
2026-01-21 10:31:52.84	273.92	80.85	-26.1	-26.8	17.7	0.00e+00	0	42	0	1141899264	13	3921
2026-01-21 10:31:53.85	276.86	80.65	-26.5	-27.7	17.3	0.00e+00	0	42	0	1145044992	13	4148
2026-01-21 10:31:54.84	279.62	80.44	-26.4	-27.5	17.3	0.00e+00	0	42	0	1148190720	13	4094
2026-01-21 10:31:55.85	282.30	80.19	-26.5	-27.7	17.2	0.00e+00	0	42	0	1151336448	13	4154
2026-01-21 10:31:56.85	284.81	79.93	-26.8	-28.4	16.9	0.00e+00	0	42	0	1154482176	13	4329
2026-01-21 10:31:57.86	287.22	79.65	-27.1	-28.5	16.6	0.00e+00	0	42	0	1157627904	14	4233
2026-01-21 10:31:58.86	289.47	79.36	-26.1	-26.9	17.6	0.00e+00	0	42	0	1160773632	13	3945
2026-01-21 10:31:59.85	291.57	79.05	-25.7	-26.4	18.2	0.00e+00	0	42	0	1163919360	12	3923
2026-01-21 10:32:00.86	293.60	78.73	-26.2	-27.6	17.6	0.00e+00	0	42	0	1167065088	12	4221
2026-01-21 10:32:01.85	295.47	78.40	-26.2	-27.7	17.5	0.00e+00	0	42	0	1170210816	12	4250
2026-01-21 10:32:02.85	297.25	78.05	-26.0	-27.1	17.8	0.00e+00	0	42	0	1173356544	12	4086
2026-01-21 10:32:03.85	298.93	77.70	-25.9	-27.0	17.8	0.00e+00	0	42	0	1176502272	12	4063
2026-01-21 10:32:04.86	300.52	77.33	-25.9	-26.9	17.7	0.00e+00	0	42	0	1179648000	12	4056
2026-01-21 10:32:05.87	302.02	76.95	-25.9	-26.9	17.8	0.00e+00	0	42	0	1182793728	12	4058
2026-01-21 10:32:06.87	303.42	76.57	-25.8	-26.8	17.9	0.00e+00	0	42	0	1185939456	12	4020
2026-01-21 10:32:07.88	304.76	76.19	-26.4	-28.0	17.3	0.00e+00	0	42	0	1188036608	12	4349
2026-01-21 10:32:08.88	306.00	75.80	-26.7	-28.2	16.9	0.00e+00	0	42	0	1191182336	13	4287
2026-01-21 10:32:09.88	307.18	75.40	-26.4	-27.6	17.2	0.00e+00	0	42	0	1194328064	13	4128
2026-01-21 10:32:10.88	308.29	75.00	-26.3	-27.3	17.4	0.00e+00	0	42	0	1197473792	13	4036
2026-01-21 10:32:11.88	309.35	74.60	-26.7	-28.2	16.8	0.00e+00	0	42	0	1200619520	13	4274
2026-01-21 10:32:12.88	310.34	74.19	-26.6	-27.9	16.9	0.00e+00	0	42	0	1203765248	13	4214
2026-01-21 10:32:13.88	311.29	73.78	-26.3	-27.2	17.2	0.00e+00	0	42	0	1206910976	13	4029
2026-01-21 10:32:14.88	312.18	73.37	-26.7	-28.1	16.9	0.00e+00	0	42	0	1210056704	13	4254
2026-01-21 10:32:15.88	313.04	72.95	-26.6	-28.1	16.9	0.00e+00	0	42	0	1213202432	13	4250
2026-01-21 10:32:16.89	313.85	72.53	-26.7	-28.1	16.9	0.00e+00	0	42	0	1216348160	13	4245
2026-01-21 10:32:17.89	314.62	72.11	-26.8	-28.3	16.8	0.00e+00	0	42	0	1219493888	13	4310
2026-01-21 10:32:18.90	315.36	71.69	-26.2	-27.1	17.4	0.00e+00	0	42	0	1222639616	13	4001
2026-01-21 10:32:19.90	316.06	71.27	-25.9	-26.5	17.7	0.00e+00	0	42	0	1225785344	13	3848
2026-01-21 10:32:20.90	316.72	70.85	-26.2	-27.2	17.3	0.00e+00	0	42	0	1228931072	13	4024
2026-01-21 10:32:21.90	317.35	70.43	-27.0	-28.8	16.5	0.00e+00	0	42	0	1232076800	13	4460
2026-01-21 10:32:22.91	317.97	70.00	-26.6	-27.6	16.9	0.00e+00	0	42	0	1235222528	14	4028
2026-01-21 10:32:23.91	318.54	69.58	-26.2	-27.2	17.3	0.00e+00	0	42	0	1238368256	13	4018
2026-01-21 10:32:24.91	319.10	69.15	-25.7	-26.5	17.9	0.00e+00	0	42	0	1241513984	12	3957
2026-01-21 10:32:25.90	319.62	68.74	-25.7	-26.5	18.0	0.00e+00	0	42	0	1244659712	12	3948
2026-01-21 10:32:26.90	320.13	68.32	-26.1	-27.3	17.5	0.00e+00	0	42	0	1247805440	12	4160
2026-01-21 10:32:27.91	320.62	67.89	-26.8	-28.5	16.6	0.00e+00	0	42	0	1250951168	13	4378
2026-01-21 10:32:28.91	321.09	67.47	-27.3	-29.1	16.0	0.00e+00	0	42	0	1254096896	14	4409
2026-01-21 10:32:29.92	321.55	67.05	-27.4	-29.3	16.0	2.20e-06	0	42	0	1257242624	14	4466
2026-01-21 10:32:30.92	321.98	66.63	-27.3	-29.2	16.0	0.00e+00	0	43	0	1260388352	14	4435
2026-01-21 10:32:31.92	322.39	66.21	-27.6	-29.2	15.7	0.00e+00	0	43	0	1263534080	15	4325
2026-01-21 10:32:32.93	322.80	65.79	-27.0	-27.9	16.4	3.80e-06	0	42	0	1266679808	15	3981
2026-01-21 10:32:33.93	323.18	65.37	-26.5	-27.2	17.0	0.00e+00	0	43	0	1269825536	14	3904
2026-01-21 10:32:34.94	323.56	64.96	-26.6	-27.5	16.9	0.00e+00	0	42	0	1272971264	14	3983
2026-01-21 10:32:35.95	323.92	64.54	-28.2	-30.2	15.0	0.00e+00	0	42	0	1276116992	16	4511
2026-01-21 10:32:36.95	324.26	64.13	-28.8	-31.0	14.3	1.50e-06	0	43	0	1279262720	17	4636
2026-01-21 10:32:37.95	324.60	63.72	-28.2	-29.6	15.0	0.00e+00	0	42	0	1282408448	17	4232
2026-01-21 10:32:38.95	324.92	63.31	-27.3	-28.1	16.2	3.00e-06	0	43	0	1285554176	16	3933
2026-01-21 10:32:39.96	325.23	62.90	-26.3	-26.9	17.2	0.00e+00	0	42	0	1288699904	14	3846
2026-01-21 10:32:40.96	325.53	62.50	-26.3	-27.4	17.2	0.00e+00	0	42	0	1291845632	13	4070
2026-01-21 10:32:41.96	325.82	62.09	-26.4	-27.5	17.1	0.00e+00	0	42	0	1294991360	13	4095
2026-01-21 10:32:42.96	326.10	61.69	-26.6	-28.1	16.7	0.00e+00	0	42	0	1298137088	13	4245
2026-01-21 10:32:43.97	326.38	61.29	-27.9	-29.9	15.1	0.00e+00	0	43	0	1301282816	15	4529
2026-01-21 10:32:44.97	326.64	60.89	-28.6	-30.4	14.6	6.10e-06	0	42	0	1304428544	17	4467
2026-01-21 10:32:45.97	326.90	60.50	-29.0	-31.0	14.0	1.50e-06	0	42	0	1307574272	18	4513
2026-01-21 10:32:46.97	327.15	60.10	-27.9	-28.9	15.3	0.00e+00	0	43	0	1310720000	17	4036
2026-01-21 10:32:47.97	327.39	59.71	-26.5	-27.4	16.8	0.00e+00	0	42	0	1313865728	14	3958
2026-01-21 10:32:48.98	327.62	59.32	-26.1	-27.0	17.4	0.00e+00	0	42	0	1317011456	13	3964
2026-01-21 10:32:49.99	327.85	58.93	-26.2	-27.0	17.3	0.00e+00	0	43	0	1320157184	13	3987
2026-01-21 10:32:50.99	328.07	58.54	-26.6	-28.0	16.8	0.00e+00	0	43	0	1323302912	13	4241
2026-01-21 10:32:52.00	328.29	58.15	-27.2	-28.9	16.1	0.00e+00	0	43	0	1326448640	14	4370
2026-01-21 10:32:53.00	328.50	57.77	-27.8	-29.7	15.3	7.00e-07	0	43	0	1329594368	15	4490
2026-01-21 10:32:54.01	328.70	57.39	-28.7	-30.9	14.3	2.20e-06	0	43	0	1332740096	17	4608
2026-01-21 10:32:55.01	328.90	57.01	-29.2	-31.6	13.6	7.60e-06	0	42	0	1335885824	18	4732
2026-01-21 10:32:56.02	329.09	56.64	-29.3	-31.8	13.3	1.75e-05	0	43	0	1339031552	18	4795
2026-01-21 10:32:57.01	329.28	56.27	-28.6	-30.1	14.3	2.20e-06	0	43	0	1342177280	18	4278
2026-01-21 10:32:58.02	329.46	55.89	-28.0	-29.1	15.2	0.00e+00	0	43	0	1345323008	17	4082
2026-01-21 10:32:59.02	329.64	55.53	-27.5	-28.5	15.9	0.00e+00	0	43	0	1348468736	16	4027
2026-01-21 10:33:00.03	329.82	55.16	-27.9	-29.3	15.4	0.00e+00	0	42	0	1351614464	16	4256
2026-01-21 10:33:01.02	329.98	54.80	-27.8	-29.3	15.3	0.00e+00	0	43	0	1354760192	16	4242
2026-01-21 10:33:02.03	330.15	54.43	-28.7	-30.8	14.2	0.00e+00	0	43	0	1357905920	17	4565
2026-01-21 10:33:03.03	330.31	54.07	-28.7	-30.8	14.3	3.00e-06	0	42	0	1361051648	17	4580
2026-01-21 10:33:04.03	330.47	53.72	-29.3	-31.6	13.5	6.10e-06	0	42	0	1364197376	18	4698
2026-01-21 10:33:05.03	330.62	53.36	-29.5	-31.6	13.3	2.21e-05	0	42	0	1367343104	19	4613
2026-01-21 10:33:06.04	330.77	53.01	-29.8	-32.4	12.7	5.87e-05	0	43	0	1370488832	19	4876
2026-01-21 10:33:07.04	330.92	52.66	-29.8	-32.3	12.8	6.17e-05	0	42	0	1373634560	19	4845
2026-01-21 10:33:08.05	331.06	52.31	-29.5	-31.7	13.1	3.96e-05	0	43	0	1376780288	19	4643
2026-01-21 10:33:09.06	331.20	51.96	-29.4	-31.5	13.3	2.05e-05	0	42	0	1379926016	19	4557
2026-01-21 10:33:10.06	331.34	51.62	-29.4	-31.5	13.3	1.52e-05	0	43	0	1383071744	19	4555
2026-01-21 10:33:11.06	331.47	51.28	-29.6	-31.9	13.1	3.12e-05	0	43	0	1386217472	19	4671
2026-01-21 10:33:12.07	331.60	50.94	-29.5	-31.7	13.2	2.44e-05	0	43	0	1389363200	19	4627
2026-01-21 10:33:13.07	331.73	50.60	-30.3	-33.3	11.7	1.89e-04	0	42	0	1392508928	20	5071
2026-01-21 10:33:14.07	331.85	50.27	-30.2	-33.1	11.8	6.28e-04	0	42	0	1395654656	20	4997
2026-01-21 10:33:15.08	331.98	49.93	-30.7	-33.9	11.0	1.19e-03	0	42	0	1398800384	21	5205
2026-01-21 10:33:16.07	332.10	49.61	-30.6	-33.5	11.3	1.40e-03	0	43	0	1401946112	21	5031
2026-01-21 10:33:17.07	332.21	49.28	-30.8	-34.1	10.9	1.96e-03	0	43	0	1405091840	21	5261
2026-01-21 10:33:18.08	332.33	48.95	-30.3	-32.8	11.7	6.68e-04	0	43	0	1408237568	21	4796
2026-01-21 10:33:19.08	332.44	48.63	-30.0	-32.0	12.2	2.62e-04	0	42	0	1411383296	21	4520
2026-01-21 10:33:20.08	332.55	48.31	-29.9	-31.8	12.4	1.32e-04	0	43	0	1414529024	21	4447
2026-01-21 10:33:21.08	332.66	48.00	-29.7	-31.8	12.7	1.08e-04	0	43	0	1417674752	20	4552
2026-01-21 10:33:22.08	332.76	47.68	-29.5	-31.3	13.0	4.88e-05	0	43	0	1420820480	20	4401
2026-01-21 10:33:23.08	332.87	47.37	-29.4	-30.9	13.2	1.75e-05	0	43	0	1423966208	20	4292
2026-01-21 10:33:24.08	332.97	47.06	-28.9	-30.3	13.9	4.50e-06	0	43	0	1427111936	19	4212
2026-01-21 10:33:25.08	333.07	46.75	-28.7	-30.2	14.3	7.00e-07	0	43	0	1430257664	18	4284
2026-01-21 10:33:26.08	333.17	46.44	-28.7	-30.1	14.3	0.00e+00	0	43	0	1433403392	18	4266
2026-01-21 10:33:27.09	333.27	46.13	-29.1	-31.2	13.7	3.00e-06	0	43	0	1436549120	18	4572
2026-01-21 10:33:28.09	333.36	45.83	-29.5	-31.8	13.1	1.90e-05	0	43	0	1439694848	19	4651
2026-01-21 10:33:29.09	333.45	45.53	-30.1	-32.8	12.1	1.07e-04	0	43	0	1441792000	20	4890
2026-01-21 10:33:30.10	333.55	45.23	-30.4	-33.6	11.5	5.34e-04	0	43	0	1444937728	20	5216
2026-01-21 10:33:31.10	333.63	44.94	-30.7	-33.9	11.0	1.55e-03	0	43	0	1449132032	21	5194
2026-01-21 10:33:32.11	333.72	44.64	-30.7	-34.0	10.8	2.47e-03	0	43	0	1452277760	21	5259
2026-01-21 10:33:33.11	333.81	44.35	-30.4	-33.0	11.5	1.03e-03	0	43	0	1455423488	21	4867
2026-01-21 10:33:34.12	333.90	44.06	-30.1	-32.2	12.0	4.03e-04	0	43	0	1458569216	21	4613
2026-01-21 10:33:35.11	333.98	43.77	-29.8	-31.6	12.5	1.40e-04	0	43	0	1461714944	21	4387
2026-01-21 10:33:36.12	334.06	43.48	-29.8	-32.0	12.5	1.03e-04	0	43	0	1463812096	20	4615
2026-01-21 10:33:37.12	334.14	43.20	-29.7	-31.7	12.7	7.17e-05	0	43	0	1466957824	20	4521
2026-01-21 10:33:38.12	334.22	42.92	-30.0	-32.5	12.2	2.21e-04	0	43	0	1470103552	20	4794
2026-01-21 10:33:39.12	334.30	42.64	-30.0	-32.4	12.3	2.09e-04	0	43	0	1473249280	20	4751
2026-01-21 10:33:40.13	334.38	42.36	-29.8	-32.0	12.5	9.61e-05	0	43	0	1476395008	20	4638
2026-01-21 10:33:41.13	334.45	42.09	-29.6	-31.4	12.8	7.85e-05	0	43	0	1479540736	20	4452
2026-01-21 10:33:42.14	334.53	41.81	-29.6	-31.4	12.8	4.95e-05	0	43	0	1482686464	20	4444
2026-01-21 10:33:43.15	334.60	41.54	-29.6	-31.5	12.7	7.70e-05	0	43	0	1485832192	20	4475
2026-01-21 10:33:44.15	334.67	41.27	-29.6	-31.5	12.7	6.33e-05	0	43	0	1488977920	20	4483
2026-01-21 10:33:45.16	334.74	41.00	-30.3	-33.2	11.7	3.23e-04	0	43	0	1492123648	20	5057
2026-01-21 10:33:46.16	334.81	40.74	-30.2	-33.1	11.7	4.54e-04	0	43	0	1495269376	20	5025
2026-01-21 10:33:47.16	334.88	40.47	-30.6	-33.8	11.0	1.72e-03	0	43	0	1498415104	21	5146
2026-01-21 10:33:48.16	334.95	40.21	-30.5	-33.2	11.3	1.20e-03	0	43	0	1501560832	21	4959
2026-01-21 10:33:49.17	335.02	39.95	-30.6	-33.6	11.1	1.66e-03	0	43	0	1504706560	21	5094
2026-01-21 10:33:50.17	335.08	39.69	-30.3	-32.7	11.7	8.42e-04	0	43	0	1507852288	21	4768
2026-01-21 10:33:51.18	335.15	39.43	-29.9	-31.8	12.3	2.01e-04	0	43	0	1510998016	21	4482
2026-01-21 10:33:52.18	335.21	39.18	-29.6	-31.5	12.7	8.31e-05	0	43	0	1514143744	20	4484
2026-01-21 10:33:53.18	335.27	38.93	-29.3	-30.7	13.2	4.11e-05	0	43	0	1517289472	20	4232
2026-01-21 10:33:54.19	335.34	38.68	-29.3	-31.2	13.4	2.21e-05	0	43	0	1520435200	19	4473
2026-01-21 10:33:55.19	335.40	38.43	-29.1	-30.7	13.6	1.29e-05	0	43	0	1523580928	19	4334
2026-01-21 10:33:56.19	335.46	38.18	-28.8	-30.4	14.1	1.50e-06	0	43	0	1526726656	18	4353
2026-01-21 10:33:57.19	335.52	37.94	-28.6	-30.1	14.2	1.50e-06	0	43	0	1529872384	18	4275
2026-01-21 10:33:58.20	335.58	37.69	-28.7	-30.2	14.2	1.50e-06	0	43	0	1533018112	18	4305
2026-01-21 10:33:59.21	335.63	37.45	-28.9	-30.7	13.9	0.00e+00	0	43	0	1536163840	18	4441
2026-01-21 10:34:00.21	335.69	37.21	-28.8	-30.6	14.0	2.20e-06	0	43	0	1539309568	18	4413
2026-01-21 10:34:01.21	335.75	36.97	-28.9	-30.7	13.9	3.00e-06	0	43	0	1542455296	18	4454
2026-01-21 10:34:02.22	335.80	36.73	-28.9	-30.7	13.9	1.50e-06	0	43	0	1545601024	18	4439
2026-01-21 10:34:03.22	335.86	36.50	-28.5	-29.9	14.4	7.00e-07	0	43	0	1548746752	18	4219
2026-01-21 10:34:04.23	335.91	36.26	-28.3	-29.4	14.6	0.00e+00	0	43	0	1551892480	18	4085
2026-01-21 10:34:05.23	335.97	36.03	-28.3	-29.8	14.6	0.00e+00	0	43	0	1555038208	17	4302
2026-01-21 10:34:06.23	336.02	35.80	-28.3	-29.9	14.5	0.00e+00	0	43	0	1558183936	17	4329
2026-01-21 10:34:07.24	336.07	35.57	-28.5	-30.3	14.3	7.00e-07	0	43	0	1561329664	17	4430
2026-01-21 10:34:08.25	336.12	35.34	-28.6	-30.7	14.1	2.20e-06	0	43	0	1564475392	17	4560
2026-01-21 10:34:09.25	336.17	35.12	-28.6	-30.6	14.2	7.00e-07	0	43	0	1567621120	17	4536
2026-01-21 10:34:10.26	336.22	34.89	-28.7	-30.8	14.1	1.50e-06	0	43	0	1570766848	17	4585
2026-01-21 10:34:11.27	336.27	34.67	-28.7	-31.0	14.0	3.00e-06	0	43	0	1573912576	17	4643
2026-01-21 10:34:12.27	336.32	34.45	-28.7	-30.8	14.1	2.20e-06	0	43	0	1577058304	17	4591
2026-01-21 10:34:13.28	336.37	34.23	-28.7	-30.7	14.1	2.20e-06	0	43	0	1580204032	17	4576
2026-01-21 10:34:14.29	336.42	34.01	-28.8	-31.0	13.9	1.50e-06	0	43	0	1583349760	17	4655
2026-01-21 10:34:15.28	336.46	33.80	-28.7	-30.7	14.1	1.50e-06	0	43	0	1586495488	17	4573
2026-01-21 10:34:16.29	336.51	33.58	-28.5	-30.3	14.3	1.50e-06	0	43	0	1589641216	17	4445
2026-01-21 10:34:17.29	336.56	33.37	-28.2	-29.7	14.7	7.00e-07	0	43	0	1592786944	17	4273
2026-01-21 10:34:18.29	336.60	33.16	-28.2	-29.6	14.7	0.00e+00	0	43	0	1595932672	17	4241
2026-01-21 10:34:19.29	336.65	32.95	-28.3	-30.0	14.5	7.00e-07	0	43	0	1599078400	17	4341
2026-01-21 10:34:20.30	336.69	32.74	-28.1	-29.5	14.7	0.00e+00	0	43	0	1602224128	17	4220
2026-01-21 10:34:21.30	336.73	32.53	-28.1	-29.5	14.7	0.00e+00	0	43	0	1605369856	17	4205
2026-01-21 10:34:22.30	336.78	32.33	-28.1	-29.5	14.7	0.00e+00	0	43	0	1608515584	17	4221
2026-01-21 10:34:23.30	336.82	32.12	-27.9	-28.9	15.1	0.00e+00	0	43	0	1611661312	17	4053
2026-01-21 10:34:24.29	336.86	31.92	-27.6	-28.8	15.4	0.00e+00	0	43	0	1614807040	16	4136
2026-01-21 10:34:25.30	336.90	31.72	-27.5	-28.6	15.5	0.00e+00	0	43	0	1617952768	16	4062
2026-01-21 10:34:26.30	336.95	31.52	-27.4	-28.4	15.6	0.00e+00	0	43	0	1621098496	16	4018
2026-01-21 10:34:27.30	336.99	31.32	-27.0	-27.9	16.0	0.00e+00	0	43	0	1624244224	15	4009
2026-01-21 10:34:28.31	337.03	31.12	-26.8	-27.6	16.2	0.00e+00	0	43	0	1627389952	15	3925
2026-01-21 10:34:29.30	337.07	30.93	-26.9	-27.8	16.1	0.00e+00	0	43	0	1630535680	15	3971
2026-01-21 10:34:30.30	337.11	30.73	-27.0	-28.0	16.0	0.00e+00	0	43	0	1633681408	15	4025
2026-01-21 10:34:31.31	337.15	30.54	-27.0	-28.0	15.9	0.00e+00	0	43	0	1636827136	15	4039
2026-01-21 10:34:32.31	337.18	30.35	-27.1	-28.2	15.8	0.00e+00	0	43	0	1639972864	15	4093
2026-01-21 10:34:33.31	337.22	30.16	-27.2	-28.4	15.7	0.00e+00	0	43	0	1643118592	15	4147
2026-01-21 10:34:34.32	337.26	29.96	-27.3	-28.7	15.6	0.00e+00	0	43	0	1646264320	15	4209
2026-01-21 10:34:35.33	337.30	29.77	-27.2	-28.5	15.7	0.00e+00	0	42	0	1649410048	15	4169
2026-01-21 10:34:36.33	337.34	29.59	-27.4	-28.8	15.5	0.00e+00	0	43	0	1652555776	15	4249
2026-01-21 10:34:37.34	337.37	29.40	-27.5	-29.1	15.3	0.00e+00	0	43	0	1655701504	15	4340
2026-01-21 10:34:38.34	337.41	29.22	-27.6	-29.4	15.1	7.00e-07	0	43	0	1658847232	15	4431
2026-01-21 10:34:39.34	337.44	29.03	-27.8	-29.9	14.9	7.00e-07	0	43	0	1661992960	15	4558
2026-01-21 10:34:40.34	337.48	28.85	-28.0	-30.2	14.7	0.00e+00	0	43	0	1665138688	15	4652
2026-01-21 10:34:41.34	337.52	28.67	-27.9	-30.1	14.8	0.00e+00	0	43	0	1668284416	15	4620
2026-01-21 10:34:42.33	337.55	28.49	-27.9	-30.2	14.7	0.00e+00	0	43	0	1671430144	15	4645
2026-01-21 10:34:43.34	337.58	28.31	-28.2	-30.1	14.6	0.00e+00	0	43	0	1674575872	16	4518
2026-01-21 10:34:44.34	337.62	28.13	-28.3	-30.4	14.4	0.00e+00	0	43	0	1677721600	16	4608
2026-01-21 10:34:45.34	337.65	27.96	-28.4	-30.7	14.3	0.00e+00	0	43	0	1680867328	16	4671
2026-01-21 10:34:46.34	337.69	27.78	-28.3	-30.5	14.4	1.50e-06	0	43	0	1684013056	16	4611
2026-01-21 10:34:47.34	337.72	27.61	-28.3	-30.3	14.5	7.00e-07	0	43	0	1687158784	16	4562
2026-01-21 10:34:48.35	337.75	27.43	-28.3	-30.5	14.4	7.00e-07	0	43	0	1690304512	16	4615
2026-01-21 10:34:49.35	337.79	27.26	-28.4	-30.7	14.3	0.00e+00	0	43	0	1693450240	16	4680
2026-01-21 10:34:50.36	337.82	27.09	-28.2	-30.3	14.5	0.00e+00	0	43	0	1696595968	16	4566
2026-01-21 10:34:51.36	337.85	26.92	-28.3	-30.4	14.4	1.50e-06	0	43	0	1699741696	16	4598
2026-01-21 10:34:52.37	337.88	26.75	-28.2	-30.2	14.5	7.00e-07	0	43	0	1702887424	16	4548
2026-01-21 10:34:53.37	337.91	26.58	-28.2	-30.3	14.4	0.00e+00	0	43	0	1706033152	16	4557
2026-01-21 10:34:54.37	337.94	26.42	-28.0	-29.8	14.7	7.00e-07	0	43	0	1709178880	16	4420
2026-01-21 10:34:55.37	337.98	26.25	-27.8	-29.2	15.1	0.00e+00	0	43	0	1712324608	16	4252
2026-01-21 10:34:56.38	338.01	26.08	-27.6	-28.9	15.2	0.00e+00	0	43	0	1715470336	16	4161
2026-01-21 10:34:57.38	338.04	25.92	-27.5	-28.7	15.3	0.00e+00	0	43	0	1718616064	16	4115
2026-01-21 10:34:58.37	338.07	25.76	-27.6	-28.8	15.3	0.00e+00	0	43	0	1721761792	16	4123
2026-01-21 10:34:59.38	338.10	25.60	-27.6	-28.8	15.3	0.00e+00	0	43	0	1724907520	16	4129
2026-01-21 10:35:00.38	338.13	25.43	-27.5	-28.7	15.3	0.00e+00	0	43	0	1728053248	16	4102
2026-01-21 10:35:01.38	338.15	25.28	-27.6	-28.9	15.2	0.00e+00	0	43	0	1731198976	16	4165
2026-01-21 10:35:02.38	338.18	25.12	-27.6	-28.9	15.2	0.00e+00	0	43	0	1734344704	16	4169
2026-01-21 10:35:03.39	338.21	24.96	-27.6	-28.7	15.3	0.00e+00	0	43	0	1737490432	16	4120
2026-01-21 10:35:04.39	338.24	24.80	-27.5	-28.6	15.4	0.00e+00	0	43	0	1739587584	16	4097
2026-01-21 10:35:05.39	338.27	24.64	-27.6	-28.8	15.2	0.00e+00	0	43	0	1742733312	16	4148
2026-01-21 10:35:06.39	338.30	24.49	-27.6	-28.7	15.3	0.00e+00	0	43	0	1745879040	16	4124
2026-01-21 10:35:07.39	338.33	24.34	-27.4	-28.5	15.4	0.00e+00	0	43	0	1749024768	16	4050
2026-01-21 10:35:08.40	338.35	24.18	-27.5	-28.6	15.4	0.00e+00	0	43	0	1753219072	16	4085
2026-01-21 10:35:09.40	338.38	24.03	-27.3	-28.2	15.6	0.00e+00	0	43	0	1756364800	16	3986
2026-01-21 10:35:10.40	338.41	23.88	-27.0	-28.1	15.8	0.00e+00	0	43	0	1759510528	15	4063
2026-01-21 10:35:11.41	338.43	23.72	-27.0	-28.1	15.7	0.00e+00	0	43	0	1762656256	15	4063
2026-01-21 10:35:12.41	338.46	23.58	-27.1	-28.1	15.7	0.00e+00	0	43	0	1764753408	15	4079
2026-01-21 10:35:13.41	338.49	23.43	-27.0	-28.0	15.8	0.00e+00	0	43	0	1767899136	15	4038
2026-01-21 10:35:14.42	338.51	23.28	-27.0	-28.1	15.7	0.00e+00	0	43	0	1771044864	15	4068
2026-01-21 10:35:15.42	338.54	23.13	-27.1	-28.2	15.6	0.00e+00	0	43	0	1774190592	15	4105
2026-01-21 10:35:16.42	338.57	22.98	-27.0	-28.0	15.7	0.00e+00	0	43	0	1777336320	15	4050
2026-01-21 10:35:17.42	338.59	22.84	-27.0	-28.0	15.8	0.00e+00	0	43	0	1780482048	15	4026
2026-01-21 10:35:18.42	338.62	22.69	-27.0	-28.0	15.8	0.00e+00	0	43	0	1783627776	15	4030
2026-01-21 10:35:19.42	338.64	22.55	-27.1	-28.2	15.6	0.00e+00	0	43	0	1786773504	15	4101
2026-01-21 10:35:20.43	338.67	22.41	-27.1	-28.2	15.6	0.00e+00	0	43	0	1789919232	15	4099
2026-01-21 10:35:21.43	338.69	22.26	-27.0	-28.0	15.7	0.00e+00	0	43	0	1793064960	15	4043
2026-01-21 10:35:22.44	338.72	22.12	-26.9	-27.8	15.8	0.00e+00	0	43	0	1796210688	15	3996
2026-01-21 10:35:23.44	338.74	21.98	-26.9	-27.9	15.8	0.00e+00	0	43	0	1799356416	15	4015
2026-01-21 10:35:24.44	338.77	21.84	-27.0	-27.9	15.8	0.00e+00	0	43	0	1802502144	15	4023
2026-01-21 10:35:25.45	338.79	21.70	-27.0	-27.9	15.8	0.00e+00	0	43	0	1805647872	15	4018
2026-01-21 10:35:26.45	338.81	21.56	-27.0	-28.0	15.8	0.00e+00	0	43	0	1808793600	15	4036
2026-01-21 10:35:27.45	338.84	21.42	-27.0	-28.0	15.7	0.00e+00	0	43	0	1811939328	15	4048
2026-01-21 10:35:28.46	338.86	21.29	-27.0	-28.0	15.7	0.00e+00	0	43	0	1815085056	15	4051
2026-01-21 10:35:29.47	338.88	21.15	-27.1	-28.1	15.7	0.00e+00	0	43	0	1818230784	15	4069
2026-01-21 10:35:30.47	338.91	21.01	-27.1	-28.3	15.6	0.00e+00	0	43	0	1821376512	15	4108
2026-01-21 10:35:31.47	338.93	20.88	-27.0	-28.1	15.6	0.00e+00	0	43	0	1824522240	15	4067
2026-01-21 10:35:32.47	338.95	20.74	-27.0	-28.1	15.6	0.00e+00	0	43	0	1827667968	15	4067
2026-01-21 10:35:33.47	338.98	20.61	-27.1	-28.2	15.6	7.00e-07	0	43	0	1830813696	15	4091
2026-01-21 10:35:34.48	339.00	20.48	-27.1	-28.2	15.6	0.00e+00	0	43	0	1833959424	15	4090
2026-01-21 10:35:35.48	339.02	20.35	-27.3	-28.7	15.3	0.00e+00	0	43	0	1837105152	15	4225
2026-01-21 10:35:36.48	339.04	20.21	-27.4	-29.0	15.1	0.00e+00	0	43	0	1840250880	15	4322
2026-01-21 10:35:37.48	339.07	20.08	-27.4	-28.9	15.2	0.00e+00	0	43	0	1843396608	15	4301
2026-01-21 10:35:38.48	339.09	19.95	-27.5	-29.2	15.0	0.00e+00	0	43	0	1846542336	15	4368
2026-01-21 10:35:39.49	339.11	19.82	-27.5	-29.2	15.0	0.00e+00	0	43	0	1849688064	15	4376
2026-01-21 10:35:40.48	339.13	19.70	-27.6	-29.4	14.8	7.00e-07	0	43	0	1852833792	15	4442
2026-01-21 10:35:41.48	339.15	19.57	-27.8	-30.0	14.5	0.00e+00	0	43	0	1855979520	15	4606
2026-01-21 10:35:42.48	339.17	19.44	-28.2	-30.2	14.3	7.00e-07	0	43	0	1859125248	16	4532
2026-01-21 10:35:43.49	339.20	19.31	-28.2	-30.4	14.2	7.00e-07	0	43	0	1862270976	16	4595
2026-01-21 10:35:44.49	339.22	19.19	-28.3	-30.6	14.1	2.20e-06	0	43	0	1865416704	16	4674
2026-01-21 10:35:45.49	339.24	19.06	-28.5	-30.9	13.9	3.80e-06	0	43	0	1868562432	16	4762
2026-01-21 10:35:46.49	339.26	18.94	-28.4	-30.8	13.9	2.20e-06	0	43	0	1871708160	16	4725
2026-01-21 10:35:47.49	339.28	18.81	-28.6	-30.6	13.7	7.60e-06	0	43	0	1874853888	17	4567
2026-01-21 10:35:48.50	339.30	18.69	-28.9	-31.5	13.2	1.37e-05	0	43	0	1877999616	17	4843
2026-01-21 10:35:49.50	339.32	18.57	-29.1	-31.5	12.9	6.40e-05	0	43	0	1881145344	18	4736
2026-01-21 10:35:50.50	339.34	18.44	-29.1	-31.4	13.0	3.89e-05	0	43	0	1884291072	18	4692
2026-01-21 10:35:51.51	339.36	18.32	-29.2	-31.6	12.8	5.87e-05	0	43	0	1887436800	18	4757
2026-01-21 10:35:52.51	339.38	18.20	-28.8	-30.8	13.3	3.12e-05	0	43	0	1890582528	18	4502
2026-01-21 10:35:53.52	339.40	18.08	-28.5	-30.1	13.8	1.14e-05	0	43	0	1893728256	18	4293
2026-01-21 10:35:54.53	339.42	17.96	-28.2	-29.9	14.1	3.00e-06	0	43	0	1896873984	17	4347
2026-01-21 10:35:55.53	339.44	17.84	-28.1	-29.6	14.3	2.20e-06	0	43	0	1900019712	17	4280
2026-01-21 10:35:56.53	339.46	17.72	-28.3	-29.9	14.1	1.50e-06	0	43	0	1903165440	17	4368
2026-01-21 10:35:57.53	339.48	17.60	-28.3	-30.1	14.0	0.00e+00	0	43	0	1906311168	17	4413
2026-01-21 10:35:58.54	339.50	17.48	-28.3	-30.1	14.0	1.50e-06	0	43	0	1909456896	17	4409
2026-01-21 10:35:59.54	339.52	17.37	-28.4	-30.2	13.9	6.10e-06	0	43	0	1912602624	17	4435
2026-01-21 10:36:00.55	339.54	17.25	-28.5	-30.4	13.8	3.80e-06	0	43	0	1915748352	17	4506
2026-01-21 10:36:01.55	339.56	17.13	-28.5	-30.5	13.7	3.00e-06	0	43	0	1918894080	17	4549
2026-01-21 10:36:02.55	339.58	17.02	-28.5	-30.6	13.7	1.22e-05	0	43	0	1922039808	17	4562
2026-01-21 10:36:03.55	339.59	16.91	-28.4	-30.1	13.9	3.00e-06	0	43	0	1925185536	17	4420
2026-01-21 10:36:04.55	339.61	16.79	-28.3	-30.0	14.0	3.00e-06	0	43	0	1928331264	17	4370
2026-01-21 10:36:05.55	339.63	16.68	-28.3	-30.0	14.0	3.00e-06	0	43	0	1931476992	17	4383
2026-01-21 10:36:06.55	339.65	16.56	-28.3	-29.9	14.1	2.20e-06	0	43	0	1934622720	17	4362
2026-01-21 10:36:07.55	339.67	16.45	-28.3	-30.0	14.0	2.20e-06	0	43	0	1937768448	17	4379
2026-01-21 10:36:08.55	339.69	16.34	-28.3	-30.0	14.0	4.50e-06	0	43	0	1940914176	17	4378
2026-01-21 10:36:09.55	339.70	16.23	-28.4	-30.3	13.8	0.00e+00	0	43	0	1944059904	17	4488
2026-01-21 10:36:10.56	339.72	16.12	-28.4	-30.3	13.9	7.60e-06	0	43	0	1947205632	17	4458
2026-01-21 10:36:11.56	339.74	16.01	-28.2	-29.8	14.1	1.50e-06	0	43	0	1950351360	17	4330
2026-01-21 10:36:12.56	339.76	15.90	-28.2	-29.7	14.2	7.00e-07	0	43	0	1953497088	17	4290
2026-01-21 10:36:13.57	339.78	15.79	-28.2	-29.8	14.1	2.20e-06	0	43	0	1956642816	17	4314
2026-01-21 10:36:14.58	339.79	15.67	-28.2	-29.8	14.1	2.20e-06	0	43	0	1959788544	17	4339
2026-01-21 10:36:15.58	339.81	15.57	-28.3	-30.1	13.9	7.00e-07	0	43	0	1962934272	17	4410
2026-01-21 10:36:16.59	339.83	15.46	-28.3	-30.1	13.9	2.20e-06	0	43	0	1966080000	17	4412
2026-01-21 10:36:17.59	339.85	15.35	-28.3	-30.1	13.9	1.50e-06	0	43	0	1969225728	17	4417
2026-01-21 10:36:18.59	339.86	15.24	-28.5	-30.4	13.7	6.80e-06	0	43	0	1972371456	17	4510
2026-01-21 10:36:19.59	339.88	15.14	-28.5	-30.4	13.7	9.90e-06	0	43	0	1975517184	17	4518
2026-01-21 10:36:20.59	339.90	15.03	-28.4	-30.3	13.8	6.80e-06	0	43	0	1978662912	17	4481
2026-01-21 10:36:21.59	339.91	14.92	-28.6	-30.7	13.6	8.30e-06	0	43	0	1981808640	17	4583
2026-01-21 10:36:22.59	339.93	14.82	-28.6	-30.7	13.6	1.52e-05	0	43	0	1984954368	17	4584
2026-01-21 10:36:23.59	339.95	14.71	-28.5	-30.4	13.7	4.50e-06	0	43	0	1988100096	17	4512
2026-01-21 10:36:24.59	339.96	14.61	-28.4	-30.3	13.7	3.80e-06	0	43	0	1991245824	17	4487
2026-01-21 10:36:25.59	339.98	14.51	-28.4	-30.3	13.7	7.60e-06	0	43	0	1993342976	17	4489
2026-01-21 10:36:26.60	340.00	14.40	-28.5	-30.5	13.6	5.30e-06	0	43	0	1997537280	17	4539
2026-01-21 10:36:27.61	340.01	14.30	-28.5	-30.5	13.6	9.90e-06	0	43	0	2000683008	17	4533
2026-01-21 10:36:28.61	340.03	14.20	-28.5	-30.5	13.6	1.22e-05	0	43	0	2003828736	17	4539
2026-01-21 10:36:29.61	340.05	14.09	-28.6	-30.8	13.4	1.90e-05	0	42	0	2006974464	17	4624
2026-01-21 10:36:30.61	340.06	13.99	-28.6	-30.8	13.4	1.06e-05	0	43	0	2010120192	17	4625
2026-01-21 10:36:31.62	340.08	13.89	-28.8	-31.2	13.1	1.67e-05	0	43	0	2013265920	17	4777
2026-01-21 10:36:32.62	340.09	13.79	-28.9	-31.5	13.0	3.96e-05	0	43	0	2015363072	17	4847
2026-01-21 10:36:33.62	340.11	13.69	-28.8	-31.4	13.1	2.89e-05	0	43	0	2018508800	17	4826
2026-01-21 10:36:34.62	340.13	13.59	-28.8	-31.2	13.1	3.73e-05	0	43	0	2021654528	17	4772
2026-01-21 10:36:35.62	340.14	13.49	-28.6	-30.8	13.4	2.28e-05	0	43	0	2024800256	17	4654
2026-01-21 10:36:36.62	340.16	13.39	-28.7	-31.0	13.3	1.22e-05	0	43	0	2027945984	17	4691
2026-01-21 10:36:37.62	340.17	13.29	-28.8	-31.2	13.2	2.13e-05	0	43	0	2031091712	17	4762
2026-01-21 10:36:38.63	340.19	13.19	-28.7	-31.1	13.2	2.44e-05	0	43	0	2034237440	17	4725
2026-01-21 10:36:39.63	340.20	13.09	-28.7	-31.1	13.2	2.59e-05	0	43	0	2037383168	17	4730
2026-01-21 10:36:40.64	340.22	12.99	-28.7	-31.0	13.2	1.98e-05	0	43	0	2040528896	17	4720
2026-01-21 10:36:41.64	340.24	12.90	-28.7	-31.1	13.2	2.36e-05	0	43	0	2043674624	17	4748
2026-01-21 10:36:42.64	340.25	12.80	-28.8	-31.2	13.1	2.59e-05	0	43	0	2046820352	17	4784
2026-01-21 10:36:43.65	340.27	12.70	-28.9	-31.5	12.9	4.65e-05	0	43	0	2049966080	17	4870
2026-01-21 10:36:44.65	340.28	12.61	-28.8	-31.3	13.1	2.89e-05	0	43	0	2053111808	17	4804
2026-01-21 10:36:45.65	340.30	12.51	-29.1	-31.6	12.6	6.79e-05	0	43	0	2056257536	18	4794
2026-01-21 10:36:46.66	340.31	12.41	-29.2	-31.8	12.5	1.52e-04	0	43	0	2059403264	18	4842
2026-01-21 10:36:47.66	340.33	12.32	-29.1	-31.7	12.5	1.01e-04	0	43	0	2062548992	18	4810
2026-01-21 10:36:48.66	340.34	12.23	-29.4	-32.3	12.1	2.16e-04	0	43	0	2065694720	18	5019
2026-01-21 10:36:49.66	340.36	12.13	-29.3	-32.0	12.3	1.98e-04	0	43	0	2068840448	18	4922
2026-01-21 10:36:50.67	340.37	12.04	-29.3	-32.0	12.3	1.74e-04	0	43	0	2071986176	18	4914
2026-01-21 10:36:51.67	340.39	11.94	-29.4	-32.2	12.1	2.31e-04	0	43	0	2075131904	18	5010
2026-01-21 10:36:52.67	340.40	11.85	-29.3	-32.0	12.3	2.27e-04	0	43	0	2078277632	18	4929
2026-01-21 10:36:53.67	340.41	11.76	-29.4	-32.2	12.1	2.17e-04	0	43	0	2081423360	18	5006
2026-01-21 10:36:54.67	340.43	11.66	-29.4	-32.4	12.0	2.87e-04	0	43	0	2084569088	18	5054
2026-01-21 10:36:55.68	340.44	11.57	-29.5	-32.5	11.9	3.35e-04	0	43	0	2087714816	18	5113
2026-01-21 10:36:56.68	340.46	11.48	-29.5	-32.1	11.9	4.97e-04	0	43	0	2090860544	19	4856
2026-01-21 10:36:57.68	340.47	11.39	-29.2	-31.3	12.3	2.14e-04	0	43	0	2094006272	19	4598
2026-01-21 10:36:58.68	340.49	11.30	-28.9	-30.7	12.8	7.47e-05	0	43	0	2097152000	19	4395
2026-01-21 10:36:59.69	340.50	11.21	-28.7	-30.7	13.0	3.96e-05	0	43	0	2100297728	18	4511
2026-01-21 10:37:00.69	340.51	11.12	-28.7	-30.5	13.2	3.73e-05	0	43	0	2103443456	18	4453
2026-01-21 10:37:01.70	340.53	11.02	-28.9	-31.0	12.8	4.34e-05	0	43	0	2106589184	18	4608
2026-01-21 10:37:02.71	340.54	10.93	-29.1	-31.5	12.6	8.23e-05	0	43	0	2109734912	18	4750
2026-01-21 10:37:03.72	340.56	10.84	-29.2	-31.8	12.4	1.23e-04	0	43	0	2112880640	18	4851
2026-01-21 10:37:04.72	340.57	10.75	-29.2	-31.8	12.3	1.72e-04	0	43	0	2116026368	18	4858
2026-01-21 10:37:05.73	340.58	10.66	-29.2	-31.8	12.3	1.85e-04	0	43	0	2119172096	18	4866
2026-01-21 10:37:06.73	340.60	10.58	-29.2	-31.8	12.3	1.45e-04	0	43	0	2122317824	18	4854
