passes_logs/2026/01/21/R2M6_AANII_01/R2M6_AANII_01__20260121_003300_NOAA_21_JPSS-2_rec.log

#Pass ID: 20260121_003300_NOAA 21 (JPSS-2)
#Satellite: NOAA 21 (JPSS-2)
#Configuration: NOAA 21
#almurnet v.1.7.20240730
#Start time: 2026-01-21 00:33:01

#Version: 2.2.20231116
#Station: R2M6_AANII_01
#Location: 30.233357 lon 59.946436 lat
#TLE: 1 54234U 22150A   26020.29910383  .00000141  00000+0  87571-4 0  9990
#TLE: 2 54234  98.7506 321.1348 0000615 250.8428 109.2682 14.19536295165564

#Time	Az	El	Level	Level2	SNR	BER	BlckErr	Temp	State	Recorded	gain1	gain2
2026-01-21 00:33:01.21	17.04	7.08	-31.0	-35.9	4.6	1.39e+00	0	43	0	0	22	6280
2026-01-21 00:33:02.20	17.04	7.15	-31.6	-37.1	4.5	1.42e+00	0	43	104	0	23	6830
2026-01-21 00:33:03.20	17.03	7.23	-31.3	-35.6	8.1	6.36e-02	0	43	0	0	23	5859
2026-01-21 00:33:04.21	17.02	7.31	-31.5	-36.1	7.5	9.78e-02	0	43	0	3145728	23	6107
2026-01-21 00:33:05.22	17.01	7.39	-31.2	-35.5	8.4	5.09e-02	0	43	0	6291456	22	5931
2026-01-21 00:33:06.22	17.01	7.46	-30.8	-34.3	9.4	1.99e-02	0	43	0	9437184	22	5383
2026-01-21 00:33:07.22	17.00	7.54	-30.5	-34.3	10.1	9.11e-03	0	43	0	12582912	20	5596
2026-01-21 00:33:08.21	16.99	7.62	-30.4	-34.0	10.3	5.47e-03	0	43	0	15728640	20	5463
2026-01-21 00:33:09.22	16.98	7.70	-30.5	-33.9	10.1	8.32e-03	0	43	0	18874368	21	5295
2026-01-21 00:33:10.22	16.97	7.78	-30.4	-34.1	10.3	6.04e-03	0	43	0	22020096	20	5496
2026-01-21 00:33:11.23	16.97	7.86	-30.2	-33.6	10.6	7.81e-03	0	43	0	24117248	20	5278
2026-01-21 00:33:12.23	16.96	7.94	-30.2	-33.5	10.7	3.51e-03	0	43	0	27262976	20	5249
2026-01-21 00:33:13.23	16.95	8.02	-30.0	-32.9	11.1	1.68e-03	0	43	0	30408704	20	5027
2026-01-21 00:33:14.23	16.94	8.10	-29.9	-33.2	11.3	1.24e-03	0	43	0	33554432	19	5233
2026-01-21 00:33:15.23	16.93	8.18	-29.8	-32.9	11.5	8.23e-04	0	43	0	36700160	19	5126
2026-01-21 00:33:16.24	16.92	8.26	-29.8	-32.9	11.5	4.99e-03	0	43	0	39845888	19	5138
2026-01-21 00:33:17.24	16.92	8.34	-29.9	-33.0	11.4	4.85e-03	0	43	0	42991616	19	5161
2026-01-21 00:33:18.24	16.91	8.42	-29.6	-32.2	12.0	4.87e-04	0	43	0	46137344	19	4890
2026-01-21 00:33:19.24	16.90	8.50	-29.4	-32.1	12.4	1.88e-04	0	43	0	49283072	18	4961
2026-01-21 00:33:20.23	16.89	8.58	-29.3	-32.1	12.3	1.49e-04	0	43	0	52428800	18	4930
2026-01-21 00:33:21.23	16.88	8.66	-29.4	-32.1	12.4	5.14e-04	0	43	0	55574528	18	4964
2026-01-21 00:33:22.24	16.87	8.75	-29.6	-32.2	12.0	4.61e-03	0	43	0	58720256	19	4882
2026-01-21 00:33:23.24	16.86	8.83	-29.7	-32.6	11.8	4.99e-03	0	43	0	61865984	19	4998
2026-01-21 00:33:24.25	16.85	8.91	-29.7	-32.6	11.8	4.16e-04	0	43	0	65011712	19	4999
2026-01-21 00:33:25.25	16.84	8.99	-29.7	-32.6	11.8	4.86e-04	0	44	0	68157440	19	5001
2026-01-21 00:33:26.25	16.84	9.08	-29.6	-32.3	12.0	4.21e-03	0	44	0	71303168	19	4907
2026-01-21 00:33:27.25	16.83	9.16	-29.7	-32.4	11.9	6.83e-04	0	43	0	74448896	19	4931
2026-01-21 00:33:28.25	16.82	9.24	-29.8	-32.7	11.7	4.41e-03	0	44	0	77594624	19	5040
2026-01-21 00:33:29.26	16.81	9.33	-29.7	-32.5	11.9	5.04e-03	0	44	0	80740352	19	4969
2026-01-21 00:33:30.26	16.80	9.41	-29.9	-32.9	11.6	7.50e-04	0	43	0	83886080	19	5105
2026-01-21 00:33:31.27	16.79	9.50	-29.5	-31.9	12.3	4.58e-03	0	43	0	87031808	19	4765
2026-01-21 00:33:32.27	16.78	9.58	-29.3	-31.8	12.7	4.54e-03	0	44	0	90177536	18	4845
2026-01-21 00:33:33.27	16.77	9.67	-29.0	-31.3	13.0	5.87e-04	0	44	0	93323264	18	4662
2026-01-21 00:33:34.27	16.76	9.75	-29.0	-31.6	13.2	4.22e-03	0	44	0	96468992	17	4871
2026-01-21 00:33:35.27	16.75	9.84	-28.9	-31.5	13.2	9.86e-04	0	44	0	99614720	17	4850
2026-01-21 00:33:36.28	16.74	9.92	-29.0	-31.6	13.1	3.34e-04	0	44	0	102760448	17	4871
2026-01-21 00:33:37.28	16.73	10.01	-29.0	-31.3	13.0	3.86e-03	0	44	0	105906176	18	4661
2026-01-21 00:33:38.28	16.72	10.10	-29.1	-31.4	13.0	4.57e-03	0	44	0	109051904	18	4710
2026-01-21 00:33:39.29	16.71	10.19	-28.9	-31.0	13.2	6.29e-04	0	44	0	112197632	18	4567
2026-01-21 00:33:40.29	16.70	10.27	-28.9	-31.5	13.2	1.98e-05	0	44	0	115343360	17	4840
2026-01-21 00:33:41.29	16.69	10.36	-28.8	-31.2	13.5	4.12e-03	0	44	0	118489088	17	4729
2026-01-21 00:33:42.29	16.68	10.45	-28.8	-31.2	13.4	6.13e-04	0	44	0	121634816	17	4747
2026-01-21 00:33:43.28	16.67	10.53	-28.9	-31.5	13.3	4.26e-03	0	44	0	124780544	17	4824
2026-01-21 00:33:44.28	16.66	10.62	-28.9	-31.5	13.2	4.28e-03	0	44	0	127926272	17	4855
2026-01-21 00:33:45.29	16.65	10.71	-28.8	-31.1	13.5	2.68e-04	0	44	0	131072000	17	4714
2026-01-21 00:33:46.30	16.63	10.80	-28.7	-31.0	13.6	3.82e-03	0	44	0	134217728	17	4690
2026-01-21 00:33:47.30	16.62	10.89	-28.8	-31.1	13.5	4.46e-03	0	44	0	137363456	17	4719
2026-01-21 00:33:48.30	16.61	10.98	-28.7	-30.9	13.6	6.02e-04	0	44	0	140509184	17	4638
2026-01-21 00:33:49.31	16.60	11.07	-28.7	-30.9	13.6	4.29e-03	0	44	0	143654912	17	4659
2026-01-21 00:33:50.31	16.59	11.16	-28.7	-30.9	13.6	2.94e-04	0	44	0	146800640	17	4646
2026-01-21 00:33:51.32	16.58	11.25	-28.7	-30.9	13.7	4.73e-05	0	44	0	149946368	17	4629
2026-01-21 00:33:52.32	16.57	11.35	-28.8	-31.0	13.6	9.10e-06	0	44	0	153092096	17	4688
2026-01-21 00:33:53.32	16.56	11.44	-28.6	-30.6	13.9	4.00e-03	0	44	0	156237824	17	4545
2026-01-21 00:33:54.32	16.54	11.53	-28.5	-30.3	14.0	5.81e-04	0	44	0	159383552	17	4469
2026-01-21 00:33:55.32	16.53	11.62	-28.4	-30.6	14.1	7.00e-07	0	44	0	162529280	16	4661
2026-01-21 00:33:56.33	16.52	11.71	-28.3	-30.5	14.2	3.80e-06	0	44	0	165675008	16	4638
2026-01-21 00:33:57.32	16.51	11.81	-28.3	-30.4	14.3	0.00e+00	0	44	0	168820736	16	4597
2026-01-21 00:33:58.33	16.50	11.90	-28.3	-30.4	14.3	4.15e-03	0	44	0	171966464	16	4604
2026-01-21 00:33:59.34	16.48	11.99	-28.3	-30.4	14.3	2.97e-03	0	44	0	175112192	16	4589
2026-01-21 00:34:00.34	16.47	12.09	-28.3	-30.4	14.3	1.99e-04	0	44	0	178257920	16	4599
2026-01-21 00:34:01.35	16.46	12.18	-28.2	-30.2	14.4	1.50e-06	0	44	0	181403648	16	4548
2026-01-21 00:34:02.35	16.45	12.28	-28.2	-30.1	14.5	1.50e-06	0	44	0	184549376	16	4513
2026-01-21 00:34:03.35	16.43	12.37	-28.1	-30.0	14.6	5.55e-04	0	44	0	187695104	16	4476
2026-01-21 00:34:04.35	16.42	12.47	-28.2	-30.2	14.5	7.00e-07	0	44	0	190840832	16	4544
2026-01-21 00:34:05.36	16.41	12.56	-28.1	-30.0	14.6	2.00e-04	0	44	0	193986560	16	4484
2026-01-21 00:34:06.36	16.40	12.66	-28.1	-30.0	14.6	7.00e-07	0	44	0	197132288	16	4481
2026-01-21 00:34:07.37	16.38	12.76	-28.2	-30.1	14.5	1.50e-06	0	44	0	200278016	16	4504
2026-01-21 00:34:08.36	16.37	12.85	-28.0	-29.9	14.2	4.82e-04	0	44	0	203423744	16	4457
2026-01-21 00:34:09.37	16.36	12.95	-28.0	-29.9	14.3	3.00e-04	0	44	0	206569472	16	4464
2026-01-21 00:34:10.37	16.34	13.05	-27.8	-30.0	14.3	3.48e-04	0	44	0	209715200	15	4606
2026-01-21 00:34:11.37	16.33	13.15	-27.9	-30.1	14.2	6.80e-04	0	44	0	212860928	15	4651
2026-01-21 00:34:12.37	16.32	13.24	-27.9	-30.1	14.2	4.40e-04	0	44	0	216006656	15	4646
2026-01-21 00:34:13.37	16.30	13.34	-27.9	-30.1	14.1	7.79e-04	0	44	0	219152384	15	4656
2026-01-21 00:34:14.38	16.29	13.44	-27.9	-30.1	14.2	9.06e-04	0	44	0	222298112	15	4654
2026-01-21 00:34:15.38	16.28	13.54	-28.0	-30.3	14.0	1.82e-03	0	44	0	225443840	15	4722
2026-01-21 00:34:16.37	16.26	13.64	-28.2	-30.4	13.8	4.02e-03	0	44	0	228589568	16	4614
2026-01-21 00:34:17.37	16.25	13.74	-28.2	-30.3	13.8	1.39e-03	0	44	0	231735296	16	4594
2026-01-21 00:34:18.38	16.23	13.84	-28.2	-30.4	13.7	3.34e-03	0	44	0	234881024	16	4616
2026-01-21 00:34:19.38	16.22	13.94	-28.2	-30.5	13.7	5.22e-03	0	44	0	238026752	16	4652
2026-01-21 00:34:20.39	16.20	14.05	-28.3	-30.6	13.6	4.71e-03	0	44	0	241172480	16	4675
2026-01-21 00:34:21.39	16.19	14.15	-28.3	-30.6	13.6	5.86e-03	0	44	0	244318208	16	4682
2026-01-21 00:34:22.40	16.17	14.25	-28.2	-30.4	13.9	1.78e-03	0	44	0	247463936	16	4639
2026-01-21 00:34:23.40	16.16	14.36	-28.2	-30.2	14.1	1.71e-03	0	44	0	250609664	16	4570
2026-01-21 00:34:24.41	16.14	14.46	-28.2	-30.3	14.1	5.60e-04	0	44	0	253755392	16	4577
2026-01-21 00:34:25.41	16.13	14.56	-28.3	-30.4	14.5	0.00e+00	0	44	0	256901120	16	4584
2026-01-21 00:34:26.42	16.11	14.67	-28.3	-30.3	14.5	1.50e-06	0	45	0	260046848	16	4565
2026-01-21 00:34:27.41	16.10	14.77	-28.3	-30.5	14.4	7.00e-07	0	44	0	263192576	16	4615
2026-01-21 00:34:28.41	16.08	14.88	-28.3	-30.4	14.4	1.50e-06	0	44	0	266338304	16	4595
2026-01-21 00:34:29.42	16.07	14.98	-28.3	-30.4	14.5	0.00e+00	0	44	0	269484032	16	4579
2026-01-21 00:34:30.42	16.05	15.09	-28.3	-30.4	14.5	0.00e+00	0	44	0	272629760	16	4589
2026-01-21 00:34:31.43	16.03	15.20	-28.3	-30.3	14.6	0.00e+00	0	44	0	275775488	16	4563
2026-01-21 00:34:32.43	16.02	15.30	-28.3	-30.5	14.5	0.00e+00	0	44	0	277872640	16	4605
2026-01-21 00:34:33.43	16.00	15.41	-28.3	-30.5	14.5	0.00e+00	0	44	0	281018368	16	4614
2026-01-21 00:34:34.43	15.99	15.52	-28.3	-30.3	14.6	0.00e+00	0	44	0	284164096	16	4551
2026-01-21 00:34:35.43	15.97	15.63	-28.3	-30.3	14.6	7.00e-07	0	44	0	287309824	16	4553
2026-01-21 00:34:36.43	15.95	15.74	-28.2	-30.2	14.7	0.00e+00	0	44	0	290455552	16	4507
2026-01-21 00:34:37.43	15.93	15.85	-28.2	-30.1	14.7	0.00e+00	0	44	0	293601280	16	4500
2026-01-21 00:34:38.43	15.92	15.96	-28.2	-30.1	14.7	0.00e+00	0	44	0	296747008	16	4497
2026-01-21 00:34:39.43	15.90	16.07	-28.2	-30.1	14.7	7.00e-07	0	44	0	299892736	16	4482
2026-01-21 00:34:40.44	15.88	16.18	-28.2	-30.2	14.7	0.00e+00	0	44	0	303038464	16	4525
2026-01-21 00:34:41.44	15.87	16.29	-28.2	-30.2	14.7	7.00e-07	0	44	0	306184192	16	4526
2026-01-21 00:34:42.44	15.85	16.40	-28.1	-29.9	14.9	0.00e+00	0	45	0	309329920	16	4431
2026-01-21 00:34:43.44	15.83	16.51	-28.2	-30.1	14.8	0.00e+00	0	45	0	312475648	16	4479
2026-01-21 00:34:44.44	15.81	16.63	-28.2	-30.1	14.8	0.00e+00	0	44	0	315621376	16	4480
2026-01-21 00:34:45.45	15.79	16.74	-28.1	-30.0	14.8	0.00e+00	0	44	0	318767104	16	4455
2026-01-21 00:34:46.44	15.78	16.85	-28.2	-30.0	14.8	0.00e+00	0	44	0	321912832	16	4473
2026-01-21 00:34:47.45	15.76	16.97	-28.2	-30.1	14.8	7.00e-07	0	44	0	325058560	16	4491
2026-01-21 00:34:48.46	15.74	17.08	-28.2	-30.1	14.8	0.00e+00	0	44	0	328204288	16	4498
2026-01-21 00:34:49.46	15.72	17.20	-28.2	-30.2	14.8	0.00e+00	0	45	0	331350016	16	4512
2026-01-21 00:34:50.47	15.70	17.32	-28.2	-30.1	14.8	7.00e-07	0	44	0	334495744	16	4487
2026-01-21 00:34:51.47	15.68	17.43	-28.3	-30.3	14.7	0.00e+00	0	45	0	337641472	16	4539
2026-01-21 00:34:52.47	15.66	17.55	-28.3	-30.4	14.6	7.00e-07	0	45	0	340787200	16	4590
2026-01-21 00:34:53.47	15.64	17.67	-28.4	-30.6	14.5	0.00e+00	0	45	0	343932928	16	4630
2026-01-21 00:34:54.47	15.62	17.79	-28.3	-30.4	14.6	1.50e-06	0	44	0	347078656	16	4570
2026-01-21 00:34:55.48	15.60	17.91	-28.3	-30.4	14.6	0.00e+00	0	45	0	350224384	16	4583
2026-01-21 00:34:56.48	15.58	18.03	-28.4	-30.7	14.5	0.00e+00	0	45	0	353370112	16	4661
2026-01-21 00:34:57.49	15.56	18.15	-28.5	-30.4	14.4	1.50e-06	0	45	0	356515840	17	4458
2026-01-21 00:34:58.49	15.54	18.27	-28.6	-30.6	14.2	7.00e-07	0	45	0	359661568	17	4531
2026-01-21 00:34:59.49	15.52	18.39	-28.7	-30.7	14.2	1.50e-06	0	45	0	362807296	17	4557
2026-01-21 00:35:00.49	15.50	18.51	-28.6	-30.7	14.2	0.00e+00	0	45	0	365953024	17	4545
2026-01-21 00:35:01.49	15.48	18.63	-28.8	-31.0	14.0	7.00e-07	0	45	0	369098752	17	4659
2026-01-21 00:35:02.49	15.46	18.76	-28.9	-31.2	13.9	4.50e-06	0	45	0	372244480	17	4697
2026-01-21 00:35:03.50	15.43	18.88	-28.7	-30.9	14.1	3.00e-06	0	45	0	375390208	17	4602
2026-01-21 00:35:04.50	15.41	19.01	-27.9	-29.9	14.3	0.00e+00	0	45	0	378535936	17	4524
2026-01-21 00:35:05.51	15.39	19.13	-28.5	-30.3	14.5	0.00e+00	0	45	0	381681664	17	4419
2026-01-21 00:35:06.51	15.37	19.26	-28.4	-30.7	14.6	3.72e-03	0	45	0	384827392	16	4652
2026-01-21 00:35:07.51	15.34	19.38	-28.5	-30.7	14.5	7.00e-07	0	45	0	387973120	16	4671
2026-01-21 00:35:08.52	15.32	19.51	-28.5	-30.4	14.4	0.00e+00	0	45	0	391118848	17	4464
2026-01-21 00:35:09.53	15.30	19.64	-28.8	-31.0	14.1	7.00e-07	0	45	0	394264576	17	4644
2026-01-21 00:35:10.53	15.28	19.77	-28.7	-30.8	14.2	3.00e-06	0	45	0	397410304	17	4579
2026-01-21 00:35:11.53	15.25	19.90	-28.4	-30.1	14.6	4.94e-04	0	45	0	400556032	17	4377
2026-01-21 00:35:12.53	15.23	20.03	-28.2	-30.2	14.9	7.00e-07	0	45	0	403701760	16	4498
2026-01-21 00:35:13.54	15.20	20.16	-28.2	-30.0	15.0	0.00e+00	0	45	0	406847488	16	4451
2026-01-21 00:35:14.54	15.18	20.29	-28.2	-30.0	15.0	0.00e+00	0	45	0	409993216	16	4451
2026-01-21 00:35:15.54	15.16	20.42	-28.2	-30.1	14.9	3.68e-03	0	45	0	413138944	16	4472
2026-01-21 00:35:16.55	15.13	20.55	-28.2	-30.2	14.9	4.45e-03	0	45	0	416284672	16	4510
2026-01-21 00:35:17.55	15.11	20.69	-28.2	-30.1	14.9	5.78e-04	0	45	0	419430400	16	4474
2026-01-21 00:35:18.55	15.08	20.82	-28.1	-29.8	15.1	0.00e+00	0	45	0	422576128	16	4378
2026-01-21 00:35:19.54	15.06	20.95	-27.8	-29.8	15.2	0.00e+00	0	45	0	425721856	15	4510
2026-01-21 00:35:20.54	15.03	21.09	-27.8	-29.8	15.2	2.47e-04	0	45	0	428867584	15	4501
2026-01-21 00:35:21.54	15.01	21.22	-27.9	-29.8	15.2	3.79e-03	0	45	0	432013312	15	4529
2026-01-21 00:35:22.54	14.98	21.36	-27.8	-29.7	15.2	3.95e-03	0	45	0	435159040	15	4486
2026-01-21 00:35:23.55	14.95	21.50	-27.6	-29.3	15.5	0.00e+00	0	45	0	438304768	15	4379
2026-01-21 00:35:24.55	14.93	21.64	-27.5	-29.0	15.7	0.00e+00	0	45	0	441450496	15	4292
2026-01-21 00:35:25.55	14.90	21.77	-27.5	-29.5	15.7	4.03e-03	0	45	0	444596224	14	4542
2026-01-21 00:35:26.55	14.87	21.91	-27.4	-28.9	15.7	4.13e-04	0	45	0	447741952	15	4257
2026-01-21 00:35:27.56	14.84	22.06	-27.3	-29.2	15.8	3.90e-03	0	45	0	450887680	14	4448
2026-01-21 00:35:28.56	14.82	22.20	-27.3	-29.1	15.9	4.07e-03	0	45	0	454033408	14	4416
2026-01-21 00:35:29.56	14.79	22.34	-27.3	-29.1	15.9	3.46e-04	0	45	0	457179136	14	4411
2026-01-21 00:35:30.56	14.76	22.48	-27.2	-28.9	16.0	3.81e-03	0	45	0	460324864	14	4378
2026-01-21 00:35:31.57	14.73	22.62	-27.3	-29.0	16.0	3.76e-03	0	45	0	463470592	14	4390
2026-01-21 00:35:32.57	14.70	22.77	-27.1	-28.7	16.2	2.91e-04	0	45	0	466616320	14	4304
2026-01-21 00:35:33.58	14.67	22.91	-27.1	-28.6	16.2	3.46e-03	0	45	0	469762048	14	4282
2026-01-21 00:35:34.58	14.64	23.06	-27.1	-28.7	16.2	2.31e-03	0	45	0	472907776	14	4309
2026-01-21 00:35:35.58	14.61	23.21	-27.2	-28.8	16.1	2.04e-04	0	45	0	476053504	14	4340
2026-01-21 00:35:36.58	14.58	23.35	-27.1	-28.7	16.2	3.93e-03	0	45	0	479199232	14	4301
2026-01-21 00:35:37.58	14.55	23.50	-27.1	-28.6	16.2	4.01e-03	0	45	0	482344960	14	4293
2026-01-21 00:35:38.59	14.52	23.65	-27.1	-28.6	16.1	1.98e-04	0	45	0	485490688	14	4296
2026-01-21 00:35:39.59	14.49	23.80	-27.1	-28.7	16.2	0.00e+00	0	45	0	488636416	14	4308
2026-01-21 00:35:40.59	14.46	23.95	-27.0	-28.3	16.3	3.62e-03	0	45	0	491782144	14	4206
2026-01-21 00:35:41.60	14.43	24.11	-27.0	-28.4	16.3	1.98e-04	0	45	0	494927872	14	4230
2026-01-21 00:35:42.60	14.40	24.26	-27.1	-28.5	16.3	3.38e-03	0	45	0	498073600	14	4262
2026-01-21 00:35:43.60	14.36	24.41	-27.1	-28.7	16.2	4.11e-03	0	45	0	501219328	14	4306
2026-01-21 00:35:44.60	14.33	24.57	-27.1	-28.7	16.2	1.91e-04	0	45	0	504365056	14	4311
2026-01-21 00:35:45.60	14.30	24.72	-27.1	-28.5	16.3	0.00e+00	0	45	0	507510784	14	4261
2026-01-21 00:35:46.60	14.26	24.88	-27.0	-28.4	16.4	3.96e-03	0	45	0	509607936	14	4231
2026-01-21 00:35:47.60	14.23	25.04	-27.0	-28.4	16.3	1.62e-04	0	45	0	512753664	14	4238
2026-01-21 00:35:48.60	14.20	25.19	-27.0	-28.5	16.3	3.77e-03	0	45	0	515899392	14	4258
2026-01-21 00:35:49.61	14.16	25.35	-27.2	-28.8	16.2	2.00e-04	0	45	0	520093696	14	4328
2026-01-21 00:35:50.61	14.13	25.51	-27.2	-28.9	16.1	0.00e+00	0	45	0	523239424	14	4369
2026-01-21 00:35:51.61	14.09	25.67	-27.2	-28.9	16.1	0.00e+00	0	45	0	526385152	14	4350
2026-01-21 00:35:52.62	14.05	25.84	-27.3	-29.0	16.0	4.08e-03	0	45	0	529530880	14	4401
2026-01-21 00:35:53.62	14.02	26.00	-27.4	-29.3	15.9	2.08e-04	0	45	0	531628032	14	4486
2026-01-21 00:35:54.62	13.98	26.16	-27.5	-29.4	15.8	0.00e+00	0	45	0	534773760	14	4515
2026-01-21 00:35:55.62	13.94	26.33	-27.6	-29.2	15.7	0.00e+00	0	45	0	537919488	15	4340
2026-01-21 00:35:56.62	13.91	26.49	-27.7	-29.5	15.5	0.00e+00	0	45	0	541065216	15	4421
2026-01-21 00:35:57.62	13.87	26.66	-27.8	-29.7	15.5	0.00e+00	0	45	0	544210944	15	4462
2026-01-21 00:35:58.62	13.83	26.83	-28.0	-30.1	15.2	3.64e-03	0	45	0	547356672	15	4585
2026-01-21 00:35:59.62	13.79	27.00	-28.2	-30.0	15.2	0.00e+00	0	45	0	550502400	16	4429
2026-01-21 00:36:00.63	13.75	27.17	-28.1	-29.9	15.2	0.00e+00	0	45	0	553648128	16	4414
2026-01-21 00:36:01.63	13.71	27.34	-28.3	-30.3	15.0	0.00e+00	0	45	0	556793856	16	4519
2026-01-21 00:36:02.63	13.67	27.51	-28.4	-30.4	15.0	0.00e+00	0	45	0	559939584	16	4559
2026-01-21 00:36:03.64	13.63	27.69	-28.4	-30.6	14.9	1.65e-03	0	45	0	563085312	16	4600
2026-01-21 00:36:04.65	13.59	27.86	-28.5	-30.3	14.8	0.00e+00	0	45	0	566231040	17	4413
2026-01-21 00:36:05.65	13.55	28.04	-28.6	-30.4	14.7	7.00e-07	0	45	0	569376768	17	4457
2026-01-21 00:36:06.66	13.50	28.22	-28.6	-30.4	14.7	7.00e-07	0	45	0	572522496	17	4452
2026-01-21 00:36:07.66	13.46	28.39	-28.5	-30.3	14.7	0.00e+00	0	45	0	575668224	17	4422
2026-01-21 00:36:08.67	13.42	28.57	-28.6	-30.4	14.7	7.00e-07	0	45	0	578813952	17	4453
2026-01-21 00:36:09.66	13.37	28.75	-28.6	-30.4	14.7	0.00e+00	0	45	0	581959680	17	4433
2026-01-21 00:36:10.67	13.33	28.93	-28.5	-30.3	14.8	0.00e+00	0	45	0	585105408	17	4408
2026-01-21 00:36:11.67	13.28	29.12	-28.4	-30.0	15.0	0.00e+00	0	45	0	588251136	17	4313
2026-01-21 00:36:12.67	13.24	29.30	-28.2	-30.0	15.2	0.00e+00	0	45	0	591396864	16	4443
2026-01-21 00:36:13.67	13.19	29.48	-28.1	-29.9	15.3	0.00e+00	0	45	0	594542592	16	4397
2026-01-21 00:36:14.67	13.14	29.67	-28.2	-30.0	15.3	0.00e+00	0	45	0	597688320	16	4431
2026-01-21 00:36:15.68	13.10	29.86	-28.1	-29.7	15.4	0.00e+00	0	45	0	600834048	16	4356
2026-01-21 00:36:16.68	13.05	30.04	-28.0	-29.5	15.5	0.00e+00	0	45	0	603979776	16	4286
2026-01-21 00:36:17.68	13.00	30.23	-28.0	-29.7	15.4	0.00e+00	0	45	0	607125504	16	4332
2026-01-21 00:36:18.69	12.95	30.43	-27.9	-29.4	15.6	0.00e+00	0	45	0	610271232	16	4271
2026-01-21 00:36:19.69	12.90	30.62	-27.7	-29.5	15.6	0.00e+00	0	45	0	613416960	15	4399
2026-01-21 00:36:20.69	12.85	30.81	-27.7	-29.4	15.7	0.00e+00	0	45	0	616562688	15	4380
2026-01-21 00:36:21.69	12.80	31.00	-27.7	-29.5	15.6	0.00e+00	0	45	0	619708416	15	4410
2026-01-21 00:36:22.70	12.75	31.20	-27.9	-29.8	15.5	0.00e+00	0	45	0	622854144	15	4496
2026-01-21 00:36:23.70	12.70	31.40	-27.8	-29.7	15.5	0.00e+00	0	45	0	625999872	15	4458
2026-01-21 00:36:24.70	12.64	31.60	-27.7	-29.5	15.6	0.00e+00	0	45	0	629145600	15	4405
2026-01-21 00:36:25.70	12.59	31.80	-27.8	-29.6	15.6	0.00e+00	0	45	0	632291328	15	4424
2026-01-21 00:36:26.70	12.53	32.00	-27.8	-29.6	15.6	0.00e+00	0	45	0	635437056	15	4438
2026-01-21 00:36:27.70	12.48	32.20	-27.8	-29.6	15.6	0.00e+00	0	45	0	638582784	15	4427
2026-01-21 00:36:28.71	12.42	32.40	-27.9	-29.9	15.4	0.00e+00	0	45	0	641728512	15	4521
2026-01-21 00:36:29.71	12.37	32.61	-28.1	-29.8	15.4	0.00e+00	0	45	0	644874240	16	4375
2026-01-21 00:36:30.72	12.31	32.82	-28.2	-30.1	15.2	0.00e+00	0	45	0	648019968	16	4455
2026-01-21 00:36:31.72	12.25	33.02	-28.2	-30.0	15.2	0.00e+00	0	45	0	651165696	16	4434
2026-01-21 00:36:32.72	12.19	33.23	-28.1	-29.8	15.4	0.00e+00	0	45	0	654311424	16	4375
2026-01-21 00:36:33.72	12.13	33.44	-28.2	-30.1	15.3	0.00e+00	0	45	0	657457152	16	4447
2026-01-21 00:36:34.73	12.07	33.66	-28.2	-30.0	15.3	0.00e+00	0	45	0	660602880	16	4438
2026-01-21 00:36:35.72	12.01	33.87	-28.4	-30.4	15.1	0.00e+00	0	45	0	663748608	16	4540
2026-01-21 00:36:36.73	11.95	34.08	-28.6	-30.3	14.9	7.00e-07	0	45	0	666894336	17	4408
2026-01-21 00:36:37.72	11.88	34.30	-28.7	-30.5	14.8	0.00e+00	0	45	0	670040064	17	4465
2026-01-21 00:36:38.73	11.82	34.52	-28.7	-30.7	14.6	7.00e-07	0	45	0	673185792	17	4507
2026-01-21 00:36:39.73	11.75	34.74	-28.8	-30.9	14.5	7.00e-07	0	45	0	676331520	17	4580
2026-01-21 00:36:40.74	11.69	34.96	-29.0	-30.9	14.3	0.00e+00	0	45	0	679477248	18	4463
2026-01-21 00:36:41.74	11.62	35.18	-29.3	-31.6	13.9	5.30e-06	0	45	0	682622976	18	4668
2026-01-21 00:36:42.74	11.55	35.41	-29.4	-31.7	13.8	9.10e-06	0	45	0	685768704	18	4727
2026-01-21 00:36:43.75	11.48	35.63	-29.4	-31.8	13.7	5.30e-06	0	45	0	688914432	18	4750
2026-01-21 00:36:44.76	11.41	35.86	-29.4	-31.8	13.8	4.50e-06	0	45	0	692060160	18	4748
2026-01-21 00:36:45.77	11.34	36.09	-29.4	-31.9	13.7	4.50e-06	0	45	0	695205888	18	4774
2026-01-21 00:36:46.77	11.27	36.32	-29.4	-31.3	13.7	7.60e-06	0	45	0	698351616	19	4489
2026-01-21 00:36:47.77	11.19	36.55	-29.4	-31.3	13.8	3.80e-06	0	45	0	701497344	19	4474
2026-01-21 00:36:48.77	11.12	36.79	-29.4	-31.9	13.8	4.50e-06	0	45	0	704643072	18	4760
2026-01-21 00:36:49.78	11.04	37.02	-29.5	-31.5	13.7	8.30e-06	0	45	0	707788800	19	4535
2026-01-21 00:36:50.78	10.97	37.26	-29.3	-31.2	13.9	4.50e-06	0	45	0	710934528	19	4439
2026-01-21 00:36:51.78	10.89	37.50	-29.4	-31.7	13.8	5.30e-06	0	45	0	714080256	18	4710
2026-01-21 00:36:52.79	10.81	37.74	-29.4	-31.8	13.8	5.30e-06	0	45	0	717225984	18	4748
2026-01-21 00:36:53.79	10.73	37.98	-29.4	-31.8	13.8	6.10e-06	0	45	0	720371712	18	4727
2026-01-21 00:36:54.79	10.65	38.22	-29.3	-31.6	13.9	1.50e-06	0	45	0	723517440	18	4669
2026-01-21 00:36:55.79	10.56	38.47	-29.3	-31.5	14.0	2.20e-06	0	45	0	726663168	18	4649
2026-01-21 00:36:56.79	10.48	38.72	-29.2	-31.2	14.2	3.00e-06	0	45	0	729808896	18	4555
2026-01-21 00:36:57.80	10.39	38.97	-29.2	-31.3	14.1	0.00e+00	0	45	0	732954624	18	4590
2026-01-21 00:36:58.80	10.31	39.22	-29.1	-31.0	14.3	2.20e-06	0	45	0	736100352	18	4503
2026-01-21 00:36:59.80	10.22	39.47	-29.1	-31.0	14.3	7.00e-07	0	45	0	739246080	18	4484
2026-01-21 00:37:00.81	10.13	39.72	-29.1	-31.0	14.2	1.39e-03	0	45	0	742391808	18	4499
2026-01-21 00:37:01.81	10.04	39.98	-29.1	-31.1	14.2	2.20e-06	0	45	0	745537536	18	4517
2026-01-21 00:37:02.82	9.94	40.24	-29.1	-31.0	14.3	2.20e-06	0	45	0	748683264	18	4506
2026-01-21 00:37:03.82	9.85	40.50	-29.1	-31.1	14.1	0.00e+00	0	45	0	751828992	18	4511
2026-01-21 00:37:04.82	9.75	40.76	-29.1	-31.2	14.1	1.50e-06	0	45	0	754974720	18	4541
2026-01-21 00:37:05.83	9.66	41.02	-29.1	-31.1	14.2	8.72e-04	0	45	0	758120448	18	4528
2026-01-21 00:37:06.83	9.56	41.29	-29.2	-31.3	14.1	7.00e-07	0	45	0	761266176	18	4575
2026-01-21 00:37:07.83	9.46	41.55	-29.0	-30.9	14.3	3.00e-06	0	45	0	764411904	18	4468
2026-01-21 00:37:08.84	9.35	41.82	-29.1	-30.9	14.3	0.00e+00	0	45	0	767557632	18	4472
2026-01-21 00:37:09.84	9.25	42.09	-29.2	-31.2	14.2	2.20e-06	0	45	0	770703360	18	4551
2026-01-21 00:37:10.84	9.14	42.36	-29.3	-31.6	14.0	6.10e-06	0	45	0	773849088	18	4676
2026-01-21 00:37:11.84	9.03	42.64	-29.5	-31.6	13.7	1.97e-04	0	45	0	776994816	19	4549
2026-01-21 00:37:12.85	8.92	42.92	-29.8	-32.3	13.2	1.37e-05	0	45	0	780140544	19	4775
2026-01-21 00:37:13.85	8.81	43.19	-29.9	-32.5	13.1	3.43e-05	0	45	0	783286272	19	4856
2026-01-21 00:37:14.85	8.70	43.47	-30.1	-32.5	12.7	5.72e-05	0	45	0	785383424	20	4742
2026-01-21 00:37:15.84	8.58	43.75	-30.3	-32.9	12.4	5.36e-04	0	45	0	788529152	20	4895
2026-01-21 00:37:16.84	8.46	44.03	-30.3	-33.1	12.3	1.69e-04	0	45	0	791674880	20	4955
2026-01-21 00:37:17.85	8.34	44.32	-30.5	-33.5	12.1	2.30e-04	0	45	0	794820608	20	5100
2026-01-21 00:37:18.85	8.22	44.61	-30.5	-33.2	12.0	2.95e-04	0	45	0	797966336	21	4859
2026-01-21 00:37:19.85	8.10	44.90	-30.7	-33.6	11.7	4.14e-04	0	45	0	801112064	21	5030
2026-01-21 00:37:20.85	7.97	45.19	-30.8	-33.8	11.6	1.38e-03	0	45	0	805306368	21	5093
2026-01-21 00:37:21.86	7.84	45.49	-30.8	-33.9	11.6	1.44e-03	0	45	0	808452096	21	5112
2026-01-21 00:37:22.87	7.70	45.78	-30.7	-33.6	11.7	5.80e-04	0	45	0	810549248	21	5010
2026-01-21 00:37:23.88	7.57	46.08	-30.7	-33.5	11.8	1.64e-03	0	45	0	813694976	21	4963
2026-01-21 00:37:24.88	7.43	46.38	-30.8	-33.8	11.7	1.75e-03	0	45	0	816840704	21	5073
2026-01-21 00:37:25.89	7.29	46.69	-30.4	-32.7	12.3	4.61e-04	0	45	0	819986432	21	4707
2026-01-21 00:37:26.89	7.15	46.99	-30.0	-32.2	12.9	1.24e-03	0	45	0	823132160	20	4662
2026-01-21 00:37:27.90	7.00	47.30	-29.7	-32.1	13.4	1.31e-03	0	45	0	827326464	19	4722
2026-01-21 00:37:28.90	6.85	47.60	-29.6	-31.8	13.5	1.79e-04	0	45	0	830472192	19	4636
2026-01-21 00:37:29.90	6.70	47.91	-29.6	-31.7	13.6	9.10e-06	0	45	0	832569344	19	4598
2026-01-21 00:37:30.91	6.54	48.23	-29.5	-31.6	13.7	8.07e-04	0	45	0	835715072	19	4570
2026-01-21 00:37:31.92	6.38	48.54	-29.4	-31.3	13.9	1.68e-04	0	45	0	838860800	19	4466
2026-01-21 00:37:32.93	6.22	48.86	-29.4	-31.8	13.9	8.51e-04	0	45	0	842006528	18	4734
2026-01-21 00:37:33.93	6.05	49.18	-29.3	-31.4	14.1	1.36e-03	0	45	0	845152256	18	4612
2026-01-21 00:37:34.94	5.88	49.50	-29.3	-31.5	14.1	1.28e-04	0	45	0	848297984	18	4641
2026-01-21 00:37:35.94	5.71	49.82	-29.6	-31.7	13.7	9.90e-06	0	45	0	851443712	19	4595
2026-01-21 00:37:36.95	5.53	50.15	-29.8	-32.2	13.4	1.60e-05	0	45	0	855638016	19	4746
2026-01-21 00:37:37.95	5.35	50.47	-30.0	-32.6	13.1	1.52e-04	0	45	0	857735168	19	4898
2026-01-21 00:37:38.96	5.17	50.80	-29.9	-32.1	13.0	2.18e-03	0	45	0	860880896	20	4628
2026-01-21 00:37:39.96	4.98	51.13	-29.9	-32.5	13.2	1.90e-05	0	45	0	864026624	19	4837
2026-01-21 00:37:40.97	4.78	51.47	-29.5	-31.4	13.8	3.80e-06	0	45	0	867172352	19	4499
2026-01-21 00:37:41.97	4.59	51.80	-29.3	-31.4	14.1	1.50e-06	0	45	0	870318080	18	4602
2026-01-21 00:37:42.97	4.38	52.14	-29.2	-31.3	14.2	1.95e-03	0	45	0	873463808	18	4595
2026-01-21 00:37:43.97	4.18	52.47	-29.4	-31.8	13.9	7.00e-07	0	45	0	876609536	18	4726
2026-01-21 00:37:44.98	3.96	52.82	-29.2	-31.2	14.2	2.20e-06	0	45	0	879755264	18	4533
2026-01-21 00:37:45.99	3.75	53.16	-29.2	-31.3	14.2	7.00e-07	0	45	0	882900992	18	4575
2026-01-21 00:37:46.99	3.52	53.50	-29.3	-31.6	14.0	3.00e-06	0	45	0	886046720	18	4666
2026-01-21 00:37:48.00	3.30	53.85	-29.2	-31.2	14.3	0.00e+00	0	45	0	889192448	18	4551
2026-01-21 00:37:49.00	3.06	54.20	-29.0	-30.7	14.6	2.45e-03	0	45	0	892338176	18	4394
2026-01-21 00:37:50.00	2.82	54.55	-28.9	-30.5	14.7	7.00e-07	0	45	0	895483904	18	4343
2026-01-21 00:37:51.01	2.58	54.90	-29.1	-31.0	14.4	0.00e+00	0	45	0	898629632	18	4472
2026-01-21 00:37:52.01	2.33	55.25	-28.7	-30.6	14.9	0.00e+00	0	45	0	901775360	17	4488
2026-01-21 00:37:53.02	2.07	55.61	-28.5	-30.2	15.1	0.00e+00	0	45	0	904921088	17	4356
2026-01-21 00:37:54.02	1.80	55.97	-28.5	-30.0	15.2	0.00e+00	0	45	0	908066816	17	4319
2026-01-21 00:37:55.02	1.53	56.32	-28.4	-29.8	15.3	0.00e+00	0	45	0	911212544	17	4252
2026-01-21 00:37:56.03	1.25	56.69	-28.4	-30.0	15.2	0.00e+00	0	45	0	914358272	17	4313
2026-01-21 00:37:57.04	0.96	57.05	-28.1	-29.7	15.6	0.00e+00	0	45	0	917504000	16	4353
2026-01-21 00:37:58.04	0.67	57.41	-28.1	-29.8	15.5	0.00e+00	0	45	0	920649728	16	4373
2026-01-21 00:37:59.05	0.37	57.78	-28.0	-29.5	15.8	0.00e+00	0	45	0	923795456	16	4277
2026-01-21 00:38:00.05	0.06	58.15	-27.6	-29.1	16.1	0.00e+00	0	45	0	926941184	15	4295
2026-01-21 00:38:01.06	359.73	58.52	-27.8	-29.5	15.9	0.00e+00	0	45	0	930086912	15	4391
2026-01-21 00:38:02.06	359.41	58.89	-27.7	-29.4	15.9	0.00e+00	0	45	0	933232640	15	4375
2026-01-21 00:38:03.07	359.07	59.26	-27.7	-29.4	16.0	0.00e+00	0	45	0	936378368	15	4379
2026-01-21 00:38:04.06	358.72	59.63	-27.6	-29.2	16.0	0.00e+00	0	45	0	939524096	15	4319
2026-01-21 00:38:05.07	358.36	60.00	-27.9	-29.7	15.8	0.00e+00	0	45	0	942669824	15	4466
2026-01-21 00:38:06.08	357.99	60.38	-27.6	-29.2	16.1	0.00e+00	0	45	0	945815552	15	4309
2026-01-21 00:38:07.07	357.62	60.75	-27.3	-29.0	16.5	0.00e+00	0	45	0	948961280	14	4360
2026-01-21 00:38:08.08	357.22	61.13	-27.2	-28.7	16.6	0.00e+00	0	45	0	952107008	14	4294
2026-01-21 00:38:09.08	356.82	61.51	-27.2	-28.8	16.5	0.00e+00	0	45	0	955252736	14	4307
2026-01-21 00:38:10.09	356.40	61.89	-26.9	-28.2	16.9	0.00e+00	0	45	0	958398464	14	4142
2026-01-21 00:38:11.09	355.97	62.27	-27.1	-28.6	16.7	0.00e+00	0	45	0	961544192	14	4263
2026-01-21 00:38:12.09	355.53	62.65	-26.9	-28.2	16.8	0.00e+00	0	45	0	964689920	14	4156
2026-01-21 00:38:13.09	355.07	63.03	-26.8	-28.4	17.0	0.00e+00	0	45	0	967835648	13	4323
2026-01-21 00:38:14.09	354.60	63.41	-27.0	-28.4	16.8	0.00e+00	0	45	0	970981376	14	4220
2026-01-21 00:38:15.10	354.11	63.79	-27.1	-28.6	16.6	0.00e+00	0	45	0	974127104	14	4274
2026-01-21 00:38:16.10	353.61	64.17	-26.8	-27.8	17.0	0.00e+00	0	45	0	977272832	14	4060
2026-01-21 00:38:17.11	353.08	64.56	-26.7	-27.7	17.1	0.00e+00	0	45	0	980418560	14	4038
2026-01-21 00:38:18.11	352.55	64.94	-26.8	-28.5	16.9	0.00e+00	0	45	0	983564288	13	4353
2026-01-21 00:38:19.11	351.99	65.32	-26.9	-28.6	16.8	0.00e+00	0	45	0	986710016	13	4379
2026-01-21 00:38:20.12	351.41	65.70	-26.9	-28.6	16.9	0.00e+00	0	45	0	989855744	13	4378
2026-01-21 00:38:21.12	350.81	66.08	-26.5	-27.8	17.3	0.00e+00	0	45	0	993001472	13	4156
2026-01-21 00:38:22.12	350.19	66.46	-26.6	-28.0	17.2	0.00e+00	0	45	0	996147200	13	4230
2026-01-21 00:38:23.13	349.55	66.84	-27.0	-28.4	16.8	0.00e+00	0	45	0	999292928	14	4213
2026-01-21 00:38:24.13	348.88	67.22	-27.0	-28.3	16.8	0.00e+00	0	45	0	1002438656	14	4183
2026-01-21 00:38:25.13	348.19	67.60	-27.1	-28.5	16.7	0.00e+00	0	45	0	1005584384	14	4234
2026-01-21 00:38:26.13	347.48	67.97	-27.0	-28.4	16.7	0.00e+00	0	45	0	1008730112	14	4212
2026-01-21 00:38:27.14	346.73	68.35	-26.9	-28.0	17.0	0.00e+00	0	45	0	1011875840	14	4116
2026-01-21 00:38:28.14	345.96	68.72	-26.9	-28.6	16.9	0.00e+00	0	45	0	1015021568	13	4379
2026-01-21 00:38:29.14	345.16	69.09	-26.4	-27.6	17.3	0.00e+00	0	45	0	1018167296	13	4121
2026-01-21 00:38:30.15	344.32	69.46	-26.3	-27.3	17.5	0.00e+00	0	45	0	1021313024	13	4036
2026-01-21 00:38:31.16	343.45	69.82	-26.2	-27.5	17.7	0.00e+00	0	45	0	1024458752	12	4200
2026-01-21 00:38:32.16	342.55	70.18	-26.3	-27.8	17.5	0.00e+00	0	45	0	1027604480	12	4281
2026-01-21 00:38:33.16	341.62	70.54	-26.3	-27.4	17.5	0.00e+00	0	45	0	1030750208	13	4059
2026-01-21 00:38:34.17	340.64	70.90	-25.9	-26.5	17.9	0.00e+00	0	45	0	1033895936	13	3841
2026-01-21 00:38:35.17	339.63	71.25	-26.2	-27.0	17.7	0.00e+00	0	45	0	1037041664	13	3975
2026-01-21 00:38:36.17	338.58	71.59	-26.3	-27.3	17.5	0.00e+00	0	45	0	1040187392	13	4044
2026-01-21 00:38:37.18	337.47	71.93	-26.4	-27.4	17.5	0.00e+00	0	45	0	1043333120	13	4068
2026-01-21 00:38:38.18	336.34	72.27	-26.4	-27.6	17.4	0.00e+00	0	45	0	1046478848	13	4108
2026-01-21 00:38:39.19	335.14	72.60	-26.1	-26.9	17.7	0.00e+00	0	45	0	1049624576	13	3948
2026-01-21 00:38:40.19	333.91	72.92	-26.3	-27.9	17.5	0.00e+00	0	45	0	1052770304	12	4296
2026-01-21 00:38:41.19	332.63	73.23	-26.4	-28.0	17.4	0.00e+00	0	45	0	1055916032	12	4323
2026-01-21 00:38:42.20	331.28	73.54	-26.5	-27.7	16.1	0.00e+00	0	45	0	1059061760	13	4141
2026-01-21 00:38:43.20	329.90	73.84	-26.3	-27.4	17.4	0.00e+00	0	45	0	1062207488	13	4054
2026-01-21 00:38:44.21	328.45	74.14	-26.5	-27.6	17.3	0.00e+00	0	45	0	1065353216	13	4124
2026-01-21 00:38:45.22	326.94	74.42	-26.3	-27.4	17.4	0.00e+00	0	45	0	1068498944	13	4049
2026-01-21 00:38:46.22	325.39	74.69	-26.6	-27.8	17.2	0.00e+00	0	45	0	1071644672	13	4178
2026-01-21 00:38:47.22	323.78	74.95	-26.6	-28.1	17.1	0.00e+00	0	45	0	1074790400	13	4233
2026-01-21 00:38:48.23	322.10	75.20	-26.5	-27.7	17.3	0.00e+00	0	45	0	1077936128	13	4138
2026-01-21 00:38:49.24	320.36	75.44	-26.7	-28.2	17.0	0.00e+00	0	45	0	1081081856	13	4263
2026-01-21 00:38:50.24	318.57	75.66	-26.7	-28.2	17.0	0.00e+00	0	45	0	1084227584	13	4282
2026-01-21 00:38:51.25	316.72	75.87	-26.6	-27.9	17.1	0.00e+00	0	45	0	1087373312	13	4186
2026-01-21 00:38:52.26	314.80	76.07	-26.2	-27.1	17.5	0.00e+00	0	45	0	1090519040	13	3985
2026-01-21 00:38:53.26	312.85	76.25	-26.5	-27.7	17.2	1.44e-05	0	45	0	1093664768	13	4147
2026-01-21 00:38:54.27	310.83	76.42	-26.6	-28.1	17.0	0.00e+00	0	45	0	1096810496	13	4237
2026-01-21 00:38:55.27	308.78	76.57	-26.5	-27.8	17.1	0.00e+00	0	45	0	1099956224	13	4167
2026-01-21 00:38:56.26	306.71	76.70	-26.4	-28.0	17.3	6.07e-04	0	45	0	1103101952	12	4330
2026-01-21 00:38:57.27	304.56	76.81	-26.4	-28.0	17.2	2.21e-05	0	45	0	1106247680	12	4330
2026-01-21 00:38:58.26	302.41	76.91	-26.5	-27.8	17.1	1.50e-06	0	45	0	1109393408	13	4170
2026-01-21 00:38:59.27	300.19	76.99	-26.8	-28.4	16.8	0.00e+00	0	45	0	1112539136	13	4334
2026-01-21 00:39:00.27	297.96	77.04	-27.2	-28.9	16.3	0.00e+00	0	45	0	1115684864	14	4354
2026-01-21 00:39:01.27	295.72	77.08	-27.0	-28.4	16.5	0.00e+00	0	45	0	1118830592	14	4222
2026-01-21 00:39:02.28	293.45	77.10	-27.2	-28.8	16.4	1.11e-04	0	45	0	1121976320	14	4338
2026-01-21 00:39:03.28	291.19	77.10	-27.2	-28.8	16.4	2.44e-04	0	45	0	1125122048	14	4323
2026-01-21 00:39:04.28	288.94	77.09	-27.4	-29.2	16.2	0.00e+00	0	45	0	1128267776	14	4433
2026-01-21 00:39:05.29	286.68	77.05	-26.9	-28.2	16.7	0.00e+00	0	45	0	1131413504	14	4180
2026-01-21 00:39:06.30	284.43	76.99	-26.6	-28.0	16.9	3.11e-03	0	45	0	1134559232	13	4224
2026-01-21 00:39:07.30	282.23	76.91	-26.5	-27.7	17.1	3.50e-05	0	45	0	1137704960	13	4145
2026-01-21 00:39:08.31	280.04	76.81	-26.7	-28.2	16.9	2.45e-04	0	45	0	1140850688	13	4295
2026-01-21 00:39:09.31	277.90	76.70	-26.5	-27.8	17.1	7.77e-04	0	45	0	1143996416	13	4167
2026-01-21 00:39:10.31	275.81	76.57	-26.6	-27.9	17.0	1.98e-04	0	45	0	1147142144	13	4207
2026-01-21 00:39:11.32	273.74	76.42	-26.9	-28.6	16.7	7.28e-04	0	45	0	1150287872	13	4386
2026-01-21 00:39:12.32	271.74	76.25	-26.4	-27.6	17.2	1.07e-03	0	45	0	1153433600	13	4111
2026-01-21 00:39:13.32	269.78	76.07	-26.4	-27.6	17.2	0.00e+00	0	45	0	1156579328	13	4133
2026-01-21 00:39:14.33	267.87	75.88	-26.7	-28.1	16.9	2.42e-03	0	45	0	1159725056	13	4255
2026-01-21 00:39:15.32	266.05	75.67	-26.8	-28.4	16.7	3.49e-03	0	45	0	1162870784	13	4346
2026-01-21 00:39:16.33	264.24	75.44	-26.4	-27.5	17.2	0.00e+00	0	45	0	1166016512	13	4100
2026-01-21 00:39:17.33	262.52	75.21	-26.1	-27.5	17.5	3.54e-03	0	45	0	1169162240	12	4197
2026-01-21 00:39:18.34	260.83	74.96	-26.2	-27.5	17.5	3.67e-03	0	45	0	1172307968	12	4203
2026-01-21 00:39:19.34	259.22	74.70	-26.1	-27.4	17.6	3.17e-04	0	45	0	1175453696	12	4172
2026-01-21 00:39:20.35	257.65	74.42	-26.1	-27.5	17.5	6.82e-04	0	45	0	1178599424	12	4196
2026-01-21 00:39:21.35	256.15	74.14	-26.2	-27.5	17.5	0.00e+00	0	45	0	1180696576	12	4208
2026-01-21 00:39:22.35	254.71	73.85	-26.4	-28.0	17.2	0.00e+00	0	45	0	1183842304	12	4333
2026-01-21 00:39:23.34	253.34	73.56	-26.5	-27.8	17.0	3.51e-03	0	45	0	1186988032	13	4186
2026-01-21 00:39:24.35	251.99	73.25	-26.4	-27.6	17.2	2.17e-03	0	45	0	1191182336	13	4118
2026-01-21 00:39:25.35	250.71	72.93	-26.1	-26.9	17.5	0.00e+00	0	45	0	1194328064	13	3949
2026-01-21 00:39:26.34	249.48	72.61	-26.2	-27.5	17.5	0.00e+00	0	45	0	1196425216	12	4211
2026-01-21 00:39:27.34	248.30	72.28	-26.4	-28.1	17.2	2.18e-03	0	45	0	1199570944	12	4359
2026-01-21 00:39:28.35	247.15	71.95	-26.6	-28.0	17.0	0.00e+00	0	45	0	1202716672	13	4218
2026-01-21 00:39:29.35	246.05	71.61	-26.9	-28.8	16.6	3.55e-03	0	45	0	1205862400	13	4439
2026-01-21 00:39:30.35	244.99	71.26	-26.9	-28.2	16.6	0.00e+00	0	45	0	1209008128	14	4167
2026-01-21 00:39:31.36	243.97	70.91	-26.5	-27.2	17.1	0.00e+00	0	45	0	1212153856	14	3920
2026-01-21 00:39:32.37	242.99	70.55	-26.2	-27.6	17.4	0.00e+00	0	45	0	1215299584	12	4220
2026-01-21 00:39:33.37	242.05	70.20	-26.2	-27.7	17.3	0.00e+00	0	45	0	1218445312	12	4257
2026-01-21 00:39:34.37	241.15	69.84	-26.4	-28.0	17.2	7.00e-07	0	45	0	1221591040	12	4347
2026-01-21 00:39:35.38	240.28	69.47	-26.6	-28.1	16.9	0.00e+00	0	45	0	1224736768	13	4248
2026-01-21 00:39:36.37	239.45	69.10	-26.4	-27.5	17.2	0.00e+00	0	45	0	1227882496	13	4092
2026-01-21 00:39:37.38	238.64	68.73	-26.0	-26.6	17.6	0.00e+00	0	45	0	1231028224	13	3877
2026-01-21 00:39:38.38	237.87	68.36	-25.9	-27.0	17.7	0.00e+00	0	45	0	1234173952	12	4077
2026-01-21 00:39:39.39	237.12	67.98	-26.2	-27.6	17.4	2.56e-03	0	45	0	1237319680	12	4227
2026-01-21 00:39:40.40	236.39	67.60	-26.6	-28.0	16.8	0.00e+00	0	45	0	1240465408	13	4237
2026-01-21 00:39:41.40	235.70	67.23	-27.0	-28.5	16.3	0.00e+00	0	45	0	1243611136	14	4244
2026-01-21 00:39:42.40	235.03	66.85	-27.5	-29.5	15.8	0.00e+00	0	45	0	1246756864	14	4529
2026-01-21 00:39:43.41	234.39	66.47	-27.2	-28.9	16.1	0.00e+00	0	45	0	1249902592	14	4369
2026-01-21 00:39:44.41	233.77	66.09	-27.2	-28.8	16.2	0.00e+00	0	45	0	1253048320	14	4330
2026-01-21 00:39:45.41	233.17	65.70	-26.8	-28.0	16.6	0.00e+00	0	45	0	1256194048	14	4132
2026-01-21 00:39:46.41	232.59	65.32	-26.4	-27.0	17.2	0.00e+00	0	45	0	1259339776	14	3878
2026-01-21 00:39:47.41	232.03	64.94	-26.4	-27.6	17.0	0.00e+00	0	45	0	1262485504	13	4127
2026-01-21 00:39:48.41	231.49	64.56	-27.1	-28.6	16.2	0.00e+00	0	45	0	1265631232	14	4281
2026-01-21 00:39:49.42	230.96	64.17	-27.7	-29.5	15.6	0.00e+00	0	45	0	1268776960	15	4430
2026-01-21 00:39:50.42	230.46	63.79	-27.2	-28.4	16.1	0.00e+00	0	45	0	1271922688	15	4119
2026-01-21 00:39:51.42	229.97	63.41	-26.5	-27.4	16.9	0.00e+00	0	45	0	1275068416	14	3956
2026-01-21 00:39:52.43	229.49	63.03	-25.9	-26.4	17.7	0.00e+00	0	45	0	1278214144	13	3822
2026-01-21 00:39:53.43	229.04	62.65	-25.9	-27.4	17.8	0.00e+00	0	45	0	1281359872	11	4290
2026-01-21 00:39:54.44	228.59	62.26	-26.0	-27.6	17.6	0.00e+00	0	45	0	1284505600	11	4334
2026-01-21 00:39:55.44	228.16	61.88	-26.3	-27.9	17.1	0.00e+00	0	45	0	1287651328	12	4310
2026-01-21 00:39:56.45	227.74	61.50	-27.1	-28.5	16.3	0.00e+00	0	45	0	1290797056	14	4229
2026-01-21 00:39:57.44	227.34	61.13	-27.8	-29.8	15.4	0.00e+00	0	45	0	1293942784	15	4489
2026-01-21 00:39:58.45	226.94	60.75	-28.4	-30.6	14.6	0.00e+00	0	45	0	1297088512	16	4602
2026-01-21 00:39:59.45	226.56	60.37	-27.9	-29.4	15.0	7.00e-07	0	45	0	1300234240	16	4262
2026-01-21 00:40:00.46	226.19	59.99	-26.9	-27.6	16.3	0.00e+00	0	45	0	1303379968	15	3898
2026-01-21 00:40:01.45	225.84	59.62	-26.2	-27.2	17.2	0.00e+00	0	45	0	1306525696	13	4009
2026-01-21 00:40:02.46	225.48	59.25	-26.6	-28.0	16.8	0.00e+00	0	45	0	1309671424	13	4238
2026-01-21 00:40:03.46	225.15	58.87	-26.9	-28.7	16.3	0.00e+00	0	45	0	1312817152	13	4427
2026-01-21 00:40:04.46	224.82	58.50	-27.7	-29.4	15.6	0.00e+00	0	45	0	1315962880	15	4379
2026-01-21 00:40:05.47	224.50	58.13	-28.7	-30.8	14.4	7.00e-07	0	45	0	1319108608	17	4586
2026-01-21 00:40:06.47	224.18	57.77	-29.4	-32.0	13.3	1.06e-05	0	45	0	1322254336	18	4859
2026-01-21 00:40:07.48	223.88	57.40	-29.3	-31.3	13.4	1.83e-05	0	45	0	1325400064	19	4512
2026-01-21 00:40:08.48	223.59	57.03	-28.5	-29.7	14.6	7.00e-07	0	45	0	1328545792	18	4164
2026-01-21 00:40:09.48	223.30	56.67	-27.5	-28.5	15.9	7.00e-07	0	45	0	1331691520	16	4037
2026-01-21 00:40:10.49	223.02	56.31	-26.7	-27.6	16.8	0.00e+00	0	45	0	1334837248	14	4022
2026-01-21 00:40:11.49	222.75	55.95	-26.3	-27.3	17.1	0.00e+00	0	45	0	1337982976	13	4033
2026-01-21 00:40:12.49	222.48	55.59	-26.5	-27.8	16.7	0.00e+00	0	45	0	1341128704	13	4183
2026-01-21 00:40:13.50	222.22	55.23	-27.3	-29.0	15.9	0.00e+00	0	45	0	1344274432	14	4376
2026-01-21 00:40:14.50	221.97	54.88	-28.3	-30.2	14.9	0.00e+00	0	45	0	1347420160	16	4515
2026-01-21 00:40:15.50	221.72	54.53	-29.2	-31.3	13.8	1.50e-06	0	45	0	1350565888	18	4623
2026-01-21 00:40:16.50	221.48	54.18	-29.6	-31.9	13.1	2.36e-05	0	45	0	1353711616	19	4682
2026-01-21 00:40:17.50	221.25	53.83	-29.5	-31.7	13.2	2.89e-05	0	45	0	1356857344	19	4623
2026-01-21 00:40:18.50	221.02	53.48	-29.1	-31.2	13.9	6.80e-06	0	45	0	1360003072	18	4575
2026-01-21 00:40:19.51	220.80	53.14	-28.6	-30.1	14.5	7.00e-07	0	45	0	1363148800	18	4239
2026-01-21 00:40:20.51	220.58	52.79	-28.4	-30.1	14.8	7.00e-07	0	45	0	1366294528	17	4342
2026-01-21 00:40:21.51	220.37	52.45	-28.3	-29.8	15.0	0.00e+00	0	45	0	1369440256	17	4264
2026-01-21 00:40:22.51	220.16	52.11	-28.3	-29.9	14.8	0.00e+00	0	45	0	1372585984	17	4291
2026-01-21 00:40:23.51	219.96	51.78	-28.8	-30.8	14.2	7.00e-07	0	45	0	1375731712	17	4576
2026-01-21 00:40:24.52	219.76	51.44	-29.2	-31.5	13.6	7.60e-06	0	45	0	1378877440	18	4660
2026-01-21 00:40:25.52	219.57	51.11	-29.7	-32.0	13.0	1.67e-05	0	45	0	1382023168	19	4723
2026-01-21 00:40:26.53	219.38	50.77	-29.9	-32.3	12.5	7.17e-05	0	45	0	1385168896	20	4713
2026-01-21 00:40:27.54	219.19	50.44	-30.0	-32.5	12.2	1.91e-04	0	45	0	1388314624	20	4807
2026-01-21 00:40:28.54	219.01	50.12	-29.8	-31.9	12.7	1.50e-04	0	45	0	1391460352	20	4592
2026-01-21 00:40:29.54	218.83	49.79	-29.1	-30.7	13.8	1.67e-05	0	45	0	1394606080	19	4319
2026-01-21 00:40:30.54	218.66	49.47	-28.7	-30.1	14.5	1.50e-06	0	45	0	1397751808	18	4238
2026-01-21 00:40:31.54	218.49	49.15	-28.8	-30.5	14.3	0.00e+00	0	45	0	1400897536	18	4362
2026-01-21 00:40:32.54	218.32	48.83	-29.1	-31.0	13.9	3.00e-06	0	45	0	1404043264	18	4525
2026-01-21 00:40:33.54	218.16	48.51	-29.0	-30.8	14.1	4.50e-06	0	45	0	1407188992	18	4456
2026-01-21 00:40:34.54	218.00	48.20	-29.0	-30.9	14.0	2.20e-06	0	45	0	1410334720	18	4493
2026-01-21 00:40:35.53	217.85	47.89	-29.0	-31.0	13.9	3.80e-06	0	45	0	1413480448	18	4502
2026-01-21 00:40:36.53	217.69	47.58	-29.0	-30.9	14.0	3.80e-06	0	45	0	1416626176	18	4487
2026-01-21 00:40:37.53	217.54	47.27	-28.4	-30.7	13.7	4.50e-06	0	45	0	1419771904	18	4658
2026-01-21 00:40:38.53	217.40	46.96	-29.5	-32.1	12.1	9.10e-06	0	45	0	1422917632	18	4851
2026-01-21 00:40:39.54	217.25	46.66	-29.7	-32.3	12.9	3.05e-05	0	45	0	1426063360	19	4822
2026-01-21 00:40:40.55	217.11	46.35	-29.8	-32.4	12.0	7.24e-05	0	45	0	1429209088	19	4852
2026-01-21 00:40:41.54	216.97	46.05	-29.8	-32.5	12.5	2.42e-03	0	45	0	1432354816	19	4903
2026-01-21 00:40:42.53	216.84	45.76	-29.9	-32.7	12.4	1.26e-04	0	45	0	1434451968	19	4952
2026-01-21 00:40:43.54	216.70	45.46	-29.8	-32.4	12.8	8.54e-05	0	45	0	1437597696	19	4835
2026-01-21 00:40:44.54	216.57	45.17	-29.6	-31.9	13.1	3.12e-05	0	45	0	1440743424	19	4679
2026-01-21 00:40:45.54	216.45	44.87	-29.4	-31.3	13.5	1.37e-05	0	45	0	1443889152	19	4489
2026-01-21 00:40:46.55	216.32	44.58	-29.3	-31.7	13.6	2.33e-03	0	45	0	1448083456	18	4730
2026-01-21 00:40:47.55	216.20	44.29	-29.6	-31.8	13.1	9.90e-06	0	45	0	1450180608	19	4665
2026-01-21 00:40:48.55	216.07	44.00	-30.1	-32.6	12.3	1.50e-04	0	45	0	1453326336	20	4833
2026-01-21 00:40:49.54	215.96	43.72	-30.1	-32.8	12.2	1.80e-04	0	45	0	1456472064	20	4901
2026-01-21 00:40:50.54	215.84	43.44	-30.1	-32.7	12.3	2.67e-04	0	45	0	1459617792	20	4846
2026-01-21 00:40:51.55	215.72	43.16	-29.6	-31.4	13.0	4.11e-05	0	45	0	1462763520	20	4442
2026-01-21 00:40:52.56	215.61	42.88	-29.4	-31.3	13.4	2.27e-03	0	45	0	1465909248	19	4514
2026-01-21 00:40:53.56	215.50	42.60	-29.5	-32.1	13.3	1.14e-05	0	45	0	1469054976	18	4856
2026-01-21 00:40:54.57	215.39	42.32	-29.5	-31.6	13.2	1.37e-05	0	45	0	1472200704	19	4603
2026-01-21 00:40:55.57	215.28	42.05	-29.6	-32.0	13.0	2.97e-05	0	45	0	1475346432	19	4720
2026-01-21 00:40:56.58	215.18	41.77	-30.0	-32.8	12.5	2.05e-03	0	45	0	1478492160	19	5014
2026-01-21 00:40:57.58	215.07	41.51	-30.3	-33.3	11.8	4.00e-04	0	45	0	1481637888	20	5076
2026-01-21 00:40:58.58	214.97	41.24	-30.4	-33.6	11.6	2.97e-03	0	45	0	1484783616	20	5183
2026-01-21 00:40:59.59	214.87	40.97	-30.2	-33.0	12.0	5.04e-04	0	45	0	1487929344	20	4965
2026-01-21 00:41:00.59	214.77	40.71	-29.9	-32.2	12.5	1.72e-04	0	45	0	1491075072	20	4690
2026-01-21 00:41:01.59	214.68	40.44	-29.6	-32.0	13.0	2.32e-03	0	45	0	1494220800	19	4712
2026-01-21 00:41:02.60	214.58	40.18	-29.3	-31.7	13.4	2.09e-03	0	45	0	1497366528	18	4742
2026-01-21 00:41:03.61	214.49	39.92	-29.1	-31.3	13.7	2.20e-06	0	45	0	1500512256	18	4614
2026-01-21 00:41:04.60	214.40	39.67	-29.2	-31.5	13.6	1.70e-03	0	45	0	1503657984	18	4677
2026-01-21 00:41:05.61	214.31	39.41	-29.3	-31.6	13.5	1.73e-03	0	45	0	1506803712	18	4703
2026-01-21 00:41:06.61	214.22	39.16	-29.5	-31.6	13.2	2.13e-05	0	45	0	1509949440	19	4610
2026-01-21 00:41:07.61	214.13	38.91	-29.8	-32.5	12.7	2.81e-03	0	45	0	1513095168	19	4887
2026-01-21 00:41:08.61	214.04	38.66	-29.8	-32.5	12.7	3.20e-03	0	45	0	1516240896	19	4900
2026-01-21 00:41:09.61	213.96	38.41	-29.7	-32.3	12.8	6.48e-05	0	45	0	1519386624	19	4824
2026-01-21 00:41:10.62	213.88	38.16	-29.8	-32.6	12.6	8.16e-05	0	45	0	1522532352	19	4919
2026-01-21 00:41:11.62	213.79	37.92	-29.9	-32.8	12.5	3.17e-03	0	45	0	1525678080	19	5006
2026-01-21 00:41:12.63	213.71	37.67	-29.9	-32.6	12.6	1.11e-04	0	45	0	1528823808	19	4952
2026-01-21 00:41:13.63	213.63	37.43	-29.8	-32.4	12.7	3.03e-03	0	45	0	1531969536	19	4849
2026-01-21 00:41:14.64	213.55	37.19	-29.5	-31.7	13.1	3.15e-03	0	45	0	1535115264	19	4631
2026-01-21 00:41:15.64	213.48	36.95	-29.2	-31.0	13.5	1.14e-05	0	45	0	1538260992	19	4429
2026-01-21 00:41:16.65	213.40	36.71	-29.2	-31.5	13.5	2.62e-03	0	45	0	1541406720	18	4675
2026-01-21 00:41:17.66	213.32	36.48	-29.0	-31.0	13.9	2.20e-03	0	45	0	1544552448	18	4517
2026-01-21 00:41:18.66	213.25	36.25	-28.7	-30.3	14.3	7.00e-07	0	45	0	1547698176	18	4314
2026-01-21 00:41:19.66	213.18	36.01	-28.6	-30.6	14.4	1.46e-03	0	45	0	1550843904	17	4523
2026-01-21 00:41:20.66	213.11	35.79	-28.7	-30.8	14.3	7.00e-07	0	45	0	1553989632	17	4566
2026-01-21 00:41:21.67	213.03	35.56	-29.0	-31.4	13.9	3.80e-06	0	45	0	1557135360	17	4754
2026-01-21 00:41:22.67	212.96	35.33	-29.1	-31.2	13.8	1.53e-03	0	45	0	1560281088	18	4581
2026-01-21 00:41:23.67	212.90	35.10	-29.1	-31.3	13.7	1.45e-03	0	45	0	1563426816	18	4617
2026-01-21 00:41:24.67	212.83	34.88	-29.2	-31.5	13.6	6.80e-06	0	45	0	1566572544	18	4667
2026-01-21 00:41:25.68	212.76	34.66	-29.0	-31.1	13.8	6.10e-06	0	45	0	1569718272	18	4544
2026-01-21 00:41:26.68	212.70	34.44	-28.8	-31.1	14.1	3.00e-06	0	45	0	1572864000	17	4661
2026-01-21 00:41:27.68	212.63	34.22	-28.9	-31.2	14.0	3.80e-06	0	45	0	1576009728	17	4703
2026-01-21 00:41:28.68	212.57	34.00	-28.9	-31.2	14.0	2.63e-03	0	45	0	1579155456	17	4701
2026-01-21 00:41:29.68	212.50	33.79	-28.8	-31.1	14.1	4.50e-06	0	45	0	1582301184	17	4659
2026-01-21 00:41:30.68	212.44	33.57	-28.9	-31.4	13.9	3.80e-06	0	45	0	1585446912	17	4758
2026-01-21 00:41:31.68	212.38	33.36	-28.9	-30.8	14.0	4.50e-06	0	45	0	1588592640	18	4462
2026-01-21 00:41:32.69	212.32	33.15	-29.0	-31.1	13.8	3.80e-06	0	45	0	1591738368	18	4558
2026-01-21 00:41:33.69	212.26	32.94	-29.1	-31.3	13.6	1.22e-05	0	45	0	1594884096	18	4634
2026-01-21 00:41:34.69	212.20	32.73	-28.9	-30.8	14.0	4.50e-06	0	45	0	1598029824	18	4463
2026-01-21 00:41:35.70	212.14	32.52	-28.8	-30.9	14.1	3.00e-06	0	45	0	1601175552	17	4621
2026-01-21 00:41:36.70	212.09	32.31	-28.6	-30.5	14.4	0.00e+00	0	45	0	1604321280	17	4482
2026-01-21 00:41:37.71	212.03	32.11	-28.6	-30.6	14.3	0.00e+00	0	45	0	1607467008	17	4511
2026-01-21 00:41:38.71	211.97	31.90	-28.6	-30.4	14.4	7.00e-07	0	45	0	1610612736	17	4467
2026-01-21 00:41:39.72	211.92	31.70	-28.5	-30.4	14.4	0.00e+00	0	45	0	1613758464	17	4459
2026-01-21 00:41:40.72	211.86	31.50	-28.5	-30.3	14.5	0.00e+00	0	45	0	1616904192	17	4430
2026-01-21 00:41:41.73	211.81	31.30	-28.4	-30.7	14.6	0.00e+00	0	45	0	1620049920	16	4651
2026-01-21 00:41:42.73	211.76	31.10	-28.3	-30.2	14.8	0.00e+00	0	45	0	1623195648	16	4529
2026-01-21 00:41:43.73	211.70	30.91	-27.9	-29.5	15.2	1.50e-06	0	45	0	1626341376	16	4314
2026-01-21 00:41:44.73	211.65	30.71	-27.6	-29.2	15.5	0.00e+00	0	45	0	1629487104	15	4342
2026-01-21 00:41:45.73	211.60	30.52	-27.5	-29.1	15.5	0.00e+00	0	45	0	1632632832	15	4325
2026-01-21 00:41:46.74	211.55	30.32	-27.4	-28.8	15.7	0.00e+00	0	45	0	1635778560	15	4228
2026-01-21 00:41:47.74	211.50	30.13	-27.2	-28.7	16.0	0.00e+00	0	45	0	1638924288	14	4322
2026-01-21 00:41:48.74	211.45	29.94	-27.1	-28.7	16.0	0.00e+00	0	45	0	1642070016	14	4328
2026-01-21 00:41:49.75	211.40	29.75	-27.3	-29.0	15.9	0.00e+00	0	45	0	1645215744	14	4397
2026-01-21 00:41:50.75	211.36	29.56	-27.2	-28.8	16.0	0.00e+00	0	45	0	1648361472	14	4332
2026-01-21 00:41:51.76	211.31	29.38	-27.0	-28.4	16.2	0.00e+00	0	45	0	1651507200	14	4226
2026-01-21 00:41:52.76	211.26	29.19	-27.1	-28.5	16.1	0.00e+00	0	45	0	1654652928	14	4269
2026-01-21 00:41:53.76	211.21	29.01	-27.0	-28.3	16.2	0.00e+00	0	45	0	1657798656	14	4215
2026-01-21 00:41:54.77	211.17	28.82	-27.0	-28.5	16.1	0.00e+00	0	45	0	1660944384	14	4254
2026-01-21 00:41:55.77	211.12	28.64	-27.2	-28.8	15.9	0.00e+00	0	45	0	1664090112	14	4352
2026-01-21 00:41:56.77	211.08	28.46	-27.2	-28.8	15.9	0.00e+00	0	45	0	1667235840	14	4341
2026-01-21 00:41:57.77	211.04	28.28	-27.3	-29.1	15.8	0.00e+00	0	45	0	1670381568	14	4417
2026-01-21 00:41:58.78	210.99	28.10	-27.3	-29.2	15.7	0.00e+00	0	45	0	1673527296	14	4445
2026-01-21 00:41:59.78	210.95	27.92	-27.3	-29.2	15.7	0.00e+00	0	45	0	1676673024	14	4459
2026-01-21 00:42:00.79	210.91	27.75	-27.3	-29.1	15.7	0.00e+00	0	45	0	1679818752	14	4433
2026-01-21 00:42:01.80	210.86	27.57	-27.3	-29.1	15.7	0.00e+00	0	45	0	1682964480	14	4442
2026-01-21 00:42:02.80	210.82	27.40	-27.5	-29.5	15.5	0.00e+00	0	45	0	1686110208	14	4555
2026-01-21 00:42:03.81	210.78	27.22	-27.3	-28.7	15.7	0.00e+00	0	45	0	1689255936	15	4210
2026-01-21 00:42:04.81	210.74	27.05	-27.2	-28.9	15.8	0.00e+00	0	45	0	1692401664	14	4392
2026-01-21 00:42:05.81	210.70	26.88	-27.3	-29.1	15.8	0.00e+00	0	45	0	1695547392	14	4422
2026-01-21 00:42:06.82	210.66	26.71	-27.2	-28.9	15.8	0.00e+00	0	45	0	1698693120	14	4377
2026-01-21 00:42:07.82	210.62	26.54	-27.2	-28.8	15.9	0.00e+00	0	45	0	1701838848	14	4351
2026-01-21 00:42:08.83	210.58	26.37	-27.3	-29.2	15.7	0.00e+00	0	45	0	1704984576	14	4452
2026-01-21 00:42:09.83	210.54	26.21	-27.2	-29.0	15.8	0.00e+00	0	45	0	1708130304	14	4400
2026-01-21 00:42:10.84	210.51	26.04	-27.1	-28.8	15.9	0.00e+00	0	45	0	1711276032	14	4338
2026-01-21 00:42:11.84	210.47	25.87	-27.2	-28.8	15.9	0.00e+00	0	45	0	1714421760	14	4345
2026-01-21 00:42:12.84	210.43	25.71	-27.2	-29.0	15.8	0.00e+00	0	45	0	1717567488	14	4400
2026-01-21 00:42:13.85	210.40	25.55	-27.4	-29.3	15.6	0.00e+00	0	45	0	1720713216	14	4487
2026-01-21 00:42:14.85	210.36	25.39	-27.4	-29.3	15.6	0.00e+00	0	45	0	1723858944	14	4493
2026-01-21 00:42:15.85	210.32	25.22	-27.5	-29.1	15.4	0.00e+00	0	45	0	1727004672	15	4334
2026-01-21 00:42:16.85	210.29	25.07	-27.7	-29.6	15.1	0.00e+00	0	45	0	1730150400	15	4466
2026-01-21 00:42:17.86	210.25	24.91	-27.7	-29.4	15.2	3.80e-06	0	45	0	1733296128	15	4417
2026-01-21 00:42:18.86	210.22	24.75	-27.6	-29.3	15.3	0.00e+00	0	45	0	1736441856	15	4392
2026-01-21 00:42:19.86	210.18	24.59	-27.6	-29.4	15.3	0.00e+00	0	45	0	1739587584	15	4412
2026-01-21 00:42:20.86	210.15	24.44	-27.7	-29.5	15.2	7.00e-07	0	45	0	1742733312	15	4446
2026-01-21 00:42:21.85	210.12	24.28	-27.7	-29.6	15.2	0.00e+00	0	45	0	1745879040	15	4463
2026-01-21 00:42:22.86	210.08	24.13	-27.7	-29.7	15.1	0.00e+00	0	45	0	1749024768	15	4499
2026-01-21 00:42:23.87	210.05	23.97	-27.7	-29.7	15.1	7.00e-07	0	45	0	1752170496	15	4496
2026-01-21 00:42:24.87	210.02	23.82	-27.7	-29.6	15.1	7.00e-07	0	45	0	1755316224	15	4472
2026-01-21 00:42:25.87	209.99	23.67	-26.9	-29.0	14.6	0.00e+00	0	45	0	1757413376	15	4536
2026-01-21 00:42:26.87	209.95	23.52	-27.7	-29.6	15.1	1.50e-06	0	45	0	1760559104	15	4460
2026-01-21 00:42:27.86	209.92	23.37	-27.6	-29.4	13.7	0.00e+00	0	45	0	1763704832	15	4427
2026-01-21 00:42:28.87	209.89	23.22	-27.6	-29.2	14.9	7.00e-07	0	45	0	1766850560	15	4373
2026-01-21 00:42:29.87	209.86	23.07	-27.5	-29.1	15.4	0.00e+00	0	45	0	1769996288	15	4335
2026-01-21 00:42:30.87	209.83	22.93	-27.6	-29.3	15.2	0.00e+00	0	45	0	1773142016	15	4388
2026-01-21 00:42:31.86	209.80	22.78	-27.5	-29.2	15.3	0.00e+00	0	45	0	1776287744	15	4363
2026-01-21 00:42:32.87	209.77	22.63	-27.5	-29.2	15.3	7.00e-07	0	45	0	1779433472	15	4360
2026-01-21 00:42:33.87	209.74	22.49	-27.7	-29.6	15.1	0.00e+00	0	45	0	1782579200	15	4464
2026-01-21 00:42:34.87	209.71	22.35	-28.2	-30.2	14.6	0.00e+00	0	45	0	1785724928	16	4524
2026-01-21 00:42:35.87	209.68	22.20	-27.9	-29.4	15.0	0.00e+00	0	45	0	1788870656	16	4307
2026-01-21 00:42:36.87	209.65	22.06	-27.5	-29.1	15.3	3.96e-03	0	45	0	1792016384	15	4334
2026-01-21 00:42:37.86	209.63	21.92	-27.3	-29.2	15.5	0.00e+00	0	45	0	1795162112	14	4486
2026-01-21 00:42:38.87	209.60	21.78	-27.4	-29.4	15.5	0.00e+00	0	45	0	1798307840	14	4523
2026-01-21 00:42:39.88	209.57	21.64	-27.5	-29.2	15.3	0.00e+00	0	45	0	1801453568	15	4358
2026-01-21 00:42:40.88	209.54	21.50	-27.7	-29.5	15.1	3.55e-03	0	45	0	1804599296	15	4453
2026-01-21 00:42:41.89	209.52	21.36	-27.6	-29.2	15.2	0.00e+00	0	45	0	1807745024	15	4369
2026-01-21 00:42:42.89	209.49	21.22	-27.3	-29.2	15.5	0.00e+00	0	45	0	1810890752	14	4467
2026-01-21 00:42:43.89	209.46	21.08	-27.2	-28.9	15.7	0.00e+00	0	45	0	1814036480	14	4386
2026-01-21 00:42:44.90	209.44	20.95	-27.0	-28.6	15.9	0.00e+00	0	45	0	1817182208	14	4302
2026-01-21 00:42:45.90	209.41	20.81	-27.1	-28.7	15.8	3.98e-03	0	45	0	1820327936	14	4318
2026-01-21 00:42:46.90	209.38	20.68	-27.1	-28.8	15.8	3.84e-03	0	45	0	1823473664	14	4345
2026-01-21 00:42:47.89	209.36	20.54	-27.3	-29.2	15.5	0.00e+00	0	45	0	1826619392	14	4464
2026-01-21 00:42:48.89	209.33	20.41	-27.2	-28.8	15.7	0.00e+00	0	45	0	1829765120	14	4372
2026-01-21 00:42:49.89	209.31	20.28	-27.0	-28.5	15.9	0.00e+00	0	45	0	1832910848	14	4277
2026-01-21 00:42:50.90	209.28	20.14	-27.0	-28.5	15.9	0.00e+00	0	45	0	1836056576	14	4265
2026-01-21 00:42:51.90	209.26	20.01	-27.0	-28.6	15.9	3.46e-03	0	45	0	1839202304	14	4296
2026-01-21 00:42:52.89	209.23	19.88	-27.1	-28.6	15.8	3.88e-03	0	45	0	1842348032	14	4313
2026-01-21 00:42:53.90	209.21	19.75	-27.1	-28.7	15.8	1.98e-05	0	45	0	1845493760	14	4335
2026-01-21 00:42:54.90	209.18	19.62	-27.1	-28.6	15.8	0.00e+00	0	45	0	1848639488	14	4306
2026-01-21 00:42:55.91	209.16	19.49	-27.1	-28.7	15.8	3.72e-03	0	45	0	1851785216	14	4334
2026-01-21 00:42:56.91	209.14	19.37	-27.1	-28.7	15.8	7.60e-06	0	45	0	1854930944	14	4344
2026-01-21 00:42:57.92	209.11	19.24	-27.1	-28.8	15.7	3.75e-03	0	45	0	1858076672	14	4361
2026-01-21 00:42:58.93	209.09	19.11	-27.3	-29.1	15.5	3.42e-03	0	45	0	1861222400	14	4446
2026-01-21 00:42:59.93	209.07	18.98	-27.2	-28.9	15.7	0.00e+00	0	45	0	1864368128	14	4390
2026-01-21 00:43:00.94	209.04	18.86	-27.3	-29.2	15.5	3.44e-03	0	45	0	1867513856	14	4488
2026-01-21 00:43:01.94	209.02	18.73	-27.3	-29.1	15.5	3.97e-03	0	45	0	1870659584	14	4457
2026-01-21 00:43:02.94	209.00	18.61	-27.3	-29.1	15.5	8.77e-05	0	45	0	1873805312	14	4447
2026-01-21 00:43:03.94	208.98	18.49	-27.4	-29.3	15.4	3.94e-03	0	45	0	1876951040	14	4515
2026-01-21 00:43:04.95	208.96	18.36	-27.3	-29.2	15.4	0.00e+00	0	45	0	1880096768	14	4466
2026-01-21 00:43:05.95	208.93	18.24	-27.4	-29.4	15.3	1.91e-04	0	45	0	1883242496	14	4536
2026-01-21 00:43:06.95	208.91	18.12	-27.5	-29.5	15.2	3.74e-03	0	45	0	1886388224	14	4567
2026-01-21 00:43:07.96	208.89	18.00	-27.4	-29.5	15.3	3.44e-03	0	45	0	1889533952	14	4567
2026-01-21 00:43:08.96	208.87	17.88	-27.5	-29.6	15.2	1.37e-04	0	45	0	1892679680	14	4589
2026-01-21 00:43:09.97	208.85	17.75	-27.5	-29.6	15.2	0.00e+00	0	45	0	1895825408	14	4594
2026-01-21 00:43:10.97	208.83	17.64	-27.5	-29.1	15.2	3.00e-06	0	45	0	1898971136	15	4344
2026-01-21 00:43:11.97	208.81	17.52	-27.6	-29.3	15.1	1.81e-04	0	45	0	1902116864	15	4394
2026-01-21 00:43:12.97	208.79	17.40	-27.6	-29.3	15.1	3.81e-03	0	45	0	1905262592	15	4396
2026-01-21 00:43:13.98	208.77	17.28	-27.8	-29.9	14.7	3.71e-03	0	45	0	1908408320	15	4581
2026-01-21 00:43:14.98	208.75	17.16	-27.6	-29.5	15.0	7.00e-07	0	45	0	1911554048	15	4446
2026-01-21 00:43:15.99	208.73	17.05	-27.6	-29.3	15.1	0.00e+00	0	45	0	1914699776	15	4384
2026-01-21 00:43:16.99	208.71	16.93	-27.6	-29.3	15.1	3.39e-03	0	45	0	1917845504	15	4386
2026-01-21 00:43:18.00	208.69	16.81	-27.6	-29.4	15.0	2.15e-04	0	45	0	1920991232	15	4411
2026-01-21 00:43:19.00	208.67	16.70	-27.7	-29.7	14.8	3.36e-03	0	45	0	1924136960	15	4516
2026-01-21 00:43:20.00	208.65	16.58	-27.8	-29.8	14.7	7.00e-07	0	45	0	1927282688	15	4555
2026-01-21 00:43:21.00	208.63	16.47	-27.8	-29.8	14.7	0.00e+00	0	45	0	1930428416	15	4548
2026-01-21 00:43:22.01	208.61	16.36	-27.8	-29.9	14.7	0.00e+00	0	45	0	1933574144	15	4581
2026-01-21 00:43:23.01	208.59	16.24	-27.9	-30.0	14.6	2.20e-06	0	45	0	1936719872	15	4621
2026-01-21 00:43:24.00	208.57	16.13	-27.9	-30.2	14.5	2.52e-04	0	45	0	1939865600	15	4659
2026-01-21 00:43:25.00	208.56	16.02	-27.9	-30.1	14.5	1.50e-06	0	45	0	1943011328	15	4624
2026-01-21 00:43:26.00	208.54	15.91	-27.9	-30.2	14.5	0.00e+00	0	45	0	1946157056	15	4655
2026-01-21 00:43:27.00	208.52	15.80	-28.0	-30.2	14.4	7.00e-07	0	45	0	1949302784	15	4674
2026-01-21 00:43:28.00	208.50	15.69	-27.9	-30.1	14.5	7.00e-07	0	45	0	1952448512	15	4629
2026-01-21 00:43:29.00	208.48	15.58	-27.8	-29.9	14.7	3.49e-03	0	45	0	1955594240	15	4565
2026-01-21 00:43:30.00	208.47	15.47	-27.9	-30.2	14.5	0.00e+00	0	45	0	1958739968	15	4673
2026-01-21 00:43:31.01	208.45	15.36	-27.9	-30.1	14.5	0.00e+00	0	45	0	1961885696	15	4633
2026-01-21 00:43:32.01	208.43	15.25	-27.9	-30.2	14.5	7.00e-07	0	45	0	1965031424	15	4665
2026-01-21 00:43:33.01	208.42	15.14	-28.2	-30.3	14.3	1.50e-06	0	45	0	1968177152	16	4586
2026-01-21 00:43:34.02	208.40	15.04	-28.3	-30.4	14.2	7.00e-07	0	45	0	1971322880	16	4619
2026-01-21 00:43:35.02	208.38	14.93	-28.3	-30.5	14.2	3.80e-06	0	45	0	1974468608	16	4623
2026-01-21 00:43:36.02	208.36	14.82	-28.3	-30.6	14.1	3.00e-06	0	45	0	1977614336	16	4673
2026-01-21 00:43:37.03	208.35	14.72	-28.3	-30.5	14.1	2.20e-06	0	45	0	1980760064	16	4647
2026-01-21 00:43:38.03	208.33	14.61	-28.4	-30.8	14.0	2.20e-06	0	45	0	1983905792	16	4729
2026-01-21 00:43:39.02	208.32	14.51	-28.4	-30.9	13.9	3.00e-06	0	45	0	1986002944	16	4750
2026-01-21 00:43:40.02	208.30	14.40	-28.7	-30.9	13.6	5.30e-06	0	45	0	1989148672	17	4652
2026-01-21 00:43:41.04	208.28	14.30	-29.0	-31.3	13.0	1.29e-05	0	45	0	1992294400	18	4675
2026-01-21 00:43:42.04	208.27	14.19	-28.8	-30.6	13.5	1.67e-05	0	45	0	1995440128	18	4452
2026-01-21 00:43:43.05	208.25	14.09	-28.5	-30.6	13.8	5.30e-06	0	45	0	1999634432	17	4559
2026-01-21 00:43:44.05	208.24	13.99	-28.7	-31.1	13.4	1.14e-05	0	45	0	2002780160	17	4714
2026-01-21 00:43:45.06	208.22	13.88	-28.5	-30.6	13.7	9.10e-06	0	45	0	2005925888	17	4554
2026-01-21 00:43:46.06	208.20	13.78	-28.5	-30.6	13.7	6.10e-06	0	45	0	2008023040	17	4567
2026-01-21 00:43:47.06	208.19	13.68	-28.6	-30.8	13.6	7.60e-06	0	45	0	2011168768	17	4641
2026-01-21 00:43:48.06	208.17	13.58	-28.6	-30.7	13.7	6.10e-06	0	45	0	2014314496	17	4587
2026-01-21 00:43:49.06	208.16	13.48	-28.5	-30.6	13.7	8.30e-06	0	45	0	2017460224	17	4568
2026-01-21 00:43:50.07	208.14	13.38	-28.7	-31.0	13.4	1.37e-05	0	45	0	2020605952	17	4693
2026-01-21 00:43:51.07	208.13	13.28	-28.6	-30.8	13.6	7.60e-06	0	45	0	2023751680	17	4626
2026-01-21 00:43:52.07	208.12	13.18	-28.6	-30.7	13.6	1.29e-05	0	45	0	2026897408	17	4607
2026-01-21 00:43:53.08	208.10	13.08	-28.6	-30.7	13.6	1.06e-05	0	45	0	2030043136	17	4596
2026-01-21 00:43:54.08	208.09	12.98	-28.4	-30.3	13.9	3.00e-06	0	45	0	2033188864	17	4470
2026-01-21 00:43:55.08	208.07	12.88	-28.3	-30.6	13.9	7.00e-07	0	45	0	2036334592	16	4693
2026-01-21 00:43:56.07	208.06	12.78	-28.4	-30.9	13.8	7.60e-06	0	45	0	2039480320	16	4772
2026-01-21 00:43:57.08	208.04	12.69	-28.6	-30.7	13.6	3.80e-06	0	45	0	2042626048	17	4602
2026-01-21 00:43:58.08	208.03	12.59	-28.8	-31.2	13.3	1.29e-05	0	45	0	2045771776	17	4757
2026-01-21 00:43:59.09	208.02	12.49	-28.5	-30.5	13.7	1.06e-05	0	45	0	2048917504	17	4545
2026-01-21 00:44:00.09	208.00	12.39	-28.5	-30.6	13.6	1.06e-05	0	45	0	2052063232	17	4571
2026-01-21 00:44:01.10	207.99	12.30	-28.7	-31.1	13.3	1.90e-05	0	45	0	2055208960	17	4713
2026-01-21 00:44:02.11	207.98	12.20	-28.6	-30.8	13.5	6.80e-06	0	45	0	2058354688	17	4627
2026-01-21 00:44:03.11	207.96	12.11	-28.6	-30.7	13.5	1.37e-05	0	45	0	2061500416	17	4591
2026-01-21 00:44:04.12	207.95	12.01	-28.6	-30.8	13.5	7.60e-06	0	45	0	2064646144	17	4626
2026-01-21 00:44:05.12	207.94	11.92	-28.7	-31.1	13.3	1.60e-05	0	45	0	2067791872	17	4732
2026-01-21 00:44:06.13	207.92	11.82	-29.0	-31.3	12.9	4.27e-05	0	45	0	2070937600	18	4674
2026-01-21 00:44:07.13	207.91	11.73	-28.7	-31.1	13.3	2.36e-05	0	45	0	2074083328	17	4717
2026-01-21 00:44:08.13	207.90	11.63	-28.6	-30.9	13.4	1.60e-05	0	45	0	2077229056	17	4650
2026-01-21 00:44:09.13	207.88	11.54	-28.5	-30.6	13.6	9.10e-06	0	45	0	2080374784	17	4579
2026-01-21 00:44:10.13	207.87	11.45	-28.6	-30.8	13.5	9.90e-06	0	45	0	2083520512	17	4635
2026-01-21 00:44:11.14	207.86	11.36	-28.6	-30.8	13.5	6.10e-06	0	45	0	2086666240	17	4623
2026-01-21 00:44:12.14	207.85	11.26	-28.5	-30.6	13.5	4.50e-06	0	45	0	2089811968	17	4570
2026-01-21 00:44:13.15	207.83	11.17	-28.4	-30.4	13.7	9.10e-06	0	45	0	2092957696	17	4501
2026-01-21 00:44:14.16	207.82	11.08	-28.4	-30.7	13.8	4.50e-06	0	45	0	2096103424	16	4717
2026-01-21 00:44:15.16	207.81	10.99	-28.5	-31.0	13.6	9.10e-06	0	45	0	2099249152	16	4806
2026-01-21 00:44:16.15	207.80	10.90	-28.4	-30.8	13.7	6.10e-06	0	45	0	2102394880	16	4751
2026-01-21 00:44:17.16	207.78	10.81	-28.4	-30.8	13.7	3.80e-06	0	45	0	2105540608	16	4756
2026-01-21 00:44:18.17	207.77	10.72	-28.5	-30.6	13.5	3.80e-06	0	45	0	2108686336	17	4588
2026-01-21 00:44:19.17	207.76	10.63	-28.5	-30.4	13.6	6.80e-06	0	45	0	2111832064	17	4531
2026-01-21 00:44:20.17	207.75	10.54	-28.6	-30.7	13.5	1.22e-05	0	45	0	2114977792	17	4602
2026-01-21 00:44:21.18	207.74	10.45	-28.7	-31.1	13.2	2.28e-05	0	45	0	2118123520	17	4735
2026-01-21 00:44:22.18	207.73	10.36	-28.5	-30.6	13.5	1.83e-05	0	45	0	2121269248	17	4580
2026-01-21 00:44:23.19	207.71	10.27	-28.4	-30.4	13.6	8.30e-06	0	45	0	2124414976	17	4525
2026-01-21 00:44:24.19	207.70	10.18	-28.6	-30.7	13.4	7.60e-06	0	45	0	2127560704	17	4610
2026-01-21 00:44:25.19	207.69	10.09	-28.5	-30.5	13.5	6.10e-06	0	45	0	2130706432	17	4557
2026-01-21 00:44:26.20	207.68	10.01	-28.5	-30.6	13.5	1.37e-05	0	45	0	2133852160	17	4567
2026-01-21 00:44:27.19	207.67	9.92	-27.8	-30.1	13.3	1.14e-05	0	45	0	2136997888	17	4662
