passes_logs/2026/01/21/R2M6_AANII_01/R2M6_AANII_01__20260121_120801_NOAA_21_JPSS-2_rec.log

#Pass ID: 20260121_120801_NOAA 21 (JPSS-2)
#Satellite: NOAA 21 (JPSS-2)
#Configuration: NOAA 21
#almurnet v.1.7.20240730
#Start time: 2026-01-21 12:08:30

#Version: 2.2.20231116
#Station: R2M6_AANII_01
#Location: 30.233357 lon 59.946436 lat
#TLE: 1 54234U 22150A   26020.29910383  .00000141  00000+0  87571-4 0  9990
#TLE: 2 54234  98.7506 321.1348 0000615 250.8428 109.2682 14.19536295165564

#Time	Az	El	Level	Level2	SNR	BER	BlckErr	Temp	State	Recorded	gain1	gain2
2026-01-21 12:08:30.06	223.55	8.69	-34.0	-43.8	3.8	8.47e-01	0	44	0	0	27	11157
2026-01-21 12:08:31.05	223.67	8.75	-34.5	-45.9	3.8	1.49e+00	0	45	104	0	30	13294
2026-01-21 12:08:32.05	223.78	8.81	-34.5	-45.9	3.8	1.49e+00	0	45	104	0	30	13369
2026-01-21 12:08:33.06	223.90	8.87	-34.5	-45.9	3.8	1.49e+00	0	44	104	0	30	13341
2026-01-21 12:08:34.06	224.02	8.93	-34.5	-45.9	3.8	1.49e+00	0	45	104	0	30	13387
2026-01-21 12:08:35.05	224.14	8.99	-34.5	-45.9	3.8	1.49e+00	0	45	104	0	30	13319
2026-01-21 12:08:36.05	224.26	9.05	-34.5	-45.9	3.8	1.49e+00	0	45	104	0	30	13329
2026-01-21 12:08:37.05	224.38	9.11	-34.5	-45.8	3.8	1.49e+00	0	44	104	0	30	13313
2026-01-21 12:08:38.05	224.50	9.17	-34.4	-45.8	3.8	1.49e+00	0	44	104	0	30	13325
2026-01-21 12:08:39.05	224.63	9.24	-34.4	-45.8	3.8	1.49e+00	0	45	104	0	30	13322
2026-01-21 12:08:40.06	224.75	9.30	-34.4	-45.8	3.8	1.49e+00	0	44	104	0	30	13288
2026-01-21 12:08:41.06	224.87	9.36	-34.4	-45.8	3.8	1.49e+00	0	45	104	0	30	13244
2026-01-21 12:08:42.06	224.99	9.42	-34.4	-45.8	3.8	1.49e+00	0	44	104	0	30	13287
2026-01-21 12:08:43.06	225.12	9.48	-34.4	-45.8	3.8	1.49e+00	0	45	104	0	30	13255
2026-01-21 12:08:44.06	225.24	9.54	-34.4	-45.7	3.8	1.49e+00	0	44	104	0	30	13204
2026-01-21 12:08:45.06	225.37	9.60	-34.4	-45.7	3.8	1.49e+00	0	44	104	0	30	13240
2026-01-21 12:08:46.06	225.49	9.66	-34.4	-45.7	3.8	1.49e+00	0	44	104	0	30	13222
2026-01-21 12:08:47.07	225.62	9.72	-34.4	-45.8	3.8	1.49e+00	0	45	104	0	30	13292
2026-01-21 12:08:48.07	225.75	9.79	-34.5	-45.7	3.8	1.49e+00	0	45	104	0	30	13195
2026-01-21 12:08:49.07	225.87	9.85	-34.4	-45.7	3.8	1.49e+00	0	44	104	0	30	13239
2026-01-21 12:08:50.08	226.00	9.91	-34.4	-45.7	3.8	1.49e+00	0	45	104	0	30	13186
2026-01-21 12:08:51.08	226.13	9.97	-34.4	-45.6	3.8	1.49e+00	0	44	104	0	30	13145
2026-01-21 12:08:52.07	226.26	10.03	-34.4	-45.6	3.8	1.49e+00	0	44	104	0	30	13173
2026-01-21 12:08:53.08	226.39	10.09	-34.3	-45.5	3.8	1.49e+00	0	45	104	0	30	13047
2026-01-21 12:08:54.08	226.51	10.15	-34.2	-45.8	3.8	1.49e+00	0	45	104	0	29	13692
2026-01-21 12:08:55.09	226.65	10.22	-34.2	-45.7	3.8	1.49e+00	0	45	104	0	29	13598
2026-01-21 12:08:56.09	226.78	10.28	-34.1	-45.7	3.8	1.49e+00	0	44	104	0	29	13618
2026-01-21 12:08:57.10	226.91	10.34	-34.1	-45.6	3.8	1.49e+00	0	44	104	0	29	13574
2026-01-21 12:08:58.10	227.04	10.40	-34.0	-45.5	3.8	1.49e+00	0	44	104	0	29	13508
2026-01-21 12:08:59.11	227.17	10.46	-34.0	-45.4	3.8	1.49e+00	0	45	104	0	29	13426
2026-01-21 12:09:00.10	227.30	10.52	-33.9	-45.3	3.8	1.49e+00	0	45	104	0	29	13370
2026-01-21 12:09:01.11	227.44	10.58	-33.8	-45.1	3.8	1.49e+00	0	44	104	0	29	13179
2026-01-21 12:09:02.11	227.57	10.65	-33.6	-45.3	3.8	1.49e+00	0	44	104	0	28	13734
2026-01-21 12:09:03.12	227.71	10.71	-33.5	-44.7	3.8	1.49e+00	0	44	104	0	28	13060
2026-01-21 12:09:04.12	227.84	10.77	-33.4	-45.1	3.8	1.49e+00	0	45	104	0	27	13811
2026-01-21 12:09:05.13	227.98	10.83	-33.4	-45.1	3.8	1.49e+00	0	45	104	0	27	13886
2026-01-21 12:09:06.13	228.11	10.89	-33.4	-45.0	3.8	1.49e+00	0	45	104	0	27	13725
2026-01-21 12:09:07.13	228.25	10.95	-33.4	-44.9	3.8	1.49e+00	0	44	104	0	27	13568
2026-01-21 12:09:08.13	228.39	11.02	-33.3	-44.6	3.8	1.49e+00	0	45	104	0	27	13194
2026-01-21 12:09:09.14	228.53	11.08	-33.3	-44.5	3.8	1.49e+00	0	44	104	0	27	12999
2026-01-21 12:09:10.15	228.67	11.14	-33.3	-44.3	3.8	1.49e+00	0	44	104	0	27	12837
2026-01-21 12:09:11.15	228.80	11.20	-33.3	-44.6	3.8	1.49e+00	0	44	104	0	27	13145
2026-01-21 12:09:12.16	228.95	11.26	-33.4	-44.9	3.8	1.49e+00	0	44	104	0	27	13560
2026-01-21 12:09:13.17	229.09	11.33	-33.3	-44.6	3.8	1.49e+00	0	44	104	0	27	13173
2026-01-21 12:09:14.17	229.23	11.39	-33.1	-42.8	3.9	1.49e+00	0	44	104	0	27	10925
2026-01-21 12:09:15.17	229.37	11.45	-32.7	-39.8	4.8	9.98e-01	0	44	104	0	26	8126
2026-01-21 12:09:16.18	229.51	11.51	-32.1	-37.2	6.4	3.99e-01	0	44	0	1048576	25	6474
2026-01-21 12:09:17.19	229.65	11.57	-31.1	-34.6	8.9	6.03e-02	0	45	0	4194304	23	5407
2026-01-21 12:09:18.20	229.80	11.64	-30.2	-32.9	10.7	4.84e-03	0	44	0	7340032	21	4941
2026-01-21 12:09:19.20	229.94	11.70	-29.5	-31.5	12.0	5.18e-04	0	45	0	10485760	20	4556
2026-01-21 12:09:20.20	230.08	11.76	-29.0	-30.8	12.9	8.23e-05	0	45	0	13631488	19	4410
2026-01-21 12:09:21.21	230.23	11.82	-28.6	-30.3	13.5	1.44e-05	0	44	0	16777216	18	4377
2026-01-21 12:09:22.21	230.38	11.88	-28.6	-30.4	13.4	1.75e-05	0	44	0	19922944	18	4398
2026-01-21 12:09:23.21	230.52	11.94	-28.9	-31.0	13.0	2.28e-05	0	44	0	23068672	18	4595
2026-01-21 12:09:24.22	230.67	12.01	-29.4	-32.3	12.2	1.47e-04	0	45	0	26214400	18	5025
2026-01-21 12:09:25.22	230.81	12.07	-29.5	-32.1	12.1	3.18e-04	0	44	0	29360128	19	4834
2026-01-21 12:09:26.23	230.96	12.13	-29.4	-31.8	12.3	1.83e-04	0	45	0	32505856	19	4729
2026-01-21 12:09:27.24	231.11	12.19	-29.6	-32.2	12.0	4.07e-04	0	44	0	35651584	19	4864
2026-01-21 12:09:28.24	231.26	12.25	-29.2	-31.4	12.5	1.71e-04	0	44	0	38797312	19	4604
2026-01-21 12:09:29.25	231.41	12.32	-29.1	-31.0	12.7	9.07e-05	0	44	0	41943040	19	4493
2026-01-21 12:09:30.25	231.56	12.38	-28.9	-30.5	13.1	4.27e-05	0	44	0	45088768	19	4330
2026-01-21 12:09:31.26	231.71	12.44	-28.9	-30.5	13.1	3.28e-05	0	44	0	48234496	19	4331
2026-01-21 12:09:32.26	231.86	12.50	-28.8	-30.6	13.3	1.67e-05	0	44	0	51380224	18	4473
2026-01-21 12:09:33.26	232.02	12.56	-28.7	-30.6	13.3	1.98e-05	0	44	0	54525952	18	4456
2026-01-21 12:09:34.27	232.17	12.62	-28.6	-30.3	13.5	1.14e-05	0	45	0	57671680	18	4386
2026-01-21 12:09:35.27	232.32	12.69	-28.5	-30.0	13.7	6.80e-06	0	44	0	60817408	18	4279
2026-01-21 12:09:36.27	232.48	12.75	-28.5	-30.1	13.6	9.90e-06	0	44	0	63963136	18	4322
2026-01-21 12:09:37.27	232.63	12.81	-28.5	-30.1	13.7	6.10e-06	0	44	0	67108864	18	4314
2026-01-21 12:09:38.27	232.78	12.87	-28.6	-30.2	13.6	1.14e-05	0	44	0	70254592	18	4328
2026-01-21 12:09:39.27	232.94	12.93	-28.5	-30.0	13.7	6.10e-06	0	44	0	73400320	18	4289
2026-01-21 12:09:40.28	233.10	12.99	-28.6	-30.2	13.6	1.29e-05	0	44	0	76546048	18	4344
2026-01-21 12:09:41.28	233.25	13.05	-28.4	-29.7	14.0	3.80e-06	0	44	0	78643200	18	4193
2026-01-21 12:09:42.28	233.41	13.11	-28.4	-29.9	13.8	6.10e-06	0	44	0	81788928	18	4248
2026-01-21 12:09:43.28	233.57	13.18	-28.3	-29.6	14.0	5.30e-06	0	45	0	84934656	18	4160
2026-01-21 12:09:44.28	233.73	13.24	-28.5	-30.0	13.8	1.50e-06	0	44	0	88080384	18	4269
2026-01-21 12:09:45.28	233.89	13.30	-28.4	-29.7	13.9	8.30e-06	0	44	0	91226112	18	4202
2026-01-21 12:09:46.29	234.05	13.36	-28.4	-29.7	13.9	4.50e-06	0	44	0	94371840	18	4183
2026-01-21 12:09:47.28	234.21	13.42	-28.4	-29.8	13.9	5.30e-06	0	44	0	97517568	18	4212
2026-01-21 12:09:48.29	234.37	13.48	-28.4	-29.8	13.9	2.20e-06	0	44	0	100663296	18	4237
2026-01-21 12:09:49.30	234.53	13.54	-28.3	-29.5	14.1	7.00e-07	0	44	0	103809024	18	4125
2026-01-21 12:09:50.29	234.69	13.60	-28.2	-29.8	14.2	1.50e-06	0	44	0	106954752	17	4321
2026-01-21 12:09:51.29	234.85	13.66	-28.3	-30.0	14.1	2.20e-06	0	44	0	110100480	17	4384
2026-01-21 12:09:52.28	235.02	13.72	-28.3	-30.1	14.0	2.20e-06	0	44	0	113246208	17	4400
2026-01-21 12:09:53.28	235.18	13.78	-28.4	-30.3	13.9	7.00e-07	0	45	0	116391936	17	4465
2026-01-21 12:09:54.29	235.35	13.84	-28.5	-30.6	13.7	6.10e-06	0	44	0	119537664	17	4548
2026-01-21 12:09:55.30	235.51	13.90	-28.4	-30.2	14.0	7.00e-07	0	45	0	122683392	17	4426
2026-01-21 12:09:56.29	235.68	13.96	-28.4	-30.3	13.9	3.80e-06	0	44	0	125829120	17	4458
2026-01-21 12:09:57.29	235.85	14.02	-28.3	-30.0	14.1	3.00e-06	0	44	0	128974848	17	4379
2026-01-21 12:09:58.29	236.01	14.08	-28.3	-30.1	14.0	7.00e-07	0	44	0	132120576	17	4420
2026-01-21 12:09:59.29	236.18	14.14	-28.3	-30.1	14.0	1.50e-06	0	44	0	135266304	17	4406
2026-01-21 12:10:00.29	236.35	14.20	-28.5	-30.5	13.8	3.00e-06	0	44	0	138412032	17	4522
2026-01-21 12:10:01.30	236.52	14.26	-28.7	-30.9	13.6	1.29e-05	0	44	0	141557760	17	4642
2026-01-21 12:10:02.31	236.69	14.32	-28.4	-30.1	14.0	3.00e-06	0	44	0	144703488	17	4413
2026-01-21 12:10:03.32	236.86	14.39	-28.2	-29.8	14.2	2.20e-06	0	44	0	147849216	17	4314
2026-01-21 12:10:04.32	237.04	14.44	-28.1	-29.6	14.4	0.00e+00	0	44	0	150994944	17	4259
2026-01-21 12:10:05.32	237.21	14.50	-28.2	-29.7	14.3	1.50e-06	0	44	0	154140672	17	4278
2026-01-21 12:10:06.33	237.38	14.56	-28.3	-30.0	14.1	7.00e-07	0	44	0	157286400	17	4387
2026-01-21 12:10:07.33	237.56	14.62	-28.2	-29.8	14.3	7.00e-07	0	44	0	160432128	17	4310
2026-01-21 12:10:08.33	237.73	14.68	-28.3	-30.1	14.1	7.00e-07	0	44	0	163577856	17	4394
2026-01-21 12:10:09.33	237.90	14.74	-28.3	-30.0	14.1	7.00e-07	0	44	0	166723584	17	4381
2026-01-21 12:10:10.33	238.08	14.80	-28.3	-30.1	14.1	7.00e-07	0	44	0	169869312	17	4407
2026-01-21 12:10:11.33	238.26	14.86	-28.3	-30.1	14.1	6.10e-06	0	44	0	173015040	17	4397
2026-01-21 12:10:12.32	238.43	14.92	-28.3	-30.0	14.2	1.50e-06	0	44	0	176160768	17	4362
2026-01-21 12:10:13.33	238.61	14.98	-28.2	-29.7	14.3	0.00e+00	0	44	0	179306496	17	4301
2026-01-21 12:10:14.33	238.79	15.04	-28.4	-30.1	14.1	3.00e-06	0	44	0	182452224	17	4401
2026-01-21 12:10:15.33	238.97	15.09	-28.3	-30.0	14.2	3.00e-06	0	44	0	185597952	17	4366
2026-01-21 12:10:16.33	239.15	15.15	-28.3	-29.9	14.2	3.00e-06	0	44	0	188743680	17	4351
2026-01-21 12:10:17.34	239.33	15.21	-28.4	-30.1	14.1	3.80e-06	0	44	0	191889408	17	4411
2026-01-21 12:10:18.34	239.51	15.27	-28.3	-30.1	14.1	2.20e-06	0	44	0	195035136	17	4389
2026-01-21 12:10:19.34	239.69	15.33	-28.3	-30.1	14.1	3.00e-06	0	44	0	198180864	17	4396
2026-01-21 12:10:20.34	239.87	15.38	-28.3	-29.9	14.2	2.20e-06	0	44	0	201326592	17	4347
2026-01-21 12:10:21.34	240.06	15.44	-28.3	-30.0	14.2	1.50e-06	0	44	0	204472320	17	4371
2026-01-21 12:10:22.34	240.24	15.50	-28.3	-30.1	14.1	1.50e-06	0	44	0	207618048	17	4395
2026-01-21 12:10:23.34	240.42	15.56	-28.4	-30.2	14.1	1.50e-06	0	44	0	210763776	17	4417
2026-01-21 12:10:24.33	240.61	15.61	-28.3	-30.1	14.2	7.00e-07	0	44	0	213909504	17	4392
2026-01-21 12:10:25.33	240.79	15.67	-28.3	-30.0	14.2	1.50e-06	0	44	0	217055232	17	4381
2026-01-21 12:10:26.33	240.98	15.73	-28.3	-30.0	14.2	1.50e-06	0	44	0	220200960	17	4378
2026-01-21 12:10:27.33	241.17	15.79	-28.3	-30.0	14.2	7.00e-07	0	44	0	223346688	17	4362
2026-01-21 12:10:28.33	241.35	15.84	-28.3	-29.9	14.3	2.20e-06	0	44	0	226492416	17	4346
2026-01-21 12:10:29.33	241.54	15.90	-28.4	-30.2	14.1	1.50e-06	0	44	0	229638144	17	4416
2026-01-21 12:10:30.33	241.73	15.95	-28.5	-30.4	14.0	3.80e-06	0	44	0	232783872	17	4483
2026-01-21 12:10:31.33	241.92	16.01	-28.3	-30.1	14.1	1.50e-06	0	44	0	235929600	17	4408
2026-01-21 12:10:32.33	242.11	16.07	-28.5	-30.4	13.9	0.00e+00	0	44	0	239075328	17	4506
2026-01-21 12:10:33.33	242.30	16.12	-28.6	-30.7	13.8	5.30e-06	0	44	0	242221056	17	4581
2026-01-21 12:10:34.33	242.49	16.18	-28.6	-30.7	13.8	4.50e-06	0	44	0	245366784	17	4568
2026-01-21 12:10:35.33	242.69	16.23	-28.6	-30.7	13.8	4.50e-06	0	44	0	248512512	17	4569
2026-01-21 12:10:36.33	242.88	16.29	-28.7	-30.9	13.7	3.80e-06	0	44	0	251658240	17	4627
2026-01-21 12:10:37.33	243.07	16.34	-28.8	-31.1	13.6	7.60e-06	0	44	0	254803968	17	4690
2026-01-21 12:10:38.32	243.27	16.40	-28.6	-30.7	13.8	1.50e-06	0	44	0	257949696	17	4581
2026-01-21 12:10:39.33	243.46	16.45	-28.5	-30.4	14.0	2.20e-06	0	44	0	261095424	17	4489
2026-01-21 12:10:40.33	243.66	16.51	-28.5	-30.4	14.0	1.50e-06	0	44	0	263192576	17	4501
2026-01-21 12:10:41.34	243.86	16.56	-28.5	-30.4	14.0	5.30e-06	0	44	0	266338304	17	4482
2026-01-21 12:10:42.34	244.06	16.62	-28.5	-30.5	14.0	2.20e-06	0	44	0	269484032	17	4509
2026-01-21 12:10:43.34	244.25	16.67	-28.6	-30.7	13.8	2.20e-06	0	44	0	272629760	17	4578
2026-01-21 12:10:44.34	244.45	16.72	-28.4	-30.1	14.2	7.00e-07	0	44	0	275775488	17	4389
2026-01-21 12:10:45.34	244.65	16.78	-28.2	-29.7	14.4	3.80e-06	0	44	0	278921216	17	4293
2026-01-21 12:10:46.35	244.85	16.83	-28.1	-29.6	14.5	7.00e-07	0	44	0	282066944	17	4250
2026-01-21 12:10:47.35	245.05	16.89	-28.2	-29.7	14.5	7.00e-07	0	44	0	285212672	17	4271
2026-01-21 12:10:48.35	245.26	16.94	-28.3	-29.9	14.3	0.00e+00	0	44	0	288358400	17	4339
2026-01-21 12:10:49.36	245.46	16.99	-28.3	-29.9	14.4	1.50e-06	0	44	0	291504128	17	4334
2026-01-21 12:10:50.35	245.66	17.04	-28.2	-29.7	14.5	1.50e-06	0	44	0	294649856	17	4278
2026-01-21 12:10:51.36	245.87	17.10	-28.2	-29.8	14.4	0.00e+00	0	44	0	297795584	17	4297
2026-01-21 12:10:52.36	246.07	17.15	-28.2	-29.6	14.6	7.00e-07	0	44	0	300941312	17	4243
2026-01-21 12:10:53.36	246.28	17.20	-28.1	-29.5	14.6	0.00e+00	0	44	0	304087040	17	4216
2026-01-21 12:10:54.36	246.48	17.25	-28.1	-29.5	14.6	7.00e-07	0	44	0	307232768	17	4208
2026-01-21 12:10:55.36	246.69	17.30	-28.1	-29.5	14.6	0.00e+00	0	44	0	310378496	17	4218
2026-01-21 12:10:56.36	246.89	17.35	-28.0	-29.2	14.8	7.00e-07	0	44	0	313524224	17	4137
2026-01-21 12:10:57.36	247.10	17.40	-28.2	-29.6	14.5	7.00e-07	0	44	0	316669952	17	4249
2026-01-21 12:10:58.36	247.31	17.45	-28.3	-29.8	14.4	7.00e-07	0	44	0	319815680	17	4306
2026-01-21 12:10:59.36	247.52	17.50	-28.1	-29.5	14.6	0.00e+00	0	44	0	322961408	17	4215
2026-01-21 12:11:00.36	247.73	17.55	-28.0	-29.3	14.7	0.00e+00	0	44	0	326107136	17	4173
2026-01-21 12:11:01.35	247.94	17.60	-28.0	-29.3	14.7	0.00e+00	0	44	0	329252864	17	4166
2026-01-21 12:11:02.36	248.15	17.65	-28.1	-29.4	14.7	7.00e-07	0	44	0	332398592	17	4192
2026-01-21 12:11:03.37	248.36	17.70	-28.0	-29.3	14.7	0.00e+00	0	44	0	335544320	17	4173
2026-01-21 12:11:04.36	248.57	17.75	-28.1	-29.4	14.7	0.00e+00	0	44	0	338690048	17	4206
2026-01-21 12:11:05.37	248.79	17.80	-28.1	-29.5	14.6	0.00e+00	0	44	0	341835776	17	4226
2026-01-21 12:11:06.37	249.00	17.85	-28.2	-29.7	14.5	0.00e+00	0	44	0	344981504	17	4288
2026-01-21 12:11:07.37	249.22	17.90	-28.0	-29.2	14.8	0.00e+00	0	44	0	348127232	17	4140
2026-01-21 12:11:08.38	249.43	17.94	-27.9	-29.0	14.9	0.00e+00	0	44	0	351272960	17	4097
2026-01-21 12:11:09.39	249.65	17.99	-27.9	-29.0	14.9	0.00e+00	0	44	0	354418688	17	4081
2026-01-21 12:11:10.39	249.87	18.04	-27.9	-28.9	15.0	0.00e+00	0	44	0	357564416	17	4071
2026-01-21 12:11:11.40	250.09	18.09	-27.8	-29.2	15.1	0.00e+00	0	44	0	360710144	16	4250
2026-01-21 12:11:12.40	250.31	18.13	-27.9	-29.4	14.9	0.00e+00	0	44	0	363855872	16	4309
2026-01-21 12:11:13.40	250.52	18.18	-27.9	-29.6	14.9	0.00e+00	0	44	0	367001600	16	4343
2026-01-21 12:11:14.41	250.74	18.22	-28.0	-29.7	14.8	0.00e+00	0	44	0	370147328	16	4401
2026-01-21 12:11:15.41	250.96	18.27	-28.0	-29.7	14.8	7.00e-07	0	44	0	373293056	16	4391
2026-01-21 12:11:16.41	251.18	18.32	-28.0	-29.8	14.7	0.00e+00	0	44	0	376438784	16	4427
2026-01-21 12:11:17.42	251.41	18.36	-28.1	-30.0	14.6	7.00e-07	0	44	0	379584512	16	4466
2026-01-21 12:11:18.42	251.63	18.41	-28.1	-30.0	14.7	7.00e-07	0	44	0	382730240	16	4474
2026-01-21 12:11:19.43	251.85	18.45	-28.1	-29.9	14.7	1.50e-06	0	44	0	385875968	16	4432
2026-01-21 12:11:20.43	252.08	18.49	-28.0	-29.7	14.8	0.00e+00	0	44	0	389021696	16	4387
2026-01-21 12:11:21.44	252.30	18.54	-28.1	-30.0	14.6	0.00e+00	0	44	0	392167424	16	4463
2026-01-21 12:11:22.44	252.52	18.58	-28.1	-29.9	14.7	7.00e-07	0	44	0	395313152	16	4452
2026-01-21 12:11:23.44	252.75	18.62	-28.1	-30.0	14.7	0.00e+00	0	44	0	398458880	16	4461
2026-01-21 12:11:24.44	252.97	18.67	-28.2	-30.2	14.5	0.00e+00	0	44	0	401604608	16	4530
2026-01-21 12:11:25.44	253.20	18.71	-27.9	-29.6	14.9	0.00e+00	0	44	0	404750336	16	4360
2026-01-21 12:11:26.44	253.43	18.75	-27.8	-29.3	15.0	0.00e+00	0	44	0	407896064	16	4277
2026-01-21 12:11:27.44	253.65	18.79	-27.8	-29.2	15.1	0.00e+00	0	44	0	411041792	16	4238
2026-01-21 12:11:28.44	253.88	18.83	-27.8	-29.3	15.1	0.00e+00	0	44	0	414187520	16	4267
2026-01-21 12:11:29.44	254.11	18.87	-27.9	-29.4	15.0	0.00e+00	0	44	0	417333248	16	4296
2026-01-21 12:11:30.44	254.34	18.91	-27.8	-29.2	15.1	0.00e+00	0	44	0	420478976	16	4241
2026-01-21 12:11:31.44	254.57	18.95	-27.8	-29.2	15.1	0.00e+00	0	44	0	423624704	16	4240
2026-01-21 12:11:32.43	254.79	18.99	-27.8	-29.3	15.1	0.00e+00	0	44	0	426770432	16	4267
2026-01-21 12:11:33.43	255.03	19.03	-27.8	-29.3	15.1	0.00e+00	0	44	0	429916160	16	4273
2026-01-21 12:11:34.44	255.26	19.07	-27.8	-29.1	15.1	0.00e+00	0	44	0	433061888	16	4225
2026-01-21 12:11:35.44	255.49	19.11	-27.7	-29.0	15.2	0.00e+00	0	44	0	436207616	16	4196
2026-01-21 12:11:36.43	255.72	19.14	-27.8	-29.2	15.1	0.00e+00	0	44	0	439353344	16	4236
2026-01-21 12:11:37.44	255.95	19.18	-27.7	-29.0	15.2	0.00e+00	0	44	0	442499072	16	4174
2026-01-21 12:11:38.44	256.19	19.22	-27.6	-28.8	15.4	0.00e+00	0	44	0	445644800	16	4120
2026-01-21 12:11:39.44	256.42	19.26	-27.5	-28.6	15.5	0.00e+00	0	44	0	448790528	16	4071
2026-01-21 12:11:40.45	256.66	19.29	-27.6	-28.7	15.4	0.00e+00	0	44	0	451936256	16	4101
2026-01-21 12:11:41.45	256.89	19.33	-27.7	-28.9	15.3	0.00e+00	0	44	0	455081984	16	4170
2026-01-21 12:11:42.45	257.13	19.36	-27.6	-28.8	15.4	0.00e+00	0	44	0	458227712	16	4120
2026-01-21 12:11:43.45	257.36	19.40	-27.6	-28.9	15.3	0.00e+00	0	44	0	461373440	16	4160
2026-01-21 12:11:44.45	257.60	19.43	-27.8	-29.2	15.2	0.00e+00	0	44	0	464519168	16	4230
2026-01-21 12:11:45.46	257.84	19.47	-27.8	-29.1	15.2	0.00e+00	0	44	0	467664896	16	4229
2026-01-21 12:11:46.46	258.08	19.50	-27.7	-28.9	15.3	9.10e-06	0	44	0	470810624	16	4160
2026-01-21 12:11:47.46	258.32	19.53	-27.6	-28.8	15.4	0.00e+00	0	44	0	473956352	16	4128
2026-01-21 12:11:48.46	258.55	19.57	-27.6	-28.8	15.4	0.00e+00	0	44	0	477102080	16	4120
2026-01-21 12:11:49.46	258.79	19.60	-27.6	-28.9	15.3	0.00e+00	0	44	0	480247808	16	4148
2026-01-21 12:11:50.45	259.03	19.63	-27.6	-28.8	15.4	0.00e+00	0	44	0	482344960	16	4128
2026-01-21 12:11:51.45	259.27	19.66	-27.6	-28.8	15.3	0.00e+00	0	44	0	485490688	16	4144
2026-01-21 12:11:52.45	259.51	19.69	-27.5	-28.5	15.5	0.00e+00	0	45	0	488636416	16	4063
2026-01-21 12:11:53.45	259.75	19.72	-27.5	-28.5	15.5	0.00e+00	0	44	0	491782144	16	4052
2026-01-21 12:11:54.45	259.99	19.75	-27.5	-28.5	15.5	0.00e+00	0	44	0	494927872	16	4052
2026-01-21 12:11:55.44	260.23	19.78	-27.5	-28.5	15.5	5.30e-06	0	44	0	498073600	16	4051
2026-01-21 12:11:56.44	260.47	19.81	-27.4	-28.3	15.6	0.00e+00	0	44	0	501219328	16	4006
2026-01-21 12:11:57.44	260.72	19.84	-27.4	-28.3	15.6	0.00e+00	0	45	0	504365056	16	4002
2026-01-21 12:11:58.44	260.96	19.87	-27.4	-28.3	15.6	0.00e+00	0	44	0	507510784	16	4008
2026-01-21 12:11:59.44	261.20	19.90	-27.4	-28.3	15.7	0.00e+00	0	44	0	510656512	16	3994
2026-01-21 12:12:00.44	261.45	19.92	-27.4	-28.3	15.7	0.00e+00	0	44	0	513802240	16	4006
2026-01-21 12:12:01.44	261.69	19.95	-27.5	-28.5	15.5	4.50e-06	0	44	0	516947968	16	4052
2026-01-21 12:12:02.45	261.94	19.98	-27.6	-28.9	15.3	0.00e+00	0	44	0	520093696	16	4146
2026-01-21 12:12:03.45	262.18	20.00	-27.5	-28.7	15.5	0.00e+00	0	44	0	523239424	16	4102
2026-01-21 12:12:04.45	262.43	20.03	-27.5	-28.5	15.5	7.60e-06	0	44	0	526385152	16	4062
2026-01-21 12:12:05.45	262.68	20.05	-27.5	-28.5	15.6	0.00e+00	0	44	0	529530880	16	4053
2026-01-21 12:12:06.45	262.92	20.08	-27.4	-28.4	15.6	0.00e+00	0	44	0	532676608	16	4025
2026-01-21 12:12:07.46	263.17	20.10	-27.4	-28.4	15.6	3.80e-06	0	44	0	535822336	16	4032
2026-01-21 12:12:08.45	263.42	20.12	-27.4	-28.4	15.6	0.00e+00	0	44	0	538968064	16	4018
2026-01-21 12:12:09.45	263.66	20.15	-27.5	-28.6	15.5	0.00e+00	0	44	0	542113792	16	4072
2026-01-21 12:12:10.46	263.91	20.17	-27.5	-28.7	15.5	3.00e-06	0	44	0	545259520	16	4092
2026-01-21 12:12:11.46	264.16	20.19	-27.6	-28.8	15.4	0.00e+00	0	44	0	548405248	16	4143
2026-01-21 12:12:12.46	264.41	20.21	-27.6	-28.8	15.4	0.00e+00	0	44	0	551550976	16	4138
2026-01-21 12:12:13.47	264.66	20.23	-27.5	-28.5	15.6	0.00e+00	0	44	0	554696704	16	4063
2026-01-21 12:12:14.48	264.91	20.25	-27.4	-28.4	15.6	0.00e+00	0	44	0	557842432	16	4023
2026-01-21 12:12:15.48	265.16	20.27	-27.4	-28.4	15.6	0.00e+00	0	45	0	560988160	16	4027
2026-01-21 12:12:16.48	265.41	20.29	-27.6	-28.7	15.4	0.00e+00	0	44	0	564133888	16	4102
2026-01-21 12:12:17.49	265.66	20.31	-27.4	-28.4	15.6	0.00e+00	0	44	0	567279616	16	4039
2026-01-21 12:12:18.49	265.91	20.33	-27.5	-28.6	15.5	0.00e+00	0	44	0	570425344	16	4083
2026-01-21 12:12:19.48	266.16	20.35	-27.7	-28.9	15.3	0.00e+00	0	44	0	573571072	16	4158
2026-01-21 12:12:20.48	266.41	20.36	-27.7	-28.9	15.3	0.00e+00	0	44	0	576716800	16	4167
2026-01-21 12:12:21.48	266.66	20.38	-27.7	-28.9	15.3	0.00e+00	0	44	0	579862528	16	4173
2026-01-21 12:12:22.48	266.92	20.39	-27.7	-29.0	15.3	0.00e+00	0	44	0	583008256	16	4173
2026-01-21 12:12:23.48	267.17	20.41	-27.6	-28.7	15.5	0.00e+00	0	44	0	586153984	16	4092
2026-01-21 12:12:24.47	267.42	20.42	-27.5	-28.6	15.5	0.00e+00	0	45	0	589299712	16	4083
2026-01-21 12:12:25.47	267.67	20.44	-27.6	-28.7	15.4	0.00e+00	0	45	0	592445440	16	4113
2026-01-21 12:12:26.47	267.92	20.45	-27.5	-28.6	15.5	0.00e+00	0	44	0	595591168	16	4088
2026-01-21 12:12:27.47	268.17	20.47	-27.5	-28.5	15.6	0.00e+00	0	44	0	598736896	16	4040
2026-01-21 12:12:28.47	268.43	20.48	-27.5	-28.5	15.6	0.00e+00	0	44	0	601882624	16	4045
2026-01-21 12:12:29.47	268.68	20.49	-27.5	-28.6	15.5	0.00e+00	0	45	0	605028352	16	4067
2026-01-21 12:12:30.47	268.93	20.50	-27.4	-28.3	15.7	0.00e+00	0	44	0	608174080	16	4004
2026-01-21 12:12:31.48	269.19	20.51	-27.4	-28.4	15.6	0.00e+00	0	44	0	611319808	16	4030
2026-01-21 12:12:32.48	269.44	20.52	-27.5	-28.7	15.5	0.00e+00	0	45	0	614465536	16	4091
2026-01-21 12:12:33.48	269.69	20.53	-27.5	-28.6	15.6	0.00e+00	0	44	0	617611264	16	4067
2026-01-21 12:12:34.49	269.95	20.54	-27.6	-28.7	15.5	0.00e+00	0	45	0	620756992	16	4098
2026-01-21 12:12:35.49	270.20	20.55	-27.5	-28.6	15.5	0.00e+00	0	44	0	623902720	16	4077
2026-01-21 12:12:36.49	270.46	20.56	-27.6	-28.7	15.5	7.00e-07	0	44	0	627048448	16	4101
2026-01-21 12:12:37.48	270.71	20.57	-27.6	-28.8	15.4	0.00e+00	0	44	0	630194176	16	4134
2026-01-21 12:12:38.48	270.96	20.57	-27.5	-28.7	15.5	0.00e+00	0	44	0	633339904	16	4091
2026-01-21 12:12:39.48	271.22	20.58	-27.5	-28.7	15.5	0.00e+00	0	44	0	636485632	16	4092
2026-01-21 12:12:40.49	271.47	20.59	-27.6	-28.8	15.4	0.00e+00	0	45	0	639631360	16	4134
2026-01-21 12:12:41.48	271.73	20.59	-27.5	-28.5	15.6	0.00e+00	0	44	0	642777088	16	4051
2026-01-21 12:12:42.48	271.98	20.60	-27.7	-29.1	15.3	0.00e+00	0	44	0	645922816	16	4199
2026-01-21 12:12:43.48	272.24	20.60	-27.8	-29.2	15.2	0.00e+00	0	44	0	649068544	16	4228
2026-01-21 12:12:44.48	272.49	20.61	-27.7	-29.0	15.3	0.00e+00	0	44	0	651165696	16	4188
2026-01-21 12:12:45.48	272.75	20.61	-27.6	-28.8	15.4	0.00e+00	0	44	0	654311424	16	4127
2026-01-21 12:12:46.48	273.00	20.61	-27.6	-28.9	15.4	0.00e+00	0	45	0	657457152	16	4149
2026-01-21 12:12:47.47	273.25	20.61	-27.7	-29.0	15.3	0.00e+00	0	44	0	660602880	16	4169
2026-01-21 12:12:48.47	273.51	20.61	-27.7	-29.1	15.3	0.00e+00	0	44	0	663748608	16	4212
2026-01-21 12:12:49.48	273.76	20.62	-27.8	-29.3	15.2	0.00e+00	0	44	0	666894336	16	4255
2026-01-21 12:12:50.48	274.02	20.62	-27.8	-29.2	15.2	0.00e+00	0	44	0	670040064	16	4238
2026-01-21 12:12:51.48	274.27	20.62	-28.0	-29.6	14.9	0.00e+00	0	44	0	673185792	16	4356
2026-01-21 12:12:52.49	274.53	20.62	-28.0	-29.7	14.9	0.00e+00	0	44	0	676331520	16	4393
2026-01-21 12:12:53.49	274.79	20.61	-27.7	-29.1	15.3	0.00e+00	0	45	0	679477248	16	4202
2026-01-21 12:12:54.49	275.04	20.61	-27.5	-28.5	15.5	0.00e+00	0	45	0	682622976	16	4050
2026-01-21 12:12:55.50	275.30	20.61	-27.5	-28.5	15.5	0.00e+00	0	44	0	685768704	16	4056
2026-01-21 12:12:56.50	275.55	20.61	-27.5	-28.5	15.5	0.00e+00	0	44	0	688914432	16	4052
2026-01-21 12:12:57.50	275.81	20.60	-27.6	-28.7	15.5	0.00e+00	0	45	0	692060160	16	4094
2026-01-21 12:12:58.50	276.06	20.60	-27.6	-28.7	15.4	0.00e+00	0	44	0	695205888	16	4117
2026-01-21 12:12:59.50	276.32	20.59	-27.6	-28.8	15.4	0.00e+00	0	44	0	698351616	16	4124
2026-01-21 12:13:00.50	276.57	20.59	-27.5	-28.6	15.5	0.00e+00	0	45	0	701497344	16	4067
2026-01-21 12:13:01.50	276.82	20.58	-27.6	-28.7	15.5	0.00e+00	0	44	0	704643072	16	4098
2026-01-21 12:13:02.51	277.08	20.58	-27.5	-28.7	15.5	0.00e+00	0	45	0	707788800	16	4097
2026-01-21 12:13:03.51	277.34	20.57	-27.6	-28.7	15.4	7.00e-07	0	44	0	710934528	16	4116
2026-01-21 12:13:04.52	277.59	20.56	-27.7	-29.0	15.3	0.00e+00	0	45	0	714080256	16	4170
2026-01-21 12:13:05.52	277.85	20.55	-27.7	-29.0	15.3	7.00e-07	0	45	0	717225984	16	4176
2026-01-21 12:13:06.53	278.10	20.55	-27.7	-29.0	15.3	0.00e+00	0	44	0	720371712	16	4180
2026-01-21 12:13:07.53	278.36	20.54	-27.8	-29.2	15.2	0.00e+00	0	45	0	723517440	16	4240
2026-01-21 12:13:08.53	278.61	20.53	-27.8	-29.2	15.2	0.00e+00	0	45	0	726663168	16	4234
2026-01-21 12:13:09.53	278.86	20.52	-27.5	-28.6	15.5	7.00e-07	0	45	0	729808896	16	4086
2026-01-21 12:13:10.53	279.12	20.51	-27.5	-28.6	15.5	0.00e+00	0	45	0	732954624	16	4063
2026-01-21 12:13:11.53	279.37	20.49	-27.6	-28.7	15.5	0.00e+00	0	44	0	736100352	16	4114
2026-01-21 12:13:12.53	279.62	20.48	-27.7	-29.0	15.3	0.00e+00	0	45	0	739246080	16	4188
2026-01-21 12:13:13.53	279.87	20.47	-27.7	-29.1	15.2	0.00e+00	0	45	0	742391808	16	4220
2026-01-21 12:13:14.53	280.13	20.46	-27.8	-29.2	15.2	0.00e+00	0	44	0	745537536	16	4234
2026-01-21 12:13:15.53	280.38	20.44	-27.7	-28.9	15.3	0.00e+00	0	44	0	748683264	16	4169
2026-01-21 12:13:16.53	280.63	20.43	-27.7	-28.9	15.3	0.00e+00	0	45	0	751828992	16	4170
2026-01-21 12:13:17.53	280.88	20.41	-27.7	-29.0	15.3	0.00e+00	0	44	0	754974720	16	4184
2026-01-21 12:13:18.53	281.13	20.40	-27.7	-29.0	15.3	7.00e-07	0	45	0	758120448	16	4177
2026-01-21 12:13:19.54	281.39	20.38	-27.7	-28.9	15.3	0.00e+00	0	44	0	761266176	16	4153
2026-01-21 12:13:20.53	281.63	20.37	-27.7	-29.0	15.2	0.00e+00	0	44	0	764411904	16	4194
2026-01-21 12:13:21.54	281.89	20.35	-27.7	-28.9	15.4	0.00e+00	0	44	0	767557632	16	4160
2026-01-21 12:13:22.54	282.14	20.33	-27.7	-29.0	15.3	0.00e+00	0	45	0	770703360	16	4191
2026-01-21 12:13:23.55	282.39	20.31	-27.7	-29.0	15.3	0.00e+00	0	45	0	773849088	16	4185
2026-01-21 12:13:24.55	282.64	20.30	-27.6	-28.8	15.4	0.00e+00	0	44	0	776994816	16	4131
2026-01-21 12:13:25.56	282.89	20.28	-27.7	-29.1	15.2	0.00e+00	0	45	0	780140544	16	4205
2026-01-21 12:13:26.56	283.14	20.26	-27.8	-29.2	15.2	0.00e+00	0	45	0	783286272	16	4228
2026-01-21 12:13:27.56	283.39	20.24	-27.8	-29.3	15.1	7.00e-07	0	45	0	786432000	16	4272
2026-01-21 12:13:28.57	283.64	20.22	-27.8	-29.3	15.1	0.00e+00	0	45	0	789577728	16	4256
2026-01-21 12:13:29.58	283.89	20.20	-27.6	-28.8	15.4	0.00e+00	0	44	0	792723456	16	4129
2026-01-21 12:13:30.58	284.14	20.17	-27.5	-28.6	15.5	0.00e+00	0	44	0	795869184	16	4069
2026-01-21 12:13:31.58	284.38	20.15	-27.5	-28.6	15.5	0.00e+00	0	45	0	799014912	16	4077
2026-01-21 12:13:32.59	284.63	20.13	-27.5	-28.6	15.5	0.00e+00	0	45	0	802160640	16	4084
2026-01-21 12:13:33.59	284.88	20.11	-27.6	-28.8	15.4	0.00e+00	0	44	0	805306368	16	4115
2026-01-21 12:13:34.60	285.13	20.08	-27.6	-28.8	15.4	0.00e+00	0	44	0	808452096	16	4123
2026-01-21 12:13:35.60	285.38	20.06	-27.6	-28.8	15.4	0.00e+00	0	44	0	811597824	16	4128
2026-01-21 12:13:36.60	285.62	20.03	-27.6	-28.7	15.5	0.00e+00	0	45	0	814743552	16	4112
2026-01-21 12:13:37.60	285.87	20.01	-27.5	-28.6	15.5	0.00e+00	0	45	0	817889280	16	4086
2026-01-21 12:13:38.60	286.11	19.98	-27.6	-28.8	15.4	0.00e+00	0	45	0	821035008	16	4119
2026-01-21 12:13:39.61	286.36	19.96	-27.6	-28.7	15.5	0.00e+00	0	45	0	824180736	16	4093
2026-01-21 12:13:40.61	286.60	19.93	-27.5	-28.4	15.6	0.00e+00	0	45	0	827326464	16	4035
2026-01-21 12:13:41.61	286.84	19.90	-27.4	-28.4	15.6	0.00e+00	0	45	0	830472192	16	4033
2026-01-21 12:13:42.61	287.09	19.88	-27.5	-28.5	15.6	0.00e+00	0	45	0	833617920	16	4054
2026-01-21 12:13:43.61	287.33	19.85	-27.4	-28.3	15.6	0.00e+00	0	45	0	836763648	16	4007
2026-01-21 12:13:44.61	287.57	19.82	-27.4	-28.3	15.6	0.00e+00	0	45	0	839909376	16	3999
2026-01-21 12:13:45.61	287.81	19.79	-27.3	-28.2	15.7	0.00e+00	0	45	0	843055104	16	3973
2026-01-21 12:13:46.61	288.06	19.76	-27.3	-28.1	15.8	0.00e+00	0	45	0	846200832	16	3933
2026-01-21 12:13:47.61	288.30	19.73	-27.1	-28.2	15.8	0.00e+00	0	44	0	849346560	15	4081
2026-01-21 12:13:48.61	288.54	19.70	-27.2	-28.4	15.8	0.00e+00	0	45	0	852492288	15	4134
2026-01-21 12:13:49.61	288.78	19.67	-27.2	-28.4	15.7	0.00e+00	0	45	0	855638016	15	4124
2026-01-21 12:13:50.62	289.02	19.64	-27.3	-28.6	15.6	0.00e+00	0	45	0	858783744	15	4192
2026-01-21 12:13:51.62	289.26	19.61	-27.2	-28.5	15.7	0.00e+00	0	45	0	861929472	15	4163
2026-01-21 12:13:52.63	289.50	19.58	-27.4	-28.8	15.5	0.00e+00	0	45	0	865075200	15	4237
2026-01-21 12:13:53.64	289.74	19.54	-27.3	-28.7	15.5	0.00e+00	0	45	0	868220928	15	4215
2026-01-21 12:13:54.65	289.98	19.51	-27.3	-28.7	15.6	0.00e+00	0	44	0	871366656	15	4206
2026-01-21 12:13:55.65	290.21	19.48	-27.5	-29.0	15.3	0.00e+00	0	45	0	874512384	15	4305
2026-01-21 12:13:56.65	290.45	19.44	-27.6	-29.2	15.3	0.00e+00	0	45	0	877658112	15	4355
2026-01-21 12:13:57.65	290.69	19.41	-27.6	-29.4	15.2	0.00e+00	0	45	0	879755264	15	4400
2026-01-21 12:13:58.66	290.92	19.37	-27.7	-29.5	15.1	0.00e+00	0	45	0	883949568	15	4445
2026-01-21 12:13:59.66	291.16	19.34	-27.7	-29.6	15.1	0.00e+00	0	45	0	887095296	15	4456
2026-01-21 12:14:00.66	291.39	19.30	-27.8	-29.9	14.9	0.00e+00	0	45	0	890241024	15	4549
2026-01-21 12:14:01.67	291.63	19.27	-27.7	-29.5	15.1	7.00e-07	0	45	0	893386752	15	4450
2026-01-21 12:14:02.67	291.86	19.23	-27.5	-29.1	15.3	0.00e+00	0	45	0	896532480	15	4329
2026-01-21 12:14:03.67	292.09	19.19	-27.5	-29.1	15.3	0.00e+00	0	44	0	899678208	15	4317
2026-01-21 12:14:04.67	292.33	19.16	-27.5	-29.1	15.3	0.00e+00	0	44	0	901775360	15	4341
2026-01-21 12:14:05.67	292.56	19.12	-27.5	-29.1	15.3	0.00e+00	0	45	0	904921088	15	4328
2026-01-21 12:14:06.68	292.79	19.08	-27.4	-29.0	15.4	0.00e+00	0	45	0	908066816	15	4291
2026-01-21 12:14:07.68	293.02	19.04	-27.5	-29.0	15.4	0.00e+00	0	45	0	911212544	15	4304
2026-01-21 12:14:08.68	293.25	19.00	-27.4	-28.9	15.4	0.00e+00	0	45	0	914358272	15	4281
2026-01-21 12:14:09.68	293.48	18.97	-27.2	-28.5	15.7	0.00e+00	0	44	0	917504000	15	4164
2026-01-21 12:14:10.69	293.71	18.93	-27.3	-28.6	15.6	0.00e+00	0	45	0	920649728	15	4190
2026-01-21 12:14:11.69	293.94	18.89	-27.4	-28.8	15.5	0.00e+00	0	45	0	923795456	15	4246
2026-01-21 12:14:12.69	294.17	18.85	-27.5	-29.2	15.3	0.00e+00	0	44	0	926941184	15	4352
2026-01-21 12:14:13.70	294.40	18.80	-27.5	-29.2	15.2	0.00e+00	0	44	0	930086912	15	4358
2026-01-21 12:14:14.70	294.62	18.76	-27.6	-29.3	15.2	7.00e-07	0	45	0	933232640	15	4376
2026-01-21 12:14:15.70	294.85	18.72	-27.6	-29.2	15.3	0.00e+00	0	45	0	936378368	15	4360
2026-01-21 12:14:16.70	295.07	18.68	-27.5	-29.0	15.4	0.00e+00	0	45	0	939524096	15	4301
2026-01-21 12:14:17.70	295.30	18.64	-27.5	-29.1	15.3	0.00e+00	0	45	0	942669824	15	4328
2026-01-21 12:14:18.71	295.52	18.60	-27.5	-29.1	15.3	0.00e+00	0	45	0	945815552	15	4333
2026-01-21 12:14:19.71	295.75	18.55	-27.5	-29.0	15.3	0.00e+00	0	45	0	948961280	15	4312
2026-01-21 12:14:20.72	295.97	18.51	-27.6	-29.3	15.1	0.00e+00	0	44	0	952107008	15	4397
2026-01-21 12:14:21.73	296.20	18.46	-27.6	-29.3	15.2	0.00e+00	0	45	0	955252736	15	4382
2026-01-21 12:14:22.72	296.41	18.42	-27.7	-29.5	15.1	0.00e+00	0	45	0	958398464	15	4443
2026-01-21 12:14:23.72	296.63	18.38	-27.6	-29.3	15.1	0.00e+00	0	45	0	961544192	15	4383
2026-01-21 12:14:24.72	296.86	18.33	-27.5	-29.1	15.3	0.00e+00	0	45	0	964689920	15	4340
2026-01-21 12:14:25.73	297.08	18.29	-27.4	-28.9	15.4	0.00e+00	0	45	0	967835648	15	4268
2026-01-21 12:14:26.74	297.30	18.24	-27.6	-29.2	15.2	7.00e-07	0	45	0	970981376	15	4371
2026-01-21 12:14:27.74	297.52	18.20	-27.5	-29.1	15.2	0.00e+00	0	45	0	974127104	15	4341
2026-01-21 12:14:28.74	297.73	18.15	-27.7	-29.5	15.0	0.00e+00	0	45	0	977272832	15	4461
2026-01-21 12:14:29.74	297.95	18.11	-27.5	-29.1	15.3	0.00e+00	0	45	0	980418560	15	4336
2026-01-21 12:14:30.75	298.17	18.06	-27.4	-28.9	15.4	0.00e+00	0	45	0	983564288	15	4270
2026-01-21 12:14:31.75	298.38	18.01	-27.4	-28.9	15.3	0.00e+00	0	45	0	986710016	15	4283
2026-01-21 12:14:32.75	298.60	17.96	-27.4	-29.0	15.3	7.00e-07	0	45	0	989855744	15	4305
2026-01-21 12:14:33.75	298.81	17.92	-27.6	-29.3	15.2	0.00e+00	0	45	0	993001472	15	4389
2026-01-21 12:14:34.76	299.03	17.87	-27.6	-29.4	15.1	0.00e+00	0	44	0	996147200	15	4427
2026-01-21 12:14:35.76	299.24	17.82	-27.7	-29.5	15.0	0.00e+00	0	45	0	999292928	15	4444
2026-01-21 12:14:36.76	299.45	17.77	-27.8	-29.8	14.9	0.00e+00	0	45	0	1002438656	15	4531
2026-01-21 12:14:37.76	299.67	17.72	-27.8	-29.7	14.9	0.00e+00	0	45	0	1005584384	15	4519
2026-01-21 12:14:38.76	299.88	17.68	-27.9	-30.1	14.7	0.00e+00	0	45	0	1008730112	15	4616
2026-01-21 12:14:39.77	300.09	17.63	-27.9	-30.0	14.7	7.00e-07	0	45	0	1011875840	15	4602
2026-01-21 12:14:40.77	300.30	17.58	-28.2	-30.2	14.5	0.00e+00	0	45	0	1015021568	16	4536
2026-01-21 12:14:41.77	300.51	17.53	-28.0	-29.8	14.7	7.00e-07	0	45	0	1018167296	16	4413
2026-01-21 12:14:42.77	300.72	17.48	-27.9	-29.6	14.8	0.00e+00	0	45	0	1021313024	16	4360
2026-01-21 12:14:43.78	300.92	17.43	-27.9	-29.6	14.9	0.00e+00	0	45	0	1024458752	16	4342
2026-01-21 12:14:44.78	301.13	17.38	-27.9	-29.5	14.9	0.00e+00	0	45	0	1027604480	16	4323
2026-01-21 12:14:45.79	301.34	17.33	-28.0	-29.7	14.8	0.00e+00	0	45	0	1030750208	16	4394
2026-01-21 12:14:46.79	301.55	17.28	-28.0	-29.7	14.8	0.00e+00	0	45	0	1033895936	16	4397
2026-01-21 12:14:47.79	301.75	17.22	-28.1	-29.9	14.7	0.00e+00	0	45	0	1037041664	16	4449
2026-01-21 12:14:48.80	301.96	17.17	-28.1	-30.0	14.6	0.00e+00	0	45	0	1040187392	16	4483
2026-01-21 12:14:49.80	302.16	17.12	-28.2	-30.2	14.5	0.00e+00	0	45	0	1043333120	16	4527
2026-01-21 12:14:50.81	302.36	17.07	-28.2	-30.2	14.5	0.00e+00	0	45	0	1046478848	16	4531
2026-01-21 12:14:51.81	302.57	17.02	-28.3	-30.4	14.4	1.50e-06	0	45	0	1049624576	16	4586
2026-01-21 12:14:52.82	302.77	16.96	-28.2	-30.2	14.4	7.00e-07	0	45	0	1052770304	16	4538
2026-01-21 12:14:53.81	302.97	16.91	-28.2	-30.2	14.4	2.20e-06	0	45	0	1055916032	16	4542
2026-01-21 12:14:54.81	303.17	16.86	-28.1	-30.0	14.6	0.00e+00	0	45	0	1059061760	16	4479
2026-01-21 12:14:55.81	303.37	16.81	-28.1	-30.0	14.6	0.00e+00	0	45	0	1062207488	16	4486
2026-01-21 12:14:56.81	303.57	16.75	-28.2	-30.2	14.5	7.00e-07	0	45	0	1065353216	16	4531
2026-01-21 12:14:57.81	303.76	16.70	-28.0	-29.7	14.7	0.00e+00	0	45	0	1068498944	16	4395
2026-01-21 12:14:58.82	303.96	16.65	-27.8	-29.4	14.9	0.00e+00	0	45	0	1071644672	16	4285
2026-01-21 12:14:59.82	304.16	16.59	-27.8	-29.3	15.0	0.00e+00	0	45	0	1074790400	16	4260
2026-01-21 12:15:00.83	304.36	16.54	-28.0	-29.6	14.8	0.00e+00	0	45	0	1077936128	16	4372
2026-01-21 12:15:01.83	304.55	16.49	-27.9	-29.5	14.9	0.00e+00	0	45	0	1081081856	16	4324
2026-01-21 12:15:02.84	304.75	16.43	-28.1	-30.0	14.6	7.00e-07	0	45	0	1084227584	16	4460
2026-01-21 12:15:03.84	304.94	16.38	-28.1	-29.9	14.6	7.00e-07	0	45	0	1087373312	16	4453
2026-01-21 12:15:04.84	305.14	16.32	-28.2	-30.1	14.5	7.00e-07	0	45	0	1090519040	16	4519
2026-01-21 12:15:05.84	305.33	16.27	-28.3	-30.4	14.4	1.50e-06	0	45	0	1093664768	16	4587
2026-01-21 12:15:06.84	305.52	16.21	-28.3	-30.5	14.2	7.00e-07	0	45	0	1096810496	16	4634
2026-01-21 12:15:07.84	305.71	16.16	-28.4	-30.7	14.2	1.50e-06	0	45	0	1099956224	16	4682
2026-01-21 12:15:08.84	305.90	16.10	-28.3	-30.5	14.3	0.00e+00	0	45	0	1103101952	16	4626
2026-01-21 12:15:09.85	306.09	16.05	-28.5	-30.9	14.1	7.00e-07	0	45	0	1106247680	16	4742
2026-01-21 12:15:10.85	306.28	15.99	-28.2	-29.7	14.4	0.00e+00	0	45	0	1109393408	17	4289
2026-01-21 12:15:11.86	306.47	15.93	-28.0	-29.2	14.7	7.00e-07	0	45	0	1112539136	17	4132
2026-01-21 12:15:12.86	306.66	15.88	-28.0	-29.2	14.8	7.00e-07	0	45	0	1115684864	17	4133
2026-01-21 12:15:13.86	306.85	15.82	-28.1	-29.5	14.5	0.00e+00	0	45	0	1118830592	17	4209
2026-01-21 12:15:14.86	307.03	15.76	-28.0	-29.3	14.6	7.00e-07	0	45	0	1121976320	17	4181
2026-01-21 12:15:15.85	307.22	15.71	-28.0	-29.2	14.8	0.00e+00	0	45	0	1125122048	17	4129
2026-01-21 12:15:16.86	307.41	15.65	-27.9	-29.1	14.7	0.00e+00	0	45	0	1128267776	17	4119
2026-01-21 12:15:17.86	307.59	15.60	-28.0	-29.2	14.7	0.00e+00	0	45	0	1131413504	17	4144
2026-01-21 12:15:18.87	307.77	15.54	-28.0	-29.2	14.7	0.00e+00	0	45	0	1134559232	17	4148
2026-01-21 12:15:19.87	307.96	15.48	-28.1	-29.6	14.5	0.00e+00	0	45	0	1137704960	17	4248
2026-01-21 12:15:20.87	308.14	15.42	-28.3	-29.9	14.3	1.50e-06	0	45	0	1140850688	17	4344
2026-01-21 12:15:21.88	308.32	15.37	-28.4	-30.2	14.1	1.50e-06	0	45	0	1143996416	17	4427
2026-01-21 12:15:22.88	308.50	15.31	-28.3	-30.1	14.2	7.00e-07	0	45	0	1147142144	17	4391
2026-01-21 12:15:23.89	308.69	15.25	-28.2	-29.8	14.3	0.00e+00	0	45	0	1150287872	17	4316
2026-01-21 12:15:24.89	308.87	15.19	-28.3	-30.0	14.2	1.50e-06	0	45	0	1153433600	17	4377
2026-01-21 12:15:25.90	309.05	15.13	-28.3	-29.9	14.3	2.20e-06	0	45	0	1155530752	17	4336
2026-01-21 12:15:26.90	309.22	15.08	-28.2	-29.7	14.4	1.50e-06	0	45	0	1158676480	17	4283
2026-01-21 12:15:27.89	309.40	15.02	-28.4	-30.1	14.1	0.00e+00	0	45	0	1161822208	17	4396
2026-01-21 12:15:28.89	309.58	14.96	-28.2	-29.7	14.4	0.00e+00	0	45	0	1164967936	17	4274
2026-01-21 12:15:29.89	309.75	14.90	-28.1	-29.4	14.5	7.00e-07	0	45	0	1168113664	17	4208
2026-01-21 12:15:30.90	309.93	14.84	-28.2	-29.6	14.4	7.00e-07	0	45	0	1171259392	17	4261
2026-01-21 12:15:31.90	310.10	14.79	-28.1	-29.6	14.4	1.50e-06	0	45	0	1174405120	17	4240
2026-01-21 12:15:32.90	310.28	14.73	-28.1	-29.4	14.5	0.00e+00	0	45	0	1177550848	17	4193
2026-01-21 12:15:33.91	310.45	14.67	-28.1	-29.5	14.4	7.00e-07	0	45	0	1180696576	17	4238
2026-01-21 12:15:34.92	310.63	14.61	-28.2	-29.8	14.3	7.00e-07	0	45	0	1183842304	17	4303
2026-01-21 12:15:35.93	310.80	14.55	-28.4	-30.2	14.1	1.50e-06	0	45	0	1186988032	17	4419
2026-01-21 12:15:36.93	310.97	14.49	-28.3	-30.0	14.2	3.00e-06	0	45	0	1190133760	17	4362
2026-01-21 12:15:37.94	311.15	14.43	-28.6	-30.6	13.8	4.50e-06	0	45	0	1193279488	17	4552
2026-01-21 12:15:38.94	311.32	14.37	-28.3	-30.1	14.1	2.20e-06	0	45	0	1196425216	17	4393
2026-01-21 12:15:39.95	311.49	14.31	-28.2	-29.8	14.3	0.00e+00	0	45	0	1199570944	17	4326
2026-01-21 12:15:40.95	311.66	14.25	-28.3	-30.0	14.2	7.00e-07	0	45	0	1202716672	17	4372
2026-01-21 12:15:41.96	311.83	14.19	-28.4	-30.1	14.1	2.20e-06	0	45	0	1205862400	17	4401
2026-01-21 12:15:42.95	311.99	14.13	-28.3	-30.0	14.1	2.20e-06	0	45	0	1209008128	17	4380
2026-01-21 12:15:43.96	312.16	14.07	-28.6	-30.6	13.8	3.80e-06	0	45	0	1212153856	17	4562
2026-01-21 12:15:44.96	312.33	14.01	-28.4	-30.1	14.1	3.00e-06	0	45	0	1215299584	17	4410
2026-01-21 12:15:45.96	312.49	13.95	-28.4	-30.1	14.0	7.00e-07	0	45	0	1218445312	17	4414
2026-01-21 12:15:46.97	312.66	13.89	-28.3	-30.0	14.1	3.80e-06	0	45	0	1221591040	17	4368
2026-01-21 12:15:47.98	312.82	13.83	-28.4	-30.2	14.0	1.50e-06	0	45	0	1224736768	17	4419
2026-01-21 12:15:48.98	312.99	13.77	-28.3	-29.9	14.2	7.00e-07	0	45	0	1227882496	17	4345
2026-01-21 12:15:49.98	313.15	13.71	-28.2	-29.9	14.2	0.00e+00	0	45	0	1231028224	17	4336
2026-01-21 12:15:50.99	313.31	13.65	-28.4	-30.3	13.9	1.50e-06	0	45	0	1234173952	17	4468
2026-01-21 12:15:51.99	313.48	13.59	-28.3	-29.9	14.2	1.50e-06	0	45	0	1237319680	17	4354
2026-01-21 12:15:53.00	313.64	13.53	-28.2	-29.7	14.3	7.00e-07	0	45	0	1240465408	17	4279
2026-01-21 12:15:54.00	313.80	13.47	-28.2	-29.7	14.3	7.00e-07	0	45	0	1243611136	17	4291
2026-01-21 12:15:55.01	313.96	13.41	-28.3	-29.9	14.2	7.00e-07	0	45	0	1246756864	17	4352
2026-01-21 12:15:56.00	314.12	13.35	-28.3	-29.9	14.2	1.50e-06	0	45	0	1249902592	17	4341
2026-01-21 12:15:57.01	314.28	13.29	-28.1	-29.6	14.4	7.00e-07	0	45	0	1253048320	17	4251
2026-01-21 12:15:58.01	314.43	13.23	-28.3	-30.0	14.1	1.50e-06	0	45	0	1256194048	17	4368
2026-01-21 12:15:59.02	314.59	13.17	-28.2	-29.9	14.1	7.00e-07	0	45	0	1259339776	17	4338
2026-01-21 12:16:00.02	314.75	13.11	-28.2	-29.9	14.2	7.00e-07	0	45	0	1262485504	17	4338
2026-01-21 12:16:01.02	314.91	13.05	-28.5	-30.4	13.8	7.00e-07	0	45	0	1265631232	17	4502
2026-01-21 12:16:02.03	315.06	12.99	-28.4	-30.1	14.0	2.20e-06	0	45	0	1268776960	17	4419
2026-01-21 12:16:03.03	315.22	12.93	-28.3	-29.9	14.1	7.00e-07	0	45	0	1271922688	17	4350
2026-01-21 12:16:04.04	315.37	12.86	-28.4	-30.2	14.0	4.50e-06	0	45	0	1275068416	17	4428
2026-01-21 12:16:05.04	315.53	12.80	-28.2	-29.7	14.2	2.20e-06	0	45	0	1278214144	17	4294
2026-01-21 12:16:06.04	315.68	12.74	-28.2	-29.8	14.2	2.20e-06	0	45	0	1281359872	17	4305
2026-01-21 12:16:07.05	315.83	12.68	-28.2	-29.7	14.2	1.50e-06	0	45	0	1284505600	17	4282
2026-01-21 12:16:08.05	315.98	12.62	-28.2	-29.7	14.2	1.50e-06	0	45	0	1287651328	17	4302
2026-01-21 12:16:09.05	316.14	12.56	-28.3	-30.1	14.0	3.00e-06	0	45	0	1290797056	17	4404
2026-01-21 12:16:10.05	316.29	12.50	-28.3	-30.0	14.0	3.00e-06	0	45	0	1293942784	17	4392
2026-01-21 12:16:11.06	316.44	12.44	-28.3	-30.0	14.0	0.00e+00	0	45	0	1297088512	17	4387
2026-01-21 12:16:12.06	316.59	12.38	-28.4	-30.3	13.8	2.20e-06	0	45	0	1300234240	17	4466
2026-01-21 12:16:13.06	316.74	12.32	-28.4	-30.2	13.9	3.00e-06	0	45	0	1303379968	17	4447
2026-01-21 12:16:14.06	316.88	12.26	-28.5	-30.5	13.7	4.50e-06	0	45	0	1306525696	17	4517
2026-01-21 12:16:15.07	317.03	12.19	-28.7	-30.9	13.4	1.06e-05	0	45	0	1309671424	17	4671
2026-01-21 12:16:16.06	317.18	12.13	-28.6	-30.7	13.6	8.30e-06	0	45	0	1312817152	17	4604
2026-01-21 12:16:17.07	317.33	12.07	-28.6	-30.8	13.5	5.30e-06	0	45	0	1315962880	17	4617
2026-01-21 12:16:18.07	317.47	12.01	-28.8	-31.2	13.3	2.28e-05	0	45	0	1319108608	17	4744
2026-01-21 12:16:19.07	317.62	11.95	-28.8	-31.1	13.3	2.13e-05	0	45	0	1322254336	17	4725
2026-01-21 12:16:20.07	317.76	11.89	-29.0	-31.3	12.9	2.67e-05	0	45	0	1325400064	18	4675
2026-01-21 12:16:21.08	317.91	11.83	-28.8	-30.8	13.2	2.51e-05	0	45	0	1328545792	18	4518
2026-01-21 12:16:22.08	318.05	11.77	-29.0	-31.3	13.0	3.89e-05	0	45	0	1331691520	18	4657
2026-01-21 12:16:23.09	318.19	11.71	-28.9	-30.9	13.1	3.58e-05	0	45	0	1334837248	18	4561
2026-01-21 12:16:24.09	318.34	11.65	-28.7	-30.6	13.4	1.52e-05	0	45	0	1337982976	18	4443
2026-01-21 12:16:25.10	318.48	11.58	-28.7	-30.5	13.4	1.37e-05	0	45	0	1341128704	18	4409
2026-01-21 12:16:26.10	318.62	11.52	-28.8	-30.6	13.3	1.37e-05	0	45	0	1344274432	18	4449
2026-01-21 12:16:27.11	318.76	11.46	-28.7	-30.5	13.4	1.75e-05	0	45	0	1347420160	18	4433
2026-01-21 12:16:28.11	318.90	11.40	-28.5	-30.0	13.7	9.10e-06	0	45	0	1350565888	18	4272
2026-01-21 12:16:29.12	319.04	11.34	-28.5	-30.1	13.6	7.60e-06	0	45	0	1353711616	18	4303
2026-01-21 12:16:30.12	319.18	11.28	-28.5	-30.0	13.7	9.10e-06	0	45	0	1356857344	18	4281
2026-01-21 12:16:31.13	319.32	11.22	-28.6	-30.1	13.6	6.80e-06	0	45	0	1360003072	18	4313
2026-01-21 12:16:32.13	319.46	11.16	-28.7	-30.5	13.4	1.52e-05	0	45	0	1363148800	18	4432
2026-01-21 12:16:33.13	319.60	11.09	-28.7	-30.4	13.4	1.60e-05	0	45	0	1366294528	18	4412
2026-01-21 12:16:34.14	319.73	11.03	-28.7	-30.6	13.3	1.67e-05	0	45	0	1369440256	18	4460
2026-01-21 12:16:35.14	319.87	10.97	-28.8	-30.8	13.1	2.82e-05	0	45	0	1372585984	18	4530
2026-01-21 12:16:36.14	320.01	10.91	-28.7	-30.5	13.3	1.67e-05	0	45	0	1375731712	18	4444
2026-01-21 12:16:37.14	320.14	10.85	-29.0	-31.1	12.9	5.26e-05	0	45	0	1378877440	18	4620
2026-01-21 12:16:38.14	320.27	10.79	-28.9	-31.1	13.0	4.95e-05	0	45	0	1382023168	18	4615
2026-01-21 12:16:39.15	320.41	10.73	-29.0	-31.2	12.9	4.04e-05	0	45	0	1385168896	18	4650
2026-01-21 12:16:40.15	320.54	10.67	-29.0	-31.2	12.9	5.03e-05	0	45	0	1388314624	18	4651
2026-01-21 12:16:41.15	320.68	10.61	-29.0	-31.2	12.9	5.11e-05	0	45	0	1391460352	18	4645
2026-01-21 12:16:42.15	320.81	10.55	-29.0	-31.3	12.9	5.34e-05	0	45	0	1394606080	18	4674
2026-01-21 12:16:43.16	320.94	10.48	-29.1	-31.4	12.7	6.17e-05	0	45	0	1397751808	18	4728
2026-01-21 12:16:44.17	321.07	10.42	-29.2	-31.7	12.5	1.06e-04	0	45	0	1400897536	18	4831
2026-01-21 12:16:45.17	321.20	10.36	-29.2	-31.7	12.6	1.03e-04	0	45	0	1404043264	18	4834
2026-01-21 12:16:46.17	321.33	10.30	-29.3	-31.9	12.5	1.22e-04	0	45	0	1407188992	18	4885
2026-01-21 12:16:47.17	321.46	10.24	-29.3	-32.1	12.3	1.62e-04	0	45	0	1410334720	18	4939
2026-01-21 12:16:48.17	321.59	10.18	-29.4	-32.3	12.2	2.38e-04	0	45	0	1413480448	18	5029
2026-01-21 12:16:49.18	321.72	10.12	-29.3	-32.0	12.3	1.35e-04	0	45	0	1416626176	18	4926
2026-01-21 12:16:50.18	321.85	10.06	-29.4	-32.3	12.2	1.89e-04	0	45	0	1419771904	18	5005
2026-01-21 12:16:51.19	321.98	10.00	-29.4	-32.2	12.2	2.03e-04	0	45	0	1422917632	18	4998
2026-01-21 12:16:52.19	322.11	9.94	-29.4	-32.3	12.2	1.99e-04	0	45	0	1426063360	18	5009
2026-01-21 12:16:53.19	322.23	9.88	-29.4	-32.4	12.1	2.20e-04	0	45	0	1429209088	18	5055
2026-01-21 12:16:54.20	322.36	9.81	-29.6	-32.2	11.8	4.67e-04	0	45	0	1432354816	19	4896
2026-01-21 12:16:55.20	322.49	9.75	-29.4	-31.8	12.2	2.80e-04	0	45	0	1435500544	19	4734
2026-01-21 12:16:56.20	322.61	9.69	-29.2	-31.2	12.5	1.33e-04	0	45	0	1438646272	19	4542
2026-01-21 12:16:57.21	322.74	9.63	-29.1	-31.0	12.6	8.16e-05	0	45	0	1441792000	19	4495
2026-01-21 12:16:58.21	322.86	9.57	-29.1	-31.0	12.6	8.39e-05	0	45	0	1444937728	19	4495
2026-01-21 12:16:59.22	322.99	9.51	-29.2	-31.2	12.6	1.05e-04	0	45	0	1448083456	19	4543
2026-01-21 12:17:00.22	323.11	9.45	-29.2	-31.2	12.5	9.07e-05	0	45	0	1451229184	19	4543
2026-01-21 12:17:01.23	323.23	9.39	-29.4	-31.7	12.2	2.10e-04	0	45	0	1454374912	19	4709
2026-01-21 12:17:02.23	323.36	9.33	-29.4	-31.8	12.1	2.54e-04	0	45	0	1457520640	19	4751
2026-01-21 12:17:03.24	323.48	9.27	-29.5	-31.9	12.0	3.43e-04	0	45	0	1460666368	19	4791
2026-01-21 12:17:04.24	323.60	9.21	-29.2	-31.3	12.4	1.78e-04	0	45	0	1463812096	19	4595
2026-01-21 12:17:05.24	323.72	9.15	-29.2	-31.2	12.4	1.43e-04	0	45	0	1466957824	19	4563
2026-01-21 12:17:06.24	323.84	9.09	-29.1	-31.1	12.5	1.14e-04	0	45	0	1470103552	19	4511
2026-01-21 12:17:07.25	323.96	9.03	-29.0	-30.8	12.7	8.85e-05	0	45	0	1473249280	19	4423
2026-01-21 12:17:08.25	324.08	8.97	-29.2	-31.2	12.5	1.12e-04	0	45	0	1476395008	19	4549
2026-01-21 12:17:09.25	324.20	8.91	-29.1	-31.2	12.5	1.27e-04	0	45	0	1478492160	19	4545
2026-01-21 12:17:10.25	324.32	8.85	-29.2	-31.3	12.4	1.13e-04	0	45	0	1481637888	19	4588
2026-01-21 12:17:11.25	324.43	8.79	-29.3	-31.4	12.3	2.17e-04	0	45	0	1484783616	19	4625
2026-01-21 12:17:12.25	324.55	8.73	-29.1	-31.0	12.6	1.48e-04	0	45	0	1487929344	19	4487
2026-01-21 12:17:13.26	324.67	8.67	-29.2	-31.2	12.5	1.33e-04	0	45	0	1492123648	19	4551
2026-01-21 12:17:14.27	324.79	8.61	-29.2	-31.4	12.3	1.46e-04	0	45	0	1495269376	19	4613
2026-01-21 12:17:15.28	324.90	8.55	-29.5	-32.0	11.9	3.75e-04	0	45	0	1498415104	19	4812
2026-01-21 12:17:16.28	325.02	8.49	-29.3	-31.6	12.1	3.21e-04	0	45	0	1501560832	19	4692
2026-01-21 12:17:17.28	325.14	8.43	-29.5	-32.1	11.8	4.21e-04	0	45	0	1503657984	19	4857
2026-01-21 12:17:18.28	325.25	8.37	-29.5	-32.0	11.9	5.55e-04	0	45	0	1506803712	19	4833
2026-01-21 12:17:19.28	325.36	8.31	-29.3	-31.7	12.0	2.41e-04	0	45	0	1509949440	19	4729
2026-01-21 12:17:20.29	325.48	8.25	-29.5	-32.0	11.8	5.26e-04	0	45	0	1513095168	19	4840
2026-01-21 12:17:21.29	325.59	8.19	-29.6	-32.4	11.6	5.76e-04	0	45	0	1516240896	19	4964
2026-01-21 12:17:22.29	325.71	8.13	-29.7	-32.5	11.5	9.43e-04	0	45	0	1519386624	19	5009
2026-01-21 12:17:23.29	325.82	8.07	-29.6	-32.3	11.6	5.75e-04	0	45	0	1522532352	19	4949
2026-01-21 12:17:24.28	325.93	8.01	-29.2	-31.4	12.2	3.46e-04	0	45	0	1525678080	19	4622
2026-01-21 12:17:25.28	326.04	7.95	-29.2	-31.4	12.3	2.41e-04	0	45	0	1528823808	19	4618
2026-01-21 12:17:26.28	326.15	7.89	-29.3	-31.6	12.1	2.82e-04	0	45	0	1531969536	19	4687
2026-01-21 12:17:27.28	326.26	7.83	-29.1	-31.1	12.4	1.50e-04	0	45	0	1535115264	19	4523
2026-01-21 12:17:28.29	326.37	7.78	-29.2	-31.3	12.3	1.83e-04	0	45	0	1538260992	19	4591
2026-01-21 12:17:29.30	326.48	7.72	-29.4	-31.9	11.9	2.48e-04	0	45	0	1541406720	19	4786
2026-01-21 12:17:30.30	326.59	7.66	-29.5	-32.0	11.8	4.61e-04	0	45	0	1544552448	19	4841
2026-01-21 12:17:31.30	326.70	7.60	-29.5	-32.2	11.7	6.65e-04	0	45	0	1547698176	19	4916
2026-01-21 12:17:32.30	326.81	7.54	-29.5	-32.2	11.7	5.94e-04	0	45	0	1550843904	19	4888
2026-01-21 12:17:33.30	326.92	7.48	-29.7	-32.6	11.4	7.24e-04	0	45	0	1553989632	19	5033
2026-01-21 12:17:34.30	327.03	7.42	-29.7	-32.6	11.4	9.32e-04	0	45	0	1557135360	19	5055
2026-01-21 12:17:35.30	327.13	7.36	-29.7	-32.5	11.5	7.37e-04	0	45	0	1560281088	19	5025
2026-01-21 12:17:36.30	327.24	7.30	-29.9	-33.1	11.0	1.86e-03	0	45	0	1563426816	19	5253
2026-01-21 12:17:37.30	327.35	7.25	-29.6	-32.5	11.4	9.51e-04	0	45	0	1566572544	19	5028
2026-01-21 12:17:38.30	327.45	7.19	-29.8	-32.8	11.2	1.31e-03	0	45	0	1569718272	19	5135
2026-01-21 12:17:39.30	327.56	7.13	-29.8	-33.0	11.1	1.63e-03	0	45	0	1572864000	19	5209
2026-01-21 12:17:40.31	327.66	7.07	-29.9	-33.3	11.2	1.62e-03	0	45	0	1576009728	19	5304
2026-01-21 12:17:41.31	327.77	7.01	-33.4	-45.7	3.8	1.49e+00	0	45	104	1576009728	26	14801
2026-01-21 12:17:42.31	327.87	6.95	-33.8	-45.7	3.8	1.49e+00	0	45	104	1576009728	27	14272
2026-01-21 12:17:43.30	327.98	6.89	-34.0	-46.3	3.8	1.49e+00	0	45	104	1576009728	27	14842

#Closed at: 2026-01-21 12:17:43
#Recorded file [1576 MB]: D:/data/31010_260121_150915.dat