passes_logs/2026/01/21/R2M6_AANII_01/R2M6_AANII_01__20260121_084638_NOAA_21_JPSS-2_rec.log

#Pass ID: 20260121_084638_NOAA 21 (JPSS-2)
#Satellite: NOAA 21 (JPSS-2)
#Configuration: NOAA 21
#almurnet v.1.7.20240730
#Start time: 2026-01-21 08:46:40

#Version: 2.2.20231116
#Station: R2M6_AANII_01
#Location: 30.233357 lon 59.946436 lat
#TLE: 1 54234U 22150A   26020.29910383  .00000141  00000+0  87571-4 0  9990
#TLE: 2 54234  98.7506 321.1348 0000615 250.8428 109.2682 14.19536295165564

#Time	Az	El	Level	Level2	SNR	BER	BlckErr	Temp	State	Recorded	gain1	gain2
2026-01-21 08:46:40.18	112.43	7.11	-30.9	-35.2	4.6	1.40e+00	0	42	0	0	23	5872
2026-01-21 08:46:41.18	112.36	7.18	-30.5	-34.2	4.8	1.38e+00	0	42	104	0	22	5543
2026-01-21 08:46:42.18	112.28	7.25	-30.5	-33.4	9.7	1.16e-02	0	42	0	0	22	5060
2026-01-21 08:46:43.18	112.21	7.31	-30.5	-33.6	9.6	1.33e-02	0	42	0	3145728	22	5126
2026-01-21 08:46:44.19	112.13	7.38	-30.5	-33.6	9.6	1.29e-02	0	42	0	6291456	22	5148
2026-01-21 08:46:45.19	112.05	7.45	-30.5	-33.4	9.8	1.02e-02	0	42	0	9437184	22	5062
2026-01-21 08:46:46.19	111.97	7.52	-30.1	-33.0	10.4	5.63e-03	0	42	0	12582912	21	4979
2026-01-21 08:46:47.18	111.90	7.59	-29.8	-32.1	11.1	2.07e-03	0	42	0	14680064	21	4661
2026-01-21 08:46:48.18	111.82	7.66	-29.6	-31.9	11.5	9.60e-04	0	42	0	18874368	20	4705
2026-01-21 08:46:49.18	111.74	7.73	-29.4	-31.4	11.9	5.52e-04	0	42	0	22020096	20	4544
2026-01-21 08:46:50.18	111.66	7.80	-29.3	-31.7	12.1	3.04e-04	0	42	0	24117248	19	4718
2026-01-21 08:46:51.18	111.58	7.87	-29.4	-31.9	12.0	3.31e-04	0	42	0	27262976	19	4777
2026-01-21 08:46:52.17	111.50	7.94	-29.5	-32.2	11.8	4.37e-04	0	42	0	30408704	19	4907
2026-01-21 08:46:53.18	111.42	8.01	-29.4	-31.9	12.0	3.82e-04	0	42	0	33554432	19	4800
2026-01-21 08:46:54.19	111.34	8.09	-29.3	-31.7	12.1	2.91e-04	0	42	0	36700160	19	4733
2026-01-21 08:46:55.19	111.26	8.16	-29.3	-31.6	12.2	2.17e-04	0	42	0	39845888	19	4694
2026-01-21 08:46:56.19	111.18	8.23	-29.3	-31.7	12.2	2.93e-04	0	42	0	42991616	19	4710
2026-01-21 08:46:57.20	111.10	8.30	-29.3	-31.7	12.2	2.18e-04	0	42	0	46137344	19	4719
2026-01-21 08:46:58.19	111.02	8.37	-29.4	-31.9	12.0	3.36e-04	0	42	0	49283072	19	4791
2026-01-21 08:46:59.19	110.93	8.44	-29.1	-31.2	12.5	1.87e-04	0	42	0	52428800	19	4550
2026-01-21 08:47:00.19	110.85	8.51	-29.1	-30.9	12.6	1.05e-04	0	42	0	55574528	19	4478
2026-01-21 08:47:01.19	110.77	8.59	-29.0	-30.7	12.8	6.10e-05	0	42	0	58720256	19	4400
2026-01-21 08:47:02.19	110.69	8.66	-29.0	-30.7	12.8	5.49e-05	0	42	0	61865984	19	4401
2026-01-21 08:47:03.20	110.60	8.73	-29.1	-31.0	12.7	9.76e-05	0	42	0	65011712	19	4478
2026-01-21 08:47:04.20	110.52	8.80	-29.0	-30.7	12.8	5.87e-05	0	42	0	68157440	19	4409
2026-01-21 08:47:05.21	110.43	8.88	-29.0	-30.8	12.8	6.71e-05	0	42	0	71303168	19	4433
2026-01-21 08:47:06.21	110.34	8.95	-29.0	-30.7	12.8	7.32e-05	0	42	0	74448896	19	4410
2026-01-21 08:47:07.21	110.26	9.02	-28.9	-30.6	12.9	5.41e-05	0	42	0	77594624	19	4367
2026-01-21 08:47:08.22	110.17	9.10	-29.0	-30.8	12.8	5.56e-05	0	42	0	80740352	19	4432
2026-01-21 08:47:09.23	110.08	9.17	-29.1	-31.1	12.6	7.62e-05	0	43	0	83886080	19	4523
2026-01-21 08:47:10.22	110.00	9.24	-28.9	-30.7	12.9	5.95e-05	0	42	0	87031808	19	4390
2026-01-21 08:47:11.23	109.91	9.32	-29.0	-30.7	12.9	5.34e-05	0	42	0	90177536	19	4407
2026-01-21 08:47:12.23	109.82	9.39	-29.0	-30.9	12.8	7.09e-05	0	42	0	93323264	19	4456
2026-01-21 08:47:13.23	109.73	9.46	-29.0	-30.8	12.9	5.03e-05	0	42	0	96468992	19	4415
2026-01-21 08:47:14.23	109.64	9.54	-29.2	-31.2	12.6	6.02e-05	0	43	0	99614720	19	4540
2026-01-21 08:47:15.23	109.55	9.61	-29.1	-31.1	12.6	1.05e-04	0	42	0	102760448	19	4530
2026-01-21 08:47:16.23	109.47	9.68	-29.0	-30.8	12.9	5.18e-05	0	43	0	105906176	19	4412
2026-01-21 08:47:17.24	109.37	9.76	-28.9	-30.5	13.1	3.20e-05	0	42	0	109051904	19	4326
2026-01-21 08:47:18.24	109.28	9.83	-28.9	-30.4	13.1	3.73e-05	0	42	0	112197632	19	4311
2026-01-21 08:47:19.24	109.19	9.91	-28.9	-30.4	13.1	3.05e-05	0	43	0	115343360	19	4314
2026-01-21 08:47:20.25	109.10	9.98	-29.0	-30.7	13.0	5.56e-05	0	43	0	118489088	19	4389
2026-01-21 08:47:21.25	109.01	10.06	-28.9	-30.5	13.1	2.36e-05	0	43	0	121634816	19	4319
2026-01-21 08:47:22.26	108.91	10.13	-28.9	-30.5	13.0	3.20e-05	0	43	0	124780544	19	4341
2026-01-21 08:47:23.26	108.82	10.21	-28.8	-30.3	13.2	2.59e-05	0	43	0	127926272	19	4273
2026-01-21 08:47:24.27	108.73	10.29	-28.9	-30.4	13.2	2.13e-05	0	43	0	131072000	19	4294
2026-01-21 08:47:25.28	108.63	10.36	-28.8	-30.4	13.2	1.98e-05	0	43	0	134217728	19	4292
2026-01-21 08:47:26.28	108.54	10.44	-28.9	-30.5	13.2	3.35e-05	0	43	0	137363456	19	4312
2026-01-21 08:47:27.28	108.44	10.51	-28.7	-30.4	13.5	1.06e-05	0	43	0	140509184	18	4406
2026-01-21 08:47:28.29	108.34	10.59	-28.7	-30.4	13.5	1.60e-05	0	43	0	143654912	18	4395
2026-01-21 08:47:29.29	108.25	10.67	-28.7	-30.5	13.5	9.90e-06	0	43	0	146800640	18	4421
2026-01-21 08:47:30.29	108.15	10.74	-28.7	-30.6	13.4	2.21e-05	0	43	0	149946368	18	4455
2026-01-21 08:47:31.30	108.05	10.82	-28.6	-30.4	13.5	1.14e-05	0	43	0	153092096	18	4386
2026-01-21 08:47:32.30	107.95	10.90	-28.6	-30.3	13.6	1.44e-05	0	43	0	156237824	18	4364
2026-01-21 08:47:33.31	107.85	10.97	-28.6	-30.3	13.6	1.06e-05	0	43	0	159383552	18	4362
2026-01-21 08:47:34.31	107.76	11.05	-28.6	-30.2	13.6	9.90e-06	0	43	0	162529280	18	4354
2026-01-21 08:47:35.31	107.66	11.13	-28.5	-30.0	13.8	5.30e-06	0	43	0	165675008	18	4286
2026-01-21 08:47:36.32	107.56	11.21	-28.5	-30.1	13.7	1.37e-05	0	43	0	168820736	18	4304
2026-01-21 08:47:37.32	107.45	11.28	-28.5	-30.0	13.8	3.00e-06	0	43	0	171966464	18	4291
2026-01-21 08:47:38.32	107.35	11.36	-28.7	-30.4	13.6	1.22e-05	0	43	0	175112192	18	4409
2026-01-21 08:47:39.33	107.25	11.44	-28.4	-29.7	14.0	9.90e-06	0	43	0	178257920	18	4191
2026-01-21 08:47:40.34	107.15	11.52	-28.3	-29.6	14.0	1.50e-06	0	43	0	181403648	18	4168
2026-01-21 08:47:41.33	107.05	11.60	-28.2	-29.8	14.2	2.20e-06	0	43	0	184549376	17	4335
2026-01-21 08:47:42.34	106.94	11.67	-28.3	-30.0	14.1	1.06e-05	0	43	0	187695104	17	4371
2026-01-21 08:47:43.33	106.84	11.75	-28.1	-29.7	14.3	1.50e-06	0	43	0	190840832	17	4284
2026-01-21 08:47:44.33	106.73	11.83	-28.3	-29.9	14.2	7.00e-07	0	43	0	193986560	17	4349
2026-01-21 08:47:45.33	106.63	11.91	-28.2	-29.8	14.2	5.30e-06	0	43	0	197132288	17	4333
2026-01-21 08:47:46.34	106.52	11.99	-28.0	-29.4	14.4	0.00e+00	0	43	0	200278016	17	4219
2026-01-21 08:47:47.33	106.42	12.07	-28.0	-29.4	14.5	3.00e-06	0	43	0	203423744	17	4197
2026-01-21 08:47:48.33	106.31	12.15	-28.0	-29.4	14.5	6.80e-06	0	43	0	206569472	17	4211
2026-01-21 08:47:49.33	106.20	12.22	-28.0	-29.3	14.6	7.00e-07	0	43	0	209715200	17	4176
2026-01-21 08:47:50.33	106.10	12.30	-28.0	-29.3	14.6	7.00e-07	0	43	0	212860928	17	4184
2026-01-21 08:47:51.34	105.99	12.38	-28.0	-29.4	14.5	7.00e-07	0	43	0	216006656	17	4212
2026-01-21 08:47:52.34	105.88	12.46	-27.9	-29.2	14.6	0.00e+00	0	43	0	219152384	17	4146
2026-01-21 08:47:53.35	105.77	12.55	-28.0	-29.2	14.6	0.00e+00	0	43	0	222298112	17	4158
2026-01-21 08:47:54.35	105.66	12.63	-27.9	-29.1	14.7	3.80e-06	0	43	0	225443840	17	4135
2026-01-21 08:47:55.36	105.54	12.71	-28.0	-29.2	14.6	0.00e+00	0	43	0	228589568	17	4164
2026-01-21 08:47:56.37	105.43	12.79	-28.0	-29.3	14.6	0.00e+00	0	43	0	231735296	17	4179
2026-01-21 08:47:57.37	105.32	12.87	-28.0	-29.2	14.6	7.00e-07	0	43	0	234881024	17	4167
2026-01-21 08:47:58.38	105.21	12.95	-28.0	-29.3	14.6	7.00e-07	0	43	0	238026752	17	4184
2026-01-21 08:47:59.39	105.09	13.03	-28.0	-29.3	14.6	2.20e-06	0	43	0	241172480	17	4191
2026-01-21 08:48:00.39	104.98	13.11	-28.0	-29.2	14.7	1.50e-06	0	43	0	244318208	17	4145
2026-01-21 08:48:01.38	104.86	13.19	-27.9	-29.2	14.7	0.00e+00	0	43	0	247463936	17	4141
2026-01-21 08:48:02.39	104.75	13.27	-27.9	-29.0	14.8	0.00e+00	0	43	0	250609664	17	4100
2026-01-21 08:48:03.38	104.63	13.35	-28.0	-29.2	14.7	0.00e+00	0	43	0	253755392	17	4147
2026-01-21 08:48:04.39	104.51	13.44	-28.0	-29.3	14.6	7.00e-07	0	43	0	256901120	17	4170
2026-01-21 08:48:05.39	104.40	13.52	-27.9	-28.9	14.8	0.00e+00	0	43	0	260046848	17	4079
2026-01-21 08:48:06.39	104.28	13.60	-27.9	-29.0	14.8	0.00e+00	0	43	0	263192576	17	4097
2026-01-21 08:48:07.39	104.16	13.68	-27.9	-29.0	14.9	0.00e+00	0	43	0	266338304	17	4079
2026-01-21 08:48:08.40	104.04	13.77	-27.8	-28.8	15.0	0.00e+00	0	43	0	269484032	17	4029
2026-01-21 08:48:09.41	103.92	13.85	-27.8	-28.9	14.9	1.50e-06	0	43	0	272629760	17	4074
2026-01-21 08:48:10.41	103.80	13.93	-28.0	-29.2	14.7	7.00e-07	0	43	0	275775488	17	4138
2026-01-21 08:48:11.41	103.68	14.01	-28.0	-29.3	14.7	0.00e+00	0	43	0	277872640	17	4174
2026-01-21 08:48:12.41	103.55	14.10	-28.0	-29.2	14.7	0.00e+00	0	43	0	281018368	17	4141
2026-01-21 08:48:13.41	103.43	14.18	-27.9	-29.2	14.8	7.00e-07	0	43	0	284164096	17	4137
2026-01-21 08:48:14.41	103.31	14.26	-28.0	-29.3	14.7	0.00e+00	0	43	0	287309824	17	4162
2026-01-21 08:48:15.41	103.18	14.35	-28.0	-29.2	14.7	0.00e+00	0	43	0	290455552	17	4158
2026-01-21 08:48:16.41	103.06	14.43	-28.1	-29.5	14.6	7.00e-07	0	43	0	293601280	17	4234
2026-01-21 08:48:17.41	102.93	14.51	-28.2	-29.8	14.4	2.20e-06	0	43	0	296747008	17	4312
2026-01-21 08:48:18.42	102.81	14.60	-28.1	-29.5	14.6	0.00e+00	0	43	0	299892736	17	4222
2026-01-21 08:48:19.43	102.68	14.68	-28.0	-29.3	14.8	0.00e+00	0	43	0	303038464	17	4160
2026-01-21 08:48:20.43	102.55	14.77	-28.1	-29.4	14.7	7.00e-07	0	43	0	306184192	17	4192
2026-01-21 08:48:21.43	102.42	14.85	-28.1	-29.4	14.7	0.00e+00	0	43	0	309329920	17	4209
2026-01-21 08:48:22.44	102.29	14.94	-28.0	-29.3	14.7	0.00e+00	0	43	0	312475648	17	4169
2026-01-21 08:48:23.44	102.16	15.02	-28.1	-29.4	14.7	0.00e+00	0	43	0	315621376	17	4200
2026-01-21 08:48:24.45	102.03	15.11	-28.0	-29.4	14.7	7.00e-07	0	44	0	318767104	17	4191
2026-01-21 08:48:25.45	101.90	15.19	-28.0	-29.2	14.8	1.50e-06	0	43	0	321912832	17	4153
2026-01-21 08:48:26.45	101.76	15.28	-28.0	-29.3	14.8	1.50e-06	0	44	0	325058560	17	4167
2026-01-21 08:48:27.46	101.63	15.36	-28.1	-29.4	14.7	0.00e+00	0	43	0	328204288	17	4188
2026-01-21 08:48:28.46	101.50	15.45	-28.1	-29.4	14.7	7.00e-07	0	43	0	331350016	17	4198
2026-01-21 08:48:29.46	101.36	15.53	-28.1	-29.4	14.7	0.00e+00	0	44	0	334495744	17	4195
2026-01-21 08:48:30.47	101.22	15.62	-28.1	-29.5	14.7	7.00e-07	0	43	0	337641472	17	4234
2026-01-21 08:48:31.48	101.09	15.70	-28.2	-29.6	14.6	7.00e-07	0	43	0	340787200	17	4254
2026-01-21 08:48:32.49	100.95	15.79	-28.2	-29.7	14.6	1.50e-06	0	43	0	343932928	17	4274
2026-01-21 08:48:33.49	100.81	15.88	-28.3	-29.9	14.5	0.00e+00	0	44	0	347078656	17	4334
2026-01-21 08:48:34.50	100.67	15.96	-28.3	-30.0	14.4	7.00e-07	0	43	0	350224384	17	4350
2026-01-21 08:48:35.49	100.53	16.05	-28.1	-29.6	14.7	0.00e+00	0	43	0	353370112	17	4236
2026-01-21 08:48:36.50	100.39	16.14	-28.0	-29.3	14.8	0.00e+00	0	44	0	356515840	17	4160
2026-01-21 08:48:37.50	100.25	16.22	-28.0	-29.3	14.8	0.00e+00	0	43	0	359661568	17	4171
2026-01-21 08:48:38.51	100.11	16.31	-28.0	-29.3	14.8	2.20e-06	0	43	0	362807296	17	4153
2026-01-21 08:48:39.51	99.96	16.40	-28.0	-29.2	14.9	2.20e-06	0	43	0	365953024	17	4135
2026-01-21 08:48:40.51	99.82	16.48	-28.1	-29.3	14.8	1.50e-06	0	43	0	369098752	17	4174
2026-01-21 08:48:41.51	99.68	16.57	-28.1	-29.5	14.7	1.50e-06	0	43	0	372244480	17	4206
2026-01-21 08:48:42.51	99.53	16.66	-28.2	-29.7	14.6	1.50e-06	0	44	0	375390208	17	4271
2026-01-21 08:48:43.51	99.38	16.74	-28.2	-29.6	14.7	7.00e-07	0	44	0	378535936	17	4251
2026-01-21 08:48:44.51	99.24	16.83	-28.2	-29.6	14.7	1.50e-06	0	43	0	381681664	17	4249
2026-01-21 08:48:45.52	99.09	16.92	-28.3	-29.9	14.5	1.50e-06	0	43	0	384827392	17	4324
2026-01-21 08:48:46.52	98.94	17.01	-28.3	-29.8	14.6	1.50e-06	0	44	0	387973120	17	4310
2026-01-21 08:48:47.53	98.79	17.10	-28.2	-29.7	14.7	0.00e+00	0	44	0	391118848	17	4270
2026-01-21 08:48:48.53	98.64	17.18	-28.2	-29.7	14.7	7.00e-07	0	44	0	394264576	17	4270
2026-01-21 08:48:49.53	98.49	17.27	-28.3	-29.8	14.6	1.50e-06	0	44	0	397410304	17	4303
2026-01-21 08:48:50.53	98.33	17.36	-28.3	-29.8	14.6	3.00e-06	0	44	0	400556032	17	4301
2026-01-21 08:48:51.54	98.18	17.45	-28.2	-29.6	14.7	7.00e-07	0	43	0	403701760	17	4228
2026-01-21 08:48:52.55	98.02	17.54	-28.1	-29.4	14.8	7.00e-07	0	44	0	406847488	17	4192
2026-01-21 08:48:53.55	97.87	17.62	-28.2	-29.6	14.7	0.00e+00	0	43	0	409993216	17	4243
2026-01-21 08:48:54.56	97.71	17.71	-28.1	-29.5	14.8	7.00e-07	0	44	0	413138944	17	4217
2026-01-21 08:48:55.55	97.56	17.80	-28.1	-29.5	14.8	0.00e+00	0	44	0	416284672	17	4212
2026-01-21 08:48:56.56	97.40	17.89	-28.1	-29.4	14.9	0.00e+00	0	44	0	419430400	17	4195
2026-01-21 08:48:57.56	97.24	17.98	-28.1	-29.4	14.9	0.00e+00	0	44	0	422576128	17	4171
2026-01-21 08:48:58.56	97.08	18.07	-28.1	-29.4	14.9	0.00e+00	0	44	0	425721856	17	4195
2026-01-21 08:48:59.56	96.92	18.16	-28.1	-29.5	14.8	0.00e+00	0	44	0	428867584	17	4217
2026-01-21 08:49:00.56	96.76	18.25	-28.1	-29.5	14.8	0.00e+00	0	44	0	432013312	17	4222
2026-01-21 08:49:01.57	96.59	18.34	-28.1	-29.5	14.8	0.00e+00	0	44	0	435159040	17	4215
2026-01-21 08:49:02.58	96.43	18.42	-28.1	-29.4	14.9	7.00e-07	0	44	0	438304768	17	4194
2026-01-21 08:49:03.58	96.26	18.51	-28.0	-29.2	15.0	0.00e+00	0	44	0	441450496	17	4121
2026-01-21 08:49:04.58	96.10	18.60	-27.9	-29.0	15.2	0.00e+00	0	43	0	444596224	17	4061
2026-01-21 08:49:05.58	95.93	18.69	-27.9	-29.0	15.2	0.00e+00	0	44	0	447741952	17	4066
2026-01-21 08:49:06.59	95.76	18.78	-27.9	-29.0	15.1	0.00e+00	0	44	0	450887680	17	4077
2026-01-21 08:49:07.59	95.59	18.87	-28.0	-29.2	15.0	0.00e+00	0	44	0	454033408	17	4122
2026-01-21 08:49:08.59	95.42	18.96	-28.0	-29.3	15.0	0.00e+00	0	44	0	457179136	17	4143
2026-01-21 08:49:09.60	95.25	19.05	-28.0	-29.2	15.0	0.00e+00	0	44	0	460324864	17	4125
2026-01-21 08:49:10.59	95.08	19.14	-28.0	-29.1	15.1	0.00e+00	0	43	0	463470592	17	4109
2026-01-21 08:49:11.60	94.91	19.23	-28.1	-29.4	14.9	7.00e-07	0	44	0	466616320	17	4196
2026-01-21 08:49:12.61	94.73	19.32	-28.0	-29.2	15.0	0.00e+00	0	44	0	469762048	17	4133
2026-01-21 08:49:13.61	94.56	19.41	-27.8	-28.8	15.3	7.00e-07	0	44	0	472907776	17	4020
2026-01-21 08:49:14.61	94.38	19.50	-27.8	-29.1	15.4	0.00e+00	0	44	0	476053504	16	4211
2026-01-21 08:49:15.62	94.20	19.59	-27.8	-29.2	15.4	0.00e+00	0	44	0	479199232	16	4223
2026-01-21 08:49:16.62	94.03	19.68	-27.7	-29.1	15.4	0.00e+00	0	44	0	482344960	16	4198
2026-01-21 08:49:17.62	93.85	19.77	-27.9	-29.3	15.3	0.00e+00	0	44	0	485490688	16	4266
2026-01-21 08:49:18.63	93.67	19.86	-27.8	-29.3	15.3	0.00e+00	0	44	0	488636416	16	4251
2026-01-21 08:49:19.63	93.48	19.95	-27.7	-29.0	15.5	0.00e+00	0	44	0	491782144	16	4176
2026-01-21 08:49:20.64	93.30	20.04	-27.7	-28.9	15.5	0.00e+00	0	44	0	494927872	16	4159
2026-01-21 08:49:21.64	93.12	20.13	-27.7	-29.1	15.4	0.00e+00	0	44	0	498073600	16	4198
2026-01-21 08:49:22.64	92.93	20.22	-27.8	-29.2	15.4	0.00e+00	0	44	0	501219328	16	4221
2026-01-21 08:49:23.64	92.75	20.31	-27.8	-29.2	15.4	0.00e+00	0	43	0	504365056	16	4238
2026-01-21 08:49:24.64	92.56	20.40	-27.8	-29.2	15.4	0.00e+00	0	44	0	507510784	16	4231
2026-01-21 08:49:25.65	92.37	20.49	-27.8	-29.2	15.4	0.00e+00	0	44	0	510656512	16	4230
2026-01-21 08:49:26.66	92.18	20.58	-27.9	-29.4	15.2	0.00e+00	0	44	0	513802240	16	4290
2026-01-21 08:49:27.66	91.99	20.67	-27.8	-29.2	15.4	0.00e+00	0	44	0	516947968	16	4229
2026-01-21 08:49:28.66	91.80	20.76	-27.6	-28.7	15.7	0.00e+00	0	44	0	520093696	16	4085
2026-01-21 08:49:29.66	91.61	20.85	-27.6	-28.7	15.7	0.00e+00	0	44	0	523239424	16	4086
2026-01-21 08:49:30.66	91.42	20.94	-27.6	-28.6	15.7	0.00e+00	0	44	0	526385152	16	4078
2026-01-21 08:49:31.66	91.22	21.03	-27.5	-28.5	15.8	0.00e+00	0	44	0	529530880	16	4051
2026-01-21 08:49:32.67	91.03	21.12	-27.6	-28.7	15.7	0.00e+00	0	43	0	532676608	16	4109
2026-01-21 08:49:33.67	90.83	21.21	-27.5	-28.6	15.7	0.00e+00	0	44	0	535822336	16	4072
2026-01-21 08:49:34.68	90.63	21.30	-27.5	-28.6	15.8	0.00e+00	0	44	0	538968064	16	4057
2026-01-21 08:49:35.68	90.43	21.39	-27.6	-28.7	15.7	0.00e+00	0	44	0	542113792	16	4088
2026-01-21 08:49:36.69	90.23	21.48	-27.5	-28.6	15.8	0.00e+00	0	44	0	545259520	16	4064
2026-01-21 08:49:37.69	90.03	21.57	-27.7	-29.0	15.5	0.00e+00	0	44	0	548405248	16	4182
2026-01-21 08:49:38.69	89.82	21.66	-27.7	-29.0	15.5	7.00e-07	0	44	0	551550976	16	4182
2026-01-21 08:49:39.69	89.62	21.75	-27.7	-28.9	15.6	0.00e+00	0	44	0	554696704	16	4149
2026-01-21 08:49:40.69	89.42	21.84	-27.7	-29.0	15.6	0.00e+00	0	44	0	557842432	16	4170
2026-01-21 08:49:41.70	89.21	21.93	-27.6	-28.8	15.7	0.00e+00	0	44	0	560988160	16	4115
2026-01-21 08:49:42.70	89.00	22.02	-27.6	-28.6	15.8	0.00e+00	0	44	0	564133888	16	4074
2026-01-21 08:49:43.70	88.79	22.11	-27.6	-28.7	15.7	0.00e+00	0	43	0	567279616	16	4093
2026-01-21 08:49:44.71	88.58	22.20	-27.6	-28.7	15.7	0.00e+00	0	44	0	570425344	16	4095
2026-01-21 08:49:45.71	88.37	22.29	-27.6	-28.7	15.7	0.00e+00	0	44	0	573571072	16	4105
2026-01-21 08:49:46.71	88.16	22.38	-27.7	-29.0	15.5	0.00e+00	0	44	0	576716800	16	4179
2026-01-21 08:49:47.71	87.95	22.47	-27.7	-28.9	15.6	0.00e+00	0	44	0	578813952	16	4145
2026-01-21 08:49:48.72	87.73	22.55	-27.5	-28.6	15.8	0.00e+00	0	44	0	581959680	16	4061
2026-01-21 08:49:49.71	87.52	22.64	-27.5	-28.5	15.9	0.00e+00	0	44	0	585105408	16	4042
2026-01-21 08:49:50.72	87.30	22.73	-27.5	-28.4	15.9	0.00e+00	0	44	0	588251136	16	4026
2026-01-21 08:49:51.72	87.08	22.82	-27.5	-28.6	15.8	0.00e+00	0	44	0	591396864	16	4068
2026-01-21 08:49:52.73	86.86	22.91	-27.4	-28.3	16.0	0.00e+00	0	44	0	595591168	16	3976
2026-01-21 08:49:53.74	86.63	23.00	-27.0	-28.0	16.3	0.00e+00	0	44	0	598736896	15	4011
2026-01-21 08:49:54.75	86.41	23.09	-27.0	-27.9	16.3	0.00e+00	0	44	0	601882624	15	3983
2026-01-21 08:49:55.76	86.18	23.17	-27.1	-28.1	16.2	0.00e+00	0	44	0	603979776	15	4042
2026-01-21 08:49:56.76	85.96	23.26	-27.1	-28.2	16.2	0.00e+00	0	44	0	607125504	15	4066
2026-01-21 08:49:57.76	85.73	23.35	-27.1	-28.2	16.2	0.00e+00	0	44	0	610271232	15	4073
2026-01-21 08:49:58.76	85.51	23.44	-27.2	-28.3	16.1	0.00e+00	0	44	0	613416960	15	4107
2026-01-21 08:49:59.77	85.28	23.52	-27.4	-28.7	15.9	0.00e+00	0	44	0	616562688	15	4209
2026-01-21 08:50:00.78	85.04	23.61	-27.3	-28.6	16.0	0.00e+00	0	44	0	620756992	15	4178
2026-01-21 08:50:01.78	84.81	23.70	-27.2	-28.4	16.1	0.00e+00	0	44	0	623902720	15	4124
2026-01-21 08:50:02.78	84.58	23.78	-27.3	-28.5	16.0	0.00e+00	0	44	0	625999872	15	4148
2026-01-21 08:50:03.78	84.35	23.87	-27.2	-28.4	16.1	0.00e+00	0	44	0	629145600	15	4122
2026-01-21 08:50:04.78	84.11	23.95	-27.4	-28.7	15.9	0.00e+00	0	44	0	632291328	15	4204
2026-01-21 08:50:05.78	83.88	24.04	-27.4	-28.8	15.9	0.00e+00	0	44	0	635437056	15	4228
2026-01-21 08:50:06.79	83.64	24.13	-27.4	-28.9	15.8	0.00e+00	0	44	0	638582784	15	4245
2026-01-21 08:50:07.80	83.40	24.21	-27.5	-28.9	15.8	0.00e+00	0	44	0	641728512	15	4268
2026-01-21 08:50:08.80	83.16	24.30	-27.5	-29.1	15.7	0.00e+00	0	44	0	644874240	15	4299
2026-01-21 08:50:09.81	82.91	24.38	-27.6	-29.2	15.7	0.00e+00	0	44	0	648019968	15	4339
2026-01-21 08:50:10.81	82.67	24.46	-27.5	-29.1	15.7	0.00e+00	0	44	0	651165696	15	4313
2026-01-21 08:50:11.82	82.43	24.55	-27.6	-29.2	15.7	0.00e+00	0	44	0	654311424	15	4335
2026-01-21 08:50:12.82	82.18	24.63	-27.5	-29.0	15.7	0.00e+00	0	44	0	657457152	15	4297
2026-01-21 08:50:13.82	81.93	24.72	-27.5	-29.1	15.7	0.00e+00	0	44	0	660602880	15	4296
2026-01-21 08:50:14.83	81.68	24.80	-27.6	-29.1	15.7	0.00e+00	0	44	0	663748608	15	4322
2026-01-21 08:50:15.83	81.43	24.88	-27.6	-29.3	15.6	0.00e+00	0	43	0	666894336	15	4367
2026-01-21 08:50:16.83	81.18	24.96	-27.6	-29.3	15.6	0.00e+00	0	44	0	670040064	15	4356
2026-01-21 08:50:17.83	80.93	25.05	-27.6	-29.3	15.6	0.00e+00	0	44	0	673185792	15	4375
2026-01-21 08:50:18.83	80.68	25.13	-27.7	-29.5	15.5	0.00e+00	0	44	0	676331520	15	4409
2026-01-21 08:50:19.84	80.42	25.21	-27.6	-29.2	15.7	0.00e+00	0	44	0	679477248	15	4319
2026-01-21 08:50:20.84	80.17	25.29	-27.4	-28.9	15.8	0.00e+00	0	44	0	682622976	15	4247
2026-01-21 08:50:21.84	79.91	25.37	-27.5	-29.0	15.8	0.00e+00	0	44	0	685768704	15	4269
2026-01-21 08:50:22.85	79.65	25.45	-27.5	-29.1	15.7	0.00e+00	0	44	0	688914432	15	4299
2026-01-21 08:50:23.85	79.39	25.53	-27.6	-29.2	15.7	0.00e+00	0	44	0	692060160	15	4343
2026-01-21 08:50:24.85	79.13	25.61	-27.4	-28.9	15.9	0.00e+00	0	44	0	695205888	15	4242
2026-01-21 08:50:25.86	78.86	25.69	-27.4	-28.8	15.9	0.00e+00	0	44	0	698351616	15	4219
2026-01-21 08:50:26.86	78.60	25.77	-27.6	-29.2	15.7	0.00e+00	0	44	0	701497344	15	4324
2026-01-21 08:50:27.87	78.33	25.84	-27.5	-29.0	15.8	0.00e+00	0	44	0	704643072	15	4278
2026-01-21 08:50:28.87	78.07	25.92	-27.6	-29.2	15.7	0.00e+00	0	44	0	707788800	15	4331
2026-01-21 08:50:29.87	77.80	26.00	-27.7	-29.4	15.6	0.00e+00	0	44	0	710934528	15	4391
2026-01-21 08:50:30.88	77.53	26.08	-27.8	-29.6	15.5	0.00e+00	0	44	0	714080256	15	4451
2026-01-21 08:50:31.88	77.26	26.15	-27.8	-29.6	15.4	0.00e+00	0	44	0	717225984	15	4447
2026-01-21 08:50:32.88	76.99	26.23	-27.8	-29.8	15.4	0.00e+00	0	44	0	720371712	15	4500
2026-01-21 08:50:33.88	76.72	26.30	-27.8	-29.6	15.5	0.00e+00	0	44	0	723517440	15	4441
2026-01-21 08:50:34.89	76.44	26.38	-27.8	-29.7	15.4	0.00e+00	0	44	0	726663168	15	4480
2026-01-21 08:50:35.89	76.16	26.45	-27.8	-29.7	15.4	0.00e+00	0	44	0	729808896	15	4467
2026-01-21 08:50:36.90	75.88	26.52	-27.9	-29.8	15.4	0.00e+00	0	44	0	732954624	15	4507
2026-01-21 08:50:37.90	75.61	26.60	-28.0	-30.1	15.2	0.00e+00	0	44	0	736100352	15	4586
2026-01-21 08:50:38.90	75.33	26.67	-27.8	-29.8	15.4	0.00e+00	0	44	0	739246080	15	4503
2026-01-21 08:50:39.91	75.04	26.74	-27.7	-29.5	15.6	0.00e+00	0	44	0	742391808	15	4408
2026-01-21 08:50:40.91	74.76	26.81	-27.7	-29.5	15.5	0.00e+00	0	44	0	745537536	15	4416
2026-01-21 08:50:41.92	74.48	26.88	-27.8	-29.7	15.4	0.00e+00	0	44	0	748683264	15	4486
2026-01-21 08:50:42.92	74.19	26.95	-27.5	-29.0	15.8	0.00e+00	0	44	0	751828992	15	4270
2026-01-21 08:50:43.93	73.91	27.02	-27.7	-29.4	15.6	0.00e+00	0	44	0	754974720	15	4393
2026-01-21 08:50:44.94	73.62	27.09	-27.5	-29.1	15.7	0.00e+00	0	44	0	758120448	15	4297
2026-01-21 08:50:45.94	73.33	27.16	-27.5	-29.1	15.8	0.00e+00	0	44	0	761266176	15	4307
2026-01-21 08:50:46.94	73.04	27.23	-27.7	-29.4	15.6	0.00e+00	0	44	0	764411904	15	4381
2026-01-21 08:50:47.94	72.75	27.29	-27.5	-29.1	15.7	0.00e+00	0	44	0	767557632	15	4308
2026-01-21 08:50:48.94	72.46	27.36	-27.5	-29.0	15.8	0.00e+00	0	44	0	770703360	15	4291
2026-01-21 08:50:49.94	72.17	27.43	-27.4	-28.9	15.9	0.00e+00	0	44	0	773849088	15	4242
2026-01-21 08:50:50.95	71.87	27.49	-27.4	-28.8	15.9	0.00e+00	0	44	0	776994816	15	4227
2026-01-21 08:50:51.95	71.57	27.56	-27.4	-28.8	15.9	2.20e-06	0	44	0	780140544	15	4227
2026-01-21 08:50:52.96	71.27	27.62	-27.4	-28.8	15.9	0.00e+00	0	44	0	783286272	15	4218
2026-01-21 08:50:53.96	70.98	27.68	-27.5	-29.0	15.8	0.00e+00	0	44	0	786432000	15	4288
2026-01-21 08:50:54.96	70.68	27.74	-27.6	-29.2	15.7	0.00e+00	0	44	0	789577728	15	4350
2026-01-21 08:50:55.97	70.38	27.81	-27.5	-28.9	15.8	0.00e+00	0	44	0	792723456	15	4262
2026-01-21 08:50:56.97	70.07	27.87	-27.4	-28.8	15.9	0.00e+00	0	44	0	795869184	15	4230
2026-01-21 08:50:57.98	69.77	27.93	-27.6	-29.1	15.7	1.50e-06	0	44	0	799014912	15	4311
2026-01-21 08:50:58.98	69.47	27.99	-27.5	-29.0	15.8	0.00e+00	0	44	0	802160640	15	4269
2026-01-21 08:50:59.99	69.16	28.04	-27.4	-28.9	15.9	0.00e+00	0	44	0	805306368	15	4239
2026-01-21 08:51:00.99	68.85	28.10	-27.5	-29.0	15.8	3.00e-06	0	44	0	808452096	15	4269
2026-01-21 08:51:02.00	68.54	28.16	-27.6	-29.3	15.6	0.00e+00	0	44	0	811597824	15	4371
2026-01-21 08:51:03.00	68.24	28.21	-27.6	-29.3	15.6	0.00e+00	0	44	0	814743552	15	4368
2026-01-21 08:51:04.01	67.93	28.27	-27.7	-29.4	15.6	2.20e-06	0	44	0	817889280	15	4392
2026-01-21 08:51:05.02	67.61	28.32	-27.6	-29.3	15.7	0.00e+00	0	44	0	821035008	15	4359
2026-01-21 08:51:06.01	67.31	28.38	-27.6	-29.3	15.6	0.00e+00	0	44	0	824180736	15	4365
2026-01-21 08:51:07.01	66.99	28.43	-27.7	-29.6	15.5	0.00e+00	0	44	0	827326464	15	4438
2026-01-21 08:51:08.02	66.68	28.48	-27.9	-29.9	15.3	0.00e+00	0	44	0	830472192	15	4542
2026-01-21 08:51:09.03	66.36	28.53	-27.8	-29.6	15.4	0.00e+00	0	44	0	833617920	15	4458
2026-01-21 08:51:10.03	66.05	28.58	-28.2	-30.0	15.1	0.00e+00	0	44	0	836763648	16	4452
2026-01-21 08:51:11.03	65.73	28.63	-28.0	-29.6	15.4	0.00e+00	0	44	0	839909376	16	4338
2026-01-21 08:51:12.04	65.41	28.68	-27.9	-29.5	15.4	0.00e+00	0	44	0	843055104	16	4296
2026-01-21 08:51:13.03	65.10	28.73	-27.9	-29.4	15.5	0.00e+00	0	44	0	846200832	16	4277
2026-01-21 08:51:14.04	64.77	28.77	-28.1	-29.8	15.3	0.00e+00	0	44	0	849346560	16	4388
2026-01-21 08:51:15.05	64.45	28.82	-28.0	-29.5	15.4	0.00e+00	0	44	0	852492288	16	4305
2026-01-21 08:51:16.05	64.13	28.86	-27.9	-29.3	15.5	0.00e+00	0	44	0	855638016	16	4255
2026-01-21 08:51:17.06	63.81	28.91	-28.0	-29.5	15.4	0.00e+00	0	44	0	858783744	16	4315
2026-01-21 08:51:18.05	63.49	28.95	-27.8	-29.1	15.6	0.00e+00	0	44	0	861929472	16	4188
2026-01-21 08:51:19.06	63.16	28.99	-27.7	-29.0	15.7	0.00e+00	0	44	0	865075200	16	4164
2026-01-21 08:51:20.06	62.84	29.03	-27.7	-29.0	15.7	0.00e+00	0	44	0	868220928	16	4164
2026-01-21 08:51:21.06	62.51	29.07	-27.8	-29.2	15.6	0.00e+00	0	44	0	871366656	16	4226
2026-01-21 08:51:22.06	62.19	29.11	-27.8	-29.2	15.6	0.00e+00	0	44	0	874512384	16	4221
2026-01-21 08:51:23.06	61.86	29.15	-28.0	-29.6	15.4	0.00e+00	0	44	0	877658112	16	4332
2026-01-21 08:51:24.06	61.54	29.18	-27.9	-29.4	15.4	0.00e+00	0	44	0	880803840	16	4284
2026-01-21 08:51:25.07	61.20	29.22	-28.0	-29.7	15.3	0.00e+00	0	44	0	883949568	16	4346
2026-01-21 08:51:26.07	60.88	29.25	-28.1	-29.8	15.2	7.00e-07	0	44	0	887095296	16	4389
2026-01-21 08:51:27.06	60.55	29.29	-28.3	-30.3	14.9	7.00e-07	0	44	0	890241024	16	4542
2026-01-21 08:51:28.06	60.22	29.32	-28.3	-30.3	15.0	0.00e+00	0	44	0	893386752	16	4517
2026-01-21 08:51:29.06	59.89	29.35	-28.5	-30.7	14.8	7.00e-07	0	44	0	896532480	16	4662
2026-01-21 08:51:30.07	59.56	29.38	-28.3	-30.2	15.0	0.00e+00	0	44	0	899678208	16	4502
2026-01-21 08:51:31.08	59.22	29.41	-28.1	-29.8	15.2	0.00e+00	0	44	0	901775360	16	4402
2026-01-21 08:51:32.08	58.89	29.44	-27.9	-29.4	15.5	0.00e+00	0	44	0	905969664	16	4274
2026-01-21 08:51:33.08	58.56	29.47	-27.9	-29.3	15.5	0.00e+00	0	44	0	909115392	16	4246
2026-01-21 08:51:34.08	58.22	29.49	-28.0	-29.6	15.4	0.00e+00	0	44	0	912261120	16	4319
2026-01-21 08:51:35.09	57.89	29.52	-27.9	-29.5	15.4	0.00e+00	0	44	0	915406848	16	4301
2026-01-21 08:51:36.09	57.55	29.54	-28.0	-29.6	15.3	0.00e+00	0	44	0	918552576	16	4341
2026-01-21 08:51:37.10	57.21	29.57	-28.0	-29.5	15.4	0.00e+00	0	44	0	921698304	16	4313
2026-01-21 08:51:38.10	56.88	29.59	-28.0	-29.7	15.3	0.00e+00	0	44	0	924844032	16	4348
2026-01-21 08:51:39.10	56.54	29.61	-28.1	-29.9	15.2	0.00e+00	0	44	0	926941184	16	4424
2026-01-21 08:51:40.10	56.21	29.63	-27.9	-29.4	15.5	0.00e+00	0	44	0	930086912	16	4267
2026-01-21 08:51:41.10	55.87	29.65	-27.7	-28.9	15.8	0.00e+00	0	44	0	933232640	16	4132
2026-01-21 08:51:42.10	55.53	29.67	-27.7	-28.8	15.8	0.00e+00	0	44	0	936378368	16	4123
2026-01-21 08:51:43.11	55.19	29.68	-27.5	-28.6	15.9	0.00e+00	0	44	0	939524096	16	4040
2026-01-21 08:51:44.11	54.86	29.70	-27.5	-28.4	16.0	0.00e+00	0	44	0	942669824	16	4003
2026-01-21 08:51:45.11	54.52	29.71	-27.6	-28.6	16.0	0.00e+00	0	44	0	945815552	16	4047
2026-01-21 08:51:46.12	54.18	29.73	-27.7	-29.0	15.7	0.00e+00	0	44	0	948961280	16	4150
2026-01-21 08:51:47.12	53.84	29.74	-27.7	-28.8	15.8	0.00e+00	0	44	0	952107008	16	4115
2026-01-21 08:51:48.12	53.50	29.75	-27.6	-28.7	15.9	0.00e+00	0	44	0	955252736	16	4071
2026-01-21 08:51:49.12	53.16	29.76	-27.7	-29.0	15.7	0.00e+00	0	44	0	958398464	16	4161
2026-01-21 08:51:50.12	52.82	29.77	-27.9	-29.3	15.5	0.00e+00	0	44	0	961544192	16	4256
2026-01-21 08:51:51.13	52.48	29.78	-27.8	-29.2	15.6	0.00e+00	0	44	0	964689920	16	4209
2026-01-21 08:51:52.14	52.14	29.78	-27.9	-29.3	15.5	0.00e+00	0	44	0	967835648	16	4249
2026-01-21 08:51:53.14	51.80	29.79	-27.9	-29.5	15.5	0.00e+00	0	44	0	970981376	16	4291
2026-01-21 08:51:54.14	51.46	29.79	-27.8	-29.1	15.7	0.00e+00	0	44	0	974127104	16	4174
2026-01-21 08:51:55.14	51.12	29.79	-27.6	-28.7	15.9	0.00e+00	0	44	0	977272832	16	4086
2026-01-21 08:51:56.14	50.78	29.80	-27.7	-28.9	15.8	0.00e+00	0	44	0	980418560	16	4124
2026-01-21 08:51:57.14	50.44	29.80	-27.7	-28.9	15.8	0.00e+00	0	44	0	983564288	16	4134
2026-01-21 08:51:58.14	50.10	29.80	-27.7	-28.9	15.8	0.00e+00	0	44	0	986710016	16	4142
2026-01-21 08:51:59.14	49.76	29.80	-27.8	-29.1	15.7	0.00e+00	0	44	0	989855744	16	4186
2026-01-21 08:52:00.14	49.42	29.79	-27.8	-29.0	15.7	0.00e+00	0	44	0	993001472	16	4165
2026-01-21 08:52:01.15	49.07	29.79	-27.8	-29.1	15.6	0.00e+00	0	44	0	996147200	16	4198
2026-01-21 08:52:02.14	48.74	29.78	-27.8	-29.0	15.7	0.00e+00	0	44	0	999292928	16	4173
2026-01-21 08:52:03.14	48.40	29.78	-28.0	-29.5	15.5	0.00e+00	0	44	0	1002438656	16	4304
2026-01-21 08:52:04.15	48.06	29.77	-28.2	-30.0	15.2	0.00e+00	0	44	0	1005584384	16	4430
2026-01-21 08:52:05.15	47.72	29.76	-28.3	-30.4	14.9	0.00e+00	0	44	0	1008730112	16	4548
2026-01-21 08:52:06.16	47.38	29.75	-28.3	-30.4	14.9	0.00e+00	0	44	0	1011875840	16	4556
2026-01-21 08:52:07.16	47.04	29.74	-28.3	-30.3	15.0	0.00e+00	0	44	0	1015021568	16	4540
2026-01-21 08:52:08.17	46.69	29.73	-28.3	-30.4	14.9	0.00e+00	0	44	0	1018167296	16	4555
2026-01-21 08:52:09.17	46.36	29.72	-28.0	-29.7	15.3	0.00e+00	0	44	0	1021313024	16	4354
2026-01-21 08:52:10.18	46.02	29.71	-27.9	-29.4	15.5	0.00e+00	0	44	0	1024458752	16	4265
2026-01-21 08:52:11.17	45.68	29.69	-28.0	-29.6	15.4	0.00e+00	0	44	0	1027604480	16	4328
2026-01-21 08:52:12.16	45.35	29.67	-27.9	-29.5	15.5	0.00e+00	0	44	0	1030750208	16	4288
2026-01-21 08:52:13.17	45.01	29.66	-28.0	-29.5	15.4	0.00e+00	0	44	0	1033895936	16	4293
2026-01-21 08:52:14.16	44.67	29.64	-28.0	-29.6	15.4	0.00e+00	0	44	0	1037041664	16	4334
2026-01-21 08:52:15.16	44.34	29.62	-27.9	-29.3	15.5	0.00e+00	0	44	0	1040187392	16	4256
2026-01-21 08:52:16.16	44.00	29.60	-27.8	-29.0	15.7	0.00e+00	0	44	0	1043333120	16	4172
2026-01-21 08:52:17.17	43.66	29.58	-27.7	-28.9	15.7	0.00e+00	0	44	0	1046478848	16	4141
2026-01-21 08:52:18.16	43.33	29.56	-27.8	-29.2	15.6	0.00e+00	0	44	0	1049624576	16	4203
2026-01-21 08:52:19.17	43.00	29.53	-27.8	-29.2	15.6	0.00e+00	0	44	0	1052770304	16	4225
2026-01-21 08:52:20.17	42.66	29.51	-27.9	-29.3	15.6	0.00e+00	0	44	0	1055916032	16	4254
2026-01-21 08:52:21.18	42.32	29.48	-27.8	-29.2	15.6	0.00e+00	0	44	0	1059061760	16	4226
2026-01-21 08:52:22.19	41.99	29.45	-28.0	-29.6	15.4	0.00e+00	0	44	0	1062207488	16	4315
2026-01-21 08:52:23.19	41.66	29.43	-28.0	-29.5	15.4	0.00e+00	0	44	0	1065353216	16	4303
2026-01-21 08:52:24.19	41.33	29.40	-27.9	-29.5	15.4	0.00e+00	0	44	0	1068498944	16	4291
2026-01-21 08:52:25.19	40.99	29.37	-28.0	-29.5	15.4	0.00e+00	0	44	0	1071644672	16	4304
2026-01-21 08:52:26.19	40.66	29.34	-27.9	-29.3	15.5	0.00e+00	0	44	0	1074790400	16	4241
2026-01-21 08:52:27.19	40.33	29.30	-27.9	-29.3	15.6	0.00e+00	0	44	0	1077936128	16	4245
2026-01-21 08:52:28.19	40.01	29.27	-27.8	-29.2	15.5	0.00e+00	0	44	0	1081081856	16	4220
2026-01-21 08:52:29.20	39.67	29.24	-27.9	-29.4	15.4	0.00e+00	0	44	0	1084227584	16	4280
2026-01-21 08:52:30.20	39.35	29.20	-27.8	-29.2	15.5	7.00e-07	0	44	0	1087373312	16	4213
2026-01-21 08:52:31.20	39.02	29.16	-27.8	-29.2	15.5	0.00e+00	0	44	0	1090519040	16	4213
2026-01-21 08:52:32.20	38.69	29.13	-27.8	-29.2	15.6	0.00e+00	0	44	0	1093664768	16	4205
2026-01-21 08:52:33.19	38.37	29.09	-27.8	-29.1	15.6	0.00e+00	0	44	0	1096810496	16	4180
2026-01-21 08:52:34.19	38.05	29.05	-27.8	-29.3	15.6	0.00e+00	0	44	0	1099956224	16	4235
2026-01-21 08:52:35.20	37.72	29.01	-28.0	-29.7	15.3	0.00e+00	0	44	0	1103101952	16	4353
2026-01-21 08:52:36.21	37.40	28.97	-28.1	-29.7	15.3	0.00e+00	0	44	0	1106247680	16	4370
2026-01-21 08:52:37.21	37.07	28.93	-28.2	-30.1	15.1	0.00e+00	0	44	0	1109393408	16	4464
2026-01-21 08:52:38.21	36.75	28.88	-28.3	-30.4	14.9	0.00e+00	0	44	0	1112539136	16	4552
2026-01-21 08:52:39.21	36.43	28.84	-28.2	-30.0	15.1	0.00e+00	0	44	0	1115684864	16	4444
2026-01-21 08:52:40.22	36.11	28.79	-28.1	-29.8	15.2	0.00e+00	0	44	0	1118830592	16	4393
2026-01-21 08:52:41.22	35.79	28.75	-28.1	-29.8	15.3	0.00e+00	0	44	0	1121976320	16	4373
2026-01-21 08:52:42.22	35.47	28.70	-28.0	-29.6	15.3	7.00e-07	0	44	0	1125122048	16	4343
2026-01-21 08:52:43.23	35.15	28.65	-28.1	-29.7	15.3	0.00e+00	0	44	0	1128267776	16	4360
2026-01-21 08:52:44.23	34.84	28.61	-28.1	-29.8	15.2	0.00e+00	0	44	0	1131413504	16	4382
2026-01-21 08:52:45.23	34.52	28.56	-28.0	-29.5	15.4	0.00e+00	0	44	0	1134559232	16	4312
2026-01-21 08:52:46.23	34.21	28.51	-27.9	-29.4	15.4	0.00e+00	0	44	0	1137704960	16	4272
2026-01-21 08:52:47.24	33.90	28.45	-28.0	-29.6	15.3	0.00e+00	0	44	0	1140850688	16	4326
2026-01-21 08:52:48.24	33.58	28.40	-27.9	-29.4	15.4	0.00e+00	0	44	0	1143996416	16	4277
2026-01-21 08:52:49.24	33.27	28.35	-28.0	-29.6	15.3	0.00e+00	0	44	0	1147142144	16	4329
2026-01-21 08:52:50.25	32.96	28.30	-28.0	-29.6	15.3	0.00e+00	0	44	0	1150287872	16	4344
2026-01-21 08:52:51.25	32.65	28.24	-27.8	-29.2	15.6	0.00e+00	0	44	0	1153433600	16	4212
2026-01-21 08:52:52.25	32.34	28.19	-27.8	-29.1	15.6	0.00e+00	0	44	0	1155530752	16	4193
2026-01-21 08:52:53.26	32.04	28.13	-27.8	-29.1	15.6	0.00e+00	0	44	0	1158676480	16	4178
2026-01-21 08:52:54.26	31.73	28.07	-27.7	-29.0	15.6	0.00e+00	0	44	0	1161822208	16	4163
2026-01-21 08:52:55.27	31.42	28.02	-27.8	-29.1	15.6	0.00e+00	0	44	0	1164967936	16	4187
2026-01-21 08:52:56.27	31.12	27.96	-27.8	-29.2	15.5	0.00e+00	0	44	0	1168113664	16	4212
2026-01-21 08:52:57.28	30.82	27.90	-27.7	-29.0	15.6	0.00e+00	0	44	0	1172307968	16	4172
2026-01-21 08:52:58.28	30.51	27.84	-27.7	-29.0	15.6	0.00e+00	0	44	0	1174405120	16	4157
2026-01-21 08:52:59.28	30.22	27.78	-27.8	-29.1	15.6	0.00e+00	0	44	0	1178599424	16	4203
2026-01-21 08:53:00.28	29.92	27.72	-27.5	-28.5	15.9	0.00e+00	0	44	0	1180696576	16	4036
2026-01-21 08:53:01.29	29.62	27.65	-27.4	-28.3	16.0	0.00e+00	0	44	0	1183842304	16	3970
2026-01-21 08:53:02.30	29.32	27.59	-27.5	-28.4	16.0	0.00e+00	0	44	0	1186988032	16	4012
2026-01-21 08:53:03.30	29.02	27.53	-27.7	-28.8	15.7	0.00e+00	0	44	0	1190133760	16	4122
2026-01-21 08:53:04.30	28.73	27.46	-27.8	-29.1	15.6	0.00e+00	0	44	0	1193279488	16	4190
2026-01-21 08:53:05.30	28.44	27.40	-28.1	-29.9	15.1	7.00e-07	0	44	0	1196425216	16	4427
2026-01-21 08:53:06.31	28.14	27.33	-28.3	-30.2	14.9	0.00e+00	0	44	0	1199570944	16	4517
2026-01-21 08:53:07.31	27.85	27.26	-28.4	-30.6	14.7	1.50e-06	0	44	0	1202716672	16	4635
2026-01-21 08:53:08.31	27.56	27.20	-28.4	-30.5	14.7	7.00e-07	0	44	0	1205862400	16	4606
2026-01-21 08:53:09.31	27.28	27.13	-28.3	-30.2	14.9	7.00e-07	0	44	0	1209008128	16	4519
2026-01-21 08:53:10.32	26.99	27.06	-28.2	-30.1	15.0	0.00e+00	0	44	0	1212153856	16	4481
2026-01-21 08:53:11.33	26.70	26.99	-28.3	-30.3	14.9	0.00e+00	0	44	0	1215299584	16	4550
2026-01-21 08:53:12.34	26.41	26.92	-28.3	-30.3	14.9	7.00e-07	0	44	0	1218445312	16	4551
2026-01-21 08:53:13.34	26.13	26.85	-28.1	-29.8	15.2	0.00e+00	0	44	0	1221591040	16	4380
2026-01-21 08:53:14.34	25.85	26.78	-27.9	-29.3	15.4	0.00e+00	0	44	0	1224736768	16	4256
2026-01-21 08:53:15.35	25.57	26.71	-27.8	-29.2	15.5	7.00e-07	0	44	0	1227882496	16	4237
2026-01-21 08:53:16.35	25.29	26.64	-27.8	-29.1	15.5	0.00e+00	0	44	0	1231028224	16	4205
2026-01-21 08:53:17.35	25.01	26.56	-27.6	-28.7	15.7	0.00e+00	0	44	0	1234173952	16	4101
2026-01-21 08:53:18.35	24.73	26.49	-27.5	-28.5	15.8	0.00e+00	0	44	0	1237319680	16	4049
2026-01-21 08:53:19.36	24.46	26.42	-27.6	-28.6	15.8	0.00e+00	0	44	0	1240465408	16	4070
2026-01-21 08:53:20.36	24.18	26.34	-27.6	-28.7	15.7	0.00e+00	0	44	0	1243611136	16	4101
2026-01-21 08:53:21.35	23.91	26.27	-27.7	-28.8	15.7	0.00e+00	0	44	0	1246756864	16	4119
2026-01-21 08:53:22.36	23.64	26.19	-28.1	-29.8	15.2	0.00e+00	0	44	0	1249902592	16	4385
2026-01-21 08:53:23.36	23.37	26.12	-28.2	-30.0	15.0	0.00e+00	0	44	0	1253048320	16	4458
2026-01-21 08:53:24.36	23.10	26.04	-28.5	-30.3	14.6	3.00e-06	0	44	0	1256194048	17	4433
2026-01-21 08:53:25.36	22.83	25.97	-28.3	-29.9	14.7	0.00e+00	0	44	0	1259339776	17	4320
2026-01-21 08:53:26.37	22.57	25.89	-28.1	-29.3	15.1	7.00e-07	0	44	0	1262485504	17	4140
2026-01-21 08:53:27.37	22.30	25.81	-27.7	-28.9	15.6	0.00e+00	0	44	0	1265631232	16	4144
2026-01-21 08:53:28.36	22.04	25.74	-27.4	-28.3	15.9	0.00e+00	0	44	0	1268776960	16	3986
2026-01-21 08:53:29.36	21.78	25.66	-27.3	-28.0	16.1	0.00e+00	0	44	0	1271922688	16	3907
2026-01-21 08:53:30.37	21.52	25.58	-27.1	-28.2	16.1	0.00e+00	0	44	0	1275068416	15	4067
2026-01-21 08:53:31.38	21.25	25.50	-27.0	-28.0	16.2	0.00e+00	0	44	0	1278214144	15	4023
2026-01-21 08:53:32.38	21.00	25.42	-27.2	-28.5	16.0	0.00e+00	0	44	0	1281359872	15	4139
2026-01-21 08:53:33.37	20.74	25.34	-27.5	-29.0	15.7	0.00e+00	0	44	0	1284505600	15	4279
2026-01-21 08:53:34.38	20.48	25.26	-27.5	-29.1	15.6	0.00e+00	0	44	0	1287651328	15	4318
2026-01-21 08:53:35.38	20.23	25.18	-27.7	-29.4	15.4	0.00e+00	0	44	0	1290797056	15	4402
2026-01-21 08:53:36.38	19.98	25.10	-27.6	-29.3	15.5	0.00e+00	0	44	0	1293942784	15	4367
2026-01-21 08:53:37.38	19.73	25.02	-27.6	-29.3	15.5	0.00e+00	0	44	0	1297088512	15	4374
2026-01-21 08:53:38.38	19.48	24.94	-27.4	-28.9	15.7	0.00e+00	0	44	0	1300234240	15	4267
2026-01-21 08:53:39.38	19.23	24.85	-27.5	-29.0	15.7	0.00e+00	0	44	0	1303379968	15	4278
2026-01-21 08:53:40.38	18.98	24.77	-27.6	-29.2	15.5	0.00e+00	0	44	0	1306525696	15	4336
2026-01-21 08:53:41.39	18.73	24.69	-27.7	-29.4	15.4	0.00e+00	0	44	0	1309671424	15	4394
2026-01-21 08:53:42.39	18.49	24.60	-27.9	-29.9	15.1	0.00e+00	0	44	0	1312817152	15	4538
2026-01-21 08:53:43.38	18.25	24.52	-27.9	-29.9	15.2	0.00e+00	0	44	0	1315962880	15	4539
2026-01-21 08:53:44.39	18.00	24.44	-27.8	-29.8	15.2	0.00e+00	0	44	0	1319108608	15	4515
2026-01-21 08:53:45.39	17.76	24.35	-27.8	-29.6	15.3	0.00e+00	0	44	0	1322254336	15	4465
2026-01-21 08:53:46.39	17.52	24.27	-27.7	-29.4	15.4	0.00e+00	0	44	0	1325400064	15	4408
2026-01-21 08:53:47.39	17.28	24.19	-27.6	-29.3	15.5	0.00e+00	0	44	0	1328545792	15	4365
2026-01-21 08:53:48.40	17.04	24.10	-27.6	-29.3	15.4	0.00e+00	0	44	0	1331691520	15	4382
2026-01-21 08:53:49.40	16.81	24.02	-27.7	-29.4	15.4	0.00e+00	0	44	0	1334837248	15	4409
2026-01-21 08:53:50.40	16.57	23.93	-27.5	-29.0	15.6	0.00e+00	0	44	0	1337982976	15	4283
2026-01-21 08:53:51.41	16.34	23.84	-27.6	-29.3	15.4	0.00e+00	0	44	0	1341128704	15	4376
2026-01-21 08:53:52.40	16.11	23.76	-27.8	-29.7	15.2	0.00e+00	0	44	0	1344274432	15	4499
2026-01-21 08:53:53.41	15.87	23.67	-27.9	-29.9	15.1	0.00e+00	0	44	0	1347420160	15	4542
2026-01-21 08:53:54.41	15.65	23.59	-27.9	-30.0	15.0	0.00e+00	0	44	0	1350565888	15	4585
2026-01-21 08:53:55.41	15.42	23.50	-27.9	-30.0	15.0	0.00e+00	0	44	0	1353711616	15	4576
2026-01-21 08:53:56.42	15.19	23.41	-28.2	-30.1	14.9	7.00e-07	0	44	0	1356857344	16	4473
2026-01-21 08:53:57.43	14.96	23.33	-28.2	-30.1	14.8	0.00e+00	0	44	0	1360003072	16	4496
2026-01-21 08:53:58.43	14.74	23.24	-27.8	-29.1	15.4	0.00e+00	0	44	0	1363148800	16	4211
2026-01-21 08:53:59.43	14.51	23.15	-27.5	-28.6	15.7	0.00e+00	0	44	0	1366294528	16	4057
2026-01-21 08:54:00.43	14.29	23.06	-27.5	-28.4	15.8	0.00e+00	0	44	0	1369440256	16	4011
2026-01-21 08:54:01.43	14.07	22.98	-27.5	-28.6	15.7	0.00e+00	0	44	0	1372585984	16	4053
2026-01-21 08:54:02.43	13.85	22.89	-27.6	-28.7	15.6	0.00e+00	0	44	0	1375731712	16	4079
2026-01-21 08:54:03.43	13.63	22.80	-27.5	-28.6	15.7	0.00e+00	0	44	0	1378877440	16	4061
2026-01-21 08:54:04.43	13.42	22.71	-27.6	-28.6	15.7	0.00e+00	0	44	0	1382023168	16	4077
2026-01-21 08:54:05.43	13.20	22.63	-27.4	-28.3	15.8	0.00e+00	0	44	0	1385168896	16	3985
2026-01-21 08:54:06.44	12.99	22.54	-27.4	-28.3	15.9	0.00e+00	0	44	0	1388314624	16	3977
2026-01-21 08:54:07.44	12.77	22.45	-27.4	-28.3	15.9	0.00e+00	0	44	0	1391460352	16	3983
2026-01-21 08:54:08.44	12.56	22.36	-27.4	-28.3	15.9	0.00e+00	0	44	0	1394606080	16	3984
2026-01-21 08:54:09.44	12.35	22.27	-27.5	-28.4	15.8	0.00e+00	0	44	0	1397751808	16	4022
2026-01-21 08:54:10.43	12.14	22.18	-27.5	-28.6	15.7	0.00e+00	0	44	0	1400897536	16	4063
2026-01-21 08:54:11.43	11.94	22.10	-27.6	-28.7	15.6	0.00e+00	0	44	0	1404043264	16	4099
2026-01-21 08:54:12.43	11.73	22.01	-27.6	-28.8	15.6	0.00e+00	0	44	0	1407188992	16	4116
2026-01-21 08:54:13.44	11.52	21.92	-27.6	-28.8	15.6	0.00e+00	0	44	0	1409286144	16	4120
2026-01-21 08:54:14.44	11.32	21.83	-27.7	-28.9	15.5	0.00e+00	0	44	0	1412431872	16	4162
2026-01-21 08:54:15.45	11.11	21.74	-27.7	-29.0	15.4	0.00e+00	0	44	0	1415577600	16	4188
2026-01-21 08:54:16.45	10.91	21.65	-27.8	-29.1	15.4	0.00e+00	0	44	0	1418723328	16	4220
2026-01-21 08:54:17.44	10.71	21.56	-27.7	-29.1	15.4	0.00e+00	0	44	0	1421869056	16	4199
2026-01-21 08:54:18.45	10.51	21.47	-27.6	-28.8	15.5	0.00e+00	0	44	0	1425014784	16	4117
2026-01-21 08:54:19.45	10.31	21.38	-27.6	-28.7	15.6	0.00e+00	0	44	0	1428160512	16	4110
2026-01-21 08:54:20.45	10.11	21.29	-27.6	-28.7	15.6	0.00e+00	0	44	0	1431306240	16	4084
2026-01-21 08:54:21.46	9.91	21.20	-27.6	-28.7	15.6	0.00e+00	0	44	0	1434451968	16	4099
2026-01-21 08:54:22.47	9.72	21.11	-27.6	-28.7	15.6	0.00e+00	0	44	0	1437597696	16	4107
2026-01-21 08:54:23.47	9.52	21.02	-27.6	-28.8	15.6	0.00e+00	0	44	0	1440743424	16	4116
2026-01-21 08:54:24.48	9.33	20.93	-27.7	-29.0	15.4	0.00e+00	0	44	0	1443889152	16	4184
2026-01-21 08:54:25.48	9.14	20.84	-27.8	-29.1	15.4	0.00e+00	0	44	0	1447034880	16	4214
2026-01-21 08:54:26.48	8.95	20.75	-27.8	-29.2	15.3	0.00e+00	0	44	0	1450180608	16	4221
2026-01-21 08:54:27.48	8.76	20.66	-27.8	-29.3	15.3	0.00e+00	0	44	0	1453326336	16	4249
2026-01-21 08:54:28.48	8.57	20.57	-28.0	-29.6	15.1	0.00e+00	0	44	0	1456472064	16	4337
2026-01-21 08:54:29.49	8.38	20.48	-28.1	-29.9	14.9	0.00e+00	0	44	0	1459617792	16	4418
2026-01-21 08:54:30.49	8.19	20.39	-28.1	-30.0	14.8	0.00e+00	0	44	0	1462763520	16	4456
2026-01-21 08:54:31.50	8.01	20.30	-28.1	-29.8	14.9	0.00e+00	0	44	0	1465909248	16	4415
2026-01-21 08:54:32.51	7.82	20.21	-27.9	-29.4	15.1	0.00e+00	0	44	0	1469054976	16	4301
2026-01-21 08:54:33.51	7.64	20.12	-27.8	-29.2	15.3	0.00e+00	0	44	0	1472200704	16	4219
2026-01-21 08:54:34.51	7.46	20.03	-27.7	-29.0	15.4	0.00e+00	0	44	0	1475346432	16	4180
2026-01-21 08:54:35.52	7.27	19.94	-27.6	-28.9	15.4	0.00e+00	0	44	0	1478492160	16	4136
2026-01-21 08:54:36.52	7.09	19.85	-27.6	-28.8	15.5	0.00e+00	0	44	0	1481637888	16	4131
2026-01-21 08:54:37.53	6.91	19.76	-27.6	-28.7	15.5	0.00e+00	0	44	0	1484783616	16	4103
2026-01-21 08:54:38.53	6.74	19.67	-27.3	-28.0	15.9	0.00e+00	0	44	0	1487929344	16	3922
2026-01-21 08:54:39.53	6.56	19.59	-27.0	-27.9	16.1	0.00e+00	0	44	0	1491075072	15	3998
2026-01-21 08:54:40.54	6.38	19.50	-27.0	-27.8	16.1	0.00e+00	0	44	0	1494220800	15	3979
2026-01-21 08:54:41.54	6.21	19.41	-27.0	-27.9	16.1	0.00e+00	0	44	0	1497366528	15	4009
2026-01-21 08:54:42.54	6.04	19.32	-27.1	-28.2	15.9	0.00e+00	0	44	0	1500512256	15	4079
2026-01-21 08:54:43.55	5.86	19.23	-27.3	-28.6	15.7	0.00e+00	0	44	0	1503657984	15	4185
2026-01-21 08:54:44.55	5.69	19.14	-27.4	-29.0	15.5	0.00e+00	0	44	0	1506803712	15	4280
2026-01-21 08:54:45.55	5.52	19.05	-27.6	-29.2	15.4	0.00e+00	0	44	0	1509949440	15	4357
2026-01-21 08:54:46.55	5.35	18.96	-27.7	-29.5	15.2	0.00e+00	0	44	0	1513095168	15	4440
2026-01-21 08:54:47.55	5.18	18.87	-27.8	-29.7	15.1	0.00e+00	0	44	0	1516240896	15	4486
2026-01-21 08:54:48.56	5.02	18.78	-27.7	-29.6	15.1	7.00e-07	0	44	0	1519386624	15	4480
2026-01-21 08:54:49.56	4.85	18.69	-27.8	-29.7	15.1	0.00e+00	0	44	0	1522532352	15	4497
2026-01-21 08:54:50.56	4.68	18.60	-27.7	-29.6	15.1	7.00e-07	0	44	0	1525678080	15	4476
2026-01-21 08:54:51.57	4.52	18.51	-27.7	-29.4	15.2	0.00e+00	0	44	0	1528823808	15	4422
2026-01-21 08:54:52.58	4.35	18.42	-27.7	-29.6	15.1	0.00e+00	0	44	0	1531969536	15	4472
2026-01-21 08:54:53.58	4.19	18.34	-27.8	-29.7	15.0	0.00e+00	0	44	0	1535115264	15	4508
2026-01-21 08:54:54.59	4.03	18.25	-27.9	-30.0	14.9	0.00e+00	0	44	0	1538260992	15	4583
2026-01-21 08:54:55.59	3.87	18.16	-28.0	-30.2	14.7	0.00e+00	0	44	0	1541406720	15	4651
2026-01-21 08:54:56.59	3.71	18.07	-28.2	-30.2	14.6	0.00e+00	0	44	0	1544552448	16	4524
2026-01-21 08:54:57.60	3.55	17.98	-28.3	-30.4	14.5	0.00e+00	0	44	0	1547698176	16	4575
2026-01-21 08:54:58.60	3.39	17.89	-28.3	-30.3	14.6	0.00e+00	0	44	0	1550843904	16	4556
2026-01-21 08:54:59.61	3.23	17.80	-28.2	-30.3	14.6	1.50e-06	0	44	0	1553989632	16	4544
2026-01-21 08:55:00.61	3.08	17.71	-28.3	-30.4	14.5	7.00e-07	0	44	0	1557135360	16	4572
2026-01-21 08:55:01.62	2.92	17.63	-28.3	-30.3	14.5	7.00e-07	0	44	0	1560281088	16	4557
2026-01-21 08:55:02.62	2.77	17.54	-28.2	-30.2	14.6	0.00e+00	0	44	0	1563426816	16	4520
2026-01-21 08:55:03.61	2.62	17.45	-28.2	-30.1	14.7	0.00e+00	0	44	0	1566572544	16	4495
2026-01-21 08:55:04.62	2.46	17.36	-28.1	-30.0	14.7	0.00e+00	0	44	0	1569718272	16	4463
2026-01-21 08:55:05.62	2.31	17.28	-28.2	-30.2	14.6	0.00e+00	0	44	0	1572864000	16	4518
2026-01-21 08:55:06.62	2.16	17.19	-28.1	-30.0	14.7	0.00e+00	0	44	0	1576009728	16	4458
2026-01-21 08:55:07.63	2.01	17.10	-28.0	-29.8	14.8	0.00e+00	0	44	0	1579155456	16	4400
2026-01-21 08:55:08.64	1.86	17.01	-28.0	-29.6	14.9	0.00e+00	0	44	0	1582301184	16	4362
2026-01-21 08:55:09.64	1.71	16.93	-28.0	-29.8	14.8	7.00e-07	0	44	0	1585446912	16	4398
2026-01-21 08:55:10.64	1.57	16.84	-28.2	-30.1	14.6	0.00e+00	0	44	0	1588592640	16	4490
2026-01-21 08:55:11.64	1.42	16.75	-28.2	-30.2	14.6	0.00e+00	0	44	0	1591738368	16	4517
2026-01-21 08:55:12.65	1.28	16.66	-28.3	-30.4	14.4	1.50e-06	0	44	0	1594884096	16	4591
2026-01-21 08:55:13.65	1.13	16.58	-28.3	-30.5	14.3	0.00e+00	0	44	0	1598029824	16	4631
2026-01-21 08:55:14.66	0.99	16.49	-28.4	-30.7	14.2	7.00e-07	0	44	0	1601175552	16	4685
2026-01-21 08:55:15.66	0.84	16.40	-28.4	-30.2	14.2	7.00e-07	0	44	0	1604321280	17	4420
2026-01-21 08:55:16.67	0.70	16.32	-28.4	-30.1	14.3	7.00e-07	0	44	0	1607467008	17	4389
2026-01-21 08:55:17.67	0.56	16.23	-28.4	-30.2	14.2	7.00e-07	0	44	0	1610612736	17	4425
2026-01-21 08:55:18.68	0.42	16.14	-28.3	-30.0	14.3	3.80e-06	0	44	0	1613758464	17	4359
2026-01-21 08:55:19.68	0.28	16.06	-28.2	-29.7	14.5	1.50e-06	0	44	0	1616904192	17	4273
2026-01-21 08:55:20.69	0.14	15.97	-28.2	-29.7	14.6	7.00e-07	0	44	0	1620049920	17	4264
2026-01-21 08:55:21.68	0.01	15.89	-28.1	-29.5	14.6	7.00e-07	0	44	0	1623195648	17	4234
2026-01-21 08:55:22.69	359.87	15.80	-28.1	-29.4	14.7	0.00e+00	0	44	0	1626341376	17	4198
2026-01-21 08:55:23.69	359.73	15.71	-28.0	-29.2	14.8	0.00e+00	0	44	0	1629487104	17	4131
2026-01-21 08:55:24.70	359.60	15.63	-28.0	-29.3	14.7	0.00e+00	0	44	0	1632632832	17	4167
2026-01-21 08:55:25.70	359.46	15.54	-28.0	-29.2	14.8	7.00e-07	0	44	0	1635778560	17	4152
2026-01-21 08:55:26.70	359.33	15.46	-28.1	-29.4	14.7	0.00e+00	0	44	0	1638924288	17	4201
2026-01-21 08:55:27.70	359.19	15.37	-28.1	-29.5	14.6	7.00e-07	0	44	0	1642070016	17	4236
2026-01-21 08:55:28.70	359.06	15.29	-28.2	-29.8	14.4	0.00e+00	0	44	0	1645215744	17	4302
2026-01-21 08:55:29.71	358.93	15.20	-28.3	-29.9	14.3	0.00e+00	0	44	0	1648361472	17	4346
2026-01-21 08:55:30.71	358.80	15.12	-28.4	-30.1	14.2	7.00e-07	0	44	0	1651507200	17	4384
2026-01-21 08:55:31.71	358.67	15.04	-28.4	-30.1	14.2	0.00e+00	0	44	0	1654652928	17	4408
2026-01-21 08:55:32.72	358.54	14.95	-28.4	-30.1	14.2	5.30e-06	0	44	0	1657798656	17	4393
2026-01-21 08:55:33.71	358.41	14.87	-28.4	-30.3	14.1	7.00e-07	0	44	0	1660944384	17	4448
2026-01-21 08:55:34.71	358.29	14.78	-28.3	-30.0	14.3	0.00e+00	0	44	0	1664090112	17	4368
2026-01-21 08:55:35.70	358.16	14.70	-28.2	-29.8	14.4	1.50e-06	0	44	0	1667235840	17	4314
2026-01-21 08:55:36.70	358.04	14.62	-28.2	-29.8	14.4	0.00e+00	0	44	0	1670381568	17	4312
2026-01-21 08:55:37.70	357.91	14.53	-28.2	-29.6	14.5	0.00e+00	0	44	0	1673527296	17	4255
2026-01-21 08:55:38.70	357.79	14.45	-28.0	-29.2	14.7	0.00e+00	0	44	0	1676673024	17	4143
2026-01-21 08:55:39.71	357.66	14.37	-27.9	-29.1	14.7	7.00e-07	0	44	0	1679818752	17	4118
2026-01-21 08:55:40.71	357.54	14.28	-28.0	-29.3	14.6	0.00e+00	0	44	0	1682964480	17	4165
2026-01-21 08:55:41.72	357.41	14.20	-27.9	-29.1	14.7	0.00e+00	0	44	0	1685061632	17	4123
2026-01-21 08:55:42.72	357.29	14.12	-27.9	-29.0	14.8	0.00e+00	0	44	0	1688207360	17	4088
2026-01-21 08:55:43.72	357.17	14.04	-27.9	-29.1	14.7	0.00e+00	0	44	0	1691353088	17	4119
2026-01-21 08:55:44.73	357.05	13.95	-28.0	-29.2	14.7	0.00e+00	0	44	0	1694498816	17	4144
2026-01-21 08:55:45.72	356.93	13.87	-28.1	-29.4	14.6	0.00e+00	0	44	0	1697644544	17	4190
2026-01-21 08:55:46.73	356.81	13.79	-28.1	-29.5	14.5	7.00e-07	0	44	0	1701838848	17	4218
2026-01-21 08:55:47.73	356.69	13.71	-28.2	-29.8	14.3	3.00e-06	0	44	0	1704984576	17	4300
2026-01-21 08:55:48.73	356.58	13.63	-28.3	-29.9	14.2	7.00e-07	0	44	0	1707081728	17	4356
2026-01-21 08:55:49.73	356.46	13.54	-28.5	-30.5	13.9	7.00e-07	0	44	0	1710227456	17	4516
2026-01-21 08:55:50.73	356.34	13.46	-28.6	-30.6	13.8	3.00e-06	0	44	0	1713373184	17	4546
2026-01-21 08:55:51.74	356.23	13.38	-28.7	-30.9	13.7	4.50e-06	0	44	0	1716518912	17	4638
2026-01-21 08:55:52.74	356.11	13.30	-28.6	-30.8	13.7	3.00e-06	0	44	0	1719664640	17	4607
2026-01-21 08:55:53.74	356.00	13.22	-28.7	-31.1	13.5	7.60e-06	0	44	0	1722810368	17	4695
2026-01-21 08:55:54.75	355.88	13.14	-28.7	-30.9	13.6	7.60e-06	0	44	0	1725956096	17	4645
2026-01-21 08:55:55.76	355.77	13.06	-28.6	-30.7	13.7	6.80e-06	0	44	0	1729101824	17	4578
2026-01-21 08:55:56.77	355.65	12.97	-28.6	-30.6	13.8	6.10e-06	0	44	0	1732247552	17	4563
2026-01-21 08:55:57.77	355.54	12.89	-28.5	-30.5	13.9	5.30e-06	0	44	0	1735393280	17	4517
2026-01-21 08:55:58.78	355.43	12.81	-28.5	-30.5	13.8	5.30e-06	0	44	0	1738539008	17	4539
2026-01-21 08:55:59.78	355.32	12.73	-28.5	-30.4	13.9	5.30e-06	0	44	0	1741684736	17	4491
2026-01-21 08:56:00.79	355.21	12.65	-28.4	-30.2	14.0	1.50e-06	0	44	0	1744830464	17	4432
2026-01-21 08:56:01.79	355.10	12.57	-28.4	-30.2	14.0	2.20e-06	0	44	0	1747976192	17	4422
2026-01-21 08:56:02.79	354.99	12.49	-28.5	-30.4	13.9	4.50e-06	0	44	0	1751121920	17	4501
2026-01-21 08:56:03.79	354.88	12.41	-28.5	-30.4	13.9	5.30e-06	0	44	0	1754267648	17	4483
2026-01-21 08:56:04.80	354.78	12.33	-28.5	-30.5	13.8	6.10e-06	0	44	0	1757413376	17	4531
2026-01-21 08:56:05.80	354.67	12.25	-28.5	-30.5	13.8	6.10e-06	0	44	0	1760559104	17	4520
2026-01-21 08:56:06.80	354.56	12.18	-28.6	-30.8	13.6	6.10e-06	0	44	0	1763704832	17	4613
2026-01-21 08:56:07.80	354.46	12.10	-28.7	-30.9	13.6	5.30e-06	0	44	0	1766850560	17	4650
2026-01-21 08:56:08.81	354.35	12.02	-28.8	-31.2	13.3	1.52e-05	0	44	0	1769996288	17	4757
2026-01-21 08:56:09.81	354.25	11.94	-28.9	-31.3	13.3	2.05e-05	0	44	0	1773142016	17	4793
2026-01-21 08:56:10.81	354.14	11.86	-28.9	-31.4	13.2	1.60e-05	0	44	0	1776287744	17	4827
2026-01-21 08:56:11.82	354.04	11.78	-29.0	-31.6	13.1	2.28e-05	0	44	0	1779433472	17	4902
2026-01-21 08:56:12.82	353.94	11.70	-29.1	-31.3	13.0	3.73e-05	0	44	0	1782579200	18	4682
2026-01-21 08:56:13.83	353.83	11.63	-29.1	-31.4	13.0	4.65e-05	0	44	0	1785724928	18	4692
2026-01-21 08:56:14.84	353.73	11.55	-29.2	-31.6	12.8	5.18e-05	0	44	0	1788870656	18	4767
2026-01-21 08:56:15.84	353.63	11.47	-29.2	-31.6	12.8	5.49e-05	0	44	0	1792016384	18	4773
2026-01-21 08:56:16.85	353.53	11.39	-29.3	-31.9	12.6	9.99e-05	0	44	0	1795162112	18	4878
2026-01-21 08:56:17.85	353.43	11.31	-29.2	-31.8	12.7	7.62e-05	0	44	0	1798307840	18	4829
2026-01-21 08:56:18.85	353.33	11.24	-29.2	-31.6	12.8	7.17e-05	0	44	0	1801453568	18	4768
2026-01-21 08:56:19.86	353.23	11.16	-29.0	-31.3	13.0	5.34e-05	0	44	0	1804599296	18	4676
2026-01-21 08:56:20.86	353.13	11.08	-29.0	-31.2	13.0	2.89e-05	0	44	0	1807745024	18	4637
2026-01-21 08:56:21.86	353.03	11.01	-28.9	-31.1	13.1	2.44e-05	0	44	0	1810890752	18	4599
2026-01-21 08:56:22.86	352.93	10.93	-28.9	-31.0	13.1	2.89e-05	0	44	0	1814036480	18	4566
2026-01-21 08:56:23.87	352.84	10.85	-29.1	-31.4	12.9	3.96e-05	0	44	0	1817182208	18	4704
2026-01-21 08:56:24.87	352.74	10.78	-29.0	-31.1	13.0	4.19e-05	0	44	0	1820327936	18	4619
2026-01-21 08:56:25.87	352.65	10.70	-28.8	-30.8	13.2	1.83e-05	0	44	0	1823473664	18	4517
2026-01-21 08:56:26.88	352.55	10.62	-28.8	-30.6	13.4	2.21e-05	0	44	0	1826619392	18	4464
2026-01-21 08:56:27.88	352.45	10.55	-28.9	-30.9	13.2	1.98e-05	0	44	0	1829765120	18	4540
2026-01-21 08:56:28.89	352.36	10.47	-28.8	-30.7	13.3	1.29e-05	0	44	0	1832910848	18	4490
2026-01-21 08:56:29.89	352.27	10.40	-28.8	-30.8	13.3	1.67e-05	0	44	0	1836056576	18	4504
2026-01-21 08:56:30.90	352.17	10.32	-28.9	-31.0	13.1	2.82e-05	0	44	0	1839202304	18	4572
2026-01-21 08:56:31.91	352.08	10.25	-28.9	-31.0	13.1	2.89e-05	0	44	0	1842348032	18	4598
2026-01-21 08:56:32.92	351.98	10.17	-29.1	-31.4	12.8	4.34e-05	0	44	0	1845493760	18	4723
2026-01-21 08:56:33.93	351.89	10.09	-29.0	-31.3	12.9	5.56e-05	0	44	0	1848639488	18	4692
2026-01-21 08:56:34.93	351.80	10.02	-29.2	-31.8	12.6	8.69e-05	0	44	0	1851785216	18	4838
2026-01-21 08:56:35.93	351.71	9.95	-29.3	-32.1	12.4	1.41e-04	0	44	0	1854930944	18	4936
2026-01-21 08:56:36.93	351.62	9.87	-29.4	-32.2	12.3	1.78e-04	0	44	0	1858076672	18	4999
2026-01-21 08:56:37.93	351.53	9.80	-29.5	-32.5	12.1	2.49e-04	0	44	0	1861222400	18	5102
2026-01-21 08:56:38.93	351.44	9.72	-29.5	-32.1	12.0	3.18e-04	0	44	0	1864368128	19	4836
2026-01-21 08:56:39.93	351.35	9.65	-29.6	-32.2	12.0	3.23e-04	0	44	0	1867513856	19	4882
2026-01-21 08:56:40.94	351.26	9.57	-29.7	-32.6	11.6	5.56e-04	0	44	0	1870659584	19	5039
2026-01-21 08:56:41.94	351.18	9.50	-29.7	-32.5	11.7	5.06e-04	0	44	0	1873805312	19	4981
2026-01-21 08:56:42.94	351.09	9.43	-29.7	-32.6	11.6	5.74e-04	0	44	0	1876951040	19	5030
2026-01-21 08:56:43.94	351.00	9.35	-29.9	-33.0	11.4	9.76e-04	0	44	0	1880096768	19	5175
2026-01-21 08:56:44.95	350.91	9.28	-29.7	-32.6	11.6	7.25e-04	0	44	0	1883242496	19	5023
2026-01-21 08:56:45.95	350.83	9.21	-29.6	-32.3	11.8	4.68e-04	0	44	0	1886388224	19	4907
2026-01-21 08:56:46.95	350.74	9.14	-29.4	-31.9	12.1	3.52e-04	0	44	0	1889533952	19	4785
2026-01-21 08:56:47.95	350.66	9.06	-29.4	-31.9	12.1	2.86e-04	0	44	0	1892679680	19	4766
2026-01-21 08:56:48.95	350.57	8.99	-29.5	-31.9	12.0	2.96e-04	0	44	0	1895825408	19	4792
2026-01-21 08:56:49.96	350.49	8.92	-29.3	-31.5	12.3	1.91e-04	0	44	0	1898971136	19	4646
2026-01-21 08:56:50.97	350.40	8.84	-29.4	-31.7	12.2	2.08e-04	0	44	0	1902116864	19	4700
2026-01-21 08:56:51.97	350.32	8.77	-29.2	-31.3	12.4	1.40e-04	0	44	0	1905262592	19	4594
2026-01-21 08:56:52.97	350.24	8.70	-29.1	-31.0	12.7	9.99e-05	0	44	0	1908408320	19	4470
2026-01-21 08:56:53.98	350.15	8.63	-29.0	-30.9	12.7	9.68e-05	0	44	0	1911554048	19	4452
2026-01-21 08:56:54.98	350.07	8.56	-29.0	-30.8	12.8	7.40e-05	0	44	0	1914699776	19	4429
2026-01-21 08:56:55.98	349.99	8.49	-29.1	-31.0	12.6	9.61e-05	0	44	0	1917845504	19	4493
2026-01-21 08:56:56.98	349.91	8.41	-29.1	-30.9	12.6	7.93e-05	0	44	0	1920991232	19	4460
2026-01-21 08:56:57.98	349.83	8.34	-29.0	-30.8	12.7	7.40e-05	0	44	0	1924136960	19	4409
2026-01-21 08:56:58.99	349.75	8.27	-29.0	-30.9	12.6	8.54e-05	0	44	0	1927282688	19	4463
2026-01-21 08:56:59.99	349.67	8.20	-29.1	-31.1	12.5	1.06e-04	0	44	0	1930428416	19	4507
2026-01-21 08:57:00.99	349.59	8.13	-29.1	-31.1	12.5	9.61e-05	0	44	0	1933574144	19	4519
2026-01-21 08:57:02.00	349.51	8.06	-29.3	-31.5	12.2	1.79e-04	0	44	0	1936719872	19	4667
2026-01-21 08:57:03.00	349.43	7.99	-29.2	-31.4	12.3	1.88e-04	0	44	0	1939865600	19	4635
2026-01-21 08:57:04.00	349.35	7.92	-29.4	-31.8	12.0	2.99e-04	0	44	0	1943011328	19	4755
2026-01-21 08:57:05.00	349.27	7.85	-29.3	-31.6	12.2	2.82e-04	0	44	0	1946157056	19	4683
2026-01-21 08:57:06.01	349.19	7.78	-29.5	-32.0	11.9	4.37e-04	0	44	0	1949302784	19	4835
2026-01-21 08:57:07.01	349.12	7.71	-29.4	-31.9	12.0	3.55e-04	0	44	0	1952448512	19	4790
2026-01-21 08:57:08.01	349.04	7.64	-29.5	-32.0	11.8	4.65e-04	0	44	0	1955594240	19	4839
2026-01-21 08:57:09.01	348.96	7.57	-29.5	-32.2	11.7	5.16e-04	0	44	0	1958739968	19	4911
2026-01-21 08:57:10.01	348.89	7.50	-29.6	-32.5	11.5	5.97e-04	0	44	0	1961885696	19	5007
2026-01-21 08:57:11.02	348.81	7.43	-29.5	-32.2	11.7	6.35e-04	0	44	0	1965031424	19	4908
2026-01-21 08:57:12.03	348.73	7.36	-29.5	-32.1	11.7	5.52e-04	0	44	0	1968177152	19	4879
2026-01-21 08:57:13.02	348.66	7.29	-29.5	-32.2	11.7	4.97e-04	0	44	0	1971322880	19	4918
2026-01-21 08:57:14.03	348.58	7.22	-29.6	-32.5	11.5	6.96e-04	0	44	0	1974468608	19	4992
2026-01-21 08:57:15.03	348.51	7.15	-29.8	-32.8	11.2	1.12e-03	0	44	0	1977614336	19	5136
2026-01-21 08:57:16.03	348.44	7.08	-29.6	-32.4	11.5	8.59e-04	0	44	0	1980760064	19	4992
2026-01-21 08:57:17.03	348.36	7.01	-33.2	-44.3	3.8	1.49e+00	0	44	104	1981808640	26	12895

#Closed at: 2026-01-21 08:57:17
#Recorded file [1981 MB]: D:/data/31010_260121_114642.dat