passes_logs/2026/01/21/R2M6_AANII_01/R2M6_AANII_01__20260121_105536_SUOMI_NPP_rec.log

#Pass ID: 20260121_105536_SUOMI NPP
#Satellite: SUOMI NPP
#Configuration: NPP
#almurnet v.1.7.20240730
#Start time: 2026-01-21 10:55:35

#Version: 2.2.20231116
#Station: R2M6_AANII_01
#Location: 30.233357 lon 59.946436 lat
#TLE: 1 37849U 11061A   26020.31993517  .00000142  00000+0  88240-4 0  9990
#TLE: 2 37849  98.7818 322.3228 0002330  54.3778 305.7615 14.19527005737466

#Time	Az	El	Level	Level2	SNR	BER	BlckErr	Temp	State	Recorded	gain1	gain2
2026-01-21 10:55:35.68	176.77	6.95	-30.7	-33.4	5.4	1.22e+00	0	40	0	0	22	4884
2026-01-21 10:55:36.67	176.80	7.02	-31.3	-35.0	5.1	1.27e+00	0	40	104	0	23	5499
2026-01-21 10:55:37.68	176.84	7.10	-31.4	-35.6	8.2	6.60e-02	0	41	0	0	23	5789
2026-01-21 10:55:38.68	176.87	7.18	-31.4	-35.3	8.4	5.17e-02	0	41	0	1048576	23	5645
2026-01-21 10:55:39.68	176.91	7.25	-31.4	-35.5	8.4	3.80e-02	0	41	0	3145728	23	5725
2026-01-21 10:55:40.68	176.94	7.33	-31.3	-34.8	8.8	4.47e-02	0	41	0	5242880	23	5400
2026-01-21 10:55:41.69	176.98	7.41	-31.1	-34.0	9.4	2.36e-02	0	41	0	7340032	23	5046
2026-01-21 10:55:42.69	177.02	7.48	-30.8	-33.1	10.2	7.24e-03	0	41	0	9437184	23	4660
2026-01-21 10:55:43.70	177.05	7.56	-30.7	-33.2	10.5	3.50e-03	0	41	0	10485760	22	4797
2026-01-21 10:55:44.70	177.09	7.64	-30.6	-32.8	10.8	3.16e-03	0	41	0	12582912	22	4636
2026-01-21 10:55:45.70	177.12	7.72	-30.6	-32.8	10.9	1.99e-03	0	41	0	14680064	22	4623
2026-01-21 10:55:46.70	177.16	7.80	-30.5	-32.4	11.2	1.53e-03	0	41	0	16777216	22	4491
2026-01-21 10:55:47.70	177.20	7.87	-30.5	-32.5	11.1	1.43e-03	0	41	0	17825792	22	4516
2026-01-21 10:55:48.70	177.23	7.95	-30.5	-32.4	11.2	1.35e-03	0	41	0	19922944	22	4495
2026-01-21 10:55:49.71	177.27	8.03	-30.6	-32.8	10.9	1.58e-03	0	41	0	22020096	22	4635
2026-01-21 10:55:50.71	177.31	8.11	-30.6	-32.7	11.1	2.24e-03	0	41	0	24117248	22	4576
2026-01-21 10:55:51.72	177.34	8.19	-30.7	-32.9	10.9	1.64e-03	0	41	0	26214400	22	4639
2026-01-21 10:55:52.72	177.38	8.27	-30.7	-32.9	10.9	3.05e-03	0	41	0	27262976	22	4654
2026-01-21 10:55:53.73	177.42	8.35	-30.8	-33.5	10.5	2.73e-03	0	41	0	29360128	22	4866
2026-01-21 10:55:54.74	177.46	8.43	-31.0	-33.8	10.2	5.65e-03	0	41	0	31457280	22	5016
2026-01-21 10:55:55.74	177.49	8.51	-30.9	-33.5	10.5	4.08e-03	0	41	0	33554432	22	4888
2026-01-21 10:55:56.74	177.53	8.59	-30.9	-33.8	10.4	4.12e-03	0	41	0	35651584	22	4984
2026-01-21 10:55:57.74	177.57	8.67	-30.9	-33.6	10.4	4.49e-03	0	41	0	36700160	22	4922
2026-01-21 10:55:58.75	177.61	8.76	-30.9	-33.5	10.6	3.61e-03	0	41	0	38797312	22	4867
2026-01-21 10:55:59.75	177.65	8.84	-30.8	-33.1	10.8	2.69e-03	0	41	0	40894464	22	4720
2026-01-21 10:56:00.75	177.69	8.92	-31.0	-33.7	10.4	3.04e-03	0	41	0	42991616	22	4952
2026-01-21 10:56:01.75	177.73	9.00	-30.9	-33.7	10.4	5.58e-03	0	41	0	45088768	22	4934
2026-01-21 10:56:02.75	177.77	9.08	-30.6	-32.6	11.2	1.94e-03	0	41	0	46137344	22	4544
2026-01-21 10:56:03.75	177.80	9.16	-30.5	-32.2	11.6	9.88e-04	0	42	0	48234496	22	4384
2026-01-21 10:56:04.75	177.84	9.25	-30.3	-31.8	11.8	5.34e-04	0	41	0	50331648	22	4246
2026-01-21 10:56:05.75	177.88	9.33	-30.1	-31.7	12.2	2.43e-04	0	41	0	52428800	21	4324
2026-01-21 10:56:06.75	177.92	9.41	-30.1	-31.6	12.2	1.78e-04	0	41	0	54525952	21	4287
2026-01-21 10:56:07.75	177.96	9.50	-30.2	-31.9	12.1	2.39e-04	0	41	0	55574528	21	4364
2026-01-21 10:56:08.76	178.01	9.58	-30.3	-32.1	12.0	2.43e-04	0	41	0	57671680	21	4439
2026-01-21 10:56:09.76	178.05	9.66	-30.3	-32.2	11.9	4.58e-04	0	41	0	59768832	21	4472
2026-01-21 10:56:10.77	178.09	9.75	-30.2	-31.8	12.1	3.30e-04	0	42	0	61865984	21	4355
2026-01-21 10:56:11.77	178.13	9.83	-30.5	-32.6	11.6	4.03e-04	0	42	0	62914560	21	4629
2026-01-21 10:56:12.78	178.17	9.92	-30.4	-32.5	11.7	6.32e-04	0	42	0	65011712	21	4580
2026-01-21 10:56:13.78	178.21	10.00	-30.4	-32.3	11.8	3.24e-04	0	41	0	67108864	21	4521
2026-01-21 10:56:14.78	178.25	10.09	-30.5	-32.6	11.7	5.02e-04	0	42	0	69206016	21	4616
2026-01-21 10:56:15.79	178.30	10.17	-30.3	-32.2	11.9	4.13e-04	0	42	0	71303168	21	4481
2026-01-21 10:56:16.79	178.34	10.26	-30.3	-32.2	11.9	3.40e-04	0	42	0	73400320	21	4463
2026-01-21 10:56:17.79	178.38	10.35	-30.3	-32.2	12.0	3.56e-04	0	42	0	74448896	21	4457
2026-01-21 10:56:18.79	178.42	10.43	-30.3	-32.0	12.1	3.40e-04	0	42	0	76546048	21	4400
2026-01-21 10:56:19.80	178.47	10.52	-30.4	-32.3	11.9	3.33e-04	0	42	0	78643200	21	4506
2026-01-21 10:56:20.80	178.51	10.61	-30.5	-32.7	11.6	5.29e-04	0	42	0	80740352	21	4644
2026-01-21 10:56:21.80	178.55	10.69	-30.5	-32.8	11.6	5.43e-04	0	42	0	81788928	21	4669
2026-01-21 10:56:22.81	178.60	10.78	-30.5	-32.7	11.6	6.55e-04	0	42	0	83886080	21	4639
2026-01-21 10:56:23.81	178.64	10.87	-30.6	-32.8	11.5	6.21e-04	0	42	0	85983232	21	4685
2026-01-21 10:56:24.81	178.69	10.96	-30.8	-33.6	11.0	9.97e-04	0	42	0	88080384	21	4978
2026-01-21 10:56:25.80	178.73	11.05	-30.7	-33.3	11.2	2.07e-03	0	42	0	90177536	21	4852
2026-01-21 10:56:26.81	178.77	11.14	-30.4	-32.4	11.8	6.23e-04	0	42	0	91226112	21	4542
2026-01-21 10:56:27.82	178.82	11.23	-30.3	-31.9	12.2	3.26e-04	0	42	0	93323264	21	4374
2026-01-21 10:56:28.81	178.86	11.32	-30.1	-31.6	12.5	1.79e-04	0	42	0	95420416	21	4265
2026-01-21 10:56:29.81	178.91	11.40	-30.0	-31.2	12.8	7.70e-05	0	42	0	97517568	21	4118
2026-01-21 10:56:30.81	178.96	11.49	-30.1	-31.4	12.6	8.69e-05	0	42	0	99614720	21	4188
2026-01-21 10:56:31.82	179.00	11.59	-30.0	-31.2	12.8	7.93e-05	0	42	0	100663296	21	4143
2026-01-21 10:56:32.82	179.05	11.68	-30.0	-31.2	12.7	6.56e-05	0	42	0	102760448	21	4144
2026-01-21 10:56:33.82	179.09	11.77	-30.1	-31.3	12.7	6.02e-05	0	42	0	104857600	21	4160
2026-01-21 10:56:34.82	179.14	11.86	-30.0	-31.2	12.8	7.01e-05	0	42	0	106954752	21	4128
2026-01-21 10:56:35.81	179.19	11.95	-29.9	-30.8	13.0	4.65e-05	0	42	0	108003328	21	4016
2026-01-21 10:56:36.82	179.24	12.04	-29.9	-30.9	13.0	2.89e-05	0	42	0	110100480	21	4041
2026-01-21 10:56:37.82	179.28	12.13	-29.9	-30.8	13.0	4.80e-05	0	42	0	112197632	21	4016
2026-01-21 10:56:38.82	179.33	12.23	-29.9	-30.9	13.0	2.51e-05	0	42	0	114294784	21	4043
2026-01-21 10:56:39.81	179.38	12.32	-29.8	-30.7	13.1	5.18e-05	0	42	0	116391936	21	3978
2026-01-21 10:56:40.81	179.43	12.41	-29.9	-30.7	13.1	3.05e-05	0	42	0	117440512	21	3984
2026-01-21 10:56:41.81	179.48	12.51	-29.8	-31.0	13.3	2.59e-05	0	42	0	119537664	20	4151
2026-01-21 10:56:42.82	179.53	12.60	-29.9	-31.4	13.0	2.67e-05	0	42	0	121634816	20	4288
2026-01-21 10:56:43.82	179.57	12.70	-29.8	-31.2	13.1	2.51e-05	0	42	0	123731968	20	4217
2026-01-21 10:56:44.83	179.62	12.79	-29.8	-31.2	13.2	3.05e-05	0	42	0	125829120	20	4205
2026-01-21 10:56:45.84	179.68	12.89	-29.9	-31.4	13.0	2.59e-05	0	42	0	126877696	20	4263
2026-01-21 10:56:46.84	179.73	12.98	-29.9	-31.3	13.1	3.12e-05	0	42	0	128974848	20	4249
2026-01-21 10:56:47.85	179.78	13.08	-29.9	-31.2	13.2	1.98e-05	0	42	0	131072000	20	4215
2026-01-21 10:56:48.85	179.83	13.18	-29.9	-31.5	13.1	2.67e-05	0	42	0	133169152	20	4284
2026-01-21 10:56:49.84	179.88	13.27	-29.9	-31.2	13.2	3.05e-05	0	42	0	135266304	20	4201
2026-01-21 10:56:50.85	179.93	13.37	-30.0	-31.6	12.9	3.20e-05	0	43	0	136314880	20	4341
2026-01-21 10:56:51.85	179.98	13.47	-29.9	-31.3	13.2	2.82e-05	0	42	0	138412032	20	4216
2026-01-21 10:56:52.85	180.03	13.56	-30.0	-31.5	13.0	4.27e-05	0	42	0	140509184	20	4299
2026-01-21 10:56:53.85	180.09	13.66	-30.0	-31.5	13.1	4.04e-05	0	43	0	142606336	20	4298
2026-01-21 10:56:54.85	180.14	13.76	-30.0	-31.7	13.0	3.96e-05	0	42	0	144703488	20	4347
2026-01-21 10:56:55.85	180.19	13.86	-30.1	-31.7	12.9	4.42e-05	0	42	0	145752064	20	4369
2026-01-21 10:56:56.85	180.24	13.96	-30.0	-31.7	12.9	3.73e-05	0	42	0	147849216	20	4365
2026-01-21 10:56:57.86	180.30	14.06	-30.0	-31.6	13.0	4.95e-05	0	42	0	149946368	20	4336
2026-01-21 10:56:58.87	180.35	14.16	-30.0	-31.5	13.1	3.12e-05	0	42	0	152043520	20	4280
2026-01-21 10:56:59.88	180.41	14.26	-30.0	-31.5	13.1	4.11e-05	0	42	0	153092096	20	4291
2026-01-21 10:57:00.88	180.46	14.36	-29.9	-31.4	13.2	3.35e-05	0	42	0	155189248	20	4253
2026-01-21 10:57:01.89	180.52	14.46	-30.2	-32.0	12.7	4.65e-05	0	42	0	157286400	20	4463
2026-01-21 10:57:02.89	180.57	14.57	-29.9	-31.3	13.3	6.33e-05	0	43	0	159383552	20	4223
2026-01-21 10:57:03.90	180.63	14.67	-29.8	-31.0	13.4	1.37e-05	0	42	0	161480704	20	4128
2026-01-21 10:57:04.90	180.69	14.77	-29.7	-30.7	13.6	9.90e-06	0	43	0	163577856	20	4052
2026-01-21 10:57:05.91	180.74	14.87	-29.8	-30.9	13.5	9.90e-06	0	42	0	164626432	20	4100
2026-01-21 10:57:06.91	180.80	14.98	-29.5	-30.3	13.9	7.60e-06	0	42	0	166723584	20	3932
2026-01-21 10:57:07.92	180.86	15.08	-29.7	-30.6	13.7	3.80e-06	0	43	0	168820736	20	4019
2026-01-21 10:57:08.92	180.92	15.19	-29.6	-30.5	13.7	8.30e-06	0	42	0	170917888	20	3988
2026-01-21 10:57:09.93	180.97	15.29	-29.7	-30.7	13.6	5.30e-06	0	43	0	171966464	20	4032
2026-01-21 10:57:10.93	181.03	15.40	-29.7	-30.6	13.7	9.90e-06	0	42	0	174063616	20	4012
2026-01-21 10:57:11.93	181.09	15.50	-29.7	-30.7	13.7	7.60e-06	0	43	0	176160768	20	4030
2026-01-21 10:57:12.94	181.15	15.61	-29.7	-30.7	13.7	6.80e-06	0	43	0	178257920	20	4051
2026-01-21 10:57:13.94	181.21	15.71	-29.7	-30.8	13.6	5.30e-06	0	43	0	180355072	20	4071
2026-01-21 10:57:14.94	181.27	15.82	-29.8	-31.0	13.5	9.90e-06	0	42	0	181403648	20	4139
2026-01-21 10:57:15.95	181.33	15.93	-29.8	-31.0	13.5	1.60e-05	0	43	0	183500800	20	4124
2026-01-21 10:57:16.95	181.39	16.04	-29.9	-31.4	13.3	7.60e-06	0	43	0	185597952	20	4237
2026-01-21 10:57:17.95	181.45	16.14	-29.9	-31.2	13.4	9.10e-06	0	43	0	187695104	20	4190
2026-01-21 10:57:18.96	181.52	16.25	-29.8	-31.1	13.5	7.60e-06	0	43	0	189792256	20	4157
2026-01-21 10:57:19.96	181.58	16.36	-29.8	-31.0	13.6	7.60e-06	0	43	0	190840832	20	4120
2026-01-21 10:57:20.97	181.64	16.47	-29.8	-31.1	13.5	1.67e-05	0	43	0	192937984	20	4146
2026-01-21 10:57:21.97	181.70	16.58	-29.9	-31.1	13.4	1.06e-05	0	43	0	195035136	20	4169
2026-01-21 10:57:22.98	181.77	16.69	-29.8	-31.1	13.5	9.90e-06	0	42	0	197132288	20	4154
2026-01-21 10:57:23.98	181.83	16.80	-29.7	-30.8	13.6	3.80e-06	0	42	0	199229440	20	4083
2026-01-21 10:57:24.98	181.90	16.92	-29.8	-31.1	13.4	3.80e-06	0	42	0	200278016	20	4179
2026-01-21 10:57:25.99	181.96	17.03	-29.8	-30.9	13.6	1.06e-05	0	43	0	202375168	20	4104
2026-01-21 10:57:26.98	182.03	17.14	-29.7	-30.7	13.7	3.00e-06	0	42	0	204472320	20	4035
2026-01-21 10:57:27.99	182.09	17.25	-29.7	-30.9	13.6	4.50e-06	0	43	0	206569472	20	4098
2026-01-21 10:57:28.99	182.16	17.37	-29.6	-30.4	13.9	3.80e-06	0	43	0	208666624	20	3960
2026-01-21 10:57:29.99	182.23	17.48	-29.7	-30.7	13.8	5.30e-06	0	43	0	209715200	20	4040
2026-01-21 10:57:30.99	182.29	17.59	-29.7	-30.7	13.7	2.20e-06	0	43	0	211812352	20	4050
2026-01-21 10:57:31.99	182.36	17.71	-29.7	-30.7	13.7	5.30e-06	0	43	0	213909504	20	4057
2026-01-21 10:57:33.00	182.43	17.82	-29.9	-31.4	13.3	6.80e-06	0	43	0	216006656	20	4252
2026-01-21 10:57:34.00	182.50	17.94	-29.8	-31.1	13.5	2.05e-05	0	43	0	218103808	20	4164
2026-01-21 10:57:35.00	182.57	18.06	-29.7	-30.9	13.6	9.10e-06	0	43	0	219152384	20	4095
2026-01-21 10:57:36.00	182.64	18.17	-30.0	-31.7	13.2	6.80e-06	0	43	0	221249536	20	4343
2026-01-21 10:57:37.00	182.71	18.29	-29.9	-31.4	13.3	1.83e-05	0	43	0	223346688	20	4275
2026-01-21 10:57:38.00	182.78	18.41	-30.0	-31.7	13.1	2.21e-05	0	43	0	225443840	20	4365
2026-01-21 10:57:39.01	182.85	18.53	-30.0	-31.6	13.2	1.60e-05	0	43	0	226492416	20	4339
2026-01-21 10:57:40.01	182.92	18.65	-30.2	-32.2	12.9	2.74e-05	0	43	0	228589568	20	4525
2026-01-21 10:57:41.01	182.99	18.76	-30.1	-31.8	13.0	3.66e-05	0	43	0	230686720	20	4408
2026-01-21 10:57:42.01	183.06	18.88	-30.0	-31.6	13.2	1.22e-05	0	43	0	232783872	20	4330
2026-01-21 10:57:43.01	183.14	19.00	-30.1	-31.8	13.1	3.43e-05	0	43	0	234881024	20	4387
2026-01-21 10:57:44.02	183.21	19.13	-30.0	-31.5	13.3	2.89e-05	0	43	0	235929600	20	4285
2026-01-21 10:57:45.02	183.29	19.25	-30.0	-31.7	13.2	2.36e-05	0	43	0	238026752	20	4341
2026-01-21 10:57:46.03	183.36	19.37	-30.2	-32.1	12.9	3.43e-05	0	43	0	240123904	20	4481
2026-01-21 10:57:47.03	183.44	19.49	-30.1	-31.9	13.0	6.48e-05	0	43	0	242221056	20	4422
2026-01-21 10:57:48.03	183.51	19.62	-30.2	-32.1	12.9	2.89e-05	0	43	0	244318208	20	4502
2026-01-21 10:57:49.03	183.59	19.74	-30.3	-32.4	12.7	4.80e-05	0	43	0	245366784	20	4605
2026-01-21 10:57:50.03	183.67	19.87	-30.3	-32.4	12.7	4.65e-05	0	43	0	247463936	20	4593
2026-01-21 10:57:51.04	183.75	19.99	-30.3	-32.3	12.8	5.95e-05	0	43	0	249561088	20	4575
2026-01-21 10:57:52.05	183.83	20.12	-30.3	-32.5	12.7	9.61e-05	0	43	0	251658240	20	4613
2026-01-21 10:57:53.05	183.90	20.24	-30.3	-32.5	12.6	5.79e-05	0	43	0	253755392	20	4638
2026-01-21 10:57:54.05	183.98	20.37	-30.4	-32.7	12.6	8.77e-05	0	43	0	254803968	20	4673
2026-01-21 10:57:55.05	184.06	20.50	-30.3	-32.4	12.7	8.39e-05	0	43	0	256901120	20	4590
2026-01-21 10:57:56.06	184.15	20.63	-30.3	-32.4	12.7	8.31e-05	0	43	0	258998272	20	4596
2026-01-21 10:57:57.05	184.23	20.75	-30.4	-32.8	12.5	8.92e-05	0	43	0	261095424	20	4725
2026-01-21 10:57:58.06	184.31	20.88	-30.2	-32.2	12.9	4.34e-05	0	43	0	263192576	20	4524
2026-01-21 10:57:59.05	184.39	21.01	-30.0	-31.4	13.4	1.22e-05	0	43	0	264241152	20	4273
2026-01-21 10:58:00.06	184.48	21.14	-30.0	-31.6	13.4	1.44e-05	0	43	0	266338304	20	4304
2026-01-21 10:58:01.06	184.56	21.27	-29.8	-31.1	13.6	1.52e-05	0	43	0	268435456	20	4160
2026-01-21 10:58:02.07	184.65	21.41	-30.0	-31.4	13.4	1.83e-05	0	43	0	270532608	20	4251
2026-01-21 10:58:03.08	184.73	21.54	-29.8	-30.9	13.7	6.80e-06	0	43	0	271581184	20	4108
2026-01-21 10:58:04.08	184.82	21.67	-29.6	-30.5	14.0	3.80e-06	0	43	0	273678336	20	3993
2026-01-21 10:58:05.09	184.91	21.81	-29.7	-30.7	14.0	5.30e-06	0	43	0	275775488	20	4034
2026-01-21 10:58:06.09	184.99	21.94	-29.5	-30.1	14.3	3.00e-06	0	43	0	277872640	20	3874
2026-01-21 10:58:07.10	185.08	22.08	-29.5	-30.1	14.4	7.00e-07	0	43	0	279969792	20	3858
2026-01-21 10:58:08.09	185.17	22.21	-29.6	-30.5	14.0	1.50e-06	0	43	0	282066944	20	3976
2026-01-21 10:58:09.09	185.26	22.35	-29.4	-29.9	14.4	0.00e+00	0	43	0	283115520	20	3815
2026-01-21 10:58:10.09	185.35	22.48	-29.3	-29.7	14.6	0.00e+00	0	43	0	285212672	20	3746
2026-01-21 10:58:11.09	185.44	22.62	-29.3	-30.0	14.8	0.00e+00	0	43	0	287309824	19	3908
2026-01-21 10:58:12.09	185.54	22.76	-29.2	-29.9	14.9	7.00e-07	0	43	0	289406976	19	3888
2026-01-21 10:58:13.10	185.63	22.90	-29.1	-29.6	15.0	0.00e+00	0	43	0	290455552	19	3806
2026-01-21 10:58:14.10	185.73	23.04	-29.1	-29.6	15.0	7.00e-07	0	43	0	292552704	19	3801
2026-01-21 10:58:15.10	185.82	23.18	-29.0	-29.4	15.2	0.00e+00	0	43	0	294649856	19	3756
2026-01-21 10:58:16.10	185.92	23.32	-28.9	-29.1	15.4	7.00e-07	0	43	0	296747008	19	3669
2026-01-21 10:58:17.10	186.01	23.46	-29.1	-29.4	15.2	0.00e+00	0	43	0	298844160	19	3765
2026-01-21 10:58:18.11	186.11	23.60	-29.0	-29.2	15.4	0.00e+00	0	43	0	299892736	19	3690
2026-01-21 10:58:19.11	186.21	23.75	-28.9	-29.1	15.4	0.00e+00	0	43	0	301989888	19	3672
2026-01-21 10:58:20.12	186.31	23.89	-29.1	-29.6	15.1	0.00e+00	0	43	0	304087040	19	3797
2026-01-21 10:58:21.12	186.41	24.04	-29.0	-29.2	15.3	0.00e+00	0	43	0	306184192	19	3692
2026-01-21 10:58:22.13	186.51	24.18	-29.2	-29.7	15.0	0.00e+00	0	43	0	308281344	19	3826
2026-01-21 10:58:23.13	186.61	24.33	-29.4	-30.2	14.8	0.00e+00	0	43	0	309329920	19	3946
2026-01-21 10:58:24.12	186.71	24.47	-29.2	-29.6	15.1	0.00e+00	0	43	0	311427072	19	3797
2026-01-21 10:58:25.12	186.82	24.62	-29.1	-29.5	15.2	7.00e-07	0	43	0	313524224	19	3754
2026-01-21 10:58:26.13	186.92	24.77	-29.3	-30.0	14.9	7.00e-07	0	43	0	315621376	19	3886
2026-01-21 10:58:27.12	187.03	24.92	-29.2	-29.8	15.1	0.00e+00	0	43	0	317718528	19	3841
2026-01-21 10:58:28.12	187.13	25.06	-29.2	-29.8	15.0	7.00e-07	0	43	0	318767104	19	3837
2026-01-21 10:58:29.13	187.24	25.22	-29.4	-30.2	14.8	0.00e+00	0	43	0	320864256	19	3960
2026-01-21 10:58:30.13	187.35	25.37	-29.3	-29.9	15.0	7.00e-07	0	43	0	322961408	19	3869
2026-01-21 10:58:31.13	187.46	25.52	-29.1	-29.3	15.3	1.50e-06	0	43	0	325058560	19	3717
2026-01-21 10:58:32.14	187.57	25.67	-29.3	-29.9	15.0	0.00e+00	0	43	0	327155712	19	3853
2026-01-21 10:58:33.14	187.68	25.83	-29.1	-29.5	15.2	0.00e+00	0	43	0	328204288	19	3772
2026-01-21 10:58:34.15	187.79	25.98	-29.2	-29.7	15.2	0.00e+00	0	43	0	330301440	19	3826
2026-01-21 10:58:35.15	187.91	26.14	-29.4	-30.2	14.9	0.00e+00	0	43	0	332398592	19	3953
2026-01-21 10:58:36.15	188.02	26.29	-29.0	-29.2	15.4	0.00e+00	0	43	0	334495744	19	3681
2026-01-21 10:58:37.16	188.14	26.45	-29.0	-29.2	15.5	0.00e+00	0	43	0	335544320	19	3669
2026-01-21 10:58:38.16	188.26	26.61	-28.9	-29.0	15.6	0.00e+00	0	43	0	337641472	19	3632
2026-01-21 10:58:39.16	188.37	26.76	-28.9	-28.9	15.6	0.00e+00	0	43	0	339738624	19	3595
2026-01-21 10:58:40.17	188.49	26.92	-28.7	-28.9	16.0	0.00e+00	0	43	0	341835776	18	3684
2026-01-21 10:58:41.18	188.61	27.08	-29.0	-29.7	15.4	0.00e+00	0	43	0	343932928	18	3888
2026-01-21 10:58:42.18	188.74	27.24	-29.0	-29.6	15.6	0.00e+00	0	43	0	346030080	18	3864
2026-01-21 10:58:43.19	188.86	27.41	-28.9	-29.3	15.7	0.00e+00	0	43	0	347078656	18	3796
2026-01-21 10:58:44.19	188.98	27.57	-29.0	-29.6	15.5	0.00e+00	0	43	0	349175808	18	3880
2026-01-21 10:58:45.20	189.11	27.73	-28.9	-29.5	15.6	0.00e+00	0	43	0	351272960	18	3830
2026-01-21 10:58:46.20	189.24	27.90	-29.3	-30.3	15.2	0.00e+00	0	43	0	353370112	18	4057
2026-01-21 10:58:47.20	189.36	28.06	-29.5	-30.3	14.8	0.00e+00	0	43	0	354418688	19	3956
2026-01-21 10:58:48.20	189.49	28.23	-29.4	-30.1	14.9	0.00e+00	0	43	0	356515840	19	3914
2026-01-21 10:58:49.20	189.62	28.39	-29.0	-29.2	15.5	0.00e+00	0	43	0	358612992	19	3685
2026-01-21 10:58:50.20	189.75	28.56	-29.0	-29.2	15.5	0.00e+00	0	43	0	360710144	19	3675
2026-01-21 10:58:51.21	189.89	28.73	-29.3	-29.8	15.2	0.00e+00	0	43	0	362807296	19	3827
2026-01-21 10:58:52.21	190.02	28.90	-29.3	-29.9	15.1	0.00e+00	0	43	0	363855872	19	3847
2026-01-21 10:58:53.21	190.16	29.07	-29.5	-30.5	14.8	0.00e+00	0	43	0	365953024	19	4024
2026-01-21 10:58:54.21	190.29	29.24	-29.6	-30.8	14.6	0.00e+00	0	43	0	368050176	19	4092
2026-01-21 10:58:55.22	190.43	29.41	-29.7	-30.9	14.6	1.50e-06	0	43	0	370147328	19	4145
2026-01-21 10:58:56.22	190.57	29.58	-30.0	-31.7	14.1	7.00e-07	0	43	0	372244480	19	4365
2026-01-21 10:58:57.22	190.71	29.75	-30.0	-31.1	14.0	2.20e-06	0	43	0	373293056	20	4099
2026-01-21 10:58:58.23	190.86	29.93	-30.0	-31.3	13.9	2.20e-06	0	43	0	375390208	20	4166
2026-01-21 10:58:59.23	191.00	30.10	-30.2	-31.8	13.6	9.10e-06	0	43	0	377487360	20	4327
2026-01-21 10:59:00.23	191.15	30.28	-30.5	-32.0	13.1	2.13e-05	0	43	0	379584512	21	4305
2026-01-21 10:59:01.22	191.29	30.45	-30.4	-31.8	13.2	1.29e-05	0	43	0	380633088	21	4224
2026-01-21 10:59:02.23	191.44	30.63	-30.8	-32.8	12.6	2.36e-05	0	43	0	382730240	21	4554
2026-01-21 10:59:03.24	191.59	30.81	-30.9	-33.3	12.3	1.36e-04	0	43	0	384827392	21	4710
2026-01-21 10:59:04.23	191.75	30.99	-30.9	-32.6	12.5	1.88e-04	0	43	0	386924544	22	4400
2026-01-21 10:59:05.23	191.90	31.17	-31.2	-33.4	11.9	1.99e-04	0	43	0	389021696	22	4666
2026-01-21 10:59:06.24	192.06	31.35	-31.2	-33.5	12.0	4.01e-04	0	43	0	391118848	22	4698
2026-01-21 10:59:07.23	192.21	31.53	-31.2	-33.6	11.8	5.08e-04	0	43	0	392167424	22	4724
2026-01-21 10:59:08.24	192.37	31.72	-31.5	-34.3	11.3	3.67e-04	0	43	0	394264576	22	5009
2026-01-21 10:59:09.24	192.53	31.90	-31.4	-34.2	11.3	1.05e-03	0	43	0	396361728	22	4975
2026-01-21 10:59:10.24	192.69	32.08	-31.4	-33.6	11.5	8.22e-04	0	43	0	398458880	23	4653
2026-01-21 10:59:11.24	192.86	32.27	-31.1	-32.7	12.1	4.61e-04	0	43	0	399507456	23	4348
2026-01-21 10:59:12.24	193.02	32.46	-31.3	-33.4	11.5	4.35e-04	0	43	0	401604608	23	4573
2026-01-21 10:59:13.23	193.19	32.64	-31.0	-32.5	12.2	2.39e-04	0	43	0	403701760	23	4272
2026-01-21 10:59:14.24	193.36	32.83	-31.1	-32.7	12.1	2.42e-04	0	43	0	405798912	23	4328
2026-01-21 10:59:15.24	193.53	33.02	-31.1	-32.8	12.0	3.10e-04	0	43	0	407896064	23	4348
2026-01-21 10:59:16.24	193.71	33.21	-31.2	-33.0	11.8	5.33e-04	0	43	0	408944640	23	4421
2026-01-21 10:59:17.25	193.88	33.40	-31.2	-32.9	12.0	2.67e-04	0	43	0	411041792	23	4399
2026-01-21 10:59:18.25	194.06	33.59	-31.0	-32.8	12.4	1.33e-04	0	43	0	413138944	22	4443
2026-01-21 10:59:19.25	194.24	33.79	-31.1	-33.1	12.2	1.21e-04	0	43	0	415236096	22	4553
2026-01-21 10:59:20.26	194.42	33.98	-30.9	-32.6	12.6	7.70e-05	0	43	0	417333248	22	4374
2026-01-21 10:59:21.26	194.61	34.18	-31.1	-33.1	12.1	2.70e-04	0	43	0	418381824	22	4564
2026-01-21 10:59:22.26	194.79	34.37	-30.9	-32.6	12.5	1.62e-04	0	43	0	420478976	22	4362
2026-01-21 10:59:23.27	194.98	34.57	-31.1	-33.1	12.2	2.55e-04	0	43	0	422576128	22	4533
2026-01-21 10:59:24.27	195.18	34.77	-31.3	-33.9	11.7	3.91e-04	0	43	0	424673280	22	4821
2026-01-21 10:59:25.27	195.37	34.96	-31.4	-34.0	11.6	5.89e-04	0	43	0	425721856	22	4851
2026-01-21 10:59:26.27	195.56	35.16	-31.4	-33.4	11.7	1.11e-03	0	43	0	427819008	23	4562
2026-01-21 10:59:27.27	195.76	35.36	-31.2	-33.0	11.9	5.81e-04	0	43	0	429916160	23	4439
2026-01-21 10:59:28.27	195.96	35.56	-31.4	-33.6	11.5	6.23e-04	0	43	0	432013312	23	4631
2026-01-21 10:59:29.27	196.16	35.77	-31.4	-33.5	11.7	6.12e-04	0	43	0	434110464	23	4591
2026-01-21 10:59:30.28	196.37	35.97	-31.2	-33.0	11.9	3.69e-04	0	43	0	435159040	23	4431
2026-01-21 10:59:31.29	196.58	36.18	-30.9	-32.2	12.5	1.40e-04	0	43	0	437256192	23	4149
2026-01-21 10:59:32.28	196.79	36.38	-30.8	-31.9	12.6	1.46e-04	0	43	0	439353344	23	4067
2026-01-21 10:59:33.28	197.00	36.58	-30.7	-32.0	13.0	3.81e-05	0	43	0	441450496	22	4183
2026-01-21 10:59:34.28	197.21	36.79	-30.8	-32.3	12.8	2.97e-05	0	43	0	443547648	22	4266
2026-01-21 10:59:35.28	197.43	37.00	-30.8	-32.2	12.8	7.17e-05	0	43	0	444596224	22	4236
2026-01-21 10:59:36.29	197.65	37.20	-30.6	-31.7	13.1	3.35e-05	0	43	0	446693376	22	4090
2026-01-21 10:59:37.29	197.88	37.41	-30.6	-31.6	13.3	2.82e-05	0	43	0	448790528	22	4060
2026-01-21 10:59:38.29	198.10	37.62	-30.7	-31.9	13.1	1.90e-05	0	43	0	450887680	22	4157
2026-01-21 10:59:39.29	198.33	37.83	-30.8	-32.2	12.9	8.62e-05	0	43	0	452984832	22	4249
2026-01-21 10:59:40.29	198.56	38.04	-30.8	-32.1	12.9	4.95e-05	0	43	0	454033408	22	4214
2026-01-21 10:59:41.30	198.80	38.26	-30.9	-32.4	12.8	9.00e-05	0	43	0	456130560	22	4290
2026-01-21 10:59:42.30	199.04	38.47	-30.7	-32.0	13.1	6.17e-05	0	43	0	458227712	22	4171
2026-01-21 10:59:43.31	199.28	38.69	-30.7	-31.9	13.1	3.96e-05	0	43	0	460324864	22	4153
2026-01-21 10:59:44.31	199.53	38.90	-30.6	-31.7	13.2	4.27e-05	0	43	0	462422016	22	4099
2026-01-21 10:59:45.32	199.78	39.12	-31.0	-32.8	12.5	8.16e-05	0	43	0	463470592	22	4431
2026-01-21 10:59:46.32	200.03	39.33	-31.1	-33.2	12.2	1.26e-04	0	43	0	465567744	22	4572
2026-01-21 10:59:47.33	200.28	39.55	-31.0	-32.7	12.6	8.01e-05	0	43	0	467664896	22	4409
2026-01-21 10:59:48.33	200.54	39.77	-30.9	-32.5	12.7	1.04e-04	0	43	0	469762048	22	4326
2026-01-21 10:59:49.34	200.80	39.99	-30.5	-31.5	13.4	3.81e-05	0	43	0	471859200	22	4020
2026-01-21 10:59:50.34	201.07	40.21	-30.2	-31.2	13.8	4.50e-06	0	43	0	472907776	21	4021
2026-01-21 10:59:51.34	201.33	40.43	-30.4	-31.6	13.6	6.80e-06	0	43	0	475004928	21	4135
2026-01-21 10:59:52.34	201.61	40.65	-30.5	-32.0	13.3	5.30e-06	0	43	0	477102080	21	4275
2026-01-21 10:59:53.34	201.88	40.87	-30.6	-32.1	13.4	5.30e-06	0	43	0	479199232	21	4285
2026-01-21 10:59:54.34	202.16	41.09	-30.4	-31.6	13.6	2.59e-05	0	43	0	481296384	21	4121
2026-01-21 10:59:55.34	202.44	41.31	-30.1	-31.0	14.0	3.80e-06	0	43	0	482344960	21	3954
2026-01-21 10:59:56.34	202.73	41.53	-30.0	-30.5	14.3	3.00e-06	0	43	0	484442112	21	3829
2026-01-21 10:59:57.34	203.02	41.75	-29.9	-30.4	14.3	7.00e-07	0	43	0	486539264	21	3814
2026-01-21 10:59:58.34	203.31	41.98	-30.2	-31.1	14.0	7.00e-07	0	43	0	488636416	21	4005
2026-01-21 10:59:59.35	203.61	42.20	-30.5	-32.0	13.4	1.14e-05	0	43	0	489684992	21	4269
2026-01-21 11:00:00.36	203.92	42.43	-30.8	-32.8	12.8	3.73e-05	0	43	0	491782144	21	4540
2026-01-21 11:00:01.36	204.22	42.66	-30.9	-33.0	12.7	8.92e-05	0	43	0	493879296	21	4597
2026-01-21 11:00:02.37	204.54	42.88	-30.7	-32.6	13.0	7.09e-05	0	43	0	495976448	21	4455
2026-01-21 11:00:03.36	204.85	43.11	-30.5	-32.0	13.3	3.20e-05	0	43	0	498073600	21	4273
2026-01-21 11:00:04.37	205.17	43.34	-30.4	-31.5	13.7	1.14e-05	0	43	0	499122176	21	4114
2026-01-21 11:00:05.37	205.50	43.56	-30.5	-32.0	13.4	1.29e-05	0	43	0	501219328	21	4256
2026-01-21 11:00:06.37	205.82	43.79	-30.8	-32.7	13.0	1.75e-05	0	43	0	503316480	21	4471
2026-01-21 11:00:07.37	206.16	44.02	-31.0	-32.9	12.6	4.80e-05	0	43	0	505413632	22	4442
2026-01-21 11:00:08.38	206.50	44.25	-31.1	-33.0	12.5	1.69e-04	0	43	0	507510784	22	4475
2026-01-21 11:00:09.38	206.84	44.47	-31.1	-33.0	12.5	1.40e-04	0	43	0	508559360	22	4479
2026-01-21 11:00:10.38	207.19	44.70	-30.9	-32.5	12.8	1.03e-04	0	43	0	510656512	22	4338
2026-01-21 11:00:11.39	207.55	44.93	-30.9	-32.5	12.8	1.43e-04	0	43	0	512753664	22	4326
2026-01-21 11:00:12.39	207.90	45.16	-30.9	-32.4	12.8	6.94e-05	0	43	0	514850816	22	4290
2026-01-21 11:00:13.39	208.27	45.39	-31.3	-33.7	12.0	1.52e-04	0	43	0	516947968	22	4727
2026-01-21 11:00:14.40	208.64	45.62	-31.3	-33.6	12.0	3.62e-04	0	43	0	517996544	22	4692
2026-01-21 11:00:15.40	209.01	45.85	-31.5	-33.9	11.4	6.97e-04	0	43	0	520093696	23	4735
2026-01-21 11:00:16.41	209.39	46.08	-31.4	-33.4	11.8	6.48e-04	0	43	0	522190848	23	4559
2026-01-21 11:00:17.40	209.77	46.30	-31.4	-33.4	11.7	3.80e-04	0	43	0	524288000	23	4561
2026-01-21 11:00:18.40	210.16	46.53	-31.0	-32.3	12.4	1.78e-04	0	43	0	526385152	23	4184
2026-01-21 11:00:19.40	210.56	46.76	-31.0	-32.2	12.6	1.26e-04	0	43	0	527433728	23	4157
2026-01-21 11:00:20.41	210.96	46.99	-31.2	-33.0	12.1	1.66e-04	0	43	0	529530880	23	4397
2026-01-21 11:00:21.41	211.37	47.22	-31.7	-34.4	11.2	1.33e-03	0	43	0	531628032	23	4915
2026-01-21 11:00:22.41	211.78	47.45	-32.0	-34.9	10.4	3.34e-03	0	43	0	533725184	24	5017
2026-01-21 11:00:23.42	212.20	47.67	-32.3	-36.0	9.4	5.57e-03	0	43	0	534773760	24	5537
2026-01-21 11:00:24.42	212.63	47.90	-32.5	-36.5	8.9	2.21e-02	0	43	0	536870912	25	5656
2026-01-21 11:00:25.43	213.06	48.13	-32.7	-37.0	8.4	4.54e-02	0	43	0	538968064	25	5938
2026-01-21 11:00:26.43	213.50	48.35	-32.5	-36.5	8.8	5.28e-02	0	43	0	541065216	25	5651
2026-01-21 11:00:27.44	213.95	48.58	-32.3	-35.7	9.4	1.83e-02	0	43	0	543162368	25	5301
2026-01-21 11:00:28.44	214.40	48.80	-32.1	-34.7	10.1	9.67e-03	0	43	0	544210944	25	4888
2026-01-21 11:00:29.44	214.86	49.03	-31.9	-34.7	10.6	4.89e-03	0	43	0	546308096	24	4958
2026-01-21 11:00:30.44	215.32	49.25	-31.9	-34.4	10.8	1.57e-03	0	43	0	548405248	24	4818
2026-01-21 11:00:31.45	215.79	49.47	-32.0	-34.8	10.5	4.91e-03	0	43	0	550502400	24	4979
2026-01-21 11:00:32.45	216.27	49.69	-32.1	-35.1	10.3	6.72e-03	0	43	0	552599552	24	5092
2026-01-21 11:00:33.46	216.76	49.91	-32.2	-35.6	9.9	7.60e-03	0	43	0	553648128	24	5312
2026-01-21 11:00:34.46	217.25	50.13	-31.8	-34.3	10.9	2.34e-03	0	43	0	555745280	24	4767
2026-01-21 11:00:35.46	217.75	50.35	-31.3	-32.6	12.1	4.07e-04	0	43	0	557842432	24	4179
2026-01-21 11:00:36.46	218.25	50.57	-31.4	-33.4	11.9	2.16e-04	0	43	0	559939584	23	4519
2026-01-21 11:00:37.47	218.77	50.78	-31.2	-32.9	12.3	2.65e-04	0	43	0	562036736	23	4373
2026-01-21 11:00:38.47	219.29	51.00	-31.0	-32.3	12.7	1.72e-04	0	43	0	563085312	23	4160
2026-01-21 11:00:39.48	219.82	51.21	-31.1	-32.5	12.5	1.18e-04	0	43	0	565182464	23	4247
2026-01-21 11:00:40.48	220.35	51.42	-31.0	-32.2	12.8	1.41e-04	0	43	0	567279616	23	4137
2026-01-21 11:00:41.49	220.90	51.63	-31.0	-32.2	12.7	1.16e-04	0	43	0	569376768	23	4135
2026-01-21 11:00:42.49	221.45	51.84	-31.0	-32.1	12.8	3.89e-05	0	43	0	571473920	23	4101
2026-01-21 11:00:43.49	222.01	52.04	-30.7	-31.8	13.3	2.36e-05	0	43	0	572522496	22	4114
2026-01-21 11:00:44.50	222.58	52.25	-30.8	-32.1	13.1	4.42e-05	0	43	0	574619648	22	4195
2026-01-21 11:00:45.49	223.14	52.44	-30.8	-32.2	13.1	2.59e-05	0	43	0	576716800	22	4237
2026-01-21 11:00:46.49	223.72	52.64	-30.7	-31.8	13.3	3.28e-05	0	43	0	578813952	22	4102
2026-01-21 11:00:47.50	224.31	52.84	-30.2	-31.1	14.2	7.60e-06	0	43	0	580911104	21	3977
2026-01-21 11:00:48.50	224.91	53.04	-29.8	-30.5	14.7	7.00e-07	0	43	0	581959680	20	3914
2026-01-21 11:00:49.50	225.51	53.23	-29.7	-30.3	14.9	0.00e+00	0	43	0	584056832	20	3844
2026-01-21 11:00:50.51	226.13	53.42	-29.6	-30.1	14.9	7.00e-07	0	43	0	586153984	20	3807
2026-01-21 11:00:51.51	226.75	53.61	-29.4	-29.6	15.2	0.00e+00	0	43	0	588251136	20	3667
2026-01-21 11:00:52.51	227.38	53.79	-29.5	-29.7	15.2	0.00e+00	0	43	0	590348288	20	3701
2026-01-21 11:00:53.52	228.02	53.97	-29.7	-30.1	15.0	0.00e+00	0	43	0	591396864	20	3812
2026-01-21 11:00:54.52	228.66	54.15	-30.1	-31.3	14.3	0.00e+00	0	43	0	593494016	20	4124
2026-01-21 11:00:55.52	229.31	54.33	-30.2	-31.6	14.1	1.50e-06	0	43	0	595591168	20	4235
2026-01-21 11:00:56.52	229.97	54.50	-29.5	-29.8	15.1	0.00e+00	0	43	0	597688320	20	3725
2026-01-21 11:00:57.52	230.63	54.67	-29.4	-30.0	15.4	0.00e+00	0	43	0	598736896	19	3858
2026-01-21 11:00:58.52	231.31	54.83	-29.9	-31.2	14.7	0.00e+00	0	43	0	600834048	19	4180
2026-01-21 11:00:59.52	231.99	54.99	-30.0	-31.1	14.4	0.00e+00	0	43	0	602931200	20	4072
2026-01-21 11:01:00.52	232.68	55.15	-29.5	-29.7	15.2	2.20e-06	0	43	0	605028352	20	3688
2026-01-21 11:01:01.52	233.38	55.31	-29.2	-29.5	15.7	0.00e+00	0	43	0	607125504	19	3739
2026-01-21 11:01:02.53	234.09	55.46	-29.3	-29.8	15.6	0.00e+00	0	43	0	608174080	19	3809
2026-01-21 11:01:03.53	234.80	55.61	-29.5	-30.3	15.3	0.00e+00	0	43	0	610271232	19	3933
2026-01-21 11:01:04.53	235.52	55.75	-29.2	-29.4	15.8	0.00e+00	0	43	0	612368384	19	3686
2026-01-21 11:01:05.54	236.25	55.89	-28.6	-28.5	16.6	0.00e+00	0	43	0	614465536	18	3578
2026-01-21 11:01:06.54	236.99	56.03	-29.0	-29.5	16.0	0.00e+00	0	43	0	616562688	18	3820
2026-01-21 11:01:07.54	237.73	56.16	-29.7	-30.8	15.0	0.00e+00	0	43	0	617611264	19	4073
2026-01-21 11:01:08.54	238.47	56.28	-30.0	-30.9	14.5	7.00e-07	0	43	0	619708416	20	4014
2026-01-21 11:01:09.55	239.24	56.41	-29.8	-30.4	14.8	0.00e+00	0	43	0	621805568	20	3878
2026-01-21 11:01:10.56	240.00	56.53	-29.2	-29.5	15.7	0.00e+00	0	43	0	623902720	19	3717
2026-01-21 11:01:11.57	240.78	56.64	-29.2	-29.5	15.8	0.00e+00	0	43	0	625999872	19	3731
2026-01-21 11:01:12.57	241.55	56.75	-29.7	-30.7	15.1	0.00e+00	0	43	0	627048448	19	4033
2026-01-21 11:01:13.57	242.33	56.85	-30.1	-31.3	14.4	0.00e+00	0	43	0	629145600	20	4134
2026-01-21 11:01:14.58	243.12	56.95	-29.8	-30.5	14.8	0.00e+00	0	43	0	631242752	20	3905
2026-01-21 11:01:15.58	243.91	57.05	-30.2	-31.6	14.2	0.00e+00	0	43	0	633339904	20	4217
2026-01-21 11:01:16.59	244.72	57.14	-30.7	-32.4	13.3	3.80e-06	0	43	0	635437056	21	4375
2026-01-21 11:01:17.59	245.52	57.22	-31.1	-33.1	12.5	1.17e-04	0	43	0	636485632	22	4498
2026-01-21 11:01:18.59	246.32	57.30	-30.6	-31.5	13.6	2.36e-05	0	43	0	638582784	22	3998
2026-01-21 11:01:19.59	247.13	57.37	-30.3	-31.3	14.0	3.00e-06	0	43	0	640679936	21	4022
2026-01-21 11:01:20.60	247.96	57.44	-30.7	-32.3	13.4	4.50e-06	0	43	0	642777088	21	4345
2026-01-21 11:01:21.60	248.77	57.50	-31.3	-33.6	12.2	6.48e-05	0	43	0	644874240	22	4683
2026-01-21 11:01:22.60	249.60	57.56	-31.2	-32.6	12.6	2.57e-04	0	43	0	645922816	23	4250
2026-01-21 11:01:23.61	250.43	57.61	-31.3	-32.9	12.3	1.51e-04	0	43	0	648019968	23	4343
2026-01-21 11:01:24.61	251.26	57.66	-31.9	-34.8	11.1	7.93e-04	0	43	0	650117120	23	5047
2026-01-21 11:01:25.61	252.09	57.70	-32.1	-35.0	10.5	6.38e-03	0	43	0	652214272	24	5007
2026-01-21 11:01:26.62	252.93	57.73	-31.8	-34.1	11.2	2.32e-03	0	43	0	653262848	24	4673
2026-01-21 11:01:27.62	253.76	57.76	-31.9	-34.4	11.0	1.13e-03	0	43	0	655360000	24	4773
2026-01-21 11:01:28.62	254.60	57.78	-32.0	-34.7	10.7	3.55e-03	0	43	0	657457152	24	4908
2026-01-21 11:01:29.63	255.44	57.80	-32.1	-35.0	10.5	2.88e-03	0	43	0	659554304	24	5035
2026-01-21 11:01:30.63	256.28	57.81	-31.8	-33.9	11.4	3.20e-03	0	43	0	661651456	24	4586
2026-01-21 11:01:31.64	257.13	57.82	-31.2	-32.6	12.6	3.63e-04	0	43	0	663748608	23	4250
2026-01-21 11:01:32.64	257.97	57.82	-30.8	-31.5	13.3	3.89e-05	0	43	0	664797184	23	3924
2026-01-21 11:01:33.64	258.81	57.82	-30.5	-31.3	13.7	1.60e-05	0	43	0	666894336	22	3938
2026-01-21 11:01:34.64	259.64	57.80	-31.2	-33.1	12.5	3.81e-05	0	43	0	668991488	22	4509
2026-01-21 11:01:35.64	260.48	57.79	-31.2	-33.1	12.5	9.30e-05	0	43	0	671088640	22	4496
2026-01-21 11:01:36.64	261.32	57.77	-30.5	-31.1	14.0	1.98e-05	0	43	0	672137216	22	3887
2026-01-21 11:01:37.64	262.15	57.74	-30.5	-31.8	13.6	3.80e-06	0	43	0	674234368	21	4193
2026-01-21 11:01:38.64	262.98	57.70	-30.4	-31.6	13.8	7.60e-06	0	43	0	676331520	21	4105
2026-01-21 11:01:39.64	263.82	57.66	-29.4	-29.6	15.3	0.00e+00	0	43	0	678428672	20	3655
2026-01-21 11:01:40.64	264.64	57.62	-28.2	-28.2	17.1	0.00e+00	0	43	0	680525824	17	3580
2026-01-21 11:01:41.64	265.47	57.57	-28.6	-29.0	16.7	0.00e+00	0	43	0	681574400	17	3774
2026-01-21 11:01:42.64	266.29	57.51	-29.6	-30.4	15.3	0.00e+00	0	43	0	683671552	19	3955
2026-01-21 11:01:43.65	267.12	57.45	-29.5	-30.2	15.3	7.00e-07	0	43	0	685768704	19	3911
2026-01-21 11:01:44.65	267.93	57.39	-29.4	-29.9	15.6	0.00e+00	0	43	0	687865856	19	3814
2026-01-21 11:01:45.66	268.75	57.31	-29.4	-30.0	15.7	0.00e+00	0	43	0	689963008	19	3838
2026-01-21 11:01:46.67	269.56	57.24	-29.2	-29.6	15.8	1.50e-06	0	43	0	691011584	19	3737
2026-01-21 11:01:47.67	270.36	57.15	-29.7	-30.7	15.1	0.00e+00	0	43	0	693108736	19	4029
2026-01-21 11:01:48.67	271.16	57.07	-30.0	-31.0	14.6	0.00e+00	0	43	0	695205888	20	4045
2026-01-21 11:01:49.67	271.95	56.97	-30.5	-31.7	13.7	1.14e-05	0	43	0	697303040	21	4149
2026-01-21 11:01:50.68	272.74	56.87	-30.0	-30.4	14.5	3.00e-06	0	43	0	698351616	21	3794
2026-01-21 11:01:51.68	273.52	56.77	-29.3	-29.3	15.5	0.00e+00	0	43	0	700448768	20	3587
2026-01-21 11:01:52.69	274.30	56.66	-29.9	-30.8	14.7	1.50e-06	0	43	0	702545920	20	3989
2026-01-21 11:01:53.69	275.07	56.55	-30.4	-31.7	13.7	3.00e-06	0	43	0	704643072	21	4161
2026-01-21 11:01:54.69	275.83	56.44	-30.6	-32.2	13.4	7.60e-06	0	43	0	706740224	21	4318
2026-01-21 11:01:55.69	276.59	56.31	-30.8	-32.8	13.0	1.83e-05	0	43	0	708837376	21	4522
2026-01-21 11:01:56.69	277.33	56.19	-30.9	-32.3	13.1	4.19e-05	0	43	0	709885952	22	4268
2026-01-21 11:01:57.70	278.08	56.06	-30.5	-31.3	13.7	1.14e-05	0	43	0	711983104	22	3958
2026-01-21 11:01:58.69	278.81	55.92	-29.7	-30.3	14.9	1.50e-06	0	43	0	714080256	20	3843
2026-01-21 11:01:59.70	279.54	55.79	-29.2	-29.6	15.7	0.00e+00	0	43	0	716177408	19	3747
2026-01-21 11:02:00.70	280.26	55.64	-29.0	-29.1	16.0	0.00e+00	0	43	0	717225984	19	3623
2026-01-21 11:02:01.71	280.98	55.50	-29.6	-30.5	15.1	0.00e+00	0	43	0	719323136	19	3992
2026-01-21 11:02:02.71	281.69	55.35	-30.0	-30.9	14.6	0.00e+00	0	43	0	721420288	20	4014
2026-01-21 11:02:03.71	282.39	55.19	-29.9	-30.9	14.6	0.00e+00	0	43	0	723517440	20	4008
2026-01-21 11:02:04.72	283.08	55.03	-29.9	-30.8	14.7	0.00e+00	0	43	0	725614592	20	3980
2026-01-21 11:02:05.72	283.77	54.87	-29.6	-29.9	15.1	0.00e+00	0	43	0	726663168	20	3753
2026-01-21 11:02:06.73	284.45	54.71	-29.5	-29.7	15.3	0.00e+00	0	43	0	728760320	20	3684
2026-01-21 11:02:07.72	285.11	54.54	-29.7	-30.4	14.9	0.00e+00	0	43	0	730857472	20	3861
2026-01-21 11:02:08.73	285.77	54.37	-30.1	-31.3	14.4	7.00e-07	0	43	0	732954624	20	4126
2026-01-21 11:02:09.72	286.42	54.19	-30.6	-32.0	13.6	6.80e-06	0	43	0	735051776	21	4260
2026-01-21 11:02:10.72	287.06	54.02	-30.6	-32.0	13.7	4.50e-06	0	43	0	736100352	21	4254
2026-01-21 11:02:11.73	287.70	53.84	-30.1	-30.8	14.3	2.20e-06	0	43	0	738197504	21	3903
2026-01-21 11:02:12.73	288.33	53.65	-29.9	-30.3	14.7	0.00e+00	0	43	0	740294656	21	3749
2026-01-21 11:02:13.73	288.95	53.47	-30.0	-30.9	14.6	0.00e+00	0	43	0	742391808	20	4017
2026-01-21 11:02:14.74	289.56	53.28	-29.7	-30.3	15.0	0.00e+00	0	43	0	744488960	20	3852
2026-01-21 11:02:15.75	290.17	53.09	-29.4	-29.6	15.4	0.00e+00	0	43	0	745537536	20	3659
2026-01-21 11:02:16.75	290.77	52.89	-29.3	-29.7	15.7	0.00e+00	0	43	0	747634688	19	3768
2026-01-21 11:02:17.75	291.36	52.70	-29.6	-30.5	15.2	0.00e+00	0	43	0	749731840	19	3983
2026-01-21 11:02:18.75	291.94	52.50	-30.3	-31.9	14.1	1.50e-06	0	43	0	751828992	20	4286
2026-01-21 11:02:19.76	292.52	52.30	-30.9	-33.0	13.0	2.36e-05	0	43	0	753926144	21	4555
2026-01-21 11:02:20.76	293.08	52.10	-32.1	-34.9	10.5	1.18e-03	0	43	0	754974720	24	5008
2026-01-21 11:02:21.76	293.64	51.89	-32.5	-36.4	9.6	4.73e-03	0	43	0	757071872	24	5666
2026-01-21 11:02:22.76	294.19	51.69	-31.8	-33.6	11.2	6.68e-03	0	43	0	759169024	25	4404
2026-01-21 11:02:23.76	294.73	51.48	-31.2	-32.8	12.4	1.62e-04	0	43	0	761266176	23	4301
2026-01-21 11:02:24.76	295.26	51.27	-30.9	-32.4	13.1	3.50e-05	0	43	0	762314752	22	4268
2026-01-21 11:02:25.76	295.79	51.06	-31.4	-33.7	12.3	9.91e-05	0	43	0	764411904	22	4701
2026-01-21 11:02:26.75	296.31	50.85	-31.9	-34.3	11.0	1.90e-03	0	44	0	766509056	24	4754
2026-01-21 11:02:27.76	296.82	50.64	-31.8	-33.9	11.3	1.88e-03	0	43	0	768606208	24	4587
2026-01-21 11:02:28.76	297.33	50.42	-31.6	-33.3	11.8	7.55e-04	0	43	0	770703360	24	4397
2026-01-21 11:02:29.76	297.83	50.21	-32.2	-35.3	10.3	8.48e-04	0	43	0	771751936	24	5159
2026-01-21 11:02:30.76	298.32	49.99	-32.6	-36.3	9.2	1.99e-02	0	43	0	773849088	25	5507
2026-01-21 11:02:31.77	298.81	49.77	-32.5	-35.9	9.4	1.85e-02	0	43	0	775946240	25	5353
2026-01-21 11:02:32.78	299.29	49.55	-31.8	-33.6	11.1	7.80e-03	0	43	0	778043392	25	4425
2026-01-21 11:02:33.78	299.76	49.33	-31.0	-32.1	12.9	1.52e-04	0	43	0	780140544	23	4080
2026-01-21 11:02:34.78	300.22	49.11	-31.0	-32.2	12.9	4.04e-05	0	44	0	781189120	23	4131
2026-01-21 11:02:35.78	300.68	48.88	-31.0	-32.0	13.0	6.94e-05	0	43	0	783286272	23	4064
2026-01-21 11:02:36.78	301.13	48.66	-31.3	-33.1	12.1	1.79e-04	0	43	0	785383424	23	4410
2026-01-21 11:02:37.78	301.58	48.44	-32.0	-35.1	10.8	1.15e-03	0	43	0	787480576	23	5164
2026-01-21 11:02:38.78	302.01	48.21	-32.2	-35.5	10.2	3.50e-03	0	43	0	789577728	24	5247
2026-01-21 11:02:39.78	302.45	47.99	-32.0	-34.5	10.7	3.89e-03	0	43	0	790626304	24	4852
2026-01-21 11:02:40.78	302.87	47.76	-31.2	-32.6	12.4	4.50e-04	0	43	0	792723456	23	4246
2026-01-21 11:02:41.78	303.29	47.54	-30.2	-31.1	14.1	7.60e-06	0	43	0	794820608	21	3971
2026-01-21 11:02:42.79	303.71	47.31	-30.1	-30.8	14.3	2.20e-06	0	43	0	796917760	21	3901
2026-01-21 11:02:43.79	304.12	47.08	-31.1	-33.0	12.6	4.11e-05	0	43	0	799014912	22	4485
2026-01-21 11:02:44.80	304.52	46.85	-31.5	-33.6	11.9	4.35e-04	0	43	0	800063488	23	4573
2026-01-21 11:02:45.80	304.92	46.63	-31.2	-32.6	12.5	1.57e-04	0	43	0	802160640	23	4255
2026-01-21 11:02:46.80	305.31	46.40	-31.3	-33.0	12.3	1.20e-04	0	44	0	804257792	23	4362
2026-01-21 11:02:47.80	305.69	46.17	-31.3	-32.9	12.3	9.99e-05	0	43	0	806354944	23	4343
2026-01-21 11:02:48.80	306.07	45.95	-31.6	-33.8	11.7	2.07e-04	0	43	0	807403520	23	4653
2026-01-21 11:02:49.81	306.45	45.72	-32.3	-35.8	9.9	2.00e-03	0	43	0	809500672	24	5361
2026-01-21 11:02:50.81	306.82	45.49	-32.5	-35.8	9.6	1.32e-02	0	43	0	811597824	25	5269
2026-01-21 11:02:51.82	307.18	45.26	-32.0	-34.3	10.6	5.65e-03	0	43	0	813694976	25	4679
2026-01-21 11:02:52.82	307.54	45.03	-32.0	-34.2	10.8	2.04e-03	0	43	0	815792128	25	4648
2026-01-21 11:02:53.82	307.90	44.81	-32.1	-34.4	10.5	2.68e-03	0	43	0	816840704	25	4717
2026-01-21 11:02:54.82	308.24	44.58	-32.3	-35.2	9.9	6.17e-03	0	43	0	818937856	25	5042
2026-01-21 11:02:55.83	308.59	44.35	-32.7	-36.7	8.9	2.04e-02	0	44	0	821035008	25	5729
2026-01-21 11:02:56.83	308.93	44.12	-32.8	-37.4	8.4	3.51e-02	0	44	0	823132160	25	6054
2026-01-21 11:02:57.82	309.26	43.90	-33.0	-37.7	7.5	9.20e-02	0	43	0	825229312	26	6158
2026-01-21 11:02:58.82	309.59	43.67	-33.0	-37.5	7.8	4.55e-02	0	43	0	826277888	26	6066
2026-01-21 11:02:59.83	309.92	43.45	-33.3	-39.0	6.7	9.57e-02	0	43	0	828375040	26	6947
2026-01-21 11:03:00.83	310.24	43.22	-33.4	-39.5	6.5	2.24e-01	0	44	0	830472192	26	7299
2026-01-21 11:03:01.84	310.56	42.99	-33.6	-40.4	5.4	3.63e-01	0	44	0	832569344	27	7865
2026-01-21 11:03:02.84	310.87	42.77	-33.5	-39.9	5.7	5.89e-01	0	43	0	834666496	27	7497
2026-01-21 11:03:03.84	311.17	42.54	-33.5	-39.6	6.1	3.66e-01	0	43	0	835715072	27	7294
2026-01-21 11:03:04.85	311.48	42.32	-33.5	-39.6	6.0	2.51e-01	0	44	0	837812224	27	7264
2026-01-21 11:03:05.85	311.78	42.10	-33.5	-39.7	6.0	3.91e-01	0	43	0	839909376	27	7312
2026-01-21 11:03:06.85	312.07	41.87	-33.4	-38.8	6.4	3.51e-01	0	43	0	842006528	27	6755
2026-01-21 11:03:07.86	312.37	41.65	-33.3	-38.3	6.8	1.59e-01	0	43	0	844103680	27	6443
2026-01-21 11:03:08.86	312.65	41.43	-33.2	-38.0	6.9	1.73e-01	0	43	0	845152256	27	6236
2026-01-21 11:03:09.86	312.94	41.21	-32.9	-36.5	8.1	1.14e-01	0	43	0	847249408	27	5454
2026-01-21 11:03:10.86	313.22	40.99	-32.5	-35.4	9.4	3.03e-02	0	43	0	849346560	26	5035
2026-01-21 11:03:11.86	313.49	40.77	-31.9	-34.1	10.7	8.63e-03	0	44	0	851443712	25	4597
2026-01-21 11:03:12.86	313.76	40.55	-32.3	-35.3	9.8	8.33e-03	0	43	0	852492288	25	5101
2026-01-21 11:03:13.86	314.03	40.33	-32.3	-35.5	9.6	1.02e-02	0	43	0	854589440	25	5175
2026-01-21 11:03:14.86	314.30	40.11	-32.4	-35.6	9.5	1.14e-02	0	43	0	856686592	25	5231
2026-01-21 11:03:15.85	314.56	39.90	-32.3	-35.3	9.8	1.44e-02	0	43	0	858783744	25	5101
2026-01-21 11:03:16.86	314.82	39.68	-32.5	-35.9	9.4	1.45e-02	0	43	0	860880896	25	5368
2026-01-21 11:03:17.86	315.07	39.46	-32.5	-36.0	9.3	1.89e-02	0	43	0	861929472	25	5404
2026-01-21 11:03:18.86	315.32	39.25	-32.1	-34.5	10.3	1.61e-02	0	43	0	864026624	25	4796
2026-01-21 11:03:19.86	315.57	39.04	-31.5	-33.4	11.5	1.81e-03	0	43	0	866123776	24	4463
2026-01-21 11:03:20.86	315.81	38.82	-31.0	-32.4	12.6	1.98e-04	0	43	0	868220928	23	4197
2026-01-21 11:03:21.87	316.06	38.61	-31.1	-32.4	12.5	1.07e-04	0	44	0	870318080	23	4209
2026-01-21 11:03:22.86	316.29	38.40	-31.7	-34.4	11.2	6.39e-04	0	44	0	871366656	23	4913
2026-01-21 11:03:23.87	316.53	38.18	-32.5	-36.7	9.1	5.30e-03	0	44	0	873463808	24	5849
2026-01-21 11:03:24.88	316.77	37.97	-32.7	-37.1	8.3	6.14e-02	0	43	0	875560960	25	5954
2026-01-21 11:03:25.87	316.99	37.77	-32.2	-35.1	9.7	2.73e-02	0	43	0	877658112	25	5053
2026-01-21 11:03:26.88	317.22	37.55	-31.3	-32.6	12.0	1.49e-03	0	43	0	878706688	24	4206
2026-01-21 11:03:27.88	317.45	37.35	-30.9	-32.1	12.8	7.70e-05	0	43	0	880803840	23	4112
2026-01-21 11:03:28.88	317.67	37.14	-31.0	-32.4	12.6	6.79e-05	0	43	0	882900992	23	4209
2026-01-21 11:03:29.89	317.89	36.93	-30.9	-32.0	12.8	5.95e-05	0	44	0	884998144	23	4086
2026-01-21 11:03:30.89	318.10	36.73	-31.1	-32.6	12.3	8.23e-05	0	43	0	887095296	23	4287
2026-01-21 11:03:31.90	318.32	36.52	-31.7	-34.6	11.0	1.08e-03	0	43	0	889192448	23	4996
2026-01-21 11:03:32.90	318.53	36.32	-32.1	-35.5	9.8	5.10e-03	0	43	0	890241024	24	5331
2026-01-21 11:03:33.90	318.74	36.11	-32.0	-35.2	10.1	9.29e-03	0	44	0	892338176	24	5169
2026-01-21 11:03:34.91	318.95	35.91	-31.8	-34.3	10.8	3.16e-03	0	43	0	894435328	24	4804
2026-01-21 11:03:35.91	319.15	35.71	-31.4	-33.0	11.6	1.15e-03	0	44	0	896532480	24	4340
2026-01-21 11:03:36.91	319.35	35.51	-30.9	-32.1	12.7	1.28e-04	0	43	0	897581056	23	4132
2026-01-21 11:03:37.92	319.55	35.31	-31.0	-32.4	12.4	1.23e-04	0	43	0	899678208	23	4220
2026-01-21 11:03:38.92	319.74	35.11	-30.6	-31.7	13.3	3.12e-05	0	44	0	901775360	22	4082
2026-01-21 11:03:39.92	319.94	34.91	-30.6	-31.6	13.3	1.52e-05	0	44	0	903872512	22	4058
2026-01-21 11:03:40.93	320.13	34.72	-30.9	-32.4	12.9	2.67e-05	0	44	0	905969664	22	4301
2026-01-21 11:03:41.94	320.32	34.52	-31.5	-34.0	11.3	4.65e-04	0	44	0	907018240	23	4799
2026-01-21 11:03:42.94	320.51	34.32	-32.1	-35.5	9.9	4.36e-03	0	43	0	909115392	24	5316
2026-01-21 11:03:43.94	320.69	34.13	-32.5	-36.5	8.7	1.88e-02	0	44	0	911212544	25	5700
2026-01-21 11:03:44.94	320.87	33.94	-32.6	-36.9	8.3	4.74e-02	0	44	0	913309696	25	5909
2026-01-21 11:03:45.94	321.05	33.75	-32.7	-36.9	8.4	4.95e-02	0	44	0	915406848	25	5884
2026-01-21 11:03:46.94	321.23	33.56	-32.3	-35.4	9.6	2.71e-02	0	43	0	916455424	25	5159
2026-01-21 11:03:47.95	321.41	33.36	-31.5	-33.4	11.4	7.00e-03	0	43	0	918552576	24	4449
2026-01-21 11:03:48.95	321.58	33.17	-30.7	-32.0	13.1	8.54e-05	0	43	0	920649728	22	4163
2026-01-21 11:03:49.95	321.76	32.99	-30.3	-31.0	13.7	1.29e-05	0	44	0	922746880	22	3877
2026-01-21 11:03:50.95	321.93	32.80	-29.8	-30.2	14.4	0.00e+00	0	44	0	924844032	21	3774
2026-01-21 11:03:51.96	322.10	32.61	-30.2	-31.2	13.9	2.20e-06	0	44	0	925892608	21	4041
2026-01-21 11:03:52.96	322.26	32.43	-30.6	-32.4	13.0	2.21e-05	0	44	0	927989760	21	4434
2026-01-21 11:03:53.96	322.43	32.24	-31.2	-33.7	11.8	1.23e-04	0	43	0	930086912	22	4815
2026-01-21 11:03:54.96	322.59	32.06	-31.8	-34.8	10.6	1.12e-03	0	43	0	932184064	23	5136
2026-01-21 11:03:55.97	322.75	31.87	-32.0	-35.1	10.1	7.02e-03	0	43	0	934281216	24	5151
2026-01-21 11:03:56.98	322.91	31.69	-32.0	-34.8	10.3	7.21e-03	0	44	0	935329792	24	5012
2026-01-21 11:03:57.98	323.07	31.51	-31.9	-34.7	10.5	7.31e-03	0	43	0	937426944	24	4956
2026-01-21 11:03:58.99	323.23	31.33	-32.0	-35.2	10.0	7.40e-03	0	44	0	939524096	24	5159
2026-01-21 11:04:00.00	323.39	31.14	-31.9	-34.7	10.4	5.34e-03	0	44	0	941621248	24	4971
2026-01-21 11:04:01.00	323.54	30.97	-31.7	-34.0	10.9	2.51e-03	0	43	0	943718400	24	4694
2026-01-21 11:04:02.00	323.69	30.79	-31.6	-33.8	11.1	1.84e-03	0	43	0	944766976	24	4602
2026-01-21 11:04:03.01	323.84	30.61	-31.4	-32.9	11.7	9.83e-04	0	44	0	946864128	24	4312
2026-01-21 11:04:04.01	323.99	30.43	-31.6	-33.6	11.2	1.04e-03	0	43	0	948961280	24	4530
2026-01-21 11:04:05.02	324.13	30.26	-31.7	-34.1	10.8	1.83e-03	0	44	0	951058432	24	4749
2026-01-21 11:04:06.02	324.28	30.08	-32.0	-35.0	10.3	3.16e-03	0	44	0	953155584	24	5073
2026-01-21 11:04:07.02	324.42	29.91	-32.7	-37.0	8.3	2.30e-02	0	44	0	954204160	25	5944
2026-01-21 11:04:08.03	324.57	29.74	-32.5	-36.6	8.6	4.60e-02	0	44	0	956301312	25	5747
2026-01-21 11:04:09.03	324.71	29.57	-32.7	-37.3	8.0	6.45e-02	0	44	0	958398464	25	6129
2026-01-21 11:04:10.03	324.84	29.40	-32.1	-35.2	9.5	2.94e-02	0	44	0	960495616	25	5155
2026-01-21 11:04:11.04	324.98	29.22	-31.6	-34.2	10.5	1.12e-02	0	44	0	962592768	24	4866
2026-01-21 11:04:12.05	325.12	29.05	-30.9	-32.8	11.8	8.31e-04	0	44	0	963641344	23	4497
2026-01-21 11:04:13.05	325.25	28.89	-30.3	-32.1	12.5	1.42e-04	0	44	0	965738496	22	4424
2026-01-21 11:04:14.05	325.39	28.72	-29.5	-31.5	13.1	3.50e-05	0	44	0	967835648	20	4534
2026-01-21 11:04:15.05	325.52	28.55	-28.9	-30.6	13.9	7.60e-06	0	44	0	969932800	19	4408
2026-01-21 11:04:16.06	325.65	28.39	-28.2	-30.8	13.9	3.80e-06	0	43	0	970981376	17	4848
2026-01-21 11:04:17.07	325.78	28.22	-27.6	-30.7	13.9	4.50e-06	0	44	0	973078528	16	5140
2026-01-21 11:04:18.07	325.91	28.06	-26.9	-30.0	14.1	1.50e-06	0	44	0	975175680	15	5146
2026-01-21 11:04:19.08	326.04	27.89	-26.2	-30.9	13.3	1.22e-05	0	43	0	977272832	13	6155
2026-01-21 11:04:20.08	326.16	27.73	-26.1	-30.3	13.8	2.20e-06	0	44	0	979369984	13	5799
2026-01-21 11:04:21.09	326.29	27.57	-26.2	-30.8	13.4	4.50e-06	0	44	0	981467136	13	6102
2026-01-21 11:04:22.09	326.41	27.41	-25.7	-30.8	13.2	2.59e-05	0	43	0	982515712	12	6444
2026-01-21 11:04:23.10	326.53	27.25	-25.7	-30.9	13.3	1.06e-05	0	44	0	984612864	12	6508
2026-01-21 11:04:24.09	326.65	27.09	-25.8	-31.7	12.5	3.73e-05	0	43	0	986710016	12	7078
2026-01-21 11:04:25.10	326.78	26.93	-25.4	-31.2	12.4	8.92e-05	0	43	0	988807168	12	7039
2026-01-21 11:04:26.11	326.89	26.77	-25.3	-31.7	12.3	1.32e-04	0	43	0	989855744	11	7548
2026-01-21 11:04:27.11	327.01	26.61	-25.7	-32.4	12.1	1.79e-04	0	43	0	991952896	11	7786
2026-01-21 11:04:28.12	327.13	26.46	-25.8	-32.7	11.9	2.20e-04	0	43	0	994050048	11	7964
2026-01-21 11:04:29.12	327.24	26.30	-26.2	-32.4	12.1	3.32e-04	0	44	0	996147200	12	7389
2026-01-21 11:04:30.12	327.36	26.15	-26.9	-32.8	12.1	3.82e-04	0	43	0	998244352	13	7120
2026-01-21 11:04:31.13	327.47	25.99	-27.3	-33.1	11.8	3.65e-04	0	44	0	999292928	14	7018
2026-01-21 11:04:32.13	327.58	25.84	-28.6	-33.0	11.9	2.49e-04	0	43	0	1001390080	17	5989
2026-01-21 11:04:33.14	327.70	25.69	-29.7	-33.3	11.9	2.43e-04	0	43	0	1003487232	19	5465
2026-01-21 11:04:34.15	327.81	25.53	-30.0	-34.1	11.5	6.02e-04	0	44	0	1005584384	19	5754
2026-01-21 11:04:35.15	327.92	25.38	-30.6	-33.5	11.7	4.96e-04	0	44	0	1007681536	21	5031
2026-01-21 11:04:36.14	328.02	25.24	-31.0	-34.2	11.0	1.72e-03	0	44	0	1008730112	22	5167
2026-01-21 11:04:37.14	328.13	25.09	-31.1	-33.8	11.4	1.57e-03	0	44	0	1010827264	22	4927
2026-01-21 11:04:38.14	328.23	24.94	-31.1	-34.0	11.2	9.99e-04	0	43	0	1012924416	22	5031
2026-01-21 11:04:39.14	328.34	24.79	-31.1	-34.2	11.0	1.93e-03	0	43	0	1015021568	22	5140
2026-01-21 11:04:40.15	328.44	24.64	-30.5	-32.3	12.4	4.16e-04	0	43	0	1017118720	22	4421
2026-01-21 11:04:41.15	328.55	24.50	-30.2	-32.2	12.5	1.21e-04	0	44	0	1018167296	21	4498
2026-01-21 11:04:42.16	328.65	24.35	-29.8	-31.2	13.2	4.95e-05	0	43	0	1020264448	21	4189
2026-01-21 11:04:43.16	328.75	24.21	-29.5	-30.8	13.8	6.80e-06	0	44	0	1022361600	20	4185
2026-01-21 11:04:44.16	328.85	24.06	-29.7	-31.4	13.4	1.29e-05	0	44	0	1024458752	20	4378
2026-01-21 11:04:45.16	328.95	23.92	-29.3	-30.5	13.9	4.50e-06	0	44	0	1026555904	20	4102
2026-01-21 11:04:46.17	329.05	23.78	-29.5	-31.5	13.7	4.50e-06	0	43	0	1027604480	19	4521
2026-01-21 11:04:47.18	329.15	23.63	-29.5	-31.4	13.8	4.50e-06	0	43	0	1029701632	19	4464
2026-01-21 11:04:48.19	329.25	23.49	-29.7	-31.9	13.5	1.44e-05	0	44	0	1031798784	19	4654
2026-01-21 11:04:49.19	329.34	23.35	-29.9	-32.5	13.0	1.67e-05	0	44	0	1033895936	19	4848
2026-01-21 11:04:50.19	329.44	23.21	-30.2	-32.9	12.4	5.95e-05	0	44	0	1035993088	20	4898
2026-01-21 11:04:51.19	329.53	23.07	-30.2	-32.9	12.4	1.33e-04	0	43	0	1037041664	20	4919
2026-01-21 11:04:52.20	329.63	22.93	-30.4	-33.5	12.0	2.81e-04	0	43	0	1039138816	20	5122
2026-01-21 11:04:53.20	329.72	22.80	-30.6	-33.5	11.6	5.77e-04	0	43	0	1041235968	21	5047
2026-01-21 11:04:54.20	329.81	22.66	-30.6	-33.4	11.6	4.79e-04	0	43	0	1043333120	21	4986
2026-01-21 11:04:55.20	329.91	22.52	-30.6	-33.2	11.9	4.34e-04	0	44	0	1044381696	21	4879
2026-01-21 11:04:56.21	330.00	22.39	-30.5	-32.8	12.2	3.26e-04	0	44	0	1046478848	21	4716
2026-01-21 11:04:57.21	330.09	22.25	-30.6	-33.0	12.1	3.18e-04	0	43	0	1048576000	21	4764
2026-01-21 11:04:58.21	330.18	22.12	-30.6	-33.1	12.1	1.97e-04	0	44	0	1050673152	21	4777
2026-01-21 11:04:59.21	330.26	21.99	-30.4	-32.4	12.5	1.91e-04	0	43	0	1052770304	21	4540
2026-01-21 11:05:00.21	330.35	21.85	-30.4	-32.3	12.6	1.14e-04	0	43	0	1053818880	21	4511
2026-01-21 11:05:01.21	330.44	21.72	-30.3	-32.0	12.8	5.56e-05	0	44	0	1055916032	21	4393
2026-01-21 11:05:02.22	330.53	21.59	-30.3	-31.9	12.9	4.57e-05	0	44	0	1058013184	21	4340
2026-01-21 11:05:03.22	330.61	21.46	-30.4	-32.1	12.8	4.88e-05	0	43	0	1060110336	21	4399
2026-01-21 11:05:04.23	330.70	21.32	-30.4	-32.3	12.6	8.31e-05	0	44	0	1062207488	21	4470
2026-01-21 11:05:05.24	330.78	21.19	-30.5	-32.3	12.7	8.01e-05	0	43	0	1063256064	21	4449
2026-01-21 11:05:06.24	330.87	21.06	-30.7	-32.9	12.3	1.56e-04	0	43	0	1065353216	21	4632
2026-01-21 11:05:07.25	330.95	20.94	-30.6	-32.7	12.5	1.25e-04	0	44	0	1067450368	21	4560
2026-01-21 11:05:08.25	331.03	20.81	-30.7	-32.9	12.3	1.59e-04	0	44	0	1069547520	21	4631
2026-01-21 11:05:09.25	331.11	20.68	-30.4	-32.2	12.8	1.11e-04	0	43	0	1071644672	21	4392
2026-01-21 11:05:10.26	331.19	20.55	-30.1	-31.2	13.4	2.28e-05	0	43	0	1072693248	21	4093
2026-01-21 11:05:11.26	331.27	20.43	-29.9	-30.6	13.8	6.10e-06	0	44	0	1074790400	21	3906
2026-01-21 11:05:12.25	331.35	20.30	-29.8	-30.9	14.0	1.50e-06	0	44	0	1076887552	20	4062
2026-01-21 11:05:13.26	331.43	20.18	-29.7	-30.6	14.1	7.00e-07	0	44	0	1078984704	20	3990
2026-01-21 11:05:14.26	331.51	20.05	-29.8	-30.9	13.9	1.50e-06	0	44	0	1081081856	20	4056
2026-01-21 11:05:15.26	331.59	19.93	-29.8	-30.8	14.0	3.80e-06	0	43	0	1082130432	20	4044
2026-01-21 11:05:16.27	331.67	19.80	-29.8	-30.7	14.1	3.00e-06	0	43	0	1084227584	20	4009
2026-01-21 11:05:17.27	331.74	19.68	-29.9	-31.1	13.8	2.20e-06	0	43	0	1086324736	20	4126
2026-01-21 11:05:18.28	331.82	19.56	-29.6	-30.3	14.4	7.00e-07	0	43	0	1088421888	20	3899
2026-01-21 11:05:19.28	331.90	19.44	-29.6	-30.4	14.2	7.00e-07	0	44	0	1089470464	20	3945
2026-01-21 11:05:20.28	331.97	19.31	-29.8	-30.8	14.0	2.20e-06	0	44	0	1091567616	20	4050
2026-01-21 11:05:21.29	332.05	19.19	-29.7	-30.6	14.1	7.00e-07	0	44	0	1093664768	20	3991
2026-01-21 11:05:22.29	332.12	19.07	-29.8	-31.0	13.8	4.50e-06	0	44	0	1095761920	20	4107
2026-01-21 11:05:23.29	332.19	18.95	-29.9	-31.0	13.8	4.50e-06	0	43	0	1097859072	20	4107
2026-01-21 11:05:24.29	332.27	18.83	-29.9	-31.1	13.7	4.50e-06	0	44	0	1099956224	20	4138
2026-01-21 11:05:25.30	332.34	18.72	-29.9	-31.1	13.7	3.00e-06	0	43	0	1101004800	20	4156
2026-01-21 11:05:26.30	332.41	18.60	-29.8	-30.9	13.9	3.80e-06	0	43	0	1103101952	20	4090
2026-01-21 11:05:27.31	332.48	18.48	-30.0	-31.4	13.6	1.14e-05	0	43	0	1105199104	20	4229
2026-01-21 11:05:28.31	332.55	18.36	-29.9	-31.2	13.7	3.80e-06	0	43	0	1107296256	20	4189
2026-01-21 11:05:29.31	332.62	18.25	-30.0	-31.3	13.6	5.30e-06	0	43	0	1108344832	20	4210
2026-01-21 11:05:30.31	332.69	18.13	-30.0	-31.5	13.5	3.80e-06	0	44	0	1110441984	20	4265
2026-01-21 11:05:31.32	332.76	18.01	-30.1	-31.7	13.3	1.14e-05	0	44	0	1112539136	20	4337
2026-01-21 11:05:32.33	332.83	17.90	-30.2	-32.0	13.1	2.13e-05	0	43	0	1114636288	20	4429
2026-01-21 11:05:33.33	332.90	17.78	-30.2	-32.1	13.1	3.58e-05	0	44	0	1116733440	20	4452
2026-01-21 11:05:34.34	332.97	17.67	-30.2	-32.0	13.1	2.59e-05	0	43	0	1117782016	20	4438
2026-01-21 11:05:35.35	333.04	17.56	-30.4	-32.5	12.7	3.43e-05	0	43	0	1119879168	20	4604
2026-01-21 11:05:36.35	333.10	17.44	-30.5	-32.5	12.4	9.46e-05	0	43	0	1121976320	21	4511
2026-01-21 11:05:37.36	333.17	17.33	-30.6	-32.7	12.3	2.04e-04	0	44	0	1124073472	21	4578
2026-01-21 11:05:38.37	333.24	17.22	-30.6	-32.8	12.2	1.62e-04	0	43	0	1126170624	21	4614
2026-01-21 11:05:39.37	333.30	17.11	-30.7	-33.0	12.1	2.77e-04	0	44	0	1127219200	21	4683
2026-01-21 11:05:40.38	333.37	16.99	-30.7	-32.9	12.1	1.94e-04	0	44	0	1129316352	21	4665
2026-01-21 11:05:41.38	333.43	16.88	-30.7	-32.8	12.1	2.93e-04	0	43	0	1131413504	21	4627
2026-01-21 11:05:42.39	333.50	16.77	-30.6	-32.8	12.2	2.02e-04	0	43	0	1133510656	21	4612
2026-01-21 11:05:43.39	333.56	16.66	-30.8	-33.1	11.9	2.98e-04	0	44	0	1135607808	21	4722
2026-01-21 11:05:44.39	333.62	16.55	-30.8	-33.2	11.9	3.47e-04	0	44	0	1136656384	21	4740
2026-01-21 11:05:45.39	333.69	16.45	-30.8	-33.3	11.8	3.77e-04	0	44	0	1138753536	21	4770
2026-01-21 11:05:46.40	333.75	16.34	-30.9	-33.5	11.7	5.80e-04	0	44	0	1140850688	21	4866
2026-01-21 11:05:47.39	333.81	16.23	-30.9	-33.6	11.6	7.69e-04	0	44	0	1142947840	21	4896
2026-01-21 11:05:48.39	333.87	16.12	-30.8	-33.4	11.8	5.47e-04	0	44	0	1145044992	21	4818
2026-01-21 11:05:49.40	333.94	16.02	-31.0	-33.8	11.5	5.99e-04	0	43	0	1146093568	21	4997
2026-01-21 11:05:50.40	334.00	15.91	-31.3	-34.1	10.8	1.80e-03	0	43	0	1148190720	22	5021
2026-01-21 11:05:51.40	334.06	15.80	-31.4	-34.5	10.6	4.43e-03	0	43	0	1150287872	22	5155
2026-01-21 11:05:52.40	334.12	15.70	-31.1	-33.5	11.3	1.98e-03	0	44	0	1152385024	22	4779
2026-01-21 11:05:53.41	334.18	15.59	-30.9	-33.0	11.7	7.29e-04	0	44	0	1154482176	22	4588
2026-01-21 11:05:54.41	334.24	15.49	-30.8	-32.6	11.9	3.52e-04	0	43	0	1155530752	22	4442
2026-01-21 11:05:55.41	334.29	15.38	-30.6	-32.1	12.3	1.88e-04	0	43	0	1157627904	22	4284
2026-01-21 11:05:56.41	334.35	15.28	-30.5	-31.9	12.4	1.54e-04	0	43	0	1159725056	22	4226
2026-01-21 11:05:57.42	334.41	15.18	-30.5	-31.8	12.5	1.05e-04	0	44	0	1161822208	22	4199
2026-01-21 11:05:58.42	334.47	15.07	-30.4	-31.6	12.6	9.84e-05	0	44	0	1162870784	22	4132
2026-01-21 11:05:59.42	334.53	14.97	-30.4	-31.6	12.6	7.47e-05	0	43	0	1164967936	22	4113
2026-01-21 11:06:00.42	334.58	14.87	-30.4	-31.7	12.6	8.46e-05	0	43	0	1167065088	22	4142
2026-01-21 11:06:01.42	334.64	14.77	-30.4	-31.5	12.7	1.05e-04	0	44	0	1169162240	22	4083
2026-01-21 11:06:02.42	334.70	14.67	-30.2	-31.6	12.9	4.57e-05	0	44	0	1171259392	21	4207
2026-01-21 11:06:03.42	334.75	14.56	-30.2	-31.3	13.1	4.34e-05	0	43	0	1172307968	21	4126
2026-01-21 11:06:04.42	334.81	14.46	-30.1	-31.1	13.2	2.59e-05	0	44	0	1174405120	21	4066
2026-01-21 11:06:05.42	334.86	14.36	-30.0	-30.8	13.4	9.90e-06	0	44	0	1176502272	21	3974
2026-01-21 11:06:06.42	334.92	14.27	-30.0	-30.9	13.3	1.44e-05	0	44	0	1178599424	21	4005
2026-01-21 11:06:07.43	334.97	14.16	-29.8	-30.5	13.5	1.44e-05	0	44	0	1180696576	21	3890
2026-01-21 11:06:08.43	335.03	14.07	-29.8	-30.4	13.6	1.22e-05	0	44	0	1181745152	21	3866
2026-01-21 11:06:09.44	335.08	13.97	-29.8	-30.4	13.6	9.10e-06	0	43	0	1183842304	21	3868
2026-01-21 11:06:10.44	335.13	13.87	-29.8	-30.3	13.7	8.30e-06	0	44	0	1185939456	21	3835
2026-01-21 11:06:11.45	335.19	13.77	-29.8	-30.9	13.7	5.30e-06	0	44	0	1188036608	20	4074
2026-01-21 11:06:12.44	335.24	13.67	-29.8	-31.0	13.6	4.50e-06	0	43	0	1190133760	20	4104
2026-01-21 11:06:13.45	335.29	13.58	-29.8	-30.9	13.6	6.10e-06	0	44	0	1191182336	20	4084
2026-01-21 11:06:14.45	335.35	13.48	-29.8	-31.0	13.5	1.29e-05	0	43	0	1193279488	20	4128
2026-01-21 11:06:15.45	335.40	13.38	-29.8	-31.0	13.5	7.60e-06	0	44	0	1195376640	20	4135
2026-01-21 11:06:16.45	335.45	13.29	-29.9	-31.2	13.4	9.10e-06	0	43	0	1197473792	20	4185
2026-01-21 11:06:17.45	335.50	13.19	-29.9	-31.3	13.3	2.13e-05	0	43	0	1199570944	20	4203
2026-01-21 11:06:18.45	335.55	13.10	-29.9	-31.3	13.3	2.05e-05	0	43	0	1200619520	20	4227
2026-01-21 11:06:19.46	335.60	13.00	-30.0	-31.6	13.1	2.67e-05	0	43	0	1202716672	20	4306
2026-01-21 11:06:20.46	335.65	12.91	-30.2	-32.0	12.9	3.20e-05	0	43	0	1204813824	20	4441
2026-01-21 11:06:21.46	335.70	12.81	-30.3	-32.3	12.7	7.40e-05	0	43	0	1206910976	20	4541
2026-01-21 11:06:22.47	335.75	12.72	-30.2	-32.1	12.7	8.23e-05	0	43	0	1207959552	20	4484
2026-01-21 11:06:23.48	335.80	12.62	-30.3	-32.4	12.5	1.09e-04	0	43	0	1210056704	20	4582
2026-01-21 11:06:24.48	335.85	12.53	-30.4	-32.5	12.5	1.04e-04	0	43	0	1212153856	20	4606
2026-01-21 11:06:25.48	335.90	12.44	-30.4	-32.6	12.4	1.47e-04	0	43	0	1214251008	20	4642
2026-01-21 11:06:26.49	335.95	12.34	-30.5	-32.3	12.3	1.71e-04	0	43	0	1216348160	21	4455
2026-01-21 11:06:27.49	336.00	12.25	-30.6	-32.8	11.9	3.12e-04	0	44	0	1218445312	21	4639
2026-01-21 11:06:28.50	336.05	12.16	-30.6	-32.8	11.8	4.81e-04	0	44	0	1219493888	21	4651
2026-01-21 11:06:29.50	336.10	12.07	-30.7	-32.9	11.8	3.51e-04	0	43	0	1221591040	21	4686
2026-01-21 11:06:30.50	336.14	11.98	-30.6	-32.8	11.9	4.61e-04	0	43	0	1223688192	21	4618
2026-01-21 11:06:31.50	336.19	11.89	-30.7	-33.0	11.8	4.74e-04	0	43	0	1225785344	21	4714
2026-01-21 11:06:32.50	336.24	11.80	-30.7	-33.0	11.7	6.81e-04	0	43	0	1226833920	21	4718
2026-01-21 11:06:33.51	336.28	11.71	-30.7	-33.0	11.7	5.08e-04	0	44	0	1228931072	21	4709
2026-01-21 11:06:34.51	336.33	11.62	-30.8	-33.3	11.5	8.92e-04	0	44	0	1231028224	21	4805
2026-01-21 11:06:35.51	336.38	11.53	-30.7	-33.2	11.5	7.11e-04	0	43	0	1233125376	21	4782
2026-01-21 11:06:36.51	336.42	11.44	-30.9	-33.6	11.3	8.31e-04	0	43	0	1235222528	21	4933
2026-01-21 11:06:37.52	336.47	11.35	-30.9	-33.2	11.2	1.65e-03	0	44	0	1236271104	22	4707
2026-01-21 11:06:38.52	336.51	11.26	-30.7	-32.5	11.7	8.50e-04	0	44	0	1238368256	22	4461
2026-01-21 11:06:39.52	336.56	11.17	-30.5	-32.0	12.1	3.42e-04	0	43	0	1240465408	22	4276
2026-01-21 11:06:40.52	336.61	11.08	-30.4	-31.7	12.2	2.17e-04	0	43	0	1242562560	22	4194
2026-01-21 11:06:41.53	336.65	10.99	-30.4	-31.6	12.3	1.62e-04	0	44	0	1244659712	22	4156
2026-01-21 11:06:42.53	336.69	10.91	-30.4	-31.7	12.2	1.55e-04	0	43	0	1245708288	22	4187
2026-01-21 11:06:43.53	336.74	10.82	-30.4	-31.7	12.3	2.29e-04	0	43	0	1247805440	22	4171
2026-01-21 11:06:44.54	336.78	10.73	-30.3	-31.5	12.4	1.58e-04	0	44	0	1249902592	22	4133
2026-01-21 11:06:45.54	336.83	10.65	-30.2	-31.8	12.5	1.32e-04	0	44	0	1251999744	21	4302
2026-01-21 11:06:46.54	336.87	10.56	-30.3	-31.8	12.4	1.31e-04	0	44	0	1254096896	21	4321
2026-01-21 11:06:47.55	336.91	10.47	-30.3	-32.0	12.3	1.45e-04	0	44	0	1255145472	21	4384
2026-01-21 11:06:48.55	336.96	10.39	-30.2	-31.8	12.4	1.75e-04	0	43	0	1257242624	21	4301
2026-01-21 11:06:49.55	337.00	10.30	-30.2	-31.8	12.4	9.99e-05	0	44	0	1259339776	21	4306
2026-01-21 11:06:50.55	337.04	10.22	-30.2	-31.6	12.6	1.07e-04	0	44	0	1261436928	21	4232
2026-01-21 11:06:51.55	337.09	10.13	-30.2	-31.7	12.4	1.33e-04	0	44	0	1263534080	21	4285
2026-01-21 11:06:52.55	337.13	10.05	-30.2	-31.6	12.5	8.39e-05	0	43	0	1264582656	21	4255
2026-01-21 11:06:53.55	337.17	9.96	-30.2	-31.8	12.4	1.20e-04	0	44	0	1266679808	21	4324
2026-01-21 11:06:54.56	337.21	9.88	-30.2	-31.6	12.5	1.15e-04	0	44	0	1268776960	21	4253
2026-01-21 11:06:55.56	337.25	9.80	-30.2	-31.8	12.4	1.22e-04	0	44	0	1270874112	21	4328
2026-01-21 11:06:56.56	337.30	9.71	-30.2	-31.6	12.5	1.42e-04	0	44	0	1271922688	21	4263
2026-01-21 11:06:57.56	337.34	9.63	-30.2	-31.8	12.4	1.11e-04	0	44	0	1274019840	21	4312
2026-01-21 11:06:58.57	337.38	9.55	-30.2	-31.8	12.4	1.65e-04	0	44	0	1276116992	21	4300
2026-01-21 11:06:59.57	337.42	9.46	-30.2	-31.6	12.5	1.45e-04	0	43	0	1278214144	21	4252
2026-01-21 11:07:00.58	337.46	9.38	-30.2	-31.8	12.4	1.14e-04	0	44	0	1280311296	21	4304
