passes_logs/2026/01/21/R2M6_AANII_01/R2M6_AANII_01__20260121_232414_NOAA_20_JPSS-1_rec.log

#Pass ID: 20260121_232414_NOAA 20 (JPSS-1)
#Satellite: NOAA 20 (JPSS-1)
#Configuration: NOAA 20
#almurnet v.1.7.20240730
#Start time: 2026-01-21 23:24:16

#Version: 2.2.20231116
#Station: R2M6_AANII_01
#Location: 30.233357 lon 59.946436 lat
#TLE: 1 43013U 17073A   26021.46221703  .00000173  00000+0  10299-3 0  9999
#TLE: 2 43013  98.7644 322.3335 0001238  29.7597 330.3649 14.19538314423652

#Time	Az	El	Level	Level2	SNR	BER	BlckErr	Temp	State	Recorded	gain1	gain2
2026-01-21 23:24:16.61	24.06	7.12	-31.6	-38.1	4.9	1.28e+00	0	42	0	0	23	7684
2026-01-21 23:24:17.61	24.12	7.19	-31.7	-39.1	4.8	1.31e+00	0	42	104	0	23	8353
2026-01-21 23:24:18.61	24.17	7.26	-31.8	-39.3	6.6	2.36e-01	0	42	0	0	23	8502
2026-01-21 23:24:19.62	24.23	7.34	-31.7	-38.8	7.0	1.74e-01	0	42	0	1048576	23	8125
2026-01-21 23:24:20.62	24.29	7.41	-31.6	-38.0	7.6	1.14e-01	0	42	0	3145728	23	7538
2026-01-21 23:24:21.63	24.35	7.48	-31.5	-37.7	7.8	1.17e-01	0	42	0	5242880	23	7342
2026-01-21 23:24:22.63	24.40	7.56	-31.4	-37.3	8.1	7.78e-02	0	42	0	7340032	23	7081
2026-01-21 23:24:23.63	24.46	7.63	-31.4	-37.6	8.3	5.30e-02	0	42	0	9437184	22	7329
2026-01-21 23:24:24.63	24.52	7.70	-31.4	-37.4	8.4	4.68e-02	0	42	0	10485760	22	7235
2026-01-21 23:24:25.64	24.58	7.78	-31.5	-37.9	8.1	4.74e-02	0	42	0	12582912	22	7558
2026-01-21 23:24:26.64	24.64	7.85	-31.4	-37.5	8.4	6.66e-02	0	42	0	14680064	22	7285
2026-01-21 23:24:27.64	24.70	7.93	-31.4	-37.5	8.4	3.31e-02	0	42	0	16777216	22	7260
2026-01-21 23:24:28.64	24.76	8.00	-31.4	-37.5	8.5	3.24e-02	0	42	0	17825792	22	7268
2026-01-21 23:24:29.65	24.82	8.08	-31.5	-37.9	8.2	4.60e-02	0	42	0	19922944	22	7532
2026-01-21 23:24:30.65	24.88	8.15	-31.5	-37.6	8.0	7.89e-02	0	42	0	22020096	23	7227
2026-01-21 23:24:31.66	24.94	8.23	-31.3	-37.2	8.7	4.03e-02	0	42	0	24117248	22	7099
2026-01-21 23:24:32.65	25.00	8.30	-31.5	-37.5	8.1	4.88e-02	0	42	0	26214400	23	7153
2026-01-21 23:24:33.66	25.06	8.38	-31.4	-37.2	8.4	5.25e-02	0	42	0	27262976	23	6954
2026-01-21 23:24:34.67	25.13	8.45	-31.5	-37.6	8.1	5.32e-02	0	43	0	29360128	23	7220
2026-01-21 23:24:35.67	25.19	8.53	-31.5	-37.4	8.1	6.86e-02	0	42	0	31457280	23	7123
2026-01-21 23:24:36.67	25.25	8.60	-31.4	-37.3	8.7	4.20e-02	0	42	0	33554432	22	7104
2026-01-21 23:24:37.67	25.31	8.68	-31.3	-37.1	8.8	3.18e-02	0	43	0	35651584	22	7016
2026-01-21 23:24:38.68	25.38	8.76	-31.2	-36.5	9.3	2.84e-02	0	43	0	36700160	22	6657
2026-01-21 23:24:39.68	25.44	8.83	-31.1	-36.1	9.6	1.87e-02	0	43	0	38797312	22	6451
2026-01-21 23:24:40.69	25.50	8.91	-30.9	-36.0	10.0	8.39e-03	0	42	0	40894464	21	6471
2026-01-21 23:24:41.70	25.57	8.99	-30.7	-35.5	10.4	6.19e-03	0	42	0	42991616	21	6226
2026-01-21 23:24:42.70	25.63	9.07	-30.8	-35.6	10.4	5.30e-03	0	43	0	45088768	21	6273
2026-01-21 23:24:43.70	25.70	9.15	-30.7	-35.5	10.4	5.16e-03	0	43	0	46137344	21	6210
2026-01-21 23:24:44.70	25.76	9.22	-30.8	-35.7	10.3	5.90e-03	0	43	0	48234496	21	6345
2026-01-21 23:24:45.71	25.83	9.30	-30.8	-35.7	10.2	7.68e-03	0	43	0	50331648	21	6345
2026-01-21 23:24:46.70	25.89	9.38	-30.8	-35.6	10.3	5.29e-03	0	43	0	52428800	21	6277
2026-01-21 23:24:47.71	25.96	9.46	-30.8	-35.8	10.2	6.14e-03	0	43	0	54525952	21	6361
2026-01-21 23:24:48.71	26.02	9.54	-30.9	-36.1	9.9	7.25e-03	0	43	0	55574528	21	6555
2026-01-21 23:24:49.71	26.09	9.62	-30.9	-36.1	9.9	7.83e-03	0	43	0	57671680	21	6542
2026-01-21 23:24:50.72	26.16	9.69	-31.2	-36.5	9.3	1.49e-02	0	43	0	59768832	22	6648
2026-01-21 23:24:51.72	26.22	9.77	-31.1	-36.3	9.5	1.88e-02	0	43	0	61865984	22	6510
2026-01-21 23:24:52.72	26.29	9.85	-31.1	-36.1	9.7	1.16e-02	0	43	0	63963136	22	6393
2026-01-21 23:24:53.73	26.36	9.93	-31.0	-36.0	9.8	1.15e-02	0	43	0	65011712	22	6346
2026-01-21 23:24:54.73	26.43	10.01	-31.0	-35.9	9.8	1.04e-02	0	43	0	67108864	22	6308
2026-01-21 23:24:55.74	26.50	10.09	-31.0	-35.7	10.0	9.49e-03	0	43	0	69206016	22	6173
2026-01-21 23:24:56.74	26.57	10.18	-31.0	-35.8	10.0	8.05e-03	0	43	0	71303168	22	6230
2026-01-21 23:24:57.74	26.63	10.26	-31.1	-36.0	9.8	1.05e-02	0	43	0	73400320	22	6334
2026-01-21 23:24:58.74	26.70	10.34	-31.2	-36.4	9.5	1.16e-02	0	43	0	74448896	22	6570
2026-01-21 23:24:59.74	26.77	10.42	-31.1	-36.0	9.8	2.13e-02	0	43	0	76546048	22	6353
2026-01-21 23:25:00.75	26.84	10.50	-30.9	-35.2	10.4	5.53e-03	0	43	0	78643200	22	5927
2026-01-21 23:25:01.75	26.91	10.58	-30.6	-34.4	11.0	2.87e-03	0	43	0	80740352	22	5547
2026-01-21 23:25:02.75	26.99	10.66	-30.6	-34.6	11.2	2.02e-03	0	43	0	81788928	21	5753
2026-01-21 23:25:03.75	27.06	10.74	-30.5	-34.6	11.2	1.32e-03	0	43	0	83886080	21	5760
2026-01-21 23:25:04.76	27.13	10.83	-30.4	-34.2	11.5	1.46e-03	0	43	0	85983232	21	5582
2026-01-21 23:25:05.76	27.20	10.91	-30.3	-33.9	11.8	1.02e-03	0	43	0	88080384	21	5424
2026-01-21 23:25:06.77	27.27	10.99	-30.2	-33.6	12.0	4.08e-04	0	43	0	90177536	21	5312
2026-01-21 23:25:07.78	27.35	11.08	-30.3	-34.4	11.8	5.07e-04	0	43	0	91226112	20	5758
2026-01-21 23:25:08.78	27.42	11.16	-30.4	-34.5	11.7	6.82e-04	0	43	0	93323264	20	5814
2026-01-21 23:25:09.79	27.49	11.25	-30.3	-34.5	11.7	5.47e-04	0	43	0	95420416	20	5789
2026-01-21 23:25:10.79	27.57	11.33	-30.3	-34.4	11.8	4.65e-04	0	43	0	97517568	20	5758
2026-01-21 23:25:11.79	27.64	11.41	-30.5	-34.5	11.3	9.80e-04	0	43	0	99614720	21	5702
2026-01-21 23:25:12.80	27.72	11.50	-30.7	-35.0	11.0	1.45e-03	0	43	0	100663296	21	5932
2026-01-21 23:25:13.80	27.79	11.58	-30.6	-34.7	11.2	1.51e-03	0	43	0	102760448	21	5767
2026-01-21 23:25:14.81	27.87	11.67	-30.4	-34.1	11.6	9.35e-04	0	43	0	104857600	21	5534
2026-01-21 23:25:15.81	27.95	11.75	-30.3	-33.8	11.9	4.64e-04	0	43	0	106954752	21	5385
2026-01-21 23:25:16.81	28.02	11.84	-30.2	-33.5	12.1	5.42e-04	0	43	0	109051904	21	5261
2026-01-21 23:25:17.81	28.10	11.92	-30.1	-33.3	12.2	2.10e-04	0	43	0	110100480	21	5185
2026-01-21 23:25:18.81	28.18	12.01	-30.2	-33.3	12.2	1.81e-04	0	43	0	112197632	21	5198
2026-01-21 23:25:19.81	28.25	12.09	-30.1	-33.3	12.3	3.16e-04	0	43	0	114294784	21	5164
2026-01-21 23:25:20.81	28.33	12.18	-30.3	-34.3	11.9	2.78e-04	0	43	0	116391936	20	5699
2026-01-21 23:25:21.81	28.41	12.27	-30.2	-33.9	12.2	2.76e-04	0	43	0	118489088	20	5511
2026-01-21 23:25:22.82	28.49	12.36	-30.0	-33.5	12.5	4.68e-04	0	43	0	119537664	20	5349
2026-01-21 23:25:23.81	28.57	12.44	-29.9	-33.2	12.7	3.62e-04	0	43	0	121634816	20	5235
2026-01-21 23:25:24.81	28.65	12.53	-29.9	-33.2	12.7	5.87e-05	0	43	0	123731968	20	5250
2026-01-21 23:25:25.82	28.73	12.62	-30.0	-33.3	12.6	3.77e-04	0	44	0	125829120	20	5272
2026-01-21 23:25:26.82	28.81	12.70	-30.0	-33.8	12.4	6.71e-04	0	43	0	127926272	19	5571
2026-01-21 23:25:27.83	28.89	12.79	-29.9	-33.1	12.5	6.94e-05	0	43	0	128974848	20	5181
2026-01-21 23:25:28.83	28.97	12.88	-30.0	-33.3	12.7	6.94e-05	0	43	0	131072000	20	5265
2026-01-21 23:25:29.83	29.06	12.97	-30.0	-33.2	12.4	1.30e-03	0	43	0	133169152	20	5256
2026-01-21 23:25:30.83	29.14	13.06	-30.0	-33.7	12.7	7.24e-04	0	43	0	135266304	19	5532
2026-01-21 23:25:31.83	29.22	13.15	-29.9	-33.6	12.9	3.89e-05	0	43	0	136314880	19	5481
2026-01-21 23:25:32.83	29.31	13.24	-30.0	-33.7	12.8	4.88e-05	0	44	0	138412032	19	5527
2026-01-21 23:25:33.84	29.39	13.33	-29.9	-33.5	13.0	5.18e-05	0	43	0	140509184	19	5457
2026-01-21 23:25:34.84	29.47	13.42	-29.9	-33.4	13.0	2.74e-05	0	44	0	142606336	19	5400
2026-01-21 23:25:35.84	29.56	13.51	-29.9	-33.6	13.0	4.34e-05	0	43	0	144703488	19	5472
2026-01-21 23:25:36.85	29.65	13.60	-29.8	-33.3	13.1	3.35e-05	0	43	0	145752064	19	5388
2026-01-21 23:25:37.84	29.73	13.69	-29.9	-33.5	13.0	2.97e-05	0	44	0	147849216	19	5440
2026-01-21 23:25:38.84	29.82	13.78	-29.9	-33.5	13.0	2.51e-05	0	44	0	149946368	19	5430
2026-01-21 23:25:39.84	29.90	13.87	-30.0	-33.7	12.9	4.50e-05	0	43	0	152043520	19	5509
2026-01-21 23:25:40.84	29.99	13.97	-29.9	-33.6	13.0	1.01e-03	0	44	0	154140672	19	5475
2026-01-21 23:25:41.84	30.08	14.06	-29.9	-33.5	13.0	2.44e-05	0	44	0	155189248	19	5429
2026-01-21 23:25:42.85	30.17	14.15	-29.9	-33.6	12.9	3.58e-05	0	44	0	157286400	19	5487
2026-01-21 23:25:43.85	30.26	14.24	-30.0	-33.3	12.7	9.29e-04	0	44	0	159383552	20	5279
2026-01-21 23:25:44.86	30.35	14.34	-30.2	-33.8	12.4	7.67e-04	0	43	0	161480704	20	5465
2026-01-21 23:25:45.86	30.44	14.43	-30.0	-33.4	12.7	1.19e-04	0	43	0	163577856	20	5305
2026-01-21 23:25:46.86	30.53	14.52	-29.9	-33.0	13.0	4.80e-05	0	44	0	164626432	20	5159
2026-01-21 23:25:47.86	30.62	14.62	-29.8	-33.3	13.2	1.02e-03	0	44	0	166723584	19	5352
2026-01-21 23:25:48.85	30.71	14.71	-29.8	-33.2	13.2	4.73e-05	0	44	0	168820736	19	5337
2026-01-21 23:25:49.86	30.80	14.81	-29.8	-33.3	13.2	2.21e-05	0	44	0	170917888	19	5345
2026-01-21 23:25:50.86	30.90	14.90	-29.9	-33.5	13.1	8.30e-04	0	43	0	171966464	19	5421
2026-01-21 23:25:51.86	30.99	15.00	-29.8	-33.3	13.3	3.73e-05	0	43	0	174063616	19	5342
2026-01-21 23:25:52.86	31.08	15.09	-29.7	-32.9	13.5	7.60e-06	0	44	0	176160768	19	5187
2026-01-21 23:25:53.87	31.18	15.19	-29.7	-33.0	13.4	1.22e-05	0	43	0	178257920	19	5240
2026-01-21 23:25:54.87	31.28	15.28	-29.8	-33.1	13.4	1.44e-05	0	44	0	180355072	19	5281
2026-01-21 23:25:55.87	31.37	15.38	-29.8	-33.2	13.3	1.75e-05	0	43	0	181403648	19	5333
2026-01-21 23:25:56.87	31.47	15.48	-29.8	-33.1	13.3	2.13e-05	0	44	0	183500800	19	5286
2026-01-21 23:25:57.88	31.57	15.57	-29.8	-33.3	13.2	1.75e-05	0	44	0	185597952	19	5360
2026-01-21 23:25:58.89	31.66	15.67	-30.0	-33.2	12.9	2.74e-05	0	44	0	187695104	20	5222
2026-01-21 23:25:59.89	31.76	15.77	-30.2	-33.9	12.4	1.28e-04	0	44	0	189792256	20	5501
2026-01-21 23:26:00.89	31.86	15.87	-30.1	-33.5	12.7	1.23e-04	0	44	0	190840832	20	5326
2026-01-21 23:26:01.90	31.96	15.97	-30.1	-33.4	12.7	7.40e-05	0	44	0	192937984	20	5316
2026-01-21 23:26:02.91	32.06	16.07	-30.2	-33.8	12.5	3.75e-04	0	44	0	195035136	20	5448
2026-01-21 23:26:03.91	32.16	16.16	-30.2	-33.8	12.5	1.20e-04	0	44	0	197132288	20	5451
2026-01-21 23:26:04.92	32.26	16.27	-30.3	-34.0	12.4	1.28e-04	0	43	0	199229440	20	5531
2026-01-21 23:26:05.92	32.37	16.36	-30.2	-33.9	12.4	5.32e-04	0	44	0	200278016	20	5493
2026-01-21 23:26:06.93	32.47	16.47	-30.3	-34.0	12.4	5.29e-04	0	44	0	202375168	20	5541
2026-01-21 23:26:07.93	32.57	16.57	-30.4	-34.4	12.1	1.62e-04	0	44	0	204472320	20	5704
2026-01-21 23:26:08.93	32.68	16.67	-30.6	-34.5	11.8	8.13e-04	0	44	0	206569472	21	5630
2026-01-21 23:26:09.93	32.78	16.77	-30.8	-35.1	11.3	1.23e-03	0	44	0	208666624	21	5904
2026-01-21 23:26:10.93	32.89	16.87	-30.5	-34.3	11.9	9.47e-04	0	44	0	209715200	21	5531
2026-01-21 23:26:11.93	32.99	16.97	-30.4	-33.9	12.2	3.83e-04	0	44	0	211812352	21	5375
2026-01-21 23:26:12.94	33.10	17.07	-29.6	-32.7	12.5	1.52e-04	0	44	0	213909504	21	5156
2026-01-21 23:26:13.93	33.21	17.17	-30.2	-33.8	12.5	1.23e-04	0	44	0	216006656	20	5474
2026-01-21 23:26:14.94	33.32	17.28	-30.2	-33.9	12.6	9.99e-05	0	44	0	218103808	20	5466
2026-01-21 23:26:15.94	33.42	17.38	-30.5	-34.5	11.8	2.10e-04	0	44	0	219152384	20	5765
2026-01-21 23:26:16.94	33.53	17.48	-30.3	-33.9	12.2	1.96e-04	0	44	0	221249536	20	5505
2026-01-21 23:26:17.94	33.64	17.59	-30.2	-33.7	12.7	9.00e-05	0	44	0	223346688	20	5387
2026-01-21 23:26:18.95	33.76	17.69	-30.1	-33.5	12.5	1.29e-04	0	43	0	225443840	20	5306
2026-01-21 23:26:19.94	33.87	17.79	-30.1	-33.4	12.8	5.41e-05	0	44	0	226492416	20	5289
2026-01-21 23:26:20.95	33.98	17.90	-30.1	-33.6	12.7	4.02e-04	0	44	0	228589568	20	5367
2026-01-21 23:26:21.96	34.09	18.00	-30.1	-33.6	12.7	8.75e-04	0	44	0	230686720	20	5364
2026-01-21 23:26:22.96	34.21	18.11	-30.3	-34.1	12.4	1.19e-04	0	44	0	232783872	20	5580
2026-01-21 23:26:23.96	34.32	18.22	-30.1	-33.6	12.7	5.80e-04	0	44	0	234881024	20	5350
2026-01-21 23:26:24.96	34.44	18.32	-30.0	-33.3	13.0	6.55e-04	0	44	0	235929600	20	5221
2026-01-21 23:26:25.96	34.55	18.43	-30.0	-33.1	13.1	2.59e-05	0	44	0	238026752	20	5155
2026-01-21 23:26:26.96	34.67	18.53	-30.0	-33.1	13.1	8.28e-04	0	44	0	240123904	20	5161
2026-01-21 23:26:27.96	34.79	18.64	-30.1	-33.4	12.9	1.05e-03	0	44	0	242221056	20	5293
2026-01-21 23:26:28.96	34.91	18.75	-30.1	-33.3	12.9	2.85e-04	0	44	0	244318208	20	5239
2026-01-21 23:26:29.96	35.03	18.86	-30.1	-33.4	12.9	1.20e-03	0	44	0	245366784	20	5288
2026-01-21 23:26:30.96	35.15	18.96	-30.1	-33.5	12.8	9.62e-04	0	44	0	247463936	20	5324
2026-01-21 23:26:31.97	35.27	19.07	-30.2	-33.7	12.7	2.72e-04	0	44	0	249561088	20	5392
2026-01-21 23:26:32.97	35.39	19.18	-30.4	-34.2	12.4	7.84e-04	0	44	0	251658240	20	5600
2026-01-21 23:26:33.97	35.51	19.29	-30.3	-34.0	12.5	7.15e-04	0	44	0	253755392	20	5515
2026-01-21 23:26:34.97	35.64	19.40	-30.4	-34.4	12.3	1.23e-04	0	44	0	254803968	20	5682
2026-01-21 23:26:35.97	35.76	19.51	-30.3	-34.1	12.4	1.50e-04	0	44	0	256901120	20	5547
2026-01-21 23:26:36.98	35.89	19.62	-30.4	-34.3	12.3	3.46e-04	0	44	0	258998272	20	5654
2026-01-21 23:26:37.98	36.01	19.73	-30.5	-34.1	12.2	2.08e-04	0	44	0	261095424	21	5444
2026-01-21 23:26:38.98	36.14	19.84	-30.3	-33.5	12.5	1.20e-04	0	44	0	263192576	21	5197
2026-01-21 23:26:39.98	36.27	19.95	-30.2	-33.3	12.7	3.84e-04	0	44	0	264241152	21	5122
2026-01-21 23:26:40.98	36.40	20.07	-30.2	-33.7	12.7	7.40e-05	0	44	0	266338304	20	5382
2026-01-21 23:26:41.98	36.53	20.18	-30.2	-33.8	12.7	1.64e-04	0	44	0	268435456	20	5421
2026-01-21 23:26:42.98	36.66	20.29	-30.3	-34.1	12.5	4.16e-04	0	44	0	270532608	20	5537
2026-01-21 23:26:43.99	36.79	20.40	-30.3	-34.0	12.6	1.01e-04	0	44	0	272629760	20	5512
2026-01-21 23:26:45.00	36.92	20.52	-30.4	-34.3	12.4	4.78e-04	0	44	0	273678336	20	5638
2026-01-21 23:26:46.01	37.06	20.63	-30.4	-34.3	12.4	4.49e-04	0	44	0	275775488	20	5623
2026-01-21 23:26:47.00	37.19	20.75	-30.5	-34.5	12.2	4.22e-04	0	44	0	277872640	20	5731
2026-01-21 23:26:48.00	37.33	20.86	-30.4	-33.9	12.3	4.71e-04	0	44	0	279969792	21	5343
2026-01-21 23:26:49.01	37.46	20.98	-30.5	-34.2	12.1	2.87e-04	0	44	0	281018368	21	5480
2026-01-21 23:26:50.01	37.60	21.09	-30.7	-34.7	11.8	6.17e-04	0	44	0	283115520	21	5702
2026-01-21 23:26:51.01	37.74	21.21	-30.6	-34.4	12.0	5.26e-04	0	44	0	285212672	21	5571
2026-01-21 23:26:52.02	37.88	21.32	-30.5	-34.1	12.2	2.81e-04	0	44	0	287309824	21	5431
2026-01-21 23:26:53.02	38.02	21.44	-30.5	-34.0	12.3	2.49e-04	0	44	0	289406976	21	5402
2026-01-21 23:26:54.02	38.16	21.55	-30.5	-33.9	12.4	1.38e-04	0	44	0	290455552	21	5347
2026-01-21 23:26:55.03	38.31	21.67	-30.5	-34.0	12.3	1.53e-04	0	44	0	292552704	21	5376
2026-01-21 23:26:56.03	38.45	21.79	-30.4	-33.7	12.5	1.21e-04	0	44	0	294649856	21	5272
2026-01-21 23:26:57.03	38.59	21.91	-30.3	-33.5	12.6	7.85e-05	0	44	0	296747008	21	5188
2026-01-21 23:26:58.03	38.74	22.02	-30.3	-33.4	12.7	1.02e-04	0	44	0	298844160	21	5165
2026-01-21 23:26:59.03	38.89	22.14	-30.3	-33.5	12.7	7.01e-05	0	44	0	299892736	21	5180
2026-01-21 23:27:00.03	39.03	22.26	-30.3	-33.5	12.7	7.93e-05	0	44	0	301989888	21	5168
2026-01-21 23:27:01.04	39.18	22.38	-30.4	-33.7	12.6	1.11e-04	0	44	0	304087040	21	5256
2026-01-21 23:27:02.05	39.34	22.50	-30.5	-34.1	12.3	1.33e-04	0	44	0	306184192	21	5413
2026-01-21 23:27:03.05	39.49	22.62	-30.3	-33.4	12.7	8.69e-05	0	44	0	308281344	21	5152
2026-01-21 23:27:04.06	39.64	22.74	-30.2	-33.2	12.9	1.22e-04	0	44	0	309329920	21	5081
2026-01-21 23:27:05.06	39.79	22.86	-30.2	-33.1	12.9	1.17e-04	0	44	0	311427072	21	5036
2026-01-21 23:27:06.07	39.95	22.99	-30.3	-33.5	12.7	6.71e-05	0	44	0	313524224	21	5169
2026-01-21 23:27:07.07	40.11	23.11	-30.2	-33.0	13.0	8.39e-05	0	44	0	315621376	21	5005
2026-01-21 23:27:08.08	40.26	23.23	-30.1	-32.8	13.1	4.95e-05	0	44	0	317718528	21	4932
2026-01-21 23:27:09.08	40.42	23.35	-30.1	-32.9	13.1	2.89e-05	0	44	0	318767104	21	4948
2026-01-21 23:27:10.08	40.58	23.47	-30.1	-32.7	13.2	3.35e-05	0	44	0	320864256	21	4894
2026-01-21 23:27:11.07	40.74	23.59	-30.0	-32.5	13.4	2.36e-05	0	44	0	322961408	21	4815
2026-01-21 23:27:12.08	40.90	23.72	-29.9	-32.3	13.5	1.22e-05	0	44	0	325058560	21	4731
2026-01-21 23:27:13.09	41.07	23.84	-30.0	-32.5	13.4	1.98e-05	0	44	0	327155712	21	4815
2026-01-21 23:27:14.08	41.23	23.97	-29.9	-32.3	13.5	1.60e-05	0	44	0	328204288	21	4737
2026-01-21 23:27:15.09	41.40	24.09	-29.9	-32.3	13.6	5.30e-06	0	44	0	330301440	21	4728
2026-01-21 23:27:16.09	41.56	24.22	-30.0	-32.4	13.4	9.10e-06	0	44	0	332398592	21	4788
2026-01-21 23:27:17.09	41.73	24.34	-29.9	-32.4	13.5	1.37e-05	0	44	0	334495744	21	4766
2026-01-21 23:27:18.10	41.90	24.47	-30.0	-32.6	13.3	1.14e-05	0	44	0	335544320	21	4844
2026-01-21 23:27:19.10	42.07	24.59	-30.0	-32.4	13.5	7.60e-06	0	44	0	337641472	21	4769
2026-01-21 23:27:20.10	42.25	24.72	-29.9	-32.3	13.5	1.22e-05	0	44	0	339738624	21	4731
2026-01-21 23:27:21.11	42.42	24.84	-29.9	-32.3	13.6	6.10e-06	0	44	0	341835776	21	4737
2026-01-21 23:27:22.10	42.59	24.97	-30.0	-32.6	13.3	1.22e-05	0	44	0	343932928	21	4835
2026-01-21 23:27:23.11	42.77	25.10	-29.9	-32.3	13.6	1.44e-05	0	44	0	344981504	21	4741
2026-01-21 23:27:24.11	42.95	25.22	-30.1	-32.8	13.2	1.98e-05	0	44	0	347078656	21	4900
2026-01-21 23:27:25.12	43.13	25.35	-29.9	-32.3	13.5	1.75e-05	0	44	0	349175808	21	4744
2026-01-21 23:27:26.12	43.31	25.48	-29.9	-32.2	13.7	9.90e-06	0	44	0	351272960	21	4680
2026-01-21 23:27:27.13	43.49	25.61	-29.8	-32.0	13.8	3.80e-06	0	44	0	353370112	21	4626
2026-01-21 23:27:28.13	43.68	25.74	-29.8	-32.5	13.8	5.30e-06	0	44	0	354418688	20	4908
2026-01-21 23:27:29.13	43.86	25.87	-29.8	-32.3	13.9	7.00e-07	0	44	0	356515840	20	4843
2026-01-21 23:27:30.13	44.05	26.00	-29.8	-32.5	13.8	4.50e-06	0	44	0	358612992	20	4904
2026-01-21 23:27:31.13	44.24	26.13	-29.9	-32.8	13.6	6.80e-06	0	44	0	360710144	20	4994
2026-01-21 23:27:32.13	44.42	26.26	-29.9	-32.6	13.7	6.80e-06	0	44	0	362807296	20	4935
2026-01-21 23:27:33.14	44.62	26.39	-29.9	-32.7	13.7	2.20e-06	0	44	0	363855872	20	4963
2026-01-21 23:27:34.14	44.81	26.52	-29.9	-32.8	13.6	6.80e-06	0	44	0	365953024	20	5008
2026-01-21 23:27:35.15	45.00	26.65	-30.0	-32.8	13.5	9.10e-06	0	44	0	368050176	20	5013
2026-01-21 23:27:36.15	45.20	26.78	-30.1	-33.1	13.3	9.10e-06	0	44	0	370147328	20	5128
2026-01-21 23:27:37.16	45.40	26.91	-30.2	-33.4	13.2	1.37e-05	0	44	0	372244480	20	5238
2026-01-21 23:27:38.17	45.60	27.05	-30.2	-33.5	13.2	1.75e-05	0	44	0	373293056	20	5256
2026-01-21 23:27:39.17	45.80	27.18	-30.3	-33.8	13.0	2.74e-05	0	44	0	375390208	20	5379
2026-01-21 23:27:40.18	46.00	27.31	-30.4	-33.9	12.9	5.26e-05	0	44	0	377487360	20	5434
2026-01-21 23:27:41.18	46.21	27.44	-30.3	-33.8	13.0	2.67e-05	0	44	0	379584512	20	5361
2026-01-21 23:27:42.18	46.41	27.58	-30.3	-33.7	13.0	3.50e-05	0	44	0	381681664	20	5355
2026-01-21 23:27:43.18	46.62	27.71	-30.3	-33.8	13.0	4.50e-05	0	44	0	382730240	20	5385
2026-01-21 23:27:44.18	46.83	27.84	-30.4	-34.0	12.9	5.03e-05	0	44	0	384827392	20	5466
2026-01-21 23:27:45.19	47.04	27.98	-30.4	-34.0	12.8	5.34e-05	0	44	0	386924544	20	5478
2026-01-21 23:27:46.19	47.25	28.11	-30.4	-34.1	12.8	7.93e-05	0	44	0	389021696	20	5515
2026-01-21 23:27:47.19	47.46	28.24	-30.4	-33.9	12.9	4.95e-05	0	44	0	391118848	20	5435
2026-01-21 23:27:48.20	47.68	28.38	-30.4	-34.1	12.8	6.79e-05	0	44	0	392167424	20	5494
2026-01-21 23:27:49.20	47.90	28.51	-30.4	-34.0	12.9	5.56e-05	0	44	0	394264576	20	5464
2026-01-21 23:27:50.20	48.12	28.65	-30.5	-33.8	12.7	8.31e-05	0	44	0	396361728	21	5277
2026-01-21 23:27:51.20	48.34	28.78	-30.5	-33.8	12.7	7.85e-05	0	44	0	398458880	21	5254
2026-01-21 23:27:52.19	48.56	28.92	-30.5	-34.0	12.6	8.31e-05	0	44	0	399507456	21	5337
2026-01-21 23:27:53.20	48.79	29.05	-30.7	-34.3	12.4	1.17e-04	0	44	0	401604608	21	5463
2026-01-21 23:27:54.20	49.01	29.19	-30.7	-34.6	12.2	8.04e-04	0	44	0	403701760	21	5586
2026-01-21 23:27:55.20	49.24	29.32	-30.7	-34.4	12.3	1.98e-04	0	44	0	405798912	21	5523
2026-01-21 23:27:56.21	49.47	29.46	-30.9	-35.0	11.9	2.97e-04	0	44	0	407896064	21	5761
2026-01-21 23:27:57.21	49.70	29.60	-31.0	-35.3	11.7	1.33e-03	0	44	0	408944640	21	5888
2026-01-21 23:27:58.22	49.94	29.73	-30.9	-35.0	11.9	4.54e-04	0	44	0	411041792	21	5753
2026-01-21 23:27:59.22	50.18	29.87	-30.9	-34.9	12.0	3.81e-04	0	44	0	413138944	21	5721
2026-01-21 23:28:00.22	50.41	30.01	-30.8	-34.8	12.0	3.64e-04	0	44	0	415236096	21	5678
2026-01-21 23:28:01.23	50.66	30.14	-30.9	-34.9	11.9	4.15e-04	0	44	0	417333248	21	5736
2026-01-21 23:28:02.23	50.90	30.28	-30.8	-34.7	12.1	2.90e-04	0	44	0	418381824	21	5651
2026-01-21 23:28:03.23	51.14	30.42	-30.9	-35.1	11.8	3.34e-04	0	44	0	420478976	21	5832
2026-01-21 23:28:04.23	51.39	30.55	-31.2	-35.3	11.3	1.04e-03	0	44	0	422576128	22	5793
2026-01-21 23:28:05.24	51.64	30.69	-31.0	-34.9	11.6	8.10e-04	0	44	0	424673280	22	5633
2026-01-21 23:28:06.24	51.89	30.83	-30.9	-34.6	11.9	5.32e-04	0	44	0	426770432	22	5495
2026-01-21 23:28:07.24	52.14	30.96	-30.8	-34.3	12.1	2.75e-04	0	44	0	427819008	22	5351
2026-01-21 23:28:08.24	52.39	31.10	-30.8	-34.2	12.2	1.98e-04	0	44	0	429916160	22	5313
2026-01-21 23:28:09.25	52.65	31.24	-30.8	-34.1	12.2	2.20e-04	0	44	0	432013312	22	5288
2026-01-21 23:28:10.25	52.91	31.38	-30.8	-34.1	12.2	1.92e-04	0	44	0	434110464	22	5278
2026-01-21 23:28:11.25	53.17	31.51	-30.9	-34.3	12.1	2.30e-04	0	44	0	436207616	22	5364
2026-01-21 23:28:12.26	53.44	31.65	-31.0	-34.9	11.7	3.62e-04	0	44	0	437256192	22	5605
2026-01-21 23:28:13.26	53.70	31.79	-31.1	-35.1	11.6	5.49e-04	0	44	0	439353344	22	5688
2026-01-21 23:28:14.27	53.97	31.93	-31.2	-35.5	11.2	1.40e-03	0	44	0	441450496	22	5906
2026-01-21 23:28:15.27	54.24	32.06	-31.3	-35.7	11.1	1.38e-03	0	44	0	443547648	22	6002
2026-01-21 23:28:16.28	54.52	32.20	-31.4	-36.2	10.7	2.01e-03	0	44	0	445644800	22	6231
2026-01-21 23:28:17.28	54.79	32.34	-31.5	-35.8	10.7	3.31e-03	0	44	0	446693376	23	5916
2026-01-21 23:28:18.28	55.07	32.48	-31.4	-35.4	11.0	2.01e-03	0	44	0	448790528	23	5727
2026-01-21 23:28:19.28	55.34	32.61	-31.4	-35.6	10.8	1.96e-03	0	44	0	450887680	23	5840
2026-01-21 23:28:20.28	55.63	32.75	-31.5	-35.8	10.7	2.66e-03	0	44	0	452984832	23	5929
2026-01-21 23:28:21.28	55.91	32.88	-31.6	-36.3	10.4	3.83e-03	0	44	0	454033408	23	6150
2026-01-21 23:28:22.28	56.19	33.02	-31.7	-36.5	10.2	6.29e-03	0	44	0	456130560	23	6263
2026-01-21 23:28:23.28	56.48	33.16	-31.8	-36.8	10.0	6.96e-03	0	44	0	458227712	23	6441
2026-01-21 23:28:24.28	56.77	33.29	-31.8	-36.8	10.0	8.30e-03	0	44	0	460324864	23	6428
2026-01-21 23:28:25.29	57.07	33.43	-31.9	-37.1	9.7	1.08e-02	0	44	0	462422016	23	6611
2026-01-21 23:28:26.29	57.36	33.57	-31.8	-36.9	9.9	9.79e-03	0	44	0	463470592	23	6466
2026-01-21 23:28:27.29	57.66	33.70	-31.9	-37.4	9.5	1.04e-02	0	44	0	465567744	23	6735
2026-01-21 23:28:28.29	57.96	33.84	-31.9	-37.2	9.7	1.11e-02	0	44	0	467664896	23	6640
2026-01-21 23:28:29.30	58.27	33.97	-32.0	-37.3	9.2	1.53e-02	0	44	0	469762048	24	6584
2026-01-21 23:28:30.31	58.57	34.11	-32.1	-37.7	8.8	2.37e-02	0	44	0	471859200	24	6861
2026-01-21 23:28:31.31	58.88	34.24	-32.3	-38.3	8.5	4.34e-02	0	44	0	472907776	24	7178
2026-01-21 23:28:32.31	59.19	34.38	-32.2	-38.1	8.5	4.24e-02	0	44	0	475004928	24	7064
2026-01-21 23:28:33.32	59.51	34.51	-32.2	-38.1	8.7	4.05e-02	0	44	0	477102080	24	7051
2026-01-21 23:28:34.33	59.83	34.64	-32.2	-38.0	8.7	3.71e-02	0	44	0	479199232	24	6983
2026-01-21 23:28:35.32	60.14	34.78	-32.3	-38.3	8.4	4.42e-02	0	44	0	481296384	24	7192
2026-01-21 23:28:36.32	60.46	34.91	-32.3	-38.4	8.3	4.33e-02	0	44	0	482344960	24	7262
2026-01-21 23:28:37.32	60.78	35.04	-32.4	-38.7	8.1	6.07e-02	0	44	0	484442112	24	7488
2026-01-21 23:28:38.33	61.11	35.17	-32.3	-38.3	8.5	4.34e-02	0	44	0	486539264	24	7178
2026-01-21 23:28:39.33	61.44	35.30	-32.3	-38.2	8.5	4.34e-02	0	44	0	488636416	24	7098
2026-01-21 23:28:40.33	61.77	35.43	-32.3	-38.3	8.5	4.72e-02	0	44	0	490733568	24	7171
2026-01-21 23:28:41.33	62.10	35.56	-32.3	-38.2	8.6	3.74e-02	0	44	0	491782144	24	7129
2026-01-21 23:28:42.34	62.44	35.70	-32.3	-38.4	8.4	5.21e-02	0	44	0	493879296	24	7226
2026-01-21 23:28:43.34	62.78	35.82	-32.1	-37.6	9.0	3.46e-02	0	44	0	495976448	24	6785
2026-01-21 23:28:44.34	63.12	35.95	-31.9	-36.8	9.6	1.82e-02	0	44	0	498073600	24	6312
2026-01-21 23:28:45.34	63.46	36.08	-31.8	-36.5	9.9	1.03e-02	0	44	0	500170752	24	6133
2026-01-21 23:28:46.35	63.81	36.21	-31.6	-35.8	10.4	5.15e-03	0	44	0	501219328	24	5787
2026-01-21 23:28:47.36	64.17	36.34	-31.6	-35.6	10.5	4.80e-03	0	44	0	503316480	24	5721
2026-01-21 23:28:48.37	64.52	36.46	-31.5	-35.5	10.6	3.68e-03	0	44	0	505413632	24	5651
2026-01-21 23:28:49.37	64.88	36.59	-31.5	-35.3	10.8	3.27e-03	0	44	0	507510784	24	5565
2026-01-21 23:28:50.37	65.23	36.71	-31.5	-35.3	10.8	2.57e-03	0	44	0	509607936	24	5571
2026-01-21 23:28:51.37	65.59	36.84	-31.6	-35.6	10.5	3.27e-03	0	44	0	510656512	24	5702
2026-01-21 23:28:52.38	65.96	36.96	-31.7	-36.0	10.3	3.94e-03	0	44	0	512753664	24	5890
2026-01-21 23:28:53.38	66.33	37.08	-31.8	-36.3	10.0	7.93e-03	0	44	0	514850816	24	6068
2026-01-21 23:28:54.38	66.69	37.20	-31.6	-35.7	10.5	6.00e-03	0	44	0	516947968	24	5761
2026-01-21 23:28:55.38	67.06	37.32	-31.5	-35.2	10.9	2.81e-03	0	44	0	517996544	24	5536
2026-01-21 23:28:56.38	67.44	37.44	-31.2	-35.0	11.4	1.43e-03	0	44	0	520093696	23	5521
2026-01-21 23:28:57.39	67.82	37.56	-31.0	-34.3	11.9	8.68e-04	0	44	0	522190848	23	5226
2026-01-21 23:28:58.40	68.20	37.68	-30.8	-33.7	12.3	2.20e-04	0	44	0	524288000	23	5013
2026-01-21 23:28:59.40	68.58	37.80	-30.9	-33.8	12.3	1.69e-04	0	44	0	526385152	23	5022
2026-01-21 23:29:00.40	68.97	37.91	-31.0	-34.1	12.1	2.14e-04	0	44	0	527433728	23	5154
2026-01-21 23:29:01.39	69.35	38.03	-31.1	-34.5	11.7	4.52e-04	0	44	0	529530880	23	5321
2026-01-21 23:29:02.40	69.74	38.14	-31.3	-35.0	11.4	8.22e-04	0	44	0	531628032	23	5550
2026-01-21 23:29:03.41	70.14	38.25	-31.3	-35.1	11.4	8.54e-04	0	44	0	533725184	23	5570
2026-01-21 23:29:04.41	70.53	38.36	-31.3	-35.0	11.5	9.83e-04	0	44	0	535822336	23	5518
2026-01-21 23:29:05.41	70.93	38.47	-31.2	-34.6	11.7	6.10e-04	0	44	0	536870912	23	5359
2026-01-21 23:29:06.41	71.33	38.58	-31.2	-34.8	11.6	6.57e-04	0	44	0	538968064	23	5447
2026-01-21 23:29:07.41	71.74	38.69	-31.4	-35.4	11.1	1.17e-03	0	44	0	541065216	23	5722
2026-01-21 23:29:08.41	72.14	38.80	-31.5	-35.8	10.8	1.92e-03	0	44	0	543162368	23	5890
2026-01-21 23:29:09.41	72.55	38.90	-31.7	-36.3	10.4	3.81e-03	0	44	0	545259520	23	6129
2026-01-21 23:29:10.41	72.96	39.01	-31.6	-36.1	10.6	3.53e-03	0	44	0	546308096	23	6024
2026-01-21 23:29:11.41	73.37	39.11	-31.7	-36.3	10.6	3.08e-03	0	44	0	548405248	23	6124
2026-01-21 23:29:12.41	73.79	39.21	-31.7	-36.4	10.4	4.52e-03	0	44	0	550502400	23	6169
2026-01-21 23:29:13.42	74.21	39.31	-31.7	-36.6	10.4	3.73e-03	0	44	0	552599552	23	6264
2026-01-21 23:29:14.43	74.64	39.41	-31.9	-37.1	9.9	7.70e-03	0	44	0	554696704	23	6541
2026-01-21 23:29:15.42	75.06	39.51	-31.9	-37.3	9.8	1.01e-02	0	44	0	555745280	23	6648
2026-01-21 23:29:16.42	75.48	39.60	-31.9	-37.0	9.9	1.09e-02	0	44	0	557842432	23	6517
2026-01-21 23:29:17.43	75.92	39.70	-31.7	-36.3	10.5	6.50e-03	0	44	0	559939584	23	6153
2026-01-21 23:29:18.43	76.35	39.79	-31.5	-35.7	10.9	2.58e-03	0	44	0	562036736	23	5851
2026-01-21 23:29:19.43	76.78	39.88	-31.3	-35.1	11.4	1.37e-03	0	44	0	563085312	23	5564
2026-01-21 23:29:20.43	77.22	39.97	-31.2	-34.7	11.6	8.28e-04	0	44	0	565182464	23	5402
2026-01-21 23:29:21.43	77.66	40.06	-31.3	-35.0	11.4	6.13e-04	0	44	0	567279616	23	5516
2026-01-21 23:29:22.44	78.10	40.14	-31.4	-35.3	11.3	1.48e-03	0	44	0	569376768	23	5646
2026-01-21 23:29:23.44	78.54	40.23	-31.5	-35.7	10.9	1.28e-03	0	44	0	571473920	23	5832
2026-01-21 23:29:24.44	78.99	40.31	-31.7	-36.4	10.4	3.06e-03	0	44	0	572522496	23	6173
2026-01-21 23:29:25.44	79.44	40.39	-31.7	-36.2	10.6	3.50e-03	0	44	0	574619648	23	6085
2026-01-21 23:29:26.45	79.89	40.47	-31.6	-36.1	10.6	3.93e-03	0	44	0	576716800	23	6032
2026-01-21 23:29:27.45	80.34	40.55	-31.6	-35.9	10.8	2.83e-03	0	44	0	578813952	23	5947
2026-01-21 23:29:28.45	80.80	40.62	-31.4	-35.4	11.1	2.56e-03	0	44	0	580911104	23	5723
2026-01-21 23:29:29.46	81.26	40.70	-31.1	-34.7	11.5	8.88e-04	0	44	0	581959680	23	5451
2026-01-21 23:29:30.45	81.71	40.77	-31.4	-35.3	11.3	8.62e-04	0	44	0	584056832	23	5653
2026-01-21 23:29:31.46	82.18	40.84	-31.7	-36.3	10.4	2.08e-03	0	44	0	586153984	23	6145
2026-01-21 23:29:32.47	82.64	40.91	-32.0	-37.0	9.6	1.13e-02	0	44	0	588251136	24	6399
2026-01-21 23:29:33.47	83.11	40.98	-32.0	-37.0	9.7	1.07e-02	0	44	0	590348288	24	6388
2026-01-21 23:29:34.47	83.57	41.04	-31.9	-36.6	9.9	1.10e-02	0	44	0	591396864	24	6164
2026-01-21 23:29:35.47	84.04	41.10	-31.8	-36.2	10.2	6.01e-03	0	44	0	593494016	24	6003
2026-01-21 23:29:36.48	84.52	41.16	-31.9	-36.5	10.0	5.88e-03	0	44	0	595591168	24	6123
2026-01-21 23:29:37.48	84.99	41.22	-31.9	-36.5	10.0	8.51e-03	0	44	0	597688320	24	6149
2026-01-21 23:29:38.48	85.46	41.28	-31.8	-36.1	10.3	6.59e-03	0	44	0	599785472	24	5922
2026-01-21 23:29:39.48	85.93	41.33	-31.9	-36.6	10.0	5.39e-03	0	44	0	600834048	24	6185
2026-01-21 23:29:40.49	86.42	41.38	-32.2	-37.4	9.3	1.81e-02	0	44	0	602931200	24	6625
2026-01-21 23:29:41.49	86.89	41.43	-32.3	-38.1	8.8	1.98e-02	0	44	0	605028352	24	7041
2026-01-21 23:29:42.49	87.37	41.48	-32.3	-38.0	8.8	3.87e-02	0	44	0	607125504	24	6960
2026-01-21 23:29:43.49	87.85	41.53	-32.1	-37.4	9.3	2.31e-02	0	44	0	608174080	24	6603
2026-01-21 23:29:44.49	88.33	41.57	-32.0	-36.7	9.8	1.20e-02	0	44	0	610271232	24	6234
2026-01-21 23:29:45.50	88.82	41.61	-31.7	-35.8	10.5	6.24e-03	0	44	0	612368384	24	5787
2026-01-21 23:29:46.50	89.31	41.65	-31.5	-35.1	11.0	1.98e-03	0	44	0	614465536	24	5469
2026-01-21 23:29:47.50	89.79	41.69	-31.5	-35.3	10.9	1.64e-03	0	44	0	616562688	24	5537
2026-01-21 23:29:48.51	90.28	41.72	-31.6	-35.6	10.7	2.98e-03	0	44	0	617611264	24	5700
2026-01-21 23:29:49.51	90.77	41.76	-31.8	-36.2	10.2	5.54e-03	0	44	0	619708416	24	6000
2026-01-21 23:29:50.51	91.26	41.79	-31.7	-35.9	10.5	7.01e-03	0	44	0	621805568	24	5799
2026-01-21 23:29:51.51	91.75	41.81	-31.4	-34.8	11.3	2.68e-03	0	44	0	623902720	24	5314
2026-01-21 23:29:52.52	92.24	41.84	-31.0	-34.0	12.1	3.26e-04	0	44	0	625999872	23	5100
2026-01-21 23:29:53.52	92.73	41.86	-30.8	-33.5	12.6	1.34e-04	0	44	0	627048448	23	4895
2026-01-21 23:29:54.52	93.23	41.88	-30.9	-34.3	12.4	1.07e-04	0	44	0	629145600	22	5301
2026-01-21 23:29:55.52	93.72	41.90	-31.1	-34.7	12.1	1.85e-04	0	44	0	631242752	22	5497
2026-01-21 23:29:56.53	94.22	41.92	-31.4	-35.8	11.4	6.57e-04	0	44	0	633339904	22	5981
2026-01-21 23:29:57.53	94.71	41.93	-31.8	-36.5	10.4	3.88e-03	0	44	0	635437056	23	6211
2026-01-21 23:29:58.53	95.20	41.95	-31.8	-36.5	10.4	3.84e-03	0	44	0	636485632	23	6245
2026-01-21 23:29:59.54	95.70	41.95	-31.7	-36.2	10.6	3.63e-03	0	44	0	638582784	23	6074
2026-01-21 23:30:00.54	96.20	41.96	-31.6	-36.1	10.7	2.94e-03	0	44	0	640679936	23	6021
2026-01-21 23:30:01.54	96.69	41.97	-31.5	-35.6	11.0	3.07e-03	0	44	0	642777088	23	5773
2026-01-21 23:30:02.55	97.19	41.97	-31.2	-34.7	11.7	9.02e-04	0	44	0	644874240	23	5377
2026-01-21 23:30:03.54	97.68	41.97	-31.0	-34.0	12.2	2.69e-04	0	44	0	645922816	23	5085
2026-01-21 23:30:04.55	98.18	41.97	-30.9	-33.8	12.3	1.66e-04	0	44	0	648019968	23	5017
2026-01-21 23:30:05.55	98.67	41.96	-30.8	-33.4	12.6	1.07e-04	0	44	0	650117120	23	4891
2026-01-21 23:30:06.55	99.17	41.95	-31.1	-34.5	11.9	2.66e-04	0	44	0	652214272	23	5301
2026-01-21 23:30:07.55	99.66	41.95	-31.3	-34.9	11.5	7.94e-04	0	44	0	653262848	23	5480
2026-01-21 23:30:08.55	100.16	41.93	-31.5	-35.6	11.1	8.24e-04	0	44	0	655360000	23	5783
2026-01-21 23:30:09.56	100.65	41.92	-31.5	-35.7	11.0	2.67e-03	0	44	0	657457152	23	5816
2026-01-21 23:30:10.56	101.15	41.90	-31.1	-34.4	11.9	6.40e-04	0	44	0	659554304	23	5265
2026-01-21 23:30:11.56	101.64	41.88	-30.9	-33.9	12.3	2.70e-04	0	44	0	661651456	23	5051
2026-01-21 23:30:12.56	102.13	41.86	-31.0	-34.2	12.1	1.63e-04	0	44	0	662700032	23	5173
2026-01-21 23:30:13.57	102.63	41.84	-31.4	-35.4	11.2	6.99e-04	0	44	0	664797184	23	5700
2026-01-21 23:30:14.57	103.12	41.81	-31.6	-36.0	10.8	2.69e-03	0	44	0	666894336	23	6005
2026-01-21 23:30:15.56	103.60	41.79	-31.5	-35.8	11.0	2.01e-03	0	44	0	668991488	23	5858
2026-01-21 23:30:16.57	104.10	41.76	-31.5	-35.6	11.1	1.47e-03	0	44	0	671088640	23	5762
2026-01-21 23:30:17.57	104.58	41.72	-31.5	-35.6	11.1	1.81e-03	0	44	0	672137216	23	5757
2026-01-21 23:30:18.56	105.07	41.69	-31.3	-35.1	11.5	9.47e-04	0	44	0	674234368	23	5542
2026-01-21 23:30:19.56	105.55	41.65	-31.2	-34.7	11.8	8.51e-04	0	44	0	676331520	23	5369
2026-01-21 23:30:20.57	106.04	41.61	-31.0	-34.1	12.2	3.00e-04	0	44	0	678428672	23	5157
2026-01-21 23:30:21.56	106.52	41.57	-30.9	-33.9	12.3	2.02e-04	0	44	0	680525824	23	5060
2026-01-21 23:30:22.57	107.01	41.53	-30.9	-33.9	12.3	1.24e-04	0	44	0	681574400	23	5054
2026-01-21 23:30:23.57	107.49	41.48	-31.2	-34.8	11.7	3.45e-04	0	44	0	683671552	23	5422
2026-01-21 23:30:24.58	107.97	41.43	-31.8	-36.7	10.3	2.38e-03	0	44	0	685768704	23	6345
2026-01-21 23:30:25.59	108.46	41.38	-32.1	-37.2	9.5	1.26e-02	0	44	0	687865856	24	6502
2026-01-21 23:30:26.59	108.93	41.33	-31.8	-36.3	10.2	8.08e-03	0	44	0	689963008	24	6015
2026-01-21 23:30:27.60	109.41	41.28	-31.4	-34.7	11.4	1.86e-03	0	44	0	691011584	24	5275
2026-01-21 23:30:28.60	109.89	41.22	-31.2	-34.8	11.7	6.01e-04	0	44	0	693108736	23	5409
2026-01-21 23:30:29.60	110.36	41.16	-31.5	-35.5	11.2	7.27e-04	0	44	0	695205888	23	5740
2026-01-21 23:30:30.61	110.83	41.10	-31.8	-36.7	10.3	4.43e-03	0	44	0	697303040	23	6308
2026-01-21 23:30:31.61	111.30	41.04	-31.8	-36.5	10.4	6.01e-03	0	44	0	698351616	23	6235
2026-01-21 23:30:32.62	111.77	40.97	-31.3	-34.9	11.6	2.10e-03	0	44	0	700448768	23	5482
2026-01-21 23:30:33.63	112.24	40.91	-31.0	-34.1	12.2	2.74e-04	0	44	0	702545920	23	5126
2026-01-21 23:30:34.63	112.70	40.84	-31.1	-34.3	12.0	2.68e-04	0	44	0	704643072	23	5214
2026-01-21 23:30:35.64	113.17	40.77	-31.3	-35.0	11.6	6.74e-04	0	44	0	706740224	23	5492
2026-01-21 23:30:36.64	113.63	40.69	-31.2	-34.5	11.9	5.00e-04	0	44	0	708837376	23	5297
2026-01-21 23:30:37.63	114.08	40.62	-30.9	-33.7	12.4	2.30e-04	0	44	0	709885952	23	4964
2026-01-21 23:30:38.64	114.54	40.55	-30.8	-33.9	12.7	8.46e-05	0	44	0	711983104	22	5148
2026-01-21 23:30:39.64	114.99	40.47	-31.0	-34.5	12.2	1.14e-04	0	44	0	714080256	22	5397
2026-01-21 23:30:40.64	115.44	40.39	-31.4	-35.9	11.3	6.94e-04	0	44	0	716177408	22	6009
2026-01-21 23:30:41.65	115.90	40.31	-31.6	-36.0	10.8	2.73e-03	0	44	0	717225984	23	5974
2026-01-21 23:30:42.65	116.34	40.22	-31.2	-34.6	11.8	1.18e-03	0	44	0	719323136	23	5328
2026-01-21 23:30:43.66	116.79	40.14	-30.5	-33.1	13.2	5.11e-05	0	44	0	721420288	22	4867
2026-01-21 23:30:44.66	117.23	40.05	-30.2	-32.9	13.7	1.22e-05	0	44	0	723517440	21	4878
2026-01-21 23:30:45.66	117.67	39.96	-30.4	-33.3	13.4	6.80e-06	0	44	0	725614592	21	5054
2026-01-21 23:30:46.66	118.11	39.87	-30.5	-33.7	13.1	1.83e-05	0	44	0	726663168	21	5178
2026-01-21 23:30:47.67	118.55	39.78	-30.3	-33.2	13.4	1.90e-05	0	44	0	728760320	21	4999
2026-01-21 23:30:48.67	118.98	39.69	-29.9	-32.2	14.1	3.00e-06	0	44	0	730857472	21	4645
2026-01-21 23:30:49.67	119.41	39.59	-29.8	-32.2	14.4	7.00e-07	0	44	0	732954624	20	4749
2026-01-21 23:30:50.67	119.84	39.50	-29.8	-32.2	14.4	3.00e-06	0	44	0	735051776	20	4745
2026-01-21 23:30:51.67	120.26	39.40	-30.0	-32.8	14.0	7.00e-07	0	44	0	736100352	20	4958
2026-01-21 23:30:52.67	120.68	39.30	-30.2	-33.4	13.6	8.30e-06	0	44	0	738197504	20	5209
2026-01-21 23:30:53.67	121.10	39.20	-30.1	-33.1	13.8	6.80e-06	0	44	0	740294656	20	5094
2026-01-21 23:30:54.67	121.52	39.10	-29.8	-32.2	14.4	2.20e-06	0	44	0	742391808	20	4741
2026-01-21 23:30:55.68	121.94	39.00	-29.6	-31.9	14.6	0.00e+00	0	44	0	744488960	20	4640
2026-01-21 23:30:56.68	122.35	38.89	-29.8	-32.2	14.4	1.06e-05	0	44	0	745537536	20	4769
2026-01-21 23:30:57.69	122.76	38.79	-30.3	-33.5	13.6	7.60e-06	0	44	0	747634688	20	5227
2026-01-21 23:30:58.69	123.17	38.68	-30.2	-33.4	13.5	1.60e-05	0	44	0	749731840	20	5204
2026-01-21 23:30:59.69	123.57	38.57	-29.7	-31.9	14.5	1.50e-06	0	44	0	751828992	20	4670
2026-01-21 23:31:00.69	123.97	38.46	-29.3	-31.4	15.2	0.00e+00	0	44	0	753926144	19	4586
2026-01-21 23:31:01.69	124.37	38.35	-29.3	-31.3	15.3	0.00e+00	0	44	0	754974720	19	4580
2026-01-21 23:31:02.69	124.77	38.24	-29.5	-31.9	14.9	0.00e+00	0	44	0	757071872	19	4765
2026-01-21 23:31:03.70	125.17	38.13	-30.0	-33.2	14.2	0.00e+00	0	44	0	759169024	19	5210
2026-01-21 23:31:04.70	125.56	38.01	-30.0	-32.7	14.0	5.30e-06	0	44	0	761266176	20	4947
2026-01-21 23:31:05.70	125.94	37.90	-29.5	-31.6	14.8	7.00e-07	0	44	0	762314752	20	4563
2026-01-21 23:31:06.70	126.33	37.78	-29.2	-31.1	15.4	0.00e+00	0	44	0	764411904	19	4510
2026-01-21 23:31:07.70	126.71	37.66	-29.2	-31.1	15.5	0.00e+00	0	44	0	766509056	19	4491
2026-01-21 23:31:08.71	127.10	37.54	-29.4	-31.6	15.1	0.00e+00	0	44	0	768606208	19	4670
2026-01-21 23:31:09.71	127.47	37.43	-29.6	-32.3	14.7	0.00e+00	0	44	0	770703360	19	4880
2026-01-21 23:31:10.72	127.85	37.30	-29.6	-32.1	14.8	0.00e+00	0	44	0	771751936	19	4830
2026-01-21 23:31:11.72	128.22	37.18	-29.5	-32.1	14.9	0.00e+00	0	44	0	773849088	19	4806
2026-01-21 23:31:12.72	128.59	37.06	-29.7	-32.4	14.7	0.00e+00	0	44	0	775946240	19	4910
2026-01-21 23:31:13.73	128.96	36.94	-29.7	-32.5	14.6	7.00e-07	0	44	0	778043392	19	4953
2026-01-21 23:31:14.73	129.32	36.81	-30.0	-32.7	14.0	2.20e-06	0	44	0	780140544	20	4936
2026-01-21 23:31:15.73	129.69	36.69	-29.9	-32.6	14.1	4.50e-06	0	44	0	781189120	20	4881
2026-01-21 23:31:16.73	130.04	36.57	-29.9	-32.6	14.1	3.00e-06	0	44	0	783286272	20	4892
2026-01-21 23:31:17.73	130.40	36.44	-29.8	-32.4	14.3	0.00e+00	0	44	0	785383424	20	4817
2026-01-21 23:31:18.74	130.75	36.31	-29.9	-32.5	14.1	7.00e-07	0	44	0	787480576	20	4869
2026-01-21 23:31:19.74	131.10	36.19	-30.1	-33.2	13.7	5.30e-06	0	44	0	789577728	20	5126
2026-01-21 23:31:20.75	131.46	36.06	-30.3	-33.6	13.4	1.29e-05	0	44	0	790626304	20	5282
2026-01-21 23:31:21.75	131.80	35.93	-30.2	-33.6	13.4	1.29e-05	0	44	0	792723456	20	5285
2026-01-21 23:31:22.75	132.14	35.80	-30.3	-33.7	13.3	2.13e-05	0	44	0	794820608	20	5320
2026-01-21 23:31:23.75	132.48	35.67	-30.4	-33.9	13.2	1.90e-05	0	44	0	796917760	20	5413
2026-01-21 23:31:24.75	132.82	35.54	-30.1	-33.3	13.6	9.90e-06	0	44	0	799014912	20	5159
2026-01-21 23:31:25.75	133.15	35.41	-30.0	-32.8	13.9	2.20e-06	0	44	0	800063488	20	4971
2026-01-21 23:31:26.75	133.48	35.28	-29.9	-32.7	14.0	1.50e-06	0	44	0	802160640	20	4952
2026-01-21 23:31:27.75	133.81	35.15	-29.9	-32.7	14.0	5.30e-06	0	44	0	804257792	20	4940
2026-01-21 23:31:28.75	134.14	35.01	-29.8	-32.4	14.2	7.00e-07	0	44	0	806354944	20	4838
2026-01-21 23:31:29.75	134.46	34.88	-30.1	-33.1	13.7	4.50e-06	0	44	0	807403520	20	5088
2026-01-21 23:31:30.76	134.79	34.75	-30.2	-33.4	13.6	4.50e-06	0	44	0	809500672	20	5191
2026-01-21 23:31:31.76	135.10	34.61	-30.9	-34.9	12.2	7.70e-05	0	44	0	811597824	21	5702
2026-01-21 23:31:32.76	135.42	34.48	-31.2	-35.1	11.7	6.48e-04	0	44	0	813694976	22	5699
2026-01-21 23:31:33.76	135.73	34.35	-30.8	-34.1	12.4	3.27e-04	0	44	0	815792128	22	5246
2026-01-21 23:31:34.77	136.05	34.21	-30.2	-32.9	13.5	2.59e-05	0	44	0	817889280	21	4916
2026-01-21 23:31:35.77	136.36	34.07	-29.9	-32.1	14.0	5.30e-06	0	44	0	818937856	21	4646
2026-01-21 23:31:36.78	136.66	33.94	-30.3	-33.2	13.3	5.30e-06	0	44	0	821035008	21	5007
2026-01-21 23:31:37.78	136.97	33.80	-31.0	-35.2	11.9	4.73e-05	0	44	0	823132160	21	5841
2026-01-21 23:31:38.77	137.27	33.67	-31.6	-36.0	10.7	1.70e-03	0	44	0	825229312	23	5987
2026-01-21 23:31:39.78	137.57	33.53	-31.7	-36.5	10.3	4.41e-03	0	44	0	826277888	23	6229
2026-01-21 23:31:40.78	137.86	33.39	-31.4	-35.3	11.2	3.33e-03	0	44	0	828375040	23	5652
2026-01-21 23:31:41.78	138.16	33.26	-30.7	-33.7	12.7	2.10e-04	0	44	0	830472192	22	5086
2026-01-21 23:31:42.79	138.45	33.12	-30.1	-32.8	13.6	1.52e-05	0	44	0	832569344	21	4863
2026-01-21 23:31:43.79	138.74	32.98	-30.2	-32.8	13.6	1.06e-05	0	44	0	834666496	21	4879
2026-01-21 23:31:44.79	139.02	32.85	-30.4	-33.3	13.2	1.14e-05	0	44	0	835715072	21	5069
2026-01-21 23:31:45.79	139.31	32.71	-30.9	-34.9	12.1	1.97e-04	0	44	0	837812224	21	5725
2026-01-21 23:31:46.80	139.59	32.57	-31.3	-35.8	11.3	8.12e-04	0	44	0	839909376	22	5985
2026-01-21 23:31:47.81	139.88	32.43	-31.1	-35.1	11.7	1.24e-03	0	44	0	842006528	22	5679
2026-01-21 23:31:48.81	140.15	32.29	-30.4	-33.5	13.1	5.07e-04	0	44	0	844103680	21	5116
2026-01-21 23:31:49.82	140.43	32.16	-29.9	-32.0	14.1	6.26e-04	0	44	0	845152256	21	4599
2026-01-21 23:31:50.81	140.70	32.02	-30.0	-32.4	13.8	3.00e-06	0	44	0	847249408	21	4749
2026-01-21 23:31:51.81	140.97	31.88	-30.2	-33.5	13.4	5.00e-04	0	44	0	849346560	20	5238
2026-01-21 23:31:52.82	141.24	31.74	-31.1	-35.1	11.7	6.48e-04	0	44	0	851443712	22	5695
2026-01-21 23:31:53.82	141.50	31.60	-31.8	-36.8	10.0	3.11e-03	0	44	0	853540864	23	6437
2026-01-21 23:31:54.82	141.77	31.47	-31.7	-36.6	10.2	8.64e-03	0	44	0	854589440	23	6327
2026-01-21 23:31:55.81	142.03	31.33	-31.1	-35.1	11.6	2.88e-03	0	44	0	856686592	22	5689
2026-01-21 23:31:56.81	142.29	31.19	-30.5	-33.2	13.0	1.19e-04	0	44	0	858783744	22	4893
2026-01-21 23:31:57.81	142.54	31.05	-30.2	-33.0	13.5	2.28e-05	0	44	0	860880896	21	4920
2026-01-21 23:31:58.81	142.80	30.92	-30.5	-34.1	13.0	1.18e-03	0	44	0	861929472	20	5476
2026-01-21 23:31:59.81	143.05	30.78	-30.5	-33.8	12.9	3.96e-05	0	44	0	864026624	21	5234
2026-01-21 23:32:00.80	143.30	30.64	-31.0	-35.1	12.0	1.15e-03	0	44	0	866123776	21	5807
2026-01-21 23:32:01.80	143.55	30.51	-31.6	-36.1	10.6	9.03e-04	0	44	0	868220928	23	6076
2026-01-21 23:32:02.80	143.79	30.37	-31.8	-36.7	10.1	7.59e-03	0	45	0	870318080	23	6375
2026-01-21 23:32:03.80	144.04	30.23	-31.5	-35.7	10.8	6.96e-03	0	44	0	871366656	23	5857
2026-01-21 23:32:04.80	144.28	30.09	-31.1	-34.9	11.8	1.11e-03	0	44	0	873463808	22	5610
2026-01-21 23:32:05.81	144.52	29.95	-30.7	-33.8	12.5	1.60e-04	0	44	0	875560960	22	5153
2026-01-21 23:32:06.82	144.76	29.82	-30.8	-34.5	12.4	2.26e-03	0	44	0	877658112	21	5519
2026-01-21 23:32:07.82	145.00	29.68	-30.6	-34.1	12.7	2.21e-03	0	45	0	879755264	21	5360
2026-01-21 23:32:08.83	145.24	29.54	-30.8	-34.5	12.4	1.34e-04	0	44	0	880803840	21	5543
2026-01-21 23:32:09.83	145.47	29.40	-31.4	-36.1	10.9	3.10e-03	0	44	0	882900992	22	6157
2026-01-21 23:32:10.83	145.70	29.27	-31.7	-36.3	10.3	7.40e-03	0	44	0	884998144	23	6161
2026-01-21 23:32:11.84	145.93	29.13	-31.7	-36.4	10.3	4.70e-03	0	44	0	887095296	23	6194
2026-01-21 23:32:12.85	146.16	28.99	-31.0	-34.6	11.9	3.29e-03	0	44	0	889192448	22	5485
2026-01-21 23:32:13.85	146.38	28.86	-30.2	-32.9	13.4	2.21e-03	0	44	0	890241024	21	4903
2026-01-21 23:32:14.85	146.61	28.72	-29.6	-31.8	14.4	2.20e-06	0	44	0	892338176	20	4641
2026-01-21 23:32:15.85	146.83	28.59	-29.4	-31.8	14.8	2.00e-03	0	44	0	894435328	19	4729
2026-01-21 23:32:16.85	147.05	28.45	-29.7	-32.4	14.5	1.95e-03	0	44	0	896532480	19	4937
2026-01-21 23:32:17.85	147.26	28.32	-30.4	-33.9	13.1	6.10e-06	0	44	0	897581056	20	5414
2026-01-21 23:32:18.85	147.48	28.18	-30.7	-34.4	12.4	2.07e-03	0	44	0	899678208	21	5508
2026-01-21 23:32:19.85	147.69	28.05	-31.3	-35.6	11.3	3.00e-03	0	44	0	901775360	22	5911
2026-01-21 23:32:20.86	147.91	27.91	-31.2	-35.3	11.4	1.35e-03	0	44	0	903872512	22	5782
2026-01-21 23:32:21.87	148.12	27.77	-30.6	-34.0	12.6	2.80e-03	0	44	0	905969664	21	5351
2026-01-21 23:32:22.87	148.33	27.64	-29.9	-32.7	13.9	2.19e-03	0	44	0	908066816	20	4936
2026-01-21 23:32:23.87	148.54	27.51	-29.5	-31.5	14.6	7.00e-07	0	44	0	909115392	20	4534
2026-01-21 23:32:24.87	148.74	27.37	-29.3	-31.5	15.0	2.16e-03	0	44	0	911212544	19	4649
2026-01-21 23:32:25.88	148.95	27.24	-29.3	-32.1	14.9	0.00e+00	0	44	0	913309696	18	4952
2026-01-21 23:32:26.87	149.15	27.11	-29.6	-32.4	14.4	0.00e+00	0	44	0	915406848	19	4938
2026-01-21 23:32:27.88	149.35	26.97	-29.9	-33.1	13.9	2.02e-03	0	44	0	916455424	19	5225
2026-01-21 23:32:28.88	149.55	26.84	-30.3	-33.7	13.2	2.24e-03	0	44	0	918552576	20	5333
2026-01-21 23:32:29.89	149.75	26.71	-30.4	-34.1	12.9	5.26e-05	0	44	0	920649728	20	5524
2026-01-21 23:32:30.88	149.94	26.58	-30.3	-33.9	13.0	2.40e-03	0	44	0	922746880	20	5439
2026-01-21 23:32:31.88	150.14	26.45	-30.2	-33.5	13.3	2.26e-03	0	44	0	924844032	20	5273
2026-01-21 23:32:32.88	150.33	26.32	-29.9	-32.6	13.8	1.14e-05	0	44	0	925892608	20	4930
2026-01-21 23:32:33.88	150.52	26.18	-29.9	-33.1	13.9	2.28e-03	0	44	0	927989760	19	5214
2026-01-21 23:32:34.88	150.71	26.05	-29.6	-32.3	14.4	2.12e-03	0	44	0	930086912	19	4914
2026-01-21 23:32:35.89	150.90	25.92	-29.5	-32.0	14.6	7.00e-07	0	44	0	932184064	19	4831
2026-01-21 23:32:36.89	151.08	25.79	-29.7	-32.7	14.2	7.00e-07	0	44	0	934281216	19	5055
2026-01-21 23:32:37.90	151.27	25.66	-29.8	-32.9	14.0	2.34e-03	0	44	0	935329792	19	5130
2026-01-21 23:32:38.90	151.46	25.53	-30.0	-32.9	13.6	1.50e-06	0	44	0	937426944	20	5046
2026-01-21 23:32:39.91	151.64	25.40	-30.1	-33.2	13.4	1.14e-05	0	44	0	939524096	20	5142
2026-01-21 23:32:40.90	151.82	25.28	-30.4	-34.2	12.8	1.39e-03	0	44	0	941621248	20	5541
2026-01-21 23:32:41.90	152.00	25.15	-30.5	-33.8	12.7	9.15e-05	0	44	0	942669824	21	5285
2026-01-21 23:32:42.91	152.18	25.02	-30.4	-34.1	12.8	2.33e-03	0	45	0	944766976	20	5522
2026-01-21 23:32:43.91	152.35	24.89	-30.5	-33.8	12.6	9.38e-05	0	44	0	946864128	21	5281
2026-01-21 23:32:44.91	152.53	24.76	-30.5	-33.9	12.6	1.08e-04	0	44	0	948961280	21	5303
2026-01-21 23:32:45.91	152.70	24.64	-30.2	-33.6	13.1	2.07e-03	0	44	0	951058432	20	5306
2026-01-21 23:32:46.91	152.87	24.51	-29.9	-32.7	13.7	1.52e-05	0	44	0	952107008	20	4977
2026-01-21 23:32:47.91	153.04	24.38	-29.6	-31.8	14.3	7.00e-07	0	44	0	954204160	20	4648
2026-01-21 23:32:48.91	153.21	24.26	-29.6	-32.3	14.4	2.30e-03	0	44	0	956301312	19	4917
2026-01-21 23:32:49.91	153.38	24.13	-29.4	-31.9	14.6	2.21e-03	0	44	0	958398464	19	4773
2026-01-21 23:32:50.91	153.55	24.01	-29.3	-31.7	14.7	0.00e+00	0	44	0	960495616	19	4715
2026-01-21 23:32:51.91	153.71	23.88	-29.5	-32.7	14.4	2.13e-03	0	44	0	961544192	18	5181
2026-01-21 23:32:52.92	153.88	23.76	-29.5	-32.0	14.5	1.90e-03	0	44	0	963641344	19	4841
2026-01-21 23:32:53.92	154.04	23.63	-29.6	-32.5	14.2	1.50e-06	0	44	0	965738496	19	5001
2026-01-21 23:32:54.92	154.20	23.51	-29.7	-32.7	14.1	2.20e-06	0	44	0	967835648	19	5080
2026-01-21 23:32:55.92	154.37	23.39	-29.8	-32.9	14.0	1.94e-03	0	44	0	969932800	19	5156
2026-01-21 23:32:56.92	154.52	23.26	-29.9	-33.2	13.7	6.10e-06	0	44	0	970981376	19	5270
2026-01-21 23:32:57.93	154.68	23.14	-29.9	-33.1	13.8	5.30e-06	0	44	0	973078528	19	5199
2026-01-21 23:32:58.93	154.84	23.02	-29.9	-33.2	13.8	3.00e-06	0	44	0	975175680	19	5241
2026-01-21 23:32:59.94	155.00	22.89	-29.9	-33.3	13.7	5.30e-06	0	44	0	977272832	19	5284
2026-01-21 23:33:00.95	155.15	22.77	-29.9	-33.2	13.7	6.80e-06	0	44	0	979369984	19	5267
2026-01-21 23:33:01.94	155.31	22.65	-29.8	-33.0	13.9	5.30e-06	0	44	0	980418560	19	5189
2026-01-21 23:33:02.95	155.46	22.53	-30.0	-33.4	13.6	1.06e-05	0	44	0	982515712	19	5325
2026-01-21 23:33:03.95	155.61	22.41	-29.8	-32.6	13.8	9.10e-06	0	44	0	984612864	20	4929
2026-01-21 23:33:04.95	155.76	22.29	-29.9	-33.2	13.8	3.80e-06	0	44	0	986710016	19	5245
2026-01-21 23:33:05.95	155.91	22.17	-29.9	-33.1	13.8	1.50e-06	0	44	0	987758592	19	5232
2026-01-21 23:33:06.96	156.06	22.05	-29.9	-33.1	13.8	8.30e-06	0	44	0	989855744	19	5223
2026-01-21 23:33:07.96	156.21	21.93	-29.9	-33.3	13.7	8.30e-06	0	44	0	991952896	19	5289
2026-01-21 23:33:08.96	156.35	21.81	-30.0	-32.9	13.5	9.10e-06	0	44	0	994050048	20	5059
2026-01-21 23:33:09.96	156.50	21.69	-29.9	-32.8	13.6	1.60e-05	0	44	0	996147200	20	5035
2026-01-21 23:33:10.97	156.64	21.57	-30.2	-33.5	13.1	1.83e-05	0	44	0	998244352	20	5277
2026-01-21 23:33:11.97	156.78	21.46	-30.2	-33.7	13.0	3.96e-05	0	44	0	999292928	20	5361
2026-01-21 23:33:12.97	156.92	21.34	-30.3	-33.9	12.9	3.35e-05	0	44	0	1001390080	20	5445
2026-01-21 23:33:13.98	157.07	21.22	-30.5	-34.5	12.5	8.92e-05	0	44	0	1003487232	20	5692
2026-01-21 23:33:14.98	157.21	21.10	-30.3	-33.4	12.8	1.07e-04	0	44	0	1005584384	21	5176
2026-01-21 23:33:15.98	157.34	20.99	-30.3	-33.9	12.8	7.93e-05	0	44	0	1006632960	20	5470
2026-01-21 23:33:16.98	157.48	20.87	-30.2	-33.6	13.0	4.42e-05	0	45	0	1008730112	20	5372
2026-01-21 23:33:17.99	157.62	20.76	-30.0	-33.3	13.2	3.20e-05	0	44	0	1010827264	20	5229
2026-01-21 23:33:18.99	157.75	20.64	-30.1	-33.5	13.0	3.89e-05	0	44	0	1012924416	20	5337
2026-01-21 23:33:19.99	157.89	20.53	-30.3	-34.0	12.7	5.72e-05	0	44	0	1015021568	20	5519
2026-01-21 23:33:20.99	158.02	20.41	-30.0	-33.2	13.2	2.28e-05	0	44	0	1016070144	20	5185
2026-01-21 23:33:21.99	158.15	20.30	-30.1	-33.3	13.2	2.28e-05	0	44	0	1018167296	20	5238
2026-01-21 23:33:22.99	158.28	20.19	-30.1	-33.4	13.1	2.89e-05	0	44	0	1020264448	20	5247
2026-01-21 23:33:23.99	158.42	20.07	-30.1	-33.4	13.1	2.82e-05	0	44	0	1022361600	20	5242
2026-01-21 23:33:25.00	158.55	19.96	-30.3	-33.8	12.8	4.04e-05	0	44	0	1024458752	20	5420
2026-01-21 23:33:26.00	158.67	19.85	-30.2	-33.7	12.9	6.17e-05	0	44	0	1025507328	20	5377
2026-01-21 23:33:27.00	158.80	19.73	-29.3	-32.9	12.8	5.34e-05	0	44	0	1027604480	20	5448
2026-01-21 23:33:28.01	158.93	19.62	-30.4	-34.2	12.1	1.15e-04	0	44	0	1029701632	20	5584
2026-01-21 23:33:29.01	159.06	19.51	-30.3	-33.8	12.8	7.09e-05	0	44	0	1031798784	20	5417
2026-01-21 23:33:30.02	159.18	19.40	-30.2	-33.6	12.9	6.25e-05	0	44	0	1033895936	20	5321
2026-01-21 23:33:31.02	159.31	19.29	-30.1	-33.3	13.1	5.35e-04	0	44	0	1034944512	20	5232
2026-01-21 23:33:32.02	159.43	19.18	-29.9	-32.9	13.3	1.83e-05	0	44	0	1037041664	20	5082
2026-01-21 23:33:33.02	159.55	19.07	-30.0	-33.2	13.2	1.75e-05	0	44	0	1039138816	20	5197
2026-01-21 23:33:34.01	159.67	18.96	-29.9	-33.2	13.5	1.71e-04	0	44	0	1041235968	19	5286
2026-01-21 23:33:35.02	159.80	18.85	-29.9	-33.4	13.5	9.10e-06	0	44	0	1043333120	19	5350
2026-01-21 23:33:36.02	159.92	18.74	-29.9	-33.2	13.5	9.90e-06	0	44	0	1044381696	19	5290
2026-01-21 23:33:37.03	160.04	18.63	-29.9	-33.4	13.4	9.10e-06	0	44	0	1046478848	19	5354
2026-01-21 23:33:38.03	160.15	18.52	-30.1	-33.4	13.0	2.36e-05	0	44	0	1048576000	20	5273
2026-01-21 23:33:39.03	160.27	18.42	-30.3	-34.1	12.6	7.01e-05	0	44	0	1050673152	20	5528
2026-01-21 23:33:40.04	160.39	18.31	-30.2	-33.7	12.8	7.47e-05	0	44	0	1051721728	20	5382
2026-01-21 23:33:41.03	160.50	18.20	-30.3	-33.9	12.7	7.85e-05	0	44	0	1053818880	20	5454
2026-01-21 23:33:42.04	160.62	18.10	-30.3	-34.2	12.5	1.16e-04	0	44	0	1055916032	20	5584
2026-01-21 23:33:43.03	160.73	17.99	-30.5	-34.3	12.0	2.34e-04	0	44	0	1058013184	21	5523
2026-01-21 23:33:44.04	160.85	17.88	-30.6	-34.4	11.9	3.26e-04	0	44	0	1060110336	21	5608
2026-01-21 23:33:45.04	160.96	17.78	-30.6	-34.4	11.9	2.72e-03	0	44	0	1061158912	21	5598
2026-01-21 23:33:46.05	161.07	17.67	-30.7	-34.8	11.7	5.58e-04	0	44	0	1063256064	21	5759
2026-01-21 23:33:47.05	161.19	17.57	-30.7	-34.7	11.7	5.82e-04	0	44	0	1065353216	21	5732
2026-01-21 23:33:48.05	161.30	17.46	-30.9	-35.4	11.1	3.42e-03	0	44	0	1067450368	21	6083
2026-01-21 23:33:49.06	161.41	17.36	-30.7	-34.7	11.7	3.32e-03	0	44	0	1069547520	21	5721
2026-01-21 23:33:50.06	161.52	17.25	-30.5	-34.1	12.1	3.46e-04	0	44	0	1070596096	21	5473
2026-01-21 23:33:51.06	161.62	17.15	-30.5	-34.4	12.2	2.09e-04	0	44	0	1072693248	20	5697
2026-01-21 23:33:52.06	161.73	17.05	-30.4	-34.3	12.3	2.45e-03	0	44	0	1074790400	20	5657
2026-01-21 23:33:53.06	161.84	16.94	-30.4	-34.3	12.3	1.79e-04	0	44	0	1076887552	20	5658
2026-01-21 23:33:54.06	161.95	16.84	-30.3	-34.2	12.3	1.79e-04	0	44	0	1077936128	20	5634
2026-01-21 23:33:55.05	162.05	16.74	-30.4	-34.5	12.2	2.33e-03	0	44	0	1080033280	20	5748
2026-01-21 23:33:56.06	162.16	16.64	-30.3	-34.2	12.3	2.02e-04	0	44	0	1082130432	20	5634
2026-01-21 23:33:57.06	162.26	16.54	-30.3	-34.2	12.2	1.72e-04	0	44	0	1084227584	20	5683
2026-01-21 23:33:58.07	162.36	16.44	-30.2	-34.1	12.3	2.62e-03	0	44	0	1086324736	20	5650
2026-01-21 23:33:59.07	162.47	16.33	-30.2	-34.1	12.3	1.98e-04	0	44	0	1088421888	20	5668
2026-01-21 23:34:00.07	162.57	16.23	-30.2	-34.3	12.1	2.66e-03	0	44	0	1089470464	20	5770
2026-01-21 23:34:01.07	162.67	16.13	-30.0	-33.8	12.4	2.17e-04	0	44	0	1091567616	20	5569
2026-01-21 23:34:02.07	162.77	16.03	-29.7	-33.4	12.5	1.32e-04	0	44	0	1093664768	20	5511
2026-01-21 23:34:03.08	162.87	15.93	-30.1	-34.0	12.3	2.41e-03	0	44	0	1095761920	20	5621
2026-01-21 23:34:04.09	162.97	15.83	-30.2	-34.3	12.1	1.99e-04	0	44	0	1096810496	20	5776
2026-01-21 23:34:05.08	163.07	15.74	-30.1	-33.9	12.3	1.69e-04	0	44	0	1098907648	20	5587
2026-01-21 23:34:06.09	163.17	15.64	-30.0	-33.7	12.4	2.24e-03	0	44	0	1101004800	20	5507
2026-01-21 23:34:07.10	163.27	15.54	-30.2	-34.1	12.2	2.55e-03	0	44	0	1103101952	20	5688
2026-01-21 23:34:08.09	163.37	15.44	-30.2	-34.3	12.0	2.37e-04	0	44	0	1105199104	20	5741
2026-01-21 23:34:09.10	163.46	15.34	-30.2	-34.1	12.2	2.65e-03	0	44	0	1106247680	20	5665
2026-01-21 23:34:10.10	163.56	15.25	-30.4	-34.6	11.9	2.68e-03	0	44	0	1108344832	20	5860
2026-01-21 23:34:11.11	163.66	15.15	-30.3	-34.3	12.2	3.11e-04	0	44	0	1110441984	20	5693
2026-01-21 23:34:12.11	163.75	15.05	-30.3	-34.3	12.2	2.52e-03	0	44	0	1112539136	20	5696
2026-01-21 23:34:13.11	163.84	14.96	-30.3	-34.3	12.1	2.39e-03	0	44	0	1114636288	20	5703
2026-01-21 23:34:14.12	163.94	14.86	-30.5	-34.2	11.8	3.72e-04	0	44	0	1115684864	21	5560
2026-01-21 23:34:15.12	164.03	14.76	-30.5	-34.7	11.9	2.75e-03	0	44	0	1117782016	20	5846
2026-01-21 23:34:16.13	164.13	14.67	-30.6	-34.7	11.5	2.99e-03	0	44	0	1119879168	21	5742
2026-01-21 23:34:17.12	164.22	14.57	-30.7	-35.1	11.2	1.03e-03	0	44	0	1121976320	21	5938
2026-01-21 23:34:18.12	164.31	14.48	-30.6	-34.5	11.6	3.52e-03	0	44	0	1124073472	21	5685
2026-01-21 23:34:19.13	164.40	14.38	-30.5	-34.8	11.8	2.84e-03	0	44	0	1125122048	20	5910
2026-01-21 23:34:20.12	164.49	14.29	-30.6	-34.8	11.4	6.77e-04	0	44	0	1127219200	21	5819
2026-01-21 23:34:21.13	164.58	14.19	-30.7	-34.9	11.3	3.57e-03	0	44	0	1129316352	21	5886
2026-01-21 23:34:22.13	164.67	14.10	-30.6	-34.9	11.3	3.39e-03	0	44	0	1131413504	21	5853
2026-01-21 23:34:23.14	164.76	14.01	-30.8	-35.3	11.0	1.63e-03	0	44	0	1133510656	21	6072
2026-01-21 23:34:24.14	164.85	13.91	-30.7	-35.0	11.2	3.73e-03	0	44	0	1134559232	21	5931
2026-01-21 23:34:25.14	164.93	13.82	-30.7	-35.0	11.2	1.32e-03	0	44	0	1136656384	21	5918
2026-01-21 23:34:26.15	165.02	13.73	-30.7	-35.1	11.1	1.89e-03	0	45	0	1138753536	21	5994
2026-01-21 23:34:27.15	165.11	13.64	-30.8	-35.7	10.7	4.79e-03	0	44	0	1140850688	21	6279
2026-01-21 23:34:28.15	165.19	13.55	-30.7	-35.3	11.0	4.71e-03	0	44	0	1141899264	21	6089
2026-01-21 23:34:29.15	165.28	13.45	-30.7	-35.1	11.1	1.76e-03	0	44	0	1143996416	21	5985
2026-01-21 23:34:30.16	165.36	13.36	-30.7	-35.2	11.1	4.17e-03	0	44	0	1146093568	21	6023
2026-01-21 23:34:31.16	165.45	13.27	-30.8	-35.3	10.9	3.98e-03	0	44	0	1148190720	21	6109
2026-01-21 23:34:32.17	165.53	13.18	-30.8	-35.6	10.7	2.87e-03	0	44	0	1150287872	21	6242
2026-01-21 23:34:33.17	165.62	13.09	-30.9	-35.7	10.7	5.45e-03	0	44	0	1152385024	21	6270
2026-01-21 23:34:34.17	165.70	13.00	-30.9	-35.8	10.6	6.69e-03	0	44	0	1153433600	21	6333
2026-01-21 23:34:35.17	165.78	12.91	-30.8	-35.4	10.9	2.62e-03	0	44	0	1155530752	21	6126
2026-01-21 23:34:36.18	165.87	12.82	-30.6	-35.0	11.2	1.91e-03	0	44	0	1157627904	21	5919
2026-01-21 23:34:37.19	165.95	12.73	-30.5	-34.4	11.6	3.28e-03	0	44	0	1159725056	21	5675
2026-01-21 23:34:38.19	166.03	12.64	-30.5	-34.4	11.6	7.47e-04	0	44	0	1160773632	21	5650
2026-01-21 23:34:39.19	166.11	12.55	-30.4	-34.8	11.6	1.01e-03	0	44	0	1162870784	20	5977
2026-01-21 23:34:40.19	166.19	12.46	-30.3	-34.5	11.8	2.64e-03	0	44	0	1164967936	20	5827
2026-01-21 23:34:41.19	166.27	12.38	-30.2	-34.3	12.0	3.55e-04	0	44	0	1167065088	20	5729
2026-01-21 23:34:42.19	166.35	12.29	-30.2	-34.2	12.1	5.55e-04	0	44	0	1169162240	20	5667
2026-01-21 23:34:43.20	166.43	12.20	-30.2	-34.0	12.2	2.48e-04	0	44	0	1170210816	20	5609
2026-01-21 23:34:44.20	166.51	12.11	-30.1	-33.9	12.2	2.09e-04	0	44	0	1172307968	20	5549
2026-01-21 23:34:45.20	166.58	12.03	-30.2	-34.0	12.2	2.53e-03	0	44	0	1174405120	20	5578
2026-01-21 23:34:46.20	166.66	11.94	-30.3	-34.5	11.9	4.20e-04	0	44	0	1176502272	20	5807
2026-01-21 23:34:47.21	166.74	11.85	-30.4	-34.6	11.7	8.86e-04	0	44	0	1178599424	20	5866
2026-01-21 23:34:48.21	166.82	11.77	-30.3	-34.4	11.9	2.78e-03	0	44	0	1179648000	20	5748
2026-01-21 23:34:49.21	166.89	11.68	-30.3	-34.3	11.9	3.29e-04	0	44	0	1181745152	20	5728
2026-01-21 23:34:50.21	166.97	11.59	-30.3	-34.4	11.9	6.68e-04	0	44	0	1183842304	20	5755
2026-01-21 23:34:51.22	167.04	11.51	-30.3	-34.4	11.9	2.41e-03	0	44	0	1185939456	20	5744
2026-01-21 23:34:52.22	167.12	11.42	-30.4	-34.5	11.8	4.74e-04	0	44	0	1188036608	20	5798
2026-01-21 23:34:53.22	167.19	11.34	-30.4	-34.6	11.8	6.35e-04	0	45	0	1189085184	20	5836
2026-01-21 23:34:54.23	167.27	11.25	-30.7	-35.1	11.0	1.40e-03	0	44	0	1191182336	21	5953
2026-01-21 23:34:55.24	167.34	11.17	-30.5	-34.5	11.4	3.61e-03	0	44	0	1193279488	21	5692
2026-01-21 23:34:56.24	167.42	11.08	-30.4	-34.6	11.7	7.81e-04	0	44	0	1195376640	20	5852
2026-01-21 23:34:57.25	167.49	11.00	-30.4	-34.7	11.6	8.96e-04	0	44	0	1197473792	20	5889
2026-01-21 23:34:58.25	167.56	10.91	-30.5	-34.9	11.5	6.83e-04	0	44	0	1198522368	20	5998
2026-01-21 23:34:59.26	167.63	10.83	-30.5	-34.5	11.4	1.30e-03	0	44	0	1200619520	21	5720
2026-01-21 23:35:00.26	167.71	10.75	-30.6	-34.9	11.1	1.61e-03	0	44	0	1202716672	21	5878
2026-01-21 23:35:01.26	167.78	10.66	-30.7	-35.1	11.0	1.95e-03	0	45	0	1204813824	21	5990
2026-01-21 23:35:02.26	167.85	10.58	-30.7	-35.3	10.9	2.54e-03	0	44	0	1205862400	21	6059
2026-01-21 23:35:03.26	167.92	10.50	-30.8	-35.4	10.8	3.17e-03	0	44	0	1207959552	21	6126
2026-01-21 23:35:04.27	167.99	10.42	-30.8	-35.5	10.6	2.78e-03	0	44	0	1210056704	21	6200
2026-01-21 23:35:05.27	168.06	10.33	-30.8	-35.7	10.5	3.42e-03	0	44	0	1212153856	21	6271
2026-01-21 23:35:06.28	168.13	10.25	-30.9	-35.8	10.4	4.52e-03	0	44	0	1214251008	21	6346
2026-01-21 23:35:07.28	168.20	10.17	-30.9	-35.9	10.4	4.57e-03	0	44	0	1215299584	21	6384
2026-01-21 23:35:08.28	168.27	10.09	-31.0	-35.8	10.0	6.53e-03	0	44	0	1217396736	22	6268
2026-01-21 23:35:09.29	168.34	10.01	-30.9	-36.0	10.2	6.29e-03	0	44	0	1219493888	21	6462
2026-01-21 23:35:10.29	168.40	9.93	-30.9	-35.9	10.3	5.64e-03	0	44	0	1221591040	21	6397
2026-01-21 23:35:11.30	168.47	9.85	-30.8	-35.7	10.4	5.19e-03	0	44	0	1223688192	21	6332
2026-01-21 23:35:12.30	168.54	9.76	-30.9	-36.0	10.2	4.99e-03	0	44	0	1224736768	21	6461
2026-01-21 23:35:13.30	168.61	9.68	-30.9	-36.0	10.1	7.50e-03	0	44	0	1226833920	21	6491
2026-01-21 23:35:14.30	168.67	9.60	-30.7	-35.5	10.5	4.95e-03	0	44	0	1228931072	21	6229
2026-01-21 23:35:15.31	168.74	9.52	-30.7	-35.3	10.7	4.18e-03	0	44	0	1231028224	21	6115
2026-01-21 23:35:16.30	168.80	9.45	-30.7	-35.3	10.7	3.10e-03	0	44	0	1233125376	21	6111
2026-01-21 23:35:17.31	168.87	9.37	-30.6	-35.1	10.8	3.21e-03	0	44	0	1234173952	21	6046
2026-01-21 23:35:18.31	168.94	9.29	-30.6	-34.9	10.9	2.75e-03	0	44	0	1236271104	21	5961
2026-01-21 23:35:19.31	169.00	9.21	-30.6	-35.2	10.7	2.36e-03	0	44	0	1238368256	21	6106
2026-01-21 23:35:20.31	169.07	9.13	-30.8	-35.7	10.4	4.53e-03	0	44	0	1240465408	21	6329
2026-01-21 23:35:21.31	169.13	9.05	-30.7	-35.6	10.4	4.12e-03	0	44	0	1242562560	21	6269
2026-01-21 23:35:22.31	169.19	8.97	-30.7	-35.6	10.4	4.45e-03	0	44	0	1243611136	21	6304
2026-01-21 23:35:23.31	169.26	8.90	-29.8	-34.9	10.0	7.63e-03	0	44	0	1245708288	21	6501
2026-01-21 23:35:24.31	169.32	8.82	-30.7	-35.5	10.2	5.33e-03	0	44	0	1247805440	21	6274
2026-01-21 23:35:25.32	169.38	8.74	-30.6	-35.3	10.6	4.33e-03	0	44	0	1249902592	21	6154
2026-01-21 23:35:26.33	169.45	8.66	-30.7	-35.6	10.3	7.48e-03	0	44	0	1251999744	21	6343
2026-01-21 23:35:27.33	169.51	8.58	-30.8	-35.9	10.1	8.20e-03	0	44	0	1253048320	21	6471
2026-01-21 23:35:28.34	169.57	8.51	-30.7	-35.6	10.3	6.30e-03	0	44	0	1255145472	21	6351
2026-01-21 23:35:29.34	169.63	8.43	-30.7	-35.7	10.2	6.50e-03	0	44	0	1257242624	21	6371
2026-01-21 23:35:30.34	169.70	8.35	-30.7	-35.4	10.5	4.72e-03	0	44	0	1259339776	21	6199
2026-01-21 23:35:31.34	169.76	8.28	-30.7	-35.8	10.2	5.31e-03	0	44	0	1260388352	21	6404
2026-01-21 23:35:32.34	169.82	8.20	-30.8	-35.9	10.1	7.47e-03	0	44	0	1262485504	21	6473
2026-01-21 23:35:33.34	169.88	8.13	-30.7	-35.5	10.3	7.71e-03	0	44	0	1264582656	21	6284
2026-01-21 23:35:34.34	169.94	8.05	-30.6	-35.3	10.5	4.57e-03	0	44	0	1266679808	21	6160
2026-01-21 23:35:35.35	170.00	7.97	-30.8	-35.8	10.1	5.61e-03	0	44	0	1268776960	21	6411
2026-01-21 23:35:36.34	170.06	7.90	-30.8	-36.0	9.9	8.45e-03	0	44	0	1269825536	21	6572
2026-01-21 23:35:37.34	170.12	7.82	-30.8	-36.0	9.9	9.27e-03	0	44	0	1271922688	21	6531
2026-01-21 23:35:38.35	170.18	7.75	-30.9	-36.3	9.7	9.72e-03	0	44	0	1274019840	21	6717
2026-01-21 23:35:39.35	170.23	7.67	-30.9	-36.4	9.6	1.33e-02	0	44	0	1276116992	21	6788
2026-01-21 23:35:40.35	170.29	7.60	-30.8	-36.0	9.9	9.98e-03	0	44	0	1278214144	21	6541
2026-01-21 23:35:41.35	170.35	7.53	-30.8	-35.8	10.0	6.92e-03	0	44	0	1279262720	21	6444
2026-01-21 23:35:42.36	170.41	7.45	-30.8	-36.0	9.9	8.67e-03	0	44	0	1281359872	21	6526
2026-01-21 23:35:43.36	170.47	7.38	-30.7	-35.7	10.1	8.48e-03	0	44	0	1283457024	21	6384
2026-01-21 23:35:44.37	170.53	7.30	-30.9	-36.4	9.6	1.19e-02	0	44	0	1285554176	21	6763
2026-01-21 23:35:45.38	170.58	7.23	-30.9	-36.3	9.6	1.30e-02	0	44	0	1287651328	21	6716
2026-01-21 23:35:46.37	170.64	7.16	-30.9	-36.4	9.5	1.16e-02	0	45	0	1288699904	21	6790
