passes_logs/2026/01/20/PlanumMoscow/PlanumMoscow__20260120_172534_METOP-B_rec.log

#Pass ID: 20260120_172534_METOP-B
#Satellite: METOP-B
#Configuration: METOP-B
#Start time: 2026-01-20 17:25:39.962464

#LorettStation: 1.0.0 05.05.2024
#Station: PlanumMoscow
#Location: 37.6253844 lon 55.6713361 lat
#TLE: 1 38771U 12049A   25293.92766658  .00000266  00000+0  14193-3 0  9996
#TLE: 2 38771  98.6882 344.7603 0001609 341.5209  18.5909 14.21379342679275

#Time	Az	El	Level	SNR
2026-01-20 17:29:18.432761	156.1	29.8	-63.8	10.0
2026-01-20 17:29:19.553527	156.0	30.0	-64.2	9.7
2026-01-20 17:29:20.674284	156.0	30.3	-64.2	9.9
2026-01-20 17:29:21.794537	156.0	30.5	-64.5	10.1
2026-01-20 17:29:22.913295	155.9	30.7	-64.4	9.7
2026-01-20 17:29:24.034052	155.9	30.9	-64.8	9.6
2026-01-20 17:29:25.153305	155.9	31.1	-64.6	9.5
2026-01-20 17:29:26.273558	155.9	31.4	-64.7	9.0
2026-01-20 17:29:27.393315	155.8	31.6	-64.2	8.2
2026-01-20 17:29:28.514072	155.8	31.8	-64.6	9.8
2026-01-20 17:29:29.631829	155.8	32.1	-64.7	9.5
2026-01-20 17:29:30.750081	155.7	32.3	-64.5	8.7
2026-01-20 17:29:31.868334	155.7	32.5	-64.5	9.2
2026-01-20 17:29:32.988587	155.7	32.8	-64.8	9.9
2026-01-20 17:29:34.105848	155.6	33.0	-64.6	9.5
2026-01-20 17:29:35.225101	155.6	33.2	-64.7	10.0
2026-01-20 17:29:36.345354	155.6	33.5	-64.7	9.4
2026-01-20 17:29:37.464122	155.5	33.7	-65.2	10.0
2026-01-20 17:29:38.582374	155.5	34.0	-64.7	10.2
2026-01-20 17:29:39.701132	155.5	34.2	-64.9	10.1
2026-01-20 17:29:40.819888	155.4	34.5	-64.3	9.5
2026-01-20 17:29:41.938141	155.4	34.7	-64.2	9.4
2026-01-20 17:29:43.057393	155.3	35.0	-64.6	9.5
2026-01-20 17:29:44.175655	155.3	35.2	-64.7	9.7
2026-01-20 17:29:45.294412	155.3	35.5	-64.6	10.1
2026-01-20 17:29:46.415665	155.2	35.7	-64.8	9.8
2026-01-20 17:29:47.535918	155.2	36.0	-64.7	9.6
2026-01-20 17:29:48.655676	155.1	36.3	-64.9	9.7
2026-01-20 17:29:49.774938	155.1	36.5	-64.9	9.6
2026-01-20 17:29:50.895191	155.0	36.8	-64.6	10.2
2026-01-20 17:29:52.013443	155.0	37.1	-64.6	9.3
2026-01-20 17:29:53.131695	155.0	37.3	-64.6	9.7
2026-01-20 17:29:54.249948	154.9	37.6	-64.5	10.0
2026-01-20 17:29:55.368201	154.9	37.9	-64.4	9.2
2026-01-20 17:29:56.488958	154.8	38.2	-64.4	8.5
2026-01-20 17:29:57.608715	154.8	38.5	-64.5	9.6
2026-01-20 17:29:58.728481	154.7	38.7	-64.1	8.7
2026-01-20 17:29:59.848248	154.7	39.0	-64.2	8.6
2026-01-20 17:30:00.970510	154.6	39.3	-64.5	9.6
2026-01-20 17:30:02.089266	154.6	39.6	-64.3	10.5
2026-01-20 17:30:03.211025	154.5	39.9	-64.1	9.7
2026-01-20 17:30:04.333278	154.5	40.2	-64.4	10.2
2026-01-20 17:30:05.455036	154.4	40.5	-63.9	8.9
2026-01-20 17:30:06.577289	154.3	40.8	-64.3	9.7
2026-01-20 17:30:07.699047	154.3	41.1	-64.3	9.9
2026-01-20 17:30:08.820806	154.2	41.4	-64.3	10.0
2026-01-20 17:30:09.943059	154.2	41.7	-64.5	10.7
2026-01-20 17:30:11.065312	154.1	42.0	-64.7	9.7
2026-01-20 17:30:12.187070	154.0	42.3	-64.6	10.0
2026-01-20 17:30:13.310333	154.0	42.7	-64.7	9.7
2026-01-20 17:30:14.431595	153.9	43.0	-64.7	10.6
2026-01-20 17:30:15.553848	153.8	43.3	-64.9	10.1
2026-01-20 17:30:16.676101	153.8	43.6	-64.6	9.9
2026-01-20 17:30:17.798860	153.7	44.0	-64.9	10.7
2026-01-20 17:30:18.921113	153.6	44.3	-64.7	9.2
2026-01-20 17:30:20.043367	153.6	44.6	-65.5	10.6
2026-01-20 17:30:21.165620	153.5	45.0	-65.6	10.6
2026-01-20 17:30:22.286881	153.4	45.3	-65.4	10.2
2026-01-20 17:30:23.409135	153.3	45.6	-65.5	10.4
2026-01-20 17:30:24.529919	153.3	46.0	-65.6	10.3
2026-01-20 17:30:25.652191	153.2	46.3	-65.8	10.4
2026-01-20 17:30:26.773453	153.1	46.7	-65.5	9.6
2026-01-20 17:30:27.894715	153.0	47.0	-65.0	9.3
2026-01-20 17:30:29.016969	152.9	47.4	-65.3	10.5
2026-01-20 17:30:30.138726	152.8	47.8	-65.5	10.2
2026-01-20 17:30:31.260980	152.7	48.1	-65.5	10.9
2026-01-20 17:30:32.382737	152.6	48.5	-65.3	10.5
2026-01-20 17:30:33.504495	152.5	48.9	-65.4	11.0
2026-01-20 17:30:34.626748	152.5	49.2	-65.3	11.1
2026-01-20 17:30:35.748506	152.3	49.6	-65.3	11.3
2026-01-20 17:30:36.870760	152.2	50.0	-65.3	11.3
2026-01-20 17:30:37.993013	152.1	50.4	-65.3	11.6
2026-01-20 17:30:39.114770	152.0	50.7	-65.0	11.3
2026-01-20 17:30:40.236031	151.9	51.1	-65.1	11.1
2026-01-20 17:30:41.356798	151.8	51.5	-65.0	10.9
2026-01-20 17:30:42.479052	151.7	51.9	-64.9	10.9
2026-01-20 17:30:43.600810	151.6	52.3	-64.9	10.4
2026-01-20 17:30:44.723063	151.4	52.7	-65.2	11.3
2026-01-20 17:30:45.844339	151.3	53.1	-64.9	10.2
2026-01-20 17:30:46.968592	151.2	53.5	-65.1	9.9
2026-01-20 17:30:48.095352	151.0	53.9	-65.3	9.7
2026-01-20 17:30:49.217119	150.9	54.3	-65.8	10.4
2026-01-20 17:30:50.338877	150.8	54.7	-65.4	10.0
2026-01-20 17:30:51.461130	150.6	55.2	-65.4	8.9
2026-01-20 17:30:52.582888	150.5	55.6	-65.1	9.3
2026-01-20 17:30:53.704646	150.3	56.0	-65.9	9.8
2026-01-20 17:30:54.825908	150.1	56.4	-65.3	9.4
2026-01-20 17:30:55.951180	150.0	56.9	-65.4	9.3
2026-01-20 17:30:57.072937	149.8	57.3	-65.2	8.4
2026-01-20 17:30:58.194694	149.6	57.7	-65.9	9.3
2026-01-20 17:30:59.316451	149.4	58.2	-66.1	9.5
2026-01-20 17:31:00.438209	149.2	58.6	-66.0	9.6
2026-01-20 17:31:01.560462	149.0	59.1	-65.9	9.1
2026-01-20 17:31:02.682220	148.8	59.5	-65.8	10.6
2026-01-20 17:31:03.803482	148.6	60.0	-65.9	10.2
2026-01-20 17:31:04.925736	148.4	60.4	-65.7	10.0
2026-01-20 17:31:06.047494	148.2	60.9	-65.4	10.3
2026-01-20 17:31:07.169747	147.9	61.3	-65.5	10.1
2026-01-20 17:31:08.292001	147.7	61.8	-65.3	9.7
2026-01-20 17:31:09.412767	147.4	62.3	-65.3	9.1
2026-01-20 17:31:10.535030	147.2	62.7	-65.7	9.7
2026-01-20 17:31:11.657283	146.9	63.2	-65.6	9.1
2026-01-20 17:31:12.780537	146.6	63.7	-66.0	9.8
2026-01-20 17:31:13.902791	146.3	64.1	-66.3	9.4
2026-01-20 17:31:15.025044	146.0	64.6	-65.9	9.1
2026-01-20 17:31:16.146802	145.7	65.1	-65.9	9.8
2026-01-20 17:31:17.268561	145.3	65.6	-65.7	9.2
2026-01-20 17:31:18.390813	145.0	66.1	-65.7	8.5
2026-01-20 17:31:19.513067	144.6	66.6	-66.1	9.2
2026-01-20 17:31:20.635320	144.2	67.0	-66.3	9.6
2026-01-20 17:31:21.758078	143.8	67.5	-66.3	9.1
2026-01-20 17:31:22.879340	143.4	68.0	-66.3	8.5
2026-01-20 17:31:24.001593	142.9	68.5	-66.4	9.4
2026-01-20 17:31:25.122855	142.4	69.0	-66.5	8.7
2026-01-20 17:31:26.245109	141.9	69.5	-66.4	9.4
2026-01-20 17:31:27.366379	141.4	70.0	-66.1	8.1
2026-01-20 17:31:28.488145	140.8	70.5	-66.1	9.0
2026-01-20 17:31:29.609407	140.3	71.0	-66.0	7.8
2026-01-20 17:31:30.730669	139.6	71.5	-66.5	7.6
2026-01-20 17:31:31.852435	139.0	72.0	-66.8	7.2
2026-01-20 17:31:32.973698	138.3	72.5	-67.0	8.6
2026-01-20 17:31:34.095952	137.5	73.0	-66.5	7.9
2026-01-20 17:31:35.218205	136.8	73.5	-66.7	8.5
2026-01-20 17:31:36.341476	135.9	74.0	-66.6	7.0
2026-01-20 17:31:37.463730	135.0	74.5	-66.1	6.4
2026-01-20 17:31:38.584992	134.1	75.0	-66.7	8.5
2026-01-20 17:31:39.706254	133.0	75.5	-67.0	7.5
2026-01-20 17:31:40.828011	131.9	76.0	-66.9	7.9
2026-01-20 17:31:41.949274	130.8	76.4	-66.0	6.0
2026-01-20 17:31:43.071031	129.5	76.9	-66.8	7.2
2026-01-20 17:31:44.197800	128.1	77.4	-67.2	6.7
2026-01-20 17:31:45.319557	126.6	77.9	-67.7	6.4
2026-01-20 17:31:46.441314	125.0	78.3	-67.8	6.3
2026-01-20 17:31:47.562577	123.3	78.8	-67.8	5.9
2026-01-20 17:31:48.684334	121.4	79.2	-67.6	5.9
2026-01-20 17:31:49.806588	119.4	79.7	-67.8	5.6
2026-01-20 17:31:50.927850	117.1	80.1	-67.6	5.0
2026-01-20 17:31:52.052609	114.7	80.5	-67.6	5.4
2026-01-20 17:31:53.174366	112.1	80.9	-67.2	4.9
2026-01-20 17:31:54.296124	109.2	81.2	-67.3	5.6
2026-01-20 17:31:55.418378	106.1	81.6	-66.7	4.9
2026-01-20 17:31:56.540134	102.7	81.9	-66.9	4.4
2026-01-20 17:31:57.661893	99.1	82.2	-67.6	6.5
2026-01-20 17:31:58.782659	95.2	82.4	-67.6	6.8
2026-01-20 17:31:59.903921	91.1	82.6	-67.3	5.7
2026-01-20 17:32:01.029175	86.7	82.8	-67.2	5.7
2026-01-20 17:32:02.150933	82.2	83.0	-67.5	5.5
2026-01-20 17:32:03.273187	77.5	83.0	-67.2	4.6
2026-01-20 17:32:04.395440	72.7	83.1	-67.6	5.6
2026-01-20 17:32:05.517198	67.8	83.1	-67.6	4.8
2026-01-20 17:32:06.639452	63.1	83.0	-68.0	5.2
2026-01-20 17:32:07.761209	58.4	82.9	-68.1	5.4
2026-01-20 17:32:08.882968	53.9	82.8	-67.9	5.5
2026-01-20 17:32:10.005221	49.6	82.6	-67.6	5.5
2026-01-20 17:32:11.126979	45.6	82.3	-67.5	6.2
2026-01-20 17:32:12.249232	41.8	82.1	-66.4	3.9
2026-01-20 17:32:13.370990	38.3	81.8	-67.1	5.7
2026-01-20 17:32:14.493244	35.0	81.4	-67.2	5.1
2026-01-20 17:32:15.615497	32.0	81.1	-67.1	4.6
2026-01-20 17:32:16.736262	29.2	80.7	-67.5	5.0
2026-01-20 17:32:17.859524	26.7	80.3	-67.4	4.7
2026-01-20 17:32:18.982281	24.3	79.9	-66.8	2.9
2026-01-20 17:32:20.104040	22.2	79.5	-67.5	4.7
2026-01-20 17:32:21.226293	20.2	79.1	-67.3	4.6
2026-01-20 17:32:22.346562	18.3	78.6	-67.4	5.5
2026-01-20 17:32:23.467824	16.7	78.2	-66.8	3.4
2026-01-20 17:32:24.589591	15.1	77.7	-67.8	5.4
2026-01-20 17:32:25.711348	13.7	77.2	-67.0	3.9
2026-01-20 17:32:26.833106	12.3	76.8	-66.9	3.8
2026-01-20 17:32:27.955359	11.1	76.3	-67.1	5.3
2026-01-20 17:32:29.077118	9.9	75.8	-66.8	5.2
2026-01-20 17:32:30.199371	8.9	75.3	-66.7	4.4
2026-01-20 17:32:31.320633	7.9	74.8	-67.0	4.7
2026-01-20 17:32:32.442391	6.9	74.3	-66.8	5.3
2026-01-20 17:32:33.566655	6.1	73.8	-66.8	4.9
2026-01-20 17:32:34.688413	5.2	73.3	-66.9	5.1
2026-01-20 17:32:35.809675	4.5	72.8	-66.5	4.8
2026-01-20 17:32:36.931432	3.8	72.3	-67.0	5.1
2026-01-20 17:32:38.053190	3.1	71.8	-66.6	5.1
2026-01-20 17:32:39.173956	2.4	71.3	-66.9	4.3
2026-01-20 17:32:40.294740	1.8	70.8	-66.8	4.8
2026-01-20 17:32:41.419011	1.2	70.3	-66.0	4.9
2026-01-20 17:32:42.539784	0.7	69.8	-66.6	4.2
2026-01-20 17:32:43.660054	0.2	69.4	-66.1	4.4
2026-01-20 17:32:44.781316	359.7	68.9	-66.7	4.8
2026-01-20 17:32:45.903073	359.2	68.4	-67.0	4.6
2026-01-20 17:32:47.023838	358.8	67.9	-67.1	4.8
2026-01-20 17:32:48.146092	358.4	67.4	-66.7	3.2
2026-01-20 17:32:49.267858	358.0	66.9	-66.8	3.5
2026-01-20 17:32:50.395113	357.6	66.4	-66.1	3.4
2026-01-20 17:32:51.516375	357.2	65.9	-66.4	3.9
2026-01-20 17:32:52.638629	356.9	65.4	-66.6	4.9
2026-01-20 17:32:53.760386	356.5	65.0	-66.0	4.2
2026-01-20 17:32:54.882640	356.2	64.5	-65.5	4.5
2026-01-20 17:32:56.004893	355.9	64.0	-65.9	4.2
2026-01-20 17:32:57.126154	355.6	63.5	-65.9	3.0
2026-01-20 17:32:58.249408	355.3	63.1	-65.7	5.0
2026-01-20 17:32:59.370669	355.0	62.6	-65.7	5.3
2026-01-20 17:33:00.492435	354.8	62.1	-65.7	5.1
2026-01-20 17:33:01.613697	354.5	61.7	-65.0	1.5
2026-01-20 17:33:02.734959	354.3	61.2	-66.3	5.1
2026-01-20 17:33:03.856221	354.0	60.8	-65.1	0.4
2026-01-20 17:33:04.977491	353.8	60.3	-66.3	2.3
2026-01-20 17:33:06.101754	353.6	59.8	-66.7	5.0
2026-01-20 17:33:07.224007	353.4	59.4	-66.5	4.0
2026-01-20 17:33:08.345270	353.2	59.0	-66.3	4.6
2026-01-20 17:33:09.467523	353.0	58.5	-66.2	1.6
2026-01-20 17:33:10.589281	352.8	58.1	-65.7	2.9
2026-01-20 17:33:11.711535	352.6	57.6	-66.5	3.6
2026-01-20 17:33:12.833788	352.4	57.2	-65.9	3.0
2026-01-20 17:33:13.958051	352.3	56.8	-66.8	5.2
2026-01-20 17:33:15.079808	352.1	56.3	-66.5	3.6
2026-01-20 17:33:16.201565	351.9	55.9	-66.6	4.5
2026-01-20 17:33:17.323819	351.8	55.5	-66.8	4.6
2026-01-20 17:33:18.445577	351.6	55.1	-66.1	4.8
2026-01-20 17:33:19.567830	351.5	54.7	-65.5	4.5
2026-01-20 17:33:20.690084	351.3	54.2	-64.0	2.5
2026-01-20 17:33:21.813346	351.2	53.8	-63.7	2.0
2026-01-20 17:33:22.934608	351.1	53.4	-65.8	6.0
2026-01-20 17:33:24.056365	350.9	53.0	-65.0	5.7
2026-01-20 17:33:25.178619	350.8	52.6	-64.6	5.3
2026-01-20 17:33:26.300377	350.7	52.2	-65.2	6.0
2026-01-20 17:33:27.422134	350.6	51.8	-65.1	6.5
2026-01-20 17:33:28.543901	350.5	51.4	-64.6	5.6
2026-01-20 17:33:29.666154	350.3	51.1	-64.9	5.7
2026-01-20 17:33:30.788408	350.2	50.7	-65.2	6.4
2026-01-20 17:33:31.910165	350.1	50.3	-65.1	6.3
2026-01-20 17:33:33.034419	350.0	49.9	-65.5	6.9
2026-01-20 17:33:34.156177	349.9	49.5	-64.9	6.8
2026-01-20 17:33:35.277439	349.8	49.2	-65.2	6.2
2026-01-20 17:33:36.398205	349.7	48.8	-64.8	5.9
2026-01-20 17:33:37.519468	349.6	48.4	-65.1	5.8
2026-01-20 17:33:38.641722	349.5	48.1	-65.6	6.0
2026-01-20 17:33:39.762487	349.4	47.7	-65.5	6.0
2026-01-20 17:33:40.883757	349.4	47.4	-65.4	6.0
2026-01-20 17:33:42.006010	349.3	47.0	-65.2	6.2
2026-01-20 17:33:43.128263	349.2	46.6	-64.9	4.0
2026-01-20 17:33:44.250517	349.1	46.3	-65.5	6.4
2026-01-20 17:33:45.371779	349.0	46.0	-65.3	7.0
2026-01-20 17:33:46.494032	348.9	45.6	-65.1	7.3
2026-01-20 17:33:47.615790	348.9	45.3	-65.1	7.3
2026-01-20 17:33:48.738547	348.8	44.9	-65.0	7.7
2026-01-20 17:33:49.859314	348.7	44.6	-64.9	7.4
2026-01-20 17:33:50.980576	348.6	44.3	-64.7	8.1
2026-01-20 17:33:52.102829	348.6	43.9	-64.4	7.8
2026-01-20 17:33:53.224587	348.5	43.6	-64.0	8.5
2026-01-20 17:33:54.346841	348.4	43.3	-64.4	8.0
2026-01-20 17:33:55.468598	348.4	43.0	-63.4	8.5
2026-01-20 17:33:56.590852	348.3	42.6	-64.5	8.5
2026-01-20 17:33:57.712609	348.2	42.3	-64.2	8.0
2026-01-20 17:33:58.834367	348.2	42.0	-64.5	7.9
2026-01-20 17:33:59.956620	348.1	41.7	-64.1	6.2
2026-01-20 17:34:01.077386	348.1	41.4	-64.6	8.3
2026-01-20 17:34:02.199143	348.0	41.1	-64.9	7.1
2026-01-20 17:34:03.320901	347.9	40.8	-64.7	6.7
2026-01-20 17:34:04.443155	347.9	40.5	-64.4	6.6
2026-01-20 17:34:05.565408	347.8	40.2	-64.6	5.4
2026-01-20 17:34:06.687166	347.8	39.9	-64.8	7.2
2026-01-20 17:34:07.809419	347.7	39.6	-64.9	7.5
2026-01-20 17:34:08.931176	347.7	39.3	-65.0	6.8
2026-01-20 17:34:10.054438	347.6	39.0	-65.1	7.6
2026-01-20 17:34:11.176692	347.6	38.7	-64.7	7.2
2026-01-20 17:34:12.298450	347.5	38.5	-64.8	7.0
2026-01-20 17:34:13.420206	347.5	38.2	-64.1	6.8
2026-01-20 17:34:14.542460	347.4	37.9	-64.2	6.2
2026-01-20 17:34:15.664217	347.4	37.6	-63.9	5.3
2026-01-20 17:34:16.784983	347.3	37.4	-63.5	6.7
2026-01-20 17:34:17.906741	347.3	37.1	-63.8	6.8
2026-01-20 17:34:19.029995	347.3	36.8	-64.0	8.2
2026-01-20 17:34:20.151753	347.2	36.5	-63.4	7.3
2026-01-20 17:34:21.273510	347.2	36.3	-63.5	6.1
2026-01-20 17:34:22.396764	347.1	36.0	-64.1	7.3
2026-01-20 17:34:23.519017	347.1	35.8	-64.0	6.8
2026-01-20 17:34:24.640775	347.0	35.5	-64.2	7.1
2026-01-20 17:34:25.763038	347.0	35.2	-63.5	6.6
2026-01-20 17:34:26.887797	347.0	35.0	-63.3	5.2
2026-01-20 17:34:28.009059	346.9	34.7	-63.9	7.4
2026-01-20 17:34:29.131312	346.9	34.5	-63.7	7.7
2026-01-20 17:34:30.253071	346.9	34.2	-62.5	8.2
2026-01-20 17:34:31.375324	346.8	34.0	-64.1	8.3
2026-01-20 17:34:32.497578	346.8	33.7	-63.3	8.6
2026-01-20 17:34:33.619335	346.8	33.5	-64.0	7.9
2026-01-20 17:34:34.746094	346.7	33.3	-63.6	6.0
2026-01-20 17:34:35.868348	346.7	33.0	-63.8	7.2
2026-01-20 17:34:36.990106	346.7	32.8	-63.9	6.7
2026-01-20 17:34:38.111865	346.6	32.6	-64.0	6.7
2026-01-20 17:34:39.233126	346.6	32.3	-64.1	6.5
2026-01-20 17:34:40.354389	346.6	32.1	-64.2	7.6
2026-01-20 17:34:41.476642	346.5	31.9	-64.1	7.1
2026-01-20 17:34:42.598417	346.5	31.6	-64.3	7.7
2026-01-20 17:34:43.720670	346.5	31.4	-64.3	7.7
2026-01-20 17:34:44.841437	346.4	31.2	-64.1	7.2
2026-01-20 17:34:45.963203	346.4	31.0	-64.4	7.1
2026-01-20 17:34:47.084465	346.4	30.7	-63.8	6.1
2026-01-20 17:34:48.204239	346.3	30.5	-64.0	7.1
2026-01-20 17:34:49.325997	346.3	30.3	-63.8	5.3
2026-01-20 17:34:50.447761	346.3	30.1	-63.3	4.3
2026-01-20 17:34:51.569519	346.3	29.9	-63.4	5.7
2026-01-20 17:34:52.691772	346.2	29.7	-63.7	6.8
2026-01-20 17:34:53.813530	346.2	29.4	-62.6	4.3
2026-01-20 17:34:54.935784	346.2	29.2	-63.3	5.4
2026-01-20 17:34:56.058037	346.2	29.0	-63.5	6.5
2026-01-20 17:34:57.179300	346.1	28.8	-63.4	5.0
2026-01-20 17:34:58.301058	346.1	28.6	-63.3	6.7
2026-01-20 17:34:59.423312	346.1	28.4	-63.1	6.7
2026-01-20 17:35:00.544573	346.1	28.2	-63.6	8.4
2026-01-20 17:35:01.666339	346.0	28.0	-62.9	5.4
2026-01-20 17:35:02.787600	346.0	27.8	-63.5	4.8
2026-01-20 17:35:03.908862	346.0	27.6	-64.5	7.5
2026-01-20 17:35:05.030123	346.0	27.4	-64.3	6.9
2026-01-20 17:35:06.151881	346.0	27.2	-64.3	7.9
2026-01-20 17:35:07.277144	345.9	27.0	-63.8	6.5
2026-01-20 17:35:08.399902	345.9	26.8	-64.0	7.1
2026-01-20 17:35:09.521660	345.9	26.6	-64.5	7.5
2026-01-20 17:35:10.642941	345.9	26.5	-64.2	7.6
2026-01-20 17:35:11.764698	345.8	26.3	-63.9	6.7
2026-01-20 17:35:12.888456	345.8	26.1	-64.5	7.9
2026-01-20 17:35:14.009719	345.8	25.9	-64.0	6.3
2026-01-20 17:35:15.134477	345.8	25.7	-63.0	5.7
2026-01-20 17:35:16.256731	345.8	25.5	-63.6	6.9
2026-01-20 17:35:17.378489	345.7	25.3	-64.2	6.5
2026-01-20 17:35:18.500742	345.7	25.2	-64.0	6.4
2026-01-20 17:35:19.622995	345.7	25.0	-64.0	7.4
2026-01-20 17:35:20.747249	345.7	24.8	-63.9	7.2
2026-01-20 17:35:21.869007	345.7	24.6	-64.7	5.9
2026-01-20 17:35:22.995766	345.7	24.5	-64.2	5.9
2026-01-20 17:35:24.118019	345.6	24.3	-64.8	6.9
2026-01-20 17:35:25.240273	345.6	24.1	-63.7	5.3
2026-01-20 17:35:26.362526	345.6	23.9	-63.8	5.0
2026-01-20 17:35:27.484780	345.6	23.8	-63.8	6.6
2026-01-20 17:35:28.606538	345.6	23.6	-63.4	6.4
2026-01-20 17:35:29.728792	345.5	23.4	-63.6	6.4
2026-01-20 17:35:30.853055	345.5	23.3	-64.1	5.4
2026-01-20 17:35:31.974317	345.5	23.1	-63.5	5.8
2026-01-20 17:35:33.095580	345.5	22.9	-63.7	5.4
2026-01-20 17:35:34.217345	345.5	22.8	-64.0	6.1
2026-01-20 17:35:35.339102	345.5	22.6	-63.1	5.6
2026-01-20 17:35:36.460860	345.5	22.4	-63.2	5.7
2026-01-20 17:35:37.583113	345.4	22.3	-63.5	4.6
2026-01-20 17:35:38.704879	345.4	22.1	-63.2	4.2
2026-01-20 17:35:39.826140	345.4	22.0	-64.4	5.8
2026-01-20 17:35:40.946906	345.4	21.8	-64.2	6.3
2026-01-20 17:35:42.068664	345.4	21.6	-64.4	4.7
2026-01-20 17:35:43.189926	345.4	21.5	-64.6	6.3
2026-01-20 17:35:44.311187	345.4	21.3	-64.5	5.2
2026-01-20 17:35:45.432952	345.3	21.2	-64.4	6.1
2026-01-20 17:35:46.554215	345.3	21.0	-64.2	5.4
2026-01-20 17:35:47.679469	345.3	20.9	-64.8	7.1
2026-01-20 17:35:48.801723	345.3	20.7	-64.5	5.8
2026-01-20 17:35:49.923481	345.3	20.6	-64.3	5.7
2026-01-20 17:35:51.045238	345.3	20.4	-64.2	6.8
2026-01-20 17:35:52.165508	345.3	20.3	-63.7	4.9
2026-01-20 17:35:53.287265	345.2	20.1	-64.2	6.4
2026-01-20 17:35:54.409518	345.2	20.0	-65.0	6.2
2026-01-20 17:35:55.536284	345.2	19.8	-64.5	5.5
2026-01-20 17:35:56.657547	345.2	19.7	-63.5	4.3
2026-01-20 17:35:57.779304	345.2	19.5	-64.0	5.9
2026-01-20 17:35:58.901061	345.2	19.4	-63.7	2.7
2026-01-20 17:36:00.023315	345.2	19.2	-63.8	4.9
2026-01-20 17:36:01.145568	345.2	19.1	-64.0	2.1
2026-01-20 17:36:02.267829	345.2	19.0	-63.9	5.1
2026-01-20 17:36:03.390083	345.1	18.8	-64.6	4.7
2026-01-20 17:36:04.511840	345.1	18.7	-63.5	1.8
2026-01-20 17:36:05.634093	345.1	18.5	-64.5	4.0
2026-01-20 17:36:06.756346	345.1	18.4	-64.4	3.8
2026-01-20 17:36:07.878105	345.1	18.3	-65.1	5.8
2026-01-20 17:36:09.000358	345.1	18.1	-64.7	4.6
2026-01-20 17:36:10.122116	345.1	18.0	-64.8	4.6
2026-01-20 17:36:11.243873	345.1	17.9	-64.6	3.8
2026-01-20 17:36:12.366135	345.1	17.7	-64.7	4.3
2026-01-20 17:36:13.488389	345.1	17.6	-64.3	4.0
2026-01-20 17:36:14.610147	345.0	17.5	-64.4	4.3
2026-01-20 17:36:15.732400	345.0	17.3	-64.3	4.0
2026-01-20 17:36:16.853662	345.0	17.2	-64.8	3.9
2026-01-20 17:36:17.975420	345.0	17.1	-64.7	3.7
2026-01-20 17:36:19.096683	345.0	16.9	-63.5	2.5
2026-01-20 17:36:20.218440	345.0	16.8	-64.9	4.3
2026-01-20 17:36:21.339703	345.0	16.7	-65.4	4.6
2026-01-20 17:36:22.461956	345.0	16.6	-64.6	4.3
2026-01-20 17:36:23.583714	345.0	16.4	-64.4	4.1
2026-01-20 17:36:24.705471	345.0	16.3	-64.7	4.2
2026-01-20 17:36:25.827725	344.9	16.2	-65.0	3.9
2026-01-20 17:36:26.948491	344.9	16.0	-64.3	3.9
2026-01-20 17:36:28.073248	344.9	15.9	-64.4	3.5
2026-01-20 17:36:29.195502	344.9	15.8	-64.6	3.9
2026-01-20 17:36:30.316765	344.9	15.7	-65.3	4.0
2026-01-20 17:36:31.438522	344.9	15.6	-65.2	3.2
2026-01-20 17:36:32.559784	344.9	15.4	-65.3	2.5
2026-01-20 17:36:33.682038	344.9	15.3	-64.5	3.6
2026-01-20 17:36:34.803796	344.9	15.2	-64.2	0.0
2026-01-20 17:36:35.930555	344.9	15.1	-65.4	4.5
2026-01-20 17:36:37.052312	344.9	14.9	-64.5	2.9
2026-01-20 17:36:38.174069	344.9	14.8	-64.5	3.9
2026-01-20 17:36:39.296323	344.9	14.7	-64.7	4.1
2026-01-20 17:36:40.418585	344.8	14.6	-63.6	2.2
2026-01-20 17:36:41.539846	344.8	14.5	-64.0	1.7
2026-01-20 17:36:42.660613	344.8	14.4	-64.6	1.9
2026-01-20 17:36:43.784884	344.8	14.2	-64.8	3.9
2026-01-20 17:36:44.907138	344.8	14.1	-64.6	2.3
2026-01-20 17:36:46.028915	344.8	14.0	-65.1	2.9
2026-01-20 17:36:47.150673	344.8	13.9	-64.5	3.7
2026-01-20 17:36:48.271935	344.8	13.8	-65.3	4.8
2026-01-20 17:36:49.394197	344.8	13.7	-64.5	2.6
2026-01-20 17:36:50.515954	344.8	13.6	-65.0	4.2
2026-01-20 17:36:51.642713	344.8	13.4	-64.6	1.7
2026-01-20 17:36:52.763481	344.8	13.3	-63.7	0.0
2026-01-20 17:36:53.884742	344.8	13.2	-64.1	0.0
2026-01-20 17:36:55.006004	344.8	13.1	-65.0	2.1
2026-01-20 17:36:56.128762	344.8	13.0	-65.2	2.8
2026-01-20 17:36:57.250520	344.7	12.9	-65.1	0.0
2026-01-20 17:36:58.372781	344.7	12.8	-64.3	0.9
2026-01-20 17:36:59.493052	344.7	12.7	-64.7	0.0
2026-01-20 17:37:00.615305	344.7	12.6	-63.9	0.0
2026-01-20 17:37:01.737559	344.7	12.5	-65.5	1.9
2026-01-20 17:37:02.859812	344.7	12.3	-65.3	0.0
2026-01-20 17:37:03.981570	344.7	12.2	-64.8	1.6
2026-01-20 17:37:05.103824	344.7	12.1	-65.5	2.6
2026-01-20 17:37:06.225581	344.7	12.0	-65.5	2.6
2026-01-20 17:37:07.345852	344.7	11.9	-65.0	2.9
2026-01-20 17:37:08.467609	344.7	11.8	-65.4	2.4
2026-01-20 17:37:09.589367	344.7	11.7	-64.9	2.4
2026-01-20 17:37:10.710628	344.7	11.6	-65.1	0.8
2026-01-20 17:37:11.832386	344.7	11.5	-65.5	3.3
2026-01-20 17:37:12.954144	344.7	11.4	-64.9	2.9
2026-01-20 17:37:14.076397	344.7	11.3	-64.7	2.0
2026-01-20 17:37:15.197163	344.7	11.2	-64.8	0.0
2026-01-20 17:37:16.321931	344.7	11.1	-64.6	0.3
2026-01-20 17:37:17.442698	344.7	11.0	-63.5	0.0
2026-01-20 17:37:18.563465	344.7	10.9	-64.5	3.0
2026-01-20 17:37:19.684231	344.6	10.8	-64.7	1.2
2026-01-20 17:37:20.805493	344.6	10.7	-64.7	0.0
2026-01-20 17:37:21.928755	344.6	10.6	-64.8	2.9
2026-01-20 17:37:23.051009	344.6	10.5	-64.1	1.3
2026-01-20 17:37:24.172765	344.6	10.4	-63.9	0.0
2026-01-20 17:37:25.295019	344.6	10.3	-64.5	2.1
2026-01-20 17:37:26.417777	344.6	10.2	-64.4	1.5
2026-01-20 17:37:27.539535	344.6	10.1	-64.4	1.4
2026-01-20 17:37:28.660797	344.6	10.0	-63.7	0.7
2026-01-20 17:37:29.782556	344.6	9.9	-64.0	0.7
2026-01-20 17:37:30.903817	344.6	9.8	-63.2	0.0
2026-01-20 17:37:32.025575	344.6	9.7	-63.7	0.7
2026-01-20 17:37:33.147828	344.6	9.6	-64.5	1.3
2026-01-20 17:37:34.268595	344.6	9.5	-64.5	0.0
2026-01-20 17:37:35.389362	344.6	9.4	-64.4	0.0
2026-01-20 17:37:36.510623	344.6	9.3	-65.0	2.8
2026-01-20 17:37:37.631389	344.6	9.2	-63.3	0.0
2026-01-20 17:37:38.753148	344.6	9.1	-63.8	0.0
2026-01-20 17:37:39.876410	344.6	9.0	-64.3	0.4
2026-01-20 17:37:40.998663	344.6	9.0	-64.0	0.0
2026-01-20 17:37:42.120421	344.6	8.9	-63.6	0.0
2026-01-20 17:37:43.241683	344.6	8.8	-64.0	0.0
2026-01-20 17:37:44.363944	344.6	8.7	-64.4	0.0
2026-01-20 17:37:45.486198	344.6	8.6	-65.1	0.0
2026-01-20 17:37:46.608451	344.6	8.5	-64.4	0.0
2026-01-20 17:37:47.732713	344.6	8.4	-64.9	1.2
2026-01-20 17:37:48.854470	344.5	8.3	-64.6	0.0
2026-01-20 17:37:49.976723	344.5	8.2	-64.6	0.0
2026-01-20 17:37:51.098977	344.5	8.1	-64.9	0.0
2026-01-20 17:37:52.220734	344.5	8.0	-64.6	0.0
2026-01-20 17:37:53.342988	344.5	7.9	-64.8	0.2
2026-01-20 17:37:54.464745	344.5	7.9	-64.0	0.0
2026-01-20 17:37:55.586007	344.5	7.8	-64.6	0.8
2026-01-20 17:37:56.709765	344.5	7.7	-64.5	0.0
2026-01-20 17:37:57.831523	344.5	7.6	-64.4	0.0
2026-01-20 17:37:58.952786	344.5	7.5	-63.5	0.0
2026-01-20 17:38:00.075039	344.5	7.4	-63.4	0.0
2026-01-20 17:38:01.197292	344.5	7.3	-64.0	0.0
2026-01-20 17:38:02.318554	344.5	7.2	-63.7	0.0
2026-01-20 17:38:03.440312	344.5	7.2	-63.3	0.0
2026-01-20 17:38:04.564566	344.5	7.1	-63.4	0.0
2026-01-20 17:38:05.686323	344.5	7.0	-63.3	0.0
2026-01-20 17:38:06.808092	344.5	6.9	-63.6	0.0
2026-01-20 17:38:07.930345	344.5	6.8	-63.8	0.0
2026-01-20 17:38:09.052599	344.5	6.7	-62.9	0.0
2026-01-20 17:38:10.175357	344.5	6.6	-63.7	0.0
2026-01-20 17:38:11.297115	344.5	6.6	-63.7	0.0
2026-01-20 17:38:12.419882	344.5	6.5	-63.9	0.0
2026-01-20 17:38:13.541144	344.5	6.4	-63.7	0.0
2026-01-20 17:38:14.663398	344.5	6.3	-64.5	0.0
2026-01-20 17:38:15.784172	344.5	6.2	-63.9	0.0
2026-01-20 17:38:16.906425	344.5	6.1	-64.1	0.0
2026-01-20 17:38:18.028183	344.5	6.0	-64.3	0.1
2026-01-20 17:38:19.149446	344.5	6.0	-66.6	0.0
2026-01-20 17:38:20.271707	344.5	5.9	-67.3	0.0
2026-01-20 17:38:21.392969	344.5	5.8	-67.9	0.0
2026-01-20 17:38:22.514727	344.5	5.7	-67.1	0.0
2026-01-20 17:38:23.635989	344.5	5.6	-67.6	0.0
2026-01-20 17:38:24.758243	344.5	5.6	-68.4	0.0
2026-01-20 17:38:25.880000	344.5	5.5	-68.2	0.0
2026-01-20 17:38:27.002253	344.5	5.4	-68.3	0.0
2026-01-20 17:38:28.126021	344.5	5.3	-69.4	0.0
2026-01-20 17:38:29.247778	344.5	5.2	-68.3	0.0
2026-01-20 17:38:30.369536	344.5	5.1	-69.9	0.0
2026-01-20 17:38:31.491789	344.5	5.1	-70.1	0.0
2026-01-20 17:38:32.613548	344.5	5.0	-70.5	0.0
#Closed at: 2026-01-20 17:25:34.963944