passes_logs/2026/01/24/R4.6S_Anadyr/R4.6S_Anadyr__20260124_022739_FENGYUN_3D_rec.log

#Pass ID: 20260124_022739_FENGYUN 3D
#Satellite: FENGYUN 3D
#Configuration: FENGYUN 3D
#almurnet v.1.7.20251203
#Start time: 2026-01-24 02:27:40

#Version: 2.2.20231116
#Station: R4.6S_Anadyr
#Location: 177.4865 lon 64.73178 lat
#TLE: 1 43010U 17072A   26023.60174628  .00000324  00000+0  17481-3 0  9994
#TLE: 2 43010  98.9958 355.5514 0002482  93.7422 266.4037 14.19699955424476

#Time	Az	El	Level	Level2	SNR	BER	BlckErr	Temp	State	Recorded	gain1	gain2
2026-01-24 02:27:40.54	160.70	0.06	-51.4	-66.4	3.5	1.51e+00	0	39	0	0	60	75212
2026-01-24 02:27:41.55	160.71	0.12	-51.6	-63.7	3.6	8.43e-01	0	40	104	0	60	55157
2026-01-24 02:27:42.56	160.72	0.18	-51.4	-63.5	3.6	8.46e-01	0	40	104	0	60	54067
2026-01-24 02:27:43.57	160.73	0.24	-51.6	-63.7	3.6	8.44e-01	0	40	104	0	60	55458
2026-01-24 02:27:44.58	160.74	0.30	-51.4	-63.5	3.6	8.45e-01	0	40	104	0	60	54061
2026-01-24 02:27:45.59	160.75	0.36	-51.3	-63.4	3.6	8.46e-01	0	40	104	0	60	53731
2026-01-24 02:27:46.60	160.76	0.42	-51.3	-63.4	3.6	8.45e-01	0	40	104	0	60	53508
2026-01-24 02:27:47.61	160.77	0.48	-51.2	-63.4	3.6	8.45e-01	0	40	104	0	60	53462
2026-01-24 02:27:48.62	160.78	0.54	-51.2	-63.4	3.6	8.44e-01	0	40	104	0	60	53247
2026-01-24 02:27:49.63	160.79	0.61	-51.2	-63.3	3.6	8.45e-01	0	40	104	0	60	52761
2026-01-24 02:27:50.64	160.80	0.67	-51.2	-63.3	3.6	8.46e-01	0	40	104	0	60	52809
2026-01-24 02:27:51.65	160.81	0.73	-51.2	-63.3	3.6	8.45e-01	0	40	104	0	60	52649
2026-01-24 02:27:52.66	160.82	0.79	-51.2	-63.2	3.6	8.45e-01	0	40	104	0	60	52512
2026-01-24 02:27:53.67	160.83	0.85	-51.1	-63.2	3.6	8.46e-01	0	40	104	0	60	52289
2026-01-24 02:27:54.68	160.84	0.92	-51.0	-63.2	3.6	8.45e-01	0	40	104	0	60	52415
2026-01-24 02:27:55.68	160.85	0.98	-51.0	-63.1	3.6	8.45e-01	0	40	104	0	60	51778
2026-01-24 02:27:56.69	160.86	1.04	-50.8	-63.0	3.6	8.46e-01	0	40	104	0	60	51178
2026-01-24 02:27:57.70	160.87	1.10	-50.6	-62.8	3.6	8.44e-01	0	40	104	0	60	49812
2026-01-24 02:27:58.71	160.88	1.17	-50.5	-62.7	3.6	8.45e-01	0	40	104	0	60	49123
2026-01-24 02:27:59.72	160.89	1.23	-50.4	-62.5	3.6	8.44e-01	0	40	104	0	60	47990
2026-01-24 02:28:00.73	160.90	1.29	-49.4	-61.5	3.6	8.46e-01	0	40	104	0	60	42823
2026-01-24 02:28:01.74	160.91	1.36	-49.7	-61.8	3.6	8.45e-01	0	40	104	0	60	44366
2026-01-24 02:28:02.75	160.92	1.42	-49.7	-61.8	3.6	8.46e-01	0	40	104	0	60	44593
2026-01-24 02:28:03.76	160.93	1.48	-49.6	-61.5	3.6	8.45e-01	0	40	104	0	60	43023
2026-01-24 02:28:04.77	160.94	1.55	-49.6	-61.3	3.6	8.45e-01	0	40	104	0	60	42101
2026-01-24 02:28:05.78	160.95	1.61	-49.6	-61.3	3.6	8.45e-01	0	40	104	0	60	42040
2026-01-24 02:28:06.79	160.96	1.67	-49.6	-61.5	3.6	8.45e-01	0	40	104	0	60	42899
2026-01-24 02:28:07.80	160.97	1.74	-49.5	-60.6	3.5	8.45e-01	0	40	104	0	60	38693
2026-01-24 02:28:08.81	160.98	1.80	-49.6	-61.3	3.6	8.45e-01	0	40	104	0	60	42125
2026-01-24 02:28:09.82	160.99	1.87	-49.6	-61.5	3.6	8.45e-01	0	40	104	0	60	42776
2026-01-24 02:28:10.83	161.00	1.93	-49.6	-61.5	3.6	8.45e-01	0	40	104	0	60	43077
2026-01-24 02:28:11.84	161.01	2.00	-49.6	-61.6	3.6	8.45e-01	0	40	104	0	60	43708
2026-01-24 02:28:12.85	161.02	2.06	-49.7	-61.8	3.6	8.45e-01	0	40	104	0	60	44478
2026-01-24 02:28:13.86	161.03	2.13	-49.6	-61.8	3.6	8.46e-01	0	40	104	0	60	44270
2026-01-24 02:28:14.87	161.04	2.19	-49.6	-61.7	3.6	8.46e-01	0	40	104	0	60	43963
2026-01-24 02:28:15.88	161.05	2.26	-49.6	-61.3	3.6	8.45e-01	0	40	104	0	60	41983
2026-01-24 02:28:16.89	161.06	2.32	-49.6	-61.5	3.6	8.46e-01	0	40	104	0	60	42719
2026-01-24 02:28:17.90	161.07	2.39	-49.6	-61.4	3.6	8.44e-01	0	40	104	0	60	42383
2026-01-24 02:28:18.90	161.08	2.45	-49.5	-60.1	3.6	8.46e-01	0	40	104	0	60	36606
2026-01-24 02:28:19.91	161.09	2.52	-49.4	-59.6	3.6	8.43e-01	0	40	104	0	60	34688
2026-01-24 02:28:20.92	161.10	2.58	-49.3	-58.3	3.7	8.42e-01	0	40	104	0	60	29664
2026-01-24 02:28:21.93	161.12	2.65	-49.5	-60.2	3.6	8.46e-01	0	40	104	0	60	36838
2026-01-24 02:28:22.94	161.13	2.72	-49.5	-60.5	3.6	8.43e-01	0	40	104	0	60	38295
2026-01-24 02:28:23.96	161.14	2.78	-49.5	-60.5	3.6	8.45e-01	0	41	104	0	60	38485
2026-01-24 02:28:24.97	161.15	2.85	-49.5	-61.0	3.6	8.46e-01	0	41	104	0	60	40675
2026-01-24 02:28:25.98	161.16	2.92	-49.5	-61.0	3.6	8.46e-01	0	41	104	0	60	40396
2026-01-24 02:28:26.99	161.17	2.98	-49.2	-58.2	4.1	8.43e-01	0	41	104	0	60	29387
2026-01-24 02:28:27.99	161.18	3.05	-48.1	-52.5	7.6	1.13e-01	0	41	0	2097152	60	15271
2026-01-24 02:28:29.01	161.19	3.12	-48.1	-52.6	7.3	1.43e-01	0	40	0	7340032	60	15450
2026-01-24 02:28:30.01	161.20	3.19	-44.9	-46.9	14.1	4.34e-05	0	41	0	13631488	60	7985
2026-01-24 02:28:31.02	161.21	3.25	-46.2	-48.8	11.4	2.31e-04	0	40	0	18874368	60	9928
2026-01-24 02:28:32.03	161.22	3.32	-43.4	-44.9	16.0	0.00e+00	0	40	0	24117248	60	6372
2026-01-24 02:28:33.04	161.24	3.39	-43.9	-45.6	15.6	1.10e-06	0	41	0	30408704	60	6860
2026-01-24 02:28:34.05	161.25	3.46	-42.5	-43.8	17.0	0.00e+00	0	40	0	35651584	58	6312
2026-01-24 02:28:35.06	161.26	3.53	-42.0	-43.2	17.6	0.00e+00	0	41	0	41943040	58	5884
2026-01-24 02:28:36.07	161.27	3.59	-42.7	-44.1	16.7	0.00e+00	0	40	0	47185920	56	7269
2026-01-24 02:28:37.08	161.28	3.66	-41.8	-43.0	17.8	0.00e+00	0	41	0	52428800	56	6394
2026-01-24 02:28:38.09	161.29	3.73	-42.9	-44.4	15.8	0.00e+00	0	41	0	58720256	56	7528
2026-01-24 02:28:39.10	161.30	3.80	-49.7	-60.8	3.6	8.35e-01	0	41	104	61865984	60	39733
2026-01-24 02:28:40.11	161.31	3.87	-46.7	-49.7	12.0	8.13e-01	0	40	104	61865984	60	11043
2026-01-24 02:28:41.12	161.33	3.94	-49.3	-59.3	3.6	8.14e-01	0	41	104	61865984	60	33277
2026-01-24 02:28:42.13	161.34	4.01	-42.9	-44.3	16.6	1.10e-06	0	41	0	62914560	58	6682
2026-01-24 02:28:43.14	161.35	4.08	-49.7	-61.4	3.6	8.45e-01	0	41	104	66060288	60	42263
2026-01-24 02:28:44.15	161.36	4.15	-43.5	-45.1	15.7	8.07e-01	0	41	104	66060288	60	6507
2026-01-24 02:28:45.16	161.37	4.22	-42.5	-43.7	17.0	0.00e+00	0	41	0	68157440	60	5560
2026-01-24 02:28:46.17	161.38	4.29	-41.9	-43.1	18.2	0.00e+00	0	41	0	73400320	58	5765
2026-01-24 02:28:47.18	161.40	4.36	-42.2	-43.4	17.9	0.00e+00	0	41	0	79691776	56	6764
2026-01-24 02:28:48.19	161.41	4.43	-41.5	-42.7	18.3	0.00e+00	0	41	0	84934656	56	6206
2026-01-24 02:28:49.20	161.42	4.50	-42.0	-43.2	17.7	0.00e+00	0	41	0	91226112	56	6596
2026-01-24 02:28:50.21	161.43	4.57	-42.2	-43.4	17.5	0.00e+00	0	41	0	96468992	56	6758
2026-01-24 02:28:51.22	161.44	4.64	-41.8	-42.9	18.1	0.00e+00	0	41	0	102760448	56	6379
2026-01-24 02:28:52.23	161.45	4.71	-41.3	-42.4	19.1	0.00e+00	0	41	0	108003328	56	5991
2026-01-24 02:28:53.24	161.47	4.79	-40.3	-41.2	19.3	0.00e+00	0	41	0	113246208	54	5884
2026-01-24 02:28:54.25	161.48	4.86	-40.7	-41.7	19.9	0.00e+00	0	41	0	119537664	54	6243
2026-01-24 02:28:55.26	161.49	4.93	-40.5	-41.6	19.5	0.00e+00	0	41	0	124780544	54	6110
2026-01-24 02:28:56.27	161.50	5.00	-40.4	-41.4	19.8	0.00e+00	0	41	0	131072000	54	5966
2026-01-24 02:28:57.28	161.51	5.07	-40.4	-41.4	19.4	0.00e+00	0	41	0	136314880	54	6020
2026-01-24 02:28:58.29	161.53	5.15	-40.6	-41.6	19.6	0.00e+00	0	41	0	141557760	54	6156
2026-01-24 02:28:59.30	161.54	5.22	-39.3	-40.1	20.7	0.00e+00	0	41	0	147849216	52	5819
2026-01-24 02:29:00.30	161.55	5.29	-40.3	-41.3	19.8	0.00e+00	0	41	0	153092096	52	6644
2026-01-24 02:29:01.30	161.56	5.36	-39.8	-40.7	20.4	0.00e+00	0	41	0	159383552	52	6239
2026-01-24 02:29:02.31	161.58	5.44	-39.2	-40.1	21.1	0.00e+00	0	41	0	164626432	52	5793
2026-01-24 02:29:03.32	161.59	5.51	-40.0	-41.0	20.0	0.00e+00	0	41	0	169869312	52	6416
2026-01-24 02:29:04.33	161.60	5.58	-39.2	-40.1	20.9	0.00e+00	0	41	0	176160768	52	5804
2026-01-24 02:29:05.34	161.61	5.66	-39.5	-40.4	20.8	0.00e+00	0	41	0	181403648	52	6004
2026-01-24 02:29:06.35	161.63	5.73	-39.0	-39.8	21.0	0.00e+00	0	41	0	187695104	52	5621
2026-01-24 02:29:07.36	161.64	5.81	-39.2	-40.0	21.2	0.00e+00	0	41	0	192937984	52	5742
2026-01-24 02:29:08.37	161.65	5.88	-38.5	-39.3	21.6	0.00e+00	0	41	0	199229440	50	5958
2026-01-24 02:29:09.38	161.66	5.96	-38.6	-39.4	21.5	0.00e+00	0	41	0	204472320	50	6031
2026-01-24 02:29:10.38	161.68	6.03	-39.1	-40.0	21.4	0.00e+00	0	41	0	209715200	50	6391
2026-01-24 02:29:11.39	161.69	6.11	-37.7	-38.5	22.3	0.00e+00	0	41	0	216006656	50	5435
2026-01-24 02:29:12.40	161.70	6.18	-38.1	-38.9	22.1	0.00e+00	0	41	0	221249536	48	6354
2026-01-24 02:29:13.41	161.71	6.26	-37.9	-38.7	22.4	0.00e+00	0	41	0	227540992	48	6195
2026-01-24 02:29:14.42	161.73	6.33	-38.4	-39.3	21.9	0.00e+00	0	41	0	232783872	48	6619
2026-01-24 02:29:15.43	161.74	6.41	-38.2	-39.0	22.0	0.00e+00	0	41	0	238026752	48	6450
2026-01-24 02:29:16.44	161.75	6.49	-37.9	-38.7	22.4	0.00e+00	0	41	0	244318208	48	6189
2026-01-24 02:29:17.45	161.77	6.56	-37.4	-38.2	22.9	0.00e+00	0	41	0	249561088	48	5838
2026-01-24 02:29:18.46	161.78	6.64	-37.9	-38.6	22.4	0.00e+00	0	41	0	255852544	48	6170
2026-01-24 02:29:19.47	161.79	6.72	-37.3	-38.1	23.0	0.00e+00	0	41	0	261095424	48	5794
2026-01-24 02:29:20.48	161.81	6.79	-37.5	-38.3	22.7	0.00e+00	0	41	0	266338304	48	5939
2026-01-24 02:29:21.49	161.82	6.87	-37.4	-38.1	23.0	0.00e+00	0	41	0	272629760	48	5815
2026-01-24 02:29:22.50	161.83	6.95	-37.2	-37.9	23.1	0.00e+00	0	41	0	277872640	48	5672
2026-01-24 02:29:23.51	161.85	7.03	-37.1	-37.8	23.3	0.00e+00	0	41	0	284164096	48	5603
2026-01-24 02:29:24.52	161.86	7.10	-37.3	-38.0	23.0	0.00e+00	0	41	0	289406976	48	5760
2026-01-24 02:29:25.53	161.87	7.18	-37.3	-38.1	22.9	0.00e+00	0	41	0	295698432	48	5804
2026-01-24 02:29:26.54	161.89	7.26	-37.4	-38.2	23.1	0.00e+00	0	41	0	300941312	48	5831
2026-01-24 02:29:27.55	161.90	7.34	-37.4	-38.1	22.9	0.00e+00	0	41	0	306184192	48	5818
2026-01-24 02:29:28.56	161.91	7.42	-37.2	-38.0	23.2	0.00e+00	0	41	0	312475648	48	5696
2026-01-24 02:29:29.57	161.93	7.50	-37.2	-37.9	23.2	0.00e+00	0	41	0	317718528	48	5647
2026-01-24 02:29:30.57	161.94	7.58	-36.9	-37.7	23.4	0.00e+00	0	41	0	324009984	48	5524
2026-01-24 02:29:31.58	161.95	7.66	-37.0	-37.7	23.5	0.00e+00	0	41	0	329252864	46	6199
2026-01-24 02:29:32.59	161.97	7.74	-37.2	-37.9	23.2	0.00e+00	0	41	0	334495744	46	6358
2026-01-24 02:29:33.60	161.98	7.82	-37.0	-37.7	23.5	0.00e+00	0	41	0	340787200	46	6226
2026-01-24 02:29:34.61	162.00	7.90	-36.9	-37.6	23.5	0.00e+00	0	41	0	346030080	46	6164
2026-01-24 02:29:35.62	162.01	7.98	-36.9	-37.6	23.6	0.00e+00	0	41	0	352321536	46	6139
2026-01-24 02:29:36.63	162.02	8.06	-37.0	-37.7	23.5	0.00e+00	0	41	0	357564416	46	6215
2026-01-24 02:29:37.64	162.04	8.14	-36.7	-37.4	23.6	0.00e+00	0	41	0	362807296	46	6005
2026-01-24 02:29:38.65	162.05	8.22	-37.0	-37.8	23.5	0.00e+00	0	41	0	369098752	46	6248
2026-01-24 02:29:39.66	162.07	8.31	-36.9	-37.7	23.4	0.00e+00	0	41	0	374341632	46	6174
2026-01-24 02:29:40.67	162.08	8.39	-36.9	-37.7	23.5	0.00e+00	0	41	0	380633088	46	6187
2026-01-24 02:29:41.68	162.10	8.47	-36.9	-37.7	23.5	0.00e+00	0	41	0	385875968	46	6183
2026-01-24 02:29:42.69	162.11	8.55	-37.3	-38.0	23.4	0.00e+00	0	41	0	392167424	46	6416
2026-01-24 02:29:43.70	162.12	8.64	-37.5	-38.3	22.8	0.00e+00	0	41	0	397410304	46	6619
2026-01-24 02:29:44.71	162.14	8.72	-37.2	-37.9	23.3	0.00e+00	0	41	0	403701760	46	6366
2026-01-24 02:29:45.72	162.15	8.80	-37.3	-38.0	23.2	0.00e+00	0	41	0	408944640	46	6457
2026-01-24 02:29:46.73	162.17	8.89	-36.8	-37.5	23.6	0.00e+00	0	41	0	414187520	46	6094
2026-01-24 02:29:47.74	162.18	8.97	-37.0	-37.8	23.3	0.00e+00	0	41	0	420478976	46	6263
2026-01-24 02:29:48.75	162.20	9.06	-37.1	-37.8	23.3	0.00e+00	0	41	0	425721856	46	6296
2026-01-24 02:29:49.76	162.21	9.14	-37.1	-37.8	23.5	0.00e+00	0	41	0	432013312	46	6270
2026-01-24 02:29:50.77	162.23	9.23	-36.9	-37.6	23.7	0.00e+00	0	41	0	437256192	46	6155
2026-01-24 02:29:51.78	162.24	9.31	-37.1	-37.8	23.7	0.00e+00	0	41	0	442499072	46	6254
2026-01-24 02:29:52.79	162.26	9.40	-36.8	-37.5	23.8	0.00e+00	0	41	0	448790528	46	6039
2026-01-24 02:29:53.80	162.27	9.48	-36.8	-37.6	23.6	0.00e+00	0	41	0	454033408	46	6110
2026-01-24 02:29:54.81	162.29	9.57	-36.5	-37.2	23.9	0.00e+00	0	41	0	460324864	46	5876
2026-01-24 02:29:55.83	162.30	9.66	-36.7	-37.4	23.9	0.00e+00	0	41	0	465567744	46	6002
2026-01-24 02:29:56.83	162.32	9.74	-37.0	-37.7	23.4	0.00e+00	0	41	0	470810624	46	6237
2026-01-24 02:29:57.84	162.33	9.83	-36.8	-37.5	23.7	0.00e+00	0	41	0	477102080	46	6080
2026-01-24 02:29:58.85	162.35	9.92	-36.7	-37.4	23.9	0.00e+00	0	41	0	482344960	46	5975
2026-01-24 02:29:59.86	162.37	10.00	-36.6	-37.3	23.9	0.00e+00	0	41	0	488636416	46	5900
2026-01-24 02:30:00.87	162.38	10.09	-36.4	-37.1	24.1	0.00e+00	0	41	0	493879296	46	5811
2026-01-24 02:30:01.88	162.40	10.18	-36.4	-37.2	24.1	0.00e+00	0	41	0	500170752	46	5835
2026-01-24 02:30:02.89	162.41	10.27	-36.8	-37.5	23.8	0.00e+00	0	41	0	505413632	46	6059
2026-01-24 02:30:03.90	162.43	10.36	-36.6	-37.2	24.0	0.00e+00	0	41	0	511705088	46	5896
2026-01-24 02:30:04.91	162.45	10.45	-36.7	-37.4	23.9	0.00e+00	0	41	0	516947968	46	5993
2026-01-24 02:30:05.92	162.46	10.54	-36.3	-37.0	24.1	0.00e+00	0	41	0	522190848	46	5735
2026-01-24 02:30:06.94	162.48	10.63	-36.4	-37.1	24.2	0.00e+00	0	41	0	528482304	46	5809
2026-01-24 02:30:07.95	162.49	10.72	-36.4	-37.1	24.1	0.00e+00	0	41	0	533725184	46	5822
2026-01-24 02:30:08.95	162.51	10.81	-36.5	-37.2	24.0	0.00e+00	0	41	0	540016640	46	5887
2026-01-24 02:30:09.96	162.53	10.90	-36.4	-37.1	24.0	0.00e+00	0	41	0	545259520	46	5812
2026-01-24 02:30:10.97	162.54	10.99	-36.4	-37.1	24.2	0.00e+00	0	41	0	550502400	46	5780
2026-01-24 02:30:11.98	162.56	11.08	-37.0	-37.7	23.7	0.00e+00	0	41	0	556793856	48	5560
2026-01-24 02:30:12.99	162.58	11.17	-36.4	-37.1	24.2	0.00e+00	0	41	0	562036736	46	5808
2026-01-24 02:30:14.00	162.59	11.27	-36.5	-37.2	24.1	0.00e+00	0	41	0	567279616	46	5886
2026-01-24 02:30:15.01	162.61	11.36	-36.4	-37.1	24.1	0.00e+00	0	41	0	573571072	46	5763
2026-01-24 02:30:16.02	162.63	11.45	-36.7	-37.4	23.9	0.00e+00	0	41	0	578813952	46	6015
2026-01-24 02:30:17.03	162.64	11.55	-36.3	-37.1	24.3	0.00e+00	0	41	0	585105408	46	5769
2026-01-24 02:30:18.04	162.66	11.64	-36.2	-36.9	24.3	0.00e+00	0	41	0	590348288	46	5675
2026-01-24 02:30:19.04	162.68	11.73	-36.7	-37.4	24.0	0.00e+00	0	41	0	596639744	46	6005
2026-01-24 02:30:20.05	162.70	11.83	-36.3	-37.0	24.3	0.00e+00	0	41	0	601882624	46	5742
2026-01-24 02:30:21.06	162.71	11.92	-36.1	-36.8	24.5	0.00e+00	0	41	0	608174080	46	5604
2026-01-24 02:30:22.07	162.73	12.02	-36.2	-36.9	24.5	0.00e+00	0	41	0	613416960	46	5639
2026-01-24 02:30:23.09	162.75	12.11	-36.2	-36.9	24.4	0.00e+00	0	41	0	618659840	46	5639
2026-01-24 02:30:24.10	162.77	12.21	-36.6	-37.3	24.1	0.00e+00	0	41	0	624951296	46	5951
2026-01-24 02:30:25.11	162.78	12.31	-36.3	-37.0	24.3	0.00e+00	0	41	0	630194176	46	5722
2026-01-24 02:30:26.12	162.80	12.40	-36.4	-37.1	24.2	0.00e+00	0	41	0	636485632	46	5767
2026-01-24 02:30:27.12	162.82	12.50	-36.3	-37.0	24.2	0.00e+00	0	41	0	641728512	46	5734
2026-01-24 02:30:28.14	162.84	12.60	-36.3	-37.0	24.5	0.00e+00	0	41	0	646971392	46	5739
2026-01-24 02:30:29.14	162.86	12.69	-36.3	-37.0	24.4	0.00e+00	0	41	0	653262848	46	5716
2026-01-24 02:30:30.16	162.87	12.79	-36.5	-37.2	24.2	0.00e+00	0	41	0	658505728	46	5871
2026-01-24 02:30:31.17	162.89	12.89	-36.5	-37.2	24.1	0.00e+00	0	41	0	664797184	46	5883
2026-01-24 02:30:32.18	162.91	12.99	-36.3	-37.0	24.3	0.00e+00	0	41	0	670040064	46	5703
2026-01-24 02:30:33.19	162.93	13.09	-36.2	-36.8	24.4	0.00e+00	0	41	0	675282944	46	5629
2026-01-24 02:30:34.19	162.95	13.19	-36.2	-36.9	24.4	0.00e+00	0	41	0	681574400	46	5648
2026-01-24 02:30:35.20	162.97	13.29	-36.2	-36.9	24.4	0.00e+00	0	41	0	686817280	46	5685
2026-01-24 02:30:36.21	162.98	13.39	-36.0	-36.7	24.6	0.00e+00	0	41	0	693108736	46	5537
2026-01-24 02:30:37.22	163.00	13.49	-35.9	-36.6	24.7	0.00e+00	0	41	0	698351616	46	5487
2026-01-24 02:30:38.23	163.02	13.59	-36.0	-36.6	24.6	0.00e+00	0	41	0	704643072	44	6154
2026-01-24 02:30:39.24	163.04	13.70	-35.9	-36.6	24.7	0.00e+00	0	41	0	709885952	44	6109
2026-01-24 02:30:40.25	163.06	13.80	-36.0	-36.7	24.8	0.00e+00	0	41	0	715128832	44	6187
2026-01-24 02:30:41.26	163.08	13.90	-35.8	-36.5	24.9	0.00e+00	0	41	0	721420288	44	6063
2026-01-24 02:30:42.27	163.10	14.00	-35.8	-36.5	24.9	0.00e+00	0	41	0	726663168	44	6049
2026-01-24 02:30:43.28	163.12	14.11	-35.6	-36.3	24.9	0.00e+00	0	41	0	732954624	44	5910
2026-01-24 02:30:44.29	163.14	14.21	-35.5	-36.2	25.1	0.00e+00	0	41	0	738197504	44	5868
2026-01-24 02:30:45.30	163.16	14.32	-35.7	-36.4	24.9	0.00e+00	0	41	0	743440384	44	5975
2026-01-24 02:30:46.31	163.18	14.42	-35.4	-36.1	25.1	0.00e+00	0	41	0	749731840	44	5783
2026-01-24 02:30:47.32	163.20	14.53	-35.4	-36.0	25.1	0.00e+00	0	41	0	754974720	44	5747
2026-01-24 02:30:48.33	163.22	14.63	-35.5	-36.2	25.1	0.00e+00	0	41	0	761266176	44	5831
2026-01-24 02:30:49.34	163.24	14.74	-35.3	-36.0	25.3	0.00e+00	0	41	0	766509056	44	5703
2026-01-24 02:30:50.35	163.26	14.85	-35.4	-36.1	25.2	0.00e+00	0	41	0	771751936	44	5768
2026-01-24 02:30:51.36	163.28	14.95	-35.4	-36.1	25.3	0.00e+00	0	41	0	778043392	44	5780
2026-01-24 02:30:52.37	163.30	15.06	-35.3	-35.9	25.4	0.00e+00	0	41	0	783286272	44	5694
2026-01-24 02:30:53.38	163.32	15.17	-35.2	-35.8	25.5	0.00e+00	0	41	0	789577728	44	5611
2026-01-24 02:30:54.39	163.34	15.28	-35.0	-35.7	25.6	0.00e+00	0	41	0	794820608	44	5515
2026-01-24 02:30:55.40	163.36	15.39	-35.0	-35.7	25.6	0.00e+00	0	41	0	801112064	44	5532
2026-01-24 02:30:56.41	163.39	15.50	-34.9	-35.5	25.6	0.00e+00	0	41	0	806354944	44	5426
2026-01-24 02:30:57.42	163.41	15.61	-34.8	-35.5	25.7	0.00e+00	0	41	0	812646400	44	5384
2026-01-24 02:30:58.42	163.43	15.72	-35.0	-35.6	25.6	0.00e+00	0	41	0	817889280	44	5501
2026-01-24 02:30:59.43	163.45	15.83	-34.8	-35.5	25.8	0.00e+00	0	41	0	823132160	44	5391
2026-01-24 02:31:00.44	163.47	15.94	-34.8	-35.4	25.8	0.00e+00	0	41	0	829423616	44	5371
2026-01-24 02:31:01.45	163.49	16.05	-35.1	-35.7	25.5	0.00e+00	0	41	0	834666496	44	5543
2026-01-24 02:31:02.46	163.51	16.17	-34.8	-35.4	25.8	0.00e+00	0	41	0	840957952	44	5341
2026-01-24 02:31:03.47	163.54	16.28	-34.7	-35.4	25.9	0.00e+00	0	41	0	846200832	42	5991
2026-01-24 02:31:04.48	163.56	16.39	-34.6	-35.2	26.1	0.00e+00	0	41	0	851443712	42	5893
2026-01-24 02:31:05.49	163.58	16.51	-34.5	-35.1	26.1	0.00e+00	0	41	0	857735168	42	5824
2026-01-24 02:31:06.50	163.60	16.62	-34.5	-35.1	26.1	0.00e+00	0	41	0	862978048	42	5802
2026-01-24 02:31:07.51	163.63	16.74	-34.6	-35.2	26.1	0.00e+00	0	41	0	869269504	42	5860
2026-01-24 02:31:08.52	163.65	16.85	-34.5	-35.2	26.1	0.00e+00	0	41	0	874512384	42	5838
2026-01-24 02:31:09.53	163.67	16.97	-34.5	-35.1	26.1	0.00e+00	0	41	0	879755264	42	5786
2026-01-24 02:31:10.54	163.70	17.09	-34.6	-35.2	25.9	0.00e+00	0	41	0	886046720	42	5877
2026-01-24 02:31:11.55	163.72	17.20	-34.6	-35.3	25.9	0.00e+00	0	41	0	891289600	42	5908
2026-01-24 02:31:12.56	163.74	17.32	-34.7	-35.4	25.9	0.00e+00	0	41	0	897581056	42	5967
2026-01-24 02:31:13.57	163.77	17.44	-34.5	-35.1	26.1	0.00e+00	0	41	0	902823936	42	5790
2026-01-24 02:31:14.58	163.79	17.56	-34.2	-34.9	26.3	0.00e+00	0	41	0	909115392	42	5650
2026-01-24 02:31:15.59	163.81	17.68	-34.5	-35.2	26.1	0.00e+00	0	41	0	914358272	42	5829
2026-01-24 02:31:16.60	163.84	17.80	-34.2	-34.8	26.4	0.00e+00	0	41	0	919601152	42	5615
2026-01-24 02:31:17.61	163.86	17.92	-34.2	-34.9	26.3	0.00e+00	0	41	0	925892608	42	5646
2026-01-24 02:31:18.62	163.89	18.04	-34.3	-34.9	26.3	0.00e+00	0	41	0	931135488	42	5678
2026-01-24 02:31:19.63	163.91	18.17	-34.1	-34.8	26.5	0.00e+00	0	41	0	937426944	42	5576
2026-01-24 02:31:20.64	163.94	18.29	-34.1	-34.8	26.5	0.00e+00	0	41	0	942669824	42	5570
2026-01-24 02:31:21.65	163.96	18.41	-34.0	-34.7	26.6	0.00e+00	0	41	0	947912704	42	5504
2026-01-24 02:31:22.66	163.99	18.54	-34.1	-34.8	26.4	0.00e+00	0	41	0	954204160	42	5576
2026-01-24 02:31:23.67	164.01	18.66	-34.2	-34.9	26.4	0.00e+00	0	41	0	959447040	42	5636
2026-01-24 02:31:24.68	164.04	18.79	-34.1	-34.8	26.5	0.00e+00	0	41	0	965738496	42	5579
2026-01-24 02:31:25.69	164.06	18.91	-34.2	-34.9	26.5	0.00e+00	0	41	0	970981376	42	5648
2026-01-24 02:31:26.70	164.09	19.04	-34.3	-34.9	26.4	0.00e+00	0	41	0	977272832	42	5687
2026-01-24 02:31:27.71	164.11	19.17	-34.2	-34.9	26.5	0.00e+00	0	41	0	982515712	42	5637
2026-01-24 02:31:28.72	164.14	19.30	-34.2	-34.8	26.4	0.00e+00	0	41	0	987758592	42	5606
2026-01-24 02:31:29.73	164.17	19.42	-34.2	-34.9	26.4	0.00e+00	0	41	0	994050048	42	5648
2026-01-24 02:31:30.74	164.19	19.55	-33.9	-34.5	26.7	0.00e+00	0	41	0	999292928	42	5398
2026-01-24 02:31:31.75	164.22	19.68	-34.1	-34.7	26.6	0.00e+00	0	41	0	1005584384	42	5535
2026-01-24 02:31:32.76	164.25	19.81	-33.9	-34.6	26.6	0.00e+00	0	41	0	1010827264	42	5442
2026-01-24 02:31:33.77	164.27	19.95	-33.9	-34.5	26.7	0.00e+00	0	41	0	1017118720	42	5399
2026-01-24 02:31:34.78	164.30	20.08	-33.9	-34.5	26.8	0.00e+00	0	41	0	1022361600	42	5427
2026-01-24 02:31:35.79	164.33	20.21	-33.7	-34.3	26.9	0.00e+00	0	41	0	1027604480	40	5918
2026-01-24 02:31:36.80	164.36	20.34	-33.6	-34.3	26.8	0.00e+00	0	41	0	1033895936	40	5897
2026-01-24 02:31:37.81	164.38	20.48	-33.7	-34.3	27.0	0.00e+00	0	41	0	1039138816	40	5938
2026-01-24 02:31:38.82	164.41	20.61	-33.5	-34.1	27.0	0.00e+00	0	41	0	1045430272	40	5806
2026-01-24 02:31:39.83	164.44	20.75	-33.6	-34.2	26.9	0.00e+00	0	41	0	1050673152	40	5853
2026-01-24 02:31:40.84	164.47	20.89	-33.5	-34.1	27.0	0.00e+00	0	41	0	1055916032	40	5789
2026-01-24 02:31:41.85	164.50	21.02	-33.6	-34.2	27.0	0.00e+00	0	41	0	1062207488	40	5873
2026-01-24 02:31:42.86	164.53	21.16	-33.7	-34.3	26.9	0.00e+00	0	41	0	1067450368	40	5910
2026-01-24 02:31:43.87	164.56	21.30	-33.7	-34.3	26.9	0.00e+00	0	41	0	1073741824	40	5907
2026-01-24 02:31:44.88	164.59	21.44	-33.8	-34.4	26.8	0.00e+00	0	41	0	1078984704	40	5981
2026-01-24 02:31:45.89	164.62	21.58	-33.6	-34.2	26.9	0.00e+00	0	41	0	1084227584	40	5862
2026-01-24 02:31:46.90	164.65	21.72	-33.5	-34.1	27.0	0.00e+00	0	41	0	1090519040	40	5812
2026-01-24 02:31:47.91	164.68	21.86	-33.5	-34.1	27.0	0.00e+00	0	41	0	1095761920	40	5820
2026-01-24 02:31:48.92	164.71	22.00	-33.5	-34.1	27.1	0.00e+00	0	41	0	1102053376	40	5792
2026-01-24 02:31:49.93	164.74	22.15	-33.6	-34.2	27.1	0.00e+00	0	41	0	1107296256	40	5852
2026-01-24 02:31:50.94	164.77	22.29	-33.4	-34.0	27.2	0.00e+00	0	41	0	1113587712	40	5712
2026-01-24 02:31:51.95	164.80	22.44	-33.4	-34.1	27.1	0.00e+00	0	41	0	1118830592	40	5783
2026-01-24 02:31:52.96	164.83	22.58	-33.4	-34.1	27.1	0.00e+00	0	41	0	1125122048	40	5764
2026-01-24 02:31:53.97	164.86	22.73	-33.2	-33.8	27.2	0.00e+00	0	41	0	1130364928	40	5625
2026-01-24 02:31:54.98	164.90	22.88	-32.9	-33.6	27.5	0.00e+00	0	41	0	1135607808	40	5444
2026-01-24 02:31:55.99	164.93	23.02	-33.0	-33.7	27.4	0.00e+00	0	41	0	1141899264	40	5511
2026-01-24 02:31:57.00	164.96	23.17	-33.1	-33.7	27.3	0.00e+00	0	41	0	1147142144	40	5535
2026-01-24 02:31:58.01	164.99	23.32	-33.2	-33.7	27.3	0.00e+00	0	41	0	1153433600	40	5556
2026-01-24 02:31:59.02	165.03	23.47	-33.0	-33.7	27.5	0.00e+00	0	41	0	1158676480	40	5503
2026-01-24 02:32:00.02	165.06	23.62	-33.1	-33.8	27.4	0.00e+00	0	41	0	1163919360	40	5578
2026-01-24 02:32:01.03	165.09	23.78	-33.0	-33.6	27.5	0.00e+00	0	41	0	1170210816	40	5495
2026-01-24 02:32:02.05	165.13	23.93	-33.1	-33.7	27.4	0.00e+00	0	41	0	1175453696	40	5524
2026-01-24 02:32:03.05	165.16	24.08	-33.0	-33.6	27.5	0.00e+00	0	41	0	1180696576	40	5499
2026-01-24 02:32:04.06	165.20	24.24	-33.1	-33.7	27.4	0.00e+00	0	42	0	1186988032	40	5529
2026-01-24 02:32:05.07	165.23	24.40	-33.0	-33.7	27.5	0.00e+00	0	41	0	1192230912	40	5516
2026-01-24 02:32:06.08	165.27	24.55	-33.1	-33.8	27.4	0.00e+00	0	41	0	1198522368	40	5575
2026-01-24 02:32:07.09	165.30	24.71	-33.3	-33.9	27.3	0.00e+00	0	41	0	1203765248	40	5661
2026-01-24 02:32:08.10	165.34	24.87	-33.1	-33.8	27.4	0.00e+00	0	41	0	1210056704	40	5572
2026-01-24 02:32:09.11	165.38	25.03	-33.2	-33.9	27.3	0.00e+00	0	41	0	1215299584	40	5649
2026-01-24 02:32:10.12	165.41	25.19	-33.1	-33.7	27.3	0.00e+00	0	41	0	1221591040	40	5565
2026-01-24 02:32:11.13	165.45	25.35	-33.2	-33.8	27.4	0.00e+00	0	41	0	1226833920	40	5598
2026-01-24 02:32:12.14	165.49	25.52	-33.2	-33.8	27.4	0.00e+00	0	41	0	1232076800	40	5601
2026-01-24 02:32:13.15	165.52	25.68	-33.0	-33.7	27.4	0.00e+00	0	41	0	1238368256	40	5508
2026-01-24 02:32:14.16	165.56	25.84	-32.8	-33.4	27.5	0.00e+00	0	41	0	1243611136	38	6014
2026-01-24 02:32:15.17	165.60	26.01	-32.7	-33.4	27.6	0.00e+00	0	41	0	1249902592	38	5965
2026-01-24 02:32:16.18	165.64	26.18	-32.6	-33.3	27.8	0.00e+00	0	41	0	1255145472	38	5906
2026-01-24 02:32:17.19	165.68	26.35	-32.6	-33.2	27.8	0.00e+00	0	41	0	1260388352	38	5857
2026-01-24 02:32:18.20	165.72	26.51	-32.8	-33.4	27.6	0.00e+00	0	42	0	1266679808	38	5975
2026-01-24 02:32:19.21	165.76	26.68	-32.7	-33.3	27.7	0.00e+00	0	42	0	1271922688	38	5932
2026-01-24 02:32:20.22	165.80	26.86	-32.7	-33.3	27.7	0.00e+00	0	41	0	1278214144	38	5908
2026-01-24 02:32:21.23	165.84	27.03	-32.7	-33.3	27.7	0.00e+00	0	41	0	1283457024	38	5910
2026-01-24 02:32:22.24	165.88	27.20	-32.7	-33.3	27.7	0.00e+00	0	41	0	1288699904	38	5929
2026-01-24 02:32:23.24	165.92	27.37	-32.8	-33.4	27.7	0.00e+00	0	41	0	1294991360	38	5987
2026-01-24 02:32:24.25	165.96	27.55	-32.9	-33.5	27.6	0.00e+00	0	41	0	1300234240	38	6063
2026-01-24 02:32:25.26	166.00	27.73	-33.0	-33.6	27.6	0.00e+00	0	41	0	1306525696	38	6149
2026-01-24 02:32:26.27	166.05	27.90	-32.9	-33.5	27.6	0.00e+00	0	41	0	1311768576	38	6101
2026-01-24 02:32:27.28	166.09	28.08	-32.8	-33.4	27.7	0.00e+00	0	41	0	1318060032	38	6011
2026-01-24 02:32:28.29	166.13	28.26	-32.7	-33.3	27.8	0.00e+00	0	41	0	1323302912	38	5953
2026-01-24 02:32:29.30	166.18	28.44	-32.8	-33.4	27.7	0.00e+00	0	41	0	1328545792	38	5982
2026-01-24 02:32:30.31	166.22	28.63	-32.6	-33.3	27.9	0.00e+00	0	41	0	1334837248	38	5905
2026-01-24 02:32:31.32	166.27	28.81	-32.5	-33.1	28.0	0.00e+00	0	41	0	1340080128	38	5794
2026-01-24 02:32:32.33	166.31	28.99	-32.6	-33.2	27.9	0.00e+00	0	41	0	1346371584	38	5834
2026-01-24 02:32:33.34	166.36	29.18	-32.7	-33.3	27.8	0.00e+00	0	41	0	1351614464	38	5964
2026-01-24 02:32:34.35	166.41	29.37	-32.8	-33.4	27.7	0.00e+00	0	41	0	1356857344	38	5973
2026-01-24 02:32:35.36	166.45	29.55	-32.7	-33.4	27.7	0.00e+00	0	41	0	1363148800	38	5976
2026-01-24 02:32:36.37	166.50	29.74	-32.9	-33.5	27.6	0.00e+00	0	41	0	1368391680	38	6088
2026-01-24 02:32:37.38	166.55	29.94	-32.6	-33.2	27.8	0.00e+00	0	41	0	1374683136	38	5866
2026-01-24 02:32:38.39	166.60	30.13	-32.7	-33.3	27.7	0.00e+00	0	41	0	1379926016	38	5947
2026-01-24 02:32:39.40	166.64	30.32	-32.7	-33.3	27.8	0.00e+00	0	42	0	1385168896	38	5947
2026-01-24 02:32:40.41	166.69	30.52	-32.9	-33.5	27.6	0.00e+00	0	41	0	1391460352	38	6095
2026-01-24 02:32:41.42	166.74	30.71	-32.9	-33.5	27.6	0.00e+00	0	41	0	1396703232	38	6055
2026-01-24 02:32:42.43	166.80	30.91	-32.5	-33.1	28.0	0.00e+00	0	41	0	1402994688	38	5765
2026-01-24 02:32:43.44	166.85	31.11	-32.5	-33.1	28.0	0.00e+00	0	41	0	1408237568	38	5775
2026-01-24 02:32:44.46	166.90	31.31	-32.4	-33.0	28.0	0.00e+00	0	41	0	1414529024	38	5709
2026-01-24 02:32:45.46	166.95	31.51	-32.5	-33.1	27.9	0.00e+00	0	42	0	1419771904	38	5800
2026-01-24 02:32:46.47	167.00	31.71	-32.5	-33.1	27.9	0.00e+00	0	41	0	1426063360	38	5828
2026-01-24 02:32:47.48	167.06	31.92	-32.6	-33.2	27.9	0.00e+00	0	41	0	1431306240	38	5851
2026-01-24 02:32:48.49	167.11	32.12	-32.5	-33.1	28.0	0.00e+00	0	42	0	1436549120	38	5776
2026-01-24 02:32:49.50	167.17	32.33	-32.6	-33.3	28.0	0.00e+00	0	42	0	1442840576	38	5902
2026-01-24 02:32:50.51	167.22	32.54	-32.7	-33.3	27.8	0.00e+00	0	41	0	1448083456	38	5949
2026-01-24 02:32:51.52	167.28	32.75	-32.5	-33.1	28.0	0.00e+00	0	42	0	1454374912	38	5796
2026-01-24 02:32:52.53	167.34	32.96	-32.3	-32.9	28.1	0.00e+00	0	42	0	1459617792	38	5671
2026-01-24 02:32:53.54	167.39	33.17	-32.2	-32.8	28.2	0.00e+00	0	41	0	1464860672	38	5602
2026-01-24 02:32:54.55	167.45	33.38	-32.2	-32.8	28.1	0.00e+00	0	41	0	1471152128	38	5619
2026-01-24 02:32:55.56	167.51	33.60	-32.0	-32.6	28.4	0.00e+00	0	42	0	1476395008	38	5464
2026-01-24 02:32:56.57	167.57	33.82	-32.0	-32.6	28.4	0.00e+00	0	41	0	1482686464	38	5462
2026-01-24 02:32:57.58	167.63	34.03	-31.7	-32.3	28.5	0.00e+00	0	41	0	1487929344	38	5285
2026-01-24 02:32:58.59	167.69	34.25	-31.8	-32.4	28.5	0.00e+00	0	41	0	1493172224	36	6022
2026-01-24 02:32:59.60	167.75	34.48	-32.0	-32.6	28.3	0.00e+00	0	41	0	1499463680	36	6143
2026-01-24 02:33:00.61	167.82	34.70	-32.1	-32.8	28.3	0.00e+00	0	42	0	1504706560	36	6262
2026-01-24 02:33:01.62	167.88	34.92	-32.3	-33.0	28.1	0.00e+00	0	42	0	1510998016	36	6414
2026-01-24 02:33:02.63	167.95	35.15	-32.4	-33.0	28.0	0.00e+00	0	42	0	1516240896	36	6402
2026-01-24 02:33:03.64	168.01	35.38	-32.4	-33.1	28.1	0.00e+00	0	42	0	1522532352	36	6475
2026-01-24 02:33:04.65	168.08	35.61	-32.4	-33.0	28.1	0.00e+00	0	42	0	1527775232	36	6430
2026-01-24 02:33:05.66	168.14	35.84	-32.3	-32.8	28.2	0.00e+00	0	41	0	1534066688	36	6317
2026-01-24 02:33:06.67	168.21	36.07	-32.2	-32.8	28.3	0.00e+00	0	42	0	1539309568	36	6251
2026-01-24 02:33:07.68	168.28	36.31	-32.2	-32.8	28.2	0.00e+00	0	42	0	1544552448	36	6299
2026-01-24 02:33:08.69	168.35	36.54	-32.1	-32.7	28.3	0.00e+00	0	41	0	1550843904	36	6202
2026-01-24 02:33:09.70	168.42	36.78	-31.9	-32.5	28.4	0.00e+00	0	42	0	1556086784	36	6062
2026-01-24 02:33:10.71	168.49	37.02	-31.9	-32.5	28.5	0.00e+00	0	41	0	1562378240	36	6054
2026-01-24 02:33:11.72	168.57	37.26	-31.9	-32.5	28.4	0.00e+00	0	41	0	1567621120	36	6076
2026-01-24 02:33:12.73	168.64	37.50	-31.9	-32.4	28.5	0.00e+00	0	42	0	1572864000	36	6021
2026-01-24 02:33:13.74	168.72	37.75	-32.0	-32.5	28.4	0.00e+00	0	42	0	1579155456	36	6096
2026-01-24 02:33:14.75	168.79	37.99	-32.2	-32.8	28.2	0.00e+00	0	42	0	1584398336	36	6277
2026-01-24 02:33:15.76	168.87	38.24	-32.1	-32.7	28.4	0.00e+00	0	42	0	1590689792	36	6234
2026-01-24 02:33:16.77	168.95	38.49	-32.1	-32.7	28.2	0.00e+00	0	42	0	1595932672	36	6221
2026-01-24 02:33:17.78	169.03	38.74	-32.3	-32.9	28.2	0.00e+00	0	42	0	1601175552	36	6368
2026-01-24 02:33:18.79	169.11	39.00	-32.3	-32.9	28.1	0.00e+00	0	42	0	1607467008	36	6358
2026-01-24 02:33:19.80	169.19	39.25	-32.4	-33.0	28.1	0.00e+00	0	42	0	1612709888	36	6423
2026-01-24 02:33:20.81	169.27	39.51	-32.4	-33.0	28.1	0.00e+00	0	42	0	1619001344	36	6456
2026-01-24 02:33:21.82	169.36	39.77	-32.4	-33.0	28.1	0.00e+00	0	42	0	1624244224	36	6417
2026-01-24 02:33:22.83	169.44	40.03	-32.3	-32.9	28.2	0.00e+00	0	42	0	1630535680	36	6336
2026-01-24 02:33:23.84	169.53	40.29	-32.4	-32.9	28.1	0.00e+00	0	42	0	1635778560	36	6371
2026-01-24 02:33:24.84	169.62	40.55	-32.2	-32.7	28.3	0.00e+00	0	42	0	1641021440	36	6220
2026-01-24 02:33:25.86	169.71	40.82	-32.4	-33.1	28.1	0.00e+00	0	42	0	1647312896	36	6473
2026-01-24 02:33:26.87	169.80	41.09	-32.7	-33.3	27.9	0.00e+00	0	42	0	1652555776	36	6640
2026-01-24 02:33:27.88	169.89	41.36	-32.8	-33.4	27.7	0.00e+00	0	42	0	1658847232	38	5988
2026-01-24 02:33:28.88	169.99	41.63	-32.9	-33.5	27.7	0.00e+00	0	42	0	1664090112	38	6099
2026-01-24 02:33:29.90	170.08	41.91	-32.7	-33.4	27.9	0.00e+00	0	42	0	1669332992	38	5966
2026-01-24 02:33:30.90	170.18	42.18	-32.8	-33.4	27.7	0.00e+00	0	42	0	1675624448	38	5992
2026-01-24 02:33:31.92	170.28	42.46	-32.6	-33.2	27.9	0.00e+00	0	42	0	1680867328	38	5888
2026-01-24 02:33:32.93	170.38	42.74	-32.6	-33.2	27.9	0.00e+00	0	42	0	1687158784	38	5846
2026-01-24 02:33:33.94	170.48	43.03	-32.6	-33.2	27.9	0.00e+00	0	42	0	1692401664	38	5894
2026-01-24 02:33:34.95	170.59	43.31	-32.6	-33.2	27.9	0.00e+00	0	42	0	1697644544	38	5867
2026-01-24 02:33:35.96	170.69	43.60	-32.4	-33.0	28.2	0.00e+00	0	42	0	1703936000	38	5704
2026-01-24 02:33:36.97	170.80	43.89	-32.4	-33.0	28.2	0.00e+00	0	42	0	1709178880	38	5711
2026-01-24 02:33:37.98	170.91	44.18	-32.6	-33.2	27.9	0.00e+00	0	42	0	1715470336	38	5858
2026-01-24 02:33:38.98	171.02	44.47	-32.6	-33.2	28.0	0.00e+00	0	42	0	1720713216	38	5840
2026-01-24 02:33:39.99	171.13	44.76	-32.6	-33.1	28.0	0.00e+00	0	42	0	1727004672	38	5827
2026-01-24 02:33:41.00	171.25	45.06	-32.7	-33.3	27.9	0.00e+00	0	42	0	1732247552	38	5931
2026-01-24 02:33:42.01	171.37	45.36	-32.9	-33.5	27.7	0.00e+00	0	42	0	1738539008	38	6076
2026-01-24 02:33:43.02	171.49	45.66	-33.1	-33.8	27.5	0.00e+00	0	42	0	1743781888	38	6254
2026-01-24 02:33:44.03	171.61	45.96	-33.1	-33.7	27.6	0.00e+00	0	42	0	1749024768	38	6215
2026-01-24 02:33:45.04	171.73	46.27	-33.0	-33.6	27.7	0.00e+00	0	42	0	1755316224	38	6172
2026-01-24 02:33:46.05	171.86	46.57	-32.8	-33.4	27.9	0.00e+00	0	42	0	1760559104	38	6014
2026-01-24 02:33:47.06	171.99	46.88	-32.5	-33.1	28.2	0.00e+00	0	42	0	1766850560	38	5765
2026-01-24 02:33:48.07	172.12	47.19	-32.2	-32.8	28.2	0.00e+00	0	42	0	1772093440	38	5594
2026-01-24 02:33:49.08	172.25	47.51	-32.2	-32.8	28.2	0.00e+00	0	42	0	1777336320	38	5608
2026-01-24 02:33:50.09	172.39	47.82	-32.1	-32.7	28.2	0.00e+00	0	42	0	1783627776	38	5560
2026-01-24 02:33:51.10	172.53	48.14	-32.5	-33.1	28.0	0.00e+00	0	42	0	1788870656	38	5807
2026-01-24 02:33:52.11	172.67	48.46	-32.7	-33.3	27.9	0.00e+00	0	42	0	1795162112	38	5956
2026-01-24 02:33:53.12	172.82	48.78	-32.7	-33.3	27.9	0.00e+00	0	42	0	1800404992	38	5941
2026-01-24 02:33:54.13	172.97	49.11	-32.5	-33.1	28.0	0.00e+00	0	42	0	1805647872	38	5790
2026-01-24 02:33:55.14	173.12	49.44	-32.7	-33.3	28.0	0.00e+00	0	42	0	1811939328	38	5917
2026-01-24 02:33:56.15	173.27	49.77	-33.1	-33.7	27.6	0.00e+00	0	42	0	1817182208	38	6208
2026-01-24 02:33:57.16	173.43	50.10	-33.5	-34.1	27.3	0.00e+00	0	42	0	1823473664	38	6512
2026-01-24 02:33:58.17	173.59	50.43	-33.6	-34.2	27.2	0.00e+00	0	42	0	1828716544	38	6589
2026-01-24 02:33:59.18	173.76	50.77	-33.4	-34.0	27.3	0.00e+00	0	42	0	1835008000	40	5741
2026-01-24 02:34:00.18	173.92	51.10	-33.5	-34.1	27.2	0.00e+00	0	42	0	1840250880	40	5789
2026-01-24 02:34:01.19	174.10	51.44	-33.6	-34.2	27.2	0.00e+00	0	42	0	1845493760	40	5851
2026-01-24 02:34:02.20	174.27	51.78	-33.9	-34.6	26.9	0.00e+00	0	42	0	1851785216	40	6116
2026-01-24 02:34:03.21	174.45	52.13	-34.1	-34.8	26.8	0.00e+00	0	42	0	1857028096	40	6267
2026-01-24 02:34:04.22	174.64	52.47	-34.0	-34.6	26.8	0.00e+00	0	42	0	1863319552	40	6124
2026-01-24 02:34:05.23	174.83	52.82	-33.9	-34.5	27.0	0.00e+00	0	42	0	1868562432	40	6103
2026-01-24 02:34:06.24	175.02	53.17	-34.2	-34.8	26.7	0.00e+00	0	42	0	1873805312	40	6307
2026-01-24 02:34:07.25	175.22	53.52	-34.1	-34.7	26.8	0.00e+00	0	42	0	1880096768	40	6200
2026-01-24 02:34:08.26	175.42	53.88	-33.7	-34.3	27.2	0.00e+00	0	42	0	1885339648	40	5929
2026-01-24 02:34:09.27	175.63	54.24	-33.3	-33.9	27.4	0.00e+00	0	42	0	1891631104	40	5673
2026-01-24 02:34:10.28	175.84	54.60	-33.4	-34.0	27.3	0.00e+00	0	42	0	1896873984	40	5753
2026-01-24 02:34:11.28	176.05	54.95	-33.9	-34.5	27.1	0.00e+00	0	42	0	1902116864	40	6060
2026-01-24 02:34:12.29	176.28	55.32	-34.1	-34.7	26.9	0.00e+00	0	42	0	1908408320	40	6208
2026-01-24 02:34:13.30	176.51	55.68	-34.0	-34.7	26.9	0.00e+00	0	42	0	1913651200	40	6176
2026-01-24 02:34:14.31	176.74	56.05	-33.6	-34.2	27.2	0.00e+00	0	42	0	1919942656	40	5873
2026-01-24 02:34:15.33	176.99	56.42	-33.7	-34.3	27.1	0.00e+00	0	41	0	1925185536	40	5964
2026-01-24 02:34:16.34	177.23	56.79	-33.7	-34.4	27.1	0.00e+00	0	42	0	1931476992	40	5988
2026-01-24 02:34:17.35	177.49	57.17	-33.7	-34.4	27.0	0.00e+00	0	42	0	1936719872	40	5988
2026-01-24 02:34:18.36	177.75	57.54	-33.8	-34.4	27.0	0.00e+00	0	42	0	1943011328	40	6007
2026-01-24 02:34:19.37	178.02	57.92	-33.7	-34.4	27.1	0.00e+00	0	42	0	1948254208	40	5973
2026-01-24 02:34:20.38	178.29	58.30	-33.3	-34.0	27.4	0.00e+00	0	42	0	1953497088	40	5696
2026-01-24 02:34:21.38	178.58	58.68	-32.8	-33.4	27.8	0.00e+00	0	42	0	1959788544	40	5370
2026-01-24 02:34:22.39	178.87	59.06	-32.8	-33.4	27.9	0.00e+00	0	42	0	1965031424	38	5977
2026-01-24 02:34:23.40	179.17	59.44	-33.1	-33.7	27.6	0.00e+00	0	42	0	1971322880	38	6220
2026-01-24 02:34:24.41	179.48	59.83	-32.8	-33.4	27.8	0.00e+00	0	42	0	1976565760	38	6023
2026-01-24 02:34:25.43	179.80	60.22	-32.8	-33.4	27.8	0.00e+00	0	42	0	1981808640	38	5993
2026-01-24 02:34:26.44	180.13	60.61	-32.2	-32.8	28.2	0.00e+00	0	42	0	1988100096	38	5581
2026-01-24 02:34:27.45	180.47	61.00	-32.4	-33.1	27.9	0.00e+00	0	42	0	1993342976	38	5782
2026-01-24 02:34:28.46	180.82	61.39	-32.7	-33.3	27.9	0.00e+00	0	42	0	1999634432	38	5922
2026-01-24 02:34:29.47	181.18	61.79	-32.6	-33.3	28.0	0.00e+00	0	42	0	2004877312	38	5910
2026-01-24 02:34:30.48	181.55	62.18	-32.2	-32.7	28.3	0.00e+00	0	42	0	2010120192	38	5560
2026-01-24 02:34:31.49	181.93	62.58	-31.7	-32.3	28.7	0.00e+00	0	42	0	2016411648	38	5286
2026-01-24 02:34:32.50	182.33	62.98	-32.1	-32.7	28.4	0.00e+00	0	42	0	2021654528	36	6199
2026-01-24 02:34:33.51	182.74	63.38	-32.5	-33.1	28.1	0.00e+00	0	42	0	2027945984	36	6526
2026-01-24 02:34:34.52	183.16	63.78	-32.3	-32.9	28.2	0.00e+00	0	42	0	2033188864	36	6376
2026-01-24 02:34:35.53	183.60	64.18	-31.7	-32.3	28.5	0.00e+00	0	42	0	2039480320	36	5951
2026-01-24 02:34:36.54	184.06	64.58	-32.1	-32.7	28.4	0.00e+00	0	42	0	2044723200	36	6195
2026-01-24 02:34:37.55	184.53	64.98	-32.7	-33.3	28.0	0.00e+00	0	42	0	2049966080	36	6658
2026-01-24 02:34:38.56	185.01	65.38	-32.4	-32.9	28.3	0.00e+00	0	42	0	2056257536	36	6382
2026-01-24 02:34:39.57	185.52	65.78	-32.6	-33.2	28.3	0.00e+00	0	42	0	2061500416	36	6564
2026-01-24 02:34:40.58	186.04	66.19	-32.2	-32.8	28.3	0.00e+00	0	42	0	2067791872	36	6278
2026-01-24 02:34:41.59	186.59	66.59	-32.0	-32.5	28.5	0.00e+00	0	42	0	2073034752	36	6093
2026-01-24 02:34:42.60	187.15	67.00	-31.9	-32.5	28.5	0.00e+00	0	42	0	2078277632	36	6061
2026-01-24 02:34:43.61	187.74	67.40	-31.9	-32.5	28.5	0.00e+00	0	42	0	2084569088	36	6080
2026-01-24 02:34:44.62	188.35	67.80	-32.1	-32.8	28.4	0.00e+00	0	42	0	2089811968	36	6247
2026-01-24 02:34:45.63	188.98	68.20	-32.0	-32.6	28.4	0.00e+00	0	42	0	2096103424	36	6160
2026-01-24 02:34:46.64	189.64	68.61	-32.0	-32.6	28.6	0.00e+00	0	42	0	2101346304	36	6138
2026-01-24 02:34:47.65	190.33	69.01	-31.8	-32.4	28.6	0.00e+00	0	42	0	2106589184	36	5983
2026-01-24 02:34:48.66	191.04	69.41	-31.6	-32.1	28.7	0.00e+00	0	42	0	2112880640	36	5816
2026-01-24 02:34:49.67	191.79	69.80	-32.0	-32.6	28.5	0.00e+00	0	42	0	2118123520	36	6147
2026-01-24 02:34:50.68	192.57	70.20	-32.0	-32.6	28.4	0.00e+00	0	42	0	2124414976	36	6150
2026-01-24 02:34:51.69	193.38	70.60	-31.9	-32.5	28.5	0.00e+00	0	42	0	2129657856	36	6046
2026-01-24 02:34:52.70	194.22	70.99	-31.6	-32.2	28.7	0.00e+00	0	42	0	2135949312	36	5850
2026-01-24 02:34:53.71	195.11	71.38	-31.6	-32.1	28.8	0.00e+00	0	42	0	2141192192	36	5825
2026-01-24 02:34:54.72	196.03	71.77	-31.4	-32.0	28.9	0.00e+00	0	42	0	2147483648	36	5731
2026-01-24 02:34:55.73	197.00	72.15	-31.3	-31.9	29.0	0.00e+00	0	42	0	2152726528	36	5689
2026-01-24 02:34:56.74	198.01	72.53	-31.4	-32.0	28.8	0.00e+00	0	42	0	2157969408	36	5758
2026-01-24 02:34:57.75	199.07	72.91	-31.3	-31.9	29.0	0.00e+00	0	42	0	2164260864	36	5649
2026-01-24 02:34:58.76	200.18	73.28	-30.8	-31.4	29.4	0.00e+00	0	42	0	2169503744	34	5972
2026-01-24 02:34:59.77	201.34	73.64	-31.2	-31.8	29.0	0.00e+00	0	42	0	2175795200	34	6250
2026-01-24 02:35:00.78	202.55	74.01	-31.5	-32.1	28.8	0.00e+00	0	42	0	2181038080	34	6534
2026-01-24 02:35:01.79	203.82	74.36	-31.0	-31.6	29.1	0.00e+00	0	42	0	2186280960	34	6128
2026-01-24 02:35:02.80	205.16	74.71	-31.0	-31.6	29.2	0.00e+00	0	42	0	2192572416	34	6105
2026-01-24 02:35:03.81	206.55	75.05	-30.5	-31.0	29.5	0.00e+00	0	42	0	2197815296	34	5754
2026-01-24 02:35:04.82	208.02	75.38	-30.7	-31.3	29.5	0.00e+00	0	42	0	2204106752	34	5912
2026-01-24 02:35:05.83	209.55	75.71	-30.7	-31.3	29.3	0.00e+00	0	42	0	2209349632	34	5927
2026-01-24 02:35:06.84	211.16	76.02	-30.8	-31.4	29.3	0.00e+00	0	42	0	2214592512	34	5969
2026-01-24 02:35:07.84	212.82	76.32	-30.5	-31.0	29.4	0.00e+00	0	42	0	2220883968	34	5726
2026-01-24 02:35:08.85	214.58	76.61	-30.6	-31.1	29.5	0.00e+00	0	42	0	2226126848	34	5828
2026-01-24 02:35:09.86	216.41	76.90	-30.4	-31.0	29.5	0.00e+00	0	42	0	2232418304	34	5731
2026-01-24 02:35:10.87	218.33	77.16	-30.8	-31.3	29.4	0.00e+00	0	42	0	2237661184	34	5943
2026-01-24 02:35:11.88	220.33	77.42	-30.7	-31.2	29.5	0.00e+00	0	42	0	2243952640	34	5880
2026-01-24 02:35:12.89	222.41	77.65	-30.7	-31.3	29.4	0.00e+00	0	42	0	2249195520	34	5952
2026-01-24 02:35:13.90	224.57	77.88	-30.7	-31.3	29.4	0.00e+00	0	42	0	2254438400	34	5926
2026-01-24 02:35:14.91	226.81	78.08	-30.7	-31.3	29.4	0.00e+00	0	42	0	2260729856	34	5911
2026-01-24 02:35:15.92	229.13	78.27	-30.7	-31.3	29.6	0.00e+00	0	42	0	2265972736	34	5930
2026-01-24 02:35:16.93	231.52	78.44	-30.7	-31.3	29.6	0.00e+00	0	42	0	2272264192	34	5913
2026-01-24 02:35:17.94	233.98	78.59	-31.0	-31.6	29.2	0.00e+00	0	42	0	2277507072	34	6171
2026-01-24 02:35:18.95	236.50	78.71	-30.9	-31.6	29.3	0.00e+00	0	42	0	2282749952	34	6116
2026-01-24 02:35:19.95	239.04	78.82	-31.1	-31.7	29.3	0.00e+00	0	42	0	2289041408	34	6186
2026-01-24 02:35:20.96	241.66	78.90	-31.2	-31.8	29.2	0.00e+00	0	42	0	2294284288	34	6293
2026-01-24 02:35:21.97	244.31	78.96	-30.6	-31.3	29.5	0.00e+00	0	42	0	2300575744	34	5897
2026-01-24 02:35:22.98	246.98	79.00	-30.6	-31.1	29.5	0.00e+00	0	42	0	2305818624	34	5811
2026-01-24 02:35:24.00	249.70	79.01	-30.9	-31.4	29.3	0.00e+00	0	42	0	2311061504	34	6032
2026-01-24 02:35:25.01	252.39	79.00	-30.5	-31.1	29.5	0.00e+00	0	42	0	2317352960	34	5799
2026-01-24 02:35:26.02	255.07	78.97	-30.6	-31.1	29.6	0.00e+00	0	42	0	2322595840	34	5786
2026-01-24 02:35:27.03	257.72	78.91	-30.6	-31.1	29.4	0.00e+00	0	42	0	2328887296	34	5827
2026-01-24 02:35:28.04	260.34	78.83	-30.8	-31.3	29.3	0.00e+00	0	42	0	2334130176	34	5963
2026-01-24 02:35:29.04	262.89	78.73	-30.9	-31.5	28.8	0.00e+00	0	42	0	2340421632	34	6070
2026-01-24 02:35:30.05	265.42	78.61	-30.8	-31.3	29.2	0.00e+00	0	42	0	2345664512	34	5959
2026-01-24 02:35:31.06	267.89	78.46	-30.6	-31.2	29.5	0.00e+00	0	42	0	2351955968	34	5853
2026-01-24 02:35:32.07	270.29	78.30	-30.5	-31.0	29.6	0.00e+00	0	42	0	2357198848	34	5755
2026-01-24 02:35:33.08	272.61	78.11	-30.7	-31.4	29.4	0.00e+00	0	42	0	2362441728	34	5972
2026-01-24 02:35:34.09	274.87	77.91	-30.8	-31.3	29.4	0.00e+00	0	42	0	2368733184	34	5961
2026-01-24 02:35:35.10	277.04	77.69	-30.8	-31.3	29.3	0.00e+00	0	42	0	2373976064	34	5958
2026-01-24 02:35:36.11	279.13	77.45	-30.9	-31.5	29.2	0.00e+00	0	42	0	2380267520	34	6095
2026-01-24 02:35:37.12	281.14	77.20	-31.0	-31.6	29.2	0.00e+00	0	42	0	2385510400	34	6124
2026-01-24 02:35:38.13	283.07	76.94	-30.9	-31.5	29.3	0.00e+00	0	42	0	2390753280	34	6080
2026-01-24 02:35:39.14	284.91	76.66	-31.0	-31.5	29.3	0.00e+00	0	42	0	2397044736	34	6101
2026-01-24 02:35:40.15	286.68	76.37	-31.2	-31.8	29.1	0.00e+00	0	42	0	2402287616	34	6282
2026-01-24 02:35:41.16	288.37	76.06	-31.0	-31.7	29.2	0.00e+00	0	42	0	2408579072	34	6174
2026-01-24 02:35:42.17	289.99	75.75	-31.1	-31.6	29.3	0.00e+00	0	42	0	2413821952	34	6172
2026-01-24 02:35:43.18	291.53	75.43	-31.0	-31.5	29.2	0.00e+00	0	42	0	2419064832	34	6101
2026-01-24 02:35:44.19	293.00	75.10	-31.3	-32.0	29.0	0.00e+00	0	42	0	2425356288	34	6398
2026-01-24 02:35:45.20	294.41	74.76	-31.2	-31.9	29.1	0.00e+00	0	42	0	2430599168	34	6345
2026-01-24 02:35:46.20	295.74	74.42	-31.2	-31.7	29.1	0.00e+00	0	42	0	2436890624	34	6208
2026-01-24 02:35:47.21	297.02	74.06	-31.5	-32.0	28.9	0.00e+00	0	42	0	2442133504	34	6438
2026-01-24 02:35:48.22	298.24	73.70	-31.3	-31.9	28.9	0.00e+00	0	42	0	2448424960	34	6367
2026-01-24 02:35:49.23	299.41	73.34	-31.4	-31.9	28.9	0.00e+00	0	42	0	2453667840	34	6351
2026-01-24 02:35:50.24	300.52	72.97	-31.9	-32.5	28.7	0.00e+00	0	42	0	2458910720	36	6066
2026-01-24 02:35:51.25	301.58	72.59	-31.5	-32.0	28.9	0.00e+00	0	42	0	2465202176	36	5758
2026-01-24 02:35:52.26	302.60	72.21	-31.9	-32.5	28.7	0.00e+00	0	42	0	2470445056	36	6092
2026-01-24 02:35:53.27	303.57	71.83	-31.9	-32.5	28.6	0.00e+00	0	42	0	2476736512	36	6070
2026-01-24 02:35:54.28	304.50	71.44	-31.6	-32.1	28.8	0.00e+00	0	42	0	2481979392	36	5824
2026-01-24 02:35:55.29	305.39	71.06	-31.7	-32.3	28.7	0.00e+00	0	42	0	2487222272	36	5915
2026-01-24 02:35:56.30	306.25	70.66	-31.9	-32.4	28.6	0.00e+00	0	42	0	2493513728	36	6019
2026-01-24 02:35:57.32	307.07	70.27	-31.7	-32.2	28.8	0.00e+00	0	42	0	2498756608	36	5871
2026-01-24 02:35:58.33	307.85	69.87	-31.7	-32.2	28.8	0.00e+00	0	42	0	2505048064	36	5866
2026-01-24 02:35:59.34	308.60	69.47	-32.0	-32.7	28.4	0.00e+00	0	42	0	2510290944	36	6187
2026-01-24 02:36:00.35	309.32	69.07	-32.5	-33.1	28.2	0.00e+00	0	42	0	2515533824	36	6519
2026-01-24 02:36:01.36	310.01	68.67	-32.3	-32.9	28.4	0.00e+00	0	42	0	2521825280	36	6363
2026-01-24 02:36:02.37	310.67	68.27	-32.0	-32.7	28.5	0.00e+00	0	42	0	2527068160	36	6205
2026-01-24 02:36:03.38	311.31	67.87	-32.2	-32.9	28.4	0.00e+00	0	42	0	2533359616	36	6342
2026-01-24 02:36:04.39	311.92	67.47	-32.2	-32.9	28.3	0.00e+00	0	42	0	2538602496	36	6345
2026-01-24 02:36:05.40	312.51	67.07	-32.0	-32.6	28.5	0.00e+00	0	42	0	2544893952	36	6119
2026-01-24 02:36:06.41	313.08	66.66	-32.0	-32.6	28.5	0.00e+00	0	42	0	2550136832	36	6155
2026-01-24 02:36:07.42	313.63	66.26	-32.4	-33.1	28.3	0.00e+00	0	42	0	2556428288	36	6479
2026-01-24 02:36:08.43	314.15	65.86	-32.3	-32.9	28.3	0.00e+00	0	42	0	2561671168	36	6382
2026-01-24 02:36:09.44	314.66	65.46	-31.7	-32.3	28.7	0.00e+00	0	42	0	2566914048	36	5906
2026-01-24 02:36:10.45	315.15	65.06	-31.8	-32.5	28.4	0.00e+00	0	42	0	2573205504	36	6076
2026-01-24 02:36:11.45	315.62	64.66	-32.4	-33.1	28.2	0.00e+00	0	42	0	2578448384	36	6477
2026-01-24 02:36:12.47	316.08	64.25	-32.5	-33.1	28.2	0.00e+00	0	42	0	2584739840	36	6494
2026-01-24 02:36:13.47	316.51	63.86	-32.2	-32.7	28.2	0.00e+00	0	42	0	2589982720	36	6245
2026-01-24 02:36:14.48	316.94	63.46	-32.3	-32.8	28.3	0.00e+00	0	42	0	2595225600	36	6278
2026-01-24 02:36:15.49	317.35	63.06	-32.7	-33.4	28.1	0.00e+00	0	42	0	2601517056	36	6742
2026-01-24 02:36:16.50	317.75	62.66	-32.7	-33.2	28.2	0.00e+00	0	42	0	2606759936	38	5880
2026-01-24 02:36:17.51	318.14	62.27	-32.4	-32.9	28.4	0.00e+00	0	42	0	2613051392	38	5675
2026-01-24 02:36:18.52	318.51	61.87	-32.4	-33.0	28.3	0.00e+00	0	42	0	2618294272	38	5696
2026-01-24 02:36:19.53	318.87	61.48	-32.7	-33.4	28.0	0.00e+00	0	42	0	2623537152	38	5973
2026-01-24 02:36:20.54	319.22	61.09	-32.6	-33.2	28.0	0.00e+00	0	42	0	2629828608	38	5857
2026-01-24 02:36:21.55	319.56	60.70	-32.6	-33.2	28.1	0.00e+00	0	42	0	2635071488	38	5858
2026-01-24 02:36:22.56	319.89	60.31	-32.6	-33.1	28.1	0.00e+00	0	42	0	2641362944	38	5792
2026-01-24 02:36:23.57	320.21	59.92	-32.9	-33.5	27.8	0.00e+00	0	42	0	2646605824	38	6043
2026-01-24 02:36:24.58	320.53	59.54	-33.2	-33.7	27.7	0.00e+00	0	42	0	2652897280	38	6223
2026-01-24 02:36:25.59	320.83	59.15	-33.1	-33.7	27.8	0.00e+00	0	42	0	2658140160	38	6191
2026-01-24 02:36:26.60	321.12	58.77	-32.9	-33.5	27.8	0.00e+00	0	42	0	2663383040	38	6044
2026-01-24 02:36:27.61	321.41	58.39	-33.1	-33.7	27.7	0.00e+00	0	42	0	2669674496	38	6180
2026-01-24 02:36:28.62	321.68	58.01	-33.4	-33.9	27.6	0.00e+00	0	42	0	2674917376	38	6355
2026-01-24 02:36:29.64	321.96	57.63	-33.5	-34.2	27.4	0.00e+00	0	42	0	2681208832	38	6569
2026-01-24 02:36:30.65	322.22	57.26	-33.5	-34.0	27.5	0.00e+00	0	42	0	2686451712	38	6459
2026-01-24 02:36:31.66	322.47	56.89	-33.8	-34.3	27.2	0.00e+00	0	42	0	2692743168	40	5949
2026-01-24 02:36:32.67	322.72	56.52	-34.2	-34.9	26.9	0.00e+00	0	42	0	2697986048	40	6349
2026-01-24 02:36:33.74	322.98	56.12	-34.1	-34.8	26.8	0.00e+00	0	42	0	2703228928	40	6315
2026-01-24 02:36:34.61	323.18	55.81	-34.0	-34.6	27.0	0.00e+00	0	42	0	2708471808	40	6105
2026-01-24 02:36:35.76	323.44	55.39	-33.4	-33.9	27.4	0.00e+00	0	42	0	2714763264	40	5694
2026-01-24 02:36:36.63	323.64	55.08	-33.6	-34.1	27.3	0.00e+00	0	42	0	2720006144	40	5818
2026-01-24 02:36:37.78	323.89	54.67	-34.0	-34.7	26.9	0.00e+00	0	42	0	2726297600	40	6232
2026-01-24 02:36:38.65	324.07	54.36	-34.1	-34.7	26.6	0.00e+00	0	42	0	2731540480	40	6212
2026-01-24 02:36:39.80	324.31	53.96	-33.7	-34.4	27.0	0.00e+00	0	42	0	2737831936	40	6011
2026-01-24 02:36:40.66	324.48	53.65	-33.7	-34.3	27.2	0.00e+00	0	42	0	2742026240	40	5940
2026-01-24 02:36:41.82	324.71	53.25	-33.8	-34.5	27.0	0.00e+00	0	42	0	2749366272	40	6045
2026-01-24 02:36:42.68	324.87	52.95	-33.9	-34.7	27.0	0.00e+00	0	42	0	2753560576	40	6179
2026-01-24 02:36:43.84	325.09	52.55	-33.9	-34.5	27.0	0.00e+00	0	42	0	2760900608	40	6063
2026-01-24 02:36:44.70	325.25	52.26	-33.6	-34.3	27.3	0.00e+00	0	42	0	2765094912	40	5914
2026-01-24 02:36:45.86	325.46	51.86	-33.0	-33.7	27.7	0.00e+00	0	42	0	2771386368	40	5547
2026-01-24 02:36:46.72	325.61	51.57	-32.9	-33.5	27.8	0.00e+00	0	42	0	2776629248	40	5387
2026-01-24 02:36:47.88	325.81	51.18	-32.8	-33.4	27.8	0.00e+00	0	42	0	2782920704	38	6028
2026-01-24 02:36:48.74	325.95	50.90	-32.9	-33.5	27.9	0.00e+00	0	42	0	2788163584	38	6034
2026-01-24 02:36:49.89	326.14	50.51	-32.9	-33.4	27.9	0.00e+00	0	42	0	2794455040	38	6023
2026-01-24 02:36:50.76	326.28	50.23	-33.1	-33.7	27.7	0.00e+00	0	42	0	2799697920	38	6182
2026-01-24 02:36:51.92	326.46	49.85	-33.1	-33.8	27.7	0.00e+00	0	42	0	2805989376	38	6297
2026-01-24 02:36:52.78	326.59	49.57	-33.3	-34.0	27.5	0.00e+00	0	42	0	2811232256	38	6414
2026-01-24 02:36:53.94	326.77	49.19	-33.0	-33.7	27.6	0.00e+00	0	42	0	2817523712	38	6200
2026-01-24 02:36:54.81	326.90	48.91	-33.0	-33.6	27.7	0.00e+00	0	42	0	2821718016	38	6158
2026-01-24 02:36:55.96	327.06	48.55	-33.5	-34.1	27.4	0.00e+00	0	42	0	2828009472	38	6532
2026-01-24 02:36:56.83	327.19	48.27	-33.2	-33.9	27.4	0.00e+00	0	42	0	2833252352	38	6367
2026-01-24 02:36:57.98	327.35	47.91	-33.0	-33.5	27.7	0.00e+00	0	42	0	2839543808	38	6090
2026-01-24 02:36:58.85	327.46	47.64	-33.3	-33.9	27.5	0.00e+00	0	42	0	2844786688	38	6355
2026-01-24 02:37:00.00	327.62	47.28	-33.2	-33.8	27.5	0.00e+00	0	42	0	2851078144	38	6295
2026-01-24 02:37:00.87	327.73	47.01	-33.2	-33.9	27.6	0.00e+00	0	42	0	2856321024	38	6389
2026-01-24 02:37:02.02	327.88	46.66	-33.2	-33.8	27.7	0.00e+00	0	42	0	2862612480	38	6249
2026-01-24 02:37:02.88	327.99	46.40	-32.9	-33.4	27.9	0.00e+00	0	42	0	2867855360	38	6023
2026-01-24 02:37:04.03	328.13	46.06	-32.7	-33.2	28.0	0.00e+00	0	42	0	2874146816	38	5885
2026-01-24 02:37:04.90	328.24	45.79	-32.7	-33.4	27.8	0.00e+00	0	42	0	2878341120	38	5996
2026-01-24 02:37:06.05	328.37	45.45	-32.7	-33.3	27.9	0.00e+00	0	42	0	2885681152	38	5900
2026-01-24 02:37:06.92	328.47	45.20	-32.9	-33.5	28.0	0.00e+00	0	42	0	2889875456	38	6092
2026-01-24 02:37:08.07	328.61	44.86	-32.8	-33.3	27.9	0.00e+00	0	42	0	2897215488	38	5953
2026-01-24 02:37:08.94	328.70	44.61	-32.6	-33.2	28.0	0.00e+00	0	42	0	2901409792	38	5835
2026-01-24 02:37:10.09	328.83	44.27	-32.5	-33.2	28.1	0.00e+00	0	42	0	2907701248	38	5833
2026-01-24 02:37:10.96	328.93	44.02	-32.6	-33.3	28.0	0.00e+00	0	42	0	2912944128	38	5940
2026-01-24 02:37:12.12	329.05	43.69	-32.7	-33.4	27.9	0.00e+00	0	42	0	2919235584	38	6012
2026-01-24 02:37:12.98	329.14	43.45	-32.9	-33.6	27.8	0.00e+00	0	42	0	2924478464	38	6116
2026-01-24 02:37:14.14	329.26	43.12	-32.9	-33.4	27.9	0.00e+00	0	42	0	2930769920	38	5995
2026-01-24 02:37:15.00	329.35	42.88	-32.9	-33.5	27.8	0.00e+00	0	42	0	2936012800	38	6049
2026-01-24 02:37:16.15	329.46	42.57	-32.7	-33.3	28.0	0.00e+00	0	42	0	2942304256	38	5898
2026-01-24 02:37:17.02	329.55	42.33	-32.8	-33.4	27.9	0.00e+00	0	42	0	2947547136	38	5987
2026-01-24 02:37:18.18	329.66	42.01	-32.5	-33.0	28.2	0.00e+00	0	42	0	2953838592	38	5734
2026-01-24 02:37:19.04	329.74	41.78	-32.4	-32.9	28.1	0.00e+00	0	42	0	2958032896	38	5652
2026-01-24 02:37:20.20	329.85	41.46	-32.4	-32.9	28.2	0.00e+00	0	42	0	2965372928	38	5656
2026-01-24 02:37:21.06	329.93	41.23	-32.1	-32.6	28.4	0.00e+00	0	42	0	2969567232	38	5500
2026-01-24 02:37:22.21	330.04	40.93	-32.0	-32.5	28.4	0.00e+00	0	42	0	2975858688	38	5421
2026-01-24 02:37:23.08	330.11	40.70	-32.0	-32.7	28.5	0.00e+00	0	42	0	2981101568	38	5512
2026-01-24 02:37:24.23	330.22	40.40	-32.0	-32.6	28.5	0.00e+00	0	42	0	2987393024	38	5452
2026-01-24 02:37:25.10	330.29	40.17	-31.9	-32.4	28.6	0.00e+00	0	42	0	2992635904	38	5370
2026-01-24 02:37:26.25	330.39	39.88	-31.9	-32.5	28.5	0.00e+00	0	42	0	2998927360	38	5429
2026-01-24 02:37:27.12	330.46	39.65	-32.1	-32.7	28.4	0.00e+00	0	42	0	3004170240	38	5565
2026-01-24 02:37:28.28	330.56	39.36	-32.2	-32.9	28.3	0.00e+00	0	42	0	3010461696	38	5636
2026-01-24 02:37:29.14	330.63	39.14	-32.2	-32.7	28.3	0.00e+00	0	42	0	3015704576	38	5527
2026-01-24 02:37:30.30	330.72	38.85	-32.3	-32.8	28.2	0.00e+00	0	42	0	3021996032	38	5607
2026-01-24 02:37:31.16	330.79	38.64	-32.4	-32.9	28.2	0.00e+00	0	42	0	3026190336	38	5657
2026-01-24 02:37:32.32	330.88	38.35	-32.2	-32.9	28.3	0.00e+00	0	42	0	3033530368	38	5633
2026-01-24 02:37:33.19	330.95	38.14	-32.2	-32.7	28.2	0.00e+00	0	42	0	3037724672	38	5535
2026-01-24 02:37:34.34	331.03	37.86	-32.1	-32.6	28.2	0.00e+00	0	42	0	3044016128	38	5483
2026-01-24 02:37:35.20	331.10	37.65	-32.3	-32.9	28.3	0.00e+00	0	42	0	3049259008	38	5648
2026-01-24 02:37:36.36	331.18	37.37	-32.2	-32.9	28.4	0.00e+00	0	42	0	3055550464	38	5642
2026-01-24 02:37:37.22	331.25	37.17	-32.2	-32.8	28.4	0.00e+00	0	42	0	3060793344	38	5630
2026-01-24 02:37:38.38	331.33	36.89	-32.3	-32.8	28.3	0.00e+00	0	42	0	3067084800	38	5590
2026-01-24 02:37:39.24	331.39	36.69	-32.4	-32.9	28.2	0.00e+00	0	42	0	3072327680	38	5649
2026-01-24 02:37:40.40	331.47	36.42	-32.4	-33.0	28.2	0.00e+00	0	42	0	3078619136	38	5750
2026-01-24 02:37:41.26	331.53	36.22	-32.4	-33.1	28.0	0.00e+00	0	42	0	3082813440	38	5791
2026-01-24 02:37:42.42	331.61	35.95	-32.4	-33.0	28.1	0.00e+00	0	42	0	3090153472	38	5704
2026-01-24 02:37:43.28	331.67	35.76	-32.5	-33.0	28.1	0.00e+00	0	42	0	3094347776	38	5744
2026-01-24 02:37:44.43	331.74	35.50	-32.4	-33.0	28.2	0.00e+00	0	42	0	3101687808	38	5708
2026-01-24 02:37:45.30	331.80	35.30	-32.4	-32.9	28.1	0.00e+00	0	42	0	3105882112	38	5687
2026-01-24 02:37:46.45	331.87	35.04	-32.4	-33.1	28.1	0.00e+00	0	42	0	3112173568	38	5780
2026-01-24 02:37:47.32	331.93	34.85	-32.5	-33.1	28.1	0.00e+00	0	42	0	3117416448	38	5772
2026-01-24 02:37:48.47	332.00	34.60	-32.5	-33.1	27.9	0.00e+00	0	42	0	3123707904	38	5777
2026-01-24 02:37:49.34	332.05	34.41	-32.7	-33.3	28.0	0.00e+00	0	42	0	3128950784	38	5950
2026-01-24 02:37:50.49	332.12	34.16	-32.4	-33.1	28.1	0.00e+00	0	42	0	3135242240	38	5782
2026-01-24 02:37:51.36	332.18	33.97	-32.3	-33.0	28.1	0.00e+00	0	42	0	3140485120	38	5709
2026-01-24 02:37:52.51	332.25	33.72	-32.3	-33.0	28.2	0.00e+00	0	42	0	3146776576	38	5716
2026-01-24 02:37:53.38	332.30	33.54	-32.4	-32.9	28.1	0.00e+00	0	42	0	3152019456	38	5656
2026-01-24 02:37:54.53	332.36	33.29	-32.4	-32.9	28.3	0.00e+00	0	42	0	3158310912	38	5671
2026-01-24 02:37:55.40	332.41	33.11	-32.3	-32.8	28.2	0.00e+00	0	42	0	3162505216	38	5616
2026-01-24 02:37:56.55	332.48	32.87	-32.5	-33.0	28.1	0.00e+00	0	42	0	3169845248	38	5709
2026-01-24 02:37:57.42	332.53	32.69	-32.4	-32.9	28.2	0.00e+00	0	42	0	3174039552	38	5666
2026-01-24 02:37:58.57	332.59	32.45	-32.3	-32.8	28.2	0.00e+00	0	42	0	3181379584	38	5623
2026-01-24 02:37:59.44	332.64	32.27	-32.4	-33.1	28.1	0.00e+00	0	42	0	3185573888	38	5764
2026-01-24 02:38:00.59	332.70	32.04	-32.5	-33.2	28.1	0.00e+00	0	42	0	3191865344	38	5850
2026-01-24 02:38:01.46	332.75	31.87	-32.5	-33.1	28.1	0.00e+00	0	42	0	3197108224	38	5820
2026-01-24 02:38:02.61	332.81	31.64	-32.6	-33.3	28.1	0.00e+00	0	42	0	3203399680	38	5906
2026-01-24 02:38:03.47	332.85	31.46	-32.6	-33.3	27.9	0.00e+00	0	42	0	3208642560	38	5903
2026-01-24 02:38:04.63	332.91	31.24	-32.5	-33.2	28.0	0.00e+00	0	42	0	3214934016	38	5878
2026-01-24 02:38:05.49	332.96	31.07	-32.6	-33.3	28.0	0.00e+00	0	42	0	3220176896	38	5900
2026-01-24 02:38:06.65	333.02	30.84	-32.6	-33.3	27.9	0.00e+00	0	42	0	3226468352	38	5931
2026-01-24 02:38:07.51	333.06	30.67	-32.6	-33.2	28.0	0.00e+00	0	42	0	3230662656	38	5894
2026-01-24 02:38:08.67	333.12	30.45	-32.6	-33.3	27.9	0.00e+00	0	42	0	3238002688	38	5921
2026-01-24 02:38:09.54	333.16	30.28	-32.6	-33.3	27.9	0.00e+00	0	42	0	3242196992	38	5940
2026-01-24 02:38:10.69	333.22	30.07	-32.6	-33.3	27.9	0.00e+00	0	42	0	3248488448	38	5954
2026-01-24 02:38:11.55	333.26	29.90	-32.7	-33.4	27.9	0.00e+00	0	42	0	3253731328	38	5979
2026-01-24 02:38:12.71	333.31	29.69	-32.6	-33.3	28.0	0.00e+00	0	42	0	3260022784	38	5917
2026-01-24 02:38:13.57	333.35	29.53	-32.8	-33.4	27.8	0.00e+00	0	42	0	3265265664	38	6029
2026-01-24 02:38:14.73	333.41	29.31	-32.6	-33.3	27.9	0.00e+00	0	42	0	3271557120	38	5933
2026-01-24 02:38:15.60	333.45	29.15	-32.7	-33.4	27.9	0.00e+00	0	42	0	3276800000	38	6013
2026-01-24 02:38:16.75	333.50	28.94	-32.9	-33.6	27.8	0.00e+00	0	42	0	3283091456	38	6106
2026-01-24 02:38:17.61	333.54	28.79	-32.7	-33.4	27.9	0.00e+00	0	42	0	3287285760	38	5976
2026-01-24 02:38:18.77	333.59	28.58	-32.9	-33.6	27.8	0.00e+00	0	42	0	3294625792	38	6128
2026-01-24 02:38:19.63	333.63	28.42	-32.8	-33.3	27.7	0.00e+00	0	42	0	3298820096	38	5964
2026-01-24 02:38:20.79	333.68	28.22	-32.8	-33.3	27.8	0.00e+00	0	42	0	3306160128	38	5959
2026-01-24 02:38:21.65	333.71	28.06	-32.7	-33.2	27.9	0.00e+00	0	42	0	3310354432	38	5882
2026-01-24 02:38:22.81	333.76	27.86	-32.8	-33.4	27.8	0.00e+00	0	42	0	3316645888	38	5969
2026-01-24 02:38:23.67	333.80	27.71	-32.7	-33.3	27.8	0.00e+00	0	42	0	3321888768	38	5916
2026-01-24 02:38:24.82	333.85	27.51	-32.8	-33.3	27.7	0.00e+00	0	42	0	3328180224	38	5955
2026-01-24 02:38:25.69	333.88	27.36	-32.8	-33.4	27.8	0.00e+00	0	42	0	3333423104	38	5980
2026-01-24 02:38:26.84	333.93	27.16	-32.8	-33.6	27.7	0.00e+00	0	42	0	3339714560	38	6106
2026-01-24 02:38:27.71	333.97	27.02	-32.8	-33.4	27.8	0.00e+00	0	42	0	3344957440	38	6029
2026-01-24 02:38:28.86	334.01	26.82	-32.8	-33.3	27.8	0.00e+00	0	42	0	3351248896	38	5951
2026-01-24 02:38:29.73	334.05	26.68	-32.8	-33.5	27.8	0.00e+00	0	42	0	3356491776	38	6085
2026-01-24 02:38:30.88	334.09	26.48	-33.0	-33.5	27.6	0.00e+00	0	42	0	3362783232	38	6077
2026-01-24 02:38:31.75	334.13	26.34	-32.8	-33.3	27.7	0.00e+00	0	42	0	3366977536	38	5942
2026-01-24 02:38:32.90	334.17	26.15	-32.8	-33.3	27.7	0.00e+00	0	42	0	3374317568	38	5945
2026-01-24 02:38:33.77	334.21	26.01	-32.8	-33.4	27.7	0.00e+00	0	42	0	3378511872	38	5972
2026-01-24 02:38:34.92	334.25	25.82	-33.0	-33.6	27.6	0.00e+00	0	42	0	3384803328	38	6170
2026-01-24 02:38:35.78	334.28	25.68	-33.0	-33.7	27.6	0.00e+00	0	42	0	3390046208	38	6199
2026-01-24 02:38:36.94	334.33	25.49	-33.2	-33.7	27.5	0.00e+00	0	42	0	3396337664	38	6210
2026-01-24 02:38:37.81	334.36	25.35	-33.3	-33.8	27.4	0.00e+00	0	42	0	3401580544	38	6283
2026-01-24 02:38:38.96	334.40	25.17	-32.9	-33.4	27.7	0.00e+00	0	42	0	3407872000	38	6033
2026-01-24 02:38:39.83	334.43	25.03	-33.0	-33.5	27.6	0.00e+00	0	42	0	3413114880	38	6051
2026-01-24 02:38:40.98	334.47	24.85	-33.0	-33.5	27.6	0.00e+00	0	42	0	3419406336	38	6101
2026-01-24 02:38:41.85	334.50	24.72	-33.2	-33.7	27.5	0.00e+00	0	42	0	3424649216	38	6221
2026-01-24 02:38:43.00	334.54	24.54	-33.2	-33.7	27.5	0.00e+00	0	42	0	3430940672	38	6219
2026-01-24 02:38:43.87	334.58	24.40	-33.2	-33.7	27.6	0.00e+00	0	42	0	3436183552	38	6230
2026-01-24 02:38:45.02	334.62	24.23	-33.3	-33.8	27.4	0.00e+00	0	42	0	3442475008	38	6300
2026-01-24 02:38:45.89	334.65	24.10	-33.2	-33.7	27.4	0.00e+00	0	42	0	3446669312	38	6244
2026-01-24 02:38:47.04	334.68	23.92	-33.2	-33.8	27.4	0.00e+00	0	42	0	3452960768	38	6262
2026-01-24 02:38:47.91	334.71	23.79	-33.3	-33.9	27.2	0.00e+00	0	42	0	3458203648	38	6351
2026-01-24 02:38:49.07	334.75	23.62	-33.6	-34.2	27.2	0.00e+00	0	42	0	3464495104	38	6552
2026-01-24 02:38:49.93	334.78	23.49	-33.4	-34.0	27.2	0.00e+00	0	42	0	3469737984	38	6399
2026-01-24 02:38:51.09	334.82	23.32	-33.5	-34.0	27.2	0.00e+00	0	42	0	3476029440	38	6451
2026-01-24 02:38:51.96	334.85	23.19	-33.6	-34.2	27.1	0.00e+00	0	42	0	3481272320	38	6584
2026-01-24 02:38:53.11	334.89	23.02	-33.4	-34.0	27.2	0.00e+00	0	42	0	3487563776	38	6425
2026-01-24 02:38:53.98	334.91	22.89	-33.5	-34.0	27.2	0.00e+00	0	42	0	3492806656	38	6438
2026-01-24 02:38:55.13	334.95	22.73	-33.5	-34.1	27.1	0.00e+00	0	42	0	3499098112	38	6477
2026-01-24 02:38:56.00	334.98	22.60	-33.3	-33.8	27.3	0.00e+00	0	42	0	3503292416	38	6305
2026-01-24 02:38:57.15	335.02	22.44	-33.5	-34.1	27.1	0.00e+00	0	42	0	3510632448	38	6483
2026-01-24 02:38:58.01	335.04	22.31	-33.6	-34.2	27.0	0.00e+00	0	42	0	3514826752	38	6557
2026-01-24 02:38:59.17	335.08	22.15	-33.5	-34.1	27.1	0.00e+00	0	42	0	3521118208	38	6482
2026-01-24 02:39:00.03	335.10	22.03	-33.6	-34.2	27.1	0.00e+00	0	42	0	3526361088	38	6569
2026-01-24 02:39:01.19	335.14	21.87	-33.6	-34.3	27.1	0.00e+00	0	42	0	3532652544	38	6628
2026-01-24 02:39:02.05	335.17	21.75	-33.9	-34.5	26.8	0.00e+00	0	42	0	3537895424	40	6053
2026-01-24 02:39:03.20	335.20	21.59	-33.8	-34.5	26.9	0.00e+00	0	42	0	3544186880	40	6096
2026-01-24 02:39:04.07	335.23	21.47	-33.6	-34.3	27.0	0.00e+00	0	42	0	3549429760	40	5949
2026-01-24 02:39:05.22	335.26	21.31	-33.8	-34.4	26.9	0.00e+00	0	42	0	3555721216	40	5987
2026-01-24 02:39:06.08	335.29	21.19	-33.5	-34.1	27.1	0.00e+00	0	42	0	3560964096	40	5762
2026-01-24 02:39:07.24	335.32	21.03	-33.7	-34.4	26.9	0.00e+00	0	42	0	3567255552	40	5989
2026-01-24 02:39:08.11	335.34	20.92	-33.8	-34.4	26.8	0.00e+00	0	42	0	3571449856	40	6003
2026-01-24 02:39:09.26	335.38	20.76	-33.8	-34.3	26.8	0.00e+00	0	42	0	3577741312	40	5956
2026-01-24 02:39:10.12	335.40	20.65	-33.8	-34.4	26.8	0.00e+00	0	42	0	3582984192	40	5983
